ncols 200
nrows 82
xllcorner 280000
yllcorner 673550
cellsize 50
105.7 105.2 104.7 104.8 104.7 105.1 105.7 106.7 107.7 108.5 107.9 106.5 105.6 106.9 100.7 100.7 106.3 111.8 112.3 109.4 109.9 111.1 111.6 111.5 111.5 111.8 112.3 113.3 114.2 114.4 115.1 115.8 116.7 115.9 115.3 114.8 114.9 114.8 114.7 114.7 116.2 117.9 118.9 118.8 118.6 119.4 120.5 121 120.4 120 120 119.9 119.7 120.4 121.2 122 123.7 124.6 125.4 125.5 125.3 124.7 124.2 124.2 124.6 124.3 122.2 122.1 125.5 127.5 128.4 128.3 128.3 128.2 128.1 128.2 128.3 128.3 128.3 128.4 128.6 129.1 129 128.7 128.5 129.7 130.5 130.7 130.9 130.5 129.5 128.5 126.9 125.2 124.1 122.6 120.2 117.6 115.6 115 114.5 113.7 113.7 113.7 113.7 114 114.4 113.8 113.7 112.8 112.3 112.1 113.8 115.8 115.6 115.5 114.8 115.9 116.2 116 116.9 117.2 116.4 122.1 124.9 119.9 115.8 118.6 119.9 120.4 120 122.1 122 123.3 123.9 123.4 123.4 123.4 122.9 119.6 122.4 127.2 130 130.9 131.1 131.2 131.6 132.3 132.6 133.1 133.3 133.4 133.3 132.5 131.4 129.5 127.6 124.6 121.9 119.1 115.8 113.6 112.7 112 111.2 109.3 107.1 107.6 108.1 108.4 108.8 107.5 100.4 100.1 107.5 111.3 113.9 116.4 115.4 115.7 117.1 118.5 119.9 121 121.2 122 122.6 123.7 124.4 124.4 123.3 122.7 120.6 119.5 118 116.2 117.4 116.6 116.2 117.2
104.9 104.8 104.6 104.7 105 105.5 106.1 106.6 108.5 107.3 106.6 106.4 106.1 106.4 106.3 100.7 102.7 106.7 108.4 107.5 109.7 114.4 114.7 112.1 112.2 112.4 112.5 113.5 114.7 114.7 115.7 115.9 115.9 116.1 115.5 114.9 114.8 114.7 114.6 114.6 115.7 117.4 118.7 118.8 118.4 117.8 117.4 121.4 119.9 119.5 119.6 119.5 119.8 120.6 121.4 122.9 124.4 125.9 125.3 125.4 125.1 124.6 124.4 124.2 124.3 123.8 122.8 122.8 125.5 127.8 128.8 128.9 128.9 128.3 128.3 128.4 128.5 128.5 128.5 128.8 129.1 129.5 129.6 129.5 129.3 129.4 129 128.2 127.4 126.7 125.7 124.1 122.7 121.4 120.8 120.8 116.9 117 116.5 116.5 116.9 117.2 116.3 116.7 116.7 116.1 114.8 114.2 114 114.2 114.1 113.4 115.9 117.3 117.7 119.4 118.9 118.6 118.6 117.7 116.6 117.5 121.5 126.5 128.2 123.3 124.7 126.7 125.2 125.4 126.3 128 128.6 129.3 129.5 128.5 128.3 128.8 128.2 126.8 125.1 128.6 130.7 130.7 130.9 130.9 132.2 134.3 134.2 133.5 133.3 133.2 133.2 132.9 131.8 130.7 129.5 128.3 126.2 123.4 119.6 117.8 116.6 116.1 114.6 111.5 109.7 112.2 112.8 113.3 114.3 113.6 110.8 100.2 112.7 116.8 118.2 118.8 119.5 120.1 121.3 123.2 124.3 125.3 126.4 127.3 128.1 129 129.4 129.9 129.4 128.7 127.5 126.1 124.2 124.1 124.2 124 123.7 124
104.4 104.5 104.9 105.6 106.1 106.6 106.9 106.9 107.8 107.7 107.5 107 106.8 107.7 107.1 104.3 103 103.6 104.4 108.1 109.3 114.7 116.1 112.9 112.6 112.6 112.6 117.5 119.7 117.4 117.8 118.4 117.5 118.8 117.4 116.3 114.7 114.7 114.5 114.6 115.4 116.5 117.8 118.5 117.1 117 117.4 115.7 116.6 118.1 119.1 119.6 119.7 120.6 121.6 123 124 125.3 124.9 125 124.8 124.9 124.9 124.8 124.7 124.3 122.5 124 126 127.9 128.8 129.2 129.1 128.4 128.4 128.5 128.6 128.8 129 129.2 128.9 128.5 128.8 128.3 127.8 127.3 126.3 125.2 123.8 122.7 121.7 120.7 119.9 119 118.5 119.3 117.6 117.7 117.9 118.7 119.1 119.1 119.7 118.9 118.4 117.5 116.2 115.6 117.1 117.6 116.7 116 117.3 117.6 118.2 121.1 125.5 124.6 120.8 122.6 122.6 125.1 128.9 132.5 132.8 128.3 133.2 133.4 131.2 131.6 132.8 134.2 134.9 135.4 135.3 134.6 132.2 131.6 132 131 129.5 131.8 133 133.2 132.8 132.3 132.8 134.6 134.8 134.1 133.8 134 135 136 136.3 136.4 136.2 134.4 132.3 129 126.9 125.1 123.2 121.5 119.8 118 115.8 117.3 118.8 118.4 118.4 118.6 118.1 108.5 117.9 121.1 121.2 122.4 123.7 124.5 125.8 127.9 129.3 130.5 132 133.6 134.9 135.1 135.2 135.5 135.5 134.6 133.3 132.3 130.5 130.2 130.1 130.8 131.3 130.9
105.4 105.5 105.9 106.6 107.2 107.6 107.9 107.9 108 108.6 109.7 108.5 108.2 107.9 107.3 107.1 105.8 105.3 101.5 103.9 106.8 109.3 113.3 111.6 110.9 110.4 111.3 116.5 118.2 118.1 116.4 116.6 119 119.8 120.6 120.6 119 115.7 115.1 114.8 115.5 114.9 115.6 116 116 116.5 116.6 116.9 115.8 117.4 118.3 117.9 119 120.5 121.4 122.6 123.4 124.1 124.4 124.9 125.1 125.7 125.8 125.8 125.9 125.5 124.5 125.5 126.5 127.4 128.5 129.2 129.1 128.8 128.8 128.9 129.1 129.3 129.4 129.3 128.7 127.9 127.2 126.6 126 125.3 124.6 123.2 122 121.3 120.5 119.9 119.3 118.6 118 118.5 118.9 119.3 119.6 120.9 121.3 121.5 123.2 120.9 119.8 118.8 117.8 118.8 119.7 120.7 120.6 119.3 121.3 121.3 120.8 124 127.7 126.1 122.6 124.8 126 130.7 135.7 137.1 135.1 134 134.9 135.6 135.8 137.5 138.8 139.5 140.2 141.3 140.7 139.5 137.2 133.9 134 134.2 132.8 133.1 134 134.9 135.1 134.9 135.3 135.8 136.3 136.9 138.3 139.9 141.7 143 144.1 143.7 142.3 139.9 136.2 133.8 133.1 131.5 129.6 129.2 126.4 125.1 123.6 124 124.9 123.7 123.4 123.2 122.7 110.4 122.1 125.9 124.8 126.6 127.7 128.7 130.7 132.5 134 135.9 137.7 139.4 140.1 140.4 140.6 141.3 141.7 142.2 141 138.8 137.7 136.1 135.5 135.1 133.6 133.2
106.3 106.6 107 107.7 108.3 108.6 108.9 109 108.8 109.2 110 110 109.8 108.7 108.2 107.9 106.8 104.6 103.8 104.5 105.8 105.3 107.7 108 107 105.7 105.6 106 107.1 110 114.1 115.5 115.7 117.6 123 121.8 120.5 118.5 118.1 116.4 115.4 113.9 115.1 116.8 116.1 116.3 117 117.5 116.6 117.6 119.2 119.4 120 121.5 121.2 122 122.8 123.6 124.1 124.9 125.7 126.4 126.6 126.4 126 126 126 127.2 128 127.9 128.1 129 129.4 129.3 129.4 129.5 129.7 130 129.9 129.2 128.5 127.9 126.7 126 125.8 125.1 124.4 123.2 122.2 121.4 120.6 119.9 119.1 118.4 118.7 119.7 120.9 122.9 121.8 122.7 123.3 121.9 121.9 121.8 121.4 120.8 121.4 123.1 123.5 124.6 126 123.7 123.8 124.6 127.6 128.5 128.5 127.5 126.8 126.9 128.7 134.7 139.7 140.3 141 139.5 137.5 138.4 139.6 141.2 142.5 143.4 143.9 144 143.6 143 140.7 137.6 135 135.8 135.4 134.5 135.6 136.9 137.9 138.6 139.4 140.4 141.4 142.3 143.9 146 147.3 147.2 146 144.6 142 140.2 138.6 138.7 138.8 137.6 136.5 135.5 133.1 131.3 130.2 129.9 129.4 129.4 128.5 127.7 125.1 112.8 127.8 129.9 130.3 131.4 131.8 133.4 134.8 137.2 139.3 140.8 143.3 144.3 144.1 144.8 146.9 149.1 149.5 147.7 145.1 142.7 140.3 138.4 137.2 135.9 134.7 133.6
107.3 107.6 108 108.8 109.6 109.8 110.7 111.1 111.3 111.5 111.9 112.4 112.6 112.8 112.9 111.3 108.9 107.4 107.8 109.1 108.6 107 106.4 105.6 104.6 105.2 105.1 105.4 106 108 108.2 108.3 108.8 111.1 113.2 112.7 113.8 117.5 117.6 116.9 114.4 113 114.2 115.8 116.8 117.7 118.4 119.1 120.2 120.7 121.8 122.9 123.4 123.5 122.7 122.3 122.9 123.5 124.1 124.8 125.7 126.6 127.8 127.2 126.9 126.7 127.9 128.9 129.2 129.5 129.7 129.9 130.1 130.2 130.2 130.4 130.6 130.7 130.4 129.8 129.4 129 128 127 126.3 125.5 124.7 123.6 122.7 121.7 121.1 120.6 120 119.3 119.5 120.7 121.8 127.7 127.4 123 122.8 122.6 122.7 122.9 123.7 124.2 125.1 126.5 127.4 128.1 127.2 125.1 124.7 125.6 128.2 130 129.4 128.7 131.3 131.5 134.1 138.9 142 143.9 143.8 140.9 140.1 141.4 142.9 144.2 145 145.7 145.7 145.5 145.2 144.6 143.5 141.7 139.3 137.4 137.6 137.4 138.5 139.9 140.7 141.5 143.6 145.1 146.4 147.5 147.7 147.2 146.6 145.7 144.3 142.3 141.5 141.7 144.4 145.3 145.6 144.9 143.2 141.3 139.3 137.7 136.6 136.1 135.7 135 133 130.9 126.1 120.3 129.8 134.5 135.3 136.4 138 139 140.1 142.8 145.2 147 148.5 149.4 149.4 150.7 152.9 151.8 149.3 146.7 144.5 142.1 139.3 138.1 137 136.1 135 132.8
108.3 109 110.6 111.2 113.8 118.2 119.7 120 114 113.8 114.6 115.3 116.4 116.1 116.2 115.1 113.2 112.2 112.1 111.3 109.5 108.9 108.8 108.4 106.9 106.2 106.1 106.7 107 108.8 107.5 108.1 108.4 108.7 109.1 109.5 109.9 112.8 114.4 112.3 112.4 111.8 112.3 112.9 114.9 117.1 119.9 120.5 120.8 120.9 122.1 122.1 123 123.2 122.8 122.9 123.5 124 124.8 125.4 126 127.5 128.8 128.2 127.8 128.1 130 130.1 130.7 132.4 132.3 131.6 132 132.3 132.1 132 132.3 132.7 132.3 131.9 131.4 130.7 129.2 127.7 126.9 126 125 124 123.2 122.3 122.6 122.1 122.1 121.6 120.8 120.9 122.3 124.9 127.9 128.4 127 125.1 125 125.4 126.4 127.1 127.5 128.4 129.2 128.8 127.3 126.6 127 127.2 128.9 131.7 132 131.5 134.8 136.9 138.6 141.5 144.4 147.4 145.7 143.1 142.8 144.1 145.7 146.3 146.3 146.4 146.3 146.1 145.9 145.7 145.4 145 144 142.7 141.7 141.3 141.6 143.1 143.5 144.2 145.4 146.9 147.3 147.3 146.7 146.1 145 144 142.8 143 143.9 145.7 148.1 149.8 149.6 148.7 147.4 145.7 143.5 142.8 142.1 140.6 138.9 136.8 133.8 128.3 124.2 131.3 135.4 137.7 139.4 141.9 144.4 146.4 147.6 150.2 151.3 152.9 153.8 153.5 153.3 153 151 149.1 146.4 144.3 141.9 140.2 138.7 137.7 136.5 135.9 135.4 133.7
110.7 111 113.1 116 118.8 118.5 119.2 119.4 123.2 125.5 124.4 120.1 119 118.4 118.2 117.5 116.2 115 113.6 112.1 112.5 112.7 113.8 115.6 118.4 118.9 117.3 116 112.8 112.2 112.5 113.1 112 111.8 112.1 113.2 112.4 113.6 113.2 113.3 112.8 111.8 113.2 111.8 113.8 114.6 116.2 117.3 118.3 118.5 119 119.4 121.2 121.9 122.4 123.6 124.8 125.5 125.9 126.5 127.4 129.1 129.2 129 128.8 129.3 131.6 131.7 133.9 136.1 136.5 135.7 135.2 135.4 135.6 135.6 135.5 135.5 134.9 134.2 132.8 131.5 129.9 129 128.2 127.4 126.9 126.2 125.1 124.2 123.9 124.9 125.7 124.7 122.7 121.8 123.4 126.2 128.9 132.3 130.9 129 128.6 128.3 129.1 129 129.4 130.3 131 130.6 130.5 131.3 133 135 134.6 134.9 135.1 136.1 138.7 141.7 142.4 144.1 147.8 149.7 147.3 145.1 146 146.5 147.6 147.9 147.8 147.8 147.8 147.7 147.8 147.7 148 148.3 148.5 148.2 147.5 146.9 147.3 147.2 148.3 148.9 149.3 148.4 147.6 147.1 145.8 144.6 143.3 142.5 143.6 145 145.8 145.8 147.4 148.4 148.9 148.2 146.9 146.4 145 144 143.1 141.8 139.9 136.7 128.4 132.9 136 137.5 140.6 142.9 145.6 147.6 150.6 152.8 154.6 156.9 158.1 158.2 157.2 155.6 153.4 152.1 150.1 148.2 146.1 143.4 141.4 140.3 138.9 138 136.6 135.1 134.4 129.7
113.5 114.5 116.6 119.4 121.7 123.8 125.3 125.4 123.8 122.2 121 120.3 119.6 119.6 119.8 119.6 119.4 118.2 117.3 115.8 116.4 117.4 118.8 120.1 120.7 121.2 120.6 119.1 115.6 114.5 117.8 119.7 117 116.9 117.1 117.9 117.3 117.6 118.8 120 121.4 120.6 119.3 118.8 124.3 123.2 121.3 121.1 121.7 120.4 119.4 120.7 121.9 121.8 122.2 124.5 125.1 126.4 126.9 127.5 128.5 129.3 130.1 129.9 129.9 130.3 131.1 134.6 137.1 140.4 140.6 140 139.3 139 139 138.9 138.7 138.2 137.2 136 134.4 133.4 132.9 132.8 133.2 133.2 131.3 129.4 128 126.6 126.4 128 129 126.4 124.3 123.7 125.3 127.3 128.1 133.9 133.8 132.6 132 131.7 131.3 131 131.2 132.1 132.7 134.8 136.9 137.1 138.7 140.2 140.3 139.1 140.2 141.2 141.4 144.5 145.1 146.1 149.7 151 148 146.7 147.8 148.8 149.1 149.4 149.5 149.4 150.1 150.5 151 151.4 151.9 152.3 152.3 152.2 152.7 152.4 151.9 151.2 151.8 151.6 150.2 148.8 146.9 145.2 143.9 142.7 141.9 141.8 142.5 143.4 143.2 142.5 143.4 144.7 145.6 145.6 145.3 145.4 144.6 145 144 141.6 137 131.1 136 139.5 141.2 142.8 146.4 149.5 152.2 153.5 156.7 158.4 160.6 162.7 161.8 160.3 158.3 155.8 153.7 152.1 150.5 148.6 146.5 143.7 142.7 141.9 140.8 138.1 133.4 127.5 127.3 133
122.3 123.8 126.4 128 128.3 129.4 130.2 128.9 126.5 123.1 121.1 120.5 119.9 120.1 121.2 121.9 121.9 121.4 120.6 120.2 120.7 121.3 122.1 122.6 123 122.6 122.3 119.7 116 117.3 121.5 123.8 122.2 121.5 121.7 121.5 121.2 120.8 122.5 124.1 126.4 125.3 125.1 126.1 126 127.9 128.5 128.4 128.3 129.1 130.5 130 130.2 133.5 131.8 129.2 129.2 128.2 127.9 128.3 128.6 130.2 132.7 133.1 132.1 132.5 131.9 134 136.6 139.5 139.9 140.2 139.9 139.1 138.7 138.9 138.2 139 139 138 137.2 137 137.5 137.8 138.6 138.4 136.4 133.2 130.7 128.6 127.9 129.7 130.3 130.1 129.4 129 129.3 128.2 130.1 133.9 136 135.2 134.9 134.5 133.9 133.5 133.2 134.2 134.5 135.7 140.5 142.4 142.2 143.4 143.7 143.3 143.7 144.5 143.3 146.9 147.4 148.3 151.7 153.7 150.5 148.6 150.1 151.8 151.6 151.3 151.1 152.1 152.8 153 153.1 154.3 155.1 155.2 154.8 154.3 153.9 152.9 152.2 152 151.4 150.2 148.5 147.8 146.6 145.6 144.4 142.9 141.6 141.3 141.3 140.7 140.7 139.8 139.7 141.4 142.3 143 142.8 143.7 144.3 143.6 139.4 133.3 136.2 139.8 141.9 144.1 145.4 149.1 152 154.7 157.1 159.9 162.6 164.8 166.1 165.3 163.4 160.4 157.4 155 152.7 150.6 148.6 147.4 145.1 142.5 140.2 138.8 137.4 134.7 136.3 135.9 138.2 140.5
129.7 130.8 131.6 131.9 131.7 131.6 131.4 128.5 124.4 122.3 122 121.3 120.8 121.2 122.7 123.8 123.5 123.2 123 123.3 123.8 124.3 124.6 124.7 124.5 124.5 124.2 123.1 117.9 121.5 125.7 127 126.8 127.2 127.4 126.3 125.1 124.7 126.5 128.9 130.1 129 128.4 130.7 130 131.2 131.8 131.7 132.6 133.6 134.6 135.2 136 137.1 138.4 137 135.7 136.7 139.8 141.4 138.7 140.6 141.9 139.6 136.7 134.1 133.9 133.6 135.9 133.5 135.3 136.2 136.1 135.7 135.2 134.9 136.9 139.9 141.9 141.8 141.2 141.4 142 142.7 142.7 141.7 139.5 136 132.7 130.1 129.1 132.7 134.3 135.5 135.9 135.6 134.3 131.5 131.7 134.7 137.4 138.2 137.9 137.2 136.5 136.1 136.3 136.7 136.1 135.7 139.8 143.4 145.5 146.8 148.2 148.5 148.6 147.8 147.3 147.3 150.4 152.8 155.7 156.3 152.9 150.4 152 153.7 153.5 152.6 152 152.9 153.3 153.4 153.4 154.3 154.5 154.2 153.8 153.2 152.5 151.5 151.5 151.6 150.7 150.3 150.2 149.5 148.8 147.8 147 145.5 143.5 141.9 141.1 140.6 140 139.5 139.1 138.9 139 139.4 137.8 136.4 135.5 137.5 140.3 143.7 145.5 147.1 147.9 149.6 151.7 154.2 156.7 159.4 163.8 167.9 167.9 167.7 165.8 163 160.1 157.3 154.9 152.4 149.7 146.9 145.4 145 143.2 139.6 141.1 142.2 142.9 143.1 142.5 143 142.7 144.2
134.4 134.6 133.3 132.9 132.2 131.4 130.1 126.4 122.6 123.6 123.7 123.2 122.7 123.1 124.5 125.4 125.1 124.7 124.9 125.7 126.5 127.1 127.5 127.6 126.4 126.3 127 126.2 122.4 125.3 128.7 130.6 131.7 132.7 132.9 132.3 130.6 130.3 132 132.9 134 132.6 132.8 132.9 134.1 135.4 136.4 138.8 139.2 140.5 140.9 143.1 144 143.6 142.2 140 138.1 138.7 141.7 143.1 143.9 143.7 144.5 144.3 145.3 147.1 145 140.9 139.5 142.2 141.5 141.6 140.8 140.2 137.9 137.2 137.4 139.3 142 143.1 144.3 144.7 145.6 146.3 145.4 143.9 141.9 138.4 134.7 131.6 129.5 134 135.2 136.4 139 139.3 137.9 134.3 134.7 138.5 141.3 141 140.7 139.9 139 139 139.3 140.2 139.5 139 140 145.3 149.1 151.5 153.7 154.2 153.5 152.1 151 149.9 153 155.7 157.4 156.3 152.9 151.2 152.8 154.4 154 153.3 152.8 153.2 153.1 153.2 153.8 154.2 154.7 154.5 154 153.2 153.5 153.4 153.3 152.6 152.4 152.3 151.8 151.3 150.7 149.7 148 147 145.3 143.3 141.6 140.7 140.3 140.1 139.6 139 139.6 141.2 142.3 142.6 143.4 144.8 146.6 148.4 149.5 151.9 152.8 156 157 159.7 162.2 164.5 165.7 163.9 162.9 162.7 160.7 159.3 156.5 152.5 150.3 148.9 145.2 148.7 149.6 145.9 146.6 147.1 146.7 147.9 148.5 148.4 146.7 147.9 148.3 149.1
136 134.6 133.1 131.8 131 129.8 127.5 123.9 123.7 125.8 126.6 125.8 125.2 125.3 126.1 126.7 126.7 126.9 127.5 128.5 129.5 130.1 130.5 130.4 130.1 130.4 131.5 130.8 128.9 130.7 133.1 134.7 135.5 136.1 136.4 136 135.5 135.8 136.3 136.8 134.8 134.8 133.5 134.8 136.7 139.3 142.4 145.9 145.8 146.1 146 146.4 146.3 144.8 142.7 140.8 141.1 140.4 141.3 142.8 144.4 144.9 145.7 146.1 148.7 148.5 148.8 146.6 145 144.7 146.9 147.8 148.3 148.8 146.2 143 140.8 139.6 140.2 141 142.1 143.2 145.1 147.3 145.6 143.6 142.4 139.5 134.7 132.6 130.5 131 133.7 135.2 138.4 138.8 138.2 136 138.2 143.1 146 146.2 144.5 142.6 141.5 141.7 142.9 144.1 145.2 145.2 144.8 146.8 151.3 154.1 156.1 156.9 156.2 155.4 154.4 151.5 155 157.5 159.2 156.9 152.5 152.7 153.7 154.9 154.6 154.4 154.1 154 153.7 153.9 154.6 154.8 155 154.8 155.3 155.5 155.8 155.9 155.2 154.4 153.9 153.7 153.2 152.5 151.7 150.4 148.3 147.2 145.5 143.2 141.6 140.5 140.4 140.5 141.4 142.6 143.9 146.3 146.5 146.9 147.8 148.9 152 153.6 154.7 157.6 159.4 161.6 162.8 165.1 165 163.2 161 161.1 159.4 157.6 155.2 153.5 149.4 149.9 151.3 149.9 152.6 152.9 152.6 151.9 151.5 151.4 151.1 151.7 152.3 154.4 156.4 154.9 153.6 153.5
135.2 133.7 131.9 130 128.4 127 124.6 124.3 126.1 128.6 129.9 128.4 127.7 127.5 128 128.7 129 129.6 130.3 131.3 132.5 133.1 133.5 133.3 133.5 134.9 137.3 138.1 137.3 137.8 138.7 139.9 141.1 141.1 141.1 141.4 140.7 141.2 141.7 141.1 139.1 139.1 138.4 138.3 140.4 143.2 146 147.8 148.4 147.6 146.8 145.5 143.9 143.4 144.5 144 142.5 142.4 142.9 144.6 146.4 146.8 148.7 150.1 153.4 154.6 152.7 151.2 150.5 147.7 148.9 149.2 149.6 149.7 149.4 148.3 147.1 146 145 143.6 140.9 140.7 141.5 142.9 142.4 140.9 139.1 136.1 133.9 132.5 131.3 131.3 131.7 132.8 134.9 136.4 136.6 136.9 140.4 144.7 148.5 150.3 148.9 146.9 146.4 146.7 148.1 149.5 150.4 151.5 152.2 152.9 154.5 157 157.6 157.6 156.2 157 156.9 154.9 155.3 157.4 158.9 156.7 153 154.6 155.1 155.5 155.6 155.5 155.4 155.9 156 156.4 156.7 157 157.3 158 158.4 158.2 157.7 157.3 156.9 156.1 155.2 154.5 153.6 152.5 150.5 148.1 147.3 145.6 144.1 143.5 144.1 144.6 143.7 144.8 146.5 147.3 148.8 150.9 151.5 152.4 154.8 155.7 158 160.1 161.9 163.7 164.9 164.4 162.6 160.6 159.4 157.7 156.4 155.7 153.9 151.7 152.2 153.9 156.1 156.7 157 156.1 156.3 156.8 157.1 156 155.7 156.9 157.9 156.9 158.1 160.4 160.1 159.5 160.6 160.6
133.6 132 130.1 128.2 126.3 125.1 124.7 125.5 128.5 131.4 133 131.6 130.9 130.3 130.8 131.4 131.9 132.6 133.3 134.2 135.4 136.3 136.9 138.1 138.9 140.3 141.7 142.4 141.8 142.7 143.8 144.9 146 146.7 146.6 146.2 146.2 146.8 146.6 146.4 145.7 146.4 146.1 143.7 145 146.1 147.3 148 147.8 147.7 146.9 145.9 145.2 147 148.8 148.5 146.3 145.3 145.6 147.7 148.9 149.1 150.3 154.2 156 155.2 154.5 154.5 152.4 150.8 150.9 151.4 151.7 150.8 149.8 149.1 148.6 148.5 148 148 143.9 141.2 143.1 145.2 144.6 142.2 140.2 138.8 137.4 135.8 134.2 133.5 133.1 133.1 133.9 134.7 135.3 137.5 141.5 146.2 151 153 152.4 151.3 151.1 152 153.4 154.9 155.8 156.9 157.1 156.8 158.1 158.7 158.6 157.8 156 156.9 156.4 155.4 156.4 157.7 157.6 155.9 154.4 156.2 156.4 157 157.5 157.4 158 158.3 158.8 159.2 159.4 159.8 160.5 160.8 160.8 160.7 159.4 158.8 158.6 156.8 155.6 153.7 152.3 150.5 148.5 145.9 144.6 145.7 147 148 148.9 149 150.1 151.5 152.1 152.4 153.8 154.1 155.2 157.1 159.7 161.1 162.8 164.7 164.9 163 162.3 160.3 158 156.3 154.5 153.1 152.3 154 156.6 157.4 157.5 158.8 159.7 160.3 160.3 160.6 160 160.4 160.7 160.7 159.9 161.3 161.8 161.7 163 163.6 164.4 165.5 165.3 166.4
131.5 130.1 128.2 126.4 126.1 125.8 125.9 127.2 130.3 134.3 136.1 136.3 136.2 135 135 135.2 135.6 136 136.6 137.8 139.4 140.6 141.3 142.6 144.3 145.1 146 146.6 146.4 146.3 147.8 149.3 150.1 150.4 149.9 149.7 152.1 153.3 153.9 154 154.2 153.6 153 149.9 150.6 150.6 149.2 149.3 149 148.8 148.5 148.4 150.3 152.7 153.2 151.7 152 150.8 152.3 151.7 151.1 151 152.3 153.4 155 156.1 156.2 155.2 154 153.6 153.4 155.2 155.7 153.9 151.7 150.7 149.4 149.2 148.8 147.6 145.8 144.9 146.2 148.9 151.1 151.1 148.9 149.6 146.8 145.1 142.1 140.4 138.2 136.1 135.9 136.2 136.7 138.7 141.7 146.5 152.7 155.7 155.9 155.7 156.6 157.8 159.3 160.3 161.1 161 160.7 160 159.7 159.1 158.1 156.1 155.1 154.5 157 157.5 157.7 158.9 158.6 157.6 155.8 157.8 158.7 159.4 160 159.9 160.8 161.6 161.9 162.3 162.9 163.1 163.4 163.4 163 162.3 160.8 159.1 157.9 155.1 152.7 151.4 149.3 147.2 145.8 146.7 148.3 150.2 151.9 152.3 153.6 154.4 155.1 155.8 156.3 157.4 158.1 158.5 159.8 162.9 163.6 164 163.9 163.6 162.3 160 158.2 156.3 154.3 153 156 156.7 157.9 158.3 159.9 160.2 160.4 162 162.6 163.6 163.5 164.6 164.7 164.3 164.5 165.2 165.3 165.2 166.1 166.7 167.3 168.1 167.6 170.1 171.6 170.8
129.7 128.3 127.1 127 127.1 126.9 127.1 128.7 133.5 137.3 139.4 139.9 139.8 139.4 140.1 140.5 141 140.9 141.1 142.5 143.9 144.9 145.7 146.8 148.5 149.8 151.1 151.3 150.9 150.9 152.4 153 153.6 153.9 154.9 155.1 156.6 159.3 160.2 160.3 159.7 159.7 157.3 155.4 156.5 155.2 153.8 153 151.9 151.3 151.4 152 154.6 156.9 156.6 155.6 155.2 155.5 155.1 154 153.4 152.9 154 154.9 156 156.5 156.9 156.8 156.6 156.7 158 159 159.4 157.9 155 152.7 150.7 149.3 148.3 147.3 147.8 148.4 149.4 150.3 151.9 151.6 151.2 151.7 152.1 151.2 149.9 147.8 146.3 146.9 145.5 143.5 143.2 141.9 141.8 146.9 154.3 157.8 159.4 161.9 164.8 165.8 165.6 165.2 165 163.3 161.6 159.5 157.9 156.9 156.2 156.2 155.9 156.2 158.1 159 159.1 160.1 160 160.1 159.2 160.1 160.9 162.6 163.5 164.4 165.6 166.4 166.4 166.4 166.5 165.5 164 163.5 162.4 159.5 157.5 155.7 154.4 151.7 151 150.5 148 149.6 151.1 151.7 153.6 155.2 156.3 156.8 157.4 158.3 159.1 159.7 160.9 162.2 163.2 163.8 164.9 165.5 165.3 164.5 163.1 161.4 159.7 155.8 155.5 157.4 157.5 158 159.6 160.4 161.2 162.7 163.4 163.9 166.2 165.6 166.7 166.5 167.1 167.6 168.2 167.4 168.2 169.6 169.5 170 170.8 171.1 171.2 172.3 173.3 174.1 173.6 172.2
130.9 129 128.5 128.4 128.3 128.3 129.7 131.7 136 138.8 139.9 140.8 141.6 142.2 143.4 144.8 145.8 145.3 145.7 147.3 148.4 149.1 149.8 151.5 153.6 154.7 154.5 153.8 154.6 155.3 156.7 156.7 157.4 158.4 159 159.1 159.7 161.5 162.1 162 161.6 160.7 158.3 159.5 159.4 159 157.8 157.2 156.8 157.1 157.1 156.6 158.1 159.9 158.8 157.9 157.5 157.1 156.3 155.4 155.3 155.2 155.5 157.2 158.2 158.2 159 159.6 159.6 160.4 161.8 163 162.3 161.4 159.4 157.2 154.9 152.7 150.1 148.9 151.2 152.2 152.8 152.8 153.1 153.6 154.1 154.4 154.6 155.5 155.6 153.9 152.6 153.3 153.4 152.7 150.6 149.5 150 152 159.1 163.9 167.7 169.3 169.6 169 167.6 165.8 163.7 161.5 159.4 157.8 156.6 156.2 156.7 157.8 157.5 158.8 160.1 160.6 161.5 162.6 163.3 163.4 164.5 165.1 166.3 167.6 168.7 170 170.7 169.9 169.2 168.3 166.4 164.4 162.3 160.6 158.3 155.1 154.6 155.2 152.9 151.9 151.6 152.8 153.3 154.1 156 157.4 158.8 159.3 160.3 160.8 161.3 162.3 164.3 165.5 167 167.6 167.2 166.7 166.2 165.1 163.7 162.6 161.1 158.3 158.2 160.9 161.7 161.8 161.7 162.3 164.3 165.9 167 166.6 168.2 168.4 169.5 170.4 169.3 170.2 171.7 171.7 172.5 172.6 172.8 173.3 174.6 175.3 175.4 175.1 176.2 175.5 174.4 173.3 171 169.3
129.9 130.7 129.8 130 129.8 130 131.1 133.5 137.1 139.2 140.5 141.3 142.4 145.4 148.1 149.2 149.1 148.8 149.8 150.5 151.9 153.4 156.1 157.5 158 157.3 156.4 157.2 158.3 159.4 160.4 160.3 160.6 161.7 161.7 161.5 161.3 161.8 162 162 161.5 160.6 160.6 161.4 161.1 161.2 162.1 161.9 162 162.3 162.7 163.2 163.1 162.8 162.1 161.5 160.9 160.4 159.9 158.3 158 157.8 158.5 159.6 160.6 160.9 161.6 162.3 162.8 164.4 165.9 166.2 165.4 164.6 162.7 160.6 158.2 154.4 151.5 151.9 155.3 157.1 157.4 156.1 155.3 155.9 156.3 156.6 156.9 157.8 159.2 158.7 158.3 158.1 157.8 157 155.8 156.2 158.3 159.7 163.5 167.2 170.9 170.5 169.2 167.8 165.5 163.1 161.1 158.8 157.8 157.5 157.5 157.8 158.7 159.4 160 161.3 162.3 163.4 164.8 165.4 165.7 166.9 168.5 170.3 172.1 172.6 172.8 173 172.4 170.9 168.2 165.3 162.8 160.7 158.3 156.9 155.3 157.2 156 154.5 152.7 153.2 154.3 156.3 157.6 159 160.5 162 163.6 163.2 164.4 166.3 167.3 168.7 168.9 169 168.8 167.8 166.7 165.5 164.3 162.7 161.3 159.7 157.4 159 161.2 164.1 164.6 165.1 166.1 168.9 171.2 171.4 171.7 172.1 173.3 171.8 173.4 174.1 174.7 175.5 176.2 176 175.3 177 177.8 178.6 180.1 179.8 179.2 178 176.6 174.2 172.5 170.3 167.9 165.9
131.7 131.8 131.2 131.3 131.1 130.7 132.1 134.9 137.6 139.5 141.4 142.9 145.5 149.6 151.6 152.4 152.6 152.4 153.7 155 156.7 158.5 160.3 160.8 161.2 159.9 158.9 160.5 161.4 162.5 162.8 162.7 163.1 163.4 163.2 162.9 162.7 162.8 163.1 162.7 162.3 162.3 162.6 163.1 162.8 163.4 164.6 165.8 166 166 166.6 167 167 166.8 165.7 164.6 164.1 163.8 162.9 161.5 161.2 161.7 160.9 161.3 162.1 162.9 163.8 164.2 165.8 168.4 169.8 169.3 168.5 167.7 165.4 161.4 158.4 154 152.5 155.4 158.3 160.5 160.1 158.8 157.5 158.5 159.6 159.8 159.8 160.9 162 162.2 162.4 162.3 162.1 162 162.3 162.6 164.5 164.8 168.5 169.3 168.7 167.8 166.4 165.2 162.8 160.4 159.8 159.2 158.5 158.3 158.5 159 160.7 161.6 162.7 164.5 166.2 167.1 168.4 169.5 170.6 171.8 173.6 174.9 175.3 174.7 173.3 171.4 169.3 166.9 164.5 162 159.5 157.5 156.4 156.3 157.3 156.7 154.9 154.7 154.5 156.7 158.7 160.4 161.8 163.2 164.8 166.6 168.2 168.8 170.2 171.3 171.3 171 169.5 168.9 168 166.3 164.7 163 161.1 159.9 158.9 158.8 159.4 161.7 165.1 167.9 168.9 170.1 172 176.1 176.8 176.1 176.6 176.6 177 176.5 177 177.8 178.7 179.4 179.5 179 179.3 182.2 183 182.3 181 179.2 178.3 177.1 174.8 172.3 170.2 167.6 163.8 162.9
132 131.9 130.8 130.8 131.3 131.3 134.3 137.1 139.1 141.1 142.8 145.8 149.6 152.9 154.4 155.4 156.1 156.4 156.9 158 159.1 161.2 162.6 163.1 163.1 162.4 161.9 163.6 164.5 164.8 164.2 164.4 164.9 164.7 164.5 164.4 164.2 164.2 164 163.9 163.5 163.9 164.2 164.6 164.9 166.2 167.4 168.6 169.6 169.9 169.9 169.6 169.4 169 168.2 167.9 168.2 167.6 167.4 167.2 168.1 168 166.1 165.2 164.5 165.2 165.8 165.4 168.9 171.8 172.2 169.8 167.9 165.5 162.8 159.6 156.9 154.3 155.9 158.8 161.5 163.5 162.7 161.8 160.9 162.7 164.2 163.8 163.4 164.1 164.9 165.7 166.7 167.3 167.3 167.5 168.1 168.8 169.4 167.4 168.4 167.4 166.1 164.9 163.5 162.3 162 161.8 161.6 160.6 160 160 160.8 161 164.7 167.5 168.9 170.7 172.2 173.3 174.8 176 177.1 177.3 176.9 175.9 174.6 172.6 170.3 168 165.5 163.2 160.8 158.6 157 157.4 158.1 158.2 158.4 158 158.5 159.6 160.6 161.6 163.1 165.1 166.9 168.7 170.4 171.7 172.4 172.6 172.4 172.2 172.3 170.8 168.4 166.5 164.7 162.9 161.1 159.2 159.1 160 161.4 162.7 164.3 167.3 168.7 171.7 173.2 175.4 177.8 179.4 180.3 180.5 180.6 181 181.3 180.3 180.9 181.3 182.1 183.5 184.4 184.6 184.7 183.9 182.3 180.9 179.1 177.9 176.7 176.1 173.8 170.9 164.9 165.6 168.3 168.7
130.9 130.8 130.5 130.5 132.1 132.8 135.3 139.2 141.9 144.8 147.1 150.6 154.2 155.7 157.1 157.4 157.9 158 158.6 160.1 161.6 163 163.3 163.8 164.4 163.8 163.2 164.5 165.5 165.6 165.5 165.8 166 166 165.8 165.8 165.5 164.8 164.5 164.7 164.8 165.1 165.9 166.5 168.1 169.3 170.3 171.4 172.5 172.3 172.3 172 171.7 171.4 171.6 172 172.5 172.5 172.6 173.7 174.5 174.2 172.2 170.2 168.5 168.9 169.5 167.1 168.2 168.8 167.4 165 163.6 163.1 162.1 161.6 159.7 157.5 159.6 161.6 164.5 166.5 165.4 164.6 164.9 166.5 167.9 167.4 167.4 168.3 169.2 170.2 171.1 171.8 172 171.4 172 171.9 171 169.2 168 166.3 165.3 164.7 165.8 166.7 166.7 166.8 168.2 168 167.6 168.1 167.3 168.8 171.6 173.8 174.9 176.6 178.5 180.3 180.4 180 179.8 178.8 177.2 175.2 171.7 169.4 167.1 164.8 162 159.8 158.9 159 159.3 161.1 161.9 162.4 162.3 162.9 164.5 165.3 165.3 166.1 167.9 169.9 171.9 173.2 173.8 174.1 174.3 173.8 172.8 171 169.1 167.1 165.1 163 161.2 160.2 159.9 160.8 162.1 164.7 166.1 169.5 171.3 173.6 174.8 178.5 179.1 180.1 182.2 183.2 183.4 184.5 184.6 184.8 185.7 185.8 186.2 188 188.7 188.3 188.4 187 184.7 182.6 180.8 178.9 177.1 175.4 174.9 174 171.4 168.2 170.1 171.6 173.5 174.9
129.7 129.9 130.2 131 132.8 134.6 136.1 140.6 146.1 150.9 153 154.9 157.2 156.6 156.2 155.9 156.7 158.7 159.2 160.5 162 163.2 164 164.6 164.7 164.2 163.9 164.5 166 166.6 166.7 166.8 167 167.1 167.1 167 166.9 166.2 165.5 165.3 165.6 166.5 168.5 169.9 171.4 173.2 174.1 175 175.4 175.3 175.4 175.3 175.3 175.2 175.7 176.4 176.6 176.8 177.3 177.6 177.6 177.2 175.4 172.8 172.4 173 173.2 171 169.6 169.3 168.2 166.2 165.8 165.7 165 164.4 162.6 161.8 162.4 164.5 167.1 168.2 167.6 167.5 168.5 169.7 171.1 172 172.1 172.9 173.5 174.6 174.9 175 174.4 173.9 173.2 172.4 171.6 169.9 168.5 167.7 167 166.7 169 171.4 172.7 173.5 174.5 175.2 176.3 176.1 176.2 176.8 177.7 178.6 180.3 182.3 183.3 182.8 182.4 181.1 180.3 178.3 176.1 172.7 168.7 166.2 163.9 161 161.9 162.2 163.1 164 164.6 166.4 167.3 168.1 168.7 169.4 169.9 169.6 170.4 172 174 175 176 175.9 175.3 174.7 173.8 172.2 170.5 167.8 165.3 163.7 162 161.1 161.2 162.5 164.2 165.7 167.1 169.1 170.8 173.9 175.7 178.6 180.2 181.6 183.2 183.2 186.1 187.1 187.8 188.9 189.4 190.4 191.9 191.8 192 192.2 191.3 188.4 185.9 183.9 182.1 180.4 178.1 176.9 175.2 172.7 171.7 171.2 172.6 173.8 175 175.7 177.3 178.2
129 129.4 130.3 131 133.7 136.6 138.6 144.3 149.2 152 151.7 152.5 153.4 153.5 154.2 154.6 155.8 157.7 159.8 161 162.4 163.3 164.4 165.1 164.9 164.6 164.7 165.4 166.7 167.7 167.8 167.9 168 167.5 167.3 167.2 168.1 167.7 166.9 166.1 166.7 168.3 171.4 174 175.7 176.5 177.5 178.5 178.4 178.3 178.9 178.9 178.9 178.8 179.2 179.7 180.1 180.4 180.5 180.3 179.8 178.6 177 175.9 175.7 176.3 175.8 174.8 174.1 173.3 171.7 170.4 169.8 170.2 168.5 166.8 164.7 163.9 165.4 167.4 169.1 169.7 170.8 171 172.7 173.8 175.3 176.2 176.3 176.6 177.1 177.2 176.9 176.3 176 175 174.1 173.3 172.7 171.8 171.1 170.7 169.9 171.7 174.2 175.9 177.6 179 179.9 180.3 181.8 182.3 183.1 183.6 183.1 184.4 185.3 185.1 184.2 183.2 181.3 179.6 177.8 175.6 173.4 169.8 165.9 164.5 165.9 166.8 167.5 168.1 169.2 170.1 170.6 171.2 172 173.1 173.7 174.3 175.6 176 177.2 177.9 178.1 177.3 176.8 175.9 175 173.8 172.1 170.1 167.7 165.2 163.4 162.3 163.7 164.3 165.2 167 170 173.2 174.1 175.6 176.4 179.2 181.7 183.8 185.2 186.3 186.9 188.7 189.8 191.4 193 195 195.7 197 196.9 194.8 192.6 190.7 188.6 186.6 184.3 181.6 179.7 177.4 175.8 175.1 174 173 174.3 174.2 176.6 176.4 177 179.8 180.4 184
129 129.6 130.7 131.4 133.8 137.5 139.6 143.4 146.2 148.1 148.6 148.6 149.9 151.2 152.5 153.5 155.5 158.2 160 161.8 163.5 164.5 165.5 165.5 165.4 165.2 165.7 166.6 166.9 167.1 167.6 167.4 167.7 167.7 167.4 168 168.9 169 168.5 167.8 168.3 171.2 174.4 176.5 178 179.3 180.3 180.9 181 180.8 181.3 181.2 181.1 181.3 181.7 182.2 182.8 182.9 182.7 181.7 180.3 179.8 178.8 178.3 177.9 178.2 177.5 176.7 176 175.3 174.3 173.9 173.4 172.8 171.6 170.5 166.7 168.4 170.5 170.8 171.2 173.5 174.7 175.5 176.8 178.1 178.6 179 178.9 178.8 178.4 178.2 177.8 177.4 177.5 176.4 175.5 174.8 174.5 175.1 175.3 176.1 177.7 178.6 180.2 181.5 183.4 184.4 185.2 185.1 186.5 188 188 187.9 187 185.6 185 183.9 182.3 180.8 178.9 178 175.4 171.2 168.8 167.7 167.2 168.2 170.2 172 173 174 174.6 174.8 175.2 175.7 175.7 176.6 178.1 180.5 181 181.2 181.4 180.5 179.4 177.9 176.5 175.4 174.1 171.9 169.7 167.7 165.2 163.8 163.1 166.2 169 170.4 171 173.3 177.3 178.6 179.6 181.1 182.3 185.1 186.3 187.4 188.6 189.9 191.2 193.4 195.1 197.3 197.7 197.8 197.5 196 193.8 192 189.7 187.2 185.1 183.1 181 178.8 177.8 177.4 177.4 176.2 176.1 180.1 185.1 179.2 177.8 180.2 181.6 182.8 184.9 185.7
128.3 129.9 130.9 132.3 134.6 136.8 138.7 141 143.5 146.2 147.1 148.4 149.9 151.1 152 153.1 155.9 159 161.6 163.9 165.3 166.5 167.1 166.2 165.3 165.5 165.9 165.8 165.8 165.7 165.4 165.2 166.6 167.3 167.6 168.4 169.6 170.2 170.1 169.7 171 174.4 177.2 179 180.5 181.6 182.2 182.5 182.3 181.9 182.3 182.8 182.9 183.5 183.7 183.4 183.4 183 182.2 181.4 180.9 180.6 180.1 179.8 179.4 178.7 178.2 177.4 176.7 176.5 175.5 175.2 175.4 173.2 171.2 169 171.7 172.8 173.6 174.8 174.7 176.2 177.8 178.2 178.5 179.1 179.4 179.4 179.6 179.3 179.1 179 178.7 178.8 178.9 178.2 177.2 176.6 177.2 178.8 180.2 181.8 183.1 184.3 184.9 187.1 189.6 189.8 190 189.7 190 189.3 188.2 187.1 185.6 184.3 183.2 181.5 179.8 178.2 176.5 175 172.7 172.8 171.7 171.5 172.5 173.8 175.1 176.1 177.6 178.3 178.5 178.8 179.7 180.3 180.5 182 183.4 183.7 182.8 182.7 181.7 180.4 179 177.4 175.8 174.5 172.8 170.7 168.7 166.7 165.8 164.8 168.9 172 174.1 176.4 178.4 182.2 182.3 183.4 182.8 185.1 186.3 188.3 190.2 192.9 194.8 196.8 197.9 198.1 197.6 196.9 196.3 194.7 194 192.8 191.1 189.5 186.9 184.2 181.2 180.5 181.5 181.9 180.9 180.5 180.1 178.4 178.8 185.9 182.4 180.8 181.6 182.3 184.3 185.6 188.5 189.1
124.3 128.1 130.6 132.4 134 136.1 138 140.1 142.8 145.3 146.5 148.2 149.7 150.6 151.6 153.3 156.6 160.1 163.4 165.6 165.8 165.5 164.4 162.8 163.4 164.3 164.1 164 163.9 163.5 163.6 163.7 164.8 167 167.6 168.6 169.9 170.9 171.2 171.3 174 177.4 179.6 181.5 181.9 182 182.5 182.7 182.4 182.4 182.8 183.1 183.6 184.1 184.3 184.2 183.6 183.1 182.1 181.4 180.8 180.4 179.8 179.5 179.2 178.9 178.6 178.2 178 177.5 176 174.8 174.4 172.4 171.1 173 174.6 175.7 175.1 176.3 176.6 176.7 178 178.6 179.1 179.4 179.4 179.6 179.7 179.7 180.2 180.3 180.1 180 180.1 180 179.6 179.8 181.6 183.4 185.3 186.9 188.2 190.2 191.4 191.5 191.2 190.9 190.4 189.8 188.8 187.9 186.8 185.6 184.3 182.5 180.6 178.9 177.5 176 174.6 174.9 175.6 177.2 178.1 179.1 178.8 179.6 180.1 181.1 181.3 181.8 182.4 183.3 184.6 185.3 185.6 186.4 185.7 184.6 183.6 182.7 181.4 180.1 178.7 177 175.7 174.6 171.7 170.5 168.7 167.7 167.7 171.4 175.4 178.2 180.9 182.4 185 186.2 186 186.4 187.7 189.1 191.1 192.7 195.8 198.4 198.6 198.8 198.8 198.1 196.9 195.7 194.3 192.8 191.4 190.6 189.1 187.7 185 182.2 182.8 184.1 183.8 185 183.9 182.6 182.1 181.7 181.6 183.8 183.4 183.8 184.3 185.5 187.3 188.7 190.7 192.8
126.6 122.3 121.7 126.8 133.1 135.7 138.3 141 143.7 146.2 147.1 148.5 150.4 150.6 152.2 154.6 158.6 162 162.8 162.3 161.3 161 160.1 159.9 160.3 161.2 162 162.1 162.8 163.2 163.7 164.5 165 165.4 166.7 167.8 169.3 171.1 171.9 173 175.6 178.2 180.1 182.4 182 181.5 182.3 182.9 182.9 182.2 182.4 182.7 183.1 183.5 184.7 185 184.2 183.3 182 181.3 180.7 180.2 179.6 179.1 178.9 178.6 178.1 177.5 177 176.3 174.7 173.6 172.7 172.6 174.5 175.2 176.1 177 176.9 177.3 178.2 178 178.6 179.2 179.5 179.7 179.6 179.9 180.2 180.9 181.4 181.8 181.6 181.2 181.2 181.7 183.2 183.9 185.5 186.4 187.6 188.4 189.3 189.2 189.3 189.2 189.4 188.9 188.2 187.8 187.2 186.2 184.6 183.1 181.3 179.4 177.6 175.9 175 175.4 176.4 176.7 177.8 179.3 181 182.8 183.7 184.6 185.3 185.9 185.7 186.6 187.3 188.6 188.6 188.2 187.5 186.6 185.8 185 183.7 182.4 181.1 179.8 178.4 176.6 175 174.1 170.9 171.9 171.3 172.3 173.8 177.1 181.1 184.3 186.1 187.5 189 190 190.8 192.6 194 195.1 195.7 198.3 198.9 199.9 200.4 200 199.4 198.7 197.2 195.8 194.6 193 191 189.1 188 185.9 183.9 182.7 185.6 186.4 186 186.2 185.3 184.2 184 184.9 185.2 185.2 185.9 186.2 186.6 188.9 190.8 191.8 195 196.3
130.6 130 127.9 122.9 130.5 135.2 139.7 141 144.3 146 146.7 147.2 150.9 150.9 153.9 157.3 159.5 159 158.2 156.6 156.5 157.2 157.4 157.2 157.4 158.5 159.6 161.8 162.6 164.1 165.1 165.4 165.7 166 166.2 167.3 169 170.7 172.3 174.3 176.4 178.3 180 181.8 181.8 181.4 181.5 182 182.2 181.4 181.4 181.4 181.6 182.6 184 184.2 183.7 183 181.6 180.8 180.3 179.8 179.3 179 178.5 177.9 177.3 176.7 176.1 175 173.7 173.2 173 174.3 175.5 176.2 176.8 177.2 177.3 178.3 180 179.7 179.7 180.1 180.4 180.8 180.7 180.5 180.8 181.9 182.6 182.9 182.9 182.6 183.1 185.1 185.7 185.7 186.7 187.2 187.5 187.9 187.6 187.1 187.2 187.2 187.6 186.9 186.3 185.7 185.5 183.8 182.2 181 180.3 179.6 178.6 177.6 176.7 178.1 179 179.8 181.1 183 184.7 186.1 187.2 188.2 189.2 190.4 190.9 191.1 191.4 191.2 190.1 189.1 187.8 186.8 185.7 184.4 183.3 181.7 179.9 177.9 175.4 173.3 173.4 174.2 175 176.3 175.8 178.2 179.4 182.7 186.3 188.8 190.2 191.3 192.9 194.5 195.8 197.5 198.7 200.7 201.3 201.6 201.8 205.1 200.8 200.1 199.4 199.2 197.9 196.1 195.1 192.6 190.7 188.8 187.5 185.1 183.8 184.3 188.2 188.7 187.6 188.1 188.5 187.5 186.7 188.4 186.8 187.5 188.2 188.5 189.7 192.1 193.6 195.5 197.3 200.3
132.1 130.8 128.4 124.4 129.2 134.6 139.2 141.4 143.5 145.5 146.2 147 149.8 152.6 154.1 155.3 155.3 153.9 153.7 153.3 153.6 154.5 154.9 156.1 156.5 156.9 158.1 160.6 162.3 164.5 165.1 165.4 165.5 165.6 165.9 167.2 169.1 170.9 172.9 174.5 176.5 178.5 180.1 181.4 181.6 180.9 180.4 180.3 179.8 178.9 178.9 179.1 179.9 181.2 182.3 182.4 181.8 181.8 180.6 180.5 180 179.7 179.7 179.5 179.1 178.6 178 177.3 176.6 175.3 174.6 173.9 174.1 175.2 176.1 176.7 177.1 177.2 177.2 178.8 180.7 180.5 180.5 181.4 181.7 182.8 182.5 182 181.8 182.9 183.8 183.9 184.1 185 185.9 186.9 186.8 187.2 187 187.5 187.8 187.9 187.6 187.1 186.6 186.1 185.7 185.2 184.8 184.2 183.7 183.2 182.8 182 181.7 181.3 180.5 180.3 180.8 181.2 182.5 184 185.7 187.2 188.5 189.6 190.2 190.7 191.1 191.3 191.6 191.6 191.3 190.9 190 188.6 187.3 185.9 184.1 182.6 181 179 176.5 176.3 175.5 175.1 175.2 176.5 178.5 179.3 179.2 181.9 184.1 186.9 190.4 192.3 193.4 194.6 196.1 198.2 199.8 201.6 202.7 203.8 203.8 203.4 203.2 202.9 203.3 200.2 199.6 199.3 196 194.5 193.4 191.9 189.2 187.1 185.5 186 186.6 187.6 189.2 189.4 189.9 190.6 191.4 190.8 189.9 190 189.1 190.6 190.7 191.4 193.1 195 196.7 198.1 200.8 204.2
132.9 131.6 129.7 126.9 129.4 134.5 140.3 145 145.8 145.6 145.7 146.2 147 148.5 150 150.5 150.2 150.8 151.1 151.7 152.5 153.3 153.9 154.9 155.5 155.9 156.5 159.2 161.9 164.1 164.6 164.9 165.2 165.3 165.7 167.3 169.4 171.7 173.4 175.1 176.7 178.5 179.1 180 180.3 179.1 178 178 177.6 176.5 176.5 176.8 177.7 179 179.8 180.2 179.7 179.7 179.7 180 179.9 179.8 179.6 179.4 179.1 178.8 178.2 177.6 177 176.2 175.3 174.7 174.2 175.3 176.5 176.9 177.3 177.3 177.9 180.2 181.4 180.9 181.2 182.1 183.4 184.3 184 183.5 183.5 184 184.9 185.7 186.1 186.8 187.4 187.6 187.6 187.6 187.8 188 188.2 188 187.7 187.1 186.7 186.5 186.3 186 185.4 184.7 184.2 183.7 183.3 183 182.6 182.4 182.7 183.1 184.4 185.1 186 187.3 188.5 189.8 190.8 191.9 192.6 192.3 192 191.6 191.4 190.5 189.8 188.9 187.8 185.9 184.8 183.5 181.9 180.9 180.1 179.1 178 177.4 176.5 176.6 176.7 178.8 181.3 183 182.8 186.4 188.5 191.3 194.1 195.6 196.2 197.3 198.8 202.2 203 202.4 203.1 202.6 200.8 201.7 199.6 198 197.3 196.9 196.2 195.7 195.7 194.6 193.4 191.3 188.3 187.5 187.9 188.3 189.1 190.1 190.7 191.9 192.4 191.6 192.3 192.2 192.2 191.2 191.3 193.1 194.9 194.8 196.5 198.2 199.9 201.7 202.8 202.3
133.7 134.7 135.1 133.1 129.5 132.7 139 143.4 145.7 145.3 145.3 145.2 145.6 146.1 146.9 147.5 147.8 149 150 151.1 152 152.9 153.4 153.8 154.5 154.9 155.4 158.2 160.9 163 164 164.4 164.4 164.7 165.8 167.9 170.2 172.2 173.7 174.9 176.2 176.9 176.8 176.4 176.2 176.1 175.5 175.2 175.1 175.3 175.8 176.2 177.1 177.9 178.3 178.7 179 179.5 179.8 179.9 179.8 179.7 179.4 179.2 178.9 178.7 178.4 177.8 177.3 176.8 176.2 175.6 175 175.4 176.6 177 177.5 177.9 179.2 181.1 181.4 181.3 181.5 182.4 184.1 185.3 185.4 186.1 186.3 186.8 186.9 186.9 187.3 187.8 188.2 188.7 189.1 189.3 189.2 189.3 188.8 188.4 187.8 187.5 187.3 187.1 186.7 186.2 185.8 185.2 184.6 184.2 183.7 183.7 184.1 184.5 185.3 185.8 187 188.1 189 189.9 191 191.7 192.5 193.1 193.1 192.4 192.2 192 191.2 190.4 189.6 188.5 187.2 185.1 183.9 183.5 182.8 182.6 182.4 181.7 180.8 179 179.5 179.4 179.1 180.3 182.7 185.4 187.6 189 192 194.7 196.9 197.6 197.4 197.7 198.2 198.9 198.9 200.2 201.2 200.8 198.7 198.2 197.3 196.6 196.3 196.5 196.1 195.2 195.2 193.5 191.2 189.7 189.9 188.9 189.9 190.3 191.5 192.3 192.9 193.8 194.5 194 194.2 194.7 194.5 193.9 194.2 195.6 197.3 197 197.4 198.2 199.1 198.6 198.8 199
139.4 141.9 142.5 139.9 135.6 131.4 137.3 140 143.6 145.2 144.5 144.4 144.9 145.4 145.7 147.1 147.9 151.5 152.3 152.1 153 153.4 153.3 153.3 153.9 154.4 154.9 159 161 162.2 163 163.7 163.8 164.4 166.6 168.5 169.5 170.3 170.9 171.8 172.5 172.7 172.4 171.9 171.7 171.8 171.5 172.7 174.3 174.8 175.5 176.2 177.5 178.2 178.6 179 179.4 179.7 180 179.8 179.7 179.5 179.2 179 178.8 178.6 178.5 178.1 177.6 177.2 176.8 176.1 175.5 175.9 176.9 177.3 177.7 178.4 180.1 181.3 181.4 181.5 181.5 182 183.1 184.4 185.7 187 187.6 187.5 187.4 187.6 188.1 188.6 189 190 190.1 190.5 189.6 189.1 188.5 188.1 187.9 187.8 187.5 187.1 186.9 186.5 186 185.6 185.1 184.5 184.3 185 185.8 187.2 187.9 188.8 189.6 190.4 190.9 191.7 192.2 192.8 193.4 194 194.1 193.6 193.2 192.5 191.8 191 190.2 189.3 188.2 186.6 185.9 185.6 185.4 185.3 185.2 185.2 186.2 186.6 186.4 185.6 184.2 183.2 183.1 185.1 187.5 187.6 189.8 192.1 193.7 194.8 194.8 195.9 197.1 198.4 199 199.5 199.5 198.7 196.6 196.5 196.4 196.7 196.8 196.5 195.9 194.2 195.3 191.8 191.7 192.2 192.4 192.4 193.3 194.1 195.1 195.8 196.6 196.7 196.5 195.8 196.5 196.1 196.1 196.1 195 195.8 196.8 197.5 198.2 198.8 198.9 199 198.2 197.3
144.8 145.5 145.6 144.6 141.9 138.9 136.1 135.2 140.4 142.5 143.1 143.3 143.4 143.8 144.4 145.8 151.4 152.3 152.5 154 153.4 153.9 153.2 152.6 152.3 154 156.7 157.6 159.9 161 161.8 162.6 163.1 163.9 164.9 165.4 166.2 166.8 167.4 168 168.2 168.1 168.1 168.3 168.1 168.4 169 170.7 172.4 173.5 175.4 175.9 177.5 178.5 178.9 179.2 179.6 179.8 179.9 179.8 179.6 179.4 179.1 178.9 178.8 178.6 178.5 178.2 177.7 177.3 177 176.4 176.5 176.5 177 177.7 179 180.1 180.8 181.5 181.4 181.2 181.2 181.4 182.2 183.5 185 186.6 187.5 187.6 187.7 187.9 188.3 188.8 189 188.6 188.2 188.5 187.9 187.7 187.8 187.7 187.7 187.7 187.6 187.2 187 186.7 186.3 185.8 185.2 184.6 184.8 185.3 186.4 187.8 188.5 189.2 190.3 191.6 192.7 193.5 194.1 194.6 194.8 195 195 194.6 193.7 192.9 192.3 191.5 191 190.7 189.6 188.8 188.3 188.5 188.2 188 187.9 187.8 188.4 188.7 188.8 188.2 187.4 187.5 187.3 187.7 187.8 188.4 188.8 190.5 191.5 192.4 194.4 196.6 197.6 198.3 198.6 198.4 198.3 197 196.1 196.2 195.9 195.8 195.4 195.7 195.6 195.7 195.6 193.3 194.8 195.2 195.2 195 195.9 196.4 196.6 197 197.8 198 198.4 197.5 199.5 198.5 197.7 196.9 196 195.8 196.9 198.9 199.4 199.6 199.3 199 199.4 198.1
147.6 148.2 147.8 147.2 147.7 144.9 140.3 137.2 135.7 138.6 139.6 139.2 139.3 141 142.5 144.2 146.7 148.5 152.6 153.2 152.8 152 151.8 151.6 153.9 158.4 157.6 156.8 157.9 159.7 160.7 161.4 162.1 162.2 162.6 163.1 163.8 164.3 164.8 165.2 165.8 166.2 166.4 166.5 166.9 167.8 168.4 169.7 170.7 172.1 173.7 175.6 177.5 178.6 179.1 179.5 179.7 179.9 179.8 179.7 179.7 179.4 179.2 179.1 178.8 178.7 178.5 178.2 177.9 177.5 177.2 176.9 177 177.5 177.7 179.7 180.5 180.6 180.1 180.6 180.3 180 180.3 180.6 181.4 182.6 184.9 186.7 186.6 186.3 186.4 186.4 186.2 186 185.8 185.5 185.9 186.8 187 187.3 187.3 187.4 187.6 187.5 187.4 187.3 186.9 186.5 186.1 185.6 185.1 185.1 185.6 186.1 187.2 188.4 189.4 190.5 191.5 192.6 193.5 194.2 194.6 194.9 195.2 195.5 195.6 194.8 194.3 193.7 193.2 193 192.7 192.2 191.5 191 190.7 191.2 191.3 191.1 191.1 190.8 191.3 191.9 192.4 191.7 191.6 191.8 192.2 192.7 192.8 192.7 193.1 193.5 193.5 194.1 195.3 197.2 197.7 197.8 197.7 197.5 197 196.2 195.5 195.6 195.3 195.1 195.5 195 195.2 195.8 197.1 195.9 195 195.4 195.5 195.9 196.3 196.7 196.9 197.2 197.9 197.9 199.4 199.5 200.2 199.9 199.8 199.5 198.5 198 199.5 199.3 198.6 197.9 197.5 197.4 198.1 198.7
148.9 148.9 148.2 147.1 146.3 143.5 141.1 138.4 136.8 136.4 136.3 135.5 136.9 138.7 140.3 142.1 144.1 145.9 150.5 151.6 152.5 151.8 151.2 151.6 154.8 157.6 157.5 158 157.9 158.5 158.4 159.1 159.7 160.1 160.8 162 163 164.1 164.7 165.1 165.7 166.6 166.3 166.3 166.8 167.2 168 169.2 170.4 171.7 173.3 175.1 176.9 178.3 179.1 179.6 179.8 179.9 179.8 179.8 179.7 179.4 179.3 179.2 179.1 178.8 178.5 178.3 178 177.8 177.6 177.5 177.4 177.8 178.1 179.1 179.3 179.5 179.1 178.7 178.6 178.6 179 179.7 180.7 181.9 184.4 185.8 184.9 183 182.9 183 183.1 182.9 183.5 184.5 185.5 186.1 186.5 186.8 187 187.2 187.4 187.4 187.3 187.2 186.7 186.2 185.8 185.8 186 186.3 187.2 187.6 188.5 189.9 191.1 192.1 192.6 193.3 193.8 194.2 194.5 194.8 195.2 195.5 195.5 195.1 195.3 195.1 194.6 194.9 194.8 194.6 194.5 194.3 194 194.4 194.5 194.5 194.4 194.3 194.8 194.7 194.9 195 195 194.9 194.6 194.7 194.9 195.1 195.2 195.2 195.5 195.7 196.4 196.6 197 197.4 196.8 196.8 196.8 195.9 195.2 195 195 194.6 194.6 195.3 195.9 197 198 196.7 195.7 196.3 196.4 196.7 197.2 197.7 198 198.5 198.9 198.8 199.4 199.2 197.8 196.7 197 197 197 197.3 197.7 197.5 197.9 198.1 198.8 198.9 199.1 198.5
148.7 147.4 146.2 144.8 144.1 143.2 144 142.9 142.2 141.4 140.1 138.6 138 137.6 138.7 141.1 144.2 147.1 149.8 150.9 151.2 150.6 150.1 152.8 154.5 157 157.5 158.8 158.8 159 159.3 159.6 160.1 162.6 164.2 164.8 165.6 166.1 166.1 166.6 166.8 167 166.7 166.7 166.7 166.8 167 169.2 169.8 171.4 173 174.7 176.5 178.4 179.5 179.8 180 179.9 179.9 179.8 179.7 179.5 179.4 179.3 179.2 179 178.7 178.5 178.4 178.3 178.3 178.2 177.9 177.4 177.5 177.7 177.9 178.4 178.6 178 177.9 177.9 178.4 178.6 179.2 180.4 182 183.2 181.6 180 179.3 179.4 179.7 181.1 182.5 183.7 184.8 185.4 185.9 186.7 187 187.1 186.9 187 187.1 187 186.8 186.6 186.9 187.3 187.1 187.4 188.2 188.9 189.5 190.3 191.2 192.2 192.8 193.4 193.4 193.8 194.1 194.5 195 195.4 195.4 195.4 195.9 196.3 196.5 196.9 196.7 196.5 196.2 195.4 195.1 195.1 195 194.5 193.7 193.4 194 194.3 195 195.4 196.1 196.2 196.1 196.2 196.3 196.6 196.7 196.2 195.9 196.4 198 197.6 198.3 198.5 198.4 198 198.1 196.1 195.6 195.5 195.6 195.9 196.6 196.9 197.1 197.4 199.1 198.8 197.5 198.4 198.9 198.8 198.5 197.7 198.1 197.4 197.2 196.6 196.6 196.6 196.6 196.7 196.6 196.8 197.5 198.9 199 200 200.3 200.3 199.8 200.2 199.4 198.8
148.2 147.6 147.5 147.8 147.8 147.3 146.7 145.4 143.1 141 138.4 138.8 139.8 140 139.3 143.7 148.1 149.7 150.6 150.7 150.1 149.2 152.1 155.7 157 158.1 160.2 161.8 162 161.5 161.4 163.5 165.8 167.8 168.6 168.8 168.5 168.4 167.5 167.9 167.9 167.7 167.4 167.4 168.3 167.7 167 169.6 170.5 172 173.8 175.8 177.4 179.1 179.7 180 180.1 180 179.9 179.9 179.8 179.6 179.5 179.4 179.3 179.2 178.9 179.3 178.9 178.8 178.7 178.5 177.8 177.4 177 177.1 177.4 178.1 179.4 177.4 177.2 177.3 177.3 177.3 177.9 178.9 180.4 180.8 179.8 178.1 177.6 177.6 178.1 179 180.7 182.8 183.9 185.1 186 186.6 186.7 186.4 186.4 186.4 186.6 187 187.2 187.4 187.5 186.9 187.4 188 188.3 188.6 188.9 189.6 190.5 191.2 191.9 192.6 192.9 193 193.3 194.2 194.8 195.2 194.6 194.2 195.6 194.8 194.6 194.3 193.6 193.1 192.8 192.4 192.1 192.8 192.8 192.2 191.8 192.2 193.1 194.1 195.2 196.4 196.9 197.2 197.3 197.4 197.3 197.4 197.3 197.1 196.8 196.2 196.6 196.5 197.1 198.3 199.7 199.8 199.6 198.8 198.4 198.6 198.2 198.8 199.1 199 199.2 200.6 199.8 199.5 199.7 199 199.4 199.4 198.6 198.6 198.6 198 199.1 197.8 197.5 197.8 198.1 197.8 198 198.6 199.5 199.8 200.6 201.5 202.2 202.2 202.3 201.7 201.1 200.1
148 149.9 151 151.9 151.3 149.5 147.1 144.1 141.8 139.6 141.2 141.6 143.7 143.2 142.1 144.9 148.9 149.8 148.3 149.4 150.1 151.8 155.7 158.5 160 161.7 163.8 165.3 166.2 165.6 164.4 168.4 171.3 171.6 171.4 170.4 169.9 169.1 168.6 168.8 168.8 168.8 168.7 169.9 170.1 170.2 171.2 173.1 174.2 175 175.9 177.1 178.4 179.5 180 180.2 180.1 180 180 179.9 179.8 179.7 179.6 179.5 179.4 179.3 179.6 180 180.3 179.5 179.8 179 177.8 177.4 176.7 176.5 176.9 178 180 177.6 176.1 176.2 176.3 176 176.3 177.7 179.6 180 178.2 176.5 176.5 176.6 177.2 177.3 179 182.3 184.1 185.1 185.8 186.2 186.3 186 185.7 185.8 185.9 186.8 187.5 187.7 186.5 186.2 186.4 186.9 187 187 187.4 187.9 188.5 188.9 189.5 190.6 191.9 192.2 192.4 192.6 192.9 192.9 192.7 192 192.1 191.7 191.1 190.7 189.6 189.2 189.8 189.2 189.3 189.5 189.8 190.6 190.8 191.8 192.7 194.3 195.4 196.5 196.9 197.2 196.5 196.8 197 197.7 197.9 197.8 197.4 196.6 196.8 197.2 197.9 198.7 199.8 200.3 200.9 200.4 201.1 201.4 201.5 201.8 202 202.5 203.1 203 202.6 202.3 201.4 201.2 200.7 200.3 200.1 199.7 199.5 199 198.7 199 199.7 199.9 200.8 201.2 201.2 201 201.8 202.1 203.5 204.5 204.1 203.8 203.7 203.2 202.7 202.1
147.8 149.7 149.9 149.5 148.8 147.1 144.9 142.6 140.8 140.2 141.8 144.7 146 145.4 145.1 146.7 147.5 147.6 150.1 150.9 152.1 156.5 158.7 160 161.7 164.6 166.7 168.9 169.4 168.4 167.3 169 170.9 170.4 170.8 170.3 170.1 169.7 169.7 169.8 170.2 171.2 172.4 174 174.7 175.7 176.4 177.7 178.5 179 179.1 179 179.8 179.9 180.2 180.2 180.1 180 179.9 179.9 179.9 179.8 179.7 179.6 179.6 179.7 180.2 180.7 181.2 181.3 181.2 179.9 177.9 176.7 176 175.6 175.9 176.1 177.4 176.1 174.6 175.1 175.4 175 175.2 175.6 177.2 176.8 175.9 176 176.2 177.5 179.6 179.8 178.4 182.3 184.2 185.1 185.5 185.2 184.6 184.4 184 183.9 183.9 183.8 184.6 185.1 184 183.4 183.7 183.9 184 184.6 185.5 185.9 186.1 186.4 187.1 188.3 189 189.3 189.4 189.1 189.5 189.4 189.2 189.1 188.7 188.7 188.4 187.2 185.4 184.7 184.7 186 189 184.8 186 188.6 190.4 191.4 193.2 194.7 195.7 196.1 196 195.8 195.4 195.3 195.5 196.8 197.7 197.3 197.1 197.4 198 198.2 198.5 199.4 200 200.7 201.5 202.5 202.9 203.2 203 203.4 203.8 203.9 203.5 204.8 204.4 203.9 203.5 202.5 201.4 201.7 200.9 200.5 200.5 201.4 201.4 201.3 202 202.2 202.2 203.2 203 203.5 203.9 204.6 206 206.5 206.7 206.4 205.6 204.5 203.7 202.8
143.9 144.5 145 144.6 144.4 144.3 143.6 142 141.1 140.9 141.1 144.4 146.7 147.4 148.9 149.8 150 150.6 152.5 153.5 155.3 159.2 160.2 161.5 163.3 166.2 169 170.1 169.7 169.2 168.5 169.2 170.2 170.8 171.3 171.4 172.2 172.1 171.9 172.9 173.6 175.6 176.6 177.9 178.8 179.3 179.9 180.4 180.8 181 180.9 180.4 180.4 180.3 180.2 180.1 180 179.9 179.8 179.7 179.9 179.9 179.9 179.8 180.2 181.1 181.5 182.3 182.3 182.5 181 178.5 176.4 175.7 175.4 174.9 174.8 174.6 175.3 174.3 174.6 173.7 173.8 173.6 174.2 174.6 175.7 179.9 179.9 178.9 178.3 180.2 182.9 182.6 180.6 179.2 181.5 182.9 183 182.4 182 181.8 181.8 182 182.1 182.2 182.3 182.5 182.4 181.9 181.9 182.1 182.4 182.8 183.6 183.9 184.2 184.7 185.5 185.7 186.4 186.4 186.5 186.4 186.5 186.6 186.5 186.5 186.4 186.5 186.8 184.7 184.7 184.7 184.7 185.7 184.7 184.7 186 186.5 190.4 191.4 192.8 193.4 194.3 194.6 194.5 194.2 194.3 194.4 194.8 195.8 196.8 197.2 198.3 199.9 199.9 200.9 201.4 202.1 202.8 203.4 203.7 204.2 204.4 204.6 204.6 203.9 203.6 203.7 204 203.6 203.5 203.6 203.5 203.4 203.2 203.3 203.4 203 203 202.8 202.2 202.7 202.7 203.7 204.3 204.9 205.3 205.6 205.6 205.5 204.8 205.2 205.6 204.5 203.7 202.6 201.2 200.7
139.9 140.6 140.3 140.4 141.1 142.5 144 144.4 144.2 143.2 144 145.1 147.1 149.8 154.3 154.8 153.2 154.8 154.9 155.8 157.6 160.6 162.3 163.6 164.3 165.5 167.3 168.8 169.3 169.5 170.2 170.6 171.3 171.6 172.6 174.9 176 175.7 175.7 176.3 176.5 177.3 178.2 178.7 178.9 179.3 179.8 180.2 180.8 180.7 180.6 180.4 180.3 180.2 180 180 179.9 179.8 179.7 179.7 179.8 180 180.3 181.7 182.4 182.7 182.8 181.6 180.6 179.3 177.7 175.5 175 174.9 174.5 173.9 173.3 173 173.2 175.2 177.8 177.8 177 175.8 174.5 174.9 176 179.1 180.7 181.4 182.5 183.5 184.8 184.5 183.8 182.8 181.8 181.7 182.7 182.8 183.4 183.1 183.1 183.6 183.5 183.4 183.2 183.1 183.5 183 183.3 183 183 183.5 184.4 184.9 185.5 185.9 186.2 186.4 186.4 187 188 187.9 187.6 187.3 186.8 186.7 186.3 186.5 186.6 186.2 185.6 186.5 187.2 188.2 185.8 187 188.7 188.6 192.4 192.4 192.4 191.5 192.4 192.4 192.6 192.8 193.2 193.5 194.2 195.9 197.2 198.3 199.2 200.6 201.6 202.3 202.4 202.9 203.6 203.4 203.6 204.1 205.3 204.8 204.4 203.2 202.7 202.5 202.4 202.4 202.2 202.1 202.1 202.5 202.9 203.1 203.2 203.4 203.9 203.9 204.6 204.6 204.5 204.8 204.5 204.1 204 203.7 203.2 202.7 202.4 202.2 202 201.5 201.4 200.8 198.5 196.8
137.4 137.6 138.3 139.2 140.1 142.9 145 146.6 145.8 144.4 145.8 147.1 148.5 150.4 153.1 156.4 158.7 159.4 159.3 159.2 161 162 163.3 164.8 165.8 166.3 167.1 167.9 168.3 168.9 170.1 171.2 171.8 172.2 173.3 173.9 175.1 177.6 178.4 177.6 177 177.1 178 178.7 178.9 179.3 179.4 179.8 180.3 180.3 180.3 180.2 180 180 179.9 179.8 179.7 179.7 179.6 179.7 179.6 179.3 180.4 181.5 181.5 180.7 179.5 178.1 176.9 175.9 174.9 174.3 174.1 173.9 173.3 172.8 172.5 173.9 175.7 177.3 179.1 180.1 178.5 176.6 175.5 175.7 175.7 177.2 178.8 181.5 183.5 184.3 186.1 186.4 185.7 185.2 184.8 185.3 186 185.9 186.1 185.9 186.2 186.5 186.2 185.8 185.5 185.1 184.7 184.6 184.6 184.5 184.6 185.1 185.8 186.4 186.9 187.3 187.8 188.7 189.5 190.1 190.3 190.3 189.5 188.4 187.6 186.9 186.3 186.4 186.5 186.2 186.5 186.2 186.4 187.2 187.7 189 189.3 188.9 192.4 192.2 192.2 192.2 192.2 192.1 192 191.6 192.5 193.2 194.4 196.3 197.8 198.9 199.9 200.6 201.2 201.7 202 202.2 202.6 202.8 203.3 204.3 205.3 204.8 204.2 203.4 202.8 202.5 202.3 201.8 201.6 201.5 201.4 201.3 201.2 201.5 201.9 202.4 202.7 202.8 203.1 203.8 203.6 203.2 203.3 202.4 202.5 201.8 202.1 201.7 201.5 201.1 200.5 200.6 201.3 199.4 197.6 193.8
136.5 137.4 138 138.9 140.2 142.5 143.7 145.3 145.3 145 145.8 147.3 149.2 151 152.9 157.1 158.8 159.9 160.3 160.7 161.4 162.1 162.5 163.9 165.5 166.5 168 169.1 170.3 173.9 171.7 172.7 172.7 173.3 174.6 174 174.8 175.8 177 177.1 177.3 177.3 177.8 178.5 178.8 179.2 179 179.4 179.9 180 179.9 179.8 179.7 179.7 179.7 179.6 179.6 179.5 179.5 179 178.4 177.9 177.6 177.8 177.6 177 176.9 176.5 175.8 175.1 174.4 173.6 172.7 172.4 171.6 172.5 173.3 174.1 175.1 176.6 179.3 180.5 179.3 178.9 178.4 178 178.5 178.6 179.8 182.3 184 185.5 187.3 188.3 188.1 188.1 188.2 188.6 189 188.9 188.9 189.1 189.3 189.2 188.9 188.5 188.3 188.2 188 188 187.8 188 187.9 188.2 188.5 189 189.5 190.4 190.4 191.1 191.5 191.2 190.7 190 189.4 188.9 188.2 186.8 183.7 185.3 185.6 185.6 186.2 187.3 188.1 188.6 189.4 190.7 190.3 193.1 193.1 192.3 191.6 191.6 191.5 191.6 191.5 191.6 192.5 193.4 194.3 196.1 197.8 198.9 199.4 200 200.3 200.7 200.7 200.5 200.8 201.5 201 203.1 205.2 205.1 204.7 203.4 202 201.8 201.2 200.9 201.2 200.2 200.3 200.1 200.1 200.5 201.1 201 200.7 200.5 200.1 200.3 200.5 200.2 199.8 199.3 200.3 200.1 199.9 200 201.1 200 199.2 199.3 198.8 198.7 198.6 197.7
137.6 138 138.1 138.8 140.1 141.3 142.3 143.1 145.4 145.7 146.2 147.4 149.6 151.7 154.7 157 158.2 159.5 160.5 160.9 161.6 162.4 162.8 163.5 164.9 165.9 167.5 169 169.7 171.3 174.3 174.8 176.3 176.2 177 177.9 177.9 177.2 176.6 176.7 177 177.4 177.6 178.3 178.8 178.9 178.7 179.1 179.4 179.6 179.5 179.5 179.5 179.6 179.7 179.5 179.3 179.2 179.2 178.9 177.8 177.2 176.8 176.2 175.7 175.5 175.6 175.7 175.1 174.4 174.1 173.4 172.1 172.9 174.3 175.1 175.5 176.8 177.6 176.7 178 178.9 179.3 180.8 180.8 180.2 182.5 182.6 183.7 185.7 186.5 187.7 188.8 190.5 191.5 191.6 191.8 192.1 192 191.8 191.9 192 192.2 192.1 191.7 191.4 191.4 191.5 191.5 191.6 191.6 191.8 192 192.2 192.2 192.4 192.4 192.5 192.2 192 192 191.9 191.1 190.4 189.9 189.7 189.1 187.8 183.7 183.7 183.9 186.7 187.8 188.9 189.5 190.4 192 192.7 192.3 193.1 193.1 192.5 191.9 191.6 191.6 191.5 191.1 192 192.8 193.6 194.2 194.9 196 197.4 198.5 199.4 199.6 199.8 200 200.3 200.6 201.3 201 202.8 203.3 203.4 203.8 203.6 202.3 200.7 200.2 199.9 199.8 199.4 199.2 199.3 199.5 199.5 199.5 200 199.4 199 198.5 198.6 198.6 198.3 197.6 196.9 197.2 197.7 198.6 199.4 198.9 198.2 197.6 197.6 197.6 197.6 198.8 198.4
138.6 138.8 139 139.6 140.1 140.9 142.7 144.2 145.8 147 148.1 148.9 149.9 152.2 154.1 156.3 158.3 160 160.9 161.7 162.1 162.6 163.2 163.9 164.8 165.6 166.8 168.6 169.4 170.6 172.7 173.9 174.6 174.7 175.5 176.2 176.1 175.9 176.2 176.3 176.8 177.2 177.5 177.6 178 178.1 178.3 178.5 178.7 179 179.3 179.3 179.6 179.7 179.6 179.4 179.2 179 178.8 179 179.4 178.9 177.7 177 175.9 175.9 175.6 174.8 173.6 173.5 180 172.1 172.1 174.6 176.8 178 178 179.5 180 178.3 177.2 177.6 178.4 181.2 182.9 182.6 184.6 186.5 186.9 189 189.3 190.3 191.7 193.5 194.4 194.8 194.9 194.7 194.6 194.8 195 194.7 195.1 195.1 194.4 194.6 194.2 193.7 194.1 194.3 193.4 193.1 193.3 193.9 193.7 193 193 193 192.7 192.4 192.3 192.3 192 191.3 190.7 190.3 190.2 189.4 188.5 188.9 188.9 189.7 189.9 190.7 190.8 191 192.4 193.6 193.5 193.7 193.5 193.2 192.9 192.8 192 191.7 191.1 191.1 192.6 192.6 193.7 194.6 195.3 196.1 197 198.4 199.5 199.9 200 200.2 201.1 201.9 202.5 202 202.7 202.5 202.8 203.1 202.1 201.2 201.8 201.5 200.8 200 199.2 199.4 199.3 199.1 199.2 199.5 199.7 198.9 198.9 198.6 198.3 197.8 197 196.5 196.5 196.9 196.6 197.1 197.4 197.6 197.3 197.6 198.1 199 199.3 197
139.6 140 139.7 140.6 141.2 142.2 144.4 146.1 147.6 148.9 150.3 150.9 151.5 151.6 153.3 155.7 158.2 160.7 162.8 163.9 164 163.1 163.7 164.1 164.7 165.6 166.5 167.9 169.2 170.6 172 172.8 173.6 173.4 174 176.2 175.9 175 175.7 176.7 177.1 177.4 177.4 177.3 177.3 177.6 177.5 177.3 177.5 177.8 178.2 179 179.6 179.7 179.6 179.4 179.1 178.9 178.7 179.3 179.6 178.4 178 176.6 175.6 174.2 174.8 174.3 175 176.1 170.6 171.4 172.8 175.4 177.4 177.4 177.5 179.1 180.2 180.9 182.8 182.7 179.7 180.8 182.9 183.8 186.7 188.8 188.7 190.4 191.4 192.2 193.5 194.5 195.6 196.1 196.2 196.6 197.2 197.2 197.4 197.3 196.6 195.9 195.2 194.6 194.1 194.5 194.6 194.6 194.5 193.9 194 194.2 194 193.8 193.4 193.3 193.1 193 192.8 192.7 193 192.3 191.5 191.3 191.6 192.2 192.2 192.4 192.3 192.3 191.8 191.8 192 192.2 192.7 193.6 193.8 194.5 195 194.8 195.1 193.7 191.7 191.7 191.7 191.7 191.7 191.7 192.4 194.4 195.1 196.2 197.2 198.4 200 200.9 201.4 201.7 202.1 201.9 202.7 202.5 202.6 202.5 202.7 202 201.3 200.9 200.8 200.3 200.4 201.1 201.1 200 199.6 200 199.3 199.3 199.5 199.1 198.7 198.8 198.3 198.1 197.4 196.7 196.8 196.4 196.9 196.7 196.4 196.4 196.4 196.4 196.4 198.6 200.6 200.5
141.2 141.4 141.4 142.7 143.6 144.7 146.8 148.6 149.6 150.8 152.4 153.2 153.5 153.7 153.8 155.5 157.9 160.4 162.2 164.1 164.2 163.6 163.9 164.3 164.7 165.6 166.4 167.9 169.3 170.3 171 171.7 172.6 172.7 172.7 175.6 175.7 175.2 175.6 176.8 177.3 177.2 177.1 177 176.9 177.1 177 176.8 176.7 176.9 177.2 178.6 179.5 179.7 179.5 179.3 179.1 179 178.7 178.9 178.6 177.5 175.4 174.1 171.6 170.4 171.7 172.2 170.2 169.3 170.2 171.1 172.8 174.9 176.5 177.5 176.5 177.3 178.5 180 180.8 181.5 182.2 183.3 184.3 184.6 187 188.9 190 191.3 192 192.4 193.5 194.3 195.5 196 196.1 196.2 196.8 196.2 195.6 194.3 193.9 194.1 193.8 193.5 194.3 194.7 194.7 194.7 194.7 193.8 193.9 194.5 194.3 194.1 194 194.1 193.9 193.8 193.5 193.1 193.4 193.4 193.6 193.8 193.9 193.8 194.2 194 193.5 193.1 193.1 193.5 193.7 193.3 193.2 194.3 195 195.6 196.2 196.6 196.6 194.8 191.7 191.7 191.7 191.7 191.7 191.7 193.4 194.7 195.8 196.9 197.9 199.2 200.4 201.7 202.7 203.1 202.9 202.6 203.1 203.3 203.1 203.3 203 202 201.1 200.9 200.7 200.3 200 199.9 199.9 199.9 200.1 199.8 199.8 200.2 200.3 200.6 199.2 199.4 199.7 199.5 199 198.7 198.5 197.9 196.9 196.4 196.4 196.4 196.4 196.4 196.4 198.4 201.1 200.7
143.2 142.8 143.6 145.4 147 148 149.4 151.2 152.4 153.8 155.4 156.3 156.4 156.4 156.2 156.4 157.5 158.9 160.4 161.4 162.4 163.2 164.1 164.5 164.9 165.5 166.5 168.2 169.4 170.2 170.5 170.9 170.4 170.6 171.1 173 174.8 176.1 175.5 176.4 176.9 176.9 176.8 176.7 176.6 176.6 176.4 176.2 176.2 176.2 176.6 176.8 178.7 179.1 179.3 178.6 178.5 178.3 178 177.2 176.6 175.5 175.3 173.2 170.4 170.4 171.1 170.7 169.1 168.7 170.2 170.9 172.3 173.8 176 177.1 175.5 175.5 176.8 178.2 179.6 180.8 181.9 183.5 184.5 184.8 186.2 187.6 188.4 190 191.3 191.4 192.3 192.8 193.1 193.2 193.1 192.9 192.8 192.3 191.9 191.5 192.1 192.5 192.8 193.3 194 194.1 194.4 194.4 194.4 193.9 194.3 194.8 194.6 194.8 195 194.9 194.7 194.5 194.1 193.6 193.5 194.2 194.6 195 195.3 196.1 197 196.5 196.3 196.8 197.4 197.4 197.9 197.2 195.7 195.8 196.3 197 196.7 195.6 196 195.6 191.8 191.7 191.7 191.7 191.7 192.4 194.4 195.6 196.6 197.6 198.6 199.7 200.7 202.2 203.6 203.7 202.9 202 201.9 201.8 201.6 201.7 202 202 201.5 200.9 200.5 200.4 200.2 200 200 200 200 200.6 200.1 201.5 201.6 202.4 202.3 202.4 202.5 201.7 200.9 200 199.4 198.1 196.7 196.4 196.4 196.4 196.4 196.4 197.1 199.9 201.6 201.6
145.9 146.1 146.3 147.9 149.5 151 152.4 154 155.3 156.8 158.3 159.2 159.7 159.9 160.1 159.9 159.6 159.7 160 160.8 162.1 163.1 164.1 164.8 165.2 165.7 166.9 168.4 169.4 170.1 170.4 170.2 169.9 170.1 170.9 171.9 172.6 174.7 176.3 175.9 176.5 176.7 176.6 176.5 176.3 176.1 175.9 175.7 175.7 175.6 176.1 176.5 177.7 178.5 177.8 176.7 176.4 176.5 176.8 175.2 174.5 173.8 173.8 172.6 170.4 170.4 170.9 170.2 168.7 168.4 170.2 170.6 171.5 173 175.4 175.2 174.2 175.2 175.7 176.5 177.7 178.4 179.5 180.5 181.5 182.4 183 184.1 185.3 187 187.4 187.7 188.4 189.2 189.7 190 190 189.9 190 189.8 189.3 189.7 190.4 191.2 191.5 192.3 193.2 193.4 193.8 194 194.4 193.9 194.6 195.2 195.5 195.7 195.9 195.8 195.2 194.8 194.6 194.1 194.5 196.4 197.3 198.3 198.7 199.1 200 200.3 200.3 201 202.1 201.8 200.9 198.9 197.9 196.9 195.7 195.6 195.7 194.8 194.4 193.3 192.2 191.7 191.7 192.2 192.9 194.2 195.7 196.2 196.6 197 198 199.4 199.9 200 200.3 200.2 199.9 199.8 200 200.3 200.7 201.3 200.9 200.9 200.9 200.8 201.2 201.5 200.9 201.2 201.4 201.8 201.9 201 199.1 200.1 200.2 200.8 199.4 199.6 199.7 199.6 199.1 198.6 197.8 197.7 196.9 196.4 196.4 196.4 196.4 196.7 198.6 200.6 201.2 200.6
149.1 149.8 149.6 150.1 151.6 153.1 154.7 156.5 158.1 159.2 160.4 161.4 162.4 163.1 163.4 163.3 163 162.9 162.7 163 163.9 164 164.3 165.3 165.7 166.2 167.5 168.8 169.7 170.1 170.4 170 169.7 169.9 170.5 170.9 171.4 174.1 176.8 176.2 176 176.4 176.3 176.2 176.1 175.8 175.5 175.2 174.9 174.8 176.3 176.5 175.7 174.6 172.3 171 171.9 172.6 174.2 172.9 172.5 172.6 172.8 172.3 170.7 170.9 170.7 169.4 167.9 168.4 169.4 170.1 170.9 172.4 173.3 173.7 174.5 175.4 175.4 175.4 175.9 176.4 177 177.9 178.7 179.2 179.4 179.5 180.8 182 182.9 183.9 185.1 185.7 186.3 186.7 186.8 187 187.1 187 187 187.6 188.2 188.4 189.1 190 191.1 191.9 192.2 192.5 193.3 193.2 194.4 194.5 195.1 195.4 195.2 195.3 195.2 194.9 195.4 197.2 198.3 200.2 201.3 201.5 201.7 201.2 201.3 201.5 200.9 200.3 199.7 199 198.1 197.3 196.7 195.9 194.5 194.4 194.2 194.4 194.8 193.5 192.4 191.7 192.7 194.1 194.8 195.8 196.4 196.5 196.7 196.5 196.9 197.6 198.2 198.8 200.2 199.5 198.6 198.4 198.9 199.7 200.6 201.6 201.3 201.4 201.3 200.9 200.5 200 199.8 199.9 199.8 198.2 197.6 197.7 196.8 196.9 197.2 196.9 196.1 195.9 196.9 196.8 198.6 197.3 197 197.2 196.9 196.5 195.9 196.2 196.6 197.4 197.8 198.3 198.1 197.7
153.1 153.6 153.8 152.9 153.8 155.4 157.2 158.6 159.7 161 162.3 163.6 164.7 165.7 166.3 166.6 166.6 166.6 166.4 166 166 166.1 166.3 166.4 166.4 166.8 168.2 169.1 169.6 170.1 170.5 170 169.6 169.7 169.8 170.1 170.4 171.9 174.2 175.2 175.4 175.7 176 175.9 175.8 175.5 175.2 174.8 174.5 174.2 173.7 173.8 171.8 169.9 168.4 168.2 168.5 169 169.6 170.8 171.9 172 172.1 171 170.2 170.2 169.6 168.5 168.1 168.4 168.9 169.1 170.1 172.4 173.3 174.5 175.5 175.5 174.9 174.7 174.7 175.2 175.7 176.1 176.5 177 177 177.2 177.5 177.9 178.8 180.1 181.4 182.6 183.1 183.6 184 184.4 184.4 184.1 183.8 183.9 183.4 183.9 184.8 185.7 187 188.1 189.2 189.6 190.7 192.4 194 194.2 194.6 194.9 194.4 195.1 195.5 197.2 198.5 199 200.3 198.6 199.3 199.4 199.4 199 198.3 197.9 197.7 197.5 197.1 196.4 196.4 195.6 195.2 194.6 194.1 194.5 194.4 195 197.1 197.4 197 196.4 196.2 196.4 196.4 196.5 196.6 196.9 196.9 196.3 196.2 196.3 196.6 199.7 201.2 199.3 198 197.8 198.1 198.8 199.4 200.1 200.2 199 198 197.7 197.5 196.7 195.6 194.8 193.4 193.4 193.4 193.4 193.4 193.4 193.4 193.4 193.4 193.4 195.1 196 196.7 197.4 197.2 197.6 197.3 196.7 196.2 196.3 196.9 196.7 196.1 195.2 194.7 194.3
156 156.8 156.8 155.9 156.3 157.7 159.3 160.6 161.3 162.8 164.3 165.5 166.6 167.8 169.2 170 170.3 170.2 170 169.5 168.9 169 169.1 168.6 168.6 168.4 168.5 169.1 169.7 170.2 170 169.5 169.4 169.3 169.4 169.7 170.1 170.4 172 173.4 174.2 175.1 175.5 175.7 175.5 175.2 174.8 174.4 174.1 173.8 172.5 170.5 169.9 168.9 168 167.9 168 168.4 170.3 171.2 171.5 171.1 170.9 169.9 169.2 169.1 168.8 167.9 168 168.8 169.8 170.7 172.1 173.4 174.8 175.6 175.6 175 174.3 174.1 174 174.2 174.5 175 175 175.5 175.4 175.3 175.5 175.8 176.1 176.7 178.5 179.7 180.4 181.1 181.5 181.7 181.6 180.9 180.7 180.8 180.6 180.8 181.6 182.5 183.7 185 186.2 187.5 188.8 190.7 191.7 191.6 193 193.1 195.2 195.7 195.6 195.1 195.4 195.5 194.8 194.5 194.6 194.9 195.3 195.6 195.6 195.2 194.9 194.9 194.6 194.6 194.6 194.1 193.9 194.3 195.4 195 195.1 195.7 197.1 198 198.9 198.9 197.7 196.8 196.9 197 197.2 197.4 196.8 196.4 196.4 196.5 196.5 199.6 198.4 197.5 196.7 197.1 197.7 197.1 196.2 195.3 194.9 193.5 193.4 193.4 193.4 193.4 193.4 193.4 193.4 193.4 193.4 193.4 193.4 193.4 193.4 193.4 193.4 193.4 193.9 194.9 195.9 198.4 199.2 200 200 199.6 198.7 197.7 197.5 196.7 195.6 194.8 194.3 193.8
158.7 159 159.1 158.1 158.5 159.8 161.3 162.1 162.7 164.4 166.2 167.4 168.6 170.1 171.8 172.8 173.2 173.3 172.7 172.1 171.5 171.7 171.6 170.9 170.5 170.2 169.9 169.7 169.9 170.2 169.6 169.3 169.1 169 169 169.1 169.5 169.8 170.9 172.1 173 174.1 175.1 174.7 174.6 174 173.3 173 173.3 172.9 172.1 170.8 169.5 168.4 167.7 167.5 167.3 167.8 170.7 171.3 170.9 170.2 169.5 168.6 168.3 167.9 167.8 167.9 169.3 170.7 172.1 172.9 174 175 175.4 175.4 175 174.4 173.7 173.4 173.3 173.6 173.9 174.3 174.4 174.5 174.6 174.7 175.1 175.4 175.8 176.5 177.1 178 177.9 178.5 179.1 179.3 179 178.3 178.5 178.9 179.2 179.5 179.7 180.8 182 183.4 184.6 185.9 187.5 188.7 189.9 190.5 191 191.6 191.6 191.6 191.5 191.4 191.7 191.6 191.4 191.2 191.4 191.7 192 192.3 192.3 192.4 192.2 192.2 192.4 192.7 192.9 192.7 193 193.8 193.8 194.6 197.3 198.3 197.4 197.3 197.6 199.8 198.9 197.3 197.4 197.5 197 196.7 196.5 196.5 196.5 196.4 195.7 197.9 198.8 196.7 195.9 195.9 195.9 195 193.9 193.4 193.4 193.4 193.4 193.4 193.4 193.4 193.4 193.4 193.4 193.4 193.4 193.4 193.4 193.4 193.4 193.4 193.4 193.4 194.1 195.5 196.5 198.3 198.9 199.9 200.4 200.1 199.1 198.4 198.1 196.9 195.7 194.5 194 193.5
160.8 161.2 161.2 160.2 160.7 161.4 162.6 163.5 164.1 165.8 167.5 169.2 171 172.7 173.9 174.8 174.8 174.6 174.5 174 173.5 172.9 172.1 171.4 171.2 170.8 170.2 170.2 170.2 170.1 169.5 168.8 168.6 168.6 168.7 168.7 168.8 169.3 170.7 172.2 173.7 176 177.3 177.6 177.1 175 174.2 172.6 170.9 171.2 170.4 170.6 168.6 167.7 166.5 166.4 166.4 167.3 169.8 170.8 169.8 168.5 167.6 167.4 167.2 168.5 170.5 171.5 172.6 173.7 174.3 174.6 173.8 174.8 174.6 174.6 174.5 173.8 173.1 172.8 172.9 173.3 173.5 174.3 174.1 174.1 174.2 174.5 174.9 175.4 176 176.6 177 176.6 176 176 176.6 176.8 176.3 176.7 177.2 177.9 178.5 178.9 179.1 179 180.4 181.8 182.9 184.2 185.4 186.6 187.3 187.8 187.5 187.1 186.9 187.2 187.1 186.8 187.1 187.9 188.1 188 188.4 188.6 188.7 189 189.1 189.1 189.4 189.8 190.2 190.5 190.8 191.6 193.1 193.8 192.4 193 191.5 195.5 193.1 194.3 194.6 194.5 195.3 196.8 196.2 196.6 196.3 196 195.8 195.8 195.8 195.4 195.2 195.5 195.7 195 195.4 195.7 195.6 194.2 193.4 193.4 193.4 193.4 193.4 193.4 193.4 193.4 193.4 193.4 193.4 193.4 193.4 193.4 193.4 193.4 193.4 193.4 194.1 194.8 196.4 197.6 198 198.2 198.4 198.5 200.2 199.1 198.2 197.7 197.3 195.6 194 193.2 192.8 192.5
163.2 163.3 163.3 162.3 163.3 163.9 164.5 165.1 165.7 167 168.8 170.5 172.1 173.5 174.7 174.9 174.8 174.6 174.3 173.8 173.2 172.7 171.9 171.4 171.1 170.8 170.2 170.2 170.1 169.9 169.3 168.7 168.2 168.3 168.4 168.4 168.5 169 171.4 174.4 177 178.9 179.8 178.7 176.7 174 172.6 170.9 169.6 169.2 168.8 169.2 167.1 165.5 164.8 165 165.4 166.7 167.7 168.4 167.4 166.2 165.5 168.2 170.7 172.5 173.9 175.1 175.6 175.7 175.1 175.8 175.1 173.9 173.7 173.3 172.6 172.2 172.4 172.6 172.9 173.9 175.2 176.2 175.9 175.7 175.4 175.3 175 175.6 176.1 176.4 176 174.5 174.3 173.8 174.2 174.6 175.4 176.2 176.9 177.6 178.2 178.6 178.6 178.5 179.1 180.3 180.9 181.1 182 182.3 182.7 182.3 182.7 182.9 183.5 182.7 182.4 182.3 183.6 184.6 184.9 184.9 185.3 185.6 185.7 185.8 186.1 186.4 186.8 187.2 187.9 188.4 189.1 189.9 191.2 191.2 190 189.8 189.5 190.8 190.1 190.5 191 192.1 193.1 193.4 193 193.3 193.8 193.7 193.3 194 194.5 194.9 194.9 194.6 194.5 193.8 194.7 195.4 194 192.9 193.5 193.4 193.4 193.4 193.4 193.4 193.4 193.4 193.4 193.4 193.4 193.4 193.4 193.4 193.8 194.2 195.3 196.8 197.6 198.3 198.9 198.8 199.3 199.6 199.6 199.4 198.4 197.2 196.2 195.3 194.3 193.2 192.7 191.9 191.5 191
165.6 165.6 165.6 165.7 166.1 166.5 166.9 167.5 168.3 169.2 170 171.4 172.9 174 174.3 174.3 174.3 174.2 173.9 173.5 173.1 172.6 172 171.4 171 170.6 170.2 170 169.9 169.7 169.2 168.5 167.6 167.9 168 168.3 168.4 170.4 173.9 177.3 178.9 178.1 176.5 175.3 174.3 173.5 172.2 170.4 168.7 167.5 167 166 164.6 168.1 168.2 167.4 166.6 164.4 165.6 165.5 166.9 168.4 169.9 172.7 174.4 176 177.3 178.1 177.4 176.2 174.5 173.8 172.1 171.3 171 170.8 171.4 172.3 173 173.3 173.7 175.2 176.8 178.1 177.7 177 176.6 176.1 175.5 175.8 175.7 174.7 173.4 172.2 171.9 172.5 173.4 174.4 175.2 176 176.6 177.3 177.8 178.6 178.6 178.5 178.2 178.6 178.6 178.5 178.5 178.9 179.3 180 180.5 180.4 180.6 179.2 177.3 179.6 181.1 182.1 182 182 182.2 182.9 183.3 183.3 183.1 183.5 184.6 185.3 186.2 186.7 187.1 187.9 188.2 187.5 186.6 186.4 186 186.6 186.8 187.4 188.1 188.2 189.3 189.5 189.7 189.9 190 189.9 190.3 191.7 192.7 193.3 193.9 194 193.5 193.1 193.2 193.1 193.4 195.6 194.9 194.5 194.1 194 193.7 193.9 194 193.6 194 194.8 195.2 195.1 194.9 196.2 197 197.3 198.2 197.7 197.9 198.6 198.8 198.2 198 198.2 197.4 197.1 196 195.1 194.1 193.4 192.7 192.1 191.6 191.2 191 190.5
167.4 167.6 167.6 167.8 168.1 168.7 169.2 169.7 170.2 170.9 171.6 172.1 173.6 173.8 174.2 173.9 173.9 173.9 173.7 173.4 172.9 172.3 171.7 171.3 170.8 170.4 170.1 169.8 169.7 169.5 168.8 167.7 167 167.6 167.7 168.2 170 173.4 176.8 178.3 177.1 176.6 176.5 175.4 173.5 172 170.6 168.8 167.2 166.8 164.9 162.4 168.5 169.8 170.4 169.8 169.4 168.9 168 168.6 170.2 172.4 175.1 177.4 178.5 179.3 178.5 177.1 175.2 173.2 172.7 174.4 169.9 169.9 170 171.2 172.5 173.7 175 175.4 176.3 177.3 178.5 179.5 178.6 177.4 176.4 176.1 175.5 174.9 173.6 172.3 171.5 171.1 171.6 172.4 173.3 174.3 175 175.8 176.4 177 177.7 178.4 178.5 178.1 177.9 177.2 176.5 175.9 175.6 175.8 176.2 176.7 177 176.5 176.8 175.9 176.1 177.4 177.9 178.9 178.9 178.9 179.2 179.9 180.6 181.3 181.5 182 182.8 183.4 183.9 184.4 184.9 185.4 185.5 184.7 183.9 183.5 183.3 182.9 183.4 183.6 184.1 184.4 183.8 184.8 185.6 185.9 186.3 186.7 187.2 188.4 189.4 190.1 189.6 190.6 192.6 194.7 192.4 195.3 196.3 197.4 197.1 196.4 196.5 197.2 197.1 197.2 197.1 196.4 196.2 196.4 196.4 196 195.9 195.9 196.5 196.4 196.9 196.9 197.4 198.1 197.6 196.8 196 195.4 195.4 195.6 194.9 193.8 193.7 192.7 191.9 191.5 191.1 190.8 190.5 190.1
169.2 169.4 169.6 169.6 169.8 170.4 170.8 171.4 172.1 172.7 173.2 173.5 173.9 174.1 174.2 174.1 174.1 173.9 173.7 173 172.4 171.8 171.1 170.7 170.1 169.5 168.9 168.7 168.3 167.4 167.2 166.7 166.4 166.9 167.8 170.9 175.6 178.6 180.5 178.9 175.8 173.5 172.5 171.7 170.2 168.5 167.8 165.8 164.2 164.3 163.3 168.1 171.4 172.8 173.4 173.5 173.1 172.3 172 172.2 174.5 177.9 179.8 179.7 178.2 177 175.7 174.1 172.2 170.5 170 170.2 170.9 171 172.2 173.6 175 176.7 177.5 177.9 178.9 179.8 180.9 180.5 179.2 177.5 175.5 174.6 173.9 172.7 171.6 171.4 171.7 172 172.5 173.1 174 174.9 175.5 175.6 176.3 177 177.6 178.3 178.3 178.2 177.4 176.2 174.1 173.2 173 173.3 173.7 172.8 172.4 172.4 173.3 174.1 176.5 177.6 175.2 175.5 175.6 175.4 176.6 178 179.1 180.3 180.3 180.9 181.5 182 182.5 182.8 183.2 183.4 183.1 182 181.2 180.6 180.4 180.1 179.1 179.1 179.4 179.8 179.9 179.8 180.7 181 181.2 180.7 183.1 184 185 185.2 188.9 192.1 194.1 195.1 195.8 196.6 197.7 198.3 197.9 197.4 197.4 197.7 197.2 197.4 197.5 197.1 196.8 196.6 196.2 195.8 195.1 194.6 194.3 194.1 194.5 194.9 195.6 196 195.5 195.4 195.5 195.6 195.6 194.9 194.2 192.9 192.5 191.7 191.3 191.1 190.9 190.7 190 189.2
171.1 171.2 171.2 171.3 171.5 171.8 172.1 172.4 173 173.4 173.8 174 174.1 174.2 174.2 174.2 174.1 173.7 173.2 172.6 171.9 171.3 170.6 169.6 168.6 167.8 167.3 167 166.3 166 165.7 165.9 166.4 168.4 172.3 176.7 180.7 180.1 178.4 174 170.6 168.6 167.5 166.9 165.6 165.1 164.5 162.8 164.6 166.2 168.9 172.1 174.9 176.2 176.3 176.4 176.3 176 175.8 176.9 177.8 178.9 178.1 176.6 174.2 173.1 172.2 171 169.2 168.5 169 172.1 173.7 174.3 175.6 176.9 177.9 179.2 179.9 180.5 181.2 181.3 180.9 179.9 178 176.2 173.9 172.7 171.8 171.3 172.2 173 174.2 175.1 176 176.5 177 177.4 177.7 178.1 178.6 179 179.1 179.3 178.7 178.6 175.7 174.1 172.7 172 172.1 172.3 172.3 171.1 170 170.3 171 172.5 175.1 176.7 173.7 173.5 173.7 174.5 175.4 176.5 178.4 179.5 179.7 180 180.4 180.9 181.2 181.4 181.2 181.4 181.1 179.8 178.6 177.8 177.3 176.8 174.3 175.3 174.9 175.1 175.2 175.8 176.7 176.7 177.6 178.7 179.9 180.1 182.9 185.8 188.7 191.3 193.8 195.5 197 198.1 198.3 198.1 197.9 198.3 198.3 197.8 197.3 197.4 197.4 196.6 196.2 195.8 194.5 194 193.2 192.9 192.7 192.3 192.5 192.7 193.3 194.2 195.5 195.8 196.3 195.6 194.5 193.8 193.4 193.8 193.7 192.9 192 191.4 191.1 190.7 189.7 188.1
172.3 172.3 172.2 172.3 172.3 172.6 172.9 173.2 173.3 173.7 173.8 174 174.2 174.2 174 173.7 173.5 173.1 172.3 171.4 170.4 169.2 168.5 167.8 167.2 167.2 167.2 166.9 166.6 165.9 165.7 166.2 168.2 172.6 174.7 175.4 175 174.5 172.7 168.7 167.3 166.1 165.2 164.1 163.5 162.7 162.6 164.8 167.2 171.9 174.3 176.7 178.1 178.6 178.6 178.4 178.4 178.6 178.4 178.8 177.7 175.9 174.3 172.6 170.3 169.3 168.5 167.8 168.3 169.7 171.5 174 176.5 177.5 179 179.5 179.5 180.1 180 180 179.3 179 177.8 176.8 175.3 173.8 172.3 171.5 172.4 173.9 175.2 176.4 177.7 178.7 179.6 180.1 180.5 181 181.5 182.1 182.2 182.1 181.8 180.9 179.8 177.2 174.8 173.2 171.8 171 171.1 171.9 172.4 171.5 170.4 169.4 169.8 171.3 172.7 174 172.8 173 173.1 173.8 175.2 176.5 178 178.7 179.1 179.4 179.8 180.1 180.3 180.1 179.4 178.4 177.2 175.7 175 174.8 174.5 172.8 171.4 169.9 170.9 171.1 168.3 171.8 172.5 175.1 177.7 180.1 181.6 182.5 185.2 187.4 190 192.8 195.1 196.8 197.9 198.4 198.3 198 198.1 197.8 197.9 197.6 197.1 196.6 196.1 195.4 194.4 193.3 192.2 191.8 191.2 191.1 191.1 191.6 192.6 194.1 195.3 195.6 195.8 196.3 196.8 196.4 196.3 196.2 196.1 196.1 195.8 195.3 193.7 192.3 191.1 190.2 189.4 187.9
173.3 173.3 173.1 173.1 173.2 173.1 173.4 173.6 173.7 173.8 173.9 174 174 173.9 173.2 172.8 172.4 171.9 170.6 169.2 169 168.9 168.5 168.2 168 168 167.8 167.5 167.3 165.9 165.8 165.7 166.8 168.9 169.4 169.7 170.1 169.7 169.1 167.7 167.1 166.6 166.1 164.9 163.5 164 168 169 169.4 172.2 175.7 177.3 178.1 178.7 178.8 178.8 179.1 178.6 177.8 176.3 174.5 172.7 170.9 168.6 166.4 166.1 167.5 169.8 171.9 173.1 174.6 177.2 178.6 178.9 179.1 178.8 177.9 178 177.6 177.5 177 175.8 174.4 173.1 172.3 172.4 173.4 174.1 175.4 176.9 178.4 179.9 181.3 182.2 183.5 184.9 185.6 185.8 185.6 185 184.1 183 182 180.8 179.4 177 173.8 172.2 170.8 170 170.2 171.4 171.3 171 170.5 169.4 169 170 171.2 173.1 172.7 173.9 174.1 173.4 174.8 176.8 177.3 177.8 177.8 177.9 178.2 178.5 178.1 177.2 175.8 174.3 173.7 172.4 171.4 170.8 170.4 167.6 167.7 164.5 164.9 165 170.8 176.4 177.1 177 177.8 180.5 182.5 184.7 186.9 189.2 191.9 193.6 194.7 194.8 195 195.7 196.1 195.7 196 195.8 196.2 195.8 195.1 194.2 193.4 192.6 191.7 190.7 190.1 189.6 190.5 191.1 192.6 193.6 194.8 196 197.5 198.4 199 199.4 199.7 199.4 199.8 199.5 198.2 197.1 195.3 193.7 192.4 190.8 189.3 188.6 187.7 186.8
174 174.1 174.1 174 174 173.9 174 174 173.9 173.8 173.9 173.7 173.5 173.3 172.7 172 171.1 170.4 170 169.9 169.8 169.6 169.4 169.1 168.8 168.6 168.4 168.1 167.6 166.7 165.8 165.2 164.8 165.6 166.3 167.4 167.9 168.4 168.9 167.9 166.2 165.1 163.3 162.1 161.6 166.2 171 171.7 170.7 172.3 174.7 176 176.5 176.9 177.5 177.2 176.5 175.4 174.3 172.7 171 169.1 167.3 165.6 165.8 168.9 170.8 172.4 173.5 173.8 174.2 175.1 175.8 175.9 175.9 176.2 176 175.6 175.1 174.8 174.2 173.6 172.2 171.5 172.9 175 177 178.4 179.8 181.1 182.4 183.4 184.8 186.2 187.2 187 187.1 187.1 186.2 185.1 183.8 182.4 181.1 180.1 178.7 176.5 173.1 171.3 169.9 169.1 169.3 169.6 169.5 169.4 169.2 168.7 168.7 169 169.8 172.3 172.6 174.4 175.1 173.5 174.2 175.9 176.2 175.5 174.6 173.8 174 173.7 173.1 172.7 171.8 171 170.1 169.1 168 166.7 164.9 163.9 161.7 159.7 159 166.1 172.2 176.5 178 177.5 178.4 180 182.2 184.4 186 187.4 188.5 189.3 189.4 189.1 189.9 191.3 191.9 191.5 191.8 192.2 192.4 192.4 191.5 190.7 190.1 189.8 189.2 188.4 189.7 191.3 192.8 194 195.3 195.6 197.2 198.3 199.5 200.1 200.8 201.2 201.4 202 202.2 200.4 198.3 195.6 192.7 190.4 188.7 187.2 186.4 186.5 185.7 186.2
174.7 174.8 174.8 174.8 174.6 174.3 174.1 174 173.9 173.8 173.7 173.2 172.8 172.6 172.1 171.5 170.9 170.9 170.9 170.8 170.6 170.3 170.1 169.9 169.6 169.3 169 168.7 168.1 167.3 166.5 165.4 164.7 165.3 165.8 165.7 164.5 163.8 165.1 164.7 163.3 161.9 163.5 166.1 167.9 170.9 172.9 173.4 173.2 173.2 174.3 174.6 174.6 175.1 174.6 174.2 173.5 172.8 171.9 170.5 169.4 167.8 166.6 165.5 166.9 170.5 171.6 172.4 172.3 172.6 172.8 173 172.9 172.7 172.6 172.7 173.1 172.9 172.5 172 171.5 170.3 170.4 173.3 176.3 178.9 180.7 182.4 184 185.3 186.2 186.7 186.8 187 186.7 186.2 186 184.6 183.6 182.4 180.6 179.2 178.2 177.3 176.3 175.3 172.5 170.4 169 168.2 167.9 167.8 167.8 167.6 167.6 168.3 168.4 168.4 169.1 171.5 171.7 173.1 173.6 172.7 172.6 172.7 171.8 170.3 169.2 169 168.7 168.4 167.6 167.9 167.7 167 166.3 165.5 163.9 161.8 159.6 160.2 161.1 154.5 161.3 165.1 169.5 172.7 173.8 175 175.8 176.8 179.3 180.9 181.5 182.7 183.7 184.4 185.5 185.4 186.1 186.8 186.7 186.8 187.6 187.8 187.9 187.9 187.6 187.5 186.9 186.8 188 190.7 193 194.2 195.3 196.6 197.3 197.5 197.3 197.4 197.9 198 198.2 198.4 198.3 198.4 198.4 195.9 194.4 192.1 189.8 187.6 186 185.5 185.6 186 186.5 187.3
174.4 174.6 174.8 174.7 174.6 174.4 174.1 174 173.8 173.8 173.4 172.9 172.4 172 171.6 171.6 171.6 171.6 171.6 171.4 171.2 170.9 170.7 170.4 170.5 170.4 170.1 169.3 168.6 167.9 166.6 165.4 164.7 165 164.8 165.2 165.6 166.2 165 162.6 161 161.8 165.7 168.4 170.2 172.5 173.8 174.6 174.4 173.8 173.5 173.4 173.5 173.8 173.9 173.8 173.4 172.5 171.5 171.1 171 168.6 165.8 164.4 166.7 169.3 169.7 170.1 169.4 169.6 170 170.2 170.1 169.7 169.7 169.5 169.6 170.1 169.6 168.8 167.4 168.6 171.6 175.5 179.3 182 183.5 184 183.7 184.4 185.6 185.5 184.7 184.2 183.7 183.1 182.3 181.2 180.4 179.5 178.4 177.4 176.4 175.4 174.4 173.2 171 169.2 168.1 167.3 166.8 166.5 166.2 166.2 166 167.2 167.8 167.9 168.4 170.3 170.4 170.1 170.6 169.9 169.3 168.2 167.4 166.3 165.2 164.4 163.8 163 162.5 162.8 162.7 161.5 161.3 160.7 161.2 158.2 155.5 154.9 157.8 155 159.5 162.3 164.9 168.6 169.8 170.8 172.2 173.7 175.7 176.7 177.3 178 179.2 180.4 181.5 181.7 182 182.4 182.7 183 183.4 183.5 183.5 183.5 184.2 184.2 184.3 186.1 189.9 192.5 193.9 194.3 194 194.4 194.9 195.2 194.8 194.6 194.9 195 195.2 195 194.5 194 191.9 190.2 189.4 186.9 185.8 185.2 185.1 186 186.5 187.5 188.3 190.4
174.6 174.8 174.7 174.6 174.6 174.4 174.2 174 173.8 173.7 173.1 172.6 172.1 171.8 171.9 172 172.1 172.1 172 171.9 171.7 171.5 171.5 171.6 171.6 171.4 170.7 170 169 167.5 166.3 166.4 166.8 166.8 166.9 167.2 167.4 166.4 164.2 161.2 161.5 163.4 166.4 169.4 171.5 173.1 173 173.1 173.3 173 173.4 173.5 173.7 174.2 174.3 174 173 172 171.8 171.3 170.2 167.9 165.2 163.4 164.8 167.3 167.7 167.2 166.7 166.8 167.2 166.2 166.2 166.8 166.7 166.5 166.2 166.1 165.4 165.1 165.7 167.6 170.6 174.7 178.4 180.5 181.7 180.4 180.3 180.8 181 181.3 181.2 180.9 180.6 180.2 179.5 178.7 178.1 177.6 176.6 175.6 174.6 173.4 172.4 171.1 169.6 168.2 167.3 166.4 165.9 165.5 165.5 165.5 165.6 166.4 167.2 167.4 167.8 168 168.3 167.7 167.2 166.4 164.8 162.7 162.6 161.8 160.3 158.8 158.1 158.1 157.8 157.7 158 154.9 154.8 156.9 158.5 156.1 153.2 153.2 154.7 152.9 154.6 157 160.3 164 166.4 166.8 168 169.1 170.4 172 173.2 174.4 175.3 176.4 177.4 178 178.4 179 179.3 179.6 179.9 180 180.3 180.9 181.5 181.5 183.1 185.1 188.4 190 190.8 191.2 191 191.5 192.1 192 191.7 191.5 191.5 191.6 191.2 191 190.2 189.6 185.9 185.1 184.1 184.6 184.5 185 185.4 186.6 187.5 189.5 190.8 192.2
174.8 174.7 174.6 174.4 174.5 174.4 174.2 174 173.9 173.4 172.9 172.3 172.2 172.3 172.3 172.4 172.5 172.5 172.4 172.3 172.1 172.1 172 172 172 171.7 170.9 170.3 169.7 168.9 168.2 168.2 168.3 168.8 167.9 166.6 165 162.7 160.5 160.9 162.2 164.4 166 168 170.1 171.2 170.8 171.4 171.6 172.7 173.5 173.8 174 174.2 173.9 173.5 172.5 171.5 170.8 169.1 166.9 164.8 163 162.4 163.7 165.9 166.8 165.6 164.1 164.3 164.5 163.2 162.8 163.9 164.3 164 163.9 163.5 163.2 163.7 165.4 167.3 169.7 173.3 176.5 177.7 177 177 177.5 178.1 178.1 178.2 178.3 178.2 178.1 177.7 177 176.4 175.9 175.3 174.7 173.7 172.5 171.3 170.5 169.3 168 167.1 166.3 165.6 165.3 165 165 164.9 165.2 166 166.6 167.2 167.5 167.5 167 166.9 166.3 164.9 162.8 159.1 157.1 155.2 154.9 154 151.9 153 154.5 153.3 153.7 152.9 151.7 153.7 155.9 153.2 151.9 151.4 151.1 151.3 151.6 153.8 157.9 161.7 163.8 164.2 164.5 164.1 165.5 167.7 169.7 170.9 172 172.7 173.7 174.4 174.9 175.5 175.9 176.4 176.8 177 177.5 178 178.3 179.1 181.4 183 184.6 185.3 186.1 186.8 186.6 187.1 187.7 187.6 187.3 187.2 187.3 186.1 186.9 187.1 186.6 185.7 184.3 186.1 187 187.3 186.5 186.3 187.1 188.8 191 193.3 193.9 194.1
174.8 174.5 174.5 174.3 174.4 174.3 174.3 174.1 173.7 173.3 172.7 172.4 172.7 172.7 172.7 172.8 172.8 172.8 172.8 172.6 172.6 172.6 172.5 172.5 172.4 170.8 170.4 170.1 169.9 169.9 169.3 168.9 168.2 167.6 166.1 164.6 162 160 159.4 161.1 162.8 164.4 166.2 167.3 167.9 168.6 169.6 170.4 171.9 172.5 173.2 173.4 173.9 173.9 173.5 172.8 172 170.4 168.2 165.7 163.3 162.3 161.7 161.7 162.8 164.6 165.2 164.6 163.6 162.9 162.2 161.2 161.2 161.3 161.7 162.6 162.1 161.7 161.7 163.9 165.6 167.5 169.7 171.6 173.1 173.6 173.9 174.6 175.3 175.8 175.8 175.8 175.9 175.9 175.4 175.2 174.6 174.2 173.5 172.8 172.4 171.5 170.3 169.3 168.4 167.5 166.9 166.1 165.1 164.9 164.8 164.5 164.4 164.7 165.4 166.2 166.9 167.5 167.8 169.1 169.5 168.4 166.4 163.7 160.1 156.1 151.8 151.4 151.9 150.4 149.5 149.3 149.7 149.8 150.6 150.7 150.2 150.7 152.6 150.2 151.6 152.6 150 150.4 150.4 151.9 157.2 160.1 162 162.1 161.8 161.1 162.8 165.1 166.8 168.3 169 169.7 170.4 171 171.5 172.6 173.3 173.3 173.4 174.4 175.4 175.8 175.7 177.4 178.7 179.3 180.1 179.8 180.6 181.7 182 182.5 183.3 183.5 183.2 182.7 181.6 179.9 178.7 178.3 180.9 185.2 186.5 188.8 189.9 191.2 191.4 191.2 191.9 193.8 195.8 197 196.1 195.6
174.6 174.3 174.2 174.2 174.2 174.2 174.2 174 173.6 173.1 172.6 172.8 172.9 173 173.1 173.1 173.1 173.1 173.2 173.1 173.1 173 173 173 172.4 171.4 171.1 171.5 171.6 171.1 170.3 169.1 167.6 164.9 162.9 161.9 161.7 160.6 159.3 160.7 163.1 165.1 166.7 167.2 167.8 168.4 169.3 170.1 171.1 171.9 172.9 173.3 173.8 173.9 173.1 172 169.9 167.2 164.7 162.7 161.7 161.2 161.3 161.3 162.1 162.8 163.7 162.8 162.4 161.5 161.1 160.6 160.6 160.9 161.8 162.8 162.6 162.3 160.5 161.7 163.8 164.8 165.8 166.8 169.1 170.3 171.3 172.5 173 173.5 173.5 173.5 173.6 173.2 172.6 172.5 172.4 171.9 171.1 170.5 170.3 169.8 168.8 167.9 166.8 165.8 165.4 165 163.9 163.9 163.9 164.2 164.5 164.9 165.7 166.7 167.1 167.7 169.3 170.5 169.1 166 163 159.5 155.4 151 150 149.2 148.7 149.2 148.3 148.2 148.5 148.6 148.7 149.7 150 149.7 149.7 148.9 150.6 152.5 150 148.9 149.7 151 154.4 158.6 161 162.2 160.5 159.9 161.1 162.4 164.2 165.8 166.1 166.9 168 168 169.2 170 170.9 171.6 172.3 173.8 174.7 174.3 173.5 174.6 174.7 173.7 174.7 175 176.1 177.2 177.7 178.3 178.6 179.1 177.4 177.8 172.9 181.1 182.7 182.9 185 187.4 189.4 191.6 193.7 194.9 195.5 195.8 195.8 194.7 195 194 192.8 192.5
174.1 174.2 174.2 174.2 174.2 174.2 174.1 174 173.4 173 172.9 173 173.1 173.2 173.4 173.5 173.5 173.5 173.5 173.6 173.6 173.5 173.5 173.4 172.4 172.3 172.8 173 172.4 171.3 169.8 168 166.1 163 160.9 160.7 161.3 161.7 159.8 161.4 163.8 165.4 166.7 167.2 167.6 168.3 169.2 170.4 172.4 173.6 174.9 175 174.7 173.7 171.6 169.1 166.9 164.4 163.6 161.8 160.9 160.5 160.8 161.1 161.6 162.5 162.4 162 161.6 160.5 159.7 159.8 160.1 160.6 160.9 161.5 162 161.9 159.8 159.6 160.3 161.3 162.6 163.2 164.3 166.7 168.1 169.7 171.3 171.1 171.3 171.2 171.2 170.5 169.9 169.6 169.7 170.1 169.9 169.6 169.3 167.8 166.3 165.2 164.4 163.8 163.2 162.3 162.8 164.5 164.9 164.8 165.1 165.8 166.4 167.8 167.7 166.9 166.8 166.6 164.1 161.2 158.2 154.2 149.8 148.1 148 148 147.5 147.3 147.1 147.4 147.7 147.9 148.5 148.2 147.8 149.2 149.6 148.7 149.7 150.2 148.4 148.1 149.1 149.8 152.8 156.3 159.5 159.1 159.2 158.9 159.9 161 162.1 163.2 165.2 166.5 167.3 168.3 168.8 168.9 170.2 171.4 171.6 171.6 171.8 171.9 168.2 169.7 170.9 171.7 170.1 170.1 171 171.6 172.9 172.8 173.3 173.2 173.7 173.9 177.7 181.7 182 182.9 186.3 189.3 192 194.4 195.4 195.3 194.7 194.4 192.7 191.3 189.5 188.3 187.2 186.9
173.9 174.1 174.1 174.1 174.1 174.1 174 173.9 173.5 173.1 173.1 173.2 173.3 173.3 173.5 173.9 173.9 173.8 173.8 173.9 174 174 173.6 173.4 172.9 173.6 173.6 173.6 172.2 170.4 168.5 166.7 165.5 162.7 160.7 160 159.4 159.1 159 160.2 163.2 166.1 166.9 167.5 168.9 170.7 172.7 174.2 175.7 176.6 176.6 175.3 174.1 171.8 169.4 166.8 164.2 162.2 161.7 161 159.8 160.2 160.6 161.5 162.2 163 163.1 162.8 162.5 160.6 158.7 159.2 160 160.3 159.5 158.7 158.5 158.7 158.4 157.8 157.5 157.6 159.4 161.1 161.3 164.1 165.7 166.3 167.9 168.7 168.9 169.3 168.5 167.5 166.2 165.8 166.1 166.6 166.1 165.7 164.9 163.7 162.7 161.9 161.3 161 160.7 161.7 164.3 165.9 165.8 165.1 164.7 165.1 165 165 164.3 162.9 162.4 161.4 158.7 155.6 152.1 148.9 147.5 147.4 147.1 146.8 147 146.8 146.7 146.6 147.3 148 148.5 147.9 147.4 147.6 147.2 147.8 148.7 149.1 147.6 147.6 148.1 149 150.6 153.7 156.3 157 156.7 157.9 159.1 160.6 162.5 165 166.4 167.9 169 168.5 167.7 167 166.7 167.1 167.2 167.2 166.8 167.2 164.4 165 164.7 165.7 165.6 165.6 165.7 166.5 167.9 168.4 168.9 168.2 169.5 170.9 176.1 179 180 183.2 186.9 190 191.1 192 192 191.7 191 190.4 188.9 186.7 184.6 183.7 182.9 182.4
173.8 174 174.1 174 173.9 173.9 173.9 173.8 173.7 173.3 173.3 173.3 173.4 173.5 173.7 174.1 174.1 174 174.1 174.2 174.3 174.1 173.6 173.8 174 174 174 173 171.4 169.6 167.5 166.1 164.9 163.5 161.2 160.5 158.4 158.6 158.6 160.7 163.1 166.1 168.5 170.2 172 174 176 176.9 177.1 177 175.6 174.3 172.3 169.7 167 164.2 162 160.8 160 158.5 160 161.1 163.3 164.9 165.7 166.5 167.4 167 165 161.9 158.1 158.3 158.5 158.3 157.8 157.3 157.6 157.5 157.1 156.6 156.4 156.7 157.5 158.9 160.1 159.2 161.4 163.1 165.1 163.5 165.2 165.3 164.6 162.9 161.9 161.8 162.5 161.2 161.4 161.1 160 159.6 159.4 158.7 158.5 158.2 160.2 161.6 164.2 166.1 166.8 166 164.9 163.1 161.2 159.9 158.6 158.7 157.7 156.1 153.3 150.6 148.4 147.6 147 146.8 146.8 146.6 146.5 146.4 146.4 146.3 146.5 147.7 151.2 147.5 147 146.6 146.2 146.4 146.3 147.4 148.4 147 147.4 148.6 149.8 153 157.4 158.4 156.4 156 158.4 160 162.2 165.1 165.6 166.2 165.8 164.6 164.2 163.7 163.4 163.2 163 162.1 161.5 161.3 163 162.8 162.7 161.9 162.5 163.2 164.3 165.6 166.5 164.3 164.2 166.1 167.9 170.2 173.6 176.2 179.2 182.1 184.8 187.2 187.9 188 188 187.7 187.3 186.2 184.7 183.2 183.1 182.2 181.2 180.5
174.1 173.9 174 173.9 173.8 173.7 173.6 173.7 173.7 173.5 173.6 173.6 173.6 173.6 173.9 174.2 174.3 174.2 174.3 174.2 173.9 173.8 173.9 174.1 174.3 174.3 173.7 172.4 170.7 168.1 165.4 163.5 162.7 160.3 158.5 157 157.2 158.6 163.8 165.6 167.3 169.1 170.8 172.9 175 176.4 176.9 177.4 177.3 176.2 174.6 172.9 170.4 167.5 164.5 162.1 160.7 159.5 158 160.4 162.9 165.1 167 168.2 169.1 170.2 170.7 168.3 164.8 161.5 157.8 156.3 156.3 156.5 155.8 155.9 156.7 156.4 156.4 155.9 156.8 158.4 159 158.2 157.9 157.7 159.6 161 158 157.9 159.1 158.1 157.1 156.9 156.7 158 158.3 157.3 157.5 157 156.8 156.6 156.2 156.3 157.3 159 160.1 161.8 164.3 166.8 166.5 164.7 162.5 160.1 157.1 154.7 152.9 152.8 152.6 151.3 149.1 147.5 147 146.9 146.6 146.5 146.5 146.4 146.3 146.2 146.1 146 145.9 146.1 146.1 148.5 146.9 146 145.8 145.8 145.8 145.8 146.6 146.8 147.4 150.4 150.2 152 155.1 156.3 156.6 153.8 155.7 158.1 159.6 162.5 162.7 163.1 162.9 162.2 161.7 161.3 160.3 159.3 158.4 158.2 158.1 158.3 160 160.6 161.3 162.9 164 164.6 164.5 164.7 162.7 161.5 165.8 167.9 168.6 171.4 173.4 175.3 176.9 179 181.1 182.8 183.9 183.9 183.9 183.8 184.1 183.3 183 183.8 183.7 182.8 181.7 181.4
174.7 174.3 173.9 173.8 173.7 173.5 173.4 173.1 173.1 173.1 173.7 173.7 173.7 173.9 174.2 174.3 174.6 174.3 174.2 173.3 173.3 173.6 174.1 174.3 174.3 173.6 172.8 170.9 168.8 165.7 162.5 159.6 158 157.6 159.6 161.6 163.2 166.1 167.8 167.2 169 171.1 173.2 175 176.4 177.2 177.3 177.1 176.2 174.3 172.5 170.6 167.7 164.8 162.3 160.5 159.6 158 161 164 166.2 168.7 170.9 171.2 171.8 172 169.4 166 162.9 159.6 156.8 155.1 155.2 156.3 155.5 154.3 154.2 154.5 155.1 155.5 157.1 158 157.7 156.7 154.4 152.7 152.3 152.3 151.6 151.3 152.2 152.1 151.9 151.4 151.4 152.8 153.7 153.7 153.8 154 155 155.8 155.5 156.9 159.7 161.2 161.4 161.4 162.6 163.3 162.9 159.9 158.1 156.9 154 151.7 149.6 149.1 149.4 148.2 147 146.7 146.5 146.3 146.3 146.4 146.4 146.3 146.1 146 145.9 145.9 145.7 146.1 146 145.9 146.2 145.7 145.8 145.6 145.5 145.5 146.4 147.2 149.1 150.5 149.9 150.5 151.2 152.4 152.9 152.1 153.6 155.6 156.1 157.1 159.3 161.2 160.8 159.9 159 158 157.1 156 155.3 155 155.4 155.5 156.5 158.8 161.1 163.1 164.9 165.5 164.7 162.6 161.9 161.6 165.4 165.6 167.8 170.9 172.8 174.6 176 177.8 177.8 179 179.9 180.1 180.4 180.6 181.3 182.1 183.8 183.9 182.8 182.4 181.9 181
174.6 174.2 173.9 173.7 173.5 173.5 173.6 173.7 173.7 173.7 173.8 173.8 173.9 174.5 174.3 174.4 174.4 173.8 173.4 172.6 172.8 173.1 172.9 172.6 172.3 170.9 169.4 166.9 164.3 161.1 157.9 156.7 157.5 159.7 162.4 163.5 164.1 165.9 166.3 168.4 170.6 172.7 174.7 176 176.2 176.2 175.8 175.2 174.1 172.3 170.1 167.4 164.6 162.3 160.5 159.2 158.4 160.7 164.1 166.4 168 169.6 170.5 171.1 170.1 168.5 166.1 163.3 160.3 158 155.3 154.4 154.6 155.1 154.6 153.1 152.8 153.9 155.4 155.5 156.9 156.4 154.6 153.4 151.5 149.8 149.3 148.9 148.9 149.5 149.2 148.8 149 149.4 149.1 149 149.5 150.4 149.7 153 156.7 156.7 155.6 158.6 162 161.8 160.3 160.3 160.6 160.2 159.6 159 155.3 153.4 150.5 149.2 148.7 147.8 147.4 146.8 146.7 146.6 146.4 146.2 146.4 146.3 146.3 146.2 145.9 146 145.9 145.5 144.2 145.3 145.4 143.8 145.8 146 145.8 145.9 145.9 146.4 147.1 149.4 149.5 149.4 149 149.1 149.3 149.8 149.8 150.9 153.3 153 153.8 152.9 155.7 158 158.1 156.3 155.3 154.3 153.4 153 152.7 152.4 152.6 151.6 152.5 153.6 156 160.7 163.4 162.9 160.2 157.4 155.9 161.8 164.1 165.2 167.9 170.4 171.8 173.5 175.4 175.6 175.5 176.2 177.4 178.2 177.5 179 179.8 180.8 180.9 180.9 180 179.8 179.7 178.7
174.5 174.2 173.9 173.7 173.5 173.7 173.7 173.5 173.4 173.6 173.7 173.7 174 174.1 173.9 173.7 172.9 172.1 172.1 171.9 171.9 171.7 171.7 171.4 170.2 168.7 167 164.1 161 158.2 156.6 157.1 158.7 160 162.6 163.1 163.8 166.1 166.8 168.2 171.1 173.4 174.4 174.6 174.9 174.5 174.1 173 171.4 169.2 166.6 164 161.3 160.1 158.7 157.6 159.8 161.8 164.2 166.2 167.3 168 167.9 167.1 166.6 164.7 162.1 159.5 157 154.8 153.6 153.6 154 154.5 154 150.9 153.4 155.2 154.9 155 155.4 154.7 153.3 151.3 149.9 149 148.6 148.5 148.5 148.6 148.4 148.2 148.2 148.3 148.2 148.3 148.8 149.6 149.9 152.6 156.8 156.3 154.3 158.4 160.1 158.1 158.8 159.2 159.1 159.1 156.8 155.3 152.2 149.1 148.3 148.3 148.7 147.7 146.7 146.6 146.5 146.4 146.2 145.9 146.2 146.5 146.4 146.3 146.5 146.2 146 146.3 146 145.9 145.5 146.3 146.3 146.8 145.7 146.3 147.3 145.9 148.6 148.4 148.2 146.8 146.4 145.7 145.8 146.3 147.6 147.7 147.7 148.9 149.2 150.6 151.9 153.8 154.2 153.5 152.2 150.8 150.2 150 149.5 149.3 148.5 146.9 149.1 151.2 154.3 158.4 161.6 160.5 157.6 154.2 156.5 161.5 165.2 166.8 168.1 168.4 168.8 169.9 171.9 172.3 172.6 172.8 173.7 174.2 174 174.3 174.9 176.2 176.6 176.8 177.2 177.3 177.1 176.8
173.9 173.8 173.7 173.6 173.6 173.5 173.3 173 172.9 173.2 173.4 173.3 173.2 172.8 172.5 171.9 170.6 170.4 170.4 170.4 170.2 169.8 169.5 169.1 168.3 166.9 165.4 162.3 159.1 156.6 156.6 157.7 159.2 160.2 161.6 162.7 164 166.8 166.9 166.8 169.2 171.5 171.8 171.9 172.1 171.7 171 169.7 167.5 165.3 163 160.9 159.5 158.3 156.8 158.1 159.3 160.3 163.2 164.8 164.8 164.7 164.1 163.2 162.5 160.9 157.9 155.3 153.3 152.2 152.6 153.2 153.8 154.1 153.4 150.6 152.6 153.1 153.3 152.8 152.6 152.6 151.5 150.5 149.1 148.5 148.3 148.3 148.2 148.3 148.2 147.9 148 148 148 148.4 148.4 149 149.7 152.7 154.9 153 153.3 154.4 154.6 156.1 159.1 158.4 156.2 155.9 152.6 150.7 148.4 147.9 147.9 148.9 150.1 149.2 146.9 146.3 146.3 146.3 146.1 145.6 145 146.1 145.5 146.3 146.4 147.1 147 146.7 147.3 148.8 150.3 153.5 153.7 148.2 150.8 148.7 147.6 145.7 146.5 146.6 146.7 146.1 145.3 145 145 144.9 142.6 144.7 144.7 143.1 145.2 148.7 149.3 150.1 151.1 150.8 149.8 148.9 148.3 148 147 146.2 144.6 142.2 142.2 145.9 148.1 154.2 159 157.7 153.7 153.4 154.7 156.5 158.9 159.5 160.1 161.9 163.2 164.8 166.2 167.3 167.8 167.7 168.4 169.1 169.5 169.8 170.1 171.2 172.2 173.2 173.1 172.3 174.8 177.4
173.1 173.3 173.3 173.1 173.2 173.1 172.7 172.2 171.8 172.5 172.3 172.1 171 169.1 168.3 168.4 168 168 168.4 169 169.6 168.9 167.8 167 166.7 165.6 163.8 160.9 158.4 156.5 156.5 158.4 159.3 160.3 162 162.9 163.3 165 165.2 165.3 166.7 167.9 168.1 167.9 167.8 167.8 167.3 166.3 164.2 162.2 160.3 159.3 157.9 157 155.6 157.9 158.3 158.4 159.4 160.2 160.1 159.9 159.3 158.7 157.1 155.4 153.2 152 151.6 151.6 152.3 153 153.5 153.6 152.6 149.7 150.3 151 151.4 150.9 150.7 150.2 149.7 149 148.6 148.4 148.1 148 148 148.1 148.1 148 148.3 148.4 148.2 148 148.1 148.8 150 150.9 151.6 150.6 151.6 152.5 152.3 152.1 152.8 152.4 151.8 150 150.4 147.9 147.3 146.8 147 147.6 147.9 147.2 145.2 146.5 147.2 147.6 146.7 146.4 146.7 147 146.7 148 150.7 153.1 154.8 157.3 158.7 157.8 158.6 160.9 159.2 150.7 151.1 149.9 146.8 146 145.7 145.5 145.3 145.1 144.8 144.7 144.8 142.6 145.1 144.8 144.9 145.4 142.8 147.8 148 148.3 149.4 149.4 148.8 148.2 147.8 147.5 147.2 146.7 145.4 142.2 142.2 142.2 142.2 151 156.8 155.2 150.6 154.5 153.9 153 154.5 152.7 153.2 155.2 157.7 158.8 160.1 162.9 164.9 165.2 163 162.9 166.1 167.5 166.9 165.6 167.2 167.1 171 175.6 179.4 180.1
166.5 170.2 171.9 172.2 172.3 172.5 172.2 171.6 171.1 171.6 170.2 168.3 167.1 166.3 166.5 166.9 166.8 167.4 168 168.6 169.2 168.9 167.3 166.1 164.3 164.3 162.2 160.1 158.4 157.2 156.5 157.9 159.5 160.9 162.4 163.8 164 164.1 164.3 164.7 164.9 164.2 164.3 164.2 164.3 163.9 163.7 162.9 160.9 159.3 158.2 157.3 156.4 156.2 154.5 155.6 155.7 155.9 155.4 155.5 155.2 154.1 153.3 153 152.1 151.4 151.2 151 150.9 151 152 152.1 151.9 151.3 150.1 149.2 149.1 149.1 149.5 149.3 149 148.7 148.7 148.3 148.3 148.2 148 147.8 147.9 148 148 149.1 149.8 148.9 148.8 148.6 148.1 148 148.4 149 149.1 148.8 149.2 148 148.7 147.9 147 146.9 147.4 147.8 149.1 147.2 146.7 146.6 146.7 146.5 146 146.9 148.3 147.8 148.1 149 147.7 147.6 148.1 148.4 150.7 153.6 156.5 159.3 161.6 164.6 165.7 166.1 163 161 158.3 151.8 149.5 147.2 146.6 145.7 146.2 145.7 145.1 145.3 145.1 145.2 144.7 145.1 145.5 145.5 146 146.3 145.6 145.7 147.3 148.1 148.6 148.8 148.4 148.1 148.2 148 147.2 146.9 146.6 146.5 144 144 144.3 143.9 155.5 153.2 151.4 154.7 153 151.6 150.7 149.8 152 153.9 155.8 156.4 157.3 161.7 163.4 162.4 160.5 159.1 163.1 163.9 161.2 164.4 166.3 166.6 171 175.8 179.5 180.4
166.5 166.5 167.8 171.1 171.7 171.8 171.7 171.4 169.7 168.4 167.1 167.1 166.3 166.3 166.3 166.3 166.5 167.1 167.7 168.3 168.3 168.3 167.8 167.2 165.7 163.8 162.4 160.6 158.7 157 156.1 157.4 159.5 161.5 163.3 164.5 164.6 164.8 164.7 164.7 164.7 164.3 163.5 162.8 162.1 161.3 160.8 159.9 158.9 157.7 157.2 156.7 155.9 156.1 155.9 150.9 152.8 153.4 153.2 152.9 152.6 151.9 151.6 151.3 150.6 150.4 150.5 150.4 150.3 150.2 149.9 149.6 149.6 150 148.9 148.4 148.3 148.1 148.2 148.2 148.1 146.6 146.6 148.1 148 148.2 148.6 148.9 149 149.3 148.8 149.7 150 149.8 149.6 149.1 148.5 148 147.9 147.6 147.6 147.4 147.2 147 146 147.6 147.6 147.7 148.1 148.3 147.5 147.2 146.9 146.8 147.4 145.1 148 149.4 149.7 149.1 149.2 149.2 149.7 150.4 151.3 153.3 156.7 159.4 162.5 164.9 167.6 168.6 167.7 165.5 163.2 159.5 154.6 152.4 150.3 150.3 146.7 146.5 148 148.8 150.7 151.1 150 149 148.3 148 147.4 148.3 147.6 147.5 147.2 145.1 144.6 147.7 148.1 148.6 148.5 148.3 148.2 147.9 146.5 146.3 145.9 145.4 142.3 143.4 144.2 142.9 144.4 152.1 150.4 155.4 153.6 152.4 150.7 149.3 152.7 153.5 153.8 154.9 156.2 161.5 161.7 159.7 157.2 156.6 157.9 159.9 160.7 163.1 166.6 167.3 171.4 176.4 182 183.3
166.5 166.5 166.5 168.4 170.9 171.1 170.7 170.2 168.4 167 166.8 166.5 166.3 166.3 166.3 166.3 166.3 166.9 167.5 168.3 168.7 168.9 168.4 167.8 166.2 164.9 163.7 161.3 158.9 157.2 154.8 156.8 159 163.7 164.1 164.5 164.7 164.9 164.7 164.6 164.6 164.3 163.7 163.3 162.3 161.3 160.4 160 159.6 158.3 156.7 155.4 154.5 154.6 154 152.3 150.9 151.1 151.5 151.2 150.9 150.7 150.6 150.4 150.2 150 150 149.8 149.7 149.6 149.2 148.9 148.8 148.8 148.4 148.1 148.2 148.2 148.2 148.2 148.2 148.3 148.3 150.6 149.4 149.9 150.5 151.2 152 151.4 150.8 151.3 150.9 150.9 149.9 149.3 148.8 147.8 147.2 147.3 147.8 147.8 147.7 147.3 147.6 147.7 147.7 147.7 147.7 149.5 149.3 145.7 147.4 148 149 147.6 151.1 154.5 153.4 152.1 152.2 153.3 152.8 154.3 156.5 158.7 160.3 162.6 165.1 166.4 167.3 167 164.9 162.6 160.4 157 152.6 150.1 149.3 147.9 148.2 151 153.5 155.2 156 157.1 158.5 157 155.7 154.2 152.5 151.3 150.5 148.5 147.9 147.2 146 142.6 147.7 148.2 148.4 147.8 147 145.6 144.1 144.3 144.6 143.5 145.7 144.4 146.1 146.5 141.1 144.4 151.3 152.3 152.7 151 148.3 149.1 153 153.6 153.1 154.4 155.9 157.9 158.8 156.1 153.6 152.1 158 161.3 160.2 161 165.4 168.4 172.4 178.5 183.4 183
166.5 166.5 166.5 166.5 170 171.2 170.6 169.1 168.2 166.9 166.7 166.6 166.5 166.3 166.3 166.3 167.3 167.5 168 168.7 169.4 169.7 169.2 167.9 165.7 163.9 162.4 160.3 157.9 156.1 156 156.8 157.8 163.5 164 163.6 164.1 164.6 164.7 164.6 164.5 164.4 163.9 163.3 162.2 160.7 159.7 158.7 158.2 156.6 155.4 154 152.6 151.8 151.9 151 150.5 150.5 150.6 150.1 150.1 150.3 150.4 150.1 150.1 149.8 149.7 149.6 149.4 149.2 148.8 148.6 148.5 148.4 148.1 148.4 148.5 148.6 148.6 148.7 148.7 148.8 149.6 152.3 151.8 152.2 152.4 153.2 153.8 154 153.5 153.1 152.7 152.3 151.6 150.7 149.8 149.1 148.1 147.7 147.4 147.3 147.2 147.3 147.7 147.8 147.8 147.7 147.8 147.8 148.3 148.2 148.8 148.8 148.4 148.8 153.9 157 155.6 153.9 154.7 156.5 155.3 156.2 157.9 159.8 161.6 163.8 165.3 165.5 164.7 164.2 162.1 159.9 157.6 154.6 151.3 150 149.1 150.7 151.8 155.1 157.3 158.9 160.4 162.1 164.6 165 163.2 160.9 157.9 154.6 152.4 150.9 149.5 148.8 147.6 143.4 145.8 146.9 147.5 147.3 146.4 144.2 143.4 143.3 143.4 143.5 147 148.3 149.1 150.7 149.6 141.1 142.7 148 151.8 149.5 147.4 148.5 151.5 152.6 153 155.7 157 156.1 154.3 152.4 149.7 153.3 157.2 159.2 159.5 160 164.7 167.3 171.2 177.3 179.7 179.3
