ncols 200
nrows 89
xllcorner 170000
yllcorner 821900
cellsize 50
-1.9 -1.9 -1.9 -1.9 -1.9 -1.9 -1.9 -1.9 -1.9 -1.9 -1.9 -1.9 -1.9 -1.9 -1.9 -1.9 -1.9 -1.9 -1.9 -1.9 -1.9 -1.9 -1.9 -1.9 -1.9 -1.9 -1.9 -1.9 -1.9 -1.9 -1.9 -1.9 -1.9 -1.9 -1.9 -1.9 -1.9 -1.9 -1.9 -1.9 -1.9 -1.9 -1.9 -1.9 -1.9 -1.9 -1.9 6.8 2 2 4.2 7.8 10.3 20.3 22.7 22.5 26.3 27.7 28.1 24.5 23.2 11.6 5.6 5.6 6 5.8 9.5 19.4 29.3 24.8 15.6 5.3 9.9 8.5 8.3 8.7 12 25.8 27.6 29 29.7 30.4 30 31.8 29.5 28.6 28.1 24.5 20.3 14.2 -1.9 -1.9 -1.9 9.9 9.9 9.8 8.8 8.2 7.2 5 -1.9 -1.9 -1.9 -1.9 -1.9 -1.9 -1.9 -1.9 -1.9 -1.9 8 10.3 -1.9 1.1 2.6 6.3 13.5 16.4 14.3 5.3 -1.9 -1.9 -1.9 -1.9 -1.9 -1.9 -1.9 -1.9 -1.9 -1.9 -1.9 -1.9 -1.9 -1.9 -1.9 -1.9 -1.9 -1.9 -1.9 -1.9 -1.9 -1.9 -1.9 -1.9 -1.9 -1.9 -1.9 -1.9 -1.9 -1.9 -1.9 -1.9 -1.9 -1.9 -1.9 -1.9 -1.9 -1.9 -1.9 -1.9 -1.9 -1.9 -1.9 -1.9 -1.9 -1.9 -1.9 -1.9 -1.9 -1.9 -1.9 -1.9 -1.9 -1.9 -1.9 -1.9 -1.9 -1.9 -1.9 -1.9 -1.9 -1.9 -1.9 -1.9 -1.9 -1.9 -1.9 -1.9 -1.9 -1.9 -1.9 -1.9 -1.9 -1.9 -1.9 -1.9 -1.9 -1.9 -1.9 -1.9
-1.9 -1.9 -1.9 -1.9 -1.9 -1.9 -1.9 -1.9 -1.9 -1.9 -1.9 -1.9 -1.9 -1.9 -1.9 -1.9 -1.9 -1.9 -1.9 -1.9 -1.9 -1.9 -1.9 -1.9 -1.9 -1.9 -1.9 -1.9 -1.9 -1.9 -1.9 -1.9 -1.9 -1.9 -1.9 -1.9 -1.9 -1.9 -1.9 -1.9 -1.9 -1.9 -1.9 -1.9 0.5 0.9 2.7 13.9 14.5 9.4 10.8 19.4 30.9 22.8 17.9 18.6 17.2 15.8 28.4 28.7 29.7 28.2 28.6 29 29.7 29.9 31.1 30.8 30.1 25 15.9 12 13.2 25.5 12.5 10.1 19.3 28.1 29.8 31.5 31.5 35.1 43.5 45.6 38.8 29.8 28.5 24.1 19.3 10.4 -1.9 -1.9 6.6 10.1 9.9 9.5 8 6.8 -1.9 -1.9 -1.9 -1.9 -1.9 -1.9 -1.9 -1.9 -1.9 4.7 8.1 18.2 20.5 17.9 6.9 2.6 2.6 20.7 14.2 17.6 19.7 15.1 -1.9 -1.9 -1.9 -1.9 -1.9 -1.9 -1.9 -1.9 -1.9 -1.9 -1.9 -1.9 -1.9 -1.9 -1.9 -1.9 -1.9 -1.9 -1.9 -1.9 -1.9 -1.9 -1.9 -1.9 -1.9 -1.9 -1.9 -1.9 -1.9 -1.9 -1.9 -1.9 -1.9 -1.9 -1.9 -1.9 -1.9 -1.9 -1.9 -1.9 -1.9 -1.9 -1.9 -1.9 -1.9 -1.9 -1.9 -1.9 -1.9 -1.9 -1.9 -1.9 -1.9 -1.9 -1.9 -1.9 -1.9 -1.9 -1.9 -1.9 -1.9 -1.9 -1.9 -1.9 -1.9 -1.9 -1.9 -1.9 -1.9 -1.9 -1.9 -1.9 -1.9 -1.9 -1.9 -1.9 -1.9 -1.9 -1.9 -1.9
-1.9 -1.9 -1.9 -1.9 -1.9 -1.9 -1.9 -1.9 -1.9 -1.9 -1.9 -1.9 -1.9 -1.9 -1.9 -1.9 -1.9 -1.9 -1.9 -1.9 -1.9 -1.9 -1.9 -1.9 -1.9 -1.9 -1.9 -1.9 -1.9 -1.9 -1.9 -1.9 -1.9 -1.9 -1.9 -1.9 -1.9 -1.9 -1.9 -1.9 -1.9 -1.9 -1.9 2 2.6 4 9.2 18.8 20.1 28.5 23.2 17.9 16.8 17.3 17.6 18.5 18.7 23.7 27.9 30.7 30.1 29.8 31.7 31.4 32.8 32.5 33.4 29.5 29.1 29.3 16.2 9.8 20.7 27.8 12.6 12.6 27.4 30.5 38.4 43.6 45 51.1 52.7 46.6 41.2 30 26.7 23.3 16.4 4.4 -1.9 3.6 9.4 9.6 8.1 7.9 4.3 -1.9 -1.9 -1.9 18.7 18.4 18.6 20 16.5 13.2 17.3 21.8 26.6 34.4 29.5 21.3 8.9 9.9 12.2 17.6 17.1 16.1 16.9 14.3 -1.9 -1.9 -1.9 -1.9 -1.9 -1.9 -0.7 -1.9 -1.9 -1.9 -1.9 -1.9 -1.9 -1.9 -1.9 -1.9 -1.9 -1.9 -1.9 -1.9 -1.9 -1.9 -1.9 -1.9 -1.9 -1.9 -1.9 -1.9 -1.9 -1.9 -1.9 -1.9 -1.9 -1.9 -1.9 -1.9 -1.9 -1.9 -1.9 -1.9 -1.9 -1.9 -1.9 -1.9 -1.9 -1.9 -1.9 -1.9 -1.9 -1.9 -1.9 -1.9 -1.9 -1.9 -1.9 -1.9 -1.9 -1.9 -1.9 -1.9 -1.9 -1.9 -1.9 -1.9 -1.9 -1.9 -1.9 -1.9 -1.9 -1.9 -1.9 -1.9 -1.9 -1.9 -1.9 -1.9 -1.9 -1.9 -1.9 -1.9
-1.9 -1.9 -1.9 -1.9 -1.9 -1.9 -1.9 -1.9 -1.9 -1.9 -1.9 -1.9 -1.9 -1.9 -1.9 -1.9 -1.9 -1.9 -1.9 -1.9 -1.9 -1.9 -1.9 -1.9 -1.9 -1.9 -1.9 -1.9 -1.9 -1.9 -1.9 -1.9 -1.9 -1.9 -1.9 -1.9 -1.9 -1.9 -1.9 -1.9 -1.9 -1.9 -1.9 1.1 3 12.9 18.7 21.7 21.3 21.1 30 18.8 15.3 14.4 15.7 15.6 18.5 18.5 29.1 30.5 31.6 31.6 32.4 32.4 33.4 33.6 33.9 34.1 29.7 29.6 30.4 11.4 26.8 27.3 12.7 26.6 34 43.2 54.8 55.9 60.4 60.2 61.3 52.2 41.6 28.2 25.7 21.8 12.7 3.3 -1.9 -1.9 -1.9 -1.9 -1.9 -1.9 -1.9 -1.9 19.3 23.4 27.1 25.9 27.1 27.1 23 23.3 35.8 41.8 42.9 53.9 39.1 26.7 16.1 14.5 15.4 19.9 24.1 21.1 16 8.3 -1.9 -1.9 -1.9 -1.9 -1.9 10 9 -1.9 -1.9 -1.9 -1.9 -1.9 -1.9 -1.9 -1.9 -1.9 -1.9 -1.9 -1.9 -1.9 -1.9 -1.9 -1.9 -1.9 -1.9 -1.9 -1.9 -1.9 -1.9 -1.9 -1.9 -1.9 -1.9 -1.9 -1.9 -1.9 -1.9 -1.9 -1.9 -1.9 -1.9 -1.9 -1.9 -1.9 -1.9 -1.9 -1.9 -1.9 -1.9 -1.9 -1.9 -1.9 -1.9 -1.9 -1.9 -1.9 -1.9 -1.9 -1.9 -1.9 -1.9 -1.9 -1.9 -1.9 -1.9 -1.9 -1.9 -1.9 -1.9 -1.9 -1.9 -1.9 -1.9 -1.9 -1.9 -1.9 -1.9 -1.9 -1.9 -1.9
-1.9 -1.9 -1.9 -1.9 -1.9 -1.9 -1.9 -1.9 -1.9 -1.9 -1.9 -1.9 -1.9 -1.9 -1.9 -1.9 -1.9 -1.9 -1.9 -1.9 -1.9 -1.9 -1.9 -1.9 -1.9 -1.9 -1.9 -1.9 -1.9 -1.9 -1.9 -1.9 -1.9 -1.9 -1.9 -1.9 -1.9 -1.9 -1.9 -1.9 -1.9 -1.9 -1.9 3.7 9 16.6 22.2 24.4 22.2 20.7 31.7 30.3 14.4 14.4 17.6 17.6 18.4 21.7 33.8 30.2 30.3 30.9 33.1 33.4 33.8 34.1 34.4 34.4 34.8 33.5 33.6 17.7 28.6 20.1 28.2 45.5 57.2 57.9 59.5 59.2 61.4 61.8 58.6 50.4 40.8 28.8 24.8 19.6 10.3 3.4 -1.9 -1.9 -1.9 -1.9 -1.9 -1.9 15.6 19.8 23.9 25.1 29.6 32.9 30.2 30.3 29 39 47.6 52.3 61.2 59.4 42.8 27.4 21.8 19.4 21.7 24.5 26.6 25.7 17.1 14.6 4.2 -1.9 -1.9 -1.9 -1.9 14.4 9.7 -1.9 -1.9 -1.9 -1.9 -1.9 -1.9 -1.9 -1.9 -1.9 -1.9 -1.9 -1.9 -1.9 -1.9 -1.9 -1.9 -1.9 -1.9 -1.9 -1.9 -1.9 -1.9 -1.9 -1.9 -1.9 -1.9 -1.9 -1.9 -1.9 -1.9 -1.9 -1.9 -1.9 -1.9 -1.9 -1.9 -1.9 -1.9 -1.9 -1.9 -1.9 -1.9 -1.9 -1.9 -1.9 -1.9 -1.9 -1.9 -1.9 -1.9 -1.9 -1.9 -1.9 -1.9 -1.9 -1.9 -1.9 -1.9 -1.9 -1.9 -1.9 -1.9 -1.9 -1.9 -1.9 -1.9 -1.9 -1.9 -1.9 -1.9 -1.9 -1.9 -1.9
-1.9 -1.9 -1.9 -1.9 -1.9 -1.9 -1.9 -1.9 -1.9 -1.9 -1.9 -1.9 -1.9 -1.9 -1.9 -1.9 -1.9 -1.9 -1.9 -1.9 -1.9 -1.9 -1.9 -1.9 -1.9 -1.9 -1.9 -1.9 -1.9 -1.9 -1.9 -1.9 -1.9 -1.9 -1.9 -1.9 -1.9 -1.9 1.6 0.5 -1.9 -1.9 5.3 10.1 19.3 23.3 26.9 28.4 22.1 25.5 33.9 33.2 34.2 34.2 36.3 33.9 26.3 33.5 34 33.4 30.9 29 30.3 31.5 34.3 34.7 34.9 34.8 35.4 34.2 34.6 31.8 29 28.2 39.9 54.6 63.5 60.8 61.5 63.6 66.6 69 59.4 49.3 39.4 29.9 24 20.2 11.6 4.3 2.9 0.3 1.7 4.4 13 15.9 20.3 23.5 25.1 26.4 28.9 31.2 30.8 30.2 39.9 50.5 56 59 62.9 53.6 41.9 28.5 27 24.9 27.4 32.3 31.7 20.7 19.2 16.5 14.7 -1.9 -1.9 -1.9 8.9 9.8 -1.9 -1.9 -1.9 -1.9 -1.9 -1.9 -1.9 -1.9 -1.9 -1.9 -1.9 -1.9 -1.9 -1.9 -1.9 -1.9 -1.9 -1.9 -1.9 -1.9 -1.9 -1.9 -1.9 -1.9 -1.9 -1.9 -1.9 -1.9 -1.9 -1.9 -1.9 -1.9 -1.9 -1.9 -1.9 -1.9 -1.9 -1.9 -1.9 -1.9 -1.9 -1.9 -1.9 -1.9 -1.9 -1.9 -1.9 -1.9 -1.9 -1.9 -1.9 -1.9 -1.9 -1.9 -1.9 -1.9 -1.9 -1.9 -1.9 -1.9 -1.9 -1.9 -1.9 -1.9 -1.9 -1.9 -1.9 -1.9 -1.9 -1.9 -1.9 -1.9 -1.9 -1.9
-1.9 -1.9 -1.9 -1.9 -1.9 -1.9 -1.9 -1.9 -1.9 -1.9 -1.9 -1.9 -1.9 -1.9 -1.9 -1.9 -1.9 -1.9 -1.9 -1.9 -1.9 -1.9 -1.9 -1.9 -1.9 -1.9 -1.9 -1.9 -1.9 -1.9 -1.9 -1.9 -1.9 -1.9 -1.9 -1.9 -1.9 4.5 8.8 2.6 2.3 10.3 15.6 20.8 25.5 29.3 33.7 27.1 21.4 33 31.6 31.5 33.1 35.1 35.3 35.5 34.8 35.1 34.5 33.7 32 29.7 31.5 31.9 34.1 35.2 35.4 35.2 35.9 36 34.7 34.5 29.3 29 41.3 51.2 59.5 59.1 69.4 77.8 79.6 69.7 60.9 52.3 42.3 32.1 24.6 21.2 14.2 7 7.2 8 9.7 15.4 20.6 21.6 23.9 23.6 24.8 26.2 26.3 28.5 29.2 38.7 44.9 54.4 61.1 66 59.7 48.5 37.1 32.9 35.1 30.5 31.1 27.5 21.7 19.5 20.4 21.7 15 9.5 2.6 2.6 6.7 -1.9 -1.9 -1.9 -1.9 -1.9 -1.9 -1.9 -1.9 -1.9 -1.9 -1.9 -1.9 -1.9 -1.9 -1.9 -1.9 -1.9 -1.9 -1.9 -1.9 -1.9 -1.9 -1.9 -1.9 -1.9 -1.9 -1.9 -1.9 -1.9 -1.9 -1.9 -1.9 -1.9 -1.9 -1.9 -1.9 -1.9 -1.9 -1.9 -1.9 -1.9 -1.9 -1.9 -1.9 -1.9 -1.9 -1.9 -1.9 -1.9 -1.9 -1.9 -1.9 -1.9 -1.9 -1.9 -1.9 -1.9 -1.9 -1.9 -1.9 -1.9 -1.9 -1.9 -1.9 -1.9 -1.9 -1.9 -1.9 -1.9 -1.9 -1.9 -1.9 -1.9 -1.9 -1.9
-1.9 -1.9 -1.9 -1.9 -1.9 -1.9 -1.9 -1.9 -1.9 -1.9 -1.9 -1.9 -1.9 -1.9 -1.9 -1.9 -1.9 -1.9 -1.9 -1.9 -1.9 -1.9 -1.9 -1.9 -1.9 -1.9 -1.9 -1.9 -1.9 -1.9 -1.9 -1.9 -1.9 -1.9 -1.9 -1.9 2.9 5.2 7.9 7.4 9.3 17 21.6 28 35.4 32.2 29.3 23.4 22.7 32.2 30.6 31 35.1 35.8 34.4 35.3 35.4 35.1 34.7 34.3 33.9 31.3 32.7 32.7 34.8 37 35.6 35.6 35.7 35.1 34.7 31.2 23.8 32.4 43.3 54.7 64 74.5 84.7 86.3 81.5 70.3 61.9 54.2 44.3 34.4 25.9 20.6 14.4 14.5 15.2 16.8 20.3 23.8 28.3 29.9 25.7 25 24.9 25.8 26.3 26.9 34.7 38.7 41.9 50.1 55.4 53.7 47.3 40.9 36 35.7 33.9 30 23.7 21.2 20.4 20 21 16 6 2.6 2.6 2.6 -1.9 -1.9 -1.9 -1.9 -1.9 -1.9 -1.9 -1.9 -1.9 -1.9 -1.9 -1.9 -1.9 -1.9 -1.9 -1.9 -1.9 -1.9 -1.9 -1.9 -1.9 -1.9 -1.9 -1.9 -1.9 -1.9 -1.9 -1.9 -1.9 -1.9 -1.9 -1.9 -1.9 -1.9 -1.9 -1.9 -1.9 -1.9 -1.9 -1.9 -1.9 -1.9 -1.9 -1.9 -1.9 -1.9 -1.9 -1.9 -1.9 -1.9 -1.9 -1.9 -1.9 -1.9 -1.9 -1.9 -1.9 -1.9 -1.9 -1.9 -1.9 -1.9 -1.9 -1.9 -1.9 -1.9 -1.9 -1.9 -1.9 -1.9 -1.9 -1.9 -1.9 -1.9 -1.9 -1.9
-1.9 -1.9 -1.9 -1.9 -1.9 -1.9 -1.9 -1.9 -1.9 -1.9 -1.9 -1.9 -1.9 -1.9 -1.9 -1.9 -1.9 -1.9 -1.9 -1.9 -1.9 -1.9 -1.9 -1.9 -1.9 -1.9 -1.9 -1.9 -1.9 -1.9 -1.9 -1.9 -1.9 -1.9 7.6 10.1 7.1 7.2 10.8 11.5 14.2 19.2 25.5 29.9 31.6 27.7 25.9 25.5 29.1 34.6 31.3 32.1 34.6 35.2 35.2 35.5 35.9 35.5 35.9 36 34.9 35 33.4 34 34.6 35.1 35.4 35 34.5 35.1 30.8 27 30.4 37 52 65.4 80.8 86.1 84.6 87.6 80.7 71 62.2 54.9 46 37 27.1 21.2 20.2 23.1 23 24.1 31.1 34.6 37.2 37.7 33.6 31.9 29.6 28.5 28.1 30 36.7 39.2 42.1 41.4 41.4 41.1 40.3 39.3 38.8 41.3 41.3 34.1 23.3 20.9 20.7 20.7 22.5 17.1 5.8 8.8 4.4 -1.9 -1.9 -1.9 -1.9 -1.9 -1.9 -1.9 -1.9 -1.9 -1.9 -1.9 -1.9 -1.9 -1.9 -1.9 -1.9 -1.9 -1.9 -1.9 -1.9 -1.9 -1.9 -1.9 -1.9 -1.9 -1.9 -1.9 -1.9 -1.9 -1.9 -1.9 -1.9 -1.9 -1.9 -1.9 -1.9 -1.9 -1.9 -1.9 -1.9 -1.9 -1.9 -1.9 -1.9 -1.9 -1.9 -1.9 -1.9 -1.9 -1.9 -1.9 -1.9 -1.9 -1.9 -1.9 -1.9 -1.9 -1.9 -1.9 -1.9 -1.9 -1.9 -1.9 -1.9 -1.9 -1.9 -1.9 -1.9 -1.9 -1.9 -1.9 -1.9 -1.9 -1.9 -1.9 -1.9 -1.9
-1.9 -1.9 -1.9 -1.9 -1.9 -1.9 -1.9 -1.9 -1.9 -1.9 -1.9 -1.9 -1.9 -1.9 -1.9 -1.9 -1.9 -1.9 -1.9 -1.9 -1.9 -1.9 -1.9 -1.9 -1.9 -1.9 -1.9 -1.9 -1.9 -1.9 -1.9 -1.9 -1.9 10.4 15.9 17.7 13 11.5 12.8 14.8 17.7 21.8 26.2 30 29.3 28.3 28.6 30.5 31.7 34.3 36.2 37.9 42.6 46.3 44.4 40.8 39.5 39.2 39.9 39.3 35.4 34.3 33.5 34.2 34.9 35.2 35.4 34.5 32.8 33 32.8 28.1 33.4 47.8 66.6 78.7 82.7 84.6 84.1 80.9 76.9 71.8 68.2 59 48.6 38.8 28.3 22.9 24.2 28.3 30 35 45.8 50.5 46.3 46.7 43.9 39.3 34 33 34.6 34.9 38.7 40.2 44.4 42.4 41.3 40.8 40.6 45.4 49.6 48.1 44.6 33.1 25.2 22.2 20.9 18.7 16.6 15.2 19.2 13.2 -1.9 -1.9 -1.9 -1.9 -1.9 -1.9 -1.9 -1.9 -1.9 -1.9 -1.9 -1.9 -1.9 -1.9 -1.9 -1.9 -1.9 -1.9 -1.9 -1.9 -1.9 -1.9 -1.9 -1.9 -1.9 -1.9 -1.9 -1.9 -1.9 -1.9 -1.9 -1.9 -1.9 -1.9 -1.9 -1.9 -1.9 -1.9 -1.9 -1.9 -1.9 -1.9 -1.9 -1.9 -1.9 -1.9 -1.9 -1.9 -1.9 -1.9 -1.9 -1.9 -1.9 -1.9 -1.9 -1.9 -1.9 -1.9 -1.9 -1.9 -1.9 -1.9 -1.9 -1.9 -1.9 -1.9 -1.9 -1.9 -1.9 -1.9 -1.9 -1.9 -1.9 -1.9 -1.9 -1.9 -1.9 -1.9
-1.9 -1.9 -1.9 -1.9 -1.9 -1.9 -1.9 -1.9 -1.9 -1.9 -1.9 -1.9 -1.9 -1.9 -1.9 -1.9 -1.9 -1.9 -1.9 -1.9 -1.9 -1.9 -1.9 -1.9 -1.9 -1.9 -1.9 -1.9 -1.9 -1.9 0.5 1.6 7.6 15.8 18.4 18.1 15.7 15.6 17.3 19.1 22.2 26 32.1 30.2 29.9 29.9 31.2 33.1 36.2 38.8 41.7 45.4 48.2 49.7 47.6 44.2 44.7 46.5 47.7 47.5 43.1 33.7 33.7 34.6 34.5 34.5 34.1 34.6 34.5 32.4 30.6 28.7 40.9 57.3 67.8 78.7 86.9 93.3 90.9 83 77.5 75.4 73.1 65.5 48.2 36.1 31 29.7 32.6 38.6 46.6 56.9 57.6 57.9 51.7 51.5 50.2 42.4 37.4 37.2 37 38.4 40.5 40.4 40.1 41.3 42.1 41.3 45.2 52.1 58.6 53.1 42.6 30.5 26.2 22.5 21.4 17.3 16.7 22.6 24 -1.9 -1.9 -1.9 -1.9 -1.9 -1.9 -1.9 -1.9 -1.9 -1.9 -1.9 -1.9 -1.9 -1.9 -1.9 -1.9 -1.9 -1.9 -1.9 -1.9 -1.9 -1.9 -1.9 -1.9 -1.9 -1.9 -1.9 -1.9 -1.9 -1.9 -1.9 -1.9 -1.9 -1.9 -1.9 -1.9 -1.9 -1.9 -1.9 -1.9 -1.9 -1.9 -1.9 -1.9 -1.9 -1.9 -1.9 -1.9 -1.9 -1.9 -1.9 -1.9 -1.9 -1.9 -1.9 -1.9 -1.9 -1.9 -1.9 -1.9 -1.9 -1.9 -1.9 -1.9 -1.9 -1.9 -1.9 -1.9 -1.9 -1.9 -1.9 -1.9 -1.9 -1.9 -1.9 -1.9 -1.9 -1.9 -1.9
-1.9 -1.9 -1.9 -1.9 -1.9 -1.9 -1.9 -1.9 -1.9 -1.9 -1.9 -1.9 -1.9 -1.9 -1.9 -1.9 -1.9 -1.9 -1.9 -1.9 -1.9 -1.9 -1.9 -1.9 -1.9 -1.9 -1.9 -1.9 -1.9 2.6 2.6 5.3 9.4 16.3 17.9 18.2 18.3 18.8 20.3 23.5 25.6 27.7 29.5 30.1 29.8 32.8 33.5 35 36.7 38.7 42.7 45.4 47.4 50.1 52.3 50.3 51.6 57.3 59.1 52 42.2 34.6 34.2 34.8 34.7 34.3 34.5 33.3 34.9 31.8 30.1 29.1 37.7 51.3 66.3 83.9 97.4 100.4 95.8 88.4 82 79.4 74.6 58.8 46.8 38.7 38.5 38.7 42.5 49.8 58 64.4 61.1 59.4 58.5 57.9 52.9 45.2 41.5 39.9 40 41 41.6 41.3 39.9 40.7 41.4 42.3 46.7 59.1 65.9 58.9 39.4 34 26.4 21.6 17.7 17.8 24.3 22 -1.9 -1.9 -1.9 -1.9 -1.9 -1.9 -1.9 -1.9 -1.9 -1.9 -1.9 -1.9 -1.9 -1.9 -1.9 -1.9 -1.9 -1.9 -1.9 -1.9 -1.9 -1.9 -1.9 -1.9 -1.9 -1.9 -1.9 -1.9 -1.9 -1.9 -1.9 -1.9 -1.9 -1.9 -1.9 -1.9 -1.9 -1.9 -1.9 -1.9 -1.9 -1.9 -1.9 -1.9 -1.9 -1.9 -1.9 -1.9 -1.9 -1.9 -1.9 -1.9 -1.9 -1.9 -1.9 -1.9 -1.9 -1.9 -1.9 -1.9 -1.9 -1.9 -1.9 -1.9 -1.9 -1.9 -1.9 -1.9 -1.9 -1.9 -1.9 -1.9 -1.9 -1.9 -1.9 -1.9 -1.9 -1.9 -1.9 -1.9
-1.9 -1.9 -1.9 -1.9 -1.9 -1.9 -1.9 -1.9 -1.9 -1.9 -1.9 -1.9 -1.9 -1.9 -1.9 -1.9 -1.9 -1.9 -1.9 -1.9 -1.9 -1.9 -1.9 -1.9 -1.9 -1.9 -1.9 -1.9 -1.9 1.1 6 10.3 15 17.5 18 19.7 22.3 23 24.9 27.3 30.7 30.8 30.7 30.8 33.1 33.1 35.2 37.1 38.4 38.2 41.2 44.8 48 49.8 54.2 55.1 55.5 58.8 52.9 46.1 39.9 35.8 35.4 35.4 35 34.7 35.2 34.9 35.9 34.6 31.8 29.8 37.7 51.2 72.3 93.2 93.6 93.7 90 85.4 81.5 74.4 66 56.3 49.5 47.9 49 53.1 53 60.8 68.3 68.4 63.9 62.1 63.7 61.1 52.3 47.9 43.8 42.3 42.3 42.6 42.1 41 39.7 40.4 41.8 42.6 45.7 58.6 67.5 54.1 41.5 38.2 28.5 16.6 13.5 23.9 25.7 -1.9 -1.9 -1.9 -1.9 -1.9 -1.9 -1.9 -1.9 -1.9 -1.9 -1.9 -1.9 -1.9 -1.9 -1.9 -1.9 -1.9 -1.9 -1.9 -1.9 -1.9 -1.9 -1.9 -1.9 -1.9 -1.9 -1.9 -1.9 -1.9 -1.9 -1.9 -1.9 -1.9 -1.9 -1.9 -1.9 -1.9 -1.9 -1.9 -1.9 -1.9 -1.9 -1.9 -1.9 -1.9 -1.9 -1.9 -1.9 -1.9 -1.9 -1.9 -1.9 -1.9 -1.9 -1.9 -1.9 -1.9 -1.9 -1.9 -1.9 -1.9 -1.9 -1.9 -1.9 -1.9 -1.9 -1.9 -1.9 -1.9 -1.9 -1.9 -1.9 -1.9 -1.9 -1.9 -1.9 -1.9 -1.9 -1.9 -1.9 -1.9
-1.9 -1.9 -1.9 -1.9 -1.9 -1.9 -1.9 -1.9 -1.9 -1.9 -1.9 -1.9 -1.9 -1.9 -1.9 -1.9 -1.9 -1.9 -1.9 -1.9 -1.9 -1.9 -1.9 -1.9 -1.9 -1.9 -1.9 -1.9 -1.9 4 10.5 15.3 17.4 18.3 20 22.6 25.3 26.7 31.8 33.9 32.7 32.6 31.6 31.3 33.1 34.9 37 39.3 39 38.9 42.5 47.3 50.1 50.4 51.1 51.6 52.6 51.1 47.5 42.8 39.1 37.5 36.7 35.7 35.3 35.4 36.1 36.9 36.5 35.8 34 31.8 33.2 47.4 62.3 79.6 84 84.3 82.6 81.2 77.2 70.1 62.4 57.8 55.3 57.4 59.1 57 63.3 67.7 70.9 69.2 68.5 69.6 66.1 58.5 52.8 49.2 46.5 47.1 44.5 43.1 41.6 40.1 39.4 38.4 38.8 39.7 44.7 56.7 58 55.5 50.7 41.9 22.4 -1.9 -1.9 -1.9 -1.9 -1.9 -1.9 -1.9 -1.9 -1.9 -1.9 -1.9 -1.9 -1.9 -1.9 -1.9 -1.9 -1.9 -1.9 -1.9 -1.9 -1.9 -1.9 -1.9 -1.9 -1.9 -1.9 -1.9 -1.9 -1.9 -1.9 -1.9 -1.9 -1.9 -1.9 -1.9 -1.9 -1.9 -1.9 -1.9 -1.9 -1.9 -1.9 -1.9 -1.9 -1.9 -1.9 -1.9 -1.9 -1.9 -1.9 -1.9 -1.9 -1.9 -1.9 -1.9 -1.9 -1.9 -1.9 -1.9 -1.9 -1.9 -1.9 -1.9 -1.9 -1.9 -1.9 -1.9 -1.9 -1.9 -1.9 -1.9 -1.9 -1.9 -1.9 -1.9 -1.9 -1.9 -1.9 -1.9 -1.9 -1.9 -1.9 -1.9 -1.9 -1.9
-1.9 -1.9 -1.9 -1.9 -1.9 -1.9 -1.9 -1.9 -1.9 -1.9 -1.9 -1.9 -1.9 -1.9 -1.9 -1.9 -1.9 -1.9 -1.9 -1.9 -1.9 -1.9 -1.9 -1.9 -1.9 -1.9 0.1 -0.2 0.6 2.6 9.2 14.7 18.8 20.8 24.5 25.1 30.5 33.9 35.1 34.1 33.5 33.4 33.4 32.8 33.6 35.5 37.5 38.6 38.7 39.1 42.9 49.8 50.3 50.2 50.7 52.4 52.9 51.3 48.7 47.5 46.3 43 39.9 39 39.3 45.6 37.6 37.6 37 36.2 35.1 32.9 30.9 45.5 59 72.2 80.9 81.8 79.4 75.8 70.7 64.8 62.6 61.3 60.3 60.2 60.5 63.6 68.6 71.2 72.4 72.6 73 71.1 64.8 56.3 54.4 50.4 47.3 46.1 45.5 45.5 42.3 38 39.8 36.2 36.8 32.8 38.9 54.6 62.4 64.1 47.3 30.9 -1.9 -1.9 -1.9 -1.9 -1.9 -1.9 -1.9 -1.9 -1.9 -1.9 -1.9 -1.9 -1.9 -1.9 -1.9 -1.9 -1.9 -1.9 -1.9 -1.9 -1.9 -1.9 -1.9 -1.9 -1.9 -1.9 -1.9 -1.9 -1.9 -1.9 -1.9 -1.9 -1.9 -1.9 -1.9 -1.9 -1.9 -1.9 -1.9 -1.9 -1.9 -1.9 -1.9 -1.9 -1.9 -1.9 -1.9 -1.9 -1.9 -1.9 -1.9 -1.9 -1.9 -1.9 -1.9 -1.9 -1.9 -1.9 -1.9 -1.9 -1.9 -1.9 -1.9 -1.9 -1.9 -1.9 -1.9 -1.9 -1.9 -1.9 -1.9 -1.9 -1.9 -1.9 -1.9 -1.9 -1.9 -1.9 -1.9 -1.9 -1.9 -1.9 -1.9 -1.9 -1.9 -1.9
-1.9 -1.9 -1.9 -1.9 -1.9 -1.9 -1.9 -1.9 -1.9 -1.9 -1.9 -1.9 -1.9 -1.9 -1.9 -1.9 -1.9 -1.9 -1.9 -1.9 -1.9 -1.9 -1.9 2.6 5.9 3.2 1.9 1.5 2.2 5.5 10.8 17.1 21.2 23.2 29.2 30.4 32.9 35.3 35.4 34.7 34.9 35.1 34.9 34.2 34.3 36.2 38.2 38.5 38.2 38.5 41.4 48.9 49.7 50.5 52 54 53.6 51.9 51.4 54.8 56.8 51.8 48 42.9 49 46.2 40.7 38.1 37.3 36.6 35.9 33.8 32.3 43.3 56.8 70.7 81.1 80.9 79.4 70.9 65.9 63.6 62.7 62 62.7 62.5 66.5 71.5 73.6 74 74.3 76.2 73.3 66.4 57.8 52.2 50.7 50.3 50 47.5 47.6 46.2 41.4 33.6 30.3 31.6 31.8 21.7 27.6 38.2 43.1 34.5 -1.9 -1.9 -1.9 -1.9 -1.9 -1.9 -1.9 -1.9 -1.9 -1.9 -1.9 -1.9 -1.9 -1.9 -1.9 -1.9 -1.9 -1.9 -1.9 -1.9 -1.9 -1.9 -1.9 -1.9 -1.9 -1.9 -1.9 -1.9 -1.9 -1.9 -1.9 -1.9 -1.9 -1.9 -1.9 -1.9 -1.9 -1.9 -1.9 -1.9 -1.9 -1.9 -1.9 -1.9 -1.9 -1.9 -1.9 -1.9 -1.9 -1.9 -1.9 -1.9 -1.9 -1.9 -1.9 -1.9 -1.9 -1.9 -1.9 -1.9 -1.9 -1.9 -1.9 -1.9 -1.9 -1.9 -1.9 -1.9 -1.9 -1.9 -1.9 -1.9 -1.9 -1.9 -1.9 -1.9 -1.9 -1.9 -1.9 -1.9 -1.9 -1.9 -1.9 -1.9 -1.9 -1.9 -1.9 -1.9
-1.9 -1.9 -1.9 -1.9 -1.9 -1.9 -1.9 -1.9 -1.9 -1.9 -1.9 -1.9 -1.9 -1.9 -1.9 -1.9 -1.9 -1.9 -1.9 -1.9 -1.9 -1.9 -1.9 2.5 9.8 4.8 6 5.8 7.7 10.6 16.2 20.6 24.3 28.5 32.1 33.8 34.9 35.8 36.7 36.7 36.8 36.8 36.1 35.4 34.9 36.9 38.9 39.1 38.6 38.3 39.3 46.9 50.5 51.9 54.1 54.9 54.5 54.2 54.7 57.6 59.4 57.5 52.7 47.2 47.3 47.8 41.1 38.6 37.1 36.3 35.7 34.6 34.3 42 55.7 68.7 79.3 78.2 72.6 68 64.8 63.7 63 63.6 64.5 66.9 75.3 82.2 81.9 77.1 78.1 79.3 75.1 63.4 54.9 51.4 51.6 51 50.7 53.5 55.7 48 41.8 31 26.9 27.2 19.4 -1.9 -1.9 -1.9 -1.9 -1.9 -1.9 -1.9 -1.9 -1.9 -1.9 -1.9 -1.9 -1.9 -1.9 -1.9 -1.9 -1.9 -1.9 -1.9 -1.9 -1.9 -1.9 -1.9 -1.9 -1.9 -1.9 -1.9 -1.9 -1.9 -1.9 -1.9 -1.9 -1.9 -1.9 -1.9 -1.9 -1.9 -1.9 -1.9 -1.9 -1.9 -1.9 -1.9 -1.9 -1.9 -1.9 -1.9 -1.9 -1.9 -1.9 -1.9 -1.9 -1.9 -1.9 -1.9 -1.9 -1.9 -1.9 -1.9 -1.9 -1.9 -1.9 -1.9 -1.9 -1.9 -1.9 -1.9 -1.9 -1.9 -1.9 -1.9 -1.9 -1.9 -1.9 -1.9 -1.9 -1.9 -1.9 -1.9 -1.9 -1.9 -1.9 -1.9 -1.9 -1.9 -1.9 -1.9 -1.9 -1.9 -1.9 -1.9 -1.9 -1.9
-1.9 -1.9 -1.9 -1.9 -1.9 -1.9 -1.9 -1.9 -1.9 -1.9 -1.9 -1.9 -1.9 -1.9 -1.9 -1.9 -1.9 -1.9 -1.9 -1.9 -1.9 1.7 2 3.8 7.7 7.2 10.2 11.2 12.3 17.1 21 25 29.2 32.2 33.4 34.9 36.3 37.3 38.5 38.8 38.7 38 37.3 36.7 36.3 37.6 39.5 39.7 39.1 38.9 39.1 45 50.2 52.9 56.9 58.4 59.6 59.8 59.7 58.9 60.1 61.1 58.2 53.9 53.1 51.4 45.4 39.1 37.6 36.7 35.4 32.9 31.8 41 52.4 64 69.3 68.9 68.2 65.7 66.7 65.5 63.9 67.1 70.8 77.2 87.2 92.7 94.1 85.7 86 86.3 76.1 64.9 55 52.5 52 54.5 53 56.6 56.5 48.3 41 31.5 22 11.1 -1.9 -1.9 -1.9 -1.9 -1.9 -1.9 -1.9 -1.9 -1.9 -1.9 -1.9 -1.9 -1.9 -1.9 -1.9 -1.9 -1.9 -1.9 -1.9 -1.9 -1.9 -1.9 -1.9 -1.9 -1.9 -1.9 -1.9 -1.9 -1.9 -1.9 -1.9 -1.9 -1.9 -1.9 -1.9 -1.9 -1.9 -1.9 -1.9 -1.9 -1.9 -1.9 -1.9 -1.9 -1.9 -1.9 -1.9 -1.9 -1.9 -1.9 -1.9 -1.9 -1.9 -1.9 -1.9 -1.9 -1.9 -1.9 -1.9 -1.9 -1.9 -1.9 -1.9 -1.9 -1.9 -1.9 -1.9 -1.9 -1.9 -1.9 -1.9 -1.9 -1.9 -1.9 -1.9 -1.9 -1.9 -1.9 -1.9 -1.9 -1.9 -1.9 -1.9 -1.9 -1.9 -1.9 -1.9 -1.9 -1.9 -1.9 -1.9 -1.9 -1.9 -1.9
-1.9 -1.9 -1.9 -1.9 -1.9 -1.9 -1.9 -1.9 -1.9 -1.9 -1.9 -1.9 -1.9 -1.9 -1.9 -1.9 -1.9 -1.9 -1.9 -1.9 4 5.7 7.1 8.6 10.3 11.8 12.8 16.2 18.8 20.5 25.6 28.4 31.6 33 33.9 35.3 36.7 38.2 40 40.8 39.7 39.2 38.7 38.3 39.2 38.4 40.1 40.7 41.5 43.4 46.3 49.2 49.4 54.1 60.1 64.1 66.9 66.3 66.2 67.9 65.5 61.7 61.9 63.9 64 64.1 57.8 44.5 41.6 39.4 37.4 35.5 33.3 38.9 50.3 58.9 63.8 65.7 66.5 68 69.3 69.6 72.7 80.6 80.5 85.9 91.9 96 99.9 95.2 90.1 84.1 74.9 64.3 57.3 55.7 56.4 56.4 57.7 59 55.1 49.1 43.7 26.4 -1.9 -1.9 -1.9 -1.9 -1.9 -1.9 -1.9 -1.9 -1.9 -1.9 -1.9 -1.9 -1.9 -1.9 -1.9 -1.9 -1.9 -1.9 -1.9 -1.9 -1.9 -1.9 -1.9 -1.9 -1.9 -1.9 -1.9 -1.9 -1.9 -1.9 -1.9 -1.9 -1.9 -1.9 -1.9 -1.9 -1.9 -1.9 -1.9 -1.9 -1.9 -1.9 -1.9 -1.9 -1.9 -1.9 -1.9 -1.9 -1.9 -1.9 -1.9 -1.9 -1.9 -1.9 -1.9 -1.9 -1.9 -1.9 -1.9 -1.9 -1.9 -1.9 -1.9 -1.9 -1.9 -1.9 -1.9 -1.9 -1.9 -1.9 -1.9 -1.9 -1.9 -1.9 -1.9 -1.9 -1.9 -1.9 -1.9 -1.9 -1.9 -1.9 -1.9 -1.9 -1.9 -1.9 -1.9 -1.9 -1.9 -1.9 -1.9 -1.9 -1.9 -1.9 -1.9 -1.9
-1.9 -1.9 -1.9 -1.9 -1.9 -1.9 -1.9 -1.9 -1.9 -1.9 -1.9 -1.9 -1.9 -1.9 -1.9 -1.9 -1.9 0.7 2.5 4.2 9.8 10.5 12 13.8 15 16.3 18.2 20 23.6 26.2 30.1 31.8 33.3 34.7 34.6 34.8 36.5 38.2 39.8 41 41.6 41.7 41.1 40.9 41.8 42.5 44.2 44.8 45.9 48.9 50.7 50.7 49.4 53.9 61.7 65.7 69.2 71.5 74.9 80.5 79.3 71.9 68.8 67.8 73.2 69.5 59.3 48.6 40.2 37.6 36.5 35.3 33.8 36.7 45.9 53.1 60.2 67 69.1 70.5 72.1 76.7 83.8 92.1 92.7 92.8 94 95.4 97 93.3 87.5 81.1 73.8 65.2 60.5 58.4 58 60.8 63.2 65.5 57.6 48.9 33.8 -1.9 -1.9 -1.9 -1.9 -1.9 -1.9 -1.9 -1.9 -1.9 -1.9 -1.9 -1.9 -1.9 -1.9 -1.9 -1.9 -1.9 -1.9 -1.9 -1.9 -1.9 -1.9 -1.9 -1.9 -1.9 -1.9 -1.9 -1.9 -1.9 -1.9 -1.9 -1.9 -1.9 -1.9 -1.9 -1.9 -1.9 -1.9 -1.9 -1.9 -1.9 -1.9 -1.9 -1.9 -1.9 -1.9 -1.9 -1.9 -1.9 -1.9 -1.9 -1.9 -1.9 -1.9 -1.9 -1.9 -1.9 -1.9 -1.9 -1.9 -1.9 -1.9 -1.9 -1.9 -1.9 -1.9 -1.9 -1.9 -1.9 -1.9 -1.9 -1.9 -1.9 -1.9 -1.9 -1.9 -1.9 -1.9 -1.9 -1.9 -1.9 -1.9 -1.9 -1.9 -1.9 -1.9 -1.9 -1.9 -1.9 -1.9 -1.9 -1.9 -1.9 -1.9 -1.9 -1.9 -1.9
-1.9 -1.9 -1.9 -1.9 -1.9 -1.9 -1.9 -1.9 -1.9 -1.9 -1.9 -1.9 -1.9 -1.9 -1.9 -1.9 3.3 4.8 8.9 11.8 12.2 14.2 16.4 18.5 18.4 15.8 17.6 23.8 27.5 30.3 31 32.8 35.7 35.5 35.4 36.3 37.8 39.7 41.7 43.3 44 44.4 43.9 44.3 46.2 48.6 49 49.5 50.8 52.3 53.7 52.7 50.4 55.3 62.9 67 70.7 74.2 78.6 83.5 79.2 76.1 76.2 74.6 68.4 66.2 62.6 48.3 41.3 38.2 37.1 35.3 35 35.4 42.4 51.1 60.7 69.7 71 73.7 75.1 80.7 89 96.3 99.4 98.2 101.9 100.6 95.2 89.3 84.3 78.1 72.6 68.1 64 60.7 60.3 63 66.2 56.3 54.2 47.8 -1.9 -1.9 -1.9 -1.9 -1.9 -1.9 -1.9 -1.9 -1.9 -1.9 -1.9 -1.9 -1.9 -1.9 -1.9 -1.9 -1.9 -1.9 -1.9 -1.9 -1.9 -1.9 -1.9 -1.9 -1.9 -1.9 -1.9 -1.9 -1.9 -1.9 -1.9 -1.9 -1.9 -1.9 -1.9 -1.9 -1.9 -1.9 -1.9 -1.9 -1.9 -1.9 -1.9 -1.9 -1.9 -1.9 -1.9 -1.9 -1.9 -1.9 -1.9 -1.9 -1.9 -1.9 -1.9 -1.9 -1.9 -1.9 -1.9 -1.9 -1.9 -1.9 -2 -1.9 -1.9 -1.9 -1.9 -1.9 -1.9 -1.9 -1.9 -1.9 -1.9 -1.9 -1.9 -1.9 1.3 -1.9 -1.9 -1.9 -1.9 -1.9 -1.9 -1.9 -1.9 -1.9 -1.9 -1.9 -1.9 -1.9 -1.9 -1.9 -1.9 -1.9 -1.9 -1.9 -1.9 -1.9
-1.9 -1.9 -1.9 -1.9 -1.9 -1.9 -1.9 -1.9 -1.9 -1.9 -1.9 -1.9 -1.9 -1.9 -1.9 5.6 8.2 11.4 14.4 15.2 16.6 18.4 19.9 23.4 21.6 17.9 19.8 26.6 29.7 32.4 33.7 34.8 36.5 36.9 37.3 38.5 40.3 42.5 45.3 47.1 46.8 46.8 47.1 47.9 49 50.5 52.7 57 57.8 59 57.4 55 55 55.9 63.7 69.9 72.7 75.7 79.2 81.2 78.5 77.5 78.8 84.7 73.1 64.6 58.2 47.1 41.1 37.9 36.3 35.8 36.6 38.6 43.2 51 59.9 69.3 73.7 76.9 80.2 87.2 95.6 99.1 100.6 101.2 102.1 99.1 91.6 85.3 79.8 76.5 73.5 67.7 62 57.1 57 60.1 55.7 56.6 51.8 17.8 -1.9 -1.9 -1.9 -1.9 -1.9 -1.9 -1.9 -1.9 -1.9 -1.9 -1.9 -1.9 -1.9 -1.9 -1.9 -1.9 -1.9 -1.9 -1.9 -1.9 -1.9 -1.9 -1.9 -1.9 -1.9 -1.9 -1.9 -1.9 -1.9 -1.9 -1.9 -1.9 -1.9 -1.9 -1.9 -1.9 -1.9 -1.9 -1.9 -1.9 -1.9 -1.9 -1.9 -1.9 -1.9 0 0.5 0.4 -1.9 -1.9 -1.9 -1.9 -1.9 -1.9 -1.9 -1.9 -1.9 -1.9 -1.9 18.5 16 11.3 1.8 10.5 5.6 -1.9 -1.9 -1.9 -1.9 -1.9 -1.9 13.5 19.1 6 2.2 9.3 16 16.3 5.6 1.4 -1.9 -1.9 -1.9 -1.9 -1.9 -1.9 -1.9 -1.9 -1.9 -1.9 -1.9 -1.9 -1.9 -1.9 -1.9 -1.9 -1.9 -1.9
-1.9 -1.9 -1.9 -1.9 -1.9 -1.9 -1.9 -1.9 -1.9 -1.9 -1.9 -1.9 -1.9 -1.9 1.8 6.1 12.3 15.2 16.7 17.9 20.5 22.2 25.5 25.7 23.8 24.4 24.6 27.9 31.5 33.7 34.7 36 37.6 38.5 39.3 41.8 44.5 47.2 49.9 51.5 51.2 50.8 52.2 54 55.4 55.7 54.9 60.6 60.8 61.9 61 61.9 61 61.9 64.6 68.9 73.8 76.6 79.2 80.7 78.4 77.4 76.6 79.6 73.2 67.1 59.5 49.6 38.2 37 35.1 36 38.2 44.2 50.6 59 66.3 72.3 79 82.3 86.5 97.4 100.2 100.7 101 98.8 97.4 90.2 88 81.6 74.4 73.7 69.2 58.6 49 45.7 45.5 48.8 41.3 31.2 -1.9 -0.8 -1.9 -1.9 -1.9 -1.9 -1.9 -1.9 -1.9 -1.9 -1.9 -1.9 -1.9 -1.9 -1.9 -1.9 -1.9 -1.9 -1.9 -1.9 -1.9 -1.9 -1.9 -0.2 -0.6 -1.9 -1.9 -1.9 -1.9 -1.9 -1.9 -1.9 -1.9 -1.9 -1.9 -1.9 -1.9 -1.9 -1.9 3.8 6.9 4.3 2.9 2.6 8.3 9.2 7.2 4.7 2.6 5.1 1.9 -1.9 -1.9 -1.9 -1.9 -1.9 -1.9 -1.9 27.1 43.7 50.9 40.9 53.7 37.6 30.5 34.2 21.6 15.9 10.6 3.6 14.1 17.8 19.5 22.8 23.2 16.8 14.9 18.5 23.9 23.5 20 13.4 13.4 9 8.2 3.4 -1.9 -1.9 -1.9 -1.9 -1.9 -1.9 -1.9 -1.9 -1.9 -1.9 -1.9 -1.9 -1.9 -1.9
-1.9 -1.9 -1.9 -1.9 -1.9 -1.9 -1.9 -1.9 -1.9 -1.9 -1.9 -1.9 -1.9 2.8 5.3 9.5 15.5 20.6 19.9 21.2 23.7 25.1 26.9 27.3 26.3 29.2 27.4 29.6 32.3 34.6 35.8 37.3 38.8 40.1 42.3 46 49.3 52.3 55.2 56 55.9 56.7 58.6 60.7 61.6 62.1 59.4 58 60.5 61.7 65.7 66.2 66.8 68.3 67.7 68.8 73 79.1 80.9 79.9 78.7 76.6 75.2 72.5 70.2 65.1 58.7 48.9 36.8 34.6 40.7 37.7 43.1 52.2 59.5 65.6 76.1 80.7 84.1 91.3 98.7 99.2 98.5 95.8 92.5 90.5 85.8 79.5 72.2 66.9 61.5 55.1 52.8 46.1 33.8 22.4 23 13.8 2.7 -1.9 -1.9 -1 -1.9 -1.9 -1.9 -1.9 -1.9 -1.9 -1.9 -1.9 -1.9 -1.9 -1.9 -1.9 -1.9 -1.9 -1.9 -1.9 -1.9 -1.9 -1.9 -1.9 1.3 2.7 2.6 2.1 1 1.3 2.2 -1.9 -1.9 -1.9 5.1 20.8 37.2 30.8 11.5 7.4 15.7 22.7 22 23.9 24.7 30.2 33.2 24.8 17.3 18.4 15.2 11.3 11.3 6.5 1.3 -1.9 -1.9 7 24.7 44.5 62.6 69.3 77.9 79.2 71.1 41.9 50.8 41.3 30.9 29.1 24.3 25.5 22.6 27.8 28 30.1 26.9 29.1 28.8 34.1 37.1 35.4 34.7 35.8 30.5 24.3 18.5 8.6 1.4 -1.9 -1.9 -1.9 -1.9 -1.9 -1.9 -1.9 -1.9 -1.9 -1.9 -1.9 -1.9 -1.9
-1.9 -1.9 -1.9 -1.9 -1.9 -1.9 -1.9 -1.9 -1.9 -1.9 -1.9 -1.9 1.9 6.5 11.7 15.7 18 21.1 21.9 24.5 26.4 27.9 28.7 28.7 29.4 31 28.6 29.9 32.5 35.1 37.8 39.5 41.2 42.7 45.3 47.9 51.3 56 60.3 60.5 61 62.1 65.3 67.5 69.2 68.5 69.8 63 59.7 61.8 67.4 73.4 73.9 75.3 74.8 75.4 75 76.7 80 78.9 78.7 76.1 73.8 70.3 67.5 61.6 55.2 42.4 36.8 40.1 41.6 42.6 53.7 61.5 66.9 71.6 81 81.3 84.2 91.2 93 91.1 89.7 84.6 77.2 72.4 65.6 58.3 53.7 49 43.3 41.6 33.4 23.6 9.6 8.4 7.8 3.3 2.6 2.6 2.6 0.6 -1.9 -1.9 -1.9 -1.9 -1.9 -1.9 -1.9 -1.9 -1.9 -1.9 -1.9 -1.9 -1.9 -1.9 -1.9 -1.9 -1.9 -1.9 -1.9 6.6 20.3 13.7 6.5 8.1 8.4 7.8 8.2 14.1 23.4 24.2 26.4 47.1 50.3 45.2 32.5 29 29.8 33.2 38.8 42.5 47.6 53.8 47 39 32.6 32.1 32.1 30 32.1 31.1 27.3 21.2 35 50.1 61.4 74.9 86.3 97 99 93.1 69.9 71.5 60.2 53.2 45.8 44.2 52.5 43.5 30.7 36.2 45.6 52.2 48.1 42.6 42.8 48.2 53.2 57.2 56.2 48.7 40.1 34 25.7 14.9 2.5 -1.9 -1.9 -1.9 -1.9 -1.9 -1.9 -1.9 -1.9 -1.9 -1.9 -1.9 -1.9 -1.9
-1.2 -1.9 -1.9 -1.9 -1.9 -1.9 -1.9 -1.9 2.6 1.1 0.4 2.7 5.7 12.9 16.5 19 20.9 23 24.6 26.9 29.4 29.6 29.7 30.6 33.5 33.5 29.6 30.5 33.4 36.2 39.4 42.2 44.2 45.8 47 49.5 53.6 57.4 60.9 62.6 64.4 66.5 72.1 75.9 79.1 78.1 78.6 73.8 64 66.9 75.1 85.4 84.9 80.6 79.9 78.6 77.9 78.1 79.2 75.5 75.5 77.9 75 70.2 64.3 57.3 50.5 38.9 37.8 41.2 42.2 50.4 63.3 71.3 71.6 73.2 77.2 74.9 73.7 72.7 70.6 69.9 67.5 61.9 52.8 45.8 41.8 34.4 34 31.1 24.6 20.7 16 11.2 8.2 8.9 9.4 9.2 9.5 6.4 5.1 4 1.5 -1.9 -1.9 -1.9 -1.9 -1.9 -1.9 -1.9 -1.9 8.5 13.9 5.8 3.5 2.1 1.2 1.9 9.6 7.7 20.2 42.9 53.3 40.5 18 25.2 25.5 24.3 22.9 28.6 36.4 34.1 40.6 51.6 53.5 51.4 48.8 43.8 43.3 51.8 58.1 64.3 68.2 67.8 62.1 60.6 56.5 46.9 43.8 45.2 49.5 53.8 56.5 64.9 74.3 78.7 88.6 102.7 113.5 121.8 117.3 95.5 81.3 81 72.1 72 62.7 54.6 50.4 44.3 47.2 57.5 56.5 55.9 52.3 58.3 51.9 58 61.7 62 59.5 55.8 48.1 42.8 32.4 20.2 8 -1.9 -1.9 -1.9 -1.9 -1.9 -1.9 -1.9 -1.9 -1.9 -1.9 -1.9 -1.9 -1.9
-0.6 -1.9 -1.9 -1.9 -1.9 -1.9 -1.9 0.6 2.6 2.9 6.3 6.4 12.5 16.4 20.1 20.6 23.3 24.6 26.8 29.1 30.6 32.2 33.8 35.3 37.1 32.4 31.8 30.2 34.1 37.7 40.8 45.1 47.7 48.6 49.4 51.2 54.6 58.7 62.4 65 67.1 70.9 76.4 80.7 82.2 80.1 80.6 77.6 68.9 73.8 79.1 87.8 90.6 93.3 86.6 80.9 81.7 79.2 78.7 75.5 78.3 78.6 75.5 68.9 63.4 53.5 40.5 39.1 38.5 41.6 42.8 50.2 58.5 69.7 70.6 71.2 69 63.2 53.3 49.1 45.8 42.7 39.5 37.3 34.6 30.7 28.6 28.4 28.3 21.7 20.6 18.4 15 15.3 19.6 25.2 29.7 28.5 31.9 32.8 28.3 19.8 11.9 12.4 13.6 6.4 11.9 7.7 9.5 19.8 25.2 25.2 29 28 24 24.2 18.1 28.3 35.4 46.3 58.2 69.6 61.1 38 34.4 47.2 40.7 37.6 36.7 43.9 43.7 44.1 52 56.3 58.8 60 62.7 61.2 63.3 68.8 76.5 86.1 95.1 103.1 88.4 80.1 78.6 80.6 68.8 57.1 65.5 75.7 87.8 100.5 114.3 116.4 114.8 118.5 137.4 138.6 126.3 96.6 101.2 97.1 84.9 81.2 73.4 63.6 58.7 56.5 62.2 68.8 70.1 62.8 64.2 67.1 72.9 74.7 74.3 75 67.4 62.3 58.9 47.3 35.4 25.3 16.1 2.4 -1.9 -1.9 -1.9 -1.9 -1.9 -1.9 -1.9 -1.9 -1.9 -1.9 -1.9 -1.9
0 -1.9 -1.9 -1.9 -1.9 -1.9 -1.1 1.4 5.3 7.7 12.7 13.8 14.9 18.3 20.3 21.8 24.8 26.9 29 30.9 33.3 36.4 38.9 38.7 34.1 32.6 33.8 34.7 36.6 40.1 42.5 47.9 51.2 51.1 51.9 53.5 56.6 61.5 65.2 67.3 69.4 74.7 80.2 81.9 81.6 78.3 79 77.7 73 77.6 82.9 88.4 98 102.8 94.4 83.9 81.9 79.3 78.5 77.2 78.4 78 73.6 68.6 58.3 49.8 39.6 38.9 38.8 41 43.7 45.6 48.5 52.4 56.5 56.7 51.6 43.6 41.1 39.9 37.2 35.5 34.5 32.6 31.5 29.6 28.8 30.1 33.4 33.4 31.6 36.3 35.1 38 47.4 54 54.7 55.7 62.5 62.5 52.8 41.4 31.7 36 38.2 41.2 57.1 43.8 34.9 42.5 47.3 41.8 43.2 46.1 39.5 37.7 37.2 48.6 61.9 77.6 89.5 81.5 67.1 59.3 63.8 61.7 56.4 52 48.5 51.4 50.4 56.3 61.5 62.9 67.4 73.4 78.8 77.1 79.7 88.1 97.4 106.2 121.1 120.3 110.5 97.4 102.5 102.7 90.8 62.5 81.6 101.4 113.7 131.5 142.3 141.4 146.5 153.6 147.7 141.4 121.4 118.1 114.7 108.3 102.1 94.9 85.1 77.6 73.6 71.6 73.8 77 76.9 77.4 80.2 81.7 86.8 86.5 87.5 86 79.8 75.9 69.7 55.2 38.3 30.6 22.9 8.5 -1.9 -1.9 -1.9 -1.9 -1.9 -1.9 -1.9 -1.9 -1.9 -1.9 -1.9 -1.9
0.8 -1.9 -1.9 -1.9 -1.9 -1.9 0.4 2.1 8.8 14.4 15.9 16 17.3 20 22 24.9 26.9 28.9 31 33.1 36.1 38.9 40.1 36.7 35.5 35.6 36.2 38.9 41.2 40 43.3 48.3 50.8 52.2 57.1 58.2 60.7 63.2 65.3 68.6 72.2 77.6 80.3 81.1 75.2 76.6 78.8 79.4 81.3 83.7 87.7 92 100.1 105.2 100.8 91.1 90.3 80.7 79.1 79.9 80.2 76.4 73.9 64.4 58.6 45.9 41.1 41 40.6 41.1 41.2 42.5 43.5 44.6 44.1 43.3 43.2 41.1 40.8 37 35.2 35.2 34.9 38.4 37.7 33.2 32.2 36.3 39.5 45.2 51.2 58.1 64.1 64.2 67.4 71.2 73.7 77.6 88.6 86.3 73.5 64.2 52.6 59.1 71 71.1 95.6 81.8 72.4 74.3 73.2 61.4 61.6 66.5 56.2 54.5 57.8 70.3 83 98.4 103.6 89.5 65.8 76.3 73.6 71.1 69 65.1 59.6 57.7 60.9 68.1 71.5 72.2 79.1 84.4 88.6 88.2 97.3 108.9 118.2 127.6 142.6 134.3 125.2 124 137.9 142 113.7 78.6 100.9 116.5 134.6 155 160.1 165.8 169.7 162.8 147.4 137.9 135 132.1 136.7 137.3 131.9 124.1 113.4 102 96.1 92.7 95.2 94.6 90.5 99.3 104.7 103 109.2 103.5 98.4 97.5 87 83 77.8 72.4 52.6 38 28.4 17.9 6.1 -1.9 -1.9 -1.9 -1.9 -1.9 -1.9 -1.9 -1.9 -1.9 -1.9 -1.9
2 0.9 1.7 0.1 -0.4 0.8 2.5 4.8 9.3 17 17.4 19.2 20.6 22.2 23.8 26.6 29 31.2 33.6 35.7 38.3 38.3 38.5 38.4 39.5 39.1 40.9 43.6 44.9 43.6 45.3 48.4 52.3 57.5 59.8 60.5 62.1 61.9 63.8 67.7 76.1 76.9 78 74 75.6 76.8 80.5 84.5 88.6 90.3 94.6 97.5 100.3 99.6 97.2 91.9 89 82.3 79.3 81.1 77.8 75.3 65.9 57.5 50.6 45.9 44.6 42.6 41.7 41.1 42.9 44.3 44.6 46.1 45.6 44.6 43.7 44 44.3 43 40.2 38 38.4 39 39.9 39.7 40.1 45 48.5 58.2 69.9 78.2 83.1 87.1 88.8 90.8 93.5 98.8 103.7 99.1 88.4 80.8 80.4 89.1 103.3 103.3 111.6 113.6 107.9 101.6 88.6 84.2 93.8 87.1 74.2 70.7 78.2 90.9 101.9 111.1 110.3 80.6 94 88.1 85 84.1 78.8 73.9 73.3 72 79 84.9 88 89 94.4 101.7 109 106.9 115.5 130 137.4 151.8 160.9 155.9 149 148.8 157.6 160.5 132.6 101.4 118.4 140.9 151.8 169.8 177.6 182.8 177.6 163.8 157.9 157.1 162.5 174.4 177.6 170.2 169.3 155.8 136.6 124.3 116.4 107.8 104.7 109 113.4 116.8 120.9 113.2 117.9 115.9 110.2 104.4 107.4 103.4 101 83.1 61.9 45.5 33.8 24.4 14.6 3.2 -1.9 -1.9 -1.9 -1.9 -1.9 -1.9 -1.9 -1.9 -1.9 -1.9
2.9 2.8 2.7 2.6 2.3 3.7 8.7 12 16 18.1 19.3 23.1 23.9 25.4 25.7 28.5 31.6 34.5 36.7 38.7 38.8 37.8 38.8 41.2 43.1 41.5 44.4 47.4 48.1 47.7 47.7 50.2 53.5 58.1 59.8 58.7 59 59.9 61.5 65.1 69.2 70.1 70.7 71.5 73.3 75.6 82.2 90.5 93.1 96.2 101 100.1 100.9 98.6 93.1 88.9 83.5 78.2 76.3 79.4 73.4 69.2 61.7 52.6 50.6 48.9 47.2 44.4 44.7 42.8 43.3 45 46.8 47.7 47.2 46 45.8 46.8 47.3 46.2 44.6 41.9 44.5 46.7 52.7 52.8 54.4 59.6 64.9 72.3 78.8 87.6 97.9 106.1 110.6 112 114.1 116.1 118.2 111.5 103.6 98.7 109.7 114.2 115.5 117.9 128.3 128.4 120.5 109.9 101.9 102.2 109.7 102.9 87.5 86 102.6 107.1 118.4 128.8 122.7 106.3 106.2 101.8 98.5 96.2 91.6 87.1 88.6 94.9 96.4 100.7 107.2 110 115.9 123.3 123.8 125.4 141.1 154.9 157.5 165.8 173.8 175.7 170.8 168.2 178.3 177.9 141.2 132 147.9 165.1 169.5 177.6 190.5 195.2 185.2 182.4 186.2 192.8 208.1 216.4 205.8 197.8 191 181.4 164.1 149.9 138.5 124.7 119.5 128.5 128.2 131.6 139.9 128.1 128.5 123.9 119.2 120.4 125.5 116.8 116 92.2 70.3 52.6 41.6 32 22 9.5 1.3 -1.9 -1.9 -1.9 -1.9 -1.9 -1.9 -1.9 -1.9 -1.9
5.1 4.8 5.8 5.8 6.4 8.1 11.7 16 17.6 19.4 24.6 27.1 28.4 28.4 28.2 31.1 35.4 39.3 40.5 41.2 39.9 39.7 42.3 44.9 46.7 46.1 48 49.7 49.3 49.4 49.5 50.6 52.8 56 58.4 57.4 58 58.7 59 60 64 68.5 69.5 69.7 70.4 77.1 84.3 95.2 101.1 101 101.4 100.1 101 96.3 89.3 82.4 76.8 75.1 71.8 72.4 67.3 61.2 55.3 53.1 52 50.1 48.3 47.6 48.4 46.4 46.6 46.3 47.3 48.5 49.2 47.1 48.9 50.7 51.1 51.6 51 48.7 54 60.3 68.3 70.2 73 76.8 82.3 90.4 97 101.9 109.6 111.9 118.2 121.4 122.6 125 126.8 123.4 117.3 118 133.4 135 129.5 132.2 142.6 136.7 130.3 124.4 121.2 118.5 118.9 111.1 102.4 117.4 125.5 121.9 135.4 139.5 127.6 121 123.4 120 114.8 109.3 107.4 106 109 114.9 115.5 121 127.8 130.8 133.8 141.1 143 150.8 169.4 183.8 194 194.3 199.7 206.5 194.9 187 193.6 176.9 136.3 160.7 173.5 179.1 183.4 189.7 198.9 206.1 210.6 216.7 229.7 246.8 242.3 246.6 237.7 221.1 207.9 194 183.6 168.5 158.8 147.3 153.3 138.2 142.2 150.8 152.7 138.7 139.3 135 135.8 140.5 136.2 127.8 117.2 97.6 81.7 62.6 51.5 40.4 29.9 17.5 3.3 -1.9 -1.9 -1.9 -1.9 -1.9 -1.9 -1.9 -1.9 -1.9
7.5 8.2 7.5 8.1 8.4 12.6 17.8 18.6 21.1 24 27.3 30.9 33.6 28.5 30.4 35 40 44.7 47.7 48.5 45.8 44.7 46.9 49.3 50.5 49.3 49.7 50.8 51.3 50.8 49.2 50.4 52.1 54.2 55.7 56.2 57.2 58.6 58.8 58.7 60 66.5 68.2 69.3 73.2 78.4 86.4 94.2 100.2 100.6 101.6 100.5 98.2 92 84 76.5 72.3 72.2 71.5 69 64.5 60.1 56.1 56.9 55.4 53.8 52.7 50.8 54.1 52.3 50.1 48 48.4 49.3 54.1 57.6 53.2 53.5 57.7 58.7 58.9 61.3 67.2 73.1 78.9 83.8 87.4 91.4 97.3 106.2 113.4 118 122.1 126.9 129.6 129 131.6 135.8 140.6 135.2 131.1 137.8 148.2 151.8 148.1 147.1 154.6 149.7 141.7 139.1 138.1 132.3 130.8 121.3 130 137.4 133.6 136.3 140.8 133.9 127.2 134.2 141.9 143.4 133.2 129.6 126.3 125.2 126.2 129.2 134.4 141.4 148.4 150.1 153.4 158.3 163.4 182.4 203.1 215.1 219.1 215.2 219.3 218.6 205.7 200.3 198.5 169 157.1 177.7 195.7 189.8 201.9 209.5 224.7 235.9 245 260.8 271.9 276.4 268.5 275.1 267.1 247.4 239.2 223.9 201.1 186 193 192.7 173.9 160.3 154.3 159.1 161.7 153.7 147.8 149.5 158.1 151.7 147.4 142.7 125.3 120.5 98.8 74.5 57.9 46.8 33.2 19.3 6 0.6 -1.9 -1.9 -1.9 -1.9 -1.9 -1.9 -1.9 -1.9
10.1 10 10 12.6 15.5 18.7 20.3 22.4 24.4 27.5 30.6 32.6 33.2 34.7 34.4 39.1 44.1 49 51.7 51.1 50.3 51.2 54 55 54 52.5 52.3 53.1 52.3 50.7 50.3 50.6 52 53.4 55.9 56.4 57.6 58.6 59.8 60.6 64.2 67.5 71.1 75.7 79.3 82.4 86.7 93.5 97.8 100.8 102.7 102.9 98.6 91.8 84.5 77.1 70.3 71 71.7 70.2 69.3 74.4 61.7 60 63.1 58.2 58.2 59.8 58.8 60.2 58 52.3 51 53.8 55.1 60.4 60.9 62.7 66 68.2 70.9 74.2 80.1 85.4 89.8 94 99.8 105.1 110.5 117.5 122.8 126.9 130.6 135.5 137.1 138.1 138.8 144.3 150 153.7 148.4 156.5 163 168.4 166.3 164.7 163.4 160.8 154.1 149.7 144.6 148.7 153.7 146.5 143 141.1 142.8 146.8 135.8 131.1 139 150 159.2 162.6 155.8 152.6 151.5 146.8 140.8 142.9 152.5 163.9 166.8 171.5 175.5 180.3 189.2 205.7 214.8 227.7 231 229.7 227 219.6 219.1 212.3 197.8 173.2 179.2 198.4 214.8 224.9 225.1 236.3 245 275.9 285.3 307.3 310.5 302.2 299.6 305.2 296.9 282 270.2 261 239.2 225.3 217.8 209.6 195.5 181.4 169.4 169.6 170 163.3 160.5 164.2 171.1 171.8 165 143.8 137.3 131.2 102.9 82.2 63.9 50.6 37.9 26.5 8.1 1.9 -0.4 -1.9 -1.9 -1.9 -1.9 -1.9 -1.9 -1.9
13.7 15.6 18.1 18.2 21.4 21.5 23.6 26.4 28.3 30.7 33.3 34.7 35.6 38.2 39.4 42.5 47.4 50.7 51.7 52.2 53.2 58.8 62.6 61.2 58.7 57.5 56.5 56.6 54.7 53.1 52 51.9 52.9 54.7 56.5 58.3 60.2 61.2 62.3 66.9 70.7 74.3 78.4 83.8 88.3 89.7 93.6 99.4 103.4 106.6 109.6 107.6 102 95.5 88.9 77.7 72.1 73.1 75.9 78.6 80.4 74.7 62 64.4 68.8 63.7 68.9 64.4 65.4 64.7 61.9 64.4 63.7 67.5 69.7 63.7 66.4 67.4 69.5 78.1 85.5 87.7 92.3 96.7 101 106.7 112.1 117.5 122.8 128.7 133.6 136.5 140.5 144.5 147.8 147.8 147.6 150 151 156.5 165.4 168.3 178.5 181 180.5 174.4 171.7 168.5 160.5 154.8 154.2 163.7 161.7 155.4 151.4 150.7 150.1 148.4 135.8 140.1 151.5 164.9 178.2 184.5 178.1 173.9 173.8 169 152.5 159 168.4 178.9 188.1 193.7 198 206.4 208.9 222.2 234.3 241.8 243.6 237.8 236.3 228.1 223.5 221 211.9 207 209.4 229.4 239 243.7 242 250.1 270.1 293 336.9 336.3 326.3 315.1 332.4 326.8 321.1 318.4 292.9 276 262.7 257.9 243.2 222 210.6 201.6 191.8 177.7 177.6 174.3 181.9 178.2 184.4 184.5 172.7 160.8 147 124.5 101.1 80.5 66.2 52.6 40.3 31.9 15.5 5.1 1.3 -1.9 -1.9 -1.9 -1.9 -1.9 -1.9 -1.9
21.2 18.5 24.4 26.2 26.8 24.8 27.6 28.9 31.4 33.9 36.6 38 38.2 39.5 42 43.7 48.2 49.9 50.8 52.8 56.7 62.5 65.7 67.2 63.2 62.7 63.2 59.1 57.4 55.6 54.3 53.7 54.2 56 59.1 61.8 62.9 63.9 68.9 73.6 77.4 82.4 86.9 92.4 98.7 100.9 104.2 109.1 117.8 120.7 119 114.9 106.9 101.3 91.5 86.5 86.9 86.3 87.5 85.4 79.8 71.4 67.4 68.2 66.3 70.8 73.7 72 73.9 69.6 70.1 75.8 80.1 83.1 84.6 77.6 75.2 79 80.1 79.7 91.6 99.2 102.7 106.9 113.3 118.4 124.9 129.9 134.8 139.9 146.4 148.1 150.4 155.3 156.5 157.2 158.7 160.7 164.3 173 184.4 185.6 199.5 196.9 191.9 181.3 174.9 173 168.1 161.8 163.2 177.2 166.6 163.2 157 155.9 150.8 140.3 145.2 151.7 166.5 180.8 193 200.2 196.4 188.5 181.8 171.3 162.4 170.8 180.8 194.4 203.5 207.6 213.7 223 225.7 237.3 243.9 247.6 244.5 239.9 239.3 235 233.4 232.1 234.8 227.9 235.9 252.4 253.4 248.5 260.3 273.4 301.4 327.4 356.8 366.2 356.6 348.1 352.9 348.4 345.2 339.8 320.3 289.4 275.1 271 258.2 243.7 230.7 212 204.5 191.6 186.5 186.8 193.7 191.7 192.6 182.5 174.6 163.6 139.9 122.6 99.5 83.8 70.5 54.9 45.6 36.7 19.1 10.4 3 0.1 -1.9 -1.9 -1.9 -1.9 -1.9 -1.9
26.3 27.2 28.8 29.7 29.6 27.8 28.5 32 34 36.5 40.9 40.9 40.4 43.1 45.1 47 49 51.9 52 55.8 59.9 62.8 64.3 65 64.5 65.5 63.9 62.1 61.1 59 58.4 56.9 57 58 63.3 65 65.8 68.5 74.5 80.2 84.7 89.8 95 99.9 104.2 108.5 113 118.1 123.8 124.6 120.9 117.2 108.8 102.9 95.8 90.5 90.7 91.4 90.4 87.2 79.9 72.3 72.9 72.3 70.5 69.3 80.2 81.2 79.7 77.1 82.2 87.8 93.7 98 99.2 89.3 90.2 88.4 92.2 89 85.5 97.9 110.8 117.2 125.8 129.4 135 142.9 146.2 147.8 152.8 161 164.1 164.2 164.1 165.1 167.2 171.3 175.8 182.1 191.9 201.6 206.8 203.1 193 184.5 181.4 180.3 177 173.8 176.1 183.5 174.1 169.1 162 157.6 149.8 153.2 156.8 158.8 177.4 203.3 212.6 217.1 210.8 202.9 194.2 188.3 180 190.4 196.2 204.5 209.3 214.3 220.8 229.2 235.1 243.8 246.5 248.7 247.9 248.2 243.8 245.9 249.1 251.9 254 249.5 253.1 263 266.4 277.2 290.3 302.8 325.8 354.1 371.7 369.4 364.8 369.3 377.6 366.7 353.3 343.4 328.3 319.1 305 290.7 270.7 260.9 248.8 235.2 218.5 212.3 200.3 197.4 198.5 196.9 189.6 174.9 165.5 156 136.4 123.3 102.1 82.5 68.9 57.5 46.6 32.7 26 22.8 14.5 2.5 0.4 -1.9 -1.9 -1.9 -1.9 -1.9
31.9 31.9 31.2 31.3 30.4 27.9 31.2 34.3 37.2 41.2 44.4 46.4 47.1 48.3 49.7 52.1 56.9 57.3 55.5 59.3 64.6 66.3 65.1 65.4 66.7 67.4 67.1 66.2 67.1 65.9 64.2 61.7 60 62.4 69.5 70.4 70.3 76.1 82.3 86.7 91.5 96.4 100.8 105.1 110 114.7 118.3 121.3 127.9 129.7 122.7 114.2 106.1 102.7 99.8 96.7 94.9 92 91.3 86.8 79.4 78.9 80.3 80.7 80.3 77.3 83.8 86.3 85.2 88.6 94.7 100.2 106.2 109.5 102.3 96.6 98.9 103.5 102.1 103.8 105.5 106.1 101.5 116.3 127.6 135.5 143.7 150 153.8 154.9 159.4 166.5 170.1 172.8 173.7 174.2 176.4 181.5 186.7 196.5 206.6 215.2 214 205.1 194.5 186.1 189.5 186.2 183 187.9 194.1 187.3 179.1 173.2 164.9 159.3 160.8 163.9 166.9 174.4 201 221 232.9 231 223 212.5 208.9 205 203.1 207 211.3 216.7 219.2 222.9 231.5 238.1 243.2 246.1 252.3 255.2 259.4 262.7 262.5 264.1 267.3 269.2 270.5 272.7 276.5 286.7 286.9 294.9 315.3 323.5 333.5 348.7 363.4 365.9 370.8 373.1 379.5 381.1 374.1 355.1 339.3 324.9 312.1 304.4 292 277.5 262.7 257 239.7 221.5 210.2 204.6 205.8 202.1 189.5 172.2 162.3 149.8 133.8 118.8 98.4 80.6 67.9 56.6 42.9 36.9 34 28.2 20.8 12.4 8 1.8 0.9 -1.9 -1.9 -1.9
32.3 32 31.3 30.4 29.9 32.5 35.5 38.7 42.3 48.3 50.7 53.6 56.8 56.6 56.8 61.3 64.6 65.9 61.4 65.3 70.6 70.7 70 69.6 70.8 72.3 73.7 73.7 73.8 74.2 70.2 68.2 69.7 68.7 71.7 75.8 79.6 83.2 89.3 92.3 95.9 100.6 105.3 109.8 114.7 120.3 121.2 122.1 127.3 122.9 116.1 107.4 103 100 99.6 97.8 95.5 92.4 90.4 85.5 84.5 90.1 91.6 91.8 88.5 84 87.3 90.2 94.2 93.9 106.4 108 111.6 108.7 102.3 104.7 112.5 117.1 115.9 116.6 118.8 121 119.8 110.8 123.4 137.1 150.3 157.1 159.8 161.7 166 171.5 175.3 178.4 181.3 183.3 187.4 192.6 200.2 208.5 216.4 219.7 215 208.5 198.3 193.4 194.3 192.3 192 204.8 197.8 191.5 184.1 177.9 171.2 167 175.9 177.4 183.5 191.9 212.6 235.3 242.1 241.5 233.3 221.6 220.7 218.7 220.4 218.4 229.4 229.9 231.3 237.9 247 252.1 256.6 266 272.7 277.2 293.7 287.1 281.5 280 285.5 284.5 287.5 288.5 291.9 305.1 301.1 309 330.7 344.5 358.3 364.2 367.2 366.5 371.1 374.8 379.9 380.3 372.2 363.6 350.4 329.4 317.6 311.9 307.7 298.6 277.8 261 246.2 231.9 218.2 214.5 208.2 200.6 187.6 174.4 161.2 145.1 131.8 113.1 94.8 76.3 69 61.9 53.9 46.6 40 33.1 26.1 18.9 11.3 6.6 6.3 8.8 10.3 1.4
32.5 32 31.3 30.8 32.2 35.7 39.4 42.6 48.2 52 55.5 58.8 59.2 58.8 62.8 68.1 71.1 73.2 72.2 73.2 76.1 77.9 79.6 77.7 79.1 79.8 80.8 81 81.3 80.5 75.4 74.5 77.4 76.1 75.3 79.3 84.7 90.3 95.5 98.3 101.4 105.5 110.7 115.7 120.3 121.2 121.4 120.9 120.3 116.7 112.1 106.3 101.2 98.2 97.8 96.2 95.9 92.8 93.2 93.2 98.3 104.9 107.5 102.6 97.2 90.5 90.2 93.7 101.7 100.4 111.2 114 114.5 108.7 111.9 117.9 124.7 131.6 128.8 126.3 131.2 133.9 133.3 126.7 123.7 118.4 146.2 158.7 162.4 167.5 171.3 174.2 177.4 180.9 185.3 190.5 196.2 202.3 209.9 212.6 214.8 215.3 213 208.8 202.1 199 198.8 198.4 200.2 203.9 198.4 195.3 190 184.5 180.4 174.8 190.7 188.5 201.2 217.7 226.4 239.1 247.3 252.5 240.4 233.9 235.2 236.1 234.6 231.1 235.2 239.5 241.8 251.5 259.4 271.1 287.6 288.4 289.1 290.6 299.8 298.3 295 298.1 298.8 300.6 303.2 305.1 307.9 315.6 314 330.9 346 369.9 374.6 378.7 380.1 374.3 379 379.1 384.3 382.3 373.6 366.9 358 333.8 324.2 313.6 308.5 296.6 284 273.7 252.6 236.1 226.2 216.2 209.8 199.7 189.9 178.3 164.3 148.5 128.2 108.4 90.6 78.8 81.7 72.7 62.7 53.4 45.7 36.9 30.2 23.2 16.1 10.6 10.8 11.1 8.2 2.6
33 33.2 33.3 35.2 35.8 37.6 41.2 46.6 51.8 55 58.8 60.3 59.9 64.4 68.6 73.6 79.4 79.7 79.2 79.4 81.4 82.7 82.2 82.4 83.1 84.5 84.7 84.4 84.1 83 83.1 84.6 80.9 76 79.3 84.8 89.9 95 100.9 104.2 107.2 111 115 120.3 120.9 120 118 118.4 116.9 112.4 108 102.8 100.4 98.1 98.6 100.9 101.8 102.8 104.8 107.9 115.8 121.5 119.8 112.6 106.5 101.9 100.1 106.8 107.9 110 110 112.7 114.4 111.9 119.3 125.6 133.1 137.2 136.2 137.2 144.3 145.7 142.1 137.9 137.1 134.7 133.5 147 162.5 167.2 171.1 175.1 179 182.3 190.1 195.3 201 206 209.5 211.6 212.6 211.4 209.3 207.8 205.5 203.8 205.1 205.4 206.2 200 198.2 197.5 197.1 194.1 177.6 187.4 198.5 205.2 224.6 232.1 239.9 257.2 263.5 259.3 251.4 249.6 252.1 253.6 251 246 248.5 249.5 252 262.4 283.5 289.7 295.4 303.5 303.2 308.9 315 307.9 305.5 309.4 311.6 319.8 321.7 321.7 323.4 323 324.3 337.1 356.6 372.2 379.1 383.7 388.1 387.8 385.6 388 390.5 388.5 376.3 367.9 357.7 341.7 330.9 327.6 323.6 312.4 296.9 277.1 260.3 251 231.6 224.5 214 206.4 186.2 173.8 158.2 139.9 123 110.7 95.6 93 88.9 80 70 58.3 49.5 40.7 33.5 26.5 19.6 14.4 12.2 11 7.8 2.6
33.8 34.9 34.9 36 40 41.2 43.6 48.1 54.8 58.8 60.8 62.2 65.6 70.5 74.9 79.7 82.2 83.8 83.7 84 85.7 86 85.9 87 88 88.7 88.2 87.9 87.8 89 89.8 90.3 86.2 80.4 84.6 93 95.3 99.3 104.5 107.9 110.9 111.4 114.7 119.5 115.2 110.9 107.9 104.8 107.3 108.3 105.8 104 103.1 102.7 104.2 106.4 110.4 114.4 116.2 123 131.1 132.1 129.3 130.7 119.1 106.7 105.2 116.1 114.1 116.6 116.2 118.9 119 119.8 128.6 132.8 137.8 139.9 142.5 144.8 151 151 148.3 144.7 146.2 148.4 146.6 144.8 148.3 168.1 175.8 176 180.3 186.6 194.3 201.6 206.7 206.3 206.2 209.6 210.3 210.9 210.9 208.6 207.6 209.2 208.8 208.2 204.8 201.7 201.3 206.4 208.2 204.3 189.5 201.6 208.9 219.1 245.2 258.1 265.6 275.1 279.9 264.6 264.8 263 268.8 271.3 268.2 262.5 262.7 263.1 267.6 280.7 295.6 297.3 316 319.8 315.9 324.4 320.4 314.5 320.2 322.7 329.1 331.9 334 335.3 332.9 332.5 331.7 340.5 360.2 379 388.3 396.6 400.3 397.7 393.5 394.3 395 398.1 389.2 374.1 362.2 347.3 341.1 328.7 318.9 316.8 302.5 284.1 263.1 246 234.1 223.8 214.9 204.7 187.2 171 149.3 135.1 124.4 118.4 109.9 102.4 94.9 86.1 73.8 62 53.2 44.4 36.4 29 21.6 18.9 15.8 12.4 10.7 6.9
36.3 37.8 38.7 37.4 41.3 42.2 45.5 49.5 56.9 60.5 61.5 66.4 71.9 76.3 81 83.2 85.4 87.2 87.7 87.7 88.8 89.3 89.9 92.6 93.9 93.5 92.9 92.5 92.6 93.4 93.8 93.3 91.4 90.3 85.6 99.2 101.2 103.5 106 108 109.5 110.9 111.2 111.2 109.7 109.4 105.8 105.8 110.2 108 106.3 105.8 107.6 108.5 110.3 114 118.8 124.1 128.4 132.8 139.4 137.5 136.5 140 128.9 120.1 110.2 117.3 121.5 122.4 121 121.2 124.3 130.9 127.9 137.7 141 143 145.8 148.8 151.6 152.2 151.3 154.2 157.2 161.3 160 159.1 155.5 144.6 169.7 178.1 184.1 191.6 201.2 205 201.6 201.8 201.2 205.5 207.2 208.1 209.1 207 208.8 209.3 213.4 212.2 209.8 210.1 214.1 213.8 214.3 213.6 206.6 216.2 222.2 235.6 268.6 281.1 285.3 286.2 281.6 279.3 283.6 282.5 282.4 283.5 276.9 273.5 275.8 277.7 286.5 295.5 303.7 307.6 314.4 320.1 324.5 337.8 328.5 326.9 331.3 335.6 341.9 346.5 348.3 345.8 343.3 343.9 346.9 354.8 377.2 388.7 399.5 405.8 404.1 400.9 398.3 405.5 412.9 409.8 395.9 382.5 365.4 351.4 346.1 339.8 323.2 310.9 298.2 280.5 266.8 247.4 232.2 222.5 211.4 196.6 180 160.4 146.7 137.4 133.1 126.9 119.6 110.1 100 90.1 77.8 65.6 56.3 47.2 39 32.2 25 20.6 18.8 15.1 11.6 10.4
37.1 42.5 41.9 36.9 40.9 44.4 47 49.9 55.2 59.4 62.7 67.6 76.7 81.5 83.6 86.5 88.6 90.1 90.3 91.3 92.7 94.1 96.4 98.2 99.3 98.8 98.3 98.7 98.4 97.1 97.1 96.3 95.5 94.2 83 98.1 102.3 104 103.9 106.6 105.2 103.1 105.5 106.2 106.6 108.6 111.2 113.1 111.6 109.4 110.1 111.1 113 116.4 118.2 122.4 126.6 131.8 134.5 136.8 140.2 140.9 141.3 140.3 133.1 127.5 117.9 123.9 126.6 129 129.6 131.8 130 134.1 139.4 140 143.4 146.4 148.9 152 154.6 155.9 157 162.4 170.5 173.8 171.4 169.3 167 163 154.2 169.4 183.4 190.4 192.7 194.4 192.3 193 193.9 195.1 197.7 200.2 206 206.4 208.5 211.4 219 215.9 214.7 217.1 221.3 222 223.8 222.7 221.9 222.4 233.8 251.3 272.9 282.7 290.2 291.6 288.9 298.6 298.3 295.9 290 291.8 288.1 288.9 298.1 301.9 305.3 305.3 318 325.5 329 329.4 338 341.7 335.7 339.9 342.6 347.7 363 370.2 365.5 362 362.5 363.8 369.5 375.9 399.3 401.6 415.8 422.4 408.2 406.9 410.4 425.8 431 416.9 400.2 382.1 368 355.9 345.5 337.3 327.5 312.6 293.3 275.1 263.9 247.8 232.1 222.4 209.6 196.9 180.5 167.4 157 148 141.2 136 128.8 117.6 105.7 94.1 81.1 69.4 59.4 50.6 42 35.2 27.9 23.2 20.8 16.2 12.7 9.6
27.8 37.1 39.3 43.1 38.2 48.1 50.2 50.9 55.4 60.3 64.9 69.7 79.9 82.7 87 89.6 91.8 93.2 93.8 95.2 97.5 100.3 100.2 102.1 103.8 104.2 104.1 104.8 104.6 100.8 99.6 98.9 98.4 97.5 92.7 91.4 97.5 96.8 96.7 96.8 100.3 101.6 100.6 104.9 109 109.8 110.5 111.2 110.9 114 115 118.9 122.4 125.2 128.1 131.4 134.5 138.1 138.2 139 143.9 144.5 145.3 143.7 138.5 131.1 118.9 135.2 133.2 135.9 138.5 141.4 141.5 142.6 143.6 145.3 147.6 149.9 152.9 155.8 158.2 161.2 167.4 173.5 178.4 179.4 177.2 174.6 176 171.9 168.9 168.8 169.9 176.6 180.1 180.5 185.3 189.2 190.5 194.5 200.2 204.1 208.5 212.2 215.5 218.5 221.6 224.5 220.3 221.5 226.5 227.2 228.3 231 231.9 234.2 240.5 247.4 273.6 285.5 284.2 286.8 306.3 311.4 308.4 301.4 306 308.8 308 312.6 314.6 320.5 324.6 322.7 329.5 335.5 342.1 344.4 356 359.9 354.1 353.1 359.9 380.5 390.3 386.1 390.1 391.7 387.3 378.6 385.8 395.1 398.9 405.2 422.3 431.2 418.3 423.5 446.9 439.3 431.9 416.3 398 383.2 364.6 357.1 343.7 334.4 318.5 307.8 293.5 272.7 261.4 246.5 230.5 221.1 206.4 197.5 188.6 178 164.8 154.7 147.3 140.2 132 118.7 106.8 93.9 81.3 71 61.5 54.2 45.6 37.8 29.6 24.9 20.7 16.6 12.9 10.7
37.9 25.9 40.6 47.3 46.7 40.7 48.9 52.5 58 64.7 70.4 73.7 80.2 84.9 89.1 92.8 95.8 96.7 97.4 97.7 98.8 100.8 102.2 104.4 106.7 108.5 109.5 110.6 109 104.9 101.1 101.1 101.1 98.9 96.6 90.9 92.1 93.9 97.9 101.5 101.6 101.3 103.8 108.9 112.9 109.2 111.2 115.4 119.5 124.3 128.6 129.1 126.9 128.9 134.5 141.5 145 142.9 140.5 147.3 150.9 149.6 149.9 149.8 147.2 134.9 125.2 136.7 140.1 143.6 146.4 148.8 149.8 151.6 152.1 151.1 154 157.9 160.4 163.4 167.2 171.3 175.1 181.2 185.4 185.4 180.8 179.3 179.1 175.3 176.1 176.4 180.9 184.6 184.1 185.5 187.2 197.3 200.3 202.4 212.7 218.5 224.3 225.3 229.2 229.3 235.7 239.7 236.2 234.3 240.4 241.9 244.1 251 246.4 248.4 251.3 261.1 262.4 266.8 273 300.7 313 315.8 316.2 314.5 325.2 325.2 327.5 327.3 336.9 342.8 342.4 346.1 345.8 351.4 355.8 362.7 369.8 380.5 369.3 369.3 382.1 397.4 407 409.5 407.9 414.2 401.6 394 400.5 404.4 404.3 418.9 423.9 428.9 424.9 450.9 457.1 445.9 436.1 420.4 400.4 387.1 367.4 352 340.5 331.8 314.4 300.3 282.1 266.8 255.8 240.2 227.4 218.6 208 202.6 199.9 185.9 172.7 160.8 152.7 143.1 130.9 121 110.5 97.3 86.3 74.6 64.2 56 48.3 39.2 31.7 27 22.3 17 12.2 7.6
42.7 41.7 34.1 45 49.6 49.8 47.8 53.9 60.9 67.8 73.5 77.5 82.4 86.9 91.1 95 98.1 99.4 99.7 99.9 100.5 102.2 103.9 105.9 108 109.9 110.8 110.6 104.5 102.4 100.8 99.3 98.6 96.4 93.5 92.5 95.9 100.3 101.7 104.6 107.5 109 111.3 115 117.2 119.2 124.2 127 128.9 133.4 135.8 135.6 134.8 136.3 144.5 151.8 151 149.6 149.2 155.5 160.1 158.3 161.7 162.9 159.3 145.4 126.9 138.3 146.4 150.7 153.6 156 158.9 159.3 160.7 159.3 161 165.1 169.1 173.6 177.8 182.1 184.7 188.5 191 186.5 183.5 179.4 179.6 179 183.2 182.2 183.3 190.1 188.2 191.2 198.6 203.2 217.2 217.7 221.4 234.8 234.3 238.9 241.4 248 250.5 256.1 259.1 258.1 260.1 258.5 267.9 269 263.6 259.1 267.2 274.6 280 279.1 289.4 291.4 306.6 315.7 322.9 327.3 335.7 337.1 344.9 348.9 355.8 362.7 359.2 359.4 361.5 370.7 373.7 379.3 390 394.3 386.9 391 402.1 411.1 418.9 423.2 424.3 423.7 409.1 408.8 404.2 406 412.8 425.4 424.4 425.8 432.1 457.3 455 451 435 417.7 397.3 379.8 363.3 346.2 333 321.5 311.7 298.1 278.7 263.2 255.3 237.1 223.4 220.8 216.2 208.1 199.5 188.7 177.9 168.1 157.1 145.3 134 122.5 110.5 99.8 89.1 78.1 67.4 58.4 48.6 39.3 33.6 27.9 22.6 19.3 12.9 8
45.6 47.1 46.3 36.1 47.7 51.3 50.4 54.9 61.8 70.1 75.9 79.9 83.9 90.1 93.3 97.1 99.9 101.1 101 100.9 100.9 100.5 103.1 106.4 109 110.1 108.1 107.1 102.7 101 99.4 97 95.9 97.3 100.1 102.7 105 106.9 108.2 109.9 112.8 116 119.2 123.3 126.7 132.3 137 139.6 140.4 140.9 141 141.2 143.3 146 150.5 151.6 151.4 150.3 152.6 159.1 161.2 163.2 167.2 167.8 159 148.3 134 145.1 153.3 158.5 160.4 162.8 162.8 163.6 166.1 167.4 168.3 170.7 173.7 180.9 183.8 187.6 189.4 189.5 190.6 187.8 186 184.3 187.8 188.1 190.6 191.2 190.8 194.1 200.7 206.1 209.6 216.2 231.8 238.8 237.6 246.9 247.4 251.5 253.8 264.8 272.6 277.3 277.6 278.1 278.7 279.3 284.6 284.5 286.5 281 286.5 288.8 293.9 295.7 299.8 307.5 310.6 326.5 333.8 340.6 349.6 356.7 361.2 373.6 375.1 376.8 372.9 371.7 377.8 384.9 398.1 405.1 411.9 412.5 411.2 425.7 434.3 431.2 441.5 459 444.9 429.6 419.8 414.2 410 418 415.3 424.8 425.7 427.7 438 453.5 452 447.7 432.7 419.9 395.1 377.5 361.6 343.1 334.6 323.3 305.9 285.6 270.1 260 246 230.9 226.1 224.1 221.5 216.5 204.4 190.8 181.3 170.4 160.9 147.8 135.5 124.8 113.3 102.9 92.2 80.3 69.4 59.9 49.8 42.1 35.7 30.3 24 20.9 14 5.2
48.5 49 50.3 49 42.3 51.3 54.8 54.2 60.1 68.4 77.3 81.3 85.4 89.9 94.4 98.5 101.1 101.1 101.1 101 101 101.1 100.3 102.6 106.1 103.3 101.2 103.7 100.8 99.6 99.2 99.2 102 102.7 105.3 109.4 111.2 112.5 114.5 117.8 122.4 125.6 128 132.7 137.1 142.5 148 152.3 150 148.4 146.6 147.3 150 150.8 153 153.7 152.8 152.9 155.8 158.7 160 162.3 165.2 164.6 159.5 153.5 143.3 153.7 161.9 166.2 167.2 168.1 167.4 168.9 170.3 171.6 173.2 174.9 177.7 179.2 180.1 182.8 189.6 191 192.2 192 193.4 195.9 202 200 201.1 197.6 199.2 197.7 215.4 218.5 220 226.6 244.2 246.9 252.6 261.8 264 269.1 273.3 281.8 291.8 297.3 297.3 299.4 300.5 303.5 303.8 302.2 303.7 305.3 307.9 302.8 312.5 312.3 316.2 324.1 327.5 331.6 342.7 349.5 357.2 371.6 384.9 388.5 389 389.7 388.8 392.7 395.8 412.4 423.6 432.4 434.2 431.1 424.8 435.1 448.2 467.5 477 489.3 462.8 441.4 429.9 426.9 418.1 419.2 417.6 424 425.4 435.2 444.8 447.1 448.2 440.2 429.3 411.9 389.9 373.9 355.9 342.1 331.7 315.6 305.4 287.9 270.6 259.6 243.7 237.3 230 229.9 227.5 222.8 210.3 192.3 180.6 169.9 161.5 149.1 137 126.7 116.1 105.7 95.4 81.6 69.3 61.5 51.6 43.9 37.7 32.8 27.6 22.9 17.4 5
50.8 51.6 54 57.2 53.4 43.7 54.1 57.5 58.7 66.8 76.2 82.7 86.7 89.7 94.5 99.3 101.1 101.1 100.9 101.2 101 101.1 101.5 100.6 100.1 100.6 101.6 101 101.1 101 102.8 104.2 109 110.9 110.1 111.7 117.5 120.5 123.1 126.6 130.2 135.1 137.8 141.7 145.9 148.9 153.6 155.8 155.1 153.4 152.3 153.1 154.9 154.9 156.1 156.4 155 155.9 158 158.8 159.6 163 165.8 166.1 158.8 152.5 144.5 163 169.4 175 174.2 172.2 171.5 173.9 175.2 176.4 177.3 175.7 177.9 179.8 181.5 187.3 193.5 198.6 201.3 203.9 206.5 211 210.8 210.7 211 207.7 210.8 211.8 221.1 228.7 228.4 250.7 253.7 260.6 267.3 279.5 282 286.6 292 302.9 307.5 314.8 315.4 316.5 316.5 323 320.9 315.7 327.7 330.9 321 328.8 328.2 325.9 331.2 335.4 340 343.1 350.2 357.6 367.4 380 399.5 402.9 403.3 405.1 406.7 418.3 416.6 428.1 439 449.5 453.3 449.4 441.6 450.5 466.5 488.4 500.6 496.3 473 451.1 440.7 433.3 427.9 423.2 423 424.2 428 438 446.9 446.1 450.3 441.2 421.4 408.2 384.7 370 349.5 335.4 323.8 312 297 281.1 268.2 256.2 249.9 240.1 231.8 231.3 229.4 225.3 213.6 192.1 181.3 171.4 162.4 151.5 140.3 129.3 121 110.4 93.1 78.6 71 61.1 53.1 45.6 39.8 34.1 28.2 22.6 15.2 3.7
48.7 52 55.9 64.2 60.2 54 43.7 52.4 55 63.7 73 84.7 86.5 90.1 93.5 97.2 101.1 101.1 101.1 100.7 97.6 94.6 94.8 96.5 101.6 106.5 108.4 108.1 108.7 108.9 110 110.7 112.3 118 119.4 122.8 127.2 129.5 131.2 134.7 138.7 142.5 146.3 150.3 154.4 156.8 160.3 159.7 159 158.1 160 160.2 157.9 158.8 159.3 158.8 158.4 159.1 160.9 160.1 162.7 164.6 167.8 162.5 156.4 148.8 155.5 164.3 171.3 172.9 174.6 172.9 174.1 176.4 178.9 181.3 183 179.9 182.9 186.9 190.1 195.4 201.1 207.4 212.1 217.8 221.1 215.7 213.9 215 218.9 217.9 218.6 228.4 241.2 254.6 253.9 264.9 272 273.1 286.2 296 299.1 298.6 308.1 320.5 330.6 333.4 328.8 331.8 330.2 333.8 333.7 334.4 344.1 344.5 341.8 342.5 339.5 348.4 346.5 352 352.2 353.8 354.7 368.2 376.3 387 398.8 407.6 411.7 415.5 418.8 428.4 434.5 439.8 448.1 456.7 464.4 465.7 471.3 483.3 492.6 490.9 494.5 486 473.6 454.9 447.4 438.7 432.1 429 424.5 425.9 431.5 440.1 439.7 448.4 459.1 444.4 422.8 406 378.8 363.1 344.7 329.2 316.1 310 292 281.2 268.6 261.4 251.6 237.6 231.6 231.3 225.4 219 208.3 193.3 181.3 170.8 164.3 156 144.8 131.6 117.2 105.2 92.5 79.6 70.4 64.2 56.1 47.7 41.1 34.2 27.7 23.9 19.9 5.8
51.8 51.3 57.3 63 62.5 59.1 53.2 42.3 49.5 62.8 68.8 77.5 85.5 87.6 90 92.2 93.4 93.4 91.5 89.9 92.5 94.6 100 106.8 112.7 116.6 119.3 120.4 121.4 121.5 119 115.8 116.4 120.3 128.8 130.8 134 135.5 137.8 143.7 148.6 151.8 155.4 160.4 165.9 166.2 168.1 170 167.2 166.5 169.5 169.3 162.3 161.8 163.9 164.4 164.2 164.8 165.3 165.5 169.1 169.2 162.5 161 156.8 156.9 159.1 166.9 170.7 174.6 175.8 177 178.8 180.8 181.8 184.6 185.2 186.7 191.4 195.9 199 205.5 211 217.5 225.6 229.5 221.2 219.5 223.5 225.7 228 233.9 234.3 244.4 258.3 265.1 273.2 275.6 284.5 292.8 297.1 306.5 308.7 308.2 315 323 329.2 327.5 328.4 339 352 354.6 355.8 360.8 361.3 355.4 355 352.9 357.7 363.4 365.4 369.9 366.1 364.3 362.5 375.8 388 402.1 410.6 416.7 423.7 426.8 430.1 435.4 442 452.5 460.2 463.2 474.2 481 488.4 491.8 494.9 494.5 488.4 479.3 465.4 455.3 450.2 440.3 433.3 429.3 427.1 428.1 431.8 435.6 444.7 454.9 444.1 429.5 414.1 398.8 383.1 366 348.9 327.9 313.5 305.8 286.3 273.3 264.5 255.8 246 234.4 228.9 226 215.3 210.4 201.9 192.3 181 171.9 164.1 156.7 144.2 131.9 119.6 105.3 91.2 82.8 74.2 65.8 57.1 49.1 42.2 35.2 27.5 21.9 18.1 -1.9
55.1 54.5 58 63.4 64.9 62.9 58 50.2 44.6 55.9 66.4 74.8 81.5 85.6 83.5 85.4 91.3 89 88.6 94.1 94.6 101.4 109.3 113.3 119.4 124.7 126.7 127.8 128.9 130.5 129.1 125.7 125 128.9 129.2 134.6 138 139.7 144.1 149.4 154.9 158.4 165.9 170.4 172.4 173 172.1 172.2 172.3 172.7 173.6 172.7 168.7 170.5 169.7 170.2 170.7 171.5 172.1 173.1 176.6 169.1 169.3 169 159 170.9 165.8 170.3 174.4 178.7 180.6 182 183.9 186.9 188.6 188.9 190.7 195.5 200.5 204.6 206.6 213.5 220.9 223.3 224.9 225.5 226.2 229 235.7 237.7 242.8 245.1 249.4 265.3 278.8 287.4 283.5 281.7 286 296.7 309.8 320.6 324.9 323 326.8 332.7 334.5 338.8 343.3 353.2 362.8 374.8 378.5 388 374.5 368.2 363.6 366.6 376 378.4 380 380.7 379.4 378.2 372.1 380.7 394.3 408.3 418.6 442.4 443.2 440.4 442.6 446.8 452.9 463.6 480.1 490.4 506.7 508.7 509.8 507.1 511.4 505.4 498.8 493.2 479.9 461.9 450.6 444.8 441 436 432.1 434.6 435.6 440 454.3 453.3 445.3 433.9 406.3 385.8 375.4 364.7 347.2 328.6 315.4 295.5 284.2 274.4 262.2 253.6 242.4 227.9 221.5 220.7 211.1 202.9 196.6 189 182.7 170.6 162.5 155.8 150.1 132.8 115.8 101.4 91.8 84 74.7 65.9 56.7 49.1 42.2 35.3 26.7 18.9 13.3 -1.9
57.4 58.9 55.7 66 66.8 64.3 58.3 52.7 47.2 53.7 63.7 70.3 71.2 74.6 80.1 91.8 97.8 96.7 96.5 103.9 105 108.9 114.5 118.8 122.9 128.7 131.5 132.6 135.2 136.7 135.2 132.9 133.2 135.8 137.9 133.9 138.6 140.4 148.8 153.9 158.3 166 170.5 172.5 175.2 174.8 173.3 175.4 176.1 176.3 176.5 176.7 177.5 180.2 178.9 177.7 175.8 177.4 180 178.9 174.9 176.7 179.1 175.1 166.1 172.4 174.1 174.5 179.1 185.2 188.2 187.8 188.6 191.9 195 196.2 195.2 200.8 206 212 216.5 222.5 223.8 225.6 230.9 237.2 246.5 245.4 245.4 250.3 254 260.7 274.3 283.7 287 288.4 284.7 289.6 296 300.5 309.5 317.7 321.8 326.8 330.6 330.6 333.2 338 340.9 355.3 367.1 377.2 401.2 394.2 387.6 379.7 384.1 390.8 391.4 391.6 387.8 391.6 397.9 388.8 383.7 385.2 394.1 409.9 423 449.6 453.2 457 460.6 464.8 471.4 485.3 497.8 510.8 522.5 523.8 525.2 526 525.2 517.2 503.7 495.9 479 466.2 462.7 456.2 446.3 441 437.4 438.6 438.1 440.6 447.8 447.7 447.5 430.5 402.6 380.7 360.9 354.2 343.4 327.9 312.5 295.1 280.3 268.4 259.7 250.5 237.8 224.7 217.7 213 206.1 198.5 192.5 185.2 179.6 170 159.2 148.7 138.5 124.6 109.9 99.6 91.9 83.7 75.2 64.9 56 46.7 38.6 30.8 23.9 16.8 -1.9 -1.9
59.3 60 57.2 59.9 63.9 63.2 57.8 51.9 49.6 53.6 58.2 61.1 70.2 75 85.1 97.2 101.1 101 101.5 105.3 109.8 114.5 119.4 126.9 127.2 130.5 136 140.5 141 140.3 140.3 138.3 139.6 140.9 141.4 140.5 140.7 142.5 149.6 154.3 161.4 168.8 170.8 173.4 176.1 173.8 176.4 180.6 178.4 179.8 180.6 180.7 183.5 188 185 183.2 180.9 182.5 180.7 182 183.2 184.6 182.6 178.8 171.2 178.2 181.2 180.7 184.7 190.9 190.5 190.1 192.8 195.6 196.9 198.1 197.7 204.8 213.2 222.5 230.3 232 227 235.5 244 253.2 262 256.6 263.2 260.8 273 279.4 285 287.4 288.7 290 288.8 293.4 300.1 305.6 310.6 318.7 330 334.7 337.2 335.1 346 348.7 356.5 363.2 376.2 394.6 415.2 401.6 397.9 400.5 403.7 403.3 405.5 407.6 407.7 412.5 407.4 400.5 396.9 398.2 409.4 415.1 429.8 447.8 456.3 462.4 480.8 484.2 491 502.9 518.5 524.7 531.7 534.3 534.7 529.7 528.6 521.1 512.6 497.9 488.9 481.4 474.4 463.7 453.8 451.6 443.6 443.3 439.8 443.3 440.4 445.3 437.4 424.2 400.8 377.7 362.8 348.8 333.9 320.4 300.9 284.6 271.9 263.3 255.8 246.1 232.9 222 213.6 205.5 199.1 195.6 189.7 182.2 171.4 159.5 149 139.9 131.4 119.1 106 95.8 88.3 81.6 71.4 60.3 52.3 42.1 34 26.3 19.8 10.4 -1.9 -1.9
60.6 61.2 60.3 59.7 60.9 61 57.3 47.1 49.2 60.6 66 68 74.1 81.2 89.2 95.7 99.2 100.9 105.3 108.9 114.3 119.3 125.9 129 131.2 135.4 140 142.5 143.8 143.9 142.4 141.3 142.8 144.3 145.6 145.4 145.3 149.3 150.5 155.5 163.6 170.9 172.1 173.2 173.8 177.9 180.6 180.9 180.6 182.2 183.8 185.3 187.2 191.2 190.1 187.9 186.8 185.6 185.1 191.2 191.1 190.4 188.2 179.1 182.8 186.9 184.5 185.4 185.6 190.1 191.8 193.8 196.6 201.2 203.6 206.6 211.4 208.2 216.4 227.8 235.6 238 245.2 255 260.6 266.9 260.6 267.8 268.8 273 281.3 282.1 287.4 291.9 292.8 292.7 296.1 300.2 305.1 312.4 320 329.1 336.2 335.7 338.7 346.1 352.5 357.1 366.7 376.8 391.3 407.7 418.9 405.4 408.5 415.2 416.6 418.1 421.1 427.3 429.8 423.6 418.3 414.6 415.3 410.9 425.9 430 436.6 448.2 455.9 468.1 485.2 498.4 501.1 514.8 528.4 536.2 549.9 553 547.5 545.5 528.1 528.5 525 512.9 497.3 492 481.5 471.2 468.3 460.9 448.8 443 441.4 439.9 437.1 425.3 418.4 410.5 387.5 368 355.7 340.6 326.9 312.9 291.1 277 265.9 260.7 250.7 238.7 227.2 218.7 209.2 202.5 198.3 191.5 188.4 178.4 165.4 152.8 141 132.3 123.8 113.7 100.8 91.5 84.3 76.5 66.4 55.5 45.7 36.8 28.5 21.3 15.3 -1.9 -1.9 -1.9
62.1 62.7 62.8 62.8 64.4 63.5 61.4 50.5 58.7 65.4 72.5 74.1 79.2 88.4 90.2 93.1 97.8 100.7 106.2 110.2 117.3 121.5 124.9 129.3 135.6 139.9 143 145 146.1 146.2 145.4 144.3 145.1 146.5 148.3 149.6 150.4 154.4 159.2 163.8 164.2 168.8 170.8 171.8 176.3 180.3 183.5 184.8 185.2 186.7 188.1 188.5 190.7 192.7 193.5 192.1 191 189.4 190.6 193.9 193.6 194.1 191.9 189.6 182.6 188.6 188.2 189.1 190.2 191.4 194.4 197.2 201.7 207.7 212.4 218.1 222.6 214.5 221.1 232.2 241.9 255.1 257.8 271.3 269.2 266.1 270.2 272.8 286.8 283.7 286.3 291.8 295.4 295.3 299.1 303.6 304.8 309.6 315.3 323.1 328.9 334.1 336.3 346 351.1 352.4 367.1 368.3 374.2 384.1 401.2 411.3 420.2 418.6 423.3 425.8 427.4 429.1 442.7 443.3 439.2 431.4 427.9 428.3 429.7 428.5 439.5 449.4 450 452.1 459.9 473.6 492 502.5 508.3 520.1 534.3 559.7 568.3 570.8 567.1 561.4 548 534.7 522 511.6 504 490.5 484 479.3 476.4 462.9 453.7 446.3 438.6 430 426.6 415.2 405.7 389.6 367.5 359.9 346.3 330.5 313.4 301 285.1 270.1 259.2 255.5 243.1 228 219.7 214.3 208.5 200.4 193.4 184.3 176.8 167.3 157.7 145.9 134.9 123.3 116.3 108.8 98.8 88.1 78.5 71.8 61.3 50.2 40.1 30.2 21.5 13.5 -1.9 -1.9 -1.9 -1.9
66.1 66.5 68.1 70.6 70.2 68.2 67.9 63.1 56.7 69.4 77.7 82.6 81.6 81.8 94.5 95.4 99.2 102.4 106.2 110.5 117 122.7 127.5 132.4 138.8 142.6 145 146.7 147.5 147.5 148.3 147.4 147.5 148.9 151 153.1 155.9 159.5 164.6 166.5 164.9 167.3 170.5 174.4 178.8 182.9 186.5 188.4 189.8 190.3 191.1 191.5 193.9 197.2 199.2 196 194.4 198.5 197.1 195.5 194 195 191.7 192.8 188.5 187.8 189.9 191.3 193.9 195.4 198.3 204.4 209.6 215.3 221.2 226.2 224.4 227.9 234.7 248.6 253 258.8 270.2 270.4 271.1 276.1 279.9 290 292.6 294 298.5 304.4 302.2 307.2 315.1 316 319.6 321.2 321.5 323.7 326.7 332.2 342.6 348.2 350.2 359.8 365.5 373.2 377 391.2 404.4 418.9 426.5 430.7 435.8 440.1 441.2 451.3 454.8 454.3 449.3 446.1 446.1 443 441 439.7 440.6 446.2 454.7 459.4 466.2 482.3 497.3 505.5 514.4 518.7 537.7 572.6 584.1 587 581.9 574 566.7 550.5 532.1 518.1 506.3 497.7 491.1 484.3 476.9 465.3 456.2 450.6 438.7 435.2 424.8 423.2 406.4 391 373.7 357.6 340.7 329.9 316.5 290.2 281 261.8 253.2 246.6 236.1 222.2 215.2 210.8 205.2 197.5 188.8 176.4 165.1 156 148.3 138.2 127.6 119.5 109.9 102.5 95.2 86.6 75.2 65.2 55.5 45 35 25 9.5 0.7 -1.9 -1.9 -1.9 -1.9
70.1 72.3 72.9 73.6 72.9 73.7 73.1 72 62.7 68.2 78.8 87.6 88.7 84.2 88.1 95.4 101.2 105.9 106.1 110.7 119.1 123.9 129.7 135.9 140.8 145 147.1 148.4 148.5 148.1 149.1 150.1 150.2 152.1 154.2 156.4 159.5 161.3 164.3 165.8 169 173.2 176.7 178.5 180.8 185.2 189.1 190.5 192 192.4 193.8 196.1 197.8 200.5 200.1 198.4 200 199.4 198.5 196.6 194.7 194.4 192.9 196.1 195.6 194.1 193.7 194 196.6 199.8 207 208.9 214.4 221.4 223.6 228.6 232.7 237.5 242.7 250.3 254.8 260.5 263.9 269.3 276.1 283.3 282.3 289.5 296.7 302.2 304.1 308.7 316.2 319.2 320.4 322.1 325.1 328.1 324.6 332 333.4 341.2 347.3 351.1 356.9 362.5 366.9 374.8 384.4 396.5 414.8 418.6 429.2 440.1 446.4 465 463.6 464.4 470.3 468.5 469.7 472.1 460.4 452 449.5 451.2 447.1 450 460.3 468.2 475 484.2 498.7 511.1 519.2 527.5 551.6 572.1 588.7 597.7 597.4 588.3 573.7 557 541.8 524.2 511.4 505 496 488.4 476.8 470.5 466.5 473.4 460.7 444.6 437.6 426.6 408.6 391.9 373.1 358.4 340.8 328.4 311.9 286.1 275.4 263 253.3 244.6 227.8 219.9 212.2 208.4 202.8 197 184.6 172.5 162 149.6 139.9 129.9 119.1 111.1 103.5 96.9 89.3 79.8 65.8 56.3 48 40.8 29.1 17.3 3.6 -1.9 -1.9 -1.9 -1.9 -1.9
76.2 79.7 77.5 75.9 76.9 77.5 78.4 76 72.3 58.3 76.2 85.1 90 91.2 92 94.3 98.3 100.9 107.8 108.9 119 125.9 132.1 138.1 142.9 147 150 150 149.6 148.8 149.8 151.5 152.2 155.4 157.5 159.7 161.6 162.3 164.3 168 173.3 176.9 180.5 181.5 181.7 185.9 189.7 192 194.2 194.7 195.9 198.1 199.2 198.9 200.9 201.5 201.2 200.7 200 198.6 197.3 196 193.5 197.3 197.8 196.2 193.7 196.9 199.4 205.4 209.6 213.6 218.3 224.4 231.7 236.6 242.8 246.2 247.1 248.8 251.9 258.5 265.3 275.5 279.1 283.8 289.2 294.3 297.6 306.5 309.9 315.4 320.4 329.1 328.7 331.4 333.2 337.2 342.5 342.5 340.7 345.6 350.5 356.4 364.5 366.3 376.5 382.4 388.1 399 410.5 430.9 442.8 452.3 463.2 477.5 480.7 488.6 488.7 485.9 496.3 485.3 468.1 461.6 457.1 455.4 452.8 453.4 461.6 469.5 482.7 491.9 499.5 513.1 520.5 532.4 551.9 575.7 593.3 607.2 608.6 601.2 593.4 574.7 550.5 534.4 518.8 511.1 504.4 497.7 485.6 476.2 487 476.4 467.8 455.1 444 424.3 405.5 384.6 367.1 353.2 336.6 324.7 306.9 284.6 272.1 262.3 251.3 236.1 227.7 222.9 215.6 207 196.6 189.2 178.6 163 154.8 147.2 141.9 132 118.1 107.1 95.2 91.1 80.9 68.5 61.6 51.1 37.1 29.3 19.9 10.2 1.2 -1.9 -1.9 -1.9 -1.9 -1.9
82.9 84.5 81.3 79.5 80.9 83 83.8 80.3 79 71 67.7 85.6 93.8 93.9 96.2 98.5 101 109.3 114.4 116.1 117.1 125.6 134.9 141 145.6 149.8 151 151 150.1 149.5 150.7 153.4 154.7 157.3 160.7 160.4 163.8 162.7 164.8 170 176.6 181.6 185.3 187.3 186.3 188 190 193 195.8 197 195.6 195.9 195.1 200.7 202.4 202.2 201.9 201.4 201 200.8 200.1 198.7 194.8 198.7 198.3 197.3 194.4 196.4 199.4 201.1 208.4 217.3 227.3 231 234 238 242.6 247.4 249.5 251.2 256.1 262.9 270.1 276.3 282.8 291.5 298.5 300 308 314.7 323.1 325.2 328 330.5 339.7 349.5 354.8 360.9 356.7 352.4 352.4 353.5 355.1 353.4 364.5 375.8 386.6 389.7 396.8 404 419.6 440.3 456.7 466.3 478.2 485.7 499.1 506.3 508.2 500.9 502.4 494.5 489.8 472 463.7 461.5 458 456 462.3 469.6 481.6 494.4 502.4 510.8 522.7 535.3 554.8 581.6 613.1 622.9 624.9 617.6 604.1 588.6 567.4 547.7 532.5 520.6 512.6 500.7 495.7 488.4 484.2 486.2 472.3 454.5 438.7 422.5 404.5 383.7 366.7 352.7 338.2 320.2 302.4 284.8 270.5 261.6 256.9 246.7 234.2 226.3 218.2 205.3 194.7 184.3 173.4 160.4 149.9 144.9 137.9 125.7 112.2 97.8 91.2 83.7 76 68.2 60.5 51.8 40.1 27.7 13.1 2.8 -1.9 -1.9 -1.9 -1.9 -1.9 -1.9
86.5 86.4 84.5 83.7 85.3 87.4 85.7 84 82 75.1 70.3 79.6 95.1 96.1 99.1 100 104.7 112.4 119.9 120.8 119.4 121.8 137.5 143.6 148.7 150.8 151.5 151.7 150.6 151.7 154.1 157 157.8 159.1 160.6 161 161.5 165.4 170 175.2 180.7 185.9 189.3 190.5 189.7 190.2 190.4 191.9 195.6 197.3 195.5 196.1 201.5 203 203.4 202.8 202.5 202.1 201.7 201.1 200.9 199.7 199.6 201.6 200.8 198 194.6 198.4 202.8 207.3 214.8 221.2 229.7 238.8 246.5 244.4 247.9 252.5 254.6 257 266.8 271.5 276.7 283.2 289.7 299.6 309.5 315 317.2 322.2 329.3 336.3 338.7 346.6 354.8 361.5 366.8 369.5 367.2 364.7 360.8 356.4 354.5 358.3 361.5 369.1 379.6 389.6 399.5 413.5 431.4 449.1 461.6 475.1 492.3 504.2 511.7 519 518.9 510.1 511 510.4 496 480.9 469.9 466.9 462.5 457.1 457.7 469 474.9 489.8 508.1 512.4 526.6 537.5 560.7 584.3 619.5 645.1 645.9 637.4 623.2 604.9 588.1 563.9 548.6 531.7 522.1 519.1 508 497 488.8 488.1 471 457.1 439.8 421.8 401.3 383 360.9 345 331.4 322.1 306.8 286.8 272 263.4 257.3 245.5 234.9 227.3 215.5 205.4 194.6 181.9 170.3 159.4 150.2 142 131.4 119.2 104.5 90.9 84.7 74.3 66.1 62.7 57.1 49.5 37 24.1 12.9 -1.9 -1.9 -1.9 -1.9 -1.9 -1.9 -1.9
82.5 85.9 86.9 88.3 89.7 90.7 88.2 86.8 82.3 80.8 80.2 74 91.3 98 99.6 102.1 107.1 114.6 120.6 121.6 123.7 123.8 126.2 139.7 147 150.3 152 152.5 153.9 156.7 159.7 160.5 159.8 159.2 159 160.6 167.2 172.5 177.2 181.6 185.6 189.3 191.1 191.8 192.4 193.4 193 192.6 193.5 195.3 195.8 203.6 203.7 204.2 204.4 203.9 203.2 202.8 202.4 201.6 201 198.2 200.9 200.8 199.9 196.3 198.6 203.9 207.9 210.6 224.3 236.1 246.1 248.4 248.6 254.1 255.7 261.1 263.5 264.6 268.2 278.1 286.9 289.4 298.8 307.1 317.8 319.2 325.3 331 343.3 351.4 357.6 358.6 369.4 379.9 384.2 382.5 377.5 372.7 367.4 363.9 358.4 359 364 370.9 378.8 387 395.8 414.6 433 447.5 464.2 481.8 500.3 520.5 521.1 524.1 524.2 522.7 517.9 513.8 499.2 486.4 475.2 468.2 463.7 458.9 457.1 465.6 474.9 487.3 499.1 513.6 528.3 541.2 566.6 601.9 622.3 651.6 662.8 657.9 646.3 629.9 604.8 584.8 564.8 551.2 541.7 522 514.2 506.4 495.1 479.8 471.4 455.7 435.8 415.2 394.3 372.2 358.8 340.6 326 316.5 302.4 286.9 275.9 267.5 259 243.6 232.7 227.2 217.2 208.1 194 181.2 170.6 159.7 147.8 137.4 123.2 110.2 94.7 84.3 76.6 70 65.7 55.4 49.6 39 26.3 15 -1.9 -1.9 -1.9 -1.9 -1.9 -1.9 -1.9 -1.9
81.6 86.8 88.8 91 93.3 93.4 91 88.4 84.2 84.8 82.2 70.8 86.2 98.1 101.1 104.2 108.6 116.1 121.6 124.7 129.1 135.7 132 133.8 139.8 146.3 149.7 154 158.2 160.3 160.6 161.2 160.2 159.6 159.2 166.1 173.4 177.7 182 186 189.1 191.6 193.8 195.1 195.8 195.8 195.4 195 195.1 196.8 200.3 200.9 202.7 204.6 203.9 203.5 204.9 204.1 203.1 200.9 198.2 199.5 201.5 200.1 199.9 203.7 209.1 207.4 215.8 229.5 243.1 250.6 252.4 258.1 258.6 264.2 268.2 273.2 272 275 278.1 285.9 288.8 296.7 299.5 313.2 326.6 330.2 334.6 342.3 354.7 364.7 370.4 379.3 394.4 397.8 400.9 391 394.6 384.5 375.7 366.1 362.8 365.2 366.5 374.1 377.1 384.7 395.3 407.4 427.6 443.7 457.9 477.9 500.2 517.6 534.8 532.4 536.4 531.3 524.2 516.8 503.1 490.8 478 468.5 462.6 458.7 458.4 461.8 471.3 481.9 498 517.5 529.3 544.9 575 609.7 635 665.8 674.2 664.5 651 634.5 615.6 599.1 580.7 570.2 557.9 537.9 520.1 510.2 498.4 483.3 457.9 450.1 429.2 409.9 388.8 370 359.6 343.1 324.3 312.4 299.4 287.4 278.1 269 252.7 238 231.8 227.5 216.6 205.3 195.7 185.5 173.4 162.9 148.6 132.8 111.9 98.2 86 79 71 63.7 57.6 50.7 39.5 31.1 13.7 -1.9 -1.9 -1.9 -1.9 -1.9 -1.9 -1.9 -1.9 -1.9
84.5 89 91.3 93.6 95.2 94.1 92 88.5 87.9 87.3 87.6 85 70.6 94 100.6 104.2 109.7 117.6 123.1 128.8 134.4 137 133.4 138.7 138.9 139.2 147.9 151.9 156.8 161.3 162.1 162.7 163.2 162.3 166.1 172.4 178.2 182.5 186.3 189.1 191.9 194 195.6 197 197.9 198 197.7 197.4 197.2 199.5 200.9 201.6 202.9 204.3 203.2 204.3 205.4 206.5 205.5 198.2 198.2 202.7 202.4 199.8 204.9 209.5 212.2 221.8 228.4 233.8 240.2 249.8 259 263.2 269.6 273 271.8 273.6 282.9 285.3 290.4 295.7 306.5 312.7 312.2 320.9 332.1 337.1 343.8 354.4 363.9 373.7 378.9 391.5 398.1 401.9 398.4 404.5 404.6 394.4 382.9 374 370.3 367.9 370.8 375.2 378.5 381.1 389.6 401.8 420.4 436.7 455.4 472.1 494.4 514.5 528.7 536.5 535.5 535.8 527.2 518.3 509.2 494.9 480.9 473 465.4 461.1 460.1 464 471.3 479.7 496.4 522.3 533.5 550.3 581.5 608.8 644.1 681.6 699.2 689.1 671 641.9 620.4 608.8 595.8 580.3 565.8 551.3 528.6 509.6 499.3 483.1 456 432.8 419.3 401.2 383.3 368.5 351.7 336.9 319.5 308.9 297 285.2 274.4 264.2 253.1 241.9 233.5 225.8 215.6 208.8 199 186.3 172.6 156.9 141.1 123.3 103.5 95.1 85.4 75.4 66.3 57.7 46.4 33.7 26.6 16.5 -1.9 -1.9 -1.9 -1.9 -1.9 -1.9 -1.9 -1.9 -1.9 -1.9
85.1 88.5 93.6 96.1 92.5 92 91.8 91 88.9 88.4 88.7 89.6 75.9 74.1 98.6 103.9 110.7 118.4 124.2 129.1 136.3 137.7 135.9 140.2 142.6 143.8 145.6 152.4 156.4 161.4 164 165.2 167.3 168.7 172.6 178.2 182.6 187.1 189.8 192.3 194 195.6 197.2 198.6 199.7 200.3 197.9 198 198.9 199.7 201.4 202.2 203 204.2 203.2 203.2 204.2 206.1 203.6 198.6 200.8 203.1 203.6 201.5 206.5 214.7 224.9 226.5 229.7 237.3 249.3 258.5 265.5 266.9 267.4 271.2 281.7 287.4 292.5 297.5 300.9 302.1 310.2 317.8 323.4 333.9 342.3 346.9 357.6 366.2 371.6 380.8 388.9 400.9 405 408.6 405.8 408.3 413.7 404.5 391.1 385.7 376.9 373.5 374 378.4 380.6 383.6 388.7 396.7 412.6 432.7 453.6 470.3 490.9 516.8 527.6 536.3 541.7 536.6 530.4 524.4 517.3 505.6 491.2 483.5 474.2 467.3 463.7 467.2 474.2 484.6 498.9 521.7 537.3 554.8 579.7 619.3 654 682.6 711 702.8 692.6 664 645.3 620 601.6 583.1 570.1 556.7 533.9 515 493.3 477.9 452.7 427.3 410.1 397.8 378.7 361.8 345.5 331.8 320.7 310.2 295.6 281.5 271 263 254.9 246.6 236.5 225.9 212.5 202.4 193.4 185.1 167.4 149.1 131.5 113.1 99.3 91.3 81.8 70.3 59.1 47.1 34.4 22.2 3 1.1 -1.9 -1.9 -1.9 -1.9 -1.9 -1.9 -1.9 -1.9 -1.9 -1.9
84.2 86.4 87 90.7 91 90.5 90.9 91.2 90.2 90.6 91.2 90.6 89.5 84.5 77.8 101.4 108.7 118.1 125.1 129.4 136.9 139.6 140.9 143.6 145.9 148.9 151.2 149.5 152.8 158.9 163.1 166.9 169.8 173.5 177.8 182.7 187.1 191 192.6 194.1 195.6 197.2 198.8 200.2 199.8 200.3 199.6 199.9 200.5 200.2 201.9 202.8 203.3 204.3 204 203 204.3 205.6 202.2 200.4 203.5 204.3 203.6 204.3 211.7 216 224.9 229 239.4 245.6 247 250.7 258.6 267.5 278.4 286.3 288.7 295.9 301.4 306.5 313.6 316.1 330.8 330.1 337.8 344.9 348.1 359.4 370 378.8 389.1 400.4 405.1 421 425.4 426.6 420.5 425.3 429.3 414.2 408.8 401.2 388.8 383.1 382 384.4 386.9 387.9 390.7 397.5 407.8 427.8 450.2 467.8 486.1 505.5 524.5 535.6 542 541.8 537.1 532.5 524.1 516.9 507.7 498 486.1 477.2 470.4 472.8 481.7 492.2 502.8 523 539.5 553.2 586.3 624.6 660.2 697.2 719.2 716.3 709.1 687 665.9 636.8 615.4 590.6 574.2 554.1 534.8 512.2 490.6 467.8 451.4 424.8 401.8 384.2 367.9 351.6 341.9 329.3 318 308.4 292.7 278.7 269.3 262.8 253.2 244.1 232 216.6 205.3 195.3 185.1 174.5 157.9 140.9 123.4 109.1 93.3 85.7 74.9 62.5 50.6 37.8 24.7 2.1 0.7 -1.9 -1.9 -1.9 -1.9 -1.9 -1.9 -1.9 -1.9 -1.9 -1.9 -1.9
85.7 84.1 84.6 86.1 89.5 88.6 89.2 91.2 92.1 93.4 94.4 94 93.8 80.6 93.2 93.3 105.5 114.7 121.3 126.9 131.7 137 142.1 143.9 146.5 148.8 149.8 150.5 152.9 156.1 160.7 168.7 173.6 177.8 182 186.4 191.1 192.8 194.3 195.8 197.3 198.8 200.4 200.8 200.9 200.7 201.3 201.8 202.1 199.9 203.2 203.6 204 203.5 204.7 204.9 205.9 201.5 201.5 203.4 203.4 201.4 201.4 203.4 210.5 220.4 228 237.5 246.1 242.8 249.1 259.4 273.7 278.6 285.5 293.7 304.1 305.9 314.2 317.4 327.7 334.7 338.9 346.5 352 361.6 365.7 374.9 384.3 392.9 402.1 412.1 426.5 437 435.7 440.2 442.3 442.9 438.3 433.6 427.5 414.3 403.7 395.4 392.7 395.2 396.6 397.9 401.2 399.4 406.6 420.6 439.2 461.8 481.9 497.4 514.6 533.5 538.8 543.1 544.5 538.3 534.8 527.9 516.9 508.1 499.7 489 484.9 482.6 487 499.7 517.5 527.6 540.5 555.6 591.8 626.5 666.2 708 727.9 727 710.4 694.8 668.1 647.2 620.4 595.6 567.6 543.8 521.4 502.2 478.7 459.2 438.4 415.8 395.7 378.1 360.2 347.8 337.3 327.9 314.8 303.7 289.4 276.4 266.5 258.1 246.9 236.1 222.3 207.7 196.5 187.5 177.5 162 144.2 129.2 113.1 100 87.5 75.6 62.2 54.4 37 24.8 2 -0.1 -1.9 -1.9 -1.9 -1.9 -1.9 -1.9 -1.9 -1.9 -1.9 -1.9 -1.9 -1.9
89.4 87.6 85.2 85.5 86.2 86.9 87.5 92.3 93.2 94.4 95.1 96.4 99 87.4 89.9 78.8 103.3 111.6 116.9 124.4 131.4 136.2 139.8 142.9 145.6 149.1 150.7 152.6 155.7 157.6 159.8 170.1 174.1 181.6 184.5 188.2 191.2 192.4 195 197.2 199 200.4 199.8 200.6 200.8 200.9 201.3 201.9 200.3 199.9 203.7 203.6 203.7 200.9 199.9 201.9 199.9 202.6 202.2 204.7 201.4 201.4 201.4 207.7 216.8 224.4 236.4 241.9 242.4 250.5 259 267.4 278.3 286.7 293.6 300 306.6 317.1 324.7 341.5 343 350.5 355.5 358 364.7 375.1 381.1 387.1 398.7 409.9 418.9 428.6 437.4 442.6 447.5 454.1 461.9 463 454.8 459.4 444 429.9 418.8 408.5 405.2 404.5 406.6 408.9 408.1 407.1 408.1 418 433.3 453.3 474.3 489.5 506.8 527.1 535.4 543.8 548.3 545.2 545 542.2 538.4 526.1 517.2 506.5 499 494.2 498.1 511.6 522.8 533.6 541.8 556.3 592.1 627 665.8 706.4 725.9 719.5 703.4 679.4 659.3 636.3 611.4 583.9 560.6 536.5 514.3 492.9 471.5 454.8 436.9 417.5 398.4 381 363.4 350.9 338.6 328.9 312.7 297.7 286.8 274.5 262.9 251.2 238.9 226.2 211.8 203.3 191.2 180.5 168.1 151.3 133.4 118.4 105.6 93.5 81.2 66.4 52.8 40.7 30.4 6.8 0.4 -1.9 -1.9 -1.9 -1.9 -1.9 -1.9 -1.9 -1.9 -1.9 -1.9 -1.9 -1.9 -1.9
90.2 87.1 86.1 86.4 86.1 87.2 88.1 90.2 93.8 97.7 98.3 98.5 101.1 94.7 93.3 93.7 93.3 107.9 114.7 120.7 129.3 134.9 139.1 141.9 145.2 148.8 151.1 154.6 157.7 162 163.4 165.5 172.2 179.3 183.2 187.9 190.9 192.6 195 197.4 199.2 200 199.6 200 200.6 201.1 201.1 200.7 199.9 199.9 203.5 203.7 204 199.9 199.9 199.9 199.9 204.7 205 201.4 201.4 201.4 204.5 213.5 224.7 230.7 229 237.8 243.7 256.3 262.9 271.6 279.6 289.9 301.4 310.1 319.5 326 342.5 353.2 364.1 369.9 369.1 376.4 384.9 388.1 396.6 406.3 414.3 427 438.5 450.8 456 460.6 464.6 464.4 473.8 474.7 474.2 469.7 461.9 448.8 437.8 426.7 423.8 421.2 425.8 421.2 417.9 415.7 415.6 423.6 432.1 447.1 467.4 485.2 503 519.9 533.8 539.2 545.9 549.1 555.9 554.2 553.6 545 535.1 523.3 514.2 510.4 519.8 525.5 528.5 537.1 544.4 557.1 591.3 621.5 660.7 706 718.2 702.1 694.7 675.9 653.3 628 599.2 572.8 546 523.2 498.6 479.9 462 445.7 428.8 414.4 398.5 382.3 365.1 351.6 340.7 329.9 311.6 292.8 282.1 271 258.3 245.7 232.7 219.3 207.6 197.2 182.7 166.2 153 137 126.1 115.5 99.1 84.2 75.6 60.6 48.2 35.8 25 1.9 -0.3 -1.9 -1.9 -1.9 -1.9 -1.9 -1.9 -1.9 -1.9 -1.9 -1.9 -1.9 -1.9 -1.9
94.3 88 87.4 88.8 88.2 90.6 92.8 94.4 93.3 99.7 101.1 101.6 99.3 99 92.1 104.7 86.3 89.3 109.6 115.8 126.9 133.6 136.6 140.7 144.6 148.4 152.6 156.3 159.8 164 167.7 170.7 169.1 176.5 181.2 185.7 189.7 191.7 194.6 197 199 199.4 200.2 201.3 202.7 203.5 203.3 202.7 202.9 199.9 199.9 199.9 199.9 199.9 199.9 199.9 199.9 206.9 201.4 201.4 201.4 201.5 212.2 214 219.1 223 233.2 241.7 250.2 255.8 267.6 277.1 285.6 292 304.4 318 333.4 349.9 360.8 369.1 381 387.7 386.1 389.2 402.2 404.5 413.7 424.3 427.8 440.2 449.9 464.9 471.7 473.4 476.9 475.9 481.2 485.9 488 489.1 481.9 469 456.4 450.7 444 441.4 439.4 433.3 428.3 424.1 427.4 432.2 440.2 448.1 461.6 479.1 497.5 512 525.7 538.9 551.4 555.7 562.6 566 561.6 555.7 550.6 542.3 538.7 532.1 530.2 530.3 535.2 540.8 547.8 559.3 588.1 616.8 650.5 688.9 705.5 702.8 680.1 664.8 642.8 618.8 588.5 560.8 536.1 510.7 490.2 468 448.2 434.6 420.7 406.3 392.4 379.5 365.2 351.8 339.5 326 307.8 291 277.2 262.7 250.7 237.4 224.2 209.1 196.2 181.4 166.1 148.3 136.7 126 114.8 101.3 88.2 74.9 62.1 51.2 38.9 30 7.9 0.4 -1.9 -1.9 -1.9 -1.9 -1.9 -1.9 -1.9 -1.9 -1.9 -1.9 -1.9 -1.9 -1.9 -1.9
95.4 89.9 89.2 90.1 89.7 92.3 94.7 97.7 92.7 94.1 103.6 104.4 102.2 97 95.7 105.8 103.8 93.6 85.3 109 118.6 129.9 133 139.9 143.9 148.7 153.5 158 161.8 165.6 169.4 170.5 173.9 171.2 179 182.7 186.6 190.3 193.3 196.3 198.9 199.6 202 204.4 206.9 207.8 205.3 202.9 199.9 199.9 199.9 201.7 199.9 199.9 204 199.9 200.6 201.4 201.4 201.4 201.9 209.1 216.8 216.3 220.4 227.3 234.8 241 250.7 261.5 270.6 278.5 290.8 304.4 319.3 333.7 348.1 366.3 375.7 384.9 392.5 403.8 407.5 411.4 414.1 418.4 428.7 439.2 453.5 462 463.5 474.4 478.4 482.8 483 488.7 494.8 498.5 502.3 504.6 502.7 486.9 476.7 477.2 465.2 460.4 453.7 451 444.9 437.1 439.2 446 451.2 455.9 464.7 482.8 494.7 507.1 526.3 541 551.1 561.5 573.6 580.3 579.8 576.9 572.7 567 560.3 546.1 539.5 537.1 539.4 544 551.4 559.9 584.2 610.8 644.7 689.7 700.3 686.3 669.6 647.3 628 605.8 579 552.6 527.3 503.8 473.3 453.8 439.3 425.8 411.8 397.6 389.9 377.5 362.3 348.6 335.9 321.5 306.6 289.5 273.8 259.6 245.5 229.5 212 195.8 181.3 167.6 154.5 134.1 121.3 110.6 97.9 86.2 72.8 64.5 55 41.3 30.3 23.3 2.2 -0.5 -1.9 -1.9 -1.9 -1.9 -1.9 -1.9 -1.9 -1.9 -1.9 -1.9 -1.9 -1.9 -1.9 -1.9
93.1 91.3 95.6 98.4 92.8 94.1 96.6 96.3 97.5 94.6 100.7 106.3 104.6 102.2 96.9 102.3 108.7 103.5 88.8 111.6 117.7 124.5 131.1 137.3 142.4 149.9 154.4 158.5 162.1 166.7 171 171.2 175.2 176.2 178.9 179.6 186.4 191.4 194.2 197.3 200.5 203.4 205.3 207.3 209.2 210.5 208.2 202.1 199.9 203.5 202.7 199.9 199.9 206.2 208.8 211 201.5 201.4 201.4 201.4 206.3 209.4 212.9 218.2 225.5 231.8 241.5 249.1 258.7 266.9 282.2 294.4 305.3 319.7 335.1 349.9 364.6 375.8 384.1 391.5 401.6 414.7 421.3 422.8 432.8 437.3 448.7 457.5 469.6 472.2 476.7 481.1 485.7 492.1 497.2 507.4 518.6 517.6 517.8 524.3 521.5 513.6 494.3 492.1 492 480.1 473.1 470.4 460.9 448.1 452.7 460.9 464 468 475.1 481.3 491.6 505.4 524 539.2 555.4 570 581.8 599.1 598 601.9 593.3 582.9 566.9 557.2 546.8 544.1 544.8 548.4 552.5 562.8 581.7 611.3 655.8 682.5 689 676 657.6 633.6 612.5 590.9 567.2 541.1 517.3 483.8 462.4 445.4 432.9 419.8 406.2 394.1 385.3 370.3 357.8 345.7 334.4 320 303.6 287.7 273.4 257.2 239.8 221.2 203.1 186.8 171 155.5 142.6 126.4 110.1 95.7 81.6 71.2 62 54.3 46.6 34.5 23.5 16 1 -1.9 -1.9 -1.9 -1.9 -1.9 -1.9 -1.9 -1.9 -1.9 -1.9 -1.9 -1.9 -1.9 -1.9 -1.9
97 96.1 99.9 103.1 100.1 96.2 104.1 97.4 99.1 98.3 98.3 106.5 107.7 105.5 103.9 98.3 107.8 103.7 95.3 104.8 119.9 126 129 135.4 141.6 147.9 153 157.2 161.2 164.7 168 171.7 175.1 178.2 179.5 179.9 184.6 189.5 196.3 199.5 203.5 208.2 211.1 211.5 210.9 210.7 209 204.7 207.6 210 208.1 199.9 201.5 208.9 213.5 210 201.4 201.4 201.4 201.4 205.3 209.4 216.2 226.7 233.5 245 250.6 258.9 270 283.8 296.7 303.3 313.8 329.1 346.8 362.5 371.6 381.6 396.2 405.4 414.7 425.9 439.7 441.7 443.7 453 464.3 467.3 475.6 480.5 481.4 487.8 494.1 503.2 516.6 526.1 529.5 529.2 534.5 541.1 538.8 528.7 519.1 512.4 506.2 497.3 494.6 485.9 475.6 467.5 469.3 475.3 477.5 480.5 483.9 488.4 497.3 510.2 524.1 541.3 559.7 578.2 604.4 610.1 608.6 609.2 599 585.6 576.8 564.8 554.5 549.6 549.9 552.6 553.4 571.5 587.4 619 654.1 668.3 662.3 657.1 641 623.9 598.9 577.2 556 528.9 500.5 475.8 456.3 442.3 429.1 415.3 402 389.5 376.1 363.8 350.8 338.9 326.8 312.8 298.4 283.4 266.9 249.6 231.4 212.8 192.4 176.4 161.5 145.6 130.4 111.6 97 85 70 58.3 54.1 47.6 39.5 28.2 12.1 1.4 -1.9 -1.9 -1.9 -1.9 -1.9 -1.9 -1.9 -1.9 -1.9 -1.9 -1.9 -1.9 -1.9 -1.9 -1.9 24.8
101.5 101.1 103.8 106.3 108.8 104.5 102.4 102.6 101.6 103.5 105.6 103.6 108.8 109.1 106.5 102.6 106.7 108.6 103.9 96.2 113.3 124.4 128.8 132.1 138.3 145.1 150.8 155.3 159.8 163 167.1 170.3 174.9 179 179.6 181.2 183.4 188.2 193.6 200.9 209.5 214.5 216.4 217.5 213.2 211.5 208.2 208.4 210.2 209.4 206.1 201.7 204.9 209.1 211.5 208.9 201.4 201.4 201.4 201.4 206.4 217.5 225.3 230.2 241 254.5 261.3 271.8 281.4 292.6 302.5 312.5 326.3 335.9 354.3 372.6 381.8 395.1 412.6 423 436.9 440.9 446.1 450.8 459.2 474 480 482.1 488.3 489.1 490.7 499.7 511.6 515.1 521.7 535.4 539.5 547.4 555 557 547.1 544.8 545.1 539 529.2 521.5 521.3 508.1 493.9 488.4 488.4 488.6 491.9 493 496 502.1 510.4 518.1 527.5 545.2 562.1 588 608.8 623.8 623.6 613.6 603.3 594.2 581.4 570.6 564.8 559.6 556.9 556.8 569.2 579.4 587.4 610.7 632.6 638.9 630.3 625.8 614.7 598.1 581.9 559.7 538.6 516.6 495.5 472.9 455.4 441.4 424.1 410.8 397.5 384.8 370.5 357.8 342.9 331.7 317 302.3 286.5 271 255.3 238.9 220.4 202.2 185 169.6 153.4 135.6 117.4 98.7 83 71.5 60.3 50.4 45.5 40.3 32.7 21.5 2 -1.9 -1.9 -1.9 -1.9 -1.9 -1.9 -1.9 -1.9 -1.9 -1.9 -1.9 -1.9 -1.9 -1.9 -1.9 2.5 36.9
103.5 105.8 109.3 112.9 115.2 115.8 107.6 108.6 108.3 109.8 112.2 111.1 114.2 113.7 112.8 111.8 108.7 109.3 108.6 87.8 111 114.8 126.1 132.3 134.8 143.1 148 152.5 156.1 160.5 165.4 170.2 174.5 177.6 178.9 179.9 183.8 186.8 189.6 194.9 209.3 215.8 221.4 220.8 215.4 212.7 212.5 211.5 210.7 210.6 207.9 209.9 211.3 210.4 209.6 206.2 201.4 201.4 201.4 202.9 212 222.3 228.7 238.9 249.7 259.8 274.1 283 295.1 301.9 311.3 321.4 330.4 346.4 363 378.3 396.8 413.7 424.9 436.4 444.4 448.7 457.2 458.4 468 479 487.1 490.8 491.8 496.6 498.8 509.2 514.5 522.3 531 540.5 547.6 556.9 570.6 571.6 564.7 563.9 555.2 550.3 550.7 547.6 549.6 524.4 516.6 511.5 505 510.3 510.2 506.2 507.7 512.7 520.2 526.6 536 549.9 572.5 594.7 615.7 633.4 628.3 612.9 604.6 592.6 587.8 580.9 577 570.2 564.2 567.2 574.9 582 582.9 584.1 597.1 601.9 596.7 590.2 585.6 571.7 557 544.4 525.6 509.8 494.9 475.7 453.5 432.4 417 404.4 391 377.9 362.1 347.8 334.8 321.6 303.7 288.7 273.4 259.9 246.4 229.8 212.4 194.5 176.3 161 144.7 126.8 108.8 88.8 73.1 64.8 55.3 43.2 35.9 27.2 28.9 11 -1.9 -1.9 -1.9 -1.9 -1.9 -1.9 -1.9 -1.9 -1.9 -1.9 -1.9 -1.9 -1.9 -1.9 -1.9 2.2 27.8 53
108.9 111.7 114.4 117.2 119.8 119.9 113.9 112.4 114 114.7 117.6 114.5 118.4 116.9 113 114.9 110.3 114.3 109.3 94.3 105.2 114.2 118.4 126.1 136.2 140.2 145.2 148.4 152.6 157.3 162.4 169.1 170.4 174.8 178 180.1 186.1 190 190.9 190.1 196.5 207.7 215.2 218.1 214.8 213.6 215.3 214.7 211.6 212.5 213.2 215.9 213.3 210.1 210 204.8 201.4 201.4 201.4 212.1 222.2 225.1 238 244.3 254.3 265.8 280 287.8 295 306.8 318.3 332.7 346.3 364 371.1 378.2 399.7 418.1 436.9 447.3 458.4 457.9 461.2 461.6 471.3 480.6 489.2 493.1 496.1 500.6 506.7 515 521.5 527.8 535.9 545.9 554.3 567.7 580.3 583.6 584.4 575.6 568.8 568.2 567.4 566.4 567.2 555.3 540.4 532.3 530.4 530.2 526.6 522.5 519.5 525 533.9 541.7 548.6 562.3 583.4 602.9 618.7 628.1 625.5 620.1 606.6 605 600.4 596.8 591.6 585.7 579.8 577.4 578 582.2 578.2 572.2 568.4 568 568.3 559.7 550.5 546.7 535.5 526.5 514.9 500.4 485.5 469.6 446.2 427.5 411.4 399.4 385.1 370.4 357.1 341 326.5 311.1 292.6 278.1 264.9 250.6 237.1 221.5 204.9 186.9 169 149 132.5 119.4 103.3 83.3 66.6 54.7 50.6 45.3 32.6 20.8 12.8 -1.9 -1.9 -1.9 -1.9 -1.9 -1.9 -1.9 -1.9 -1.9 -1.9 -1.9 -1.9 -1.9 -1.9 -1.9 2 20.2 42.6 64.6
113.5 115.6 118.6 120.1 122.5 120 116 120.7 119.8 117.8 119.9 118.7 119.9 120.5 118.3 118.3 117.6 118.1 111.4 106 97.2 101.6 101 116.3 124.4 136.1 138.8 144.6 148.3 154.1 159.1 163.6 168.8 173.5 179.9 183.8 188.7 191.1 191 190.8 193.3 200.9 204.9 212.4 212.4 212.6 217.2 213.7 212.1 215.3 219.3 218.7 216.5 210.2 213.9 206.7 201.4 201.8 210.6 220.1 222.6 236 240.7 253.2 261 268.7 276.1 286.8 296.4 313.5 334.9 346.7 357.1 374.8 377.1 389.4 415 433.4 447.2 458.2 470.7 466.2 470.6 469 473 479.2 484.4 487.8 494.2 502 509.8 519 524.1 532.1 544.4 554.7 564.6 582.3 592.2 596.6 593.7 589.5 590.1 587.4 581.8 577.5 570.9 567.8 560 556.3 552.2 548 540.9 535.3 538.9 539.3 548.1 560.5 566.1 580.4 594.9 603.8 618.3 633 634.1 631.6 626.7 620.7 618.5 621.4 618.2 605.4 598.9 592.2 585.8 575.5 569.8 562 553.3 547.3 544.3 535.3 525.7 517.7 512.5 503.2 493.8 485.3 472.2 461.4 446.1 429.3 410.1 394.2 379.1 364.3 349.5 333.4 317.7 302.5 288.3 270.3 252.7 236 225.6 210.6 196.4 180.2 161.9 148.2 120.3 104.5 90.9 76.1 60.1 45.6 41.8 36.7 27.6 8.9 -1.9 -1.9 -1.9 -1.9 -1.9 -1.9 -1.9 -1.9 -1.9 -1.9 -1.9 -1.9 -1.9 -1.9 -1.9 -1.9 10.1 24.3 57.7 72.6
117 120.3 121.9 123.9 122.8 121.2 121.6 124.8 123.5 122 121 122 121 126.8 120.9 123.4 122.8 119.8 116.6 112 96.2 119.2 114.9 103.8 117.9 118.9 114.3 128.8 142.9 148.7 153.4 158 162.9 170.2 179.7 186 190.2 189.6 189.7 189.5 193.9 198.6 201.9 202.9 207.4 211 212.2 209.4 212 217.8 217.4 216.7 216 211.7 209.3 205.7 202.6 209.2 213.7 223 235.7 243.4 250.4 254.4 263.8 269 279.6 291.5 306.1 324.2 341.1 350.4 363.5 373.3 386.1 398.1 413.7 434.4 459.7 470.8 475.2 470.9 472.8 474.5 482.1 486.3 490.3 491.1 498.4 510.3 520.5 529.4 531.7 542.6 552.6 562.4 570.7 589.3 596.5 597.9 601.1 603.8 601.3 602.2 596.8 583.9 575.9 574.6 572.5 574.4 575.6 564.9 561.3 558.7 559.1 565.9 572.2 578.5 578.3 591.7 600.1 610.5 631.2 641.8 650.5 656.7 652.7 640.6 634.1 632.4 630.3 624.4 622.7 614.3 595.4 574.7 565.2 555.2 543.2 535.6 529.1 523.9 513.4 507.6 498.8 489.1 481.9 475.8 467.6 459 445.1 428.2 406.3 387.2 369.8 351.9 338.4 323.9 308.2 291.8 272.6 257.6 239 223.1 209.2 198.1 185.4 173.5 154 136.9 116.6 92 73.4 64.1 50.5 41.6 31.4 24.2 13.9 0.9 -1.9 -1.9 -1.9 -1.9 -1.9 -1.9 -1.9 -1.9 -1.9 -1.9 -1.9 -1.9 -1.9 -1.9 -1.9 1.1 21.6 36.8 61.9 74.6
120.7 123.1 124.8 124.7 124.5 126.9 128.9 130.4 127.2 125.5 127.7 129.4 127.1 127.7 125.6 127.1 128.3 125.3 119 118.2 106.2 120.1 118.1 112.2 104.8 105 119.4 116.8 129.2 136 148.7 151.4 155.8 163.6 172.7 182.6 187 188.8 188.8 190.2 192.5 197.2 202.3 202 203.3 204.8 206.5 207.6 210 212.4 211.3 214.8 212.5 208.3 205.5 206.4 206.6 212.6 225.9 234.4 241.2 248.7 253.9 257.1 264 270.5 279.5 291.5 307.7 324.5 340.3 357.1 363.7 381.3 396.2 401.6 414.7 431.6 451.8 464.1 470.8 473.3 474 478.8 491.2 493.3 487.8 490.2 496.9 510.6 526 530.5 536 545.8 553.3 564.2 575 583.8 593.2 602.2 608.1 608.6 603.6 599.6 594.7 587.4 584.5 581 581.5 584.7 585.9 589.9 591.8 587.1 584.3 591.4 592.9 593.5 590.9 593 605.2 620.2 640.6 669.9 685.5 683 675.5 666.5 657.3 659.8 655.9 652.4 644.3 626.9 605.1 582.8 560.1 548.2 535.9 527.2 520.7 512.7 503.5 498.3 492.3 487.2 481 474.3 469.6 457.3 445.3 423.4 401.5 381.3 360.6 347.3 331.3 314.7 299.1 283.5 264.6 240.5 223.5 221 213.1 201 189.4 174.6 161.7 143.3 119.8 95.8 73 52.9 42.9 34.8 25.3 14.6 2 -1.9 -1.9 -1.9 -1.9 -1.9 -1.9 -1.9 -1.9 -1.9 -1.9 -1.9 -1.9 -1.9 -1.9 -1.9 -1.9 13.7 25.5 44.8 62.8 77.3
123.8 125.7 126.3 126.6 128.6 131.6 135.1 135.7 133 131.3 132.5 132.7 131.1 130.3 128.1 124.7 129.8 131.3 118.5 121.4 116.2 120.2 122.9 122.4 117.9 119.4 129.2 134 132.9 133.6 126 137.3 146 155.5 164.8 175.2 186 187.4 186.5 188.9 191 197.6 206.3 202.9 199.3 194.8 195.4 199.5 203.7 207.2 209.3 212.2 210.2 206.2 204.8 206.5 207.4 222.5 236 241.9 245.4 248.8 251.8 261.9 268.3 271.6 279.6 292.5 305.5 319.8 335.7 346.7 360.3 383.4 398.9 406.8 415 426.5 440.6 455.7 464.8 477.1 476.7 478.1 485.4 488.6 486.9 491.8 500 508.3 521.4 531.2 539.1 548.8 556.2 565.6 574.2 581.4 592.7 604.4 608.5 607.1 604.1 598.8 596.5 593.9 590.5 585.8 586 593.2 597.1 605.9 612.8 611 612.9 619.6 628.9 621.6 607.2 609.1 618.3 640.4 677.4 714.2 725.7 724.5 706.5 694.4 681.8 691.5 678.3 661 655.5 642.8 614.6 588.6 562.2 545.6 531.5 522.4 517 503.4 496.3 491.5 486.2 483.3 474.4 468.9 460.9 450.5 435.3 414 394.8 376.4 359.3 344.2 328.5 314.2 295.4 272.4 253 240.4 239.6 232.6 220.7 208.2 192.4 178.9 165.4 142.4 112.3 91 70 51.3 36.9 26.7 16.9 7.1 -1.9 -1.9 -1.9 -1.9 -1.9 -1.9 -1.9 -1.9 -1.9 -1.9 -1.9 -1.9 -1.9 -1.9 -1.9 -1.9 11 23 40 53.6 68 80.5
130.5 130 131.7 130.3 133.3 135.7 137.6 140.1 138.4 135.2 137 135.5 133.2 132.4 131.7 127.4 128.5 133.3 124.9 123.9 123.7 123.3 129.4 131.6 128.8 129.6 138.4 142 144.9 148.4 144.9 141.3 131.6 138.4 153.7 163.1 172.1 176.2 177.9 180.1 186.2 192.8 200.3 198.9 193.1 188.3 188.4 192.2 196.3 199.9 202 203.8 201.5 200.7 202.5 205.1 207.9 220.1 232.1 240.6 243 249.3 259.1 264.3 269.5 278.9 286.3 288.9 303 317 333.6 345.4 360.9 379.4 394.4 403.6 415.8 427.6 443.3 455.8 459.1 471.7 472.6 474.8 480.8 479 487 489.8 495.9 505 521.2 531.7 544.7 554 562.2 568.5 575.7 583.6 594.9 604.4 605.3 605.4 603.3 607.7 602.6 595.8 592 593.1 596.3 603.8 608.5 616.5 632.7 639.5 649.4 651.8 643 638.1 633.5 638.6 649 674.8 709.8 732.3 735.5 738.6 727.4 706.7 694.3 687.9 687.9 686.6 669.7 649.2 620.4 591.9 569.3 546.8 529.2 519.6 509.4 502.2 495.5 486.8 485.3 473.5 467.9 462 458.1 441.6 421.7 403.4 386.9 370.9 355.4 341.3 326.3 309 290 271.3 252.4 250.6 243.2 231.7 220.4 202.8 187.6 170 151.3 128.3 103.2 86.5 65.9 48.4 33.5 18.4 7 5.5 -1.9 -1.9 -1.9 -1.9 -1.9 -1.9 -1.9 -1.9 -1.9 -1.9 -1.9 -1.9 -1.9 -1.9 -1.9 -1.9 17.8 27.7 38.7 66 74.9 91.2
134 134.2 136.6 135.9 138.9 139.4 141.7 144.7 143.5 139.5 137.7 138.4 137.6 134.4 134.4 129.9 127.5 128.3 127.2 126.9 128.4 129.6 134.3 134.1 135.6 136.6 140.4 146.4 151.4 151.1 152.1 154.7 147.2 145.1 138 148.7 158.6 166.9 168.1 172.5 177.9 183.1 187.1 187.7 185.8 185.1 185.6 188.1 189.8 192.6 194.8 196.7 196.5 196.7 198.1 200.3 206.1 214.5 227.5 237.8 245.5 255.6 266.8 270 277.6 287.2 289.1 291 297.3 307.7 324 338.4 351.3 369.1 392.2 402.8 411 422.8 436.1 442.5 450 460.9 465 474.9 472.6 472.2 481.3 487.2 492.9 507 522.5 535.5 550.2 559.8 565.8 572.7 581.5 590 601.5 602.6 604.6 606.4 609.7 606.6 598.5 596.5 597.3 602.3 609.5 613.3 619.7 633.5 652 660.5 663.2 659.1 655.3 653.5 662.5 676.5 686.3 700.2 708.7 725.8 736 730.3 721.1 708.6 700.4 691.6 691.2 686.8 673 660.5 630 598.5 571.9 549.5 530.7 519.6 512.7 506.4 496.6 489.2 479.5 468.5 464.2 460.5 446.9 429.7 412.1 395.8 379 364 349.8 335.8 320.2 302.4 282.1 270.5 265.1 255.3 245 232.3 217.6 202 183.4 162 138.2 114.4 94.7 79.1 61.7 47.1 29.9 16.4 5.8 1.3 -1.9 -1.9 -1.9 -1.9 -1.9 -1.9 -1.9 -1.9 -1.9 -1.9 -1.9 -1.9 -1.9 -1.9 -1.9 10 21.9 33.1 53.6 68 79 96
139.1 139.7 140.9 141.4 143.2 144.5 146.2 146.1 145.4 144.2 145.5 144.4 143.3 141.3 139.3 133.3 129.2 132.2 129.9 132.2 132.1 124 138.3 139.2 138.7 141.3 142.3 151.3 155.9 156 157.2 159.6 155.2 152 152.5 147.2 140.1 151.1 158.4 164.8 169.2 173.3 174.5 176.9 181.4 183.8 185.5 188.1 189.6 188.5 189.8 191.4 194.8 192.2 194 196.5 203.1 215.9 223.9 234 245.2 254.3 271 279.2 280.8 283.8 288.2 293.3 297 304.1 315.5 325.9 342.2 358.4 379 396.3 411.1 419.8 428.2 431.8 440.1 449.8 453.6 456 462 466.9 477 481.7 489.8 506.4 517.8 532.6 552.1 562.1 570 576.8 584.6 593.4 597.7 599.6 601.8 599.5 597.8 599.5 597.6 598 603.7 609.8 615.3 623.4 641.7 649.8 657.1 657.6 659 668.7 668.8 671 685.7 696.7 709.4 715 720.8 712.4 712 710 707.4 697.1 686.3 682.6 675.6 665.4 653 640.9 627.9 605.7 579.1 554.5 537.6 530 520.8 508.9 496.4 486.3 477.3 466.7 456.4 447.1 434.4 417.5 402.2 387.4 372 356.1 341.4 328.2 311 291.8 289.2 281.8 270 255.9 241.1 227.6 212.4 194.5 176.2 153.6 135.8 117.2 98.7 80.8 62.7 47.5 39.1 28.4 12.8 -1.9 -1.9 -1.9 -1.9 -1.9 -1.9 -1.9 -1.9 -1.9 -1.9 -1.9 -1.9 -1.9 -1.9 -1.9 -1.9 22 24.9 42.2 55.7 76.6 85.9 100.5
143.6 144.4 148.2 147.1 146.5 147.4 149.3 150 150.9 150.3 150.9 153.1 151.2 150.4 147.1 142.4 137.2 140.3 139.8 139.2 138.5 127.8 136 139.7 142.5 144.9 146.4 151.5 159.5 161.6 162.9 161.5 159.9 161.8 158.5 154.1 147.4 138.8 146.5 151.1 157.2 160.3 165.8 172.9 178 179.4 186.7 190 187.8 182.8 182.1 185.8 187.6 186.8 189.3 193.9 209.3 214.4 220.1 228.5 239.5 247 258.1 268.4 277.3 284.3 294 296.6 295.4 307.5 312.1 320.9 336.1 350.1 367.6 386.7 404.6 415.2 422.3 425.9 434.6 436.3 440.1 445.5 451.3 457.7 465.7 471.2 479.4 498 512.9 532.1 543 559.4 565.8 575.9 580.6 584.9 585.3 587.4 587.2 587.7 596 596.9 593.5 596.4 602.8 609.6 620.8 635.2 642.8 647.1 647.5 649.3 656.5 670.3 681 684.5 698 705.2 709.6 712.6 708.7 705.3 701.4 691.9 689.1 682.4 671.9 666.5 660.6 645.2 632.5 622 610.3 594.6 572.2 557.2 546.8 536.9 523.8 509.9 498.6 486.2 476.8 463.1 449.1 436.9 421.9 408.9 395.5 382.3 365.8 351.3 335.9 316.7 316.5 313.4 304 286.9 271.2 255 238.9 220.7 204.4 184.7 165.4 145.3 133 114.8 97.6 80.9 63.6 51.4 42.2 26.9 2.1 -1.9 -1.9 -1.9 -1.9 -1.9 -1.9 -1.9 -1.9 -1.9 -1.9 -1.9 -1.9 -1.9 -1.9 -1.9 15 19.5 36.8 55.3 71.8 84.6 100.1 120.2
144.1 147.5 147.4 148.7 148.4 150.5 153.1 152.5 153.1 154.7 157.4 155.9 157 156 154.1 148.1 148.2 144.7 147.1 146.1 144.8 138.2 140.7 145 148.1 148.9 151.9 153.1 163.8 164.4 169.8 165.5 168.2 168.1 166.8 165 160.4 148.1 144.2 143.1 143.6 147.1 153.9 163.7 165.8 172.4 181.9 182.7 182.3 177.5 174.7 177.6 179.1 180.6 186.1 192.1 204.2 213.9 216.6 228.5 237.1 240.9 247.6 255.7 274.6 284.2 286.5 286.5 293.1 302.4 310.1 321.2 336.5 351.2 369.6 388.1 400.2 406.3 416.8 425.1 426.4 427 438.3 445.6 445.4 450.6 457.1 461.4 473.1 487.4 503.4 519.5 534.3 546.2 555.7 566.5 570.7 573.8 569.1 572.8 575.7 581.7 586 583.3 586.9 592.8 597.7 604.7 621.2 640.9 638.4 633.2 636.6 641 646.7 669 689.8 690.4 690.9 700.6 704.7 700.6 698.8 692.2 685.4 676.8 666 657.5 649.6 641.2 634.1 625.3 613.9 602.4 592.4 582.1 567.4 558.2 549.6 538.4 526 512.5 503 490.2 477.6 464.2 452.3 434.4 416.4 396.9 384.3 369.6 362.5 354.6 349.5 342.5 333.6 320.8 305 288.1 273.9 253.8 237.4 218.1 201 188.5 168 151.7 137.2 119 99.8 80.2 64.5 50 36.6 15.6 -1.9 -1.9 -1.9 -1.9 -1.9 -1.9 -1.9 -1.9 -1.9 -1.9 -1.9 -1.9 -1.9 -1.9 -1.9 -1.9 14.1 34.2 48.4 63.3 81.5 95.5 121.8 138.3
146.4 147.8 147.9 149.4 151.3 152.7 153.4 155.3 156.9 158.9 161.5 158.9 158.8 157.2 156.4 151.5 152.3 150.1 153 153.1 152.7 143.4 136.7 143 147.8 150.7 155 156.4 164.7 168.8 171.5 170.7 174.6 175.3 170.2 168.7 168.2 159.9 156 152.1 148 147 147.9 150.8 158.3 163.9 168.1 170.5 168.5 168.1 169.4 170.7 172.2 176 180.4 188.6 197.9 205.6 216 226.7 231.6 236.9 244.1 249.9 259.1 270 275.7 281.2 295.9 300.4 310.8 322.4 339.4 354.1 367.4 385.1 398.5 408.9 413.6 414.2 417.3 419.4 429.2 432.5 427.7 444.8 448.4 457.8 462.2 474.6 502.5 503.3 511.9 526.3 541.8 546.6 549 549.2 555.1 559.9 564 567.5 569.9 572.3 575.5 579.3 590.8 600.4 611.6 619.3 619.3 618.5 624.4 629.2 635.2 658.9 690.9 697.9 688.7 691.3 698.7 694.7 689 675.1 667.2 650.8 640.2 630 617.7 610.4 605 599.5 592 581.9 573.6 566.5 560.4 555 547.4 537.1 525.9 513.9 506 494.7 480 471.2 460.1 446 429.7 413.9 398.8 389.8 382 372 361.2 347.9 337.2 323.2 305.4 286.5 274.5 258.5 243.7 228.7 212.5 195.8 177.1 160.3 141.7 119.9 97.7 83.4 65.9 48.7 30.9 10.8 -1.9 -1.9 -1.9 -1.9 -1.9 -1.9 -1.9 -1.9 -1.9 -1.9 -1.9 -1.9 -1.9 -1.9 -1.9 14.9 26.1 31.2 46.1 64.9 89.8 108.1 134.6 154.7
146.7 148.2 148.6 149.3 151.7 152.9 153.7 156.5 157.8 161.5 162.4 160.7 161 159.1 157.1 156 155.2 155.3 155 156.8 151.9 150.1 138.8 139.6 149 159.7 157.7 157.6 162.2 169.6 170.8 173.5 177.2 180.9 176.8 176.2 170.1 169.3 164.6 158.4 153.6 147.9 151.3 153.3 153.5 153.9 155.9 158.1 159.3 161.1 163.5 164.4 167.2 171.8 176.9 185.8 194.1 201.2 211.7 216.3 225.8 234.4 241 242.5 247.2 256.9 269.5 281.6 287.6 296.9 307.2 327.3 339.3 354.2 367.2 375.4 386.3 398.6 400.6 396.6 398.7 402.4 408.6 412.3 418.1 427.6 435 443.5 448.5 456.8 470.3 476.7 486.8 499.3 513 522.1 523 532.8 541.7 547.8 553.2 556.8 556.2 561.9 562.6 570.2 584.5 594.3 601.9 605.2 605.9 607.8 613.1 624.6 631 644.1 673.1 689.5 683.8 684.1 680.9 676.7 670.4 658.4 643.6 626.2 613.7 607.3 594.8 583.9 577 570.6 566 559.8 554.8 551 550.7 547.8 543.4 533.5 522.1 511.5 505.3 495.3 483 475.6 466.3 459 446.9 435.2 420.5 407.7 396.9 382.2 370.7 361 347.3 334.3 321.7 305.8 283.7 265.1 248.8 234.6 220 202.9 183.8 163.5 140.8 121.2 100 83.8 65 46.6 26.6 4.1 -1.9 -1.9 -1.9 -1.9 -1.9 -1.9 -1.9 -1.9 -1.9 -1.9 -1.9 -1.9 -1.9 -1.9 -1.9 19.1 25.1 38.7 53.8 82.8 103.5 125 149.8 164.8
149.5 148.5 148.7 149.6 152 153.1 154.1 156.7 160.1 162.7 163.2 162.7 162.9 160.9 159.2 159.4 160.8 159.6 157.6 157.9 150.8 152.3 150.8 145.8 148.7 160.3 163.1 159.7 164 171.5 174.7 176 183.2 182.4 186.4 183.7 175.7 172.8 168.6 162.9 156.7 147.4 153.7 157.4 149.7 151.9 154.1 154.4 155.4 157.7 159.1 159.3 160.8 163.8 171.4 179.2 188.5 199.1 203 215.3 220.1 231.5 232.2 238.2 246.4 248.6 257.2 271.6 287.1 294.8 299.1 309.7 330.4 343.9 359.5 368.6 367 377.1 386.5 391.2 394.5 398.3 404 409.3 415.5 421.2 428.5 434.2 440.9 447.2 453.4 469.2 475 484.3 498.4 500.4 508 516.6 523.2 529 539.1 541.3 542.7 542.9 550.1 561 567.2 579.8 595.2 597.1 593.9 591.8 602 611.1 621.2 633.3 654.5 673.1 669 668 667.8 657.5 645 632.3 618.1 602.5 591.5 584.8 576.2 565.9 551.7 541.3 536.3 532.8 532.4 534.9 536.5 532.4 530.5 520.7 509.9 502.1 495.9 491.9 479.9 470.4 473.9 471.6 465.1 455.7 443.5 431.3 421 412.3 402.2 397 377.3 354.6 328.4 315.4 299.2 271 256 236 219 205.4 188.2 165.9 143 122.1 102.7 83.4 63.3 44.8 25.9 8.5 -1.9 -1.9 -1.9 -1.9 -1.9 -1.9 -1.9 -1.9 -1.9 -1.9 -1.9 -1.9 -1.9 -1.9 -1.9 10.6 22 44 66.9 97.9 114 141.1 158.8 178.8
