ncols 200
nrows 82
xllcorner 270000
yllcorner 725650
cellsize 50
444 439.7 436.3 437.6 430.8 421.6 410.7 403.1 397.9 391.8 387.8 383.8 378.3 372.6 366.9 362.8 356.9 351.7 349.7 349.7 349.7 349.7 349.7 349.7 349.7 349.7 349.7 349.7 349.7 349.7 349.7 349.7 349.7 349.7 349.7 349.7 349.7 349.7 349.7 349.7 349.7 349.7 356.7 373.7 388.6 402.2 412.8 424.3 448.7 468.7 465.6 467.8 466.4 463.6 451.3 466 469.9 481.8 490 496.9 504.8 513.2 520.2 526.2 531.4 534.7 540.8 545.9 551.2 556 561.1 565.9 570.3 573.7 578 583 588.7 593.9 598.6 602.1 603.6 601.9 599.8 594.7 587.3 579.5 575.2 573.2 573.9 576.7 577.1 572.1 566.8 561.7 557.3 549.6 535.8 524.1 511.5 497 480.3 468.6 459.2 452.4 447.2 450.8 453.3 456.5 459.7 468.8 484.7 499.7 509.1 522.3 537.9 554.4 571.6 592 610.1 634.6 653.8 670.5 688.3 707.5 719.9 720.4 721.1 724.3 734.2 746.6 761.4 774.1 784.4 796.7 807.6 818.6 824.9 825.5 823.1 821.3 818.6 817.4 817.6 818.5 819.2 821.3 821 819.7 818.5 815.3 812.6 809.3 806.5 800.6 792.5 778 761.1 743.6 719 697.4 682.8 672.1 662.1 656.6 651.2 642.1 633.2 624.4 609.7 601.5 598.6 594.9 589.1 584.1 580.1 579.4 574 568.5 541.5 517.9 505.5 488.4 472.9 457.5 442.4 430.6 422 415.8 402.1 387 379.6 375 374.8 378.7 378.4 382.3 385.3 396 403.1 409.6
451 453.4 449.9 449.6 445.4 440.8 431.4 418.7 411.2 406.1 401.8 395.2 390.2 383.9 377.1 372.2 367 362 358.1 352.8 349.7 349.7 349.7 349.7 349.7 349.7 349.7 349.7 349.7 349.7 349.7 349.7 349.7 349.7 349.7 349.7 349.7 349.7 349.7 349.7 349.7 349.7 349.7 352.7 369.8 383.4 396.3 407.5 423.1 434.7 444.3 449.1 444.2 439.2 435 449.7 462 473.5 480.4 489.1 497.4 503.9 510.7 516.5 522.2 527.3 531.9 536.9 542.5 547.4 553 558.3 562.5 566.6 571 576.8 582.8 588.3 594.2 599.5 602.5 601.9 597.8 592.6 586.3 580.6 570.7 564.6 564.3 563.8 563.1 561 557.8 550.2 538.5 532.1 520.6 510.8 500.8 489.3 475 465.7 457.6 452.7 447.5 449.6 453.8 454.8 459.3 470.1 485.3 498.7 508.3 521.7 536.1 552.4 571.7 589.5 608.8 632.2 649.6 666 680.8 692 697.7 698.9 701.6 710.2 722.9 736 750.7 763.4 774.4 784.7 795.6 806.4 811.7 812.1 811.6 808.7 806.3 807.5 809.2 811.6 812.9 815.2 817.1 816.9 816.6 814.9 812.7 810.2 807.8 803 796.2 787.4 772.9 752.2 727.8 707.9 690 679.6 669.6 661.2 657.4 655.9 646.9 631.3 613.8 606.6 603.7 600.7 596.5 589.2 589.2 589.9 585.2 581.7 555.5 533.8 516.9 498.5 478.3 460.5 447.3 437.8 429.3 422.2 410.5 393.3 383.3 378.3 368.1 373.2 370.5 379.3 379.8 383.6 394.4 398.6
460.1 464.3 471.2 463.7 455.2 449.5 446.2 436.5 424 420.2 414.7 410.8 403.7 397.9 392.1 385.4 377 372.1 368.1 363.2 358.1 349.7 349.7 349.7 349.7 349.7 349.7 349.7 349.7 349.7 349.7 349.7 349.7 349.7 349.7 349.7 349.7 349.7 349.7 349.7 349.7 349.7 349.7 349.7 349.7 364.2 380.4 393.7 406.6 418.4 421.7 427.2 430.6 428.6 425.8 440.6 453.3 463 473 482.9 492.6 498.5 503.9 510.5 514 519 523.7 528.2 533.5 538.1 544.1 550.1 555.2 559.1 563.7 571.2 577.8 584.3 590.3 595.6 599.2 600.8 599.1 594.9 588.5 580.9 570.1 554.5 554 552.6 550 546.6 545 541.2 525.2 516.9 507.6 500.3 492.2 482 472.1 462.8 456.1 450.9 446 446.8 452 454.1 460.5 469.7 479.8 497.2 506.3 518.7 533.1 552.8 573.3 587.3 605 625.3 640.8 654.4 666.5 672.5 673.7 678.8 686.4 698.1 712 724.1 736.9 751.3 761.7 772.5 781.8 789.6 795.7 795.9 796 796 796.4 797.2 801.2 804.9 808.8 811.8 814.7 816.3 816.3 815.3 814.3 812.9 810.5 805.5 799.2 790.9 778.2 755.7 737 712.4 695.5 685.6 677.1 673.8 671.8 665.8 653.6 636.4 625.9 615.2 612.2 607.3 600.1 598.9 597.2 598.5 596.5 594.3 568.9 549.5 537 511.8 488.3 468.7 455.3 445.1 434.2 425.6 415.7 406.6 393.2 380.2 373 363.5 365.5 366.8 371.1 373.6 383.2 389.5
470.9 477.2 480.9 475.1 465.4 454.5 448.7 443.3 438 431.2 428.9 425 419.1 413.2 405.6 397.5 389.7 382.6 378.3 372.2 367 361.1 351.9 349.7 349.7 349.7 349.7 349.7 349.7 349.7 349.7 349.7 349.7 349.7 349.7 349.7 349.7 349.7 349.7 349.7 349.7 349.7 349.7 349.7 349.7 349.7 361.4 377.2 390.9 399.3 406.1 412.4 418.5 416.7 418.5 427 442.5 454.1 463.8 473.8 485.5 492.3 496.1 501.6 507 510 514.9 519.9 524.8 529.5 535.2 542.2 548.7 554.2 558.3 565.4 573.7 579.8 585.4 590.4 596 600.4 602 599 592 581.6 565.7 550.8 541.7 537.7 533 532.4 530.7 527.1 514.2 506.4 496.9 490.7 483.8 475.2 467.6 458.9 453.8 450 446.2 442.9 450.2 455.6 462.2 468.5 476 489.6 502.9 514.3 533 554.8 571.7 584.6 597 614.4 627.8 642.8 652.3 653.4 653.1 660.8 672.7 683.6 698.8 711.8 723.1 736.1 748.1 758.9 765.3 772.2 779.1 783.1 783.9 784.5 786 789.5 795.3 801.2 805.6 809.8 813.9 815.9 817 817.1 816.3 815.5 812.3 807.3 801.6 793.6 781.4 758.7 738.6 719.1 705.3 694.7 689.4 685.8 682.7 675.2 664.8 649 637.5 626.6 620.2 613.6 610.3 608.7 607.8 608.6 608.6 600 587.3 569.6 553.7 524 500 479 465.6 453.7 442.8 433.2 424.3 411.7 393.2 382.4 373.4 368.2 361.9 361.3 366.2 366.7 369.2 381.2
481.5 488.2 484.6 482.4 474.2 461.1 457.1 451.6 447.3 443.9 437.2 436.4 433.8 428.3 420.9 409.4 402 394.8 389.4 382.7 376.7 371.4 364.7 360 351.7 349.7 349.7 349.7 349.7 349.7 349.7 349.7 349.7 349.7 349.7 349.7 349.7 349.7 349.7 349.7 349.7 349.7 349.7 349.7 349.7 349.7 349.7 358.1 373.8 383.9 392 398.3 402.9 406.5 406.8 418.7 432.6 445.3 454.8 465.1 476.5 484.6 490.3 495 498.3 501.3 505.2 510.4 515.4 520.8 525.8 532.9 542 549.7 554.1 561.9 569.4 576.2 582.6 588.4 599 604.3 608.9 606.2 597.9 583.6 561.3 545 527.4 523.9 522.4 519.7 517.4 512.9 502.2 495.3 489.8 481.8 474.7 469.6 463.3 456.1 452 450 447.6 441.4 447.3 455.5 461.8 467.4 475 485.1 496.7 511 529.5 550.3 564.8 577.3 589.6 602.3 614.7 624.1 629.6 631.6 637.3 646.2 657.3 669.8 684.1 697.4 709.4 718.6 728.7 741.2 751.3 758.1 764.1 768.3 771.9 775.6 779.3 785 791.5 798.9 804.4 809.1 813.6 816.4 818.4 818.8 818.1 816.9 813.6 808.7 802.8 795.8 785.9 772.4 749.3 731.1 717.9 705.8 702.3 700 695.3 686.2 671.3 660.8 647.1 634.6 627.2 624.1 618.3 618.8 619.9 620.9 622 614.6 605.6 591.8 566.5 537.9 511.2 491.7 477.2 463.2 450.5 440.6 429.3 419.7 408.2 391.4 382.8 373.3 366.1 358.6 357 358.6 364.6 371.8
488.9 491 489.2 488.2 479 471 468.2 466.1 464.4 459 454.2 445.3 442 441.3 436.5 428.4 417.8 408.4 401.4 395.6 388.3 382.4 376 369.8 361.8 353.8 349.7 349.7 349.7 349.7 349.7 349.7 349.7 349.7 349.7 349.7 349.7 349.7 349.7 349.7 349.7 349.7 349.7 349.7 349.7 349.7 349.7 349.7 352.4 368.6 379.3 385.9 390.8 393.4 397.8 411.2 424.5 437.1 447.8 456 467.8 478.3 486.2 487.5 490.1 493.2 496.2 498.9 505.3 511 517.4 524.1 532.8 540.2 547.6 556.5 565.5 572.6 578.8 589.5 604.4 610.3 607.8 607.4 603 590.5 564.2 536.1 520 510 507.7 505.7 501.3 496.4 491.1 487.8 483 474.5 468.4 465 459.5 453.2 448.2 446.6 448.7 445.6 439.3 452.2 458.6 467.2 476.7 484.8 495.1 513.7 527.9 539 555.6 570.4 583.2 591.1 597.5 601.3 605.7 611.4 619.4 629.2 641.2 655.8 668.8 681.5 693.1 702.7 712.4 723.2 733.3 743.5 750.3 757.7 764.4 770.3 776.6 783.3 791.6 799.2 804.4 809.5 814.2 816.9 818.6 818.2 818.2 816.9 813.8 809.3 803.5 796.7 788.3 779.2 766.9 744.2 728.4 717.8 717.3 715.2 709 697.3 681.6 665.6 652.6 641.4 638.5 633.9 629.2 629.9 633.4 634.9 634.1 628.6 627.7 613.5 581.6 550.4 524.7 504.5 487.6 471.6 458.7 449.7 440 427 415.2 397.5 389 382.7 372.7 360.6 357 357 359.8 364.6
492.7 493.4 493.1 491.1 485.4 483.9 480.8 476.8 475.2 472.6 465.8 461.4 453.2 447.7 445.5 439.6 432.9 420.6 413 406.8 400.7 392.4 387.8 379.8 372.9 367.1 359.6 349.7 349.7 349.7 349.7 349.7 349.7 349.7 349.7 349.7 349.7 349.7 349.7 349.7 349.7 349.7 349.7 349.7 349.7 349.7 349.7 349.7 349.7 354 364.4 372.2 379.1 385 395.6 404.6 416.9 429.5 440.2 450.2 468.7 480.7 486.4 481.5 481.5 485 488.3 491.8 496.3 501.6 508 515.3 522.2 529.4 538.4 550 560.1 567.2 574.8 593.8 605.5 604.8 602.5 591.5 581.5 569.8 544.6 526.7 510.6 497.6 493.3 488.9 485.4 483.3 483 479.8 475 468 463.5 459.9 454.7 449.2 445.2 442 438.2 434.9 441 451 459.7 468.8 477.4 484.1 499.4 509 521.5 530.6 543.4 558.9 570.4 575.9 580.1 587 593.9 596.4 607.5 618.5 628.5 642.4 654.3 665.7 679 691.2 700.3 710.4 720.9 730.3 738.9 745.8 756.3 767.2 776.9 785.9 794.3 799.8 805 810.2 814.8 815.7 816.6 816.3 816 814.4 811.8 807.9 802.3 796.2 790.3 784.5 776.5 764.6 747.6 739.1 737.7 733.5 723 706.3 689.1 674 659.3 650.5 648.7 643 640.5 640.4 646.5 650.2 646.6 649.8 647 634.7 604.8 568.7 540.2 520.2 505.3 484.7 471.7 461.3 448.3 435.6 417.3 409.9 401.3 393.1 382.9 368.9 357 357 357 357
494 497.8 500.3 497.1 492.9 495.2 497.6 489.3 485.1 481 476.6 472 466 459.4 451.9 448 443.6 434.2 424.2 419.8 413.3 402.5 397.7 388.8 384.1 378.6 371.7 362.8 350.9 349.7 349.7 349.7 349.7 349.7 349.7 349.7 349.7 349.7 349.7 349.7 349.7 349.7 349.7 349.7 349.7 349.7 349.7 349.7 349.7 349.7 349.7 358.9 366.7 379.5 394.5 399.3 406.8 416.5 427.8 442.8 465.9 474.9 477.2 470 472.1 476.9 480.7 484.8 486.9 491.3 498.5 506 512.5 521.9 536.4 550.1 558.5 565.5 572.5 583 593.4 598.9 583.6 566.6 546.4 532.3 522.9 511.3 500.3 487.1 477.3 476 475 472.7 473.4 471 467 462.2 458.8 453.9 449.1 444.3 439.4 431 429.9 436.2 445.4 451.9 460.6 468.3 475.2 485.7 495.6 506.1 512.9 521.5 532.9 544.5 555.5 560.9 566.4 573.9 579.8 591.8 602.3 612.7 621.4 630.9 640.8 651.3 661.9 678.6 690.2 697.7 708.5 719.9 727.8 740.2 754 768.4 781.2 790.9 796.7 800.4 805.1 809.2 812.3 813.8 814.3 814.3 814.4 813.2 810.3 806.4 801.8 796.6 792.4 788.2 783.2 776.5 768 760 756 749.8 740.1 722.5 702.6 685.1 669 662.3 658.1 653.9 651.8 653.4 663.1 662.6 661 661.7 656 645.3 621.6 589.8 562.5 548.1 533.7 499.2 480.4 467.9 450.8 437.3 428.3 417.5 404.4 392.3 375.8 366.2 357 357 357 357
496 500.3 502.2 500.4 497.3 498.4 502 498.7 493.6 492.5 488.1 481.2 476.6 470 463.9 459.1 450.5 441.9 434.2 428.9 421.9 413.6 403.6 399.5 394.8 388.9 383 375.9 368.2 360.1 351.5 349.7 349.7 349.7 349.7 349.7 349.7 349.7 349.7 349.7 349.7 349.7 349.7 349.7 349.7 349.7 349.7 349.7 349.7 349.7 349.7 349.7 354.8 371.8 385.3 393.3 399.3 407.7 417.9 429.8 448.7 449.1 451.7 458.4 461.8 468.9 472.3 476.7 478.3 480.5 487.1 497.2 503.3 515.9 532.4 548.4 557.9 568.6 575.4 581.8 590 582.4 558.6 534.5 521 514.9 507.7 499.3 488.5 477.5 463.6 462.2 464.2 462.8 463.1 461.5 459 456.7 454.1 446.7 436.5 433.3 424.8 432.7 433.5 443.7 447.7 454.1 462.5 469 476.1 483.7 491.3 498 505.6 514.8 525.7 536.4 544.1 548.4 556 567.5 577.9 586.8 596.9 606.2 613.7 621.8 631.3 644 655.7 666.7 678.9 690 702.7 716.4 728.9 741.5 756.6 771.2 784.5 793.4 797.7 799.7 803.1 806.5 808.7 811.2 812.8 813 813.1 812 808.9 804.9 800.2 796.9 794 790.9 787.3 783.4 778.6 773.4 768.2 761.8 752.5 738.8 720.4 695.9 677.9 673 668 665.3 667.3 674.6 676.6 673.9 673.9 669 659.7 649.8 634.6 609.1 585.6 577 550 513.8 496.2 479.2 464.9 448.1 431.3 420.5 409 395.7 381.1 369.1 357 357 357 357
499.5 502.9 503.2 503 499.8 500.3 505 508.2 505.8 500.5 496.2 493.4 486.9 482.4 475.1 470.6 461.6 448.7 440.6 434.8 426.4 422.3 413.3 409.9 405.1 399.1 393.6 389 382.8 373.6 363.8 354.8 349.9 349.7 349.7 349.7 349.7 349.7 349.7 349.7 349.7 349.7 349.7 349.7 349.7 349.7 349.7 349.7 349.7 349.7 349.7 349.7 349.7 359.4 372.9 381.7 392.7 401.5 410.4 419.3 428.9 436 442.2 448 453.1 458.5 464.2 469.4 471.4 474.3 478.9 486.5 493.9 509.6 525.5 542 557 571 581.7 576.2 572.4 562.5 528.8 514.4 507.8 501.7 494.5 486.9 476.2 466.9 458.9 447.2 452.1 452.3 451.6 451.7 451.2 450.5 447.1 440.7 419.6 420.5 440.8 443.6 441.8 444 448 456.6 463.5 469.4 476.7 484.6 490.6 496.7 503.7 513.4 522 531.4 538 545.4 552.5 561.8 571.6 584.4 595 604.4 615.2 624.7 634.7 644.2 654.2 670.6 683.2 694.8 708.7 721.7 734.1 747.9 761.3 775.1 785.2 793.5 797.2 798.1 799.4 801.8 805.2 809.3 810.2 812.4 811.9 810.8 807.1 802.6 799.3 795.8 794.4 792.3 790 786.7 784.3 781.3 777.6 770.6 761.1 751.3 736.7 713.9 687 682.9 680.2 684 689.3 690 688 685.7 681.5 672.2 660.9 652.8 640 618.8 598.8 585.6 551.8 522.4 506.4 499.3 482.8 459.9 434.3 423.6 411.8 398.5 383.7 368.3 357 357 357 357
501.4 504.4 504.2 503.8 503.2 505.1 511.1 515.8 513.8 510 506.3 501.5 496.2 489.6 486.1 474.9 467.5 460.7 441.6 438.5 437.2 434.5 425.3 417 412.4 407.7 403.9 404 400.7 391.2 381.4 366.6 358.3 356.4 352.1 349.7 349.7 349.7 349.7 349.7 349.7 349.7 349.7 349.7 349.7 349.7 349.7 349.7 349.7 349.7 349.7 349.7 349.7 349.7 358.2 372.7 385.9 396.4 404.7 410.6 418.1 427.1 436.1 442.7 450.1 457 461.8 466.7 469.9 470.2 472.8 478 487.6 500.1 518.2 539.3 552.5 569.1 570 558.1 549.6 529.3 511.9 502.6 495.9 488.6 481.4 475.2 464 460.2 448.8 436.8 441.6 441.6 441.6 442.4 441.8 442.4 439.8 426.9 410.5 431.3 444 443.8 444.7 445.9 447.7 454.4 463 470.6 477.2 483.8 490.9 497.9 506.5 514.9 520.2 526.1 532.4 541.6 550 559.5 572.2 588.1 601 611.2 620.6 631.3 641.7 652.6 663.5 675.9 690.9 705 719.4 732.3 743.9 756.4 765.9 776.1 786.1 792.8 794.4 793 794.4 797.4 801.7 804.3 805.6 809.1 810.7 809.1 805.3 800 796.8 795 793.6 791.9 791.2 790.2 788.3 786 782.8 777 767.4 757 745.2 727.5 703 698.9 697.8 702.4 703.7 701.9 698.4 696.3 687.8 674.7 661 653.1 639.7 618.2 604.4 585.4 558.2 540 533.4 521.9 504.3 471.5 446.5 432.7 417.5 401.8 388.9 374.8 362.1 357 357 357
501.3 501.5 502 502.1 507.3 511.9 515.4 519.7 521 517.7 512.9 508.7 506.2 500 493 483.8 477.5 475.4 461.3 442.3 444.6 444 434.4 424.8 420.4 417.2 414.5 416.8 413 408.6 400.9 391.3 369.8 364.1 360.6 357.3 355.8 354.8 349.7 349.7 349.7 349.7 349.7 349.7 349.7 349.7 349.7 349.7 349.7 349.7 349.7 349.7 349.7 349.7 349.7 363.2 379.7 393.2 402.1 406.1 415.5 426.2 436.1 446 457.4 462 467 469.3 470.7 467.9 465.2 471.1 480.5 498.9 518.1 533.5 539.3 546.3 551.6 534.7 523.2 502.1 495.4 489.4 481.4 475.3 470.5 463.1 453.5 449.5 439.7 428.8 430.6 431.3 432.3 433.2 433.7 428.6 419.6 407.5 414.5 436.2 443.3 444 445.5 447.2 451.6 457.5 464.7 472.8 477.5 483.7 489.3 496.4 503.1 509.3 514.4 520.8 529.8 539.2 551.1 561.6 573.9 590.6 605.4 617.1 628.2 639.2 651 661.8 671.6 683.4 702.5 720.1 735.6 746.5 751.9 758.2 765.7 776.8 787.9 792.1 789.6 787.9 789.1 789.3 792.7 795.3 798.8 803.8 807.7 807.1 802.8 797.2 794.5 792.9 791.8 790.7 790.3 791.3 791.5 789.2 784.1 778.4 770 759.4 746.9 732.5 718.1 713.4 712.4 713.3 713.9 710.7 707.1 703.3 694.3 681.6 664.9 652.1 638.8 623.8 612.8 598.5 575.9 559 557.3 545.3 523.3 488.8 459.6 444.1 427.4 407.7 393.7 380.4 364.7 357 357 357
505.8 500.7 500.7 502.9 509.6 513.6 518.8 519.7 521.3 520.8 517.2 513.8 512.9 508 503.8 493.1 488.8 477.4 467.8 453.1 444.7 444 442.9 433.7 428.8 429.8 425.1 423.2 421.2 420.6 415.4 407.7 387.8 377.5 370.4 366.3 363.9 361.4 359.6 355.9 349.9 349.7 349.7 349.7 349.7 349.7 349.7 349.7 349.7 349.7 349.7 349.7 349.7 349.7 349.7 358 375.9 390 397.8 399.7 413.9 427.4 438.6 451.7 462.2 469.6 469.1 471.4 472.4 466.5 458.1 462.6 473.3 496.8 513.8 520.7 525.2 527.5 529.3 514.1 495.4 486.5 480.4 474.6 466.5 462.2 460 452.1 441.5 434 428.9 421.7 419.2 421.9 424.1 425.3 415.3 399.2 394.9 407.3 428.8 441 442.1 443.5 446.1 448.8 453.2 458.9 465.8 472 477.4 482.8 488.2 493 500.5 506.1 511 518.6 527.6 536.9 551.6 565.9 575 594.2 608.5 621.1 632.8 644.8 654.5 665.3 676.3 685.9 703.5 719.6 732.4 740.5 748.4 755.3 765 776 785.5 789.1 785.3 779.9 777.6 777.5 778.8 784.2 789.5 794.9 801.3 801.2 796.9 792.5 791.3 789.6 787.6 787.7 788.2 789.7 790.1 787.4 782.8 776.7 769.1 759.5 748.4 736 727 722.9 721.7 721.6 720.2 717.7 714.6 709.4 699.1 687.1 674.4 657.8 642.9 631.4 620.1 605.3 588.8 586.2 588.2 572.9 542.8 499.9 469.9 452.4 438.3 415.1 394.5 379 361.9 357 357 357
508.3 500.4 500.7 504.1 512.1 515.8 521.2 520.5 520.5 521.3 521.4 519.7 519.5 512.6 502.5 497.2 493.2 483.2 467.7 457.7 445.3 441.8 438.2 432.9 434.5 439.4 433.7 427.8 426.5 430.1 428.1 420.2 402.2 390.4 383 375.4 371.7 368.4 366.6 364.7 362.1 359.6 357.5 353.2 349.7 349.7 349.7 349.7 349.7 349.7 349.7 349.7 349.7 349.7 349.7 349.7 366.8 377.9 386.4 393.1 411.4 429 441.3 456.2 463.6 474.1 466.7 465.9 460.2 455.5 450.5 456.8 470.1 493.9 503.5 508.4 508.6 509 506.1 493.7 480.3 474.1 467.2 460.6 453.3 452.4 448.5 440.5 429.3 421.6 418.1 413 407.2 411.7 414.2 406.7 389.3 388.7 399.7 413.9 429.3 434.6 438.2 442.1 446.3 450.3 454.5 459.7 464.8 469 473.9 480.2 487.3 496.5 502.9 504.7 509.4 518 528.6 539 550.4 564.9 574.6 588.3 604 622.2 635.9 647.2 657.8 668.3 674.7 683.1 697.4 711.3 723.5 733.7 743.6 752.4 762.5 773.1 777.5 774.4 768.7 763.9 764.3 763.5 766.5 770.8 776.9 781.9 786 785.5 783.8 784.9 786.8 785.6 782.8 781.2 782.7 784.9 784.5 780.5 776.6 771.2 765.7 758.5 749.7 739.3 732.4 729.2 727.8 726.5 724.9 723.2 720.2 713.5 703.9 693.7 685 669.5 656.1 645.9 634.7 618.3 610.4 613.8 618 601.2 562 506.1 480.6 460.9 444.7 418.8 393.8 374.2 357 357 357 357
509.9 509.1 500.7 508.2 512.4 515.7 520.5 521.1 517.7 519.8 520.9 521.7 519.8 515.3 505.9 496.7 492.7 485.4 472.6 460.1 444 432 432 430.9 436.7 444.7 441.9 436.5 432.7 438.9 432.9 416.8 409.5 400.2 392.2 384.9 379.2 375 374.4 371.7 369.5 369.1 366.9 365.7 364 361 359 354.8 351.9 349.7 349.7 349.7 349.7 349.7 349.7 349.7 359.6 369.3 377.3 387.7 409 432.5 449 463.8 469.5 474.1 466.6 456.8 451.2 446.5 445 452.1 469.3 488.1 491.8 492.2 491.1 489.8 484.8 470.3 463.1 460.2 455.5 449 442.9 439.9 436.6 428.3 421.8 415.3 410.5 403.6 397.6 401.3 398.7 377.5 379.7 390 405.6 413.7 417.2 427.1 436.7 437.7 443.1 450.4 455.1 456.9 463.1 469.9 475.3 479.6 486.8 499 498.8 502.4 507.4 513.4 522.4 535.2 547.9 559.8 570.3 582.1 594 614.9 635.7 646 655 664.4 671.1 679.6 687.6 698.4 713.6 722.4 731.6 743.6 752.5 760.3 762.2 756.7 751.1 746.8 744 746 751.6 758.1 763.7 764.7 767 768.4 771.4 775.4 778 777.8 775.7 773.9 774.3 775.4 774.6 771.3 768 764.6 760.9 756.2 749.6 740.8 734.6 731.7 729.3 728.2 727.5 726.9 723.9 716.7 708.8 700.6 692.3 681.6 669.9 661.6 654.3 648.1 641.5 641.9 642.6 615.5 557.3 514.1 489.8 473.9 451.7 419.8 393.2 370.2 357 357 357 357
506.8 502.9 504.8 506.3 507 511.5 512.7 514.7 514.3 508.6 513.4 515.9 513.6 511.6 498.2 487.7 484.8 475.8 456.7 440.8 428.4 418.3 419.9 430.1 439.2 448.5 449.8 443.1 438.5 439.4 434.6 418.4 413.4 407.6 399.4 391.3 384.9 381 379.1 377 375.5 375.1 373.8 375.1 375.3 373.6 373.5 372.4 369.9 366.2 353.7 349.7 349.7 349.7 349.7 349.7 349.7 359.4 370.7 384.6 401 430.7 448.2 465.2 471.7 480.7 463.7 453.6 450.8 442.8 437.3 444.8 463.1 478.2 475.8 473.6 471.5 470.4 459.6 450.5 445.7 445.5 443.3 439.8 435.3 431.9 425.3 419.2 414.6 409.2 402.4 396 390 391.5 379.7 373.4 384 399.7 413.2 424.5 428.8 436.4 441.3 446.1 449.3 448.6 452.3 458.1 462.1 469.3 475.8 479.3 486.4 492.8 493.6 499.2 506.6 512.4 520.3 530.5 541.6 552.2 562.3 571.3 584.7 599.3 617 633.9 642.9 650.6 660 666.1 671.2 682.5 693.7 706.7 715.4 722.2 731.5 745.4 751 746.3 738.5 729.1 723.8 723.4 729.4 739.9 745.8 747.1 748.7 750.8 754.6 759.8 764.3 765.5 765.9 764.6 763.7 763.2 762.9 761.7 759.7 757.9 755.4 751.5 746.8 739.1 733.9 731.1 729.7 728.1 728 728.3 726.1 719.1 713.1 706.4 698.9 691.3 684.2 675.2 671.3 668.8 663.6 658.6 656.2 628.1 566.5 519.2 499.2 482.3 456.9 418 390.5 370.4 357 357 357 357
497.4 498.6 499.7 500.4 500.8 499.6 502.2 502 500.2 497.3 496.1 501.5 505.1 500.4 491.3 486.8 466.7 449.7 435.7 425.5 417.4 404.4 411.9 422.4 433.7 440.1 442.8 442.9 437.4 434.6 426.1 418.6 413.7 409.9 404.2 397.2 390 385.6 382.5 380.9 379.3 380.2 381.2 380.7 380.6 380.7 382.4 383.8 382 380.9 370.3 349.7 349.7 349.7 349.7 349.7 344.7 355.3 363.7 378.2 393.1 424.4 442.9 462.4 473.4 481.5 467.5 456.8 449.8 439.9 433.2 440.2 457.3 462.9 457.3 455 453.3 445.3 437.6 429.9 431.3 432.4 432.1 429.9 428 423.9 416.7 410.6 407.8 404.6 396.3 390.3 381.7 381.6 367.7 371.7 384.2 398.1 413 419.4 430.6 438 442.1 447.3 450.6 453.3 457 461 462 468.3 474.1 476.4 479 483.1 490.8 496.6 503.4 510.7 515.1 526.3 534.1 545.3 550.8 560.8 573.7 588.9 603.4 620.4 627 631 636.9 641.8 650.7 655.8 671.9 691.9 702 704.1 710.5 725.7 735.6 732.6 724.4 715.8 709.8 708.3 709.7 717.1 723.2 726.4 728.6 731.8 734.8 742.9 749.2 754.2 755.4 754 751.4 751.4 751.7 751.1 750 748 746.5 742.7 738 733.4 730.2 728.1 726.7 725.3 724.1 725.3 723.6 721 716.8 711.7 706.8 701.5 696.2 688.3 683 679.8 677.2 673.2 665.4 629.9 579 534.2 515 494.7 464.9 414.6 385.1 370 357 357 357 357
493.4 494.3 494.8 496.8 500.1 500.8 498.2 497.6 494.9 490.6 488.2 491.1 491.2 487.3 479.6 480.8 451.1 435.9 421.9 412.9 404.8 391.3 396.5 405.4 412.4 417.5 426 430.4 431.2 426.1 416.9 416 413.9 408.5 405.3 397.5 394.7 390 384.9 384.1 381.7 382.2 384 384.8 385.2 387 390.9 391.7 394.1 393.3 374 349.7 349.7 349.7 338.3 324.1 333.1 349.1 357.8 367.4 386.2 419.6 442.4 452.9 470.3 471 467.7 454.5 443.2 432.6 428.3 437.9 448 442.6 442.9 439.2 432.7 428.1 422.5 418.1 419.8 420.5 421.2 420.2 419 414.5 409.1 403.6 396.9 392.2 387.1 384.5 374.7 366.2 364.4 373 381.7 394 406.9 419.6 432.4 438 443.4 448.4 451.2 454 458.6 462.3 463.3 467.5 470.9 472.3 475.3 480.5 486.2 490.4 494.6 503.9 512.3 523.4 530.9 539.2 541.5 551.7 561.8 578.3 590.6 598 603.6 609.9 612 620.4 628.9 637.3 655.1 670.1 679.5 684.8 688.4 701.2 708.7 712.2 706.6 698.9 696.2 692.4 692.7 698.9 704.8 709.1 712.8 716 721.2 729.3 737.8 742.3 744.9 745.2 741.8 739 739.3 737 735.4 734.8 733.8 731.6 728.4 724.4 722.6 722.3 721.3 720.3 720.3 721.5 721.9 720.4 718.1 717.3 714.2 709.5 703.2 696.6 691.2 688.1 687.2 685.6 675.8 641.3 588.3 558.2 532.5 506.6 457.4 403.6 383.2 368.9 357 357 357 357
489.8 490 492.2 493.7 496.1 500.5 499.2 487.9 485.2 482.5 479.3 479.5 472.7 464 463 456.7 429.2 423.4 412.2 399.7 389.9 387.3 379.4 381.8 386.6 397.6 411.3 413.8 415.4 416.7 409.4 409.1 411.1 406.1 401.9 393.5 392.1 390.4 383.7 381.8 381.3 382.8 385.9 387.6 389.8 393.3 398.6 407 403.6 397.3 383.4 367 349.7 326.3 321.1 319.5 328.3 339.6 349.7 358 380.8 406.7 427.2 436.7 449.4 458.7 465.5 451.8 435.9 427.2 423.2 435.8 433.3 429.3 426.9 423.9 416.9 416.6 410.1 407 408.9 410 410.7 412.8 410.4 406.4 401.3 395.7 389 381.4 376.7 373.9 369 358.7 361.8 375.5 388.1 398.3 410.4 421.7 431 437.4 444.5 448.5 452.1 454.6 460.2 463 464.3 469.1 472.8 476.6 481.8 486.3 487.2 491.1 497.1 501.6 510 518.8 526.5 532.1 535.3 546.1 551 555 568.3 578.6 586.3 592.9 600.8 611.7 619.1 623.5 637.1 649 655.3 660.3 670.6 673.9 680.6 679.4 681.2 680.9 676.6 673 676.8 684 690.5 696 701.8 707.6 714.3 721.9 729.7 737.1 741.9 743.7 739 731.9 727.3 723.5 719.5 720 720.6 719 716.3 713.2 712.4 713.7 714.2 714.6 715.5 717.3 718.8 719.1 718.1 718.1 715.3 713.7 707.6 701 695.7 692.6 695.7 695.5 687.5 645.2 602.1 567.1 536.1 497.1 441.7 408.7 389.3 373.8 357 357 357 357
488.4 487.4 488.1 489.1 488.8 491.5 492.9 487.4 478.4 471.2 463.7 455.1 447.6 447.9 449.1 432.2 411.6 407.9 403 390.5 379.1 373.8 371.1 365.8 368.3 375.9 382.9 387.3 386.7 385.6 385.9 386.6 386.5 385 386.4 384.3 382.7 387.2 382.3 375.5 374.8 378 387.2 388.5 392.6 397.6 408.8 412.9 408.5 397.2 391.5 366.8 352.7 330.3 323.1 319.3 322.2 329.3 339.8 350.2 373.5 390.9 401 418.4 426.5 443.9 446.8 441.1 430.4 417.5 418.2 433.6 426.2 419.2 413.3 411.5 405.4 406.4 396.2 396.2 399 400.2 402.5 404.8 402.2 399.7 393.1 384.4 378.6 371.1 367 366.3 360.3 353.3 363.3 381.5 389.4 398.3 410.1 420.2 430.6 436 444.3 448.5 452.1 455.5 459.5 461.8 463.7 468.9 474.1 477.3 481.4 488.9 495.4 503.1 507.2 512.4 516.7 521.6 526.7 529.5 534.8 541.3 547.2 550.8 561.6 569.7 577.7 588.5 598.9 605.2 613 621.1 628 636.9 642 645.3 655.1 656.2 656.3 655.1 656.9 651.8 650.8 652.6 662.9 671.6 679.6 685.8 692.7 700.6 708 717.4 728.5 738 744.7 749 747.6 740.2 730.7 722.3 712.5 706.6 705.6 705.2 703.4 702.1 702 704.2 706.3 707.7 709.7 711.2 713.3 714.7 715.6 715.2 713.9 712.2 707.4 700.6 695 693.8 699.6 698.8 690.9 658.7 617.3 573.1 533.8 488.8 444.5 417.3 397.4 377.6 362.3 357 357 357
489.3 487.7 485.2 483.9 484.7 485.7 484.8 484.1 473.4 461 453.2 446.2 435.4 431 424.2 406.3 394.6 392.8 390.7 387.2 371.8 363.4 360.3 355.7 350.9 354.8 359.6 365.7 366.9 361.2 356.9 356.8 362.1 362.7 362.4 362.9 361.6 366.7 366.2 366.8 362.7 362.5 366 373.4 384.2 390.3 402.6 392 387.9 378.7 385.6 358.9 346 331.7 326.3 322.7 317 322.7 333.2 342.3 360.4 380.2 392.4 410 428.5 430.1 425.8 429.2 419.8 408.2 411.2 425 417.5 408 401.7 403.3 394.9 390.3 386.3 389.1 391.9 394 396.2 396.5 392.9 391.8 384.4 376.1 368.5 361.2 358.5 357.8 351.2 354.9 370.2 381.1 385.9 396.6 406.8 416.4 427.4 436 442.6 446.4 451.6 456.1 459.2 461.4 463.5 468.2 475.1 479 482.7 488.3 498.8 507.5 512.4 516.3 520.4 523.5 528.6 534.2 540.6 545.7 550.4 558.6 568.4 579.3 587.9 598.1 607.2 609.9 620.6 623.9 623.8 626.5 626.2 629.1 638.1 637 633.1 635 634.5 635.1 637.2 640.5 648.8 660.3 668.5 676.7 684.9 694.7 705 718.8 731.2 740.5 749 752.6 752.6 748.4 740.1 726.7 714.8 703.7 696.7 695.3 694.2 693.1 692.1 693.1 697.2 700.4 703.3 705.2 705.8 708.2 709.4 709.6 707.9 705.1 700.8 694.6 688.1 692.7 695.5 695.1 690.3 658.9 620.5 570.8 517.3 477.4 449.3 427.3 409.3 388 368.2 361.6 357 357
489.1 486.9 483.9 481.5 480.4 479.2 473.8 471.3 464 452.7 445.4 436.1 425.1 415.9 405.2 395.9 385.7 381.5 377.7 371 360.2 351.2 348.2 345.8 339.6 334.9 337.6 340.9 339.9 340.4 341.5 339.3 345.2 342.1 340.9 338.6 341.5 340.4 339.3 339.6 342.1 343.3 345.4 347.3 345.4 344.6 355.4 351.3 348.5 353.7 363.7 348.7 336.7 326.8 322 321.4 315.7 317.2 325.2 332.8 347.2 367.5 390.5 406.3 418.6 414.4 429.3 420.4 413.6 401.3 401.8 407.5 407.2 395.9 390.8 390.6 380.8 376.7 378.8 383.8 386.5 388 388.1 387.4 385.3 382.6 376.4 370.3 361.3 353.9 352.7 350.5 345.4 358.5 369.4 375.3 384.6 395.5 405 415 424.9 431.8 437.7 445.1 450.9 456.1 458.8 462.5 464.5 469.8 474.4 479.8 483.8 488.6 498.9 504.5 506.5 515.5 520.3 526.4 533 536.7 543.2 548.4 555.4 563.7 574.2 582.6 591.8 600.6 611 613 624.8 631.4 633.3 622.8 622.8 626.6 627.5 624.2 625.1 627.8 631.5 635.5 633.3 634.5 639.9 650.7 659.7 668.8 681.8 693.5 706.9 721.3 733.1 741.7 749.3 754.5 756.2 752.9 745.3 732.4 717.8 704.2 694.7 688.8 686.9 685.7 684.9 685.5 688.1 691.8 695.2 696.6 696.2 696.9 698.9 699.3 696.4 693.9 689.9 683.6 679.9 683 686.4 689.1 685.5 660.6 601.8 548.9 507 476.4 453.6 436.4 417.9 389.5 376.2 368.2 357.7 357
487.1 484.6 481.8 479.3 475.3 470.9 463.9 457.8 452.2 444.4 435.6 423.3 413.6 403.7 394.2 384.4 378 369 360.8 357.6 350.8 343.7 337.1 332.5 327.6 321.3 315.9 314.5 316.2 320.2 324.9 328.9 327 323.9 321.9 319.3 320 319.9 317.3 315.9 317.3 317.8 321.2 321.7 320.7 321.6 324.9 327.7 331.5 336.5 336.4 331.2 324 318.2 313.6 311.6 304.6 314.9 321.9 327 335.1 353.1 379.5 383.6 398.2 417.6 423.6 411.3 400.1 389.5 389.4 388.8 385.4 377.1 375.5 372.5 366.5 367 373.3 380.2 383 384.7 385.2 385.3 383.5 381 375.6 366.1 355.8 349.2 347.4 342.2 344.8 359.3 367.4 375.8 384.8 392.8 401.8 411.1 416.5 427.1 434.2 443.4 450.4 455.9 459 463.5 466.1 468.9 473.9 482.2 485.7 488.3 492.7 499.5 508.1 516.9 525 533.6 545.4 542.3 545 554 563.7 571.2 577 584.1 594.8 602.9 613.2 612.8 618.6 626.4 632.3 620.9 621.4 623.9 624.1 622.4 626.7 628.8 627.6 628.3 626 627 632.7 641.2 652 664.8 679.8 695.3 708.2 721.7 732.6 742.2 749.8 754.2 756 755.3 748.3 737.1 721.6 704.6 692.6 685.2 680.8 679.1 677.3 677.6 679 681.6 683.1 683.6 682.4 682.6 684.1 682.8 679.3 676.3 672.6 670.6 672.5 673.7 676.7 681.8 676.6 639.2 579.9 529.3 493.2 471.2 455.3 442.7 418.5 393.2 378 372.7 368.1 361.6
483.3 479.9 476.2 471.8 467.9 463.7 457.9 452.4 445 438.2 429 412 404 397 386.8 387.4 383.2 374.9 359 351.5 345.7 341.9 343.2 337.4 327.8 323.5 322.6 316.9 310.1 304.8 308.8 316.4 315 312.4 310.9 308.4 301.8 299.5 299.1 297.2 296.2 295.7 297.5 299.6 299 298.6 305.4 311.1 318.1 319.8 315.7 313.2 308.2 304.2 303.3 303.6 297.6 304.5 316.8 323.3 328.9 339.4 358.7 371.4 389.6 406.5 405.8 390.9 379.2 369.9 367.2 366.1 365.4 361 360.2 358.5 357.9 359.2 367.5 376.2 380 382.1 381.1 380.1 379.4 380.2 376.2 364.2 350.5 344.5 342 335.2 339.1 357.7 365.7 373.5 381.3 389.3 398.4 402.1 411.9 420.1 428.6 440.7 448.5 453.7 458.2 462 466.4 470.1 475.1 482.5 486.8 492.3 498 502.9 513.9 526.5 533.8 541.8 546.5 549 547.3 560.3 570.5 576.4 577 585 596.2 604.1 611.1 612 618 624 627.1 614.1 614.6 620.4 621.1 617.9 619.5 620.4 616 613.6 612.5 616 622.1 629.1 645.1 660.6 676.6 693.1 707 719.4 730.4 738.8 745.5 749.3 752.2 752.5 747.3 738.4 725.4 707.5 692.1 683 679.1 675.1 673 670.4 671 671.7 671.9 672 671.1 668.6 667.2 667 664.7 661.1 659.1 661.7 664.3 665.3 666.9 666.6 653.3 605.2 553.8 513.2 488.8 472.4 463.6 444.6 420.1 400.9 382.7 374.5 369.5 358.5
480.6 476.7 472.2 468.2 464.5 459.1 454.1 449.6 443.4 434.7 421.3 405.2 396.8 389.9 388.1 395 388.5 384.1 366.6 355.9 365 361.9 356.4 350.2 344.2 336.8 329.6 321.7 313.2 308.3 300.1 302.3 300.7 305.9 305 298.8 292.3 285.8 283.2 282.1 281.6 280.4 278.2 280.1 280 279.7 283.4 290.5 299.6 301.1 303.1 308.1 305.5 299.1 297.7 293.7 290.8 297.9 310.4 318.8 322 331.5 343.6 355.6 372.4 382.8 381.1 374.3 372.2 371.3 372.7 366.2 352.1 347 344.5 349.2 351.6 354.7 361.1 369.3 373 374 374.6 373.1 371.7 373 367 357.8 346.7 340.8 337.3 329.7 336.8 353.9 362.5 370.6 378 386.3 392.5 397.8 407.5 416.7 426.5 437.8 446.3 451.2 457.1 464.8 468.9 472 476.8 480.1 486 492.5 497.4 506.1 515.6 526.3 535.1 543.7 546.9 547 548.4 556 569.1 574.6 576 587.1 599.2 609 612.9 611.1 614.3 620.6 612.8 604.8 605.7 608.7 609.4 608.4 606.5 604.9 602.9 603 602.6 601.1 606.2 621.7 637.3 652.1 667.9 683.8 697.3 709.5 721 730.7 738.1 743 745 743.8 739.9 733.3 722.9 709.4 691.9 682.2 678.8 675.7 672.2 666.2 662.9 663.5 663 662.5 660.7 658.4 656.3 653.7 650.5 649.6 648.2 648.9 650.7 651.5 652.4 648.8 633.3 583.6 541.3 508.4 489.6 479.8 467.7 450.4 425.9 406.1 392.8 386.1 378.4 368.1
485.7 481.5 476.6 470.8 459.3 450.8 448.9 443.3 435.1 422.7 407.9 399.5 404.9 402.9 405.3 402.2 397.1 393.4 386.3 379 376.4 370.5 362.8 354.9 348.3 342.4 336.4 326.6 319.5 313.3 302.4 298.4 293.1 290.5 292.4 289.9 286.5 282.9 280.4 278.2 275 273.3 271.3 269.2 267.6 266.9 269.5 272.4 278.9 289.1 295.3 303.8 303.8 300.8 297.2 292.2 289.2 287.2 298.6 304.2 311.2 326.2 339.9 351.1 355.6 363.1 370.9 372.4 373.9 383 390.2 375.4 350.5 335 334.7 341.1 345.6 351 356 363.1 365.3 365.5 366.3 364.4 362 363.3 357.4 350.5 341.2 338.4 333.5 325.4 329.8 349.1 360.5 368.7 376.7 382.8 388.1 396.5 406.2 413.6 424.1 435.4 442.7 448.9 459.1 465.6 468.8 474.1 476.6 479.1 483 489.5 501.3 507.7 512.8 525.1 537.1 543.4 544.5 543.2 545 553.1 559.5 568.7 574 587.8 601.5 613.5 616.5 609.8 609 606.1 586.8 590.3 592.4 594.2 596 593.3 590 586.8 586.2 587.7 590.6 588.5 596.2 609.5 624.7 641.3 656.9 673.1 687.1 696.9 707 715.9 727 732.1 731.6 731.1 728.6 723.8 715.3 702.6 688.7 682.1 679.6 678.4 677.1 673.4 665.8 655.7 654.2 652.1 647.7 643.3 645.2 642.9 640.3 640.4 638.9 636.9 635.8 634.6 635.3 629.2 614.4 576.7 544 502.6 491.1 485.9 469.5 444.7 432.3 420.6 405.6 397.1 382.7 373.8
487 482.6 477 468.1 467.6 454.8 444.3 434.9 424.1 411.2 407.4 418.3 424.6 422.5 419.2 413.8 408.4 402.9 395.5 389.4 384.7 377.7 369.5 363.7 358.1 351.1 342.5 331.9 325.3 321.3 315.7 309.2 299.6 293.8 289 284.2 282.2 280.6 276.7 274.6 272.1 271.3 269.4 267.7 266.4 264.6 262.8 263 267 275.6 284.1 291.8 298.5 300.5 301.2 295.1 284.2 276.7 275.3 279.3 289.3 312.3 335.5 333.2 336.4 347.1 359.2 370.6 372.9 392 386.1 363.1 347.4 335 326.3 332.7 338.6 345.9 352.9 357 359.3 360 359.2 353.8 350.9 352.9 347.4 342.9 335.3 331.9 329.1 321.3 320.9 344.5 357.3 366.3 374.2 380.1 387.4 394.3 402.8 413 423.4 430 439.1 445.4 457.2 464 471 475.6 477.2 481.5 482.7 486.9 498.4 507 516.3 528.9 539.9 540.7 538 543.9 548.4 552.5 554.8 563.8 576.3 591.5 606.7 620.2 616.3 603.3 596.8 571.6 570.3 576.3 576.6 577.2 572.6 569.9 570.5 569.1 570.5 573.6 577.3 580 586.9 599.3 613.3 625.9 641.7 658.4 672.4 681.8 690.1 700.2 709.5 715.2 717.3 716.6 715.4 711.1 703.9 692.9 685.5 681.3 679.5 678.6 679.1 677.4 671.7 660.1 646.8 642.5 639 633.3 634.2 632.2 630.5 631.1 629.7 626.7 622.1 619.2 619.2 616.2 597.8 567.5 525.4 501 488.5 482.4 475.6 469.1 464.5 449 430.5 408.2 388.4 378.2
488.2 482.1 478.9 475.4 470.9 468.2 458.3 454.3 446.7 435.7 434.4 442.1 436.3 434.5 430 424.2 418.9 413.4 406.7 399.2 392.5 385.5 378.6 373.3 368.4 360.5 353.2 343.6 336.4 330.3 324.7 319.2 312.9 304.1 303.3 296.4 295.5 293.9 288.6 285.9 276.8 270.9 268.3 265.5 264.3 262.8 260.9 258.5 257.3 260.8 269.3 279.7 287.8 297.7 304.6 293 282.3 261.8 252.4 260.6 273.9 288 305.4 320.4 326.5 331.3 344.8 359.6 367.9 380.7 367 354.6 341.5 330.9 322.4 323.7 331 340.6 348.5 354.3 355.8 353.9 350.8 343.5 336.8 335.2 332.9 329.1 326.2 324.7 319.1 315.4 321.2 340 350.5 360.1 368.1 376.6 383.8 391.7 400.7 409.4 418.7 426.7 434.6 444.8 455.9 463.2 470 475.5 478.3 482 485.1 489.7 494.5 504.5 516.4 529.4 539.8 536.5 541.2 544.3 556.4 551.8 552.1 563.7 572.5 589.5 608.3 620.9 607.2 580.2 575.3 556.7 551.7 555.6 555.5 554.5 551.8 555.6 555.7 557 562.1 564.7 568.1 574.1 579.3 589.5 600.7 612 626.2 641.9 656.3 666.9 675.5 685.4 692.1 697.1 700.7 702.6 701.7 697.1 691.1 683.2 680.2 678.7 676.9 676.9 677.4 677 670.9 657.8 653.2 647.1 645.8 637.4 632.8 626.3 618.2 617.7 617.6 614.6 610.2 605.5 604.8 598.5 580.7 550.4 518.7 496.8 496 504.6 500 504 506.1 490.5 458.9 425.4 401.4 385.9
490.4 489 486.1 484.3 481.8 475.8 474.6 469 465.3 459 457.3 450.1 449.4 444.9 440.3 434.5 429.6 423.7 419.5 410 402.5 395.3 388.8 384.4 378.6 372.5 365.8 358.3 349.6 341.5 334.9 328.1 323 316.9 310.9 305 300.6 297.5 293.9 292.9 284.7 279.7 275.4 271.8 265.9 262.3 262.2 267 264 256 256.8 266.9 275.6 283.7 292.1 285 277.2 259.1 243.2 244.1 259.1 272.5 289.2 305.9 311.8 318.9 326.8 339.4 351 358.1 353.2 344.9 334.5 323.3 318.6 319.4 324.2 331.6 341.8 348.5 350.5 348.5 338.4 328.2 321.3 318.8 318.9 318.8 319.9 318.7 311 307.1 314 336.3 346.9 357.9 366.1 373.4 380.3 389.1 397.5 407.5 416 424.5 434.1 440.6 451.7 459.8 468.4 475.1 479.7 482 485.9 492 498.8 502.2 509.5 524.7 534.2 531.7 542.7 545.7 546.7 549.4 547.4 555 558.8 571.7 588 595 567.1 558.3 561.8 547.3 540.7 540.5 540.8 540.1 542.5 546.5 545.8 548.8 554.6 559.1 565.3 571.7 576.2 582.7 591.7 599 611.3 626.4 640 651.5 663.9 671.6 677 682.7 685.5 687.2 686.9 681.7 678.5 675.7 674.2 673.6 673.6 673.9 674.6 672.9 661.5 665.8 663.8 663.1 655.1 648.1 643.9 638.2 632.3 624.4 615.7 612.2 608.5 603 590.7 579.5 564.1 541.7 518.5 513.1 522.1 531.9 534.5 539.3 542.2 522.8 479.4 441 414.4 391.9
496.5 495.1 492.7 490.9 488.4 482.2 485.4 479.1 476.5 470.6 465.1 461.5 459.3 455 449 444.5 439.9 435.9 430.2 425.4 419.3 412.7 405.2 398.2 392.1 386.9 380.3 374.4 364.4 354.9 346.3 338.9 331.8 325 317.8 312.1 306.7 303 300.5 297 290.9 286.5 281.7 276.9 271.3 268.7 266.6 270.1 279.7 262.8 253.2 255.1 262.7 267.3 271.2 270.1 262.9 257.3 247 237.8 249.9 261.7 274.4 290.1 296.8 306.2 316.5 327.5 336.1 337.6 338.8 334.5 324.5 317.7 317.1 317.5 320 324.1 331.3 339.9 343 338.2 323.2 311.6 306.9 306.1 306.8 309.4 317.1 309 302.2 304 317.3 334.2 346.3 357.1 365.3 372.2 379.2 388.5 396 404.6 412.5 422.6 430.9 434.9 445.9 456.5 466.7 474.7 479.8 482.8 485.7 493.2 504.1 504.7 505.7 511.5 519.3 528.8 541.1 549.1 548.2 552.3 549.9 542.9 551.1 562.2 571.4 557.8 545.4 547.6 551.4 543.6 540.6 537.5 539.3 535.6 535 535.9 539.5 543.8 548.8 554.5 560.6 568.6 572.9 577.6 583.8 592.1 601.9 612.7 626 638.2 649.3 657.2 663.2 667.6 670.9 672.9 672.7 670.6 668.5 667.9 667.6 668 669.8 669.7 667.9 669.6 671.4 672.6 674.5 673.6 667.8 659.3 653.9 649.4 645.2 639.4 634.7 629.8 626.2 618.4 604.7 588.2 568.5 546 539 540.8 549.3 561.7 572.4 577.8 568.4 542.7 490.6 453.9 424.9 403.2
501.6 500.6 498.1 498.1 497 495.1 492.9 489.3 485.4 481.9 477.6 474.8 471.9 466.9 460.2 456.8 453.5 449.7 446 441.5 437 428.6 423.5 415.2 408.8 402 396 389.3 379.2 369.6 360.4 351.9 343.1 334.5 326.2 321.1 316 310.8 307.5 303 298.2 293.7 288.4 280.1 279.7 273.1 266.6 264 270.4 263.2 252.6 249.5 252.4 253 255.9 254.8 252.2 246.9 238.8 230.2 240.1 252 262.7 275 286.7 298.3 310.7 323.8 334.7 335.1 332.5 327.7 316.7 316.1 316.1 316.3 319.1 318.9 320.3 333.1 335.7 330.3 309.9 299.8 295.6 294.7 295.7 299.3 308.3 299.9 296.3 312.2 329.3 340.9 349.5 357.9 364.6 369.9 377.1 385.3 395.2 402.8 413.8 422 427.3 432.9 445.3 457.1 467.6 477.7 486 486.1 485.1 492 500.8 503.3 506.4 510.6 522.2 531.8 545.6 550 553.8 557.3 554.5 546.8 539 542.5 538.9 533.6 531.4 537.2 543.1 548.1 544.3 536.3 533 528.6 530.1 532.9 536.7 541.6 547 553 560 565.7 569.9 574.2 580.1 585.9 594.6 602.5 613.6 624.3 634.1 642.7 649.4 653.4 656.3 658.5 659.3 658.8 658.6 659.1 661 662.6 664.7 667.1 670.4 672.8 675.8 679 681.5 680.9 677.7 672.6 666.2 661.6 660.1 656.1 651.7 645 640.1 633.8 621.2 604.3 581.1 572.2 562.4 572.4 586.8 599.9 606.6 606.7 591.2 564.2 507.8 469.7 437 416.9
506.2 505.6 503.1 503.4 502.4 501.6 497.6 497.4 498.2 496.2 491.2 486.5 480.6 474.3 470.3 468.1 465.8 463 459.2 455.1 451.9 447.8 441.9 432.2 425.2 421.4 411.5 402.4 392.8 382.5 374.4 364.3 353.7 345.9 340.3 334 325 320.7 316.5 311.5 306.3 300.8 292 294.7 288.8 283.2 276.8 268.5 260.3 257.6 255.7 249.6 244.8 243 244.4 243.9 238.2 233.9 230.3 226.2 233.8 241.1 252.4 261.7 275.7 290 306.7 317.5 333.3 344.3 328.4 317 315.2 315.2 315.3 317.7 320.2 314 309.1 319.7 324.4 311.7 298.5 290.3 286.5 286 286.4 290.3 293.3 286.9 298.3 315.6 330.1 339.5 346.6 354.2 360.4 366.8 376 385.7 394.7 403.2 411.7 418.5 422.5 433.6 445.5 458.3 469.1 480.2 488.7 489.7 486.7 492.3 500.2 502.5 505.9 511 527.2 537.1 543.8 549.3 552.4 552 546.3 543.8 540.8 523 514.2 520.8 521.5 526.1 536.5 548.9 548.6 534.5 527.2 522.3 524.5 528.1 534.2 540.3 546.6 553.6 560.3 565.5 568.4 571.2 577.1 582.2 588.2 594.5 601.2 613.4 622.3 628.4 635 640.8 644.1 645.4 646.2 647.6 649 651.1 653.2 655.7 659.2 664.3 670.5 675.6 680 683.4 685.7 686.1 684.8 682.5 678.3 674.6 674.3 672.1 668.3 662.1 657.9 652.4 642 622 613.6 594.6 591.5 607.6 621.9 631.2 630.8 626.4 611.4 575.4 526 486.6 452.2 425.6
511.7 510.1 508.8 509.6 507.1 505 505 505.3 506.3 505 501.5 495.8 489.4 484.8 481.3 480.5 476.6 475 471.7 467.9 464.8 462 455.7 446.3 438.9 433.9 424.1 413.3 403.8 395.2 386.5 378.3 367 361 355 346.3 338.4 332.5 329 321.4 315.7 307.4 302.2 301.4 297.7 292.8 287.6 281 274 266.5 257.1 251 248.5 247.4 240.8 241.1 244.2 235.9 227.2 227.7 231.2 234 241.3 251.4 261.9 277.5 296.8 308.8 325 340.2 327.7 315.9 314.7 314.5 315.4 323.7 324.9 318.2 301.5 301.4 305.9 297.5 288.5 281.4 277.1 278.3 278.2 278.8 277.8 287.3 300.9 313.8 326.6 335.4 342.2 349.8 358.6 367.7 377.4 384.6 393.3 401.7 410 417.5 422 435.6 446.3 457.1 472.5 487.6 491.5 495.2 489.7 492.1 496.9 498.7 508.6 513.7 521.6 534.3 541.2 548.9 552.6 548.2 541.7 539.7 522.4 502.6 506.1 505.7 513.2 520.7 532.5 542.7 551.4 535.7 522.4 516.6 519 524.9 531.8 539 546.9 553.8 560.7 565.9 567.1 569.1 572.9 579.1 584.8 590 595.3 601.3 607.7 615.7 621.1 626.9 632.1 634.5 635.6 638.7 641.3 644.3 647.4 650.7 656.7 663.7 671.4 678.9 684.6 686.8 689 690 689.4 689.4 689.7 689.7 689.3 687.5 685.5 682.9 677.7 669.8 661 650.2 636.8 617.7 620.5 638.2 646 651.9 648.7 645.8 618.8 578 541 498.9 460.1 429.6
517.1 515.9 514.8 514.2 512.2 512.2 511.9 513.4 514.1 512.6 510.3 503.4 497.1 492.8 492.2 489.5 489.7 486.5 482.3 479.6 474.5 472.5 467.2 461.7 450.8 443 433.9 423 413.4 406.1 398.7 390.7 381.8 376.2 369.9 361.2 355.2 350.4 346.8 338.1 325.8 318.3 316.1 310.6 306 302.9 305.9 300.4 294 285.3 268.3 253.3 251.3 248.3 245.3 250.3 257.4 253.4 235.2 223.3 227.7 228.8 230.3 237.6 248.3 262 282.5 298.3 317.9 332 320.7 314.7 314.7 314.7 315.5 321.2 328.8 323.6 295.9 285.8 284.9 282.9 276.9 271.1 267.9 268.1 268.5 269.6 273.7 288.3 301 309.5 317.5 327.5 336.7 347.4 358.4 367.3 375.9 384.3 392.5 402.9 410.7 419.3 425.1 433.6 444.1 455.4 472.1 486.3 492.9 495.1 493.5 493.3 495 498.2 506.9 513 516.2 527.2 535.7 544.4 549.5 544.8 538.7 519.7 493.8 489.6 503.3 500.7 498.2 512.7 521.3 526 534.4 521.1 512.9 511.5 513.6 520.6 528.4 536.6 545.6 554.4 561.8 565.3 565.8 566.6 568.9 575.1 580.4 585.3 589 595.4 600.7 605.5 611.2 616.5 621.2 625.4 629 632.8 636.9 639.7 643.6 649.6 656.8 665.3 673.7 681.1 687.3 690.2 693.8 696.4 696.2 697.4 699 700.7 702.2 701.4 699.7 698 693.9 685.9 677.3 671.1 652.4 639.8 645.1 656.9 661.7 664 662.1 657.3 631.5 575.9 543.5 507.1 469.1 433.9
523 521.2 520.1 517 519.5 521 520.9 522.6 522.7 521.5 519.3 510.1 506 504.9 502.2 499.9 498.5 497.5 493.5 489.7 485.3 484.8 480.9 476.5 463.5 451.3 443.2 432.6 425 416.9 409.8 401.7 395.1 389.2 381.2 375.4 370.7 365.1 358.2 348.4 335.8 334.6 334 325.9 320.1 320.3 320.5 316 305.6 290.4 272.9 261.6 254.5 249.4 245.3 248.9 255 258.7 242 229 222.8 224.2 223.6 226.6 238.8 250.3 263.7 280.4 303.5 323.2 314.9 314.5 317.5 319.8 317.9 316.8 324.9 321.2 293.6 279.1 268.7 269.3 265.4 260.3 259.1 261.1 260.4 262.8 277.7 294.1 306.7 320 330 335.7 343.8 351.1 360.3 369.7 377 385.5 394.2 404.3 411.7 420.6 427.5 433.2 444.4 455.7 467.2 480.9 491.1 493.4 495.8 495.5 495 495.8 506.4 519.6 517.8 520.9 529.8 546.7 556.8 546.9 528.4 493.2 481.1 478.5 492.8 491.9 484.3 491 496.9 503.2 507.6 503.7 502.4 501.7 505 516.2 525.9 534.8 545.1 554.6 561.9 563.1 562.8 563.1 565.5 568.5 573.6 578.7 582.9 588.8 593.9 597.5 604.5 610.3 615.2 620 623.8 627.4 630.6 636.6 643.4 650.9 659.6 668.7 676.8 684.7 690 694 699.2 701.3 702.6 705 707 709.9 712.6 713.5 713 710.2 707.3 700.7 694.6 688.9 676.5 665.8 666.5 671.5 674.1 676.2 673.7 662.8 620.7 576.3 540.8 511.1 476 443.7
530 527.3 525.2 522.1 524.4 526.5 528.3 530.6 532.2 531.7 529.4 520.3 515.3 515.2 513.3 512.4 510.2 508.9 506.1 504.7 500.9 494.4 488.3 482.8 473.9 464.1 453.5 442.9 432.7 424.3 418 412.8 405.4 399.3 393.4 389.9 388 385.9 369.7 353.6 345.6 350.4 357.4 344.2 337.6 332.5 324.2 308.8 297.4 286.4 275.3 264.9 261.4 254.9 249.9 240.8 239.8 245.4 236.7 231.7 225.7 220.1 220.9 221.2 228.1 239.4 248 264.7 287.6 305.7 308.7 318.1 329.3 335.9 327.7 315.3 315.4 302.4 282.5 270.9 258.8 253.2 251.7 253.3 250.6 252.6 254.9 265.8 280.7 295.7 309.1 323.2 334.9 343.1 349.6 355.6 362.6 371.3 378.5 387.8 396.5 406.5 412.5 423 429.3 434.1 442.5 453.1 464.6 477.5 485.4 493.5 500.5 498.6 494.4 493.3 504.8 514.6 521.6 523.3 527.5 544.4 548.6 533.8 504.4 482 472.1 470.3 484.4 477.6 472 470.5 479.6 485.9 489.3 489.3 488.1 487.7 495.6 507.7 522 531.9 542 555.2 561.3 562.8 561.1 559.1 561.4 563 566.6 570.9 576.3 581.4 586.2 589.7 596.7 604.3 610 615.1 618.1 623 630.6 637.4 645 653.6 663 672.2 679.8 687.3 692.3 696.7 701.1 702.7 705.5 709.8 713.1 718.6 720.6 721.9 723 723.3 720.4 716.4 712.1 705.5 694.6 683.9 682.5 684 686.2 688.8 686.5 674 628.4 584.7 552.3 525.3 488.7 455
537.4 534.5 532.9 528.4 530 532.1 533.8 536.7 538.7 539 539.5 531.1 526.3 524.7 523.7 522.3 521 520.7 521.2 519.8 513.5 507.5 503.6 496 483.8 471.1 462.4 452.9 440.5 432.9 427.1 420.9 412.9 408.2 404.7 404.3 403.4 391 378.6 366.3 360.8 359 371.1 363.8 350 334.6 324.4 308.5 296.7 286.8 277.9 277 273 268.5 260.9 249.4 238.3 232 228.5 228.1 229.2 228 223.3 220 219.8 228.5 237.7 253.2 272.5 288.8 302.9 322.9 341.5 349.8 339.9 321.6 299.3 281 270.1 261 249.3 244.9 243.3 243.5 246.3 245.9 252.9 267.6 281.7 296.1 310.7 324.2 336.4 345.7 353.3 359.3 366 373.9 384.1 392.8 399.5 407.6 415.1 424.3 431.6 435.9 441.5 452.8 460.1 470.6 482.8 499.5 507.7 505.6 496.8 491.4 497.2 511 525.8 532.5 522.8 530.7 529.4 511.8 483.9 476.5 466.3 462 463.1 461 455.4 455.7 465.7 477.1 474.9 476.4 476.4 477.7 489.3 501 516.5 526.9 542.1 555.8 560.5 560.9 559.7 553.7 556 557 557.8 564.5 571.3 575.4 579.1 583 589.7 597.4 603.8 607.4 614.7 622.7 631.1 639.1 647.4 657.5 667 674.3 681.2 686.8 691 694.7 698.4 701.1 704.7 710.7 717.7 724.9 728.6 729.8 731 732 732.8 732.1 727 719.6 710.3 702 699.8 698.2 699.5 700.5 699.4 686.6 641.9 607.7 579.7 548 507.5 472.1
543.2 541.5 540.3 538.3 538.4 539 541.1 545.1 544.4 544.9 544.7 542.3 537.5 534.7 533.5 534.4 536.1 535.1 532.2 528.2 522.1 517.2 514.2 507 494.8 481.4 471.9 460.4 449.8 443.1 436.7 429.5 420.2 416 414.6 415.2 405.4 394.8 384.6 378.6 370.7 366.3 369.4 371.1 358.4 346.4 330.3 315.4 304.2 295.6 291.7 288.6 284.6 283.3 279.8 270.3 251.5 234.4 230.1 225.4 223.5 224.6 223.4 221.7 217.7 219.4 228.7 244.1 262.5 281.8 298.1 317.8 338 353 345.9 318.1 290.7 267.9 258.2 250.7 243.3 238.9 237.2 239.1 241.4 242 250 265.5 280.4 296 310.7 323.6 335.4 345.6 355 363.3 370.7 378.5 388.8 397.6 404.4 411.7 419.1 426.7 434.6 438.2 442.1 453.2 462.7 471.6 482 497.4 510.2 510.9 505.5 490.7 491.2 499.4 515.5 519.1 509.8 518.1 516.2 496.4 474.9 472.3 455.3 446 443.1 445.5 443.3 447.8 461.2 467.9 463.3 463 463.4 474.8 484.9 494.5 508.3 521.9 541.1 554.7 556.8 554.9 549.5 546.6 551.1 550.5 550.7 557.3 564.2 569.4 573.4 577.2 583.1 588.9 595.5 604.4 613 621.7 631.2 640.4 649.7 659.8 668.4 675.6 680.8 684.8 687.9 691.1 693.5 696.2 701 708.6 717.6 726.8 733.3 734.8 737 741.9 747.4 748.1 739.8 731.8 726.4 721 716.8 715.9 716.3 714.7 713.5 702.8 661.3 638 605.6 562.8 522.7 481.5
546.2 548.3 547.7 546.2 546.8 547.7 549.1 550.6 550.9 552 553 548.6 548.6 547.8 547.3 547.4 547.9 546 541.3 536.4 531.2 525.7 521.6 515.1 505.3 494.6 485.2 471.8 460.6 453.2 445.7 438.8 429.1 423.3 421.4 416.3 408.7 395 392.4 387.9 377.7 371 368.6 367.7 367.5 364.5 338.6 323.6 312.8 313.7 312 303 300.3 300.1 301.8 294.4 268.4 248.2 240.8 231 225.8 221.6 220.2 219.4 218 217.2 219.5 232 249.5 273.1 290.7 305 320.3 337.4 328.8 297.8 278.7 265.6 251.9 247.3 240.7 236.5 234.1 235.9 236.6 238 244.8 259.8 276.4 293.7 309 321.2 332.9 343.8 355.6 366.2 375.6 386.1 396.3 402.7 410.4 418.3 426.9 433.6 440.1 443 445.6 454.6 465.3 475.6 489.2 498.1 509.3 513.9 513.4 505.2 489.3 496.8 511.1 510.4 504.6 508.6 496.9 481.2 471 464 450.1 439.2 437.7 441.7 439 440.3 456 454.3 453.7 453.2 458.9 471.3 480.2 489.5 501.6 515.7 533.3 546.5 549.5 545.8 538.9 538.1 543.5 543.1 545.5 549.8 557.6 563.5 568.1 571.6 576 584.8 593.6 601.9 611 620.6 630.4 640.1 650.6 660.3 668.9 675.7 680.5 683 684.9 687.5 689.8 692.6 697.7 707.1 716.7 724.8 731.4 735.2 739.9 748.4 762.3 763.3 754.4 745.6 742.3 739.7 737.8 736.5 735.5 731.9 726.8 713.8 685.5 651.2 614.2 569.1 526.1 486.8
551 552.7 552.5 550.4 553.5 555.4 556 556.1 557.5 558.6 560.7 559.2 562.6 561.6 558.3 555.1 555.5 553.7 549.6 546.5 543.2 540.5 534.2 526 520.4 510.3 501.9 490.6 475.4 465.8 457.7 448.7 440.1 432.8 428.3 418.9 407.8 405.2 402.1 398.8 387 378.1 371.7 369.8 369.3 369.4 346.9 327.9 335.8 332.3 326.4 319.6 313.7 315.9 318.1 312.5 290.4 264.9 256.9 243.3 233 224.5 219.6 218.5 217.2 214.9 216.6 220.6 237.3 258.2 270.6 287 293.3 300 295.9 282.6 269.1 265.1 253.9 241.7 235 232.4 230.9 232.5 232.8 234.2 238.8 253.9 270.3 288.4 305.3 317.9 329.3 341.3 354.7 366.8 381.3 392.9 403.3 410.6 418.9 429.5 438.3 444.7 449.7 452.4 453.4 459.6 469.5 480.3 493.4 501.6 516.2 517.8 516.9 507.4 490.2 492.7 503.9 508.4 497.6 505.8 495.4 477.7 460.5 458.4 443.6 434.7 438.1 442.2 437.5 438.2 444.6 443.6 449.8 449.2 456.2 463.6 474.8 486.5 494.4 505.8 520.3 531.4 536.6 534.7 529.2 529 534.7 535.1 539.1 545.2 552.5 558.8 563.5 564.8 573.4 582.1 590.4 599.2 608.6 618.3 627.9 638.2 649 657.8 665.9 672.7 677 679.2 681.5 685 687.5 691.2 697.4 707.1 715.4 721.5 728.4 734 740.1 750.4 774.1 777.7 768.5 760.3 757.3 758.6 759.2 753.6 748.9 743.5 738.6 730.7 695.8 644 600.3 558.4 523.5 491.5
557.5 557.8 556.2 553 557.3 560 561.6 564.1 564.5 565 566.6 569.3 570.8 570.3 568.2 568.4 566.5 563.4 559.6 557.9 556.5 549.7 542.1 535.2 529.8 521.6 513.5 505.6 495.1 482.5 469.1 458.7 450.7 442 434.8 426 417.5 414 409.7 407.6 405.2 399 385 376.2 370.3 363.6 347.9 348.1 349.2 345.1 337.7 339.3 332.7 334.2 332.5 320.6 296.9 282 271.6 259 244.7 232 222.7 217.9 216.8 216.5 214.8 215.7 223.1 238.6 247.8 258.2 260.9 265 270 272.4 259.5 256.7 250.9 239.3 231.6 228.5 228.1 228.9 229.2 231 234 244.6 262.3 279.9 299.1 313.9 326.3 340.1 353.4 366.6 382.8 395.2 406 416.2 425.3 439.9 450.3 457.6 463.4 467.3 467.4 465.1 475 487 497.2 504 512.1 518.2 517.4 507.5 489.9 485.6 494.2 495.7 484.5 494.6 495.8 481.6 456.3 448 432.7 427.2 438.5 445 435.9 436.6 437.5 437 438.2 445.6 452.4 460.4 472.3 479.9 488.1 498.2 507.6 517.2 523.5 523.3 521.1 521 526.1 528.7 535.5 542.8 549.2 553.9 556.3 563.2 569.8 577.5 586.5 595.8 604.3 613.6 623.7 633.9 644 652.8 661.3 667.9 672.8 675.9 679.8 684.1 687.9 692 696.7 704.7 712.2 717.9 725.6 733.9 739.8 752.7 776.9 779.5 772.6 769.8 768.7 767.8 769.1 766.5 758.2 754.8 749.6 744.9 699.3 633.2 595.6 560.3 526.3 495.4
562.4 560.3 558.2 555.1 559.5 562.1 563.8 567.7 570.6 572.1 571.1 574.5 578 581.2 582 581.8 576 570.4 567.1 564 561 555.4 547.2 542.7 536.7 531.7 523.7 512.9 504.6 495.7 483.5 468.8 459.2 450.8 444.4 435.1 428.7 422.5 419.9 416.4 417.9 413.8 401.9 387.4 371.6 366.1 365.1 365.1 362.5 357.7 354.3 349.8 350.7 347.8 333.2 315 306.4 295.2 284.6 272.6 258.3 244.3 232.1 222.7 217.3 216.4 215.4 215.1 215 216.8 224.6 230.1 235.4 243.5 252.4 259.8 246.9 249.6 244.1 235.2 228 224.4 224.7 225.8 226.4 227.9 228.6 237 253.8 272.8 292.4 308.8 321.7 335.1 350.2 364.1 382.1 395.9 407.1 419.6 431.3 447.1 461.5 469.3 480.8 478.5 480.4 475.1 479.3 489.7 503.2 513.6 512.7 513 509 496.6 487.6 482.1 485.8 476.1 463.6 477.2 477.1 468.8 458.4 440.7 424 421.1 435.1 440 434.6 434.1 430.7 429.6 434 441.6 449.4 460.1 469 472.2 482 493.1 500.9 507.7 515.2 514.6 514 514.4 519.6 525.9 534.4 538.7 543.1 547.4 554.9 559.1 564.3 571.9 581.4 590.6 599.2 608.2 618 627.3 638.3 649.8 659.3 666.8 672.3 676.1 680.5 685.5 689.9 694.4 697.9 703.9 711.1 715.9 721.8 729.5 735 749.3 763 767.8 763.9 768 772.6 774 774.4 771.2 766.5 760.1 755.7 748.6 686.7 631.2 593.9 560.7 531.1 504.9
567.3 564 560.9 557.9 559.3 562.8 567.2 570.5 575 577.4 578.2 580.7 586.6 589.3 589.3 589.4 587.8 579.6 573.3 567.4 564.5 561.2 551.5 546.6 543.4 538.7 531.8 522.3 513.5 504.8 492.6 479.1 469.1 460.1 451.1 448.1 440.6 432.8 428.8 426 424 419 407.3 392.2 387 385.3 378.4 377.8 374.2 369.5 361.8 355.7 359.4 354.4 340.7 327.7 310.5 301.1 292.8 280.9 269.2 257.1 244.2 230 221.2 218.1 216.4 212.7 214.2 213.9 213.8 215 218.3 223.8 224.3 234 236.8 239.6 229.5 226.7 224.6 222 222.7 223.9 224.4 225.1 225 232.4 245.8 265.3 283.6 301 314.9 329 343.4 360.9 381.7 398.2 411.5 425.8 439.6 448.3 469 481.3 492.5 501.1 493.3 483.8 480.9 485.7 501 519.1 523.9 513.4 508.5 489.1 476.4 464.8 463.8 450.6 438.3 458.1 464.8 452.1 441.9 431.3 421.6 413.8 425.2 427.8 432.3 432.9 424.4 424 432 438.7 446.6 456.5 465.7 470.3 476.8 486.3 494.3 497.7 503.8 503.7 502.6 505.9 513.7 521.6 528.7 532.9 538.2 547.5 550.6 553.1 558 565 574.8 584.1 592.7 600.4 609 623.1 635.6 647.1 655.9 663.8 671 675.9 680 686.1 692 697 700.3 705.3 711.6 715.9 719.5 722.3 725.5 735.9 746.5 751.9 754.2 760 765.2 768 770.9 772.8 769 761.3 758.6 743.9 702.2 635.6 599.1 568.2 541.7 518.6
566.4 563.4 560.4 559 558.6 562.6 569.4 575.6 581.2 583.6 585.8 587.7 590.1 592 596.3 597.4 593.8 587 578.8 572.2 570.8 568.7 563.3 554.8 549.7 545.5 540 534.2 521.2 511.9 502 487.4 476.3 467.1 461.8 463.9 456.7 445.5 436.8 433.1 427.9 420.5 414.6 406.2 407.2 398.5 386.6 382 381.5 377.5 371 364.8 365 362.9 350.1 341.7 314.3 296 282.8 276.3 270.9 264.4 252.9 238.7 228.5 223 219.9 216.8 213.5 213.4 212.7 212.4 212.3 212.7 215.3 219.4 223.8 226.2 225.8 222.8 222.3 219.7 220.8 221.6 222.3 222.6 222 228.5 240.1 259 276 295.2 310 324 337.4 357.5 378.3 396.5 413.3 426.6 441.4 448.9 470.9 493.2 505.7 513 506.7 499 481.3 484.2 502.6 520.3 522.4 518.2 512.9 499.4 466.4 449.6 453.5 447.1 418.3 429.8 445.8 428.8 411.3 410.9 411.5 408.3 409.7 414.7 424.8 423.6 414.9 422.2 431.2 438 444.7 453.8 462 468.5 473.8 481.6 487.5 491 494.1 495.6 496.5 499.1 506.1 515.7 520.8 526.9 535.3 541.2 544.1 548.9 553.3 558 566.7 575.4 583.5 593.8 605.4 617.9 631.3 642.7 650.2 659.8 669.3 675.4 678.7 686.6 694.4 699.2 702.2 708.3 713.2 714.1 715.4 714.3 714.6 721.2 728.9 735.8 739.8 744.2 750.6 755.8 762.6 764.9 759.8 760 753.5 735.5 691.6 648.9 609.9 580.1 558.7 542.3
570.6 562.9 559.7 559.2 559.1 561.4 567.3 576.7 584.3 588.3 591.6 592.9 595.6 599.6 603.6 605.4 604.1 596.2 586.1 579.7 576.2 574.6 569.7 563.1 558.3 553.4 548.5 539.1 530 514.9 502.6 492.8 482.1 473.1 469.7 468.6 464.8 455.2 446.2 438.3 431.2 427.5 427.5 420.3 422.2 409.8 396.8 387.9 387.1 389.5 385.6 376.1 373.6 363.3 351.2 339.6 324.4 296.2 277.7 266 258 253.1 250.1 244.3 232.6 227.6 223.3 218.6 211.7 212.7 212.3 211.9 211.5 211.4 211.3 212 215.1 218.4 221.7 219.3 218 218.1 219.1 219.9 220 220.2 220.2 225.4 237.2 252.8 270.9 289.2 305.4 321.3 335 359.4 379.4 393.2 409.8 426.3 436 445.1 468 488.3 504.1 510.7 515.9 523.5 498.3 490.6 509 522.7 520.6 516.8 510.5 502.3 465.9 442.2 445.1 441.7 415.1 409.8 409.9 397 390.1 394.4 395.9 396.1 395.5 398.9 405.2 406.5 410.3 418.9 428.5 434.7 442.5 451 458.2 465.1 470 476.7 482.6 484.6 487.3 487.7 490.4 497.1 503.5 509.9 515.1 522.7 529.8 532.7 538.8 544.6 549.6 554.9 561.3 569.1 578.4 588.1 599.5 611.1 624.4 635.5 642.8 652.8 663.9 673.1 672.9 682.4 693.4 695.8 698.7 709.7 712.2 710 709 705.7 704.5 710.6 714.9 720.6 725.5 726.2 731.3 737.5 744.7 749.4 754.9 754.5 744 722.4 690.8 654.5 625.5 602 581 564.3
569.7 569.3 566.6 564.4 560.3 560.3 563.2 572.9 584.7 590.3 595.2 598.6 602.6 608.6 611.1 611 609.2 601.3 593.7 585 581.6 580.6 578 570.6 565.7 558.5 553.8 545.2 530.7 519.1 509.3 497.4 488.6 479.8 475.9 474.1 470.4 458.5 452.1 445.4 440.4 438.1 435.6 429.2 427.5 416.9 404.7 402.3 395.6 396 394.4 387.7 380 369.9 366.4 355.9 339.7 316.2 298.2 289.7 275.5 259.4 243.7 239.7 236.9 231.6 229.9 225.1 217.6 210.9 211.9 211.5 211.2 210.9 210.8 210.6 210.9 213 215 215 215.6 216.7 217.7 218.5 219.1 218.5 218.7 222.3 234.7 247.7 266.5 285.7 302.1 318.9 332.5 358.6 381.6 398.2 419.4 432.7 432.9 438.5 461 483.9 497.1 514.2 529.4 534.9 522.6 497.9 511 524.3 526.9 519.1 508.9 495.3 455.5 443.5 436.2 422.8 407.7 393.7 390.4 386.3 379 378.4 379.7 386.3 381.6 384.5 387.7 389.1 402.1 413.1 424.2 431.6 440.3 449.5 454.9 460.1 467.3 473.3 479.1 479.9 479.6 480.1 487 492.8 497.4 506.1 513 519.5 522.9 527 534.4 539.9 545.5 552.1 559 565.4 573.3 581 592 604.8 617.7 628.4 637.3 645.4 654.2 660.2 662.9 671.5 678.5 680.1 693.1 707.1 708.8 704.6 700.3 695.4 697.6 702.5 705.1 707.2 709.8 711.1 715.5 721.8 727.8 736 745 744.6 730.4 720.9 700.7 679.6 654.7 633.2 608.4 593.8
570.1 577 578.8 571.9 563.7 561.8 565.8 575.6 584.9 594.7 600.4 602.9 604.2 608.2 610 610.8 608.8 607.6 604.5 596.4 588 587.2 585.1 580.6 575.3 567.9 562.3 550.4 534.6 523.9 516 503.5 495.9 488.3 480.6 475.7 470.5 464.4 463.2 459.1 451.6 444.3 437.9 433.6 427.1 419 412.5 407.7 403.4 397.4 391.9 391.6 383.6 371.3 370.5 374.3 354.6 335.3 333.4 324.5 308.7 289.5 256.9 247.7 242.8 240.3 243.6 237.3 231.5 223.7 210.8 211.1 210.8 210.4 210.3 210.3 210.5 211.7 212.6 213.6 214.7 215.5 216.2 217 217 217.3 217.3 220.6 232.9 246.7 264.6 281.4 296.8 314.2 330.4 359.2 375.7 394 419.4 438.8 434.9 433.4 450 472.4 495.8 515.5 525.3 532.1 528.6 505.9 511.4 525.4 532.1 526.2 507.6 488.4 449.5 440.5 430.5 414.8 395.7 384.5 385.3 390.1 377.1 363.9 367.3 374.9 371.8 371.3 372.1 378.1 391.7 406.3 418.2 429.6 438.4 446.1 451.8 458.4 464.2 469.8 473.8 475.6 473 477.2 481.7 487.3 496.7 503.9 507.9 513.1 516.8 522.7 528.7 536.4 544.2 551.7 557.8 563.8 570.5 577.4 587.4 598.6 609.4 619.8 629.5 637.5 643.5 647 653.5 659.5 663 671.5 685.1 694.5 699.9 696.6 690.2 685.6 687.6 691.8 695.3 694.9 694.7 698.4 703 709 717.5 725 729.8 728.7 725.2 724.6 717.8 699.4 682.5 661.5 633.7 621.1
572.2 574.7 575.9 573.7 568.9 566.4 576 587.4 593.5 598.6 601.3 601.2 604.9 608.3 611 612.2 612.7 613.4 606.9 603.5 599.9 593.5 590 587.8 584.8 575.2 565 553.4 538.8 528.4 518.3 510.1 503.8 496.4 489.1 481.6 478.7 477.4 474.1 474.2 469.2 456.4 441.1 441.6 435.5 431 424.6 419.3 419.3 405.5 390.7 387.4 382.8 380.6 377.5 375.5 360.3 357.8 355.1 342.4 334.1 302.4 268 255.6 252.2 252.9 255.5 252.7 245.7 237.5 229.1 215.9 209.5 210.1 209.8 209.8 210.5 210.8 211.6 212.8 213.7 214.2 214.9 215.7 216.2 216.3 216.3 223.4 236.5 251.2 271.7 285.9 297.9 311.3 326.9 351.5 371.8 388.4 410.6 427.3 431.5 428.5 441.4 464 490.8 499.6 510.7 521.3 523.2 509.7 514.6 524.1 527.5 526.9 500.1 474.3 444.2 435.4 414.1 404 396.3 381 372.2 372.6 365.9 357.5 358.6 364.8 364.6 362.9 361.2 371.3 386.5 402.8 414.1 426.2 434.8 444.6 450.5 456.1 460.9 467.7 469.8 469.3 470.4 472.8 477.8 485.3 490.8 497.6 501.3 503.6 512.1 519.1 527.2 535.2 543.4 551 557.4 563.7 569.6 576.3 584.7 594.2 603.7 613.9 622.9 630.2 636.1 640.5 648.4 653.7 659.4 671 678.1 683.8 688 682.6 678.5 676 677.2 680.6 682.4 681.5 682.7 687.9 692.4 699.2 708.4 716.6 720.2 723.5 727.3 725.4 715.7 698.9 676.4 661.6 646.1 622.3
570.5 571.4 573.4 575.1 574.4 573.4 575.9 587.7 594.8 600 601.7 603 605.1 608.7 609.8 610.7 611.4 610.6 608.5 606.6 605.9 602 594.2 588.7 585.1 577.6 565.3 554.4 543 534.1 528.1 521.2 515.2 506.7 501.4 495.7 489.8 489 487.7 484.7 481.1 470.7 452.2 447.9 449.3 447.4 436.8 428.2 428.2 419.9 407.5 394.2 394.2 399.5 390.9 379.5 368.9 376.7 371.7 350.7 340.4 308.3 273.6 261.5 267.1 271 274.5 273 259.2 250.1 240.9 232 224.6 212 209.3 209.5 209.6 209.8 210.6 211.8 212.7 213.1 213.7 214.8 215.4 215.2 215.6 224.2 236.4 251.5 275.2 282.1 295.1 308.2 324.1 343.2 359.1 376.5 392 405.9 413.8 417.4 434.9 448.3 466.8 481.2 488.9 498.2 499.4 493.4 497.7 519.6 517.8 514.9 495.1 459.6 439.7 432.6 418.2 390 373.5 370.4 364.4 351.9 348.7 348 347.4 352.5 356.3 350.9 352.4 363.2 375.4 390.4 404.4 415.4 428.5 439.1 446.7 452 456.1 462.4 464.8 464.4 464.9 466.2 473.6 477.8 482.1 486.1 489.7 494.7 505.1 514.2 522.4 531.6 539.8 548.8 556 562.8 568.2 573.8 580.6 588.6 597.3 606.9 614.6 622 627.8 632.4 638.7 645.9 654.6 665.1 667.4 669.5 674.3 670.8 667.7 662.9 662.3 663.7 665.2 667.2 667.7 672.2 679.1 687.6 696 705.8 713.7 721.8 727.1 721.4 709.4 687.9 660.2 647 634.1 609.5
571.1 573.1 576.5 581.6 582.3 577.9 575.9 580.2 589.1 596.9 601.4 602.7 603.9 608.5 611.9 612.7 613.4 614.2 612.3 613 608.2 606.9 599.1 585.1 578 568.4 560.8 555.1 548.3 543.1 537.9 530.1 525.4 518.8 513.4 506.6 501.4 500.3 500.5 497.4 491 480.2 463.7 453.7 459.2 458.7 449.6 441.4 436.4 428.6 424.3 418.7 403.9 403.3 400.7 395.4 382.5 381.4 374.2 358.4 332.9 304.1 279.9 275.6 285.6 288.8 291.5 287.9 279 267.6 260 254.5 243.1 224.7 208.7 208.7 208.6 208.9 209.7 211 211.7 212.1 212.5 213.9 214.1 214.1 214 218.2 230.8 238 251.7 277.4 303.5 311.2 323.8 339.6 355 369.6 379.5 392.2 402.5 408.3 423.5 436.3 447.1 460.9 468 470.4 471.5 475.4 474.7 500.5 509.4 504.5 488 450.3 442.3 437.8 416.9 386.8 369.6 357.3 358.6 344.5 333 334.9 336.8 339.5 344.2 339.7 342.9 352.8 362.4 375.6 393.7 406.7 420.8 432.2 442.5 450.5 454.9 458.9 460.7 461 457.7 458.9 462.9 466.1 470.8 474.3 476.9 485.9 498.1 507.4 517.5 526.7 536.2 546.1 555.3 562.5 567.4 572.6 578.7 585.5 591 600.1 607.3 614.8 619.8 624.8 631.3 638.7 650.5 658.5 658.9 657.2 656.2 657.5 654.2 648.9 648.2 651.6 653.2 652.4 653.9 658.8 666.9 675.9 684.8 696 708.8 717.6 717.1 707.9 697 666.8 644.2 626.7 611.8 593.4
576.5 581.1 584.7 586.1 582.5 579 576 579.2 586.5 593 596.4 597.2 598.9 603.6 609.2 616.3 615.5 614.7 616.4 615.5 614.7 607.4 594.5 587.8 586.6 578.6 565.3 559.7 555.1 548.3 544.1 537.8 535.1 533.1 526.2 523.4 522.3 515.5 509.3 507.3 501.6 489.2 472.5 461.2 464.5 468.8 467.3 461.5 449.1 440.3 433.9 431.4 420.3 408.5 405 402.3 394.5 384.1 382.7 373.2 335.6 301.9 283.4 296.4 307.6 310 319.2 314.1 308.2 295.8 280.8 253.1 239.4 226.7 210.2 207.7 207.8 208.4 208.9 210.1 210.7 211.1 211.7 212.6 212.8 212.8 212.7 213.7 220 226.9 237.9 255.3 288.3 315.6 327.1 343 358 368.6 379.2 388.7 397 400.8 407.5 420.6 433 440.3 448.1 452.6 458.9 458.7 457 480.5 497.9 496.7 480.1 447.6 441 429.7 398.6 377.3 365 349 340.5 334.9 327.3 321.2 322.3 328.3 332.2 331 333.8 340.9 350.1 364 380.7 397.6 411.9 423.7 435.7 448.1 453.4 457.3 458.4 457.9 452.3 446 452.2 456 461 461.9 462.7 478.8 491.6 504.4 516.4 527.4 538.6 548.7 557.7 564 568.8 573.8 578.5 583.7 589.2 594.5 601.6 609.1 613.1 617.9 622.7 630.9 643.4 650.7 651.3 648.7 642.1 642.7 639.5 631 634.9 639.9 640.6 640.8 643.9 650.9 659.3 668.5 678.6 690.5 704.1 708.6 701.7 689 671.6 648.4 628.6 610.8 594.4 578
585.6 586.6 584.6 587.2 587.9 582.8 576 579.1 586 587.5 589.5 591.9 594.3 597.6 604.5 611.1 612.5 608 608.8 603.1 599.1 600.8 597.9 595.3 589.5 580.1 574.1 561.3 559 551.5 545.8 545.7 544.3 542.5 540.7 540.8 535.9 529.7 523.4 522.2 513.5 497.6 488.1 475.5 473.1 481.7 482.3 473.6 462.9 448.7 442.7 438.8 432.5 417.1 407.4 398 390.8 385.7 382.5 369 331.6 301.8 298.8 318.1 337 334.6 335.4 337.4 337 324.1 277.7 241.6 225.8 216.2 208.9 207.8 207.5 207.9 208.2 209.2 209.7 210.2 210.9 211 211.4 211.7 211.6 212.5 215.7 219.8 228.7 240.4 260.3 290.3 313.7 339.8 358.3 370.8 384.3 393.6 399.9 400.5 400.9 409.1 422.3 426.3 428.4 434.4 443.8 443.9 442.1 465.7 485.9 484.2 460.1 446.3 442.2 419.4 397 379.4 362.8 344.9 331.4 323.6 318.8 314 314 316.8 321.8 321.9 326.6 332.9 338.2 350.8 367 385 399.9 412.4 427.3 439.1 449.5 455.3 456.1 453.3 448.6 436.2 442 446.9 450.2 446.1 460.8 476.9 491.8 504.7 516.3 528.4 540.4 550.7 559 565.6 570.6 576.3 581.2 586.8 591 593.8 597.9 604.1 610.1 613.8 618 623.3 631.5 638.4 639.9 638.5 631.3 630.1 624.7 615.9 619.7 623.1 625 629.4 636.1 643.7 652.8 664 676.5 687.5 693.2 691.7 684.7 672.4 657.3 637.8 614.9 599.6 584.7 576
581.2 589.8 586 586.5 587.5 584.2 574.3 568.4 581.7 582.1 581.6 585 588.3 593.7 597.6 603.9 604.2 598.2 592.4 589.4 591 590.9 590.3 587.8 585 582.5 576.9 566.5 557.8 551.1 547.9 548 550.9 551.9 554.3 558.6 553.6 552.4 549.2 535.1 523.8 512.2 501 502.5 490 488.9 489.8 483.3 472.4 457.8 451.2 442.6 432.5 425.7 415.4 406 398.8 391.1 368.8 342.2 313.1 310 323.9 338.1 352.2 355.9 354.9 354.1 355.4 345.8 283.4 246.8 223.5 212.3 208.2 207.8 206.3 207.1 207.6 208.3 208.8 209.8 210.1 210 209.9 210.5 210.9 211.3 213.3 216.5 225.9 235.5 244.3 255.8 271.5 297.2 332 358.6 380.8 395.3 405.2 400.1 398.1 406 411.3 408.9 409 419.2 425.1 427.6 433.9 445.3 464.1 460.4 441.8 448.4 437.8 412.6 398.4 384.3 370.8 346.2 326 314.7 309.9 305.3 305.7 306.6 311.9 312.7 319.4 325.7 331.6 340.2 355 372.6 389.5 402.1 411.5 425.3 439.8 448.2 452.3 448.9 444 433.7 431.9 435.9 434.2 445.7 459.9 476.7 491.5 503.9 516 527.9 539.3 550.4 560.3 568.1 573.5 578.3 583.3 589.8 592.8 594.8 598.8 602.5 606.8 608.6 610.2 616.4 622.3 623.3 623.5 622.3 616.5 614.8 609.2 600.3 602.8 605.4 612.7 621 627.6 636.2 646.7 659.5 674.5 684.4 690.1 688.3 676.5 660.7 646.9 630.3 609.9 594 581.1 569.5
566.9 576.9 585.5 587.6 585 578.1 565.4 550.9 554.7 562.9 568 571.7 579.2 581.4 585.8 591.2 599.6 595.5 586.4 577.6 579.1 581.5 582.1 581.5 579.7 577.8 574.1 569.6 563.3 552.8 549.4 550.1 554.4 560.7 563.5 566.1 566.6 564.9 561.8 548.7 537.9 525.5 520.3 523.6 513.5 497.5 494.6 489.4 480.1 468.1 456.7 449 439 435.2 424.5 415.8 409.8 402.6 378.7 344.9 324.9 328.7 344.8 357.7 363.6 373.6 379 365.2 365.7 360.4 297.3 255.7 232 220.1 212.6 207.8 207.1 206.5 206.5 207.5 208.1 208.7 209.1 209 209 209.5 209.8 210.2 212.2 213.7 220.6 227.7 236.6 249.7 264.8 288.7 315.7 337.8 363.8 383.5 395.3 396.2 395.4 405.2 417.7 407.3 403.5 409.4 411.6 417.1 430.2 432.3 435.3 431.8 431.8 440.1 427.1 410.1 395.9 388.8 379.6 348.1 320.2 308.5 300.7 296.6 296.3 300 304.6 303.7 312.3 319.5 327.3 334.6 344.5 361.7 378.1 390.3 399.4 410.4 423.7 434.5 441.5 442.2 437.8 426.3 421.2 421.8 423.3 441.8 458.5 474.5 488 500.7 513.7 525.5 536.5 547.3 559 568.8 574.6 580.2 584.8 588.3 591 594 596.8 600 600.5 600.8 600.1 604.9 607.8 609.9 609.2 605.3 598.6 596.8 588.3 584.7 587.7 592.6 602.6 610.4 619.2 630.5 643 657.2 671.7 683.3 688.4 682.8 669.4 656.6 646.3 632.6 615.3 597.9 582.7 567.9
554.2 567.6 581.4 582.6 579.6 571.8 558.4 541.5 534.6 538.5 546.1 551.6 558.6 565.5 570.3 574 579.2 584.6 578.2 572.9 577 580.7 582.1 579.7 575.7 572.6 568 564.2 561.1 556.2 550.5 551.4 555.8 557.9 566.4 575.2 572 572.7 572.7 558.2 545.4 541.7 541.1 541.6 535.2 519.1 508.5 494.1 485.9 478.9 467.5 455.2 451.1 446 436 428 419.2 412.2 381.8 353.8 334.6 350.8 359.2 370.2 376.7 386.5 391.3 384.5 378 371.6 311.4 269.6 247.1 227.5 221.6 215.1 207.6 206 205.4 206.5 207.3 207.6 208 208.5 208.3 208.3 209 209.3 210.5 212.5 214.2 220.8 228.5 244.7 256.1 270.4 287.3 312.3 338.4 365.6 380 390 395.3 402.7 412.9 411.8 410.9 400 398.9 410.1 422.2 426.8 413.8 413.7 429 429.5 428.7 412.6 393.9 390.3 374.1 336.7 316 302.4 293.4 288.7 289.1 293.7 297.8 297.6 308.3 313.5 321.6 327.6 338.4 351.8 366.4 377.2 388.1 397.1 409.3 420.5 427.3 429.3 426 414.9 401.4 408.5 428.9 438.6 455.4 468.7 480.3 493.7 507.9 521.1 533.5 545.1 557.7 566.8 571 578.1 580.8 584 586.9 587.6 590.3 593.1 588.9 586.8 589 592.2 594.5 595.3 589.9 586 583.8 579 569.6 570.6 574.3 583.7 593.1 602.6 613.1 627.4 643.8 658 671.6 683.5 683.7 674.7 664 657.4 652.8 643.1 626.1 610.5 593.1 571.2
543.7 551.8 560.4 560.8 556.5 549.4 540.3 530.6 526.2 527 526.9 534.3 541.9 547.5 555.8 566.7 573.9 580.7 578.8 571.8 576.3 582.8 582.9 576 568.2 562.5 560.5 560.7 559.5 557.8 551.5 550.6 552.9 556.2 567.4 574 577 574.3 570.4 563.3 554.1 551 556 560.7 555.2 540.3 521 507.6 501.6 491.7 481.1 465.5 457.3 454.1 446 436.1 430.6 422.8 385.5 354.5 363 374.4 372.4 377.7 388.8 391.9 400.1 400.2 386.2 388.2 338.2 291.8 261.9 233.3 226.1 220 214.9 208 205 206.5 206.6 206.7 206.9 207.5 207.5 207.7 208.3 208 210 211.6 212.2 217.3 223.5 235.4 245.1 252.1 264.6 286.6 317.5 344.7 368 381.8 389.5 393.9 399.4 405.9 408 398.6 385.7 399.6 407.9 406.3 386.5 397 414.3 423.3 430.5 414.1 396.1 383.9 352.3 325.7 312.1 297.7 288.8 283.2 283.4 288 291.1 289.7 305.5 311.4 315.2 323.2 330.5 342.2 354.9 364.9 376 384.3 395.5 404.2 411.4 414.3 408.6 394.9 400 414.3 425.5 435.5 449.8 461.8 473.6 485.5 499.8 514.4 529.2 542.8 554.1 562.4 565.9 572.4 575.3 582.2 582 582 579.3 579.9 573.3 568.3 576.3 575.8 576.5 573.4 565.3 561.7 559.1 556.3 552 555.7 565.1 574.9 586.4 598.8 612.5 627.8 643.5 657.5 671.7 678.9 677.5 670 664.1 664.3 660 650.4 634 618.9 596 585.2
531.1 530.2 534.3 532.8 529.3 527.3 524.7 519.9 518.2 519.8 523 524.5 534.7 540 546.7 555.2 563.4 571.4 575.1 570.2 572.7 575.3 575.3 570.7 562.9 556.2 555 554 552.9 552 550.1 547.7 550 556.6 562.2 575.7 580.6 576.7 574.6 574.6 566.7 560.6 570.5 572.2 569.7 558.8 542.2 523.1 515.4 504.4 492.5 481.8 460.9 451.6 446.3 440 432 422.6 399.6 384.4 387.4 392.1 384.6 383.7 393 395.2 407.4 403.5 395.8 393.7 372.7 324.6 294.6 243.3 230.2 223.5 219 215.1 209.4 206 206.1 206.1 206.3 206.9 207 206.5 207.6 209.1 210.7 212.4 211.7 214.8 219.1 226.8 235 245.1 256.8 276 306 329.3 353.1 365.1 373.6 379.8 385.6 395.5 394.3 393 373.8 385 394.1 371.4 366.9 386.7 393.6 405.6 408.4 413.6 398.9 362.3 334.8 316.3 303.8 293 286.4 281.6 280 282.7 283.9 284.8 296 303.4 309.6 317 323.3 332.3 342.4 352.7 361.5 371.7 381.3 391 397.9 394.8 386.5 378.6 398.3 411.1 420.7 431.2 443.2 457.9 469.8 482.8 494.6 507.8 522.4 536.9 546.4 553.1 556.6 564.8 569.5 578.7 575.6 572.4 569.9 564.7 555.1 545.7 550.3 551.5 550.4 544.7 542.4 542.7 541.1 540 537.4 542.2 553.1 566.5 580.8 595.9 612.1 629.6 646.8 663 675.1 678.1 674.2 667.9 664.9 660.6 655.7 649.6 637.8 620.4 614.9 608.3
524.7 524.8 526 526.3 523.7 518.1 513.6 512.5 511.1 513.8 518.7 520.2 520.9 520.9 523.8 529.6 537.3 547.6 558.2 562.3 561.9 563.3 564.8 564 561.3 552.2 547.6 544.7 541.2 539.2 538.8 541 545.9 553.5 554 565.9 573.4 576 573.7 572.6 567.2 564.8 576.1 580.6 581.6 573.3 565.1 544.7 524.5 511.9 500.5 491.8 474.8 454 451.6 443.2 435 430.5 419.4 404 399.2 401.4 398.5 394.7 395.6 399.1 406.6 401.1 398.8 399.9 382.8 343.2 306.9 250.2 233.9 228.1 222.5 216.3 210.5 205.1 205.5 205.5 205.9 206.4 206.4 206.2 206.9 209.7 213.1 215.9 217.1 212.5 215.7 223.2 228.6 236.8 250.2 265.1 296.5 312.5 324.2 342.3 350.3 357.6 361.8 367.3 368.1 365.1 362.8 363.3 368.3 348.5 346.9 355.2 356.9 380.4 391 395.4 382.5 353.1 329.1 312.5 297.5 290 285.7 280.9 276.2 276.4 274.2 275.3 285 293.5 304.1 309.9 316.3 323.6 331.7 340.9 347.1 357.3 365.4 373.7 381 369.2 361 378.4 395.1 406.9 417.8 426.1 438.3 453.9 467.3 478.3 488 499.5 515.1 528.7 538 541.6 544 551.5 562.7 567.6 566.9 560.9 560.8 551.7 541.5 537.3 534.7 534.9 530.4 525.9 523.5 525.3 527.4 526.1 523.9 529.5 545.1 559 573.9 591.2 609.1 628.6 646.6 660.2 670.4 673.2 668.9 665.1 661.9 658.3 657 652.9 644.7 640.2 638.1 625.6
527.5 515.2 507.9 505.2 503.3 499.3 500.9 506.1 507.2 507.1 509.6 512.6 513.7 510.8 510.3 514.3 522.3 527.4 533.1 536.6 537 537.7 538.4 539.3 539 536.2 533.3 530.3 529.6 528.7 529.9 534.2 539.1 544.7 547.8 556.7 569.4 576.5 575.7 566.1 561.8 565 576.4 582.9 587.5 583.7 581 564.3 538.7 513.4 503.1 498.6 488.5 467.7 455.2 444.5 436.7 434.7 422.2 413.3 416 417.3 418.7 413.3 409.1 403.5 404.5 403.7 405.6 397.4 387 350.5 304.5 257.4 237.1 229.6 223.9 216.5 211.8 206 204.3 204.8 205 206.1 207 206.9 207.1 209 215.4 216.7 222.9 215.3 214.4 219.1 224.8 232.6 244.6 258.4 276.9 289 302.3 320.6 331.8 340.4 343.1 344.3 341.4 338 336.9 334.2 329.8 326.7 325.3 324.3 336.9 353.5 368.9 378.4 362.8 345 325.5 307.7 289.1 282.5 281.1 277.9 273.7 269.1 264.4 271.4 277.5 284.5 290.2 304.4 307.9 317.4 324.7 331.1 337.5 345.6 353.7 358 357.9 347.1 362.2 373.6 388.7 401.5 412 421.4 433.1 447.4 461 473.3 479 488.3 506 519.6 527 530.2 534.2 541.3 552.8 558.1 560.7 555.7 547.5 538.5 532.4 525.8 523.7 521.1 517.8 511.9 507.6 509.1 512.1 514.7 513 524.3 535.8 550.6 565.5 582.2 601.4 621.9 638.6 648.4 658.6 662.7 662.6 661.9 662.4 660.2 658.8 655.3 651.1 652.5 649.8 636.4
519.3 510.1 506.5 499 497.2 494.4 493.3 496.4 498.6 496.7 499.5 501.9 501.3 500.8 500.9 504.1 511.5 518 517.6 516.4 518.6 521.6 522.7 522.5 522.2 521.1 519.6 518 520.8 523.1 524.9 528.5 533.2 537.8 541.3 546 554.3 560.6 559.3 554.8 556 562.7 572.5 581.9 586.6 587 580.1 572.9 556.3 526.5 503 494 483.9 473.2 459.2 447.2 437.9 426.3 424.1 426.8 428 427.1 424.3 421.1 414.8 407.3 407.2 407 413.1 397.8 381 343.8 306.4 264.2 242.2 233.2 223.1 217.9 211.3 204.7 204 203.6 213.5 209.4 208 208.4 208.3 208.4 216.2 218.9 220.5 218.6 215.2 217.7 223.9 230 238.5 249.8 263.5 274.8 288.3 300.9 317.3 325.5 329.6 325.7 324.2 313.4 309.4 306.5 304.4 299.1 297.7 298.9 306.9 320.5 337.4 340.7 346.3 346.4 323.3 300.7 281.9 275.4 273 269.5 268.2 261.4 255.4 266.8 270.4 274.9 281.2 289.7 298.7 308.5 316.6 322.1 330 334.7 340.2 344.2 335.5 347 357.3 364.4 381.4 394 406.2 417.8 427.7 437.7 451.3 461.4 469.8 480.9 495.4 508.3 515.7 521.3 527.2 534.1 541.1 546.6 549.1 545.6 538.9 530.5 526.9 522.9 515.7 509.7 504.9 498.6 495.7 495.4 496.9 499.5 504.7 517.1 530.1 542.6 555.3 569.5 588 608.9 624.4 635.7 646.7 654.3 660.2 662.3 661.9 660.8 659.9 660.2 654.7 651.9 649.5 642.6
505 500.7 502.1 496.2 494 491.7 490.1 490 489.3 485.6 486.3 491.1 492.4 494.1 494.7 497.1 503.1 505.4 506.7 507.3 509.8 511 510.8 510.8 512.7 510.2 509.4 510.3 515.7 518.9 521.3 524.1 526.1 530.1 535 542.8 545.5 549.2 548.6 549.1 556.5 561 566.4 576.9 583.2 585.8 581.9 573.4 557.5 532.6 499 485.8 482.5 468.7 462.4 450.8 441.7 431.3 437.7 439.1 440.4 434.7 430.8 429.3 428.3 423.5 410.1 416.2 415.7 402.2 377.4 354.6 310.7 276.7 249.9 234.7 223.1 217.8 205.6 204 202 213.9 214.3 211.9 210.8 209.6 208.1 208.5 212.1 219.4 221.4 218.3 216.9 217.5 225.2 227.9 233.8 240.3 248.3 257.4 272.9 292.7 302 307 309.5 305.3 300.9 292 290.6 286.3 280.5 278.4 279.4 280.5 289 298.2 308.8 314.5 326.9 344.8 324.5 301.9 283.7 272.2 267.7 263.6 257.3 253.4 249.1 258.5 260 264.2 271.8 282.5 287.6 296.1 304.5 315.6 322.2 326.7 330 325.1 331.1 343.7 350.1 356.8 373.5 386.8 397.2 410.4 419.9 425.9 437.2 445.7 458.4 472 484.6 496.6 505.8 515 521.9 526.8 533.7 537.1 536.2 534.1 529.1 524.7 524.2 519.9 508.2 498.8 489.7 484.9 483.7 484.8 485.9 485 496.1 509.8 522.6 533.7 544.7 558.9 572.9 593.3 613 626 638 654.5 665.6 665.8 665.4 665.6 664.3 660.6 648.8 645.8 648.4 646.5
494.5 492.7 491.9 490.7 488.8 487.4 484.7 482.2 481.1 476.8 477.2 480.8 483.6 487.1 488.4 489.7 491.8 495.3 498.9 499.8 501.2 503.5 504.4 503.5 500.1 500 502.8 506.1 512.1 515.2 518.7 520.7 521.1 521.6 529.6 536 538.4 540 544.5 550.1 560.9 561.8 562.4 568.2 572.4 568.6 562.6 552.9 547 534.5 502.3 482.7 480.7 473.2 466.1 458.2 445.2 443 448.5 449.7 446.3 442.8 441.1 442.6 441.5 435.4 422.2 416.2 420.6 404.2 382 341.8 311 274.2 250 234.6 225.5 215.5 203.5 202.7 211.6 215.9 217.7 216.8 213.2 211 209.2 208.7 209.6 218.7 222.1 219.1 214.9 216.2 219 223.9 231.7 234.6 239.6 244.6 255.9 276.6 283.4 285.8 287.1 283.1 281.5 274.2 273.2 272.6 266.9 264.9 266.2 270.1 277.7 279.9 290 301 315.3 329 325.6 302.1 287.3 273.1 265.6 258.4 253.8 246.9 244.1 244.8 250.1 255.9 265.3 274.1 280.3 286.4 294.7 306.6 315.2 317.8 319.3 315.5 328.1 334.2 342 350.4 362.3 375.7 389.2 402.2 412.9 419.9 426.8 436.4 450.8 464.1 478.6 491.7 503 512.7 520.7 525.7 531.5 534.7 535.1 533.6 529.1 526.6 527.4 517 500.4 487.4 479.2 471.6 470.6 474.4 473.5 475.2 488.8 501.6 513.3 524.1 534.9 546.2 560.3 577 597.6 614 630.6 648.8 659 664.1 669.6 667.2 660.1 649.1 634.8 637.9 641.1 642.3
487.9 487.7 486 484.7 480.7 478.3 474.8 474.6 470.8 469.3 472.4 473.2 474.9 477.9 481.4 481.9 482.6 486.1 489.4 489.8 493.4 496 492.5 491 490.1 491.8 495.4 501.2 508.9 513.7 513.8 520.1 519.1 515.8 517.7 525.5 530.7 536.3 543.5 553.4 560.6 563.9 563.4 562 557.3 552.7 548.8 541 533.1 519.5 502.9 483.3 473.6 470.7 467.5 457 444.8 450.9 459.6 461.4 460.6 457.3 452.5 450.5 447.7 442.1 425.6 414.7 416.7 410.7 397.3 345.6 315.3 277.3 251.3 239.4 230.4 216.3 200.9 203.4 210 216.3 219.9 222.1 220.8 216.3 211.7 209.7 209 212.2 214.6 216.5 215.2 213.4 214.8 218.9 224.4 231.3 234.8 239.2 246.6 260.2 266.9 272.4 272.3 267 259.9 260.9 256.4 255.2 254.9 254.4 255.7 259.4 266.3 266.3 275.1 288.1 304.3 311.7 319.9 302.3 291.1 276.6 265.3 255.1 250.7 243.2 234.6 237.4 240.7 247.2 254.4 262.6 267.3 279.2 288.8 297.4 305.5 306.2 308.6 311.7 319.8 324.8 335.6 342.2 351.5 366.5 381.4 395.4 405.5 412.7 420 429 445.7 459.6 475 490 502.4 513.9 521.3 528.3 534.2 536.9 534.6 533.5 529.9 528.8 530.1 517.7 497.3 476.7 463.2 455.6 456.9 459.2 454.6 469.9 479.6 491 503.5 514 524 534.7 547.8 563.4 582.5 602.5 621.4 638 652.5 660.4 661.3 656.9 648.7 633.3 622 622.5 626.4 629.7
485.1 483.8 481.6 478.2 474.2 471.8 468.7 463.7 458.4 459.2 464 467.7 468.5 470.6 473.9 471.8 472.4 477.9 480.3 480.4 481.2 482.7 483.4 481.6 485.6 490.1 493.5 497.7 500.8 503.7 507.4 511.8 514.1 511.4 514.3 524.6 531.7 535.9 540.8 550.8 561 566.5 565 565.7 561.5 558.4 554.1 549.9 541.6 519.4 499 488.4 474.1 467.5 463.3 457.1 449 456 464.9 469 474.4 478 467.7 465 460.2 444.7 434.3 414.6 419 428 400.8 344.9 321.1 280.5 255.4 242.3 230.1 220.8 207.5 199.7 205.6 215.4 221.2 225.3 228.1 225.6 219.5 212 209.1 210 210.1 213.1 216.5 213.3 212.7 214.8 223.8 231.8 234.4 235.5 240.4 245.6 250.9 255.3 252.4 248.5 247.8 245.2 242.4 240.7 243.1 244.4 244.5 249.4 253.8 257.3 264.9 279.3 288.4 295.2 300.4 299 291.9 278.7 267.1 253.2 245.6 237.1 230.5 229.2 233.3 239.2 242.3 250.5 257.1 271.4 283.8 291 288.3 293.1 303 308.1 308.7 318.8 326.2 335.2 344.9 355.3 370.1 382.5 393.1 403.2 412.1 421.7 436.1 451.8 469.8 486.7 500.8 513.8 518.8 524.5 528.5 527.8 524.9 527.6 524.6 521.5 518.3 499.4 479.5 462.2 448.4 443.5 443.2 443.8 445.2 461.5 469.3 479.5 489.4 501.7 511.5 521.8 535.4 549.6 568.3 592.8 611.2 627.3 640.3 645.7 642.1 634 620.5 611.9 608.3 609.7 606.4 610.8
482.2 480.6 478.2 472.9 471.5 468.7 464.1 458.3 452.9 453.2 458.6 461.8 461.8 464.4 464.9 463.9 462.4 464.7 468.6 467.6 471.4 472.7 472.8 473.6 478.2 481.3 482.9 486.1 489.9 492.2 494.5 499.3 505.5 504.8 513.8 519.5 528.2 535.5 540 549.6 562.2 569.8 570.2 570.2 571.7 563 559.6 556.6 544.8 524.4 508.6 492.4 477.6 470.4 468.1 467.9 464.8 470.5 473.3 481.7 488.9 494.5 490 473.7 462.3 451.9 442.6 426.5 405.9 419.9 392 343.8 322.9 277.4 257.1 243.7 227.1 218.7 211.7 208.1 201.6 208.4 220.5 226.1 231.3 235.8 231.3 221 210.6 210 210 209.2 213.6 215.1 212.6 212.7 218.1 232 235.6 230.4 233.6 234.8 235 234.9 231.6 228.3 233.6 231.5 230.4 230.7 233.1 234.9 235.4 241.2 246.2 253.5 263.8 274.5 282.9 286.3 286.7 288.4 285.6 278 266.8 252.1 242.6 233.3 227.7 226.5 231.3 231.8 235.2 240.9 251.4 261.8 272.1 275.2 277 294.3 296.3 295.5 303.2 311.4 318.9 327.2 334.5 342.6 353.9 367.2 379.5 388.9 400.1 410.6 425.5 442.9 463.4 478.9 494.2 507.1 514.1 518.7 519 516.1 512.6 512.6 515.7 514.1 500.3 470.3 453.4 439.5 432.2 426.7 426.9 424.6 437.6 450 458.9 466.9 475.5 487.6 495.7 504.8 520.8 538.5 559.6 583.3 599.3 609.2 612.2 618.6 618 611.5 605.9 598.2 594.6 594.5 592.9 597.2
477.1 474.1 470.5 469.4 467.7 465.2 461.7 455.2 450.2 448.7 453.1 455.2 457.7 457.5 455.1 455.5 452.5 456.4 457.6 457.2 461 463.9 464.4 466.2 470.7 474 474.1 477.4 480.3 482.3 486.5 488.9 496.1 498.2 510.3 518.2 524.3 531.5 537.9 547.5 556 566.3 574.7 575.3 571.5 565.8 560.8 556.5 549.9 541 520.2 497.3 484 477.1 475.2 477.4 479.5 484 488.1 492.4 499.8 502 497.1 486.3 475.4 471.8 459.3 437.3 405.1 401.8 380.9 341.3 319.2 271.4 257.6 245.5 234.7 221.9 211.9 206.9 203 198.6 216.4 224.1 231.5 240.5 241 231.8 216 210.5 210 210.1 209.5 214.9 215.9 214.4 210.4 222.3 230.7 226.9 225.1 225.7 223.7 222.9 218.3 226.2 229.1 223.2 223.3 226.6 228.8 229.6 231 234.7 238.9 247.8 257.9 269.5 278.3 283.3 286.1 287.1 283.1 273.9 264.4 252.4 240.5 232.4 225.3 223 223.3 224.8 228.9 234.3 245.8 252.2 257 260.7 277.8 284.2 284.8 286.4 297.5 305.2 309.8 315.6 323.4 332.4 341.5 353.6 363.8 374.2 386.5 397.4 412.5 432.6 450.5 467.1 481.6 495.1 497.8 504.4 507.5 503 497.6 496.4 496.9 491.2 474.4 448.3 433.7 422.6 415.4 410.7 410.7 412.1 424 437.4 447.7 453.5 462.6 470.5 479 493.8 507 522.7 545 565.5 583.3 594.3 598.9 596.7 592.8 595.8 591.6 580.3 580 584.5 580.5 581.8
473 467.9 465.9 463.5 460.7 458.8 455.7 453.1 446.8 443.4 448 451.8 452.8 452.5 448.9 446.7 443.8 451.3 451.5 449.6 453.2 453.8 457.7 461.3 464.2 466.4 467.1 469.7 471.3 474.7 476.2 477.6 486.9 492.2 505 515.3 521.5 529.2 535.5 544.1 554.2 562.3 567.4 569.4 568.1 565.6 561.8 565.2 558.2 539.3 517.9 502.6 493.4 487.3 485.7 486.5 487.9 494.5 499.1 500.9 506.3 505.6 505.3 502.3 497.1 484.2 469 436.1 399.1 387.9 364.3 326 306.4 268.4 250.8 240.3 232.7 225.8 213.1 205.6 202.1 198.4 208.9 220.8 227.7 237.9 246.5 241.5 226 215.7 212.5 213.9 213.8 208.7 214.8 213.1 207.8 209.3 214 217 219.9 217.9 215.3 212.4 211.9 221 223.3 220.1 223 226.5 230.3 227.9 227 227 231.6 244.6 256.3 268.9 281.5 284.5 286.1 286.1 281.5 274.7 262.2 249.9 237.3 227.7 223.3 219.8 218.6 220.2 223.6 229 236.9 241.3 252 265.2 271.5 276.8 274.2 281.6 290.9 297.4 301.9 307.7 314.6 324.4 334.2 341.2 348.3 362.4 373.6 384.5 398.2 419.8 436.8 451.8 467.8 477.7 476.5 484.3 488.7 481 479.2 479.3 478.9 465.2 449.4 433 419.6 408 402.2 401.1 397.9 402.2 411.9 423.5 432.6 440.4 446.2 451.5 463.8 477.8 490 505.6 523.6 546.9 564.4 574.3 575.4 572.3 569.4 573.3 570.4 566 564.4 566.3 564.9 566.1
467.2 464.3 461.9 460.2 457.7 455.3 451.7 448.5 445.4 439 440.8 443.3 443.5 444.7 442.7 439.4 436.1 439.7 443.7 442.8 445.2 447.3 452.4 454.8 456.8 456 455.9 458.7 462.6 466.2 467.6 464.1 476.6 480.3 495 505.1 514.3 524.3 531.2 538.9 545.2 552.6 558.2 565 565.3 565.7 563.1 559.3 553.3 535.3 524.6 522.1 509.2 498.3 495.3 496.1 496.7 501.3 507.1 509.6 511.7 512.1 514.4 513.7 512.7 502.9 482.7 425.9 395.8 371.5 353.3 313 286.3 268.1 255.6 246.8 236.8 224.4 213.8 205.6 201.7 201.2 200.1 211.7 220.8 227.5 241.5 240.7 234.9 222 215 216.6 217.5 211.4 206.8 206.9 206.8 203 203.3 205.7 209.1 211.8 209.1 204.7 205 212 214.5 216.1 217.9 220.7 230.5 225.6 222.9 221 226.8 242.1 260 273.3 286.6 286 277.4 278.2 276.6 272.9 262.7 253.1 242.7 230.2 222.8 218.3 215.5 218 221.3 226.6 232.2 238.1 247 257.8 265.5 269.8 267.4 276.9 282.4 286.7 292.3 298.8 304.9 313.1 322.4 329.8 337.8 349.2 357.8 369 380.9 397.8 415.4 435.8 451.6 458.3 457.7 466.1 460.3 461.1 467.6 466.5 460.9 448.9 431.6 417.7 406.8 396.8 394.5 392.8 389.3 393.6 398.8 412.2 418.9 424.7 427.4 439.4 447.4 459.7 474 490 505.9 524.5 538.6 549.6 553.3 555.3 556.7 562 562.8 557.3 554.9 554.3 554.8 556.9
464.4 461.6 457.8 456.1 453.6 453.1 448 443.9 441.2 435.3 432.1 435.8 436.5 437.4 439.1 435.2 434.2 436 436.4 436.2 438.6 441.3 444 445.5 448 446.5 444.2 449 453 455.8 454.7 451.8 457.1 465.2 480.6 494.4 505.7 517.5 526.1 533.2 540.3 543.6 553.2 565 571.5 572 567.1 560.6 552.9 545.1 539.6 530.7 521.5 507.3 503.9 505.5 506.8 508.3 515.2 519.9 525.6 530.5 525 527.7 528.4 519.9 490.4 426.4 395.5 361.6 339.5 310.6 289.3 278 262.5 249.9 238.7 225.9 215 207.1 201.7 201 197.3 200.9 206 212.6 219.2 224.1 231.9 226.4 217.4 216.2 216.3 213.7 208.8 202.9 202.6 200.8 200.3 201.8 202.1 201.3 201.3 200.1 201.1 202.7 207.7 211.5 210.6 212.3 217.4 214.2 216 216.3 219.9 234.2 251.7 269.4 280.3 273.5 259.7 268.3 266.3 262.9 257.6 250.4 240.6 229.1 220.2 215.4 213.3 215.4 220.4 231.1 236.6 238.6 243.1 254.2 257.9 257.2 261 273.1 275.2 278.2 281 287.2 295 301.5 309.8 319.8 329.3 337.9 346.6 352.5 363.5 376.7 392.4 415.6 428.2 433.5 434.4 435.8 438.6 455.7 460.9 458.5 448.8 434.2 418.2 405.9 396.1 387.5 386.6 386 383.1 384.4 385 395.9 405.4 410.3 414.6 423.7 431.9 446.3 458.9 472.7 486.3 501.1 514.7 523.7 531.5 541.9 551.1 561 557.2 546.1 543.7 541.3 544.3 542.7
459.9 457.9 455.2 449.6 446.7 445.4 442.8 439.4 437.1 432.7 426.4 429.7 432.3 433.3 433.4 428.6 427.5 428.9 427.7 426.9 429.2 433.4 436.7 435.6 435 434.6 433.3 434.8 435.3 436.6 439.8 442.8 450.3 457.1 471.2 484.7 499.1 512.2 521.2 528.9 535.3 547.9 554.1 562.5 575.4 582.3 578.6 571 561.2 554.1 549.6 549.5 538.6 527 516.5 510 515.2 522.3 525.7 530.1 539.2 541.9 540.3 536.2 534.1 515.7 470.5 431.2 384.6 352.3 330.3 315.3 300.8 285.5 269.3 252.1 239.6 227.6 219.9 212.5 202.8 200.5 199.8 199.1 199.9 200.9 204.2 208.9 217.7 221.6 218.4 215.4 214.8 214.2 210.3 205.4 200.2 198.4 198.2 198.1 196.6 196.1 195.7 198.1 201.2 198.7 200.6 203.3 204.3 204.1 203.5 204.3 205.1 211.7 213.9 228.3 248.7 260.8 263.8 245.8 251.9 259.8 262.8 257 253 249.8 243.8 233.2 224.3 214.3 211.3 212.1 215.1 226.8 237.8 241.3 241 244.8 247.2 247.8 256.1 264.2 269.5 272 275.2 276.9 282.6 290.8 301.6 310.4 318.8 328.1 334.7 339 346.7 357.6 373.2 389.1 397.3 405.8 409.6 414.9 431.8 440.4 439.7 436.8 427.7 416.7 405.8 396 392.4 380.1 376.5 374 374.8 379.1 380.3 382 391.8 396.4 402.8 409.8 424.9 435.4 448.1 456.5 466.5 479.4 491.5 503.2 516.7 526.5 537.8 543 531.6 526.7 524.9 520.4 524.3 523.8
449.4 449.2 451.8 451.2 446.1 440.1 436.9 435.3 433.5 430.3 425.6 422 422.5 423.5 424.4 421.6 416.7 416.9 416.4 415.1 419.2 423.2 424.4 422.2 421.3 420.7 421 420.8 420.5 420.5 429.6 440.8 448.1 451.8 458.1 472.7 484.8 498.4 516.5 528.7 532.8 547.1 556.5 564.5 577.5 580.3 578.5 571.6 570.2 562.1 553.4 551 544.7 527.2 513 508 522 531.1 538.2 541.1 547.9 556.1 555.2 546.3 516.9 483.7 451.1 422 367.8 339.2 326.3 314.5 301.4 286.4 269.3 254.2 241.1 230.2 222.2 212.9 203.7 200.3 199.5 197.3 198.9 199.2 199.1 200.3 203.4 207.1 212.8 213.4 212.8 213.1 210.4 207.4 202.3 200.4 199.1 196.5 195 195 195.8 195.2 196.2 195.4 196.4 197.7 198.3 199.5 198.1 197.2 197.7 198.6 201.5 212.4 226.6 240.1 231.5 226.4 243.1 252 253.2 253.7 253.2 250.4 243.4 236.8 226.4 214.6 210 208.4 209.6 214.7 225.6 234.6 238.1 238.5 237.2 241.8 249.8 254.9 260.8 265.1 268.6 271.1 276.3 284.2 292.1 301 309.6 319 324.3 330.3 334.5 338.9 351.9 362.2 371.1 377.6 382.8 390.9 403.4 411.6 411.6 409.4 405.6 401.1 397.4 394.7 389 377.9 369.3 365.9 368.3 373.3 375.5 375.2 379.8 384.3 391.8 397.8 413.8 424.1 438.8 446.7 450.5 458.8 468.1 479.1 498.7 508.3 512 509.6 505.9 504.9 503.6 505.1 506.4 505
448.8 448.8 449.7 449.1 447.4 443.7 441.3 435.9 433.2 431.2 427.2 422.8 422.2 421.6 416.5 412.3 408.1 405.5 406 404.4 406.2 408 407.9 407.7 407.4 408.6 410.3 410 408.6 413.7 421.2 430.6 435.6 443.9 451.6 462.6 475.1 489.3 506.7 517.5 528.2 539.4 552.5 559.3 571 574.7 578.7 570.3 571.7 571.6 558.7 544.3 543.4 528.2 505 503 524 534.9 545.3 551.7 556.9 561.4 559.8 538.2 497.8 461.8 426 391.6 359.1 335.7 325 311 296.7 285.1 270.5 253.5 241.9 227.8 216 207.5 203.1 200.9 199.5 199 195.8 198.9 199 198.1 198 198.9 205 208.7 207.4 208 207.5 206.2 202.5 200.4 199.3 196.4 195 195.1 194.4 193.3 193.1 193.8 194.3 194.5 196.1 197.2 195.9 194.6 194.2 192.4 193.6 202.1 209.8 207.8 208.1 223.3 233.7 239.3 240.5 244 245.1 244 242.7 235.8 228.8 217.2 210.1 207.3 206 210.6 219.2 226.6 229.2 228.8 233.1 241 249.4 252.8 254.6 257 260.9 265.2 270.4 280.1 287.1 292.3 300.2 307.9 312 319.1 328.1 331.4 337.6 342.7 350 355.2 363.2 369.4 376 383.4 384.5 388.6 391 390.3 387.7 384.5 379 371.9 363.8 359.6 363.2 365.8 368.8 369.8 371.2 377.1 381.2 388.4 393.8 402.9 414.2 428.1 437.4 443.4 448.7 458.7 476.5 486.6 492.8 492.8 486.1 485.4 486.2 487.7 487.8 489.5
448.8 448.8 448.8 451 448.9 446.2 443.9 439.3 434.7 432.4 431.1 428.1 424.6 423.1 420.4 419.1 416.2 413.3 408.2 401.6 399.1 397.4 397.9 399.3 399.4 399.8 401 401.4 402 406 411.4 416.2 421.4 436.7 446 451.3 469.8 483.5 493.1 505.1 522.7 529.8 539.1 548.8 550.1 553.1 559 560.6 560.5 561.6 555 545.7 540.1 524.3 497.3 496.2 515.4 530.5 546.8 556.6 560.1 551.7 546.6 523.3 495.4 460.2 424.3 389.1 351.3 331.8 318.9 304.7 289.2 277.5 273.2 255.3 241.4 229.4 220.4 211.3 205 202.1 200 198.5 197.7 196.5 199 198.2 197.7 197 198.2 198.4 199 199.7 199.5 199.5 199 197.3 195.1 194 194 194 194 193 193 193 192.4 192.6 191.9 192 190.7 190.6 190.2 190 189.1 188.4 188.3 197.7 201.5 225 232 233.3 230.6 230.3 232.2 233.7 235.6 234.4 228.3 221.1 211 208.4 205.1 207.3 213.4 219.9 220.5 222.2 231.8 237.9 245.5 252 253.4 254.3 257 260 263.7 271.6 280.2 287.7 292.9 297.9 301.2 307.3 315.5 319.7 326.5 330.7 334.2 340.3 345.6 350.3 357.6 361.6 363.6 366.6 368.2 370.1 370 368.2 369.9 364 356.6 354.6 357.9 361.7 363.2 363.5 365.7 367 372 377.6 381.4 386.9 396.2 407 418 422.3 429.5 438.1 450.3 461 470.6 471.5 460.6 460.5 461.2 466.2 471.2 477.8
448.8 448.8 448.8 449.4 448.1 444.2 440.2 437.3 435.8 435.7 433.7 431.3 427.8 423.7 422.4 421.3 418.8 415.2 410.4 404.3 402 401.5 395.7 390.7 391.9 392.1 393.2 393.4 394.6 397.1 402.5 406.4 411.1 419.5 428.9 435.9 454.6 473.4 479.2 491.4 505 515.5 526.4 537 540.6 539.7 544.5 544.4 539.1 539.3 547.2 550.2 536.2 510.2 485.3 487.8 505.3 517.5 527.5 536.9 541.7 542.2 527.8 503.1 482.2 455 430.7 393 354 328.1 312.1 299.3 283.8 274.3 263.7 253.4 243.2 230.3 218.2 212.8 207.3 203.9 199.8 198.1 198 197.8 197 197.7 197 196.9 196.9 197 196.3 196 196 195.2 195 194.9 194 194 194 193.6 193.1 193 193 192.8 191.7 191.2 191 191 190.5 190.6 189.5 188.7 191.1 191.1 188.4 203.4 201.3 217.8 221.6 222.4 222.5 221.9 222.2 223.9 227.1 230 228.7 224.2 214.6 206.7 202.9 203 206.6 210.3 213.2 226.6 233.5 239 243.3 249.1 253.1 252.7 254.3 259.6 264.3 268.1 274.6 282.2 289.7 293.9 298 302 308.4 311.4 315.9 324.3 325.2 331.5 335.6 338.5 340.6 343.6 346.1 347.8 350.6 351.6 355.5 355.9 356.4 353.9 351.8 351.6 355.4 356.9 360.3 359.8 361.4 363 361.9 364.7 367.1 371.2 379.9 386.3 392 400.5 411.9 417.3 423.6 426.5 435.4 440 432.7 436.7 441.7 447.3 455.2 461.6
451.9 448.8 448.8 453.4 454.4 452.4 447.1 442.2 439.3 436.6 434.7 433.6 432.7 427.5 423.5 420.3 418.9 419.1 417 408.5 404.1 402.9 398.3 389.8 385.6 387.8 386.6 388.3 387.9 388.1 392.2 397.4 402.9 408.8 413.4 421.8 438.3 457.9 467.7 474.5 491.5 499.3 508.7 516.8 524.8 528.2 528.7 529.2 519.5 521 522.4 526.3 523.7 500.2 475.7 478.8 489.3 510.4 521.6 526.6 528.5 514.3 490.9 485.1 476.1 442.1 426.5 396.1 364 336.8 316.5 296.7 281.1 269.7 259.9 248.3 239.7 232 224.9 217.7 210.4 206.7 200.2 198 198 198 196.7 197.8 197 196.9 196.5 196.5 196.4 195.3 195 194.5 194.9 194 193.9 193.3 193.2 192.4 192.2 192.3 192.8 192 191.3 191 191 191 190.6 190 192.7 192 191.3 193.5 192.3 193.5 200.2 206.5 218.8 215.4 213.2 214.1 215.4 214.7 216.6 222.2 223.2 220.6 216.3 208.6 199.6 200.8 203.5 205.1 212 223.3 232 239.4 244.6 253 256.9 252.6 254 261.4 269.5 271.2 274 280.6 287.1 292.8 297.7 299.7 305.3 306.5 309.6 316.8 320 325.5 328.7 333 338.8 338.4 338.1 337.3 338.9 340.4 343.3 342.8 343.6 342.8 345.7 352.1 356.8 357.4 358.2 359.2 362.3 362.5 361.8 359.8 360.8 360.9 363.6 366.1 375 384.5 390.6 403 405.5 405.5 404.9 409.9 411.3 421.1 426.8 434.7 440.1 445.3
456.4 460 448.8 455.7 457 455.9 452.6 449.2 445.7 443.4 439.6 435.4 432.5 430.6 429 424 423.7 422.9 420.5 412 406.1 403.6 400.5 394.2 385.8 381.6 381.4 384 384.2 382.1 382.3 389.1 395.4 401 404.2 410.1 428.7 441.3 452 459.6 469.4 475.6 487.1 497.7 503.7 507.9 509.8 511.3 505.2 502.2 503.5 500.9 497.8 485.2 463.2 467.7 476.4 494.4 506.1 504.9 499.6 492.4 468.7 457 446.5 422.5 412.8 407.9 380.7 343.4 315.6 295.8 286 280.2 268.9 256.1 247.2 239.3 231.9 225.5 215.8 211.4 203.6 198.8 198.1 197.6 196.3 195.1 197 196.9 196 196 195.1 195 195 194.5 194 194 193.9 194 193 192.8 192.3 192.4 192 192.1 191.6 191 191 189.1 193 195.8 196.1 195.7 199.8 206.9 214.9 210.2 193.6 190.4 202.9 208.3 206.7 207.2 207.1 206.6 207.5 213.8 217.5 215.4 212.6 208.2 197.5 199.6 200.9 201.6 205.3 216.1 225.2 231.6 238.3 248.6 257.7 253.8 254.6 260.9 267.7 272.5 274.4 280.9 285.4 290.7 297.7 298.8 302.1 304.2 306.4 309.1 314.7 320.5 323.2 329.7 336.2 338.5 339.9 336.1 332.3 332.5 334.1 335.2 335 340.7 346.9 355.4 360.5 362.7 358.6 358.6 362.6 363.8 361 359 356.9 356.4 357.7 364.3 368.7 371.6 373.4 379.4 386.7 391.2 394.2 392 395.2 408.3 414.3 420.4 427.2 430.3
460.6 464.6 459.8 452.9 455.8 455.7 455.2 456.5 454.5 451.9 446.5 443.4 435.8 434.7 438.3 433.2 427.4 427.7 424.6 413.5 409.2 406.7 402.6 396.1 390.8 384.2 376.9 379.3 377.9 376.7 377.9 383.6 388.9 395 397.3 399.7 413.4 422.1 426.4 431.7 441.8 452.5 460.7 468.6 484.2 490.7 489.8 486.6 486.1 481.9 482 481.1 475 462.8 447.9 454.3 462.8 480.2 491.5 491 481.4 465 448.4 437.7 420.7 403.8 399.7 390.3 371 344 321.7 304.8 298.6 290.2 280.9 267.4 258.8 251 239.6 231.3 223.9 217.8 211.1 205.3 200.9 197.5 196.5 196 197 196.2 196 196 195.7 195 194.8 194.4 194 194 193.9 193.8 193 193 192.3 192 191.6 191.1 191.1 190.9 189.3 197.9 199.9 196 199.1 200.5 206.8 218.9 230 226.6 216.2 203.4 185.4 192.6 195.1 196.6 198.7 198.2 198.6 204.5 210.3 214 210.1 206.4 198.6 195.8 197.9 197.6 199 209.4 218.2 224.8 233.8 245 257.8 256 253.9 259.5 264 268.5 274.3 279.8 285.4 288.8 294.8 297.3 300 303.8 305.2 306.5 311 318.4 319.9 323.7 328.4 330.5 331.7 330.4 327.3 326.4 327.6 327.8 332.8 338 346.5 353.4 358 362.6 362.9 361.7 362.6 365.4 367.2 363.8 359 354.8 354.9 360.8 365.8 367.5 367.1 365.6 370.2 379.6 380.3 381 383.7 392 397.3 403.8 408.8 414.3
461.1 469.5 469.9 457.9 455.9 456.8 458.5 459.6 461.9 464.2 459.5 453.7 442.9 435.8 443 438.9 431.6 429.3 425.5 419.4 417.4 412.6 407.6 399.9 392.5 385.1 378.2 373.8 370.4 370.8 373.8 377.7 384.2 389.7 390.7 390.5 397.3 402.7 405.7 410.5 417.1 423.4 426 435.8 445.2 449.2 451.3 460.8 463.9 463.8 463.1 461.2 456.9 444.5 438.5 443.4 450.4 464.1 475.8 482.4 483 459 443.3 433.5 420.2 401 384.3 372.6 359 342.4 328.7 318.7 313.4 305.3 296.3 283 274.2 266.6 253.7 242.7 233.8 225.9 218.5 211.1 208.6 204.8 200.8 197.5 195.9 196.1 196 195.9 196 195 195 194.9 194.1 194.1 193.7 193.1 193 193 192.6 191.8 191.5 191 189.9 189.3 193 198.4 201.4 199.1 202.4 206.4 210.8 218.2 226.1 222.1 217.6 212.1 205.5 185.1 188.3 190.8 194.1 192.5 190.6 191.6 198.6 202.2 203.8 203.9 202.6 194.3 192.2 193.3 194.1 201.3 212.5 221.1 230.4 243.3 254.2 256.2 254.2 255.2 258.9 266.3 272 277.7 284.2 287.2 289.9 293.5 296.6 300 300.7 303 307.8 311.2 317 318 318.3 320.2 322.3 323.4 321 321.3 322.6 326 328.4 334.9 342.4 349.9 354.3 357.2 363.9 370 376.7 379.3 375.9 367.2 358.7 355.3 353.9 358.7 362.4 364.3 363.4 363.4 367.8 374.7 377.2 376 374.5 387 392.1 394.9 399.4 403.5
463.5 479.2 476.3 468.1 457.3 460.5 461 463.7 466.7 471.8 469.8 461.7 448.6 437.2 439.4 441.1 434.5 432.1 432 426.9 424 423.1 414 406.1 395 386.7 379.1 375.1 365 364.3 366.6 370.5 378.8 383.3 384.1 382.9 383.2 387 389 392.2 395.5 395.2 401.1 412.7 420.2 426.5 432.7 434.2 440.3 437.2 430.1 428.8 425.1 425.2 431.3 435.6 440.1 446.2 455 459.9 462.8 457.9 453.4 455.2 439.3 417.6 396.7 380.9 359 348.7 339.2 331.6 324.3 316.9 308.9 299.6 290.5 279.6 266.1 256.7 245.8 240.5 233.5 224.6 219 214.4 209.9 204.9 196.1 195.7 195.7 195.4 195.6 195 194.9 195 195 194.2 194.1 193.8 193 192.9 192.7 191.5 193.9 196.3 195.3 196.4 198.7 198.6 199.7 201 203.8 207.5 206.4 210.2 213.3 213.8 214.9 213.2 208.4 202.8 193.9 183.5 182.6 187.2 187.1 185.5 185.9 188.8 193.8 197 196.5 198.6 192.3 190.3 188.9 193.1 204.3 213.8 223.9 237 242 251 252.4 251.7 254.8 262.7 271 275.5 281 282.9 287.5 293.2 294 295.5 297 298.5 301.7 303.5 305.7 309.3 310.7 313.3 314.6 316.5 316.1 316.9 320.1 322.3 324.4 334.7 342.5 351.8 357 357.9 368.4 374.9 377.9 377.8 374.2 366 356.2 352.4 353 362.4 366.7 367.6 363.5 361.7 360.8 357.4 363 370.6 367.7 377.6 382.8 384.3 394.5 402.9
463.5 480.2 486.7 478.4 459.2 462.1 467.5 466.7 466.4 469.1 470 462.1 447.7 444.8 443.3 447 443.5 439 433.3 428.7 434 431.9 423.9 415.1 404.5 390.5 381.9 375.1 366.4 360.8 357.6 363.8 370.8 373.7 377 375.1 372.2 372.9 375 376.7 382.5 387.2 390.4 394.5 399 406.3 414 413.7 410.8 413.8 413.6 411.6 408.6 414.9 424.1 430.2 433.7 435.5 437.8 440 443.4 448.5 453.4 456.1 447.8 429.3 411.8 393.8 371.3 357.3 351.5 341.8 335.3 328.3 322 313.1 304.9 291.7 283.2 271.4 262.7 255.9 250.6 240.7 233.5 226.9 219.8 213.1 208.6 206.2 203.7 199.9 195.8 194 193.4 194.9 195 194.3 193.8 193.6 193.1 193 192.4 191.7 194.6 198.9 199.1 199.7 205.5 207.4 207.1 206.5 209.4 213 211.2 206.4 204.8 208.3 209.2 208 205.3 204.2 196.2 190.2 180.4 177.2 179.6 181.6 182.4 180.3 183 186.5 186.4 192.5 195.1 193.3 187 195.4 200 205.4 214.7 227.6 235.3 247.7 250.6 250.7 251.4 257.6 266.2 272.9 276.9 281.5 286.3 292.4 295.6 295.1 295.8 297.2 298.7 299.4 300.1 301.3 303.6 307.4 308.7 310.4 312.6 315.7 318.3 320 321.5 330.3 338.9 349 355.4 357.5 365.9 373.4 373 372.6 369.8 368.8 362.6 352.3 354.6 369.4 378.5 379.7 365.8 359 352.4 350.5 349.3 354.9 359.5 364.5 369 381.8 390.2 399.4
465.3 479.5 490.8 488.4 465.6 459.6 464.8 467.2 465.6 462.9 462.7 459.1 451.9 451.8 449.7 451.8 450.2 446.7 437.8 432.3 441.1 438.7 431.7 420.3 415.5 400.5 386.3 378.6 367.1 357.8 353.3 356.1 360.6 362.6 365.5 364.8 361.6 361.5 365 368.4 374.3 380.6 382.3 380.9 381.1 380.2 383.9 385.9 385.5 393 399.8 397.6 396 405.5 414.3 422.2 427.5 429.5 430.3 431.9 434.9 439.6 446.6 451.1 452.1 442 423.3 402.7 382.2 370.7 363.1 355.7 347.6 340.9 336 327.9 319.2 309.9 299.4 289.6 280.6 273.2 263.1 256.2 248.1 240.5 234.8 229.6 223.6 222 217.2 212.5 207 201.5 198.5 195.8 193.8 194.4 193.1 193.1 193.8 193.2 192.6 192.8 192.3 195.8 199.7 202.2 208.5 211.6 213.8 213.9 216.3 219.4 217.8 212.4 205.5 201.4 201.6 201.2 202.6 202.3 194.2 190 188.2 174.9 172.5 172.5 174.7 176.6 179.1 181.2 180.8 182.9 184.6 184.2 189 197.5 200 203.8 209.4 217.3 229.4 239.3 247.8 249.9 251 254.9 261.1 267.3 275.2 279.3 282.6 286 290.6 293.7 297 297.6 298.5 299.1 299.7 301 303 304.5 306.7 309.4 314 316.5 317.6 318.3 319.4 324.9 331.7 340.7 349.8 355 360.9 367.7 370.2 370.9 373.9 376.8 372.6 356.9 352.1 363.6 371.7 371.7 368.6 358 343.4 336.6 339.9 342.6 352.2 358.6 366.3 373.5 384.8 393.7
466.9 473.2 486.6 489.6 475.1 453.8 459.6 465.1 462.7 459.7 455.7 459.9 453.3 452.1 461.2 461.7 463.3 451.3 440.2 433.2 445.3 446.2 441.7 428.9 419.5 407.1 392.8 385.3 374.2 358.9 350.2 345.6 348.3 353.7 353.4 353.8 350.7 350.7 353.7 357 361.6 366.1 371.5 369.2 367.2 367.1 367.3 368.3 371.5 377.5 382.7 381.2 385.3 395.7 403.8 411.3 418.3 423.6 425.2 425 428 431.3 439.2 444.7 440.8 435.6 420.5 404.5 396.7 384.8 376.7 368.6 360.3 354.1 349.8 343.8 335.7 327.3 316.9 308.9 299.2 290.1 280 270.3 262.4 255.1 250.5 245.1 239.8 236.4 229.7 225 222.7 218.1 212.1 205.8 203.2 198.7 194.3 193.4 192.7 192.5 192 192.6 195.6 198.1 200.3 201.9 208.1 214.7 218.9 219.9 219.3 221.4 224.2 223.1 217.4 206.8 199.4 198.3 196.3 195.7 194.8 192.1 189 181.5 169.2 170.3 170.6 173.6 177.2 177.9 179.8 181.2 182 177.7 185.9 196 200.6 203.3 206.8 211.6 221.2 233.7 241.8 248.3 247.4 251.4 257.8 265.9 272.7 276.1 279.6 283.6 287.4 291 295.7 297.2 297.9 299.4 299.3 301.3 302.1 303.5 305.6 309 312.4 315.4 316.8 317.7 318.3 318.5 322.4 329 342.2 352.8 362.6 371.5 376.6 378.2 380 380.7 375.6 367.6 350.8 352.2 357.2 360.6 362.4 352.7 340.3 329 329.2 334.6 343.6 354.3 361.7 367.5 377.6 388.3
