ncols 200
nrows 82
xllcorner 190000
yllcorner 722600
cellsize 50
145 142.7 144.3 148.2 153.5 154.9 163.8 176.5 188.1 186.1 189.4 192.3 172 155 168.7 171.9 174.2 162.1 153.1 139.5 128 118.6 118.9 119.3 129.8 139.7 153.3 153.9 153.9 148.7 146.8 144.7 141.8 138.5 138.5 141.7 151.8 174.8 192.4 201.1 207.3 209.3 232.6 251.6 238.7 215.1 208.6 207.8 199.4 203.8 200.3 211.1 221.8 235.5 251 256.2 253.8 257.1 258 251.4 244.2 247.3 234.5 228.2 232.3 246.4 264.1 264 258.8 264.9 277.9 281.3 277.9 269.9 266.8 254.6 245.8 233.1 243.7 250.1 250.3 262.7 278.3 296 311.7 330.8 331.8 329.7 332.3 337 340.5 342.8 344.3 354.1 367.8 368.8 362.1 371.5 379.5 388.5 396.4 402.6 416.1 421.4 417 407 402.8 398.3 392.3 394.1 395.7 399.1 391.6 388.1 378.1 385.2 385.9 384.4 378.5 373.8 368.6 374.2 378.3 377.9 377.6 388.8 381.1 385.8 389.6 392.2 397.5 403.4 419 408.3 400.6 399.5 407.5 409 412.7 414.1 412.4 408.9 390.4 377 374.4 376.2 380.9 370.3 364.3 348.6 347.5 347.7 346.2 356.5 357.1 347.7 345.4 351.6 331.9 324.6 324.7 331.6 347.5 354 349.1 342.5 333.2 335.7 337.6 332.6 335.1 332.9 328.8 328.1 324.6 323.2 323.9 339.3 338 343.3 338.7 343 341 342.8 356.8 359 361.9 368 371.2 370 364.4 346.6 341.1 334.5 316.8 308.7 299.1 292.6 293.8 281.8
149.9 149 154.4 163.9 160.4 157.7 162.4 175.7 179.7 182.3 186.8 193.4 169 154.2 154.6 160.9 165.1 154.5 134.8 122.5 128.1 125.9 123.1 126 131.6 152.8 160.8 162.4 162.6 156.6 153.2 146.6 145.2 140.7 139.5 143.1 159.3 177.6 192.7 201.9 208.5 215.3 237.6 243.9 236.6 212.8 211.1 213.2 201.7 203.5 205.3 210.6 217.4 233.5 246.7 256.4 256 260.6 270.6 258 250.9 248.7 244.2 238.8 235.4 250.3 245.6 255 265.7 273.9 274.5 277.1 275.7 270.1 254.9 240.7 248.1 253.6 267 271.9 281.7 285.1 302 308.8 314.7 321.1 341.9 337.3 336.4 342 352.3 359.5 367.5 376.5 376.8 374.5 373.5 382.6 388.8 396.7 401.5 402.8 411.7 411 401.4 389 385.7 394.7 400 402.2 399.4 406.4 398.8 400.3 396.5 390.5 383.9 376.2 372.6 370.2 375.1 387.6 388 395.5 402.9 393.5 389.8 389.1 390.7 392.4 400.9 405.5 413.1 414.6 408.7 410.3 414 415.7 420.6 423.8 419.3 409.2 394.2 383.1 383.1 389.3 392.6 381.5 375.6 369.6 353.4 358.9 370.8 375.4 361.6 347.6 345.6 348.8 348.3 328.8 329.2 324 334 346.2 342.2 338 336.6 338.5 339 331.6 332.1 325.5 324.3 323.5 326.2 326.7 325.4 326.2 331.5 344.3 342.9 337.3 339.2 339.2 355.2 365.7 371.6 370.6 368.1 366.9 348.2 333.7 329.1 327.7 337.8 336.9 312 293.7 282.3 277.8
157.5 157.8 166.2 173.5 168 164.1 165.7 176.8 178.2 178.2 181.4 185.2 171 153.7 152.6 155 147.5 130.6 132.7 135 149.1 151.4 138.4 140 133.7 159.6 170.3 178 173.1 162.8 158.4 150.1 148.5 146.4 141.6 144.2 163.7 177.7 186.1 194.3 201.4 211.6 230.3 236.8 226.1 215.4 211.7 212.4 203.1 211 210.1 216.3 214.6 230.2 238.5 256.9 259.4 264.3 278.9 263.7 253.2 249.3 249.9 247.2 247.7 256 258.4 258.6 264.6 271 276 275.9 270.1 254.2 256.2 261.5 264.5 280.3 308.6 319.1 322.3 314.7 323.1 344.1 345.8 341 341.5 344.2 348.6 357 361.4 370 380.7 386.7 381.4 375.8 377.7 386.6 393.5 397.3 396.8 390 389 386.9 381.4 383.4 393.6 395.5 406.2 406.5 407.2 405.6 404.1 408.1 404.3 399.9 399 386.9 375 374.2 386.6 398.1 411.3 419.1 410.9 396.2 405.5 399.2 403.7 409.5 415.6 418.2 430.2 425.3 417.4 428.5 427.9 425.4 430.6 428.9 420.2 408.3 399.8 405 402.1 400.8 400.7 391.6 386.3 372.9 357.7 371.2 386.9 387.8 372.9 353.4 350.4 346.8 351.8 348.8 333.4 331.4 325.3 341.6 339.9 344.1 340.3 339.1 339.3 333.2 323.3 322.1 324 325 330.1 336.9 330.3 335.1 330.7 336.5 342.6 335.5 333.7 336.7 353.1 363 372.4 369.6 361 351.3 340.1 330.7 327.7 343.6 342.6 334.9 331.9 321.7 284.3 275.8
174.9 162.9 167.8 177.5 175.5 169.6 170.2 177.2 180.2 178.3 178.7 179.9 170.7 153.4 149.3 137.2 141.1 142.5 144.1 151.5 159.4 159.9 146.7 141.3 139.8 161.6 175.3 184.8 180.5 169.9 160.2 154.4 150 147.1 145 151.5 159.8 164.1 173.6 190 204 201.4 212.2 216.6 223.9 213.3 215.4 209.2 207 213.2 215.6 220.6 218.5 224.8 235.3 258.1 265 272.2 276.2 266.6 252.1 251.3 254 256.9 261 266.1 269.7 266 271.4 270.1 271.6 271.2 260.2 262.2 265.5 273 283.7 309.8 330.1 345.3 336.9 334.8 341.6 357.1 357.6 358.8 359.6 359.4 359.8 365.8 369.9 382.4 389.8 382.9 379.4 377.8 379.6 386.8 382.9 378.9 372.4 370.8 384.5 382.4 389 397.1 409 413.9 410.1 415.6 414.5 422.1 415.9 415.2 408.6 403 399.6 385.5 396.6 400.2 393.4 407 421.2 427.3 415.1 411.2 404.4 408.1 417.3 431 432.7 441.2 441 429.9 428.8 436.4 434.6 434.3 437.9 430.5 420.2 416.7 418.2 417.2 413.9 403.5 405.6 401.7 391.6 374 370.3 374.7 383.2 388.9 380.1 364.6 352.2 348.1 348.7 354.4 358.5 344.3 333.5 329.3 342.3 341.3 340.7 340.6 344.8 338.8 325.9 320.1 323 332.4 333.3 335.1 330.6 329 328 335.4 336.4 338 339.2 329.2 341.2 350.4 353.4 343.7 348.5 344.2 334.9 330.8 347.9 345.8 339.5 334.4 330.2 322.4 309.3 277.4
183.6 172.6 171.1 177.6 182.4 183.7 178.4 177.7 182.6 182.3 183.6 175.3 165.1 151.2 136 146.2 144.6 148.6 151.8 168.2 177.9 171.2 153.3 143.8 142.5 159.1 177.9 186.1 182.7 175.6 165.4 158.8 153.3 152.8 151.6 160 172.7 174.4 179.2 194.1 207.6 206.7 202 207.9 206.6 208.3 210.9 210.1 209.9 218.9 226.2 229.1 222.1 223.6 246.2 272.1 270.3 273.1 278.9 277.9 269.1 256.6 254.3 260 269.5 270.2 276.7 275 273.7 266.3 263.7 264.8 267.5 273 277.4 287.5 299.9 326 344.5 354.7 362.3 362.5 364 361.4 366 370.9 367.5 369.3 370.8 375.8 382.2 386.7 384.7 381.5 380.4 377 362.6 362.6 362.6 362.7 369.3 378.9 388.6 396 408.9 419.6 420.2 421.3 414.8 419.2 428 428.5 421.7 417.2 404.3 400.6 402.2 413.3 416.2 428 427.5 424.4 422 418.4 413.2 421.2 420.6 424.9 435.1 438.8 445.8 445.4 439.7 436.2 434.9 438.3 437 438.7 434.3 429.6 416.8 426.8 425.7 421.7 415.5 412.6 410.5 405.2 384.2 382.5 376 369.3 372.9 379 382.6 370.8 360.5 352.2 350.7 360.1 367.5 359.7 360.7 337.6 336.5 345 341.1 340.1 341.1 336 325.6 321.3 327.3 334.9 334.6 335.3 331.9 325.1 325.1 330.6 340.3 338.2 335.4 333.7 328.8 345.9 348 341.3 336 332.6 332.1 330.6 343.1 343.3 340 336.4 330.4 324.9 313.1 300.1
189.1 179 178.1 176.9 186 183.6 180.9 183.6 189.7 184.9 175.5 160.7 146.8 140.1 148.9 150 150.1 160.5 166.9 186.8 191.5 182.6 170.5 155.4 152.4 159.8 181.5 189.1 187.6 180.6 167.9 162.6 160.4 158.5 159.7 173 186.3 188.6 191.2 188.6 204.8 209.7 205.6 202.9 205.6 204.7 208.6 210.7 212.2 229.5 237.1 233.5 229.7 234.7 255.7 270 269.4 268.3 280.5 283.9 276.3 259.3 259.1 268.1 280.1 275.9 278.2 272.6 268.8 264 266.7 274.3 282.5 289.4 295.3 302.2 320.3 335.2 352.2 366.3 377.2 378.1 375.2 379.3 377 378.1 383.1 386.9 386.6 392 389 384.5 383.4 382 376.5 363.3 362.6 362.6 367.2 376.3 389.9 401.1 407.5 414.5 422 420 420.4 418.9 420 431.1 434.4 436.5 415.4 408.7 406.6 405.1 421.9 432.5 441.7 451.1 451.2 453.2 452.3 438.4 418.6 424.8 438.2 442.7 445.3 452.7 452.4 449.7 443.2 433.4 431.9 438.7 441.6 438.9 432.7 422.4 419.4 430.2 431.7 429.8 429.4 420.9 415.9 395.1 394.1 388 391.7 390.1 370.2 371.6 383.6 377.5 369.4 359.9 359.1 356.3 372.6 363.4 374.9 368 336.3 342.2 345.2 335.2 338.5 330.2 323.4 319.1 331.5 336 335.6 335 329.8 324 321.2 321.2 328.1 335.1 326 327.5 326.4 333 341.8 344.6 336.9 331.1 331.1 331.2 335.9 337.4 335.1 337.5 329.5 327.5 316.5 312.7
192.1 188.7 179.1 178.8 178.6 175 174.7 178.8 180.1 172.6 158.3 146.9 147.9 146.7 151.1 160.3 162.3 164.4 183.2 190.7 189.8 184.7 181.8 164.3 154.7 158.8 186.7 195.4 191.2 182.9 174.2 170.5 168.6 164.4 173.8 185.5 201.3 202.3 200.2 193.6 195.5 207.6 205.1 202.8 202.8 203.7 211.4 217.3 214.7 234.4 236.6 233.2 231.3 237.6 250.5 262.9 265.9 267.9 278 283 270.8 260.8 265.3 270.4 274.6 279.5 276.8 270 266 270.5 284.6 308.5 312.4 315.1 311.5 319 335.4 341.8 358.8 377.8 391.2 382.5 382.3 385.8 385 393.7 392.9 394.9 397.9 391.8 383.7 376.9 378.2 376.3 372.5 362.6 362.6 369.5 389.4 403.7 417.5 417.5 420.7 423.6 419.5 421.7 420.2 419.9 430.1 434.4 434 421.8 420.2 425.3 421.7 415.6 431.1 450.7 459.9 462.1 464 466.2 463.1 448 424.1 440.5 448.5 450.7 459.1 472.6 464 457.9 448.8 437.9 437.5 446 447.2 439.1 428.6 420.7 424.7 435.8 437.6 439.9 432.3 421.5 410 400.8 402.1 401.8 396.5 392 385.4 371.1 372.2 377.6 373.8 365 362 357.5 366.6 364 362.4 370.1 352.7 332 338.3 330.5 330.9 329.1 327.3 319.3 331.9 337.6 335.4 331.1 327.5 322.8 320.9 319.4 320.8 321.5 322 322.9 324.3 333.7 337 338.4 336.3 332 331.2 346.6 350.3 351.4 336.8 333 323.4 323.6 316.1 306.9
193.6 190.9 181.7 179.2 174.3 173.7 173.1 171.3 166.3 154.5 150.2 150.7 147.5 149.3 163.3 174.6 179.4 180.2 179.5 195.5 195.4 189 186.2 172.8 161.4 164.6 190.9 197.7 198.7 191.2 185.8 176.7 174.8 178.6 185.1 198.6 211.7 209.3 204.8 199.3 194.4 208.3 207 204.2 202.9 203.6 209 215.9 219.4 226.4 228.6 231.4 233.5 238.2 249.7 261.2 266.9 273.6 269.5 267 263.2 267.4 273.1 276.5 281.5 277.1 272.7 267.4 268.4 281.1 311.9 326.2 329.5 334.4 337.4 341.6 338.9 355.1 369.2 388.1 391 392.2 386.5 396.3 397.3 397.7 391.9 387.7 385.4 373.5 374.4 379.8 384.5 374.1 367.8 362.6 378.6 399.2 409.7 425.4 424.8 423.4 429.7 430.8 421.7 418.4 419.3 426.4 433.4 433.5 426.5 433.5 436.3 436.3 433.6 431.3 426.4 443.4 457 461.2 466.6 472.9 463.2 456.8 439.9 449 457.2 463.3 467.5 481.4 481.4 470.9 462.3 449.3 446.1 451 447 434.5 423.9 429 434.3 438 443.4 445.4 425.8 409.6 406 411.9 408.1 403.3 397.1 391.9 391.2 381.2 371.4 374.1 376.8 371.4 364.7 354.7 352.7 356.1 352.9 361.1 355.6 335.1 331.2 328.1 327.5 326.8 332.7 324.5 325.8 337.8 334.9 328.9 325.5 323.7 316.7 319.3 325.8 330.3 333 327.2 326.3 325.4 332.1 335 331.7 335 354.8 359 356.6 353.1 346 340 333.9 318.3 311.3 303.3
199.5 195.5 184.6 180 173.8 173.5 168.6 161.3 152 154.8 152.5 150.9 158.3 159.6 170.8 184.5 203 206.5 204.2 194.8 199.7 193.6 193.9 183.3 162 172.3 201.4 211.1 202.2 196.8 193 184.2 183.2 182 186.4 199.1 211 212.3 202.9 198.8 201.3 208.3 213.4 214.2 205 204.4 207.8 214 219.8 221.7 228.7 235.8 237.2 244.1 252.6 262.2 269 260.7 268.6 267.1 272.8 278.4 279.7 285.6 282.7 277.8 270.2 275.9 274.3 291.9 318.3 343.3 342.3 339.5 350.1 356.5 362.6 365.1 372.7 387.3 396.1 402.1 394 398.3 392.5 385.5 377.3 371.2 372.6 377.1 375.5 372.1 364.9 362.6 362.6 375.9 399.8 412.8 415.7 421.4 428.1 429 436.4 427.4 423.3 416.4 422.7 427.5 425.3 426.7 427.2 431.2 435.8 441 443.3 446 439.8 445.4 457.3 467.9 471 469.6 464 451.5 454.6 458.9 465 480 481.5 492.8 486.3 484.6 474.8 459.2 454.4 451.3 445 428.5 425.9 435.2 442.6 446.1 449.8 438.7 413.8 413 410.8 413.3 408 406.5 399.1 401.3 396.7 384.2 376.5 375.3 378.2 377.8 366.1 357.6 346 347.7 343 346.4 349.1 341.4 334.1 330.6 325.9 325.9 328 328.2 319.3 333.5 321.4 327.1 319.9 316.8 314.3 327.5 331.7 330.7 336.3 333.6 331.2 325 322.5 327.5 329 348.1 366.6 362.2 354.7 352 349.3 341.1 337.2 325.6 300.5 292.8
209.5 199.6 190.6 182.4 174.9 172.1 161 160.2 162.9 157.6 157.1 163.2 171 172.2 174.2 198.8 211.7 210.1 209 208.3 205.7 198.1 196.8 188.7 166.5 179 206 213.1 207.7 200 196.4 190.6 187.8 186.7 186.2 193.3 196.5 200.2 200.8 200.4 202.3 208.5 212.4 214.6 204.1 205.5 209.8 212.9 218.4 221.1 228.4 242.4 247 247.5 249 252.2 258.2 273 273 276.6 283.2 287.2 288 287.3 280.6 278.4 277.9 279.5 279.2 287.1 308.9 327.4 340.1 360.8 363 367.9 376.4 377.1 379.7 390.2 399.4 400.9 390.6 378.9 382.9 373.4 365.9 368.5 374 368.4 369.3 362.6 362.6 362.6 378 387.5 400.1 405.3 414.1 427.1 434.3 429.6 432 425.6 415.8 409.6 406.9 406.5 411.9 429.3 432.3 429.1 443.6 452.3 450.5 450.3 459 461.8 471.3 470.4 476.4 472.4 468.8 459.1 466.4 469.9 480.7 489 488.5 488.4 493.2 490.7 487.4 468.9 460.7 451.6 435.2 428.1 427.5 445 452.9 450.4 437.4 417.9 419.3 416.3 413.4 416.6 414 411.8 410 402.4 398.6 390.9 390.4 385.7 373.8 373.3 367.9 365.3 355.7 340.6 337.6 335 335.5 337.4 337.5 329.3 323.5 324.7 322 323.2 308.9 325.4 321.2 316.7 313.8 313.4 317.2 322.8 326.6 329 335 334.6 332.3 327.9 322.5 322.5 327.7 346.4 366 360.9 355.1 348.4 346 335.6 319.3 301.2 294.6 291.2
203.2 201.6 194.1 178 165.4 157.8 167.3 161.8 159.8 157.9 162.8 169.8 176.5 189 185.4 222.6 215.8 216.4 222.2 218.3 214.3 201.8 201.8 191.2 169.2 182.8 204 214.8 211.4 206.2 203.5 200.6 193.1 191.7 188.3 191.9 195.4 197.8 202 205.7 206.1 211.4 211 205.8 205.9 213.5 219.5 219.5 223.4 223.7 228.9 234.9 238.7 250 263.1 272.9 280.9 276.6 278.4 284.6 287.9 294.1 289.5 280.3 280.8 289.7 287.7 285.3 283.8 290.2 306.5 332.6 356.2 354.2 356.5 362.5 374.1 377.7 385.5 395.6 398.6 394.8 370.6 367.4 361.6 362.4 361.3 362.4 361.9 365.8 368.7 365.6 366.6 377.6 386.4 386.3 395.3 402.3 416.4 422.4 432.3 423.8 420 410.1 409.8 398.8 404.3 410.3 414.7 434.9 443.5 443.5 461.1 467.5 467.1 470.5 476.1 481.3 482.3 486.6 484.3 474.8 469.4 467.9 477.2 475.2 484.6 486.4 488.4 495.7 495.8 492.1 479.3 470.1 463.3 447.6 428.9 426.6 429.4 443.6 450.1 439.7 422.1 427.3 422.6 418.9 418.2 420.1 416.8 423.1 418.5 406 403.6 402.3 401.6 401.7 394.5 371 364.9 364.5 357.2 346.8 340.5 333.8 329.7 336 339.6 331 321.2 323.1 317.2 316.4 310.3 308.6 307.1 312.6 305.9 314 318.7 320.5 323.3 329 332.7 332.5 332.8 330.4 322.5 322.5 324.3 345.6 360.4 361.8 356.4 347.6 327.8 317.4 306.6 300 294.1 287.9
200.9 199.2 193.3 170.3 160.7 165.2 166.2 166.7 168.5 168 172.1 179.7 181.4 190.4 197.6 221.7 223.9 222.7 228.5 225.3 218.9 209 204.2 193.7 175 187.5 202.9 210.4 212.7 213.5 206.9 204.9 203.4 193.8 191.8 195.7 199.1 200.1 204.7 212.4 212.2 212.5 212 208 216.5 220.5 222.6 223.2 223.2 226.4 233.8 239.3 257 268.6 281.9 288 286 280.7 292 291.9 294.7 294.1 283.5 278.1 290.4 294.2 294.4 293 297.1 300.8 318.6 347.2 369.5 367.1 365.9 366.5 374.4 381.7 385.2 388.3 374.9 365.3 354.5 355.7 360.6 364.8 370 368.5 373.3 372.4 372.3 372.7 379.8 381.9 392.4 390.9 391.5 404.7 411.1 412.6 414.4 405.2 397.6 399.9 392.7 401.5 402.8 409.5 413.3 439 451.3 459 471.5 477.7 482.3 484 488.8 490.5 483.3 486.9 487.2 478.8 470.2 476.5 482.9 479.8 486.1 488 492.1 491.5 495.1 492.1 475.1 469.5 453.3 434.7 425.2 424.8 427 440 438.4 420.5 426.5 431.8 425.2 424.3 421.2 419.2 421.3 422.4 417.8 414.4 414.7 417.7 427.6 420 404.4 379.2 362.3 360.7 356.5 346.8 343.8 334.2 329.9 328.6 345.5 333.1 318.2 314.7 313.9 310.4 306.5 303.2 301.3 303.3 305.1 309.1 317.6 318 318.6 328.8 332.8 332.3 332.3 332.2 324.8 334.6 337.1 344.2 354.9 356 353.2 335.5 323.3 311.4 303.5 301.2 294.4 290.1
197.9 194.4 182.7 167 163.6 165.4 165.3 168.1 169.6 174.9 178.9 186.1 183.7 193.5 199.8 218.5 236.2 231.1 232.2 233.1 223.1 217.3 202.8 197.4 177.3 186.3 196.9 212.7 215.5 216.6 212.3 208.6 209 198.4 200.7 206.8 205.8 205.3 210.7 217 215 215.2 213.5 213 218.9 221.4 219.4 224.6 233.3 233.1 238.6 252.2 263.4 274.6 287.1 289.3 281.1 292.2 298.9 298.6 294.4 283.6 276.7 281.4 295.9 297.8 302.4 306.3 308.3 306.8 322.6 359.3 364.1 374.6 375.5 383.5 390 390.5 381.2 365.1 353.8 351.3 355.2 360.4 361.2 376.2 378.2 375.9 375.6 378.9 381.7 379.5 386.2 392.6 392.9 389.8 391 400.6 403.8 392.9 382 380.2 384.5 392.1 394.8 394.6 398.5 406 423.3 445.4 455.6 468.8 474.3 483 490.6 488.7 490.9 490.3 491 486.5 482.3 472.9 471.4 476.2 480.8 477.8 481 495.5 501.5 493.6 486.3 471.8 467.7 465.2 445.8 426.8 422.4 422.6 427.3 427.4 421.3 420.5 434 433 428.1 425.1 422.8 431.5 425.7 426.4 425.6 415.2 413.6 423.5 430.1 425.4 416.5 402.3 383.5 357.5 352.1 346.4 342.8 342.3 335.7 327 328.5 329 317.7 321.8 316.9 310.4 301.6 302.2 296 299.4 304.6 312.4 319 314.6 316.2 321.8 328.6 330.9 331 330.6 328.8 344.5 362.7 358.4 360 353.2 337.9 330.7 320.4 309.2 307.3 297.5 293.3 287.4
192.3 183.7 184 175 173.9 168.7 167.1 173 173.2 180.6 182.2 183.9 184.8 191.7 201 220.4 237.7 238.5 236.7 237 224.1 212.3 204.1 196.5 186.2 183.9 192.2 211.9 217.2 219 215.6 210 207.7 207.3 209.3 212 212.3 213.3 217.9 219.3 219.9 217.7 213.9 213.7 215.8 220.3 226.6 234 238.2 240.4 241.4 252.8 261.1 266.8 274.1 276 282.6 290.9 296.4 292.9 281 276.7 276.7 292.4 299.4 304.6 311.1 309.2 317.9 316.5 335.8 355.4 364.4 382.3 385.2 386.8 389.5 385.2 366.5 353.7 350.9 361.3 361.1 364.1 363 376.8 376.4 379 382.9 389.5 387.7 382.4 384 385.1 384.8 386.3 390.5 386.6 378.3 378.3 378.3 379.4 386.6 390.2 402.7 409.3 408.8 420.9 441.8 453 471.4 478.5 482.7 491.2 498.2 498.4 496.4 495.7 489.4 486.7 471 464.9 469.8 473.9 473.4 473.7 480.3 489.9 492.4 487.8 466.8 454 461.2 452.2 433.8 424.9 421.3 420.5 420.8 419.8 424.9 433.8 433.5 430.3 432.7 428.4 430.9 433.9 425.8 424.6 425.3 427.6 419.1 419.3 432.5 430.5 422 413.1 396.8 384.5 359.4 357.4 349.6 347.6 348.3 340.4 327 322.9 322.7 329.3 323.6 314.9 307.5 297.4 294.4 295.6 308.4 308.6 313.3 313.1 316.9 324 324.9 327.9 327 327.3 334 354.8 363.8 361.4 346.4 338.5 332.7 325.7 316 308.1 299.3 296 292.6 283.7
186.7 184 183.8 181.2 172.7 169.5 168.8 174.4 177.9 183.3 187.7 183.5 185 191.7 200.5 214 232.7 242.2 243.4 240.5 229.9 216.3 208.8 196.7 192.8 186.4 187.2 206.5 212.5 213.7 216 212.7 210 216.6 215.8 216.7 216.4 219.2 222.1 222.4 220.2 217.3 215.2 214.3 219.6 228.9 229.1 234.8 241.7 247.9 249.6 260.6 264.6 266.7 268.8 280.2 285.6 287.4 287.2 288.7 276.7 276.7 281.9 297.6 303.7 316 314 312.7 318.8 321.4 334.8 345.6 365.7 375.4 373.8 372.4 368.1 358.8 353.6 343.6 354.7 365.2 366.1 365.6 375.1 376.8 379.8 393.2 398.8 392.7 389.7 390.9 385.8 382.4 377.1 377.1 383.3 378.3 378.3 378.3 378.3 381.4 393.7 396.8 408.6 412.1 419.4 438.8 446.8 462.1 480.3 488.3 497.6 507 513.4 511.7 498.7 493.6 490.1 482.1 471.8 464.5 470 474.5 467.4 468 469.1 474.1 481.2 468.8 449.9 450.4 453.1 442.9 429.6 423.9 418.1 419.5 417.8 419.7 432.1 432.2 431.2 432.3 432.1 435.7 440.9 449.9 449.2 426.1 426.4 432.2 423.3 423.1 430.9 428 420 413.9 406.7 389.3 366.4 381.2 373.6 350.8 354.6 352.1 336.5 333.2 321.9 332.5 326.9 322.7 309.8 304.4 296.1 291.7 304.4 306.7 313.4 311.8 313.9 321.9 323.4 323.7 322.1 326.7 328.9 350.9 359.5 356.7 350.3 332.9 329.7 321.2 312.1 302.4 297.6 293.2 287 281.7
187.3 181.6 181.7 180.9 172.1 169.2 171.6 175.3 178.2 183.6 188.1 187.5 184.3 188.6 200.8 209.9 224.6 233.8 242.8 242.3 233 222.9 214.5 198.3 202.4 196.6 187.9 202.9 210.5 210.2 209 211.8 213 218 217.2 218.3 218.6 219.6 223 223.8 223.4 224.6 216.7 214.3 219.8 221.3 233.9 246.1 251.5 253.1 255.2 266.4 269.7 267.1 271.6 278.8 280.5 282.4 288.8 282.1 276.7 279.5 298.3 304.6 311.2 320.9 325 318.3 324 325.1 329.3 338.1 336.7 338.9 345 350.5 348.8 349.3 343.4 357.4 361.7 365.6 369.9 368.6 378.8 385.2 397.3 402.8 394.6 393 396.3 388 383.2 377.1 377.1 383.9 386.2 378.3 378.3 378.3 388.7 403.4 407.8 416.9 411.1 417.5 437.5 446.1 454.8 473.8 484.3 494.5 506.8 513.2 511.8 510.3 499.8 497.4 484.9 476.8 470.4 460.1 464.8 470.1 466.2 463.3 462 469.6 463.2 447.7 441.5 445.3 435.8 429.7 427.3 418.4 413.4 418.8 419.8 424.4 428.1 434.2 432 430.9 434.3 437 440.2 457.2 449 439.6 427.6 431.9 424.2 422.8 427.1 420.7 422.4 414.6 407.7 394.8 385.4 391.8 387.2 376.8 356.5 352.2 345.6 332.4 323.7 332 331.6 328.6 322.9 311.1 305.2 291.3 292.5 302.2 310.5 311.3 315.3 320.6 323.3 328 319.8 316.3 315.5 340.5 349.1 349.2 331.5 324.4 318 309.6 301 296.4 293.6 291.2 286.5 280.3
190.9 184 179 179.1 172.6 178.2 179.7 178.6 183.7 189.2 190.6 189.4 187.2 189.6 197.4 203.6 213.6 227.9 236.8 242 239.4 230.1 214.4 205.9 210.6 204.6 193.9 194.9 203.5 207.1 208.4 210.9 216.7 224 221.9 224.3 225.7 223 226.6 227.8 226.2 222.2 216.3 214.6 215.6 226.7 239.5 248.4 256.3 255.7 261.5 263.6 263.8 265.7 270.3 275.6 282 286 284.2 276.7 276.7 295.4 306.6 308.9 323.7 327.3 326.8 326.3 331.7 321.1 322.3 326.9 332.2 335 342.4 340.3 340.1 332.8 352.9 363.5 366.4 372.1 372.4 375.6 379.4 393.8 397.2 395.5 385 389.5 393.9 388.2 382.2 377.1 380 395.5 384.5 383.4 382 397.3 403.6 403.7 408.8 422 416.3 440.8 457.2 459.6 464.3 482.1 493.1 494.3 508 510.6 510.4 503.8 500.7 489.7 478.8 469.4 466.8 455.1 442.3 457.5 466.6 458.6 454.4 452.3 445.5 439.1 434.8 429.5 424.2 423.7 417.4 411.7 417.7 422.7 422.8 426.9 435.9 430.1 426.3 430.8 428.4 424.4 439.3 447.5 452.9 449.5 438.3 430.8 424.9 419.1 417.3 417.7 419.3 416.4 409.9 398.9 397.7 395.3 387.4 381.3 361 345.6 345.2 333.1 326.1 334.7 336.5 336.4 325.9 315.8 313.2 294.1 292.1 305.5 309.5 314.7 319.3 324.8 323.3 325.9 316.3 314.1 313.6 325.1 330.9 329 322.7 316.9 316.5 306.4 295.6 289 288.6 282.3 281.9 279.4
183.9 182.2 179.8 180.1 176.3 181.6 182.6 181.2 189.4 191.5 196.4 192.3 190.8 191.7 198.5 205.5 210.6 229.2 237 242.4 240.7 231.5 215.6 208 209.4 208 206.3 192.3 197 203.1 208.8 213.7 222.6 225.3 224.8 227.6 228.6 228.9 227.4 224.9 224.8 218.4 216 216 223.7 234.9 243.4 247.4 253.3 259.2 262.7 261.3 263.1 264.3 271.4 281.4 285.4 285.2 280 289.9 287.4 300.4 299 307.8 316 315 317.6 325.1 314.7 329.2 340.1 338.3 336.3 339.3 335.8 331.6 330.4 351.9 368.7 374.1 370 368.6 375.3 383.9 383.5 394.7 391.1 384.8 387.6 393.7 390 380.1 382.9 388.6 387.6 386 386.6 385.1 385.1 395.9 407.4 416.2 424.9 419.3 419.4 451 460.8 462.6 469.2 487.1 497.7 497.3 503.9 505.7 504.6 507.9 491.4 483.4 473.9 460.1 454.4 453.1 434.1 436.5 449.7 446.1 436.3 435.2 423.4 426.7 424.2 417.4 415.2 417 409.7 413.6 412.6 414.1 419.6 430.6 430.5 421.9 421.9 426.9 420.4 423.8 439.3 448.5 449 456.3 450.2 429.8 423.2 419 414.3 413.4 418 415 411.5 399 397.7 398.4 394.6 390.1 374.8 345.2 338 332.7 327.6 335.1 342.8 347.1 339.4 322.9 317.6 304.1 290.2 309.5 311.8 314 319.1 326.6 328.8 320.6 315.3 313.9 314 324.6 327.7 328.1 326.5 323.5 319 304.7 292.8 289.1 283.9 280.1 278.4 277.5
183.6 182.4 181.7 181.1 180.5 181.7 183.4 185.3 194.7 201.7 200 195.4 194.6 194.6 201.9 213.3 220.4 227.5 238.5 242.8 244.5 237.8 216.8 208.6 207.7 207.9 207.1 199.1 192.2 199.1 209.5 219 227.3 227.1 228.3 227.7 225.1 225.2 225.3 225.5 229.2 225.9 227 226.2 236.5 234.1 249.4 249.2 251.1 260.1 260.6 264.1 263.2 268.5 279.6 282.1 286.3 287.4 296.8 298.5 296 294.9 296.9 296 305.7 302 302 305.2 314.6 335.4 341.8 336.5 335.6 332.6 323.8 323.7 353.7 365.2 373 372 370.2 369.7 381.5 389.9 386.5 387.2 375.5 376.9 386.5 381.9 374.6 384.5 398.4 401.3 398.1 392.5 391.7 389.7 399.1 410.8 408.8 429.6 421.1 419.1 431.3 456.8 468.6 473.8 485.4 493.8 501.8 494.6 493.2 508.3 510.9 502.4 488.3 478.8 470.1 462.1 451.1 441.7 431.1 416 425.4 424.9 423.8 414.7 418.7 418.3 411.8 411.1 408.2 413.1 412.8 415.4 412.3 413.7 420.3 427.7 421.3 418.6 423.6 420.4 418.3 438.5 444.4 452.2 453.2 456.2 450.3 444.4 433.9 419 415.4 411.8 411.7 411.1 409.9 402.9 404.7 406 397 389.3 375.9 354.2 338.9 334.9 330.8 329.7 338.6 351.7 346 332.4 316.9 307.4 291.9 304.5 311.8 314.2 321.4 329.1 329.4 319.4 316.9 312.5 315.3 327.5 326.6 323.9 322.2 317.9 307.7 300.1 293 289.6 285.6 281.6 273.8 274.4
185.6 183.2 182.4 183.1 184.8 187 192.5 195.4 202.5 211 204.3 203 206 204.9 206 211.1 219.7 229.6 239.9 247.6 239.6 236.4 219.3 209.3 205 202.6 199.5 197.4 194.6 194.7 207.7 218.2 220.1 224.8 226.8 220.9 225.3 230.2 231.6 236.5 237 240.1 233.5 231.8 233.1 233.4 246.6 253.1 251.1 253.4 262.2 259.4 267.4 269.2 272.9 276.3 282.5 290.2 295.7 294.4 300.9 289.4 288.3 287.4 287.5 294.3 301 308.4 310.3 321.5 327.1 326 322.3 317 316.6 345.9 366.1 369.3 369.8 370.1 368.8 374.6 379.1 381.7 375 373.2 372.4 373.1 380.1 373.9 386.3 390.1 406.6 419.3 419.6 401.6 401.7 405.1 418.6 413 416 417.2 422.9 443.9 451.2 469.8 478.1 480.3 492 504.4 499.7 493.2 500.8 509.4 497.8 484.1 477.3 466.7 470.1 467.7 448.2 441.8 424.1 410 394 411.8 399.5 407 411 404.7 403 398 405.3 415.2 416.8 413.2 414.1 414 417.1 425.2 419.3 418.3 419.1 416.6 425 450 453 450.2 448.7 450.4 447.6 437.1 435.8 430.2 425.2 413 414.2 413.2 412.8 411.7 404 402.2 394.5 384.5 384.5 366.7 342.3 333.2 327.7 322 333.8 353.1 345.5 332.9 317.1 310 295.4 300.1 311.4 317.7 325.8 326.5 323.4 311.9 310.1 311.1 311.7 314.3 318.5 315.8 312.9 309.4 303.7 301.8 293.9 293 282.1 275.9 271.6 265.7
190 188 185.5 188.6 188.8 189.4 199.1 198.5 201.3 208.2 205.5 208.6 218 224.1 209.1 211.7 217.6 221.5 233.7 244.3 238.4 235.4 220.3 220.6 207.6 207.2 200.1 195.2 193.8 194.9 205 210 212.8 215.9 220.9 228.2 233.6 232.8 238.7 240 238.6 238.5 239 236.9 232.5 230.3 238.3 244.5 247.7 252.1 258.4 261.8 265 269.9 266.1 275.3 276 283.8 286.4 286.8 287.3 281.9 288.2 283.8 288.3 296.4 301.8 307.6 308.2 307.2 302.8 307.3 318.4 327.4 342.4 352.2 359.8 366.3 369.8 369.5 367.7 374.3 374.1 365 351.2 364.7 370 363.4 381.6 397.8 404 416.3 422.3 430.1 435 410.2 404.4 425.5 421.6 426.9 441 444.7 442.9 459.1 465.8 475.5 486.7 483.9 498.7 497.7 498.9 495.3 481 476.3 479.3 474.4 460.9 455.5 464.2 449.6 442.6 451.6 426 412.1 398.4 387 392.1 395.1 394.9 390.8 390.5 401.8 405.6 405.5 411.2 401.1 408.5 408.8 417.9 416.4 421 419 413.3 415.6 448.3 446.9 445.4 441.6 450.5 448.3 439.5 433.1 430.5 433.7 429.1 419.9 417.5 411.2 410.2 407.4 405.1 400.9 389.1 383.4 377.3 365.1 349.4 329.2 324 318.7 334.4 346.2 341.4 334.1 319.9 313.7 296.3 298.9 319.4 320.6 322.7 316.6 313.4 305.4 307.2 307.2 308.9 313.2 313.6 311.2 310.3 308.2 308.4 300.3 290 283.5 278.3 276 266.8 259.8
195.1 194.5 187.5 190.2 192.5 195.8 199.4 201.2 200.5 206.5 206.2 210.2 219.6 235.7 223.2 211.8 219.5 221.8 228.2 237 242 233.2 223.9 229.6 209.9 207.3 201.4 194.1 195.6 191.3 197.7 209.7 220.9 229.6 228.4 229.6 232.6 238.7 242 245.1 239.5 238.8 236.5 235.4 231.8 227.9 229.4 239.9 250.2 255.3 264.8 260.3 269.3 258.8 257.1 267.1 270.5 275.4 278.6 282.3 277.6 273 274.4 284.5 299.2 301.8 305.2 307.8 301.1 299.9 316.4 325.3 332.9 332.3 343.7 349 357.9 365.4 367.5 364.2 364.5 369.3 363.5 349.8 348.6 357.7 355.3 373.4 385 404.6 414.5 425.3 439.3 442.4 431.1 422.6 428.3 432 448.3 457.4 465.3 464.7 463.5 467.9 467.6 481.1 488.4 488 496.8 494.1 482.1 465 465.2 464.3 469.5 460.2 449.5 439.6 434.4 431.5 425.6 426 409.4 401.7 389.5 376.6 385.2 385.4 386.3 381.1 394.7 396.8 403.1 399.1 395.4 398.4 396.1 400.3 406.1 419.4 419.1 412.7 415 435.6 438.7 439.3 437.3 436.5 438.9 435 431.9 425.5 425.6 424.1 416.5 414.9 416.3 414 405.9 403.8 404.1 395.1 392.3 385.7 383.9 372.6 348.5 329 325.6 316.7 324.9 341 338.1 327.2 316.3 312.4 297.7 290 307.8 307.5 301.3 298.3 298.6 298.7 307.9 308.9 306.2 306 308.7 309.2 307.6 306.8 309.9 299.1 287.1 281.4 275 264.5 260.8 252.9
201.2 202 197.4 192.8 197.8 202 205.8 206.5 205.4 206.2 208.3 210.3 213.3 227.1 227.7 219.5 216.7 221.4 229.2 235.6 238.8 227.9 222 219.6 210.3 203.2 199.9 193.1 191.3 191.3 193.9 215.6 230.1 227 228.3 231 233.8 241.1 242.4 242.7 240.7 240.2 236.6 235 234.2 226.3 226.4 239.3 248.8 254.5 254.8 247.7 247.7 249.4 263.1 256.2 258.5 261.2 262.5 268.4 269.2 270.1 284.5 296.7 295.2 299.1 295.6 287.1 295.8 306.3 314.2 324.8 329.3 333.7 337.2 341.2 353.6 366.7 359.2 352.4 354.5 351.9 345.7 329.3 341 355.5 369.3 374.8 396.8 409.1 421.8 432.1 442.1 433 437.6 435.5 438 456.4 468.2 462.9 474 476.3 474.4 468.1 467.2 489.7 499 495 486.7 475.3 467.1 461 463.6 460.9 465.7 452 444.8 431.8 416.6 411.8 403.8 398.8 389.2 388 381.9 358.3 375.5 379.5 378.4 387.2 392.5 392.3 394 393.6 386.7 390.6 390.7 391.7 405.6 409.4 410.6 424.7 434.7 430.9 427.1 428.6 428.3 431.4 436.6 433.9 425.9 420.7 420.9 413.4 410.5 408.6 405.6 408.3 407.1 400.6 391.5 398 392.2 387.5 386.6 376.2 356 335.6 328 321.1 314.5 332.9 332.2 320.6 315.8 307.8 297.2 281.1 296.8 296.9 296.1 294.2 292.2 290.7 293.4 296.8 304.4 295.2 294.2 303.5 300.6 300.8 301.8 293.3 284.1 273.6 267.2 259.9 256.2 247.5
206.6 208.6 202.1 195.1 203 207 211.6 214.1 213.2 210.5 210.2 210.6 211 213.3 222.7 218.3 216.2 221.8 226.4 234 236.2 222.9 220.5 217.3 207.8 200.4 199.1 195.7 191.3 191.3 191.3 214.6 224.2 226.1 230.5 232.3 234.6 237.9 240.3 241.6 239.2 238.1 237.4 237.4 241.1 232.5 224.2 235.2 244 251.6 243.7 233.5 234 250.7 254.7 245 254.6 262.3 264.6 268.4 271.2 278.7 275.8 272.8 274 279.7 290.7 302.2 315.4 314.3 314 319.1 324.5 328.9 328.7 335.7 343 355.8 350.1 338.1 340.9 330.8 322.9 344 359.5 362.7 375.7 375.2 395.3 411.4 425.6 436.8 438.8 441.6 441.8 460 469.4 463.3 469.8 478.6 484 485.1 477.4 478.4 467.7 476.5 489.6 481.5 467.9 465.4 467 459.1 457.8 457.1 456.8 451 436.9 424.1 409.5 391.9 388.4 378.5 372.1 368.7 360.4 350 363.5 371.4 368.5 382.1 381.8 385.3 384.5 384.6 381 385.9 385.5 389.5 394 393.1 407.4 422.2 422.8 419.1 421.8 422.2 422.7 428.9 435.9 430.1 419.6 418.6 409.1 405.7 404.6 396.3 402.8 397.6 404 393.6 388.9 385.4 390.4 392.4 388.7 374.1 347.4 336.9 329.9 318.9 306.7 331.3 322.2 317.4 314.4 305.6 297.3 281.3 290.3 293.9 294.6 295.8 296.3 289.5 286.8 283.9 281.3 281.4 285.3 292.4 290.7 295.8 294.1 289.4 276.7 272.8 267.9 259.8 252.1 243.4
209.3 212 206.3 198.4 203.3 207 213 222.4 219.5 215.3 214.4 216 221 219.4 228.5 224.3 218.6 220.2 226.4 223.7 223.2 220.2 221.3 227.2 224.9 211.4 202.1 202.4 196.7 191.3 196.5 210.4 222.2 228.2 228.4 230.3 230 234.4 239.3 240.4 236.2 235.7 241.6 243.1 242 236.1 224.6 224.6 239.6 231.8 228.1 229.5 225.3 240 237.7 245.9 253 252.9 251.3 262.5 252.8 248.7 269 276.8 287.5 297.2 306.6 307.7 311.5 309.3 299.8 304.6 317.1 319.1 328 330.4 331.8 331.8 327.9 320.6 319.1 318.6 335.2 343.1 365.8 389.7 392.1 397.4 394.7 407.2 422.1 432.8 444.5 457.6 465 467.7 468.3 466.1 477 482.5 485.1 483 482.9 489.3 469.5 458.7 455.9 473.5 475.2 468.9 459.9 446.5 442.1 444 453.1 438.5 424.9 415.3 401.3 381.5 373.1 364.5 357 352.1 345.4 347.5 360 358 360.6 373 376.9 380.4 375.4 373.1 377.1 379.6 385.4 384.6 375.6 384.3 395.6 414 418.2 416 418.9 415 417.9 428.6 423.7 415.6 416.8 417.1 407.4 398.4 393.3 393.1 392.3 391.6 393.8 392.1 388.6 384.4 387.7 396.1 385 365.5 345.9 339.1 327.6 316 304.6 309.8 320.4 314.7 312.2 301.7 296.5 281.1 290.4 292.3 295.9 298.2 297.6 288 285.9 283.7 282.1 277.6 274.7 278.7 284.8 286.3 289.6 280.6 274.8 269.6 264.7 257.7 254.4 241.7
209.6 210.7 208.2 199.4 201.2 206.9 215.6 223.7 224.9 222.2 220.4 224.7 232.8 225.2 222.4 224.8 226.7 219.6 225.8 223 219.6 218.1 224.2 232.2 230.6 216.8 207.2 209.8 209.2 195.8 192.1 208.4 220.7 228.2 226.2 228.1 231.6 237.4 240.7 239.1 232.9 237.8 243.1 242 234.7 229.3 229.8 223.4 231.3 226.9 219.9 221 219.5 224.2 227.7 230.9 224.9 226.7 226.1 242.3 255.5 258.8 266.4 277.4 297.8 302.8 310.6 307.4 309.3 297.1 293.1 298 309.5 315.6 321.8 320.5 312.4 306.8 306.5 305.5 324.2 330.7 338.3 349.8 386 407.1 415.3 401.8 396.1 401.1 423.7 438.2 454 463.4 462.3 463.6 470.2 467.3 471 482.1 479.3 483.6 477.4 488.5 463.5 455.7 456.4 472.9 476.3 460.3 449.8 441.8 430.9 434.6 443.2 427.7 414.7 398 381.3 364 358 350.8 342.8 340.9 340.1 340.2 354.2 348.2 358.2 360.3 369.3 371.5 371 364.9 381.4 381 383.2 378.6 371.4 373.4 391.1 394.1 410.3 412.3 412.3 409.4 416.8 414.4 408.3 408.8 413.9 414.1 405.6 396.4 393.3 394 387.4 388.3 388.7 396.4 389.1 379.9 380.6 387 382.8 354.9 351.5 331.9 329.3 322.2 306.8 294.3 304 308.5 310.2 303 292.9 273.2 290.8 295.6 298.1 299 290.4 286.8 284.4 283.3 280.1 276.8 274.1 271.7 273.5 276.7 277.4 278.8 273.5 266.9 260.6 255.7 249.2 239
213.1 207.5 203.4 201 203.2 210.3 218.4 226 230.1 229.4 227.4 230.4 239.3 234.8 224 227.5 234.7 231.8 226.2 222.1 219.3 217.5 223.3 231.4 231.6 216.7 209.2 211.5 207.1 199.7 200.4 202.1 214.1 221.9 229.5 231.4 232.2 232 233.7 227.8 234.6 240.1 243.7 233.6 232.7 230.1 226.8 225.1 222.6 214 215.8 218.3 214.3 218.4 223.7 221.3 216.9 226.6 234.5 243.3 254.1 261.5 275 282.1 294.8 300.7 300.9 296.8 292 292.3 292.4 292.8 304.7 309.7 313.9 311.1 303.5 291.6 308.6 317.7 324.2 332.8 339.5 360.8 402.8 419 418.4 402.7 403.3 408.2 422 442.1 458.8 459.3 460.4 462.3 467.2 466.1 464.4 468.6 477 477.5 472.8 465.4 458.8 454.4 460 471.2 470.4 450.6 443.2 432.4 422.7 434.7 432.2 412.1 394.1 375.3 357.1 346.2 342.5 335.4 334.3 342.5 339.1 335 345.3 340.3 348.5 350.7 363.9 364.3 357.8 361.2 375.3 383.4 379.1 378.7 370.5 362.2 375.4 385.4 397.4 403.4 405.2 409.6 407.9 402.9 403.5 399.8 405.9 405.7 403.6 400.1 398.3 393.7 389.5 383.1 386.7 388.1 387.8 380 376.5 365.4 358.2 349.7 340.9 340.9 335.3 326.6 309.8 291.8 296.6 302.8 308.6 303.9 292.4 280.2 273 296.2 303.4 299.7 289.2 285.7 280.7 279.2 277.3 276.2 276.5 272.8 270.4 272.6 276.8 277.1 270.1 264.5 258.6 255.4 252.1 242.7
214.9 210.7 211.2 206.5 210.9 215.6 220.9 228.5 235.8 236 233 231.9 241.5 241 231.4 234.4 236.4 242.1 232.9 226.3 221 218.5 222 231.5 233.6 216 207.3 206.1 202.4 203.5 204.3 194.2 208.9 224.7 226.6 227.1 231.7 227.2 223.8 230.5 235.3 235.1 239.9 242 232.8 231.6 220.6 212.4 210 211.1 212.1 200.7 196.3 206.1 217.9 232.4 242.5 249.8 255.2 252.8 255.3 271 282.8 280.4 286.9 292.2 297.7 290.8 286.6 287 293.8 287.4 296.5 302.6 300.5 295.4 292.1 301.5 311.6 315.5 322.3 331.9 353.3 393.1 408 417 418.4 410.9 405.3 415.4 426 446.7 454 462.4 462.1 463.4 462.2 459.4 458.2 468.9 472.7 468.6 457.1 461.6 467.5 463.7 452.1 460.1 452.9 438.1 432.5 419.2 411.8 409.4 398.7 387 374 350.8 338.8 330.8 327.4 328 340.1 337.1 331.6 326.7 335 330.7 330.6 342.3 354 351.1 350.7 356.7 362.9 369 368.1 371.7 366.4 352.9 362 374.2 379.3 393.1 409.6 408.9 400.1 399.4 393.1 397.6 401 404.5 414.2 411.5 401.6 387 382.5 377.6 369.4 376.3 380.9 370.7 357.9 352.5 349.2 355.2 352.1 343.1 337.6 329.8 319.9 300.9 286.9 287 300.6 297.7 289.6 280.1 266.8 291.9 302.7 293.4 288.1 284.1 276.8 273.9 274.4 276.3 275.8 274.6 269.9 274.2 274.8 270.5 268.1 261.9 256.1 254 253.3 247.7
218.5 223.4 224.9 215.5 212.8 217 223 230.5 237.2 244.6 244.1 243.4 249.7 248.4 239.7 245.8 245.4 248 239.4 230.6 224.4 220.2 218.3 224.2 219.5 209.8 204.5 204 205.3 208.8 199.9 191.5 194.6 215.6 228.4 225.6 220 220.1 226.3 227.6 232.2 236.6 242 235.1 232.6 222.5 206.8 203.3 207.9 196.5 184.5 200.6 210.7 226.8 239.2 245.8 255 257 265.8 251.2 254.5 265.4 271.6 279.1 283.2 283.5 284.4 284.6 279.4 281.2 275.9 274.5 283.4 283.2 274.7 292.8 295.1 298 305.7 313.2 319.5 334.2 354.7 379.8 395.3 410.6 421 419.7 415.4 426.6 449.7 451 462.9 468.7 464.9 463.2 460.4 451.4 458.4 461.7 450.1 447.9 456.5 467.6 473.7 463.8 449.6 443.8 434.1 429.3 414.2 404 386.9 387.9 382.2 362.2 344.6 340.2 326.1 318.5 319.7 329.7 337.2 332 323.5 319.2 329 326.2 316.3 321.6 338.8 341.6 354.2 361.4 358.8 357.1 359 362.5 358 349.4 353.3 368.5 379.1 397.5 400.5 398 390.6 387.7 387.3 393.9 403.3 419.1 421.2 415 401.1 386.4 378.1 376.6 370.6 362.2 362.8 356.9 353 352.9 361.4 363.7 352.7 343.7 339.4 334.3 325.4 312.3 298.5 288.2 280.3 288.6 281.6 274.6 256.1 274.5 291.5 294.3 283.8 281.9 275.7 271.7 273.7 276 275.4 269.1 271.4 273.7 272.5 270.1 266.8 258.9 248.9 249.2 249.8 242
226.3 229 227.1 221.8 215.9 218 226.9 233.9 240.2 251.6 251.5 253.5 252.1 252.9 254.8 254 256.7 247.6 245 238.5 227.7 217.4 217.2 216.9 221.2 214.1 204.5 203.2 204.5 202 199.2 192 184.2 196.3 209.8 207.9 212.2 228.6 226.6 229.3 235.8 236.8 239.8 229.6 225.9 216.8 199.3 190.1 189.2 173.2 199.7 211.4 225.8 231.2 237.3 240.6 247.7 250.8 256.6 249.8 252.1 268.8 273.2 274.8 279.4 278.9 281.2 275.3 268.4 269.7 266.6 265.3 260.3 282.5 293.4 294.3 299.5 301.9 309.9 322.2 335.3 345.2 361.8 388 402.6 412.1 422 431.6 433.3 438 439.7 451.7 459.5 464.2 463.9 467.1 464.8 452.6 446.4 437 441.8 451.2 456.8 462.8 469.3 457.8 436.7 415.5 413.1 404 401.8 394.6 381.7 363.6 355.2 340.2 331.4 321.9 323.9 312.4 315.6 327.4 328.5 325.3 317 311.5 318.7 316.7 306.9 310.3 326.3 343.5 361 365.1 358.8 350.8 358.6 354.3 350.1 348.7 347.8 358.4 370.8 384 387.3 378.2 377.4 380.2 387.9 406.2 421.9 420.3 418.1 406.9 397 383.2 378.7 372.3 361.5 356.2 354.8 353.4 357.4 359.3 359.2 356.9 352.4 359 359.2 349.2 337 331.2 329 303.2 285.1 278.3 275.3 265.2 254.5 257.7 281.3 286.2 280.1 279.7 273.8 267.5 269.3 269.6 267.3 272.2 273.6 273.4 272.8 271.1 267.7 257.2 248.3 241.1 240.2 235.1
230.1 232.3 230.9 229.2 227.2 224.3 228 238.6 242.4 250.2 257.4 258.1 255.8 266.2 285.3 278.5 260.6 247.8 244.8 240.9 235 218.9 217.5 218.9 223.3 221.2 206.9 205.4 208.7 213.5 205.9 193.8 183 182.9 192.5 200 212.4 214.1 227.2 232 226.7 226.6 223.6 222 214.9 212.1 200.6 188.6 168.1 186.4 209.4 220.6 222 227.9 238.8 236.2 237.2 244.8 248.3 248.4 250.2 255.4 260.3 265.7 268.4 270.4 270.8 265.6 261.4 256.7 248.8 266.6 281.5 297.2 292.3 296.8 303.4 308.1 312.2 326 351.8 361.6 369.9 378.3 405 415.5 421.8 432.5 429.5 430.8 439 442.4 451.7 463.2 466.7 466.3 463.3 448.7 439.9 442.8 446.2 445.7 449.1 444 451.6 430.2 413.4 404.5 398 401.4 397.4 395.8 378.2 350 336.6 331 319.1 319.5 315 309.8 309.2 309.2 311.3 316.3 310.4 303.1 307.7 303.1 303.8 307.2 317.8 345.4 355.7 361.9 352.6 347.9 338.6 345.2 342.1 344.8 341.4 354.2 363.9 365.9 361.9 368.1 367.8 375.8 398.4 416.4 417.8 412.9 404.7 398.3 387.8 381.5 376.8 365.8 355.3 355.8 354.3 352.4 359.2 354.8 350.5 356 369.5 366.6 363.9 360.5 354.5 329.9 326 316.4 297.7 283.8 280.6 275.8 265 239.1 264.5 274.6 272.6 270.7 268 262.1 265 265.5 269.6 274.6 273.5 274.8 272.5 269.9 266.5 256.5 246.3 235.5 235 230
233.7 232 233.8 235.8 230.8 230.8 232.1 236.6 241.9 248.9 254.7 259.2 267.1 283.4 289.8 283.2 266.6 253.8 242.9 236.6 228.9 219.9 218.7 228 230.2 219.3 207 208.6 212.7 218.2 210.7 195.4 181.5 178.2 189.2 188.3 195.9 210 218 217.4 217.6 212.3 210.9 205.3 199.8 198.1 179.3 165.2 166 189.5 204.8 215 220.6 230.7 229.5 228.6 229.9 241.6 247.6 254.1 252.2 252.4 254.4 255.8 257 259.1 257 243.7 246.1 261.1 262.9 268.8 276.3 290.8 308.4 306.6 308.3 316.7 323.2 334.3 360.5 356.1 351.2 355.5 377.6 411.9 420.3 427.8 426.6 426.8 431.5 442.2 451.7 458.9 460.4 449.9 437.9 425.3 429.9 434.5 444 437.8 441 433.8 411.2 400.6 397.1 390.3 382.6 374.6 372.3 361.9 346.7 329.4 323.4 319.7 309.8 308.3 307.8 305.4 305.1 305.5 303 302.9 299.2 299.6 298.7 305.2 304.3 305.3 312.7 337.6 351.4 352.1 344.5 340 329 329 337.5 343.1 337.7 340.3 351.9 350.9 348.4 355 363.2 381.6 411.4 416.2 413.9 399.2 395.9 386.7 380.7 377.4 369 354.3 358.7 358.8 356 353 352.8 350.8 350.6 365.4 366.2 367.7 365.7 362 351.1 332.1 327.5 313.9 304.2 288.6 280.7 274.5 270.6 241.2 254.2 260.1 264.8 262.7 260.3 254.9 261.7 266.8 269.9 272.8 273 271.5 270.5 267.3 262.6 253.2 243.2 238.4 233.2 229.2
236.6 234.5 233.5 234.5 233.4 236.1 237.7 239.4 241 247.5 254.7 257 264.6 283.6 291.5 275.5 264.3 254.9 235.3 231.5 224.1 221.3 225.3 231.6 231.5 217.6 208.3 218.6 218.2 214.6 207.1 194.6 176.5 179.4 186.4 183.3 182.7 192.9 197.4 199.8 198.3 196.5 187.4 182.3 185.1 174.2 155.6 175.6 172.2 189.4 200.4 204.2 208.3 220.2 220.7 221 224.8 240.7 250.3 252.6 247.5 243.8 245.3 242.2 242 240 233.2 254.3 268.2 275.1 279.1 286 295 323.1 330.4 325.8 321.4 321.9 328.3 336.5 347.8 342.3 342.4 348.7 371 389.7 411.2 419.7 423 423.5 427.7 439.5 446.5 447.1 446.7 424.1 407.2 411.9 426.1 427.4 431.8 427.8 421.1 407.6 392.3 376 373.2 369.9 360.8 354.5 342.9 337.2 330.8 323.8 320 310.1 307.6 306.6 307.6 301.5 297.5 301.7 298.6 295.3 296 296.2 299.9 299 300.4 300.6 301.8 328.2 344 342.1 338.5 332.5 323.8 325.8 338.8 335.9 330.3 329.9 333.5 334.4 341.3 351.6 365.6 392.1 401.2 396.5 395.6 401.5 384.6 376.1 378.8 368.3 358.3 353 357.8 358.8 361.8 364.5 354.9 349.5 350.6 361.9 364.9 365.8 365.5 357.9 349.4 334.8 324 317 310.1 302 282.1 271.7 266.3 248.9 244.8 250.9 255.6 252.1 253 258.2 262 266.4 269.8 272.3 273.5 272.6 270.3 262.1 254.6 248.2 247.3 247.5 236.3 230.8
237.1 228.8 224.8 229.4 235.4 236.2 236.9 239.8 241.8 250.1 258.4 256.9 261.5 263.3 270.8 270.1 244.6 238.2 233.5 229.2 225 223.4 226.4 227.6 227.1 217.8 208.3 217.9 221.1 223.2 212 194 174.8 176.5 179.7 179 177.3 187.3 191.7 186.7 185.7 169.1 163.8 169.1 164.1 149.4 175.8 188.5 183.3 183.2 192.9 199.9 204.6 206 219.8 222 226.4 234.1 244.9 245.9 243.1 233.8 224.1 218.6 220.2 243.1 255.2 269 278.1 286.5 284.8 296.3 313.7 331.8 326.7 323.5 324.6 333.7 336.7 325.2 325.2 332.6 335.4 343.3 366.6 372.7 392 409.6 419.3 415.9 415.5 428.8 431.1 424.1 402 390.5 389.5 396.9 412.7 421.1 417.9 404.4 394.6 386.2 375.9 364.6 359.8 356.5 348.5 343.7 337.1 330.5 324.9 321.3 312.9 307.6 305.7 307.1 306.1 305 302.3 295.7 291 292.5 293.9 294.5 295.9 295 294.9 289.5 292.4 306.5 331.2 330.2 328.6 329.2 317.5 315 322.5 324.8 323.9 321.9 325.2 334.9 338.4 358.6 374.3 387.5 393.6 395.7 407.2 384.8 369.7 365.7 354.6 352.4 350.3 350.7 354.8 361.4 367.9 365 357.4 350 351.1 355.3 363.5 358.6 358.1 353.3 347.2 337.3 322.8 321.1 318.3 308.7 292 269.4 259.6 250.4 230.7 246.3 244.8 244.4 254.4 259.4 263.1 266.3 271 271.8 268.7 267.4 261.3 254.5 252.2 250.8 246.3 240 233.5 224.9
220.2 213.5 217.4 223.3 233.1 235.6 235.1 240.2 244.5 244.8 245.4 248.7 252.9 254.6 255.1 251 239 237.2 238.1 231.7 224.6 221.1 223.1 219.7 213.2 210 204 215.7 226.4 217.3 206.1 193.4 175.9 165 170.1 164.7 169.5 173.7 174.5 164.6 152.9 148.2 153.1 152.6 144.9 174.3 187.8 195.9 183.5 184.1 195.5 210.2 200.8 207.1 217.4 227.8 232.6 240.5 246.2 235.1 228.8 224.2 212.3 219.5 240.2 260.8 263.7 274.4 272 273.5 285.9 297.5 310.3 319.8 315.8 322.9 322.5 336.4 340.7 321.8 311 317.4 326.8 349.1 358.9 374.4 381.8 396.2 413.5 406.1 406.6 411.1 398 381.9 379 385.6 379.4 385.1 387.9 386.6 382.1 381.6 383.4 373.9 360.6 352.7 358.9 353 343.6 337 331.4 325.6 323.2 314.6 306.7 303.9 306.5 311.7 302 295.2 289.1 289.4 290 291.2 292.4 292.8 292.6 292.5 289.3 286.4 287.8 298.3 301.7 313.2 315.4 313.7 311.2 308.5 309.7 310.2 320.1 325.1 328.3 332.6 337.7 364.1 378.4 383.7 391.1 399 373.8 363.1 354.2 344.8 346.1 346.3 342.3 348.2 351.6 356.1 359.2 359.2 354.7 353 350.5 350.7 352.8 352.7 349.4 347.6 344.3 333.8 316.6 315.3 318.7 305.7 295.5 273.6 254 243.6 230.1 239.8 233.8 242.8 253.1 257.4 261.7 265.1 269.8 271.7 267.2 258.4 251.4 248.4 251.3 254.3 250.3 244.1 231.3 221.3
201.4 197.7 202.8 212.4 220 223.8 229.5 237.1 250.1 244.3 244.8 245.4 250.2 251.5 245.6 235.8 232.7 240 241.7 232.6 226 219.9 210.2 204.8 196.1 194.1 206.5 214.4 214.1 204.1 203.2 191.2 174 158.9 164.3 156.7 160.1 153.7 147.9 146 142.7 142.6 141.3 140.5 169.1 185.5 192.4 192.7 185 186.9 191.8 198.2 194.9 207.5 217 221.3 229.6 231.2 214.6 210.4 188.8 202.6 216.4 221.4 243.9 252.5 257 253.6 262.3 277.4 279 289.5 299.6 308.4 306.8 315.2 322.6 336.4 326 313.7 301.6 301.7 331.9 350.6 364 368.6 376.8 387.8 401.4 391.5 379.1 375.9 370.6 379.4 376.1 384.4 378.3 362.1 366.1 370.9 369.1 365.1 360.2 351.4 351 344.2 346.3 347.8 337.2 331.1 325.1 321.5 316.7 307.4 303.4 305.8 308 304 293.6 289.3 288.7 288.4 289.2 290.5 291.3 290.3 292.1 290.8 285.9 285.4 285.9 290.4 297.9 301.5 306.9 303.4 303.8 307.5 306.9 311.7 321.8 333.4 331.5 336.5 341 358.7 364.4 354.4 353.9 351.6 349.4 342.6 338.8 341.3 343.3 340.1 335.9 343.7 347 351.8 352.1 353 353.8 367.5 361.5 348.2 343.5 351.2 345.9 339.5 335.1 324.4 311.7 308.5 295.3 289.4 284.4 276.2 257.3 239.6 223.3 230.5 230.9 241 248.5 254.1 257.4 260.1 262.3 265.2 253.5 245.5 240.3 239.5 249.7 253 249.9 238.1 226.4 216.6
182.8 184.5 189.8 199.5 207.8 219.1 225.6 232.2 249.9 247.5 242.2 242.5 247.6 241.7 229 226.1 233.5 243.4 244.2 234.1 225.5 220.1 207.3 190.7 187.5 195.7 209.9 199.5 203.7 211.7 206.5 186.3 160.5 160 158.8 148.2 145.5 137.8 131.8 126.9 131.9 129 138.1 156.9 172.1 187.5 191.9 194.5 185.6 185.4 185.6 185.3 186.7 200 208 214.6 203.6 195.1 187.9 179.8 186.8 181.3 198.6 218.7 248.4 250.6 244.6 245 265.7 281.4 284.5 284.3 289.6 297.8 301.7 311.4 319.4 315.6 310.1 306.4 297.4 296.7 323.1 334 354.6 365.5 380 385.4 383.3 364.4 358.3 356.7 373.4 375 366.8 375.4 371.3 356.3 353.5 351.7 344.9 343.3 342.1 339.7 338.9 337.5 334.9 334.3 324.6 318.4 312.3 310.6 306.3 304.4 302.4 304.1 301.5 294.8 290.1 289 290.7 289.5 288.7 288.6 291.6 290.5 288.8 286.9 285.7 284.8 285.4 287.2 293.8 297.3 297.4 300.1 300.3 306.7 317.6 328.1 332.8 328.2 330.2 330.7 335 333.3 333.3 331.1 326.7 325.8 327.6 334.1 334.2 334.7 334.9 331.7 328.3 333 340.8 345.4 346.6 350.3 360 362.6 357.4 354.6 337.2 340 337.3 331.9 328.5 321.7 305.1 303.4 291.3 276.3 270.3 271.4 263.1 241.5 225.6 228.2 228.7 237.3 243.3 248.6 247.9 250 245 244 237 235.9 231 232.8 238.5 242 240.6 231.7 221.3 213.1
170.7 172.2 177.2 183.2 195.7 220.9 229.3 231.6 246.2 243 236.1 235.3 234.5 224.5 221 227.9 234 236.9 235.6 231.9 223 211.7 196.9 189 183.1 186.1 197.5 202 202.2 206.1 198.4 174.5 151.1 155.4 149.1 136.3 126.8 127.6 129.2 122.9 121.8 126.7 145.2 165.9 180 186.5 189.6 188 187.9 187.7 185.6 185.4 185.5 190.9 192.5 188.7 173.7 165.4 176.6 182.9 195.2 215.3 211.9 212.5 228.4 231.8 228.4 235.7 265.6 280.9 289.1 287.9 287.3 292 298.1 302 304.2 307.6 302.2 298.5 295.9 295.9 318 327.3 347.1 361.4 359.8 354.2 351.9 342.4 343.7 350.1 360.1 363.3 354.9 349.7 349.4 344.2 338.1 334.1 331.7 329.7 332.5 337.5 335.6 331.5 328.5 320.3 316.9 313.7 304 302.3 300.2 303 304.1 301 300.2 299.4 300.1 296.7 297.5 294.1 295.2 293 287.5 287.9 286.5 285.9 286.5 284.7 284.2 287.6 291.9 295 294.9 301.6 298.1 309.3 329 338.6 332.3 324.1 319.2 322.2 320.1 319.1 315.8 315 317.3 323.4 323.4 325.8 327.1 326.6 324.2 321.9 324.3 331.2 340.2 339.7 342.1 348.9 349.8 354.8 354.6 351.7 342.4 329.1 334.3 334.1 329.8 318 304 296 289.9 278.4 266 258.4 254.5 246.6 225.2 217.6 216.7 225.3 231.6 229.2 225 225.3 225.4 223.9 220.6 223.2 220.7 223.4 225.1 227.5 225.1 222.6 221 210.7
161.6 156 157 171.7 186.1 210.4 232.7 228.4 239.8 236.4 225.7 219.4 212.5 208 218 222.5 217.8 222.2 223.1 218.2 210.2 205.8 197.1 192.9 179.7 191.8 197.6 197.1 192.6 190.3 183.8 158.4 143.6 144 135.1 120.7 118.8 114.4 111.4 108 124.9 143.6 156.6 171.9 181.6 183.4 186.4 193 191.8 190.7 193.9 191.1 189.4 176.6 168.4 161.5 183.6 197.3 203 206.1 212.8 223.3 220.7 213.1 217.6 229.1 236.4 240.1 259.7 272.7 286.3 288.3 286.8 287.8 293.3 293.2 300 299.8 294.1 291.9 303 300.8 313.5 332.5 345.9 350.4 345.7 344.6 335 337.2 336.5 338.2 343.2 345.7 335 335.7 332.6 337.6 337.1 329.8 333.3 327.6 337.8 342.9 342.5 327.3 326.9 317.2 312.6 306.3 300.5 299.1 300.6 304 304.2 303.5 306.6 308 310 311 309.1 301.1 308.7 305.7 297.1 292.2 288.1 288.6 287.2 285.4 284.9 288.3 291.3 293 294 298.7 294.9 296.4 314.2 329.3 321.1 315.5 311.6 312 307.5 303.9 302.7 308.5 313.6 315.9 316.3 314.2 314.7 315.7 313.3 312 320.4 333.1 336 336.7 341.7 343 340.5 340.4 343.1 337.3 328.9 321.9 313.5 325.4 315.1 307.4 300.9 290.3 283.4 272.6 261.1 253.8 250.2 245.8 228.2 215.4 206 203.1 207.2 201.2 200.7 200.7 209 211.3 216.8 217 217.8 221 223.1 222.6 219.2 219.9 214.1 200.7
141.1 142.5 152.2 160.1 167.9 183.2 209.1 211.1 219.8 218.1 210.1 201.3 195.8 198.1 208.2 212.8 208 210.2 208.9 196.5 193.8 194.9 193.9 196.7 180 182.9 189.5 186.7 178.9 163.6 151.9 135.9 131.9 128.2 115 107.1 101.6 97.1 102.7 118.4 139.3 151 166.8 174.3 174.6 179 192 203.7 198.9 186.4 187.3 183.5 166 154.1 169.5 188.4 203.1 210.4 207.8 208.5 217.9 234 234.7 231 230.9 238.2 246.9 255.1 250.4 268.5 279.7 282.2 281.3 281.6 285.3 291.6 293.7 291.1 286.6 290.3 299.9 299.2 315.3 323.3 330.8 330.4 335.6 326.2 329.1 328.7 327.5 323.8 323.1 322.9 325.1 317.9 323.7 322.6 326.2 325 326.7 327.2 327.9 333 324.8 319.4 317.9 307.2 300.1 303.4 297.4 301.8 303.6 305.6 306.1 311.2 319.4 319.4 321.7 315 316.6 313.5 316 319.8 307.9 296.6 292.5 295 292.8 292.1 284.8 284.5 286.8 284.7 289.6 290.5 289.6 293 299.2 303.4 304.5 303 301.2 294.6 290.6 291.3 296.9 305.5 310.1 309.7 309.2 308.3 306.9 305.3 303.9 309.2 314.8 319.9 326.6 333.3 339.2 336.8 334.3 335.3 335.8 332.1 324 316.9 308.9 300.7 301.2 300.6 291.3 277.2 271.4 263 253.1 251.6 253.4 251.4 243.6 224.5 200.7 200.7 200.7 200.7 200.7 200.7 205.6 210.9 212 212.9 215.5 218.5 221.9 215.8 213 212.8 212.4 206
121.1 131.6 141.1 148.7 154.8 164.3 180.4 188.2 191.4 191 193.5 190 180.6 183.5 195.3 198.6 195.1 199 188.7 177.1 176.1 178.7 186.7 189.6 174 167.5 175.4 169.7 158.9 148.2 129.9 119.4 111.5 101.6 95.4 93.3 92.1 97.9 113.4 130.1 143.6 159.8 166.6 166.7 169.3 183.7 194.7 199.5 187.3 173.5 163.7 151.3 165.6 177.4 187.1 205.5 217.5 221.5 228.7 236.4 242.4 251.3 254.3 252.7 245.4 250.1 262.3 283.4 275.3 278.9 281.1 280.2 280.5 279.9 279.6 281.4 287.3 284.1 283.1 283.1 290.9 295.3 305.6 311 320 313.1 315 318.8 316.9 317 311.8 309.3 309.9 309.1 317.9 313.7 318.9 322.5 319 320 324.1 324 318.8 312.2 312.9 314.5 308.8 303.9 295.5 298.1 300 307.1 307.5 308.5 314 317.7 328.9 330.1 322 320.5 321.6 322.9 332 337.2 326.2 313 302 297 300.3 301.6 301.7 297.2 292.7 290.3 285.3 281.2 286.2 290.1 290.8 291.1 289.7 288.7 291.7 286.7 280.8 287.1 294 300.4 302.7 302.7 303.1 303.9 301 297.2 297.3 300.1 304 313.1 320.7 331.1 336.3 330.8 328.1 329.3 329.2 325.4 319.5 311.7 304.2 292.5 291.2 289.3 278.3 266.8 260.5 254.5 248.7 251.5 254.1 252.1 247.3 234.2 213.7 200.7 200.7 200.7 200.7 200.7 200.7 201.6 211.4 211.8 215.3 220 217.7 207.6 211.4 214.9 204.2 200.7
92.4 111.1 125.8 136.4 143.9 151.5 160.5 165.9 174.6 180.7 180.3 179 170.9 166 175.9 175.8 170.3 165.8 159 157.2 158.6 169.1 178.1 182.6 167.3 151.1 153 145.9 135.4 122 114.7 107.2 98.3 96.6 93.4 89.2 98.3 101.8 118.1 134.6 151.7 159.5 159.7 164.9 177.7 189.6 196.9 189.3 164.9 153.1 146.1 170.1 185 195.5 204.1 223.6 230.8 240.2 243.3 253.9 257.8 267.3 266.5 270.5 265.7 267.5 271.7 282.8 287.4 282.2 293.9 285.6 286 292 287.9 281.7 282.6 285.3 283.1 283.1 285.5 297.5 299.9 305.8 302.6 302.4 305.9 312.9 306.3 300.5 300.2 304.7 306.7 310.3 310.6 312.6 314 318.3 314.5 314.6 319 317.6 313.1 312 308.8 307.9 304.5 294.9 291.1 294.1 305.1 309.7 313 315.3 316.2 329.7 338.4 335.3 330 325.4 325.1 332.1 341 343.4 333.6 325.7 317.8 303.2 301.6 300.3 306.3 306 299.2 297.6 296.9 287.1 276.7 284.1 290.3 288.5 282 277.3 277.8 277.3 275.8 282 286.8 291 293.5 299.3 304.6 300.1 295.3 291 290.3 295.1 300.1 308.6 316.1 325.6 329.9 325.6 325.2 325.6 323.4 318.4 313.3 307.6 294.7 287.7 279.7 270.7 261.3 259.7 257.8 248.2 245.2 246.1 247.5 246.5 243 236.1 218.9 200.7 200.7 200.7 200.7 200.7 200.7 200.7 200.7 208.2 209 202.3 200.7 207.7 211.7 200.7 200.7 200.7
73.7 89.5 101.9 118.1 121 125.7 136.3 150.3 164 170.9 168.7 167.1 159.6 150.8 155.8 152 141.1 139.9 134.9 137.7 148.5 161.3 171.1 173 160 137.6 133.8 124.1 106.8 98.2 101.7 98.3 85.8 93.2 92.2 88.3 99.6 109.3 125.6 140.9 153.9 152.4 160.2 178.2 182.7 180.7 173.7 163.2 141.2 145.8 164.4 185.5 207.2 211.9 218.6 231.3 234 250.4 252.2 264.1 281.3 282.1 277.2 279.1 272.9 274.8 278.9 286.8 287.8 284.8 289.7 302.2 299.4 297.7 298.7 293.2 286.6 287.6 283.1 283.1 283.1 283.9 286.7 290 293.1 291.7 298.4 305.1 297.9 301.6 311.5 305.5 308.5 309.6 311.4 314.1 312.9 312.3 312.2 311.1 311.8 312.1 311.5 317.2 313.7 299.2 290.4 287.7 297.6 295.3 306.8 310.5 312.3 316.4 332.8 342.8 349 346.2 339.1 332.2 333.6 342.6 346.5 352.9 340.3 339.8 335.8 317 307.5 301 301.9 303 302.3 300.8 300.9 297.8 290.4 283.2 273.6 279.1 273.9 270.3 269.7 269.9 271.9 274.4 278.5 281.5 285.5 291.8 294.4 292.9 288.6 284 288.4 292 295.3 300 306.9 314.6 320.3 321.4 326 322.7 317.1 310.7 307.5 298.8 292.6 287.4 279.8 271.1 261.8 255.7 251.4 249.9 242.8 240.7 241.3 240.7 236.2 231.3 221.7 209.7 200.7 200.7 200.7 200.7 200.7 200.7 200.7 205 200.7 200.7 206.1 201.2 200.7 200.7 200.7 200.7
56.9 65.4 77.2 83.4 90.5 102.9 126.6 144 156.5 158.5 156.4 151.1 149.5 126.6 130.8 123.4 122.9 117.9 112 120.4 129.4 152.3 162.1 159.9 153.9 126.6 108.4 99.3 85.1 80.8 82.8 81.6 81.8 85.9 84.6 92 106.8 117 131.1 150.1 148.4 152.5 164.4 166.9 165.9 157.3 146.1 124.6 135.3 154 179.1 196.2 210.8 219.9 222.5 228.9 242.6 255.4 266.5 279.8 290.9 289.7 288.9 285 278.9 282.6 292.2 301.2 285.5 286 297.8 303.5 302.8 304.9 302.9 296.7 288.6 283.1 283.1 283.1 283.1 283.1 283.1 285.6 286.3 287.9 290.5 293.2 303.3 315.5 309.8 307.7 309.7 310 314.1 318 313.6 318.1 310.9 311.1 311.7 313.2 307.8 308.6 305.6 293.4 285.1 288 289.9 293.4 307.8 309.3 323.3 343.1 345.9 346.6 355.1 356.7 346.1 338.6 339.5 349.5 353.2 353.9 346.5 342.3 336.6 324.5 313 304.1 306 305.3 304.5 304.1 305.1 304.8 298.3 295.2 285.6 272.9 271.4 267 266 266.6 268.6 270.1 270.6 272.5 276.6 282.6 284.9 287 286.5 281.5 286.3 287.8 290.1 293.1 297.3 304.5 314.2 313.6 315.6 312.6 306.9 301.6 296.3 292.1 288.8 284.7 278.6 268.5 262.7 254.9 242.1 247.4 249.2 238.3 236 235.7 232.8 227.8 224 216.7 200.7 200.7 200.7 200.7 200.7 200.7 200.7 200.7 200.7 200.7 200.7 200.7 200.7 200.7 200.7 200.7
40.1 48.8 54.8 65 72.1 86 107.5 136.4 140.1 134.5 130.6 131.5 129.4 109.9 103.8 108.3 101.3 93 95.2 103.3 117.3 139 150.9 140.2 135.2 111.6 92 81.4 77 77 78.7 79.4 79.5 86.4 90.8 100 110.9 112.5 129 142.2 140.4 149.2 149.7 150.6 145.6 121.8 131.3 140.9 141.1 169.8 187.2 192.5 197.2 219.5 227.4 237.2 246.7 255.7 271.2 285.3 295.2 301.2 296.7 294.2 285.6 292.2 300.8 293.9 289.5 292.2 296.1 305.3 305.7 302.5 299.8 292.4 283.4 283.1 283.1 283.1 284.4 283.1 283.1 283.1 286.2 286.8 291.3 293.8 302.4 309.2 309.1 308.5 308.6 313 310.4 313 317.1 316.3 314.5 307.3 308.4 312.2 311.7 299.7 288.9 284.4 287.8 287.4 295.3 298.7 308.7 323.7 339.4 349 347.2 357.5 356.2 352.5 346.4 344.5 349.7 357 354.8 356.6 352.7 345.2 336.5 329.8 318.5 306.8 311.3 316.6 314.3 305.8 303.4 305.3 304.1 302 292.5 289.5 282.5 271.1 267.7 265.5 265.4 266.2 267.5 266.7 264.9 268 272.3 278.6 280.1 280.2 281 285.3 287 288.4 289 292.1 297.6 300.4 303.4 302.6 298.6 297.6 295.3 289.5 282.4 279 274.2 266.3 259.4 252.4 243.4 236.3 240.4 234.2 236.7 234.3 231.1 227.5 222.4 217.7 202 200.7 200.7 200.7 200.7 200.7 200.7 200.7 200.7 200.7 200.7 200.7 200.7 200.7 200.7 200.7
27.2 35.4 42.5 49.8 60.4 69.3 87.4 107.5 113.8 104.6 100.8 110 110 96.4 87.4 82.2 78.8 75.2 83.8 89 103.8 124.9 129.8 124.5 110.6 92.7 82.5 77.7 81.4 76 77.6 77.6 77.5 81.1 94.8 100 99.4 99.1 113.9 123.9 134.7 135.9 128 117.8 120.8 141.7 150.3 150.9 148.1 168.9 182.8 190.6 208.2 215.2 226.9 246.2 252.5 270.6 281.9 294.3 303 301.7 302.2 299.4 295 290 298.9 290.5 291.9 300 300.9 311.7 308.5 298.5 288.4 283.1 283.1 283.1 283.1 283.7 286.5 283.1 283.1 285.6 286.8 286.4 290.6 290.8 297.4 305.2 304.4 302.7 304.2 309.4 326.3 333.1 322.4 322.3 315.3 308.5 305.3 311.6 300.5 286.4 280.5 284 288.4 294.5 297.6 302.3 325.1 336.1 345.7 344.6 356.3 362.3 359.7 357.1 345.1 348.7 360.1 363 364.7 358.2 352.3 341.4 342.1 330.7 316.6 310 316.5 321.8 320.7 314.3 301.9 303.5 304.9 302.7 300.4 297.9 289.9 282.1 280.4 280.6 273.5 265.5 264.5 263.2 258 258 265 266 274.8 279.8 279.6 284.9 290.5 288.9 281.6 282.9 289 288.6 290.2 293.6 293.5 291.7 286.7 280.4 276.4 274.3 269.7 264 254 247 240.2 235 229.6 232.4 234.7 234.7 231 226.6 221.5 215.8 210.2 200.7 200.7 200.7 200.7 200.7 200.7 200.7 200.7 200.7 200.7 200.7 200.7 200.7 200.7 200.7
22.7 27.7 34.4 40.7 51.1 61 71.1 80.4 77.9 78.6 79.9 81.6 79.4 80.1 76.7 66.4 56.4 58.7 64.9 72.9 84 104.4 103.6 98.7 89.2 79.2 74.8 74.8 74.8 75.4 77.1 76.5 76.2 78.6 85.5 90.8 93.1 94.1 112.1 116.9 119.7 112.8 110.6 126.1 138 149.8 155.3 159 154.3 164 186.4 202.1 205.5 214.1 233.2 250.4 265.5 283.5 291.1 305.9 303.1 301.9 302.2 304.6 302.9 290.5 290.6 294.1 300.7 307.6 307.7 308.8 307.5 296.9 283.1 283.1 290.3 283.1 283.1 285.6 286.5 288.1 289.5 287.9 288 282.9 284.9 286 292.1 294.4 301.9 305.2 307.2 322.5 332.7 339.8 324.5 318.9 312.9 306.4 297.8 301.6 287.4 279.7 282 286 295.5 295 303.1 312.3 337.2 346 337.2 340.9 351.3 361.1 366.1 361.3 350 358.1 369.7 366.9 363.5 360.5 352.5 342.8 337.9 325.2 323.6 319.5 324 328.8 318.6 309.6 298.8 301.9 307.7 308.7 305.9 298.9 290.4 290 291.1 287.1 281.7 274.6 269.5 271.2 266.7 259.2 262 260.8 266.4 268.7 266.7 273.3 283.4 279.3 274.7 274.8 281.1 281.6 282.2 285.8 285.5 283.3 279.5 274.3 273.1 270 264.9 262.5 252.5 240.6 234.9 230.8 227.8 228.8 229.4 228 226.6 225.1 220.8 215.4 210.4 200.7 200.7 200.7 200.7 200.7 200.7 200.7 200.7 200.7 200.7 200.7 200.7 200.7 200.7 200.7
24.4 24.8 27.2 33 39.8 47.7 49.3 52.7 58.2 62.4 59.7 62 64.4 63.6 64.2 48.1 52.2 67 75.6 74.5 69.9 76.4 78.4 74.1 72.7 72.2 74 74.4 74.5 75 76.1 75.9 76.7 76.4 80.5 84.4 85.4 93.6 103.4 106.5 100.1 110.7 124.5 137.7 145.5 157.5 170.8 184 182 169.8 189.5 211.5 225.5 228.4 243.4 259.2 273 283.2 294.9 297.2 299.3 303.2 313 322.9 324.4 305.9 297.1 300.6 304.9 308.8 310.5 311.2 302 292.1 283.1 292.5 297 287.5 287.8 288.8 293 293.3 293 291.7 282.8 282.8 282.8 290.7 297.8 305.9 306.5 307.6 318.1 329.6 330.5 332.2 324.7 316.5 309.2 301.2 296.2 282.5 279 279.1 280.9 290.7 300.1 301.8 306.4 310.4 332.9 332.3 345.5 348.1 350.5 359.3 362.9 354 358.2 362.4 363 366.3 363.6 357.6 349.4 338.3 333.3 337.3 333.1 327.9 317.1 323.1 312.5 299 300 308.8 307.9 306.7 299.1 296.3 294.4 293.8 288.8 285.8 284.8 282.3 278 273.8 268.9 265.9 262.6 260.5 258.7 254.2 255.9 261.8 267.7 269.4 270.3 272.7 276.5 275.9 280.4 282.2 279.8 276.8 274.3 270.1 269.3 264.9 261.5 258 248.7 236.8 232.1 227.8 225.2 217.2 222.7 222 221.5 221.9 219.5 214.2 210.9 200.7 200.7 200.7 200.7 200.7 200.7 200.7 200.7 200.7 200.7 200.7 200.7 200.7 200.7 200.7
23.8 25 27.3 25 25.4 26.8 35 38.3 40.9 42.8 44.6 42.9 44.4 35.8 39 54.9 65.8 68.2 82.2 82.3 78.3 69.6 70 70.9 71.3 72.4 73.8 74.4 75.1 76.1 76.8 78 76.5 77.5 78.6 82.4 84 86.2 89.4 105.2 117.1 122.6 131.5 143.6 153.4 170.9 187.6 196.3 187.9 182.3 205.7 231.3 242.6 249.5 271.7 272.8 285.1 287.2 291.4 308.7 324.6 326.6 328.5 325.1 326 305.5 306.6 305.6 306.2 314.2 311.4 305.7 293.3 292.7 291.4 297.3 296.6 289.5 290.9 296.2 299.1 299 296.8 298.3 289.4 283.9 282.8 294.3 296 301.1 309.7 319.8 323.6 328.3 330.2 327 324.2 314.6 306.5 295.7 282.2 279 277.6 278.5 283.1 293.2 303.2 305.4 318.3 311.5 317.6 333.9 346.2 345.2 353.9 354.5 357.3 352.3 357.2 360.4 360.4 369.2 364.5 361.5 344.7 331.8 338.1 340.6 332.1 320.3 310.4 306.8 299.8 292.7 306.7 308.7 303.8 297.9 296.9 295.2 293 291 289.9 290.2 286.3 285 282.3 278.3 274 269 267.3 258.2 258.5 260.7 254.3 251.5 259.3 259.9 266 270.1 269.8 278.1 282.8 278.1 275.4 273.9 270.4 266.7 266.1 261.7 258.1 254 245.5 236.7 222 223.1 219.9 218.2 214.4 214.9 216.3 216.9 217.5 217.1 208.7 200.7 200.7 200.7 200.7 200.7 200.7 200.7 200.7 200.7 200.7 200.7 200.7 200.7 200.7 200.7
24 24.8 24.9 24.1 25.8 27.9 27.2 26.9 30.6 33.3 34.5 33.9 38.6 45.9 51.1 63.4 76.7 75.1 87.5 89.4 85.1 76.6 78.3 76 77 71.3 73.9 75.2 79.6 95.5 102.5 100.2 87.1 81.5 79.4 81 82.9 86.1 101.5 113.5 123.4 135.8 144.7 154.2 165.3 191.6 195.2 206.8 193.2 212.1 228.9 239.9 258 262 285.3 285.2 287.1 288.1 291.8 313.6 322.8 323.9 322.7 318.5 318.9 300.9 308 318.5 309.9 309.2 307.9 294.4 290.2 292.6 297.2 296 283.1 289.8 293.6 297.1 296.5 295.8 296.3 292.1 287.9 282.8 288.9 291.6 293.3 299.2 309.4 320.5 324.7 327.2 326.1 317.9 315 313.1 302.3 284.8 278.3 277 277.2 278.4 287.4 293.4 306 312.2 318.2 312.1 321.2 332.5 339.1 344 351.2 352.9 348 349.5 353.4 356.3 362.4 367.6 363.3 355.8 336.1 330.5 332.8 335.5 334.2 319.2 302.1 300.7 288.7 299.5 297.9 294.4 296.3 297.1 297 300.3 297.1 296.8 294.4 293 291.2 289.5 285.7 283 283.1 280.5 277.2 270.8 272.1 268.5 266.9 263.7 246.8 249.6 257.6 260.9 271.6 280.6 279.9 276.2 272.1 270.7 267.7 263.7 262.4 257 252.6 246.3 235.8 230.5 221.9 214.6 217.6 218.1 216.4 206.9 208 210.7 213.4 215.3 210.8 200.7 200.7 200.7 202 205.9 200.7 200.7 200.7 200.7 200.7 200.7 200.7 200.7 200.7 200.7
22.7 22.6 22.5 22.1 24.7 26.5 26.7 26.9 29.7 30.5 33.6 35.3 41.5 46.4 60.3 68 81.1 81.5 80.7 86.9 84.7 79.3 79.7 87.1 85.4 79.3 74 79.2 89.5 105.1 119 131.1 116.6 95.2 81 82.1 83.8 89.8 104.3 115.2 126.7 137.8 153 163.1 182.9 208.4 216.9 210.4 203.8 236.8 262.3 279.1 281.5 276.9 282.9 285.6 288.3 294.8 308.3 318.2 318.3 316.5 314.4 311.9 301 296 316 322 319.7 300.4 290.4 285 287.5 300.4 299.1 281.7 281.7 281.7 281.7 282.9 283.7 286.2 287.2 287 282.8 282.8 286.3 296.2 306.4 311.8 310.8 328.7 326.1 326 319 307.1 308.5 301.2 285.4 275.8 276.4 276.5 278.1 285.4 289.9 297.2 311.6 323 319.8 317.3 327.6 334.1 342.6 352 353.3 352.4 345.2 349.8 359.3 354.6 363.1 363.4 359 348.3 331 329.3 329.8 330.3 320.3 308.3 296.8 288 287.8 287.8 296 298.6 296.2 297.7 302 302.7 299.3 298.5 300.1 295.8 295.7 293.9 290.4 288.4 284.4 299.3 304.5 298.2 279 274.4 270.9 268.4 263.4 255 243.1 253.4 267.8 273.9 275.9 272.2 270.8 268.1 265.5 260.9 260.6 254.5 244.7 236.3 230.8 226.7 219.8 211 209.3 213 210.9 200.7 203 208.4 205.9 202.6 200.7 200.7 200.7 200.7 200.7 200.7 200.7 208.6 213.2 215.8 200.7 200.7 200.7 200.7 200.7 200.7
27.3 27.2 23.2 22.6 20.8 23.4 25.8 27.3 26 27.7 31.1 37.2 44.6 44.2 50.1 58.8 74.1 84.3 91.2 85.8 85.1 81.6 92.3 99.2 90.6 79.3 79.6 88 103.4 109.1 122.4 140.1 130.1 114 100.6 92 84.3 89.5 100.2 109.4 129.1 141.1 152 175.2 192.6 221.7 229.4 226.2 212.7 260.7 284.1 282 286.6 281.5 281 302 310.7 312 310.8 316.6 315.8 309.5 306.7 303.4 289.9 296.6 305.7 310.2 300.6 287.9 287 282.6 287.5 296.9 293.4 281.7 281.7 290.2 290 286.2 290.5 287.9 285.7 282.8 282.8 282.8 291.5 298 308.4 315.9 314.7 319.1 326.7 318.8 313.1 297.2 295.8 285.4 276.5 276.5 277.7 282.6 288.1 288.5 305.3 318.8 324.2 331.6 344.6 327.9 333.8 338.3 348.5 352.6 349.7 343 343.3 355.7 357.3 351.7 361.3 355.2 348.9 336.3 330.9 328.6 323.7 314.6 303.6 299 289.2 287.8 287.8 290.5 298.6 307.3 306 300.5 303.6 301.1 299.5 298.2 298.5 296.5 294.7 293.5 290.4 285.4 285.3 299.8 302.7 300.9 282.3 284.6 275.8 266.1 261.2 261.3 255.4 237.4 253.9 261.5 264.6 266.1 263.9 265.8 260.8 252.6 255.9 246.4 235.8 235.2 231.7 226.8 218.1 210.7 205.9 200.8 200.7 200.7 200.7 200.7 200.7 200.7 200.7 200.7 200.7 200.7 200.7 200.7 201.1 212.6 209.8 211.8 200.7 200.7 200.7 200.7 200.7 200.7
46.6 38.4 33 28.2 29.5 24.5 23 23.3 25 27.9 30.4 33.7 35.5 42.7 46.3 58.1 70.4 84.2 89.8 92.1 84 97.1 119 103.4 83.6 81.5 89.9 98.8 112.6 130.1 146.1 152.3 159.7 143 128.1 103.1 87.3 85.3 94.5 108.6 116.3 133.7 159.3 181.6 214.4 227.1 226.2 219.1 225.7 262.7 268.3 269.3 271.7 274.1 283.7 304.8 309.4 310.3 309 311.5 312.5 304 295.6 288 293.9 297.1 290.5 284.5 282.8 279.7 282.2 283.9 291.3 294.6 281.7 281.7 286.5 291 291.1 295.5 292 287.4 286.4 284.7 288.9 297.1 293 297.9 307.5 316.8 314.4 310.6 310.8 309.3 302.4 284.1 279.8 274.1 272.9 276.1 286.8 293.7 292.6 295 313.7 323.3 328.8 346 344 340 333.9 346.8 347.9 344.9 331.7 333 351.8 351.1 345.7 345.1 348.2 343.5 339.1 333.5 326.7 318.4 308.4 298.9 297.1 291 287.8 287.8 290 288.5 298.5 307.4 311.1 308.1 300.5 298.7 300.6 300.9 298.6 295.4 290.2 289.7 286.6 285.4 286.6 297.3 296.7 295 283.1 281.9 273.7 265.7 259.5 258.8 264.3 255.2 237.8 234.7 243.7 249.7 253.3 257 248.2 244.1 241.4 237.5 234.5 230.9 225.7 221.7 214.7 211.7 207.5 203.7 200.7 200.7 200.7 200.7 200.7 200.7 200.7 200.7 200.7 200.7 200.7 200.7 202.4 205.1 200.7 200.7 200.7 200.7 200.7 200.7 200.7 200.7
69 58.4 44.1 41.5 36.3 38.8 39 35.6 40.5 39.2 43.7 45.6 46.7 49.4 41.4 53.9 63.8 73.1 70.1 65.7 80.2 103.2 112.8 90.1 83.1 86.2 104.6 116.5 126.5 143.8 158.3 166.9 173.7 169.8 144.4 122.4 102.3 88.2 98.5 103.5 119.1 147 175.5 203.3 219.2 224.5 220.2 219.4 235.7 250.9 256.1 260.4 278.8 292.7 295.4 304.8 304.8 307.4 305.1 312 312.2 306.5 294.8 278.4 277.3 281 275.3 271.4 274.4 285.5 287.1 285.7 285.5 283.7 290.9 288.1 289.1 291.5 294.5 292.4 285.6 284.4 287.4 296.2 304.4 303.9 300.9 301.2 312.1 312.7 311.4 306.1 298.1 298.5 279.1 266.5 262 265.1 268.8 274.3 285.9 293.8 297.1 305.2 320.1 323.6 332 348.1 350.3 344.7 335.6 346.6 342.5 336.2 327.1 333 343 342.2 337 333.9 333.5 333.8 328.7 327.8 315.3 306.2 296.9 293 289.4 288.9 287.8 295 292.7 288.2 299.1 305.8 315 314.1 308.7 296 297.1 298.3 298.5 300.9 295.9 288.9 286.8 288.5 294.7 297.1 295.8 292.1 283.3 278 269.7 262.2 256.7 253.3 254.3 254.6 250.3 246.8 241.1 227 240.3 244 242.3 237.4 233.7 231.6 231.6 226.3 221.3 218.4 212.6 208.2 206.6 208.3 206.8 200.7 203.6 200.7 200.7 200.7 200.7 200.7 200.7 200.7 200.7 200.7 200.7 200.7 200.7 200.7 200.7 200.7 200.7 200.7 200.7 200.7
81.7 75.4 58.3 51.7 53.2 59.9 59.7 59.5 59.4 56.8 66.3 66 74.3 74.2 75.7 57.7 47.6 52.6 57.7 70.6 69.9 82 82.5 80.5 78.7 98.6 123 135.7 156.4 159.4 174.8 183.5 194.5 185.5 161.9 134.7 114.8 91 103.6 113.9 116.7 143.3 179.1 197.4 208.9 220.2 220.2 222.7 228.1 236.8 258 279.8 291.4 297.2 294.1 293.2 295.6 295.1 296.8 305.1 303 298.5 290.1 283.4 271.4 269.7 265.6 270.3 286.7 301.6 297.3 280.3 285.9 294.9 290.7 291 290.2 292.9 294.4 284.7 288.5 285.8 296 307.3 307.3 306.7 309.1 302.5 303.9 306.5 302.3 290.3 287.4 271.8 257.6 258.2 258.2 261.2 274.6 288.3 289.8 292.4 300.1 312.4 324.2 324.8 334.1 347.4 344.8 348.1 341.3 347.3 340.2 333.7 327.3 335.4 342.9 336.6 326.9 335 336.5 331.3 325.8 316.4 310.1 302.9 291.5 290.1 290 299.2 291.5 293.2 292.3 287.3 297.2 304.4 308.3 308 303.8 295.2 293.1 288.2 293.1 300.7 297.7 288.5 287.9 298.9 294.9 292.4 291.7 290.8 286.6 288.6 272.2 258.7 252.2 248.2 248.3 247.9 246.6 245.7 240.6 237.6 226.9 239.2 237.7 232.6 227.3 224.7 224.2 221.4 220.8 216.9 211.5 210.8 205.3 200.7 200.7 204.8 209.5 214.3 219.2 218.2 202.1 200.7 200.7 200.7 200.7 200.7 200.7 200.7 200.7 200.7 200.7 200.7 200.7 200.7 200.7 200.7
101.1 81.5 80.4 67.7 72.7 80.9 81.1 79 84.4 77 85.9 91.3 102.8 101.3 91.2 88.1 83.3 66.6 56.3 56.1 60.9 65.7 69.9 78 87.5 121.6 136.7 149.8 165 184.9 188 192.6 197.4 193.9 181.5 150.4 126.6 94.5 105.7 118.6 120.7 134.6 148.2 176.2 197.1 212 216.7 215.4 230.7 250.1 266.1 279 288.5 291.3 293.1 283.3 289.1 295 295 292.8 288 282.8 283.6 279.5 269.8 258.7 262.8 274.5 302.9 309.2 301.2 280.9 283.9 288.5 288.4 292.9 291.7 288 284.7 289.4 285.3 294.1 298.2 302.2 308.1 315.9 311.3 307.4 296.7 298 284.6 275.5 262.1 247.5 258.4 252.8 255.5 262.1 282.1 296.2 294 295.8 307.1 316.1 324.3 332.5 334.3 340.5 349.2 350.6 345.2 348.5 336.7 325 324.6 339.5 332.2 320.9 331.9 339.4 338.8 331.5 323.9 320.5 306.6 293.5 292.5 292.4 295.3 296.7 289.6 290.2 286.6 290.2 286.2 292.4 295.5 300.8 302.6 295.7 285.5 278.4 277.2 286.3 289.5 284.9 293.7 298 295.4 293.1 289.9 285.7 283.5 284.4 264.7 257.2 250.5 246.4 243 240.4 242.4 240.6 235.4 234.9 229 219.8 228.1 227.2 222 223.1 222.6 219.7 217.8 214.6 211 208.6 200.7 205.4 200.7 203.6 218.9 226.8 228.9 223.6 211 200.7 200.7 200.7 200.7 200.7 200.7 200.7 200.7 200.7 200.7 200.7 200.7 200.7 200.7 200.7
101.7 102.7 96.8 89.1 91.8 95.6 93.4 96 96.6 91.1 106.6 112.9 132.3 124 110.6 102.6 94.3 89 91.1 87.7 72.9 84.2 87.4 91.7 100.5 124.2 142.2 156.1 177.1 208.1 202.3 201.5 214.6 203.3 192.7 169.1 140.2 114.7 99.9 110.1 121.6 128.6 143.8 164.3 188.2 211.2 214.9 217.3 247.7 267.4 274.1 279.2 278.5 281.4 284.5 278.7 290.4 291.7 289.4 288.2 287.1 277.7 281.1 271.3 260 257.1 260.6 287.4 296.7 300.3 271.7 276.4 279.8 282.3 288 288.7 278.9 284.8 290.7 286.7 288.6 294.4 297.8 308.9 302.8 306.4 308.3 301.4 296.4 275.7 267.4 255.3 247.4 249 258.6 264.2 260 268.1 280.1 287.9 292.4 303.9 318.7 324 330.8 331 335 346.5 349.4 354 348.9 339.3 335.3 318 324.5 316.2 307.9 323.3 333.3 339.4 337.4 328 322.6 310.3 299.7 297 295.6 295 289.3 290.3 283.8 287.4 292.3 289.8 281.6 278.7 289 295.9 299.8 296.8 286.1 279.5 276.9 276.9 278.9 281.5 282.5 287.8 290.7 286.3 290.1 285.5 279.9 268.1 258.9 255.2 249.6 244.2 239.7 238.8 236.4 232.7 230.5 228.4 227.8 223.2 217.9 219.7 218.9 220.4 219.4 219.3 217.9 212.7 209.5 201.4 200.7 200.7 208.4 218.2 225.4 231.3 230.5 219.6 211.3 210.3 207.6 200.7 200.7 200.7 200.7 200.7 200.7 200.7 200.7 200.7 200.7 200.7 200.7 200.7
130.6 126.3 127.4 118.5 109 109.3 100.2 104.4 104.5 111.9 110.4 131.4 133.7 123.4 116.1 116.4 117.8 108.7 113.2 111.4 86.2 113.8 126.6 124.9 138.9 149 159.1 181.1 202.2 207.5 208.5 203.9 203.7 204.4 196.8 179.3 150.7 127.8 93.5 106.6 114.6 119.7 136.5 157.7 176.2 197.6 205.8 219.8 251.3 260.5 265.1 266.8 278.9 282.1 283.3 275.9 284.3 287.2 285.5 284.9 283.9 272.1 267.8 258.9 256.7 251.9 261.2 276.1 275 263.9 262.3 265 272.8 285.3 281.1 279.3 286 294.4 290.2 289.5 300.6 299.6 306.3 301.2 298.7 303 298.9 296.3 284.1 259.8 246.8 231.6 250.4 261.2 268.2 268.8 272.7 274.1 283.5 289.2 298.2 305.9 325.9 330.3 330.1 330.9 337.5 343.3 348.2 351.1 341.3 330.4 325.9 309.1 304.9 303.5 309.3 318.8 327.2 327.4 327.2 325.8 309 303.3 300.3 294.6 294.3 295.6 288.6 282 282.5 293.2 293.1 283.1 280.1 276 285 292.5 295.6 290.6 289.8 284.7 278.9 277.3 276.7 276.9 280.6 279.1 277.4 279.9 279.2 280.3 266.1 262.6 257.7 252.2 246.8 243.1 238.3 232.9 229.9 229.4 229 224.5 223 223.4 215.5 217.6 217.7 219.8 217.3 216.7 216.1 212.1 208.6 207.3 205.7 206.7 214.5 224.9 230.4 237.1 229.6 233.4 225.9 217.6 210.9 215.6 213.1 200.7 200.7 200.7 200.7 200.7 200.7 200.7 200.7 200.7 200.7 200.7
160.4 152.9 156.9 145.2 126.8 111.8 104.5 111.7 119.8 124.3 122.4 120 128.4 138.3 135.2 129.8 125.4 128.3 126.3 106.8 122.4 153.8 171 170.6 186.2 204 196.8 192.1 202.6 217.4 213 211 204.7 204.7 191 175.4 160.6 136.3 113.6 102.8 106.3 117.5 134.6 152.5 177.2 195.2 197.9 213.9 231.8 247.1 251.1 263.5 272.6 277.8 276.3 272.7 280.2 281.7 279 278.3 277.1 265.6 258.9 252.8 249.2 247.8 245.9 248.3 253.1 254.8 257.3 261.7 270.6 272 283.8 292.1 302.7 303.1 298.3 301.3 307.5 301 302.7 297.6 295 290.9 291 274.3 256.7 242.3 230.8 247.1 255.4 263.3 272.6 277.7 288.1 284.6 298.3 301.9 309.2 314.1 325.7 338.2 332.6 329 326.6 333.1 340.2 341.2 323.7 315.4 308.5 310.9 303.3 303.1 315.7 318.6 318.6 323.1 317.4 310.8 306.1 302.1 299 292.5 293.5 290.5 287.1 282.2 276.1 288.7 288 284.9 280.4 273.7 274.6 279.4 284.8 290.3 284.1 279.7 275.3 272.7 271.8 270.9 271.2 270.7 271.5 274.3 272 265.5 262.2 256.6 252.7 248.7 244.7 239.8 235.9 233.9 227.2 225 222.9 221.3 220.8 219.9 216.8 212.6 216.4 216.7 215.4 212.3 208.4 208.1 207.7 207.8 207.1 210.9 219.7 229.5 235.8 237.6 235.5 240.3 233.3 221.7 214.6 215.3 215.5 201.9 200.7 200.7 200.7 200.7 200.7 200.7 200.7 200.7 200.7 200.7
193.7 182.8 170.3 165.1 140.9 120.8 116 117.9 125.7 131.9 124 125.1 135.6 145.7 144.7 138.9 136.7 134.4 116.9 127.6 165.6 202.2 225.9 225.8 223.8 238.5 237.8 227.6 217.6 219.1 211.6 208.2 206.7 202 198.2 192.5 177 148.4 124.6 112.1 108 127.2 136.7 157.3 184.4 191.5 200 209.8 226.4 238.2 250.3 259.1 266.7 267.6 269.1 267 274.3 276.2 271.4 267.8 265.2 259.6 250.5 249.4 235 248.5 248.3 250.7 255.6 256.9 257.6 257.7 265.5 282.2 290 306.5 308 306.3 307 301.2 301.8 296.5 292.3 291.8 288.4 277.3 264.2 250.1 233.6 225.8 224 239.1 252.4 263.7 274.3 298.9 303.1 302.6 305.7 315.3 320.1 320 329.3 332.2 326.8 326.7 322.8 324.3 329 318.9 314.5 314 306.4 302.4 305.8 312.2 317.5 317.7 310.1 305.6 304.9 303 299 295.8 293.5 293.4 291.6 288.1 281.7 275.1 270.1 280 289 284.5 287.7 275.8 271.6 272.2 272.1 277.4 275.3 271.1 270.2 266.8 268.2 267.9 271.2 269.9 281.1 281.6 267.3 258.6 258.6 253.1 249.8 246 242.8 237.5 233.2 229.5 226.9 224.4 223.2 219.2 218.5 220.7 215.9 213.7 212.7 212.8 211.9 211.8 210.1 208.9 208.9 212.9 210.6 220.8 231.8 239.9 240.1 242.5 246.6 244 237.5 240.3 229 223.4 219.2 217.3 204.4 200.7 200.7 200.7 200.7 200.7 200.7 200.7 200.7 200.7
213.5 206.8 188.1 182.8 158 138.9 129.1 129.2 131.1 130.5 136.9 133 144.1 152.2 147.8 143.7 137.2 124.5 136 170.8 207 223.4 232.7 240.9 243.2 241.7 244.4 241.3 233.8 231.7 233.4 227.3 208.6 200.6 208.8 199.2 194.4 159.8 133.6 113.7 109.5 125.5 138.5 159 184.9 190 205.6 214.2 213.7 224.4 242.8 260.3 261.2 261.3 262.9 256.2 265 267 265.9 254.4 250.6 248.6 244 232.4 238.9 244.1 253.3 253.6 256.2 256.6 254.9 265.2 278 289 302.5 308.6 313.7 308.8 305.9 303.3 298.2 292.8 285.9 288.5 283.3 261.7 244.4 230.5 223 224.7 222.1 232.2 249 263.8 285.7 309.9 316.6 306.8 312.8 318.7 324.3 331.5 324.1 318.9 318.5 335.2 322.9 323.2 321.3 322 320.4 314.2 304.1 302.4 313.8 315.9 317.6 305.9 297.1 299.1 300.5 302.1 295.6 293.6 294.1 294.1 291.1 286.1 281.1 275.6 267.9 274.3 280.2 285.4 280.4 281.3 269.7 269.7 266.9 264.3 264.6 262.8 260 263.1 264.8 265.6 267.5 276.1 285.4 278.8 261.6 255.9 252.2 250 247.4 244.7 239.4 236 230.4 228.2 223.1 221.7 217.5 218.5 216.4 214.2 213.2 212.7 211.9 216.2 220.1 219.2 215.2 212.1 212.1 215.8 222.9 230.4 242 245.8 246.9 251.5 253 248.7 253.5 252 245.8 236.5 227.5 222.4 213.2 204.4 202.3 200.7 200.7 200.7 200.7 200.7 200.7 200.7
217.2 209.8 202.5 188.6 170.9 149.6 131.7 138.9 142.5 145.6 146.1 143 143.6 149.3 149.1 141.7 130.2 140.3 169.5 195.4 210.4 227.8 251.4 252.5 252.1 248.3 246.8 241.1 240.2 237.2 232 230 223.6 207.2 188 193.4 180.4 150.1 134.5 117 108.2 121.4 142.4 156.8 168 179 196.1 208.9 235.6 237.8 229.3 247.9 253 252.3 246.6 247.4 260.9 265 256.5 241.7 232.1 228 230.4 234.6 242.4 239.8 240.5 242.7 250.2 254.4 258.8 271.9 278.9 290.8 302.7 307.1 308.8 309.6 308.5 302 288.5 284.8 279.1 276.6 261.8 245 228.4 219.3 223.5 222.6 220.1 236 248.1 264.6 288.6 318.6 314.4 304.3 307.7 311.6 315.2 312.9 310.6 308.3 325.3 334.3 321.8 313.9 318.8 322.3 317.4 304.1 296.9 305 314.5 307.3 296.1 294.3 290.3 292.6 298.3 296.7 294.9 294.2 298.5 300.9 298.8 288.2 282.3 278.1 269.1 269.3 277.9 276.5 277.8 278.8 270.4 266.6 262.3 257.7 257.6 257.2 255.9 257.9 260.5 268 274.6 272.4 271.3 259.6 255.7 255.8 253.1 248.4 244.7 241.2 235.3 231.5 228 225.3 221.9 217.6 220.7 215.5 221.1 219.6 221.8 217.7 213.5 215.2 222.1 222.9 221.1 217.5 218.2 223.6 232.3 241.3 248.4 252.6 254.1 256.7 258.8 261.3 259.4 256.5 253.8 245 236.1 227.8 220.6 213.3 200.7 200.7 200.7 200.7 200.7 200.7 200.7 200.7
215.5 211.2 207.1 185.5 160.7 153.5 148.1 149 155.5 163.1 165.5 151.8 144.5 150.3 147.2 136 142.5 155.8 183.8 204.1 235.1 250.9 256.1 255.5 256.9 252.5 246.8 246.1 247.2 241 232.3 228.7 222 212.8 207.5 188.1 174.1 162.1 135.3 123 120.6 113 138.1 148.7 155.1 168.9 188 240.6 241 238.6 235.2 229.5 237.4 236.4 235.7 240.2 251.5 243.5 232.4 228.3 217.9 224.7 228.4 231 234.7 236.2 235 246.2 251.7 259.9 277.5 277.9 284.3 286.9 294.5 305.2 307.6 308.8 303.7 288.3 282.4 276.2 268.1 256.4 239.6 223.3 215.4 214.6 216.3 217.3 222.2 231.6 244.1 259.9 288.3 306.7 302.7 293.8 289.7 309.9 296.4 298.5 300.3 305.1 308.6 308.5 306.1 309.4 321.5 317.3 308.8 296.6 289.5 292.2 292.7 287.3 285.8 282.2 284.4 292.4 295.4 293.7 294.7 297.6 303.7 300.6 296.8 288.2 280.6 274.2 269.4 263.7 269.9 272.1 273.6 272.6 268.2 257.4 252.2 253.3 253.9 253.6 247.9 248.7 253.9 257.4 255 250.4 250.3 251.5 249.2 251.2 254.3 246.6 242.4 236.9 233.1 229.2 226.2 223.8 222.7 220.8 224.8 223.9 235.3 232.1 228.5 223.6 221.1 213.4 223.2 224.8 225.3 222.4 226.7 232.6 241.3 249.7 256.4 260.4 264.9 268.5 272 276.3 265.8 262.3 258 253.7 247.1 235.3 224.4 217.5 200.7 200.7 200.7 200.7 200.7 200.7 200.7 200.7
220.2 215.6 196.4 175.7 180.9 178.1 170 166.1 167.6 170.4 168.2 156.2 148.3 149.1 141.7 142.4 144.7 169.2 188.4 212.3 235.7 252.6 258.1 261.3 259.4 256 252.8 251.8 253.8 253.3 244.8 225.6 226.6 234.9 233.4 211.9 194.9 171.6 148.9 128 118.5 114.3 128.7 135.6 145.2 158.9 183.1 236 236.5 236.8 230 224.5 222.8 219.8 222.4 228.5 226.7 221.7 217.5 209.8 210.8 215.5 216 229.4 237.9 241 241.5 247.4 258.2 277.9 278.2 278.5 282.9 281.4 285.3 294.8 297.1 290.7 291.3 287.4 275 266.9 252 238.2 219.3 212.8 216.7 221.2 228.9 231.3 240.3 245.8 248.6 247.3 278.6 302.7 294.2 281.3 284.9 287.8 282.9 289.6 283.9 282.8 286.9 292.6 300.6 311 315 308.2 296.8 288.9 289.7 285.6 283.1 288.2 282.5 281.6 286.7 290.3 291.5 293.5 302.5 303.9 298.8 292.7 287.6 286.2 281.8 277.2 269.1 263.6 262.7 267.1 271 267.7 262.8 256.6 251.6 249.3 250.7 246.4 241.9 246.5 245.1 244.4 244.3 238.6 239.2 245.1 243.4 244.8 244.9 242.9 239.4 232.6 232.9 228.7 225.1 220.6 226.6 226.1 227.9 236.9 240.7 239.1 248.4 247.2 236.3 220.6 223.3 228.5 230 231.6 237.2 243.9 251.6 262.6 267.6 273.1 273.6 272.7 273.2 277.1 275.6 266.7 263.5 262.2 255.9 242.7 228.3 220.3 206.2 200.7 200.7 200.7 200.7 200.7 200.7 200.7
225.6 205.6 202.5 208.1 206.2 199.1 189.8 177.4 175.5 169.9 162.4 156.2 149.8 145.3 144.6 157.8 175.1 173.8 195.4 213.5 245.5 259.8 260 264.6 265.7 264.1 266.2 267.4 261.3 252.5 242 228.3 237.4 248.2 243.9 228.9 216.8 190.3 162.9 139.5 125.6 113 118 126.3 137 154.8 183.9 217.5 224.6 220.3 218.1 219.9 216.1 207.4 200.9 204.9 204 199 200.7 209.4 210.5 207.6 224.4 241.1 241.6 245.5 248.4 262.2 265.5 275.8 278.7 275.7 274.6 279.7 280.1 284.9 283.2 286.7 291.5 283.2 267.8 250.3 235 219.4 209.4 216.6 221.8 231.8 245.7 260 267.1 265.2 262.1 242.3 266.6 276.7 274.2 271.5 273.7 271.1 269.1 272.3 268.2 261.7 273 282.1 303.1 298.2 308.1 296.5 289 280.5 279.1 286.3 287.5 293.2 287.9 279.7 280.6 288.2 291.1 294.5 298.1 296.5 291.6 286 286.1 288.9 284.6 273.1 267 260.9 257.4 262.6 261.6 258.2 256.1 256.1 252 245.8 245.3 241.3 239.2 240.9 242.1 242.1 232.3 230.8 236.4 238.4 240.8 242.2 236.4 234.7 232.9 230.9 228.1 227.3 221.7 226.2 230.3 237.6 238.1 246.2 251.7 250.3 251.8 250 241.8 229.2 225.2 234 236.2 239 246.6 255 261.8 268.3 272.6 274.7 274.4 273.4 271 273 281.1 274.6 264.2 262.1 254.2 243.5 231.5 218.3 212.1 200.7 200.7 200.7 200.7 200.7 200.7 200.7
217.9 217.2 223 220.1 220.8 218.2 207.5 192.3 179.5 173.4 175.9 168.8 154.7 151.2 160.5 193.1 213.4 205.8 193.7 227.6 239.7 252 262.2 264 264.7 269.4 268.3 269 262.9 254.1 240.6 236.6 242.7 251.2 249.5 237.3 224.6 206.5 183.6 164.5 145 125.6 115.2 119.5 130 144.5 165.4 197.7 207 210 214 215.2 204.8 197.6 197.8 201.6 195.4 194.8 197.8 201.1 201.7 216.6 227 239.6 244.4 250.6 252.3 263.9 267.5 274.8 273.5 268.5 272.4 278.4 274.1 272.7 280.5 276.1 274.1 267.9 246.9 224.7 210.2 213.5 214.1 220.6 221.9 237.3 254.9 276.9 285.4 281.8 273.1 255.7 242.6 251.8 257.5 259.8 260 258.1 257.8 255.2 247.9 256.8 268.4 278.3 295.4 291.6 298.9 288.6 285.5 277.8 269.3 281.1 284.7 286.5 282.8 272 274.5 284.7 288.7 295.8 289.4 282.5 285.6 281.5 286.8 289.6 281.8 270.3 266 263.2 260.2 258.6 254.4 257.4 253.3 252.9 248.2 242.8 238.4 237.9 237.8 236.5 240.6 239.1 231.7 230.1 236 239.1 240.8 236.8 230.6 228.2 225.1 226.5 227.3 222.7 223.3 228.8 236.4 242.8 248.2 250.6 257.1 255.2 253.1 249.2 244.2 243 236.3 230.8 237.1 246.4 256 263.3 266.8 272.1 275.5 277.2 275.3 272.8 272 274.5 276.6 271.7 263.9 260 254.2 242.9 234.2 222.9 212.8 205.3 200.7 200.7 200.7 200.7 200.7 200.7
231.8 229.9 229.4 232.7 226 227.9 216.3 203.6 184.4 183.9 182 169.4 156.3 168.4 188.9 211 233.3 224 215.9 228 247.7 249.9 259.6 268.6 271.3 273.5 275.6 273.8 264.5 254.9 257.5 253.7 246.1 251 252.4 239.6 232.8 226.2 208.5 179.5 158.4 136.1 123.4 115 125.8 143.7 152.9 169.8 184.4 196.8 195.8 187.4 190 182 189 189.8 198.6 202.2 202.3 200.1 203.2 220.6 231.1 237.4 241.4 252 247.5 258.7 263.8 262.1 260.6 267.3 269.9 273.8 272.5 262.7 266.6 263.7 261.2 241.9 223.2 205.7 207.2 208.4 212 218.1 223.3 240.8 260.9 279.7 297.7 290.6 285.3 278 257.6 245.1 250.2 253.3 254.7 256 247.2 241.2 242.4 248.3 249.5 267.1 274.1 271.3 283.5 289.7 272.5 272.9 271 270 280.1 280.6 274.3 270.1 269.2 273 274.7 274.5 271.5 272.9 280.6 280.7 278.7 281.9 273.8 268.5 267.8 266.3 267.8 250 251.5 253.7 249.3 246.4 243.1 238 229.7 228.8 232.4 234.6 238.4 233.4 229.8 231.6 229.2 232.9 229.7 230.6 225.2 225.2 226.1 225.2 226.9 229.3 225.3 235.4 242.8 246.7 255.8 259.3 259.4 257.5 259.1 254.8 251.4 244.9 235.2 231.3 244.4 253.4 264 266.9 269.9 275.6 279.8 279.4 274.1 273.1 274.3 275.8 274.1 271.3 264.2 259.7 252.2 246.4 236.8 227 215.8 204.8 200.7 200.7 200.7 200.7 200.7 200.7
242.9 239.9 246.4 251.7 238.7 231.2 222.9 212.7 203.6 192.7 181.6 173 183.1 206.8 216.4 233.9 249.2 233.2 226.4 236.8 249.2 252.8 264.9 271.8 276.6 280.8 283.8 281 270.8 256.5 259.2 257.3 251.6 247.6 245.8 244.4 237.7 232.9 224.8 190.2 163.4 141 127.1 116.1 120.3 127.3 146.1 155.6 159.3 171.1 178.1 175.8 180.1 172.9 182.4 194.3 204.5 220.3 218.2 212.9 219 217.1 227.9 224.4 237.3 238.5 240.6 245.7 250.8 253.9 260.9 263.4 266.3 265.4 264.8 259.6 257.8 250 236.3 219 205.7 204.2 205.1 206.8 211.3 221.1 237.5 245.9 258.4 284.3 298.1 294.1 291.9 289.3 274 258.2 250.3 247.4 247.5 245.6 238.5 236.1 238.2 238.8 238.7 246.6 258.5 269.8 276.3 276.2 266.4 266.8 269 266.2 273.1 275.9 269.9 273 268.3 267.6 262.7 265.4 269.7 274.4 283.5 276.6 271.6 268.9 263.8 266.9 268.2 264.7 265.6 240.8 248.4 247.1 242.3 242.6 240.3 232.9 225.7 225.8 224.2 226.8 231.7 232 228.9 227.3 224.2 228.2 228.8 226.2 226.2 229.7 228.3 226.7 228.4 235.6 240.5 245.6 253.2 260.4 264.6 265.7 262.6 261.1 262 255.5 247.7 237.1 233.8 234.5 246.7 258.1 267.7 269.2 274.2 280.2 284.4 283.6 278.4 276.3 277.2 277.7 275.7 274.6 271.6 267.6 261.3 251.5 242.4 231.9 218.8 205.9 200.7 200.7 200.7 200.7 200.7 200.7
246.8 250.1 258 254.4 242.6 235.5 226.6 220.4 207.8 196.2 182.8 191 236.2 248.3 244.3 245.4 249.4 227.1 237.2 239.3 245.8 253.1 258.4 270.3 276.5 284.9 291.8 282.4 266.9 262.8 261.8 260.9 254.8 246.8 245.9 245.4 240.3 239.6 230.7 204.2 169.9 147.9 133.5 117 123.7 128.2 135.3 147.3 157.5 161.8 165.6 164.9 164.3 177.7 189.2 205.2 216.5 223.1 222.5 223 227.2 230.6 232.2 231.4 232.3 235.7 238.8 241.3 249.5 256.4 258.8 259.7 257.5 266.5 259.1 255.2 243.3 230.1 211.6 210 203.3 204.1 205 208.8 214.4 231.8 246.1 249.4 263.6 289.7 300.2 300.8 295.2 289.3 282.8 266.7 255 248.1 244 236.3 233.7 233.5 232.4 232.5 233.3 235.4 247.3 252.9 261 256.8 251.3 262 268.3 261.8 264.6 270 261.8 270.3 262.1 265.7 260.4 262.7 263.1 269.8 271.8 264.8 262.3 258.9 251.4 255.2 259 254.9 249 236.4 237.7 236.1 234 232.2 227.7 224.2 224.2 224.2 224.2 224.2 229.4 229.2 226.7 224.2 224.2 224.2 226 228.5 233.8 234.6 231.6 228 237.6 246.3 260.1 260.5 262.9 268.1 272.2 269.1 266.2 265.6 264 244.8 235.7 238 246.1 246.7 251.4 262.8 267.9 270.4 278.2 284.6 289.5 287.5 281.5 282.1 281.9 281.3 279.2 280.7 280.1 275 269.3 259 247.6 237.5 224 204.9 200.7 200.7 200.7 200.7 200.7 200.8
253.1 256.6 262.2 257.8 247.5 243 235.4 224.5 213.2 198.2 189.3 213.9 255.7 272.2 263.2 255.5 246.7 241.9 240.9 240.7 254.3 254.2 255.9 264.7 276.6 285.1 288.1 280.1 279.2 274.6 274.8 272.6 264.3 250.5 248.8 248.7 245.8 242.3 236.7 212.7 178.9 154.7 138.3 121.8 123.1 130.8 132.4 139.4 147 149.3 160.4 166.2 176 183.9 193.3 216.5 223.1 222.8 228.7 229.8 233.1 233 243.9 246.1 240.4 248.5 250 245.4 243.5 248.9 251 256.2 261 262.8 255.3 243.1 227.7 213.7 210.7 203.7 202.5 212.6 220.5 224.2 220.2 234.7 247.6 255.3 261.7 280.8 299 298.2 285.9 280.9 275.5 266.3 257.6 246 240 235.7 233.8 232.6 234.8 231.9 229.2 231.5 238.8 241.9 242.7 248.5 250.3 254.8 256.3 255.6 255 256.3 247.6 250.6 255.2 255.8 247.9 252.5 249.9 255.8 260 258 253.1 244.6 242.1 241.1 243.4 238 234.1 233.8 231.3 232.2 230.8 224.7 224.2 224.2 224.2 224.2 224.2 224.2 224.2 224.2 224.2 224.2 224.2 224.2 224.2 230.4 235.8 236.1 239.1 243.9 249.2 258.1 273.4 276.3 272 271.7 279.2 276.3 269 263 251.6 246.3 243.9 252.5 260.3 272.7 267.1 266.3 273.5 277.8 279.8 287.3 293.9 291.6 286.3 282.8 283.9 284.6 288 289.6 286.6 281.7 277.4 266.2 254.7 243.2 231.2 218.5 206.8 200.7 200.7 200.7 202.9 204.7
257.7 259.7 260 257.9 252.5 244.7 238 225.1 205.3 196.5 214.1 222.6 262.6 275.2 270.4 258.6 252.8 250.3 240.1 250 253.5 257.1 257.2 260.9 266.9 276.8 275 275.8 284.1 282 284 282.6 272.1 258.2 254.4 251.3 244.9 241.6 240.3 214.5 185.9 159.8 144.2 125.4 127.3 133.4 143.3 152.5 160.6 164.9 173 175.6 182.5 187.5 201.6 216 225.4 227.7 230.4 235.3 248.3 253.8 255.5 250.3 245 250.5 248.7 248.5 244.5 241.1 244.4 250.1 251.8 241.7 237.6 224 213.6 209.7 206.2 202.6 202.7 210.3 227.3 238.7 245.3 252.4 252.8 254.6 263.3 270.4 288.1 293.4 281.1 276.8 276.1 270.2 266.8 251.3 239.2 236.4 237.6 234 231.6 229.2 227.7 228.5 229.8 231.9 236.1 241.6 242.9 243.5 246.5 250.4 246.1 240.5 238.9 238.9 241.4 242.6 236.8 236.7 237.5 240.7 247.3 247.4 242.8 238.9 233.2 234.6 234.2 231.9 231.1 229.2 228.5 229.7 228.3 224.2 224.2 224.2 224.2 224.2 224.2 224.2 224.2 224.2 224.2 224.2 224.2 224.2 229.2 234.9 239.1 239.2 245.1 253 266.5 272.9 279.8 289.1 286.2 281.8 282.2 276.6 266.1 244.1 244.9 252.9 269.1 275.4 276.9 279.7 279.4 273.2 279.1 289.7 289.3 291.8 297.2 297.9 294.5 290.2 287.1 288.6 295.6 296.3 290.6 284.5 278.9 270.3 258.6 248.1 236.2 224.2 213.2 200.7 200.7 202.3 207.6 204.8
261.4 263.3 263.7 265.6 258.4 248.2 234.5 214.6 197.2 215.7 236.4 239.4 266.3 281 270.9 269.9 263.9 256.3 246.3 263.2 261.5 266.8 265.3 270.9 271.9 268.9 272.6 277 280 282.6 284.2 282 277.2 271.5 266.9 256.9 246 237.8 237.8 214.7 189.2 162.1 141.7 128.9 132 144.3 155 162 172.9 184.1 194.5 198 196.7 197.9 202.7 213 218 224.5 230.3 244 256.2 260 255.1 252.2 245.5 245.3 248.2 248.3 249.6 248.6 236.9 225.4 229.8 225.1 214.9 216 210.4 202.9 201.6 201.1 201.7 211.6 226.6 244.8 254.9 269.3 263.2 261.3 275.2 279.7 285.9 286.4 282.9 283.3 276.9 269 263.6 256.2 248.4 246.1 238.5 237.2 233.2 231 227.6 227.8 229.1 229.8 232.5 235.7 236.6 238.8 237.8 241.8 233.6 234.3 235.8 229.9 232.9 231.7 231.5 232.5 234.2 231.2 235.5 235.9 235.1 233.6 230.2 231.9 236.2 230.4 226.7 225.6 226 230.1 224.2 224.2 224.2 228.6 229 232.9 231.8 224.2 232.1 231 229.8 236.6 234 231.4 234.5 239.5 239.5 244.1 250.5 262.8 272.6 282.7 291.4 297.8 296.2 286.9 279 270.9 261.9 261.9 261.3 267.2 288.2 293.1 285.8 287.1 289.4 287.6 283.7 296.3 299.4 301.3 300 300.7 299.6 295.3 295.6 299.7 304 293.9 291.1 286.1 279.7 272 262.8 254.9 240.5 228.3 215.8 203.3 200.7 200.7 202.8 200.7
265.5 268.8 271.3 269.8 260 243.5 222.1 203.7 211.2 238 251.2 248 255.6 264 267.9 273.1 269.8 261.8 249.9 266.5 271.6 278.1 279.4 279.3 282.2 275.3 276.3 280.3 279.9 282.2 285 287.9 282.9 277.5 271.9 263.2 249 238.4 228.9 209.1 183.5 166 148.2 126.1 142.2 152.1 164.4 176.8 182.7 202.3 208.4 203.2 204.5 210.7 213.7 215.8 218.2 221.4 236.1 250.1 255.6 253.2 253 248.5 245.1 243.9 244.9 251.8 242.6 232.6 220.2 217.5 212.7 208.8 205.4 205.5 202.7 200.2 200.2 200.8 202 213.5 227.5 249.2 257.7 267.4 265.2 271.3 285 284.3 285.6 287.1 297.2 288 277.6 273 271.8 263.2 255 248.5 245.2 238.6 233.7 233.7 228.8 227.4 228 228.9 228.7 229.1 230.9 231.2 230.2 227.3 225.9 225 224.5 225.2 224.5 224.5 226.8 227 229.1 224.7 233.3 225.3 224.5 228.4 224.8 225.8 228.7 226.4 224.6 224.2 224.2 224.2 224.2 226.2 235.5 232.6 234.9 244.7 244.5 239.7 246.5 246.3 237.8 243 242.5 237.6 239.6 244.1 245.8 251.4 259.6 268 277.1 281.4 295.4 299.6 289.7 282 274.2 268.7 265.1 266.3 272.9 272.9 293.7 296.6 296.4 297.4 295.7 295.7 289.7 302.2 307.3 303.4 301.7 306.1 304.8 298.1 298.6 304.2 301.2 295 290.8 287.2 280.7 273.6 265.5 262.2 244.9 230 216.2 216.6 212 200.7 200.7 203.1
274.4 271.3 274.2 271.6 255.5 233.1 211.1 211.7 234.5 253.6 259.3 252.9 250.9 256.8 266.4 279.7 278.6 268 254.3 271.7 283.9 282.9 285.9 283.3 279.5 279.2 280.1 280.9 280.6 282.9 286.7 287.8 287.2 281.5 277.6 270.9 256.6 237.6 217 203.1 189 176.3 145.4 131.3 150 157.3 170.5 182.5 194.1 213.7 217.5 213.3 215.2 223.3 224 224.3 220 221.5 239.1 244.6 247.8 259.8 249.7 249 244.2 240.8 237.7 236.5 226.4 217.3 216.1 207.4 205.1 202.6 200.6 200 199.1 199.4 199.9 200.7 206.6 211.6 223.8 248.2 262.5 261.7 280 282.4 288.1 285.5 293.8 302.1 296 286 281.2 284.3 277.1 272.9 259.3 254.7 246.3 236.5 231.8 229.6 227.9 227.3 227.1 228 227.4 227.4 227.9 228.2 226.2 225.3 225.8 226.3 224.5 224.5 224.5 227.7 228.6 224.4 224.4 224.4 224.4 224.4 224.4 224.4 224.4 224.4 227.4 226 226 226 224.2 226.6 233.4 240.9 245.6 246.3 250.6 257.5 271.9 264 251.9 244.7 248.6 250.6 248 242.7 246.2 246.7 250 260.1 267.1 269.7 276.7 282.6 293.8 294 279.8 277.3 272.5 262.3 271.1 274.9 274.3 284.7 297.4 301.8 306.3 312.5 312.7 310.9 301.3 301.8 304.7 304.5 304.4 307.7 305.7 299.3 300.5 303.4 300.9 295.9 291.8 287.8 282.5 275.7 269.1 257.3 246 240.8 228.6 218.7 214.4 207.7 200.7 208.7
279.2 281.8 276.6 265.8 248.2 219.6 222.6 237.3 246.2 259.2 260.9 255.5 251.2 263.2 263.3 278 278.7 269.9 255.2 273.2 281.9 284.6 278.3 278.3 278.5 283 288.4 287 284.9 289.6 289.1 294 289.4 286.9 283.3 279.5 263.7 241.3 219.6 201.1 190.3 168.6 143.4 143.3 154.9 163.6 173.5 182 206 213 213.1 215.1 217.6 222.1 227.4 227.8 225.1 227.1 231 240.1 247.8 249.3 249.3 255.5 243.6 238.2 227.7 222.5 212.8 210.5 209.6 206.4 206.9 201.2 197.9 198.3 199.5 200.5 200.4 203.8 207 214.6 225.8 242.4 258 268.8 283.5 298.2 291.5 291.9 300.9 301.9 288.8 289 292.4 288.4 287 278.5 265.7 251.7 249.1 241.5 234.5 229.2 231.5 229.2 227.3 226.9 227.1 226.2 226.4 228.2 227.8 226.1 226.7 226.2 224.5 224.5 229.5 228.9 224.4 224.4 224.4 224.4 224.4 224.4 224.4 224.4 224.4 224.4 224.4 226.4 227.1 226.2 227.8 238.8 247.8 260 266.2 263.6 273.4 280.1 277.3 270.5 259 251.9 258.7 254 252.5 255.2 255.9 260.5 256.9 265.9 272.5 278.6 285.9 287.7 288.2 274.5 277.2 271.5 269.5 278.9 277.8 283.1 286 292.9 304.4 307.8 313.6 321.9 325.9 320.7 310.4 304.6 307.1 310.2 308.4 306.8 303.8 304 302.5 301.8 299.2 297.8 294.1 289 284.9 280.5 276.2 268.7 265.1 257.3 241.6 225.3 217.5 204.9 200.7 210.8
285.8 283.4 274.9 258.4 236.4 228.7 244.1 259.2 259.3 257.9 260.3 255 254.9 262.7 269.3 275.4 280.1 273.7 257.4 271.4 279.7 275.9 275 275.6 279.1 283.6 294.5 296 292.6 290.3 291 294.4 293.9 290.3 289.4 279.7 272.3 248.2 222.2 203.3 189 167.4 143 146.9 158.2 167 173.1 194.8 209.7 210.7 214.1 224.2 228.1 222.5 224.7 230.7 230.6 230.6 230 237.2 244.8 241.7 249.8 244 230.5 229.6 217.4 217.8 216.4 211.7 208.7 206 203.9 198.9 198 200.6 201.3 202.7 202.9 203 207.2 215.9 225.4 246.5 250.7 269.8 289.5 297.3 292.6 296.1 294.4 290.7 295.1 293.7 292.1 290.6 285.3 266.5 256.5 253.8 249.8 245.6 236 232.7 237.4 233.5 228.4 227.7 228.2 227.3 226.4 226.8 225.8 226.5 226.7 226.8 226.5 227 229.5 228.8 229.5 227.1 226.9 229.2 224.4 224.4 224.4 226.7 229.5 228.1 225.9 227.3 228.9 231.6 234.5 248.2 258.5 267.2 274.5 272.2 283.3 283.1 279.3 273.8 272.5 260.8 265.9 269.3 269.9 270.1 266.7 276.4 271.4 271.1 283.8 287.5 288 283.8 274.9 278.9 278 278.3 281.1 286.6 290.2 293.8 292.8 302.8 312.3 316.2 320.1 323.4 322 316.7 315.5 309.1 313.5 312.6 311.7 309.8 313.4 311.2 304.6 300.7 301.3 300.3 298.5 291.6 288.1 284.7 279.1 276.2 274 271.5 252.6 233 222.1 212.9 200.7 213.3
285.6 281.9 268.6 250.6 236.7 251.2 254.8 262.9 267.9 266.3 263.6 256.4 258 267 273.2 274.8 279.2 280.9 262.1 266.9 267.9 271.6 274.9 278.8 286.2 296.7 306.1 303.6 299.5 299.1 294.8 296.1 298.6 296.7 293.1 285.9 273.1 249.4 223.7 204.1 186.6 168.9 150.6 148.5 160.1 166.8 181.7 203.6 207.2 209.8 227.7 236.9 229.1 226 225.6 227.5 227.4 227.6 226.2 236.4 232.3 230.6 237.5 225.4 213.3 211.2 216.7 217 216.5 211.9 209 207.2 204.2 198 203.2 202.5 204.9 206.9 206.7 201.6 212.9 222.4 246.6 245.5 249.9 264.7 277.5 291 288 291.9 296.8 298.3 298 296.4 294.7 288.8 278.3 264.3 260.9 258 251.9 246.4 242.1 247 244.2 243.2 240.6 239.2 232.3 228.8 227.4 227.2 226.7 226.4 227.6 228.1 228.7 227.7 228.9 229.3 231 229.9 230.7 229.6 227.9 224.4 224.4 226.8 228.4 228.8 227.7 227.6 232.1 239.9 245.6 255.4 270 277.6 278.7 283.6 283 285 288.4 289.3 279.4 276 279.4 276.9 274.2 280.2 284.1 288.7 283.6 280.9 286.4 284.8 283 275.2 277.6 281 284 286.8 291.1 290.1 296.3 300 299.6 309.1 313.9 316.3 316.8 320.6 320.9 325.2 321.7 315.8 316.4 325.6 319.7 320 314.8 307.6 303.2 300.2 297.8 298.1 297.3 297 294.7 291.3 286.8 285.5 283.7 273.1 258.3 238.8 225.9 215.3 207.2 218.8
282.4 276.2 261.7 247.8 247.8 265.5 273.5 266.2 269 270.4 270.4 263.8 257.4 271.2 279.7 284.5 278.9 275.8 265.3 260.8 263.4 276.9 279.5 282.7 290.6 300.9 312.6 317.7 308.7 308.9 300.3 301.3 309.4 311.5 301.2 286.2 271.5 248.9 225.8 205.9 189.5 171.9 151.2 144.6 161.4 176.9 184 201.5 201.9 217.9 234 233.6 233.8 230.1 226.6 226.5 224.2 227 221.6 222.7 220.1 218.4 218.3 208.5 217.8 219 217.6 217.6 217.8 218.3 209.3 206.4 203.6 196.2 197 204.1 206.8 203.2 202 199.6 205.8 224.1 240.7 250.1 269.9 276.7 282.4 293 284.1 295.5 303 300.1 304.3 304.5 292.4 280.7 274.1 266.9 257.9 253.5 252 243.8 247.9 252.4 248 249.3 248.9 248.4 243.8 238.5 239.7 230.7 231.9 231.5 230.7 230.4 232.2 230.9 233.6 231.7 232.2 232.3 233.1 235.3 230.1 231.1 230.1 231.8 229.9 231 230.5 239.2 247.9 250.2 255.2 265 278.8 287.4 296.5 304.1 303.2 300.8 300.8 294.2 284.9 298.4 293.4 287.3 283 282.5 284.4 285.6 285.7 282.9 280.3 278.2 276.1 277.3 277.4 284.7 290.2 290.7 292.6 295 298.6 300.5 305.8 308.9 310.9 313.3 314.4 321.5 325 327.6 326.1 322.2 318.8 323.1 324.5 323.9 317.2 309 301.4 300.5 302.4 297.2 300.4 304.1 299.8 295.9 293.3 291.4 284.6 274.3 266.8 245.2 228.2 215.9 214.2 224.8
282.1 273 254 252.1 253.2 271 288.3 280.2 273.3 272.2 269.4 269.2 262.9 268.4 278.3 282.8 282.3 275.9 265.5 261.4 263.3 277.6 289.7 294.4 298 302.8 317.4 318.1 318.9 321 314.6 314.5 319.9 318.6 306.5 288.6 270.7 248 224.7 207.8 189.7 173.7 148.1 151.9 165.2 176 184.4 195.4 197.6 219.9 229.9 235.2 232.2 230.3 228.1 224.8 221.8 222.2 219.7 212.1 211 210.3 206.4 217.3 222.3 224.1 224 225.4 225.5 220.4 209.5 207.6 208.9 199.6 192.8 197.1 202.2 200.7 198.4 203.1 215.2 239.9 260 265.2 277.1 280.5 291.3 300.4 280.3 283 291 303.9 302.7 292 282.4 273.2 267.6 259.5 255.6 253.2 251 248.5 254.1 255 253.6 253.4 254.4 255.2 256.7 254.8 252.4 252.5 248.4 248.4 240.5 239.6 238.7 239.3 235.6 238.2 242.8 237.2 242.8 240.5 236 238.7 245.1 248.6 242.3 238.2 244.5 253.3 262.3 265 267.8 279.2 286.4 298.1 308.4 309.9 314.9 310.7 308.2 300.5 295.9 304 302 295.2 291.7 290.3 285 285.6 286.3 282.7 277.7 277.1 277.3 279.6 285.7 287.5 296.2 294.1 294.4 297.7 300.6 302.4 304.9 310.3 310.2 315.9 321.8 322.9 326.7 330.5 329.9 330.2 333.3 329.6 327.1 321.8 317.8 312.2 304 301 301.8 306.3 312.1 305.8 301.1 297.2 295 291.5 284.7 277.9 269.7 249.2 232.8 221.6 220.3 231.7
280.4 264 247.8 252.8 262.1 286.4 299 294.9 281.7 277 274.2 269.6 265.1 273.5 279.7 285.9 283.8 284.2 270.5 262.3 262.9 279.6 285.2 293.8 300.5 306.7 316.6 327.1 320.6 322.9 328 326.9 322.5 315.6 303.3 288 273.8 246 220.7 206.2 187.7 171.9 148.1 152.2 164.6 177.4 185.1 190.1 202.5 223.6 229.5 230.2 229.2 228.1 225.9 221 220 225.5 221 210.3 203.9 207.6 214.2 224.2 232.9 234.9 234.1 225.9 223.4 215.5 211 209.8 208.4 204.4 191.7 193.7 196.2 192.5 192.3 199.7 212.5 230.4 254.9 272.4 283.2 282.2 289 278.1 267.7 269.2 288.4 297.1 285.7 275.1 272.7 272.5 266.9 259.6 255.5 254.5 254.7 259.5 258.9 257.6 259.7 265.3 262.4 259.7 265 265.6 266.3 275.3 269.5 267.5 261.1 257.7 250 251.9 252 257.5 256.3 245 248.1 247.7 246 248.8 255.5 254.8 256.6 258.8 264.1 269 276.8 284.8 286.8 294.2 298.4 308.3 315.6 319.5 320.7 315.9 315.9 308.8 313.9 316.4 309.7 300.2 299.8 297 289.1 287.7 287.7 280.4 278 278.2 283.7 286 288.1 286.4 290.8 293.6 299.5 300.8 306.2 307.6 307.1 312.7 317.9 321.7 329.4 330.3 329.6 337.1 342.1 340.8 341.7 335 329.8 324.5 319.3 311.5 308.4 305 310.5 313 310 308.7 303.2 298.5 295.8 292.7 290.4 281 269 255.2 240.1 228.4 224.8 234.6
265.1 246.7 245.7 254.5 271.3 293.8 304.5 303.1 297.5 286.7 279.6 273.8 268.9 274.5 281.2 286.9 286 284 273.9 262.9 265.1 281.3 291.9 291.8 291 302.8 312 313.8 314.7 328.8 334.3 329.5 321.1 311.9 298 285.8 273.7 239.3 219.6 204.3 187 171 151.3 145.1 167.3 175.5 186.3 193.9 212.5 218.5 223.3 228.5 226.2 224.7 219.5 215.6 216.2 219.6 207.2 203.2 204 209.2 217.7 226.1 234.9 236 229.9 221.5 217.1 209.8 211.7 212 206.6 196.6 186.7 177.4 186.5 188.2 194 197 210.8 223.7 247.8 272.8 277 269.9 263.3 263.1 257.6 270.7 279.6 280.4 276.5 274.1 270.9 264.9 266.4 259.1 254.5 256 264.4 266.3 264.2 265.4 274.5 272.6 271.1 272.1 273.7 274.7 290.4 293.1 285.6 283.1 277.9 272.4 259.8 266.2 267.9 274.1 272.1 264.2 261.3 269 255.4 257.2 260.4 265.9 283.3 289.7 281.6 288.7 297.9 303.3 289.1 310.6 306.1 315 320.7 322 326.6 326 322.7 315 316.8 315.2 310.4 310.7 307 302.5 299.7 293.5 283.1 280 281.7 288.3 294.7 296.4 292.6 291.9 288.1 289.7 298.2 306 305.1 308.9 313.4 314.5 320.3 330.1 336.9 337.4 345.1 349.7 350.2 347 342.1 337.7 329.6 326.1 321.4 313.8 312.2 308.1 313.2 314.8 309.9 307.2 304.1 300.7 298.1 295.7 291.9 280.6 269.8 259.7 249.6 232.8 226.7 236.4
242.9 239.5 247.4 260.9 282.4 306 310.9 310.8 305 296.5 282.6 276.2 272.3 275.1 286.7 295.5 289.6 284.7 279.6 266.4 269.9 286 299.3 299.9 295 298.9 307.2 313.9 316.9 327.5 335.4 329.9 320.5 308.1 293.8 281.3 260.6 233.3 215.2 203.3 188.3 171.2 152.2 145.4 162 176.3 187.2 209.1 214.5 213.6 215.7 225.6 223.6 222.7 220.9 215.7 207.8 202.2 203.2 209.4 203.5 204.7 208.9 220.7 224.6 225.6 217.3 209 207.2 207.9 209.7 214.2 198.9 189.5 184.4 174.1 185.9 189.2 194.8 193.6 206 220.9 232.3 240 242.5 248.8 257.9 255.3 254.1 255 268.3 269.2 274.1 274.2 267 262.8 258.4 256.4 256 264.3 270 273.9 269.3 275.8 276.3 271.9 281.7 280.5 286.4 294.6 311.4 304.1 298.6 295.7 299.6 292.6 280.9 278.8 289.9 286.2 285.8 278 275.9 273.3 265.9 271.5 273.5 274.1 302.4 313.5 309.9 303.6 308 324.5 307.8 313.5 316.6 321.7 323 326.3 331.7 338.1 333.9 317.6 314.7 314.8 312.7 313.9 313.4 308.9 296.8 282.2 283.7 289.2 284.3 295.9 302.2 303.8 302.4 306 297.3 298.7 298.7 302.2 310.7 313.9 317.8 320.2 323.8 333.8 338.4 343.1 348.1 346.9 345.7 344.8 342.7 334.9 329.3 323.3 317.4 313 310.3 312.2 317.8 318.1 313.5 308.2 305.9 302.9 300.3 298.3 289.9 279.7 274.2 273.8 256.9 239.1 228.9 234.1
