ncols 200
nrows 106
xllcorner 200000
yllcorner 902400
cellsize 50
-2 -2 -2 -2 -2 -2 -2 -2 -2 -2 -2 -2 -2 -2 -2 -2 -2 -2 -2 -2 -2 -2 -2 -2 -2 -2 -2 -2 -2 -2 -2 -2 -2 -2 -2 -2 -2 -2 -2 -2 -2 -2 -2 -2 -2 -2 -2 5.5 11.8 15.4 18.9 22.7 25.9 27.2 30.1 31.3 32.7 35.2 40.7 44.4 49.9 56.3 60.8 67.7 77.3 87.3 91.3 99.1 102.3 108 112.4 114.6 113.4 109.5 108.4 109 105 100.6 100.7 97.9 96 94 95.1 105.5 108.1 111.5 120.6 124.5 128.1 136.1 145.2 148.5 153.6 161.6 168.2 168.7 170.6 173.4 178.2 182.5 189 193.3 199 205.2 215.8 219.4 222.1 227 229.6 237.2 246.5 260.8 274.4 287.7 300.2 312.1 322 329.1 336 342.4 346.6 350.6 354.1 356.3 359.4 362 364.5 369.6 372.5 374.2 377.1 378.6 381.5 385.8 392.1 399.2 404.5 408.9 412.3 412.7 413.5 414.7 415.9 415.2 412.1 410.6 406.5 404.1 397.4 391.1 383 374.4 367.1 353.8 343.9 337.9 333.4 326.2 312.8 300.4 287.9 271.4 256.9 252.3 244.8 243.3 242.5 239 236.1 234 233 230.7 225.1 221.4 215.4 211.3 206.7 201.2 198.5 195.3 189.2 181 175.9 174.6 178.8 185.5 192.9 192.7 196.4 207.4 216 218 220.6 222.8 228.4 236.8 240.3 245.7 255.2 267.3
-2 -2 -2 -2 -2 -2 -2 -2 -2 -2 -2 -2 -2 -2 -2 -2 -2 -2 -2 -2 -2 -2 -2 -2 -2 -2 -2 -2 -2 -2 -2 -2 -2 -2 -2 -2 -2 -2 -2 -2 -2 -2 -2 -2 -2 -2 -2 5 13 15.6 18.6 21.9 23.8 25.8 26.7 30 31.8 31.9 36.4 41.1 45.9 52.8 58.3 63.5 70.8 80.1 89.7 95.4 100 106.1 109.5 113.2 113.4 108.9 107.7 106 101.9 99.4 100.2 96.2 94.7 92.6 96.6 103.7 107.9 111 119.4 125.6 131.4 139.6 147 147.9 154.5 158.7 162.4 162.1 166.5 170.6 177.7 181.9 186.9 190.6 193.6 198.6 208.1 215.3 218.8 224.1 227 233.4 243 253.3 267.4 280 292.4 306.1 317.3 325.9 334.8 342.2 347.6 350.6 353.8 356.7 360.8 364.1 365.5 368.9 371.9 374.8 377.3 379.1 380.7 385.3 389.7 394.3 399.9 403.2 405.2 406.6 408.6 411.6 415.1 418.4 419.6 419.9 417.4 414.8 411 405.8 397 388.5 380.3 373.8 364 351.5 344.6 340 327.6 317.7 302.8 283.4 260.8 257.7 256.9 252.7 246.8 243.3 239.7 237 234.5 232.2 230.6 226.4 219.8 213.8 207.7 201.6 197.5 194.4 191.1 187.3 185.4 182.9 180.2 180.4 189.6 199.5 200.7 203.5 209 211 212.2 216.5 225.9 235.9 244.8 256.8 266.3 274.8
-2 -2 -2 -2 -2 -2 -2 -2 -2 -2 -2 -2 -2 -2 -2 -2 -2 -2 -2 -2 -2 -2 -2 -2 -2 -2 -2 -2 -2 -2 -2 -2 -2 -2 -2 -2 -2 -2 -2 -2 -2 -2 -2 -2 -2 -2 -2 8.7 14.4 15.5 16.2 17.5 19.2 21 24.7 26.9 28.7 30 32.4 38.6 43.1 48.9 56.5 61.2 67.2 75.6 86 92.9 97.8 100.3 106 113.2 115.1 109.4 106.2 101.7 99.4 98 96.3 93 92.4 93.6 96 101.8 107.4 112.9 117.7 128.3 134.1 137.7 145.8 147.7 152.3 155 157.3 162.5 165 169.5 176.7 181.1 185.1 187.1 191 196.5 203.1 209.5 214.1 220.5 225.9 231.8 239.2 248.3 260.5 273.6 286.4 299.8 310.4 321.8 332.3 341.4 346.3 351.3 355.6 358.5 361.1 364.6 368.7 371.5 374.1 377.8 380.8 382.8 385.5 387 389 391.6 395.8 398.9 401.9 404.8 406 409 413.6 418.4 422.1 424.3 423.8 421.3 417 409.5 405.7 401 392.6 383.5 372.8 362.8 355.8 347.1 334.8 323.4 310.2 291.2 270.1 266.6 264.3 259.3 251.8 245.7 242 238.8 233.6 231.2 229.1 227.3 225.2 217.6 210.7 206.3 201.1 198.6 198.2 195.4 190.6 192.4 194.3 196.5 197.8 198.5 202.1 208.5 215.3 221.1 220 221.6 225 225.7 234 244.4 258.5 275.9
-2 -2 -2 -2 -2 -2 -2 -2 -2 -2 -2 -2 -2 -2 -2 -2 -2 -2 -2 -2 -2 -2 -2 -2 -2 -2 -2 -2 -2 -2 -2 -2 -2 -2 -2 -2 -2 -2 -2 -2 -2 -2 -2 -2 -2 -2 6.4 10.3 11.8 13.8 15.8 16 15.5 16.5 20 23.2 26.2 28.5 28.3 33 37.3 43 50.3 58.4 62.2 70.1 80.1 86.5 93.4 97.5 105.3 110.6 114 109.8 103.1 98.9 97.1 94.6 92.7 91.8 92.6 93.2 97.1 101.4 109.1 113.9 121.1 128.4 133.9 135.4 143.1 145 149 150.9 157 163.1 165.2 167.4 172 178 183.8 187.5 192.1 195.6 202.8 207.5 214.4 220.2 223 231.1 237.6 244.4 255.1 265.5 278.8 293.8 306.6 319.5 328.5 339.6 346.1 352 356.8 360.7 364.9 368.4 373 377 380.9 384.8 388.5 393.2 396.3 397.9 401.1 401.8 406.8 409.1 409.7 408.8 408.1 410.6 414.4 418.6 423.7 427.1 427.8 424.9 418.4 412.2 406.3 402 398.7 393.5 388 376.5 365.5 356.3 347.5 331.8 314.2 293.7 283.7 276.3 272.2 263.5 254.4 251 246.5 241.3 237.3 233.8 230.7 228.6 226.5 222.3 216.2 210.9 205.9 202 204 200.1 197.8 200.5 204.3 209.4 208.7 206.9 209.7 213.4 217.2 222.8 230.4 234.7 236.7 238.3 236.8 240.6 252.8 273.6
-2 -2 -2 -2 -2 -2 -2 -2 -2 -2 -2 -2 -2 -2 -2 -2 -2 -2 -2 -2 -2 -2 -2 -2 -2 -2 -2 -2 -2 -2 -2 -2 -2 -2 -2 -2 -2 -2 -2 -2 -2 -2 -2 -2 -2 5.3 8.9 10.7 10.9 12.5 13.4 13.9 14.1 14.4 16.5 18.8 22.5 23.5 25.3 29.1 33.4 37.6 44.8 50.7 59.1 64.7 74.1 80.4 88.6 94.7 100.3 105.6 109.5 107.9 101.9 99 95.3 93.1 92.4 91.2 92.2 93.7 97.2 102.4 105.6 114.3 123.3 126.5 133.7 135 142.6 145 144.6 148 154.6 159.8 161.6 167.2 170.7 174.7 178.9 186.5 190.2 192.6 197.5 202.6 210.8 217.4 223.9 228.1 234.6 241.1 251.2 262.2 273.9 286.1 302.9 315.9 328.4 337.9 347.8 352.9 359.9 364.5 368.3 372.4 376.1 379.4 383.3 387.1 392.9 397.1 401.3 404.3 407.1 410.4 412.6 415.6 419 419.4 422.3 423.7 427 428.4 429.4 430 429.7 425.9 419.1 416.8 416.1 416 414.7 414.5 411.8 404.9 391 380.4 363.3 345.5 320.2 300.9 292.6 286.7 278.6 269.1 265.5 257.9 253.8 246.1 241.7 237.2 234.9 232.6 228.7 224.4 220.8 216.6 211.7 206 207.4 206.9 206.1 204.8 206.9 211.9 211.8 211.7 212.9 215 217.9 227.4 231.8 234.8 241.2 243 242 247.1 253 276.4
-2 -2 -2 -2 -2 -2 -2 -2 -2 -2 -2 -2 -2 -2 -2 -2 -2 -2 -2 -2 -2 -2 -2 -2 -2 -2 -2 -2 -2 -2 -2 -2 -2 -2 -2 -2 -2 -2 -2 -2 -2 -2 -2 -2 9.7 11.1 10.8 10.8 11.4 11.3 11.1 10.9 11.1 11.3 12.4 15 18 19.7 23.9 26.2 28.8 32.5 37.3 46.3 52.6 56.1 65.5 72 80.1 89.5 94.6 98.8 103.8 105.4 102.6 96.4 94 93.2 91.7 91.3 93 94 97.2 101.4 105 115.2 121.9 127.7 131.3 137.9 141.8 142.1 141.2 146.8 151.7 157.1 164.3 168 170.7 173.1 177 184.1 187.9 191.2 196.2 203.7 207.6 214.6 222.5 225.3 228.6 238.9 249.1 258.9 270.3 282.1 297.5 312.8 324.5 337.4 346.1 355.3 361.9 368.3 372.3 376.8 381.2 383.4 386.7 390.5 394.6 400.3 404.2 407.2 410.9 413.4 417 420.9 423.9 428.6 430.4 432.4 433.3 433.1 431.1 429.3 428.1 426.7 428.2 430.6 434.1 437.7 439.7 441.5 444.6 441.6 436.2 428.3 393.4 366.4 332.7 311.8 305.2 295.2 293.1 284.9 278.2 265.6 258.2 248.9 244.1 238.9 236.8 235.6 231.8 228.4 225 220.5 217.3 214.5 214 215 213.8 210.5 209.6 210.5 212.8 215 213.3 215.9 222.5 229.7 232.2 232.9 236.3 240.8 246.5 250.9 262.4 279.3
-2 -2 -2 -2 -2 -2 -2 -2 -2 -2 -2 -2 -2 -2 -2 -2 -2 -2 -2 -2 -2 -2 -2 -2 -2 -2 -2 -2 -2 -2 -2 -2 -2 -2 -2 -2 -2 -2 -2 -2 -2 -2 -2 13.9 13 12.8 10.8 10.8 10.4 9.9 9.6 9 9.4 10.2 10.8 12.3 14.8 16.4 20.4 24 23.6 26.8 33.3 40.9 45.7 49.9 60.2 66.9 75.5 84.1 88.3 94 99.8 102.6 99.8 96.3 93.4 92 91.2 91.7 94.1 94.6 98 105.1 107.7 113.4 120.9 126 130.8 137.7 137.6 139.4 138.1 147 148 154.3 162.7 168 170.2 171.4 173.3 179.8 186.5 191.9 194.9 200.5 208.3 213 219.7 222.8 225.4 233.5 248.9 255.3 267.2 278.5 292 307.2 321.3 332 344.8 354.9 363 369.7 377.4 381.4 385.3 388.4 392.2 395.2 400.1 405.9 411.5 415.2 418.1 422 425.3 428.2 431.1 433.9 434.9 435.2 434.9 435.1 434.3 430.6 431 432.9 435.6 438.9 444.8 450.1 456.4 460.9 462.4 461.4 455.4 449.5 430.9 390.6 361.1 328.8 313.8 316 318.9 316.1 310.1 289.2 263.3 257.2 247.9 240.8 237.8 237.7 235.9 231.9 229.3 225.9 221.8 220.2 219.3 219.5 216.7 213.6 213.8 215 216.7 216.9 216.7 220.8 226 231.6 231.2 232.4 233.2 238.2 243.5 255.2 262.6 283.7
-2 -2 -2 -2 -2 -2 -2 -2 -2 -2 -2 -2 -2 -2 -2 -2 -2 -2 -2 -2 -2 -2 -2 -2 -2 -2 -2 -2 -2 -2 -2 -2 -2 -2 -2 -2 -2 -2 -2 -2 -2 -2 18.8 19 18.6 14.9 11.7 10.1 9.7 10 9.3 8.6 8.3 7.6 8.4 10 11.4 12.9 17.2 18.5 20 23.4 28.9 34.2 41 45.5 55.2 61.6 68.4 76.7 85.1 90.3 95 98.2 98.5 94 92.1 90.6 91.8 91.8 92.7 94.2 100.9 105.6 106.8 112.4 116.8 126.9 131.5 133.9 134.2 133.2 136.5 142.8 149 154.3 159.8 168.4 168.7 169.8 172 176.3 184.5 190.7 195.7 200.6 205 208.8 216 226.6 234.6 242.4 249.3 255.5 261.9 274.3 289.8 303 318.3 329.9 342 350.7 360 369.7 377 381.1 385.8 390.6 395 400.1 406 411.5 417.1 419.9 423.1 425.7 427.6 429.5 431.8 434.4 435.9 437.6 439.1 438.2 438.3 436.8 437.9 441.2 444 445.8 450.2 457.5 463.1 468.7 471.1 467.9 465.9 458.9 441.4 390.1 376.2 351.7 339.2 338.1 337.3 337.2 337.5 320.5 296.8 266.6 254.5 246.3 240.9 242.9 242.9 241.9 239.7 235.2 230.9 228.5 226.1 225.6 223.3 219.7 218.6 218.5 218.6 219.3 222.3 222.7 227.2 229.3 228.4 228.7 231.6 235.9 241.1 254.3 268.9 282.9
-2 -2 -2 -2 -2 -2 -2 -2 -2 -2 -2 -2 -2 -2 -2 -2 -2 -2 -2 -2 -2 -2 -2 -2 -2 -2 -2 -2 -2 -2 -2 -2 -2 -2 -2 -2 -2 -2 -2 -2 -2 22.6 23.2 23.6 22.4 20.3 14.8 11.4 10.1 9.4 8.1 8 7.4 5.8 5.4 6.9 9 10.5 12.3 14.3 17.1 19.3 22.5 28.5 36.7 40.7 48 55.3 63.9 70.7 80.4 87 91 92 95.3 92.4 90 89 91.8 91.9 92.3 96.6 101.4 105 109 112.6 115 128.3 129.6 127.7 129.7 130.5 135.5 141.3 147.7 151.7 158.6 164 166.9 171.7 173 175.4 181.9 189.2 196.2 201.4 207.8 211.3 218.3 225.3 236.3 244.2 251.7 255.2 262.2 272.8 286.2 301.9 317.3 330 340.2 350.1 357.9 366.7 375 382.7 388.3 393.8 399.7 404.3 411.8 416.5 419.8 421.5 424.1 426.4 428.3 429.2 431.7 434 437.5 439.3 440.3 443.7 447.4 450.1 450.8 452.7 457.3 460.3 460.4 464.8 468.7 473.7 474.5 470 463.8 456.6 446.2 431.4 407.5 386.4 366 355.9 349.6 353.2 352.2 338.5 323.2 294.3 268.5 260.9 255.2 249.7 246.3 247.6 245.8 241.7 238.4 233.1 232.4 232.6 228.2 224.3 221.2 221 222.8 222.8 221.9 223.8 225.5 226.5 225 225.2 233.5 237.5 243.5 252.6 264.6 283.7
-2 -2 -2 -2 -2 -2 -2 -2 -2 -2 -2 -2 -2 -2 -2 -2 -2 -2 -2 -2 -2 -2 -2 -2 -2 -2 -2 -2 -2 -2 -2 -2 -2 -2 -2 -2 -2 -2 -2 -2 13.1 25.1 29.5 29.4 29.3 29.2 23.4 14.7 11.6 10.2 9.1 8.6 6.6 5.8 5.7 5.7 6.5 8.4 9.9 11.4 14.3 16 17 24.2 32.1 36.8 43.5 49.6 60.5 66.4 73.7 80.6 85.9 89.3 91.4 89.9 87.8 89.6 91.5 91.8 92.6 97 101.7 103 108.9 111.8 114.2 124.5 125.4 123.6 124 133.2 135.8 140.1 146.5 154.1 157.4 161.5 168.2 172.9 174.9 176.2 182.7 187.9 195.9 200.8 207 211.7 217.8 226.6 235.6 244.8 248.6 255 260.7 268.3 280.8 298 314.1 327.7 339.5 349.1 356.1 364 372.4 382.9 388.6 395.9 403.3 408.7 413.3 416.9 420.7 422 424.2 426.3 427.1 430.1 435.3 439.5 446.2 451.2 455.2 463.1 468.5 469.4 469.8 470.8 471 470.7 471.8 472.3 472.5 473.6 472.8 466.9 460 455.3 453.3 447.5 431.7 411.9 394.8 381.7 373.7 369.8 364.2 353.9 336.7 317.2 293.2 279.7 272 263.9 255.4 248.6 245.9 243.8 240.5 237 234.7 234.6 232.7 229.7 224.5 223.2 222.2 221.9 221.9 221.9 221.9 221.9 221.9 223.2 230.6 234.3 240.5 251.1 265.9 285.3
-2 -2 -2 -2 -2 -2 -2 -2 -2 -2 -2 -2 -2 -2 -2 -2 -2 -2 -2 -2 -2 -2 -2 -2 -2 -2 -2 -2 -2 -2 -2 -2 -2 -2 -2 -2 -2 -2 -2 -2 4.2 26.6 38.6 37.8 34.6 33.5 31.5 25 16.5 12.1 10.6 9.5 7.5 5.5 6 6 6.3 6.2 7.9 10 12.2 14.2 14.9 17.7 22.4 29.5 36.2 44 52.3 62.1 69.2 76.7 79.9 85.4 87.2 87.1 86.8 87.5 89.7 92.4 94.5 96.9 100.5 104.3 106.3 109.8 115.4 123.2 121 120.1 122.3 129.7 134.7 139.3 146.4 153 153.7 158.6 166.8 174.1 176 179.9 185.3 189.8 193 201.4 205.1 210.1 217.1 225.1 232.1 238.5 242.7 249.6 261.4 269.6 277.6 290.7 305.7 321.1 333.7 343.9 352.5 360.9 368.6 378.7 388.1 397 404.1 409.9 415 419 423.8 425.6 426.1 429.9 432.7 437.9 444.4 450.6 465.1 474.4 477.6 480.3 480.8 479 478.4 479.1 480 478.5 477 475.2 473.1 474.4 471.5 469 465 460.9 457.5 453.8 443.7 429.9 414.4 402.7 400.3 392.6 382.1 371.8 353.5 332.7 311.4 299.5 290.6 280.7 272.1 258.4 247.1 243.8 242.6 236.7 234.5 235.5 235.7 234.4 229.5 222.7 221.9 221.9 221.9 221.9 221.9 221.9 221.9 223.3 228.8 234.2 239.2 250.6 267.7 284.9
8.1 2.2 1 -2 -2 -2 -2 -2 -2 -2 -2 -2 -2 -2 -2 -2 -2 -2 -2 -2 -2 -2 -2 -2 -2 -2 -2 -2 -2 -2 -2 -2 -2 -2 -2 -2 -2 -2 -2 -2 1.4 16.6 34.6 33.2 38.6 37.5 36.2 35 22.3 16.3 13.3 12.6 9.5 5.8 6 5.4 5.7 6.1 5.5 8 8.9 10.6 13.2 15.5 18.9 23.2 30.6 37.5 44.8 53.9 63.7 67.8 77.3 82.6 84.5 85.5 84.1 85.9 87.9 92.3 95.8 97.7 98.7 106.3 104.5 109.9 118.7 119.1 119.5 117.8 119.1 123 134.2 139.5 145 149.6 152.4 156.2 162.3 170.5 175.7 180.6 185.8 188.8 190.9 197.3 203.3 209.7 216.2 222.7 229.8 233.9 240.9 246.6 256.8 268.6 275.7 286.6 300.7 312.9 325.2 337.1 345.7 354.9 364.2 373.5 386 394 400.6 409 415.4 422.2 429.5 435.3 434.5 434 439.4 446.8 460.7 475 483.3 484 485 486.1 485.7 484.2 482.5 482.9 482.1 481.3 480.1 478.2 475.1 473.9 472.1 470.9 467.1 464.8 461 458.5 453.7 443.9 431.3 419.4 411.5 407.3 398.9 386 369.2 352.1 330.1 316 305.4 295.6 284 274.2 260.9 252.7 245.7 238.2 236.3 236.2 237.7 237.5 233.4 225.4 221.9 221.9 221.9 221.9 221.9 221.9 221.9 224.8 227.4 234.2 244.2 253 267.1 288.4
14.5 13.8 7.6 -2 -2 -2 -2 -2 -2 -2 -2 -2 -2 -2 -2 -2 -2 -2 -2 -2 -2 -2 -2 -2 -2 -2 -2 -2 -2 -2 -2 -2 -2 -2 -2 -2 -2 -2 -2 -2 5.4 13 20.9 28.3 31.3 38.9 37.1 36.2 30.2 20.5 16.7 14.7 10.5 6.4 6.7 6.2 6.3 5.6 5.5 6.2 7.9 9.3 11.5 15.1 17.1 20 26 32.2 38.9 50.4 58.5 63 70.9 77.6 82.9 85.4 83.7 84.4 86.9 89.6 95.8 96.5 100.2 101.5 105.8 111.5 115.2 115.7 115.2 119.1 119.2 121.1 129.6 137.8 142.7 146.7 150.9 154.3 158.4 166.4 172.5 181.4 186.9 189.5 192.6 197.2 203 209 214.4 221.8 227.6 233.6 240.7 245.4 255.5 267.9 276 284.7 296 309.5 320.7 331.4 339.6 348.5 357.5 367.1 377.9 387 394.8 402.8 413.1 422.8 431.5 438.9 437.9 442 459.8 479.3 486.6 489.3 488.6 487.5 487.1 486.8 486.5 486.8 487.1 486.3 484.3 482.9 480.4 478.5 476.9 475.9 473.4 470.6 469.6 469.3 468.7 465.2 460.3 452.8 442.2 434.9 432.1 424.8 410.5 403.5 396.5 379.8 357 334.8 316.7 298.6 289.8 282.6 273.7 263.1 253.8 241.7 240.8 239 235.9 238.9 235.8 225.6 221.9 221.9 221.9 221.9 221.9 221.9 221.9 223.5 229 238.5 248.9 254.7 265.7 290.7
19 17.6 9.4 -2 -2 -2 -2 -2 -2 -2 -2 -2 -2 -2 -2 -2 -2 -2 -2 -2 -2 -2 -2 -2 -2 -2 -2 -2 -2 -2 -2 -2 -2 -2 -2 -2 -2 -2 -2 8.3 12.1 15.3 19.6 23.2 28.1 35.6 36.1 35.8 34.1 24.2 18.2 16.1 10.9 7 6.1 5.4 5.4 5.4 6.2 5.5 6.2 8 9.9 12.5 16.2 17.8 21.5 28 33 41 51 58.9 67.1 72 78.8 82.3 79.9 82.7 86.2 85.7 90.1 95.6 100.3 100.3 105.5 109.6 114.6 115.6 111.5 119.7 118.9 121.5 127.6 135.8 140.5 145.5 148.9 152.3 155.9 163.1 170.5 179.5 184.7 188.3 192 195.4 200.2 207.2 213.5 221 227.7 234.2 243.5 249.5 257.9 264.6 275.6 284.8 292.3 303.6 316.3 329.4 337.3 345.7 354.4 362.1 370.6 379 389.1 397.4 407.2 417 427.3 436.2 445.6 460.4 479.8 487 489.7 490.8 490.1 487.6 485.7 485.9 486.6 488.6 489.7 488.9 485.8 483.1 479.4 478.5 477.3 475.8 473.3 470.7 470.2 470.3 467.2 465.8 464.6 461.4 455.5 443 439.1 439.3 437.1 441.5 451.5 436.6 382.1 357.1 328 305.1 293.1 283.9 274 265.1 254.7 246.6 248.5 246.2 241.2 235.8 237.1 229.8 225.7 226.9 221.9 221.9 221.9 221.9 223.3 222.7 227.8 239 247.1 253.8 264.8 292.3
14.5 19.8 18.5 11.3 -2 -2 -2 -2 -2 -2 -2 -2 -2 -2 -2 -2 -2 -2 -2 -2 -2 -2 -2 -2 -2 -2 -2 -2 -2 -2 -2 -2 -2 -2 -2 -2 -2 -2 9.9 13.5 15.3 19.3 20.3 23 24.4 28.8 31.5 32.6 34.6 28.2 20.5 17.1 12.4 8.4 6 5.3 5.1 6.9 7.2 6.2 -2 4.6 6.3 9.6 12.6 15.2 19.1 25 29.5 36.5 43.6 54.4 60.7 65.4 71.2 73 82.7 81.9 81.9 81.7 83 91.9 100.8 96.5 103.7 110.3 112.8 111.9 109.6 115.3 116.4 118.9 126.9 134.4 139.2 145 149.2 152.6 156.4 160.4 166.1 175.9 182.9 188.6 192 194.9 199.8 206.5 212.5 220.2 225.6 234.8 244.7 249.2 258.3 267.2 273.7 284.7 295.2 301.6 315.2 328.5 337 345.9 353.9 359.6 365.1 374.5 384.5 393.3 403.3 412.7 424.5 436.8 455.6 472.8 482.3 488.4 490 489.1 487.1 482.4 481 481.4 482.4 484.8 487.5 486.4 484.2 478.8 475 473.2 472.4 472.5 472.6 471.2 471 470.9 469.7 466.7 463.1 459.7 456.2 448.9 442 441.5 454.6 463.7 473.6 466.3 411.5 371.9 340.4 316.4 295.3 283.6 276.3 267.7 260.7 258.1 253.4 247.9 244 236.6 235.4 230.6 227.5 226.2 225.9 221.9 221.9 221.9 224.7 223.4 230.2 240.4 244.6 254.4 265.5 294.8
17.5 24.5 21.8 11.5 -2 -2 -2 -2 -2 -2 -2 -2 -2 -2 -2 -2 -2 -2 -2 -2 -2 -2 -2 -2 -2 -2 -2 -2 -2 -2 -2 -2 -2 -2 -2 -2 -2 6.5 12.5 16.6 19.2 21.2 22.5 24.2 22.4 22.7 26.5 28.7 28.9 28.2 21.2 18 14.2 10 6.2 5.4 5.5 5.2 5.9 5.3 -2 -2 1.1 3.2 7.6 13.2 17.6 21.2 25.9 31.9 37.6 45.8 53.7 58.4 67.1 71.3 79.6 80.7 80.2 81.7 80.9 82.9 92.1 98.9 103.8 108.2 108.3 109.3 105 111.4 113.8 118.1 128.2 135.5 140.2 147 151.7 152.8 156.2 159.6 166.7 173.1 180.6 186.7 190.2 192.9 197.2 203.8 208.4 214.3 220.4 227.8 238.8 248.7 259.2 267.9 273.6 283.7 296.7 307.5 316.2 327.2 337.6 346.4 352.6 360.2 363.3 367.7 377 389.3 400.2 412.1 425.2 445.5 463.2 474.2 482 484.5 484.9 481.5 477.7 474.6 474.4 474.6 476.3 478.9 480.2 479.6 477 473.2 469.5 466.6 466.6 468.5 469.2 469.5 469.3 468.2 466.1 463.4 459.8 456.3 455.6 453.3 448.7 447.4 453.6 468.3 477.1 476.9 434.6 392.8 357.2 329 303.3 286.7 279 275.3 268.3 262.6 260.8 254.4 248.6 244 237.9 233.9 231.1 230.1 227.4 224.7 222.8 226.3 224.8 225.3 230.4 242 243.6 252.3 261.4 292.6
16.7 26.9 23.5 15.4 -2 -2 -2 -2 -2 -2 -2 -2 -2 -2 -2 -2 -2 -2 -2 -2 -2 -2 -2 -2 -2 -2 -2 -2 -2 -2 -2 -2 -2 -2 -2 -2 -2 5.2 12.2 16.8 19.6 21.8 26.5 26 20.4 19.5 21.3 23 24.5 22.7 20.3 17.7 16.1 11.8 8 5.5 2.4 1.2 1 0.8 -2 -2 -2 -2 1.9 7.8 13.8 18.9 23.4 27.3 32.5 39.5 45.5 55.2 61.6 66.5 71.7 77.9 80.5 81.1 78.9 80.2 87.3 100.3 105.8 105.9 105.1 106.9 107.8 110.1 113.5 118.2 128.1 136.9 141.3 146.7 152.3 153.2 156.3 159.4 166.3 172.7 178.6 184.8 188.6 191.9 196.5 199.3 204 209 214.8 224.2 235.7 247.3 258 266.5 274.7 282.9 293.5 308.6 316.4 327.3 337.1 347.7 351.5 358.4 359.4 364.3 370 378.9 391 405.9 420.6 443.2 461.2 472.3 476.4 477.8 475.8 472 468.8 466.3 466 465.6 466 466.4 468.4 468.4 466.8 464.5 461 460.6 460.5 462.7 464.3 464.4 464.3 463.5 461.4 456.9 456.1 456.4 457.5 458.3 457.1 456.7 458.5 466.9 473.5 473.5 453.1 410.1 374.9 341.3 309.3 290.3 283.4 280.5 274.2 269 262.9 257 250.5 247.7 243.1 235.6 231.9 226.8 224.8 229.8 229 226.6 224.8 224.4 228.1 236.8 241.9 249 258.7 286.7
12.5 19.9 22.5 15.6 -2 -2 -2 -2 -2 -2 -2 -2 -2 -2 -2 -2 -2 -2 -2 -2 -2 -2 -2 -2 -2 -2 -2 -2 -2 -2 -2 -2 -2 -2 -2 -2 -2 -2 10 16.3 18.1 23.9 24.9 25.5 17.7 15.8 18.3 17.5 19.8 16.3 5.5 6.4 10 9.7 5.8 2.9 0.4 -2 -2 -2 -2 -2 -2 -2 -2 1.8 9.6 15.7 21.4 25.6 28.9 33.7 36.5 46.5 54.9 62.3 65.5 69.9 80.1 80 78 78.9 81.1 95.3 100.7 103.9 98 105.8 107.4 109.5 112.5 118.8 125.3 136.7 141.6 146 150.7 152 153.9 157.9 164.6 172.5 178.4 183.3 187.7 191.2 195.1 198 201.9 206.7 213.2 224.3 235.2 244.9 253.3 263.4 272.5 281.2 292.4 306.8 321.8 327.2 334.4 342.3 352.8 355.5 356.4 361.3 366.6 372.6 380.9 394.3 411.3 434.4 451.4 461.6 466.5 466.6 464.6 461.5 458.5 456.5 453.6 454.2 453.4 452.9 453.3 454.2 454.3 453.6 453.1 453 453.7 455.4 457.1 458.2 458.7 458.7 457.1 447.7 455 457 459.7 462.2 464.2 467.6 468.9 470.3 466.3 466.1 461.6 457.3 395.2 357.4 320.3 297.3 286.9 283.1 277.7 271.3 263 257 254.5 249.7 245.8 241.4 237.4 237 235.7 231.7 226.8 225 223.3 229.1 231.7 233.1 239.3 246.8 258.2 280.9
-2 9.6 12.2 -2 -2 -2 -2 -2 -2 -2 -2 -2 -2 -2 -2 -2 -2 -2 -2 -2 -2 -2 -2 -2 -2 -2 -2 -2 -2 -2 -2 -2 -2 -2 -2 -2 -2 -2 -2 -2 3.6 14.7 6.1 7.2 12.8 7.4 -2 -2 -2 -2 -2 1.2 1.9 2 0.7 -2 -2 -2 -2 -2 -2 -2 -2 -2 -2 -2 3.7 12.7 17.1 22.7 25 30.3 32.9 38.9 45.3 55.9 62.4 63.7 72.6 77.9 78.4 78.9 81 84.1 91.2 93.8 103.1 104 107 109.7 112.6 117.4 124.8 132.6 141.8 145.1 147.3 148.5 150.8 155.8 161.7 170.7 177.4 182.3 186.5 189.6 192.9 196.9 200.3 204.7 214.1 221.5 228.7 237.5 246.9 258.2 269.5 282.1 291.4 307.3 320.9 326.8 330.2 337.8 348.8 349.7 354.9 359.3 362.1 365.6 372.6 383.4 398.4 420.7 437.4 448.3 452.8 454.4 452.4 448.7 444.6 443 441.3 441.4 440.8 441.5 442.1 442.9 443.9 444.5 445.1 443.6 444.8 447 449.3 451.1 451.7 451.6 448.9 443.9 452 457 461.5 466.2 469.1 471.7 473.2 469.6 466.8 468.6 464 466.9 411.9 373.6 331.1 305.6 291 283.8 280.5 272.8 264.6 258 254 251 247.3 244.6 242.4 239 235.5 232.4 225.4 223.8 229.8 231 233.1 236 240.3 245.2 257.3 276.8
-2 0.5 2.1 -2 -2 -2 -2 -2 -2 -2 -2 -2 -2 -2 -2 -2 -2 -2 -2 -2 -2 -2 -2 -2 -2 -2 -2 -2 -2 -2 -2 -2 -2 -2 -2 -2 -2 -2 -2 -2 -2 -1 -0.6 0 -0.1 -2 -2 -2 -2 -2 -2 -1.8 -1.4 -2 -2 -2 -2 -2 -2 -2 -2 -2 -2 -2 -2 -2 -1.5 7.5 13.9 21.5 26.2 28.7 29.8 33.3 38.4 48 55 61.6 63.5 77.3 78.1 80.1 81.1 79.6 87.3 98.5 100.3 103.9 107 111.9 112.7 115.8 123.6 129.4 139 144.1 143.3 144.9 146.8 152.3 157.6 167.6 175.1 180.5 185.1 188.1 191.5 195.6 199.5 204 213.1 217.9 224.4 232.3 241 253 266.1 280.7 291.4 304.3 315.5 321.3 328.2 338.1 341.7 348.1 352.2 353.4 357.2 360.8 366 374 386.3 402.3 419.4 431.2 437.3 439.1 436.6 433.3 431.4 428.7 427.2 425.6 426.3 427.5 428.8 429.7 431.2 432.2 432.7 433.9 436 438.2 438.8 440.9 441.8 441.5 435 440.5 447.8 455.3 461.5 466.3 469.7 472.8 473.6 471.4 469.3 468.4 467.5 470.8 444 382.2 343.6 315.6 295.3 286 280.7 276.2 269.9 263.1 257 251.9 249.7 247.4 243.8 240.3 239 232.5 230.1 229.8 233.1 236.2 236.7 236.4 237.9 243.6 258.1 270.1
-2 -2 -2 -2 -2 -2 -2 -2 -2 -2 -2 -2 -2 -2 -2 -2 -2 -2 -2 -2 -2 -2 -2 -2 -2 -2 -2 -2 -2 -2 -2 -2 -2 -2 -2 -2 -2 -2 -2 -2 -2 -2 -2 -2 -2 -2 -2 -2 -2 -2 -2 -2 -2 -2 -2 -2 -2 -2 -2 -2 -2 -2 -2 -2 -2 -2 -2 2.6 12.7 18.5 25.2 30 32.4 32.7 34.9 38.7 49.7 55 60.4 67.7 73.4 78.6 82.9 83.1 86.7 91.2 99.2 104.3 106.5 109.6 113.2 115.5 122.3 127.4 136.1 142.7 140.8 141.7 143 148.4 153.5 161.7 171.6 177.9 183.4 186.9 190.5 194.6 197.9 203 209.2 212.3 219.8 228.4 241 255.2 264.3 278.6 289.8 300.5 309.6 315.9 323.8 337.5 342.9 342.4 347.2 351.8 354.1 355.9 360.1 366.7 375.8 386.5 403 412.5 419.7 421.6 421 418.1 417 414.5 411 409.4 411.3 413 415.5 416.5 418.2 419.3 421.6 423.1 424.4 426.4 427.2 426.6 427.7 427.5 425.2 434.1 443.2 451.7 458.5 464.3 469.9 473.3 474 473.5 472.3 474.2 474.7 473.2 454.3 399.1 358.9 323 302.8 288.3 280.9 276 272.1 265.4 259.5 254.2 249.4 249.4 247 243.2 240.4 234.6 232.2 234.8 234.4 235.6 235.4 234.9 238.4 246.2 254 268.5
-2 -2 -2 -2 -2 -2 -2 -2 -2 -2 -2 -2 -2 -2 -2 -2 -2 -2 -2 -2 -2 -2 -2 -2 -2 -2 -2 -2 -2 -2 -2 -2 -2 -2 -2 -2 -2 -2 -2 -2 -2 -2 -2 -2 -2 -2 -2 -2 -2 -2 -2 -2 -2 -2 -2 -2 -2 -2 -2 -2 -2 -2 -2 -2 -2 -2 -2 0.7 10.1 16.5 23.8 29.5 32.8 32.2 33.7 35.5 38.2 48.2 57.5 62.8 64.7 73.5 82.4 86 87 90.4 97.9 104.8 106.7 108.5 113.6 112.8 119.5 126.3 132 136.6 137.8 139.8 141.6 145.6 150.4 156.6 167 174.1 179.6 184.7 188.9 192.6 196.9 201.7 205.5 210.3 216.5 227.6 241.4 256.8 265.9 276.1 287.7 296.6 304.3 310.4 319.7 331.9 338.5 338.8 343.3 348.9 351.4 353.1 355.2 360.6 365.6 372.6 384.7 393.9 400.5 402.3 403.7 403 400.7 398 396.9 396.8 396.1 398.5 398.7 402 403.3 404.1 405.6 406.8 408.2 408.6 411.1 411.3 412.8 416.4 420.5 426.8 435.9 445.5 454.4 461.3 467.5 471.3 474.2 475.2 477.2 480.1 477.7 472 451.9 412.9 372.4 332.2 306.5 287.9 279.2 274.4 271 266.7 261.9 257.3 253.5 251.1 247.7 244.4 242.1 238.6 237.2 236.3 235.4 235.8 236.6 234.9 237.1 243.7 249.8 268
-2 -2 -2 -2 -2 -2 -2 -2 -2 -2 -2 -2 -2 -2 -2 -2 -2 -2 -2 -2 -2 -2 -2 -2 -2 -2 -2 -2 -2 -2 -2 -2 -2 -2 -2 -2 -2 -2 -2 -2 -2 -2 -2 -2 -2 -2 -2 -2 -2 -2 -2 -2 -2 -2 -2 -2 -2 -2 -2 -2 -2 -2 -2 -2 -2 -2 -2 -2 3.9 14.8 22.3 26.4 32.6 37.3 33.9 32.7 36.8 44 51.9 46.7 63.2 69.1 75.4 85.5 87.1 91.9 97.5 104.1 106.8 107.7 110 111 114.5 125.8 130 131.8 133.4 138.5 141.1 143.1 147.7 154.2 161 169.2 176.6 183 187.3 192.2 196.5 201.8 207.3 211.6 216.7 224.8 236 249.9 260.8 268.6 280.1 293.7 299.2 306.3 313 323.5 329.4 335.4 340.5 343.9 347.3 350.1 351.6 353.8 358.2 362.1 370.6 377.8 383.3 386.2 388.2 386.2 384.3 382.9 381.4 381.6 383 382.7 384.8 386 386.5 390.2 390.1 391.7 393.6 394.8 397.1 400.2 404.6 409.8 414.7 421 428.4 437.5 446.8 454.9 461.6 466.2 471.6 475.1 480 483.1 480.2 472.8 466.1 436.6 388.8 349.7 309.1 291.9 277.9 271.2 269.3 267.5 264.6 256.9 253.8 249 245.9 242.5 242.1 238.7 237.5 237.3 238.6 239.8 237.2 236.5 239 244.7 254.9 271.3
-2 -2 -2 -2 -2 -2 -2 -2 -2 -2 -2 -2 -2 -2 -2 -2 -2 -2 -2 -2 -2 -2 -2 -2 -2 -2 -2 -2 -2 -2 -2 -2 -2 -2 -2 -2 -2 -2 -2 -2 -2 -2 -2 -2 -2 -2 -2 -2 -2 -2 -2 -2 -2 -2 -2 -2 -2 -2 -2 -2 -2 -2 -2 -2 -2 -2 -2 -2 2 11.4 21.4 24.4 29.6 36.9 33.7 31 34.4 40.4 49.3 41.9 58 64.1 69.5 77.3 88 91.7 96.5 103.4 107.8 109.6 109 109.5 111.4 120.5 126.9 127.7 132.2 136.9 141.7 142.8 144.4 151.7 157 165.2 174.5 181.5 186.6 192.3 195.9 201.2 207.5 211.5 216.2 223 228.4 238.7 252 263.7 276.2 289.1 295.8 302.5 309.2 316 323.1 327.2 332.1 335.8 339.5 342.8 345.7 348.4 350.8 352.2 357.4 363.4 367 370.4 369.8 370.1 369.4 368.8 369.1 369.1 371 371.7 372.8 375.5 376.6 378.2 379.9 381.1 382.9 383.3 385.9 393 397.4 405.6 410.2 414.8 421.1 428.2 437.3 448 456 464.5 469.8 476.1 480 482 482.3 489.5 484.1 456.7 406.7 361.4 323.6 301.4 282 272.9 269 269.6 267.3 261.7 255.3 250.1 246.1 245.7 242.9 240.3 243.4 241.9 242 240 237.4 235.7 238.4 246 253.7 264
-2 -2 -2 -2 -2 -2 -2 -2 -2 -2 -2 -2 -2 -2 -2 -2 -2 -2 -2 -2 -2 -2 -2 -2 -2 -2 -2 -2 -2 -2 -2 -2 -2 -2 -2 -2 -2 -2 -2 -2 -2 -2 -2 -2 -2 -2 -2 -2 -2 -2 -2 -2 -2 -2 -2 -2 -2 -2 -2 -2 -2 -2 -2 -2 -2 -2 -2 -2 1.4 8.8 15.7 21.6 28 34.3 33.4 27.8 33.7 36.5 36.6 41.1 54.6 61.8 67.1 71.4 86.2 92.3 96.1 104.3 109.3 110.5 109 109.4 110.6 114.3 121.9 123.8 128.4 134.9 141.6 143.6 145.5 149.3 155.2 162.6 171.1 178.8 185.6 190.9 194.8 201.3 207.2 211.9 215.9 221.3 226.4 236.5 248.9 261.8 272 282 291.4 297.5 307.9 310.4 313.7 318.2 322.1 327.4 332.2 335 338 340.6 340.6 343 345.4 350.1 352.4 354.3 355.9 356.5 357.3 357.8 359.1 360.2 362.2 364.6 366.3 368.2 370.7 372.6 373.7 375.5 377.9 378.9 380.5 385.1 392.3 399.6 400.5 405.9 411.8 419.3 431.5 442.3 453.1 462.5 468.8 475.1 482.6 485.7 495.5 502.1 499.6 485.8 451.2 383.5 341.1 315.3 293.1 277.8 271.2 270.4 268 264 261.5 255.7 249.7 249.6 246.1 243.7 244.5 244 241.3 238 235.9 236.4 237.9 243.1 251.2 261.4
-2 -2 -2 -2 -2 -2 -2 -2 -2 -2 -2 -2 -2 -2 -2 -2 -2 -2 -2 -2 -2 -2 -2 -2 -2 -2 -2 -2 -2 -2 -2 -2 -2 -2 -2 -2 -2 -2 -2 -2 -2 -2 -2 -2 -2 -2 -2 -2 -2 -2 -2 -2 -2 -2 -2 -2 -2 -2 -2 -2 -2 -2 -2 -2 -2 -2 -2 -2 1.2 6.9 13.9 19.1 25.9 29.7 27.8 24.4 27.2 36.3 40 43.4 47.1 56 61.4 68 81 92.8 95.5 100.7 105.7 112 110.4 109 109.2 111.9 114.7 120.5 123.4 129.8 136.2 144.4 145.8 146.6 154.1 160.9 167.5 175.8 184.1 188.9 193.6 199.3 205.5 210.8 215.8 219.5 224.3 233.8 245.8 258.5 267.6 275.9 286.4 292.7 302.5 306 308.2 311.4 313.6 319.3 325.6 329.3 331.3 333 332.7 332.9 335.7 338.4 340.1 343.1 345.2 346.8 348.6 349.8 351.9 354.3 356.4 358.8 360.9 363 366.7 368.5 371.5 373.4 374.7 375.2 378 379.8 383.1 385.5 392.6 397.5 405.6 416.6 428.4 439.1 449.8 460.7 469.4 478.1 487.5 496.4 507.6 518 521.2 501.2 464.6 416.8 360.6 327.6 297.9 279 274.8 274.3 269.6 265.7 262.1 260.7 257.8 253.7 248.2 245.6 243.7 242.3 240 235.9 236.3 236.4 239.1 244.8 253.7 266.9
-2 -2 -2 -2 -2 -2 -2 -2 -2 -2 -2 -2 -2 -2 -2 -2 -2 -2 -2 -2 -2 -2 -2 -2 -2 -2 -2 -2 -2 -2 -2 -2 -2 -2 -2 -2 -2 -2 -2 -2 -2 -2 -2 -2 -2 -2 -2 -2 -2 -2 -2 -2 -2 -2 -2 -2 -2 -2 -2 -2 -2 -2 -2 -2 -2 -2 -2 -2 -2 6.4 12.4 17.9 22.9 22.1 20.7 25.3 29.8 35.3 38.3 42.3 45.4 49.9 58.6 62.7 69.9 86 93.1 93.1 102.1 110.9 113.5 111.3 108.5 108.7 111.2 116.4 118.7 122.5 130 142.6 144.5 144.6 152.6 159.3 166.7 173.3 183.1 188.1 192.3 197.1 203.3 209.5 214.7 218.8 223.4 232 244.5 255.5 264.2 273.6 279.9 281 293.1 302.2 296.1 301.3 309.9 309.7 314.1 322.9 325.6 329.9 328.7 326.7 328.6 331.3 333.4 335.2 338.6 340.6 342.6 345.7 346.9 351.2 352.7 355.4 357.1 359.7 363 366.9 369.5 369.4 373.7 376 376.6 379.4 381.8 383.5 388.5 395 405.4 419.9 432.2 443.4 453.6 461.7 472.1 483.2 498.4 511.2 527.5 537.6 538.9 506.6 473.2 447.6 381.7 337.9 301.2 286.9 280.2 276 272.7 268.1 265.7 263.3 261 260.9 254.1 247.1 243 243.2 238.7 236 235.8 237.2 239.8 245.6 254.3 269
-2 -2 -2 -2 -2 -2 -2 -2 -2 -2 -2 -2 -2 -2 -2 -2 -2 -2 -2 -2 -2 -2 -2 -2 -2 -2 -2 -2 -2 -2 -2 -2 -2 -2 -2 -2 -2 -2 -2 -2 -2 -2 -2 -2 -2 -2 -2 -2 -2 -2 -2 -2 -2 -2 -2 -2 -2 -2 -2 -2 -2 -2 -2 -2 -2 -2 -2 -2 -2 6.1 12 15.6 18.7 17.6 15.8 22.2 28.9 35.9 37.9 41.7 45.1 47.7 53.4 58.6 66.7 75.7 83.4 89.8 95.8 112.3 113.3 110.6 105.9 107.1 108.6 110.8 114.1 119.9 123.7 131.9 138.4 141.6 149.1 158.7 164.9 170.6 178.9 186.6 190.6 194.5 200.2 205.8 211.3 216.6 222.7 231.5 237.8 246.9 257.6 261.9 268.8 280.9 282.8 284.6 290.5 306.8 310.9 316.3 319.2 322.5 322.3 325.8 326.8 325.7 324.4 325.4 329 332.7 335.8 339.2 339.6 342.7 349.2 353.6 357.6 360.5 361.6 364.3 366.3 368.2 369.7 371.4 374 375.4 377.5 379.9 381.9 385.1 389.6 397.4 408 421.3 435.1 447.3 456.5 465.6 477.6 492.9 509.7 528.7 547.3 558.1 560 525.8 513.8 469.1 422.7 367.2 319.5 295.9 283.9 279.6 276.9 274.4 270.4 269.9 266.8 262.8 257.3 256.7 247.1 245.3 238.7 238.1 237.4 237.8 239.7 245 252.4 272.1
-2 -2 -2 -2 -2 -2 -2 -2 -2 -2 -2 -2 -2 -2 -2 -2 -2 -2 -2 -2 -2 -2 -2 -2 -2 -2 -2 -2 -2 -2 -2 -2 -2 -2 -2 -2 -2 -2 -2 -2 -2 -2 -2 -2 -2 -2 -2 -2 -2 -2 -2 -2 -2 -2 -2 -2 -2 -2 -2 -2 -2 -2 -2 -2 -2 -2 -2 -2 -2 6 10.4 11.9 13.7 14.5 12.9 20.7 26.8 36.4 40.5 42.2 45.7 47.4 50.2 54.3 60.4 70.3 79.3 85.6 88.8 107.5 109.3 107.3 102.7 103.8 105.3 107.6 110.9 115.1 122.7 127.6 134.4 139.3 147.1 157.7 162.7 168.3 175.1 182.8 188.8 186.4 194.5 202.3 209 212.7 217.7 223.6 230.4 239.9 256.2 267.1 276 284.9 295.8 299.1 301.7 308.6 314.3 320.9 322.9 323.6 324.5 321.9 323.6 323.9 325.7 326.8 329 330.3 334.5 337.2 341.2 345.4 350.2 353.6 357 360.7 363.5 366 368 368.8 371 373.7 375.6 376.2 378.6 380.5 382.6 386.6 391.7 400.6 411.2 423.2 437.7 447.7 457.5 470.2 486.7 503.1 520.8 545.2 564.6 577.1 583.5 576.4 529.2 485 445.8 407.4 340 305.9 289.7 283.3 279.7 277.7 274.7 274.9 270.6 265.8 264.5 262 252.9 244.6 239 238.4 237.8 235.9 237.3 241.8 251.6 283.8
-2 -2 -2 -2 -2 -2 -2 -2 -2 -2 -2 -2 -2 -2 -2 -2 -2 -2 -2 -2 -2 -2 -2 -2 -2 -2 -2 -2 -2 -2 -2 -2 -2 -2 -2 -2 -2 -2 -2 -2 -2 -2 -2 -2 -2 -2 -2 -2 -2 -2 -2 -2 -2 -2 -2 -2 -2 -2 -2 -2 -2 -2 -2 -2 -2 -2 -2 -2 -2 6.7 9.7 8.8 9.2 8.6 13.8 20 26.8 36.1 43.7 45.2 45.7 47.4 49.6 52 56.5 61.2 74.9 78.7 83 97.1 102 99.7 97.9 99.5 101.5 102.7 107.1 111.3 116.5 122.3 132 138.8 144 151.8 159.6 163.8 172.3 178.2 181.3 188.6 194.1 198.3 211.8 212.3 218.6 227.8 235.3 247.7 259.3 271.6 282.5 289.6 295.5 300.6 302.7 310.7 320.1 325.4 325 325.1 325 325.4 325.5 325.7 327.4 329.6 332.2 333.6 335.9 340.4 344.2 348.1 351.4 353.6 357.1 360.5 363.3 365.3 366.8 368.5 370.5 373.2 375.5 376.8 378.1 381.4 384.7 388.9 396.2 405.4 414.8 425.6 437.3 448.8 460.6 475.7 495.3 514.1 535.1 558.9 578.1 592.4 606.9 585 538.1 489.1 480.1 427.9 368.1 319.9 297.2 285.8 280.3 277 274.1 274.9 271.3 266.5 264.1 263.5 259.1 246.8 239.7 238.3 237.5 236.4 236 243.9 259.8 290.8
-2 -2 -2 -2 -2 -2 -2 -2 -2 -2 -2 -2 -2 -2 -2 -2 -2 -2 -2 -2 -2 -2 -2 -2 -2 -2 -2 -2 -2 -2 -2 -2 -2 -2 -2 -2 -2 -2 -2 -2 -2 -2 -2 -2 -2 -2 -2 -2 -2 -2 -2 -2 -2 -2 -2 -2 -2 -2 -2 -2 -2 -2 -2 -2 -2 -2 -2 -2 -2 -2 11.3 -2 -2 6.1 10 14.7 25.7 34.9 43.4 48.3 50.4 50 49.7 51.5 53.6 57 63.5 74.3 73.5 89.8 96.8 93.6 91.2 93.8 94 97.4 104.2 107.4 111 113.6 120.4 128.9 137.7 147.3 154.6 160.4 165.1 172.7 182.7 189.7 196.6 202.5 209.5 216.2 221.4 227.2 235.3 245.3 255.8 268.4 283.9 292.4 298.7 303.5 306.3 315.1 322 327.3 327.7 327.8 328.3 331 330 332.4 333 333.3 335 335.2 339.3 343.6 347.1 349.7 352.2 354.7 358.4 361 363 364.6 366.2 367.4 369.6 372.4 375.3 377.2 378.8 381.7 385.8 390.2 397.2 406 415.4 425.4 438.2 450.6 466.3 484.8 504.7 526.1 550.2 573.3 594.3 611.4 620.2 585.4 557.3 536.1 531.4 470.8 411 370 308.5 290.2 279 275.8 274.2 273.3 270.6 268.1 264.3 260.8 256.9 246.4 241.1 239.3 242.7 241 240.5 252.5 265.4 299.2
-2 -2 -2 -2 -2 -2 -2 -2 -2 -2 -2 -2 -2 -2 -2 -2 -2 -2 -2 -2 -2 -2 -2 -2 -2 -2 -2 -2 -2 -2 -2 -2 -2 -2 -2 -2 -2 -2 -2 -2 -2 -2 -2 -2 -2 -2 -2 -2 -2 -2 -2 -2 -2 -2 -2 -2 -2 -2 -2 -2 -2 -2 -2 -2 -2 -2 -2 -2 -2 -2 8.4 -2 2.6 6.5 7 12.8 23.2 32.6 41.4 52.4 53.3 52.7 51.4 50.8 52.1 54.8 57.8 62.1 71 80.7 89.1 85.3 82 83.2 92.3 101.4 103.3 106.5 115.4 124.2 135.6 140.8 144.6 144.7 147.5 157.2 162.1 172.4 180.5 187.6 195.6 201 209 216.3 221.8 227 235.8 245 257.1 268 279.5 295.4 303.3 310.1 314.5 320.3 328.7 330.8 331.3 333.6 336.8 339.3 337.6 339.8 339.2 339.5 339.9 340.4 339.9 345.7 348.8 350.1 353.2 356.1 358.2 360 361.6 362.8 364.7 366.1 367.9 370.7 373.3 375.2 377.5 380.1 384.2 389.6 397.7 405.2 414.3 425.3 440.2 454.7 474 493.3 513.8 539.7 565.1 589.6 609.5 625.1 643.9 626.4 604 571.3 528.2 494 438.9 381.6 328.5 294.2 280.9 276.2 274.7 273.2 271.3 270 267.1 260.7 259.7 257.3 254.2 253.5 249.2 249.6 249.9 259.8 271.4 293.9
-2 -2 -2 -2 -2 -2 -2 -2 -2 -2 -2 -2 -2 -2 -2 -2 -2 -2 -2 -2 -2 -2 -2 -2 -2 -2 -2 -2 -2 -2 -2 -2 -2 -2 -2 -2 -2 -2 -2 -2 -2 -2 -2 -2 -2 -2 -2 -2 -2 -2 -2 -2 -2 -2 -2 -2 -2 -2 -2 -2 -2 -2 -2 -2 -2 -2 -2 -2 -2 -2 -2 -2 0.7 2.7 6.8 10 17.3 30.6 40.6 52.1 55.7 58.4 59.4 52.5 51.3 52.4 54.4 57.6 61.1 76.9 84 80 74.6 83.5 92.3 102.1 110.9 117.8 124.8 130.8 136.7 142.6 146.1 149.5 151.5 154.4 159.9 167.1 177 185.4 194.6 200 207.6 215 221.1 227.2 234.9 244.7 255.3 264 276.3 289.2 303.7 310.4 322.5 330.8 334.1 333.3 336.3 340.4 343.6 346.5 346.1 346.6 347.2 346.6 345.9 345.7 344.8 347.9 348.5 349.8 351.6 354.2 355.5 357.5 358.9 361 363.9 366.4 367.1 368.6 370.7 374 376.7 380.2 385.2 391.5 399.6 405.8 415.1 427.7 444 464.4 483.6 503.7 529.5 554.4 581.3 606.5 624.2 642.2 646.1 646.4 645.2 631.2 585.7 524.2 486.1 436.2 355.1 301.6 286.3 279.9 278.2 274.8 274 270.6 267.3 265.7 265.5 262.7 265.4 262.5 255.2 256.2 260.9 262 269.7 284.1
-2 -2 -2 -2 -2 -2 -2 -2 -2 -2 -2 -2 -2 -2 -2 -2 -2 -2 -2 -2 -2 -2 -2 -2 -2 -2 -2 -2 -2 -2 -2 -2 -2 -2 -2 -2 -2 -2 -2 -2 -2 -2 -2 -2 -2 -2 -2 -2 -2 -2 -2 -2 -2 -2 -2 -2 -2 -2 -2 -2 -2 -2 -2 -2 -2 -2 -2 -2 -2 -2 -2 -2 -2 0.2 3.3 8 17.2 27.8 39.3 47.9 55.3 58.1 63.7 61.1 52.1 50.6 52.6 54.4 57 66.1 79.2 73 73.9 84 91.6 102.8 111.2 119.6 126.7 132.6 137.8 144.1 145.6 149.3 152.3 154.3 159.2 166.2 174.3 183.4 192.2 199.3 207.1 214.2 220.1 226.5 234.5 244.3 250.7 260.2 275.3 286.7 299.2 312.1 320.4 329 337.3 340.4 344.4 346.8 349.6 352 353 351.3 351 350.5 349.1 348 346.2 348.7 348.7 350 350.9 351.2 353.6 354.9 357.3 359.4 361.7 364.2 364.6 367.2 372.3 375.4 378.4 381.7 386.7 393.4 400.4 408 417.4 433.6 452.1 474.1 493.4 517.3 542.1 568.7 595.6 616.9 633 642.3 645.7 646.4 641.3 633.7 599.3 549.2 500.4 459 390.3 326.3 297.5 285.2 282.2 280.3 278 274.8 271.7 275.3 275.2 273.6 274.2 267.9 269 266.3 261.1 263.6 265.6 272
-2 -2 -2 -2 -2 -2 -2 -2 -2 -2 -2 -2 -2 -2 -2 -2 -2 -2 -2 -2 -2 -2 -2 -2 -2 -2 -2 -2 -2 -2 -2 -2 -2 -2 -2 -2 -2 -2 -2 -2 -2 -2 -2 -2 -2 -2 -2 -2 -2 -2 -2 -2 -2 -2 -2 -2 -2 -2 -2 -2 -2 -2 -2 -2 -2 -2 -2 -2 -2 -2 -2 -2 -2 -2 1.4 7.8 17.8 23.8 35.7 43.9 53.2 60.1 55.3 59.6 55.8 49.2 49.3 51.1 54.9 56.3 58.1 61.5 71.6 78.2 88.4 100.8 113 119.6 127.6 133 137.2 141 144.2 148.3 152.8 154.7 158.3 165.5 172.5 180.9 190.3 198.9 206.4 212.1 218.2 226.9 233.2 243.9 249.7 260.5 274.3 285.8 293.6 308.5 319.7 325.9 336.6 345 350.8 353.6 356 356.9 356.6 355.5 353.5 352.5 351.6 350.9 349.6 349.2 347.7 348.4 348.9 350.2 352.7 354.3 357.4 359.8 362.2 363.8 368.3 370.9 375 376.5 380.3 387.1 391.1 397 402.9 412.3 423.1 438.8 459.5 479.4 503 530.3 553.2 579.7 606 627.3 636.2 641.3 644.7 640.6 627.4 616.4 587.4 534.4 486.8 435.9 379.7 334.5 302.9 294 289 286.8 281.7 283.1 284.4 284.2 284.6 280.7 273 269.2 267.1 265 261.1 261.1 261.2 266.1
-2 -2 -2 -2 -2 -2 -2 -2 -2 -2 -2 -2 -2 -2 -2 -2 -2 -2 -2 -2 -2 -2 -2 -2 -2 -2 -2 -2 -2 -2 -2 -2 -2 -2 -2 -2 -2 -2 -2 -2 -2 -2 -2 -2 -2 -2 -2 -2 -2 -2 -2 -2 -2 -2 -2 -2 -2 -2 -2 -2 -2 -2 -2 -2 -2 -2 -2 -2 -2 -2 -2 -2 -2 -2 0.6 7.9 20.3 24 31.6 41.7 46.7 51.1 54.3 53.2 54.8 48.8 48.4 49.4 50.3 55.6 60.3 65.2 69.8 76.2 85.3 97.4 111.1 120.7 125.7 132.4 135.7 138 140.9 144.3 151.3 153.4 156.4 165.1 171.9 180.5 188.6 197.5 205.2 211.2 217.1 226.2 232.6 239.9 249.9 261.7 273.2 287.3 295.2 301.4 318.8 328.6 338.6 347.2 352.6 356.2 358.2 359.4 359.8 358.1 357.1 355.8 354.4 353.3 352.8 351.8 350.6 349.6 351 352.7 355.6 358.3 362.9 366.7 371.5 374.1 373.6 375.4 377.5 381.5 386.3 394 399.7 404.4 410.4 418.4 431.5 446.2 465.7 489.7 515.6 540.2 565.4 590.8 613.3 634.8 633.6 635 630.8 623.1 611.9 607.6 591.6 552.5 498.7 445.7 392.1 349.9 319.9 311.1 298.7 291.9 291.7 294.4 293.3 289.6 285 279.3 273.3 266.7 262 262.6 261.1 261.1 261.3 263.3
-2 -2 -2 -2 -2 -2 -2 -2 -2 -2 -2 -2 -2 -2 -2 -2 -2 -2 -2 -2 -2 -2 -2 -2 -2 -2 -2 -2 -2 -2 -2 -2 -2 -2 -2 -2 -2 -2 -2 -2 -2 -2 -2 -2 -2 -2 -2 -2 -2 -2 -2 -2 -2 -2 -2 -2 -2 -2 -2 -2 -2 -2 -2 -2 -2 -2 -2 -2 -2 -2 -2 -2 -2 -2 -2 7 21.6 26.2 29.8 36.5 40.1 40.6 42.9 45.4 47.2 48.4 47.3 48.1 52.3 54.9 60.3 65 69.1 74.8 83.2 94.9 109 119.2 127.2 130.6 132.7 135.1 138.9 142.9 147.9 151.9 155.4 163.4 171.3 179 188 195.9 203.8 210.6 216.7 224.7 235 238.6 249.1 260.5 269.1 286.2 297.2 303.1 314.9 328.7 344 354.9 359.1 360.6 360.3 362.1 362.6 361.9 361.9 360.8 360.3 358.1 357.6 355.4 353.4 354.8 356.8 362 367.6 376.4 385.9 391.8 394.3 393 389.4 387.1 389.3 391.6 396.4 402.1 407.7 413.5 420.9 428.3 441.9 459.9 477.9 499.9 525 552.4 574.7 594.3 610.6 621.3 621.7 618.7 615.7 609.6 599.4 589.2 579.4 551.2 489.3 432.1 385.4 355.8 336.5 313.7 307.3 308.1 315 313 305.4 294.2 287.2 282.9 276.2 269.6 263.2 261.6 261.5 262.7 263.6 259.6
-2 -2 -2 -2 -2 -2 -2 -2 -2 -2 -2 -2 -2 -2 -2 -2 -2 -2 -2 -2 -2 -2 -2 -2 -2 -2 -2 -2 -2 -2 -2 -2 -2 -2 -2 -2 -2 -2 -2 -2 -2 -2 2.3 -2 -2 -2 -2 -2 -2 -2 -2 -2 -2 -2 -2 -2 -2 -2 -2 -2 -2 -2 -2 -2 -2 -2 -2 -2 -2 -2 -2 -2 -2 -2 -2 5.6 20.5 28 30.2 34.9 40.8 40.9 39.7 41.1 41.7 44.1 45.9 47.3 51.5 52.7 58.9 65 69.9 75.9 83.2 91.5 105 115.1 122.4 125.4 127.8 131.9 136.5 140.7 145 149.6 156 160.6 170.9 179.8 187 194.5 201.8 208.7 216.6 225.5 234.6 241.6 247.9 258.8 269.6 283.6 299 309.1 318.9 330.9 346.7 358.9 363.2 363.7 364.9 365.6 366.6 368.5 370.7 371.5 370.9 368.5 365.9 365.4 368.4 374.6 381.3 388.1 397 408.5 417 424.3 423.8 413 408.1 405.6 405.1 407 410.3 413.1 417.4 424.6 433.4 443.9 458.7 479.2 499.6 520.6 542.7 563 579.1 591 603.2 613.7 614.4 611.9 604.6 592.8 582.6 576.8 568.7 521.7 479.7 426.1 382.8 362.4 343.9 322.7 318.7 326 326.8 317 308.5 299.6 288.9 282.7 274.1 269.5 268.7 266.4 262.3 264.2 266.8 264.4
-2 -2 -2 -2 -2 -2 -2 -2 -2 -2 -2 -2 -2 -2 -2 -2 -2 -2 -2 -2 -2 -2 -2 -2 -2 -2 -2 -2 -2 -2 -2 -2 -2 -2 -2 -2 -2 -2 -2 -2 -2 -2 12.6 -2 -2 -2 -2 -2 -2 -2 -2 -2 -2 -2 -2 -2 -2 -2 -2 -2 -2 -2 -2 -2 -2 -2 -2 -2 -2 -2 -2 -2 -2 -2 -2 2.2 17.5 27.1 31 33.8 37.7 42.1 37.3 37.3 40 39.4 40.4 51.5 57.2 52.8 57.8 64.8 74.1 76.9 82.8 90 98.1 112.6 119.9 124.5 126.7 130.5 134.1 139.1 143.9 148.7 154.8 161.3 169.2 178.5 186.3 191.5 199 205.4 215.3 224.8 233.7 240.2 250.3 261.2 271 282 295.1 311 326.5 338.6 350.9 366.9 371.4 373.2 375.1 377.2 381.8 386.3 389.8 392 392.3 395 395.1 397.4 402.2 407.2 413.9 429.7 436.6 438.6 442.8 437.3 432.4 424.6 425.7 424.3 423.5 425.8 428.5 431.8 433.1 439 447.7 462.1 480.4 501.6 519.9 538.5 558 573.1 583.9 593 608.8 611.1 610.5 600.7 599.8 587.1 576.3 567 561.6 518.7 471.9 427.8 387.8 363 348 337.7 339.1 337.8 333.8 326.6 317.6 308.9 297.7 288.7 279.8 274.1 272.1 269.5 263.1 265.8 268.8 264.5
-2 -2 -2 -2 -2 -2 -2 -2 -2 -2 -2 -2 -2 -2 -2 -2 -2 -2 -2 -2 -2 -2 -2 -2 -2 -2 -2 -2 -2 -2 -2 -2 -2 -2 -2 -2 -2 -2 -2 -2 -2 11.4 21.1 30.3 15.3 -2 -2 -2 -2 -2 -2 -2 -2 -2 -2 -2 -2 -2 -2 -2 -2 -2 -2 -2 -2 -2 -2 -2 -2 -2 -2 -2 -2 -2 -2 -2 16.4 23.2 29.5 32.6 36.7 38.9 32.7 34.2 34.8 43.9 48.5 54.4 61 63.3 58.9 62.6 72 79.2 82.7 89.3 94.9 105.2 116.8 123.4 126.4 128.5 133.2 137.2 143 148.4 155 162 167.9 177 183.5 189.3 194.9 202.7 213.2 224.2 229.3 239.2 251.3 261.6 272.5 282 292.5 310.6 331.8 348.1 362.5 377.2 386.8 391.7 396.1 404.9 408.9 416.6 418.7 419.3 419.3 422.8 426.7 433.9 441.5 446.9 458.6 463 456.7 458.6 455.3 446.7 432.7 439.6 440.5 442.5 444.2 445.6 446.9 450.1 452.6 459.9 469.8 482.9 500.6 518.2 536.1 553.9 571.1 582.7 591.4 598.9 605.2 605.8 600.5 592.6 585.7 572.7 565.9 559.7 548.8 506.3 462.4 423 387.3 370.2 360.8 357.1 361.6 358 354.9 352.1 346.6 334.9 327.3 315.6 306.3 293.8 280.7 273.9 265.4 267.9 261.6 259.6
-2 -2 -2 -2 -2 -2 -2 -2 -2 -2 -2 -2 -2 -2 -2 -2 -2 -2 -2 -2 -2 -2 -2 -2 -2 -2 -2 -2 -2 -2 -2 -2 -2 -2 -2 -2 -2 -2 -2 -2 18.7 23.5 28.1 32.4 19.6 15.4 -2 -2 -2 -2 -2 -2 -2 -2 -2 -2 -2 -2 -2 -2 -2 -2 -2 -2 -2 -2 -2 -2 -2 -2 -2 -2 -2 -2 -2 -2 12.8 21.6 25.7 29.2 34.5 32.2 29.4 30.9 37.1 46.3 51.5 56.5 60.6 66.1 65.5 60.9 65.1 79.2 83.2 87.1 93 101.4 110.7 121.4 125.9 127.6 131.1 136.5 142.4 148.3 155.3 161.9 167.5 172.4 180.1 184.6 192.1 198 209.6 218.7 227 237.3 248.7 262.2 271.5 280 291.6 308.5 330.8 350.9 377.8 402 419.2 421.1 428.1 433.1 442.7 451.3 448.8 455.7 455.4 455.9 464 469.4 477.6 483.4 486.4 484.3 474 471.4 464.6 451.1 448.9 456.7 463.2 463.5 463.5 466.3 470.2 472.9 478.8 484.6 493.7 506.9 520 535.1 552.1 568.2 587.6 601.2 603.3 605.7 600 598 589.1 579.6 567 555.4 552.6 548 520.8 488.2 489 437.4 407.4 393.5 381.6 386.9 393.7 396.4 390.4 384.1 375.3 369.1 356.8 348.8 335 315.4 295.7 280.2 271.6 263.2 262.4 263
-2 -2 -2 -2 -2 -2 -2 -2 -2 -2 -2 -2 -2 -2 -2 -2 -2 -2 -2 -2 -2 -2 -2 -2 -2 -2 -2 -2 -2 -2 -2 -2 -2 -2 -2 -2 -2 -2 -2 -2 -2 20.5 27.7 35.7 28 24.3 18.2 -2 -2 -2 -2 -2 -2 -2 -2 -2 -2 -2 -2 -2 -2 -2 -2 -2 -2 -2 -2 -2 -2 -2 -2 -2 -2 -2 -2 -2 9.5 19.4 21.6 27.1 28.5 27.7 26.7 25.5 33.8 46.6 53.2 55.7 61.8 67.2 66.2 62.3 59.8 64.6 77.9 82 90.3 95.2 104.8 117.2 122.3 125.4 129.6 135.2 142.2 147.8 154.8 160.6 166.6 169.3 173.1 178.4 185.8 193 205.1 214.7 225.4 234.4 246.2 259.4 269.6 278 289.2 305.4 325.8 348.9 379.6 421.8 448.1 452.8 459.5 465.4 472.3 478.3 482.2 490.6 486.6 489.1 494.6 505.5 511.1 505 502.1 493.5 486.4 478 468.2 453.8 466.7 471.6 476.1 478.2 480.8 487.6 494.7 500 504.4 507.2 512.8 525.6 536.1 548.5 562 573.5 585.8 596 598.4 601.5 598.2 594.9 582.1 566.6 554.5 546.3 542.9 541.1 535.2 524 516.4 479.6 446.8 423.7 422.8 418.6 430.3 436.8 439.1 434.4 428.2 403.6 400.8 387.6 373 349.8 325.4 304.6 286.3 266 263.5 264.5
-2 -2 -2 -2 -2 -2 -2 -2 -2 -2 -2 -2 -2 -2 -2 -2 -2 -2 -2 -2 -2 -2 -2 -2 -2 -2 -2 -2 -2 -2 -2 -2 -2 -2 -2 -2 -2 -2 -2 -2 -2 -2 38.9 42.1 42.2 38.5 25.5 -2 -2 -2 -2 -2 -2 -2 -2 -2 -2 -2 -2 -2 -2 -2 -2 -2 -2 -2 -2 -2 -2 -2 -2 -2 -2 -2 -2 -2 2.5 15.7 19.2 23.8 25.1 22.5 21.2 20.6 29.1 40.5 49.9 54.9 61.8 64.5 64.3 63.4 59.1 59.1 63.9 71.5 80.8 89.9 96.3 108.4 119.8 122.1 126.8 133.5 141 147.9 153.3 159.7 164.6 168.1 170.1 172.3 181.6 188.8 198.7 209.1 220.4 229.5 245.5 256.9 268 275.6 285 299.6 317.5 342 374 433 489.1 485.9 491.3 501.6 503 506.4 512.2 520.9 517.3 511.5 517.1 515.2 514.1 507.9 495.5 489.5 484.6 476.3 469.7 463.2 473.8 480.9 488.7 491.8 495.9 502.6 512.5 519.6 523.5 524.8 529.6 538.2 547.1 558.7 568.5 576.3 585.3 590 592.8 597.3 601.2 595.2 577 559.8 548.6 540.5 538.2 537 534.7 531.6 537.9 534 481.8 476 480.3 479.8 477.4 482.3 505.7 514.8 506.4 512.4 506.5 459.2 431.1 396.2 348.3 330.5 305.8 280.4 275.3 274.5
-2 -2 -2 -2 -2 -2 -2 -2 -2 -2 -2 -2 -2 -2 -2 -2 -2 -2 -2 -2 -2 -2 -2 -2 -2 -2 -2 -2 -2 -2 -2 -2 -2 -2 -2 -2 -2 -2 -2 -2 -2 -2 31 44.3 48.4 41.6 27.1 -2 -2 -2 -2 -2 -2 -2 -2 -2 -2 -2 -2 -2 -2 -2 -2 -2 -2 -2 -2 -2 -2 -2 -2 -2 -2 -2 -2 -2 -2 12 14 19.4 21.4 18.2 15.6 17 24.5 36.8 47.3 53 60.6 63.4 65.5 61.5 56.7 57.4 59.9 65.2 69.7 80.8 88.9 99.6 113.6 118.5 122.9 129.8 138.3 145.5 152.3 156.1 160.1 163.4 165.8 168.8 173.2 181.8 192.7 202.4 214.9 224.6 237.4 252 263.9 273.2 280.5 292.5 308.1 336.6 372.4 414.8 461.2 507.2 523.9 525.3 522.1 525.4 522.8 522.1 523.1 519.3 513.6 512 503.8 496.7 486.6 481.3 477.2 475.8 469.9 472.8 479.3 488.5 495.8 502.4 509.6 517.4 526.1 532.8 537.8 540.4 543.2 551.9 559.1 568.5 575.8 582.8 590.7 595.1 598.7 599.7 597.8 585.1 568.5 554.4 542.9 537.2 535 536 537 540.5 549.1 549.8 547 511.4 533.5 537 543.7 555.6 577.5 597.5 609.9 578 597.1 596.3 498.8 413.6 369.7 341.3 311.7 288.7 281.6 272.9
-2 -2 -2 -2 -2 -2 -2 -2 -2 -2 -2 -2 -2 -2 -2 -2 -2 -2 -2 -2 -2 -2 -2 -2 -2 -2 -2 -2 -2 -2 -2 -2 -2 -2 -2 -2 -2 -2 -2 -2 -2 -2 -2 33.7 39.5 34.2 28.9 -2 -2 -2 -2 -2 -2 -2 -2 -2 -2 -2 -2 -2 -2 -2 -2 -2 -2 -2 -2 -2 -2 -2 -2 -2 -2 -2 -2 -2 -2 7.6 11.4 14.7 12.9 13.6 -2 13.9 21.8 31.7 39.4 50.3 57.1 62.3 61.3 63.8 54.2 53 55.5 59.3 62.3 70.4 79.5 91.7 102.2 112.7 116.9 125.7 134.5 142.8 150.1 152.3 154.9 158.2 162.4 165.7 169 174.8 183.3 194.4 204.3 217.8 229.4 244.5 259.5 268.1 274.8 284.8 302.5 331.4 363.7 398.3 464.5 503.8 529.9 520.1 512.5 509.6 511.5 513.4 519.4 508.3 505.9 499.7 491.7 487.9 481.6 478.2 477.9 475.7 472.7 478.8 485.5 496.1 504.8 512.9 518.1 526.8 536.2 543.8 550 554 559.1 569.3 577 585.6 592.7 597.4 605.2 610.3 613.8 610.2 596.8 576.9 560.8 548 535.5 529.9 531 535.6 540 547.9 556 567.7 574.4 551.4 575.6 591.3 608.7 621 654 684.1 655.2 674.9 645.7 593.8 479.2 410.1 373.4 337.9 307.5 296.2 285.1 273.4
-2 -2 -2 -2 -2 -2 -2 -2 -2 -2 -2 -2 -2 -2 -2 -2 -2 -2 -2 -2 -2 -2 -2 -2 -2 -2 -2 -2 -2 -2 -2 -2 -2 -2 -2 -2 -2 -2 -2 -2 -2 -2 -2 6.3 32 25.3 24.8 9.4 -2 -2 -2 -2 -2 -2 -2 -2 -2 -2 -2 -2 -2 -2 -2 -2 -2 -2 -2 -2 -2 -2 -2 -2 -2 -2 -2 -2 -2 5.5 9.3 12.7 10.1 -2 -2 15.9 18.3 26.9 32.8 43.2 52.8 58.1 57.2 58.9 50.9 47.8 50.7 54.2 56 62.6 71.3 79.9 94.6 101.9 109.4 119.2 128.2 136.6 147.1 148.6 151.6 154.3 158.9 162.7 166 170.6 176.1 185.7 198.1 211.1 224 236.4 248 261.8 270.1 277.5 294.2 318.5 347 380.8 421.6 492.1 497.3 497.3 494.5 493.9 499.4 502.6 498.2 495.3 492.6 486 482.2 481.3 479 481.7 479.4 474.9 477 483.5 492.2 502.1 512.9 521.2 530.8 539.8 552.1 559.3 563.9 573.9 585.2 594.1 603.9 611.8 619.7 623.9 627.9 632.9 615.2 601.2 580.7 565.4 550.9 538.9 527.8 523.2 528.3 535.1 542 550.7 561.4 575.9 588.3 594.1 607.3 622.1 644.1 662.1 677.3 684.3 694.8 673.5 629.6 549.7 450.6 395.9 360.6 337.9 317.7 302 291 280.2
-2 -2 -2 -2 -2 -2 -2 -2 -2 -2 -2 -2 -2 -2 -2 -2 -2 -2 -2 -2 -2 -2 -2 -2 -2 -2 -2 -2 -2 -2 -2 -2 -2 -2 -2 -2 -2 -2 -2 -2 -2 -2 -2 6.6 21.7 16.4 11.7 -2 -2 -2 -2 -2 -2 -2 -2 -2 -2 -2 -2 -2 -2 -2 -2 -2 -2 -2 -2 -2 -2 -2 -2 -2 -2 -2 -2 -2 -2 -2 2.2 8.9 7 -2 7.8 13.7 18.2 24.1 31.6 37.3 48 52.4 52.3 52 45.8 46.3 46.3 46.6 50.2 53.2 63.5 72.1 80.5 92.3 103 112.2 121.5 132.4 141.6 144.7 146.4 149.6 153.1 157.6 161.4 166.4 172.2 178 189.6 203.2 215.5 229.5 238.2 250.5 263.7 273.3 285 304.3 332.7 362.4 429.4 454.1 464.2 469.6 473.7 480.3 488.4 489.3 485.5 482.7 478.5 477.9 478.4 477.9 478.5 479.8 477.3 475.6 481.9 487.8 495.4 505.9 517.4 534.6 549.8 565.1 576.7 584.2 591.9 603.4 616.1 624.3 633.6 638.6 639.3 633.2 625.8 615.7 601.9 587.3 568.6 553.5 539.8 528 519.7 518.1 527.7 535.2 544.8 555.3 568.1 583.7 595.4 608.3 620.4 633 650.9 667.4 673.6 673.6 672.9 643.9 596.1 498.5 431.9 388 361.6 344.1 322.2 306.7 296 282.7
-2 -2 -2 -2 -2 -2 -2 -2 -2 -2 -2 -2 -2 -2 -2 -2 -2 -2 -2 -2 -2 -2 -2 -2 -2 -2 -2 -2 -2 -2 -2 -2 -2 -2 -2 -2 -2 -2 -2 -2 -2 -2 -2 -2 2.4 -2 -2 -2 -2 -2 -2 -2 -2 -2 -2 -2 -2 -2 -2 -2 -2 -2 -2 -2 -2 -2 -2 -2 -2 -2 -2 -2 -2 -2 -2 -2 -2 -2 -2 1.3 -2 -2 7.3 8.6 19.2 23.5 28 35.9 39.5 45.6 48.9 47 42.6 43 43.6 44.4 44.6 45.8 55 64.8 70.8 82.8 92.7 104.2 113.6 124.9 136.2 137.8 140.9 143.9 147.9 151.1 156.5 161.7 166.9 171.9 180.2 192.7 206.2 217.8 229.8 240.4 254.7 269.3 278.3 293.3 317.1 348.8 390.4 426 437.6 448.9 460.2 467.4 475.1 476.9 473.8 470.8 472.7 467.4 471.7 471.8 471.1 472.2 469.9 475.1 480.8 488.9 498.6 511.2 526.9 545.6 567 587.7 602.9 612.4 625.3 635.7 642.7 643.3 645.3 639.9 627.8 614.9 603.4 595.1 583.2 568.1 553.6 540.1 529.4 517.5 509.4 516.4 526.8 536.3 548.7 559.9 572.7 584.5 601.6 617.4 625.8 637 651.2 659.5 661.6 659.4 653.6 619.1 557.3 465.8 417.4 386.4 365.5 344.7 328.2 309.9 297.9 289.1
-2 -2 -2 -2 -2 -2 -2 -2 -2 -2 -2 -2 -2 -2 -2 -2 -2 -2 -2 -2 -2 -2 -2 -2 -2 -2 -2 -2 -2 -2 -2 -2 -2 -2 -2 -2 -2 -2 -2 -2 -2 -2 24.3 13.1 2.4 -2 -2 -2 -2 -2 -2 -2 -2 -2 -2 -2 -2 -2 -2 -2 -2 -2 -2 -2 -2 -2 -2 -2 -2 -2 -2 -2 -2 -2 -2 -2 -2 -2 -2 -2 0.2 1.7 4.7 8.2 17.6 22.7 24.9 32.1 40.2 44.3 43.4 42.4 41.3 41.6 42.6 43.2 43.6 44.5 46.5 55.3 65.1 72.9 84.8 97 107.5 118.6 127 130.8 135.9 139.5 142 146.3 151.6 156.8 162.9 168.2 173.5 182.4 194 207.5 219 229.9 242.7 261 277.4 287.3 314.5 333.6 370.1 399.8 417.9 433.8 454.2 469.4 469.5 471.8 471.1 459.6 458.6 455.4 457.9 464.1 469.4 467.7 463.3 468.9 478.6 490.4 505 521.1 538.6 560.5 586.9 610.9 613.3 627.6 632.5 635.2 630.4 625.7 624.1 613.9 604.6 594.4 579.3 572.4 562.3 549.2 537.5 525.7 514.9 505.8 502.5 515.8 524.9 536.1 550.5 562.9 575.1 590.7 607.8 618.6 626 635.2 648 649.7 649.1 647 630 571.4 502.1 451.2 416.6 390.9 375.2 350.5 335.5 321.1 309.9 301.4
-2 -2 -2 -2 -2 -2 -2 -2 -2 -2 -2 -2 -2 -2 -2 -2 -2 -2 -2 -2 -2 -2 -2 -2 -2 -2 -2 -2 -2 -2 -2 -2 -2 -2 -2 -2 -2 -2 -2 -2 -2 -2 25.9 36.3 19.4 5.5 5.3 -2 -2 -2 -2 -2 -2 -2 -2 -2 -2 -2 -2 -2 -2 -2 -2 -2 -2 -2 -2 -2 -2 -2 -2 -2 -2 -2 -2 -2 -2 -2 -2 -2 -2 -2 -2 2 7.5 23 24.6 27.8 34.4 39 40 39.3 41.1 41.1 42 42.9 43.5 44.5 45.2 48.5 59.1 67.3 76.3 88.4 99.9 113.6 119.6 122.9 127.6 134.5 134.9 139.8 144.6 151.3 157.6 163.8 168.8 175.6 184.5 196.3 208.5 220.9 233.8 252.6 269.3 284.1 310.5 322.3 353.3 384.1 397.1 421 443.6 450.9 459.9 467 456.6 451.1 445.3 445 450 450.8 457.5 462.7 457.9 466.7 479.8 496.8 516.5 533.4 553.4 578.7 596.3 596.7 607.6 613.8 617.3 616.1 610.8 607.8 601.9 594 582.7 569.2 558.9 549.8 541.3 530.6 521.5 512.7 502.9 493.4 502.5 513.1 522.7 538.5 552.3 564 580 595.6 607.9 616.4 622.1 629.1 638.8 641.6 639 631.7 614.6 540.7 491.2 450.8 430 418 397.8 371.1 350.4 343.8 333 324.6
-2 -2 -2 -2 -2 -2 -2 -2 -2 -2 -2 -2 -2 -2 -2 -2 -2 -2 -2 -2 -2 -2 -2 -2 -2 -2 -2 -2 -2 -2 -2 -2 -2 -2 -2 -2 -2 -2 -2 -2 -2 -2 -2 7.8 11.9 12 5.2 -2 -2 -2 -2 -2 -2 -2 -2 -2 -2 -2 -2 -2 -2 -2 -2 -2 -2 -2 -2 -2 -2 -2 -2 -2 -2 -2 -2 -2 -2 -2 -2 -2 -2 -2 -2 -2 1.5 15.7 26 27 28.8 35.5 36.1 38.9 41.8 41.1 42.1 43 43.6 44 45.3 46.9 55.7 64.6 72 81.5 91.6 104.4 113 116.1 120 123.3 128.1 132.4 137.9 144.1 151.1 158.1 165.3 170.4 177.7 185.8 196.7 209.5 220.3 237.8 255.1 269.3 288.6 311.9 337.5 354.6 380 403 420.1 435.7 446 452.1 443.1 439.5 431.4 433.9 437.9 440.1 446.3 449 456.6 470.5 485.6 503.4 526.7 544.2 565.8 580.2 580.5 580.9 593.6 599.4 600.5 594.2 586.4 580.7 574.2 562.7 551.9 543.5 536.5 529 522.4 514.4 506.4 500.3 493.8 484 500.1 510.2 521.4 539.3 553.7 566.7 582.2 594.4 603.8 609.8 614.8 621.2 629.1 629.8 624.8 618.9 607.1 539.8 489.6 462.6 450.8 447.6 430.7 418.8 399.2 390.6 364.5 353
-2 -2 -2 -2 -2 -2 -2 -2 -2 -2 -2 -2 -2 -2 -2 -2 -2 -2 -2 -2 -2 -2 -2 -2 -2 -2 -2 -2 -2 -2 -2 -2 -2 -2 -2 -2 -2 -2 -2 -2 -2 -2 -2 13.7 29.3 29.5 25.6 34 45.7 36.2 23.1 -2 -2 -2 -2 -2 -2 -2 -2 -2 -2 -2 -2 -2 -2 -2 -2 -2 -2 -2 -2 -2 -2 -2 -2 -2 -2 -2 -2 -2 -2 -2 -2 -2 0 12.4 20.3 25 24.4 28.2 34.5 41.6 41.5 43.7 46.1 44.5 42.6 43.9 45.4 48.5 53 63.7 73.2 77.1 86 95.6 106.5 107.6 112 115.1 117.4 123.9 129.5 136.6 143.1 151.6 160.2 166.7 172.6 180.9 190 199.9 211.1 224.3 241.5 254.6 278.3 301.8 318 333.7 352.4 375.3 397.9 411.4 415.7 425.1 421.5 421.1 415.9 422.9 425.6 427.5 429.2 439.4 456.6 472 486.5 506.3 526.6 541.1 553 554.5 554.8 558.7 566.3 568.4 568.8 562.3 554.1 551.3 543.6 534.1 527.5 520.6 514.5 509.9 504.1 498.4 492.7 489.6 479.7 484.9 495.2 505 518.6 535.2 552.6 569.4 581.2 590.6 597.6 603.9 608.3 612.1 613.2 614.6 610.6 605.5 585.8 535.8 503.7 484.8 484.7 492.1 493.6 483.8 476.9 477.2 459.3 424.9
-2 -2 -2 -2 -2 -2 -2 -2 -2 -2 -2 -2 -2 -2 -2 -2 -2 -2 -2 -2 -2 -2 -2 -2 -2 -2 -2 -2 -2 -2 -2 -2 -2 -2 -2 -2 -2 -2 -2 -2 -2 -2 15.7 21.8 24.5 24.4 24.7 25.8 31.4 33.2 23.7 -2 -2 -2 -2 -2 -2 -2 -2 -2 -2 -2 -2 -2 -2 -2 -2 -2 -2 -2 -2 -2 -2 -2 -2 -2 -2 -2 -2 -2 -2 -2 -2 -2 -2 4.7 14.3 20.3 25.3 26.9 30.8 40.7 43.4 44.7 46.9 49.3 48.4 45.1 48.3 52.2 57.6 61.5 71.1 77.5 82.8 90.4 95.3 99.8 103.1 106.9 108 113 119.4 127.4 137.2 144.4 153.2 163.1 169.6 176.5 184.3 193.2 200.2 211.9 222.7 237 258.5 283.3 297.3 306.7 324.4 344.7 362.1 377.3 387 398.4 402 405.8 405.9 412.2 412.5 414.8 423.3 438 452.1 469.6 493.5 512.5 523.7 529.7 534.6 534.7 531.7 533.7 536.7 538.1 534.9 531.1 528.6 523.1 516.9 511.2 504.2 499.9 494.4 491 487.3 483.3 481 478 468.6 481.5 490.5 500.3 511.5 529.1 548.8 564.6 575.2 584.6 589 593 597.6 601.3 601.9 600.5 597.1 592 570.7 543.3 540.5 522.6 532.6 535.4 546.3 540.4 536.4 529.8 501.4 456.8
-2 -2 -2 -2 -2 -2 -2 -2 -2 -2 -2 -2 -2 -2 -2 -2 -2 -2 -2 -2 -2 -2 -2 -2 -2 -2 -2 -2 -2 -2 -2 -2 -2 -2 -2 -2 -2 -2 -2 -2 -2 -2 9.6 20.5 18.3 19.3 20.3 25.2 27 27.5 30.7 12.3 -2 -2 -2 -2 -2 -2 -2 -2 -2 -2 -2 -2 -2 -2 -2 -2 -2 -2 -2 -2 -2 -2 -2 -2 -2 -2 -2 -2 -2 -2 -2 -2 -2 0.6 9.9 13 23.9 24.6 25.4 37 41.7 43.4 47.6 50.9 51.1 54.8 51.8 55.1 59.6 61.6 70.1 76.9 80.7 83.6 91.3 96 97.5 97.9 101.8 105.3 110.9 117.7 129.6 139.5 146.6 158.4 166.1 173.2 180.4 188.5 196.1 202.9 216.2 223.9 242.8 260.3 275.8 290 304.8 320.6 338 358.1 369.6 378.7 386.7 390.5 396.1 401.1 400.8 408.3 419.5 436.8 452 473.3 493.9 503.7 513 515.6 515.3 513.8 509.9 508.3 509.8 508.2 506.6 506.4 502.6 497.9 492.3 487.1 484.4 481.1 477.1 473.7 472 471.4 470.5 467.3 467.4 476.8 485.3 494.9 506.6 523.8 541.7 554.6 564 571.4 578.6 582.7 586.9 589 587.8 583.9 581.4 578.5 571.6 565.4 561.8 560.5 558.4 552.4 544.8 542.6 540.8 535.4 494.2 460.9
-2 -2 -2 -2 -2 -2 -2 -2 -2 -2 -2 -2 -2 -2 -2 -2 -2 -2 -2 -2 -2 -2 -2 -2 -2 -2 -2 -2 -2 -2 -2 -2 -2 -2 -2 -2 -2 -2 -2 -2 -2 -2 -2 -2 9.7 16.6 23.3 30.4 36.9 33 33.1 22.4 -2 -2 -2 -2 -2 -2 -2 -2 -2 -2 -2 -2 -2 -2 -2 -2 -2 -2 -2 -2 -2 -2 -2 -2 -2 -2 -2 -2 -2 -2 -2 -2 -2 -2 6 7.6 15.3 22 24.8 29.5 36.7 41.3 47.8 51.8 50.6 54.3 57.5 57.7 61.8 65.3 68.1 69.8 75.4 77.4 84 91.5 90.7 88.2 93.3 98.2 103.1 110.1 119.5 132.3 141.6 151.4 161.9 169.5 177.2 186.3 195.1 202.9 209.2 225 234.8 248.2 267 287 301.8 313.3 328.5 342.2 351.3 358.6 364.9 366.5 382.4 387.4 398.1 407.8 425 439.8 452.1 465.6 478.6 487.5 494.9 497.4 495.4 492.8 487.7 485.8 485.9 485.8 484.1 483.3 481 478 471.6 467.4 464.5 462.4 461.1 460.1 460.9 460.1 460 455.8 464.9 473.8 482 490.8 503.2 520 534.9 548.2 558.3 567.5 573 573.6 574 573.7 570.9 569.2 566.3 564.5 562.9 561.8 560.7 558.6 553.9 546.6 543.9 543.4 541.9 518.6 521.9 535.2
-2 -2 -2 -2 -2 -2 -2 -2 -2 -2 -2 -2 -2 -2 -2 -2 -2 -2 -2 -2 -2 -2 -2 -2 -2 -2 -2 -2 -2 -2 -2 -2 -2 -2 -2 -2 -2 -2 -2 -2 -2 -2 -2 -2 13.4 20.4 27.1 37.9 40.1 43 41.2 36.8 17.3 -2 -2 -2 -2 -2 -2 -2 -2 -2 -2 -2 -2 -2 -2 -2 -2 -2 -2 -2 -2 -2 -2 -2 -2 -2 -2 -2 -2 -2 -2 -2 -2 -2 -2 0.4 3.1 17.8 24.9 26.3 29.7 37.9 44.3 45.3 50 51.5 57.9 64.6 64.9 65.1 67.9 68.9 68.4 70.1 74.1 78.1 80.4 81.4 82.4 89.4 93.2 103.1 113.5 124.1 135.7 144.3 154 169 176.6 186.9 196.8 205.7 212.5 223.1 239.8 253.8 270.1 284.1 300.7 313.2 326.8 336 339.1 341.9 345.5 357.6 374.4 383.6 391.9 403.1 416.4 430.4 444.7 451.3 460.6 471.1 478.3 479.5 477 472.8 466.6 463.9 465.4 466.9 464.9 463.5 462.4 458.1 450.9 448.3 448.2 447.3 447 448.1 449.2 449.7 447.5 456.8 464.5 472.9 480.9 490.3 503.1 518.6 533.1 545 554 559.9 563.3 563 562.5 560.9 556.2 554.3 553.1 553.3 553.2 553.5 551.9 550.2 548.1 545.2 544.8 547.3 548.1 549.6 555 559.5
-2 -2 -2 -2 -2 -2 -2 -2 -2 -2 -2 -2 -2 -2 -2 -2 -2 -2 -2 -2 -2 -2 -2 -2 -2 -2 -2 -2 -2 -2 -2 -2 -2 -2 -2 -2 -2 -2 -2 -2 -2 -2 -2 13.3 15.1 25.6 38.6 44.9 48.1 52.4 46.2 36.9 11.7 -2 -2 -2 -2 -2 -2 -2 -2 -2 -2 -2 -2 -2 -2 -2 -2 -2 -2 -2 -2 -2 -2 -2 -2 -2 -2 -2 -2 -2 -2 -2 -2 -2 -2 -2 -2 11.1 21.5 23.3 26.7 32.3 36.1 38.3 47.6 56.4 61.7 64.2 64.4 67.4 68.7 65.7 62.9 65.7 68.6 71.8 74.3 76.8 76.3 82.4 86.1 93.8 104.3 114.3 121.2 136.2 150.9 160.7 178.4 188.8 199 209.8 218.5 226.4 240 258.1 272.7 277.8 287.2 302.2 316.7 325.5 325.3 326.5 329.5 349.5 370.6 377.1 384.5 392.6 403.6 413.3 426.7 436 443.7 451.5 457.6 460 458 453 444.1 442.1 444.7 444.2 444.2 442.8 442.9 437.1 434.5 434.4 435.1 436.2 436.7 438.8 437.4 441.1 451.4 458.8 466.6 474.5 482.9 492.7 509.7 521.3 531.3 540.6 548.7 554.1 555.3 554.7 551.7 546.9 542.2 543.2 543.9 542.9 544 545.4 544.7 544.9 544.3 544.1 546.5 549.5 553.7 557.8 563.4 569.2
-2 -2 -2 -2 -2 -2 -2 -2 -2 -2 -2 -2 -2 -2 -2 -2 -2 -2 -2 -2 -2 -2 -2 -2 -2 -2 -2 -2 -2 -2 -2 -2 -2 -2 -2 -2 -2 -2 -2 -2 -2 -2 -2 5.2 13.7 25.2 34.8 36 34.8 41.3 45.6 34.9 -2 -2 -2 -2 -2 -2 -2 -2 -2 -2 -2 -2 -2 -2 -2 -2 -2 -2 -2 -2 -2 -2 -2 -2 -2 -2 -2 -2 -2 -2 -2 -2 -2 -2 -2 -2 -2 1.9 12.8 19.8 23.6 27.7 29.5 37.7 48.5 59.8 63.9 63.9 63.3 62.1 62.8 60.6 61.4 62.9 66.7 71.2 72.7 73.3 73.4 76.2 83.5 91.6 99.8 109.4 122.4 138.1 148.5 157.3 170.5 187.6 199.9 212.5 221.5 231.2 238.2 251.2 261.2 272.4 279.9 290.1 301.5 309.5 315.3 318.5 323.3 345 351.6 368.7 374.2 383.9 390.1 396.7 410.2 419.2 425.7 430.6 437.2 440.3 438 430.6 425.2 426.1 426.6 425.7 426.2 424.6 423.1 423 423.4 425.1 423.8 424.1 426.7 433.4 439.8 448.8 455 462 470.2 477.8 486.6 499.7 512.1 522.6 530.3 537.8 543.7 546.6 547.4 546.9 540.4 535 535.2 535.5 535.5 536 536.7 538.2 539.7 540.5 540.8 544 547.7 551.8 556.4 561.4 568.8 576.4
-2 -2 -2 -2 -2 -2 -2 -2 -2 -2 -2 -2 -2 -2 -2 -2 -2 -2 -2 -2 -2 -2 -2 -2 -2 -2 -2 -2 -2 -2 -2 -2 -2 -2 -2 -2 -2 -2 -2 -2 -2 -2 -2 6.1 16.5 23.3 25.6 27.6 31.6 40.4 39.3 30.7 -2 -2 -2 -2 -2 -2 -2 -2 -2 -2 -2 -2 -2 -2 -2 -2 -2 -2 -2 -2 -2 -2 -2 -2 -2 -2 -2 -2 -2 -2 -2 -2 -2 -2 -2 -2 -2 5.7 6.5 15 19.9 23 30.6 37.6 47.5 59.5 67 70.7 63.5 60.3 59.8 60.3 63.3 67.9 69 70.2 71.6 72.5 74.9 76.9 80.7 88 96.1 105.5 117.7 129.7 145.1 156.8 164.5 181.9 197.7 210.8 221.7 231.4 240.5 251.3 257 263.9 274.3 281.4 289.4 297.2 300.8 310.4 313.4 331.4 341 352 360.9 367.9 375.9 383.6 393 399.8 405.9 413.7 418 418.7 416.8 412.5 411.7 412.5 412.9 414.5 413.7 413.8 413.2 412.7 413.1 415.4 424.4 431.4 437.7 442.6 448.5 453.5 460.7 467.7 476 482.9 493.6 505.4 516 523.9 528.2 533 537.1 539.2 540 536.5 529.4 528.9 529.2 530.8 530.7 532.6 536.2 537.7 537.5 540.4 542.6 546.3 551.2 556.1 562.3 566.9 574.2 583.5
-2 -2 -2 -2 -2 -2 -2 -2 -2 -2 -2 -2 -2 -2 -2 -2 -2 -2 -2 -2 -2 -2 -2 -2 -2 -2 -2 -2 -2 -2 -2 -2 -2 -2 -2 -2 -2 -2 -2 -2 -2 -2 -2 5.9 16.9 24.9 31.6 30.4 37.8 45 36.6 19.3 -2 -2 -2 -2 -2 -2 -2 -2 -2 -2 -2 -2 -2 -2 -2 -2 -2 -2 -2 -2 -2 -2 -2 -2 -2 -2 -2 -2 -2 -2 -2 -2 -2 -2 -2 -2 -2 -2 0.4 7.4 16.7 21.8 28 37 46.1 58.8 64.8 72.7 71 60.3 60.5 64 67.9 71.9 74.4 73.6 74.4 75.2 74.8 75.9 79.3 84.5 96.1 103.5 114 124.6 137.5 153.3 158.6 169.6 186.6 208 218.3 230.7 235.3 243.4 251.7 259.9 265.5 273.1 277.8 284.3 295.1 304.5 311.1 320.5 337.3 341.9 343.4 350.3 360.1 369.8 376.9 386.1 393.3 400.5 402 401.7 401.3 399.7 401 403.1 404.5 405.1 405.4 405.9 403 411.7 418.7 425.1 431.7 438.1 443.8 450.3 456.7 463.3 469 474.4 481.1 490.5 499.5 508.6 517.1 523.5 526.3 529.5 531.2 531.7 529.6 526.6 521.9 521.9 523 525 530.1 534.4 537.1 540.6 539.2 543.9 546.9 550.6 556 561.7 568.1 575.6 584.2 591.3
-2 -2 -2 -2 -2 -2 -2 -2 -2 -2 -2 -2 -2 -2 -2 -2 -2 -2 -2 -2 -2 -2 -2 -2 -2 -2 -2 -2 -2 -2 -2 -2 -2 -2 -2 -2 -2 -2 -2 -2 -2 -2 -2 9.2 17.1 27.1 37.1 36 38.5 46.7 38.2 26.8 -2 -2 -2 -2 -2 -2 -2 -2 -2 -2 -2 -2 -2 -2 -2 -2 -2 -2 -2 -2 -2 -2 -2 -2 -2 -2 -2 -2 -2 -2 -2 -2 -2 -2 -2 -2 -2 -2 -2 6.8 19.1 25.2 29.9 34.8 44.3 53.6 64.1 69 67.2 58.1 61.7 70.4 73.9 75.9 80.6 82.5 82.6 81.8 81.3 80.1 81.8 84.2 90.4 102.8 111.6 121 132.3 146.5 155.8 163.2 170 186.1 197.3 203 209.9 216.3 228.1 252.8 260.7 261.4 266.9 274.1 284.3 293.3 310.2 317.1 331.1 329.3 328 335.9 349.9 353.2 355.2 365.2 382.8 388.6 389.6 391.3 391 392 393.2 395.5 397.4 396.7 397.1 405.4 410.8 416.6 423.2 430.8 437.9 444.3 450.3 457.1 464.4 470.4 475.7 480 487.8 494.7 501.5 507.3 513.9 516.8 519.7 522.2 521.4 520.7 520.5 515.3 511.3 522.7 523.8 528.9 532.6 537.7 541.5 543.7 544.6 548.5 553.4 557.4 563.8 570.5 580.5 589.5 597.4 606
-2 -2 -2 -2 -2 -2 -2 -2 -2 -2 -2 -2 -2 -2 -2 -2 -2 -2 -2 -2 -2 -2 -2 -2 -2 -2 -2 -2 -2 -2 -2 -2 -2 -2 -2 -2 -2 -2 -2 -2 -2 -2 -2 9.6 17 29.1 39.3 37.9 40 46.6 44.6 29.2 -2 -2 -2 -2 -2 -2 -2 -2 -2 -2 -2 -2 -2 -2 -2 -2 -2 -2 -2 -2 -2 -2 -2 -2 -2 -2 -2 -2 -2 -2 -2 -2 -2 -2 -2 -2 -2 -2 -2 12.9 22.2 27.4 30.5 34.3 43.7 51.4 61.7 64.4 60.6 56.2 58 67.8 77.2 82.2 81.8 83.6 84.3 87.2 84.3 85.9 86.3 86.4 89.9 98.1 111.7 118.4 128.7 139.2 150.2 157.7 163 170.4 178.9 188.2 196.6 201.8 210.7 221.4 233.9 238.7 240.6 252.2 275.6 286.2 295.6 309.5 315.5 315.6 317.6 321.7 328.1 331.2 337.7 351.9 369.2 377.2 380.6 382.1 381.4 381.1 382.7 381.6 388.5 397.9 404.4 411.4 415.6 422.3 431 438.8 445.1 450.8 458.1 464.1 470.4 475.1 479.2 484 488.7 494.4 498.8 502.1 506 507.3 510.1 510.6 508.4 503.3 504.6 514.8 520.4 525.3 528.9 533.6 539.2 544.2 548.5 552.5 556.5 559.6 564.1 568.1 575.6 585.8 597.1 605.4 612 620.6
-2 -2 -2 -2 -2 -2 -2 -2 -2 -2 -2 -2 -2 -2 -2 -2 -2 -2 -2 -2 -2 -2 -2 -2 -2 -2 -2 -2 -2 -2 -2 -2 -2 -2 -2 -2 -2 -2 -2 -2 -2 -2 -2 14.6 20.9 30.2 38.8 36.1 38.7 46.7 47.9 26.7 -2 -2 -2 -2 -2 -2 -2 -2 -2 -2 -2 -2 -2 -2 -2 -2 -2 -2 -2 -2 -2 -2 -2 -2 -2 -2 -2 -2 -2 -2 -2 -2 -2 -2 -2 -2 -2 -2 -2 18.9 21.6 26.4 30.3 36.9 41.8 50 54.7 55.4 55.1 54.9 54.9 66.9 79 84.8 82.5 79.5 81.7 84.9 83.7 84.9 86.8 88.4 90.4 96 108.9 120.2 127.7 134.3 143.9 150.8 157.3 165.3 171 179.5 186.1 192.4 197.6 205.3 214.1 225.2 225.6 247.6 263.9 276 285.4 296.7 306.8 307.5 298.6 303.1 303.3 307.5 317.5 336.9 356 364.3 366.5 361.2 374.5 381.8 387.8 392.6 399.2 405.2 411.1 417.1 422.5 430.2 437.5 443.5 450.3 456.9 463.2 468.7 473.7 478.2 478.2 481 486.3 490.5 492.1 493.8 495.5 497.5 500.1 496.8 487.6 504.7 512.6 519.3 526 530.8 537.1 544.7 552.7 559.1 564.2 570.4 577.8 581.3 586.5 583.3 595.2 605.2 614.7 622.9 629.4 635.5
-2 -2 -2 -2 -2 -2 -2 -2 -2 -2 -2 -2 -2 -2 -2 -2 -2 -2 -2 -2 -2 -2 -2 -2 -2 -2 -2 -2 -2 -2 -2 -2 -2 -2 -2 -2 -2 -2 -2 -2 -2 -2 17 18.3 20.4 28.6 32.9 34.6 40.3 50.7 46.6 26.5 -2 -2 -2 -2 -2 -2 -2 -2 -2 -2 -2 -2 -2 -2 -2 -2 -2 -2 -2 -2 -2 -2 -2 -2 -2 -2 -2 -2 -2 -2 -2 -2 -2 -2 -2 -2 -2 -2 -2 18.8 19.1 21.7 29.4 40 39.6 45.4 51 51.7 54.5 56.1 53.8 59.2 72.5 78.7 73.4 71.9 76.1 80 79.1 80.3 84.9 88.2 90.8 96.6 104.2 118.3 129.7 136 141.7 147.5 153.3 159.8 166.9 171.1 176.8 182.5 189.4 192.6 198.6 201.7 218.8 235.5 247.6 264.8 276.2 281.7 275.9 279.8 282.1 309.8 312.8 320 324.5 326.7 334 347.9 362.7 373.6 381.3 387.9 394.2 398.8 404.6 410.3 416.4 421.7 429 435.8 441.2 448 454.3 459.9 464.8 469.5 473.6 475.2 474.8 476.2 479.3 481.3 482.6 483.5 484.7 486.9 487.1 479.8 497.7 507.6 515.5 523.6 532.2 542.8 552.3 562.6 573 581.5 589.7 596.3 603.8 609 611.8 611 618.6 627.8 634.5 642.2 647.4 651.4
-2 -2 -2 -2 -2 -2 -2 -2 -2 -2 -2 -2 -2 -2 -2 -2 -2 -2 -2 -2 -2 -2 -2 -2 -2 -2 -2 -2 -2 -2 -2 -2 -2 -2 -2 -2 -2 -2 -2 -2 -2 12.6 19.2 20.4 21.9 28.4 31.9 35.1 45.6 51.4 51.2 23.7 -2 -2 -2 -2 -2 -2 -2 -2 -2 -2 -2 -2 -2 -2 -2 -2 -2 -2 -2 -2 -2 -2 -2 -2 -2 -2 -2 -2 -2 -2 -2 -2 -2 -2 -2 -2 -2 -2 -2 12.1 17.2 21.1 26.2 36.8 36 40.3 45.6 53.5 53.2 52.6 54 55 57.4 62.6 67.9 69.5 70.3 71.1 72.6 76.4 80.1 89.9 93 97.1 104.7 113.7 128.1 139.1 142.3 146.4 149.7 153.6 157.9 163.3 167.7 173.5 177.8 181.7 186.6 190.2 201.8 216.7 223.2 236.9 252.4 250.3 252.7 274 301.8 310.8 318.5 326.8 338.5 347.8 355 362.4 371.7 380.2 386.7 393.6 399.4 405.5 410.5 415.8 420.5 426.3 433.2 438.3 444.6 449.7 454.1 457.5 462 466 467.9 468.2 466.7 467.1 469.1 469.7 471.1 471.4 474.2 475.4 470.6 483.2 496.9 507.1 516.8 527.5 543.8 559.1 573 585.9 599 609.2 617.7 626.4 632.7 637.9 641.4 640.3 644.1 649 653 658.7 661.5 664.7
-2 -2 -2 -2 -2 -2 -2 -2 -2 -2 -2 -2 -2 -2 -2 -2 -2 -2 -2 -2 -2 -2 -2 -2 -2 -2 -2 -2 -2 -2 -2 -2 -2 -2 -2 -2 -2 -2 -2 -2 -2 17.2 24.5 22.1 24.1 31.3 34.9 44.8 51.6 51.7 47.7 17.6 13.8 8 -2 -2 -2 -2 -2 -2 -2 -2 -2 -2 -2 -2 -2 -2 -2 -2 -2 -2 -2 -2 -2 -2 -2 -2 -2 -2 -2 -2 -2 -2 -2 -2 -2 -2 -2 -2 -2 1.6 10.2 22.3 32 30.6 42 46.6 48.7 50.1 53.4 54.2 54 55.4 60.5 65.7 78.8 82.1 81.5 80.1 77.9 76.6 78.7 81.9 89.3 93.4 103 112 120 137.1 143.5 146.8 145.9 148.9 150.8 154.8 156.1 164.1 167.8 173.3 173.8 182.3 190.5 193.3 199.6 224.4 252.9 269 284.3 292.7 300.8 312.7 321.5 330.7 342.2 352 357.1 366.1 373.8 382.5 391.5 398.6 404.5 409.9 414.6 419.5 424.4 430.4 436 439.4 444.4 447.1 451.3 453.8 456.6 457.2 454.5 456.6 454.1 456.1 456.6 459 460.9 463 466.5 463.3 471.2 477.9 489.9 501.8 515.2 534.5 556.9 576.9 595.7 612 626.9 638.6 648.3 657.7 664.1 668.7 667.5 663.5 663.8 665 668.9 672.4 674.8 677.3
-2 -2 -2 -2 -2 -2 -2 -2 -2 -2 -2 -2 -2 -2 -2 -2 -2 -2 -2 -2 -2 -2 -2 -2 -2 -2 -2 -2 -2 -2 -2 -2 -2 -2 -2 -2 -2 -2 -2 -2 -2 21.4 29.3 24.6 28.2 33.6 43.2 51 55.7 50.1 38.6 10.6 5.1 -2 -2 -2 -2 -2 -2 -2 -2 -2 -2 -2 -2 -2 -2 -2 -2 -2 -2 -2 -2 -2 -2 -2 -2 -2 -2 -2 -2 -2 -2 -2 -2 -2 -2 -2 -2 -2 -2 2.1 18.2 26 35.1 44.7 48.1 54.9 57.8 60.8 62.3 69.9 68.4 67.5 72 78.1 89.4 113.3 111.9 96.4 92.6 94.7 94.7 95.8 95.1 95.3 101.2 104.9 112.7 122.3 141.7 144 142.2 143.1 145.9 148.6 150.4 155.4 160 163.8 163 178 173.4 182.4 204.6 223.1 244.6 260.5 278.8 289.5 298.3 308.4 321.7 333.6 341.2 350.1 360.1 367.1 376.7 386.4 395.1 402.4 408.6 413.4 418.5 422.8 427.9 432.7 434.2 435.5 438.9 441.4 442.3 445 445.1 444 443.5 443.8 444.7 446.9 446.7 449 451 455.8 456.1 460.3 468.6 475.3 485.5 499.4 515 538.2 565.1 594.7 618.6 640.1 657.5 669.8 680.9 691.4 697.7 696.6 688.3 682.9 680.9 681.5 684.1 687.3 689.1 690.4
-2 -2 -2 -2 -2 -2 -2 -2 -2 -2 -2 -2 -2 -2 -2 -2 -2 -2 -2 -2 -2 -2 -2 -2 -2 -2 -2 -2 -2 -2 -2 -2 -2 -2 -2 -2 -2 -2 -2 -2 15.9 25.4 28.4 30.2 31.6 36.9 47.1 55.7 56.3 45.6 22.5 -2 -2 -2 -2 -2 -2 -2 -2 -2 -2 -2 -2 -2 -2 -2 -2 -2 -2 -2 -2 -2 -2 -2 -2 -2 -2 -2 -2 -2 -2 -2 -2 -2 -2 -2 -2 -2 -2 -2 -2 22.2 30.8 30.8 37.5 47.9 58 58.3 60 71.8 74.7 73.3 77.1 85.7 94.4 100.7 106 116.4 121 118 114.7 112.3 113.2 115.2 112.2 105.4 104.5 106.2 110.9 115.9 126.1 135.9 138.5 140.2 142.3 143.9 147.9 150.8 153.3 153.8 152.1 154.4 168.1 190.8 205.5 222.8 240.3 252.9 267.9 284.7 295.3 307.2 317.8 327.8 337.7 348.8 359.7 369.2 379.6 387.9 395.9 403.8 409.6 415.3 422.1 424.5 426.5 429 431 431.1 431.8 432.8 435.1 435.3 435.4 435.7 433.5 435.3 435.5 437.9 438.2 439.4 442.5 450 455.9 461.7 467.9 476.1 484.7 497.2 513.7 538.6 566.9 598.7 632.4 667.5 687.1 705.6 716.8 720.7 719.4 709.8 702 696.3 696.1 696.9 699.9 702.5 703.7 705.2
-2 -2 -2 -2 -2 -2 -2 -2 -2 -2 -2 -2 -2 -2 -2 -2 -2 -2 -2 -2 -2 -2 -2 -2 -2 -2 -2 -2 -2 -2 -2 -2 -2 -2 -2 -2 -2 -2 -2 -2 17.4 27.4 32 33.4 36.9 42.3 47.9 54.2 51 35.4 -2 -2 -2 -2 -2 -2 -2 -2 -2 -2 -2 -2 -2 -2 -2 -2 -2 -2 -2 -2 -2 -2 -2 -2 -2 -2 -2 -2 -2 -2 -2 -2 -2 -2 -2 -2 -2 -2 -2 5.3 16.6 27.2 32.3 34.3 38.7 51 55 56 61.2 73.2 84.1 81.5 85 96.3 108 119.3 126.7 128.5 129.6 130.7 130.1 127 124.2 121.8 118.1 117.5 117.3 114.5 112.1 118.7 126.7 131.2 134.3 135.3 137.1 140.5 143.4 144.7 144.6 142 142.7 156.9 174.5 194.6 209.1 221.1 238.7 247.4 256.6 274.5 289.6 303.4 316.5 327.2 335.4 346.4 353.4 367.5 378.6 387.1 395.2 403.6 409.2 415.7 421.8 421.8 422.8 424.9 425.2 424.3 424.6 424.9 424.1 425 427.5 425.6 425.4 426.8 427.8 429.9 435.5 440.4 446.6 452.5 458.4 464.5 471.7 479.4 487.4 498.2 515.2 537.7 564.4 595.4 629.1 665.2 699.2 733.5 736.5 729.1 722.7 712.7 708.3 707 707.2 709.2 712.8 715.3 715 717.1
-2 -2 -2 -2 -2 -2 -2 -2 -2 -2 -2 -2 -2 -2 -2 -2 -2 -2 -2 -2 -2 -2 -2 -2 -2 -2 -2 -2 -2 -2 -2 -2 -2 -2 -2 -2 -2 -2 -2 9.1 19.2 26.6 35.5 38.6 39.6 47.7 51.9 47.6 42.8 16.5 -2 -2 -2 -2 -2 -2 -2 -2 -2 -2 -2 -2 -2 -2 -2 -2 -2 -2 -2 -2 -2 -2 -2 -2 -2 -2 -2 -2 -2 -2 -2 -2 -2 -2 -2 -2 -2 6.4 11.4 18 24 30.7 33.2 37.8 42.5 49.9 52.3 54.9 64.5 71.3 79 84.4 90.2 98.7 115.8 127 129.9 127.9 128.1 130.8 130.3 131.9 134.4 135.4 133.7 131.1 127.1 119.1 112.6 120.3 130 137 134.1 133 133.7 136.6 138.5 134.9 131.9 128.4 135.2 146.2 168 189.3 206.7 220.7 231.4 240 245.6 257.6 279.4 296.6 309.3 323.5 331.5 339.6 349.9 360.2 373.4 383.4 392.8 400.2 407.1 413.5 418.2 420 417.9 417.8 417.3 414.7 413.5 413.9 413.6 415.6 416.9 418.8 418.4 421.2 427.7 433.8 438.3 444.7 450 455.4 461.2 468.7 476 483.1 491 501.4 516.4 538 563.1 592.1 625.6 658.5 691.9 726.5 739.8 730.8 722.6 716.7 714.4 713.8 715.2 717.5 722.1 728.8 726 731.3
-2 -2 -2 -2 -2 -2 -2 -2 -2 -2 -2 -2 -2 -2 -2 -2 -2 -2 -2 -2 -2 -2 -2 -2 -2 -2 -2 -2 -2 -2 -2 -2 -2 -2 -2 -2 -2 -2 -2 9.3 19 29.2 38.7 43.9 43.2 48.6 50.5 43.7 19.3 -2 -2 -2 -2 -2 -2 -2 -2 -2 -2 -2 -2 -2 -2 -2 -2 -2 -2 -2 -2 -2 -2 -2 -2 -2 -2 -2 -2 -2 -2 -2 -2 -2 -2 -2 -2 -2 6.9 12.4 16.8 22.8 27.7 31.5 35.2 40.5 48.2 47.2 45 51.8 65.9 67.3 73.5 79 87 101.9 109.1 121.9 124.9 127.4 129.2 129.8 134.4 141.5 143.6 142.4 139.3 131.5 127 116.5 109.3 117 136.2 133.8 130.6 131 130.2 129.2 129.2 121.1 118.6 124.4 126.1 141.6 158 179.5 204.5 221.9 226.4 229 233.6 241.9 258.4 283 301.2 313.3 324.9 333 341 354 364.9 377.8 386.1 396 402.9 408.1 412.9 414.9 413 410.9 408.3 407.7 406.4 405.4 406.2 406.6 411.9 418 424.1 429.7 434 440.3 443.8 448.9 454.5 461.5 466.7 472.8 479.5 487.5 495.7 505 519.7 538.3 561.5 590 621.2 653.5 685.2 717.8 736 728 722.4 720.9 719.3 721.1 726.3 732.5 730.4 723.2 710.4 720.1
-2 -2 -2 -2 -2 -2 -2 -2 -2 -2 -2 -2 -2 -2 -2 -2 -2 -2 -2 -2 -2 -2 -2 -2 -2 -2 -2 -2 -2 -2 -2 -2 -2 -2 -2 -2 -2 -2 -2 11.1 20.8 31.5 38 40.5 42 48.1 47.1 35.9 -2 -2 -2 -2 -2 -2 -2 -2 -2 -2 -2 -2 -2 -2 -2 -2 -2 -2 -2 -2 -2 -2 -2 -2 -2 -2 -2 -2 -2 -2 -2 -2 -2 -2 -2 -2 4.7 7 10.5 16.2 24.3 28 32 35.1 39.6 42.3 43.5 44.3 44.1 46.3 58.8 69.8 70.2 77.1 87.7 99.4 109.5 116.4 125.8 134.7 136.3 138.4 141 143.8 144.5 141.6 137.1 128.6 118.2 109.1 108.7 122.1 128.1 130.1 125.6 126.9 129.2 120.1 116.5 110.8 113.3 114.9 121.1 131.9 147.6 168.7 193.5 213.7 218.6 221.7 224.7 230.8 240.9 261.4 286.5 304.2 317.4 327.2 334.5 344.2 353.4 365.9 374.2 384.5 390.8 396.8 401 401.2 398.9 397.6 397.4 398.8 395.5 399.4 405 410.3 417.2 424.6 430.4 436.5 442.4 446.7 451.8 457.4 464.8 470.8 475.8 481.4 487.6 494.7 501.2 510.4 522.4 540.6 563.7 588.5 619.3 649.7 681.2 718.2 726.6 724.8 723.7 722 724 731.4 730.4 719.5 706.2 693.8 679.8 681.7
-2 -2 -2 -2 -2 -2 -2 -2 -2 -2 -2 -2 -2 -2 -2 -2 -2 -2 -2 -2 -2 -2 -2 -2 -2 -2 -2 -2 -2 -2 -2 -2 -2 -2 -2 -2 -2 -2 11.9 14.7 21.3 30.7 35.9 40.4 42.8 47.7 45.2 -2 -2 -2 -2 -2 -2 -2 -2 -2 -2 -2 -2 -2 -2 -2 -2 -2 -2 -2 -2 -2 -2 -2 -2 -2 -2 -2 -2 -2 -2 -2 -2 -2 -2 -2 -2 -2 -2 7.8 13.7 22.4 29 32.8 38 42.1 43.5 45.9 45.7 42 42.5 45.1 56.6 64.4 68.2 77.5 89 103.3 109.3 113.8 124.5 133.3 136.2 137 137.8 139.6 140.2 136.2 133.4 119.3 112.3 106.7 108.1 119.9 122.6 121 123.9 121.5 119.3 114.4 108.2 104.7 107.2 109.6 110.6 126 141.7 155.4 180.6 202.3 210.1 213.6 216.9 219.3 227 243.2 267.1 295.3 311.7 322.2 331.1 337.8 346.2 357.6 362.7 371.3 377.4 384.2 388.3 386.8 386.1 387.6 383.8 395.3 399.8 405 410.2 417.2 423.1 430.3 438.5 444.1 450.2 455.7 462.6 470.6 476.7 483.8 490 495.9 499.7 506.4 511.8 518.1 527.5 544 563 588.3 616.6 645.5 676.4 703.9 715.5 720.2 722.1 722.4 729.6 714.1 699.7 686.6 670.3 653.3 643.8 643.5
-2 -2 -2 -2 -2 -2 -2 -2 -2 -2 -2 -2 -2 -2 -2 -2 -2 -2 -2 -2 -2 -2 -2 -2 -2 -2 -2 -2 -2 -2 -2 -2 -2 -2 -2 -2 -2 -2 9.8 17.2 22 22.5 27.3 33 36.8 44.2 34.3 -2 -2 -2 -2 -2 -2 -2 -2 -2 -2 -2 -2 -2 -2 -2 -2 -2 -2 -2 -2 -2 -2 -2 -2 -2 -2 -2 -2 -2 -2 -2 -2 -2 -2 -2 -2 -2 -2 2.8 16 24.9 31.5 35.5 39.6 43.9 44.9 43.1 41.7 41.4 43.1 45.1 53 59.7 70.6 77.5 86.2 96.9 102.6 110.7 119.3 124.5 130.5 129.6 130.6 132.9 131.3 127.9 120.9 110 103.4 104.4 112 117.6 119.8 121.2 123.5 122 119.4 114 104.5 98.8 100.7 102.2 105.2 120 134.3 144.7 164.5 189.9 199.4 204.5 207.5 210.7 214.6 228 248.9 276.9 301.9 318.8 326.8 333.5 341.6 354.1 358.7 364.5 371.4 372.9 372.5 375.8 377.5 375 391 398.6 404.6 412 417.8 423 429.2 436.5 444.8 453.2 459.8 466.9 478.3 487.5 495.2 501.2 506.7 514.3 515.4 522.2 526.1 531.7 535.5 548.9 565.7 588.6 617 644.8 674.9 702.4 713.5 718 721 711.2 698.2 682.8 669.4 653 636 617.9 598.5 603.4
-2 -2 -2 -2 -2 -2 -2 -2 -2 -2 -2 -2 -2 -2 -2 -2 -2 -2 -2 -2 -2 -2 -2 -2 -2 -2 -2 -2 -2 -2 -2 -2 -2 -2 -2 -2 -2 -2 -2 -2 -2 3.5 11.3 24.4 36.3 36.2 26.2 -2 -2 -2 -2 -2 -2 -2 -2 -2 -2 -2 -2 -2 -2 -2 -2 -2 -2 -2 -2 -2 -2 -2 -2 -2 -2 -2 -2 -2 -2 -2 -2 -2 -2 -2 -2 -2 -2 2.3 18.5 25.5 31.5 36.1 39.5 41.3 40 40.5 41.1 40.2 42.2 45.8 53.1 55.3 63.1 68.3 81.9 86.6 92.4 103.2 111 114.9 118.3 120.5 119.6 120.5 119.5 117.7 106.8 101.2 98 99.7 104.7 114.4 123.4 127.8 129.1 124.4 118.8 115.6 108 94 93.8 94.3 95.6 111.3 125.2 136 152.3 170.4 186.3 192.7 195.9 200.1 204 213.7 234.2 257.4 284.6 306.9 320.2 325.9 331.8 342.4 345.9 349.6 353.3 352.8 354.3 356.8 377.7 386.3 394.7 401.5 410.3 417.7 425.2 430.5 437 445.9 454.7 465 475.1 485.4 497.6 508 515.6 523.1 527.3 534.3 537.9 541.9 545.5 549.8 553.7 558.7 577 598 622.8 651.3 680.8 701.1 711.7 709.4 693.7 677.7 665.8 649.6 633.4 621 602.5 581.1 557.8 564.5
-2 -2 -2 -2 -2 -2 -2 -2 -2 -2 -2 -2 -2 -2 -2 -2 -2 -2 -2 -2 -2 -2 -2 -2 -2 -2 -2 -2 -2 -2 -2 -2 -2 -2 -2 -2 -2 -2 -2 -2 -2 -2 -2 24.7 31.6 26.9 -2 -2 -2 -2 -2 -2 -2 -2 -2 -2 -2 -2 -2 -2 -2 -2 -2 -2 -2 -2 -2 -2 -2 -2 -2 -2 -2 -2 -2 -2 -2 -2 -2 -2 -2 -2 -2 -2 6.8 16.2 23.6 27.8 31.1 35.1 37.5 37.6 35.6 35.3 36.9 40 42.1 45.7 48.1 48.9 57.1 60.9 73.6 77.8 84.2 95 100.9 105.9 107.8 108.6 108.6 108 108 104.5 98.9 92.5 92.3 92.6 96.8 108 118.8 128.3 127.4 124.3 117.9 113.8 111.2 97.9 89.8 89.7 89.2 101.7 107.2 122.3 145.5 158.6 172 181.1 184.5 189.6 195.3 201.4 218.7 240.4 262.8 287.9 306.2 315.3 323.5 324.5 323 333.2 342.7 360.9 370.4 379.2 386.1 391.5 399.3 407.4 416.2 425.4 431.9 437 444.8 454.8 468.6 480.8 493.1 506.6 519.2 529.7 540.1 548.3 554.1 559.3 562.2 564.9 568.1 570.9 575.6 582.3 592.9 611.9 635.6 662.4 692.4 688.5 678.7 672.5 660 640.6 626.4 612.4 593.4 587 568.8 547.4 520 531.1
-2 -2 -2 -2 -2 -2 -2 -2 -2 -2 -2 -2 -2 -2 -2 -2 -2 -2 -2 -2 -2 -2 -2 -2 -2 -2 -2 -2 -2 -2 -2 -2 -2 -2 -2 -2 -2 -2 -2 -2 -2 -2 -2 -2 12.2 9.8 -2 -2 -2 -2 -2 -2 -2 -2 -2 -2 -2 -2 -2 -2 -2 -2 -2 -2 -2 -2 -2 -2 -2 -2 -2 -2 -2 -2 -2 -2 -2 -2 -2 -2 -2 -2 -2 -2 15.3 22.1 25.6 29.5 31 33.7 34.9 34.1 33.8 32.7 33.1 36 39.8 42 43.3 45.3 45.9 51.8 64.2 71.7 74.9 83.4 94.2 97.6 97.9 97.6 98 98.4 95 94.1 90.8 86.2 85.7 86 89.8 104.8 113.6 119.3 119.3 117.4 117.1 113.2 106.9 100.5 84.7 85.1 84.7 85.2 96.4 113.3 133.3 150.4 162.3 167.5 171.7 178.7 184.9 188.7 206.4 227.8 245.4 264.4 269.9 280.2 289.7 285.3 298.2 320.3 342.2 368 376.9 383.8 391.4 398.7 405.6 412.3 423.4 432.1 438.5 447.5 457.9 470 480.8 496.8 511.9 526.7 541.3 555.3 566.6 575.6 582 586.7 590 590.9 593.4 597 599.8 605.2 615 630.7 652.2 676.4 681.9 655.7 642 632.3 624.4 597.6 568.5 578.1 549.5 549.9 532.1 509.9 487.6 487.9
-2 -2 -2 -2 -2 -2 -2 -2 -2 -2 -2 -2 -2 -2 -2 -2 -2 -2 -2 -2 -2 -2 -2 -2 -2 -2 -2 -2 -2 -2 -2 -2 -2 -2 -2 -2 -2 -2 -2 -2 -2 -2 -2 -2 -2 -2 -2 -2 -2 -2 -2 -2 -2 -2 -2 -2 -2 -2 -2 -2 -2 -2 -2 -2 -2 -2 -2 -2 -2 -2 -2 -2 -2 -2 -2 -2 -2 -2 -2 -2 -2 -2 -2 -2 14.7 26.5 26.7 28.3 30.8 32.7 31.8 29.3 29.5 29.8 30.7 30.8 34.1 37.7 38.4 39.1 40.3 42.5 50.6 61.8 64.5 70.5 79.6 87.5 89.6 87.8 85.6 85.6 85.7 83.8 81.2 79.3 78.3 77.9 83.2 97.1 108.8 112 110.6 108.4 111.9 109.3 99.6 95.4 85.8 81 83.5 82.6 89.5 106.3 123.6 140.7 151.5 156.1 159.1 165 171.2 178.1 189.8 217 219.3 209.7 234.9 259.7 280.8 313.2 334 352.9 367.9 375.3 381.5 389.6 397.5 404.5 410.4 420.5 432.6 440.7 447.5 459 471.3 484.3 498.3 514.4 530.3 547.2 567.1 582 594.6 603.5 611.7 617.8 619.3 620.8 622.5 625 627.6 631.9 639.4 653.6 671.9 668.8 646.9 626.9 602.4 593.1 580.9 543.6 516.3 518.8 513 500.8 480.8 465.7 439.2 438.8
-2 -2 -2 -2 -2 -2 -2 -2 -2 -2 -2 -2 -2 -2 -2 -2 -2 -2 -2 -2 -2 -2 -2 -2 -2 -2 -2 -2 -2 -2 -2 -2 -2 -2 -2 -2 -2 -2 -2 -2 -2 -2 -2 -2 -2 -2 -2 -2 -2 -2 -2 -2 -2 -2 -2 -2 -2 -2 -2 -2 -2 -2 -2 -2 -2 -2 -2 -2 -2 -2 -2 -2 -2 -2 -2 -2 -2 -2 -2 -2 -2 -2 -2 -2 -2 26.2 24.9 27 29 31.8 28.8 26.1 25.6 26.2 28.7 28.1 28.3 31.6 34.1 32.4 32.2 36 39.8 46.9 49.5 55.6 61.4 68.8 75.8 79.1 79.5 79.3 77.4 75 75.1 74.4 72.8 71.3 75.6 88.4 99.5 104 99.9 102.7 102 99.7 91.8 85.8 80.8 77.3 80.7 80.8 84.2 99.7 117.4 134.5 142.9 147.1 151.3 156.2 161.4 163.7 167 194 215.2 232.3 254.9 282.7 309 334.5 352.1 364.2 374.2 381.1 387.3 392 400.5 409.1 417.2 430.3 441.4 450 461.2 473.9 485.8 500.3 518.1 536.1 551 570.4 589 610.7 623.7 634 642.7 649.3 653 654.3 654.4 656.5 658.9 664.7 668.6 679.6 662.4 634.9 613.6 591.9 564.1 551.6 533.1 495.3 473.7 469 458.2 448.8 432 417.7 402.7 390.2
-2 -2 -2 -2 -2 -2 -2 -2 -2 -2 -2 -2 -2 -2 -2 -2 -2 -2 -2 -2 -2 -2 -2 -2 -2 -2 -2 -2 -2 -2 -2 -2 -2 -2 -2 -2 -2 -2 -2 -2 -2 -2 -2 -2 -2 -2 -2 -2 -2 -2 -2 -2 -2 -2 -2 -2 -2 -2 -2 -2 -2 -2 -2 -2 -2 -2 -2 -2 -2 -2 -2 -2 -2 -2 -2 -2 -2 -2 -2 -2 -2 -2 -2 -2 -2 -2 21 22.4 24.4 26.8 24.2 22.5 21.4 22.5 24 24.9 26 27 26.5 25.9 25.2 26 29.4 33.4 38 41.8 46.7 52.2 58.4 67.7 71.9 70.5 66.8 63.9 62.3 66.1 65.6 66.1 66.6 76.1 85.3 86 85.4 88.3 94 92.8 89.3 86 79.4 72.3 78 78.2 81.1 93.2 111.5 130.1 139.6 143.2 145.3 149.9 150.7 153.7 169.9 189.5 205.5 217.9 241.1 263.5 290.2 324.7 350.8 366.9 378.5 385.8 390.2 394.4 401.3 411.8 422.6 436.7 448.1 459.5 472.6 487 500.2 520.9 539.9 559.2 576.5 593.7 612.7 637.3 654.9 666.7 677.4 686.1 690.5 692.8 690.1 692.7 697.2 697.4 666.9 654.9 631.9 604.4 582 555.4 523.9 508.4 470.3 457.8 437.6 428 416.2 406.1 395 378.9 360.4 354.1
-2 -2 -2 -2 -2 -2 -2 -2 -2 -2 -2 -2 -2 -2 -2 -2 -2 -2 -2 -2 -2 -2 -2 -2 -2 -2 -2 -2 -2 -2 -2 -2 -2 -2 -2 -2 -2 -2 -2 -2 -2 -2 -2 -2 -2 -2 -2 -2 -2 -2 -2 -2 -2 -2 -2 -2 -2 -2 -2 -2 -2 -2 -2 -2 -2 -2 -2 -2 -2 -2 -2 -2 -2 -2 -2 -2 -2 -2 -2 -2 -2 -2 -2 -2 -2 -2 -2 6.3 17.3 20.1 19.9 19.7 16.1 15.9 16.2 21.7 23.9 22.7 21.8 20.7 18.3 19.5 21.9 24.2 29.7 36.4 40.5 46.3 52.7 59.4 63.3 62.7 60 57.5 58.8 61.2 63.7 64.7 65.5 65.9 73.4 75.2 77.5 79 81.8 85.5 89.1 90.3 84.9 73.1 77.6 77.4 78.2 87.7 102.4 122.5 132.1 137.5 143.2 144.1 141.9 147.4 159.5 178.6 191.8 210 221.7 245 274.2 306.3 345.6 367.3 379.9 387.5 391.6 395.4 401.9 414.7 427.7 443.1 456.8 469.3 483.8 499.1 520.7 543.8 564 583.8 604.2 622.9 642.4 662.8 686.2 700.6 713.4 727.5 726.6 734.3 709.4 691.9 675.2 652.6 623.3 603.3 600.4 573.4 546.4 516.1 489.1 458.1 435.8 418 404.4 391.8 380.1 369.2 359.1 343.2 341.2 335.9
-2 -2 -2 -2 -2 -2 -2 -2 -2 -2 -2 -2 -2 -2 -2 -2 -2 -2 -2 -2 -2 -2 -2 -2 -2 -2 -2 -2 -2 -2 -2 -2 -2 -2 -2 -2 -2 -2 -2 -2 -2 -2 -2 -2 -2 -2 -2 -2 -2 -2 -2 -2 -2 -2 -2 -2 -2 -2 -2 -2 -2 -2 -2 -2 -2 -2 -2 -2 -2 -2 -2 -2 -2 -2 -2 -2 -2 -2 -2 -2 -2 -2 -2 -2 -2 -2 -2 -2 -2 6.4 14.7 13.3 12.1 7.2 6.2 11.9 14.2 15.2 15.1 15.3 15.7 15.8 16 17.1 20 24.5 32.8 40.5 45.9 54.5 54.9 57.1 55.6 55.6 57.7 60.4 64 65.3 66.7 67.3 68.7 71.9 75.7 78.2 81 82.7 84.8 84.7 80 77.8 75.3 75.5 75.4 81.2 95 111 119.5 127.9 132.7 133.2 130.5 138.8 154.5 176.1 187.7 199.6 208.9 231.5 262.5 295.2 333.2 369.2 388.2 387.7 389.5 394.9 405 417.6 431.8 450.2 464.3 480.2 493.7 515.2 540.4 565.1 587.2 610.5 633.5 653.1 669.5 691.4 708.7 731.3 723.4 699 669.9 676.5 662.3 653.3 633.7 613.4 593.1 557.2 558.5 539.7 511.6 479.1 444.8 409.1 403.2 378.6 371.4 364.1 349.9 341.3 331.6 325.3 327.6 324.7
-2 -2 -2 -2 -2 -2 -2 -2 -2 -2 -2 -2 -2 -2 -2 -2 -2 -2 -2 -2 -2 -2 -2 -2 -2 -2 -2 -2 -2 -2 -2 -2 -2 -2 -2 -2 -2 -2 -2 -2 -2 -2 -2 -2 -2 -2 -2 -2 -2 -2 -2 -2 -2 -2 -2 -2 -2 -2 -2 -2 -2 -2 -2 -2 -2 -2 -2 -2 -2 -2 -2 -2 -2 -2 -2 -2 -2 -2 -2 -2 -2 -2 -2 -2 -2 -2 -2 -2 -2 1.8 12.6 8.7 4.5 1.3 0.4 3.7 5.2 1.4 4.9 10 7.4 11.7 12.8 12.4 12.4 13.6 16.8 26.7 42.8 48.7 48 49.6 50.8 55.3 57 60.9 64 70.1 71.1 70.3 70.5 72 76 78.7 82.1 78.9 82.1 82.1 77.8 70.5 74.1 74.8 74.7 75.4 87.9 103 115.6 120.2 121.6 119.6 111.7 128.3 146.3 174.3 185.9 190.4 197 220.1 256 289.3 334.2 385.3 388.6 384.3 391 397.3 403.3 415.3 432.2 453.4 469.1 488.7 509 536.3 560.8 584.5 611.1 634.6 658.5 680.1 702.7 696 696.3 708.6 693.7 656.9 636.8 626.8 627 613.6 591 580.9 557.1 528.7 507.2 485.2 459.8 426.2 409.9 373.2 355.4 346.6 336.6 337.4 332.9 324.1 316.3 317.6 314 312.7
-2 -2 -2 -2 -2 -2 -2 -2 -2 -2 -2 -2 -2 -2 -2 -2 -2 -2 -2 -2 -2 -2 -2 -2 -2 -2 -2 -2 -2 -2 -2 -2 -2 -2 -2 -2 -2 -2 -2 -2 -2 -2 -2 -2 -2 -2 -2 -2 -2 -2 -2 -2 -2 -2 -2 -2 -2 -2 -2 -2 -2 -2 -2 -2 -2 -2 -2 -2 -2 -2 -2 -2 -2 -2 -2 -2 -2 -2 -2 -2 -2 -2 -2 -2 -2 -2 -2 -2 -2 -2 -2 2.7 -2 -2 -2 -2 -2 -2 -2 -2 0.7 2.1 4.6 9.5 8.5 7.9 8.8 13 27.7 38.7 41.3 36.5 45.5 51.7 51.7 54.3 52.7 66.6 64.9 69.7 74.3 76.6 71.8 77 75.4 73.2 75.4 73.9 72.3 68.8 71.1 79.3 74.4 73.7 75.5 95.3 108.2 111.8 109.9 105.9 109.9 113.9 131.6 162.4 178.8 182.2 185.7 218.7 259.1 294.8 332.8 379.7 380.3 383.4 392.7 395.7 403.2 424.6 437.3 455.2 475.8 506.9 532.7 556.4 580.9 605.2 631.6 656 682.7 706.4 679.7 653.6 646.3 665.5 662.6 629.4 595.3 603 583.6 567.2 550.4 539 513 485.5 439.1 425 409.4 394.7 375.7 347.6 325.9 315.9 313 317.1 318.6 313.5 308.8 309.7 307.4 303.9
-2 -2 -2 -2 -2 -2 -2 -2 -2 -2 -2 -2 -2 -2 -2 -2 -2 -2 -2 -2 -2 -2 -2 -2 -2 -2 -2 -2 -2 -2 -2 -2 -2 -2 -2 -2 -2 -2 -2 -2 -2 -2 -2 -2 -2 -2 -2 -2 -2 -2 -2 -2 -2 -2 -2 -2 -2 -2 -2 -2 -2 -2 -2 -2 -2 -2 -2 -2 -2 -2 -2 -2 -2 -2 -2 -2 -2 -2 -2 -2 -2 -2 -2 -2 -2 -2 -2 -2 -2 -2 -2 -2 -2 -2 -2 -2 -2 -2 -2 -2 -2 -2 2.3 5 3.1 2 -2 -2 4.6 19 21.8 17.9 30.7 37.7 42.9 40.7 42.1 53.5 58.8 68.4 74 71.3 68.6 67.6 66.8 65.7 64 60.7 60.5 59.9 63.9 72.9 76.6 72.1 71 78.5 101.5 103 100.4 93.5 96.9 107.1 118.3 144.8 168.9 169.1 179.2 220.2 271.3 304.5 339.7 354 360.7 373.9 386.4 392.9 401.9 420.6 437.2 458.5 481.2 519.6 550.8 576.9 598.9 624.1 652.3 678.5 677.4 664.3 639.7 611.5 604.9 619.1 621.9 607.7 568.1 550.3 543 525 505.5 493.5 468.3 432 402.9 389.7 366 356.9 321.1 302.4 298.8 295.9 298.4 308.2 305 302 305.7 307.5 305.6 305
-2 -2 -2 -2 -2 -2 -2 -2 -2 -2 -2 -2 -2 -2 -2 -2 -2 -2 -2 -2 -2 -2 -2 -2 -2 -2 -2 -2 -2 -2 -2 -2 -2 -2 -2 -2 -2 -2 -2 -2 -2 -2 -2 -2 -2 -2 -2 -2 -2 -2 -2 -2 -2 -2 -2 -2 -2 -2 -2 -2 -2 -2 -2 -2 -2 -2 -2 -2 -2 -2 -2 -2 -2 -2 -2 -2 -2 -2 -2 -2 -2 -2 -2 -2 -2 -2 -2 -2 -2 -2 -2 -2 -2 -2 -2 -2 -2 -2 -2 -2 -2 -2 -2 -2 -2 -2 -2 -2 -2 -2 -2 3.5 14.5 16.2 21.8 25.5 31.3 41.9 52.8 62.9 70.3 65.2 63.9 64.7 64.2 62.3 59.5 56.5 55.2 53.5 53.3 64.7 69.3 71.6 62.8 60.9 84.6 96.4 95.8 79.3 89.1 98.9 115.2 130 148.4 154.2 174 209.2 251.9 298.1 319.5 327.5 343.7 354.6 368.2 381.5 397.1 412.7 432.5 452.9 476.6 513.1 560.6 591.8 615.1 626.5 651.2 631.8 620.9 635.5 602.3 573.7 564.8 579.6 575.2 586.3 552.1 501.7 500.3 478.1 461.5 437.9 423.3 398.6 368.8 345.9 316.9 300.5 286.1 275.2 280.8 286.6 292.1 297.5 295.5 305.9 312.1 310.1 308.8 307.5
-2 -2 -2 -2 -2 -2 -2 -2 -2 -2 -2 -2 -2 -2 -2 -2 -2 -2 -2 -2 -2 -2 -2 -2 -2 -2 -2 -2 -2 -2 -2 -2 -2 -2 -2 -2 -2 -2 -2 -2 -2 -2 -2 -2 -2 -2 -2 -2 -2 -2 -2 -2 -2 -2 -2 -2 -2 -2 -2 -2 -2 -2 -2 -2 -2 -2 -2 -2 -2 -2 -2 -2 -2 -2 -2 -2 -2 -2 -2 -2 -2 -2 -2 -2 -2 -2 -2 -2 -2 -2 -2 -2 -2 -2 -2 -2 -2 -2 -2 -2 -2 -2 -2 -2 -2 -2 -2 -2 -2 -2 -2 -2 -2 -2 -2 -2 22.2 35.2 45.5 57 60.8 60.2 59.2 57.8 60.2 60.2 57.4 54 50.5 42.2 43.6 51.8 57 57.9 53.2 49.2 61.7 77.6 78.4 66.9 85.4 89.3 109.5 124.9 134 145.1 166.2 200.6 254.4 282.2 295.3 303.2 326.3 343.5 349.2 368.9 384.4 403.1 427 444.3 465.4 493.3 522.1 559.3 572.8 584.2 604 591 583.9 592.8 575.5 538.9 518 544.2 534.7 528.5 495.5 473.3 428.7 415.6 407.6 391 379.2 360.8 332.1 303 287.1 271.4 264.8 267.8 279 285.9 286.6 291.3 302.9 308.8 308.8 307.4 310.2 308
-2 -2 -2 -2 -2 -2 -2 -2 -2 -2 -2 -2 -2 -2 -2 -2 -2 -2 -2 -2 -2 -2 -2 -2 -2 -2 -2 -2 -2 -2 -2 -2 -2 -2 -2 -2 -2 -2 -2 -2 -2 -2 -2 -2 -2 -2 -2 -2 -2 -2 -2 -2 -2 -2 -2 -2 -2 -2 -2 -2 -2 -2 -2 -2 -2 -2 -2 -2 -2 -2 -2 -2 -2 -2 -2 -2 -2 -2 -2 -2 -2 -2 -2 -2 -2 -2 -2 -2 -2 -2 -2 -2 -2 -2 -2 -2 -2 -2 -2 -2 -2 -2 -2 -2 -2 -2 -2 -2 -2 -2 -2 -2 -2 -2 -2 -2 -2 22.9 36.5 44.3 49 47.9 48.9 48.7 48.8 50.6 51.4 47.5 43.7 38.4 37.7 38.3 41.9 41.8 43.1 43.7 49.9 60.1 61.5 68.2 74.7 79.5 95.2 117.5 124.6 134.7 155.5 188.3 226.2 246.8 258.4 288.9 315.6 328.2 336.3 348.6 358.5 380.6 409.4 420.7 442.2 466.5 487.3 498.7 506.2 529.9 544.3 547.8 550 539.1 534.7 512.7 482.5 484.7 467.5 460.8 414.6 406.7 389.5 378 372.6 352.8 332 305.4 291.4 283.3 272.4 262.2 263.4 271.1 272.3 276.8 292.7 300.6 304.8 306.3 303 303.4 309.3 302.5
-2 -2 -2 -2 -2 -2 -2 -2 -2 -2 -2 -2 -2 -2 -2 -2 -2 -2 -2 -2 -2 -2 -2 -2 -2 -2 -2 -2 -2 -2 -2 -2 -2 -2 -2 -2 -2 -2 -2 -2 -2 -2 -2 -2 -2 -2 -2 -2 -2 -2 -2 -2 -2 -2 -2 -2 -2 -2 -2 -2 -2 -2 -2 -2 -2 -2 -2 -2 -2 -2 -2 -2 -2 -2 -2 -2 -2 -2 -2 -2 -2 -2 -2 -2 -2 -2 -2 -2 -2 -2 -2 -2 -2 -2 -2 -2 -2 -2 -2 -2 -2 -2 -2 -2 -2 -2 -2 -2 -2 -2 -2 -2 -2 -2 -2 -2 -2 -2 25 29.1 33.4 33.2 33.7 36.5 38.6 40.1 39.7 37.2 34.1 34.3 28.7 29.2 30 35 38.5 42.9 34.7 49.9 48.8 56.9 62.5 66.3 82.8 99.6 110.2 121.8 138 164.7 194.9 208 226.2 257.6 297.9 315.8 318.7 334.7 341.6 354.7 377.8 395.7 410.6 427.4 442.8 451.3 458.7 467.7 480.6 488.1 491.2 483.2 472.6 456.4 431.5 395.3 385.9 385.4 376.1 368.7 358.5 346.1 333.7 309.6 296.2 277.1 268.2 264 261.6 258.7 257.8 263.5 273.6 284.7 291.1 291.9 296.2 292.3 291.8 288.2 297.8 295.6
-2 -2 -2 -2 -2 -2 -2 -2 -2 -2 -2 -2 -2 -2 -2 -2 -2 -2 -2 -2 -2 -2 -2 -2 -2 -2 -2 -2 -2 -2 -2 -2 -2 -2 -2 -2 -2 -2 -2 -2 -2 -2 -2 -2 -2 -2 -2 -2 -2 -2 -2 -2 -2 -2 -2 -2 -2 -2 -2 -2 -2 -2 -2 -2 -2 -2 -2 -2 -2 -2 -2 -2 -2 -2 -2 -2 -2 -2 -2 -2 -2 -2 -2 -2 -2 -2 -2 -2 -2 -2 -2 -2 -2 -2 -2 -2 -2 -2 -2 -2 -2 -2 -2 -2 -2 -2 -2 -2 -2 -2 -2 -2 -2 -2 -2 -2 -2 -2 11.7 17.6 15.7 23.4 27 26.7 28.9 29.5 29.7 24.9 24.1 25.9 22.8 23.5 22.8 27.8 30.7 35.7 30.1 37.5 42.6 43.7 49.8 52.9 66.9 85.5 94.1 104.5 117.3 135.8 159.5 175.4 200.6 230.8 255.8 278.2 288 295.9 309.1 332.6 348.2 367.6 375.4 390.9 396.1 406.9 414.4 427.9 436.2 441.3 431.1 399.2 396.4 380 382.2 354.7 349.2 343.6 337.2 329.3 319.7 310.8 294.8 280.9 272.8 260.8 258.3 258.7 256.3 253.3 251.1 263.9 270.9 273.3 269.2 278.4 277.8 278.4 273.7 278.3 284.6 280.3
-2 -2 -2 -2 -2 -2 -2 -2 -2 -2 -2 -2 -2 -2 -2 -2 -2 -2 -2 -2 -2 -2 -2 -2 -2 -2 -2 -2 -2 -2 -2 -2 -2 -2 -2 -2 -2 -2 -2 -2 -2 -2 -2 -2 -2 -2 -2 -2 -2 -2 -2 -2 -2 -2 -2 -2 -2 -2 -2 -2 -2 -2 -2 -2 -2 -2 -2 -2 -2 -2 -2 -2 -2 -2 -2 -2 -2 -2 -2 -2 -2 -2 -2 -2 -2 -2 -2 -2 -2 -2 -2 -2 -2 -2 -2 -2 -2 -2 -2 -2 -2 -2 -2 -2 -2 -2 -2 -2 -2 -2 -2 -2 -2 -2 -2 -2 -2 -2 -2 -2 -2 7 13.2 19.4 21.1 19.9 16.8 14.1 16.2 16.4 15.3 15.6 14.8 15.7 17.9 22.9 22.8 28.8 35.5 35.6 37.6 43.1 56 64.9 72.5 86.3 98.1 107.5 125.3 154.3 182 219.2 235.9 253.1 260.3 259.4 280.3 305.8 312.6 324.3 340.5 348 357.7 372.5 378.4 383.5 378.8 377.1 371.5 363.3 360.4 345.7 330.7 321.6 313.4 304.7 301.6 292.3 287.1 284.8 273.7 264.2 261.1 257.9 254.1 251.8 247.9 240.6 256.5 253.7 243.2 245.2 256.8 257.9 255 253.6 261 267.8 273.2 271.6
-2 -2 -2 -2 -2 -2 -2 -2 -2 -2 -2 -2 -2 -2 -2 -2 -2 -2 -2 -2 -2 -2 -2 -2 -2 -2 -2 -2 -2 -2 -2 -2 -2 -2 -2 -2 -2 -2 -2 -2 -2 -2 -2 -2 -2 -2 -2 -2 -2 -2 -2 -2 -2 -2 -2 -2 -2 -2 -2 -2 -2 -2 -2 -2 -2 -2 -2 -2 -2 -2 -2 -2 -2 -2 -2 -2 -2 -2 -2 -2 -2 -2 -2 -2 -2 -2 -2 -2 -2 -2 -2 -2 -2 -2 -2 -2 -2 -2 -2 -2 -2 -2 -2 -2 -2 -2 -2 -2 -2 -2 -2 -2 -2 -2 -2 -2 -2 -2 -2 -2 -2 -2 -2 -2 -2 -2 -2 8.9 8.1 4.7 3 2.4 1.9 6.8 11.2 14 16.1 17 25.6 26.9 28.3 32.2 43.5 50.2 54.4 64.8 71.7 83.1 104.8 139.9 155.4 190.1 214.4 230 237.3 243.7 268.1 297.2 303.7 310.9 316.7 320.2 324.7 326 330.4 335.7 330.4 325.3 324.5 326.4 325.4 312.7 299.3 294.2 285 276.4 271.6 267 267.3 262.9 259.9 254.9 255.9 254.4 249.3 245.5 239.9 250.4 244.3 236.3 227.7 228 237.1 237.8 236.4 235.8 239.8 247.7 255.8 265.9
-2 -2 -2 -2 -2 -2 -2 -2 -2 -2 -2 -2 -2 -2 -2 -2 -2 -2 -2 -2 -2 -2 -2 -2 -2 -2 -2 -2 -2 -2 -2 -2 -2 -2 -2 -2 -2 -2 -2 -2 -2 -2 -2 -2 -2 -2 -2 -2 -2 -2 -2 -2 -2 -2 -2 -2 -2 -2 -2 -2 -2 -2 -2 -2 -2 -2 -2 -2 -2 -2 -2 -2 -2 -2 -2 -2 -2 -2 -2 -2 -2 -2 -2 -2 -2 -2 -2 -2 -2 -2 -2 -2 -2 -2 -2 -2 -2 -2 -2 -2 -2 -2 -2 -2 -2 -2 -2 -2 -2 -2 -2 -2 -2 -2 -2 -2 -2 -2 -2 -2 -2 -2 -2 -2 -2 -2 -2 -2 -2 -2 -2 -2 -2 -2 1.8 8.6 9.3 7.7 15.6 19.2 20.1 21.7 25.4 37.1 40.9 44.7 52.7 63 87.8 115.4 137.6 166 197.9 220.7 228.8 239.1 265.2 276.5 283.6 288.5 291.7 294 295.8 296.1 298.8 296.4 295.7 293.1 290.8 292.2 288.8 283.6 276.4 274.2 268.8 263.5 259.6 258.8 257.1 253.9 249.6 250.3 251.3 243.1 236.9 233.5 242.7 239.4 229.8 220 216.7 224.5 220.2 219.4 222.3 225.2 229.3 234.2 238.2 247.6
-2 -2 -2 -2 -2 -2 -2 -2 -2 -2 -2 -2 -2 -2 -2 -2 -2 -2 -2 -2 -2 -2 -2 -2 -2 -2 -2 -2 -2 -2 -2 -2 -2 -2 -2 -2 -2 -2 -2 -2 -2 -2 -2 -2 -2 -2 -2 -2 -2 -2 -2 -2 -2 -2 -2 -2 -2 -2 -2 -2 -2 -2 -2 -2 -2 -2 -2 -2 -2 -2 -2 -2 -2 -2 -2 -2 -2 -2 -2 -2 -2 -2 -2 -2 -2 -2 -2 -2 -2 -2 -2 -2 -2 -2 -2 -2 -2 -2 -2 -2 -2 -2 -2 -2 -2 -2 -2 -2 -2 -2 -2 -2 -2 -2 -2 -2 -2 -2 -2 -2 -2 -2 -2 -2 -2 -2 -2 -2 -2 -2 -2 -2 -2 -2 -2 -2 -2 -2 0.8 5.2 9.4 14.3 14.2 18.1 18.9 29.8 40.6 51.6 73.1 100.1 121.6 154.1 189.1 205.9 216.5 248.9 254.4 259 258 261.4 263.8 271.5 279.6 279.4 279.2 277.3 277 275 271.3 267.4 263.6 263.4 255.1 255.8 257.3 254.6 252.6 249.1 246.3 247.4 242.7 240.6 237.1 229.6 224.3 233.2 229.2 223.5 209 210.1 217.5 213.3 209.6 208.3 210.2 214.9 217.1 223.1 224.7 216.4
-2 -2 -2 -2 -2 -2 -2 -2 -2 -2 -2 -2 -2 -2 -2 -2 -2 -2 -2 -2 -2 -2 -2 -2 -2 -2 -2 -2 -2 -2 -2 -2 -2 -2 -2 -2 -2 -2 -2 -2 -2 -2 -2 -2 -2 -2 -2 -2 -2 -2 -2 -2 -2 -2 -2 -2 -2 -2 -2 -2 -2 -2 -2 -2 -2 -2 -2 -2 -2 -2 -2 -2 -2 -2 -2 -2 -2 -2 -2 -2 -2 -2 -2 -2 -2 -2 -2 -2 -2 -2 -2 -2 -2 -2 -2 -2 -2 -2 -2 -2 -2 -2 -2 -2 -2 -2 -2 -2 -2 -2 -2 -2 -2 -2 -2 -2 -2 -2 -2 -2 -2 -2 -2 -2 -2 -2 -2 -2 -2 -2 -2 -2 -2 -2 -2 -2 -2 -2 -2 -2 -2 3.4 9.1 8.7 8.5 16.7 27.1 40 59.6 87.7 111.5 136.1 164.2 189.2 198.5 228.9 242.8 248.2 250.2 254.7 255.1 264.6 264.3 268 266.8 261.5 259.2 257.2 249.8 246.9 240 235.8 235.1 235 243.3 247.5 244.4 238.8 237 234 230.7 230.7 224.5 216.2 221.1 219.8 211.8 200.3 200.5 210.3 206.5 206.3 203 198.9 201.2 201 203.2 197.9 210 225.6
-2 -2 -2 -2 -2 -2 -2 -2 -2 -2 -2 -2 -2 -2 -2 -2 -2 -2 -2 -2 -2 -2 -2 -2 -2 -2 -2 -2 -2 -2 -2 -2 -2 -2 -2 -2 -2 -2 -2 -2 -2 -2 -2 -2 -2 -2 -2 -2 -2 -2 -2 -2 -2 -2 -2 -2 -2 -2 -2 -2 -2 -2 -2 -2 -2 -2 -2 -2 -2 -2 -2 -2 -2 -2 -2 -2 -2 -2 -2 -2 -2 -2 -2 -2 -2 -2 -2 -2 -2 -2 -2 -2 -2 -2 -2 -2 -2 -2 -2 -2 -2 -2 -2 -2 -2 -2 -2 -2 -2 -2 -2 -2 -2 -2 -2 -2 -2 -2 -2 -2 -2 -2 -2 -2 -2 -2 -2 -2 -2 -2 -2 -2 -2 -2 -2 -2 -2 -2 -2 -2 -2 -2 -2 -2 -2 2.9 12.6 26.7 49 73.4 99.5 118.8 139.8 155.1 172.5 211.8 227.4 233.6 236.7 243.7 244.7 243.8 243.6 245.5 240.7 238.1 237.2 235.4 229.2 227.8 221.6 217.7 219.7 226.5 238.5 235.5 222.3 226.3 224.3 226.7 224.1 215.5 202.6 201.4 208.3 201.8 196.7 193.1 202.4 203.1 200.5 198.6 194.6 189.4 190.5 190.3 195.9 199.9 216.5 236.5
-2 -2 -2 -2 -2 -2 -2 -2 -2 -2 -2 -2 -2 -2 -2 -2 -2 -2 -2 -2 -2 -2 -2 -2 -2 -2 -2 -2 -2 -2 -2 -2 -2 -2 -2 -2 -2 -2 -2 -2 -2 -2 -2 -2 -2 -2 -2 -2 -2 -2 -2 -2 -2 -2 -2 -2 -2 -2 -2 -2 -2 -2 -2 -2 -2 -2 -2 -2 -2 -2 -2 -2 -2 -2 -2 -2 -2 -2 -2 -2 -2 -2 -2 -2 -2 -2 -2 -2 -2 -2 -2 -2 -2 -2 -2 -2 -2 -2 -2 -2 -2 -2 -2 -2 -2 -2 -2 -2 -2 -2 -2 -2 -2 -2 -2 -2 -2 -2 -2 -2 -2 -2 -2 -2 -2 -2 -2 -2 -2 -2 -2 -2 -2 -2 -2 -2 -2 -2 -2 -2 -2 -2 -2 -2 -2 -2 -2 11 26.1 48.4 78.5 98.2 114.7 131.8 152.1 182.5 199.6 211.1 212.6 221.3 223.5 222.8 224.5 223.4 221.9 217.2 218.7 212.2 203.9 205.5 201.1 195.7 197.9 223.9 225.2 220.9 217.2 220 220.4 215.5 208.2 196.9 189.7 194.6 199.1 195.5 191.3 194 199.9 196.3 195 186.7 184.9 186.4 189.5 193.8 195.4 205.5 228.9 235.3
-2 -2 -2 -2 -2 -2 -2 -2 -2 -2 -2 -2 -2 -2 -2 -2 -2 -2 -2 -2 -2 -2 -2 -2 -2 -2 -2 -2 -2 -2 -2 -2 -2 -2 -2 -2 -2 -2 -2 -2 -2 -2 -2 -2 -2 -2 -2 -2 -2 -2 -2 -2 -2 -2 -2 -2 -2 -2 -2 -2 -2 -2 -2 -2 -2 -2 -2 -2 -2 -2 -2 -2 -2 -2 -2 -2 -2 -2 -2 -2 -2 -2 -2 -2 -2 -2 -2 -2 -2 -2 -2 -2 -2 -2 -2 -2 -2 -2 -2 -2 -2 -2 -2 -2 -2 -2 -2 -2 -2 -2 -2 -2 -2 -2 -2 -2 -2 -2 -2 -2 -2 -2 -2 -2 -2 -2 -2 -2 -2 -2 -2 -2 -2 -2 -2 -2 -2 -2 -2 -2 -2 -2 -2 -2 -2 -2 -2 -2 -2 21.8 45.3 64.6 83.9 101.5 114.6 160.5 169 180 185.8 196.3 197.7 196.5 199.2 194.8 195.7 190.8 190.2 181.7 179.9 185.2 180.8 172.8 202.9 211.4 213.7 213 212.6 208.6 206.5 196.7 187.9 183.5 189.1 198.6 193.3 187.9 180.2 192.2 182.7 186.3 190.5 189.2 186.8 191.1 194 194.6 203.8 217.8 226.2 236.9
-2 -2 -2 -2 -2 -2 -2 -2 -2 -2 -2 -2 -2 -2 -2 -2 -2 -2 -2 -2 -2 -2 -2 -2 -2 -2 -2 -2 -2 -2 -2 -2 -2 -2 -2 -2 -2 -2 -2 -2 -2 -2 -2 -2 -2 -2 -2 -2 -2 -2 -2 -2 -2 -2 -2 -2 -2 -2 -2 -2 -2 -2 -2 -2 -2 -2 -2 -2 -2 -2 -2 -2 -2 -2 -2 -2 -2 -2 -2 -2 -2 -2 -2 -2 -2 -2 -2 -2 -2 -2 -2 -2 -2 -2 -2 -2 -2 -2 -2 -2 -2 -2 -2 -2 -2 -2 -2 -2 -2 -2 -2 -2 -2 -2 -2 -2 -2 -2 -2 -2 -2 -2 -2 -2 -2 -2 -2 -2 -2 -2 -2 -2 -2 -2 -2 -2 -2 -2 -2 -2 -2 -2 -2 -2 -2 -2 -2 -2 -2 -2 11.3 30.7 48.9 62.4 77.5 108.4 132.4 144 154.1 163.3 166.4 168.7 171.2 171.5 167.8 166.1 153.5 160.6 155.6 170.4 163.1 163.6 183.1 189.3 197 194 188.7 184.8 182.9 176.8 175.5 185.7 191.5 189.1 179.4 171.4 172.3 184 188.7 191.1 191.3 190.2 191.6 194.8 201.1 211.6 215.6 218.9 223.8 249.2
-2 -2 -2 -2 -2 -2 -2 -2 -2 -2 -2 -2 -2 -2 -2 -2 -2 -2 -2 -2 -2 -2 -2 -2 -2 -2 -2 -2 -2 -2 -2 -2 -2 -2 -2 -2 -2 -2 -2 -2 -2 -2 -2 -2 -2 -2 -2 -2 -2 -2 -2 -2 -2 -2 -2 -2 -2 -2 -2 -2 -2 -2 -2 -2 -2 -2 -2 -2 -2 -2 -2 -2 -2 -2 -2 -2 -2 -2 -2 -2 -2 -2 -2 -2 -2 -2 -2 -2 -2 -2 -2 -2 -2 -2 -2 -2 -2 -2 -2 -2 -2 -2 -2 -2 -2 -2 -2 -2 -2 -2 -2 -2 -2 -2 -2 -2 -2 -2 -2 -2 -2 -2 -2 -2 -2 -2 -2 -2 -2 -2 -2 -2 -2 -2 -2 -2 -2 -2 -2 -2 -2 -2 -2 -2 -2 -2 -2 -2 -2 -2 -2 -2 -2 6.6 45.7 61.7 89 107.9 117.9 132.3 135.7 135 123.9 118.6 120.3 117.7 115.2 115.5 114.9 114.8 118.7 134.3 151.6 165.8 161.8 151.7 149.3 154.8 154.8 161.2 168.3 165.4 159.4 167.2 175.7 178.4 181.8 187.5 188 194 194 197.3 201.8 204.1 211.3 213.8 217.6 223.8 236.3 250.5
-2 -2 -2 -2 -2 -2 -2 -2 -2 -2 -2 -2 -2 -2 -2 -2 -2 -2 -2 -2 -2 -2 -2 -2 -2 -2 -2 -2 -2 -2 -2 -2 -2 -2 -2 -2 -2 -2 -2 -2 -2 -2 -2 -2 -2 -2 -2 -2 -2 -2 -2 -2 -2 -2 -2 -2 -2 -2 -2 -2 -2 -2 -2 -2 -2 -2 -2 -2 -2 -2 -2 -2 -2 -2 -2 -2 -2 -2 -2 -2 -2 -2 -2 -2 -2 -2 -2 -2 -2 -2 -2 -2 -2 -2 -2 -2 -2 -2 -2 -2 -2 -2 -2 -2 -2 -2 -2 -2 -2 -2 -2 -2 -2 -2 -2 -2 -2 -2 -2 -2 -2 -2 -2 -2 -2 -2 -2 -2 -2 -2 -2 -2 -2 -2 -2 -2 -2 -2 -2 -2 -2 -2 -2 -2 -2 -2 -2 -2 -2 -2 -2 -2 -2 -2 -2 41.5 51 63.3 74.9 94 93.5 82 80.1 80.7 82.1 86.1 93.6 90.6 87.5 96.3 103.7 110.2 116 123.2 136.2 146.1 151.4 150.5 152 158 166.1 172.2 172.9 179.6 181.6 184.1 184.7 185.9 187.5 193.7 201.1 202.7 208.4 213.4 214.7 220.7 230.2 239 249.6 259.8
-2 -2 -2 -2 -2 -2 -2 -2 -2 -2 -2 -2 -2 -2 -2 -2 -2 -2 -2 -2 -2 -2 -2 -2 -2 -2 -2 -2 -2 -2 -2 -2 -2 -2 -2 -2 -2 -2 -2 -2 -2 -2 -2 -2 -2 -2 -2 -2 -2 -2 -2 -2 -2 -2 -2 -2 -2 -2 -2 -2 -2 -2 -2 -2 -2 -2 -2 -2 -2 -2 -2 -2 -2 -2 -2 -2 -2 -2 -2 -2 -2 -2 -2 -2 -2 -2 -2 -2 -2 -2 -2 -2 -2 -2 -2 -2 -2 -2 -2 -2 -2 -2 -2 -2 -2 -2 -2 -2 -2 -2 -2 -2 -2 -2 -2 -2 -2 -2 -2 -2 -2 -2 -2 -2 -2 -2 -2 -2 -2 -2 -2 -2 -2 -2 -2 -2 -2 -2 -2 -2 -2 -2 -2 -2 -2 -2 -2 -2 -2 -2 -2 -2 -2 -2 -2 -2 -2 30.4 32.8 38.7 42.9 39.2 43.1 49.9 55.3 68.7 65.5 80.8 89.3 102.4 115.9 118.5 124.2 140.4 148.9 152.9 169.6 169.1 169.5 171.9 179.6 181.4 181.7 182.2 183.2 183.7 184.8 184.5 187.5 200.7 206 207.8 215.4 217.6 228.6 237.1 243.2 250.4 259.3 282
-2 -2 -2 -2 -2 -2 -2 -2 -2 -2 -2 -2 -2 -2 -2 -2 -2 -2 -2 -2 -2 -2 -2 -2 -2 -2 -2 -2 -2 -2 -2 -2 -2 -2 -2 -2 -2 -2 -2 -2 -2 -2 -2 -2 -2 -2 -2 -2 -2 -2 -2 -2 -2 -2 -2 -2 -2 -2 -2 -2 -2 -2 -2 -2 -2 -2 -2 -2 -2 -2 -2 -2 -2 -2 -2 -2 -2 -2 -2 -2 -2 -2 -2 -2 -2 -2 -2 -2 -2 -2 -2 -2 -2 -2 -2 -2 -2 -2 -2 -2 -2 -2 -2 -2 -2 -2 -2 -2 -2 -2 -2 -2 -2 -2 -2 -2 -2 -2 -2 -2 -2 -2 -2 -2 -2 -2 -2 -2 -2 -2 -2 -2 -2 -2 -2 -2 -2 -2 -2 -2 -2 -2 -2 -2 -2 -2 -2 -2 -2 -2 -2 -2 -2 -2 -2 -2 -2 -2 -2 -2 -2 -2 8.1 17.2 46.5 64 74.7 96.6 119.3 127.1 133.9 132.5 143.1 150.4 157.7 174.5 179.3 187.4 186.5 182 188 187.3 185.9 186.9 186.5 184.4 184.2 188.1 194 204.9 212.5 216.2 222.9 231.2 240.2 248.5 253.3 263.8 287.3 298.2
-2 -2 -2 -2 -2 -2 -2 -2 -2 -2 -2 -2 -2 -2 -2 -2 -2 -2 -2 -2 -2 -2 -2 -2 -2 -2 -2 -2 -2 -2 -2 -2 -2 -2 -2 -2 -2 -2 -2 -2 -2 -2 -2 -2 -2 -2 -2 -2 -2 -2 -2 -2 -2 -2 -2 -2 -2 -2 -2 -2 -2 -2 -2 -2 -2 -2 -2 -2 -2 -2 -2 -2 -2 -2 -2 -2 -2 -2 -2 -2 -2 -2 -2 -2 -2 -2 -2 -2 -2 -2 -2 -2 -2 -2 -2 -2 -2 -2 -2 -2 -2 -2 -2 -2 -2 -2 -2 -2 -2 -2 -2 -2 -2 -2 -2 -2 -2 -2 -2 -2 -2 -2 -2 -2 -2 -2 -2 -2 -2 -2 -2 -2 -2 -2 -2 -2 -2 -2 -2 -2 -2 -2 -2 -2 -2 -2 -2 -2 -2 -2 -2 -2 -2 -2 -2 -2 -2 -2 -2 -2 -2 -2 -2 27.6 49.7 64.6 80.7 119.4 133 139 144.6 136 155.4 164.7 177.7 193.2 195 193.6 188.2 183.3 191 195.5 193 192.7 189.6 190.1 192.2 195.5 198.5 212.6 216.5 219.6 233.7 246 254.5 259.9 263 286.5 299.1 302.5
-2 -2 -2 -2 -2 -2 -2 -2 -2 -2 -2 -2 -2 -2 -2 -2 -2 -2 -2 -2 -2 -2 -2 -2 -2 -2 -2 -2 -2 -2 -2 -2 -2 -2 -2 -2 -2 -2 -2 -2 -2 -2 -2 -2 -2 -2 -2 -2 -2 -2 -2 -2 -2 -2 -2 -2 -2 -2 -2 -2 -2 -2 -2 -2 -2 -2 -2 -2 -2 -2 -2 -2 -2 -2 -2 -2 -2 -2 -2 -2 -2 -2 -2 -2 -2 -2 -2 -2 -2 -2 -2 -2 -2 -2 -2 -2 -2 -2 -2 -2 -2 -2 -2 -2 -2 -2 -2 -2 -2 -2 -2 -2 -2 -2 -2 -2 -2 -2 -2 -2 -2 -2 -2 -2 -2 -2 -2 -2 -2 -2 -2 -2 -2 -2 -2 -2 -2 -2 -2 -2 -2 -2 -2 -2 -2 -2 -2 -2 -2 -2 -2 -2 -2 -2 -2 -2 -2 -2 -2 -2 -2 -2 -2 22.5 49.7 69.2 107.5 130.2 137.6 132.7 147.4 146.9 162.8 175 195.3 198.7 198.3 194.2 191.2 192.4 203.8 202.4 200.2 198.2 194.5 194.4 198 201.2 209.3 214.5 224.7 234.7 246.1 259.9 264.7 266.3 276 298 304.6 315.7
-2 -2 -2 -2 -2 -2 -2 -2 -2 -2 -2 -2 -2 -2 -2 -2 -2 -2 -2 -2 -2 -2 -2 -2 -2 -2 -2 -2 -2 -2 -2 -2 -2 -2 -2 -2 -2 -2 -2 -2 -2 -2 -2 -2 -2 -2 -2 -2 -2 -2 -2 -2 -2 -2 -2 -2 -2 -2 -2 -2 -2 -2 -2 -2 -2 -2 -2 -2 -2 -2 -2 -2 -2 -2 -2 -2 -2 -2 -2 -2 -2 -2 -2 -2 -2 -2 -2 -2 -2 -2 -2 -2 -2 -2 -2 -2 -2 -2 -2 -2 -2 -2 -2 -2 -2 -2 -2 -2 -2 -2 -2 -2 -2 -2 -2 -2 -2 -2 -2 -2 -2 -2 -2 -2 -2 -2 -2 -2 -2 -2 -2 -2 -2 -2 -2 -2 -2 -2 -2 -2 -2 -2 -2 -2 -2 -2 -2 -2 -2 -2 -2 -2 -2 -2 -2 -2 -2 -2 -2 -2 -2 -2 -2 5.3 35.8 52.3 74.6 101 129.2 137.9 153.6 163.5 181.2 191.8 206.9 205.3 203.5 199.5 194.8 192.4 209.4 205.7 204.9 203.4 202.2 204.9 207.3 211.4 218.1 224.7 236.4 248.9 260.4 269 272.9 278.6 291 298 303.8 305.7
