ncols 200
nrows 85
xllcorner 230000
yllcorner 802300
cellsize 50
364.6 360.2 361.8 360.4 365.1 361.2 361.2 361.4 359.7 356 344.2 334.4 328.1 324.3 320.6 316.3 312.7 308.9 303.9 298.1 292.6 286.6 280.6 276.6 272.5 268.6 265.3 262.2 260.6 257.8 255.6 254.3 254 247.9 239 233.8 228.4 222.5 216.5 209.4 205.1 200.8 199.2 199.4 195.8 194.7 191.2 195.1 189.8 186.8 188.7 188 185.8 183.7 182.7 180.9 180.6 179.5 177.3 174.5 171 169.3 168.8 166.9 164.9 164.3 163.5 163 162.9 162.8 160.8 156 153.5 155.5 155.6 147.7 139.8 137.8 136.1 129.5 129.4 125.1 121.2 119.3 117.2 114.1 111.4 107.6 104.9 101.9 96.2 83 60.3 32.9 29.2 28.2 28.2 28.2 30.3 30.3 30.3 30.3 33.2 34.4 34.1 36.1 38.5 39.9 41.4 41.8 39.9 36.1 39.5 41.5 44.5 46.1 51.1 58.4 66 73.9 81.4 87.2 89.9 81.5 70.5 59.9 50.1 43.7 40.1 38.7 38.9 43.2 46.8 52.7 56.3 66 89.1 109.9 127.9 143.9 160.7 173.4 174.7 176.3 172.7 170.6 165.3 156.6 135 120.2 112.7 112.4 111.7 113.1 110.5 104.1 84 49 68.7 88.4 117.5 145.7 175.2 180.3 185.2 195.6 215.4 216.3 229 238.4 244.2 253.3 265.3 290.4 310.1 326.9 345.8 352.1 367 371.7 388.8 396.1 404.2 399.2 397.1 382.6 373.9 363.3 340.5 331.8 328.4 331.6 335.6 336.9 336.5 340.3 347.3 355.2 356.8 363.9
358.3 357.9 355.6 357.6 358.6 356.3 358.8 358 352.1 344.3 331.9 320.6 316.6 314.6 310.9 306.8 303.4 300 295.9 291.1 285.5 280 275.1 270.5 265.6 261.8 258.6 255.2 253.6 252 250.8 250.6 251.3 239.1 230.4 225.6 222.7 217.4 211.3 204.5 199 194.9 193.8 194.1 195.2 192.1 183.1 191.5 182.9 185.2 188 185.6 181.4 178.6 176.6 177.1 178.7 175.1 171.4 169.3 168.3 166.9 165.6 164.6 164.7 164.8 164.2 162.7 163 162.3 159.3 154.1 150.3 150.2 154.3 141.8 138.5 133.9 128.4 127.9 124.7 121.4 118.9 115 112.7 111.1 107.6 103 100.2 96.7 80 54.1 32.6 28.2 28.6 28.2 29.5 30.3 30.3 30.3 30.3 33.2 36.7 37.1 36.8 39.6 38.5 40.5 45.5 44.5 41.1 39.4 42.6 43.8 48.2 49.2 56.7 64.2 71.6 79.4 86 85.5 78.8 69.2 58 46.9 41.6 39.6 38.9 40 42.6 46.2 50.8 55.9 64.8 85.5 107.7 120.8 140.8 160.6 172.4 184.4 187.7 183.3 179.6 180.6 167 153.4 132.2 121.6 114.6 114.5 116.1 116.1 113.8 109.6 99.5 70 49.3 86.5 118.3 147.7 174.7 183.3 195.9 214.9 213.3 229.1 239 246.3 248.4 261.7 275.2 297 313.2 333.5 345.1 355.2 369.1 380.9 392.2 395.5 395.7 394.7 383 369.4 359.5 351.2 337.5 332.5 329.5 334.8 337.2 336.9 339.6 345.9 351.8 356.1 360.3 366.7
355.5 352.2 347.5 350 354 352.8 349.4 345 339.8 330 320.9 315.2 310.6 305.6 301.8 298.3 295.2 291.3 287.7 283.3 279.5 274.6 269.8 265.1 259.7 255.1 251.4 248 246.3 245.4 246.1 245.7 238.7 229.4 221 218 214.6 211.1 207.1 200.9 195.1 189.9 187.7 189.8 195.3 191.6 180.2 180.8 183.7 185.8 187.2 184.4 177.5 174 169.1 168.4 171.3 170.7 168.7 167.8 165.7 164.2 162.8 161.5 164.7 163.5 162.7 161.2 159.1 157.3 153.8 150.6 146.5 144.3 141.2 137.4 132.2 131.5 124.2 121.6 119.8 118.6 117.4 111.7 109.8 107.4 105.4 101 95.3 69.5 42.9 28.2 28.2 28.2 28.2 30.3 30.3 30.3 30.3 30.3 30.3 37.6 38.3 40.4 41.4 41.4 42.8 43.6 46.2 42 39.7 42.8 44.9 45.2 50.5 57.1 62.9 69.6 76.4 82.7 84.7 80.5 67.6 54.1 45.4 41.5 40 39.1 39.4 42.5 45.9 50.6 55.1 65.2 83.7 101.5 119 134.7 158.6 171.9 189.1 194.7 200 188.8 188.4 182.7 168.6 148.8 136.3 128.7 123.3 121.7 121.7 122 118.8 113.2 107.2 79.1 50.4 91.1 119.1 149.1 168.7 191.5 212.6 215.6 213.5 234.3 244.7 245.4 257.2 272.9 283 302.7 321.9 335.5 348.2 366.3 379.8 388.3 393.8 396.3 391.5 379 366.7 352.2 344.5 343.9 337.8 333.3 330.3 338.6 335.8 337.3 343 352.2 355.1 362.7 366.6 372.6
356.9 356 349.2 347.5 342.1 341.9 339.8 325.8 325.4 321.1 314 306.5 300.7 296.2 294.2 290.2 286.1 282.5 279 276.4 273.1 268.6 264.1 259 253.9 248.5 244.1 240.6 238.4 232.5 234.9 232.3 226.4 218.6 212.7 211.7 207.9 204.5 202.3 198 187.4 180.6 180.2 182.5 185.7 181.7 175.3 180.7 183 183.7 184.1 182.9 178.3 175.3 169.3 164.7 164.9 165.4 164.1 166.5 164 161.8 160.4 158.2 158.5 157.8 156.7 154.2 150.5 147.8 150.5 147.8 142.4 139.4 136.3 131 125 123.7 118.4 116.9 118.8 120.3 113.8 111 106.8 103.6 103.1 100.3 72.7 34.6 28.2 29.3 29.7 29.9 30.3 30.3 30.3 30.3 30.3 30.3 31.5 38 40.4 41.6 42.6 42.2 43.9 44.4 44 40.6 42.2 45.6 45.8 45.9 54.3 61.3 66.5 73.4 79.6 79.8 76.9 70.1 55.5 45.3 42.6 39.9 39.1 39 41.7 45.2 49.4 53.8 67.9 83.4 100 118.7 133.8 155.3 173.3 180.2 199 204.4 205.1 202.9 199.2 191.2 172.5 154.6 143.8 134.7 139 131.7 131.4 133.1 124.5 116.6 108.7 72.1 63.5 91.4 118.6 148.7 169.4 196.9 210.3 215.1 224.5 237.9 243.5 248.6 267.9 282.5 295.5 315.6 330.7 347.3 364.4 379 385.1 393.7 403.2 396.6 385.6 368.3 352.7 343.8 341.7 343.8 338.3 332.6 331.5 332.8 334.3 342.8 347.9 354 361.7 368.3 371.1 379.9
359 354.9 350 346.5 342.5 327.3 325.9 321.3 317.1 310.4 302.9 295.7 289.6 286.6 284.9 280.9 277.1 274.5 272 269.2 266.3 261.8 257 251.8 246.1 239.8 235.9 230.5 228.8 223.7 223.4 222.3 216.8 211.6 206.5 203.4 200.9 198.7 197.3 189.3 179.1 174.4 172.4 173.3 175.6 173.3 177.2 179.4 182.4 181.4 181.3 180.9 176.2 171.9 169.5 165.4 162.3 160.7 160.5 163.2 163 161.7 159.8 159.5 158.3 157 156.8 154.3 149.9 145.1 145 143.9 138.9 136.9 134.4 130 123.7 119.2 112.4 114.4 119 115 111.9 108.2 104.1 101.6 93.8 68.8 28.2 29.2 29.3 29.4 30.3 30.3 30.3 30.3 30.3 30.3 32.7 37.9 38.4 38.2 42.4 43.2 44.4 44.4 44.3 44.8 41.6 41.3 45.4 45.4 46.1 47.5 57 63.2 68.8 76.5 77.5 73.8 68.5 59.2 48.7 43.5 40.8 39 39.6 40.8 43.4 47.3 51.6 69.2 86 101.3 115.6 129.6 154.5 174.8 182.1 199.3 207.7 212.5 218.5 223.8 212.4 195.4 175.5 161.8 151.2 144.1 149.6 150.8 146.2 140.7 128.3 119.1 104.8 69.3 66.2 89.7 114.5 141.4 171.4 196.9 208.1 215.1 226 233.6 241.8 261.1 281.7 295.6 303.9 322.4 344.7 363.1 383.4 388.3 396.3 410.1 412 399.2 384.8 366.1 350.1 345 341.3 337.7 332.9 337.6 334.4 332.9 334.9 341.9 349 362.3 366.7 378.7 376.3 388.8
355.9 352.5 350.6 347.9 338.4 327.4 315.9 311.1 299 295.5 290.5 284.7 281.1 279.6 276.4 273.5 271.1 268.4 265.1 261.9 259.2 254.1 248.9 242.9 235.3 228.5 221.7 216.7 218.3 216.7 210.3 210.5 208.1 205.6 200.7 197.4 195.9 194.7 191.3 182.1 174.3 170.9 169.2 168.8 168.5 170.8 172.7 173.4 178.2 176.6 176.5 174.5 172.2 171.2 169.1 166.8 162.3 159 157.8 160 160.7 159.5 159.4 160.7 158.4 157.3 152.5 148.1 145 142.3 139.7 138.2 136.5 133.3 129.6 125.8 121.2 111 110 107.4 108.2 107.1 104.9 102.5 100.9 99.8 69 28.2 28.6 29.3 30.2 30.3 30.3 30.3 31 31.3 30.3 33 38.7 41.1 42.4 45.8 45.8 45 46 45.9 45.8 42.3 40.2 43.3 45.8 45.8 47 51.6 56.2 63.1 67.6 74.6 73.3 67.8 61.1 52.1 45.8 40.7 39 40.8 42.2 44 47.5 51.1 69.6 87.9 104 117.7 131.7 147.2 167 184.5 197.4 205.8 222.9 225.1 231.8 226.9 211.7 196 181.1 171.8 159 157.4 165.9 179.1 157.6 144.5 130.9 118.8 104 68.5 67.5 87.9 112.8 140.2 168.4 190.6 206.9 218.1 222.6 236.1 256.2 275.9 291.4 303.7 315.9 337.7 353.8 375.8 396.4 394.9 407.6 423.6 422.2 409.6 383.1 366.7 359.2 347.6 341.7 338.2 339 343.6 340.1 334.9 340.4 347.1 356.7 362.8 374.4 380.4 384.5 396.4
355.6 351.9 350.2 347.3 340.1 330.3 314.2 300 288 282.3 280.3 275.1 272 271.8 268.6 266.5 264.9 262.7 259 252.2 248.5 244.9 240 233.2 226.8 219.8 214.6 211.6 207.5 204.4 198.9 198.2 200.1 198.7 193.8 188.8 184.9 183.7 181.6 177.4 168.5 166.1 165.4 164.7 165 168.5 171.5 170.5 172.2 170.7 167.3 168.2 167.5 166.9 167.4 166.5 162.2 159.7 156.9 154.2 156 154.9 154.5 154.7 154.6 151.3 147 142.4 138.3 135.9 133.7 132.2 129.4 124.8 122.3 120.8 113.4 108.5 103.6 99.4 100.1 99.3 100.8 93.4 84.7 68.3 33.1 28.2 29.2 31.1 30.3 30.3 31.9 33.3 34.3 32.2 30.3 38.6 41.3 43.8 46 51.8 50.7 48.7 46.6 44.7 43.2 40.7 42.2 45.3 46.5 47.1 51.1 54.9 58.6 65.7 64 65.6 64.4 59.6 54.4 47.3 42.4 39.6 40.9 42.9 45 47.7 50.6 68.1 88.9 108.6 125.2 138.4 151.1 164 182.2 199.6 214.2 220.3 230.1 231.5 227.8 219.3 210.6 201.3 191.5 179.7 165.3 171.4 188.1 193.9 164.4 147.6 133.3 120.7 103.6 79.3 56.4 82.7 110.4 137.9 164.3 184.5 200.8 216.7 225.7 251.8 267.4 287.1 297.3 306.8 322.8 342.4 366.6 390.3 392.2 403.8 421.5 428 422.6 405.4 387.8 383.8 372.3 353.5 344.4 341 351.4 347 338.8 337.1 344.7 350.7 357.5 366.7 376.7 382.1 389.4 406.7
356.6 350.3 347.2 343.6 339.6 330.8 314.7 300.2 278.4 268.1 267.9 265 263 261.9 260.3 259.2 258.2 254.7 248.2 240.5 235.2 231.3 229.9 222.7 220.4 216.6 212.8 205.9 202.5 198.5 197.5 192.7 191.6 191 187.7 182.2 176 172.5 170.4 167.4 162.9 162.1 161.5 161.5 164 168.5 168.9 169.1 167.2 165.6 163.8 163.3 162.4 161 159.2 157.6 157.8 156.2 157.1 158 155.4 150.5 150.1 149.8 148 147.4 143.6 138.8 134.1 129.8 128.3 125.4 121.2 116.2 114.2 111.9 104.5 101.9 95.3 92.3 91.6 91.3 83.4 72 59.5 39.5 28.2 29.2 31.1 30.3 31.4 32.2 33.2 33.6 36.4 33.7 38.4 42.2 47.4 49.1 48.9 48.1 47.9 48.3 47.8 44.5 41.7 44.3 45.3 47.1 48.6 51 53.9 57 59.3 59.2 59 59.7 60.4 54.6 42.8 41.2 40.1 40.7 42.7 45.3 48.2 51.3 68.8 86 110.3 133.2 148.5 161.4 169.3 181.2 197.5 215.9 220.6 230.9 229.7 227.3 222.8 224.4 221.5 212.9 198.2 179.8 171.5 182.2 202.9 193.9 171.2 153.4 137.4 122.5 105.8 85 66.2 85.4 109.4 134.2 158.1 178.3 202.5 220.8 239.2 250.6 269.2 290.1 296.4 309 329.2 349.1 380.5 388.4 394.1 418.2 433.5 433 417.3 404.5 397 392.4 379.1 358.7 346.9 344.3 347.1 345 338.3 343.2 345.9 353.4 362.3 371.2 383.5 383.7 396.5 410.3
357.5 349.3 344.1 341.3 338.3 328.5 316.1 295.8 278.4 261.1 256.2 250.2 253.4 252.2 250.7 249.2 248.5 245.6 236.9 231.2 224 220.3 215.6 208.9 206.1 204.6 205.5 201.6 196.6 193.8 185.8 179.1 181.5 180.4 177.2 171.4 166.2 161.8 161.4 161.3 160 158.2 157.6 158.9 163.3 168 167.6 166 165 161.9 160 158.4 157.1 156.2 154.8 153.7 152.2 153.2 156.3 153.1 150.6 148.3 145.5 143.4 142.5 142.1 138.3 133.3 128.2 123.7 121 117.9 113.6 108.8 106.3 97 95.3 90.8 86.1 82.7 78.4 72.5 65.2 54.1 34.3 29.2 28.2 29.9 30.3 31.3 31.7 32.9 34.4 35.6 37.8 38.2 43.3 47.1 55.7 51.5 49.9 50 49.3 48.7 48.8 44 43.5 46.3 47.5 48.4 51.6 54.2 57.1 58.9 58.2 56.1 55.1 55.2 53.4 45.2 42.1 39.8 40.7 42.7 44.7 47.7 50.8 65.7 84.9 108.4 135.8 158.1 166.6 175 187.6 199.5 213.5 226.1 225.8 230.1 231.8 237.1 248.5 241.1 226.2 218.6 196.6 185.5 176.1 194.3 208.7 208.6 181.3 158.6 141.7 125.8 104.9 75.2 73.6 91.3 110.1 132 156.1 177.7 202.5 216.1 237.1 253.6 272.9 285.5 293.6 312.4 340.1 364.8 380.6 386.6 407.2 422.9 426.3 420.3 414.6 412.4 402.5 398.7 377.3 355.7 347.1 350.9 345.4 339.6 342.7 357.5 347.1 357.4 365.4 378.3 383.7 389.4 400.7 410.3
352.3 346.3 346.7 342.6 338 329.7 311.2 289.9 272.9 262.3 255.9 243.2 244.6 244.5 242.5 240.6 240.3 233.4 229.2 220.6 215.4 209.8 205.6 203.1 200.3 199.3 200.2 197.9 189.5 184.6 176.4 171.6 169.9 171.4 167.9 159.3 155.2 151.9 153.3 154.1 153.2 152.9 152.4 155.5 158.3 162.6 164.5 160.5 158.8 156.1 149.1 145.8 146.5 148.9 148.3 147.5 149.3 145.1 147.4 145 142.5 140.2 139.8 137.1 137.1 136.7 134.5 126.6 121.8 117.4 114.1 109.7 104.4 98.2 90.7 81.6 81.3 78.8 76.1 70.6 64.2 56.4 46.3 34.8 30 28.2 29.2 30.3 30.3 30.3 31.8 33.9 34.1 35.7 40.2 44.9 48.1 52.1 58.7 55.5 56.4 53 49.1 48.4 46.1 46.7 46.9 48.1 49 51.7 55.2 59 60.8 61.7 58.9 54.9 53 51 47.1 43.3 40.8 39.9 42.2 44.7 47.4 51 61 74 100.2 129.4 162.9 167.6 173.3 187 198.8 210.8 224.4 230 231.5 245.8 259.7 262.9 258.7 234.5 230.4 211.1 198 187.4 180.4 201.3 211.9 211.3 182.6 164.6 147.2 122.2 98.2 59 78.1 96 111.1 128.5 147.9 170.9 194.1 216.5 233.2 251.4 269.5 279.8 293.6 324.7 342.6 361.1 370.8 395.3 417.4 425.9 428.5 425.6 420.6 413.2 408.9 395 365.9 353.4 355.5 352.6 344.4 341.9 355.4 359.2 354.6 361.1 368.8 380.4 390 397.1 402.5 410.6
351.7 347.3 346.6 341.6 337.6 328.5 306.2 286.6 269.6 255.9 248 240.2 231.6 233.3 231.2 232.4 229.6 222.1 215 215.6 207.4 203.1 200.5 195.8 194.7 188.6 184.7 179.7 176.5 174 166.9 163.8 165.5 163.3 156.1 148.5 147.9 151.7 149.1 148.4 148.3 147.3 151.1 152.3 153.7 153.6 156.2 153.5 149.9 147.1 142.9 142.1 140.4 141.6 141.1 141.9 143.2 139.4 137.7 140.7 139 137.7 132.9 132 130.1 126.4 120.7 117.5 113.9 110.5 106.8 100.9 95.4 86.6 77.2 69.4 69.6 66.7 66 58 49.6 38.5 32.2 31.2 29.7 28.2 31.2 30.3 31.1 31.3 32.2 30.3 33.4 40.1 49.4 50.8 50.2 53.4 63.2 58.8 56.8 51.9 48.5 48.2 47 47.5 49.2 49.4 51 56.2 60.1 64.1 66.4 62.5 56.3 51.4 47.9 46.7 42.4 40.6 40.1 41.3 44.5 47.3 51 61.1 73.1 96.8 121.8 149.7 169.5 175.6 186.3 198.7 211.4 221 231.8 235.5 246.7 259.9 268.9 271.9 258.2 243.8 225.1 206 193.6 184.6 187.5 200.8 213.6 208.6 188.4 173.4 144.6 116.4 92.6 61 76.1 95.8 105.6 118 137.3 163.1 185.7 214.7 230.2 247.4 267.2 274.8 297.7 319.5 340.6 360.1 383.4 403.6 426.1 429.2 429.7 423 427.4 421.7 409.4 378.5 361.5 359 360.7 349.4 343.5 352 356.9 354 360.8 365 370.8 380.3 389.6 396.2 401.8 407.3
355.8 348.4 344 338.6 328.2 316.4 301.9 280.7 261 252.1 242.8 235.2 225.4 219.8 217.7 216.4 216.4 212.1 209.3 207.8 202 193.7 187.1 184.7 185.4 181 176.8 169.7 167.9 167.1 155.8 149.7 154.3 149.5 142.7 139.1 141.9 144.2 143.4 142.4 141.9 141 147.9 145.5 148.1 150.5 149.1 148.1 145 143.6 139.9 137.2 136.9 136.3 138.4 139.2 135.4 132 133 132.9 131.4 133.4 130.1 128.2 123.1 118.5 115.3 110.5 106.7 103.3 98 93.1 85.6 74.3 61.4 59.6 58.5 55.2 56.2 48.4 36.3 32.5 31.3 30.4 28.5 29.3 30.3 30.6 30.2 30.9 32.3 33.6 41 47 54.5 51.9 51.7 57.6 63.4 57.8 52.6 49.8 48.9 48.1 47.6 51.9 50.2 51.1 56.4 61.9 66.2 69.8 72.1 61.6 53.2 46.8 43.9 41.8 40.3 40.6 42.2 44 47.2 51 60.1 70.5 94.2 119.1 144.2 169.2 182.2 188.8 200.5 211.6 223 236.6 241.8 244.3 262.1 261.2 271.8 266.4 253.3 238.3 224.2 199.2 186.5 187.8 192.9 199.2 208.6 204.5 189.4 158.4 130.5 99.8 86 78.3 69.8 83.9 90.7 98.5 121 148.9 176.6 203.7 227 244.3 261.3 274.5 297.4 318.2 353.7 377.2 396.5 409.5 419 423.6 424.6 431.5 426.7 421.8 398 367.5 363.5 368.2 359.4 345.5 350.4 357.7 356.6 357.2 361.9 368.9 374.6 379.2 388.3 393.4 398.8 405.9
359.8 347.5 333.9 326.7 319.6 315.7 301.1 279.1 255.1 248.1 242.9 236.3 229.4 217.8 204.6 207.1 205.8 205.9 200.6 198.4 193.5 190.5 181.5 176.5 173.1 173.5 166.3 161.2 157.4 151.8 145.2 144.6 142.2 138.3 134 133 132 135.4 138.1 136.6 133.1 142.1 147.5 138.3 141.8 145.1 142.7 139.8 138.3 136.9 135.5 133.6 133.8 133.8 130.5 130.4 128.8 128.4 127.2 131.1 126.6 125 124.8 121.3 115.6 112.3 109.1 105.3 99.4 96.7 91.7 84.7 75.6 62.6 52.9 51 49.5 47.4 44.9 37.8 33.3 30.8 30.6 30.2 28.8 30.1 30.3 30.4 30.6 31.6 35.8 40.8 46.6 50.3 54.2 52.3 52.6 57.5 55.9 54.1 51.8 49.9 48.7 47.8 53.2 52.2 51.9 57.4 63.1 68 72.4 76.5 70 58.1 49.1 43 41.1 40.9 41.3 41.6 44.4 46.7 50.6 59.8 68.1 90.8 117.9 142.4 165.2 185 195.6 207.7 210.5 220.5 235.7 246 244.5 264.9 262.2 270 275.2 256.8 243.6 232.6 215.4 195 192.3 193.6 195.2 198.5 200.3 196.4 176.7 137.5 111 91.8 101.9 92 88.4 83.9 88.1 87.5 101.3 133.8 164.2 194.9 221 243.6 256.8 277 301.9 333.6 363.5 377.3 390.7 402.8 413.3 421.6 433.9 435.6 431.2 415.5 377.2 364.5 369.3 366.7 348.1 345.6 361.5 358.7 356.8 357.7 362.4 367.1 377 381.9 386.9 392.1 398.9 406.3
349 334 321.9 314.4 309 305.3 285.6 268.2 252.2 247.3 245 238.9 229.2 216 205.4 200.3 195 188.1 181.5 181.7 177 174.1 173 170.9 164.4 161.1 158 148.8 143.4 140.1 139 137.5 136.6 133.2 131.9 129.3 127.2 127.9 128.4 127.3 134.1 139.3 135.6 133.7 133.8 134.9 134.3 134.2 134 132.5 131.6 129.4 125 124.7 122.9 122.1 121.4 120.9 121.1 121.3 120.6 117.9 113.6 111 108.3 105.9 102.8 98 93.7 89.6 81.6 76.2 67.8 56.2 48.2 44.1 41.4 42.1 35.7 33 31.6 30.4 30.2 29.9 29.8 30.3 31.2 31.1 31.1 30.5 38 45 48.3 51.2 54 53.5 53.5 58.2 55.5 53.6 55.3 50 48.7 47.7 52.5 52.6 56.4 63.2 67.2 71.5 77.6 79.3 64.9 53.5 45.7 41.5 41.8 42 42.4 43.9 46.2 51.4 60.3 67.1 83.7 111.4 139 164.6 184.9 200.4 214.8 214.5 220.3 234.1 239.9 248.4 248.3 263.5 262.4 267.2 259.8 244 235.1 220.7 202.6 193.8 196.4 194.2 192.7 193.5 192.8 183.3 163.5 135.9 132.9 125.8 118 108.6 109.2 103.4 100.4 91.7 93.2 125.6 157.6 187.8 216.3 234.9 257 278.6 311.3 343 360.7 373.4 384 402.4 417.6 426.5 435.9 432.5 425.1 399.1 367.7 369.6 377.6 360.1 347.8 358.5 371 359.8 359.6 360 363.2 365.9 376.2 382.7 389.3 395.1 403.7 408
341.5 326.2 310.9 302.3 295.6 281.2 270 261.4 246.6 245.8 244.3 237.8 225.5 211.4 202.6 198.5 193 187.7 181.8 174.3 167.3 162.3 161.7 161.5 163.5 156.2 148.8 141.1 139.4 138.4 137.4 136 133.9 131.1 130.1 129.6 127.7 123.6 122.5 123.6 129.5 133 125 128.8 127.8 127.6 127.4 127.1 128.6 126.7 128 125.3 125.2 122 120.6 115.3 117 117.3 115.8 114.1 112.1 108.5 105.1 101.7 100 97.6 94.3 91 87.7 81.1 75.7 70.2 60.2 50.8 42.7 40 37.9 41.6 38.5 32.3 29.9 29.9 29.7 29.8 29.8 30.3 31.1 30.9 30.5 33.4 40.7 48.1 50.2 52.7 56 54.3 55 55.7 54.2 54.4 58.1 49.5 48.8 48.6 52.1 56.5 61.6 66.2 70.4 75.3 78.4 68.5 56.5 47.4 42.1 42.2 42.1 42.8 44.1 45.2 49.3 58.5 66.5 78 104.6 132.5 159.8 188.5 202.8 219.7 221.4 226.1 227.5 237.3 238.7 244.3 251.7 262.9 258.1 260.2 243.5 233.4 221.8 209.1 199.5 206.1 197.5 189 187.1 184.6 179.1 165.9 147.7 145.9 158.5 146.7 136.5 127.3 121.1 113.8 107.8 90.2 100 125.3 153 181.8 210.1 231.5 261 281.6 316.6 342.5 352.7 360.9 387.3 401.1 413.3 428 427.9 421.2 405.1 373.8 369.6 381.4 384.5 354 354.8 366.7 365.3 362.1 362.7 365.9 365.6 369.9 377.4 384.5 391.3 399.4 405.5 410.3
330.4 315.6 299.6 294.6 285.2 272.4 259.6 253.2 249.2 241.7 240.8 233.4 220.5 207.8 200.3 199.2 190.7 184.7 176 170.2 164.5 158.2 154.8 147.6 150.2 143.2 139.3 138 138.1 137.6 135.8 134 132.3 128.9 127.5 127.4 126 122.1 119.2 122.5 127.6 131 121.5 121.8 121.7 121.1 121.1 117.9 119 121.6 120.7 117.2 116.9 115.4 113.1 111.1 111.1 112.2 109.9 107.7 105.8 100.8 96.9 93.1 90.1 87.6 82.6 79 73.6 71 68.6 58.7 52.3 46.3 42.1 44 48.1 47.9 42.9 36.2 29.7 28.9 29.4 29.8 29.7 30.3 30.3 29.9 31.6 36.8 45.5 51.5 52.8 55.2 56.4 54.9 54.6 54.9 53.2 54.4 51.7 49.5 48.6 50.8 55.4 60.1 65.9 68.3 72.5 75.8 68.8 58.9 48.7 43.8 43 43.2 43.5 44.6 45.8 48.6 57.1 65.9 75.2 100.5 125.1 152.5 178.2 203 220.9 228.4 228 230.9 241.9 237.2 238.1 245.6 256.7 253.5 247.7 251.3 230.4 222.3 215.9 207.7 208.9 211.2 200.2 182.8 177.4 173.4 152.7 141.6 157 164.8 169.3 166.3 157.9 146.9 133.3 122.8 112.1 97 91.1 120.1 147.9 177.4 207.3 231.2 264.4 283.8 315.5 335.8 340.7 361.3 378.2 392.6 407.2 418.7 407.2 402.1 386.5 371.5 376.1 382 369.2 354.2 366.5 370.1 368.9 367.1 369.2 369.9 367.6 371.8 377.5 386.2 393.7 404.1 409 414.4
321.4 305.6 292.8 287.4 278 262.9 254.3 253.2 246.2 240 237.8 230.4 214.7 205.5 203 197.3 191.6 181.7 172.7 167.8 163.8 158.9 153.6 148.6 139.5 138.4 135.7 135.3 135.9 134.9 133.7 131.9 130.4 127.7 125.5 123.8 120.9 119.3 116.6 118.9 121.7 118.8 118.7 121.5 118 116.9 115.5 115.5 115.6 117.1 115.3 112.5 111.1 110.6 108.7 109.1 105.4 102.7 100.8 98.3 96.2 90.4 85.9 83.7 84.3 77.7 73.6 73.2 70.6 66.9 57 51.2 46.9 43.4 48.5 49.9 51.4 50.6 43.9 36 29.3 29.1 29.7 29.8 29.4 30.3 29.9 30.4 33.7 40.8 49.6 53.5 56.1 57.7 57.4 54.9 54 54.7 52.5 51.1 50 48.9 49.5 54.4 59.7 64.2 67.6 69.9 73.1 68.3 61.1 52 45.3 43.8 44.4 44.8 45.5 46.6 50.1 57.5 65.4 73.9 98.7 123 146.9 170.1 194.6 214.6 231.4 236.7 238.1 255.2 251.4 246.2 239.4 246.3 254 247.4 238.8 233.6 223.7 214.8 207.7 207 220.2 216.2 196.1 182.4 172.6 159.7 151 162.7 176.3 186.4 187.3 180.1 171.6 157.3 140.2 131.9 121.4 103.9 78.9 111.6 142.1 172.9 202.3 232.3 258.1 282.2 308.2 320.1 338.9 352.2 370.4 387.2 397 398.5 397.3 390.4 370.6 371.2 379.7 370.6 355.5 358.3 375.1 375 372.8 375 375.6 371.5 368.8 370.1 381.6 391.6 402.1 406.5 411 416.6
308.4 299.1 286.4 276.1 267.6 251.1 246.1 242.2 240.9 238.4 233.6 226.1 213.8 204.8 203.2 193.2 187.5 178.1 169.3 163.2 162.1 157.2 153.6 146.1 140.4 135.8 133.6 133.5 134.5 134.5 132.6 131.1 128 125.2 124.7 120.4 117.6 115.3 115.3 116.5 116.9 114.4 112.4 113.6 113.6 112.4 110.7 112 114.4 113.3 110.8 107.8 103.9 101.1 99.6 97.9 95.2 92.9 91.4 87.9 84.7 78.8 75.9 74.9 72.1 69.4 66.2 62.5 57.8 55.1 50.8 45.5 45.2 48.2 51 51.5 51 50.1 43.8 37.5 29.2 29.1 29.4 29.8 31.2 31.1 29.9 33.4 37.2 44.6 51.3 55.3 58.7 57.1 55.4 53.7 53.9 55.6 51.6 50.3 49.4 49.8 50.9 57.5 65.2 69.1 69.3 70.2 68 62.6 56 48.3 43.8 45 45.8 46.4 46.8 50.7 58.2 65.7 73.7 97.9 125.3 146.9 169.1 190.9 208.1 229.7 238.2 241.8 244.9 254.9 265.4 247.9 244.5 242.5 244.5 240.4 228.8 228.4 221.7 207.2 207.3 219.4 223.4 212 197.6 184 173.4 154.5 163.8 179.7 195.6 207.8 208.5 201.8 184 167.5 155.3 144.6 128.9 114.6 92.8 105 134 164.9 195.2 228 251.2 282.3 298.6 314.1 329.6 342.1 359.5 379.7 388.6 389.2 380.3 368.3 362.4 373.5 368.9 364.3 352 369 380.1 382.4 378 382.9 376.7 373.1 378.6 377.5 390.7 396.6 399.8 405.8 416.7 430.7
296.7 290.7 276.5 263.7 252.9 246.4 248.2 239.9 238.1 233.1 229.9 223.6 213.8 206.5 198.6 193.4 184.4 173.9 165.8 160.8 157.7 155.2 151.2 144.6 136.1 134.7 132.4 131.3 133.9 135.9 133.2 128.2 124.9 122.2 121.8 119.5 114.6 113.5 113.2 113.3 112.5 109.8 108.5 109.6 109.4 108.2 106.9 105.5 112.5 111.4 107.4 101.4 99.6 98.5 95.8 92.9 91.2 88.9 87.4 84.6 79.9 76 74 71.1 70.8 64.8 59.1 56.8 52.6 49.5 48.2 47.8 48.2 52 54.6 54.4 54.1 51.4 44.3 37.5 29 29.2 29.6 29.4 30.3 30.6 29.9 34.5 40.3 47.7 52.7 56.3 58.1 55 53.6 52.7 52.2 52.1 50.7 50.3 50.8 51.4 52.9 60.6 69.7 72.5 70.8 69.3 66 59.3 51.4 44.2 45.1 46 47 47.7 52.1 58.9 66.1 73.6 95.9 127.3 152.9 172.4 192.2 210.5 222.9 232.2 238.9 247.2 248.6 256.3 260.6 246.5 246.5 229 233 225.3 220.6 220.1 210.3 206.2 209.9 218.6 221.6 211.4 190.5 181.2 169.7 153.9 177.9 201.7 221.3 224.3 225.8 219.7 201.5 184.2 171.3 154.5 142.4 128.5 105.2 96.8 124.9 155.9 187.2 220.5 248.3 280.8 286.7 307 321.9 333.6 350 366 373.7 371.9 358.9 359.2 360.1 363.3 360.9 346.8 359.2 374.4 378.8 381.5 380.9 380.3 380.4 380.6 379 376.9 381.3 391.9 403.5 418.7 427.9 448.2
280.5 272.2 259.5 247.2 239.8 237.7 236.7 235 233.3 232.1 229.9 222.5 211.6 205.4 197.9 193.1 186.2 171.5 162.7 158.8 155.2 153 150.1 137.9 131.8 131 130.2 128.3 134.6 137.3 131.2 126.4 120 120.7 115.7 113.7 112.4 113.5 111.6 110.7 109.2 107 106.7 106.4 106 105 103.8 103.3 105.2 104 105.6 98.9 97.9 96.5 92.5 91.6 90.9 90.7 88.5 87.5 80.1 76.5 75.5 73.1 71.2 70.6 64.4 57.7 53.9 52.1 51.1 50.6 51.5 53.3 53.7 55.3 55.7 52.6 45.8 38.9 29.3 29.4 29.7 28.8 30.3 31.3 32.2 38.2 43.3 49.5 54.3 57.3 56.7 54.8 53.8 53.1 52.6 51.8 50.8 51.3 52 53.9 56.5 61.6 69 72.7 71.5 68.7 62 51.5 46.3 45.3 46.1 47.3 48 52.3 59.9 67 73.2 91.1 123.1 153 177.3 198.4 215.6 225.4 223.6 241.6 247.7 246.8 248.7 251.9 246.9 243.8 238.1 222 227.4 214.7 217.3 215.7 203.1 206.5 215.5 222.3 219.7 198.5 187.8 175.2 157.4 172.1 196.7 218.2 234 237.1 240.7 245.1 221.8 199.4 182 171.4 163.8 144.6 115.7 86.8 116.6 146 176.1 210 246 264.9 282 299.8 314.1 327.8 341.1 352.2 352.7 352.4 353.2 347.1 348.6 346.4 345.9 350.3 364.3 372 378 386.7 389.1 389.7 386.3 383.4 381.8 380.2 384.8 396.5 410.7 422.2 428.4 449.9
268.2 259.6 246.3 237.8 233.7 231.4 232.4 232 230.4 232.2 230.4 221.5 211.9 206.7 203 197.2 185.6 168 162.2 161.6 150.4 148.1 138.7 127.7 128.4 127.5 127.5 128.5 132.3 132.3 126 119.5 116.8 117.7 115.8 116.2 113.4 112.7 109.8 108.4 106.7 105.4 104.7 103.9 102.4 101.5 100.8 101 100.4 98.2 95 95.6 95.4 94.6 94 94.7 93.4 94.1 91.8 87.5 81.8 80.7 75.6 79.1 76.8 73.9 68.8 62.5 57.1 57.4 57.4 58.2 55.3 60.1 56.3 54.9 54.8 51.3 46.4 35.5 29.4 29.7 29.9 29.7 30.3 32.2 33.5 39.9 45.7 51.6 57 57.5 56.1 55 54.4 53.7 52.7 51.6 51 52 53.2 56.1 57.5 60.8 66.6 70.8 70.6 63.8 55.5 47.2 46.8 46.8 47.2 48 51 58.4 65.9 73.2 87.5 116.7 147.6 172.4 195.3 217.4 232.1 230.2 233.7 246.3 254.9 256.7 252.2 253.1 247.1 231.3 228.3 221.1 227.6 208.7 209.3 204.8 202.2 210.2 225.4 221.7 211.8 188.7 177.4 159.7 167.6 188.9 212.6 228.3 237.2 246.1 253.7 252 224.4 207.2 191.3 180.2 175.6 153.9 124.3 99.1 107.7 136 165 195.4 229.9 250.3 278.8 291 301.9 315.8 329.8 336.9 338.8 349.3 348.9 344.2 343.6 348 345.3 354.1 364.9 379.9 397.6 398 400.8 398.8 396 392.6 388.7 383.5 387.9 399.2 409.1 417.4 428.2 444.7
251.5 244.2 235.9 233.7 234.6 234.6 226.7 229.1 225.4 226.3 225.3 218.2 213 209.2 204.9 198.5 184.8 168.9 161.3 154.4 147.9 140.8 132.9 125.5 125.8 125.8 125.3 127.1 128.5 123.7 120.1 117.4 114.8 117.6 118.8 120.5 112.5 108.9 107.7 106.4 104.6 103.3 102.5 101.2 99.1 98.2 97.5 96.8 96.1 96.2 95.5 95.3 94.1 94.8 96.2 96.5 95.1 96.8 97.7 87.6 86.3 83.5 82.2 85.7 83.4 78.1 71.8 65.9 64.5 68.2 68.9 68.4 60.8 57.8 55.3 54.4 52.5 51.4 47.5 30 29.8 29.7 28.8 31.2 31.3 32.2 34.8 40.6 47 57 65.3 59.1 55.9 56.9 55 53.6 52.5 51.6 51.7 52.4 52.8 55.2 57.3 60.4 64.5 68.1 66 58.4 49 47.8 47.5 47.7 48.4 49.9 57 64.4 71.4 83.1 113.7 143 169.8 191.9 213.6 229.8 237.3 242.6 248.8 255.9 263.5 265.5 255.3 243 237.6 221.1 223.1 216.7 215.2 206.6 204.6 201.9 203.1 214.8 221.2 207.2 188.3 177.3 161.5 169.6 184.3 205.6 227.9 237.5 248.8 257.7 271.8 251.2 230.3 223.9 207.5 190 181.3 159.4 131.9 96.4 103.4 125.6 152.8 175.6 203 231.3 257.1 275.6 293.4 305 319.6 321.9 331 334.2 331.2 339.2 335.9 337.1 355.1 368.4 386.7 405 401.8 409.4 410.1 414 410.8 398.8 391.5 383.8 392.5 401.9 406.5 413.3 428.7 438.6
239.9 231.4 229.4 233.5 232.3 228.9 226.6 222.6 221.3 221.4 221.2 216.6 213.4 206.8 202.2 198 179.5 166.8 156.1 146.9 144.3 137.6 130.5 124.5 124 124 123.8 122.5 122.2 119.6 118.3 117.1 116.1 119.4 116.5 113.3 108.7 107 106 104.1 103.8 103.4 101.8 100.7 100.5 100 103 99.8 97.8 96.4 95.8 95 93.7 96.6 99 100.4 97.3 96.2 94.6 92.8 91.8 90 94.3 93.9 87.8 84.1 76.8 73.2 75.7 84.6 81.3 76.4 69.5 59.3 55.7 52.8 51.5 50.5 40.3 29.6 29.8 28.8 29.7 30.3 31.7 32.8 36.1 41.2 48.2 62.9 65 59.4 55.2 54.2 52.8 52.7 52.1 51.5 51.9 52.9 53.2 55.6 57.4 60.4 63.1 62.8 60 52.1 50.3 46.3 47.2 47.9 49.5 56.6 64.1 71.1 80.9 112.1 142.1 169 193.7 213.2 230.9 243.2 251.5 261.3 259.7 269.4 270 266.8 256.7 243.2 223.6 212.6 214.9 212.4 207.3 200.2 205.1 198.4 201.8 214.4 205.8 184.7 171.7 165.6 181.6 193.4 207.3 224.6 236.3 248.8 264.6 275.1 276.5 255 244.9 232.2 214 194.7 177 157.2 129.4 97.6 108.3 99.8 121.4 153.2 182.2 203.8 228.8 257 281.5 301 315.7 317.8 321.7 325.3 331.1 332.2 335.7 342 362.9 379.2 403.3 403.9 415.5 419.3 421.7 430.7 414.3 399.9 390.3 385.1 393.9 402.5 405.3 412.1 427.4 436.3
229.6 224.5 225.9 227.8 227.7 224.8 223.5 218.5 219 217.1 215 213.5 212.1 203.5 198 192.9 172.9 157.9 152.4 144.4 138.8 132.9 126.4 123.1 121.8 122.4 121.7 122.1 120.3 119.3 117.8 116.7 118.7 121.7 117.3 113.8 107 107.6 107.2 106.8 104 106 105.9 104.4 104.4 103.9 103.8 102.3 104 100.7 95.6 94.9 94.3 96.1 101.2 104 99.4 97.2 97.9 95.6 98.2 103.1 105.3 100.9 94.1 87.3 83.3 83 85 90.7 91.5 84 72.4 63.1 57.9 53.2 49.2 43.9 30.7 29.6 29.7 28.8 30.3 30.3 32.2 34.1 37 41.8 49 59.7 62.5 56 54.1 53.7 53.2 52.8 52.3 51.4 52.3 53.4 54.7 56.8 58.9 61.3 62.1 58.8 55.3 49.4 49.3 48.7 48.9 49.7 54.8 61.8 70.2 78.1 109.1 139.1 168.9 195.1 216.1 233.4 247.2 254.2 267.4 268.9 267.9 267.3 270.8 271.9 259.9 236.3 219.1 198.3 201.3 207.7 195.8 188.3 190.6 197.1 203.5 199.7 182.4 173.2 170.7 188 202 212.8 227.6 244.3 248.6 262.3 272.2 286.4 283.8 293.4 278.7 239.6 213.6 191.6 169.4 156 130.6 117.2 136.8 142.4 124 104.4 133.5 183.2 218.9 253.2 275.2 293.7 311.8 314.8 314.5 321.1 328.6 337.6 338.7 355 370.4 396 404.3 413.4 420.8 422 431.6 434 418.9 403.5 395 390.5 393.8 400.7 403.3 412.8 422.3 435.1
220.8 220.5 223 220.7 224.6 221.3 214 213.5 215.7 214 212.4 211.7 204.1 197.5 192.7 181.4 167 155 144.7 144.8 134.9 130.8 124.8 125 120.1 119.9 120.1 120.5 119.4 117.8 116.4 121.2 129.1 123.3 115.9 110.1 111.3 107.8 110.9 109.3 108.8 110.9 110.6 109 109.1 107.9 108.9 108.5 108.4 103.2 97.3 95.1 96.2 97 101.4 103.9 101.9 102 102.9 102.8 107.1 111 111.7 107.3 99.5 92.6 92.6 93.8 96.5 103.6 100.1 91 81.1 68.7 59.4 50 47.3 40.7 30.4 29.7 29.7 28.8 30.3 31.3 32.2 34.3 36.7 42.4 48.8 54.5 56.2 54.5 54.2 54.2 53.8 52.6 52.1 51.4 52.6 59.4 58.2 58.7 59 60 58.4 55.1 52.4 49.7 50.5 50.4 50.7 53.3 59 66.2 74.9 104.6 134.3 163.7 189.9 212.7 235.7 250.7 260.9 267.2 279.6 278.6 270.2 268.2 269.4 266.7 249 233.3 211.8 192.7 192.1 195.1 182.3 182.1 189.5 194.8 195.8 178.7 170.4 178.5 193.8 211 220.6 230.3 246.1 257.8 265.1 275.2 292.4 291.5 305.9 301.6 283.1 239.4 211.4 190.7 175.2 160.2 137.7 129.8 149.9 163.8 166 165.9 142.7 173.7 210.9 248 267 286.2 304 305.2 310 318.1 330.8 334.9 341.1 352.1 379.3 397.6 405.8 417.1 420.4 428.2 437.6 431 422.4 409.5 398.2 391.3 395.4 400.2 402.9 412.4 420 429.5
215.2 217.5 214.6 215.6 217.7 211 209.9 212.9 212.3 210.8 208.9 209.6 201.8 191.3 184.4 171.4 159.2 149.3 143.2 140.7 133.3 127.6 125.3 122 122.7 122.6 119.3 119.4 119 117.5 121.9 126.3 126.2 119.9 114.6 114 111.4 112.7 114.8 114.2 116.6 116.5 115.2 114.1 114.9 116.7 120.4 118.1 111.1 106 99.9 97.3 100.2 101.1 103.3 106.5 104.6 107.9 109.2 111 116.5 117.2 116.4 113.8 105.7 104.9 104.9 114 111.9 109.1 103.6 94.2 84.1 69.3 56.6 48.9 45.3 38.1 30.3 29.8 28.8 29.7 30.3 30.3 32.8 34.8 36 42.9 48.6 53.5 54.9 55.2 55.1 55.1 54.4 52.7 51.4 51.3 52.4 59.8 57.2 54.9 56.5 60.3 55.4 54.4 53.7 51.4 51.5 51.9 52.4 56.7 62 71 100.2 130.1 160.9 188.3 210.6 228.3 251.2 267.5 274.5 282.5 286.6 278.9 271.2 273.6 263.7 260.7 253.1 229.1 210.4 195.7 184.5 186.5 181 180.7 184.8 180.2 176.5 178.2 184.5 201.9 216.8 227.6 236.8 246 256.2 270.9 277.8 284.6 296.2 303.9 303.1 287.9 269.7 242.9 219.5 198.4 183.7 166.7 151.1 127.5 156.9 177.8 191.9 190.8 170.1 156.7 194.6 224.2 249 268.8 285.3 301.3 308.2 320.4 331.7 336.9 351 357.5 379 398.2 408.4 415.2 423.8 435.4 439.8 433.5 420.8 405.9 400.3 395.1 397.8 401.6 403.6 408.3 417.2 425.2
209.9 209.6 210.1 208.8 205.3 207.9 207.5 210.1 209.2 207 205.6 204.5 196.3 183.1 173.7 163.5 155 144.1 142.1 139.5 131.2 125.7 124.3 123.2 125 122.1 120 118.2 118.2 117.9 126.4 125.3 124.9 117.2 112.6 115.4 112 116.5 120.7 121.2 122.6 119.4 117.9 117.3 118.6 120.5 119.4 118.1 116.1 110.4 104.2 103.7 106.5 106.7 108.3 110.9 113.8 116.3 115.1 119.3 122.6 123.3 119.1 115.6 113.7 113.2 117.2 120 120.4 112 102.2 94.2 85.8 67 52.3 44.2 36.4 31.5 30 28.8 29.6 29.3 30.3 32.2 34.3 36.2 37.4 43.2 48.7 52.6 55.6 56.6 57.2 56.4 54.8 52.7 51.4 51.8 52.6 53.6 54 54.3 55 58.9 55.4 53.8 52.2 51.6 51.9 54 56.6 59.1 66.7 95.1 126.4 156.2 181.1 212.1 229.4 241.5 268 277.1 278.8 285.3 284.4 279 278 272.1 263.7 263.3 248.7 224.8 215.4 196.5 185 181.9 181.3 178.6 179.8 183.7 186.8 192.4 197.5 218.2 231.2 238 249.7 257.2 267.8 275 284.4 290.9 306.2 319.5 318.7 312.5 301.5 281.2 251.2 218.8 190.3 172.3 163.6 138.3 163.3 186.1 202.8 179.9 159.3 127.3 174.8 200.6 225.4 256.8 284 295.7 310.2 324.6 334.2 352.7 353.7 358.5 377.4 394.7 409.5 416.4 432.9 437.4 436.8 432.7 418.4 412.9 407.7 399.1 398 399.9 400.8 403.5 412.5 422.5
204.3 204.4 200.8 197.3 197.9 203.2 203.3 207.9 203.5 202 197.8 192.9 187.8 170.1 167.4 157.4 148.3 141 139.5 135 128.5 126.3 124 125.6 124.6 123.6 125.2 125.7 124.8 125.8 128.3 121.5 118 114 115.7 118.8 116.6 117.8 126.7 128 124.5 124.6 123.4 121.9 123.2 123.5 123.6 124.6 123.1 118.2 114.4 116.9 117 115.2 114 116.4 120.2 121.3 120.9 124.5 124.1 124.7 122.4 118.2 119.3 120.9 123.7 124.7 123 116.3 102.7 86 78 65.4 48.2 38.7 35.7 33.4 28.8 29.7 29.4 29.5 30.3 33.4 36 37.9 40.8 45.9 50.9 54 57.6 59.2 59.3 57.9 55.9 52.7 52.7 52.5 52.9 53.5 53.8 54.1 54.7 56.8 54.5 53.3 52.5 53.2 55 56.1 59.6 61.6 92.4 115.9 146.3 174.6 201.3 226 244.8 263.8 280 287.8 281.6 285.8 288.7 292.2 283 272.7 262.7 260.5 247.8 225 208.2 194.3 185.2 181.6 180.7 183.4 193.5 197.3 202.1 209.8 216.5 233 243.6 250.1 255.7 267.2 275.1 282.6 291.3 303.4 312.5 320.1 325.8 324.9 316.9 308.6 278.9 238.7 205.1 186.3 159.1 155.7 172.9 196.8 195.5 169 146 123.5 154.8 183.9 211.1 244.7 271.1 291.2 308.4 325.3 342.1 348.5 354.8 357.7 375.4 392.3 407.3 429.7 434.9 434 430.3 424.6 421.6 424 413.8 407.4 401.6 401.8 402.4 406.4 411.6 425.5
195.4 196.9 195.2 190.8 195.9 201 201.7 202.1 197.5 192.6 193.3 185.9 179 162.6 160.2 150.7 143.6 136.1 134.1 128.3 127.2 125.5 124.8 129.1 126.3 125.6 126.5 131.4 134.1 136 124.8 117 115 117 123.3 130.8 118 121.9 132.1 130.1 125 125 124.3 122.2 122.2 125 125 125.3 126.2 121.7 122.7 125.3 121.6 120.4 122.9 127.3 125.4 125.7 127.9 132.6 131.8 128.1 127.8 123.2 126.6 127.3 129.2 127.9 124.5 114.6 97.3 84.3 73.6 58 43.6 38.4 31.3 29.9 30.1 29.8 29.5 29.6 30.3 32.7 35.9 38.6 43 48.2 53.2 56.7 59.6 61.9 61.3 59.2 56.3 53.9 53.8 53.4 53.2 53.6 53.7 53.9 54.5 54.8 54.1 53.3 53.4 55.2 57.3 60.3 63.5 82.7 111.9 136.1 165.2 196.9 224.8 238.9 261.7 277.2 287.9 283.8 283.8 289 296.2 293.1 277.5 266.3 259.6 260.2 244.5 221.9 205.1 191.1 182.1 181.8 182.3 195.3 201.3 207.5 215 218.4 229.6 243.6 255.3 258.9 265.2 267.9 280.5 292.8 299.3 313.3 323.3 323.6 324.9 327.1 321.9 316.8 295.6 253.5 217.9 195.6 167 175.3 191.5 211.5 193.1 166.9 155.3 142.5 139.6 167.3 192.4 224.6 262.1 283.5 305.5 319.8 341 349.4 354.4 359.7 373.7 391.4 410.3 425.4 429.8 426.2 427.7 425.2 432.1 427.3 433 421.7 418.7 403.6 403.7 407.5 415 426.9
190.4 189.7 192.6 188.3 192.1 195.3 196.9 196.4 194.2 187.7 186.2 177.8 168.1 156.8 152.9 146.1 137.5 134.4 128.7 127.5 125.8 125.2 127.4 129.5 130.1 127.2 129 131.5 136.3 129 117.6 115.5 116.6 120.6 130.1 130.1 118.5 131.5 140.2 140.1 133.2 128.3 127.7 128.7 128.4 126.5 126.8 127 126.9 124.6 124.8 127.5 126.4 125.4 128.4 130.4 131.3 132.2 134.2 139.9 135.5 135.4 129.5 130.9 133.7 134.2 133.7 130.6 125.3 108.9 92.4 78.6 71 52.4 41.1 36.5 29.9 30.3 30.4 30.4 30.1 29.3 30.3 33.3 36.3 40.4 45.6 51.5 56.1 60 61.8 63.6 62.6 60.2 57.7 56.4 56.2 53.9 53.4 53.6 53.7 54 53.7 54.1 53.8 53.3 55.6 57 60.2 66.8 77.3 110.5 137 160.1 186 224.9 236.8 253.4 281.2 293.1 285.7 285.1 288.7 299.5 299.5 290.9 275.5 262.8 256.1 244.2 235.5 220 205 191.1 183.4 186 196.9 209.6 210.7 219.8 223.6 232 244.4 252.8 263.5 267.2 271.7 283.9 284.4 292.9 301.7 315.3 323.8 327.1 328.4 332.4 334.3 325.9 304.1 271.7 237.2 208.9 176.1 195.6 206.2 212 200.4 178.1 173.3 164.8 135.8 141.8 169.4 203.5 239.1 271.1 298.5 326.4 346.4 354.7 353.7 359.6 373.7 390.9 404.8 414.3 417.7 423.8 427.5 432.3 441 439.4 446.7 437.2 424.1 406.3 410.6 412.1 410.1 411.3
187.8 186.8 185.2 184.6 186.5 188.8 190.5 191.7 187.9 184.9 185.2 175.4 166 158.6 151 143.7 137.7 134.9 130.2 127.7 127 127.7 133.8 133.1 131.7 128.1 125.9 125.9 125.1 121.2 121.5 119.8 121.3 124.5 132.5 124.8 125.5 137 144.3 143.5 138.7 132.7 132.1 136.4 134.8 133.3 135.6 132.3 128.9 128.4 131 134.8 132.8 131.4 134.4 132.8 135.8 138.3 141.4 144.3 145 137.9 139.7 139.8 141.7 143.1 139.7 135.8 127.2 113.2 96.5 80.5 66.2 49 37.8 28.8 30.7 30.7 30.7 30.8 30.7 31.5 30.3 32.7 34.9 38.8 45.2 53.1 56.4 59.4 61.1 63.2 63.9 61.3 59.4 58.4 57 55 54 53.9 54.1 55 54.8 54.9 54 53.8 56.1 59.7 64.4 71.1 91.9 116.6 143 177.2 204.4 232.7 249.3 271.7 286.6 291.1 286.7 286.9 297.4 301.7 294 287 273.3 263.6 251.6 235.9 227.9 200.8 195.8 189.8 184.1 192.9 209.7 217.7 214.4 227 232.6 239.4 254.2 263.6 272.5 278.4 283.5 292.1 290.1 293.7 300.6 312.2 318.3 322.5 325.8 329.6 334.2 325.8 311 291.9 263 229.9 208.9 220.9 228.9 222.5 194.7 210.2 206.4 189.4 168 137.2 157.7 181.3 220.7 258.2 301.7 335.4 346.7 349.7 350.5 359.9 373 385.6 394.3 408.6 414.8 424.8 430.3 436.6 440.5 449.4 444.6 433.7 418.3 414.9 415.6 419.8 415.9 411.2
185.7 183.3 180.8 180.5 183.1 186.6 185.5 188.6 188.3 185.3 184.8 175.8 167 158.3 151.4 141.5 137.8 132.9 131.3 129.6 129.5 136.2 142 137.3 134 129.9 125.5 125.2 124.8 123.3 125.1 124.7 125.6 128.6 129.1 128 137.1 142.8 142.6 143.5 142 138.3 135.6 144.1 145.8 147.4 148.6 140.4 135.2 133.8 140.6 139.2 136.1 137.6 138.9 138.9 144.8 144.4 143.7 144.5 144.2 145.4 143.7 147.2 158.4 159.1 157 145 129.8 118.5 102.2 83.6 61.2 45.1 28.8 30.6 30.6 30.7 30.8 30.7 30.6 31.5 30.3 32.6 35.6 40.5 46.5 53.8 57.6 60.1 61.5 62.6 62.4 61.4 60.2 59.4 57.5 55.2 54.2 54.3 55 55.4 55.6 55.7 55.7 56.5 58.8 63 68.8 87.3 110.9 135.3 163.9 195.5 220.8 239.3 264.4 282 291.7 289.5 293.6 307.3 302 297.3 286.3 283.5 276.6 267.1 246.4 229 218.9 207 198.3 190.2 184.3 204.1 218.2 221.5 225.3 232.3 239.8 248.3 261.9 272.1 280.7 286.3 294.9 294.5 296 298.7 303.8 311.1 314.4 317.5 320 324.4 326 316.1 307 299.8 289.8 255.9 239.7 248.8 247.6 220.7 230.3 239.2 229.6 213.4 189.9 163.9 147.2 175.8 208.3 254.2 309.1 332.2 337.2 344.4 346.4 357.9 368.9 379.8 389.3 405.5 413.9 421.3 431.3 435.7 443.9 446.4 445.9 434.5 424.5 437.3 438.6 434.1 428 411.1
180 174.4 175.1 176.8 179.2 184.2 184.4 190.4 190.2 184.6 180.9 174.7 167.5 159.1 153 144.3 136.5 132.6 129.8 129.9 132.8 141 143.5 136.2 135 134.1 128.6 126.9 130.1 128.5 129.1 130.7 130.7 134.7 135.3 140.2 143.3 142.7 143.4 144.7 145.2 145.7 140.6 148.4 151.6 155 153.6 147.9 141.6 139.4 143.3 143.2 142.6 142.5 142.6 144.7 149.3 152.2 146.7 147 156 148.1 150.8 152 155.5 158 157.4 148 130.6 115.6 100.8 75.6 52.4 43.9 28.8 30.5 28.8 30.6 30.6 30.7 30.8 31.7 30.3 32.5 37.1 43 47.6 53.8 57.8 59.8 61.2 61.2 61.1 61.2 61.4 62 58.9 55.4 54.4 54.8 56.4 56 56.2 57.6 57.8 58.9 60.7 66.3 78.3 104.6 128.7 155.5 189 221.3 231.8 248.9 268.5 283.5 290.2 291.7 306.9 314.1 300.8 290.6 283.6 279.3 269.3 256.9 243.4 226.9 214.9 201.2 197.1 189.1 194.6 212.4 224.7 228.6 233.2 235.3 246.1 256.5 268.2 279.6 288.4 295.6 303.3 300.7 300.7 307.3 306.4 309.1 315.9 318.4 318.3 316.1 314.9 315.6 310.2 302.6 294 272.8 264.7 270.6 257.2 253.7 251.6 254.6 243 227.1 203.1 173.2 138 172.4 202.7 249.7 298.1 322.2 333.7 338.7 342.9 353.1 364.5 374.1 386.6 400.8 409.5 420.9 426.5 436.5 443.4 447.8 444.1 444 456.2 449 441.5 433.7 413.4 409.7
173.6 170.2 170 174.9 178 182.3 186.1 194.6 188.3 187.1 180.6 178.5 163 158.7 154.6 142.4 136.4 130.4 131.3 135.7 136.3 138.3 137.1 135.7 135.2 136.6 130.3 129.2 131.3 133.2 137.7 138.6 142.8 135.6 139.3 148.1 148.8 146.5 145.1 148.7 148 150 145.6 151 156 157.7 156.9 152.4 145.3 143.3 144.7 145.3 148.1 147.5 146.9 148.1 153.5 153.9 151.3 158.1 156.5 155.8 160.8 154.3 153.2 150.1 144.8 138 126.8 112.7 86.4 67.6 50.3 44.6 37.2 30 30.5 28.8 30.6 30.7 30.9 31.8 30.3 32 37.2 45.5 50.4 54.3 58 59.6 61 61.3 61.4 61.8 63.2 66.5 58.2 55.5 54.4 54.8 56.7 56.3 57.6 58.7 59.7 61.6 64.6 72.7 95.5 121.2 147.7 180.9 215.4 228.8 246.1 257.3 270.3 289.2 291.7 300.8 312.3 313.7 304.4 290.5 277.1 272.6 257 252 238.3 228.5 209.8 192 187.1 193 212.9 220.4 228 233.9 237.8 245.7 249.3 263.9 273.7 284.2 294 301.9 307 303.5 299.5 303.9 306.4 307.7 314.7 316 314.2 313.1 312.3 313.5 310.2 302.4 294.2 284.6 281.1 284.1 281 274.3 270.2 273.3 268.8 252.1 228.7 200.7 167 167.2 208.6 259.8 289.6 315.4 330.6 328.7 337.1 349.5 362.3 369 382.3 402.2 408.1 416.5 424.9 433.4 442.1 444.9 465.4 465.6 454.9 443.2 443.1 435.5 411.8 410.3
169 169.6 171.7 173.1 177.2 180.4 186.1 189.7 186.7 182.6 178.2 172.6 159 154 150.1 141.9 134.5 131.7 135.8 138.2 137.4 140.1 139.1 137.4 133.1 130.6 131 136.9 135.7 137.5 141 140.8 143.5 137.2 149.1 154.9 150.6 147.1 144.7 147.3 147.7 151.4 149.1 153.2 158.8 159.3 157.6 155.6 148.2 146.8 147.8 156.4 155.2 154.3 151.6 154.8 157.5 161.4 165.8 162.6 160.3 161.7 165.7 156.7 151.4 145.9 139.1 133.5 120.8 106 81.1 66.7 50.8 44.1 37.8 28.9 30.5 28.8 30.6 30.7 30.9 31.9 30.3 31.8 37.1 46.6 52.6 55.7 58.5 60 61.3 61.5 61.8 62.2 67.8 60.4 56.9 55.5 54.8 55.3 56.4 57.5 58.5 59.6 61 64.5 69.5 86.5 111 140.1 173.1 204.9 228 244.6 261.6 268.8 276.9 295.1 301.7 310.3 313.5 308.4 297.5 282.5 268.8 263.9 255.1 243.3 238.2 222.5 203.1 191.1 199.7 212.5 219 223.5 233.2 239.4 245.5 255 260.1 270.9 276.6 289.7 298.9 305 308.8 303.4 300 301.9 304.7 306.9 310 311.7 312.4 312.4 310.1 307.7 307.3 305.8 300.5 287.9 293 298.2 296.2 292.2 286.5 290.6 286.1 276.2 264.5 230 188.6 142.8 208.7 257.1 282.3 309.5 315 319 331.5 344.2 355.3 364.5 383.1 400.6 408.9 418.5 429 446.8 456.4 464.3 461.6 456.9 444.5 435.1 433.3 413.7 410.7 410.3
167.1 169.5 171.5 172.6 176.7 177.1 184.9 182.9 181 174 172.4 160.6 153.8 149.6 145.4 143.8 137.9 133.2 137.6 138.3 137.9 138.3 141.4 134.2 131.9 131.6 135.3 142.1 141.3 140.4 141.6 143.7 145.8 143.5 157.2 157 150 146.6 145.8 145.5 147.9 151.2 154.1 156.3 158.6 162.5 159.8 163.7 154.8 153.3 159.5 166.3 160.9 163.9 165.4 164.6 164.3 168.8 169.4 165.9 168.2 167.3 165.6 158.9 151.2 140.5 136.3 131.9 122.7 106.2 85 70.7 52.4 45.9 41 34.2 31.1 31 28.8 30.7 30.9 32 30.3 31.5 36.8 47.9 54.2 56.3 59.1 60.7 61.5 62.1 62.3 64.1 66.8 58.8 57.1 55.9 55.1 55.9 56.3 58.4 60.1 62.1 63.9 67.6 81.4 104.6 129.4 163.2 190.9 219.4 241.9 259.5 276.5 278.7 291.1 303.8 312.8 312.1 307.7 299.4 287.9 266.4 258.2 256.9 248 242.4 234.6 214.5 193.2 196.2 210.5 220.2 222.8 227.3 238 247.1 254.2 262.7 272 276.7 286.2 293.2 301.1 307.1 311 303.9 301.3 302.6 305.3 307.1 309.1 311.3 312.1 311.7 310.3 310.4 311.2 310.1 301.6 301.3 306 309 308.6 305.8 299.6 302 293.6 283.1 267.9 241.3 201.1 157.6 199 241.9 279.7 294.2 298 309.7 323.9 337.9 349.1 358.8 379.9 395.2 409 425.3 434.6 445.5 453.5 455.2 447.9 442.4 426.5 423 414.6 408.8 409.8 409.9
165.1 169.8 169.8 172.5 175.1 175.9 181.9 179.6 173.9 171.3 163.6 158.1 148.6 146.6 146.8 145.9 138.1 136.3 138.2 140 138.5 137.3 135.8 134.1 133.7 136.5 141.1 140.5 143.8 140.2 142.7 148.5 144.7 152 155.8 151 147.5 145.8 147.3 147.1 152.3 156 159 160.3 161 163.8 165.2 164.2 160.5 160 169 172.6 172 173.1 176 171.9 167.1 169.4 170.7 172.7 173.5 168.8 163.5 158.4 149.9 141.8 138.8 135.9 124.6 107.1 89.6 69.7 56.7 47.5 42.5 37.7 33.6 33 30.6 31 31.1 31.8 30.3 31.7 36.2 48.4 55.6 56.8 60.1 61.4 61.8 62.7 63.2 67.1 63.3 58.7 57 56.1 56.1 56.9 57.6 59.8 61.5 62.9 67.1 74.3 96.5 119.9 149.8 180.3 208.7 234.1 251.1 271.5 287.1 291.8 296.7 306.8 314.4 314.6 294.8 288.1 278.9 262.4 247.3 243.9 240.7 237.7 224.1 207.7 192.7 205 218.4 223.1 226.6 232.7 242.5 252.6 260 272.1 277.9 282.6 297.9 296.8 300.4 308.2 310.1 306.1 303.9 302.8 308.3 309.3 311.5 312.3 312.8 312.6 313.2 312.8 313.6 308.7 307.5 310.8 315.4 316.9 316.8 314.8 311.3 313.1 305.1 293.4 275.3 251 208.4 164.8 190.9 229.9 265.7 278.4 286.7 299.6 315.1 331.6 342.5 354.8 379.1 390.4 407.1 420.5 428.2 437.3 438.7 435.4 434.6 422.2 412.1 412.8 409.8 407.4 408.8 409.8
163.7 166.8 167.8 170.5 171.3 175.3 173.7 174.1 170.4 169.8 163.1 155.7 149.5 147.2 149.6 141.3 136.9 138.5 142.6 145.4 140.2 138.8 135.7 134 137.1 144.9 145.5 143.4 145.6 144.1 148.3 153.4 147.5 153.4 155.9 152 148.8 148.4 150.4 151.6 158.2 163.1 164 163.5 166.1 166.9 165.6 167 164.5 167.9 175.9 178.7 179.3 179.1 184.5 178.6 168.8 173.8 174.9 179.2 179.2 170.2 162.6 156.3 151.9 149.3 146.7 136.5 129.4 109.8 91.8 69.5 55.7 49.3 43.4 40 36.9 34 31.3 29.6 31.1 31.8 30.3 32 37.3 49.7 56.5 57 59.6 61.3 62.1 63.5 69 70.6 61.1 58.2 57.1 56.6 58.9 58.1 56.9 60.6 63.2 65.4 71.5 90.6 113.7 138.8 165.7 196.1 223.2 244.6 259.3 284.5 295 294.5 296.9 308.9 312.3 306 291.5 284.1 265.9 255.4 234.2 236.8 237.1 228.3 213 195.3 193.9 215.7 223.6 226.7 232.2 239.4 251.2 259.6 267.1 275.7 280 291.1 301.6 299.5 304.4 310.1 311.4 309.3 306 304.1 308 310.7 314.5 315.2 315.1 314.9 315.1 314.4 312.6 313.4 317.6 316.6 319.4 321.1 321 321.6 323.3 320.2 317.2 304.6 287.1 267.8 235.6 200.7 178.3 210.9 240.2 251.9 272 291 308 323.4 337.6 358.4 380.1 392.3 406 412 413.9 419.3 420.4 415.2 411.3 403.4 402 402.2 403.6 406.5 410 409.8
161.3 163.2 166.1 167.7 168.7 169.4 169.6 169.7 169.8 163.2 156.7 149.2 150.1 145.3 143.9 137 140 141.9 143.6 148.6 142.9 139.6 138.4 138.2 144.4 149.7 148 146 147.5 146.5 154.9 152.3 151 156.7 161.3 155.8 152.1 154.6 155.1 154.1 161.5 169 166 166.1 168.1 165.8 165 165.4 169.4 173 178.2 180 181.6 182.8 188.4 173.1 172.3 175.9 179.5 180.2 180.1 174 162.1 158.3 154.5 155.4 151.7 139.7 126.1 112.3 89.5 70.7 53.6 50.4 45.5 41.1 38.8 35 31.3 31.1 31.1 32.1 30.3 32.3 38.3 48.4 56.5 57.5 58.5 60.1 62 64.5 69.1 71.4 59.2 57.8 57.8 59.1 60.1 59.4 60 62.5 65.3 68.1 81.9 103.9 131.2 153.5 182.4 212.1 236.4 248.7 270.8 291.1 293.4 295.7 302 309 305 300.8 294.4 274.8 260.4 242.3 226.3 232.1 225.9 217 195.7 196.9 208 225.4 226.4 230.7 238.9 249.7 260.9 267.1 274.9 280.6 286.7 295.1 301.4 302.5 305.3 313.6 312.7 310.6 307.1 305 307.8 318.8 318.9 319.9 318.5 317.6 318 316 316.5 324.4 322.7 324.9 330.2 330.7 325.8 330.3 331.3 331.2 321.9 314.3 296.6 273.7 252.6 225.5 186 189.5 215.5 223 253.8 275.9 299.4 320.1 347.3 377.4 398.3 416 415.1 410.8 411.5 415.8 413 403.2 396.5 396 396.3 395.9 399 406.6 407.2 408.7
157.6 161.8 166.5 166.8 167 164.8 168 168.5 169.4 162.8 149.3 143.9 148.3 142.4 137.3 137.9 140.7 142.7 147.5 148.2 146.3 142.5 141.3 145.6 148.6 150 147.4 150.6 149.4 153.5 155.5 155.2 162.5 163.8 161.3 161.1 155.8 157.7 160.1 159.8 166 174.1 168 167.3 168.2 165.8 164.9 169.2 171.6 172.8 178 180.5 181.5 184.4 191.4 179.3 176.8 179.6 183.4 179.2 177.2 172.2 161.5 159.6 157.2 156.1 153.4 146.3 127.6 115.6 90.7 70.8 56.8 50.6 45.7 41.1 38.7 36.1 31.2 31 29.6 32 30.3 32.8 38.2 47.2 56.8 58.2 58.6 60.9 65.8 68.6 71.5 64.4 57.9 57.8 60 59.8 59.7 59.9 62.1 64.9 69.4 73.7 94.6 118.3 143.1 169.4 200.5 228.3 247.2 267.1 289.7 291.6 291.8 298.2 299.4 299.8 297 297.8 286.8 262.7 249.5 231.4 220.8 218.5 211.4 197.1 198.6 202.1 214 224.4 228.4 237.7 246.2 258.6 265 269.5 282.9 290.9 297.5 300.7 304.9 304.7 308.7 318.5 321.9 315 310 307.3 312.4 321.6 327.2 327.9 326 324.8 327.2 320.8 322.2 327.7 326.9 333.4 335.8 339.1 333.7 336.4 338 339.8 327.1 318.7 304.4 290.3 260.3 231.8 197.5 166.6 184.1 207.1 237.4 266.7 295.3 330 369 386.2 400.1 404.8 403.9 405 410.5 414.5 413.2 402.2 396.3 396.3 396.3 395.7 398.9 404.4 406.2 409.4
153.9 157.7 158.8 165.5 163.6 163.2 163.4 166.2 168.9 162 147.8 142.1 142 138.9 137.8 138.7 140.7 143.5 147 148.6 150.3 147 141.5 150 151 152.8 150.7 150.9 155 155.8 155.9 161.9 164.4 165.2 164.1 165.9 161.5 160.6 157.8 162.3 171.4 174.3 171.3 168.7 168.5 166.2 167.1 173.4 177.5 176.3 180 182.6 183.5 186.4 189.2 181.8 181.9 182.7 182.5 178.5 176 169.8 160.5 159.8 158 157.3 156.4 149.9 135 121.4 92.1 78.4 65.4 54.6 46.7 40.5 39 39 31.4 30.9 29.9 31.7 30.3 33.2 37.3 46 56.6 57.7 58.6 62 67.7 70.9 76.2 62.5 58.2 60.6 64.8 62.7 60.8 61.6 64.3 67.9 73.2 85.1 109.1 133.8 157.7 188.8 220.1 249.2 263.9 279.2 288.5 290.4 298.5 296.2 293.9 293.3 293.8 295.4 279.1 253.2 239.8 226.8 217.1 209.6 198.8 204.3 202.4 211.6 220.1 224.6 232.5 243.3 251.5 264 267.8 279 287 297.7 304 305.7 307.6 307.7 313.4 323.8 327.2 315.9 310.5 311.4 319 331.5 335.4 332.6 329.8 335 327.2 325.7 327.8 329.9 335.3 340.5 345.9 346.1 344.4 348.7 345.6 340.4 329.6 321.5 312.3 294.2 270.8 244 212 170.1 180.1 206.1 234.7 266.7 297 343.4 368.9 387.2 393.8 398.1 396 399.3 410.7 414.4 408.1 399.9 395.9 396.3 396.3 399.2 407.1 408.9 407.1 416.6
152.1 154.3 157.3 158.8 160.5 161.5 161.5 163.5 163.8 152.4 147.7 142.7 141.9 142.1 139.6 138.9 138.1 143 147.5 149.4 148 145.2 140.8 153.7 156.9 156.2 154.9 156.7 158.8 160.2 158.8 173.8 173.3 166.6 168.8 168.5 165.1 159.1 157.9 161.6 167.2 172.9 175.3 172.3 169.8 166.4 171.1 177.2 180.6 180.2 180.1 183.9 184.3 187.1 190.9 185.4 190 185.9 183.2 179.9 176 165.1 159.9 159.2 159.1 158.5 157.6 142.5 130.2 112.5 102.4 91.9 74 56.8 46.5 40.1 39.1 37 31.3 30.9 29.6 29.6 30.3 32.9 38.2 44.5 54.2 56.9 59.1 62.6 67.1 70.7 65.9 59.1 59.3 63.6 65.1 64.7 63.6 64.3 66.9 72.3 80.8 96.3 119.4 147.2 173.5 207.2 240.6 262.8 263.3 279.9 287.1 291.8 292.4 289.4 285.7 287.1 291.4 283.5 263.7 243.9 229.2 219 212.2 200.3 203.5 207.1 211.2 220.5 225.5 230.8 236.4 244.1 254.8 265 272 284.5 289.7 299.7 303.8 309 309.6 313 319.8 326.8 324.9 315.8 315.4 318.6 323.5 333.7 338.1 336.2 338.4 334.2 330 331.4 332.7 334.1 345 350.2 356.7 351.5 354.3 356.8 354.2 346.8 333.1 323.1 308.7 293.9 283.4 253.7 221.6 184.2 181.6 207.1 236.3 271.4 304.2 344.3 365.1 379.2 379.5 390 390.7 400.6 407.5 404.5 401.3 399.6 396.6 404.8 410.1 425 418.4 406.9 410.9 425.7
148.8 149.3 152.5 155.4 155.5 157.5 158.1 158.8 151.8 149 145.1 141.6 145.5 141.6 140.7 139.4 139.8 144.7 146.3 149.6 146.6 139.6 144.2 149.7 161 159.6 155.6 155.6 159.7 165.5 170.3 177.3 170.9 168.5 171.4 169.8 168.3 164.9 163.9 166.3 162.8 167.6 176.5 176.9 170.3 167.7 171.7 179.1 180.7 181.1 179.5 181.9 186.7 193.2 197 197.8 193.3 186.1 182.4 179.5 176 165.8 160 157.7 159.7 161.2 150.7 136.3 123.1 113.6 107.1 102.6 90.5 66.1 49 40.1 39.5 32.4 31.4 29.6 30.2 30.8 30.3 33.3 37.9 43 50.9 56.2 59.5 62.4 64.4 65.3 60.9 58.1 61.9 65.8 65.8 66 64.4 66.1 69.8 76.3 91.4 104.3 127.5 159.1 191.1 231.3 250.2 253.1 258.3 269.7 290.4 291.2 290.3 287.6 281 281.3 280.5 264.5 249.8 237.1 224 212.1 203.7 208.6 207.4 214.9 217.3 223.7 229.6 239.1 242.8 244.5 253.9 266 278.4 289.7 291.7 299.7 304.8 309.4 315.3 320.1 322.2 326.5 320.3 317.7 318.1 322 326.6 336.6 339 338.8 339.4 336.4 334.4 339.5 335.3 345.4 356.1 361.3 362.6 358.2 362.7 364.9 359.3 348.8 333.2 312.9 311.1 304.4 287.4 265.7 228 189.4 187.6 211.6 242.9 275.3 319.8 347.4 359.4 371.8 382.9 384.7 387.4 395.3 397.9 397.6 396.6 393.1 402.8 415.2 425.6 425.8 414.8 408.8 420.8 434.9
146.3 146.9 149.5 152.6 151.9 151.5 153.8 151.9 147.3 147.6 144.5 140.8 142.2 141.3 144.3 140.2 138.5 139.5 141.5 142.6 140.4 139.7 144.2 154.6 159.8 159.9 155.4 158.1 163.5 168.3 175.5 178.9 173.4 172.1 174.8 173.5 172.2 171.7 173.1 169.1 163.5 167.6 174.6 179.9 172.7 169.1 172.3 180.8 182 181.4 181 186.2 191.2 193 193.9 194.3 193.6 187.3 185.5 180.6 180.9 166.9 158.1 157.2 157 156.7 144.3 135 124.2 118.2 112 105.7 91.5 66.9 50.1 41.4 39.6 32.3 31.7 29.6 31.1 31 30.3 33.5 38.4 43.5 51.8 56.6 60.3 62.9 62.7 60.5 57.5 59.8 62.4 65.8 65.7 65.4 65.8 69.6 73.7 87.2 102.8 115.6 141.1 172.6 204.1 236.3 248.9 252.3 254.1 279.9 285.7 287.2 288.1 281.5 271.7 269.1 263.9 254.1 247.8 235.8 220 211.7 208.2 209.3 210.6 217.8 221.2 227.8 234.8 242.4 249 253.4 258 266.3 279.3 286 291.8 297.1 308.1 312.4 318.9 325.5 326.8 328.5 321.6 322.9 322.9 327.2 334.2 337.6 340.7 341.3 342.1 341.3 345.3 344.5 343.6 358.4 366.8 367.7 367.3 366.8 371.1 369.9 363.3 351.5 340 325.2 316.5 306.5 289.7 266.9 228.5 189 189.4 216.5 247.6 296 325.1 344.4 356.1 366.1 376 375.9 385.7 387.5 390.6 392.6 391.8 400.5 410.4 416.6 430.7 433.5 409.4 415 429.5 434.1
145.3 146.1 149 146.9 146.2 146.7 151 146.8 146.2 145.8 144.2 140.5 140.1 142.5 149.8 143 139.4 139.9 139.3 139.4 139.8 144.4 148.8 154.4 160.1 161.7 158.4 160.8 164.5 170 178.9 184.8 178.1 173.8 177.2 177.7 177.5 182 178.5 173.7 170.5 171.2 175 180 176.4 173.8 176.8 181.6 181.6 181.5 182.7 189.3 192 193.7 193.6 190.7 188.9 187 183.5 183.5 176 166 159.4 161 160.3 152.8 141.9 130 121.9 117.2 112.6 107.1 87.5 62.6 48.5 41.7 38.8 33.5 29.6 31.1 31.3 31.4 30.3 33.8 38.9 44.1 53.8 57.9 62.5 64.3 63.3 58.9 58 61.9 64.1 64.9 65.6 65.4 68.8 73.5 81.1 101.9 115.8 129.6 155.3 186.1 217.6 233.6 251.5 251.7 259.5 276.3 284.4 286.8 283.8 277.1 259.7 255.5 249.2 247.4 241.8 226.2 219.3 210.3 210.4 210.2 213.4 219.2 225.7 231.2 240.4 248.1 255.2 257.9 267.5 276.9 274.6 287.4 292.8 299.6 311 319.5 326 330.2 337.1 332.1 325.8 324.6 325.5 329.9 335.7 340.5 343 345 348 348.7 350.5 351 350.1 365.7 374.8 374.7 373.5 373.9 376.6 372.9 364.9 354.9 345 330.1 319.5 308.9 289 260.1 226.6 192 186.3 221.5 263.1 312.4 319.8 335.5 351 362.1 366.3 371.1 376.9 382.2 383.3 391.6 397.6 404 411.9 416 428.2 420.6 409.8 420.2 434.5 432.1
145.1 145 146.2 145.1 143.6 146 146.2 143.6 144.4 143.9 140.5 139.7 142.3 146.6 155 147.2 142.1 140.7 140.6 141.2 145.4 149.7 152.8 154.6 165.2 164.6 164.4 164.5 168.3 175.7 182.5 184.6 180.6 177.4 180.3 177.9 180.6 186.5 181.4 178.2 174.4 172.6 177.4 183 182.4 179 177.5 183 183 182.3 188.7 192.7 195.5 194 191.2 190.6 187.5 184.6 183.4 183.7 174.6 162.6 160.1 157.6 155.7 149.2 134.4 127 119.6 114 111.1 102.7 83.2 60.8 47.6 40.5 36.9 33.9 29.6 31.1 31.4 31.7 30.3 33.6 39.2 45 54 59.5 62.8 63.8 62.9 55.9 58.6 61.3 63.1 64.4 65.3 65.9 72.2 80.9 101.6 119.8 126.2 146.2 167.9 197 222.6 237.1 251.9 253.7 262.8 273 279.9 283.1 278.1 267.4 251.2 242.4 240.1 239.9 232.9 221 211.8 214.6 212.3 210.2 218.1 221.8 230.6 236.7 245.9 254.4 260.2 263.8 275 281.9 286.6 293.7 299.7 303.6 310.6 321.9 329 335.4 339.2 333.4 327.8 328.2 328 332.3 338.8 343.7 348.7 353.1 352.8 355.9 356.7 356.9 358 373.7 377.3 376.4 377.7 380.9 380.7 379.4 364.8 355.6 345.2 339.6 326.2 318.4 298.3 266.5 235.4 207.4 174.5 225.8 270.3 303.6 317.6 338.5 346.3 353.5 358.7 363.4 367.9 373.2 382.5 393.6 396.6 402.6 411.6 419.4 425.3 412.3 411.8 425.7 434.9 435.7
142.6 144.2 148.7 147.1 144.4 141.1 140.5 139 140.3 143 140.2 140 145.4 151 157 149.1 145.2 145 144.2 143 150.9 154.8 155.7 160.8 167.5 168.3 166.9 167.5 169 174.5 184.8 187.1 181.7 181.3 183.6 179.7 181.2 179.4 179.5 177 176 174.9 179.2 185.3 186 181.5 179.2 182.1 181.7 185.3 195 196.6 197.9 191.9 190.9 190.2 187.8 183.3 182.6 184.1 175 162.6 157.4 152.8 152 144.3 132.6 124 119.1 116.2 110.8 98.3 78.4 61 44.5 40.9 35.6 36.1 29.6 31.1 31.3 32.3 31.7 32.9 38.6 46.1 57.9 61.7 62.8 64.5 58.4 57.1 61.5 64.1 64.4 65.1 66.2 71.4 77.7 96.8 120.5 131.2 144 161.5 183.6 210.2 232.3 250 256.7 255.6 262.2 272.5 276.2 272 270.3 256 238.8 235.9 232.5 231 221.6 214.2 212.5 213.8 213.4 213.3 219 226.2 233.6 243.6 251.7 260.8 265.6 271.1 280.7 287.3 292.4 301.1 307.4 312.1 319 319.4 328.1 335.7 339.9 338.5 332.4 331.2 330.5 334 342.7 349.7 354 356.4 359.4 363.4 364.5 366.3 373 379.2 382.7 380.9 382.9 387.9 388.5 382 370.9 357.2 349.3 342.4 333.6 322.6 301.2 276.6 251.2 229 202.7 224.2 268.9 300.2 312.9 330.8 336.1 340.1 349.4 356.8 361.2 371.1 382.8 389 395 403.9 411.2 420 419 411.7 416.1 431.4 445.3 448.4
141.1 142.7 143.2 147.3 142.8 139.7 138.3 138.9 143.1 140.3 139.9 140.2 148.9 152.4 156 150.3 146.7 146.9 145.1 146.5 154 154.1 155.7 161.8 168.7 168.5 167.8 168.6 171.4 175.7 184.3 188.2 184.4 186.1 182.2 180.5 180.1 179 179.1 178.7 176.9 178.4 180.3 181.8 185.1 185.1 180.4 180.6 182.4 193.5 197.2 195.9 196.4 192.5 189.4 189.8 186.4 182.9 179.9 179.2 175.6 166.1 156.3 153.9 154.8 144.6 135 134.1 124.8 119.4 108.9 94.8 69.3 57 41 39.3 38.2 36.5 29.6 31.1 31.4 32.1 33.7 33.3 38.9 44.6 57.3 58.1 60.2 59.8 54.6 59.8 63.2 64.6 65.8 66.2 70.7 74.9 84.8 112.1 135.5 149.3 163 181.5 201.2 222.8 240.7 256.8 263.1 262.8 264.8 266.1 269.9 267.2 257.3 247.1 232.9 234.1 229.2 219.8 213.6 213.1 213.3 213.2 213.6 216.7 221.8 231.3 242.1 249.1 257.7 267 271.9 279.2 286.8 295.1 300.8 306 313.9 320.7 326 326 327.9 336.5 341.9 342.5 336.8 338 336.3 338.2 347.6 353.7 356.9 358.7 364.4 368.7 370.5 372.5 380.6 388.2 387 386.5 391.6 394.6 393.5 388.2 375 359.3 351 348.4 336.6 326.4 324.2 306.1 291.8 260.7 232.5 212.4 253.6 289.5 308.4 320.8 327.4 336.7 343.2 353 363.6 372 378.4 386.5 394 401 404.8 412 413 415.1 422.8 446 453 450.1
139.8 140.4 138.2 137.9 138.6 137.7 137.6 139 139.8 139.6 139.5 142.6 149.8 154.6 157.2 153.3 151.8 148.1 143.8 145.2 146.7 150.3 150.9 157.9 166.6 168 168 170.1 171.3 179.2 185.2 191.7 187.6 184.5 183.2 181.1 180.5 179.1 181.7 181.4 179.4 179.5 181.1 182.5 184.2 188 180.4 180.2 187.4 193.7 196.1 194.8 194.1 192 189.1 186.7 182.7 177.4 174.9 178 173.8 166 159.5 162 155.6 138.7 142.6 144.2 132 124.2 113.2 91.4 66 50.8 41.7 39.4 37.7 35.6 29.7 31.1 31.5 31.7 34 33.2 38.5 47.2 53.7 57.9 57.3 54.4 56.6 62 63.9 66.7 66.6 69.9 75.8 82.7 102 129.3 154.8 169.8 183 199.8 221.6 235.1 251.2 261.4 264.3 265 259.6 261.2 261.7 256.1 254.3 240.6 228.4 225.5 225.1 215 213.9 213.6 214.3 214.3 216.2 220.1 228.3 236.4 243.4 252.2 263.6 272 276.3 286.3 300.5 309 313.9 321.9 328.5 333.7 332.7 331.3 330.6 332.2 339.4 343.6 345 345.2 339.2 345.3 352.8 357.3 360.5 364.9 369.6 373.4 379 380.2 392.9 394.9 391.8 393.9 396.4 398.4 395.1 385.2 370.4 364.3 355.1 350.6 339.3 336.1 329.5 310.8 286.2 255.9 220 211.8 246.8 279.9 297.6 310 319.1 332.4 342.4 350.3 361.9 367.2 376.7 383.3 390.5 396.7 400.9 408.8 414.6 421 441.3 444 455.6 450.8
136.6 136.9 137.9 137.1 136.8 138.4 138.9 140.5 140 139.5 141.5 149.5 154.9 160.9 158.4 153.5 148.3 146 144.8 146.3 145.3 150.9 153.3 157.2 165.8 167.6 168.5 172.2 174.8 178.3 189 194.6 190.3 185.4 185.9 182.8 183 180.8 187.5 185.8 181.9 181.8 183.1 184.5 184.8 189 180.5 182.5 189.2 191.5 192.8 193.3 193 191.1 189.2 187.1 183.9 178 174.1 173.5 171.1 168.8 168.6 160.8 147.6 139.8 145.8 147.7 142 132.5 119.8 96.6 66.6 47.5 41.7 39.8 37.2 34.5 31.9 29.6 31.5 31.5 31.7 32.6 36 48.7 58.1 57.9 55.2 52.4 56.8 62.6 64.9 67.7 68.2 73.3 83.7 98.5 128.6 150.6 172.7 185.3 198.5 212.7 236.6 249.5 255.2 258.2 263.6 264 257.8 254.6 255.5 254.1 247.7 236.1 226.3 218.4 215.3 214.9 214.5 214.2 214.7 215.6 220.4 223.2 232.8 240.5 244.1 256.9 267.3 275 283.6 306 315.8 324.3 334.1 344.3 346.5 346.3 340.7 336.3 333 334.9 338.8 345.6 348.3 346.6 341.8 350.5 358.3 364.2 367.7 369.5 380.9 381.5 382.8 395.4 402.3 399.6 398.1 402.6 401.6 393.7 388.1 384.2 371.3 364.8 358.1 352.5 345.1 339.5 329.7 313.6 284.7 251 216.1 209.9 238.4 264.6 285.4 306.4 316.9 329.7 337.8 346.1 358.6 366.8 375.8 383.4 391.9 396.6 404.1 414.6 422.7 426.8 434.5 445.8 449.6 452.5
135.9 135.8 136.9 137.4 140 140.2 142.5 142.3 141.1 141.1 145.8 151.6 160.6 161.4 156.2 152.9 150.1 145.7 144.7 144.8 149.1 152.8 155.2 161.3 166.2 165.6 168.4 170.9 174.5 176.9 187.3 193.6 184 187.4 187.4 184.2 183.6 182.1 188.2 186.6 182.7 184.4 185.4 184.7 186 185.7 180.4 190.7 193.5 193 193.6 193.1 192.2 190.8 188.6 186.7 187.8 185.2 179.1 174.7 171 166.6 160.5 148.4 139.7 147 147.6 146.7 143.5 131.5 125.2 105.3 64.4 50.2 41.5 36.8 33.4 35.2 32.1 29.6 31.6 31.9 31.7 32.9 35.7 47.4 56.6 57.6 52.6 55.3 60 64.2 66 67.9 71.9 78.1 96.4 123.6 142.3 167.1 189.5 199 212.6 224.1 245.2 250.7 255.5 256.1 258.5 261.4 258.2 254.2 252.5 250 243.2 231.5 225.2 216.6 215.7 215.4 214.9 214.8 215.1 217.3 222.2 228.8 235.4 244.6 254 258.7 268.2 278.2 294.3 311.4 319.9 327.1 338.3 352.9 359 355.3 345.4 338.9 335.9 339.4 341.8 349.5 351.6 348.7 348.7 357.8 364.4 370.4 372.4 378.7 385 385.9 390.4 406.4 410.7 405.4 406.5 407.9 401.7 389.4 387.5 381.6 373.6 368.8 359.4 354.1 347.3 337.8 327.5 313.3 285.8 248.3 210.9 202.8 227.2 256.2 282.5 301.2 316.6 325.5 333.4 345.2 359 368.2 377.6 384.3 390.8 398.1 404.1 413.9 425.1 425.8 430.8 440.8 452.1 471.8
137.6 136.9 136.7 136.2 136.8 140.1 144 142.8 146.3 145.8 149.8 156.8 162.9 160.2 157.6 155.3 152.2 148.3 145.5 146.9 150.6 154 153.8 160.6 164.4 164.3 165.1 167.6 168.1 176.7 181.3 182.7 183.2 184 184.4 184.3 184.7 184.9 187.7 184.9 183.9 184.3 184.7 183.4 181.9 181 184.3 194.2 195.6 194.6 193.8 193.6 193.2 192 189.6 192.6 195.1 192.9 184.9 175 176.2 172.3 152.8 140.4 142.2 148.5 148.9 148.6 146.3 135.8 122.8 103.9 71.1 50.7 41.7 36 35 33.7 32.4 29.6 31.8 33.9 31.7 33.2 37.1 44.1 49.7 52.8 51.8 56.3 60.3 62.4 65.4 69.2 77.5 89.8 111.8 137.6 153 181.4 189.4 218.8 222.6 230.4 244.3 254.4 261.2 254.4 254.1 252 252.2 248.3 250.7 246.8 239.3 234.6 218.9 216.6 216.2 216 215.2 215.3 216 220.8 225.3 231.5 239.9 248.6 254.8 261.7 272.1 285.1 297 311.4 319.6 335 347 356.6 358.7 347.9 346.1 342.9 340.4 343.2 350.6 352.9 351.7 351.7 357.6 364.4 368.2 374.8 377.8 387.7 389.5 394.8 406.3 416.4 419.3 415 411.1 403 395.2 387.6 384 383.6 378.3 371.8 360.1 352.5 344.6 336 328.3 318.3 296.8 259.7 223.3 189.7 217.4 248.2 279.8 297.1 314.7 322.8 333.1 345.2 357.2 369.1 374.2 381.7 390.3 395 402.6 409.8 416.2 420.2 433.3 446.9 463.3 475.7
136.7 137.5 137.3 136.8 137.2 140.1 142.7 144.3 146.8 149.9 152.5 159.5 166.5 161.6 158.8 157.1 155.1 151.6 149.2 147.7 150.1 155.3 156.9 162.2 167.5 166.5 164.2 166.2 168.2 171.9 179.2 183.4 184.2 184.2 185.1 187.1 186.5 186.4 186.5 185.5 184.6 184.7 180.9 182.2 181.7 184.2 189.6 193.2 199.7 197.5 195.1 196 194.6 194.1 196.4 197.2 196.9 193.5 188.5 174.3 171.4 166.4 151.2 140.2 146 145.3 145.1 140.6 140.4 127.8 113.7 100.5 68.5 53.2 44.2 37 32.7 32 31.3 29.6 32.5 31.7 32.8 33.2 36.3 43.6 45.3 47.2 53.7 57.1 60.6 64.1 67.3 74.6 86.9 107.5 128.8 149.4 168.1 190.6 208 227.2 225.3 230 245.8 256.1 261.9 257.7 247.8 243.4 245.8 241.2 241.3 239.5 235.6 226.8 217.3 216.6 216.6 215.9 216 216 217.6 221.9 229.2 235.8 246.1 250.1 257.3 269.9 278.3 288.1 300.3 311 319.6 335.7 349.4 352.8 345.2 344.4 344.7 346 345.4 349.6 353.8 354.4 352.8 356.1 363.8 371.3 374.4 379.7 385.7 391.9 399.7 406.5 416.3 427.2 425.5 417.8 409.5 399.1 391.1 389.7 386.9 383.4 377.5 371.9 359.6 349.8 341.5 333.6 327.9 322.4 301.5 271.5 232.2 201.1 215.1 244.2 273.3 293.8 308.9 323.7 334.9 343.9 356 365.5 371.3 381.6 387.4 393.3 398.8 405.4 413 422.2 440.9 453.5 461.2 468.5
135.8 136.9 137.3 136.6 139.1 142.5 143.1 143.8 146.4 152.3 158.2 161.6 160.9 159.7 161 160.7 156.7 153.5 150.9 149.9 152.3 157.4 158.9 165.7 169.6 168.7 167.2 167.9 168.5 175.7 182.7 188.2 187.2 186.8 189.2 189.1 187.5 186.8 186.5 185.1 183.3 183.5 179.3 181.3 182.8 189.2 193.5 195.1 200.9 198.8 197.8 197.4 196.3 195.7 196 195.4 200.5 198.5 191.1 172.6 169.4 159.3 144.8 143.8 147.9 146.6 139.5 140.3 131.3 120.6 111.3 111.7 72 54.3 45.1 37.6 36 32 32 29.6 33.8 31.7 32.2 33.8 36.8 41 44.6 48.7 52.3 57.6 61.6 64.5 71.7 82.6 104.9 124.5 143.3 162.7 177.8 198.8 208.9 222.2 228.2 236.3 250.6 252.6 257.5 257 245.6 240 240.1 240.1 237.6 236.1 232.1 223.1 218.1 216.8 217 217.1 216.8 217.3 221.7 224 234.1 240.9 243.7 250.2 263 277.3 282.8 294.5 307.6 314.7 325.4 339.5 346.7 346.8 345 344.9 345.9 348.5 351.8 352.9 357.7 357.1 357.5 363.8 373.2 380.8 380.9 388.2 393.6 402.2 410.4 413.3 430.5 435.6 428.9 416.2 406.3 397.8 392.6 392.6 386.6 381.7 374.3 368.5 359 352.1 339.8 334 327.6 315.5 296.9 264.1 224.6 198.9 222.3 246.2 280.6 302.5 316.8 331.3 339.3 347 352.5 361.5 373.6 380.4 386.6 393 397.2 403.5 416.8 430.5 447.5 465.1 468.7 467.5
137.7 137.9 137.3 136.7 140.5 143.9 142.8 142.9 146.5 148.9 152.4 156.7 157.1 160.7 161.4 159.7 155.8 153.9 151.2 150.4 153.7 159.4 165.1 169.3 166.2 166.4 166.9 168.4 172.7 177.5 182.3 188.3 187.8 190.3 194.3 191 187.8 185.9 184.5 183 179.8 179.3 179.3 180.8 189.5 192.6 194.1 196.7 199.6 199.9 198.5 198 197.7 195.3 194.3 195 198.5 198.2 190.6 170.2 161.6 148.8 148.1 145.3 143.8 143.2 140.1 136 127.2 119.5 115.9 105.6 69.3 59.4 45.4 37.6 36.8 32.1 32.1 31.6 31.7 32.8 32.7 34.4 37.6 42.1 45.3 46.5 52.2 57.4 63.1 69 81.1 99.4 118.8 139.2 160.1 181.3 192.6 197.3 211 228.9 232.6 238.5 248.3 252.7 259.6 258.8 244.6 238.7 238.1 236.6 231.8 229.8 227.3 221.3 218.7 217.1 217.7 218.2 218.2 217.9 221.8 228 237.5 241.8 246.8 256.6 268.9 281.9 289.6 302.9 314 322.1 338.1 345 346.6 346 346.3 349.9 352.7 354.1 356.1 358.2 360.6 360 362.8 373.2 382.9 386.8 387.2 394.9 404.5 412.2 415.3 421.5 439.8 438.5 426.2 413.5 405.1 396.9 394.4 390.9 386.9 382 380.1 369.3 355.8 348.7 340.9 334.4 324.8 307 283.4 249.4 211.2 218 239.4 266.2 293.5 311.3 327 332.7 340.9 348.3 360.6 376 382.7 387.1 391.7 396.7 409 417.8 423.9 437 449.7 467.7 472.4 467.4
139 139.1 138.4 143.4 143.5 142.1 143.4 142.9 147.3 149.3 149.9 148.6 150 150.9 154.6 156.9 156.8 152.5 150.4 150.5 155.6 159.1 159.6 160.5 162.2 165.2 168.2 170.9 178.8 180.1 183.5 188.8 189.4 191.7 195.6 190.6 187.7 184.9 183.6 181.5 179.8 179.3 179.3 180.9 193.2 193.9 194.3 195.1 197 198.6 198.6 198 197.3 194.5 193.9 194 195.2 187.3 173.8 168 163.5 157.3 150.1 141.1 136.6 134.2 131.4 130.6 127.4 118.5 108.6 94.7 72.4 56 43.9 36.9 33 32.2 29.6 31.7 32.8 32.1 32.9 35.5 38.6 42.8 46 47 52.4 59.9 66.2 74.5 94 114.1 135.6 158.3 176.1 197.8 202.6 211.3 216.8 234 237.9 245.7 255.5 255.2 260.9 257.3 239.2 236.7 233.8 227.6 224.4 223.8 223.7 221.2 218.3 217.5 217.9 218.9 218.7 218 226.7 233.8 238.9 245.3 253.4 259.5 272.7 284.6 294.5 306.7 318.3 332.1 341.9 348.2 348.5 349.5 361.7 360.8 356.7 357.7 359 363.1 363.9 367.5 369.5 379.8 390.3 390.3 394.4 402.5 417.4 417.6 418.9 433.5 439.9 434.7 421.2 410.2 401.9 397.5 397.3 393.1 388.1 385 377.5 365.3 353.9 348.1 342.2 334.9 320.3 299.1 276.4 243.3 210.2 226.9 252.7 276.8 296.8 317.6 327.5 334.3 341.9 352.7 366.9 380.4 388.9 393.3 395.8 408.3 414.3 421.8 428.1 438.8 457.6 467.8 469.5 472
141.1 141.7 142.4 150.5 143 144.1 143.9 143 146.7 148.5 149.3 147.4 145.2 146.3 147.7 150.4 150.4 146.1 147.6 150.1 153.1 156.3 156.3 159.5 164.5 168.1 171.9 178 184.5 185.3 184.9 187.3 190.7 192.1 196.9 190.4 186.1 183.5 183.1 181.8 179.7 179.3 179.3 186.5 192.5 193.5 193.7 193 194.7 196.8 198.1 196.4 194.8 193 191.5 191.7 186.7 176.5 171.7 168.9 168.1 155.7 153.2 137.3 129.6 128.6 125.8 122.8 122.1 111.2 94 77.3 59.8 51.6 41.2 36.7 31.8 29.6 34.7 31.7 32.1 32.1 32.1 36.7 39.9 46.1 46.8 48.3 55.7 60.9 71.2 87.8 108.7 129.8 149.3 173.6 189.2 196.2 207.6 220.3 221 227.8 244 251.1 257.9 260.4 257.6 249.5 241.6 235.4 231.1 228.1 223.1 221.5 220.4 221.6 217.9 217.8 218.3 219.3 219.5 222.4 230.5 238.9 242.4 247.7 257 262.5 273.8 284.6 299.3 309.9 321.5 342.3 352.5 360.7 356.1 363.1 370.7 370.4 372.2 371.1 373.1 375 370.3 372 376.9 385.4 393.6 395.2 400.6 412.9 424.2 420.4 421.3 436.4 436.1 429.2 417 408.3 400.6 399.8 399 393.1 388.1 380.4 373.8 361.8 353.8 346.5 341.7 336.5 326.3 301.4 271.3 244.5 218.5 221.1 246.1 271.9 299.1 316.8 327 336.9 347.7 357.2 379 387.8 392.3 395.7 407.9 411.9 416.6 423 431.2 448.9 464 470.7 476.3 483.4
148.5 147.4 145.5 143.8 142.7 145.3 145.9 144 146.1 147.9 150.6 151.1 149.1 146.7 142.4 138.2 137.7 139.3 143.4 148.1 150.7 152.6 156.3 162 168.1 170.9 171.1 181.9 187.9 188.8 188.8 189.6 190.9 193.9 198.2 190.8 184.7 183.5 182.8 182.1 180.7 179.5 179.5 185.6 192 192.6 192.6 191.6 191.7 194.7 197.1 194.9 193.6 192.2 190.8 188.1 183.9 172.5 170 167.7 160.7 158.4 151.1 134.9 122.4 124.1 117.5 112.7 110.4 104 79.4 67.1 51.2 43.9 38.7 34.4 29.6 32.3 31.7 33.1 32.1 32.1 32.1 39.1 41.7 45.2 48.1 51.7 58.8 67.4 83.8 101.4 123.3 144.5 171.1 193.2 197.2 209 219.7 225.2 228 228.3 241.6 256.1 261.2 258.5 254.8 251.1 243.2 236.9 230.5 226.3 223.5 220.6 218.3 218.4 217.6 217.9 219.4 219.6 220.5 226.4 233.3 242.5 245.4 249.2 255.7 263.3 276.5 286.6 301.5 317.7 330.9 346.5 358.5 362.2 364.1 373.4 382.6 394.1 389.4 388.9 387.8 388.4 385.2 380.2 384.8 389 393.1 399.8 408.5 419.3 424.1 421.4 420.3 430 429.8 422.3 409.4 403.1 399.6 397.7 395.1 391.5 383.4 377.8 368.5 357.4 351.8 348.4 342.6 335.6 325.4 295.3 262.2 240.3 213.5 200.8 228.7 261.9 293.7 307.1 324.1 338 355.9 364.1 378.2 384.3 392.4 404.3 410.8 415.9 421.9 429.6 442.7 454.6 479.4 480.1 480 496.7
151.9 149.9 148.2 146.5 145.4 149.2 151.9 152.2 151.5 152 153 154.4 152.9 148.6 144.6 139.4 136.3 135.6 136 139.4 144.9 150.4 153.2 157.6 163.2 166.6 167.7 182.1 187.6 190.5 189.9 192.5 195.9 195.5 195.7 188.8 183.9 183.3 182.7 182.1 181.9 180.9 179.4 187.1 192.4 192.8 191.7 188.7 187.3 190.4 194 195.5 193.9 191 188.9 184.3 178.9 170.4 169.4 166.2 161.3 162.7 151.1 130.5 111.4 110.4 107.4 99.9 96.3 86.5 70.2 55.8 43.8 49.5 38.6 29.6 32.5 34.4 31.7 32.5 32.8 32.1 34.2 40.1 43.5 46.3 48.7 54 63.2 76.7 98.8 116.2 141.5 165 189.3 197.8 203.8 217.5 230.3 233.3 234.3 238.9 253.2 264.3 262.5 256.5 255.1 250.9 240.5 232.9 230.2 228.4 226.1 219.1 217 217.1 217.6 218.3 218.7 220.2 223.7 231.1 235.9 242.9 246.8 249.6 257.5 268.4 289.2 302.3 312.6 325.6 342.6 357 367.6 375 383.5 389.3 395.5 401.7 399.5 398.7 396.5 402.4 392.9 390.2 389.1 389.8 393.7 403 413 423.2 428.7 418.1 413.1 419 418.1 410.6 409.2 404.5 398.3 397.7 394 388.9 379.3 371.2 360.6 356.8 353.2 349.2 342.5 333.5 320.6 292 256.1 264.9 263.4 239.5 210.3 244.4 279.5 299 318.5 339.1 361 367.3 371.7 383.1 397.6 405.7 411.8 415.6 424 439.5 450.6 472.4 483 476.1 489.8 496.6
151.9 152.1 151.6 151.4 154.5 155 153.4 155.2 154.9 155.7 157.4 156.6 153.1 152.6 148.1 143 137.7 135.4 134.2 135.9 142.5 150 152.6 154 156.5 161 166.6 178.7 184.6 187.1 190.3 193.5 195.1 192.4 190.3 186.7 183.3 183 182.4 181.7 182.2 182.4 179.5 187.4 193 192.8 190.1 186.8 183.4 185 191 195.2 192.1 188.3 186.3 178.5 172.1 167.4 163.6 158 156.9 154.5 145.4 124.2 102.4 97.5 97.1 90.9 85.7 78.5 66.2 49.6 48.8 36.7 31.1 32.1 35.3 31.7 33.3 33.2 33.9 33.8 36.7 42.4 44.6 46.9 50.2 57.3 70.8 89.3 113.4 125.3 145.8 175.6 189.6 207.6 216.5 222.3 237.5 235 243.5 256.3 261 266.1 259.5 262.9 252.1 242.7 236 232.3 230.9 228.1 223.4 216.7 216.5 216.8 217 217.6 219.8 221.6 228.1 235 239.6 245.8 247.4 253.1 261.3 276.2 297.9 309.9 325 335.5 352.3 364.3 376.3 383.1 386.9 394.8 407.6 408.8 410.3 408.8 405.2 403.7 399 402.7 399 391.8 395 406.5 415.9 426.4 427.4 414.1 408.1 410.5 411 408.6 406 401.4 397.5 397.8 391.9 384 373.7 365.6 359.3 356.8 353.1 346.9 339.8 332.9 323.5 294.6 265.5 284.7 280.9 255.5 222.1 226.2 258.8 288.4 310.4 333.9 354.4 362 368.7 383.4 394.7 404.2 410.8 417.2 427.5 447 459.2 472 480.7 476.5 495.1 500.1
154.9 157 156.1 154.7 158.4 161 160 158 159.1 160 159.8 156.6 152.6 149.4 145.8 140.6 137.6 135.2 133.9 136.2 141.8 149.2 154.6 156.7 155.9 158.3 165.4 173.6 178.8 180.5 180.5 185.9 190.1 188.4 187.8 186.4 183.5 182.7 182.2 181.4 181.1 182.3 179.9 188 191.6 192.5 188.3 184 181.5 180.8 187.1 191 186.3 184.5 180.6 171.7 166.4 164.6 159.6 154.3 149.1 142.4 132 114.4 89 85.5 85.5 84.1 80.2 74.5 62.8 47.2 38.2 31.7 32.4 32.8 32.9 35.8 35.2 34.3 35.3 35.8 39.4 43.2 45.6 48.3 55.2 66.1 83.5 107.3 120.6 133.2 155.2 183.3 203.7 216.3 224 233.9 242.7 237.4 247.1 262.1 262.3 265.8 267.3 260.6 252.9 239.6 234.2 231.5 232.2 227.7 220.4 216 216.4 216.8 217.4 218.1 219.8 222.6 232.4 236.3 240.5 246.6 253.4 262.4 269.1 284.5 303.5 319 334.9 348.4 367.8 380.3 386.1 391.9 394.1 403.8 414.7 418 417.7 408.1 408 404.6 410.9 413.4 401 395.3 396.8 408.8 418.5 424.8 419.6 412.5 405.1 404.9 408.9 404.9 398 398.3 394.6 391.6 379.3 375.3 367.2 361.3 359.2 356.5 350 344.2 338.3 331.8 320.6 293.9 281.3 318.4 310.1 269.4 240.2 213.7 243.9 273.8 300 323.9 341.8 354.5 367.5 378.3 388.5 399.7 410.2 423 431 450.9 459.6 463.7 468.7 481.1 493.6 502.5
157.8 158.8 158.3 156.4 161.8 166.5 164.3 162.2 162.9 159.7 158.1 153.6 150.2 145.4 142.3 138.3 135 134 133.6 136.4 140 142.2 142.8 147.5 152.4 158 159.6 166.6 167.1 165 169.9 176.1 181.2 184.6 187.6 186.8 184.9 182 181.2 180.4 179.9 179.7 181.2 188 190.2 189.1 184.4 182 180 176.6 178.6 182.1 181.7 177.7 173.8 165 163.1 162.3 158.5 149 142.7 129.2 123 113.9 85.1 80.2 80.8 76 74 67.2 53.8 42.7 31.7 31.7 33 33.3 32.9 34 34.5 35.7 37.6 38 38.9 42.2 53 53.5 64.8 75.8 96.6 118.9 126.3 138.8 165.9 191.3 213.7 221.3 232.6 238.7 239.9 243.1 253.7 267.2 263.3 263.9 263.4 262.6 246.5 236.6 229.2 228.8 229.5 228.3 217.1 216 216.4 217.3 218.5 218.7 220.3 225.5 233.3 238.1 246.6 252.7 262.3 272.4 277.2 292.5 312.2 327.6 344.3 361.1 374.6 391.6 403.2 401.2 402 407.7 417.7 420.9 417.9 412.1 417.9 408.2 415.4 406.6 401.5 399.6 403.8 410.4 418.9 417.7 417.5 405.8 401.3 403.1 401.6 396.6 392.7 389.5 386.6 383.6 379.5 371.1 364.1 361.3 358.5 354.1 348.1 343.6 338.2 329.4 309.8 283.4 311.6 326.5 321.2 286.8 253 221.9 224.2 254.7 284 310.3 334.5 352.2 363.8 373.7 384.6 396.3 410.7 421 438 447.7 450.6 454.3 468.7 478.9 489.1 493.6
159.3 161.6 160.8 161.4 166.8 172 167.5 166.6 164.1 161.8 156 152.1 147.6 144.6 141.8 137.1 134.2 134.1 133.7 135.8 137.8 137.7 137.9 142 148.9 157.4 153.8 158 156.3 152.4 158.8 166.9 173 182.1 187.3 188.6 185.9 182.3 179 178.7 178.8 176.7 179.1 184.4 186.8 184.5 181.6 180.7 179.4 171.1 172 176.9 173.4 169.2 167.7 161.3 158.3 158.2 151.6 145.8 135.7 119.2 113 103.8 81.2 73.7 72.5 67.5 64.1 58.5 48 41 31.7 31.7 33 32.9 33.2 34.6 35.1 37.1 38.7 39.3 41 47.3 58.5 61.2 71 88 109.2 126.1 132.9 153.4 177 202.9 217.9 226.2 236.6 236.3 238.9 245.8 255 261.9 265 253.1 260.9 243.7 233.8 231.5 224.6 226.5 222.5 219.6 214.7 215.6 216.7 218.4 218.7 219.1 221.6 227.6 238.4 245.5 253.9 260 269 279.2 286.6 304.6 323.3 338.1 357.7 368.5 386.1 402.9 406.8 406.8 406.9 412.8 416.9 418.1 415.8 414.9 421.5 410.6 409.3 405.2 403 402.4 406.7 414 418.7 414.7 409 400.2 399.4 398.8 394 390.6 387.3 386.1 383.9 387.5 378.1 367.8 362.4 359.2 355.7 351.9 346.1 341.4 336.2 327.7 304.4 302.7 327.7 329.2 323.2 296.6 262.4 236.8 220.1 231.8 261.6 291.7 325.1 348.7 370.9 373.8 381.5 393.5 408.4 421.7 434.1 442 444 450.1 464.3 473.6 485.7 490.2
163.1 165.9 165.4 166.4 172.6 172.1 170.1 169.2 163.4 158.4 152.5 150 145.4 145.1 140.7 136.7 135.5 136.5 133.8 133.1 133.5 133.3 133.8 137.1 142.7 147 147.1 144.7 151.7 152.7 155.3 159.5 167.2 175 180.8 183.7 183 180.1 177.1 175.1 174.1 171.2 175.4 175.3 179.3 179 178.1 176.1 173.8 164.9 166.1 167.6 166.2 164.4 163 158 153.9 151.8 146.8 140.7 132 119.4 110.3 96.8 82.3 67.1 65.2 60.9 55.3 52.4 48.7 35.3 32.1 32.8 32.9 33 34 34.6 34.9 37.4 40.5 41.5 42.9 56 61.5 66.4 78 95.4 115.8 127.9 145.5 166.2 188.3 210.7 215.8 224.3 227.3 235.8 238.4 250.2 257.6 263.3 258.8 242.7 248.4 234.1 228.1 224 220 219.2 214.2 212.1 214.2 215.2 217.1 218.5 219.3 221.6 224.7 233.6 243.2 249 257.1 267.6 275.9 288.8 297 316.3 328.3 350.5 366.7 381.6 393.5 405.6 416.1 422.1 430.9 425 418.3 417.7 417.3 416.6 417.8 411 412.9 412.1 405.6 405.6 409.9 415.8 417.7 409.9 400.4 397.9 398.1 395.3 390 385.6 382.6 381.8 382.1 378.2 372 364 360 357.8 354.8 349.4 344.1 338.3 333.2 326 301.5 311.6 329.8 330.3 326.2 311.5 276.7 252.1 233 224.1 249.5 280.2 316.4 337.9 364.9 368.3 376.3 386.1 403.4 420.8 427.1 437.4 440.7 449.6 463.8 466.7 480.3 480.7
166.9 166.3 166.3 168.2 171 168.9 168.4 165.5 156.4 151.7 150.5 148.6 145.1 147.9 142.1 137.5 134.3 133.9 133.3 132.5 132.8 132.9 135.2 136.9 140.3 142.4 144.2 144.8 154.3 156.5 154.3 154.2 158.5 159.7 165 173.8 177 176.6 174.9 170.5 166.3 169.9 172 170.5 173.9 174.2 173.2 168 165.5 158.9 158.4 163 157.6 159.5 161.8 155 148.5 143.2 140.9 138.5 130.7 117.6 110.4 94.6 77.8 65.4 60.1 57.9 56.4 63.6 54 48.6 32.9 32.9 32.9 34.4 35 35.7 35.9 35.7 40.5 42.9 44.5 50.9 62.8 67.6 81.7 100 116.8 133.1 155.5 169.6 195.7 205.3 211.8 222 229.4 233 241.1 250 259.9 257.8 247.4 238.3 234.5 229.8 227.4 224.2 218 214.3 211.9 211.3 213.7 215.3 217.4 218.8 220.3 222.6 229 240.3 248.5 253.6 262.9 273.4 284.8 295.7 304.4 323.5 338.8 356.8 370.9 382.7 396.8 407.5 421 429.5 428.3 420.3 418.2 417.9 419.6 416.8 415.3 412.7 418 415.3 409.8 408.5 412.5 415.9 414 402.3 397.1 396.4 398.1 393.5 384.9 379 379.1 380.5 374 370.9 363.4 360.2 358.9 355.7 351.3 347.2 342.8 335.4 324.8 308.5 303 326.5 332.1 332.8 326.1 310 288.3 264.5 243.5 219.4 247.2 273.2 302.2 332.5 351.9 364.2 374 382.1 392.3 415.1 420.3 431.3 442.3 449.5 456.3 464.2 470.6 472.7
166.4 166.7 166 166.7 166 162.6 161.3 157.2 155.2 155.2 151.5 148.3 146.7 145.1 139.4 135.4 134.1 133.2 135.4 136.1 133.8 133.1 135.7 138.4 139.2 139.1 143.3 144.9 149.2 150.5 151.5 154.6 156.7 158 158.7 158.2 162.8 172.8 171.2 165.8 163 164.8 166.2 167 169.5 168.9 167.5 165.1 162.2 157.4 151.1 150.5 149.2 152 152.5 150.3 144.1 140.5 140.9 138.4 129.5 124.2 112.5 93.4 77 67.8 62.7 58.6 60.8 60.2 52.1 33 32.9 32.9 33.4 34.8 35.9 36.9 36.9 36.3 40.7 44.4 41.2 47.1 46.9 62 81.8 109.1 125.2 134 153 170.2 188.1 197.6 208.2 218.9 223.5 226.4 235.2 249.4 257.1 246.9 238 234.7 233.2 232.3 230.1 221.2 215.2 211.3 208.7 210.1 213.7 214.2 216.6 220 222.5 226.1 233 242.9 252.3 257.9 269.8 282.8 296.4 308 321.2 333.4 346.9 365.2 378 388.1 398.1 408.2 417.5 421.6 422.1 421.2 418 417.3 416.3 417.9 416.6 413.9 418.5 416.2 412.7 411.7 413.2 412.4 406.9 398.2 394.6 394.5 394.8 388.3 378.9 373.7 373.5 369.9 367.2 361.9 359.2 358.7 355.8 353 349.5 346.2 339.9 326.5 306 316.2 321.2 332.2 334 334.3 331.1 316 297.2 277.6 250.8 219.5 247.8 271.2 294.2 324 344.1 357.4 367.9 380.5 391.2 401.8 412.8 430.3 440.6 443.2 449.2 457.4 461.2 466.1
166.1 167.1 167.5 167.7 165.6 161 156.7 154.7 154.3 153 149.8 146.3 144.4 141.9 138 135.7 134.2 135.9 137.1 137.6 134.1 132.9 138 140.1 134.9 134.7 137 144.1 147.7 149 151.7 154 155.8 157.3 157.8 157.9 156.9 156.5 157.8 162.4 161.5 159.7 162.4 163.7 164.7 166 165 162.9 160.4 156.7 149.6 145 143.5 143.2 144.1 146.4 140.4 139 138 135.3 128.6 121.7 108.3 86.7 74.6 69.2 64.7 63.1 51.9 50.2 32.9 32.9 32.9 32.9 34.4 34.6 35.8 36.7 37.2 37.9 40.5 38.4 54.3 69 66.9 56.8 57.3 105.5 128.9 129.6 142.9 157.5 173.1 188.1 196.5 208.8 216.7 221.5 234.7 245.6 242.2 236.9 234.3 234.8 234.3 232.8 226.7 216.8 212.7 208.3 208.1 209.5 210.6 213.6 216.9 220.7 223.9 227.6 234 244.6 255.5 266 280.9 291.7 308.8 321.5 331.8 346.6 352.9 364 377.7 385 395.2 402.3 415.6 419.5 423.5 425.7 417.4 415.5 415 415.7 412.8 412.9 417.8 415.7 413.6 413.4 416.4 410.4 403.2 395.1 392.9 392.8 392.2 385.9 374.5 369.7 365.7 364.1 362.2 358.2 357 355.7 354 351.6 346.7 344.3 337.1 315.1 331.2 335.1 331.3 335.2 336.7 338.7 338.2 326.7 308.8 284.7 256.8 221.4 253.5 271.6 291.4 314 335.8 353.8 365.3 376 387.1 393.7 411.8 427.6 437 436.5 441.2 450 454.2 460.8
167.3 168.4 169.5 168.1 166.8 164.2 160.1 156.3 154.3 152.9 151.4 148.5 145 144.1 138.8 135 135.8 136.8 137 135.5 133.3 132.6 137.8 138.5 133.3 133.6 136.7 144.3 146.9 148.4 150.5 152.6 154.1 156.5 156.6 156.1 154.5 154.2 152.3 151.1 151 154.2 157.6 158.4 159.9 161 161.2 159.8 158.1 155.7 149.6 144.3 139.2 140.1 139.8 137.3 136.9 136.5 134.1 130.8 125.1 119.9 96.9 79.6 69.2 63.4 61.2 50.5 44 38.4 32.9 32.9 32.9 32.9 34.4 34.5 35.4 36.2 37 38.9 37.5 47.4 62.1 72.2 82.4 78.1 52.1 102.8 98.3 104.9 117.2 128.8 154.4 164.8 192 203.3 209 220.9 228.1 232.8 232.3 232.2 234.4 235.7 234.5 228.2 219.7 214.4 210.1 206.9 207 209.7 214.9 217.2 219.4 222.4 223.7 229.1 237.9 249.1 261 278.1 289.1 306.4 320.4 330.3 340 353.4 356.4 361.4 372.9 382.1 393.5 403 407.2 415.2 424.5 422.7 414.9 414 413.8 411.8 411.2 411.8 415.7 415.2 414.8 415.4 416.5 409.3 401.6 392.7 389.6 391.9 389.9 380.1 371.1 367.2 364.6 360 359.1 355.4 353.6 353 352 349 344.9 342.9 335.6 315.6 337 337.5 333.7 336.9 339.3 343.4 345.4 344.1 318.9 291.7 261 228.4 257.5 275.9 299.5 313.8 331.1 348.5 362.5 372.7 381.2 391.2 407.9 425.2 426.8 431.9 436.1 442.3 448.9 453.9
166 171.1 169.9 168.8 167.6 165.6 162.3 158.3 155.8 153.7 150.6 149 145.8 143.1 138.1 136.8 136.8 135.6 134.7 133.4 132.7 132.8 138.5 137.8 134.2 133.2 135 140.2 142.8 146.3 146.9 149.1 151.1 151.2 152.3 152.2 150.2 151.4 150 149.3 148.3 145.6 147 148.7 151.7 154.5 155.2 154.8 151.7 148.6 144.1 138.7 135.7 136.7 135.8 132.1 134.5 133.4 130.6 124.8 118.3 114.5 84.6 68 62.7 57.6 53.1 45.9 38 32.9 32.9 32.9 32.9 32.9 32 34.4 35.4 35.7 37.4 36.7 44 60.3 75.6 85.6 96.9 103 85 67.3 83.2 97.7 81.5 86.8 107.7 140.7 171.8 190.4 202.2 212.4 225.4 228.5 229.3 233.8 238.8 237.7 233 225.7 218.1 211.6 207.5 205.8 207.3 211.5 216.1 218 221.2 224.5 227.9 233.2 245.5 250.7 258.8 283.8 303.7 320.7 330.4 337.1 343 357.5 362.4 366.4 370.9 381 393.7 399 401 406.6 413.5 413.5 413.5 412.8 411.2 409.8 409.8 411.2 414.9 416.2 416.9 416.3 409.2 407.9 398.7 387.9 385.5 386.8 383.9 373 368.4 366.7 364.9 360.2 355.7 353.8 351.9 350 348.8 345.7 342.6 338 325.2 336.1 339.1 336.7 337.2 339.2 341.3 345.7 348.1 345.4 333.9 300.3 270.9 236.7 258.6 276.7 293 311.3 329.1 346.8 360 368.4 379.2 389 404.9 416.9 418.2 424.8 428.7 435.8 440.7 447.5
166.3 171 172.1 170.6 168.3 165.6 162.1 159 156.6 154.8 151 149.2 146.7 141.8 140.2 140.7 138.6 134.8 132.7 132.1 131.6 133.4 139.6 136.9 133.9 132.5 132.1 133 137.6 141.6 142.2 145.1 145.6 146.4 147.4 146.4 144.9 145.1 146.3 147 144.7 141.5 137.7 136.2 138.5 140.4 140.2 140.8 140.8 140 135.7 130.6 132.8 133.2 128.5 124.8 122.5 124.7 122.8 115.7 109.8 104.9 75.4 64.3 58.4 53.4 48 41.7 32.9 32.9 32.9 32.9 32.9 32.9 32.9 34.1 35.1 36.2 37.1 39.7 57.2 73.4 88.5 94.8 99.6 108.9 110.9 108.4 121.9 138 131.1 125.9 122.4 101.7 141.2 156 181.7 197.1 216.7 224.9 229 241.8 239.3 235 230.4 222.6 214.3 208.2 205.7 205 208.3 212.9 216.8 220.2 224 225.6 234.2 242.5 255.5 264.4 274.5 281.3 299.2 310.7 335.9 344.8 348.4 370.5 373.1 371.3 374.8 383.3 396.2 398.6 398.7 398.6 404 409.2 410.8 412 410.4 408.8 408.2 411.1 412.5 414.2 415.9 411.8 406.2 406.4 394.4 385.2 381.6 377.9 372.9 370.3 366.5 364.7 364.2 358.1 354.2 353.2 351.2 348.8 344.9 342.1 336.9 330.6 337.8 340.7 339.4 337.5 339.9 341.8 344.2 351.6 353.9 349.9 333.3 305.8 279.6 243.8 253.5 274.5 288.9 304.9 326.5 348.9 357.1 367.5 379.7 386.7 401.5 405.8 412.6 419 423.8 428.9 434.9 441.9
166.7 170.2 173.9 174.2 171.1 167.2 163.1 159.5 156.2 154 149.7 148.9 143.5 142.5 144.1 142.9 139.3 135 133 132.3 131.8 131.4 133.2 132.1 131.7 131.2 130.8 130.4 131.7 133.5 135.7 138.3 138.3 141.9 140.2 139.5 138.3 139.4 143.2 141.2 139.4 136.6 134.4 131 128.8 126.6 123.9 126.6 128 127.9 125.3 121.6 126.1 126.9 119.5 117.3 117.1 117.2 112.4 106.4 101.2 93.2 67.6 59.3 54.7 50.7 43.7 37.9 32.9 32.9 32.9 32.9 32.9 32.9 32.9 34.3 34.7 35.6 35.9 48.5 69.1 82 94.2 101.4 111.3 124.3 128.5 132.7 150.3 148.8 147.3 142.6 137 124.7 107.7 120.9 150.9 182 216.4 220.3 228.4 237.3 233.9 233.7 225.9 218.2 210.1 206.9 203.9 205.1 209.8 213.2 219.6 226.5 226.3 231.4 240.7 252.5 263.7 276.8 288.2 305.4 324.5 332.6 331.5 343.7 354.9 373.8 376.4 375.6 376.6 383.6 393.8 401.3 395.5 394.1 399.8 403.8 407.1 411 407.2 405.3 408.7 408.4 411 411.7 410.4 406.8 402.4 400.4 395 382.8 376.8 373.3 371.4 369.5 366.9 361.4 360.5 354.4 353.7 352.4 350.3 348.2 345.3 339.6 332.1 339.6 341.5 341.3 341 339.7 342.7 344.7 350.3 357.5 357.5 357.3 345.9 316.7 286.6 250 244.6 267.7 288.2 304.8 326.4 343.9 356.4 369.6 382 384.9 393.8 402.4 409.5 414.4 419.5 423.9 430 436.5
163.3 170.6 176.4 179.8 173.8 168.6 164.6 160.6 155.3 153 148.1 143.4 144.2 144.9 145.2 142.9 139.3 135.8 134.1 132.8 132.1 131.8 131.8 131.8 131.2 130.6 131.5 131.3 132.2 131.7 130.3 131 133.7 134.3 134.2 132 127.9 132.5 137.9 134.5 133.8 131.7 129.8 126.3 124.9 121.2 114.5 115.6 116.1 117.6 116.6 108.4 115.1 115.8 106 109.5 107.3 106.4 103.5 98.3 92.9 83.4 60.7 57.7 55.4 49.1 39.4 36.4 32.9 32.9 32.9 32.9 32.9 32.9 33 34.3 33.8 33.5 40.6 63.4 81.1 91.4 97.7 107.4 126.4 139 142.3 150.9 161.9 156.8 160 161.6 156 148.4 139.1 123 128.4 169.6 206.6 223 223.7 231.8 232.1 227.8 219.6 213.5 207.5 204.8 202.1 205.1 208.8 214.2 223.8 225 229.3 237 248.9 263.8 274 289 302.4 321.1 340.8 341.8 339.8 344.8 352 371 375.2 376.3 382.5 387.5 390.3 393.4 389.7 389.5 393.3 398.6 400.1 401.7 401 405.6 406 403.6 405.6 405.7 405.3 401.2 399.2 396.6 389.2 377.4 373.9 371.1 369.7 369.5 361.8 359.4 355.7 353.5 352.7 351.6 349.5 347 341.7 334 336.1 342.8 343 342.8 341.8 341.8 344.7 349 353.7 357.2 357.3 354.1 346.1 321.6 294.4 258.3 234.3 264.6 290.4 303.4 317.2 337.3 353.2 367.2 375.7 381.5 391.8 400 403.9 408.1 413.8 418.8 424.8 430.8
164.2 171.6 177.2 177.7 174 169.6 165.9 162.4 154.9 150.3 148.7 148.7 148.7 146.2 145.9 141.9 138 135.2 133.4 132.1 131.6 131.1 130.5 130.5 130.8 131 132.4 132.7 134.1 134.2 133.4 131.6 129.1 130.3 131.3 129.1 124.6 124.5 124.5 128.9 124.1 125.2 126.8 122.3 120.4 118.4 107.8 103.8 101.9 107.1 107.5 102.5 98.6 96.1 95.8 95.8 95.7 94.4 91.5 87.8 82.1 69.1 61 56.7 58 44.9 39.1 36.3 32.9 32.9 32.9 32.9 32.9 32.9 32.9 34.2 32.9 36.6 56 77.1 91.2 101.3 106.4 122.8 143.4 150.2 157.3 171.9 173.9 171.5 173 176.1 170.2 162.2 152.5 135.1 125.4 163.8 203.3 220.9 222.2 226 229 222.4 216.1 208.6 203.8 199 196.5 203.2 210.9 214.7 223.3 229.6 236.5 246 259.7 272.2 286.3 300.5 318.4 335.5 342.9 355 354 350 349.2 364 373.2 377.3 384.1 386.5 384.3 385.4 384.6 385.2 389.5 395.1 396.5 397.6 399.6 400 398.9 398.5 399.1 400.3 400.9 396.4 396.2 391.1 383.5 378.2 373.8 371.8 368 367.1 359.9 355.9 354.1 352.9 352.6 351.7 349.5 347.7 337.9 338.7 343.3 345.1 344.8 344.9 343.4 344.6 348.3 352 356.1 358.5 357 354.7 345.8 330.6 307.9 274.3 240.5 256 282.2 300.1 314.3 332.3 351 360.9 372.1 380.5 385.2 394.5 398.5 402.5 408.5 414.4 419.7 418.9
165.7 171 178.3 174.6 169.4 169.7 167.7 161.7 152.2 150.4 151.7 152.1 148.8 144.3 141.3 138.1 136.5 133.6 132.1 131.2 131.5 130.5 130.5 130.5 131.9 132.3 132.6 133.7 138 137.5 136 133.5 131.6 130.7 130.7 127 125.3 129.2 129.9 128.9 126.3 123.7 119 117.9 119.2 113.8 108.2 102 96.9 94.1 92.5 90.7 87.5 85.7 83.3 82.5 82.5 82.7 80.5 78.8 71.9 66.8 60.3 54.3 52.7 39.6 33.2 32.9 32.9 32.9 32.9 32.9 32.9 32.9 33.1 32.9 36.5 45.6 71.1 86.4 101 109.7 118.4 137.1 152.1 164.9 177.4 184.3 187.7 187.5 186.4 186.3 183.9 168.8 159.8 134.9 111.3 159.4 196.2 218.1 221.8 223.4 222.3 219.8 212.7 201.1 194.2 190.4 201 206.7 214.3 222.4 229.3 237.1 245.7 256.6 270.4 283.8 300 316.4 331.7 343.2 352.6 358.4 359.5 359.3 352 362.9 371.3 373.5 377.4 377.4 378.2 379.3 381.3 381.5 386.4 390.8 395.2 394.6 394.4 395.5 396.3 395.2 397.2 396.5 396.6 393.8 398.8 386.8 383.3 381.8 374.4 371.5 367.1 365.8 357.7 354 351.9 351.5 350.3 349.9 348.3 346.5 337.5 346.6 345.6 347.6 346.9 346 344.8 347.6 350.9 355.2 359.1 358.6 357.6 350.7 344.7 331.2 314.8 287 259.4 243.7 272.2 292.8 312 325.6 344.8 356.9 368.4 377.1 380.1 388.3 392.6 397.7 403.2 409.5 412.4 420.8
167.4 175.3 177.1 172.4 167.6 164.6 162.7 156.5 150.6 151.9 152.7 150.6 146.3 143 139.6 138.3 136.4 134.4 133.5 133.3 133.1 130.5 130.5 131.7 131.7 131.7 132.3 136 142 140.1 138.3 135.6 133.4 133.3 131.4 127 127.7 134.5 135.5 135.9 133.2 129.4 126.2 123.8 122.5 119.8 112.5 102.2 95.4 93 89.2 83.4 79.3 76.9 73.8 73.4 75.3 76.4 74.2 73.1 65.9 62.1 58.2 48.2 35.5 32.9 32.9 32.9 32.9 32.9 32.9 32.9 32.9 32.9 34.3 34.9 42.1 65.7 82.6 95.7 106.7 117.3 133 149.6 159.9 177.6 190.8 197.8 198 197.4 193.7 192.4 188.9 174.2 159.8 144.7 119.3 155.9 186.3 208.6 218 220.9 221.3 214.6 202.5 195.3 182.8 197.7 205.5 211.6 218.2 229.5 237.3 245.2 254.3 272.3 284.8 295.8 311.7 335.1 351.8 359 364.5 368.2 370.2 367.1 363.8 364.2 366 368.6 369.5 371.6 373.7 376.2 377.5 379.4 383.4 388.2 392.1 391.3 391.6 393.3 393.1 393.4 391.6 391.9 390.8 391.4 392 384.5 384.1 381.6 373.2 368.7 370 364.6 357.9 353.9 351.5 349.9 346.3 345.3 347.6 341.8 344.7 349 348.7 348.2 348.2 347 347.5 350.6 354.8 358.4 358.9 356.8 353.7 347.9 340 330.6 318.8 299.7 273 247.7 264.6 291.1 311.2 324.6 338.3 351.7 367.5 374.6 375.3 381.2 386.4 391.5 397.7 404.5 410.7 416.6
168.1 178.3 174.7 172.7 166.4 161.9 158.4 155.3 150.9 152.8 153.9 151.3 147.8 143.6 142.2 141 138.9 136.6 135.7 134.9 133.3 130.5 130.5 130.5 131.9 132 133.6 137.1 143.6 142.4 140.6 138.2 136.9 136.4 133 128.8 131.3 137.4 141.9 144.4 139.9 134.7 132.3 130.5 128.9 124.7 119.1 110.4 102.5 97.3 89.3 79.6 75.7 73.2 70.1 67.8 66.7 72.3 65.2 59.2 58.3 56.6 48.9 35.2 32.9 32.9 32.9 32.9 32.9 32.9 32.9 32.9 32.9 32.9 34.4 36.8 60.8 80.2 93.6 104.3 113.9 129.9 146 163.5 172.8 186 197 208.3 203.9 202.2 204.5 202.1 191.6 178 169 161.2 126.9 138 169.7 200.8 208.4 211.8 210.5 201.6 193.8 188.9 186.6 198.5 208.1 215.6 226.8 235.4 242.7 252.3 268.8 287.6 306.8 320.3 336.9 353.5 364.9 369.6 372.6 377.9 381 376.3 370.5 369.8 366.9 366 367.1 369.6 372.3 373.5 375 377.8 382.2 388.5 390.1 389.8 389.5 390.3 391 390.4 389.1 390.2 387.5 387.8 384.4 383.3 382.7 380.9 371.2 369.3 370.9 362.3 357.6 353.3 351.8 349.6 347.2 352.6 351.6 347.3 350.9 350.9 350.5 350.9 350.2 349.5 351.3 354.3 358.7 359.8 358.3 355.9 352.2 346.3 339.4 332.9 324.1 311.3 282.2 254.9 260.7 286.2 309.2 321.3 335.2 348.9 369.4 366.8 369.4 374.2 379.5 385.7 393.8 400.8 405.8 411.7
169.4 173.4 174.4 173.1 167 162.3 159.4 155.4 151.2 153 155.9 154.8 151.1 148.6 147.2 145.2 141.8 139.1 137.1 135.4 133.3 131.9 131.7 132.6 132.4 132.6 134.5 138.5 142.6 143.6 142.5 140.2 139 137.8 134.4 130.4 136.9 145.7 148.8 153.2 146.7 140.8 138.9 134.4 130.6 125.8 122.5 114.4 104.6 94.5 86.1 84.5 86 84 79.1 73.4 63 57.9 54.4 52.4 43.9 37.7 36.9 32.9 32.9 32.9 32.9 32.9 32.9 32.9 32.9 32.9 32.9 32.9 34.5 50.6 79.8 93.5 102.8 111.8 126.8 144.5 163.7 173.5 187.9 200.3 207.2 217 211.9 208.3 213.3 204.4 196.8 190.8 185 175.6 157.1 133.5 148 183.6 199.8 203.2 200.2 192.1 184.9 178.6 194.4 203.3 214 222.8 236.2 243.7 254.7 267.2 287 305.7 321.4 342.7 352.1 368.5 380.2 384.4 381.9 382.5 382.3 377.1 370.4 369.1 367.5 367.6 367.1 368.8 370.7 372.2 373.8 377.4 382.8 389.1 388.5 387.3 387.6 388.8 389.4 389.2 387 385.3 385.8 385.6 382.1 381.3 380.9 379.1 370.7 370.4 367.5 358.5 356.6 354 351.9 347.8 352.4 353.8 353.5 351.4 353.6 351.9 352.5 352.9 351.2 351.3 353 357.3 359.6 360.5 359.4 358.1 351.1 345.6 340.9 335.4 329.1 318.6 296.3 267.5 253 276.2 303.6 318.5 332.4 348.7 357.7 357.4 361.2 368.2 373.2 381.7 388.4 394.9 400.8 405.6
168.4 171.9 172.4 171 164.9 162.3 160.4 156.9 154.5 156.5 159.5 157.2 154.9 153.1 152.6 148.5 143.8 141.3 138.4 135.3 133.3 132.4 133.1 134.3 134.1 134.5 138.2 139.4 144.3 146 145.2 145.1 145.3 140.9 133.6 138.1 143.2 149.1 151.2 152.9 150 146.7 143.9 137.8 132.2 126.5 121.9 114.5 105.2 94.3 91.3 96.5 96.2 93.2 85 77.6 72.3 63.9 56.5 47.4 42.6 37.5 32.3 32.9 32.9 32.9 32.9 32.9 32.9 32.9 32.9 32.9 32.9 32.9 39.5 71.9 95.8 104.6 112.8 124.2 143.1 161.1 175.2 185.1 195.5 209 215.1 222.1 220.1 218.2 215.9 212.9 209.7 203.4 199.7 192.3 178.3 159.2 126.6 164.9 187 194.2 192.8 184.8 172.7 188.9 200.5 209.9 219.1 229.8 242.2 254.4 264.7 282.4 299 319.3 337.3 353.3 363.9 376.5 384.8 393.4 386.3 383.5 380.2 373.7 370.1 368.2 368.2 369.1 369.1 369.9 371.6 372.3 373.5 375.8 381.5 386.2 384.2 386.7 386.5 388 388.7 388.2 386.1 383.9 383.1 382.7 382.6 381.1 379 374.6 371.6 370.9 364.9 358.7 355.6 352.7 350.8 352.5 353.5 354.7 354.8 353.4 355 354.2 354.9 353.5 352.5 353.5 355.2 358.1 359.1 360.6 359.8 356.9 352.2 347.9 344 340.2 333.4 325.9 308 279 246 262.9 286.1 310.8 327.7 341.3 350 350.4 358.6 357.6 368.5 375.1 382.8 389.4 393.7 407.1
165.2 166.6 171.6 170 164.6 162.4 163.1 162.6 157.9 161.2 162.4 159.3 158.1 157.5 156.8 151.1 146.3 142.7 139.4 138.2 138.9 138.3 136.4 137.8 138.1 140.2 143.5 145.5 149.1 150.6 150.2 152.2 149.9 144.2 141.5 147.5 148.5 152.6 155 153.9 152.6 150.4 146.7 138.8 134.2 129.4 120.8 113.7 103.8 97.2 101.1 102.8 102 97.7 90.7 80.5 75.9 65.3 59.8 46.3 40.1 37 32.9 32.9 32.9 32.9 32.9 32.9 32.9 32.9 32.9 32.9 32.9 36.1 62.3 92.1 107 114.8 123.7 139.1 157.4 174.6 184.5 192.2 199.9 211.5 220 227.3 225.1 222.8 224.2 225 220 214.5 213.8 208.8 193 172.4 135.7 159.4 182.6 190 184.8 173.9 179 194.7 206.4 214.3 227.4 240.9 251.1 262.3 276.7 290.5 312.5 333.3 351.1 366.8 381.3 386.1 386 389.2 384.4 381.6 377.6 373.3 370.9 369 369.8 370.7 371.1 372.4 373.4 373.3 374.1 376 378 382.6 388.5 388.4 387.9 389.9 389.4 388.2 385.9 385.2 384.9 385.3 384.9 382.4 379.9 374.1 372.4 371.5 361 358.2 355.5 352.4 351.7 354.7 354.5 355.4 355.2 355.4 356 356 357.2 353.6 354.1 355.2 357.3 359.8 361.4 362.6 362.3 358.7 355 352.8 349.1 345.8 339.3 333.3 323.3 303.3 286 263.1 270.4 298.7 324.5 336.8 343.6 345.4 350.5 352.3 362.6 370.1 376.1 385.8 397.3 406.8
161.8 161.8 163.9 162.9 161.8 161.4 162.1 162.5 160.1 166.8 165 162.3 162.3 161 159.5 154.8 149.3 144.4 141.8 145.5 147.7 144.6 143 142.6 143.3 147.8 150.3 151.6 152 153.3 155.5 158.5 154.7 147 148.3 149.4 152.8 155.6 156.4 154.2 153.5 151.2 147.3 141.5 144.4 129.7 121 114.3 102.9 104.1 106.7 107.9 104 100.6 89.5 77.7 71.1 62.2 53.6 39 37.7 34.8 32.9 32.9 32.9 32.9 32.9 32.9 32.9 32.9 32.9 32.9 37.6 56.8 84.1 105.3 116.7 125.6 140.1 154.8 172.1 184 193.8 202.3 206.6 214.8 219.7 225.8 225.8 228.1 229.4 228.5 225.8 223.4 224.7 214.2 198.7 169.3 130.6 159.4 176.5 182.8 178.3 166.5 190 203.2 211.2 222.9 236.2 249.6 262.3 273.3 288 302.9 324.7 342.9 362.6 381.6 394 391.2 389.6 385.9 383.5 381.1 378.7 379.4 372.9 370.2 371.6 374.5 375.2 374.8 373.7 374.1 375.7 377.6 382 387.6 390.1 389.8 389.9 391.8 390.6 389.1 387.2 388.4 388.4 388.4 385.9 383.2 378.7 375.1 372.2 366.6 360.9 358.2 356.2 353 355.3 356.3 356.1 355.5 355.5 355.2 356.3 356.9 355 355.1 356.5 358.3 362 364.7 366.9 366.7 364.6 362.7 358.1 358.3 356.4 353.5 344.6 339.1 330.6 320.4 311.5 285.7 248.4 285.7 315.7 330.8 331.9 333 341.8 353.4 362.9 372.4 380.4 388.7 397.6 410.6
161 157.9 159.3 160.6 158.5 158.8 159.7 160.5 163 170.7 168.4 167.1 167.2 165.7 161.8 158.6 153 146.1 149.6 151.8 153.5 149.5 147.1 149.5 147 149.9 153.5 154.2 153.8 158.7 163.9 164.7 158.1 152.7 156.7 155.4 156.4 158.1 156.4 154.6 153.8 151.7 147.5 141.4 142.9 129.8 119.6 111.5 110.4 108.1 107.9 102.2 101.1 96.3 84 72.5 61.9 58.5 48.8 36.9 35.1 32.9 32.9 32.9 32.9 32.9 32.9 32.9 32.9 32.9 32.9 32.9 51.1 82 100.8 114.3 128.2 138.3 154.3 175.4 191.2 196.5 205.1 214.6 221 223.2 221.3 226.1 233.4 234.2 233.7 231.1 228.7 227.9 222.9 209 195.8 164.1 140.5 164.7 174.6 176 162.8 177.7 199.7 209.2 218.5 228.9 245.7 259.1 270.3 286.1 299.6 314.2 339.4 357 376 389.1 393.9 391.7 388.4 386.2 384.5 382.9 385.8 381.5 373.5 371.4 372.8 375.7 375.1 374.7 374.6 375.4 378.8 382.1 387.4 392.2 393.5 394 393.2 393.2 392.7 393.2 392.9 391.9 392.5 389.7 387.2 384.8 381.1 373.6 372.9 366.5 361.7 358.9 357.6 354.6 356.9 357.3 357.2 356.7 356.5 356.8 358.8 357.9 355.9 357.5 360 364.2 368.2 369.9 371.8 370.6 368.6 365.5 362.9 364.2 363.4 357.6 350.6 345.2 339.4 329.9 327.1 307.8 280.4 270 298.7 318.4 320.2 333.9 345.8 355.3 361.2 368.9 378 387.6 396.4 411.4
158.5 154 153.1 155 155 156.4 158.7 162.6 168 172.7 171.8 171.3 171.2 170.4 168.5 164.1 155.8 154.3 157.7 158.9 158.3 156.6 153.5 155.2 151.8 154.4 159.2 160.8 160.6 164.2 170.8 169.9 161.1 166.9 162.5 161 162.4 162 159.3 155.8 154 150.9 145.2 139.6 136.7 130.7 119.4 112.8 112.1 106.8 102.5 101.1 100.6 95.8 77.2 65.7 57.2 49.8 41.4 36.4 32.9 32.9 32.9 32.9 32.9 32.9 32.9 32.9 32.9 32.9 32.9 51.5 77.4 101.7 113.2 122.7 133.6 150.4 170.2 192.6 204.4 217.5 222.9 225.5 229 228.3 227.8 230.2 238.4 239.9 237.6 235.3 229.7 225.5 215.8 204.1 194.5 177 154.6 153 167.7 158.6 169.6 192.3 205.2 215.8 226.8 234.9 251.4 268.9 282.7 301 314.3 328.8 348.9 368.5 384.9 396.3 394.8 392.2 389.2 388 387.7 387.3 384.3 380.2 374.3 372.4 374.1 375.3 376 376.1 376.6 378.3 385.5 391.7 394 398.4 400.1 398.7 398.8 398.3 397.2 396.5 394.6 395.3 394.6 390.4 388 386.2 379.1 374.3 372.7 365.7 362.8 360.3 358.3 355 358.3 358.5 358.4 358.2 357.7 358.7 359.9 358.5 358.4 361.5 365.4 368.7 372.3 373.5 374.3 374.4 375.2 370.7 370.2 369 367.9 363.4 358.5 353.6 350.1 343 333 322.7 299.1 270.6 278.1 298.4 321.5 331.4 343.3 351.5 358 366.1 375.7 385.9 397.8 416
157.5 154.3 150.9 150.3 153.5 157.1 160.1 166.3 171.5 173.9 174.1 175.8 176.3 175.4 173.6 165.7 157.7 160.8 164.2 163.8 165.3 161.6 159.8 160.3 156.6 160.1 165.5 166.4 165 174.8 176 169.3 166.6 173.6 168.2 167.6 168.9 165.8 161.3 155.1 151.8 150 141.9 136 133.2 130.2 119.9 114.2 114.8 109.5 101 99.3 97.2 86.7 71.4 55.2 47.7 40.1 35.4 33.9 32.9 32.9 32.9 32.9 32.9 32.9 32.9 32.9 32.9 32.9 38.1 71.2 95 111.3 124 133.5 140.7 161.8 189.9 202.5 212.7 229.5 240.3 240.5 234.6 232.3 233.5 235.8 240 242.4 244.2 236.9 227.1 218.8 209.8 201.4 191.9 178 153.2 143.4 152.7 165.5 187.8 201.1 213.3 223.4 231.2 245.6 259.8 280.2 299.2 314.7 331.3 349.5 367.2 380.4 393.9 397.7 397.3 395.2 393.1 395.1 391.4 387.5 384.5 380.7 377 374.1 375.2 377.5 378.1 378.8 381.5 386.7 392.2 397.8 400.8 403.1 403.8 404.3 404.4 403.4 402.4 400.5 397.7 396.9 393.4 390.6 388.4 385.1 376.9 372.4 370.7 366 366.4 360.4 355.6 358.9 359.8 359.7 359.4 359.1 359.6 360.4 360.4 358.5 361.2 365.7 369.5 373.3 375.9 377.2 378.3 380.1 380.1 377.2 377 376.4 375 372.1 363.6 361.2 354.5 348 341 333.4 316.2 287.4 269.5 291.6 311.3 326.7 337.2 348 356.8 364.9 375.5 385.6 401.3 428.6
154.5 152.1 149.9 149.9 154.2 158.7 161 166 174.5 178.9 176.9 181.2 181.7 180.3 176.8 165.5 162 166.7 168.3 170.4 172.3 168.1 167.4 165.6 164.1 167.4 171.1 170.1 169.7 177.5 178.8 172.5 176.9 176.3 173.7 173.9 176.5 170.6 162.7 156.1 147.7 147 136.2 129 131.4 132.4 123.4 113.7 109.1 102.3 96.7 91.7 86.3 79.9 64 46.5 38.6 34 32.9 32.9 32.9 32.9 32.9 32.9 32.9 32.9 32.9 32.9 32.9 38.2 59 88.7 106.6 123.9 132.1 140.6 155.7 182.2 200 213.7 228.5 241.7 248.3 242.1 235.8 239.4 245.4 247.1 244.8 245.4 245.1 235.3 222.6 215.4 204.8 196.9 189.6 177 141.1 154.6 167.6 182.9 198.6 206.5 220 229.3 241.4 255.7 271.3 296.8 313.8 331.7 349.1 367.7 382 391.2 396.6 399.4 401 400.6 400.9 397.7 393.8 390.6 388 384.6 381 379.2 376.6 378.3 379.8 382.4 387.8 392.8 398.8 404 406.3 409.2 409.4 408.7 409.3 408.7 406.3 402.2 399.8 398.6 394 391.5 388.1 381.5 377.7 374.2 373.4 366.4 365.9 360.9 357 360.8 360.9 360.6 360.8 361 361.3 362.1 360.4 361.8 365.3 369.7 373.6 378.6 380.5 381.3 383.7 385.8 385.1 383.6 384.3 385.5 386.4 379.1 372.1 367.6 359.9 352.8 345.4 335.8 322 299.6 270.6 275.6 297.8 320.7 335.9 347.2 354.8 363.6 375.1 386.2 402.6 429.9
149.7 151.1 149.9 150.8 155.2 156.7 157 161.5 169.8 172.4 181.9 185.4 183.7 181.4 175.6 168 169.1 174.4 178.5 177.4 177.6 174.4 174.3 171.4 169.7 172.9 176.2 176.1 176.8 183.1 180.5 176.7 180.1 181.4 178.6 179.7 183.5 173.8 166.5 155.3 145.4 134.4 128.3 123.6 125.5 129.4 124 113.2 105.9 101.9 94.8 90.1 81.4 73.3 53.1 36.5 32 33 32.9 32.9 32.9 32.9 32.9 32.9 32.9 32.9 32.9 33.4 36 51.8 77.4 97.7 116.1 129.7 142.2 151.2 170.1 191.1 206 228.9 239 243 247.9 242.3 242.1 249.3 257.4 254.8 244.6 247.5 241.6 229.6 217.2 207.6 201.1 193 180.2 157.8 145.5 167.3 182 195.3 204 215 227.1 239.7 252.6 266.1 291.1 312.3 331.2 347.6 365.5 383.8 395 399.3 407 411.8 410 408.5 404.9 401.1 396.8 394 392 388.2 384.4 380.5 378.7 380.9 382.7 387.6 394 398.4 404 410.2 414.1 414.6 414.8 414.3 413.4 411.5 408.8 404 401.5 399.8 395.5 392.7 386.1 381.8 378.8 380.7 373.7 367.3 365 359.2 360.7 362.4 362.3 362.8 363.1 363.2 363.6 363.8 362 366.3 370 374.2 379.1 383 384.6 386.5 389.1 391.1 391.5 392.5 395.3 398.6 396 384.9 377.4 370.4 365.4 353.4 346.5 339.7 324.6 308.6 286.6 262.4 290.7 313.8 331.2 344.3 353.7 362.7 375.2 386.5 401.7 421.9
