ncols 200
nrows 90
xllcorner 240000
yllcorner 140400
cellsize 50
-2.7 -2.7 -2.7 -2.7 -2.7 -2.7 -2.7 -2.7 -2.7 -2.7 -2.7 -2.7 -2.7 -2.7 -2.7 -2.7 -2.7 -2.7 -2.7 -2.7 -2.7 -2.7 -2.7 -2.7 -2.7 -2.7 -2.7 -2.7 -2.7 -2.7 -2.7 -2.7 -2.7 -2.7 -2.7 -2.7 -2.7 -2.7 -2.7 -2.7 -2.7 -2.7 -2.7 -2.7 -2.7 -2.7 -2.7 -2.7 -2.7 -2.7 -2.7 -2.7 -2.7 -2.7 -2.7 -2.7 -2.7 -2.7 -2.7 -2.7 -2.7 -2.7 -2.7 -2.7 -2.7 -2.7 -2.7 -2.7 -2.7 -2.7 -2.7 -2.7 -2.7 -2.7 -2.7 -2.7 -2.7 -2.7 -2.7 -2.7 -2.7 -2.7 -2.7 -2.7 -2.7 -2.7 -2.7 -2.7 -2.7 -2.7 -2.7 -2.7 -2.7 -2.7 -2.7 -2.7 -2.7 -2.7 -2.7 -2.7 -2.7 -2.7 -2.7 -2.7 0.7 2.4 3.2 4.5 41 55.3 71.4 94.2 112 125.3 127.9 128.2 119.1 112.2 107.3 107.2 98.5 98.3 105.2 117.9 125 125.9 125.1 122.5 126.6 131.1 134.8 140.2 142.6 143.9 147.1 149.5 152.9 156.8 161.4 163.7 165.8 166.9 168.4 169.8 170.2 170.9 171.9 172.2 172.4 173.3 173.3 172.1 171.4 171.5 171.7 172.3 171.8 170.9 167.7 164.3 155.4 135.8 116.2 100.7 86 79.1 98.6 112.6 124.2 133 142.9 151.4 160 165.5 170.5 173.1 173.1 171.6 170.8 171.3 171.2 172.4 173.4 174.7 175.6 177 178.9 181 182.2 184.2 186.9 188.3 190.5 191.9 191.7 190.9 189.7 189.3 186.6 184.6
-2.7 -2.7 -2.7 -2.7 -2.7 -2.7 -2.7 -2.7 -2.7 -2.7 -2.7 -2.7 -2.7 -2.7 -2.7 -2.7 -2.7 -2.7 -2.7 -2.7 -2.7 -2.7 -2.7 -2.7 -2.7 -2.7 -2.7 -2.7 -2.7 -2.7 -2.7 -2.7 -2.7 -2.7 -2.7 -2.7 -2.7 -2.7 -2.7 -2.7 -2.7 -2.7 -2.7 -2.7 -2.7 -2.7 -2.7 -2.7 -2.7 -2.7 -2.7 -2.7 -2.7 -2.7 -2.7 -2.7 -2.7 -2.7 -2.7 -2.7 -2.7 -2.7 -2.7 -2.7 -2.7 -2.7 -2.7 -2.7 -2.7 -2.7 -2.7 -2.7 -2.7 -2.7 -2.7 -2.7 -2.7 -2.7 -2.7 -2.7 -2.7 -2.7 -2.7 -2.7 -2.7 -2.7 -2.7 -2.7 -2.7 -2.7 -2.7 -2.7 -2.7 -2.7 -2.7 -2.7 -2.7 -2.7 -2.7 -2.7 -2.7 -2.7 -2.7 -2.7 -0.8 0.9 2.5 5 42.1 62.2 88.1 110.8 117.5 133.1 131.8 116.8 97 83.4 80.8 78.8 75.5 87.6 94.5 97 105.7 112.1 120.2 130.1 128.6 133 137.7 140.6 143.5 147.1 150.3 152.2 155.2 156.9 160.3 162.8 166 168.6 169.3 170.6 171.6 173.2 174.1 174.7 175.1 175.5 175.5 174.4 173.9 173.4 174 174.8 174.6 171.7 169.8 163.3 150.2 147.3 143.1 124.7 103.7 80.2 92.8 106.3 120.6 130.8 142.2 149.8 160.6 169.3 170.1 171.9 171.7 169.1 168.6 170.8 169.1 170.2 172.8 174.6 176.3 178.4 180.3 182.5 184.6 186.6 188.2 189.5 190.3 189.9 189.4 188.6 184 183.1 182.5 182
-2.7 -2.7 -2.7 -2.7 -2.7 -2.7 -2.7 -2.7 -2.7 -2.7 -2.7 -2.7 -2.7 -2.7 -2.7 -2.7 -2.7 -2.7 -2.7 -2.7 -2.7 -2.7 -2.7 -2.7 -2.7 -2.7 -2.7 -2.7 -2.7 -2.7 -2.7 -2.7 -2.7 -2.7 -2.7 -2.7 -2.7 -2.7 -2.7 -2.7 -2.7 -2.7 -2.7 -2.7 -2.7 -2.7 -2.7 -2.7 -2.7 -2.7 -2.7 -2.7 -2.7 -2.7 -2.7 -2.7 -2.7 -2.7 -2.7 -2.7 -2.7 -2.7 -2.7 -2.7 -2.7 -2.7 -2.7 -2.7 -2.7 -2.7 -2.7 -2.7 -2.7 -2.7 -2.7 -2.7 -2.7 -2.7 -2.7 -2.7 -2.7 -2.7 -2.7 -2.7 -2.7 -2.7 -2.7 -2.7 -2.7 -2.7 -2.7 -2.7 -2.7 -2.7 -2.7 -2.7 -2.7 -2.7 -2.7 -2.7 -2.7 -2.7 -2.7 -2.7 -0.7 0.8 2.4 18.3 43.4 58 81.9 104.2 119.6 123.2 105.1 92 85.1 64.9 65.4 72 87.5 113.5 115.7 112.3 111.7 120 124.9 131.9 137.8 137.7 138.1 139.9 143.3 147.5 152.2 155.5 157.3 159.2 162.1 165.1 168.4 171.2 173 172.9 174.1 175 176.1 176.3 176.7 177.1 176.3 176.5 175.3 175.1 175.3 175.7 174 170.7 164.6 161.7 162.2 159 148.6 126.6 105.6 79.3 84.1 95.1 108.4 126.3 138.3 146.5 153.2 160 165.1 166.5 163.4 162.7 163.9 162.3 167 169 171.4 174.7 177.3 179.3 181.5 184.6 186.8 188.7 190.1 190.2 190.3 189 186.7 183.2 180.2 177.8 179.9 180.2
-2.7 -2.7 -2.7 -2.7 -2.7 -2.7 -2.7 -2.7 -2.7 -2.7 -2.7 -2.7 -2.7 -2.7 -2.7 -2.7 -2.7 -2.7 -2.7 -2.7 -2.7 -2.7 -2.7 -2.7 -2.7 -2.7 -2.7 -2.7 -2.7 -2.7 -2.7 -2.7 -2.7 -2.7 -2.7 -2.7 -2.7 -2.7 -2.7 -2.7 -2.7 -2.7 -2.7 -2.7 -2.7 -2.7 -2.7 -2.7 -2.7 -2.7 -2.7 -2.7 -2.7 -2.7 -2.7 -2.7 -2.7 -2.7 -2.7 -2.7 -2.7 -2.7 -2.7 -2.7 -2.7 -2.7 -2.7 -2.7 -2.7 -2.7 -2.7 -2.7 -2.7 -2.7 -2.7 -2.7 -2.7 -2.7 -2.7 -2.7 -2.7 -2.7 -2.7 -2.7 -2.7 -2.7 -2.7 -2.7 -2.7 -2.7 -2.7 -2.7 -2.7 -2.7 -2.7 -2.7 -2.7 -2.7 -2.7 -2.7 -2.7 -2.7 -2.7 -2.7 -1.1 0.7 2.5 25.7 45 58.1 74.4 100 105.4 101.7 87 70.4 62.8 58.9 78.6 89.5 104.4 125.2 127.4 126.1 117.3 116.5 121.1 129.2 135.9 140.1 141 143 145.6 149.8 152.7 156.8 160.3 163.6 166.6 168.7 170.3 172.4 174.4 175.8 176.8 177.1 178.8 178.6 178.8 179.4 178.7 178.7 177.3 176.2 176.9 176.1 174.2 172.2 175.5 172.8 168.6 162.2 147.8 131.8 116.2 97.3 105.3 100.1 90.9 108 121.2 132.3 144.1 151.8 150.7 148.1 149.3 162 163.2 168.7 170.5 170.7 170.2 174.1 177.3 180.1 183.5 186.1 187.4 188.1 188.5 187.4 186.4 182.5 180.3 176.4 173.3 175.4 176.9 177.2
-2.7 -2.7 -2.7 -2.7 -2.7 -2.7 -2.7 -2.7 -2.7 -2.7 -2.7 -2.7 -2.7 -2.7 -2.7 -2.7 -2.7 -2.7 -2.7 -2.7 -2.7 -2.7 -2.7 -2.7 -2.7 -2.7 -2.7 -2.7 -2.7 -2.7 -2.7 -2.7 -2.7 -2.7 -2.7 -2.7 -2.7 -2.7 -2.7 -2.7 -2.7 -2.7 -2.7 -2.7 -2.7 -2.7 -2.7 -2.7 -2.7 -2.7 -2.7 -2.7 -2.7 -2.7 -2.7 -2.7 -2.7 -2.7 -2.7 -2.7 -2.7 -2.7 -2.7 -2.7 -2.7 -2.7 -2.7 -2.7 -2.7 -2.7 -2.7 -2.7 -2.7 -2.7 -2.7 -2.7 -2.7 -2.7 -2.7 -2.7 -2.7 -2.7 -2.7 -2.7 -2.7 -2.7 -2.7 -2.7 -2.7 -2.7 -2.7 -2.7 -2.7 -2.7 -2.7 -2.7 -2.7 -2.7 -2.7 -2.7 -2.7 -2.7 -2.7 -2.7 -1.3 0.8 2.8 27.8 42.1 56.9 72.9 83.2 93.4 82.7 66.8 52.8 52.4 66.3 86.2 111.9 122.5 129 132.1 132.6 132.4 128.5 126 126.9 127.5 133.7 140.2 144.6 146.3 151.1 155.8 160.7 164.6 167.6 171 173.9 173.4 174.5 176.1 177.4 178.7 179.6 179.5 181.4 181.7 182.1 180.7 180.8 180.4 176.4 176.2 176.9 174.9 174.4 174.6 173.9 169.9 164.9 161.7 150.9 130.7 105.3 120.5 123.6 114.9 108.6 101 113.1 133.6 131.9 142.9 154.6 159.9 164.3 169.1 173.5 174 173.7 173.1 173.5 177.2 180.6 182.9 185.2 186.3 185.4 183.1 181.4 179.9 178.7 177.1 172 164.5 159.7 158.1 160.2
-2.7 -2.7 -2.7 -2.7 -2.7 -2.7 -2.7 -2.7 -2.7 -2.7 -2.7 -2.7 -2.7 -2.7 -2.7 -2.7 -2.7 -2.7 -2.7 -2.7 -2.7 -2.7 -2.7 -2.7 -2.7 -2.7 -2.7 -2.7 -2.7 -2.7 -2.7 -2.7 -2.7 -2.7 -2.7 -2.7 -2.7 -2.7 -2.7 -2.7 -2.7 -2.7 -2.7 -2.7 -2.7 -2.7 -2.7 -2.7 -2.7 -2.7 -2.7 -2.7 -2.7 -2.7 -2.7 -2.7 -2.7 -2.7 -2.7 -2.7 -2.7 -2.7 -2.7 -2.7 -2.7 -2.7 -2.7 -2.7 -2.7 -2.7 -2.7 -2.7 -2.7 -2.7 -2.7 -2.7 -2.7 -2.7 -2.7 -2.7 -2.7 -2.7 -2.7 -2.7 -2.7 -2.7 -2.7 -2.7 -2.7 -2.7 -2.7 -2.7 -2.7 -2.7 -2.7 -2.7 -2.7 -2.7 -2.7 -2.7 -2.7 -2.7 -2.7 -2.7 -1.8 0.1 1.9 3.2 27.8 51.3 63.1 78.6 74.2 64.6 53.3 45.2 57.2 76.2 102.7 122.8 128.7 132.6 135.3 138.7 139.1 138.9 135.3 135.5 136.1 136.2 138 143.3 148.5 152.7 158 162.3 167.5 169 171.8 173.6 174.9 176.4 176.6 177.9 179.1 180.2 181.7 182.5 184.3 184.1 182.9 181.8 180.1 178.4 177.7 177.8 176.9 176.2 175 173.4 172 170 165.6 157.5 142.3 119.2 121.9 132.5 132.8 132.7 130.6 126.3 120.6 145.1 151.8 155.5 159.7 163.9 168.3 172.9 175.4 175.5 176.2 176.4 176.6 179.9 182.1 183.2 184.2 182.7 181.4 179.2 177.8 174.6 165.5 173.8 173.1 174.3 177.3 178.9
-2.7 -2.7 -2.7 -2.7 -2.7 -2.7 -2.7 -2.7 -2.7 -2.7 -2.7 -2.7 -2.7 -2.7 -2.7 -2.7 -2.7 -2.7 -2.7 -2.7 -2.7 -2.7 -2.7 -2.7 -2.7 -2.7 -2.7 -2.7 -2.7 -2.7 -2.7 -2.7 -2.7 -2.7 -2.7 -2.7 -2.7 -2.7 -2.7 -2.7 -2.7 -2.7 -2.7 -2.7 -2.7 -2.7 -2.7 -2.7 -2.7 -2.7 -2.7 -2.7 -2.7 -2.7 -2.7 -2.7 -2.7 -2.7 -2.7 -2.7 -2.7 -2.7 -2.7 -2.7 -2.7 -2.7 -2.7 -2.7 -2.7 -2.7 -2.7 -2.7 -2.7 -2.7 -2.7 -2.7 -2.7 -2.7 -2.7 -2.7 -2.7 -2.7 -2.7 -2.7 -2.7 -2.7 -2.7 -2.7 -2.7 -2.7 -2.7 -2.7 -2.7 -2.7 -2.7 -2.7 -2.7 -2.7 -2.7 -2.7 -2.7 -2.7 -2.7 -2.7 -1.6 -0.3 1.1 2.5 30.3 43.9 55 57.4 54 47 42.7 45.4 61.3 84.2 112.6 128.2 135.3 138.1 140.8 144.4 144.1 143 139.9 139.6 140.1 142 143.3 143.4 149.1 155.6 156.5 161.4 166.4 169.1 171.7 173.4 174.7 175.9 176.9 178.1 179.2 180.9 182.6 184.5 185.8 184.8 184.8 184.8 183.4 182.7 180.8 180.7 180.5 179.6 178.7 176.9 175 172.7 168.1 159.7 147.3 134.9 118.6 138.2 150.3 152.5 150.1 148.8 137.2 142.8 150.2 156.3 160.2 163.6 167.6 172 176.1 177.7 179 178.5 177.9 178.1 177.3 173.3 178.8 179.1 178.1 169.6 171.1 176.6 176.8 176.5 175.8 176.1 178.3 179.7
-2.7 -2.7 -2.7 -2.7 -2.7 -2.7 -2.7 -2.7 -2.7 -2.7 -2.7 -2.7 -2.7 -2.7 -2.7 -2.7 -2.7 -2.7 -2.7 -2.7 -2.7 -2.7 -2.7 -2.7 -2.7 -2.7 -2.7 -2.7 -2.7 -2.7 -2.7 -2.7 -2.7 -2.7 -2.7 -2.7 -2.7 -2.7 -2.7 -2.7 -2.7 -2.7 -2.7 -2.7 -2.7 -2.7 -2.7 -2.7 -2.7 -2.7 -2.7 -2.7 -2.7 -2.7 -2.7 -2.7 -2.7 -2.7 -2.7 -2.7 -2.7 -2.7 -2.7 -2.7 -2.7 -2.7 -2.7 -2.7 -2.7 -2.7 -2.7 -2.7 -2.7 -2.7 -2.7 -2.7 -2.7 -2.7 -2.7 -2.7 -2.7 -2.7 -2.7 -2.7 -2.7 -2.7 -2.7 -2.7 -2.7 -2.7 -2.7 -2.7 -2.7 -2.7 -2.7 -2.7 -2.7 -2.7 -2.7 -2.7 -2.7 -2.7 -2.7 -2.7 -2.7 -0.5 0.7 2.2 3.2 4.3 29 36.6 35.7 34.1 36.4 50.4 71.5 92.9 112.4 124.2 132.7 141 144.3 148.3 147.5 144.8 143 142.5 143.3 145.4 148.2 149.5 149.7 151.4 154 157.9 162.7 169.8 172.4 173.2 174.4 175.8 177 178.5 179.7 181.7 183.1 184 184.8 185.5 185.7 186.1 185.7 185.5 184.7 184.1 183.4 184.1 183.8 181.9 179.3 175.4 170.4 164.7 154.4 144.3 128 135.2 147.2 154.2 155.9 157.8 157.6 149.4 151.8 157.9 162.5 165.7 169.3 173.3 178 179.5 180.3 181 180.3 180.4 181.6 181.5 181.3 180.9 180.7 180.4 180.1 180.6 180.6 181.6 180 176.8 175.8 177.4
-2.7 -2.7 -2.7 -2.7 -2.7 -2.7 -2.7 -2.7 -2.7 -2.7 -2.7 -2.7 -2.7 -2.7 -2.7 -2.7 -2.7 -2.7 -2.7 -2.7 -2.7 -2.7 -2.7 -2.7 -2.7 -2.7 -2.7 -2.7 -2.7 -2.7 -2.7 -2.7 -2.7 -2.7 -2.7 -2.7 -2.7 -2.7 -2.7 -2.7 -2.7 -2.7 -2.7 -2.7 -2.7 -2.7 -2.7 -2.7 -2.7 -2.7 -2.7 -2.7 -2.7 -2.7 -2.7 -2.7 -2.7 -2.7 -2.7 -2.7 -2.7 -2.7 -2.7 -2.7 -2.7 -2.7 -2.7 -2.7 -2.7 -2.7 -2.7 -2.7 -2.7 -2.7 -2.7 -2.7 -2.7 -2.7 -2.7 -2.7 -2.7 -2.7 -2.7 -2.7 -2.7 -2.7 -2.7 -2.7 -2.7 -2.7 -2.7 -2.7 -2.7 -2.7 -2.7 -2.7 -2.7 -2.7 -2.7 -2.7 -2.7 -2.7 -2.7 -2.7 -2.7 -0.7 0.8 2.3 3.2 3.2 19.3 23.4 28.3 33.8 47.3 62.6 83.3 101.7 112.8 121.9 132.1 136.9 142.8 144.5 145.9 147 147.9 145.5 145.8 148 150.9 151.8 151.4 151.8 153.3 155.9 160.1 165.6 170.2 172.9 174.5 176.3 178.6 179.5 180.9 182.1 182.4 183.4 183.9 185.2 185.8 186.3 187.2 187.5 186.6 186.2 186.6 187.6 187.3 185.4 183.1 179.2 175.2 169.3 162.6 151.4 142.9 140.1 142.6 149.3 158.1 161.3 160.4 160.9 158.1 160.3 165.7 169.3 172.5 175.8 179.3 181.8 182.3 182.8 181.6 181.9 182.5 182.6 182.4 182.2 182.2 182.4 182.8 183.7 185.3 185.8 185.1 182.2 176.4 176.4
-2.7 -2.7 -2.7 -2.7 -2.7 -2.7 -2.7 -2.7 -2.7 -2.7 -2.7 -2.7 -2.7 -2.7 -2.7 -2.7 -2.7 -2.7 -2.7 -2.7 -2.7 -2.7 -2.7 -2.7 -2.7 -2.7 -2.7 -2.7 -2.7 -2.7 -2.7 -2.7 -2.7 -2.7 -2.7 -2.7 -2.7 -2.7 -2.7 -2.7 -2.7 -2.7 -2.7 -2.7 -2.7 -2.7 -2.7 -2.7 -2.7 -2.7 -2.7 -2.7 -2.7 -2.7 -2.7 -2.7 -2.7 -2.7 -2.7 -2.7 -2.7 -2.7 -2.7 -2.7 -2.7 -2.7 -2.7 -2.7 -2.7 -2.7 -2.7 -2.7 -2.7 -2.7 -2.7 -2.7 -2.7 -2.7 -2.7 -2.7 -2.7 -2.7 -2.7 -2.7 -2.7 -2.7 -2.7 -2.7 -2.7 -2.7 -2.7 -2.7 -2.7 -2.7 -2.7 -2.7 -2.7 -2.7 -2.7 -2.7 -2.7 -2.7 -2.7 -2.7 -2.7 -0.6 0.9 2.3 3.2 3.2 6 24.2 29.7 36.8 48.2 62.9 78.3 94.2 107.1 116.6 123.3 129.7 134.5 138.2 141.6 144.1 146.2 147.5 148.8 151 151.8 152.2 153.1 153.3 154.9 158.6 163.5 168.1 170.8 173.1 175.2 176.6 178.7 179.6 181 181.4 183 183.9 184.4 185.5 186 185.8 186.1 187.6 188.7 189.3 189.8 190.3 189.7 188.1 185.1 183.1 179.6 174.7 168.3 162.3 161.1 159.2 157.2 158.9 158.1 167.4 168.6 168.6 167.8 162 167.9 173.5 179.7 180.3 182.7 185.2 185.1 184.4 183.5 183.6 184.1 184.5 184.7 184.7 184.4 184.3 185.1 186.4 188 188.3 188.2 188.2 186.7 185.6
-2.7 -2.7 -2.7 -2.7 -2.7 -2.7 -2.7 -2.7 -2.7 -2.7 -2.7 -2.7 -2.7 -2.7 -2.7 -2.7 -2.7 -2.7 -2.7 -2.7 -2.7 -2.7 -2.7 -2.7 -2.7 -2.7 -2.7 -2.7 -2.7 -2.7 -2.7 -2.7 -2.7 -2.7 -2.7 -2.7 -2.7 -2.7 -2.7 -2.7 -2.7 -2.7 -2.7 -2.7 -2.7 -2.7 -2.7 -2.7 -2.7 -2.7 -2.7 -2.7 -2.7 -2.7 -2.7 -2.7 -2.7 -2.7 -2.7 -2.7 -2.7 -2.7 -2.7 -2.7 -2.7 -2.7 -2.7 -2.7 -2.7 -2.7 -2.7 -2.7 -2.7 -2.7 -2.7 -2.7 -2.7 -2.7 -2.7 -2.7 -2.7 -2.7 -2.7 -2.7 -2.7 -2.7 -2.7 -2.7 -2.7 -2.7 -2.7 -2.7 -2.7 -2.7 -2.7 -2.7 -2.7 -2.7 -2.7 -2.7 -2.7 -2.7 -2.7 -2.7 -2.7 0 1.5 2.6 3.8 4.7 24.8 32.3 39.3 48.9 62.7 76.2 89 100 110.4 117.8 123.2 127.9 131.2 133.7 135.3 137.5 141.6 145.1 147.8 151.3 152.6 152.9 154 155.1 157.3 161.4 165.4 169 171.8 174.2 175.4 176.4 178.3 177.7 179.9 181.3 182.9 184 184.7 185.4 183.8 184.1 186 187.7 190.6 191.7 192.7 192.6 191.1 190.1 187.9 185.6 181.6 177.6 173.6 171.1 168.6 167.8 168.2 168.3 168.3 170.8 175.6 176.6 175.7 173.7 176.3 175.5 180.7 184.1 186.3 188.9 188.7 186.8 185.4 185.4 186.1 186.7 186.6 186.3 187 187.4 188.7 189.4 190.1 190.7 191.6 192.2 192.6 192.9
-2.7 -2.7 -2.7 -2.7 -2.7 -2.7 -2.7 -2.7 -2.7 -2.7 -2.7 -2.7 -2.7 -2.7 -2.7 -2.7 -2.7 -2.7 -2.7 -2.7 -2.7 -2.7 -2.7 -2.7 -2.7 -2.7 -2.7 -2.7 -2.7 -2.7 -2.7 -2.7 -2.7 -2.7 -2.7 -2.7 -2.7 -2.7 -2.7 -2.7 -2.7 -2.7 -2.7 -2.7 -2.7 -2.7 -2.7 -2.7 -2.7 -2.7 -2.7 -2.7 -2.7 -2.7 -2.7 -2.7 -2.7 -2.7 -2.7 -2.7 -2.7 -2.7 -2.7 -2.7 -2.7 -2.7 -2.7 -2.7 -2.7 -2.7 -2.7 -2.7 -2.7 -2.7 -2.7 -2.7 -2.7 -2.7 -2.7 -2.7 -2.7 -2.7 -2.7 -2.7 -2.7 -2.7 -2.7 -2.7 -2.7 -2.7 -2.7 -2.7 -2.7 -2.7 -2.7 -2.7 -2.7 -2.7 -2.7 -2.7 -2.7 -2.7 -2.7 -2.7 -2.7 0 2.1 9.7 19.5 25.1 32.8 43.1 54 66.5 75.9 84.1 93.7 103.6 110.4 117.4 123.1 127.3 130.5 131.8 132.1 134.2 137.2 140.4 144.5 148.3 151.4 153.9 158.5 159 160.7 164.1 168.4 171.8 174 175 176 176.2 176.4 176.4 178.7 180.1 181.5 182.3 182.5 182.4 184 184.8 187.3 189.7 191.8 192.6 194.5 195.6 193.7 192.3 191.3 189.2 186.5 182.3 179.6 177.5 176.1 173.2 172.9 173.9 173.5 174.3 176.7 179.6 181.1 181.5 177.4 180.9 184.3 186.6 188.4 190.6 190.8 189.8 187.8 187.3 187.4 187.4 187.5 188.4 189.7 191.2 192.7 193.3 193.5 194 194.8 195.5 195.7 196.2
-2.7 -2.7 -2.7 -2.7 -2.7 -2.7 -2.7 -2.7 -2.7 -2.7 -2.7 -2.7 -2.7 -2.7 -2.7 -2.7 -2.7 -2.7 -2.7 -2.7 -2.7 -2.7 -2.7 -2.7 -2.7 -2.7 -2.7 -2.7 -2.7 -2.7 -2.7 -2.7 -2.7 -2.7 -2.7 -2.7 -2.7 -2.7 -2.7 -2.7 -2.7 -2.7 -2.7 -2.7 -2.7 -2.7 -2.7 -2.7 -2.7 -2.7 -2.7 -2.7 -2.7 -2.7 -2.7 -2.7 -2.7 -2.7 -2.7 -2.7 -2.7 -2.7 -2.7 -2.7 -2.7 -2.7 -2.7 -2.7 -2.7 -2.7 -2.7 -2.7 -2.7 -2.7 -2.7 -2.7 -2.7 -2.7 -2.7 -2.7 -2.7 -2.7 -2.7 -2.7 -2.7 -2.7 -2.7 -2.7 -2.7 -2.7 -2.7 -2.7 -2.7 -2.7 -2.7 -2.7 -2.7 -2.7 -2.7 -2.7 -2.7 -2.7 -2.7 -2.7 -2.7 0.9 2.9 12.9 19.9 25.8 41.6 60.1 72.2 86.1 87.7 92.2 98.8 112.4 117.1 118.6 120.5 123.8 126.2 127.6 129.6 132.5 135.2 138.8 142.5 145.7 148.7 154.5 157.9 161.4 164.3 168.9 170.9 174.3 175 174.1 174.5 173.6 173.6 175.5 177.7 177.3 177.8 180.2 178.7 180.4 183.3 186 187.5 188.9 191.5 192.2 194.6 196 195.6 194.9 194.7 193.4 191.1 187.8 185.7 183.8 182.1 180.8 179.4 178.1 177.3 177.8 179.3 180.9 182.5 183.1 183.9 182.7 185.9 187.4 189.1 189 189.4 188.6 188.3 188 187.9 188.6 189 189.8 191.9 194 195.6 196.6 196.8 197 197.3 197.4 197.6 197.9
-2.7 -2.7 -2.7 -2.7 -2.7 -2.7 -2.7 -2.7 -2.7 -2.7 -2.7 -2.7 -2.7 -2.7 -2.7 -2.7 -2.7 -2.7 -2.7 -2.7 -2.7 -2.7 -2.7 -2.7 -2.7 -2.7 -2.7 -2.7 -2.7 -2.7 -2.7 -2.7 -2.7 -2.7 -2.7 -2.7 -2.7 -2.7 -2.7 -2.7 -2.7 -2.7 -2.7 -2.7 -2.7 -2.7 -2.7 -2.7 -2.7 -2.7 -2.7 -2.7 -2.7 -2.7 -2.7 -2.7 -2.7 -2.7 -2.7 -2.7 -2.7 -2.7 -2.7 -2.7 -2.7 -2.7 -2.7 -2.7 -2.7 -2.7 -2.7 -2.7 -2.7 -2.7 -2.7 -2.7 -2.7 -2.7 -2.7 -2.7 -2.7 -2.7 -2.7 -2.7 -2.7 -2.7 -2.7 -2.7 -2.7 -2.7 -2.7 -2.7 -2.7 -2.7 -2.7 -2.7 -2.7 -2.7 -2.7 -2.7 -2.7 -2.7 -2.7 -2.7 -1.2 1.3 4.5 3.2 13.4 31.3 46.2 59.2 69 81.2 89 95.4 99.4 106.7 113.3 117 123 129.3 124.5 121.8 125.4 129.5 132.5 135.4 139.2 143.1 146.7 152.2 156 159.8 164.2 168.5 170.6 171.2 169.9 168.9 168.2 166.7 169.9 170.7 170.6 173.7 174.6 173.7 175.2 178.5 180.2 183.1 184.3 186.4 189.7 191.6 193.6 194.5 196.1 197.2 197.5 196.7 195.4 191.9 189.3 188 187 185.4 183.4 182 181.6 182 183.9 184.9 185.3 186 186.8 185.7 187.4 188 187.8 188.3 188.4 188.3 188.6 188.7 188.8 189.6 190 191.1 192.9 194.5 196.1 197.8 198.5 198.7 199 199.1 199.7 200.4
-2.7 -2.7 -2.7 -2.7 -2.7 -2.7 -2.7 -2.7 -2.7 -2.7 -2.7 -2.7 -2.7 -2.7 -2.7 -2.7 -2.7 -2.7 -2.7 -2.7 -2.7 -2.7 -2.7 -2.7 -2.7 -2.7 -2.7 -2.7 -2.7 -2.7 -2.7 -2.7 -2.7 -2.7 -2.7 -2.7 -2.7 -2.7 -2.7 -2.7 -2.7 -2.7 -2.7 -2.7 -2.7 -2.7 -2.7 -2.7 -2.7 -2.7 -2.7 -2.7 -2.7 -2.7 -2.7 -2.7 -2.7 -2.7 -2.7 -2.7 -2.7 -2.7 -2.7 -2.7 -2.7 -2.7 -2.7 -2.7 -2.7 -2.7 -2.7 -2.7 -2.7 -2.7 -2.7 -2.7 -2.7 -2.7 -2.7 -2.7 -2.7 -2.7 -2.7 -2.7 -2.7 -2.7 -2.7 -2.7 -2.7 -2.7 -2.7 -2.7 -2.7 -2.7 -2.7 -2.7 -2.7 -2.7 -2.7 -2.7 -2.7 -2.7 -2.7 -2.7 -1.1 0.7 2.1 3.2 19.6 28 46 59.2 73 83.2 88.2 95.6 96.6 98.6 108 111.7 123.7 121.5 115.4 113.6 120.7 123.4 127 130.7 135.4 138.8 144.5 148.2 152.4 156.6 161.6 164.4 166.5 167 165.3 164.2 162.1 161.5 161.6 162.6 163.4 163.9 166.2 167.7 174.1 176.6 178.6 181.4 181.8 182.5 184.9 188.1 190.2 192.3 194.5 196.4 199.3 200.4 199.7 197.7 193.8 192.2 190.5 188.6 186.3 185.6 185.5 186.4 188 189.1 189.1 189.5 188.7 188.4 188.4 188.1 188.5 188.7 188.7 189.2 189.2 189.8 189.9 190.4 191.3 192.5 193.6 195.5 196.5 198.2 198.7 199.1 200.3 201 201.6 201.7
-2.7 -2.7 -2.7 -2.7 -2.7 -2.7 -2.7 -2.7 -2.7 -2.7 -2.7 -2.7 -2.7 -2.7 -2.7 -2.7 -2.7 -2.7 -2.7 -2.7 -2.7 -2.7 -2.7 -2.7 -2.7 -2.7 -2.7 -2.7 -2.7 -2.7 -2.7 -2.7 -2.7 -2.7 -2.7 -2.7 -2.7 -2.7 -2.7 -2.7 -2.7 -2.7 -2.7 -2.7 -2.7 -2.7 -2.7 -2.7 -2.7 -2.7 -2.7 -2.7 -2.7 -2.7 -2.7 -2.7 -2.7 -2.7 -2.7 -2.7 -2.7 -2.7 -2.7 -2.7 -2.7 -2.7 -2.7 -2.7 -2.7 -2.7 -2.7 -2.7 -2.7 -2.7 -2.7 -2.7 -2.7 -2.7 -2.7 -2.7 -2.7 -2.7 -2.7 -2.7 -2.7 -2.7 -2.7 -2.7 -2.7 -2.7 -2.7 -2.7 -2.7 -2.7 -2.7 -2.7 -2.7 -2.7 -2.7 -2.7 -2.7 -2.7 -2.7 -2.7 -2.7 -0.4 1.2 2.9 17.5 29.1 42.2 59.7 68.9 71.4 74.6 77.5 82.8 90.1 94.6 101.4 107.8 104.8 102 104.9 109.7 114.3 120.1 125.1 129.2 132.7 136.1 140 144.3 151.1 154.2 158.4 161.8 160 159.5 158.4 157.8 153.8 154 156.9 154 153.7 159 167.8 173.2 176 177.5 178 178.9 181 183.9 186.7 189 190.9 193.4 196.2 198.6 200.7 200.3 199.2 196.8 194 191.9 190.4 189.8 189 189.2 190.4 191.7 191.8 192.6 193 192.2 192.2 192.9 192.1 190.5 190.1 190.6 191.3 191.3 191.6 192.5 192.9 193.7 194.2 194.8 196.1 197 198.5 199.6 199 199.8 200.9 202 202.9
-2.7 -2.7 -2.7 -2.7 -2.7 -2.7 -2.7 -2.7 -2.7 -2.7 -2.7 -2.7 -2.7 -2.7 -2.7 -2.7 -2.7 -2.7 -2.7 -2.7 -2.7 -2.7 -2.7 -2.7 -2.7 -2.7 -2.7 -2.7 -2.7 -2.7 -2.7 -2.7 -2.7 -2.7 -2.7 -2.7 -2.7 -2.7 -2.7 -2.7 -2.7 -2.7 -2.7 -2.7 -2.7 -2.7 -2.7 -2.7 -2.7 -2.7 -2.7 -2.7 -2.7 -2.7 -2.7 -2.7 -2.7 -2.7 -2.7 -2.7 -2.7 -2.7 -2.7 -2.7 -2.7 -2.7 -2.7 -2.7 -2.7 -2.7 -2.7 -2.7 -2.7 -2.7 -2.7 -2.7 -2.7 -2.7 -2.7 -2.7 -2.7 -2.7 -2.7 -2.7 -2.7 -2.7 -2.7 -2.7 -2.7 -2.7 -2.7 -2.7 -2.7 -2.7 -2.7 -2.7 -2.7 -2.7 -2.7 -2.7 -2.7 -2.7 -2.7 -2.7 -2.7 -0.5 1.2 2.8 12.5 23.8 33.7 47.3 54.5 62.8 65.6 68.7 72.3 75.8 80.4 86.1 88 91.4 93.1 96.9 102.8 107.5 113.6 118.7 122.4 125.6 128.7 132.5 138.6 146.2 144.8 150.9 150.9 150.6 150.9 149.9 145.8 141.2 137.7 139 141.1 145.2 153 159.8 166.7 170.1 172.8 174.4 176 178 180.6 183.4 185.9 189 191.6 193.7 196 198.8 198.3 197.7 195.8 194.9 193.1 192.4 192 190.9 191.8 193 194.2 194.6 195.6 196.4 196.8 196.5 196 195.6 194.6 193.4 192.7 193.7 193.8 194.7 195 195.3 194.2 194.4 195.6 196.6 198.3 199 199.9 200 200.4 201.1 201.5 201.7
-2.7 -2.7 -2.7 -2.7 -2.7 -2.7 -2.7 -2.7 -2.7 -2.7 -2.7 -2.7 -2.7 -2.7 -2.7 -2.7 -2.7 -2.7 -2.7 -2.7 -2.7 -2.7 -2.7 -2.7 -2.7 -2.7 -2.7 -2.7 -2.7 -2.7 -2.7 -2.7 -2.7 -2.7 -2.7 -2.7 -2.7 -2.7 -2.7 -2.7 -2.7 -2.7 -2.7 -2.7 -2.7 -2.7 -2.7 -2.7 -2.7 -2.7 -2.7 -2.7 -2.7 -2.7 -2.7 -2.7 -2.7 -2.7 -2.7 -2.7 -2.7 -2.7 -2.7 -2.7 -2.7 -2.7 -2.7 -2.7 -2.7 -2.7 -2.7 -2.7 -2.7 -2.7 -2.7 -2.7 -2.7 -2.7 -2.7 -2.7 -2.7 -2.7 -2.7 -2.7 -2.7 -2.7 -2.7 -2.7 -2.7 -2.7 -2.7 -2.7 -2.7 -2.7 -2.7 -2.7 -2.7 -2.7 -2.7 -2.7 -2.7 -2.7 -2.7 -2.7 -2.7 -0.6 1 2.5 5 16.1 21.5 34.7 40.7 48.4 54.8 60.9 62.9 66.2 68.2 70 71.5 76.8 83.7 88.9 94 100 105.9 111.5 115 117.8 120.4 123.9 127.2 132 135.7 139.2 142.2 142.9 142.8 141.7 136.2 129.5 127.4 129.7 133.9 139.2 145.3 151.8 155.9 163.1 166.5 169.2 172.2 174.9 178 180.5 183.3 186.4 189 191.4 192.7 194.4 193.5 193.5 193.1 193.7 193.8 193.5 193.1 193.1 193.6 194.8 196.4 197.8 199.8 200.9 201.3 200.2 199.5 199.2 197.8 196.6 195.3 195.3 195.2 197.3 197.9 197.2 196.3 195.7 195.9 196.7 198.3 199.6 200.3 200.5 200.7 200.4 200.3 200.5
-2.7 -2.7 -2.7 -2.7 -2.7 -2.7 -2.7 -2.7 -2.7 -2.7 -2.7 -2.7 -2.7 -2.7 -2.7 -2.7 -2.7 -2.7 -2.7 -2.7 -2.7 -2.7 -2.7 -2.7 -2.7 -2.7 -2.7 -2.7 -2.7 -2.7 -2.7 -2.7 -2.7 -2.7 -2.7 -2.7 -2.7 -2.7 -2.7 -2.7 -2.7 -2.7 -2.7 -2.7 -2.7 -2.7 -2.7 -2.7 -2.7 -2.7 -2.7 -2.7 -2.7 -2.7 -2.7 -2.7 -2.7 -2.7 -2.7 -2.7 -2.7 -2.7 -2.7 -2.7 -2.7 -2.7 -2.7 -2.7 -2.7 -2.7 -2.7 -2.7 -2.7 -2.7 -2.7 -2.7 -2.7 -2.7 -2.7 -2.7 -2.7 -2.7 -2.7 -2.7 -2.7 -2.7 -2.7 -2.7 -2.7 -2.7 -2.7 -2.7 -2.7 -2.7 -2.7 -2.7 -2.7 -2.7 -2.7 -2.7 -2.7 -2.7 -2.7 -2.7 -2.7 -0.7 0.8 2.3 4 12.8 18.4 23.3 32 39.8 47.7 53.4 54.4 55.3 57.3 59.1 65.1 72.3 75.2 79.3 86.3 93.6 97.9 102.1 106.3 109.5 112.8 116.3 119.9 125.1 129.9 133.6 134.1 132.4 131.6 128.8 124.5 121 121.1 128.3 136.6 142.4 146.6 149.7 153.7 158.4 162.4 165.9 168.7 171.4 175.2 178.4 181.4 183.7 186.3 188.2 188.8 189.7 189.7 189.7 190 190.4 191.2 190.9 192.5 191.6 193.1 195.6 197.4 199.5 201.7 202.7 202.7 201.8 201 200.9 199.7 198.2 198.1 198.4 198.4 199.5 199.6 199.7 198.9 198.3 197.6 197.2 197.7 198.8 199.6 199.9 199.7 198.9 198.8 197.9
-2.7 -2.7 -2.7 -2.7 -2.7 -2.7 -2.7 -2.7 -2.7 -2.7 -2.7 -2.7 -2.7 -2.7 -2.7 -2.7 -2.7 -2.7 -2.7 -2.7 -2.7 -2.7 -2.7 -2.7 -2.7 -2.7 -2.7 -2.7 -2.7 -2.7 -2.7 -2.7 -2.7 -2.7 -2.7 -2.7 -2.7 -2.7 -2.7 -2.7 -2.7 -2.7 -2.7 -2.7 -2.7 -2.7 -2.7 -2.7 -2.7 -2.7 -2.7 -2.7 -2.7 -2.7 -2.7 -2.7 -2.7 -2.7 -2.7 -2.7 -2.7 -2.7 -2.7 -2.7 -2.7 -2.7 -2.7 -2.7 -2.7 -2.7 -2.7 -2.7 -2.7 -2.7 -2.7 -2.7 -2.7 -2.7 -2.7 -2.7 -2.7 -2.7 -2.7 -2.7 -2.7 -2.7 -2.7 -2.7 -2.7 -2.7 -2.7 -2.7 -2.7 -2.7 -2.7 -2.7 -2.7 -2.7 -2.7 -2.7 -2.7 -2.7 -2.7 -2.7 -2.7 -1.1 0.5 1.9 3.2 11.7 15.2 20.6 25.2 32.8 42.1 46.5 48.6 47.3 46.3 49.2 54.3 60.3 65.9 71.2 78.2 85.4 88.3 94.2 98 101.6 107.3 108.8 112.1 116.8 121.4 124.9 122.7 119.1 116.2 113.1 112 112.7 124 136.9 142.6 146.7 151.6 156.3 158.8 160.7 163.3 165.9 169.2 171.3 174.1 176.7 180.1 182.1 183.2 184.4 185.6 186.1 186.7 186.7 187.4 187.8 187.7 188.5 189.4 190.7 192.2 193.3 196.6 199.3 201.9 202.4 202 201.3 201.1 201.1 200.4 199.9 200.3 201.3 201.2 201.1 200.9 200.7 199.8 198.8 197.8 197.4 197.1 197.6 198 198.2 197.8 197.1 196.2 195.1
-2.7 -2.7 -2.7 -2.7 -2.7 -2.7 -2.7 -2.7 -2.7 -2.7 -2.7 -2.7 -2.7 -2.7 -2.7 -2.7 -2.7 -2.7 -2.7 -2.7 -2.7 -2.7 -2.7 -2.7 -2.7 -2.7 -2.7 -2.7 -2.7 -2.7 -2.7 -2.7 -2.7 -2.7 -2.7 -2.7 -2.7 -2.7 -2.7 -2.7 -2.7 -2.7 -2.7 -2.7 -2.7 -2.7 -2.7 -2.7 -2.7 -2.7 -2.7 -2.7 -2.7 -2.7 -2.7 -2.7 -2.7 -2.7 -2.7 -2.7 -2.7 -2.7 -2.7 -2.7 -2.7 -2.7 -2.7 -2.7 -2.7 -2.7 -2.7 -2.7 -2.7 -2.7 -2.7 -2.7 -2.7 -2.7 -2.7 -2.7 -2.7 -2.7 -2.7 -2.7 -2.7 -2.7 -2.7 -2.7 -2.7 -2.7 -2.7 -2.7 -2.7 -2.7 -2.7 -2.7 -2.7 -2.7 -2.7 -2.7 -2.7 -2.7 -2.7 -2.7 -2.7 -1.3 0 1.3 2.6 5.9 12.7 15.4 18.7 21.4 28.7 31.9 31.6 35 34.4 42.1 45.8 51.8 55.7 62.5 68.3 76.1 83.4 88.5 90.4 93.9 97.3 101.6 105.3 107.7 109.2 109.3 107.5 106 100.2 97.2 102 116.2 134.9 146.2 146.9 147.5 149.9 154.3 161.3 163.5 165.6 169 171.7 173.7 175.4 177.3 180 180.8 181.4 182.4 183.3 183.5 184.1 184.6 185 185.5 186.3 187.6 188.1 188.8 190.1 192.2 195.2 197.7 199.5 200 200.4 200.7 200.5 200.7 201.2 200.6 201.1 201.9 202.2 201.9 200.8 200 199.1 198 196.6 196.3 195.8 195.8 196.1 195.8 195.5 194.7 192.4 191.5
-2.7 -2.7 -2.7 -2.7 -2.7 -2.7 -2.7 -2.7 -2.7 -2.7 -2.7 -2.7 -2.7 -2.7 -2.7 -2.7 -2.7 -2.7 -2.7 -2.7 -2.7 -2.7 -2.7 -2.7 -2.7 -2.7 -2.7 -2.7 -2.7 -2.7 -2.7 -2.7 -2.7 -2.7 -2.7 -2.7 -2.7 -2.7 -2.7 -2.7 -2.7 -2.7 -2.7 -2.7 -2.7 -2.7 -2.7 -2.7 -2.7 -2.7 -2.7 -2.7 -2.7 -2.7 -2.7 -2.7 -2.7 -2.7 -2.7 -2.7 -2.7 -2.7 -2.7 -2.7 -2.7 -2.7 -2.7 -2.7 -2.7 -2.7 -2.7 -2.7 -2.7 -2.7 -2.7 -2.7 -2.7 -2.7 -2.7 -2.7 -2.7 -2.7 -2.7 -2.7 -2.7 -2.7 -2.7 -2.7 -2.7 -2.7 -2.7 -2.7 -2.7 -2.7 -2.7 -2.7 -2.7 -2.7 -2.7 -2.7 -2.7 -2.7 -2.7 -2.7 -2.7 -1.4 0 1.1 1.8 2.5 3.2 3.2 5.6 16 18.8 20.7 23.9 26.8 30.8 34.2 39.3 44.9 49.6 56.2 62.4 68.8 76.3 80 76.5 84 89.8 95.3 98.8 97.5 97.6 95.2 92.2 90.4 89.4 99.3 114.6 130.7 141.8 147.5 148.2 146.7 148.6 152.4 157.3 162.4 165.6 169.6 172.7 174.9 175.5 177 179.2 180.4 181.3 182.4 182.8 182.3 183 183.4 183.7 184.4 185.8 187.4 187.1 188.2 190.1 191.8 193.6 195.8 197 198 198.5 200 201.2 201.6 201 200.6 200 200.7 201.3 201.6 200.7 199.7 198.1 196.3 194.8 193.6 192.8 193.6 192.9 192.1 191.7 190.8 189.2 188.7
-2.7 -2.7 -2.7 -2.7 -2.7 -2.7 -2.7 -2.7 -2.7 -2.7 -2.7 -2.7 -2.7 -2.7 -2.7 -2.7 -2.7 -2.7 -2.7 -2.7 -2.7 -2.7 -2.7 -2.7 -2.7 -2.7 -2.7 -2.7 -2.7 -2.7 -2.7 -2.7 -2.7 -2.7 -2.7 -2.7 -2.7 -2.7 -2.7 -2.7 -2.7 -2.7 -2.7 -2.7 -2.7 -2.7 -2.7 -2.7 -2.7 -2.7 -2.7 -2.7 -2.7 -2.7 -2.7 -2.7 -2.7 -2.7 -2.7 -2.7 -2.7 -2.7 -2.7 -2.7 -2.7 -2.7 -2.7 -2.7 -2.7 -2.7 -2.7 -2.7 -2.7 -2.7 -2.7 -2.7 -2.7 -2.7 -2.7 -2.7 -2.7 -2.7 -2.7 -2.7 -2.7 -2.7 -2.7 -2.7 -2.7 -2.7 -2.7 -2.7 -2.7 -2.7 -2.7 -2.7 -2.7 -2.7 -2.7 -2.7 -2.7 -2.7 -2.7 -2.7 -2.7 -1.4 -0.3 0.4 1.2 2 2.8 3.2 3.8 12.7 15.3 16 18.4 22.8 24.8 26.9 34.6 39.3 46 50.7 55.4 60.1 63.3 67.6 70.1 73.2 77 79 81.6 82 81 77.1 74.5 76.8 92.3 107.4 115.5 124.5 131.8 136.2 139.5 143 145.1 149.9 154.7 161.8 166.5 166.2 169.4 170.7 172.2 174.2 176.5 178.5 180.5 181.7 181.8 181.4 181.4 182.3 182.8 184.2 185.3 187.1 187.3 188 189.2 191.1 192.7 194 195.1 196.2 197.4 198.7 200.1 200.3 200.4 200.3 199.7 199.5 199.8 200 200.1 199.1 196.9 194.8 193.1 191.2 190.2 190.3 189.5 188.5 187 185.7 184.5 183.8
-2.7 -2.7 -2.7 -2.7 -2.7 -2.7 -2.7 -2.7 -2.7 -2.7 -2.7 -2.7 -2.7 -2.7 -2.7 -2.7 -2.7 -2.7 -2.7 -2.7 -2.7 -2.7 -2.7 -2.7 -2.7 -2.7 -2.7 -2.7 -2.7 -2.7 -2.7 -2.7 -2.7 -2.7 -2.7 -2.7 -2.7 -2.7 -2.7 -2.7 -2.7 -2.7 -2.7 -2.7 -2.7 -2.7 -2.7 -2.7 -2.7 -2.7 -2.7 -2.7 -2.7 -2.7 -2.7 -2.7 -2.7 -2.7 -2.7 -2.7 -2.7 -2.7 -2.7 -2.7 -2.7 -2.7 -2.7 -2.7 -2.7 -2.7 -2.7 -2.7 -2.7 -2.7 -2.7 -2.7 -2.7 -2.7 -2.7 -2.7 -2.7 -2.7 -2.7 -2.7 -2.7 -2.7 -2.7 -2.7 -2.7 -2.7 -2.7 -2.7 -2.7 -2.7 -2.7 -2.7 -2.7 -2.7 -2.7 -2.7 -2.7 -2.7 -2.7 -2.7 -2.7 -1.7 -0.8 0 0.8 1.6 2.4 3.2 3.9 13.5 13.5 15.8 17.8 20 23 25.5 31.1 34.6 40.2 45.7 48.1 51.5 55 57.7 60.6 63.1 65.4 68.1 69.8 69.6 61.2 66.7 75.1 85.7 95.5 105.3 112.1 118.5 123.2 129.3 133.9 137.2 141.3 144.5 149.1 153.7 158 161.6 164.2 167.4 169.8 171.6 173.6 175.5 176.7 177.8 178.7 178.9 179.5 180.9 182.6 183.4 185.3 186.6 187.5 188.2 189.4 190.6 192.3 193.6 194.8 195.9 196.9 197.6 197.6 198.1 198 197.9 197.8 197.8 198.2 198.1 197.7 196.9 194.8 192.7 191.4 189.7 188.6 187.7 187.1 186 184.2 182.5 180.9 179.9
-2.7 -2.7 -2.7 -2.7 -2.7 -2.7 -2.7 -2.7 -2.7 -2.7 -2.7 -2.7 -2.7 -2.7 -2.7 -2.7 -2.7 -2.7 -2.7 -2.7 -2.7 -2.7 -2.7 -2.7 -2.7 -2.7 -2.7 -2.7 -2.7 -2.7 -2.7 -2.7 -2.7 -2.7 -2.7 -2.7 -2.7 -2.7 -2.7 -2.7 -2.7 -2.7 -2.7 -2.7 -2.7 -2.7 -2.7 -2.7 -2.7 -2.7 -2.7 -2.7 -2.7 -2.7 -2.7 -2.7 -2.7 -2.7 -2.7 -2.7 -2.7 -2.7 -2.7 -2.7 -2.7 -2.7 -2.7 -2.7 -2.7 -2.7 -2.7 -2.7 -2.7 -2.7 -2.7 -2.7 -2.7 -2.7 -2.7 -2.7 -2.7 -2.7 -2.7 -2.7 -2.7 -2.7 -2.7 -2.7 -2.7 -2.7 -2.7 -2.7 -2.7 -2.7 -2.7 -2.7 -2.7 -2.7 -2.7 -2.7 -2.7 -2.7 -2.7 -2.7 -2.7 -1.9 -1.1 -0.4 0.4 1.1 1.9 2.7 4.5 12 12.1 14.3 15.6 18.2 19.6 21.9 25.2 29.1 33.8 35.6 39 41.7 44.8 48 50 52.2 55.4 57.2 57.6 49.9 62.5 71.6 77.6 85.6 93.5 100 109.2 116.2 118.6 123.2 128.3 132.6 137 140.9 144.1 149.4 151.8 154.4 159.4 162.9 166.3 169 170.8 172.1 174.1 175.3 176.2 175.3 178.3 179.8 182.3 183.2 185.8 187.6 187.8 188.8 189.6 190.4 191.8 193.5 194.5 195.9 196.8 197.1 197.1 196.9 196.1 195.5 195.2 195.1 194.9 194.9 194.8 194.3 192.6 191.2 190.2 188.1 186.6 185.5 185.8 185.4 183.1 181.1 178.7 177.2
-2.7 -2.7 -2.7 -2.7 -2.7 -2.7 -2.7 -2.7 -2.7 -2.7 -2.7 -2.7 -2.7 -2.7 -2.7 -2.7 -2.7 -2.7 -2.7 -2.7 -2.7 -2.7 -2.7 -2.7 -2.7 -2.7 -2.7 -2.7 -2.7 -2.7 -2.7 -2.7 -2.7 -2.7 -2.7 -2.7 -2.7 -2.7 -2.7 -2.7 -2.7 -2.7 -2.7 -2.7 -2.7 -2.7 -2.7 -2.7 -2.7 -2.7 -2.7 -2.7 -2.7 -2.7 -2.7 -2.7 -2.7 -2.7 -2.7 -2.7 -2.7 -2.7 -2.7 -2.7 -2.7 -2.7 -2.7 -2.7 -2.7 -2.7 -2.7 -2.7 -2.7 -2.7 -2.7 -2.7 -2.7 -2.7 -2.7 -2.7 -2.7 -2.7 -2.7 -2.7 -2.7 -2.7 -2.7 -2.7 -2.7 -2.7 -2.7 -2.7 -2.7 -2.7 -2.7 -2.7 -2.7 -2.7 -2.7 -2.7 -2.7 -2.7 -2.7 -2.7 -2.7 -1.8 -1.1 -0.3 0.4 1.2 1.9 2.6 3.7 11.2 13.4 14.5 15 16.8 17.5 19.5 21.3 23.7 25.4 28.6 30.3 32.2 34.7 37.7 39.4 40.8 42.5 43.4 45.2 49.2 59.2 65 74 79.2 85.1 91.4 99.8 104.4 111 114 119.7 124.7 132.3 136.5 139 142.7 147.2 150.7 155.6 160.9 163.7 166.8 169.5 171.8 173.3 173.7 173.8 176.4 178.6 180 181.7 183.4 187.2 187.4 188.4 189.1 189.8 190.4 191.4 193.3 194.4 195.2 196 196.8 196.9 196.6 195.9 194.5 193.4 192.1 191.5 190.9 190.8 189.9 188.8 187.9 187.4 185 183.6 183.3 184.9 184.8 183.1 180.5 177.5 175.5
-2.7 -2.7 -2.7 -2.7 -2.7 -2.7 -2.7 -2.7 -2.7 -2.7 -2.7 -2.7 -2.7 -2.7 -2.7 -2.7 -2.7 -2.7 -2.7 -2.7 -2.7 -2.7 -2.7 -2.7 -2.7 -2.7 -2.7 -2.7 -2.7 -2.7 -2.7 -2.7 -2.7 -2.7 -2.7 -2.7 -2.7 -2.7 -2.7 -2.7 -2.7 -2.7 -2.7 -2.7 -2.7 -2.7 -2.7 -2.7 -2.7 -2.7 -2.7 -2.7 -2.7 -2.7 -2.7 -2.7 -2.7 -2.7 -2.7 -2.7 -2.7 -2.7 -2.7 -2.7 -2.7 -2.7 -2.7 -2.7 -2.7 -2.7 -2.7 -2.7 -2.7 -2.7 -2.7 -2.7 -2.7 -2.7 -2.7 -2.7 -2.7 -2.7 -2.7 -2.7 -2.7 -2.7 -2.7 -2.7 -2.7 -2.7 -2.7 -2.7 -2.7 -2.7 -2.7 -2.7 -2.7 -2.7 -2.7 -2.7 -2.7 -2.7 -2.7 -2.7 -2.7 -1.6 -0.9 -0.1 0.6 1.3 2 2.7 3.8 4.3 7.9 13.3 14.2 15.2 15.9 17.3 19.4 19.8 22.5 24.6 27.1 27.6 30.2 31.5 32.7 34.3 35.9 37.7 39.6 46.5 53.9 59.6 66.1 72.5 80.3 83.8 91.3 96.1 100.3 103.7 108.4 114.5 119.2 124.7 132.6 135.9 138.7 146 151.3 156.5 161.4 165.1 168.8 170.7 172.2 170.7 172.8 175.5 177.7 179.4 182.2 183.3 185.9 186.5 187.7 188.1 189.2 189.2 190.8 192.3 193.5 194.3 195.1 196 196.7 195.9 194.9 193.9 192.8 190.4 187.9 187.4 186.7 185 183.8 182.2 181.2 179.7 177.3 179.1 180.7 180.9 180.7 178.3 175.6 172.9
-2.7 -2.7 -2.7 -2.7 -2.7 -2.7 -2.7 -2.7 -2.7 -2.7 -2.7 -2.7 -2.7 -2.7 -2.7 -2.7 -2.7 -2.7 -2.7 -2.7 -2.7 -2.7 -2.7 -2.7 -2.7 -2.7 -2.7 -2.7 -2.7 -2.7 -2.7 -2.7 -2.7 -2.7 -2.7 -2.7 -2.7 -2.7 -2.7 -2.7 -2.7 -2.7 -2.7 -2.7 -2.7 -2.7 -2.7 -2.7 -2.7 -2.7 -2.7 -2.7 -2.7 -2.7 -2.7 -2.7 -2.7 -2.7 -2.7 -2.7 -2.7 -2.7 -2.7 -2.7 -2.7 -2.7 -2.7 -2.7 -2.7 -2.7 -2.7 -2.7 -2.7 -2.7 -2.7 -2.7 -2.7 -2.7 -2.7 -2.7 -2.7 -2.7 -2.7 -2.7 -2.7 -2.7 -2.7 -2.7 -2.7 -2.7 -2.7 -2.7 -2.7 -2.7 -2.7 -2.7 -2.7 -2.7 -2.7 -2.7 -2.7 -2.7 -2.7 -2.7 -2.2 -1.4 -0.7 0 0.7 1.4 2.2 2.9 6 19.7 25.6 16.4 16.4 17.2 19.3 20.2 21.6 23.4 23.3 24 25.9 27.3 28.7 35.8 39.1 42.2 46.3 47.6 46.6 44.7 44.6 52 57.8 65.9 68.6 76.6 81.6 86.7 89.3 90.9 97 100.4 106.5 111.2 116.8 122.4 131.2 137.8 143.8 149.5 156.1 161.3 164.9 168.7 172.2 169.2 171.4 174.5 176.7 178.6 180.7 182.1 184.4 185.2 186.6 187.2 187.3 188.2 189.4 190.7 191.6 192.5 193.7 195.1 195.6 195.2 194.5 193.6 191.8 189.8 187.3 183.6 181.9 180.4 178.3 176 173.3 171.8 170.4 171.5 172.6 173.3 173.5 172 171 168.4
-2.7 -2.7 -2.7 -2.7 -2.7 -2.7 -2.7 -2.7 -2.7 -2.7 -2.7 -2.7 -2.7 -2.7 -2.7 -2.7 -2.7 -2.7 -2.7 -2.7 -2.7 -2.7 -2.7 -2.7 -2.7 -2.7 -2.7 -2.7 -2.7 -2.7 -2.7 -2.7 -2.7 -2.7 -2.7 -2.7 -2.7 -2.7 -2.7 -2.7 -2.7 -2.7 -2.7 -2.7 -2.7 -2.7 -2.7 -2.7 -2.7 -2.7 -2.7 -2.7 -2.7 -2.7 -2.7 -2.7 -2.7 -2.7 -2.7 -2.7 -2.7 -2.7 -2.7 -2.7 -2.7 -2.7 -2.7 -2.7 -2.7 -2.7 -2.7 -2.7 -2.7 -2.7 -2.7 -2.7 -2.7 -2.7 -2.7 -2.7 -2.7 -2.7 -2.7 -2.7 -2.7 -2.7 -2.7 -2.7 -2.7 -2.7 -2.7 -2.7 -2.7 -2.7 -2.7 -2.7 -2.7 -2.7 -2.7 -2.7 -2.7 -2.7 -2.7 -2.7 -2 -1.3 -0.6 0.2 0.9 1.6 2.3 3.1 9.5 24.9 22.1 17.6 18.9 19.5 20.5 22.3 24.3 26.5 29.8 32.6 34.8 37.2 38.9 41.6 45.4 49.8 54.4 57.7 58.3 58 54.6 52.1 49.4 55.3 57.5 66.8 73.5 75.5 74.5 79 80.2 83.7 90.9 93.3 100.5 105.9 112.3 119.6 133.2 141.2 148.4 153.5 159.7 163.2 165.1 160.3 169.7 172.6 175.3 176.9 178.5 179.9 182.1 183.8 185 186.2 186.8 187.9 188.6 188.9 189.6 190.6 191.8 193 193.7 194.2 193.8 193.3 191.7 190.1 187.9 184.7 181.1 177.2 173.9 169.8 166.4 164.3 162.5 162.5 163.3 163 161.6 163.8 163 161.1
-2.7 -2.7 -2.7 -2.7 -2.7 -2.7 -2.7 -2.7 -2.7 -2.7 -2.7 -2.7 -2.7 -2.7 -2.7 -2.7 -2.7 -2.7 -2.7 -2.7 -2.7 -2.7 -2.7 -2.7 -2.7 -2.7 -2.7 -2.7 -2.7 -2.7 -2.7 -2.7 -2.7 -2.7 -2.7 -2.7 -2.7 -2.7 -2.7 -2.7 -2.7 -2.7 -2.7 -2.7 -2.7 -2.7 -2.7 -2.7 -2.7 -2.7 -2.7 -2.7 -2.7 -2.7 -2.7 -2.7 -2.7 -2.7 -2.7 -2.7 -2.7 -2.7 -2.7 -2.7 -2.7 -2.7 -2.7 -2.7 -2.7 -2.7 -2.7 -2.7 -2.7 -2.7 -2.7 -2.7 -2.7 -2.7 -2.7 -2.7 -2.7 -2.7 -2.7 -2.7 -2.7 -2.7 -2.7 -2.7 -2.7 -2.7 -2.7 -2.7 -2.7 -2.7 -2.7 -2.7 -2.7 -2.7 -2.7 -2.7 -2.7 -2.7 -2.7 -2.7 -1.8 -1.1 -0.4 0.3 1 1.8 2.5 3.5 15.5 19.6 27.5 26.3 22 23.2 23.9 25.3 27.5 30.7 34.6 38.2 40.5 42.7 45.1 48.5 53.5 58.3 63.9 67.8 69 69.3 67.8 64.6 62 59.9 60.5 57.9 61.1 66.1 69.7 71.7 73 73.9 73.6 79.3 83.1 88 91.3 99.2 110 124.1 136.9 145.6 153.7 156.7 156.5 159.3 164.7 168.4 169.7 173.2 174.1 177.4 179.8 181.5 183.2 184.4 185.9 186.7 186.9 186.9 187.7 188.4 190 190.9 192 192.4 192.8 192.1 191.2 189.7 187.5 184.9 181.9 178.4 174.7 170.9 167.8 164.4 161.2 159.7 156.2 154.8 154.3 153.6 153 151.3
-2.7 -2.7 -2.7 -2.7 -2.7 -2.7 -2.7 -2.7 -2.7 -2.7 -2.7 -2.7 -2.7 -2.7 -2.7 -2.7 -2.7 -2.7 -2.7 -2.7 -2.7 -2.7 -2.7 -2.7 -2.7 -2.7 -2.7 -2.7 -2.7 -2.7 -2.7 -2.7 -2.7 -2.7 -2.7 -2.7 -2.7 -2.7 -2.7 -2.7 -2.7 -2.7 -2.7 -2.7 -2.7 -2.7 -2.7 -2.7 -2.7 -2.7 -2.7 -2.7 -2.7 -2.7 -2.7 -2.7 -2.7 -2.7 -2.7 -2.7 -2.7 -2.7 -2.7 -2.7 -2.7 -2.7 -2.7 -2.7 -2.7 -2.7 -2.7 -2.7 -2.7 -2.7 -2.7 -2.7 -2.7 -2.7 -2.7 -2.7 -2.7 -2.7 -2.7 -2.7 -2.7 -2.7 -2.7 -2.7 -2.7 -2.7 -2.7 -2.7 -2.7 -2.7 -2.7 -2.7 -2.7 -2.7 -2.7 -2.7 -2.7 -2.7 -2.7 -2.7 -1.7 -0.9 -0.2 0.5 1.2 1.9 2.6 4.4 18.5 24.8 23.9 28.3 24.4 25.6 31.4 28.9 33.6 35.1 39.2 43.7 47.3 49.8 53.3 57.9 62.6 68.1 74.8 80.2 83.6 84.3 83.5 80.7 75.1 72.6 75.3 76.2 80.9 81.5 81.1 88.8 99.5 100.4 99.4 94.5 95.7 96.7 92.6 93.4 92.4 98.3 115.2 126.9 140.1 142.6 140.2 155.5 159.7 162.7 165.9 168 168.9 174.3 176.9 179.1 181.1 182.8 184.3 184.8 184.7 185.1 185.8 186.3 187.4 188.4 189.9 190.8 191.3 190.9 189.9 188.7 187 184.6 182 179.4 176.4 173.3 170.3 167.5 165.5 162.6 160.2 156 150.9 149 146.2 144.9
-2.7 -2.7 -2.7 -2.7 -2.7 -2.7 -2.7 -2.7 -2.7 -2.7 -2.7 -2.7 -2.7 -2.7 -2.7 -2.7 -2.7 -2.7 -2.7 -2.7 -2.7 -2.7 -2.7 -2.7 -2.7 -2.7 -2.7 -2.7 -2.7 -2.7 -2.7 -2.7 -2.7 -2.7 -2.7 -2.7 -2.7 -2.7 -2.7 -2.7 -2.7 -2.7 -2.7 -2.7 -2.7 -2.7 -2.7 -2.7 -2.7 -2.7 -2.7 -2.7 -2.7 -2.7 -2.7 -2.7 -2.7 -2.7 -2.7 -2.7 -2.7 -2.7 -2.7 -2.7 -2.7 -2.7 -2.7 -2.7 -2.7 -2.7 -2.7 -2.7 -2.7 -2.7 -2.7 -2.7 -2.7 -2.7 -2.7 -2.7 -2.7 -2.7 -2.7 -2.7 -2.7 -2.7 -2.7 -2.7 -2.7 -2.7 -2.7 -2.7 -2.7 -2.7 -2.7 -2.7 -2.7 -2.7 -2.7 -2.7 -2.7 -2.7 -2.7 -2.7 -1.6 -0.9 -0.1 0.6 1.3 2 2.7 5.5 18.3 19.7 28.1 22.2 25.3 28.6 29 29 30.6 40.3 45.7 50.8 54.5 58.3 63.5 68.9 73.3 79.7 86.1 92.3 97.2 99.6 100.1 96.2 90.6 87.1 89.2 90.9 94.9 99.3 101.3 103.7 112.6 118.3 122.9 122 125.5 126 125.3 122.3 118.2 109.1 103.9 111.5 124.6 122.7 138.2 149.9 152.7 157.8 156.8 161.1 166.7 170.4 174.3 177.8 179.2 181.2 182.7 182.8 182.4 182.4 182.9 183.5 185.5 186.7 186.8 187.3 188.7 189.1 188.8 187.2 185.8 184.3 182 180.1 177.5 174.8 172.9 171 169.1 167.7 165.5 162.3 157.8 153.1 148.9 146
-2.7 -2.7 -2.7 -2.7 -2.7 -2.7 -2.7 -2.7 -2.7 -2.7 -2.7 -2.7 -2.7 -2.7 -2.7 -2.7 -2.7 -2.7 -2.7 -2.7 -2.7 -2.7 -2.7 -2.7 -2.7 -2.7 -2.7 -2.7 -2.7 -2.7 -2.7 -2.7 -2.7 -2.7 -2.7 -2.7 -2.7 -2.7 -2.7 -2.7 -2.7 -2.7 -2.7 -2.7 -2.7 -2.7 -2.7 -2.7 -2.7 -2.7 -2.7 -2.7 -2.7 -2.7 -2.7 -2.7 -2.7 -2.7 -2.7 -2.7 -2.7 -2.7 -2.7 -2.7 -2.7 -2.7 -2.7 -2.7 -2.7 -2.7 -2.7 -2.7 -2.7 -2.7 -2.7 -2.7 -2.7 -2.7 -2.7 -2.7 -2.7 -2.7 -2.7 -2.7 -2.7 -2.7 -2.7 -2.7 -2.7 -2.7 -2.7 -2.7 -2.7 -2.7 -2.7 -2.7 -2.7 -2.7 -2.7 -2.7 -2.7 -2.7 -2.7 -2.2 -1.5 -0.8 0 0.7 1.4 2.1 2.8 5.5 22.3 22.1 21.8 27.3 30.3 33.7 37.3 36.7 40.8 47 53.4 59.3 64.4 69 75.8 83.6 90 95.2 100.6 105.4 110.8 115.3 117.8 116.7 111.7 108.9 108.8 108.2 108.6 110.4 112.2 115.1 120.7 126.1 133 138.8 143 145.6 147.9 149 147.1 135.9 119.8 119.5 116.2 125.7 134.7 139.3 146.1 152.3 159.3 160.6 166.7 170.3 172.8 176.1 178.3 179.3 180.6 180.9 180.5 179.3 179.7 180.1 181.6 182.6 183.7 183.8 184.9 185.3 185.7 185.2 183.7 182.8 180.9 179.4 177.9 176.3 174.5 172.2 170.4 168.8 166.8 164.5 160.5 157.3 153.7 151.2
-2.7 -2.7 -2.7 -2.7 -2.7 -2.7 -2.7 -2.7 -2.7 -2.7 -2.7 -2.7 -2.7 -2.7 -2.7 -2.7 -2.7 -2.7 -2.7 -2.7 -2.7 -2.7 -2.7 -2.7 -2.7 -2.7 -2.7 -2.7 -2.7 -2.7 -2.7 -2.7 -2.7 -2.7 -2.7 -2.7 -2.7 -2.7 -2.7 -2.7 -2.7 -2.7 -2.7 -2.7 -2.7 -2.7 -2.7 -2.7 -2.7 -2.7 -2.7 -2.7 -2.7 -2.7 -2.7 -2.7 -2.7 -2.7 -2.7 -2.7 -2.7 -2.7 -2.7 -2.7 -2.7 -2.7 -2.7 -2.7 -2.7 -2.7 -2.7 -2.7 -2.7 -2.7 -2.7 -2.7 -2.7 -2.7 -2.7 -2.7 -2.7 -2.7 -2.7 -2.7 -2.7 -2.7 -2.7 -2.7 -2.7 -2.7 -2.7 -2.7 -2.7 -2.7 -2.7 -2.7 -2.7 -2.7 -2.7 -2.7 -2.7 -2.7 -2.7 -2.1 -1.4 -0.6 0.1 0.8 1.5 2.2 2.9 6.4 21.4 26.4 24.4 30.8 37 41.6 43.3 41.5 45.7 56.5 67.1 76.7 81.3 87.2 94.3 100.3 104.9 108.9 114 119.1 122.8 127.2 129.9 129.9 128 126.9 126.3 126.2 124.6 124.5 125.1 127.5 130.2 134.7 140 144.7 149 152.6 154.9 156.1 155.4 154.4 142.7 148.9 135 147.2 154.3 157.8 160.6 161.8 165.6 167.4 167.9 171 174.2 176.8 178.8 178.9 178 179.7 178.1 177 176.2 176.2 177 178.4 179.6 180.4 180.6 181 181.3 181.1 180.7 180 179 177.2 176.1 175.4 174.7 173.3 171.1 168.7 166.2 163.2 160.8 159.1 156.7 155.3
-2.7 -2.7 -2.7 -2.7 -2.7 -2.7 -2.7 -2.7 -2.7 -2.7 -2.7 -2.7 -2.7 -2.7 -2.7 -2.7 -2.7 -2.7 -2.7 -2.7 -2.7 -2.7 -2.7 -2.7 -2.7 -2.7 -2.7 -2.7 -2.7 -2.7 -2.7 -2.7 -2.7 -2.7 -2.7 -2.7 -2.7 -2.7 -2.7 -2.7 -2.7 -2.7 -2.7 -2.7 -2.7 -2.7 -2.7 -2.7 -2.7 -2.7 -2.7 -2.7 -2.7 -2.7 -2.7 -2.7 -2.7 -2.7 -2.7 -2.7 -2.7 -2.7 -2.7 -2.7 -2.7 -2.7 -2.7 -2.7 -2.7 -2.7 -2.7 -2.7 -2.7 -2.7 -2.7 -2.7 -2.7 -2.7 -2.7 -2.7 -2.7 -2.7 -2.7 -2.7 -2.7 -2.7 -2.7 -2.7 -2.7 -2.7 -2.7 -2.7 -2.7 -2.7 -2.7 -2.7 -2.7 -2.7 -2.7 -2.7 -2.7 -2.7 -2.7 -2 -1.2 -0.5 0.2 0.9 1.6 2.3 3 7.8 26.5 21.9 27.1 41.9 54.2 62.7 63.6 55.2 49.2 66.5 84.2 94.2 99.9 103.5 107.2 111.2 115.8 120.7 124.9 129.3 133.6 137 139.4 141.7 142.6 144.1 146.4 149.8 144.9 144.1 143 142.5 142.1 145.2 149.5 152.5 155.6 157.5 159.2 159.5 157.9 156.6 154.7 154.6 154.8 153.6 158 161.6 164 165.9 168.5 170.5 172.1 173.5 175 176.4 177.2 179.6 178 177.3 176.3 174.7 173.1 172.5 173.5 174 176.1 175.9 176.2 176.7 176.7 176.5 176.2 175.9 175.6 174.9 174.1 173.3 172.5 171.3 170.1 167.6 165.5 163.5 161.5 160.3 158.3 156.8
-2.7 -2.7 -2.7 -2.7 -2.7 -2.7 -2.7 -2.7 -2.7 -2.7 -2.7 -2.7 -2.7 -2.7 -2.7 -2.7 -2.7 -2.7 -2.7 -2.7 -2.7 -2.7 -2.7 -2.7 -2.7 -2.7 -2.7 -2.7 -2.7 -2.7 -2.7 -2.7 -2.7 -2.7 -2.7 -2.7 -2.7 -2.7 -2.7 -2.7 -2.7 -2.7 -2.7 -2.7 -2.7 -2.7 -2.7 -2.7 -2.7 -2.7 -2.7 -2.7 -2.7 -2.7 -2.7 -2.7 -2.7 -2.7 -2.7 -2.7 -2.7 -2.7 -2.7 -2.7 -2.7 -2.7 -2.7 -2.7 -2.7 -2.7 -2.7 -2.7 -2.7 -2.7 -2.7 -2.7 -2.7 -2.7 -2.7 -2.7 -2.7 -2.7 -2.7 -2.7 -2.7 -2.7 -2.7 -2.7 -2.7 -2.7 -2.7 -2.7 -2.7 -2.7 -2.7 -2.7 -2.7 -2.7 -2.7 -2.7 -2.7 -2.7 -2.7 -1.8 -1.1 -0.4 0.3 1 1.7 2.4 3.2 12 25.1 22.1 37.1 52.2 69.3 82.1 84.3 67 54.3 72.7 92.1 102.9 110 113.1 116.6 121.2 126.7 132 135.6 139.8 143 146.1 149.6 153.8 157.8 161.6 164.1 164.2 164 164.4 164.8 163.7 158.3 157.1 156.8 159.6 161.6 163.2 163 161.5 159.4 157.5 156.6 156 157.4 159.4 161.5 163.8 166 168.2 171.8 172.8 174.5 175.5 176.7 177.3 178.5 178.6 177.6 176.2 173.2 171.7 169.6 168 169.8 170.4 171.1 171.9 171.7 171.9 172 171.8 171.4 171 171 170.7 170.5 169.8 169.2 168.7 167.8 166.7 165.2 163.4 160.4 160.5 159 156.1
-2.7 -2.7 -2.7 -2.7 -2.7 -2.7 -2.7 -2.7 -2.7 -2.7 -2.7 -2.7 -2.7 -2.7 -2.7 -2.7 -2.7 -2.7 -2.7 -2.7 -2.7 -2.7 -2.7 -2.7 -2.7 -2.7 -2.7 -2.7 -2.7 -2.7 -2.7 -2.7 -2.7 -2.7 -2.7 -2.7 -2.7 -2.7 -2.7 -2.7 -2.7 -2.7 -2.7 -2.7 -2.7 -2.7 -2.7 -2.7 -2.7 -2.7 -2.7 -2.7 -2.7 -2.7 -2.7 -2.7 -2.7 -2.7 -2.7 -2.7 -2.7 -2.7 -2.7 -2.7 -2.7 -2.7 -2.7 -2.7 -2.7 -2.7 -2.7 -2.7 -2.7 -2.7 -2.7 -2.7 -2.7 -2.7 -2.7 -2.7 -2.7 -2.7 -2.7 -2.7 -2.7 -2.7 -2.7 -2.7 -2.7 -2.7 -2.7 -2.7 -2.7 -2.7 -2.7 -2.7 -2.7 -2.7 -2.7 -2.7 -2.7 -2.7 -2.7 -1.8 -1.1 -0.4 0.4 1.1 1.8 2.5 3.6 13.8 24.9 25.7 39.4 62.4 80.1 95 97.7 76.1 61 79.2 97.3 110.4 118.5 123.7 127.8 131.5 136.7 142.9 148 151.7 155.2 157.5 160.7 165.7 169.7 172.5 174.3 174.9 175.8 177.5 178.2 176.2 176.1 173.5 173.8 171.5 169.9 168.9 167.1 163.4 160.6 158.8 158.1 158.7 160.1 162.1 163.5 165.4 168.7 170.9 172.8 175 176.4 177.9 178.6 179.4 179.9 179.1 177.6 175.8 173.4 171 166.7 165.5 164.4 164.9 167.8 166.9 166.9 167 167 166.3 166.3 166.3 166.3 166.3 166.2 166.2 165.7 165.4 165.1 164.8 163.9 162 160.9 159 158.4 151.6
-2.7 -2.7 -2.7 -2.7 -2.7 -2.7 -2.7 -2.7 -2.7 -2.7 -2.7 -2.7 -2.7 -2.7 -2.7 -2.7 -2.7 -2.7 -2.7 -2.7 -2.7 -2.7 -2.7 -2.7 -2.7 -2.7 -2.7 -2.7 -2.7 -2.7 -2.7 -2.7 -2.7 -2.7 -2.7 -2.7 -2.7 -2.7 -2.7 -2.7 -2.7 -2.7 -2.7 -2.7 -2.7 -2.7 -2.7 -2.7 -2.7 -2.7 -2.7 -2.7 -2.7 -2.7 -2.7 -2.7 -2.7 -2.7 -2.7 -2.7 -2.7 -2.7 -2.7 -2.7 -2.7 -2.7 -2.7 -2.7 -2.7 -2.7 -2.7 -2.7 -2.7 -2.7 -2.7 -2.7 -2.7 -2.7 -2.7 -2.7 -2.7 -2.7 -2.7 -2.7 -2.7 -2.7 -2.7 -2.7 -2.7 -2.7 -2.7 -2.7 -2.7 -2.7 -2.7 -2.7 -2.7 -2.7 -2.7 -2.7 -2.7 -2.7 -2.7 -1.9 -1.1 -0.4 0.4 1.1 1.8 2.6 3.9 23.2 23.3 30.8 45.6 67.4 86.5 102.7 105.7 83.1 66.7 82.7 103.6 118.4 127.4 132 136.3 141.2 147.5 153.5 158.9 162.1 165.6 169.8 174.2 178.4 181.5 183.8 185.6 185.9 187.1 186.9 186.3 185.4 183.2 182.9 181.7 182.6 182.7 181.3 178.6 173.7 161.9 160.4 160.3 161.2 163.2 165.3 167.2 169.6 171.6 173.9 176 178 179.9 181.3 181.5 182 181.5 180.7 179.2 176.8 174.4 171.5 166.9 165.5 161.4 162.7 161.3 161 161.1 162.8 162 161.8 160.8 160.3 160.8 160.3 161 161.7 161.6 161.6 161.2 160.8 160.5 159.5 158.8 157.4 155.8 145.2
-2.7 -2.7 -2.7 -2.7 -2.7 -2.7 -2.7 -2.7 -2.7 -2.7 -2.7 -2.7 -2.7 -2.7 -2.7 -2.7 -2.7 -2.7 -2.7 -2.7 -2.7 -2.7 -2.7 -2.7 -2.7 -2.7 -2.7 -2.7 -2.7 -2.7 -2.7 -2.7 -2.7 -2.7 -2.7 -2.7 -2.7 -2.7 -2.7 -2.7 -2.7 -2.7 -2.7 -2.7 -2.7 -2.7 -2.7 -2.7 -2.7 -2.7 -2.7 -2.7 -2.7 -2.7 -2.7 -2.7 -2.7 -2.7 -2.7 -2.7 -2.7 -2.7 -2.7 -2.7 -2.7 -2.7 -2.7 -2.7 -2.7 -2.7 -2.7 -2.7 -2.7 -2.7 -2.7 -2.7 -2.7 -2.7 -2.7 -2.7 -2.7 -2.7 -2.7 -2.7 -2.7 -2.7 -2.7 -2.7 -2.7 -2.7 -2.7 -2.7 -2.7 -2.7 -2.7 -2.7 -2.7 -2.7 -2.7 -2.7 -2.7 -2.7 -2.7 -1.7 -1 -0.3 0.5 1.2 1.9 2.7 5.2 21.3 22.8 34.5 48.9 70.5 89.3 103.7 107.9 90 73 88.9 110.5 123.2 131.6 138.8 146.4 151.8 159.5 164.6 169.1 172.5 175.8 179.8 184.2 187.9 191.3 193.5 194.8 194.2 192.6 191.1 189.4 188.9 187 186.5 185.7 185.4 185.6 185.5 182.2 167.2 162.4 162.1 162.5 165.2 166.6 168.7 170.5 172.7 174.6 176.9 179 181 182.8 184.2 184.4 184.8 184.7 183.9 182.3 179.7 177.7 174.8 169 167.5 162.9 160.2 160.2 156.6 155.5 155.6 156 156.7 156.3 156.1 155.5 155.8 156.6 156.3 156.3 155.9 155.7 155.5 155.2 154.4 153.9 152.3 147.1 132.9
-2.7 -2.7 -2.7 -2.7 -2.7 -2.7 -2.7 -2.7 -2.7 -2.7 -2.7 -2.7 -2.7 -2.7 -2.7 -2.7 -2.7 -2.7 -2.7 -2.7 -2.7 -2.7 -2.7 -2.7 -2.7 -2.7 -2.7 -2.7 -2.7 -2.7 -2.7 -2.7 -2.7 -2.7 -2.7 -2.7 -2.7 -2.7 -2.7 -2.7 -2.7 -2.7 -2.7 -2.7 -2.7 -2.7 -2.7 -2.7 -2.7 -2.7 -2.7 -2.7 -2.7 -2.7 -2.7 -2.7 -2.7 -2.7 -2.7 -2.7 -2.7 -2.7 -2.7 -2.7 -2.7 -2.7 -2.7 -2.7 -2.7 -2.7 -2.7 -2.7 -2.7 -2.7 -2.7 -2.7 -2.7 -2.7 -2.7 -2.7 -2.7 -2.7 -2.7 -2.7 -2.7 -2.7 -2.7 -2.7 -2.7 -2.7 -2.7 -2.7 -2.7 -2.7 -2.7 -2.7 -2.7 -2.7 -2.7 -2.7 -2.7 -2.7 -2.2 -1.5 -0.8 -0.1 0.6 1.4 2.1 2.8 5.5 21.1 30.1 36.8 49.2 66.9 84 98.8 108.5 97.9 78.6 89.4 108.2 125.1 138.1 147 155.3 160.2 166.9 172.5 176.7 180.3 183.5 187.9 192.3 195.6 197.8 199.1 198.3 196.4 194.1 192.1 190.6 189.1 187.8 187.4 186.6 185.5 185.2 184.5 180.1 163.3 162.3 162.7 167.4 170.2 171.2 173.9 176.7 179.3 180.9 182.1 183.1 184.2 185.5 186.4 187.1 187.3 187.5 186.7 185 183.3 180.7 178.1 174 170.8 165.9 161.5 159.2 155.2 151.8 151.5 151.4 151 151.1 151.8 151.8 152.2 152.4 150.8 150.7 149.5 149.4 148 147.6 148.1 146.6 143.1 133.5 124.7
-2.7 -2.7 -2.7 -2.7 -2.7 -2.7 -2.7 -2.7 -2.7 -2.7 -2.7 -2.7 -2.7 -2.7 -2.7 -2.7 -2.7 -2.7 -2.7 -2.7 -2.7 -2.7 -2.7 -2.7 -2.7 -2.7 -2.7 -2.7 -2.7 -2.7 -2.7 -2.7 -2.7 -2.7 -2.7 -2.7 -2.7 -2.7 -2.7 -2.7 -2.7 -2.7 -2.7 -2.7 -2.7 -2.7 -2.7 -2.7 -2.7 -2.7 -2.7 -2.7 -2.7 -2.7 -2.7 -2.7 -2.7 -2.7 -2.7 -2.7 -2.7 -2.7 -2.7 -2.7 -2.7 -2.7 -2.7 -2.7 -2.7 -2.7 -2.7 -2.7 -2.7 -2.7 -2.7 -2.7 -2.7 -2.7 -2.7 -2.7 -2.7 -2.7 -2.7 -2.7 -2.7 -2.7 -2.7 -2.7 -2.7 -2.7 -2.7 -2.7 -2.7 -2.7 -2.7 -2.7 -2.7 -2.7 -2.7 -2.7 -2.7 -2.7 -2.1 -1.3 -0.6 0.1 0.8 1.5 2.2 2.9 11 25.2 33.9 39.4 51.4 67.6 80.6 94.8 106.2 105 90.7 88.1 101.6 119.8 138.5 153.1 163 170.2 174 178 181.9 185.2 188.6 192.3 195.4 197.9 199.4 198.7 196.6 194.7 192.6 191.2 189.8 188.3 187.2 185.7 185.2 184.4 183.4 182 174.1 161.3 161 160.8 166.9 171.3 175.3 179 182.5 184.6 186.6 188.1 189 189.7 190.2 190.2 190.4 190.6 190.2 189.3 187.6 185.9 183.4 180.2 177.4 173.8 170.1 164.3 160.1 157.2 157 150.3 147.6 146 145.8 146.5 146.8 146.4 147.6 147.1 146.3 144.4 142.9 141.5 139.8 138.8 138 133.6 125.1 122.6
-2.7 -2.7 -2.7 -2.7 -2.7 -2.7 -2.7 -2.7 -2.7 -2.7 -2.7 -2.7 -2.7 -2.7 -2.7 -2.7 -2.7 -2.7 -2.7 -2.7 -2.7 -2.7 -2.7 -2.7 -2.7 -2.7 -2.7 -2.7 -2.7 -2.7 -2.7 -2.7 -2.7 -2.7 -2.7 -2.7 -2.7 -2.7 -2.7 -2.7 -2.7 -2.7 -2.7 -2.7 -2.7 -2.7 -2.7 -2.7 -2.7 -2.7 -2.7 -2.7 -2.7 -2.7 -2.7 -2.7 -2.7 -2.7 -2.7 -2.7 -2.7 -2.7 -2.7 -2.7 -2.7 -2.7 -2.7 -2.7 -2.7 -2.7 -2.7 -2.7 -2.7 -2.7 -2.7 -2.7 -2.7 -2.7 -2.7 -2.7 -2.7 -2.7 -2.7 -2.7 -2.7 -2.7 -2.7 -2.7 -2.7 -2.7 -2.7 -2.7 -2.7 -2.7 -2.7 -2.7 -2.7 -2.7 -2.7 -2.7 -2.7 -2.7 -2 -1.3 -0.5 0.2 0.9 1.6 2.4 3.1 16.9 29.3 36.7 40.8 53.1 71.3 83.5 97 108.5 112.5 105.4 96 98.2 114 132.8 149.1 161.9 170.6 177.5 181.5 184.4 187.7 190.3 192.6 194.8 196.3 197.1 195.8 193.8 191.8 189.6 188.4 187.4 186.2 185.2 184.4 183 182.2 181.7 179.7 173.5 159.1 153.7 155.4 161.3 169.7 175.2 180.8 184 186.6 189.7 191.9 192.9 193.8 194.6 195 195.1 195.2 194.8 193.2 191 188.4 185.4 181.7 179.2 174.6 171.2 166.1 165.2 159 157.5 153.1 149.8 146.8 143.2 141.4 143.3 142.9 143 143 141.9 140.5 138.2 136.9 135 134.3 131.4 122.6 122.4 122.5
-2.7 -2.7 -2.7 -2.7 -2.7 -2.7 -2.7 -2.7 -2.7 -2.7 -2.7 -2.7 -2.7 -2.7 -2.7 -2.7 -2.7 -2.7 -2.7 -2.7 -2.7 -2.7 -2.7 -2.7 -2.7 -2.7 -2.7 -2.7 -2.7 -2.7 -2.7 -2.7 -2.7 -2.7 -2.7 -2.7 -2.7 -2.7 -2.7 -2.7 -2.7 -2.7 -2.7 -2.7 -2.7 -2.7 -2.7 -2.7 -2.7 -2.7 -2.7 -2.7 -2.7 -2.7 -2.7 -2.7 -2.7 -2.7 -2.7 -2.7 -2.7 -2.7 -2.7 -2.7 -2.7 -2.7 -2.7 -2.7 -2.7 -2.7 -2.7 -2.7 -2.7 -2.7 -2.7 -2.7 -2.7 -2.7 -2.7 -2.7 -2.7 -2.7 -2.7 -2.7 -2.7 -2.7 -2.7 -2.7 -2.7 -2.7 -2.7 -2.7 -2.7 -2.7 -2.7 -2.7 -2.7 -2.7 -2.7 -2.7 -2.7 -2.7 -2 -1.3 -0.5 0.2 1 1.7 2.5 3.2 16.8 28 36.5 44.7 57.8 77 92.8 102.6 111.9 117.2 115.2 108.1 106 111 125.5 139.6 152.1 164.4 175.9 181.8 185.9 188.5 190.3 191.8 193 194 194.2 192.7 190.2 188.3 187.7 186.7 185.7 185.2 184.3 183.4 181.8 180.7 178.8 175.8 172.5 158.4 151.9 150 154.1 161.9 172 176.9 181.8 186.8 190.9 194.2 195.8 197.3 198.4 198.9 200.6 199.8 199.1 197.7 195.1 192.5 189.8 186.6 184.1 180.3 175.9 169.9 165 162.4 160.2 156.9 155.3 150.1 144.7 143.1 139.5 135.5 137.6 138.6 137.9 136.1 133.8 132.8 130.6 129.2 127.7 124.1 121.2 122.7
-2.7 -2.7 -2.7 -2.7 -2.7 -2.7 -2.7 -2.7 -2.7 -2.7 -2.7 -2.7 -2.7 -2.7 -2.7 -2.7 -2.7 -2.7 -2.7 -2.7 -2.7 -2.7 -2.7 -2.7 -2.7 -2.7 -2.7 -2.7 -2.7 -2.7 -2.7 -2.7 -2.7 -2.7 -2.7 -2.7 -2.7 -2.7 -2.7 -2.7 -2.7 -2.7 -2.7 -2.7 -2.7 -2.7 -2.7 -2.7 -2.7 -2.7 -2.7 -2.7 -2.7 -2.7 -2.7 -2.7 -2.7 -2.7 -2.7 -2.7 -2.7 -2.7 -2.7 -2.7 -2.7 -2.7 -2.7 -2.7 -2.7 -2.7 -2.7 -2.7 -2.7 -2.7 -2.7 -2.7 -2.7 -2.7 -2.7 -2.7 -2.7 -2.7 -2.7 -2.7 -2.7 -2.7 -2.7 -2.7 -2.7 -2.7 -2.7 -2.7 -2.7 -2.7 -2.7 -2.7 -2.7 -2.7 -2.7 -2.7 -2.7 -2.7 -1.9 -1.2 -0.4 0.3 1.1 1.8 2.6 4.5 22.1 32.3 39.2 51.7 63.2 84 104.5 113 119 122.9 123.8 124.2 120.9 121.6 126.6 135.3 150.9 161.4 168.8 175.1 180.5 185 187.8 189.6 190.2 190.3 190.6 189.8 188 186.1 185 183.8 183.2 183.2 183.4 182.3 181 179.9 178.9 177.2 174 167.6 153.4 148.4 148.3 152.6 160.1 171 179.6 187.2 192.1 195.3 197.7 199.6 200.9 202.4 203.9 204.5 203.6 201.6 198.8 197 194.3 192.2 190.1 187.7 184.7 178.3 175.4 171.2 165.2 161.9 157.6 152 148.4 143.8 139.7 135.5 135.6 133.4 133.1 132.2 130.5 128.7 127.4 124.8 122.6 121.8 120.6 123
-2.7 -2.7 -2.7 -2.7 -2.7 -2.7 -2.7 -2.7 -2.7 -2.7 -2.7 -2.7 -2.7 -2.7 -2.7 -2.7 -2.7 -2.7 -2.7 -2.7 -2.7 -2.7 -2.7 -2.7 -2.7 -2.7 -2.7 -2.7 -2.7 -2.7 -2.7 -2.7 -2.7 -2.7 -2.7 -2.7 -2.7 -2.7 -2.7 -2.7 -2.7 -2.7 -2.7 -2.7 -2.7 -2.7 -2.7 -2.7 -2.7 -2.7 -2.7 -2.7 -2.7 -2.7 -2.7 -2.7 -2.7 -2.7 -2.7 -2.7 -2.7 -2.7 -2.7 -2.7 -2.7 -2.7 -2.7 -2.7 -2.7 -2.7 -2.7 -2.7 -2.7 -2.7 -2.7 -2.7 -2.7 -2.7 -2.7 -2.7 -2.7 -2.7 -2.7 -2.7 -2.7 -2.7 -2.7 -2.7 -2.7 -2.7 -2.7 -2.7 -2.7 -2.7 -2.7 -2.7 -2.7 -2.7 -2.7 -2.7 -2.7 -2.7 -1.8 -1 -0.3 0.5 1.2 2 2.7 5.2 17.8 36.4 42.4 54.1 70.6 91.5 106.6 122.2 127.9 129.8 135.3 138.6 135.3 136.8 142.2 145.9 154 162.7 168.8 173.8 178.9 181.8 183.2 184.1 184.6 185 185.8 185 182.8 181 179.7 179.6 178.7 179.1 180.4 180.6 179.5 178 177.2 177.4 177 173.4 165.8 150.6 147.1 147.2 152.9 164 178.2 186.4 191.9 195.9 198.6 200.5 201.9 202.9 204.5 206.6 208.1 207.4 205.5 202.7 198.9 197.3 195.3 193.1 190.6 187.9 183.9 176.9 174.3 169.6 165.8 161.5 156.5 148.1 142.2 139 135.6 133.4 131.8 130.4 128.5 126.1 125.5 124 122.7 120 119.1 121.2
-2.7 -2.7 -2.7 -2.7 -2.7 -2.7 -2.7 -2.7 -2.7 -2.7 -2.7 -2.7 -2.7 -2.7 -2.7 -2.7 -2.7 -2.7 -2.7 -2.7 -2.7 -2.7 -2.7 -2.7 -2.7 -2.7 -2.7 -2.7 -2.7 -2.7 -2.7 -2.7 -2.7 -2.7 -2.7 -2.7 -2.7 -2.7 -2.7 -2.7 -2.7 -2.7 -2.7 -2.7 -2.7 -2.7 -2.7 -2.7 -2.7 -2.7 -2.7 -2.7 -2.7 -2.7 -2.7 -2.7 -2.7 -2.7 -2.7 -2.7 -2.7 -2.7 -2.7 -2.7 -2.7 -2.7 -2.7 -2.7 -2.7 -2.7 -2.7 -2.7 -2.7 -2.7 -2.7 -2.7 -2.7 -2.7 -2.7 -2.7 -2.7 -2.7 -2.7 -2.7 -2.7 -2.7 -2.7 -2.7 -2.7 -2.7 -2.7 -2.7 -2.7 -2.7 -2.7 -2.7 -2.7 -2.7 -2.7 -2.7 -2.7 -2.7 -1.7 -0.9 -0.2 0.6 1.3 2.1 2.9 7.3 23.2 33.3 43.6 60.3 74.2 94 112.1 130.7 137.4 138.5 145.9 149 147.9 148.6 150.2 156.4 161.1 166.2 170.5 174.8 177.9 180.1 181.3 181.5 180.9 180.5 180.8 179.1 177.1 176.3 175.8 175.6 174.3 174.2 174.8 176 176.3 175.1 173.9 175.6 177.9 176.5 173 161.8 150.2 145 147.9 154.7 176 186.2 192.3 195.6 197.8 199.4 200.8 202 203.7 205.5 207.4 209.1 209.2 208.1 206.1 203.6 200.8 198.5 195.9 191.8 190.3 185.8 181.2 173.5 172.4 168.5 163.4 157.8 145.4 142.4 138.1 135.7 133.5 132.2 129.4 128.8 127 125 123.5 121.4 116.8 118.2
-2.7 -2.7 -2.7 -2.7 -2.7 -2.7 -2.7 -2.7 -2.7 -2.7 -2.7 -2.7 -2.7 -2.7 -2.7 -2.7 -2.7 -2.7 -2.7 -2.7 -2.7 -2.7 -2.7 -2.7 -2.7 -2.7 -2.7 -2.7 -2.7 -2.7 -2.7 -2.7 -2.7 -2.7 -2.7 -2.7 -2.7 -2.7 -2.7 -2.7 -2.7 -2.7 -2.7 -2.7 -2.7 -2.7 -2.7 -2.7 -2.7 -2.7 -2.7 -2.7 -2.7 -2.7 -2.7 -2.7 -2.7 -2.7 -2.7 -2.7 -2.7 -2.7 -2.7 -2.7 -2.7 -2.7 -2.7 -2.7 -2.7 -2.7 -2.7 -2.7 -2.7 -2.7 -2.7 -2.7 -2.7 -2.7 -2.7 -2.7 -2.7 -2.7 -2.7 -2.7 -2.7 -2.7 -2.7 -2.7 -2.7 -2.7 -2.7 -2.7 -2.7 -2.7 -2.7 -2.7 -2.7 -2.7 -2.7 -2.7 -2.7 -2.7 -1.5 -0.8 0 0.7 1.5 2.3 3 12.6 24.6 33.7 50.2 67.2 82.8 100.8 118.7 133.8 146 151.1 155.6 157.2 157.6 158.6 160.8 163.7 166.6 170.6 172.9 175.6 177.5 178.9 179.4 179.5 178.6 177.8 176.9 174.1 171.6 171.1 170.4 169.7 168.5 166.8 167.3 169.5 170.3 170 167.3 169.9 172.5 173.7 172.7 169.6 161.3 146.6 144.6 151.5 171.6 184.5 190.7 193.3 195 196.5 197.5 198.8 200.7 202.8 205 207.1 208.6 209.9 209.4 208 206.2 203.7 201.3 198.6 194.4 191.8 187.4 184 178.1 173.7 168.9 163.3 156.3 150.6 144 139.9 136.9 134.4 132.4 130.8 128.9 126.9 125.1 122.9 120.7 115.4
-2.7 -2.7 -2.7 -2.7 -2.7 -2.7 -2.7 -2.7 -2.7 -2.7 -2.7 -2.7 -2.7 -2.7 -2.7 -2.7 -2.7 -2.7 -2.7 -2.7 -2.7 -2.7 -2.7 -2.7 -2.7 -2.7 -2.7 -2.7 -2.7 -2.7 -2.7 -2.7 -2.7 -2.7 -2.7 -2.7 -2.7 -2.7 -2.7 -2.7 -2.7 -2.7 -2.7 -2.7 -2.7 -2.7 -2.7 -2.7 -2.7 -2.7 -2.7 -2.7 -2.7 -2.7 -2.7 -2.7 -2.7 -2.7 -2.7 -2.7 -2.7 -2.7 -2.7 -2.7 -2.7 -2.7 -2.7 -2.7 -2.7 -2.7 -2.7 -2.7 -2.7 -2.7 -2.7 -2.7 -2.7 -2.7 -2.7 -2.7 -2.7 -2.7 -2.7 -2.7 -2.7 -2.7 -2.7 -2.7 -2.7 -2.7 -2.7 -2.7 -2.7 -2.7 -2.7 -2.7 -2.7 -2.7 -2.7 -2.7 -2.7 -2.2 -1.4 -0.7 0.1 0.9 1.6 2.4 3.2 15.2 20.5 41 54.1 73.5 94.5 112.2 127.9 139.2 148.1 155.3 159.9 162.4 163.9 166.5 168.3 170 172.5 174 176.2 177.3 178.1 178.2 178.3 177.5 177 175.5 172.5 169.6 166.8 166 164.2 163.2 163 163.1 162.4 161.9 161.7 162.1 159.5 161.5 163 164.6 166.2 167 163.7 144.4 142.2 149 165.5 177.8 184.6 187.7 189.5 191.2 192.6 195.1 197 199.4 201.4 204.2 206.3 207.7 208.7 208.9 207.9 206.4 204.6 203 200.7 199.1 192.4 189.3 184.6 180.1 174.5 168.7 162.5 155.3 149.1 145.4 142 138.8 135.9 133.8 131.5 129.6 127 125.4 122.6 120.1
-2.7 -2.7 -2.7 -2.7 -2.7 -2.7 -2.7 -2.7 -2.7 -2.7 -2.7 -2.7 -2.7 -2.7 -2.7 -2.7 -2.7 -2.7 -2.7 -2.7 -2.7 -2.7 -2.7 -2.7 -2.7 -2.7 -2.7 -2.7 -2.7 -2.7 -2.7 -2.7 -2.7 -2.7 -2.7 -2.7 -2.7 -2.7 -2.7 -2.7 -2.7 -2.7 -2.7 -2.7 -2.7 -2.7 -2.7 -2.7 -2.7 -2.7 -2.7 -2.7 -2.7 -2.7 -2.7 -2.7 -2.7 -2.7 -2.7 -2.7 -2.7 -2.7 -2.7 -2.7 -2.7 -2.7 -2.7 -2.7 -2.7 -2.7 -2.7 -2.7 -2.7 -2.7 -2.7 -2.7 -2.7 -2.7 -2.7 -2.7 -2.7 -2.7 -2.7 -2.7 -2.7 -2.7 -2.7 -2.7 -2.7 -2.7 -2.7 -2.7 -2.7 -2.7 -2.7 -2.7 -2.7 -2.7 -2.7 -2.7 -2.7 -2 -1.2 -0.4 0.3 1 1.8 2.6 3.9 16.9 35.7 48.6 65.1 85.1 106.7 123.2 136.4 146.8 152.2 160.5 164.9 167.9 170.1 171.2 172.7 175 177.1 178.4 178.5 178.8 178.8 178.5 177.7 176.1 174.7 172.5 169.8 166.6 163.4 161.3 160.4 158.4 156.9 156.1 154.3 153.4 152.9 152.7 149.9 149.8 152.6 156.4 159.2 160.7 161.8 144.2 139.4 147.5 164.2 174.9 180 183.1 184.7 185.3 186.4 188.7 191 193.9 196.8 199.8 201.6 203.3 205 206.4 207.1 207.4 207.1 205.4 203.7 201.8 199 195.6 190.5 186.6 181.6 175.6 168.9 159.7 156 156.3 153.5 149.6 143.9 140.6 136.8 133.6 130.9 128 124.8 122.2
-2.7 -2.7 -2.7 -2.7 -2.7 -2.7 -2.7 -2.7 -2.7 -2.7 -2.7 -2.7 -2.7 -2.7 -2.7 -2.7 -2.7 -2.7 -2.7 -2.7 -2.7 -2.7 -2.7 -2.7 -2.7 -2.7 -2.7 -2.7 -2.7 -2.7 -2.7 -2.7 -2.7 -2.7 -2.7 -2.7 -2.7 -2.7 -2.7 -2.7 -2.7 -2.7 -2.7 -2.7 -2.7 -2.7 -2.7 -2.7 -2.7 -2.7 -2.7 -2.7 -2.7 -2.7 -2.7 -2.7 -2.7 -2.7 -2.7 -2.7 -2.7 -2.7 -2.7 -2.7 -2.7 -2.7 -2.7 -2.7 -2.7 -2.7 -2.7 -2.7 -2.7 -2.7 -2.7 -2.7 -2.7 -2.7 -2.7 -2.7 -2.7 -2.7 -2.7 -2.7 -2.7 -2.7 -2.7 -2.7 -2.7 -2.7 -2.7 -2.7 -2.7 -2.7 -2.7 -2.7 -2.7 -2.7 -2.7 -2.7 -2.7 -1.9 -1.1 -0.3 0.5 1.2 2 2.8 5.2 20.2 34.2 52.7 74.8 95.9 117.6 133.9 143.6 151.5 158.6 165.4 169.2 172 174.5 176.5 177.9 179.2 180.3 180.8 180.8 179.9 179.3 178 176.6 175.2 172.4 170.3 167.1 164.4 161 158.5 156.1 154.9 152.8 151.2 148.5 147.6 146.5 144.3 143.3 141.2 141.1 142.8 146 146.8 146.8 138.9 137.1 145.3 163.9 173.6 177.7 179.5 180.2 180.5 181.7 183.1 185.3 187.3 190.9 193.5 194.8 197.2 199.4 202.3 203.9 205.9 207 205.8 204.1 202.2 200.7 197.9 194.7 190.6 186.5 181.2 172.3 168.7 170.5 169 166.4 162.8 158.8 152.8 147.1 142.8 139.4 135 129.8 126.4
-2.7 -2.7 -2.7 -2.7 -2.7 -2.7 -2.7 -2.7 -2.7 -2.7 -2.7 -2.7 -2.7 -2.7 -2.7 -2.7 -2.7 -2.7 -2.7 -2.7 -2.7 -2.7 -2.7 -2.7 -2.7 -2.7 -2.7 -2.7 -2.7 -2.7 -2.7 -2.7 -2.7 -2.7 -2.7 -2.7 -2.7 -2.7 -2.7 -2.7 -2.7 -2.7 -2.7 -2.7 -2.7 -2.7 -2.7 -2.7 -2.7 -2.7 -2.7 -2.7 -2.7 -2.7 -2.7 -2.7 -2.7 -2.7 -2.7 -2.7 -2.7 -2.7 -2.7 -2.7 -2.7 -2.7 -2.7 -2.7 -2.7 -2.7 -2.7 -2.7 -2.7 -2.7 -2.7 -2.7 -2.7 -2.7 -2.7 -2.7 -2.7 -2.7 -2.7 -2.7 -2.7 -2.7 -2.7 -2.7 -2.7 -2.7 -2.7 -2.7 -2.7 -2.7 -2.7 -2.7 -2.7 -2.7 -2.7 -2.7 -2.7 -1.8 -1 -0.2 0.6 1.4 2.2 3 5.9 20 31.9 61.1 80 100.9 126 143.2 154.2 159.5 166 170.6 173.4 177 178.8 180.2 181.6 182.3 182.9 182.8 182.1 181 179.3 177.5 175.7 173.8 171.1 169 165.6 162.5 159 156.1 155.2 152.1 150.4 148.9 147.2 145.9 144.4 143.6 143.3 142.7 140.8 137.9 135.3 132.9 131.5 130.9 135.3 146.3 164.4 171.2 174.5 175.4 175.1 175.2 176.6 177.5 179.2 180.8 183.5 185.9 188.3 191.4 195.9 198.8 201.2 203.2 204.8 205.3 204.3 202.6 201.3 199.2 196.2 193 189.1 185.8 182.6 182.1 180.5 178.7 176.5 173.8 170.3 167.1 162.4 157.5 152.9 146.9 138.7 131.1
-2.7 -2.7 -2.7 -2.7 -2.7 -2.7 -2.7 -2.7 -2.7 -2.7 -2.7 -2.7 -2.7 -2.7 -2.7 -2.7 -2.7 -2.7 -2.7 -2.7 -2.7 -2.7 -2.7 -2.7 -2.7 -2.7 -2.7 -2.7 -2.7 -2.7 -2.7 -2.7 -2.7 -2.7 -2.7 -2.7 -2.7 -2.7 -2.7 -2.7 -2.7 -2.7 -2.7 -2.7 -2.7 -2.7 -2.7 -2.7 -2.7 -2.7 -2.7 -2.7 -2.7 -2.7 -2.7 -2.7 -2.7 -2.7 -2.7 -2.7 -2.7 -2.7 -2.7 -2.7 -2.7 -2.7 -2.7 -2.7 -2.7 -2.7 -2.7 -2.7 -2.7 -2.7 -2.7 -2.7 -2.7 -2.7 -2.7 -2.7 -2.7 -2.7 -2.7 -2.7 -2.7 -2.7 -2.7 -2.7 -2.7 -2.7 -2.7 -2.7 -2.7 -2.7 -2.7 -2.7 -2.7 -2.7 -2.7 -2.7 -2.7 -1.5 -0.8 0 0.8 1.6 2.4 3.2 10.7 17.3 33.6 64.3 85.2 108.3 131.5 148.9 158.8 163.8 170.2 174.5 177.6 180.2 181.6 183 183.9 184.6 184.2 183.6 182.4 180.9 178.9 177.3 175.3 173.3 170.5 167.7 164.3 160.9 158.1 157.2 155.6 154.6 154 153 151.1 150.1 150 150.4 151.1 152.3 151.5 147.9 145 142.1 134.9 128.6 133.7 147.1 159.2 166.2 169.8 170.5 169.1 168.7 168.6 170 172.8 175.7 178.2 181.1 184.2 188.2 191.9 195.3 198.4 201.1 203.5 204.6 203.9 202.7 201.4 200 198 195.4 192.2 190.4 189.9 189.3 188.3 186.7 184.7 183 180.2 177.1 173.8 169.1 162.8 156.1 145.2 137.2
-2.7 -2.7 -2.7 -2.7 -2.7 -2.7 -2.7 -2.7 -2.7 -2.7 -2.7 -2.7 -2.7 -2.7 -2.7 -2.7 -2.7 -2.7 -2.7 -2.7 -2.7 -2.7 -2.7 -2.7 -2.7 -2.7 -2.7 -2.7 -2.7 -2.7 -2.7 -2.7 -2.7 -2.7 -2.7 -2.7 -2.7 -2.7 -2.7 -2.7 -2.7 -2.7 -2.7 -2.7 -2.7 -2.7 -2.7 -2.7 -2.7 -2.7 -2.7 -2.7 -2.7 -2.7 -2.7 -2.7 -2.7 -2.7 -2.7 -2.7 -2.7 -2.7 -2.7 -2.7 -2.7 -2.7 -2.7 -2.7 -2.7 -2.7 -2.7 -2.7 -2.7 -2.7 -2.7 -2.7 -2.7 -2.7 -2.7 -2.7 -2.7 -2.7 -2.7 -2.7 -2.7 -2.7 -2.7 -2.7 -2.7 -2.7 -2.7 -2.7 -2.7 -2.7 -2.7 -2.7 -2.7 -2.7 -2.7 -2.7 -2 -1.3 -0.5 0.3 1 1.8 2.6 3.9 15.1 18 50.2 67.6 89.4 113.1 134.6 149.9 161.5 168.8 173.5 176.7 179.8 182.4 183.4 184.4 185 185.2 184.5 183.7 182.6 181.1 179.4 177.4 175.5 173.4 170.5 167.5 163.9 161.6 160.8 160.4 159.3 158.6 157.5 157.5 156.2 156.1 156.7 157.2 157.3 157.2 157.2 155.6 152.3 147.9 140.4 125.3 132.3 144.8 151.6 156.6 161 162.8 163.3 162.8 162.8 164.4 167.1 170.3 173.8 177.2 180.7 185 189.2 193.5 196.6 199.4 201.8 202.5 202.6 202 200.9 199.3 197.5 196.2 195.1 193.5 193.2 193 192.5 191.6 190.2 188.8 186.7 183.7 179.6 175.7 169.9 159.9 146 145.5
-2.7 -2.7 -2.7 -2.7 -2.7 -2.7 -2.7 -2.7 -2.7 -2.7 -2.7 -2.7 -2.7 -2.7 -2.7 -2.7 -2.7 -2.7 -2.7 -2.7 -2.7 -2.7 -2.7 -2.7 -2.7 -2.7 -2.7 -2.7 -2.7 -2.7 -2.7 -2.7 -2.7 -2.7 -2.7 -2.7 -2.7 -2.7 -2.7 -2.7 -2.7 -2.7 -2.7 -2.7 -2.7 -2.7 -2.7 -2.7 -2.7 -2.7 -2.7 -2.7 -2.7 -2.7 -2.7 -2.7 -2.7 -2.7 -2.7 -2.7 -2.7 -2.7 -2.7 -2.7 -2.7 -2.7 -2.7 -2.7 -2.7 -2.7 -2.7 -2.7 -2.7 -2.7 -2.7 -2.7 -2.7 -2.7 -2.7 -2.7 -2.7 -2.7 -2.7 -2.7 -2.7 -2.7 -2.7 -2.7 -2.7 -2.7 -2.7 -2.7 -2.7 -2.7 -2.7 -2.7 -2.7 -2.7 -2.7 -2.7 -1.8 -1 -0.2 0.5 1.3 2.1 2.8 4.7 14.7 23.6 51.7 73.5 97.5 116.9 139.3 151.1 164.6 171.7 174.8 178.6 182 184 184.9 185.6 185.5 185.4 185.2 184.8 183.8 182.2 180.2 178.6 176.8 174.6 171.8 169.1 166.4 164.9 164.3 163.8 163.1 163 162.3 161.9 161.2 161.5 162.6 161.9 161 161 160.7 158.5 155.6 149.2 139.3 127.3 126.5 132.8 142.8 147.9 152 154 154 153.6 155.9 158.1 161.9 165.4 169.6 173.9 177.6 182.3 187.3 191.6 194.9 197.7 199.7 200.2 200.5 200 199 197.9 196.5 195 194.8 194.1 193.8 193.9 194 193.7 192.9 191.8 189.5 186.2 182.3 177.2 170.4 160.4 158.1 159.6
-2.7 -2.7 -2.7 -2.7 -2.7 -2.7 -2.7 -2.7 -2.7 -2.7 -2.7 -2.7 -2.7 -2.7 -2.7 -2.7 -2.7 -2.7 -2.7 -2.7 -2.7 -2.7 -2.7 -2.7 -2.7 -2.7 -2.7 -2.7 -2.7 -2.7 -2.7 -2.7 -2.7 -2.7 -2.7 -2.7 -2.7 -2.7 -2.7 -2.7 -2.7 -2.7 -2.7 -2.7 -2.7 -2.7 -2.7 -2.7 -2.7 -2.7 -2.7 -2.7 -2.7 -2.7 -2.7 -2.7 -2.7 -2.7 -2.7 -2.7 -2.7 -2.7 -2.7 -2.7 -2.7 -2.7 -2.7 -2.7 -2.7 -2.7 -2.7 -2.7 -2.7 -2.7 -2.7 -2.7 -2.7 -2.7 -2.7 -2.7 -2.7 -2.7 -2.7 -2.7 -2.7 -2.7 -2.7 -2.7 -2.7 -2.7 -2.7 -2.7 -2.7 -2.7 -2.7 -2.7 -2.7 -2.7 -2.7 -2.7 -1.5 -0.8 0 0.8 1.5 2.3 3.1 5.7 15.4 21.7 54.4 75.2 99 121.2 140.1 155.1 166.9 172.5 176.9 181.4 183.8 185.1 186.5 187 186.9 186.7 186.7 186.3 185.5 183.4 181.5 179.6 177.9 175.8 173.4 170.8 169 167.9 167.7 167.6 167.1 167.2 166.6 165.9 165.2 165.4 165.7 165 164.4 163.8 162.4 160.4 157.2 152.4 144.9 131.8 125.1 123.1 127.2 133.7 140.1 142.7 142.8 143.4 146.9 151.7 155.9 161.1 167.1 171.8 176 180.5 186.3 190.5 193.4 196.1 197.6 198 197.9 197.5 196.7 195.1 193.4 192.8 191.7 191.9 193.3 193.4 194.4 194.7 194.4 193.2 191.1 187.8 184.2 178.9 173.4 168.6 171.1 172.8
-2.7 -2.7 -2.7 -2.7 -2.7 -2.7 -2.7 -2.7 -2.7 -2.7 -2.7 -2.7 -2.7 -2.7 -2.7 -2.7 -2.7 -2.7 -2.7 -2.7 -2.7 -2.7 -2.7 -2.7 -2.7 -2.7 -2.7 -2.7 -2.7 -2.7 -2.7 -2.7 -2.7 -2.7 -2.7 -2.7 -2.7 -2.7 -2.7 -2.7 -2.7 -2.7 -2.7 -2.7 -2.7 -2.7 -2.7 -2.7 -2.7 -2.7 -2.7 -2.7 -2.7 -2.7 -2.7 -2.7 -2.7 -2.7 -2.7 -2.7 -2.7 -2.7 -2.7 -2.7 -2.7 -2.7 -2.7 -2.7 -2.7 -2.7 -2.7 -2.7 -2.7 -2.7 -2.7 -2.7 -2.7 -2.7 -2.7 -2.7 -2.7 -2.7 -2.7 -2.7 -2.7 -2.7 -2.7 -2.7 -2.7 -2.7 -2.7 -2.7 -2.7 -2.7 -2.7 -2.7 -2.7 -2.7 -2.7 -2.2 -1.4 -0.6 0.2 1 1.8 2.5 3.5 10.1 18.4 36.6 54.8 78.2 101.8 126.3 143.7 159.6 168.6 173.9 179 182.4 184.8 186.3 187.3 188 188 188.3 188.3 187.7 186.7 184.9 182.7 181 179.3 177.1 175.2 173.7 172.6 172 171.4 171.8 172.4 171.9 171.5 170 169.1 168.5 168.3 167.3 166.4 165.4 163.4 161.5 158.6 153.9 148.5 140.8 131.7 124.2 120.6 122 127.1 131.9 134.5 137.7 141.8 146.3 151.8 158 165.6 171.3 175.3 179.9 184.5 188.8 191.9 193.8 195.3 195.1 194.9 193.5 192.2 191.3 190.4 190 189.1 189 190.9 192.7 194.3 195.3 195.3 194.4 192.8 189.9 186.4 183 178.7 177.1 179.2 181.2
-2.7 -2.7 -2.7 -2.7 -2.7 -2.7 -2.7 -2.7 -2.7 -2.7 -2.7 -2.7 -2.7 -2.7 -2.7 -2.7 -2.7 -2.7 -2.7 -2.7 -2.7 -2.7 -2.7 -2.7 -2.7 -2.7 -2.7 -2.7 -2.7 -2.7 -2.7 -2.7 -2.7 -2.7 -2.7 -2.7 -2.7 -2.7 -2.7 -2.7 -2.7 -2.7 -2.7 -2.7 -2.7 -2.7 -2.7 -2.7 -2.7 -2.7 -2.7 -2.7 -2.7 -2.7 -2.7 -2.7 -2.7 -2.7 -2.7 -2.7 -2.7 -2.7 -2.7 -2.7 -2.7 -2.7 -2.7 -2.7 -2.7 -2.7 -2.7 -2.7 -2.7 -2.7 -2.7 -2.7 -2.7 -2.7 -2.7 -2.7 -2.7 -2.7 -2.7 -2.7 -2.7 -2.7 -2.7 -2.7 -2.7 -2.7 -2.7 -2.7 -2.7 -2.7 -2.7 -2.7 -2.7 -2.7 -2.7 -2.1 -1.3 -0.5 0.3 1.1 1.9 2.7 4.1 14.7 19.1 42.9 58.1 81.8 107.4 128.4 148 161.5 170.9 175.2 179.6 182.4 184.9 186 187.6 189 189.1 189.9 190.1 189.6 188.8 187.4 185.6 183.8 182.4 180.5 179 177.6 177 176.9 177.2 177.7 177.2 176.4 175.2 173.5 172.1 170.8 169.4 168.2 166.7 165.4 164.1 162.2 159.1 155.7 150.8 145.1 138.8 130.3 122.9 116.9 120 123.1 125 129.5 137.8 143.5 148 153.7 161.8 169.2 173.5 178 182.5 187.1 190 192.1 192.3 192.1 190.8 189.6 187.2 184.2 182.7 183.5 184.9 186.7 188.7 191.5 193.7 195.2 195.3 194.9 194.2 191.9 189.9 187.1 184.6 182.6 184.9 187.2
-2.7 -2.7 -2.7 -2.7 -2.7 -2.7 -2.7 -2.7 -2.7 -2.7 -2.7 -2.7 -2.7 -2.7 -2.7 -2.7 -2.7 -2.7 -2.7 -2.7 -2.7 -2.7 -2.7 -2.7 -2.7 -2.7 -2.7 -2.7 -2.7 -2.7 -2.7 -2.7 -2.7 -2.7 -2.7 -2.7 -2.7 -2.7 -2.7 -2.7 -2.7 -2.7 -2.7 -2.7 -2.7 -2.7 -2.7 -2.7 -2.7 -2.7 -2.7 -2.7 -2.7 -2.7 -2.7 -2.7 -2.7 -2.7 -2.7 -2.7 -2.7 -2.7 -2.7 -2.7 -2.7 -2.7 -2.7 -2.7 -2.7 -2.7 -2.7 -2.7 -2.7 -2.7 -2.7 -2.7 -2.7 -2.7 -2.7 -2.7 -2.7 -2.7 -2.7 -2.7 -2.7 -2.7 -2.7 -2.7 -2.7 -2.7 -2.7 -2.7 -2.7 -2.7 -2.7 -2.7 -2.7 -2.7 -2.7 -1.8 -1 -0.3 0.5 1.4 2.2 3 4.9 17.5 22.7 43.3 61.9 86.1 110.1 131.9 151.1 163.9 171 174.9 178.4 181.5 183.7 185.5 187.8 189.4 190.6 191.2 192 191.7 191.5 190.1 188.8 187.5 186.8 185 183.7 182.5 182.2 182.5 182.5 182 180.9 179.2 177.3 175.6 173.5 171.8 169.8 168.1 166.3 165.2 164.3 162.1 159.1 155.9 151.7 147.3 141.1 136.5 130.3 124 115.5 116.6 120.1 124.3 132 138.7 144.3 148.6 154.4 163.5 169.6 176.2 181.2 186.3 188.7 189.9 190 188.8 186.4 183.2 178 177.2 177.4 179.5 181 183.6 187.1 189.8 192.4 194.3 195 195 194.5 193 191.4 189.9 188.4 187.2 188.1 190.1
-2.7 -2.7 -2.7 -2.7 -2.7 -2.7 -2.7 -2.7 -2.7 -2.7 -2.7 -2.7 -2.7 -2.7 -2.7 -2.7 -2.7 -2.7 -2.7 -2.7 -2.7 -2.7 -2.7 -2.7 -2.7 -2.7 -2.7 -2.7 -2.7 -2.7 -2.7 -2.7 -2.7 -2.7 -2.7 -2.7 -2.7 -2.7 -2.7 -2.7 -2.7 -2.7 -2.7 -2.7 -2.7 -2.7 -2.7 -2.7 -2.7 -2.7 -2.7 -2.7 -2.7 -2.7 -2.7 -2.7 -2.7 -2.7 -2.7 -2.7 -2.7 -2.7 -2.7 -2.7 -2.7 -2.7 -2.7 -2.7 -2.7 -2.7 -2.7 -2.7 -2.7 -2.7 -2.7 -2.7 -2.7 -2.7 -2.7 -2.7 -2.7 -2.7 -2.7 -2.7 -2.7 -2.7 -2.7 -2.7 -2.7 -2.7 -2.7 -2.7 -2.7 -2.7 -2.7 -2.7 -2.7 -2.7 -2.7 -1.6 -0.8 0 0.8 1.6 2.3 3.1 6.1 13.5 28.1 48.3 66.9 92.4 115.4 134.6 151.7 163.4 169.1 173.3 176.8 180.1 182.9 184.8 187 189.2 191.1 192.3 193.8 194.4 194.1 193.2 192.1 191.1 189.9 188.4 187.4 187 186.8 186.6 185.7 184.8 183.5 181.3 179.1 176.4 174.5 172.2 170 168.1 166.7 165.9 165.1 163.2 160.4 156.9 152.8 149 145 140.8 135.9 130.3 123 113.9 115.8 119.4 122.3 126.8 135.4 142 148.1 156.1 162.7 170.9 178.7 184.8 189.5 189.4 188 185.5 182.2 174.1 170.1 171.9 172.9 175.2 177.8 181 185 188 190.9 193.5 194.1 194.3 194.7 193.6 193.1 191.9 191.1 190.8 191.6 194
-2.7 -2.7 -2.7 -2.7 -2.7 -2.7 -2.7 -2.7 -2.7 -2.7 -2.7 -2.7 -2.7 -2.7 -2.7 -2.7 -2.7 -2.7 -2.7 -2.7 -2.7 -2.7 -2.7 -2.7 -2.7 -2.7 -2.7 -2.7 -2.7 -2.7 -2.7 -2.7 -2.7 -2.7 -2.7 -2.7 -2.7 -2.7 -2.7 -2.7 -2.7 -2.7 -2.7 -2.7 -2.7 -2.7 -2.7 -2.7 -2.7 -2.7 -2.7 -2.7 -2.7 -2.7 -2.7 -2.7 -2.7 -2.7 -2.7 -2.7 -2.7 -2.7 -2.7 -2.7 -2.7 -2.7 -2.7 -2.7 -2.7 -2.7 -2.7 -2.7 -2.7 -2.7 -2.7 -2.7 -2.7 -2.7 -2.7 -2.7 -2.7 -2.7 -2.7 -2.7 -2.7 -2.7 -2.7 -2.7 -2.7 -2.7 -2.7 -2.7 -2.7 -2.7 -2.7 -2.7 -2.7 -2.7 -2 -1.3 -0.6 0.2 1 1.8 2.6 3.5 13.6 14.3 34.8 50.4 73.1 98 120.9 139.6 155.3 161.9 164.9 168.6 172.7 177.4 180.3 183.3 185.9 188.5 190.4 192.4 195 196.2 196.3 195.6 194.8 193.9 192.9 192 190.9 190.1 189.7 188.7 187.4 186.2 184.5 182.4 180.3 177.8 175.2 172.2 170 167.9 166.2 165.6 165.2 164 161.4 158.9 155.3 151.7 148.2 144 138.2 132.8 125.6 115.5 111.6 112.4 114.3 116.3 119 125.4 137.3 146.5 156.3 165.2 173.9 179.1 183.2 184.7 184.1 180.8 173.5 164.6 160.2 166.3 168.7 172 175.8 179.6 183.5 186.7 190.1 192.6 193 193.8 194 194.1 194 193.9 193.7 193.8 195 198.2
-2.7 -2.7 -2.7 -2.7 -2.7 -2.7 -2.7 -2.7 -2.7 -2.7 -2.7 -2.7 -2.7 -2.7 -2.7 -2.7 -2.7 -2.7 -2.7 -2.7 -2.7 -2.7 -2.7 -2.7 -2.7 -2.7 -2.7 -2.7 -2.7 -2.7 -2.7 -2.7 -2.7 -2.7 -2.7 -2.7 -2.7 -2.7 -2.7 -2.7 -2.7 -2.7 -2.7 -2.7 -2.7 -2.7 -2.7 -2.7 -2.7 -2.7 -2.7 -2.7 -2.7 -2.7 -2.7 -2.7 -2.7 -2.7 -2.7 -2.7 -2.7 -2.7 -2.7 -2.7 -2.7 -2.7 -2.7 -2.7 -2.7 -2.7 -2.7 -2.7 -2.7 -2.7 -2.7 -2.7 -2.7 -2.7 -2.7 -2.7 -2.7 -2.7 -2.7 -2.7 -2.7 -2.7 -2.7 -2.7 -2.7 -2.7 -2.7 -2.7 -2.7 -2.7 -2.7 -2.7 -2.7 -2.7 -1.7 -1 -0.3 0.5 1.2 2 2.8 4.3 17.2 20.6 39.5 55.3 80.1 104.4 128 144.4 153.6 155.6 158.8 162.9 167.1 171.9 176.9 180.6 183.6 186.4 189.3 192.2 194.6 196.6 197.2 197 196.5 195.8 194.9 194.2 193.2 192.5 191.8 190.3 188.5 186.5 184.5 182.3 180.2 177.8 175.1 172.2 169.3 166.8 164.6 163.3 163.4 163.5 162 160.5 158.2 155.2 150.7 146.1 140.8 134.8 129.6 121.9 114.3 111.3 108.4 108.6 110.1 114.9 123.3 138.5 148.7 157.2 164.6 169.5 171.4 170.7 171.4 170.6 162 154.8 158.2 164.5 168.2 172.1 175.7 179.3 183 186.3 188.7 189.5 191.6 192.6 193.5 194.3 195 195.3 196 196.8 198.8 201.9
-2.7 -2.7 -2.7 -2.7 -2.7 -2.7 -2.7 -2.7 -2.7 -2.7 -2.7 -2.7 -2.7 -2.7 -2.7 -2.7 -2.7 -2.7 -2.7 -2.7 -2.7 -2.7 -2.7 -2.7 -2.7 -2.7 -2.7 -2.7 -2.7 -2.7 -2.7 -2.7 -2.7 -2.7 -2.7 -2.7 -2.7 -2.7 -2.7 -2.7 -2.7 -2.7 -2.7 -2.7 -2.7 -2.7 -2.7 -2.7 -2.7 -2.7 -2.7 -2.7 -2.7 -2.7 -2.7 -2.7 -2.7 -2.7 -2.7 -2.7 -2.7 -2.7 -2.7 -2.7 -2.7 -2.7 -2.7 -2.7 -2.7 -2.7 -2.7 -2.7 -2.7 -2.7 -2.7 -2.7 -2.7 -2.7 -2.7 -2.7 -2.7 -2.7 -2.7 -2.7 -2.7 -2.7 -2.7 -2.7 -2.7 -2.7 -2.7 -2.7 -2.7 -2.7 -2.7 -2.7 -2.7 -2.2 -1.4 -0.7 0 0.8 1.5 2.2 3 5.7 10.9 21.8 43.1 61.1 87.2 110.1 131.2 143.7 147.6 147.2 149.9 157 162.5 167.1 171.5 176.8 180.3 183.6 186.8 190.7 193.5 195.4 196.3 196.1 196.3 196.6 196.1 195.4 194.7 193.5 192.1 190.3 188 186 183.5 181.5 179.4 176.8 173.5 170.8 167.8 164.8 162.2 160.5 161.2 161.8 162 161.5 159 156.3 152.8 147.5 143.9 141.8 137.2 132.6 124.2 116.7 112.7 109.4 105.2 105.7 112.7 129.4 140.1 151.3 158.7 163.2 164.4 163.1 160.3 156.7 151.2 150.5 162.2 169.4 172.2 174.5 176.5 179.1 182.4 185 187.1 188.8 189.7 191.3 192.3 194 195.6 197.1 199.2 200.9 202.7 204.9
-2.7 -2.7 -2.7 -2.7 -2.7 -2.7 -2.7 -2.7 -2.7 -2.7 -2.7 -2.7 -2.7 -2.7 -2.7 -2.7 -2.7 -2.7 -2.7 -2.7 -2.7 -2.7 -2.7 -2.7 -2.7 -2.7 -2.7 -2.7 -2.7 -2.7 -2.7 -2.7 -2.7 -2.7 -2.7 -2.7 -2.7 -2.7 -2.7 -2.7 -2.7 -2.7 -2.7 -2.7 -2.7 -2.7 -2.7 -2.7 -2.7 -2.7 -2.7 -2.7 -2.7 -2.7 -2.7 -2.7 -2.7 -2.7 -2.7 -2.7 -2.7 -2.7 -2.7 -2.7 -2.7 -2.7 -2.7 -2.7 -2.7 -2.7 -2.7 -2.7 -2.7 -2.7 -2.7 -2.7 -2.7 -2.7 -2.7 -2.7 -2.7 -2.7 -2.7 -2.7 -2.7 -2.7 -2.7 -2.7 -2.7 -2.7 -2.7 -2.7 -2.7 -2.7 -2.7 -2.7 -2.7 -1.9 -1.2 -0.5 0.3 1 1.8 2.5 3.3 14.3 13 23.4 49.6 64.4 90 111.1 128.5 138 137.8 135.7 139.5 146.9 154.5 160.4 166.2 174 177.4 181 185.3 189.1 191.5 193.8 194.5 195.3 195.9 196.5 196.7 196.1 194.8 193.2 190.9 189.3 186.7 184.2 181.6 179.3 177.7 175.3 172.6 169.1 165.7 162.3 159.5 157.6 157.7 159.6 160.9 160.9 160.6 158.4 156.2 153.6 150.4 147.2 144.5 141 134.6 127.7 120.7 115 109.4 103 106.6 118 133.6 146.3 153.9 158.4 158.8 155.6 148.8 144.9 145.4 153.9 167.1 173.2 175.1 176.4 178 179.8 180.3 182.8 184.7 186.2 187.4 189.1 190.9 192.9 194.9 196.8 198.6 200.5 202.5 204.1
-2.7 -2.7 -2.7 -2.7 -2.7 -2.7 -2.7 -2.7 -2.7 -2.7 -2.7 -2.7 -2.7 -2.7 -2.7 -2.7 -2.7 -2.7 -2.7 -2.7 -2.7 -2.7 -2.7 -2.7 -2.7 -2.7 -2.7 -2.7 -2.7 -2.7 -2.7 -2.7 -2.7 -2.7 -2.7 -2.7 -2.7 -2.7 -2.7 -2.7 -2.7 -2.7 -2.7 -2.7 -2.7 -2.7 -2.7 -2.7 -2.7 -2.7 -2.7 -2.7 -2.7 -2.7 -2.7 -2.7 -2.7 -2.7 -2.7 -2.7 -2.7 -2.7 -2.7 -2.7 -2.7 -2.7 -2.7 -2.7 -2.7 -2.7 -2.7 -2.7 -2.7 -2.7 -2.7 -2.7 -2.7 -2.7 -2.7 -2.7 -2.7 -2.7 -2.7 -2.7 -2.7 -2.7 -2.7 -2.7 -2.7 -2.7 -2.7 -2.7 -2.7 -2.7 -2.7 -2.7 -2.7 -1.7 -1 -0.2 0.6 1.3 2.1 2.8 4.5 14.5 15.9 34.9 56.4 71.5 90.3 109.4 124 125.5 122 123.4 129.6 137.9 145.3 153.4 161.7 169.5 175.2 179.7 183.8 187.8 190.3 192 193.8 194.8 195.8 196.6 196.5 195 194.5 192.4 189.7 187.2 184.6 181.9 179.8 177.2 175.2 172.7 170.5 167.5 163.7 160 156.5 153.2 153.9 156.2 158.3 159.1 159.1 158.1 156.5 155.2 153.8 151.6 148.6 146.7 142.1 137.4 130.6 124.4 117.5 104.6 101.8 110.3 126.2 141.2 149 152.9 149.8 144.4 138.5 140.3 149.1 161.9 170.6 174.1 175.9 177.3 178.7 179.3 179.6 180.5 181.7 182.8 184.5 186.4 188.7 191.1 193.1 194.8 196.7 198.4 200 200.7
-2.7 -2.7 -2.7 -2.7 -2.7 -2.7 -2.7 -2.7 -2.7 -2.7 -2.7 -2.7 -2.7 -2.7 -2.7 -2.7 -2.7 -2.7 -2.7 -2.7 -2.7 -2.7 -2.7 -2.7 -2.7 -2.7 -2.7 -2.7 -2.7 -2.7 -2.7 -2.7 -2.7 -2.7 -2.7 -2.7 -2.7 -2.7 -2.7 -2.7 -2.7 -2.7 -2.7 -2.7 -2.7 -2.7 -2.7 -2.7 -2.7 -2.7 -2.7 -2.7 -2.7 -2.7 -2.7 -2.7 -2.7 -2.7 -2.7 -2.7 -2.7 -2.7 -2.7 -2.7 -2.7 -2.7 -2.7 -2.7 -2.7 -2.7 -2.7 -2.7 -2.7 -2.7 -2.7 -2.7 -2.7 -2.7 -2.7 -2.7 -2.7 -2.7 -2.7 -2.7 -2.7 -2.7 -2.7 -2.7 -2.7 -2.7 -2.7 -2.7 -2.7 -2.7 -2.7 -2.7 -2.7 -1.5 -0.7 0.1 0.8 1.6 2.3 3.1 6 16.5 11.8 47.4 63.2 77.4 95.9 111.4 112.3 106.2 108 125 136.3 143.9 147.8 153.5 161.3 167.5 173.7 178.4 182.4 186 189 191.3 193.3 195.5 196.3 196.7 196.3 195.6 193.4 191 187.8 185.1 182.2 179.1 176.6 174.2 172.5 169.4 167 164.8 161.1 157.2 153.8 150.1 149.5 151.9 154.6 156.1 156.2 155.6 154.8 153.9 153.2 152.2 151.2 149.6 146.3 142.9 139.7 136.1 126 106.9 99.1 106.4 117 131 140.1 139.7 135.8 132.6 132.9 147.6 158.6 165.1 170.8 173.2 175 177.1 178.1 178.1 178 177.5 178.7 180.2 182.2 184.5 186.4 189.1 190.9 192.3 193.6 194.8 195.6 196.1
-2.7 -2.7 -2.7 -2.7 -2.7 -2.7 -2.7 -2.7 -2.7 -2.7 -2.7 -2.7 -2.7 -2.7 -2.7 -2.7 -2.7 -2.7 -2.7 -2.7 -2.7 -2.7 -2.7 -2.7 -2.7 -2.7 -2.7 -2.7 -2.7 -2.7 -2.7 -2.7 -2.7 -2.7 -2.7 -2.7 -2.7 -2.7 -2.7 -2.7 -2.7 -2.7 -2.7 -2.7 -2.7 -2.7 -2.7 -2.7 -2.7 -2.7 -2.7 -2.7 -2.7 -2.7 -2.7 -2.7 -2.7 -2.7 -2.7 -2.7 -2.7 -2.7 -2.7 -2.7 -2.7 -2.7 -2.7 -2.7 -2.7 -2.7 -2.7 -2.7 -2.7 -2.7 -2.7 -2.7 -2.7 -2.7 -2.7 -2.7 -2.7 -2.7 -2.7 -2.7 -2.7 -2.7 -2.7 -2.7 -2.7 -2.7 -2.7 -2.7 -2.7 -2.7 -2.7 -2.7 -2 -1.2 -0.4 0.4 1.1 1.9 2.7 3.6 15.3 19.4 25.2 53.4 71.4 87.3 94.6 96.2 89.9 100.4 117.2 131.2 139.5 147.7 152.4 157.4 162.4 168.5 173.9 178 182.3 185.7 188.5 191.1 193.5 195.2 196.4 197 196.3 194.9 192.2 189.6 185.9 182.7 180.2 176.3 173.3 170.8 167.9 165.3 163.6 161.5 158.6 155 151.7 148.4 145.1 147.7 150.3 152.3 152.8 151.9 151.1 150.5 150.1 148.7 148.3 146.9 146.2 145 143.4 139.1 123.3 101.5 99.2 103.6 110.3 119.4 123.1 123.6 124.2 129.5 144 154.1 159.3 164.3 168.7 171.7 173.6 175.6 175.9 175.2 175 174.5 175.9 177.6 179.9 182.2 184.6 186.7 187.8 189.1 189.5 189.6 190.3 189.8
-2.7 -2.7 -2.7 -2.7 -2.7 -2.7 -2.7 -2.7 -2.7 -2.7 -2.7 -2.7 -2.7 -2.7 -2.7 -2.7 -2.7 -2.7 -2.7 -2.7 -2.7 -2.7 -2.7 -2.7 -2.7 -2.7 -2.7 -2.7 -2.7 -2.7 -2.7 -2.7 -2.7 -2.7 -2.7 -2.7 -2.7 -2.7 -2.7 -2.7 -2.7 -2.7 -2.7 -2.7 -2.7 -2.7 -2.7 -2.7 -2.7 -2.7 -2.7 -2.7 -2.7 -2.7 -2.7 -2.7 -2.7 -2.7 -2.7 -2.7 -2.7 -2.7 -2.7 -2.7 -2.7 -2.7 -2.7 -2.7 -2.7 -2.7 -2.7 -2.7 -2.7 -2.7 -2.7 -2.7 -2.7 -2.7 -2.7 -2.7 -2.7 -2.7 -2.7 -2.7 -2.7 -2.7 -2.7 -2.7 -2.7 -2.7 -2.7 -2.7 -2.7 -2.7 -2.7 -2.7 -1.8 -0.9 -0.2 0.6 1.4 2.2 3 4.8 19.8 22.7 44.7 62.7 76.9 81.3 78 81 94.2 110 126.9 137 142.1 150 154.6 159.6 163.9 169.5 173.7 178 182.2 185.1 188.3 190.7 193.2 195.1 195.7 196.3 195.3 193.4 191.2 186.7 183.8 179.7 176.9 172.5 169.7 166.5 163.6 161.8 159.5 157.2 154.7 151.6 149.1 145.7 141 141.8 144.8 147.4 148.8 147 146.9 145.7 144.6 143 141.6 142 142.2 142.6 142.2 136 113.6 95.2 99.1 102.9 107.2 111.5 115.1 120.8 130.4 139.9 150.2 155.9 159.4 163.5 166.8 169.9 171.9 173.2 172.7 171.2 169.8 169 171.2 173.9 177.2 180.1 182.3 183.6 185.2 185.9 185.3 184.5 183.9 182.5
-2.7 -2.7 -2.7 -2.7 -2.7 -2.7 -2.7 -2.7 -2.7 -2.7 -2.7 -2.7 -2.7 -2.7 -2.7 -2.7 -2.7 -2.7 -2.7 -2.7 -2.7 -2.7 -2.7 -2.7 -2.7 -2.7 -2.7 -2.7 -2.7 -2.7 -2.7 -2.7 -2.7 -2.7 -2.7 -2.7 -2.7 -2.7 -2.7 -2.7 -2.7 -2.7 -2.7 -2.7 -2.7 -2.7 -2.7 -2.7 -2.7 -2.7 -2.7 -2.7 -2.7 -2.7 -2.7 -2.7 -2.7 -2.7 -2.7 -2.7 -2.7 -2.7 -2.7 -2.7 -2.7 -2.7 -2.7 -2.7 -2.7 -2.7 -2.7 -2.7 -2.7 -2.7 -2.7 -2.7 -2.7 -2.7 -2.7 -2.7 -2.7 -2.7 -2.7 -2.7 -2.7 -2.7 -2.7 -2.7 -2.7 -2.7 -2.7 -2.7 -2.7 -2.7 -2.7 -2.7 -1.4 -0.6 0.2 1 1.8 2.5 3.5 9.1 18.9 35 42.3 61.5 66.5 64.2 76.8 91.5 107 126.1 135.2 140.9 145.5 152.1 156.7 161.4 165.4 169.9 174.4 177.9 181.3 184.1 187.2 189.7 191.9 193.4 194.2 194.3 193.3 191.5 188.7 184.2 180.5 175.9 172.2 168.2 164.9 162.6 159.5 157.2 154.9 153 150.3 148 145.5 142.4 138.2 137.1 140.3 142.5 143.6 142.5 141.5 139.9 138.3 136.6 135.4 136.2 136.7 135.2 134.3 123.5 103.1 94.3 99.2 103.7 109.3 120 126.1 134.2 140.4 146.8 151.5 155.5 158.7 161.8 164.5 167.9 169.3 170.8 169.2 167 164.9 162.3 167 170.7 173.9 176.9 179.6 181.3 182.4 182.1 180.9 178.9 177.1 175.6
-2.7 -2.7 -2.7 -2.7 -2.7 -2.7 -2.7 -2.7 -2.7 -2.7 -2.7 -2.7 -2.7 -2.7 -2.7 -2.7 -2.7 -2.7 -2.7 -2.7 -2.7 -2.7 -2.7 -2.7 -2.7 -2.7 -2.7 -2.7 -2.7 -2.7 -2.7 -2.7 -2.7 -2.7 -2.7 -2.7 -2.7 -2.7 -2.7 -2.7 -2.7 -2.7 -2.7 -2.7 -2.7 -2.7 -2.7 -2.7 -2.7 -2.7 -2.7 -2.7 -2.7 -2.7 -2.7 -2.7 -2.7 -2.7 -2.7 -2.7 -2.7 -2.7 -2.7 -2.7 -2.7 -2.7 -2.7 -2.7 -2.7 -2.7 -2.7 -2.7 -2.7 -2.7 -2.7 -2.7 -2.7 -2.7 -2.7 -2.7 -2.7 -2.7 -2.7 -2.7 -2.7 -2.7 -2.7 -2.7 -2.7 -2.7 -2.7 -2.7 -2.7 -2.7 -2.7 -1.6 -0.9 -0.2 0.6 1.3 2.1 2.9 4.2 18.7 24.1 30.5 33.1 50 58.4 73.3 88.7 109.1 123.6 135.7 140.4 145.7 150.1 154.4 158.1 162.4 166.6 170.4 174.4 177.3 180.1 181.8 185.3 188.3 190.3 192 192.9 192.6 191.5 189.7 186.4 182.2 176.9 172.7 168.5 164.1 160.2 156.4 154.4 152.4 149.9 148.1 146.2 144.2 141.1 138.5 135 130.7 135 137.5 139 137.8 135.8 134.3 130.5 126 124.8 123.1 123.6 121.2 119.2 109 94.6 94 100.1 107.5 118.7 126.6 131.6 136.9 141.9 146.6 150.1 153.1 156.1 159.5 163.4 165.2 166.3 168.4 166.4 162.8 157.4 161 164.4 167.7 171.4 175.6 177.1 179 179.4 177.8 175.2 172 169.6 167.9
-2.7 -2.7 -2.7 -2.7 -2.7 -2.7 -2.7 -2.7 -2.7 -2.7 -2.7 -2.7 -2.7 -2.7 -2.7 -2.7 -2.7 -2.7 -2.7 -2.7 -2.7 -2.7 -2.7 -2.7 -2.7 -2.7 -2.7 -2.7 -2.7 -2.7 -2.7 -2.7 -2.7 -2.7 -2.7 -2.7 -2.7 -2.7 -2.7 -2.7 -2.7 -2.7 -2.7 -2.7 -2.7 -2.7 -2.7 -2.7 -2.7 -2.7 -2.7 -2.7 -2.7 -2.7 -2.7 -2.7 -2.7 -2.7 -2.7 -2.7 -2.7 -2.7 -2.7 -2.7 -2.7 -2.7 -2.7 -2.7 -2.7 -2.7 -2.7 -2.7 -2.7 -2.7 -2.7 -2.7 -2.7 -2.7 -2.7 -2.7 -2.7 -2.7 -2.7 -2.7 -2.7 -2.7 -2.7 -2.7 -2.7 -2.7 -2.7 -2.7 -2.7 -2.7 -1.9 -1.2 -0.5 0.2 1 1.7 2.5 3.4 9 25.5 31.9 37.4 45.1 55.3 65 83.7 105.4 122.5 133.3 141.5 144.8 149.3 153.1 155.9 159.5 162.9 166.3 169.9 172.8 175.5 178.2 180.8 183.1 185.4 187.1 189.9 190.4 190.5 189.6 188.2 184.5 180.4 174.2 169.2 165.2 160.2 155.5 152 149.1 146.5 144.1 142.8 141.1 138.4 136.5 128.8 131 127 128.2 131.8 134 131.4 127.2 126.3 120.5 113.7 108.7 104.3 99.6 98 97.5 94.4 90 92.6 101.2 109.8 119.5 126.3 130.3 135.2 138.7 142.4 146.9 150.4 152.8 155.7 159.8 160.3 162.9 164.7 158.5 153.2 152.7 156.1 161.1 166.2 170.5 173.2 175.6 177.4 177.2 175.3 171.6 166.7 162.9 161.6
-2.7 -2.7 -2.7 -2.7 -2.7 -2.7 -2.7 -2.7 -2.7 -2.7 -2.7 -2.7 -2.7 -2.7 -2.7 -2.7 -2.7 -2.7 -2.7 -2.7 -2.7 -2.7 -2.7 -2.7 -2.7 -2.7 -2.7 -2.7 -2.7 -2.7 -2.7 -2.7 -2.7 -2.7 -2.7 -2.7 -2.7 -2.7 -2.7 -2.7 -2.7 -2.7 -2.7 -2.7 -2.7 -2.7 -2.7 -2.7 -2.7 -2.7 -2.7 -2.7 -2.7 -2.7 -2.7 -2.7 -2.7 -2.7 -2.7 -2.7 -2.7 -2.7 -2.7 -2.7 -2.7 -2.7 -2.7 -2.7 -2.7 -2.7 -2.7 -2.7 -2.7 -2.7 -2.7 -2.7 -2.7 -2.7 -2.7 -2.7 -2.7 -2.7 -2.7 -2.7 -2.7 -2.7 -2.7 -2.7 -2.7 -2.7 -2.7 -2.7 -2.7 -2.7 -1.5 -0.8 -0.1 0.7 1.4 2.1 2.9 4 11.7 22.1 32.8 39.7 50.8 63.8 78.8 95.1 113.7 126.7 134.8 141 145.2 149.4 153.1 155.9 158.9 162.2 165.4 168.3 170.7 173.6 176.2 178.7 181.1 183.5 185.8 187.9 188.6 188.8 187.7 186.2 183 177.6 171.6 167.1 163.1 158 152.6 148.5 144.3 141.4 138.3 136.7 135 133.7 131.8 127 126.2 122.8 122.9 125.3 125.2 116.2 115.4 109.2 103.8 102.8 100.9 99.2 96.7 94.9 92.2 89.9 89.1 93.1 101.6 108.7 114.1 119.7 125.8 130.6 134.4 136 141.4 145 148.5 151.6 153.2 157.5 159.9 154.8 150 145.8 147.7 156 161.7 166.5 168.7 171.7 174.1 175.2 175.4 172.6 167.4 161.1 155.6 146.6
-2.7 -2.7 -2.7 -2.7 -2.7 -2.7 -2.7 -2.7 -2.7 -2.7 -2.7 -2.7 -2.7 -2.7 -2.7 -2.7 -2.7 -2.7 -2.7 -2.7 -2.7 -2.7 -2.7 -2.7 -2.7 -2.7 -2.7 -2.7 -2.7 -2.7 -2.7 -2.7 -2.7 -2.7 -2.7 -2.7 -2.7 -2.7 -2.7 -2.7 -2.7 -2.7 -2.7 -2.7 -2.7 -2.7 -2.7 -2.7 -2.7 -2.7 -2.7 -2.7 -2.7 -2.7 -2.7 -2.7 -2.7 -2.7 -2.7 -2.7 -2.7 -2.7 -2.7 -2.7 -2.7 -2.7 -2.7 -2.7 -2.7 -2.7 -2.7 -2.7 -2.7 -2.7 -2.7 -2.7 -2.7 -2.7 -2.7 -2.7 -2.7 -2.7 -2.7 -2.7 -2.7 -2.7 -2.7 -2.7 -2.7 -2.7 -2.7 -2.7 -2.7 -1.9 -1.2 -0.4 0.3 1.1 1.8 2.5 3.4 9.1 23.2 30.7 35.7 49 63.7 77.1 91.8 111.4 119 126.3 133.4 138.9 143 147.4 150.9 154.6 157.7 160.6 163 165.3 167.6 170.7 173.6 176.1 178.6 180.9 183.2 185.8 186.7 186.4 185 183.1 180.2 175.5 170.2 165.6 161.2 156.4 151.1 149 146.9 144 140.6 136.7 133.8 130.5 127.8 125.1 123.1 121 119.2 117.2 114.5 112.1 111.5 111.6 110.6 108.9 107.7 105.8 103.1 99.9 95.2 90.5 87.2 90.3 98 104.2 107.3 111.4 113.2 117.3 122.5 127.4 133.6 138.6 143.7 147.8 149.3 153.1 151.1 148.1 142.2 140.5 132.6 155.3 159.5 163.2 166.5 169.7 171.8 172.9 172.4 169.2 163.8 155.1 141.8 126.8
-2.7 -2.7 -2.7 -2.7 -2.7 -2.7 -2.7 -2.7 -2.7 -2.7 -2.7 -2.7 -2.7 -2.7 -2.7 -2.7 -2.7 -2.7 -2.7 -2.7 -2.7 -2.7 -2.7 -2.7 -2.7 -2.7 -2.7 -2.7 -2.7 -2.7 -2.7 -2.7 -2.7 -2.7 -2.7 -2.7 -2.7 -2.7 -2.7 -2.7 -2.7 -2.7 -2.7 -2.7 -2.7 -2.7 -2.7 -2.7 -2.7 -2.7 -2.7 -2.7 -2.7 -2.7 -2.7 -2.7 -2.7 -2.7 -2.7 -2.7 -2.7 -2.7 -2.7 -2.7 -2.7 -2.7 -2.7 -2.7 -2.7 -2.7 -2.7 -2.7 -2.7 -2.7 -2.7 -2.7 -2.7 -2.7 -2.7 -2.7 -2.7 -2.7 -2.7 -2.7 -2.7 -2.7 -2.7 -2.7 -2.7 -2.7 -2.7 -2.7 -2.1 -1.5 -0.8 0 0.7 1.5 2.2 2.9 4.4 17.4 24.4 34.7 40.3 57.9 72.5 86.6 97.8 110 120.6 125.2 131.6 135.3 139.4 144.7 148.8 152 154.5 157.1 159.8 161.6 164.8 167.8 170.9 173.4 175.9 178.5 180.9 183.4 183.9 184.2 183 180.6 177.7 173.8 169.3 164.8 160.4 155.8 153.9 153.2 151.8 148.1 143.3 139 136 133.5 129.9 127.4 125.6 124.3 122.8 121 119.3 119.3 119.7 118.2 116.7 114.7 112.7 110.3 107.1 102.4 97.7 92.3 86.4 86.4 90.5 96.8 99.1 102 104.3 106.8 107.8 114 120.2 125.5 132.2 138.4 139.9 141.3 139.1 137.3 133.7 122.6 114.1 137.5 159.1 159.4 163.8 167.1 168.9 170.5 169.8 166 159 147.1 129.3 114.6
-2.7 -2.7 -2.7 -2.7 -2.7 -2.7 -2.7 -2.7 -2.7 -2.7 -2.7 -2.7 -2.7 -2.7 -2.7 -2.7 -2.7 -2.7 -2.7 -2.7 -2.7 -2.7 -2.7 -2.7 -2.7 -2.7 -2.7 -2.7 -2.7 -2.7 -2.7 -2.7 -2.7 -2.7 -2.7 -2.7 -2.7 -2.7 -2.7 -2.7 -2.7 -2.7 -2.7 -2.7 -2.7 -2.7 -2.7 -2.7 -2.7 -2.7 -2.7 -2.7 -2.7 -2.7 -2.7 -2.7 -2.7 -2.7 -2.7 -2.7 -2.7 -2.7 -2.7 -2.7 -2.7 -2.7 -2.7 -2.7 -2.7 -2.7 -2.7 -2.7 -2.7 -2.7 -2.7 -2.7 -2.7 -2.7 -2.7 -2.7 -2.7 -2.7 -2.7 -2.7 -2.7 -2.7 -2.7 -2.7 -2.7 -2.7 -2.7 -2.7 -1.7 -1 -0.3 0.4 1.1 1.8 2.6 3.4 9.5 19.1 32.9 38.1 48.6 61.3 74 88.1 100 109.3 118.2 123.5 128.4 132.5 136.2 139.9 143.4 147.2 150.4 152.4 155.1 157.7 160.6 164.9 168 170.5 173.4 175.7 178.1 180.4 181.3 181 180.6 179.1 176.2 172.4 168.7 164.5 160.6 159.1 158.7 158.1 156 152.6 147.5 142.3 138.4 135.1 132.4 130 129.3 129.4 128.9 130.6 129.7 128.4 126 124.3 121.9 119.3 116.5 114.2 110.3 106.1 101.5 94.5 89.4 86.1 83.5 86.3 90.9 94.6 98.9 100.3 100.6 103.8 110.8 116 120.5 128.5 127.9 127 127 125.2 120.3 118.6 111.5 123.2 153.3 155.9 159.7 163.2 166.1 167.5 167.2 162.5 153.9 136.4 119.2 104.7
-2.7 -2.7 -2.7 -2.7 -2.7 -2.7 -2.7 -2.7 -2.7 -2.7 -2.7 -2.7 -2.7 -2.7 -2.7 -2.7 -2.7 -2.7 -2.7 -2.7 -2.7 -2.7 -2.7 -2.7 -2.7 -2.7 -2.7 -2.7 -2.7 -2.7 -2.7 -2.7 -2.7 -2.7 -2.7 -2.7 -2.7 -2.7 -2.7 -2.7 -2.7 -2.7 -2.7 -2.7 -2.7 -2.7 -2.7 -2.7 -2.7 -2.7 -2.7 -2.7 -2.7 -2.7 -2.7 -2.7 -2.7 -2.7 -2.7 -2.7 -2.7 -2.7 -2.7 -2.7 -2.7 -2.7 -2.7 -2.7 -2.7 -2.7 -2.7 -2.7 -2.7 -2.7 -2.7 -2.7 -2.7 -2.7 -2.7 -2.7 -2.7 -2.7 -2.7 -2.7 -2.7 -2.7 -2.7 -2.7 -2.7 -2.7 -2.7 -1.9 -1.3 -0.6 0.1 0.8 1.5 2.2 2.9 4.3 20.3 28.4 34.5 42 52.2 62.8 75.7 88 98 106.7 115.3 121.4 125.6 130.8 132.7 135.1 138.9 141.9 143.6 147 150 154.8 158.2 161.5 164.9 167.2 169.9 172.6 174.9 176.7 178.5 179.2 179.4 178 175.4 172.2 168.9 166.4 164 163.1 162.3 161.3 159.3 156.5 151.7 146.5 143.1 138.7 135.5 135.2 136.1 136.1 138.4 139.1 138.2 136.2 134.8 132.1 129.3 125.8 121.7 119 115.8 111.6 107.5 101.9 96 91.7 87.3 83.4 82.5 86.4 90.1 92.8 93.7 96.6 101.8 106.9 112.4 118.9 120.4 114.1 111.9 111.5 114 114.6 111.5 119.9 140.2 150.1 153.6 156.8 161.6 164.3 163.8 159.4 149.4 126.8 111 90.1
-2.7 -2.7 -2.7 -2.7 -2.7 -2.7 -2.7 -2.7 -2.7 -2.7 -2.7 -2.7 -2.7 -2.7 -2.7 -2.7 -2.7 -2.7 -2.7 -2.7 -2.7 -2.7 -2.7 -2.7 -2.7 -2.7 -2.7 -2.7 -2.7 -2.7 -2.7 -2.7 -2.7 -2.7 -2.7 -2.7 -2.7 -2.7 -2.7 -2.7 -2.7 -2.7 -2.7 -2.7 -2.7 -2.7 -2.7 -2.7 -2.7 -2.7 -2.7 -2.7 -2.7 -2.7 -2.7 -2.7 -2.7 -2.7 -2.7 -2.7 -2.7 -2.7 -2.7 -2.7 -2.7 -2.7 -2.7 -2.7 -2.7 -2.7 -2.7 -2.7 -2.7 -2.7 -2.7 -2.7 -2.7 -2.7 -2.7 -2.7 -2.7 -2.7 -2.7 -2.7 -2.7 -2.7 -2.7 -2.7 -2.7 -2.7 -2.2 -1.5 -0.8 -0.2 0.5 1.1 1.9 2.6 3.4 6.1 23.9 30.3 37.2 45.2 54.5 65.2 76.9 86.6 96.9 106.2 113.5 118.5 122.5 125.7 128.2 131.3 134.5 136.7 138.4 141.5 145.5 150.1 154.2 158.2 161.3 164.5 167.4 170.1 172.1 174.3 176.5 177.6 178 177.2 175.6 173.6 171 169 167.7 166.2 164.9 163.5 161.6 159.7 156.3 153.5 150.6 146.6 141.9 140.9 143.3 145.2 147.1 146.6 144.5 142.4 141.1 139.2 137.2 134.6 130.1 125.9 121.7 115.4 112.8 109.9 104.8 99 93.2 87.8 84.1 80.8 81.3 84.4 85.1 87.9 91.9 99.9 107.4 121.7 119.2 111.4 109.4 121.2 124.6 129.2 133.8 141.2 142.8 144.5 148.1 151.9 155.8 160.1 160.7 158.1 144.3 123.2 101.1 82.6
-2.7 -2.7 -2.7 -2.7 -2.7 -2.7 -2.7 -2.7 -2.7 -2.7 -2.7 -2.7 -2.7 -2.7 -2.7 -2.7 -2.7 -2.7 -2.7 -2.7 -2.7 -2.7 -2.7 -2.7 -2.7 -2.7 -2.7 -2.7 -2.7 -2.7 -2.7 -2.7 -2.7 -2.7 -2.7 -2.7 -2.7 -2.7 -2.7 -2.7 -2.7 -2.7 -2.7 -2.7 -2.7 -2.7 -2.7 -2.7 -2.7 -2.7 -2.7 -2.7 -2.7 -2.7 -2.7 -2.7 -2.7 -2.7 -2.7 -2.7 -2.7 -2.7 -2.7 -2.7 -2.7 -2.7 -2.7 -2.7 -2.7 -2.7 -2.7 -2.7 -2.7 -2.7 -2.7 -2.7 -2.7 -2.7 -2.7 -2.7 -2.7 -2.7 -2.7 -2.7 -2.7 -2.7 -2.7 -2.7 -2.7 -2.7 -1.7 -1.1 -0.4 0.2 0.9 1.5 2.2 2.9 4.3 15.9 21.3 32 39.4 48.7 59 67.4 80.3 87.8 97.1 106.2 111.1 115.1 118.4 121.5 123.8 126 127.9 130.5 133 136.5 141.6 146.4 150.6 154.6 157.8 161.2 164.4 167.6 169.8 172.5 175 176.3 177 176.2 174.8 173.6 172.2 171.2 169.5 167.6 165.9 164.3 163.2 161.8 160.1 158.2 157 154.7 152.9 151.5 151.3 153 152.8 151.7 149.9 148.6 147.4 145.7 143.5 139.7 136 132.3 126.4 122.8 117.6 116.4 112.7 107.5 102.4 95.3 91.8 86.4 81 77.8 80 81.3 86.2 91.2 100 114.4 108.3 103.9 110.2 118.4 124.1 128.9 133.1 133.1 135.7 137.3 141.3 145.5 148.5 154.9 156.6 154.5 138.8 120 94.1 80.7
-2.7 -2.7 -2.7 -2.7 -2.7 -2.7 -2.7 -2.7 -2.7 -2.7 -2.7 -2.7 -2.7 -2.7 -2.7 -2.7 -2.7 -2.7 -2.7 -2.7 -2.7 -2.7 -2.7 -2.7 -2.7 -2.7 -2.7 -2.7 -2.7 -2.7 -2.7 -2.7 -2.7 -2.7 -2.7 -2.7 -2.7 -2.7 -2.7 -2.7 -2.7 -2.7 -2.7 -2.7 -2.7 15.9 17.9 3.2 3.2 6.4 -2.7 -2.7 -2.7 -2.7 -2.7 -2.7 -2.7 -2.7 -2.7 -2.7 -2.7 -2.7 -2.7 -2.7 -2.7 -2.7 -2.7 -2.7 -2.7 -2.7 -2.7 -2.7 -2.7 -2.7 -2.7 -2.7 -2.7 -2.7 -2.7 -2.7 -2.7 -2.7 -2.7 -2.7 -2.7 -2.7 -2.7 -2.7 -2.7 -1.9 -1.2 -0.6 0 0.7 1.3 2 2.6 3.4 14.1 21.4 29.7 34.8 43.5 52.7 63.9 71.9 81.7 88.9 96 104.3 108 111.4 113.7 116.5 118.6 120.5 121.4 123.5 127.2 130.8 137.5 141.8 145.5 149.9 153.9 158.5 162.3 165.4 168 171.3 173.6 175.4 176.2 174.9 173.9 173.2 171.9 170.8 169.2 167.7 166.1 164.7 163.4 162 161.2 160.6 159.8 158.7 157.6 157.2 156.7 156.9 156 155 154.4 154 152.1 150.7 147.9 144.6 140.9 137.6 131 125.7 124.6 123.7 120.9 117.3 112.8 107.1 102.2 96.1 90.4 84.8 80.8 76 79.3 84.2 88.6 97.5 100.6 100.9 107.7 113 116 120.1 123.7 123.6 125.5 128.5 133.3 137.1 144.3 149.2 151.6 150.2 135.4 117.2 88.8 81.6
-2.7 -2.7 -2.7 -2.7 -2.7 -2.7 -2.7 -2.7 -2.7 -2.7 -2.7 -2.7 -2.7 -2.7 -2.7 -2.7 -2.7 -2.7 -2.7 -2.7 -2.7 -2.7 -2.7 -2.7 -2.7 -2.7 -2.7 -2.7 -2.7 -2.7 -2.7 -2.7 -2.7 -2.7 -2.7 -2.7 -2.7 -2.7 -2.7 -2.7 -2.7 -2.7 -2.7 -2.7 1.4 51.2 46.4 41.6 39.8 40.9 34.4 -2.7 -2.7 -2.7 -2.7 -2.7 -2.7 -2.7 -2.7 -2.7 -2.7 -2.7 -2.7 -2.7 -2.7 -2.7 -2.7 -2.7 -2.7 -2.7 -2.7 -2.7 -2.7 -2.7 -2.7 -2.7 -2.7 -2.7 -2.7 -2.7 -2.7 -2.7 -2.7 -2.7 -2.7 -2.7 -2.7 -2.7 -2 -1.3 -0.6 0 0.5 1.2 1.8 2.4 3 5.2 20.7 24.7 35.8 41 46.3 53.8 63.3 71.8 80.3 87.8 93.4 99.7 103.9 106.4 109.1 111.2 113.1 114.2 115.5 117.8 121.5 128.1 133.6 137.7 141.3 145.5 150.1 154.7 159.4 162.7 166 169.5 171.9 173.6 174.1 173 171.9 171.3 170.6 169.3 168.1 166.7 165.4 164.6 164 162.5 161.5 160.8 160.3 159.4 158.4 157.5 156.3 155.9 156 155.5 155.6 154.8 153.5 153.1 151.4 148.5 146.2 141.6 138.7 136.5 133.9 132.6 128.8 126.4 124 121.5 115.7 108 99.3 92.9 87 80.1 75 77.3 83 86.6 92.3 95.3 99.9 105.2 107 110.1 111.5 113.3 115.3 119.9 126.1 130.5 134.1 140.7 147.6 146.8 134.1 114.9 85 74.9
-2.7 -2.7 -2.7 -2.7 -2.7 -2.7 -2.7 -2.7 -2.7 -2.7 -2.7 -2.7 -2.7 -2.7 -2.7 -2.7 -2.7 -2.7 -2.7 -2.7 -2.7 -2.7 -2.7 -2.7 -2.7 -2.7 -2.7 -2.7 -2.7 -2.7 -2.7 -2.7 -2.7 -2.7 -2.7 -2.7 -2.7 -2.7 -2.7 -2.7 -2.7 -2.7 -2.7 -2.7 40.8 63.7 72.9 71 70.9 69.4 60.5 50.9 42.7 33.7 26.4 -2.7 -2.7 -2.7 -2.7 -2.7 -2.7 -2.7 -2.7 -2.7 -2.7 -2.7 -2.7 -2.7 -2.7 -2.7 -2.7 -2.7 -2.7 -2.7 -2.7 -2.7 -2.7 -2.7 -2.7 -2.7 -2.7 -2.7 -2.7 -2.7 -2.7 -2.7 -2.7 -2.7 -1.4 -0.8 0 0.7 1.2 1.7 2.3 2.9 4.2 16.6 22.1 36.1 47.6 52.3 52.7 56.3 63.5 71.8 79.5 86 91 96 99.5 101 102.9 105.7 105.4 107.8 109.2 112.1 118.2 124 129 132.3 135.7 140.3 145.9 151.4 155.1 159 162.6 166.2 168.5 170.2 171.3 170.3 168.9 168.6 167.9 166.6 166.2 165.3 164.4 163.6 162.7 161.9 160.7 159.9 159.3 158.2 156.6 155.4 153.9 153.8 153.1 153.9 154.1 154.7 154 153.3 151.9 150.7 148.8 145.8 143.6 142.3 141.8 140.2 138.4 134.6 133.6 132.1 126.3 118.9 110.1 101.2 94.4 86.8 78 72 77.3 83.1 87.3 89 91.2 95 96.5 97 97.5 102.6 106 112.2 120.5 125.9 130.3 133.8 140.5 143.1 134 116.4 88.6 75
-2.7 -2.7 -2.7 -2.7 -2.7 -2.7 -2.7 -2.7 -2.7 -2.7 -2.7 -2.7 -2.7 -2.7 -2.7 -2.7 -2.7 -2.7 -2.7 -2.7 -2.7 -2.7 -2.7 -2.7 -2.7 -2.7 -2.7 -2.7 -2.7 -2.7 -2.7 -2.7 -2.7 -2.7 -2.7 -2.7 -2.7 -2.7 -2.7 -2.7 -2.7 -2.7 -2.7 -2.7 52.4 72.7 84.3 88.6 90.1 87.2 81.7 76.6 68.8 60.1 49.3 38.1 -2.7 -2.7 -2.7 15.2 22 -2.7 -2.7 -2.7 -2.7 -2.7 -2.7 -2.7 -2.7 -2.7 -2.7 -2.7 -2.7 -2.7 -2.7 -2.7 -2.7 -2.7 -2.7 -2.7 -2.7 -2.7 -2.7 -2.7 -2.7 -2.7 -2.7 -1 -0.8 -0.1 0.5 1.2 1.9 2.4 3 3.4 10.7 22.3 29 45.9 59.3 66 67.7 65 67.3 73.1 79.1 83.9 88.8 92.9 95.9 97.7 98.7 100.2 102.5 102.4 105 109.7 114.6 119.6 123.3 126.8 130.9 135.4 140.5 146.5 150.1 153.7 157.8 161.6 164.3 165.9 166.8 166.3 165.6 165.4 164.9 164.3 163.9 163.6 162.4 161.7 160.9 159.8 157.8 156.9 156.1 155.4 154.2 152.7 151.3 149.9 149.6 150.2 151.4 152.6 153 151.8 151.1 149.3 148.6 146.9 145.7 145.5 145.5 145.1 145.3 143.4 139.2 137.8 136.2 131 120.8 109.9 97.9 90.6 82.8 75.4 72.3 73.4 80.3 80.6 81.2 83.7 82.6 83.1 85.9 92.1 98.3 104.7 112.3 119.2 125.2 130.3 136.3 141.1 135.4 117.3 92.4 76.2
-2.7 -2.7 -2.7 -2.7 -2.7 -2.7 -2.7 -2.7 -2.7 -2.7 -2.7 -2.7 -2.7 -2.7 -2.7 -2.7 -2.7 -2.7 -2.7 -2.7 -2.7 -2.7 -2.7 -2.7 -2.7 -2.7 -2.7 -2.7 -2.7 -2.7 -2.7 -2.7 -2.7 -2.7 -2.7 -2.7 -2.7 -2.7 -2.7 -2.7 -2.7 -2.7 -2.7 50.9 71.4 89 93.2 93.9 93.5 91.6 88.8 85.4 82.7 80.3 73.6 62.7 52.1 46.2 46.8 51.7 47.9 40.1 35.3 36.5 36.5 25.2 37 39.6 29.1 6.4 25.9 40.7 41.7 42.8 35.5 29.1 2.1 -2.7 -2.7 -2.7 -2.7 1.7 -2.7 -2.7 -2.7 -2.7 -0.7 0.1 0.3 0.5 1.2 1.8 2.5 3.2 7.8 18.6 21.8 28.3 39.8 59.9 62.6 77.8 75.1 73 74 75.6 78.8 83.1 86.6 89.5 91.9 93.5 94.5 96 97.5 99.7 102.3 106.9 110.5 114.5 118.3 123 127.1 131.7 137.1 141.6 144.6 148.9 152.9 157.3 159.7 161.1 162.6 162.6 162.3 161.8 161.6 161.4 160.7 161.2 159.9 158.9 157.7 156.2 154.6 153.3 152.6 151.9 150.4 150 148.3 146.5 146.2 146.7 148.1 149.7 150.2 148.9 148.8 146.1 146.3 146.2 145.5 146.5 147.3 149.7 151.1 150.8 149.1 146 144.3 142.2 136.2 122.9 107.4 96.2 87 80.2 74.9 70.4 69.6 68.9 68.6 69.3 70.7 72.3 76.6 81 89.3 96.9 106 113.3 120 124.9 131 135.9 138.4 121 94.4 73.5
-2.7 -2.7 -2.7 -2.7 -2.7 -2.7 -2.7 -2.7 -2.7 -2.7 -2.7 -2.7 -2.7 -2.7 -2.7 -2.7 -2.7 -2.7 -2.7 -2.7 -2.7 -2.7 -2.7 -2.7 -2.7 -2.7 -2.7 -2.7 -2.7 -2.7 -2.7 -2.7 -2.7 -2.7 -2.7 -2.7 -2.7 -2.7 -2.7 -2.7 -2.7 -2.7 1.6 74.4 83 87.8 90.1 92.2 93.3 91.9 89.8 89.1 90.4 92.8 93.5 87.6 79.1 75.1 72.9 71.1 70.5 66.9 64.3 65.4 65.4 64.7 68.8 68.8 63.9 63.8 66.2 71.6 73.6 73.7 71.6 65.9 58.7 52.3 34.5 18.6 48.7 45.2 49.7 27.8 5.1 1.8 1.1 1.6 1.5 1.6 1.9 2.5 3.1 4.5 17.9 22.2 27.8 38.5 57.7 66.7 75.4 77.9 77 77.3 78.7 79.2 79.5 82 84.4 86.2 88.1 89.8 90.3 92.5 95 97 99.8 103.1 105.8 110 114.6 120 124.5 129.3 133.4 137.1 140 142.8 147.1 151.7 154.6 156.3 157.9 158.3 158.2 158.1 157.9 158 158 158 156.5 155.7 154.1 152.8 150.9 149 148.1 147.7 147.4 146.2 144.6 142.6 142.4 143.1 144.4 146.3 145.5 144.3 143.5 143 143.7 144.2 144.3 145.9 148.3 151 153.8 154.2 153.5 151.9 149.5 147.1 142.2 134.6 121.3 107.5 94.6 87.3 81.6 76.3 72.8 69.9 66.2 65.5 64.9 65.7 68.8 73 79.6 89.3 97.9 105.3 113.1 117.7 121.4 127.1 131.7 116.8 90.9 71.9
-2.7 -2.7 -2.7 -2.7 -2.7 -2.7 -2.7 -2.7 -2.7 -2.7 -2.7 -2.7 -2.7 -2.7 -2.7 -2.7 -2.7 -2.7 -2.7 -2.7 -2.7 -2.7 -2.7 -2.7 -2.7 -2.7 -2.7 -2.7 -2.7 -2.7 -2.7 -2.7 -2.7 -2.7 -2.7 -2.7 -2.7 -2.7 -2.7 -2.7 -2.7 4.3 71.9 78 81.3 83.3 85.1 88 89.5 89.5 89.5 90.9 93.7 96 97.1 95.3 90.7 84.4 82.1 79.4 78 77.5 77.7 75.9 75.2 76.1 78.6 77.3 79 80.5 81.4 83.3 89.2 93.4 93.6 92.6 88.9 83.3 74 71.2 77.2 82.3 76.6 65.4 51.9 38.2 5.6 2.9 2.7 2.8 2.9 3.2 3.2 7.5 22.4 26.8 37.4 53.1 61.5 69.9 75.1 76.1 76.8 78.5 81.4 80.1 79.1 80.1 82.1 83.9 86 86.7 86.8 90 91.9 94.1 96.9 100.1 103.8 108 112.4 117.9 122.9 127 130.1 133 135.2 137.6 141.3 146 148.1 149.7 150.5 151.6 152.2 153.4 153.9 154.1 154.2 153.9 153.7 152.2 150.6 148.5 146.6 145 144 144 144.1 143 140.7 138.8 138.1 138.8 140.5 142.1 141.7 140.2 138.9 138.3 139.4 140.1 141.3 142.9 145.9 149.3 152.1 153.7 154.6 154.1 152.6 149 144.3 138.8 132.4 121.7 108.8 99.4 92 86.2 81.9 78.5 76 73.6 69 63.8 62.7 66.9 73.4 80.3 88.6 97.3 105 110.3 111.8 116.8 118 106.3 82.3 72.3
-2.7 -2.7 -2.7 -2.7 -2.7 -2.7 -2.7 -2.7 -2.7 -2.7 -2.7 -2.7 -2.7 -2.7 -2.7 -2.7 -2.7 -2.7 -2.7 -2.7 -2.7 -2.7 -2.7 -2.7 -2.7 -2.7 -2.7 -2.7 -2.7 -2.7 -2.7 -2.7 -2.7 -2.7 -2.7 -2.7 -2.7 -2.7 -2.7 -2.7 2 3.2 56.3 76.7 79.2 79.7 80.3 81.2 81.8 81.4 80.8 82.7 87.6 91.6 93 92.6 90.6 86.7 83.9 82.3 82.3 82.7 82.6 81 78.9 78 78 77.7 79.1 80.7 83 85.3 88.8 92.9 95.9 98 97.2 94.3 94.2 92.2 92.6 95.6 91.4 84.7 76.5 66.6 54 45.7 31.2 11.4 21.1 24 23.5 24.5 26.8 37 49.4 57.7 65.2 71.7 72.3 73.6 74.6 76.9 78.5 78.7 76.8 77.5 78.6 80.2 82.5 82.8 85.2 86.6 88.6 92.2 95.6 99.1 103 108.2 112.9 117.3 121 124.5 128 129.7 130.6 133.1 135.8 139.7 140.8 141.7 142.8 145.2 146.4 148.4 148.9 149.5 150.1 150.5 149.7 148 146.4 144.4 142.5 141.1 140.3 140 140.6 139.9 137.5 134.9 133.7 134.7 136.3 137.8 137.5 135.2 133.7 133.5 134.2 135.3 136.9 139 142.5 145.6 148.4 150.1 151.1 151 150.7 149.2 146.2 141.7 136.5 127.5 120.4 114.5 107.8 99.9 94.6 91.2 88.8 85.1 79 72.2 65 59.9 68.1 74.9 80.8 89.1 95.8 102.6 105 106.1 103.4 93.3 70.9 75
-2.7 -2.7 -2.7 -2.7 -2.7 -2.7 -2.7 -2.7 -2.7 -2.7 -2.7 -2.7 -2.7 -2.7 -2.7 -2.7 -2.7 -2.7 -2.7 -2.7 -2.7 -2.7 -2.7 -2.7 -2.7 -2.7 -2.7 -2.7 -2.7 -2.7 -2.7 -2.7 -2.7 -2.7 -2.7 -2.7 -2.7 -2.7 35.1 44.3 22.4 37.5 50.1 76.1 76.7 76.9 76.4 76.1 76.1 76.2 75.4 76.5 79 81.4 84 86 85.3 84 83.2 85 86 86.1 83 80.9 78.9 76.9 76.4 76.7 77.5 79.1 81.3 84.2 86.9 90.8 93.7 95.6 95.6 95.4 95.1 95.3 94.8 93.6 91.8 89.2 84 78.2 73.3 72.1 62 52 42.1 36.6 34 34.1 36.7 47.6 56 61.7 65.4 67.8 69.4 70.8 71.9 73.8 75.7 76.8 75.7 74.2 75.5 76.6 78.1 80.1 82.2 84.7 87.9 90.9 94.1 98.6 103 108.6 113.1 117 121.2 123.8 125 125.5 126.2 126.8 131 133.6 133.9 134.4 135.9 138.5 140.2 142.1 143.2 144.2 146 146.9 145.7 144.1 142.3 140.7 138.5 137.3 137.2 137.6 138 136.5 134.8 131.9 129.2 130.6 131.9 133.2 132.4 130.4 128.5 128 129.1 130.2 132 135 138.6 141.2 143.7 145.7 146.6 147.2 147.1 146.6 145.3 142.6 138.8 132.8 126.9 121.9 116.7 112.5 107.9 103.3 100.1 95.4 88.7 81.6 72.9 62.6 61.1 70.4 75.5 82.3 88.9 94.6 96.4 93.9 88.7 78.5 67.3 71.6
-2.7 -2.7 -2.7 -2.7 -2.7 -2.7 -2.7 -2.7 -2.7 -2.7 -2.7 -2.7 -2.7 -2.7 -2.7 -2.7 -2.7 -2.7 -2.7 -2.7 -2.7 -2.7 -2.7 -2.7 -2.7 -2.7 -2.7 -2.7 -2.7 -2.7 -2.7 -2.7 -2.7 -2.7 -2.7 -2.7 -2.7 -2.7 -2.7 11.2 54.8 71.3 76.7 75.8 75.3 74.7 73.1 72 71 69.9 71.2 72.2 74.6 77 79 80.9 82.2 81.4 82.7 85.9 87.3 87.6 84 79.8 77.1 74.9 74.4 75.4 75.5 78.2 81 83.4 86.1 89.5 91.1 92.4 92.1 91.8 91.7 91.4 90.9 89.6 89 87.6 85.5 83.7 80.2 78.8 75.5 69 61.4 54.1 51.1 48.7 49.4 52.8 57.2 61.4 63.3 64.5 66.3 67.3 68.1 69.3 71.2 72.6 70.6 71.4 73.4 75.7 78.1 80.4 82.8 84.8 86.5 89.9 92.9 98 103.3 108 113.3 118.1 121.6 122.3 121.9 121.3 121.6 122.1 123.5 125.3 126.7 126.7 128.9 132.1 134.1 135.4 136.6 139.5 141.8 142.6 142.3 141.1 138.7 136.6 135 133.4 133.1 133.9 134.6 134.2 132.1 128.2 124.3 126 128.4 129.2 128.3 125.8 123.3 122.4 122.8 124.3 127.2 130.2 133.8 136.6 138.2 139.9 141.1 142.2 141.9 141.7 141.4 140.2 139 137.1 132.1 128 123.9 120.3 116.5 111.9 107.2 100.7 95.9 88.5 80.1 68.2 57.9 67.7 71.4 75.8 81.9 83.8 86.3 79.3 74.4 65.8 66.9 72
-2.7 -2.7 -2.7 -2.7 -2.7 -2.7 -2.7 -2.7 -2.7 -2.7 -2.7 -2.7 -2.7 -2.7 -2.7 -2.7 -2.7 -2.7 -2.7 -2.7 -2.7 -2.7 -2.7 -2.7 -2.7 -2.7 -2.7 -2.7 -2.7 -2.7 -2.7 -2.7 -2.7 -2.7 -2.7 -2.7 -2.7 -2.7 -2.7 -2.7 49.9 66.3 74.5 76.1 75.2 73.3 70.8 68 65.4 65 66.7 67.5 70.2 72.9 74.7 78.2 79.7 79.2 79.5 82.8 83.8 82.9 81.8 78.9 75.4 72.6 71.9 72 72.8 75.6 77.7 79.6 82.4 85.3 87.5 88 88.5 88.1 86.9 87.5 87.4 85.9 86.2 85.2 84.4 83.4 83.2 82.9 81.4 76.9 71.1 65.5 62.7 56.5 55.2 57.7 59.8 61.1 61.8 62.6 63.7 64 65 65.7 67.7 69.4 72.1 74.5 76.4 77.2 78.2 80.5 82.4 84.1 85.9 89.1 92.8 98.2 103.7 108.2 113.5 118 120 120 118.9 117.8 117.7 117.8 118.5 118.9 120.5 120.9 124.3 126.9 127.9 128.6 130.4 133 138.4 139.2 138.9 137.6 135.6 133.7 131.7 130.3 129.8 130.4 131.7 131 129.5 125.7 120.9 120.6 123.8 124.8 123.6 121.3 118.9 117.5 117.9 119.2 121.8 125.7 128.7 131.5 133.5 134.3 135.1 135.8 135.8 135.7 134.9 134.8 135.3 135.9 134.8 132.5 129.4 127.1 125.1 122.9 116.2 108.8 102 93.7 83.7 71.5 59.6 62.2 66.4 68.9 71.2 70.8 67.1 64.5 64.2 65 70.1 75.6
-2.7 -2.7 -2.7 -2.7 -2.7 -2.7 -2.7 -2.7 -2.7 -2.7 -2.7 -2.7 -2.7 -2.7 -2.7 -2.7 -2.7 -2.7 -2.7 -2.7 -2.7 -2.7 -2.7 -2.7 -2.7 -2.7 -2.7 -2.7 -2.7 -2.7 -2.7 -2.7 -2.7 -2.7 -2.7 -2.7 -2.7 -2.7 -2.7 -2.7 31.4 56.1 69.1 75.6 75 72.3 69 65.5 62.5 61.4 60.8 61 63.2 66.8 70.3 75.7 77.8 76.3 75.3 77.5 77.4 76.6 75.3 73.4 70.9 68.1 67.7 68.2 69.7 71.6 73.3 75.4 77.4 79.3 80 80.9 81.6 82 80.9 80.9 80.4 80 80.1 80 80.5 80.4 80.8 81.1 80.8 79.9 76.9 74.6 69.7 64.4 60.7 60.5 62.4 62.2 63.3 63.8 63.8 62 63.6 66.3 70 74.1 77.4 79.7 81.5 82 81.5 80.5 82 83.5 86.1 89.5 93.4 99.4 105 109.3 113.8 117.7 118.9 117.2 115.6 114.6 114 113.8 114.2 114.5 115.5 116.7 119.6 121.6 122.6 123.6 125.7 128.7 134 136.3 136.2 135.2 132.5 130.8 129 127.4 126.4 127.1 128.2 128.1 125.8 123.3 118.5 115.8 119.2 119.9 119.4 116.9 114.4 112.6 113 114.4 117.1 120 123 126 127.2 128.8 129.5 129.2 129.1 129 128.5 129.3 130.7 132.5 134 135.2 134.6 134.3 133.3 132.8 128 119.9 111.5 100.6 87.8 76.5 63.1 56.7 61 63.5 63.8 61.1 60.8 61.4 63.2 67.3 75.9 87.8
-2.7 -2.7 -2.7 -2.7 -2.7 -2.7 -2.7 -2.7 -2.7 -2.7 -2.7 -2.7 -2.7 -2.7 -2.7 -2.7 -2.7 -2.7 -2.7 -2.7 -2.7 -2.7 -2.7 -2.7 -2.7 -2.7 -2.7 -2.7 -2.7 -2.7 -2.7 -2.7 -2.7 -2.7 -2.7 -2.7 -2.7 -2.7 -2.7 -2.7 -2.7 32.6 48.3 61.1 71.8 75.3 70.1 64.2 60.6 57.5 56.5 56.3 57.8 62 66.2 71.1 72.1 71 70.9 71.9 72.2 72.1 70.6 67.8 65.5 64.2 63.7 65.3 67.4 69.5 71.3 73 75 75.9 76.2 76.2 76.1 75.1 74.3 74.1 73.2 72.8 72.5 73.5 74.9 75.6 76.2 77 77.4 76.5 75.4 73.4 71 67.5 64.5 62.1 61.9 61.8 63.1 64.1 62.3 60.7 64.3 69.1 74.1 78.5 81.8 83.8 86.1 86 85.3 84.4 83.9 85 87.2 90.1 94.4 101 106.5 110.4 114.9 118 119.3 116.6 113.4 111.5 110.2 109.4 109.2 110.3 111.2 112.9 115 116.6 117.5 118.5 122 124.9 129.9 132.8 133.7 132.3 130.5 128.4 126 123.8 123.7 124.9 124.9 124.7 123.2 120.1 116 110.5 112.7 114.4 113.4 112.6 110.4 108.4 107.2 109.2 111.3 114.4 117.6 120.2 121.8 122.7 122.7 122.3 122.2 122.1 122.9 124 125.9 128.6 130.9 132.9 135.6 136.7 137.3 137.3 134.5 129.8 121.1 109.4 94.2 76 64.6 57 57.2 58.2 58.9 59 60.4 61.3 66.9 73.7 82.1 88.7
