ncols 200
nrows 82
xllcorner 340000
yllcorner 774500
cellsize 50
534 517 502.3 491.6 480.8 465.4 448.5 433.8 419.4 406.4 393.6 384.2 383.3 384.1 382.6 385.7 394.9 423.1 459.5 484.8 497 505 511.3 516.4 523.7 527.9 533.6 536.9 542.9 547.7 550.5 547.1 541.4 531 516.6 499.5 487.6 477.7 470.3 463 447.9 438.5 431.7 425.1 416.7 413.2 419.8 434.4 454.1 472.7 490.1 507.1 522.3 538.4 554.4 568.4 580 589 597.5 601 603.3 601 595.6 586.8 570.8 558.9 547.1 539.2 533.8 530 530.7 534.9 541.3 547.9 555.4 560.2 562.9 559 552.9 543.7 531.2 521.4 510.5 499.8 489.8 481.2 469.9 460.4 450.6 441.1 430.8 420.1 409.8 392.5 378.3 358.3 346.1 333.5 320.2 309.6 298.9 290.6 283.2 277.4 270.1 250.8 254.1 260.6 261.3 260.9 259.3 256.2 250.9 246.3 243.7 240.5 239.3 237.2 235.3 231.7 230.9 231.4 223.2 221.7 221 223.7 226 225.4 224.6 224.5 226.5 225.6 225 223.7 221.7 220.7 220.6 220.5 218.1 216.2 215.6 212.5 210.4 208.5 207.3 204.5 203.8 204.7 201.6 203.7 202.5 202.2 201.6 200.6 199.8 199 198.4 196.3 195.2 197.8 196.4 196.3 201.9 198.2 200.8 202.7 204 208.9 211.6 214.8 215.3 216 218.5 217.1 215 217.7 217.1 217.4 217.7 215.2 216 217 217 218.2 218.2 218.7 218.6 219.6 219.8 222.9 223.1 221.1 222 221.4 217.5 219.7 217.9 215.8 214.7 213.7
520.3 504.7 491.9 479.6 465.8 449.8 434.5 421.5 409.6 396.1 398.2 396.8 397.6 396.9 396.2 401.1 408.9 437.5 468.6 486.9 498.8 509.1 516.2 522.1 529.2 536.5 543 547.9 554.1 560.2 562.4 560.2 556.5 548.6 534.2 514.2 495.9 480 471.6 463.1 452.1 441.5 436.5 429 423.1 419.5 426 444 461.6 476.9 491.8 508.3 524.7 540.8 557.1 572 585.7 597.2 606.3 612.3 615.9 615.4 609.9 601.1 587.3 573 558.7 550 545.8 542.6 541.7 545.5 550.5 554.9 559.4 563.1 562.4 555.6 546.9 536.6 526.2 512.9 502.7 489 480.3 471.1 460.9 452.4 444.1 433.5 425.7 416 405.7 387.3 372.3 356.9 343.5 333.1 321.6 310.9 298.6 288.9 280.6 273.6 254.6 260 269.1 273.1 273.9 271.8 270.3 265.5 259.3 255.4 250.7 250.7 247.5 243.6 238.3 234.8 233.2 231.4 229.5 225 223.4 221.2 219.8 228.4 227.1 222.5 221.4 223.8 222.4 221.6 218.2 216.7 217.4 217.9 216.5 215.3 214.9 210.2 208.9 207.6 201.6 201.9 202 201.4 201.9 201.5 199.7 197.9 197.9 198.8 199.8 197.2 195.8 198.4 198.4 198.3 198.8 204.2 206.1 206.3 209.1 211.2 213.1 216.4 219.5 218.7 220.9 221.5 223.2 222.9 222.2 221.6 221.3 223.7 222.1 219.6 219.9 219.3 218.8 218.6 219.7 220.2 219.8 220.2 220.1 221.6 220.6 220 219.9 219.6 220.2 220.6 218.5 217.3 215.9 215.9
508.5 494.5 479.6 465.4 451.7 435.9 422.8 409.9 402.1 406.6 409.4 413.3 414.6 414.7 411.9 414.1 417.7 440.4 465.4 482.8 495.5 506.4 515.7 523.4 531.4 539.6 548.7 556.6 564.6 569.3 572 571.9 568.7 564.3 551.2 531.4 507.8 486.8 473.5 465.8 457 448.6 441.5 436.6 430.1 427 432.6 452.3 471 485.7 498.8 511.8 527.4 543.5 559.2 574.7 589.2 602 613.1 622.7 629 628.7 623.6 616 605.8 591.4 576.6 564.8 558.5 554 553.8 555.7 557.8 559.9 561.6 561 557.1 549.5 539.3 528.8 516.3 503.1 491 478.9 469.9 460.6 450.7 442.1 433.8 425.4 415.7 406.2 394.7 381.4 367 355 341.3 330 319.1 308.1 297.4 284.1 269.2 256.5 262.8 274.1 288.1 291.4 288.9 284.9 282 274.7 269.5 264.5 261.8 257.6 255.6 250.2 245.6 242.7 238.2 235.1 233.5 229.3 225.4 223.4 220.3 222.1 221 219.8 218 217.4 217.2 220.5 214.6 214.1 212.9 212.5 212.7 212.3 210.6 209.4 202.6 204.7 205.5 204.8 204.3 203.7 203.3 202.5 202.1 201.4 199.7 199.8 200.1 202 201.6 202.8 202.9 204 205.3 217.8 214.6 215.9 217.2 217.4 219.8 222.5 222.7 223.3 225.1 226.2 227.4 226.4 226.9 226 225.7 226.8 224.8 223.7 222.3 222.2 222.6 221.2 221 221.2 221.4 221 220.6 220.7 220.7 220.7 221.2 220.2 219.8 218.9 219 218.5 218.7 216.9
498.7 484.8 468.8 454 438.7 425.8 412.7 412.7 418.6 423.6 427.7 429.5 430.2 429.2 429.1 428.1 430.7 440.2 458.7 477.8 491.2 502.1 511.3 521.6 532.5 542.5 552.7 563.3 571.9 581 585.4 585.1 583.3 579.6 570.1 547.5 527.2 498.5 479.1 469.9 464.4 457.8 450 443.1 438.3 433.2 442.9 460.4 481.6 497.2 509.5 522.1 535.4 548.6 564.7 578.4 591.8 605.6 618.1 628.7 635 636.8 633.7 626.4 617 606.2 595 584.3 576.4 571.7 569.4 565.8 564.3 562.9 560.4 555.9 548.1 539.2 527.9 517.1 501.9 489.3 477.2 466.4 457.1 449 439.7 430.8 421.8 414.3 402.9 394 384 373.7 362.9 350.6 337.7 327.6 316.3 305.6 295.4 282.1 260.5 260.3 272 290.3 305.8 321.2 314.8 312 305.5 297.9 285.4 277.9 272.7 265.6 262.4 257.3 253.4 250 244.4 239.7 237 233.8 231.4 225.7 223 218 220.9 219.6 218.1 216.8 215.9 215.5 215.3 214.3 213.2 212 211.5 210.6 209 204.2 207.6 206.8 206.4 207.2 206.5 205.6 205.1 203.9 202.8 203 203.2 202.6 205.2 205.9 207.2 209.6 211.3 215.4 217.6 218.7 219.3 224 224.9 225.8 226.4 227.3 226.5 227.4 228.9 229.1 229.9 230 230.8 231.8 230.4 231.6 228.7 227.2 226.1 225.3 224.5 223.2 222.2 222.5 222.3 222.1 221.4 221.4 221.4 221.5 222 220.7 221 220.4 219.2 220.2 219.7 218.7
488.7 471.3 455.4 442.5 429.6 419.4 422.2 430.4 434.7 440.1 442.9 444.6 446.7 446.2 445.7 443.4 445.5 447.7 455.5 471.6 488.2 500.1 509.4 522.1 534.8 545.2 556.7 569 581.2 590.1 596.2 597.7 594.5 590 581.9 565.4 545.3 519.5 493.6 479.8 475.8 469.8 460.5 452.9 447.7 443.7 454 472.6 490.5 506.9 519.4 532.9 545.9 558 570.7 583.3 596.2 609.8 623.7 633.1 640.7 645.8 641.8 633.7 624.5 615.2 605.6 595.6 587.9 581.8 577.5 573.4 569.3 565 558 549.9 540.3 528.7 516 503.2 488 476 463.8 453.4 445.2 435.7 427.3 417.8 408.8 400.8 392.5 382.7 371.6 365.3 354.1 345.4 333.6 322.8 310.9 301.9 290.8 281.1 261.3 270.9 286.1 306.4 326 346.5 352.7 345.9 339 322.6 307 293.9 283.5 276.6 272 268.4 263 256.8 252.9 245.4 242.5 237.5 235.3 233.2 231.4 224.5 217.2 216.6 214.7 212.5 212.2 212 212.8 213.6 212 211.2 211.2 210.4 209.4 204.1 210.7 210.5 209.7 209.7 208.6 210.4 209.1 208.5 207.9 207.7 207.8 209.5 210.9 211.1 213.6 218.4 223.6 226.2 227.2 228.6 230.6 231 232.4 231.7 232.2 232.2 233 231.8 231.7 232.8 233.2 233.9 235.4 235.5 235.4 234.5 233 231.7 230.5 230.4 227.5 226.5 224.9 223.9 223.6 223.5 223.2 222.9 222.4 222.3 222.6 222.8 222.3 221.7 221.4 221.8 221.2 220.8
477.9 460.7 445.8 434 426.3 433.4 438.5 445.6 451.6 454.9 457 459.8 461.5 462.5 461.5 459.4 456.8 458.6 462.3 469.1 484.4 498.3 510.8 524.1 536.8 549.2 561.3 574.2 586.8 597.8 603.8 606.2 606.1 602.6 594.8 581.5 562.9 528.5 503.8 487.9 482.4 475.4 468.2 462.8 458.1 453.5 461.1 476.2 497 514.7 528.6 543.3 556.2 567.9 579.3 590.5 602.5 616.4 627.5 637.4 644.3 648 645.3 637.6 628.5 618.7 607.3 599.3 592.4 586.1 581.2 575.4 569.7 562.9 553.7 542.5 530.5 517.7 503.1 489.9 477.4 463.7 451.1 440.6 432.3 422.9 414.9 404.5 397.8 388.4 380.2 372 364.1 355.1 346.8 336.4 327.6 316.6 305.4 296.1 285.8 274.3 269.4 281.4 301.5 321.6 344.4 362.5 372.6 380.8 371.2 349.7 325.5 311.1 299.9 289.4 281.1 276.4 273.3 267.9 261 256.5 249.2 242.2 240.2 238.1 235.5 232.2 227.7 224.1 223.8 222.4 217.7 215.3 213.4 213.6 211.2 210.2 207.6 209.8 207.2 210.7 212.9 215.7 215.2 213.1 212 214.2 212.3 211.8 211.1 211.6 213.4 216.1 219.4 223.1 227.7 231.5 232.4 235.4 235.8 238.4 240.2 240.3 239.5 237.5 237.5 237.5 237.7 237.4 237.9 238.4 238.8 238.6 239.4 239.6 238.2 237.5 238.5 238.4 238.2 235.5 233.5 231 228 226.1 225.9 226.2 225.7 224.8 224.3 224.2 224.4 224.7 224.4 224.1 224 224 223.8 223.3
468.4 452 436.6 438.7 444.8 449.2 457.3 462.9 467.1 469.1 474.2 475.6 478.4 478.5 475.3 470.5 468.7 474.1 472.9 471.8 483 497.8 510.9 526.3 539.2 552.1 566.1 579.3 592.3 602.7 610.8 615 616.6 612.7 607 595.6 577.2 548.8 520.2 502.7 491.8 482 477.2 472.7 468 463.1 471 484.2 504.5 522.6 537.4 552.1 565 577.3 588.8 601.8 614.4 623.1 632.6 639.5 643.1 645.4 643.1 637.2 629.1 618.1 607.4 598.2 590.6 585.7 580.3 573.8 566.7 557.9 547.3 534 519.6 505 489.9 474.8 462 450.1 438 427.5 420.9 410.2 403.4 393.7 385.6 377.7 370.4 362.5 355.6 346.3 338.2 329.5 318.1 308 296.9 288.2 279.2 268 277.5 294.8 316.4 335.8 361.6 373.4 384.9 397.1 399.8 388.5 360 330.3 317.1 305.1 292.1 284.7 280.5 275.5 269.9 264.6 258.5 251.9 248.1 243.7 240 236.5 231.2 227.1 223.8 222.4 219.4 221.3 220.7 218.7 220.9 218.3 216.7 211.9 211.7 214 215.6 218.4 217.8 216.8 217.1 216.7 214.6 214.2 217.2 219.7 221.3 227.8 233.4 234.4 238.2 240.2 242.6 245.2 246.4 247.4 249.2 249 247.1 245.9 245 243.8 243.2 243 243.9 242.3 242.9 243.2 243.5 243.3 244 243.9 244.3 243.9 242.6 241.6 240.3 234.9 232.3 230.5 228.7 228 227.6 227.2 226.2 225.9 226 226.2 226.5 226.5 226.3 226.3 226.5 226.6
460.3 445 448.3 450.9 457.7 464.2 471.8 478.4 484.7 488.5 492.9 500.3 500.8 495.7 489.2 482.8 478.3 481.2 480.1 476.1 483.9 497.5 511.5 526.3 540.5 554.6 570.1 584.3 597.1 609.5 619.5 625.1 626.7 625.5 620.4 611.7 597.8 577.1 548.1 516.3 504.9 492.3 486.2 480.7 476.7 470.9 476.7 494.5 514.1 532.4 547.5 562.5 574.9 587.7 600.8 613.9 624 628.7 633.8 637.7 639.1 639.8 638.2 634 623.2 612.1 601 591.8 584.4 578.8 574.3 568.1 560.2 550.2 537.9 522.3 505.5 488.9 474.1 459.5 447.1 437.8 426.2 418 408.3 401.1 392.5 381.4 375.4 369 361.9 354.5 347 337.4 329.9 320 309.3 298.4 288.5 270.3 268.5 270.7 292.1 308.8 331.7 354.8 372.7 385 399 415 418.2 415.3 401.7 370.7 341.8 322.9 306.7 298.4 292.5 286.2 279.5 274.2 265.8 258.2 255.7 251.7 247 241.6 238.4 233.7 230.5 227.9 222.5 222.3 222.3 221.8 220.9 219.1 218.4 217.7 217.8 218.6 219.9 221.5 222 219.3 223.1 221.8 221.4 221.6 225.7 230.6 233.3 237.4 240.9 242.4 246.7 247.7 250.8 252.6 254.4 256.6 258.2 257.5 256 256 255.6 253.3 251.8 250.1 249.1 247.8 248.1 248.4 248.3 248.2 249.4 250.6 251.4 250.4 250.2 247.2 246.1 241.4 239.6 235.1 233.3 231.5 230.4 229.7 229.4 228.2 227.9 228 228 228 227.9 228.2 228.7 229.1
455.7 460 464.8 469.8 475.2 485.1 492.2 499.1 505.9 516.2 521.8 525.7 518.6 510.9 503.5 495.9 489.4 490.6 489.1 484 483.9 499.7 512.7 526.6 540 556.8 573.2 587.3 600.2 612.9 623.2 631.1 635.9 637.6 633.9 626.7 615.2 600.1 572.4 542.3 535.6 512.1 498.7 492.9 484.7 482.6 488.1 507.2 526.6 544.5 560.6 574.3 586.5 599.7 614.8 625.4 631.1 633.7 634.3 634.8 633.7 632.7 631.2 624.6 611.6 601.6 592.3 582.6 573.9 567.6 563.5 557.5 549.2 538.2 524.7 508.6 491.6 475.8 460.5 448.2 436.6 426.1 415.4 407.3 397.1 389 381.5 371.9 365.3 359.6 353.3 346.2 338.2 330.1 321 310.9 298.4 290.3 274 272.3 278.9 289.6 305.9 327 348.5 369 382.7 399 416.9 428.3 435.6 430.4 416.4 388.2 361.1 338.8 324.7 316.3 307.5 296 290.2 283.4 273.2 266.6 262.7 258.2 253.1 246.9 241.5 237.3 235.4 234.7 229.8 226.7 225.3 222.5 221.5 222.2 220.9 222.8 226 227.1 226.8 227.2 227.3 226.4 229.7 229.3 234 235.9 238.8 241.3 243 245.1 248.3 250.6 252.4 253.7 256.9 259 260.9 264.9 267.6 268.5 268.3 268.5 266.9 265 260.3 257.3 256.8 255.3 253.9 254.2 253.8 253.5 254.7 256.3 258.6 260.7 260.7 255.6 251.8 249.1 245.6 241.6 238.7 236.9 234.6 233.1 231.9 230.8 230.2 230 229.8 229.7 229.8 230.4 230.9 231.5
475.1 480.2 484.2 492.4 506 519.6 532.8 541.9 542.8 548 547.2 541.5 533.1 523.9 515.5 508 501.2 502.7 499.2 491.5 485.1 500.4 515.2 528.1 543.7 560.9 575.6 588.8 602.1 615 626.2 635.7 642.2 646.3 644.9 639.3 628.5 613.7 594 568.4 552 531.2 514.3 506.7 492.8 491.5 505.2 526.1 543.7 559.6 573.8 585.3 596.9 611.9 624.4 633.2 636.8 636.4 629.9 628.4 626.5 623.7 620.6 612.3 598.5 589.7 579 568.7 559.6 551.7 546.6 541.3 534.3 525.9 511.9 493.5 477.5 463.2 450.8 439.6 425.7 414.8 405 396 388.2 379.2 371.4 364.9 356.7 350.2 343.3 337.1 330.4 322.7 310.7 301.3 290.8 277.9 273.3 282 291.6 304.7 319.5 340.8 363.3 379.8 394.7 413.5 430.1 442 448.2 441.4 425.8 406.6 387.4 353.3 340.1 332 321.8 309.3 299.6 291.2 282.7 274 269.3 263.3 258.5 252.6 246 243.3 240.7 237.2 231.6 231 228.5 226.3 226.5 229.8 231.7 232.4 232.5 233.8 236 236.6 236.9 234.9 236.8 239.5 241.9 243.4 246 247.6 248.9 251.9 254.6 257.3 259 260.6 262.5 264.4 267.7 273.8 277.4 281.2 281.9 282.3 279.7 274.5 270.5 267.9 265.6 263.1 260.8 260.6 259.8 260 261 263.2 266.3 267.2 268.3 265.2 261.6 257.9 253.5 251 247.7 244.5 240.4 238.4 236.5 233.7 233.2 232.6 232.9 232.5 232.6 232.7 233.3 234.2
493.6 502.2 507.3 518.3 535 554 564.7 568.8 570.8 566.4 560.5 552.1 542.4 533.3 526.2 519.4 514.1 508.9 505.4 500.6 487.8 499.7 517.3 532 553.7 563.6 576.4 590.4 604 616.6 628.4 639.3 647.3 652.5 654.2 649.5 639.6 626.7 608 588.2 569 546.3 525.5 513.6 505 508.4 529.6 549.4 562.8 574.3 584.2 593.7 606.8 618.3 629.1 633.9 638 635.2 623.3 620.3 617 613.3 607.4 597.5 584.9 575.4 563.8 552.8 543 532.6 527.1 523.7 519.2 512.4 498 480.5 466.1 453.7 442.2 427.8 414.2 404.8 395 387.4 379 370.5 362.7 355.8 347.5 340.8 333.9 328.4 322.4 312.6 301.3 292.2 280.3 274.8 280.7 290.4 302.8 314.8 333.3 354.8 375.2 390.1 405.6 426.1 443.2 454.3 458 448.8 437.4 418.8 397.9 366.1 349.6 338.5 328.7 316.9 307.7 300 291.4 281.7 274.8 268.3 263.6 258.2 252.7 250.9 248.2 243.6 238.2 237.6 236.3 235.4 237.5 240 240 240.4 242.7 243.7 243.5 244.3 245.3 239.9 246.1 247.7 248.3 248.5 250.6 252.4 254.8 257.5 260.3 263 264.3 266.7 267.3 271.2 276.5 281.3 287.9 293.1 294.6 293.6 292.9 287.5 281.5 277.3 274.6 272 269.5 266.4 265.1 266.1 267.8 270.4 274.2 276.6 275.7 273.5 271.3 265.4 261.8 259 255.2 252.1 248.8 245.1 241.7 239 237.7 236.9 236.7 236.2 235.8 236 236.7 237
509.7 516.8 525.8 543.4 565.3 575.5 581.9 584.7 582.4 577.5 569.3 560.1 547.7 538.7 533.9 530.2 526.3 519.6 515.1 509.3 496.4 501.3 516.1 538.8 554.6 564.1 577.8 591 604.7 617.9 629.9 640.9 650.9 657.3 660.1 657.5 648.9 637.6 622.1 604.3 584.3 562.5 538.2 526.1 521.3 531.2 549.3 567.1 577.9 586.4 592.8 601.6 611.8 619.5 626 628.7 631.4 619 614.9 611.1 604.6 599.3 590.7 580.7 571.4 559.9 548 536.8 525.2 516.3 512 510.1 505.7 497.5 483.6 472 457.1 446.5 433.4 419.8 407.8 395.5 387.7 379.2 370.8 362.8 355.2 346.1 337.7 330.4 324.9 318.8 311.7 301.8 289.5 278.6 276.6 280.7 288.6 301.2 312.6 326.5 343.8 365.9 381.8 397.4 416.9 435.9 454.5 464.2 465.4 458.1 449 430.4 404.7 378.8 360.7 345.1 333.9 324.5 313.1 305.2 297.1 288 280.1 275 269.7 265.1 261.3 258 254.5 251.7 243.9 245.8 244.9 246.3 248.4 247.6 247.5 250.4 251.1 250.9 250.5 252.4 251.1 243.7 252.4 253.7 253.2 254.5 256.4 258.1 260.7 263.6 266.2 267.3 269.1 272 273.2 278.4 284.6 291.9 298.1 302.2 303.2 304.3 302.7 296.7 291.6 286.1 281.8 277.9 275.6 272 270.1 271.2 273 276.4 279.9 283.9 284.6 282 279.1 274.6 272 268.3 262.7 259.1 255.9 251.8 248.5 245.5 242.7 240.5 240.5 240.2 240.2 239.5 240.4 240.4
524.9 530.7 546.2 567.4 580 588.8 593.5 595.3 591.4 585.2 576.4 566 554.5 543.9 541.8 541.1 539 531.8 525.6 516.7 504.5 499.9 517 537.5 551.1 564.2 577.7 591.2 605.2 618.5 630.4 642 651.9 659.5 662.8 662.1 655.3 645.1 632.5 617.2 598.6 581.1 557.4 541.1 550.9 557.3 571.6 580.7 587.9 594.1 598.8 605.5 612.4 616.5 620.3 621.4 619 609.7 604.9 599.2 590.8 583.4 575.3 565.8 556.8 544.9 533.5 522 509.9 502.4 497.6 495.2 490.8 483.8 471.6 460.7 449.3 438.5 425.9 413.1 401.4 390.8 381.2 373.4 365 356.5 347.3 337.8 329.2 322.6 315.8 307 299.6 287.7 279.2 277.7 279.1 287.4 299.3 311.2 322.5 338.1 356.5 373.4 387.3 405.3 424.5 444.3 462.9 470.1 473.5 469.1 452.4 438.1 417.8 393.5 372.2 353.1 337.4 328 319.2 309.3 299.8 292.9 285.9 280.8 275.4 270.9 267.4 263.4 260.3 252.2 255.4 254 255 255.3 254.6 253.2 254.7 256.6 257.1 256.5 257.9 259.6 258.4 249.5 258.4 259.6 260.2 262.4 263.8 266.7 268.2 270.7 272.3 274.6 275.5 278.6 282.2 288.3 295.3 302.5 308 310.8 311.8 312.6 310.7 305.9 299.8 295.2 289.3 284.4 281.5 278.4 273.6 277.1 279 281.5 285.2 289.6 289.8 288.4 286.4 283.7 280.6 276.3 271.4 267.8 263.4 259.6 255.5 253.9 250.7 248.8 246.9 245.8 245.6 244.7 244.4 244.3
537.8 548.4 566.7 582 592.6 600.8 604.7 605.1 600.2 592.3 581.7 571.1 563.2 553 550.2 550 548 543.9 533.8 522.7 512.6 504.2 517.5 534.8 548.8 561.9 576.5 590.6 604.3 617.7 630 640.8 650.5 658 663.3 663.5 658 650.1 639.1 626.1 612.9 595.7 578.9 571.2 576.2 580 585.5 589.9 595.5 599.6 603.2 607.8 610.3 611.8 612.1 610.6 607.5 599.4 593.7 585.8 577.5 569 561.1 552.9 544 534.1 520.4 508.7 497.1 487.4 482.4 479.9 476.6 470.8 463 451.4 441.6 431.3 418.7 407.6 394.4 384.6 375.8 367.6 360.3 351 341.2 331.9 320.8 314.1 308.4 300.6 292.1 279.8 279 277.6 284.5 296.1 310 320.8 333.9 350.1 365 379.3 394.3 411.4 430.5 450.3 467.2 474.4 475.9 468.9 457.6 442.3 421.8 401.6 384 362 345.3 335.6 325.4 317.5 306.3 299.5 294 287 280.6 277.3 272.9 268.6 265.3 262 263.2 263 263.3 263 260.8 259.3 261.1 262.5 262.9 263.4 264.5 265.5 260 259.3 265.1 266.7 270.2 273.1 275 275.2 278.7 281.1 283.3 286.3 287.5 290.8 293.9 299.7 306 311.7 317.1 320.2 321.1 320 317.4 313.4 308.9 302.5 296.3 290.6 286.6 284.5 280.7 282.4 284.8 288.1 291.4 295.9 297.8 298.3 297.3 295.6 293.3 288.4 283.7 278.1 273 269.4 266.8 263.2 259.9 258.4 255.8 253.1 251.4 251.1 249.9 248.8
552.1 563.6 578.6 595.2 605.4 612.7 616.3 613.7 608.6 601.4 590.8 580.8 571.7 563.8 559.3 557.6 556.3 551.6 541.1 534.3 525 514.8 514.2 532 545.8 560.4 575.5 589.1 602.8 615.8 627.8 638.4 648.7 655.7 660.9 662.5 657.5 650.6 642.8 632 620.4 608.9 598.9 592.6 592.1 591.8 594.1 597.2 600.4 602.5 604.6 606.4 606.9 605.6 604.3 600.1 594.1 587.7 580.6 573.4 565.4 556.3 548.9 541.9 533.5 522.1 509.3 497.1 485.3 474.4 468.4 465 463 457.8 451.1 442.3 432.2 422 409.7 400.9 387.3 377.3 370.2 361.5 354.7 346.3 336.6 327.2 316.1 308.1 300.6 294 282.3 280.3 280.7 284.1 293.4 307 320.5 331.6 345.9 359 371.5 384.1 400.8 417.6 435.7 454.1 469 475.9 475.8 468.4 456.9 441.6 424.6 408.3 395.4 377.6 362.4 349.3 336.6 327.1 317.7 309.1 300.9 293.9 287.8 281.3 276.8 274.3 270 270.2 270.2 270.4 269.9 268.6 268.6 267.6 267.9 268.4 268.7 268.9 270.3 270.3 264.4 263.6 271.1 275.2 279 282.2 284.6 287 290.6 292.5 295.2 298.5 300.8 304 309.9 315.2 319.5 323.6 327 329.8 329.1 327.4 323.4 319.5 315.1 309.1 302.3 296.6 292 288.9 286.8 288.1 292.5 294.5 297.5 302.2 306.4 310.9 314.4 314 306 300.5 297.3 292.6 288.4 284.2 280.2 275.2 272.7 270.2 266.3 262.3 258.8 256.9 255.7 254.7
570.5 582.4 595.6 607.2 618 622.7 626 624.2 619 609.9 599.7 588.2 580.5 578.6 572.8 567.3 563.6 556.4 550.2 542 534.1 522.2 515.7 529.4 543.2 559.3 574.5 587.2 600.7 613.6 624.5 635.6 644.7 652.2 657.2 658.2 655.1 649.9 644.1 635.7 626.3 617.4 609.1 604.6 601.4 599.5 600.7 600.3 601.9 602.1 601.6 600.4 599.8 597.2 594.2 588.9 582.9 576.6 569.3 562.1 553.8 544.7 537.3 531.5 522.9 511.7 498.1 485.1 472 461.9 455.8 449.5 447.5 442.6 437 430.8 421.5 410.9 401 392.2 379.6 370.8 363.1 354.2 346.5 338.3 329.4 320.9 310.4 301.6 289.8 281.1 283.3 285.6 286.9 291.1 302.8 317.6 332 344.1 357 368.2 380.3 393.9 409 423.4 439.4 456.8 469.5 476.3 474.8 465.7 455 442.5 429.4 413.5 397.9 385 373.1 358.5 345.4 335.2 325.8 317.3 309.2 301.5 294.6 288.1 283.6 280.8 272.9 276.7 276.3 276.3 275.3 275.3 275.4 274.7 274.8 274.2 273.8 274.5 275.2 274.8 263.6 273.6 277.4 283.5 288.2 290.7 294 297.1 300.8 303.3 306.3 309.9 313.9 318.5 324.4 329 333.8 336.6 338.3 339.1 337.3 333.5 329.3 325.1 320.4 315 308.1 302.5 298.2 295.2 294.1 295.3 298 301.1 304.3 309.6 315.7 322.4 324.2 322.7 316.9 312.6 306.9 302.6 299.9 298.3 293.7 290.8 285.5 281.2 276.1 272.3 268.6 263.7 262.3 260.1
586.8 596.2 609.9 620.9 628.9 634.4 636.6 634 627 619.1 609 597.8 591.2 589.6 586.4 578.6 570.2 562.4 556.6 548.1 538.8 528.9 527.1 526.7 541.8 557.5 573 586.4 599.7 611.7 622.1 632.4 640.6 648.6 653.6 654.5 651.9 648.2 643.5 638.1 630.8 621.8 615.1 610.6 607.2 603.6 600.8 598.6 597.5 595 593 591.1 588.3 584.4 581.2 575.4 570.2 563.9 556.7 548.8 539.5 533.2 526.4 520.5 511.6 500 486 473.9 461.1 450.7 441.2 435.9 432.6 426.7 422.5 416.2 408.8 398.8 390.3 380.8 369.9 360 352.8 345.6 337.5 330.2 321.5 312.5 301.8 295.5 284.4 284.6 284.9 288.7 291.9 298.9 313.2 327.8 340 351.9 365.9 377 389.9 402.9 416.2 429.5 444.9 461.4 471.5 475.6 471.9 462.6 451.7 440.7 427.1 414.3 402.6 390.6 381.7 365.1 352.6 342.6 333.1 324.1 316.7 308.5 299.2 293.1 289.4 285.1 280.1 283 282.5 281.9 281.7 281.9 282.1 281.1 280.4 279.8 279.2 279.9 279.4 278.6 270.4 278.9 282.5 289.9 294.7 299.9 304.2 306.9 311 314.5 318 323.2 327.8 332 336.1 341.4 348 352.1 352.7 350.9 346 341.3 336 330.5 325.6 318.8 313.3 308.2 303.7 301.4 301.3 302.2 304.8 307.8 310.9 316.6 322.9 328.6 331.5 329.8 325.1 320 314.1 311 313.1 312.7 309.1 305.2 300.2 293 286.4 282.3 277.4 272.9 270 267
602.4 612.2 623.3 636.5 642.5 647 647.8 644.2 635.5 626.3 616.6 604.7 599.4 597 593.3 585.2 576.9 568.9 560.8 552.4 543.3 538.3 540 542.1 548.4 561.4 572.9 585.1 599.6 611.8 621.7 630.1 637.6 645.1 648.6 649.5 646.9 644.2 641.4 637 631.6 623.5 617.1 612.9 607.8 603.1 596.8 592.4 589 585 582.8 578.4 574.4 571.2 566.2 560.7 556.1 550.8 543.2 535 527.9 520.8 514.9 507.9 499.1 488.9 476.6 461.8 450.1 438.7 427.5 414.8 415.1 411.1 406.5 399.7 393.2 386.4 375.8 367.8 359.8 349.6 341.4 336.1 328.9 321.5 312.6 296.5 292.1 288.3 284.6 287.4 289.2 292.8 295.4 306.4 320.9 336.8 350.9 363.4 375.6 387.8 399.2 411 425.1 438.2 453.6 465.8 472.3 473.6 468.3 458.2 445.7 437.2 425.7 415.2 404.5 393.2 384.2 371.4 358 347.8 338.1 327.8 321 310.8 301.4 296.2 292.5 289.1 287.9 288 288 288.3 288.5 288.8 288.1 285.7 285.5 285.1 284.7 285.1 284.7 278.1 279.2 283.9 290.4 297.4 304.2 309.1 312.6 317.3 321.6 326.5 331 335.9 341.3 346 351.2 356.1 361.9 368.2 369.3 364 359 352.7 345.7 338 331 324.5 318.6 313.7 308.5 308.6 309.1 310.2 311.7 314.5 318 323 328.8 335.6 339 337.6 335.1 328.9 326 325 325.8 325 323.3 318.9 313.9 305.6 297.7 292.3 287.2 281.2 277.2 272.8
620 629.2 642.1 649.2 654.1 658.9 658.6 654.2 644 634 624.4 612.2 606.6 604 598.6 590.5 583.5 572.9 565.4 558.8 551.4 550.4 553.3 553.6 555.5 567.2 581 589.4 601.5 610.6 620.1 628.1 634.8 640.2 643.6 643.3 640.8 637 634 632.5 628 621.5 615.8 610.5 603.8 597.8 590.6 584.5 578.3 573.8 568.4 563.3 558.6 555.5 551 545.3 541.9 537.6 530.4 522.2 515.8 509 504.1 497.5 487.2 477.4 465.8 451.9 440.3 426 412.8 404.7 396.4 392.2 387.5 381.1 375.8 370.8 361.9 354.2 346.1 336.2 330 325.6 319 310.4 300.2 292.4 290.2 285.5 288.9 292.6 296.9 294.5 300.1 314 330.8 346.7 362.7 376.9 388.1 401.4 413.8 425.8 437.9 450.2 462.1 471.1 473.1 469.1 461.4 451.2 440.9 432.1 422 413.3 403.4 392.7 384.6 370.8 359.7 350.7 340.9 330.9 321.4 312.5 304.9 299.1 295.3 291.6 292.7 293.2 294.4 294.9 295.4 295.8 295.8 292.4 290.1 289.9 289.2 288.7 287 276.9 284.4 289.6 298.1 305.1 312.9 318.5 323.4 328 333.1 338.4 344.1 349.5 355.1 360 366.4 371.7 378.1 381.2 381.1 376.4 372.4 366.2 357 347.7 341.1 334.5 325.7 319.6 315.7 314.9 315.4 316.2 319.4 322.1 326.1 330.9 335.5 341.5 346.5 348.9 349.4 349 346.9 345.2 344.7 341.1 335.2 332.5 326.1 318.4 309.7 303.4 297.3 290 287.3 281.8
639.3 648.1 655.5 661.5 666.7 669.9 668.7 663.3 653.1 642.2 632.1 621.5 614.1 609.2 603.3 596.8 589.7 580.4 571.3 566.9 561.8 559.5 563.7 562.2 567.8 572.8 586 596.8 605.2 611.7 620.1 627.4 632.7 637.1 639.1 636.2 633.3 629.4 625.5 623.7 619.9 614.7 610.4 605 597.7 589.9 580.4 571.9 564.2 559.2 551.1 545.5 540.3 536.5 532.4 530.2 527.3 523.5 517.9 510.2 503.8 497.1 493.9 487 477.5 466.6 455.5 440.9 428.1 414.2 403.4 392 380.8 375.8 372.2 365.7 360.8 353.6 347.4 339.9 332.1 322.1 316.9 311.9 305.7 298.5 290.2 286.7 286.6 289.7 296.1 300.7 305.8 308.1 303.7 319.9 337.1 354.7 372.5 387.7 403.4 419.4 430.8 442.2 454.1 463.9 472.3 475.1 472.8 465.4 454.2 443.1 434 425.6 416.2 407 397.7 389.5 379.9 370.1 361.3 351.6 341.3 330.2 321.6 313.1 307.7 302.7 296.7 297.7 298.1 298.7 300 301.4 301.6 301.4 300.7 297.7 294.3 293.5 292.5 290.8 286.3 286.3 289.7 295.1 304.3 312.9 320.4 326.4 332.4 339.1 344.8 351.7 358.7 362.9 368.9 375 381.4 387.8 393.7 394.4 392.8 391.7 386.9 379.3 369.1 357.6 348.8 342.8 335.2 326.9 323.7 322.1 322.8 324.3 327.1 330.7 335 340.3 345.1 350.2 355.9 359 360.9 367.6 369.7 367 364.4 356.2 350.2 346.1 338 330.8 322.7 315.8 308.8 301.2 297 291.4
654.9 660.2 666.9 672.8 677.2 679 677.4 671.2 661.3 649.8 638.8 628.4 620.7 613.7 608 602.8 596.2 588.9 579.1 576.2 569.5 570.1 572.7 574 578.5 583.4 590.3 601.3 606.7 614.6 621.7 627.4 630.7 634.4 633.2 630.9 625.6 620.5 617.2 612.8 608.4 604.6 601 594.9 587.7 579.5 567.7 553.7 545.6 535.1 529.5 525.1 521.1 519.6 517.7 515.3 511.8 508.2 503.1 497.9 490.8 485.5 480.9 475 467.4 457.9 447.6 430.9 417.1 406 394.2 381.5 374.3 364.3 358.1 352.6 347.2 341.6 333.9 326.4 319.1 310.2 303.1 298.2 292.1 289.2 288.3 288.4 290.2 297.6 304.5 310 315.3 317.8 309 323.7 341.6 358.2 377 394.7 414.2 429.1 442.9 455.1 465.2 473.4 483.5 479.9 471.6 460.7 448.2 435.6 425.8 418 410.3 401.1 392.1 384.3 374.9 366.1 357.5 348 337.1 328.3 321.1 314.3 309.7 304.8 303.8 303 303.7 304.3 306.2 307.8 307.8 306.3 304.4 301.3 299.2 296.7 294.2 291.2 286.3 290.4 294.3 301.4 310.8 319.6 327.5 333.8 341.2 348.5 356 362.4 369.4 376 383.1 391.2 398.1 404.6 407.5 409.2 408.6 405.4 399 391.6 381.4 370.7 359.9 350.7 344 338.1 334.5 332 332.7 334.1 337.7 339.6 344.4 349.9 355.5 360.2 365.5 370.2 376 381.9 386.1 385.6 381.8 375 368.1 360.2 352.7 342.6 334.5 326.8 320.2 311.8 306.3 301
668.3 669.4 676.6 681.4 685.2 686 683.8 677.2 667.3 655.7 644.8 634.7 627.7 620.2 615.1 609.9 601.8 597.1 591.4 587.5 582.2 581.3 582.6 584.7 589.8 595.2 599.8 604.7 610.7 616.9 623.5 627.3 630 630.9 629.6 624.5 617.5 610.7 606.3 601.7 597.4 592.8 589.4 584.4 576.8 567.8 553.2 538.1 524.5 515 511.3 507.6 504.3 504.6 503.4 500.9 497.7 493.1 488.4 483.4 478.2 473.1 468.4 463.2 456.5 447.9 436.2 419.1 406.3 395.4 382.8 373.2 364.7 355.1 345.8 342.1 333.9 328.7 321.4 313.4 306.1 297.2 291 290.5 290.3 288.8 289.8 295.6 302.2 308.4 313.7 319.7 323.3 325.8 321.4 320.5 341.2 358.8 379.9 398 418.7 433.1 448.7 461.4 472.4 483.3 486.5 481.6 474 461.1 444.2 430.4 421.1 413.1 405.2 394.5 384.5 377.1 370.3 362 352.7 343.7 334.2 327.4 321.1 315.3 311.3 309 307.6 308.1 308.9 310.4 311.9 314.1 314.5 312.5 308.8 304.9 302.6 298.5 296.1 289.8 292.4 294.2 298.9 307.2 315.2 324.9 332.7 340.5 349.2 357.5 365 373.5 382 390.2 398.6 406.9 414.8 423.2 427.8 429 428 420.7 413.3 403.2 392.1 382.1 372.6 363.3 355.3 350.1 347 344.6 343.7 345.1 347.6 350.8 355.5 361.1 366.3 371 377 383 392.3 397 401.8 402.3 399.4 392.9 386.2 378.9 366.4 355.9 348.8 341.1 331 324 316.1 307.4
678.8 676.2 682.9 688.1 690.1 690.3 687.4 681.2 671.7 660.4 649.9 639.2 634.8 629.1 623.2 618.7 610.3 604.4 603 597.7 598 596 594.6 593.8 599.7 603.2 608 611.4 615.5 620.3 623.9 626.1 626.7 626.2 622.6 617.1 608.3 599.5 594.5 589.5 584.2 581.4 580.2 575 566.6 555.4 538.7 522.1 509.9 498.9 493.8 489.3 487.6 488.3 486.9 484.7 480.8 477.1 471.6 468.1 463.6 460.1 456.6 450.7 443.2 432.2 422.8 408.4 397.2 383.8 372.8 362.2 355.1 346.2 339.1 329.9 321.7 314.1 307.7 301.4 292.8 291.5 291.1 291.3 290.8 297.1 304.7 311.2 317.4 319.1 324.7 328.7 331.9 333.7 333.1 318.6 334.8 354.9 376.4 395.8 415.3 431.8 445.5 459.5 472.7 483.8 486.3 482.4 472.5 458.2 441.6 427.3 416 407.8 397.8 387 378.8 372.7 365.7 356.7 346.6 339.4 333.6 327.6 321.9 315.4 314.5 313.4 312.3 312.7 314.9 316.6 319.3 319.8 318.8 315.7 313.2 309.1 305.5 301 294.7 296.5 298.1 299.7 303 311.9 320.1 329.1 337.9 346.8 356.2 364.9 372.8 384.6 393.9 403.4 413.3 421.2 430.2 439.7 445.4 448.4 445.2 437.6 425.6 414.3 402.9 394.1 385.9 379.4 371.2 364.2 359.6 358.1 356.7 358.4 360.4 363.7 368.2 373.6 377.5 381 388 396.4 406.8 414 417.3 416.8 414.3 408.7 399.5 392.6 382.2 369.6 359.8 350.5 342.1 335.3 327.7 318
685.5 684.3 687.3 691 692.6 691.7 687.8 681.4 673.6 663.6 653.8 646.9 641.7 637 632.3 626.1 621 615.4 613.2 608.8 607.7 605.3 603.7 603.8 608.2 611.8 616.6 619.4 621.8 624.6 626.3 627.1 626.2 621.1 616.6 608.8 599.3 587.9 580.8 575.4 571.5 571.4 571.8 568.6 558.9 544.6 527 509.9 496.2 485.1 476.9 470.1 467.8 469.8 468.6 466.7 463.1 459.6 455.9 454.8 451 448.2 443.4 437.1 429.9 418.5 407 395 384.8 372.6 359.9 352.1 345.1 335.9 328.1 315.5 309.6 303.9 298 296.1 292.9 292.3 291.9 295.2 304.3 311.7 320 325.3 329.7 332.8 335.3 338.8 340.4 341.9 341.3 333.5 326.8 349.1 369.7 390.9 408.2 423.6 437.7 451 466.2 477.3 481.7 478.7 471.4 460.1 442.2 426.6 412 400.5 390.9 381.9 374.3 367.8 360.7 351.8 344.6 338.5 333.6 327.2 323.7 321.2 319.2 318 317.1 317.7 319.2 321.6 323.5 323.9 322.3 319 316 311.9 307.4 302.7 300.9 302.4 304.1 307.1 312.2 318.7 324.8 334.1 341.7 352.2 362.5 372.4 383.2 394.2 404.7 414.9 425.4 436.3 447 455.8 462.1 462.3 457.8 450.9 439.6 427 416.7 409 402 395.7 389.3 381.1 374.7 371.2 371.3 374.1 376.2 379.1 383.1 386.9 389 392.8 398.9 406.9 417.4 425.9 429.7 428.4 424.2 417.3 412.9 406 395.8 385 373.1 359.1 350.8 343.2 335.3 327.3
690.2 688.8 689.4 691.8 692.5 691.1 686.8 679.9 673.1 664.7 656.8 651.9 648.1 644.9 639.9 633.8 626.8 622.5 620.3 616.8 612.6 611.5 608.5 609 614.6 619.2 623.4 626.6 629.9 631.3 631.8 629 625.8 620.3 611.3 597.9 588.8 574.4 564 556.5 558.8 562 566.2 564.3 557.4 540.6 523.3 505.2 488.7 472 462.3 457.3 453.7 451.4 451.7 449.8 446.8 443.9 441.1 440.9 437.9 434.2 428.1 420.9 411.4 400.5 389.8 379.7 367.4 358.7 348.1 339.5 330.6 320.5 312 305.1 302.5 299.2 297.1 294.8 293.1 297.6 307.1 315.6 323.5 329.4 335 339.5 342.7 344.2 345.9 348.2 349.8 349.7 348.1 345.7 335.7 341.8 361.4 381.7 399.1 413.5 430.1 443.3 456.1 468.6 475.4 475.1 468.5 458.2 443.3 427.6 410.3 396.7 387.8 379.8 372.4 365 357.4 350.5 343.9 336.8 330.6 331 328.1 325.7 324.7 323.2 323.6 323.7 325.8 327.7 327.8 326.9 324.3 321.2 317.2 312.1 306.7 302.9 306.1 308.2 312.3 316.7 320.8 326.3 333.2 339.3 346.6 356.9 367.1 379.8 392.4 403.6 415 425.5 438.2 451.4 463.2 473.1 476.4 476.8 471.6 464 454.6 443.8 434.4 427.6 421.6 413.5 407.4 399.8 393.2 387.7 387.7 389.6 391.7 394.6 397.9 399.9 401.8 403.7 409.5 417.1 426.7 434.2 439.6 433.6 426.6 424.7 421.8 414.9 405.5 393.2 381.8 368.7 359.9 350.3 343.5 339.3
692.4 690 689.3 690.4 690.7 686.9 683.7 677.1 670.6 664.6 659.2 656.1 653 650.6 644.9 638 631.1 627.3 624.1 621.2 618.4 613.6 613.6 614.6 619.5 623.8 627.9 631.9 634.7 634.7 635.3 632.7 626.2 618.1 608.3 591.9 576.7 563.3 546.7 539.2 543.7 555.3 561.2 563.6 561.9 546.7 523.6 504.5 486.2 470.6 457.5 444.9 437.8 434.7 433.5 430.4 429.2 425.5 423.2 423.5 419.4 415.8 410.5 403 393 383.6 373.2 363.7 355 345.4 332 322.2 312.2 305.2 302.9 300.4 297.4 297.3 293.7 296.9 307 316.9 326.2 334.1 340.4 345.9 349.3 353.4 355.8 356.7 357.2 358.6 360.4 359.9 357.5 353.4 349.1 339.9 352.6 370.3 388 403.7 419.4 436.1 448.1 461.8 470.2 471.9 467.9 458.7 444.4 428.5 413.3 396.3 386.7 379.2 371.7 364.6 356.7 350.7 345.1 340.3 338.1 335.5 333.2 332.4 332.1 332.3 332.6 332.2 333.6 333.5 332.6 328.7 325.5 322 317.5 311.7 305.7 308.7 312.1 315.5 319.4 322.7 328.1 333.1 340.8 349.8 357.4 366.2 376.4 388.5 401.2 412.7 424.1 436.9 451 465.7 478.3 487.3 491.5 490.9 485.1 476 467.3 459.4 451.5 443.6 437 430.8 424.4 417.4 409.3 402.3 401.1 402.3 404.3 406.6 409.4 410.6 412 414 417.3 422.2 429.9 437.3 437 430.2 425.9 425.6 421.9 413.9 405 395.4 385.5 376.5 367.5 361 356.4 355.6
694 690.4 688.4 686.7 685.8 680.2 677.5 673.4 665.7 660.9 659.4 657.7 656.6 652.9 646.4 639.5 633.6 629 626.9 624.1 620.1 617.6 616 616.8 621.1 624.4 628.3 631.2 633.6 634 633.3 629.5 624.3 614.3 599.9 581 566.8 547.5 534.1 525.3 537.7 549.5 558.1 564.7 567.1 555.3 529.8 506 482.9 464.7 452.5 441.2 433.1 418.4 417 412.5 408.9 405.2 401.8 403.4 402.2 395.9 390.7 383 375 367.1 358.5 349.2 338.8 327.7 316.2 309 305.9 302.4 300.7 296.9 296.1 295 304.8 317.1 327 336.2 344.3 351.4 356.4 361.9 364.7 367.1 368.3 367.6 367.4 370.2 372.9 371.8 367.9 365.8 357.2 348.5 347.8 360.2 376.7 393.7 410.4 427.1 442.3 454.7 465 469.8 467.5 460.7 445.1 430.5 413.8 397.9 387.6 379.3 372.9 366 359.7 354.1 349 345.7 346.7 345.1 344.7 344.3 344.7 345.7 343.8 342.1 340.6 338.5 335.6 330.9 326.7 321.7 315.5 310.3 311.5 314.5 318 321.8 324.9 330.1 337.5 344.7 350.8 358 366.2 374.1 385 396.1 407.8 419.8 434.1 447.4 462.3 478.4 491.5 499.1 504.8 502.4 496.3 486.6 479 471.4 464 457.3 450.4 443.5 435.9 428.1 420.8 413.5 410.9 411 410.7 410.7 414.5 415.7 414.5 416.1 418.4 421.6 422.9 427 427.4 422.2 419.2 417.8 415.8 409.4 401.2 396.8 391.7 386.9 380 374.6 370.1 368
693 689.4 686.7 683.2 679.2 674.9 671.7 665.4 660.9 657.3 657 657.6 655.2 650.8 644.6 639.7 633.5 629.4 626.6 623.5 621 619.6 618.7 617.3 621 623.5 625.9 627.9 628.6 630 628.9 623.6 617.1 603.9 587 568.7 554 539 521.4 515.8 531.5 543.6 552.8 562.6 569.1 559.7 538.9 511.1 481.9 458.2 446.8 435.9 427.5 418.4 408.2 401.9 396.3 391.8 386.8 383 380.1 375.7 370.7 364.6 357.4 350.5 343.1 333.3 321.2 312.6 307.6 301.5 299.9 301.9 297.2 297.2 302.4 315.4 327.1 336.5 346.2 356.4 363.3 368.5 372.1 376.1 379.7 380.1 379.9 378 377.3 382.1 387.7 385.6 383.7 379.9 374.1 364.3 349.9 354 369.4 387.2 403.1 419.2 435.3 450.2 460.2 468.1 467.8 460.6 450 435.4 417.1 402.9 392.2 383.8 375.3 369.7 363.6 360.3 356.5 357.6 358.6 358.6 358.8 359.3 359.6 357.6 353.7 349.5 346.2 342.1 336.6 331.8 326.2 320 314.7 317.1 318.9 322.8 326.1 330 333.7 339.1 345.7 353.7 361.3 367.7 375.2 383.5 393.9 404.3 415.3 428.1 443.1 456.6 474.6 489.9 500 509.2 514.9 512.8 506.8 497.8 488.4 482.2 474.6 467.1 459.4 450.7 440.7 432.2 425.2 419.4 416 413.3 410.4 408.5 410.7 411.5 411.4 410.7 411.8 413 413.6 411.3 410.7 410.8 409.2 405.6 400.6 395.4 400 398.8 397.3 393.6 387.8 382.1 377.7 375.4
692.5 688.4 682.9 677.4 674.4 669.9 663.5 659.3 656.3 653.1 652.4 654.4 651.4 646.9 642.2 638.1 633 628 625.8 622.5 619.6 619.1 618.1 616.3 619.4 621.3 622.5 624.4 624.5 623.4 621.4 616.6 605.8 588.4 568.3 551.1 536.9 522.6 509 507.3 521.7 534.7 544.3 555.4 564 554.2 536.7 508.4 472.7 455.4 441.9 430.9 423 413.4 404.9 393.5 386.7 381.6 375.4 369.8 364 360 355 348.6 340.6 334.6 327.1 316 309.2 303.5 301.3 302.4 303.3 304.5 310.5 319.4 328 336.8 347.4 357.1 367.1 373.9 381.1 384.4 389.3 389.8 390.9 391.5 390.8 389.1 385.5 392.8 399.9 400.5 397.5 394.3 387.2 379.6 367.6 357.7 361.1 381.5 396.7 414.6 430.7 445.8 456.6 465.3 468.3 463.4 454.3 439.8 425.1 412 401.3 393 386.1 379.2 373.4 370.4 370.5 371.8 373.1 372.9 372.7 372.6 370.1 365.5 360.7 356 351.1 344.3 338 332 325.2 319 321.3 323.9 327 329.7 333.2 337.6 343.6 349.6 355.8 363.2 370.4 378.2 385.2 393.3 403 412.1 423.9 437.1 451.9 463.9 483.2 497.8 507.2 515.3 520.6 520.1 514.1 503.3 494.3 487 480.2 472.9 463.4 452.7 442.9 431.9 424.9 417.4 414 410.4 406.3 402.5 401.2 400.9 400.8 401.5 403.5 400.6 399.9 399.3 394.1 393.6 394.3 394.3 393.6 387.2 389.9 392 395.7 394.8 389.8 384.1 380.5 377.5
693.4 688.8 682.7 678 670.5 664.9 657 652.6 650.4 649 647.6 647 646.6 642.7 637.9 634.1 628.6 624.2 621.8 619.2 617.2 613 613 611.5 615.6 616.9 617.8 619.1 619.1 616.7 611.9 605.7 588.5 567.4 542.4 527.3 515 506.5 500.4 493.7 504.8 520 530 543.5 553.3 541.6 520.6 501.9 463.3 449.1 435.1 423.3 414.4 405.6 397.1 387.9 380.2 373.9 363.8 358.7 353.5 345.9 341.3 332.4 323.2 317.1 313.1 307.1 305 305 307.2 307.5 308.2 318.3 327.2 337.6 346.9 357.2 368.7 378.2 386.9 392.9 400.5 405 406.4 405.7 404.2 402.3 399.9 398.7 396.1 401.6 411 413.4 411.5 405.7 399.9 389.6 378 365.3 356.4 374 392.4 409.4 426.2 442.2 455.2 464.7 471.3 469.8 464 455.5 443.8 427.7 416.4 408.1 401.1 394.5 388.3 385.2 385.1 385.7 386.5 386.7 386.1 383.6 378.2 372 366.2 359.9 352.9 345.5 339.2 331.7 323 323.9 325.9 328.3 331.8 337.6 341.9 347.3 353.4 358.5 366 374.4 382.1 389.8 396.5 404.5 413.1 422.2 433.2 446.4 459.4 473.7 490.6 501.6 511 518 520.6 518.9 511.3 500.8 491.6 484.8 477.6 471.2 460.6 448 438.1 426.5 418.2 410.8 407.1 403.2 399 394.1 390.5 388.2 386.1 387.3 387.5 384.2 382.9 379.5 379.9 379.5 380.2 381.2 380.9 380.1 373.6 378.6 380.8 384.3 382.6 380.3 378.6 376.6
694.4 688.6 683.6 677.3 670.2 661.5 655.9 647.5 642.7 641.5 641.2 641.8 640.1 636.8 633.1 630.1 625.5 620.3 618.5 615.7 612.5 609.4 606.2 607.3 609.1 610.2 612.5 613.2 611.7 607.1 598.8 587.1 567 539.5 515.4 502.1 489.3 482.4 478.6 472 489.3 505.2 511 526.6 533.5 520.9 492.4 482.1 452.2 438.7 425.8 415.5 404.1 395.7 387.4 378.1 371.5 362.2 348.7 339.1 336.9 329.4 324.1 317 314 309.5 307.5 304.9 305.3 307.9 312.3 312.6 316.2 328.6 341.1 354.2 365.3 379.7 395.5 406.7 415.1 417.9 422.3 424.1 423 419.6 417.2 413.8 410.5 406.8 405 407.2 416.8 420.7 420.1 416.1 410.3 400.3 387.5 376.6 363.1 368.6 388.6 405.8 423.4 440.3 454.4 466.5 474.3 476.9 473.8 468.2 456.9 444.4 434 425.2 418.7 410.9 405.5 402.8 400.6 399.8 399.8 399.3 397.4 392.4 385.6 377.1 368.7 360.8 353.2 345.8 339.1 328.8 328.2 331.3 334.4 337.8 342.1 346.3 352.4 358.9 364.7 370.9 378.7 387.8 394.4 402.1 410.1 418.5 426.1 434.4 443.7 455.6 467.8 481.7 493.9 503.7 511.5 517.3 517.4 512.4 501.7 492 482.3 474.4 465.7 456.5 444.2 433.5 423.6 413.8 405.2 399.4 394 391 387 382.3 377.7 376.5 375.1 374.7 371.9 370.8 368 364.9 365.5 365.7 363 365.7 367.2 367 364.4 365.4 366.6 367 368.1 369.2 372 367.5
692.3 687.6 682.7 675.2 669.3 661.2 655.4 647.8 642.4 636.1 631.7 634.4 634.2 632 629.2 624.3 621.5 616.7 614.5 610.7 606.5 603.3 600 599.9 601 602.6 604.1 604.6 602.8 596 584.6 566.7 544.6 523.1 495.3 481.4 471.6 456 453.3 452.4 461 476.3 483.8 495.2 498.3 480.5 467.7 455.5 428.9 424.3 415 404.6 395.7 386.5 374.8 365.9 357.2 343.7 335.3 330.7 322.3 317.1 312.9 308.6 307.6 307.2 305.8 305.7 305.9 313.3 318.1 319.1 325.4 340.4 356.2 374 393.9 415.7 430.4 439.6 448.4 451.3 447.4 444.2 440 435.8 427.8 422.6 420.1 415.7 412.9 414.1 420.6 426.9 428.6 424.5 418 407.8 396.6 382.1 371.9 368.2 385.1 405.4 425.9 441.1 455.4 468.5 477.6 482.9 481.6 476.6 468.3 458.6 451.2 444 436.1 430.4 424.1 420.4 418.1 415.6 413.1 410.8 406.8 399.9 390.8 380.2 369.8 361.2 353.8 346.2 338.8 332.5 337.5 342.4 346.8 349.9 353.3 358.4 363.8 369.1 376 385.6 396.8 405.4 412.9 420.2 428.3 434.7 442.2 450.5 459.2 468.1 477.9 487.4 495.3 503 510.7 513.7 512 504.8 489.6 478 468.4 458.7 450.1 440.3 429 418.9 408.2 400.5 393.2 388.5 385.1 380.3 375.3 372.2 370.6 367.3 363.3 362.8 361.6 357.9 355.7 352.4 351.3 351.4 350.2 349.1 349.4 351.2 351.7 351.3 353 354.4 355 354 354.9 352.5
691.5 687.2 681 672.4 666.6 660.2 653.7 647.6 641.4 638.2 631.8 625.3 627.2 627.4 623.5 619.9 616.5 612.8 609.1 603.6 596.3 588.8 586.2 584.9 587.2 591.5 593.9 594.3 588.3 579.4 565.1 547.2 531.1 508.3 476.1 457.3 451.6 433.9 432 429.4 436 442.6 449.7 456.2 456.9 445.2 438.9 421.6 408.6 402 398 393.4 387.1 377.9 364.6 352.7 339.4 321.8 318 316.2 312 310.6 310.4 309 308.1 306.6 306.8 313.3 318.3 334.5 338.8 327.5 337.4 354.4 375.2 396.2 417.2 440.6 455.2 467.8 473.7 478.5 479.2 471.4 463.1 453.3 444.5 435 430.4 425.7 421.7 422 428.8 435.9 437.3 435.2 427.5 416.3 403 388.9 377.4 368 382.4 406.3 425.9 442.9 458.4 471.3 480.9 487.1 487.5 484.2 478.5 473.2 468.1 461.4 453.3 445.5 439.1 436.3 432.3 428.4 424.6 420.7 414.7 407 395.9 383 371.3 361.8 354.7 347.6 340.9 338.6 347.8 356 361.2 365 369.5 373.1 378 383.7 392.3 402.5 412.1 421.9 431 439.9 447.3 454 462.6 470.2 476.8 483.3 481.4 485.9 495 501.4 506.4 509.3 504.4 491.8 475.8 464.4 455 445 434.5 424.1 412.3 403.3 397.6 390.1 384.4 380.1 376.4 371.5 367.1 363.2 360.7 355.7 354.1 351.9 349.3 348.6 345.6 343.8 341.3 339 338.1 337.6 337.2 339.5 339.2 341.6 343.9 344.5 342.6 342.6 342 340.1
687.1 683.7 677.8 669.9 663.1 657.2 651.1 645.5 640.5 637 631.4 627.2 618.8 620.2 617.8 613.4 609.9 607.1 602.4 593.3 584.3 578 583 578.1 568.5 572 573.5 574.8 568.9 557.8 549.8 539.5 524 494.3 460.6 441.4 431.6 416.8 410.4 409.9 410.8 415.9 418.1 421.9 420 414.6 406.2 400 392.2 390.4 381.5 373.1 360.8 348.9 338.3 327.2 316.8 317 315.2 313.5 312.3 311.7 310.4 310.4 312.6 317.9 322.7 324.1 333.9 343 347.4 335.3 345 366.8 388.7 411.6 432 450.3 467.6 482.5 494.8 508.5 512.6 506 493 476.1 461 448 441.5 435.7 432.8 431.4 437.5 444.8 447.7 444.8 437.4 423.7 408.9 394.5 383.8 372.1 385.4 403.8 423.8 443.3 461.3 474.5 483.6 490.7 493.5 492.8 490.5 486.5 480.9 474.5 466 458.1 453.3 450 445.6 440.7 436.1 429.8 421.8 412 399.8 385.3 372.7 364.4 356.3 349.8 340.9 347.8 361.3 371.1 375.9 382.4 387.9 390.4 393.4 399.2 409 420.7 430.3 441.1 450.8 459.3 466.5 476.3 483.1 488.1 495.2 501.6 503.1 497.2 484.3 487.1 499.4 499.8 492.8 478.9 464 452 441 428.8 418.5 409 399.8 394.3 388.6 382.1 376.8 373 368.1 362.7 358.3 354.1 350.9 348.3 346.8 344 341.7 340.6 338.8 336.2 332.8 330.2 328.2 326.6 326.4 327.7 327.9 330.3 334.3 333.4 331.8 332 330.4 329.6
682.7 679.4 672.7 666.3 659.2 654.1 648.2 644.3 639 634.3 630.8 626.6 620.5 614.7 611.4 608.4 605.5 601.8 594.2 584.5 587.8 597.6 598.9 594.1 583.4 564.1 555 552.7 550.5 540.2 530.7 527 516 489.2 453.3 452.9 451.5 435.8 416.1 407.3 403.5 398 394.9 395.7 395.7 389.2 386.8 384.5 377.2 370 357.1 342.4 331.7 325.1 323 320.6 327.1 319.2 316 317.9 325 328.3 320.7 329.7 334.3 334.6 337.2 340.4 347.3 352.2 357.1 340.7 353 375.2 402 422.6 440.3 457.3 475.1 491.9 506.6 518.3 521.4 517.3 509.2 495.3 481.8 463.9 453.7 447.3 442.6 441.4 446.3 452.6 455.6 452.4 442.8 429.4 415.3 400.6 388.1 377.7 382.9 398.8 418.9 440.9 458.9 473.6 484.9 493.2 498.5 499.7 499.2 496.6 494.7 488.8 482.1 474.9 469.2 465.2 459.4 451.9 445.2 438.1 426.8 414.1 401.1 387.5 375.8 367.8 360.2 352.8 346.6 358.5 372.5 380.9 389.4 397.7 402.5 407.5 409 413.3 424.8 436.9 447.3 457.4 467.6 477.6 487.5 493.1 500 505.5 512.3 516.1 516.6 515.6 504 489.4 478.1 489.5 482.2 467.8 453.8 442.3 428 416.3 402 392.3 388.1 382.2 379 373.3 369.1 366 361.3 357.1 352.2 348.8 344.8 342.6 340.4 337.7 335.1 333.1 331.4 329.1 325.5 323 321.5 319.8 319.8 320.3 320.2 320.9 322 321.7 321.4 321.7 322.1 321.7
677.6 672 667.9 661.7 654.4 650.3 644.6 641.2 637.1 631.6 627.3 620.5 613.8 608.7 605.3 602.1 599.3 594.2 593.4 594.7 602.7 607.4 606.6 601.4 595.4 584.3 568.2 550.2 530.2 522.6 516.4 511.4 498.4 481.8 461.2 480.4 486.2 475.2 443.2 416.8 412.2 403.6 395.4 382.3 374.6 371.7 364.7 368.6 356 354.3 344 332.8 329.2 331.7 336.9 343.7 339.6 345.5 340.2 339.1 343.2 344.2 339.2 347.4 355.1 358.5 361.5 363.8 366 367.7 362.3 350 352.7 377.8 406.5 429.2 445.5 462.7 479.2 495.7 510.1 521.6 525.7 523.6 517.4 506.7 495.6 480.7 469 459.3 454.9 454.5 456.1 459.8 461.5 458 447.6 431.3 419.3 405.8 393.2 387.2 382.1 393.9 410.9 433.4 454 469.3 482.6 494.1 502.4 506.8 508.4 508.1 507.2 502.7 498.6 493.2 485.6 477.8 470.1 461.1 452.4 441.6 427.6 413.5 400.3 388 379.2 370.2 365.3 360.5 351.5 365.2 382.3 392.7 402.5 409.3 415.9 422.6 426.6 433.2 442.6 454.5 463.5 473.7 484.8 493.4 504.6 511.3 517.6 523.7 527.2 528.7 529.3 527.9 518.8 501.6 477.8 471.4 471.8 460.9 447.1 433.4 417.3 413 404.7 395.9 387 379.9 373 367.7 364.9 361.4 357.6 353.2 348.7 344.3 341 338.1 335.4 333.5 330.8 328.5 325.8 322.9 319.4 318 316.2 314.5 314 314.3 313.7 314.6 314.1 313.8 314.1 314.6 314.9 315.4
672.9 666.5 659.8 656.5 650.5 646.3 641.4 637.9 630.7 625.4 621.1 614.2 620.8 622.2 618.8 610 604.1 607.7 608.3 609.3 611.7 613.7 609.6 605.8 600.1 591.7 580.4 565.2 549.2 523.3 516.8 508.9 499 484.7 495.5 512.4 507.6 499.8 467.9 438.1 420.5 414.4 406.3 389.7 380.9 375.9 367.3 363.8 356.1 345.1 343.3 348.5 339.4 347.6 351.5 363.3 363.3 372.4 370.4 367.8 368.7 373.4 366.6 368.7 371.4 382.2 374.6 378.8 377.7 371.9 370.1 362.2 365.9 380 404.4 432.7 447.9 465.7 481.9 497.5 511.3 523.4 528.9 529.4 524.7 517.5 507.5 497 486.1 476.9 472.4 469.3 469.4 468.9 469.5 464.7 455.1 441.9 426.9 414 400.2 392.8 384.1 389.9 401.5 423.2 445.5 462.9 477.8 490.4 501.4 509.8 514.8 516.8 518 516.9 511 504.4 496.1 487.1 476.8 465.5 453.9 439.2 424.8 412.9 401 391 383.3 376.7 371.1 366.4 357.2 372.4 388.8 401.6 411.9 420.8 430.3 438.6 442.9 449.6 458.9 469 479.7 489.2 500.2 511 523 529 533.5 537.7 540.4 541.1 540.9 537.5 525.4 513.2 495.6 468.4 458 451.3 441.9 424.8 425.3 419.8 411.6 402.5 391.5 382.3 376.3 371.3 367.2 362.7 356.7 354 351.3 347.7 343.7 336.4 332.1 328.6 327.5 325.7 322.8 319.9 317.3 314.9 312.9 310.8 309.9 308.7 308.7 308.4 307.3 307.4 308.7 307.9 307.8 307
675.1 669.1 662.6 654.3 645.4 645.9 641.3 636.8 636.4 634.9 634 632.1 634.3 631.2 627.5 622.9 619.1 616.4 614.9 613.8 616.5 617.5 615.7 610.9 605.2 597 587 573 556.5 528.9 532.7 525.6 513.6 511.4 523.8 537.4 549.6 536.8 499.5 475.1 439.4 416.5 411.8 401.2 394.9 390.2 389 379.9 369.5 367.9 367.8 363 362.8 377.1 381.9 385.7 394.8 399.7 407.3 401.5 416.5 413.2 411.3 407.1 411.5 407.6 403.4 403.8 392.7 384.5 375 365 368.4 381.9 406 430.7 449 466.5 482.5 498.9 513.1 523.5 530.9 532.9 531.4 528.5 523.3 516.3 506.6 500.3 495.9 489.9 482.6 479.6 477.2 471.5 462.5 453.7 439.2 426.6 410.4 399.5 392.8 386.3 396.4 411.2 433.3 453 470.7 484.5 497.1 508 517.7 523.2 526.1 524.9 519.6 511.8 502.7 491.6 478.8 464 449.3 434.7 424.8 414.2 405.3 396.9 388.8 383.9 377.7 373.1 362.1 377.9 395.2 410.1 421.9 432.5 442.6 450.9 458 466.5 476.8 486.4 496.3 505.1 516.3 527.7 536.7 543.3 547.9 548.9 551 551.5 548.4 542 528.8 512.7 502.6 481.2 463.9 444.9 432.6 433.7 432.1 425.3 417.7 406 394.9 389.3 381.5 376.9 371.6 367.9 363.8 359.9 356.8 353.6 349.8 343.7 337.9 333.2 328.1 324.3 322.1 318.3 314.9 312.1 310.4 308 306.8 303.6 303.8 301.8 302.5 302.3 303.6 301.7 300.6 300.5
679.5 672 664.3 661.4 653.7 650.3 646.3 646.2 643.5 641.6 643.5 642.8 645.8 642.2 636.7 629.3 625.1 621.2 618.5 616 618.6 620.8 620.4 617.1 612.7 605.7 595.2 580.4 563.1 533.5 536.7 535.1 530.2 538.1 550.7 561.2 574.5 564.9 533.2 507.7 477.3 433.4 423.1 420.5 422.1 423.3 421.8 407.8 398.3 393.8 386.7 384.9 397.2 407.1 414.1 417.7 419.9 428.3 437.5 448.2 453.8 461.6 457.3 456.7 460.3 446.5 439.8 432.4 414.3 393.2 383.4 367.6 375.5 384.5 403.5 426 446.8 462.8 480.7 497.4 511.7 524 533.1 537.9 539.8 540.9 539 533.5 524.1 517.4 511.5 504.7 497.6 492.1 486.4 479.6 473.1 465.9 453.4 437 422 414.4 405.9 397.3 392.5 403.8 419.6 441.5 461.1 477.9 491.9 505.6 517.8 525.3 529.5 529.5 524.7 516.3 505.2 493.2 478.3 461.7 446.8 437.2 428.3 419.4 411 402.8 395.8 391.5 385.3 379.5 372.1 384.7 401.9 416.6 430.1 442.1 453.9 464.3 473.5 483.7 495.2 504.3 511.9 522.3 533 541.5 548 554.5 557.5 558.8 560 558.5 558.1 547.4 529 507.3 490.3 479 467.2 444.7 441.2 444.1 441.7 434.5 424 411.4 403.3 396.1 389.9 385.4 380.3 376.2 371.8 366.6 363.4 361.1 356.1 351.5 345.8 339.5 334.2 327.9 325.2 321.8 318.8 316.6 313.8 311.1 308.3 305.4 302.9 299.4 297.8 297.4 297.5 296.5 296 295.5
682.6 675 671.9 666.8 659.7 654.2 652.6 653.2 653.4 652.6 653.4 653.6 653 647.8 641 634.7 626.6 622 618.7 616.8 618.6 621 620.1 618.9 616.8 609.5 600 587.2 567.4 546 540.5 546.6 550.4 563.5 575.6 583.2 589.4 589.4 580.7 561.2 508.1 464.6 449.6 435.5 443.2 452.3 448.6 440.2 432.8 430.3 426.7 416.2 428 435.6 429.2 443 450.2 467.2 477.1 481.3 489.1 493.2 493 492.4 489.1 482.6 447.6 432.3 418.1 400.4 384.5 378 375.2 387.6 401.1 422.8 443.6 460.5 477.6 494.5 510.6 523.8 535.7 543.1 548.3 551.7 551.9 547.4 538.5 530.4 523.3 515.9 507.9 501.8 493.6 487.2 482 473.6 460.6 446.6 442.1 433.9 420.8 412.8 404.5 397 409.7 431.3 451.7 470.9 486.7 500.6 513.3 521.6 527.9 529.6 527 517.7 506.5 491.9 476.6 463.3 452.1 444.3 437.3 428.4 420.1 411.3 404.3 398.2 392.5 384.7 374.2 393.1 408.8 422.9 437.5 451.7 466.2 478.5 491.2 503.9 510.8 517.7 527.3 538.7 547.2 553 559.6 563.4 564.9 565.8 565.9 564.5 552.3 535.9 517.6 505.2 490.4 478.3 459.1 453.7 457.8 455 447.7 441.2 430.5 420.9 413.2 405.9 400.2 395.2 389.6 384.1 381.8 377.7 373.5 370.8 368.8 362.1 354.9 349.1 342.2 336.9 330.6 326.2 323 320 316.9 314.5 311.9 307.5 305.2 303.5 302 298.5 294.3 290.6 290.5 290.8
687.4 682.7 677.9 670.4 664.4 663.9 662.6 662.2 662 663.2 662.6 661.6 658.9 652.4 645.9 639.5 630 623.1 620.3 617 614.5 617.4 618.1 618.1 615.3 608.7 600.4 589.1 574.5 548.3 546 560.6 571.3 581.5 590.7 598.5 604 602.9 594.3 574.8 548.1 502.3 495.2 475.6 471.2 481.6 487 489.9 492.8 480.3 460.2 481.1 471.1 468.6 454 466.8 479.8 495.1 504.8 509 514.2 515.3 514.9 512.8 507.8 487.9 455.6 427.8 421.4 400 384.4 378.3 376.9 393 400.3 418.8 439.7 457.4 473.1 490.3 507.7 522.4 536.1 546.2 555.4 561.4 563.4 559.3 549.2 541 532.9 525.1 517 509.4 499.7 493.5 486.8 476.9 461.5 465.5 460.5 450.6 440.2 431.6 421.3 412.8 403.4 421.2 443 462.8 481.3 494.3 506.6 516.4 524.4 528.1 525.4 517.2 507.2 494.9 481.4 473.3 464.8 456.2 450.6 441.8 432 422.6 411.5 404.9 397.2 390.1 381.2 400.5 415.8 430.6 446.7 461.7 476.2 490 504.9 517.6 526.8 535.5 545.8 554.4 560.5 565.1 567.8 568.2 567.3 566.3 564 556.9 544.5 530.7 515.6 501.2 488.8 476.3 459.3 471.5 470.4 464.7 458.3 450.2 441.7 431.4 422.7 417.2 412.1 406.7 401.5 396.4 393.1 389 385.6 382.5 378.2 373.6 366.7 359.4 352.5 345.8 338.5 333.3 328.8 324.4 323.1 320.4 318 313.5 309.7 307.2 305.8 304.6 302.6 299.4 296.1 286.4
693.4 687.4 680.4 676 672.8 672.5 670.4 672 673.8 672.3 669.4 666.3 662.4 656.3 649 641 630.6 622.9 618 614.9 611.9 611.3 613.3 612.3 609.8 602.8 593.8 581.5 567.9 546.6 555.2 570 581.6 592.1 603.4 612.6 618.9 618.6 609.1 588.6 561.4 539.2 521.2 512.1 516.1 518.8 523.8 533.7 534.6 530.5 518.3 512.5 495 487.9 469.5 487.7 503.9 515 520.9 526 532.7 536.8 535.7 530.2 524.4 500.7 471.8 432.2 407.4 393 377.3 380.4 387 388.4 401.7 414.3 436.3 453.3 470.2 485.7 502.7 519.7 534.5 547.9 558 567.2 572.3 567.8 557 549.1 540.2 532.4 525.4 516.3 506.3 498.7 490.3 476.5 483 481.2 477 470.4 458.7 449.4 439 428.1 411.8 411.9 434.4 456.1 473.7 488.2 500.3 510.9 519.5 524.4 523.3 517.3 510.9 503.3 494.3 485.7 480.3 472.7 463.5 455.4 443.5 434.3 421.7 412.7 402.9 396.6 391.1 409.1 424.2 440.3 457.1 472.3 487.9 501.6 519.8 535.1 545.5 554.3 563.4 568.2 571.5 572.6 571.7 568.9 566 563.1 559.1 550.2 539.3 525.8 512.8 500.8 488.6 468.1 480.7 485.5 483.5 478.3 470.5 461.6 454.4 445.5 434.9 428 423.8 418.9 414.8 411.1 408.2 403.6 399.1 395.4 390.4 384.2 377.5 370.9 363 355.9 348 341.7 336.1 331.8 329 326.4 323.7 320.2 315.9 312.7 311 309.7 307.5 305 303 299.3
696.7 690.7 685.8 682.7 680.6 678.6 680.7 680.4 680.3 677.8 673.7 669.8 663.2 656.8 649.6 640 628.3 620.9 617.4 614 608 602.3 602.2 602.6 598.4 591.7 581.8 567.6 558.2 548 561.9 576.9 589.7 601.4 613.6 624.3 632.4 632.6 622.3 598.6 579.6 563.4 552.7 531 547.5 557.1 562.7 562.9 557.8 550.2 541 529.2 510.7 499.9 489.2 506 525 534.4 541.7 547.3 549.3 554.6 553.3 547.3 540 516.5 472 428.4 400.1 386.3 378.3 380.6 387.3 395.8 398.4 411.7 431 448.9 465.4 483 500.4 518.2 533.6 547.6 559.7 569.8 576.7 573.9 564.3 555.9 546.6 539 531.7 522.4 512.2 502.6 489.2 494.1 494.4 491.8 488 481.6 473.5 465.8 454.4 440 425.9 410.6 427.1 447.1 464.8 480.5 493.7 505.1 515.1 522 524.6 523.2 519.3 514.1 507.4 501.1 495.6 489.5 478.6 467.7 455 442.5 430.8 419.8 410.2 400.4 401.4 416.8 432.2 450.3 466.6 483.3 499.4 515.5 535 551.4 561.9 571.1 576.2 578.3 578.5 575.8 572.1 565.7 558.6 552.4 546.1 538.5 531.7 521.6 510.8 498.3 481.3 487.8 495.8 498.6 496.9 491.3 483.8 473.3 465.6 458.1 447.8 440.2 435.8 431.4 426.7 423.9 421.5 418.3 414.4 410.3 404.9 397.1 387.4 379.1 369.7 366.5 361.6 353 347.2 344.1 337.7 334.1 330.3 327.1 323.7 321 317.5 316.5 314.2 311.4 309.3 306
699.1 693.8 690.6 686.1 684.6 684.9 686 685.3 684.5 681.9 678.2 672.9 665.4 657.7 648.6 637.4 626.6 621.2 616.4 608.9 600.7 596.3 590.1 590.8 584.8 575.2 567.1 560.4 553.2 556.4 568 583.2 596.5 609.2 622.2 634.4 642.1 643.6 631 608.5 591.5 575.9 565.7 548 567 575.3 579.2 577.3 571.5 561.3 550.5 539.7 521.5 511.3 506.3 526.7 544.3 554.6 562.2 569.3 571.3 569.9 566.8 560.9 554.1 531.2 482.5 425.9 394.6 380.1 380.7 380.1 381.5 392.8 399.8 410.6 425.8 445.4 461 478 497 516.8 534.3 548.6 560.8 572.5 577.5 577.4 569 561.3 552.8 544.8 536.5 527.3 516.7 505.8 507.9 505.9 503.7 500 493.5 485.2 477 467.8 454.9 440.1 421.1 422.5 420.1 433.4 453 470.9 487.4 501.2 513.3 522.4 528.3 530.1 529 527 523.3 519.6 515.6 508.4 496.7 480.4 465.8 451.9 439.1 427.9 416.7 408.3 411.5 426.7 443 459.9 476.9 494.3 510.1 529 549.2 565.7 576.6 584.5 586.8 585.8 582.4 576.6 567.4 556.8 549.3 541.7 536.6 530.9 524 516.2 505.6 492.4 496.1 503.5 508.8 513.2 514.9 511.2 501.8 490.2 478.9 470.1 461.5 454.2 447.8 444.4 441.2 438.9 436.4 432.3 429.2 425.1 418.5 409.5 400.4 391.6 386 381.7 375.7 370.9 367.1 361.5 354.2 348.5 341.5 338.1 336 332.6 329.1 324.8 322.9 320.9 318 314.5
701.6 697.9 693 688.6 689.3 688.8 688.4 688 686.9 684.4 679.3 672.1 664.9 656.7 646.8 634.2 625 619.7 612.8 610.8 609.1 601.2 593.2 585.8 574.1 568.1 564 565.9 568.5 566.8 573.5 588.5 603.3 616.7 630.5 640.9 647.5 647.9 637.1 620.1 601.9 586.3 575.4 565.5 580.1 585.1 590 588 583.8 575.8 563.9 551.2 535.2 524.5 525.9 546.1 563.2 571.8 578.9 584.9 586.6 585.2 582.9 575.5 569 556 516.8 467.6 416.4 386.7 380.9 382 382.3 385.7 399.2 410.8 424.1 440.8 454.1 476.6 495.8 516.8 534.6 550.1 562.8 573.5 579.8 579 573.1 565.7 557.6 549.1 540.5 530.8 522.4 521.2 520.3 517.2 512.5 504.7 496.6 486.7 475.8 463 448.6 437.1 428.7 435.3 432.5 429.4 444.8 463.9 481.6 497.8 510.8 522.2 529.9 535.3 538.4 539.2 538.8 537.6 533.4 524.7 509.9 492.9 475.6 460.4 446.1 436.6 424.9 414.1 420.8 436 452.8 470.1 487.8 504.6 521 542.6 561.8 577.2 587.8 592.9 593.1 589.9 583.7 574 560.6 555.1 549.5 547.2 540 532.7 524.8 515.5 507.8 503.7 511.4 516.5 524.1 532.5 535.6 530.8 520 511.1 498.6 487.4 475.5 469.1 463.3 458.3 455.4 452.8 449.4 446.3 445.6 441 435.4 429.4 419 410.6 403.5 395.9 389.4 384.2 379.3 374.2 369.4 363.5 358.2 352.8 348.6 346.5 342.1 337.5 334.5 332.5 328.9 323.5
704.8 698.9 694.2 690.7 690.9 690.1 688.6 687.7 686.4 682.6 677.5 669.7 662.9 654.3 642.3 631.2 624.4 616.4 617.3 616.7 612.7 600.8 592.4 585.1 578.3 576.3 580.1 580.7 582.2 578.2 581.3 594.2 608.2 621.3 634.8 645.7 650.9 648.8 638 625.9 612.4 593.1 581 580.6 589 596 599.9 600.8 598.8 592.4 582.3 569.7 557.9 544.8 547.1 566.7 580.9 588.3 595.4 602 604.5 602.7 599.4 592.4 586.4 571.7 514.6 478.9 448.3 418.7 389.2 383.9 385 385.2 400.5 413.2 422.8 435.9 452.4 473.3 495.8 516.4 536.1 551.7 566.1 577.2 581.8 580.5 576.4 568.7 561 552.9 545.1 536 532.5 533.5 531.7 527 519.6 510.4 496.9 484.6 471.8 458.8 447.1 430.5 441.4 449.4 450.7 444.3 441.7 455.8 475.4 494 509.2 521.7 532.5 540.5 547.2 551.4 554.2 552.6 547.8 538.8 524.8 506 483.7 467 453.9 443.4 433.6 419.3 433.3 444.7 461.6 478.3 496.6 514.9 535.2 556.2 572.4 584.3 593.5 597.8 597.6 592.6 585.1 576.2 567.2 561.2 558.3 555.9 548.3 540.1 533.8 527 521.8 516.9 525.1 533.2 541.4 549 551.6 549.3 541.7 530.7 518.1 507.1 495.6 485.7 478.3 472.8 471.1 469.3 466.6 465.1 463.2 459.6 453.4 445.3 437.7 429.1 420.9 411.2 403.8 398.6 393.1 387.7 383.8 377.8 372 366.3 362.8 358.3 354.7 352.4 348.6 343.6 338 331.3
703.7 699.8 694.8 691.1 690.1 688.9 687.8 686.6 684.8 680 674.5 667 657.8 650.1 638.7 628.4 623.8 624.5 622.3 621.9 610.9 598.6 591.2 582.1 585.3 588.7 593.1 595 594.8 594.2 593.4 606 613.8 627.9 638.9 646.8 650.7 648.2 638.5 628 612.6 596.1 583.7 589.8 599.6 605.5 609.1 611.8 609.4 604.3 595.4 586.7 580.4 563 574.3 585.8 599.7 606.4 614.5 620.6 621.4 618.8 614.5 608 601.1 594 577.5 518.2 479.1 447.2 419.8 406 390 390.7 402.1 410.1 423.7 434.3 448.7 470.6 495.1 516.8 536.6 554.5 570.6 580.6 584 583.7 579.4 571.9 564.7 557.3 550.7 545.6 546.1 543.8 539.7 533.2 525.1 513.8 499.4 484.6 471.1 458.6 442.5 443.6 454.4 461.5 462.4 457.2 444.3 452.6 470.9 490.8 508 522.6 535.2 545.6 554.4 562.4 566 566.2 560.1 550.2 536.6 518 499.3 475.7 461.3 452.7 436.3 437.4 444.7 455.2 470.1 485.4 505.4 524.7 544.5 562.1 576.9 589.7 598.2 601.1 600.9 595.8 588.2 578.2 574 570.2 568.3 564.7 560 552.5 544.2 538.2 534.2 531.9 541 548.7 558.1 564.5 567.5 568.4 563.9 552.5 539 526.8 514.2 504.3 497.6 491.5 487.5 487.4 487.6 486.2 483.5 479.5 472.7 462 454.6 445.3 436.8 427.5 419.3 413.1 409.9 404.6 398.3 392.1 386.1 381.2 376.7 373.2 369 364.5 359.4 351.9 345.3 336.1
702.5 700.2 694.6 691.3 688.8 685.3 685.6 684.7 681.1 676.6 670.7 663.3 654.3 644 634.9 632.3 633.1 630 628.8 624.2 608.9 596.9 590.1 593.7 598.7 602.9 607.3 610.7 613.5 614 616.5 619.1 625.9 632.8 640.7 647.5 649 646.7 640.2 629.6 612.8 599.7 586 600.4 609.8 617.3 623 624.8 623.1 620.2 613.8 607.4 600.6 591 591.3 607.3 616 624 632.2 636.7 636.1 630.8 625.4 619.4 611.7 607.1 597.2 559.5 507.9 469.8 433.1 416 401 393.5 397.7 413.8 422.6 434.1 447.8 470.1 495.3 518.6 538.2 557.5 571.9 581.2 587.1 587.8 582.4 576.4 570.6 564.4 558.4 556.4 557 553 547.4 539.3 529 517.6 502.2 486.8 473.6 458.1 444.2 456.7 467.4 474.4 475 468.7 460.6 456.5 470.2 489 507.5 524 538 549.2 561 569.9 575.4 576.2 571.2 561.6 545.3 528.6 507.2 487.7 471 461.1 451.4 453.6 457.2 467.4 480.3 495.3 514.1 532.8 550.9 567.5 582 593.8 600.7 603.2 601.9 597.4 591.4 585 581.1 580.1 577.9 574 570.2 563.2 556.4 550.7 547.3 547.5 553.1 561.6 569.8 577.1 583.4 585.1 580.8 572 559.2 547.1 535.9 524.5 515.9 510.4 507.1 506.5 508.9 509.8 508 501.7 495.4 486.3 473.9 458 451.8 443.2 435.7 431.1 425.7 418.5 411.7 403.9 398 393.1 388.8 385.5 380.1 372.8 365.3 355 347.9 340.4
699.9 694.9 691 687.3 685.4 682 679.8 679.5 676 670.8 667.2 657.4 652 649.9 645.1 643.4 638.7 633.1 629.3 625.6 610.4 595.8 599.6 607.5 615.1 621.3 627.9 630.5 632 631.8 631.4 631.9 638 640.6 644 647.7 648.3 645.6 639.7 627.3 613.6 601.8 601.6 611.6 621.7 631.1 637.4 638.7 638.2 634 629.2 625.3 621.7 618.2 617.4 624 629 638.2 642.9 645.9 645.4 639.5 631.6 625.6 618 611.6 606.6 599.6 587.8 562.9 492.3 448 414.8 409.7 400.4 411.8 421.9 435.3 448.1 469.6 496.3 519.7 542.6 557.8 570.6 580.6 588.4 589.4 585.8 581.4 575 571.8 569.2 567.2 564.1 559.8 552.7 542.8 530.9 520.5 508 491.2 474.8 457.3 453.8 466.9 480.5 487.8 489.6 482.3 471.8 462.2 470.2 489 508.3 526 540 552.9 564.6 573.9 580.3 582.8 578.5 570.1 553.8 535.4 517.7 500.1 484.8 471.3 467.2 469.4 471.1 482.3 494.8 508.6 524 540.2 558.1 575.3 588.7 597.4 602.8 604.4 602.8 598.8 596.1 592.8 590.3 590.3 588.3 584.3 580.7 575.7 570.3 564.1 559.7 560.2 564.8 572.2 580.4 588.4 595.9 599.3 596.7 588.6 576.2 564.3 554.1 545.6 538.4 531 528.7 529.6 532.9 534.3 532 525.9 518.3 509.1 496.7 483.9 469.9 457.9 452.9 447 439.3 429.4 421.2 413 407.8 402.6 398.1 392.2 387.4 377.7 366 357.2 350.8 341.9
695.6 691 688.7 684.5 683.4 681.5 680.2 678.9 674.5 669.5 666.1 661.8 660.9 655.6 651.4 647.8 641.7 635 629.3 624.3 610 603.8 611.8 621.8 628.6 634.7 641.9 648.2 651.3 651.6 649.9 648.9 649.8 650.6 650.4 651.7 650.6 645.9 636.7 623.9 614 607.4 614.2 623.7 633.1 641.3 647.7 650.4 650.3 648.1 644.6 639.3 636.4 633.4 633 633.2 636.9 644.2 647.4 648.3 646.4 640.6 634.3 627.6 619.1 612.2 605.3 597.3 585 567 543.7 492.8 458.9 435 417.3 420.7 432 441.8 452.6 472.2 499.2 519.5 541.2 556.9 568.4 580.5 588.9 590.6 589.9 587.3 583.1 581.7 578.5 574 569.2 563.9 554.4 544 534.5 524.7 511.7 494.6 475.2 456.1 461.7 475 490.4 501.8 505.4 497.1 485.1 475.7 470.1 491.1 509.8 527.4 542.4 555.2 566.3 576.7 583.9 586.8 582.1 574.4 561.7 543.7 529.7 513.3 498.6 485.1 484.5 485.7 489.7 497.6 508.6 521.2 534.2 551.7 570.2 585.1 595.4 602 605.6 606 603.6 602.8 603.4 601.4 600.5 599.8 599.1 597.6 594.3 590.1 584.3 576.9 571.6 571.5 576.7 583.2 591 599.3 608.9 612.8 611.2 602.3 591.8 583 574.2 567.3 561.2 556.5 551.2 553 554.4 553.4 551.9 547.7 539.6 530.2 515.8 499.6 485.5 472.5 458.8 450.8 442.7 435.4 427.3 419.2 413.3 407.2 402.9 395.2 385.7 376.4 364.7 358.2 350.4 342.4
688.4 688.4 684.1 681.9 679.9 678.4 679.5 678.3 677.1 674.4 672.8 669.3 666.2 661 654.7 649.3 640.8 632.9 628.5 619.3 607.1 616.2 623 630.8 639 647.5 656.2 662.1 667 668.4 667.5 666.8 667.7 663.8 661.6 658.3 654.8 650 635.8 622.7 616.6 617.9 623.7 633.3 644.1 651.9 660.6 664.8 665.1 661.6 656.1 651.1 646.9 643.7 641.8 641.5 643.5 644.8 645.6 646.4 643.8 638.3 631.3 625.5 617.1 609.1 600.8 590.8 576.7 556.7 532.8 498.5 471.6 449.3 453.3 448.2 443.2 454.4 463.2 468.3 494 518.4 537.7 551.6 564.2 577.8 589.4 594.9 594 592.9 591 589.6 585.2 579.6 573.9 567.3 556.3 546.6 537.7 526.7 512 494.8 477 463.5 469.6 485.5 503.4 517 523.5 516.5 500.6 493.1 485.6 491.6 510.3 528 542.6 556 568.1 578.2 586.1 588.2 585.4 578.5 568 552.2 542.6 527.9 517.2 505.6 504.3 504.3 506.1 512.3 524.1 537.5 549.8 566 582.2 593.3 601 606.5 609.2 608.3 607.3 608.7 609.3 610.6 610.5 611.5 613.1 611.9 608.8 603.5 596.1 587.7 582.4 583.5 588.3 594.8 604.2 612.1 621 624.7 623.8 614.5 603.5 593.5 585.4 581 575.4 572.5 569.5 569.2 569.4 570.7 569.3 564.3 553.1 540.5 523.9 506.5 490.4 477.9 468.2 455.1 437.1 435.7 428.9 420.8 413.1 402.6 401.9 390.6 382.3 372.7 361.7 354.6 347.3 341.9
684.4 683.4 680.7 677.4 676.4 673.8 674.9 675.7 675.5 675.5 674.2 671 668.7 663.7 658.1 648.8 639 631.9 628.6 618.5 613.5 623.6 630.9 639.1 647.3 657.6 667.3 675.5 679 682 682.5 680.4 679.8 677.3 674.2 668.2 662.6 652.8 637.6 625.5 627.6 631.5 636.6 645.9 655 666 673.9 678.1 678.2 674.3 666.8 659.8 653.4 649.6 647.5 646.5 645.6 643.9 641.4 641 638.8 632.5 626.2 621 613 604.7 596 583.9 569 546.2 519.2 493.7 472.4 468.8 488.1 480.8 474.6 476.4 486 493.3 490.5 511 533.7 545.7 561.4 578.5 590.8 596 599.7 600.6 598.9 595.6 591.6 583.9 575 568.3 558.4 547.2 537.7 525.9 511.7 496.7 478.9 466.7 479.9 496.7 516.2 529.9 536.6 533.2 520.3 512.1 503.2 492.4 510.3 527.8 542.3 556.3 568.9 579 585.1 587.6 584.6 577.7 570.8 563.9 553.3 544.5 534.6 525.9 523.6 521.1 526.3 532.4 543.4 556.7 568.6 581.6 593.7 602.3 607.1 610.8 612.2 612.2 613.9 615 616.3 619.5 622 625.3 627.2 625.2 621.3 615.7 608.7 598.9 597.5 599.3 601.1 607.8 615.9 623.2 628.9 630.6 628.2 621.2 613.1 600.2 592.8 589.9 585.3 582 577.8 577.1 577.9 579.9 576.8 570.1 556.2 541 524.9 505.6 491.1 479.6 467.7 455.2 442.3 424.8 424.6 416.1 406.3 397.5 391.7 385.8 378.8 367.5 356.3 349.4 345 341
680 678.3 677.1 672.1 667.7 665.9 667 670.4 672.3 674.6 673.9 673 669.5 665.1 657.1 646.3 637.7 630.9 625.3 619.1 620.9 629.6 638.5 647 655.2 666.4 677 683.9 690.1 693.8 694.5 692.6 689.7 687.8 683.5 676.1 666.9 650.9 637.3 638 642.9 646.6 650.2 658 667 675.5 684 688.2 686.3 681.3 673.1 664.3 657.3 652.9 649.1 647.7 646.5 643.5 637.8 634.3 631.3 625.4 619.6 614.7 607.8 599.7 590.6 578.1 560.1 535.5 510.1 486 478.8 493.3 508.8 518.2 515.7 507.7 514.2 518.4 513.8 514.1 522.5 537.6 559.6 578.9 593 601.3 605.4 605.7 604.5 600.5 593.7 585.4 576.3 567.4 555.3 544.7 535.1 524.7 509.8 492.9 489.7 475.6 489.8 507.2 527.6 541.7 549.1 549 537.7 530.2 520.9 511.1 511.2 525.5 541.5 555.4 567.4 576.3 581.2 579.7 578.1 577.8 573.4 564.9 559.3 555.6 541.5 547.3 543 544.6 548.9 556 565.5 576.1 586.3 598.3 605.2 610.6 614.2 615.2 615 618 620.1 622.6 624.8 629.6 634.9 639.6 640.8 637.8 632.7 625.9 618.8 609.4 606.7 606.7 609.8 616.7 623.9 629.6 631.3 627.9 622.4 614.8 609.1 601.1 595.7 593.2 589.6 585.4 578.4 575.6 574.8 574.6 571.7 565.3 552.8 536.5 520.7 504.6 491.1 478.6 466.7 450.1 437.9 419.4 414.3 402.1 397 391.3 382.9 379.5 370.1 360.9 352 346.1 342.3 339.1
671.9 673.5 672.3 666.4 663.9 659.9 659.3 662.6 668.1 671 672.6 672.2 670 663.7 654.6 644.2 636.2 630.3 624.6 622.3 629.6 637.3 644.4 653.1 662.2 672.6 682.8 691.3 699 704.9 705.2 702.2 699 694.9 691.1 682.5 668 652.1 647.8 653.5 656.2 658.8 664.7 671.2 678.4 686.7 691.6 693.6 691 684.4 675.4 666.5 658.9 653.1 649.3 646 644.7 639.4 635.4 629.5 625.2 617.9 613 607.8 601.5 592.8 583.9 571.8 553.5 530.5 506.9 495.8 492.5 508 525.6 542.7 547.5 544.5 541.9 544.3 542.7 541.2 533.6 537.8 561.2 580.4 594.8 605 608.7 610.5 608.5 602.4 597 585.7 575.8 563.2 551.8 540.2 532.7 521.1 512.6 510 504 485.5 501.9 519.4 538.4 552.6 559.8 561.2 557.9 549.3 538.1 528.2 518.1 526.6 540.8 553.6 563 571.3 576.6 578.5 577.6 578.4 578.1 574.3 566.1 562 559.2 560.5 562.8 565.4 570.8 576.4 584.3 592.9 603.3 611.1 615.3 618.8 620.5 618.5 620.1 623.6 627.4 630.3 634.6 641.3 648.4 652.7 653.1 649.4 642.7 635.6 627.6 618.8 614 614.5 616.6 623.1 627.6 629.8 626.6 619.9 611.7 604.6 600 593.8 591.7 590.3 585.3 579.4 571.4 567.6 565.9 565.3 562.8 557.4 546.5 531.9 519.6 504 489.5 473.9 462.3 444.3 425.9 415.6 409.9 388.6 386.8 381.3 378.1 372.2 363.5 354.9 347 343.1 339.4 336.3
664.6 667.1 665.8 663.2 657.9 656.3 654.3 656.1 661.4 664.7 670.1 670.9 667.6 660.3 652 640.2 636.9 631.9 623.7 630.3 637.5 645.6 654.6 661 669.3 678.7 687.5 696.8 705.2 711.8 713.7 708.9 705.1 701.1 695.4 684.9 669.9 658.3 663.2 666.1 670.8 676 679.7 685.1 691.4 696.9 699.5 698.2 694 686.9 676.3 664.9 657.2 650.5 647.5 643.5 639.6 635.6 629.5 622.5 616.5 611.7 604.1 598.7 591.2 582.3 574.2 565.2 549.2 527.4 507.9 514.8 513.7 524 547.1 567.6 580.5 585.8 583.6 577.2 572.3 568 550.5 539.2 563.2 580.2 594.4 607 611.4 612.8 611.8 606.9 599.9 588.1 582.1 566.8 559.5 553.4 549 539.2 533.8 530.7 516.3 494 510.8 532 550.1 563.3 570.5 573.4 570.6 565.2 554.6 542.7 531.5 526.8 539.2 549.6 558.5 567 573.2 577.5 577.9 577.8 576.4 573 570.6 568.3 565.5 569 574.2 578.8 584 592.3 598.2 607.3 614.7 620.5 624.8 626.3 626.1 625.8 629.2 631.6 634.9 640.3 647 653.9 660.1 664 663.4 658.4 649.9 642 633.8 625.3 620.7 619.8 621.8 626 626.2 623.5 617.6 607.4 599.4 592.2 587.6 582.7 582.2 579.7 575.2 568.7 559.4 556 555.1 553.6 551.8 547.3 539.6 528 516.3 502.4 487 466.6 451.7 436.7 421.2 408.1 399.2 389.5 378.8 375.7 370 364 357.4 349 343.4 340.6 336.7 332.6
656.9 660.4 659.2 658.5 654.6 650.7 647.9 650.4 654.1 660.1 665.1 665.6 661.2 656.1 648.1 640.6 635.1 629.3 628.7 638.7 645.7 655.2 663.5 669.1 675.4 684 691.9 701.3 708.7 714.8 717.5 713.8 708.6 706.3 699.4 686 673.4 672.7 677.4 680.4 684.4 689.7 695.4 700.2 705.8 708.7 708.2 705.1 698.7 688.7 676.9 666.3 657.3 648.2 643.9 638.2 634.6 629.6 623.3 616.4 609.1 601.7 591.8 585.5 578.7 570.5 563.1 555.8 545.5 524.9 539.1 533.6 527.7 548.4 566.9 581.7 592.3 599.3 600.9 597.6 593.1 584.7 566.9 556.6 557.2 580.7 599.3 609.7 614.1 616.7 616.7 613.6 607.4 594.6 591 578.2 575.3 572.5 568 559.7 557.1 548.7 533.3 511.6 521.8 543.4 559.8 572.4 580.4 582.9 580.8 576.4 566.5 553.4 546 540.6 542.1 548.7 557.6 563.7 571.1 577.7 579.9 577.6 576.7 573.3 572.4 570.8 570.6 577 584.2 589.3 596.4 602.9 611.5 619.8 625.2 630.4 633.8 634.5 635.8 637 638.2 639.7 647 653.3 659.4 665.6 670.7 673.1 671.4 665.2 654.8 647 638.5 629.4 625.2 623.3 624.2 624.8 620.2 613 601.8 594.1 587.2 579.2 571.8 570 569.4 565.5 560.5 554.5 545.9 544.2 543.4 542.1 540.5 537.6 531.2 522.5 512.5 497.9 481.3 461.7 445.8 428.9 416.5 405.3 394.4 385.2 378.9 372.6 365.7 360 352.5 344.8 340.9 337.4 333 329.4
647.6 652.7 653.8 650.7 649.2 646.3 642.2 646.8 649.3 653.3 658.7 659.7 657.9 653.9 646 640.2 635.5 630.1 636.1 645.7 654 661 670.1 675.3 681.4 690.1 695.6 702.7 710 715 716.8 714.2 711.9 707.9 701.1 690.9 685.2 685.9 691.1 694.4 699.7 704.9 710.3 714.9 718 719.1 717.7 712.6 704.8 693.7 677.9 668.3 658.4 648.1 641.5 634.5 626 620.5 612.9 605.2 595.8 587.5 580.3 570.7 563.2 557.4 550 547.4 551.1 551.6 561.4 553 541.6 566.4 583.3 592.9 601.1 607.3 609 607.3 603.7 597.3 584.3 573.4 563.2 585.1 603.6 612.9 618.7 623.3 623.9 623.5 616.5 602.3 597.7 597.2 596.4 593.2 587.4 583.9 578.4 566.6 549 529.4 532.5 552.5 569.3 581 588.4 591.8 590.6 586.6 576.9 565.8 559.3 554.3 551.4 555.7 560.3 567.3 573.7 577.6 580.2 579.2 576 573.1 573 574.5 577.1 584.4 592.4 598.9 606.5 614.4 621.2 628.9 634.6 639.5 641.4 642.8 645.4 644 649 653.6 659.5 664.7 670.6 675.9 679.7 679.9 676.3 669.5 659.1 649.6 640.2 631.1 626.4 623 620.5 616.9 608.5 597.9 586.6 579.9 573.5 564.1 557.8 557.7 554.5 549.4 543.7 536.7 530.6 530.6 530.5 529.4 528.5 526.7 521.2 515.4 505.7 490.7 477.1 459.9 442.3 426.4 413.8 404.1 393.2 384.3 378 371.8 363.5 356.6 349 342.5 337.6 334.4 330.4 327.1
639.2 642.7 645.6 644.6 643.9 641.3 634.2 641.5 646 648.6 653.1 657 656.4 653 647.9 645.5 639.2 636.4 646.2 650.3 657.2 664.6 673.2 679.3 685.5 691.4 697.6 703.2 708.5 712.6 714.6 713.8 713.5 709.5 703.3 699.7 699.3 700.5 703.7 707.6 713.5 718.9 723.7 726.8 727.9 727.3 724.3 717.8 708.7 697.8 681.7 669.5 661.8 649.2 638 631.5 621.9 612.9 603.7 592.2 582.7 576.1 574.7 574.4 577.2 579.5 579.4 578.8 576.8 578.8 581.1 567.8 552 572.9 589.1 599.6 608.7 614.5 615.8 614.2 611.1 608.4 602 591.6 579.2 590.9 607.6 618.1 624.5 629.6 633.7 634 630.1 621.3 612.8 612.7 610.7 605.8 600.7 594 589.6 580.5 564.9 544.3 543 563 578.4 588.3 596.3 600.2 601.1 599.3 594.1 581.5 572.3 565.4 564 567.1 570.6 574.1 579.1 582 581.6 580.7 579.4 578.9 581 579.2 583.1 591.3 599.2 607.2 613.8 620.8 627.8 634.4 639.9 644.3 647.7 652 654.6 655.6 657.9 662.4 667.8 672.1 678.1 684.1 687.7 686.9 681.9 673.6 661.4 650.2 640.2 630.3 624.9 619.4 613.4 605.2 591.1 580.9 572 565.8 557.9 548.7 545.8 544.8 539.3 532 526.5 519.8 516.1 515.6 515.2 515.4 515.4 513.8 511.2 506.7 498.4 486.4 473.5 457.7 440.2 425.1 412.4 401.6 391.8 384.5 377.7 368.6 361.6 354.3 347.8 341.4 337 331.7 327.3 324.9
628.2 628.9 631.6 635 633.5 634.5 626.2 634.1 642.1 646 648.7 650.1 653.9 651.7 649.1 648.3 639.8 644.8 649.9 656.1 662.4 668.6 675.2 681.9 686.9 692.6 698.3 703.5 708.2 711.2 713 712.2 711.4 709.3 708.8 709.4 709.5 710.8 715.6 720.6 725.8 730.9 735 735.4 734.7 732 727.6 719.7 710.2 700 688 673.3 665 653.9 643 633 621.6 609.4 596.5 597.6 595.7 590.9 591.7 592.5 596.3 599.1 600.9 603.2 601.7 599.1 595.2 581.2 562.7 574.4 594.3 605.9 613.1 618.2 620.7 620.8 619.2 615.2 613.6 608.5 596.1 596.2 615 624.1 631 636.8 641.2 642.3 638.1 631.9 626.2 621.6 617.6 615 609.9 604.2 596.4 586.4 574.3 555.2 556.5 574.4 587.4 597.5 605.2 609.8 610.5 608.8 604.2 597.4 586.9 579.6 576.7 581.8 582.1 584.3 585.4 585.8 584.9 585.4 586.7 587.1 590 590.4 588.2 591.8 601 611 617.9 624.9 631.2 637.5 642.8 647.1 652.5 657.9 660.8 663.2 664.7 666.5 669.4 673.2 680 685.6 689.1 687.9 683.8 674.9 663.6 649.2 638.7 629.1 621 612.9 602.9 589.4 577 564.7 559.2 551 542.2 535.1 532.6 529.8 522.8 514.6 510.7 505.3 502.9 500.1 499.5 501.1 501.7 502.1 500.9 498.3 488.9 481.4 470.3 456.8 439.4 423.7 411.6 399 389.9 382.6 375.3 366 359.1 352.2 347 341.4 336.4 332.1 328.1 322.9
619.6 619.2 620.9 619.7 618.2 620.8 622.1 627.9 635.7 642.1 645.6 646.3 645.8 649 648.8 644.5 644.2 648.7 651.8 658.3 663.7 671.2 677.2 680.7 685.9 691 696.1 701.8 706.6 709.2 710.3 709.4 711.9 711.7 711.9 713.7 716.8 719.5 723.3 728.7 733.2 737 739.4 739.1 735.4 730.5 725.3 718 709.4 699.9 688.9 677.3 666.2 657.9 646.3 635.2 624.1 611.5 612.1 612.5 608.3 605.3 607.9 611.2 615.2 617.1 615.1 614.3 610.9 605.9 600.3 593.3 582.4 576.6 597 609.9 616 619.1 623.3 623.9 623.8 623.9 623.8 622.7 614.1 608.5 621.9 632 639.3 645.2 648.7 648.9 644.7 637.2 631 625.1 623.4 620.9 614.8 607.7 599.4 588.1 576.8 555.5 571.6 585.4 596.3 605.7 613.5 617.9 619.9 619.1 615.9 611.5 606.2 598.4 595.9 596.2 595.1 594.1 593.5 594.1 596.1 596.3 597.7 597 597.4 595 592.2 592.3 600.1 610.6 620.5 626.2 631.8 637.8 642.9 648.5 654.5 660.4 663.7 664.8 664.9 665.1 665.8 666.7 674.9 680.7 683.6 683.4 680.2 673 662.2 648.5 637.1 624.2 613.8 602.5 590.1 577.5 559.5 549.1 545.8 539.8 529.8 522.3 517.6 513.3 505.8 500.1 496.6 493 490.8 487.9 484.5 486.6 488.1 490.4 490.7 488 481.3 473.3 466.6 454.5 437.7 422.8 409.9 398 388.8 381.3 374.5 365.6 357.7 352.5 346.3 341.2 336.5 332 327.9 323.6
614.1 612 610.3 612.3 610.2 613.3 610.6 618.8 628.2 637.3 640.7 641.1 641.7 642.5 644.3 642.3 644.2 647.8 652 657.4 662.7 670.2 676.5 679.8 682.7 688.3 691.7 695.4 699.6 704.1 705.7 704.6 708.3 711.1 714.7 717.8 720.1 722.9 726.3 729.7 734.2 736 736.7 735.7 730.5 725.4 720.3 713.5 706.5 698.1 688.3 680 670.4 662.1 652.1 638.6 624.3 622.6 626.9 625.7 621 617.7 623.9 626.2 629.9 629.2 625.8 618.8 615.8 608.8 602.3 593.8 583.3 581.9 599.5 608.2 615.9 621.8 625.9 627.3 628.4 630 630.6 632.3 630.8 628.3 633.8 641.2 647.4 652.8 655.4 653.7 646.6 640.5 632.6 627.3 626.6 624.2 616.3 608.1 597.1 586.3 575.8 570 583.2 594.1 604.3 613.2 620.7 626.5 629.6 629.6 629.2 626 621.5 616.1 612.7 609.9 609.6 609.3 608.5 608.5 608.1 607.7 608.1 607.1 603.9 600.2 593.9 592.5 598.6 608 617.2 624.9 629.6 634.9 641 646.6 652.7 657.7 659.3 659 658.3 658.3 659.2 659.9 664.1 670.7 675 675.7 674 667.6 658 645.3 633.9 620.8 605.9 589.3 573.5 561 544.5 534.3 530.9 523.8 516.3 511.6 505.3 497.2 490.6 486.8 483.8 481.5 479.2 476.8 472.6 472.5 474.6 476.7 479.4 477.6 473.2 468.2 461.8 450.8 433.3 419.8 407.7 397.5 388.7 380.7 373.1 365.4 358.1 351.1 344.8 340.7 336.4 332 330.5 327.7
624.2 616.6 608.6 604.5 605.8 603.8 603.1 609.2 621.1 631.1 635 635.4 636.4 638.8 639.5 636.6 641.2 645.8 649.8 655.3 662.5 668.5 673.5 676.6 680 683.3 688.1 690.1 691.9 694.5 698 700 705.6 709.1 714.6 718.7 721.6 722.5 723.8 727 728.5 729.1 729.8 727.9 723.4 718.2 713.3 707.9 701.9 694.8 687.8 681 673.3 664.5 656 640.5 633.7 637.3 640 641.6 637.6 632.7 637.3 637.7 637.4 635.2 632 625.5 614.8 609.2 598.1 588.5 588.9 586.3 599.7 608.9 616.8 621.4 628 630.6 632.9 634.9 638.1 639.9 640.4 642.1 642 649.1 654.6 658.6 660.7 657.8 652.4 642.4 633.4 627.7 627.6 623.3 614.6 605.6 595.7 586.3 572.2 578.7 592.6 602.6 611.9 620.2 628.6 635.7 639.9 641.8 642.3 641.9 636.1 634.2 631.1 628.3 626.2 624.8 622.7 621.5 620.2 619.5 618.4 617.2 613 604.6 597.2 594.6 594.9 603.1 610 618.3 625 630 635.9 641.5 646.6 649.8 650.1 648.7 648.4 647.9 647.7 650.3 653.7 658.2 662.9 664.9 664.6 660.2 652.2 640.1 628.3 615.2 599.2 577.8 559.4 544.4 529.9 521.9 515.8 510.4 505.1 501.7 492.6 486.2 480.5 476 471.7 470.1 468 464.4 461.8 460.7 462.4 464.7 466.3 467.7 465.9 462.5 456.8 444.4 429.3 416.4 405.6 396.6 389.3 380.8 372.3 365.2 356.2 349.2 344 340.2 337.4 336.3 335.1 331.6
636.9 630.7 625 617.8 611.1 606 600.4 600.1 609.6 618.9 626.9 630.4 630 631.5 632.5 630.9 634.5 641 646 652.4 659.2 665.5 670.6 674.3 676.1 678.4 679.9 681.7 682.6 685.5 690.3 694.4 701.4 705.3 711.1 716.1 718.4 718.8 718 719.4 720.1 720.5 720.5 718 714.3 710.5 705.1 700.7 694.8 692.3 687.9 680.7 674 666.5 660.3 653.9 649.9 650.4 650.5 649.8 646 642.6 644.3 643.4 642.6 640.1 634.7 627.9 618 608.6 599.5 597.1 597.5 598.7 600.5 609.6 617.2 623.6 629.3 633.6 636.9 640.4 643.4 645.9 647.4 649.2 650.5 654.5 659.3 662.1 661.4 658.2 652.8 643.3 632.9 625.1 623 618.1 610.1 602.1 592.1 581 585.5 592.6 602.1 610.8 618.7 627.1 635.6 643.5 649.6 653.3 656.1 656 654.5 652.6 651.5 649.1 647.4 644 639.4 634.5 631.8 632.5 631.7 626 621.3 611.4 600.8 595.6 592.9 597.5 603.1 609.5 617.1 623.7 628.7 633.3 636.3 638.7 638.4 637.2 635.9 634.6 635.1 638.4 642 646.7 650.6 653 653.1 649.3 642.9 631.8 620.9 607.6 592.5 572.4 549.7 532.5 518.6 510.3 504.5 499.3 494.7 489 483.2 475.8 471.3 466.4 461.1 458.6 455.3 452.8 450.3 449.9 451.9 453.5 455.2 458.4 460.4 456.3 452.7 440.2 426.7 416.5 404.1 395.3 389 381.2 372.5 363.9 355.7 348.8 343.9 342.7 342.3 340 338.8 336.4
647.7 640.2 635.1 628.2 622.5 617.6 610.9 598.7 598.1 603.5 616.3 618.8 619.7 622.6 624.6 623.6 624.9 634.6 641.8 650.2 657 664.3 667.5 670.9 670.7 674 673.5 675 675.9 677.8 682.1 688.1 694.5 700.4 705.2 709.5 711.2 711.1 711.2 711.8 712.6 713.9 711.7 709.3 705.5 701.3 696.8 693.2 689.6 688.8 683.9 679.5 673.8 669.6 664 660.2 658 657.2 655.2 653.2 650.9 648.2 647.2 645.8 644.2 640.5 637.4 628.2 618.3 610.7 611.4 612.9 611.4 609.4 609 608.4 621.5 628 631.9 634.8 637.5 644.6 647.6 650 651.9 653.9 655.7 658.3 661.1 662.2 659.9 654.2 647.5 638.5 632.9 626.7 620.8 615 609.6 601.8 593.7 591.6 595.7 603.5 610.5 617.7 625.1 632.8 641.6 650.5 657.7 663.3 666.6 668.5 668.6 667.2 665.9 665.7 664.1 661.6 657.9 654.6 650.5 646.6 642.2 634.3 627 616.8 603.7 595 589.9 591.7 594.4 600.7 607.8 614.6 619 623.5 624.3 626.1 624.7 622.3 620.9 620.3 621.6 624.7 630.2 634.5 638.5 641.2 640.6 637 629.5 620.8 610.8 599 584.8 565.1 543.3 524.7 509.3 499.6 493.2 488.3 484.9 480.3 471.6 463 459.9 455.8 450.6 448 443.6 443 439.5 439.1 441.3 443.3 445.7 450.2 453.1 449.8 444.3 434.3 424.8 416.6 406.3 395.3 386.6 380.4 370.7 362.2 354.9 350.5 348 346.5 345.1 343.6 342.7 341.6
653.1 646.7 640.3 635.7 628.5 626.8 618.9 607.2 600.2 596.3 598.2 607.1 606.6 610.6 611.3 611.3 617.4 628.6 636.7 645.6 654.1 661.4 665.9 667.2 668.2 667.9 667.1 666.8 667 670.1 675.7 682.3 690.1 695.7 700.5 702.4 703.9 702.4 704.7 704.5 705.1 704.2 703.7 701.7 697 692.3 688.1 686.4 684.2 682.7 681.1 677.8 674 670.4 666.8 663.2 661.4 659.5 657.1 654.8 653.2 651.2 651.2 647.7 644.6 641.8 635.2 627.2 619.3 622.1 622.4 621.8 619.8 617.2 619.7 619.4 618.3 623.7 628.4 634.6 639.8 647.8 651 652.8 654.3 656.4 658.2 660.7 662.2 662.2 660.5 651.8 646 640.5 633.5 627.7 622.4 617.7 613.3 608 600.7 605.5 607.7 614.5 619.1 625.2 630.9 638.6 647.3 656.4 665 671.6 675.4 677.9 679 679.5 679 678.2 677.1 675.1 672.5 669.6 665.3 658 652.5 644.6 631.9 618.1 606.1 592.9 587.8 584.7 586.4 591.5 596.9 603.4 607.1 610.9 611.7 610.2 608.9 606.2 604.5 604.6 607.2 611.8 617.6 622.3 626.7 628.7 627.3 621 612.9 606.7 598.6 587.7 573.8 554.7 536.2 518.8 503 490.2 482.3 476.6 474.1 467.7 461 454.2 448.8 444.4 442.6 439.1 435.4 433.2 429.9 430.1 431.6 434 437.4 440.3 443.3 442.3 438.9 430.8 424.3 415.7 406.6 392.7 383.4 374.9 367.8 362.4 359.1 357.4 355.6 353.8 350.9 349.7 348.5 346.6
656.5 650.5 642.8 637.4 634.9 628.4 620.1 611.4 602.9 597.9 595.1 598.1 602.3 603.3 601.2 604.1 610.5 625.4 633 642.2 650.2 656.2 660.5 663.7 663.3 663.1 661.9 657.2 656 664.1 670 677.4 685.4 692.4 695.9 698.2 697.3 695.8 694.5 697.2 697.9 696.9 695.4 692.4 688.1 683.4 680.2 678.4 677.9 676.3 675.8 674.5 671.5 668.4 665.8 664.5 663.2 661 658 655.6 654.7 653.7 650.6 648.8 644.9 641.6 634.3 628.3 627.7 630.4 630 628.2 629.5 629 627 627 623.7 629.4 633.7 637.8 643.5 648.1 650.4 652 654.2 657.2 658.7 661.3 663.1 663.1 661.1 655.8 648.5 644.2 638.5 629.4 624.5 622.9 617.8 614.1 609.7 614.1 615.6 620.9 626 632.7 637.2 644 652.6 661.2 669.8 676.2 680.9 683.9 686.7 688 689.5 688 687 685.4 682.1 677.3 670.3 661.3 654.1 646 635.1 620.8 605.2 593.4 586.5 576.5 575.6 579.3 584.4 589.4 593.7 597.4 597.2 595.8 593.7 590.8 590.3 591.3 593.6 599.6 606 611.6 615.2 614.5 610.4 602.8 598.8 594.4 586.6 574.9 560.7 546.2 527.3 511.7 497.2 481.7 471.8 466.8 463.1 458.2 450.1 443.5 438.4 434.9 433.9 429.5 425.9 422.8 420.1 419 421.4 424.9 427 428.4 437.7 435.2 433.5 427.4 422.7 414.5 404.4 390.5 374.8 367.8 367.3 367.3 367.4 367.5 364.2 362.8 358.7 358.1 356.1 353.8
656.5 651.7 645.6 640.3 635.1 627.9 617.1 607.1 602.7 597.5 593.3 592.9 595.2 598.1 598.1 600.5 606.4 619.3 627.4 635.2 645 650.3 657.4 658 658.5 657.4 653.6 647.4 650.1 656.3 663.7 671.4 679.7 687.1 692.3 695.8 693.7 692.3 689.4 688.5 689.5 688.6 686.2 682.7 679.2 674.9 670.2 670 668.6 668.1 667.7 669.7 668.3 667.7 665 663.3 662.2 660.4 655.9 653 653.4 652 649.8 646.2 643.9 638.2 635.9 637.2 637.5 639.1 640.6 641.1 640.9 639.8 638 636.9 631.9 631.2 634.3 640.5 644.1 648.2 651.2 653 656.3 657.7 659.4 661.8 663.1 663.2 661.6 657.7 653.8 647.7 642.7 638.9 631.8 627.7 625.9 621.2 618 621.1 623.7 626.9 631.9 637 641.7 648.2 656.3 664.4 672.4 677.7 682 686 689.9 692.5 693.6 692.6 692.1 690.7 684.7 678.4 669.9 660.4 651.1 642.9 632.5 620 606 591.6 580.7 569.9 562.3 563.2 570.9 574.9 579.5 580.2 580.3 580.1 579.7 577.2 576.1 576.1 580.3 586.4 593.6 601 603.9 601.3 595.4 589.5 585.1 581.2 574 563.2 551.6 537.8 521.7 506.6 490.1 475 462.6 457 452.1 448 441.6 435.6 431 427.8 424.8 421.4 418 413.7 411.1 410 411.4 413.5 411.5 419.5 428 428 423.8 419.2 417.2 407.3 392.6 381.2 365.7 366.1 371.3 377.5 378.6 377.9 373.5 366.9 365.7 365.8 364.4 361
655.5 652.7 646.7 640.9 628.9 625.8 621.8 617.2 609.6 599.9 592.5 593 593.7 593.8 594.1 597.6 599.8 610 621.3 627.9 636.8 645 650.7 651.5 651.2 648.8 643.8 638.3 642.1 649.4 657.3 665.5 675.3 682.7 688.4 691.6 690.6 687 684.5 682.1 680.6 679.7 678 674.8 670.2 665.3 663.4 661.1 660.6 661.3 660.8 662.6 662.2 662.6 661.5 662.1 660.5 655.9 652.4 651.6 650.7 650.3 647.9 646.1 645.1 640.5 643.5 642.7 645.1 646.6 648.9 650.2 649.7 646.7 647.8 643 641.1 640.2 640.5 644.7 647.3 648.9 651.8 654.2 656.6 659.3 660.5 662.3 662.8 662.3 660.6 657 651.6 646.8 642.9 637 633.7 631 628.9 626.1 622.6 626 627.9 631.2 635.3 640.5 644.9 650.9 659 666.2 672.7 678.3 682 685.2 688.7 691.2 692.3 691.8 692.3 690.4 683.8 676.4 667.6 657.1 645.6 634.7 625.1 614.4 603.1 590.1 578.1 563.2 548.4 553 556.5 559.5 561.3 562.5 564.7 564 562.3 561 560.5 561.9 567.2 573.9 582.1 588.8 590.7 587.5 580.9 576.5 573.9 567.8 560 550.8 541.2 529.9 515.6 501.2 483.7 468.6 454.3 446.4 443 438.9 433.8 427.6 424.6 420.6 416.9 412.7 409.7 405 402.7 402.1 402.9 403.2 402.5 406.6 412.8 414 415.5 412.5 402.8 379.3 371.1 365.3 363.9 376.2 395 393.5 379.2 374.1 378.8 374.6 371.7 371.8 370.7 367.5
655.5 648.8 639.7 640.7 641 637.2 633.1 627.9 618.6 606.9 600.8 590.8 589.9 590.7 590.7 593.1 595.1 599.9 611.8 620.1 628.5 638 642.7 645.3 643.9 638.7 634.9 629.7 633.9 642.9 650.9 660.5 670.7 677.6 683.7 687.6 686.8 683.3 678.5 673 671.8 670.8 669 666.5 662.3 658 655.8 653.4 655.2 656.9 658.1 658.4 657.2 657.6 657.2 657.5 655.7 654.4 649 649.8 648.9 645.8 644.7 644.8 644.4 648.4 647.9 649.7 652 655.6 657 657.3 658.3 657.9 657.4 651.7 647.5 648.7 647.5 649.2 650 650.7 653.4 656.1 658.2 659.9 661.2 662 661.9 660.7 658.8 655.6 651.3 646.5 642.6 639.1 633.5 631.8 629.6 627 624.5 627.6 631.3 633.6 637.5 642.6 648 653.1 660.6 667.4 672.8 678.2 682 683.7 685.2 687.3 688.6 688.8 688.7 686.7 679.5 671.5 661.6 650.3 637.4 624.9 615.3 606.7 597.5 586.1 574.2 556.9 539.2 537.4 540.3 544.1 543.9 545.5 545.6 544.9 542.7 542.9 542.3 546 554.4 562.9 571.9 577.6 580.2 577.4 569.9 564.3 557.9 551.8 545.7 538.5 531.2 520.2 509.3 495.3 478.4 460.9 445.6 439.4 433.9 430.4 426.3 421.5 417.5 413.9 409.8 406.5 401.6 396.8 393.7 393.2 393.2 391.2 393.2 397.5 403.1 401.8 405.2 406.9 388.2 363.2 381.7 375.7 382.9 406.4 408.4 414.6 404.2 402.9 392.3 380.1 377.6 379 378.6 373.4
658.5 652.4 651.1 651 649.7 646.2 642.2 636.7 625.1 615.8 608.6 598.6 594.4 591.6 588 588.9 589.3 592.5 597.2 609.8 616.8 626.3 633.1 637.1 636.9 632 629.4 623.4 629.1 637.7 645.4 654.9 663.5 671.3 677.5 681.1 682 678.5 673.6 667.7 663.7 662.3 661.5 656.8 654.3 651.7 648.6 647.9 650.7 651.2 652.1 652.3 652.7 651.1 652.1 653.8 651.3 649.4 647.8 645.2 645.1 642.9 642.5 646 647.1 650.9 653.1 656.1 658.7 661.1 663.6 665 666.4 665.1 661.6 656.8 652.6 652.4 653.8 652.7 651.7 650.2 653.5 656.4 657.4 659.9 661.3 660.8 659.8 658.9 656.6 653.9 650.3 647.1 642.1 637.7 633.2 632 629.9 627.3 620.9 626.1 630.1 632.5 637 641.3 647.6 654 661.1 667.7 673.7 677.6 680 680.6 681.1 682.6 683.5 683.7 682.4 680.4 672.9 664.5 653.9 643.5 631.3 619 608.4 599.5 590 579.4 566.5 549.9 529.2 522.2 516.2 520.9 527.3 528.5 523.4 521.6 521.7 523.2 523.4 530.5 540.9 550.8 560.1 566.5 570.3 568.1 560.6 552 546.1 538.2 532 525.7 519.6 512.5 503.1 490.2 474.4 458.4 440.3 433.8 425.9 421.3 417.9 414.8 411.5 407.7 403.6 399 393.5 388.4 385.3 384.8 383.3 383.3 382.2 385.6 387.8 391.2 399.4 401.5 375.8 356.4 378.4 382.2 413.3 435.6 439.7 439.3 434.4 427.9 415.3 405.3 391.6 387.5 383.8 378.1
663.7 659.7 657.8 658.3 657 654.7 649.8 642.8 631 622.7 615 604.6 604 600.7 596.8 591.7 585.3 585.8 586.4 594.9 602.9 609.8 618.9 623.7 627 624.7 621.1 612.3 624.3 631.6 639.5 648.9 656.6 663.9 670.8 674.2 674.8 673 668.6 662.4 654.3 653.6 651.9 650.9 648.1 644.3 640.8 643.8 646.3 647.3 648.7 647.7 648.1 647.1 646.9 646.6 647.5 644.6 642.4 642.7 641.3 640.7 642.4 645.1 649.5 653 657.9 662 665.2 667.2 669.5 673.6 673.7 672.6 667.4 659.8 656.6 654.6 654.6 653.2 652.2 649.4 652.6 653.5 654.8 657.4 658 658 657.7 656.3 655.1 652 649.9 645.9 640 635.1 632.7 630.2 628.9 625.9 619.6 618.8 625.5 628.9 634.2 641.1 646.1 652.9 660.7 667.7 672.7 675.3 676.4 676.6 676 677.6 677.5 676.4 674.7 672.7 666.9 658.8 649.3 638.9 626.6 614.4 603 592.8 584.1 573.9 559 540.7 518.9 504.5 497.1 500.3 506.8 506.3 505.9 504.2 504.4 504.4 507.6 515 526.1 538.8 548.1 554.6 558.9 557.8 550 541.1 531.8 523.8 517.7 514.3 509.6 504.5 496.8 486.4 472.9 455.8 437.1 429.5 422 415.3 411.3 408 405.6 401.9 397.6 392.8 386.4 381.6 378.4 376.8 373.8 371.1 372.5 374 381.4 391.1 399.7 382.2 359.6 360.4 370.1 417.9 441.1 451.5 456.8 461.1 455.3 447.9 435.7 422.9 410 396 390.8 384.2
667.9 666.5 664.9 663.3 661.8 658.7 653.1 644.7 633.7 626.6 618.6 615.2 609.4 606.2 603.2 598.8 597.4 588.5 585.9 584.6 588.8 595.2 600.7 607.3 612.3 615.9 613.9 602.5 615.8 624.2 632.8 639.7 646.5 654 662.1 666.1 667.1 666 662.1 656.9 652.8 644.4 644.3 642.1 643.4 640 636 637.6 640.3 642.6 643.6 642.6 641.7 641.5 642 641.4 642.1 640.7 639.5 638.8 638.6 639.3 642.6 645.1 650.5 655.3 661.2 666 670.8 674.3 678 680.6 681.6 679.7 675.3 667 658.8 654.8 652.7 651.3 650.4 649.5 651.5 651.5 652.4 654.3 654.9 655.3 655.2 654.1 652.7 650.7 646.1 645 637.9 634.1 630.2 628.5 625.8 622.6 616.5 613.3 619 623.1 630 637.3 645 652.9 660.2 665.9 670 671.8 671.6 670.8 670.6 670.6 669.5 668.8 666 663.7 658.6 652.2 642.9 630.7 618.7 607.2 596.1 585.3 577 568.1 555.3 535.7 506.5 489.1 482.1 484.4 487 487.5 486.6 485.9 487.5 489 491.7 502.2 513 525.2 535.9 542.7 547.5 547.3 540.1 529.9 520.3 511.1 505.6 502.4 499 495.2 489.6 481.3 471.1 456.5 437.1 426 418.9 411 403.7 400 398.4 395.8 391.2 387.4 380.6 374.8 369.4 366.2 360.9 360.2 364.4 371.7 377.1 395 380.3 357 357.8 366.5 392.7 431.3 452.2 463 469.9 472.8 469.9 461.3 451.1 435.7 423.6 407.8 400.6 392.3
675.2 673.2 671.6 669.9 667.6 661.7 657.6 647.9 636.6 626.1 624.6 623.2 616.2 611.2 608.5 604.1 603.8 604 599.3 588.9 582.2 580.9 582.1 592.1 598.1 601.6 603.3 594.9 607.7 615.9 623.4 629.8 635.8 643.6 651.5 656.1 658.4 658.2 655.9 652.2 651 645.7 641 637.8 639 637.3 633.6 632.3 634.6 637.8 637.5 637.4 635.8 635.8 636.6 636 635.7 634.6 634.9 633.6 634.7 636.5 640.5 645.5 650.7 656.6 661.9 668.2 673.5 679.1 684.1 686 685.6 683.1 677.7 669 658.6 654 651 649.8 648.2 647.3 649 649.3 650.3 650.8 651.8 652.7 652.6 653.8 650.6 648.7 643.6 639.1 633 629.6 626.3 624.4 622.3 619 613.2 607.4 612.8 616.9 624.2 632.4 641.6 649.7 657.8 663.5 665.3 666.1 665.7 663.9 663.8 663.3 661.8 658.5 654.9 653.6 649.4 641.9 632.1 621 606.6 594.6 585.2 575.5 568.2 561.7 551.1 535.5 506.6 475.1 469.9 465.4 469.7 468.9 470.1 467.7 470.8 472.6 477 489.9 500.2 511.8 522.5 530.7 537.3 538.2 530.6 518.5 509.1 499.4 492.2 489.7 488.9 485.8 482.2 476.2 468.4 455.8 438.5 423.8 416.5 408.5 400.3 390.3 390.6 387.4 384.2 381.3 375.2 367.8 361 356.8 352.3 354.6 360.7 367.5 385.3 382.6 358.8 357.1 368.5 380.9 414.2 437.1 455.1 467 476 480.7 479.1 471.3 459.9 446.7 435.1 420.9 411.4 402.9
681.4 678.8 678.5 675.4 671.3 665.5 659.1 650.9 638.1 634.3 634.2 629.1 623.8 617.5 615 610.4 610 611.6 610.2 603.7 593.4 583.6 580.8 579.4 587 589.6 591.1 589.7 598.9 605 611.6 616.6 621.4 631.8 639.4 643.9 647.5 649.4 651.2 651.1 649.4 645.1 639.7 633.6 633.6 632 631.6 628 630 632.7 632.7 631.9 631.6 629 630.1 632.2 631.2 631.9 631.9 631.1 630.6 633.5 638.2 644.1 649.8 656.4 663.1 668.8 675.2 681.9 685.5 686.1 684.2 681.3 675 666.1 656.8 651.7 648.6 645.7 645.8 644.8 643.6 645 646.3 647.3 649.1 650.5 651.8 649.7 647.9 643.1 639.8 633.9 628.3 622.1 621.1 618.1 615.3 612.4 607 595.8 604.2 610.7 619.3 627.2 637 645 653.8 660 661.6 661.4 659.9 657.4 656.9 655.9 653.2 649 644.5 641.9 637.9 630 619.4 602.7 586 574.2 565.4 558.5 556.8 553.9 545.6 533.8 515.6 488.2 456.9 453.2 453.1 455.3 456.4 454.3 457.3 460.4 464.5 477.2 489.1 499.5 511 519.2 525.8 528.3 520.5 509.4 499.2 488.5 478.2 475.8 476.3 475.2 473.9 470.4 464.3 454.1 438.9 424.3 414.4 406.9 398.7 390.3 381.7 379.7 376.8 373.1 367.8 360.7 353.4 345.4 344.5 347.6 362 371.9 379.4 364.2 343.4 356.3 378.5 403.6 425 441.5 455.7 468.3 478.5 484.4 484.5 477.3 466.9 456.8 446.5 436.4 424.9 415.4
688 685.7 683.2 680 675.8 669.9 661.5 653.8 645.5 645.6 643.3 639.4 634.2 626.7 620.7 619.7 618.3 618.9 620.7 616.8 607.8 601.5 593 580.9 577.5 582 584.4 584.1 588.9 594.7 600.8 605.9 611.6 618.5 625.2 631.8 636.7 642.6 645.9 645.8 646.1 642.4 637.5 633.6 628 628.1 627.2 624.3 626.3 629.3 630.2 627.8 626.7 627.5 626.7 628.1 628.2 629.3 628.9 627.3 626.8 632.7 638 644.1 650.5 657.4 663.7 669.5 676.4 681.6 683.5 683 680.5 676.5 669.9 661.1 653.8 649.7 645.9 643.1 639.9 639.7 635.4 639 641.3 641.8 644.2 645.2 648 647.1 646.7 644.1 639.3 634.7 626.9 620.2 614.1 612.2 609.5 606.6 599.2 585.4 596.6 605.8 615.2 623.3 632.1 641.2 649.5 655.4 657.6 657.3 655.8 653.8 651.4 649.7 645.9 641.4 636.3 631.7 624.6 616.5 604 584.6 566.9 553.1 542.8 542.3 543.3 542.7 538.3 529.4 515.2 497.4 467.3 432.8 438 439.3 441.2 441.9 442.8 445.7 453.3 465.5 477.5 489.3 499.4 507.4 513.2 516.8 510.8 500 489.9 478.3 466.6 459.7 461.1 461.7 462.6 460.9 457.7 451 438.6 426.9 415.1 403.8 398 388.3 380.5 369.4 368.9 364.8 360.2 354.3 347.8 339.9 336.2 351.1 359.9 367.2 361.3 352.9 337.3 362 397.1 415.5 428.3 441.6 456.2 466.7 478.4 484 484.5 480.7 472.9 464.6 455.5 448.3 437.5 428.1
692.9 690.5 686.9 682.9 678.8 672.7 665.3 660 655.7 651.9 648.2 645.2 639.9 636.5 631.4 628.1 626.7 626.4 627.9 624.5 620.3 615.4 605.8 598.5 588 581.1 574.6 579.8 581.8 584.9 588.9 594.5 599.6 604.8 612.1 619 627.1 633.9 640 642.7 642.8 643 637.3 632.4 629.6 626.1 620.9 620 620.8 624.6 626.2 625.1 624.3 623.1 623.1 624.5 624.1 625.1 622.8 623.2 627 631.2 637.2 643.1 650.7 658.6 662.7 670.3 676.7 680 680.3 678.4 675.8 671.8 663.9 656.4 649.5 644.2 641.1 638.3 636.6 633.3 632 633.3 635.7 636.2 637.8 641.8 644.7 644.9 644.5 642.8 636.9 630.5 620.3 612.9 608.8 604.8 601.4 598.8 591.6 581.1 589.2 600.7 611 619.6 628.9 637.4 644.6 649.9 652.8 652.9 651.9 649.7 647.9 645 640.7 635 629.5 621 611.9 602.1 585.8 565.9 545.5 530.8 525.1 526.9 529.5 531.2 529 524.4 512.7 497.4 477.7 450.7 415.7 421.5 427 429.6 432.8 437.7 441.6 454.3 466.6 478 487.5 495.4 501.8 505.6 499.2 489.3 478.8 468.8 457.4 443.2 444.5 447.9 449.3 448.6 447.7 443.8 436 426.4 415.1 403.5 394.2 387.2 379.4 370.3 358.3 355.8 352.3 348.2 342.6 335.4 336.3 348 356.4 359.6 351.7 338.6 363.3 387.9 402.4 415.8 428.6 441.5 454.3 465.1 476.6 482.7 485.2 483.2 477.1 470.4 464.2 459.3 449.4 443.4
697 693.1 688.3 684.2 680.4 674.7 669 663.1 660.4 656.6 652.7 647.7 643.9 640.7 636.5 632.4 630.7 630.4 630.7 629.1 625.6 620 614.6 606 598.7 590.2 581.6 575.8 573.4 577.8 579 580 584.1 591.2 598.1 607.8 616.4 624.1 631.9 638.1 643 643 638.7 636.8 635.3 630.2 625.9 620.6 614.5 617.8 620.6 620.6 619.9 620.5 619.9 621.4 622.4 619.3 619.1 619 624.9 630.8 636.1 643.4 650.7 656.1 662.4 669.2 674 676.9 675.6 673.1 669.2 663.2 656.4 650 644.4 640.3 637.1 635 631.7 628.6 625.6 629.4 630.4 630.6 634.4 639.9 643.7 644.1 642.2 639.2 634.2 626.8 615.1 608.8 602.5 596.6 591.6 589.1 584.2 581.3 582.4 593.1 604.1 615 625 633.7 639.6 644 647.2 648.3 647.5 645.3 643.5 640.8 636.8 630.9 623.2 612.7 598.6 578.6 562 542.5 520 511.9 509.6 511.1 514.8 515.7 517.6 514.8 507.1 493.9 478.4 457.4 431.2 406.7 415.3 419 421.8 427.3 432.8 443.2 455.1 465.6 475.2 481.9 488.4 489.8 483.8 475.3 467 456 445.7 433.5 428.9 430.5 432 435.1 438.8 437.4 431.7 423.8 413.3 403.5 394.1 387.1 379.9 370.5 362.4 354.1 344.9 341.4 337.6 329.1 332.3 342.8 350.5 353.2 339 347.7 374.5 389.2 403.1 415.5 428.8 440.9 451.9 464.7 476.2 481.6 484.6 483.5 479.1 474.9 471.2 466.6 462.5 459.1
699.4 694.3 689.9 684.1 679.4 675.2 672.7 668.6 662.5 657.6 653.9 649.2 643.5 642.1 638.1 635.3 631.9 632.4 632.6 631.4 628.6 623.4 617.5 613.8 605.2 598.6 590.1 583.6 576.5 571.9 571.8 574.7 571.4 569 575.3 588.2 606.3 616.4 625.1 634.9 641 643.6 644.9 643.8 640.2 634.5 628.4 623.2 616.8 608.1 612.1 615.5 617.5 616.8 617.1 618.3 617.5 616.9 616.3 618 624.9 628.9 633 642.2 650.4 656.3 661.4 666.2 669.4 670 669.9 667.1 662.8 655.9 648.9 643.2 638.9 634 631.4 627.5 625.6 622.5 620.6 623.1 624.7 629.2 634.3 640.8 646 645.4 642.8 637.9 632.6 624 612.9 602.3 595.6 589 580.2 581.1 578.5 575.6 575.4 588.1 598.3 608.3 619.5 628.1 633.9 638.5 641.4 642.4 641.5 639.6 638.4 636.9 633 627.9 620.5 607.8 587.4 558.9 541 519 501.6 496.5 497.6 497.4 497.7 500.5 503.7 503.3 499 488.2 476 462 440.2 418.5 396.6 404.8 409.9 417.2 422.8 431.8 442.2 453 461.9 467.9 473.5 474.4 469.3 460.3 453.8 443.1 434.5 423.8 412.2 414.2 416.2 423.5 429.2 429.5 426.1 420.5 411.9 403.2 394.1 387.1 379.5 371 362.1 354.7 346.6 337.9 329.3 327.9 327.8 335.2 344.7 345.1 332 357.5 375.6 390.1 402.7 415.5 427.9 439.7 450.8 461.8 471.9 477.9 480.8 480.2 476.9 477.5 475.8 473.8 474.3 473.8
701.2 696.2 690.1 683.4 677.8 676.6 673.4 670.3 664.9 659.4 656 650.5 643.1 639.3 636.7 634.5 633 632.9 631.7 631.3 628.3 625.3 620.3 616 612.7 606.7 600.7 591.3 586.1 580.8 575.1 570.3 574.9 578.2 573.3 574.4 592.9 607 618.5 629.8 637.5 644.3 647.7 646.2 642.1 635.9 629.5 623.4 616.2 610.7 604 609.6 612.1 613.6 615.8 614.9 615.5 615.4 613.9 620.2 624.7 628.7 634.5 642 650.1 656.3 660.5 664.2 665.1 664.4 663.3 659.5 655 648.7 641.7 636.6 631.2 627.2 625.2 621.3 618.7 618.1 615 616.6 622.2 628.5 634.7 640.6 643.5 644.4 644.9 642.2 632.5 624.1 612.1 598.6 590.2 584.4 574.7 570.4 568.7 569.7 569.6 583.6 593.5 603.2 612.6 621.8 628.1 633 635.1 635.3 634.5 632.6 632.3 632.3 630.4 626.5 620.6 609.4 587.1 554.4 521.7 509.8 496.1 484.8 482.3 483.5 483.6 485.6 486.2 486.8 483.6 478.9 471 462.4 443.4 427.3 406.5 390 399.7 408.2 414.2 420.9 429.2 439.5 448.3 454.8 459.7 459.9 453.8 444.9 439.1 430.9 419.3 409.6 403.5 403.1 405.8 409.5 416.7 420.2 419.7 417.5 411.8 403.3 394.7 387.3 378.9 370 362.6 355.2 347.4 337.6 331.4 324 320.8 331.1 337.5 331.4 351.8 364.2 377.3 389.7 402.3 414 426.1 436.3 446.8 457.8 466.3 470.7 472.9 474.2 472.8 475 480.2 482.4 483.4 486.8
701.4 695.3 688.3 681.6 674.3 674.6 671.9 669.7 665.2 658.8 654.5 648.7 641.2 637.4 633.7 633.1 631.8 626.4 627.5 626.4 625.2 623.6 620.4 616.1 613.9 608.2 602.5 595.5 586.2 574.4 575.2 588.6 589.1 585.1 577.7 567.2 577.8 596.1 612.8 625.4 636 644.9 648.8 646.9 641.7 635 628.1 621.3 615.8 609.5 600.9 603.5 605.9 609.6 612.3 612.3 613.3 613.4 614.4 619 623.9 627.9 633.8 640.7 647.3 653.5 657.4 659.8 660 659.2 657.1 651.9 645.7 639.8 633.9 628.7 624 620.2 618.3 616.7 613.9 611.2 610 611.5 620.4 626.7 632.7 640.2 642.7 645 645.8 643.7 635.8 626 615.3 607.6 597.4 590.8 581.5 570.5 560 556.8 566 577.7 587 597.4 608.1 615.7 622.4 627.1 628.7 627.3 625.7 623.7 625.2 627 625.9 624 619.2 606.7 585.4 550.1 518 504.7 491.8 481.4 471.4 469.8 469 466.9 469.9 469.8 468.7 467.3 464.1 456.8 444.5 428.3 412.1 394.3 382.8 397.4 404.3 410.1 418.3 425.6 433.6 440.6 445.3 445.3 440.1 432 425.3 417 404.5 397 392.6 392.1 395.4 397.4 404.3 410.5 412.2 412.9 410.8 404.5 397.4 389.4 378.6 369.7 361.1 353.4 345.5 337 330.5 323.9 320.5 325.7 327.2 337.8 354 364.2 376.7 389.5 400.6 412.2 422.9 432.9 442.3 452 458.2 463 466.7 468.8 469.8 478.6 485.2 489.6 495.4 499.1
699.9 693 686.5 678.8 674.1 669.8 667.3 664.9 660.4 656.3 650.3 643.6 637.2 633.3 630.5 630.1 629.1 624.7 622.5 619 618.1 618.1 615.8 613.9 610.2 605.5 596.3 586.2 577.6 576.7 592.1 597.7 598.4 593.9 586.2 577.3 562.1 582.8 606.6 622.3 633.9 642.5 647.5 645.5 639.7 631.9 624.2 618.1 612.9 606.6 601 598 606.4 611 613.2 612.1 610.3 610.1 613.1 618.3 623.6 627.6 632.6 638.2 643.8 649 653.6 654.8 654 652.8 649.9 644.2 636.2 630.4 625.7 621.8 617.2 613.9 611.9 610.2 607.7 603.2 603.2 607.5 619.1 626.2 631.7 638.9 642.4 646.6 646.9 644.6 638.8 627.9 616.6 609 602.5 593.9 584.5 574.2 561.8 552.6 560.3 570.8 582.1 593 603.2 610.2 615 618.4 619.2 616.6 615.6 616.3 619.4 621.3 621.5 621.6 618.6 607.5 580.5 547.9 522.1 505.7 493 481.3 470.4 461.4 457 457.2 455.2 456.3 455.2 458.5 454.4 447.6 439.4 425.5 412.9 394.2 383.1 377.6 389.6 399.5 406.9 413.7 418.3 425.5 431.5 431.3 425.6 418 408.7 400.8 394.4 388 384.2 382.2 386 389.2 394.3 400.1 403.7 407 408.3 404.9 398.5 390.3 379.9 369.3 360.2 351.6 343.9 336.9 329.7 322.5 314 316.6 326.8 340.8 352.5 361.9 374.3 386.4 397.6 408.9 418.7 428 437 443.8 449.3 454.1 458.6 461 470.6 479.6 487.3 496.3 503.7 507.1
698.5 690.5 683.4 674.1 669.5 665.9 662.3 659.1 654.4 650.1 644.6 636.3 632.3 628 622.8 621 621.9 618.9 614.3 614.5 614 613.6 612.1 609.8 605.6 599.4 588.2 579.2 581.6 591.4 601.9 606.9 604.5 601.9 591.7 578.5 565.7 578.7 603.5 618.1 629.4 640.4 644.7 641.8 635.1 626.9 619.7 613.7 608.2 603.5 596.1 595.4 605 609.6 611.2 609.7 608.6 608.3 611.8 616 622.7 628.1 632.1 636.7 639.6 643.2 647 648.8 648.2 646.3 642 634.9 627.5 621.3 616.8 614.2 610 607.4 605.9 604.1 601 600.6 594.6 609 617.9 624.9 632 638.5 643.9 646.5 646.2 644 638.5 627.6 618.3 610.6 603.2 596 587.2 575.3 563.9 551.8 557.6 567.2 578.2 588.5 597.6 606.1 609.2 610.4 611 608.2 607.1 608.6 611.9 617.3 616.9 619.2 617.2 608.9 582.3 549.1 522.7 507.4 496 485.5 473.6 461.3 447.9 449.3 447.2 445.4 447.9 447.1 442.9 436.5 430.8 422.1 409.6 394.9 380.2 371.2 378.2 388.1 395.6 402.2 396.4 413.3 417.6 415.8 409.2 405.4 399.6 391.9 385.7 380.1 375 372.4 376.5 378.6 384.8 391.5 396.4 401 405 404.4 399.5 391.7 382.2 369.9 360.4 351 343.1 335.1 329.2 320.5 308.5 318 329.7 340 351.6 360.3 372.4 383.7 393.5 404.4 412.9 421.9 427.8 433.6 439.4 443.5 442.8 456.8 467.6 477.6 487.6 495.9 504.7 510
