ncols 200
nrows 96
xllcorner 260000
yllcorner 960350
cellsize 50
-1.6 -1.6 -1.6 -1.6 -1.6 -1.6 -1.6 -1.6 -1.6 -1.6 -1.6 -1.6 -1.6 -1.6 -1.6 -1.6 -1.6 -1.6 -1.6 -1.6 -1.6 -1.6 -1.6 -1.6 -1.6 -1.6 -1.6 -1.6 -1.6 -1.6 -1.6 -1.6 -1.6 -1.6 -1.6 -1.6 -1.6 -1.6 -1.6 -1.6 -1.6 -1.6 -1.6 -1.6 -1.6 -1.6 -1.6 -1.6 -1.6 -1.6 -1.6 -1.6 -1.6 -1.6 -1.6 -1.6 -1.6 -1.6 -1.6 -1.6 -1.6 -1.6 -1.6 -1.6 -1.6 -1.6 -1.6 -1.6 -1.6 -0.5 2.3 40.7 37.5 37 37.2 34.6 32.5 32.9 31.1 29.6 26.2 21.9 18.5 16.1 1.3 -1.6 -1.6 -1.6 -1.6 -1.6 -1.6 -1.6 -1.6 -1.6 -1.6 -1.6 -1.6 -1.6 -1.6 -1.6 -1.6 -1.6 -1.6 -1.6 -1.6 -1.6 -1.6 -1.6 -1.6 -1.6 -1.6 -1.6 -1.6 -1.6 -1.6 -1.6 -1.6 -1.6 -1.6 -1.6 -1.6 -1.6 -1.6 -1.6 -1.6 -1.6 -1.6 -1.6 -1.6 -1.6 -1.6 -1.6 -1.6 -1.6 -1.6 -1.6 -1.6 -1.6 -1.6 -1.6 -1.6 -1.6 -1.6 -1.6 -1.6 -1.6 -1.6 -1.6 -1.6 -1.6 -1.6 -1.6 -1.6 -1.6 -1.6 -1.6 -1.6 -1.6 -1.6 -1.6 -1.6 -1.6 -1.6 -1.6 -1.6 -1.6 -1.6 -1.6 -1.6 -1.6 -1.6 -1.6 -1.6 -1.6 -1.6 -1.6 -1.6 -1.6 -1.6 -1.6 -1.6 -1.6 -1.6 -1.6 -1.6 -1.6 -1.6 -1.6 -1.6 -1.6 -1.6 -1.6 -1.6 -1.6 -1.6 -1.6 -1.6 -1.6 -1.6 -1.6
-1.6 -1.6 -1.6 -1.6 -1.6 -1.6 -1.6 -1.6 -1.6 -1.6 -1.6 -1.6 -1.6 -1.6 -1.6 -1.6 -1.6 -1.6 -1.6 -1.6 -1.6 -1.6 -1.6 -1.6 -1.6 -1.6 -1.6 -1.6 -1.6 -1.6 -1.6 -1.6 -1.6 -1.6 -1.6 -1.6 -1.6 -1.6 -1.6 -1.6 -1.6 -1.6 -1.6 -1.6 -1.6 -1.6 -1.6 -1.6 -1.6 -1.6 -1.6 -1.6 -1.6 -1.6 -1.6 -1.6 -1.6 -1.6 -1.6 -1.6 -1.6 -1.6 -1.6 -1.6 -1.6 29.1 24.3 5 28 37.4 46.3 46.2 40 41.9 39.2 35 34.4 33.9 32.7 29.2 23.9 23.1 -1.6 -1.6 -0.9 -1.6 -1.6 -1.6 -1.6 -1.6 -1.6 -1.6 -1.6 -1.6 -1.6 -1.6 -1.6 -1.6 -1.6 -1.6 -1.6 -1.6 -1.6 -1.6 -1.6 -1.6 -1.6 -1.6 -1.6 -1.6 -1.6 -1.6 -1.6 -1.6 -1.6 -1.6 -1.6 -1.6 -1.6 -1.6 -1.6 -1.6 -1.6 -1.6 -1.6 -1.6 -1.6 -1.6 -1.6 -1.6 -1.6 -1.6 -1.6 -1.6 -1.6 -1.6 -1.6 -1.6 -1.6 -1.6 -1.6 -1.6 -1.6 -1.6 -1.6 -1.6 -1.6 -1.6 -1.6 -1.6 -1.6 -1.6 -1.6 -1.6 -1.6 -1.6 -1.6 -1.6 -1.6 -1.6 -1.6 -1.6 -1.6 -1.6 -1.6 -1.6 -1.6 -1.6 -1.6 -1.6 -1.6 -1.6 -1.6 -1.6 -1.6 -1.6 -1.6 -1.6 -1.6 -1.6 -1.6 -1.6 -1.6 -1.6 -1.6 -1.6 -1.6 -1.6 -1.6 -1.6 -1.6 -1.6 -1.6 -1.6 -1.6 -1.6 -1.6 -1.6 -1.6 -1.6
-1.6 -1.6 -1.6 -1.6 -1.6 -1.6 -1.6 -1.6 -1.6 -1.6 -1.6 -1.6 -1.6 -1.6 -1.6 -1.6 -1.6 -1.6 -1.6 -1.6 -1.6 -1.6 -1.6 -1.6 -1.6 -1.6 -1.6 -1.6 -1.6 -1.6 -1.6 -1.6 -1.6 -1.6 -1.6 -1.6 -1.6 -1.6 -1.6 -1.6 -1.6 -1.6 -1.6 -1.6 -1.6 -1.6 -1.6 -1.6 -1.6 -1.6 -1.6 -1.6 -1.6 -1.6 -1.6 -1.6 -1.6 -1.6 -1.6 -1.6 -1.6 -1.6 -1.6 -1.6 36.7 35 2.2 43.3 40.6 40.6 42.2 42.8 42.2 44.6 43.6 40.8 39.3 39.6 37 34 17.8 1.8 -1.6 -1.6 -1.6 -1.6 -1.6 -1.6 -1.6 -1.6 -1.6 -1.6 -1.6 -1.6 -1.6 -1.6 -1.6 -1.6 -1.6 -1.6 -1.6 -1.6 -1.6 -1.6 -1.6 -1.6 -1.6 -1.6 -1.6 -1.6 -1.6 -1.6 -1.6 -1.6 -1.6 -1.6 -1.6 -1.6 -1.6 -1.6 -1.6 -1.6 -1.6 -1.6 -1.6 -1.6 -1.6 -1.6 -1.6 -1.6 -1.6 -1.6 -1.6 -1.6 -1.6 -1.6 -1.6 -1.6 -1.6 -1.6 -1.6 -1.6 -1.6 -1.6 -1.6 -1.6 -1.6 -1.6 -1.6 -1.6 -1.6 -1.6 -1.6 -1.6 -1.6 -1.6 -1.6 -1.6 -1.6 -1.6 -1.6 -1.6 -1.6 -1.6 -1.6 -1.6 -1.6 -1.6 -1.6 -1.6 -1.6 -1.6 -1.6 -1.6 -1.6 -1.6 -1.6 -1.6 -1.6 -1.6 -1.6 -1.6 -1.6 -1.6 -1.6 -1.6 -1.6 -1.6 -1.6 -1.6 -1.6 -1.6 -1.6 -1.6 -1.6 -1.6 -1.6 -1.6 -1.6 -1.6
-1.6 -1.6 -1.6 -1.6 -1.6 -1.6 -1.6 -1.6 -1.6 -1.6 -1.6 -1.6 -1.6 -1.6 -1.6 -1.6 -1.6 -1.6 -1.6 -1.6 -1.6 -1.6 -1.6 -1.6 -1.6 -1.6 -1.6 -1.6 -1.6 -1.6 -1.6 -1.6 -1.6 -1.6 -1.6 -1.6 -1.6 -1.6 -1.6 -1.6 -1.6 -1.6 -1.6 -1.6 -1.6 -1.6 -1.6 -1.6 -1.6 -1.6 -1.6 -1.6 -1.6 -1.6 -1.6 -1.6 -1.6 -1.6 -1.6 -1.6 -1.6 -1.6 -1.6 -1.6 -1.6 -1.6 44.1 47 45.7 39.8 39.8 41.1 42.4 44.5 44.1 43.3 42.4 42.2 40.6 37.1 30.5 27.6 11.9 -1.6 -1.6 -1.6 -1.6 -1.6 -1.6 -1.6 -1.6 -1.6 -1.6 -1.6 -1.6 -1.6 -1.6 -1.6 -1.6 -1.6 -1.6 -1.6 -1.6 -1.6 -1.6 -1.6 -1.6 -1.6 -1.6 -1.6 -1.6 -1.6 -1.6 -1.6 -1.6 -1.6 -1.6 -1.6 -1.6 -1.6 -1.6 -1.6 -1.6 -1.6 -1.6 -1.6 -1.6 -1.6 -1.6 -1.6 -1.6 -1.6 -1.6 -1.6 -1.6 -1.6 -1.6 -1.6 -1.6 -1.6 -1.6 -1.6 -1.6 -1.6 -1.6 -1.6 -1.6 -1.6 -1.6 -1.6 -1.6 -1.6 -1.6 -1.6 -1.6 -1.6 -1.6 -1.6 -1.6 -1.6 -1.6 -1.6 -1.6 -1.6 -1.6 -1.6 -1.6 -1.6 -1.6 -1.6 -1.6 -1.6 -1.6 -1.6 -1.6 -1.6 -1.6 -1.6 -1.6 -1.6 -1.6 -1.6 -1.6 -1.6 -1.6 -1.6 -1.6 -1.6 -1.6 -1.6 -1.6 -1.6 -1.6 -1.6 -1.6 -1.6 -1.6 -1.6 -1.6 -1.6
-1.6 -1.6 -1.6 -1.6 -1.6 -1.6 -1.6 -1.6 -1.6 -1.6 -1.6 -1.6 -1.6 -1.6 -1.6 -1.6 -1.6 -1.6 -1.6 -1.6 -1.6 -1.6 -1.6 -1.6 -1.6 -1.6 -1.6 -1.6 -1.6 -1.6 -1.6 -1.6 -1.6 -1.6 -1.6 -1.6 -1.6 -1.6 -1.6 -1.6 -1.6 -1.6 -1.6 -1.6 -1.6 -1.6 -1.6 -1.6 -1.6 -1.6 -1.6 -1.6 -1.6 -1.6 -1.6 -1.6 -1.6 -1.6 -1.6 -1.6 -1.6 -1.6 -1.6 -1.6 -1.6 -1.6 30.8 48.1 43.2 39.2 39.5 42 42.7 43.5 44.1 43.7 43.1 41.7 40.6 37.3 33 28 26.5 3.6 -1.6 -1.6 -1.6 -1.6 -1.6 -1.6 -1.6 -1.6 -1.6 -1.6 -1.6 -1.6 -1.6 -1.6 -1.6 -1.6 -1.6 -1.6 -1.6 -1.6 -1.6 -1.6 -1.6 -1.6 -1.6 -1.6 -1.6 -1.6 -1.6 -1.6 -1.6 -1.6 -1.6 -1.6 -1.6 -1.6 -1.6 -1.6 -1.6 -1.6 -1.6 -1.6 -1.6 -1.6 -1.6 -1.6 -1.6 -1.6 -1.6 -1.6 -1.6 -1.6 -1.6 -1.6 -1.6 -1.6 -1.6 -1.6 -1.6 -1.6 -1.6 -1.6 -1.6 -1.6 -1.6 -1.6 -1.6 -1.6 -1.6 -1.6 -1.6 -1.6 -1.6 -1.6 -1.6 -1.6 -1.6 -1.6 -1.6 -1.6 -1.6 -1.6 -1.6 -1.6 -1.6 -1.6 -1.6 -1.6 -1.6 -1.6 -1.6 -1.6 -1.6 -1.6 -1.6 -1.6 -1.6 -1.6 -1.6 -1.6 -1.6 -1.6 -1.6 -1.6 -1.6 -1.6 -1.6 -1.6 -1.6 -1.6 -1.6 -1.6 -1.6 -1.6 -1.6 -1.6
-1.6 -1.6 -1.6 -1.6 -1.6 -1.6 -1.6 -1.6 -1.6 -1.6 -1.6 -1.6 -1.6 -1.6 -1.6 -1.6 -1.6 -1.6 -1.6 -1.6 -1.6 -1.6 -1.6 -1.6 -1.6 -1.6 -1.6 -1.6 -1.6 -1.6 -1.6 -1.6 -1.6 -1.6 -1.6 -1.6 -1.6 -1.6 -1.6 -1.6 -1.6 -1.6 -1.6 -1.6 -1.6 -1.6 -1.6 -1.6 -1.6 -1.6 -1.6 -1.6 -1.6 -1.6 -1.6 -1.6 -1.6 -1.6 -1.6 -1.6 -1.6 -1.6 -1.6 -1.6 -1.6 -1.6 -1.6 47.7 39.8 37.7 37.9 40.2 41.9 43 44.2 43.5 41.6 40.7 39.4 36.3 33.2 30 26.3 -1.6 -1.6 -1.6 -1.6 -1.6 -1.6 -1.6 -1.6 -1.6 -1.6 -1.6 -1.6 -1.6 -1.6 -1.6 -1.6 -1.6 -1.6 -1.6 -1.6 -1.6 -1.6 -1.6 -1.6 -1.6 -1.6 -1.6 -1.6 -1.6 -1.6 -1.6 -1.6 -1.6 -1.6 -1.6 -1.6 -1.6 -1.6 -1.6 -1.6 -1.6 -1.6 -1.6 -1.6 -1.6 -1.6 -1.6 -1.6 -1.6 -1.6 -1.6 -1.6 -1.6 -1.6 -1.6 -1.6 -1.6 -1.6 -1.6 -1.6 -1.6 -1.6 -1.6 -1.6 -1.6 -1.6 -1.6 -1.6 -1.6 -1.6 -1.6 -1.6 -1.6 -1.6 -1.6 -1.6 -1.6 -1.6 -1.6 -1.6 -1.6 -1.6 -1.6 -1.6 -1.6 -1.6 -1.6 -1.6 -1.6 -1.6 -1.6 -1.6 -1.6 -1.6 -1.6 -1.6 -1.6 -1.6 -1.6 -1.6 -1.6 -1.6 -1.6 -1.6 -1.6 -1.6 -1.6 -1.6 -1.6 -1.6 -1.6 -1.6 -1.6 -1.6 -1.6 -1.6 -1.6
-1.6 -1.6 -1.6 -1.6 -1.6 -1.6 -1.6 -1.6 -1.6 -1.6 -1.6 -1.6 -1.6 -1.6 -1.6 -1.6 -1.6 -1.6 -1.6 -1.6 -1.6 -1.6 -1.6 -1.6 -1.6 -1.6 -1.6 -1.6 -1.6 -1.6 -1.6 -1.6 -1.6 -1.6 -1.6 -1.6 -1.6 -1.6 -1.6 -1.6 -1.6 -1.6 -1.6 -1.6 -1.6 -1.6 -1.6 -1.6 -1.6 -1.6 -1.6 -1.6 -1.6 -1.6 -1.6 -1.6 -1.6 -1.6 -1.6 -1.6 -1.6 -1.6 -1.6 -1.6 -1.6 -1.6 -1.6 -1.6 -1.6 34.7 37.3 40.4 41.5 42.5 42.6 42.3 40.5 39.8 37.7 34.8 31.7 27.5 1.6 -1.6 -1.6 -1.6 -1.6 -1.6 -1.6 -1.6 -1.6 -1.6 -1.6 -1.6 -1.6 -1.6 -1.6 -1.6 -1.6 -1.6 -1.6 -1.6 -1.6 -1.6 -1.6 -1.6 -1.6 -1.6 -1.6 -1.6 -1.6 -1.6 -1.6 -1.6 -1.6 -1.6 -1.6 -1.6 -1.6 -1.6 -1.6 -1.6 -1.6 -1.6 -1.6 -1.6 -1.6 -1.6 -1.6 -1.6 -1.6 -1.6 -1.6 -1.6 -1.6 -1.6 -1.6 -1.6 -1.6 -1.6 -1.6 -1.6 -1.6 -1.6 -1.6 -1.6 -1.6 -1.6 -1.6 -1.6 -1.6 -1.6 -1.6 -1.6 -1.6 -1.6 -1.6 -1.6 -1.6 -1.6 -1.6 -1.6 -1.6 -1.6 -1.6 -1.6 -1.6 -1.6 -1.6 -1.6 -1.6 -1.6 -1.6 -1.6 -1.6 -1.6 -1.6 -1.6 -1.6 -1.6 -1.6 -1.6 -1.6 -1.6 -1.6 -1.6 -1.6 -1.6 -1.6 -1.6 -1.6 -1.6 -1.6 -1.6 -1.6 -1.6 -1.6 -1.6 -1.6 -1.6
-1.6 -1.6 -1.6 -1.6 -1.6 -1.6 -1.6 -1.6 -1.6 -1.6 -1.6 -1.6 -1.6 -1.6 -1.6 -1.6 -1.6 -1.6 -1.6 -1.6 -1.6 -1.6 -1.6 -1.6 -1.6 -1.6 -1.6 -1.6 -1.6 -1.6 -1.6 -1.6 -1.6 -1.6 -1.6 -1.6 -1.6 -1.6 -1.6 -1.6 -1.6 -1.6 -1.6 -1.6 -1.6 -1.6 -1.6 -1.6 -1.6 -1.6 -1.6 -1.6 -1.6 -1.6 -1.6 -1.6 -1.6 -1.6 -1.6 -1.6 -1.6 -1.6 -1.6 -1.6 -1.6 -1.6 -1.6 -1.6 -1.6 -1.6 31.4 30.3 35.6 40 39.8 39.9 38.3 37.3 35.1 31.9 28.9 -1.6 -1.6 -1.6 -1.6 -1.6 -1.6 -1.6 -1.6 -1.6 -1.6 -1.6 -1.6 -1.6 -1.6 -1.6 -1.6 -1.6 -1.6 -1.6 -1.6 -1.6 -1.6 -1.6 -1.6 -1.6 -1.6 -1.6 -1.6 -1.6 -1.6 -1.6 -1.6 -1.6 -1.6 -1.6 -1.6 -1.6 -1.6 -1.6 -1.6 -1.6 -1.6 -0.5 -1.6 -1.6 -1.6 -1.6 -1.6 2.1 1.4 -1.6 -1.6 -1.6 -1.6 -1.6 -1.6 -1.6 -1.6 -1.6 -1.6 -1.6 -1.6 -1.6 -1.6 -1.6 -1.6 -1.6 -1.6 -1.6 -1.6 -1.6 -1.6 -1.6 -1.6 -1.6 -1.6 -1.6 -1.6 -1.6 -1.6 -1.6 -1.6 -1.6 -1.6 -1.6 -1.6 -1.6 -1.6 -1.6 -1.6 -1.6 -1.6 -1.6 -1.6 -1.6 -1.6 -1.6 -1.6 -1.6 -1.6 -1.6 -1.6 -1.6 -1.6 -1.6 -1.6 -1.6 -1.6 -1.6 -1.6 -1.6 -1.6 -1.6 -1.6 -1.6 -1.6 -1.6 -1.6 -1.6
-1.6 -1.6 -1.6 -1.6 -1.6 -1.6 -1.6 -1.6 -1.6 -1.6 -1.6 -1.6 -1.6 -1.6 -1.6 -1.6 -1.6 -1.6 -1.6 -1.6 -1.6 -1.6 -1.6 26.2 -1.6 -1.6 -1.6 -1.6 -1.6 -1.6 -1.6 -1.6 -1.6 -1.6 -1.6 -1.6 -1.6 -1.6 -1.6 -1.6 -1.6 -1.6 -1.6 -1.6 -1.6 -1.6 -1.6 -1.6 -1.6 -1.6 -1.6 -1.6 -1.6 -1.6 -1.6 -1.6 -1.6 -1.6 -1.6 -1.6 -1.6 -1.6 -1.6 -1.6 -1.6 -1.6 -1.6 -1.6 -1.6 -1.6 -1.6 -1.6 29.4 35.3 37.3 36.6 24.1 34.6 31.3 27.6 2.9 -1.6 -1.6 -1.6 -1.6 -1.6 -1.6 -1.6 -1.6 -1.6 -1.6 -1.6 -1.6 -1.6 -1.6 -1.6 -1.6 -1.6 -1.6 -1.6 -1.6 -1.6 -1.6 -1.6 -1.6 -1.6 -1.6 -1.6 -1.6 -1.6 -1.6 -1.6 -1.6 -1.6 -1.6 -1.6 -1.6 -1.6 -1.6 -1.6 -1.6 -1.6 -1.6 18.5 -1.6 -1.6 -1.6 1.2 2.3 33.2 31.3 -1.6 -1.6 -1.6 -1.6 -1.6 -1.6 -1.6 -1.6 -1.6 -1.6 -1.6 -1.6 -1.6 -1.6 -1.6 -1.6 -1.6 -1.6 -1.6 -1.6 -1.6 -1.6 -1.6 -1.6 -1.6 -1.6 -1.6 -1.6 -1.6 -1.6 -1.6 -1.6 -1.6 -1.6 -1.6 -1.6 -1.6 -1.6 -1.6 -1.6 -1.6 -1.6 -1.6 -1.6 -1.6 -1.6 -1.6 -1.6 -1.6 -1.6 -1.6 -1.6 -1.6 -1.6 -1.6 -1.6 -1.6 -1.6 -1.6 -1.6 -1.6 -1.6 -1.6 -1.6 -1.6 -1.6 -1.6 -1.6 -1.6
-1.6 -1.6 -1.6 -1.6 -1.6 -1.6 -1.6 -1.6 -1.6 -1.6 -1.6 -1.6 -1.6 -1.6 -1.6 -1.6 -1.6 -1.6 -1.6 -1.6 -1.6 -1.6 26.3 19.5 -1.6 -1.6 -1.6 -1.6 -1.6 -1.6 -1.6 -1.6 -1.6 -1.6 -1.6 -1.6 -1.6 -1.6 -1.6 -1.6 -1.6 -1.6 -1.6 -1.6 -1.6 -1.6 -1.6 -1.6 -1.6 -1.6 -1.6 -1.6 -1.6 -1.6 -1.6 -1.6 -1.6 -1.6 -1.6 -1.6 -1.6 -1.6 -1.6 -1.6 -1.6 -1.6 -1.6 -1.6 -1.6 -1.6 -1.6 -1.6 -1.6 -1.6 -1.6 -1.6 -1.6 28 22.1 3.5 0.9 -1.6 -1.6 -1.6 -1.6 -1.6 -1.6 -1.6 -1.6 -1.6 -1.6 -1.6 -1.6 -1.6 -1.6 -1.6 -1.6 -1.6 -1.6 -1.6 -1.6 -1.6 -1.6 -1.6 -1.6 -1.6 -1.6 -1.6 -1.6 -1.6 -1.6 -1.6 -1.6 -1.6 -1.6 -1.6 -1.6 -1.6 -1.6 -1.6 -1.6 -1.6 2.3 18.1 42.8 -1.6 -1.6 31.3 6.9 44.1 44.7 26.2 -1.6 -1.6 -1.6 -1.6 -1.6 -1.6 -1.6 -1.6 -1.6 -1.6 -1.6 -1.6 -1.6 -1.6 -1.6 -1.6 -1.6 -1.6 -1.6 -1.6 -1.6 -1.6 -1.6 -1.6 -1.6 -1.6 -1.6 -1.6 -1.6 -1.6 -1.6 -1.6 -1.6 -1.6 -1.6 -1.6 -1.6 -1.6 -1.6 -1.6 -1.6 -1.6 -1.6 -1.6 -1.6 -1.6 -1.6 -1.6 -1.6 -1.6 -1.6 -1.6 -1.6 -1.6 -1.6 -1.6 -1.6 -1.6 -1.6 -1.6 -1.6 -1.6 -1.6 -1.6 -1.6 -1.6 -1.6 -1.6
-1.6 -1.6 -1.6 -1.6 -1.6 -1.6 -1.6 -1.6 -1.6 -1.6 -1.6 -1.6 -1.6 -1.6 -1.6 -1.6 -1.6 -1.6 -1.6 -1.6 -1.6 -1.6 21.1 12 -1.6 -1.6 -1.6 -1.6 -1.6 -1.6 -1.6 -1.6 -1.6 -1.6 -1.6 -1.6 -1.6 -1.6 -1.6 -1.6 -1.6 -1.6 -1.6 -1.6 -1.6 -1.6 -1.6 -1.6 -1.6 -1.6 -1.6 -1.6 -1.6 -1.6 -1.6 -1.6 -1.6 -1.6 -1.6 -1.6 -1.6 -1.6 -1.6 -1.6 -1.6 -1.6 -1.6 -1.6 -1.6 -1.6 -1.6 -1.6 -1.6 -1.6 -1.6 -1.6 -1.6 1.7 -1.6 -1.6 -1.6 -1.6 -1.6 -1.6 -1.6 -1.6 -1.6 -1.6 -1.6 -1.6 -1.6 -1.6 -1.6 -1.6 -1.6 -1.6 -1.6 -1.6 -1.6 -1.6 -1.6 -1.6 -1.6 -1.6 -1.6 -1.6 -1.6 -1.6 -1.6 -1.6 -1.6 -1.6 -1.6 -1.6 -1.6 -1.6 -1.6 -1.6 -1.6 -1.6 58.7 19.2 37 2 59.4 -1.6 -1.6 38.7 2 51.8 42.4 39 23.6 2.3 4.6 -1.6 -1.6 -1.6 -1.6 -1.6 -1.6 -1.6 -1.6 -1.6 -1.6 -1.6 -1.6 -1.6 -1.6 -1.6 -1.6 -1.6 -1.6 -1.6 -1.6 -1.6 -1.6 -1.6 -1.6 -1.6 -1.6 -1.6 -1.6 -1.6 -1.6 -1.6 -1.6 -1.6 -1.6 -1.6 -1.6 -1.6 -1.6 -1.6 -1.6 -1.6 -1.6 -1.6 -1.6 -1.6 -1.6 -1.6 -1.6 -1.6 -1.6 -1.6 -1.6 -1.6 -1.6 -1.6 -1.6 -1.6 -1.6 -1.6 -1.6 -1.6 -1.6 -1.6 -1.6 -1.6
-1.6 -1.6 -1.6 -1.6 -1.6 -1.6 -1.6 -1.6 -1.6 -1.6 -1.6 -1.6 -1.6 -1.6 -1.6 -1.6 -1.6 -1.6 -1.6 -1.6 -1.6 -1.6 15.3 -1.6 -1.6 -1.6 -1.6 -1.6 -1.6 -1.6 -1.6 -1.6 -1.6 -1.6 -1.6 -1.6 -1.6 -1.6 -1.6 -1.6 -1.6 -1.6 -1.6 -1.6 -1.6 -1.6 -1.6 -1.6 -1.6 -1.6 -1.6 -1.6 -1.6 -1.6 -1.6 -1.6 -1.6 -1.6 -1.6 -1.6 -1.6 -1.6 -1.6 -1.6 -1.6 -1.6 -1.6 -1.6 -1.6 -1.6 -1.6 -1.6 -1.6 -1.6 -1.6 -1.6 -1.6 -1.6 -1.6 -1.6 -1.6 -1.6 -1.6 -1.6 -1.6 -1.6 -1.6 -1.6 -1.6 -1.6 -1.6 -1.6 -1.6 -1.6 -1.6 -1.6 -1.6 -1.6 -1.6 -1.6 -1.6 -1.6 -1.6 -1.6 -1.6 -1.6 -1.6 -1.6 -1.6 -1.6 -1.6 -1.6 -1.6 -1.6 -1.6 -1.6 -1.6 -1.6 -1.6 -1.6 2.1 56 20.7 18.3 63.1 58.5 10.2 43 4.4 60 45.7 43 40.3 29.7 2.3 -1.6 -1.6 -1.6 -1.6 -1.6 -1.6 -1.6 -1.6 -1.6 -1.6 -1.6 -1.6 -1.6 -1.6 -1.6 -1.6 -1.6 -1.6 -1.6 -1.6 -1.6 -1.6 -1.6 -1.6 -1.6 -1.6 -1.6 -1.6 -1.6 -1.6 -1.6 -1.6 -1.6 -1.6 -1.6 -1.6 -1.6 -1.6 -1.6 -1.6 -1.6 -1.6 -1.6 -1.6 -1.6 -1.6 -1.6 -1.6 -1.6 -1.6 -1.6 -1.6 -1.6 -1.6 -1.6 -1.6 -1.6 -1.6 -1.6 -1.6 -1.6 -1.6 -1.6 -1.6 -1.6
-1.6 -1.6 -1.6 -1.6 -1.6 -1.6 -1.6 -1.6 -1.6 -1.6 -1.6 -1.6 -1.6 -1.6 -1.6 -1.6 -1.6 -1.6 -1.6 -1.6 -1.6 -1.6 31.8 -1.6 -1.6 -1.6 -1.6 -1.6 -1.6 -1.6 -1.6 -1.6 -1.6 -1.6 -1.6 -1.6 -1.6 -1.6 -1.6 -1.6 -1.6 -1.6 -1.6 -1.6 -1.6 -1.6 -1.6 -1.6 -1.6 -1.6 -1.6 -1.6 -1.6 -1.6 -1.6 -1.6 -1.6 -1.6 -1.6 -1.6 -1.6 -1.6 -1.6 -1.6 -1.6 -1.6 -1.6 -1.6 -1.6 -1.6 -1.6 -1.6 -1.6 -1.6 -1.6 -1.6 -1.6 -1.6 -1.6 -1.6 -1.6 -1.6 -1.6 -1.6 -1.6 -1.6 -1.6 -1.6 -1.6 -1.6 -1.6 -1.6 -1.6 -1.6 -1.6 -1.6 -1.6 -1.6 -1.6 -1.6 -1.6 -1.6 -1.6 -1.6 -1.6 -1.6 -1.6 -1.6 -1.6 -1.6 -1.6 -1.6 -1.6 -1.6 -1.6 -1.6 -1.6 -1.6 -1.6 -1.6 2.3 23 47.2 55.6 68.8 65.8 16 57.2 39.6 59.2 55.2 48.4 48.4 43.5 35.3 -1.6 -1.6 -1.6 -1.6 -1.6 -1.6 -1.6 -1.6 -1.6 -1.6 -1.6 -1.6 -1.6 -1.6 -1.6 -1.6 -1.6 -1.6 -1.6 -1.6 -1.6 -1.6 -1.6 -1.6 -1.6 -1.6 -1.6 -1.6 -1.6 -1.6 -1.6 -1.6 -1.6 -1.6 -1.6 -1.6 -1.6 -1.6 -1.6 -1.6 -1.6 -1.6 -1.6 -1.6 -1.6 -1.6 -1.6 -1.6 -1.6 -1.6 -1.6 -1.6 -1.6 -1.6 -1.6 -1.6 -1.6 -1.6 -1.6 -1.6 -1.6 -1.6 -1.6 -1.6 -1.6
-1.6 -1.6 -1.6 -1.6 -1.6 -1.6 -1.6 -1.6 -1.6 -1.6 -1.6 -1.6 -1.6 -1.6 -1.6 -1.6 -1.6 -1.6 -1.6 -1.6 -1.6 12.7 34.2 -1.6 -1.6 -1.6 -1.6 -1.6 -1.6 -1.6 -1.6 -1.6 -1.6 -1.6 -1.6 -1.6 -1.6 -1.6 -1.6 -1.6 -1.6 -1.6 -1.6 -1.6 -1.6 -1.6 -1.6 -1.6 -1.6 -1.6 -1.6 -1.6 -1.6 -1.6 -1.6 -1.6 -1.6 -1.6 -1.6 -1.6 -1.6 -1.6 -1.6 -1.6 -1.6 -1.6 -1.6 -1.6 -1.6 -1.6 -1.6 -1.6 -1.6 -1.6 -1.6 -1.6 -1.6 -1.6 -1.6 -1.6 -1.6 -1.6 -1.6 -1.6 -1.6 -1.6 -1.6 -1.6 -1.6 -1.6 -1.6 -1.6 -1.6 -1.6 -1.6 -1.6 -1.6 -1.6 -1.6 -1.6 -1.6 -1.6 -1.6 -1.6 -1.6 -1.6 -1.6 -1.6 -1.6 -1.6 -1.6 -1.6 -1.6 -1.6 -1.6 -1.6 -1.6 -1.6 -1.6 -1.6 2.1 15.5 48.1 55.8 58.8 61.4 48.7 52.5 55.8 48.6 53.3 50.6 49.8 47.6 40.3 32.4 -1.6 -1.6 -1.6 -1.6 -1.6 -1.6 -1.6 -1.6 -1.6 -1.6 -1.6 -1.6 -1.6 -1.6 -1.6 -1.6 -1.6 -1.6 -1.6 -1.6 -1.6 -1.6 -1.6 -1.6 -1.6 -1.6 -1.6 -1.6 -1.6 -1.6 -1.6 -1.6 -1.6 -1.6 -1.6 -1.6 -1.6 -1.6 -1.6 -1.6 -1.6 -1.6 -1.6 -1.6 -1.6 -1.6 -1.6 -1.6 -1.6 -1.6 -1.6 -1.6 -1.6 -1.6 -1.6 -1.6 -1.6 -1.6 -1.6 -1.6 -1.6 -1.6 -1.6 -1.6
-1.6 -1.6 -1.6 -1.6 -1.6 -1.6 -1.6 -1.6 -1.6 -1.6 -1.6 -1.6 -1.6 -1.6 -1.6 -1.6 -1.6 -1.6 -1.6 -1.6 -1.6 -1.6 31.8 -1.6 -1.6 -1.6 -1.6 -1.6 -1.6 -1.6 -1.6 -1.6 -1.6 -1.6 -1.6 -1.6 -1.6 -1.6 -1.6 -1.6 -1.6 -1.6 -1.6 -1.6 -1.6 -1.6 -1.6 -1.6 -1.6 -1.6 -1.6 -1.6 -1.6 -1.6 -1.6 -1.6 -1.6 -1.6 -1.6 -1.6 -1.6 -1.6 -1.6 -1.6 -1.6 -1.6 -1.6 -1.6 -1.6 -1.6 -1.6 -1.6 -1.6 -1.6 -1.6 -1.6 -1.6 -1.6 -1.6 -1.6 -1.6 -1.6 -1.6 -1.6 -1.6 -1.6 -1.6 -1.6 -1.6 -1.6 -1.6 -1.6 -1.6 -1.6 -1.6 -1.6 -1.6 -1.6 -1.6 -1.6 -1.6 -1.6 -1.6 -1.6 -1.6 -1.6 -1.6 -1.6 -1.6 -1.6 -1.6 -1.6 -1.6 -1.6 -1.6 -1.6 -1.6 -1.6 -1.6 -1.6 -1.6 29.1 45.3 43.8 55.4 54.8 53.9 44.5 49.4 43.8 44.3 48.9 48.8 48.7 48.3 30.3 -1.6 -1.6 -1.6 -1.6 -1.6 -1.6 -1.6 -1.6 -1.6 -1.6 -1.6 -1.6 -1.6 -1.6 -1.6 -1.6 -1.6 -1.6 -1.6 -1.6 -1.6 -1.6 -1.6 -1.6 -1.6 -1.6 -1.6 -1.6 -1.6 -1.6 -1.6 -1.6 -1.6 -1.6 -1.6 -1.6 -1.6 -1.6 -1.6 -1.6 -1.6 -1.6 -1.6 -1.6 -1.6 -1.6 -1.6 -1.6 -1.6 -1.6 -1.6 -1.6 -1.6 -1.6 -1.6 -1.6 -1.6 -1.6 -1.6 -1.6 -1.6 -1.6 -1.6 -1.6
-1.6 -1.6 -1.6 -1.6 -1.6 -1.6 -1.6 -1.6 -1.6 -1.6 -1.6 -1.6 -1.6 -1.6 -1.6 -1.6 -1.6 -1.6 -1.6 -1.6 -1.6 -1.6 41 -1.6 -1.6 -1.6 -1.6 -1.6 -1.6 -1.6 -1.6 -1.6 -1.6 -1.6 -1.6 -1.6 -1.6 -1.6 -1.6 -1.6 -1.6 -1.6 -1.6 -1.6 -1.6 -1.6 -1.6 -1.6 -1.6 -1.6 -1.6 -1.6 -1.6 -1.6 -1.6 -1.6 -1.6 -1.6 -1.6 -1.6 -1.6 -1.6 -1.6 -1.6 -1.6 -1.6 -1.6 -1.6 -1.6 -1.6 -1.6 -1.6 -1.6 -1.6 -1.6 -1.6 -1.6 -1.6 -1.6 -1.6 -1.6 -1.6 -1.6 -1.6 -1.6 -1.6 -1.6 -1.6 -1.6 -1.6 -1.6 -1.6 -1.6 -1.6 -1.6 -1.6 -1.6 -1.6 -1.6 -1.6 -1.6 -1.6 -1.6 -1.6 -1.6 -1.6 -1.6 -1.6 -1.6 -1.6 -1.6 -1.6 -1.6 -1.6 -1.6 -1.6 -1.6 -1.6 -1.6 -1.6 -1.6 -1.6 -1.6 2 2.2 46.1 49.9 42.8 39 38.6 40.1 45.4 43.7 48.4 49.3 44.3 47.3 -1.6 -1.6 -1.6 -1.6 -1.6 -1.6 -1.6 -1.6 -1.6 -1.6 -1.6 -1.6 -1.6 -1.6 -1.6 -1.6 -1.6 -1.6 -1.6 -1.6 -1.6 -1.6 -1.6 -1.6 -1.6 -1.6 -1.6 -1.6 -1.6 -1.6 -1.6 -1.6 -1.6 -1.6 -1.6 -1.6 -1.6 -1.6 -1.6 -1.6 -1.6 -1.6 -1.6 -1.6 -1.6 -1.6 -1.6 -1.6 -1.6 -1.6 -1.6 -1.6 -1.6 -1.6 -1.6 -1.6 -1.6 -1.6 -1.6 -1.6 -1.6 -1.6 -1.6
-1.6 -1.6 -1.6 -1.6 -1.6 -1.6 -1.6 -1.6 -1.6 -1.6 -1.6 -1.6 -1.6 -1.6 -1.6 -1.6 -1.6 -1.6 -1.6 -1.6 -1.6 24.7 37.4 -1.6 -1.6 -1.6 -1.6 -1.6 -1.6 -1.6 -1.6 -1.6 -1.6 -1.6 -1.6 -1.6 -1.6 -1.6 -1.6 -1.6 -1.6 -1.6 -1.6 -1.6 -1.6 -1.6 -1.6 -1.6 -1.6 -1.6 -1.6 -1.6 -1.6 -1.6 -1.6 -1.6 -1.6 -1.6 -1.6 -1.6 -1.6 -1.6 -1.6 -1.6 -1.6 -1.6 -1.6 -1.6 -1.6 -1.6 -1.6 -1.6 -1.6 -1.6 -1.6 -1.6 -1.6 -1.6 -1.6 -1.6 -1.6 -1.6 -1.6 -1.6 -1.6 -1.6 -1.6 -1.6 -1.6 -1.6 -1.6 -1.6 -1.6 -1.6 -1.6 -1.6 -1.6 -1.6 -1.6 -1.6 -1.6 -1.6 -1.6 -1.6 -1.6 -1.6 -1.6 -1.6 -1.6 -1.6 -1.6 -1.6 -1.6 -1.6 -1.6 -1.6 -1.6 -1.6 -1.6 -1.6 -1.6 -1.6 -1.6 -1.6 -1.6 1.7 35.4 38 31.9 32.5 35 34.7 41.8 15.3 39.3 43.1 38.7 -1.6 -1.6 -1.6 -1.6 -1.6 -1.6 -1.6 -1.6 -1.6 -1.6 -1.6 -1.6 -1.6 -1.6 -1.6 -1.6 -1.6 -1.6 -1.6 -1.6 -1.6 -1.6 -1.6 -1.6 -1.6 -1.6 -1.6 -1.6 -1.6 -1.6 -1.6 -1.6 -1.6 -1.6 -1.6 -1.6 -1.6 -1.6 -1.6 -1.6 -1.6 -1.6 -1.6 -1.6 -1.6 -1.6 -1.6 -1.6 -1.6 -1.6 -1.6 -1.6 -1.6 -1.6 -1.6 -1.6 -1.6 -1.6 -1.6 -1.6 -1.6 -1.6 -1.6
-1.6 -1.6 -1.6 -1.6 -1.6 -1.6 -1.6 -1.6 -1.6 -1.6 -1.6 -1.6 -1.6 -1.6 -1.6 -1.6 -1.6 -1.6 -1.6 -1.6 -1.6 17.4 28.6 -1.6 -1.6 -1.6 -1.6 -1.6 -1.6 -1.6 -1.6 -1.6 -1.6 -1.6 -1.6 -1.6 -1.6 -1.6 -1.6 -1.6 -1.6 -1.6 -1.6 -1.6 -1.6 -1.6 -1.6 -1.6 -1.6 -1.6 -1.6 -1.6 -1.6 -1.6 -1.6 -1.6 -1.6 -1.6 -1.6 -1.6 -1.6 -1.6 -1.6 -1.6 -1.6 -1.6 -1.6 -1.6 -1.6 -1.6 -1.6 -1.6 -1.6 -1.6 -1.6 -1.6 -1.6 -1.6 -1.6 -1.6 -1.6 -1.6 -1.6 -1.6 -1.6 -1.6 -1.6 -1.6 -1.6 -1.6 -1.6 -1.6 -1.6 -1.6 -1.6 -1.6 -1.6 -1.6 -1.6 -1.6 -1.6 -1.6 -1.6 -1.6 -1.6 -1.6 -1.6 -1.6 -1.6 -1.6 -1.6 -1.6 -1.6 -1.6 -1.6 -1.6 -1.6 -1.6 -1.6 -1.6 -1.6 -1.6 -1.6 -1.6 -1.6 1 40.1 27.6 24.6 20.9 7.7 6.2 2.3 -1.6 22.5 -1.6 35.2 -1.6 -1.6 -1.6 -1.6 -1.6 -1.6 -1.6 -1.6 -1.6 -1.6 -1.6 -1.6 -1.6 -1.6 -1.6 -1.6 -1.6 -1.6 -1.6 -1.6 -1.6 -1.6 -1.6 -1.6 -1.6 -1.6 -1.6 -1.6 -1.6 -1.6 -1.6 -1.6 -1.6 -1.6 -1.6 -1.6 -1.6 -1.6 -1.6 -1.6 -1.6 -1.6 -1.6 -1.6 -1.6 -1.6 -1.6 -1.6 -1.6 -1.6 -1.6 -1.6 -1.6 -1.6 -1.6 -1.6 -1.6 -1.6 -1.6 -1.6 -1.6 -1.6 -1.6
-1.6 -1.6 -1.6 -1.6 -1.6 -1.6 -1.6 -1.6 -1.6 -1.6 -1.6 -1.6 -1.6 -1.6 -1.6 -1.6 -1.6 -1.6 -1.6 -1.6 -1.6 8.1 -1.6 -1.6 -1.6 -1.6 -1.6 -1.6 -1.6 -1.6 -1.6 -1.6 -1.6 -1.6 -1.6 -1.6 -1.6 -1.6 -1.6 -1.6 -1.6 -1.6 -1.6 -1.6 -1.6 -1.6 -1.6 -1.6 -1.6 -1.6 -1.6 -1.6 -1.6 -1.6 -1.6 -1.6 -1.6 -1.6 -1.6 -1.6 -1.6 -1.6 -1.6 -1.6 -1.6 -1.6 -1.6 -1.6 -1.6 -1.6 -1.6 -1.6 -1.6 -1.6 -1.6 -1.6 -1.6 -1.6 -1.6 -1.6 -1.6 -1.6 -1.6 -1.6 -1.6 -1.6 -1.6 -1.6 -1.6 -1.6 -1.6 -1.6 -1.6 -1.6 -1.6 -1.6 -1.6 -1.6 -1.6 -1.6 -1.6 -1.6 -1.6 -1.6 -1.6 -1.6 -1.6 -1.6 -1.6 -1.6 -1.6 -1.6 -1.6 -1.6 -1.6 -1.6 -1.6 -1.6 -1.6 -1.6 -1.6 -1.6 -1.6 -1.6 -1.6 0.1 1.9 22.4 20.7 16.9 10.6 2.3 -1.6 -1.6 -1.6 -1.6 1.2 4.7 -1.6 -1.6 -1.6 -1.6 -1.6 -1.6 -1.6 -1.6 -1.6 -1.6 -1.6 -1.6 -1.6 -1.6 -1.6 -1.6 -1.6 -1.6 -1.6 -1.6 -1.6 -1.6 -1.6 -1.6 -1.6 -1.6 -1.6 -1.6 -1.6 -1.6 -1.6 -1.6 -1.6 -1.6 -1.6 -1.6 -1.6 -1.6 -1.6 -1.6 -1.6 -1.6 -1.6 -1.6 -1.6 -1.6 -1.6 -1.6 -1.6 -1.6 -1.6 -1.6 -1.6 -1.6 -1.6 -1.6 -1.6 -1.6 -1.6 -1.6 -1.6 -1.6
-1.6 -1.6 -1.6 -1.6 -1.6 -1.6 -1.6 -1.6 -1.6 -1.6 -1.6 -1.6 -1.6 -1.6 -1.6 -1.6 -1.6 -1.6 -1.6 -1.6 -1.6 13.6 14.4 -1.6 -1.6 -1.6 -1.6 -1.6 -1.6 -1.6 -1.6 -1.6 -1.6 -1.6 -1.6 -1.6 -1.6 -1.6 -1.6 -1.6 -1.6 -1.6 -1.6 -1.6 -1.6 -1.6 -1.6 -1.6 -1.6 -1.6 -1.6 -1.6 -1.6 -1.6 -1.6 -1.6 -1.6 -1.6 -1.6 -1.6 -1.6 -1.6 -1.6 -1.6 -1.6 -1.6 -1.6 -1.6 -1.6 -1.6 -1.6 -1.6 -1.6 -1.6 -1.6 -1.6 -1.6 -1.6 -1.6 -1.6 -1.6 -1.6 -1.6 -1.6 -1.6 -1.6 -1.6 -1.6 -1.6 -1.6 -1.6 -1.6 -1.6 -1.6 -1.6 -1.6 -1.6 -1.6 -1.6 -1.6 -1.6 -1.6 -1.6 -1.6 -1.6 -1.6 -1.6 -1.6 -1.6 -1.6 -1.6 -1.6 -1.6 -1.6 -1.6 -1.6 -1.6 -1.6 -1.6 -1.6 -1.6 -1.6 -1.6 -1.6 -1.6 -1.6 -1.6 0.6 16.8 18.3 13.4 2.3 -1.6 -1.6 -1.6 -1.6 -1.6 -1.6 -1.6 -1.6 -1.6 -1.6 -1.6 -1.6 -1.6 -1.6 -1.6 -1.6 -1.6 -1.6 -1.6 -1.6 -1.6 -1.6 -1.6 -1.6 -1.6 -1.6 -1.6 -1.6 -1.6 -1.6 -1.6 -1.6 -1.6 -1.6 -1.6 -1.6 -1.6 -1.6 -1.6 -1.6 -1.6 -1.6 -1.6 -1.6 -1.6 -1.6 -1.6 -1.6 -1.6 -1.6 -1.6 -1.6 -1.6 -1.6 -1.6 -1.6 -1.6 -1.6 -1.6 -1.6 -1.6 -1.6 -1.6 -1.6 -1.6 -1.6 -1.6 -1.6
-1.6 -1.6 -1.6 -1.6 -1.6 -1.6 -1.6 -1.6 -1.6 -1.6 -1.6 -1.6 -1.6 -1.6 -1.6 -1.6 -1.6 -1.6 -1.6 -1.6 -1.6 12.6 -1.6 -1.6 -1.6 -1.6 -1.6 -1.6 -1.6 -1.6 -1.6 -1.6 -1.6 -1.6 -1.6 -1.6 -1.6 -1.6 -1.6 -1.6 -1.6 -1.6 -1.6 -1.6 -1.6 -1.6 -1.6 -1.6 -1.6 -1.6 -1.6 -1.6 -1.6 -1.6 -1.6 -1.6 -1.6 -1.6 -1.6 -1.6 -1.6 -1.6 -1.6 -1.6 -1.6 -1.6 -1.6 -1.6 -1.6 -1.6 -1.6 -1.6 -1.6 -1.6 -1.6 -1.6 -1.6 -1.6 -1.6 -1.6 -1.6 -1.6 -1.6 -1.6 -1.6 -1.6 -1.6 -1.6 -1.6 -1.6 -1.6 -1.6 -1.6 -1.6 -1.6 -1.6 -1.6 -1.6 -1.6 -1.6 -1.6 -1.6 -1.6 -1.6 -1.6 -1.6 -1.6 -1.6 -1.6 -1.6 -1.6 -1.6 -1.6 -1.6 -1.6 -1.6 -1.6 -1.6 -1.6 -1.6 -1.6 -1.6 -1.6 -1.6 -1.6 -1.6 -1.6 -1.6 2.5 8.9 8.7 -0.4 -1.6 -1.6 -1.6 -1.6 -1.6 -1.6 -1.6 -1.6 -1.6 -1.6 -1.6 -1.6 -1.6 -1.6 -1.6 -1.6 -1.6 -1.6 -1.6 -1.6 -1.6 -1.6 -1.6 -1.6 -1.6 -1.6 -1.6 -1.6 -1.6 -1.6 -1.6 -1.6 -1.6 -1.6 -1.6 -1.6 -1.6 -1.6 -1.6 -1.6 -1.6 -1.6 -1.6 -1.6 -1.6 -1.6 -1.6 -1.6 -1.6 -1.6 -1.6 -1.6 -1.6 -1.6 -1.6 -1.6 -1.6 -1.6 -1.6 -1.6 -1.6 -1.6 -1.6 -1.6 -1.6 -1.6 -1.6 -1.6
-1.6 -1.6 -1.6 -1.6 -1.6 -1.6 -1.6 -1.6 -1.6 -1.6 -1.6 -1.6 -1.6 -1.6 -1.6 -1.6 -1.6 -1.6 -1.6 -1.6 -1.6 -1.6 -1.6 -1.6 -1.6 -1.6 -1.6 -1.6 -1.6 -1.6 -1.6 -1.6 -1.6 -1.6 -1.6 -1.6 -1.6 -1.6 -1.6 -1.6 -1.6 -1.6 -1.6 -1.6 -1.6 -1.6 -1.6 -1.6 -1.6 -1.6 -1.6 -1.6 -1.6 -1.6 -1.6 -1.6 -1.6 -1.6 -1.6 -1.6 -1.6 -1.6 -1.6 -1.6 -1.6 -1.6 -1.6 -1.6 -1.6 -1.6 -1.6 -1.6 -1.6 -1.6 -1.6 -1.6 -1.6 -1.6 -1.6 -1.6 -1.6 -1.6 -1.6 -1.6 -1.6 -1.6 -1.6 -1.6 -1.6 -1.6 -1.6 -1.6 -1.6 -1.6 -1.6 -1.6 -1.6 -1.6 -1.6 -1.6 -1.6 -1.6 -1.6 -1.6 -1.6 -1.6 -1.6 -1.6 -1.6 -1.6 -1.6 -1.6 -1.6 -1.6 -1.6 -1.6 -1.6 -1.6 -1.6 -1.6 -1.6 -1.6 -1.6 -1.6 -1.6 -1.6 -1.6 -1.6 -1.6 -1.6 -1.2 -1.6 -1.6 -1.6 -1.6 -1.6 -1.6 -1.6 -1.6 -1.6 -1.6 -1.6 -1.6 -1.6 -1.6 -1.6 -1.6 -1.6 -1.6 -1.6 -1.6 -1.6 -1.6 -1.6 -1.6 -1.6 -1.6 -1.6 -1.6 -1.6 -1.6 -1.6 -1.6 -1.6 -1.6 -1.6 -1.6 -1.6 -1.6 -1.6 -1.6 -1.6 -1.6 -1.6 -1.6 -1.6 -1.6 -1.6 -1.6 -1.6 -1.6 -1.6 -1.6 -1.6 -1.6 -1.6 -1.6 -1.6 -1.6 -1.6 -1.6 -1.6 -1.6 -1.6 -1.6 -1.6 -1.6 -1.6 -1.6 -1.6
-1.6 -1.6 -1.6 -1.6 -1.6 -1.6 -1.6 -1.6 -1.6 -1.6 -1.6 -1.6 -1.6 -1.6 -1.6 -1.6 -1.6 -1.6 -1.6 -1.6 -1.6 -1.6 -1.6 -1.6 -1.6 -1.6 -1.6 -1.6 -1.6 -1.6 -1.6 -1.6 -1.6 -1.6 -1.6 -1.6 -1.6 -1.6 -1.6 -1.6 -1.6 -1.6 -1.6 -1.6 -1.6 -1.6 -1.6 -1.6 -1.6 -1.6 -1.6 -1.6 -1.6 -1.6 -1.6 -1.6 -1.6 -1.6 -1.6 -1.6 -1.6 -1.6 -1.6 -1.6 -1.6 -1.6 -1.6 -1.6 -1.6 -1.6 -1.6 -1.6 -1.6 -1.6 -1.6 -1.6 -1.6 -1.6 -1.6 -1.6 -1.6 -1.6 -1.6 -1.6 -1.6 -1.6 -1.6 -1.6 -1.6 -1.6 -1.6 -1.6 -1.6 -1.6 -1.6 -1.6 -1.6 -1.6 -1.6 -1.6 -1.6 -1.6 -1.6 -1.6 -1.6 -1.6 -1.6 -1.6 -1.6 -1.6 -1.6 -1.6 -1.6 -1.6 -1.6 -1.6 -1.6 -1.6 -1.6 -1.6 -1.6 -1.6 -1.6 -1.6 -1.6 -1.6 -1.6 -1.6 -1.6 -1.6 -1.6 -1.6 -1.6 -1.6 -1.6 -1.6 -1.6 -1.6 -1.6 -1.6 -1.6 -1.6 -1.6 -1.6 -1.6 -1.6 -1.6 -1.6 -1.6 -1.6 -1.6 -1.6 -1.6 -1.6 -1.6 -1.6 -1.6 -1.6 -1.6 -1.6 -1.6 -1.6 -1.6 -1.6 -1.6 -1.6 -1.6 -1.6 -1.6 -1.6 -1.6 -1.6 -1.6 -1.6 -1.6 -1.6 -1.6 -1.6 -1.6 -1.6 -1.6 -1.6 -1.6 -1.6 -1.6 -1.6 -1.6 -1.6 -1.6 -1.6 -1.6 -1.6 -1.6 -1.6 -1.6 -1.6 -1.6 -1.6 -1.6 -1.6
-1.6 -1.6 -1.6 -1.6 -1.6 -1.6 -1.6 -1.6 -1.6 -1.6 -1.6 -1.6 -1.6 -1.6 -1.6 -1.6 -1.6 -1.6 -1.6 -1.6 -1.6 -1.6 -1.6 -1.6 -1.6 -1.6 -1.6 -1.6 -1.6 -1.6 -1.6 -1.6 -1.6 -1.6 -1.6 -1.6 -1.6 -1.6 -1.6 -1.6 -1.6 -1.6 -1.6 -1.6 -1.6 -1.6 -1.6 -1.6 -1.6 -1.6 -1.6 -1.6 -1.6 -1.6 -1.6 -1.6 -1.6 -1.6 -1.6 -1.6 -1.6 -1.6 -1.6 -1.6 -1.6 -1.6 -1.6 -1.6 -1.6 -1.6 -1.6 -1.6 -1.6 -1.6 -1.6 -1.6 -1.6 -1.6 -1.6 -1.6 -1.6 -1.6 -1.6 -1.6 -1.6 -1.6 -1.6 -1.6 -1.6 -1.6 -1.6 -1.6 -1.6 -1.6 -1.6 -1.6 -1.6 -1.6 -1.6 -1.6 -1.6 -1.6 -1.6 -1.6 -1.6 -1.6 -1.6 -1.6 -1.6 -1.6 -1.6 -1.6 -1.6 -1.6 -1.6 -1.6 -1.6 3.5 -1.6 -1.6 -1.6 -1.6 -1.6 -1.6 -1.6 1.9 -1.6 -1.6 -1.6 -1.6 -1.6 -1.6 -1.6 -1.6 -1.6 -1.6 -1.6 -1.6 -1.6 -1.6 -1.6 -1.6 -1.6 -1.6 -1.6 -1.6 -1.6 -1.6 -1.6 -1.6 -1.6 -1.6 -1.6 -1.6 -1.6 -1.6 -1.6 -1.6 -1.6 -1.6 -1.6 -1.6 -1.6 -1.6 -1.6 -1.6 -1.6 -1.6 -1.6 -1.6 -1.6 -1.6 -1.6 -1.6 -1.6 -1.6 -1.6 -1.6 -1.6 -1.6 -1.6 -1.6 -1.6 -1.6 -1.6 -1.6 -1.6 -1.6 -1.6 -1.6 -1.6 -1.6 -1.6 -1.6 -1.6 -1.6 -1.6 -1.6 -1.6 -1.6
-1.6 -1.6 -1.6 -1.6 -1.6 -1.6 -1.6 -1.6 -1.6 -1.6 -1.6 -1.6 -1.6 -1.6 -1.6 -1.6 -1.6 -1.6 -1.6 -1.6 -1.6 -1.6 -1.6 -1.6 -1.6 -1.6 -1.6 -1.6 -1.6 -1.6 -1.6 -1.6 -1.6 -1.6 -1.6 -1.6 -1.6 -1.6 -1.6 -1.6 -1.6 -1.6 -1.6 -1.6 -1.6 -1.6 -1.6 -1.6 -1.6 -1.6 -1.6 -1.6 -1.6 -1.6 -1.6 -1.6 -1.6 -1.6 -1.6 -1.6 -1.6 -1.6 -1.6 -1.6 -1.6 -1.6 -1.6 -1.6 -1.6 -1.6 -1.6 -1.6 -1.6 -1.6 -1.6 -1.6 -1.6 -1.6 -1.6 -1.6 -1.6 -1.6 -1.6 -1.6 -1.6 -1.6 -1.6 -1.6 -1.6 4.7 -0.5 -1.6 -1.6 -1.6 -1.6 -1.6 -1.6 -1.6 -1.6 -1.6 -1.6 -1.6 -1.6 -1.6 -1.6 -1.6 -1.6 -1.6 -1.6 -1.6 -1.6 -1.6 -1.6 12.6 21.4 29.2 27.2 26.2 14.5 -1.6 -1.6 -1.6 -1.6 -0.8 0.6 3 -1.6 -1.6 -1.6 -1.6 -1.6 -1.6 -1.6 -1.6 -1.6 -1.6 -1.6 -1.6 -1.6 -1.6 -1.6 -1.6 -1.6 -1.6 -1.6 -1.6 -1.6 -1.6 -1.6 -1.6 -1.6 -1.6 -1.6 -1.6 -1.6 -1.6 -1.6 -1.6 -1.6 -1.6 -1.6 -1.6 -1.6 -1.6 -1.6 -1.6 -1.6 -1.6 -1.6 -1.6 -1.6 -1.6 -1.6 -1.6 -1.6 -1.6 -1.6 -1.6 -1.6 -1.6 -1.6 -1.6 -1.6 -1.6 -1.6 -1.6 -1.6 -1.6 -1.6 -1.6 -1.6 -1.6 -1.6 -1.6 -1.6 -1.6 -1.6 -1.6 -1.6 -1.6
-1.6 -1.6 -1.6 -1.6 -1.6 -1.6 -1.6 -1.6 -1.6 -1.6 -1.6 -1.6 -1.6 -1.6 -1.6 -1.6 -1.6 6.3 7.5 26.6 15.7 19.7 -1.6 -1.6 -1.6 -1.6 -1.6 -1.6 -1.6 -1.6 -1.6 -1.6 -1.6 -1.6 -1.6 -1.6 -1.6 -1.6 -1.6 -1.6 -1.6 -1.6 -1.6 -1.6 -1.6 -1.6 -1.6 -1.6 -1.6 -1.6 -1.6 -1.6 -1.6 -1.6 -1.6 -1.6 -1.6 -1.6 -1.6 -1.6 -1.6 -1.6 -1.6 -1.6 -1.6 -1.6 -1.6 -1.6 -1.6 -1.6 -1.6 -1.6 -1.6 -1.6 -1.6 -1.6 -1.6 -1.6 -1.6 -1.6 -1.6 -1.6 -1.7 -1.6 -1.6 -1.6 -1.6 -1.6 -1.6 9.6 37.3 -1.6 -1.6 -1.6 -1.6 -1.6 -1.6 -1.6 -1.6 -1.6 -1.6 -1.6 -1.5 -1.6 -1.6 -1.6 -1.6 -1.6 -1.6 -1.6 -1.6 9.9 37 49.7 45.4 40.9 40.7 29.7 14 -1.6 -1.6 -1.6 -1.6 0.2 2 8 7.9 4 -1.6 -1.6 -1.6 -1.6 -1.6 -1.6 -1.6 -1.6 -1.6 -1.6 -1.6 -1.6 -1.6 -1.6 -1.6 -1.6 -1.6 -1.6 -1.6 -1.6 -1.6 -1.6 -1.6 -1.6 -1.6 -1.6 -1.6 -1.6 -1.6 -1.6 -1.6 -1.6 -1.6 -1.6 -1.6 -1.6 -1.6 -1.6 -1.6 -1.6 -1.6 -1.6 -1.6 -1.6 -1.6 -1.6 -1.6 -1.6 -1.6 -1.6 -1.6 -1.6 -1.6 -1.6 -1.6 -1.6 -1.6 -1.6 -1.6 -1.6 -1.6 -1.6 -1.6 -1.6 -1.6 -1.6 -1.6 -1.6 -1.6 -1.6 -1.6 -1.6
-1.6 -1.6 -1.6 -1.6 -1.6 -1.6 -1.6 -1.6 -1.6 -1.6 -1.6 -1.6 -1.6 -1.6 -1.6 -1.6 4 10.8 25.6 20.8 20.8 31.1 12.6 -1.6 -1.6 -1.6 -1.6 -1.6 -1.6 -1.6 -1.6 -1.6 -1.6 -1.6 -1.6 -1.6 -1.6 -1.6 -1.6 -1.6 -1.6 -1.6 -1.6 -1.6 -1.6 -1.6 -1.6 -1.6 -1.6 -1.6 -1.6 -1.6 -1.6 -1.6 -1.6 -1.6 -1.6 -1.6 -1.6 -1.6 -1.6 -1.6 -1.6 -1.6 -1.6 -1.6 -1.6 -1.6 -1.6 -1.6 -1.6 -1.6 -1.6 -1.6 0.8 -1.6 -1.6 -1.6 14.4 -1.6 -1.6 -1.6 17.9 -1.6 -1.6 -1.6 -1.6 -1.6 20.4 31.7 43.1 42.2 28.3 -1.6 -1.6 -1.6 -1.6 -1.6 -1.6 -1.6 -1.6 31.4 39.3 44.4 -1.6 -1.6 -1.6 0.7 0.3 -1.6 42.8 44.6 52.6 52.6 62.3 56.2 47.4 28.8 12.5 1.1 -1.6 -1.6 0 1.4 6.8 17.3 11.3 8 3.1 -1.6 -1.6 -1.6 -1.6 -1.6 -1.6 -1.6 -1.6 -1.6 -1.6 -1.6 -1.6 -1.6 -1.6 -1.6 -1.6 -1.6 -1.6 -1.6 -1.6 -1.6 -1.6 -1.6 -1.6 -1.6 -1.6 -1.6 -1.6 -1.6 -1.6 -1.6 -1.6 -1.6 -1.6 -1.6 -1.6 -1.6 -1.6 -1.6 -1.6 -1.6 -1.6 -1.6 -1.6 -1.6 -1.6 -1.6 -1.6 -1.6 -1.6 -1.6 -1.6 -1.6 -1.6 -1.6 -1.6 -1.6 -1.6 -1.6 -1.6 -1.6 -1.6 -1.6 -1.6 -1.6 -1.6 -1.6 -1.6 -1.6 -1.6 -1.6
-1.6 -1.6 -1.6 -1.6 -1.6 -1.6 -1.6 -1.6 -1.6 -1.6 -1.6 -1.6 -1.6 -1.6 -1.6 -1.6 3.7 11 9.3 23.8 27.2 26.8 -1.6 -1.6 -1.6 -1.6 -1.6 -1.6 -1.6 -1.6 -1.6 -1.6 -1.6 -1.6 -1.6 -1.6 -1.6 -1.6 -1.6 -1.6 -1.6 -1.6 -1.6 -1.6 -1.6 -1.6 -1.6 -1.6 -1.6 -1.6 -1.6 -1.6 -1.6 -1.6 -1.6 -1.6 -1.6 -1.6 -1.6 -1.6 -1.6 -1.6 -1.6 -1.6 -1.6 -1.6 -1.6 -1.6 -1.6 -1.6 -1.6 -1.6 -1.6 -1.6 27.1 13.8 -1.6 24.3 28.4 23.8 19.8 28.9 20.9 -1.6 -1.6 -1.6 -1.6 -1.6 15.1 28.5 36.7 38.1 37.5 40.7 26.3 -1.6 -1.6 -1.6 -1.6 -1.6 -1.6 -1.6 41.8 42.6 24.9 -1.6 -1.6 22.2 33.9 50.6 55 53.8 56 62.1 64.2 64.2 53.1 25.2 13.8 4 0.5 0.6 1.5 3.3 9.9 28.2 40.7 17.6 9.6 3.1 2 1.9 -1.6 -1.6 -1.6 -1.6 -1.6 -1.6 -1.6 -1.6 -1.6 -1.6 -1.6 -1.6 -1.6 -1.6 -1.6 -1.6 -1.6 -1.6 -1.6 -1.6 -1.6 -1.6 -1.6 -1.6 -1.6 -1.6 -1.6 -1.6 -1.6 -1.6 -1.6 -1.6 -1.6 -1.6 -1.6 -1.6 -1.6 -1.6 -1.6 -1.6 -1.6 -1.6 -1.6 -1.6 -1.6 -1.6 -1.6 -1.6 -1.6 -1.6 -1.6 -1.6 -1.6 -1.6 -1.6 -1.6 -1.6 -1.6 -1.6 -1.6 -1.6 -1.6 -1.6 -1.6 -1.6 -1.6 -1.6 -1.6
-1.6 -1.6 -1.6 -1.6 -1.6 -1.6 -1.6 -1.6 -1.6 -1.6 -1.6 -1.6 -1.6 -1.6 -1.6 -1.6 -1.6 2.2 33.5 30 27.1 22.4 -1.6 -1.6 -1.6 -1.6 -1.6 -1.6 -1.6 -1.6 -1.6 -1.6 -1.6 -1.6 -1.6 -1.6 -1.6 -1.6 -1.6 -1.6 -1.6 -1.6 -1.6 -1.6 -1.6 -1.6 -1.6 -1.6 -1.6 -1.6 -1.6 -1.6 -1.6 -1.6 -1.6 -1.6 -1.6 -1.6 -1.6 -1.6 -1.6 -1.6 -1.6 -1.6 -1.6 -1.6 -1.6 -1.6 -1.6 -1.6 -1.6 -1.6 -1.6 28 31 21.9 29.6 33.6 43.7 31.3 40.6 40 27 10.3 2.2 -1.6 -1.6 -1.6 8.7 28.9 38.6 42.8 45 49 54 49.1 40.2 -1.6 -1.6 -1.6 -1.6 -1.6 3.8 43.7 45.2 32.3 -1.6 42.5 45.8 55.6 70 66.5 69.8 72.7 66.1 55 43.6 28.7 19.5 12.7 7.1 3 4.8 7 13.4 32.8 51.8 48.9 25.2 13.3 12.6 4.3 -1.6 -1.6 -1.6 -1.6 -1.6 -1.6 -1.6 -1.6 -1.6 -1.6 -1.6 -1.6 -1.6 -1.6 -1.6 -1.6 -1.6 -1.6 -1.6 -1.6 -1.6 -1.6 -1.6 -1.6 -1.6 -1.6 -1.6 -1.6 -1.6 -1.6 -1.6 -1.6 -1.6 -1.6 -1.6 -1.6 -1.6 -1.6 -1.6 -1.6 -1.6 -1.6 -1.6 -1.6 -1.6 -1.6 -1.6 -1.6 -1.6 -1.6 -1.6 -1.6 -1.6 -1.6 -1.6 -1.6 -1.6 -1.6 -1.6 -1.6 -1.6 -1.6 -1.6 -1.6 -1.6 -1.6 -1.6 -1.6
-1.6 -1.6 -1.6 -1.6 -1.6 -1.6 -1.6 -1.6 -1.6 -1.6 -1.6 -1.6 -1.6 -1.6 -1.6 -1.6 -1.6 21.8 39.9 34.7 32.4 24.4 -1.6 -1.6 -1.6 -1.6 -1.6 -1.6 -1.6 -1.6 -1.6 -1.6 -1.6 -1.6 -1.6 -1.6 -1.6 -1.6 -1.6 -1.6 -1.6 -1.6 -1.6 -1.6 -1.6 -1.6 -1.6 -1.6 -1.6 -1.6 -1.6 -1.6 -1.6 -1.6 -1.6 -1.6 -1.6 -1.6 -1.6 -1.6 -1.6 -1.6 -1.6 -1.6 -1.6 -1.6 -1.6 -1.6 -1.6 -1.6 -1.6 -1.6 -1.6 39.3 41 37.8 35.9 42.7 49 35.5 41 46.1 30.4 27.1 4.7 -1.6 -1.6 -1.6 2 28.8 42 49.7 58.2 67.5 67.8 59.1 41.5 -1.6 -1.6 -1.6 -1.6 -1.6 -1.6 23 40.5 48.2 31.9 54.1 53.5 57.6 65.7 72.3 73 74.4 66.6 54.4 43.7 35.9 37.9 38.5 23.3 9.3 6.9 5 10.3 26.3 42 50.3 33.9 26.4 28.7 30.4 15.6 -1.6 -1.6 -1.6 -1.6 -1.6 -1.6 2.3 -1.6 -1.6 -1.6 -1.6 -1.6 -1.6 -1.6 -1.6 -1.6 -1.6 -1.6 -1.6 -1.6 -1.6 -1.6 -1.6 -1.6 -1.6 -1.6 -1.6 -1.6 -1.6 -1.6 -1.6 -1.6 -1.6 -1.6 -1.6 -1.6 -1.6 -1.6 -1.6 -1.6 -1.6 -1.6 -1.6 -1.6 -1.6 -1.6 -1.6 -1.6 -1.6 -1.6 -1.6 -1.6 -1.6 -1.6 -1.6 -1.6 -1.6 -1.6 -1.6 -1.6 -1.6 -1.6 -1.6 -1.6 -1.6 -1.6 -1.6
-1.6 -1.6 -1.6 -1.6 -1.6 -1.6 -1.6 -1.6 -1.6 -1.6 -1.6 -1.6 -1.6 -1.6 -1.6 -1.6 11.9 25.3 37.2 35.5 26 22.3 -1.6 -1.6 -1.6 -1.6 -1.6 -1.6 -1.6 -1.6 -1.6 -1.6 -1.6 -1.6 -1.6 -1.6 -1.6 -1.6 -1.6 -1.6 -1.6 -1.6 -1.6 -1.6 -1.6 -1.6 -1.6 -1.6 -1.6 -1.6 -1.6 -1.6 -1.6 -1.6 -1.6 -1.6 -1.6 -1.6 -1.6 -1.6 -1.6 -1.6 -1.6 -1.6 -1.6 -1.6 -1.6 -1.6 -1.6 -1.6 -1.6 -1.6 24.6 43.7 50 40 42.2 43.7 48.6 49.5 50 53.6 43.3 41.8 21.1 -1.6 -1.6 -1.6 7.3 28.5 35 48.3 55.6 69.8 70.8 66.1 42.9 24.8 -1.6 -1.6 -1.6 -1.6 -1.6 10.4 24.4 42.8 61.1 76.9 61.8 63.5 62.4 65.2 67.8 73.3 75.4 60.4 48.3 49 43.8 48.6 35.2 23.5 11.7 6.9 8.7 23.7 34.2 34.3 32 26.8 32.9 36.8 31.7 15.4 -1.6 -1.6 -1.6 5.4 -1.6 30.6 -1.6 -1.6 -1.6 -1.6 -1.6 26.4 -1.6 -1.6 -1.6 -1.6 -1.6 -1.6 -1.6 -1.6 -1.6 -1.6 -1.6 -1.6 -1.6 -1.6 -1.6 -1.6 -1.6 -1.6 -1.6 -1.6 -1.6 -1.6 -1.6 -1.6 -1.6 -1.6 -1.6 -1.6 -1.6 -1.6 -1.6 -1.6 -1.6 -1.6 -1.6 -1.6 -1.6 -1.6 -1.6 -1.6 -1.6 -1.6 -1.6 -1.6 -1.6 -1.6 -1.6 -1.6 -1.6 -1.6 -1.6 -1.6 -1.6 -1.6
-1.6 -1.6 -1.6 -1.6 -1.6 -1.6 -1.6 -1.6 -1.6 -1.6 -1.6 -1.6 -1.6 -1.6 -1.6 -1.6 2.6 24.7 36.3 29.5 15.8 2.2 -1.6 -1.6 -1.6 -1.6 -1.6 -1.6 -1.6 -1.6 -1.6 -1.6 -1.6 -1.6 -1.6 -1.6 -1.6 -1.6 -1.6 -1.6 -1.6 -1.6 -1.6 -1.6 -1.6 -1.6 -1.6 -1.6 -1.6 -1.6 -1.6 -1.6 -1.6 -1.6 -1.6 -1.6 -1.6 -1.6 -1.6 -1.6 -1.6 -1.6 -1.6 -1.6 -1.6 -1.6 -1.6 15 22 18.1 -1.6 32.7 54.2 50.7 52.2 49.6 49.6 47.5 59.3 58.6 61.8 64.4 53 44.8 21.1 -1.6 -1.6 0.5 4.1 25 30.5 40.7 50.7 55.8 61 53.6 44.1 37.6 -1.6 -1.6 -1.6 -1.6 -1.6 13.2 25.1 41.8 50.7 82.1 83.5 75 65.2 64.2 67.6 67.2 65.8 65.4 64.9 56.5 59.7 45.4 41 32.8 26.7 19 6.5 23.8 40.5 36.8 32.5 29.8 31.9 47.2 45.6 34.6 6.5 -1.6 6.2 27.8 36.7 44.4 28.7 9.2 -1.6 -1.6 42.9 46 38 -1.6 -1.6 -1.6 -1.6 -1.6 -1.6 -1.6 -1.6 -1.6 -1.6 -1.6 -1.6 -1.6 -1.6 -1.6 -1.6 -1.6 -1.6 -1.6 -1.6 -1.6 -1.6 -1.6 -1.6 -1.6 -1.6 -1.6 -1.6 -1.6 -1.6 -1.6 -1.6 -1.6 -1.6 -1.6 -1.6 -1.6 -1.6 -1.6 -1.6 -1.6 -1.6 -1.6 -1.6 -1.6 -1.6 -1.6 -1.6 -1.6 -1.6 -1.6 -1.6 -1.6
-1.6 -1.6 6.1 1.4 4 -1.6 -1.6 -1.6 -1.6 -1.6 -1.6 -1.6 -1.6 -1.6 -1.6 7.4 17.7 25.8 41 24.1 5.7 5.4 -1.6 -1.6 -1.6 -1.6 -1.6 -1.6 -1.6 -1.6 -1.6 -1.6 -1.6 -1.6 -1.6 -1.6 -1.6 -1.6 -1.6 -1.6 -1.6 -1.6 -1.6 -1.6 -1.6 -1.6 -1.6 -1.6 -1.6 -1.6 -1.6 -1.6 -1.6 -1.6 -1.6 -1.6 -1.6 -1.6 -1.6 -1.6 -1.6 -1.6 -1.6 -1.6 -1.6 9.9 16.7 25.4 28 26.7 38.6 43.5 60.4 60.5 58.3 59.3 61.6 59.9 68 69.8 66.2 63 50.2 37 20.9 2.3 1.1 1.9 14.7 26.1 34.2 46.1 49.9 58.7 64.3 64.3 61.6 62.5 48.7 19.1 -1.6 -1.6 -1.6 2.2 20.8 40.5 51.8 71.4 89.2 92.8 85.5 70.4 66.6 58.9 60.4 61.9 61.8 56.5 61.2 56.3 49.2 40.5 39.3 30.6 11.5 11.5 44.9 41.2 43.8 44.5 47.8 49.4 48.4 34.3 15.7 3.7 19.6 31 37.8 42.2 39.9 46.4 38 33.4 2.1 46.3 43.5 -1.6 -1.6 -1.6 -1.6 -1.6 -1.6 -1.6 -1.6 -1.6 -1.6 -1.6 -1.6 -1.6 -1.6 -1.6 -1.6 -1.6 -1.6 -1.6 -1.6 -1.6 -1.6 -1.6 -1.6 -1.6 -1.6 -1.6 -1.6 -1.6 -1.6 -1.6 -1.6 -1.6 -1.6 -1.6 -1.6 -1.6 -1.6 -1.6 -1.6 -1.6 -1.6 -1.6 -1.6 -1.6 -1.6 -1.6 -1.6 -1.6 -1.6 -1.6 -1.6 -1.6
9.4 -1.6 16.6 12.8 9.7 -1.6 -1.6 -1.6 -1.6 -1.6 -1.6 -1.6 -1.6 -1.6 -1.6 7.6 3.9 21.8 29.3 9.7 -1.6 -1.6 -1.6 -1.6 -1.6 -1.6 -1.6 -1.6 -1.6 -1.6 -1.6 -1.6 -1.6 -1.6 -1.6 -1.6 -1.6 -1.6 -1.6 -1.6 -1.6 -1.6 -1.6 -1.6 -1.6 -1.6 -1.6 -1.6 -1.6 -1.6 -1.6 -1.6 -1.6 -1.6 -1.6 -1.6 -1.6 -1.6 -1.6 -1.6 -1.6 -1.6 -1.6 2.3 6.7 22.3 23.2 26.1 35.5 32.2 40.9 50 61.7 65 63.8 66.1 68.7 68.2 71.6 79.7 82.6 77 71 54.9 35.2 4 2.4 3.7 6 27.6 41.3 43.8 54.3 59.4 65.2 69.3 69.2 64.6 60.9 38.1 9.8 -1.6 -1.6 1.3 23.8 43.5 44.3 55.6 78 89.9 88.9 88 75.7 71 65.8 54.9 55.5 67.5 67.9 52.8 53.8 47 44.7 33.3 18.7 8.8 35.4 47.7 51.6 54.1 55.8 55.1 51.1 42.4 22.6 19.8 24.7 32.9 37.6 43.4 43.3 50.1 50.1 41.5 40.3 55.8 52.6 -1.6 -1.6 -1.6 -1.6 -1.6 -1.6 -1.6 -1.6 -1.6 -1.6 -1.6 -1.6 -1.6 -1.6 -1.6 -1.6 -1.6 -1.6 -1.6 -1.6 -1.6 -1.6 -1.6 -1.6 -1.6 -1.6 -1.6 -1.6 -1.6 -1.6 -1.6 -1.6 -1.6 -1.6 -1.6 -1.6 -1.6 -1.6 -1.6 -1.6 -1.6 -1.6 -1.6 -1.6 -1.6 -1.6 -1.6 -1.6 -1.6 -1.6 -1.6 -1.6 -1.6
18.5 8.1 11.3 14.2 9.7 -1.6 -1.6 -1.6 -1.6 -1.6 -1.6 -1.6 -1.6 12.6 16.7 17.4 20.9 30.4 28.8 16 -1.6 -1.6 -1.6 -1.6 -1.6 -1.6 -1.6 -1.6 -1.6 -1.6 -1.6 -1.6 -1.6 -1.6 -1.6 -1.6 -1.6 -1.6 -1.6 -1.6 -1.6 -1.6 -1.6 -1.6 -1.6 -1.6 -1.6 -1.6 -1.6 -1.6 -1.6 -1.6 -1.6 -1.6 -1.6 -1.6 -1.6 -1.6 -1.6 -1.6 -1.6 -1.6 4.5 2.4 10.8 29.7 31.8 29.3 36 30 42.9 55.8 64.5 67.4 69.2 71.4 74.5 73.6 77.7 87 88.9 82.8 76.8 60.4 38.9 18.9 3.4 5.1 16.3 22.8 33.6 41.9 47.6 60.1 66.4 67.3 75.8 68.7 62.1 49.5 36.1 -1.6 -1.6 1.9 19.7 45.9 44.3 48.2 54.8 83 90.5 89.5 91.7 74.5 63.6 53.3 53.3 66.4 68.5 57.4 49.6 43.3 37 23.4 11.7 9.9 29.3 37.1 52.5 56.3 59.6 53.6 51.2 36.6 24.3 22.7 24.8 34.2 40.8 48.6 55.4 50.2 53.7 53.6 44.7 45.7 4.5 18 56.5 49.3 -1.6 28.1 -1.6 -1.6 -1.6 -1.6 -1.6 -1.6 -1.6 -1.6 -1.6 -1.6 -1.6 -1.6 -1.6 -1.6 -1.6 -1.6 -1.6 -1.6 -1.6 -1.6 -1.6 -1.6 -1.6 -1.6 -1.6 -1.6 -1.6 -1.6 -1.6 -1.6 -1.6 -1.6 -1.6 -1.6 -1.6 -1.6 -1.6 -1.6 -1.6 -1.6 -1.6 -1.6 -1.6 -1.6 -1.6 -1.6 -1.6 -1.6
19.2 23.9 24.4 20.4 18.1 -1.6 -1.6 -1.6 -1.6 -1.6 -1.6 -1.6 9.6 18.2 20.1 19.5 24.5 37.9 27 11.3 5.8 -1.6 -1.6 -1.6 -1.6 -1.6 -1.6 -1.6 -1.6 -1.6 -1.6 -1.6 -1.6 -1.6 -1.6 -1.6 -1.6 -1.6 -1.6 -1.6 -1.6 -1.6 -1.6 -1.6 -1.6 -1.6 -1.6 -1.6 -1.6 -1.6 -1.6 -1.6 -1.6 -1.6 -1.6 -1.6 -1.6 -1.6 -1.6 0.9 -1.6 -1.6 2.4 5.4 14.1 25.6 32.2 33.4 36.2 31.1 45.7 57.8 67.1 71.4 73.4 76 78.1 77.4 82.1 89.8 93.5 91.3 79.1 63.5 53.5 23.9 4.7 5.1 17.3 29 37.8 46 48.5 54.1 58.4 60.5 64.5 61.1 53 42.9 32.4 10.9 2.1 9.4 16.3 39.5 56.5 46.6 49.7 69.4 85.1 86.7 84.2 80.1 72.1 67 55.5 51.2 51 50.2 46.3 32.1 16.4 11.2 9.9 9.2 26.7 31.6 44.2 51.8 59 61.7 52.4 38.3 26.7 24 25 29.1 41.6 44.6 58.8 59.3 56.5 65.2 56.7 44.3 44.6 69.3 66.7 61.8 33.5 6.2 6.1 -1.6 -1.6 -1.6 -1.6 -1.6 -1.6 -1.6 -1.6 -1.6 -1.6 -1.6 -1.6 -1.6 -1.6 -1.6 -1.6 -1.6 -1.6 -1.6 -1.6 -1.6 -1.6 -1.6 -1.6 -1.6 -1.6 -1.6 -1.6 -1.6 -1.6 -1.6 -1.6 -1.6 -1.6 -1.6 -1.6 -1.6 -1.6 -1.6 -1.6 -1.6 -1.6 -1.6 -1.6 -1.6 -1.6 -1.6
21.9 29.5 30.1 22.9 21.6 9.2 -1.6 -1.6 -1.6 -1.6 -1.6 -1.6 5.7 19.5 20.8 20.6 24 36.8 28.9 -1.6 -1.6 -1.6 -1.6 -1.6 -1.6 -1.6 -1.6 -1.6 -1.6 -1.6 -1.6 -1.6 -1.6 -1.6 -1.6 -1.6 -1.6 -1.6 -1.6 -1.6 -1.6 -1.6 -1.6 -1.6 -1.6 -1.6 -1.6 -1.6 -1.6 -1.6 -1.6 -1.6 -1.6 -1.6 -1.6 -1.6 -1.6 -1.6 1.6 2.3 3 4.5 13.2 14.7 16.3 28.4 29.8 42.9 41.5 34.9 38.3 49.7 67.5 72.7 76.5 78.4 82.6 79.5 87 91.9 97 93.3 79 73.3 55.3 30 8.6 5.8 17.2 30.5 45.2 55.3 62.2 64.3 70.3 69.5 65.9 57.3 52.6 42.4 27.9 9.7 14.9 16.1 17.8 28.3 42.9 44.2 44.7 52.3 77.4 81.2 86.6 78.1 74.1 75.8 75 60.8 43.1 38.8 32.6 17.9 12.1 10.6 9.9 9.3 12.9 23.3 35.1 45 53.2 59.4 49.5 40.4 28.2 24.5 26 28.3 36 47 50.5 62.6 64.3 67.2 63.7 55.7 59.9 62.5 70.5 60.5 47.9 40.3 39.9 30.2 -1.6 -1.6 -1.6 -1.6 -1.6 -1.6 -1.6 -1.6 -1.6 -1.6 -1.6 -1.6 -1.6 -1.6 -1.6 -1.6 -1.6 -1.6 -1.6 -1.6 -1.6 -1.6 -1.6 -1.6 -1.6 -1.6 -1.6 -1.6 -1.6 -1.6 -1.6 -1.6 -1.6 -1.6 -1.6 -1.6 -1.6 -1.6 -1.6 -1.6 -1.6 -1.6 -1.6 -1.6 -1.6 -1.6
1.4 38.4 30 23.6 22.7 18.5 -1.6 -1.6 -1.6 -1.6 -1.6 -1.6 5.5 19.1 20.8 19.3 22.1 31.2 29.4 -1.6 -1.6 -1.6 -1.6 -1.6 -1.6 -1.6 -1.6 -1.6 -1.6 -1.6 -1.6 -1.6 -1.6 -1.6 -1.6 -1.6 -1.6 -1.6 -1.6 -1.6 -1.6 -1.6 -1.6 -1.6 -1.6 -1.6 -1.6 -1.6 -1.6 -1.6 -1.6 -1.6 -1.6 -1.6 -1.6 -1.6 -1.6 -1.6 2.2 2.3 2 4.9 12.5 12.2 15.3 21.4 22 33.3 38 35.1 35.3 37.2 61.3 71.3 77.5 78.4 80.2 80.6 83.3 88.9 98.9 99.1 81.5 75.4 53.2 28.7 7.8 7.1 18.1 29 49.7 61.6 68.6 69.3 75.3 74.2 71.3 65.1 55.4 52.9 40.5 12.1 30.2 30.2 27.8 30.6 34.7 33.6 36.6 40.5 60.6 74.1 79.4 80.7 81.3 72.7 73.2 74 63.4 37.5 22.6 15.7 11.8 10.6 9.9 9.4 9.9 12 27 35.8 46.3 60.8 62.3 52.9 39.3 31.8 29.2 28.3 28.6 35.3 51.1 55.5 67.8 68.9 63.6 63.8 63.6 61.6 64.4 56.5 50.2 45.7 47 41.2 37.4 28.1 15.6 -1.6 -1.6 -1.6 -1.6 -1.6 -1.6 -1.6 -1.6 -1.6 -1.6 -1.6 -1.6 -1.6 -1.6 -1.6 -1.6 -1.6 -1.6 -1.6 -1.6 -1.6 -1.6 -1.6 -1.6 -1.6 -1.6 -1.6 -1.6 -1.6 -1.6 -1.6 -1.6 -1.6 -1.6 -1.6 -1.6 -1.6 -1.6 -1.6 -1.6 -1.6 -1.6 -1.6
20.1 35.1 28.8 26.2 33.3 29.5 18 5.7 -1.6 -1.6 -1.6 -1.6 2 15.6 16 14.2 18.6 26.7 24.7 -1.6 -1.6 -1.6 -1.6 -1.6 -1.6 -1.6 -1.6 -1.6 -1.6 -1.6 -1.6 -1.6 -1.6 -1.6 -1.6 -1.6 -1.6 -1.6 -1.6 -1.6 -1.6 -1.6 -1.6 -1.6 -1.6 -1.6 -1.6 -1.6 -1.6 -1.6 -1.6 -1.6 -1.6 -1.6 -1.6 -1.6 -1.6 -1.6 4.1 6.5 15.2 7 7.9 5.9 6 15.3 16.5 42.5 41.3 36.2 35.2 45.8 67.4 73 76.8 81.1 81 82.5 89.8 92.5 102.3 97.9 85.4 65.1 47.9 26.1 8.1 8.2 18.5 32.2 47.5 61.1 71.7 76.4 80.5 79 86.7 71.8 70.4 76.5 47.8 27.1 39.1 44 49.7 51.3 45.7 44.7 35.6 36.6 43.2 52.7 71.3 75.6 80.1 76.2 67.9 68 69.5 61.3 27.1 20.8 14 11 9.9 9.6 9.7 10.3 15.7 25.8 35.9 49.4 71.2 73 61.5 47.6 36 29.3 28.6 33.8 46.4 54.9 65.9 75.1 75.1 79.8 78.6 71 70.8 54.6 52.2 52.6 51.1 49.2 51.2 45.3 31.2 27.6 -1.6 -1.6 -1.6 -1.6 -1.6 -1.6 -1.6 -1.6 -1.6 -1.6 -1.6 -1.6 -1.6 -1.6 -1.6 -1.6 -1.6 -1.6 -1.6 -1.6 -1.6 -1.6 -1.6 -1.6 -1.6 -1.6 -1.6 -1.6 -1.6 -1.6 -1.6 -1.6 -1.6 -1.6 -1.6 -1.6 -1.6 -1.6 -1.6 -1.6 -1.6 -1.6
38.5 33.8 38.2 34.7 37.6 35.5 29.3 12.2 5.2 -1.6 -1.6 -1.6 -1.6 11.7 13.9 11.3 15.8 19.9 17.9 -1.6 -1.6 -1.6 -1.6 -1.6 -1.6 -1.6 -1.6 -1.6 -1.6 -1.6 -1.6 -1.6 -1.6 -1.6 -1.6 -1.6 -1.6 -1.6 -1.6 -1.6 -1.6 -1.6 -1.6 -1.6 -1.6 -1.6 -1.6 -1.6 -1.6 -1.6 -1.6 -1.6 -1.6 -1.6 -1.6 -1.6 -1.6 -1.6 25.3 19.6 16.4 12.4 8.3 8.6 14.4 12.6 20.2 44.2 46.1 40.2 38.4 56.5 69.4 78.7 80.5 84.4 83.9 85.3 91.1 98.9 102.5 99.6 80.4 65.1 48 25.9 18.2 9 19.4 37.2 53.4 61.9 74.5 78.1 84.5 85.9 89 81.7 77.6 76.5 67.2 41.8 34.6 66.6 70.3 64 59.3 55.3 58.1 48.3 43.6 47.1 48.4 57.2 66.1 69 67.6 60.8 59.3 51.8 37.2 27.4 22.5 14.9 10.4 10 10.4 10.2 10.6 16.2 26.9 43.5 62.6 66 75.1 62.9 53.7 33.9 29.3 34.2 42.4 54.2 71 81.4 81.7 85.3 83.1 82.8 80.6 74.6 60.3 57.6 54.5 54.2 55.3 52.3 51.5 34.1 10.9 -1.6 -1.6 -1.6 -1.6 -1.6 -1.6 -1.6 -1.6 -1.6 -1.6 -1.6 -1.6 -1.6 -1.6 -1.6 -1.6 -1.6 -1.6 -1.6 -1.6 -1.6 -1.6 -1.6 -1.6 -1.6 -1.6 -1.6 -1.6 -1.6 -1.6 -1.6 -1.6 -1.6 -1.6 6.2 27.1 21.4 -1.6 -1.6 -1.6 -1.6
36.1 37.9 37 37.1 38.3 39.7 29.3 14.8 5.8 2.3 1.4 -1.6 -1.6 1.8 1.8 2 12.4 15.3 13.9 -1.6 -1.6 -1.6 -1.6 -1.6 -1.6 -1.6 -1.6 -1.6 -1.6 -1.6 -1.6 -1.6 -1.6 -1.6 -1.6 -1.6 -1.6 -1.6 -1.6 -1.6 -1.6 -1.6 -1.6 -1.6 -1.6 -1.6 -1.6 -1.6 -1.6 -1.6 -1.6 -1.6 -1.6 -1.6 -1.6 -1.6 25.3 29.5 29.3 25 15.4 11.7 9.6 18 26.7 24.2 32.7 46.3 47.4 49.5 42.6 66.2 78.1 84.3 86.7 86.5 88.2 91.1 91.5 97.9 101 93.8 85 63.8 43.8 26 19.7 9.3 19.2 36.1 46.7 65.1 79.4 80.3 83.5 88.6 95.3 88.7 79.3 79.9 67.8 45.8 54.9 77.1 77.7 78.9 67.4 59.6 62.6 56.4 49.7 55.5 50.9 45.9 55.1 53.7 48.9 50.6 50.7 46.1 40.9 35.2 28.7 23.6 11.9 10.4 10.3 10.8 10.3 10.6 21.2 33.8 51.3 60.7 64.5 64.9 57.4 36.3 29.2 36.6 41.8 50.7 75 85.1 86.6 85.9 88.6 87.4 86.8 87.5 77.2 55.7 55.3 55.6 62.7 63.7 53.8 52.8 40.3 45.2 52.7 47.2 -1.6 -1.6 -1.6 -1.6 -1.6 -1.6 -1.6 -1.6 -1.6 -1.6 -1.6 -1.6 -1.6 -1.6 -1.6 -1.6 -1.6 -1.6 -1.6 -1.6 -1.6 -1.6 -1.6 -1.6 -1.6 -1.6 -1.6 -1.6 -1.6 -1.6 -1.6 5.9 17.3 25 1 -1.6 -1.6 -1.6
24.2 32.5 36.1 38.4 42.9 40.2 34.7 24.9 9.6 1.7 1.9 0.7 -1.6 -0.1 -1.6 -1.6 5.2 -1.6 -1.6 -1.6 -1.6 -1.6 -1.6 -1.6 -1.6 -1.6 -1.6 -1.6 -1.6 -1.6 -1.6 -1.6 -1.6 -1.6 -1.6 -1.6 -1.6 -1.6 -1.6 -1.6 -1.6 -1.6 -1.6 -1.6 -1.6 -1.6 -1.6 -1.6 -1.6 -1.6 -1.6 -1.6 -1.6 -1.6 -1.6 17.8 36.6 29.6 34.5 19.5 19.3 15.4 18.5 13.3 32.2 35 41.2 52.3 55.8 53.3 50 69.3 83.5 86.8 90.5 89 89.4 94.4 95.2 95.9 98.2 87.6 75.5 60.7 40.7 25.7 21 13.2 19 34.2 44 56.6 67 73.9 81.1 88.4 95.5 97 87.1 72.8 62.2 40 69.4 82.9 77.9 78.4 81.6 68.3 64.2 56.7 47 49.9 51.8 42 36.2 41.1 40.7 35.3 35.1 38.1 41.1 39.2 35.7 35.7 25.8 11.4 11.2 11.2 10.8 10.7 14.3 24.9 40.3 50.7 54.7 53.8 44.1 29.5 28 39.1 43.9 49 70.4 83 88.7 91.1 87.8 87.3 88 88.5 89.4 72 56.1 57.1 72.5 67.6 62.3 51.5 47.8 53 49.1 45.4 1.9 -1.6 -1.6 -1.6 -1.6 -1.6 -1.6 -1.6 -1.6 -1.6 -1.6 -1.6 -1.6 -1.6 -1.6 -1.6 -1.6 -1.6 -1.6 -1.6 -1.6 -1.6 -1.6 -1.6 -1.6 -1.6 -1.6 -1.6 -1.6 -1.6 1.6 5.3 17.3 23.9 8.7 -1.6 -1.6 -1.6
23.4 32.9 34.9 40 38.7 35.5 35.7 26.5 13.2 3.4 1.9 0.1 -1.6 -1.6 -1.6 -1.6 -1.6 -1.6 -1.6 -1.6 -1.6 -1.6 -1.6 -1.6 -1.6 -1.6 -1.6 -1.6 -1.6 -1.6 -1.6 -1.6 -1.6 -1.6 -1.6 -1.6 -1.6 -1.6 -1.6 -1.6 -1.6 -1.6 -1.6 -1.6 -1.6 -1.6 -1.6 -1.6 -1.6 -1.6 -1.6 -1.6 -1.6 -1.6 1.7 23.2 43.4 37.3 34.8 25.8 19 25 24.2 25.6 30.2 40.3 44.5 55.9 59.2 59.4 59.7 68.5 79.4 83.2 87.7 90.6 89.4 94.2 94.3 94.5 95.3 84.4 68.6 54.2 39.6 27.3 22.4 14.2 16.5 33.4 41.3 51.1 61.8 80.4 81.8 93.2 96.9 104.1 98.7 84.3 65.7 59 66.2 77.1 73 72.4 74.5 74.8 67.3 58.9 48.2 48.7 39.5 37.4 38.7 36.4 29 26.4 25.4 27.7 32.9 48 47.6 48.9 42.2 20.8 12 11.5 10.9 10.9 10.7 16.2 26.9 39 45.5 42.8 33.9 20.7 26.4 42 48.3 49.2 56.1 79.7 87.5 89.7 88.2 90.4 92.3 82.4 83.7 77.7 68.4 58 66.8 73.7 67.2 54 51.7 56.5 52 43 28.9 -1.6 -1.6 -1.6 -1.6 -1.6 -1.6 -1.6 -1.6 -1.6 -1.6 -1.6 -1.6 -1.6 -1.6 -1.6 -1.6 -1.6 -1.6 -1.6 -1.6 -1.6 -1.6 -1.6 -1.6 -1.6 -1.6 -1.6 -1.6 -1.6 -1.6 2.4 26.4 36.2 43.4 45.2 -1.6 -1.6
18.6 23.8 31.6 36.6 32.2 29.5 32 25.7 19.6 2.1 0.5 -1.6 -1.6 -1.6 -1.6 -1.6 -1.6 -1.6 -1.6 -1.6 -1.6 -1.6 -1.6 -1.6 -1.6 -1.6 -1.6 -1.6 -1.6 -1.6 -1.6 -1.6 -1.6 -1.6 -1.6 -1.6 -1.6 -1.6 -1.6 -1.6 -1.6 -1.6 -1.6 -1.6 -1.6 -1.6 -1.6 -1.6 -1.6 -1.6 -1.6 -1.6 -1.6 -1.6 21.4 34.1 49.1 41.6 35.6 28.3 26.8 29.1 26.9 31.9 25 39.3 47.5 57 56.2 60.2 64.2 78.8 88.7 92.8 96.6 96.9 94.3 89.4 89.2 89.8 86.6 74 56.3 44.8 36.2 30.1 22.7 14.8 15.5 30.2 38.3 48.8 60.7 76.4 84.3 95.5 106.7 113.2 104.8 93.4 68.2 51.1 58.8 64.7 70.2 74.2 73.8 75 69.6 55.2 51.6 56.8 45.3 40.3 44.8 42.5 31.7 23.1 22.1 20.5 22.3 32.1 43.3 41.3 36.6 26.4 12.4 11.6 10.7 9.6 10.5 10.3 13.6 19.6 26 26.7 20.1 14 27.4 41.1 47.5 50.6 53.7 66.9 81.9 88.1 84.9 88.2 87.1 80.4 78.3 76.5 77.4 59.1 63.5 69.6 64.5 60 61.6 59.5 51.9 42.8 24.4 -1.6 -1.6 -1.6 -1.6 -1.6 -1.6 -1.6 -1.6 -1.6 -1.6 -1.6 -1.6 -1.6 -1.6 -1.6 -1.6 -1.6 -1.6 -1.6 -1.6 -1.6 -1.6 -1.6 -1.6 -1.6 -1.6 -1.6 -1.6 -1.6 -1.6 3.5 29 39.3 47.3 59.5 44.4 -1.6
-1.6 12.1 28.3 34 25.1 25.1 31.2 24.5 18.2 2 -1.6 -1.6 -1.6 -1.6 -1.6 -1.6 -1.6 -1.6 -1.6 -1.6 -1.6 -1.6 -1.6 -1.6 -1.6 -1.6 -1.6 -1.6 -1.6 -1.6 -1.6 -1.6 -1.6 -1.6 -1.6 -1.6 -1.6 -1.6 -1.6 -1.6 -1.6 -1.6 -1.6 -1.6 -1.6 -1.6 -1.6 -1.6 -1.6 -1.6 -1.6 -1.6 16.6 19.5 36.8 37 48.5 44 42.7 29.8 38.3 29.5 38 33.6 28.3 39.4 46 56.4 57.6 63.8 71.3 79.3 89.8 94 98.8 98.6 97.6 94 90.2 90.5 87 65.1 54.2 42.1 36.4 31 18.4 17.1 16.1 23.8 36.2 46.7 58.7 71.6 81.5 92.2 109.1 110 105.7 96.9 82.8 57.9 55.1 63 70.3 78.3 74.2 79.2 78.7 63.1 53.9 58.7 56.4 63.7 49.6 39.9 38.2 34 25.9 21.3 18 18.3 19.3 22.6 23.4 28.7 20 12.1 11.1 10.8 11.1 11.4 11.2 10 11.9 11.8 11.5 11.7 21.3 35.4 42.5 47.5 52.4 58.8 69.4 76.4 78.5 83.7 82.9 80.3 78.8 80.7 75.9 67 59.8 60.7 60.3 58 56.3 54.1 45.1 32.5 23.4 -1.6 -1.6 -1.6 -1.6 -1.6 -1.6 -1.6 -1.6 -1.6 -1.6 -1.6 -1.6 -1.6 -1.6 -1.6 -1.6 -1.6 -1.6 -1.6 -1.6 -1.6 -1.6 -1.6 -1.6 -1.6 -1.6 -1.6 -1.6 -1.6 -1.6 10.8 27.7 33.9 51.2 67.7 70.1 63.3
-1.6 -1.6 12.7 8.4 8.1 15.2 18.8 20.5 15.1 2 -1.6 -1.6 -1.6 -1.6 -1.6 -1.6 -1.6 -1.6 -1.6 -1.6 -1.6 -1.6 -1.6 -1.6 -1.6 -1.6 -1.6 -1.6 -1.6 -1.6 -1.6 -1.6 -1.6 -1.6 -1.6 -1.6 -1.6 -1.6 -1.6 -1.6 -1.6 -1.6 -1.6 -1.6 -1.6 -1.6 -1.6 -1.6 -1.6 -1.6 -1.6 -1.6 28 35.9 39.6 44.6 47.7 45.9 41.5 31.1 40.1 31.4 38.8 37.9 36.3 33.1 44.7 56.4 58.3 64.3 76.3 80.3 92.1 95.8 98.4 98.6 97.6 92.8 89.9 89.2 79.8 71.4 52.6 47.1 40.4 33.1 25 19.4 18.5 20 35.7 43.8 48.8 64.9 79.2 85 103.4 105.1 101.8 96.5 81.5 66.3 51.4 60.6 69.2 71.2 71.6 73.6 73.1 69.7 55.6 57.5 62 68.9 67.1 54.1 39.8 49.1 51.9 25.5 28.7 17.2 15.4 14.6 14.2 13.6 12.9 12 11.3 11.1 11.3 11.1 11.1 10.7 10.8 10.6 10.7 10.7 12.4 27 35.8 41.7 47.9 55.6 61.8 70.9 75.9 82.6 84.5 83.8 84 84.9 83.9 80.4 72.4 60.9 63.5 59.6 53.1 52.6 39.6 31.9 24.9 1.9 -1.6 -1.6 -1.6 -1.6 -1.6 -1.6 -1.6 -1.6 -1.6 -1.6 -1.6 -1.6 -1.6 -1.6 -1.6 -1.6 -1.6 -1.6 -1.6 -1.6 -1.6 -1.6 -1.6 -1.6 -1.6 -1.6 -1.6 -1.6 -1.6 13.8 25.1 33.6 50.4 65 76.1 71
-1.6 -1.6 -1.6 0.5 1.5 2.2 18.1 16.7 13.8 7.1 -1.6 -1.6 -1.6 -1.6 -1.6 -1.6 -1.6 -1.6 -1.6 -1.6 -1.6 -1.6 -1.6 -1.6 -1.6 -1.6 -1.6 -1.6 -1.6 -1.6 -1.6 -1.6 -1.6 -1.6 -1.6 -1.6 -1.6 -1.6 -1.6 -1.6 -1.6 -1.6 -1.6 -1.6 -1.6 -1.6 -1.6 -1.6 -1.6 -1.6 -1.6 -1.6 41.5 46.9 47 51.4 55.5 47.4 36.6 36.1 39 35.5 41.7 41.7 39.9 33.9 42.7 54 58.8 68.1 78.3 81.6 91.1 95.3 97.1 98.6 97.9 94 90.8 87.8 89 76.7 65.2 59.5 48.4 44.1 31.8 23.6 23.2 18.9 39.3 45.1 49.1 55.1 72.1 81.5 87 99.3 97 88.4 71.7 70.9 57.6 55.9 64.2 68.1 67.8 69.6 70 71.4 65.2 56.2 62.7 74.3 77.6 66.6 52.4 52.6 56.7 59.6 48.7 36.3 21.4 17.2 14 13.3 12.6 12.3 12.2 11.7 11.6 11.3 11 10.8 10.4 10.5 10.6 10.7 11.1 18.2 30.3 37.4 43.9 51 60.8 64.8 70.8 77.1 84.9 84.9 81.8 82 85.1 86.1 86.5 81.1 67 62.3 53.6 49.9 40.3 33.7 26.2 28.3 21.2 -1.6 -1.6 -1.6 -1.6 -1.6 -1.6 -1.6 -1.6 -1.6 -1.6 -1.6 -1.6 -1.6 -1.6 -1.6 -1.6 -1.6 -1.6 -1.6 -1.6 -1.6 -1.6 -1.6 -1.6 -1.6 -1.6 -1.6 -1.6 19.9 30.3 34.7 49.5 65.5 73.7 76.2
-1.6 -1.6 -1.6 -0.9 0.2 0.6 8.4 6.9 3.2 6.2 -1.6 -1.6 -1.6 -1.6 -1.6 -1.6 -1.6 -1.6 -1.6 -1.6 -1.6 -1.6 -1.6 -1.6 -1.6 -1.6 -1.6 -1.6 -1.6 -1.6 -1.6 -1.6 -1.6 -1.6 -1.6 -1.6 -1.6 -1.6 -1.6 -1.6 -1.6 -1.6 -1.6 -1.6 -1.6 -1.6 -1.6 -1.6 -1.6 -1.6 14.8 2.7 2.2 49.2 52.3 59.8 58.6 49.4 40 40.7 49.8 41.4 44.3 42.8 43.9 43.8 38.9 52.2 57 66.5 81.3 83.7 93.1 95.5 97.1 98.7 98.9 95.9 91.7 88 88.2 78.8 74.2 69.2 64.9 48.2 43.2 29.9 25.2 23.3 45.5 53.5 53.5 61.4 63 74.8 80.5 85.8 85.9 84.6 80.4 66 56.5 53.6 59.9 61.5 64.7 65.9 65 66.7 65.9 58.5 62.7 80 77.3 69.7 61 53.8 56.4 59.5 72.2 72.4 59.2 22.9 19.1 15.6 13.7 13.2 12.9 12.3 12 11.8 11.8 11.3 10.6 10.5 10.5 10.6 10.8 12.9 23.1 30.7 38.7 46.4 54.4 58.9 59.6 68.6 70.9 76.6 77.8 79.9 81.9 85 92.3 89 83.4 79.1 66.2 52.4 46.4 40.3 30.4 30.3 26.8 25.9 -1.6 -1.6 -1.6 -1.6 -1.6 -1.6 -1.6 -1.6 -1.6 -1.6 -1.6 -1.6 -1.6 -1.6 -1.6 -1.6 -1.6 -1.6 -1.6 -1.6 -1.6 -1.6 -1.6 -1.6 -1.6 -1.6 -1.6 -1.6 30.5 37.1 47.6 56.6 67.4 78
-1.6 -1.6 -1.6 -1.6 -1.2 -1.6 -1.6 -1.6 -1.6 8.9 -1.6 -1.6 -1.6 -1.6 -1.6 -1.6 -1.6 -1.6 -1.6 -1.6 -1.6 -1.6 -1.6 -1.6 -1.6 -1.6 -1.6 -1.6 -1.6 -1.6 -1.6 -1.6 -1.6 -1.6 -1.6 -1.6 -1.6 -1.6 -1.6 -1.6 -1.6 -1.6 -1.6 -1.6 -1.6 -1.6 -1.6 -1.6 -1.6 15.4 23.8 40.4 44.7 49.9 57.2 62.1 59.5 60.9 50.6 52.2 53 47.4 44 45.2 50.5 46 41.8 53 56.6 63.9 82.6 86.2 93.5 94.6 95.7 95.8 98.6 95.8 89.5 88.6 87.6 82.8 79.1 71 65.1 53.8 45.8 40 24.5 41.4 51.8 64.1 69.7 72.6 72.9 70.1 74.1 75.8 78.3 80.3 82.5 67.9 55.5 53.6 59.4 59.5 64.4 63.3 64.5 63.4 63.3 64.3 61.9 77.9 76.4 69.9 62.3 59.5 59.6 66.5 86.1 78.4 61 37.2 30.5 22.1 15.3 14.8 14.2 13.4 13.4 13.1 13 12.6 11 10.5 10.5 10.7 11 11.9 15.3 23.5 33.3 42.5 49.8 53.6 55.2 58.8 61.3 68.5 73.6 77.4 86.7 88.6 90.6 94.3 94.9 87.2 76.5 66.4 55.5 46.9 40.3 34.5 31.5 24.9 5.2 -1.6 -1.6 -1.6 -1.6 -1.6 -1.6 -1.6 -1.6 -1.6 -1.6 -1.6 -1.6 -1.6 -1.6 -1.6 -1.6 -1.6 -1.6 -1.6 -1.6 -1.6 -1.6 -1.6 -1.6 -1.6 -1.6 26.2 31.1 37.7 44.8 54.4 61.7 82.6
-1.6 -1.6 -1.6 -1.6 -1.6 -1.6 -1.6 -1.6 -1.6 0.3 -1.6 -1.6 -1.6 -1.6 -1.6 -1.6 -1.6 -1.6 -1.6 -1.6 -1.6 -1.6 -1.6 -1.6 -1.6 -1.6 -1.6 -1.6 -1.6 -1.6 -1.6 -1.6 -1.6 -1.6 -1.6 -1.6 -1.6 -1.6 -1.6 -1.6 -1.6 -1.6 -1.6 -1.6 -1.6 -1.6 -1.6 -1.6 -1.6 35.2 27.8 43.9 53.3 54.4 56.9 63.5 66.8 69.5 55.1 56.6 55.5 49.4 47.3 45.1 46.5 46 43.2 54.9 57.8 67.7 80.8 89 90.6 94.1 95.8 94.2 95.2 96.9 89.8 89.1 88.2 85.6 82.4 73.3 66.7 60.6 51.2 37.7 28.6 48.6 64.3 78.4 83 88.5 95.2 92.2 91.9 78.3 77.2 76.9 69.6 66.7 55.5 54.2 55.7 60.2 61.7 64.8 64 63.2 60.6 61.8 61.1 70.9 75.5 73.5 67.1 63.3 64.7 77.9 91.3 83.7 68.8 48.3 32 26.1 17.9 19.2 22.1 23.7 18.7 18.5 17 16.2 12.7 11.5 10.7 10.9 11.2 11.6 11.8 17.1 27.9 39 46.9 50.7 49.9 54.5 58.5 67.9 70.2 74.7 86.1 91.3 94.9 93.6 95.4 94.8 87.9 76.5 65.8 58.2 53.2 42.4 38.1 28 11 -1.6 -1.6 -1.6 -1.6 -1.6 -1.6 -1.6 -1.6 -1.6 -1.6 -1.6 -1.6 -1.6 -1.6 -1.6 -1.6 -1.6 -1.6 -1.6 -1.6 -1.6 -1.6 -1.6 -1.6 -1.6 -1.6 26.3 35.8 42.9 43.6 49.9 63.8 79.5
-1.6 -1.6 -1.6 -1.6 -1.6 -1.6 -1.6 -1.6 -1.6 -1.6 -1.6 -1.6 -1.6 -1.6 -1.6 -1.6 -1.6 -1.6 -1.6 -1.6 -1.6 -1.6 -1.6 -1.6 -1.6 -1.6 -1.6 -1.6 -1.6 -1.6 -1.6 -1.6 -1.6 -1.6 -1.6 -1.6 -1.6 -1.6 -1.6 -1.6 -1.6 -1.6 -1.6 -1.6 -1.6 -1.6 -1.6 -1.6 22.4 41.2 45 42.3 58.2 62 65.1 68.9 65.5 67.4 62.8 64.6 53.9 52.2 49.8 46.7 46.7 46.7 46.6 54.5 56 70.8 80.1 86.6 92.9 94 94.9 93.2 94.9 94.4 90.5 89.7 91.1 85.3 80.9 74 70 67.7 53.6 34 36.7 55 70.3 81 88.8 95.3 101 102 106.8 104.5 97.5 90.5 72.5 64.6 56.2 54.3 56.8 61.7 62.9 63.3 63.4 63.3 61.5 61.1 62.3 68.7 74.9 75.5 69.3 68.2 70.7 82.6 86.5 84.2 71 56.6 45.2 28.5 21.6 24.2 33.1 48.8 31.7 29.5 27.9 26.5 25 22 23.2 16.3 11.8 11.5 11.4 12.9 22.8 33.5 42.8 47 47.5 50 58.6 67.2 74.9 77.1 85.2 88.6 98.4 96.5 94.4 96.1 95.4 88.1 73.7 58.7 59.4 52.9 45.1 35.5 19.2 11.3 -1.6 -1.6 -1.6 -1.6 -1.6 -1.6 -1.6 -1.6 -1.6 -1.6 -1.6 -1.6 -1.6 -1.6 -1.6 -1.6 -1.6 -1.6 -1.6 -1.6 -1.6 -1.6 -1.6 -1.6 -1.6 27.6 43.8 45 47.9 50.9 60.9 77.2
-1.6 -1.6 -1.6 -1.6 -1.6 -1.6 -1.6 -1.6 -1.6 -1.6 -1.6 -1.6 -1.6 -1.6 -1.6 -1.6 -1.6 -1.6 -1.6 -1.6 -1.6 -1.6 -1.6 -1.6 -1.6 -1.6 -1.6 -1.6 -1.6 -1.6 -1.6 -1.6 -1.6 -1.6 -1.6 -1.6 -1.6 -1.6 -1.6 -1.6 -1.6 -1.6 -1.6 -1.6 -1.6 -1.6 -1.6 -1.6 36.4 41.4 45.8 54.6 55.5 62.6 67.9 75.2 69.8 70.9 69.5 65.6 57 58.6 51.9 49.2 46.7 47.2 46.3 51.5 55.2 71.3 78.4 81.7 91.9 92.7 90.8 91.2 96.5 92.5 90.9 94.9 92.5 86.4 82.1 76.9 71.7 69.5 56.9 35.8 38.9 59.1 69.9 85.9 92.7 98.9 101.7 103.9 107.5 110 103.6 100.7 92.1 71.5 56.2 54.6 54.9 61.3 70.6 64.2 65.5 64.1 62.9 64 63.5 67.2 70.7 72.4 70.3 72.9 74.2 82.5 84.8 85.4 73.8 55.4 49.1 46.6 30.1 28.8 37.6 54.4 57.3 45.3 35.3 40.1 56.3 52.9 36.1 27.6 24.8 16 12.2 11.8 14.2 29.9 34.7 41.7 44.8 47.6 54.4 65 73.8 78.4 81.2 85.9 94.1 100 96.7 98.1 96.8 93 75.1 66.7 57.7 51.9 47.8 49 41.7 13.2 -1.6 -1.6 -1.6 -1.6 -1.6 -1.6 -1.6 -1.6 -1.6 -1.6 -1.6 -1.6 -1.6 -1.6 -1.6 -1.6 -1.6 -1.6 -1.6 -1.6 -1.6 -1.6 -1.6 -1.6 -1.6 -1.6 43.4 52.9 56.3 55.9 61.9 78.3
-1.6 -1.6 -1.6 -1.6 -1.6 -1.6 -1.6 -1.6 -1.6 -1.6 -1.6 -1.6 -1.6 -1.6 -1.6 -1.6 -1.6 -1.6 -1.6 -1.6 -1.6 -1.6 -1.6 -1.6 -1.6 -1.6 -1.6 -1.6 -1.6 -1.6 -1.6 -1.6 -1.6 -1.6 -1.6 -1.6 -1.6 -1.6 -1.6 -1.6 -1.6 -1.6 -1.6 -1.6 -1.6 -1.6 -1.6 1.9 34.5 43.8 56.6 59.1 61.5 67.4 78.4 76.5 82.2 77.4 75.4 70 60.7 62.8 53.7 50.8 47.6 47.5 48.4 50.1 54.3 73.1 79.5 85.9 90.8 91 88.9 89.2 94.2 90.1 90.3 98.5 91.3 87.5 84.5 80.2 74.2 70.2 54.7 38.4 39.1 60 72.3 85.7 92.1 98.7 99.5 102 101.8 105 103.3 102.2 103.3 90.3 73.5 56.3 55.3 63.7 76.2 72.3 72.8 65.1 63.3 64.7 65.4 66.4 69.2 70.5 70.8 73 73.9 79.3 81.3 75.4 65.5 58.3 49.8 46.5 39.7 37.7 40.7 52.8 60.6 63.7 54.5 62.1 64.3 54.7 51.6 35.9 32.7 23.3 17.9 12.2 12.6 19.5 25.8 34.9 40.3 46.1 52.2 56.9 67.9 70.6 78 82.4 85.1 89.3 93.3 94.3 94.2 90.4 81.7 62.8 55.7 53.9 49.8 59.6 47.6 25 -1.6 -1.6 -1.6 -1.6 -1.6 -1.6 -1.6 -1.6 -1.6 -1.6 -1.6 -1.6 -1.6 -1.6 -1.6 -1.6 -1.6 -1.6 -1.6 -1.6 -1.6 -1.6 -1.6 -1.6 -1.6 -1.6 38.9 52.6 52.9 57.9 62.1 71.4
-1.6 -1.6 -1.6 -1.6 -1.6 -1.6 -1.6 -1.6 -1.6 -1.6 -1.6 -1.6 -1.6 -1.6 -1.6 -1.6 -1.6 -1.6 -1.6 -1.6 -1.6 -1.6 -1.6 -1.6 -1.6 -1.6 -1.6 -1.6 -1.6 -1.6 -1.6 -1.6 -1.6 -1.6 -1.6 -1.6 -1.6 -1.6 -1.6 -1.6 -1.6 -1.6 -1.6 -1.6 -1.6 -1.6 -1.6 29 41.7 49 62.1 59.5 64.5 68.7 84.1 84.5 82.9 81.9 81.1 67.1 65.1 62.2 52.7 50.4 49.2 48.3 49.1 49.6 53.8 74.1 79.2 86 88.9 87.7 87.9 88.2 88.8 89.8 91.2 101.2 94 89.7 86.8 81.4 74.3 69.4 55.1 40.2 39.2 60.8 73.1 81.5 94.5 97.8 98.5 98.5 98.9 100.4 102.2 101.6 104.1 91.9 79.6 56.2 55.6 60.1 73.4 74.7 75.8 66.1 64.2 73 68.4 68.2 69.9 69.4 69.6 70.4 74.8 79.5 74.4 74.4 64.3 59 59.8 59.4 50.8 46.2 52.3 57.8 67.1 73.4 65.5 56 55.5 57.2 52.1 46.1 40 36.1 25.7 21.3 19.2 15.1 17.3 23.4 34.9 44.6 52.3 58.9 63.6 62.9 71.7 77 79.8 82.5 92 92.9 93.5 85.3 79.4 59.5 54.5 55.1 52.9 48.8 40.2 26.8 -1.6 -1.6 -1.6 -1.6 -1.6 -1.6 -1.6 -1.6 -1.6 -1.6 -1.6 -1.6 -1.6 -1.6 -1.6 -1.6 -1.6 -1.6 -1.6 -1.6 -1.6 -1.6 -1.6 -1.6 -1.6 -1.6 2.3 49.1 51.3 54.8 58.8 62.6
-1.7 -1.6 -1.6 -1.6 -1.6 -1.6 -1.6 -1.6 -1.6 -1.6 -1.6 -1.6 -1.6 -1.6 -1.6 -1.6 -1.6 -1.6 -1.6 -1.6 -1.6 -1.6 -1.6 -1.6 -1.6 -1.6 -1.6 -1.6 -1.6 -1.6 -1.6 -1.6 -1.6 -1.6 -1.6 -1.6 -1.6 -1.6 -1.6 -1.6 -1.6 -1.6 -1.6 -1.6 -1.6 -1.6 13.3 33.8 46.9 54.4 62 60.3 63.8 77.5 85.3 91.6 89.3 88.3 85.1 69 64.6 59.1 53 53.6 50.5 49.6 49.6 50 52.6 71.7 76.5 82.6 84.3 86.1 87.4 88.1 88.9 90.2 93.1 102.1 95.7 91.1 86.2 80.1 74.7 71.1 58.1 41.1 42.1 58.8 68.9 82.6 92 95.4 97.4 97.5 97 98.3 96.8 94.1 93.8 91.9 83.6 62.8 56.8 61.4 67.5 73.1 75.8 68.5 65.2 75.2 73.7 77 74.8 70.5 70.3 70.2 70.3 77 73.4 65.2 63.7 59 60.2 64.6 56.8 52.6 60.2 70.8 73.5 72.1 66.7 57.9 55 56.2 59.5 51.4 56.7 55.3 38.9 28.2 27.1 20.7 18.4 18 22.1 47.4 50.9 52.8 58.8 63.4 59.3 65.2 74.5 79.4 92.2 93.6 88.8 85.7 77.6 61.7 53.3 52.9 50.9 41.8 33.1 21.9 -1.6 -1.6 -1.6 -1.6 -1.6 -1.6 -1.6 -1.6 -1.6 -1.6 -1.6 -1.6 -1.6 -1.6 -1.6 -1.6 -1.6 -1.6 -1.6 -1.6 -1.6 -1.6 -1.6 -1.6 -1.6 9 3.7 41.1 51 50.8 54.7 53.8
-1.6 -1.6 -1.6 -1.6 -1.6 -1.6 -1.6 -1.6 -1.6 -1.6 -1.6 -1.6 -1.6 -1.6 -1.6 -1.6 -1.6 -1.6 -1.6 -1.6 -1.6 -1.6 -1.6 -1.6 -1.6 -1.6 -1.6 -1.6 -1.6 -1.6 -1.6 -1.6 -1.6 -1.6 -1.6 -1.6 -1.6 -1.6 -1.6 -1.6 -1.6 -1.6 -1.6 -1.6 -1.6 -1.6 32.8 40.8 50.7 62.5 65.7 63.1 69.4 84.7 90.7 95.6 97.7 94.8 87 77.9 64.7 69.9 57.7 61.8 55 50.6 50.3 50.3 54.8 66 73.3 79.8 83 85.8 87.6 88.5 92.5 94.3 95.2 97.6 95.7 93 87.4 82 76.8 75 57 40.3 44.7 57.7 67.9 78.8 87.8 95 95.3 96.7 96.4 95.5 96.5 90.9 86.9 85.5 78.2 60 55.8 62.3 69.8 72.4 75.5 76.3 66.4 67.9 73.2 75.5 81.1 74.8 70.9 70.2 70.5 81.7 77.1 69 60.3 59.6 60.5 61 65.1 57.2 60.3 77.3 77.2 78.1 78.1 68 58.3 57 58.6 60 58.5 66.2 57.1 56.5 36.8 42.3 25.8 18.2 16.4 19.8 33.6 40.3 47 54.4 57.8 53.9 61.7 78.7 86.9 87.5 86 84.7 77.6 60.1 52.7 48.2 45.5 36.9 20.7 11.1 -1.6 -1.6 -1.6 -1.6 -1.6 -1.6 -1.6 -1.6 -1.6 -1.6 -1.6 -1.6 -1.6 -1.6 -1.6 -1.6 -1.6 -1.6 -1.6 -1.6 -1.6 -1.6 -1.6 -1.6 -0.8 2.7 22.5 26.9 45.8 49.1 48.8 48.8
-1.6 -1.6 -1.6 -1.6 -1.6 -1.6 -1.6 -1.6 -1.6 -1.6 -1.6 -1.6 -1.6 -1.6 -1.6 -1.6 -1.6 -1.6 -1.6 -1.6 -1.6 -1.6 -1.6 -1.6 -1.6 -1.6 -1.6 -1.6 -1.6 -1.6 -1.6 -1.6 -1.6 -1.6 -1.6 -1.6 -1.6 -1.6 -1.6 -1.6 -1.6 -1.6 -1.6 -1.6 -1.6 25.3 39.3 53.6 60.3 67.1 73.3 70.8 80.3 92.3 100.3 104.3 100.4 99.4 91.8 80.5 67.1 72.4 62.9 66.2 57.4 51.9 50.8 51.2 59 69.3 79.5 84.8 86 87.5 89.2 89.4 93 95.3 96 99.2 97.6 91.9 86.2 83.8 88.3 78.6 56.7 38.7 44 56.8 67.2 79.8 84.5 92 92.8 94.9 93.2 93.5 95.8 86.2 83.5 80.4 67.5 58.1 56 61.2 65.2 72.4 77 73.2 68.5 66.6 68.8 75.9 79.2 74 72.1 71.5 72.7 75.1 77 71.9 61.1 61.9 63.7 62.4 68.9 64.8 64.6 72.5 80.5 84.3 81.2 79.7 71.6 66.6 67.7 66.1 65.2 68.3 60.4 51.4 47.9 46.9 49.6 39 17.7 16.2 15.9 19.7 28.8 35 40.9 39.8 51.3 69 77.2 76.1 77.1 72.8 65.1 55.9 47 37.3 36.9 32.5 14.7 -1.6 -1.6 -1.6 -1.6 -1.6 -1.6 -1.6 -1.6 -1.6 -1.6 -1.6 -1.6 -1.6 -1.6 -1.6 -1.6 -1.6 -1.6 -1.6 -1.6 -1.6 -1.6 -1.6 -1.6 -1.6 -1.6 -1.6 13.3 23.8 31.7 42.5 41.9 44.2
-1.1 -1.6 -1.6 -1.6 -1.6 -1.6 -1.6 -1.6 -1.6 -1.6 -1.6 -1.6 -1.6 -1.6 -1.6 -1.6 -1.6 -1.6 -1.6 -1.6 -1.6 -1.6 -1.6 -1.6 -1.6 -1.6 -1.6 -1.6 -1.6 -1.6 -1.6 -1.6 -1.6 -1.6 -1.6 -1.6 -1.6 -1.6 -1.6 -1.6 -1.6 -1.6 -1.6 -1.6 20.1 33.5 45.2 59.4 61.8 69.7 75.9 84.7 89.3 94.7 107.8 107.7 106.2 103.6 96.3 84.6 72.1 70.4 68.9 64.4 57.1 53.3 51.6 51.9 58.8 68.9 83.7 87.8 89.1 90.1 90 89.9 91.2 92.7 95.4 96.2 98.7 92.3 85.9 86.1 89 74.9 55.4 40.5 44.7 54.7 63 75.3 81.6 88.4 91.4 92.2 90.7 90.2 91.1 85.4 77.1 73.8 62.2 56.2 56.1 59.3 61.2 66.2 74.7 70.9 67.7 66.4 66.7 69.7 74.9 76.5 74 73.8 77.5 82.5 84.5 81.6 65.8 73.1 70.3 69.8 76.5 83.7 70.5 69.6 79.5 84.1 81.6 79.9 73.2 72.4 71 71 66.9 65.4 60.8 53.8 49.1 49.4 54.1 52.3 46.8 25.3 13.6 13.3 18.4 26 30.4 33.2 41.8 52.9 55.6 55.4 54.7 58.1 58.6 51.5 36.3 29.7 22.9 17.6 7.5 -1.6 -1.6 -1.6 -1.6 -1.6 -1.6 -1.6 -1.6 -1.6 -1.6 -1.6 -1.6 -1.6 -1.6 -1.6 -1.6 -1.6 -1.6 -1.6 -1.6 -1.6 -1.6 -1.6 -1.6 -1.6 -1.6 -1.6 -1.6 15 20.4 26.2 33.5 36.1
-1.3 -1.6 -1.6 -1.6 -1.6 -1.6 -1.6 -1.6 -1.6 -1.6 -1.6 -1.6 -1.6 -1.6 -1.6 -1.6 -1.6 -1.6 -1.6 -1.6 -1.6 -1.6 -1.6 -1.6 -1.6 -1.6 -1.6 -1.6 -1.6 -1.6 -1.6 -1.6 -1.6 -1.6 -1.6 -1.6 -1.6 -1.6 -1.6 -1.6 -1.6 -1.6 -1.6 -1.6 30.1 32.9 47.8 55.1 65.1 67.4 75.1 87.8 93.3 104.3 110.8 114.7 112.1 102.9 94.6 91.9 78.8 72.3 73.5 62.9 57.2 53.6 52.4 52.7 63.4 69.9 86 87.3 92.5 89.6 89.4 89.2 91.5 91.1 94.3 94.7 98.8 90.2 85.7 86.9 85.1 74.2 52.6 41.3 43.9 53.2 61.4 71 79.2 84.3 89.6 91.3 88.6 87 87.2 84.7 76.3 68 61.3 56.3 56.5 57.4 58.4 63.6 73.2 71 68.5 66.6 66.8 67.3 74.4 76.5 74.9 74.2 79.3 81.8 86.2 82.9 69.8 76.7 73.3 78.4 83.4 79 76.7 77.7 72.4 74.2 74.7 76.7 72.3 70 68.6 68.4 65.4 64.4 64.2 59.2 52.1 49.6 49.9 56.5 48.8 37.6 28.3 11.8 12.3 14.2 18.3 23.8 32 41 43.4 44.5 44.2 44.2 40.5 32 23.1 7.6 -1.6 -1.6 -1.6 -1.6 -1.6 -1.6 -1.6 -1.6 -1.6 -1.6 -1.6 -1.6 -1.6 -1.6 -1.6 -1.6 -1.6 -1.6 -1.6 -1.6 -1.6 -1.6 -1.6 -1.6 -1.6 -1.6 -1.5 -1.2 -1.6 -1.6 -1.6 -1.6 12.4 16.2 22.5 27.4
-1.6 -1.6 -1.6 -1.6 -1.6 -1.6 -1.6 -1.6 -1.6 -1.6 -1.6 -1.6 -1.6 -1.6 -1.6 -1.6 -1.6 -1.6 -1.6 -1.6 -1.6 -1.6 -1.6 -1.6 -1.6 -1.6 -1.6 -1.6 -1.6 -1.6 -1.6 -1.6 -1.6 -1.6 -1.6 -1.6 -1.6 -1.6 -1.6 -1.6 -1.6 -1.6 -1.6 28.1 34.6 48.5 57.2 65.3 68 74.3 77.2 88.9 100.2 111 115.8 117.8 112.6 105 95.1 93.6 83.3 80.1 71.3 66.1 58.4 54.4 53.3 53.8 67 74.4 82.1 86.7 93.9 87.7 89.1 88.6 89.5 89.2 93.4 93 97.6 87.2 80.9 77.5 76.7 67.3 53 43.7 45 52.3 61.2 68.9 76.7 80.7 86.7 87.2 84.2 83 83.3 78 74 67.6 59.9 56.2 56.5 57.2 57.7 59 76.2 73.1 70.9 71.8 67.3 67.7 72.2 82.2 76.9 75.2 75.7 78.6 86.4 84.7 77.8 75.6 78.2 86.3 85.7 80.5 73.7 72.9 76.8 72.4 76.7 75 72.3 69.6 68.7 68.6 66.8 64.6 65.5 63.9 55.7 52.6 46.7 48.9 51.2 48.1 35.2 22.7 10.3 10.8 12.4 16.4 21.6 28.2 31.4 34.1 33.1 29.9 21.3 10.9 2.1 -1.6 -1.6 -1.6 -1.6 -1.4 -1.6 -1.6 -1.6 -1.6 -1.6 -1.6 -1.6 -1.6 -1.6 -1.6 -1.6 -1.6 -1.6 -1.6 -1.6 -1.6 -1.6 -1.6 -1.6 -1.6 -1.6 -1.1 -0.8 -0.5 -0.7 -1 -1.6 -1.6 -1.6 2.7 12.3 20.6
-1.6 -1.6 -1.6 -1.6 -1.6 -1.6 -1.6 -1.6 -1.6 -1.6 -1.6 -1.6 -1.6 -1.6 -1.6 -1.6 -1.6 -1.6 -1.6 -1.6 -1.6 -1.6 -1.6 -1.6 -1.6 -1.6 -1.6 -1.6 -1.6 -1.6 -1.6 -1.6 -1.6 -1.6 -1.6 -1.6 -1.6 -1.6 -1.6 -1.6 -1.6 -1.6 23 32.8 42.1 55 65.9 66.4 71.6 72.5 82.8 97.7 105.5 112.5 116.8 114.3 108.9 103.8 95.3 91.3 86.6 79.4 72.3 68 60.5 55.4 54.7 55 64.1 66.6 79.3 85.4 89.1 83.1 88.5 86.9 88.1 87.4 91.1 91.6 93.8 86.5 78.1 70.2 72 63.1 52.6 44.5 39.3 49.9 56.6 60.4 69.7 75.3 78.5 80.6 79.9 81.4 79.9 74.2 70.9 65.5 58.6 56.3 56.5 57 57.5 58.3 70.6 74.1 71.9 71.8 74.5 68.2 69.5 75.6 76.5 75.4 77.4 84.1 79.3 78.9 76.4 84.9 83 89.5 90 88.6 79.4 72.5 71.8 72.2 72.7 73.1 73.5 70.9 70 71.5 70 67.5 66.9 64.4 59.8 56.8 51.2 43.9 42.5 43.9 41.5 31.7 17.6 8.4 7.7 10.8 11.1 11.8 14.3 16.8 15.8 5.4 2 0.9 -1.6 -1.6 -0.9 -0.6 -0.5 -0.6 -0.8 -1.6 -1.6 -1.6 -1.6 -1.6 -1.6 -1.6 -1.6 -1.6 -1.6 -1.6 -1.6 -1.6 -1.6 -1.6 -1.6 -1.6 -1.6 -1.6 -1 -0.4 -0.1 0.2 0 -0.3 -0.7 -1.6 -1.6 -1.6 -1.6 10.7
-1.6 -1.6 -1.6 -1.6 -1.6 -1.6 -1.6 -1.6 -1.6 -1.6 -1.6 -1.6 -1.6 -1.6 -1.6 -1.6 -1.6 -1.6 -1.6 -1.6 -1.6 -1.6 -1.6 -1.6 -1.6 -1.6 -1.6 -1.6 -1.6 -1.6 -1.6 -1.6 -1.6 -1.6 -1.6 -1.6 -1.6 -1.6 -1.6 -1.6 -1.6 -1.6 25.9 40.7 57.2 63 71.6 70.3 75.5 78.5 93.2 100.3 108.2 114.2 113.5 111.3 107.4 103.9 96.5 92.7 85.6 78 74.1 68.9 61.5 55.7 56 56.5 57.6 65.7 76.9 80.8 78 81.9 84.2 85.3 85.2 86 87.3 89.6 88.9 82.3 75.2 62.4 65 61.7 53 42.8 40.8 48.2 50.5 53.2 60.5 69 72 75.6 76.8 78.8 78.1 73.2 68.4 62.8 57.9 56.3 56.3 56.9 57.4 58.1 64 72.3 74.9 72.9 71.2 69.7 70.3 71.3 74.6 75.2 76.5 84.6 73.9 73.9 77.2 85.3 88.1 86.4 93.9 98.2 89.3 73.3 69.6 70.1 71.4 75.8 78.1 76.4 71.7 73.3 71.7 68.7 66.4 63.5 62.6 62.1 52.8 46.6 42.6 39.1 36 31.8 23.5 13.4 5.8 4.8 6 4.6 4.4 6.1 2.6 1.8 0.7 -1.6 -1.6 -1.1 -0.4 0.2 0.3 0.3 0.1 -0.3 -0.7 -0.9 -0.9 -1.1 -1.6 -1.6 -1.6 -1.6 -1.6 -1.6 -1.6 -1.6 -1.6 -1.6 -1.6 -1.6 -1.6 -0.8 -0.3 0.3 0.6 0.9 0.7 0.4 0.2 -0.1 -0.6 -1.6 -1.6 14.4
-1.6 -1.6 -1.6 -1.6 -1.6 -1.6 -1.6 -1.6 -1.6 -1.6 -1.6 -1.6 -1.6 -1.6 -1.6 -1.6 -1.6 -1.6 -1.6 -1.6 -1.6 -1.6 -1.6 -1.6 -1.6 -1.6 -1.6 -1.6 -1.6 -1.6 -1.6 -1.6 -1.6 -1.6 -1.6 -1.6 -1.6 -1.6 -1.6 -1.6 -1.6 -1.6 17.9 53.6 70.4 72.6 76.7 78.1 78.7 94.2 98.8 105.5 109.6 112.7 113.2 111.6 104.4 99.7 96.8 91.2 85.6 75.7 73 67.7 61.5 56.1 60.5 63 68.2 71.4 77.3 76.1 75.3 80.7 83.4 84.6 85.4 87.5 86.7 87.5 85.4 78.3 70.4 59.3 59.8 56.8 47.5 42.9 41 45.4 49.5 55.2 58.3 64.9 72.4 70.4 73.2 75.1 76.5 72.2 69.2 63.1 58.1 56.6 56.1 56.7 57.1 58.5 60.4 66.9 74.3 74.7 71.6 70 69.5 73.7 77.5 76 75.9 75.8 73.2 72.6 75.5 78.8 79.7 80 90.5 93.6 91.1 82.3 69.1 67.9 78 77.9 84.2 76.1 75.1 76.8 76.8 72.5 68.9 64.8 63 61.1 56.1 50.5 43.1 39.3 33.5 27.6 21.7 16.4 11.7 4.2 5 2.3 2.3 2.3 1.4 0.5 -0.3 -1.6 -1.6 -1.1 -0.1 0.8 1.1 1.2 0.9 0.5 0.1 0 -0.1 -0.2 -0.4 -0.8 -1.6 -1.6 -1 -1.1 -1.1 -1.6 -0.9 -0.6 -0.3 -0.1 0 0.3 0.6 1 1.3 1.6 1.5 1.3 1.2 0.9 0.1 -0.9 -1.6 6.1
-1.6 -1.6 -1.6 -1.6 -1.6 -1.6 -1.6 -1.6 -1.6 -1.6 -1.6 -1.6 -1.6 -1.6 -1.6 -1.6 -1.6 -1.6 -1.6 -1.6 -1.6 -1.6 -1.6 -1.6 -1.6 -1.6 -1.6 -1.6 -1.6 -1.6 -1.6 -1.6 -1.6 -1.6 -1.6 -1.6 -1.6 -1.6 -1.6 -1.6 -1.6 -1.6 -1.6 56.5 75.3 78 77.5 84.6 81.3 101.5 106.6 111.9 112.8 114.1 114.6 112.3 105.7 99.6 97.2 92.5 84.1 75 73.9 71.5 61.8 57.7 65.4 68.9 70.9 71.4 76.2 75.5 75.5 78.4 82.6 84.6 85.4 87.9 85.8 84.8 82.1 75.5 65.3 55.2 54.5 52.4 45.1 43.1 41.7 42.3 45.4 53 57.3 63.3 68.7 68.8 70.5 69.1 71.7 70.2 72.7 65.1 58.2 56.7 56.2 56.6 56.9 57.8 59.4 64.7 73.2 78.7 77.8 70 69.7 71.3 74.4 75.3 77.9 75 74.1 72.6 72.7 72 73.9 72.8 79.1 82.7 82.7 78.7 66.3 65.9 76.7 79.1 83.5 81.5 76.7 76.9 79.6 74.4 72.1 70 65.9 61.6 55.3 52.3 43.5 39.4 30.3 26.2 20.4 13.1 8.9 4.5 2.9 2.3 2.3 1.7 0.8 0 -0.9 -1.6 -1.6 -1.2 -0.1 0.9 1.9 2 1.8 1.4 1 0.9 0.8 0.7 0.5 0.1 -0.1 -0.2 0.1 0.1 0 -0.1 0.2 0.5 0.7 1 1.1 1.3 1.6 1.9 2.2 2.3 2.3 2.2 2.1 1.8 0.8 -0.4 -1.6 -1.6
-1.6 -1.6 -1.6 -1.6 -1.6 -1.6 -1.6 -1.6 -1.6 -1.6 -1.6 -1.6 -1.6 -1.6 -1.6 -1.6 -1.6 -1.6 -1.6 -1.6 -1.6 -1.6 -1.6 -1.6 -1.6 -1.6 -1.6 -1.6 -1.6 -1.6 -1.6 -1.6 -1.6 -1.6 -1.6 -1.6 -1.6 -1.6 -1.6 -1.6 -1.6 -1.6 33.5 27.6 74.7 79.5 84.9 84.5 93.4 104.3 110.2 115.1 120.1 116.9 116 113.4 109.1 102.5 99.1 95.2 84 78.9 74.5 71.8 62.1 61.7 71.9 74 76.6 72.2 76.5 75.5 75.5 81.5 85 83.5 84.9 85.8 83.5 81.1 79.1 73.1 62.4 52.8 50.1 44.5 42.8 42.4 42 41.8 42.1 43.7 49.2 59.7 64.9 63.7 67.5 64.3 65.5 68 72.4 64.3 58.2 57.1 56.4 56.5 57 57.2 57.8 64.8 70.7 74 81.1 70.4 70.3 70.9 74 75.1 75.7 75.9 76.3 76.8 82.6 72.8 72.1 70.3 69.8 69.7 68.1 69.4 64.5 65.4 68.7 77.9 77.7 74.8 78.8 82.5 78.7 77.8 78.1 74.5 73.8 67.1 57.2 47.7 44.9 37.8 30.2 24.1 21.2 12.1 11.6 8 3.5 2.4 1.9 1.3 0.7 0.1 -0.5 -1.6 -1.6 -1.6 -0.2 0.8 1.9 2.5 2.9 2.2 1.9 1.8 1.7 1.5 1.3 1.1 0.9 1 1.1 1.2 1.1 1.2 1.4 1.6 1.8 2 2.2 2.2 2.1 3.6 3.3 3.3 4 5.2 6.7 2.2 0.8 -0.6 -1.6 -1.6
-1.6 -1.6 -1.6 -1.6 -1.6 -1.6 -1.6 -1.6 -1.6 -1.6 -1.6 -1.6 -1.6 -1.6 -1.6 -1.6 -1.6 -1.6 -1.6 -1.6 -1.6 -1.6 -1.6 -1.6 -1.6 -1.6 -1.6 -1.6 -1.6 -1.6 -1.6 -1.6 -1.6 -1.6 -1.6 -1.6 -1.6 -1.6 -1.6 -0.2 2.3 21.4 49.8 73.6 71.2 77.8 83.6 86.9 98.7 109.7 113.7 122.9 126.9 123 121.7 115.8 110.8 106.1 101.5 95.5 84.5 79.8 74.2 70.3 59 66.5 79.8 78.1 78 74.3 75.3 75.5 75.5 79.1 81.7 81.9 82.3 82.1 80 78.6 76.3 69.4 55.8 51.4 46.6 44.1 42.9 42.5 42.3 42.2 42.4 42.5 48.2 60.2 66.1 62.9 65.3 61.3 60.9 60.9 66.8 65.9 58.8 57.3 56.8 56.6 57 57.3 57.7 65.1 71 74.2 79.1 71 70.6 71.6 74.4 74.5 75 77.7 77.7 79.9 85.6 80.5 78.2 82.9 80.3 70.1 75.9 72 70.6 60.4 59.8 62 70.9 72.9 75 83.5 81.1 77.1 79.6 78.6 74.8 72.5 66.2 54.6 43.4 38.9 28.6 23.3 21.8 12.1 12.5 12.1 11.3 2.6 2.3 2 1.4 0.8 0.1 -1 -1.6 -1.6 -1.6 0.2 1.1 2.1 2.6 2.7 3.4 3.7 3.7 2.4 2.3 2.2 2.1 2.2 2.3 2.3 2.3 2.2 2.7 2.2 2.7 3.5 4 6.8 8.9 8.5 6.1 4 4.6 8.2 7 1.5 0.3 -1.6 -1.6 -1.6
-1.6 -1.6 -1.6 -1.6 -1.6 -1.6 -1.6 -1.6 -1.6 -1.6 -1.6 -1.6 -1.6 -1.6 -1.6 -1.6 -1.6 -1.6 -1.6 -1.6 -1.6 -1.6 -1.6 -1.6 -1.6 -1.6 -1.6 -1.6 -1.6 -1.6 -1.6 -1.6 -1.6 -1.6 -1.6 -1.6 -1.6 -1.6 -1.6 -1.6 27.9 41.6 64.6 79.3 78.5 83.7 83.8 93.4 104.5 110.7 119.4 127.1 130.6 126 124.1 117 112.2 107 102.3 94.5 84.3 80.5 73.6 64.7 61.9 70.7 88.2 83.4 77.9 78.9 76.1 75.8 75.5 79.5 80.9 81.4 81.9 82.3 79.6 76.6 73.7 63.9 54.6 51.4 46.4 43.7 42.9 42.7 42.4 42.6 42.8 43.1 51.2 62.2 63.1 60.8 60.6 60.9 60.9 61.6 69.6 71.6 60.5 57.3 57.2 56.8 57.1 57.4 57.8 63.3 73.4 73 77.2 71.4 73.6 73.4 74 75.3 75.1 78 80.6 79 80.7 81.7 82.2 87.3 85.9 76 80.4 85.4 72.9 63.4 58.5 57.9 58 64.9 69.2 74.5 73.7 74.6 82.8 80.9 79.4 77.1 68.2 60.2 47.6 38.1 28.8 23.9 20.6 15.7 13.4 12.8 12.7 9.8 2.2 2.3 2.2 1.6 0.6 -0.5 -1.6 -1.6 -1.6 -0.6 0.5 1.6 3.1 5 6.3 6.7 9.2 10.3 10.4 8.5 4.7 12.4 2.9 3.4 4.1 5 8.4 13.9 15.5 13.4 6.8 12.5 7.4 8.4 7.5 6.3 3 2.9 5.2 1.3 0.1 -1.6 -1.6 -1.6
-1.6 -1.6 -1.6 -1.6 -1.6 -1.6 -1.6 -1.6 -1.6 -1.6 -1.6 -1.6 -1.6 -1.6 -1.6 -1.6 -1.6 -1.6 -1.6 -1.6 -1.6 -1.6 -1.6 -1.6 -1.6 -1.6 -1.6 -1.6 -1.6 -1.6 -1.6 -1.6 -1.6 -1.6 -1.6 -1.6 -1.6 -1.6 -1.6 -1.6 39.1 49.5 63.5 80.5 86.1 84 89.2 96.6 108 114.1 119.4 129.8 132 127 122.5 118.1 113.3 109.4 104.6 94.7 82.8 77.5 73.9 63.5 69.1 78.9 88.2 86.8 86.6 90.7 86.3 77.5 77.3 78.9 81.7 81.8 82.2 82.3 79 75.8 71.5 61.3 54.4 51.5 46.7 43.7 43 43.5 46.1 43.5 43.9 44.8 51.2 59.8 61 64.4 65.1 62.1 60.9 68.4 80.6 73.4 63.6 58.2 58.1 57.1 57.1 57.6 58.2 68.1 76.5 72.6 75.5 73.4 72.7 73.7 73.2 73.2 73.2 73.6 77.8 79.3 80 81.3 84.5 81.6 85 82 72 80.2 70.9 59.7 57.8 57.5 57.1 57.1 62 59.6 62.7 68.9 78.6 80.5 81.6 82.1 73.2 65.2 52.9 38.1 29.7 24.2 19.6 19.4 22 16.3 20.6 18 5.1 2.3 2.3 2.3 1.1 0.2 -0.5 -1.6 -1.6 -0.9 0.2 1.2 2.2 5.8 8 8.9 12.6 10 11.3 9.5 14.5 23.8 23 18.8 18.9 13.1 8.6 8.6 8.7 4 9.6 8.2 8.4 4.1 5 2.7 2.1 2.2 2 1 -0.2 -1.6 -1.6 -1.6
-1.6 -1.6 -1.6 -1.6 -1.6 -1.6 -1.6 -1.6 -1.6 -1.6 -1.6 -1.6 -1.6 -1.6 -1.6 -1.6 -1.6 -1.6 -1.6 -1.6 -1.6 -1.6 -1.6 -1.6 -1.6 -1.6 -1.6 -1.6 -1.6 -1.6 -1.6 -1.6 -1.6 -1.6 -1.6 -1.6 -1.6 -1.6 -1.6 25.3 48.6 51.7 63.6 90.3 92.2 86.3 95.4 104.2 112.8 118.3 122.3 131.2 129.6 124 122.7 119.7 113.8 110.2 107.6 94.4 85.3 73.2 69.9 69.1 72.8 86.2 86.4 89.2 92.9 97 91.6 83.1 87.7 87.8 90.2 82.8 82.4 82.3 79 75.6 71.3 60.8 55.2 54.9 52.5 45.6 43.6 47.4 49.1 44.7 48.1 48 51 54.1 58 62.8 62.2 60.9 60.9 64.5 77.9 73.1 65.6 62.7 63.3 57.9 57.2 58 58.6 65 71.8 71.7 71.9 72.5 72.8 73.7 73.2 73.2 77.5 80.1 79.6 80.5 83.1 89.1 91.5 89.4 83.1 75.9 71.1 68 65.7 65.6 57.1 57.1 56 55.8 57.8 59 54.2 56.1 63.9 69.2 75.9 80.6 75.9 66.8 55.4 42.9 31.2 23 21.6 22.6 28.7 24.6 26.1 22 10 5.6 1.9 1.7 1.7 1 -0.1 -1.6 -1.6 -1.6 -0.1 1 2 7 9.7 10.8 10 9.7 7.2 10.5 18.6 31.6 38.9 44.6 43.4 31.1 19.7 17.1 12.1 17.2 16.9 12.8 10.4 7.1 3.5 2 2.1 2.3 1.6 0.6 -0.3 -1.6 -1.6 -1.6
-1.6 -1.6 -1.6 -1.6 -1.6 -1.6 -1.6 -1.6 -1.6 -1.6 -1.6 -1.6 -1.6 -1.6 -1.6 -1.6 -1.6 -1.6 -1.6 -1.6 -1.6 -1.6 -1.6 -1.6 -1.6 -1.6 -1.6 -1.6 -1.6 -1.6 -1.6 -1.6 -1.6 -1.6 -1.6 -1.6 -1.6 -1.6 -1.6 33.9 58.5 50.5 74.1 91.8 98.3 90.7 98.2 112.6 120.8 120.1 127.3 133.1 127.2 123.9 122.7 121.2 114.6 109.6 102.4 93.3 85.6 72 69.8 72.8 76.4 90.3 90.8 96 99.9 102.1 96.8 90.3 95.6 96 92.4 86.1 83.8 82.9 79.8 76.5 70.8 58.9 58.4 57.6 55.2 48.5 47.4 54.8 49.9 45.5 49.7 51 53.1 56.3 59.7 64.4 60.9 60.9 60.9 60.9 75.4 70.2 66.8 63.8 62.4 62.2 57.5 60.5 63.2 60.4 67.2 68 71.5 72.3 74 80 78.7 79 81.2 81.9 80.8 84.3 86.5 92.2 93.5 95.5 97.5 89.9 74.3 72.7 69.5 62.8 59.9 56.1 55.5 55.6 57.2 53.6 54.3 51.5 53.8 51.9 58.4 63.3 67.1 65.1 58.3 47.3 33.3 22.7 22.1 24.7 25.4 26.6 30.6 26.2 12 6.3 5.4 3.7 2.3 1.9 -1.6 -1.6 -1.6 -1.1 -0.1 0.9 1.9 7.7 7.4 7.3 7.2 8.6 8.1 12.9 23.8 36.7 47.4 57.3 60.1 45 42.5 34.6 32.9 25.8 27.7 31.2 28.5 16.3 4.4 2.3 2.2 2.3 1.5 0.7 -0.2 -1 -1.6 -1.6
-1.6 -1.6 -1.6 -1.6 -1.6 -1.6 -1.6 -1.6 -1.6 -1.6 -1.6 -1.6 -1.6 -1.6 -1.6 -1.6 -1.6 -1.6 -1.6 -1.6 -1.6 -1.6 -1.6 -1.6 -1.6 -1.6 -1.6 -1.6 -1.6 -1.6 -1.6 -1.6 -1.6 -1.6 -1.6 -1.6 -1.6 -1.6 22 40.3 58.1 50.2 74.4 91.3 100.2 104.4 100.2 112.1 123.1 121.7 132.2 135.2 127.6 123.5 121.5 122.1 114.5 108.3 101.5 92.7 83.1 72.6 71.7 75.1 81.5 86.9 93.2 97.5 104 104.6 100.8 95.4 98.3 95.8 90.8 87.9 85.1 83.9 80.9 77.1 68.9 59.4 57.9 56.9 57.6 53.6 53.9 53.8 49.1 47.1 51 54.1 58.4 59 61.5 62.2 60.9 60.9 60.9 60.9 71.2 71.8 70.8 65.1 62.9 64.3 58.4 59 61.5 61.3 63.1 71.1 79.3 77.8 79.1 81.1 81.5 82.4 83.9 83.7 86.6 87.8 88.1 92.3 93.5 95.2 99.7 89.3 80.4 74.3 69 77.8 61.5 56.7 55.7 55.9 57.1 57.8 59.5 51 50.6 52.4 51.1 41.4 40.9 50.9 47.4 41.2 31.2 24.1 22.9 25.9 25.1 24.6 24.5 26.3 19.1 6.8 5.4 4.7 1.7 2 -1.6 -1.6 -1.6 -0.3 0.5 1.2 2 9 5.3 3.2 3.6 6.7 9.7 16.4 27 38.2 52.6 67.8 74.4 71.1 65.3 49.6 56.9 48.7 37.9 38.7 36.7 19.7 14.7 6.3 1.9 2.3 1.6 0.9 0.3 -0.3 -1.6 -1.6
-1.6 -1.6 -1.6 -1.6 -1.6 -1.6 -1.6 -1.6 -1.6 -1.6 -1.6 -1.6 -1.6 -1.6 -1.6 -1.6 -1.6 -1.6 -1.6 -1.6 -1.6 -1.6 -1.6 -1.6 -1.6 -1.6 -1.6 -1.6 -1.6 -1.6 -1.6 -1.6 -1.6 -1.6 -1.6 -1.6 -1.6 -1.6 26.9 43.6 51 51.7 73.4 94.3 110.9 113.7 117.1 119.4 123.6 126.2 132.8 135.2 124.3 121.6 118.4 121.6 113.3 106.5 100 90.1 80.5 72.1 73.7 76.6 81.3 87.9 94.1 101.3 105.1 107.1 105.4 101.4 99.7 97.8 94.4 90 86.6 85.1 82.2 78 69.2 60.7 59.9 59.3 59 57.9 58.3 52.7 48.4 47.1 51.6 56 58.6 58.9 64.3 67.8 60.9 60.9 60.9 60.9 64.5 67.6 72.6 67.6 64 62.3 60 61 59.6 65.5 74 73.5 75.3 78.3 81.8 83.2 83.2 84 84.5 85.1 88.2 90.3 89.1 91.1 91.9 92.7 97.4 92.1 82.8 77 66.7 73.3 66.2 58.7 62.2 58.9 56.8 56.5 54.8 52.2 50.3 50.4 49.3 43.9 45.6 41.2 33.3 28.9 26.7 26.1 27.3 24.4 26.7 25.1 24.6 24.4 21.6 10.8 5.5 4.5 4.6 -1.6 -1.6 -0.3 0.3 0.5 1.3 2.1 2.3 7.4 5 3.7 5.7 6.6 10.1 16.6 27.5 40.2 53.9 69.5 78.7 81.4 72 70.6 68.7 64.4 50.9 44.6 42.9 34.4 20.9 8 2.1 2.3 2.3 1.8 1.1 0.7 0.1 -1.6
-1.6 -1.6 -1.6 -1.6 -1.6 -1.6 -1.6 -1.6 -1.6 -1.6 -1.6 -1.6 -1.6 -1.6 -1.6 -1.6 -1.6 -1.6 -1.6 -1.6 -1.6 -1.6 -1.6 -1.6 -1.6 -1.6 -1.6 -1.6 -1.6 -1.6 -1.6 -1.6 -1.6 5.9 5.5 -1.6 -1.6 -1.6 32.5 41.3 47.8 58.4 77.9 96.1 111.4 121.9 127.2 123.2 125.9 130.9 133.2 136.2 126 119.6 116.3 115.7 110.4 103.9 96.6 87.8 78.8 73.5 76.8 77.8 81 90.9 93 98.8 105.7 107.7 108.5 104.7 100.9 100.2 98.4 91.2 88.1 86.5 83.3 78.5 70 62.9 62.5 61.4 59.4 63.6 62.4 54 50.7 49.3 53.9 56.7 59.9 60.1 62.7 65.8 60.9 60.9 61.8 60.9 60.7 63.1 65.4 68.6 76.2 65.9 63.1 60.6 63.8 69.2 74.8 72.8 71.6 80.5 83.5 85.2 84.8 85.3 85.3 85.3 87.5 91.9 86.9 84.6 89.6 90.9 92.7 90.5 86.1 80.2 67.2 69.4 65.3 62.8 67 65.1 63.8 67.8 60.7 57.2 50.7 50.5 53.1 47.1 45.7 42.7 38.1 41.6 40.2 47.1 45 43.4 38.6 37.4 34.9 31.7 32 32.2 15.8 4.4 3.8 -1.6 -1.6 1.3 1.8 1.8 2.1 2.3 2.3 6.7 5.6 4.1 6.5 7.2 10.4 15.3 29.9 45 53.2 71.3 82.4 84.5 80.4 76.5 73.9 71.4 69.5 64.1 53.9 45 28.7 10.3 4.4 2.3 2.3 2.3 2 1.8 1.7 1.2
-1.6 -1.6 -1.6 -1.6 -1.6 -1.6 -1.6 -1.6 -1.6 -1.6 -1.6 -1.6 -1.6 -1.6 -1.6 -1.6 -1.6 -1.6 -1.6 -1.6 -1.6 -1.6 -1.6 -1.6 -1.6 -1.6 -1.6 -1.6 -1.6 -1.6 -1.6 -1.6 -1.6 -1.6 -1.6 -1.6 -1.6 20.4 29 40.9 50.5 55.1 75.4 102.4 115.6 121.9 132.9 131.8 137.2 135.6 133.5 133.1 125.6 120.1 119.4 116.1 107.2 100.7 90.4 85.6 78.6 74.9 79.6 79.6 84.3 89.4 93.1 95.6 102.3 107.8 111 106 102.7 101.4 100.1 94.9 89.3 87.5 84.2 79.4 71 65.8 65.2 64.1 64.6 66.8 64.7 56.4 54.7 48.7 55.1 57 62.2 60.8 62.7 60.9 60.9 60.9 62.6 62.9 61.4 61.8 66.3 73.2 79.7 66.9 64 65.9 63.1 69.1 75.8 74.4 72.3 81.7 88.3 87.3 86.5 86.5 86.2 86.1 88.2 87.2 84.6 84.6 84.6 93.8 90.2 88.7 88.4 81.4 74.5 70.9 69.6 65.1 65.9 68.4 66.8 67 65.9 66 61.8 52.2 51.3 51.2 57.9 56.2 54.2 53.9 54.7 61.9 64.4 53.2 58.2 57.8 46.1 46.4 39.2 36.6 35.6 12.9 2.8 -1.6 -1.6 -1.6 3.7 2.4 5.1 5.9 2.6 5.3 4.6 5.6 5.5 6.5 9.9 14.5 29.2 45.1 58.7 70.3 79.1 86.1 88.2 89.3 80.8 81.4 80.6 75.1 62.6 53.6 40.3 14.1 3.4 7.1 7.9 9.9 9.8 10.2 5.6 12.2
-1.6 -1.6 -1.6 -1.6 -1.6 -1.6 -1.6 -1.6 -1.6 -1.6 -1.6 -1.6 -1.6 -1.6 -1.6 -1.6 -1.6 -1.6 -1.6 -1.6 -1.6 -1.6 -1.6 -1.6 -1.6 -1.6 -1.6 -1.6 -1.6 -1.6 -1.6 -1.6 -1.6 -1.6 -1.6 -1.6 15.6 31.6 32.9 44.2 52.3 58.7 72.8 100.8 114.3 121.8 125.2 140.6 146.2 146.6 140 133.9 125.2 120.8 120.8 120.1 113.3 105.7 98.6 89.2 80.7 76.4 78.5 80.6 86.3 92.4 96.9 96 99.9 108.4 110.4 106.3 103.6 102.2 100.2 96.7 89.8 88.5 85.6 81.2 72.3 67.7 66 66.8 66.7 66.5 63.2 61.6 57 48.9 58.1 61.1 65.6 64 63.3 60.9 60.9 60.9 62.9 64.5 62.5 67.6 67.7 77.2 85.6 83.2 67.7 64.9 65.4 68.1 77.6 75.2 75.4 78.2 89.7 88.8 87.9 87.6 87.3 87 87.8 87.8 84.6 84.6 90 92.5 93.4 88.9 86.9 85 75.4 66.2 67.5 67.7 66.7 70.6 67.2 66.9 66.5 63.6 61.5 62.4 62.2 65.9 65.9 65.9 60.3 62.5 68.1 72.7 75.3 68.5 67.2 71.4 68.4 50.7 46.2 38.4 36 19.2 3.2 -1.6 -1.6 -1.6 2.4 2.4 6.8 16.1 15.3 12.3 9.2 8.8 7.7 8.5 11.7 20.1 37.2 50.8 62.2 66.9 73.7 87.4 92.8 90.5 84.8 83.1 84.2 82.8 84.9 75.1 59.3 25 12.3 9.9 8.7 13.6 13.5 15.2 15 15
-1.6 -1.6 -1.6 -1.6 -1.6 -1.6 -1.6 -1.6 -1.6 -1.6 -1.6 -1.6 -1.6 -1.6 -1.6 -1.6 -1.6 -1.6 -1.6 -1.6 -1.6 -1.6 -1.6 -1.6 -1.6 -1.6 -1.6 -1.6 -1.6 -1.6 -1.6 -1.6 3.3 4 4.3 15.1 26.6 32.8 35 46.2 53.8 66.1 73.5 97.3 111.9 122.5 128.3 142.5 150.3 152.3 144.6 136.3 126.6 121.6 121.7 121.7 115.2 109.2 101.1 93 85.1 78 79.1 82.2 89.4 96.1 97.1 97.4 99.5 103.3 108.2 106.3 104.6 100.2 98.5 95.3 90.4 89.5 86.1 81 73.5 69.9 68.4 68.2 67.6 66.5 63.1 68.5 61.9 53.6 59.7 61.4 64.3 64 60.9 60.9 60.9 60.9 65.8 65.8 62.7 64.2 67.6 71.2 83.2 94.3 75.2 68.3 69.6 65.8 74.7 75.4 76.1 77 89.4 89.6 89.5 88.7 88.3 88.3 87.5 87.1 85.9 84.6 87.3 93.4 94 92.3 85.6 85.6 76 66.6 67.9 68.2 73.7 68.4 66.6 66.7 66.2 69 70.4 66.7 70.3 73.1 75.2 73.8 75.5 72.2 77.1 88 90.2 78.1 72.2 71.1 68.8 58.4 50.6 40.5 34.4 24.3 9.3 1.3 -1.6 -1.6 -1.6 -1.6 9 16.6 17.5 17.1 18.3 16.4 15.1 14 11.8 26.6 42.2 54.4 63.8 69.9 74.6 87.6 93.1 93.3 89.4 93.2 96.6 94.9 100.8 97.9 74.3 40.5 19.4 13.7 14.1 14.1 15.4 14.5 16.9 14.8
-1.6 -1.6 -1.6 -1.6 -1.6 -1.6 -1.6 -1.6 -1.6 -1.6 -1.6 -1.6 -1.6 -1.6 -1.6 -1.6 -1.6 -1.6 -1.6 -1.6 -1.6 -1.6 -1.6 -1.6 -1.6 -1.6 -1.6 -1.6 -1.6 -1.6 -1.6 -1.6 2.2 14 17.3 23.5 29.3 32.8 39.8 58.3 59.4 64.8 77.9 94.7 106.2 125.4 137.4 142.2 147.4 150.6 149.7 137.6 127 122.3 122.8 122.2 116 109.5 102 94.6 84.9 78.9 79.1 83.5 90.5 94.7 99.3 98.1 98.1 100.6 106.3 105.6 102.2 99.2 97.4 94.8 92.1 89.8 85.7 81.7 73.8 71.9 70.7 71.4 68.7 68 66.2 67 63.3 55.8 62.6 63.1 64.7 61 60.9 60.9 60.9 60.9 64.9 66.1 63.8 66.7 68.8 70 71.6 78.2 80.2 70.3 75 73.4 76.8 76 77.1 78.4 83.1 92.8 93.1 91.3 89.7 88.8 88 87.3 84.6 84.6 84.6 87.9 88.8 90.8 85.5 81.2 74.3 68.4 72.5 72.3 74.2 72.3 66.6 66.5 67.1 71.3 76.5 76.1 82.2 78 79.6 82.9 84.7 81 85.1 95.9 92.8 80.1 71.1 65.8 62.7 58.5 67.6 53.2 41.3 44.1 30.6 11.1 2.1 -1.6 -1.6 -1.6 -1.6 16.6 17.3 17.8 18.5 17.7 17.2 15.9 15.8 29 42.9 61.5 69.9 74.8 82.4 92.4 99.2 98.7 102.3 100.3 102.7 105.5 107.9 110.5 88.2 55.1 30 14.4 15.1 14 14.8 15.1 15.6 15.6
-1.6 -1.6 -1.6 -1.6 -1.6 -1.6 -1.6 -1.6 -1.6 -1.6 -1.6 -1.6 -1.6 -1.6 -1.6 -1.6 -1.6 -1.6 -1.6 -1.6 -1.6 -1.6 -1.6 -1.6 -1.6 -1.6 -1.6 -1.6 -1.6 -1.6 -1.6 5.6 10.7 20.4 20.5 20.7 26 33.6 49.5 67.3 67.5 63.6 75.9 96.3 107 130.9 139.3 144.9 147.2 146.5 146.2 135.5 124.8 123.1 123.9 123.7 116.8 110.2 103.4 95.7 86.4 79.6 79.5 86.5 89.9 92.6 96.9 97.2 97.4 99.3 103.7 105.8 102.1 99.2 97.1 94.8 92.3 89.6 86.4 83.3 74.4 73.8 72.9 72.8 69.7 66.1 65.8 60.6 60.9 53.5 63.6 67.9 64.8 60.7 60.9 60.9 60.6 60.9 67.4 67.6 65.1 67.3 73.1 74.8 75.1 82.1 79.9 76.4 73 72.5 71.2 77.3 80.7 80 81.6 89.2 94.1 94 90.8 90.9 88.9 88.4 86.7 84.6 87 84.6 84.6 88.4 87.4 80.9 77.2 76.6 78.5 74.3 72.5 71.9 68.6 66.6 70.8 66.5 76.7 77.8 81.5 83.5 83.9 87.6 85.7 86.6 90.6 93.9 93.7 86.8 77.1 66.6 63.3 66.1 71.9 64.7 47.5 46.6 42.6 22.1 2.3 1.3 -1.6 -1.6 -1.6 16.3 17.1 17.8 18 18.7 17.8 16.8 16.6 24.5 38.9 63.6 73.3 74.7 84.8 98.3 106.9 104.8 104.8 104.8 109.4 109.4 110.4 109.5 98.8 91.3 51.2 23.6 16.2 16.7 16.4 15.6 15.5 14.9
-1.6 -1.6 -1.6 -1.6 -1.6 -1.6 -1.6 -1.6 -1.6 -1.6 -1.6 -1.6 -1.6 -1.6 -1.6 -1.6 -1.6 -1.6 -1.6 -1.6 -1.6 -1.6 -1.6 -1.6 -1.6 -1.6 -1.6 -1.6 -1.6 -1.6 7.8 17.9 19.7 22.2 23 21.2 23.7 33.8 55.7 76.2 80 80.4 81.5 99.8 114.9 132.9 146.3 150 147 145.5 139.5 130.6 125.1 123.9 125.3 124.8 117.9 111.3 104.1 96.4 86.4 80.1 80.6 83.6 88.5 91.1 96.9 96.4 97.2 97.9 102.7 103.5 103.1 100.3 96.9 94.3 91.8 89.2 86.2 82.3 75 74.8 75.7 74 65.4 66.7 61.6 59.9 56.9 54.1 61.9 65.2 62.8 62.6 60.9 61.8 60.3 62.1 71.9 73.9 67.3 70 74.4 79 84.6 85.6 82.2 78.7 75.3 73.6 70.4 78.6 80.7 83.9 82.3 84.5 89 94.7 92.8 92.3 90.9 88.8 87.5 87.7 88.5 93.9 88.6 94.7 91.2 86.6 84.2 75.9 76.1 81.4 74.2 73.5 71.2 67.1 69.4 66.3 67.3 74.8 78.6 83.2 89.8 95 89.1 91.8 93.4 95.4 100.7 97.9 84.7 75.6 69.6 71.4 73.6 64.4 51 38.5 31.9 21.8 6.3 0.6 -1.6 -1.6 11.9 16.2 16.9 17.5 17.7 17.9 17.6 17.4 17.1 16.2 35.9 57.4 70.2 69.5 84.7 104.4 110.1 108.1 109.5 106.9 115.3 111.4 108.5 110.5 111.1 107.6 76.6 40.3 18.7 17.6 16.7 16.1 15.5 15.6
-1.6 -1.6 -1.6 -1.6 -1.6 -1.6 -1.6 -1.6 -1.6 -1.6 -1.6 -1.6 -1.6 -1.6 -1.6 -1.6 -1.6 -1.6 -1.6 -1.6 -1.6 -1.6 -1.6 -1.6 -1.6 -1.6 -1.6 -1.6 -1.6 -1.6 19.3 20.4 29.4 31.8 24.9 22.4 23.1 38 66 85.4 85.2 79.9 90.4 103.8 110.2 135.9 149.6 152.7 151.9 147.4 138.3 128.7 125.2 124.8 128.4 126.4 119.1 112.4 104.9 96.5 86.3 80.9 81.4 84.8 88.4 90.5 93.6 96.9 96.6 97.3 99.4 103 101.7 99.5 97.3 94.3 90.9 88.6 86.6 83.6 75.8 75.7 77.4 70.4 66 65.1 61.4 59.3 53.1 56.8 61.6 62.7 62.2 62.1 63 61.2 62 68.9 76.9 77.5 70.3 73.7 79.4 82.8 89.2 91.5 88.3 75.4 75 70.8 71.9 78.7 80.6 82.2 82.7 83.8 85.8 91.6 94.6 93.8 94 89.9 89.3 89.6 89.7 97.1 91.9 93.7 92.7 88.8 86.4 78.3 75.4 84.4 76.8 77.1 71.7 71 74.1 69.5 67.5 70.4 74.9 88.9 91.6 97.3 92.8 93.5 100.5 101.2 103 102.1 96.3 87.3 78.1 76.4 73 61.4 47.9 36.4 24.4 16.4 8.3 0.5 -1.6 2.2 2.8 16.4 16.9 17.3 17.7 17.7 17.4 17.4 17.2 16.7 23 40.9 52.3 59.9 71.8 99.1 109.3 109.1 109.2 106.7 107.3 107.5 107.1 110.2 115.5 111.1 88.9 56 30.9 17 16.2 16 18.1 14.4
-1.6 -1.6 -1.6 -1.6 -1.6 -1.6 -1.6 -1.6 -1.6 -1.6 -1.6 -1.6 -1.6 -1.6 -1.6 -1.6 -1.6 -1.6 -1.6 -1.6 -1.6 -1.6 -1.6 -1.6 -1.6 -1.6 -1.6 -1.6 -1.6 -1.6 21.5 24.4 31.6 39.1 35.8 28.3 25.3 44.5 71.1 81.8 83.7 84.9 86.2 104.9 112.7 137.9 152.4 155.2 150.3 142.1 132.8 127.7 125.6 126.4 131.1 127.6 120.2 113.3 106 97.5 87.8 82 82.1 85.1 89.4 90.9 92.9 94.5 95.7 96.9 99.6 102.9 100.7 98.3 97.5 93.2 89.8 87.8 86.6 83.4 76.4 71.4 71.2 64.4 69.2 66.8 62.1 58 56.4 57 62.4 62.1 62 62.1 62.7 69 64.5 73.1 79.5 76.6 73.2 77.1 80.4 84.5 90.9 94.4 96.4 77.3 73.3 71 74.9 82.7 82.5 82.2 81.8 83 84.8 93 96.9 95.5 94.7 92.6 91.1 91.9 92.3 96.3 93.4 93.6 94.8 90.3 82.6 78.9 75.9 78 77.5 77.1 76.5 77.2 71.6 70.1 69.7 73.4 80.9 90 98 101.3 95.3 94.7 104.8 105.1 104.6 107.1 100 92.4 81 75.7 74.3 55.7 39 28.2 20.6 15.6 -1.6 -1.6 -1.6 2.5 2.8 17 17 17.2 17.6 17.4 17.4 17.4 17.2 16.7 16.6 40.6 53.8 58.9 72.5 94.1 96.9 98 98.7 97.8 97.8 97.8 103.2 104.8 112.3 111.8 99.8 68.3 44.1 24.2 16.1 18 16.4 14.5
-1.6 -1.6 -1.6 -1.6 -1.6 -1.6 -1.6 -1.6 -1.6 -1.6 -1.6 -1.6 -1.6 -1.6 -1.6 -1.6 -1.6 -1.6 -1.6 -1.6 -1.6 -1.6 -1.6 -1.6 -1.6 -1.6 -1.6 -1.6 -1.6 21 26.4 29.5 37 46.2 47.6 36.1 29.5 49.7 74.6 81.1 86 90.2 100 100.5 112.9 139.1 152.5 149.2 136.6 133.7 131 127 125.9 129.4 133.6 128.9 121.9 114.7 107 98.3 89.1 83.6 83.5 85.8 90.9 92.3 93.5 94.3 95 96.2 98.1 101.8 99.8 95.3 94.8 91.3 88.8 87.3 85.3 81.8 74.6 70.4 65.6 63.7 68.5 65.8 62.9 56.6 54.9 61.2 59.6 63.7 62.4 62.3 68.1 70.1 68.9 81.8 82.1 75.2 76.2 79 82.5 84.2 96.3 99.2 99.6 85.8 73.5 72.6 75 81.6 83.1 83.3 81.8 81.9 83.9 92.8 97.4 97 95.1 94.6 95.7 94.7 95.2 95.3 95.2 94.2 96.3 89.6 84.3 76.6 76.8 89.8 87.4 81 80.8 79 79 78.8 71.2 77.3 81.8 91.9 100.9 106.6 103.1 100.1 110.7 111.5 109.2 111.8 104.8 91.9 81.1 73.4 70.6 54.4 34 24.8 15.3 1.5 -1.6 -1.6 2.4 2.6 3.6 16.8 17.3 17.3 17.4 17.4 17.3 17.3 17.3 16.9 17.1 40.4 59.1 74.9 83.6 93.3 99.5 103.4 105 97.5 97.8 97.8 97.8 100 108.2 111.3 111 87.8 57.6 34.7 16.9 12.7 18.3 15.4
-1.6 -1.6 -1.6 -1.6 -1.6 -1.6 -1.6 -1.6 -1.6 -1.6 -1.6 -1.6 -1.6 -1.6 -1.6 -1.6 -1.6 -1.6 -1.6 -1.6 -1.6 -1.6 -1.6 -1.6 -1.6 -1.6 -1.6 -1.6 6.7 24 30.5 32.9 47.5 58.6 59.6 48.1 36.1 56 76.4 83.6 93.1 96.6 96.7 94.1 110.2 131.9 142.2 138.7 132.4 129.4 127.3 126.8 127 133.2 135.7 130.2 122.8 115.6 107.9 98.3 90.5 85.3 85 85.3 90.4 93 93.5 94 95.3 96 97.7 99.7 97.8 93.2 92.3 90.1 88.2 87 84.1 79.8 73.3 66.5 64.5 63.2 65.7 64.3 58.6 56.6 55.8 61.3 59.8 62 63.4 62.5 67.1 72.2 71.6 78.8 81.4 76 77.8 80.3 89.2 90.7 99.7 105.4 102.4 92.1 81.3 75.6 76.2 77.2 83.1 84.6 81.8 81.8 82.2 87.9 93.3 95.4 94.1 94.7 94.5 95.5 95.2 95.4 95.6 96.1 94.5 89 91.1 78.5 76.2 88.9 88.2 84 82.7 89 81.2 76.4 74.3 80.6 85.5 91.9 99.1 111.5 108.5 103.8 111.7 114.5 112.1 110.4 105.2 88.3 76.6 71.3 62.8 53.1 34.1 21 9 2.2 2.4 2.8 2.2 16 3.7 17.1 17.4 17.5 17.3 17.3 17.3 17.3 17.3 17.5 21.7 38.5 63.2 84.5 91.5 97.6 100.2 101.7 102.6 101.7 99.9 97.8 102.4 98.9 100.3 103.1 104 100.3 69.6 48.3 25.9 11.2 15 17.9
-1.6 -1.6 -1.6 -1.6 -1.6 -1.6 -1.6 -1.6 -1.6 -1.6 -1.6 -1.6 -1.6 -1.6 -1.6 -1.6 -1.6 -1.6 -1.6 -1.6 -1.6 -1.6 -1.6 -1.6 -1.6 -1.6 -1.6 0.5 20.2 31.3 39 39.1 56.2 74.2 71.1 62.5 43.1 61.2 73.5 83.6 95.4 100.8 99.8 95.5 113.7 128.2 133.4 129.7 124.9 125.2 126 126.7 128.9 136.8 138.3 131.5 124 116.4 107.2 99 91.9 86.7 86.2 86.1 87.1 90.6 92.2 93.4 95.6 96.3 97 97.8 97 93 92 90.1 88.2 86.9 84.2 80.7 73.2 65.1 63.8 63 61.6 60.7 57.1 56.2 57.6 62 61.3 61.9 62.4 69.3 68.3 71.1 71.5 77.1 76.5 76 77.1 82 92 96.7 103.8 107.5 107.5 95.9 87.6 74.2 76.1 77.3 80.1 82.9 83.6 81.8 81.8 84.1 88.4 92.2 93.3 92.6 93.8 94.7 95.7 95.7 96 96.1 94.5 89.6 89.8 81.1 76.4 84.4 85 83.2 86.3 86.7 79.1 74.5 73.6 82.6 89.2 88.6 99.2 112.7 109.8 104.9 111.7 112.7 108.5 104.2 99.9 83.9 74.9 66.3 55.6 44.6 34.2 17.7 6.8 2.8 2.4 2.9 18.4 17.5 4.1 16.6 17.3 17.2 17.2 17.2 17.3 17.3 17.3 18.1 26 40.2 59.1 78.7 83.4 89.5 92.3 99.6 107.7 106.6 103.1 97.8 99.2 97.1 97 96.1 96.5 92.7 87.7 68.1 33.2 12.7 10.7 13
-1.6 -1.6 -1.6 -1.6 -1.6 -1.6 -1.6 -1.6 -1.6 -1.6 -1.6 -1.6 -1.6 -1.6 -1.6 -1.6 -1.6 -1.6 -1.6 -1.6 -1.6 -1.6 -1.6 -1.6 -1.6 -1.6 -1.6 10.2 24.2 36.9 45.5 43.6 66.2 76 78.8 69.8 43.9 67.5 80.2 83.7 95.5 103 103.3 98.8 114.1 123.6 127.4 123.6 122.9 125.3 126.5 127.6 135 140.9 141.1 133.3 125.6 118.4 108.8 101.2 94.2 89.3 87 86.9 87.4 87.8 88.4 90.8 94.2 96.3 97.7 97.9 96.6 93.9 92.4 90.9 88.2 86.9 85.2 81.2 73.7 64.7 64.2 65.6 63.9 58.5 56.6 56.6 58 69.2 64.5 63.9 73 71.4 70.5 71.2 75.7 77.4 76.8 76.7 77.1 83 91.3 95.6 103.1 106.4 102.8 101.9 92 81.9 82.5 81.9 78.7 78.2 83.8 83.3 83.7 84.1 87.3 90 91.2 91.6 94.5 94.4 95.3 95.8 95.8 96.6 94.6 90.3 84 81.9 76.5 87.1 83.6 84.8 81.6 85.2 77.2 73.7 73.7 88.9 89 90.7 99.5 112.6 114.2 105.2 109.6 109.5 105.1 100.4 91.9 83.7 73.8 64.3 48.5 37.3 25.3 16.5 2.9 2.6 2.3 11.7 19.3 18.3 6.9 5 11.9 16.8 16.3 17.1 17.2 17.4 17.6 21.1 40.8 51.8 68.3 86.3 84.2 86.5 88.4 102.2 108.5 105.5 105.8 98.3 89.1 90.7 91.8 87.6 85.7 80.8 72.8 60.6 32.3 11.8 9 8.2
-1.6 -1.6 -1.6 -1.6 -1.6 -1.6 -1.6 -1.6 -1.6 -1.6 -1.6 -1.6 -1.6 -1.6 -1.6 -1.6 -1.6 -1.6 -1.6 -1.6 -1.6 -1.6 -1.6 -1.6 -1.6 -1.6 -1.6 21 30.5 38.5 46.9 51.2 69.7 75.7 79.7 66.9 46.8 70.2 85.5 94.4 96 98.2 98.4 105.6 114.9 121.6 121.4 122 122.9 126 128.7 132.3 141 145.7 144.6 134.9 126.8 119.6 110.9 103.9 96.3 92.1 88.2 87.5 87.7 88 88.4 89 94 95.9 97.4 98.1 96.8 94.3 92.8 90.8 88.4 87 85.1 81.6 73.9 64.3 63 62.4 60.9 57 56.2 57.9 64 72.3 70.2 71.2 80.6 77.8 79.3 72.9 83 80.4 77 77 77.4 82.6 89.6 94.5 96.8 101.5 102.5 97.4 94.9 86.6 76.3 76.7 77.2 77.3 79.1 83.5 84.2 84.8 87.2 89 90.7 92.3 91.8 92.4 94.4 94.9 94.9 96.8 95.4 94.4 83.5 81.1 76.7 82.7 83.1 82.5 80.2 80.1 78.2 73.8 74 92.9 94.8 93 101 116.8 112.3 106.9 102.7 105.5 104.4 97.5 94.7 82.1 67.6 55.8 44.9 31.6 19.3 4.8 3 2.7 10.2 19.2 30.4 27.1 16.6 14.3 6.7 9.8 16.1 17 17.4 17.5 18.3 25.9 49.6 60.9 75.5 88.2 98.7 105.7 104.5 106.1 107.8 113.3 117.6 117.2 89.3 88.7 88.4 86.6 84.9 79 70.7 65.8 64 33.6 10.5 7
-1.6 -1.6 -1.6 -1.6 -1.6 -1.6 -1.6 -1.6 -1.6 -1.6 -1.6 -1.6 -1.6 -1.6 -1.6 -1.6 -1.6 -1.6 -1.6 -1.6 -1.6 -1.6 -1.6 -1.6 -1.6 -1.6 1.7 22.5 32.8 43.1 49.8 56.4 71.4 76.3 76.1 69.1 49.5 74.4 93.2 99.1 97.8 99.6 99.3 102.8 110.8 118.4 121.5 121.2 123.6 131.5 134.8 138.5 142.8 149.3 147.1 136.4 127.3 120.7 113.3 107.1 98.8 94.8 91.6 89.9 89.3 88.8 88.8 89.9 93.5 96.3 97.9 98.3 97.3 95 93.3 91 88.6 87 84.6 80.9 73.6 64.3 63 62.6 62.6 56.6 57.8 58.1 65.7 75.3 72.9 73.8 86 85.1 87.4 82.4 87.1 81.5 77.3 77.3 77.5 84.2 87.5 94 95.1 92.7 96.2 96.2 102.7 93.6 82.3 76.7 76.8 77 77.4 81.4 84.3 84.8 86.1 89.2 91 91.9 91.8 91.8 91.8 92.6 95.7 98.4 96.4 97.2 89.9 82.4 77.9 78.9 81.6 81.1 80.6 78.9 77.9 76.1 74.3 96.3 101.3 94.9 98.2 110.2 111.3 108.4 102.2 100 104.1 99.9 93.3 87.2 69.1 54.6 39.3 24.6 17.7 3.7 2.8 3.1 20.7 24.5 36 30.5 18.2 16.4 10.2 7.2 16.8 17.4 17.6 17.6 18.2 35.8 52.9 65.4 73.7 86.4 97.9 105.7 104 103.8 106.8 113.8 115.6 122.1 106.6 101.1 109 93.5 95.1 99.6 99.8 97.6 98 61 49.4 30.4
-1.6 -1.6 -1.6 -1.6 -1.6 -1.6 -1.6 -1.6 -1.6 -1.6 -1.6 -1.6 -1.6 -1.6 -1.6 -1.6 -1.6 -1.6 -1.6 -1.6 -1.6 -1.6 -1.6 -1.6 -1.6 -1.6 2.3 24.9 35.3 46.4 49.2 60 71.2 74.4 72.3 63.9 51.1 79.6 93.5 98.4 98.5 102.8 101.1 100.2 103.5 112.7 120.7 123.6 131 139.8 142 143 144.2 149.7 150.6 139.9 128.5 123.7 112.4 105.9 98.3 95.8 94.2 93.8 92.7 91.6 89.2 91.4 93.2 96.4 98.4 98.8 98.3 96.1 93.9 91.3 88.9 86.9 84.1 81.3 73.8 64.5 63.8 63.6 59.8 56.5 58.1 59.1 69.5 75.1 76.5 78.7 84.2 88.9 93.3 88.9 97.3 88.6 77.9 77.7 77.7 83.5 88.9 93.4 94.3 90.1 89.7 95.1 101.6 97.3 86.8 78.1 76.5 77.1 77.9 78.8 83.2 84.3 85.6 87.6 92.1 92.3 91.6 91.8 91.8 91.8 93.7 98.3 97.6 95.7 93.4 87.8 81.2 78.3 80.5 80.8 80.2 79.5 79.5 79.5 80.1 97.8 104.6 96 100.9 107.7 108.5 107.1 103.3 94.6 96.7 98.2 88.5 79.6 64.8 51.7 34.5 19.4 5.4 3.6 3.5 14.3 31.9 36.8 48.7 35.3 27.4 17.1 11.7 13.1 8.2 17.3 17.6 17.8 19.8 32.6 46.9 62.7 73 88.1 97.7 103.3 110.2 103.8 106 114.4 116.6 121.1 108 109.2 115.1 101.5 98.5 109.5 122.2 121.2 117.2 100.1 85.2 62.4
-1.6 -1.6 -1.6 -1.6 -1.6 -1.6 -1.6 -1.6 -1.6 -1.6 -1.6 -1.6 -1.6 -1.6 -1.6 -1.6 -1.6 -1.6 -1.6 -1.6 -1.6 -1.6 -1.6 -1.6 -1.6 -1.6 17.4 24.7 35.7 50.4 50.8 62.9 71.3 74.7 70.5 60.7 54.5 74 93.2 97.9 98.9 101.1 101.4 105 102.4 114.4 121 129.5 140.2 146.9 146.7 145.2 145.7 154.4 152.5 139.7 130.1 124.3 112.7 103.5 98.7 97.4 96.3 95.5 94.1 91.6 90.6 90.9 92.9 96.3 98.5 99.3 98.7 96.5 94.1 91.4 88.7 86.7 84.1 80 74.5 65.3 64.1 63.1 57.4 56.8 58.2 61.6 68.3 74.9 77.1 80.7 87.2 93.3 100.5 92.7 93.7 96.3 91.1 77.8 78.1 82.2 89.5 92.6 94.1 89.6 89.6 93.5 95.5 94 92.3 82.8 77.3 78.8 78.2 78.5 81.8 84.3 86.3 88.2 90.1 92.3 91.9 91.8 91.8 91.8 92.1 96.5 98.2 94.4 90.9 91.5 86 81 78.9 80.5 81.2 81.8 81.2 82.8 81.5 95.5 102.9 97.5 99.6 106.6 105.2 106.2 102.2 92.7 90.8 93.6 83.2 77.1 56.9 42.9 27.7 18.9 3.5 4.3 3.9 21.2 44.7 45.1 52 44.2 26.2 20.6 16.8 14.2 16.4 9.8 17.9 18.2 22.5 35.6 45.3 63.3 77.4 89.5 97.1 101.3 111.7 104.1 104 112.4 118.3 120.7 111.4 106.4 115.5 104.3 102.7 114.3 128.6 132.2 130.1 115.8 103.1 80.1
-1.6 -1.6 -1.6 -1.6 -1.6 -1.6 -1.6 -1.6 -1.6 -1.6 -1.6 -1.6 -1.6 -1.6 -1.6 -1.6 -1.6 -1.6 -1.6 -1.6 -1.6 -1.6 -1.6 -1.6 -1.6 -1.6 15 25.1 35.2 48.8 51.7 64.3 70.5 74.4 68.5 56.2 63.4 70.8 88.9 94.6 103.5 106.1 110.1 108.6 103.1 115 127.8 135.1 149.5 154.3 148 146 146.5 155.7 150.4 139.6 133 123.9 115 105.1 99.6 98.1 97.3 96.3 95.1 93.2 90.9 90.8 92.1 95.9 98.7 99.6 99 96.7 94.1 91.3 88.4 86.2 83.3 80.3 74.4 65.1 64.3 62.2 57.2 57.1 58.5 64 68.2 70.9 74.4 78.7 87 91.3 98.3 104.7 97.5 97 96.4 90.8 78.8 80.3 89.1 93.7 90.9 90.4 89.6 89.6 92.9 91.1 90.2 84.7 78.1 78.9 78.4 79.1 81.6 83.1 85.8 91.3 89.6 92.5 92.9 91.8 91.8 94.3 95.9 98.8 98.9 95.9 91 90.4 88.1 84.5 79.1 81.4 84.5 85.1 84.7 84.5 84.3 93.5 100.3 96.9 94.8 99 99.8 102.4 100.8 100.7 85.3 83.5 79.8 74 57.6 36 19.4 11.5 3.7 4.2 17.5 30.9 48.3 48.3 50.1 47.2 40.9 20 17.9 15.8 17.6 17.5 16.3 18.9 23.5 35.8 47.6 65.2 77.9 85.7 97.7 102 105.7 106.2 103.8 111.8 117.2 119.4 116.4 106.3 115.6 106.3 107.3 117.5 127.9 132.6 135.1 124.7 119.4 107.9
-1.6 -1.6 -1.6 -1.6 -1.6 -1.6 -1.6 -1.6 -1.6 -1.6 -1.6 -1.6 -1.7 -1.6 -1.6 -1.6 -1.6 -1.6 -1.6 -1.6 -1.6 -1.6 -1.6 -1.6 -1.6 8.7 12.8 23.9 34.4 47.9 54.1 64.8 69.1 70.1 64.6 61.9 69.1 76.9 89.1 90 101.8 112.8 113.3 105.8 111.8 119 136.5 141 154.9 155 148.5 147.2 148.1 153.6 147.2 139 132.6 123.7 115.5 106.6 100 98.3 97.1 96.3 95 92 91.1 91 91.8 95.7 98.8 99.8 99.1 96.6 94 91.2 88.2 85.4 82.4 79.4 72.3 64.3 63.6 59.8 57.7 57.4 62.5 68.1 70.5 72 73.9 75.8 82.6 89.4 98.1 111.7 105.2 101.5 98.2 97.1 84.8 81.7 86.7 91.4 91.2 90.3 89.6 89.6 92.5 89.1 89.6 87 80.7 77.6 78.5 80 82.3 83.1 84.5 90.9 90.5 95.8 96 94.5 93.8 95.3 97.3 97.4 103.3 94.5 91.3 90.6 90.9 84.3 80.1 89.8 90.6 90.2 91.5 88.9 87.6 96.5 102.9 99.2 93.6 95.1 96.3 98.9 98.1 104.7 97.6 77 75.4 67.8 59.7 36.7 19.3 6.6 4.3 4.2 21.3 40.4 55.3 49.3 49.3 47.7 44.1 26 19.2 18 18.1 17.3 18.1 19.6 22.8 33.9 44.7 59.7 74.5 86 97.9 100.6 104.5 106.9 105.2 112.8 116.4 119.2 115.8 107.1 117.3 111.4 107.5 113.7 126.3 129 132.4 130.4 128.9 120.3
-1.6 -1.6 -1.6 -1.6 -1.6 -1.6 -1.6 -1.6 -1.6 -1.6 -1.6 -1.6 -1.6 -1.6 -1.6 -1.6 -1.6 -1.6 -1.6 -1.6 -1.6 -1.6 -1.5 -1.6 -1.6 1.5 10.4 21.6 32.1 43.9 54 64 66.6 66 61.5 65.3 73.2 80.6 88.3 90.1 101.3 112.4 103.7 105.4 115.6 124.6 137.6 145.6 157.1 150.8 148.8 148.5 148.6 150.7 144.1 138.2 131.6 123.4 114.6 104.7 99.6 98.5 97.2 96.4 94.2 91.3 91.1 90.8 91.4 95.4 98.6 99.6 98.8 96 93.5 90.9 87.8 84.8 81.1 77.4 71.6 63 60 57.6 57.7 58.3 65.5 72.7 78.6 76.3 76.3 75.1 76.2 88.7 99.7 107.2 107.6 106 102.2 100.3 93 85.7 88.7 94 90.8 90.1 89.6 89.5 89.9 89.9 86.4 86.2 80.9 78.4 78.3 79.8 82.3 83.6 83.9 86.8 90.2 96 96.4 95.9 96 97.7 98.7 98.1 103.1 95.8 92.4 91.8 94.7 90.1 80.7 87 90.1 91.1 95 90.1 90.8 92.8 97.9 96.5 93.1 92.7 92.7 99.3 97.6 104.5 98.3 80.9 67.8 62 52.1 33.4 22.1 5.4 5.4 8.6 31.9 51.9 63.7 53.4 50.7 49.9 45.8 28.7 19.5 19 18.3 18.2 13.4 20.3 23.9 36.9 42.8 56.5 74 82.3 94.7 99.3 102.4 107.5 108.9 111.1 114.4 119.6 119.6 112 113.3 115.9 109.4 110 117.9 130.6 135 133.5 133.6 121.8
-1.6 -1.6 -1.6 -1.6 -1.6 -1.6 -1.6 -1.6 -1.6 -1.6 -1.6 -1.6 -1.6 -1.6 -1.6 -1.6 -1.6 -1.6 -1.6 -1.6 -1.6 -0.3 -0.1 -0.2 0.4 2.7 10.1 18.3 27.8 41.3 52.8 63 65.4 64.1 64.1 68.1 74 83 89.7 89.9 99.4 103.5 100.7 111 117.2 127.1 141 150.1 155.9 154.7 149.2 148.5 149.3 150 143.9 137.2 130.2 122.7 112.7 105.6 100.3 98.6 97.4 95.6 93.2 91 90.8 90.7 90.9 95 98.5 99.5 98.4 95.5 92.8 90.4 87.1 83.9 80.1 76 70.5 62.1 58.7 57.8 57.9 62.1 67.1 72.4 77.1 77.6 77.7 76 81.1 89.7 95.7 98.4 107.5 106.6 106.5 103.9 104.5 96.3 92.6 95.9 90.8 90.2 89.6 89.5 93.5 91.8 87.9 82.9 79 78.4 78.1 79 86.6 83.7 83.4 83.6 92.1 93.3 94.4 96.5 98.1 100.6 99.6 97.9 99.2 99.7 94.5 92.9 99.7 94.5 83.5 82.5 86.7 95 100.8 93.1 101.7 96.9 97.1 99.1 93 91.9 91.2 90.3 90.6 101.7 93.6 80.4 63.4 58.6 48 35.2 18.5 6 5.7 16.2 42.2 58.5 63.3 54.5 51.8 48.8 48.7 37.5 20.8 19.6 19.1 18.9 18.6 18.2 24 36 40.6 56.6 64.3 77.6 91 97.6 104.2 107 109.4 110.3 111.4 112.8 113.9 111.9 111 114.1 109.7 110.2 113.9 121.9 132.1 133.5 133.1 125.2
-1.6 -1.6 -1.6 -1.6 -1.6 -1.6 -1.6 -1.6 -1.6 -1.6 -0.6 -1.6 -1.6 -1.6 -1.6 -1.6 -1.6 -1.6 -1.6 -0.5 0 0.6 1.2 1.2 2.3 19.9 24.3 12.8 25.3 37.7 49.7 60.1 62.1 62.9 64.6 68.7 72.6 87.8 96.9 90.1 91.7 98.8 111 113.2 116.8 127.5 139.6 157.5 162.2 161.1 152.9 149.5 151 152.1 144.5 136.5 128.9 122 112.4 106.6 102.2 98.8 97 95.1 93 90.7 90.6 90.6 90.7 94.1 97.6 99 97.7 94.5 91.6 89.6 85.8 82.8 78.9 74.6 69 61.4 58.3 57.7 58.5 63.2 66.1 73.5 77.8 78.2 77.9 78.5 77.9 88.1 95.6 99.8 103.8 106.3 105.6 105.7 110.1 112.3 101 98.4 93 90.4 89.6 89.6 95.5 96.3 95 89.7 79.9 78.5 78.2 78.7 83 82.1 83.5 83.5 88.1 89.8 94.7 95.7 98 100.4 101.9 97.7 97.4 95.6 94.1 94.2 100 99.2 87.8 81.4 82.3 86.9 94.3 94.9 103.2 102.5 101.3 98 93.5 93.3 92 94.5 84.3 92.4 90.2 72.7 60.2 56 45.5 35 20.2 6 4.8 19.4 38.2 61.9 59.3 52.6 50.2 46.1 47.2 46.8 25.1 21.3 20 19.7 19.6 16.6 24.7 33 40.7 57.5 67 70 90.2 97 104.3 105.8 105.6 105.4 108.4 110.4 115.8 118.3 113.7 116.3 111.7 110.8 115 124.8 130.4 130.9 130.7 121.2
-1.6 -1.6 -1.6 -1.6 -1.6 -1.6 -1.6 -1.6 -1.6 -1.6 1.7 1 0.8 0.7 -1.6 -1.6 -1.6 -0.5 0 0.6 1.1 1.6 2.1 1.9 2 30.3 35.8 19.2 13.4 32.6 49.1 60.4 61.6 63.9 64.6 67.7 72.7 86.7 94.3 92.9 91.1 101.2 110.1 112.6 113.5 126.5 147.3 157.3 164.6 165.3 158.3 150.6 151.7 153 145.2 137.2 129.2 121.4 113.2 107 102.3 99.6 97.5 95.3 93.3 90.5 90.4 90.4 90.6 93.5 97.2 98.4 97 93.5 90.5 88.4 84.6 81.5 76.3 71.8 67.5 60 58.4 58.1 59.1 63.4 67.4 73.9 76.7 78.8 80.7 79.8 79.5 85 90.7 99.7 103.4 107 106.8 109.1 118.5 113.9 110.5 105.6 97.1 91.1 90.6 95.5 100.2 100.6 104.1 98.2 83 79.5 78.4 78.9 79.3 84.2 84.1 84.2 84.8 91.4 94.5 94.3 94.8 98.4 99.7 97.6 95.7 94 93.8 98.4 101 102 95.5 82.7 82 83.2 90.8 97.4 107.9 106.3 108 100.4 94.9 95.2 93.3 96.4 83.2 77.6 81.3 73.2 58.3 52.7 41.7 30.3 22.1 6.1 5.2 19 42.3 54.3 56.2 53.2 52.4 43.5 41.3 46.9 33.3 21.4 20.9 20.4 20 16.1 25.4 29.9 40.8 52.5 60.3 62.2 83.8 93.9 100.4 104.8 102.7 106.8 106.8 105.9 114.7 118.4 116.3 122.3 121.8 111.6 113 123.2 129.5 129.9 131.8 127.3
-1.6 -1.6 -1.6 -1.6 -1.6 -1.6 -1.6 -1.6 -1.6 33.2 30.3 15.8 9.9 22.2 5.6 1.5 0.9 0.9 1.3 1.7 2.2 2.4 1.5 2.9 24.3 33.3 37.8 39.1 20.5 26.9 45.2 58.7 61.1 63.4 65.9 65.8 74.8 82.7 94 92.7 92.5 99.3 106 108.1 113.8 127.3 147.3 159.1 163.2 161.8 158.9 151 153.4 154.3 146.2 137.6 130 119.9 113 107.4 103.5 100.1 97.9 95.8 92.9 90.5 90.3 90.3 90.4 92 96.8 97.5 96 92.4 89.5 87.1 83.4 80.1 74.2 71.3 65.2 59.7 58.7 58.7 61.5 66.3 69.9 73.2 76.6 79 83.3 85.1 83.4 82.6 91.3 93.8 102.3 105.1 107.8 116.2 116.8 114.8 114.3 113.2 101 92.3 91.7 98.7 105 106 107 102.3 92.1 83.4 79.3 79.2 79.6 84.5 84.6 84.6 84.7 87.9 95 93.4 94.1 96.3 96.4 97.8 96.8 93.5 92.9 95.4 99.1 101.8 98.7 84.1 82.2 84.1 88 95.1 104.3 106.1 104.3 100.9 96 95.4 92.9 91.7 87.3 75.4 73.3 65.2 56.9 48.2 37.1 27.7 22.6 5.4 6 19.4 39.1 51.3 52.1 54.1 53.7 40.5 35.7 42.2 28.4 21.8 21.6 21.1 20.6 19.2 17.5 25.9 34 47.7 52.6 55.1 76.2 88.8 93.7 98 104.2 110.7 110.2 107.2 115.8 123.7 123.2 127.9 125.6 117.2 114.7 122.5 129.5 131.2 133.4 133.2
