ncols 200
nrows 82
xllcorner 400000
yllcorner 501850
cellsize 50
460.8 458.9 457.3 454.6 452.1 451.5 449.4 446.6 443.8 442.3 441 437.8 438.8 437.4 434.8 432.1 429.9 427.3 424.5 419.3 418.1 426.9 440.4 449 453.9 463.5 469.3 474.7 479.5 486.9 493.3 499 504 506.5 508.5 509.2 509.6 509.4 509 508.4 507.3 505.7 504.1 502.6 500.9 498.8 497 494.6 493 489.7 488.7 488 487.7 487.4 486.9 485.9 484.4 481.6 479.2 478.3 477.6 476.9 476.1 475.3 474.5 473.7 472.4 471.1 469.8 468.6 468 467.2 465.7 463.2 460.7 458.4 456.1 454.2 453.2 451.9 451.1 450.6 450.8 449.4 444.5 440.7 435.5 432.6 430 427.3 425.1 423.9 421.7 422.3 422 421.5 420.5 418.7 416.2 411.8 407.7 403.7 398.7 391.6 386.9 375.7 351.6 354 375.4 386.5 398.8 407.2 410.2 411.7 413.2 414 415.2 416.8 418.3 419.2 419 418.1 417.8 417.6 416.8 415.6 414.4 413.1 409.6 408.1 405.5 402.5 399.4 395.9 390.3 385.6 382.3 379.3 376.9 373.7 371.3 369.1 366.2 363.8 361.6 360.1 358.5 356.1 353.6 347.1 345.9 347.8 348.9 348.7 348.4 348 346.6 345.8 344.1 334.9 328.7 334.8 346.8 366.4 365.7 357.5 365.5 357.9 348.4 365.3 361.2 364.3 367.5 366.8 366.2 363.9 359.1 360.1 359.9 354.8 353.2 353.1 353.7 354.2 354.6 355.4 355.6 357 357.8 357.7 360.8 362 362.7 364 364.5 367.3 368.8 369.4 371.5 373.5
453.8 452 450.9 448.2 446.2 445.6 443.5 440.8 438.5 437.6 436.2 433.5 434.9 433.8 432.6 430.3 428.3 425.8 418.2 416.7 422.6 433.5 443.1 449.3 454.9 463.2 468.9 474.3 480 485.6 492.4 499 503 506.2 508.5 509.3 509.7 509.2 508.8 508.3 507.6 506.1 504.4 502.4 500.7 499.1 497.3 495.1 493.8 490.3 488.3 487.5 487.4 486.9 486.3 485.3 483.7 481 478.9 477.8 477 476.2 475.5 474.7 473.8 472.7 471.4 470 469 467.6 465.9 463.5 462.3 460.8 458.5 456.1 454.3 452.9 452.2 451.7 451.4 450.9 450 446.8 443.7 440.8 439.8 437.6 434 430.8 428.2 426.7 425.8 425.1 424.3 423.6 422.3 420.6 418.2 414.6 410.1 405.7 401.2 397.1 393 383.6 358.5 354.6 378 393.1 400.7 407.2 410.2 411.6 412.9 413.6 414.3 415.7 417.5 418.9 418.1 417.7 417.4 416.9 416.1 415.1 413.7 411.8 408.9 405.9 403.1 400.6 396.6 391.6 386.8 383.9 379.1 375.3 374 371.1 367.9 364.4 362.3 360 356.5 355.3 354.4 352.8 351.6 349 339.8 343 345.2 345.3 344.4 344.3 343.8 343.3 342 333.8 327.5 335.7 351.4 368.8 370.2 369.5 370.5 370.8 352.9 349.5 351.2 355 353.8 358.1 356.7 354.2 355.4 353.8 353.1 353.2 357.8 358.4 358.5 358.6 359.1 360.2 361 361.4 362.4 364.9 367.8 368.3 368.9 369.5 370.1 371.1 372 372.6 373.4 373.6
447.8 446.8 444.5 442.2 440.6 439.7 438.5 436.5 434 432.2 432.3 430.2 431.6 430.5 429.4 427.3 424.5 419.3 416.3 415.4 429.3 438.8 444.5 450.3 455.1 462.8 469.2 473.3 479.5 484.7 491.3 499.1 504.9 507.4 509 509.6 509.9 509.4 508.9 508.5 507.5 506.4 504.3 502.6 501 499.2 497.7 495.8 493.9 490.5 487.6 487 486.4 485.9 485.5 484.4 482.8 480.3 478.2 477 476.2 475.5 474.8 474.2 473.3 472.1 470.8 469.2 468.2 467.2 465.5 463.3 461.5 459 456.6 454.2 452.8 451.4 450.3 450.9 450.8 450.5 449.5 447.9 446.9 444.7 442.8 440.8 437.6 433.9 431.4 429.7 428.3 428.2 427.2 425.9 424.4 422.4 419.5 416.1 411.4 406.5 402.4 398.9 394.9 388.3 375.2 347.3 374.2 392.8 401.1 407.5 410.7 411.9 412.8 413.3 414 415.7 417.9 418.6 417.7 416.8 416.7 416.3 415.3 414 412.7 410.6 407.7 404.2 401.6 398.7 393.3 389 385.1 380.7 377.9 374.4 370.9 368.2 365.7 362.7 359.7 358.2 356.7 354.9 351.3 346.9 345.9 345.9 343.8 338.5 340.5 342.5 340.1 340.9 341.1 341.2 340.1 329.9 326.1 338.1 354 369.8 371.2 371.8 372 372.4 371.6 370.3 369.4 369 362.1 359.6 366.3 366.6 365.2 364 362.6 363.6 365.4 364.1 365.6 365.7 365.7 366.2 367 367.9 368.8 370.2 371.4 371.9 373.1 373 373.3 373.9 374.9 375.5 376 376.5
442.4 441.2 438.4 437.5 436.1 434.6 433.6 431.7 429.9 429.4 428.2 426.7 427 426.8 424.5 423.2 419.5 416 410.9 422.5 433.5 439.7 446.4 451 457.8 464.6 470.2 475.1 480.2 484.9 492.2 500.6 505.8 507.7 509.1 509.7 509.9 509.6 509.2 508.5 507.4 506.4 504.5 502.9 501.1 499.4 497.8 495.6 493.6 491.1 486.8 484.9 485.4 484 483.8 483 481.7 479.6 477.6 476.3 475.5 474.7 474.1 473.5 472.7 471.6 470.3 468.5 467.4 466.4 464.8 462.4 459.2 456.6 454.3 452.5 451.2 449.8 447.4 447.6 449.3 449.5 449.9 449.6 449.5 448.8 446.5 444.4 440.3 438 435.5 432.6 431.7 430.9 429.5 427.8 425.6 423.2 420.2 416.5 411.3 405.6 402.3 399.2 396.1 391.6 382.8 349 364 390.3 398.3 407.4 410.9 412.4 413 413.7 414.8 416.4 418.4 418.6 417.4 416.5 415.7 415.2 414.1 412.7 412 407.8 405.4 403 400.6 396.6 391.4 387.1 383.3 379.5 376.5 373.9 371.7 368 365 362.4 361.1 361.1 360 358.1 355.1 350.1 345 342.4 338.5 338.6 336.4 334.6 333.5 333.4 336.9 338.4 336.6 327 328.1 342.3 358.3 369.1 372.1 373.7 373.4 374.1 374.1 373.5 373.4 373.6 372.9 371.9 370.8 369.7 368.3 367.5 367.6 368.3 370.5 370.5 370.6 371.1 371.4 371.9 372.6 373.1 373.3 373.1 374.1 375 375.6 376.1 376.2 376.6 378 378.7 378.9 379.6
436.7 435.5 433.8 432.8 431.8 430.3 429.4 428 426 424.9 423.6 421.4 422.6 421.8 420.2 418.5 414.6 408 412.4 427.6 434.7 440.4 446.1 449.7 457.7 464.4 471 476.2 481.1 485.4 492.5 500.8 505.8 507.9 509.3 509.9 510 509.8 509.5 508.5 507.5 506.6 504.2 502.4 500.7 499 497.9 495.9 494.4 492.4 489 486.9 484.8 482.6 481.2 481.6 480.6 478.7 476.9 475.7 474.8 474 473.4 472.8 472.2 471.1 469.7 468 466.7 463.6 461.3 459.3 457.1 454.6 452.6 451 449.2 447.7 446.4 446.3 447.3 448.3 449.3 449.9 449.9 449.6 448.4 446.6 443.2 441.1 438.8 435.8 434.2 432.4 431 428.7 426.3 423.8 420.7 415.8 410.2 405.1 401.2 398.7 395.5 390 377.7 345.2 361.8 387.4 397.5 406.2 411.8 413.4 413.8 414.9 416.1 417.5 418.8 418.5 417.6 416.6 415.9 413.6 411.8 410.5 409.4 406.2 403.9 401.3 398.2 394 389.2 385 381.2 377.7 374.5 371.8 369.8 367.1 365.1 364.1 363.4 362.9 361.7 359 355.1 350.3 346.1 344.2 342.8 341.6 342.3 340.6 339.9 338.1 336.9 331.8 332.3 323.9 333.7 348 360.2 367.7 371.1 374.2 374.8 374.7 374.7 375.2 376.5 377 377.1 376.2 375 373.1 371.8 372 372.6 372.8 375 374.5 374.5 374.7 374.7 376.2 376.4 376.7 376.6 376.8 377.6 378.7 379.1 380 380.3 380.5 381.7 381.8 382.3 382.7
432 429.9 429.1 428.2 426.8 425.5 425.2 424.3 422.4 420.4 419.4 418.4 419.1 418 416.7 415.1 410.6 404.8 421 427 433 440.5 444.8 447.7 454.5 463.5 470.1 475.7 481.3 485.3 492.9 502.1 505.7 508.2 509.3 509.9 510.5 510.3 509.7 508.6 507.7 506.7 504.8 501.8 500 498.6 497.5 496.1 494 492.2 489.9 487.7 485.3 482.7 480.9 478.4 478.9 478.1 476.2 475.1 474.2 473.3 472.7 472.1 471.6 470.5 469 466.4 464.4 461.3 459.8 457.6 455.4 452.3 451 449.4 447.2 445.8 445.2 445.1 445.5 447.5 448.4 449 449.5 449.9 449.6 448.8 445.8 443.7 441.1 438.2 436.1 434.1 431.7 429.1 426.9 424.2 421.1 415.4 409.5 404.3 401.2 397.9 394.8 389.2 369.3 342.9 354.1 387.1 396.5 403.9 411 414.1 415.1 415.8 416.3 416.7 417.7 417.2 417.2 417.1 415.7 413.5 411.2 409.9 407 404.2 402.4 400.5 396.6 391.2 387.5 383.3 379.4 375.8 373.4 370.6 369.3 368.8 367.8 366 364.1 362.2 360.4 353.7 351.8 352.2 350.5 348.4 345 346.3 347.5 345.4 343.9 343.3 340.1 332.2 332.4 322.6 333.2 347.1 357.4 366 369.3 372.4 374.5 374.6 376 377 378.5 379.5 380.2 380.1 378.7 376.5 375.6 376.4 376.9 376.8 377.4 377.7 377.9 378.9 379.1 378.9 379.4 380.1 380.5 381.2 382.4 383.8 383.2 386.2 386.9 387.1 387.1 386.6 387.2 387.6
426.6 425.8 424.7 423.6 421.8 420.8 420.6 420.6 419.1 416.9 414.7 415.2 415.1 414.1 412.8 411 406.3 407.4 421.2 426.8 430.8 438.9 444.7 446.5 452 461.8 470.4 476 480.8 485.5 493 502.4 505.6 507.9 508.9 510 511.2 511.2 511.3 509.3 507.7 506.5 505.1 502.8 498.8 497.7 496.5 495.1 492.6 491 489 486.5 484.2 482.1 480.5 478.4 476.8 475.8 475.5 474.5 473.6 472.6 472 471.4 470.7 469.1 468.2 467.1 463.8 461 456.1 456.2 454.4 452.1 450.3 447.6 444.8 444.1 443.7 443.5 443.8 446.9 447.2 447.7 448.5 449.1 449.7 449.3 447.8 446.7 443.6 439.3 436.8 434.8 432.4 429.7 426.8 424.5 420.4 416.1 410.4 404.6 400.4 396.7 394.2 389.1 361.1 340.7 353.4 385.6 395.7 403.8 409.9 414.5 416.1 415.9 416.3 416.2 416.7 416.5 416.6 416.7 415.9 414.1 413.3 411.8 409.3 405 399.5 394.7 391.6 388.9 385.5 382.6 380 375.8 374 371.3 370.3 371.1 369.9 367.4 364.5 362.5 360.1 357.6 356.2 355.1 353.4 348.8 346.7 349.3 351.1 349 347.4 345.4 342.5 339 330.8 322.5 333.1 345.1 354.3 363.1 365 368.1 371.8 374.4 376.8 378.7 380.5 381.8 382.5 383 381.9 379.7 378.5 378.8 378.8 378.3 378.9 379.6 381.1 382.4 382 381.2 383.4 384.5 386.1 388.3 387.7 387.1 386.3 387.4 387.7 387.8 387.6 387.4 387.3 387
423 421.1 420 419.1 417.6 416.3 416.3 416.1 415.1 413.5 411.8 411.8 412.1 410 408.8 407.3 401.1 411.5 418.6 425.5 431 438.3 441.5 446.4 453.8 462.6 469.5 475.7 480.2 486.9 493.3 501.5 505.2 507.3 508.5 510.1 512.4 513.4 512.9 511 507.9 505.2 504.9 502.8 500.2 497.7 495.1 493 491.3 490 486.7 485 483.2 481.3 479.9 478.1 475.9 475.3 472.8 473.4 472.7 472.2 471.4 470.6 469.4 467.9 466.4 465.1 461.9 459.4 456.8 453.9 451.7 450.6 448.5 446.2 443.4 441.9 441.8 442.1 442 442.8 444.4 445.9 447.2 448.3 449.3 449.2 446.8 445.4 444 440.4 437.5 435.3 433.2 430 426.7 422.8 419.7 415.9 411.2 405.5 400.1 395 392 388.1 352.8 339.4 349.6 379.7 394.1 403.9 409.8 413.6 415.5 416.2 416.1 415.7 415.7 415.7 416 416.3 415.9 414.8 412.9 411 408.7 405.3 400.7 395.8 392.3 389.3 386.2 383.1 380.9 379.4 376.4 374.1 374.2 373.9 373 369.3 366.5 364.8 362.6 361 359.8 357.7 355 354.1 348.2 352.7 354.9 354.1 350.8 347.4 344.7 341.8 332.7 332.8 323.5 340.9 349.7 359.2 360.9 363.2 368.2 373.5 376.8 379.6 381.5 383.1 384 384.7 384.3 382 380.9 380 379.7 379.7 380.1 381.4 383.9 384.6 385 384.1 387.4 389.3 389.3 389.1 388.8 388.4 388.1 387.8 388.1 388.1 387.8 387.4 386.9 385.7
417.9 415.8 415.5 414.3 413.1 412.2 412 411.3 410.6 410.1 408.9 409.9 409.4 407.3 406 403.7 402.9 412 418.5 424.4 430.1 435.8 441.1 447.5 455.4 462.3 468.1 474.7 479.1 486.4 494.9 500.7 504.1 506.4 507.7 510.8 513.3 514.8 514.4 512.6 509.4 505.6 503.9 501.8 500.1 496.1 492.9 491.2 490.4 489 485.6 483.9 482.2 480 478.6 477.1 475.2 473.8 472.6 471.9 472.1 471.3 470.5 469.5 468.6 467 465.3 463.8 460.8 457.4 454.7 452.5 450.2 446.8 446 443.9 442.6 440.6 439.6 440.4 440.5 440.5 441.4 442.6 445.3 446.6 447 444.9 444 443 440.7 439.1 437.4 435.6 433.6 430.4 426.1 422 419.1 414.1 409.3 403.8 397.1 392.5 389.4 381.8 347.3 337.5 350.2 372.5 390 402.1 407.3 411.5 413.3 414.4 414.4 414.4 414.9 414.9 415.4 416.3 415.5 414.8 413.2 410.9 408.1 404.9 400.4 397.9 394.7 392.4 389.1 386.3 384.1 382 377.6 377.8 377.7 377.2 375.5 371.9 369.3 367.5 364.5 363.7 361 359.1 358.5 355.2 350.9 357.1 358.8 356.5 353.7 350.3 347.9 344.8 334.8 334.3 319.5 338.3 345 353 356.9 358.2 362.2 368.4 374.5 377.6 380.4 382.1 383.2 384.1 384.8 383.5 382.1 380.8 380.9 381.3 381.9 384.6 386.2 386.7 387 387.6 389.8 390.7 390.5 390 389.6 389.2 389.4 389.2 389.1 388.1 387.7 387.1 386 385.6
412.7 412 411.3 410.2 409.8 408.9 405.1 406.8 406.8 407 407.2 407.4 406.8 404.9 402.6 398.3 406.1 414.1 418.4 424.5 429.9 433.8 440.6 449.1 456.2 461.8 467.4 472.8 477.8 485.9 495.1 498.9 502 504.3 507.9 511.7 514 515.2 515.2 513.3 510.3 505.5 503.1 501.3 499.4 496 492.6 490.6 488 487.8 486.1 483.9 481.3 479.6 477.3 475.9 475 473.5 471.5 469.8 470.3 470.1 468.8 467.4 467.2 465.4 464 462.5 459 456.1 451.7 450.7 447.9 445.8 443.9 442.2 440.5 439.3 437.7 437.7 438.5 438.6 438.5 439.4 441.7 443.6 443.3 442.5 442 441 439.8 438.4 436.8 435.1 432.9 430.5 425.6 422.2 418.4 413.8 408.9 402.6 395 387.5 383.6 357.9 340.8 339.3 350.8 370 387.7 398.5 403.7 407.1 409.6 411 411.6 412.1 413.1 414.3 415 415.8 415.1 414.6 413.4 410.9 408.8 406.1 403.8 401.5 398.1 395.6 392.2 389.4 386.6 382 382.1 382.3 381.8 381 378.2 375.3 372.9 371.1 368 366.2 364.4 363.2 360.1 353.7 356.4 359.7 360.5 358.6 355.8 353.3 350.9 347.9 341.5 329.4 318 320.3 338.7 348.7 354.4 354.6 355 357.9 366 376.1 379 380.9 382 383.2 383.7 383.3 383.5 382.3 382.3 382.7 384.6 387.5 388.5 389 388.3 389.2 391.2 391.7 391.6 391.5 390.6 390 390.4 389.8 389.1 387.9 386.7 385.9 385.1 384.9
410.3 408.4 407.3 406.9 406.3 405.7 404.9 404.1 404.2 404.7 405.2 405.4 405.9 403.9 397.5 395.5 408.3 414.2 418.6 423.6 427.2 431.9 440.6 447.9 454.8 460.4 467.6 471.3 479.5 487.6 493.4 497.5 501.6 503.4 508 511.8 513.9 514.9 515 513 509.1 505 502.7 500.3 498.4 495.5 493 490.1 488.1 486.1 484.9 482.2 480.5 478.8 477.3 475.6 473 471.9 470.1 468.3 468 467.7 467.6 466.2 463.8 464.5 463.1 461.3 458.5 455.5 452.6 448.9 445.8 443.7 442 440.6 438.9 437.7 435.3 433.1 436.6 436.8 436.9 437.6 439.5 440.4 440.2 440.4 439.8 439 438.9 437.7 436.1 434.3 432.2 428.8 424.9 421 417.2 412.1 407.4 401.5 395.8 383.5 369.2 348.1 338.9 337.5 349.8 365.8 385.3 392.4 399.1 401.9 403.9 406.4 407.8 409.1 410.7 412.5 414.3 415.1 415.3 414.7 413.1 411.1 409.7 408.3 406.7 404.6 401.5 398.9 396.1 392.8 389 384.9 387.1 387.3 385.9 385 383.2 379.5 376.7 373.7 372.3 368.8 366.8 363.2 360.6 358.7 361.5 362.5 362 360 356.9 353.4 352.1 349.4 345 337.3 327.6 316.9 334.8 342.6 351.9 350.4 351.1 352.4 356.1 365.2 376.2 380.4 382.4 384.1 385.3 384.7 384 383.8 383.1 385.2 387.7 389 390.1 390.5 389.7 389.6 391 392.4 393.2 393.4 392.2 390.7 390 388.8 388.4 386.6 385.4 384.6 384.3 384.2
408.4 405.9 404.1 403.7 402.9 402.1 401.7 401.4 401.8 402.7 402.6 403.4 403.8 399.6 392.7 399 407.1 412.5 416.4 421.1 424.6 431.3 439.2 447 453.5 460.5 465.8 473.7 480.9 487.1 491.6 496.3 499.7 503.2 508.9 511.4 513.6 514.2 514.2 512.5 508.5 504.5 502.2 499.9 497.6 495.5 493.1 490.6 487.4 485.3 482.2 481.1 480 478.2 476.9 475.4 471.6 469.8 468.7 466.8 466.3 465.6 465.8 464.5 463.4 463.4 461.2 459.2 454.3 452.6 449.9 447.4 443.6 441.5 439.6 438.4 436.3 435.2 432.6 425.6 432.8 433.7 433.8 436.5 437.8 438.7 439.2 439 438.3 437.7 437.7 436.9 435.2 433 431 427.8 423.7 419.1 415.3 408.4 403.1 399.5 394.2 382.6 361.1 341.4 334.1 336.2 345.6 362.1 383.6 389.8 394 397.3 400.3 401.7 403.6 405.6 408 410.9 413.1 414.3 415.2 415.4 413.7 412.4 411.1 410 408.3 406.6 404.8 401.3 398 395 389.6 390.2 391.3 392.3 391.3 389.6 388.2 385.4 382.9 378.5 376.4 373.6 370.5 366.8 363.2 364.4 365.2 365.1 363.4 360.8 357.9 354.5 352.3 349.3 345.9 342.6 338.5 321.9 318.8 337.8 345.7 347.5 347.7 348.7 351.4 355.9 364.6 375.9 384.1 386.6 388.9 386.6 383.9 383.8 383.4 386.7 389.2 389.7 390.6 391.1 390.4 389.9 390.6 393.6 394.6 393.7 391.3 390.1 388.6 387.1 386.5 385.1 384 383.1 382.8 382.5
405.9 402 400.9 400.7 399.4 398.6 397.9 397.8 398.2 398.7 399.6 400.4 399 391.4 389.6 397.5 404.7 405.4 414.4 420.4 425.7 432.7 440 447 453.8 459.8 468.6 475.5 481.3 487.1 491.3 495.3 499 505.8 510 513.2 513.9 514.6 514 511.5 506.8 503.9 502 499.9 497.8 495.7 493.2 490.4 487.5 484.9 482.1 479.9 478.7 476.6 475.6 472.8 470 467 467.2 465.7 465.2 464.3 464.2 461.9 460 462.3 460.2 459.2 457 452.4 448.4 444.3 441.5 438.2 437.1 435.6 434.4 432.1 428 422.6 426 425.1 433.2 435.7 436.8 437.3 436.7 436.6 436.5 436.1 436.1 435.9 433.8 431.6 429.1 424.8 420.9 416.4 412.5 408.3 400.8 397.9 391.1 374.3 354.6 341.8 332.2 333.8 344 362.1 379.9 387.9 390.6 391.9 393.6 395.8 399 402.6 405.5 408.2 410.7 413.4 415.3 415.6 415.1 413.9 412.7 411.3 409.2 407.9 405.9 402.5 399.7 395.2 395.9 395.2 396.2 396.4 396.3 395 393.1 391.3 388.5 384.8 380.1 376.6 372.2 368.4 365.2 367.5 367.3 366.1 364.3 361.2 358.2 355.2 352.7 350.1 347.4 344 341.4 336.9 318.4 330.7 339.1 343.4 344.7 345.7 347.1 350.4 354.4 360.3 366 370.7 374.8 376.8 376.7 379.3 381.5 384.2 387.5 389.5 391 391.2 390.2 388.9 389.4 391.9 393.6 391.5 388.9 387.7 386.7 384.6 383.6 383.7 382.8 381.5 381.1 380.7
402.6 399.4 397.4 396.3 394.9 394.4 393.6 393.5 392.6 393.2 393.5 394.1 389.8 388.8 395.2 400.4 404.8 409 414.5 420.6 426.5 432.8 436.9 444.7 454.3 461.4 467.9 475.6 481.6 486.9 490.9 496.4 502.3 507.3 511.1 514.2 514.7 514.1 512.7 511 507.2 503.3 501.4 499.4 497.4 495.4 493.1 490 486.8 484 481.6 479.2 476.9 473.4 473.2 470.2 467 462.8 464.8 461.7 462.7 461.8 462 457.9 456.6 459 458.3 456 453.3 450.7 447.3 443.1 438.4 434.9 433.3 432.7 431.5 429.9 426.8 419.4 413 424.3 430.5 433.7 434.8 435.3 435.1 434.9 434.2 433.6 434.3 433.6 431.8 429.3 425.6 421.1 416.6 412.2 409.3 405.1 400.5 395.6 387.4 363.7 354.4 338.9 326.2 333.9 340.5 355.8 374.9 385.7 387.8 388.7 389.2 390.5 393.4 398.3 402.4 405.4 408 411.4 414.4 415.4 415.6 415.7 414.5 412.4 410.2 408.1 406 403.4 401.4 400.1 400.2 400 400.7 401.6 402.1 400.1 397.9 395.4 392.7 388.6 382.6 376.3 372.2 368.3 368.7 369.6 368.5 366.7 363.8 360.8 357.9 354.9 352 349.3 346.6 344 341.4 337.8 324.5 318.4 335.1 339.4 341 343.3 345.4 347.7 350.6 354.1 357 360.4 362.8 365 367.9 371.4 374.6 378.7 384.4 388.1 390.4 391 389.4 387.3 386.7 388.3 390.6 389 386 383.8 383.2 382.2 380.3 382 380.7 379.1 379 378.8
398.1 395.3 392 390.6 389.5 389 389.1 388.1 387.8 388.7 387.9 389.4 383 394.1 397.1 401.5 405.7 410 415.3 421.4 428.6 435.4 443.4 449 456.6 462.4 468.2 475.5 480.3 487.2 492.5 499.3 503.6 508.1 511.7 514.7 515.2 514.6 512.3 511.1 507.5 503.5 500.6 498.6 496.5 494.3 492.6 490.1 486.5 483.7 481.1 478.2 476.6 474.4 469 465.9 459.6 457.6 458.6 455.6 455.4 458.6 460.7 455.1 451.7 455.1 454.8 451.9 448.3 445.7 443.2 439.6 435.3 428.5 429.8 429.5 428.7 427.9 425.5 418.3 409.5 419.8 424.2 426.5 429.7 430.6 429.3 430.4 430.5 430.9 432.1 431 428.7 425.5 420.9 416.8 412.6 408.1 405.2 401.6 398.5 392 377.3 362.6 349 338.2 324.1 329.3 340 353.7 370.5 380.1 382.8 383.5 382.5 386.7 391 393.9 398.4 403.4 406.1 409.4 412.2 414.3 415.5 416 415.6 413 410.8 408.7 407 405.1 404.5 403.6 403.8 404.2 404.9 405.4 405.3 404.1 402.3 399.4 395.3 389.2 383.1 377.1 373.5 371.3 371.9 370.4 368.5 366.1 363.3 360 356.7 353.8 351.1 348.4 345.7 342.7 339.8 337.2 329.4 307.8 331 334.4 337.6 340.7 342.6 344.4 345.7 348.6 352.2 356.7 359.5 362.1 363.9 366.3 368.8 373.5 379.2 386.8 388.7 389.4 387.5 385.7 384.1 385.1 387 385.9 382.8 380.9 379.9 378.9 377.5 376.8 376 375.7 375.9 376.1
393.4 390.1 386.9 384.5 384.1 383.3 382.8 383.3 383.7 385 386.5 379 393.5 398.8 400.6 403.1 406.1 410.9 416.8 424.7 434.6 443.8 447.1 450 456.9 465.3 472.6 479.1 485 490.9 497.6 503.5 506.4 509.4 512.6 515.8 516.4 515.6 514 510.1 507.3 503.4 500.2 497.7 495.2 493.3 491.5 488.7 485.6 483.2 480.2 476.9 475.2 472.8 468.7 459 453.2 450.5 448.5 449 448.8 449.3 451.7 448.8 443.7 448.7 449.2 446.8 444.9 442.2 439.2 435.7 431 425.6 422.9 425.7 425.1 425.1 424 418.4 404.4 413.7 419 421 422.4 423.3 423 422.4 423.2 424.3 424.4 424.7 423.2 419.4 415.5 412.2 407.9 403.7 402 398.2 394.6 388.6 372.4 360.5 348.2 337 322.2 327.1 334.8 347.1 361.9 371.7 375.4 376.3 376.4 383 387.7 391 394.3 400.1 404 406.5 408.9 411.8 415 415.7 415.2 412.9 411.7 411 409.3 407.3 407.5 407.4 407.3 407.9 408.5 408.5 408.5 407.5 405.8 401.6 396.1 387.7 382.2 377.4 374.6 374.8 374.3 371.7 368.7 365.8 362.8 359.5 356.2 353.1 350.4 347.9 345.3 343.1 340.9 338.8 333.6 310.4 314 328.5 333.9 338.2 343.6 346.4 348.6 350 351.8 354.4 357.5 359.6 361.5 363.6 366.1 369.7 376.2 385.6 387.2 386.9 384.9 383.1 382 381.7 383.2 383.6 380.8 378.5 377.2 376.2 374.6 374 372.9 372.1 372 372
388 383.5 380.9 379.3 377 375.9 377.3 379.1 380.3 373.7 383.7 390.9 397.2 399.6 401.9 404.6 407.9 413.3 422.7 433.2 445 449.2 453.5 459.3 466.8 468.2 481.2 486.1 490.5 497.2 501.4 506.5 509.2 511.8 514.8 517 517.5 515.8 513.9 511.1 507.4 503.4 500 497.7 494.8 492.8 491.3 489 486.2 482.7 479.3 476 473.6 470.9 464.4 461 449 443.1 441.7 441.3 442.2 440.9 441.4 441.2 438.5 443.4 444.4 443.3 441.8 439.6 436.2 432.6 427.6 422.5 417.5 420.2 420.8 423.3 422.4 418.3 411.5 404.7 411.8 415.3 417.5 417.3 416.4 415.7 417 418 417.3 417.3 416.2 412.9 409.7 407 404.2 401.9 398.4 395.1 388.5 380.4 369.3 360.2 348.3 338 320.1 322.4 326.8 342.5 352.7 359.2 362.5 365.8 375.1 378.7 383.6 388.1 390.8 393.8 399 402.3 406.3 408.8 412.2 413.7 413.4 412.3 412.4 412.7 411.6 410.1 408.8 409.6 410.8 411.3 411.8 411.9 411.4 410.4 408.6 403.9 396.1 387.6 382.1 377.4 377 376.5 375.2 371.9 369.1 366 363.1 360 356.7 353.8 351.3 348.7 346.1 343.4 340.6 338.1 332.9 307.2 324.9 334.4 337.7 340.1 343.3 346.4 349.2 352.9 354.8 355 357.6 359.3 360.8 362.3 364.5 367.1 373 383 385 384 382.2 381 379.9 379.5 380.6 380.6 378.6 376.1 374.1 373.3 371.6 371.2 369.8 368.6 368.5 365.3
383.2 378 373.4 369.6 360.2 359.4 364.7 371.1 372.6 383.8 388.6 393.5 396.3 399 403.1 407.1 411.5 418.8 432.6 444.7 450.2 456.2 462.6 469.5 476.2 482.8 487.5 493.3 497.4 502.6 505.2 507.6 510.5 513.4 516.6 518.2 517.8 515.6 513.1 510.1 506.4 503.7 500.3 497.9 494.5 492.9 490.8 488 485.5 482.7 480 478.3 475.7 473.4 470.2 466.2 461.4 453.8 442.5 431 429.4 432.4 433.9 432.1 435 439.3 440.5 439.9 438.7 437 433.4 429.3 423.5 419.2 415.4 413.1 418.2 421.8 420 417 411.6 404 404 407.6 408.6 409.4 409 409 409.2 409.7 410.2 410.7 408.3 406.6 405.5 404.3 402 397.5 389.8 384.7 371.1 363.2 359.1 352.6 345.4 336 326 317.1 320.6 335.8 343.6 346 350.3 356.9 366.3 373.2 378.6 382.9 387.5 389.2 393 399.8 403.5 406.4 408.6 410.1 411.1 412.2 412.8 413.2 412.8 411.1 410.4 411.9 413.4 413.8 414.4 414.8 414.1 413.1 410.8 403.6 395.2 387.5 382 380.3 379.6 378.5 375.2 371.5 369 366 363.2 360.6 357.4 354.5 351.9 349.7 346.4 343.1 340 335 319.7 303.5 326.1 335.4 339.3 341.3 344.3 346.5 347.8 352.5 355 356.1 357.5 358.8 360.2 361.4 363.1 365.5 370.7 379.3 382.1 381.1 379.5 378.1 377.4 377.8 377.7 377.5 375.4 373.2 371 369.6 368.3 367.5 364.9 363.7 362.1 361.3
377.2 369.9 362.9 356.9 367 375.9 378 379.4 382.2 387.1 389.3 392.4 396.5 400.1 405.8 411.4 418.6 431.7 447.3 452.7 457.6 463.8 471.8 481.7 485.8 488.4 493.2 496.2 500.2 505.1 507.8 510.5 512.6 514.9 518.7 520.1 518.3 516.3 513.6 510.2 506.8 503.9 500.7 498.5 496.1 493.1 490.4 488.2 486.6 485.2 484.2 482.6 479.6 476.6 471.8 468.3 464.4 460 454.9 448.2 437.2 422.3 422.3 424.6 430.8 435.4 436.2 436.2 435.2 433.6 431 426.1 421.3 417.5 412.3 404.9 412.9 420.6 416.7 414.5 409.4 406.2 388.2 400.4 403.7 404.6 404.3 404.1 403.9 404.6 405 404.4 404.2 401.9 401.4 399.9 396.4 379.5 371.6 363.5 358.8 350.3 352.4 344.3 340.9 337.2 332.2 317.3 316.8 325.4 334.2 335.3 335.4 341.2 349.7 361.2 372.3 377 380.4 385 388.9 394.9 400.4 404.1 405.9 408.7 410.3 411.8 413.6 413.8 412.2 411.6 411.7 413.9 416.1 416.8 417.4 417.7 416.4 415.3 412.9 402.5 393.4 388 384 382.8 381.6 378.2 375 371.1 368.4 366 363.2 360.9 358 355.4 353.2 351 347.8 344.5 341.3 337.4 326.9 300.3 307.6 328.5 338.1 342.6 345.3 348 349.3 350.8 354.1 355.9 357.1 358.3 359.3 360.3 361.5 363.6 368.9 379.7 379.4 378.3 376.8 375.9 376 376.4 376.5 374.7 372.3 369.9 367.6 364 364.5 362.4 359.6 357.5 356.1 357.5
370.1 359.9 349.5 359 373.9 378.7 381.1 383.3 385 387.1 390.1 394.7 398.9 403.7 410.6 421.7 434.8 448.3 453.5 460.3 466.7 475.9 489.8 493.9 492.2 495.7 495.9 499.2 503.6 507.9 511.4 514.6 517.3 518.8 521 521.5 520 517.4 514.7 511.3 507.8 505.1 502.4 499.8 497.2 494.6 492.8 491.4 490.1 488.3 486.9 484.7 482.3 478.9 474.8 470.2 464.2 460.7 456.7 444.8 445.3 432.2 420.6 414.1 420.6 427.6 431.3 431.5 430.6 429.3 427 423.5 419.6 416 409.9 400.1 408.1 412.2 411.2 410.4 406.1 403.1 400.4 384.8 396.4 399.9 399.8 399.5 398.5 400.2 400.3 399.8 399.2 398.1 396.8 393.2 375.4 367.5 359.6 347.7 343 341.4 340.4 336.2 334.3 332.1 329.9 319.7 315.6 314.9 315.3 316.8 319.2 331.8 337 346.5 359.1 367.7 373.1 378.9 381.9 387.6 392.1 397.8 396.6 405.4 408 409.6 410.3 410.4 411.4 412 414 416.6 419.6 420.6 420.9 420.2 419.5 416.6 413.8 402.7 393 388.8 385.9 384.1 382 377.2 373.7 370.7 367.9 365.6 363.7 361.4 359 356.8 354.7 352.5 350.3 347.2 344.4 341.2 336.1 319 296.5 315 333.2 341.2 347.2 349.9 351 353.1 354.3 355.8 356.8 357.4 358.1 359.2 360.2 362.7 367.9 377.7 376.4 375.3 374.5 374.3 374.8 375.6 374.5 371.9 369.5 367.2 363.7 360.1 358.7 356.2 353.7 351.1 351 355.8
362.2 351 348.4 369.8 380.1 382.1 384.3 386.1 387.7 390.1 392.6 397.3 403.1 411.3 423.3 437.6 446.8 454.2 463.4 472.7 485.7 490.7 498.8 501.2 500.9 500.1 500.9 503.8 507.8 511.2 515 518.9 520.8 521 521.4 521.2 519.7 517.8 515.3 512.5 509.8 507.2 505.7 503.4 501 498.9 497 495.2 493.2 491.1 488.1 485.7 483.6 480.5 476.6 471 464.9 460.8 457.1 452.9 446.1 439.4 433.4 423.2 410.2 415.5 420.4 423.3 424.4 423.9 421.8 419.1 416.2 412.3 407.3 396.3 401 405.1 406.1 404.3 400.7 400.1 399.1 395 379.8 393.3 394.8 394.1 393.9 396.1 396.3 394.8 394.1 393 390 370.8 363.1 352.2 344.6 335 329.6 330.5 325 324.3 321.4 318.9 317.7 317 317.2 315 314 313.2 312.5 317.1 326.9 337.3 341.8 350.2 360.5 360.2 375.1 378.9 380.5 387.6 391.5 397 400.1 403.1 405 408.9 411.7 414.5 417.5 421.2 423 424.9 424.6 423.5 421.8 418.8 414 400.6 393.1 389.5 387.8 385.4 382.4 378.2 373.7 370.6 368.3 366.6 364.9 362.7 360.7 358.7 356.8 354.6 352.6 350.7 348.9 345.7 341.3 330 304.3 302.2 323.5 337.7 345.5 350.7 352 352.8 353.7 355.3 356 356.4 357 358 359.3 362.2 368.8 374.7 373.2 372.1 372.6 373.7 374.5 373.4 372.1 370.1 367.2 364.4 360.9 356.9 353.6 351.6 348.5 346.3 348 355.5
349.7 342.7 362.1 377.5 383.8 387.2 389.9 391 392.5 394.3 397.7 403.5 413.1 425 438.2 444.7 452.3 463.6 476.9 495.3 498.9 500.6 501 503.7 504.7 505.6 505 508.6 511.7 515.7 518.8 520.6 521.3 521.5 521.2 520.4 519 516.9 515.1 512.4 510.3 508.6 507.7 505.9 504 502.3 500.1 498 495.3 492.5 489.7 486.9 483.9 480.1 475.3 470.9 467.3 462.6 458.1 454.4 450.3 445.7 439.5 432.8 420.9 409.5 403.6 407.9 411.2 412.2 411.9 410.4 408.5 405.9 402.6 395.2 394.4 396.7 396.8 396.9 396.2 396.7 395.5 392.7 383.7 381.7 387.8 386.7 385 387.8 389.2 388.2 387.6 383.2 368.3 358.8 349.6 341.9 340.4 343.2 343.5 339.7 334.2 330.9 328.9 328.3 330.9 330.5 332.2 328.9 322.7 317.9 313.8 312.9 314.3 322.3 337.1 340.3 348.3 354.6 359.8 360.1 365.9 372.5 384.7 390.2 393.8 398 404.8 410 413.8 417.8 421.7 424.8 426.3 429 428.7 426 423.4 419.2 409.4 399 393.5 391.1 389 386.1 382.8 379.1 374.8 371.2 369.3 367.7 366.1 364.2 362.3 360.4 358.5 356.4 354.8 353.3 351.6 349.1 345.1 337.9 309 293.2 316.6 334 341.1 347.3 351.1 352.3 352.7 353.6 354.5 354.6 354.9 357.1 359.1 362.8 371.1 370.1 368.4 370.8 373.1 373.1 373.2 371.8 370.2 368.6 365.7 363.1 359.6 354.5 349 345.3 343.9 341.6 346.9 352.2
342 353.8 367.8 380.3 385.8 390.8 393.3 396.6 398.4 399 403.6 410.7 423.9 434.5 442.3 446.3 456.6 470.5 491.3 500.4 502.5 502.7 504.2 506.8 507.8 508.5 510.2 513.1 516.5 518.5 519.5 520 520.1 520 519.8 518.4 516.9 515.2 513.3 511.3 509.7 508.9 508.2 506.9 506.1 504.9 503.2 500.8 497.2 493.3 490.2 487.6 484.9 482.9 479.6 474.6 469 463.6 460.2 456.3 452.2 447.1 442.6 437.7 431.9 423.6 417.6 409.9 400.3 396.5 395.4 395.7 394.8 393.6 391.3 389.7 388.1 389.1 389.3 390.7 389.3 386.9 381.7 379.8 380.4 371.3 374.7 372.7 369 365 368.7 370.5 370.1 363.9 358 347.7 348.2 350.2 350.9 350.8 348.4 345.4 340 338.5 338.4 338.3 337.5 339.2 338.2 337.1 332.7 329.2 321.3 314.8 311.7 315.8 323.1 334.4 340.1 341.1 345.5 349.2 358.4 360.8 366.6 375.3 382.5 392.7 399.6 407.6 413.3 417.6 422.8 427 429.7 431.2 431.3 428.2 421.1 411.2 402.4 398.1 394.9 392 389.2 386 382.7 379.3 375.6 371.7 370 368.4 366.6 365 363.4 361.3 359.6 357.9 356.3 355 353.5 350.8 346.4 338.8 308.5 289.8 309 329.6 336.7 341.3 345 348.6 350.1 350.1 349.7 352.1 354.5 356.5 358.8 363 364.9 364.1 367 372.5 372.4 371.7 370.9 370 368.5 366.7 364.3 361.3 357.8 352.1 346.4 340.9 339.9 339.1 344.7 350.2
338.3 357.5 373.2 383.1 388.4 391.7 394.5 398 401.7 405.6 410.7 418.6 427 434.2 443.1 452.9 461.6 475.9 493.3 501.4 503.5 505.6 506.7 508.8 510.9 512.5 513.8 516.6 518.3 518.9 518.4 518.1 517.8 517.5 517.2 516.2 514.8 512.7 510.7 509.4 508.1 508.2 508.1 508 508.1 507.6 505 502.4 498.6 494.3 490.8 489.4 486.9 484.4 481.9 478.1 472.8 467.6 462.8 458.5 454.3 448.8 444.9 441.2 437.1 432.3 425.3 421.6 416.7 409.5 406.2 402 399 394.1 390.8 387.5 383.2 381.9 382.2 380.4 383.9 383.8 381.3 379.7 376.2 375.2 371.2 374.1 375.6 369.9 365.8 361.9 355.1 357.8 361.1 366.8 365.7 362.4 362.4 359.8 355.4 349.6 346.9 345.3 345.7 345.2 344.4 343.9 343 341.8 340.6 337.2 328.6 321.9 311.9 309.5 317.2 322.6 329.8 334.7 339.7 343.5 346.1 348.7 353.9 362.7 369.9 375.6 387.1 396.6 404.9 412.7 421.7 428.3 432.1 433.2 431.8 423.9 411.8 404.9 401.5 398 394.8 391.4 388.1 385.3 382 378.7 375.3 372.4 370.6 368.9 367.1 365.6 364 362.1 360.1 358.7 357.5 356.1 354.3 351.6 346.2 333.5 307.8 288.2 299.3 311.9 330.5 335.1 338.6 340.2 340.7 339.8 342.4 350.5 354.2 356.3 357.7 359.3 359.6 362.7 366.5 369 369.3 369.2 368.6 367.2 365.9 364 361.5 358.5 353.9 349.3 344.4 338.6 336 336.5 342.9 347.4
343.8 357.9 377.4 384.1 388 391.3 394.2 398.8 404.3 408.9 413.6 420.2 429.2 436.1 443.5 454.6 461.8 478.7 493.9 498.8 503.6 507.8 510.5 512 513.5 515.4 516.8 517.8 518.4 517.3 515.9 515.2 514.8 514.6 513.8 512.8 511.3 509.8 507.9 506.7 506.4 506.7 507.1 507.9 508.5 508.5 506.1 503 498.4 494.9 492.5 491.1 489.3 486.4 483.4 479.7 476.1 471.6 466.5 461.4 457 452.5 448.5 444.7 439.6 437.4 433.4 429.1 424.4 419.7 415.6 411.7 409.1 404 396.1 391 393.2 393.3 392.7 392.6 391.5 390.3 389.3 390.1 390.1 390.2 389.5 391 389 386.2 380.2 370.2 379.1 379.9 378.5 377.6 376.7 373.2 371.6 369.5 358 356.3 355.4 352.3 350.6 350.6 349.9 348.6 347.7 347 346.5 344.4 334.6 323.4 318 310.5 313.1 315.7 320.1 324.9 326.9 334.8 342.1 345.5 351.6 358 362.9 368.9 377 385.2 394.2 401.7 415 424.9 432.3 433.5 425.6 413.3 407.3 403.5 399.8 396.7 393.1 389.6 386.2 383.5 380 376.9 374.6 371.9 370.4 368.7 367 365.5 364 362.4 360.8 358.8 357.6 356.1 353.3 349.5 344.8 333.6 309.1 291.3 287 295.2 310.8 329.8 333.7 333.1 331.7 332.3 336.7 343.1 348.6 352 352.7 356.2 360.1 365.4 366.9 367.3 366.1 365.9 365.4 364.2 362.5 360.9 358.8 355.7 350.8 345.8 340.9 336.7 331.3 336.4 340.4 342.2
343.8 359.9 378.2 383.5 386.7 390.2 393.7 399.5 404.8 409.4 413.9 419.5 426.8 435.4 443.1 453.2 460 478.6 492.3 498.1 503.6 511.5 512.8 514.4 515.4 517.3 518 517.9 517.9 515.8 514.3 512.7 512.1 510.7 509.8 508.5 507.2 505.9 504.6 504.1 503.5 503.7 504.6 506.5 507.7 508.2 505.3 502.4 497.9 495.6 494.1 492.8 490.4 487.4 484.4 481.1 477.6 473.9 470.1 465.6 460.9 456.6 451.9 447.7 444.5 441.7 437.6 433.5 429.5 425.1 421.2 418 414.3 408.9 398.2 400.2 401.4 400.8 399.8 398.7 398.1 397 396.6 396.4 396.6 397.5 397.7 397.5 395.3 393 391.6 390 389.3 386 385 383.5 381.6 379.4 377.4 373.2 362.5 362.8 361.1 357.6 356.9 356.7 355.9 354.9 353.2 352 350.9 350 345.5 334.8 328 319.8 309.7 308 314.3 314.2 313.9 318.9 323.2 329.9 342.5 352.4 359.1 364.6 374.8 383.1 390 396.5 407.5 415.7 421.3 422.1 414 409.7 404.9 401.3 397.7 393.8 390.1 386.3 383.2 380.3 377.6 375.7 373.8 371.6 369.8 368.1 366.3 364.7 364 362.4 360.9 358.6 357.4 355.9 353 348.8 344.1 334.4 313.7 303.3 292.4 282.4 298.1 311.1 315.2 320.7 324.2 324.9 328.2 342.9 349.2 350.5 355 359.4 364.2 366.9 366.2 365.3 363.3 362.7 361.7 360.9 359.3 357.7 355.4 352.4 347.6 342.1 337.6 334.3 328.7 334 337.1 337.1
341.3 358.8 375.1 381 384.3 388.1 393.6 399.2 403.4 408.2 413.4 418.3 423 428.1 438.8 448.4 457.3 476 489.8 497.2 503.8 510.7 514.3 516.3 517.2 518.4 518.9 518.2 517 514.6 512.8 510.7 508.8 507.2 505.7 503.7 502.1 500.3 499.9 499.8 499.9 500.4 501.8 504.1 506.5 506.1 504 500.9 497.9 495.9 494.5 493.1 490.8 488.4 485.7 483 480.1 477.2 473.3 469 464.5 459.1 454.5 451.4 448.1 444.4 440.3 436.4 432.6 428.3 425.4 422.2 417.3 412.6 400.6 405.5 407 406.8 405.8 405.1 404.5 403.7 403.5 404 403.9 403.6 403 402.2 400.2 398 396.1 395.4 393.5 389.7 390.6 389.4 387.6 385.1 381 371.4 369.6 368.4 366.6 363.7 363 362.4 361.7 360.2 358.7 357.4 356.4 355.4 353.2 348.7 337.1 325.3 323 314.4 311.7 308.5 306.9 309.1 309.8 310.5 320.5 341.2 352.7 364.2 372.7 381.8 389 395.8 403.8 409.1 413.2 413.6 412.1 407.5 402.7 398.6 394.2 389.8 386.1 382.9 380.4 378 375.9 374.1 372.4 370.8 369.1 367.3 365.5 364 363.2 362.3 360.9 359.3 357.4 355.7 355.6 352.2 347.8 328 316.5 312.7 300.9 285.9 276.2 301.8 306.7 308.7 312.2 318.3 340.1 347.7 350.5 353 356.4 360.5 363.6 364.3 364.4 362.7 361 359.7 358.2 356.6 355.2 353.7 351.4 347.5 342.4 338.3 335.1 331.9 326.3 330.7 332.8 333.2
335.2 355.3 370.7 377.2 381.7 386.9 392 396.6 400.7 405.8 410.2 415.1 420.7 426.3 432.8 443.4 456 469.2 486.9 494.8 500.4 508.9 513.8 516.3 517.7 518.8 518.6 517.5 515.9 514.3 510.6 507.8 505.7 504 501.9 500 497.8 496.8 496.6 495.3 496.5 497.6 498.9 501.3 503.5 503.6 502 499.8 496.7 495 493.7 493 491.7 490.2 487.9 485.7 483.3 480.5 477.2 472.9 467.1 461.8 458 454.8 451.3 447.2 443.3 439.5 436.1 431.5 427.6 423.7 419.9 414.3 407.7 412.3 412.3 413 412.4 412 410.9 409.3 409.4 409.8 409.3 409 408 407.1 405.1 403.6 404.9 404.2 403.2 395.5 396.5 397.5 393.9 387.6 380.4 378.1 373.5 371.2 371.1 369.9 369.6 370 368.3 366.8 366.9 366.9 366.1 363.3 360 354.9 346.9 336.6 334 325.4 322.2 315.6 310.9 308.2 297.2 299.5 302.1 316.2 340.2 352.9 362.8 372.5 382.5 392.7 403.8 411.1 410.8 411 409.1 404.8 400 392.9 388.7 386.1 382.9 379.8 377.6 375.8 374.1 372.3 370.7 368.8 367.2 365.7 364.2 363.1 362.6 359.5 360.9 359 359.6 358.1 356.8 354.2 350 334.5 323.8 311.4 305.9 301 279.7 274.9 289 288.9 306.5 315.4 335.4 346.3 349.9 353.9 358.2 360.3 361.1 361.9 361.5 359.5 357.9 356.3 354.5 352.5 350.1 349.3 346.5 341.1 337.7 334.6 332 329.1 322.6 327.3 328.8 329.9
329.4 348.5 366.5 373.7 378.8 384.1 389.4 393 398.2 402.2 406.4 411.2 416.6 421.6 430.4 441.4 450.7 459 482.6 492.7 498.3 506.1 514.7 516.7 517.7 518.8 518.4 517.1 515.2 513.1 510.1 505.5 503.2 500.7 498.8 496.6 495 494.1 493.1 490.9 491.5 493.3 495.3 498.2 500 500.6 499.8 497.5 495.1 493.2 492.4 492.2 492.4 491.3 489.9 488 485.7 482.8 480.1 475.8 470.1 465.4 461.4 457.5 453.5 450.5 447.3 443.6 439.9 436.1 431.6 427.7 424.2 421.5 419.3 418.4 417.8 418.6 418.8 417 415.5 414.4 415 414.6 414.8 414.1 413.7 412.7 412.1 409.3 412.2 413.3 412.3 406.8 399.5 402.3 397.2 391 385.7 379 379.7 381.5 382.3 382.6 378.9 376.5 376.7 377.7 376.4 373.3 369.9 366.6 365.8 361.8 358.5 353 346.8 338.4 334.1 326.7 320.2 314.4 307.2 301.1 294.7 310.7 327.5 345.5 355.4 365.8 372.9 380.5 387.6 393.6 396.3 398.1 397.5 393.5 391.2 387.8 384.7 382.5 379.7 376.7 374.8 373.6 372 369.9 368.4 366.8 365.3 363.8 362.6 362.3 361.6 361.9 361 359.8 358.4 357.4 355.8 353.4 350.4 347.2 344.1 341.2 316.7 310.8 300.9 281.8 273.4 282.9 302.1 313.6 337 344.3 350.6 356.7 358.9 358.9 359.1 358.7 358.2 356.4 354.5 352.7 350.8 347.5 345.2 342.6 340 337.4 334.1 330.7 328.6 326.7 321.1 323.5 324.8 325.9
323.8 342.9 362.6 370.1 376 381.3 385.8 389.4 393.5 397.6 402.3 405.8 412.4 418.2 424.5 436.1 445.3 458.2 472.6 489.3 497.7 504.7 514.2 516.4 517.8 518.6 518.3 516.3 513.4 511.2 507.8 503.7 501.3 498.8 496.3 494.2 492.9 491.2 489.8 487.5 487.4 488.2 490.8 493.3 495.6 496.9 496.8 494.6 493.1 491.2 491.1 491.7 492.1 491.8 491.1 489.5 487.9 485.3 482.5 478.3 474.1 469.9 465.4 460.8 457.3 454.2 452.2 448.6 445 441.3 437.2 433.3 429.7 428 425.6 424.2 423.6 423 422.3 421.5 420.5 420.1 419.6 419.2 419.5 419.7 419.2 418.8 417.2 415.6 416.5 418.1 419.2 417.4 409.9 402.2 400.1 397 390.3 391.4 393.1 394.9 394.3 390.1 388.8 389.1 388.6 384.7 380.1 377 375.7 374.2 371.3 369.5 366.4 363.2 357.4 348.4 343.6 337.6 330.4 324.9 313.4 308.1 292.9 307 329.2 342.3 350.1 358.6 366.2 374.1 380.3 384 385.5 386.2 386.7 387.1 386.3 383.9 381.3 379.3 376.6 374.5 372.1 370.8 369.2 367.1 365.8 364.9 363.5 362.1 360.8 360.6 360.5 359.7 359.1 358 356 355.3 353.7 351.9 349.8 347.3 345.4 343.3 341.5 319.4 310.9 299.1 272.7 276.2 296.2 308.7 335.3 343.3 353.4 357.6 357.9 357.4 357.2 356.4 355 353.1 351.3 349.2 347.1 344.2 340.5 338.3 336.3 333.9 331.2 328.1 325.4 323.4 318.5 319.5 320.8 321.5
318.3 340.6 355.4 365.5 372.3 378 382.5 386.3 390.6 394.8 399.2 404.1 408.5 415.6 423.1 431.2 443.1 456.5 468.4 481.6 493.9 504.5 510.9 515.6 517.8 517.9 518.3 515.1 512.3 509.1 504.6 501 497.7 496 494.1 491.4 488.9 487.5 485.6 484.1 483.8 483.4 485.6 488.2 490.4 492.5 492.3 491.4 490.4 488.9 489.1 490.4 491.3 491.7 491.2 489.8 488.5 486.6 484 480 476.4 473 469.4 464.5 460.6 458.3 455.8 453.3 449.6 445.2 441.4 438 434.5 433.1 430 428.5 427.7 427.3 427.5 427.8 428.1 426.5 425 424.7 424.8 424.5 425.6 426.4 424.5 422.2 421.5 422.8 423.2 421.1 416.3 408.6 406.3 403.2 398.9 399.3 400.8 401.9 400.7 397.6 397.5 396.3 392.2 388.3 384.8 383.9 381.6 380.3 379.5 376.6 374.3 370.5 364.8 359.5 353.8 348.3 334.3 327.4 320.8 312.9 292.9 303.7 324.1 338 347.6 355.3 361.7 367.6 373.4 377.3 379.3 381 382.5 383.8 383.1 380.6 378.3 374.9 372.8 371.1 369.3 367.7 366.4 364.8 363.3 361.8 360.7 356.9 357.3 357.5 357.6 357 356.1 355.2 353.7 352.2 350.9 349.4 348 346.4 344.4 342.5 339.8 336.4 330.9 304.8 285.9 271.1 284.3 299.3 331 344.1 353.5 356.4 356.2 356.1 355.1 353.8 352.3 350.9 349.3 347 344.9 341.8 338 333 332.3 330.5 328.3 325.4 322.7 320.4 316.3 315.1 316.3 317.2
317.4 334.8 348.4 359.5 366.1 372.9 378.4 382.8 387.6 392.5 397.6 402.7 408.1 414.9 422.3 430.4 442.3 459.7 471.1 480.9 495.8 508.6 513.7 516.4 518.5 516.8 516.3 513.2 510 505.9 501.5 498.2 495.2 493.3 491.7 488.6 486.1 483.7 482.2 480.7 479.6 479.1 480.8 482.7 484.7 487 488.2 487.5 487.1 485.2 485.3 487 489.2 489.7 489.9 489.4 488.4 486.7 484.4 481.5 478.2 474.7 470.8 467.6 464 460.9 457.5 455.1 451.8 447.6 443.8 440.8 438.7 436.4 433.7 432.2 431.9 432.7 434 434.6 434.5 433.7 432.2 431.5 432.2 431.7 432.2 432.8 429.9 429 427.7 427.9 427 425 421.9 417.1 410.8 406.7 406.9 405.8 406 405.8 404.1 403.9 402.1 398.9 395.1 392.5 390.7 388.2 387.9 386.1 384.1 381.6 378.7 374.5 369.3 364 358.8 354.4 345.6 331.2 324.5 311.1 294.3 291.8 314.1 330.8 341.5 349.9 357.2 363.3 367.5 371.1 373.4 374.9 376.6 382.4 379.8 375.9 373.8 370.5 368.2 366.6 365.4 363.8 362.3 361.2 359.3 359 357.9 356.3 354.8 353.6 353.5 353 352.6 351.5 350.2 348.7 347.4 346.2 344.8 343.5 342.7 340.3 336.8 331.6 315.7 302.8 292.4 268.3 284.6 299.5 327.7 341.7 351.8 355 355.2 354.9 354.3 352.6 350.8 349.2 347.3 345 342.4 340 336.3 332.4 328 326.3 324.4 321.3 320.3 318.1 314.1 310.4 311.9 314
314.7 329.9 345 353.8 360 366.7 373.8 380 386.2 391.5 396.8 401.8 407.4 414.2 422 430.5 442.4 460 470.2 483.3 500.8 512.3 515.5 515.7 516.3 515.2 513 510.1 506.6 502 498.9 495.9 493.4 491.5 490.7 487.7 484.2 480.6 478.3 476.6 475.7 476.4 476.5 477.3 478.9 481 483 483.6 483.1 480.7 481.3 483.8 486.4 487.7 487.8 487.8 487.5 486.2 484.1 481.7 478.8 475 471.8 468.8 465.7 462.7 459.1 456.4 453 449.8 446.7 445 443.2 441.1 438.9 437.3 436.2 437.2 438.5 438.2 438 437.2 436.5 436.8 436.9 436.4 436.4 434.9 433.7 432.8 431.5 431 429.4 427.1 424.7 422 419 416.2 413.3 409 407.6 406.4 405.6 405.1 403.9 401.7 398.7 397.1 394.7 392.6 390.7 389 387 384.8 381.2 377.2 372 366.5 361.1 357 352 338.6 331.6 320.1 293.3 282.6 301.7 313.4 326.2 344.4 353.2 359.5 364.7 366.8 368.1 368.7 368.7 369.7 374.1 373.4 370.1 366.6 365.1 363.6 362.3 361.1 359.5 358.3 357.1 355.4 354.2 352.5 350.2 349.7 349.4 349.1 348.6 347.6 346.5 345.2 343.9 342.6 340.9 340 338.9 336.9 331.6 322.6 302.4 294.3 281.2 270.5 283 298.3 323.7 344.2 351.6 354.8 355.7 355.1 353.8 352.2 350.3 348.2 345.4 342.9 340.2 337.5 334.3 330.8 326.7 323.1 321.4 318.8 316.3 313.9 311 306 308 308.9
311.4 322.3 340.3 349.4 356 362.8 370.1 377.6 384 390 395.3 400.5 407.1 413.3 419.9 429.9 443.2 460.9 470.9 484.9 506.8 513.4 514 512.6 512.9 510.4 509.1 506.3 502.5 499 495.6 492.6 489.8 486.8 487.7 485.9 481.5 475.7 474 472.2 471.9 471.3 472.5 473 474.3 475.4 476.5 477.8 478.7 475.1 476.6 479.9 482.1 483.8 484.6 484.9 485 484.3 482.7 480.5 477.8 474.6 471.2 468.4 465.6 463.3 460.4 456.9 453.7 451.9 450.5 449.3 447.5 445.2 443.9 442.5 441.9 442.2 439.7 439.3 439.6 438.7 438.5 439.4 439.2 438.5 437.7 436.5 434.4 432.9 431.7 431.2 428.3 426.6 424.6 421.3 417.7 414.7 411.8 408.8 406.4 403.9 403.7 403.1 402.6 401.6 400.2 398.7 396 393.5 391.8 390.3 388.3 386 383.2 378.1 373.3 367.5 363.3 358.8 353.7 345.8 330.9 310.9 294.3 279.2 290.1 303.8 320 337.7 350.9 354.6 357.1 360.6 362.2 363.7 362.5 362 365.2 369.2 366 364.1 361.3 361.1 359.7 357.8 355.9 355.1 353.3 352.4 351.6 350.4 348.8 347.4 345.5 345.6 344.8 344.1 343.4 342.5 340.7 338.6 336.7 335.3 334.8 332.9 326.6 310.3 293 282.8 275.2 265.6 286.1 300.6 327.2 345.2 351.8 354.6 355.8 354.8 353.3 351.6 349.4 347.2 344.6 340.3 337 334.6 331.6 328.5 325.7 323 320.9 317.9 315.8 313.2 308.9 305.4 301 300.3
305.9 321.4 336.6 345.5 352.6 359.4 367.2 374.7 381.6 387.8 393.5 398.8 405.5 411.6 418.8 428.6 446.9 462.1 472.6 489.9 510.1 510.5 510 509.3 507.6 507.1 505.1 501.8 497.4 494.6 491.9 488.8 485.7 483.3 482.7 481.1 477.2 471.6 469.1 464.1 465.7 465.4 466.8 468.1 468.4 469.9 471.3 470.6 472.3 466.7 471.4 475.7 478 479.7 481.1 482 482 481.3 480 478.4 475.3 472.6 469.6 467.3 464.9 463.1 460.7 458.5 456.5 455 453.4 452.2 449.8 448 446.9 445.9 444.7 444.2 442.2 441.6 439.8 438 437.2 439.4 440.4 439.5 437.7 435.7 434 432 431.4 430.7 427.8 424.6 423 419.8 416.8 415.3 411.9 409.4 406.6 403.5 399.1 397.8 397.8 398.1 397.2 396.4 393.3 391.4 389.4 387.8 386.3 383.8 381.6 378.3 374.3 369.3 364.3 359.4 350.5 340.4 327.2 315.4 300.5 287.3 278.5 287.6 303.7 329.4 346.1 351.4 352.8 353.5 354.4 355 355.6 354.6 354.3 357.5 361.3 358.4 356.5 357 356.1 354.9 353.1 351.5 350.5 350.1 349.7 348.9 347.7 346.1 344.1 343.6 342.7 342 341.8 341.5 340 337.5 334.1 331.3 330.6 328.2 321.9 301.6 284.8 278.6 267.3 259 288.5 315.6 332.8 345 351.6 354.7 355.9 355.8 354.4 351.7 349.6 347.2 344.4 342 337.6 333.9 330.7 326.5 323.5 321.2 319.1 317.2 315.2 313.5 311.2 308.8 305.7 300.9
303.2 319.8 334.2 342.6 349.6 356.6 364.3 372.3 379.4 385.6 391.4 396.8 403.1 409 417.8 427.2 449.8 463.6 468.3 497.1 506.1 506.4 506.4 505.1 503.1 501.9 499.8 496.5 493.1 490.4 487.3 484.7 481.4 477.3 476.3 475.2 472.5 467.7 463.1 457.7 459.1 459 460.2 461.5 462.5 464.2 465.4 465.8 464.8 460.6 466.2 469.9 473.1 475.2 477.5 478.3 478.1 477.2 475.9 474.6 472.2 469.5 467.9 465.8 464.2 463 461.4 459.8 457.8 456.5 455 454 452.3 450.6 449.5 448.3 447 445.3 442.7 440.4 438.2 435.5 434.3 435.9 437.7 437.4 436 433.9 432 430.1 428.8 427.5 424.7 421.2 418.9 416.3 415 413.6 411 408.2 405.2 401.3 397.2 393.3 392.7 392.8 392.8 392.4 390.7 387.9 386 384.2 383 381.8 380.1 377.1 373.2 369.5 365.7 361.6 357.3 351.5 343.4 324 306.7 286.5 274.5 274.8 290 315 337.4 346.8 349.1 349.5 350.1 349.2 348.5 347.7 347.3 347.9 351.2 352 352.2 352.6 353.2 351.9 349.8 348.5 347.9 347.8 348 347.4 346.4 344.7 343 341.2 340.3 340.8 340.9 341 340.1 338.7 335.4 331.2 326.2 324.8 318.9 293.9 284.2 270.6 261.5 274.7 299.5 320.1 338.9 347.2 351.8 353.1 353.6 353.3 352.6 350.8 349.5 347.2 344.4 342.1 338.5 334.8 331.1 327.2 323.1 319.6 316.8 314.3 312.5 311 309.2 307.4 305.6 303.6
299.7 314.5 329.1 339.6 347.5 354.7 362.1 370.1 377.2 383.4 389.3 395.1 401.2 408.2 419.1 427 449.9 457.4 465.5 496.7 501.4 502.1 502.3 500.2 497.9 496.4 494.2 491.4 488.1 484.8 481.8 479.5 475.8 472.5 469.9 468.2 465.8 460.4 457.1 455 450.2 448.8 449.8 453.4 457.2 457.5 458.5 459.5 458.5 453.6 459.2 463 467.1 469.9 472.9 474.1 473.6 472.1 471 469.5 468.1 467.3 466.2 464.8 463.9 462.9 461.5 460.1 458.5 457.1 456.1 454.8 453.2 451.8 450.3 448.9 447.3 445.3 442 438.8 434.9 432.2 429.7 429.8 431.9 433.2 433.5 431.7 429 426.3 424.9 423.5 419.6 417.5 413.7 411 410.4 409.6 407.2 402.9 398.8 396.1 393.4 390.8 387.2 387.9 388.7 388 386.4 383.9 381.6 379.9 380.1 378.3 376.9 374.7 370.7 368.8 366 362.5 359.3 354.9 347.2 329.2 310.6 294 280.1 272.6 280.9 306.7 328.6 340.7 341.9 344.2 344.1 343.9 343.2 342.2 342.1 343.2 345.2 346.8 348.4 350.3 350.4 350.4 348.1 345.6 344.9 345.1 346.3 345.9 345 343.4 341.8 338.7 336.3 338.6 339.7 339.7 339.1 338.1 335.8 331.7 326 320.9 316 291.5 274.6 254.5 250.9 276.7 299.5 322.4 338.5 348.3 350.3 350.9 351.2 351.6 350.9 350.4 348.9 347.1 344.3 341.8 338.4 334.9 331.3 327.4 323.5 319.3 316 313.6 311.1 309.9 307.9 305.3 302.1 299.7
295.4 307.9 324.7 338.9 345.8 352.3 358.7 366.6 374.8 381.4 389.5 395.2 402.5 409.4 419.1 431 445 450.8 465.1 485.9 494.8 494.1 497.2 494.8 492.3 490.5 487 484.5 481.3 477.5 470.3 467 466.8 464.6 461.2 458.7 455.3 453.8 451.2 448.7 437.7 440 441.7 443.5 448.1 451.4 453.2 453.7 452.4 449.1 451.3 455.4 460.8 464.8 467.9 468.8 467 466.1 465.9 464.1 464.6 464.2 463.8 463.9 463.1 462.1 460.9 459.6 458.5 457.4 456.4 455.2 453.4 451.5 450 448.6 446.8 445.2 442.7 436 429.5 427.7 425.3 424.5 424.8 427.6 429 428.7 425.9 422.1 420.1 418.6 414.3 412.6 408.5 406.3 406.3 405 401 396.9 394.5 392.1 387.9 385.1 382 382.2 382.4 381.9 380.8 380.3 378.9 377.5 376.1 374.8 372.9 371 368.6 365.7 362.5 359.8 356.2 351.9 347.3 340.3 328.4 309.2 291.5 271.4 270.8 291.7 314 330.7 333.9 335.8 336.6 336.5 336.3 336.6 337.5 339.5 341.2 343.2 345.6 347.2 348 347.6 345.8 343 340.1 341.7 343.5 343.7 342.9 342.1 340.7 338.1 333.8 336 337.3 338 337.6 336.6 335 331.6 324.7 313.2 295.2 286.2 267.1 249.6 258.5 278.7 298.1 322.1 341.6 347.3 349.2 350 350 350.2 350.3 349.7 348.2 346 343.8 341.7 338.6 335.4 332.2 328.7 324.9 321.9 319 317 314.9 312.7 310.4 308.6 306.9 305.2
291.3 304.3 319.3 335.6 342.7 349.3 355.7 363.4 371.7 383.2 389.3 394.5 401 413 417.7 427.2 446.3 451.8 464 492.7 492.9 493.5 493.7 492.2 487.9 485.9 482.2 478.5 475.9 472 465 457.6 458.2 457 454.3 452.1 448.7 446.6 444.8 441.3 438.1 430.1 433.7 435 438 442.2 444.8 446 446.6 446.6 445.1 449.2 454.4 459 461.7 460.4 459.3 458.8 457.8 458.5 460 461.2 461.4 461.7 461.5 460.5 459.8 458.8 457.6 456.7 455.8 453.7 451.7 450 448.6 447.6 446.5 444.4 438.1 433.2 427.4 423.8 421.7 420.6 420.1 419.6 422.4 422.7 421.7 419 415.3 413.3 409.3 407.5 405 402.3 402.6 400.8 396.6 392.8 389.3 386 383.7 381.3 375.4 374.8 375.8 375.6 375.4 374.9 374.4 373.6 373 372.1 370.3 368.3 365.8 362.5 360.4 357.9 354.3 350.5 345.8 341.1 336.5 321.5 302.5 285.2 268.5 277.7 294.3 317.5 324.4 323.1 328 327.6 328.6 330.5 332.8 334.5 336.3 339.4 342.2 343.9 343.7 343.4 342 340.3 338.3 340.3 340.7 340.8 340.1 339.7 339.1 337.1 332.1 330 333.1 335 336 336 334 326.9 320.6 306.2 286.3 273 255.9 247.9 258 281.5 302.4 329 341.8 345.5 347.8 349.4 350.1 350.4 350 349 348 346.2 343.9 341.9 339.2 336.2 333.5 330.9 327.9 324.8 321.8 319.3 316.8 314.8 313.4 312.3 310.6 309.2
289.3 301.1 318.3 332.4 340 346.9 352.5 360.2 373.4 382.8 386.3 392.7 402.8 412.5 416.9 429.7 442.7 453.8 461.6 487.3 491.1 492.9 493 491.9 489.1 485.1 480.7 476.1 471.9 467.6 461.6 455.8 450.6 449.5 448.2 446.3 444.6 441.9 441.6 436.8 434.3 424.1 425.8 427 428.9 431.5 432.9 433.6 436 438.6 437 442 446.9 450.6 451.7 450.5 450.7 451.5 453.5 455 456.8 458.1 458.7 459.3 459.2 458.7 458 457.2 456.5 455 453.4 451.5 449.5 448 446.1 444.9 443.4 439.1 434.7 429.7 425.6 421.8 419 417.1 415.6 414.2 415.3 416.2 415.7 414.3 410.5 408 404.7 402.6 400.1 397.4 394.8 393.8 392.7 389.5 384.2 381.3 378.8 376.3 372.3 369.8 369.2 368.8 368.9 368.9 369.2 368.8 368.4 368.4 367.5 366.4 364 361.6 359.4 356.8 353.6 349.8 345.9 341.5 337.3 329.5 313.6 294.2 273.8 268 278.4 297.7 307.5 306.3 315.6 317.1 319.7 324.2 327.1 328.5 332.2 335.6 337.5 338.7 339.1 338.8 337.5 336.4 336.2 337.9 337.9 338.2 338.2 338 337.4 335.7 333 327.6 329.5 333.6 335.5 336 333.9 324.8 314.4 293.7 282 265.7 252.3 246.6 264.8 291.4 310.9 332.1 339.8 345.8 348 349.8 350.6 350.6 350.5 349.7 348.5 346.9 345 343.2 340.8 337.9 335.4 332.6 330 327.3 324.2 321.7 319 317.1 315.9 314.7 313.7 312.1
286.9 300.7 314.9 331.1 337.6 344.4 351.2 361.4 370 377.5 386.3 390.7 399.4 406.7 415.1 427.1 443.3 450.8 462.7 487.3 490.6 491.6 492.4 491.1 488.3 484.7 480.2 475.8 472 468 463 457.3 451.8 447.9 441.6 441.5 439.6 437.3 434.7 432 430.2 426.7 418.9 421.3 423.5 424.8 426.7 427.9 428.8 428.4 429.3 433 437 439.5 441.4 443.7 446.1 448 449.9 451.7 453.5 454.9 455.9 456.8 456.7 456.3 455.6 454.7 454.1 452.5 450.8 449 447.4 445.9 444.1 442.4 439.8 435.7 431.6 427.5 423.8 420.1 416.8 414 411.8 410.3 409.7 408.8 409.3 408.2 406 403.6 401 398.3 395.6 393.1 390.8 387.8 384.8 384.6 381 376.1 373.4 371.6 369.1 366 363.6 363.4 363.1 362.9 362.7 362.6 363.1 363.3 363.4 362.9 361.4 360 358.4 355.8 352.8 349.3 346.5 342.3 337.6 332.9 323.8 307.4 289.1 268.3 267.1 280.2 291.3 298.6 303.6 303.7 311.1 315 317.6 322.6 327.6 331.4 332.9 334 333.9 333.5 332.3 333.8 335.6 336.4 335.6 335.3 334.7 334.8 334.9 334.1 331.8 328.2 327 331.3 332.8 333.4 331.5 324.7 315.8 289.9 271.1 261 246.5 247.2 271.2 290.3 323 333.1 343.9 346.4 348.4 350.2 350.8 351.1 351 350.4 349.1 347.5 346.1 344.6 342.8 340.1 337.9 334.4 331.6 328.6 325.8 323.1 320.6 319.6 318 316.7 315.7 314
283.1 298.5 311 327.4 334.9 341.1 352.2 360.6 367.4 379.8 387.2 393.1 398.4 405 416.3 424.3 438.8 451.1 469.3 486.7 489.2 491.1 491.2 489.7 486.6 483.9 479.8 474.7 469.9 465.7 461.5 456 451.1 447.7 443.9 440.4 435.9 431.3 429.2 427.4 425.6 423.1 416.2 415.1 418.1 421.7 423.2 423.8 424.2 423.3 425.9 429 433.2 435.9 438.3 440.4 443.9 445.3 447.8 450 451.8 453.2 454.5 455 454.4 453.9 453.2 452 451.1 449.7 448.9 447.5 445.5 443.5 441.7 440.5 438.1 434.1 429.7 426.4 422.3 418.2 415 411.8 408.4 406.5 404.5 401.9 402.9 402.2 401.1 399.4 396.4 394.3 392.1 389.2 387 384 380.7 377.9 376.6 373.5 369.8 367 365.3 363 360.7 358.3 358.3 357.8 357.1 356.8 356.9 357.4 358.3 358 357.8 356.8 355.4 353.1 350.4 348.1 345.2 341.5 338.2 333.8 328.9 319.7 303.3 288.9 269.1 272.6 285.1 290.7 294.2 297.4 302.6 306.2 311.5 315.8 320.9 325.1 327.9 328 327.9 328.2 331.7 334.9 335 334.5 333.6 332.3 331.3 331.3 331.3 331 329.7 327.6 321.1 327.1 327.9 327.8 326.2 322.7 310 296.3 262.2 256 249.2 250.7 274.7 301.3 323.9 339.1 343 346.3 348.8 350.5 351.1 351.6 351.5 351.2 349.9 348.5 347.4 346.5 345.5 343.4 341 338.5 335.3 330.1 327.7 325.7 323.6 322.2 320.8 319 317.1 315.2
281 295.9 305 318.1 328.5 336.4 345.1 357.4 365.3 373.5 385.2 389.9 396.4 405.9 416.5 433.4 443 450.5 481.6 486 488.5 490 489.8 488.2 485.5 482.4 478.7 474.3 469.1 464.8 459.6 454.9 449.9 446.3 443 439.6 436.1 431.4 424.8 422.7 421.7 418.8 414.3 408.9 415.7 418.8 418.7 418.4 419 421.2 424.3 429 432.4 435.5 438.6 441.3 443.9 446.3 448.1 449.6 451.1 452.9 454 453.5 453.1 452.5 451.5 450.5 449.2 448.3 447.4 446 444.3 442.8 440.2 438.1 436.6 433.9 429.7 425.9 421.5 417.6 413.5 409 405.5 402.5 400.2 397.7 395.8 394.6 394.4 393.4 391.7 389.6 387.4 384.5 381.8 379.2 376.6 373.8 371.8 368.7 366.7 364.6 362.4 359.9 357.2 354.8 353.1 353 352.1 352 351.9 351.8 352.2 352.2 353.1 352.5 351.7 349.3 347.4 345.1 342.7 339.8 335.9 331.4 326.5 320.8 314.5 300.3 288 263 268.9 275.6 286.5 290.5 297.2 302.9 307.9 311.7 315.4 319.1 322.1 323 322.8 325 331.1 332.3 331.8 330.3 328.3 326.8 327.2 327.5 327.9 327.7 327 325.3 322.2 318.4 321.7 322.1 321.2 318.5 309.6 291.4 260 252.1 245.1 254.1 280.2 304.7 317.7 336 341.6 346 348.5 350.6 351.6 352.1 352.2 352 350.8 350 349.4 348.5 347.4 345.9 343.6 340.6 336.4 332.9 331.3 328.8 326.7 324.8 322.6 320.9 318.4 316.1
279.6 291.4 299.3 307.3 316.7 330.1 339 352.2 361 368.4 378.9 389.2 391.5 406.9 418.6 437.8 450.9 463.3 480.9 482.9 486.4 488.5 488.7 486.8 484.1 480.7 477.4 473.3 468.8 463.6 457 452.4 448.6 444.9 441.6 438.3 434.8 430.2 425.8 419.1 414.6 414.3 410.8 401.3 408.9 414.9 416.7 412.5 418.8 422.2 426.6 430.9 433.8 436.7 438.9 441.7 444.5 446.3 448.2 449.7 451.9 453.3 453.8 453.2 452.4 451.4 450.2 449.2 448.6 447.1 446.2 445.4 444.1 442.6 440.6 438 435.7 432.2 430.1 425.1 420.3 417.1 412.9 408.5 403.4 398.3 395 392.2 391.3 389 387.3 386.3 385.2 383.9 381.9 379.6 376.2 374 372 369.8 368.2 365.3 362.6 360.8 359 357.1 354.6 352.2 349.8 348.5 348 347.3 347.1 347.1 347.2 347.4 347.6 346.2 345.7 344.5 342.7 341.2 338.6 335.3 331.5 326.9 321.6 317.1 312.8 305.4 296.7 284.8 268.1 263.3 276.3 282.8 294.4 300.9 305.8 309.1 311.7 314.8 317.8 318.3 318.2 320.5 326.8 328.2 326.3 324.2 323.8 323.7 324.2 324.7 325.2 324.9 324.1 323.1 320.6 314.7 313.4 315.7 315.2 313.3 309.9 287.7 256.7 247.9 245.1 260 277.8 290.4 313.5 333.6 339.9 344.9 348.3 350.3 351.4 352.2 352.7 352.9 352.8 351.8 351.5 351 349.1 347.4 344.7 341.1 338.1 334.4 333.7 331.7 329.1 326.5 323.9 321.9 319 316.2
277.9 285.6 292.6 300.7 309.9 320.1 332.9 342.7 351.1 360.1 372.5 383.8 391.4 405.9 419 435.9 449.3 469 472.4 478.1 483.6 487 487.5 485.4 482.3 479 475.8 471.4 467 461.3 454.4 450.7 447.1 443.5 440.2 436.9 432.5 427.8 424.2 418 409.4 406.6 405.3 393.9 403.7 409 407.3 412.8 417.7 422.7 425.9 429.3 434.3 437.5 440.3 442.6 444.6 446.2 447.9 450.2 452.7 453.7 453.7 453.1 452.2 451.2 449.7 448.8 448.1 446.9 445.8 444.9 443.8 442.5 441.1 439.1 436.4 433.4 430.4 424.9 419.6 415.5 409.8 407.8 401.3 395.5 391.5 388 384.6 383.1 382.1 380.2 378.4 376.7 375.6 372.9 371.1 369 367.2 365.4 364 362.2 359.9 357.7 356 354.3 352.2 349.9 347.4 345.7 344.2 343.5 343 342.9 342.9 342.1 341.7 340.7 340.1 338.8 336.8 334.5 332.6 329.4 326 321.2 319 315.5 312.1 308.9 304.6 296.1 280.6 257.3 273 274.2 292.9 298.6 302.5 305.6 308.4 310.6 312.7 313.9 313.7 316.8 319.6 321.7 321.1 321.1 321.5 320.2 321.4 322.2 322.8 322.7 322.2 321.2 319.5 317.3 312.3 300.9 304.9 303.2 294.9 281 253.3 237.4 252 262.7 273.3 283.3 309.7 326.6 338.2 343.1 346.2 348.5 349.5 350.6 351.8 352.4 352.8 352.6 352.5 351.5 350.4 348.2 345.1 341.7 339.5 336 334.3 332.8 330.6 327.9 325.3 322.8 319.8 316.8
273.8 280.5 287.2 293 302.2 311.9 329.7 339.4 349 357.5 369.6 380.2 389.3 400.5 417.4 433.7 446.7 456 468.4 475.7 479.8 483.7 485.2 483.2 480.3 476.8 473 469.5 465 458.7 452.4 448.7 445.9 442.3 438.7 434.6 430.6 426.4 422.1 416.5 409.6 397.9 397.4 393.8 400 402.9 406.7 411.8 418 422.4 425.5 428.7 432.3 435.8 439.6 442.7 444.4 445.9 447.6 450.3 452.8 451.8 451.2 450.6 450.7 449.9 449.1 447.9 447.2 446.3 445.4 444.2 443.1 442.1 441.2 439.6 437 434 430.8 427.6 424 419.4 414.8 408.5 403.1 397.7 392.4 386.5 380.1 377.1 375.2 374.8 373.3 371.7 370.1 368 366.4 365.1 363.7 362.1 360.1 359.2 356.9 355.1 353.8 352.3 349.9 347.2 345.2 343.2 341.6 340.8 340 339.8 339.5 338.7 337.5 335 332.8 331.3 330.4 328.6 326.6 324 320.4 317.4 315 314.4 311.7 308.5 305.2 299.5 282.4 261.6 271.2 271.7 290.2 295.8 298.7 301.2 304.3 305.7 307.7 308.2 310.8 312.7 314.9 317.1 317.9 317.3 316.9 317.5 318.8 320.2 321 321.1 320.6 319.4 318 316.9 315.8 313.7 300.2 275.5 274.5 259.8 249.7 235.2 248.6 258.2 266.4 281.7 309.7 329.2 334.7 341 344 346.5 347.6 349 350.5 351.4 352.1 352.3 352.1 351 350 348.5 345.3 342.6 340.2 335.9 334.2 333.3 331.3 328.1 324.9 322.4 319.6 316.6
273.2 272.6 281.2 287.3 294.6 304.7 323.3 336.8 346 358.2 368.8 381.3 388.7 400.1 416 428.7 437.2 456.5 465.5 471.2 474.5 478.4 480.5 480 477.3 473.7 470.1 466.4 461.8 456.4 452 447.2 443.5 439.5 436.1 432.3 428.5 424.3 419.9 415.2 409.3 400.7 389.2 389.4 395.6 398.1 405 410 415.3 419.4 423.1 426.8 432.1 435.6 438.6 441.4 444.7 446.3 447.8 449.8 450.1 448.3 448 448.4 448.6 448.6 448.4 447.2 446.2 445.4 444.3 443.2 442.3 441.3 440.5 439.3 437.9 435.3 432.3 429.5 425.3 421.4 417 411.8 406.2 401.3 394.9 389 379.9 376 373.1 370 368 366.7 366.2 364.5 362.9 362.1 360.5 359.3 357.6 356.1 353.9 352.8 351.9 349.9 347.3 345.4 343.5 341.3 338.5 337.9 337.1 336.7 336.7 335.9 334 331.2 328.4 326.1 323.9 322.3 320.7 318.1 315.4 312.9 312.6 312 309 306.3 303.5 299.5 288.9 265.3 264.5 267.2 285.2 291.3 293.3 296.8 299.3 301.6 303.3 305 306.8 309.3 311.7 313.9 314.4 313.5 313.8 315 316.8 318.2 317.8 318.8 318.3 316.9 316.4 315.6 314.6 313.8 312.4 304.7 281 268.5 247.9 234.4 238.8 250.3 263.5 289.5 308.2 322 331.5 337.5 340.6 343.8 345.9 347.4 349 350.2 350.8 351 350.8 350.2 349.3 346.1 344.6 342.4 339.3 336.6 334.4 332.3 329.6 327 324.4 321.9 319.4 316.3
270.6 270.2 271.9 276.4 289.8 297.8 313.9 332.3 344.2 356.9 369.4 382.6 392 399.6 412.7 426.9 450.1 460.6 464.7 467.2 469.8 471.7 473.6 473.4 471.1 468.3 465.2 461.8 458 455 450.5 445.9 441.8 437.8 433.8 430.1 426.1 421.8 417.6 413.3 408.1 401.5 390.6 385.8 385.4 397.4 404.2 408.6 412.5 417.6 421.8 425.3 431.1 434.4 437.8 440.1 442.9 446 447.1 446.8 446.7 445.9 446.1 446.9 447 447 446.3 445.2 444.4 443.8 443.7 443.1 441.7 440.8 439.9 438.7 436.8 435.4 433.2 430.5 427.5 423.8 418.5 413.8 408.3 402.9 397.7 392.2 387.1 380.1 373.2 369.9 367.1 363.6 362.8 361.4 360.4 359.5 358.1 356.5 355.5 354 352.1 350.7 349.7 347.3 345.4 343.5 341.6 339.6 336.7 334.6 334.2 333.6 333.4 332.4 330 328.1 325 322.1 319.9 318.5 316.8 314.8 312 309.8 310.2 308.9 306 305.2 303.6 299.4 294 277.3 258.2 266.4 276.4 284.4 288.1 291.6 294 296 299.2 301 303.6 305.6 308.1 309.7 310.3 310.4 310.1 312.2 314.2 315.8 316.2 316.2 315.5 314.4 314.1 313.7 313.2 312.8 312.5 312.6 307.6 285 264.4 236.3 232.5 241.2 271.3 293.5 303.8 314 326.3 333.2 336.6 339.7 341 342.7 345 346.5 347.7 348 347.8 347.6 346 343.5 342.9 340.8 339.3 336.7 333.8 331.2 328.9 326.1 323.3 320.5 318.1 315.5
267.6 268.7 268.6 270.1 278.9 292.7 305.9 326.6 342.6 353.6 366.9 380.5 393.2 404.3 418.5 439.6 453.3 461.8 464.3 463.4 465.3 465.7 466.6 466.3 464.4 463 460.9 457.3 454.8 452.4 448.5 444.8 440.7 436.5 431.9 428.3 424 420 415.6 411.1 406.4 399 383.2 376.9 390.1 397.3 403.2 407.1 410.7 415.3 421 424.3 429 431.9 434.9 438.4 441.3 443.1 444.8 445 444.6 443.8 444.4 444.6 444.7 444.4 444.2 443.3 442.7 441.9 441.7 441.7 441.4 440.7 438.8 437.4 436.5 435 431.4 429 425.8 423.5 421.2 416.6 410.2 404.5 399 393.9 388.9 383.3 375.8 369.2 367 364.4 361.9 359.8 358.2 356.3 355.5 354.3 353.1 351.7 350.2 348.6 347.5 345 343.4 341.8 340.1 337.6 334.3 329.8 327.4 327.4 328.9 328.8 325.6 323.8 321.1 318.7 316.4 314.7 313.5 311.6 308.8 306.5 305 305.7 302.8 301.3 301.4 297.5 293.1 286.3 275.6 249.5 266.1 277.9 283.4 286 288.2 290.7 294.1 297.5 299.8 301.7 303.6 305.2 306.2 306.4 306.3 308.1 310.7 312.4 313.5 313.3 312.6 312.1 311.8 311.7 311.6 311.1 311.3 310.8 308.4 291.9 266.7 235 231.5 245.2 276.8 290.1 300 312 323.4 328.8 333.2 335.7 337.4 339.2 341.2 343.2 344.2 343.9 343.3 342.6 341.5 339.8 339.7 339.3 338.5 335.9 332.7 329.3 327 324.5 321.9 319.1 316.6 314
270.7 268.5 267.8 266 272.3 286 299.3 320.6 338.8 355.2 366.7 380.3 392.5 410.4 419.7 442.8 456.8 462.3 463.1 461.4 461.3 461 461 459.7 458 456.8 455 452.9 451.4 449.2 445.7 442.4 438.6 434.9 430.2 425.1 420.7 417.1 412.8 408.2 403.1 397.3 382.8 375 388.8 396.6 401.4 405.4 409.7 414.3 418.4 423.1 426.3 429.1 431.8 435.4 437.4 439.5 439.5 441.3 440.3 441.4 441.8 441.8 441.5 441.1 440.9 441.2 440.5 440.2 439.8 439.4 439.4 439.3 438.6 437.8 436.9 434.8 431.8 428.4 425.5 422.4 416.7 416.5 411.1 405 399.8 395 389.3 383.6 377 370.2 366.6 364.1 362 360.2 358 356.1 354.3 352.6 350.7 348.8 347.6 346 345.1 343 341.8 340.6 338.7 334.5 329.7 325.4 329.9 325.4 318.5 320.5 320 318.2 315.5 313.9 312.8 310.9 309.9 307.4 305.1 301.4 297.9 297.5 297.4 295.1 292.1 289.4 287.7 281.8 267 252.4 255 272.1 277.5 280.1 282.2 284.5 289.1 292.6 295.5 296.6 298.8 300.8 302.5 302.8 302.7 304.4 306.7 308.6 310 310.1 310.1 310.1 310.1 310.2 310.5 309.9 308.9 308.2 305.6 284.3 263.3 238.8 229.6 250.4 271.5 291 298 309.9 319.6 323.9 326.9 329.5 331.8 334 335.8 337.3 337.7 337.6 337.6 337.2 336.6 336.7 336.6 338.7 337.1 333.8 330.8 327.6 325.2 322.8 320.3 317.8 315.3 312.5
272.2 271.2 267.4 267.1 266.6 280.7 295.6 310.7 333.3 355.2 366.9 380.9 393.9 409 425.6 448.6 455.1 459.5 461.3 459 456.6 456.1 454.1 453.6 452.9 451.9 450.6 449 447.3 444.5 441 438.1 433.1 430.3 425.9 421 416.8 412.8 409.1 404 398.9 394 374 367.3 385.8 393.9 398.2 402.6 407.4 413 417.8 422.2 425.2 427.6 430.6 432.9 435.1 436.4 436.9 436.3 436.4 436.3 437 437.3 438 437.6 438 438.4 438.5 438.5 437.8 437.2 437 436.9 437 436.8 436 434.9 432.9 429.9 426.6 422 416.8 403.1 408.4 403.7 398.1 390.9 388 382.4 376.2 371 366.7 363.9 361.9 360.1 358.4 356.6 355.1 352.7 350.6 348.6 348 344.8 342.1 341.3 338.8 336.7 333.4 333.1 334.6 334.6 333.5 330.5 324.7 319.3 314.6 311.7 310.2 307.8 302.6 298.7 296.6 300.1 291.8 287.8 288.2 282 285.5 277 275.3 271.9 267.9 267.1 263.1 267.9 246.5 264.9 268.4 273.1 275.3 280.1 284.1 287.9 290.3 291.4 293.6 296 298.5 298.7 299.1 301.2 303.4 305.4 306.5 306.7 307.4 308 308.3 308.1 309 308 306.6 305.2 302.2 277.5 261.4 236.6 232.1 250.9 273 288.5 295.8 309.8 314.5 318.8 321.7 324.5 327.3 328.7 330.1 331.4 332.3 332.8 332.7 333.1 333.8 334.5 333.8 337 336.1 333.2 329.4 326.4 324.2 321.9 319.5 317.1 314.7 312.2
271.7 271 269.1 266.5 265.5 276 288.8 303.2 323.1 352.1 365.7 380.6 395.8 412.6 429.5 446.2 452.3 456.2 457.8 456.7 453.6 453 451.2 449.5 449.8 446.1 445.6 443.2 442.7 440.3 436.7 433.1 428.9 425.1 421.1 416.6 412.5 408.3 403.7 399.1 394.3 389.7 374.4 359.6 380.1 389.9 395.5 401 406.7 412 417 421.4 423.5 425.9 429.6 432.2 434.7 435.5 437.1 436.5 435.2 434.6 433.6 432.9 433.6 434.8 434.7 435.1 435.3 434.5 435.1 434.8 434 434.2 434.1 434.3 434.2 433 431.6 430 426.3 420.9 413.7 407.1 394.2 399.2 394.1 386.3 383.4 379.3 374.9 370.1 365.7 363.5 361.8 359.9 358.8 357.3 355.9 354.3 351.7 349.6 348.4 346.1 344.2 342.6 341.1 340.4 340 338.8 337.7 336.9 335 331.5 329.6 326.3 322.8 318.9 317.2 315.7 315.5 315.5 314.6 313.3 310.3 306.1 301.1 297.1 293.6 293.6 293.2 290 284.3 280.3 282.9 279.8 263.2 248.2 255.9 262.6 268.8 273.5 277.8 281.6 284.2 286.5 288.1 290.8 293.6 293.8 295 298.2 300.3 302.1 302.9 303.5 304.5 305.2 305.3 305.7 306.8 306.3 304.9 302.9 300.5 280.6 262.9 240.3 226.8 242.1 268.4 282.7 291.4 303.8 310.2 313.6 316.6 320.3 323.3 325.1 326.2 327.5 328.6 329.1 329.9 331.1 331.9 331.7 330.5 330.7 332 331.7 328.5 326.4 324.5 322.4 320.1 317.8 315.4 313.1
273.1 270.9 268.9 265.1 265.2 274 285.4 300.6 316.4 346.8 362.9 378.1 399.6 415.3 433.7 441.6 447.1 452.6 453.3 454 450.8 449.3 449.1 447.8 441.8 436.1 441.2 435.3 437 433.7 430.8 426.4 422.6 419 415 411 406.3 401.5 397.2 392.7 387.9 383.4 371.9 356.3 374.7 387.1 394.4 399.9 405.6 410.2 415.7 419.9 423.3 426.6 429.9 433.9 436.2 436.4 441.2 440 439.5 435.6 433.5 431.5 429.8 428.9 429.6 429.7 430.2 429.8 431.1 431.2 431 430.4 429.5 430.3 430.5 429.8 429.1 426.3 423.4 416.3 409.9 402.3 394.6 381.8 382.7 381.9 377.1 373.7 371.2 369 365.3 363.3 361.3 358.9 358 356.8 355.6 354.4 352.5 350.5 349.2 347.3 345.5 343.9 343 342.3 342 340.5 339 337.5 335.8 334.9 333.1 331.1 327.8 325.2 323.2 322 320.3 319.6 318.6 317.1 314.4 310.5 307.5 308.4 305.7 304.6 302.7 299.8 295.8 291.6 288.6 285.3 275 264.1 254.8 244.4 257.7 265.1 270.9 274.6 277.5 280 283.4 285.8 288 289.1 292.7 295.2 296.4 297.7 298.8 299.9 301.1 302.3 302.4 302.8 303.2 303.9 302.7 301.1 298.8 287.4 266.4 240 232 232.1 253 271 286.4 297.5 306 309 312.3 316.3 319.6 322.3 323.1 323.8 324.8 326.1 327.8 329.8 330 329.1 327.8 327.3 328.6 329.3 328.3 326.3 324.7 322.8 320.6 318.4 316.1 314.8
275.7 269.3 269.3 265.9 263.8 275.3 284.6 296.6 315.2 344.1 361 373.9 391.5 414.1 428.3 437.6 443.7 447 448.8 448.3 447.6 446 443.5 440.7 429.8 420.4 423.8 432.7 429.1 426.7 424 420.3 416 412.1 407.9 404 397.5 392.9 388.7 385.2 381.6 377.9 371.9 349.9 376.5 386.8 392.4 398.7 404 408.3 413.4 418.3 422.3 425.4 430.4 434 435.4 439.9 443 441.5 438.6 436.7 434.5 432.9 430.4 428.4 426.9 427.2 427 425.7 427 427.5 427.2 426.5 425.7 423.7 423.1 423.4 422.1 419.2 412.9 402.5 397.5 396.8 391.2 382 376.4 375.1 373.2 370.3 367.3 364.9 363.3 361.6 359.7 357.9 356.4 355.5 354.1 353.2 351.7 350.4 349 347.4 345.9 344.9 344.2 343.8 343.2 341.9 340.1 338.1 338.1 337.8 336.2 334.2 332 329.3 327.4 325.3 323.5 322.3 321.2 319.7 317.8 314.6 315.1 312.5 310 308.4 306 304 300.8 296.9 293 289.6 284.7 278.9 271.3 256.2 242.4 256.1 262.1 267.5 269.7 272.9 276.3 279.7 281.9 285.8 289.1 291.1 292 293.1 294.3 295.3 296.7 298.7 298.9 300 300.4 300.1 299.3 298.5 296.8 293.5 267.4 243.7 228.8 229.1 238.3 260.6 276.7 290.1 301.5 306 309.5 312.6 315.7 318.4 320.3 320.8 321.6 323 324.9 325.6 326 326.6 325.4 325.8 327.2 328.4 329.3 328.1 325.7 323 321 319.3 317.3 315.8
280.6 268.8 268.6 268 261.2 271.3 277.8 287 314.2 338.3 359.7 376.2 390.7 407.5 419.9 433.2 440.3 442 443.3 443.5 442.8 442 440.1 437.4 434 430.7 415.2 412.6 420.5 417 416 411.4 407 398.9 390.2 385.1 383.4 383.9 380.7 377.5 374 370.4 351 354.8 378.8 383.5 390.8 397.9 402.5 407.6 412.8 417.3 420.2 426.7 431 434.3 438 443.4 445.1 443.2 441.3 438.8 436.3 433.4 431.5 428.8 426.4 424 424.4 424 422.6 422.4 424 424.3 423.7 422.7 415.6 409.3 410.2 404.5 394.8 393.1 390.9 385.8 381.8 377.1 372.6 371.6 369.2 367.5 364.3 362.7 362.1 361.3 360 357.8 356.1 354.4 353.5 352.3 350.8 349.2 348.4 347 345.9 345.4 344.9 344.4 343.6 342.4 341.7 340.8 340.3 339.6 338.3 336.7 334.6 332.2 330.8 328.8 325.8 324.2 322.9 321.7 319.2 319.5 318.7 315.9 313.7 311.6 309 306.7 303.9 300.1 296.8 293.2 288.8 284.3 279.7 269 254.1 239.1 248.4 252.7 260.2 264.6 268.8 273 277 282.6 284.9 286.6 287.7 288.7 290 291.4 292.9 295.1 295.8 296.5 296.5 297 297.3 296.6 294.5 292 276.1 251.4 229.4 220.3 223.8 247 263.5 275.2 288.6 300.8 306.4 309.6 312.4 314.5 316.5 317.8 318.5 320 320.2 320.9 324.5 323.6 322.9 325 328.5 331 331.7 330.9 328.5 325.2 322.7 320.7 318.8 317.2
284.4 269.1 267.9 267.4 263.8 263.7 278.2 284.8 305.6 334.2 360.6 377.8 389.5 403.8 416.4 431.3 438.2 439.4 440.2 440.4 439.9 439.1 436.9 434.3 431.3 426.5 422.1 415.1 401.2 407.2 407.2 403.1 399 394.2 389.7 383.6 378.4 375 366.1 368.2 358.7 346.9 339.4 358.1 373.7 384 391.4 397 402.5 408.1 413.4 417.2 421.5 426.9 432.3 436.9 444 445.8 445.2 443.5 441.6 439.4 436.4 433.5 431.4 429 427.3 425.3 422.1 421.8 421.6 420.5 418 418.9 420.5 419.1 415 411 404 400.6 395.1 390.4 385.6 381 378.2 375.2 371.7 369.9 367.9 365 362.2 360 360 359.8 359.5 357.8 356.2 354.1 352.2 350.7 349.2 348.4 347.6 346.8 346.1 345.8 345.4 344.8 344.1 343.6 343.2 342.8 341.9 340.2 339.3 338.2 336.5 334 332.6 331.6 328.8 326 324.6 323 323.9 322.8 320.5 317.5 315.2 313.6 310.9 308.3 305.4 302.8 299.9 296.3 292.5 288.7 284.9 279.1 259.2 244.3 236 236.2 241.7 247.9 261.3 265.6 272.4 277 279.7 282.1 283.4 284.8 285.6 287.7 290 291.2 292.4 292.7 293.4 294.1 294.8 294.5 293.2 290.9 284.7 259.2 232.4 221.1 218.3 227.9 246.9 265.4 277.1 292.6 303.4 306.6 309.3 311.3 313.1 314.8 315.1 316.7 317.4 318.4 321.1 320.3 320.3 325.1 330.3 330.7 330.6 330.4 329.7 327 324.1 322 319.9 318
286.9 277.8 269.8 266.6 264.9 259.7 274.5 282.3 296.6 325.9 350.3 377.1 389.7 399.7 414.5 429.5 435.5 436 436.5 436.4 436.7 435.3 433.3 431 427.6 422.8 417.4 414.4 409 389.5 392.9 391.2 390.6 386.1 381.5 373.1 370.2 365.3 358.1 347.4 342.3 333.3 347.3 362.4 374.9 383.8 391.9 398 403.8 408.9 414.2 418.3 422.2 426.9 433.9 442.2 445.6 446.2 445.3 443.4 441.7 439.1 436.3 433.7 431.3 428.8 426.6 425.1 422 419.7 418.8 419.9 418.7 416.3 410.8 399.6 397.7 402.8 397.8 396.6 392.9 389.7 386.1 382.7 378.5 374.9 371.5 369.4 366.4 363.4 360.6 357.8 357.4 357.4 357.6 356 353.7 351.6 350.2 348.7 347.3 345.9 345.5 344.9 345.3 345.5 345.6 345.5 344.9 344.3 343.2 342.6 341.3 340.1 339.3 338.6 337.2 335 333 331.5 328.8 326.3 324.7 323.2 323 322.8 320.8 318.2 315.7 313.6 311.6 308.9 306 304.1 302.5 300.4 296.2 292.8 289.7 286.3 279.4 271 257.9 236.3 232.6 237.3 249.7 261.6 267.7 271.9 274.5 277.1 279 280.2 281.1 283.1 286 287.2 289 290.3 291.9 292.9 292.3 292.1 291.2 288.9 285.9 262.4 236.5 226.3 219 220.3 233.8 246.6 265.4 273 282.6 290 294.4 307.1 310 311.4 312.3 313.3 314.5 315.8 316.6 315.7 318.9 324.7 328.2 328.2 328.8 328.8 327.9 326 324.1 322.2 320.7 319.3
288.1 280.1 271.9 266.8 265.3 262.6 265.8 276.2 286.5 320.3 334.5 374.4 388.9 401.5 415.8 428.7 433.2 433.4 432.6 432.3 433 431.8 429.8 427.3 423.1 418.5 413.6 407.3 402.8 398.2 385.5 383.2 379.9 379.7 374.6 369.8 363.3 358.9 350.9 343.7 330.5 326.5 349.4 360.7 370.1 385.3 393 399.5 404.7 409.6 414.3 419 423.3 428.9 433.7 443.8 445.9 446.1 445.1 443.2 441 438.4 436.1 433.8 431.3 428.7 426.5 424.7 422.5 420.9 417.8 417.3 417.6 407 399.9 390.5 389.7 386.6 385.7 383.9 383 381.4 380.5 377.7 374 370.8 368.7 365.8 363.3 360.6 358.5 356.3 353 354.1 353.2 352 349.5 347.3 346.9 344.9 343.4 342.8 342.9 343.4 343.3 343.6 343.5 343.1 342.6 341.9 341.5 340.5 340.1 339.6 338.5 336.1 334.4 333 332.3 330.5 328.1 326.2 324.5 322.9 322.3 322.1 320.7 318.2 315.5 313.3 311.5 309 306.1 303.8 301.9 299.8 296.7 295.1 292.8 289.3 286.3 283.9 266.7 252.6 234.8 233.8 235.5 252.4 260.6 265.9 269.1 271.6 273.7 276.3 275.6 279.1 281.7 283.5 286.1 288 290 291.2 289.9 289.2 288.2 286.3 282.7 266.8 239.6 229 219.2 216.1 227.3 231.9 245 263.8 272.4 276.4 278.1 283.5 296.6 307.5 308.9 310 311.1 312 312.7 312.1 316.9 323.4 325.1 326.2 327.5 328 327.4 326.4 324.5 322.9 321.3 319.9
288.7 281.3 273.9 266.8 265.4 261.3 261.2 271.6 287.4 306.2 326.2 364.8 389.1 402.5 418 426.4 431.5 430.9 430.3 428.5 428.9 428.2 426.9 423.7 418.7 413.2 408.8 401.2 394.4 390.2 386.1 376 368.9 369.9 367.4 362.3 350.8 347.2 334.4 323.2 314.2 336.3 358.8 370.3 378.5 386.2 393.8 400.8 405.3 410 414.8 420 424.2 430 435 444.6 446.2 445.9 444.8 442.7 440.4 438.1 435.8 433.4 430.8 428.3 426.4 424.7 422.9 421.4 419.4 415.1 392.9 392.7 383.2 384.7 383.3 379.8 377.5 374.8 374.2 373.8 371.8 371.3 368.3 366 363.7 360.9 357.3 355.4 351.8 350.2 346.4 346.8 346.6 344.9 342.3 341.7 341.2 339.4 339.1 338.7 338.8 338.4 337.8 338.8 339.6 339.5 339.1 338.6 338.3 338.1 337.6 337.8 337.2 335.2 333.5 332.3 331.8 330.2 327.7 325.6 324.2 322.5 320.2 320.9 319.7 317.4 314.8 312.5 310.7 308.9 305.9 303.1 300.9 298.5 296 294 292.4 289.8 287.2 284.4 276.6 266.1 249.2 237.8 230.8 239.1 251.4 258 262.7 265.1 267.6 269.3 270.8 273.6 276.2 280.1 281.6 284 285.2 286.3 285.7 285.1 284 278.5 260.4 247.3 228.2 225.8 216.5 215.2 223.5 226.6 233.8 245.6 254.3 260 265.7 273.1 284.5 302.1 305 306.4 307.3 308.1 308.5 310.5 316 319.9 322.7 324.8 326.5 327.1 327 326 324.6 323 321.4 320
287.9 282.7 275.9 269.1 265.2 261.5 259.1 271.3 279.5 295.2 321.4 353.3 384.5 399.3 414.5 425.6 428.1 428.9 428.1 426.3 424.7 423.8 422.4 417.6 412 408.3 402.7 396.3 389.1 385.1 381.3 376.4 372.2 358.5 357 348.2 342.4 331.7 309.3 309.1 332.4 355.3 364.1 373.8 380.8 389.2 395.2 401.8 405.9 410.6 416.3 420.6 424.8 430.5 440.8 445.1 446.4 445.7 444.6 442.9 440.8 437.9 435.4 433.2 430.9 428.1 426.3 424.1 422.4 421.2 419.6 416.3 405.6 390.6 380.2 380 381.9 376.3 372.7 372.5 368.5 368 366.9 366.5 363.7 359.6 357.3 355 352.1 347.3 345.7 343.7 342.7 341.4 340.8 339.6 337.3 336.6 337.5 336.6 336.1 332.5 330.8 332.2 332.2 333.3 334.4 335.4 336.3 335.9 335.6 335.6 335.6 335.3 335.4 333.8 332.1 330.7 330.2 328.7 324.8 323.3 323.1 320.8 318.5 321.4 319.5 317.4 314.9 312 309.9 308.1 305.8 303 299.9 297.1 293.1 290.6 289.7 287.3 283.9 279.3 272.6 265.4 257.3 247.8 231.3 230.8 239.2 248.4 253.7 257.8 260.6 262 264.3 267.6 271.9 273.8 276.7 278.5 279.7 280.3 279.4 270.9 259.5 244.7 236.2 220.6 219.2 216.8 214.1 213.7 217 217.4 220.8 225.9 232 239.1 251.3 258.9 273 286.8 301.3 303 302.5 303.2 303.9 309.2 313.2 318.2 323.5 325.3 326.5 326.3 325.9 325 323.9 322.5 320.8 319.5
286.2 284.9 278.2 271.8 267.2 260.6 260.2 268.5 276.9 288.9 311.3 339.1 372.9 390.3 403.2 421.6 423.9 426.2 425.7 424.4 421.9 418.6 416.8 411.7 407.7 402.8 396 389.4 384.6 380.2 376.1 372.2 367.7 361.8 346.2 340.2 331.6 312.4 304.4 319.3 343.9 360.9 368.8 376.3 383.1 391.1 396.9 402.4 406.3 410.8 416.6 420.8 426.7 433.8 443.2 445.6 446.4 445.8 444.3 442.6 440.5 437.5 435.9 434.3 432.3 429.7 426.8 424.2 422.2 420.7 418.7 416.3 413.7 405.3 394.5 385.2 379.3 376.7 381.8 383.7 381.3 376.1 372.2 370.2 367 366.9 362.1 358.5 354.9 349.9 346.7 344.2 341.3 332.9 334.6 332.6 329.7 326.7 329.4 330.4 330.4 327.7 328.4 326.2 328.2 329.7 330.5 330.6 330.8 329.7 331.5 332.5 332.8 333.5 333.2 330.7 329.6 327.7 326.2 324.9 321.5 320.7 320.5 319.8 317.4 321.1 320 317.5 314.8 311.7 308.6 306.9 305.5 303.4 300.6 297.9 294.1 286.8 279.9 278.1 270 264 258.8 255.1 250.2 244.8 237.5 229.6 229.7 233.1 240.9 249.3 252.7 252.6 256.4 261.8 265.7 267.4 270.8 271.9 268.7 260 254.1 243 234.3 226.5 219.8 214.9 214.5 213.7 213.1 212.8 212.3 211.6 211.3 214.6 219.8 226.3 231.9 239.8 259 282 297.4 299.2 298.3 298.9 301.9 306.5 312.7 318.4 320.6 322.9 325.2 324.9 324.5 323.8 322.9 321.8 320.3 319
285.9 286.7 280 272.7 268.7 263.9 259.6 262.7 272 286.6 313.2 330.1 357.7 375.9 385.5 404.1 418.3 419.9 422.5 421.9 419.2 414.2 410.4 408.4 403.3 396.7 388.8 383.2 378.8 375.1 370.3 366.6 361.9 355.3 339.7 331.6 316.3 299.4 306.7 328.7 348.6 362.6 371 378.4 385 393.3 399.4 403.5 407.6 412 417.5 422.1 429.3 436 444.1 445.8 446.4 445.7 444.3 442.8 440.8 437.9 436.4 434.6 432.8 430 426.9 424.5 422.6 421.3 419.4 418 415.9 413.2 408.2 396.5 394.9 396 396.8 395.4 391.1 388.5 384.2 380.8 377.4 373.5 370 366.3 361 356.2 352.5 347.2 345.9 343.2 340.4 336.3 334.6 332.2 328.4 323.8 321.6 320.6 320.8 322.6 323 324.2 325.3 328 328.8 329.3 326.3 326.7 326.8 330.1 331.2 329.6 327.6 324.9 322.8 320.9 319.3 318.8 317.9 317.6 314.9 318.5 318.6 316.7 314.1 310.3 306.8 304.8 303.2 301.8 299.6 296.8 291.6 283.4 277 261 246.7 239.8 237.6 233.5 232.3 230.1 230.1 228.7 228.9 229 229.4 230.6 240.4 239.8 243.2 253 255.9 259.8 259.2 249.9 243 237.3 223.4 216.6 216.6 216.2 215.8 215.2 213.9 213 212.6 211.7 215.3 211.1 210.6 212.5 217.5 219.3 221.8 227.6 250.3 274.4 289.8 294.8 292.9 296 298.8 302.1 310.5 314.6 319 322.7 323.8 323.3 322.9 322.2 321.3 320.5 319.6 318.5
286.5 287.6 281.9 274.5 269.2 264.8 259.1 259.1 261.2 279.7 306.6 325.8 350.6 367.7 376.8 391.9 407.1 415 417.5 417.5 414.7 410.9 407.2 402.2 395.9 388.5 382.7 377 372.9 368.5 364.1 359.4 355.6 349.4 339.3 325.4 310 295.9 306.3 334.5 349.6 364.9 372.4 380 386.5 394.7 401.4 405.4 410.1 413.9 418.7 423.9 431.7 442.7 445.5 446.3 446.5 446.7 445.6 443.9 442.1 440.1 437.3 435.3 433 430.7 429 426.4 424.2 422.6 420.7 419.1 417.2 414.7 411.6 409.7 407.7 406.2 406.5 405.3 400.3 395 389.9 385.7 381.5 376.3 371.6 368.9 364.9 360.2 355.5 352.9 349.7 346.3 346.6 345.2 341.3 338.1 334.5 331.5 327.4 323.3 318.9 316.4 317.9 319.8 321.3 321.8 322.1 322.8 322.8 325.3 323.4 327.8 328.9 327.5 326.2 323.2 320.1 317.6 316 316.1 315.7 314.6 313.4 316.9 316.9 314.6 311.7 308.4 305.1 302.8 301.1 298.4 295.4 290.6 285.3 275.6 253 238.7 235.4 242 244.8 248.1 246.9 245.5 242.7 239.6 233.3 228.7 224.5 226.4 225.8 224.6 225 221.2 224.3 228.3 231.3 223.8 218.9 218 221.1 223.9 223 224.1 224.6 224.4 226.5 231.2 232.3 231.5 225.7 217.4 213.1 208.4 213.4 215.4 215.1 215.9 238.8 263 279.8 287.9 284.3 291 294.3 298.9 306.4 314.5 319.2 321.3 322.1 321.7 321.5 320.9 319.9 319 318.1 317
287.8 282.2 281.8 277.3 270.7 265 257.3 258.5 260.7 274.9 299.3 321.2 351.4 366.9 374.6 382.2 397.2 405.5 413.6 413.6 411.8 408.6 402.3 394.6 388.2 382.4 376.1 370.8 366.7 362.9 358.9 354 348 341.2 330.5 307.2 305 292.8 309.8 338 354.1 364.6 375.4 382.2 388.8 396.4 403.1 407.9 412.1 415.9 420.5 425.6 434.2 445.5 446.7 447.3 447.9 447.5 447.1 445.9 443.8 441.8 440.6 438.8 436.6 434.2 431.4 428.5 426.3 424 422.2 420.7 418.7 416.4 414.2 412.5 411.4 409.8 408.6 407.4 403.3 398.1 392.7 388.3 382.2 377.7 373.4 370.1 366.5 363.1 357.4 357 353 349.8 350.7 349.2 345.6 342.4 338.8 335.5 332.6 328.9 325.4 321.7 317.6 312.3 314.9 317.9 318.3 313.1 318.6 319.3 320.5 326.7 326.6 327.2 325 321.2 318.7 315.9 312.9 312.8 312.6 310.7 309.4 309.8 310.9 311.7 309.2 306.5 303.6 301.3 298.8 294.4 290.2 285.1 275.5 247.5 239.7 248.4 260.4 267.9 271.7 269.4 263.6 259.6 256.9 254.1 249.7 244.9 242.8 238.8 236 231.6 225.6 224.4 223.1 221.7 220.6 220.3 219.4 225.2 232.8 240.5 243.9 244.9 248.1 249.6 252.1 258.4 256.3 245.9 242.3 233.1 221.6 215.3 208.4 208.6 208.5 213.2 230 253.2 266.2 269.7 268.7 278 289.5 295.3 303.9 312 317.5 319.9 320.6 320.5 320.3 319.7 318.6 317.7 316.8 315.9
291.6 284.6 275.9 276 272.4 265.6 262.1 257.6 257 267.6 288.9 309.2 342.5 360.4 369.4 378.8 388.8 396.8 406.7 413.1 408.5 399.7 393.2 387.5 381.9 376.5 371.3 364.5 361.1 357.7 354.3 349.3 342 334.5 320.2 300.3 297.7 294.7 311 334.1 354.9 361.1 371.3 384 391.2 397.2 404.9 409.7 413.5 417.2 422.5 428.2 441.8 446.2 447.4 448.3 449 448.8 448.6 448.1 446.6 445.3 444.2 442.2 439.9 437.2 433.8 430.9 428 425.6 424.2 421.9 420.1 418.1 416.2 414.9 413.1 410.9 408.4 405.7 401.9 397.7 392.8 388.2 384.4 381.3 378 373.2 369.4 366.1 362.9 360.1 356.9 355 355.4 353 348.9 345.9 342.7 339.4 336.1 331.7 327.9 324.9 322 319.8 309.9 307.3 308 307 310.9 313.1 314.8 315.5 315.7 315.8 311.6 314.2 314.6 313.1 308.8 308.2 307 305.7 305.3 304.9 304.2 303.1 301.8 300.7 299 297.4 294.6 290.8 286.7 272.4 251.1 242.7 268.6 275.4 280.3 283.6 285.3 284.1 278.7 276.4 272.3 268.4 264 259.9 256.4 252.2 250 246.9 245.1 244.1 242.3 238.3 243.7 242.8 246.9 251.4 253.8 257 264.4 267.8 270.6 276.3 281.7 283.4 274.9 262.4 251.3 239.9 228.8 220.6 213.9 209.3 208.3 209.2 226.1 248.9 250.7 248.4 252.2 267.5 283.8 291.9 301 310.8 316.2 318.6 319.1 319.2 319.1 318.6 317.4 316.4 315.6 314.9
294.8 288.2 280.3 273.4 266.2 265.1 262.8 254.5 257 260.5 281.8 307.1 323.9 354.8 364.7 371.1 379.2 387.2 397.5 401.5 397.9 390.8 385.6 381.6 376.8 372.3 367.5 361.9 356.7 352.4 349.7 345.5 339.1 328.5 307.1 292.7 286 297.1 310.8 333.7 354.2 368.5 378.5 386.6 392.9 399.2 406.2 411.3 415.1 418.6 423.3 429.6 442.9 447 448.2 449.2 450.1 450.3 450.1 450.1 449.9 448.7 446.9 445.1 442.8 440.3 436.8 433.4 430.2 427.8 426.4 423.7 421.3 419.4 417.5 415.9 413.7 412.2 409 405.7 401.8 397.9 393.5 389.5 386.4 382.4 379.4 375.9 372.3 364 365.5 362.6 359.3 360 358.9 355.6 352.7 348.8 345.3 341.4 337 332.1 329 325.3 322.8 318.7 311.5 314.4 310.6 307.8 300.9 300.8 298.9 301.1 309.4 311.9 310.7 309.8 301.1 309.3 307.1 302.2 301.5 300.8 299.8 299.6 299.6 298.6 296 294.5 292.8 291.8 290.8 287.8 273.2 252.5 246.7 261 283.4 286.7 288 289.3 290.3 289.4 286.9 285.5 284.8 278 273.2 270.6 266.9 265.3 263.2 259.9 258.3 257.9 258.8 258.5 262.7 268 271.7 277.1 280.8 283.2 287 288.6 291.4 293.1 292.8 290.5 281 267.1 260.9 244.1 232.2 224.9 217.1 205.9 206.8 207.4 225.2 226.2 232.3 243 258.7 269.5 277 289.9 300.4 309.9 315.1 317.3 317.6 317.7 317.8 317.5 316.3 315.1 314.4 313.8
292.2 288.3 282.9 276.5 271.8 265.7 263 256.1 255.3 255.9 271.5 299.7 319.2 338.4 358.5 363.6 369.7 378 386.1 390.7 386.8 381.3 379.3 376.4 373.2 369.3 366.5 361.2 353.9 347.5 344.5 340.2 333.6 323.4 302.2 283.3 284 299.9 315.2 332.5 355.4 367.8 379.7 388.2 394.6 401 407.4 413 416.9 420.5 424.2 431.3 442.6 447.4 449 449.9 450.8 451.1 452 452.6 452.6 451.2 449.7 448.1 445.8 443.4 440.4 437.1 433.6 430 427.9 425.1 422.7 420.8 418.9 417.8 416.2 413.6 410.2 406.3 402.2 398.1 394.5 390.5 386.5 383.1 379.9 376.7 373.7 370.3 366.4 361.1 359 360.5 358.7 356.7 353.3 349.2 344.7 339.8 335.5 332 328.8 325 321.1 315.5 319.8 321.4 319 315.6 314.8 313.8 311.5 307.6 299.9 294.7 292.7 290.8 290.7 293.1 299.7 299.2 295.8 293 291 293 294.2 292.7 292.8 291 288.6 287.1 286.7 281.4 256.8 247.5 269.8 284.6 290.7 291.4 293.4 296.3 297.4 295.2 293.3 293.7 291.8 290 284.2 279.8 276.3 272.5 269 267.6 267.7 269.3 272.6 275.2 274 273.4 277.9 285.5 288.5 292.6 297.5 298.9 298.3 296.5 295.5 293.3 278.4 264 248.7 233.5 230 224 213.6 206 206.2 212.5 224.6 235.3 246.9 261.6 278.2 289.1 294.3 299.1 303.6 309.9 314.1 316 316.2 316.4 316.6 316.6 315.5 315.6 315.8 316.4
295.3 290 285.5 281.2 277.7 273.6 264.2 259.7 255.9 255.9 265.2 278.4 298.2 313.9 339.5 351.8 362.3 370.2 379.7 383.5 382.9 379.3 376.5 374.5 372.2 369.9 363.8 357.4 351 344.4 336.9 331.8 325.8 314.4 299.6 278.2 283.9 299.3 313.6 330.4 356.4 369.7 376.2 384.5 392.1 400.6 408.5 415.5 418.3 421.5 425.3 432.2 444.7 448 449.6 450.6 451.9 453.4 454.6 455.8 455.4 454.1 453.8 451.5 449.5 446.5 443.4 439.8 436.7 432.9 429.1 426.6 424.3 422.6 421.3 419.8 417.3 414.5 410.9 406.9 402.8 398.5 394.9 390.9 387.1 383.6 380.5 377.4 373.8 369.9 366.1 360.4 357.6 354.5 351.6 348.9 345.7 341.4 337.2 334.4 332.3 329.9 326 322.5 324.6 326.2 326.9 326 325.8 324.5 323.1 321.1 318.1 316.2 315 314.8 313.5 312.1 307.8 298.8 288.4 286 280.9 284.6 283.5 284.4 280.9 284.1 287.9 284.6 285 282.3 281.9 262 251.8 273.2 289.9 292.3 295.1 296.6 301.2 304.6 304.3 303.7 303.3 300.7 299.6 298.3 295.5 290.6 285.5 280 276.5 275 275.1 276.6 280.3 283.8 286.7 286.3 283.5 296.4 299.4 303.3 304.9 304.6 301.5 297.5 295 291.1 277.2 255.7 237 230.8 226.8 221.8 214.6 205.2 212.2 229 234.2 243.2 261.1 278.4 286.7 294 300 305 310.1 313.2 315.2 315.7 315.8 315.8 315.8 315.7 316.4 317.7 318.9 321
295.7 290.6 285.9 281.8 280.7 277 269.8 262.9 254.5 254.8 258.4 274.1 287.5 303.3 316.3 329.1 343.6 360.8 371.1 376.2 377 372.8 370.4 368.7 363.8 358.5 354.3 347.1 342.1 335 328.8 321 316.4 307.3 295 274.7 282.5 303.9 315.7 332.3 356.1 370.3 380.7 387.2 395.2 401.9 409.8 416.3 420.1 424.2 426.4 431.1 443 448 450.5 452.3 454.4 456.3 457.7 458.5 458.2 458.8 458.2 456.4 454.2 451.6 447.2 443.1 438.9 434.7 431.4 428.9 427.6 424.8 423 420.5 418 415 411.3 407.5 403.2 398.9 395.1 391.2 387.5 384 380.6 375.9 372 368.7 369 367.2 361.6 359.3 358.3 354 349.3 345.1 341.5 336.4 330.9 332.6 333 335.2 336.1 331.2 331.9 330.8 331.4 330.7 328.9 326.3 323.7 321.9 320.6 319.6 319.6 318.6 315.9 313.4 310.7 306.7 302.7 298.3 295.5 292.3 290.2 283.3 267.7 263.2 259.1 254.9 255.1 257.9 276.3 293.1 296.2 298.4 299.6 304.7 308.9 309.9 310.2 310.6 311.2 311.4 309.7 306.7 302.9 300.6 295.4 291.3 286.3 283.2 283.5 283.2 284.2 288.8 293 297.6 301.5 305.7 307.5 310.4 310.6 306.3 301.9 295.7 291.5 289.5 270.9 243.9 230.5 226.5 223.7 221.2 216.7 204.4 216.1 228.9 240.5 251 265.2 279.3 288.1 295.8 302.2 308.1 312.5 315.2 315.8 316.1 316.1 316.3 316.6 317.2 318.3 320.2 323.3 326.6
296 290.1 286.5 282 278 276.2 272.8 267.1 262.2 251.5 254.9 261.3 280.8 291.5 306 312.9 322.8 340.9 353.9 362.5 365.2 362.9 356 350.1 345.3 341.4 338.8 335.6 330.5 325.6 319.9 312.6 308.3 297.7 279.6 271 285.7 301.3 312.4 328.7 350.5 360.6 374.7 383.4 390.3 398.8 406 417 422.9 425.8 428.2 431.2 437 445.4 450.1 453.1 456.5 457.4 459.7 461 461.3 461.9 461.1 459.8 458 455.4 450.9 446.2 440.6 436.2 434 432.7 430.7 426.9 423.7 420.9 417.7 414.7 411 407 403.2 398.9 395 391 384.6 382.4 381.3 378.9 375.9 372.9 370.3 367.7 364.7 360.6 357.3 353.4 349.2 346 338.6 338 339.5 341 340.8 338.3 337.1 335.5 335.5 335.1 335 334.5 333.8 332.4 330.3 328 325.9 324.3 322.6 321.1 319.1 316.6 314 311.1 307.3 300.8 296.3 292.7 290.2 288.3 284.1 277.5 279.2 266 275 280.7 295.3 299.3 302.4 304.3 306.9 311.4 313.3 314 317 318.1 318.3 318 316.6 314.6 312.4 309.3 306 301.8 300.5 299.9 297.1 293.4 293.1 297.2 301.2 304.4 308.4 313.3 315.8 315.1 311.3 304.7 299.6 292.4 286.7 278.8 253.9 230.4 225.2 222 221.4 220.2 209.6 205.2 219.2 235.4 251.2 262.6 271.5 280 287.7 295.2 301.8 307.4 312 314.5 316.1 316.6 317.3 317.2 317.8 319 320.4 323 326.7 328.9
299.1 292.4 288.9 285.1 283.3 277.4 272.3 266.8 263 258.8 253 254.4 269.8 280.1 298.9 308.9 313.9 321 331.5 339.3 342.2 342.3 337.8 334.6 332.1 331.1 329.2 327.2 323.3 317.6 313.1 309.3 299.9 285.8 275.5 275.3 285.8 294.7 304 315.8 336.4 347.8 354.5 363 366.8 377.5 398 408.5 422.7 426.1 428.6 432.3 436.3 440.9 445.6 450.8 452.3 455.5 458.5 460.7 462.6 463.7 463.7 462.7 461.2 458 453.2 448 442.7 439.4 437.8 436.1 433.5 428.8 424.3 420.7 416.9 413 409.1 405.8 401.1 394.3 390.1 387.4 387.7 386.3 384.1 380.9 377.3 374.1 370.8 367.7 363.7 358.7 355.4 351.2 347.5 348.8 352.6 352.4 350.8 350.4 350.5 349.4 344.4 340.4 339.8 338.4 338.4 338.1 337.2 335.9 335.2 333.5 331 329.1 326.7 324 321.3 318.8 315.9 312.4 308.7 304.1 298.5 294.6 291.8 285.7 278.5 281.6 277.5 281.8 289.2 295.5 299.7 303.8 307.3 310.4 314.1 316 316.9 319.6 321.5 322.1 323.2 323.3 323.3 322.1 320.5 317.1 315.7 311.6 311 312.6 314.5 314.3 312 312.3 313.9 315 317.7 321.1 321.9 316.2 309.4 303.5 297.8 287 271.3 251.6 232.8 224.2 220.9 218.9 219.6 219.3 205.9 213 223.1 242.2 259.4 269 277 284 291.9 300.6 305.6 309.6 312 315.4 317.1 317.9 319.5 320 320 321.2 322.7 325.8 328.2 329.1
302.7 295.5 290.9 289 285.3 282.1 277.5 269 264.4 260.2 254.5 253 253.7 265.3 280.7 290.3 300.5 309.9 316.2 323.2 329.3 329.8 327.8 326.3 324.6 323.5 321.4 320.3 317.9 313.6 309.1 305.6 293.4 284.9 272.7 271.4 286.9 296.1 308.7 315.8 323.9 331.7 341.5 349.5 353 373.2 378.3 390.3 416.2 432.5 435.3 436.4 437.2 440.1 442.9 447.9 449.3 451.1 455.3 458.6 461.2 463.9 465.3 464.5 462.5 459.4 453.8 449.5 445.5 442.8 439.9 437.5 433.1 428 423.7 416.1 413 408.5 403.3 399.8 396.7 395 393.9 392.8 389.9 388.5 385 383 378.6 374.6 370.6 367 363.5 360.3 357.6 353.3 356.3 361.2 363.5 363.4 362.5 361.5 359 356.7 351.1 346.5 346 343.7 342.3 343.3 341.4 340 339.2 337.6 335.1 333.5 330.2 327 323.7 319.8 317.7 315.2 310.7 307.1 302.8 299.2 294.9 287.7 289.8 285.7 289.5 291.1 294.9 298.4 302.9 308.7 312.8 317.8 318.6 319.4 321.5 323.8 324.9 326.1 327.9 328.1 328.3 328.4 328 325.2 323.1 321.2 320.3 321.1 322.6 324 327.7 327.2 329.2 330.4 332.6 333.6 330.6 318.1 308.7 303.7 297.7 277.9 255.6 236.2 225.6 221 218 215.8 216.5 214.6 200.8 221 234.2 249.7 263.5 273.1 282 292.9 303.2 313.1 316.7 318.6 319.2 321.4 323.8 323.8 324.7 326.1 324.4 325 326.4 328.6 328.1 327.1
309.9 307.9 295.7 291.1 289.2 286.8 281.9 273.7 266 262.1 258.9 252.2 252.7 252.6 259.2 272.1 282.1 293.3 303.9 312.8 319.4 320.9 321 320.7 319.5 318.4 317 315.5 313.3 309.5 305.5 301.6 293.8 279.6 271.5 269.1 284.1 295.2 301.1 307.1 313.5 322.2 328 342.5 347.5 357.6 381.4 386.2 403.1 421 435 436.2 435.5 436.2 439 442.6 444.3 448.1 451.7 455.2 459.6 462 464.9 465 463.6 458.3 454.5 450.7 447.4 443.1 439.3 434.9 430.7 425.5 419.2 416.8 415.5 410.5 407.1 401.9 400.3 398 396.5 394.2 391.4 388.5 387.3 384.5 379.1 375.3 370.9 368 366.1 361 361.1 363.1 362.1 366.7 369 370.6 370.5 369.9 368 363.8 358.8 354 351.1 349.7 346.5 346.1 344.7 343.4 342.4 340.6 337.9 334.9 331.7 328.4 325 322.1 319 315.8 311.8 307.9 304.4 301 296 294.4 291.1 292.7 295.4 297.3 299.4 302.3 307.7 314.7 319.1 320.5 321.4 322.5 324.5 326.2 327 329.7 330.9 331.7 332.7 333 332.1 330.8 329.5 328.4 327.8 328.7 331.3 337.7 342.4 344.7 344.1 343.2 342.5 341.1 338 325.2 309.4 303.8 297.2 265.9 248.9 228.7 223.4 218.7 215.4 213.5 210.9 203.4 212 227.7 244 259.9 273.3 281.4 292.3 305.5 318.8 322.6 324.3 325.7 326.1 327.3 329 329.4 330.3 332.2 332.3 331 330.2 329 327.1 325.2
310.3 306.9 298.4 293.9 292 289.2 285.9 279.6 270.9 265.3 260.9 248.9 252.3 251.5 251.7 252.4 262.1 274.4 288.4 301 309.8 314.3 315.4 315.6 315.6 314.9 313.9 311.4 308.5 304.4 299.9 295.7 288.7 276.8 258.1 268.1 279 284.8 289.5 293.8 300.2 307.6 316.1 320.1 329.4 341.8 352.6 375.6 382.9 384.5 401.1 419.3 427.7 430.1 432.1 438.6 441.8 445.2 448.5 452.3 456.2 460.2 463.2 465.3 463.7 459.8 455.8 450.8 445.4 441.3 436.6 432.2 427.1 423.7 423.7 420.4 413.2 413.1 410.5 407.1 404.1 400.9 398.2 395.3 393.4 390.9 387.6 383.6 383.4 375.8 376.5 373.4 368.9 368.1 370.2 369 370.3 372.8 375.5 377 376.8 374.7 373 368 364.6 359.3 360.2 358.1 355.1 350.8 348.8 347.5 345.3 343.6 340 336.1 332.9 329.6 325.6 321.9 318.4 314.4 310 305.9 302.9 299.7 294.7 294.7 297.7 299.3 299.5 301.9 303.3 306.4 313.4 318.9 320.8 322.3 323.8 325.1 326.8 328.5 329.6 331.1 332.5 334 335.3 336 336.2 336.1 334.8 334.4 335.3 338.2 343.1 345.2 348.2 349.1 349.7 347.4 345.3 342.6 339 330.3 313.8 303.2 285.6 257.3 242.4 224.5 221.1 216.9 213.8 211.8 205 200.5 217 230 249.3 269.3 290 296.1 307.8 320.6 323.2 323.4 324.3 326.5 328.7 330 331.5 332 331.5 332.7 333.1 332 330.4 328.3 326.5 324.3
317.5 311.7 303.3 297.9 294.4 291 287.5 282.5 277.5 270.7 265.5 261.5 249.1 251 251.1 250.7 250.5 258 270 283.4 293.7 302.5 307.3 309.1 310 309.3 307.7 304.4 301.7 299.1 295.1 290.7 284.8 271.5 255.2 261.3 270.5 273.1 276.8 279.5 285 290.8 298.6 308.5 317.8 325.4 330.9 346.6 361.6 373.6 379.4 383.3 401.5 410.2 424.7 433.1 439.2 443.9 447.1 450.3 453.8 457.1 461.2 463.6 462.9 458.9 454.8 451 444.8 440.6 438.3 434.4 430.9 430.3 426.9 420.2 419.5 417.3 415 411.3 407.3 403.8 400.9 397.9 395.1 392.3 388.4 385.8 384.5 377.6 378.2 377.6 378.6 377.4 377.9 377.6 377.8 380.8 382.5 383.1 383.1 376.8 378 376.3 372.3 370.2 364.6 364.2 359 356.1 353 349.9 347.2 345 341.4 337.2 333.4 329.4 325.8 321.7 317.4 312.9 307.8 303.3 299.6 296.5 292.7 299.5 302 303 306.3 308.8 310.9 312.4 319 321.4 322.8 325 326.6 327.8 329.2 330.7 331.8 333.1 334.5 337.8 338.2 339.8 340.5 341.7 344.5 346 348.9 351.6 353.5 354.2 355.2 354.7 353.2 350 346.1 342.7 338.5 331.8 315.7 300.4 273.5 247.4 232.3 221.6 219.2 215.9 213.2 210.2 200.5 203.5 217.2 229.3 248.9 269.1 286.5 295.6 309.5 320.1 321.3 323.5 325.3 327.4 328.8 329.8 331.7 333.3 332.6 332.6 331.9 331.1 330 327.8 326.1 323.5
320.8 315.5 309.6 303.4 298.5 293.8 289.7 285.6 281.2 277 272.1 267 261.7 257.8 247.4 248.4 249 249.2 249.7 261.7 276.4 285.7 291.9 297.1 302.5 300.1 299.1 297.1 294.5 293 289.1 284.8 279.1 267.7 252.8 252.9 255.3 262.9 265.8 268.2 272.2 282.6 288.3 291.4 302.6 309.8 319.2 325.4 338.6 344.2 359.1 369.3 375.4 384.5 411.1 424.3 433 440.7 445.4 449.8 452.6 455.4 459.1 461.4 464.2 461.9 454.9 451.4 447.1 445.6 441.7 439.1 436.1 432.5 429.1 426.2 423.6 423.5 420.1 415.5 413.2 408.4 405.1 399.9 396.9 393.3 390.8 386.9 384.9 383 383.4 386.1 386.9 386.3 387.8 388.6 387.8 390 389.2 387.7 388.8 386.8 384.9 378.9 374.9 378.2 378 374.8 370.1 363.8 360.4 355.9 350.8 346.7 342.1 338.7 334.5 330.2 326.2 322.8 319.4 315.1 309 304.4 300.7 295.1 297.7 303.4 306.1 309.2 315.4 318.9 319.1 320.5 322.7 324.6 325.8 327.8 329.7 330.9 331.9 332.9 335.3 336.1 338.7 342.2 345.5 347.8 350 351.5 353.1 354.8 355.8 357.6 358.5 358.8 358.2 356.4 354.1 351.2 347.3 343.7 338.7 331.8 315.3 299.2 266.2 239.2 224 223.7 218.8 215.4 212.3 204.4 200.3 202.3 215.5 226.2 246.3 261.4 279.7 290 295.6 301.8 315.4 321.2 324.5 328 329 330.3 332.1 333.5 333.7 332.6 331.5 330.4 329.4 328.6 325.1 322.7
323.5 319.2 315.3 308.7 302.7 297.6 293.3 289.9 287.9 284.6 281.9 275.8 268.5 262.2 259 255.4 249.2 246 248.6 247.5 249.7 266.1 276.1 282.1 286.7 288.8 289.2 289.2 286.2 284.6 281.5 276.9 270.2 260.3 250.9 250.5 250.4 253.3 257.3 256.3 259.2 269.8 272.9 276.1 287.3 293.5 299.4 307.3 318.4 319.2 334.8 346.7 360.9 374.9 387.1 409.3 417.4 433.8 440.2 445 451.6 454.8 457.1 460 463.5 462.3 459.6 458 455.4 451.4 446.7 443 439.2 435.2 431.2 430.1 429.6 427.8 425.2 420.1 413.9 410.2 407.6 404.3 400.8 396.1 393.7 391.2 388.1 388.5 389.9 391.4 391.9 392.2 393.9 394.1 395.7 396.3 397.3 397.9 397.2 396.2 393.7 391.2 389.2 386.4 383 379.6 375.6 371.4 366.5 361.6 357.1 350.5 344.4 339.6 335.4 331.4 327.4 323.2 318.4 313.5 307.7 302.5 299.6 296.1 302.3 307 310.7 318.8 326.7 325.8 325.8 326.9 327.2 330.1 332.3 334.2 336.4 336.6 337.9 338.8 339.3 340.6 343.7 347.4 350.8 353.4 355.5 357 357.9 358.8 360.2 361 361.6 361.3 359.6 357.4 354.9 351.8 348.6 345.4 339.4 332.9 312.6 296.8 263 235.7 226.5 225.5 219.5 216.5 213 209.2 199.1 200 211.2 219.1 235.5 251.1 264.4 278.6 287.2 290.4 298.2 300.9 306 308.9 322.8 326.7 329.4 330.4 331.9 331.3 330.2 328.7 327.1 326.9 324 320.8
326.5 323.4 319.6 315.7 309.7 303.2 298.9 296.5 295.1 292.3 288.6 283 276.6 268.7 263.1 262.2 263.5 264.4 259.3 246.7 246.5 246.6 250.4 261.6 271.6 276.1 278.4 278.5 276.9 274.8 271.6 265 258.1 252.8 246.7 246.5 248.3 246 247.5 247.7 251.9 261.7 261.7 257 266 274 282.7 290.6 297 304.4 309.6 323.6 338.2 360.6 373.8 384.1 391.7 410.4 424.2 439.8 448.7 453.3 455.6 458 462.7 465.1 465.7 464.4 461 456 450.9 445.7 443.2 438.4 435 433.3 433.4 431.3 427.4 422.9 417.7 413.1 409.4 407.3 403.6 399.8 396.3 393 392.3 393.2 394.9 396.6 396.6 396.9 396.6 398.6 399.7 403.2 403.7 403.6 402.2 401.4 398.7 395.9 393.4 390.4 386.4 383.4 379.3 376.1 372.6 368.5 362.6 354.3 347.1 342.1 337.7 331.8 327.7 322.8 317.6 312.6 307.1 303.2 299.7 299 305.1 308.4 312.1 321.3 328.2 328.5 328.9 330.8 332 333.7 337 338.6 340.1 341.1 341.7 342.3 343.3 344.5 346.4 350.8 354.3 357.2 358.7 359.7 359.7 360.8 361.2 361.7 362.2 362.2 360.6 358.3 355.6 352.8 349.4 346.3 342.3 332 314.7 294.8 264.2 238.8 226.2 220.2 215.9 214.9 214.8 209.2 202.5 198.5 204.4 215.3 225 238.7 250.4 262.8 275.3 280.8 284.8 288.6 288.9 289.1 293.6 299.9 309 324.7 325.6 325.9 325.4 323.7 322.3 322.1 321.6 320.4
330.3 327 323.9 320.5 316.7 311.8 306.7 304.3 303.1 299.8 294.4 288.5 282.8 275.3 268.4 266.9 267.1 266.1 265.4 262.4 250.9 248.5 243.4 245.1 245.8 257.5 264.8 268 264.8 260.5 254.4 251.1 244.8 243.2 242.1 243.1 241.9 240.8 238.3 240.1 245.1 247.7 247.5 250 253.3 258.9 265.5 273.6 281.3 289.2 301.4 307.6 323.8 337.8 354.2 370.5 382.1 385 397.2 424.5 438.4 447.9 454 457.7 462.7 465.5 467.4 467.8 465 458.8 454.5 450.4 449.1 445.6 441.2 439.8 436.6 431.2 424.5 421.9 419.9 417.1 413.2 409.5 405.7 401.8 399.5 398.7 397 397.4 398.9 399.9 401.4 402.2 403.7 404.4 406.2 407.6 408.2 407.5 406.8 404.4 402 399.7 397 393.6 389.7 386.7 384 380.5 377.5 374 367.9 358.8 351.4 343.8 338.7 333.2 327.5 322.2 317.5 313.5 309 305.9 302.2 302 303.8 307.7 311.6 320.2 327.9 329 330.6 332.4 334.5 336.7 340.2 342.4 343.6 343.5 344.4 345.2 346.2 347.5 348.6 352 356 358.6 359.4 360.3 360.2 360.2 360.6 360.4 360.8 360.6 359.2 357.2 354.6 352 349.1 346.3 342.6 334.9 320.1 291.1 272.9 242.5 222 214.8 211.5 210.7 215.4 209.6 208.7 197 197.6 205.8 215.9 227.1 230.5 242.7 249.5 260.1 266.3 277.4 281 285.3 281.7 282.1 284.3 293.7 319.2 319.7 319.9 319.9 319.9 319.5 318.1 316.6
334.3 330.7 327.3 323.6 321 317.5 313.9 310.7 306.8 301.3 295.2 290.2 285.6 279.8 274.2 269.5 267 265.2 263.4 256.3 260 258.5 251.1 245.3 243.1 244.5 243.8 243.3 244.2 243.5 243 240.5 240 240.1 239 240.4 239.6 238.8 237.8 237.4 237.1 236.4 235.9 236.8 239.1 244.2 253.7 264.4 270.9 278 281.8 296.4 305.9 321.9 338.7 349.4 367.5 380.7 383.4 404.1 426.5 443.6 454.2 460.6 464.1 466.2 468.1 468.9 466.5 462.1 458.5 458.7 455.6 453.4 450 446.5 441.6 437.6 431.2 426.5 424 419.8 415.6 411.1 407.1 404.8 403.7 401.8 400 400.4 401.9 402.8 404.1 406.7 408.8 409.1 410.9 411.8 411.8 411.2 409.5 407.2 404.9 402.5 400 397 393.4 391.1 388.4 385.2 381.8 377.8 372.6 363 356 349.5 342 335 329 323.3 318.5 315 311.4 308.8 306.6 304.7 305.9 308.3 312.2 317.7 324.3 328.1 331.9 335.1 337 339.4 342.9 344.9 346.2 346.7 347.2 347.7 348.2 349.5 350.8 352.4 355.5 357.4 358 358.1 358.4 358.5 358.7 358.6 358.2 357.6 356.8 355.6 352.9 350.3 347.6 344.8 341.6 336.8 323.7 292.8 280.2 249.9 227.6 214.1 210.3 210.4 210.7 212 214.2 209 196.3 198.6 204.7 215.2 220.5 222.5 225.8 232.3 246.3 257.2 269.9 272.7 273.5 272.4 272.1 277.5 288.8 314.5 315.3 315.8 315.9 314.6 313.3 311.9
339.3 335.1 330.7 327.5 324.6 321.4 318.5 313.9 304.4 290.4 284.1 287.5 285.9 278.9 273.1 271.1 267 264 261 264.4 265.3 264.2 259.3 257.9 251.9 244.4 242.2 240.9 242.2 247.5 243.8 244.3 249.5 247.4 243.5 238.9 239 238.2 237.6 237.1 236.9 236.6 235 233.3 234 234.1 240.6 252.4 258.2 263.7 269.2 281.3 293.4 309.5 320.3 331.5 350.1 368.1 373.6 380.7 413.7 436.9 452.8 461.6 466 468.2 469.5 469.9 467.9 465 464.5 462.4 459.6 456.5 453 449.1 443.9 440.1 435 429 425.3 421.9 417.6 413.6 411.6 408.9 406.7 404.8 402.6 402.5 403.7 404.9 408.1 410.5 412.2 413.6 414.9 415.2 415 413.5 411.6 409.5 407.3 404.4 402.3 400.5 397.3 394.3 391.9 388.8 385.6 382.2 377.5 369.4 362.9 354 346.7 338.4 330.7 324.8 320 316.7 313.7 312.1 310.8 308.6 309.8 310.5 313.3 316.3 319.5 325.5 331.7 334.8 337.1 339.8 343.4 346.1 348.1 348.6 349.4 349.3 350.2 351.5 352.4 353.5 354.2 354.8 355.2 355.3 355.4 355.4 354.9 354.2 354.1 353.6 352.9 352.2 350.7 348.5 346.1 343.5 340.7 335.3 327.7 303.5 282.4 258.6 231.5 218.2 211.6 210.6 209.2 211.5 215.8 212.6 203.1 196 196.2 195.8 204.8 210.1 216.6 226.4 230.6 240.6 252.7 263.1 263 265.2 269.8 269.7 273.3 304.4 311.8 312 311.7 310.4 308.6 307.1
342.6 338.2 333.8 330.5 327.5 324 320.1 314.7 301.4 288.2 288.8 278.4 273.6 271.3 268.9 267.7 266.5 265.3 267.2 269.9 270.9 270 267.9 265.9 263.6 260.1 259.7 258.9 257.6 255 260.1 259.6 258.8 254.7 255.6 252.9 241.8 239 239.8 236.6 236.9 236.2 235.4 235.4 234.5 234 231.5 235.8 242.6 245.5 252.9 263.5 279.3 295.7 305.9 316.8 338.5 353.2 361.5 383.9 393 411.9 428.5 451.5 468.2 472.6 473.7 471.2 468.6 466.8 465.6 463.7 461.2 458.5 455 451.2 446.2 441.2 436 431.6 428 423.4 419.9 417.2 414.2 411.7 409.4 407.5 405.3 404.2 404.8 405.8 408.3 410.8 413.7 415.8 417.1 417.2 416.6 415.3 413.4 411.3 409.4 407.5 405 402.7 400.5 397.8 394.9 391.9 388.7 385.4 381.6 376 368.1 359.1 350.7 342.4 334 327.3 322.4 318.8 316.1 314.3 313.4 312 312.5 314.1 315.9 319.5 323.6 326.5 330 334.4 337.4 340.4 343.3 345.4 348 349.4 349.7 350.9 352 352.7 353.2 353.7 353.4 352.1 352.3 351.6 352 351.7 350.5 349 349.2 348.5 348.3 348 347.4 345.8 343.7 341.4 338.5 333 328.1 309.3 282.2 272.4 247.2 232.9 217.5 215.1 210.8 208.8 210.7 212.1 209.7 206.8 207.6 201.6 193.3 200.3 205.3 214.4 218.7 223 232.3 242.6 245.4 247 246 250.3 261.5 282.7 304.9 308 307.7 306.4 304.6 302.4
