ncols 200
nrows 86
xllcorner 320000
yllcorner 320450
cellsize 50
209.4 208.8 191.2 172.6 162.2 153.6 146.9 139.4 126.2 117.6 113.5 109.9 109.6 109.7 109.8 109.9 110.2 113.3 116.3 123.9 137.1 146 151.2 149.9 146.4 147 148.9 151.7 154.6 153.6 134.6 149.5 157.8 163.1 172.2 175 175 177.3 181.2 181 180.6 181.2 182.2 181.9 183 183.6 184 182.4 179.2 175.6 174.9 170.6 169.7 171.2 173.6 173.5 171.4 167.7 164.5 162.7 162.9 162.8 163.3 166.2 169 171.5 175.8 179.1 176.5 171.4 167.9 163.7 164.5 170.3 174.8 178.1 178.1 174.3 169.7 167.7 164.5 160.7 154.6 148.2 136.4 126.5 127.5 133.9 135.9 142.3 150.8 160.5 170.5 180.9 194.2 194.7 202.5 209.9 209.1 207.8 205.9 200.7 192.8 182.2 172.1 182.5 175.2 172.2 173.3 176 177.1 176.1 170.2 168.3 165.9 168.7 178.8 185.3 192.5 200.3 200.6 199.8 196.3 200.5 199.7 189.9 189 190.4 191.7 172.6 170 170.6 168.6 167.8 172.7 162.7 155.6 138.5 117.2 119.9 117.1 131.3 128.8 126.2 121.2 118.7 119.8 120.2 127.2 133.9 139.4 142.8 143.2 133.3 133.6 128.9 131.3 130.8 128.6 128.5 128.3 127.8 127.2 126.5 122.7 119.1 116 111.8 107.6 100.3 92 88.1 88.8 89.2 89.5 88.8 87.4 88.3 89.3 90.3 89.7 86.4 84 84.4 85.1 86.7 87.4 86.8 86.2 85.9 85.8 84.3 83 80.7 81.1 81.1 80.6 80.2 80 79.4
217.3 219.4 209.7 188.4 173.8 167.7 158.4 144.6 130.5 121.5 115.5 110.7 110.1 109.1 109.1 109.2 109.3 111.4 114 116.7 123.8 133.1 141 141.4 135.7 141.9 144.4 147.7 151.1 152.4 131.3 149.4 155 167 176.2 176.1 174.7 175.3 177.5 176.6 175.2 175.1 175.9 177.2 177.9 178.6 179.3 177.9 174.7 168.4 169.3 164.9 165 167.3 169.8 169.7 168 165 162.7 162.1 161.4 161.8 161.5 163.5 166.4 169.5 174 177 176.2 171.1 166.1 161.3 161.3 167.1 172.5 178.3 182.2 179.6 175.8 174.1 174.2 170.6 162.2 154.5 141 128.3 125.1 124.5 127 129.2 134.8 145.3 156.2 165.6 175.9 182.6 182.3 186.5 189.6 190.7 191.8 189.2 183.4 173.1 166.7 169.9 161.5 161.5 162.4 162 162.8 161.5 161.1 158.9 158.4 171.9 183.1 189 198.3 204.7 206.8 208.2 211.4 200.3 189.9 189.1 190.5 197.7 185.5 169.5 154.2 151.1 150.2 150.4 159.7 145.6 131.8 115.4 102.9 109 106.7 111.9 113.2 118.9 117.6 116.5 116 117.1 124.4 132.3 137.5 140.4 140.6 138 135.4 132.4 131.3 129.8 127.4 127.2 127 126.5 124.6 121.1 115.1 111.8 108.8 106.1 102.7 95.5 88.3 88.5 89.3 89.8 90.2 90.4 89.9 89.2 91 92.6 88.3 85.4 84.1 84.8 85.7 87.4 86.7 86 85.9 86 84.9 83.2 82.6 82.1 81.1 81.3 80.8 80 78.6 77.6
220.3 222 220.4 207.8 185.9 180.6 165.6 149.1 134.8 126.9 119.2 112.4 109.4 109.3 109.2 108.8 108.9 110.7 113.4 115.2 116.4 120.7 125.8 126.4 132.8 136.7 139 142.4 146.1 149.8 133 145.6 159 173.5 178.7 179.2 173.7 171.4 168.9 169.5 170.4 170.1 170.2 170.5 172.2 173.1 171.7 170.8 169.5 162.9 161.1 160.5 161.9 164.6 166.7 165.6 164.5 163.2 163.1 162.4 163.4 163.7 163.7 160.5 163.3 165.8 168.9 171.9 172.4 170.2 165.3 160.2 158.1 163.1 168.8 175.5 180.8 182.1 179.8 178.1 179.5 176 167.3 158.2 148.4 140.4 128.7 125.9 123.1 121.6 122.1 128 138.5 152.7 160.4 165.6 169.7 169.8 171 173.1 177.6 176.3 171.3 163.1 158.4 151.4 151.9 154.5 155.5 154.6 155.6 155 152.4 151.1 156.8 174.1 183.7 192 201.9 208.7 212.9 212.5 203.4 192.8 191.1 194.7 197.5 199.8 177.8 164.6 148.5 145.2 144.1 141.6 136.5 133.1 112.8 97.7 94.9 98.8 106.6 111.2 108.2 115.1 113.5 113.7 113.3 116.5 121.2 127 133.3 136.7 136.1 136.9 135.8 132.8 130.1 128.6 126.3 124.5 124.8 123.9 119.7 113.6 107.5 104.8 103.1 101.8 97.4 91.7 87 86.6 89.7 90.3 89.5 89.3 90.1 91 93 91.3 87 85.5 85 85.4 86.4 87.1 86.3 85.6 85.6 84.7 83.6 82.7 82.6 82.1 81.7 81.2 80.7 79.8 78.7 77.4
222.9 223.3 223.3 220.6 204 189.8 175.2 158.1 146.3 133.1 125.9 116.6 109 108.4 108.4 108.4 108.5 109.3 111.8 113.2 114.5 116.5 119.6 123.7 128 130.9 133 136 139.2 140.1 130.9 142.5 160.6 173.4 178.7 179.9 174.2 170.1 166.6 163.3 165.8 165.3 164.9 163 164.4 164.6 163.9 163.6 163.6 161 156.4 157.4 159.9 164 167.6 165.8 164 163.4 163.6 164.9 166.3 168.3 166.4 163 159 161.4 164 165.7 167.2 167 164.1 158.7 155 158.9 164.5 170.3 175.9 178.8 179.6 180.4 181.5 177.2 170.8 162.7 154.2 146.2 137.8 139.4 140 138.6 126.8 120.5 122.8 134 142.8 150.2 152.7 154.5 156.7 157.1 158.4 158.2 154.1 152.2 148.3 145.2 148.4 149.7 150.1 149.4 149.7 147.6 145.7 148.3 160.8 173.2 182.6 191.8 204 211.6 212.5 204.6 195.8 195.1 199.2 205.4 206.3 191.9 176.9 160.3 143.4 145 142.7 131.7 120.5 109.9 100.3 94.3 94.3 96.8 107 111.3 111.9 112.6 111.1 111 111.7 115.5 121.4 125.6 129.8 131.2 132.1 133.5 132.9 131.4 128.3 124.8 119.6 120 119.3 117.5 111.7 105.7 102.4 100.9 99.3 97.2 92.3 88.4 85.4 88 89.9 90.2 87.4 89.6 92.4 93.4 95.2 90.2 86.7 85 85 84.9 85.7 86 85.8 85.6 84.9 84.6 83.1 82.3 81.4 81 80.5 80.8 80.8 79.9 78.5 77.7
220.1 220.3 221.2 226.5 215.3 202.2 195.1 182.4 163.8 142.3 130.7 122 115.1 108.4 108.7 107.9 107.9 108.5 110.5 111.6 114.4 115.2 117.8 121.1 124 126 128.2 129.9 132.1 133.4 127.3 132 154.2 164.3 166.3 172.4 171.6 167 162.9 158.2 161.5 162 159.8 156.7 155.6 155.6 156 157 158.4 157.2 152.5 151.4 154.2 161.4 164.2 163.3 165 165.5 167.3 168.1 169.6 170.8 170.4 166.5 161.7 157.2 159.1 160.5 161.7 162.7 161.4 157.3 153.6 154.8 158.6 164.3 170.6 175.5 178.2 179.6 180.5 178.2 174.3 168.8 160.7 151 146.7 141.9 140.9 141.1 139 128.5 119.2 119.3 122.4 127.3 130.5 137.9 141.6 146.4 147.7 146.6 146.8 144.2 143.4 142.1 144.3 146.3 145.1 145.4 144 141.5 141.7 150.7 161.3 173.6 184.7 199.9 209.6 210.3 205.2 199.6 198.4 201.5 210.8 214.6 206 184 168.3 157.7 142.9 139.6 140.5 136.8 117.2 106.6 98.2 94.9 96.9 98.8 117.9 114.1 116.2 112.2 111.3 109.3 112.3 117 120.1 123.5 124.9 126.4 126.3 126.2 125.6 125.9 126.6 120.8 115.6 113.4 113 108.8 104.7 101.1 99.5 98.4 96.7 95 90.9 86.5 84.8 84.8 88.8 90.5 87.4 90 93 95.9 93.5 88.4 86.2 85.9 85.7 85.7 85.3 85.9 86.4 86.4 85.4 84 82.5 81.9 81.1 80.1 80 80.5 80.7 80 78.5 78.6
212.1 213.9 214 219.1 218.9 208.5 206.3 198.4 181.8 160.1 142.4 129.2 119.2 109.6 107.5 107.4 108.9 111.8 113.7 115.6 114.6 114.8 115.8 118 121.2 122.5 124 122.2 121.3 120.3 116.9 123.8 141 152.3 153.6 152.9 151.6 152 148.1 151.2 159.9 159.7 154.6 149.7 147.8 147.3 146.6 148.4 150.3 149.9 146.8 147.1 148.8 154.6 160 161 167.3 172.1 172.8 173.4 174.1 174.8 173.7 170.9 165.1 157.2 154 155.3 155.7 156.8 158.5 157 154.6 152.8 156.5 162 167.5 171.9 174.4 175.5 177.7 179.7 177.2 171.3 163.9 155.9 148.5 142.8 140.4 139.1 138.1 136 132.1 123.8 118.2 117.2 117.5 122.1 137.4 137.9 139.3 140.4 140.6 139.7 131.1 138.8 141.9 141.5 139.2 139.4 138.4 133.1 142.9 149.6 159 171.6 188.3 203.4 207.6 205.6 201.3 200.7 205.4 210.2 216.7 212.2 201.9 180.5 168.7 152.3 139.2 138.4 140.4 140.2 120.7 111.1 99.9 106 113.4 108.5 117.6 117.4 117.4 112.2 109.1 105.2 107.4 109.3 110.4 114.8 116.2 117.2 116.9 118 117 116.8 118.6 117.7 110.5 107.4 106 102.3 100 98.7 97.4 96.9 95.8 93 87.9 85.6 84.8 84.8 85.2 86.6 89.7 92.5 94.6 95.8 91.2 87.3 87.1 86.7 86 85.2 84.6 85.1 85.6 85.4 84.4 83.3 81.9 81.4 80.8 80.9 81.2 80.9 79.6 78.4 78.5 78.7
199.2 202.5 205.7 211.1 215.9 210.6 202.5 199.3 192.1 177.9 157.3 147.6 133 113.2 108 106.5 106.4 109.6 115.4 115.2 114.7 115.2 115 115.4 117.1 119.1 119.9 119.8 118.1 118.2 117.7 119.3 129.7 136.3 143.8 146.7 144.6 141.1 134.6 144.3 155.1 159.2 154.8 147.2 143 140.6 140.6 140.1 141.6 141.8 143.5 142.7 144.5 149.3 155 160.1 164 171.1 173.7 178.6 179.7 182.6 182.1 176.6 168.1 157.6 150 150 149.7 151.6 155.2 156.8 154.3 151.7 154.6 160.5 165.6 168.8 171.7 173.8 177 179.3 178.3 172.9 166.5 159.9 151.4 144.8 141.8 139.5 138.2 134.8 132.9 127.1 127.4 123.8 117.8 117 124.1 132.5 132.7 131.8 126.9 126 131.6 134.2 136 136 134.6 133 130.3 130.9 139.7 147.4 158.2 172.2 186.9 200.5 206.1 204.4 204.5 206.8 212.7 217.2 204.9 192.9 185.5 174.9 159.8 146.5 140.3 138.1 136.7 136.9 130.2 122.5 116 118.1 120.7 121 118 117.8 114.2 106.6 102.6 102.6 100.8 100.5 99.8 99.5 100.1 100.2 103.2 111.3 111.1 113 110.3 108 105.7 103.3 101.5 100 98.9 98.2 97 96.3 94.8 90.8 86.3 84.8 84.8 84.8 85.1 88.9 91.8 95 97.6 93.7 88.3 86.9 86.1 85.3 84.6 84.3 84.1 84.3 84.8 84.7 83.1 82.7 82 82 81.4 80.7 80.6 80.5 79.1 78.7 79.7 79.1
189 192.3 196.2 200.9 207.7 213.7 207.5 195.7 191 186 174.1 159.7 146.1 128.4 110 107.5 106.6 105.5 107.3 109 112.1 114.2 114.3 114.6 114.9 115 115.3 117 115.3 114.7 116.2 117.5 119.5 123.3 129.1 131.5 132.2 131.5 125.1 134 147.8 152.6 153.2 146.6 139.7 136.3 139.2 137.9 136.6 136 138 138.6 141.9 144.9 151.3 156.2 158.1 161.6 168.9 179.7 187.5 191 189 182.7 171.4 158.8 151.6 149.1 148.7 146 149.7 152.7 152.2 146.4 153.9 157.4 161.2 163.4 167.5 171 171.5 173.2 176.2 174.4 170.3 165.3 158.2 153.6 145.2 140.7 139.9 137 134.9 134.9 133.8 131 122.7 116.7 115.5 121.7 124.1 119.5 116.9 120.8 126.3 130.6 130.8 131.5 130.1 128.5 125 125.9 135.8 144.4 155.3 170.8 185.3 196.9 204.4 206 209.2 211.8 218 219.1 194.5 191.6 181.5 168.2 155.6 138.3 135.4 135.1 134.2 134.6 133.7 119.8 123 122.9 116.4 116.1 112.4 109 103.9 100.3 100.3 100.7 100.8 101.6 99.1 98.2 98.3 96.8 96.7 96.4 101 103.6 104.3 103.1 100.6 99.1 98.3 98.7 97.8 97.2 96.6 95.7 93.8 89.5 85.6 84.3 84.8 84.8 87 92 94.5 96.8 96.3 90.3 87 86 85.7 85.4 85 84.7 84.4 84.3 84.1 84.9 84.3 83.6 82.7 82.4 80.7 80.9 81.6 81.1 80.5 80.1 79 78.4
180.5 184.4 188.6 193.1 199.9 208 206.2 196.8 182.9 182.5 178.2 171.6 155.3 140.4 123.9 111.8 106.7 105.8 104.5 105 105.3 109.4 111.8 112.5 112.7 112.1 112.2 113.5 112.3 112 112.9 114.4 113.8 114.4 115.8 118.4 119.5 117.7 117.4 119.5 122.9 124.4 126.4 128.7 130.1 125.8 138.2 141.4 141 138.8 133.5 133.8 136.2 138.6 144.1 150.2 152.3 153.8 157.7 164.2 180.5 186.8 186.4 178 169.3 159.1 154.8 150.9 146.6 140.9 143.1 146.3 148 142.3 148.6 151.2 153.7 156.1 159.2 162.1 166.2 169.3 170 170.7 172 169.3 164.2 158 152.7 145.8 141.6 140.2 138.7 137.8 136.7 134.5 130.2 118.3 116.9 115.7 115.5 114.5 114.2 113.6 114.4 115.9 123 127.7 123.9 122.9 122.7 120.5 132.8 138.8 147.9 159.2 173.5 188.6 202.1 205.9 210.2 214.2 224.8 213.7 204.2 196.6 181.8 166.3 152.4 135.3 131.7 133.6 131.6 132.8 125.3 121.5 125.9 122.8 120.5 113.3 109.5 107.4 100.3 100.3 104.2 102.1 103.7 103.8 102.6 101.3 100.4 99.1 97.3 96.5 96.9 98.4 97.6 97.1 96.5 96 96.8 96.3 96.8 96.3 95.7 94.9 91.1 86.7 85.5 84.8 84.8 85 89.3 94 96.4 97.4 92.9 87.9 86.9 86.4 86.1 85.7 85.4 85 84.8 84.8 85 83.9 83.9 82.9 82.8 81.7 81.5 81.5 81.8 81.4 80.9 80.5 78.3 77.6
170.1 175.2 180.7 185.4 189.9 193.3 192.2 182.5 171.9 168.8 171.4 173.3 156.3 143 135 131.6 116.1 110.5 106 105.1 104.8 104.5 106.9 108.2 107.6 107.2 108.1 109 109.7 110.4 111.4 112.8 111.9 111.1 110.1 111.5 111.8 111.2 111.1 111.2 112.7 112.3 111.6 114.1 114.9 118.5 126.4 135.1 137.6 137 126.9 123.4 130.6 130.6 132.8 139.1 144.7 143 146.5 150.5 155.8 163.9 165.3 160.9 156.4 158.6 161 156.8 147 141.5 136.6 140.6 141.8 140.2 144.4 145.7 147.8 150.1 152.8 156.5 162.3 166.4 166.9 166.6 169.1 170.3 168.4 163.7 157.4 152.3 147.7 145.8 143.2 141.1 140.3 137.8 135.4 133 130.5 124.8 121.1 118.3 121.6 120.5 115.2 112.7 111.6 123 111.1 117.6 116.6 117.9 125.4 131.9 138.1 147 160 171.6 184.4 203 210 215.5 224.4 208.1 195.6 194.5 181.9 162.5 144.8 139.4 130 124.3 123.3 130.7 125.3 130.6 126.1 124.4 118.9 112.3 112.5 107.8 104.6 105.2 101.8 105.5 106.4 105.3 104.5 103.6 102.7 101.8 100.5 99.9 98.4 97.5 94.6 94.2 94 93.7 93.9 94 94.8 94.3 93.5 93.9 91.2 86.7 85.9 85.2 85.2 88.9 93.3 96.1 97.9 94.4 88.7 87.7 87.2 86.7 86.4 86.1 85.8 85.4 85.1 85.1 83 81.1 81.7 81.3 82.5 80.8 81.7 81.7 81.6 81.1 80.7 80.4 78.8 77.9
162.2 167.2 171.8 176.1 179.8 182.3 181.4 173.1 166.4 157 155.3 154.3 149.6 140.4 137 140.1 125.7 116.2 111.9 104.7 103.4 104 103.8 104.3 104.6 104.4 105.4 106.8 107.8 108.9 110 111.1 110.2 109.4 108.7 108 107.5 107.5 107.5 106.5 105.4 103.7 102.6 105.5 107.7 107.4 112.8 119.3 125 127.4 118.6 118.8 120.7 122.1 125.6 128.3 131.7 134.3 137.2 140.8 138.3 141.3 146.5 147.4 149.3 156.6 157.1 154.5 146.8 139.8 137.9 132.1 127.4 138.9 139.8 140 142 145.5 149.3 153 159.3 162.6 163.9 164.9 165.6 166.4 165.9 164.9 160.8 156.6 154.5 153.2 149.3 148.1 145.3 143 141.1 139.2 136.6 131.7 124.1 128.7 128.9 127.7 123.5 119.1 115.1 113.9 111.1 110.5 110.6 109.6 114.2 123.7 130.2 135.7 151.3 164.5 179.3 195.9 208.1 221.1 222 198.5 194.8 193.9 188.5 165.7 138.6 134.9 126 123.3 123.3 123.3 130.2 130.8 126.3 124.5 120.1 110.3 113.3 109.9 105.4 101.2 105.6 109.3 108.9 108.5 106.6 105.8 104.9 103.7 102.5 101.6 100.8 99.6 97.2 96.3 94.6 92.4 91.9 91.3 90.2 89 88.3 91.6 88 87.6 86 86.3 86.5 92.9 95.5 97.9 96.3 91.5 87.7 87.7 87.6 87.1 86.7 86.5 86.2 85.7 85.4 83 79.3 78.3 79.1 80.9 82.3 81.1 81.4 80.8 81.3 80.9 80.5 80.4 79.7 78.4
155.7 160.9 165.6 171.2 175.2 178.6 172.8 169.9 167.6 159.1 146.9 144.6 144.1 139.5 130.4 127.1 124.8 117.3 113.1 105.4 104.1 103.8 103.5 103.4 103.3 103.5 103.8 105 106.6 107.7 108 106.1 106.5 106.9 106.8 106.3 105.6 105 104.6 103 100.5 95.8 95.7 95.2 96 98.3 98.8 100.3 104.8 110 111.2 109.4 113.6 115.9 115.6 117.5 120.1 122.4 126.9 129.8 126 128.1 133.9 139.2 148.4 153.9 152.5 149.1 142.8 136.5 135.9 136.9 129.5 133.1 130.5 138.6 141.5 143.3 146.4 150.8 156.6 159.2 160.8 162 162.7 163.1 164.2 164.1 162.9 161.3 159.4 158.2 156.5 154.7 152.2 150 145.9 142.7 138.6 136.2 127.3 132.5 131.9 129.8 124 123.3 123.3 118.3 118.6 121.3 115.9 108.3 107.5 108 113.1 127.8 139.3 156.4 170.7 187.6 201.6 218.1 205.2 196.7 200.6 194.4 185.2 163.4 139.8 136.1 134.5 123.9 123.3 129.5 130 132.2 134 120.7 103.8 99.7 99.7 106.2 102.8 105.1 109.5 116 118.6 114.3 112 110.1 107.1 105.9 103.9 103.5 102.8 100.9 100.7 100.1 99.8 95.9 94.7 93.9 91.2 88.7 89.4 88.6 87.9 86.2 85.4 86.5 88.4 91.9 96 98.1 92 88.7 86.5 86.5 86.5 86.5 86.9 86.6 86.2 84.7 81.6 78.9 77.5 78.1 80.4 80 81.5 81.6 80.6 80.2 80.4 80.7 80.5 80.3 79.7 78.7
147.2 150.3 156.4 164.3 170.4 171 169.8 168.2 164.8 157.1 145 137.8 135.7 138.3 133.7 125.9 120.3 116.3 113.4 107.7 103.9 103.6 102.9 102.6 102.4 102.6 102.9 103.2 104.8 106.4 105 103.7 107.7 105.4 104.8 104.6 103.9 103 100.6 98.1 95.6 95 94.8 94.4 94.6 95 93.3 93.6 93.8 94.6 97.9 104.4 108.8 110.2 109.8 107.5 108.8 110.5 115.1 117 117.2 122.2 125.6 133.9 143.1 147 146.5 142.4 136.1 130.9 131 131.8 127.8 124.5 135 139.8 142.8 140.7 143.7 148.4 153.1 155.7 156.6 157.7 159.1 160.7 161.9 162.8 162.5 161.6 161.3 160.5 159.5 158.2 155.9 153.5 150 147 142.5 136.3 137.7 137.1 136.1 135.3 134.5 133.7 132.4 128.4 126.8 124.2 124 120.8 115 109.2 106.8 118 132.5 143.1 158 174.5 189.9 206.8 198.8 198.5 206.2 191.5 192.2 155.9 148.7 147 141.7 142.8 130.3 129.8 129.3 128.7 134.6 127.2 112.6 110 105.9 103.6 103 108.7 117.2 125.6 125.8 125.2 123.4 121.1 112.7 109.8 108.1 107.5 106.6 104.8 104.3 102.4 100.5 98.7 97.2 95.7 92.3 90.6 90.4 88.4 86.8 85.8 85.6 86.4 90.2 89.7 90.7 91.6 88.4 86.2 85.4 85.2 85.2 85.1 86.5 86.1 85.1 83.9 80.5 78.7 77.9 78.8 80.7 80.6 81 80.8 80 79.5 79.5 80.3 80.4 80.3 79.7 78.5
142 139.7 139.9 149.9 157.4 165.4 166.2 167.2 167.3 161.7 151.6 138.1 131.9 132.7 135.8 133.1 123.7 118.1 117.2 114.4 106.3 103.3 102.2 101.9 101.7 101.7 102 102.2 102.7 104.4 105.8 106.8 109.4 111.8 109 104.2 101.6 100.4 97.6 96.4 96.1 95 94.7 94.1 94 93.5 93.2 93.3 93.3 93.4 93.8 96.7 101.7 103.4 101 99.9 100.5 102.3 105 108.6 111.2 113.9 116.1 124.6 136.2 140.5 139.7 134.7 129.7 126.2 125.4 124.4 120.4 125 134.7 138.7 140.3 138.8 140 143.4 147.9 150.7 152.1 153.3 154.9 156.5 159.1 160.5 162 161.2 161 160.4 159.5 158.2 157.5 156 152.3 147.9 143.4 141 144.4 144.3 143.7 144.2 142.1 139.8 137.5 134.2 131.1 127.6 126.5 123.4 119.5 116.4 105.1 114.3 127.4 135.2 146.4 159.7 173.3 185.4 196.5 205 202.4 185.4 180.3 153.8 156.4 150.3 149.9 147 152.1 133.7 129.3 131.1 126.1 116.4 110.9 106.4 101.7 102 107.9 119.1 116.8 133.6 132.5 128.3 126.9 126.8 124 119.2 113.2 110.7 111.9 110.7 109.1 103.2 99.9 97.5 96.4 96.1 94 92 90.4 88.4 86.7 85.6 85.9 86.3 89.7 89 88.4 86.8 86 84.9 84.7 84.7 84.4 84.5 85.1 85.4 84.2 82.5 79.1 79.3 79.3 79.5 79.2 80.1 79.4 79 79.8 79.2 79.4 79.7 80.1 78.5 77.9 78.5
134.5 128.9 124.8 130.7 139.2 149.3 155.7 161.1 164.2 162.8 156.5 140.7 131.9 129 133.6 132.8 129.2 120.5 114.5 115.7 111 108.6 104.3 104.4 102.8 100.8 101.4 101.9 102.5 105 105.5 104.3 104.1 105.7 105.9 105.2 102.2 99.5 96.4 95.3 95.6 94.9 94.1 91.7 92.2 92 92.4 92.3 90.2 89.5 92.6 92.5 92.9 92.9 93.1 93.3 93.9 95.6 97.1 100.5 103.5 103.9 107.8 114.5 120.9 125.1 125.6 124.8 122.5 121.4 119.9 117.5 116.4 126.9 131.9 135.4 136.4 136.4 136.5 137.6 141.1 145.5 148 148 149.3 152.9 156.2 157.8 159.3 157 157 156.5 156.3 155.5 155 154.2 152.9 150.1 146.5 147.4 149.7 150.1 149.8 148.5 147 143.6 138.4 135.9 135.4 133 128.6 124.8 119.2 113.6 103.6 109.9 123.9 126.6 137.9 145 155.2 168.2 172.4 184.2 192.6 181.3 177.7 156.7 151.7 150.8 157.4 145 143.7 148.4 133.3 125 117.6 110.8 104.4 100.9 100.9 105.8 119 131.1 122.6 138 137.3 133.9 133.2 133.3 132.8 130.7 124.2 121.6 117.5 116.9 111.7 103.9 99.2 97.5 95.8 95.9 94.9 93.9 91.2 88.9 86.8 85.8 88.9 88.4 89 88.3 87.6 86.4 84.7 84.1 84.1 84.3 84.5 84.5 84.4 84.1 83.8 80.4 78.3 78.7 78.9 78.8 79 77.3 77.3 78.5 79.4 77.9 78.1 78.8 77.8 76.1 75.7 77.2
122.8 120.8 116.2 118.5 127.4 136.9 140.8 146 149.1 148.9 147.2 142.4 131.1 122.4 125.4 128.7 127.2 123.6 115.9 111.6 109.5 109.4 109.2 108 104.3 100.6 100.2 100.5 101.3 104.3 103.7 104.1 104 104.9 103.2 101.9 102.8 100.8 95.6 94.9 94.6 92.8 93.1 94.1 93.2 92 91.5 93.8 93.2 92.6 93.6 91.5 92 91.9 91.6 91.4 91.2 91.7 90.6 91.3 91.7 95.4 101.1 106.7 110.7 115 116.2 117.9 115.4 115 115.6 115.2 116.3 122.7 127 130.3 132.3 134.1 134.3 133.9 136.4 141.9 144.3 144.8 144.9 149.7 153.3 154.6 155.7 153.2 152.5 152.5 152.9 151.9 152.1 152.3 151.2 149.9 147.5 149.7 151.6 151.9 152.2 150.7 148.4 145.9 142.8 140.9 139.1 137 132.8 126.4 120.2 111.9 103 104.2 117.3 122.1 128.1 134.9 140.7 148.2 155.2 167.2 179.3 175.1 172.2 153.2 147.9 146.6 160.7 145.8 139.1 144.1 129 121.4 111.9 100.3 98.9 99 102.3 117.1 129.3 134 136.1 139.2 139.7 141.4 141.5 142.6 142.4 141.8 138.8 136 122.4 121 113.4 103.6 100 97 95.5 95.8 97.2 97.5 92.3 87.8 86.2 84.5 85.4 88 88.1 87.6 86.9 86.2 83.9 84.1 84.3 84.5 84.6 84.4 84.3 83.9 81.8 78.9 77.7 77.7 78.7 78.8 76.2 75.3 76 77.1 77.1 76.4 76.5 77.3 77 76 74.1 73.9
108.6 110.1 107.7 108.9 112.2 123 130.2 133.7 138 138.4 136.3 131.4 122.7 117.9 119.6 127.3 130.4 125 123.3 123.2 114.7 110.9 110.5 108.5 107.8 105 101.2 99.9 99.9 102 103 103.6 104.4 103.8 103.8 102.2 100.8 98.4 95.6 94.6 91.2 94.1 94 94.6 95.2 95.2 93.5 94 94.9 95.2 94.9 93.3 92 91.6 91.4 91.1 90.6 91.6 91 91.2 89.6 91.1 92.1 97.1 105.6 110.5 113.1 113.8 113.1 112.3 112.4 112.6 114.5 118.1 121.7 124.4 126.5 128.6 129.7 129.2 134.2 138.4 140.9 140.9 142 145.2 148.8 151.4 153.5 152.8 152 152.3 152.3 152.2 151.4 150.6 150.7 150.8 151.6 152.1 152.5 152.7 152.7 150.8 148.4 147.6 144.8 142.6 139.2 136.2 132.9 127.3 121.5 114.6 103.5 102.9 109.3 115.7 119.8 125.4 128.5 134 137.7 143.7 158.3 159.8 157.2 166.7 146.8 145.7 145.5 146.9 134.1 126.5 119.4 106.8 98.5 97 96.1 99.1 113 127.3 135.5 141.5 139.3 145.4 147.5 148.8 152.2 150.7 152.3 150 146.1 136 127.9 119.2 108.4 104 100.4 96.3 96.4 99.6 100.8 96.7 89.6 86.2 85.5 85.7 86.7 87.7 87.2 87 86.2 85.9 84.7 84.8 84.9 84.9 84.4 84.2 84 83.3 80.6 78.4 77 77.7 79.3 78.4 75.9 75.2 75.4 75.7 76.1 75.4 75 76.3 75.5 74.6 73 73.5
100 100.1 100.6 101.7 107.4 114 118.4 123.6 127.7 129.4 128.2 124.8 118.4 112.3 111.3 115.7 121.7 126.2 124.8 123.5 127.6 126.2 116.7 110.9 108.5 107.3 104 99.4 100.1 99.2 100.4 103.4 106.3 108.9 111 108.6 104.8 98.3 95.4 91.9 94.3 96.7 98.5 96.8 96.6 96 94.9 93.7 92.2 92.8 94.3 93.3 92 91.7 91.1 90.7 90.7 91.4 92.3 93.8 95.9 88.7 90.4 90.5 93.7 104.8 108.7 110.6 112.6 112.7 110.8 111.2 111.5 114.4 117.4 119.9 121.6 123.7 125.6 125.9 129 133.9 137.8 139.6 138.9 144 147.7 150.3 152.1 151.6 151.2 151.9 152.7 152.9 152 150.5 150 150.1 150.6 151 150.6 150.4 149.4 147.2 145.2 144.5 143 140.6 138.2 136.9 132.1 126.7 121.4 113.5 104.2 102.1 104.8 109.4 115.1 118.1 121.5 123.9 126.6 129.2 134.5 136.1 137.3 141.2 142.6 144.9 142 128.6 115.5 106 97.5 96.1 96 94.9 97.3 107.8 126.7 134.6 143.7 152.7 150.8 152.9 157.7 159.3 160.2 159.6 156.8 153.4 141.8 134.3 124.9 112.6 107.5 102.9 98.5 97.1 98.2 102.2 97.7 92.2 85.7 84.4 83.9 83.1 85.7 87 87 86.4 86 85.6 85.5 85.6 85.7 85.4 84.6 83.8 83.5 81.6 78.1 77 77 78.1 78.1 76.4 75.4 75 75.1 75.5 76 76.7 74.8 74.2 75.4 74 73.2 73
99.8 99.4 100.3 99.4 99.3 103.1 110.3 113.9 117 118.7 120.1 119.7 117.3 111.6 107.6 109.8 112.6 119.9 122.6 120.2 121.8 125.1 126.3 115.2 110 107.7 106 101.6 100 97.6 98.9 99.9 107.5 111.9 116.9 114.6 104.6 98.4 94.8 94.7 97 100.5 102.7 101.8 101.2 98.1 96.1 94.6 93.9 94.5 94.3 93.9 91.7 91.9 90.7 90.4 90.9 92.7 96.5 97.3 96.3 95.2 89.5 90 91 97.6 104.8 110.5 115.2 117.8 116.4 114 110.5 110.5 112.8 115.1 117 118.7 121.6 120.1 120.7 130.3 135.9 137.7 136.3 138 140.6 142 145.6 147.5 145.7 146.4 149.3 149 148 146.6 144.9 144.4 145.1 146.6 145.7 145.3 145.4 143.4 141.9 140.6 138.2 134.5 133.9 136 131.8 127.9 120.7 114.9 107.8 101.5 101.9 104.4 109.7 112 115.4 116.1 117.9 118.8 119.3 122.2 124.5 124.8 126.7 121.9 114.8 107 98.5 95.2 95.5 95.6 95.9 97.5 100.5 116.1 134.4 143.2 153.2 156.9 158.1 161.5 166.5 169.1 168.6 163.6 157.5 152.5 146.3 132.4 119.9 112.3 106.8 102.2 99 98.4 100 100.3 94.7 89.9 84 83.5 83.9 83.6 85.3 86.9 86.6 86.3 86.6 86.7 87.2 88.3 88.5 86.3 85.3 84.2 83.1 80.3 77.1 77.7 77.3 77.8 78.1 76.8 75.3 74.5 74.5 74.6 74.9 75.5 74.6 75.4 75.3 74.4 74.9 76.1
99.6 99.2 99.7 99.5 99.2 99.4 106.1 106.5 106.1 106.1 107.9 109.2 110.1 108.5 103.5 105.1 107.8 110.2 111.2 112.6 112.5 113 113.3 112.4 110.4 107.8 107.4 103.5 99.6 98.4 97.6 98.8 105.6 112.5 116.6 112 104 96.5 93.9 98.1 103.8 105.9 107 106.9 107.2 106.9 105.5 99.9 96.7 94.8 94.4 94.4 94.4 95.7 97.5 94 93.4 99 97.9 97.6 96.3 95.2 94.3 90.8 89.7 91.7 103.9 109.5 114.6 120.8 121.1 118.8 114.5 107.7 109 110 113 113.1 113.1 112.5 117.5 125.7 130.9 134.7 136.7 130 135.6 135.8 136.4 139.7 139.6 141 144.2 143.1 142.6 140.9 137.7 138.2 139.2 140.4 140.5 140.8 141 139.4 136.3 135 132.2 128.9 128.3 125.5 122.6 119.9 115.3 113.4 107.7 100.1 101 102.3 103.9 105.5 109.1 111.3 111 112.7 113.6 112.1 112 110.4 105.8 100.9 99 97 95.7 94.8 95.3 95.7 97 97.9 109.5 126.5 141.8 152.8 159.1 163.9 164.5 162.4 168.4 171.3 169.6 164.1 157.3 150 142.1 126.4 117.2 112.9 105.9 102.8 99.9 100.1 100 94.9 90.7 85.8 84.4 83.8 83 83.3 84 86.2 87.1 88.5 88.9 91 92.4 91.5 86.3 83.9 83.4 83 81.5 79.6 80.4 80 77.7 76.5 76.4 76.7 75.2 74.2 74.1 75.3 75.1 74.7 75 75.7 74.9 75.1 75.9 76.4
99.9 99.7 99.3 99.6 99.2 98.7 98.4 100.1 99.9 99.3 99.1 100 103.7 104.5 101 101 103.8 103.1 103 106 105.9 108 108.9 110 110.6 112.4 112.1 108.1 100.8 98.3 97.6 97.9 105.4 110.6 111.6 106.9 102.1 96.1 92 104.7 108.8 109.8 112.1 113.6 113.4 112.9 112.3 109.7 107.4 106.5 104.5 102.6 102.2 101.6 100.2 97.9 94.8 96.7 96.2 97.2 96.3 95.7 95.2 92.7 90.4 90.2 102.8 108.1 112.7 118.6 119.3 118.2 114.9 111 107.3 108.7 108.4 106.4 106.3 109.2 112.4 118.6 123.3 126.4 129.8 128.5 129.9 132 132.8 134.1 133.9 133.8 135 136.3 135.6 134.6 129.9 128.2 130.2 132 132.3 134.2 134.3 131.5 130.1 129.4 126.7 121.6 118.9 116.2 114.7 112.1 109.8 108.7 102.8 99.6 100.1 101 101.4 100.3 100.3 103 106.3 107.1 106.1 106.6 105.9 102.3 98.1 97 96.4 94.3 95.2 95.2 95.3 96.3 98.1 104 118.1 135.4 149.1 157.7 161.8 165 165.8 168.3 171.6 173.1 169.2 163.6 155.7 148.8 132.1 122.5 116.9 111.7 107.4 103.5 100.9 98.9 95.3 90.8 88.3 85.8 84.9 83.7 83.6 84.8 84.6 84.4 88.3 90.4 95.7 98.3 96.7 90.6 83.9 82.7 82.3 81.1 79 79.6 79.5 79.4 78.7 76.5 74.8 74.7 75.1 74.1 75.5 76.2 75.8 75.4 76.2 75.4 75 74.8 75.4 75.7
100.1 98.7 98 98.1 97.9 98 99 98.6 99.4 99.5 99 98.9 98.9 98.6 99 99 98.9 98 97.8 98.5 99 102.9 104.9 107.1 109.6 111.2 112.1 111.6 107.1 101.2 97.5 97 101.5 105.8 106.9 104.3 98.1 93 101.5 108.9 112.7 115.7 118.7 120.5 121.5 123.7 121.2 122.4 131.4 126.4 123.9 121.2 112.6 108.5 104.5 101.7 97 95.5 94.3 95.5 95.7 96.4 96.2 94.4 91.3 87.5 100.5 104.6 109.9 114.5 114.8 113.8 111.6 109.2 104.8 104.4 104.3 103.9 103.3 105.5 108 111.9 115.3 119 120.7 122.5 123.7 125.1 127 128 127.6 127.1 127.8 129.1 129.3 125.5 120.5 117.5 119.4 121.3 121.2 122.5 123.3 123.7 123.5 121.3 116.6 114 111.7 109.1 107.8 106.4 104.5 100.7 99.3 98.8 98.5 99.3 99.9 99.1 98.3 98.7 100.8 100.5 100 99.7 99.8 99.5 96.8 96.2 95.7 95.1 95.3 95.4 95.6 97.1 100.5 107.9 122.5 141.1 157.7 161.3 165.3 166.2 167.7 171.4 176.1 176.4 172.9 165 155.4 139.3 128.5 122.6 117.8 113.2 109 104.7 101.5 99 92 88.3 86.6 84 83.1 82.9 87.5 87 84.9 84.2 86.5 93.9 100.5 102.7 97.3 86.1 82.8 81.9 80.9 77.6 77.1 80.2 81 78.9 77.1 76.3 74.3 74.3 74.4 75.8 77 76.8 76.4 76.2 75.9 74.8 75.1 75 74.4 75.7
98.3 99.6 99.1 99.2 99.6 99.9 99.7 99.5 99.6 98.5 98.9 99.1 98 98.6 98.6 98.6 98.4 98.1 97.6 98 95.8 96.7 100.3 97.2 100.3 107.9 110 108.7 106.1 104.4 99.7 97 97.2 101.7 103 98.5 95 95.9 106.4 115.3 117.6 121.4 125.1 128.1 132.4 134 131.9 137.9 149.1 156.4 149.8 147.6 134.7 126.1 120.6 111.8 101.5 95.4 93.6 94.2 95.2 96.3 97.1 95.6 90.2 88.4 97.2 100.3 105.2 110.1 110 108.9 107.4 105.5 103.8 103.6 103 101.6 101.6 102.5 104.3 108 110.1 113.2 115.3 117.5 119.2 120.2 121.2 120.1 119.9 121.6 121.3 122.4 122.5 119.7 114.1 112.2 112.3 112.5 112.2 115.4 117.2 117.6 116.8 114.4 110.4 107.4 105.8 104.1 101.9 100.1 98.4 98.3 98.1 97.8 97.4 98.2 98.3 98.2 97.7 97.2 96.7 96.8 96.5 96.8 96.1 95.7 96.2 95.1 95.8 95.3 96 95.9 98.1 99 103.2 111 125.9 146.2 163.4 166.9 167 168.6 169.9 172 173.7 174 170.3 162.6 147.8 138.5 132.1 125.9 121.4 117.8 113 107.7 103.5 97.3 92.4 88.8 88.8 85.5 83.1 83.3 86.2 85 84.5 84.3 87.3 95.4 102.8 101.3 90.1 84.1 82.1 82.1 81.1 80.4 80.4 80.5 80.5 78.8 76 75.5 74.8 75.4 76.7 77.8 77.4 77.2 77 76.4 75.4 74.3 75 75.2 74.5 75.3
105.7 101 100.9 99.8 99.9 99.8 99.5 99.4 99.4 99.8 99.1 98.8 98.3 99.4 98.7 98.2 98 98.1 97.9 97.9 99.5 99.5 96 97 96.3 97.7 98.4 103.2 106.1 105.6 104.7 101 96.2 95.7 95.2 95.7 93.8 103.9 113.6 118.8 122.3 127.1 131.6 136.3 137.8 136.6 139.3 152.7 164.5 175.9 166.3 159.7 151.5 142.9 131 124.9 117.3 101.7 96.7 95.8 95.5 96.3 97.2 94.8 90.1 89.5 94.7 96.7 102.9 108.7 109.7 109.3 108 106.8 103.5 103.8 102.4 101 101 100.5 101 103 104.7 107.4 109.7 112 113.6 117.2 120 117 113.8 114.8 114.4 114.5 115.2 113.8 109.5 107.9 107 106.1 104.7 107 109.8 111.5 111 108.1 104.4 101 98.9 98.5 97.6 97.1 97.8 97.3 97.4 97.2 98 97.6 98.8 97.5 97.1 97.1 96.5 96.5 96.4 95.6 94.9 95.3 95.2 95 95.3 95.5 96.3 97.1 98.6 100.6 105.1 116.9 131.9 155.4 165 165.8 165.6 166.5 168.2 170.1 171.8 172.4 167.4 159.1 144.8 138.3 135.5 132.4 127.1 121.9 117.7 112.6 104.5 99 95.4 89.8 87.2 83.8 83.1 82.2 82.9 82.5 82.8 83.9 89.5 96.3 99.3 95.6 85.9 81.8 81.7 81.9 81.8 81.2 80.9 80.5 79.6 79 75.9 75.4 77.3 78.1 77.6 78.3 77.9 77.6 77.1 76.6 75.6 74.3 74.6 75 75 74.5
110.5 112.2 109.6 105 102.3 102.7 104.8 105.1 105.6 106.3 101 99.1 97.9 98.9 98.9 97.9 98.7 97.3 98.1 101.7 104.7 102.9 101.5 100.4 97.4 96.3 95.4 95.6 96.7 97.4 102.7 102.6 102.8 97.8 96.5 95.2 99.5 109.1 116.1 123.9 128.8 134.3 138.9 140.7 139.7 140.3 147.4 168.7 181.1 179.6 174.9 169 163.9 156 142.8 130.7 117.6 104.7 100.1 96.5 96 96.4 97.5 97 90.2 89.3 90 95.5 100.6 107.1 111.8 113.8 113.4 112.3 111.3 110.2 105.3 101.6 100.3 99.9 99.7 100.6 99.9 101.6 103.9 105.8 109.1 111.7 116 116.6 111.2 106.9 106 106.9 108.7 109.1 107 104.8 101.3 99.3 100.2 101.9 104.2 105.7 105 102.8 99 95.8 96 96.8 97.1 96.2 97.1 98.1 96.9 98.4 97.7 96.7 97.2 97 96.6 97 96.8 96.5 95.8 94.7 94.1 94.4 94.9 95.3 95.8 96 96 97.4 99.3 103.1 112.6 124.5 142.7 160.4 166.7 167.4 171 171.8 168.8 169.5 167.3 164.8 158.8 155.2 145.9 142.6 140.3 136.9 134 128.3 121.6 114.4 107.6 101.8 97.2 90.8 84.3 83.2 83.1 82 81.1 81.3 82.1 86.6 93.8 96.8 94.1 88.5 83.1 81.4 81.5 81.6 81.6 81.2 80.9 81 80.9 80.1 76.4 78.9 78.8 78.5 78.5 78.3 77.7 77.3 76.8 76.4 76.1 75.1 75.6 76.3 75.1 74
123.7 122.8 123.1 122.7 114.8 114.5 113.9 112.6 116.5 118 116 111.1 103.2 102 100.1 99.7 102.1 102.8 103 103.7 104.1 104.1 101.8 102.7 100 98.2 99.2 97.1 97.4 95.9 97 97.9 103.5 100.1 96.4 95.6 105.4 113.9 120.6 127.7 135 139.8 140.2 140.6 142.3 145.7 153.1 168.6 176.9 177.7 172.8 169 165.5 161.7 152.1 132.4 122.9 111.3 102.3 98 96.1 96.8 97.7 97.5 90.4 89.4 90.3 92.9 98.9 104.2 109.2 113.6 116.3 117.9 118.6 117.8 113.4 106.7 105.5 102.8 101.9 100.6 99.2 98.9 99.1 101.1 104.7 107.3 109.2 111.1 107.5 102.5 99.1 99.2 100.7 102.3 101.6 100.1 97.7 94.9 94.8 95.1 97.2 98.7 98.7 96.4 94.9 94.5 94.8 95.4 96.2 95.2 95.3 95.8 95.6 96.2 96.7 96.9 97 96.8 96.3 96.8 96.4 96 95.7 94.7 94.7 95 95.6 97.3 96.3 96.6 98.7 100.1 101.5 105.1 121.2 134.9 155.4 172.2 173.4 176.6 175.3 174.2 172.9 172.7 169.1 164.7 159.6 155.9 150.3 147.5 145.1 146 140.2 133.4 123.9 114.2 107.4 101.7 94.4 88.3 83.2 82.6 81 80.5 80.5 80.7 82 87 93.1 93.8 90 84.6 81.4 81.5 80.3 80.3 80.2 80.3 80.6 80.5 80.3 78.4 78.9 79.1 78.7 78.6 78.5 78 76.9 76.8 76.3 75.9 76.4 75.8 77 78.3 76.9 74.6
136.5 130.6 141.1 133.2 130.2 127.6 124.8 120.8 124.4 131.5 131.4 128.4 123.1 112.6 109.7 110.1 108.6 107.1 105.9 105.9 104 103.8 104.1 103.2 101.3 101.4 101.9 99.5 100.4 97 95.4 95.3 97.5 97.6 96.2 101.6 111.4 118.4 125.3 132.2 138.3 139.7 138.9 141.1 145.6 154.6 161.5 164.8 166.5 166.7 167.7 167.5 162.8 157.4 154.6 147.4 135 119.6 105.5 100.9 98.7 98.3 98.3 97.8 96.7 90.2 87.7 89.6 93.3 99.9 105 109.1 113.8 117.2 117.8 119.5 117.2 112.9 110.4 108.1 105.3 102.7 101.9 101.3 99.7 97.5 98.8 102 103.4 103.5 101.8 100.7 98.2 95.5 95.5 96.5 96.3 94.5 92.2 92.3 91.7 92 92.9 93.3 93 92.9 93.1 93.4 93.7 94.1 95.7 94.5 94.5 94.6 95.3 96.3 96.9 95.2 95.8 96.2 96.3 95.3 95.7 95.4 95.8 95.7 97 96.3 98.6 100.8 98.5 99.9 102.6 103.8 104.7 116 130.7 147.8 177.1 175.7 178.5 179.5 180.1 180.8 182 178.2 175.5 172.9 164 160 158 155.4 154.4 150.3 142.1 134 123.1 112.8 107.8 96.9 91.9 85.9 82.9 81.9 80.3 80 79.6 80.5 81.5 85.2 90.5 87.5 84.8 81.8 80.7 81.1 79.6 78.9 78.8 79.3 79.7 79.6 79.5 76.4 78 77.7 76.7 77.4 78.2 77.3 76.1 76.2 75.9 75.4 76.6 77 79.1 79.9 78.5 75.2
146.2 145 148.2 142.4 141.5 144.7 142 138.1 129.9 132.8 133.2 129.3 126.4 118.1 113.1 113 111.8 110.7 109.7 107.4 104.6 104.7 104.9 102.3 103.8 105.1 105.2 102.5 103.7 103.5 101.9 100.7 100.9 98.5 101.2 112.9 118.1 122.5 128 132.1 138.1 138.9 139.5 143.1 151.2 167.8 169.8 169.4 165.1 160.2 157 155.7 155.8 153.1 150.3 142.9 135.9 127.1 111.1 103.9 106.2 106.6 98.7 97.1 95.6 90.2 87.7 89.2 89.9 93.3 100.2 104 106.9 109.6 110.5 112.3 112.3 110.9 109 106.9 102.9 101.7 98.8 98.3 97.9 96.7 96.2 96.6 97.6 98.3 97.5 98.4 98 97.8 97.2 96.5 94.3 92.7 91.4 90.5 90.4 90.4 91.4 92.1 91.3 91.9 92.5 92.8 93.1 93.4 93.6 94.3 93.9 94.4 95.3 95.8 98.3 94.9 94.5 95.7 95.7 95.8 96 97.2 97.6 97.9 98.6 102.5 102.1 102.6 101.8 103.9 106 109.1 117.3 131.6 149.8 172.1 181.9 182.4 183.8 187.1 189.1 186.9 184.7 180.4 175.9 171.9 165.7 162.5 158.5 157 155.1 148.7 142.4 136.5 125.7 115.8 100.2 94.5 91.2 85.8 83.1 81.8 80.6 79.6 80.1 80.3 81.1 83.9 84.5 83.2 81.4 80.1 80.3 79.1 78.6 78.3 78.1 78.4 78.7 77.5 76 75.4 76.8 76.3 76.4 77.2 77.2 76.5 75.4 75.5 75.4 75.1 76.7 78 79.1 79.1 78.4 75
161.2 147.8 154.4 153.1 157.3 160.6 158.6 149 146.3 142.3 148.8 139.6 124.2 120.5 121.7 122.1 117.7 116.9 114.1 111.8 110.4 107.8 104.9 104 107.7 106.2 105 106.4 107 106.8 107.5 106.4 106.8 107.8 112 117.7 122.3 126.4 129.6 134.3 139 140.7 143.7 151.9 164.9 166.8 165.2 161.9 161.1 158.4 155.6 150.2 144.1 137.8 133.7 128.4 124.5 121.2 114.3 105.1 103 101.6 98.8 96.5 96.3 94.1 91.5 88.4 86.8 88.9 93.6 97.2 99.7 101.8 102.8 105.1 106.4 107.3 105.1 102.4 100.9 100.6 98.5 95.4 94.5 94.9 94.9 94.6 94.1 93.4 93.8 95.7 96 97.6 97 95.9 94 91.5 90.3 89.6 89.6 89.7 90.2 90.9 90.4 91.2 91.8 92.3 92.6 92.8 92.9 93.1 93.9 94.3 95.6 96.5 99.6 98.9 101.1 99.1 97.4 97.7 100.3 99.9 99.8 101.2 105.9 106.8 105.7 105.6 108.3 109 110.1 117.9 132.8 151.1 170.1 188.8 187.6 189.5 192 192.9 188.7 186 182.4 180.3 176.3 168.7 163.7 160.8 157.1 153.7 150.3 147.6 141.8 135.1 123.6 111.1 95.2 91.5 89.6 87.1 82.3 81.1 79.9 78.7 79.3 80.1 80.5 80.7 80.5 79.7 79.2 78.7 78.7 78.5 78.4 77.7 77.4 77.8 76.7 74.9 74.4 74.5 75.9 75.4 76.2 76.5 76.2 75.4 74.6 74.7 74.8 75.2 75.9 77.4 78.9 78.8 76.7 74.4
161 162.3 167.5 167.3 171.8 174.8 171.5 160.1 160.1 150.5 148.1 150 143.4 133.1 128.2 124.4 118.6 118.1 116.5 114.2 111.9 108 106.7 108.8 107.4 107.4 107.4 109.4 110.9 110.9 110.9 111.2 109.9 114.9 118.1 121.8 126.6 130.1 133.5 138.1 143.2 147.4 158.4 168.7 166.4 163 160 155.7 153.2 150.9 147.5 144.9 140.4 131.3 125.8 120.7 116 111.6 108.6 105.9 103.4 101.3 100.3 102.5 105.6 99.8 95.9 94.4 92.9 87.8 87.8 93 96.3 97.8 99.7 101.1 103.3 103.6 103.5 102.3 103.3 103.3 102 98.2 96.2 94.5 94.2 93.9 94.2 96.2 95.8 95.2 92.8 93.6 94.6 92.8 91.2 90.2 89.4 89.1 88.8 88.9 89.4 90.2 89.9 90.3 90.8 91.4 91.9 92.2 92 96 98.9 101.2 104.1 107 108.3 111.6 116.3 113.7 104.2 104.2 104.8 102.1 103.2 108.5 110.3 110.9 112.9 116 116.7 114.1 116.8 130.2 148.5 167.7 185.8 195.9 190.4 189.6 187.1 186.5 184 181.2 179.7 177.2 174.2 152.8 146.3 155.5 151.1 146.3 146.6 142.5 135.7 127.9 117.2 103.7 94.8 89.5 87.1 83.2 81.4 80.2 79.1 78.3 78.8 79.3 79.7 79.6 79.1 78.7 78.3 78.4 77.8 77.9 78.3 77.5 76.8 75.4 73 71.7 71.7 73 75.3 75.5 76.1 75.5 75.2 74.5 74.3 74 74.1 74.4 75 76.5 78.1 78.3 75.9 73.6
174.7 172.7 179.6 180.6 181.5 184.5 178.4 169.2 167.4 167.2 158.4 156.4 153.9 148.4 145.8 131.7 126.1 117.3 116.4 115.3 112.4 108.9 110.8 110.7 110.5 110.5 110 111.9 117.6 121.3 120.1 115.1 115.7 120.4 123.4 127.1 132.3 137.1 140.8 145.9 152.5 160.7 172.7 173.4 169 165.4 160.8 155.8 150.2 145.6 143.5 136.4 134.8 131.9 127.9 121.6 115.5 117 115.6 113.3 112.6 114.5 113 112.1 112.7 113 105 96.9 94.8 91.6 88.5 88.8 94.5 101.7 102.8 105 105.7 106 105.5 105.6 106.2 107.4 106.2 102.7 101.5 98.2 95.4 94.7 95 95.2 96.8 96.6 93.4 90.5 91.5 90.7 89.9 89.2 88.9 88.6 88.3 88.5 88.9 90 89.8 89.8 90.2 90.8 91 93.6 94.2 98.4 101 109 116.7 125.9 128 126.4 126.7 126.9 112.2 109.1 107.1 106.4 107.7 110.5 112.8 119.7 127 132.1 130.9 124.9 122.3 140.9 161.6 182.6 204.7 196.9 188.6 184.5 181.5 180.8 178.8 177.3 177 173.9 167.6 154.2 138.9 137.3 144.1 142.9 141.8 136.4 131.4 122 110.8 103.4 92.2 86 82.7 82.2 79.8 79.1 78.6 77.9 78.1 78.5 78.9 79.1 78.7 78.1 77.7 78.1 78 78.1 77.6 76.3 74.4 71.8 72.1 72.1 71.1 73.4 75.2 76.1 75.9 75.3 74.9 75.4 74.8 74.1 74.1 75.2 75.3 75.4 76.8 76.5 74.6 72.9
186.3 180.5 190.6 192.4 193.3 189 184.5 175.9 173.6 171.1 167.5 161.6 159.2 154.5 148 138.2 131.3 120.7 117 115.5 112.5 111.6 111.8 111.7 111.4 111.3 112.2 115.6 120.8 122.9 122 120.7 122.6 130.2 137.8 142.6 147.7 150.1 152.9 157.6 163 169.2 171.5 168.4 165.1 161.7 158.2 153.8 149.6 145.5 143.8 142.1 139.4 135.4 130.5 123.1 125.1 132.2 134.5 128.5 126 121.1 117.6 118.2 117.2 115 108.8 101.9 95.6 92.4 89.7 85.8 94.2 96.3 98.8 105 107.3 106.4 106.5 105.1 105.2 106.2 105.1 107.1 105.7 103 100.7 98 97 96 98.5 96.7 92 89.3 90 89.2 89 89 88.7 88.4 88.3 88.3 89.2 89.7 89.7 89.5 89.9 90.5 94.3 93.8 97.1 106 105.8 99 99 99 99 99 105.6 117.1 121.1 113.6 111.1 111.9 113.1 115.1 119.6 131.2 141.8 143 136.8 131.7 133.1 152.1 174.3 198.1 204.3 195.2 188.3 183.5 179.5 177.4 175.8 176.3 173.1 169.5 166.1 159.5 151.3 142.8 138.9 139.3 135.5 130.7 124.7 116.5 106.8 96.3 87.9 82.3 81.5 82.1 80.2 78.2 77 77.3 78 78.2 78.4 78 78.3 77.7 77.1 77.8 78.1 76.2 77.3 75.5 74.9 73.4 72.4 71.7 71.7 75 75.9 76.5 76 75.5 74.9 74.9 74.7 73.9 74.8 75.5 75.6 75.7 75.8 75 73.6 72.2
196.4 191.9 200.6 202.1 200.8 195.1 184.7 180 176.4 173.9 170.7 164.8 156.1 153.3 149.8 142.8 132.2 122.5 119 116.2 113.8 113.1 113.5 112.5 112.1 112 112.8 113.9 117.3 118.7 120 120.7 130.6 141.1 149.5 154.5 159.8 165.7 166.5 169.8 169.7 169 166.9 165 162.1 160.3 157.5 152.8 150.2 148.8 149 145.1 143.6 141.2 134.6 125.7 137.9 144.6 148.1 144.4 139.2 129 126.1 125.9 126.2 129.1 125.6 114.3 104.3 94.9 90.2 88.1 93.6 94.3 95.2 96.9 100.7 102.3 102.2 102.8 102.7 102.9 105.1 107.7 105 104.5 104.2 102.5 102.3 103.6 102.1 98.6 91.6 90 88.9 88.4 88.6 88.8 88.5 88.8 88.3 88.1 88 88.8 89.3 89.1 90.2 92.5 94.4 101.1 105.7 107.5 110.1 107.1 99 99 99 100.4 114.8 123.8 123.6 115.9 116.5 121.1 126.8 128 125.2 133 141 142.4 136.5 136.1 145.2 166.3 188.8 211.3 204.2 189 184 182.8 180.1 174.9 180.4 182.8 164.4 160.6 171 159.6 151.7 142.7 135.3 133 131.8 127.5 121.4 114.7 102.1 88.6 83.4 82.2 82.6 82.2 81.9 77.9 76.8 77 77.8 78.1 78.1 77 77.4 76.8 76.3 77.9 77.9 77.3 76.9 75.5 76.2 74.9 72.3 71.9 73.7 75.5 76.2 76.6 76.3 75.7 75 74.5 74.5 73.7 74.6 74.9 75 75.1 75 74.1 72.8 72
200.7 199.1 203.8 205.5 203.6 193 182 176.1 174.3 168.6 165.3 161.6 152.1 147.9 141.3 137.3 134.4 128.3 119.9 116.7 114.2 116.3 114.8 114.7 115.3 113.5 113.6 114.2 115 116.4 117 123 137.1 150.6 161.4 171.1 175.6 178.8 177.7 175.7 173.5 169.5 165.6 163 161.3 159.6 157.9 154.4 151.4 151.4 152.2 150.7 149.1 145.2 135 136.2 145.9 153 158.3 150.1 142.8 135.8 127.5 131.7 131.7 130.4 133.1 123.8 113.2 103.8 91.3 88.1 91.5 95 97.1 96.6 94.1 95.8 98.7 99.2 101.1 102.7 104.8 107 105.3 103.5 103.1 104.4 103.5 104.9 101.8 96.4 91 89.9 89.6 88.3 87.6 87.4 88.5 88.4 88.2 87.9 87.8 91.3 88.3 89.5 90.6 92.9 101.3 105.7 106.2 109.3 114.5 104.4 99 99 99 107.8 129 125.2 128.6 132.2 135.6 139.2 140.5 137.7 133.3 129.6 139.6 144.8 140.6 140.4 159 179.5 202.7 210.8 199.7 189.7 182.5 177.5 175 182.3 183.7 182 163.6 176.9 172.2 153.8 142.3 142.6 134.7 129.8 127.6 129.7 110.4 100.9 89.4 85.2 83.6 83 83.4 78.6 81.6 76.9 75.7 76.5 77.2 77.7 77.3 76.6 76.4 75.9 75.8 77.3 76 74.8 75 75.5 74.2 73.9 72.8 72.5 73.2 75.6 76 76.3 76.2 75.8 75.2 74.6 74.2 73.6 74.2 74.4 74.3 74.4 73.7 72.9 71.8 71.7
206 201.2 193.6 193.7 189.8 183.1 176.2 171.1 166.7 160.4 159.2 153.6 147.6 139.5 135.3 132.8 130.1 124.9 119.5 119.5 118.4 118.3 117.3 116.3 116.1 115.8 115.4 115.9 116.7 117.9 120.5 132.7 149.9 155.2 164.5 172.2 175.3 176 175.5 175.2 172.5 169.9 167.3 163.8 161.2 159.4 157.5 155.9 154.4 154.8 155.2 154.1 151.6 144.7 135.2 145.9 153.1 159.7 167.9 161.1 152.1 142.9 133.9 133.4 133.6 132.9 131.4 119.7 110.6 101.5 93.2 88 88.4 94.7 99.4 102.5 96.8 93.2 94.3 94.3 96.4 100.5 101.2 102 102.4 101.4 102.2 103.7 103 102.2 98.6 94.1 91.2 90.4 89 87.9 86.8 87.1 86.6 88.3 87.7 87.1 87.7 91.3 88.5 90.4 92.3 94.7 100 106.5 106.2 109.4 115.5 110.5 99 99 99 99 128.4 130.3 131.2 132.7 149.8 152.6 149.6 144.1 141.1 137.9 132.7 142.3 140.1 148.9 170.3 189.4 212.1 206.8 195.4 184.8 178.9 176.4 177.4 181.1 181.4 181.6 179.9 173 170.9 154.4 146.3 139.5 137.7 132 128.2 121.7 101.5 90.3 88 87.3 86.3 84.8 81.9 76.3 78.7 75.7 75.7 75.9 76.7 77.5 76.5 75.9 75.5 75.1 75.1 75.8 75.4 74.9 74.3 74.1 72.6 72.3 73 73.2 73.4 75 75.3 75.7 74.9 75.2 74.8 74.3 73.6 73.9 73.9 74 73.6 73.3 72.5 71.7 70.8 71.3
206.9 197.2 187.5 181.4 178.4 175 167.8 163.1 159.1 153 151.3 149.4 146.6 141.5 133.9 126.9 123.1 122.2 125.1 124.8 122.3 122.8 120 119 118 117.7 117.1 117.4 118 118.9 122.1 127.4 140.1 150.7 159.4 165.5 168.2 169.9 170.4 170.6 169.4 167.9 165.1 163 161.3 159.4 157.4 156 156.3 156.9 157.7 156.7 154 147.1 138.2 150.5 155 160.1 170.4 169.7 165.6 156.9 143 137.3 135.4 135.9 134.8 124.5 113.7 103.1 95.1 89.8 87.3 91.7 95.3 97.3 96.6 93.4 91.5 92.3 92.8 91.9 95.1 94.8 94.6 94.5 96.4 93.9 96.5 97.5 92.6 89.2 88.4 88.7 88.1 86 85 85.7 84.4 86.5 86.3 86.4 86.2 89 88.7 90.7 92.7 95.5 99.3 103.4 119.7 113.6 116.5 99 99 99 99 99 99 115.7 130.6 131.9 133.9 154.2 152.4 146.9 140.2 135.4 131.2 134.4 138.8 157.1 180.9 198.6 215 203.9 189.3 180.8 177.3 175.7 177 179.3 178.6 179.6 177.4 173.4 167.9 154 147.1 141 137.6 131 126.5 106.9 90.8 88.9 89.8 91.5 88.1 86 80.5 76.8 75.9 73.8 73.4 74.8 76.3 76.5 76.5 75.5 75 74.6 74.6 75.3 75.4 75.2 74.4 73.8 74 73.3 73.5 72.3 71.6 73.7 75 75 74 74.2 73.9 73.2 72.4 72.6 72.4 72.2 72.2 71.7 71 70.3 69.5 70.4
194.6 190.6 182.8 176.7 171.5 162.3 161.2 158.2 155 150 142.8 136.5 133.7 130.9 127.1 131.4 127.7 127.8 130.1 130.4 130.1 130.4 130.7 125.3 121.4 119.9 120.1 120.1 120.1 123.1 125.1 128 134.5 143 152 160.7 164.7 167 167.6 167.9 166.6 165.3 162.2 160.3 159.3 158.4 158.4 157.9 158.1 158.4 159 158.4 154 150.6 146.6 148.1 154.9 157.6 160.6 161.4 161.1 158.1 150.9 143.9 139.1 137.7 136.8 132.4 118 102.6 95.8 90.7 86 87.5 92.1 95.6 94.8 93 89.6 90.3 88.4 85.5 85.1 88.7 86.8 85.2 85.8 85.2 84.8 85.6 85.4 84.1 83.7 83.5 83.2 83.5 82.8 83.2 83.7 84.4 86.3 86.4 85.8 87.1 88.4 91.4 94.2 98.4 102.2 104.5 114.3 120.9 118.7 110.9 99 99 99 108 115.3 115.5 130.4 131.1 131.5 150.1 154.3 144.1 136.9 132.9 134.3 141.1 151.8 170 191.5 214.4 211.2 198.1 188.3 183.8 180.9 177.9 176.9 177 177.7 177.3 174.1 169.8 163.4 156.8 149.1 141 137.1 131.5 113.4 98.5 89.1 94 96.5 93.7 89.8 83.2 80.7 77.5 74.7 72.4 72.6 74 75.1 74.8 74.6 74.7 74.6 74.2 74 74.7 74.9 75 74.5 74.2 75 74.7 72.4 72.7 71.8 74.3 73.7 72.9 71.8 71.7 72 71.6 70.5 70.2 70.3 70.5 69.9 69.1 68.8 67.8 68.6 69.5
184.8 182.7 174.7 170.9 164.8 154.5 154.6 147.3 141.8 138 139 139.2 140.2 138.9 140.6 141.8 137.6 135.2 136.6 137.1 139.3 139 141.2 141.4 134.7 130.5 127.3 125.1 125.7 132 132 128.1 133.9 140.7 148.2 155.7 161.7 164.9 167.1 167.3 165.7 162.9 161.3 160.3 159.4 159.2 159.5 160.4 160.5 161.5 161.5 160 156.9 152.8 149.5 150.5 149.5 152.5 155.1 156.5 157.3 155.9 150.7 148.6 144.3 140 134.2 127.5 118.4 106.4 97.8 92.8 88.3 87 90 91.5 93.4 94.2 92.8 88.2 85.4 85 83.4 83.3 83 83 83.3 84 84.9 83.9 83.9 84.1 83.6 83.2 82.9 82.6 82.4 82.2 83 83.5 87.4 86.4 86.3 87.7 89.6 93.1 97.6 102.4 106.6 107.7 108.1 124 118.1 120.5 125.8 113.3 116.3 130.2 134.7 144.1 153.2 153.4 154.4 155.3 149.3 140.5 135.4 133.7 138.5 147.4 158.7 178.4 197.9 215.5 205.8 194.5 188.8 187.9 186.5 182.1 181.4 179.3 178.4 177 172.9 167.7 160.6 153.4 148 135.5 136.6 119.8 102.8 92 88.6 98.3 98.4 94.4 89.2 80.6 81.1 76.9 73 71.1 72 73.1 73.1 73.1 72.8 72.9 73.9 73.6 73.8 74.4 74.5 74.6 74.5 74.5 75.2 73.8 70.5 70 70.5 71.3 71.3 70.7 69.1 68.6 69.3 69 69.3 68.3 68.9 68.7 68.8 68.7 68 67.4 68 67.6
170.9 170.4 167.6 159.8 156 149 143.9 147.3 148.9 148 148.5 150.5 150.4 150.2 150 147.7 148.3 148.3 145.5 146.1 147.5 146.4 149.7 148.7 142.9 138.2 135.6 132 127.1 134.1 135.8 136 131.7 139.9 148.5 154.3 157.6 160.7 162.3 163.8 163.5 164 163.4 162.9 162.5 161.9 162.6 164.2 166.1 165.6 165.2 163.6 162 159.8 155.6 154.8 156.8 156 155.5 154.8 156.4 158.6 157.5 155.6 153 150 144.1 135.4 128.4 116.4 104.9 96.1 90.1 87.3 86.3 87.4 87.1 87.4 87.4 86.9 86.2 83.3 85.9 86 86.1 85.9 85.5 85.1 84.6 84 82.9 83.1 83 83.3 82.9 82.6 82.4 82.1 82 82.1 87.7 85.7 88.1 89.2 90.9 96.8 101.3 105.2 109.7 110.3 109.1 114.6 116.8 117.9 121.4 123.5 127.4 131 134.4 136 138.3 139.8 141.4 140.4 139.3 138 137.5 140.2 145.3 154.9 168 186.8 205.3 211.5 197.6 188.3 188.6 189.5 186.7 184 182.9 179.9 175.8 174.7 172.5 164.9 157.3 148.8 143.8 140.3 123.7 107 95.7 89.6 93.2 101.1 100.2 93.3 87.5 81.3 80.6 77.7 71.2 70.4 70.5 71.8 72.2 71.9 71.5 71.7 72.9 72.9 73.7 74 73.8 74.4 74.3 74.7 72.9 72.4 69.1 67.3 68 68.1 68.2 67 67.2 67.3 67.3 67.3 67.4 67.3 67.2 67.4 66.9 67 67.1 67 66.7 66.6
164.5 161.1 156.5 152.6 148.3 148 153.7 155.1 155.9 157.5 158.8 159.1 160.4 159.8 159.4 158.3 156.3 156.7 157.7 158.3 155.6 152.3 153.1 153.5 147 142.5 136.7 131.3 132.6 136.4 138.2 138.3 135.8 143.8 148.3 153 154 156.5 157.8 159.3 159.9 161 161.7 161.6 162.3 163.8 165.9 168.6 170.6 171.2 170.8 168.7 167 164.6 162.3 160.2 160.1 162.8 162.5 160.2 158.2 160.4 161.6 161.8 159.2 156.8 152.2 143.6 137.5 130.7 123.3 110.3 96.4 90.8 84.7 87 86.6 86.7 86.7 85.5 84.9 85.1 86.7 86.3 86.3 85.6 85.2 84.6 84 85 84.8 83.2 83.4 83.3 82.9 82.6 82.3 82 81.7 81.7 83.2 82.7 88.2 89.1 92.5 98.3 102.2 104.3 108.1 109.2 109.6 109.2 110.9 113.9 117 119.7 122.4 123.5 125.7 127.7 133.3 138 140.5 138.9 137.9 138.3 138.3 145.4 151.1 161.8 176.7 198.9 213.7 200.3 190 186.6 183.5 182.8 182.4 180.6 176.9 174.6 171.8 171.6 168 160.9 151.6 146.6 141.1 135.3 116.6 101.3 91 90 98.2 99.8 96.6 89.9 84.4 76.7 75.3 70.9 69.5 70 70.9 71.3 71.8 71.6 70.7 70.5 71.7 72.4 73.2 73.2 73 74 73.3 71 69.9 69.2 67.3 66.1 66.3 66.7 66.3 66.6 66.6 66.4 66.4 66.9 67.1 67.4 67.5 66.5 65.8 65.8 65.9 66.6 65.5 66.1
154.6 152.4 155.5 151.8 156.8 158 159.1 161.2 162.7 164.6 164.4 167.7 169.5 167.1 167.1 167 166.3 164.9 165.5 167.9 166.5 161 157 156.7 151.9 143.2 136.8 135.8 141.3 141.5 141.3 139.3 139.4 144.6 149.9 153.8 153.2 153.6 154.8 156 157.3 158.6 159.3 159.2 160.2 162.5 166.3 169.6 172.5 175 174.9 173.8 171.8 169.5 167.7 165.7 164.8 163.9 162.6 162 160.1 159.1 159.4 160.5 160.7 158.3 154 146.6 142.2 135.7 127.3 110 108.7 100.7 97.2 85.9 83.4 86.3 85.9 86.8 88 88.5 88.8 88.7 87.8 87 86.2 85 85.5 85.1 84.8 84.4 81.4 83.1 82.8 82.5 82.2 81.9 81.6 81.5 81.6 84.5 88.3 89 92.2 96.4 99.6 102.1 105.8 108.8 110.4 109.8 109.8 112.9 117.2 119.2 118.2 117.1 117.1 123.1 131.6 138 140 139.7 138.4 143 143.2 150.5 156.6 168.4 183.1 202.7 200.5 187.7 185.3 182.4 179.7 178.4 177.8 175.8 171.7 170.4 168.3 165 160.7 152.6 145.2 140.5 137 123.6 108.8 96.9 89.8 92.1 97.6 101.6 93.3 85.7 80.1 75.2 72.5 69.6 68.7 70.2 71.3 71.6 70.8 69.3 69.2 69.3 70.1 71.4 71.7 71.9 71.4 70.8 69.6 67.6 68 67.4 66.1 66.3 65.7 66 66.2 65.3 65.5 65.7 66.5 66.6 66.7 66.2 66.8 66.7 65.2 64.9 65.2 65.6 65.2 64.9
165.7 163.2 160.9 160.9 163.1 164.2 165.2 168.5 168.9 170.3 170.9 173.6 176 174.4 174.6 175.4 174.6 175.3 175.9 178.5 176.8 173.3 167.9 156.2 150.8 143.2 138.4 135.8 140.1 142.5 141.6 142.5 139.4 143.8 147.7 151.4 151.7 153.1 154 156 157.7 157.9 157.5 158.2 159.3 161.1 164.9 168.3 171 173.7 174.7 173.9 172.7 171.9 170.9 169.5 167.8 165.9 163.6 162.2 160.8 160.3 163.7 163.3 160.8 159.1 156.6 153.4 147.1 136.9 127.7 131.2 124.9 116.6 103.5 102.9 99.8 94.4 90.8 90.6 89.7 89.9 91.1 92.2 90.7 90.2 89.4 87.5 85 84.4 83.9 84 82.5 81.5 82.1 82 81.3 80.3 80.6 81 81.2 81.4 88 88.6 89.7 93.8 96.9 100.1 104.1 106.6 108.1 108 109.5 113.7 117.3 121.1 117.9 114 115.5 122.4 130.7 135.5 138.4 143.3 145.4 144.9 149.3 154.9 162.4 175.7 191.7 208.4 198.3 187.7 183.3 181.4 180.2 179.6 175.7 169.8 168 166.4 163.6 159.7 152.7 144.7 137.9 134.9 133.3 117.2 101.3 93.7 90.6 93.3 100.4 98 90.5 77.7 77 74.6 71.1 69.3 67.9 69.3 70.6 70.8 70.4 68.9 67.1 67.4 68.6 70 70.9 68.9 67.7 66.9 66.5 66.3 66.9 65.9 66.4 66.5 65.8 65.4 66 65.2 64.5 64.8 66 66.8 66.9 66.4 66 66.2 64.8 64.9 66 65.4 64.6 65.1
169.9 169.6 169.5 169.6 169.5 169.9 171.8 174.7 177.3 178.9 179.7 180 182.5 184 184.6 185.8 186.5 185.5 185.5 188.4 186.7 185.1 179.3 165 153.9 148.8 145.3 141.4 139.8 140.1 142.9 146.6 146.9 145.3 147.3 149.4 151.4 154 155.8 158 159.3 159.4 160 160 159.9 161.8 163.9 166.7 169.6 171.7 172.6 171.7 170.7 169.6 169.3 169.7 168.1 166.6 165.3 163.9 163.2 162.3 163.4 163.7 162.4 160.2 158 156.2 143 139.4 145.2 139.3 134.7 132.8 114.3 121.1 119.3 117.4 118.4 103.2 93.5 92.1 94.4 96.1 96.7 94.6 90.8 88.7 88.2 87.8 84 82.5 82.9 81.8 82.1 80.6 82.3 81.6 82.2 81 80.5 81.1 83.5 87.7 88.9 94.3 95.1 97.2 100.7 102.8 105.1 107 108.9 111.5 114.9 116.9 116.1 114.4 116.3 123 129.4 136.7 140.7 146.4 146.8 149.1 153.3 157.4 169.4 184.1 204.2 214.2 201.2 192.8 189.3 184.1 181.3 175.8 172.5 168.1 165.9 162.4 158.1 154.1 145.2 138.3 133.4 130.8 111.8 105.9 101.4 91.9 91.1 94.4 100.5 96.6 90.4 80.9 75.3 71.9 69.1 68.4 67.6 68.4 69 68.4 68.8 68.4 67.7 66.7 67.9 68.4 67.4 66.3 65.6 65.6 65.8 65.5 65.2 65 65 66.2 65.2 65.1 65.5 64.7 64 64 64.5 65.5 65.8 65.6 65.6 65.2 65.2 65.5 65.5 64.5 64.9 64.6
180.5 180.6 181.7 181.9 179.4 177.5 179.8 182.7 184 186.5 188.7 188.1 192.1 194.1 196 198.6 199.3 198.4 198.3 202.8 196.4 186.9 176.2 167 159.7 154.6 151.7 146.8 139.1 143 146 151.1 150.6 150.9 151.6 152.5 154.7 155.5 156.9 160 161.8 161.4 161.3 160.7 161.2 162.2 164.4 166 168.7 169.2 169.7 169.8 168.8 167.6 167.8 168.5 169.4 168.8 167.4 166.6 166 165 163 162.1 161.9 159.9 157.6 149.7 153.5 155.3 151.1 147.1 144.6 143.5 129.2 137.4 137.2 134.6 128.7 123.9 114.4 106.4 104.6 105.1 106.7 101.9 96.9 92 91 91.8 90.9 85.8 83.9 84.7 82.3 84.7 85.4 84.8 82.5 80.9 78.4 79.4 80.1 86.2 88.1 90.6 93.3 98.3 103.1 105.4 109 111.3 111.9 112 112.1 111.9 112.7 114.9 119 127.1 137.7 144.5 146.6 147.9 149.3 151.4 154.2 161.3 175.7 197.9 218.2 209.2 200.5 195.8 193.6 190 180.9 175.7 171.7 166.4 164.3 158.1 152.4 145 135.8 131.4 126.2 119.6 104.8 98.8 99.6 91.7 90.1 92.9 100.1 97.5 78.9 76.5 72.9 70.2 68.1 67.4 67.2 68 67.1 67.3 66.7 67.3 66.3 66.6 67.3 66.4 65.9 65.3 65.3 66.1 65.8 65.8 64.7 64.9 65.4 65.3 64.6 64.7 65.1 64.6 64.1 64 64.4 64.6 64.9 64.8 64.8 64.7 65.1 65 65.1 64.9 65.5 64.8
190.3 189.8 189.4 190.9 190.4 188.7 190.8 191.7 191.1 192.9 195.5 196.8 202.6 208.2 211.2 211.3 212.7 215 213.8 208.8 201.1 192.9 187.3 178.9 171.5 163.7 159.6 155.6 148.7 140.9 147.7 149.6 153.5 156.3 156.4 157 156.6 156.1 155.2 158.6 158.8 159.2 159.6 160.4 161.6 162.2 163.6 162.4 163.6 167.8 168.1 167.6 167.5 167.5 167.5 169.1 170.9 171.9 171.3 170.1 168.1 165.7 163.1 161.4 160.9 159.8 157.4 155.9 155.8 158.4 155 152.9 153.4 152.6 146.6 144.3 143.8 140.8 139 134.8 129.9 110.7 116 121 115.5 110.1 103.3 97.4 96.4 95.8 95.8 93.1 91.3 90.7 89.7 89.2 89.4 87.8 84.6 81.2 79.6 79.4 79.2 82.3 85.7 89.4 95.2 102.5 108 111.7 115.4 113.8 111.2 110.5 110.3 111.1 113.4 117.1 125.4 136.2 145.2 149.7 150.2 150.8 151.7 155.3 159.7 171.1 193.9 214.5 212.7 204.2 195.8 186.5 183.3 184.5 184.3 174.8 170.6 166.3 161.8 155.6 146.1 137.5 128.1 125.6 122.2 114.8 106.8 102.6 97.6 91.8 89.1 91 94.5 88.3 76.8 75.6 71 69.3 67.5 66.8 67.1 67.3 66.5 66.6 67 66 65.8 66 65.8 65.4 65.1 65.7 66.2 66 65.3 64.5 64.2 65 64.7 64.1 63.9 64.2 64.7 65.2 64.8 64.3 65 64.9 65.3 65.2 65 64.8 64.8 64.4 65.2 65.5 65.4 65.1
199.2 198.7 198.5 198.5 199.1 203.2 203.9 203.9 204.2 204 208.1 213.2 220.3 226.4 228.8 228.5 225.9 228 223.6 212.2 202.5 195.2 188.2 180.9 173 164.6 161.3 159.3 150.3 142.9 140.9 140.8 145.7 148.2 154.7 157.4 156 156.9 155.3 152.3 150 148.4 148.5 151.2 157.8 158.5 152.5 145.5 160.5 167 168.2 168.4 168.3 168.3 169.2 171.8 174.9 177.2 178.3 176.6 174.8 172.4 168.9 165.9 163.1 160.9 160.8 162.7 165.3 163.4 159.8 159.7 160.2 157.8 152.4 151.7 151.4 149.4 147.2 140.6 119.9 134.4 137.5 133.8 125.6 117.4 110.9 104.9 105.1 104.9 105.3 104.5 103.1 100 97.8 94.7 93.7 89.4 88.2 84.2 82.6 80.5 85.6 79 82 84.7 92.5 102.6 111 117.2 117.3 114.3 111.5 109.5 111.3 113.7 117.9 124.8 134.2 139.3 146.6 150.6 152 152.7 155.1 159.7 172 187.5 212.3 215.4 204 197.3 183.2 172.8 170.5 173.9 177.6 174.4 171.8 164.5 158 148 139.6 132.3 126.4 123.9 118.8 114.4 117.2 108.5 96 90.1 87.5 88.6 82.9 80.8 75.7 72 68.7 67.7 67 66.5 67 66.6 66.8 66.9 67.1 66.8 67.3 66.4 65.2 64.9 65.1 66.5 66.6 66.3 66.1 65.3 64.8 64.4 64.5 64.2 63.7 63.6 63.8 64 64.1 64.6 64.8 64.5 64.7 65.2 65.2 65 64.6 64.7 64.8 65 65 64.7
210.7 210 207.4 207.2 209.2 211.4 214.1 217.8 217.6 215.9 219.3 224 231.2 232.6 232.3 229.9 229.1 227.3 223.8 213.2 201.2 194.6 188.1 179.7 172.1 167.4 162.7 160.1 157.8 150.4 143.4 140.6 138.8 137.8 139.9 144 145.1 150 147.4 137.9 134.5 133.3 133.4 134.3 137 138.8 137.9 145.9 160.2 164.7 165.7 167 168.7 170.6 172.3 174.4 177.9 180.3 181.9 182 180.5 178.4 174.7 171.3 168.3 167.1 166.2 166 167 168.8 168.5 167.3 165.4 161.7 158 158.5 158 156.4 147.8 129 144.1 148.1 147.1 142.2 134.9 125 117.5 114.4 112.6 113.8 113.3 112.5 111.7 110.4 108.1 102.6 97.3 92.7 89.5 87.5 82.9 85.7 80 79.3 79.7 82.2 83.4 101.9 110.3 117.1 116.3 113.5 109.2 111.7 114.9 120.1 126.6 137.4 145.3 147.7 150.8 152.2 152.6 155 160 172.8 186.1 203.2 221 209.4 202.7 188.6 175.2 167.5 164.4 169.2 176 174.8 167.3 160.4 152.1 142.5 135.3 132.3 129.6 126.4 121.3 119.6 119.5 108.6 94.7 89.2 85.9 83.3 81.8 76.3 74.6 71.4 68.7 68.1 67.1 66.6 66.9 67.2 67.9 68.1 68.3 67.3 66.1 66.1 64.8 64.8 65.3 65.6 66.2 65.9 65.7 65.6 64.7 64.1 63.7 63.5 64.2 64 64.1 63.7 64.6 64.5 64.7 64.1 64.3 64.5 65 64.2 64.8 64.8 64.7 65.5 65 64.6
218.5 218 215.5 213 213.9 215.2 219.2 222.5 222.9 221.1 219.9 218.1 219.9 218.8 217.1 214.4 211.8 209.8 205.1 201.1 194.6 190.1 184.1 177.2 172.3 169.3 167.1 164.2 160.8 156.6 151.9 147.9 145.7 143.8 138.5 136.9 135.7 135.2 134.5 135.2 135.7 136 134.7 131.9 130.1 128.6 131.1 129.8 139.6 150.5 158.1 159.6 161.5 165.7 171.2 174.7 177.6 180.6 182.4 183.2 184.1 183 179.9 176.5 174.3 173.4 171.4 170.8 170.4 169.5 170.8 172.5 169.3 166.9 165.5 163.7 163 160.4 141.2 157.1 156.8 155 153.3 148.5 144.2 133.4 125.9 122.9 122.4 122.9 122.2 121.7 121.3 118.9 115.4 109.1 101.8 95.3 90.6 88.3 86.6 81.1 79 79.7 79 80.5 81.8 97 107.7 115.6 113.3 109.7 108.1 113.1 119.6 127.9 139.4 148.3 151.7 151.4 151.4 152.1 154.8 159.7 171 183.8 197.8 216.1 210.4 203.4 196.1 176.7 169 165.2 165.9 169.4 172.5 170 163.5 155.8 144.3 133.9 133.3 135.2 132.9 127.7 123.8 125.4 118.9 108.8 95.7 86.5 86.4 82.1 80.3 74.6 72.1 70.1 68.5 68.6 67.1 67.6 67.7 67.9 68.5 69.3 69.2 68.1 67.1 65.4 66.2 65.6 65.2 65.1 65.6 65.4 65.3 65.5 64.3 64.6 64.3 63.8 64.1 64.4 64.6 64.2 64.7 64.1 64.4 64.2 64.4 64.5 64.7 64.9 65.1 65 65 64.4 65.2 64.6
223.7 221.4 219.1 216.5 213.8 213 213.8 214.8 212.6 208.2 206.7 205.4 205.2 203.9 200.3 196.9 194.9 192.5 189.8 186.9 184.5 182.6 176.3 172.8 169.6 170.8 172.7 170 164.7 158.7 159.8 156.7 156.4 154.4 140 146.6 149.4 138.3 139.1 140.9 153.3 150.7 147.8 149.9 143.7 146.5 143.6 132.4 126.1 131.2 136.7 137.6 138.9 142.8 148.3 154.4 164.5 179.6 182.8 184.8 185.7 185 182.4 180.3 179.2 177.2 175.5 175.1 173.6 171.8 170.7 170.9 170.5 169.2 168.7 168.5 166.8 162.3 157.8 163.9 163.9 162.1 159.2 154.7 149.7 141.4 133.9 129.5 130.5 130.6 131 132.8 130.1 126.7 122.4 115.2 105.6 98.4 93.1 89 87.9 82.8 81.5 79.3 78.8 79.9 81.6 92.2 103.8 108.7 105.9 100.7 109.7 117 127 139 147 150.6 150.5 151.2 153.1 155.5 160.1 170.4 182.2 196.6 208.7 212.9 204.9 203 183.9 172.1 167.1 166.5 170.8 175.8 175.4 172.9 166.2 154 137.8 131.2 130.9 133.3 131.5 127.6 128.9 132.3 122.3 108.9 95.8 87.9 84.4 81.3 76.4 72.3 70.9 69.3 68.7 68.3 67.6 68.8 68.4 67.9 69.3 70.1 70.1 69.2 67.6 65.1 65.8 66.2 65.1 64.8 64.9 65.2 65.5 65.3 65.1 65.1 64.5 64.8 63.9 64.2 64.2 64.4 64.2 64.5 64.5 63 64.6 64.7 64 65.1 64.6 63.8 64.1 65 65.1 64.6
228.1 221.3 215.3 212.9 209.6 208.5 206 203.6 200.3 197.2 195.4 194 188 187.2 184.3 183.4 182.5 180.9 180.8 178.9 176.2 173.6 170.2 168.9 168.7 170 173.7 168 162.3 161.6 164.7 161.2 159.2 154.7 143.5 155 156 142.9 155.3 153.7 155.1 154.5 155 157.5 160.9 160.2 159.4 146 132.6 126.6 124.6 119.6 117.7 124 129.7 150.7 171.9 179.4 182.8 185.3 185.4 184.2 182.8 181.7 180.4 179.4 178.4 177.2 174.7 173 172.3 169.7 169.6 167.4 166.2 167.1 164.8 162.9 166.8 166.5 167.5 166.5 163 157.1 151.8 145.7 139.4 136.8 134.6 134.6 136.2 135.7 133.7 129.1 123.1 114.5 105.1 97.6 92.4 89.4 86.3 82.8 81.7 79.1 78.8 79.1 79.4 87.9 97.5 94.8 93.9 103.1 109.5 116.9 123.7 134.8 142.6 147.7 149.5 151 155 162.6 172.5 184.9 196.2 204.9 208.4 212.4 207.7 198.2 185 172.1 169 172.2 176.9 176.7 173.1 168.2 161.2 148.9 136.2 130.6 132.3 134.9 131.3 127.2 128.1 124.5 117.4 106.3 95.8 87.9 83.9 80.2 75.7 72.4 70.8 70.2 69.9 69.1 69.4 68.9 68.8 68 69.3 69.6 69.8 69.7 67.6 65.9 66.2 66 65.9 65.1 65.9 65.4 65.7 65.3 65.3 65.5 63.5 63.9 64.4 64.3 64.1 63.7 63.7 64.2 64.4 64.7 64.7 64.4 64.4 63.2 64.6 62.6 63.9 64.7 65.1 63.6
231.1 222.9 215.2 209 205.3 202.7 200.8 198.4 194.6 192.4 190.6 186.7 180.5 178.4 176.6 175.1 174.9 175 176.5 178.3 176.8 171.8 168.2 168.2 168.1 168.2 169.1 168.5 167.6 165.2 164.2 161.9 158.3 154.1 152.5 160.5 161.3 152.2 161.6 160.5 158.1 162.1 164.1 166.3 167.8 167.1 165.1 161.4 149.1 141.5 138.1 137.3 133.1 120.5 117.3 134.7 151.5 167.2 181.5 185.1 186.1 185.7 184.8 184.7 182.9 182.7 181.2 178.7 176 175.1 174 173.1 170.6 168.5 167.9 169.4 175 169.9 166.9 166.4 167.5 167 163.3 157.1 151 146.8 141.9 139.6 138.4 135.3 133.4 131.4 126.6 120.4 115.5 108.9 101.6 96.2 92.8 89.5 86.6 82.7 82 81.2 78.8 78.8 79.5 81 85.2 92.8 99 106.5 111.1 116.9 121.6 127.1 135.3 140.9 147.4 152.5 160.2 173.4 183.8 198.4 203.1 207.6 218.4 217.7 213.7 204.5 193.1 177.1 174.4 178.1 176.2 172.8 167.9 162.3 137.4 145.7 135.8 130 132.6 132.5 129.6 125.8 121.1 118 113.4 103 94 88.8 84.1 80 75.6 72.4 70.2 69.7 69.7 67.9 69.2 68.7 68 68.7 68.7 68.5 68.9 69.3 67.4 66.1 65.7 65.4 65.5 65.4 65.4 65.9 65.7 65.2 65.1 65.1 64.4 63.8 64.3 64.3 64.6 64.8 64.6 64.6 64.6 64.7 64.1 64.6 64.6 64.9 64.1 63.2 64.6 64.8 64.3 63.9
235.6 226 211.2 201.8 199.4 197.4 196.2 194 190.5 188 185.9 182.6 177.3 174 173.1 172.5 171.8 171 172.2 173.9 174.4 172.3 171.8 168.1 168 168.5 171 173.1 174.2 172.9 169.1 167.2 163.6 162.8 162.5 163 160.8 161 164.5 164.5 163.6 168.3 172.7 173.6 174.7 174 172.7 172.2 168.3 163.5 158.9 154.4 153.2 139.5 119.5 119.1 139.5 164.4 180.1 183.6 185.2 185.2 187.1 187.5 188.3 188.4 187.5 185.6 184 180.6 178.2 178.4 176.2 174.1 171.1 167.1 165.1 164 161.6 161.6 161.2 160.3 157.4 154.1 148.5 145.6 143.2 142.4 140.8 139.1 135.8 134.1 129.1 123.9 116.5 108.9 102.9 97.7 92.7 88.7 87 83.6 82.3 80.5 79 78.1 78.9 79.2 80.5 97.6 103.7 108.5 114.8 120.3 127.1 132.9 136.9 138.3 145.8 154.3 168.4 183.2 193.6 200.7 203.2 219.8 223 217.2 211.5 204.6 194.3 185 179.7 177.8 174.8 171.4 164.8 156.6 148.5 139.5 135.6 130.6 119.7 116.6 115.9 118.9 115.6 111.3 106.7 100.3 94.1 90 84.5 80.1 75.8 72.5 70.2 69.2 68.5 68.2 68.5 68.3 68.1 68.3 68.1 68 67.8 68 67.6 66.8 65.3 64.9 65.7 65.2 65 64.9 65.4 65.1 64.1 64.2 64.8 64.8 64.4 64.2 64.4 64.7 64.8 64.8 64.7 64 63.9 64.5 64.9 64.9 64.1 63.6 63.4 64.5 63.7 64.3
222.6 213.9 203.8 196.8 194.8 192.4 190.2 188.5 185.7 184.1 182.6 180.9 178.5 177.7 174.6 170.7 168.2 166.7 167.5 169.4 170.3 174.4 172.7 168.8 169.1 171.1 174.8 177.1 177.9 177.8 175.5 172.3 169.4 169.3 168.9 169.1 168 168.2 167.2 168.2 168.5 170.5 175.3 177.9 179.7 180.4 180.1 180.3 179.5 177.6 173.4 167.2 162.4 155.7 133.9 113.6 136.2 164.4 175.5 177.4 180 177.7 183.9 184.6 185.8 185.2 186.4 185.1 182.4 177.9 175.5 176.2 175.6 174.1 170.8 167.2 164.7 161.7 159.3 158.2 154.7 152.2 151.5 149.6 145.6 140.9 138.3 137.9 137.6 136.2 134.4 132 127.8 120 113.1 103.8 96.9 92.9 90 87.3 86.5 85.2 80.3 79.3 79.1 78.3 77.5 78 79.7 99 106.9 110 116 124.3 130.3 136.8 141.7 141 147.1 159.7 176 193.3 199.7 201.7 208.8 220.2 216.7 212.5 208.5 199.6 191 182.1 180.9 177 172.8 166.5 160.2 153.8 150.6 145.9 136.9 125.6 115.2 112.6 111.5 110.3 109.9 107.6 102.6 99.2 94.8 90.4 89.5 82.4 78.2 73.9 71.1 68.4 68.5 68.6 68.4 68.3 67.9 66.6 66.5 66.6 66.8 66.9 66.7 67 65.9 65 66 65.1 64.6 64.5 64.5 65 64.7 64.5 64.2 64.3 64.5 64.6 64 64.1 64.8 64.2 64.6 63.3 63.8 64.5 65.1 64.9 64 64.2 65 64.5 64.7 64.6
207.1 200.1 194.9 192.3 188.8 186 183.5 181.7 181.2 184.6 186.5 186.8 185.3 183.4 180.8 176.6 171.2 167.3 165.2 165.8 166 167.1 165.2 165.5 170.3 174.9 179.7 181.4 182.4 183.5 181.5 179.9 177.7 178.3 177.3 178.3 177.4 177.8 178.1 174.7 175.1 174.5 177.6 180 181.6 182.7 184.2 184.8 184.5 183.6 181.8 180.9 177.6 168.9 139.9 113.7 134.8 159.5 166.1 167 170.4 165.8 173.8 177 178 177.9 177.1 177.1 176.2 173.8 171.8 171.3 170.7 169.1 165.9 165 162.6 159 155.8 152.4 149.2 145.3 142.3 140 138 135.4 130.1 129.1 127 124.5 123.3 121.7 116.3 109.7 101.3 95.2 89.7 88.1 87.2 86.3 85.3 82.2 79.9 79.9 79.5 78.8 78 77.5 79.5 100.8 108.2 113.7 121.4 129.1 135 140.8 143 141.5 149 167.3 185.9 201.3 202.3 204.6 218.9 219.2 213 208.6 199.1 192.8 187.9 185.3 184.1 178.7 173.5 167.8 163.9 162.4 154.4 145.8 134.4 120.5 111.9 109.8 108.3 107.1 105.7 103.6 101.8 102 96.6 95.5 91.4 86 80.3 74.9 68.9 67.5 67.2 67.3 67.6 67.8 66.5 66.8 66.6 66.3 66 65.9 65.8 66 66.5 65.8 65.8 65 64.5 65.1 64.4 64.4 64.5 64.1 63.5 64.2 64.3 64.5 64.7 64.5 64.5 63.7 64.6 64.3 63.6 64.3 65 65.5 65.1 65.6 65.9 64.7 65.2 64.9
193.3 188.8 188.2 186.2 184.1 182.4 179 177.2 180.9 185.2 189 190.3 190.1 187.7 184.3 180.4 174.9 171.4 165.2 161.7 163.5 163.3 162.7 164.1 170.2 176.1 182.6 187.3 188.4 189.2 187.6 186.2 183.3 187.4 190.2 191.1 188.9 187.6 185.5 182.6 179.2 178.8 180.4 183.6 183.9 186.3 186.6 186.3 185 185.2 185.2 183 182.2 171.4 139.8 112 130.2 147.4 152.8 152.4 158.7 161.7 166.2 167.6 168.4 169.2 169.4 169.9 168.7 167.9 166.8 166 165.4 162.8 160.8 160.1 159.2 155.1 151.9 147.3 143.1 140.3 135.9 133.3 129.8 126.6 122.9 120.2 119.7 118.1 114.9 110.1 106.2 99.6 91.1 87.7 86.3 85.9 85.5 85 83 80.6 78.8 80.3 79.3 78.2 77.9 77.9 78.9 102.1 108.5 116.5 124.5 131.6 137.9 144.3 144.2 142.6 155 175.3 198.7 203.8 202.7 213.1 218.1 216 207 197.1 195.9 190.8 188.1 185 183.9 179.3 175.7 175 170.1 164.1 119.4 116.1 126.3 112.9 109.7 109.2 106.5 106.8 103.5 104.3 104.5 104 93.6 93.8 81.9 81.1 75.3 71 68.6 66.7 65.9 66.3 66.9 67.4 67.1 65.9 65.6 65.7 65.7 66 65.3 66.2 66.4 66.3 65.8 65.3 64.6 65 64.5 63.8 63.6 64.1 64.2 64 64.2 64.3 64.3 64.4 64.5 64.6 64.3 64 63.4 64.1 64.6 65.1 65.7 65.4 65.3 64.5 63.7 64.5
181.4 178.9 178 175.3 176.5 177.2 173 174.9 179.3 182.6 185 185.7 186.5 184.9 181.7 178.7 174.4 171 165.2 161.8 160.6 160.4 159.3 162.8 168.6 176 182.2 188.2 191.6 193.9 194.6 192.2 190.5 195 198.9 199 195.4 191.7 188.2 184.6 183.7 180.6 180.4 180.2 182.4 185.5 187.1 186.8 185.9 184 182.4 179.9 177.5 167.5 135.6 110 123.9 125.3 128.5 141.9 154 158 161.1 161.9 161.5 161.9 162.9 162.5 161.1 160.3 160.8 160.7 159.9 157.6 155.6 154.6 154 151.1 146.8 143.4 139.3 136.3 131.9 128.6 126.1 121.5 116.3 112 111.6 107.2 105.2 101.9 98.4 92.7 87.4 85.5 85.2 84.5 82.8 81.6 79.6 78 77.4 78.8 78 77.5 77.4 77.2 75.1 101.2 110.2 118.4 125.7 132.4 139.7 146.9 144.7 144.3 158.6 180.1 202.1 206 208.2 215.7 217.9 213.7 201.5 195.6 195.9 189 190.9 190.6 187.6 180.4 178.6 178.1 173.9 165.3 120 120.7 116.1 110.1 109.3 109.5 107.8 105.9 106.2 107.8 104.4 98.4 93.5 92.4 80.7 79.9 72.6 69.1 66.8 65.3 65.3 65.3 66.9 67.2 67 65.6 65.7 65.5 65.4 65.3 66 66.2 66.2 65.5 66.3 65.7 65 64.1 63.8 63.7 64 64 64 63.8 64.3 64 63.8 63.9 64 64.2 63.9 64.4 63.1 63.8 64.3 64.9 65.5 65.4 65.1 65.5 65.8 65.3
173.1 172.8 167.7 165.6 166.8 168.1 167.8 172.1 176.2 178 178.4 180.2 179.7 177.8 174.7 173.6 170.5 168.9 164.8 161.1 158.1 157.5 157.2 160.7 166.5 173.2 179.2 184.1 190.8 196.3 199.5 206.5 205.4 205.7 206 201.7 196.9 190 186.8 183.4 182.7 183.7 183.3 183.7 170.9 177.7 181.9 180.2 178.4 175.9 172.3 169.2 165.2 158.3 136.4 112.5 108.7 114.3 117.3 132.5 150.3 153.8 154.4 154.3 153 154.4 155.9 156.3 154.4 153.8 154.2 155.1 154.5 152.5 150.6 149.4 146.8 144.4 143.1 140.9 136.5 131.3 128 124.9 122 116.1 110.6 106.5 103.7 100.3 98.4 94.5 91.5 88.3 84.9 82.9 83.4 81.5 78.4 78.5 78.5 77.7 78 78.1 77.4 77.3 77.2 77 75 98.2 110.3 117.2 124.4 132.2 140.8 147.5 145.5 145.6 157.7 181.7 202.6 204.7 212.2 216.5 218.6 215.4 212.6 202.9 192.9 188.3 188.1 187 186.2 184.2 182.5 142.1 137.5 131.7 123.8 112.5 110.9 112 111.7 111.1 108.7 106.5 110.1 107.4 102.7 96.6 91.6 87.1 77.8 74.4 68.6 67.1 65 64.9 65.2 65.8 66.6 67 67.3 66 66.1 66.2 65.8 65 65.6 65.9 66.2 65.3 65.8 65.3 65.5 63.9 63.8 63.8 63.2 63.4 63.2 63.5 63.9 65.3 64.9 64.7 64.4 64.2 63.8 64.8 64.4 63.5 64.1 64.7 65.3 65.5 65.7 66.1 66.7 66.2
170.4 169.2 170.3 167.8 161.5 162.3 163 168.1 171.1 172.1 172.4 171 169.2 166.7 167.2 169.3 168.1 166.9 163.9 162 158.3 155.7 153.7 158.8 164.1 169.8 175.5 183.4 192.5 205.6 210.4 212.9 210.4 205.8 201 196.9 190.4 185.6 181.4 177 178.4 182.8 182.1 176.1 172.3 162.8 170.7 171.6 168.4 161.7 159.5 155.9 147.6 132.4 125.4 118.1 106.5 107.5 109.6 118.3 130.1 139 146.5 147.8 147.7 147 148.2 149.6 148.6 148.5 148.7 149.2 148.3 147 145.2 143.7 141.2 137.7 136.6 134.7 132.3 128.4 122.5 119.3 116.3 110.6 104.1 100.6 98.6 96.1 92.7 88.9 87.2 84.6 80.5 79.9 79.6 77.8 77.6 78.4 78.1 78.5 77.3 77.5 77.2 77.2 77.2 75.7 87.7 101.8 107.9 115.9 123.6 131.5 140.1 144.3 144.7 148.1 157.8 176.6 187.7 199.1 215.2 221.3 224.2 218 212.7 196.7 190.2 190.9 189.2 189.5 189.3 188.4 181.3 135.3 130.1 125.4 114.9 111.3 112 112.9 112.4 110.3 107.8 105.7 107.7 105.8 102.5 92 85.8 75.2 72.3 69.4 66.4 64.6 63.5 64.7 64.3 65.5 66.4 66.8 67.1 66.8 66.3 66.6 66 64.7 65.8 66.3 65.5 65.6 65.8 65.3 64.3 64 63.9 63.9 62.9 63.4 63.6 63.5 64 64.4 64.7 65.1 64.2 64 63.7 64 64 64.4 64.9 65.4 65.8 66.2 66.7 67.2 67.6 66.7
177.4 175.2 173.7 171 165.3 157.9 158 161.2 161.6 163 162.7 161.6 160.3 160 161.5 162 163.5 163.6 164.9 164.3 161.3 156.4 152.2 155.3 160.2 165.8 176.3 189.9 201.6 211.5 211.3 206.2 202.2 198 195 192.1 186.3 178.2 174.3 170.7 175.2 178.5 180.7 166 165.1 155.1 149.2 153.1 153 149.2 146 139 132.8 128.3 122.2 120.4 120.9 106.8 104.2 105.3 111.7 118.7 126.8 134.9 141.9 141.8 141.7 141.8 141.5 142.2 143 143.3 142.1 141.4 140.5 138.7 136 132.1 129.7 127.8 125.4 122.1 118.9 114.7 110.4 106.8 103.8 100.4 98 94.6 91.5 89.1 85.9 81.6 79.9 77.4 75.1 74.4 75.4 76.7 76.2 76 76.4 77 77.6 78 75.4 82.3 96 100.4 106.4 113.1 119.9 126.8 135.1 138.4 143.3 149.6 157.7 170.5 186.7 201.9 216.7 220.6 221.3 211.8 201.2 197.5 201.1 169.4 177.1 190.4 188.9 187.6 138.1 134.6 126.3 115.3 112 113.5 113.6 112.9 111.8 108.6 105.4 100 95.3 87.4 83.6 75 71.7 71.2 68.5 67.4 64.8 63.6 64.1 63.9 63.8 65 66.1 66.5 67.1 67.2 66.5 66.8 66.6 65.7 65.3 65.8 65.4 65.7 65.9 65.2 64.1 63.9 64 63.9 64.3 64.2 63.5 63.8 64.6 64.5 64.6 64.9 65.2 64.6 63.6 64.4 64.1 65.3 65.7 66.1 66.5 66.9 67.5 68 68.3 67.5
176.3 173.2 170.4 168.2 163.6 155.7 150.6 155.2 155.5 154 153 152.4 153.7 155.6 156.3 158.1 158.9 159.3 162.3 163.1 161.3 158.4 153.1 150.6 156.4 165.8 181.4 195.9 202.8 202.2 197.6 195.5 194.2 193.4 194.2 193.8 189.5 181.6 173.1 165 161.1 167.9 166.4 154.2 147.4 144.3 140.3 138.4 137.4 137.1 135.3 131.4 128 124.5 120.7 118.4 118.1 116.9 103.4 102.2 101.7 105.7 110.8 121.7 135.4 136.6 136.5 136.7 136.1 135.7 135.8 136.2 136.8 137.5 136.7 135 132.5 128 125.2 123.1 120.3 117.2 114.1 111.1 107 105 102.3 101.2 100.9 100.1 97.4 89.8 85.1 79.8 79.3 76.4 72.8 73 73.7 74.2 75.4 76.1 75.5 76.4 77 73.8 79.5 85.5 90 96.1 101.9 107.6 114.1 119.6 125.2 137.8 142.7 150.6 158.7 171.3 191 216.2 220.5 216 212.1 203.8 197.8 166.7 205 164.9 164.5 168.5 189.1 140.2 141.7 127.6 119.6 115.6 115.2 114.7 112.3 112.1 109.3 106.3 102.5 100.2 94.5 87.8 77.1 73.2 75.4 67.4 66.7 65.6 64 63.5 63.6 63.6 63.5 63.4 63.3 65.9 67 67.2 66.9 66.7 66.6 66.6 66.4 65.2 65.4 65.4 65.1 65.1 63.9 63.5 62.7 64.2 64.4 64.8 64.7 64.6 64.9 64.8 64.7 64.7 65 65.4 65.2 64.3 64.5 65.2 66.3 66.8 67.2 67.6 68 68.1 68.2 68.1
166.6 164.8 163.2 161.4 156.8 153.7 145.9 147.8 151.2 149.9 147.4 146.5 148 149.3 150.7 153 154.4 155.3 157.9 159.8 159.9 158.6 155 149.3 156.2 167.2 175.9 183.9 188.2 189 192.9 190.7 194.3 197.6 198.2 192.9 191.2 187.1 180.6 170.6 163.3 148.9 149.1 145.6 137.4 135.3 134.4 133.6 132.7 132.1 130.1 128.3 126.6 123.4 119.5 117.2 115.4 114 109.9 103.2 101.8 99.9 101.3 108.7 119.2 124.6 126.2 127 129.3 129.9 130.5 130.8 131.5 131.4 132 130.8 128.9 123.8 119.4 117 114.9 112.3 109.7 107.6 105.2 104.9 102.9 100.2 99.9 99.5 98.8 94.5 83.8 79.3 79 73.2 74.8 74.8 74.6 73 74.9 75.6 75.2 75.5 76 76.5 84.5 84.8 86.5 90.1 95.6 101.9 106.4 113.8 128.5 136 141.1 148.4 156.5 171.8 190.3 201.4 217.5 209.7 198.7 187.4 193.7 166.7 161.8 163.5 161.2 167.8 169.8 138.9 136.7 123.2 118.8 117.7 115.2 113.5 112.6 111.3 108.9 102.7 98.9 94.5 87.8 80.4 74.6 75 68.8 66.1 64.7 63.8 63.7 62.8 63.4 63.3 63.2 63.3 63.5 64.9 66.4 66.5 66.6 66.6 66.5 66.6 66.6 66.6 66.2 65.6 65.1 64.7 64.1 62.4 63 63.8 64.4 64.9 65.2 65.2 65.1 65 64.9 64.8 64.8 65.2 64.5 64.8 65 65.7 66.4 67.3 67.7 67.8 67.9 68 68.1 68
158.3 158 156.5 154.4 150.3 148 142.9 142 144.4 144 144 142.6 142.2 143 144.4 145.9 147.5 149.7 152.4 152.6 153.7 154.6 153.1 148.6 154 162.9 167.3 169.6 171.8 174.3 180.5 188 195 203.4 204.6 199.5 194.2 188 182.2 178.9 171.4 161.2 148 140.2 135.8 133.1 131.7 130.8 129.7 128 126.6 124.3 121.4 118.6 116.8 115.9 114.1 113.3 111.7 111.7 111.2 108.6 97.5 101.9 111.3 118 119.7 121.1 124.2 125.2 125.7 125.4 124.7 124.7 125.8 125.5 125 122.6 118.8 115.3 111.2 108.7 106.6 104.9 105.2 105.4 105.3 102.7 101.1 97.5 93.5 90.2 86.3 79.5 77.3 73.8 74.4 74.8 75.3 73.7 74.6 75.4 75.6 75.7 76.1 76.2 84.7 83.1 84.4 85.5 91.2 96.4 99.6 112.6 122 130.6 138.1 144.4 150.6 162.8 174.7 179.4 180.1 175.9 172.7 171.3 175.2 171.7 161.1 162.1 179.2 143.8 144.4 135.1 125 119.8 115.5 112.7 111.1 111.3 110.6 107.3 103.2 95.3 88.2 82.9 77.6 73.2 71.9 70.3 66.1 65.2 64 63.3 63.8 63.7 62.8 63.1 63 63.4 64 63.5 65 65.8 66.4 66.5 66.6 66.7 66.7 66.5 65.7 65.1 65.2 63.7 63.8 63.6 63.4 64 64.6 65.1 65.4 65.3 64.9 64.9 64.9 64.9 64.9 64.8 65.1 65.3 65.6 66.3 67 67.6 67.2 67.8 67.8 67.9 67.3 67.4
148.5 149.6 147.7 147.5 144.4 141.9 136.2 134.7 138 137.9 137.9 137.7 136.7 137.3 138.8 139.2 140.3 143.6 145.3 146.1 148.1 148 148 145.2 148.8 151 155.2 158.9 161.5 165 171.5 179 186.1 197.6 207.4 209.9 206.6 199.8 192.4 185 176.8 168.8 156.8 144.7 136.9 133.3 130.8 128.4 126.7 125 123.4 123.3 119.9 116.2 111.2 110.4 108.6 110 112.4 110 110.6 105.2 95.8 99.5 107.9 112.8 114.6 117.2 120.5 121 120.9 120.2 119.7 119 118.4 118.7 118.2 119.1 116.6 113.8 111.1 107.2 104.6 102.7 105.2 106.6 107.8 108.3 106.7 102 97.3 93.1 86.7 79.4 75.9 71.7 74.3 74.7 75.3 75.3 73.5 75 75.6 76 76.3 76.8 80.7 79.8 81.4 84.3 87.3 90.2 93.8 101.2 112.3 123.1 135.3 138.5 140.6 147.2 151.9 153.7 157.4 159.1 156.2 154.6 157.1 159.8 159.5 154.2 153.1 143.1 134.4 122.8 117.4 113.3 109.3 107.8 105 102.4 100 94.9 88.7 82.3 78.3 74.8 72 74.8 68.5 66.7 66.6 66 65.4 64.5 63.3 63.1 63.2 62.9 62.8 63.2 63.1 64.2 63.8 64.4 66.1 66.6 66.7 66.8 66.8 66 65.2 64.9 65 63.6 63.3 62.9 64.8 64.7 64.8 65.2 65.6 65.4 64.7 64.7 64.7 65 65.4 65.5 65.6 65.8 66.1 66.8 67.5 67.5 67.2 67.9 67.8 66.9 66.1 66.6
140.8 139.7 139 140.6 138.3 135.7 132.6 131.3 129.5 128.7 129.6 128.1 128.8 130.6 132.8 133.2 134.7 136 139 141 142.1 143 143.9 143 139.4 145.6 149.1 153.1 156.4 160.5 164.9 174.8 186.8 203.2 214.8 214.2 210.2 204.6 198 188.9 179.7 170.7 161.9 149.6 140.6 134.9 130.9 128.3 125.4 122.7 122.1 122 121.6 117.6 117.1 115.7 112.3 104.1 102.6 102.4 102.5 98.8 94.5 95.1 104 107.5 110.4 113.3 116.3 117.1 117.1 115.9 114.6 113.2 112 111.7 112.1 112 111.7 110.2 108.4 106 102.9 101.4 105 107.3 107.9 107.7 105.6 101.3 95.9 90.2 84.8 76.1 73.7 71.6 74.2 74.9 75.5 75.1 74.4 72.9 74.8 75 76.1 79.4 77.3 79 79.6 83.8 85.2 87.4 88.6 94.6 105.9 117.8 127.1 128.4 130.4 129.3 134 137.1 138 136.6 135.9 136.3 136.8 144.3 153.2 143.8 127.4 123.2 117.9 114.3 108.9 105.6 101.2 98.2 97.3 93.8 89.9 84.8 79.4 75.4 72.5 71.3 72.4 68.9 67.1 66.1 65.7 65.3 65.3 64.4 63.6 63.3 64 63 62.7 63.1 63.9 64.1 64 64.6 65.7 66.4 66.7 66.9 66.3 65.3 65.3 65.4 65.3 64.6 63.1 63.7 64.1 64.3 65.2 65.6 64.7 64.4 64.5 64.9 65.3 65.7 66.1 66.3 66.3 66.4 66.7 67.3 67.3 67 67.5 67.6 67.4 66.7 67.2 67.5
135.2 135 135.6 137.3 138.8 138.5 134.9 131.7 129.1 126.7 125.7 122.3 119.4 123.4 126 127.5 129.1 130.2 131.6 133.2 135.1 137.1 137.5 137 134.7 139.9 145.2 149.2 152.2 156.7 160.9 173.7 191.4 211.3 214.6 212.1 206.3 199.5 191.4 185.7 176.4 168 161.2 154.3 147.6 140.9 134.6 130.4 126.8 124.8 123.7 121.1 118.7 117.3 118.1 118.2 117.2 109.8 102.9 99.6 97.5 96 94.9 92.7 95.9 99.8 104.9 107 109.8 111.2 111.8 111.9 110.9 108.7 106.7 105.6 104.9 104.9 104.9 105.8 105.8 104.5 103 97.5 101.3 102.8 102.2 101.6 100.8 97.2 93.1 87.6 81.5 74.1 72.7 73.4 73.9 74 72.9 71.7 73.6 73 74.8 75.2 77 77.1 76.8 77.8 77.7 75.9 79.5 82.9 84.6 89.4 100.9 110.5 116.9 113.5 118.6 118.3 118.8 120.6 121.1 120.8 121.2 119.2 119.1 119.1 120.4 118.2 114.7 111.8 107.7 103.9 99.2 96.8 94.8 93 90.8 87.2 84 80.8 76.6 72.4 69.9 68.7 70.4 67.4 66.4 66 65.5 65.9 65.2 64.3 64 63.5 63.7 63 63.7 62.6 63.5 63.9 64 63.6 64.1 65.5 66.5 66.8 65.6 65.6 65.8 65.9 65.2 64.6 63.6 63.7 63.4 64.7 65.6 64.8 64.9 64.3 64.7 65.2 65.6 66 66.4 66.5 66.7 67 67.2 67.3 67.6 67.7 67.7 67.2 67 67.7 68.2 67.9
128.1 129.2 130.5 131.3 132.4 135.3 134.6 132.2 131.5 128.9 126.3 123.7 113.4 119.7 121.6 123.2 125 126.4 127.3 125.9 121 123.4 125 126.3 135.2 140.6 143.6 146.3 148.9 154.8 163.8 185.4 196.8 211 217.3 212.9 204.7 194.5 185.8 180.3 173.4 167.2 162.7 159.3 156.1 151.4 141.1 135.2 131.1 128 126.1 126 124.8 122.7 121.1 118.7 114.5 111.3 107.6 106.9 106 102.7 101 97.5 92.3 91.6 94.2 100.1 104.3 104.4 104.3 105.2 106.2 104.5 101.7 100.3 99.4 98.4 97.4 98.7 101 100 98.5 93.8 96.3 96.8 98 97.3 96.7 95.1 91.2 85.7 72.9 72.1 72.7 73 70 72.1 75.5 76.8 75.3 74.9 75.2 77.2 76.9 76.6 76.4 76.4 77.6 74.4 75.5 77.2 78 82.2 88.9 92.5 98.4 102.3 105.8 107.9 109.6 109.2 109.9 110.6 111.1 107.7 107.6 107.8 107.5 106.2 103.9 101.1 97.9 96 92.1 92.3 91 89.9 88.7 87.7 84.7 81 75.1 71.1 70.2 72.5 68.6 67.5 66.6 66.1 66.5 66 65.1 65.1 64.5 64.6 64.3 63.1 63.1 62.9 62.4 63 63.6 63.6 62.9 64.3 65.6 66.3 66.4 65.9 65.9 64.8 65.3 64.8 62.9 62.7 64 65.7 65.3 64.8 65.1 64.4 64.9 65.4 65.9 66.3 66.6 66.7 66.8 67.3 67.2 67.3 67.4 67.5 67.5 67.3 67.7 68.8 68 67.3
120.9 122.9 123.4 123.2 125.1 126.9 126.5 124.5 124 123.3 120.6 119.9 113.7 112.5 117.7 117.4 116.1 113.4 112.8 110 113.4 124.3 123.9 131.1 134.8 137.3 139.6 142.5 144.9 155.3 171.7 190.4 206.3 216 216 210.4 199.9 190.9 184.5 178 170.2 165.3 162.6 160.4 157.8 154.2 150.7 142.8 137.3 133.3 131.2 132.6 131.6 128.9 124 120.1 116.2 113.6 110.1 107.8 104.5 102.4 101.2 99.2 95.1 90.6 88.7 93 96.1 97.2 98.7 100.3 100.9 99.5 97.6 95.7 94.6 93.3 91.3 93 95.4 94.8 93.3 90.7 91.5 93.3 95 95.3 93.8 93.3 89.1 81.8 72 70.3 69.7 72.2 72.7 74.3 74.6 74.7 75.2 75 75.6 76.6 76.4 76.1 76 75.9 76 77.3 74.6 75.2 77 79.3 82.7 85.9 89.9 92.1 94.8 96.4 99.4 98.9 101.5 103.2 102.1 100.8 101 101.9 100.5 99.2 99.3 97.8 96.7 95.9 92.5 89.4 88.4 91.4 94.4 91.1 85 78.6 73.7 71.3 73.3 69.2 68.6 68.1 67.5 67 67.4 65.9 65.2 66 66.2 66.4 66.1 64.6 63.3 63.1 63.8 62.9 63.3 63 63.1 63.4 65.2 65.3 65.5 65.7 65.6 64.9 65.2 65 63.5 63.1 65.1 64.8 65.5 66 64.8 65.1 64.8 65.6 66.1 66.6 66.9 67 67 67.1 67 67.1 67.2 67.2 67.3 67.5 68.8 68.5 68 66.7
112.6 113.6 113.5 114.4 116.3 115.5 116.1 116.5 116 115.4 115.8 115.4 114.2 104.4 110.9 109.5 104.7 101.1 116.4 126.5 130.7 130.5 128.2 128.4 131 133.4 135.7 137.2 139.6 155.3 172.8 189.5 203.2 205.3 207.4 202.4 193 189.2 180.3 174.6 167 162.9 160.6 159 157.9 156.1 153.1 149.8 145.1 141.5 138.5 138 137.4 134.5 129.5 124.7 119.9 114.3 110.7 107.2 103.9 101.8 100.4 98.8 96.9 93.3 89 87.3 93.4 96.6 98.2 99.9 100.6 99 96.3 97.2 96.9 95.6 92.7 89.6 89.9 91.1 90.2 88.8 87.5 87.1 86 86.6 87.4 86.3 83.5 69.7 70.6 71.6 71.6 71.4 71.7 74.4 73.7 74.3 74.8 75.1 75.6 78.3 76.4 76.9 78 74.8 74.7 75.4 74.5 75.9 77.7 79.9 82 83.8 85 85.4 87.4 89.1 91.2 95 98.9 101.9 103.6 105.9 108.6 109.3 106 104.9 103.7 99.5 97.3 97.1 91.9 87.3 86 87.3 90.2 90.6 87.3 78.5 72.6 75.2 71.9 69.4 69.1 68.6 68.1 67.3 67 67.1 66.1 65.3 66.4 66.8 66.7 65.8 63.8 63.8 62.6 62.5 62.5 63.5 63.3 62.9 63.6 65 65.2 65.4 65.4 65.2 65.2 65.2 63.6 64.3 65.2 64.6 65.9 65.6 64.7 65.8 65.6 65.2 66 66.8 67 67 67 66.9 66.9 66.9 67 67.1 67.2 67.4 68.3 67.7 67.1 66.5
106.8 106.8 106.3 107.8 107.8 107.1 104.6 105.8 102.9 105.2 106.7 107.1 107 105.3 102.8 106 97.6 115.6 121.4 125.8 128.1 129.1 128.7 126.4 127.2 130 131.6 131.6 132.8 147 161.4 174.6 184.7 189.6 188.5 187.4 182.5 176.3 172.4 167.7 163.5 161.8 163.5 162.4 160 156.5 152.7 150.2 147.1 146.6 142 138.9 137.4 134.1 131.4 125.9 121 116.3 112.2 109 105.1 102.5 100.6 98.4 97.2 94.1 89.7 86.1 88.6 92.8 93.4 96.1 99 100.9 100.4 100.1 99.4 97 93.6 89.4 86.4 85.5 87.3 85.3 84.5 83.3 82.8 82.5 82.7 82.4 68.6 71.9 71.3 70.4 71.4 71.3 74 74.2 73.5 73.9 74.4 74.9 76.8 80.4 80.9 80.8 77.8 74.8 74.4 75.1 75.1 76.6 79.4 82.1 82.8 83.5 85.1 87.7 89.9 99.4 100.8 102.7 104.1 105.6 108.2 110.9 112.9 116 120.6 125 112.1 101.2 92.7 90.3 85.1 85.6 84.9 85.9 83.2 79.8 78.7 75.8 74.4 71.5 69.8 69.5 69.2 68.9 68.6 67.3 66.5 66.6 67 64.7 65.3 66.5 67.2 67 65 63.5 63.2 62.7 62.6 63.6 63.3 63.1 62.7 63.3 65 64.9 64.6 65.8 66 65.3 62.9 64.3 64.1 64.5 64.6 64.6 65.3 66.6 66.4 66 65.6 66.2 65.6 65.4 65.2 65.7 66.7 66.8 66.9 67.1 67.2 67.1 67.8 67.1 66.8 66.4
103.2 102.2 101.4 101.2 99.6 97.8 97.3 97.6 96.5 97.7 98.8 99.7 101 100.4 101.5 99.3 99 112 118.1 123.3 128.4 131.4 131.2 130.3 130 127.4 127.1 125.1 127.1 136.2 148.7 158.7 167.8 172.9 174.7 174.5 172.8 170.5 167.5 164.9 162.9 162.9 169.6 173.2 171.8 166.9 163.8 159.2 153.2 149 144.6 142 137.8 136 132.1 130.2 127.1 123.5 117.8 112.9 108.4 104.4 102.6 100.1 97.4 94.7 90.6 87 83.7 89.1 89.2 90.2 91.8 94.5 94.8 95 93.8 91.1 88.5 85.8 83.9 82.8 82.4 82.4 82.7 82.4 81.7 81.2 81.1 75.9 70.6 70.7 70.9 70.4 70.8 73 74.1 73.8 73.6 73.6 74.1 74.7 78.8 80.9 81.1 81.2 80.9 78 77 76.5 77.7 79.7 81.6 82.5 84.7 88.8 95.6 99.3 94.7 101.3 102.9 102.5 103.4 104.4 106.4 108 109.4 112.7 115 116.5 107.8 100.4 92.5 88.3 85.1 83.9 86.1 85.5 84.7 81.7 77.3 74.7 72 70.6 69.9 69.5 69 68.7 68.4 67.6 66 65.1 67.8 64.5 64.7 65.5 67 67.2 65.2 63.7 63.5 63.2 62.4 62.7 63.1 62.9 61.8 62.2 63.9 63.8 64.1 65.5 66.4 65.3 62.9 63 64.7 63.5 63.6 63.7 63.8 65.7 65.5 65 65.1 65 64.2 64.4 64.5 64.6 66 66.7 66.9 67.1 67.2 67.3 67.2 67 66.7 66.3
98 95.7 95.3 94.3 90.8 88.5 89.4 90.5 90.9 90.3 91.7 94.3 95.8 95.2 95.2 93 102.4 107.2 113.2 117.8 122.4 126.2 129.3 131.7 132.7 128.6 123.1 117.9 120.3 125.5 131.5 140.7 150.1 161.9 169.5 171.6 172.1 171.7 171.4 169.7 166.8 165.5 173 176 174.9 171.7 168.5 167.2 163.1 158.2 154.1 147.4 143 141.6 138.4 135.3 132.2 128.8 125 119.2 113.4 109.2 103.8 103.5 97.6 93.4 88.6 86.2 81.8 86.9 87.6 87.1 86.4 86.8 87.2 87.2 86.4 85.5 84.1 83 81.7 80.6 79.8 80 81 81.7 81 80.3 80.4 70.8 70.8 70.6 70.8 72.1 72.5 72.5 73.2 73.4 73.2 73.3 73.9 74.9 80.4 80.6 80.7 80.9 81.1 81 81.3 80.8 80.6 80.9 81.7 84.1 87.9 92.2 95.1 96 92.2 96.9 98.5 99 99.3 99.7 100.3 102.4 104.8 107.5 109.1 106.6 100.3 90.2 86.9 85.7 83.7 83.1 86.3 83.8 80.1 77.7 77.1 74.9 72.6 70.3 70 69.8 69.5 68.9 67.6 65.7 65.6 65.5 67.7 65.2 65.2 65.9 66.8 67 65.4 63.9 64.1 63.5 63.4 62.7 62.9 62.3 62 61.9 62.9 62.7 64 65.1 65.7 65.7 63.2 63 62.9 63.3 62.9 63 63.1 63.4 64 63.6 63.9 63.9 64.6 64.3 64.4 65.1 64.8 66.6 66.8 66.9 67.1 67.4 68.2 66.9 66.6 66.2
88.2 84.8 86.3 84.9 83.9 83.9 86.3 86.1 84.5 84.6 86.9 89 91.2 91.5 91.6 93 99 103 107.3 111.9 116.2 120.2 123.3 124.7 125.5 124.8 121.8 116.1 113.4 118.4 120.9 125.3 132.4 140.3 145.5 153.4 159.7 164.5 170.1 173.8 171.6 170.3 170.7 172.4 172.6 173.1 174.4 173.6 170.6 166.5 161.4 155.4 148 143.3 139.8 136.7 132.9 129.6 125.9 120.9 115.3 108.8 103.5 97.1 92.1 88.3 86.6 85.1 81.1 84.8 85.1 84.7 84.6 83.8 81.7 81.2 82.3 82 82.3 81.3 79.8 78.5 78.5 79.4 79.4 80.5 80.3 79.7 80 69.9 70.6 70.6 70.8 72.1 72 71.8 73.2 75 74.5 74.2 74.3 75.4 80 80.3 80.6 80.9 81.2 80.7 79.7 79.4 79.8 80.9 81.8 84.1 87.9 89.6 89.9 89.1 89.1 89.3 88.3 90.4 92.5 93.3 95 98.8 102.6 104 103.9 102.6 93.7 86.6 83 81.7 80.5 78.9 78.8 80.5 78.3 76.7 75.2 74.3 71 70.5 70.4 70 69.4 68.5 67.7 67.1 65.4 66 64.5 65.5 64.4 64.3 65.5 65.8 64.9 64.9 63.8 63.6 62.8 62.2 63.2 62.9 62.6 62.4 62.1 63 63.5 64.2 64.9 65.6 63.8 63 62.8 63.3 63.1 62.7 62.7 63.2 63 62.9 62.9 62.6 62.9 64.2 64.1 64.4 65 65.7 66.5 66.5 66.6 67.2 67.1 66.5 66.2 65.8
83.9 83.5 83 82.9 83.3 83 82.8 82.2 82.1 82.5 84.9 86.7 87.9 89.8 89.4 92.1 96.7 99.2 101.4 105.1 109.5 113.9 116.8 118 117 117.1 118 113.5 109.8 111.8 113.1 115.6 118.7 123.8 128.5 138.8 145.3 150.7 157.5 166.3 170.3 170.5 171.7 173.3 174.5 176.4 178.3 178.1 174.3 169.4 163.6 155.5 150.5 143.8 138.3 133.9 127.9 124.3 120.8 116.7 111 104.2 96.5 90.2 87.7 85.7 84.3 83.3 80.6 83.3 84 84.1 83.8 83.5 79.1 74.9 77.3 79.1 80.2 79.4 77.8 77.2 78 79.1 79 79 79.3 79.1 78.3 68.7 70.4 70.6 70.8 72.9 71.6 72.1 72.7 74.5 75.8 76.5 77.3 79.7 79.6 80.1 80.6 81 81.4 81.2 79.2 75.6 75.5 77.4 80.7 82.1 82.7 84 84.7 84.3 85.8 86.4 84.7 83.2 84.4 85.1 87.9 93.9 97.8 97.9 98 95.7 87.6 81.2 81.9 81.1 78.3 76.9 77 75.8 76 74.7 73.4 73.1 70.1 71.2 70.9 69.4 67.8 67.5 67.9 65.5 65.4 65.4 64.4 65.9 64.8 65.1 64.3 65.1 63.4 63.1 63.9 63.6 63.1 62.1 63.4 63.1 62.7 62.5 63 63.2 63.2 63.6 64.2 64.9 64.4 63.2 63.1 63.3 63.2 63 63.2 62.2 63.1 63.1 62.6 62.3 62.9 63.1 63.3 64 64.5 63.3 65.2 66 66.1 66 65.9 65.8 65.6 66.2
83.6 83.1 82.9 82.4 83.4 83.1 82.7 82.1 81.4 82 82.8 84.8 86 86.4 87.1 88.7 90.3 94.2 97.7 100 103.2 107.7 109.2 112 108.7 109.2 109.7 109.9 108.2 108 108.9 110 112.4 116.2 122 129.8 138.7 145.6 150.2 153.2 157.4 159.9 163.3 167.2 172.4 175.2 176.5 175.3 171.4 165.5 158.3 150.5 143 136.8 131.1 126.4 122.1 118.2 114.1 108.4 101 94.5 90 87.2 85.1 84.2 83.5 79.8 80.7 82.9 83.5 82.8 83.6 83.1 82.3 76.6 74.7 76.7 79.3 78.9 78.5 77.4 78.1 78.8 78.5 78.2 74.7 74.3 71.8 70.1 69.8 70.3 70.7 70.9 71.2 71.8 71.4 73.7 76.3 76.2 78.7 79.6 79.7 80 80.4 80.8 81.2 80.2 79.7 78.6 77.8 77.9 80.4 80.3 80.9 81.3 81.4 81.7 81.8 82.3 81.5 80 79.5 81 81.3 82.7 85 84.8 83.7 82 79.5 78 80.4 77.4 76.6 75.9 75.5 75.2 75.2 74.8 73.1 69.8 70.7 69.4 68.5 68.7 66 66.5 65.3 65.1 65.1 65 64.2 65 65.4 64.8 65.1 64.2 63.8 63.1 64.3 64 62.9 62.9 62.9 63.1 62.9 63.3 62.9 63 63 63.3 63.8 64.4 63.8 63.4 62.7 63 62.8 61.7 62.3 63.5 63 63.2 63.5 62.7 62.9 62.9 63.4 64.2 64.4 63.5 63.7 65.1 65.2 65 65.1 65.8 65.3 65.4
83.9 83.4 82.9 82.4 83.4 83.1 82.6 82 81.4 81.6 82.5 83.4 84.4 84.6 85.7 85.6 84.6 85.4 88.3 93.9 97.6 101.6 102 101.8 102.3 102.8 103.6 106.8 106.7 105.5 106.2 107.6 109.1 111.5 118 125.6 133.5 140.2 145.2 149.1 152.5 155.4 158.2 163.6 172.7 174.2 174.7 172.1 166.7 159.3 151.7 143.8 136.6 130.8 125.5 121.5 117.1 111.7 104.5 99.6 95 90.1 87.1 85.2 84.4 83.6 82.8 78.3 80.4 80.9 77.8 79 77.9 74.9 71.3 70.6 70.8 77.1 78.5 78.2 78.4 78.1 76.9 77.4 77.2 75.1 74.2 74.3 70.7 68.9 69.6 69.8 71.4 70.4 70.9 71.5 71.4 71.8 73.5 75.9 78.8 79.7 79.9 80.1 80.4 80.8 80.8 80.8 80.7 80.3 78.2 79.4 77.8 77.9 78.9 78.8 78.5 77.9 78.1 78.7 79.1 78.9 78.7 79.4 81.5 79.8 77.7 76 75 75.8 77 77.1 76.8 76.4 76.9 75.5 75.4 74.9 75.6 74.3 71.4 69.3 70 70.2 69.2 68.7 65.1 65.9 65.9 65.2 65.1 64.9 64.8 64.5 65.4 64.1 63.9 64 64.4 62.7 62.8 62.7 63.2 62.9 62.8 62.1 62.9 62.5 62.2 62.9 62.9 63.1 63.4 64 69 62.9 63.6 62.6 62.8 63 63.2 63.5 63.5 64 63.3 62.4 62.7 63.4 63.6 64.4 63.7 63.5 62.8 63.7 64.6 65.9 65.5 65.4 65.2 64.2
83.8 83.3 82.8 82.3 83.5 83.1 82.5 81.9 81.3 81.2 82.1 82 82.7 83.7 83.7 84.3 82.9 83.8 83.8 87.4 93.3 96.4 96.5 97.6 99.5 100.1 101.7 103 104.4 106 107.4 107 107.5 109.2 116.5 124 133 139.4 144.6 148.1 150.7 152.6 153.1 156.6 164.6 166 167.4 163.7 159.7 152.8 144.6 137.1 131.3 125.7 120.5 116 112.9 106.7 98.8 94 91.5 88.5 85.5 84.1 83.7 83 81.6 78.8 74.8 75.4 73.1 73.4 73.4 71.1 70.4 70.6 70.2 69.8 77.3 78.6 78.1 77.7 76.8 76.3 74 73.5 73.6 73.7 71.7 69 69.7 70.2 70.7 69.8 70.4 71.1 71.2 71 71.6 76 78.3 79.8 80.1 80.2 80.5 80.6 80 80.1 80.4 80.1 75.8 73.3 73.2 73.6 73.8 75.4 76 76.7 76.9 76.7 77.2 77.5 77.6 78 78 77.5 75.7 74.6 74.9 75.1 75.9 75.5 76.4 76.4 75.4 75 75 75.3 75.2 73.5 72.7 69.5 68.9 69.1 69.3 68.9 66.2 65.5 65.6 65.4 65.1 65 66.1 65.6 65.6 63.8 63.3 63.4 63.7 63 63.1 63.3 63.2 62.5 63.1 62.7 63.5 63.1 63 62.9 62.7 63.4 64.8 65.5 65.5 63.3 63.9 62.9 63.1 63.2 63.4 64.3 64.4 63.9 62.9 62.9 62.4 63.2 63.7 64.2 62.9 62.6 62.5 63 64 64.8 64.5 63.4 63.6 63.7
83.3 83.2 82.7 82.3 83.4 83 82.4 81.8 81.2 81.8 82 82.6 82.9 82.7 82.5 84.3 82.8 83.8 83.8 86.8 90.3 91.8 94 95.5 99.5 103.1 106.3 108.5 109.9 111.4 110.9 110 107.7 108 115.2 122.6 129.4 134.8 142.1 147.4 151.1 152.8 150.2 149.3 150.1 151.7 153.6 154.1 151 145.9 139.3 132 126.6 121.6 116.5 112.5 108.9 102.6 95.9 92.2 90.1 87.3 85.5 84.5 83.4 81.7 81.1 80.2 73.3 72.7 72.1 71.2 70.9 70.2 70.1 70.6 70.1 69.4 68.9 69.1 70.9 76.8 75.2 75.3 73.1 73.2 73.1 73.1 72.1 70 68.8 69.5 70.5 69.4 69.8 70.3 70.5 70.3 70.3 74.5 77.8 79.5 79.8 80.1 80.3 80.3 80.2 79.9 79.6 79.3 79.1 77 76.1 77.9 77 78.2 78.4 78.8 77.2 76.9 76.6 77.3 77.7 77.8 77.7 77.6 76.1 75.4 75.8 74.1 75 75.1 75.6 75.1 74.9 75.2 74.6 75 74.9 72.9 72.1 72.3 72.9 70.2 66.8 65.7 65.6 65.5 65.1 65.3 65.5 65.6 65.2 65.6 65.2 63.9 64.3 64 63.3 63.8 63.4 63.4 63.1 62.8 62 63.4 62.5 63.8 63.7 63.5 64.1 64.9 65.4 66.1 65.7 63.5 63.7 63.2 63.7 63.6 63.5 63.2 63.3 62.7 62.6 63.3 61.1 62.9 63.9 64.2 64.1 62.7 62.3 62.3 63.5 63.6 61.8 61.4 61.5 61.4
83.2 82.6 82.3 81.9 81.7 81.3 82.2 81.7 81.5 81.7 82.1 82.5 82.4 81.9 81.4 81.2 81.9 84.5 84.6 85.6 87.4 90.1 94.1 98 102.4 106.7 110.6 114.8 115.9 113.7 111.5 108.1 105.8 109.1 114.3 121.2 124.9 131.9 139.2 142.1 145.9 144.4 142.4 144.4 143.5 142.4 142.5 139.9 136.4 133.5 130.8 126.1 121.6 116.1 112 108.1 104.9 99.5 95.2 91.6 89.4 88.4 86.7 86.4 85.1 82.5 79.3 72.7 71.9 71.7 71.2 70.4 69.8 69.4 69.7 70.7 70.2 69.8 68.7 68.6 69.1 69 68.8 72.4 71.6 72.1 71.8 72 68.2 68.6 68.7 70.1 70.8 69 69.3 69.5 69.7 70.2 71 75.4 77.6 79.2 79.4 79.6 79.8 79.6 79.4 79.1 78.8 78.7 79.8 79.4 78.9 78.5 78 79.5 79.8 78.4 77.2 76.8 76.9 74.2 73.9 76.6 77.1 77 76.3 75.3 74.3 74.1 74.4 75 74.7 74.2 75.6 75.5 74.8 75 74.1 73.2 71.7 70.3 64.8 63.5 63.5 64.5 65 65.1 65.2 65.4 64.5 65.8 65.2 65.2 64.4 63.7 64.4 64.8 63.6 63.2 62.7 62.4 63.7 63.7 62.5 63 63 63.1 63.7 63.8 64.8 65.5 66 66.6 65.8 63.6 63.4 63.5 64 64.5 63.8 63.7 63.3 62.6 62.6 62.2 62.3 62.7 64 64 63.4 62.8 63 62.5 62.6 61.4 61.2 61.2 61.2 61.2
82 82.2 82.1 82.6 82.5 82.3 80.7 81.1 82 81.7 82 82.2 81.9 81.5 80.8 80.6 80.7 83.7 84.7 83.4 85 93.2 96 99.5 104.9 109.7 114.9 119.9 123 122.1 118.3 112 104.1 112.2 114.3 117.2 122.6 130.5 137.4 136.7 134.9 131.7 128.9 133.1 135.3 130.2 137 136.9 134.7 129.7 124.6 118.6 113.2 109.6 105.3 101.1 100.5 97.7 98 93.2 89.6 88.6 87.7 86.8 85 84.2 79.5 71.5 71 70.6 70.3 69.7 69.4 69.1 69.1 69.9 70.5 70.3 68.6 69 70.3 69.3 68.5 68.3 69.7 71.4 67.9 68.2 68.7 68 69 69.4 68.7 69 69 69.4 70.2 70.6 70.9 75.9 79.1 79.3 79.4 79.4 79.4 79 78.9 79 78.8 79.3 79.5 79 78.4 79.1 77.7 78.4 76.6 76.9 76 75.1 77.1 74.6 73.9 75.6 76.4 76.6 74.8 74.1 74.2 74 73.9 75 74.9 73.3 74.9 74.5 74.6 74.4 73.2 71.5 65.3 66.4 63.5 63.9 63.8 63.5 64.7 64.4 64.6 64.9 64.8 64.8 65.6 64.9 64.2 63.8 64.3 64.8 64.9 64.7 63.9 62.3 62.5 62.5 62.7 62.6 62.6 63.6 63.6 63.5 65.4 66 66.6 67.3 66 63.8 63.2 63.7 64.1 63.9 64.1 63.5 62.7 62.7 62.6 62 62.6 62.3 63.2 63.7 62.7 62.9 63.5 62.6 61.5 61.4 61.5 61.1 61.1 61.1
82.6 82.5 82.6 83 83.2 82 80.9 81.6 81.7 81.7 81.8 81.9 81.5 81.3 80.5 80 80.6 80.5 81 81.3 82.6 92.1 96.3 100.7 106.5 112.5 119.2 124.9 130.2 131.7 128.7 120.3 108.9 103.6 106 114 119.2 126.2 133.2 132 127.1 120.2 118.1 118.1 116.5 117.3 120.4 122.5 124.6 120.9 117.8 112.5 106.8 103.1 101 99.6 102.5 101.2 102.1 95.4 90.4 88.1 86.8 86.3 85.3 83.9 75.2 71 70.9 71 70.3 70.1 69.7 69.3 68.9 69.1 68.6 69.7 70.4 68.9 68.9 67.9 68.1 68.4 68.4 68 68.9 68.7 68.6 69.2 69.3 68.5 68.8 69.1 68.8 69.4 70.6 70.7 70.6 70.8 80.5 79.8 79.8 79.8 79.5 79.6 78.6 79.1 79.3 78.7 78.8 78.3 77.3 78.4 78.6 76.2 72.3 69.8 71.5 75.7 78.2 76.8 77.2 76.6 76 74.6 75.3 73.6 74 73.9 74.7 74.6 74.7 71.5 71.7 74.5 72.6 68.4 64.7 64.1 63.6 66.3 64 63.6 63.5 63.4 63.4 64.3 65 64.6 64.7 64.8 64.9 65.8 64.9 64 64.1 64.1 64.8 65.1 64.4 62.9 64 62.7 62.7 63 64.1 64.4 63.9 64.7 66.1 66.6 66.7 66.9 65.9 64.2 62.5 63.7 63.8 63.3 63.2 63.4 62.7 63.1 62.3 62.8 62 62.3 62.9 63.3 62.9 62 62.6 62 61.3 61.1 62.1 61.6 61.1 61.3
83.2 82.9 82.8 84 83.7 83 82 80.9 81.4 81.2 81.5 81.5 81.3 81.1 80.9 81 80.7 80.6 80.7 80.5 81.8 90.8 97.1 102.6 108.7 114.9 122 134.1 146.1 150 143.1 132.3 115.6 102.7 103.4 108.5 114.2 112.8 113.3 114.5 113 108.6 110.4 112.6 112.4 111.7 111.9 112.4 111.3 110.6 108.6 105.8 103 101.4 99.4 98.4 100.8 99.6 97.6 92.4 88.8 86.6 85.9 85.5 85 83.7 74.3 71.8 72 71.4 70.6 70.5 70.3 70 69.8 68.9 69 69.2 68.7 67.7 68.1 68.9 68.8 69 68 67.4 67.8 69.2 69.6 69.1 68.5 68.8 68.5 68.7 68.7 69.4 70.6 70.4 70.1 70.4 76.5 78.1 78.2 78.5 79.2 78.3 78.4 78.5 78.5 78.4 78.1 75.3 74.2 77.5 78 75.9 71.5 70.1 75.1 77.2 77.5 75.8 75.4 75.2 74.1 74.1 74.3 72.6 72.1 72.9 73.2 73.7 73.5 66 67.4 63.8 64.2 64.1 64.2 63.7 65.5 64.8 63.7 63.4 63.3 63.3 63.8 65.1 65.3 64.8 65 65 64.9 64.9 64.8 64.6 64.5 64 64.2 64.2 64.7 64.1 64.7 64.5 64.2 64.7 64.9 65.1 65.2 66 66.2 66.3 66.5 66.6 66 64.7 63 62.9 63 63.3 63.4 63.6 62.9 63.1 62.5 62.8 62.3 61.1 62.5 62.9 62.8 61.2 63 61.6 61.4 61.3 61.1 61.5 61.1 61.5
84.2 83.1 82.8 82.5 82.4 82 82.2 81.1 81.3 81.2 81.4 81.4 81.2 81.1 80.9 81 80.9 80.9 80.8 80.5 83.4 94.9 99 104.3 110.8 117.5 133.4 152.2 167.5 164.4 155.9 144.2 128.2 108.5 99 100.6 102.8 108.2 108.3 106.3 102.7 100.5 99.6 101.6 104.4 107.1 108.8 109 108.3 107.4 106.1 102.4 100.3 101.4 99.3 98.4 97.4 94.9 94.1 92.1 87.7 85.8 84.8 85.1 84.6 82.8 74.5 72.1 71.9 71.6 70.9 70.8 70.9 70.6 70.4 68.9 68.9 69.2 67.5 69.1 68.3 68.1 68.4 68.7 68.8 68.5 68.3 69.3 68.8 68.2 68.3 68.2 69 68.8 69.4 69.7 70.5 70.2 70.2 70.3 77.4 77.5 77.8 77.8 77.5 78.1 78.1 78.2 78.3 78.2 78 77.9 77.7 77.1 77.1 77 76.8 76.2 76.4 70.1 75.4 74.6 73.9 74 72.3 72.9 70.5 68 67.8 67.9 70.5 73.1 71.3 63.5 68.9 63.9 63.4 65.2 65.8 66.1 65.9 64.1 63.4 63.1 63.5 64.1 64.4 65.1 64.4 64.9 65.1 65.2 65.4 65.5 65.3 65 63.8 64.1 64.2 64.3 64.3 64.4 64.9 65.1 63.9 65 65.2 65.4 65.5 65.6 65.8 65.9 65.9 66 65.5 64.4 62.9 62.5 62.1 63.1 63.2 63.3 63.1 62.9 62.3 62.5 62.3 61.2 62.2 62.5 62.1 61.6 60.7 62.3 62.1 61.8 61.2 61.4 61.7 61.7
85.3 84.3 83.2 82.2 82.1 81.4 82 83 84.2 83.6 85.1 84 82 81.7 80 80.5 80.8 79 80.1 80.4 85.6 97.5 101.3 106.9 115 129.3 148.5 167.8 178.3 171.6 160.9 147.4 132 116 101.9 96.5 94.9 94.4 94.6 94.5 93.1 93.7 95 97.3 100.5 103.6 105.6 105.8 106.8 106.9 104.6 98.4 95.6 97 98.2 96.2 94.1 91.5 90.1 88.6 86.5 85.1 83.6 84.3 84.3 80.9 75.3 72.9 71.8 71.5 71.2 70.9 69.5 69.2 68.7 68.7 68.8 66.9 69 68.8 67.4 67.7 68 68.4 68.5 68.6 66.5 69.3 68.7 68.4 68.8 68.6 69.8 70.2 70 69.8 70.2 70.3 70.3 72 76.8 77 77.3 77.1 77 77.8 77.9 77.9 78.1 78 77.8 77.2 76.9 76.8 76.8 76.7 76.2 75.2 74 74.6 72.2 68.1 72.3 70.1 68.6 67.6 68 67.2 66.9 66.6 66.3 67.9 69.4 65.8 68.3 64.7 65.2 64.2 65.2 65.3 64.4 64.1 64.3 63.8 64 65 65.4 64.2 63.5 65 65 65.1 65.9 66 65.8 65.5 65 64.2 64.3 64.3 64.4 64.5 64.2 65.1 64.4 64.7 65.1 65.5 65.4 65.2 64.4 64.9 65.2 65.3 64.8 63.9 62.8 62.9 63.2 63.3 63.3 63.3 62.8 62.2 62.8 62.2 61.2 62.3 62.2 62.2 61.4 61.4 61.4 61.6 61.7 61.4 61.3 61.6 61.9 61.7
83.8 82.4 81.7 81.7 83.5 84.5 84.5 85.9 88.1 94.9 98.2 96.3 86.5 82.2 81 79.8 79.6 80 78.1 84.6 90.5 95.9 101.9 107 121.9 140.9 160.4 180.6 178.1 168.7 154.7 141.3 127.9 116 102.5 95.6 93.9 93.8 92.7 91.6 90 91.5 92.6 95.3 99 101.7 99.9 95.5 99.6 98 94.4 89.5 86.8 87.9 90.1 90.6 90.9 88.9 87.3 85.7 84.4 82.6 82.3 83.3 83.2 79.1 74 71.9 70.3 69.3 68.8 68.8 68.7 68.8 69.3 69 67.7 68.9 68.7 68.4 67.4 67.5 67.7 68 68.2 67.6 66.2 69.1 68.9 68.2 67.9 69.4 69.1 68.9 68.8 68.9 70.4 70.6 70.9 76.7 76.9 76.6 76.6 76.3 76.6 77.4 77.6 77.8 78 77.8 77.4 77.3 76.9 76.5 76.3 76.1 70.7 70.1 67.8 66.9 66.7 66.5 67.3 66.4 66.2 66.4 66.4 66.2 66.4 66.7 66.4 67.1 65.8 64 65.8 64.8 64.7 64.4 63.1 60.8 62.5 63.3 64.5 63.6 63.2 64.7 63.9 64 63.6 64.2 64.2 64.2 65.5 66.4 65.9 65.4 65.2 64.2 64.3 64.4 64.4 64.6 64.6 65.3 63.6 64.2 64.7 65 64.7 63.3 62.6 63 63.8 64.6 63.4 62.7 62.5 62.8 63.1 63.3 63.3 63.3 61.8 61.6 62 62.4 62.5 62.1 62.2 62.3 61.1 61.8 61.8 61.7 61.8 61.6 61.7 61.7 61.7 62
82.7 81.9 82.7 86.4 86.2 88.2 90.5 94.7 104.6 115.3 120.8 104.2 90.3 83.9 80.8 81.5 80.2 78.3 80.2 87.6 88.1 93.1 99.4 108.8 124.3 146.2 162.6 164.7 162.2 156.7 147 137.7 127.3 112 101.5 96.2 92.9 92.4 92.2 91.4 90.5 89.6 90.8 94.2 99.4 94.8 91.5 92 91.3 88.5 82.2 81.9 80.8 80.6 81.5 83.9 82.9 85.3 86.1 85.3 84.1 81.6 74 72 71.1 70.3 69.4 69.6 69.7 69.1 69 69 69 68.9 69.5 68.4 67.7 68.4 68.5 68.1 67.4 67.5 67.6 67.7 67.9 68.4 65.9 68.5 68.6 67.9 68.1 69.2 68.7 68.9 69.6 69.9 69.8 75.5 77.3 76.5 76.4 76.2 76 75.5 76.3 77 77.3 77.6 77.8 77.6 77.4 77.9 76.6 76.4 75.6 71.7 66.4 66.7 66.1 66.5 66.5 66.3 66.5 65.8 65.6 65.7 65.7 65.6 65.8 66.5 66.7 66.8 65.4 64.5 63.8 64.6 63.8 64 64.2 64 64.7 61.3 61.4 64.2 63.5 63.3 63.6 64.3 63.7 63.5 63.5 64 65.7 65 64.4 63.8 64.5 64.5 64.4 64.4 64.5 64.4 64.3 63.4 63 63.8 64.2 63.9 63.5 63.1 62.9 62.7 63.2 64.1 62.8 62.3 62.5 62.9 63 63.2 63.3 62.6 61.7 62 62.5 61.7 61.6 62.4 62.3 62.6 60.9 61.6 61.2 60.8 61.8 61.4 61.6 61.6 60.8 61.2
83.9 86.5 90.4 94 97.2 100.5 103.4 110.8 122.9 127.3 121 98.1 85.4 81.2 80.5 80.2 81.1 80.1 82.7 89.4 86.5 90.4 94.2 99 119.5 131.1 138.9 144.1 148 148.7 149.1 144.2 132.2 114.9 102.3 95.5 93 91.7 92 91.6 91.4 90.9 89.4 90.5 90.9 90.9 90.6 87.2 84.3 80.8 78.2 76.8 76.8 76.6 75.8 71.5 68.5 69.5 70.2 71.1 71.5 69.8 69.5 68.1 67.5 68.2 68.3 69.5 69.3 69.2 69.3 69.2 69.1 69.1 67.1 68.1 69.5 68.8 68.3 67.8 67.9 68.2 68 67.7 68.3 69.4 65.9 68.4 68.4 67.9 68.7 68.3 68.7 69.2 69.5 69.9 70.2 73.8 76.1 76.4 76.3 76.1 76.4 75.7 76.8 77.6 77.2 77.4 77.6 77.5 77.7 77.5 77 76.3 72.3 66.3 65.6 65.8 66 66.1 66.2 66.2 65.8 65.4 64.9 65 65.1 65.2 65.3 65.9 66.6 66.1 65 64.3 63.8 66.1 61.8 63.2 64.3 64.1 65.3 64.3 61.4 64.4 63.8 63.6 63.8 64.5 63.7 63.7 63.7 64.6 64.3 63.7 63.2 63 63.7 65 64.9 64 63.3 62.9 62.1 62.4 63.2 63.5 63 62.2 62.1 62.4 62.8 63 62.9 63.4 62.6 62.3 62.4 63 63.1 63.2 62.8 61.8 62 62.2 62.4 62.2 61.7 61.4 62.3 62.8 61.7 61.1 61.7 62.1 61.2 61.8 61.5 61.5 61.2 61.3
