ncols 200
nrows 97
xllcorner 330000
yllcorner 671550
cellsize 50
-2.1 -2.1 -2.1 -2.1 -2.1 -2.1 -2.1 -2.1 -2.1 -2.1 -2.1 -2.1 -2.1 -2.1 -2.1 -2.1 -2.1 -2.1 -2.1 -2.1 -2.1 -2.1 -2.1 -2.1 -2.1 -2.1 -2.1 -2.1 -2.1 -2.1 -2.1 -2.1 -2.1 -2.1 -2.1 -2.1 -2.1 -2.1 -2.1 -2.1 -2.1 -2.1 -2.1 -2.1 -2.1 -2.1 -2.1 -2.1 -2.1 -2.1 -2.1 -2.1 -2.1 -2.1 -2.1 -2.1 -2.1 -2.1 -2.1 -2.1 -2.1 -2.1 -2.1 -2.1 -2.1 -2.1 -2.1 -2.1 -2.1 -2.1 -2.1 -2.1 -2.1 -2.1 -2.1 -2.1 -2.1 -2.1 -2.1 -2.1 -2.1 -2.1 -2.1 -2.1 -2.1 -2.1 -2.1 -2.1 -2.1 -2.1 -2.1 -2.1 -2.1 -2.1 -2.1 -2.1 -2.1 -2.1 -2.1 -2.1 -2.1 -2.1 -2.1 -2.1 -2.1 -2.1 -2.1 -2.1 -2.1 -2.1 -2.1 -2.1 -2.1 -2.1 -2.1 -2.1 -2.1 -2.1 -2.1 -2.1 -2.1 -2.1 -2.1 -2.1 -2.1 -2.1 -2.1 -2.1 -2.1 -2.1 -2.1 -2.1 -2.1 -2.1 -2.1 -2.1 -2.1 -2.1 -2.1 -2.1 -2.1 -2.1 -2.1 -2.1 -2.1 -2.1 -2.1 -2.1 -2.1 -2.1 -2.1 -2.1 -2.1 -2.1 -2.1 -2.1 -2.1 -2.1 -2.1 -2.1 -2.1 -2.1 -2.1 -2.1 -2.1 -2.1 -2.1 -2.1 -2.1 -2.1 -2.1 -2.1 -2.1 -2.1 -2.1 -2.1 -2.1 -2.1 -2.1 -2.1 -2.1 -2.1 -2.1 -2.1 -2.1 -2.1 -2.1 -2.1 -2.1 -2.1 -2.1 -2.1 -2.1 -2.1 -2.1 -2.1 -2.1 -2.1 -2.1 -2.1
-2.1 -2.1 -2.1 -2.1 -2.1 -2.1 -2.1 -2.1 -2.1 -2.1 -2.1 -2.1 -2.1 -2.1 -2.1 -2.1 -2.1 -2.1 -2.1 -2.1 -2.1 -2.1 -2.1 -2.1 -2.1 -2.1 -2.1 -2.1 -2.1 -2.1 -2.1 -2.1 -2.1 -2.1 -2.1 -2.1 -2.1 -2.1 -2.1 -2.1 -2.1 -2.1 -2.1 -2.1 -2.1 -2.1 -2.1 -2.1 -2.1 -2.1 -2.1 -2.1 -2.1 -2.1 -2.1 -2.1 -2.1 -2.1 -2.1 -2.1 -2.1 -2.1 -2.1 -2.1 -2.1 -2.1 -2.1 -2.1 -2.1 -2.1 -2.1 -2.1 -2.1 -2.1 -2.1 -2.1 -2.1 -2.1 -2.1 -2.1 -2.1 -2.1 -2.1 -2.1 -2.1 -2.1 -2.1 -2.1 -2.1 -2.1 -2.1 -2.1 -2.1 -2.1 -2.1 -2.1 -2.1 -2.1 -2.1 -2.1 -2.1 -2.1 -2.1 -2.1 -2.1 -2.1 -2.1 -2.1 -2.1 -2.1 -2.1 -2.1 -2.1 -2.1 -2.1 -2.1 -2.1 -2.1 -2.1 -2.1 -2.1 -2.1 -2.1 -2.1 -2.1 -2.1 -2.1 -2.1 -2.1 -2.1 -2.1 -2.1 -2.1 -2.1 -2.1 -2.1 -2.1 -2.1 -2.1 -2.1 -2.1 -2.1 -2.1 -2.1 -2.1 -2.1 -2.1 -2.1 -2.1 -2.1 -2.1 -2.1 -2.1 -2.1 -2.1 -2.1 -2.1 -2.1 -2.1 -2.1 -2.1 -2.1 -2.1 -2.1 -2.1 -2.1 -2.1 -2.1 -2.1 -2.1 -2.1 -2.1 -2.1 -2.1 -2.1 -2.1 -2.1 -2.1 -2.1 -2.1 -2.1 -2.1 -2.1 -2.1 -2.1 -2.1 -2.1 -2.1 -2.1 -2.1 -2.1 -2.1 -2.1 -2.1 -2.1 -2.1 -2.1 -2.1 -2.1 -2.1
-2.1 -2.1 -2.1 -2.1 -2.1 -2.1 -2.1 -2.1 -2.1 -2.1 -2.1 -2.1 -2.1 -2.1 -2.1 -2.1 -2.1 -2.1 -2.1 -2.1 -2.1 -2.1 -2.1 -2.1 -2.1 -2.1 -2.1 -2.1 -2.1 -2.1 -2.1 -2.1 -2.1 -2.1 -2.1 -2.1 -2.1 -2.1 -2.1 -2.1 -2.1 -2.1 -2.1 -2.1 -2.1 -2.1 -2.1 -2.1 -2.1 -2.1 -2.1 -2.1 -2.1 -2.1 -2.1 -2.1 -2.1 -2.1 -2.1 -2.1 -2.1 -2.1 -2.1 -2.1 -2.1 -2.1 -2.1 -2.1 -2.1 -2.1 -2.1 -2.1 -2.1 -2.1 -2.1 -2.1 -2.1 -2.1 -2.1 -2.1 -2.1 -2.1 -2.1 -2.1 -2.1 -2.1 -2.1 -2.1 -2.1 -2.1 -2.1 -2.1 -2.1 -2.1 -2.1 -2.1 -2.1 -2.1 -2.1 -2.1 -2.1 -2.1 -2.1 -2.1 -2.1 -2.1 -2.1 -2.1 -2.1 -2.1 -2.1 -2.1 -2.1 -2.1 -2.1 -2.1 -2.1 -2.1 -2.1 -2.1 -2.1 -2.1 -2.1 -2.1 -2.1 -2.1 -2.1 -2.1 -2.1 -2.1 -2.1 -2.1 -2.1 -2.1 -2.1 -2.1 -2.1 -2.1 -2.1 -2.1 -2.1 -2.1 -2.1 -2.1 -2.1 -2.1 -2.1 -2.1 -2.1 -2.1 -2.1 -2.1 -2.1 -2.1 -2.1 -2.1 -2.1 -2.1 -2.1 -2.1 -2.1 -2.1 -2.1 -2.1 -2.1 -2.1 -2.1 -2.1 -2.1 -2.1 -2.1 -2.1 -2.1 -2.1 -2.1 -2.1 -2.1 -2.1 -2.1 -2.1 -2.1 -2.1 -2.1 -2.1 -2.1 -2.1 -2.1 -2.1 -2.1 -2.1 -2.1 -2.1 -2.1 -2.1 -2.1 -2.1 -2.1 -2.1 -2.1 -2.1
-2.1 -2.1 -2.1 -2.1 -2.1 -2.1 -2.1 -2.1 -2.1 -2.1 -2.1 -2.1 -2.1 -2.1 -2.1 -2.1 -2.1 -2.1 -2.1 -2.1 -2.1 -2.1 -2.1 -2.1 -2.1 -2.1 -2.1 -2.1 -2.1 -2.1 -2.1 -2.1 -2.1 -2.1 -2.1 -2.1 -2.1 -2.1 -2.1 -2.1 -2.1 -2.1 -2.1 -2.1 -2.1 -2.1 -2.1 -2.1 -2.1 -2.1 -2.1 -2.1 -2.1 -2.1 -2.1 -2.1 -2.1 -2.1 -2.1 -2.1 -2.1 -2.1 -2.1 -2.1 -2.1 -2.1 -2.1 -2.1 -2.1 -2.1 -2.1 -2.1 -2.1 -2.1 -2.1 -2.1 -2.1 -2.1 -2.1 -2.1 -2.1 -2.1 -2.1 -2.1 -2.1 -2.1 -2.1 -2.1 -2.1 -2.1 -2.1 -2.1 -2.1 -2.1 -2.1 -2.1 -2.1 -2.1 -2.1 -2.1 -2.1 -2.1 -2.1 -2.1 -2.1 -2.1 -2.1 -2.1 -2.1 -2.1 -2.1 -2.1 -2.1 -2.1 -2.1 -2.1 -2.1 -2.1 -2.1 -2.1 -2.1 -2.1 -2.1 -2.1 -2.1 -2.1 -2.1 -2.1 -2.1 -2.1 -2.1 -2.1 -2.1 -2.1 -2.1 -2.1 -2.1 -2.1 -2.1 -2.1 -2.1 -2.1 -2.1 -2.1 -2.1 -2.1 -2.1 -2.1 -2.1 -2.1 -2.1 -2.1 -2.1 -2.1 -2.1 -2.1 -2.1 -2.1 -2.1 -2.1 -2.1 -2.1 -2.1 -2.1 -2.1 -2.1 -2.1 -2.1 -2.1 -2.1 -2.1 -2.1 -2.1 -2.1 -2.1 -2.1 -2.1 -2.1 -2.1 -2.1 -2.1 -2.1 -2.1 -2.1 -2.1 -2.1 -2.1 -2.1 -2.1 -2.1 -2.1 -2.1 -2.1 -2.1 -2.1 -2.1 -2.1 -2.1 -2.1 -2.1
-2.1 -2.1 -2.1 -2.1 -2.1 -2.1 -2.1 -2.1 -2.1 -2.1 -2.1 -2.1 -2.1 -2.1 -2.1 -2.1 -2.1 -2.1 -2.1 -2.1 -2.1 -2.1 -2.1 -2.1 -2.1 -2.1 -2.1 -2.1 -2.1 -2.1 -2.1 -2.1 -2.1 -2.1 -2.1 -2.1 -2.1 -2.1 -2.1 -2.1 -2.1 -2.1 -2.1 -2.1 -2.1 -2.1 -2.1 -2.1 -2.1 -2.1 -2.1 -2.1 -2.1 -2.1 -2.1 -2.1 -2.1 -2.1 -2.1 -2.1 -2.1 -2.1 -2.1 -2.1 -2.1 -2.1 -2.1 -2.1 -2.1 -2.1 -2.1 -2.1 -2.1 -2.1 -2.1 -2.1 -2.1 -2.1 -2.1 -2.1 -2.1 -2.1 -2.1 -2.1 -2.1 -2.1 -2.1 -2.1 -2.1 -2.1 -2.1 -2.1 -2.1 -2.1 -2.1 -2.1 -2.1 -2.1 -2.1 -2.1 -2.1 -2.1 -2.1 -2.1 -2.1 -2.1 -2.1 -2.1 -2.1 -2.1 -2.1 -2.1 -2.1 -2.1 -2.1 -2.1 -2.1 -2.1 -2.1 -2.1 -2.1 -2.1 -2.1 -2.1 -2.1 -2.1 -2.1 -2.1 -2.1 -2.1 -2.1 -2.1 -2.1 -2.1 -2.1 -2.1 -2.1 -2.1 -2.1 -2.1 -2.1 -2.1 -2.1 -2.1 -2.1 -2.1 -2.1 -2.1 -2.1 -2.1 -2.1 -2.1 -2.1 -2.1 -2.1 -2.1 -2.1 -2.1 -2.1 -2.1 -2.1 -2.1 -2.1 -2.1 -2.1 -2.1 -2.1 -2.1 -2.1 -2.1 -2.1 -2.1 -2.1 -2.1 -2.1 -2.1 -2.1 -2.1 -2.1 -2.1 -2.1 -2.1 -2.1 -2.1 -2.1 -2.1 -2.1 -2.1 -2.1 -2.1 -2.1 -2.1 -2.1 -2.1 -2.1 -2.1 -2.1 -2.1 -2.1 -2.1
-2.1 -2.1 -2.1 -2.1 -2.1 -2.1 -2.1 -2.1 -2.1 -2.1 -2.1 -2.1 -2.1 -2.1 -2.1 -2.1 -2.1 -2.1 -2.1 -2.1 -2.1 -2.1 -2.1 -2.1 -2.1 -2.1 -2.1 -2.1 -2.1 -2.1 -2.1 -2.1 -2.1 -2.1 -2.1 -2.1 -2.1 -2.1 -2.1 -2.1 -2.1 -2.1 -2.1 -2.1 -2.1 -2.1 -2.1 -2.1 -2.1 -2.1 -2.1 -2.1 -2.1 -2.1 -2.1 -2.1 -2.1 -2.1 -2.1 -2.1 -2.1 -2.1 -2.1 -2.1 -2.1 -2.1 -2.1 -2.1 -2.1 -2.1 -2.1 -2.1 -2.1 -2.1 -2.1 -2.1 -2.1 -2.1 -2.1 -2.1 -2.1 -2.1 -2.1 -2.1 -2.1 -2.1 -2.1 -2.1 -2.1 -2.1 -2.1 -2.1 -2.1 -2.1 -2.1 -2.1 -2.1 -2.1 -2.1 -2.1 -2.1 -2.1 -2.1 -2.1 -2.1 -2.1 -2.1 -2.1 -2.1 -2.1 -2.1 -2.1 -2.1 -2.1 -2.1 -2.1 -2.1 -2.1 -2.1 -2.1 -2.1 -2.1 -2.1 -2.1 -2.1 -2.1 -2.1 -2.1 -2.1 -2.1 -2.1 -2.1 -2.1 -2.1 -2.1 -2.1 -2.1 -2.1 -2.1 -2.1 -2.1 -2.1 -2.1 -2.1 -2.1 -2.1 -2.1 -2.1 -2.1 -2.1 -2.1 -2.1 -2.1 -2.1 -2.1 -2.1 -2.1 -2.1 -2.1 -2.1 -2.1 -2.1 -2.1 -2.1 -2.1 -2.1 -2.1 -2.1 -2.1 -2.1 -2.1 -2.1 -2.1 -2.1 -2.1 -2.1 -2.1 -2.1 -2.1 -2.1 -2.1 -2.1 -2.1 -2.1 -2.1 -2.1 -2.1 -2.1 -2.1 -2.1 -2.1 -2.1 -2.1 -2.1 -2.1 -2.1 -2.1 -2.1 -2.1 -2.1
-2.1 -2.1 -2.1 -2.1 -2.1 -2.1 -2.1 -2.1 -2.1 -2.1 -2.1 -2.1 -2.1 -2.1 -2.1 -2.1 -2.1 -2.1 -2.1 -2.1 -2.1 -2.1 -2.1 -2.1 -2.1 -2.1 -2.1 -2.1 -2.1 -2.1 -2.1 -2.1 -2.1 -2.1 -2.1 -2.1 -2.1 -2.1 -2.1 -2.1 -2.1 -2.1 -2.1 -2.1 -2.1 -2.1 -2.1 -2.1 -2.1 -2.1 -2.1 -2.1 -2.1 -2.1 -2.1 -2.1 -2.1 -2.1 -2.1 -2.1 -2.1 -2.1 -2.1 -2.1 -2.1 -2.1 -2.1 -2.1 -2.1 -2.1 -2.1 -2.1 -2.1 -2.1 -2.1 -2.1 -2.1 -2.1 -2.1 -2.1 -2.1 -2.1 -2.1 -2.1 -2.1 -2.1 -2.1 -2.1 -2.1 -2.1 -2.1 -2.1 -2.1 -2.1 -2.1 -2.1 -2.1 -2.1 -2.1 -2.1 -2.1 -2.1 -2.1 -2.1 -2.1 -2.1 -2.1 -2.1 -2.1 -2.1 -2.1 -2.1 -2.1 -2.1 -2.1 -2.1 -2.1 -2.1 -2.1 -2.1 -2.1 -2.1 -2.1 -2.1 -2.1 -2.1 -2.1 -2.1 -2.1 -2.1 -2.1 -2.1 -2.1 -2.1 -2.1 -2.1 -2.1 -2.1 -2.1 -2.1 -2.1 -2.1 -2.1 -2.1 -2.1 -2.1 -2.1 -2.1 -2.1 -2.1 -2.1 -2.1 -2.1 -2.1 -2.1 -2.1 -2.1 -2.1 -2.1 -2.1 -2.1 -2.1 -2.1 -2.1 -2.1 -2.1 -2.1 -2.1 -2.1 -2.1 -2.1 -2.1 -2.1 -2.1 -2.1 -2.1 -2.1 -2.1 -2.1 -2.1 -2.1 -2.1 -2.1 -2.1 -2.1 -2.1 -2.1 -2.1 -2.1 -2.1 -2.1 -2.1 -2.1 -2.1 -2.1 -2.1 -2.1 -2.1 -2.1 -2.1
-2.1 -2.1 -2.1 -2.1 -2.1 -2.1 -2.1 -2.1 -2.1 -2.1 -2.1 -2.1 -2.1 -2.1 -2.1 -2.1 -2.1 -2.1 -2.1 -2.1 -2.1 -2.1 -2.1 -2.1 -2.1 -2.1 -2.1 -2.1 -2.1 -2.1 -2.1 -2.1 -2.1 -2.1 -2.1 -2.1 -2.1 -2.1 -2.1 -2.1 -2.1 -2.1 -2.1 -2.1 -2.1 -2.1 -2.1 -2.1 -2.1 -2.1 -2.1 -2.1 -2.1 -2.1 -2.1 -2.1 -2.1 -2.1 -2.1 -2.1 -2.1 -2.1 -2.1 -2.1 -2.1 -2.1 -2.1 -2.1 -2.1 -2.1 -2.1 -2.1 -2.1 -2.1 -2.1 -2.1 -2.1 -2.1 -2.1 -2.1 -2.1 -2.1 -2.1 -2.1 -2.1 -2.1 -2.1 -2.1 -2.1 -2.1 -2.1 -2.1 -2.1 -2.1 -2.1 -2.1 -2.1 -2.1 -2.1 -2.1 -2.1 -2.1 -2.1 -2.1 -2.1 -2.1 -2.1 -2.1 -2.1 -2.1 -2.1 -2.1 -2.1 -2.1 -2.1 -2.1 -2.1 -2.1 -2.1 -2.1 -2.1 -2.1 -2.1 -2.1 -2.1 -2.1 -2.1 -2.1 -2.1 -2.1 -2.1 -2.1 -2.1 -2.1 -2.1 -2.1 -2.1 -2.1 -2.1 -2.1 -2.1 -2.1 -2.1 -2.1 -2.1 -2.1 -2.1 -2.1 -2.1 -2.1 -2.1 -2.1 -2.1 -2.1 -2.1 -2.1 -2.1 -2.1 -2.1 -2.1 -2.1 -2.1 -2.1 -2.1 -2.1 -2.1 -2.1 -2.1 -2.1 -2.1 -2.1 -2.1 -2.1 -2.1 -2.1 -2.1 -2.1 -2.1 -2.1 -2.1 -2.1 -2.1 -2.1 -2.1 -2.1 -2.1 -2.1 -2.1 -2.1 -2.1 -2.1 -2.1 -2.1 -2.1 -2.1 -2.1 -2.1 -2.1 -2.1 -2.1
-2.1 -2.1 -2.1 -2.1 -2.1 -2.1 -2.1 -2.1 -2.1 -2.1 -2.1 -2.1 -2.1 -2.1 -2.1 -2.1 -2.1 -2.1 -2.1 -2.1 -2.1 -2.1 -2.1 -2.1 -2.1 -2.1 -2.1 -2.1 -2.1 -2.1 -2.1 -2.1 -2.1 -2.1 -2.1 -2.1 -2.1 -2.1 -2.1 -2.1 -2.1 -2.1 -2.1 -2.1 -2.1 -2.1 -2.1 -2.1 -2.1 -2.1 -2.1 -2.1 -2.1 -2.1 -2.1 -2.1 -2.1 -2.1 -2.1 -2.1 -2.1 -2.1 -2.1 -2.1 -2.1 -2.1 -2.1 -2.1 -2.1 -2.1 -2.1 -2.1 -2.1 -2.1 -2.1 -2.1 -2.1 -2.1 -2.1 -2.1 -2.1 -2.1 -2.1 -2.1 -2.1 -2.1 -2.1 -2.1 -2.1 -2.1 -2.1 -2.1 -2.1 -2.1 -2.1 -2.1 -2.1 -2.1 -2.1 -2.1 -2.1 -2.1 -2.1 -2.1 -2.1 -2.1 -2.1 -2.1 -2.1 -2.1 -2.1 -2.1 -2.1 -2.1 -2.1 -2.1 -2.1 -2.1 -2.1 -2.1 -2.1 -2.1 -2.1 -2.1 -2.1 -2.1 -2.1 -2.1 -2.1 -2.1 -2.1 -2.1 -2.1 -2.1 -2.1 -2.1 -2.1 -2.1 -2.1 -2.1 -2.1 -2.1 -2.1 -2.1 -2.1 -2.1 -2.1 -2.1 -2.1 -2.1 -2.1 -2.1 -2.1 -2.1 -2.1 -2.1 -2.1 -2.1 -2.1 -2.1 -2.1 -2.1 -2.1 -2.1 -2.1 -2.1 -2.1 -2.1 -2.1 -2.1 -2.1 -2.1 -2.1 -2.1 -2.1 -2.1 -2.1 -2.1 -2.1 -2.1 -2.1 -2.1 -2.1 -2.1 -2.1 -2.1 -2.1 -2.1 -2.1 -2.1 -2.1 -2.1 -2.1 -2.1 -2.1 -2.1 -2.1 -2.1 -2.1 -2.1
-2.1 -2.1 -2.1 -2.1 -2.1 -2.1 -2.1 -2.1 -2.1 -2.1 -2.1 -2.1 -2.1 -2.1 -2.1 -2.1 -2.1 -2.1 -2.1 -2.1 -2.1 -2.1 -2.1 -2.1 -2.1 -2.1 -2.1 -2.1 -2.1 -2.1 -2.1 -2.1 -2.1 -2.1 -2.1 -2.1 -2.1 -2.1 -2.1 -2.1 -2.1 -2.1 -2.1 -2.1 -2.1 -2.1 -2.1 -2.1 -2.1 -2.1 -2.1 -2.1 -2.1 -2.1 -2.1 -2.1 -2.1 -2.1 -2.1 -2.1 -2.1 -2.1 -2.1 -2.1 -2.1 -2.1 -2.1 -2.1 -2.1 -2.1 -2.1 -2.1 -2.1 -2.1 -2.1 -2.1 -2.1 -2.1 -2.1 -2.1 -2.1 -2.1 -2.1 -2.1 -2.1 -2.1 -2.1 -2.1 -2.1 -2.1 -2.1 -2.1 -2.1 -2.1 -2.1 -2.1 -2.1 -2.1 -2.1 -2.1 -2.1 -2.1 -2.1 -2.1 -2.1 -2.1 -2.1 -2.1 -2.1 -2.1 -2.1 -2.1 -2.1 -2.1 -2.1 -2.1 -2.1 -2.1 -2.1 -2.1 -2.1 -2.1 -2.1 -2.1 -2.1 -2.1 -2.1 -2.1 -2.1 -2.1 -2.1 -2.1 -2.1 -2.1 -2.1 -2.1 -2.1 -2.1 -2.1 -2.1 -2.1 -2.1 -2.1 -2.1 -2.1 -2.1 -2.1 -2.1 -2.1 -2.1 -2.1 -2.1 -2.1 -2.1 -2.1 -2.1 -2.1 -2.1 -2.1 -2.1 -2.1 -2.1 -2.1 -2.1 -2.1 -2.1 -2.1 -2.1 -2.1 -2.1 -2.1 -2.1 -2.1 -2.1 -2.1 -2.1 -2.1 -2.1 -2.1 -2.1 -2.1 -2.1 -2.1 -2.1 -2.1 -2.1 -2.1 -2.1 -2.1 -2.1 -2.1 -2.1 -2.1 -2.1 -2.1 -2.1 -2.1 -2.1 -2.1 -2.1
-2.1 -2.1 -2.1 -2.1 -2.1 -2.1 -2.1 -2.1 -2.1 -2.1 -2.1 -2.1 -2.1 -2.1 -2.1 -2.1 -2.1 -2.1 -2.1 -2.1 -2.1 -2.1 -2.1 -2.1 -2.1 -2.1 -2.1 -2.1 -2.1 -2.1 -2.1 -2.1 -2.1 -2.1 -2.1 -2.1 -2.1 -2.1 -2.1 -2.1 -2.1 -2.1 -2.1 -2.1 -2.1 -2.1 -2.1 -2.1 -2.1 -2.1 -2.1 -2.1 -2.1 -2.1 -2.1 -2.1 -2.1 -2.1 -2.1 -2.1 -2.1 -2.1 -2.1 -2.1 -2.1 -2.1 -2.1 -2.1 -2.1 -2.1 -2.1 -2.1 -2.1 -2.1 -2.1 -2.1 -2.1 -2.1 -2.1 -2.1 -2.1 -2.1 -2.1 -2.1 -2.1 -2.1 -2.1 -2.1 -2.1 -2.1 -2.1 -2.1 -2.1 -2.1 -2.1 -2.1 -2.1 -2.1 -2.1 -2.1 -2.1 -2.1 -2.1 -2.1 -2.1 -2.1 -2.1 -2.1 -2.1 -2.1 -2.1 -2.1 -2.1 -2.1 -2.1 -2.1 -2.1 -2.1 -2.1 -2.1 -2.1 -2.1 -2.1 -2.1 -2.1 -2.1 -2.1 -2.1 -2.1 -2.1 -2.1 -2.1 -2.1 -2.1 -2.1 -2.1 -2.1 -2.1 -2.1 -2.1 -2.1 -2.1 -2.1 -2.1 -2.1 -2.1 -2.1 -2.1 -2.1 -2.1 -2.1 -2.1 -2.1 -2.1 -2.1 -2.1 -2.1 -2.1 -2.1 -2.1 -2.1 -2.1 -2.1 -2.1 -2.1 -2.1 -2.1 -2.1 -2.1 -2.1 -2.1 -2.1 -2.1 -2.1 -2.1 -2.1 -2.1 -2.1 -2.1 -2.1 -2.1 -2.1 -2.1 -2.1 -2.1 -2.1 -2.1 -2.1 -2.1 -2.1 -2.1 -2.1 -2.1 -2.1 -2.1 -2.1 -2.1 -2.1 -2.1 -2.1
-2.1 -2.1 -2.1 -2.1 -2.1 -2.1 -2.1 -2.1 -2.1 -2.1 -2.1 -2.1 -2.1 -2.1 -2.1 -2.1 -2.1 -2.1 -2.1 -2.1 -2.1 -2.1 -2.1 -2.1 -2.1 -2.1 -2.1 -2.1 -2.1 -2.1 -2.1 -2.1 -2.1 -2.1 -2.1 -2.1 -2.1 -2.1 -2.1 -2.1 -2.1 -2.1 -2.1 -2.1 -2.1 -2.1 -2.1 -2.1 -2.1 -2.1 -2.1 -2.1 -2.1 -2.1 -2.1 -2.1 -2.1 -2.1 -2.1 -2.1 -2.1 -2.1 -2.1 -2.1 -2.1 -2.1 -2.1 -2.1 -2.1 -2.1 -2.1 -2.1 -2.1 -2.1 -2.1 -2.1 -2.1 -2.1 -2.1 -2.1 -2.1 -2.1 -2.1 -2.1 -2.1 -2.1 -2.1 -2.1 -2.1 -2.1 -2.1 -2.1 -2.1 -2.1 -2.1 -2.1 -2.1 -2.1 -2.1 -2.1 -2.1 -2.1 -2.1 -2.1 -2.1 -2.1 -2.1 -2.1 -2.1 -2.1 -2.1 -2.1 -2.1 -2.1 -2.1 -2.1 -2.1 -2.1 -2.1 -2.1 -2.1 -2.1 -2.1 -2.1 -2.1 -2.1 -2.1 -2.1 -2.1 -2.1 -2.1 -2.1 -2.1 -2.1 -2.1 -2.1 -2.1 -2.1 -2.1 -2.1 -2.1 -2.1 -2.1 -2.1 -2.1 -2.1 -2.1 -2.1 -2.1 -2.1 -2.1 -2.1 -2.1 -2.1 -2.1 -2.1 -2.1 -2.1 -2.1 -2.1 -2.1 -2.1 -2.1 -2.1 -2.1 -2.1 -2.1 -2.1 -2.1 -2.1 -2.1 -2.1 -2.1 -2.1 -2.1 -2.1 -2.1 -2.1 -2.1 -2.1 -2.1 -2.1 -2.1 -2.1 -2.1 -2.1 -2.1 -2.1 -2.1 -2.1 -2.1 -2.1 -2.1 -2.1 -2.1 -2.1 -2.1 -2.1 -2.1 -2.1
-2.1 -2.1 -2.1 -2.1 -2.1 -2.1 -2.1 -2.1 -2.1 -2.1 -2.1 -2.1 -2.1 -2.1 -2.1 -2.1 -2.1 -2.1 -2.1 -2.1 -2.1 -2.1 -2.1 -2.1 -2.1 -2.1 -2.1 -2.1 -2.1 -2.1 -2.1 -2.1 -2.1 -2.1 -2.1 -2.1 -2.1 -2.1 -2.1 -2.1 -2.1 -2.1 -2.1 -2.1 -2.1 -2.1 -2.1 -2.1 -2.1 -2.1 -2.1 -2.1 -2.1 -2.1 -2.1 -2.1 -2.1 -2.1 -2.1 -2.1 -2.1 -2.1 -2.1 -2.1 -2.1 -2.1 -2.1 -2.1 -2.1 -2.1 -2.1 -2.1 -2.1 -2.1 -2.1 -2.1 -2.1 -2.1 -2.1 -2.1 -2.1 -2.1 -2.1 -2.1 -2.1 -2.1 -2.1 -2.1 -2.1 -2.1 -2.1 -2.1 -2.1 -2.1 -2.1 -2.1 -2.1 -2.1 -2.1 -2.1 -2.1 -2.1 -2.1 -2.1 -2.1 -2.1 -2.1 -2.1 -2.1 -2.1 -2.1 -2.1 -2.1 -2.1 -2.1 -2.1 -2.1 -2.1 -2.1 -2.1 -2.1 -2.1 -2.1 -2.1 -2.1 -2.1 -2.1 -2.1 -2.1 -2.1 -2.1 -2.1 -2.1 -2.1 -2.1 -2.1 -2.1 -2.1 -2.1 -2.1 -2.1 -2.1 -2.1 -2.1 -2.1 -2.1 -2.1 -2.1 -2.1 -2.1 -2.1 -2.1 -2.1 -2.1 -2.1 -2.1 -2.1 -2.1 -2.1 -2.1 -2.1 -2.1 -2.1 -2.1 -2.1 -2.1 -2.1 -2.1 -2.1 -2.1 -2.1 -2.1 -2.1 -2.1 -2.1 -2.1 -2.1 -2.1 -2.1 -2.1 -2.1 -2.1 -2.1 -2.1 -2.1 -2.1 -2.1 -2.1 -2.1 -2.1 -2.1 -2.1 -2.1 -2.1 -2.1 -2.1 -2.1 -2.1 -2.1 -2.1
-2.1 -2.1 -2.1 -2.1 -2.1 -2.1 -2.1 -2.1 -2.1 -2.1 -2.1 -2.1 -2.1 -2.1 -2.1 -2.1 -2.1 -2.1 -2.1 -2.1 -2.1 -2.1 -2.1 -2.1 -2.1 -2.1 -2.1 -2.1 -2.1 -2.1 -2.1 -2.1 -2.1 -2.1 -2.1 -2.1 -2.1 -2.1 -2.1 -2.1 -2.1 -2.1 -2.1 -2.1 -2.1 -2.1 -2.1 -2.1 -2.1 -2.1 -2.1 -2.1 -2.1 -2.1 -2.1 -2.1 -2.1 -2.1 -2.1 -2.1 -2.1 -2.1 -2.1 -2.1 -2.1 -2.1 -2.1 -2.1 -2.1 -2.1 -2.1 -2.1 -2.1 -2.1 -2.1 -2.1 -2.1 -2.1 -2.1 -2.1 -2.1 -2.1 -2.1 -2.1 -2.1 -2.1 -2.1 -2.1 -2.1 -2.1 -2.1 -2.1 -2.1 -2.1 -2.1 -2.1 -2.1 -2.1 -2.1 -2.1 -2.1 -2.1 -2.1 -2.1 -2.1 -2.1 -2.1 -2.1 -2.1 -2.1 -2.1 -2.1 -2.1 -2.1 -2.1 -2.1 -2.1 -2.1 -2.1 -2.1 -2.1 -2.1 -2.1 -2.1 -2.1 -2.1 -2.1 -2.1 -2.1 -2.1 -2.1 -2.1 -2.1 -2.1 -2.1 -2.1 -2.1 -2.1 -2.1 -2.1 -2.1 -2.1 -2.1 -2.1 -2.1 -2.1 -2.1 -2.1 -2.1 -2.1 -2.1 -2.1 -2.1 -2.1 -2.1 -2.1 -2.1 -2.1 -2.1 -2.1 -2.1 -2.1 -2.1 -2.1 -2.1 -2.1 -2.1 -2.1 -2.1 -2.1 -2.1 -2.1 -2.1 -2.1 -2.1 -2.1 -2.1 -2.1 -2.1 -2.1 -2.1 -2.1 -2.1 -2.1 -2.1 -2.1 -2.1 -2.1 -2.1 -2.1 -2.1 -2.1 -2.1 -2.1 -2.1 -2.1 -2.1 6.3 5.7 5.8
-2.1 -2.1 -2.1 -2.1 -2.1 -2.1 -2.1 -2.1 -2.1 -2.1 -2.1 -2.1 -2.1 -2.1 -2.1 -2.1 -2.1 -2.1 -2.1 -2.1 -2.1 -2.1 -2.1 -2.1 -2.1 -2.1 -2.1 -2.1 -2.1 -2.1 -2.1 -2.1 -2.1 -2.1 -2.1 -2.1 -2.1 -2.1 -2.1 -2.1 -2.1 -2.1 -2.1 -2.1 -2.1 -2.1 -2.1 -2.1 -2.1 -2.1 -2.1 -2.1 -2.1 -2.1 -2.1 -2.1 -2.1 -2.1 -2.1 -2.1 -2.1 -2.1 -2.1 -2.1 -2.1 -2.1 -2.1 -2.1 -2.1 -2.1 -2.1 -2.1 -2.1 -2.1 -2.1 -2.1 -2.1 -2.1 -2.1 -2.1 -2.1 -2.1 -2.1 -2.1 -2.1 -2.1 -2.1 -2.1 -2.1 -2.1 -2.1 -2.1 -2.1 -2.1 -2.1 -2.1 -2.1 -2.1 -2.1 -2.1 -2.1 -2.1 -2.1 -2.1 -2.1 -2.1 -2.1 -2.1 -2.1 -2.1 -2.1 -2.1 -2.1 -2.1 -2.1 -2.1 -2.1 -2.1 -2.1 -2.1 -2.1 -2.1 -2.1 -2.1 -2.1 -2.1 -2.1 -2.1 -2.1 -2.1 -2.1 -2.1 -2.1 -2.1 -2.1 -2.1 -2.1 -2.1 -2.1 -2.1 -2.1 -2.1 -2.1 -2.1 -2.1 -2.1 -2.1 -2.1 -2.1 -2.1 -2.1 -2.1 -2.1 -2.1 -2.1 -2.1 -2.1 -2.1 -2.1 -2.1 -2.1 -2.1 -2.1 -2.1 -2.1 -2.1 -2.1 -2.1 -2.1 -2.1 -2.1 -2.1 -2.1 -2.1 -2.1 -2.1 -2.1 -2.1 -2.1 -2.1 -2.1 -2.1 -2.1 -2.1 -2.1 -2.1 -2.1 -2.1 -2.1 -2.1 3 -2.1 -2.1 -2.1 -2.1 -2.1 2.6 4.9 7 6.8
-2.1 -2.1 -2.1 -2.1 -2.1 -2.1 -2.1 -2.1 -2.1 -2.1 -2.1 -2.1 -2.1 -2.1 -2.1 -2.1 -2.1 -2.1 -2.1 -2.1 -2.1 -2.1 -2.1 -2.1 -2.1 -2.1 -2.1 -2.1 -2.1 -2.1 -2.1 -2.1 -2.1 -2.1 -2.1 -2.1 -2.1 -2.1 -2.1 -2.1 -2.1 -2.1 -2.1 -2.1 -2.1 -2.1 -2.1 -2.1 -2.1 -2.1 -2.1 -2.1 -2.1 -2.1 -2.1 -2.1 -2.1 -2.1 -2.1 -2.1 -2.1 -2.1 -2.1 -2.1 -2.1 -2.1 -2.1 -2.1 -2.1 -2.1 -2.1 -2.1 -2.1 -2.1 -2.1 -2.1 -2.1 -2.1 -2.1 -2.1 -2.1 -2.1 -2.1 -2.1 -2.1 -2.1 -2.1 -2.1 -2.1 -2.1 -2.1 -2.1 -2.1 -2.1 -2.1 -2.1 -2.1 -2.1 -2.1 -2.1 -2.1 -2.1 -2.1 -2.1 -2.1 -2.1 -2.1 -2.1 -2.1 -2.1 -2.1 -2.1 -2.1 -2.1 -2.1 -2.1 -2.1 -2.1 -2.1 -2.1 -2.1 -2.1 -2.1 -2.1 -2.1 -2.1 -2.1 -2.1 -2.1 -2.1 -2.1 -2.1 -2.1 -2.1 -2.1 -2.1 -2.1 -2.1 -2.1 -2.1 -2.1 -2.1 -2.1 -2.1 -2.1 -2.1 -2.1 -2.1 -2.1 -2.1 -2.1 -2.1 -2.1 -2.1 -2.1 -2.1 -2.1 -2.1 -2.1 -2.1 -2.1 -2.1 -2.1 -2.1 -2.1 -2.1 -2.1 -2.1 -2.1 -2.1 -2.1 -2.1 -2.1 -2.1 -2.1 -2.1 -2.1 -2.1 -2.1 -2.1 -2.1 -2.1 -2.1 -2.1 -2.1 -2.1 -2.1 -2.1 -2.1 5.1 4.9 2.6 -2.1 -2.1 1.6 0.6 2.5 5.7 7 8
-2.1 -2.1 -2.1 -2.1 -2.1 -2.1 -2.1 -2.1 -2.1 -2.1 -2.1 -2.1 -2.1 -2.1 -2.1 -2.1 -2.1 -2.1 -2.1 -2.1 -2.1 -2.1 -2.1 -2.1 -2.1 -2.1 -2.1 -2.1 -2.1 -2.1 -2.1 -2.1 -2.1 -2.1 -2.1 -2.1 -2.1 -2.1 -2.1 -2.1 -2.1 -2.1 -2.1 -2.1 -2.1 -2.1 -2.1 -2.1 -2.1 -2.1 -2.1 -2.1 -2.1 -2.1 -2.1 -2.1 -2.1 -2.1 -2.1 -2.1 -2.1 -2.1 -2.1 -2.1 -2.1 -2.1 -2.1 -2.1 -2.1 -2.1 -2.1 -2.1 -2.1 -2.1 -2.1 -2.1 -2.1 -2.1 -2.1 -2.1 -2.1 -2.1 -2.1 -2.1 -2.1 -2.1 -2.1 -2.1 -2.1 -2.1 -2.1 -2.1 -2.1 -2.1 -2.1 -2.1 -2.1 -2.1 -2.1 -2.1 -2.1 -2.1 -2.1 -2.1 -2.1 -2.1 -2.1 -2.1 -2.1 -2.1 -2.1 -2.1 -2.1 -2.1 -2.1 -2.1 -2.1 -2.1 -2.1 -2.1 -2.1 -2.1 -2.1 -2.1 -2.1 -2.1 -2.1 -2.1 -2.1 -2.1 -2.1 -2.1 -2.1 -2.1 -2.1 -2.1 -2.1 -2.1 -2.1 -2.1 -2.1 -2.1 -2.1 -2.1 -2.1 -2.1 -2.1 -2.1 -2.1 -2.1 -2.1 -2.1 -2.1 -2.1 -2.1 -2.1 -2.1 -2.1 -2.1 -2.1 -2.1 -2.1 -2.1 -2.1 -2.1 -2.1 -2.1 -2.1 -2.1 -2.1 -2.1 -2.1 -2.1 -2.1 -2.1 -2.1 -2.1 -2.1 -2.1 -2.1 -2.1 -2.1 -2.1 -2.1 -2.1 -2.1 -2.1 -2.1 5 5.1 3.4 4 5 5.3 6.1 3.1 5.3 6 6.6 7.3
-2.1 -2.1 -2.1 -2.1 -2.1 -2.1 -2.1 -2.1 -2.1 -2.1 -2.1 -2.1 -2.1 -2.1 -2.1 -2.1 -2.1 -2.1 -2.1 -2.1 -2.1 -2.1 -2.1 -2.1 -2.1 -2.1 -2.1 -2.1 -2.1 -2.1 -2.1 -2.1 -2.1 -2.1 -2.1 -2.1 -2.1 -2.1 -2.1 -2.1 -2.1 -2.1 -2.1 -2.1 -2.1 -2.1 -2.1 -2.1 -2.1 -2.1 -2.1 -2.1 -2.1 -2.1 -2.1 -2.1 -2.1 -2.1 -2.1 -2.1 -2.1 -2.1 -2.1 -2.1 -2.1 -2.1 -2.1 -2.1 -2.1 -2.1 -2.1 -2.1 -2.1 -2.1 -2.1 -2.1 -2.1 -2.1 -2.1 -2.1 -2.1 -2.1 -2.1 -2.1 -2.1 -2.1 -2.1 -2.1 -2.1 -2.1 -2.1 -2.1 -2.1 -2.1 -2.1 -2.1 -2.1 -2.1 -2.1 -2.1 -2.1 -2.1 -2.1 -2.1 -2.1 -2.1 -2.1 -2.1 -2.1 -2.1 -2.1 -2.1 -2.1 -2.1 -2.1 -2.1 -2.1 -2.1 -2.1 -2.1 -2.1 -2.1 -2.1 -2.1 -2.1 -2.1 -2.1 -2.1 -2.1 -2.1 -2.1 -2.1 -2.1 -2.1 -2.1 -2.1 -2.1 -2.1 -2.1 -2.1 -2.1 -2.1 -2.1 -2.1 -2.1 -2.1 -2.1 -2.1 -2.1 -2.1 -2.1 -2.1 -2.1 -2.1 -2.1 -2.1 -2.1 -2.1 -2.1 -2.1 -2.1 -2.1 -2.1 -2.1 -2.1 -2.1 -2.1 -2.1 -2.1 -2.1 -2.1 -2.1 -2.1 -2.1 -2.1 -2.1 -2.1 -2.1 -2.1 -2.1 -2.1 -2.1 -2.1 -2.1 -2.1 -2.1 -2.1 4.9 4.8 3.8 1.4 2.1 4.4 5.3 6.3 6 6.3 6.5 7 7.8
-2.1 -2.1 -2.1 -2.1 -2.1 -2.1 -2.1 -2.1 -2.1 -2.1 -2.1 -2.1 -2.1 -2.1 -2.1 -2.1 -2.1 -2.1 -2.1 -2.1 -2.1 -2.1 -2.1 -2.1 -2.1 -2.1 -2.1 -2.1 -2.1 -2.1 -2.1 -2.1 -2.1 -2.1 -2.1 -2.1 -2.1 -2.1 -2.1 -2.1 -2.1 -2.1 -2.1 -2.1 -2.1 -2.1 -2.1 -2.1 -2.1 -2.1 -2.1 -2.1 -2.1 -2.1 -2.1 -2.1 -2.1 -2.1 -2.1 -2.1 -2.1 -2.1 -2.1 -2.1 -2.1 -2.1 -2.1 -2.1 -2.1 -2.1 -2.1 -2.1 -2.1 -2.1 -2.1 -2.1 -2.1 -2.1 -2.1 -2.1 -2.1 -2.1 -2.1 -2.1 -2.1 -2.1 -2.1 -2.1 -2.1 -2.1 -2.1 -2.1 -2.1 -2.1 -2.1 -2.1 -2.1 -2.1 -2.1 -2.1 -2.1 -2.1 -2.1 -2.1 -2.1 -2.1 -2.1 -2.1 -2.1 -2.1 -2.1 -2.1 -2.1 -2.1 -2.1 -2.1 -2.1 -2.1 -2.1 -2.1 -2.1 -2.1 -2.1 -2.1 -2.1 -2.1 -2.1 -2.1 -2.1 -2.1 -2.1 -2.1 -2.1 -2.1 -2.1 -2.1 -2.1 -2.1 -2.1 -2.1 -2.1 -2.1 -2.1 -2.1 -2.1 -2.1 -2.1 -2.1 -2.1 -2.1 -2.1 -2.1 -2.1 -2.1 -2.1 -2.1 -2.1 -2.1 -2.1 -2.1 -2.1 -2.1 -2.1 -2.1 -2.1 -2.1 -2.1 -2.1 -2.1 -2.1 -2.1 -2.1 -2.1 -2.1 -2.1 -2.1 -2.1 -2.1 -2.1 -2.1 -2.1 -2.1 -2.1 -2.1 -2.1 -2.1 -2.1 4.5 4.3 1.5 1.5 1.6 2.3 5.4 5.9 5.5 5.9 6.7 7.4 8.2
-2.1 -2.1 -2.1 -2.1 -2.1 -2.1 -2.1 -2.1 -2.1 -2.1 -2.1 -2.1 -2.1 -2.1 -2.1 -2.1 -2.1 -2.1 -2.1 -2.1 -2.1 -2.1 -2.1 -2.1 -2.1 -2.1 -2.1 -2.1 -2.1 -2.1 -2.1 -2.1 -2.1 -2.1 -2.1 -2.1 -2.1 -2.1 -2.1 -2.1 -2.1 -2.1 -2.1 -2.1 -2.1 -2.1 -2.1 -2.1 -2.1 -2.1 -2.1 -2.1 -2.1 -2.1 -2.1 -2.1 -2.1 -2.1 -2.1 -2.1 -2.1 -2.1 -2.1 -2.1 -2.1 -2.1 -2.1 -2.1 -2.1 -2.1 -2.1 -2.1 -2.1 -2.1 -2.1 -2.1 -2.1 -2.1 -2.1 -2.1 -2.1 -2.1 -2.1 -2.1 -2.1 -2.1 -2.1 -2.1 -2.1 -2.1 -2.1 -2.1 -2.1 -2.1 -2.1 -2.1 -2.1 -2.1 -2.1 -2.1 -2.1 -2.1 -2.1 -2.1 -2.1 -2.1 -2.1 -2.1 -2.1 -2.1 -2.1 -2.1 -2.1 -2.1 -2.1 -2.1 -2.1 -2.1 -2.1 -2.1 -2.1 -2.1 -2.1 -2.1 -2.1 -2.1 -2.1 -2.1 -2.1 -2.1 -2.1 -2.1 -2.1 -2.1 -2.1 -2.1 -2.1 -2.1 -2.1 -2.1 -2.1 -2.1 -2.1 -2.1 -2.1 -2.1 -2.1 -2.1 -2.1 -2.1 -2.1 -2.1 -2.1 -2.1 -2.1 -2.1 -2.1 -2.1 -2.1 -2.1 -2.1 -2.1 -2.1 -2.1 -2.1 -2.1 -2.1 -2.1 -2.1 -2.1 -2.1 -2.1 -2.1 -2.1 -2.1 -2.1 -2.1 -2.1 -2.1 -2.1 -2.1 -2.1 -2.1 -2.1 -2.1 4.5 5.1 4.1 1.5 1.5 1.7 1.5 2.6 5.3 5.5 5.6 6.3 7.2 7.5 8.6
-2.1 -2.1 -2.1 -2.1 -2.1 -2.1 -2.1 -2.1 -2.1 -2.1 -2.1 -2.1 -2.1 -2.1 -2.1 -2.1 -2.1 -2.1 -2.1 -2.1 -2.1 -2.1 -2.1 -2.1 -2.1 -2.1 -2.1 -2.1 -2.1 -2.1 -2.1 -2.1 -2.1 -2.1 -2.1 -2.1 -2.1 -2.1 -2.1 -2.1 -2.1 -2.1 -2.1 -2.1 -2.1 -2.1 -2.1 -2.1 -2.1 -2.1 -2.1 -2.1 -2.1 -2.1 -2.1 -2.1 -2.1 -2.1 -2.1 -2.1 -2.1 -2.1 -2.1 -2.1 -2.1 -2.1 -2.1 -2.1 -2.1 -2.1 -2.1 -2.1 -2.1 -2.1 -2.1 -2.1 -2.1 -2.1 -2.1 -2.1 -2.1 -2.1 -2.1 -2.1 -2.1 -2.1 -2.1 -2.1 -2.1 -2.1 -2.1 -2.1 -2.1 -2.1 -2.1 -2.1 -2.1 -2.1 -2.1 -2.1 -2.1 -2.1 -2.1 -2.1 -2.1 -2.1 -2.1 -2.1 -2.1 -2.1 -2.1 -2.1 -2.1 -2.1 -2.1 -2.1 -2.1 -2.1 -2.1 -2.1 -2.1 -2.1 -2.1 -2.1 -2.1 -2.1 -2.1 -2.1 -2.1 -2.1 -2.1 -2.1 -2.1 -2.1 -2.1 -2.1 -2.1 -2.1 -2.1 -2.1 -2.1 -2.1 -2.1 -2.1 -2.1 -2.1 -2.1 -2.1 -2.1 -2.1 -2.1 -2.1 -2.1 -2.1 -2.1 -2.1 -2.1 -2.1 -2.1 -2.1 -2.1 -2.1 -2.1 -2.1 -2.1 -2.1 -2.1 -2.1 -2.1 -2.1 -2.1 -2.1 -2.1 -2.1 -2.1 -2.1 -2.1 -2.1 -2.1 -2.1 -2.1 -2.1 -2.1 2.1 8.3 5.5 4.6 1.5 1.6 1.5 1.6 1.9 5.2 5.5 5.8 6.3 6.7 7.7 7.8 8.4
-2.1 -2.1 -2.1 -2.1 -2.1 -2.1 -2.1 -2.1 -2.1 -2.1 -2.1 -2.1 -2.1 -2.1 -2.1 -2.1 -2.1 -2.1 -2.1 -2.1 -2.1 -2.1 -2.1 -2.1 -2.1 -2.1 -2.1 -2.1 -2.1 -2.1 -2.1 -2.1 -2.1 -2.1 -2.1 -2.1 -2.1 -2.1 -2.1 -2.1 -2.1 -2.1 -2.1 -2.1 -2.1 -2.1 -2.1 -2.1 -2.1 -2.1 -2.1 -2.1 -2.1 -2.1 -2.1 -2.1 -2.1 -2.1 -2.1 -2.1 -2.1 -2.1 -2.1 -2.1 -2.1 -2.1 -2.1 -2.1 -2.1 -2.1 -2.1 -2.1 -2.1 -2.1 -2.1 -2.1 -2.1 -2.1 -2.1 -2.1 -2.1 -2.1 -2.1 -2.1 -2.1 -2.1 -2.1 -2.1 -2.1 -2.1 -2.1 -2.1 -2.1 -2.1 -2.1 -2.1 -2.1 -2.1 -2.1 -2.1 -2.1 -2.1 -2.1 -2.1 -2.1 -2.1 -2.1 -2.1 -2.1 -2.1 -2.1 -2.1 -2.1 -2.1 -2.1 -2.1 -2.1 -2.1 -2.1 -2.1 -2.1 -2.1 -2.1 -2.1 -2.1 -2.1 -2.1 -2.1 -2.1 -2.1 -2.1 -2.1 -2.1 -2.1 -2.1 -2.1 -2.1 -2.1 -2.1 -2.1 -2.1 -2.1 -2.1 -2.1 -2.1 -2.1 -2.1 -2.1 -2.1 -2.1 -2.1 -2.1 -2.1 -2.1 -2.1 -2.1 -2.1 -2.1 -2.1 -2.1 -2.1 -2.1 -2.1 -2.1 -2.1 -2.1 -2.1 -2.1 -2.1 -2.1 -2.1 -2.1 -2.1 -2.1 -2.1 -2.1 -2.1 -2.1 -2.1 -2.1 -2.1 -2.1 4 12.1 12.5 5.6 5.1 1.5 1.5 1.6 1.5 4.9 5.1 4.8 5 6.5 7.6 8.1 8.7 9.5
-2.1 -2.1 -2.1 -2.1 -2.1 -2.1 -2.1 -2.1 -2.1 -2.1 -2.1 -2.1 -2.1 -2.1 -2.1 -2.1 -2.1 -2.1 -2.1 -2.1 -2.1 -2.1 -2.1 -2.1 -2.1 -2.1 -2.1 -2.1 -2.1 -2.1 -2.1 -2.1 -2.1 -2.1 -2.1 -2.1 -2.1 -2.1 -2.1 -2.1 -2.1 -2.1 -2.1 -2.1 -2.1 -2.1 -2.1 -2.1 -2.1 -2.1 -2.1 -2.1 -2.1 -2.1 -2.1 -2.1 -2.1 -2.1 -2.1 -2.1 -2.1 -2.1 -2.1 -2.1 -2.1 -2.1 -2.1 -2.1 -2.1 -2.1 -2.1 -2.1 -2.1 -2.1 -2.1 -2.1 -2.1 -2.1 -2.1 -2.1 -2.1 -2.1 -2.1 -2.1 -2.1 -2.1 -2.1 -2.1 -2.1 -2.1 -2.1 -2.1 -2.1 -2.1 -2.1 -2.1 -2.1 -2.1 -2.1 -2.1 -2.1 -2.1 -2.1 -2.1 -2.1 -2.1 -2.1 -2.1 -2.1 -2.1 -2.1 -2.1 -2.1 -2.1 -2.1 -2.1 -2.1 -2.1 -2.1 -2.1 -2.1 -2.1 -2.1 -2.1 -2.1 -2.1 -2.1 -2.1 -2.1 -2.1 -2.1 -2.1 -2.1 -2.1 -2.1 -2.1 -2.1 -2.1 -2.1 -2.1 -2.1 -2.1 -2.1 -2.1 -2.1 -2.1 -2.1 -2.1 -2.1 -2.1 -2.1 -2.1 -2.1 -2.1 -2.1 -2.1 -2.1 -2.1 -2.1 -2.1 -2.1 -2.1 -2.1 -2.1 -2.1 -2.1 -2.1 -2.1 -2.1 -2.1 -2.1 -2.1 -2.1 -2.1 -2.1 -2.1 -2.1 -2.1 -2.1 -2.1 -2.1 -2.1 10.6 14.4 11.4 5.7 4.7 4.4 1.7 2.3 5.5 5.5 5.1 4.9 5.6 6.4 8.4 9.3 9.7 9.9
-2.1 -2.1 -2.1 -2.1 -2.1 -2.1 -2.1 -2.1 -2.1 -2.1 -2.1 -2.1 -2.1 -2.1 -2.1 -2.1 -2.1 -2.1 -2.1 -2.1 -2.1 -2.1 -2.1 -2.1 -2.1 -2.1 -2.1 -2.1 -2.1 -2.1 -2.1 -2.1 -2.1 -2.1 -2.1 -2.1 -2.1 -2.1 -2.1 -2.1 -2.1 -2.1 -2.1 -2.1 -2.1 -2.1 -2.1 -2.1 -2.1 -2.1 -2.1 -2.1 -2.1 -2.1 -2.1 -2.1 -2.1 -2.1 -2.1 -2.1 -2.1 -2.1 -2.1 -2.1 -2.1 -2.1 -2.1 -2.1 -2.1 -2.1 -2.1 -2.1 -2.1 -2.1 -2.1 -2.1 -2.1 -2.1 -2.1 -2.1 -2.1 -2.1 -2.1 -2.1 -2.1 -2.1 -2.1 -2.1 -2.1 -2.1 -2.1 -2.1 -2.1 -2.1 -2.1 -2.1 -2.1 -2.1 -2.1 -2.1 -2.1 -2.1 -2.1 -2.1 -2.1 -2.1 -2.1 -2.1 -2.1 -2.1 -2.1 -2.1 -2.1 -2.1 -2.1 -2.1 -2.1 -2.1 -2.1 -2.1 -2.1 -2.1 -2.1 -2.1 -2.1 -2.1 -2.1 -2.1 -2.1 -2.1 -2.1 -2.1 -2.1 -2.1 -2.1 -2.1 -2.1 -2.1 -2.1 -2.1 -2.1 -2.1 -2.1 -2.1 -2.1 -2.1 -2.1 -2.1 -2.1 -2.1 -2.1 -2.1 -2.1 -2.1 -2.1 -2.1 -2.1 -2.1 -2.1 -2.1 -2.1 -2.1 -2.1 -2.1 -2.1 -2.1 -2.1 -2.1 -2.1 -2.1 -2.1 -2.1 -2.1 -2.1 -2.1 -2.1 -2.1 -2.1 -2.1 -2.1 -2.1 2.3 12.1 11 7.8 5.8 5.5 5.3 5 5.4 6.3 5.8 5.5 5.7 8 7 9.6 10.6 10.3 10.3
-2.1 -2.1 -2.1 -2.1 -2.1 -2.1 -2.1 -2.1 -2.1 -2.1 -2.1 -2.1 -2.1 -2.1 -2.1 -2.1 -2.1 -2.1 -2.1 -2.1 -2.1 -2.1 -2.1 -2.1 -2.1 -2.1 -2.1 -2.1 -2.1 -2.1 -2.1 -2.1 -2.1 -2.1 -2.1 -2.1 -2.1 -2.1 -2.1 -2.1 -2.1 -2.1 -2.1 -2.1 -2.1 -2.1 -2.1 -2.1 -2.1 -2.1 -2.1 -2.1 -2.1 -2.1 -2.1 -2.1 -2.1 -2.1 -2.1 -2.1 -2.1 -2.1 -2.1 -2.1 -2.1 -2.1 -2.1 -2.1 -2.1 -2.1 -2.1 -2.1 -2.1 -2.1 -2.1 -2.1 -2.1 -2.1 -2.1 -2.1 -2.1 -2.1 -2.1 -2.1 -2.1 -2.1 -2.1 -2.1 -2.1 -2.1 -2.1 -2.1 -2.1 -2.1 -2.1 -2.1 -2.1 -2.1 -2.1 -2.1 -2.1 -2.1 -2.1 -2.1 -2.1 -2.1 -2.1 -2.1 -2.1 -2.1 -2.1 -2.1 -2.1 -2.1 -2.1 -2.1 -2.1 -2.1 -2.1 -2.1 -2.1 -2.1 -2.1 -2.1 -2.1 -2.1 -2.1 -2.1 -2.1 -2.1 -2.1 -2.1 -2.1 -2.1 -2.1 -2.1 -2.1 -2.1 -2.1 -2.1 -2.1 -2.1 -2.1 -2.1 -2.1 -2.1 -2.1 -2.1 -2.1 -2.1 -2.1 -2.1 -2.1 -2.1 -2.1 -2.1 -2.1 -2.1 -2.1 -2.1 -2.1 -2.1 -2.1 -2.1 -2.1 -2.1 -2.1 -2.1 -2.1 -2.1 -2.1 -2.1 -2.1 -2.1 -2.1 -2.1 -2.1 -2.1 -2.1 -2.1 -2.1 -2.1 9.9 8.4 5.9 6.8 11 5.6 5.2 6.4 6.6 6.3 6.8 8.1 9.1 10.4 11.2 11 10.9 11.1
-2.1 -2.1 -2.1 -2.1 -2.1 -2.1 -2.1 -2.1 -2.1 -2.1 -2.1 -2.1 -2.1 -2.1 -2.1 -2.1 -2.1 -2.1 -2.1 -2.1 -2.1 -2.1 -2.1 -2.1 -2.1 -2.1 -2.1 -2.1 -2.1 -2.1 -2.1 -2.1 -2.1 -2.1 -2.1 -2.1 -2.1 -2.1 -2.1 -2.1 -2.1 -2.1 -2.1 -2.1 -2.1 -2.1 -2.1 -2.1 -2.1 -2.1 -2.1 -2.1 -2.1 -2.1 -2.1 -2.1 -2.1 -2.1 -2.1 -2.1 -2.1 -2.1 -2.1 -2.1 -2.1 -2.1 -2.1 -2.1 -2.1 -2.1 -2.1 -2.1 -2.1 -2.1 -2.1 -2.1 -2.1 -2.1 -2.1 -2.1 -2.1 -2.1 -2.1 -2.1 -2.1 -2.1 -2.1 -2.1 -2.1 -2.1 -2.1 -2.1 -2.1 -2.1 -2.1 -2.1 -2.1 -2.1 -2.1 -2.1 -2.1 -2.1 -2.1 -2.1 -2.1 -2.1 -2.1 -2.1 -2.1 -2.1 -2.1 -2.1 -2.1 -2.1 -2.1 -2.1 -2.1 -2.1 -2.1 -2.1 -2.1 -2.1 -2.1 -2.1 -2.1 -2.1 -2.1 -2.1 -2.1 -2.1 -2.1 -2.1 -2.1 -2.1 -2.1 -2.1 -2.1 -2.1 -2.1 -2.1 -2.1 -2.1 -2.1 -2.1 -2.1 -2.1 -2.1 -2.1 -2.1 -2.1 -2.1 -2.1 -2.1 -2.1 -2.1 -2.1 -2.1 -2.1 -2.1 -2.1 -2.1 -2.1 -2.1 -2.1 -2.1 -2.1 -2.1 -2.1 -2.1 -2.1 -2.1 -2.1 -2.1 -2.1 -2.1 -2.1 -2.1 -2.1 -2.1 -2.1 -2.1 -2.1 6.6 7.5 6.4 6.4 8 6.2 6.7 6.8 7.1 7.6 8.1 9 11.1 11.8 12.3 11.9 11.7 12.2
-2.1 -2.1 -2.1 -2.1 -2.1 -2.1 -2.1 -2.1 -2.1 -2.1 -2.1 -2.1 -2.1 -2.1 -2.1 -2.1 -2.1 -2.1 -2.1 -2.1 -2.1 -2.1 -2.1 -2.1 -2.1 -2.1 -2.1 -2.1 -2.1 -2.1 -2.1 -2.1 -2.1 -2.1 -2.1 -2.1 -2.1 -2.1 -2.1 -2.1 -2.1 -2.1 -2.1 -2.1 -2.1 -2.1 -2.1 -2.1 -2.1 -2.1 -2.1 -2.1 -2.1 -2.1 -2.1 -2.1 -2.1 -2.1 -2.1 -2.1 -2.1 -2.1 -2.1 -2.1 -2.1 -2.1 -2.1 -2.1 -2.1 -2.1 -2.1 -2.1 -2.1 -2.1 -2.1 -2.1 -2.1 -2.1 -2.1 -2.1 -2.1 -2.1 -2.1 -2.1 -2.1 -2.1 -2.1 -2.1 -2.1 -2.1 -2.1 -2.1 -2.1 -2.1 -2.1 -2.1 -2.1 -2.1 -2.1 -2.1 -2.1 -2.1 -2.1 -2.1 -2.1 -2.1 -2.1 -2.1 -2.1 -2.1 -2.1 -2.1 -2.1 -2.1 -2.1 -2.1 -2.1 -2.1 -2.1 -2.1 -2.1 -2.1 -2.1 -2.1 -2.1 -2.1 -2.1 -2.1 -2.1 -2.1 -2.1 -2.1 -2.1 -2.1 -2.1 -2.1 -2.1 -2.1 -2.1 -2.1 -2.1 -2.1 -2.1 -2.1 -2.1 -2.1 -2.1 -2.1 -2.1 -2.1 -2.1 -2.1 -2.1 -2.1 -2.1 -2.1 -2.1 -2.1 -2.1 -2.1 -2.1 -2.1 -2.1 -2.1 -2.1 -2.1 -2.1 -2.1 -2.1 -2.1 -2.1 -2.1 -2.1 -2.1 -2.1 -2.1 -2.1 -2.1 -2.1 -2.1 -2.1 2.3 5.8 6.2 6.6 6.4 6.3 7.4 7.7 7.9 8 9 10.3 11.5 12.4 12.6 12.6 15.2 18.8 20.2
-2.1 -2.1 -2.1 -2.1 -2.1 -2.1 -2.1 -2.1 -2.1 -2.1 -2.1 -2.1 -2.1 -2.1 -2.1 -2.1 -2.1 -2.1 -2.1 -2.1 -2.1 -2.1 -2.1 -2.1 -2.1 -2.1 -2.1 -2.1 -2.1 -2.1 -2.1 -2.1 -2.1 -2.1 -2.1 -2.1 -2.1 -2.1 -2.1 -2.1 -2.1 -2.1 -2.1 -2.1 -2.1 -2.1 -2.1 -2.1 -2.1 -2.1 -2.1 -2.1 -2.1 -2.1 -2.1 -2.1 -2.1 -2.1 -2.1 -2.1 -2.1 -2.1 -2.1 -2.1 -2.1 -2.1 -2.1 -2.1 -2.1 -2.1 -2.1 -2.1 -2.1 -2.1 -2.1 -2.1 -2.1 -2.1 -2.1 -2.1 -2.1 -2.1 -2.1 -2.1 -2.1 -2.1 -2.1 -2.1 -2.1 -2.1 -2.1 -2.1 -2.1 -2.1 -2.1 -2.1 -2.1 -2.1 -2.1 -2.1 -2.1 -2.1 -2.1 -2.1 -2.1 -2.1 -2.1 -2.1 -2.1 -2.1 -2.1 -2.1 -2.1 -2.1 -2.1 -2.1 -2.1 -2.1 -2.1 -2.1 -2.1 -2.1 -2.1 -2.1 -2.1 -2.1 -2.1 -2.1 -2.1 -2.1 -2.1 -2.1 -2.1 -2.1 -2.1 -2.1 -2.1 -2.1 -2.1 -2.1 -2.1 -2.1 -2.1 -2.1 -2.1 -2.1 -2.1 -2.1 -2.1 -2.1 -2.1 -2.1 -2.1 -2.1 -2.1 -2.1 -2.1 -2.1 -2.1 -2.1 -2.1 -2.1 -2.1 -2.1 -2.1 -2.1 -2.1 -2.1 -2.1 -2.1 -2.1 -2.1 -2.1 -2.1 -2.1 -2.1 -2.1 -2.1 -2.1 -2.1 -2.1 3.9 6 9.6 6.6 6.3 7.3 10.1 8.9 9 9.2 13.9 16.4 11.4 11.9 12.6 12.7 19.8 12.9 12.9
-2.1 -2.1 -2.1 -2.1 -2.1 -2.1 -2.1 -2.1 -2.1 -2.1 -2.1 -2.1 -2.1 -2.1 -2.1 -2.1 -2.1 -2.1 -2.1 -2.1 -2.1 -2.1 -2.1 -2.1 -2.1 -2.1 -2.1 -2.1 -2.1 -2.1 -2.1 -2.1 -2.1 -2.1 -2.1 -2.1 -2.1 -2.1 -2.1 -2.1 -2.1 -2.1 -2.1 -2.1 -2.1 -2.1 -2.1 -2.1 -2.1 -2.1 -2.1 -2.1 -2.1 -2.1 -2.1 -2.1 -2.1 -2.1 -2.1 -2.1 -2.1 -2.1 -2.1 -2.1 -2.1 -2.1 -2.1 -2.1 -2.1 -2.1 -2.1 -2.1 -2.1 -2.1 -2.1 -2.1 -2.1 -2.1 -2.1 -2.1 -2.1 -2.1 -2.1 -2.1 -2.1 -2.1 -2.1 -2.1 -2.1 -2.1 -2.1 -2.1 -2.1 -2.1 -2.1 -2.1 -2.1 -2.1 -2.1 -2.1 -2.1 -2.1 -2.1 -2.1 -2.1 -2.1 -2.1 -2.1 -2.1 -2.1 -2.1 -2.1 -2.1 -2.1 -2.1 -2.1 -2.1 -2.1 -2.1 -2.1 -2.1 -2.1 -2.1 -2.1 -2.1 -2.1 -2.1 -2.1 -2.1 -2.1 -2.1 -2.1 -2.1 -2.1 -2.1 -2.1 -2.1 -2.1 -2.1 -2.1 -2.1 -2.1 -2.1 -2.1 -2.1 -2.1 -2.1 -2.1 -2.1 -2.1 -2.1 -2.1 -2.1 -2.1 -2.1 -2.1 -2.1 -2.1 -2.1 -2.1 -2.1 -2.1 -2.1 -2.1 -2.1 -2.1 -2.1 -2.1 -2.1 -2.1 -2.1 -2.1 -2.1 -2.1 -2.1 -2.1 -2.1 -2.1 -2.1 -2.1 2.4 4.2 4 6.6 6.7 7.4 11.5 10.9 12.2 17.8 17.8 11.4 10.5 13.4 19.5 13.6 13.7 18.6 13.9 14
-0.3 -2.1 -2.1 -2.1 -2.1 -2.1 -2.1 -2.1 -2.1 -2.1 -2.1 -2.1 -2.1 -2.1 -2.1 -2.1 -2.1 -2.1 -2.1 -2.1 -2.1 -2.1 -2.1 -2.1 -2.1 -2.1 -2.1 -2.1 -2.1 -2.1 -2.1 -2.1 -2.1 -2.1 -2.1 -2.1 -2.1 -2.1 -2.1 -2.1 -2.1 -2.1 -2.1 -2.1 -2.1 -2.1 -2.1 -2.1 -2.1 -2.1 -2.1 -2.1 -2.1 -2.1 -2.1 -2.1 -2.1 -2.1 -2.1 -2.1 -2.1 -2.1 -2.1 -2.1 -2.1 -2.1 -2.1 -2.1 -2.1 -2.1 -2.1 -2.1 -2.1 -2.1 -2.1 -2.1 -2.1 -2.1 -2.1 -2.1 -2.1 -2.1 -2.1 -2.1 -2.1 -2.1 -2.1 -2.1 -2.1 -2.1 -2.1 -2.1 -2.1 -2.1 -2.1 -2.1 -2.1 -2.1 -2.1 -2.1 -2.1 -2.1 -2.1 -2.1 -2.1 -2.1 -2.1 -2.1 -2.1 -2.1 -2.1 -2.1 -2.1 -2.1 -2.1 -2.1 -2.1 -2.1 -2.1 -2.1 -2.1 -2.1 -2.1 -2.1 -2.1 -2.1 -2.1 -2.1 -2.1 -2.1 -2.1 -2.1 -2.1 -2.1 -2.1 -2.1 -2.1 -2.1 -2.1 -2.1 -2.1 -2.1 -2.1 -2.1 -2.1 -2.1 -2.1 -2.1 -2.1 -2.1 -2.1 -2.1 -2.1 -2.1 -2.1 -2.1 -2.1 -2.1 -2.1 -2.1 -2.1 -2.1 -2.1 -2.1 -2.1 -2.1 -2.1 -2.1 -2.1 -2.1 -2.1 -2.1 -2.1 -2.1 -2.1 -2.1 -2.1 -2.1 -2.1 -2.1 3.7 4.9 5.1 5.7 8.7 8.4 14.3 14.3 10.8 10.4 10.3 10.6 11.5 12.6 14 19 15 15.5 17.5 15.1
1.2 -0.7 -2.1 -2.1 -2.1 -2.1 -2.1 -2.1 -2.1 -2.1 -2.1 -2.1 -2.1 -2.1 -2.1 -2.1 -2.1 -2.1 -2.1 -2.1 -2.1 -2.1 -2.1 -2.1 -2.1 -2.1 -2.1 -2.1 -2.1 -2.1 -2.1 -2.1 -2.1 -2.1 -2.1 -2.1 -2.1 -2.1 -2.1 -2.1 -2.1 -2.1 -2.1 -2.1 -2.1 -2.1 -2.1 -2.1 -2.1 -2.1 -2.1 -2.1 -2.1 -2.1 -2.1 -2.1 -2.1 -2.1 -2.1 -2.1 -2.1 -2.1 -2.1 -2.1 -2.1 -2.1 -2.1 -2.1 -2.1 -2.1 -2.1 -2.1 -2.1 -2.1 -2.1 -2.1 -2.1 -2.1 -2.1 -2.1 -2.1 -2.1 -2.1 -2.1 -2.1 -2.1 -2.1 -2.1 -2.1 -2.1 -2.1 -2.1 -2.1 -2.1 -2.1 -2.1 -2.1 -2.1 -2.1 -2.1 -2.1 -2.1 -2.1 -2.1 -2.1 -2.1 -2.1 -2.1 -2.1 -2.1 -2.1 -2.1 -2.1 -2.1 -2.1 -2.1 -2.1 -2.1 -2.1 -2.1 -2.1 -2.1 -2.1 -2.1 -2.1 -2.1 -2.1 -2.1 -2.1 -2.1 -2.1 -2.1 -2.1 -2.1 -2.1 -2.1 -2.1 -2.1 -2.1 -2.1 -2.1 -2.1 -2.1 -2.1 -2.1 -2.1 -2.1 -2.1 -2.1 -2.1 -2.1 -2.1 -2.1 -2.1 -2.1 -2.1 -2.1 -2.1 -2.1 -2.1 -2.1 -2.1 -2.1 -2.1 -2.1 -2.1 -2.1 -2.1 -2.1 -2.1 -2.1 -2.1 -2.1 -2.1 -2.1 -2.1 -2.1 -2.1 -2.1 3.3 5.1 5.4 5.1 6.9 9 10.3 9.8 10.3 10.9 10.4 11.3 12.2 13.4 14.5 15.1 21.8 16.3 17 21.8 16.5
1.3 0.3 -0.5 -1.3 -2.1 -2.1 -2.1 -2.1 -2.1 -2.1 -2.1 -2.1 -2.1 -2.1 -2.1 -2.1 -2.1 -2.1 -2.1 -2.1 -2.1 -2.1 -2.1 -2.1 -2.1 -2.1 -2.1 -2.1 -2.1 -2.1 -2.1 -2.1 -2.1 -2.1 -2.1 -2.1 -2.1 -2.1 -2.1 -2.1 -2.1 -2.1 -2.1 -2.1 -2.1 -2.1 -2.1 -2.1 -2.1 -2.1 -2.1 -2.1 -2.1 -2.1 -2.1 -2.1 -2.1 -2.1 -2.1 -2.1 -2.1 -2.1 -2.1 -2.1 -2.1 -2.1 -2.1 -2.1 -2.1 -2.1 -2.1 -2.1 -2.1 -2.1 -2.1 -2.1 -2.1 -2.1 -2.1 -2.1 -2.1 -2.1 -2.1 -2.1 -2.1 -2.1 -2.1 -2.1 -2.1 -2.1 -2.1 -2.1 -2.1 -2.1 -2.1 -2.1 -2.1 -2.1 -2.1 -2.1 -2.1 -2.1 -2.1 -2.1 -2.1 -2.1 -2.1 -2.1 -2.1 -2.1 -2.1 -2.1 -2.1 -2.1 -2.1 -2.1 -2.1 -2.1 -2.1 -2.1 -2.1 -2.1 -2.1 -2.1 -2.1 -2.1 -2.1 -2.1 -2.1 -2.1 -2.1 -2.1 -2.1 -2.1 -2.1 -2.1 -2.1 -2.1 -2.1 -2.1 -2.1 -2.1 -2.1 -2.1 -2.1 -2.1 -2.1 -2.1 -2.1 -2.1 -2.1 -2.1 -2.1 -2.1 -2.1 -2.1 -2.1 -2.1 -2.1 -2.1 -2.1 -2.1 -2.1 -2.1 -2.1 -2.1 -2.1 -2.1 -2.1 -2.1 -2.1 -2.1 -2.1 -2.1 -2.1 -2.1 -2.1 -2.1 2.7 4.6 5.4 5.4 6.4 10.7 10.9 10.6 10.4 10.7 11.2 11.8 12.8 13.7 15.1 16.1 16.7 17.3 20.4 17.8 18.5 17.9
2 1.2 0.4 -0.4 -1.1 -2.1 -2.1 -2.1 -2.1 -2.1 -2.1 -2.1 -2.1 -2.1 -2.1 -2.1 -2.1 -2.1 -2.1 -2.1 -2.1 -2.1 -2.1 -2.1 -2.1 -2.1 -2.1 -2.1 -2.1 -2.1 -2.1 -2.1 -2.1 -2.1 -2.1 -2.1 -2.1 -2.1 -2.1 -2.1 -2.1 -2.1 -2.1 -2.1 -2.1 -2.1 -2.1 -2.1 -2.1 -2.1 -2.1 -2.1 -2.1 -2.1 -2.1 -2.1 -2.1 -2.1 -2.1 -2.1 -2.1 -2.1 -2.1 -2.1 -2.1 -2.1 -2.1 -2.1 -2.1 -2.1 -2.1 -2.1 -2.1 -2.1 -2.1 -2.1 -2.1 -2.1 -2.1 -2.1 -2.1 -2.1 -2.1 -2.1 -2.1 -2.1 -2.1 -2.1 -2.1 -2.1 -2.1 -2.1 -2.1 -2.1 -2.1 -2.1 -2.1 -2.1 -2.1 -2.1 -2.1 -2.1 -2.1 -2.1 -2.1 -2.1 -2.1 -2.1 -2.1 -2.1 -2.1 -2.1 -2.1 -2.1 -2.1 -2.1 -2.1 -2.1 -2.1 -2.1 -2.1 -2.1 -2.1 -2.1 -2.1 -2.1 -2.1 -2.1 -2.1 -2.1 -2.1 -2.1 -2.1 -2.1 -2.1 -2.1 -2.1 -2.1 -2.1 -2.1 -2.1 -2.1 -2.1 -2.1 -2.1 -2.1 -2.1 -2.1 -2.1 -2.1 -2.1 -2.1 -2.1 -2.1 -2.1 -2.1 -2.1 -2.1 -2.1 -2.1 -2.1 -2.1 -2.1 -2.1 -2.1 -2.1 -2.1 -2.1 -2.1 -2.1 -2.1 -2.1 -2.1 -2.1 -2.1 -2.1 -2.1 1.7 5.2 6.8 6.2 7.7 9.1 11.2 12.1 11.7 11.5 12 12.6 13.3 14.3 15.2 16.3 17.2 18 18.4 27.4 19.4 19.5 24.4
3.8 2.1 1.3 0.5 -0.2 -1 -2.1 -2.1 -2.1 -2.1 -2.1 -2.1 -2.1 -2.1 -2.1 -2.1 -2.1 -2.1 -2.1 -2.1 -2.1 -2.1 -2.1 -2.1 -2.1 -2.1 -2.1 -2.1 -2.1 -2.1 -2.1 -2.1 -2.1 -2.1 -2.1 -2.1 -2.1 -2.1 -2.1 -2.1 -2.1 -2.1 -2.1 -2.1 -2.1 -2.1 -2.1 -2.1 -2.1 -2.1 -2.1 -2.1 -2.1 -2.1 -2.1 -2.1 -2.1 -2.1 -2.1 -2.1 -2.1 -2.1 -2.1 -2.1 -2.1 -2.1 -2.1 -2.1 -2.1 -2.1 -2.1 -2.1 -2.1 -2.1 -2.1 -2.1 -2.1 -2.1 -2.1 -2.1 -2.1 -2.1 -2.1 -2.1 -2.1 -2.1 -2.1 -2.1 -2.1 -2.1 -2.1 -2.1 -2.1 -2.1 -2.1 -2.1 -2.1 -2.1 -2.1 -2.1 -2.1 -2.1 -2.1 -2.1 -2.1 -2.1 -2.1 -2.1 -2.1 -2.1 -2.1 -2.1 -2.1 -2.1 -2.1 -2.1 -2.1 -2.1 -2.1 -2.1 -2.1 -2.1 -2.1 -2.1 -2.1 -2.1 -2.1 -2.1 -2.1 -2.1 -2.1 -2.1 -2.1 -2.1 -2.1 -2.1 -2.1 -2.1 -2.1 -2.1 -2.1 -2.1 -2.1 -2.1 -2.1 -2.1 -2.1 -2.1 -2.1 -2.1 -2.1 -2.1 -2.1 -2.1 -2.1 -2.1 -2.1 -2.1 -2.1 -2.1 -2.1 -2.1 -2.1 -2.1 -2.1 -2.1 -2.1 -2.1 -2.1 -2.1 -2.1 -2.1 -2.1 -2.1 -2.1 -2.1 -2.1 3.7 7.7 8.6 9.4 10 11.1 12.3 12.8 12.7 12.7 13.3 13.9 14.8 15.7 16.6 17.4 18.1 18.7 19.3 20 20.5 20.6 21.7
8.9 3.9 2.1 1.4 0.6 -0.1 -0.8 -2.1 -2.1 -2.1 -2.1 -2.1 -2.1 -2.1 -2.1 -2.1 -2.1 -2.1 -2.1 -2.1 -2.1 -2.1 -2.1 -2.1 -2.1 -2.1 -2.1 -2.1 -2.1 -2.1 -2.1 -2.1 -2.1 -2.1 -2.1 -2.1 -2.1 -2.1 -2.1 -2.1 -2.1 -2.1 -2.1 -2.1 -2.1 -2.1 -2.1 -2.1 -2.1 -2.1 -2.1 -2.1 -2.1 -2.1 -2.1 -2.1 -2.1 -2.1 -2.1 -2.1 -2.1 -2.1 -2.1 -2.1 -2.1 -2.1 -2.1 -2.1 -2.1 -2.1 -2.1 -2.1 -2.1 -2.1 -2.1 -2.1 -2.1 -2.1 -2.1 -2.1 -2.1 -2.1 -2.1 -2.1 -2.1 -2.1 -2.1 -2.1 -2.1 -2.1 -2.1 -2.1 -2.1 -2.1 -2.1 -2.1 -2.1 -2.1 -2.1 -2.1 -2.1 -2.1 -2.1 -2.1 -2.1 -2.1 -2.1 -2.1 -2.1 -2.1 -2.1 -2.1 -2.1 -2.1 -2.1 -2.1 -2.1 -2.1 -2.1 -2.1 -2.1 -2.1 -2.1 -2.1 -2.1 -2.1 -2.1 -2.1 -2.1 -2.1 -2.1 -2.1 -2.1 -2.1 -2.1 -2.1 -2.1 -2.1 -2.1 -2.1 -2.1 -2.1 -2.1 -2.1 -2.1 -2.1 -2.1 -2.1 -2.1 -2.1 -2.1 -2.1 -2.1 -2.1 -2.1 -2.1 -2.1 -2.1 -2.1 -2.1 -2.1 -2.1 -2.1 -2.1 -2.1 -2.1 -2.1 -2.1 -2.1 -2.1 -2.1 -2.1 -2.1 -2.1 -2.1 1.3 5.3 6.7 9.9 12.4 12.1 11.8 13.1 13.5 13.5 13.5 13.6 14.3 14.9 16.1 16.9 17.7 18.5 19.2 19.9 20.5 21.1 21.9 22 23
7.9 7.1 4 2.2 1.4 0.7 0 -0.7 -1.4 -2.1 -2.1 -2.1 -2.1 -2.1 -2.1 -2.1 -2.1 -2.1 -2.1 -2.1 -2.1 -2.1 -2.1 -2.1 -2.1 -2.1 -2.1 -2.1 -2.1 -2.1 -2.1 -2.1 -2.1 -2.1 -2.1 -2.1 -2.1 -2.1 -2.1 -2.1 -2.1 -2.1 -2.1 -2.1 -2.1 -2.1 -2.1 -2.1 -2.1 -2.1 -2.1 -2.1 -2.1 -2.1 -2.1 -2.1 -2.1 -2.1 -2.1 -2.1 -2.1 -2.1 -2.1 -2.1 -2.1 -2.1 -2.1 -2.1 -2.1 -2.1 -2.1 -2.1 -2.1 -2.1 -2.1 -2.1 -2.1 -2.1 -2.1 -2.1 -2.1 -2.1 -2.1 -2.1 -2.1 -2.1 -2.1 -2.1 -2.1 -2.1 -2.1 -2.1 -2.1 -2.1 -2.1 -2.1 -2.1 -2.1 -2.1 -2.1 -2.1 -2.1 -2.1 -2.1 -2.1 -2.1 -2.1 -2.1 -2.1 -2.1 -2.1 -2.1 -2.1 -2.1 -2.1 -2.1 -2.1 -2.1 -2.1 -2.1 -2.1 -2.1 -2.1 -2.1 -2.1 -2.1 -2.1 -2.1 -2.1 -2.1 -2.1 -2.1 -2.1 -2.1 -2.1 -2.1 -2.1 -2.1 -2.1 -2.1 -2.1 -2.1 -2.1 -2.1 -2.1 -2.1 -2.1 -2.1 -2.1 -2.1 -2.1 -2.1 -2.1 -2.1 -2.1 -2.1 -2.1 -2.1 -2.1 -2.1 -2.1 -2.1 -2.1 -2.1 -2.1 -2.1 -2.1 -2.1 -2.1 -2.1 -2.1 -2.1 -2.1 -2.1 2.2 7.3 7.2 12.3 13.2 13.5 13.2 13.9 14.7 14.7 14.5 14.5 14.5 15.2 16 17.3 18.2 18.8 19.6 20.4 21 21.7 22.4 23.1 23.5 24.5
7.9 8 7.2 4.2 2.3 1.5 0.7 0 -0.6 -1.8 -2.1 -2.1 -2.1 -2.1 -2.1 -2.1 -2.1 -2.1 -2.1 -2.1 -2.1 -2.1 -2.1 -2.1 -2.1 -2.1 -2.1 -2.1 -2.1 -2.1 -2.1 -2.1 -2.1 -2.1 -2.1 -2.1 -2.1 -2.1 -2.1 -2.1 -2.1 -2.1 -2.1 -2.1 -2.1 -2.1 -2.1 -2.1 -2.1 -2.1 -2.1 -2.1 -2.1 -2.1 -2.1 -2.1 -2.1 -2.1 -2.1 -2.1 -2.1 -2.1 -2.1 -2.1 -2.1 -2.1 -2.1 -2.1 -2.1 -2.1 -2.1 -2.1 -2.1 -2.1 -2.1 -2.1 -2.1 -2.1 -2.1 -2.1 -2.1 -2.1 -2.1 -2.1 -2.1 -2.1 -2.1 -2.1 -2.1 -2.1 -2.1 -2.1 -2.1 -2.1 -2.1 -2.1 -2.1 -2.1 -2.1 -2.1 -2.1 -2.1 -2.1 -2.1 -2.1 -2.1 -2.1 -2.1 -2.1 -2.1 -2.1 -2.1 -2.1 -2.1 -2.1 -2.1 -2.1 -2.1 -2.1 -2.1 -2.1 -2.1 -2.1 -2.1 -2.1 -2.1 -2.1 -2.1 -2.1 -2.1 -2.1 -2.1 -2.1 -2.1 -2.1 -2.1 -2.1 -2.1 -2.1 -2.1 -2.1 -2.1 -2.1 -2.1 -2.1 -2.1 -2.1 -2.1 -2.1 -2.1 -2.1 -2.1 -2.1 -2.1 -2.1 -2.1 -2.1 -2.1 -2.1 -2.1 -2.1 -2.1 -2.1 -2.1 -2.1 -2.1 -2.1 -2.1 -2.1 -2.1 -2.1 -2.1 -2.1 3.3 7.1 10.2 14.4 14.1 14 13.9 14 14.3 14.8 15.2 15.3 15.4 15.4 16.2 17.2 18.5 20.1 20.9 21 21.8 22.3 23 23.7 24.4 25 25.7
8.1 8.5 8.4 6.9 3.8 2.2 1.4 0.8 -0.4 -1.9 -2.1 -2.1 -2.1 -2.1 -2.1 -2.1 -2.1 -2.1 -2.1 -2.1 -2.1 -2.1 -2.1 -2.1 -2.1 -2.1 -2.1 -2.1 -2.1 -2.1 -2.1 -2.1 -2.1 -2.1 -2.1 -2.1 -2.1 -2.1 -2.1 -2.1 -2.1 -2.1 -2.1 -2.1 -2.1 -2.1 -2.1 -2.1 -2.1 -2.1 -2.1 -2.1 -2.1 -2.1 -2.1 -2.1 -2.1 -2.1 -2.1 -2.1 -2.1 -2.1 -2.1 -2.1 -2.1 -2.1 -2.1 -2.1 -2.1 -2.1 -2.1 -2.1 -2.1 -2.1 -2.1 -2.1 -2.1 -2.1 -2.1 -2.1 -2.1 -2.1 -2.1 -2.1 -2.1 -2.1 -2.1 -2.1 -2.1 -2.1 -2.1 -2.1 -2.1 -2.1 -2.1 -2.1 -2.1 -2.1 -2.1 -2.1 -2.1 -2.1 -2.1 -2.1 -2.1 -2.1 -2.1 -2.1 -2.1 -2.1 -2.1 -2.1 -2.1 -2.1 -2.1 -2.1 -2.1 -2.1 -2.1 -2.1 -2.1 -2.1 -2.1 -2.1 -2.1 -2.1 -2.1 -2.1 -2.1 -2.1 -2.1 -2.1 -2.1 -2.1 -2.1 -2.1 -2.1 -2.1 -2.1 -2.1 -2.1 -2.1 -2.1 -2.1 -2.1 -2.1 -2.1 -2.1 -2.1 -2.1 -2.1 -2.1 -2.1 -2.1 -2.1 -2.1 -2.1 -2.1 -2.1 -2.1 -2.1 -2.1 -2.1 -2.1 -2.1 -2.1 -2.1 -2.1 -2.1 -2.1 0.7 1.5 2.6 5.9 9.5 12.5 13.7 14 14.3 14.5 14.7 15 15.3 15.6 15.9 16.2 16.8 17.8 19.9 22.1 21.9 21.6 21.7 23.3 23.7 24.5 25.3 26.2 26.9 27.5
9 8.6 8.2 7.3 5.5 4.4 2.1 1.1 -0.5 -2 -2.1 -2.1 -2.1 -2.1 -2.1 -2.1 -2.1 -2.1 -2.1 -2.1 -2.1 -2.1 -2.1 -2.1 -2.1 -2.1 -2.1 -2.1 -2.1 -2.1 -2.1 -2.1 -2.1 -2.1 -2.1 -2.1 -2.1 -2.1 -2.1 -2.1 -2.1 -2.1 -2.1 -2.1 -2.1 -2.1 -2.1 -2.1 -2.1 -2.1 -2.1 -2.1 -2.1 -2.1 -2.1 -2.1 -2.1 -2.1 -2.1 -2.1 -2.1 -2.1 -2.1 -2.1 -2.1 -2.1 -2.1 -2.1 -2.1 -2.1 -2.1 -2.1 -2.1 -2.1 -2.1 -2.1 -2.1 -2.1 -2.1 -2.1 -2.1 -2.1 -2.1 -2.1 -2.1 -2.1 -2.1 -2.1 -2.1 -2.1 -2.1 -2.1 -2.1 -2.1 -2.1 -2.1 -2.1 -2.1 -2.1 -2.1 -2.1 -2.1 -2.1 -2.1 -2.1 -2.1 -2.1 -2.1 -2.1 -2.1 -2.1 -2.1 -2.1 -2.1 -2.1 -2.1 -2.1 -2.1 -2.1 -2.1 -2.1 -2.1 -2.1 -2.1 -2.1 -2.1 -2.1 -2.1 -2.1 -2.1 -2.1 -2.1 -2.1 -2.1 -2.1 -2.1 -2.1 -2.1 -2.1 -2.1 -2.1 -2.1 -2.1 -2.1 -2.1 -2.1 -2.1 -2.1 -2.1 -2.1 -2.1 -2.1 -2.1 -2.1 -2.1 -2.1 -2.1 -2.1 -2.1 -2.1 -2.1 -2.1 -2.1 -2.1 -2.1 -2.1 -2.1 -2.1 -2.1 1.9 4.1 5.6 7 8.8 11.3 13.5 14.2 14.6 14.9 15.2 15.4 15.7 16.1 16.6 17.1 17.9 18.8 21 22.2 22.1 22.1 21.9 21.9 24.1 24.6 25.6 27.1 28.4 28.9 29.3
13.5 11.2 8.5 6.9 5.7 5.8 3 1 -0.6 -2.1 -2.1 -2.1 -1.9 -2.1 -2.1 -2.1 -2.1 -2.1 -2.1 -2.1 -2.1 -2.1 -2.1 -2.1 -2.1 -2.1 -2.1 -2.1 -2.1 -2.1 -2.1 -2.1 -2.1 -2.1 -2.1 -2.1 -2.1 -2.1 -2.1 -2.1 -2.1 -2.1 -2.1 -2.1 -2.1 -2.1 -2.1 -2.1 -2.1 -2.1 -2.1 -2.1 -2.1 -2.1 -2.1 -2.1 -2.1 -2.1 -2.1 -2.1 -2.1 -2.1 -2.1 -2.1 -2.1 -2.1 -2.1 -2.1 -2.1 -2.1 -2.1 -2.1 -2.1 -2.1 -2.1 -2.1 -2.1 -2.1 -2.1 -2.1 -2.1 -2.1 -2.1 -2.1 -2.1 -2.1 -2.1 -2.1 -2.1 -2.1 -2.1 -2.1 -2.1 -2.1 -2.1 -2.1 -2.1 -2.1 -2.1 -2.1 -2.1 -2.1 -2.1 -2.1 -2.1 -2.1 -2.1 -2.1 -2.1 -2.1 -2.1 -2.1 -2.1 -2.1 -2.1 -2.1 -2.1 -2.1 -2.1 -2.1 -2.1 -2.1 -2.1 -2.1 -2.1 -2.1 -2.1 -2.1 -2.1 -2.1 -2.1 -2.1 -2.1 -2.1 -2.1 -2.1 -2.1 -2.1 -2.1 -2.1 -2.1 -2.1 -2.1 -2.1 -2.1 -2.1 -2.1 -2.1 -2.1 -2.1 -2.1 -2.1 -2.1 -2.1 -2.1 -2.1 -2.1 -2.1 -2.1 -2.1 -2.1 -2.1 -2.1 -2.1 -2.1 -2.1 0.4 2.6 3.8 7.7 8 9.1 10.9 12.4 12.8 14.4 14.9 15.2 15.5 15.8 16.1 16.5 17.2 17.7 18.5 19.3 20.1 20.8 22.1 22.3 23.2 23.9 24.4 25.9 26.9 27.9 29.3 30.3 30.4 30.9
14.9 11.5 8.4 7.4 6.1 5.4 5.1 2.5 -2.1 -2.1 -2.1 -0.3 -0.1 -0.5 -2.1 -2.1 -2.1 -2.1 -2.1 -2.1 -2.1 -2.1 -2.1 -2.1 -2.1 -2.1 -2.1 -2.1 -2.1 -2.1 -2.1 -2.1 -2.1 -2.1 -2.1 -2.1 -2.1 -2.1 -2.1 -2.1 -2.1 -2.1 -2.1 -2.1 -2.1 -2.1 -2.1 -2.1 -2.1 -2.1 -2.1 -2.1 -2.1 -2.1 -2.1 -2.1 -2.1 -2.1 -2.1 -2.1 -2.1 -2.1 -2.1 -2.1 -2.1 -2.1 -2.1 -2.1 -2.1 -2.1 -2.1 -2.1 -2.1 -2.1 -2.1 -2.1 -2.1 -2.1 -2.1 -2.1 -2.1 -2.1 -2.1 -2.1 -2.1 -2.1 -2.1 -2.1 -2.1 -2.1 -2.1 -2.1 -2.1 -2.1 -2.1 -2.1 -2.1 -2.1 -2.1 -2.1 -2.1 -2.1 -2.1 -2.1 -2.1 -2.1 -2.1 -2.1 -2.1 -2.1 -2.1 -2.1 -2.1 -2.1 -2.1 -2.1 -2.1 -2.1 -2.1 -2.1 -2.1 -2.1 -2.1 -2.1 -2.1 -2.1 -2.1 -2.1 -2.1 -2.1 -2.1 -2.1 -2.1 -2.1 -2.1 -2.1 -2.1 -2.1 -2.1 -2.1 -2.1 -2.1 -2.1 -2.1 -2.1 -2.1 -2.1 -2.1 -2.1 -2.1 -2.1 -2.1 -2.1 -2.1 -2.1 -2.1 -2.1 -2.1 -2.1 -2.1 -2.1 -2.1 -2.1 -2.1 -2.1 0.6 6.7 6.7 7.3 9 9.8 12.3 14.5 14.5 14.3 15.3 15.8 16.2 16.2 16.4 16.7 17.5 18.3 19.1 19.9 20.7 21.5 22.2 23.4 23.3 24.5 25.9 27.2 28.3 29.5 30.7 31.3 31.7 31.8 31.9
12.9 11.9 8.5 7.7 6.7 6 5.4 4.7 -2.1 1.1 1.5 1.5 1.3 0.4 -0.5 -2.1 -2.1 -2.1 -2.1 -2.1 -2.1 -2.1 -2.1 -2.1 -2.1 -2.1 -2.1 -2.1 -2.1 -2.1 -2.1 -2.1 -2.1 -2.1 -2.1 -2.1 -2.1 -2.1 -2.1 -2.1 -2.1 -2.1 -2.1 -2.1 -2.1 -2.1 -2.1 -2.1 -2.1 -2.1 -2.1 -2.1 -2.1 -2.1 -2.1 -2.1 -2.1 -2.1 -2.1 -2.1 -2.1 -2.1 -2.1 -2.1 -2.1 -2.1 -2.1 -2.1 -2.1 -2.1 -2.1 -2.1 -2.1 -2.1 -2.1 -2.1 -2.1 -2.1 -2.1 -2.1 -2.1 -2.1 -2.1 -2.1 -2.1 -2.1 -2.1 -2.1 -2.1 -2.1 -2.1 -2.1 -2.1 -2.1 -2.1 -2.1 -2.1 -2.1 -2.1 -2.1 -2.1 -2.1 -2.1 -2.1 -2.1 -2.1 -2.1 -2.1 -2.1 -2.1 -2.1 -2.1 -2.1 -2.1 -2.1 -2.1 -2.1 -2.1 -2.1 -2.1 -2.1 -2.1 -2.1 -2.1 -2.1 -2.1 -2.1 -2.1 -2.1 -2.1 -2.1 -2.1 -2.1 -2.1 -2.1 -2.1 -2.1 -2.1 -2.1 -2.1 -2.1 -2.1 -2.1 -2.1 -2.1 -2.1 -2.1 -2.1 -2.1 -2.1 -2.1 -2.1 -2.1 -2.1 -2.1 -2.1 -2.1 -2.1 -2.1 -2.1 -2.1 -2.1 -2.1 -2.1 1.1 3.7 6.9 8.1 9.3 11.4 12.2 13.1 15.5 15.6 15.1 15.9 16.5 17.1 17.2 17.2 17.7 18.8 19.7 20.5 21.3 22.1 23 23.8 24.9 26.2 27 28.3 29.4 30.5 31.6 31.9 32 32.3 32.5 32.6
12.6 11.7 11.1 8.1 6.8 5.8 5.9 5.3 4.9 5 4.1 3 2.3 1.4 0.5 -0.4 -2.1 -2.1 -2.1 -2.1 -2.1 -2.1 -2.1 -2.1 -2.1 -2.1 -2.1 -2.1 -2.1 -2.1 -2.1 -2.1 -2.1 -2.1 -2.1 -2.1 -2.1 -2.1 -2.1 -2.1 -2.1 -2.1 -2.1 -2.1 -2.1 -2.1 -2.1 -2.1 -2.1 -2.1 -2.1 -2.1 -2.1 -2.1 -2.1 -2.1 -2.1 -2.1 -2.1 -2.1 -2.1 -2.1 -2.1 -2.1 -2.1 -2.1 -2.1 -2.1 -2.1 -2.1 -2.1 -2.1 -2.1 -2.1 -2.1 -2.1 -2.1 -2.1 -2.1 -2.1 -2.1 -2.1 -2.1 -2.1 -2.1 -2.1 -2.1 -2.1 -2.1 -2.1 -2.1 -2.1 -2.1 -2.1 -2.1 -2.1 -2.1 -2.1 -2.1 -2.1 -2.1 -2.1 -2.1 -2.1 -2.1 -2.1 -2.1 -2.1 -2.1 -2.1 -2.1 -2.1 -2.1 -2.1 -2.1 -2.1 -2.1 -2.1 -2.1 -2.1 -2.1 -2.1 -2.1 -2.1 -2.1 -2.1 -2.1 -2.1 -2.1 -2.1 -2.1 -2.1 -2.1 -2.1 -2.1 -2.1 -2.1 -2.1 -2.1 -2.1 -2.1 -2.1 -2.1 -2.1 -2.1 -2.1 -2.1 -2.1 -2.1 -2.1 -2.1 -2.1 -2.1 -2.1 -2.1 -2.1 -2.1 -2.1 -2.1 -2.1 0.9 1.1 2 4.8 6.3 6.9 9.3 10.8 12.6 13 13.4 13.7 16.3 16.5 16.1 16.6 17.2 17.9 18.3 18.5 19.3 20.1 20.9 21.8 22.6 23.4 24.3 25.4 26.8 27.9 28.8 30 31 31.5 32.2 32.6 32.8 33 33 32.9
13.1 11.4 10.6 9.9 8.7 5.8 4.9 4.8 5.1 5.4 5.3 5 3.5 2.4 1.5 0.6 -0.3 -2.1 -2.1 -2.1 -2.1 -2.1 -2.1 -2.1 -2.1 -2.1 -2.1 -2.1 -2.1 -2.1 -2.1 -2.1 -2.1 -2.1 -2.1 -2.1 -2.1 -2.1 -2.1 -2.1 -2.1 -2.1 -2.1 -2.1 -2.1 -2.1 -2.1 -2.1 -2.1 -2.1 -2.1 -2.1 -2.1 -2.1 -2.1 -2.1 -2.1 -2.1 -2.1 -2.1 -2.1 -2.1 -2.1 -2.1 -2.1 -2.1 -2.1 -2.1 -2.1 -2.1 -2.1 -2.1 -2.1 -2.1 -2.1 -2.1 -2.1 -2.1 -2.1 -2.1 -2.1 -2.1 -2.1 -2.1 -2.1 -2.1 -2.1 -2.1 -2.1 -2.1 -2.1 -2.1 -2.1 -2.1 -2.1 -2.1 -2.1 -2.1 -2.1 -2.1 -2.1 -2.1 -2.1 -2.1 -2.1 -2.1 -2.1 -2.1 -2.1 -2.1 -2.1 -2.1 -2.1 -2.1 -2.1 -2.1 -2.1 -2.1 -2.1 -2.1 -2.1 -2.1 -2.1 -2.1 -2.1 -2.1 -2.1 -2.1 -2.1 -2.1 -2.1 -2.1 -2.1 -2.1 -2.1 -2.1 -2.1 -2.1 -2.1 -2.1 -2.1 -2.1 -2.1 -2.1 -2.1 -2.1 -2.1 -2.1 -2.1 -2.1 -2.1 -2.1 -2.1 -2.1 -2.1 -2.1 -2.1 -2.1 1.7 4.9 5.2 6.3 7.1 8.3 9.2 10.3 11.4 13.7 13.4 13.5 15.1 14.4 17.3 16.8 16.9 17.7 18.4 19.1 19.6 19.8 20.6 21.6 22.4 23.2 24 24.8 26.1 27.4 28.5 29.5 30.5 31.1 31.6 32.1 32.7 33.1 33.3 33.5 33.6 33.1
14.1 13.2 10.6 10.6 10 7.1 5.9 5.2 5.3 5.6 6 5.4 5 4.1 2.5 1.6 0.8 0 -0.9 -2.1 -2.1 -2.1 -2.1 -2.1 -2.1 -2.1 -2.1 -2.1 -2.1 -2.1 -2.1 -2.1 -2.1 -2.1 -2.1 -2.1 -2.1 -2.1 -2.1 -2.1 -2.1 -2.1 -2.1 -2.1 -2.1 -2.1 -2.1 -2.1 -2.1 -2.1 -2.1 -2.1 -2.1 -2.1 -2.1 -2.1 -2.1 -2.1 -2.1 -2.1 -2.1 -2.1 -2.1 -2.1 -2.1 -2.1 -2.1 -2.1 -2.1 -2.1 -2.1 -2.1 -2.1 -2.1 -2.1 -2.1 -2.1 -2.1 -2.1 -2.1 -2.1 -2.1 -2.1 -2.1 -2.1 -2.1 -2.1 -2.1 -2.1 -2.1 -2.1 -2.1 -2.1 -2.1 -2.1 -2.1 -2.1 -2.1 -2.1 -2.1 -2.1 -2.1 -2.1 -2.1 -2.1 -2.1 -2.1 -2.1 -2.1 -2.1 -2.1 -2.1 -2.1 -2.1 -2.1 -2.1 -2.1 -2.1 -2.1 -2.1 -2.1 -2.1 -2.1 -2.1 -2.1 -2.1 -2.1 -2.1 -2.1 -2.1 -2.1 -2.1 -2.1 -2.1 -2.1 -2.1 -2.1 -2.1 -2.1 -2.1 -2.1 -2.1 -2.1 -2.1 -2.1 -2.1 -2.1 -2.1 -1.9 -1.7 -2.1 -2.1 -2.1 -2.1 -2.1 -2.1 -2.1 2 5.2 6.1 6.6 7.7 8.4 10.3 11.8 13.7 13.9 14.4 14.3 14.1 16.2 17.1 17.5 17.6 18 18.7 19.5 20.2 20.7 21.1 22 23 24 24.8 25.6 26.8 28.2 29.2 29.9 30.5 31.1 31.7 32.2 32.7 33.2 33.7 33.9 34.1 34.2 33.6
15.1 14.5 14.1 12.7 10.3 9.4 8 6.5 6.3 6.7 7 6.3 5.6 5.7 4.1 3.1 2 1.1 0.1 -0.8 -2.1 -2.1 -2.1 -2.1 -2.1 -2.1 -2.1 -2.1 -2.1 -2.1 -2.1 -2.1 -2.1 -2.1 -2.1 -2.1 -2.1 -2.1 -2.1 -2.1 -2.1 -2.1 -2.1 -2.1 -2.1 -2.1 -2.1 -2.1 -2.1 -2.1 -2.1 -2.1 -2.1 -2.1 -2.1 -2.1 -2.1 -2.1 -2.1 -2.1 -2.1 -2.1 -2.1 -2.1 -2.1 -2.1 -2.1 -2.1 -2.1 -2.1 -2.1 -2.1 -2.1 -2.1 -2.1 -2.1 -2.1 -2.1 -2.1 -2.1 -2.1 -2.1 -2.1 -2.1 -2.1 -2.1 -2.1 -2.1 -2.1 -2.1 -2.1 -2.1 -2.1 -2.1 -2.1 -2.1 -2.1 -2.1 -2.1 -2.1 -2.1 -2.1 -2.1 -2.1 -2.1 -2.1 -2.1 -2.1 -2.1 -2.1 -2.1 -2.1 -2.1 -2.1 -2.1 -2.1 -2.1 -2.1 -2.1 -2.1 -2.1 -2.1 -2.1 -2.1 -2.1 -2.1 -2.1 -2.1 -2.1 -2.1 -2.1 -2.1 -2.1 -2.1 -2.1 -2.1 -2.1 -2.1 -2.1 -2.1 -2.1 -2.1 -2.1 -2.1 -2.1 -2.1 -2.1 2.7 2.8 2.9 2.1 1.3 -2.1 -2.1 -2.1 1.7 2.9 5.3 6.5 6.8 7.4 9.6 11.6 13.9 15.8 16 15.8 16 16.6 17.1 17.7 18.4 18.7 18.9 19.4 20.2 20.9 21.6 22.1 22.5 23.5 24.5 25.5 26.4 27.3 28.4 29.4 29.9 30.5 31.2 32.1 33 33.5 33.9 34.4 34.7 34.7 34.6 34.8 33.8
15.5 15.2 12.9 12.4 11.2 9.8 9.7 8.6 7.8 8 8.1 7.3 6.3 5.9 5.4 5.1 3.4 2.1 1.3 0.3 -0.7 -2.1 -2.1 -2.1 -2.1 -2.1 -2.1 -2.1 -2.1 -2.1 -2.1 -2.1 -2.1 -2.1 -2.1 -2.1 -2.1 -2.1 -2.1 -2.1 -2.1 -2.1 -2.1 -2.1 -2.1 -2.1 -2.1 -2.1 -2.1 -2.1 -2.1 -2.1 -2.1 -2.1 -2.1 -2.1 -2.1 -2.1 -2.1 -2.1 -2.1 -2.1 -2.1 -2.1 -2.1 -2.1 -2.1 -2.1 -2.1 -2.1 -2.1 -2.1 -2.1 -2.1 -2.1 -2.1 -2.1 -2.1 -2.1 -2.1 -2.1 -2.1 -2.1 -2.1 -2.1 -2.1 -2.1 -2.1 -2.1 -2.1 -2.1 -2.1 -2.1 -2.1 -2.1 -2.1 -1.3 -1.5 -2.1 -2.1 -2.1 -2.1 -2.1 -2.1 -2.1 -2.1 -2.1 -2.1 -2.1 -2.1 -2.1 -2.1 -2.1 -2.1 -2.1 -2.1 -2.1 -2.1 -2.1 -2.1 -2.1 -2.1 -2.1 -2.1 -2.1 -2.1 -2.1 -2.1 -2.1 -2.1 -2.1 -2.1 -2.1 -2.1 -2.1 -2.1 -2.1 -2.1 -2.1 -2.1 -2.1 -2.1 -2.1 -2.1 -2.1 0.9 3.6 4.2 5.1 11 11.1 7.4 6.8 6.2 5.6 4.9 5.2 5.7 7.4 8.5 10.1 12.9 15.8 16.9 17.3 17.3 17.2 17.5 17.9 18.1 18.9 19.6 20 20.3 20.8 21.7 22.6 23.2 23.8 24 24.5 25.4 26.5 27.3 28.1 28.9 29.7 30.6 31.9 32.9 33.7 34.6 35.1 35.6 36 36.2 36.1 35.9 35.5 36.1
14.8 15.2 14 12.7 10.8 9.7 9.6 9.7 9.1 9.1 8.9 7.8 7 6.4 5.8 5.6 5.5 3.8 2.4 1.5 0.6 -0.5 -2.1 -2.1 -2.1 -2.1 -2.1 -2.1 -2.1 -2.1 -2.1 -2.1 -2.1 -2.1 -2.1 -2.1 -2.1 -2.1 -2.1 -2.1 -2.1 -2.1 -2.1 -2.1 -2.1 -2.1 -2.1 -2.1 -2.1 -2.1 -2.1 -2.1 -2.1 -2.1 -2.1 -2.1 -2.1 -2.1 -2.1 -2.1 -2.1 -2.1 -2.1 -2.1 -2.1 -2.1 -2.1 -2.1 -2.1 -2.1 -2.1 -2.1 -2.1 -2.1 -2.1 -2.1 -2.1 -2.1 -2.1 -2.1 -2.1 -2.1 -2.1 -2.1 -2.1 -2.1 -2.1 -2.1 -2.1 -2.1 -2.1 -2.1 -2.1 -2.1 -2.1 -1.1 -0.5 -0.2 -0.9 -1.6 -2.1 -2.1 -2.1 -0.3 -0.5 -0.6 -1.1 -2.1 -2.1 -2.1 -2.1 -2.1 -2.1 -2.1 -2.1 -2.1 -2.1 -2.1 -2.1 -2.1 -2.1 -2.1 -2.1 -2.1 -2.1 -2.1 -2.1 -2.1 -2.1 -2.1 -2.1 -2.1 -2.1 -2.1 -2.1 -2.1 -2.1 -2.1 -2.1 -2.1 -2.1 -2.1 -2.1 -2.1 0.8 3.2 4.3 4.7 8.2 9 11.5 8.8 6.4 5.3 5.2 5.3 5.4 6.2 7.4 10.1 13.6 16.4 17.6 17.9 18.2 18.4 18.6 18.8 18.9 19.2 20.1 20.8 21.2 21.6 22.2 23 23.9 24.6 24.6 24.7 25.1 26 27 28 28.8 29.4 30.5 31.5 32.7 34 35.1 36 36.6 36.9 37.1 37.2 36.9 37.4 35.4 33.4
14.1 13.5 11.9 11 10.5 9.5 9.9 10.1 9.8 9.7 9.2 8.3 7.4 6.7 6.1 5.9 5.8 5.6 3.9 2.8 1.9 0.8 -0.5 -2.1 -2.1 -2.1 -2.1 -2.1 -2.1 -2.1 -2.1 -2.1 -2.1 -2.1 -2.1 -2.1 -2.1 -2.1 -2.1 -2.1 -2.1 -2.1 -2.1 -2.1 -2.1 -2.1 -2.1 -2.1 -2.1 -2.1 -2.1 -2.1 -2.1 -2.1 -2.1 -2.1 -2.1 -2.1 -2.1 -2.1 -2.1 -2.1 -2.1 -2.1 -2.1 -2.1 -2.1 -2.1 -2.1 -2.1 -2.1 -2.1 -2.1 -2.1 -2.1 -2.1 -2.1 -2.1 -2.1 -2.1 -2.1 -2.1 -2.1 -2.1 -2.1 -2.1 -2.1 -2.1 -2.1 -2.1 -2.1 -2.1 -2.1 -2.1 -1.1 -0.5 0.2 0.7 0.5 -0.3 -2.1 -2.1 -0.3 1.7 1.8 1.9 1.8 1.6 -1.1 -2.1 -2.1 -2.1 -2.1 -2.1 -2.1 -2.1 -2.1 -2.1 -2.1 -2.1 -2.1 -2.1 -2.1 -2.1 -2.1 -2.1 -2.1 -2.1 -2.1 -2.1 -2.1 -2.1 -2.1 -2.1 -2.1 -2.1 -2.1 -2.1 -2.1 -2.1 -2.1 -2.1 -2.1 -2.1 2 4.5 4.5 5.3 7.4 8.8 9.9 8.7 7.8 5.4 5.6 5.7 6.3 7 9.6 12.7 16.6 18.2 18.8 18.8 19 19.3 19.5 19.6 19.7 20.3 21.1 21.9 22.4 22.8 23.3 23.9 24.5 24.9 25.2 25.4 25.6 26.6 27.6 28.5 29.2 30 30.9 32.3 33.5 34.5 35.5 36 36.1 36.3 36.6 36.2 33.3 36.6 41 39.4
13.2 12.3 11.8 11.7 9.6 9.9 10.4 10.6 10.4 9.7 9.3 8.9 8.1 7.3 6.5 6.2 6.1 5.9 5.5 4.6 3.4 2.2 0.9 -0.3 -2.1 -2.1 -2.1 -2.1 -2.1 -2.1 -2.1 -2.1 -2.1 -2.1 -2.1 -2.1 -2.1 -2.1 -2.1 -2.1 -2.1 -2.1 -2.1 -2.1 -2.1 -2.1 -2.1 -2.1 -2.1 -2.1 -2.1 -2.1 -2.1 -2.1 -2.1 -2.1 -2.1 -2.1 -2.1 -2.1 -2.1 -2.1 -2.1 -2.1 -2.1 -2.1 -2.1 -2.1 -2.1 -2.1 -2.1 -2.1 -2.1 -2.1 -2.1 -2.1 -2.1 -2.1 -2.1 -2.1 -2.1 -2.1 -2.1 -2.1 -2.1 -2.1 -2.1 -2.1 -2.1 -2.1 -2.1 -2.1 -2.1 -1.3 -0.3 0.5 0.9 1.5 1.8 1.3 2.1 4.5 7 6.8 7.3 7.2 7.4 8.2 6.8 5.9 5.5 2.6 -2.1 -2.1 -2.1 -2.1 -2.1 -2.1 -2.1 -2.1 -2.1 -2.1 -2.1 -2.1 -2.1 -2.1 -2.1 -2.1 -2.1 -2.1 -2.1 -2.1 -2.1 -2.1 -2.1 -2.1 -2.1 -2.1 -2.1 -2.1 -2.1 -2.1 -2.1 -2.1 3 5 5.1 5.5 6.5 8.3 8.1 9.3 7 5.1 5.6 5.7 7.8 12.3 13.3 14.7 19 19 19.6 19.7 19.9 20.2 20.4 20.3 20.6 21.3 22.1 22.5 23 23.4 23.6 24 24.3 24.8 25.3 25.7 26.1 26.5 28.2 28.5 29.3 30.4 31.1 32.3 33.9 34.6 34.9 34.9 34.6 32.7 34.7 37.4 36.6 36.1 36 36.4
12.6 11.8 11.7 11.7 10 9.4 10 10.5 10.5 9.7 9.5 9.1 8.7 8 7.1 6.7 6.5 6.5 6.4 5.5 4.7 3.8 2.5 1.2 0 -2.1 -2.1 -2.1 -2.1 -2.1 -2.1 -2.1 -2.1 -2.1 -2.1 -2.1 -2.1 -2.1 -2.1 -2.1 -2.1 -2.1 -2.1 -2.1 -2.1 -2.1 -2.1 -2.1 -2.1 -2.1 -2.1 -2.1 -2.1 -2.1 -2.1 -2.1 -2.1 -2.1 -2.1 -2.1 -2.1 -2.1 -2.1 -2.1 -2.1 -2.1 -2.1 -2.1 -2.1 -2.1 -2.1 -2.1 -2.1 -2.1 -2.1 -2.1 -2.1 -2.1 -2.1 -2 -2.1 -2.1 -2.1 -2.1 -2.1 -2.1 -2.1 -2.1 -2.1 -2.1 -2.1 -2.1 -2.1 -0.7 0.6 1.4 1.9 2.3 3.6 7.9 10.4 9.7 10.4 10.2 9.4 9.9 10.4 11.1 11.5 10.9 8.3 6.5 6 5.2 -2.1 -2.1 -2.1 -2.1 -2.1 -2.1 -2.1 -2.1 -2.1 -2.1 -2.1 -2.1 -2.1 -2.1 -2.1 -2.1 -2.1 -2.1 -2.1 -2.1 -2.1 -2.1 -2.1 -2.1 -2.1 -2.1 -2.1 -2.1 -2.1 2.6 5.9 5.7 6.2 7.2 7.7 6.5 5.4 4.9 5.7 7.3 7 10.1 11.7 16.2 16.7 14.8 17.8 19.4 20.2 20.5 20.7 20.9 20.9 21 21.7 22.3 22.6 23 23.5 23.9 24 24.4 24.8 25.4 26 26.5 25.9 27 27.3 28.4 29.2 30.6 31.6 32.2 33.2 33.5 33.3 32.6 37 41 38.9 36.8 36.5 36.1 36 36.2
12.9 12.1 9.9 10 9.5 9.6 9.8 10.1 10 9.8 9.8 9.4 8.9 8.4 7.9 7.4 7.1 7.1 7.1 6.4 5.8 5.1 4.3 3 1.7 0.5 -0.8 -2.1 -2.1 -2.1 -2.1 -2.1 -2.1 -2.1 -2.1 -2.1 -2.1 -2.1 -2.1 -2.1 -2.1 -2.1 -2.1 -2.1 -2.1 -2.1 -2.1 -2.1 -2.1 -2.1 -2.1 -2.1 -2.1 -2.1 -2.1 -2.1 -2.1 -2.1 -2.1 -2.1 -2.1 -2.1 -2.1 -2.1 -2.1 -2.1 -2.1 -2.1 -2.1 -2.1 -2.1 -2.1 -2.1 -2.1 -2.1 -2.1 -2.1 -1.8 -1.6 -1.4 -1.6 -1.8 -2.1 -2.1 -2.1 -2.1 -2.1 -2.1 -2.1 -2.1 -2.1 -2.1 -0.6 0.4 1.5 2.4 6.3 9.8 9.6 9.6 9.7 9.9 10 11 12.7 10.1 10.7 10.9 10.8 11.6 11.1 8.7 6.5 6 6.1 5.8 -2.1 -2.1 -2.1 -2.1 -2.1 -2.1 -2.1 -2.1 -2.1 -2.1 -2.1 -2.1 -2.1 -2.1 -2.1 -2.1 -2.1 -2.1 -2.1 -2.1 -2.1 -2.1 -2.1 -2.1 -2.1 1.2 4.4 3.8 7.2 7.4 7.2 7.1 6.8 7.7 7.9 8.6 9.9 13.1 10.9 14.5 14.5 16.5 18 17.2 18.8 19.9 20.9 21.1 21.2 21.2 21.1 21.6 22.2 22.7 23.1 23.5 24.1 24.4 24.5 24.8 25.1 26 26.6 27.2 27.5 27.8 27.5 27.3 28.7 29.9 31 31.7 31.8 33.2 34.2 34.4 35.8 39.5 39 36.8 36.6 36.2 35.9 35.9
17.2 12.2 10.3 10 9.7 9.8 9.9 10 10.1 10 10 9.9 9.8 9.6 9.2 9 8.5 8.4 8.2 7.8 6.9 6.3 5.8 5.2 3.7 2.2 0.9 -0.4 -2.1 -2.1 -2.1 -2.1 -2.1 -2.1 -2.1 -2.1 -2.1 -2.1 -2.1 -2.1 -2.1 -2.1 -2.1 -2.1 -2.1 -2.1 -2.1 -2.1 -2.1 -2.1 -2.1 -2.1 -2.1 -2.1 -2.1 -2.1 -2.1 -2.1 -2.1 -2.1 -2.1 -2.1 -2.1 -2.1 -2.1 -2.1 -2.1 -2.1 -2.1 -2.1 -2.1 -2.1 -2.1 -2.1 -2.1 -2.1 -1.9 -1.6 -1.3 -1.1 -1.1 -1.3 -1.5 -1.7 -1.9 -2.1 -2.1 -2.1 -2.1 -2.1 -2.1 -2.1 0.3 1.6 3.4 8.5 9.7 9.5 9.5 9.6 9.6 9.7 16.2 18.8 15.9 10.3 10.5 10.8 10.7 10.5 11.3 10.5 6.9 6.3 6.4 6.2 7.4 6.2 -2.1 -2.1 -2.1 -2.1 -2.1 -2.1 -2.1 -2.1 -2.1 -2.1 -2.1 -2.1 -2.1 -2.1 -2.1 -2.1 -2.1 -2.1 -2.1 -2.1 -2.1 1.8 3.2 6.1 5.6 6.1 6.6 7.2 7.7 8.6 8.8 9.9 10.9 11.9 12.6 17.8 14.3 16.8 18.5 18.1 19.5 19.3 20.6 21.2 21.6 21.7 21.8 21.9 22 22 22.6 23.2 23.6 24 24.6 25 25.1 25.2 25.8 26.7 26.9 27.4 28.1 27.9 28.5 27.8 30.6 31.1 31.4 31.6 34 36.3 36.7 35.3 35.1 37.9 39.5 38.9 36.8 36.3 35.9 38.8
13.7 12.1 11.7 9.6 9.8 9.8 9.9 10 10.3 10.2 10.1 10.1 10 9.9 10.1 10.5 10.1 9.7 9.3 8.8 8 7.4 7 6.5 5.7 4 2.6 1.3 0 -2.1 -2.1 -2.1 -2.1 -2.1 -2.1 -2.1 -2.1 -2.1 -2.1 -2.1 -2.1 -2.1 -2.1 -2.1 -2.1 -2.1 -2.1 -2.1 -2.1 -2.1 -2.1 -2.1 -2.1 -2.1 -2.1 -2.1 -2.1 -2.1 -2.1 -2.1 -2.1 -2.1 -2.1 -2.1 -2.1 -2.1 -2.1 -2.1 -2.1 -2.1 -2.1 -2.1 -2.1 -2.1 -2.1 -1.9 -1.7 -1.3 -1 -0.8 -0.5 -0.7 -0.9 -1.1 -1.3 -1.6 -1.8 -2 -2.1 -2.1 -2.1 -2.1 0.9 2.6 8.2 9.1 9.4 9.5 9.5 9.6 9.6 9.7 18.8 19.8 15 10 10.1 10.3 10.3 10.5 10.5 10.8 7.2 6.1 6 8 4.2 4.1 7 5.4 4.9 2.2 -2.1 -2.1 -2.1 -2.1 -2.1 -2.1 -2.1 -2.1 -2.1 -2.1 -2.1 -2.1 -2.1 -2.1 -2.1 -2.1 5.9 5.8 6 5.8 6.2 6 6.4 7.1 8.4 9.2 10.2 11.5 14.1 17.6 18.2 17.3 15.7 18 19.9 20.1 20.5 20.8 21.6 22 22.3 22.3 22.5 22.8 22.9 22.8 23.1 23.6 24 24.3 24.9 25.5 25.8 25.8 26.6 27.5 27.3 27.9 28.8 28.4 29 30.6 29.8 29.6 32.3 33.3 35.9 37.8 37.5 35.5 35.7 36.1 39.5 38.9 37.6 39.2 39.6 39.9
14 12.4 19.7 14.8 10.1 9.9 9.8 10.1 10.4 10.3 10.3 10.2 10.2 10.3 10.5 10.7 11 10.7 10.4 9.9 9.3 8.7 8.4 7.9 7.4 6 5 3.1 1.7 0.6 -0.6 -2.1 -2.1 -2.1 -2.1 -2.1 -2.1 -2.1 -2.1 -2.1 -2.1 -2.1 -2.1 -2.1 -2.1 -2.1 -2.1 -2.1 -2.1 -2.1 -2.1 -2.1 -2.1 -2.1 -2.1 -2.1 -2.1 -2.1 -2.1 -2.1 -2.1 -2.1 -2.1 -2.1 -2.1 -2.1 -2.1 -2.1 -2.1 -2.1 -2.1 -2.1 -2.1 -2.1 -1.8 -1.6 -1.3 -1.1 -0.8 -0.5 -0.3 -0.1 -0.4 -0.6 -0.8 -1 -1.2 -1.4 -1.6 -1.8 -2.1 -2.1 1.1 7.5 9.8 9.5 9.6 9.6 9.6 9.7 9.8 9.9 13.6 18.9 13.8 9.9 10.1 10.3 10.3 10.3 10.2 10.6 6.9 5.6 5.6 6.9 4.2 4.2 6.7 7.1 7.3 6 5.7 3.9 -2.1 -2.1 -2.1 -2.1 -2.1 -2.1 -2.1 -2.1 -2.1 -2.1 8.1 8.6 9.1 7 7.2 7 6.4 5.7 5.3 5.5 6 8.3 9.4 10.4 12.8 15.8 16.8 17.4 17.9 18.2 18.2 19.8 20.5 21.2 21.8 21.8 22.4 22.8 22.9 23.1 23.4 23.6 23.5 23.7 23.6 24 24.3 24.7 25.3 25.9 26.4 26.5 27 27.7 27.8 28.7 30.3 29.5 30.5 31.3 32.1 32.6 33.4 34.7 36.4 37.8 37.2 36.8 36.9 36.7 37.4 39.4 39.4 39.6 40 40.2
14.6 12.9 12 17.8 17 9.9 10.2 10.2 10.5 10.5 10.4 11 10.9 10.6 10.9 11.9 12.5 12.4 12.4 11.9 11.2 10.6 10.1 10 9.6 8.2 6.9 5.2 3.7 2.5 1.2 -0.2 -2.1 -2.1 -2.1 -2.1 -2.1 -2.1 -2.1 -2.1 -2.1 -2.1 -2.1 -2.1 -2.1 -2.1 -2.1 -2.1 -2.1 -2.1 -2.1 -2.1 -2.1 -2.1 -2.1 -2.1 -2.1 -2.1 -2.1 -2.1 -2.1 -2.1 -2.1 -2.1 -2.1 -2.1 -2.1 -2.1 -2.1 -2.1 -2.1 -2.1 -2.1 -1.7 -1.5 -1.2 -1 -0.7 -0.6 -0.2 0.1 0.2 0.2 0 -0.2 -0.4 -0.6 -0.8 -1.1 -1.3 -2.1 -2.1 2.3 9.1 9.8 9.8 9.7 9.7 9.1 9.6 9.8 9.9 10 11.7 11.3 9.9 10.4 10.6 10.5 10.4 9.6 8.1 6.1 5 5 5.5 7.3 4.2 7.5 7.4 7.6 7.8 7.8 7.2 5.8 5.1 2.5 2.1 3.1 5.3 7.1 7.5 7.6 7.1 5.8 5.8 5.8 5.8 8.3 6.4 5.5 5.8 6.1 5.9 7.6 9.8 11.7 14.2 17.5 17.6 17.2 17.6 18 19.1 20.3 23 22.3 22.3 23 23 23.3 23.3 23.7 24 24.2 24.1 23.7 23.4 23.6 24.3 24.6 25.1 25.7 26.2 26.9 27.1 28.1 29.1 29.8 29.6 30.3 31 31.7 32.7 33.6 35.1 35.6 36.2 37.6 37.1 37.8 38.7 39.2 39.3 38.6 38.5 39.8 39.7 39.9 39.8
15.1 14.1 12.2 11.6 15.4 19.5 19.5 19.4 19.3 18.7 18.1 19.3 19.9 19.7 14.1 12.9 13.6 14.1 14.8 14.2 13.4 12.9 12.4 12.2 11.7 10.2 8.5 7.3 6.1 4.6 3 1.6 0.4 -2.1 -2.1 -2.1 -2.1 -2.1 -2.1 -2.1 -2.1 -2.1 -2.1 -2.1 -2.1 -2.1 -2.1 -2.1 -2.1 -2.1 -2.1 -2.1 -2.1 -2.1 -2.1 -2.1 -2.1 -2.1 -2.1 -2.1 -2.1 -2.1 -2.1 -2.1 -2.1 -2.1 -2.1 -2.1 -2.1 -2.1 -2.1 -1.7 -1.5 -1.3 -1.1 -0.9 -0.6 -0.4 -0.2 0 0.3 0.6 0.7 0.6 0.4 0.1 -0.1 -0.3 -0.5 -0.7 -2.1 -2.1 4.9 7.5 9.6 9.7 9.8 9.7 8.6 9.6 9.8 9.8 9.9 10.2 9.6 9.7 9.7 9.6 9.4 9 8 6.6 5 5 5 5 4.9 8.2 7.5 7.8 7.9 7.7 8.1 8.1 6.9 5.4 5.8 6.1 7.5 6.5 6.1 5.8 5.8 5.8 5.8 5.8 5.8 5.8 6.8 5.7 6.5 8.2 9.1 11.2 12.3 16 16.9 18.3 19.1 18.5 18.4 18.8 19.2 20.1 22 23.1 23.6 23.7 23.5 23.5 23.7 24 24.4 24.7 24.7 24.3 24 23.6 23.7 24.3 24.9 25.5 26.1 26.6 27.2 29.3 28.7 29.1 30.1 31 31.8 32.8 34 35.1 36.1 36.6 37.8 37.8 39 38.1 38.9 40.2 41.2 41.7 41.4 40.4 40.2 40 42.3 42.6
16 14.3 12 12.4 12.2 17.9 19.5 19.6 19.7 19.6 20 21.4 21.2 20.2 17.1 17.4 20 15 16.1 16.9 16.2 15.5 14.7 14.4 13.5 11.3 9.8 8.7 7.7 6.7 5.3 3.6 2.1 1 0 -2.1 -2.1 -2.1 -2.1 -2.1 -2.1 -2.1 -2.1 -2.1 -2.1 -2.1 -2.1 -2.1 -2.1 -2.1 -2.1 -2.1 -2.1 -2.1 -2.1 -2.1 -2.1 -2.1 -2.1 -2.1 -2.1 -2.1 -2.1 -2.1 -2.1 -2.1 -2.1 -2.1 -2.1 -2 -1.7 -1.3 -1.2 -1 -0.7 -0.5 -0.3 0 0.2 0.4 0.6 0.9 1 1.1 0.9 0.7 0.5 0.3 0.2 -0.4 -2.1 -2.1 5.2 5.9 7.1 8.6 7 7.6 8.1 9.1 9.9 10.1 9.8 8.5 6 6.3 6.6 7.5 8 7.6 6.5 5.4 5 5 5 5 5.1 5.6 8.3 7.4 8.1 8.1 8.1 8.2 7.2 5.7 5.7 6.1 8.3 5.8 5.8 5.8 5.8 5.8 5.8 5.8 5.8 5.9 5.5 5.7 11.4 14.7 17.6 18.7 18.9 19.6 20.7 20.7 20.4 20.2 20.3 20.4 20.7 21.7 22.8 23.6 23.7 23.8 23.8 23.8 24.3 24.5 24.7 25 24.9 24.6 24.2 24.2 24.5 25.1 25.7 26.6 26.6 27.7 28.4 29.1 29.3 30.5 31.3 32.5 33.8 34.7 35.8 37.1 38.3 39.4 40.8 40.6 37.9 38.3 40.6 41.5 42.3 42.7 42.3 42.3 42.2 41.4 41.2 41.3
16.5 15.5 13.4 13.9 13.7 13.7 18.6 19.5 19.8 20.1 19.7 19.9 21.9 22.2 21.2 18.5 17.6 17.5 21.3 19 18.2 17.6 17.1 16.5 15.4 13.8 12.9 11.4 9.7 8.5 7.5 6.2 4.3 3 1.8 1 0.3 -0.3 -0.3 -0.1 0.2 -0.2 -2.1 -2.1 -2.1 -2.1 -2.1 -2.1 -2.1 -2.1 -2.1 -2.1 -2.1 -2.1 -1.9 -2.1 -2.1 -2.1 -2.1 -2.1 -2 -2.1 -2.1 -2.1 -2.1 -2.1 -2.1 -2.1 -2 -1.7 -1.3 -1 -0.8 -0.6 -0.4 -0.2 0.1 0.3 0.6 0.8 0.9 1.1 1.4 1.5 1.5 1.3 1.1 0.9 0.7 -0.1 -0.9 -2.1 4.1 5.1 5.2 5.5 6 5.5 5.5 5 7.3 10.3 11.6 8.7 5.7 5.5 5.7 5.6 5.9 6.2 6.2 5.5 5.3 6 5.2 5.4 5 5 7 7.8 7.4 7.4 7.9 7.7 6.3 5.5 5.8 6.3 10.6 5.8 5.8 5.8 5.8 5.8 5.8 8.6 6.3 5.4 5.2 7.9 16.3 19.6 20.9 21.6 22.4 22.2 22.1 22 21.7 22 22.6 23.3 23.7 23.9 23.8 24.3 24.5 24.8 24.5 24.4 24.7 24.6 24.9 25.2 25.1 24.8 24.9 25 25.2 25.8 26.4 26.8 27.7 28.5 28.3 29.5 31.3 32.5 33.6 34.8 36.3 37.9 39.5 40.8 42.1 43 43.3 41.9 39.8 42.7 42.4 42.5 42.3 41.7 41.2 41.3 41.8 41.8 42.2 42.2
17.1 15.8 15.3 15.5 15.8 15.6 16.5 17.5 19.5 19.6 20.1 20.4 20.2 19.8 20.3 20.1 19.3 18.8 18.9 20 21.9 19 18.8 18.4 17.8 16.6 16.1 15 13.4 11.8 10 8.6 7.5 6.4 6.4 5.2 2.4 2.2 2 1.8 2.2 3.4 1.8 1.3 1.2 1 0.6 0 -0.7 -2.1 -2.1 -2.1 -1.7 -1.3 -1 -2.1 -2.1 -2.1 -2.1 -1.5 -1.4 -1.5 -1.6 -1.7 -1.7 -1.7 -2.1 -2.1 -1.6 -1.3 -1 -0.7 -0.4 -0.2 0 0.2 0.4 0.7 0.9 1.1 1.3 1.5 1.7 1.9 2 1.8 1.6 1.7 1.3 0.9 0.2 -2.1 3.6 4 5 5.2 5.1 5.1 5.4 5.6 5.5 5.5 6.1 9 5.4 5.6 5.8 5.7 6 6 6 5.4 5.3 5.2 5.4 4.8 5.2 5.1 5.1 5.3 7.3 7.2 7.4 6.6 5.6 5.8 6.1 6.6 8.8 5.8 5.8 5.8 5.8 7.8 7.5 5 5.1 6.7 11.3 16.1 19.1 21.3 22.2 23.1 23.3 23.4 23.2 23.4 23.9 25.1 25.6 25.7 25.4 25.1 24.5 25 24.7 24.7 24.7 25.1 25.2 25.1 25.1 25.3 25.3 25.1 25 25.5 25.9 26.4 28.3 27.5 28.5 28.7 30.1 31.7 33.5 35 36.5 38.1 40.1 41.9 43.4 44.5 45.4 45 43.1 39.3 47.9 42.4 42.3 43 41.5 41.2 42.3 42.9 42.2 42.2 44.6 45.3
18.3 17.4 17.1 17.3 16.8 17 17.9 18.2 19 19.5 19.5 19.7 20.1 19.9 20.3 20.4 19.8 19.7 19.4 19.9 21.9 24.3 20.5 20.3 20 19.1 18.3 17.3 16.3 15.7 15.1 13.5 11.9 10.1 9.1 8.7 8.8 8.9 8.9 8.6 8.6 8.3 7.6 7.9 7.7 5.4 2.6 2 1.3 0.4 -0.2 -0.8 -0.4 -0.3 -0.1 -2.1 -2.1 -2.1 -1.8 -0.9 -0.9 -0.9 -1.1 -1.2 -1.1 -0.9 -1 -1.1 -1.1 -1 -0.7 -0.4 -0.1 0.2 0.4 0.6 0.8 1 1.3 1.5 1.7 1.9 2 2.2 2.4 2.4 2.5 2.6 2.7 3.3 4.4 -2.1 3.9 4.5 5 5.5 4.9 5.3 5.3 5.1 5.6 5.9 6.2 6.1 5.6 5.3 5.6 5.6 5.9 5.8 5.8 5.4 5.3 5.2 5.2 5.2 4.8 4.9 5.1 5.4 5.5 5.5 5.5 5.8 5.6 5.8 6 6.3 6.7 9.1 5.8 10 7.8 5.3 5.4 11.9 16.5 18.2 20.2 19.8 21.5 22.5 23.2 24 24.7 24.1 24.3 24.7 26.9 27.8 27.3 26.1 25.8 25.7 25.5 25.1 24.8 25.2 25.3 25.1 25.7 25.7 25.6 25.5 25.5 25.5 25.5 25.9 28.2 26.7 28.6 28 29.3 30.8 32.6 34.4 36.4 38.6 40.4 42.3 43.7 45 46.2 46.8 45.2 41.8 38.1 43.1 44.1 45.6 45.2 44.5 43.2 43.2 44.1 45.8 46.4 47.1 48.7 49.8
19.2 19 19.4 19.3 18.3 19.2 19.7 19.4 18.8 19.9 20.1 20 19.5 19.8 20.1 20.4 20.7 20.4 20.4 19.8 20.1 22.1 25.2 22.1 21.6 21.8 21.2 20 19.3 19 18.5 18.8 18.3 17.5 13.2 12.8 14 14.3 14.9 14.5 14.8 15.7 16 15.9 14.9 13.3 11.9 8.9 6.9 2.7 2.3 1.2 0.9 0.6 0.6 -1.8 -2.1 -2.1 -0.8 -0.3 -0.3 -0.4 -0.6 -0.6 -0.5 -0.2 -0.3 -0.3 -0.4 -0.5 -0.4 0 0.3 0.6 0.8 1 1.2 1.4 1.6 1.9 2.1 2.3 2.4 2.6 3 3.5 4.7 4.8 4.1 4.1 3.5 -2.1 3.3 4.3 4.9 5 4.9 5 4.5 4.7 4.9 5.2 5.5 5.9 5.9 5.8 5.6 5.6 5.6 5.6 5.5 5.6 5.5 5.4 5.3 4.9 4.7 4.9 5 5.3 5.4 5.6 5.6 5.6 5.6 5.8 6.3 6.7 6.4 6.4 6.8 6 5.3 6.6 14.8 20.3 21 21.4 21.7 21.8 22.4 23.4 24.4 24.9 24.6 24.4 25.4 26.6 27.7 28 27.7 26.6 26.2 26 25.8 25.6 25.3 25.8 25.8 25 25.7 26.1 26 25.8 26.5 26.7 27.2 26.1 27.1 28.2 27.7 30 31.5 33.5 35.6 38 40.5 42.7 44.6 45.9 47 47.1 47 44.9 40.5 44 42.8 46.6 47.2 47.1 46.6 46 45.2 46.3 47.7 49.5 50.4 51.3 52.3 53.2
20.5 20.7 21.3 20.7 20.3 21.3 21.2 20.8 20 20.8 21 20.9 21.1 20.9 20.7 20.1 20.2 20.8 21.1 20.9 21.6 22.3 26.9 23.6 22.9 22.7 22.5 21.9 21.8 20.7 21.3 21.8 22.2 21.8 21.2 21.3 21.3 21.2 21.5 21 21.7 20.1 21.7 21.9 20.1 20.2 19.5 17.4 13.4 9.4 9.5 4.3 2.1 1.6 1 -1.4 -2.1 -1.5 0.2 0.3 0.3 0.2 0 -0.1 0.1 0.4 0.5 0.4 0.3 0.2 0.2 0.3 0.6 0.9 1.1 1.3 1.6 1.8 2 2.2 2.5 2.6 4.1 4.6 5.1 4.2 3.6 3.5 3.4 3.4 -2.1 -2.1 3.8 4.5 4.7 4.6 4.6 4.3 4.2 4 4.2 4.4 4.8 4.7 5.1 5.7 5.5 5.7 5.5 5.3 5.4 5.7 5.9 5.8 5.6 5.2 5.2 5.1 5 5.2 5.4 5.6 5.7 5.7 5.7 5.8 6.1 6.2 6.4 6.7 6.7 5.5 6 17.8 21.6 22.3 22.9 23.2 23.5 23.3 23.8 24.7 25.6 25.6 25.6 26.1 27.1 28.3 28.5 28.1 28 27.1 26.5 26.2 26 25.8 25.9 26.5 26.4 26.5 26.2 26.4 26.2 26.4 27.1 27.4 26.7 27.6 27.2 29.3 30.1 31.8 34.1 37.1 40 42.4 44.9 46.4 47.7 48.5 47.9 44.7 41.9 44.1 42.8 44.1 47.7 48.9 49.1 48.8 48.7 48.4 47.5 50.3 53.8 54.8 56.4 55.2 54.1 57.5
22.2 22.4 22.7 22.2 21.8 22.5 22.6 22.3 22.1 22.4 22.3 22.2 22.3 22.4 22.1 23.7 25.2 23.6 24.2 21.5 24.7 22.3 22.5 22.4 22.5 26.1 23.4 22.6 23.2 22.9 23.8 24.5 23.9 23.6 24 23.7 23.4 23.4 23.2 23.7 23.3 23.3 22.9 22.9 22.5 21.3 20.7 20.1 18.4 12.2 9.2 7.8 5.4 2.7 1.5 -0.9 -2.1 -0.5 1.2 0.9 0.9 0.7 0.5 0.5 0.7 1 1.2 1.2 1 1 0.9 0.8 0.9 1.2 1.5 1.7 1.9 2.1 2.4 2.6 4.3 4.8 4.7 4.6 4.6 3.3 2.8 3.1 3.1 2.8 -2.1 -2.1 4.2 4.3 4.5 4.7 3.7 3.7 3.9 4.4 4.9 4.6 4.1 4.4 4.9 5.4 5.7 5.8 5.8 6 5.9 5.9 6 6.1 5.8 5.4 5.7 5.6 5.4 5.2 5.4 5.6 5.8 5.8 5.8 5.9 6 7.1 9 13.7 9.8 8 14.3 20.7 22.6 23.3 23.7 23.9 24.1 25.1 26 26.1 26.2 26.3 26.3 27.4 28.7 29.4 29.2 28.5 28.1 27.6 26.6 26.4 26.3 26.4 27 27 26.2 26.9 26.4 26.8 26.8 28.3 27.1 27.3 27.8 27.9 29.2 30.6 32.5 35.5 38.5 41.6 43.9 46.1 48 49 49.5 49.1 45.7 44.4 43.9 45 46.7 49.2 50.7 51.3 51.1 51.1 51.4 51.3 51.7 54.5 58.1 59.9 61.1 59.7 61.5 62.8
24 24 24 23.6 23.3 23.8 23.9 23.9 24 24.1 23.8 23.8 23.9 23.9 23.6 24.4 25.4 24.5 24.2 25.3 25.5 25 25.8 30 26.6 27.1 26.2 26 24.5 22.3 24.8 25.1 25 24.6 24.8 25 25.1 25.4 24.8 25 24.8 24.1 24 23.9 23.8 23.9 21.9 20.3 18.6 15.5 11.6 8.9 7.8 8 6.7 -2.1 -1.3 0.4 1.8 1.5 1.4 1.2 1 1.1 1.3 1.6 1.8 1.9 1.8 1.7 1.6 1.5 1.5 1.6 1.9 2.1 2.3 2.5 3.5 4.8 5 4.4 4.2 4.2 3.8 4 3.3 3.1 3 2.8 -2.1 -2.1 4 3.9 4.3 3.6 3.2 3.5 4.8 5.2 5.5 5.2 4.4 4.1 3.8 4.3 5 5.4 5.5 5.8 5.7 6.1 6.4 6.1 5.4 5.8 6.2 5.8 5.4 5.4 5.5 5.7 5.8 6 6 6.2 6.4 8.3 15.2 17.9 14.7 8.9 19.5 21.3 23.1 23.7 24.1 24.4 25.6 26.2 26.3 26.4 26.6 26.8 27.5 28.7 29.9 29.7 29.1 28.5 28.1 27.7 27.4 27.2 27.5 27.6 26.5 27 25.8 27.4 26.1 28.4 28.3 27.8 27.9 28.1 29.1 30.2 31.2 32.9 35.7 39.1 42.4 45 47 48.5 49.7 50.1 50.4 46.4 44.4 44.7 48.2 49.7 51.2 52.5 53.7 54.2 53.8 54 55.1 56.2 57.6 60.1 63 63.6 65.3 66.8 68.4 68.7
25.8 25.6 25.3 24.9 24.7 25.1 25.2 25.3 25.4 25.5 25.3 25.4 25.5 25.5 25.5 25.9 26.5 25.9 26 26.9 27.3 27.9 24.6 31.4 28.6 28.6 28.3 27.6 27 27.5 25.8 25 24.9 26.5 26.6 26.2 26.7 26.4 26.2 26.2 25.7 25.5 25.2 24.5 24.5 24.3 24.3 22.2 19.9 17.3 13.9 10.8 8.6 8 7.1 -2.1 5.7 2.3 2.4 2.1 2 1.7 1.5 1.7 1.9 2.2 2.4 2.6 2.5 2.4 2.3 2.2 2.2 2.1 2.2 2.5 3.1 4.9 5.2 5.2 4.8 4.4 4.2 4.3 4.6 4.5 3.2 3.1 3.2 3.1 -2.1 -2.1 4 4 4.2 4.5 4.6 4.7 4.9 4.7 4.9 4.6 4.5 3.7 4.7 5.1 4.9 4.8 4.9 5.1 5.3 5.8 6.1 6.3 6.6 5.5 5.1 5.4 5.9 6.4 6.2 6.1 6 6.2 6 5.9 7.1 13.1 15.7 12.2 11.8 17.3 20 22.1 23.6 23.8 24.6 25.7 26.2 26.5 26.6 26.7 27.1 27.5 28.7 30 29.7 29.3 28.9 28.4 28 27.6 27.6 27.7 27.6 27.6 26.9 26.1 28.1 28.6 28.6 27.6 28.1 29.7 31 30.1 30.9 32.2 33.7 36 39.1 42.3 45.1 47.1 48.4 49.7 50.7 51.6 44.7 44.2 45 49.7 52.1 53.6 55.1 56.2 56.6 57.2 57.8 60.2 61.4 64.2 67.3 69.6 69.4 72.5 72.2 72.9 74.7 75.1
27.3 27 26.7 26.3 26 26.2 26.2 26.3 26.4 26.3 26.5 26.5 26.8 26.9 26.9 27.3 27.9 28 28.1 29 29.7 30.3 30.9 25.4 31.7 31.7 31.4 30.4 30.5 30.6 29.2 28.1 27.1 26.4 24.9 27.6 27.7 27.9 27.6 27.2 26.7 26.2 25.7 25.3 25.2 23.4 21 18 16.9 10.8 9 9 8.1 8.4 7.4 5.7 5.5 6 5.5 3.3 2.5 2.2 2.1 2.3 2.6 2.6 2.6 2.7 2.7 2.7 2.7 2.6 2.6 2.6 2.7 4.7 4.7 4.7 4.8 5.2 4.9 4.7 4.4 4.2 4.3 4.5 3.2 3.4 3.4 3.2 -2.1 -2.1 4.1 3.9 4.2 4.3 4.9 5.2 4.9 4.7 4.6 4.8 4.9 4.8 4.7 5 5.6 4.8 4.4 4.5 4.8 4.8 5.3 5.9 5.4 6.6 5.8 5.3 4.8 4.8 5 5.3 5.5 5.5 5.3 5.6 11.3 14.8 12.3 15.2 17 19.3 21.2 22.9 24.2 24.5 25.3 26.4 27 27.4 27.7 28.3 28.8 29.4 29.8 29.6 29.3 28.9 28.5 28.4 27.9 27.7 27.6 28.4 28.4 26.8 26.9 28.1 27.5 27.9 28 29.9 30 31.9 34.5 34 34.6 35.3 37.2 39.5 41.5 44.4 47 48.5 49.7 51 45.3 45.2 45.2 46.7 51.4 54 56 57.9 59.2 60.4 61.3 61.8 64.2 66.6 68.8 72 74.3 76 76.8 78.5 78.6 78.5 77.8 77.6
28.6 28.3 28 27.7 27.4 27.4 27.3 27.2 27.3 27.2 27.2 27.4 28.4 28.8 29.1 29.2 29.9 30.7 31 31.7 32.3 32.9 33.1 34.5 28.4 33.3 32.8 31.8 31.5 32.4 31.8 30.4 31.3 29.3 28.6 26.2 28.7 28 27.9 27.3 26.6 25.5 26.3 20.3 16.2 14.2 11.8 9.3 8.9 7.4 7.5 5.7 5.7 6.7 5.4 7.1 7.9 7.9 6.6 6 5.6 3.8 2.6 2.6 2.7 2.6 2.7 2.7 2.7 2.7 2.6 2.7 2.6 4.4 5.1 4.9 4.4 4.5 4.8 5 5.2 4.8 4.8 4.5 4.2 4.1 3.4 3.6 3.3 -2.1 -2.1 -2.1 3.6 3.7 3.7 3.8 4 4.2 4.4 4.4 4.4 4.2 4.3 4.5 4.7 5.2 5.4 4.6 4.6 5 4.5 5.1 5 5.2 5.3 5.7 4.5 4.7 4.2 4.3 4.7 4.4 4.6 4.9 5.2 6.2 14.7 13.4 15.3 17.3 18.7 20.6 22.4 23.9 24.8 25.4 26.3 27.1 27.9 28.4 29 29.6 29.8 29.6 29.5 29.3 29.2 28.6 28.3 28.8 28.6 28.8 28.7 27.5 27 29.1 27.6 28.3 27.6 28.2 29.2 32.5 33.7 32.9 35.6 37.3 37.4 38.6 40.2 41.8 42.2 45.3 48.8 50.6 50.2 45.7 47.2 46.8 48.3 54.5 57.8 59.1 61 62.5 64.3 65.6 66.6 67.2 71.3 72.7 75.7 78 79.1 80.2 80.4 81.1 81.2 81.2 80 79.8
29.7 29.4 29.2 28.9 28.7 28.6 28.4 28.3 28.2 27.8 28.1 29.2 30 29.5 29.7 30.1 31.4 33.3 33.7 34.2 34.9 34.9 34.2 35 31.4 33.3 34 32.1 32.4 33.1 33.1 31.9 31 30.5 30.2 30.3 29.7 24.3 27.9 27.8 24 22.2 17.6 12 10 9 9.1 8.7 9.1 10 8.1 11.7 9.2 5 9.3 9.7 10.5 9.9 9.3 8 7.5 6.8 5.9 5.6 4.7 4.7 4.5 4.6 2.7 2.6 3.9 5 4.7 5.3 5.2 4.6 4.2 4.4 4.5 4.6 4.7 4.8 4 4.7 4.8 5 3.9 3.8 3.4 -2.1 -2.1 -2.1 3.6 3.8 3.5 3.5 3.6 3.8 4 4.2 4.4 4.5 4.3 4.3 4.5 4.6 4.5 4 4.4 4.6 5.2 5.3 5.3 5 4.9 4.6 4.6 4.4 4.3 4.5 4.7 4.7 4.7 6.9 7.2 7.6 11.8 15.6 16.2 18.3 20 22.1 23.7 24.7 25.5 26.1 26.6 27.4 28.2 28.7 29.1 29.3 29.3 29.4 29.3 29.2 29.3 29.5 29.2 29.2 29.3 29.4 30.2 30 28.6 27.5 27.3 27.4 27.9 28.7 30 32.9 34.9 35.3 36.3 38.2 40 41.7 43.2 44.3 44.2 44.8 49.5 45.9 45.9 49.5 47.9 49.9 55.7 59.5 61.8 63.3 65.7 68 69.9 71.6 73.5 75.2 76.6 78.3 80.2 81.1 81.4 81.4 82 82.4 83 82.4 81.7 81.9
30.8 30.5 30.3 30.1 30 30.1 30.2 29.7 28.8 28.5 29.1 32.1 32.7 33.2 33.8 34.3 35 35.1 35.4 35.4 35.9 36 35.6 36.4 36.8 27.6 33.9 32.5 32.9 33 33.1 32.7 32 31.2 31 31 30.8 30.1 23.1 28 19.2 17.5 12.2 15.8 14.7 14 13.2 15.5 16 15.4 12.2 14.8 15.2 16.2 20.8 20.8 18.8 12.2 9.9 8.5 7.9 7.1 7 7 5.9 5.9 5.1 5.1 5.3 5.7 5.9 5.4 5.5 5 4.8 4.9 5.1 4.9 4.9 4.8 5.4 4.5 5 5.4 5.8 5.9 4.5 3.8 3.9 -2.1 -2.1 3.7 3.6 4 3.8 3.4 3.4 3.7 4 3.9 4.2 4.6 5 4.8 4.7 4.5 4.1 3.7 3.8 4.1 4.3 4.3 4.6 4.8 5 4.9 5.2 4.9 4.7 4.7 4.7 4.8 6 8.6 10.2 10 14.2 17 18 17.9 20.5 23.4 24.4 25.2 26 25.9 26.8 27.6 28.2 28.5 28.9 29.3 29.2 29.2 29.2 29.3 29.6 30.1 29.8 29.3 29.1 29.5 28.9 29.4 28.4 28 27 28.4 29.4 30.3 31.8 34.5 35.2 36.2 38.9 40 42.5 44.4 45.6 46.1 45.7 47.3 46.1 48.9 54.2 51.8 51.6 56 59.5 63.4 65.5 67.7 70.8 73.3 75.4 77.2 78.7 79.9 81.4 82.4 83.2 84.1 84.2 84.3 84.1 84.6 84.8 84.3 83.7 84.2
31.9 31.7 31.5 31.4 31.4 31.2 31.9 31.5 31.2 31.8 32.9 34 34.7 35.1 35.2 35.7 35.9 36 35.9 35.6 35.8 35.6 35 35 36.8 32.8 33 33 33.4 32.8 32.9 33.6 33.1 32.5 32 31.2 30.1 28.8 27.4 23.6 16 11.3 19.5 19.8 18.6 16.7 17.5 19.3 18.4 17.8 15.6 17.6 19.1 21.2 22.9 23.5 23.9 23.9 17.5 11.3 9.7 8.5 8 8.4 8 7.5 6.5 5.9 6.3 6 6.9 6.4 6.6 6.3 5.7 5.6 5.6 5.7 5.2 5.6 5.8 6 6 6.2 6.5 6.7 4.7 3.3 -2.1 -2.1 -2.1 3.4 3.7 4.1 4.3 3.8 3.6 3.7 3.9 4 3.8 4.2 4.5 4.4 4.5 4.8 4.8 4.3 4.2 4 4.1 4.2 4.4 4.5 4.8 5 5 4.9 5.4 5.4 5.2 5.4 8.1 11.1 11.1 11.7 13.9 17.2 18.4 18.8 19.6 21.3 23.7 25.5 25.8 26 26.8 27.7 28 28.3 28.8 28.9 28.9 29.2 29.8 30.1 30.3 30 30 30 30.1 31.2 31.3 30.8 29.2 29.1 29.2 29.9 31.3 32.2 33.9 35.2 36.3 38.7 41.3 42.3 44 46 47.4 50 48.3 46.2 50.8 57.3 58.1 58.9 58.9 61.4 64.3 67.6 70.9 73.5 76.2 78.8 81 82.6 83.6 84.1 84.8 85 84.9 85.4 85.6 85.6 85.8 87.1 87.1 86.9 86.6 86.2
33.1 32.9 32.7 32.8 32.7 32.7 33.6 33.8 34 34.4 35.1 35.7 36.1 36.4 36.4 36.7 36.6 35.9 35.6 35.1 35.1 34.7 34.3 35.2 34 33.2 33 33.2 33.1 33.1 32.8 32.8 33 32.6 32.9 30.3 28.6 27.4 17.7 12.4 18.2 21.7 22.9 22.4 21.8 20.7 20.3 20.3 20.4 19.9 17.3 19.1 20.6 22.4 23.4 23.5 23.8 23.8 22.8 20.9 14.9 10.7 9.6 9.3 8.7 8 7.2 6.5 6.3 6.9 6.8 6.6 6.4 6.1 5.7 5.4 5.9 6.3 6 6.1 6.2 6 5.8 6 5.7 5.3 4.4 -2.1 -2.1 -2.1 4.1 3.9 4.2 4.3 4.5 4 4.1 4.2 4.2 4.1 3.9 3.7 3.8 3.9 4.1 4.4 4.7 4.7 4.9 4.7 4.7 4.4 4.3 4.3 4.5 4.4 4.4 4.4 4.8 4.7 5 7.3 12.2 14.9 14.4 15.5 15.6 16.8 19 20.7 22.1 21.9 22.6 25 25.8 26.1 26.6 27.2 27.6 27.8 28 28.5 29 29.5 30.3 30.3 30.1 30 30.4 28.9 32.1 32.6 32.5 31.2 30.7 29.8 29.6 31.2 33.1 34.3 35.3 36.6 38.9 41.6 42.4 43.6 45.7 48.3 50.2 49.5 46.5 51.6 54.6 57.3 59.1 60.8 63.1 66.1 70 73.5 77.2 79.9 82.5 84.7 85.9 86.3 86.4 86.7 86.6 86.4 87 86.7 87.5 88 88.5 89.3 89.3 88.9 88.1 87.5
34.3 34.3 34.4 34.5 34.6 35 35.3 35.6 35.8 36.1 36.4 37 37.3 36.9 36.3 36.8 36.6 35.6 35.6 35.6 35.2 34.9 34.3 35 33.2 33.3 31.4 34.4 33.7 33.6 33 33.3 32.8 33.1 32.8 29.5 23.5 17.5 20.3 22.8 25.6 24.7 25.3 24.5 23.9 23.4 23.2 22.9 22.7 21.9 18.1 19.7 21.3 22.2 22.6 23.2 24.1 23.9 22.9 21.8 17.4 12.8 11.3 10.5 9 8 7.3 7.3 7.8 7.6 7.6 7.5 7 6.6 7.6 6.9 7.4 7.6 7 6.4 6.6 6.1 6.1 6.7 5.9 4.5 -2.1 -2.1 -2.1 4 4.4 4.3 4.5 4.3 4.4 4.3 4.4 4.5 4.4 4.2 4.1 3.9 3.7 3.5 3.8 4.2 4.4 4.3 4.7 5.1 5.1 4.9 4.7 4.8 4.9 4.7 4.2 4.4 4.3 4.4 5 7.8 13.2 16.3 16.2 15.6 16.6 17.8 19.3 21.2 23 23.3 22.8 24.4 25.6 26 26.2 26.8 26.9 27.4 28.2 29.1 29.6 30.5 30.9 30.5 30 27.7 32.1 33 33 33 33.4 31.8 31.2 30.9 31.3 33.4 34.9 35.9 36.5 38.6 41.2 44.4 44.7 44.7 47.3 49.2 49.2 46.7 50.1 52.8 55.8 58.9 62 64 67.4 71.3 75.2 79 83.5 86.1 88 88.6 88.7 88.7 88.9 89 88.6 88 88.8 89.5 88.6 90.6 91.6 91.7 91.4 90.6 89.5 89.1
36.4 36.3 36.4 36.5 36.7 36.8 36.5 36.3 36.6 37.4 37.5 37.7 37.5 37.4 37.2 36.8 36.3 35.9 35.5 35.6 35.3 35 34.1 34.8 33.4 33.4 30 34.8 34.2 34.2 33.2 32.5 31.9 31.6 25.4 18.8 16.6 22.7 26.1 26.3 27.5 27.5 26.1 26.1 25.3 25 24.2 23.7 23.3 22.1 18.7 21.3 22.6 22.8 23.2 23.7 24.2 24.2 23.3 22.6 21.5 18.9 12 10.9 9.9 8.2 7.3 8 8.3 8.5 8.4 8.3 8.2 7.5 7 7.1 7.9 8.3 7.6 8 7.3 6.3 6 6.2 5.1 -2.1 -2.1 -2.1 4.2 4.2 4.3 4.4 4.9 4.9 4.4 4.8 4.8 4.8 4.6 4.4 4.2 4 3.7 3.4 3.7 4.1 4 3.9 4.3 4.8 4.9 4.8 4.8 5 5.2 5.3 4.7 5.1 5.4 4.8 5.4 9.2 14.9 17 16.2 15.7 17.2 18.4 20.7 22 23.6 24.3 24.3 24 24.8 25.1 25.6 26.8 27.3 28.1 28.9 29.7 30.5 31.1 29.4 27.8 31.1 31.2 32.4 33.2 32.2 32.3 32.5 32.6 34.2 32.1 33 34.6 36.3 37.4 39.2 41 43.1 45.1 45.6 45.2 47.4 48.1 47 51.3 53.1 55.5 58.6 61.1 64.3 67.7 71.4 75.8 79.7 83.7 87.7 89.6 90.3 90.7 90.9 91 91.5 91.5 91.4 91.1 91.2 92 92.1 94.9 94.4 93.7 93 91.9 90.5 89.5
37.8 37.6 37.3 37.5 37.7 37.8 37.7 37.2 37.3 37.4 37.9 37.8 36.1 37.3 36.5 37.1 36.1 36.1 35.8 35.5 35.4 34.7 34.3 34.5 33.5 33.5 32.5 34 33.2 30.6 31.4 26.7 22.7 20.9 18.7 23.5 27 27.8 28.8 27.8 28.1 28.1 27.8 26.6 27 26.3 25.5 24.7 24 22.7 20 22.3 24.7 23.9 24 24.4 24.6 25.2 24.4 23.5 22.5 21.6 13.7 10.6 10 9.7 8.8 9.6 8.8 8.5 8.6 8.7 8.8 8.5 7.2 7 8 9 8.7 8.4 8 6.6 5.2 5.7 3.1 2.7 -2.1 4.5 4.2 4.2 4.8 5.5 5.2 5.4 5.7 5.8 5.5 4.9 4.7 4.5 4.4 4.2 4 3.8 3.8 4 4.1 4 4 4.4 4.7 4.7 5 5.1 5.2 5.7 6.1 6.1 7 7.5 7 12.2 16.4 17.5 16.3 16.3 17.7 19.3 21.8 22.9 24 24.8 25 24.9 23.9 24.5 25.6 26.6 28.2 28.9 29.7 30.4 31.7 31.2 31.3 31.3 31.9 32 31.5 32.1 32.2 32.8 35.9 35.9 35.7 33.5 35.2 37 38.8 40.4 42.1 44 45.5 47.3 46.6 45.6 47.7 47.5 50.9 52.1 54.3 57.2 59.5 62.1 65.7 70.1 74.7 78.9 82.9 86.9 89.8 91.4 92.1 92.5 93 93.5 94.4 94.3 94.3 94 93.8 94.1 95 95.2 95.1 94.4 93.4 92 90.5 89.7
39.1 38.9 38.7 38.3 38.4 38.7 38.5 37.8 37.2 37.1 36.4 36.5 36.8 37.1 37.2 36.9 36.4 36.5 36.4 35.5 35.1 34.6 34.2 35.6 34.2 33 33.9 32.3 30 26.4 23.7 20.8 18.3 24.5 29.4 31 30.8 30.1 29.3 28.9 28.7 28.7 28.1 24.3 27.3 26.7 26.5 25.6 24.6 23.2 21.3 20.9 24.8 24.8 24.4 24.5 24.7 25.1 25.3 24.2 23.2 22.3 18 11.3 10.2 10 10 9.8 9.2 9 8.8 7.8 8.4 9.8 8.4 7.7 8.8 8 7.7 8.2 7 5.7 5.1 2.8 2.7 5.7 4.9 4.5 4.6 5.4 6.2 6.9 7.3 6.6 7.4 7 6.3 5.6 5.4 5.3 4.9 4.7 4.6 4.4 4.4 4.5 4.4 4.3 4.5 4.7 5 5.5 5.9 5.4 6.2 7 7.7 7.4 8.1 9.4 13.8 16.5 17.3 17.8 17.1 17 18.3 20 21.4 23 23.9 24.7 25.2 25.3 24.5 24.7 25.4 26.4 28 29.7 30.5 31.5 33.2 33.2 32.3 31.8 32.2 31.7 30.9 34 32.5 34 33.6 37.2 36.7 36.1 37.4 39.6 41.4 43.2 45.1 46.8 48 48.1 46.8 46.9 48 49.9 51.7 53.2 54.9 57.1 59.9 63.2 67.4 72 77 81.7 85.9 89.5 92.1 93.9 95.3 95.9 96.6 96.8 97.4 97.6 96.7 96.1 95.7 95.3 94.9 95.1 94.3 93.6 93 91.6 90 89.2
39.7 39.8 39.6 39.3 39.1 39.1 38.9 38.3 36.9 37.8 37.1 37.1 36.9 36.6 36.5 36.2 36 35.7 35.9 35.2 34.8 34.5 33.3 33.6 33.5 32.4 33.3 29.1 22.9 24.7 28.9 30.7 31.8 33 32.5 31.8 31.2 30.4 29.8 29.5 29.6 29.7 28.7 27.9 28.2 26.7 26.1 25.8 25.3 24.2 22.8 21.5 23.3 25.3 24.8 24.7 24.7 25 25.3 25.2 24 22.2 16.4 12.2 11.1 10.8 10.4 10 10.2 10.2 9 7.7 8.9 10.4 10.3 9.3 9.3 8.9 8.4 7.6 6.9 5 3.1 4.5 5.6 7 6.1 5.6 6.3 7.1 7.3 7.6 7.9 7.6 8.4 7.7 7 6.6 6.3 6 5.5 5.3 5.1 5 5 4.9 4.8 5 5.2 5.4 5.7 6.1 6.5 6.5 6.1 7.3 7.9 8.4 10 12.8 17.6 17.2 17.8 18.2 17.3 17.6 19.7 22.1 22.1 22.9 23.8 24.6 25.1 25.3 25 25.4 26.8 26.7 28 29.7 26.3 32.6 33.9 34.6 35.3 35.3 33.7 36.3 36.8 36.8 33.9 34.1 35 36.5 36.8 37.8 39.1 41.6 43.5 45.6 47.7 48.2 48.5 47.4 46.7 48 48.9 50.7 52.6 54.1 55.7 57.9 61 64.7 69.5 74.6 79.8 84.9 89.4 93.2 95.7 97.3 98.9 99.6 99.7 99.9 100.3 99.4 98.4 97.6 96.6 95.7 95.1 94.7 94.4 93.4 92.6 91.5 91.1 90.3
40.1 39.8 39.4 39.1 38.9 38.7 38.4 38 36.9 37.2 37.5 37.2 36.5 36.3 36 36.4 35.9 35.9 35.3 34.2 33.4 32.7 32.5 32.5 31.7 33.2 33.7 31.7 30.7 32.9 33.2 33.7 33.7 33.5 33 32.5 31.8 31.2 30.6 30.4 30.4 30.2 29.4 28.2 24 26.7 25.5 25.6 25.4 24.9 23.6 22.1 22.6 23.9 24.7 24.9 24.9 25.2 25.5 25.4 23.9 21 16.7 14.3 13.3 14.1 11.4 10.7 10.6 10.9 11.6 11.5 10.8 11.9 11.4 9.9 9.1 9 8.3 7.2 5.3 3.1 5.1 6.2 7.2 7.5 7.8 7.9 8.2 8.2 8.2 8.3 8.2 8 8.7 8.5 8 7.6 7.1 6.6 6.1 5.9 5.7 5.5 5.5 5.5 5.5 5.8 6 6.2 6.2 6.5 6.9 7.3 7 7.2 8.3 11.9 14 17.2 17.8 17.8 18.2 18.1 17.3 17.9 21.6 23.1 22.8 23 23.7 24.6 25 25.3 25.9 26.3 29 28.6 25.7 31.4 32.8 33.6 34.3 35 35.4 35.7 35.3 35.8 36.7 36.8 36.8 33.9 35.4 36.3 38.4 39.1 41.3 43.3 45.2 46.9 47.3 47.3 47.3 46.7 48.2 48.7 50.3 51.6 53.5 55.1 57.3 59.9 63.3 67.6 73.2 78.5 83.7 89.1 93.8 97.4 99.8 101.3 101.9 101.9 102.2 102.3 101.7 100.4 99.3 98 96.9 96.1 95.3 94.7 94.6 93.8 92.9 92.3 92.3 91.5
39.8 39.1 38.9 38.6 38.5 38.2 37.7 37 36.5 35.8 33.5 33.2 32.7 32.2 32.4 29.9 30.1 30.1 30.5 30.2 29 26.6 26.3 29.6 35.8 35.1 35.1 33.3 34.2 34.2 34.3 34.4 34.4 34.1 33.8 33.4 32.5 31.9 31.3 31.3 31.2 30.6 29.5 28.5 27.5 26.7 25.6 24.9 25 24.5 23.7 22.9 23 23.9 24.5 24.9 25 25.2 25 24.4 22.1 18.6 17.3 16.5 17 16.4 14.7 14.5 11.1 11.3 11.5 12.8 12.1 10.4 10.5 9.6 8.4 7.6 6.3 4 6 5.7 6.6 7.2 7.6 7.9 8.1 8.9 9.2 9.1 8.9 8.7 8.6 8.4 8.8 8.7 8.2 7.6 7.3 7 6.7 6.6 6.5 6.3 6.2 6.2 6.2 6.5 6.9 6.9 6.8 7 7.2 7.5 7.6 10 14.2 14.5 16.1 18.4 18.4 18.1 18.1 18.1 17.3 18.7 21.4 22.9 22.9 23.1 23.7 24.5 25 25.8 26.6 27.6 27.6 30.3 31.5 32.6 33.3 34.1 35 35.3 35.6 36 36.2 36.1 37.4 37.8 37.7 36.9 34.2 37 39.7 40.9 42.8 44.3 45.6 46.7 46.9 46.9 46.8 48.8 49 50.7 52.4 53.5 54.7 56.7 59 62.5 66.8 71.8 77.1 82.6 88.5 94.2 98.5 101.6 103.2 104.2 104.2 104.1 103.6 103.4 102.4 101 99.6 98.2 97.2 96.4 95.3 93.9 93.7 93.7 93.3 93.1 93.2 92.7
38.4 38.5 38.4 38.2 37.5 37 35.7 35 33.4 34.4 34 33.6 33.4 33.4 34.2 34.2 33.9 33.2 28.8 27.4 27.8 30.5 34 35.1 35.5 35.3 35.7 33.7 36.8 35 34.8 34.9 34.6 34.3 34.3 33.6 33.2 32.7 32.1 32.2 31.6 30.9 29.7 28.3 27.4 24.1 25.4 25 24.1 23.4 22.9 22.6 23.4 23.9 24.4 24.9 25.1 25.2 23.4 22.2 20.6 18.1 17.5 17.4 17.5 16.8 15.7 15.7 14.6 11.5 12.3 12.5 11.7 11.6 10.8 9.6 8.5 7.2 3.1 6.8 7 7.8 8.6 8.1 8.2 8.2 8.6 9.1 9.3 9.2 9 8.7 8.6 8.7 8.8 8.5 8.2 7.8 7.5 7.2 7.3 7.4 7.3 7.2 7 6.9 6.9 7.2 7.5 7.5 7.4 7.5 7.4 7.8 7.5 15.2 15.7 15 16.1 18.2 19.2 18.8 18.4 17.8 18 19.3 21.5 23 23.5 24 24.4 24.8 25.6 26.3 26.9 27.8 29.6 31.4 32.9 33.7 34.7 35.4 36.3 36.7 37.1 37.5 38 38.3 38.9 39.2 38.7 38.2 37.5 36.2 40.9 42.5 43.9 45.1 46.2 46.5 46.8 47.1 49 49.3 51 52.3 53.8 55.1 56.8 59.2 62.8 67.6 72.3 77 82.1 87.2 92.5 97.8 101.9 104.8 106.7 106.8 106.4 106 105.1 103.9 102.7 100.9 99.3 98.5 97.5 96.7 95.4 93.7 93.3 94.1 94.4 94.8 95.2 95.2
37.5 37.6 37.5 37 36.9 35.1 34.6 34.4 35.4 35.3 34.8 35.1 34.7 34.5 34.4 35.3 35 34.4 33.6 33.5 34.1 34.6 35.7 36 36.3 37.3 34.9 34.4 35.5 35.9 34.9 34.8 34.5 34.6 34.6 34.3 33.7 33.2 32.5 32 31.5 30.5 29.2 28.6 27.5 26.1 25.9 24.9 24.2 23.7 23.3 23.3 24.1 24.3 24.4 25 24.8 24 22.5 21.3 22.2 18.7 17.8 17.9 17.8 17.1 16.5 16.9 17.5 16.7 12.7 12.8 12.3 12.3 12.2 11.7 9.4 3.3 6.4 6.8 7.6 8.8 10 9.8 9.1 8.6 8.9 8.9 9 9.4 9.3 9.1 8.9 8.7 9.2 9.2 8.5 8.4 8.2 7.9 8 8 7.8 7.8 7.8 7.7 7.6 7.8 7.9 8 7.9 7.9 7.7 7.3 9.2 16.1 16.3 15.3 16.1 18.5 19.3 19.5 18.6 17.5 18.5 20.1 21.7 23.2 24.2 24.9 25.3 25.7 26.6 25 28.5 29.7 31.4 32.6 34.1 35 36.2 37.5 38.4 38.7 38.8 39.3 39.8 40.4 40.4 40.6 40.2 39.7 38.8 35.9 41.1 43.5 45.2 46.4 46.9 47.4 47.3 49 50 51.6 52.9 54.2 55.4 56.9 59.9 63.4 68.6 74.1 79 83.4 88 92.1 96.5 101.4 105.4 108.3 109.7 109.3 108.5 107.5 106.4 104.7 103 101.2 99.7 98.9 98.3 97.8 96.6 95.4 95.2 96 96.2 96.4 96.7 97.1
36.9 36.7 36.5 36.2 35.7 34.8 35.2 35.7 36.1 36 35.8 35.3 34.8 34.7 35.3 35.1 35 34.9 34.8 36 35.1 35.9 36.2 36.4 36.8 39.5 35.3 36.4 35.1 36.3 34.8 35.3 35.3 35.4 35.2 34.8 34.2 33.7 32.5 31.5 30.8 29.7 28.3 27.8 26.7 25.4 24 25 24.3 23.8 24.7 24.6 25 24.7 23.9 24.4 23.1 23.3 23 26.7 26.1 21 18.9 18.7 18.2 18 17.7 17.7 17.9 17.5 17.4 13.1 12.9 13.1 12.2 12.4 10 6.1 6.6 6.3 8.6 9.9 10.7 10.8 10.3 9.5 9.5 9.6 9.3 9.4 9.6 9.7 8.9 8.9 9.5 9.6 8.9 8.9 8.8 8.7 8.6 8.5 8.3 8.2 8.2 8.2 8.2 8.3 8.3 8.4 8.4 8.3 8.3 9.4 12.4 16.5 16.7 16.1 16.2 18.6 19.5 19.5 18.4 17.6 19 20.3 21.8 23.3 24.6 25.5 26 24.7 27.6 28.9 30.1 31.5 33 34.3 35.8 37.1 38.3 39.5 40.5 41.4 41.4 41.4 41.9 42.4 42.4 42.2 41.9 41.2 39.9 38.5 39 44.3 46.3 47.1 47.6 48.2 49.3 49.9 51.9 53.3 54.6 56 57.3 59.7 64.3 70 75.6 81 85.6 89.8 93.7 97.6 101.9 106.2 109.6 111.5 112 111 109.8 108.3 106.5 104.9 103.4 101.6 100.2 99.6 99.1 98.8 98.1 97.4 97.5 97.5 97.6 97.8 97.9 98
36.7 36.3 35.9 35.5 35.4 35.8 36.2 36.2 36.1 36.2 36.5 35.7 35.5 35.5 35.8 35.9 36 36.3 37 37.3 36.2 36.2 36.5 36.7 37 38 35.9 38 36.8 37.3 35.9 37.6 37.1 36 35.8 35.4 34.6 33.5 32.1 31.2 30.2 29 27.5 26.7 26.1 25.4 25.2 24.7 24.5 24.5 25.2 25.3 25.2 24.3 23 22.6 23 22.1 25.9 27.5 28.2 23.9 22.3 20.8 19.4 18.5 18.1 17.9 17.9 18 18.5 17.6 13.6 13.6 13.3 13 3.3 6.1 6.3 8.8 12.2 11.3 11.5 11.4 11.2 10.6 10.2 9.8 10 9.7 10.1 9.9 9.1 9.1 9.6 9.8 9.9 9.6 9.5 9.6 9.4 8.9 8.8 8.7 8.6 8.5 8.8 9 8.9 8.8 8.6 8.4 8.7 9.9 12 16.8 17.7 17.3 17.4 18.7 19.7 19.3 18.3 18.8 20.1 20.8 22 23.5 25 25.3 27.4 27.9 29 30.3 31.9 33.7 35.4 37 39.3 40.4 41.5 42.7 43.7 44 44.3 44.1 44.3 44.7 44.8 44.2 43.3 42.2 41 39.1 43 44.8 46.5 47.7 48.3 49.1 49.9 51.8 53.6 54.8 56.1 57.7 60.1 63.7 69.8 76.6 83.1 88.3 92.6 96.4 99.8 103 107.1 110.8 112.9 113.9 113.3 112.2 110.7 108.6 106.7 105.2 103.7 102.1 100.8 100.3 100.2 100 99.2 98.8 98.5 98.6 98.6 98.6 98.6 98.9
36.3 36 35.5 35.3 35.8 36.3 36.3 36.4 36.3 37.3 37.3 36.8 36.4 36.6 37.1 37.6 37.9 38.5 39.8 40.3 37 36.7 36.7 37 37.1 35.9 43.2 38.8 37.9 36.3 39 38.7 38.7 37.6 36.1 35.6 34.5 33 32.2 31.2 30.2 28.7 27 26.2 26.4 25.2 25.2 25.5 25 24.8 24.7 24.9 23.9 23.9 22.8 22.7 22.5 22.4 24.5 26.6 28.2 28.3 26.6 24.2 22.1 19.7 18.5 18.2 18.2 18.6 18.9 19.2 14.7 13.6 13.8 11.8 4.8 6.6 7 14.4 18.6 18.5 12.2 11.6 11.5 10.6 10.4 10.4 10.6 10.4 10.3 11.2 10.7 9.2 9.5 10.7 12.3 12.6 12 11.2 10.4 9.4 9 9.1 9 9.5 10.2 9.3 9.2 9.3 9.2 9.1 8.9 9.7 13.7 17.1 17.6 17.7 17.5 19.7 20.5 19.3 18 19.6 20.6 21.3 22.2 23.8 25.3 26.1 28.1 29.3 30.3 32.2 33.8 35.7 37.6 39.7 42.3 43.4 44.5 45.6 46.2 46.5 46.8 46.9 46.6 46.8 46.4 45.9 44.4 42.9 42 39 44.4 45.7 47 48.1 49.3 49.5 51.8 53.6 55 56.6 58.5 60.7 64.2 69.9 77.6 84.2 90.4 95.6 99.6 103.1 105.8 108.6 110.9 113.1 114.5 114.8 113.7 112.1 110.3 108.2 106.6 105.1 103.7 102.4 101.5 101 101 101 100.7 100.3 99.8 99.6 99.5 99.1 99 99.6
34.8 35.7 35.5 35.9 36 36.1 36.2 36.5 36.1 37.7 37.5 37.4 37.5 37.7 38.1 38.5 39.8 40.5 41.9 41.6 43.6 37.1 38.7 37.5 38.8 41.1 44.7 40.9 40.9 39.5 36.7 38.2 38.6 38.3 37.5 35.7 34.8 33.6 32.2 31.5 30.3 28.9 26.7 25.4 25.2 25.2 25.7 25.5 25.5 28 25.3 23.7 23.3 22.7 22.7 22.3 21.9 22.4 23.4 24.8 27.7 28.1 28.6 27 23.3 20.2 18.4 18.1 17.9 18.6 18.8 18.9 16 14.2 13.7 5.9 6.2 7.7 7.9 15.9 18.3 19 23.9 22.3 20.2 16.8 14.3 11.2 10.6 11.3 12 13.4 13.1 12.9 16 20 21.2 20.8 20.4 20.6 15.5 11.9 10.7 9.9 9.8 10.1 10.4 10.2 9.8 9.9 10 10.2 9.4 11.6 15.6 17.5 18.1 19.3 19.7 20.8 21 19.3 18.1 20.5 21.1 21.5 23.5 24.6 25.9 27.1 28.4 30 31.8 33.5 35.7 38 40 42.1 44.2 46 47.3 47.9 48.5 49 49 48.5 47.9 47.2 47 46.8 45.3 43.6 42.4 40.8 45.1 46 47.4 48.9 50 51.3 53.1 55.1 56.9 59.3 61.8 65.5 72.2 77.6 85.1 91.9 98 102.8 106.5 109.4 111.5 112.7 114.1 114.8 115.1 115.1 113.6 111.8 109.8 107.7 106.2 104.8 103.6 102.5 102 101.6 101.6 101.6 101.9 101.6 101.1 100.7 100.4 100.8 101.3 102.7
36.5 36.7 36.8 36.6 37.9 38.8 39.4 39.4 38.8 38.9 40.2 40.9 41.3 41.3 41.3 41.3 41.4 41.3 41.3 41 44.9 43.6 42.4 43.3 43.2 43.3 43.6 42.6 43.4 42.5 40.5 37.4 37.4 37.5 37.1 36 33.8 33.4 32.7 32.1 30.7 28.6 26.3 25.1 24.6 24.6 25.3 25.5 27 26.8 23.9 23.1 22.3 21.9 21.6 21.3 21.2 20.9 22.2 24 25.7 26.3 26.4 25.5 22.7 20 17.9 17.7 17.8 18.2 18.5 18.7 18.7 15.4 14.6 5.9 6.1 7.7 8 17.3 18 20.5 25.9 28.1 29.4 28.1 25.4 22.7 21.3 21.2 21 20.3 19.3 22.4 22 22.1 22.1 22 22 22 21.6 19.7 17 15.1 13.4 12.7 12.7 11 12.4 13.1 12.6 11.9 12.6 14.6 17.2 18.4 19.3 20.6 21 21.3 21 19.5 18.9 21.1 23 23.7 24.5 25.5 26.6 27.7 29.3 31.2 33.2 34.9 37.4 39.8 42 44 46 47.7 49 49.8 50.2 51 48.5 47.3 47.5 47.3 47.1 46.7 45.3 43.7 40.5 43.6 45.5 48.7 47.3 50.2 51.3 53.2 55.1 57.1 60.1 63.1 67 73.2 80 85.3 92.4 99.2 105.5 110 112.9 114.3 115.3 115.8 115.6 115.4 115.4 114.5 112.8 111.3 109.3 107.3 105.8 104.6 103.6 103 102.5 102.1 102.2 102.3 102.9 102.8 102.4 102.2 103 103.4 104.8 105.4
37.2 37.1 37.4 36.8 36.8 36.8 36.9 36.9 37.1 38.4 40.4 41.2 41.8 41.7 41.7 42 42.4 42.5 42.8 42.9 47.2 45.8 40.5 41.7 44.1 44.1 44.5 47.5 43.9 43.1 42 39.2 37.7 37.3 37.3 35.5 33.2 32.8 32.5 32 30.9 28.7 27.8 29 28.7 25.5 26.1 27.6 30 28.5 26 22.7 21.7 21.3 20.8 20.5 20.4 20.2 20.6 22.2 23.5 24 24 23.2 22 20.2 18.5 18.2 18.2 18.2 18.4 18.8 19 18.6 11.8 5.9 6.3 7.5 7.6 17.5 18.9 20.4 26.3 27.6 29 30.2 30.2 30.6 29.4 27 23.1 21.7 20.7 21.8 21.6 22.3 22.5 22.2 22.1 22.1 21.6 21.4 20.1 19.6 18.6 17.5 15.7 12.1 17.3 18.3 16.3 14.6 15.1 17.9 20 19.7 20.7 20.8 21.2 21.4 21.1 18.6 22.2 23.5 23.4 23.9 25 26.1 27.2 28.4 30.5 32.5 34.4 36.4 38.9 41.4 43.6 45.4 47.3 48.9 50 51 51.4 50.4 48 46.9 47.1 46.8 46.8 46.1 44.9 42.8 41.3 45.4 48.1 50.6 49.7 50.8 53.5 55.4 57.4 60.7 64.9 69.4 75 80.9 87.1 94.3 101.2 107.9 112.7 115.8 116.6 116.4 116.6 116.5 115.9 115.6 114.9 113.6 111.7 110.3 108.8 106.8 105.8 104.7 103.9 103.2 102.6 102.6 102.8 103.1 103.9 104.2 104.5 104.7 105.6 106.4 106.8 107.2
37.2 36.8 37 37.2 37.6 38 37.8 37.5 37.9 38.5 39.7 40.8 41.3 41.6 42 42.5 43.7 43.8 44.1 46 47.6 47.4 47.3 47 46.4 40.2 40.5 47.6 43.6 43.3 42.7 41.6 40.4 38.3 37.2 34.6 33.2 32.4 32.1 31.3 30.3 29.2 26.7 25.7 26 26.6 25.3 24.8 24.1 24.6 29.6 28.5 22.4 21.7 21.2 21.1 22.1 20.8 19.6 20.8 21.1 21.4 21.3 21 20.5 19.4 19.1 18.9 18.4 18.4 18.4 18.9 19 19.2 11.7 5.8 5.9 7.1 7.5 18.2 19.1 23.6 26.4 26.4 28 29.4 29.6 28.9 27.4 23.3 21.6 20.8 20.5 18.6 19.6 21.7 23.1 22.8 22.2 22.1 21.6 21.7 21.9 21.2 19.4 19 16.1 12.6 19.6 20.1 18.8 17.3 18 20.4 20.8 20.3 21 21.2 21.2 20.2 19.8 19.4 23.3 23.9 23.8 24.7 25.6 26.7 27.9 29.2 31.4 33.5 35.5 37.6 39.8 41.9 44.1 46.1 48 49.2 50.1 50.5 50.7 48.9 46.6 46.5 46.7 46.9 46.3 43.3 43.7 41.3 44.5 46.8 48.9 49.5 50.4 52.9 55.8 58.1 60.9 66.7 72.6 78.3 83.8 90 97.8 105.6 112.3 116.7 118.8 119.1 118.5 117.5 116.8 116.3 115.8 115.5 114.8 113 111.2 110.6 109.4 107.9 106.7 105.9 104.9 103.8 103.3 103.4 103.5 104.2 104.6 105.5 106 106.3 107.1 107.6 108.1 108.6
37.2 36.8 36.9 37.8 38.4 38.5 38.5 38 38.7 39.5 40 40.5 41.4 42.1 42.4 43.1 44.9 45.7 46.6 47.8 47.8 47.8 47.7 47.6 47.1 47 46.7 46.4 47.6 40.1 38.6 41 40.3 38.7 38.1 35 34 33.1 32.4 32 31.2 30.2 28 27.4 27.9 27.4 26.1 25.5 25 24.5 22.7 22.6 30.2 23.1 21.8 21.4 21.3 20.7 20.5 21 21.1 20.5 19.6 19.4 19.6 19.4 19.7 19.5 19.3 18.5 18.6 19 19.4 19.4 14.7 6.5 5.6 7.4 8.1 19.1 20.7 23 25.1 24.6 25.4 25.4 24.9 24.9 21.4 20 19.6 18.7 15.5 13 13.4 19.2 21.6 22.3 22.7 22.4 22 21.7 21.4 20.2 15.2 14.2 17 12 19.4 20.8 20.2 19.4 20.7 21.6 21.3 20.6 21 20.3 19 20.7 19.2 23 23.3 23.8 24.3 25.2 26.2 27.4 28.6 30.1 32.3 34.4 36.5 38.2 40.2 42.4 44.6 46.6 48.3 49.1 49.4 49.6 49.1 46.6 46.4 46.2 46.2 46.5 45.8 44.7 43.6 44.2 46.4 49.6 50.8 50.9 53.4 56.1 58.8 62 66.7 72.8 79.7 85.8 93 101.5 109.4 115.7 119.4 121.2 121.5 120.9 119.3 118 117.3 116.7 115.8 115.4 114.7 113 111.6 111.4 110.5 109.3 108.1 107.3 106.4 105.2 104.2 104.2 104.7 105.2 105.1 106.5 107 107.3 108 108.3 108.6 108.8
37.9 37.5 37.9 37.5 37.9 38.5 38.7 38.9 39.8 40.6 40.9 41.2 42.4 43.1 43.3 45 46.9 47.6 48.3 48.5 48 48.1 48.1 48.1 47.8 47.5 47.2 47 47.6 46.5 43.2 40.9 40.5 36.1 37.3 36.1 34.9 33.5 33.1 32.8 31.6 30 28.9 28.8 28.8 27.9 27 26.3 25.4 24.4 22.8 21.9 21.8 24.9 26 22.3 21.7 21.3 21.4 22 21.9 21.2 20.4 20 19.8 20.3 20.9 20.9 20.8 20.4 19.6 19.5 19.9 20.2 19 7.4 5.5 7.9 7.9 18.7 20.5 22 22 21.5 21.6 21.1 19.4 16.9 13.6 11.4 11.7 11.4 10.6 10.6 10.5 13.8 20.2 21.9 22.8 22.5 22 21.8 21.5 19.5 15.2 14.1 16.5 12.8 18.4 20.8 21.4 21.1 21.6 21.9 21.7 21.2 20.6 21.6 18.9 20.5 21.9 23 23.6 24.1 24.9 26.2 27.7 28.1 29.3 31.1 33.2 35.4 37.4 39.1 40.8 42.8 45.1 47 48.3 48.9 49.5 49.5 48 46.7 46.4 46.2 46.1 46.1 45.8 45.9 47 47.2 48.6 50.8 51.4 52.8 56.8 59.6 63 67.6 74.1 80.6 87 94.6 103.2 111.7 117.8 121.5 123.5 123.8 123.2 121.8 120.1 118.6 117.9 116.9 116 115.3 114.5 113.3 112.3 112 111.5 110.5 109.5 108.8 108 106.8 105.9 104.9 105 105.7 105.7 107 108.1 108.3 108.7 108.8 108.9 108.5
38.3 38.3 39 38.6 38.4 38.7 39.9 40.8 41 41.2 41.6 42 43 43.8 44.9 47.3 48.6 49.4 49.9 49.1 48.6 48.2 48.3 48.4 48.3 47.9 47.2 46.5 47.4 48.7 45.4 42.4 40.5 39.7 38.8 39.3 34.8 33.4 33.4 32.3 30.9 29.9 29.5 29.6 28.6 27.5 26.7 26.7 25.5 24.2 23.2 22.4 22.1 22.4 22.2 28 23.8 22.1 22.4 23 22.7 22 21.9 21.8 21.6 21.9 22.4 23 23.3 23.1 22 21.3 20.9 21.2 21.5 10.3 4.5 8.5 8.2 16 21.3 21 20.6 19.7 19.3 17 10.7 9.6 10.4 8.2 10.2 10.6 10.3 10 9.8 11.7 20.1 21.2 22.4 21.8 22 22.1 21.7 19.8 15 13.5 13.3 13.5 16.4 20.7 21.6 21.7 21.8 22.1 21.4 21.4 17.8 19 22.3 21.7 22.5 23.2 23.8 24.7 26 27.8 29.5 29.6 30 32 34.1 36.3 38.3 39.9 41.6 43.2 45.2 46.9 48.1 48.9 49.8 49.5 46.4 47 47 46.5 46.2 45.8 45.8 46.6 47.8 49 50.3 51.7 53.7 57.2 60 63.6 68.6 75.3 82 88.7 96.5 104.4 113.1 119.5 122.8 125.1 125.7 125.4 124.8 123.1 121.4 119.6 118.1 117.2 116.3 115.4 114.5 113.5 113 112.6 112.2 111.7 110.8 110.1 109.3 108.3 107.3 106.3 105.7 106.3 106.4 107.9 108.9 109.4 109.7 109.9 109.6 109.2
39 39.4 39.8 39.5 39.2 39.8 41.1 41.7 41.6 42 42.6 43.1 43.8 44.6 47 49.2 49.9 50.4 50.2 49.7 49.1 48.6 48.3 48.3 48.1 47.4 46.8 46.2 46.4 45.7 49.4 43.7 40.1 38.9 37.1 35 36.7 33.6 33.2 32.1 30.7 30.1 30 29.2 28.3 27.4 26.6 26.2 26.5 24.2 23.7 23.6 23.2 23.1 23.2 23.1 26 24.6 23.8 24.4 24.3 23.9 23.9 23.8 23.6 23.6 24 24.6 25.3 25.2 24.2 23.2 22.9 22.6 22.4 17.3 4.5 8.6 8.8 8.9 20.5 19.5 18.3 18.1 10.2 9.1 8.9 9.8 8.8 9.9 10.1 9.5 7.4 10.4 9.9 10 12.7 17.8 21.8 22.2 22.6 22.6 22.2 21.6 18.5 16.1 14.1 14.1 16.5 20.9 22 20.7 20.4 21.1 17.5 17.9 17.1 16.1 20.1 21.4 22.9 23.5 24.5 25.5 27.2 30 30.6 30.6 30.7 32.5 34.7 37 39.1 40.8 42.5 43.5 45 46.6 48 50 52.3 51.1 48.4 48.1 48.4 46.5 46.4 46.1 46.9 47.6 48.6 49.6 52.9 53 57.2 60.3 64.5 69.6 75.5 82.4 89.8 97.4 105.6 113.5 120.2 124 126.4 127.1 127.3 127.1 126.3 124.2 122.3 120.5 119 117.8 116.5 115.7 114.8 113.8 113.6 113.3 112.8 112.3 111.8 111.1 110.2 109.2 108.2 107.2 106.9 107.7 108.1 108.9 109.8 110.3 111.2 111.3 110.6 110.4
40.1 40.4 40.6 40.6 40.4 41.1 41.9 42 42.2 43.1 43.8 44.4 45.5 46.7 48.7 50.5 50.9 50.6 49.9 49.4 49 48.2 47.8 47.7 47.6 46.8 46.1 45.5 44.6 43.4 46.2 41.4 40.2 38.4 36.1 35.3 34.5 39.1 33.4 32 30.5 30.3 29.9 29.1 28.1 27.5 26.9 26.2 26.6 28.2 25.6 25.5 25.5 24.9 24.9 25 25.3 26.6 28 25.9 26.2 25.9 25.8 26.2 26.2 26.1 25.9 26.3 26.7 26.3 25.5 24.6 23.9 23.7 23.3 22.1 4.5 7 9.2 8.9 13.5 13 11.7 8.9 7.1 8.4 9.6 10.4 9.3 9.4 10 10.1 10.4 7.8 10.1 10.4 10.1 11.1 20 22.7 22.9 22.7 22.7 22.4 21.3 19.8 17.2 15.5 17.2 20.9 20.2 18.1 18.2 17.9 17.9 18.3 18.8 20.9 22.1 22.8 22.8 23.5 25.2 26.2 28.9 31.3 31.1 31.1 31.9 33.9 35.7 38 40 41.7 42.9 43.9 45.3 45.9 46.8 49.5 52.2 53 51.8 47.5 48.1 47.2 46.7 48.4 48.3 48.7 49.7 53.7 52.4 58.2 61 65.3 70.2 76 83.2 89.3 97.9 106.3 114.1 120.4 124.7 127.4 128.7 128.4 128.2 128.3 127.4 125.4 123.3 121.5 120 118.8 117.3 115.9 115 114.1 114.1 113.9 113.4 112.9 112.4 112 111.2 110.2 109.1 107.7 108.2 109.1 110.2 110.8 110.9 111.7 112.2 112.8 112.1 111.5
40.8 40.9 41 40.6 38.3 40.8 41.7 42.7 43.8 44.9 45.7 46.8 48 48.5 49.6 51 50.6 49.7 49 48.6 48.3 47.7 47.4 47.3 46.7 46 45.2 44.8 42.8 41.6 41.7 46.8 48.7 40.8 36.3 36.1 35.1 34.7 36 31.2 30.6 30.3 29.7 28.9 28.2 28 27.3 26.6 26.2 26.7 27 27.3 27 26.8 26.8 26.7 27.5 28.5 28.4 28.3 24.6 28.2 28.1 28.5 28.9 28.5 28 27.9 27.6 27.1 26.6 25.7 24.7 24.1 23.6 23.1 14.3 6.7 9.1 9.1 9 6.8 8.1 8.7 9.6 9.8 9.3 9 9.1 9.4 9.9 10.2 10.7 11 10.3 10.6 10 13.1 22.1 23.6 23 22.9 22.8 22.8 21.7 21.9 20.7 19.4 16.7 17.5 20.4 17.8 17.8 18.2 18.1 18.3 19.6 21.4 22.1 23.3 23.9 25 26.3 27.5 29.8 30.2 30.6 31.2 32 34.3 36.7 39 40.7 42.2 43.3 44.4 45.2 45.9 46.2 46.9 50.4 53.3 54.3 51 47.4 48.9 49.8 49.8 50 50 54.1 52.2 58 61.2 65.5 70.5 76.2 83.1 89.9 96.9 104.8 113.1 120 125.1 128.2 130.1 130.8 130.5 129.9 129.2 128.1 126.5 124.4 122.4 121 119.8 118.2 116.5 115.3 114.4 114.5 114.5 114 113.5 112.8 112.5 112 110.8 109.6 108.6 109.1 110.1 111 112.3 112.3 112.4 113.5 114.3 113.6 112.6
41.5 41.3 41.4 40.8 40.9 42.3 43.2 44.1 45.7 47 47.9 48.6 49 49.2 50.1 50.1 49 48.3 48.4 48 47.5 47.1 46.5 45.9 45.5 44.8 44.2 43 41.4 40.8 40.4 42.7 46.7 48.9 40.7 35.9 35 34.7 36.9 30.9 30.3 29.8 29.1 28.9 28.7 28.5 27.8 26.9 28.3 28.7 29.1 28.9 28.8 28.7 28.7 28.6 28.7 28.8 29.4 29.8 29.7 27.9 30.2 30.5 30.4 29.7 29.1 28.7 28.1 27.6 27 25.9 24.8 23.7 23 22.5 20.8 6.7 8.6 6.8 8.9 9 8.6 9.1 9.4 9.2 8.8 9 9.2 9.4 10 10.6 11.1 11.3 9.6 10 10.3 19.5 23.6 23.6 23.5 23.4 23.2 22.9 22.2 22.5 22 21 19.7 17.2 17.9 17.9 18.4 18.6 18.5 18.6 20.1 21.8 22.8 23.5 24.2 25.6 26 27 28.5 28.9 29.6 30.5 31.8 34.2 36.8 39.3 41 42.4 43.8 44.6 45.5 45.8 45.7 45.4 47.2 50.6 54 51 49.7 50.4 50.7 50.9 51.1 53.4 52.9 58.3 61.1 65.4 70.7 76.9 83.4 89.5 95.5 101.4 109 117.6 124.5 128.8 131.1 132.6 133.1 132.3 131.4 130.4 129.3 127.6 125.6 123.6 121.9 120.2 118.4 116.8 115.5 114.7 114.7 114.7 114.1 113.3 112.3 111.9 111.8 111.1 109.9 109.4 109.9 110.4 111 111.2 111.9 113.1 114.4 115 114.4 113.6
42.9 42.7 42.1 40.6 42.6 46 46.2 46.8 46.8 47.4 47.9 48.8 49.2 49.8 50.2 49.5 48.3 48.1 48 47.6 47.1 45.9 45.1 44.6 44.2 43.9 43.4 42.3 40.7 40 39.6 39.4 37.3 46.4 48.2 45.4 34.6 33.1 34.6 33.7 30 29.1 29.1 29 29 28.8 28.5 29.4 30.1 30.4 30.5 30.6 30.7 30.6 30.6 30.6 30.7 30.8 31.3 32 32.6 32 27.8 26.6 31.1 30.3 29.2 28.5 27.9 27.3 26.4 25.4 24.2 23.1 22 20.7 19.7 17.3 8.3 8.7 9.5 9 8.9 8.8 8.3 8.2 8.5 9.2 9.7 9.6 9.9 10.2 11 11.5 10.7 10.6 14.2 23.5 24.1 23.8 23.8 23.4 23 22.7 23.1 22.4 20.8 22.6 20.6 18.5 18.6 18.2 18.5 18.7 18.7 19.4 21.2 21.8 22.5 23.7 25.1 26 26.7 26.9 27.4 28.5 29.5 30.7 31.9 34.5 37.2 39.6 41.3 42.7 44.1 45 46.1 46 45.8 45.8 45.8 47.3 51.8 49.9 51 51 51.4 51.7 52.5 54.7 57.6 61.1 65.1 70.2 76 83 89.4 95.5 100 105.4 111.8 120.3 127.2 131.2 133.6 134.8 134.5 133.5 132.6 131.5 130.5 128.5 125.8 123.8 121.2 119.1 117.8 116.8 115.5 115 114.5 114.2 113.6 112.6 111.8 111.4 111.5 111.3 110.5 110 110.5 110.6 110.6 110.9 111.6 112.7 114.1 114.8 114.3 114
44.9 44.5 43.4 42.3 42.7 45.8 46.7 47.8 47.6 47.5 48.1 49.1 49.2 49.8 49.4 49.8 48.3 48.1 47.7 47.1 45.8 44.6 44.4 44.4 44.1 43.5 42.5 41.1 40 39.6 39.3 39.4 38.8 36.7 37.4 46.6 47.6 40 31.6 37.6 30.5 29.5 29.7 29.6 29.4 29.8 30.5 31.2 31.7 31.7 32 32.3 32.6 32.6 32.5 32.5 32.7 32.5 33.4 34 33.7 33.2 33 31 24.9 29.8 29.3 28.5 27.2 26.5 25.6 24.4 23.4 22.4 21.2 19.6 18.8 17.7 9.5 8.3 8.1 8.4 9 8.9 8.5 8.3 8.9 9.3 9.9 9.9 10.3 10.9 11.5 9 11.3 13.5 23 24.2 24.1 24 24.1 23.9 23.6 23.2 23.2 23.5 23.2 23 22.6 20.2 19.2 18.9 18.6 18.7 19 20.2 22.2 23.1 23.4 24.1 25.5 26.6 27.6 28.5 28.3 28.9 29.8 31.3 32.9 34.8 37.6 39.8 41.8 43.6 45.1 45.6 45.8 46 46.4 46.5 46.7 47.1 48.3 49.6 50.8 51.8 53.5 51.8 54.4 57.1 60.1 63.6 69.4 75.5 81.3 88.2 94.1 98.6 103.7 109.1 116.1 122.8 129.3 133.5 135.3 135.9 135.6 134.6 133.8 132.7 130.7 128.3 125.9 123.6 120.7 118.6 117.8 116.7 115.6 114.9 114.4 113.4 112.5 111.4 110.9 111 111.2 111.1 111.2 110.9 110.6 110.6 110.7 110.5 111 112.1 113.4 114.3 114.1 113.8
