ncols 200
nrows 82
xllcorner 370000
yllcorner 472500
cellsize 50
275 281 289.4 310.1 331.2 344.4 369.4 374.5 380.2 384.7 387.9 389.7 393.3 397.6 398.9 396 396.1 395.1 394 393.7 392.5 392.8 392.8 392.6 392.1 391.5 391 390.7 389.8 389.3 388.7 388.6 387.2 385.3 385.5 385.5 386.4 387.4 385.8 385.1 384.3 380.8 373.5 360.9 340.2 329.9 317.3 294.8 281.3 279.9 269.1 258.8 251.7 246.4 240.3 236.6 234.2 233.4 233.1 231.5 231.4 232.8 236.8 238.6 238.1 234.6 233.4 229.6 232.3 238.1 246.1 251.5 258.8 265.6 272.6 278.7 289.3 291.2 305.4 306 312.6 315 340.8 343.8 352.1 352 350.4 348.2 346.3 349.8 351.9 352.5 355.5 356.4 357.1 358 362.9 369.2 374.7 380.1 382.6 384.7 390.4 394.8 399.6 405 413.7 423.2 431.5 439.2 447.6 456 463.8 476.8 491.6 505.4 518.6 527.3 530.8 531.8 535.1 535.8 536.2 535.4 533.6 532.2 529.3 528.1 526.9 522.1 517.6 511.7 502.1 491 480.3 472.8 461.9 455.3 446.6 436.6 424.9 414.6 407.3 400.6 391 379 373.7 370 363.1 359.1 353.2 350.9 346.4 341.5 335.5 326.9 322.1 321.6 319.4 314.5 303.9 294.3 288.9 286.3 288.4 282.4 277 270 263.8 263.5 258.3 260.6 258.2 251.8 251.9 252.1 258.2 261.4 265.1 264.2 263.8 255.6 250.1 250.5 250.8 251.5 251.8 252.9 265.1 259.3 256.2 258 260.2 259.2 262.5 270.6 281.3 281.4 294.6 299.2
275.6 281.4 296.3 327.9 339 352.3 370.3 375.6 382.2 386.1 389.1 392.8 397.4 397.7 397.4 396.4 396.3 394.8 394.6 393.2 392.1 391.9 392 392.2 392.1 391.8 391.9 391.4 390.2 389 387.8 386.1 385.8 385.7 383.3 383.8 384.5 386 382.5 382 363.4 355.3 346.6 338.8 337.4 327.6 301.6 286 270.7 261.7 254.3 250.4 244.9 239.3 236.2 234.5 232.2 231.7 231 230.9 232.3 235.1 241.4 239.5 236.3 232.6 231.4 230.7 236.8 246.2 252.3 258.4 267.4 277.6 280.8 285.1 297.1 297.5 305.5 307.6 313.9 328.7 346.9 352 349.9 346.9 349.4 348 346.6 349.6 352.1 355.2 356 354.8 355.7 360.9 366.8 372.6 376.8 378 383.5 389.1 394.4 398.5 405.3 412 419.8 428.5 437.8 445.5 452.2 461.1 474.7 490.3 504.9 515.6 523.6 531.3 531.2 531 530.5 530.9 531.3 530.1 528.1 524.7 520.2 518.8 517.3 513.6 510.5 502.7 495.2 486.6 472.7 465.2 457.8 450.8 443.9 434 424.1 414.8 409.4 404.5 395.6 382.5 370.4 366.5 363.9 359.6 352 351.6 347.3 342.8 336.6 328.7 324.1 322.1 318.7 315.9 308.7 295 289.9 287 292.5 285.7 279.8 278.2 267.6 265 259.4 262.8 260.1 249.9 251.7 251.9 258.4 261.5 266 268.3 267.4 256.3 249.1 250.4 251.1 251.3 252.1 263.5 267.8 263.2 263.6 264.6 259.1 261 266.4 278.2 282.7 280.2 290.8 294.6
280.4 288.6 306.5 332.1 341.6 359.3 372.3 378.3 384.6 388.3 392.9 397.2 397.5 395.5 394.8 395.7 396.7 393.4 392.4 392.4 392.3 392 392 391.6 391.9 392.1 392.2 391.9 390.2 387.4 386 386.1 386.8 385.6 381.1 383.6 381.9 379 363.9 348.7 340.4 338.2 338.7 336.5 322.4 297.3 284.3 272.3 266.8 250.3 246.4 242.5 238.2 233.6 234.8 231.7 230.7 231 230.5 232.4 235.1 237.8 238 235.4 232.2 231 228.5 234 242.4 251.3 257.9 264 275.7 280.7 294.5 299.9 303.1 303.7 312.8 324.7 333.9 347 356.3 354.5 353.1 350 346.5 347.2 348.2 348.7 352.7 353.7 352.5 354.5 356.5 361.5 366.7 367.4 375 379.9 385.4 391.5 397.9 403.5 412 419.3 426.3 434.8 443 450.8 459.1 472.1 488.9 502.6 510.7 518.8 526.3 531.9 530.6 529.9 530.1 526.3 524.5 522.2 519.6 514.1 511.2 509.4 508.5 505.5 502.3 494.8 488.3 477.3 465.4 458.7 451.9 446.6 439.7 431.5 422.9 414.7 410 405.4 397 386.3 374.1 370.4 367.7 361.2 354.6 352.5 347.7 343 337 329.6 325.1 322.7 318.2 316.5 310.7 298.2 290.6 287.2 294.7 290.8 285.7 285.3 272.4 264.8 259.8 263.5 260.3 251.8 251 251.6 257.8 260.7 265.1 268.8 266.3 256.9 249.1 250.1 250.8 251.6 253.6 265.1 267.3 263.6 264 263.9 258.9 261.8 276.7 281.6 284.1 277 285.4 288.2
284.8 295.7 315.4 335.2 348 367.1 375.5 381.1 387.1 392 396.8 396.3 394.1 393.5 393.9 395.1 395.1 392.3 391.5 391.6 391 391.4 391.6 391.7 391.6 391.2 391.6 392 388.2 387 387.4 387 386.2 382.7 380.3 375.7 368.9 365.3 342.9 339.2 333.3 331.8 318.3 309.2 293.6 278.6 273 266.1 249.6 242.2 239.7 235.8 233.7 230.5 229.3 230.4 229.8 230.3 230.6 233.2 235.1 233.7 231.8 231.1 230.2 227.6 236.6 242.1 246 251.9 264.4 275.3 283.8 303.7 306.5 305.3 304.9 312 334.6 334.7 348.3 357.3 359.4 360.4 355 353.7 350.3 348.7 349.1 347.5 351 351.1 353.6 355.2 358.9 361.9 367.6 374.8 379.9 385.5 390.3 396.3 403.1 410.3 417.2 424.5 433.1 441.9 449.7 457.9 471.3 488.5 501.2 508.4 514.8 523.5 529.3 530.5 529.6 525.1 522.3 520.8 516.8 513 509.9 505.9 503.5 501.1 499.6 497.1 490.6 485.4 478.7 469.4 460.5 453.2 445 440.1 435.6 429 418.9 412.1 408.3 404 396.4 387.8 377.9 371.9 370.5 362.5 354.8 353.7 347.6 342.9 337.1 330.3 326.9 322.7 317.7 315 310.9 300 291.1 288.7 293.9 294 289.7 287.4 274.6 266.7 260.4 263.5 260.2 252.6 250.4 251.3 257 258.5 263.2 266.8 258.5 251.2 248.8 252.5 250.6 250.7 257.1 264.4 264.2 260.1 260.7 256.7 258.8 265.7 279.9 284.7 283.8 276.1 279.1 280.6
290.1 298.8 314.8 336.3 351.1 369.3 378.9 384.3 390.3 394.6 394.7 394.9 394.7 394.7 391.4 392.3 390.8 391.7 391.3 391.1 390.7 391.3 391.7 391.8 390.8 390 389.4 388.5 387.7 387.1 386.2 381.5 380.2 364.4 347.4 342.8 349.9 340.6 340.2 313.8 308.4 301.3 298 288.3 279.5 270.9 262.6 249 240 236.7 234.1 231.5 229.7 228.4 227.2 228.4 228 231.1 234.5 236.6 232.4 228.9 229.6 228.3 225.8 235 240.3 243.8 250.5 259.9 266.6 279.3 294 309.5 309.2 308.3 307.5 327.4 337 339.6 359.6 362.4 363.2 361.5 358.8 355 353.1 351.4 350.9 351.2 351.2 351.3 354.1 356.5 361.1 366.6 369.2 374.8 381.2 388.8 395.7 402.7 411.4 418.3 425.2 432.8 440.2 448.7 457 469.8 490.3 503.7 511.3 520.3 530.3 534.8 535.6 534.7 529.7 525.2 516.3 511.5 506.7 502.3 499.8 497.6 495.8 494.1 491.8 483.1 479.9 477.9 473.9 464.5 456.4 447.6 439.4 431.6 430.4 425.3 415.6 409.3 405.1 400.2 393.4 386 380.4 375.7 372 363.7 356 353.7 347.8 342.5 336.3 330.3 326.3 322.8 316.8 308.1 308.9 299.8 292 289.3 290.3 292.2 284.9 287 275.8 267.1 260.6 261.3 259.3 252.9 251.9 249.2 252.6 252.4 255.2 257.7 248.9 248.8 254.4 258 257.6 253 256.4 260.5 258.2 253.3 254.6 256.7 258.5 268 279.8 285.1 281.2 276.5 277.5 280.8
287.9 300 315.4 338.3 360.5 374.8 381.6 386.9 391.3 395.8 395.1 395 395.3 394.9 392 392.5 391.8 391.4 391.6 392.1 391.8 391.3 391.7 391 389.3 389 389 388.4 388.7 385.8 382.7 372.8 357.7 340.7 339.5 339.7 339.6 333.9 309.7 292.7 287.7 284.4 281.2 276.7 270.9 261 245.9 236.9 234.8 232 231 226.3 226.5 225.7 226.4 228.8 231.2 232.6 234.6 230.1 227.7 226 226.2 230.6 237.9 241.6 247.3 253.1 265.2 276.4 280.3 286.2 294.2 311.7 310.3 309.3 313.6 337.8 341.7 356.5 362.2 364.9 364.3 362.8 359.5 353.7 355.1 354.7 354.3 353.7 351.6 354.7 356 358.5 367 371.6 376.3 381.9 389.6 394.5 400 409.3 417 424.5 431.9 438.9 448.7 457.2 471.2 490 504.8 513.4 526.8 546.9 554.9 553.9 548.9 541.6 532.4 523.8 515.1 501.3 490.3 486 484.7 486.1 486 482.8 479.7 474.8 472.1 470 466.4 459.6 450.3 444.3 434.2 427 424.7 421.8 414.5 407.5 402.2 395.5 389.2 383.6 379.9 376.7 372.1 364 356.1 352.9 347 341.8 335.5 330 327.2 324.5 319.7 307 304.7 298.4 293 290.2 287.3 288.4 286.3 285.4 274.5 267.8 258.9 258.7 255.6 257.2 256 250.5 251 250.4 249.6 247.7 249.4 248.6 256 258.4 256.8 252.8 253.3 254.7 251.9 253.4 255 256.6 258.9 268.4 281.1 283.7 280.2 274.4 277.1 280.7
287.8 296.8 317.5 344 366.5 378.6 382.9 388.7 392.4 394.8 396 395.8 396.2 394.9 393.3 392.2 392.7 392.2 392.3 392.6 393 392 390.6 387.9 388.9 388.6 388.3 388.9 388.5 382 367.2 358.3 339.4 338.1 336.4 335.1 322.7 296.4 286.2 285.7 282.3 278.8 274.7 264.9 252.4 241.9 236.7 232.6 231.4 227.3 223.2 223.9 224.2 224.6 229 231.8 233.6 233.7 229.8 226.6 224.4 227 235.1 240.1 244.4 249.7 260.5 277.4 286.3 289.7 291.7 291.6 294 312.5 311.6 312.1 316.2 339.7 358.3 363 366.9 366.4 365.1 363.7 359.8 355.6 355.8 356 356.2 355.3 356.2 357.4 360.8 365.9 370.4 376.3 382.5 389.2 397 404 409.9 414.8 421.3 429.9 439.8 448.6 457.6 471.7 490.6 506.1 515.5 527.8 550.4 563.1 567.1 564.7 557.1 548.1 533.5 523.2 510.8 496.5 482.9 472 468.2 474.3 473.6 473.1 469.6 466.1 463.9 461.1 457.3 453.8 446.3 439.7 431.3 424.2 419.1 417.9 413.3 407.6 400.2 390.5 384.4 379.9 378 373.4 371.6 362.7 355.7 351.3 346.3 340.3 334.4 330.4 328.6 326 320.7 308.8 301.3 297.5 294.4 291 288.8 285 280.4 281.1 273.2 269 261.1 256.5 256.6 264.6 258.8 252.8 251.4 250.4 249.6 248.3 249.3 248.3 247.3 256.4 254.9 250.6 249.8 250.9 252 253.3 254.4 260.5 260.6 267 280 281.7 277.2 272.2 277.8 282.5
289.6 298.6 318.9 347.9 368.1 381.3 385.7 390.6 394 394.9 396.2 396 396 394.3 394.6 393.8 393 392.7 392.5 393 392.1 390.7 390.1 389.3 388.8 388.6 388.6 389.5 386 371.2 353.7 339.8 337.7 329.5 308.3 294.9 290.6 283.4 282.9 279.5 275.1 266.2 259.2 246.8 241.2 235.5 231.9 229.6 223.5 221.9 222.1 222.9 223.6 227.3 229.6 230.5 231.5 227.8 225.9 223.8 228.8 235.3 240.1 249.5 256 266.6 286.9 300.4 305.8 308.5 302.1 296.8 298.5 316.2 317.7 318.7 326.8 344 364.5 370.8 368.1 367.3 366 364.2 361.5 358 346 356 356.8 357.7 359.2 359.7 368.2 373.9 378.1 383.9 390.1 396.2 402.1 410.9 416.3 420.5 428.5 438.2 445.7 458.5 473.1 489.8 504.2 512.7 526.5 545.9 565.7 574.2 576.8 570.9 559.6 551 536.5 520.6 505.8 492.4 477.8 466.2 460.7 464.4 465.2 464 461.3 459.1 456.5 454.9 449.3 446.3 442.1 434.1 425.1 418 413 414.5 411.8 410.1 404.2 390.8 382.7 377 373.9 372.2 369.7 359.6 354.8 350.5 345.8 339.7 335.1 331 329.8 328.5 321.9 311.3 304.9 301.7 296.9 291.9 290.2 286 281.3 279.1 272.3 269.7 264.9 257.8 260.1 268 260.4 255.9 248.9 249.5 250.1 250.3 248.9 248.5 246.5 253.7 252.9 249.1 249.9 250.7 252.7 253.7 254.7 262.4 262.2 265.1 277.1 278.8 275.3 273.5 278.3 282.6
290.3 301.1 328.5 349.5 366.4 380.2 388.5 392.6 395.8 394.8 396.2 396.7 396.1 395.9 396 394.9 394.6 393.2 394.4 392.4 392.5 391.9 391 390.6 389.9 389.3 386.7 384 365.5 348.2 339 334.9 329.9 302.5 296.6 287.3 279.1 279 276.7 266.2 263.6 256.6 244.3 238.5 234.2 230.9 227.2 223.7 221.9 221.6 222 222.9 226 226.6 227.8 227.9 225.2 224.2 224.7 232.4 236.4 241.6 249 259.2 269.4 289.2 302.9 317.6 320.6 321.3 325 317 319.2 320.7 322.8 329.4 346.1 353.6 370.6 372.8 370.5 368.2 367.6 365.9 363.8 360.9 358.4 358.6 359 360.7 365.1 369.4 374.5 379.8 384 390.3 397.6 402.7 408.9 415.4 421.8 428.8 436.6 444.2 458.4 473.8 491.4 503.7 510.8 524.1 547.1 569.2 582.9 584.7 581 575.1 561.9 549.5 535.2 517.9 504.4 489 473.1 462.2 457.2 455.4 456.3 454.9 453.6 451.8 449.8 448 443.2 440.8 437.2 430.1 421.5 413.4 407.3 409.6 409.5 410.3 406.2 394.4 383.7 381.1 373.9 368 366.3 361.8 354.4 350.9 346.1 339.3 336.2 331.5 330.8 329.8 323.2 311.5 305.6 302.2 299.9 294.4 291.3 288.1 275.5 281.9 273 271.1 265.8 261.3 261.8 268.3 259.7 252.6 258.5 266.2 263.8 251.9 249.5 249.6 247 246 250.2 248.6 249.2 250.1 255.8 255.6 255.8 261.3 261.8 262.7 270.9 276.1 268.2 279.4 278.7 281.6
293 303.7 326.1 349.8 368.4 382.6 389 395 398.7 397.8 396.2 396.3 397.7 397.5 397 396.4 395.7 395.3 395.2 393.4 393.4 393.3 392.7 392 388.6 388.9 385.7 360.5 340.9 338.7 335.6 331.6 306.8 291.3 278.3 273.6 275.9 270.1 264.5 260.3 253.7 243.2 237.7 233.5 229.3 227.8 222.8 221.3 221.2 221.6 222.1 223.2 223.9 221.2 221.6 221.7 224.8 227.3 232.1 237.1 242.9 251 261.4 268.7 284.9 305.7 320.2 327 328.4 332.1 337.5 345 345 335.1 330.5 348.8 351.6 367.9 373.7 374.9 372.9 370.9 369.3 367.1 365.5 364 362.9 363.1 366.8 372.8 375.5 379.7 380.3 385.8 390 395.5 403.8 410.5 415.6 421.4 429.7 437.3 447.6 462.6 475.7 493.9 502.9 514 528.4 550 574.4 587.3 590.4 589 585 577.6 563.9 547.6 530.7 517 505.3 486.8 471.1 459.3 453.7 449.4 448.2 448 446.9 445.4 443.4 440.1 436.5 434.4 432.3 427.2 419.7 408.9 403.5 403.4 404.4 407 406.7 397.2 387.1 385 375.3 364.5 363.1 357.1 353.4 350.7 346 339.3 335.1 332.3 332.1 331.3 319.4 309 307.1 304.5 301.3 296.2 292.7 288.8 275.3 276 273.8 272.1 267.8 262.8 262.3 266.8 255.4 252.5 259.2 266.3 263.3 252.5 250.8 255.6 247.8 245.6 247.4 247.7 248.5 249.4 255.1 256.2 255.4 257 260.8 270 265.7 271.3 269.8 280.5 279.9 281.1
296.1 304.5 330.9 353 369.7 383.3 390.9 395.8 398.5 400.6 398 396.8 397.1 398.8 398.6 397.8 395.8 395.2 393.3 393.3 393 393.2 393.3 392.1 390.6 385.4 370 346 339 336 314.2 303.6 291.7 279.3 271.8 270.8 264.1 259.7 256.3 248.2 241.6 237.3 232.2 228.4 227.3 223.2 220.9 220.6 221.3 221.7 222.1 222.2 222.2 223 223.3 224 227.6 232.6 237.9 244.4 251.3 261.8 271 280.8 307.9 315.8 329.5 332.4 336.6 354.4 354.9 353.9 352.8 352.9 353.7 352 364.8 372 376.9 375.6 374 372.6 370.6 370 369.3 368.1 368.9 373.5 379.2 383 384.2 387.1 388.4 390.9 397.1 402.9 409.8 417.1 423.7 431.7 442.2 451.6 464.5 476.9 491.7 503.7 514.3 528.9 549.2 575.4 584.3 592.8 594.6 593.2 589.6 581.6 563.7 544.9 524.6 516 502 485.2 470.3 458 450.5 446.5 442.2 440.4 440.4 438 436.6 435.5 431.5 427.6 426.1 422.8 417.3 407.7 400.7 397.1 397.9 401.6 403.4 396.2 388.4 385.1 376 363.3 360.5 354.7 350.2 349.5 343.7 339.4 334 333.3 333.1 331.6 313.8 309.4 308.9 305.9 302 296.7 293.2 288.8 278.5 278.1 276.8 273.9 267.5 263 260.7 263.1 253.4 252.7 257.9 263.5 261 252.7 253.2 259.7 257.1 247.5 247.3 247.3 247.9 248.6 254.7 255.4 253.4 254.2 263.3 272 266 264.8 273.4 279.6 279.1 279.5
296.3 307.3 329.6 355.6 370.6 383.5 390.7 396 398.6 400.5 400.8 399.2 398.1 398.9 399.4 398.5 395.4 394.1 392.2 391.9 392.4 392.5 391.6 389.5 385.1 373.6 349.2 340.6 332.9 311.8 297.9 287.8 276.5 271.1 263.1 256.5 255.8 254 247.2 239.9 234.1 231.4 228.1 226.4 223 220.1 219.9 220.8 221.4 221.9 222.4 222.1 222.2 223 225.9 229.3 234.9 239.3 245.9 253.2 260.9 271.5 278.5 300.5 314.7 328.4 333.9 335 354.7 357.2 360.8 367.5 368.1 367.2 368 371.4 365.9 377.9 378.1 376.1 375.8 373.9 372.4 373.2 372.2 373.6 378.3 382.9 385 386 386.3 392.4 394.8 400.5 403.6 409.5 416.7 424.6 433.5 445.5 456.2 465 472.8 488.4 504.6 516.2 528.9 550.8 574.5 582.7 589.2 597.4 599.7 599.6 594 583.2 562.9 541.7 522.5 512.4 500.7 482.7 468.3 457.8 449.6 443.9 441.1 435.7 433.2 432.3 430.5 429.5 427.3 422.9 420.7 418.3 415.2 407.9 399.9 389.4 391.4 395.2 397.6 393 387.1 384.9 376.2 361.6 357 351.3 346.7 346.6 341.7 336.4 333.3 333.2 334.4 322.9 311.5 310 310.4 306.2 302.2 296.5 292.7 290 284.1 281.1 280.6 276.8 268.6 265.1 259.8 257.7 253.6 253 252.9 254.8 255 251.7 254.1 260.1 256.8 253.7 245.4 247.2 247 247.7 254 253.2 248.7 252.1 263.9 272.9 268.8 265.4 273.8 279 278.6 278.4
299 308.3 329.5 352.2 367.8 382.4 390.2 395.1 398.1 400 402.9 401.1 399.8 400.8 401 396.1 395 395.1 393.5 391.9 390.8 388.2 385.8 383.6 366.4 352 343.1 336 315.5 307.7 287.7 279.6 272.2 262.7 255.3 250.5 244.9 242.6 234.5 231.3 229.5 227.3 226 222.5 219.4 219.5 219.2 220.7 221 221.3 221 220.5 222.5 225 231 236 240.5 248.2 256.2 262.8 270.1 280.7 291.8 310.8 330.8 332.1 336.3 345.3 357.8 362.1 372.4 376.5 375.8 377.9 378 377.6 378.6 377.5 378.9 378.5 377.3 376.5 375.9 375.9 376 380.7 383 384.5 385.8 387.9 392.6 397.5 402.3 407.1 411 416.6 426.5 436.7 449 457.6 465.2 472.7 482.1 501.7 514.2 528 547.3 571.6 585.3 592.7 599.5 603.8 606.7 603.4 594.8 583.7 560.6 536.9 522.4 511.5 498.7 480.7 466.7 456.1 448.3 442.2 438.8 434.7 428.1 427.9 426.6 424.1 421.4 418.3 416.1 414.7 413.2 407.7 400.3 389 386.1 388.5 390.9 387.4 383 382.2 375 360.6 355.1 350.2 345.1 342 339.6 334.8 331.9 328.4 325.5 316 309.5 312.3 309.9 305.8 301.4 296 293.9 289.5 282.9 283.4 286.2 279.9 270.3 266.9 259.9 257.6 254.2 253.8 253.2 252.6 251.9 251.5 251.7 256.4 255 253 249.4 245.4 246.9 246.4 250.7 248.5 247.2 249.5 262.7 271.5 269.5 268.5 277 279.4 275 277.9
303.8 312.4 324.6 353.3 366.7 382.3 389.3 393.6 397.8 400.5 400 399.4 401.4 400.7 398.5 397.8 396.9 395.1 388.9 388.1 382.5 374.7 374.6 361.9 346.5 344.2 338.8 320.3 305.4 289.9 279.7 271.4 261.7 252 247.8 240.9 235.3 231.6 225.9 225.8 225.9 224.4 221.7 219.7 219.1 218.8 219.2 218.5 219.8 220.6 220.6 221.1 229.4 232.8 237.2 243.7 249.3 258.7 264.7 269.6 276.9 290 298.9 332.1 334 338.3 344.9 361 364.1 373.3 379.4 380.9 382.4 381 382.2 382.9 381 380.3 379.4 379.6 378.5 378.8 377.9 379.1 379.5 382.2 383 384 385.3 390.7 396.7 403.2 410.6 415.9 420.9 428.5 440.8 452.7 460.7 465.8 472.4 483.2 500.1 513.5 527.1 544 565.3 586 593.6 601.3 605 609.4 610.1 604.7 595.2 581.9 558.6 532.5 520.2 508.6 495.6 477.7 465.7 454.5 446.5 441.1 437.4 435.1 430.3 425.1 421.7 420 417.8 414.8 412.7 412 411.1 407.4 400.9 389.4 383.3 382.8 384.2 381.5 379 378.7 372.9 361 354.4 349.8 344.1 338.7 336 332.5 331.2 325.4 319.5 312.2 308.9 311.3 308.1 304 300.3 296.2 294.1 288.7 282.5 284.4 287.8 280.2 272 267.7 258.9 257.7 254.7 254.2 253.8 253 251.8 251.3 251 251.1 251.3 249.5 247.7 246.5 246.2 246.3 246.1 245.6 246 246.5 260.7 268.3 261.8 270.2 278 279.9 274.8 282.1
312.3 327.8 342.2 356.4 367 379.2 387.9 393.6 396.7 399 398.9 397.8 398.1 397.1 395.6 394.4 392.5 390.5 387.7 383 378 359.6 351.2 346.3 335.2 333.2 327 309.5 291.3 279.7 269.3 259.5 246.9 241 238.6 233.2 229.6 227.2 226.2 222.6 224.5 221.2 219.4 219.2 219.1 219.3 220 220.1 220.6 220.6 224.5 231.8 235.3 237.2 244.7 251.8 261.7 265.5 268.8 275.3 285.7 297.1 316.6 335.6 338 349.2 363.1 366.4 378.6 380.2 382.5 384 383 383.3 385.1 384 383 383.1 382.6 380.7 381.8 381 380.7 381.2 383.4 383.5 384.5 385.3 388.8 396.4 401.9 411 417.4 423.7 433.3 443.6 454.6 461.9 468.2 473.6 482.3 498.6 513.5 526.1 542.3 562.2 583.2 595.2 600.7 606.9 610.9 613 613.6 605.6 596.9 581.4 555.6 534.1 519.6 506.4 491.5 475.9 464.6 453.9 445.3 439.1 436.6 434.3 429.3 422.4 420.1 416.5 414.3 412.3 410.2 409.5 408.6 406.1 401.6 391.9 382.1 379.9 379.8 377.8 374.2 375.7 371 360.5 354 347.8 343.3 337.6 333.7 329.7 325.3 317.9 314.2 312 305.6 307.4 305.4 302.2 299.2 297.3 295.4 290.5 283.1 285.1 288 279.1 274.1 268.2 259.2 256.9 255.4 254.7 257.1 257 253.2 251.4 250.6 250 249.3 250 251.9 248.9 247 244.9 245.2 245 245.4 245.9 258.1 262.2 254.3 268.8 276.1 277.5 277.1 286.9
322.9 347.8 357.7 363.1 371.6 377.8 387.9 392.3 395.5 396 395.6 395.1 396.4 395.6 395.4 392.7 389.7 386.9 384.6 375.6 363 347.8 342.7 333.5 319.1 313.2 304.2 289.2 274.4 263.4 249.7 241.9 239.2 235.8 233.4 226.7 226.2 224.2 219.1 221 217.7 217.2 218.8 218 218.9 219.4 219.4 220 220.9 224.7 230.9 237.1 240.7 244.8 254.4 261.2 265.6 268.5 274.5 282.9 294.4 318.5 336 340.1 350.5 366.2 366.3 382.3 385.2 384.1 385.4 385.7 387.4 386.8 386.1 384.9 384.2 385 384.4 383.9 383.8 385.3 387.2 388.1 389.2 390.1 391.9 395.1 398.9 406 411.7 418.3 425.9 434.2 446.5 455.3 463.2 469.1 476.9 487.2 501.1 514.5 527.9 540.3 561.3 585.2 595.7 601.9 606.6 612.2 618.3 617.8 615.4 606.4 597.6 579.7 549.7 531.6 518.4 502.7 490.1 475 464.3 452.5 444.2 436.9 433.2 432 428.8 420.8 417.9 416.1 413.4 411.1 408 406.8 405.4 403.5 401 394.4 384.9 378.6 377.9 374.2 370.1 372.8 368.8 358.7 352.9 347 344.8 337.6 332.3 326.4 321.2 315.9 313.7 311.6 303.6 302.7 301.5 298.8 298.4 297.6 295.3 290.7 285.9 286.6 286.8 279.4 275.5 270.2 260.8 257.5 256.2 255.5 260.1 261.4 256.8 254 252.2 250.1 249.6 252.2 255 252.5 252.4 248.6 244.3 244.6 244.7 245.1 253.6 254.7 255.7 262.5 272.2 273.6 282.9 290.8
339.6 352.8 360.9 366.6 371 372.6 375.9 387.2 391.6 392.9 392 392.7 393.2 394.2 393.1 390 383.3 373.7 365.5 360.6 349.6 338.9 328.9 316.1 305.6 286.4 276.9 265.7 255.6 245.1 239.9 238.1 233.7 229.5 225.9 224.5 222.2 221.2 220.2 216.3 217.9 218.3 218.7 218.9 219 219.6 219.9 221.8 224.9 231.3 235.8 240.6 245 252.4 260.9 268.1 271.6 270.9 279.3 288.5 314 338 339.6 351.5 367.5 369.6 380.8 386.4 387.1 386.5 388.8 389.7 389.3 387.3 387 387.4 386.8 386.3 385.9 386.1 386.9 390.3 392.6 394.1 395 397.6 400.3 403.3 408.6 413.7 420.3 427.3 436.2 447.8 457 463.8 471.1 478 487 499.2 511.5 523.1 537.8 554.2 581.9 598.9 602.6 607.2 612.2 619.9 621.4 620.1 615.3 607.5 596.7 576.3 546.5 529.8 514.6 501.9 488.6 476.8 465.6 456.3 444.1 436.2 429.8 427.3 426.3 420.6 414.9 415.2 414.1 410.5 406.9 404.1 402.6 400.9 399.1 394.8 385.5 378.6 374.8 371.9 369.4 369.3 366.5 357.8 351.2 346.3 342.4 337.2 331.5 326.5 321.1 316.5 315.4 309.6 301.3 298.9 295.6 295.7 298.8 296.2 294.1 289.1 286.7 288.2 283.9 275.7 274.9 270.3 261.7 258.1 256.5 256.4 261.9 265.1 260.6 256.8 255.9 252.3 248.9 252.2 254.7 253.2 252.8 250.6 246.5 245.2 245.1 243.9 248.8 251.1 259.5 266 268.9 277.6 285.7 293.9
353.4 359.8 362.1 366.1 368.6 370 373.2 375.1 383.8 386.5 382.4 385.6 388.8 387.3 377.3 373.2 362.3 356.8 352 349.9 342.5 329.8 309.8 294.9 284.9 273 261.7 250.2 243.3 238.2 234.3 229.1 226.2 223.8 223.7 222.3 219.7 219.2 217.7 217.5 218 218.2 218.5 219.2 219.9 221.4 224 226.6 228.1 232.6 238.1 244.4 252.6 256.3 262.3 265.9 269.8 277.2 286.2 309.6 338.8 341.3 352.5 369.8 374.4 387.9 388.6 389.9 392.1 390.2 388.4 388.8 389.6 388.2 387.7 388.6 388.1 387.7 388.2 388.1 385.6 390.5 395.3 397.7 399.7 401.6 406.1 411.1 416.1 423.7 430.9 443.3 451.2 457.3 464.5 471.4 479.8 487.9 499 509.4 517.7 532.3 549.3 574 600.2 603.1 607.6 612.3 618.1 621.3 623.6 622.6 619.1 609.1 596.8 572.8 543.9 525.3 511.5 500.9 490 477.5 465.5 456.2 446.3 435.7 429.3 425.1 420.9 419.8 412.4 412.4 412.8 411 406.5 402.8 399 397.1 396.7 393.7 386.4 379.5 377.1 373.6 369.5 366.3 363.5 356.5 349.5 344.9 346.5 340.5 334.2 330.1 324.6 319.8 315.5 309.3 301.9 298.4 296.2 295.3 291.3 294.1 292.2 289 289 285.9 279.6 275.2 274.4 269.4 261.6 258.3 257.7 257.8 263.1 267 262.9 259.3 259.5 255.8 249.8 250.1 250.8 249.9 250 249.5 246 245.7 245.7 244.3 248.3 249.5 262.2 272.3 268.8 278.8 288.2 296.1
357.6 361.2 364.1 366 366.9 366.3 368.1 370.2 374.9 378.7 375.7 381 380.3 372.1 370.8 365 360.6 355.4 350.3 344.9 326.8 312 292.1 281.6 272.5 258.1 247 239.9 237 232.5 225.6 226.3 222 219.9 220.5 218.2 217.6 216.7 216.8 217.3 218 217.9 218.3 220.2 222.4 224 226 229 234.1 238 245.5 253.5 255 260.7 264.5 270.6 275.5 283 298.9 335.2 343 352.6 370.9 374 390.9 392.2 393 395.2 394.3 391.6 390.1 388.9 389 388.4 388.6 390 388.9 389.6 390.7 391.2 390.7 393.8 397.8 402 404.9 409.6 414.3 419.3 425.9 437.7 446.2 452.3 459.2 465.7 471.4 479.9 488 497 504.7 513.7 524.2 539.4 565.5 593.8 603.8 607.2 611 615.4 617.7 620.9 623.6 624.3 616.8 609.2 595.3 570 539.7 519.3 509.7 501 491.3 478.2 466.5 456.4 447.9 438.9 430.5 424.9 418 418.5 413.2 407.6 409.3 410.9 405.9 400.9 398.2 394.6 393.2 391.4 386 379 377.3 373.8 369.6 366.5 361.5 356.2 349.6 348.7 347.4 342.7 337.1 333.7 327.2 322 314.5 308.2 302.6 298.4 296 294.8 292.7 289.4 289.5 286.9 284.2 284.5 277.2 274.2 275.6 261.8 260.2 259.1 258.6 258.3 262.7 267.4 264.2 260.3 261 256.6 251.6 249.4 249 248.7 248.4 246.4 245.5 245.4 245.3 244.5 243.5 250.1 264.5 272.6 272.1 281 289.3 297.1
357.7 361.8 364.9 365.2 364.1 363.9 363.2 364.1 365.4 365 363.9 364.6 365.4 364.1 364.9 362.1 357.4 350.5 339.5 312.2 304.5 292.2 281.8 269 252 242.8 237.8 233.7 225.8 223.3 225.4 223.6 219.3 219.9 216.8 216 216.8 214.7 217.4 218.4 219.6 221.4 222.5 223.5 225.7 230 234.6 238.8 243.2 246.6 249.2 257.7 261.5 264.8 269 276.8 289.5 304.7 322 347.7 355.9 375.5 376.4 394.6 396.3 395.6 396.9 398 395.5 392.9 391.8 390.7 390.1 389.8 390.2 391.2 391.1 391.9 393.1 393.2 395.6 395.8 401.7 407.1 410.2 416.8 423.8 428.8 438.2 445.6 452.6 459.3 466.8 474.1 485 491.5 497.2 501.9 509.5 518.9 527.5 546.9 572.6 601.2 606.8 611.4 613.8 614.7 616.4 618.5 620.6 620.4 613 607.2 594.6 567.3 536.5 518.9 510.3 501.3 492.1 479.3 468.9 459.6 449.7 441.4 433.7 426.6 419.7 416.1 413.8 408.2 404.8 408 406 400.2 396.6 392.2 390.4 388.4 384.8 377.5 377.1 373.1 369.8 366.8 360.9 357.5 351.4 348.8 346.6 342 336.7 333.9 328.7 321.5 313.3 309.6 303.8 299.3 296.5 294.1 291 290.1 288.8 286.9 286 279.3 276.9 275.7 271.6 266.3 262 259.3 258.7 258.5 261.5 265.9 262.2 259.5 261.1 258.9 257.3 252.9 249.3 251.1 251.6 245.5 245.3 245.2 245.1 244.8 243.6 254.8 265.1 273.2 275.3 283.3 289.8 297.8
353.5 359.2 361.4 362.1 362.5 363.1 363.7 363.4 365.3 365.7 365.4 364.7 364 354.6 356.9 355.4 350.6 324.5 311.8 293.3 287.2 278.8 263.2 247.6 240.9 236.8 229.5 223.1 222.1 222.4 223.6 223.1 217.6 215.4 215.4 214.4 214.1 216.9 217.5 219.3 221.3 222.4 225.5 227.4 230.9 236.4 242.5 248.3 250 252.9 255.1 257.9 261.3 265.5 272.4 297.8 310.2 334.9 350.9 357.1 367.9 380.1 395 399.1 398.8 399.4 401 400.1 398.4 395.2 392.7 392.1 391.6 391.4 391.5 391.8 392.1 393.6 395.2 397.1 401.4 404.9 401.7 414 418.5 425.7 432.7 438.9 444.2 449 454.8 460.8 472.4 481.1 489.8 497.8 503.5 509.2 514.2 519.8 529.1 547.7 577.1 601.5 609.1 613.2 614.1 615.3 619.3 620.4 619 615.5 609.4 603.9 592.9 565.2 536.3 522.5 512 503.5 493.6 483.6 473 462.5 454.7 445.3 437.2 431.6 422.4 415.3 415.2 407.8 403.1 404.4 405.6 400.2 395.3 391 386.8 385.9 382.6 376.9 375.4 373.1 369.7 367.2 360.9 357.2 350.1 343.2 342.4 337.2 332.1 328.7 324.3 319.9 312.9 310.4 303.2 299.6 296.4 293.9 292 294.1 293.4 287.9 286.9 283.2 278.5 280.8 274.7 275.6 264.9 261.8 259.2 258.5 259.8 261.9 258.1 255.4 258.6 259.4 259.9 257.1 253.6 255.9 256.9 247.2 245.1 245.1 244.9 244.8 248.3 256.2 263.4 266.5 278.6 283.9 288.6 296.4
347.9 353.5 359 359.9 360.5 362 363.4 363.6 364.7 363.2 358.7 356.4 356.1 350.8 333.4 321.5 314 298.9 293.9 286.4 271.5 252.7 242.5 238.8 235.2 228.6 221.8 220.4 221 222.2 223.4 220.1 214.7 214.8 214.8 215.6 216.6 217.7 219.4 220.9 222.9 226.3 228.2 233.7 238.8 242.2 246.7 250.5 253.7 255.5 258.5 260.5 263.8 273.3 289.7 304.6 336.4 354.2 360.1 371.2 383.3 395.7 403.2 402.9 401.4 403.2 402.9 402.4 401.1 399.2 395.9 394.4 393.9 393.9 393.3 394.2 394.7 396.6 399.1 401.6 405.8 410 414.7 413.5 422.3 430.7 435.9 440.9 445.3 451.5 459.3 468.7 475.8 482.7 489 494.6 501.4 508.2 515.2 521.5 531.2 550 577.9 602.9 609.8 614.3 614.3 615.8 621.1 622.1 619.4 614.5 607.4 602.4 591.5 565.9 538.5 525.1 515.1 506.1 496.8 488.6 479 465.7 459 449 440.4 433.9 427.1 420.6 416.9 408.9 403.2 400.7 404.1 400.5 394.1 389.7 385.8 384.6 381.2 377.2 374.8 368.7 368.3 364 358.8 350.4 348.9 347.9 343.9 339.1 333.3 324.8 313.1 313.4 309.6 305.5 307.2 300.7 298.5 295.8 298.5 298.5 296.7 292.9 287.9 282.4 279.9 281.9 274.6 269.5 268.1 264.5 260.7 258.6 257.3 255.8 255.3 254.4 253.5 256.2 258.4 258.8 257.6 259.4 260.1 253 246.5 250 249 243.1 250.8 256 262.1 265.9 276 280.5 285 291.9
335.5 349.4 351.5 351.5 353.8 359 357.6 357.4 357.8 357.5 357.4 340.1 336.3 329.3 317.3 304.2 292.5 277.8 269.2 257.7 247.4 241 235.9 228.1 226.1 221.1 219.4 219.3 220.9 220.9 219.5 216.4 214.4 214.1 215.4 218.2 218.8 224.5 221.3 224.8 227.1 231.2 235.1 239.8 244.6 247.2 249.8 252.3 256.2 258.9 261.5 264.6 274.2 290.8 301.2 319.3 354.9 363.8 378.4 386.4 394.9 403.3 406.2 404.8 404.5 405.5 404.6 404.8 404.6 401.7 400.1 398.7 396.1 395.8 396.8 397.3 398.1 399.8 402.1 405.3 410 417.7 421 425.6 428.4 431.9 435.1 442.1 446.9 456.4 465.6 470.5 474.3 479.3 486.1 495.8 502.5 508.9 515.9 522.9 532 549.6 576.2 604 612.2 614.6 615.5 618.3 621.9 623.6 622.5 617.4 609.9 602.4 590 565.2 540.6 527.3 518.3 506 499.8 492.4 485.2 474.5 463 453.1 444 438.9 433.5 424.8 420.9 413.6 406.3 399.7 400.7 400.7 394 389.4 384.4 381.4 380.6 377 376.5 373.4 366.8 361.9 356.1 355.4 353.7 349.7 344.8 340.4 333.4 325.6 317.6 313.5 308.1 314.7 312.4 301.9 299.6 299.7 302.6 302.6 300.3 295.9 290.1 282.6 282.6 283.1 275.6 270.9 274.2 262.4 261.1 259.7 258.2 256.7 255.5 254.5 253.4 252.7 254.4 256.2 257.5 260.5 261 254.4 249.5 250.1 247.5 243.2 251.5 255.5 260.5 264.8 271.6 273.6 277.9 284.1
317.7 339.2 345.6 350.3 352.3 354.1 354.5 355.3 353.3 348.4 337.3 325.7 316.3 308.5 304 297.2 276.7 264.9 253.3 246.8 240.4 233.7 227.9 222.6 218.9 217.9 217.8 218.1 218.7 218.4 216.4 214.4 212.5 215.2 219.7 220.1 225.1 227 228.6 226 229.6 236.1 242.7 247.6 249.6 252.9 256.2 258.3 261.5 265.2 267.8 274.2 291.7 305.3 322.6 356.1 365.5 373.6 384.8 401 404.8 406.8 407.8 407.2 408.6 408.1 407.9 407.7 405.6 404.1 403.8 402.3 402.4 402.7 404.2 404.8 403 404.6 405.1 413.7 419.6 424.1 427.5 430.6 433.3 436.8 442.5 446.4 454.6 460.1 465.9 471.5 477 483 490.2 498 500.8 508.2 515.6 521.5 531.7 549.2 573 602.7 608.8 615.1 618.7 623 623.7 626.2 625.6 619.1 612.4 604.8 591.2 564.6 542.5 533.3 526.3 516.3 504.6 497.1 490.9 482.9 471.1 459.7 449.7 443.2 438.8 432.8 422.5 415.8 408.8 403.5 396.6 399.6 394.5 388.7 383.9 381 377.6 377.4 377.6 376.5 366.4 362.1 355.3 359.4 355.8 350.8 345.7 341.9 336.7 330.9 317.5 313.5 313.1 315.2 316.2 305.8 301.4 302.8 305.6 304.9 302.6 298.1 293.1 286.4 285.4 282.8 276.4 270.8 267.4 264.1 262.6 259.9 258.5 256.8 255.5 253.9 253.3 252.6 253 252.6 254.7 258.8 259 252 244.8 250.7 246.6 244.3 251.4 254.4 258.1 260.2 264.4 266 267.2 273.7
302.1 313.8 324.8 335.9 343.1 346.1 340.9 338.1 327.1 321.5 321.5 314.8 307 302 296.9 284.2 262.3 253.1 245.8 239.4 231 228 222.6 218.4 216.7 215.4 217.2 216.8 216.6 215.9 214 213.1 214 214.7 217.3 220.7 219.2 220.1 222.6 221.5 230.3 239.6 247.8 252.6 255.9 258.1 261.1 263.8 267.4 271.6 277.9 293.1 309.1 331.3 359.6 363.1 376.1 389.6 402.5 408.3 410 409.2 411.8 409.9 411.5 409.9 409.1 408.7 409.3 407.5 406.2 406.1 407.3 410 412 411.7 409.8 413.2 418.9 423.7 427.5 429.9 432 434 437.9 443.6 450.3 454.5 457.2 460.2 467.2 472.4 478.5 487.5 494.8 499.4 506.4 512.1 515.5 518.3 527.8 547.1 572.5 603.5 608.3 615.8 622.7 627.3 628 628.6 628.3 622.7 616.9 606.3 591.4 567 546.7 537.7 531 523.1 511.9 502.4 495.4 486.2 481.2 470.5 458 449.8 440.2 437.4 429 418.9 411.2 405.2 398.5 398.4 395.9 390 383.6 379 377.6 376.5 377.6 377.8 367.4 362 361 361.6 356.8 352 346.3 341.5 337.2 332.8 320.1 323.8 324 313.4 319.3 310.5 303.8 306.8 308.7 306.8 303.1 300.2 295.6 290.9 286.5 280.2 271.6 273.6 271.5 273.4 263 260 259.9 257.5 255.9 253.7 252.2 251 250.1 248.8 249.9 253.5 252.2 246.8 247.9 246.9 244.3 242.4 245.5 250.2 254.5 256.1 255.8 254.3 256.4 264.2
289.6 300.2 306.5 315.6 320.4 319.6 317.3 313.5 306.9 304.9 306 305.4 298.1 292.2 281.3 263.4 252 243 237.4 231.3 226.4 222.1 216.6 214.5 214.6 212.7 212.3 212.6 213.5 213.5 213.2 213.6 214.2 214.7 215.4 216.2 218.3 217.9 217.3 217.7 241.3 248.9 252.9 257.3 259.7 263.4 267.4 271.4 275.6 280.5 291.6 310.3 339.3 361.9 368.8 371.7 391.1 395.7 410.5 412.3 412.2 414.3 414 413.3 412.3 412.3 413.7 413 412.3 410.8 408.3 412 414.9 414.7 416.1 417 417.8 421.7 426.4 429.3 431.3 432.7 434.9 439.3 444.6 449.4 455.4 458.9 461.7 465.4 470 477.9 483.2 495.9 502.3 505.8 510.5 515.4 520.3 523.2 527.7 545.3 572.7 604.4 609.5 619.7 624.6 630.8 632.8 631.9 632.5 627.8 617.6 608.9 596 569.4 551 541.9 537.3 528.2 517.9 505.9 498.3 493.2 483.2 474.7 467.2 458.5 445.8 439.5 434.5 424.8 414.4 406.5 399.6 392.1 396.4 390.6 384.5 380.6 378.4 375.4 373.4 374.8 366.4 362.6 364.4 363 358.1 352.4 346.5 340.4 336.2 332.8 322.6 329.1 328.7 314.2 321.2 313.9 308.2 310.5 311.3 309.1 301.9 300.7 298.2 294.3 283.5 276.1 281.3 280.5 275.4 270.4 267.2 262.2 260.7 260.8 258 253.5 253.2 253.8 248.8 248.4 247.4 247.2 247.4 255.3 252 249.8 253 250.3 243.7 244.8 252.9 253.1 250.4 253 254.6 258
278.2 288.6 295.2 299.9 302.8 303.2 305.7 299.3 297.3 297.6 294.6 291.9 283.4 277.5 261.2 251.4 242.4 235.8 231.7 227.2 223.8 220.6 212.7 211.8 212.2 212.4 212.8 213 213.4 213.3 213.4 214 215.3 217.1 220 225.3 219.8 215.1 216.7 217.2 249.4 253.2 257.1 261.3 266 272.1 277.5 280.9 285.5 294.3 310.7 338.7 362.4 369 372.6 393.2 391.2 407.8 411.2 412.6 416.1 416.7 415.5 414.9 414.4 417.1 416.5 415.3 413.6 412.8 412.6 415.5 417.2 418.2 419.5 420.5 424.6 424.7 429.4 432.4 435 437.4 441.6 447.9 451.1 454.9 458.2 462.9 468.3 470.6 481.2 484.6 497 500.5 506.2 512.3 515.5 519.8 522.2 526 530 548.1 575.6 604.9 611.4 620.3 627.4 634.2 638.2 636.7 635.8 627.9 620.4 611.3 600.7 574.7 556.7 545.5 541.7 534.6 522.4 510.9 504.8 496.9 490.8 482.2 472.5 464.3 452.6 442.3 437.2 429.7 417.3 405.2 400.4 394.3 389.9 390.1 385.2 382.8 379.3 376.5 374.3 370.6 366.8 365.3 366.3 363 358.1 352.4 346.6 343 335.9 330.6 325.3 331.7 328.2 316.9 321.8 316.3 310.5 313.7 314.4 313.8 304.7 298.9 298.4 289.5 280.1 290.5 286.3 285.3 279.5 272 266.4 263.3 266.9 262.7 261.4 252.9 253 252.3 251.3 250.1 249 247.5 249.5 256.4 253.2 251.2 256.8 256.1 242.2 244.5 247.3 248.9 254.8 258.8 258.8 262.3
267.2 271 283 295.5 295 295.7 294.3 294.2 293.1 289.7 287.7 281.1 272.3 258.2 249.2 241.4 236.6 231.9 228.9 222.2 220.5 214.5 211.8 211.5 211.9 212.3 212.8 213.1 213.2 213.4 213.2 215.2 217.6 220.8 223.3 228.1 235.8 228.3 221.9 249.7 255.4 258.3 263.6 269.2 273.3 280.8 287.6 291.3 295 308.5 339.3 361.6 367.9 374.7 394.3 395.3 405.2 410.4 413.3 416 416.8 417 416.2 416.9 419.3 418.8 417 417 416.2 415.1 415.5 417.1 419.3 420.6 423.5 427.1 425.9 429.4 432.9 436.3 440.9 444.4 449.2 452.1 454.2 456.8 464.8 469.8 476.5 484.1 494 495 501.8 507.7 512.3 517.2 522.4 525.3 524.9 525.9 532.3 550.5 582.2 609.1 616 624.2 633 637.6 640.5 643.7 642.6 630.7 625 623.7 608.9 586.2 562.7 547.3 542.1 537.8 530.2 519.8 509.2 504.6 497.1 490.3 478.2 468.6 457.1 445.3 437.7 433.7 423.2 408.1 402 398.1 391.9 389.2 384.3 381.9 380.2 378.6 376.3 373.9 369.7 367.2 367.8 366.2 361.1 353.1 350.9 349 340.2 332.3 326.4 331.4 328.7 318.8 321.2 317.9 312.8 314.8 316.1 316.4 310.6 301.3 293.5 292.1 296.4 298.4 291.5 286.2 282.4 276.2 268.1 271.1 269.9 264 265.3 259.3 254.2 253.6 253 252.5 251.7 250.4 253.3 257.2 255.3 253.2 257.8 251.4 245.4 243.1 244.9 254.3 259.4 260.8 261 264.1
262.3 266.3 268.1 275.5 283.7 284.3 284.3 286.7 283.1 280.7 277.1 267.2 256.2 247.1 240.4 235.1 231.4 226.9 223.5 218.1 216.4 211.7 211.8 211.8 211.7 212.4 212.4 212.2 213.2 214.1 216.1 218.1 221.5 225.5 228.6 232.5 238.6 244.7 248.6 254.4 260.9 267.2 273 280.3 284.9 292.3 295.8 301 306.3 331.8 363.9 368.7 379.6 393.3 400.9 411.2 413.2 411.4 412.6 416.4 416.8 417.3 416.4 418.2 420.6 420.3 419.4 419.5 418.9 418.7 419.4 420.7 422.9 429.2 430.2 430.6 439.6 440.8 438.6 442.9 447.9 453.1 455.3 459.1 463.4 468.7 474.6 483 492.1 499.3 503.6 503.3 508.7 513.9 519.9 524.6 529 530.8 530.4 528.1 536.9 558.1 592.4 614.2 625.2 631.8 636.7 641.4 646.5 648.7 646.3 639.2 629.9 628.6 619.9 603.9 575.9 553.4 541.5 539.4 534.4 526 514.8 508.8 503 496.3 484 473 461.4 449.9 440.1 435.7 427.6 413.3 405.4 400.7 396.4 393.4 387.1 385.8 382.6 380.5 378.7 376.3 373.2 370.6 368.8 369.4 364.5 354.4 352.9 352.5 345.5 336.3 330.6 330.3 328.2 318.5 318.9 317.1 313.2 313.3 315.4 316.5 312.4 304.9 294.5 302 305.6 300.2 294.4 288.1 283.2 279.2 271.9 267.6 271 267.7 266.7 263.5 255.9 255.1 254.7 253.9 253 252.9 255.5 257.4 255.3 253 252.7 248.1 244 242.2 248.5 261 262.1 260.5 260.8 264.9
257.6 262.7 259 261.5 265.6 274.8 276.2 275.8 275.2 271.2 260.9 253.3 244.1 235.9 232.4 231.2 227.2 223.4 218.4 214.5 212.4 211.3 211.7 211.9 212.5 212.7 212.8 214.2 215.3 216.5 218.9 222.8 226.9 231.1 233.3 240 244.2 247.3 254 262.9 271.9 279.3 282.8 291.1 295.2 296.3 304.6 316.3 327.1 359.8 369.5 388.7 394.2 403.6 414.3 416.1 418.4 413.3 416.6 416.5 418 417.7 419 420.2 421.4 420.5 421.6 421.1 421.8 423.3 426.1 429.1 433.5 434.1 434.1 444.9 449.8 452.1 459.1 457.8 459.7 464.2 469.4 476.3 481.3 488.2 494.7 500.8 507.4 508.2 509.3 506.1 516 520.8 525.2 529.8 532.9 531 530.7 534.7 548.1 573.7 606.6 628.2 634.5 638.8 638.8 644.4 645.4 646.1 644 642.5 633.2 631.5 627 619.3 600.5 572.4 550.3 543.5 537.2 529.3 522.8 514.5 509 500.6 490.3 479 466.7 456 442.2 437.1 431 422.2 407.4 403.6 399 394.4 388.9 388.2 384.6 382.8 380.5 378.8 377.3 376 371.8 371.6 367.2 356.5 353.8 353.8 348.6 339.9 333.5 328 325.5 319.8 317.4 314 313.3 312.1 310.6 312.7 311.9 300.1 305.4 306.6 310 304.6 295 290 285.6 280.7 275.4 269.6 269.4 271.5 270.1 266.2 259.2 256.7 255.9 255.1 253.6 252.7 256.1 256.8 253.8 250.4 246.7 244.3 243.9 242.2 253.8 262 263.1 259.6 260.6 268.2
251.1 253.6 256.2 257.5 260.4 263.7 266.7 264.2 263.4 255.7 248 240 233.5 231.5 227.7 226 222.8 217.5 213.6 209.1 211.4 211 212.6 213.6 214.8 215.6 215.8 216.9 218.2 220.6 223.4 227.8 231.2 235.2 241.4 242.6 250.9 255.3 264.6 277.3 287.2 290.6 295.8 297.3 299.1 305.2 314.5 330.6 368.5 371.3 392.1 398.9 406.7 414 416.8 418.7 418.6 417.2 417.5 417.2 418.4 418.7 421.8 422 423.2 423 422.8 425 426.4 429.5 434.2 436.7 438 437.9 438.1 451.8 457.3 464 471.9 477.5 479.5 483.1 489 496.2 503.3 507.4 512.3 515.5 515.2 512.7 516.4 512.1 522 524.8 528.1 532.1 534.1 533.6 535.7 548.2 568 595.8 620.9 634.1 639 639.9 640.9 642.9 641.4 641.2 639.7 640 635.3 629.9 630.3 629.1 620.5 599.9 573.2 553.7 544.8 535.7 527.7 522.7 512.3 503.1 495.3 483 470.9 458.6 446.7 439.8 435.9 427 413.3 407.9 403.2 397.6 391.8 390.6 388.9 383.2 382.3 381.2 379.8 378.3 376.6 374 368.4 359.7 353.7 352.8 348.6 339.7 334.2 327.2 325.8 320.8 318.5 316.1 313.7 312.1 310.7 308.5 306.1 308.7 309.1 310.6 312.2 307.9 297.9 291 285.4 277.6 273.3 271.5 274 267.3 272.6 268.8 260.6 257.6 256.8 257.4 254 253.4 256 256.3 254.5 248.6 245.5 244 243.2 241.3 256.2 261.4 261.7 258.2 261.7 269.9
248.8 248.6 246.4 250.6 255.8 255.6 254.1 257.3 251.7 245.2 239 232.5 228 225.8 223.5 220.8 216.6 212.3 209.1 211.1 211.8 212.9 215.6 216.5 217.4 218.8 219.7 221.1 221.5 224 226.8 231.2 235.9 241.2 245.4 250.2 251.8 265.9 282.5 293.2 296.1 299.5 300.3 302.2 310.4 327.3 349.8 372.3 381 398 403.4 410.7 417.2 419.2 421.4 421.9 422.8 424.1 420 418.1 418.7 420.5 424.3 425 425.2 425.8 427.3 428.7 431.2 439.2 439.8 440.5 443 445 447.7 459.6 468.9 478.1 486.2 492.6 505.7 508.7 513.1 516.6 519.3 519.6 520 520.3 521.3 519.3 519 522.5 523 524.6 527.9 533.2 542.3 547.7 559.5 572.7 593.3 611.6 626.3 635.1 639.4 640 641 642.2 639.6 638.5 640 637.7 637.3 632 631.5 633.7 628.8 621.1 601.9 577.9 559.9 543.3 532 525.8 516.2 507.1 498.2 487.2 477.2 463.2 450.9 441.3 438.4 433.6 419.7 409.8 407.3 402.2 395.6 393.4 393.3 386.6 382 382.1 379.4 378 376.7 373.7 369.3 361.1 354.7 350.6 345.5 341.1 336 333 327.6 324.7 319.9 318.1 316.3 315.2 312.7 311 308.6 310.6 308.4 310.1 310.6 307 297.6 288.7 280.3 280.8 278.1 274.5 276.8 273.5 266.6 262.9 260.3 259.3 260.8 258 254.3 254.6 256.6 259.5 258.5 251.8 247.9 244 242.7 249.1 256.2 260 257.7 255.8 260.8 268
242.9 240.7 241.6 244.9 246.6 251.3 253.6 249.9 241.4 237.2 233.3 229.5 224.1 221.8 219.4 215.1 211.9 209.1 210.8 211.6 213.8 217 221.1 220.3 221.4 223.1 222.2 223.7 226.3 227.9 229.8 233.3 238.2 243.8 248.4 254.1 267.1 283.3 295.5 297.7 300.4 304.7 309.5 322.5 335.4 360 377.9 389.1 406.4 414.1 417.5 421.2 423.6 423.1 424 425.1 428 425.9 423.8 419.8 421.6 423.2 426.6 427.3 427.8 428.4 429.9 432.5 441.6 442.5 441.5 445.6 448.7 454.2 456.1 472.7 488.4 495 505.2 514.6 532.3 542.4 541.8 541.6 536.3 533.5 531 529.4 528.8 523.8 523.5 525 527.5 534.3 539 550.5 564.4 576.3 589.1 605.9 613.1 616 620.1 626.6 632.7 635.2 637.3 637.3 635.9 634.7 636.3 636.4 635.2 632.6 628.3 631.8 632.3 629.9 623 606.1 584.1 561 542.2 528.2 520.6 510 500.7 490.8 482.1 468.2 457.5 443.1 441.1 436.2 424.5 411.8 409.4 405.6 398.4 397.6 397 389.2 383.5 381.3 380.8 377.8 375.8 374.3 369.5 364.6 356.7 360.1 354.1 345.4 339 336.1 328.8 326.3 321.4 319.7 317.7 316.5 314.8 312.9 312.3 311 309.2 307.6 306.5 303.8 292.2 282.6 285.4 283.6 278.8 276.7 270 265.7 264.6 267.4 265.6 263.1 262.5 259.7 255.9 256.6 257.6 265.5 264.7 257.5 251.7 249.7 240.8 243.8 254.5 256.4 255.5 251.8 255.4 263.7
237.1 236.2 237.3 240.2 241.9 247.9 245 238.6 234.2 231 230.1 225.5 220.6 215.6 214.1 209.9 210.5 210.3 211.1 212.4 215.4 219.2 222 225.7 225.1 227.4 226.9 228.1 231.1 233.1 234.7 238.4 242.7 247.4 255.1 269 286.5 297.3 303.6 302.3 309.9 319.4 328.6 342.8 356.4 380.1 391.4 412 416.9 419.6 424.2 426.9 427 427.5 427.9 430.4 429.2 427.3 424.9 422.1 423.4 425.5 427 428.3 430 431.2 432.6 442.3 445.2 444.9 447.4 451 456.4 465.2 478.5 495.7 510.2 516.9 525.3 544.5 565.1 573.6 573.4 569.3 564.2 557.7 552.2 551.6 545.5 542 545.3 547.7 554.4 561.5 570.5 583.4 596.5 609.7 614.9 617.5 619.2 618.8 620.5 620.3 626.5 628.7 631.6 631.7 630.9 630.7 633.5 633.5 632.2 632.3 630.2 627.7 631.7 633 631.9 616 606.8 584.1 560.1 537.6 523.9 513.8 504.7 497.6 485.3 474.8 459.9 448 442.9 439.6 428.5 414.9 408.5 407.4 403.5 401.7 400.3 390.9 385.1 382.1 381.6 380 375.9 373.7 371.4 365.9 363.4 366.4 362.2 353.2 344.6 338.4 332 328.2 326.1 321.1 319.4 317.9 318 315.8 314.1 311.2 309.3 307.2 305.3 302.1 296 290.1 287.5 283.3 279.7 270.8 275.7 274.4 275.6 272.7 267 261.2 262.1 260.4 257.4 257.3 262.2 268.8 269.1 262.4 255.1 254 241.8 242.8 244.3 254.7 251.9 250.3 250.2 255.9
232.5 232.3 233.3 235.3 238.6 238.7 234.2 229 229.3 225.1 221.9 222.6 216 210.2 207.8 208.1 210.3 211 211.8 213.6 219.4 220.1 224.7 228 229.4 229.3 229.6 232.1 235 237.5 239.8 244.8 251.3 258.2 270.7 289.2 297.1 309 311.2 313.8 326.3 336.5 343.1 351.1 370.6 388.3 410.8 419.5 419.2 423.2 428.6 430.3 430.8 432.7 433.2 433.1 428.7 428.3 426.8 425.2 425 426 429 430.2 430.2 432.1 443.1 446.5 447 449.2 452.6 457.3 466.3 479.6 498 515.2 533.9 546 559.6 587.4 604.1 614.7 610.6 602.8 596.1 587.5 583.9 577.4 574.9 576.1 577.6 584.1 589.8 597.6 610.5 618.6 619.4 617 615.7 616.1 619.9 620.3 620.3 620 626.3 619 616.2 617.4 622.1 621.4 624 627.7 629.7 632.1 629.9 627.4 621.7 626.5 629.2 615.9 612.6 606.6 581.5 553.5 532.8 517.6 508.3 501.3 487.4 478.4 462.9 453.4 443.2 441.9 428.9 419.9 412.1 409.6 407.2 405.5 402 392.5 386.8 381.9 381.9 380.9 377 374.2 371.9 367.4 365.5 368.8 366.1 358.9 349.5 340.2 334.6 329.3 327.1 322.4 320.8 319.5 318.2 319.4 318.2 313.8 310.6 307.7 305.8 303.3 299.6 297.1 291.6 282.9 274.8 281.8 281.7 278.8 274.3 272.7 269.6 266.9 263.9 261.7 259.2 260.1 264.4 269.9 271.8 265.3 260.2 257.2 241.3 242.2 240.2 245.6 252.2 250.3 250.3 250.3
228.3 228.4 228.9 232.2 234.2 229.8 227.1 222.2 220.7 219 217.4 215.5 209.9 207.1 209.4 210.3 210.9 212.9 215.1 216.5 222.4 225.8 226.6 227.5 230.9 232.2 233 235.5 239 242.3 246.2 253.7 262.8 271.6 291.3 294.7 308.8 315.8 321.3 325.9 337.6 345.8 354.1 370.8 383.9 390.4 412.9 421.2 422.6 426.2 430.9 432.2 434.4 436.7 437.6 438.7 435.7 430.2 428.3 428.3 428.2 427.3 428.2 430.4 432 439.5 446.4 446.5 448.5 454.5 460.3 467.9 483.4 500.3 518.7 537.7 562.6 579.7 606.8 630.5 649.3 652.5 646.8 638.5 632 624.3 618.6 612.2 611.7 616.8 617.2 623.1 627.6 625.2 624.9 624.2 621.1 618.3 615.7 614.6 617.1 619.2 623.1 619.9 621.3 614.4 612 612.7 614.3 615.5 618.7 624.3 626.2 628.7 625.5 621.8 621.7 619.2 622.7 616.4 613.4 609.8 599.5 573.1 547.7 526.4 511.6 501.3 490 482 471.1 459.1 445.4 442.2 430.4 423.7 415.6 412 409.8 407.7 403.3 394.6 387.8 382.9 382.4 381.5 378.1 375.9 373.7 369.4 364.8 368.7 367 361.3 352.1 343.2 336 331.4 327.6 323.8 321.6 320.5 319.6 322.4 320.2 316.8 312.4 308.5 306.8 304.7 302.6 291.9 286.9 281.3 287.3 284.2 282 278.4 275.7 274.3 270 266.3 266.6 261.9 258.6 261.8 264.3 269.5 272 266.9 262.9 263.3 250.5 240.3 241.3 241.7 254.7 254.2 250.7 250.3
224.9 225.2 226.1 229.7 228 224.9 223 220.1 217.3 215.7 212.4 204.3 210.8 211.2 210 210.8 212.1 214.4 216.4 218.3 223.4 227.7 229.8 231.6 232.2 233.1 235.2 238.8 241.3 246.7 254.3 262.4 272.2 289.9 294.5 303.5 312.7 322.3 334.5 336.8 340 353.4 379.5 383.3 389.8 393.4 416.9 420.6 423.6 428.1 431.3 433.7 434.3 439.6 442.4 445.1 445.6 441.6 434.9 431.9 428.4 429 429.6 432.5 437.6 446 447.2 448.6 453.5 463.2 469.6 481.1 500.9 519.6 543.2 565.2 586.4 615.1 653.6 666.4 674.9 673.6 669.5 666.1 660.6 658.6 652.7 651.2 652.2 652.2 650.1 648.2 647.1 641.8 636 630.1 620.9 617.5 614.1 611 610.2 608 611.3 615.5 610.3 606 608.3 609.6 611.6 613.7 616 617.9 620.8 625.1 620.5 618.5 616.6 617.3 621.7 619.6 614.9 611.8 606.3 595.5 566.3 539.3 519.8 505.3 496 483.1 471.9 460.7 450.2 441.7 430.5 425.3 419.4 414 412 410 402.8 394.6 388.1 384.5 383.8 382.6 380 378.7 376.2 372.7 365.3 366.5 365.5 361.6 353.5 345.1 337.7 333.1 329.4 326.4 324.7 320.9 321 325.2 322.3 318.2 313.5 310.2 308.2 307.6 305.7 295.7 284.3 289.7 289 280.7 281 280.6 277.2 277.6 271.2 267 265.1 265.8 259.5 258.1 262.8 268 270.4 266.5 262.8 263 258.1 248.9 240.7 241.5 254.1 255.2 253.8 252.7
222.2 222.7 224.3 224.9 221.8 220.5 218.9 215.1 211.6 209.4 199.2 209.7 211.4 212.7 210 211.2 215.9 217.6 219.9 221.5 226.2 229.9 232.3 233.9 235.9 234 240 241.6 246.2 254.4 262.6 272.1 288.7 291.1 300.5 311.4 317.4 322.4 335.6 344.3 351.9 364.7 387.5 389.7 392.5 411 416.8 421.6 423.9 427.4 430.4 432 438 443 444.6 445.8 446.6 446.2 445.3 443.3 438.8 436 433.9 437.1 444 445.3 449.6 453.5 459.6 468.7 478.6 497.1 516.4 539.8 565.2 591 615.6 647.9 671.1 682 694.3 700.6 693.1 686.8 680.3 675.8 667.7 669 671.4 672.2 666.3 658.7 651.8 641 638.2 621.9 615.6 612.5 611 608.5 603.8 597.5 593.8 593.9 598.4 602.2 604.2 606.9 611.4 612.2 612.6 612.5 615.1 617.3 615.9 615.5 616 616.1 619.2 620.4 615.8 611.8 606.8 601 581.5 552 533.5 513 500.1 487.3 474.6 461.4 451.1 440.8 430.6 426.8 422.7 415.9 413.1 411.5 406.3 397.5 389.6 386.9 384.4 383.9 381.9 380.3 378.3 375.3 367.3 363.4 361.8 358.9 353.8 346 339.1 335 331.3 327.9 326.1 324.4 323.6 325.5 322.8 318.8 314.3 311.5 309.4 308.3 306.6 301.9 294.9 292.3 292.6 283.8 277.4 280.2 276.6 278.6 274 268.5 266 265.6 263.3 259.2 261.1 264.2 267.5 264.8 256 256.1 254.6 245.1 242.1 240 242.6 254.1 254 253.8
219.2 220.3 221.5 220.6 217.9 216.9 213.9 209.6 207 197.7 198.3 203.8 208 209.2 208.6 209.6 214.9 221.1 223.6 226.6 228 230.4 233.3 236.6 239.3 241.4 241.4 245.4 252.3 261.2 273.3 288 292.8 303.6 308.5 318.7 326.1 329 333.5 345.9 364.1 379.3 389.2 397.7 416.7 421.6 422.6 423.2 426.6 430.6 430.7 433.4 437.7 442.2 443.8 444.9 445.6 446 445.7 444.6 440.9 439.9 438.9 439.3 444.4 450.7 454.9 459.7 467.2 474.7 492.5 508.9 529.5 557.3 583.8 616.7 639.5 652.2 673.3 687.4 709 720.7 718.7 714.2 708.3 702.2 697 698.2 705.1 686 670.4 658.5 651.7 634.8 621.4 612 610.1 607.4 603.4 601.7 594 590.8 586.9 586 586.9 589.6 596.5 601.3 605.6 607.2 608.4 609.3 610.6 612 611.6 612.6 613.6 615.6 617.2 620 613.7 610.4 607.1 600.9 576 551.6 537.2 519.5 501 488.2 474.5 460.7 450.3 441.4 430.3 427.4 424.1 417.4 414.3 412.7 405.7 398.9 391.1 387.3 385.5 384.4 383 381.5 379.7 377.1 370.8 365.6 360.7 356.5 352.4 346.7 342.4 337.5 333.4 329.8 327.9 326.3 325.3 324.5 321.4 317.7 314.2 312.4 310.4 308.9 307.7 305 301.6 295.6 293.8 288 279.7 278.1 277 277.9 274.9 270.2 268.6 271.6 262.6 260.3 260.6 261.7 262.9 254.2 251.2 251.1 248.5 247.9 248 240.3 239.1 250.1 248.7 250.3
216.2 216.9 219.2 217 213 212 207.6 202.8 201.4 203 181.9 199.7 204.2 208.9 209.1 209.8 214.4 219.2 225.1 228.1 230.1 232.5 236.1 240.4 241.3 243.3 246.5 252.1 261 275.5 283.2 291.7 297.9 305.9 316.1 332 341.4 349.2 354.7 353.1 368.6 373.7 390.1 418.2 423.5 424.3 425 425.7 427.6 428.7 429.6 435.9 437.3 441.5 442.6 443.4 444.2 445.5 444.8 445.5 443.6 440.3 440.4 441 454 457.8 462.2 467.1 473.6 486.1 503 514.2 533.1 561.6 590.5 627.4 638.7 652.7 672.5 686.6 715.2 721.8 723 721.2 719 716.6 714 711.8 700.4 679.2 664.1 653.9 646.1 625.3 612.2 607.9 602.1 597.1 594.2 592.8 588.6 584.9 581.6 580.2 580.2 582 586.5 590.5 596.2 603.1 604.2 606.8 609.9 611 611.5 612.2 612.3 615.1 613.4 613.7 611.2 608.7 604.9 590.5 560.6 547 532.9 518.6 499.9 485 472.6 459.6 449.4 440.1 431 427.6 424.3 418.5 415.5 413.3 406 398.8 392.5 388.5 386.5 385.6 384.7 383.3 381.2 379.2 374.2 368 362.8 358.7 354.6 349.2 344.7 339.8 335.7 331.9 330 327.7 326.1 324.6 322.1 317.5 314.6 313.8 311.9 310.3 310.1 308.6 307.5 299 296 289.9 285.4 278.7 274.8 276.4 274.2 270.4 267.2 273 266.8 258.7 260.9 258.2 253.4 257.1 264.4 260.9 255.4 255 253.7 241.1 239.4 243.5 247.1 252
214.5 214.5 213.5 209.7 206.7 205.4 201.9 198.2 196.4 196.6 185.9 189.4 202.5 205.5 209.9 214.3 216.5 220.3 223.4 227.9 231.9 234.9 237.3 239.5 243.2 246.6 252.8 260.7 269.9 284.3 291.7 297.5 309.2 317.6 329.9 343.4 363.9 371.3 378.1 381.8 372.8 374.2 394.6 423.9 424.7 425.4 427.3 429.5 431.6 430 432.2 436.5 436.7 439.7 441.1 442.8 444.5 444.5 445 445.3 443.1 440 440.6 448.9 458.2 463.6 469.3 474.2 481.8 497 506.4 527 543.8 556.9 572.2 605.8 637.6 647 667 681.8 708.2 722.4 723.2 721.3 719.9 717.5 715.4 712.7 690.3 666.8 655.9 645.1 632.5 620.8 611.6 605.2 596.3 590.1 587.2 585.2 581.5 576.8 572.2 570.4 570.2 572.7 576.9 579.6 581.4 587.4 595 601.5 607.7 611.2 612.3 612.4 612.4 612.4 611.5 611.7 608.4 603.3 599.7 574 550.8 541.2 525.9 515.8 498.2 479.7 470.3 458.8 448.8 440.7 431.6 428 424.3 418.5 415.5 412.8 406.9 398.8 393.8 389.7 386.7 386.6 385.9 384.4 382.5 380.4 377.8 369.6 365 360 355.9 351.3 346.2 341.4 337.4 333.7 331.8 329.1 327 325.3 323.1 317.7 320 317.1 316.6 314.8 314 314.7 311.7 302.5 299.3 293.8 288.8 282.8 277.4 274.7 275.4 272.2 269.8 274 268.5 259.8 259.4 255.4 254.5 262.9 267.5 265.4 259.1 259.4 257.1 243.2 239.8 238.7 248.6 255
209.9 210.4 208 203.2 202.7 198.8 193.5 192.1 192.2 189.5 195.4 200.8 201.5 210.8 213.6 214.9 221.2 223.5 227.4 230.9 234.9 238.9 240.6 242.2 246.6 249.7 261.7 271.1 284.1 291.3 297.7 306.6 316.5 329.7 345.5 369.8 377.6 383.7 387.7 397.9 398.2 383.9 402 423.3 425.1 426.1 430.7 433.5 433.5 433.1 435 438.1 437.8 438.8 441.1 442.8 442.4 443.9 445.6 445.2 444.2 441.3 442.1 454.5 462 469.2 475 480.5 491.3 500.7 512.8 527.7 549.1 558.9 570 597.7 637.7 644.5 661 678 696.2 720 721.6 720.9 719.2 717.1 714.2 709.3 677.4 657.7 649.1 635 624.8 615.2 607.8 600.1 590.1 583 576.6 570.9 568.8 564.8 561.9 560.5 560.8 562.1 564.5 568.2 571.3 575.9 584.2 592 603.3 609 612.2 611.4 609.5 610.6 611.2 609.4 604.9 592.8 575 556.6 544.4 532 523 507.7 493.5 477.7 466.8 456.8 447.1 439.9 433.1 429.2 423.7 418.5 414.5 412.6 406 399.9 394.5 390.2 387.9 386.7 386.3 385.1 383.4 382 380 371.9 366.6 362.4 357.9 353.2 347.7 343.3 339.4 336 333.4 331.2 328.8 326.9 324.4 322.9 325.1 322 322.5 322.7 322 317.6 312.5 305.6 303.6 298 290.7 286.6 281.1 276.4 271.6 268.7 267.2 272 269.8 259.5 257 259.3 258 264.1 269.3 268.3 263.1 262.3 259.2 252 240.1 238.5 249.7 256
207 207.6 203 198.7 194.8 193.1 188.4 187 185.3 181 200.1 204.1 210.9 211.6 216.1 220 223.9 225.8 229.7 233.7 237.6 240.7 242.5 246.1 250.9 259.9 268.3 284.1 292.2 297.7 305.5 315.5 327.7 341.4 368.5 375.7 382.6 387.1 401.4 404.1 408.1 412.8 411.2 423.6 427.2 429.7 432 433.3 434.2 434.4 436.7 440.5 440.6 440.1 440.7 440.7 442.6 445.2 443.8 445.6 444.9 440.8 445.5 457.2 464.9 472.2 478.2 486.8 496.5 500 508.1 521.9 545.7 559.7 584.4 616.5 639.3 644.1 662.3 673.5 684.3 705.5 717.3 718.9 717.6 715.2 709.3 689.7 669.3 653.3 642.1 626.7 619.7 611.5 602.6 590 578.7 571.3 564.9 560.8 555.8 555.3 552 550.4 548.5 550.6 552.7 556.4 559.7 565 572.7 581.8 591.5 606.1 609.2 609 607.5 607.5 606.3 601.3 580.7 564.6 551.2 542.9 535.4 524.4 513.6 501.3 486.3 475.9 464.8 454.5 443.4 437.4 433.7 429.3 423.1 418.3 412.9 410.7 405.8 398.9 394.4 390 387.7 386.6 385.7 385.1 384.3 382.7 380.3 373.7 368.1 363.5 359.8 355 349.3 346.1 342.9 338.8 336.2 332.5 330 328 327.3 326 329.5 328.9 327.6 329.6 327.4 322.7 318.2 310.9 307.3 300.9 292.4 288.2 284.4 279.6 275.3 274.8 266.4 266.9 267.4 259.7 258.8 258.6 261.4 265.4 271 271.1 265.5 263.5 260.5 253.1 239.4 238.1 248.6 255.4
206.2 202.8 201.6 194.8 190.5 186.5 180.1 169.3 163.9 187.8 197.2 190.7 206.2 220 219.5 223.4 226.1 228.6 232.3 235.8 238.9 241.8 244.9 251.8 259.3 266.8 274.3 292.1 301.1 305.3 314.1 325.7 336 357.4 376.4 381 383.4 397.6 406.6 412.3 416.1 417.4 422.8 425.1 428.7 433.6 435.6 432.2 434.3 435.1 439.3 439.1 439.8 439.7 439.9 440.2 440.6 442.7 443.7 446.4 445.9 443.1 448.3 456.7 465 473.2 480.4 489.3 494.1 497.9 502.9 515.3 543.2 559.9 583.3 606.4 630.3 641.6 648.6 668.8 673.6 684.8 695.3 709.3 715.4 712.9 700.4 677.9 665.2 646.7 631.2 620.6 613.9 604.7 590.7 579 566.7 562 556.8 552.6 547.8 544.4 542.2 540.2 538.8 540.7 543 546 549.4 552.5 560.2 569.5 578.4 588.2 597.9 601.6 601 600.2 594.9 578.8 559.7 546 539.4 534.4 525 518.2 505 492.7 483.2 472.8 461.3 451.1 442.8 436.6 432.7 427.8 422.8 417.9 412.5 409.8 406.8 405 395.6 389.6 387.6 386.8 385.7 384.5 383.8 382.8 381.1 374.6 370.2 364.2 359.4 354.3 350.8 348.3 344.7 340.8 338.3 334.8 331.6 328.8 327.5 329.5 330.8 331.2 331.6 333.2 332 328 322.6 315.8 310.5 303.4 294.1 289.8 287.7 283.9 279.2 272.6 266.4 265.6 263.6 261.9 260.5 259.2 260.9 261.4 270.9 271.8 265 263.2 261.1 254.1 240.8 237.8 244.3 252
202.1 200 200.7 196.1 184.5 174.4 160.1 172.9 180.1 194.3 194.4 191.2 190.7 218.2 221.4 224.2 227.1 231.2 234 236.4 240.6 245.1 250.3 256.7 263.8 272.5 286.8 298.7 306 312.9 321.9 331.1 345.9 372.9 379.6 381.9 384 406 411.6 416.6 417.9 418.6 424.4 426.4 431.6 431.2 436.7 432.8 435.7 436.8 438.3 437.8 438 438.4 438.3 439.1 439.9 440.9 443.2 446 447.7 447.4 450.1 455.4 463.7 473.4 481.9 489.5 493.5 497.8 508.1 528.7 546.2 562.8 580.7 597.8 613.1 634.6 641.2 651.1 667.3 672 680.4 688 697 694.4 683.2 665.9 652.7 636.4 623.7 614.7 605.6 592.4 580.6 571.3 561.8 555 550.7 545.8 541.1 537.7 532.7 532.2 530 531.1 533.3 536.5 540.4 542.8 548.4 556 563.6 572.9 581.7 588.3 588.8 587.1 577.1 561.5 548.7 539.4 533.6 527.3 519.5 507 496.3 488.5 479.5 468.9 456.7 447.9 440.7 436.3 433.2 427.8 423.3 415.8 411.1 409.1 407 406.6 396.7 388.1 387.7 388.2 387.1 384.2 383.7 382.3 381.1 376.4 371.1 367 362.5 358.2 352.5 349.5 345.5 343 339.4 335.5 332.3 330.5 329.4 330 331.8 332.6 333.5 334.6 334.3 332.9 324.4 320.1 312.8 307.3 300.1 293.8 287.1 280 275.1 277.9 272 269.5 268.9 267.1 260.9 259.2 259.9 265.2 260.9 268.8 264.7 262 259.7 253.9 247.3 237.7 240.1 247.2
195.1 196.5 194.7 188.9 182 170.2 168.3 178.6 190.3 195.6 190.3 190.3 192.6 218.1 223.7 226 229.1 231.4 235 238.7 241.6 248.8 255 261.3 267.3 279.6 294 303.9 311.5 318.5 324.7 339.8 370.2 379.8 380.6 382.1 393.4 410.4 414.4 421.2 422.5 424.4 425.4 429.2 430.8 432.6 435 434.2 435.7 438.6 438.5 438.2 437.7 436.6 437.5 437.9 438 440 442.6 447.8 449.9 450.3 450.8 454.6 463.5 473.4 481.8 486.7 491.1 500.6 514.5 535.6 547.8 563.1 578 593.2 603.7 617.7 637.1 641.1 656.2 666.4 671.9 677.9 679 678.4 675.4 657.8 642.4 626.9 615.4 604.2 593.2 582.5 573.7 566.3 557.5 550.2 544.3 540.6 535.9 531.5 525.9 524.4 523.9 523.3 524.6 527.3 531.2 534.9 538.9 544.5 551.6 559.4 565.6 572.3 575.3 570.4 562.3 552.1 541.7 534.5 527.6 520 512.5 501.9 491.6 484.2 474.7 465.5 456 446.3 440.4 435.6 431.6 427.4 423.1 418.6 411.6 409.2 407.5 406.8 393.5 388.9 388.6 388.7 387.5 385.3 384.9 383.5 382 377.5 372.6 370 366.1 360.8 355.2 351.1 347.4 343.6 341 337.4 335.3 333.4 331.4 330.8 332.1 333.5 335.5 336.1 335.4 335.4 328.1 324.1 317.5 312.3 306.9 297.8 291.1 280.8 282.8 283.7 279.5 273.3 273.2 270.8 263.1 259.4 262.9 264.8 267.5 262.5 261.5 259.5 258.5 254 250.3 238.4 238 240.2
187.1 176.5 172.4 163.4 160.7 153.2 162.7 180.5 189.9 181.2 195.5 207.1 204.7 224.8 224.1 228.1 230.4 234 237.4 240.5 243.2 251.2 259.8 266.5 273.2 287.4 300 308.7 314.9 319.4 328.6 345.5 371 378.1 381.6 389.7 402.1 413.8 420.1 421.7 423.6 426.1 428 429.9 431.2 436.2 438.2 435 436.9 438.5 437.8 436.8 436.1 436.3 436.4 436.1 437.8 438.5 444.5 449.6 451.9 449.4 450.5 454.6 464.2 472.9 479.1 484.1 492.8 504.3 520.8 536.2 548.5 561.5 574.5 587.7 597.8 607.6 623.2 636.7 646.5 660 664.8 671.1 672.9 672.5 667.6 654 633.3 619.9 604.3 593.3 580.5 573.7 567.9 560.7 551.2 544.6 538.4 535.7 531.4 525.3 520.5 517.2 514.2 514.2 515.7 519.2 523 526.8 531.2 535.7 540.6 547.4 554 560.6 565.1 559.9 553.4 544.6 534.7 527.5 519.7 512.7 507.3 497.1 489.5 480 469.9 462.3 456.3 445.8 440.1 434.2 430.2 425.9 420.6 415.8 411.7 408.3 408 405.4 393.7 390.5 389.5 389.6 388.1 386.7 385.7 384.6 382.6 380.4 374.5 372.8 370.3 363.6 357.4 352.5 349 344.7 342.8 341.2 340.4 339.5 335.7 333.4 333.6 334.8 337 337.4 336.3 336.1 334.3 326.5 321.5 316.1 309.6 304.8 293.6 288 287.6 285.9 281.9 277.3 275.1 273 264.7 259.8 261.5 265.4 265.3 262.2 257.2 253.2 255.6 256.5 257 244.9 237.1 239
177.9 166.8 138.9 165.7 167.3 173.7 175.4 187.3 169.4 134.6 166.3 188.9 212.2 225.4 230.3 229 232.1 235 238.4 242.6 246.5 253.8 262.6 271 280.8 295.5 305.9 310.7 315.4 322.8 337.6 356.9 371.7 380.6 383 393 404 412.9 419.8 422.1 425.5 428.6 429.4 431.2 434.8 437.4 436.7 435.1 435.8 435.4 436.6 436.1 435.3 435.5 436.1 436.2 437.6 438.8 446.2 451.8 450.7 447.9 450.5 455.6 464 472.1 477.9 484.6 493.6 507.7 523.2 536.7 546.1 559 570.3 581.3 591.7 601.6 613.2 632.5 639.4 651.2 663.4 664.7 667.5 666.9 660.7 643.4 627.4 610 597 584.5 574.3 566.3 560.4 552.7 545.2 537.3 532.7 529.4 525.9 521.3 517.4 510.2 508.5 506.7 508.3 511.4 515 519.9 524.4 530.7 534.5 538.9 545.2 550.6 551.1 547.3 541.9 534.2 526.4 518.1 512.2 506.5 499.8 492.7 485.4 474.7 467.7 458.7 451.1 444.7 439.3 432.7 428.8 425.1 422.7 419.2 413.4 410 409.4 401.8 394.3 391.7 391.1 390.2 388 386.9 385.1 383.9 383.1 381.5 376.6 374.4 373.4 365.6 358.2 353.4 350.5 347.9 346.7 345.3 344.4 343.6 340.6 337.2 335.8 336.5 339.1 337.9 336.1 336.2 335.7 327.5 322.3 316 309.8 308.1 291.7 285.7 292 288.7 285.7 283.4 276.2 273.1 267.1 262.2 260.5 263.6 264.7 263.7 262.7 258.9 258.5 259.7 261.1 250.4 236.5 238.4
166.4 140.4 139.7 156.3 169.2 178.7 180.4 176.4 136 96.3 124.4 165.5 181.1 211 231.7 228.7 232.4 234.3 240 244.5 251.3 257.6 265.2 276.2 289.3 301.3 307.6 313.9 318.3 326.6 341.7 361.8 374.2 381.7 385.6 392.6 398.6 418.8 420.3 422 426.7 429.9 430.2 432.1 432.9 434.8 434.4 433 435.2 438.5 435.5 435.2 435.2 436.1 435.6 436.9 437.8 440.4 447.1 451.1 448.3 447.6 449.9 455.2 463.3 470.9 478.4 485.4 495.5 508.3 522.3 532.1 543.1 556 565.7 575.2 584.8 596 606.1 621.3 634.3 643.1 661.3 664.7 663.9 665.1 662.2 638.7 621.7 600.6 588.2 577.1 566.8 557.5 553.1 546.7 541.3 534.2 528 526 521.5 517.7 510.8 506.4 501.9 498.9 500 502.2 507.7 513.2 517.5 524.2 528.3 533.3 536.7 544.2 539.2 535 531 524.2 513.9 507.6 503.4 498 494.2 489.8 482.6 474.6 465.7 455.3 447.5 442.8 437.4 431.2 427.5 425.4 424.7 421.2 416 413.4 409.7 401.2 394.4 392.8 392.1 390.9 388.6 387.4 385.5 383.8 382.8 381.4 377.8 375.5 374.2 368.5 360.3 356.4 353.8 352.3 351.3 349.4 347.7 346.1 344.5 342.2 339.9 338.8 339.2 338.7 336.5 336.4 335.4 327.6 322.8 316.8 311.4 298.5 296.5 301.1 297.4 292.6 287.4 286.8 282.7 277.2 269.4 263.1 263.9 272.3 272.9 272.6 268.8 258.8 258 258.4 263.4 256.1 252.8 236.4
160 137.4 148.5 161.1 170.1 182 175.4 133 95.8 95.7 104.8 129.9 165.6 176.5 214.3 229.1 232.5 236.2 241.7 248.7 255.8 264.5 272.3 283.9 298.4 307 311.7 315.9 320.2 333.3 348.5 357.9 372.8 381.9 384.9 393.4 405.2 419.4 420.4 422.1 425.8 430.6 430.7 430.8 432.5 431.5 431.1 433.9 434.8 435.2 434.2 434.4 434.8 435.6 435.8 436.6 436.9 440 446.2 448 445.4 446.8 450.1 455.5 463.7 470.4 478.7 485.6 497.3 508.5 518.8 528.7 538.9 550.8 561.4 569.2 579.2 587.8 600.2 611 624.3 636.3 647.4 662.9 664.2 664.4 660.7 637 614.8 593.2 579.7 569.5 558.6 550.5 545.2 540.3 534.8 529.6 525.6 521.4 518.9 513.2 506.7 499.9 495.9 492.7 494.5 495.2 499.2 503.9 510.6 518 522.7 526.2 528.2 533.6 532.8 527.6 520.7 511.3 500.4 497.6 494.4 491.4 488.9 485.6 478.3 470.2 462.2 450.3 445.7 441.4 433.8 429.9 425.5 425.4 425.9 422.5 419.2 415.9 409.4 398.4 394.1 393.5 392.8 391.7 389.9 388.3 385.2 384.6 383.6 382.5 378.3 377.4 375 370.9 364 359.5 358.2 357.6 356.4 353.1 351.2 348.8 346.8 344.6 343.2 341.7 342.5 339.1 337.3 336.2 336 327.9 323.3 317.9 312.2 317.4 315.9 310.3 306.2 295.7 290.2 284.8 280.6 275.5 269.4 265.7 266.9 274.6 276 275.5 271.6 262.8 257.5 256.9 260.3 261.2 256.4 243.1
160.1 136.5 147.6 160 170.5 186.7 171.9 145.6 130.7 95.7 112 115.1 134.9 148.3 195.3 228.3 230.5 238.3 244.3 252.3 261.8 269 277.8 291.9 302.2 310.7 313.7 316.7 325.8 340.5 365 373.1 375.9 384.1 391.9 395.5 408.9 419.8 420.9 421.2 426.6 429.2 430.2 431 431.3 430.2 428.8 433.6 433.5 434.2 436.6 435.7 435.7 435.2 433.9 436.6 438.9 439.3 443.7 444.5 441.4 446.2 450.3 457 464.7 470.4 478.8 488.4 498 506.5 515.3 526.3 534.3 544 556 564.8 573.3 582.7 595.2 604.3 615.8 629.9 638.2 656.5 662.5 662.5 658.3 632 607.3 585.4 572.2 561.8 551.3 543.4 537.6 531.9 527.4 523.3 521.3 518.7 515.2 512.5 507.9 499.6 492 488.4 491.3 491.2 493.1 497.2 504.3 510.1 516.4 519.9 522.5 528.4 528.1 519.8 508.6 492.4 488.5 489.9 488 485.5 482.1 478 472.7 464.6 455.7 448.9 444.9 439.9 434.1 428.3 424.8 425.4 425.9 424.2 422.7 418.2 407.8 398.5 395.3 394.5 393.3 391.3 390 388.7 386.6 385.7 385 382.7 377.9 377 375.6 371.9 367.5 365 363 362 359 355.4 353.6 352.2 351.3 349.6 347.3 344.6 345.3 342.5 337.4 336.9 334 327.7 322.7 320.8 324.1 323 320.2 316 309.8 305.5 296.4 289.9 282.7 276.8 271 271.2 267.8 274.6 276.3 276.5 273 263 257.5 253.3 256.6 259.7 257.8 254.1
153.9 136.2 148.7 162.1 171.7 190.1 183.3 174.6 156.2 129.6 103.3 114.4 124.2 136.6 152.5 212.9 233.7 240.2 248.1 256.3 265.8 272.2 285.5 298.4 304.8 311 315 318.3 331.2 350.2 370.2 375.8 381.3 384.6 393.8 406.7 412.7 420.2 419.7 421.8 425.1 428.3 429.9 432.2 430.4 429.1 428.1 428.1 433.3 434.1 437.1 436.5 436 435 434.5 437.3 437.8 437.9 440.2 440.1 441.8 444.9 450.5 458.2 464.4 470.2 479.2 486.6 496 504.8 513.6 523.6 533 541.2 551 560.3 569 578.3 587.9 599.1 609.6 620.8 632 642.3 658 657.4 649.5 625 597.1 574.8 562.9 553.5 544.6 535.9 529.7 525.6 521.5 519.2 516.2 515.2 512 507.1 505.7 500.8 491.8 488.3 482 485.6 487.5 493 498.3 503.9 511.7 516.1 519.3 524.5 520.3 509.7 497.4 481.2 480.8 481.4 480.1 479 476.3 471.6 466.2 458.6 448.6 447 444.2 438.9 434 426.9 424.7 425.2 424.8 424.5 424.6 417.4 405.4 398.4 396.8 395.4 394.2 391.8 390.1 388.3 387.3 386.4 386 382.8 379.6 378.9 377.8 376.9 372 367.8 365 363.2 360.3 355.3 354.3 354.1 353.1 351 349.7 347.3 345.9 345.4 341.9 337 332.1 324 324.6 327.7 329.5 326.6 324.1 320.4 313.2 308.9 301.7 295.8 288 284.9 280.6 272.1 264.5 268.4 273.4 274.9 273.3 264.4 257.2 253.9 252.3 256.1 254.9 254.1
141.9 137 151.5 167.5 177 195.5 190.7 188.7 177.5 154.5 138.1 118.6 122.6 142.7 174.4 227 234.3 242.6 250.2 259.6 268.5 278.3 293.4 300.3 306.3 313.4 318.7 321.3 332.8 350.1 373.4 380.4 384.1 393.7 395 408.2 411.8 416.5 421.5 423.5 426.5 428.9 429.3 431.1 430.8 429.4 427 427.7 431.2 433.2 437.1 436.5 435.1 433.9 434.9 435 435.8 434.4 434.8 435.3 439.1 444.3 452.4 458 464 473.8 479.2 486.5 493.3 501.7 511.7 521.6 531.4 540.6 546.8 555.5 564.5 573.6 582.4 593.7 604.5 613.8 626.7 633.6 648.9 650.2 639.7 616.1 588.9 566.2 555.6 546.6 538.9 529.8 525 518.6 517 515.3 511.8 509.4 506 502.6 499.4 495.6 488.9 484.9 483.8 476.8 484.3 488.6 493.5 498.3 507.5 513 516.2 518.6 510.2 500 487.5 478.5 473.8 473.7 474.1 472.2 469.5 466.4 460.4 451.7 448 445.7 443.4 439.3 433.7 424.9 420.6 423.1 422.3 423.6 423.3 414.6 403.1 397.7 396.5 395.8 394.9 392.9 391 389.3 387.5 387 385.6 381.5 381.4 381.3 380.2 378.5 374.4 369.9 367.8 364.8 361.4 355.6 354.9 355.2 354 352.6 351.5 349.2 347.5 347.4 345.7 337.5 330.6 330.4 334.4 333.3 335.4 329.4 326.8 322.7 318 314.5 307.6 295.7 290.7 284.7 283.2 277 268 263.8 264.4 269.4 271.1 264.8 259.4 258.8 253.8 250.9 250.3 250.2
136.4 133.2 154.6 176.1 183.7 199.3 203.7 200.6 199.8 183.3 178.5 155 142.6 152.4 187.4 227.8 233.4 242.5 252.8 262.1 272.5 290.1 297.8 303.4 311.2 317.4 322.2 327.9 340.5 355 375.8 383.7 392.8 395.5 402.8 408.9 411.6 420.7 422.4 423.2 425.3 426.7 427.6 429.1 430 429.5 427.3 427.1 429.2 432.7 432.5 431.7 431.6 425.3 434.6 433.5 428.7 428.1 429.7 432.3 434.8 444.9 453.1 458.3 464.3 469.4 478.3 483.9 491.9 500.1 507.8 518.1 528 536.5 542.4 548.9 559.8 569.3 578.1 589.2 598.7 608.8 622.8 628.8 636 638.5 630.9 607.4 580.1 559.6 549.2 539.9 532.7 526.7 519.8 514.8 512.8 511.7 507.5 501.9 497.3 495.3 491.6 487.5 482.6 479.9 478.4 470.7 479.9 483.6 488.2 493.8 502.9 507.7 511 513 502.5 492.7 482.6 474.8 470.5 467.9 467.2 465.6 463.5 461.7 456.3 451.9 448 444.4 443.5 440.5 433 424.2 419.6 420.2 419.9 422.1 420.3 410.6 400.2 396.6 395.6 395 394.3 393 391.4 389.5 388.2 387.2 385.7 381.8 382.6 382.6 381.2 379.4 376.5 370.6 367.4 365.7 361.5 356.9 355.9 356.4 354.6 353.4 352.6 350.7 348.2 348.3 346.9 338.8 327.1 336.4 344.5 338.8 336.5 332 328 325.7 322.1 318.3 312.1 300.4 290.8 282.8 282.5 278.9 269.9 267.6 265.1 259.8 267.1 264.4 260.7 260.7 258.5 248.9 248.7 246.8
132.4 138.8 165.8 179.1 184.9 192.3 199.4 203.7 212.5 214.8 208.3 200.9 189.8 196.2 222.9 227 234.4 243.2 257.2 267.5 282.3 296.5 301.4 310.1 315.1 320.1 324.3 335.9 354.1 372.4 382.2 384.1 395.4 398.2 405.8 412.7 413.3 421.3 422.4 423.2 423.5 424.1 424.6 422.6 425.7 426.7 427.2 426.6 427.2 428.3 426.2 428.8 430 420 429.4 424.4 418 414.5 420.1 425.9 431.4 441.7 449.3 457.1 461.6 467.2 474.1 481.9 490.1 498 506.2 515.8 523.5 531.5 539.2 545.3 555.8 564.9 575.3 585.9 594.6 603.9 617.9 626.6 630.7 632.8 625.4 599.3 574.6 554.5 545.6 533.7 527.1 521.5 515.1 510.8 509.1 508 501.8 494.8 488.6 487.7 485.2 480.3 477 474.7 472.7 467.8 474.8 478.6 483.8 491.4 498.2 500.8 504.3 505.7 496.1 486.3 479.8 472.7 467.9 464.9 463.4 460.1 460.1 458.9 454.4 448.8 444.6 444 443.6 439.9 431.5 424.9 421.2 416.7 417.3 420 415.8 405.9 397.5 395.9 394.8 394.4 393.8 392.1 390.4 389 388.2 387.3 384.6 383.7 383.6 383.7 382.2 380.3 377.1 371.2 367.5 366.5 358.4 357.5 357.2 357.4 355.2 354.4 353.3 352 349.4 348 346.9 339.5 331.3 340.4 348 345.8 334.6 337 329.6 327.7 323.8 319.6 316 310.2 294.7 284.6 282.7 280 272.8 272.4 271.3 261.6 260.6 262 259.9 261.7 257 253.3 250.7 251.7
131.6 148.8 168.1 174 174.8 187.6 193.3 197.8 204.2 211.5 219.3 224.6 218.2 221.3 222.6 230.1 237.9 248.9 260.1 270.7 289.4 298.8 311.3 316.8 319.3 321.1 325.7 344.9 368.8 377.2 383.8 387.4 389.6 399.2 406.3 413.2 414.7 416.3 422.5 422.6 422.8 423 421.9 422.1 423.1 424.2 423.1 423.5 422.2 422.4 415.8 421.3 418.9 404.1 402.7 400 400.5 404.8 415.1 422.4 429.5 438.2 447.5 455.4 459.1 467.7 475.9 483.8 490.7 498.2 504.8 512.2 521.5 528.5 535.5 542.2 550.9 561.2 572.1 583 591.1 600.4 614.3 625.6 628.6 630.3 623.2 595.2 568.4 551.6 540.7 530 522.2 516.3 510.3 505 503.3 501.6 494.3 488.2 483.6 481.5 480.4 476 471.2 469.2 467.7 461.2 470.2 474 480.5 490.2 492.5 493.7 496.8 497.5 489.4 481.2 475.3 469.1 464.7 462.4 459.4 456.8 457.6 457.1 451.7 445.9 444.2 444.1 442.6 438.2 429.8 425.3 422.4 417.8 413.8 417.7 411.4 401.7 397.5 395.3 393.9 393.7 392.2 390.4 390.2 388.9 388.3 386.4 384.3 383.8 384.6 384.7 383.1 380.7 376.9 370.1 368.2 367.1 358.1 358 358 357.5 355.9 355.6 354.2 351.9 350.4 347.9 346.7 341.1 334.6 347.9 349 347.6 341.6 338.4 331 329.4 324.6 322.8 318 313.2 299 291.6 283.1 280 273.9 274 273.7 267.3 258.1 258.5 257.6 261 261.8 255.9 254.1 257.4
141.6 156 161 163.6 170.9 177.7 185.4 192.9 199.7 206.6 211.2 214.5 219.7 220.5 220.1 228.5 239.5 251.1 261.5 270.4 290 299.8 313.3 318.8 321 321.1 327.3 346.2 363.2 376.2 383.9 388.3 389.5 390 390.9 400.6 412.8 414.9 417.4 421.2 421.7 421.8 419.9 420.6 420 419.3 417.6 414.1 405 409.8 402 399.9 394.6 389.6 381.9 385.7 385.6 395 406.7 419.8 429.5 438.5 446.1 450.6 459.6 468.7 476.9 483.3 490.7 498.4 505.1 512.1 519 524.8 533.6 540.8 547.9 558.7 569.7 579.7 589.3 597.7 611.4 625.7 629.1 629.9 623.1 594.7 566.4 551.3 535.6 525.9 519.8 512.8 505.4 500.4 496.4 495.3 490.6 487.3 480.3 474.9 474.8 471.6 467.2 464.1 462.9 459.9 467.1 471.4 479.8 490.7 487.6 486.7 488.8 488.8 482.5 478.4 471.4 465.2 462.6 459.6 457 455.7 455.9 454.5 448.3 444 443.5 443 440.4 435.1 429.1 426.9 425.2 416.6 409.2 413.5 406.7 399.9 397.7 395.4 393.5 392.2 391.4 390.6 389.7 388.8 388.1 384.8 384.6 385.2 384.6 383.6 383.9 379.4 372.4 369.8 369.3 363.5 358.5 358.3 358.1 357.3 356.5 356 353.8 351.2 350.3 349.3 345.9 338.5 342.9 349.1 349.6 348.8 346.9 339.2 332.2 330.1 325.5 324.1 320.5 315.7 304.2 295.6 282.5 271.1 272.9 273.6 274.6 269.3 259.9 257.1 256.1 258.2 260.9 256.2 255.6 260
152.8 162.6 165.4 166.5 171.7 172 178.7 186.9 195.3 201 205.2 205.8 212.9 215.3 222.3 230.2 238.9 248.7 260.1 271 284.3 298 308.4 317 319 322.9 327.3 340.6 355.6 367.9 377 384.4 387.8 390.7 391.9 400.7 410.3 413.3 408.9 414 414.7 414.8 410.6 408.6 402.9 403.4 403.7 395.5 382.6 382.2 381.8 381.4 381.1 377.1 378.6 383.8 387.9 400.5 413.3 423.5 430.8 437.2 444.2 448.8 458.7 467.8 475.3 480.5 488.8 494.9 501.7 509.7 516.9 525.1 531.2 537.9 547 556.6 566.7 576.9 586.7 595 609.4 625.8 630 631.7 626.8 597.3 569.2 546.6 531.9 523.7 516.7 509.2 500.5 496.9 493.3 491.1 489.4 485.7 479.5 472.1 469.6 466.1 462.4 459.1 459.1 460.9 464.3 468.7 479.3 489.5 483.7 480.8 480.2 479.2 478.2 476.3 470.3 466.4 461.5 458.7 456.4 454.5 454.2 449.8 444.3 441.8 440.9 439.8 436.6 431.4 428.8 427.9 423.8 416 410.9 409.1 402.7 399.1 397.3 395.4 394 392.6 391.3 390.3 389.2 387.9 385.8 385 385.1 385.7 382.6 380.8 376.7 373.2 370.7 370.2 369.3 360 358.9 359 358.5 357.5 356.8 355.8 354.2 351 350 348.5 346.5 348.8 349.9 350 350.2 349.4 347 340.2 333.2 331.8 327.2 325.7 322 317.3 311.2 297.9 285.7 276.2 269 271.5 274.4 269.6 261.5 261.4 259 255.3 258.5 256.6 255.2 261.8
160.6 167.5 170.8 172.9 178.3 185.2 185.6 190.8 193 197.8 204.5 210.6 215.6 220.7 225.4 232.1 239.5 246.5 257.5 271.3 278.9 292 298.9 307.8 315.3 321.4 327.5 332.8 346.5 360.5 369.5 377.6 386.1 389.6 392.5 393 405.9 404.1 389.9 386.9 385.9 385.8 384.3 383.2 382.6 383.3 383.6 378.2 376.2 369.4 372.4 373.2 370.4 367.5 377.4 380.4 389.5 399.4 411.7 415.1 425.8 438.9 444.5 449.3 457.4 465.4 471.4 479.4 487 494.7 502.2 509 515.9 522.6 527.4 536 545.4 554.2 564.6 573.6 583.3 593.3 607.9 626.4 631 632.6 629.9 600 571.4 546.5 529 521.6 514 506.3 498.3 492.2 490 489.8 488 484.5 478.7 471.1 465.6 460.6 456.8 452.9 451.1 458.2 461.4 466.2 479.5 485.4 480.4 475.6 472.7 471.4 472.8 475.6 474.4 466.3 459.5 457.3 455.6 454 448.9 444.1 441.7 440.2 438.9 436.5 432.6 429.6 428.5 426.6 419.7 412.1 412.6 407.4 402.7 401.1 398 396.1 393.8 391.9 391.4 390.3 388 386.2 386.1 385.6 385.9 385.4 383.3 378.4 374.2 372.1 371 369.9 363.6 359.8 359.5 358.9 358.2 357.3 356.1 355.1 353.8 350.9 349.8 350.5 350.8 352.2 353 351.4 351.2 350.4 348.5 346 333.9 331.4 329.3 326.8 324.2 318.6 314.2 300.4 290.8 277.7 269.5 266.2 272.7 269 261.9 262.1 263.3 257.1 254.2 253.7 255.7 262.1
162.5 171.2 173.3 178.5 184.3 189.9 192.3 196.3 202.5 206.3 211.2 217.7 221.7 226.9 230.2 236 241.5 249 260.2 270 277 285.3 292 300.3 306.3 315.9 322 326.3 334.6 347.3 359.9 368.8 375 384.4 389.4 389.3 391.2 389 386.3 382.5 382 381.9 380.8 379.7 380.6 378.7 374.7 362.7 354.5 366.5 367.1 359.9 366.2 372.6 379.2 385.2 394 399.8 408.2 422.7 433.2 436.2 443.7 449.4 456.1 463 471.2 478.9 488.9 496.1 503.3 509.8 516.1 521.9 527.3 534.1 543.9 552.4 563.2 572 582.2 592.8 606.9 627 632.4 634.3 631.5 602.3 572.5 547.9 530.1 519.8 511.1 502.7 496 492.6 490.9 488.5 485.8 481.3 475.7 469.9 463.2 456 451.7 447.1 453.9 456.7 457.8 462.9 478.1 481.9 477.8 471.7 465.5 465.4 470.1 473.1 469.1 461.2 457 455.9 453.5 449.5 444.3 440.7 439.3 438.5 436.2 432.5 428.7 427 426.3 423.2 414.7 412 410.7 407.1 404.3 400.3 399 397.8 395.1 393.6 391.7 390.5 386.9 384.9 386.1 386.2 386.6 385.5 384 376.2 374.2 372.4 371.4 368.3 361.2 360.1 359.5 359.2 357.5 356.2 355 353.9 351.6 351 353.2 356.9 357.1 356.5 355.3 353.1 352.5 351.9 351 348.7 335.1 331.4 330.2 327 326 321.8 316 305.7 295.4 282.1 271.6 267 268.2 267.6 261.5 260 264.4 260.3 256.4 252.5 253.7 261.9
167.5 178.2 180.7 184.3 188.2 193.2 197 201.2 207 210 216.1 223.7 228 232.1 236.6 241.5 246.2 251.3 259.1 269.9 276.1 281.1 288.6 295.6 301.7 310.6 312.2 318.8 322.4 330.8 349.1 360.2 371.6 379.1 380.7 383.7 385.4 384.2 383.3 381 381.8 376.9 375 374.6 369.7 351.7 346.3 343.5 351.3 353.2 352.9 362.1 367.9 372.3 381.7 391 399 410.6 421.7 431.2 438.2 442.2 447.7 449.2 457 463.5 470.5 479.6 489.7 496.7 504.2 510.6 516.8 522.7 527.8 534.4 543.7 553 563.1 572.4 582.4 592.4 605.7 625.8 632.7 635.4 632.8 601 570.9 545.7 529.3 518.3 508.2 501.3 495.4 492 488.6 486.2 480.3 476.3 472.6 467.2 460 452.8 446.4 443.4 451 453.5 454.4 461.8 476.2 477.9 476.1 466.2 460.8 461.7 466.9 466.8 461.9 455.7 453.7 452.8 450.6 445.8 440.6 438.3 437.3 436.8 434.4 429.3 425.4 424.2 422.9 420.3 415.4 412.6 409.3 406.1 403.2 401.8 399 397.5 396.4 394.8 393.4 392.4 390.3 389.7 387.3 382.8 384 385.1 384.6 376.2 374.2 372.1 369.2 363 361.6 360.1 359.2 359.3 358.1 356.7 355.1 352.8 352.7 355.5 358.5 358.9 358.7 358.2 357.4 356 353.5 353.3 352.3 349.6 342.7 333.4 331.7 328.3 326.6 323.3 316.9 311.3 298.6 285.3 274.3 268.5 263.5 266.2 259.4 260.9 264.1 261.5 254.1 252.6 253.7 257.3
179.1 183.2 186 189.9 192 195.5 201.1 205.7 211 217.2 222 229.9 236.1 239.5 242.9 246.4 251.5 258.8 261.7 267.3 273.6 277.8 282.7 290.6 297.5 304.4 305.5 305.7 310 320.3 328.9 343 356.5 369.6 375.4 373.4 368.3 373.7 379.2 380.6 380.1 378.7 373.5 361.5 345.1 340 340.9 344.2 346.2 350.7 357 364.9 371.2 379.9 387.4 396.9 409.2 418.2 427.3 436.1 442.5 446.4 451.1 456.3 460.4 464.3 469.2 478.2 488.8 496.5 503.4 510.3 517.4 523.5 528.9 532.5 543 552.5 564.1 574.3 583.7 592.3 603.5 622.3 631.2 636.4 632.2 599.6 569.6 544.9 526.6 516.1 507.9 500.9 495.5 491.1 486.7 483.2 478.4 471.9 469.8 463.1 455 449.4 442.5 444.8 447.5 450 450.8 460.7 472.4 474.7 472.3 463.6 459 459.8 461.4 459.3 454.8 451.1 449.9 448.9 446.4 440.9 437.5 435.5 435.6 435.7 432.8 426.1 422.7 421.5 421.6 420.7 417.8 413.4 408.2 406.1 404.5 402.9 400.7 398.3 396.5 394.9 395 393.8 393.6 393.6 388.7 387.8 382 380.7 379.7 376.1 375.4 369.5 364.3 363 361.8 360.1 359.5 359.1 358.2 357.4 356.2 356.2 356.4 356.7 359.2 359.6 359.7 359.5 358.3 358.4 354.2 354 353.8 352 344.5 335.4 333.6 328.4 327.5 324.6 320.1 314.4 299.4 292.2 279 272.7 265 260.3 260 259.5 262 260.2 253.1 252.3 252.5 255.5
178.5 184.2 189.3 191.9 196.6 200.3 204.2 209.3 216.1 220.7 228 235.3 240.3 244 249.8 253.9 259.5 262.3 262.1 265 268.1 273.1 278.8 284.6 291.7 298.1 299.2 298.2 301.7 309.1 320.9 327.8 336.4 349.9 352.8 355.4 357.2 365.6 371.6 372.6 374.3 372.8 360.6 347.5 338.9 336.9 339.7 342.4 348.3 355.5 362.2 371.5 379.1 388.1 396.4 405.4 414.3 423.4 434.1 441.2 445.7 448.4 453.3 459 464.6 468.1 472.6 483.6 491.4 496.2 502.8 510.7 518.1 522.9 530.3 538 546.7 556.5 567.4 576.4 584.9 591.7 601.6 612.3 627.6 632 630.6 599.4 567.9 540.7 524 515.3 507.5 502.2 495.9 489.7 484.7 480.5 475 469.1 465.9 458.6 451.7 446.7 440.6 441.2 444.9 447.1 449.1 461.3 467.7 470.4 467.4 461.2 456.6 457.1 456 452.4 448.3 446.1 445.2 444.1 441.2 436.4 433.7 433.3 433.9 434.1 430.1 423.8 420.3 419.2 419.9 420.1 418.4 413.1 407.9 405.9 405 402.4 401.3 399.4 397.7 397.5 397.6 396.9 396.5 396 390.3 389.5 387.8 387.7 386 384.3 375.8 366.9 362.8 362 360.6 360.6 360 358.9 358.8 358.2 357.8 357.3 357.5 357.8 359.5 360.1 360.5 360.7 359.3 359.9 355.2 354.8 354.6 353.3 345.9 336.2 334.4 329.5 327.9 325.5 322.1 317.3 301.2 295.1 282.7 273.5 268 262.9 259.6 257.9 259.8 256.3 258.8 252.4 251.8 257.1
175.7 181.6 186.4 190.9 199 203.3 209.1 215 223.3 228.7 235.6 242.2 246.9 250.4 254 258.4 262.1 263 262.6 263.3 267.5 271.2 274.6 280.3 287.3 294.5 294.7 294.1 296.7 302.7 310.1 321.2 325.7 332.1 334.2 339.2 343.2 350.7 357.4 358 358.6 355.5 350 339.9 333.3 335.7 337.9 342 350.6 358.7 365.6 375.3 386.2 397.2 405.5 412.5 419.7 428.8 438.9 445.5 447.5 449.8 453.8 459.3 464.4 469.9 479.9 487.5 493.4 498.7 504.9 511.8 518.3 523.4 530.3 539.8 551 562.2 571 579.4 585.8 592.5 599.4 604.5 618.6 625.8 623.2 599.7 566.8 540.4 521.6 511.6 504.5 500.6 494.3 487.2 481.7 478.2 473.2 467.7 460.6 453.9 448.1 444.3 439.9 435.4 441.9 445.2 449.3 458.9 463.7 465.2 462.5 457.2 454.6 453.7 450.3 446.4 442.3 440.7 439.9 439.9 436.8 433.5 431.4 431.5 432.3 431.5 427.7 422.6 417.8 415.5 418.3 418.3 417.1 411.3 408.8 406.6 404.8 404.8 402.3 400.9 399.2 399.7 399.9 399.3 398.5 392.8 392.2 391.5 390 389.7 388.2 381.8 376.3 368.6 364 363.3 362.3 361.4 359.4 359.2 358.7 359 358.3 358.1 357.9 358.2 359.3 360.8 361.3 361.7 360.8 359.2 356.9 355.4 355.5 354.7 346.9 336.6 335.6 330.7 328.1 325.6 323.2 318.2 302.9 296.4 285.9 276 271.5 263.5 259.9 258.2 256.6 256.1 263.4 257 250.4 258.1
176.2 181.7 187.5 192.6 198.5 203.9 214.7 221.2 227.6 234.4 242.5 247.4 251.4 254.7 257.7 260.5 263.2 264.2 263.1 263.3 265.6 269.5 271.9 277.5 286.7 292.4 292.5 292.4 294.3 298.6 306.2 313.6 320.8 327.3 328.3 331.5 337.2 340.9 344.6 348.8 349.6 347.6 341.4 332.9 331.2 336.1 337.3 340.4 346.7 359.1 369.9 380.3 392.2 401 409.7 418.8 427 435 441.5 446.6 448.1 451.2 453.7 460.1 468.3 474.9 484.7 491 497.9 503.3 510.2 514.3 519 524.6 531.4 543 555.2 565.6 573.5 580.6 587.2 594.3 599 601.5 606.3 612.2 607 591.9 566.9 540.2 519.3 507.3 501.8 497.4 491.6 485.1 479.4 474.4 469.5 463.2 456.4 450.2 440.5 440.5 436.4 435.6 441.3 444 449.4 455.5 459.1 459.5 457 454 451.3 448.5 444.5 441 437.2 435.6 435.4 435.6 433.8 431.2 427.2 428.6 428.8 427.8 426.2 422.6 417.8 414.2 416.1 415.9 414.5 410.9 409 407.4 407.5 406.2 403.2 401.8 401 401.7 402.1 401.6 396.4 395.6 394.4 393.3 392.2 390.5 388.5 378.9 371.6 366 364.7 364.6 363.8 363.4 363 362.4 362.1 357.9 358.4 359.2 359.3 359 359.5 361.6 362 362 361.7 360.7 360.6 356.3 355.9 355.6 347.2 336.8 332 330.6 328 325.8 323.8 318.9 303.7 298.9 288.2 276.8 271.6 267.2 262.2 259.4 258.2 262.2 266.2 261.6 249.5 259.2
175.1 182.4 188.9 193 198.1 210.2 219.4 223.3 231.6 238.1 243.7 248.2 252.4 256.7 259.4 261.1 263.5 265.9 267.3 267 264.9 267.3 269.6 276 284.5 289.2 289.5 289.3 291.4 296 302.3 311 317.2 322.9 325.8 329 332.6 335.5 337.3 340.7 341.1 338.1 330.7 329 337.4 335.9 337.3 340 345 361.4 377.9 387.6 397.5 407.5 416.6 425.9 433.6 439 443.4 448.1 449.6 452.5 455.8 463.6 473.2 482.2 488.4 494.3 501.2 507.3 512.7 517.8 521.3 526.6 533.6 547.2 558.5 567.5 575.7 582.1 588.9 595.4 598.5 597.7 599.2 599.3 592.3 579.2 560.6 539.9 518.3 506 498.7 493.9 488.3 483.1 476.8 470.1 464.3 459.3 452.5 445.7 442.3 439.2 431 435.6 440.5 443.2 447.7 451.9 453.5 453.3 452.3 450.2 446.8 442.6 440.5 436.9 432.3 431.2 432.2 432.4 431.2 429.5 427.4 424.5 425.6 426.2 426.1 422.9 416.5 413.2 414.1 412.6 411.5 410.3 408.7 408.8 408.9 406.1 404.1 403 402.3 403.2 403.7 404 398.4 395.4 396.3 395.5 392.8 385 381.5 374.5 368 366.6 366.4 365.9 365.1 364.2 364 363.5 363.3 363.2 363 362.9 360.6 359.5 360.3 362.3 362.2 361.7 362.4 360.7 361.1 360.7 356.6 355 347 336.2 331.9 330.5 329 326.7 326.2 321.4 307.1 300.9 292.6 279.1 272.5 267.1 262.9 261.3 259.2 264.2 267 263.7 251 257.5
173.6 179 184.9 189.4 199.2 211.8 220.3 226.2 232.8 237.8 243.1 248.2 252.9 257.3 260.5 262.4 264.7 267.2 269.7 271.6 267.6 263.6 266.2 271.9 279.3 284.5 284.4 283.8 287 293.3 301 310.8 316.3 319.8 323.5 326.8 329 331.6 333.4 332.8 327.2 323.8 326.1 337.8 339.8 339.9 343.8 348 359.1 375.6 385.6 395.3 403.5 412.1 420.2 429.1 437.8 441.8 446.8 450.1 452.4 454.9 457.8 468.6 480 488.1 493.1 497.3 503.2 511.2 515.7 521.2 524.7 527.9 533.7 542.8 560.9 568.8 576.7 583.1 589.2 594.3 596 592.3 589.5 581.3 575.9 565.5 550 536.1 518.3 505.9 496.4 490.2 485.2 480 473.7 466.9 461.1 455.6 448.8 441 439.3 438.2 427.9 435 439.1 441.3 444.8 448.1 448 446.9 446.4 446.3 442.4 438.3 436.2 431.7 429 427.8 429.4 429.8 428.9 427.2 424.6 419.9 422.2 423.9 425.4 420.2 415.3 413.7 413.3 413.1 411.7 410 408.8 408.3 407.4 406.6 405.1 404.4 404 405.1 405.1 401.4 400.4 397.5 396.7 395.4 388.5 386.8 378 371.6 369.7 368.3 367.8 366.5 366.4 365.5 365 364.8 364.4 364.3 364.1 363.7 363.6 363.5 363.3 362 360.7 360.2 363.3 360.6 363.5 362.5 357 353.1 348.2 338.4 332.7 331.4 330.1 326.9 325.6 319.3 308.4 303.1 294.9 282.9 272.2 267.2 265.7 262 259.1 264.6 268.4 265.1 253.1 250.6
171 171.8 178.3 184.7 198.7 205.7 217.7 225.5 231.6 237.7 242.3 248.1 252.6 257.7 262.4 265.1 267.2 268.7 271.5 272.6 269.9 261.8 260.5 266.6 271.9 276.9 277.8 277 282.2 290.7 300.1 308.2 314.1 317.8 321.6 323.9 325.2 326.4 326.7 325.3 317.1 329.3 336.8 342.8 343.6 346.3 353.1 360.7 372.1 382.1 391.8 399.7 408.2 416.1 425.2 434.9 440 445 450.3 451 453.4 457.8 464.8 473.7 483.9 492.1 497.3 501.7 507.2 514 518.4 523.6 526.5 531.6 540 547.7 561.7 568.5 575.7 581.8 585.2 586.4 584 579.2 573.5 567 561.5 552.5 542.8 530 515 502.7 493 485.6 480.5 476 469.3 463 455.7 448 442.6 437.5 435.6 434.9 424.7 434.1 437 438.4 441.7 444.3 442.8 441.3 441.7 441 436 432.6 430.4 426.1 424.9 425.1 425.6 425.9 426.3 424.9 421.8 416 419.1 422.6 422.9 417 414 413.7 413.4 412 410.5 409.8 409.1 408.1 407.1 406.1 405.5 405.5 405.8 406.1 405.9 401.5 399.9 398.8 391 390.2 389.3 382.8 375.8 373.7 372.2 370.5 369.6 368.7 367.4 367.3 366.9 366.3 365.8 365.5 365.3 365.2 365.1 365.1 364.9 365 365.4 364.6 364.6 362.7 363.2 361.1 358.5 349.8 349.1 343.3 337.6 332.5 331.2 327 324.9 321 309.5 304.1 296.1 285.7 275.7 270.5 267.2 261.6 257.8 262.5 265.2 262.6 251 246.5
167.6 166.9 173.7 182.4 189.2 201.5 206.6 220 227.6 235 241.3 246.6 252.9 259.8 264.7 267.8 268.9 270.5 271.7 271.1 267.6 262.7 255.3 261 265.2 269 269.9 273.1 280.7 289.5 297.8 304.3 311.9 316.1 318.2 320.6 322.1 321.4 318.5 313.7 317.9 330.7 340.5 343.3 348 353.3 361.1 367.9 377.3 386 395 403.5 411.5 420.7 432.6 441.2 440.6 449.5 451.8 452.4 453.8 460.5 467.9 477.2 487.9 494.4 500.4 505.2 510.2 515.8 521.3 524.3 526.5 532.8 541.2 550.5 559.5 566 571.4 575.7 577.3 575.9 571 565.2 560.8 555 550.4 536 532.6 523.1 508.8 497.4 487.5 478.2 474.6 470.1 465.1 460.1 453.5 444.8 438.6 432.9 431.1 429.4 423.7 433 434.7 435.4 438.3 440.2 438.7 436.6 436.3 434.6 430.4 427.1 424.3 421.9 421.2 422.1 422 422.3 423.3 422.1 417.9 413 416.3 420.6 418.5 414.7 412.8 413.7 412.8 410 409.5 408.9 409 408.6 407.2 406.5 406.3 406.7 406.8 406.8 401.9 401.3 400.4 396.3 391.7 386.9 381.8 380.1 377.6 365.7 360.3 362.6 371.5 370.6 369.1 369.1 369 368.2 367.5 367.3 366.8 366.8 366.2 365.8 365.8 366.5 366.9 366.4 366.7 366.9 366.5 365.1 360.1 349.9 349 345.8 338.9 334.5 332.4 328.5 325.9 320.5 312.5 305.5 299.4 290.3 277.1 269.2 267 261.9 258 258.8 260.7 256.7 247.5 243.5
164.6 165.7 171.5 180.1 189.6 198.4 207 216.3 225.3 232.1 239.1 246.6 253.4 258.8 265.3 268.3 269.7 271.1 270 267.4 263.5 260.7 253.6 255.6 259.9 263 265.6 272.4 280 288.3 296 302.5 311.1 313.4 315.5 318.4 315.1 311.8 305 309.3 323.7 333.9 338.7 342.9 352.8 359.7 366.5 374.2 380.8 388.3 398.2 405.9 412.8 424.1 437.1 440.7 449 450.8 452.3 452.8 454.9 464.2 471.1 479.1 488.4 495.7 501.4 507.5 511.7 517.4 521.6 524.5 525.2 532.4 538.8 547.7 554.9 559.4 563.6 565.4 565.6 564 558.3 552.3 548.3 546 536.2 529.7 524.7 513 502.4 490.9 480.1 470.1 465.4 462.5 459.7 456.4 446.3 440.7 435.9 428.8 426.4 420.6 428.5 432.2 432.6 432.6 434.6 436 434.7 431 429.9 428.4 424.2 421.8 419.9 418.3 417.2 418.4 419 419.5 419.9 418.5 413.8 411.6 414.7 415.9 413.5 412.6 413.1 413 411.1 409.7 409 409.5 409.3 408.4 407.2 407 407 407.1 407.8 402.7 402.5 401.3 400.6 393.4 393.3 385 384.9 366.9 360.3 354.9 353.3 353.2 354.7 373.7 372.6 371.4 370.6 369.9 369.3 368.7 368.5 368.1 367.6 367.1 367.6 368 368.4 368.8 368.3 368.5 368 367.4 366.3 362.2 357.5 349.8 339.4 339.7 334.7 331.3 327.2 322 317.5 306.9 303 292.6 281.1 271 264.5 261.6 258.9 255.9 254.4 247.2 250.2 245.7
161.3 164.2 170.9 178.8 189.1 197.5 205.8 215 224.9 231.3 236.9 244.7 251.6 257.7 264.1 266.4 267.5 268.2 266.5 261.7 257.8 253.7 247.6 249.9 253.9 260.6 266.9 273.3 281.3 288 294.1 301 307.8 309 311.6 308.4 303.9 307.1 314.8 322.3 325 330.6 338.3 347.1 358.3 365.3 372.2 379.4 385.8 393.4 400.2 406.2 417.9 428.4 438.8 446.4 449.2 451.7 453 454.2 459.4 467.3 474.4 479.6 487.6 494.6 500.8 507.6 511 516.4 520.8 523.9 525.7 529.4 533 540.4 547.3 550.5 553.5 554.4 553.3 549.5 544.9 540.7 535.9 529.8 525 519.6 512.8 502.5 494.7 486.1 476.7 462.3 457 457.2 454.6 448.9 442 437.6 432.6 425.2 419.1 421.2 428 430.3 430.1 429.8 430.7 431.8 430.7 425.2 424.1 421 419 417.5 416.9 415.7 414.1 415.4 416.2 416.2 415.8 413 410.1 411.3 412.9 410 411.8 411.5 412.7 411.7 409.6 409.3 409.3 409.4 408.7 408.1 407.3 407.5 407.5 407.5 403.1 403.1 401.9 402.1 400.3 394.3 387 387.2 372.2 366.4 358.9 356.3 353.7 352.9 353 359.4 375.3 374.2 373 371.9 370.6 369.7 369.3 369.3 368.9 368.4 368.1 369 369.3 369.2 368.9 369.3 368.7 368.1 367.4 365.3 361.9 356.4 342.2 339.2 336.4 334.4 328.3 322.6 319.9 308 304.3 295.4 281.7 277.8 272.3 258.9 257.4 255.2 251.9 255.1 260.6 252
156.1 160.9 169.6 179.1 186.2 193.6 200 212.3 223.9 230.5 235.7 242.1 248.2 254.2 259.1 261 261.6 262.5 260.1 255.4 251.7 248.1 240.2 246.9 255.5 263.7 270 275.7 280.7 286 290.4 293.2 298.5 301.6 298.8 298.4 308.2 314 321.4 328.4 335.9 339.7 347 356 362.6 369.1 374.9 380.7 388 395.5 402.1 409.7 422.7 430.7 441.1 445.9 450.4 453.2 454.4 455.9 461.9 469.4 475.2 479.8 485.3 491.7 498.4 505.8 509.6 513.4 518.8 522.2 523.6 524.5 528.1 530.7 536.1 537.9 542.1 543.1 541.9 539.4 535.4 530.7 526.3 519.8 514 509.5 499.5 493.7 487.5 480.2 471.1 459.2 455 452.7 448.8 441.2 438 434 427.6 423.3 417.2 422.1 426.4 428.2 428.2 427.5 427.4 428 426.9 422.6 420.7 418.1 414.3 413.9 415.3 412.2 411.3 412.4 413.9 413.6 411.6 409 408.9 409.1 409.7 409.8 411.1 411.3 411.3 410.3 409.2 408.9 408.9 408.3 407.9 408.2 407.4 407.8 407.7 402.9 402.9 401.7 401.4 401.4 396.5 391 385.8 377.7 369.3 366.3 364.7 354.6 356 356.1 353.6 353.3 371.1 376 375.5 374.1 372.7 371.6 370.8 370.6 370.1 369.8 369.4 369.3 369.3 369 369 369.4 368.5 368.3 367.5 365.2 362.1 348.7 344.1 343.9 341 336 329.4 325.4 321.1 312 306.3 296.4 283.3 279.3 276.2 267.3 259.9 255 253.2 260.8 264.5 257.6
151.8 157.8 166.6 173.3 180.7 186.9 193.6 210.4 220.6 229.5 234.8 241.1 246.7 251.4 254.9 255.4 254.4 257.2 251 246.3 239 240.4 235.2 247.3 256.2 265.8 271.6 273.8 277.7 281.2 280.6 283.2 287.6 288.9 293.1 305.4 314.7 316.7 326.9 333.2 343.4 349.3 355.3 359.7 363.1 368.8 375.7 383 390.2 397.6 403 413.7 425.7 433.2 441.2 445.6 451.3 453.9 456.1 457.2 463.5 470.9 475.1 479.4 486.2 491.6 497.2 503.1 507.2 512.2 516.3 520 521 521 520.5 521.5 524.5 525.4 530 534 533.2 529.2 526.6 522.3 516.6 510.4 505.9 496.4 491.2 484.8 478.3 472.7 465.3 456.8 453.9 447.9 439.2 436.2 433 428 424.3 421.7 413.1 421 424 426.6 427.5 426.4 425 424.2 423.6 420.5 417.9 414.4 410.4 411.1 413.1 408.3 406.5 411.1 411.3 409.6 407.6 406.9 408 407.1 407.5 409.3 410.5 410.8 411.5 408 408.3 408.6 407.8 407.2 407.3 407.9 407.3 407.5 403.3 402.7 401.8 400 401 398.9 394.4 384.8 385.4 366 362.7 365.4 363.8 359.2 356.7 353.6 356.6 354.5 353.5 362.1 377.3 376.9 375.8 374.6 373.5 372.9 371.9 370.4 369.9 369.6 354.8 356.2 369.4 368.1 367.3 358.3 354 349.9 346.8 345.3 345.3 345.4 344 338.7 336.9 329.5 321.2 311.7 305.2 297.6 285.2 278.7 273.6 265.6 260.6 259.3 256.1 261.6 266.4 262.6
146.4 155.9 163.3 168.5 174.6 181.3 188.1 204.4 215.2 224.4 229.9 237.9 243.1 249.3 252.1 252.4 249 247 244.2 233.6 223.8 227.1 234.4 245.9 257 264.8 266 264.7 270.6 271.5 271.8 277.9 283.7 290.1 299 310.4 317.6 322.4 333.1 340.4 348.3 352.2 354.3 353.9 358.4 369.3 377.1 384.6 391.7 398.3 406.1 417.5 428.6 434.4 441.1 447.8 452.3 454.7 455.7 456.6 463.7 469.8 473.3 476.3 483 492 496.7 500.6 505.4 509 513.2 515.2 515.7 515.2 514.6 515.1 517.8 518.8 519.3 521.7 521.3 521.1 519.6 514.4 508.8 503.8 496.7 493.5 485 478.8 471.2 465.4 458.4 452.3 447.6 442.6 437.9 431.3 428 424.8 421.5 418.2 412 418.9 421.9 424.7 427.1 427.2 422.5 421.5 421.2 417.5 414.9 410.8 405.7 408.8 408.6 406.7 407 409 408.7 406.2 405.9 406.5 405.8 408.3 409.1 407 408.5 410 409.9 408 407.1 407.6 407.3 407.3 407.3 406.6 404.4 403.4 403.4 401.2 400.8 400.6 398.7 394.1 391.3 383 380.7 360.7 357.4 360.2 354.2 356.2 356.9 353.9 358 356.1 354.2 354.1 359.1 370.9 369.5 362.4 375.4 374.6 372.3 372 363.6 351.9 348.7 348.9 349.3 349.2 348.8 348.7 347.5 347 346.2 346.2 346.3 346.6 346 343.5 338.9 336.5 331.6 321.9 309 299 290.6 280.3 275.2 270.6 263.9 263.3 256.7 260.6 266.7 264.3
144.3 154.4 160.3 165.4 171 176.8 182.5 188.1 198.7 214.6 224 230.9 237.4 243.5 246.4 245.4 243.5 237.6 235.1 218.3 228.8 240.7 239.5 242.4 253.6 258.4 251.4 262.8 269.9 278.9 285 291.2 297.4 301.1 308.8 315.3 322.4 329.8 339.1 346.7 349 350.9 353.4 357.1 363.6 371.6 378.8 385.5 393 400.9 408.2 418.5 428.7 436.8 443 448.5 451.2 453.8 455.3 456.5 462.6 468.4 472.3 475.1 480.6 490.2 495.3 497.2 501.4 506.2 507.5 509.6 510.4 508.9 507.7 510.9 511.8 512.2 512.1 511.1 511.7 512.1 510.7 505.9 503.2 499.7 492.7 485.9 478.2 474.1 462.9 457.5 451.8 447 441.5 437.1 434.5 431.5 426.7 420.2 417.7 414.9 408.9 417.2 419.1 421.3 427.9 426.8 420.3 418.6 417.1 413.9 412.3 407.7 403.2 403.3 403.4 403.6 407.2 406.6 406.8 404.6 404.3 403.6 405.4 411.2 410.6 406.5 407.7 408.5 407.7 405.9 406.2 406.7 406.7 406.7 406.5 402.7 403 402.6 401.2 398.2 400.5 397.8 393.6 393.3 383 379.8 361.4 359.4 348 349.7 350 354.3 354.6 355.5 357 357.3 356.2 355.5 360 359.2 358.3 357.5 358.6 360 354.8 353.6 351.8 350.8 350.4 349.9 349.5 349.5 349.4 349.2 348.7 348 347.3 347.3 347.5 347.7 348 346.8 340.3 338.7 335.1 329.5 318.4 308.1 296.4 286.4 277.2 269.9 268.1 266.4 259.2 258.7 264.4 264.2
146.2 151.7 158.7 163.1 167.6 171.9 178.4 184.3 191.9 202.3 210.8 219.1 227.7 234.6 237.1 236.2 232.8 224.3 214.6 222.1 240.6 246.7 248.8 237.1 241.8 254.7 265.1 274.4 280.9 286.5 292.9 299.9 307.2 314.1 320.3 324.7 332.5 341.1 344.5 345.3 348.5 351 355.5 361.4 367.7 373.6 379.5 385.9 393.7 401.9 410.3 418.9 427.6 434.4 442.6 446.9 452.5 454.2 455.3 456.5 461.6 467 471.4 474.4 478.8 486.2 491 493.2 494.5 500.2 503.4 505.1 504.3 503.5 503.3 505.4 506.3 507.2 505.9 504.6 505.5 505.9 503.9 501.8 495.5 491.4 487.6 477.3 473.5 469 458.8 450.5 444.1 439.4 437.7 433.8 431.3 428.3 423.5 420.3 415.7 409.7 405.2 414.3 414.7 420.1 426.3 424.6 419.6 415.9 412.6 411.8 410.2 408 402.7 399.9 399.1 400.3 405.7 404.4 404.5 403 402 402.9 407.9 410.8 405.7 405.2 407.2 407.3 405.6 404.7 405.4 406.3 405.8 405.2 401.3 401.9 401.9 401 400.3 400.6 399.4 394.5 394 391.6 381.4 376.6 359.2 357.9 351.2 335.4 353.7 352 352 353.3 357 358.6 358 358.7 361.2 360.8 357.9 358.5 358.8 358.1 356.6 355.3 353.8 352.5 352 351.5 351.2 350.8 350.5 350.3 349.7 349.1 348.7 348.5 348.6 348.8 349.2 349.3 343.3 341.4 337.9 334.5 327 314.5 305.9 297.7 286.8 275 267 266.7 261.5 255.9 260 261.4
148.2 152.1 158.1 162.1 165.4 169.8 175 182.1 191.6 197.4 203.7 210.9 217.7 222 224.9 224.8 214.3 201 205.1 234.9 243.9 250 255.5 256.3 253.4 262.7 271.2 277.6 283.5 288.6 294.5 301.3 309.5 318.4 323.8 330.4 337.3 340.5 340.6 348.5 352.9 356.2 359.6 362.7 369 375 380.2 387.3 393.1 403.6 408.6 414.7 424 433.3 442.5 449.3 453.7 455.6 455.8 456.1 460.4 465.2 469.8 473.2 476 480.1 485.8 487.9 489.5 492.1 496.4 497.5 496.8 495.8 498.1 501.4 502.1 502.6 501.8 499.7 500.5 500.4 497.5 494.5 489.1 484.5 482.1 474.2 470.2 464.8 454.6 444.6 436.6 433.1 431.8 429.7 427.3 423.5 419 415.6 415 412 403.6 408.9 410.9 418 422.8 422.5 417.2 412.5 410.6 410.5 409.6 408 402.4 394.1 395.7 400.1 404.4 403 402.1 401.7 399.2 401.5 407.1 407.6 405.7 404.7 405.5 403.9 402.4 404 405.5 405.8 405 401.5 400.7 398.6 398.4 398.7 400.7 399.7 395.5 394.3 394.5 383 380.8 375.9 361.9 355.9 350.9 331.5 336.5 343.6 349 352.2 355.3 357.3 358.3 362.8 362.5 361.7 361.3 361.5 360.5 359.2 358.9 358.3 356.5 354.7 353.6 353 352.3 351.9 351.8 351.3 350.8 350.4 349.7 349.3 349.6 349.8 350.3 350.8 349.3 343.9 339.7 337.9 332.3 323 315.9 307.5 299 285.1 271.8 262.5 258.6 254.5 252.9 255.7
149.7 153.5 157.4 161.7 164.3 167.5 172.5 179.7 186.6 192.6 198.9 205 210.8 211.6 204.8 201.9 190.1 205.2 226.4 240.9 246.6 252.1 257.2 259.8 259.3 264.5 270.8 279.8 284.5 287.8 293.8 299.7 306.4 315.4 321.5 328.1 333.9 339.1 348 353.8 356.7 359.1 362 366.6 371.5 376.3 382.7 388.5 394.7 400.9 408.7 414.7 422.9 432.1 437.6 448.6 453.5 455.8 456.1 456.9 460.4 463.3 467.1 470.6 472.8 475 479.4 482.2 484.4 486.3 488.1 489.9 490.3 490.5 492.4 494.9 497 497.4 496.2 494.6 494 494.1 491.3 487.8 482.9 478 475.5 471.8 462.9 459.4 445.9 436.8 430.9 427.9 425.5 424.8 422.8 418.3 414.3 412.4 412.1 407.4 407.4 408.1 408.7 413.5 418.9 419.9 414.8 409.8 409 410.1 409.4 407 399 396.6 392.7 397.7 401.1 400.5 400.2 398.8 398.9 400.5 404.2 403.6 404.2 403.9 402.8 400.8 402.1 403.9 404.6 404.6 402.2 399.7 399.6 394 392.2 392.2 397.3 393.6 393.6 393.5 393.9 382.3 380.5 374.8 358.6 356.6 350.9 331 329.9 343.8 349.3 351.9 354.9 356.6 357.8 362.4 362.1 361.5 362.7 362.5 360 360.7 360 360 354.7 353.2 351.5 350 350.9 350.5 352.7 352.8 352.7 352.5 351.5 350.9 351 350.9 351.4 352.2 351.7 346.4 343.5 339.4 335.5 330.5 323.8 313.6 304.9 295.8 281.1 268.6 260.3 255.5 253.1 250.3
150.4 154.2 156.7 159.2 161.6 165.6 170.2 175.7 181.4 187.1 192.7 198.7 199.2 202.3 195.7 185.6 207.7 222.5 233.2 241.9 248 253.6 258.2 262.8 265 264.8 270.9 278.4 284.4 287.4 292.1 297.6 304.2 312.6 316.7 324.4 332 341.4 349.1 353.3 355.4 358.8 362.2 368.3 373 378.1 383.8 386.9 392.9 398.8 407.4 415 422.1 432.7 440.9 440.1 451.2 455.1 456.8 457.5 460 461.2 464.2 467.5 470.1 471.6 474.8 476.7 478 479.7 481.3 482.5 484.3 485 486.5 489.2 490 489.8 490.3 488.9 487.5 486.4 483.8 481 476 468.8 462.8 461.7 456.6 453.7 439.8 434.2 428.3 424.9 421.3 420.8 418.7 414 409.4 407.7 407 405.3 405.8 406.9 408 408.1 414.3 416.7 412.9 406.9 408.9 411.6 407.9 403.1 395.4 396.1 380.7 395.8 397.5 397.7 397 395.6 398.5 398.9 402.2 403.6 403.4 401.5 399.8 400 401.2 403 402.6 402.7 398 398.2 396.3 394.2 383.5 389.1 390.2 391.4 392 392.8 390.9 381.8 379.7 369.3 359.2 354.1 352.1 335.5 327.5 337.2 349.2 353 356.4 357.5 362 362.6 362.1 361.8 361.8 358.9 357.4 358.2 357 356.1 354.8 353.1 350.7 350.1 348.8 348.5 350.6 353.9 354.1 354.3 352.9 352.6 352.4 352.5 353 353.5 353.4 350.7 346.3 341.5 338.9 335.1 328.1 320.7 312.2 304.1 291.4 273 267 259.1 257.7 250.9
149 155.1 156.7 155.9 158.3 163 167.4 171.6 175.1 180.4 185.7 188.1 190.5 191.6 182.2 192.6 213.1 221.3 233.3 239.9 247.5 253.2 258.4 264.1 266.2 268 271.9 278.5 283.2 286.9 292.3 297 302.4 309.1 314.1 323.4 331.7 340.1 346.1 348.9 352.1 355.5 356.8 367.9 373.6 378.7 381.6 385.8 392.8 397.1 401.2 407.8 422 430.2 436.7 442.8 450.4 454.6 456.6 456.8 459.2 460.1 460.8 464.5 467.4 468.9 470.5 472.3 473.1 474.3 475.6 477.1 478.7 479.7 481 483.2 482.9 482.1 483.8 482.3 481.6 479.9 476.2 474 468.2 462.6 458.1 453.1 448.6 439.7 433.5 429.7 426 423.6 421.5 415.2 413.3 410.2 406 403.1 403.8 404.6 405 408.5 408.7 407.1 408.2 414.2 411.7 408.7 408.7 409.4 404.7 396 391.6 394.2 386.4 390.9 393.1 394.7 394 394.8 397.3 397.6 401.1 400 398.9 398.9 398.9 399.4 399.8 400.8 400.7 396.4 396.7 395 394 394 388.5 388.8 389.3 390.3 390.9 391.9 384 379.5 377.2 369.2 359.4 350.9 333.8 330 325.7 332.3 346.7 354.8 356.6 357.6 359.2 361 359.4 360.9 361.5 357.8 356.9 356.5 356.5 355.8 355 353.2 351.5 351.2 350 350 350.6 355.1 355.6 355.3 354.7 351.7 354.2 354.5 354.7 355 355.1 354 348.7 344.6 342.5 337.3 329.1 321.8 318.9 307.7 297.1 286 273.1 261.4 255.6 252.6
145.9 152.5 152.2 151.1 153.7 156.5 161 163.5 166.4 169.4 174.5 176.3 175.1 176.6 181.8 198.2 210.3 222 235.3 238.6 245 251.7 256.6 260.2 263.4 268.4 273.3 279.2 281.8 287.2 294.3 298.4 303.5 308.7 315 322.3 329.5 335.8 339 342.3 347.3 352.3 359.7 366.9 373.4 377.8 379.6 385.9 393.5 398.3 402.9 411.8 420.6 429.6 438.5 444.2 449.6 453 454.9 455.3 457.2 459.2 458.7 461.7 464.7 466.2 467.6 469 469.3 470.3 471.6 472.8 473.9 474.9 476.1 477.2 477.5 477 477.3 476.6 475.5 473.1 468.8 466 464.2 457 448.9 444.4 440.1 433.4 429 425.5 421.1 420.1 419 414.5 408.9 408.3 406 403.7 403 403.4 407.6 411.1 409.2 406 407.2 412.1 411.3 407.8 404.6 403.9 398.6 394.4 388 392.4 381.9 381.1 390.6 392.7 391.7 394.9 395.7 396.9 398.7 398 397.6 398 398.4 398.6 398.9 398.5 395 394.7 391.6 392.3 392 391.2 390.2 388.1 389.5 389.9 390.4 390 382.1 379.5 378.3 365.5 354.7 341.8 333.3 325.2 322.9 328.5 338.5 356.5 356.4 355.8 358.4 358.4 357.6 357.5 358.3 357.5 356.6 355.6 355.6 354.5 354.1 353.5 353.2 351.8 352.3 351.9 352.2 353.1 356.8 355.6 352.1 350.6 352 355.2 356.4 356.9 356.8 356.5 351.3 349 346.2 341.4 322 320.4 320.5 313.1 304 293.4 280.2 270.5 260.2 254.8
143 145 146.9 149.6 151.6 153 155.7 158.6 161.4 163.3 165.3 169.3 175.3 182 192.5 207.9 217.6 225.9 233.1 236.9 242.4 247.5 251.8 256 260.8 265.9 272.3 277.9 279.8 287.8 294.9 299.4 303.6 307.2 313.3 319.4 325.5 331 338 344.4 347.7 352 358.6 366 373.2 376.3 375.9 387.5 396 401.8 407.5 413.6 421.1 431.4 438.9 443.3 447.1 450.2 452.4 451.3 454.1 456.8 456.7 458.9 461.6 463.1 464.6 465.8 465.9 467.2 468.6 469.3 470 470.7 470.3 470.9 471.3 471 470.2 470.4 469.4 466.5 461.8 457.1 454 447.6 441.8 435.9 433.9 430.2 423.5 419.8 416.2 414.7 415.4 413.1 408.3 406.3 405.8 403.6 402.1 402.4 407.5 409.7 407.4 404 405.8 410.5 411.1 406.6 402.3 401.5 396 392.1 384.1 388.8 383.4 374.9 383.1 390.5 388.6 392.8 395.5 396.3 396.1 395.2 396 395.9 397.3 397.8 396.9 393.5 394.3 392.5 389.5 390.3 390.1 388.9 388.3 386.6 384.9 390.3 390.6 385.6 381.3 382.1 378.4 362.7 356.3 344.3 332.8 324.1 322.2 323.4 328.8 347.8 354.9 354.7 354.9 354.1 354.8 355.2 356.3 355.8 354.8 354.5 352.8 353.3 352.8 352.1 352 352.9 353.1 353.8 354.1 354.4 354.7 353.1 351 350.9 352.2 353.4 354.9 358.6 358.5 358.5 354 352.3 349.2 346.6 324 317.3 325.9 316.9 311.4 300.8 287.3 275.5 267.7 267.4
