ncols 200
nrows 90
xllcorner 300000
yllcorner 915050
cellsize 50
260 264 266.3 266.3 265.2 263.2 261.4 258.2 253.4 244.8 231.9 213.8 202 192.7 179.3 170.5 160.2 150.3 137.8 147.2 152.9 160.9 169.2 176.1 186 196 201 206 207.5 205.5 199.5 197 195.7 191 192.7 187.3 180.7 175.3 150.4 122.2 144.3 157.1 161 163.7 176 195 207.1 214.7 220.4 223.8 225.6 227.2 228.2 227.9 224.2 222.5 222.4 220.5 213.6 198.4 215.6 231.9 241 249.2 255 259.2 263.4 268.7 273 272.7 268.5 286 294.1 302 309.9 318.3 326.4 331.9 335.4 338.7 340.3 341.8 342.7 343.4 345.1 345.5 345.9 346.2 346.4 345.8 344.5 344.2 344.1 346.9 349.3 351.2 351.2 351.3 349.4 346.5 345.2 344.2 343.5 340.8 336.8 331.6 323.9 313.5 305.4 295 281.7 277.2 273.4 266.4 259.9 256 254.7 252.3 250.1 248.8 249.5 249.2 248.3 245.9 242.3 238 233.5 229.1 223.5 217 210 205.1 195.6 190.9 185.4 177.8 169.7 163.8 156.7 147.6 136.8 124.4 99.6 78.7 101.9 116.9 137.6 156.8 164.2 168.2 174 180.7 187.6 196.8 199.3 195.1 190.1 183.6 174 172.6 174.8 175.8 174.3 171.7 161.5 147.6 132.2 119.4 106.6 98.1 91.8 87.6 60.2 -1.2 -1.2 -1.2 -1.2 -1.2 -1.2 -1.2 -1.2 -1.2 -1.2 -1.2 -1.2 -1.2 -1.2 -1.2 -1.2 -1.2 -1.2 -1.2 -1.2 -1.2 -1.2 -1.2 -1.2 -1.2 -1.2 -1.2
255.2 260.2 264.5 267.2 267.3 267.8 267.2 264.6 261.7 255.2 242.4 226.8 211.5 198.1 183.1 174.2 164.1 152.6 145.3 138.6 145.6 152.2 161.3 169.1 179.2 184.6 190.9 195.5 197.2 194.5 190.1 188.2 187.6 183 184.2 180.2 173.5 169.3 155.2 130 124.1 148.5 158.3 156.9 167.9 186.9 199.6 207.6 214 217.6 217.7 219.4 222.8 221.2 218.1 214.1 211.1 206.9 194.2 201.2 221.3 231.6 238.1 244.6 249.6 254.4 257.2 260.9 262.9 258.7 277.8 294.3 304 313.5 322.3 328.7 333.8 337.7 339.7 340.8 341.6 341.5 341.1 340.9 340.3 341 342 342 342 343.1 342.3 340.2 339.2 342.3 345.3 347.6 348.2 348.3 346.9 344.7 343.5 342.7 341.9 339.7 336.5 332.4 325.4 317.5 307.5 296.4 283.7 278.2 274.8 268.7 264.6 261.5 259.3 256.4 255.5 253.9 254.2 253.9 251.8 250.1 246.3 241.2 236.2 232.1 227.2 219.8 212.1 206.9 201.5 193 186.9 179.1 170.6 162.7 156.3 146.1 134.9 120.7 93.6 82.1 103.1 122.7 143.9 162.5 171.1 178.6 185.1 187 190.8 197.6 199.7 194.2 189 176.4 168.1 169.6 174.8 175.4 173.7 171.5 160.4 147 129.2 110.7 97.5 88.2 81.5 75.4 1.9 -1.2 -1.2 -1.2 -1.2 -1.2 -1.2 -1.2 -1.2 -1.2 -1.2 -1.2 -1.2 -1.2 -1.2 -1.2 -1.2 -1.2 -1.2 -1.2 -1.2 -1.2 -1.2 -1.2 -1.2 -1.2 -1.2 -1.2
250.1 256.8 262.1 266.3 268.9 270.9 271.3 270.2 268.4 260.1 250.6 235.6 221.7 210.2 188.5 175.3 166 155.8 148 139.3 136.7 144.2 151.8 162.2 170.6 176.6 180.1 184.8 186.6 185.4 183.1 180.6 177.8 175.2 172 171.9 165.7 160.7 158.4 138 117 134.6 152.6 148.2 161.1 175 187.6 197.5 204.6 208.8 208 211.7 212.1 210 205.5 203.2 200.1 186.7 197.7 213.2 223.8 230.4 235.9 240.6 244.1 247.1 249.3 251.3 247.6 264.4 285.5 300.9 313.5 324 331.5 337.4 341.7 343.3 344.9 345.6 345.8 342.5 340.1 339.2 336 336.5 337.6 337.7 338.9 339.9 339.4 337.2 335.8 336.8 340.5 343.6 345.4 345.2 344.3 342.8 342 341.2 340.2 339.3 337 332.5 325.8 317.2 306.9 298.9 285.2 279.9 279.2 274.8 269.8 264.4 261.8 260.9 260.7 259 257.8 257.2 255.6 252.9 249.5 243.5 238.8 233.7 228.3 221 214 208 202.1 194.5 186.7 180.1 172.5 164 154 143.6 132.7 117.3 91.3 78 100 123.6 143.3 163.6 174.3 186.1 191.1 190.5 188 191.9 194.2 189.9 180.4 171.8 164.3 168.5 175 174.2 171 170.6 162.7 146.3 126.3 105.5 92.7 72.2 56.4 4.8 -1.2 -1.2 -1.2 -1.2 -1.2 -1.2 -1.2 -1.2 -1.2 -1.2 -1.2 -1.2 -1.2 -1.2 -1.2 -1.2 -1.2 -1.2 -1.2 -1.2 -1.2 -1.2 -1.2 -1.2 -1.2 -1.2 -1.2 -1.2
247 253.3 257.8 262.4 266.2 269.6 272 272.2 269.2 263.1 249.6 235 228.1 214 195.9 179.3 168 159.8 151.3 144.4 133.3 133.3 144.2 152.4 161 167.2 172 176 177.5 176.1 174 171 168.1 165.7 161.8 162.3 159.2 154.1 152.6 141.6 115.9 119.3 137.4 142 154.7 167.1 177.6 186.2 194.7 199 199 197.2 196.6 196.6 195.7 193.1 190 180.8 203.7 214.4 221.7 227.5 232.1 235.2 236.2 234.3 232.7 236.9 250.9 272 287.4 302.1 317.3 330.6 339.3 345.3 348.7 350.1 349.9 349.6 349.9 347.1 342.1 340.8 338.3 334.2 333 333.6 333.6 333.3 332 332.1 330.9 332.3 336.1 339.7 341.8 342.9 342.2 341.2 340.3 339.4 338.4 337.3 335.7 331.4 325.7 319.1 312.1 298.7 291.9 284.4 282.6 278.9 275.2 268.4 265.7 263.8 262.7 261.6 260.2 259.7 257.3 255.1 250.5 245.6 239.4 234.7 229.3 222.5 215.8 209.6 203.3 195.1 185.6 176.8 171.2 162.8 153.1 141.7 130.3 115.3 94.9 71.7 102.1 124.3 143.5 160.4 174.3 187.8 189.7 189.2 186.7 183.7 182.1 184.3 180.1 168.1 163 166.8 172.7 170.5 169.1 169.3 167.5 144.3 122.1 91.8 35.3 1.9 -1.2 -1.2 -1.2 -1.2 -1.2 -1.2 -1.2 -1.2 -1.2 -1.2 -1.2 -1.2 -1.2 -1.2 -1.2 -1.2 -1.2 -1.2 -1.2 -1.2 -1.2 -1.2 -1.2 -1.2 -1.2 -1.2 -1.2 -1.2 -1.2 -1.2
243.3 249.8 254.3 258.7 262.6 266.7 268.9 270.5 268.9 262.2 250.2 244.9 235.7 217.7 203.7 186.6 171.8 162.2 153.3 145.2 137.5 123.5 133.3 141.7 150.2 156.8 162.3 167.5 166.9 167.2 165.5 163.3 160.9 156.8 154.3 152.4 152.8 149.7 141 128.2 107.7 116.5 114.1 133.8 141.9 154.5 161.6 167.6 175.8 181.2 181.4 181.6 183.5 182.6 176.9 166.4 170.4 180.3 196.7 207.5 214.2 218.2 222.9 225.1 222.8 225.5 237.9 249.5 262.4 267.4 286.4 302.3 319.2 334.3 343.8 349.9 354 355.7 356.4 355.9 355.2 353.1 349.6 345.4 342.1 339.2 336.5 332.5 328.1 328 328.4 327.6 325.7 328.1 332.2 336.1 339.1 340.5 340.3 337.8 336.2 335.3 334.3 333.7 332.3 329 324.4 318.8 312.6 303.3 295.8 289.7 283.6 280.3 275.8 271.7 268 265.2 263.6 262.6 261.7 261 259.3 256.4 252.2 247.8 242.1 236.7 231 223.6 217.2 211 204.2 195.4 184.2 175.4 169 161.6 151.4 139.6 128.4 113.7 88.4 67.6 99.6 120.6 138.7 155.7 170.9 180.3 185.3 185.7 183.8 182.2 176.7 173 172.9 165.4 161.7 163.8 168.4 165.4 164.4 161.8 154 136.4 114.2 77.5 24.1 -1.2 -1.2 -1.2 -1.2 -1.2 -1.2 -1.2 -1.2 -1.2 -1.2 -1.2 -1.2 -1.2 -1.2 -1.2 -1.2 -1.2 -1.2 -1.2 -1.2 -1.2 -1.2 -1.2 -1.2 -1.2 -1.2 -1.2 -1.2 -1.2 -1.2 -1.2
239.3 244.1 249.7 254.1 258.2 263.1 264.5 263.8 265 260 249.7 246 240.5 224.6 214.7 196 176.2 164.7 154.9 146.6 139.1 131.2 115.2 131.4 139.3 146.8 151.4 155.8 158.8 160.3 160.9 158.6 153.3 149.3 146.5 142.9 144.9 140.2 124.4 99.6 132.8 145 140.6 133.4 120.6 125.4 134.2 141.6 150.7 158.1 148.5 157.9 155.2 157.6 167.9 183.4 194.1 194.9 184.2 186.5 196.4 201.7 206.7 211.9 226.8 237.9 247.1 260.2 275.7 286.3 294.6 306 322.4 337 347.8 353.9 357.9 359.9 361.7 362.6 361.3 359.1 355.4 351.7 347.7 344.5 341.8 338.5 333.8 326.5 321.7 322.9 321.5 324.6 328 332 335.8 338 337.6 335.4 332.8 329.7 328.4 328.8 327.5 326 322 316.9 311.9 303.3 295.7 292.9 285 282.1 277.8 272.2 269.7 265.8 264.2 263.3 262.3 261 259 255.9 251.7 247.5 242.8 237.1 230.7 224.2 216.2 210.8 203.9 196.3 185.8 176.5 168.9 160.3 149.5 139.1 127.5 110.4 77.1 73.7 95.2 117.5 135.3 151.1 163.3 173.5 180.2 181.1 180.1 177.2 171.6 167.3 164.6 161.7 156.5 156.3 160.9 160.6 154.9 150.7 140.3 121.5 104.6 75.5 -1.2 -1.2 -1.2 -1.2 -1.2 -1.2 -1.2 -1.2 -1.2 -1.2 -1.2 -1.2 -1.2 -1.2 -1.2 -1.2 -1.2 -1.2 -1.2 -1.2 -1.2 -1.2 -1.2 -1.2 -1.2 -1.2 -1.2 -1.2 -1.2 -1.2 -1.2 -1.2
237.2 241.5 246.5 252 256.4 259.6 262.3 262.2 259.4 256.6 249.1 244.7 236.5 228.8 213.6 202 181.2 167.6 157.6 151.9 142.7 132.2 122.4 119.5 128.1 135.9 142.4 147.8 152.3 154.5 155.2 154.9 150.2 143.7 138.4 131.7 136.1 124.6 100.2 125.4 144.8 155.6 159.3 155.7 153.1 154.7 156.5 156.8 159 161.9 167.9 174.4 181.5 185.9 173.4 195.1 205.5 207.9 208.1 206.7 209.3 214 220.7 228.5 239.5 247.4 259.2 272.8 285.7 296.8 304.4 313.3 329.7 343.6 352 357.9 362.7 366.1 367.2 367.1 366.7 364.5 361.3 357.6 354.3 350.3 346.6 342.7 338.4 333.3 326.5 321.7 315.7 320.2 324.9 328.3 331.4 334.3 334.7 333 329.8 324.8 323.5 323 323.4 322.7 320.6 315.8 308.2 301.6 296.2 290.8 286.4 283.1 278.2 272 268.3 265.6 262.6 262.1 261.6 259.9 256.6 253.8 250.5 245.9 240.7 234.5 227.7 221.5 215.4 209.9 203.3 198.6 189 178.7 167.3 160 149.9 138.8 126.7 107.8 77.5 72.2 90.6 113 131 146.8 156 163.5 170.9 173.6 173.5 173 169.9 167 161.4 156.5 150.1 146.3 148.9 145.7 137.3 132.2 121.4 108.8 91.2 -1.2 -1.2 -1.2 -1.2 -1.2 -1.2 -1.2 -1.2 -1.2 -1.2 -1.2 -1.2 -1.2 -1.2 -1.2 -1.2 -1.2 -1.2 -1.2 -1.2 -1.2 -1.2 -1.2 -1.2 -1.2 -1.2 -1.2 -1.2 -1.2 -1.2 -1.2 -1.2 -1.2
235.4 242 245.7 251 256.8 259.9 261.4 261.5 258.6 254.4 248.9 244 238.6 232.2 222.5 201 181.9 168.4 160.4 152 144.9 134 125.3 104.4 116.9 124.9 132.1 137.9 144.2 148.1 149.9 150.7 146.2 134.9 125.1 117.2 108.9 95.7 116.2 136.1 153.3 160.9 170.9 173.6 171.9 175.9 182.8 185.3 187 189.1 193.5 198.4 201.5 193 180.5 199.9 210.2 213.6 217.3 221.2 225 230.1 235.3 241.7 251.4 263.9 276.1 286.7 295.1 304 314.2 326 338.3 348.9 356.2 362.8 367.3 370.8 371.5 371.1 370.9 370.1 367.7 364.5 360.7 355.2 350.1 345.6 339.5 336 331.1 326.5 321.8 312.8 320.5 325 327.3 329.3 330 329.4 326.7 323.1 320.2 318.7 318.7 318.7 318.5 313.5 307.3 302.3 296.6 290.6 284.7 281.6 277.3 269.5 264 263.1 260.6 259 259.4 257.1 254.2 251.5 246.3 242.6 236.1 230.6 225 218.7 212.7 207.5 200.6 194.3 187.7 178.1 167.7 157.1 148.7 137.5 126.8 111.8 86.3 65 88.8 110.5 125.9 136.3 147.9 156.1 160.1 164.1 170.5 170.9 171.4 167.3 157.8 150.4 146.3 137.5 132.7 131.4 124.7 86.1 77.3 70.9 56.3 -1.2 -1.2 -1.2 -1.2 -1.2 -1.2 -1.2 -1.2 -1.2 -1.2 -1.2 -1.2 -1.2 -1.2 -1.2 -1.2 -1.2 -1.2 -1.2 -1.2 -1.2 -1.2 -1.2 -1.2 -1.2 -1.2 -1.2 -1.2 -1.2 -1.2 -1.2 -1.2 -1.2
235.3 240.7 244.8 250.1 255.5 258 259.4 259.5 257.4 253.7 250.8 243.3 236.3 226 220 200.4 180.6 168 160.5 154.4 147 136.1 126.8 115.8 105.7 114.7 121.6 127.9 134.2 139.9 143.4 145.4 141.7 129.7 101.2 89.1 95.4 114.8 130.6 147.6 158.7 164.2 169.5 176.3 176 179.2 192.9 198 203.7 207.2 210 211.1 212.3 200.9 179.7 199.1 209.4 215.6 219.4 226.6 233.9 241.1 249 258.8 268.8 279 288.7 296.7 306.5 314.9 326.7 338.2 347 355.2 361.9 367.5 371.6 374.1 376.5 376.2 375.5 373.4 371.9 368.8 365 359.1 353.5 348.6 344.1 339.9 336 331.2 327.1 319.8 314.7 321.4 324.2 325.5 325 324.4 323.9 321.4 318.4 316.7 316.4 316 315.7 313.7 307.6 299.3 294.3 289.1 285.2 279.6 272.6 265.1 260 257.2 256.7 255 253.9 252 250 247.4 243.1 238.1 232.6 228.4 226.2 219.9 211.5 205.5 198.5 191.2 182 175.3 167.8 156.1 145.1 137.8 125.9 112.4 84.4 60.6 83.4 99.5 119.3 129.7 137.4 145.9 151.7 155.9 163.9 168.9 171.8 168.9 157 146.2 138.8 128.8 123 119 98.6 36.2 -1.2 -1.2 -1.2 -1.2 -1.2 -1.2 -1.2 -1.2 -1.2 -1.2 -1.2 -1.2 -1.2 -1.2 -1.2 -1.2 -1.2 -1.2 -1.2 -1.2 -1.2 -1.2 -1.2 -1.2 -1.2 -1.2 -1.2 -1.2 -1.2 -1.2 -1.2 -1.2 -1.2 -1.2 -1.2 -1.2
233.5 238.6 242.5 246.1 251.1 255.3 257 257.3 255.3 251.5 246.7 241.1 233.8 227.4 211.8 197.4 179.5 167 160.8 154.9 148.2 140.2 127.1 117.6 101.3 103.9 112.7 119.7 126 132.4 136.8 137.8 126.2 106.9 88.3 103.1 116 119.4 135.1 147.1 156.6 163.3 166.1 171.6 174.1 178.4 191.5 201.6 204.3 211.5 214.7 214.2 218.4 212.8 200.9 190.5 195.2 204.2 212.9 224.5 234.8 244.8 255.9 267 275.9 285.7 295.7 306.5 316.1 328 337.7 348.5 356.1 363.6 368.8 373.3 376.3 379.5 380.4 380.9 379.2 377 374.8 372.2 368.6 363.5 358.2 351.7 346.4 343.1 339.3 336.2 332.5 324.4 306.5 316.6 321.2 322.1 321.9 321 320.3 319.9 317.2 315.2 313.1 312.9 313.6 313.1 308.9 302 295.8 291.4 286.1 279.6 271.9 264 258.8 253.5 251.1 249.2 246.8 246 243.9 241.6 237.6 233.9 231.1 227.1 224.2 217.9 210 203.7 197.3 189 179.3 172 165.1 156.3 143.9 135 127.2 115.6 96.1 65.2 66.5 83.4 111.9 124.5 131.1 137.7 142.9 148.9 156.8 168.4 170.2 166.3 153.6 139.9 130.4 118.1 111.8 105.4 79.4 1.8 -1.2 -1.2 -1.2 -1.2 -1.2 -1.2 -1.2 -1.2 -1.2 -1.2 -1.2 -1.2 -1.2 -1.2 -1.2 -1.2 -1.2 -1.2 -1.2 -1.2 -1.2 -1.2 -1.2 -1.2 -1.2 -1.2 -1.2 -1.2 -1.2 -1.2 -1.2 -1.2 -1.2 -1.2 -1.2 -1.2
231.8 236.2 240.9 244.7 245.8 247.9 250.8 252.6 251.3 250.5 247.1 241.2 234.7 227.1 205 191.2 176.9 169.9 158.9 153.7 147.6 138.7 130.2 120.6 107.6 87.4 100.6 110.7 117.8 125.3 130.7 119.2 107.3 87.2 91.1 113.8 128.1 137.8 137.3 137.1 150.9 159 164.2 169.2 171.7 176.8 185.7 192.1 199.1 204.9 207.8 212.8 215.4 218.1 217.3 212.8 209.5 209 206.1 216.1 230.8 243 255.6 268.3 279.7 289.6 300.2 311.4 324.3 337.4 348.6 357.8 364.8 372.6 377.6 382 384.6 385.4 386.1 384.2 383.3 381.9 379 375.7 372 368.1 362.1 356 350.2 347.1 344.7 341.3 336.9 329.3 313.9 310.6 315.9 320.9 320.2 319.3 316.8 316.3 316 315.4 311.7 306 309.9 311.5 309.3 302.7 295.9 290.8 285.5 278.6 270.7 261.8 254.9 249.7 245.2 243.4 241.9 239.6 237.9 235.8 233.4 230.5 227.8 223.6 214.8 212.2 204.1 198.3 194 187 178.3 171 164.7 156 145.3 135.9 126.6 116.9 105 80.9 56.7 71.9 101.9 118 128.3 133.2 138.5 143.3 153 166.7 167.6 161.5 147.4 131.2 117.7 107 97.7 73.6 52.5 37.6 -1.2 -1.2 -1.2 -1.2 -1.2 -1.2 -1.2 -1.2 -1.2 -1.2 -1.2 -1.2 -1.2 -1.2 -1.2 -1.2 -1.2 -1.2 -1.2 -1.2 -1.2 -1.2 -1.2 -1.2 -1.2 -1.2 -1.2 -1.2 -1.2 -1.2 -1.2 -1.2 -1.2 -1.2 -1.2 -1.2
227.1 232.2 238.3 241.1 243.1 244.5 250.8 252.8 250.7 247.2 245.2 241.5 234.5 223.3 210.4 189.9 173.5 167.9 156.8 149.6 144.1 138.1 129.1 121.5 112.1 98.7 79.6 97.3 109.9 117.7 120.1 106.3 83.3 88.8 107.6 127.3 142.3 151.9 155.6 156.1 159.4 163.8 165.5 165.4 169 175 185.4 190.7 193.3 199.4 200.8 205.6 210.9 218.5 220.8 222.8 224.6 224.8 222.6 220.6 222.4 237.4 252.8 268 280 290.8 302.9 317.2 329.1 343.3 355 366.1 375.2 382.8 386.8 390.5 392.6 392.5 392 390.6 388.5 386.8 384.3 381.2 376.2 372.2 366.6 360.4 354.7 351.4 348 345.2 340.5 333.1 319.9 299.6 312 318.6 320.3 319.6 318.2 315.4 309.6 311.8 308.4 304.3 301.9 308.9 308.9 302.6 294.4 287.1 282.6 275.3 265.1 256.4 250.7 246.4 243 240.5 236.7 234.3 231.9 230.2 228.5 222.3 218.9 217.2 216 210.5 202 194.5 189.5 182.8 175.7 170.3 164.8 156.7 146.7 137.8 129.1 119 109.3 92.4 65 59.7 87.4 112.4 126.5 132 135.2 140.7 146.4 153.4 152.1 146 130.4 114.6 101.3 92.7 84.2 34.1 -1.2 -1.2 -1.2 -1.2 -1.2 -1.2 -1.2 -1.2 -1.2 -1.2 -1.2 -1.2 -1.2 -1.2 -1.2 -1.2 -1.2 -1.2 -1.2 -1.2 -1.2 -1.2 -1.2 -1.2 -1.2 -1.2 -1.2 -1.2 -1.2 -1.2 -1.2 -1.2 -1.2 -1.2 -1.2 -1.2 -1.2 -1.2
221.8 227.6 232 235.3 239.5 241.7 246.4 249.9 252.4 249.7 246.1 240.1 233 225 210 192.8 176.3 161.2 154 143.5 138.5 133.6 127.5 121.6 113.5 102.6 86 86.1 100.4 107 104.4 91 80.5 106.8 126.3 141.2 152 159.5 166.2 166.9 167.7 169.2 168.7 168.7 168.5 171.2 179.1 189.8 193.7 196.6 201.3 205.6 209.7 215.6 221.2 224 228.1 230.3 233.8 236.1 236.1 232.9 251 266.3 279.4 290.9 303.4 316.3 330.4 343.8 357.6 370.1 380.4 387.9 393.5 398 400.4 400 398.4 396.3 394.7 393.2 390.4 387.8 382.9 377.7 370.5 364.5 358.9 354.2 350.9 347.3 341.8 334.2 321.7 299.1 305.5 315.4 322 321.3 320.5 319.1 314.7 310.8 303.8 298.2 295.8 302.5 304.2 300 293.8 285.6 277.3 271.8 261.1 250.3 245.9 242.8 240.7 238.7 234.7 231.9 228.5 225 222.9 220.9 217.7 214.8 211.5 207.1 198.6 191.3 187.4 180.7 173.7 169.1 163.8 155.4 145.6 137.6 131.9 122.8 111.9 101.4 78.6 48.5 73.5 104.1 121.2 128.6 132.4 136.4 140.8 141.3 139.8 132.2 116.1 98.7 84.4 74.1 48.9 3.3 -1.2 -1.2 -1.2 -1.2 -1.2 -1.2 -1.2 -1.2 -1.2 -1.2 -1.2 -1.2 -1.2 -1.2 -1.2 -1.2 -1.2 -1.2 -1.2 -1.2 -1.2 -1.2 -1.2 -1.2 -1.2 -1.2 -1.2 -1.2 -1.2 -1.2 -1.2 -1.2 -1.2 -1.2 -1.2 -1.2 -1.2 -1.2
215.7 221.4 226.6 230.8 233.7 235.6 238.5 241.4 244.3 245.8 243.8 239.6 234.5 229.7 219.5 205.1 185.2 163.5 147.3 139.4 129.2 126 121.1 119.1 110.6 101.6 89.2 82 93.9 91.1 91.2 76.6 86.5 110.9 134.4 145.8 157.6 166 172.6 176.8 180.3 182.5 181.4 177.9 173.6 172.5 177.6 185.9 193.8 198.3 202.2 206.1 211.7 217.4 222 228.3 233.3 239.6 243.8 248.2 250.2 245.7 246.6 264.4 278.4 289.5 300.7 313 327 341.5 358.2 371.5 380.8 388.8 395.1 399.2 402.5 402.8 401.3 400.5 400.3 398.4 396.6 393.4 389.4 382.8 374.3 365.7 359.2 354.8 350.4 346.3 341.1 333.7 321.4 303.1 294.9 311.3 322.2 323.7 323.2 322.8 320.6 316.3 310.5 304.5 295.1 292.7 297.8 295 290.2 284.5 274.8 264.8 255.5 245.5 243.8 240.6 238.6 237.1 234.2 230.2 228.1 222.4 218.9 217.5 214.8 210.9 206.7 202.9 195.2 189.2 184.2 180.6 173.8 166.9 161.7 155.7 146.2 140 131.8 124.7 114.8 104.5 80.1 57 57.2 89.1 113 120.9 124.7 127.5 129.7 132.3 126.7 115.8 102.5 77.2 64.9 13.6 -1.2 -1.2 -1.2 -1.2 -1.2 -1.2 -1.2 -1.2 -1.2 -1.2 -1.2 -1.2 -1.2 -1.2 -1.2 -1.2 -1.2 -1.2 -1.2 -1.2 -1.2 -1.2 -1.2 -1.2 -1.2 -1.2 -1.2 -1.2 -1.2 -1.2 -1.2 -1.2 -1.2 -1.2 -1.2 -1.2 -1.2 -1.2 -1.2 -1.2
210.7 218.2 224 228.8 232.1 233.9 233.4 232.4 235.8 240.7 239.3 233.5 228.3 227.5 220.4 206.3 189.7 167.2 146.4 133.2 124.8 117.5 114.8 115.1 104.3 97.6 87.5 72.4 70.6 74.1 75.3 83.8 104 118.7 137.7 148.1 159.7 172.3 180.6 186.3 194.5 198.5 197.4 191.4 186 182.2 180.4 187.3 195.5 199.8 204.1 210.7 217 223 229.5 235.1 241 246.6 251.3 256.2 260.6 262.2 259.2 253.5 272.5 286.2 297.7 310.5 322.9 340.8 357.1 371 380.2 387.5 393.5 397.1 400.4 401.3 401.7 401.8 402.6 402.7 401.1 398.3 393.3 386.9 376.9 365.9 357.1 351.9 347.7 343.5 337.9 329.9 318.7 302.3 286.5 307.1 322.2 327.1 327.6 326.9 324.2 319.6 314.2 308.3 300 289.8 288.5 290.3 284.9 280.5 269.5 263.9 254.7 245.7 242.4 239.7 237.8 234.8 232.5 230.2 226 220.5 215.5 213.3 210 206.5 204 199.2 193.8 187.3 182.7 178.6 173.8 167.2 159.9 152.9 147.4 139.5 131.7 124.3 118.6 104 74.1 57.2 43.7 72.4 105.1 118.5 120.3 118.4 115.3 113.8 113.1 102.6 75.6 30.3 24.1 -1.2 -1.2 -1.2 -1.2 -1.2 -1.2 -1.2 -1.2 -1.2 -1.2 -1.2 -1.2 -1.2 -1.2 -1.2 -1.2 -1.2 -1.2 -1.2 -1.2 -1.2 -1.2 -1.2 -1.2 -1.2 -1.2 -1.2 -1.2 -1.2 -1.2 -1.2 -1.2 -1.2 -1.2 -1.2 -1.2 -1.2 -1.2 -1.2 -1.2 -1.2
201.2 211.1 219.5 223.5 226.8 229.9 229.1 228 226.4 225.1 230.7 225.9 227.8 224.9 207 194.4 185.7 169.1 148.2 129.1 117.3 109.2 108.2 109.5 98.4 88.8 77 59.4 69.4 71.5 91 107.7 118.5 131.3 144.3 154.2 169 181.6 191.3 197.9 203.3 205 203.1 202.4 195.8 190.9 189 193.9 197.1 204.3 210.9 221 226.1 232.2 237.5 242.4 247 254.1 259.3 265.3 269.3 272.6 275 275.4 271.8 287.5 298.6 309.6 324.9 343.9 356.8 369 378.1 385.5 391 395.2 398.4 399.9 401.3 402.2 403.4 404.3 402.6 399.9 395.5 387.6 377.7 367.7 357.8 350.9 346 340.6 334.1 325.3 314.3 297.3 280.7 305.5 322 328.8 331.5 330.5 328.5 324.3 318 311.6 304 293.6 280.2 281.4 281.1 276.3 269 261.9 253.6 247.2 239.7 238 235.3 232.3 230.1 229.4 225.3 219.7 215.5 209.9 206.8 201.8 199 196.6 193.2 186.5 180.9 175.7 170.8 165.5 159.8 153.2 146.2 139.3 129.9 125.9 104.3 98.9 100.7 76.5 42 55.5 89.3 112.3 111.8 108.4 100.9 93.6 87.8 77.5 48.4 -1.2 -1.2 -1.2 -1.2 -1.2 -1.2 -1.2 -1.2 -1.2 -1.2 -1.2 -1.2 -1.2 -1.2 -1.2 -1.2 -1.2 -1.2 -1.2 -1.2 -1.2 -1.2 -1.2 -1.2 -1.2 -1.2 -1.2 -1.2 -1.2 -1.2 -1.2 -1.2 -1.2 -1.2 -1.2 -1.2 -1.2 -1.2 -1.2 -1.2 -1.2 -1.2 -1.2
192.8 201 206.3 215.4 218.9 221.3 221.6 219.7 217.2 213.9 209.4 210.6 214.6 214.1 207.8 201 171 163.4 147.3 127.5 112.5 105.4 101 96.7 87.9 77.7 57.9 66 86.8 99.8 114 123.5 135.6 145.1 153.4 164.7 176.1 186.9 197 205.3 209.3 209.4 207.6 205.7 204.1 199.3 199.2 202 205 213 222.1 229.7 233.5 238.7 244.6 250.3 254.9 262.8 269.4 274.2 278.2 281.4 284.3 286.3 279 288.5 300 312.7 329.5 345.6 357 369.1 376.9 383.7 389 392.7 395.4 397.5 399.4 400.7 403.3 403.9 402.8 400.7 396.3 388.5 379.6 368.6 359.9 350.9 343.7 337.4 330.5 321.3 310.5 290.5 279 299.9 315.2 325.3 330.7 331.5 330.5 327.8 321.9 314.3 306.5 296.9 282.2 273.5 271.5 268 267.4 257 251.6 247.4 240.8 237.1 233.9 229.8 229 227.8 224.7 220.4 215.2 209.8 203.7 198.9 195.4 192.5 189.8 185.3 180.5 176 170.5 165.1 157.2 151.1 144.4 142.7 137.9 132.3 124 117.3 105.4 79.5 51.3 42.4 71.1 94.4 101.7 96.4 85.9 75.7 65.8 39.1 -1.2 -1.2 -1.2 -1.2 -1.2 -1.2 -1.2 -1.2 -1.2 -1.2 -1.2 -1.2 -1.2 -1.2 -1.2 -1.2 -1.2 -1.2 -1.2 -1.2 -1.2 -1.2 -1.2 -1.2 -1.2 -1.2 -1.2 -1.2 -1.2 -1.2 -1.2 -1.2 -1.2 -1.2 -1.2 -1.2 -1.2 -1.2 -1.2 -1.2 -1.2 -1.2 -1.2 -1.2
181.6 189.7 200.6 205.4 209.7 213.3 212 210.9 209.7 205.8 204.5 194.3 192.6 190.5 183.2 178.6 167.5 152.8 142.5 125.9 109.8 101.5 95.5 90.1 78.5 64.2 65.5 87.1 98.4 107.4 122.9 133.8 142.4 149.3 157.7 165.4 177.3 188.4 197.6 204.4 209 212.9 213.6 208.1 206.5 204.7 206.1 210.8 212.5 222.3 229.8 236.9 242.5 246.9 252.3 257.5 263.4 271 277.3 282.6 286.5 290 293.4 294.5 296.5 297.6 303.3 315 332.8 347.1 358.2 368.2 375.1 381.4 386 388.4 391.8 395.5 398.3 400 401.6 403.7 402.3 400.4 396.6 389.9 380.7 369.3 360.1 350.2 342 334.1 325.5 313.6 302.1 282.9 270.7 287.9 302.7 315.2 322.3 327.7 328 326.2 322.4 315.8 307.8 298.9 286.4 272.8 265.6 262.6 261.5 252.8 249.3 245.5 240.4 236.5 232.6 229.2 227.8 225.4 223.5 220.1 216.8 208.2 204 200.1 195 191.5 187.2 184.3 181 176.4 169.5 167.8 162.8 158.7 154.6 149.2 144.8 141.1 137.7 128.8 114.3 92.7 67 35.8 55.2 72 84.3 84.1 75.4 56.7 28 -1.2 -1.2 -1.2 -1.2 -1.2 -1.2 -1.2 -1.2 -1.2 -1.2 -1.2 -1.2 -1.2 -1.2 -1.2 -1.2 -1.2 -1.2 -1.2 -1.2 -1.2 -1.2 -1.2 -1.2 -1.2 -1.2 -1.2 -1.2 -1.2 -1.2 -1.2 -1.2 -1.2 -1.2 -1.2 -1.2 -1.2 -1.2 -1.2 -1.2 -1.2 -1.2 -1.2 -1.2 -1.2
166.8 178.2 189.8 199.9 205.3 206.1 209 204.5 202.5 201.1 192.8 185.2 177.6 180.6 169.6 162.2 155.7 153.1 141.6 123.9 107 97.4 91.7 86.6 75.1 57 70.9 88.7 101.9 113.5 124.3 135.4 144.7 151.6 158.2 165.4 174.8 187.1 196.9 203.3 210.3 212.9 214.8 212.9 208.9 208 213.4 217.9 219.2 226.5 232.4 238.2 245.5 250.2 258.3 263.4 269.3 275.9 282.3 287.1 292.8 296.9 300.7 303.2 307.5 310.1 312.7 324.5 336.1 347.8 358.3 366.8 373.9 378 383.6 387.2 390.8 393.9 397.4 399.5 401.8 403.2 402.1 400.5 397.6 391.9 383.7 372.1 363.4 354.1 344.7 334.5 323.5 309.2 295 277.3 257.9 274 288 297.1 308.2 316.1 320.2 320 317.7 314.1 307.8 298 287.9 276 263.8 255.3 251.9 250.2 247.5 241.8 238.5 235.7 233.1 229.7 226.5 224.2 222 220.2 217.5 211.8 204.8 204.2 200.4 195.8 190.3 184.8 181.4 179 175 172 167.7 165.2 161.4 156.5 151.5 149.4 146.3 139 125.5 106.8 80.6 51 31.5 52.2 62.3 62.5 -1.2 -1.2 -1.2 -1.2 -1.2 -1.2 -1.2 -1.2 -1.2 -1.2 -1.2 -1.2 -1.2 -1.2 -1.2 -1.2 -1.2 -1.2 -1.2 -1.2 -1.2 -1.2 -1.2 -1.2 -1.2 -1.2 -1.2 -1.2 -1.2 -1.2 -1.2 -1.2 -1.2 -1.2 -1.2 -1.2 -1.2 -1.2 -1.2 -1.2 -1.2 -1.2 -1.2 -1.2 -1.2 -1.2 -1.2 -1.2
149.9 161.7 177.7 190.3 198.5 203.6 203.7 200.7 194.6 192.4 188.6 179.5 167.9 162.7 162.9 151.3 140.3 132 129.7 120.4 103.7 92.3 87.5 81.9 69.9 51.3 80.8 93.3 105.6 117.2 123.6 134.6 144.2 151.8 157.7 163.9 170.5 181.7 192.3 199.9 207.8 211.4 213.5 213.6 212.6 214.9 217.2 223.3 226.2 229.6 235 239 244.5 250.2 258.5 266.6 273.2 279.4 285.8 289 295.9 302.3 308.1 312.7 318.5 322.8 325.1 335.9 344.8 352.8 360.1 367.1 373 379.1 382.1 386.1 389.5 393.8 396.8 399.1 401.4 402.9 402.5 400.5 397.7 393.5 386.7 376.7 367 358.2 349.4 338.6 325.7 310.2 296 276.8 261.3 261.4 276.6 285.9 294.1 300.1 307.5 310.8 310.8 309.6 306.1 299.2 289.6 275.9 262.6 253.6 245 244.1 242 237.5 234.5 233.1 232.2 226.6 225.9 224 221.9 220.3 217.4 212.9 210 206.7 204.1 200.3 196.2 190.9 185 183.1 179 175.1 172.6 170.2 167.6 164.4 160.2 158.9 154.2 146.9 136.8 120.5 100.3 74.7 46.5 30.8 34.3 -1.2 -1.2 -1.2 -1.2 -1.2 -1.2 -1.2 -1.2 -1.2 -1.2 -1.2 -1.2 -1.2 -1.2 -1.2 -1.2 -1.2 -1.2 -1.2 -1.2 -1.2 -1.2 -1.2 -1.2 -1.2 -1.2 -1.2 -1.2 -1.2 -1.2 -1.2 -1.2 -1.2 -1.2 -1.2 -1.2 -1.2 -1.2 -1.2 -1.2 -1.2 -1.2 -1.2 -1.2 -1.2 -1.2 -1.2 -1.2 -1.2
130.9 144.1 158.2 174.1 188 196.2 199.9 200.2 195 187.4 178.7 171.9 164.3 154.5 146.4 140.3 132.1 119.5 112.6 109 98.2 86.2 80.4 77 66 53.2 77.2 94.7 107.7 116.7 126.6 136.4 146.6 154.3 159.8 165.5 171.2 178 187 194.6 207.2 212.4 213 214.6 215.1 221.5 227.2 227.4 228.4 233.4 236 240 245.3 251.2 255.5 263.1 270 277.8 284.5 291.2 297.6 307.4 315.5 323.5 329 335.7 341.4 348.7 354.2 359.2 365.2 372 377 380.6 383.6 387.7 390.4 393.4 396.4 398.7 400.1 401.6 401.4 399.2 396.8 392.9 387.1 380.2 370.8 363 353.4 343.6 331.8 318.2 296.5 282.2 262.4 247.4 262.8 272.8 281.1 289.5 295.9 299.5 301.3 301.8 301.9 297.5 288.6 276.6 262.2 252 245.1 237.7 234 232.3 231.5 230.8 227.3 228.5 226.1 223.8 222.1 220.5 218.3 215.2 212.2 209.4 206.8 204 200.1 196.1 191.9 188.6 186 182.5 177.9 176 175.6 174 172.4 168.1 166.2 158.9 149.5 135.7 116.4 92.4 71.7 41.5 26.3 -1.2 -1.2 -1.2 -1.2 -1.2 -1.2 -1.2 -1.2 -1.2 -1.2 -1.2 -1.2 -1.2 -1.2 -1.2 -1.2 -1.2 -1.2 -1.2 -1.2 -1.2 -1.2 -1.2 -1.2 -1.2 -1.2 -1.2 -1.2 -1.2 -1.2 -1.2 -1.2 -1.2 -1.2 -1.2 -1.2 -1.2 -1.2 -1.2 -1.2 -1.2 -1.2 -1.2 -1.2 -1.2 -1.2 -1.2 -1.2 -1.2
110.6 125.5 141.4 154.8 170.3 182.2 193.2 192.7 189.8 185.4 177.7 168 155.6 145.8 137.4 130.2 121.9 111.7 100.8 94 87.7 81.1 75.6 70.4 63 50.8 77.4 89.8 103.7 116.7 129 138.6 147.3 153.3 159.2 167.3 173.4 180.6 188.5 191 199.8 207.4 212.7 214.7 217.1 221.2 229.7 231.1 231.4 233.7 237.8 244.8 247.1 254.2 259.4 263 268.8 277.7 287.4 295.5 302.4 309.5 321.7 331.9 341.6 347.3 353.1 359.2 362.7 365.4 370.9 375.1 379.4 383 385.8 388.6 390.9 393.7 395.9 397.6 399 399.6 399.8 397.7 394.7 391.4 387.3 382.2 374.2 366.8 359 348.5 337.6 325.2 307.4 287.8 269 251.4 248.3 256.4 267.4 273.4 280.8 288.5 293.2 295.7 295.6 294 288.6 277.9 264.3 252.3 247.2 239.5 233.3 228.3 228.6 226.6 225.9 226.8 225.4 224.3 222.2 219.7 217.1 215.6 213.5 211 208.1 206 203.7 200.2 196.5 193.8 191.2 188.9 186 184.3 183 181.2 180 177.7 173.7 166.9 159.5 148.7 129.2 107.1 86.3 70 46.8 -1.2 -1.2 -1.2 -1.2 -1.2 -1.2 -1.2 -1.2 -1.2 -1.2 -1.2 -1.2 -1.2 -1.2 -1.2 -1.2 -1.2 -1.2 -1.2 -1.2 -1.2 -1.2 -1.2 -1.2 -1.2 -1.2 -1.2 -1.2 -1.2 -1.2 -1.2 -1.2 -1.2 -1.2 -1.2 -1.2 -1.2 -1.2 -1.2 -1.2 -1.2 -1.2 -1.2 -1.2 -1.2 -1.2 -1.2 -1.2 -1.2
92.8 105.9 120 137.7 155.2 170.4 179.6 180.6 181.3 181.1 179.6 170.7 158.9 147.4 133.4 124.5 115.2 105.7 95.3 85.1 77.8 73.2 69.4 65.5 58.4 53.5 74.9 87.4 104.2 115.9 128.5 141.1 146.7 151.4 156.5 165.7 171 178.7 186.5 193.4 197.9 203.8 207.7 214.3 221.5 223.9 232.8 233.8 234 235.8 237.9 244.7 248.9 253.8 259.8 264.4 274.3 281.3 289.4 296.7 303.8 313.1 327 337.3 347.8 357.2 362.9 366.7 370.6 372.6 373.8 378.3 380.9 382.7 384.6 387.5 390.6 392.9 395.2 396.9 397.7 397.8 398 396.3 394.4 391.7 388 383.7 377.4 370 363.2 353.8 343 330.9 315.4 297.8 278.2 263.1 241.7 238.6 247.5 252.2 260.1 269.8 281 289 291.2 288.9 284.1 274.3 262.5 253.1 247.8 241.8 234.8 229.5 223.2 225.6 220.6 222.9 223.8 221.7 220.4 217.7 216.9 215.3 213.5 211.1 209.1 207 204.4 201.7 199.4 196.7 194.8 192.9 191.2 189.8 187 185.6 184.1 182 178.1 172.7 165.4 153.2 139 116.8 95.5 77.7 57.9 -1.2 -1.2 -1.2 -1.2 -1.2 -1.2 -1.2 -1.2 -1.2 -1.2 -1.2 -1.2 -1.2 -1.2 -1.2 -1.2 -1.2 -1.2 -1.2 -1.2 -1.2 -1.2 -1.2 -1.2 -1.2 -1.2 -1.2 -1.2 -1.2 -1.2 -1.2 -1.2 -1.2 -1.2 -1.2 -1.2 -1.2 -1.2 -1.2 -1.2 -1.2 -1.2 -1.2 -1.2 -1.2 -1.2 -1.2 -1.2 -1.2
77.7 89.5 100.3 114.6 132.4 153.5 168.1 175 175.4 176.2 177.2 176.1 167.7 156.4 138.8 122.7 115.5 102.9 91.4 81.9 72.9 65.8 63.1 62.3 54.8 47.5 70.3 89 99.5 109.2 120.6 133.8 145.4 149.1 154.1 161.4 168.3 176.1 182.9 191.1 198.6 202.6 205.9 212.2 219.6 225.3 229.9 234 235.4 238.5 241.2 244.4 250.9 257.2 264.7 268.8 275.6 280.4 289.3 295 301.1 315.8 328.6 341.1 352.8 361.9 368.4 372.3 374.8 377 378.1 379.7 381.3 383.8 385.1 386.4 389.2 391.8 394.3 396.2 397.2 397 396.7 395.9 394.5 392.3 389.6 385.7 380.3 373.6 367.1 358.4 347.2 335.7 322.5 309.5 291.1 277.3 261.1 245.5 226 225.7 236.9 247.1 261.9 276.6 282.9 282.3 275.7 269.9 263.8 256 247.4 241.8 236.1 231.5 227.9 223.1 213.8 216 217.3 217.6 216.6 215 214.8 213.2 210.6 208.7 206.7 205.4 204 201.9 199.9 198.3 197.5 196.4 194 192.5 189.6 187.2 185.5 182.8 177.7 170.3 163.3 149.6 136.2 116.2 94.4 74.6 59.8 -1.2 -1.2 -1.2 -1.2 -1.2 -1.2 -1.2 -1.2 -1.2 -1.2 -1.2 -1.2 -1.2 -1.2 -1.2 -1.2 -1.2 -1.2 -1.2 -1.2 -1.2 -1.2 -1.2 -1.2 -1.2 -1.2 -1.2 -1.2 -1.2 -1.2 -1.2 -1.2 -1.2 -1.2 -1.2 -1.2 -1.2 -1.2 -1.2 -1.2 -1.2 -1.2 -1.2 -1.2 -1.2 -1.2 -1.2 -1.2 -1.2
57.3 70.1 81.7 95.2 109.7 126.5 145.6 161.4 169.9 173.1 174.3 173.5 172 164.2 147.9 132.3 117 107 96 83.6 73 64.4 58.2 57.5 51.7 43 70.2 81.4 91.5 100.3 110.7 121.6 134 145.6 151.1 158.8 166.6 175.5 182.8 189.2 197.3 202.2 207.2 212.4 217.6 221.6 227.4 232.3 236.7 240.4 242.7 245.7 251.1 256.8 261.7 268.1 274.6 280.6 288 292 298.7 312.8 327.5 343.3 355.9 365.5 372 376.1 378.2 379.7 380.2 380.9 380.7 382.7 383.6 384.5 387.1 390.1 392.5 395 396.6 396.7 396.7 396.2 395.4 394.1 391.9 388.6 383.3 377.5 370.4 360.3 349.8 337.9 326.6 317.2 304.6 292.3 279.6 266.5 251.3 237.5 218 224.9 244.9 264.2 273.5 275.9 271.9 267 261.8 255.8 248.2 240.1 235.1 231 227.2 222.4 215.9 209.6 211.3 212.9 212 212 210.5 210.1 208 204.3 201.9 200.6 200.3 200 199 198.8 198.2 197 195.1 192.3 189 186.1 182.9 178.6 168.8 156.7 148 128.7 110.3 90.7 76.6 -1.2 -1.2 -1.2 -1.2 -1.2 -1.2 -1.2 -1.2 -1.2 -1.2 -1.2 -1.2 -1.2 -1.2 -1.2 -1.2 -1.2 -1.2 -1.2 -1.2 -1.2 -1.2 -1.2 -1.2 -1.2 -1.2 -1.2 -1.2 -1.2 -1.2 -1.2 -1.2 -1.2 -1.2 -1.2 -1.2 -1.2 -1.2 -1.2 -1.2 -1.2 -1.2 -1.2 -1.2 -1.2 -1.2 -1.2 -1.2 -1.2 -1.2 -1.2
42.5 49.9 64.8 77.9 90.1 105.2 122.9 141.1 155 165.7 171.4 172.2 169.9 165 156.1 140.9 124.7 109.8 100 88.1 77.5 67.3 58 53.8 49.7 44.8 64 75.4 83.5 91.7 99.6 109.8 121.8 133.9 145 153 163.4 171.3 179.4 186.3 194.8 201.5 205 212.2 219.6 222.4 229.7 231.1 237.5 241.6 245.6 249.2 251.8 257 261.2 266.8 270.5 277 282.5 286.5 296 309.3 328.9 345 357.8 367.6 375 378.5 379.5 379.8 378.5 378.3 377.9 377.6 378.6 381.4 384.3 387.3 390.7 393.2 395.6 397 397.3 397.2 396.6 396 393.9 390.8 385.6 379.2 372.1 362.1 350.9 338.8 329.6 320.4 313.4 306.6 296.4 283.4 269.7 254.2 231.5 206.2 230.7 253.7 266.3 268.1 266.7 262.2 256.8 252.4 246.3 238 233.3 229.7 227.8 222.5 216.8 211.6 203.8 206.1 207.6 207.8 206.2 205.7 201.9 199.3 197.6 196.9 196.3 196.2 196 195.3 195.7 195.7 193.8 191 185.7 178.9 177.5 169.8 151.7 139.6 122.6 102.6 86 67.6 53.8 -1.2 -1.2 -1.2 -1.2 -1.2 -1.2 -1.2 -1.2 -1.2 -1.2 -1.2 -1.2 -1.2 -1.2 -1.2 -1.2 -1.2 -1.2 -1.2 -1.2 -1.2 -1.2 -1.2 -1.2 -1.2 -1.2 -1.2 -1.2 -1.2 -1.2 -1.2 -1.2 -1.2 -1.2 -1.2 -1.2 -1.2 -1.2 -1.2 -1.2 -1.2 -1.2 -1.2 -1.2 -1.2 -1.2 -1.2 -1.2 -1.2 -1.2 -1.2
31.8 36.3 43.5 54.7 70.1 84.3 98.4 116.8 134.8 152.5 163.1 167.6 169.2 163.5 156.2 147.8 135.5 117.7 104 91.9 81.4 71.1 61.1 52.4 46.6 42.8 56.4 68 75.5 82.5 89.1 96.3 106.9 118.9 131.5 143.2 151.1 162.7 170.8 180.7 192.5 197.6 200.9 206.5 214.1 218.1 227.5 228.5 231.6 240.8 244.7 250.4 254.9 257.8 260.1 265.3 269.3 274.9 280.9 285.2 294.1 311 329.6 344.6 357.5 367.1 373.8 378.3 379.1 378.2 377.1 375.2 371.4 372.4 375.2 377.7 379.7 383.1 386.8 391.2 393.9 396.2 397.6 398.1 397.6 396.4 393.9 390.2 384.9 378.1 370.3 360.4 349.2 338.4 329.5 320.4 314.7 310.1 302.7 292.6 278.4 259.5 237.2 209.9 216.4 239.8 253.9 258 256.6 256 251.6 248.5 241.4 235.8 231.8 228.4 227.3 222.5 217.2 211.5 205.4 196.2 201.3 201.5 201 200.4 197.2 195.6 193.6 191.7 191.3 190.9 191.2 189.1 189.7 191 189.7 186.4 179.7 135.8 156.8 145.1 114.9 89.7 56.1 -1.2 -1.2 -1.2 -1.2 -1.2 -1.2 -1.2 -1.2 -1.2 -1.2 -1.2 -1.2 -1.2 -1.2 -1.2 -1.2 -1.2 -1.2 -1.2 -1.2 -1.2 -1.2 -1.2 -1.2 -1.2 -1.2 -1.2 -1.2 -1.2 -1.2 -1.2 -1.2 -1.2 -1.2 -1.2 -1.2 -1.2 -1.2 -1.2 -1.2 -1.2 -1.2 -1.2 -1.2 -1.2 -1.2 -1.2 -1.2 -1.2 -1.2 -1.2 -1.2 -1.2 -1.2 -1.2
26.1 27.5 30.3 36.6 47.4 62.1 76.8 93.2 109.4 126.7 145.1 159.9 164.4 161.5 158.1 151 143.1 129.8 111 96.8 85.3 75.7 65.3 54.7 46.3 39.7 49.1 59.6 66.1 74.1 79.3 86.8 92.6 103.2 116.6 128.7 139.9 149.8 162.6 171.5 180.2 189.4 196.2 205.7 208.9 212.7 220.8 225.7 230 235.8 242.8 249.5 256.5 257.9 260.7 264.6 272.2 277.9 280.6 284.5 293.2 310.5 328.5 343.2 354.8 364.6 371.1 376 376.2 374 372 370.7 368.2 362.5 367.5 371.7 374.1 378.4 383.6 387.9 391.5 394.6 396.8 397.5 396.4 395.1 392 387.8 382.3 375.1 366.4 355.6 344.7 332.9 325 316.4 312 307.4 301.9 293.5 282.5 265.1 239.2 215.7 196.2 218.5 236.3 245 246.3 244.7 242.4 240.3 236.4 232.1 230.1 226.5 225.6 221 216.5 211.5 206 200.1 193.5 196.2 196.4 195.9 193.5 191.9 189.8 186.5 185.7 185.2 184.4 181.3 180.3 180.4 180.1 178.6 169.2 122.8 103.3 116.1 83.9 50.5 19.8 -1.2 -1.2 -1.2 -1.2 -1.2 -1.2 -1.2 -1.2 -1.2 -1.2 -1.2 -1.2 -1.2 -1.2 -1.2 -1.2 -1.2 -1.2 -1.2 -1.2 -1.2 -1.2 -1.2 -1.2 -1.2 -1.2 -1.2 -1.2 -1.2 -1.2 -1.2 -1.2 -1.2 -1.2 -1.2 -1.2 -1.2 -1.2 -1.2 -1.2 -1.2 -1.2 -1.2 -1.2 -1.2 -1.2 -1.2 -1.2 -1.2 -1.2 -1.2 -1.2 -1.2 -1.2 -1.2
18.8 24.6 26.5 26.8 29.6 38.4 53.7 69.5 84.3 100 116 132.1 145.2 151.8 153.3 150.7 149.6 142 123.2 103.7 89.6 79.6 68.6 57.6 46.3 36.4 45.8 49.8 57.5 63.2 69.7 75.7 80.9 88 100 113.6 126.6 134.8 148.7 162 168.8 177.5 189.2 201.4 207.1 211.2 222.8 228.7 234.6 239.8 241.7 245.3 255.5 257.6 261.1 266.4 274.8 278 278.8 280.2 294.5 308.4 326 339.8 351.4 360.4 367.5 371.7 371.8 364.7 361.7 361 358.2 353.2 360.5 366.4 370.2 374.4 379.3 383.1 387.3 389.3 390.3 391.4 391.4 391.2 388.2 384.3 377.5 368.4 358.3 348 337.6 326.7 318 309 305.4 301.9 297.1 289.2 279.4 265.5 245.7 222 202.8 200.2 214.2 228.7 234.2 234.7 234.7 235.7 232.3 230.2 228.2 225 223.4 219.5 216.9 213.3 208.1 202.2 194.5 190.6 192.1 188.8 188.5 187.8 186.7 183.9 180.8 179.8 176 174.8 172.4 167.4 164.3 162.3 150.1 109.7 41.6 58 68.6 -1.2 -1.2 -1.2 -1.2 -1.2 -1.2 -1.2 -1.2 -1.2 -1.2 -1.2 -1.2 -1.2 -1.2 -1.2 -1.2 -1.2 -1.2 -1.2 -1.2 -1.2 -1.2 -1.2 -1.2 -1.2 -1.2 -1.2 -1.2 -1.2 -1.2 -1.2 -1.2 -1.2 -1.2 -1.2 -1.2 -1.2 -1.2 -1.2 -1.2 -1.2 -1.2 -1.2 -1.2 -1.2 -1.2 -1.2 -1.2 -1.2 -1.2 -1.2 -1.2 -1.2 -1.2 -1.2 -1.2 -1.2
18.9 17.9 22.1 25.8 25.8 26.8 31.8 45.6 60.5 75.2 89.3 105.2 119.2 130.9 138.3 139.1 139 140.3 136.8 115.7 94.7 79.1 66 56.9 47.2 37.8 35 45.3 50 55.9 59.9 66.7 73.9 78.1 85.6 97.3 111.1 122.1 131.6 147.6 159.3 170.2 182.7 191.9 198.6 209.9 219.4 228.4 234.7 240.2 243.6 243.3 248 254 257.6 261.4 267.2 271.6 267.1 276.2 291.2 310 323.8 334.9 345.2 356.4 365.3 371.7 373.8 366.8 362.7 358 354.3 354.4 351 358.7 365.2 368.5 372.9 375.6 378.8 379.7 382.5 384 385.5 383.4 378.9 373.9 365.4 356.8 346 337.3 327.3 318.7 309.7 302.6 297.5 294.5 291.9 287.7 278.3 264.9 249.7 231.2 202.6 180.7 198.7 207.9 222.1 225.6 228.4 230.4 228.2 224.8 224.5 222.3 220.1 217.3 216.5 213.4 209.5 204.1 196.8 181.2 177.9 183 183.2 182.3 182.7 180.6 176.7 172.9 169.3 167.3 165.1 160.8 147.6 134.3 118.5 70.3 25.8 1.6 -1.2 -1.2 -1.2 -1.2 -1.2 -1.2 -1.2 -1.2 -1.2 -1.2 -1.2 -1.2 -1.2 -1.2 -1.2 -1.2 -1.2 -1.2 -1.2 -1.2 -1.2 -1.2 -1.2 -1.2 -1.2 -1.2 -1.2 -1.2 -1.2 -1.2 -1.2 -1.2 -1.2 -1.2 -1.2 -1.2 -1.2 -1.2 -1.2 -1.2 -1.2 -1.2 -1.2 -1.2 -1.2 -1.2 -1.2 -1.2 -1.2 -1.2 -1.2 -1.2 -1.2 -1.2 -1.2 -1.2 -1.2 -1.2
19.1 18.2 18 19.6 24.3 22.9 25.2 27.5 38 52.1 65 76.6 90.8 104.7 114 121.8 123.2 121.7 122.7 119.1 100.9 80.8 66.5 59.9 46.9 47.2 34.7 31 43.6 48.8 53.9 56.9 63.1 70.2 75.2 82.2 94.5 108.5 118.9 134.7 146.3 158.3 166.8 175.4 188.2 203.3 215 225.1 236.3 241.1 243.1 240.5 236.1 243.4 248.7 252.4 259.6 262.9 254 268.2 287.4 307.7 320.8 335.1 346.2 354.7 361.6 365.8 367.2 366.5 366.6 362.8 357.1 352.6 347.7 342.5 351.2 355.3 357.9 363.6 370.7 375.5 375.2 376.1 374.6 371.3 366.4 359.9 351.6 341.3 332.1 323.5 315 306.4 299.5 291.1 287.9 286.3 284.9 282.5 276 266.4 253.7 238.7 212.2 191.3 178.9 193.7 207.5 209 218.9 220.6 221.3 219.8 218.1 215.7 215.4 214.6 214.1 212.2 209.6 205.5 199.7 189.5 179.3 172.3 173.3 177.2 177.9 175.1 172.9 166.1 158.5 159.4 153.3 145.2 131.7 112.1 92.4 46.1 -1.2 -1.2 -1.2 -1.2 -1.2 -1.2 -1.2 -1.2 -1.2 -1.2 -1.2 -1.2 -1.2 -1.2 -1.2 -1.2 -1.2 -1.2 -1.2 -1.2 -1.2 -1.2 -1.2 -1.2 -1.2 -1.2 -1.2 -1.2 -1.2 -1.2 -1.2 -1.2 -1.2 -1.2 -1.2 -1.2 -1.2 -1.2 -1.2 -1.2 -1.2 -1.2 -1.2 -1.2 -1.2 -1.2 -1.2 -1.2 -1.2 -1.2 -1.2 -1.2 -1.2 -1.2 -1.2 -1.2 -1.2 -1.2 -1.2 -1.2
19.2 16 18.8 18.1 17.5 19.2 22.4 20.3 24.7 31.4 44.4 56.7 64.5 75.8 87.9 99.2 102.6 106.1 105.5 103 99.1 87.1 72.3 59.5 48.2 43.8 41.9 32.4 36 42.9 46.7 50.3 53.2 59.8 65.6 71.3 79.8 91.9 106.3 119 133.9 143.1 151.7 164.4 178.4 193.8 204.7 218.1 231.4 239.9 240.9 238.6 233.8 234.1 239 242.8 245.9 248.3 247.1 260.1 283 302.7 319.1 332.4 343.5 353.6 359.7 363.1 363.1 361.9 357.6 351.6 343.1 332.8 329.6 327.7 328.5 343.2 354.3 361.7 367.2 368.7 366.5 361.8 357.1 352.1 346.4 340.8 331.2 324 315.1 305.9 297.7 289.7 284.5 278.9 275.5 277 278.1 275.1 270.2 260.8 250.7 240.8 225.2 200.1 169.3 168.1 186.3 196 204.2 209.8 210.8 212.3 212.6 211.8 210.9 210.2 210.1 209.5 207.7 204.6 199.5 192.4 183.3 172.8 140.3 160.1 168.9 169.9 167.6 160.6 151.7 142.1 133.8 120.1 106.4 89.6 73.7 53 -1.2 -1.2 -1.2 -1.2 -1.2 -1.2 -1.2 -1.2 -1.2 -1.2 -1.2 -1.2 -1.2 -1.2 -1.2 -1.2 -1.2 -1.2 -1.2 -1.2 -1.2 -1.2 -1.2 -1.2 -1.2 -1.2 -1.2 -1.2 -1.2 -1.2 -1.2 -1.2 -1.2 -1.2 -1.2 -1.2 -1.2 -1.2 -1.2 -1.2 -1.2 -1.2 -1.2 -1.2 -1.2 -1.2 -1.2 -1.2 -1.2 -1.2 -1.2 -1.2 -1.2 -1.2 -1.2 -1.2 -1.2 -1.2 -1.2 -1.2
24.3 23.1 17.7 16.3 17.6 17.1 18 17.8 23.2 24.3 26.6 38.5 44.8 54.4 62.9 74 84.5 89.8 90.2 88.8 86.5 84.7 72.7 62.6 54.3 46.3 40.6 32.5 25.8 35.4 38.5 43.8 46.7 50.9 56 62.6 68.4 78.1 91.2 104.8 117.6 129.4 140.3 151.4 164.8 182.7 198.3 208.7 216.3 227.4 230.6 227.4 228.5 227.1 233.1 233.9 234 230.6 239.3 254.2 276.8 298 314.7 326.6 337.8 346.2 351 354.6 354.7 349 340.9 336.7 332.3 332.2 324.5 322.9 327.2 334.6 347.4 352.7 353.4 352.1 338.5 337.2 334.9 330 321 315.6 307.5 299.4 293.8 288 281.4 271.1 266.7 264 264.4 267.9 269.5 266.9 261.8 254.4 247.4 238.6 229.3 205.7 184.9 158.1 160.2 173 190.2 201.3 206.5 211.1 212 207.9 206.8 206.6 207.3 207.5 204.3 201.1 197.1 192 184.6 176 159.8 125.1 146.1 157.5 159.5 149.8 136.3 118.6 97.6 66.4 81.2 68.9 -1.2 -1.2 -1.2 -1.2 -1.2 -1.2 -1.2 -1.2 -1.2 -1.2 -1.2 -1.2 -1.2 -1.2 -1.2 -1.2 -1.2 -1.2 -1.2 -1.2 -1.2 -1.2 -1.2 -1.2 -1.2 -1.2 -1.2 -1.2 -1.2 -1.2 -1.2 -1.2 -1.2 -1.2 -1.2 -1.2 -1.2 -1.2 -1.2 -1.2 -1.2 -1.2 -1.2 -1.2 -1.2 -1.2 -1.2 -1.2 -1.2 -1.2 -1.2 -1.2 -1.2 -1.2 -1.2 -1.2 -1.2 -1.2 -1.2 -1.2 -1.2 -1.2
35.6 28.6 22.7 20.8 20 15.7 17 18 17.4 19.7 24.6 25.6 34.4 41.7 47.1 51.7 59.6 66 72.7 75.4 73.1 69.8 71.2 62.9 55.1 48.7 41.1 38.3 36.6 28.7 30.7 36.3 39.6 43 48.1 53.8 58.7 65.4 76 90.1 99.5 114.5 126.8 138.3 150.1 166.8 185.8 195.4 205.6 215.3 218.3 214 217.7 215.8 213.9 213 215.1 221.3 235.2 251.2 272.8 291.4 307 319.4 327.4 334.3 342.5 345.8 345.4 343.2 339.9 335.1 329.8 326.1 325.6 315.7 314.6 318 329 328.2 324.8 321.9 317.2 313 308.4 303.1 294.6 288.4 285.5 281.5 278 271.8 265.4 254.6 251 251.8 254.2 259 260.7 259.5 253.9 249.9 244.7 235.6 226 216.1 197.7 177.5 153 146.7 170.3 193.4 202.8 206.6 208.1 207.5 205.7 205.1 204.6 202.5 199.5 195.7 191.4 187.1 181.6 173.9 161.7 136.3 112.3 131.3 143.1 126.2 113.5 85.9 41 29 -1.2 -1.2 -1.2 -1.2 -1.2 -1.2 -1.2 -1.2 -1.2 -1.2 -1.2 -1.2 -1.2 -1.2 -1.2 -1.2 -1.2 -1.2 -1.2 -1.2 -1.2 -1.2 -1.2 -1.2 -1.2 -1.2 -1.2 -1.2 -1.2 -1.2 -1.2 -1.2 -1.2 -1.2 -1.2 -1.2 -1.2 -1.2 -1.2 -1.2 -1.2 -1.2 -1.2 -1.2 -1.2 -1.2 -1.2 -1.2 -1.2 -1.2 -1.2 -1.2 -1.2 -1.2 -1.2 -1.2 -1.2 -1.2 -1.2 -1.2 -1.2 -1.2 -1.2 -1.2
50.5 46.3 36.3 27.6 22.3 19.7 15.7 17.3 17.6 17.1 18.6 23.6 24.6 31.5 37 42.5 43.1 46.3 53.1 59.1 59.9 57 57.6 57 48.9 43.2 39.2 38 34.9 25 22.3 25.4 33 34.6 38.3 41.7 46.9 55.6 64 73 86.2 98.8 114.6 125.4 138.4 150.2 165 180.3 191.3 195.5 198.4 197.1 198.6 201.4 201.7 202.1 207.9 217.6 234 250.5 272.1 288.7 304 315 323.5 331.8 336.2 341.3 344.4 346.3 342.4 340.1 337.9 330.9 324.5 314.9 298.3 300.1 305.7 309.1 307.6 302.9 297.1 289 285.9 281.2 276.8 271.4 269 263.4 257.5 250.7 243.8 239.6 238.4 240.5 245.5 250.2 253.2 252.6 248.2 244.6 237.3 228.9 220.9 212.8 196.2 196.6 169.7 141.4 145.2 175.5 198.2 205.9 208.3 207.3 205.5 203.7 202.6 201.1 197.6 194.2 188.8 183.8 177 168.8 157.1 135.2 99.6 106.7 108.9 100.9 69.2 29.1 1.6 -1.2 -1.2 -1.2 -1.2 -1.2 -1.2 -1.2 -1.2 -1.2 -1.2 -1.2 -1.2 -1.2 -1.2 -1.2 -1.2 -1.2 -1.2 -1.2 -1.2 -1.2 -1.2 -1.2 -1.2 -1.2 -1.2 -1.2 -1.2 -1.2 -1.2 -1.2 -1.2 -1.2 -1.2 -1.2 -1.2 -1.2 -1.2 -1.2 -1.2 -1.2 -1.2 -1.2 -1.2 -1.2 -1.2 -1.2 -1.2 -1.2 -1.2 -1.2 -1.2 -1.2 -1.2 -1.2 -1.2 -1.2 -1.2 -1.2 -1.2 -1.2 -1.2 -1.2 -1.2 -1.2
65 60 52.2 43.6 35.2 26.3 21.8 14.9 16.9 17 16.5 18.3 19.5 24.2 25.1 31.3 35.9 37.7 36.7 37 43 46.7 46.6 43.4 40.1 38.9 36.7 34.6 34.3 22.1 18.9 22.2 24.8 32.5 32 35 34.8 39.8 52.7 59.7 73.1 87.9 98.7 112.8 124.1 137 148.3 159.7 170.1 175.2 177.5 181.6 182.5 187 190.7 192.1 207.7 222.5 236.1 254 270.4 284.6 298.8 312.1 322.7 332.1 336.9 341.4 346.7 347.9 347 341.8 332 326.6 320 308.2 295.7 293.9 295.7 297 298.1 291 286.9 278.8 272.1 264.2 259.2 254.5 250.1 245.1 241.4 234 234.1 232.6 230.6 231.2 235.1 240.3 242.6 241.4 239 233.8 227.3 223.9 217.2 208.2 199.3 194.3 172.1 138.6 130.1 166.2 192.5 203.4 206.5 206.7 205.2 202.8 200.6 197.5 192.8 190.8 184.1 177 168 158.4 146.1 126.5 104.9 69.7 85.4 27.3 4.9 0.8 -1.2 -1.2 -1.2 -1.2 -1.2 -1.2 -1.2 -1.2 -1.2 -1.2 -1.2 -1.2 -1.2 -1.2 -1.2 -1.2 -1.2 -1.2 -1.2 -1.2 -1.2 -1.2 -1.2 -1.2 -1.2 -1.2 -1.2 -1.2 -1.2 -1.2 -1.2 -1.2 -1.2 -1.2 -1.2 -1.2 -1.2 -1.2 -1.2 -1.2 -1.2 -1.2 -1.2 -1.2 -1.2 -1.2 -1.2 -1.2 -1.2 -1.2 -1.2 -1.2 -1.2 -1.2 -1.2 -1.2 -1.2 -1.2 -1.2 -1.2 -1.2 -1.2 -1.2 -1.2 -1.2 -1.2
79.5 72.4 64.2 57 48.2 41.1 32.9 23.7 14.6 15.5 17.8 16 18.2 17.9 18.2 23.8 26.6 29.7 34.5 34.2 33.6 34 35.2 36.1 35.9 34.6 34.9 32.9 33.6 19.1 19 19.3 20.7 28.7 28.9 31.4 30.6 30.9 37.4 44.4 60.3 73.6 87.8 101.2 115.1 124.3 135.4 145.5 153.8 165.5 165.3 167.8 171.1 171.7 179.7 194.6 215.3 227.5 243.7 255.5 268.5 280.3 297.4 310.8 322.3 331 336.2 340 344.2 344.5 342.6 336.1 322.9 308.8 301.1 297.1 287.7 283.5 286.1 282.9 280.1 276.3 267.9 261.6 251.7 246.3 243.6 238.4 231.5 228 226.5 224.4 223.9 221.7 220.1 222.6 225.7 230.1 231.3 229.9 228.2 224.1 218.7 213.9 208.7 202.1 195.5 185.3 158.2 125.9 122 158.2 185.5 201.1 204.5 203.9 202.9 200.3 195.8 190.5 185 180.3 173 161.5 149 139.6 110.5 92.8 63.4 34.4 2.7 -1.2 -1.2 -1.2 -1.2 -1.2 -1.2 -1.2 -1.2 -1.2 -1.2 -1.2 -1.2 -1.2 -1.2 -1.2 -1.2 -1.2 -1.2 -1.2 -1.2 -1.2 -1.2 -1.2 -1.2 -1.2 -1.2 -1.2 -1.2 -1.2 -1.2 -1.2 -1.2 -1.2 -1.2 -1.2 -1.2 -1.2 -1.2 -1.2 -1.2 -1.2 -1.2 -1.2 -1.2 -1.2 -1.2 -1.2 -1.2 -1.2 -1.2 -1.2 -1.2 -1.2 -1.2 -1.2 -1.2 -1.2 -1.2 -1.2 -1.2 -1.2 -1.2 -1.2 -1.2 -1.2 -1.2 -1.2 -1.2 -1.2
98.2 88.5 78.9 70.8 62 53.2 44.1 38.2 26.6 20 14.4 16.9 16.7 17.7 17.6 17.2 18.2 19.6 25.3 31 29.4 31.4 32.6 33.9 33.6 33.5 31.3 33.5 28.9 17.6 18 17.5 19.3 23 22.3 22.9 24.2 25.6 27.8 32.9 45.2 60.9 75.5 87.1 103.2 114.6 123.3 132.7 141.3 151 157.4 160.9 159.4 168.6 181.1 193 216.4 228.1 244.2 252.4 262.8 277.7 290.7 303.4 316.3 325.7 330.2 330.5 333.6 334.4 329.7 322.2 310.2 296 290.6 284.9 273.5 267.1 269.7 269.1 263.9 258.3 247.5 241.1 239.7 231.6 229.6 224.7 218.3 213.9 212.3 213.1 210.8 212.6 209.9 213.8 218.6 221.8 220.6 219.9 218.5 214.8 210.5 206.4 201.7 196.4 188.6 180.3 145.2 113.1 117.1 149.3 176.4 192.7 197.8 197.2 198.6 195.2 186.7 179.3 168.7 158.7 149.5 141.4 95.5 69.3 65.5 23.7 11.3 1.7 -1.2 -1.2 -1.2 -1.2 -1.2 -1.2 -1.2 -1.2 -1.2 -1.2 -1.2 -1.2 -1.2 -1.2 -1.2 -1.2 -1.2 -1.2 -1.2 -1.2 -1.2 -1.2 -1.2 -1.2 -1.2 -1.2 -1.2 -1.2 -1.2 -1.2 -1.2 -1.2 -1.2 -1.2 -1.2 -1.2 -1.2 -1.2 -1.2 -1.2 -1.2 -1.2 -1.2 -1.2 -1.2 -1.2 -1.2 -1.2 -1.2 -1.2 -1.2 -1.2 -1.2 -1.2 -1.2 -1.2 -1.2 -1.2 -1.2 -1.2 -1.2 -1.2 -1.2 -1.2 -1.2 -1.2 -1.2 -1.2 -1.2 -1.2
119.3 109 98.5 86.7 78.1 67.9 57 49.7 42.7 34.6 24.7 13.8 17 15.9 17.6 17.7 17.7 17.3 16.4 18.2 20.5 23 25.3 29.3 29.6 30.3 24.4 23.9 17 16.9 17.3 16 17.5 16.8 15.7 15.6 17.9 18.2 21.8 23.2 32.6 46.3 61.2 76 87.3 100.3 108.5 115.3 127.2 133.3 141.5 151.1 160.1 168.1 178.8 204.1 217.6 232 238.6 247.6 264 272.2 277.6 284.4 304 313.7 318.5 318.4 311.5 310 306.8 292.5 286.9 277.8 273.4 265.6 255.8 244.8 245.1 240.8 241.4 236.2 226.9 226.5 225.3 220.9 219.8 215.7 212.2 205.4 201.3 199.7 195.7 198.1 199.2 205.5 209.3 212.1 210.6 209.1 209.4 209 204.6 198.6 193.3 188.9 179 172.1 142.9 110.4 105.5 133.8 164.5 180.7 184.2 183.6 181.8 178 170.9 159 145.7 132.1 115.3 99.4 56.7 29.8 4.5 0.2 -1.2 -1.2 -1.2 -1.2 -1.2 -1.2 -1.2 -1.2 -1.2 -1.2 -1.2 -1.2 -1.2 -1.2 -1.2 -1.2 -1.2 -1.2 -1.2 -1.2 -1.2 -1.2 -1.2 -1.2 -1.2 -1.2 -1.2 -1.2 -1.2 -1.2 -1.2 -1.2 -1.2 -1.2 -1.2 -1.2 -1.2 -1.2 -1.2 -1.2 -1.2 -1.2 -1.2 -1.2 -1.2 -1.2 -1.2 -1.2 -1.2 -1.2 -1.2 -1.2 -1.2 -1.2 -1.2 -1.2 -1.2 -1.2 -1.2 -1.2 -1.2 -1.2 -1.2 -1.2 -1.2 -1.2 -1.2 -1.2 -1.2 -1.2 -1.2 -1.2
138.7 131.2 119.3 107.1 95.6 83.6 75.6 67.1 56.9 46.3 38.9 29.5 20.2 13.3 13.1 17.9 17.5 17.3 16.7 16.8 16.3 18.5 18.8 18.4 18.8 18.5 19 17.1 16.3 15.3 14.5 15 15.1 13.9 14.4 13.5 14.1 14.2 14.4 12.8 17.6 31.8 49.9 65.6 75.2 78 88.9 96 100.8 112.7 131.5 148.5 162.8 173.6 178.8 200.1 211.8 226.1 235.6 242 252.4 271 262.3 270.6 271.8 286.4 293.5 291.9 288.4 287.1 281.6 278.7 268.3 267.1 256 248.6 235.3 221.3 214.5 219.5 217.3 214 213.1 213.2 216.4 215.2 213.5 209.6 202.7 195.8 186.4 187.7 181.4 181.6 188.2 194.1 198.7 201 199.9 198.7 200.3 199.9 196.1 191.1 185.9 178.3 179.6 169.8 144.2 110.9 88.1 121.3 143.9 160.9 167.2 164.1 161.7 156.3 149.5 138.2 124 108 95.8 53.8 16.2 1.4 -1.2 -1.2 -1.2 -1.2 -1.2 -1.2 -1.2 -1.2 -1.2 -1.2 -1.2 -1.2 -1.2 -1.2 -1.2 -1.2 -1.2 -1.2 -1.2 -1.2 -1.2 -1.2 -1.2 -1.2 -1.2 -1.2 -1.2 -1.2 -1.2 -1.2 -1.2 -1.2 -1.2 -1.2 -1.2 -1.2 -1.2 -1.2 -1.2 -1.2 -1.2 -1.2 -1.2 -1.2 -1.2 -1.2 -1.2 -1.2 -1.2 -1.2 -1.2 -1.2 -1.2 -1.2 -1.2 -1.2 -1.2 -1.2 -1.2 -1.2 -1.2 -1.2 -1.2 -1.2 -1.2 -1.2 -1.2 -1.2 -1.2 -1.2 -1.2 -1.2 -1.2 -1.2
161.2 153.1 142.2 131.9 119 104.7 93.1 84.4 75.8 66 57.9 48.9 39.1 29.1 23.2 13.2 13.2 15.8 17 16.7 16.7 16.3 16.8 17.1 16.8 16 14.7 12.1 12.3 12.3 12.2 11.6 12.1 13.3 13.2 11.9 11.3 11.9 11.7 12.5 12.7 18.9 35 47.3 61.6 73.6 85.3 100.9 116.6 130.5 146.5 162.7 173.9 179.9 187 192.6 198.8 207.9 219.8 229.3 241 248.3 249.6 246.6 250.7 255.9 265.1 265.2 260.5 257.2 263.1 258.3 248.8 235.8 225.6 220.4 207.1 195.7 196.5 199.1 202.2 200.1 201.3 203.8 205.7 208.7 210 202.7 196.8 188.5 176.8 171.4 168.1 166.7 176.4 182.3 186.7 190.9 190.8 190.5 191.5 189.6 184 178.7 173.2 173.8 169.8 161.2 143 113.5 81.3 100.4 126.2 147.4 151.9 146.5 140.1 131.1 120.5 110.9 96.3 47.5 60 9.2 -1.2 -1.2 -1.2 -1.2 -1.2 -1.2 -1.2 -1.2 -1.2 -1.2 -1.2 -1.2 -1.2 -1.2 -1.2 -1.2 -1.2 -1.2 -1.2 -1.2 -1.2 -1.2 -1.2 -1.2 -1.2 -1.2 -1.2 -1.2 -1.2 -1.2 -1.2 -1.2 -1.2 -1.2 -1.2 -1.2 -1.2 -1.2 -1.2 -1.2 -1.2 -1.2 -1.2 -1.2 -1.2 -1.2 -1.2 -1.2 -1.2 -1.2 -1.2 -1.2 -1.2 -1.2 -1.2 -1.2 -1.2 -1.2 -1.2 -1.2 -1.2 -1.2 -1.2 -1.2 -1.2 -1.2 -1.2 -1.2 -1.2 -1.2 -1.2 -1.2 -1.2 -1.2 -1.2 -1.2
186.1 182.2 171 156 143.3 131.6 118.6 103.7 93.7 85 77.1 67.6 61.3 49.6 40.4 31.5 25.3 24.5 13.2 13.1 14.2 13.5 13.6 13.3 12.4 12.5 14.9 21.4 20.6 21.3 23 22.5 20.5 14.1 14 13.7 13.6 11 11.5 10.8 9.8 16.6 24.6 42.7 63.7 85.2 104.9 122.8 135.8 149.9 162.5 171.6 176.4 182.4 193.5 195.8 191.7 198.1 206.6 220.6 231.6 238.1 238.1 227.7 226.8 230.7 230.2 236.2 233.2 235 232.4 225.4 216.4 203.7 198.3 201.3 189.8 182.4 180.3 182.3 185 186.9 191 195.1 199.4 201.7 203.6 200.6 194 185.2 176.4 167.9 159.3 156.9 162.8 167.8 175.8 179.2 179.7 180.8 179.2 176.5 172.1 166.2 164.3 160.5 156.7 150.4 140.6 117.2 89.7 82.2 106.9 123.6 128 125.4 117.4 109.9 74.4 49.2 23.4 12.4 1.9 -1.2 -1.2 -1.2 -1.2 -1.2 -1.2 -1.2 -1.2 -1.2 -1.2 -1.2 -1.2 -1.2 -1.2 -1.2 -1.2 -1.2 -1.2 -1.2 -1.2 -1.2 -1.2 -1.2 -1.2 -1.2 -1.2 -1.2 -1.2 -1.2 -1.2 -1.2 -1.2 -1.2 -1.2 -1.2 -1.2 -1.2 -1.2 -1.2 -1.2 -1.2 -1.2 -1.2 -1.2 -1.2 -1.2 -1.2 -1.2 -1.2 -1.2 -1.2 -1.2 -1.2 -1.2 -1.2 -1.2 -1.2 -1.2 -1.2 -1.2 -1.2 -1.2 -1.2 -1.2 -1.2 -1.2 -1.2 -1.2 -1.2 -1.2 -1.2 -1.2 -1.2 -1.2 -1.2 -1.2 -1.2
207.7 204.9 198.1 185.6 171.6 159.5 145 130.3 117.7 104.5 95.9 87.6 79.6 71.1 60.6 54.8 46.1 40.1 33.9 27.9 26.8 25.7 25.4 25.4 24.8 26.4 27.6 30.8 35.1 40.3 45 40.6 34.5 26.2 20.9 13 13.3 12.6 12 11.9 11.5 9.3 17.8 29 51.3 76.2 99.6 125.9 148.8 162.4 168.6 174.6 178.4 186.3 196.7 200.6 196.4 191.6 190.1 196.9 209.2 225.3 222.2 213.6 213 212.7 216 212.4 210.7 205.3 203.9 198.1 189.8 181.7 178.9 176.7 174.5 172.5 173.5 174.3 180 184.4 187.5 192.7 196.5 198.8 200.1 201.1 196 187.4 177 168.3 157.7 148.4 147.8 150.7 158.7 163.7 165 162.2 159.9 158.7 158.3 153.3 148.8 146.6 143.5 137.7 131.6 124.2 98.2 70.2 84.4 100.5 104.2 102.9 96.4 84.2 35.2 8.3 2 0.8 -1.2 -1.2 -1.2 -1.2 -1.2 -1.2 -1.2 -1.2 -1.2 -1.2 -1.2 -1.2 -1.2 -1.2 -1.2 -1.2 -1.2 -1.2 -1.2 -1.2 -1.2 -1.2 -1.2 -1.2 -1.2 -1.2 -1.2 -1.2 -1.2 -1.2 -1.2 -1.2 -1.2 -1.2 -1.2 -1.2 -1.2 -1.2 -1.2 -1.2 -1.2 -1.2 -1.2 -1.2 -1.2 -1.2 -1.2 -1.2 -1.2 -1.2 -1.2 -1.2 -1.2 -1.2 -1.2 -1.2 -1.2 -1.2 -1.2 -1.2 -1.2 -1.2 -1.2 -1.2 -1.2 -1.2 -1.2 -1.2 -1.2 -1.2 -1.2 -1.2 -1.2 -1.2 -1.2 -1.2 -1.2 -1.2
224 224 220.5 210.6 198.7 188.1 174.7 160.6 145.5 130.1 117.8 107 98.4 89.2 81.5 75.5 69.2 64.2 58.9 54.1 48.9 41.8 40.3 38.7 39 39.3 34.6 43.7 53.3 60.5 60.9 55.6 41.8 34 29.2 23.5 12.8 12.5 12 11.6 11.5 10.8 9.5 18.6 41.9 65.4 90 116.2 141.3 160 169.3 174 176.7 182.3 195.8 200.7 198.7 195 188.2 186 183.3 188 193.6 187.5 184 187.9 195.9 201.5 202.4 201.1 193.9 192.8 181.9 170.3 164.7 162.9 162.3 160.9 163.8 172.1 174.8 175.7 180.1 185.7 190 193.3 197.1 196.3 193 187.1 179.6 169.4 160.5 151 141 139.7 145 145.1 146.9 147.9 144.4 142.6 139.6 138.2 133.7 128.9 125.4 121.9 116.4 112.9 106 76.2 65.3 80.2 84.1 68.8 61.5 28.5 9.5 1.3 -0.1 -1.2 -1.2 -1.2 -1.2 -1.2 -1.2 -1.2 -1.2 -1.2 -1.2 -1.2 -1.2 -1.2 -1.2 -1.2 -1.2 -1.2 -1.2 -1.2 -1.2 -1.2 -1.2 -1.2 -1.2 -1.2 -1.2 -1.2 -1.2 -1.2 -1.2 -1.2 -1.2 -1.2 -1.2 -1.2 -1.2 -1.2 -1.2 -1.2 -1.2 -1.2 -1.2 -1.2 -1.2 -1.2 -1.2 -1.2 -1.2 -1.2 -1.2 -1.2 -1.2 -1.2 -1.2 -1.2 -1.2 -1.2 -1.2 -1.2 -1.2 -1.2 -1.2 -1.2 -1.2 -1.2 -1.2 -1.2 -1.2 -1.2 -1.2 -1.2 -1.2 -1.2 -1.2 -1.2 -1.2 -1.2 -1.2 -1.2
236.3 241.7 239 234.1 226.2 215.1 203.9 187.8 173.4 158.7 143.8 132.3 120.7 110.3 100.8 93.4 86.7 81.2 74.9 71.6 65.6 61.3 57.7 55.1 53.6 50.4 47 56.9 69.1 76 78.9 70.8 51 37.7 32.6 29.7 22.4 14.3 12.8 11.4 11.2 9.6 9.3 13.3 34.4 52.4 80.7 105.7 130.3 151.3 166.3 172.2 173.8 180.5 188.2 194.6 197.4 194.4 188.3 189.3 189.9 184.3 176.2 175.6 172.9 174.2 179.6 180.4 184.1 182.9 175.2 168 163.1 157.2 154.8 154.7 154.2 153.7 166.3 175.1 171.4 169.2 174.5 176.3 180.1 184.1 188.6 194 190.7 183.3 175.2 167.1 159.8 153.2 142.6 135.7 138.5 137.5 130.3 130.6 128.2 126.5 125.6 123 119.3 114.4 109.5 103.3 99.9 95.5 93.1 84.9 62 57.2 41.3 42.5 43.7 9.7 1.1 -1.2 -1.2 -1.2 -1.2 -1.2 -1.2 -1.2 -1.2 -1.2 -1.2 -1.2 -1.2 -1.2 -1.2 -1.2 -1.2 -1.2 -1.2 -1.2 -1.2 -1.2 -1.2 -1.2 -1.2 -1.2 -1.2 -1.2 -1.2 -1.2 -1.2 -1.2 -1.2 -1.2 -1.2 -1.2 -1.2 -1.2 -1.2 -1.2 -1.2 -1.2 -1.2 -1.2 -1.2 -1.2 -1.2 -1.2 -1.2 -1.2 -1.2 -1.2 -1.2 -1.2 -1.2 -1.2 -1.2 -1.2 -1.2 -1.2 -1.2 -1.2 -1.2 -1.2 -1.2 -1.2 -1.2 -1.2 -1.2 -1.2 -1.2 -1.2 -1.2 -1.2 -1.2 -1.2 -1.2 -1.2 -1.2 -1.2 -1.2 -1.2
248.2 253.5 254.3 249.1 244.5 236.1 223.6 211.5 195.8 181.5 167.6 157.6 146.6 133.2 121.3 112.5 106.9 97.7 92.9 88 81.4 77.8 72.4 67.7 63.8 61.4 55.5 67 79 90.4 94.7 82.6 59.8 45.4 34.1 31 26 21.5 19.8 12.9 10.9 8.7 8.4 10.7 26.5 47.7 71.4 98.5 122.3 146.7 160.5 166.4 167.9 178.8 186.7 191.9 199.9 202.1 195.5 185.3 182.9 185.6 174.8 170.2 170.2 170 168.2 166.4 165.7 163 159.7 154.4 149.3 147.9 144.9 149.6 153.2 149.6 160.8 170.9 164.8 159.4 158.6 161.2 165.2 170.2 176.1 176 176 172.4 166.3 160.2 154.3 149 141.7 135.8 130.4 120.8 120.3 118.8 118 116.7 114 108.8 104.7 100.6 94.6 89.3 84 79.2 72.6 57.7 37.2 8.8 7.1 15.9 49 3.9 -1.2 -1.2 -1.2 -1.2 -1.2 -1.2 -1.2 -1.2 -1.2 -1.2 -1.2 -1.2 -1.2 -1.2 -1.2 -1.2 -1.2 -1.2 -1.2 -1.2 -1.2 -1.2 -1.2 -1.2 -1.2 -1.2 -1.2 -1.2 -1.2 -1.2 -1.2 -1.2 -1.2 -1.2 -1.2 -1.2 -1.2 -1.2 -1.2 -1.2 -1.2 -1.2 -1.2 -1.2 -1.2 -1.2 -1.2 -1.2 -1.2 -1.2 -1.2 -1.2 -1.2 -1.2 -1.2 -1.2 -1.2 -1.2 -1.2 -1.2 -1.2 -1.2 -1.2 -1.2 -1.2 -1.2 -1.2 -1.2 -1.2 -1.2 -1.2 -1.2 -1.2 -1.2 -1.2 -1.2 -1.2 -1.2 -1.2 -1.2 -1.2 -1.2
259.7 267.9 269.3 265.3 258 246.5 235.5 225.1 211.7 196.2 185 174.9 164.2 157.3 145.5 132 123.5 116.6 110 103.4 97.3 91.2 85.1 78.7 76 73.8 63.4 76.5 86.1 98.6 99.8 87.6 69.2 52.6 37 31.3 28.8 21.7 21.2 20.4 10.7 8.1 8.6 10.4 24.5 41.6 62.9 90.3 115.7 137.9 154.6 159.6 163.6 172.3 182 189.1 193.3 197.2 195.2 189.5 179.5 176.2 174.2 166.8 171.9 171.3 171.4 165.8 155.6 153 148.1 143.2 140.7 137.5 136.5 137.6 140.6 141.9 139.1 144.2 146.6 148.4 147.5 148.9 148.8 152.5 157 159 158.9 157.9 152.3 149.4 143.3 133.8 133.2 124.2 116.9 103.1 109.4 107.6 108 106.9 104.9 98.8 94.1 89.7 79 79.4 51.5 50.5 30.2 10.8 1.8 1.1 0.5 0.8 -1.2 -1.2 -1.2 -1.2 -1.2 -1.2 -1.2 -1.2 -1.2 -1.2 -1.2 -1.2 -1.2 -1.2 -1.2 -1.2 -1.2 -1.2 -1.2 -1.2 -1.2 -1.2 -1.2 -1.2 -1.2 -1.2 -1.2 -1.2 -1.2 -1.2 -1.2 -1.2 -1.2 -1.2 -1.2 -1.2 -1.2 -1.2 -1.2 -1.2 -1.2 -1.2 -1.2 -1.2 -1.2 -1.2 -1.2 -1.2 -1.2 -1.2 -1.2 -1.2 -1.2 -1.2 -1.2 -1.2 -1.2 -1.2 -1.2 -1.2 -1.2 -1.2 -1.2 -1.2 -1.2 -1.2 -1.2 -1.2 -1.2 -1.2 -1.2 -1.2 -1.2 -1.2 -1.2 -1.2 -1.2 -1.2 -1.2 -1.2 -1.2 -1.2 -1.2 -1.2
269.3 277.6 281.7 279.4 271.9 257.7 242.6 232.9 220.2 206.6 194.6 186.7 178.6 170.1 162.1 150.1 138.4 131.8 121.1 114.5 108.1 102.4 94.7 92.1 88.4 81.4 69.1 85.6 94.6 104.2 101.3 93.6 79.9 65.7 44.7 32.9 30.6 23.3 21 20.5 11.1 8.9 8.4 9.9 18.8 39.2 60.3 85 109 127.8 142.9 152.1 155.2 161.7 169.8 177.2 181.2 182.6 183.1 184 181.5 179.8 174.6 167.5 163.4 167.3 171 169 162.3 151.9 142.7 138.7 131.2 129.4 125.2 123.6 125.7 126.9 129.8 129.6 134.3 137.8 138.8 137.6 136.5 135.3 135.7 137.3 137.3 136.6 132.5 131.2 133.8 128.2 123.4 115.9 111.3 106.1 85.9 94.3 92.2 89.6 87.4 82.2 76 63.2 58.2 46.8 29.1 11.4 5.3 1.4 0.2 -1.2 -1.2 -1.2 -1.2 -1.2 -1.2 -1.2 -1.2 -1.2 -1.2 -1.2 -1.2 -1.2 -1.2 -1.2 -1.2 -1.2 -1.2 -1.2 -1.2 -1.2 -1.2 -1.2 -1.2 -1.2 -1.2 -1.2 -1.2 -1.2 -1.2 -1.2 -1.2 -1.2 -1.2 -1.2 -1.2 -1.2 -1.2 -1.2 -1.2 -1.2 -1.2 -1.2 -1.2 -1.2 -1.2 -1.2 -1.2 -1.2 -1.2 -1.2 -1.2 -1.2 -1.2 -1.2 -1.2 -1.2 -1.2 -1.2 -1.2 -1.2 -1.2 -1.2 -1.2 -1.2 -1.2 -1.2 -1.2 -1.2 -1.2 -1.2 -1.2 -1.2 -1.2 -1.2 -1.2 -1.2 -1.2 -1.2 -1.2 -1.2 -1.2 -1.2 -1.2 -1.2 -1.2 -1.2
275.9 285.3 290.1 289.1 282.7 272.4 259.8 244.3 233.7 214.7 202.2 191.1 184.3 176.2 170.2 163 153.2 141.8 130.4 123.6 116.8 110 102 98.9 95.2 86 76.6 93.9 104.9 113.8 112.2 95.8 83.1 69.7 53.3 37.8 30.6 26.8 21.1 15.3 11.2 11.1 8.5 9.4 19.5 40.5 59.6 82.4 103.8 121.6 136.1 144.8 152.8 155.5 160.2 166.7 182.2 189 187.2 188.8 189.1 185.5 181.8 180.3 169.2 163.9 162.6 164.8 160.2 151.3 144.6 137 131.6 126.4 120.1 115.9 115 112.2 113.1 113.7 114.8 118.1 116.6 121.7 121.6 121.6 121.4 122.8 126.2 123.1 119.6 115.6 111.8 112.8 109.1 105 101.3 96.1 91.2 76.7 83.2 74.1 53.6 51.3 31.6 12.6 15.4 10.1 4.9 1.7 1 0.2 -1.2 -1.2 -1.2 -1.2 -1.2 -1.2 -1.2 -1.2 -1.2 -1.2 -1.2 -1.2 -1.2 -1.2 -1.2 -1.2 -1.2 -1.2 -1.2 -1.2 -1.2 -1.2 -1.2 -1.2 -1.2 -1.2 -1.2 -1.2 -1.2 -1.2 -1.2 -1.2 -1.2 -1.2 -1.2 -1.2 -1.2 -1.2 -1.2 -1.2 -1.2 -1.2 -1.2 -1.2 -1.2 -1.2 -1.2 -1.2 -1.2 -1.2 -1.2 -1.2 -1.2 -1.2 -1.2 -1.2 -1.2 -1.2 -1.2 -1.2 -1.2 -1.2 -1.2 -1.2 -1.2 -1.2 -1.2 -1.2 -1.2 -1.2 -1.2 -1.2 -1.2 -1.2 -1.2 -1.2 -1.2 -1.2 -1.2 -1.2 -1.2 -1.2 -1.2 -1.2 -1.2 -1.2 -1.2 -1.2
283.5 291.3 295.3 294.5 289.7 280.2 270.2 260 248.6 232.8 218.7 206.1 199.3 191.1 178.8 169.1 160.5 150.2 137.5 130.8 120.6 114.3 108.8 103.9 99.2 82.9 98.2 105.7 115.9 128.3 128.1 110 85.2 70.6 55.5 39.9 31.2 26.6 20.2 10.8 10.5 10.7 10.3 6.7 16.1 41.8 61.7 82.5 105.8 118.9 131.5 141.9 146.9 150.5 156 165.7 184 191.1 194.1 191.4 192.6 191 184.8 178.1 173.4 163.4 152.4 154.4 151.6 147.5 141.3 136.3 128.6 122.6 118.7 112.3 109.9 107.8 107 107.4 109.4 109.6 111.6 112.1 113 115.8 117.8 113.7 113.1 114.6 112.8 107.4 102.3 96.3 93.7 89.5 88.2 85.7 81.9 59.3 36.2 28.8 10 4.5 1.8 0.8 0.6 0.6 0.6 0.2 -1.2 -1.2 -1.2 -1.2 -1.2 -1.2 -1.2 -1.2 -1.2 -1.2 -1.2 -1.2 -1.2 -1.2 -1.2 -1.2 -1.2 -1.2 -1.2 -1.2 -1.2 -1.2 -1.2 -1.2 -1.2 -1.2 -1.2 -1.2 -1.2 -1.2 -1.2 -1.2 -1.2 -1.2 -1.2 -1.2 -1.2 -1.2 -1.2 -1.2 -1.2 -1.2 -1.2 -1.2 -1.2 -1.2 -1.2 -1.2 -1.2 -1.2 -1.2 -1.2 -1.2 -1.2 -1.2 -1.2 -1.2 -1.2 -1.2 -1.2 -1.2 -1.2 -1.2 -1.2 -1.2 -1.2 -1.2 -1.2 -1.2 -1.2 -1.2 -1.2 -1.2 -1.2 -1.2 -1.2 -1.2 -1.2 -1.2 -1.2 -1.2 -1.2 -1.2 -1.2 -1.2 -1.2 -1.2 -1.2 -1.2 -1.2
289.3 295.2 298.8 299 293.8 285.1 274.2 262.6 254.2 243.3 233 219.4 209.9 200 192.4 177.8 167.5 154.2 144.2 136.1 125.5 118.9 113 108.4 101.3 94.4 105.8 116 133.7 141.9 137.6 123.5 92.4 71.5 57.6 42.1 31.1 24.1 15.7 10.2 10.3 10.7 10 8.7 13.4 43.6 62.8 81.8 102.8 118.4 127.3 138.1 143.3 147.6 155.7 164.4 175.8 186.2 192 193.3 191.8 192.4 190 177.9 170.4 162.5 154.3 142.4 147 142.2 137.3 133.5 128.1 122.5 115.9 109.9 103.9 103.5 101.5 101.3 102.4 105.1 105.2 107.6 111.1 111.3 109.3 110 108.8 104.5 101.7 97.6 92.7 87.6 82.6 77.9 75 70.5 69.7 64.3 31.3 10.2 1.5 -1.2 -1.2 -1.2 -1.2 -1.2 -1.2 -1.2 -1.2 -1.2 -1.2 -1.2 -1.2 -1.2 -1.2 -1.2 -1.2 -1.2 -1.2 -1.2 -1.2 -1.2 -1.2 -1.2 -1.2 -1.2 -1.2 -1.2 -1.2 -1.2 -1.2 -1.2 -1.2 -1.2 -1.2 -1.2 -1.2 -1.2 -1.2 -1.2 -1.2 -1.2 -1.2 -1.2 -1.2 -1.2 -1.2 -1.2 -1.2 -1.2 -1.2 -1.2 -1.2 -1.2 -1.2 -1.2 -1.2 -1.2 -1.2 -1.2 -1.2 -1.2 -1.2 -1.2 -1.2 -1.2 -1.2 -1.2 -1.2 -1.2 -1.2 -1.2 -1.2 -1.2 -1.2 -1.2 -1.2 -1.2 -1.2 -1.2 -1.2 -1.2 -1.2 -1.2 -1.2 -1.2 -1.2 -1.2 -1.2 -1.2 -1.2 -1.2 -1.2 -1.2 -1.2 -1.2 -1.2 -1.2
294.6 297.8 301.6 301 297.4 289.5 281 270.3 259.6 251.3 239.7 227.2 213.8 202.1 191.2 180.5 170.6 155.2 146.3 136.9 129.6 122.7 117.4 112.1 97 104.3 112.1 127.9 143.7 145.4 134.7 118 98.5 72.3 55.1 37.5 28 25.3 11.8 10.4 10.1 10.6 9.8 8 19.2 43.3 62.7 80.4 100 115.6 127 134.5 141.5 146.7 154 165.3 171.8 180.2 186.1 190 190 184.4 183.9 176.8 167.9 160.6 154.8 144.8 139.1 138.9 135.7 133.2 128.9 122.9 116.3 110.1 103.6 96 96.8 96.8 97.5 100.3 102.8 102.5 105.9 104.7 103.7 103.6 101.3 98.8 95.1 91.6 84.9 79.2 73.8 70.2 65.7 60.1 59 55.9 12.3 2.8 -1.2 -1.2 -1.2 -1.2 -1.2 -1.2 -1.2 -1.2 -1.2 -1.2 -1.2 -1.2 -1.2 -1.2 -1.2 -1.2 -1.2 -1.2 -1.2 -1.2 -1.2 -1.2 -1.2 -1.2 -1.2 -1.2 -1.2 -1.2 -1.2 -1.2 -1.2 -1.2 -1.2 -1.2 -1.2 -1.2 -1.2 -1.2 -1.2 -1.2 -1.2 -1.2 -1.2 -1.2 -1.2 -1.2 -1.2 -1.2 -1.2 -1.2 -1.2 -1.2 -1.2 -1.2 -1.2 -1.2 -1.2 -1.2 -1.2 -1.2 -1.2 -1.2 -1.2 -1.2 -1.2 -1.2 -1.2 -1.2 -1.2 -1.2 -1.2 -1.2 -1.2 -1.2 -1.2 -1.2 -1.2 -1.2 -1.2 -1.2 -1.2 -1.2 -1.2 -1.2 -1.2 -1.2 -1.2 -1.2 -1.2 -1.2 -1.2 -1.2 -1.2 -1.2 -1.2 -1.2 -1.2 -1.2
299.5 300.3 302.7 301.9 297.3 292.4 282.7 270.8 263.4 254.9 243.9 231.7 218.7 205 192.9 179.6 168.7 157.4 147.4 138 131.4 126.1 120.1 114.1 103.5 113.5 122.2 139.2 152.9 154.7 135.8 117.9 99.4 73.7 49 33.2 27.7 20.4 10.5 10 10.1 10.4 9.8 8.5 18.7 43.1 63.3 84.2 100.9 116.6 126.8 135.3 140.9 147.3 159.1 168.6 172.6 176.8 183.7 187.9 185.6 182.3 175.2 173.4 166.6 160 151.3 145 132 120.2 128.4 129.3 126 122.3 117.2 109.4 102.3 97.5 91.5 94.3 93.4 96.5 98.1 97 100.8 99.9 99 100.7 95.2 93 87.1 82.9 79.3 74.6 69.5 64.4 56.6 55.2 51.5 42.9 7.4 1 -1.2 -1.2 -1.2 -1.2 -1.2 -1.2 -1.2 -1.2 -1.2 -1.2 -1.2 -1.2 -1.2 -1.2 -1.2 -1.2 -1.2 -1.2 -1.2 -1.2 -1.2 -1.2 -1.2 -1.2 -1.2 -1.2 -1.2 -1.2 -1.2 -1.2 -1.2 -1.2 -1.2 -1.2 -1.2 -1.2 -1.2 -1.2 -1.2 -1.2 -1.2 -1.2 -1.2 -1.2 -1.2 -1.2 -1.2 -1.2 -1.2 -1.2 -1.2 -1.2 -1.2 -1.2 -1.2 -1.2 -1.2 -1.2 -1.2 -1.2 -1.2 -1.2 -1.2 -1.2 -1.2 -1.2 -1.2 -1.2 -1.2 -1.2 -1.2 -1.2 -1.2 -1.2 -1.2 -1.2 -1.2 -1.2 -1.2 -1.2 -1.2 -1.2 -1.2 -1.2 -1.2 -1.2 -1.2 -1.2 -1.2 -1.2 -1.2 -1.2 -1.2 -1.2 -1.2 -1.2 -1.2 -1.2
303.6 304.4 306 303.7 298.2 289.9 281 270.9 261.8 248.9 242.2 226.3 214.3 202.6 188.9 176.5 165.7 156.1 146.9 138.2 131.1 126.5 122.3 114.7 119.3 122.9 133.4 151.4 164.8 166.6 148.4 119.4 96.1 73.7 46.6 30.3 28.1 21 8.8 9.4 9.6 9.8 9.9 6.4 19.1 45.5 68.3 90.2 107.8 123.2 133.2 137.4 145.2 155 165 176.4 180.7 178.9 184.3 188.2 192.2 192 186.5 178.6 168.6 157.1 147.4 138.4 131.4 124.4 112.6 119.3 121 117.2 113.2 107.9 101.3 95.9 93.1 81.8 91.9 90.3 89.7 91.7 94.4 94.1 93.7 93.5 93.2 89.5 83.7 77.7 72.8 67.2 61.6 58.7 53.4 49.5 47 15.9 3.7 -1.2 -1.2 -1.2 -1.2 -1.2 -1.2 -1.2 -1.2 -1.2 -1.2 -1.2 -1.2 -1.2 -1.2 -1.2 -1.2 -1.2 -1.2 -1.2 -1.2 -1.2 -1.2 -1.2 -1.2 -1.2 -1.2 -1.2 -1.2 -1.2 -1.2 -1.2 -1.2 -1.2 -1.2 -1.2 -1.2 -1.2 -1.2 -1.2 -1.2 -1.2 -1.2 -1.2 -1.2 -1.2 -1.2 -1.2 -1.2 -1.2 -1.2 -1.2 -1.2 -1.2 -1.2 -1.2 -1.2 -1.2 -1.2 -1.2 -1.2 -1.2 -1.2 -1.2 -1.2 -1.2 -1.2 -1.2 -1.2 -1.2 -1.2 -1.2 -1.2 -1.2 -1.2 -1.2 -1.2 -1.2 -1.2 -1.2 -1.2 -1.2 -1.2 -1.2 -1.2 -1.2 -1.2 -1.2 -1.2 -1.2 -1.2 -1.2 -1.2 -1.2 -1.2 -1.2 -1.2 -1.2 -1.2 -1.2
307.5 307.3 308.2 306.5 299.6 291.5 279.1 272.9 263.6 249.6 239.6 221.4 205.5 192.3 183.2 173.7 161.8 152.2 145.2 137.5 131.2 128 124.3 126.1 127.7 133.5 148.8 168.4 176.3 172.9 158.2 122.1 96.9 74.4 55.7 29.7 25.6 9.1 9 8.9 9.1 9.3 9.5 6.7 17.5 44.8 67.4 91.7 109.2 123.7 133.9 139.3 145.5 160.6 174.4 182.8 185.6 188.9 189.6 189.8 191 193 190 176.9 162.9 151.5 146 140.4 132.6 124.2 115.9 100.1 112.6 111.4 108.2 103.7 98.6 94.1 90.5 86 87 82.8 85 86.9 85 88.3 89.1 88.7 85.8 85.3 79.8 75.3 70.1 62.9 58.5 54.4 47.9 42.9 35.9 8.7 1.5 -1.2 -1.2 -1.2 -1.2 -1.2 -1.2 -1.2 -1.2 -1.2 -1.2 -1.2 -1.2 -1.2 -1.2 -1.2 -1.2 -1.2 -1.2 -1.2 -1.2 -1.2 -1.2 -1.2 -1.2 -1.2 -1.2 -1.2 -1.2 -1.2 -1.2 -1.2 -1.2 -1.2 -1.2 -1.2 -1.2 -1.2 -1.2 -1.2 -1.2 -1.2 -1.2 -1.2 -1.2 -1.2 -1.2 -1.2 -1.2 -1.2 -1.2 -1.2 -1.2 -1.2 -1.2 -1.2 -1.2 -1.2 -1.2 -1.2 -1.2 -1.2 -1.2 -1.2 -1.2 -1.2 -1.2 -1.2 -1.2 -1.2 -1.2 -1.2 -1.2 -1.2 -1.2 -1.2 -1.2 -1.2 -1.2 -1.2 -1.2 -1.2 -1.2 -1.2 -1.2 -1.2 -1.2 -1.2 -1.2 -1.2 -1.2 -1.2 -1.2 -1.2 -1.2 -1.2 -1.2 -1.2 -1.2 -1.2
313.1 313.1 312.7 310.4 305.6 297.7 285.3 271.1 258.2 244.8 228.9 213.3 199.2 187.3 177.6 168.9 160.8 150.6 143.8 137.5 132.8 130.5 131.5 134.6 137.8 147.6 163.2 181.6 184.9 174.9 154.8 128.3 98.4 74.5 54.6 30.5 19.3 9 9.1 9.1 9.1 9.1 9 6.4 17.2 40.6 64.1 89.6 105.6 120.8 131.2 138.4 151.1 168.4 183.4 194.6 192.6 196.7 197.3 198 194.2 188 180.6 171.3 160 146.1 137.7 133.1 129.5 122.2 114.9 105.9 93.4 102 101.4 97.9 95 91.1 88 83.4 75.4 80.5 80.8 79.2 81.5 77.9 82.7 82.6 80 76.7 73.2 68.3 62.9 54.8 52 45.7 43 38.6 27.4 3.1 0.5 -1.2 -1.2 -1.2 -1.2 -1.2 -1.2 -1.2 -1.2 -1.2 -1.2 -1.2 -1.2 -1.2 -1.2 -1.2 -1.2 -1.2 -1.2 -1.2 -1.2 -1.2 -1.2 -1.2 -1.2 -1.2 -1.2 -1.2 -1.2 -1.2 -1.2 -1.2 -1.2 -1.2 -1.2 -1.2 -1.2 -1.2 -1.2 -1.2 -1.2 -1.2 -1.2 -1.2 -1.2 -1.2 -1.2 -1.2 -1.2 -1.2 -1.2 -1.2 -1.2 -1.2 -1.2 -1.2 -1.2 -1.2 -1.2 -1.2 -1.2 -1.2 -1.2 -1.2 -1.2 -1.2 -1.2 -1.2 -1.2 -1.2 -1.2 -1.2 -1.2 -1.2 -1.2 -1.2 -1.2 -1.2 -1.2 -1.2 -1.2 -1.2 -1.2 -1.2 -1.2 -1.2 -1.2 -1.2 -1.2 -1.2 -1.2 -1.2 -1.2 -1.2 -1.2 -1.2 -1.2 -1.2 -1.2 -1.2
318.2 318.2 318.2 315 310.7 302.4 290.6 278.7 262.9 249 226.6 211.5 198.3 185.3 177 167.9 159.2 150.6 143.5 138.3 133.1 136.2 139.3 145.2 148.5 161.7 177.1 192.6 195.8 183.7 168.7 136.7 102.4 75.6 53.5 36 17.4 8.7 8.5 8.6 8.6 8.6 8.6 6 16.2 35.1 61.6 85.7 101.5 118 125.6 134.4 153.6 171.7 187.1 195.4 196.2 199.7 200 197.8 195.1 190.1 183.5 171.1 157.8 141.2 136.3 135 133.7 127 116.2 105.7 99.4 95.5 93.1 91.7 90 87.5 85.6 82.3 74 72.2 72.6 73.8 75.7 72 74.4 74.1 76.4 72.7 61.3 59.2 54.3 51.1 46.3 40.4 36.9 29 6.4 1.3 -1.2 -1.2 -1.2 -1.2 -1.2 -1.2 -1.2 -1.2 -1.2 -1.2 -1.2 -1.2 -1.2 -1.2 -1.2 -1.2 -1.2 -1.2 -1.2 -1.2 -1.2 -1.2 -1.2 -1.2 -1.2 -1.2 -1.2 -1.2 -1.2 -1.2 -1.2 -1.2 -1.2 -1.2 -1.2 -1.2 -1.2 -1.2 -1.2 -1.2 -1.2 -1.2 -1.2 -1.2 -1.2 -1.2 -1.2 -1.2 -1.2 -1.2 -1.2 -1.2 -1.2 -1.2 -1.2 -1.2 -1.2 -1.2 -1.2 -1.2 -1.2 -1.2 -1.2 -1.2 -1.2 -1.2 -1.2 -1.2 -1.2 -1.2 -1.2 -1.2 -1.2 -1.2 -1.2 -1.2 -1.2 -1.2 -1.2 -1.2 -1.2 -1.2 -1.2 -1.2 -1.2 -1.2 -1.2 -1.2 -1.2 -1.2 -1.2 -1.2 -1.2 -1.2 -1.2 -1.2 -1.2 -1.2 -1.2 -1.2
321.2 320.6 321.3 317 312.7 306.2 295.5 281.6 270.8 257.5 230.4 209.7 195.6 182.7 172.7 164.6 157.4 151.1 145.6 138.8 140.2 141.9 146.2 153.7 162.5 173.1 190.5 203.8 205.5 196 181 143.1 104.9 78.7 54.4 33.2 17.6 7.8 8.1 8 8.1 8.3 8.6 9.2 16.5 31.4 55.3 81 96.1 109.3 122 137.1 155.3 170 185.4 193.9 196.3 199.8 200.6 198.8 193.4 186.7 177.1 166.6 152.2 140.3 135 136.4 136.6 128 118.6 107.5 99.2 93 86.8 82.4 84.1 82.7 77.3 79.1 75.5 73 64.8 67.1 66.4 67 66.9 65.8 66.6 62.8 59.5 53.1 45.7 44.1 40.3 12.3 4.7 2 1.3 0.1 -1.2 -1.2 -1.2 -1.2 -1.2 -1.2 -1.2 -1.2 -1.2 -1.2 -1.2 -1.2 -1.2 -1.2 -1.2 -1.2 -1.2 -1.2 -1.2 -1.2 -1.2 -1.2 -1.2 -1.2 -1.2 -1.2 -1.2 -1.2 -1.2 -1.2 -1.2 -1.2 -1.2 -1.2 -1.2 -1.2 -1.2 -1.2 -1.2 -1.2 -1.2 -1.2 -1.2 -1.2 -1.2 -1.2 -1.2 -1.2 -1.2 -1.2 -1.2 -1.2 -1.2 -1.2 -1.2 -1.2 -1.2 -1.2 -1.2 -1.2 -1.2 -1.2 -1.2 -1.2 -1.2 -1.2 -1.2 -1.2 -1.2 -1.2 -1.2 -1.2 -1.2 -1.2 -1.2 -1.2 -1.2 -1.2 -1.2 -1.2 -1.2 -1.2 -1.2 -1.2 -1.2 -1.2 -1.2 -1.2 -1.2 -1.2 -1.2 -1.2 -1.2 -1.2 -1.2 -1.2 -1.2 -1.2 -1.2 -1.2
323.6 318.9 319.3 314.6 311.9 309.6 300.9 288.6 276.7 264.7 235.5 211.9 195.6 183.1 174 166.7 159.8 154.1 148.8 145 145.6 148.4 154.3 162 172.1 183 200.5 213.1 220.2 207.1 185.5 145.8 109.7 79.2 53 31.2 13 7.6 7.8 7.7 7.7 8.3 5.7 16.2 17.2 27.5 49.7 73.8 93.2 105.4 120.8 139.1 156.5 168.1 185.8 189.3 192.7 196.2 199.5 198.7 193.4 182.4 171.8 159.4 145.7 137.3 135.3 135.7 134.2 127.3 117.4 105.8 96.7 91 85.8 82.7 73.3 77.4 71.5 73.9 71.4 69.5 67.9 58.9 63 63.9 60.8 59.4 57.8 56.2 53.2 50.5 45.6 30 10.4 3.3 0.8 0.2 -0.2 -1.2 -1.2 -1.2 -1.2 -1.2 -1.2 -1.2 -1.2 -1.2 -1.2 -1.2 -1.2 -1.2 -1.2 -1.2 -1.2 -1.2 -1.2 -1.2 -1.2 -1.2 -1.2 -1.2 -1.2 -1.2 -1.2 -1.2 -1.2 -1.2 -1.2 -1.2 -1.2 -1.2 -1.2 -1.2 -1.2 -1.2 -1.2 -1.2 -1.2 -1.2 -1.2 -1.2 -1.2 -1.2 -1.2 -1.2 -1.2 -1.2 -1.2 -1.2 -1.2 -1.2 -1.2 -1.2 -1.2 -1.2 -1.2 -1.2 -1.2 -1.2 -1.2 -1.2 -1.2 -1.2 -1.2 -1.2 -1.2 -1.2 -1.2 -1.2 -1.2 -1.2 -1.2 -1.2 -1.2 -1.2 -1.2 -1.2 -1.2 -1.2 -1.2 -1.2 -1.2 -1.2 -1.2 -1.2 -1.2 -1.2 -1.2 -1.2 -1.2 -1.2 -1.2 -1.2 -1.2 -1.2 -1.2 -1.2 -1.2 -1.2
319.7 315.3 308.3 308.9 311.3 308.2 300.4 288.7 275.7 264.4 241.6 218.7 198.5 184.5 174.4 168.6 162.4 157.7 153.8 152 151.7 154.7 161.6 169.7 180.5 192.9 211.6 226.7 230.2 220.1 189 147.3 114.8 79.5 55.7 31 9.4 7.7 8.1 8.2 8.2 8.5 5.6 16.6 17.3 25.8 43.2 68.2 89.2 101.2 117.5 136.3 153.9 165.1 180.9 185.7 186.8 193.3 197.3 198.6 190.8 181.1 169.5 155.9 145 139 136.9 135.4 134 125.2 113.7 105.4 97.1 89 84.2 80.7 76.1 68.1 68 68.3 66 64.6 64.3 63.1 56.4 56.3 52.9 58.5 51.2 47.5 49.3 44.9 41.7 23.5 6.1 -1.2 -1.2 -1.2 -1.2 -1.2 -1.2 -1.2 -1.2 -1.2 -1.2 -1.2 -1.2 -1.2 -1.2 -1.2 -1.2 -1.2 -1.2 -1.2 -1.2 -1.2 -1.2 -1.2 -1.2 -1.2 -1.2 -1.2 -1.2 -1.2 -1.2 -1.2 -1.2 -1.2 -1.2 -1.2 -1.2 -1.2 -1.2 -1.2 -1.2 -1.2 -1.2 -1.2 -1.2 -1.2 -1.2 -1.2 -1.2 -1.2 -1.2 -1.2 -1.2 -1.2 -1.2 -1.2 -1.2 -1.2 -1.2 -1.2 -1.2 -1.2 -1.2 -1.2 -1.2 -1.2 -1.2 -1.2 -1.2 -1.2 -1.2 -1.2 -1.2 -1.2 -1.2 -1.2 -1.2 -1.2 -1.2 -1.2 -1.2 -1.2 -1.2 -1.2 -1.2 -1.2 -1.2 -1.2 -1.2 -1.2 -1.2 -1.2 -1.2 -1.2 -1.2 -1.2 -1.2 -1.2 -1.2 -1.2 -1.2 -1.2 -1.2 -1.2 -1.2 -1.2
315.4 308.9 303.4 298.6 296.6 294.3 293.1 284.7 271.3 261.1 241.8 224.2 202.5 186.8 179.4 170.3 165.5 162.7 160.7 158.8 158 161.8 169.3 178.2 189.5 205.2 222.5 236.3 240.1 227.2 187.5 145.5 110 81.6 55.6 31.7 8 7.6 7.8 8.1 7.5 7.4 7.8 16.6 17.1 27.2 35.1 59.9 84.5 97.7 115.9 136.5 152.8 164.1 177.6 180.8 183.1 188.5 191.7 198.7 190 178.2 171.2 156.3 144.5 142 139.6 138.9 136.8 127.5 116.8 107.5 99.8 91.3 84.1 77.2 72.3 61.1 63.9 63 60.5 58.7 58.3 59.2 59.4 59.5 58.4 54.6 52.1 45.8 36.6 37.3 31.4 31.5 2.9 -1.2 -1.2 -1.2 -1.2 -1.2 -1.2 -1.2 -1.2 -1.2 -1.2 -1.2 -1.2 -1.2 -1.2 -1.2 -1.2 -1.2 -1.2 -1.2 -1.2 -1.2 -1.2 -1.2 -1.2 -1.2 -1.2 -1.2 -1.2 -1.2 -1.2 -1.2 -1.2 -1.2 -1.2 -1.2 -1.2 -1.2 -1.2 -1.2 -1.2 -1.2 -1.2 -1.2 -1.2 -1.2 -1.2 -1.2 -1.2 -1.2 -1.2 -1.2 -1.2 -1.2 -1.2 -1.2 -1.2 -1.2 -1.2 -1.2 -1.2 -1.2 -1.2 -1.2 -1.2 -1.2 -1.2 -1.2 -1.2 -1.2 -1.2 -1.2 -1.2 -1.2 -1.2 -1.2 -1.2 -1.2 -1.2 -1.2 -1.2 -1.2 -1.2 -1.2 -1.2 -1.2 -1.2 -1.2 -1.2 -1.2 -1.2 -1.2 -1.2 -1.2 -1.2 -1.2 -1.2 -1.2 -1.2 -1.2 -1.2 -1.2 -1.2 -1.2 -1.2 -1.2
310.1 304.7 297.7 295.8 293.4 286 279.5 270.7 262.5 253.1 240.9 228.2 208.4 193.3 182 174.9 170.5 168.8 166.1 165.4 165.4 169 178.1 188.2 200.6 217.8 233.6 245 240.3 220.8 187.5 147.4 114.7 85.2 58.6 32.6 12.1 7 7.3 7.6 7.3 5.4 8.1 16.6 16.9 23.7 28.7 54.7 77.9 91.3 114.8 138.9 155 164 176.8 178.1 180 185.6 187.8 187.8 186.9 179.6 176.7 165.8 149.1 147.4 144.9 144.1 141.7 134.8 122.6 112.9 104.9 96.1 88.2 80.5 73.6 66.6 60.3 58.6 55.7 53.6 52.5 53.3 54.8 56.8 58 55.9 52.9 48.9 46.1 42.3 38.1 34.5 4.1 0.4 -1.2 -1.2 -1.2 -1.2 -1.2 -1.2 -1.2 -1.2 -1.2 -1.2 -1.2 -1.2 -1.2 -1.2 -1.2 -1.2 -1.2 -1.2 -1.2 -1.2 -1.2 -1.2 -1.2 -1.2 -1.2 -1.2 -1.2 -1.2 -1.2 -1.2 -1.2 -1.2 -1.2 -1.2 -1.2 -1.2 -1.2 -1.2 -1.2 -1.2 -1.2 -1.2 -1.2 -1.2 -1.2 -1.2 -1.2 -1.2 -1.2 -1.2 -1.2 -1.2 -1.2 -1.2 -1.2 -1.2 -1.2 -1.2 -1.2 -1.2 -1.2 -1.2 -1.2 -1.2 -1.2 -1.2 -1.2 -1.2 -1.2 -1.2 -1.2 -1.2 -1.2 -1.2 -1.2 -1.2 -1.2 -1.2 -1.2 -1.2 -1.2 -1.2 -1.2 -1.2 -1.2 -1.2 -1.2 -1.2 -1.2 -1.2 -1.2 -1.2 -1.2 -1.2 -1.2 -1.2 -1.2 -1.2 -1.2 -1.2 -1.2 -1.2 -1.2 -1.2
307 299.2 290.4 286.2 287.3 281 276.6 267.5 253.6 245 237.2 227.3 214.8 198.9 186.6 180.2 176.6 174.9 173.1 173.3 174.4 179.6 187.3 197.6 208.9 226 239.2 247.5 241.4 228.3 195.3 152.4 118.3 89.3 62.8 37.5 18.8 6.6 6.9 7.1 7.4 5.4 10.3 16.6 17.8 22.6 28.6 47.8 70.6 88.2 112.1 137.2 155.8 163.5 172.4 178 176.5 181.1 183.6 183.8 180.2 174.7 171 164.9 154.7 156.3 150.4 148.3 145.5 140.5 132.7 122.8 113.5 102.4 93.7 85 77.4 69.1 57.2 46 45.9 49.2 48.1 48.1 49 50.8 53 52.8 49.6 46 44 40.8 36.9 33.2 3.3 0.6 -1.2 -1.2 -1.2 -1.2 -1.2 -1.2 -1.2 -1.2 -1.2 -1.2 -1.2 -1.2 -1.2 -1.2 -1.2 -1.2 -1.2 -1.2 -1.2 -1.2 -1.2 -1.2 -1.2 -1.2 -1.2 -1.2 -1.2 -1.2 -1.2 -1.2 -1.2 -1.2 -1.2 -1.2 -1.2 -1.2 -1.2 -1.2 -1.2 -1.2 -1.2 -1.2 -1.2 -1.2 -1.2 -1.2 -1.2 -1.2 -1.2 -1.2 -1.2 -1.2 -1.2 -1.2 -1.2 -1.2 -1.2 -1.2 -1.2 -1.2 -1.2 -1.2 -1.2 -1.2 -1.2 -1.2 -1.2 -1.2 -1.2 -1.2 -1.2 -1.2 -1.2 -1.2 -1.2 -1.2 -1.2 -1.2 -1.2 -1.2 -1.2 -1.2 -1.2 -1.2 -1.2 -1.2 -1.2 -1.2 -1.2 -1.2 -1.2 -1.2 -1.2 -1.2 -1.2 -1.2 -1.2 -1.2 -1.2 -1.2 -1.2 -1.2 -1.2 -1.2
299.8 294.1 288.3 285.6 281.7 276 270.2 262.4 250.6 241.7 233.3 226.1 218.7 205.7 195.5 187.6 184 182.3 180.5 181.5 185.6 190.8 197.1 205.6 218.1 233.5 245.9 248.7 249.4 240.1 202.9 154.1 121.7 96.1 70.4 41.8 26.2 7.3 6.9 7.2 7.3 7.1 15.9 16.2 16.6 23.5 27.9 40.9 60.9 77.3 106.8 131.3 148.9 161.8 169.1 177.1 174.3 177 183.9 181.3 177.5 174.8 171.7 164.2 156.8 152.3 150.1 150.1 146.5 144.3 139.2 132.8 121.2 109.8 99.2 89.3 78.7 69.3 54.6 53.6 43.7 39.2 43.9 43.3 43.2 44.3 45.5 45.5 44.2 41.6 39.8 38 33.7 25.2 1.9 0.4 -1.2 -1.2 -1.2 -1.2 -1.2 -1.2 -1.2 -1.2 -1.2 -1.2 -1.2 -1.2 -1.2 -1.2 -1.2 -1.2 -1.2 -1.2 -1.2 -1.2 -1.2 -1.2 -1.2 -1.2 -1.2 -1.2 -1.2 -1.2 -1.2 -1.2 -1.2 -1.2 -1.2 -1.2 -1.2 -1.2 -1.2 -1.2 -1.2 -1.2 -1.2 -1.2 -1.2 -1.2 -1.2 -1.2 -1.2 -1.2 -1.2 -1.2 -1.2 -1.2 -1.2 -1.2 -1.2 -1.2 -1.2 -1.2 -1.2 -1.2 -1.2 -1.2 -1.2 -1.2 -1.2 -1.2 -1.2 -1.2 -1.2 -1.2 -1.2 -1.2 -1.2 -1.2 -1.2 -1.2 -1.2 -1.2 -1.2 -1.2 -1.2 -1.2 -1.2 -1.2 -1.2 -1.2 -1.2 -1.2 -1.2 -1.2 -1.2 -1.2 -1.2 -1.2 -1.2 -1.2 -1.2 -1.2 -1.2 -1.2 -1.2 -1.2 -1.2 -1.2
295.4 289.4 284 283.6 282.3 275.2 270.2 259.8 252.2 242.7 234.4 226.1 220.4 212.8 205 197 193.3 192.3 192.3 193 193.7 198 204.2 213.4 224.9 239.6 253.4 256.5 246.5 239.1 199.3 160.9 128.4 102.6 77.7 50.3 29.7 10.2 6.8 7.2 6 6.4 15.9 16.4 16.6 23 28.1 30.5 51.6 71.6 94.1 127.3 136.3 150.7 160.2 169.2 171.2 173.5 180.1 181.7 181.3 177.1 177.8 171.9 163.6 160 154.1 148.3 147.5 145.1 142.2 137.1 127.6 116.1 103.4 90.9 78.4 67.4 52.6 51.2 46.1 34.3 40.2 39.5 38.6 38.4 38 38.2 37.8 35.3 34.2 33.1 22.6 10 1.2 0 -1.2 -1.2 -1.2 -1.2 -1.2 -1.2 -1.2 -1.2 -1.2 -1.2 -1.2 -1.2 -1.2 -1.2 -1.2 -1.2 -1.2 -1.2 -1.2 -1.2 -1.2 -1.2 -1.2 -1.2 -1.2 -1.2 -1.2 -1.2 -1.2 -1.2 -1.2 -1.2 -1.2 -1.2 -1.2 -1.2 -1.2 -1.2 -1.2 -1.2 -1.2 -1.2 -1.2 -1.2 -1.2 -1.2 -1.2 -1.2 -1.2 -1.2 -1.2 -1.2 -1.2 -1.2 -1.2 -1.2 -1.2 -1.2 -1.2 -1.2 -1.2 -1.2 -1.2 -1.2 -1.2 -1.2 -1.2 -1.2 -1.2 -1.2 -1.2 -1.2 -1.2 -1.2 -1.2 -1.2 -1.2 -1.2 -1.2 -1.2 -1.2 -1.2 -1.2 -1.2 -1.2 -1.2 -1.2 -1.2 -1.2 -1.2 -1.2 -1.2 -1.2 -1.2 -1.2 -1.2 -1.2 -1.2 -1.2 -1.2 -1.2 -1.2 -1.2 -1.2
290.7 287.8 282.3 284 279.1 275.4 269.6 261.9 254.7 246.8 241.3 232.3 224.5 219.5 216.7 211.3 209.2 207.9 205.8 204.1 204.1 206.2 211.9 220 231 245.9 260.4 258.7 251.1 229 202.3 166.9 135.9 111.4 85.3 59 33.6 20.1 6.2 6.3 4.8 13.2 15.7 15.7 16.8 22.6 28.5 28.2 41.8 59.5 79.6 111.8 122.2 138.4 150 160.9 168.5 173.8 176.7 182.6 184.2 178.9 175.2 173.1 167.8 162.8 157.6 151.9 146.5 142.6 139.4 134.7 126.6 114.8 102.9 89.5 76.6 65.4 51.2 48.8 42.9 37.3 36.9 36 35.2 33.9 33.3 32.3 30.9 28.7 19.3 10.5 4.2 1.3 0.1 -1.2 -1.2 -1.2 -1.2 -1.2 -1.2 -1.2 -1.2 -1.2 -1.2 -1.2 -1.2 -1.2 -1.2 -1.2 -1.2 -1.2 -1.2 -1.2 -1.2 -1.2 -1.2 -1.2 -1.2 -1.2 -1.2 -1.2 -1.2 -1.2 -1.2 -1.2 -1.2 -1.2 -1.2 -1.2 -1.2 -1.2 -1.2 -1.2 -1.2 -1.2 -1.2 -1.2 -1.2 -1.2 -1.2 -1.2 -1.2 -1.2 -1.2 -1.2 -1.2 -1.2 -1.2 -1.2 -1.2 -1.2 -1.2 -1.2 -1.2 -1.2 -1.2 -1.2 -1.2 -1.2 -1.2 -1.2 -1.2 -1.2 -1.2 -1.2 -1.2 -1.2 -1.2 -1.2 -1.2 -1.2 -1.2 -1.2 -1.2 -1.2 -1.2 -1.2 -1.2 -1.2 -1.2 -1.2 -1.2 -1.2 -1.2 -1.2 -1.2 -1.2 -1.2 -1.2 -1.2 -1.2 -1.2 -1.2 -1.2 -1.2 -1.2 -1.2 -1.2 -1.2
279.1 278 275.9 278.8 277.8 274.2 271.7 265.8 256.8 252.9 251.6 245.4 241.4 234.2 231.7 226.8 224.2 220.8 218.4 216.6 215 216.1 220.6 227 241.1 254.9 259.9 258.1 249.9 240.3 210.8 173.5 144 119.3 94.7 67.6 43.8 26.1 7.5 6 4.6 10.4 13.9 15.5 16.3 21.6 24.6 27.1 33.2 51.2 64.7 87.1 109.7 122.4 142.6 157.4 166.5 173.9 178.2 182.6 183.8 182.3 174.9 169.7 169.7 164.5 158.5 152.6 146.3 141 134.7 129.5 122.8 110.4 98.6 86.9 74.3 62.7 50.3 46.3 40.2 35.4 27.5 31.4 30.4 29.6 28.6 27.2 25.9 18.2 2 1.3 0.6 -0.2 -1.2 -1.2 -1.2 -1.2 -1.2 -1.2 -1.2 -1.2 -1.2 -1.2 -1.2 -1.2 -1.2 -1.2 -1.2 -1.2 -1.2 -1.2 -1.2 -1.2 -1.2 -1.2 -1.2 -1.2 -1.2 -1.2 -1.2 -1.2 -1.2 -1.2 -1.2 -1.2 -1.2 -1.2 -1.2 -1.2 -1.2 -1.2 -1.2 -1.2 -1.2 -1.2 -1.2 -1.2 -1.2 -1.2 -1.2 -1.2 -1.2 -1.2 -1.2 -1.2 -1.2 -1.2 -1.2 -1.2 -1.2 -1.2 -1.2 -1.2 -1.2 -1.2 -1.2 -1.2 -1.2 -1.2 -1.2 -1.2 -1.2 -1.2 -1.2 -1.2 -1.2 -1.2 -1.2 -1.2 -1.2 -1.2 -1.2 -1.2 -1.2 -1.2 -1.2 -1.2 -1.2 -1.2 -1.2 -1.2 -1.2 -1.2 -1.2 -1.2 -1.2 -1.2 -1.2 -1.2 -1.2 -1.2 -1.2 -1.2 -1.2 -1.2 -1.2 -1.2 -1.2 -1.2
266.1 269.7 269.2 277.3 277.2 273.5 272.9 268.1 262.6 261.2 260.8 260.5 252.9 247.6 242.6 239.6 235.8 233 229.2 227.3 225.3 225.1 227.4 235.5 249.9 259.7 263.8 260.7 252.7 239.2 219.1 184.7 154.6 129.3 103.9 76.7 53.3 34 23.7 7.5 4.1 7 12.6 14.8 16.6 20 25.2 26.3 29.1 41.6 52 71.7 94.6 108.6 131.7 151.4 161.5 175.6 178.8 180.6 181.9 178.9 174.3 169.2 167.3 164.9 157 152.9 146.8 142.7 136.1 126.3 117.2 104.9 94.5 84.4 70.5 61.9 50.4 44.8 38.6 34.5 28.7 23.2 21.4 26.9 25.7 24.2 23.3 1.9 0.9 0.1 -1.2 -1.2 -1.2 -1.2 -1.2 -1.2 -1.2 -1.2 -1.2 -1.2 -1.2 -1.2 -1.2 -1.2 -1.2 -1.2 -1.2 -1.2 -1.2 -1.2 -1.2 -1.2 -1.2 -1.2 -1.2 -1.2 -1.2 -1.2 -1.2 -1.2 -1.2 -1.2 -1.2 -1.2 -1.2 -1.2 -1.2 -1.2 -1.2 -1.2 -1.2 -1.2 -1.2 -1.2 -1.2 -1.2 -1.2 -1.2 -1.2 -1.2 -1.2 -1.2 -1.2 -1.2 -1.2 -1.2 -1.2 -1.2 -1.2 -1.2 -1.2 -1.2 -1.2 -1.2 -1.2 -1.2 -1.2 -1.2 -1.2 -1.2 -1.2 -1.2 -1.2 -1.2 -1.2 -1.2 -1.2 -1.2 -1.2 -1.2 -1.2 -1.2 -1.2 -1.2 -1.2 -1.2 -1.2 -1.2 -1.2 -1.2 -1.2 -1.2 -1.2 -1.2 -1.2 -1.2 -1.2 -1.2 -1.2 -1.2 -1.2 -1.2 -1.2 -1.2 -1.2 -1.2 -1.2 -1.2
253.2 259.6 262.5 265.9 270.5 268.4 268.4 269.6 268.7 270.1 269.5 265.2 260.5 254.3 248.7 244.5 239.8 235.4 233.1 232.8 232.9 231.3 233.2 243.4 254.9 262 263.4 261.6 257.3 236.8 222.1 203.3 171.6 141.4 112.3 84.9 60.6 41.4 28.7 21.5 8.5 4.1 8.4 14.9 16 19.8 20.9 25.8 27.7 35.8 43.7 59 78.3 96.1 118.5 141.5 152.4 176.5 179.6 181.4 179.2 175 172.9 167.6 163.3 162.2 159.3 155.8 150.1 148.5 143.6 133.6 125 114.7 98.6 84.1 70.5 56.6 50.7 36.5 34.6 26.8 22.3 19.9 12.7 22.2 24.6 22.9 3.2 1 0 -1.2 -1.2 -1.2 -1.2 -1.2 -1.2 -1.2 -1.2 -1.2 -1.2 -1.2 -1.2 -1.2 -1.2 -1.2 -1.2 -1.2 -1.2 -1.2 -1.2 -1.2 -1.2 -1.2 -1.2 -1.2 -1.2 -1.2 -1.2 -1.2 -1.2 -1.2 -1.2 -1.2 -1.2 -1.2 -1.2 -1.2 -1.2 -1.2 -1.2 -1.2 -1.2 -1.2 -1.2 -1.2 -1.2 -1.2 -1.2 -1.2 -1.2 -1.2 -1.2 -1.2 -1.2 -1.2 -1.2 -1.2 -1.2 -1.2 -1.2 -1.2 -1.2 -1.2 -1.2 -1.2 -1.2 -1.2 -1.2 -1.2 -1.2 -1.2 -1.2 -1.2 -1.2 -1.2 -1.2 -1.2 -1.2 -1.2 -1.2 -1.2 -1.2 -1.2 -1.2 -1.2 -1.2 -1.2 -1.2 -1.2 -1.2 -1.2 -1.2 -1.2 -1.2 -1.2 -1.2 -1.2 -1.2 -1.2 -1.2 -1.2 -1.2 -1.2 -1.2 -1.2 -1.2 -1.2 -1.2 -1.2
243.6 247.1 254.7 260.8 262.2 266.8 271.2 273.1 272.7 273.6 271.4 266.6 261.4 255.9 251.9 250.3 247.2 242.4 232.8 233.1 235.7 234.5 233.2 247 256.2 261.6 262.6 258.9 250.9 238.6 231.4 217.2 188.3 155.4 122 93.3 69.1 51.1 33.4 25.1 16.6 8.9 3.4 6.7 15.9 20 19.7 27.2 26.7 29.8 37.7 47.6 59.9 82.2 96.9 125.3 140.7 161.4 174.2 179.5 180.1 175.1 173.6 165.8 163.2 162.1 160.7 156.9 153.6 150.4 144.3 137.6 129.8 120.2 108.8 88 73.1 60.2 51.3 43.2 37.4 19.2 9.7 6.7 1.9 2.6 8 4.3 1.1 0.1 -1.2 -1.2 -1.2 -1.2 -1.2 -1.2 -1.2 -1.2 -1.2 -1.2 -1.2 -1.2 -1.2 -1.2 -1.2 -1.2 -1.2 -1.2 -1.2 -1.2 -1.2 -1.2 -1.2 -1.2 -1.2 -1.2 -1.2 -1.2 -1.2 -1.2 -1.2 -1.2 -1.2 -1.2 -1.2 -1.2 -1.2 -1.2 -1.2 -1.2 -1.2 -1.2 -1.2 -1.2 -1.2 -1.2 -1.2 -1.2 -1.2 -1.2 -1.2 -1.2 -1.2 -1.2 -1.2 -1.2 -1.2 -1.2 -1.2 -1.2 -1.2 -1.2 -1.2 -1.2 -1.2 -1.2 -1.2 -1.2 -1.2 -1.2 -1.2 -1.2 -1.2 -1.2 -1.2 -1.2 -1.2 -1.2 -1.2 -1.2 -1.2 -1.2 -1.2 -1.2 -1.2 -1.2 -1.2 -1.2 -1.2 -1.2 -1.2 -1.2 -1.2 -1.2 -1.2 -1.2 -1.2 -1.2 -1.2 -1.2 -1.2 -1.2 -1.2 -1.2 -1.2 -1.2 -1.2 -1.2 -1.2 -1.2
237 243 249.6 256 261.2 266.1 270.9 273.7 275.6 276.4 273.3 269.1 268.4 262.2 261.2 254.4 248.8 241.8 234.9 232.2 229.7 228.2 230.2 240.8 253.1 259.4 260.5 253.3 247.6 238.9 231.6 226.8 201.7 168.6 133.3 102.2 79 61.6 41.9 30.5 21.1 13.9 8.7 2.1 13.2 18.1 19.6 24.7 26.5 25.6 28.2 39.2 51.7 68.2 82.7 98.9 124.2 135.9 154.9 169.4 178 175.7 171.5 168.3 165.8 163.1 159.3 158.2 158.3 157 151.7 143.7 131 120 105.7 93.5 78.5 63.3 52.4 43.2 34.2 12.6 7.3 1.3 -1.2 -1.2 0.5 0.4 -1.2 -1.2 -1.2 -1.2 -1.2 -1.2 -1.2 -1.2 -1.2 -1.2 -1.2 -1.2 -1.2 -1.2 -1.2 -1.2 -1.2 -1.2 -1.2 -1.2 -1.2 -1.2 -1.2 -1.2 -1.2 -1.2 -1.2 -1.2 -1.2 -1.2 -1.2 -1.2 -1.2 -1.2 -1.2 -1.2 -1.2 -1.2 -1.2 -1.2 -1.2 -1.2 -1.2 -1.2 -1.2 -1.2 -1.2 -1.2 -1.2 -1.2 -1.2 -1.2 -1.2 -1.2 -1.2 -1.2 -1.2 -1.2 -1.2 -1.2 -1.2 -1.2 -1.2 -1.2 -1.2 -1.2 -1.2 -1.2 -1.2 -1.2 -1.2 -1.2 -1.2 -1.2 -1.2 -1.2 -1.2 -1.2 -1.2 -1.2 -1.2 -1.2 -1.2 -1.2 -1.2 -1.2 -1.2 -1.2 -1.2 -1.2 -1.2 -1.2 -1.2 -1.2 -1.2 -1.2 -1.2 -1.2 -1.2 -1.2 -1.2 -1.2 -1.2 -1.2 -1.2 -1.2 -1.2 -1.2 -1.2 -1.2 -1.2 -1.2
232 237.5 244 256.1 261.2 266.5 270.7 274.6 276.1 277.3 276 274.4 272.7 266.5 264.2 254.7 249 240.6 232.1 229.1 224 213.6 219.8 232.8 241.5 248.1 249.9 248.4 239.6 239.2 230.3 225.9 208.8 179.1 144.6 109.3 86.6 71.4 48.6 36.7 27.8 16.3 12 6.7 3.6 17.1 18.4 21.6 24.4 26.6 25.2 29.4 35.7 47.7 66.6 82.6 102.5 118.2 139.9 163.7 169.6 170.1 172.3 169.7 164.3 156.4 154.6 153.9 150.9 150.2 144.9 138.2 129.6 117.3 105.6 92.4 80.3 67.4 54 46.8 29.4 10.3 -1.2 -1.2 -1.2 -1.2 -1.2 -1.2 -1.2 -1.2 -1.2 -1.2 -1.2 -1.2 -1.2 -1.2 -1.2 -1.2 -1.2 -1.2 -1.2 -1.2 -1.2 -1.2 -1.2 -1.2 -1.2 -1.2 -1.2 -1.2 -1.2 -1.2 -1.2 -1.2 -1.2 -1.2 -1.2 -1.2 -1.2 -1.2 -1.2 -1.2 -1.2 -1.2 -1.2 -1.2 -1.2 -1.2 -1.2 -1.2 -1.2 -1.2 -1.2 -1.2 -1.2 -1.2 -1.2 -1.2 -1.2 -1.2 -1.2 -1.2 -1.2 -1.2 -1.2 -1.2 -1.2 -1.2 -1.2 -1.2 -1.2 -1.2 -1.2 -1.2 -1.2 -1.2 -1.2 -1.2 -1.2 -1.2 -1.2 -1.2 -1.2 -1.2 -1.2 -1.2 -1.2 -1.2 -1.2 -1.2 -1.2 -1.2 -1.2 -1.2 -1.2 -1.2 -1.2 -1.2 -1.2 -1.2 -1.2 -1.2 -1.2 -1.2 -1.2 -1.2 -1.2 -1.2 -1.2 -1.2 -1.2 -1.2 -1.2 -1.2 -1.2 -1.2 -1.2 -1.2 -1.2 -1.2
225.7 232.7 243.2 253.5 261.3 267.1 271.2 275.3 276.2 278 279.9 278.2 276.1 267.5 261.7 253.8 247.9 240.3 229.2 223.6 215.2 202.4 205.8 218.1 224.6 229.7 237.4 233.4 230.7 229.9 227.4 220.1 207.8 183.7 149.4 117.2 92.4 74.7 60.7 41.3 32.2 24.8 15 9 4.5 15 17.5 18.1 20.7 25.1 26.4 25.4 26.4 31.4 46.3 67 82.4 101.2 123.8 151.9 167.5 166.2 167.1 166.8 160 150.2 142.3 143.4 138.8 135.6 135.3 126.4 120.9 112.6 96.9 85 74.7 62 52.7 48.1 36.2 11.2 0.9 -1.2 -1.2 -1.2 -1.2 -1.2 -1.2 -1.2 -1.2 -1.2 -1.2 -1.2 -1.2 -1.2 -1.2 -1.2 -1.2 -1.2 -1.2 -1.2 -1.2 -1.2 -1.2 -1.2 -1.2 -1.2 -1.2 -1.2 -1.2 -1.2 -1.2 -1.2 -1.2 -1.2 -1.2 -1.2 -1.2 -1.2 -1.2 -1.2 -1.2 -1.2 -1.2 -1.2 -1.2 -1.2 -1.2 -1.2 -1.2 -1.2 -1.2 -1.2 -1.2 -1.2 -1.2 -1.2 -1.2 -1.2 -1.2 -1.2 -1.2 -1.2 -1.2 -1.2 -1.2 -1.2 -1.2 -1.2 -1.2 -1.2 -1.2 -1.2 -1.2 -1.2 -1.2 -1.2 -1.2 -1.2 -1.2 -1.2 -1.2 -1.2 -1.2 -1.2 -1.2 -1.2 -1.2 -1.2 -1.2 -1.2 -1.2 -1.2 -1.2 -1.2 -1.2 -1.2 -1.2 -1.2 -1.2 -1.2 -1.2 -1.2 -1.2 -1.2 -1.2 -1.2 -1.2 -1.2 -1.2 -1.2 -1.2 -1.2 -1.2 -1.2 -1.2 -1.2 -1.2 -1.2
217.7 227.7 237.3 249.5 257.6 265.2 270 274 275.8 277.7 280.2 280.5 276.7 269.2 259.2 248.3 242.7 235.6 226.2 215.5 200.4 194.1 189.8 205.5 214.2 217.4 217.9 217.1 213.3 210.2 213.2 210.1 200.6 178.9 150.9 121.4 97 81.9 63.5 48 37.3 29.6 19.8 12.5 9.4 1.9 16.7 17 19.4 24 24.4 23.3 24.8 26.1 30.7 44.5 65 87.4 110 142 156.3 155.4 152.2 150 148 142.6 135.4 130.6 121.3 128.8 117.8 112.5 107.2 101.2 83 73.2 66.4 56.9 50.4 45.3 39.5 27.5 0.8 -1.2 -1.2 -1.2 -1.2 -1.2 -1.2 -1.2 -1.2 -1.2 -1.2 -1.2 -1.2 -1.2 -1.2 -1.2 -1.2 -1.2 -1.2 -1.2 -1.2 -1.2 -1.2 -1.2 -1.2 -1.2 -1.2 -1.2 -1.2 -1.2 -1.2 -1.2 -1.2 -1.2 -1.2 -1.2 -1.2 -1.2 -1.2 -1.2 -1.2 -1.2 -1.2 -1.2 -1.2 -1.2 -1.2 -1.2 -1.2 -1.2 -1.2 -1.2 -1.2 -1.2 -1.2 -1.2 -1.2 -1.2 -1.2 -1.2 -1.2 -1.2 -1.2 -1.2 -1.2 -1.2 -1.2 -1.2 -1.2 -1.2 -1.2 -1.2 -1.2 -1.2 -1.2 -1.2 -1.2 -1.2 -1.2 -1.2 -1.2 -1.2 -1.2 -1.2 -1.2 -1.2 -1.2 -1.2 -1.2 -1.2 -1.2 -1.2 -1.2 -1.2 -1.2 -1.2 -1.2 -1.2 -1.2 -1.2 -1.2 -1.2 -1.2 -1.2 -1.2 -1.2 -1.2 -1.2 -1.2 -1.2 -1.2 -1.2 -1.2 -1.2 -1.2 -1.2 -1.2 -1.2
197 217.8 231.4 244.4 251.8 262.8 270.6 278.8 277.7 275.2 279.1 280.6 278 271.1 257.5 245.1 234.6 226.1 219.5 213.4 199.9 188.6 182.7 195.8 203.8 208.6 213.5 208.6 205.8 206.4 205.4 200.9 191.6 172 151 131 102.9 86 72.4 56.3 43.5 33.7 25.1 17.7 11.7 8.1 2.2 8.9 17.8 18.7 21.2 20.1 22.8 24.5 26.1 30.3 46 75.9 102.9 126.7 135.8 140.2 140.8 136.4 128.3 126.8 122.4 114.3 108.1 106.7 108.2 97.8 88.5 82.3 73.2 63.7 55.8 53.7 43.7 41.7 37.1 23.2 1.3 -1.2 -1.2 -1.2 -1.2 -1.2 -1.2 -1.2 -1.2 -1.2 -1.2 -1.2 -1.2 -1.2 -1.2 -1.2 -1.2 -1.2 -1.2 -1.2 -1.2 -1.2 -1.2 -1.2 -1.2 -1.2 -1.2 -1.2 -1.2 -1.2 -1.2 -1.2 -1.2 -1.2 -1.2 -1.2 -1.2 -1.2 -1.2 -1.2 -1.2 -1.2 -1.2 -1.2 -1.2 -1.2 -1.2 -1.2 -1.2 -1.2 -1.2 -1.2 -1.2 -1.2 -1.2 -1.2 -1.2 -1.2 -1.2 -1.2 -1.2 -1.2 -1.2 -1.2 -1.2 -1.2 -1.2 -1.2 -1.2 -1.2 -1.2 -1.2 -1.2 -1.2 -1.2 -1.2 -1.2 -1.2 -1.2 -1.2 -1.2 -1.2 -1.2 -1.2 -1.2 -1.2 -1.2 -1.2 -1.2 -1.2 -1.2 -1.2 -1.2 -1.2 -1.2 -1.2 -1.2 -1.2 -1.2 -1.2 -1.2 -1.2 -1.2 -1.2 -1.2 -1.2 -1.2 -1.2 -1.2 -1.2 -1.2 -1.2 -1.2 -1.2 -1.2 -1.2 -1.2 -1.2
200.7 202.6 220.6 234.7 245.1 251.2 263 274.8 274.7 275.6 271.1 278.2 279 274.7 266.3 250.5 239.9 232.6 221.4 211.2 196.7 182.6 177.5 185.4 195.6 200.1 206.5 206.6 205.2 204.4 202.4 191.8 182.5 169.3 151.6 129.4 110.2 93.1 80.7 66.8 52.4 39 29.6 25 14.6 11 8.9 -1.2 -1.2 17.4 20 22.3 21.9 24.6 24.8 24.8 36.4 72.8 100.5 117.6 130.3 129.9 125.7 126.2 117.8 110.4 101 93.7 91.5 88.9 87.1 82.8 73.9 63.5 61.3 54.3 54.7 53.7 40.6 39.3 36.3 9.3 1 -1.2 -1.2 -1.2 -1.2 -1.2 -1.2 -1.2 -1.2 -1.2 -1.2 -1.2 -1.2 -1.2 -1.2 -1.2 -1.2 -1.2 -1.2 -1.2 -1.2 -1.2 -1.2 -1.2 -1.2 -1.2 -1.2 -1.2 -1.2 -1.2 -1.2 -1.2 -1.2 -1.2 -1.2 -1.2 -1.2 -1.2 -1.2 -1.2 -1.2 -1.2 -1.2 -1.2 -1.2 -1.2 -1.2 -1.2 -1.2 -1.2 -1.2 -1.2 -1.2 -1.2 -1.2 -1.2 -1.2 -1.2 -1.2 -1.2 -1.2 -1.2 -1.2 -1.2 -1.2 -1.2 -1.2 -1.2 -1.2 -1.2 -1.2 -1.2 -1.2 -1.2 -1.2 -1.2 -1.2 -1.2 -1.2 -1.2 -1.2 -1.2 -1.2 -1.2 -1.2 -1.2 -1.2 -1.2 -1.2 -1.2 -1.2 -1.2 -1.2 -1.2 -1.2 -1.2 -1.2 -1.2 -1.2 -1.2 -1.2 -1.2 -1.2 -1.2 -1.2 -1.2 -1.2 -1.2 -1.2 -1.2 -1.2 -1.2 -1.2 -1.2 -1.2 -1.2 -1.2 -1.2
207.4 190.1 203.7 222.8 232.1 239.2 251.1 259.9 268.7 266.5 263 263.5 269.2 269 266.9 255.7 241.3 235.9 226.6 215.1 205.3 184.5 174.5 177.4 184.4 191.8 197.8 201 202.3 199.9 193.6 182.9 176.1 169.8 149.2 131.1 116.7 99.4 89 77.1 61.4 46.2 32.9 24.8 20.8 12.8 9.4 7.7 -1.2 -1.2 17.8 19.6 21.6 21.7 24.1 23.6 27.7 56.5 90.5 102.5 111.6 116.4 113.3 99.6 95.6 88.9 86.1 78.2 76.1 72.5 69.7 66.7 55.8 51.6 54 51.9 46.3 42.3 38.7 34.7 23.7 4.2 0.3 -1.2 -1.2 -1.2 -1.2 -1.2 -1.2 -1.2 -1.2 -1.2 -1.2 -1.2 -1.2 -1.2 -1.2 -1.2 -1.2 -1.2 -1.2 -1.2 -1.2 -1.2 -1.2 -1.2 -1.2 -1.2 -1.2 -1.2 -1.2 -1.2 -1.2 -1.2 -1.2 -1.2 -1.2 -1.2 -1.2 -1.2 -1.2 -1.2 -1.2 -1.2 -1.2 -1.2 -1.2 -1.2 -1.2 -1.2 -1.2 -1.2 -1.2 -1.2 -1.2 -1.2 -1.2 -1.2 -1.2 -1.2 -1.2 -1.2 -1.2 -1.2 -1.2 -1.2 -1.2 -1.2 -1.2 -1.2 -1.2 -1.2 -1.2 -1.2 -1.2 -1.2 -1.2 -1.2 -1.2 -1.2 -1.2 -1.2 -1.2 -1.2 -1.2 -1.2 -1.2 -1.2 -1.2 -1.2 -1.2 -1.2 -1.2 -1.2 -1.2 -1.2 -1.2 -1.2 -1.2 -1.2 -1.2 -1.2 -1.2 -1.2 -1.2 -1.2 -1.2 -1.2 -1.2 -1.2 -1.2 -1.2 -1.2 -1.2 -1.2 -1.2 -1.2 -1.2 -1.2 -1.2
211.5 192.8 186 207.9 221.6 228.5 239.6 248.6 247.7 247.1 246.7 250.9 252.7 253.7 250.2 247.1 243.3 229.5 223.9 211 202.5 194.6 175.4 172.8 175.4 182.4 189.9 193.3 195.5 191.9 190.5 177.3 169.4 162.5 147.2 132 119.7 109 97.6 85 73.1 55.8 40.5 29.7 22.5 16.7 12.5 7.9 6.6 -1.2 -1.2 15.5 19 20.1 21.6 22 23.6 46.7 65 84 93.4 93.9 94.1 81.4 71.1 70.4 67.5 64.7 59.4 53 49.5 47.8 46.7 44.2 45.3 41.9 40.8 38.4 33.2 32.3 17.1 2.7 0.2 -1.2 -1.2 -1.2 -1.2 -1.2 -1.2 -1.2 -1.2 -1.2 -1.2 -1.2 -1.2 -1.2 -1.2 -1.2 -1.2 -1.2 -1.2 -1.2 -1.2 -1.2 -1.2 -1.2 -1.2 -1.2 -1.2 -1.2 -1.2 -1.2 -1.2 -1.2 -1.2 -1.2 -1.2 -1.2 -1.2 -1.2 -1.2 -1.2 -1.2 -1.2 -1.2 -1.2 -1.2 -1.2 -1.2 -1.2 -1.2 -1.2 -1.2 -1.2 -1.2 -1.2 -1.2 -1.2 -1.2 -1.2 -1.2 -1.2 -1.2 -1.2 -1.2 -1.2 -1.2 -1.2 -1.2 -1.2 -1.2 -1.2 -1.2 -1.2 -1.2 -1.2 -1.2 -1.2 -1.2 -1.2 -1.2 -1.2 -1.2 -1.2 -1.2 -1.2 -1.2 -1.2 -1.2 -1.2 -1.2 -1.2 -1.2 -1.2 -1.2 -1.2 -1.2 -1.2 -1.2 -1.2 -1.2 -1.2 -1.2 -1.2 -1.2 -1.2 -1.2 -1.2 -1.2 -1.2 -1.2 -1.2 -1.2 -1.2 -1.2 -1.2 -1.2 -1.2 -1.2 -1.2
208.1 192.8 180 191.5 207.1 221.1 223.8 230.5 235 230.8 234.5 240.3 246.3 247.4 242.9 238.5 235.2 226.2 218.9 210 204.2 192.5 178.1 169.2 169.9 172.1 181.4 186.5 186.5 184.1 180.5 169.4 162 153.7 143.8 130.4 122.4 116 104.3 93.2 80 66 48.2 35.6 26.2 22.1 15.3 10.9 6.4 6.5 -1.2 -1.2 15 16.2 21 20.5 22.6 34.8 43.6 56.1 69.1 71.1 68.4 67 61 53 51.7 48.9 49.5 45.2 41.8 39.4 29.5 28 28.3 38.8 36.6 33.9 19.9 15.3 9.7 1.7 0.7 -0.8 -1.2 -1.2 -1.2 -1.2 -1.2 -1.2 -1.2 -1.2 -1.2 -1.2 -1.2 -1.2 -1.2 -1.2 -1.2 -1.2 -1.2 -1.2 -1.2 -1.2 -1.2 -1.2 -1.2 -1.2 -1.2 -1.2 -1.2 -1.2 -1.2 -1.2 -1.2 -1.2 -1.2 -1.2 -1.2 -1.2 -1.2 -1.2 -1.2 -1.2 -1.2 -1.2 -1.2 -1.2 -1.2 -1.2 -1.2 -1.2 -1.2 -1.2 -1.2 -1.2 -1.2 -1.2 -1.2 -1.2 -1.2 -1.2 -1.2 -1.2 -1.2 -1.2 -1.2 -1.2 -1.2 -1.2 -1.2 -1.2 -1.2 -1.2 -1.2 -1.2 -1.2 -1.2 -1.2 -1.2 -1.2 -1.2 -1.2 -1.2 -1.2 -1.2 -1.2 -1.2 -1.2 -1.2 -1.2 -1.2 -1.2 -1.2 -1.2 -1.2 -1.2 -1.2 -1.2 -1.2 -1.2 -1.2 -1.2 -1.2 -1.2 -1.2 -1.2 -1.2 -1.2 -1.2 -1.2 -1.2 -1.2 -1.2 -1.2 -1.2 -1.2 -1.2 -1.2 -1.2
209.6 191.4 180 175.7 194.2 206.5 214.8 220.5 223.7 218.2 220.9 226.8 232.1 236.7 237 238.9 228.4 223.3 214.7 207.7 204.2 195.7 180 168.8 164.9 164.4 171.8 178.9 181.9 175.3 170.1 165.8 157.6 149.9 141.1 129.4 124.8 120.3 109.8 98.9 86.3 73.1 55.8 43.2 32.8 23.1 22.4 14.4 10.4 5.2 4.6 -1.2 14 15 15.4 19.3 21.5 26 31.3 39.4 42.6 55.1 51.7 52.4 49.5 42.9 42.7 36.3 31.5 26.9 26.6 24.9 24.5 24 23.7 27.8 18.8 9.3 6.1 4.4 1.9 0.6 -0.2 -1 -1.2 -1.2 -1.2 -1.2 -1.2 -1.2 -1.2 -1.2 -1.2 -1.2 -1.2 -1.2 -1.2 -1.2 -1.2 -1.2 -1.2 -1.2 -1.2 -1.2 -1.2 -1.2 -1.2 -1.2 -1.2 -1.2 -1.2 -1.2 -1.2 -1.2 -1.2 -1.2 -1.2 -1.2 -1.2 -1.2 -1.2 -1.2 -1.2 -1.2 -1.2 -1.2 -1.2 -1.2 -1.2 -1.2 -1.2 -1.2 -1.2 -1.2 -1.2 -1.2 -1.2 -1.2 -1.2 -1.2 -1.2 -1.2 -1.2 -1.2 -1.2 -1.2 -1.2 -1.2 -1.2 -1.2 -1.2 -1.2 -1.2 -1.2 -1.2 -1.2 -1.2 -1.2 -1.2 -1.2 -1.2 -1.2 -1.2 -1.2 -1.2 -1.2 -1.2 -1.2 -1.2 -1.2 -1.2 -1.2 -1.2 -1.2 -1.2 -1.2 -1.2 -1.2 -1.2 -1.2 -1.2 -1.2 -1.2 -1.2 -1.2 -1.2 -1.2 -1.2 -1.2 -1.2 -1.2 -1.2 -1.2 -1.2 -1.2 -1.2 -1.2 -1.2 -1.2 -1.2
206.5 188 175.6 164.5 181.8 197.7 202.7 210.2 210.7 206.1 203 208.3 219.3 220.4 224.6 230.4 224.1 217.7 209.4 202.1 201.1 194 181.9 169.6 163.6 158.6 162.3 170.2 173.7 170.4 163.2 158.6 151.3 144.2 136.3 126.7 123 120.4 112.4 101.4 89.4 76.2 63.1 49.1 39 30.9 23.3 23.2 14.7 7.9 4.7 -1.2 11.9 13.2 15.5 15.1 20.3 26.1 26.8 27.2 30.5 33.6 38.2 35.1 35.9 29.7 25.9 25.8 25.5 25 24.7 23.5 23.3 23.3 13.8 9 4.4 1.9 1.3 0.8 0.1 -1.2 -1.2 -1.2 -1.2 -1.2 -1.2 -1.2 -1.2 -1.2 -1.2 -1.2 -1.2 -1.2 -1.2 -1.2 -1.2 -1.2 -1.2 -1.2 -1.2 -1.2 -1.2 -1.2 -1.2 -1.2 -1.2 -1.2 -1.2 -1.2 -1.2 -1.2 -1.2 -1.2 -1.2 -1.2 -1.2 -1.2 -1.2 -1.2 -1.2 -1.2 -1.2 -1.2 -1.2 -1.2 -1.2 -1.2 -1.2 -1.2 -1.2 -1.2 -1.2 -1.2 -1.2 -1.2 -1.2 -1.2 -1.2 -1.2 -1.2 -1.2 -1.2 -1.2 -1.2 -1.2 -1.2 -1.2 -1.2 -1.2 -1.2 -1.2 -1.2 -1.2 -1.2 -1.2 -1.2 -1.2 -1.2 -1.2 -1.2 -1.2 -1.2 -1.2 -1.2 -1.2 -1.2 -1.2 -1.2 -1.2 -1.2 -1.2 -1.2 -1.2 -1.2 -1.2 -1.2 -1.2 -1.2 -1.2 -1.2 -1.2 -1.2 -1.2 -1.2 -1.2 -1.2 -1.2 -1.2 -1.2 -1.2 -1.2 -1.2 -1.2 -1.2 -1.2 -1.2 -1.2 -1.2 -1.2
205.3 186 171.9 161.8 170.8 185.2 188.9 191 192.3 192.6 189.8 192.7 203.2 212.8 223.2 222.7 219.9 214 207.7 198.6 189.8 186.6 182.7 172.9 162.5 156.5 149.6 160.6 164.9 164.4 159.3 153.6 146.6 141 131.4 125.5 119.4 117.6 112.4 102 91.6 80.4 68 55.4 44.4 35.5 28.4 21.9 22.1 14.4 4.8 -1.2 8.7 12.2 12.6 13.9 14.7 22.8 23.5 23.8 24.6 23.9 25.9 25.8 24.7 24.4 23.8 23.3 23.9 24.4 23.8 23.7 17.4 6.8 5.3 2.2 1.3 0.8 0.3 -1.2 -1.2 -1.2 -1.2 -1.2 -1.2 -1.2 -1.2 -1.2 -1.2 -1.2 -1.2 -1.2 -1.2 -1.2 -1.2 -1.2 -1.2 -1.2 -1.2 -1.2 -1.2 -1.2 -1.2 -1.2 -1.2 -1.2 -1.2 -1.2 -1.2 -1.2 -1.2 -1.2 -1.2 -1.2 -1.2 -1.2 -1.2 -1.2 -1.2 -1.2 -1.2 -1.2 -1.2 -1.2 -1.2 -1.2 -1.2 -1.2 -1.2 -1.2 -1.2 -1.2 -1.2 -1.2 -1.2 -1.2 -1.2 -1.2 -1.2 -1.2 -1.2 -1.2 -1.2 -1.2 -1.2 -1.2 -1.2 -1.2 -1.2 -1.2 -1.2 -1.2 -1.2 -1.2 -1.2 -1.2 -1.2 -1.2 -1.2 -1.2 -1.2 -1.2 -1.2 -1.2 -1.2 -1.2 -1.2 -1.2 -1.2 -1.2 -1.2 -1.2 -1.2 -1.2 -1.2 -1.2 -1.2 -1.2 -1.2 -1.2 -1.2 -1.2 -1.2 -1.2 -1.2 -1.2 -1.2 -1.2 -1.2 -1.2 -1.2 -1.2 -1.2 -1.2 -1.2 -1.2 -1.2 -1.2 -1.2 -1.2
204.6 184.4 171.8 162 162 175.3 181.2 179.6 180.3 182.6 180.8 182.6 188.4 198.6 213.5 217.5 220.3 212.6 206.1 193.9 182.6 179.7 176.6 172.6 166 153.8 143.8 150.7 156.8 157.7 155.3 151.6 143.9 137 128.7 122.2 115.7 113.2 109.6 100.3 90.8 81.2 71.4 59.6 47.4 37.9 31.1 26.9 23.8 22.2 11.2 -1.2 -1.2 10.3 12.6 12.8 13.2 16.4 18.9 22.3 22.5 23 23 23.1 23.9 23.8 23 23.1 22 22 23.8 11.3 5.2 3 1.1 0.1 0 -0.2 -1.2 -1.2 -1.2 -1.2 -1.2 -1.2 -1.2 -1.2 -1.2 -1.2 -1.2 -1.2 -1.2 -1.2 -1.2 -1.2 -1.2 -1.2 -1.2 -1.2 -1.2 -1.2 -1.2 -1.2 -1.2 -1.2 -1.2 -1.2 -1.2 -1.2 -1.2 -1.2 -1.2 -1.2 -1.2 -1.2 -1.2 -1.2 -1.2 -1.2 -1.2 -1.2 -1.2 -1.2 -1.2 -1.2 -1.2 -1.2 -1.2 -1.2 -1.2 -1.2 -1.2 -1.2 -1.2 -1.2 -1.2 -1.2 -1.2 -1.2 -1.2 -1.2 -1.2 -1.2 -1.2 -1.2 -1.2 -1.2 -1.2 -1.2 -1.2 -1.2 -1.2 -1.2 -1.2 -1.2 -1.2 -1.2 -1.2 -1.2 -1.2 -1.2 -1.2 -1.2 -1.2 -1.2 -1.2 -1.2 -1.2 -1.2 -1.2 -1.2 -1.2 -1.2 -1.2 -1.2 -1.2 -1.2 -1.2 -1.2 -1.2 -1.2 -1.2 -1.2 -1.2 -1.2 -1.2 -1.2 -1.2 -1.2 -1.2 -1.2 -1.2 -1.2 -1.2 -1.2 -1.2 -1.2 -1.2 -1.2 -1.2 -1.2
205.4 186.7 172.4 163.5 150.7 165 176.9 177.9 175 171.3 172.3 173.9 178.7 187.1 194.8 207.4 210.8 207.3 203.9 190.1 179.7 177.8 172.4 170.6 165.5 153.4 147.1 140.7 147.3 151.3 151.9 147.3 139.5 131.9 125 118.8 113.3 108.1 106.3 99.8 89.2 80.8 71.8 61.4 49.9 38.9 32.5 28.1 24.7 22 21.8 -1.2 -1.2 5.3 9.2 12.5 12.8 13.9 13.8 22.3 22.4 22.5 22.1 22.1 22.9 22.5 23.3 23.4 22.9 21.9 18.8 6 1.9 0.4 -0.5 -1.2 -1.2 -1.2 -1.2 -1.2 -1.2 -1.2 -1.2 -1.2 -1.2 -1.2 -1.2 -1.2 -1.2 -1.2 -1.2 -1.2 -1.2 -1.2 -1.2 -1.2 -1.2 -1.2 -1.2 -1.2 -1.2 -1.2 -1.2 -1.2 -1.2 -1.2 -1.2 -1.2 -1.2 -1.2 -1.2 -1.2 -1.2 -1.2 -1.2 -1.2 -1.2 -1.2 -1.2 -1.2 -1.2 -1.2 -1.2 -1.2 -1.2 -1.2 -1.2 -1.2 -1.2 -1.2 -1.2 -1.2 -1.2 -1.2 -1.2 -1.2 -1.2 -1.2 -1.2 -1.2 -1.2 -1.2 -1.2 -1.2 -1.2 -1.2 -1.2 -1.2 -1.2 -1.2 -1.2 -1.2 -1.2 -1.2 -1.2 -1.2 -1.2 -1.2 -1.2 -1.2 -1.2 -1.2 -1.2 -1.2 -1.2 -1.2 -1.2 -1.2 -1.2 -1.2 -1.2 -1.2 -1.2 -1.2 -1.2 -1.2 -1.2 -1.2 -1.2 -1.2 -1.2 -1.2 -1.2 -1.2 -1.2 -1.2 -1.2 -1.2 -1.2 -1.2 -1.2 -1.2 -1.2 -1.2 -1.2 -1.2 -1.2 -1.2 -1.2 -1.2
202.4 187.2 173.6 163.4 151.5 158.4 165.5 171.5 169.8 165.1 165.3 167.5 171.9 179.9 186.2 191.2 198.4 198.8 194.4 184.5 176.9 173.4 166.5 164 160.1 151.2 146.7 138.3 135.2 142.2 144.6 141.5 136.6 130.5 122.7 114.1 108.1 105.1 102.6 97 87.4 80.1 70.8 61.4 50.6 39.7 33.5 28.1 20.4 23.6 21 -1.2 -1.2 -1.2 4.9 8.5 12 12.1 12.6 13.5 21 22.6 22.6 22.1 22.2 22.9 21.5 21.9 22.1 21.7 5.7 1.7 -1.2 -1.2 -1.2 -1.2 -1.2 -1.2 -1.2 -1.2 -1.2 -1.2 -1.2 -1.2 -1.2 -1.2 -1.2 -1.2 -1.2 -1.2 -1.2 -1.2 -1.2 -1.2 -1.2 -1.2 -1.2 -1.2 -1.2 -1.2 -1.2 -1.2 -1.2 -1.2 -1.2 -1.2 -1.2 -1.2 -1.2 -1.2 -1.2 -1.2 -1.2 -1.2 -1.2 -1.2 -1.2 -1.2 -1.2 -1.2 -1.2 -1.2 -1.2 -1.2 -1.2 -1.2 -1.2 -1.2 -1.2 -1.2 -1.2 -1.2 -1.2 -1.2 -1.2 -1.2 -1.2 -1.2 -1.2 -1.2 -1.2 -1.2 -1.2 -1.2 -1.2 -1.2 -1.2 -1.2 -1.2 -1.2 -1.2 -1.2 -1.2 -1.2 -1.2 -1.2 -1.2 -1.2 -1.2 -1.2 -1.2 -1.2 -1.2 -1.2 -1.2 -1.2 -1.2 -1.2 -1.2 -1.2 -1.2 -1.2 -1.2 -1.2 -1.2 -1.2 -1.2 -1.2 -1.2 -1.2 -1.2 -1.2 -1.2 -1.2 -1.2 -1.2 -1.2 -1.2 -1.2 -1.2 -1.2 -1.2 -1.2 -1.2 -1.2 -1.2 -1.2 -1.2 -1.2 -1.2
201.8 190 177.3 165.1 156 144.9 155.4 159.5 161.4 159.1 157.1 159.8 164.4 171.6 178.8 183.8 184.7 186.8 188.5 179.2 172.6 167.8 162.6 156.8 153.2 148.2 143.8 137.5 131.7 135.6 142.9 138.4 133 127.1 119.7 110.8 104.1 102 98 94.1 85.8 79.8 69.7 60 49.9 40.2 33.8 28.8 23 23 22.3 20.7 -1.2 -1.2 -1.2 3.2 11.8 11.3 11.8 12.1 13.2 22.1 22.1 21.2 21.4 21.3 20.9 20.9 19.6 3.9 0.9 -1.2 -1.2 -1.2 -1.2 -1.2 -1.2 -1.2 -1.2 -1.2 -1.2 -1.2 -1.2 -1.2 -1.2 -1.2 -1.2 -1.2 -1.2 -1.2 -1.2 -1.2 -1.2 -1.2 -1.2 -1.2 -1.2 -1.2 -1.2 -1.2 -1.2 -1.2 -1.2 -1.2 -1.2 -1.2 -1.2 -1.2 -1.2 -1.2 -1.2 -1.2 -1.2 -1.2 -1.2 -1.2 -1.2 -1.2 -1.2 -1.2 -1.2 -1.2 -1.2 -1.2 -1.2 -1.2 -1.2 -1.2 -1.2 -1.2 -1.2 -1.2 -1.2 -1.2 -1.2 -1.2 -1.2 -1.2 -1.2 -1.2 -1.2 -1.2 -1.2 -1.2 -1.2 -1.2 -1.2 -1.2 -1.2 -1.2 -1.2 -1.2 -1.2 -1.2 -1.2 -1.2 -1.2 -1.2 -1.2 -1.2 -1.2 -1.2 -1.2 -1.2 -1.2 -1.2 -1.2 -1.2 -1.2 -1.2 -1.2 -1.2 -1.2 -1.2 -1.2 -1.2 -1.2 -1.2 -1.2 -1.2 -1.2 -1.2 -1.2 -1.2 -1.2 -1.2 -1.2 -1.2 -1.2 -1.2 -1.2 -1.2 -1.2 -1.2 -1.2 -1.2 -1.2 -1.2 -1.2 -1.2
206.8 196.2 182.3 169.2 158.3 142.9 143 149.8 151.6 150.3 149.8 149 154.3 162.7 171.2 182.5 180.2 176.8 180.8 174.9 172.8 166.6 165.8 156.5 150 147.1 143.5 138.1 128.5 127.9 135.2 134.6 129.3 123.7 117.3 107.4 99.8 97.8 93.8 91.4 84.2 78.1 69.4 58.3 48.3 40 33.9 28.5 20 23.2 22.4 21.7 20.2 -1.2 -1.2 -1.2 -1.2 4.8 5.1 5.3 4.6 9.1 19.8 20.7 20.6 20 18.6 12.3 4.8 0.8 -0.3 -1.2 -1.2 -1.2 -1.2 -1.2 -1.2 -1.2 -1.2 -1.2 -1.2 -1.2 -1.2 -1.2 -1.2 -1.2 -1.2 -1.2 -1.2 -1.2 -1.2 -1.2 -1.2 -1.2 -1.2 -1.2 -1.2 -1.2 -1.2 -1.2 -1.2 -1.2 -1.2 -1.2 -1.2 -1.2 -1.2 -1.2 -1.2 -1.2 -1.2 -1.2 -1.2 -1.2 -1.2 -1.2 -1.2 -1.2 -1.2 -1.2 -1.2 -1.2 -1.2 -1.2 -1.2 -1.2 -1.2 -1.2 -1.2 -1.2 -1.2 -1.2 -1.2 -1.2 -1.2 -1.2 -1.2 -1.2 -1.2 -1.2 -1.2 -1.2 -1.2 -1.2 -1.2 -1.2 -1.2 -1.2 -1.2 -1.2 -1.2 -1.2 -1.2 -1.2 -1.2 -1.2 -1.2 -1.2 -1.2 -1.2 -1.2 -1.2 -1.2 -1.2 -1.2 -1.2 -1.2 -1.2 -1.2 -1.2 -1.2 -1.2 -1.2 -1.2 -1.2 -1.2 -1.2 -1.2 -1.2 -1.2 -1.2 -1.2 -1.2 -1.2 -1.2 -1.2 -1.2 -1.2 -1.2 -1.2 -1.2 -1.2 -1.2 -1.2 -1.2 -1.2 -1.2 -1.2 -1.2 -1.2
211.2 199.4 188.6 176.3 166.4 154 139.7 132.1 140.2 141 141.8 143.4 147.6 153.3 161 169.2 173.3 167.5 166.3 167.7 165.7 164.2 166.8 160.7 151.1 148.1 145.2 141.8 130.3 116.2 126.4 131 125.1 120.6 110.8 101.4 94.2 91.7 90 87.5 80.8 75.4 66.6 56.6 47.2 38.8 33.2 27.8 17.6 23.1 22.3 22.1 20.1 17.4 -1.2 -1.2 -1.2 -1.2 -1.2 -1.2 -1.2 1.1 6.1 9.5 9.5 10 5.3 4.7 1.2 -1.2 -1.2 -1.2 -1.2 -1.2 -1.2 -1.2 -1.2 -1.2 -1.2 -1.2 -1.2 -1.2 -1.2 -1.2 -1.2 -1.2 -1.2 -1.2 -1.2 -1.2 -1.2 -1.2 -1.2 -1.2 -1.2 -1.2 -1.2 -1.2 -1.2 -1.2 -1.2 -1.2 -1.2 -1.2 -1.2 -1.2 -1.2 -1.2 -1.2 -1.2 -1.2 -1.2 -1.2 -1.2 -1.2 -1.2 -1.2 -1.2 -1.2 -1.2 -1.2 -1.2 -1.2 -1.2 -1.2 -1.2 -1.2 -1.2 -1.2 -1.2 -1.2 -1.2 -1.2 -1.2 -1.2 -1.2 -1.2 -1.2 -1.2 -1.2 -1.2 -1.2 -1.2 -1.2 -1.2 -1.2 -1.2 -1.2 -1.2 -1.2 -1.2 -1.2 -1.2 -1.2 -1.2 -1.2 -1.2 -1.2 -1.2 -1.2 -1.2 -1.2 -1.2 -1.2 -1.2 -1.2 -1.2 -1.2 -1.2 -1.2 -1.2 -1.2 -1.2 -1.2 -1.2 -1.2 -1.2 -1.2 -1.2 -1.2 -1.2 -1.2 -1.2 -1.2 -1.2 -1.2 -1.2 -1.2 -1.2 -1.2 -1.2 -1.2 -1.2 -1.2 -1.2 -1.2 -1.2 -1.2 -1.2 -1.2
212 202.2 194.1 183.3 174.2 163.4 153 140.1 125.4 129 130.6 137.3 142 145.1 152.2 159.2 162.9 160.2 158 159.6 161 162.8 161.8 161 150.2 149.4 146.7 143.5 136.3 121.9 116.8 121.5 120.7 115.3 106.2 100.7 91.5 86.4 84.8 80.3 76.3 70.9 63.4 54 44.7 36.6 30.2 25.7 23.6 22.7 21.4 16.6 8.9 4.7 2.3 3.2 -1.2 -1.2 -1.2 -1.2 -1.2 -1.2 -1.2 1.9 2.6 1.7 1.1 0.8 0.1 -1.2 -1.2 -1.2 -1.2 -1.2 -1.2 -1.2 -1.2 -1.2 -1.2 -1.2 -1.2 -1.2 -1.2 -1.2 -1.2 -1.2 -1.2 -1.2 -1.2 -1.2 -1.2 -1.2 -1.2 -1.2 -1.2 -1.2 -1.2 -1.2 -1.2 -1.2 -1.2 -1.2 -1.2 -1.2 -1.2 -1.2 -1.2 -1.2 -1.2 -1.2 -1.2 -1.2 -1.2 -1.2 -1.2 -1.2 -1.2 -1.2 -1.2 -1.2 -1.2 -1.2 -1.2 -1.2 -1.2 -1.2 -1.2 -1.2 -1.2 -1.2 -1.2 -1.2 -1.2 -1.2 -1.2 -1.2 -1.2 -1.2 -1.2 -1.2 -1.2 -1.2 -1.2 -1.2 -1.2 -1.2 -1.2 -1.2 -1.2 -1.2 -1.2 -1.2 -1.2 -1.2 -1.2 -1.2 -1.2 -1.2 -1.2 -1.2 -1.2 -1.2 -1.2 -1.2 -1.2 -1.2 -1.2 -1.2 -1.2 -1.2 -1.2 -1.2 -1.2 -1.2 -1.2 -1.2 -1.2 -1.2 -1.2 -1.2 -1.2 -1.2 -1.2 -1.2 -1.2 -1.2 -1.2 -1.2 -1.2 -1.2 -1.2 -1.2 -1.2 -1.2 -1.2 -1.2 -1.2 -1.2 -1.2 -1.2
214.2 201.6 194 186.1 177.1 170.3 161.6 150 138.3 122.6 120.9 127.1 135.3 137.7 144.4 153.2 155.1 153.6 153.5 155.6 157 160.5 159.3 155.9 150.6 150 148 143.3 140.6 126.2 103.2 112.5 113.8 109.9 103.6 95.4 88.8 83.7 81.4 77.3 71.3 64 55.9 48.8 40.9 33 27.1 22.1 12.8 8.8 3.3 1.5 1.1 0.5 0.2 0.4 0.1 -1.2 -1.2 -1.2 -1.2 -1.2 -1.2 -1.2 -1.2 -1.2 -1.2 -1.2 -1.2 -1.2 -1.2 -1.2 -1.2 -1.2 -1.2 -1.2 -1.2 -1.2 -1.2 -1.2 -1.2 -1.2 -1.2 -1.2 -1.2 -1.2 -1.2 -1.2 -1.2 -1.2 -1.2 -1.2 -1.2 -1.2 -1.2 -1.2 -1.2 -1.2 -1.2 -1.2 -1.2 -1.2 -1.2 -1.2 -1.2 -1.2 -1.2 -1.2 -1.2 -1.2 -1.2 -1.2 -1.2 -1.2 -1.2 -1.2 -1.2 -1.2 -1.2 -1.2 -1.2 -1.2 -1.2 -1.2 -1.2 -1.2 -1.2 -1.2 -1.2 -1.2 -1.2 -1.2 -1.2 -1.2 -1.2 -1.2 -1.2 -1.2 -1.2 -1.2 -1.2 -1.2 -1.2 -1.2 -1.2 -1.2 -1.2 -1.2 -1.2 -1.2 -1.2 -1.2 -1.2 -1.2 -1.2 -1.2 -1.2 -1.2 -1.2 -1.2 -1.2 -1.2 -1.2 -1.2 -1.2 -1.2 -1.2 -1.2 -1.2 -1.2 -1.2 -1.2 -1.2 -1.2 -1.2 -1.2 -1.2 -1.2 -1.2 -1.2 -1.2 -1.2 -1.2 -1.2 -1.2 -1.2 -1.2 -1.2 -1.2 -1.2 -1.2 -1.2 -1.2 -1.2 -1.2 -1.2 -1.2 -1.2 -1.2 -1.2
