ncols 200
nrows 82
xllcorner 460000
yllcorner 505850
cellsize 50
203.8 201.4 198 194.5 187.6 179.9 171.3 167.2 170.5 180.4 181.6 181.2 180.7 179.9 178.8 175.2 169.2 168.5 168.3 163.4 159.8 158.5 160.5 162 163.7 165.1 165.3 165.5 165.4 163.9 161.9 162.4 164.6 166.7 166.5 165.6 165.1 167.5 166 167.1 169.4 169 171 175.2 172.5 174 175.7 177.5 178.3 177.5 176.6 178.3 175.4 175.5 175.6 179.4 185.4 196.6 212.5 215.8 215.2 214 212.3 211.5 210.8 210.2 209.6 208.7 206.7 202.4 195.3 189.5 183.2 179.4 183 191.8 204.9 212.3 216 220.4 226.6 235.9 240.9 245.1 247.8 250.7 252.3 252 249.9 248.5 247.4 246.4 244.4 242.5 241.4 240.5 240.3 238.8 235.5 230.7 224.2 215.7 208.9 202.3 196.1 190.8 186.5 183.1 179.1 174.7 170.8 163.8 159.1 163.7 168.9 170.6 169.7 170.8 172.6 172.5 171.8 170.8 169.9 167.6 160.4 158.2 158.4 153.5 152 151.3 149.9 152.2 154.3 158.2 160.5 158.9 156 149.6 147.3 146.1 145.8 146 147.8 158.2 171.1 180.5 187.1 193.3 198.7 204.8 211.2 217.9 225.5 230.8 235.2 238.8 242.4 245.5 248.2 249.9 251.5 253.5 254.3 254.2 254.6 254.8 255 254.6 254.1 253.6 253.4 253.2 253.2 253.1 252.2 249.8 247.4 244.9 242.6 240.5 239.2 237.9 236 233.7 234.1 237 238 238 236.7 235.4 234 232 229.1 225.8 220.4 201.9 195.4 209 219.4 218.3
191.6 191.6 186.3 186.9 182.6 171.7 162 161.1 167.1 177.6 177.8 177.9 178 177.3 176.1 173.2 168 162.9 162.9 158.5 159.1 162.1 165.2 166.6 166.8 166.9 167.2 167.9 168 167.3 166.4 167.1 168.3 168.8 168.7 168.1 167.7 168 168.1 165.9 167.2 169 171.6 169.8 169.6 170.1 172 173.8 173.1 173.3 173.6 173.8 174.7 173.8 173 174.4 176.4 184.1 196.5 210.2 211.4 210.9 209.6 208.9 208.2 208 207.5 207.4 205.1 199.8 192.3 188.3 184.9 176.9 181.5 189.3 201.5 210 213.8 218 223.5 233.3 238.6 242.4 246.1 247.1 248.5 249.1 246.9 245.4 244.8 243 240.7 238.2 236.7 236.8 235.7 233.7 230.4 223.6 216.1 210.5 204.5 198.7 193.4 188.1 184.5 180.4 176.7 171.8 164.6 159.7 167.1 172.1 175.3 175.2 174.3 175 175.8 176.4 175.8 174.4 171.9 166.3 164.3 165.5 166.5 164 162.5 162.6 165.2 170.8 173.1 173.2 172.3 170.8 168 165.6 158.9 153.7 146.7 145.2 146.1 156.4 169.9 178.9 186.9 192.6 198.1 203.3 208.9 214.9 220.6 227.9 234.5 238.6 242.3 245.5 248 249.8 251.4 252.6 253.1 253 253.1 253.6 254.1 254 254.2 253.9 254 253.9 253.9 254 253 250.6 248.1 245.8 243.4 241.1 239.4 238.1 236.3 233.7 230.8 233.3 236.5 236.8 235.7 234.5 233.4 231.1 228.3 225.1 220 198.7 193.6 205.8 216.9 210.6
157.9 165.3 167.8 173.8 167.7 157.9 152.9 155.3 161.9 168.6 170.4 171.7 174.7 174.6 174 170.4 162.3 158.8 157.4 159.1 163.3 166.6 167.4 167.6 168.3 168.7 169.7 171.3 171.1 170.2 168.5 169.2 170.1 171.3 171.8 168.9 168.6 168.6 168.2 168 166.1 168.4 168.4 168.6 168.3 168.4 168.7 169.3 169.9 170.7 171.2 170.7 170.6 171.9 173 172.9 172.3 175.2 182.7 191.6 202.7 204.9 206 204.7 205.5 205.5 205.6 205.4 204.1 194.6 189.1 186.3 184.1 177.2 178.7 184.6 196 205 210.4 214.9 220 227.3 234.2 239.6 243.8 245.5 246.7 246.2 244.1 241.9 241.1 239.1 236.9 234 230.7 229.4 228.5 226.5 222.7 217.5 211.8 206.9 201.8 195.6 190.8 186.9 183.6 179.1 173.8 166.5 161 167.8 174.1 178.6 180.1 179.3 177.9 179.1 180.4 181 180.5 178.8 173.7 169.7 171.1 173.5 173.1 174.7 176.7 179.3 180.7 180.8 180.8 181 179.9 176.8 173.8 171.4 167.9 164 151.5 145.8 145.3 157.2 170 178.5 187.1 193.3 198 202.1 206.7 211.8 216.8 223.3 231.7 238.4 242.1 245.2 247.8 249.3 250.9 251.2 251.7 251.6 251.9 252.4 253.1 253.2 253.9 254.1 254.3 254.5 254.4 254.5 253.3 251.4 248.5 246.2 243.8 241.6 239.9 238.4 236.5 233.9 230.7 227.5 233.4 235.4 234.7 233.9 232.2 230 227.2 223.6 218.3 198.6 191.9 200.4 207.6 206
156.7 148.4 148.7 149.6 154 158 150.8 152 154.5 159.4 162.7 164.8 169.1 171.2 170.7 163.3 157.2 158.2 160.5 163.4 166 167.3 168.1 169 170.2 171.4 172.3 174 173.6 172.1 170.9 170.6 171.5 172 171.1 170.1 169.9 169.5 169.3 168.7 167.4 167.2 167.5 167.1 167.5 168.2 168.3 168.6 168.8 168.3 169.2 170.3 176.3 179.8 184 185 176.9 172.6 174.1 178.8 183.7 191.7 195.6 200.3 200.3 201.6 202.8 203.4 201 190.1 186.1 183 181.4 179 176.5 182.8 191.7 198.1 204.2 209.8 215.7 220.3 226.8 237.2 241.6 243.6 244.1 243.2 241 238.7 237.5 236.4 234.2 229.4 226.4 224.7 223.3 221.4 218.9 214 208.5 204.4 199.4 194 189.8 186.2 181.4 176.7 168.6 162.8 164.5 175.4 180.5 183.5 183.9 183.2 182 183.6 184.9 185.6 185.2 183 178.2 176.6 177 178.6 180 182.9 186.4 188.2 188.1 188.5 188 187.6 185.7 181.5 177.3 174.1 171 165.1 152 145.8 144.7 156.9 170.1 179.2 186.9 192.4 196.9 200.2 204 208.4 212.2 217.2 225.8 235.9 241.6 244.7 247.4 249 250.4 250.3 250.4 250.2 250.5 251.5 252.2 252.8 253.6 254.3 254.5 254.8 254.8 254.7 253.7 251.3 248.9 246.5 244.2 242.3 240.4 238.5 236.7 234.1 230.4 226.5 226 232.5 233.8 232.6 230.9 229.2 226.5 222.9 216 199.6 189.2 196.3 207.3 202.2
170.8 169.6 168 168.8 168.1 166 157.5 153.1 152.4 154.2 156.2 159.2 162.3 163.8 158.3 156.1 160.6 164.3 164.8 166.6 168.1 169.3 170.1 172.5 174.3 174.9 174.8 175.1 175.8 174 171.7 171 171.9 171.3 170.3 169.1 169.9 169.7 168.7 167.7 167.1 168.4 168.2 168.3 167.7 167.4 168.8 167.9 169 170.1 171.3 173.5 180.3 185.5 189.6 189.5 186.5 176.5 173.3 173.4 174.6 179.6 184.4 186.9 190.5 194.7 198.7 196.8 190.4 186.9 184 183.6 181.6 178.2 176 179.7 186.1 193.3 198.4 203.4 208.6 215.5 219.7 225.2 238.2 240.8 240.9 240.1 237.9 235.4 232.9 230.1 227.2 223.7 221.4 220 218.3 217.2 215.6 212 207 201 197.1 192.3 188.7 184.5 177.6 167.6 162.7 163.5 175.6 181.9 186.4 188.3 188.4 188.2 188.4 188.5 190.8 191.8 190.4 187.9 183.4 183.3 183.3 183.6 185.5 188.1 190.4 192.9 194.7 194.7 194.6 193.9 191.4 186.4 180.3 175.5 171.7 164.3 152.4 144.7 145.1 156.5 168.7 177.1 183.6 189.4 194.3 197.9 200.3 204.5 208.1 212.1 218.1 227.5 237.3 243.6 246.6 248.5 249.8 249.4 248.9 248.5 249.2 250.4 251.4 253.1 254.2 254.9 255.2 255.1 255.1 255 253.7 251.2 249.2 246.8 244.9 242.8 240.7 238.8 236.8 234.2 230.6 226.1 222 227.5 231.8 231.3 229.7 228.1 225.2 220.8 213.6 204.8 187.1 191.8 200 198.5
172.6 172.4 171.7 172.9 172 172 166.6 160.1 155.1 152.8 153.7 154.5 156.1 156.7 157.5 160.7 162.8 164.6 164.5 166.8 169.4 170.9 173.4 176.8 178 178.2 177.4 175.8 175.2 175.2 173.7 172 171.5 170.9 170.4 168.8 168.6 168.2 167.4 167.4 167.4 168.6 168.8 169 168.8 169.4 170.3 170.5 171.1 172.1 173.6 180.5 187.2 192.3 195.8 194.7 192.3 187.6 179.9 175.4 174.1 174.7 176.1 181.4 183.4 184.4 186.5 186.1 185.3 183.2 181.4 183.2 182.9 178.5 175.5 176.5 184.1 189.6 193.5 196.2 201.1 205.8 210.6 217.8 223.6 226.6 229.1 233.9 230.9 228.2 225.8 223.3 219.7 217.8 216.2 214.7 212.6 211.7 209.5 206.6 201.8 196.8 192.7 186 182.4 176.7 168.6 162 165.3 172.4 182.8 189.2 191.9 192.9 193 194 194.1 194.7 195.5 195.2 193.4 190.9 189.3 188.8 188.7 188.7 190.3 192.8 194.4 196.2 198.1 198.4 198.2 197.8 195.6 190.4 184 177.1 171.6 163.8 149.3 143.7 144.9 148.8 164.3 171.2 177.3 182.5 189 192.4 194.3 197.1 202.1 207.9 212.8 219.3 230 239.8 245.3 247.8 249.2 248.2 246.3 246.5 248.2 249.5 251.3 253.3 254.4 255.4 255.4 255.4 255.3 255.2 254 251.6 249.4 247.1 245.2 243.1 241.1 239 236.9 234.3 230.8 226 221.4 221.4 227.3 229.6 228.4 226.3 222.6 215.8 211.3 204.1 194.4 186 189.5 189.9
169.5 169.3 171.6 173.9 174.2 173.3 165.7 160.7 161.2 155.3 154.1 158.8 159.4 158.8 156.9 162.3 162.6 163.8 163.8 168.2 170.9 173.9 176.3 177.6 179.3 179.1 178.1 177.2 175.6 173.8 173.2 172.6 170.6 170.3 169.7 169 168.6 168.1 167.8 167.9 168.2 168.8 169.3 169.7 170.4 171 172.3 173.9 174.7 176.5 182.4 189.9 197.7 202.3 204.6 200.6 197.7 195.8 191.8 187.1 178.3 175.2 175.3 176.9 177.6 178.3 180.6 181.3 181 179.3 179.1 180.9 183.1 177.3 174.8 174.9 181.2 184.8 188.1 191.2 193.7 197.7 201.9 206 212.9 217 221.5 222.8 222.8 221 219.8 217.8 216.1 213.1 209.8 209.3 206.8 205.6 204.2 201.6 195.6 187.4 180.2 176.5 172.3 168.2 162.4 165 174.1 184 191.2 194.8 196.5 197.5 198.4 199.6 199.6 199.3 199 198.6 197.5 195.4 194.3 193.9 194.1 194.9 195.5 197.1 198.5 199.8 200.9 201.6 201.1 199.9 198.2 194.1 188.2 180.8 173.4 165.7 150.1 143.9 143.3 145.1 152.6 160.8 166.8 173.8 178.8 182.8 186.7 190.5 195.1 200.8 207 215.1 222.5 233.4 241.7 245.8 245.5 244.3 243.6 245.5 247.1 249.2 251.2 253.2 254.3 255 255.4 255.4 255.4 255.1 253.5 251.2 249.1 247.5 245.4 243.4 241.2 239.2 236.9 234.2 231.1 226.5 222 217.3 221.1 225.1 225.9 222.7 216.9 213.2 209.1 203.2 198.5 189.8 183.4 182.6
174.4 170.9 169.1 170.5 170.2 167.4 164.1 165.1 165.7 160.5 160.1 164.3 162.1 160.4 160.3 162.7 165.1 166.6 165.1 168 173.5 178.3 178 176.9 178.9 178.1 177 175.2 173.6 172.3 171.9 171.2 170.3 169.8 170.3 170.9 169.6 169 168.9 169.1 169.6 170.6 170.8 171.9 172.8 174 176.1 178.2 181.2 185.8 192.3 200 207.7 210.6 210.1 208.1 205.1 201.9 198.3 194.4 187 177.4 175.8 175.9 176.5 177.3 177.9 178.5 177.4 177.4 177.3 177.1 177.8 175 174.4 174.8 175.4 176.8 179.5 181.7 185.9 188.8 192.1 196.2 202 204.3 206.7 211.3 213.5 211.5 208.1 204.8 202 200.7 198.4 197.1 194.6 193 190 184.6 178.7 174.8 171.3 166.9 163.9 166.5 166.7 178 186.9 194.1 198.2 200 201.2 202.6 203.8 203.5 203 202.4 202.1 201.3 200.7 199.8 199.3 198.9 199.2 199.8 200.6 201.6 202.2 202.5 203.8 204.3 203.8 202.4 200.3 197.1 192.3 184.4 176.1 168.2 151.5 147 143.2 143.2 146.5 151 155.2 161.7 168.3 175.6 179.3 183.6 188.9 195.8 203.4 210.9 219.3 225.3 233 236.1 236.3 239.2 242.1 245.2 247.2 248.9 250.9 252.5 253.9 254.6 255.2 255.3 255.9 255.3 253.3 251 248.8 247.4 245.8 243.7 241.6 239.3 236.8 234.4 231.2 226.7 222 217.3 212.3 219.3 220.3 216.9 213 208.9 205.4 202.4 199.3 195.9 192.4 183.9
178.9 173.5 170.9 169.3 165.1 162.6 165.1 161.3 165.4 162.5 163.9 167.6 166.6 166.9 167.3 166.8 169.5 169.5 169.6 172.3 175.3 178.7 177 179.5 179.3 178.8 177 175.1 172.9 172 171.3 170.4 170.1 170 170.7 171.2 170.7 170.7 170.9 173.6 174 174.4 173.7 174.5 175.5 177.2 180 183.6 187.4 192.4 199.9 209.3 212.5 213.6 213.5 211.8 210.5 208.8 206.8 200.7 192.9 181.7 178 176.6 176.6 177 177.9 178.7 179.1 177.6 176.7 176 175.2 174.3 173.7 173 173.4 173.1 173.5 175.1 176.5 176.7 180 182.8 186.8 191.8 195 196.1 196.1 196.7 195.2 193.8 191.1 189.5 187.9 186.4 184.8 181.8 178.6 173.8 170.6 167.8 164.6 165.3 167.4 171 180.5 188.6 196.6 201.3 203.5 204.6 205.7 206.9 206.8 206.3 205.9 205.5 205.4 205.3 205.2 204.4 203.8 203.4 204 204.3 204.8 205.8 206 205.8 207.2 208.3 207.6 205.3 202.1 199.2 195.1 188 179.6 172.2 156.1 152.8 146.1 143.5 142.5 144.1 147.6 153.7 160.5 166.7 171.7 177.5 183.6 191 199.1 206.2 213.8 219.4 222.8 226.3 231.8 239 242 242.1 243 248.1 250.3 251.8 253.2 254.2 254.6 255.2 256 255.2 252.9 250.5 248.3 247.3 246.1 244 241.8 239.4 236.7 234.2 231.2 226.8 222.1 217.4 212.8 208 211.8 208.8 207.7 204.5 199.1 196.2 191.5 190.2 185.1 181.6
184.3 180.6 175.7 172.3 167.5 162.5 163.9 165.5 167.7 169.6 173.3 172.9 171.7 169.3 167 166.6 169.3 171.5 174.8 177.5 177.2 176.7 181.3 180.6 181.7 180.9 177.9 175.5 174.1 173 171.9 170.9 170.7 171.3 171.9 172.2 172.9 173.2 173.8 175.4 176.5 176.7 177.1 178.5 179.6 183.8 188.5 191.8 194.3 198.2 203.5 210.6 213.6 215.1 214.9 214.6 213.5 211.8 209.7 206 194.6 185.4 179.8 177.4 177.2 177.3 177.8 178.8 179 178.6 177.5 176.3 175.3 174.9 174.2 175.4 172.8 172.6 172.4 171.6 171.8 172.2 173.5 174.6 176.6 178.7 181.6 184 185.3 186.4 185.9 184.8 183.4 181.8 180.5 179.5 178 174.9 171.7 168.3 164.7 166.9 168.9 170.8 176.8 183.3 190.1 196.9 204 206.5 208 209.2 210.4 210.6 209.8 209.1 208.8 208.8 209.7 209.6 209.8 209 208.4 207.9 207.9 208.5 209 209.7 210.1 210.9 212.6 213.8 211.8 208.5 204.3 200.7 196.8 190.5 183.6 176 164.2 153.8 149.9 146.4 143.2 143.2 142.5 146.3 152.5 158 163.3 170.8 178.3 186.8 196.7 202.3 209.4 213.3 217.1 223.6 229.3 235.6 243.1 245 244.4 247.8 250.3 251.5 252.7 253.7 253.9 254.5 255.1 254.2 252 249.5 247.8 246.8 246 244 241.8 239.4 236.6 233.9 230.8 227.5 223.1 218.3 213.4 208.5 204.6 202.2 197.6 194.8 191.9 190.2 187.3 187.3 185.9 186.7
187 184.4 179.8 172.8 164.7 166.7 168.2 169.7 169.3 172.4 177 175 175.1 173.8 169.4 167.9 169.9 176.7 179.6 181.5 182.4 182.6 183.3 181.1 181.3 182.3 179.3 176.2 175.9 174.1 173.1 172.8 173.9 173.2 174.3 174.6 175.1 176.4 176.7 178 179.4 180.4 183.1 185.5 189.5 196.7 201.4 203.4 204 204.2 206.9 210.4 213.6 215.8 216 215.5 214.3 212.6 210.5 205.6 194 187.8 182.3 178.9 178 178.7 179.3 179.8 180.5 180.8 179.2 177.2 176.4 176 175.7 175 174.6 174.3 173.5 170.3 170.9 170.7 170.8 170.8 170.8 172.4 174.4 174.6 175.7 177.5 177.8 177.7 176.9 176.1 174.3 173.2 171.1 168.2 165.8 169.1 173.1 177.3 180.4 183.8 186.3 191.1 196.7 202.8 208.4 210.3 212.2 214.4 214.6 214.1 213.2 212.1 212.4 212.8 214.4 214.2 214.1 213.7 212.9 212.4 212.3 212.7 213.2 214 214.8 216.7 218.4 218.1 215.3 211.3 206.7 202.1 198 191.4 189.3 179 172.2 162.4 153.8 150.3 146.4 142.1 145.4 143.3 145.1 148.7 155.2 162.7 174.4 183.4 194.6 200.4 204.5 205.4 213.6 221 225.5 231.8 241.7 243.9 245.3 247.9 249.7 250.9 251.8 252.8 253.5 253.7 254 252.8 250.3 248.4 246.8 246.2 245.5 243.8 241.8 239.1 236.2 233.4 230.8 227.8 223.8 219.9 214.8 211 207.3 203.4 200 197.7 195.9 194.2 192.8 195.8 196.5 196.1
186.4 184.6 178.7 167.9 169.5 171.8 173.5 174.4 174.3 175.2 177.6 177.2 177.2 176.5 174.7 169.9 171.8 179.3 181.4 182.4 183 183.8 182.9 182.2 182.8 182.1 178.3 178.2 181.8 179.2 176.5 176 177.5 176.8 178.9 177.7 178.8 179.7 180.4 182.3 184 187.3 193.4 200.1 205.4 211.1 213.8 214.5 214 213.1 212.2 213.2 214.4 214.9 214.9 214.3 212.7 210.9 209 201.4 193.1 188.2 182.9 178.5 181.1 185.2 188.2 191.8 193 190.1 187.1 181.4 179 179.5 178.2 177.3 176.5 176.4 177.8 176.7 176.6 173.6 172 169.4 170 169.9 169.6 169.9 169.8 170 169.9 170.6 169.8 168.3 165.8 166.7 169.3 167.7 169.4 177.1 183.2 187.2 190.1 193.3 195.3 196.6 201.4 207 211.4 214.6 217.2 218.2 218.5 217.8 216.3 216.5 218.1 218.9 219.4 219.3 219.3 219.1 219.1 219.4 219.8 220.1 220.2 220.2 221 222.4 222.7 220.6 217.4 212.8 207.5 203.3 199.2 195 188.2 181.8 175.9 171 162.4 155.8 148.6 143.4 141.7 142.2 141.6 147 152.7 161 170.5 179.5 190.1 197.5 197.7 201.3 207.9 214.1 220.4 226.3 236.2 243.7 242.6 247.5 248.3 249.9 250.9 251.8 252.5 253.3 252.4 251.1 248.5 246.7 245.6 245.1 244 242.6 241.1 238.6 236 233.4 230.7 228.1 224.5 220.7 217.3 213.9 210.9 208.5 207.3 205.4 203.9 203.5 203.5 202.9 201.9 200.3
182.1 181.2 175.3 161.2 171.2 173.2 175 176.1 176.7 177 177.8 179 177.4 176 177.8 174.3 177.9 179.1 179.1 182.7 185.2 185.3 184.5 183.5 184.1 180.8 179.6 180.7 183.7 183 179.6 180.3 182 182 184.4 182.1 184.1 183.3 185.8 189.3 194.6 200 208.7 215.3 220.6 224.2 225.5 222.6 220.1 218.2 216.4 216.1 215.9 214.9 212.7 211.8 210.6 209 207.1 198.1 190.7 186 182.1 180.1 186.5 192.1 198.5 202.3 203.3 197.5 194.8 188.2 186.8 184.6 185.5 184.3 183.7 187.4 194.3 194.2 194.4 192.7 189 183.7 177 172.4 171.3 170.8 170.8 170.6 170.8 169.8 170.9 172.2 172.3 174.1 175.7 177.7 186.5 191 192.9 195.3 197.9 200.8 201.7 202.3 205.5 210.5 214.2 218.6 220.7 222 222.2 221.6 220.5 222.6 225.1 227.4 228.1 227 226.8 227.1 227.9 230 230 229.7 228.2 228.2 228 227.6 226 222.4 218.9 213.7 208.5 204.5 200.5 196 190.1 182.8 178.3 173.6 170.5 164.2 158.1 153 147.5 143.2 142.3 143.6 153.3 159 165.1 177.3 184.9 191.5 191.1 198.1 202.6 208.5 214.8 222.4 229.5 239 244.6 246.2 247.4 248.8 250 250.8 251.4 247.6 249.5 248.4 246.1 244.7 244.1 243.5 243 241.6 240.2 238.5 236 233.5 230.8 228.4 226 222.7 219.8 217.7 215.4 214.3 214.1 213 211.7 211.1 210 208 204.8 202.4
174.1 174.9 160.3 168.6 171 173.8 176.6 177.7 179 180.1 180.5 180.8 181.2 181.3 182.4 177.7 182.4 181.4 182.7 184.7 184.3 184.8 185 184.3 183.2 183.1 185.7 185.7 186 187.5 187 186.1 187 187.9 188.7 187.9 190.6 191 195.2 201.5 209.9 215.5 222.4 228.5 233.1 235.2 232.9 229.4 225.7 222 220 218.6 216.6 214.4 210.6 209 207.9 206.3 201.2 193 188.2 184.2 181.1 184.4 191.6 199.1 204.8 207.7 208.2 207.6 205.4 203.7 200 194.3 205.9 204.9 205.7 211.5 215.9 216 214.4 205.8 199.6 195.8 191.2 187 184.6 181.8 178.3 173.3 176 177.5 178.2 180.6 182.6 182.6 191.6 196.8 199.1 199.7 200.8 202.9 204.8 205.6 207.4 208.4 209.6 213.8 218.2 222.1 223.7 225.4 225.7 226.5 227.4 229.2 233.5 236.2 236.4 235.6 235.6 236.2 237.7 239.8 240 239 237.4 236.7 235.5 232.6 228.1 223.8 219.5 214.3 210.1 205.9 201.2 195.7 189.6 183 178.5 174.6 171 169.6 167 166.3 157.3 150.8 144.6 141.1 148.5 154.9 161.2 171.7 179.1 183 187.6 193.3 198.3 203.9 210.4 219 225.4 231.8 240.4 244.8 246.6 248 249 249.3 250.5 248.5 247.6 246.1 243.9 243 242.6 242.1 241.6 240.5 239.2 237.6 235.9 233.6 231.1 229.2 227.1 224.4 222.5 220.5 219.3 218.7 218.2 217.8 217.3 215.8 213.5 210.5 206.6 202.5
164.9 163.6 166.4 166.7 169.1 173 176.5 177.8 179.3 180.5 181.3 182.2 182.3 181.6 182.2 178.9 184.7 184.6 186.4 188.6 186.9 185.6 186.4 185.5 187 189.1 189.5 191.2 189.7 192.1 193.2 192.9 194.8 195.8 196.1 197.6 201 201 208.8 215.4 222.8 229.2 233.9 238.9 241.9 241.3 238.7 234.9 230.1 226.5 223 220.4 217.4 213 209 205.8 204.6 199.2 194 189.1 184.5 182 184.8 190.7 197.1 205 207.8 210 211.2 212.1 212.4 212.2 211.2 213.5 216.3 217.9 220 223.1 224.3 223.7 222.3 219.7 215.1 212.6 209.9 203.2 197.8 197.9 193.6 179.3 183.7 191.3 190.4 190.2 193.2 202.4 208 208.2 208.3 207.8 207.8 208.8 209.8 211.2 212.7 214.1 215.6 218.1 222 225.4 227.9 229.1 229.8 231.7 233.1 237.1 241.6 243.9 244.2 244.2 243.8 243.9 245.7 247.2 246.7 245.9 243.8 241.5 239.9 235.5 230 225.1 220 215.9 211.9 207.5 201.7 195.3 188.5 181.9 177.7 173.3 169.6 163.7 158.8 156.5 161.6 151 142.4 141 146.2 150.5 158 167.3 172.8 178.1 184.8 189 192.7 198.8 206.2 215.9 222.8 228.5 238.2 243 245.2 246.9 248.1 248 247.2 246.9 246.9 244.2 242 241.4 240.1 239.8 239.4 239.4 238.2 236.5 235.3 233.4 231.6 229.7 227.9 226.5 224.8 223 221.7 221.5 221.3 220.6 219.6 217.8 214.9 211 206.1 201.6
160.6 161.7 165.7 166.4 167.9 172 176.5 178.2 180.3 182.3 182.8 182.8 183.2 181.8 180.4 181.5 185.2 185.9 187.4 190.2 189.9 189.4 189.7 189.7 192.3 193.7 195.3 196.2 197.2 200.2 204 207 210.2 211.9 211 211.9 213.4 215.6 222.4 229.4 234.9 239.9 244.3 246.5 246.4 244.4 240.8 237.5 234.1 228.4 225.8 222.6 218.7 213.7 209.3 200.9 197.1 192.7 189 184.1 183 185.3 188.6 195.5 203.5 207.9 211.1 212.7 214.3 216.5 218 219 219.7 221.1 226.3 230 232.7 234.1 233.9 233.2 230.4 227.3 223.9 221.7 220 217.6 214.6 209.7 202.7 193.6 185.7 203.5 205.1 207.6 209.4 212.5 215 215.9 216.5 215.6 216.1 215.1 215.5 217.4 218.3 219.6 221 223.6 226.8 229.2 231.4 233.1 235.1 237.4 241.3 245 248.3 250.6 250.8 251.4 251.2 250.2 251 252.1 252.8 252 248.6 245.1 241.6 236.2 230.8 225.5 220.5 217 213.4 209.1 202.7 195.3 188.3 181.6 177.1 172.4 167 158.8 154.1 147.8 148.8 150.7 142.1 140.7 142.1 145 155.2 162.7 165.2 173.1 177.6 183.2 188 192.8 203 212.5 219.7 225.4 235.4 240.5 241.7 241.7 246.5 246.9 244.9 244.8 244.8 242.1 240.1 238.6 237.2 237 237.2 237.4 236.1 235.2 234.2 233.1 231.5 229.8 228.6 227.3 225.9 224.6 223.7 222.9 222.3 221.6 220.6 218.6 214.9 210.3 205.2 200.8
160.7 162.5 166.8 168.5 170.7 172.5 176.8 180.2 182.6 183 182.8 182.6 182.8 183.1 182.1 187.1 185.7 186.9 189.9 192.1 193.4 194.1 195.1 197.1 199.7 202.1 204.5 208 212.3 212.3 220.9 225.6 227.5 229.9 228.5 227.7 226.6 230.3 236.2 238.2 245.3 249.4 250.1 249.8 248.8 246 242.6 239 235.2 230.4 227.3 224.2 220.5 214.8 209.7 204.4 191.9 188.2 184.7 184.1 185.4 191.2 194.4 200.5 206.7 210.4 213.6 215.5 217.3 219.5 223.1 224.7 228.8 231.3 234 236.9 239.5 240.7 240.6 239.6 237.6 234.9 233.3 231.5 227.6 223.2 220.2 216.9 210.1 199.9 199.1 212.9 214 214.6 214.8 218.2 220.5 223.4 227.7 228.9 227.2 223.4 223.3 223.6 225.9 226.8 228.3 229.7 231.3 233.6 235.7 237.3 241.5 246.1 251.1 254 257 258.1 257.8 257.4 256.2 255.4 254.7 255.8 255.6 254.4 250.8 246.2 241.7 235.8 230.5 225.3 221.2 217.2 213 208.6 202.3 195.1 187.6 181.7 176.7 174.5 170.6 166.6 161.3 153 145.8 145.5 142.1 140.4 140.2 143.2 148.7 153.8 158.6 165.6 167.5 175 181.6 188.4 198.3 207.9 217.7 223.2 233.3 239.2 239.3 240.7 241.2 242 243.7 244.5 242 240.2 238 236.3 234.3 233.5 233.8 233.7 233.9 233.2 232.9 232.3 230.8 229.9 229.1 227.9 226.6 225.3 224.4 223.7 222.9 221.9 219.8 217.9 213.8 208.8 203.9 199.6
162.5 163.6 164.3 168.4 171.1 172.2 176.2 180.3 183.5 184.4 183.6 183.4 184.8 185.1 184.6 188.4 189 189.8 192.9 195.3 198 201.3 203.5 205 210.7 215.3 221 226.1 231.9 233.4 241.2 245.1 244.3 245.3 243.3 242 241 243.2 246.6 249.9 252.7 253.2 252.6 251.5 249.1 246.5 242.8 238.8 234.8 231 228 225.2 221.9 216.1 210.7 202.1 192.2 186.8 185.6 187.1 191.4 196.1 199.3 203.9 208.5 211.8 215 217.6 219.9 223.1 227.7 231.2 234.9 236.9 238.8 241.7 244.5 245.7 245.9 245 243.8 241.9 240.7 239.5 235.6 229.6 225.4 221.4 218 214.6 214 217.7 219.8 220.3 221.7 223.5 226.7 233.1 239.2 240.3 237.6 234.8 233.1 233.3 232.8 233.3 233.8 234.7 235.5 237.6 241.5 244.8 249.4 255.6 260.3 261.9 264.2 264.2 263.6 262.5 260.8 259.8 259 258.4 257.4 255.6 251.7 246.8 241.6 235.2 229.9 225.1 220.9 216.4 212 206.7 201.1 194.2 187.6 184.2 180 176.9 174 170.2 164.2 156.4 148.2 144 145.2 141.6 139.4 140.7 143.1 147 154.5 158.1 160 167 176.2 183.5 194.8 205.7 215.3 221.3 230.5 237.8 237.4 238.7 238.7 240.9 242.8 240.2 238.5 237.6 235.3 232.8 231 230.7 230.4 230.8 231 231.1 231.2 231.1 230.1 229.4 228.7 227.9 226.9 225.7 224.6 223.8 223 221.8 219.5 217.3 211.8 207.1 202.9 198.7
160.9 161.8 162.5 165.7 169.5 172.6 175.6 181.1 183.4 186.4 187.2 187.1 189.2 188.9 189.3 192.2 192.7 194.2 197.1 202.9 206.9 210.4 213.9 222.6 230.7 235.4 242.4 250.2 255.6 256 257.1 259.7 258.9 257.6 255.6 254.5 253.5 254.6 255.4 256.1 256.9 256.5 255.2 252.8 249.8 246.2 240 233 230.1 228.7 226.3 224.6 221.4 210 200.3 192.1 188 185.2 190.4 191 194.4 199.5 203.7 207.3 210 213.2 216.2 219.2 222.4 227.1 232.4 237.3 239.1 241.1 242.6 245.9 248.6 249.9 250 250 249.1 247.4 246.2 244.4 240.9 235.1 231 227.5 224.2 221.8 221.2 222.8 224.8 226.8 229.2 231.5 237.5 244.9 250.3 249.6 246.6 243.4 241.8 241.3 240.5 240 239 239.2 240 243.8 248.1 252.7 257.7 263.4 266.7 268.6 269 268.4 267.5 266.1 264.2 262.4 261.4 259.8 258.6 256.2 251.9 247.1 241 235.3 230.2 225.2 220.8 216.2 211.6 205.9 201.2 196.3 192.2 188.5 185.1 181.7 177.2 173.4 167.6 159.4 150.8 147.2 143.2 146.3 139 139.3 138.9 143.8 148.9 150.9 156 162.4 171.4 181.4 192.1 201.1 211.6 216.5 223.8 231.1 234.5 236.1 237 237.6 235.6 232.6 232.6 234.2 232.2 228.5 227 226.8 227.3 228 228.4 228.7 229.3 229.2 228.8 228.4 227.7 227 226.4 225.7 224.4 223.7 222.8 221.8 219.8 216.5 210.8 206.3 202 197.8
159.2 159.8 160.9 164.1 168.8 173 177.3 181.8 185 189.7 190.8 190.4 190.1 191.3 193.9 196.4 197.4 200.2 205.2 211.2 217.6 223.6 230.9 240.6 249.6 256.3 261.9 268.5 270.8 269.8 267.2 269.8 269.3 268 265.9 264.1 261.1 260 260.1 260.3 260.9 259.8 257.4 253.6 248.7 241.6 233.4 229 225.8 223.2 220.2 214.5 203.2 197.5 192.2 188.2 187.3 189.4 193.2 195.9 197.6 201.3 206.1 210.9 213.5 217.2 219.1 221.3 225.3 230.4 237.3 241.9 244.4 246.1 247.4 250.5 252.5 254.1 254.1 253.6 253.3 252.9 252 250.2 246.7 241.3 237 234.1 230.3 228.1 227.1 228.5 230.9 233.4 236.2 241.8 249.2 257.6 259.2 257.2 254.4 252 250.3 249.3 247.7 246.4 244.9 246.6 249.6 252.4 255.9 260.3 266.1 269.3 270.7 271.9 271.5 270.2 269 267.6 266.1 264.7 263 261.4 259.3 256.3 251.5 246.6 240.6 235.7 230.7 225.9 221.4 216.8 212.4 208.7 206.2 202.2 198.6 193.9 190.6 187 182.7 177.5 171.7 163.4 155.4 148.7 145.8 152.9 144.4 139.7 139.2 139.3 143.4 146.6 152 158.1 168.5 177.7 187.4 197.1 205.4 210.1 213 216.7 219.8 221.9 224.1 224 222.2 225.6 227.8 228.4 226.7 223 223 221.8 222.9 224.2 225.3 225.3 227.3 227.3 227 226.6 226.5 226 225.4 224.8 224.1 223.2 222.3 221.4 219.8 216.4 210.9 205.4 201.1 196.8
160 160.6 160.2 162.7 167.7 172.7 177.4 183.6 189.4 191.6 192 191.8 191.9 194 197.4 200.8 204.3 208 213.8 219.3 231.1 240.1 246.4 256.7 261.8 269.5 275.5 278.1 279.9 278.1 276.3 277 277.4 274.8 272.5 270.2 268.9 267.2 265.9 264.7 262.8 260 255.7 251 243.4 234.7 229.9 225.9 222.2 214.6 208.3 200.9 194.6 191.6 191.1 191.9 192.1 193.2 193.4 198.4 201.9 206 210.4 213.1 216.5 219.3 221.7 223.8 228.3 233.9 240.9 244.6 247.7 249.4 249.1 251.7 253.9 255.6 255.6 257 256.6 256.2 255.2 253.9 251.7 246.9 243 238.9 236.7 234.4 233.5 234.7 236.2 240.6 244.8 250 260.2 264.3 266 264.6 262.3 260 257.3 256.2 254.6 253 253.4 256.3 260.1 262.4 264.4 269.1 272.8 274.2 275.6 275.1 273.9 272.3 270.6 269 267.4 265.8 264 262.1 259.6 256.4 251.6 247.1 241.5 236.7 232.8 227.3 222.1 218.7 216 214.2 211.9 210 205.5 200.4 196.3 192.6 188.7 184.3 176.8 170.1 162.6 154.1 149.9 155.5 151.2 143.1 138.5 138.7 138.6 141.8 145.5 152.7 163.1 173.2 184.7 194.4 200.1 202.8 205.9 210 211.9 213.4 214 213.8 213.5 215.7 217.5 217.2 214 213.8 211.4 209.6 210.1 211 212.8 215.5 220.4 223.6 222.8 223.3 223.4 224.1 223.2 222.6 222 222.2 221.8 221 218.9 215.9 210.3 204.8 199.9 195.4
160.4 161 160.3 162.2 167.2 172.9 177.5 187.7 192.4 192.6 193 193.6 195.4 198.5 204 207.7 212.5 217 224.6 231.7 244.6 256.6 269.9 272.9 276.8 279.9 283 283.9 283.6 282.9 283.1 283.8 283 281.2 279.5 274.8 271.2 269.2 267 264.5 262.4 257.8 252.9 245.4 236.5 231.5 226.9 222.1 216.2 208.2 203.7 196.1 194.9 196.9 197.1 195.3 196.6 198.4 196.2 197.8 203.7 208.6 212.9 215.6 218.1 221.8 224 226.5 231.8 239 243.9 248.6 250.6 251.9 252.6 253.9 255 255.3 257.4 259.4 258.8 259.7 261 260.5 256.7 250.4 246.4 244.9 243.8 241.9 240.6 240.7 242 245.5 249.6 257.4 266.2 270.1 270.7 269.4 267.6 265.6 263.7 262.2 261.4 261.8 263.4 266.4 269 270.8 272.3 276 277.6 279 278.9 277.4 275.3 273.4 271.7 269.7 268.2 266.6 264.6 262.6 260.6 257 251.5 247.5 242.9 235.5 235 229.8 227.2 222.5 220.9 220.5 216.9 214.5 211.8 208.4 203.6 198.8 195.3 191.5 185.2 177.8 171.6 163.9 155.5 156.4 152.1 144.4 138.8 138.1 137.8 137.5 138.4 139.2 152.6 170.1 183 190.6 194.8 197.7 201.4 204.5 206.2 207.7 207.8 207 206.1 205.8 205.2 206.1 205.5 203.8 201.9 199.3 199 199.6 201.4 204.1 206.6 210.2 213.6 214.4 214.7 215.9 216.1 216.9 216.2 215.8 215.8 215.8 215.6 211.7 207 202.2 198.5 194.8
161.6 162.9 162.4 164.8 169.6 174.1 178.7 190.1 192.9 193.2 193.6 195.8 198.9 206.2 213.1 218.9 223.6 229.5 238.5 248.4 266.2 278.6 284.5 284.8 286 286.9 287.3 288.6 287.6 286.1 287.1 288 287.4 285.8 282.7 278.7 274.3 270.1 267.7 263.3 258.3 253.3 246.7 238.7 233.4 228.4 224.5 218.9 211.7 205.2 200.2 197.1 200.3 201.4 201.1 199.6 200.7 202.7 202.8 201.8 205.4 211.4 215.4 218.6 221 224.2 227 230.7 237 242.8 249.1 252.3 254.8 257.4 259.1 260.3 260.5 259.9 260.4 262.4 263.4 263.5 267.1 265.3 261.3 257.3 253.9 252.8 252.2 250.4 249.1 248.9 249.6 251.4 255.8 263.1 271.8 275.4 275.8 274.7 273.1 271.3 269.4 268.3 268.3 269.2 272.1 274.5 276 278 279.3 281 282 281.9 280.7 278.8 276.7 274.7 272.8 270.8 268.8 266.9 265 262.9 260.6 256.8 250.8 247 242.9 238.7 235.3 229.2 226.5 226.9 225.6 223.2 221.7 220.3 217.2 213.6 209.8 206 202.9 198.4 192.5 186.6 179.9 173.2 166.3 161.2 155.4 147.3 140.8 138.7 138 138.5 139.1 143.2 139.7 154.7 176.5 185.9 189.9 193.9 197.4 201.3 202.1 203.2 202.6 201 199 198.5 198.5 198.7 197.4 194.6 191.9 188.9 188 188.9 189.9 192.3 195.1 197.7 200.1 202 203.9 205 206.2 205.9 205.2 204.7 204.7 204.6 204 202.3 200.4 198.9 196.4 193.3
163 167.2 168.2 170.4 173.6 176.8 181.1 191.2 193.1 193.5 194.9 198.6 204.9 216.1 225.2 233.3 238.8 245.7 260.9 276.8 285.7 287.8 288.8 288.9 289.5 290.4 291.5 292.4 291.3 290 291.1 293.1 292.2 288.5 284.2 279.4 274.5 270 266.7 259.3 253.3 247.5 241.7 235.8 230.5 226 221.3 215.9 211.5 206.5 197.2 199.6 203.7 204.8 205 204.4 204.7 207 208.5 210.8 213.5 216.4 218.5 220.8 223.5 226.8 230.5 235.3 242.1 248.8 253 256.2 259.2 262.9 265.4 267 267.5 267.9 268 267.6 267.9 269.9 269.7 269.2 267.5 265.9 264.6 262.7 261.1 259.2 257.8 256.6 256.8 257.7 260.9 267.8 274.8 277.3 278.3 278.3 277.4 276.4 275.1 274.7 275 277 278.4 280.1 281.6 283.2 284.1 284.7 284.2 282.8 281.3 279.4 277.5 275.6 273.4 271.3 269 267.1 265.2 262.9 259.6 254.7 250.3 247.1 243.4 240.1 237.2 234.8 232.7 230.7 229.2 227.3 225 223.4 221.8 219.1 216.4 212.3 207.8 203.3 197.9 193.8 189.2 181.8 176.9 170.6 164.7 155.2 148.6 144.2 144.2 143.2 146.3 157.4 144.2 139.8 166.2 181.4 186.3 190.2 193.8 192.5 198.4 197.5 195.6 193.5 191.7 192.1 191.8 191.5 188.7 186 182.4 180.3 178.5 179 179.8 182.2 184 186 189.1 191.3 193.7 196.5 197.9 196.9 196.1 195.6 194.9 194.7 194.2 194.1 193.9 194.8 194.9 192.3
163.2 169 173.3 175.1 175.4 177.9 183.3 191.1 193.4 194 195.8 201.1 210.2 223.1 237.2 255.6 266.2 273.9 285.5 291.4 291.9 291.6 292.8 292.6 292.9 293.9 295.2 295.7 295.3 294.3 298.2 302.2 297.4 288.6 282.4 277.1 273.3 269.4 263.9 256 250 243.2 237.4 232.3 228.5 224.7 218.9 214.2 210.6 201.4 202.3 205 207.4 208.3 208.4 208.4 209.2 211.7 214 216 217.7 219.8 222 224.3 227.4 231.3 236 241.1 247.6 252.1 255.7 259.5 263.8 267.7 272 273.6 274.2 274.7 275.1 274.2 274 274.8 274.9 272.7 273.9 273.9 272.6 270.6 268.5 266.6 264.9 263.6 262.7 262.7 265.6 272 276.1 279 280.8 281.9 282.1 282.4 282.5 282.6 282.9 283.6 284.5 285.7 286.8 287.5 287.9 287.3 285.6 283.8 281.9 280 278.1 276 273.9 271.6 269.3 267.3 265.1 262.8 260 255.8 251.6 247.7 245.1 242.5 240.3 238 235.8 233.5 231.7 230 227.2 225.1 224.7 223.2 221.4 217.9 213.3 207.7 204.8 198.5 193.8 188.8 183.9 175.1 168.5 163.4 158.7 151.7 156.3 160.2 158.6 157.1 148.2 137.2 163.1 177.2 181.5 185.5 188 185.8 189.6 188.3 186.3 183.9 183.4 183.2 181.5 178.9 176 173.7 171.8 169.7 168.5 168.1 168.4 170.2 171.9 174.6 178 180.9 184.6 187.1 188.1 187.6 187.5 186.7 186.6 187.5 187.5 188.5 188.7 190 192 191.4
160.6 166.5 172.6 174.1 171.6 174.8 180.7 189.2 193.7 194.8 197.6 204.7 216 228.3 243.7 264.9 288.2 291.4 294.3 294.6 294.8 295.9 301.7 299.6 299.4 299.3 300.7 301.2 300.2 300.5 302.9 304.4 297.4 288.3 282.1 277.6 273.1 268.3 260.7 253.3 246.6 242 236.4 232.6 227.6 222.7 218.5 214.6 207.7 206.2 206.8 209.6 211.4 212 212 212.8 213.5 215.2 217.5 219.5 222.1 224.5 226.6 229.7 233.4 237.4 242.1 246.9 252.1 255.8 259.8 263.1 268.3 272.9 276.3 278.8 280.2 281.5 282.1 281.7 281 281.4 281 279.3 278.4 279.2 277.3 275.5 273.4 271.7 270.1 268.3 267.5 267.1 270 273.9 277.1 280.3 283.3 285.4 286.6 287.7 287.9 287.5 287.6 287.9 289 290 290.7 291 289.9 288.3 286.2 284.4 282.5 280.6 278.6 276.5 274.3 272 269.6 267.4 265.2 263 260.8 257.9 254.2 250.3 247.7 245 242.9 240.4 238.2 235.9 234.3 232.3 228.8 226.3 225.4 224.3 222.5 220.1 216.1 210.1 204.2 199.1 195.4 189.7 183.2 176.1 168 167.6 162.8 159.5 163.5 163.3 158.3 148.1 140.8 136.3 155 168 172.5 172 172.1 175.2 177.3 175.4 175.2 172.6 169.4 168 165.6 163.3 162.9 161.8 161.1 159.5 158 157.3 156.4 157.7 159.2 161.5 165.5 170.7 174.5 177.4 178.2 179.2 179.5 179.1 180.2 181.3 181.4 182.6 183.6 186.3 189.1 189.5
156.2 163 166.8 167.6 166.8 169.4 177.7 189.2 193.4 195.5 199.3 207 216.8 228.7 243.2 263.4 286.4 294.9 296.4 296.4 297.1 298.9 305.1 306.4 307.2 305.9 306.6 306.7 306 305.9 306.4 306.1 298.1 289.9 283.7 279 273.8 268.8 261.1 254.1 247.2 242 236.7 232.6 228.5 224.5 220.2 214.4 210.1 212.3 211.9 214 215.4 215.7 216.2 216.5 217.4 218.7 220.9 224.1 227.6 231.2 233.5 236.5 240.8 244.2 248.7 253.1 257.1 261.1 264 267.2 272.7 277.5 281.2 283.4 284.7 286 287.1 287.1 288.3 289.1 287 284.7 283.1 281.5 279.9 278 276.2 274.6 273.7 272.7 271.9 271.5 273 275.9 279.3 282.8 285.6 287.8 289.5 291.2 291.4 291.6 291.7 291.6 291.4 292.3 292.7 292.3 290.5 288.8 286.8 284.9 283 281.1 279.1 277.1 275.1 272.7 270.3 267.9 265.6 263.6 261.9 260.2 257.7 254.4 250.8 247.6 245 242.1 240.1 238.1 235.9 232.8 229 226.3 224.5 224.5 223.4 221.5 217.1 209.7 204.1 198.6 193.6 187.8 180.3 171.9 164.1 163.9 165.7 165.6 165.2 160.5 150.3 144.3 133.1 136.4 139.9 148 155.3 158.1 159.9 162.8 158.8 157.9 162.6 160.5 155.8 154.3 155.4 154.6 152.7 153.3 151 148.3 145.4 144.5 143.8 144.6 146.2 148.4 152.4 158.4 163.5 166.3 168.5 169.4 171.3 173.5 173.9 174.8 174.8 177 179 181.6 185.3 187.1
151.4 155.6 158.2 158.1 160.6 168.4 179.5 190.7 194.4 195.9 200.1 207 216.8 227.9 240.8 256.2 275.8 291.5 297.3 299.8 300 301.1 305.2 309.7 312.9 312.6 313.2 312.8 311.2 311.3 310.6 308.5 301.2 292.6 285.4 280.5 274.2 269.5 261.3 254.3 247.2 241.8 236.9 232.7 228.6 224.5 217.6 213.6 215.7 216.8 217.3 218 219.1 219.1 219.3 219.4 220.6 222.1 224.6 228.6 234.8 238.3 240.6 243.5 247.7 251.7 254.5 258.4 262.5 265.8 268.3 272.1 278.6 283.1 285.7 287.6 289 290.3 291.3 293.4 295.1 295 291.6 288.2 285.8 284.5 282.5 280.6 278.9 277.8 276.9 276.1 275.6 275.6 276.9 279.1 282 285.4 287.8 290 291.8 293.7 293.1 292.5 292.2 292.2 292.1 292 292 291.7 290.6 289 287.2 285.4 283.5 281.5 279.5 277.5 275.5 273.3 271 268.6 266.2 264.3 262.9 261.4 259.6 256.7 254.1 250.2 246.6 243.2 241.3 239.1 236.2 233 228.6 226 224.1 222.7 222.8 221.4 217.1 210.2 203.8 197.2 191.4 184.3 176.2 167 159.9 161.7 164.5 164.7 163.7 152.7 145.9 138.6 132.7 133.3 133.1 139.3 143.2 148.4 150.8 149.4 148.9 148.5 147 145.4 146.9 143.9 143.7 144.3 142.3 139.9 139.8 138 137.2 136.9 136.1 136.9 137.7 139.6 142.7 145.8 151.1 154.4 157.6 160.5 164.5 167.9 168.1 168.8 168.8 170.7 173.1 175.5 181.2 185
148.3 150.1 151.5 155.2 160.1 169.4 181.2 190.8 194.3 195.6 199 206 216.5 228.4 237.8 250.9 268.3 287.6 297.7 302.1 303 303.3 306.1 311 314.9 317 318.9 320.6 317 314.5 313.5 311.1 303.7 294.5 286.7 280.4 274.7 270 261.9 253.9 247.4 242 237.4 233.1 228.8 223.6 219.3 220.3 220.2 220.1 220.3 220.9 221.7 221.8 222.1 222.3 224.1 226.3 229.3 235.4 242.6 247.4 250.6 252.6 255 258 260.2 264.1 267.5 269.7 272.1 276.8 283.2 286 288.2 290.4 292.4 293.8 295 297.5 299.7 298.1 295.1 291.8 289.4 287.2 284.9 283.3 282 281.4 280.4 280.1 280 280.2 281 282.4 285 287.5 290.6 293.2 293.8 293.3 292.4 291.8 291.6 291.4 291.2 291.2 291.2 290.8 289.9 288.9 287.3 285.4 283.5 281.8 279.8 277.8 275.8 273.3 271.1 268.9 266.7 264.9 263.5 262.1 260.8 258.9 256 252.7 248.6 244.7 241.9 239.2 236 231.7 227.4 224.8 222.9 221.1 220.4 220.2 216.3 209.9 203.6 196.8 189.7 181.2 172.2 164.2 156.4 159 162.3 163.4 163.2 154.5 145.2 137.8 132.6 132.9 132.3 134.8 138.1 139.7 142.3 142.9 142.6 140.8 138.2 139 140.2 139.2 138.5 137.7 136.3 134.2 134.1 134 132.1 131.4 131.2 132.5 133 133.6 134.1 136.2 140.6 143.4 146.4 151.6 155.9 160.3 162.8 163.7 164.5 166.2 168.2 170.3 175.8 183
146.1 147.5 151 155.3 160.6 168.3 177.8 188.4 195 195.9 197.2 203 214.5 224.8 234.8 246.8 260 277.3 285.9 293.9 301.5 303.7 305.7 310.4 314.6 317.6 320.2 321.7 319.6 317.1 315.5 312.9 306.4 296.3 288.4 282.1 276.1 269.8 261.7 253.4 247.3 242.4 238.1 233.9 228.4 224.5 223.4 223.6 223.8 223.5 223.5 224 224.4 225.4 225.5 226.5 229.1 234 239.8 244.9 251.5 255.6 258.7 260.3 261.3 263.6 267.1 269.3 271.4 273.5 276.2 281.2 287.1 288.7 290.4 292 294.6 297.2 299 300.7 301.2 299.2 296.7 294.5 292.5 290.8 288.9 286.7 285.7 284.9 284.1 283.7 283.5 283.4 284.4 285.6 288.7 291.4 293.3 294 293.9 293 291.8 291.2 290.9 290.6 290.4 290.2 289.9 289.8 289.3 288.3 286.8 285.1 283.3 281.5 279.4 277.5 275.3 273.2 270.9 268.6 266.5 265 263.5 262 260.6 259.2 256.9 253.8 249.3 244.7 241.6 238.9 235.2 230.1 226.2 223.3 221.6 219.7 217.4 217.2 213.6 208.1 202.1 195 188.6 178.7 169.2 161.1 153.7 150.8 156.2 156.3 158.1 154 143.5 137 132.4 132.7 130.5 133.6 135.5 137.1 137.6 137.8 138.2 137.8 134.8 133.9 134.3 134.3 133.9 132.1 132.1 129.6 129 130.7 128.8 128 126.7 128.9 130.4 129.4 129.9 129.8 130.6 132.1 136.5 141.7 147.8 152.6 154.6 156.4 156.7 160.3 163.3 166.9 171.2 176.3
143.9 145.3 148.6 153.4 158.8 165.6 175.8 185.6 194.1 196.4 197.2 200.7 210 220.7 229 242.5 255.7 268.1 277.4 284.4 292.9 300.5 304.9 308.2 313.9 317.7 320.2 320.1 319.5 319.1 318.4 314.3 307.3 297.7 290.5 283.6 277.8 272.4 263.7 255.9 248.3 242.9 238.7 234.5 230.3 227.1 226.8 227.7 227.3 227 226.8 226.9 227.1 228.9 229.8 233.1 240.6 245.9 249.6 253.5 257.8 263.6 265.8 266 266.7 269.3 271.3 273.1 275.3 277.4 281.7 286.7 289.7 290.8 292.5 293.6 295.9 298.6 300.7 301.3 300.5 298.7 296.7 295.1 293.1 292 291.6 290.4 289.3 289.1 287.7 286.1 285 285.6 287.3 291 293.7 293.4 294 293.8 293.2 292.3 291.3 290.6 289.7 289.3 289.1 289 288.7 288.7 288.8 287.6 286.2 284.5 282.8 280.7 278.6 276.6 274.5 272.3 270 267.8 266.1 264.8 263.3 261.9 260.6 259.1 256.4 252.6 248.3 243.9 241.1 238.2 233.5 228.8 224.6 221.7 220.2 218.2 216 213.1 211.2 205.9 199.4 193.4 186.9 177.4 166.5 158.5 150.7 144.3 148.1 148.1 149.3 146.5 141.6 137.1 135 132 131.6 131.7 132.7 133.6 132.5 132.2 133.6 132.9 131.6 131.9 130.8 130.6 129.7 129.6 129.6 129.2 129.3 128.9 128.3 129.4 129.3 128.5 127.7 128.2 128.4 128 128.4 128.6 128.7 129.5 132.1 138.2 142.9 145.1 147.7 152.2 156.3 161.8 166.5 168.4
142.5 144 146.7 151 157.1 167.6 175.9 182.3 192.2 195.9 197.2 199.7 204.7 214.8 223.1 234.7 245.7 260.3 270.4 276.8 284.6 294.8 302.2 306.1 311 317.8 320.8 320.6 321.5 321.8 318.7 312.6 304.4 298.5 290.7 286 280.8 274.9 265.4 256.9 249.8 243.9 239.7 235.3 232.6 230.1 231.9 231.5 231 230.6 230.7 230.8 231.8 233.3 237 243.6 249.7 254.9 257.3 260.3 265.9 268.6 269.7 270.7 271 272.6 274.6 276.6 278.9 281.6 286.5 290.2 290.3 290.8 291.3 291.9 294.9 297.8 299.8 300.4 298.9 295.8 293.2 292.2 291.4 291.5 292.4 293.6 291.8 290.1 288.5 287 286.3 287.5 289.4 293.7 294.3 294.4 294.1 293.3 292.2 291 289.6 288.9 288.4 288 287.8 287.6 287.7 287.8 287.6 286.4 285.1 283.3 281.6 279.9 277.9 275.7 273.7 271.4 268.9 266.7 265 263.7 262.3 260.8 259.6 257.6 252.4 248.4 245.7 242.5 239.9 237.2 232.9 227 222.4 219.6 218.5 216.6 214.3 211.4 205.7 201.2 197 191.5 185.4 175.9 165.3 156 147.9 141.2 142.4 144.1 142.5 139 136.8 135 134.5 132 131.4 131.5 131.6 129.4 130.6 130.9 130.7 130.5 130.3 130.4 131 127.7 127 129.5 129.6 129.1 129.2 129.5 128.9 130.8 130.5 128.8 128 127.5 125.4 127.8 127.9 128.2 126.8 127.6 126.3 127 130 131.2 134.3 139.1 148.6 154.5 158 157.9
141.5 142.3 144.4 148.6 153.6 165.8 175.2 180.6 186.1 192.7 194.9 198 200.8 209.1 219.2 227.8 235.1 246.9 259.8 272.2 280 286.6 297.4 302.4 306.5 315.7 320.5 322.4 323.6 322.7 317 310.2 303.3 298.4 291.3 286.9 281.2 275.7 266 257.8 251.6 245.5 240.1 236.2 238.3 236.8 236.3 235.5 234.9 235.3 235.9 235.9 239 242.9 246.4 252.8 257.5 261.7 266.5 268.8 271.3 271.9 273 273.5 273.5 275.2 277 279 282 286 289.2 290.2 289.2 287.5 287.8 288.9 290.7 294.1 296.4 297 293.7 291.5 289.2 287.9 287.1 287.5 288.7 290.8 292.3 290.5 288.8 287.3 286.6 288.1 290.1 292.8 294.1 293.8 292.7 291.1 289.3 287.2 285.5 286 286.5 286.4 286.1 285.9 286.1 286.3 286.2 285 283.7 282.1 280.5 278.8 277 274.8 272.5 270.1 267.6 265.4 263.6 262.4 260.6 259.1 256 250.1 246.2 244.5 242.2 239.4 236.8 234.4 231.6 225.6 219.8 217.4 216.3 215 212.5 210 206.5 200.2 195 189.3 182.5 173.1 162.4 153.9 146 141.3 139.5 141.3 137.1 133.7 133.1 133 132.7 130.6 131.8 131 132.4 131.5 131.2 129.6 130.9 130.4 130.7 131.9 130.5 130.4 131.4 130.7 129.9 129.4 129.2 126.3 128.9 131.9 132.3 130.9 129.9 129.2 128.2 127.1 124.7 127.9 127.8 127.8 127.1 127.1 125.9 128.2 130.9 135.4 130.4 136.3 137.3 139
140.5 141.1 142.5 146.6 151.1 157.1 170 172.7 176.6 179.6 188.8 196.6 199.5 203.6 210.9 221.8 230 239.7 247.8 263 275.6 281.9 291.4 298.8 301.9 308.6 318.8 322.6 323.9 322.1 315.1 308.6 302.6 297.3 291.3 287.1 281.4 276.4 266.7 258.9 252.1 245.5 244.9 245.9 246 244.6 242.6 241.1 240.6 241 242.4 243.3 246.3 249.6 254.6 258.6 265.3 269.3 272.1 274.3 275.5 275.3 275.4 275.8 276.1 277.7 279.5 281.9 285.5 287.8 288.4 286.9 284.1 282.4 282.5 283.5 283.9 286.4 287.9 288.3 287.4 286.5 284.9 283.4 283 282.8 284.5 287 290.3 290.4 289.1 287.5 286.3 286.9 288.2 289.9 291.8 291.4 289.6 287.4 283.7 280.5 279 280 283.1 284.4 284.2 284.2 284.4 284.7 284.2 283.3 282.2 280.9 279.3 277.6 275.5 273.3 270.8 268.4 266.2 263.8 261.6 259.9 255.7 249.5 244.5 242.6 240.2 237.3 234.7 232.9 231.3 230 227 221.4 216.9 213.9 212.9 212.4 210.8 208.5 205.3 199.4 194.2 187.3 179.7 169.2 159.7 152.3 145.5 140.2 137.6 136.1 133.5 130.3 131.7 133.3 130.9 132.2 132.8 133.4 132.7 131.4 129.2 130.8 130.8 130.5 132.8 133 132 131.5 132.2 131.5 132.3 134.1 133.9 130 126.1 133.6 134.7 134.1 133.6 133.1 130.3 127.2 130 130.2 130.1 128.9 127.6 127.8 127.7 127.1 126.2 124.2 126.5 127 126.9 126.9
140.6 140.7 142.8 144.4 147.9 152.1 157.4 161.4 166.8 174.8 183.7 193.7 196.7 200.1 205.7 215.6 222.7 230.7 237.8 249.5 267.1 278.2 287.2 292.8 297.4 302.2 313.8 320.6 323.1 318.6 312.2 306.5 300.1 296.2 291.2 286.3 281.2 276.6 268.1 260.7 249.7 251.1 252 254.4 253.7 251.7 250.4 248.1 248.2 248.2 249.1 249.6 252.5 256.5 260 265.8 270.2 273.4 275.4 277.1 278.3 278.4 278.3 278.6 279.1 280.6 282.9 285.2 286.4 284.7 282.6 280.8 277.5 276.7 276.9 278.4 278.6 278.2 279 279.9 280.8 280.5 279.3 278.3 278.6 278.5 280.8 283.6 286.4 289.4 289.4 287.9 286.4 284.9 284.7 285.6 286.9 286.9 284.6 281.1 278.3 276.1 274.7 274.9 277 280.1 282.3 282.2 281.3 281.7 281 280.5 279.7 278.5 277.2 275.6 273.8 271.6 269.1 266.6 263.8 260.7 256.7 250.8 245.7 240.9 236.8 233.3 230.8 229.6 228 225.4 223.6 223.3 221.3 217.5 214.3 211 209.3 208.4 208.5 206.7 203.3 197 192 185.6 178.3 168.2 157.7 150.1 143.3 137.5 136.2 134.5 133.4 132.5 135.3 137 135.9 131.3 132.9 133 132.6 132.2 130.9 129.5 129.1 133 133.6 133.6 133 133.2 134.5 138 144.7 147.8 151.1 143.4 138.2 140.1 137.8 136.8 135.6 134.2 130.5 128.3 129.5 130.7 133.2 131.9 129.6 129.2 128.2 128 126.8 124.2 128.8 127.4 123.5 123.5
143.5 141.8 143.3 144.4 146.5 150.2 153.3 157.2 162.1 169.7 177.5 184.8 192.1 198.1 201.8 206.7 216 222 230.4 241.6 252.6 271.4 281.7 286.6 291.7 299.1 308.1 317.2 318.5 315.5 310.1 303.2 298.7 294.5 290 286 281.5 276.4 267.8 256.2 256.8 259.2 261.1 260.9 260.4 259.1 257.8 256.6 255.4 255.3 255.7 256.9 258.7 260.5 265.7 271.3 273.9 276 277.7 279.6 280.3 279.7 280 282.1 282.7 285.2 285.9 285.9 282.3 279.1 277.1 273.8 273.2 273 273.6 273.8 274 273.6 273.2 273.3 274.2 275 274.3 273.7 274 275.1 278.4 280.9 283.1 284.9 286.5 287.2 285.9 284.3 282.1 281.4 281.3 280.1 278.4 276.5 274.3 272.3 271.2 271.2 271.5 273.2 275.3 275.5 274.8 275.6 276.2 275.9 275.3 274.6 273.7 272.9 271.1 268.9 266.5 263.4 258.7 252.9 246.5 242.4 236 232.3 229.7 226.7 224.4 223.1 221.5 219.2 217.1 216.3 215.2 213.8 211.3 208.5 205.7 203.9 203.3 202 199.1 194.4 189.4 184.4 177 166.1 155.6 148.8 142.1 141.7 138.3 133.7 134 135.3 138 140.2 141.8 141.2 141.2 138 136.1 135.7 136.2 134 135.7 136.8 136.6 136.8 137.8 141.1 146.1 150.4 152.5 154.9 161.3 153.1 148.8 144 141.7 138.2 136.2 129.9 127.9 129.7 132.9 134.2 135.2 136.3 134.3 135 132.1 130.6 129.6 129.1 131.2 129.7 126.2 126.2
144.6 143 143.7 144.8 146.7 149.2 151.1 153.9 158.1 163.8 169.6 176.9 183.6 190.4 196.3 202.1 207.2 215.2 224 235.3 246.7 257.7 274.3 280.7 289.1 297.5 305.3 312.8 315 313.5 307.3 301.8 297 293.1 290.1 285.1 280.1 273.2 263.3 265.4 266.9 267.4 268.2 267.1 266.5 265.7 264.5 263 261.8 261.1 261 260.8 262.1 264.4 270.8 274.8 276.7 278.7 279.6 280.9 281 280.1 279.6 281.9 282.9 283.7 281.8 280.2 277.8 273.9 270.8 269.5 269.6 270 270.1 270.3 269.7 269.3 269 268.8 269.7 271.1 270.1 268.3 267.5 270.5 274.3 278.7 280.6 281.9 282.8 282.3 282.1 281.7 280.2 278.1 277.1 275.8 273.3 271.9 269.9 268.2 267.2 266.2 267.1 267.5 267.5 267.4 267.9 268.6 269.1 269.9 269 268 266.9 266.7 265.9 264.5 262.9 259.1 251.2 246.8 239.8 234.3 230.4 226.8 223.8 221.2 219.1 216.9 215.8 212.7 211.6 210.9 210.1 210 208.8 205.8 202.6 199.9 197.3 196 193.9 190.9 186.7 182.5 175.8 164.5 154.9 148.3 146.2 143.3 138.9 135 133.8 137 143.1 146.3 148.1 148.9 149.9 147.1 144.6 144.4 144.3 141.4 142.8 145.3 145.5 143.8 148.3 154.9 159.4 162.3 165 163.9 162.8 158.4 153.2 148.1 144.3 138.5 133.7 128.3 130.2 133.6 137.3 137.2 139.9 142.1 142.3 140.9 137.5 136.1 135.8 136.6 135.5 133.7 130.6 130
143 142.9 143.8 144.7 145.9 147.8 149.2 151.3 155.3 159.3 164.8 171.3 176.2 181.3 189.4 199 203.7 209.6 218.2 227.4 238 251.8 269.9 277.7 285.5 295.4 302.2 305.8 309.8 311.1 307.3 302.1 297.4 294.1 290.9 287.3 283 276.8 272.5 274.4 273.9 273.6 272.6 272.1 271.1 270.4 269 267.6 266.3 265 264.5 266 268.5 272.6 275.3 278.5 279.8 280.8 281.2 281.3 281 279.7 278.3 277.4 277.6 277.5 276.9 275.2 272.4 269.4 265.3 266.2 266 267.2 267.7 267.5 266.5 265.8 264.7 264.1 264.8 266.2 266.2 263.9 263.2 265.4 268.9 274.8 277.8 278.7 279.4 279.3 278.2 277.3 276.4 274.7 272.2 271.5 268.6 266.7 265.3 264 263.2 262.3 262.1 262.4 262.2 262.2 262.6 263.2 263.8 262.8 262.5 261.5 259.7 258.9 257.5 256.2 254.3 250 246.2 240.5 233.4 229.6 225.4 221.8 219.1 216.4 213.5 210.9 208.6 206.9 205.2 204.3 204.2 204.8 205.1 201.6 199 195.2 192.9 190.5 188.5 186.1 183 179 173.5 162.1 154.5 148.5 141.3 137.4 134.4 133.3 134.3 142.8 146.5 150.3 153.2 156.5 158.3 157.2 152.4 150.9 149.5 149 151.2 153.6 152.3 155.2 161.6 168.7 167.7 166.4 165.2 163.4 160.5 156.8 152.5 148.6 143.5 138 131.1 135.6 142.5 139.9 142.5 141.1 141.7 146.7 149.2 149.7 146 143 142.3 143.9 139.2 137.4 139.2 137.1
141.9 142.6 143.3 144.3 145.4 146.9 148.3 150.6 154.2 157.9 161.9 167.3 172.9 175.8 184.6 194.3 200.6 206.1 213.8 221.7 229.6 247.2 266.8 275.3 282.3 291.4 299.5 304 307.8 310.9 308.2 303 299.9 296.2 292.7 289.4 284.2 279.1 278.9 279.6 278.9 277.7 276.7 276.5 275.2 274.4 272.9 271.5 269.7 270 270.8 273.7 279.3 281.5 283.1 283.6 283.2 282.4 281.5 281 280.5 278.3 276.2 274.2 272.9 272.4 271.4 269.8 267.1 264.1 262.2 262.4 263 264.1 264.9 265.1 264.1 262.6 261.1 259.2 258.3 259.2 259.6 258.9 259.1 259.8 262.5 266.3 272.2 276.1 276.4 275.8 274.4 273.4 272.5 270.8 267.6 265.6 263.4 261.3 259.9 258.1 257.4 256.7 256.2 256.3 255.5 254.4 254.4 255 256.3 257 256.7 255.9 254.9 253.5 252.7 250.6 248.6 245.3 240.7 234.1 229 225.4 221.1 217.4 214.6 211.5 208 205.4 203.2 201.4 198.8 197.1 197.4 197.8 198.4 195.8 190.8 187.1 184 182.3 180.2 179.5 177 174.2 169.3 161.9 153.8 147.2 139.1 134.9 134.7 134 137.3 147.9 153.9 156.6 160.2 162.5 166.1 166.3 162.5 159.6 157.7 158 164.4 164.3 163.4 169 174.7 174.3 173.2 166.3 161.4 161.5 159.5 153.4 150.4 147.8 139.3 133.9 129.4 145.3 153.9 153.5 149.2 149.5 147.7 149.9 150.6 151.3 151.8 151.6 152.5 151.9 146.9 146.3 148.6 146.6
141.3 142.2 143.1 144.2 145.2 146.5 148 150.3 153.5 156.8 160.6 164.1 168.8 173.4 179.7 188 195.9 203.4 208.9 218.2 228.9 244.8 263.5 273.4 279.7 288.7 297.7 303.2 308.9 311.6 310.4 305.2 302 297.5 294 290.4 287.1 284.9 284.1 284.4 282.8 281.7 282.4 281.6 280.1 278.5 277.6 276.7 275.7 275.7 277 280.6 282.9 284.3 285.3 284.7 284.4 283 280.6 279.4 277.7 275.4 272.2 269.3 267.7 265.8 263.8 260.4 258.2 257.5 259.4 259.4 260.9 261.3 262.5 261.5 258.9 255.7 252.9 250.9 249.9 249.5 250.5 252.1 254.2 254.7 256.9 259.7 263.2 266.9 270.7 271.7 271.4 270 268.6 266.7 264.2 261.5 259.4 256.5 255 253 251.5 251.3 250.6 250 248.4 247.5 247 246.5 246.4 247.1 248.4 249.2 249.6 248.9 247.4 246.3 243.8 239.1 234.7 229.7 224.6 221.2 216.8 212.4 208.3 205.6 202.8 200 196.2 192.6 189.1 187.1 185.1 185 182.5 181.6 180 177.9 174.6 173 172.3 171.1 170.2 169.1 166.3 160 153.1 145.9 137.3 134.8 134.5 135.5 143.5 153.4 158 162 165.4 171.8 176.5 177.2 175.2 172.5 170.5 170.5 168.7 169.6 177.5 180.4 180.8 178.4 172.5 165.4 160.3 157.1 155 149.9 146.5 143.8 137.4 131.9 135.9 152 160.8 164 161.5 158.1 155.6 154.7 154 153.6 153.7 153.8 153.3 152.7 152 151.3 152.1 150.9
142 142.6 143.3 144.2 145.5 146.9 148.3 150.2 153.3 155.9 158.8 162.4 166.4 171.6 177.1 183.7 193.1 198.1 205.9 215.9 227.4 244.9 261.7 272.5 279.7 288.6 298.7 305.6 309.6 311.8 313.7 309 304.7 301.1 296.5 293.2 291.3 289.5 287.9 288.2 286.2 286.1 288 288.6 286.6 285.2 284.7 283.6 282.2 281.3 281.1 280.5 282 284.2 284.9 283.7 283.5 281.2 277.5 275.4 271.2 264.5 261.4 259.6 257.7 255.5 253.5 252.2 250.6 249.4 251.2 255 257.5 258.8 258.5 256.1 253.5 250.1 246.1 243.5 242.3 241.9 242.9 244.6 246.9 248.6 251.6 254.1 257.5 259.2 261.4 263.9 266.7 265.9 264.5 262.3 260 257 254.3 252.4 249.1 247.5 246.1 246 245.6 244.7 242.8 240.9 239.9 239 238.7 239.8 241.2 241.6 242.4 243.5 243.8 242.1 238.7 235.1 230.7 225.4 220.8 217.2 212.2 207.7 202.2 200.6 198.1 191.5 185 176.3 172.2 173.3 174 174.4 175.1 171.8 170.3 167.3 165 163.9 163.3 163.6 164.4 164.5 162.9 157.2 149.5 140.4 134.7 134.8 135.1 139.7 151.2 159.1 162.4 168.9 173.7 183 189.3 187.7 186.2 185.5 183.3 181.2 180 182.8 188.2 186.1 182.1 177.2 171.4 165.1 161.4 154 145.5 144.3 142.1 137.3 132.5 131 140.6 157 166.7 171.6 171.6 168 160.8 159 157.7 156.7 155.5 154.9 154.4 153.6 152.9 152.5 154.1 154.3
142.4 143 143.6 144.7 146 147.3 148.7 150.1 153.1 155.4 158.1 160.9 164.6 169.6 173.8 179.7 189.1 200.5 208 216.1 227.8 248.4 260.8 272.1 279.7 288.6 299.2 308.3 310 311.9 314.6 313.7 309.5 304.5 300.3 296.9 294.4 292.6 291.8 292.3 292.1 291.8 292.2 292.8 291.9 290.2 286.8 284.5 280.4 277.1 275.4 275.5 276.4 277.7 278.7 276.6 274.6 272.9 270.4 263.7 257.6 255 252.5 251 249.2 246.2 242.6 238.8 240.1 240.8 242.2 244.9 248.8 253.2 252.6 250.6 247.6 242.4 238.9 237.3 236 235.9 236.5 238 240.4 242.4 245.4 249.8 253.2 253.6 253.4 253.8 257.3 259.3 258.8 258 255.8 252.9 249.5 248.1 245.3 241.7 240.9 240.9 240.5 239.1 235.8 233.7 232.6 231.8 231.9 231.9 233.3 234.8 237.2 238.9 239.7 238.5 235.2 232 228.2 222.5 217.6 213.4 207.4 203.4 199.7 194.8 189 182.9 175.2 164.9 162.2 160.6 164.5 167.1 167.6 165.3 161.3 156.6 154.3 153.3 155.2 155.4 157 158.7 156.7 150.9 141.7 137.3 135.1 133.4 136.7 146.9 158 166.2 170.4 177 183.9 192.7 199.1 199.1 198.5 196.6 193.9 193.6 195 194 188.7 183.8 179.8 174 169 164.5 159.4 150.8 139.2 139.4 137.6 133.4 130.8 135.5 149.1 163.5 172.8 176.9 177.1 174.5 165.1 160 159 158.3 156.9 156.4 155.6 154.5 153.8 153.7 154.5 154.6
142.6 143.2 143.8 145.1 146.4 147.4 149 150.4 152.6 154.7 157.2 159.8 163 165.5 171.3 178.5 190.5 199.7 207.7 216.4 225.6 243.4 261 272.8 279.9 288 299 306.2 309.6 312.8 316.1 316.2 313.9 310.1 305.3 301.9 299.7 296.8 296.6 296.6 296.8 296.7 296.6 295.7 293.7 288.3 280.9 276.4 271.3 268.3 264.9 264 266 268.6 268.3 265.2 264.3 260.4 252.6 247 243.5 241.6 240.2 238.7 235.8 233.9 232.3 230.8 231 231.7 233.6 236.5 239.1 243.4 244.4 242.7 237.3 234.5 232.3 231.6 230.8 230.6 230.6 232.2 234.3 236.8 239.6 244.2 248.5 249.3 248.6 247.7 247 249.8 250.6 250.4 249.7 247.7 244.4 242.5 239.2 235.6 234 233.5 232.6 231.3 228.6 227.4 226.6 226.6 225.9 225.3 226.1 228 230.8 234.4 236 236 233.4 229.2 225.5 220.3 215.5 210.3 203.7 199.4 192.7 185.5 178.9 170.9 163.7 154.6 148.2 146.9 152.3 154.4 155 154.3 146.3 142.9 140.9 140.3 138.8 139.9 142 145.2 144.9 141.6 138.1 137.7 136.5 133.6 142.2 157.1 168.3 173.6 178 184.5 191.5 200.8 205.3 206.1 206.1 205.4 203.3 200 195.9 191 184.4 178.4 174.8 172.6 166.8 161.6 154.1 139.9 136.2 134.7 134.3 130.9 131.8 139.2 152.8 167.4 179.3 182.5 181.8 178.7 170.3 161.5 158.6 157.8 157.4 157 156.5 155.6 155 154.6 154.5 154.8
142.5 143.6 143.2 145.1 146.3 147.3 148.6 149.9 152.1 156.4 159.6 162 165.7 169.1 169.6 178.3 187.2 197.9 204.9 216.2 228.1 247 263.3 273.6 280.2 287 298 304.2 309 314.3 318.3 319.6 317.9 315.6 311.4 308.2 305.7 301.8 301.9 301.2 300.9 300 299.5 296.9 289.5 280.7 274.3 268 262.3 258.6 254.5 251.6 250.4 250.1 250 249.1 247.4 244.9 240.4 237.4 235.1 233.6 233.6 231.5 229.1 227.1 225.3 224.8 225.1 225.1 226.3 228.2 229.7 230.5 230.4 229.7 228.6 226.5 226.1 224 223.3 225.4 225.7 226.5 229 230.6 233.4 238.1 241.2 240.7 241.6 241.7 239.9 237.8 236.4 236.4 236 235.6 234.4 233.5 231.6 229.6 227.7 226.5 225.4 223.7 221.5 220.4 220 218.5 217.8 218.3 220.3 221.9 225.7 229.3 230.8 232 230.9 227 222.8 218.3 214.1 207.9 202.6 197.1 185.2 176.4 169.3 161.8 152.1 144.7 146 145.1 143.5 143 143.9 141.8 139.4 140 139.1 139.2 137.9 138 137.7 137.5 138.1 138.4 136.9 136.2 135.2 139.2 155.8 167.4 175.9 180 183.2 189.3 197.7 207.7 211.1 211.6 212 210.3 207.9 202.2 194.6 187.3 180.7 175.9 172.3 168.7 162 155.1 145.8 138.7 139.2 138.2 133.7 131 133.3 142 154.3 168.3 182.2 187.3 186.9 183.4 174.6 163.7 158.5 156.4 155.7 155.4 155.2 154.7 154.3 153.9 153.5 153.3
144.7 146.8 147.9 146.3 146.4 147 148.2 150.7 154.9 160.2 164.3 171.8 179.6 180.1 184.2 183.5 194.3 201 208.9 218.5 228.4 248.1 265.7 273.8 280.2 288.9 298.6 304.1 309.7 317.2 323.1 324.1 323.4 320.7 317 313.4 310 307.6 307.2 306 304.4 302.5 300.5 294.8 284.9 277.2 268.8 261 255.2 251 247.9 244.8 243.3 241.8 240.7 239.4 237.8 236.2 234.3 230.3 228.4 228.1 227.8 226.1 224.5 222.1 219.5 217.7 219 218.7 220.5 220.7 221.8 222.7 222 222.3 219.4 217 212.9 209.8 207.6 208.1 212.5 221.4 223.9 225.7 227 229.5 232.8 233.7 233.1 231.5 229.2 225.2 223.5 223.9 223.2 221.2 221.7 221.5 223.1 222.3 221.3 220.1 218.5 216.1 214.6 214.6 213.4 211.2 209.8 210 211.1 213.8 219.7 223.1 225 226.9 228.3 225.6 220.9 216.1 211.2 204.5 195.6 186.5 177 168.9 161.2 153.2 147.1 150.8 158.8 160.1 150.7 147.1 144.6 143.9 144.1 142.3 139.7 138.3 139.3 137 137.2 136.9 136.9 136.9 136 134.4 143.2 155.9 167.5 176.1 183.2 187.3 188.5 194.8 203.6 212.6 215.9 216.8 215.7 214.6 211.7 202.2 193.5 185.4 179.4 173.4 168 161.9 156 148.4 142.6 141 143.5 141.5 133.1 131.3 133.6 143.3 154.9 166.4 180.5 190 190.1 186.2 177.2 165.7 159.2 155.8 154 153.7 153.4 152.8 152.6 152.3 152 151.2
145.6 149.6 153.2 154.4 153.1 152.4 154.6 158.8 166.4 173.6 180.4 194.2 197.1 184.6 197.3 196.4 196.4 205.8 212 218.9 231.8 251.2 268.4 275.6 282.1 289.3 299.7 306.7 311.9 319.8 326.2 328.3 328.3 325.3 322.6 319.2 314.5 312.7 312.5 310.5 307.5 303.9 299.1 289.6 282.2 274 265.1 256.6 247.9 243.8 240.3 236.9 233.7 233 231.5 229.6 226.9 224.5 220.9 218.3 214.6 213.5 212.7 211.5 209.8 208 203.7 201.9 203.4 202.7 203.4 205.6 211.8 213.8 213.4 211 206 203 200.8 197.7 193.9 196.2 200 206.6 215.4 220.8 222.2 222.5 223.4 223.7 223.5 221 218.4 215.5 213.1 211 208.1 207.1 208.3 211.4 214.6 216 215.8 214.4 212.2 210.7 209.2 208.3 205.6 202.7 200.4 199.7 200.8 204 207.7 211.4 215.6 218.4 220.4 220.6 216.7 210.7 205.9 196.4 188.1 178.3 170.4 162.5 153.1 149.5 153 163 169.4 171.8 171.4 165 158.9 160 155.7 155.7 153.1 151.9 151.6 138.2 136.6 135.3 136.3 135.4 142.7 148 158.2 168 174.8 184.2 188.5 191.9 193.1 200.4 209 215.9 219.1 220.4 219.6 218.1 214.5 203.7 192.7 183.9 176.2 169.5 162.2 157.6 151.2 146 143.1 144.6 145.3 139.1 133.2 132.5 134.7 143.1 155.4 165.1 177.1 188.3 191 187.2 179.9 167.9 159.8 156.1 153.2 152.4 151.6 150.9 150.9 150.6 150.5 149.5
144.5 149.5 157.8 162.6 166.4 170.4 172.5 175.2 178.8 184.6 195.2 198.8 196.6 198.8 200.4 203.5 206.3 211 216.9 224.6 239.9 256 268.4 277 284.2 290.8 300.8 307.9 314.2 322.2 329.1 331.4 331.6 329.5 326.4 324.3 320.2 316.4 316.3 311.5 308 303.7 293.4 286.6 278.6 269.8 261.9 250.9 238.4 233.3 227.4 223.1 219.4 217.5 217.3 215.1 212.7 211.2 209.5 206.7 204 202.1 200.5 200.2 200 199.4 196.1 193.5 191.6 189.6 189 190.5 192.7 193.2 192.9 193.6 192.5 189 185.3 185.3 184 182 184.6 189.9 200 213.9 216.9 216.9 216.2 215.6 213.9 212.3 209.5 206.5 203.7 202.1 199.5 198 199 200.3 204.7 210.6 211.2 210 207.3 205.6 204.1 202.4 199.5 194.8 191.1 190.1 189.6 191.9 195.9 201.5 204.7 206.9 209.4 211.1 210 205.9 197.1 189.8 180.6 172.5 162 151.7 148 153.7 167.5 173.4 178.1 182.7 185.4 186 179.9 175.4 169 170.3 171 168.2 153.7 135.4 137 137.7 143.3 149.2 153.9 159.9 171.2 176.7 182.8 189.5 192.7 195.3 197.7 205 213.3 218.7 222.5 223.6 223.1 221.3 214.7 204.8 191.5 181.4 173.3 163.6 156.5 151.8 148.2 145.7 146.1 146.5 145.3 140.8 135.7 131.6 134.6 140.7 153.2 164.3 172.9 183.6 191.7 189.8 182.5 166.5 160.4 156.8 153 150.6 149.8 149.4 149.3 149 148.7 146.9
140.9 144.8 154.2 166.6 174.5 177.8 179.5 180.7 183.3 189.2 198 199.1 198.2 200.9 204.6 207.7 211.8 217 223.5 235.3 248.8 259.8 271.2 277.8 284.8 291.9 301.7 309.9 317.9 324.9 331.1 333.8 333.5 331.7 328.8 325.7 323.3 320 315.5 312 308.4 300.8 289.7 280.6 273.2 267 260.3 245.5 232.4 223.2 216 212.2 208.3 205.6 205 204.3 201.8 199.2 199.1 197.7 195.1 193.2 192.6 192.2 191.6 191.8 190.7 190.5 192.6 197.6 197.9 194.8 191.3 188.7 188.8 189.2 188.8 189.1 201.1 204.8 200.3 198.7 195.3 187.2 183 192.4 209.2 210.8 210.1 209.3 207.7 204 199.9 197.5 195 192.2 190.4 189.3 190.2 192.1 193.5 197.5 205.2 205.4 202 198.6 198.1 194.9 191.4 183.7 180.4 178.7 178.1 180 183.6 188.7 194.5 197.5 201.4 204.1 203.3 197.2 190.9 182.7 175.1 160.6 150.9 155.5 164.7 174.5 177.8 182.8 191.2 193.9 194.7 195 194.3 192.9 189.7 183.7 178.8 171 150.5 136.8 137.6 143.7 150.8 157.5 165.2 173.7 179.5 182.5 189.1 193.6 196.4 198.4 200.6 210.2 218 221.6 225.2 226.4 225.6 222.7 216.7 203 189.1 175.8 167.3 159.5 154.7 150.7 147.6 148.9 148.1 146.3 144.5 141.1 137.4 133.2 133.9 137.3 148.1 160.2 168.7 175.9 181.9 182.7 176.7 166.7 160.2 156.6 152.7 150.2 148.7 148.4 148.3 147.8 146.7 145
139.3 141.7 146.7 154.9 166.7 177.9 180.2 181.9 186.3 197.9 200.4 199.4 200.7 203.6 207 210.8 215.6 222.7 231.8 245.6 255.7 264.9 274.9 281.5 287.6 295.2 303.3 312.5 321.6 328.6 333.2 335 333.4 331.3 328.3 325.4 321 317.2 313.6 310.3 303.7 292.9 284.6 275.8 270.2 263 250.4 237.4 226.8 216.8 210.2 205.1 201.3 198.5 197.2 196.9 195.7 194.5 194.2 192.1 192.9 193.3 194.5 192.7 190.4 195 197.4 200.4 207 210.1 203.5 207.4 208.3 207.3 210.7 210.4 208.1 191.8 210.1 212.5 213 214.4 213.6 208.4 189 182.1 189.7 199 202.6 202 199.6 195.3 189.6 186.9 185.4 183.4 180.5 181 181.7 182.2 184.2 187.5 190.3 195.3 193.3 189.5 188.3 183.2 177.7 171.1 167.3 164.7 162.8 161.8 167.3 175.5 180.2 187.8 190.9 193.7 193.8 187 179.3 173.6 159.2 153.9 167.2 177.4 182.1 186.2 188.4 194.7 200.5 204 202.6 202 201.2 200.6 199.3 191.4 182.9 172.1 149.3 138.5 139.7 148.3 156.2 166.6 174.2 180.7 184 187.1 193.6 197.1 199.6 201.4 203.8 212.4 221 222.8 226.4 229.2 227.7 223.6 218.3 206.2 187 174.7 163 158 153.8 150.5 149.5 149.5 147.9 144.8 141.8 139.1 136.1 133 133.9 136.1 143.6 155 163.9 169.8 173.2 172.7 169.5 164.8 159 155.2 152 149.8 148.5 147.9 147.4 146.8 146 147.4
139.7 140.5 142.5 145.8 150.4 159 167.2 176.2 184 199.2 200 200.1 202.5 205.6 208.6 213.8 220 227.8 234.5 251.1 262.3 271.3 279.1 286.1 292.1 300 308 321.2 325.3 332.6 334.2 333.5 331.3 327.1 323.2 319.9 317.1 313.1 308.5 301.5 294.2 285.4 278.8 272 265.3 249.9 239.9 229.4 220.1 213.8 205.3 199.5 197 196.4 196.8 195.4 197.5 197.4 201 201.7 201.6 201.1 200.7 200.8 203.9 207.4 211.4 215.7 220.8 228.4 227.4 225.4 225.9 223.8 221.6 218.6 205.7 208.5 214.5 217 219.5 220.7 219.7 216.1 210.1 194 179.2 183 188.1 184.9 182.7 182.7 179.9 178.2 176.8 175.6 174.3 175.6 173.4 172.9 174.3 176.9 180.6 183.7 183.7 180.3 176.4 170.3 166 165.1 168.8 173.8 170.7 167.3 163.7 160.5 168.5 174.6 177.3 180.5 179.9 176.2 168 156 159.2 175.1 183.5 189 193.5 198.8 199.8 205 209 210.2 210.2 207.9 206.7 206.2 204.3 194.2 184.8 176.2 153 139.4 139.5 150.5 159.3 169.6 177.2 181.2 184.2 187.2 194.1 198.8 201.3 202.8 205.5 209.7 216.9 221.9 227.3 230.4 229.6 228.5 221.5 206.5 186.9 173.8 161.8 156.8 153.1 151.2 149.6 148.1 145.7 143.3 140.8 137 136.5 134.7 133.8 134.8 141.9 149.3 156.6 161.8 165.1 164.6 163.2 160 157 153.7 151.1 149.5 148.2 147.8 147.6 147.1 147.1 148.2
140.8 141.5 142.5 144.2 147.4 151.6 156 163.8 175 195.5 200.3 201.6 204.2 207.5 211.4 217.4 225.2 235.1 247.4 260.4 274 278.9 285 291.7 298.2 305.6 312.8 325.4 327.8 332.3 333.2 330.4 327.2 323.6 319.5 315.7 310.4 304.8 298.9 292.2 287.5 280.8 275.7 269 253.9 240 230.7 224.3 215.3 209.2 200.5 197.5 196.6 202.8 202.4 202.8 204.7 201.6 206.3 206.8 207.4 206.8 206.4 208.5 213.6 218.4 223 225.9 235.3 237.1 236.2 233.9 231.4 228.4 225.6 221.3 199.4 215 219 222.2 224.6 225 224.6 222.1 218.3 210.9 199 190.6 181.2 186.2 185.4 183.6 183.3 183.2 183.7 182 180.5 182.9 182 179 174.4 170.4 170.1 171.7 171.4 167.7 168.9 179.4 185 185.2 184.1 183.2 181.1 177.2 172.6 165.7 159.5 162.8 166.2 169.1 169.2 166.6 157.6 166.5 181.2 188.7 193.7 198.4 204.3 208.5 211.5 213.6 215.1 216.8 217.2 214.9 212.5 210.8 208.6 199 190.4 180.9 163.4 142.6 136.6 148.3 158.9 164.5 170.7 174.1 177.3 180.8 185.7 193 199.6 197.7 204.3 205.4 208.6 217.7 228.9 231.9 231.7 231.6 221.6 205.1 186.2 172.9 161.5 156.8 153.3 151.2 148.8 146.4 144.4 142 139.5 137.8 141.3 137.6 135.1 134.5 135 141.1 150.1 153.3 157 157.3 156.5 155.9 154.4 152.6 150.5 149 149.2 149.1 148.7 148.2 148 149
141.8 143.2 144.5 146.3 148.4 151.5 154.4 163.4 178.5 197.5 201.5 203.1 206.6 209.8 215.9 222.4 230.3 241.7 257.1 271.7 279.2 286.1 291.4 298 304.5 310.6 316.6 326.6 330.2 331.2 330 327.5 325.6 321.3 315.6 307.6 302.2 295.6 289.8 284.9 280.6 276.5 268.2 251.7 241.6 233.2 224.5 216.9 210.5 201.8 198.1 196.3 204.9 206.5 206.3 207.1 208.5 207.9 207.3 211.1 211.9 212 211.8 216.2 223.9 230.2 233.4 238.3 242 242 240.9 238.9 236.6 232.9 228.9 217.6 209.1 221.6 223.1 227.3 229.7 229.4 228.5 227.1 223.4 218.2 212.6 207.4 198.6 197.3 197.1 194.6 196.2 197.7 195.1 187.7 188.7 190.7 191 189.8 183.5 176.4 170.4 169.3 167.6 181.4 191 193.5 193.2 192.3 190.1 190.1 188.5 186 182.3 177.5 166.6 158.4 157.8 158.3 158.8 161.3 173.8 185.6 192.7 201.7 207.7 211.9 215.3 218.6 220.3 221.2 221.7 222.7 223.6 220.3 217 214.8 212.1 204.9 196.5 185.8 174.8 151.9 139.3 140.2 148 152.1 156.1 162.8 169.7 174.9 178.6 184.2 188.4 196.1 197.9 198.6 204 213.1 232.3 234.1 232.9 231 219.8 202.8 185.8 172.2 161.5 156.4 152.6 150 147 145.2 143.3 140.9 138.3 140.9 143.6 143.6 141.3 140 135.2 137.1 143.1 148 150.6 152.4 153.1 154.1 152.7 151.8 150.4 149.9 150.1 150.3 149.8 149.4 148.6 149.2
143.4 144.7 146.1 147.8 150.4 153.9 158.8 168.9 180.7 200.3 203.3 205.2 209.7 214.3 220 227.4 236 249 267 280.1 285.7 292.9 299.7 305.2 310.2 314.6 320.1 327.5 330 328.4 327.5 324.4 318.6 312.1 306.4 299.6 294 288 282.8 278 274.4 261.6 250.9 242.3 233 224.3 216.5 207.8 200.3 198.7 198.2 202.3 207.6 208.9 210 210.6 211.6 212.3 207.4 216.8 217.8 219.1 221 224.1 232.1 239.1 243.8 246.9 247.8 247.1 245.8 243.7 240.9 237 232.8 214 222.5 227.5 229.8 233.6 234.3 234 234.5 233.4 229.2 224.8 220.8 217.6 209.2 208.3 211.4 210.4 209.9 208.1 202.8 190.5 198.5 200 200.2 198.2 196.3 193.9 190.1 187.1 189.4 194.5 197.8 198.6 197.8 196.7 196 195.8 195.1 193.3 191.6 185.8 179.7 178 180 182.7 183 185.2 191.3 198.1 207.4 213.7 216.7 219.8 222.4 224.6 226.5 226.5 226.6 227.7 226.5 221.6 219.3 217.9 213.9 207.3 195.6 185.3 178.8 167.6 150.5 139.1 139.5 142.3 145 150 157.3 164.4 169.7 174.5 178.5 184.7 184.9 193.8 198 206 223.6 235.2 233.3 229.9 218.6 201.4 185.7 171.6 159.7 154.8 151.3 148.4 146.3 144.4 142.8 141.3 139.3 142.2 145.5 148.1 148.3 145.6 139.2 135.1 140.9 144 146.3 149.7 151.4 152.2 151.9 151.9 151.1 150.8 151.2 151.2 151.1 150.4 149.8 149.4
144.4 146 147.7 149.9 152.5 155.2 160.2 173.1 188.7 203.1 203.9 207.6 212.6 219.1 225.2 232.3 241.5 255.1 275.2 289 292.6 300.5 308.1 312.2 315.1 319.2 325.5 327.8 326.5 324 318.5 312.8 307.8 303.3 297.8 292.4 285.2 279.2 273.9 265.6 257.1 249.2 242.7 233.4 226.1 217.3 208.3 199.8 198.9 197.2 201.9 206 209.5 211.9 213.2 214.6 215.7 216.9 210.6 220 223.5 226.2 231 236.8 244.2 249.4 251.8 252.9 252.6 251.4 250 248.1 244.9 240.8 235 210.7 229.8 232.7 236.1 239.8 239.9 239.6 240.1 238.7 235.4 231.3 227.4 223.2 219.3 218.9 219.5 218.9 217.4 213.7 206.8 200.1 207.2 207.8 206.5 205.4 203.5 201.5 200.2 199.2 199.5 202.5 202.8 202.9 202.6 201.8 201.7 201.9 202.2 201.4 199.9 199.6 196.4 194.6 194.8 197.7 198.8 202.1 206.5 211.3 217.9 222.4 224.1 225.1 227.5 230 231.4 230.7 230.1 228.9 224.9 221.2 219.1 217.4 214.1 205 193.5 184.3 179.6 171.6 160.8 149.3 140.7 140.3 141.7 142.8 149.9 157.2 162.5 167.2 172.1 175.8 182.3 187.5 193.5 201.8 213 230.7 231.9 227.2 217.2 201.6 183.6 170.6 160.5 154.3 150.4 147.6 145.6 143.6 142.3 140.4 140.4 143.4 146.9 149 149.3 144.4 140.4 134.6 138.6 142.1 145.2 147 149 151.3 151.7 151.9 151.9 152.1 152.2 152.4 152.4 151.8 150.4 150.4
145 146.7 147.8 150.9 153.9 156.4 161.6 174.4 194.1 203 205 209.9 215.8 223.2 230.2 237.4 248.6 262.9 280.8 291.9 298.2 308.5 315.9 317.8 319.8 325.4 327.1 325.1 320.1 315 311 306.1 300.7 295.5 288.3 282.4 277.4 271.1 260.9 252.2 245.4 239.5 232.8 223.9 216.4 207.3 202.1 199.5 202.1 201.8 204.2 208.3 212.3 214.8 216.6 218.8 222.1 219.9 216.1 219.6 228.8 232.6 240.6 248.6 253.6 255.3 256.7 256.9 256.5 255.5 254.2 252.1 249.3 244.6 230.9 227.4 236.1 238.4 242.5 246.9 246.6 245.9 246.3 244.6 241.1 237.5 234 227 227.7 225.9 225.8 224.7 222 216.9 206.9 214.1 213.4 212.7 211.4 210.2 209.4 208.7 206.8 205.6 205.6 207.4 207.8 207.8 209.2 209.4 208.8 208.9 208.6 208.3 208 207.6 206.8 206.3 207.8 209.4 210.3 212.7 217.3 221.7 225.7 227.8 228.1 229.3 231.7 233.7 235.1 233.4 230.8 225.9 221.9 219.6 217.6 215.3 209.3 198 189.7 182.1 178.6 172.9 164.5 153.3 145.4 139.9 140.1 141.3 145 153.6 159.1 163 167.4 172.3 176.7 183.2 189.8 197 206.7 220.2 231.9 227.4 218.8 200.8 184.1 171.1 163.2 156.5 150.4 147.2 144.7 143.4 142.4 142.6 141.2 143.6 148 150 148 142 138.7 136.3 139.1 145.1 148.3 149.9 149.8 152.1 152.8 153.1 153.6 153.9 154 153.9 153.8 153 151 152.1
144.8 147.1 148.7 151.4 154.8 158.9 164.3 178.9 197.4 201.9 206 211.9 219.1 225.4 233.7 242.5 254.2 274.8 285.4 294.3 303.3 315.5 321.3 324 324.6 323.4 323.3 318 313.5 309 304 299.3 292.7 283.5 275.7 269.5 265 263.1 257.3 245.5 237.8 231.4 224.6 217.8 209.7 201.3 200.6 200.6 205.9 204.4 207.1 210.3 214.2 218.3 221.7 224.8 227 225.9 222.5 228.1 235 241.9 250.3 257.1 259.9 260.1 260.5 260.8 260.4 259.2 257.4 255.5 253 248.1 222 238.9 242 243.9 250.8 253.9 253 252.3 252 250.2 247 242.9 238.6 237.3 235.1 233.4 231.4 229.7 225.2 217.6 218.3 221 220.8 218.9 217.9 217.3 215.6 214.4 213.2 211.9 210.7 212.2 214.5 216.4 217.8 217.3 215.7 216 215.9 215.7 215 214.7 213 212.4 215.2 217.7 219.9 222.5 225.1 227.7 229.8 231.2 230.5 231.9 233.6 234.8 235.2 232.7 227.8 221.5 218.9 216.1 213.7 211 200.3 191.2 184.8 178.6 174.4 169.8 163.9 154.5 147.7 141.6 139.8 140.7 143.8 149.2 156.4 159.7 164 168.9 173.6 179.9 186.2 195.2 206 217.4 232.4 229.4 221.8 205.2 189.9 174.2 165 159.1 153.2 147 144.9 143.5 144.5 145.3 143.2 145 148.9 150.7 149 142.9 139 137.1 140.1 147.4 151.4 152.4 152.8 153.3 154.2 154.7 155.2 155.7 155.9 155.8 155.5 154.6 153.1 152.9
149.4 151.5 151.7 152.8 156.1 160.9 169.1 180 192.4 201.7 208.4 214.1 220 227.9 236.1 247 259 277.3 289.4 299.7 309.8 319.1 323.6 324.7 322.6 318.4 314.9 311.9 307.4 302.9 298.1 287.6 280.2 273.9 266.3 260 254.8 253.7 250.5 244.4 231.2 220.8 214 207 202.8 199.8 204.3 209.5 209.6 209.1 213 213.8 217 220.9 226 232.2 234.2 235.2 231.6 236.3 242.6 250.4 259.5 264.5 265.6 265.5 264.7 264 263.5 262.5 260.7 258.8 255.9 244 230.2 246.3 247.8 252 256.6 259.6 258.5 257.7 257.1 255.5 252.5 248.5 245.4 243.7 241.8 239.8 237.2 234.3 227.6 221 228 229 228.1 226.6 224.6 223.1 222 221 219.2 217.2 216.1 217.8 220.9 224.4 225.3 224.3 223.3 222.4 222.5 222.5 222.6 221.3 219.7 217.8 220 222.6 225.2 227.6 229.7 230.9 232.3 232.3 231.2 231.5 231.8 231.9 231.4 225.9 220.3 217.8 214.6 212.2 207.7 202.2 192.4 185.8 179.3 175.2 171.1 166 161.4 154.9 141.9 144.1 141.1 140.8 142.6 147.3 151 157.1 163.6 167.2 172.1 178.2 184.3 194.9 203.4 214.6 228.1 231.5 223.8 207.1 187.4 178 168.6 161.6 156.1 148 145.5 144.8 147.4 147.3 145.1 145.1 148.7 150.3 150.5 146.7 143.3 139.7 139.1 148.6 153.6 155.4 155.6 155.6 155.9 156.3 156.8 157.4 157.9 158 157.3 156.4 153.6 153.7
157.1 160.4 160.7 159.2 158.6 162.5 173.8 187 199 204.1 209.8 217.4 225.4 232.3 240.3 251.8 266.3 283.7 295.4 307.4 315.5 320.3 323 322.1 318.8 313.1 309.9 306.7 302.2 294.1 285.9 277 270.6 265.9 259.7 254.9 247.2 245.9 240.7 238.6 231.4 221 209.3 202 201.5 208.5 211 213.1 212.2 212.2 217.1 219.7 221.8 226.4 234 240.7 242.1 240.5 240.1 242.8 248.9 257.3 266.9 270.1 271 270.6 269.8 268.3 266.5 265.1 263.7 261.8 257.8 237.1 245.3 252.7 255.1 259.6 264.6 264.7 264 262.7 261.9 260.6 257.5 253.6 251.1 249.7 247.5 245.2 242.9 238.1 231.9 225.8 234.4 235.5 233.8 232.3 230.9 229.4 228.2 226.6 224.7 222.8 224.2 226.2 227.6 231.7 231.6 230.1 228.5 227.1 227.4 227.2 227 226.5 222.4 222.3 224.1 226.4 228.9 230.7 232.2 232.6 231.5 230.9 229.3 228.4 228.5 228.6 224 218.5 214.1 212.3 209.9 207.1 202.5 193.1 186.1 181 176 172 168.3 163.4 158.3 146.6 143.2 149 146.4 142 142 148.7 151.2 157.4 164 168.1 172.6 177.1 183.6 192.6 200.6 213.8 226.8 235.4 227.5 210.1 190.7 181.1 170.1 164.1 157 150.2 146.6 146.6 149.6 148.9 146.4 144.9 148.1 149.8 150.5 149.1 146.5 142.1 141.3 149.3 154.5 157.4 158.5 158.2 158.3 158.7 159.2 159.6 160.2 160.3 159.3 158.4 156.5 156.2
166.4 171.3 171.9 173.2 177.3 179.4 179.3 190.6 198.6 206 211.1 219 228.5 237.3 245.3 257.6 273.4 287.4 301.6 314.5 318.4 320.7 320.9 318.7 313.3 308.3 305.1 300.7 292.4 283.9 276.6 270.2 263.3 259.5 254.4 246 241.5 238.1 234.1 231.1 228.1 218.1 205.7 202.5 202.8 210.9 214.4 217.1 217.3 216.3 220 223.7 229.2 238.9 243.1 248.2 249.9 243.6 248 250.6 255.3 266.1 272.3 274.8 276.3 276.6 275.6 274.5 271.7 268.5 266.9 264.1 258.5 237.2 255.9 259.4 262.4 267.6 270.2 269.5 268.8 267.6 266.7 265.6 261.7 258.6 256.8 254.8 252.4 250 247.1 242.1 237.6 231.6 239.9 240.7 239.2 238.4 238 235.6 233.6 231.9 230.2 228.7 232.2 234.9 234.9 234.9 236.3 234.5 232.7 231.3 231 230.5 229.8 226 223.4 225.8 227.4 229.7 231.3 232.1 231.3 229.6 228.1 226.9 225 224.5 224.5 220.9 215.3 211.2 207.8 205.7 203.3 198 190.6 185.1 181.1 176.8 173.7 169.3 165.9 159.5 156.6 142 151.8 153 150.3 142.9 142.9 149.4 153.3 156.7 161.8 167.4 172.6 177.6 184.1 192.8 200.6 213 226.2 239.1 231.4 212.7 193.3 181.8 172.5 166.1 157.6 151.1 148.9 149 151.1 150.1 148.3 145.9 148.1 149.8 150.9 150.3 148.1 145 142.2 150.4 155 159.2 161.1 161.7 162.1 162.3 162.3 162.1 162.1 162.5 161.5 160.4 158 157.6
171.3 179.2 178.8 184.4 193.7 193.4 192.7 195.7 202.9 206.4 212 219.8 228.5 240.7 253.1 265.9 280.6 292.3 308.3 318.9 319.7 319.2 317.6 313.3 309 304.4 298.1 291.3 284.1 275.5 269 263 256.7 251.8 247.4 238.5 233.7 230.6 228 224.2 221.5 213.5 203.8 202.5 209.6 213.6 217 219.7 221.4 222.1 225.5 230.2 241.3 251.3 257.6 257.8 258.8 252 257.1 261.2 266 273.1 279.2 282.2 283.7 284.2 282.8 280.9 278.5 274.1 269.6 266.6 258.9 249.8 261.5 264.3 269.5 274.7 275.6 274.8 274.1 272.9 272.3 269.7 266.1 263.4 261.3 259.5 256.7 254 251 248 243.5 239.9 244.3 245 244.4 244.5 245 242.7 240.5 237.6 235.5 234.8 240.1 242.3 239.5 236.8 237.5 237.6 234.3 233.1 231.5 229.6 228 227.5 227.4 226.5 229 230.2 229.8 228.8 227.7 226.2 223.1 220.8 220.2 218.3 214.5 210.8 206.7 203.6 201 197.1 191.2 187.3 182.9 179.9 175.8 173.3 169.9 166.6 163.5 158.9 144.6 151.9 154.9 153.3 150.9 143.5 143.1 147.7 152.7 158.4 163.7 169.3 175.2 179.3 184.9 190.7 201.8 212.7 225.2 241.8 238.8 217.7 197.8 183.6 173.1 166.2 160.7 155.4 151.6 152 153.4 151.6 149 146.9 148.8 150.4 151.4 151.1 149 146.4 142.4 151.5 155.4 159.4 163.6 164.6 165.2 165.2 165.3 165 164.5 163.6 163 161.9 159.1 159.7
170.4 179.2 182.2 191.5 198.5 205.5 200.4 201.8 207.4 211.6 217.7 224.9 237.7 250.7 261.6 275.3 287.8 300.5 315.8 319.8 318.6 315.7 312.3 310 304.7 297.7 292.9 284.8 277 267.8 261.8 258.1 250.1 243.8 238 233.6 229.6 226.9 223.3 220.8 214.6 209.8 204 202.2 213 215.5 220.3 222.7 224.6 227.9 230.8 236.9 247.9 261 269.7 266.6 267.9 265.4 268.5 273.1 278.4 284.6 290.2 293.1 293.2 292.3 289.9 287.6 285.3 280.6 274.6 269.4 256.4 262.6 267.2 270.2 276.7 280.4 280.9 280.5 280.4 279.3 277.2 273.7 270.6 269.2 267.6 263.4 260.3 257.4 254.6 252.5 247.5 245.4 248.9 249.9 249.9 250.6 251 249.3 247.3 244.4 244.3 245.2 248.1 247.8 244.4 241.8 240.5 237.7 236.5 235.1 233 231.5 231.6 229.7 227.7 226.6 227.3 227.1 226.3 225.1 222.4 219.9 217.9 213.9 210.9 208 205.4 200.3 197.1 193.7 188.7 186.4 183.8 181.2 177.8 175.2 172.4 169.8 166.2 162.6 157.2 145.2 148.7 155.3 156 154.1 151.1 144.2 144.4 151.8 155.2 160.5 165.2 170 175.9 180.7 185.7 194.7 203.6 213.5 225.5 243.2 242.3 223.9 202.6 186.2 173.6 169.9 165.3 159.3 155 155.2 155.4 152.9 148.5 147.5 150.2 151.9 152.7 151.9 149.5 147.1 142 152.5 156.3 160.1 165.2 167.5 167.8 167.8 167.9 167.3 166.8 165.7 164.8 162.9 160.9 161.9
163.2 178.6 182.9 191.3 199.2 206 204.3 206.4 210.9 217.4 223.5 239.1 250.1 263.5 273.4 286.3 297.7 308.1 317.3 317.5 314.9 311.9 310.3 306 298.6 294.2 287.1 279.5 270.5 262.5 256.1 251.5 245.9 237 231.4 228.8 224.7 225.3 222 218.1 214.8 210.5 204.2 204.8 209.1 212.2 216.8 224.1 230.1 234.2 236.9 245.9 258.7 274.9 280.3 277.1 276.8 277.1 280 284.7 290.2 297.4 302.5 306.2 303.9 300.5 297.1 294.8 290.5 284.7 278.4 272 254.7 268.6 272.3 276.9 284 285.8 286.5 286.4 286.5 284.6 281.5 278.1 275.3 274 272 268.3 264.2 261.1 259 256.7 252.2 249.9 252.9 254.9 256.2 256.9 256.8 255.8 254.6 253.9 253.4 253.7 253.2 251.3 248.1 246.4 243 239.5 237.6 236.3 234.7 234.5 232.2 230 226.9 224.2 223 222.3 222.1 220 216.5 211.5 209.2 204.5 200 197.3 194.5 191.7 187.9 184.7 183.9 181.1 178.5 175 173.2 170.8 168.1 165.8 160.9 152.8 143.5 142.3 154.4 157.3 156.2 153.7 146.9 143.3 148.3 154.6 158.9 161.7 165.9 170 175.7 180.7 185.8 194.3 204.1 211.2 224.5 242 243.8 229.2 211 193 180.1 173.1 169.2 164.7 159.8 158 156.9 152.9 149.6 150.1 151.4 152.5 152.3 151.5 148.1 143.5 142.2 153.3 157.3 160.6 165.5 170 170.4 170.4 170.4 169.8 169.1 167.9 166.2 164.2 163.3 164.4
158.7 173 181.9 189.7 196.5 202.9 207.3 210.6 217.5 224.3 232.4 251.5 264.4 278.6 289.1 298.9 305.4 312.3 314.8 312.8 311 308.5 305.4 299.6 294.8 288.5 283.4 273.5 266.4 257.9 250.5 244.9 242.6 236.5 231 225.5 219.3 220.2 219.7 215.4 212.8 208.8 204.8 205.4 209.6 211.5 219 225.9 231.5 237.7 245 256.1 270.6 282.1 284.1 284.8 284.7 285.7 290.3 297.1 301.8 313 315.6 313.7 311.1 307.8 302.3 298.6 296.1 289 282 275 265.1 272.6 276.9 285.8 289.5 290.7 291.5 292.4 291.3 288.9 286.2 282.5 281.8 281.3 278.2 273.3 268.9 265.3 263.2 260.4 254.8 254.9 257.3 258.4 261 263.5 263.3 262.6 261.6 262.6 262.4 259.8 257.4 254.1 251.4 248.1 244.6 240.2 237.8 236.2 233.6 231.1 227.8 224 221.9 219.5 216.9 216.2 216.1 212.5 206.3 202.6 199.8 194.8 191.4 189 186.1 183.7 180.9 179.5 176.7 175 173.6 170.9 169.2 167.1 164.8 161.3 153.1 144.3 154.4 154.4 157.7 157.7 156.1 151.8 144.7 145.3 152.4 157.8 161.3 164.3 169 173.7 178.7 182.4 186.9 194.2 203.5 211.6 224.2 239.5 245.9 235.4 217.5 203.6 188.8 177.4 172.7 168.5 163.9 160.7 157.2 154.3 151.6 152.2 153.9 152.9 152.2 150.7 146 140.3 143.2 153.2 158 160.9 166.1 171.7 172.9 172.9 172.7 172.2 171.2 169.7 168.2 166.1 166.2 168.2
164.4 168.7 176.9 187.5 197.6 204.7 213.3 218.6 223.7 231.5 243.8 263.9 279.6 289.9 299.7 305.8 310.4 312.5 310.7 309.1 306.4 302.8 299.9 296.6 291.7 286.3 279.6 269.5 261.9 251.2 244.6 239 238.7 235.2 228.8 222.4 217.7 213.5 211.2 208 206.5 206.5 205.4 206.3 215.6 219.6 219.7 228.1 234.2 239.9 250.5 262.9 277.8 285.9 288.7 289.6 291 293.7 301.9 313.1 321.2 322.9 322.6 321.3 318.1 313.7 307.5 303 298.4 292.3 285.1 277.6 270.9 276.5 281.6 290.7 293.2 294.6 297 297.1 295.9 294.5 291.4 290.5 289.4 287.9 284.2 278.7 273.8 269.8 267.6 263.8 257.1 260.3 261.2 262.1 263.9 267.5 269.5 268.5 268.9 271.4 267.8 263.3 259.8 256.2 253.3 248.8 244.6 240.7 236.3 233.3 229.8 226 222.5 219.6 217.6 215.4 212 209.4 206.6 202.7 198.2 194.3 191.4 187.4 185 181.9 180 178.2 176.2 174.4 172.3 170.3 168.8 166.9 165.2 162.2 158.3 155.9 149.1 143.7 150.9 153.5 158.4 157.6 155.8 150 144.5 146.8 156.1 160.6 163.9 166.9 170.7 174.9 180.8 185.8 190.1 194.9 204.2 213.1 226 240.5 247 241.7 224.6 211.4 197.1 183.6 177.1 173 167 163.1 160 156.6 154.8 155.6 155.5 153.3 151.3 149.5 145.1 140.8 145 153.9 158.9 162.1 165.9 171.9 175.6 175.7 174.8 174.3 173.1 171.6 169.9 167.8 169.5 172.1
165.3 171.3 178.9 190.1 202.9 212 219.3 225.7 231.9 240.4 255.7 278.3 289.5 299.3 305.3 309.6 313.1 310.2 307.6 304.3 301.8 299.2 296.4 293.3 290.1 283.5 274 266.4 258.2 247.1 241.8 238.5 233.6 231.6 227.6 219.2 212.1 212.1 211.2 210.4 207.8 208 206.8 207.8 218.9 225 228.4 231.9 236.5 243.6 254.5 268.1 283.2 289.8 292.9 294.3 296.6 301.9 314.1 323.9 325.6 326.5 326.6 325.4 322.9 317.7 310.8 305.8 300.9 294.3 288.3 279.1 276.4 279.9 286.3 293.4 295.9 298.8 300.8 300.9 301.4 300 298.5 297.7 296.5 293.7 289.2 283.6 278.6 274.8 272.2 266.9 262.8 266.8 266.9 266.4 267.3 269.4 272.8 274.3 275 275.2 270.4 265.5 261.1 257.6 253.6 249 243.5 238.5 234 229.5 226.4 222.8 218.7 214.9 212.2 210.1 207.6 202.6 199.3 195.6 192.2 188.1 185.3 182.1 179.8 177.5 175.8 174.7 172.1 169.9 168.3 166.6 164.9 163.1 161 157.8 155.3 153.7 146.6 143.6 149 154.7 159 158.1 154 147.1 143.8 151.4 153.5 162.7 166.8 170.4 173.8 177.6 182.4 187.2 192.2 198.5 205.4 213.9 226.9 240.8 248.9 245.1 230.3 217.5 203.8 189 180 176.6 170.2 165.5 161.7 159.1 157.3 157.5 156.1 152.8 150.7 147.4 142.5 138.7 143.5 153.4 159.8 162.9 165.8 171.1 176.9 177.8 176.8 175.6 174.3 172.7 171.2 169.9 171.6 173.7
166.1 175.5 186.1 196.7 204.6 215.6 224.1 233 244 250.9 268.4 290.2 298.7 306.6 312.8 313.9 311.6 308 304.8 301.9 299.2 296.4 293.3 290.5 287.7 280.2 269.1 261.9 253.8 244.7 238.7 235.1 231.9 228.6 225.4 214.5 213.2 214.1 213.6 213 211.6 208.9 207.1 210.5 218.6 226.2 231.3 235.8 238.9 246.3 258.1 272.2 288.6 293.6 297.2 298.8 301.6 309.4 320.5 326.9 328.9 329.4 329.4 328 326 320.6 312.8 307.4 302.3 296.2 290.9 283.1 279.5 283 288.6 295.4 298.3 302.1 304.2 305.3 305.1 303.8 302.8 305.3 303 298.3 293.6 288.4 283.3 279.7 276.7 272.7 271.1 272.9 273.4 273.1 272.9 274.1 276.7 278.5 279.1 277.4 271.9 266.4 261.8 257.2 251.8 245.3 239.9 235.7 231.1 227.6 223.8 219.5 215.2 210.7 206.6 203.5 200.4 196.9 193.6 189.6 187.3 184.2 181.4 178.4 176 173.8 172.2 170.9 168.2 165.7 164 162.8 161.6 159.7 158.4 155.7 153.6 150.3 145 144.4 150 156.7 159.7 157.5 153.5 146.9 150.1 159.2 160.9 162.9 168.3 171.5 175 177.7 182.9 188 192.1 198 205.5 212.9 226.5 239.1 251 248.4 237.7 225.4 210.7 194.7 183.6 179.2 173.6 167.5 164.5 162 159.5 157.4 154.4 152 149.5 147.3 143.1 139.6 141.8 152.2 159.8 163.3 166.6 171.1 176.9 179 178.6 177.6 176.5 174.6 172.8 171.4 173.7 175.5
169.9 178.6 193 202.4 209 218.6 228 241.8 260.3 259 282.1 302.6 309.6 313.7 314.8 313.7 310.9 307.1 303.8 301.2 298.5 295.1 291.6 288.4 284.7 276.7 265.5 257.7 250 243.7 238.3 233.4 229.7 225.9 220.8 216.9 216.1 215.7 215.7 214.9 212.2 208.8 207 211.3 216.1 222.8 230.9 237.9 242.8 249.3 262 277.8 290.2 296.5 300.9 303.4 306.7 315.4 323.7 329.2 330.6 331.3 331.2 330.3 327.9 322.2 314 308.7 303.7 297.8 292.3 284 282.3 285.5 290.1 295.9 300 304.3 307.1 309 308.2 307.4 308 310.7 307.8 302.6 297 291.9 287.8 284.5 281.4 278.6 278 279.8 280.6 280.4 279.9 279.9 280.7 282.4 280 275.9 270.7 265.1 259.2 253.7 247.8 242.7 238 233.4 229.3 224.5 220.8 215.4 211 207.1 202.2 197 194.4 191.5 188 185.9 182.8 180.8 177.7 174.8 172.3 170.2 168.9 167.3 164.9 162.8 161 159.9 158.9 157.8 156.7 154.7 151.3 146.6 145.1 148.5 154 159.1 160.4 158.3 152.6 146.1 158.9 163.2 164.9 165.3 165.4 171 173.4 176.7 182.1 188.7 192.5 197.7 205.5 212.9 224.3 238.3 252.6 251 243.9 230.9 216.5 201.4 188.4 181 176.1 171 167.1 164.3 160.8 156.1 152.1 149.5 148.2 146 143.2 140 141.3 147.8 158.6 164.4 167.6 169.8 174.6 178.8 179 178.3 177.3 175.2 174.7 174.1 174.7 177.8
173.8 185.7 202.2 209.1 216.8 223.3 237.4 257.1 258.7 267 298.6 313.1 315 315.9 316.2 315.3 311.2 306.7 303.8 300.7 297.8 294.4 290.9 286.9 281.1 272.8 264.5 255.4 248 242.1 237.6 232.8 228.7 228.1 218.8 218.4 217.9 217.9 216.5 214.7 210.6 208.1 209 212.8 217 221.2 227.8 232.7 239.7 251.9 265.5 281.2 293.4 298 303.4 307.1 310 317.5 324.1 328.3 331.5 332.1 331.7 330.6 326.9 322.1 314.9 309.8 304.9 299.4 294.5 288.9 285.7 288.2 292.5 296.9 300.9 305.6 309.2 311.6 311.2 310.3 311.9 314 311.2 305.4 298.6 296 293.2 290.1 286.5 284.1 284.9 286 286.9 287.3 286.9 286.8 286 285 281.9 277.3 272.2 265.9 258.8 251.7 246.1 240.7 234.9 230.6 226.8 222.6 217.9 212.5 206.6 201.6 196.2 191.2 189.1 186.7 183.1 180.1 180.3 177.7 174.4 171.3 168.8 167.1 165.6 163.9 162 160.2 158.6 157.7 157 155.9 154.2 151.9 148.2 145.9 144.7 151.9 158.6 161.1 160.7 158.2 151.6 146.5 162.6 165.9 167.3 168.7 170.7 173.5 175.3 176.1 182.1 188.5 193.6 199.8 207.5 215.5 225 237.9 253.6 252.1 247.8 235.8 221.8 205.8 191.9 184.4 179.4 173.9 169.7 165.2 161.6 157.1 152.2 149 147 144.3 142 141 141 149.8 159.3 165.7 169.1 170.6 173.3 178.2 179.7 178.7 177.2 176.3 176 176 177.3 178.2
180.4 193.4 204.2 215 224.6 236.1 244.7 253 267.9 286.3 313.3 315.9 317.1 318 317.7 316 312.4 308.5 304.8 301.6 298.7 295.3 291.7 287.7 282 275.2 265 255.6 248.7 243.2 237.8 232.7 226.2 220.5 223.8 222.5 221.7 222.5 217.9 212.5 211.4 208.6 210.5 213.5 217.4 222.9 231.7 237.4 243.5 256.2 269.1 283.4 295.7 300.8 305 308.6 311.4 316.5 323.7 327.3 329.5 330.1 329 327.7 325.2 319.5 314.9 310.9 305.2 300.8 296 291 288.3 291.1 294.3 298.7 303 308.1 312 313.9 313.8 313.6 315.8 315.9 313.2 305.7 304.2 301.5 297.2 294.5 292.2 290.7 289.8 290.6 291.2 292.4 293.7 292.8 291.4 288.9 285.1 280.6 275.1 267.6 258.4 249.7 243.1 237.6 232.9 228.8 224.3 218.6 213 206 199 194.4 191 186.8 184.4 181.9 178.8 176.9 175.1 173.6 171.1 168.2 165.8 164.6 163.2 161.4 159.7 158.5 157.3 156 154.7 152.9 150.8 148.7 146.9 143.3 149.9 156.8 163.9 162.7 160.4 157.4 150.4 151.5 161.2 165.6 167.9 170.5 173.2 175.8 178 180.6 184.4 187.2 193.3 200.1 206.8 216.1 225.3 237.3 253.5 253.6 250.2 239.4 226.1 212 197 186.9 181.1 175.6 171.5 167 163.1 157.4 155.4 151.1 147 144.6 143.1 142.4 140.8 145.4 160 166.8 169.5 171.7 173.5 178 181.3 179.1 178.3 177.3 177.5 177.9 179.2 180.5
193.4 197.6 211 220.6 234.5 243.1 246.7 267.7 285.7 313.2 315.9 318.3 319.4 319.7 318.9 316.7 315 311.5 308 303.2 299.9 297.3 293.6 289.7 284.6 278.9 270.6 258.1 248.1 242 236.6 228.1 224.9 225.8 227.7 229.1 233.7 230 222.2 217.5 212.2 208.2 212.2 216.1 219.9 223 229.5 237.6 247.5 260.5 274.7 289 298.7 303.3 306.7 310.7 313.9 319.3 326 327.9 328.7 328.7 328.4 327.2 323.5 318.8 315 311.3 306.6 301.8 298 293.6 291.5 294.7 296.9 299.7 304.2 310.5 314.2 316 316.4 316.6 320.3 319.5 314.1 312 308 304.3 301.7 299.9 298.1 296.6 295.4 294.6 295.2 296.9 299.2 298.7 296.5 293 287.5 282.8 278.2 267.6 256.7 247.3 241 235.8 231.1 226.7 217.6 210.4 203.9 197.9 193.5 188 185.1 181.7 180 177.7 175.2 172.8 170.9 169.5 167.8 165.8 164.1 161.8 160.1 158.5 157.5 156.6 155.7 153.7 151.7 150.2 148.7 146.3 146.3 149.1 155.6 162.9 164.7 163 160.3 157 150 157.6 159.8 159.8 166.9 171.6 174.5 177.2 179.9 182.3 186.2 191.4 194.2 197.8 206.3 216.6 224.9 238.4 254.7 255.7 252.7 244.6 230.3 216.2 204.4 189.8 182.9 178.7 173.8 169.1 165.6 162.1 158 152.7 148.8 146.4 144.5 145.9 141.6 142.1 159.9 165.3 169.3 172.7 173.9 175.9 179.1 179.9 179.8 178.4 178.4 178.9 180 182
208 215.7 220 228.4 240 251.2 270.4 292.8 312.7 316.6 319.5 321.6 322.2 321.2 320.1 318.7 317.1 315.7 312 307.6 303.5 300.9 298.2 294 288.4 282.2 272.6 262.8 250.1 241.1 229.9 229 230.6 234.9 237.8 241.1 242.5 235.1 228.8 221.2 214.3 212.6 212.3 217.2 221.9 226.5 233.3 240.2 253.3 267.2 281.6 294 302.8 307.2 310.6 313.5 317.6 321.9 328.9 329.8 330.3 329.9 329.1 327.4 323.2 318.9 315.5 312.1 307.5 303.6 300.3 296.3 294.9 298.2 300.3 302.8 306 312.5 316.8 319.7 321.2 323.7 323.2 322 319.1 314.2 310 307.3 305.6 304.4 303.3 302.2 300.6 300.1 300.3 301.6 303.2 302.9 300.3 294.9 288.9 283 275.3 265.2 254.1 244.7 235.9 229.9 224.3 214.8 207.8 200.7 195.7 192.1 187 183.2 179.6 176.4 175.4 173.9 172.1 170.4 168 166.1 164.7 163 160.8 158.7 157.5 156.5 155.8 154.9 153.4 151.5 150.2 148.6 147.1 146.3 148.2 154.7 161.2 165.8 164.8 163 160.2 155.6 151.7 160.1 162.7 164.4 167.4 172.8 175.7 178.5 181.4 184.2 188.3 194 197.3 201.4 208.5 217.7 225.7 237.9 253.5 257.5 255.1 249.2 234.3 220.7 209.2 197 188.7 182.3 175.3 171.2 168.1 164 158.9 154.7 151.3 147.1 146.8 147 144.1 142.1 147.5 155.6 166.6 172.8 174.7 175.2 178.5 181.9 181.3 178.9 177.5 178.1 180.4 183
219.7 230.6 244 242.6 250.5 278.1 294.9 308.3 315.7 320.6 323.6 324.2 324.7 323.2 322.3 320.8 319.3 317.9 316.6 312.9 308.2 305.4 302.5 298.8 291.5 284.2 275.1 265 252.1 240.9 231.6 235.5 241.4 251.1 256 255.6 253 243.2 234.4 227.7 217.8 213.3 213.3 219 223 227.5 237.4 245.4 262.8 273.7 287 298.4 306.6 311 313.9 316.2 320.2 325.9 331.4 332.1 332.1 331 329.5 327.1 323.6 320.1 316.7 313.1 309 305.8 302.5 299.1 299.4 302 304.1 306.2 309.1 314.2 318.9 322.8 325 326 326.9 323.8 320.1 317.2 313.9 311.9 310.8 309.7 308.1 306.9 305.9 305 304.4 305 306.4 305.3 301.1 295.1 287 279.9 269.8 260.6 250.9 240.1 230.5 220.3 212.2 205 200.5 195.6 191.3 186.1 181.5 179.4 175.7 173.2 170.9 169.3 167.9 166.5 164.5 163.3 160.9 159 157.3 155.9 155.4 154.5 153.7 152.8 151.2 149.8 148.8 147.5 145.2 146.7 151.8 158.9 164.6 166.7 165.4 163.5 160.3 154.8 155.6 161.4 164.6 166.8 169.6 173.6 177.1 180.5 183.6 186.3 190.4 196.7 201 202.7 209.7 218.3 226.3 238.6 253.2 259.2 257 253.1 237.4 225.6 213.4 201.3 190.5 185.1 178.2 173.9 170.4 165.8 159.7 157.8 153.5 148.4 149.5 149 144.5 142.1 143.2 151.3 163.2 172.4 174.9 175.4 176.8 181.7 181.4 176.6 174.9 178 180.7 183.6
236.1 251.4 272.9 274.5 278.2 291.1 306.6 315.6 320.1 324 325.4 326.4 326.3 325 324.2 323 322.4 320.8 319.3 317.6 312.1 308.2 305.7 300.9 293.3 286.2 277.9 267.8 252.5 241.6 235 244.5 253.6 263.9 270.5 269.7 264.3 254.2 242.6 233.8 219.6 213.7 216.2 219.5 224 230.8 241.2 256.6 271 282.3 292.5 301 309.5 313.8 317 319.9 324.5 329.6 332.8 333.8 333.9 332.5 331.2 328.8 325.9 322.2 318.8 315.2 311.4 308 304.5 300.5 303.2 305.9 307.9 309.9 313 316.5 322.1 328.1 328.9 329.2 328.1 325.6 323 320.1 318.2 316.3 315.1 313.3 312.3 311.2 310.4 309.7 309.1 308.7 308.8 306.2 300.7 293.7 281.9 273.1 262.7 255.1 244.4 230.6 218.5 210.1 204 198 194.1 190.4 186.5 182.2 178.5 175.7 172 169.5 167.1 165.2 162.4 161.5 160.9 159.8 157.9 155.3 154.6 153.9 152.8 152 150.7 149.7 149.1 148.7 147.6 147.2 147.9 151.8 158.7 164.9 167.9 167.5 165.9 163.6 159.8 154.6 158.8 163.4 167.5 170.4 172.9 174.5 178.2 182.4 185.4 188.2 192.5 197.8 202.5 206.2 211.3 220.2 227.3 239.7 255.3 260.7 258.5 256.3 240.9 228.3 217.3 204.2 192.2 186.8 179.8 174.8 170 166.7 163 158.8 154.1 148.8 150.8 149.8 147.8 143.6 142.4 143.2 151.3 166.5 175.4 176.1 176.7 177.8 176.1 171.6 172.9 176.4 181 184.2
269.1 284 291.7 290.6 291.1 303.9 313.1 319 323 325.3 326.9 328.2 327.3 326.6 326.2 326.1 325.9 323.7 321.6 319.8 315.4 311.2 307.2 300.5 293.7 288.1 280.9 268.7 253.5 241.4 240.5 254.7 266.7 277 283.9 280.9 272.2 260.9 248.6 235.8 220.1 215.7 219.6 223.8 227.8 235.2 250.8 267.1 280.4 291 297.5 304.9 311.8 315.5 318.5 322.2 327 332.5 335 336.1 335.3 334.3 333 330.6 328.9 325.2 321.2 317.4 313.2 309.8 307.1 301 306.3 308.4 310.4 313.5 316.8 320.1 328.1 332.6 333.4 333.5 332.6 330.1 327.1 324 322.1 320.4 318.5 316.6 315.8 314.9 314.1 314 313.4 312.1 310.4 306.8 299.9 288.7 275.2 260 252 244.5 232.8 220.8 211.3 205.4 199.8 192.8 185.7 184.2 182.8 179.3 175.6 171.3 167.9 165.3 162.5 161.6 160 159 157.9 156.3 153.4 151.8 151.4 150.6 150.2 150 149.5 148.9 148.5 147.9 145.3 149.5 158.5 165.7 165.7 168.7 169.2 167.8 165.6 162 158.3 155 161.4 165.5 169.6 172.9 175.7 178.4 179.1 182.7 186.5 189.8 194.3 200.3 203.8 207.8 213.4 222.1 229.1 241.3 257.2 262.2 260.4 258.4 242.7 230.7 218.1 205.5 193.8 188.5 180.2 175.8 172.7 168.7 162.9 158.3 154.1 150.4 152.5 151.3 149.6 147.2 144.7 143.2 144.1 155 171.9 176 176.1 173.8 168.9 167.5 171.3 177.1 180.9 182.8
278.5 289.6 296.8 300.3 302.1 309.2 316.1 320.6 324.4 327 328.4 329.2 328.7 328.7 328.7 328.9 328.3 326.3 323.6 321 316.9 312.1 306.9 300.1 294 289.2 283.8 270.9 255.2 241.1 249.5 264.8 277.1 283.5 286.4 287.6 279.2 264 250.9 236.1 220.1 217.9 221.6 227.9 234.8 247.1 262.6 278.8 291.6 297.4 304.5 310.7 314.8 317.8 321.1 325.1 329.1 334 337.9 340.2 339.4 337.2 335.5 333.5 331.7 328.4 324.4 319.6 315.3 311.9 309.2 304.7 308.9 311.4 313.7 317.4 320.5 324.3 332.2 336.5 338.1 337.9 337.1 335.3 331.7 326.7 325.4 323.4 321.4 320 319 318.1 317.3 316.9 316.4 314.4 312.4 306 296.3 284.3 266.5 252.8 243.2 234.4 224.2 213.9 208 203.1 194.8 190.6 186.6 182.4 178.6 176.3 172.7 168.7 164.3 162 159.4 157.5 156.4 155.9 153.4 151.8 151.2 150.9 150.4 149.9 149.4 149.1 148.1 147.1 148.3 146 161.5 169.2 171.7 171.6 170.9 170.6 169.9 168.1 165.3 161.9 159.3 155.2 163.3 167.5 171.5 174.9 177.6 180.7 183.3 185.3 184.7 188.5 192.7 201.2 203.2 206.9 213.8 223.2 231.1 242.8 260.7 264.1 262.1 259.7 244.8 232.4 220.3 206.1 195.1 190.2 183.9 179.5 174.6 169.3 163.4 158.2 153 152.8 154.3 152.6 151 148.5 144.2 143.6 144.1 146.5 165 172.4 173.6 171.8 161.5 166 171.1 178.3 178.9 182.6
281.2 292.8 300.2 306.5 311.1 314.3 318.6 322.1 325.6 327.8 329.4 330.3 330.8 331.2 331.6 331.7 330.5 328.7 325.6 322.8 317.5 312.7 306.8 300.7 295.1 290.1 284.7 271 255.9 244.8 256.4 270 282 285.9 287.9 289.1 283.1 269.2 250.1 233.1 222.2 218.1 224 231.3 243.7 259.1 275.3 289.8 298.7 304.4 310.9 315.7 318.7 321.6 325.1 329.3 333.5 338 340.4 343.2 342.9 341.1 338.6 336.7 335.1 331.2 327.1 322.1 317.5 314 311.1 308.4 312.6 314.8 317.3 321 324.3 327.7 333.5 340 342.1 343.2 342.8 340.3 335.7 332.6 328.2 327.1 324.9 323.5 322.5 321.5 321 320.4 319.3 316.5 314 306.1 294.2 280.7 263 250 236.4 227.8 218 210.5 205.3 198.5 192.4 188.3 184.3 182 179.4 176 169.9 165.7 162.1 158.6 156.5 154.5 153 151.2 150.7 150.5 150.7 150.4 150.5 150 147.4 148.8 148 155.5 159.9 168.6 173.4 175.8 176.5 175.9 174.4 172.3 170.4 168.3 165.2 162.5 160.1 156.3 164.3 168.3 172.5 176.4 179.4 182.7 184.9 187.5 189 192 196.7 196.8 200.1 205.8 212.6 222.6 233.6 243.6 260.9 265.6 263.3 261 246.1 233.7 222.3 208.1 197.2 192.1 187.8 180.9 174.9 170 164.9 158.9 154.7 154.1 156 153.7 152 148.3 144.7 144.2 145.8 146.8 148 154.2 155.6 153.3 156.8 167 169.8 174.5 179.4 182.5
286.6 296.9 303.4 310.3 314.4 317.9 321.2 324.3 326.6 328.4 330.6 331.6 333 333.5 334.1 334.2 332.8 331.1 327.9 324.6 319.1 312.8 306.4 300.3 295 290 283.3 269 257.6 252.3 271.9 281.5 286.2 288.5 289.7 290.2 286.1 268.6 249.8 233.1 221.3 219.3 230.9 234.8 246 265.5 283.7 296.7 303.5 310 316.5 319.5 322.9 326.4 329.9 334 337.9 341.5 343.7 345.8 346.1 344.6 341.6 339.8 337.8 334.2 330.3 324.3 319.8 316 312.9 313.1 315.3 318.8 321.8 325 327.5 330.7 336.1 342.6 344.9 346.4 346.1 343.7 341.1 338.8 335.3 332 328.9 327 326.3 325.5 324.7 324.3 322.6 318.6 315 305.7 292.5 278.2 262.2 246.1 233.3 222.8 213.1 206.7 201.4 194.8 189.3 185.4 181.8 179.1 177.6 174.8 170.3 164.7 159.4 157.5 154 151.8 151.2 150.9 150.7 150.8 149.4 152.6 164 163 164.9 169.6 173.3 176.6 178.2 177.8 179.8 181.2 180.8 179.8 177 174.3 171.2 168.6 166.1 163.2 160.1 156.9 165 168 171.9 175.4 179.3 183 186.3 189 191.6 195.3 200.8 203.9 204.5 209 215.1 224.7 233.1 244.1 261 267.7 265.2 262.6 250.3 237.1 225.9 211.3 200.9 193.2 188.5 181 176 171.1 166.7 162.2 157.8 156.6 158 155.2 152.2 146.6 144.4 144.7 147.7 151.5 154.8 155.6 158 159.2 158.1 165 170.2 175.8 181.9 185.6
291.8 300.6 307 312.4 316.4 320.5 323.6 326.4 327.3 329 331 333.3 335.2 336.1 336.7 336.6 335.2 333 329.6 326.1 321.7 314.2 305.8 299.3 293.9 288.5 278.9 265.9 248.8 265.1 282.9 286.8 289.4 291.3 292.2 291.8 289.6 270.8 252 234.5 221.6 228.1 239.9 253.6 262 270.1 293.1 301 306.8 314.2 319.8 323.4 328.2 331.6 334.1 338.3 342 344.2 346.4 349.1 348.7 345.8 344 342.3 339.8 336.3 332.2 326.1 321.7 318.2 315.3 317.4 320 323.3 325.9 328.6 331.2 333.9 339.5 345.6 348.3 349.1 349 347.5 346.4 344.8 341.4 337.3 334 330.7 329.9 329 328.2 326.6 323.3 319.8 314.7 303.8 290.6 277 260.9 244.4 231.3 218.7 210.1 201.9 194.5 190.5 186.9 182.8 179.4 175.8 172.7 170.7 168.3 164.6 159.6 154.2 152.8 151.8 151.3 151.1 150.7 155.1 164.5 167.2 169.7 172.3 173.2 177.9 182.4 183.9 184.4 183.5 185.3 185.9 185 182.6 179.5 175.5 171.4 168.8 166.3 163.4 160.9 158.4 163.4 166.8 170.6 174.3 178.4 183.5 187.2 190.7 194.2 198.4 203.6 206.6 208.4 212.1 217.5 227.7 234.4 245.8 261.1 268.8 266.9 264.4 255.5 242.5 230.7 216.9 202.9 195.6 189.7 183 177.9 173.3 168.4 164.3 160.1 159.5 158.7 155.8 151.1 146.1 145.3 146.6 149.9 154 157.6 161.3 164.6 163.1 159.5 166 170.6 175.8 183.6 187.7
300.4 304.3 310.3 315.3 319.1 322.7 326.1 328.5 329.2 330.2 332.1 334.8 336.9 337.8 338.4 338.1 337.1 334 330.5 327 322.8 315.3 305.6 298 292.5 285.7 275.8 257 265.2 281.2 289.6 291.1 293.4 294.5 294.6 294.4 291.4 272.5 252.9 236.4 222.3 231.1 246 262.3 279.4 291.9 300.4 305.3 310.1 316.2 322.3 326.7 330.5 334 336.8 341.6 345.1 346.5 349 351.5 351.1 347.6 345.6 344.1 341.7 338 332.6 327.5 323.4 320.5 319.9 323 325.6 328.1 330.6 333 334.4 337.3 343.8 349 351.2 351.6 352.1 351.4 351 349.7 346.8 342.8 339.7 336.5 333.6 332.3 330.3 327.2 323.4 320 312.1 301 288.4 275.3 258.9 242.8 228.7 216.1 210.4 202.9 194.7 188.3 182.1 179.9 176.7 173 169.6 166.4 165 160.9 155.4 153.1 152.4 151.6 150.5 154.1 166.6 167.3 171.7 173.1 165.5 177.8 179 183.2 186.9 188.9 188.8 189.1 189.7 189.8 188.2 185 181 176.4 171.9 169 166.7 165.3 162.7 157.9 163.6 168.4 172 175.8 180 184.2 187.5 191 195.7 199.9 205 208.2 211.3 217.1 223.6 230.7 236.5 248.9 264.1 268.2 267.8 266.4 260.9 248.3 236.3 224.3 208.6 196.8 191.2 185.4 180.1 176 170.3 167.5 163.7 161.3 157.5 154.7 151.7 147.3 146 148.3 152.3 155.4 160.2 165.3 169.4 171.9 171.7 166.3 171.7 175.3 182.7 188.4
308.6 313.2 314.6 318.1 322.7 326.7 329.3 330.4 331.2 332.3 334 335.8 338.5 339.5 339.6 338.4 336.7 334.2 330.9 327.1 323.6 317.2 307.2 299.3 292.3 285.8 270.2 264 279.3 289.7 293.5 295.4 297.2 299.5 299.2 296.5 292.8 274.7 254.4 237.8 225.6 234.7 251 271.4 291.8 303 306.5 309.2 313.3 318.9 323.7 328.8 332.6 336.3 340.6 345.1 347.2 350.2 352.1 353.4 352.9 350.3 347.8 345.8 343.4 339.5 334.1 329.7 326.4 323.1 324.9 327.8 330.4 333.3 335.4 336.7 338.2 343.6 348.9 352.4 354.4 354.8 354.9 354.7 354.5 353 351.1 348.7 345.5 342.2 338.8 335.7 331.7 328 324.2 318.8 308.7 296.7 287.4 271.7 256.7 242.1 225.1 213 207 198.5 191.4 186.3 182.6 178.8 174.5 171.5 168 163.1 159.2 156.3 153.8 153.1 152.3 153.7 162.1 168.4 171.8 173.8 174 175.4 172.9 178.9 182.3 186 189.2 191.6 192.2 192.7 192.9 192.3 190.5 186.8 182.2 177.2 172.9 170 168.1 165.3 161.7 159.7 162.1 165.8 169.2 176.1 181.9 185.5 188.4 191.2 195.9 200.5 205.9 209.8 213.4 218.3 225.4 233.9 240.4 253.9 268.2 270.7 270.3 268.7 265.6 254.6 244.1 230.6 211.8 201.5 194.7 189.3 183.1 177.7 174.6 170.3 166 160.9 158 154.8 151.3 147.4 146.2 150.3 153.9 157.2 164.9 170.9 174.5 176 175.8 173 172.7 177.7 180.9 185.1
317.7 318.8 320 320.7 325.7 329.8 332.6 333.8 333.5 335 336.6 337.7 338.8 340.1 340.3 338.4 336.5 334.5 331.7 328.8 326.1 319.3 310 302 294 287.9 271.5 273.1 289.9 295.5 298.1 300 303.6 305.2 304 299.7 294.2 277.1 257.6 240.7 226.8 238.2 255.8 278.8 299.5 307.4 310.5 313 316.6 322.4 325.8 330.7 334.7 338.4 342.4 346.6 349.6 353 355.5 356 354.3 351.6 349 346.5 344.3 340.7 335.9 331.9 328.8 327 330.1 333.5 336.7 338.6 339.6 340.6 345 350 353.8 356.7 357 357 357.2 357.4 357 355.9 354 352.3 350.6 347.8 343.2 339 333.6 329.1 324.2 315.8 303.8 292.9 285.5 270.6 256.6 241.2 222.5 214.8 206.1 197.6 193.6 188.5 184.2 180.5 175.5 172.4 169.3 165.6 161 152.5 153.2 153.1 155.9 162.4 168.8 173 175.7 177.4 176.9 179.5 179.5 176.5 184 187.9 191.3 194.1 195.1 195.4 195.5 194.9 191.6 187.9 183.6 178.6 175 172.5 170.3 165.2 162 161.7 166 169.2 173.6 176.9 178.5 180.5 184.4 187.7 194.6 201.8 207.2 210 213.5 218.9 225.2 236 243.3 258.9 271.8 274.8 273.5 270.8 269 262 251.8 238 225.8 209.8 200 194.2 187.8 181.8 177.3 173 168.7 164.8 160.3 156.5 153.6 149.1 146.7 149.8 154.6 159.6 167.5 172.9 176.3 177.6 178.1 177.5 178.9 180.5 184.5 188.8
321.4 322.8 324.3 325.6 328.4 332.5 335.3 336.4 336.3 337.8 339.3 340.8 341.2 342.2 341.3 339.9 338.3 335.9 333.5 331 328.3 321 313.1 304.9 296.9 292.4 273.8 280.3 294.3 299.5 302.9 305.6 308.2 309.6 309.1 303.4 297.4 282 260.6 243.4 226.9 243.2 263.9 285.4 302.8 309.2 313.3 316.4 319.9 325.6 329 334 337.7 340.9 344.9 347.9 351.4 355.2 358.3 358.9 356.5 352.7 350.2 347.7 345.2 342.4 338.2 334.4 332 332.5 335.1 338.8 342.2 343.4 344.3 347.5 352.6 355.8 358.8 359.7 359.4 359.2 359.5 359.9 359.3 358.6 356.8 355.2 353.2 351 346.2 340.7 334.4 329.2 323.6 313.4 299.6 289.7 282.4 271.5 260.7 242.5 225.8 215.6 209.8 202.3 195.8 189.9 186.3 182.5 178.6 173.8 169 164.2 157.6 154.1 154.1 155.3 158.2 166.4 171.9 175.6 178.9 180.9 180 182.4 183 177.5 186.5 189.8 193.5 196.1 197.1 197.5 197.3 196 193.2 188.9 184.9 181.2 177.1 174.5 170.9 164.6 162.4 163.7 167.7 172.3 177.3 180.2 183.5 187.8 191 193.8 195.5 204.4 209.3 212 217.5 222 228.3 239.1 247.6 263.5 277.5 279.5 277 274 271.7 268.8 258.9 250.7 236.5 216.1 205.3 198.6 192.4 185.6 180 175.5 171.8 167.1 162 157.7 155.2 149.9 147.2 149.3 154.9 159.3 165.3 172 176.2 178.8 180.1 180.9 183.1 184.6 188.2 192.7
