ncols 200
nrows 85
xllcorner 160000
yllcorner 752000
cellsize 50
239.6 228.4 245.7 249.6 238.1 237.9 254.8 250 238.9 230.2 222.2 212.1 210.8 205.6 193.7 175 155.5 147.1 140.1 131.4 122.8 111.4 103 88.3 75.8 70 64.8 59.3 51.3 42.3 32.4 25.6 18.5 8.5 8.2 8.5 8.7 6.1 4.8 2.6 4.7 6.4 9.3 8.1 7.7 6.7 5.2 4.5 4.4 6.8 16 20.6 29 34.6 28.2 22.6 15.5 14.3 7 -1.6 -1.6 -1.6 -1.6 -1.6 -1.6 -1.6 1.1 3.2 6.9 12.6 11.5 10.5 9.3 4.5 4.1 5.4 3.7 2.3 -1.6 2.5 -1.6 3.7 4.5 16.9 25.8 27 27 39.2 41.9 43.4 50.8 55.6 51.9 52.3 50.3 70.8 88.7 111.1 126 141.3 154.5 160.8 163.5 174.8 176.6 187.9 189.2 185.4 190.9 194.5 187.9 191.2 195.1 199.5 208.2 219.8 218.6 221 228.4 242.2 241.7 249.8 254.3 265.4 277.8 280 281.4 275.5 273.5 273.5 272.2 279.3 279 277.5 281.8 292.7 300.8 306.2 310.2 316 319.7 320.1 317.7 311.4 300.5 295.3 294.2 294 289.5 281.9 279.1 278.4 274 267.9 264.3 267.5 269.5 272.6 280.5 295.7 299.1 307.2 314 314.8 312.5 312.4 316.3 331 346.6 375.1 387.6 406 425 462.6 481.2 528.1 541.1 543.4 543.6 542.1 529 522.1 516.2 506.8 497.1 487.4 475.2 462.4 447.6 427 415.4 406.4 392.7 377.4 378.3 379.6 379.1 386.7 392.5 401.1
249.1 241.9 235 255.3 247.9 238.5 253.3 266 257.8 251 241 233.9 221.6 227.5 208.2 196.3 181.9 165 150.2 137.4 127.2 117.4 106.6 94.2 82.6 73.1 68.7 61.3 52.9 43 34.8 30.6 21.9 14 11.1 8.7 6.8 6.2 5.6 2.4 5.2 7 13.2 15.3 15.1 19.1 10.2 8.1 14.2 18.4 22.8 29.3 39.7 42 32.5 27.1 32.6 21.2 13.9 7.2 5.9 -1.6 -1.6 -1.6 -1.6 -1.6 -1.6 1.2 2.8 3.8 2.2 2.3 4.6 4.2 1.8 -1.6 -1.6 -1.6 -1.6 -1.6 -1.6 -1.6 2.2 5.3 15.1 17.7 19.4 25.3 29.6 36.4 41.6 45.1 42.1 40.4 42.5 59.1 83 103.8 117.4 130.7 142.2 152.8 153.6 163.3 163.1 168.8 173.6 181.3 189.6 199.8 194.5 186.5 187.1 189.6 197.8 203.6 204.6 217.2 229.9 232.7 238.5 246.6 249.1 254.8 265.3 266.1 265.8 267.1 272.8 270.5 269.6 271.3 273.9 274.8 274.9 278.9 292.5 300.7 306.4 309.8 308 310.9 302.8 290.4 287.7 286.9 286 284 278.4 274.2 274.8 273.8 272.3 269.4 265.7 264.2 271.6 283.1 298.4 306.1 311.6 313.5 315.8 315.7 312.3 313.6 317.2 333.8 345.6 372.1 390.8 420.4 423.5 446.6 478 522.7 531.8 541 544.8 549.1 548.4 548.8 554.1 546 532 511.8 496.7 482.9 466.3 448.5 430 419.6 406.1 384.4 380.6 382 382.4 385.8 395.3 404.1
257.2 256.8 234.4 255.5 255.3 244 255.5 262.1 264.1 263.5 253.5 251.3 241.8 232.2 227 209.7 201.4 187.5 173.4 152.9 134.1 123 111.3 102.5 91.1 79.4 70.6 62.1 54.1 42.2 37.3 33.7 27.5 20.8 16.3 15.9 7.9 7.2 6.6 4.7 3.8 7.1 14.9 17 22.2 26 17.6 19.6 21.4 23.7 27.4 33.4 42.5 39.4 32.9 34.4 41 33.1 21.4 11.7 4.9 2.3 -1.6 -1.6 -1.6 -1.6 -1.6 -1.6 -1.6 0.5 0.3 0.8 1.1 2 -1.6 -1.6 -1.6 -1.6 -1.6 -1.6 -1.6 -1.6 0.3 3 6 10.8 15.2 18.3 23.8 27.5 33 35.2 31.1 29 34.7 52.1 71.5 85 101.7 117 132.5 137.6 139.5 138.2 147.7 151.1 162.8 174.9 196.3 210.5 201.9 186.1 185.6 187 195.2 206.4 198.8 211.1 219.6 222.6 230.6 239.9 237.5 243.7 250.5 259.7 258.8 253.9 266.8 266.2 266.4 268.2 266.8 265.4 264.8 271.8 278.8 283.1 287.4 289.8 293.5 295.6 283.6 279.5 278.7 275.6 269.6 265.1 264.2 265.7 267.5 271.9 270.3 266.4 257.6 277.8 290.1 299 309.3 308.6 313.6 316.8 316.7 314.8 312.9 312.7 315.2 332.3 351.5 375 395 419.3 426.9 447.2 471.2 515.3 522.3 532.2 538.6 544.2 546.9 547.8 555.2 567.4 559.4 543.9 525.9 504.9 486.6 469.5 449.4 434.4 418.9 393.7 385.1 383.1 386.3 391.5 396 403.3
259.2 265.9 254.4 250.4 258.5 248.5 263.1 260.7 263.6 264.1 256.3 260.8 253.6 244.4 235 226.8 228.2 211.1 196 177.4 151.1 130.5 120.9 108.6 92.7 83.7 74.5 63.7 51.3 45.4 39.3 34.8 32 27.8 18.8 14 8.9 8.2 7 6.4 4.4 5.9 14.5 18 21.7 27.7 26 28.1 29.2 27.7 29.8 35.4 38.9 37.3 34.7 44.4 44.5 38.8 31.6 31.5 12.8 5.1 1.2 -1.6 -1.6 -1.6 -1.6 -1.6 -1.6 -1.6 -1.6 -1.2 -1.6 -1.6 -1.6 -1.6 -1.6 -1.6 -1.6 -1.6 -1.6 -1.6 -1.6 -1.6 3.4 6.3 8.8 14.1 20.3 21.5 25.9 27.7 22.2 23.8 35 47.7 61.7 71.8 82.8 96.6 110.8 120.5 123.2 123.5 134.4 143.4 156 177.7 195.5 208.8 202.3 185.5 185.1 183.3 193 201.7 196.5 212.4 221.4 230.5 230.1 233.1 232.9 238.8 242.1 245.3 250.5 244.3 256 260.3 259.3 260.7 261 258.2 254.3 262.6 269.6 271.3 268.5 264.5 278.2 277.6 268.1 267.1 264.8 263 257.5 255.9 255.5 256.3 259.1 257.7 252.3 256.1 281.6 292.9 297.7 306.9 309.9 308.9 312.2 314.3 313.2 311.7 313.5 311.9 315.9 321.9 350.6 375.6 389.2 421.6 422.2 449.3 469.7 506.6 514.5 520.7 529.6 536.9 541.4 542.4 547.6 567.3 564.6 558.4 548.9 527.9 506.9 486.1 470.6 454.3 434.2 403.4 390 387.3 391.3 390.9 403.5 414.1
268.7 268.1 266.8 249 253.5 253.3 264.9 266.2 265.4 266.7 260 260.7 259.4 252.5 242 230 231.7 227.6 219.5 194.7 172.2 140.9 123.3 110.5 97.1 85.1 75.7 63.3 54.3 45.6 40.4 35.3 33.5 30.1 19.5 14.1 8 9 8 6.5 6.2 6.7 11.6 18.7 25.3 30.6 32.6 36.3 36.9 34 31.4 33.5 34.5 36.7 40.8 47.3 48.6 44.3 46.4 43.1 33.2 13.3 1.8 0.8 0.1 -1.6 -1.6 -1.6 -1.6 -1.6 -1.6 -1.6 -1.6 -1.6 -1.6 -1.6 -1.6 -1.6 -1.6 -1.6 -1.6 -1.6 -1.6 -1.6 -1.6 2.6 5.3 11.6 15.9 17.9 20.1 18.4 16 27 38.4 48.7 57.2 63.7 72.4 82.7 96.9 107.4 107.1 116.6 134.1 139.6 153.9 171.6 186.1 196.1 199 180.1 181.2 177.3 183.7 192.8 198.5 226.5 230.4 234.6 236.3 234.9 235.1 233.8 235 241.2 240.3 238 244.4 248.2 247.1 248.6 246.8 242.3 247.2 251.1 257.9 250.4 238.6 239.2 254.3 262.6 254.6 252 253.8 254.4 253 249.6 249.3 248.5 247.1 239 248.2 267.4 287.5 298.4 302.7 304.5 305.3 307.8 309.9 311.9 312.8 308.3 308.2 311.4 315.6 320.7 341.1 370 386.1 398.2 413.4 434.7 474.8 499.3 509.1 513.5 520.1 529.3 534.1 536.6 541.2 550.4 558.8 563 567.1 548.9 524.9 509.2 489.2 472.9 457 420.6 403.3 394.4 398.1 393.1 404.7 420.2
272.2 268.6 272.6 267.3 247 259.3 259.7 267.6 266.5 266.2 264.9 263.5 262.7 256.6 250.9 238.1 238.5 235 223.4 209.1 186.5 164.6 134.9 115.4 101.4 89.1 77.4 66.2 57.2 47.5 40.3 34.5 31.4 24.9 18.8 19.9 12.3 7.8 6.7 7.7 7.6 7.8 14.2 23.8 32.2 34.8 37.3 44.1 52.1 54.5 39.3 34.4 37 40 45.2 49 52.5 49.2 55.1 51.9 41 18.4 5 2.3 2.2 3.2 -1.6 -1.6 -1.6 -1.6 -1.6 -1.6 -1.6 -1.6 -1.6 -1.6 -1.6 -1.6 -1.6 -1.6 -1.6 -1.6 -1.6 -1.6 -1.6 -1.6 2.9 7.8 13.5 16.2 12.5 7.8 15.5 26.6 34.8 46 57.6 59.5 64.2 71.7 81.1 94.3 96.3 116.6 122.7 131.3 147.3 164.4 170.5 177.4 175.7 174.8 168.5 167 171.8 168.2 204.1 223.9 228.6 229.7 230.7 227.5 234.1 231.2 229.4 229.4 229.8 233 242.1 239.8 236.8 233.4 230.5 219.9 227.6 229.2 225.9 216.5 216.6 217.6 227.6 245.9 246.1 242.6 244.9 250.2 250.5 248.1 247.1 235.6 221.5 239.8 254.2 282.4 295.5 303.5 308.5 306.5 305 305.5 309.3 314.6 313.6 308.5 308.2 310.6 313.8 322.7 338.1 356 378.8 388.4 407.5 428.3 470.9 493 502.9 506.9 511.9 520.5 527.9 533.6 537.8 541.1 553 565.9 561.2 560.5 545.2 528.7 512.1 495.9 475.2 438.1 423.3 410 403.3 397.8 409.8 424.9
274.3 272.5 275.7 275.7 266.9 261.8 260.1 266.2 268.9 266.8 265.5 263.4 262.9 260.8 252.1 240.3 238.7 237.6 229.2 216.3 195.8 176.4 151.8 130.4 105.2 91.8 81 68.9 60.7 52.6 42.3 34.3 27.4 21.9 24.8 16.3 11.3 10.7 9.3 16.3 16.6 20.3 24.7 32.5 38.3 40.4 44.9 47.4 55 57.8 50.5 39.7 39 41.7 47 50.1 54.4 59.9 59.4 53.2 42.5 30.6 14.6 10.2 7.3 12.1 19.7 4.5 -1.6 -1.6 -1.6 -1.6 -1.6 -1.6 -1.6 -1.6 -1.6 -1.6 -1.6 -1.6 -1.6 -1.6 -1.6 -1.6 -1.6 -1.6 -1.6 2.8 8.5 13.9 5.7 5 12.8 23.6 31.3 40.5 51 58.9 63.8 70 73.4 80.8 96.1 107.7 112.8 121.9 137.2 149.4 153.2 157.6 161.4 162.2 153.8 166.5 164.4 179.6 195.9 208.6 218.3 223.7 227.1 224.5 232.8 227 225 223.8 228.1 231 239.8 236.1 233.1 227.2 222.2 216 202.5 200.6 200.8 201.1 202.5 202.5 211 231.1 248.2 238.3 236.9 241.7 234.4 234.2 223.1 218.7 246.3 249.3 263.4 285.5 297.3 302.9 306.3 307.1 303.3 305.6 311.2 314.7 315.7 309.3 308.2 308.5 310.5 317.2 333.4 345.3 365 378.5 393.4 424.2 460.6 482.6 497 502.4 507 511.8 519 526.7 536.9 533.5 542.8 552.5 559.8 558.5 557.1 542.9 529 516.2 495.3 457 442.7 431.2 413.3 404.9 413.4 438.2
279.7 275.1 274 280 273.8 257.8 261.1 266.4 268.8 266.5 265.2 264 261.5 259.2 254.5 247 235.8 232.7 226.9 218.9 199.5 184 160.5 139.1 120.7 97 81.8 70.8 64.2 57.1 44.8 34.7 20.2 26.2 18.8 14.6 13.9 13.1 12.3 22.4 24.8 26.7 30.1 35.1 41.8 50.1 53 54.5 56.3 57.6 55.5 47.1 41.5 42.3 47.6 49.7 53.6 59.2 59.9 55.1 43.4 37.6 29.7 18.5 11.5 15 18.9 15.9 3.8 2.9 -1.6 -1.6 -1.6 -1.6 -1.6 -1.6 -1.6 -1.6 -1.6 -1.6 -1.6 -1.6 -1.6 -1.6 -1.6 -1.6 -1.6 -1.6 -1.6 3.2 2.3 3.4 11.5 18.5 26.5 33.8 47 55.5 57.3 62.9 66.8 79.4 89.8 97 99.2 114.2 125.9 132.6 139 142.8 147.4 147.9 147.3 156.4 159 183.7 192.6 198.4 201.9 212.4 214.2 220.9 221.4 219.5 217.4 220.4 224.3 227.9 232.8 228.4 222.7 213.4 208.3 202.5 188.6 187 186.8 189.7 189.6 192.3 202.6 221 238.7 229.9 227.6 222.7 215 204.8 210.2 232 246.9 255.4 271.2 283.5 290.2 298.5 303 306.7 302.9 308.9 313.5 318.2 317.4 312.2 308.2 308.2 310 313 325.3 343.4 362.8 374.1 395 423.9 461.4 476.1 491.8 500.2 504 507.3 513.7 523.4 528.5 527.6 533.5 545.1 553.7 551 551.1 545.7 538.1 529.2 513.7 479.6 458.9 451 430.6 419.3 424.9 448.7
286 281.8 274.6 283 281.2 270.6 259 263.3 269.4 268.7 264.1 262 258.2 255.8 251.5 246.5 238.2 227.9 224.9 214.1 212.3 188 169.6 145.5 129.5 107.4 83.9 69.7 65.1 57.6 45.6 37.3 25.6 27.7 24.4 18.9 18.4 17.1 15.1 26.9 28.9 31.7 37.5 46.7 54.4 54.8 58.1 61.8 65.7 69.7 69.2 65.2 56.2 52.9 47.6 47.4 50.7 54.5 54.9 51.1 45.4 38.2 33.5 25.3 19.3 21 21.9 19.8 14.6 4.6 5.5 -1.6 -1.6 -1.6 -1.6 -1.6 -1.6 -1.6 -1.6 -1.6 -1.6 -1.6 -1.6 -1.6 -1.6 -1.6 -1.6 -1.6 -1.6 -1.6 -1.6 2.3 7 15.7 20 27.7 38.7 50.8 52 58.2 65.6 76.4 86.1 90.4 98.1 105.5 113.1 121.4 124.8 127.9 139 141.3 141.6 149 164.6 180.1 187.9 189.6 193.7 199 200.1 212.1 211.5 208.2 207.5 215.2 217.3 218.7 217 214 201.6 195.6 192.6 185.9 180.9 166.9 171.9 174.1 175.9 181.6 195.1 210.9 226.8 220.7 209.8 201.9 196.8 207.8 223.8 236.7 251.5 264.4 272.8 279.1 285.8 294.3 294.9 294.1 297.8 306.1 313.8 317.8 318.1 312.9 308.9 308.2 308.2 311.4 316.5 333.7 351.1 373.4 395.2 445.7 455.5 468 489 499.5 505.1 510.5 512.4 519.9 524.4 521 526.8 531.8 539 537.4 536 536.9 537.8 531.8 523 497.4 493.3 481.9 449.2 437.7 441.1 456.5
292.5 285.9 277.7 278 283.6 276.8 265.1 261.5 265.4 267.5 265.7 260 254.8 251.4 248.9 244.6 240.4 226.8 218.4 215.6 212.9 191 175.8 149.8 132.4 112.6 88.7 72.8 58.8 50.1 42.8 33.4 33 30.6 28.9 23.8 22.7 20.2 20.5 25.2 32.2 39.2 47.3 48.9 52.7 60.7 66.1 69.5 76.3 82.8 87.2 82.2 74.4 69.2 56.7 48.5 46.4 46.3 45.7 44.8 40.6 36.7 35.2 31.4 28.6 26.1 29.4 28.4 23.9 16.1 5.8 -1.6 -1.6 -1.6 -1.6 -1.6 -1.6 -1.6 -1.6 -1.6 -1.6 -1.6 -1.6 -1.6 -1.6 -1.6 -1.6 -1.6 -1.6 -1.6 -1.6 1.2 6.6 13 15.5 22.1 27 35.3 47.2 55.4 61.6 74 81.7 81.6 89.3 88.8 84.2 93.7 117.8 129.3 134.5 134.3 135.7 149.3 165.9 176.3 180.6 181.2 185.1 186.5 183.9 198.2 196.6 199 205.3 207.7 205.7 202.2 198.9 185.6 175.9 174.9 173.9 163.7 159.9 153.8 157 159 162.9 169.2 181.9 197.7 207.4 208.4 179.7 183.8 205.9 222.9 240.4 250 255.6 265 271.5 275.8 277.2 284.4 289.5 293.4 296.6 300.6 304 307.3 312.5 311.9 311 309.2 309.5 313.2 313.3 318.3 330.8 348.9 378.3 422.6 446.7 461.3 486.8 498.4 502.8 513 509.7 510.4 515.2 511.6 516.3 522.9 524.4 524.3 525.6 527.2 530.5 528.8 523.5 512.1 509.8 508.7 474.3 463.7 458.9 473.4
293.1 289.2 282.4 273.3 279.8 277.4 272.4 265.2 261.5 266 264.6 259.6 255 248.8 245.9 241.6 238.7 230.5 218.7 215.2 209.3 196.8 174.7 155.3 131.7 113.2 91.2 74.2 60.5 49.4 34.3 31.4 35.1 32.7 30.2 28.8 28.1 25.9 24.6 26.5 36.6 45.7 56.3 53.5 58.6 70.3 76.9 84.7 92.3 100.1 101.6 96.6 89.7 81.2 70.9 58.2 49.3 42.8 39.3 38.1 36.8 37.1 36.9 34.2 30.8 32.7 35.7 32 29.5 22.7 9.4 1.6 -1.6 -1.6 -1.6 -1.6 -1.6 -1.6 -1.6 -1.6 -1.6 -1.6 -1.6 -1.6 -1.6 -1.6 -1.6 -1.6 -1.6 -1.6 -1.6 1.6 3.4 7.5 9.6 15.5 22.4 28.6 38.7 44.7 54.4 62.7 65.6 56.1 77.1 96 104.8 113.4 102.9 123.6 130.4 127.9 139.1 151.1 166.5 173.8 171.3 175.1 169.9 170.7 167.6 178.2 185.1 194.7 201.9 202.2 194.6 191.2 182.8 172.7 162.7 156.9 152.2 149.3 146.1 147.4 146.9 148.8 151.6 160.7 175.6 192.5 186.2 168 179.5 202.5 216.8 232.7 246 255.1 263.9 269.8 268 270.5 280 287.6 290.7 291.5 297.9 302.2 305.3 303.7 305.2 310.2 310.2 307.1 308.4 311.2 310.1 315.1 323.5 335.8 355.3 383.9 429.2 452.4 477.9 494.3 502.6 511.2 516.3 506.5 509.3 505.5 507.7 510.6 513.7 512.4 511.1 517 521.5 523.2 515.9 507.6 508.9 513.4 510.1 491.7 477.9 483.8
293.1 290 283.3 274.2 269 274.5 273.2 266.5 257.6 263.5 261.7 259.6 254.4 245.6 243.6 241.1 235.6 230.6 225.2 213 206.2 193.9 172.9 152.3 128.7 112.3 94 72.8 60.4 50.1 31.2 31.7 36.3 34.7 34.6 36.1 35.5 34.9 32.9 32.4 37.8 47.8 59.9 67 76 93.4 100.8 111.2 116.5 122.4 120.3 113.5 106.3 97.4 84 71.7 59.3 49.3 39.6 36.7 35.3 35 35.2 33.4 31.6 33.3 37.7 38.3 31.8 25 12.3 2.2 -1.6 -1.6 -1.6 -1.6 -1.6 -1.6 -1.6 -1.6 -1.6 -1.6 -1.6 -1.6 -1.6 -1.6 -1.6 -1.6 -1.6 -1.6 -1.6 1 2.8 5.1 8.1 14.7 16.8 19.1 24.8 29.4 38.2 45 55.3 73.8 91.2 105.9 120.1 130.1 130.5 132.6 125.7 126.4 131.8 147.5 159.1 161.5 159.2 160.5 157.3 160.8 160 165.2 177.7 184.2 193.6 191 184.1 176.6 173.3 164.7 150.9 147.1 142.8 141.5 142.6 144.1 138.9 142.2 145.2 144.8 158.5 177.4 163.1 169.2 200.7 215.3 228 241.5 250.1 257.3 260.4 264.5 266.7 269 276.6 287.5 284.7 290 297.6 303.3 304.6 302.1 303.7 308.5 307.7 306.7 305.9 305.9 308.1 313.7 319.1 324.8 336.3 356.2 381.6 419.2 455.3 487.6 500.9 506.2 510.2 506.1 502.4 501.1 501.3 504.9 506 501.6 500.3 504.4 507.3 506.2 505 494.7 504.4 509 510.9 508.3 489.6 488.7
292.2 289.6 285.2 275.3 265.6 267.5 272.3 266.7 256.6 250.5 258.1 256.1 246.8 241.7 240.2 238 232.5 230.8 226.2 216.3 196.6 183.4 166.4 144.7 124.4 108.2 94.7 73.9 56.5 41.8 30.4 34 40.4 38.3 40.4 41.6 43.2 48.8 54 50.2 48.2 58.7 70.9 92.7 98.1 105.7 123.3 131 144.4 140.3 138 130.6 124.5 113.5 94.8 81.7 70.5 60.4 46.8 40.3 37.3 35.3 34.1 33 32.4 33.7 36.6 37.7 32.4 26.5 16.2 2.3 0.4 -1.6 -1.6 -1.6 -1.6 -1.6 -1.6 -1.6 -1.6 -1.6 -1.6 -1.6 -1.6 -1.6 -1.6 -1.6 -1.6 -1.6 -1.6 -1.6 2.5 3.6 7.2 14.9 21.3 27.5 29.2 33.7 40.3 51.6 62 69.5 89.9 104.8 116.2 126.2 134.9 143.2 144.7 137.3 131 131.2 149.9 149.6 144.3 150.1 151.2 148.6 150.5 152.7 160.5 170.2 175.3 178.4 168.5 157.8 155.2 146.8 139.1 143.2 141.3 138 137.9 137.9 138.2 132 135.5 130.6 122.5 139.4 168.3 185 212 222.2 228.3 247.4 256.2 253.8 258.7 262.8 266.6 268 272.1 273.6 280 287.4 292.8 296.8 300.2 299.5 301.9 305.7 305.5 302.7 300.6 303.1 306.3 310.7 315.5 317.5 322.6 337.7 356.7 387.9 413.1 428 448.9 476.1 503 501.1 496.4 494 489.9 488.6 495.8 488.6 481.6 485.6 490.7 493.2 491.8 481 491.4 502.8 500.1 503.6 489.5 475.9
289.5 290 284.4 277.3 267.7 259.8 265.9 264 254 245.5 248.1 253.1 242.8 240.4 233.9 231.3 229.2 228.2 226.3 214.4 193 175.1 156.1 132.7 116.6 103.3 87.8 72.4 54.4 37.4 32 38.3 41.4 45.3 49.7 50.5 52.4 57.7 62.2 74.2 64.9 67.8 78.6 96.2 106.9 117.1 127.1 137.1 149.9 157.4 151.6 149.9 143.7 134.1 113.7 93.5 80.4 68.6 55.9 44.8 39.9 37.6 37.3 35.7 35 33.7 34.7 37.9 35.2 27.9 16.2 2.8 1.1 0.1 -1.6 -1.6 -1.6 -1.6 -1.6 -1.6 -1.6 -1.6 -1.6 -1.6 -1.6 -1.6 -1.6 -1.6 -1.6 -1.6 -1.6 -1.6 1.6 3.1 6.3 7.9 21 24.4 28.4 33 43.9 49.3 56.4 69 87.7 100.9 111.7 125.5 135.8 142.4 141.3 145.2 135.6 128.7 128.8 130.7 136.2 141 138.8 140.2 136.9 140.8 145.9 154.6 156.6 154.4 140.3 138.4 139.3 134.2 127.9 134 136.1 129.7 132.2 130.8 128.8 120 121 110.9 120 147.8 166 188.3 202.7 217.5 228.4 234.4 246.4 254.5 258 260.2 260.8 262.6 262.5 261.8 266.4 276.9 277.1 284.2 291.9 294.6 301.3 305 301.2 300.3 298.8 301.4 302.6 304.6 306.5 310.3 313.7 322.3 337.8 370.1 387 405.3 419.4 452.1 476 496.1 492.6 489.9 486.1 477 473.5 473.3 470.3 471.8 473.3 475.7 478 467.7 484.1 488.1 487.8 489 470 456.1
285.5 284.8 283.8 276.3 269.1 256.9 255.8 256.3 247.7 229.8 239.2 242.9 239.7 230.9 230.4 227.5 227.4 222.1 215.8 204.9 186.9 165.1 143.9 124.1 110.6 99.9 86 69.7 50.3 38.1 40.8 48.5 55.9 61.4 68.6 70.7 74 75.2 69.3 78 79.3 78.6 87.9 99.1 108.6 121 132.6 141.7 158 165.2 173.7 172 166.6 161.2 148 118.4 95 77.1 62.2 52.5 45.9 43.7 44 41.6 39.1 35.8 34.1 32.5 30 25.2 12.7 5 2.8 1.8 0.5 -1.6 -1.6 -1.6 -1.6 -1.6 -1.6 -1.6 -1.6 -1.6 -1.6 -1.6 -1.6 -1.6 -1.6 -1.6 -1.6 -1.6 -1.6 -1.6 3.4 3.1 11.7 21.7 31.7 35.5 42.1 48.9 52.5 67.5 79.2 92.9 107.1 123.3 136.2 136 138.9 141.5 134.4 127.1 125.6 123.6 125.7 125.6 124.7 125.4 125.8 128.6 128.8 128.7 132.7 129.1 121.5 121.5 122 119.5 115.8 120.8 126.2 125 117.1 117.3 116.6 112.5 100.4 113.9 134.5 150.1 164.7 176.8 190.6 208.1 228 241.8 250.5 252.7 255.9 255.2 257.4 261.2 259.9 260.2 259.7 269.4 273.7 280.6 287.6 293.4 296.7 300.9 296 295.4 297.5 297.6 297.5 300.6 299.9 300.7 303.5 308.2 324.5 346.5 367.7 383.5 393.7 415.4 439.2 490.3 486.4 483.5 482 473.6 469.7 467.7 463.7 466.6 466.9 467.3 465.4 461 476.4 478.3 466.4 450 438.3 432.8
283.6 281.6 277.9 269.7 264.2 255.8 244.2 243.3 236.5 225.3 224.8 230.5 231 225.2 226.5 224.8 221 219.5 207.3 197.7 177.6 154.8 134 117.8 104.3 91.9 79.9 65.7 50.5 42.8 48.4 55.4 63.4 73.5 82.5 88 90.5 91 85.7 85.8 89.4 94.7 90.4 104.1 112.5 122.3 133.6 142.8 167.4 175.9 195 195 192 183.9 187.5 153 110.1 92.4 75 63.5 55.7 52.1 55.1 51.5 46.1 42.1 38.9 35.4 32.4 28.6 18.8 10.1 8.4 5.3 1.7 0.4 -1.6 -1.6 -1.6 -1.6 -1.6 -1.6 -1.6 -1.6 -1.6 -1.6 -1.6 -1.6 -1.6 -1.6 -1.6 -1.6 -1.6 -1.6 -1.6 -1.6 10.1 19.9 29.3 33.8 41.5 45.9 51.2 64.2 74.7 87.5 102.7 115.8 128 127.5 130.6 136.2 129.2 119.1 122.2 119.1 117.5 118.5 117.5 118.5 117.8 117.6 113.3 108.5 115.1 117.1 114.3 109.1 107.5 109.8 103.4 108.6 113.8 112.9 106.7 108.1 101.8 91.9 99.3 123.1 143.1 156.4 165.8 173.3 186 201.2 218.6 237.8 250 248.2 252.4 251.6 249.6 252.8 252 249.9 253.7 253.5 264.6 274 277.6 283.4 287.7 291.8 290.2 290.9 293.7 295.7 290.8 289.2 292.4 294.9 297.1 302.9 310.7 331.7 359.3 375 380.3 388.3 406.8 456.4 480 476.4 470.4 467.4 460.5 460.8 455.3 456.3 456.7 457.3 453.4 445.8 456.4 462.8 443.8 422.3 412.3 407.2
281.7 276.2 270.4 263.6 257.6 250.5 234.6 227.5 222.6 212.6 199.2 211.5 216.8 220.6 213.2 214.9 208.7 201.8 190.2 180.4 163.7 144.6 128 111.5 98.6 87.5 76.5 63.1 52.8 42.2 48 58.7 68.5 80.2 94.2 105.6 109 106.4 102.6 98.9 96.1 101.4 99.9 99.5 111.6 126.8 140.1 147.6 169.3 183.5 201 205.3 202 196.6 194.5 156.5 138.6 120.5 90.6 77.2 68.5 62.1 59 57.1 55.2 53.6 48.4 43.5 37.1 35.7 30.2 18.4 14.5 10.2 6.3 2.2 1.6 1.8 -1.6 -1.6 -1.6 -1.6 -1.6 -1.6 -1.6 -1.6 -1.6 -1.6 -1.6 -1.6 -1.6 -1.6 -1.6 -1.6 -1.6 -1.6 7.7 17.9 27.3 32.9 39 38.8 50.3 61.3 74.2 86.1 99.6 107.8 117.1 119.2 123.5 124.1 112.8 110 114.4 113.5 114.1 111.5 109.5 109.5 108.9 111.3 108.8 98 102.5 108.3 109.1 106.7 96.1 95.7 92.1 90.8 95.4 94.7 91.5 94.2 83.3 88.7 99 114.9 129.4 144.7 155.4 162.1 170.7 182.7 198.3 222.2 229.2 234.8 239.7 238.8 237.9 244.2 242.3 242.5 243.5 249.3 253.2 261.9 264.1 270.5 272.9 275.8 281.1 282.2 282.6 282.9 283.4 285.9 288.1 288.5 294.5 300.2 304.7 312.6 327.4 346.4 369.7 371.3 380.6 415.1 470.2 468.6 462.4 459.9 451.8 451.7 448.6 451.2 451.1 448.3 439.3 425.3 426.8 423.1 416.7 404.6 396.9 389
280.9 265 260.2 257.9 251.5 239.7 227.8 212 207.5 196.4 183.9 194.6 196.7 198.2 196.6 196.8 192.2 186.1 174.5 161 149.3 136.2 121.5 104.6 93.9 84.1 73.2 61.9 54.1 42.8 58.7 60.4 71.6 84.3 104.2 122.6 129.9 129.4 123.5 122.2 112.1 107.5 105.9 113.3 115.3 131.5 154.7 167.9 176.8 192.6 200.3 215.8 207.4 202 200.3 183.8 173.3 146.1 118.6 96 82 68.9 63.2 62.4 61 59.9 56.4 53.7 53.3 48.6 38.1 34.5 30.1 26.3 22.1 18.4 17.1 17.9 19.5 12.8 6.2 1.7 1.2 1.9 1.6 -1.6 -1.6 -1.6 -1.6 -1.6 -1.6 -1.6 -1.6 -1.6 -1.6 -1.6 2.8 14.4 23 32.2 32.6 34.5 48.2 59.2 73.3 82 91.2 98.1 104.7 111.2 112.9 104.3 104.7 107.3 108.2 100.2 101.6 100.6 101 101.5 100.9 103 102 96.8 82.8 90.7 94 94.3 86.9 87.2 84.4 81.8 84.4 83.5 82.1 82.3 81.2 87 101.5 109.1 116.7 127.8 139.4 149.5 158.9 170.3 183.7 198.1 209.4 215 219.7 228.8 231.8 233 235.1 236.3 236.3 240.5 243.3 246.9 256.8 264.9 260.5 263.8 266.9 263.9 270.9 279.3 282.7 283.1 285 288.1 294 298.8 298.1 299.3 312.3 317.6 335.7 352.5 357.1 379.9 417.5 459.9 453.6 451.7 447.3 444.3 443.8 444.4 444.7 442.4 423.3 409.4 396.8 392.6 393.1 394.8 389.5 383
279.6 265.7 252 249.7 242.1 229.7 213 202.2 192.1 182.9 176 176.9 179.4 180.2 181.1 179.5 175.4 167.6 156.9 148.7 138.7 128.1 114.5 98.8 88.9 79 70.6 60.6 53.5 46 60.3 60.9 75.4 89.4 111.1 127.4 134.5 136.5 132.3 133.4 132.6 130.9 124.1 124.5 127.2 140.9 164.2 173.9 181.6 194.5 199.2 219.3 218.3 205.3 200 209.8 209.7 188.8 148.6 122.3 98.9 79.6 67.2 66.7 67.5 74.1 70.4 67.1 66.2 63.5 49 43.7 41.8 41.3 39.2 34.3 32.4 29.2 27.2 30.6 25.4 17.3 9.9 5.7 5.7 5 1.1 0.1 -1.6 -1.6 -1.6 -1.6 -1.6 -1.6 -1.6 -1.6 -1.6 9 17 23.3 27 31.7 37.9 58.6 73.3 83.5 91.8 93.2 98.3 99.3 94.1 95.5 99.3 98.4 90.7 90.2 92 93.3 92.8 97.4 82.7 86.7 84.5 77.4 76.4 78.2 83.3 82.4 83.8 75.1 73 71 76.5 79.1 75.6 77 77.8 91.3 103.5 111 121.2 125.6 133.3 139.4 141.5 152.4 163.6 177.3 186.9 197.5 204.4 212.1 215.8 218.7 222.9 225.8 229.2 229.5 230.6 230.7 236.1 236.6 236.4 247.4 251.9 259.4 268.7 276.8 278.6 281.1 283.7 289.2 294.6 296.6 295.6 294.2 295.6 302 305.2 318.2 332.7 359.4 400.9 446.2 445.1 445.6 443.5 437.5 440.5 441.2 442.5 437.2 410.1 394.7 383.9 381.6 388 392.4 385.6 377
272.1 255.8 243.7 236.7 231.8 224 209.5 193.5 183 171.1 164.6 166.2 168.2 167.1 166.9 164.5 158.6 152.7 146.9 138.3 128.9 118.5 106 93 82.6 75.9 67.9 58 56.4 52.6 61.5 67.9 82 95.6 117.1 127.4 135.4 137.7 137.2 140 142.9 140.8 137.1 131.9 134.4 147.8 163.5 171 182.7 194.6 199.5 216.9 220.1 208.3 209.2 223.1 228.6 225.5 185.6 152.9 123.9 100.8 83.4 77.3 75.3 78.3 80.7 75.8 72.6 65.7 74.1 70.6 66.9 68 63.7 54.5 49.3 42.4 38.7 34.7 38.2 38.7 28.4 21.8 15.6 8.1 6.6 2.2 1.4 -1.6 -1.6 -1.6 -1.6 -1.6 -1.6 -1.6 -1.6 -1.6 7.2 10.8 15.8 24.6 37.6 53.3 68.6 80.7 83.8 92.9 93.3 85.3 80.2 78.1 78.7 76.2 79.8 83.7 83.4 83 81.3 80.2 70.6 71.1 72.1 75.4 75.3 72.3 71.8 73.2 75.8 70.8 72 73.5 78.8 86.8 77.7 76.2 87.7 85.1 99.4 105.8 114.1 121.6 126.9 134.3 140.1 136.6 144.9 158.7 174.6 179.3 183.4 190.2 196.2 200.7 205.5 211.7 216.6 218.9 215.2 213.1 206.2 212.5 231.2 245.1 251.1 259.8 263.1 272.2 274.3 277.8 283.5 289.6 294.5 296 295 291.1 289.5 289.9 290.8 296.8 311.2 338.4 378 437.6 435.8 438.2 440.8 426.4 429.2 437.2 437.9 425.6 400.6 387.1 378.9 376.1 377.1 381.7 382.6 374.9
258.8 248.3 237.6 226.3 219.2 215 203 188.7 177.6 168 157.2 157.7 159.3 159.2 157.2 153.7 147.7 142 135.8 127.2 119.3 108.5 96.8 85.9 78.7 72.2 63.6 61.5 60 62 68 73.2 87.4 105.3 123.4 128.8 134 139.8 140.5 143.9 144.8 146.5 145.4 139.5 138.7 146.6 162.3 170.9 178.7 192.3 204.1 216.8 217.8 209.4 218.8 223.9 239.2 246.2 234.9 183.5 152.7 129 111.1 101.8 99.8 95.1 89.8 84.7 83.7 81.2 101.3 104.5 101.8 105 102.2 87.1 69.6 65.4 59.9 53 47.7 44.9 46.7 37.1 21.5 19.7 12.4 5.1 5.2 -1.6 -1.6 -1.6 -1.6 -1.6 -1.6 -1.6 -1.6 -1.6 -1.6 -1.6 3.8 15.7 32.6 51.3 63.9 69.5 75.6 89.3 80.2 72 68 60.8 70.3 74.9 71.5 72.5 75.8 74.1 69.7 65.2 63.6 67.8 69.1 66.8 67.5 63.5 63.4 65.9 68.9 58.5 72.4 75.6 82.4 84.2 86.7 101.1 106.2 100.7 101.3 100.4 107 112.4 118.2 123.7 128.5 130.7 139.7 149.7 150.9 157.7 166.3 168.9 177.6 181.6 189.1 191.7 193.5 194.8 187.7 189.8 206.3 222.8 233.3 236.7 245.8 252.1 258.4 266.5 266.5 273.2 279 285.8 290.4 292.2 292.1 289.2 287.3 288 289.1 287.1 297.1 324 360.4 415.6 424.2 424.8 423.5 420.4 419.4 422.9 422.3 413.5 389.9 382.4 378 371.8 373.8 372.6 372.4 364.3
249.8 239.2 230.9 222.7 215 204.6 197.4 186.8 175.1 167.6 156.8 153.5 152.8 151.1 148.4 143.6 138.2 132.2 124.7 117 107.9 97.5 89 80.9 75 68.4 65.1 65.9 62.2 67.6 72.6 80 93.3 111.3 126.1 133.4 138.7 145.8 147.5 147.6 149.7 152.8 154.3 152.6 148.2 146.1 164.8 169.8 178.8 194 205 214.7 217.1 211.8 226.5 229 241.3 251.2 250 242.8 207.8 163.3 147.1 142.6 140.5 129.4 117.1 104.8 99.3 101.1 114.8 112.3 119.9 116.1 119.9 121.2 93.9 76.4 77.2 75.1 67.4 53.4 49.5 40.1 30.4 17.9 9.2 3.4 2.5 4.9 -1.6 -1.6 -1.6 -1.6 -1.6 -1.6 -1.6 -1.6 -1.6 -1.6 -1.6 6.3 24 42.5 53.1 58.3 70.7 65.8 60.8 53 45.7 53.9 63.3 67.5 63.7 71.8 69.3 72.6 64.5 59.1 57.8 59.6 60.4 56.3 57.8 56.4 60.3 62.3 56.3 50.3 71.4 78.3 83.6 90.9 111.8 116.4 115.9 117.7 115.3 108.9 106 107.3 112.4 116.9 119.4 124.2 130.5 140.7 144.8 148.5 150.4 151.7 152.8 159.9 164.5 170.1 168.8 170.2 180.6 191.5 204.1 213.4 221.8 227.5 225.4 236.1 241.4 248.2 252 258.5 265.4 276.5 285.2 287.9 287.9 287.2 285.2 284.9 285.1 284.7 293.9 315.7 350.1 401.9 414.8 413.4 410 407.7 410.4 412.6 410.1 399 386 381.5 373.2 369.2 371.2 375.6 372.6 360.6
239.3 232.5 226.2 218.9 212.2 201.6 191.9 185 174.2 165.7 155.4 145.9 144.2 143.7 137.2 135 129.7 123.8 114.1 104 94.7 88.8 84.1 77.8 72 64.6 70.8 69.3 64.6 72 76.2 86.5 102.5 116.9 128.2 136.6 139.9 148.7 155.4 152.2 154.9 155.4 154.6 157.9 156.3 162.1 170.5 175.3 177.9 192.1 203.4 211.7 215.7 218 232.5 242 249.3 251.7 258.7 263.8 257.9 232.4 200.9 201.5 202.7 188.8 157.8 129.4 130.7 126.9 141.6 133.2 141.6 145.4 125.2 145 123.1 102.2 80.9 87.1 83.6 71.5 56 48.2 32.1 15.4 13.3 4.8 2.3 1.7 -1.6 -1.6 -1.6 -1.6 -1.6 -1.6 -1.6 -1.6 -1.6 -1.6 -1.6 -1.6 7.4 24.1 30.4 38.3 42.5 38.7 34.5 33.3 44.3 47.4 49.1 52 51.3 58.6 64.9 68.6 57.3 54.2 54.1 49.6 51.5 51.8 54.4 51.4 57 53.7 45.1 68.6 68.5 77.1 99.2 114 120.7 123.1 130.3 130.2 127.9 122.3 116.8 109 108.7 113.3 114.1 117.4 124.2 130.9 135.2 140.1 144 147.1 150.9 152.4 149.8 147 156.4 170.7 181.2 193.8 202.9 208.3 210.7 215.8 221.5 229.2 232.6 243.4 250.8 254 263.2 269.5 281.5 283.7 283.4 283.4 283.3 282.4 281.7 283.6 288.3 307.4 338.7 387 406.7 404.9 401.7 398 397.1 395.4 395.2 385.4 378 370.8 367.7 363.2 368.4 374.8 373.1 373.2
232 226.4 221.1 214 207.7 197.7 190.6 180.4 171 166.9 157.8 155.2 150.5 144.7 139.2 133.2 120.8 106.6 97.2 88.1 83 80.4 78 73.6 67.6 70.4 75.9 77 72.2 76.3 86.4 94.2 107.4 120.5 129.5 136.3 142.8 148.2 155.2 157.6 159.9 161 163.4 163.6 164.1 169.6 174.7 179.3 185.7 194.9 209.7 211.3 215 225 242.2 246.9 261.9 266.9 265.2 270.7 273.1 266.4 249.6 247.7 239.2 221.5 182.1 170.7 192.1 169.8 176.2 158 166.2 161.4 157.3 140.7 143.4 132.8 109.5 89.1 94.7 90.1 74.7 60.1 42.7 26.4 17.3 16.2 5 -1.6 -1.6 -1.6 -1.6 -1.6 -1.6 -1.6 -1.6 -1.6 -1.6 -1.6 -1.6 -1.6 -1.6 -1.6 14.5 17.4 8.9 8.1 12.1 24.6 32 35.9 32.8 37.3 45.1 50.6 54 55.7 50.8 46.8 47.6 44.3 46.2 48.6 53 50.8 49.5 41.7 52.7 67.4 81.6 94.2 110.1 125.8 136.5 137.8 142.1 142.1 136.6 133.9 130.2 120.5 112.8 110.6 112.2 114.9 117.7 122.6 127.1 129.5 134.6 141.9 141.4 139.4 151.1 156 166.5 177 181.6 197.3 209.4 210.1 211.6 217.4 227.2 228.4 233.1 237.9 244.5 250.5 254.3 265.5 277.6 282.2 280.9 281.4 281.3 280 281.9 282.9 283.8 295.9 323.5 359.5 394 395.5 393.2 385.8 384.3 379.9 380.6 373.5 373.2 364.2 359.3 358 364.6 369.8 372.7 373.1
226.1 221.4 215.2 212.4 208.8 197.4 189.9 176.5 176.6 173 167.5 161.5 155.8 147.7 143.3 137.2 131.5 119.1 104.7 97.1 92.3 82.2 77.5 72.8 78.5 79.1 82.8 83.2 84 85.4 94.5 101.4 111.7 122.5 128.7 135.3 143.4 144.8 154.1 160 164.3 166.4 168.1 168.5 170.3 173.9 180.3 184.9 188 192.7 207.7 209.9 213.9 231.5 250.3 254.6 272.2 279 273.8 270.4 273.2 273.4 267.7 264.3 261.4 237 204.5 220.6 216.1 211.8 197.4 181.1 171.4 171.4 170.5 162.6 158.7 148.8 142.5 113.8 106.7 98.1 86.7 71.6 56.6 35.7 26.7 19.4 14.7 4.4 -1.6 -1.6 -1.6 -1.6 -1.6 -1.6 -1.6 -1.6 -1.6 -1.6 -1.6 -1.6 -1.6 -1.6 -1.6 0.8 2.3 4.6 14.1 21.9 26.1 23.5 24.4 28.4 36 43.5 42.6 40.8 36.2 36.7 33.7 38.6 43.6 47 39.5 29.4 33.7 54 72.1 88.9 103.4 114.9 118.3 131.1 139.8 150.5 151.7 151.4 146.2 143.1 139.1 133.5 122.6 116.2 112.8 114 116.8 119 119.9 122.2 125.9 132.5 140.5 146.5 155 156.5 161.9 170.6 176.4 189 198.3 208.6 211.2 215.8 220.5 223.3 231.2 234.2 240.9 246.6 256.5 268.1 277 277.9 279.4 279.5 279.4 279.4 283.3 283.4 283.3 287.3 309.3 342.1 372.7 380.3 377.2 373.3 371.2 372.5 372 361.7 358.3 355 349.6 351 358.2 364.9 370.8 370.8
218.1 214.3 212.7 210.6 208.4 200.1 191.3 185.1 182.2 179.5 176.7 170.1 162.8 155.5 145.1 142.9 134.3 126.6 114.4 106.6 93.7 81.4 76.5 75.3 84.8 85.2 86.9 87.7 91.8 94.7 93.4 106.7 112.9 119.4 126.9 131.3 138.5 146.7 150.9 156.9 161.6 167 173.9 172.8 173.5 182.1 184.2 189.6 193.3 193.4 205.3 208.9 217.7 232.9 253.8 268.5 277.2 300.9 284.1 274.9 273.7 273.6 272.1 271 267.9 255 246.6 244.5 237.2 228 222.5 205.8 184.8 175.6 172.3 178.5 158.3 161.2 167.2 146.8 114.2 103.5 91.4 81.2 65.2 47.3 35.5 25.6 18.7 14.1 -1.6 -1.6 -1.6 -1.6 -1.6 -1.6 -1.6 -1.6 -1.6 -1.6 -1.6 -1.6 -1.6 -1.6 -1.1 0.1 1.4 4 16.4 18.4 21.9 21.7 20.6 21.9 29.2 27.8 28.7 27.1 28.8 31.4 17.6 22.7 22.8 23.3 41.1 45.7 53.8 70.3 85.2 100.4 112.1 124.7 133.9 134.6 144.8 150.4 157.4 157.5 156.8 155.6 148.6 142.1 133.6 124.6 116.3 112.9 116.4 117.4 119.4 121.7 126.4 135.1 138.5 144.9 149.6 155.1 158.6 165.7 169.4 175.3 182.9 197.5 211.5 212.5 213.3 217.4 217.5 225.6 236.5 241.8 251.4 262.3 274.8 275.8 276.3 278.4 278.1 279.3 288.1 288 283.5 284.3 300.8 336 356 362.5 368.8 364.9 366.4 364.7 366.3 350.1 352.9 345 345.4 347.8 349.8 359.3 366.2 367.1
216 212.7 210.9 210.1 208.5 205.4 201 194.4 190.2 187.7 182.5 179.4 170.3 157.8 149.1 147.2 140.9 130.3 123.4 114 100.3 83.6 76.3 83.1 90.8 92.7 95.3 97.9 106.2 108.3 109.3 107.2 110.8 117.3 124.9 127.2 135 143.6 149.8 153.6 157.7 162.3 168.9 172.4 172.9 182.5 184.2 191.4 192.9 195 202.6 209.3 217.6 230.2 252.1 279.3 282.6 298.1 289.9 279.3 274.8 273.8 273.6 275.1 272.4 262.6 251.5 267.2 262.4 245.7 232 220 223.1 197.2 182.1 178.5 176.5 161.2 174.6 174.5 138 114.8 87.4 84.7 66 52.5 41.5 30.9 22.7 15.7 3.2 -1.6 -1.6 -1.6 -1.6 -1.6 -1.6 -1.6 -1.6 -1.6 -1.6 -1.6 -1.6 -1.6 -0.7 0.4 1.4 3.9 9 8.6 16.8 18.2 16.5 20 22.4 25.2 18 11.4 13.6 25.2 31.1 35.3 40.9 48.2 51.6 60.8 66.4 83.6 93.7 107.8 124.3 136.3 148.6 154.8 152.1 155.2 159.4 165.3 162.1 160.5 154 147.4 140.6 132.6 125.1 115.8 117.7 116.4 120 119.9 123.6 132.6 135.7 140.6 145.2 148 153.4 156.3 162.2 167 172.6 181.4 199.3 205.3 202.4 207.3 207 218.3 228.5 234 248.2 255.3 266.6 269.3 274.4 277.8 277.5 277.9 285.5 288 284.1 284.7 295.3 320.3 347.9 353.3 352.7 353.9 354.7 352.8 350.8 338 342.7 336.6 338.3 336.8 346.9 355.8 363.2 363.9
215.7 215.8 215.7 213.7 212.9 210.8 208.2 205.5 200 195.1 191.6 185.5 179 165.3 156.2 151.8 147.8 135.1 128.9 120.3 107.9 91 81.8 91 97.6 98.9 102.7 108 114.5 116.6 116.6 114.6 114 116.4 121 126.9 127.7 137.9 142.7 146.3 148.3 152.8 160 166.2 165.4 179.2 185 191.1 191.4 196 203.2 207.3 215.8 230.4 248 279.7 277.9 290.3 297 286.4 277.7 273.6 273.7 275.7 273.6 264.8 265.2 271.7 278.9 271.7 256.2 237.8 230.8 222.2 196.4 187.9 189 184.6 175.9 179.7 150.4 119.1 100.4 88.4 73.7 61 44.3 34 28.2 19.1 9.9 0.8 -1.6 -1.6 -1.6 -1.6 -1.6 -1.6 -1.6 -1.6 -1.6 -1.6 -1.6 -1.6 -0.2 0.6 1.5 2.3 2.7 3 5.1 9.4 13.7 16.2 19.5 20.7 10.7 14.9 22.4 28.7 32.8 35 43.6 55.8 66.8 79.2 75.2 95.4 105.6 118.4 132 144.5 159.5 162.7 166.8 162.5 164.4 167.4 168.9 167 162.7 156.1 149.2 139.3 127.6 125.4 125.6 123.5 121 120.4 124.2 127.8 132.1 135.7 139.9 142.3 145.7 147.6 153.7 157.9 164.6 175.6 187.7 191.8 190.4 193 201.1 210.8 219 224.6 241.1 248.7 255.4 261.3 268.7 275.7 275.5 276.9 278.1 281 281.6 285.7 286.3 297.9 317.2 332.2 343.4 339.5 340.3 335.7 333.3 320.4 332.4 334 326 328.4 336 348.4 352.2 355.9
220 220.2 219.6 220.8 217 216.4 214.1 213 210.4 206 197.9 192.8 185 177.7 163.4 162.3 154.4 145.6 132.1 130.4 116.9 101 84.7 96.5 104.4 106.8 109.7 112.5 117.7 120.9 120.5 120.2 120.2 123 126.9 132.8 133.2 133.7 137.7 139.8 144.5 147.5 154.5 159.1 156.3 171.6 179.3 187.1 190.9 198.1 202.4 207.9 216.2 228.8 244.3 275.5 276.2 283.1 294.4 299 281.3 273.2 271.8 273.9 272.8 269 268.9 268.9 282.9 279.6 270.8 252.8 239 233.8 210 197.3 198.2 204.4 180.3 180.2 154.7 127.8 112.9 110.7 96.8 77.5 57.8 39.5 32.1 28.6 20.2 2.2 -1.6 -1.6 -1.6 -1.6 -1.6 -1.6 -1.6 -1.6 -1.6 -1.6 -1.6 -1.6 -1.2 0.3 1.7 2.1 2.4 3 4.6 5.8 6.9 9.2 14 16.2 11.6 15.4 24.6 30.3 35 40.8 51.5 62.6 76.9 87.3 97 113.9 122.1 126.6 137.8 156.7 162.3 169.9 176.8 180 172.7 171.5 174.3 174.8 172.7 168.5 154.9 150 142.3 137.4 136.5 130.6 124 122.8 121.7 127.5 130 131.8 135.9 140.3 143.4 145.1 148.1 156.1 158.9 163.4 176.5 178.2 179.8 184.4 192.1 199.5 205.1 216.4 231.4 241.6 250.2 257.2 261.9 265.1 269.1 272.2 273.6 274.2 275.6 283.9 281.6 278.1 283.6 279.9 286.7 294.2 293.6 296.9 297.7 301.2 321.3 324.4 322.2 317.6 327.7 339.1 344.3 349
224.6 223 221.9 223.6 225.6 225.2 220.7 220.4 216.7 215 211 202.3 195.2 186.2 174.4 165.4 163.1 150.5 137.9 126.9 118 101.9 89.9 104.6 109.5 113.1 116.2 117 120.3 124.2 123.9 124.2 125.2 127.3 128.6 136.2 135.6 135.3 136.4 137.8 140.3 146.2 148.8 154.1 153.3 162.5 173.2 183.2 191.6 198 202.8 211.1 218.1 223 238.2 250.9 269.2 272.5 293.6 296.1 285.9 272.4 269.6 270.5 269.3 269.3 269.4 269.6 282.8 281.4 273.5 265.1 249.3 239.3 213.9 207.2 210.9 205.6 195 184.7 157.2 149.2 140.6 133.4 123 103.1 79.1 51 40 35 30.2 14.6 1.7 -1.6 -1.6 -1.6 -1.6 -1.6 -1.6 -1.6 -1.6 -1.6 -1.6 -1.6 -1.6 -0.7 -1.6 1.9 1.9 3.2 4.8 5.7 6.6 7.6 8.3 10.1 8.7 17.2 27.6 34.8 46.2 52.8 63.3 70.7 85.2 98.5 109.7 119.1 130.3 143.1 154.7 159.3 166 171.7 184.4 195.6 183 179.7 175.1 178.4 175.9 173.3 165.4 159.9 153.8 149.7 147.9 141.3 131.1 130.3 128.8 124.3 126.3 130.3 134.5 137.5 141.9 144 142.8 147.2 155.5 158.4 160.6 166.3 170.7 176.6 187.1 189.8 189.9 204.2 217.7 228.6 239 245.3 249.5 256 263.1 266.9 268.9 269 269.9 272.7 273.6 266.3 261.8 266.4 262.9 265.6 270.1 272.9 273.7 286.2 303.3 308.9 313.4 314.5 319.4 327.8 336.8 344.6
230.8 229.2 226.1 229.2 229.4 228.3 227.6 226.6 226.3 223.8 218.3 213.4 204.8 193.1 181.5 172.4 165.1 156.9 142.4 130.8 118.3 102.5 88 106.2 112.9 119.5 122.2 122.7 123.1 126.1 127.5 129.1 133.1 134.9 134.9 136.8 139.3 141.2 140.7 141.5 144.1 150.1 149.7 151 153.2 159.8 168.2 178.1 188.9 195 198.3 211 218.6 221.4 231.1 238.9 247.4 256.1 266.9 273.4 274.4 275.3 267.3 266.7 266.6 268.3 275.2 277 283.6 283.8 281.3 273.9 267.9 249.3 235.3 231.6 230.6 237.3 226.1 212.9 186.4 183.7 179.5 155.6 133.6 118.2 97.1 69.6 49.3 39.4 33.7 28.7 12.3 0.8 -1.6 -1.6 -1.6 -1.6 -1.6 -1.6 -1.6 -1.6 -1.6 -1.6 -1.6 -1.6 -1.6 2.5 2.6 3.3 4.6 5.5 6.3 7.3 8.2 6.8 12.9 22.8 31.4 43.2 57.9 68.1 77.9 88.3 99.8 113 123 131.8 142.5 151.5 165 170.1 170.7 191.2 190.4 197.5 193.1 186.2 182.7 180.6 176.5 174.7 173.4 167.7 164.7 160 154.4 151.6 142.2 139.6 133.9 131.7 128.5 129.3 133.7 136.4 138.2 140.2 139.5 142.3 148 154.1 153.3 157 156.9 166.5 171.2 174.3 179.8 200.4 204.9 216.5 228.4 234.6 239.1 249.4 253 258.2 261.4 259.3 268.5 266 261.6 261 251.6 257.7 256.1 251.3 255.4 260.2 262.2 267.5 284.7 292 299.3 309.5 313.5 316.9 332.9 343.2
233.4 237.4 237.6 231 234.4 233 234.8 233 232 229.9 226.7 221.9 214 203.5 190.2 181.2 170.6 162.3 150.7 139.1 122.9 108.2 106.2 103.7 116.3 121 123.3 124 125 130.1 134.2 135.5 138 141 143.9 145 144.5 146.3 146.7 147.4 149.8 152.6 151 148.7 152.6 155.5 166 173.2 185 189.3 195.6 205.5 215.8 219.9 225.6 233.4 237.1 244.8 256.7 263 268.3 269.8 265.2 262.9 266.8 287.5 294.9 292.3 291.6 288.6 286.3 283.6 280.1 266.7 249.6 251.5 254.4 250.5 250.8 247.7 205.4 201.7 199.8 186.3 148.8 126.6 108 82.5 62.5 47.2 36.4 31.6 16.9 3.2 -1.6 -1.6 -1.6 -1.6 -1.6 -1.6 -1.6 -1.6 -1.6 -1.6 -1.1 -0.5 1.9 2.6 2.8 2.6 4.1 4 4.9 5.2 7.2 9 16 26.9 37.8 53.8 68.5 81.2 93.1 100.6 115.6 126.4 138.3 145.9 157.4 159.9 165.4 182.7 182.9 192.9 208.3 205.2 202.9 197.4 188.3 182.4 183.3 181 177 177.4 170.9 169.9 159.3 157.3 159.8 149.8 139.4 137.2 131.5 131.2 132.8 136 138 138.1 137.8 140.7 145.9 148.6 147.7 153.2 153.3 157 159 162.8 177.3 185.2 199.3 207.4 208.6 221.9 227.8 232.9 240.9 246.1 250.7 248.7 259.7 259.8 256.6 251.8 245.2 243.1 244.3 243.3 243.8 249.8 253.1 255.9 274.2 288.4 294.9 306.4 316 324.4 327.3 342.4
242.4 241.1 244.7 244.5 240.6 245.7 244.9 238.5 237.7 237.5 234.4 228.8 221.9 213.7 202.2 187.7 177.4 166.7 158.8 146 132.8 119.1 114.1 112.7 117.4 121.6 124 125.5 127.6 131.3 135.4 137.8 140.5 144.1 146.7 149.2 152 154.3 154.7 154.4 154.6 154.6 154.2 151.1 149.8 151 162.1 172.7 180.4 185.8 187.2 197.3 210.1 217.9 222.6 227.9 234.1 239.4 249.4 256.2 259.7 262.2 262.9 261 274.6 293.8 301.7 299.8 295.4 294.1 293.3 290.8 288.8 276.4 266 268.3 262.4 259.5 260.4 254.3 228.2 209.3 208.3 204.7 169.4 130.8 119.5 93.6 74.5 58 46.9 32.9 20.7 7 1.8 -1.6 -1.6 -1.6 -1.6 -1.6 -1.6 -1.6 -0.8 -0.2 0.4 1 2.3 2.6 2.7 2.9 4.5 5.9 6.5 6.1 7.1 8.7 17.1 32.1 47.3 63.3 77.3 90.4 101.9 110.4 126.7 137.3 148.1 160.2 169.8 177.8 174.7 185.7 196.8 204.8 203 212.7 208.4 204.7 195.8 189.7 187.1 191.1 190.9 188 186.6 175.7 172.9 168 166.5 160 147.2 144 139.2 135 130.4 131.6 132.1 131.8 134.3 135.8 140.7 142.3 142 143.3 152.3 151.5 154.1 162.1 173.5 181.1 187.6 192.5 200.7 204 209 218 222.4 232.2 238.1 237.8 241.1 242.5 244.5 240.7 242.1 236.2 238.4 241.9 239.9 240.4 235.6 257 270.7 283.9 292.1 304.6 311.4 324.4 339.2 334.6
247.8 250 249 250.4 250.6 252.3 251.7 252.7 251.5 247.5 241.6 236.7 229.2 220 212.2 195.8 184.7 173.8 163.3 154.3 139 130.8 123.1 119.7 112.7 121.7 124.6 128.1 129.6 133.7 137.1 139.7 142 146.7 151.8 155.5 159.4 162.5 163.2 163.1 162.5 164.2 162.7 157 153.7 153.2 163.7 172 178.2 181.6 190.7 194.5 199.6 212.8 217.8 222.1 227.5 232.9 243.4 248 255.2 258.5 260.5 258.1 278.8 293.3 300.2 303.2 300.6 300.1 299.7 295.9 289.7 286.3 279.6 272.7 276.3 271.9 261.9 265 260.2 225.2 217.3 210.8 182.8 137.2 124.6 105.8 81.3 64.4 55.4 34.8 20.3 8 6.2 2.1 -1.6 -1.6 -1.6 -1.6 -1.6 -1.6 -0.5 0.4 1.2 2.1 2.3 2.9 2.9 3.6 4.1 4.7 5.8 7 8.3 10.4 15.8 30.7 47.1 64.6 81.8 95.3 106.7 119.9 133 144.4 156.5 172.3 181.8 185.6 189.5 194.9 204.6 211.8 215.3 215.2 215.2 209.7 203.2 196.5 197.4 200 203.9 200.6 199.7 188.7 186.1 179.9 178.5 171.8 160.7 150.2 141.9 142.1 138.4 135.6 135.8 134.4 133.4 133.6 139.1 140.6 139.7 141 147.2 145.3 151.9 169.4 179 184 186.4 194 202.3 204.3 208.9 208 209.7 216.1 228.7 230.2 230.9 234.1 232.4 232.6 229.6 230.2 228.2 236.2 235.9 234.9 228.8 242.9 256.8 271 282.5 298.9 308.4 330 339.8 350.2
251.9 253.2 255.1 256.6 258.2 253 259.6 259.6 261.9 260.7 257.6 246.6 236.5 227.1 217.4 204.5 193.9 183.6 167.2 159.1 146.2 138.9 132 126.1 120.2 120.4 126.1 129.5 132 137.2 140.6 143.3 147.2 153.1 159.6 166.5 170.3 173.3 177.5 178.6 178.6 177.7 172.5 167.5 162.3 154.3 163.7 169.5 173.6 183.1 188.5 196 202.6 205.5 213.4 219.2 223.3 230.5 239.8 246 250.4 255 255.6 256.6 279.1 290.7 300 303.8 304.2 302.5 303 300.4 293.9 293.2 289.8 275.4 281.9 277.2 268.9 268.5 264.5 239.2 225.9 216.3 184.5 144 128.6 116.4 90.7 72.5 60.1 40 30.1 20 10.6 5.4 3.3 1.7 -1.6 -1.6 -0.5 0.1 0.6 1.1 1.6 2.3 2.3 2.9 3.1 3.3 3.9 4.8 5.2 6.3 8.2 11.5 16.3 31.5 48.8 64.3 79.9 96 111.9 127.5 140.5 149.7 170.2 182.6 188.8 205.2 210.2 212.4 208.7 218.5 234.1 238.5 232.2 215.7 208.4 206.7 202.6 207 210.1 212.1 205.1 204.5 195.7 189.3 185.8 183.9 179.3 167 153.2 153.2 143.7 143.3 145.8 139.4 136.7 134.9 136.5 137.6 138.1 139.3 145.7 154.9 168.7 181.9 187.2 196.5 196.7 197.8 200.6 205.2 211.1 209.6 215.4 222.5 224.4 226.9 224.2 227.7 226.6 223.8 219.7 219.8 220.9 227.8 225.9 225.4 230.3 246.6 256.9 268.1 282 300.5 310.9 325.9 341.1 353
254.7 257.3 259.3 260.8 260.7 261.7 262.5 266.1 266.7 265.9 266.4 264 248.1 234.3 224.5 212.8 201.3 191.6 176.7 164.5 154.9 147 138.7 132.2 127.5 121.2 127 130.4 134.2 139.8 143.8 147.7 154.5 162.8 168.1 175.3 182.8 186.1 186.8 187.5 189.6 189.3 183.2 175.6 172.1 165.5 165.5 167.9 172.4 177.6 185.1 192.5 203.3 203.5 211.4 217.6 226.4 230.5 236.2 240.9 245.1 250.2 250.7 261.9 278.4 292.8 302.9 306.7 305.6 303.4 303.8 302.5 298.9 298.1 293.5 288.1 284.2 284.8 277 272.7 269.3 269.2 249.7 225.7 189.8 157.5 140.8 125.9 111.2 87 67.9 55.3 45.5 46.1 41.6 16 6.3 4.5 2.5 0.9 0.9 1.4 1.9 2.3 2.3 2.3 2.5 2.6 3.4 3.2 3.5 4.9 5.2 5.8 9.8 13.8 22.2 32.1 46.7 63.1 78.6 93.9 113.4 127.2 140.1 151.5 168.5 189 197.7 209 225 225.7 223.7 228.6 234 248.6 245.1 226 214.4 210.4 212.9 211.5 216.7 221.6 217.8 212.2 206.9 196.5 189.6 185.8 182.9 176.2 170.1 162.4 153.6 149.1 150 145.7 140.5 138.9 139.7 140.7 140.2 141.3 147.2 158.8 173.5 189.8 199.8 205.7 209.7 211.5 214.3 219.9 219.5 220.5 224.3 223.1 223 221.8 220.9 221.5 218 214.2 212.4 213.5 215.8 216.4 216.6 214 218.5 238.6 252.1 259.1 277.1 297.3 313.4 328.7 339 351.4
261.9 260.6 263.5 263.2 265.2 267.8 269.2 270.3 272.4 271.7 271.7 271.8 262.3 245.4 232.8 219.4 206.5 198.3 186.1 173 163 156 145.5 138.6 132.1 127.3 126.4 132 135.4 141.2 145.9 151.8 161.2 168.9 175.4 181.7 188.2 192.5 194 197 200.8 201.2 192.5 183.4 182.6 176.4 167.8 166.5 169.5 173.3 178.6 193.2 200.3 204.1 212.5 218.4 223.1 227.1 232.9 236.6 238.5 243.2 246 260.6 272.6 291.2 300.2 303.1 303.3 301.7 301.8 298.6 298.9 298 295.5 294.5 288.3 289.3 283.4 278.8 274.1 271.4 263.9 239.2 205.1 177.3 159.4 144.3 125.9 112.5 100.7 90.4 78.7 69.9 62.8 52.1 22.7 14.4 8.7 4.3 2.3 2.3 2.3 2.3 2.3 2.3 2.3 2.5 2.8 5.6 9 12.2 9.4 9.4 10.9 18.2 26.8 37.1 49.9 63.9 77.6 93.4 110.6 125.8 141.3 153.6 164.7 182.7 201.4 208.6 220.4 228.2 231.4 231.3 239.9 245.8 242 233.3 226.5 224.9 219 221.3 220 224.5 222.3 219.6 217.6 212.1 201.3 195.5 187.5 185.8 175.1 169.8 166.6 155.9 152.9 149.8 146 144.3 144 142.1 142.9 149.4 157.6 171.7 183.7 196.3 211.6 214.3 221.7 224.8 224.6 232.4 230.5 229.6 235.3 234.5 229.6 221.8 220.7 217.8 209.9 206.8 208.4 209.2 211.2 212.8 213 208.8 215.1 230.3 245.7 258.8 272.3 293.4 309.8 330.6 341.1 343.3
266.7 267.5 269 272.6 273.8 273.7 275.8 274.4 278.9 279.8 278 276.5 272.6 258.3 242 226.1 213.4 204.1 194.5 181 167.7 159 151.1 144.4 137.6 129.5 131.5 133.2 136.5 143 148.8 159 168.1 174.6 180.2 186.3 191.6 199.9 206.5 210.5 212.2 211.4 203.5 193.8 190.8 186.4 177.5 173.5 170.3 170.4 176.5 188.1 197.6 202.4 211.4 216.7 219.6 223.8 228.9 230.2 233.8 233 245.2 254.6 266.4 282.5 292.5 293.6 295.7 301.1 297.7 295.4 294.8 295.8 296.5 296.4 294.6 290.1 290.7 283.1 277.6 274.1 269.1 251.8 227.3 206.2 188.4 171.7 156.2 142 131.4 122.7 110.9 95 79.6 59.7 36.5 29 23.5 11 3.4 2.3 2.3 2.3 2.3 2.3 2.3 3.6 4.9 11.7 21.3 25.7 19.7 11 15.5 23.8 31.3 40.9 53.9 65.5 80.7 100.3 100.9 117.7 136.8 151.7 163.7 177.9 188.5 200.5 211.7 217.6 235.2 234.7 238.5 245.4 244.7 240.9 234.7 232.4 232.1 227.7 226.3 226.2 225.4 229 225.7 218.6 214.8 204.6 197.8 194.8 188.7 180.6 172.8 168.1 157.9 153.2 148 148.5 154 152.3 152.7 161.7 165.2 176 191.6 211.7 221.6 220.6 227.2 231.6 234.1 243.1 237.8 238.6 237 234.8 230.7 224 220.4 216.6 208.7 206.2 207.4 208.2 209.6 211.5 210 206.9 210.9 229.2 244.7 253.2 265.9 286 302.9 324.3 337.9 341.6
272.9 277.4 281.9 281.3 286.4 282.2 282.4 283 284 285.7 285.6 283.1 280.5 268.3 255.1 235.9 222.8 211.2 201.5 188.9 174.5 157.3 154.4 145.5 141.6 139.6 136.1 131.4 138.1 144.1 152.2 163.5 172.4 178.8 184.3 191.4 199.2 207.8 214.1 217 214.4 213.6 211.8 201.8 196.7 193.6 185.8 184.6 177.5 170.9 174.1 185.1 192.6 198.8 206.1 214.3 215.9 220.4 224.4 227.2 228.8 232.3 240.1 249.8 261.3 273.8 285 286.5 288.5 294.2 295.4 292.7 292.1 292.9 297 297.3 297.3 291 294.6 286.5 282.2 274.5 269.8 263.3 250.6 240.4 226.8 206.4 194.6 180.6 164.9 150.6 128.6 113.8 98 66.3 50.9 38 32.7 9 3.8 2.3 2.3 2.3 4.7 4.8 6.2 3.4 6.5 14.2 22.5 27.8 23.9 19 17.8 29 37.6 43.1 54.3 68.4 85.9 107.8 120.5 128.9 129.5 144.8 160.3 173.4 182.3 190.2 199.2 212.1 227.2 231.5 235.5 242.8 244.4 246.6 237.6 243 240.5 239.4 234.6 230.5 231.7 233.6 234.3 229.3 224.5 216.8 207 207.3 201.9 189.6 183.2 168.1 161.6 157.2 157.4 158.4 159.9 160.8 164.2 170.3 169.5 180.7 204.9 221 226.8 231.3 239.6 240.7 240.1 241.5 240.8 239.5 239.2 234.4 232.3 225.4 218.3 216.5 208.9 205.7 206.7 208.2 208.4 208.1 206.2 205.6 214 227.8 242.2 250.1 261.1 276.9 295.4 319.5 332 338.1
275.8 280.9 287.4 290.6 293.8 291.4 289.1 291.4 289.1 292.1 291.8 289.6 287.7 283.7 267.3 248.7 233.5 222.7 209.5 197.4 183.3 172.9 166.5 155.2 147.2 145 141.7 138.1 140.3 145.6 155.4 166 175.8 183.2 188.4 195.6 205.2 213.3 218.8 220.9 218.1 217 216.4 210.4 206.2 201.8 195.2 194.3 187.9 180.1 174 179.8 191.2 194.9 200.9 208.1 213.9 218.8 221.6 224.5 223 224.7 235.6 247.4 258.2 266.3 272.4 278 283.1 289.5 290.4 290.7 288.4 290.5 292.9 294.5 296.5 292.2 290.3 287.9 282.9 277.1 271.8 263 253.9 251.3 242.5 235.1 218.3 201.6 182.4 163.6 146.8 122.9 109.8 78.2 50.6 39.4 19.6 7 3.3 2.3 3.3 7.8 11.9 13.1 13.2 5.9 6.1 13.6 21 24.8 24.9 23.4 24.7 31.1 38.3 44.6 57.1 72.6 100.2 119.6 134.2 141.4 149.5 159.9 164.3 163 174.1 178.8 187.1 203.6 216.2 222.9 226.3 231.1 239 246.4 243.1 242.2 243.4 246 247.1 240.9 233.5 234.6 236 235.2 229.4 224.5 217.3 216.2 213.4 196.9 188.2 174.1 171.5 168.2 169.1 168 166.4 170.3 173.9 173.5 175.6 201 213.8 224.5 233 236.2 241.2 244.7 242.2 241.3 240.6 238.1 235.1 232.1 228.6 224.2 216.4 213.2 207.5 205.2 206.9 206.9 206.5 206 205.1 205.4 212.8 223.7 238.6 245.5 259.9 272.9 291.2 314.2 324.1 338.8
290.9 292.7 295.6 297.2 298.9 300 300.8 299.4 297.4 293.5 297.8 297.1 297.2 296.2 286.4 263.4 246.2 228.5 216.6 204.6 186.9 184.7 174.7 167.4 158.1 155.1 148.8 141.2 143.2 147.8 156.7 165.6 175.8 183.6 190.1 199.5 209.3 218.2 222.5 222.9 221.2 220.7 221.1 222.5 222 212.3 204.3 203.6 198.2 189.9 184.9 177.6 187.4 192 195.8 206.6 212.6 217.9 219.8 220.8 220.2 222.4 234.7 245.9 252.7 259.9 267.7 274.1 278.4 282.6 285 283.9 284.1 286.2 287.8 290.4 293.5 294.1 287.6 284.2 282.2 280.3 274.5 266.7 253.8 251.6 250 241.9 227.1 203.9 190.8 169.8 152.5 127.2 113.2 82.3 45.6 34.7 14.6 8.2 4 6.5 6.9 10.3 15.8 18 18 14.8 7.1 12.7 16.8 18.3 20.4 23.1 30.3 38.1 43.9 50.6 61.8 81 105.7 124.7 136.8 149 161.9 171.5 177.9 180.6 180.1 184.5 194.5 200.1 206.8 214.8 220.4 228.5 235.6 236.1 239.3 245.8 246.1 246.7 252 252.9 251.6 245.8 239.2 236.8 235 227 222.9 221.6 217.9 211.5 196.7 189.1 181.5 177.3 178.5 177 173.7 173.3 175.4 176.1 189.5 207.1 217.2 237.8 244.4 243.2 247.6 247.5 245.5 246 241.5 236.6 234.6 229.5 227.3 218.9 212.3 208.9 205.4 204.6 204.8 205.5 205.3 205.4 204.6 204.4 206.3 216.3 231.6 235.7 257 270.8 285.9 310.3 323.4 342.2
315.9 310.8 312.8 320.7 316.2 322.6 318.1 317.8 306.1 302.9 302.6 302.2 300.8 299.3 296.2 278.8 255.4 238.3 222.8 211.4 199.6 190.5 183.2 177.6 170.3 160.2 157.9 149.3 143.3 151.1 157.1 165.8 175.8 184.7 191.9 201.1 211.4 223.7 228.6 229.8 227.3 225.2 224.9 225.5 227.7 223.4 212.3 208 203.1 198.4 191.1 188.1 183.9 188.8 192.2 203.2 211.1 215.9 217.6 217.3 211.8 220.6 231.3 242.2 246.2 251 261.4 268.3 272.5 275.4 278.5 281.5 281.2 280.7 284.3 285.4 287.8 286.1 279.6 279.8 277.1 275.7 277.2 265.6 257.2 251.1 248.5 245.2 234.6 213.4 188.8 169.3 153.7 128.1 108.7 79.7 51.1 34.2 27.7 22.8 10.9 6.6 13.4 15.1 18.6 23.6 25.3 20.2 14.8 15.1 14.5 15.6 17.6 25.5 38.8 51 61.7 61.9 70.6 96.1 113.6 130.2 145.5 160.4 171.8 187 189.7 188.9 197.7 202.8 206.7 210.3 214.2 221.2 228.3 229.7 239.5 246.5 249.6 246.1 247.2 247.9 251.1 257 255.1 250.2 246.7 244.7 236.6 233.6 236.9 235 229.2 221.8 217.3 204.2 189.7 188.4 189.7 189.1 188.5 186.4 183.7 187.8 198.9 216.1 237.8 254.7 272.9 269.8 260.3 253.8 251.1 250.7 243.8 237.3 233.7 227 225.1 220.1 212.7 209 205.4 203.9 203.9 204.3 204.1 204.6 204 203.5 205.1 212.7 220.3 230.7 253.1 267 281.1 305.2 319.2 335.2
331.1 326.5 331.5 332.8 328 327.7 327.5 326.7 324.5 315.2 305.3 309.5 310 306.7 301.5 290.7 267 246.8 231.6 225.5 212 200.3 191.6 186.1 180.3 172.2 166.9 159.1 148.2 155.1 159.1 165.7 177.3 185.2 192.6 202.7 213.3 227.7 237.9 242.7 237.5 233.2 231.7 230.9 232.3 227.5 219.7 215.2 208.5 198.6 200.1 194.3 188.8 186.6 190.1 198 206.8 210.7 212.5 210.8 210.9 214.1 222.7 233.4 239.1 244.4 253.2 262.3 267.4 269.2 269.7 276.9 279.7 277.7 282.7 277.3 280.2 279.7 277 276.5 275.8 273.5 270.4 262.7 254.5 252 250.5 247.5 238.6 223.1 192.4 168.9 150.9 125.1 95.5 75.7 51.6 42.7 38.8 34.8 19.1 10.9 20.2 20.8 23.4 28.3 37.5 31.2 26 22.8 19.3 17.9 18.2 25.5 49.3 64.8 74.2 73.4 85.2 103.9 124 139.6 152.3 162.6 177.9 190.1 194.8 203.1 216.5 222.3 222.4 222.1 224.5 231.4 240 246 250.5 254.9 259.4 256.1 264.5 274 275.6 269.9 265.1 255.2 251.5 239.7 242.1 244.8 240.2 240 235.6 234 232.7 217.7 207.7 205.7 200.5 200.4 197.9 195.4 195.3 200 203.3 228.6 266 281.5 287.3 289.1 282.5 272.8 262.3 256 248.8 241.3 235.9 226.9 223 217.9 212.9 212.9 206.2 203.7 203.1 203.2 203 203.8 203.2 202.8 204 210.6 216.8 231.4 250.9 262 273 298.7 312.5 330.6
350 349.4 352.1 347.4 342.5 341.7 338.5 334.2 330 327.7 316.4 315.7 318.9 317.8 309.1 296.1 277.9 254.7 245.3 232.8 222.3 208.3 199.1 193.6 188.1 181.1 173.4 167.2 158.3 153.2 161.7 170 178 186.1 195.7 205.2 215.8 231.1 244.8 250.9 246.9 241.9 241 237.3 241.2 236 229.4 220.5 215.9 208.9 206.9 203 197.8 193.4 190.1 189.3 199.9 203 204.4 202.2 205.1 209.6 216.5 223.9 230.2 235.7 241.4 250.3 257.5 260.5 260.1 267.1 272.8 273.3 271.8 272.6 270.1 275.3 275.1 276.8 277 279 271.8 265.8 255.1 252 251.2 247.7 240.1 228.2 196.6 165.1 140.2 119.2 95.3 77.3 63.6 54.5 46.3 39.8 24 17.3 28 29.5 29.3 32.1 35.8 38.5 34.9 26.1 19.8 19 18.3 26.7 43.1 68.6 77.5 82.4 97.5 119.3 136.1 155.4 167.4 177.9 181 194.7 200.2 212.8 222.2 228.8 231 232.3 237 240.2 240.7 253.8 257.8 265.1 268.7 266 276 300.1 307.4 293.6 278.2 260.9 256.2 246.7 244.7 247.6 252 248.1 241 241 240.8 228.7 220.6 215.6 213.3 210.3 207.9 209 212 217.9 220.6 247 280.3 297.3 299.1 299 289.4 284.9 269 261.4 253.3 243.4 235.8 228 220.4 215.5 210.6 209.8 204.4 204.3 203.9 203.3 203.4 202.5 202.7 202.8 203.9 209.7 214.5 230.5 252.9 259.6 270.3 297.5 313 332.9
362.5 364.8 365.3 362 356.5 355.8 353.6 348.7 340.1 332.7 327.5 323.6 322.2 322.3 318.7 303.6 276.2 269.7 253.6 243.8 230.4 216.7 206.8 200.8 195.5 188.8 181 174.7 170.8 155.8 166.4 175.1 181.1 187.3 197.9 207.4 218.8 233.7 247 253.4 250.6 248.5 250.3 248.5 252.4 248.1 239.1 228.2 218.6 215.8 213.6 209.3 206.6 204.2 199.7 196.9 193.2 191.5 194.7 196.7 200 203.9 210.5 216.6 220.8 223.6 232 238.4 243.3 248.5 249 255.4 261.3 265.9 260.1 266.8 266 268.1 273.7 276.4 278.6 279.2 277.3 269.8 261.9 253.3 252.3 249.4 237.9 221.9 192.5 158.3 132.9 116.1 96 78.5 73.4 61.8 50.3 40.7 30.2 26.8 30.7 37.2 35.1 42 41.2 41.6 36.7 26.9 22 20.2 19.7 27.2 39.4 63.1 73.6 97.8 105.5 129.9 147.7 163.9 172.4 191.9 194.5 197.4 207.2 216.9 224.5 231.7 235.1 236.7 240.3 245.2 246.2 252.8 264.7 275.4 276.8 267 276.3 308.4 321.7 316.4 297.2 271.6 263.2 270.4 264.5 258.8 260.9 260.6 254.1 246 245.8 239.6 233.3 229.4 224.3 218.9 222 222 227 235 243.8 264.6 286.6 298.9 303.9 301.1 297.7 298.8 278.5 268.9 258.2 250.2 239 229.5 224.2 215.8 209.9 209.3 204.9 204.3 205.5 204.4 204.9 203.1 202.4 202.8 202.6 207.7 215 224.6 239.9 249.6 268 296.3 310.6 326.4
373.3 374.5 375.5 374.8 368.8 370.3 368.1 359.3 351.4 346 343.2 336.5 331.9 329.4 323.2 315.8 299.5 279.6 260.2 254.2 241.7 226.6 215.9 208 203 197.2 188.8 183.1 176.2 159.8 169.1 176.7 182.8 190.1 199.4 207.9 218.8 233.3 246.3 252.9 255.8 251.7 253.4 256.8 257.7 256.4 251.6 242.1 224.2 223.5 221 218.5 215.7 210.8 206.4 203.8 195.7 196.6 193 195.6 196.7 199.5 203 208 210.6 215.3 222.2 229 233.2 235.9 235.5 248.2 253.8 254.3 254.2 257.4 257 265.2 271.4 277.2 278.6 281.8 280.2 272.2 266 257.3 255.5 250.1 241.2 219.1 188.8 156.9 129.6 111.3 97.9 84.2 78.5 66.8 52.8 41.8 35.3 35 31.5 39.9 40.1 46.5 50.9 50.5 40.8 28.4 24.8 21.5 19.9 27.5 43.3 58.7 71 100.4 113.9 130.1 147 163.7 184.2 190.5 194.8 201 210.1 218.1 222.4 232.7 237.8 240.1 244.9 248.7 251.6 258.1 270.8 276.2 272.8 268.4 280 314.7 336.1 334.5 316.4 291.4 287 279.9 277.7 270.8 269.4 265.1 264.9 252.6 258.7 258.7 247.8 240 238.4 237.2 242.1 245.9 253.2 264.3 272.5 292.3 302.1 301.8 305.2 308.4 302.5 303.3 290.2 276.4 267.2 255.9 244.8 230.6 222.7 215.7 214.6 209.5 205.9 205.9 206.5 205 205.7 204 201.7 202.6 204.3 205 213 221.5 232.2 246.5 262.7 286.8 299.7 320.3
383.4 385.6 385.6 385.4 379.6 375.3 375.5 372.2 362.6 353.7 351.6 349.6 342.4 336.3 333 317.3 312.6 293 271.2 263.3 253 240.4 226.6 216.8 210.2 205.8 197.3 190.8 181.7 166.9 171.5 178.1 184.3 192.4 200.4 207.7 218.6 234.1 247.7 253.1 256.3 255.2 254.4 256.8 260 262.4 258.4 252.2 241.6 235.2 234.4 227.2 224.8 218.5 213.4 207.8 203.9 198.2 194 193.8 196 197.8 200.7 204.4 206.4 208 216.1 221.1 225.4 225.4 224.2 236.3 245.8 249.3 250.3 250.2 260.8 269.7 267.9 280.7 278.8 278.8 282 277.5 271.2 265.6 259.9 253 242.8 226.5 192.3 158.8 135.1 110.7 97.6 88.1 83.3 71.2 59.4 47 39.8 40.3 31.2 36.3 40.7 44.1 53.6 69.7 65 31.9 24.7 21.5 20.5 27.4 42.3 55.2 77.3 101.3 118.6 130.2 144.4 161.6 184 192 197 204.1 207.8 216 221 227.2 235.5 244.6 246.3 249.4 256.6 262 264.6 268.9 269.4 269.3 281.7 315.1 346 345.1 330.2 313.3 299 292 289.4 281.8 272.1 271.2 268.1 265.2 268.1 266.3 256.9 249.4 248.3 250.7 248 255 267.1 277.4 284.9 295.4 302.3 309 313.5 307.4 307.7 304.4 298.3 288.1 269.3 258.7 248.8 237.8 227.2 223.9 219.1 214.8 213.2 209.2 209.7 206.4 205.8 204.9 201.4 201.1 209.3 207.3 211.2 220.5 228.3 243.2 256.4 274.4 290.1 308.9
396.4 398.4 395.4 395.5 392.6 381.2 380.8 377 368.5 361.6 359.1 361.2 352.7 342.7 332.7 333.4 324.1 301.8 284.5 272.2 260 250.5 239.6 227.4 218.3 213.6 205.6 199.5 189 177.3 176.2 182.2 186.6 194.3 201.6 210.1 222.1 238.3 251.6 252.9 255.6 255.8 258.7 259.1 260.5 267.5 265.4 258.9 253.8 241.5 244.5 243.4 238.9 233 219.5 216.3 210.7 203.6 200.3 200.5 198.8 197.1 204.5 204.8 206 207.2 209.3 213.9 216.6 212.4 214.9 222.8 234.1 243.6 246.7 254.1 264.7 273.6 276.3 278 280.2 278.8 280.7 281.7 276.9 269.1 263.9 255.6 243.1 221.2 190.7 160.5 139.1 114.8 98.5 93.9 85.3 75.8 66.2 50.4 45.6 44.6 35.9 35.8 44.4 48.6 55 70.4 70 42 24.2 21.6 22.2 27.2 35.8 49.8 73 98.8 117 123.5 134.9 156.9 170.9 180.5 195.1 203.1 206.4 212.2 219.3 226.3 238.8 245 248.2 250.3 256.5 260.4 261.4 262.4 264.6 267.2 279.3 312.4 354.7 361.7 344.6 321.7 312.8 300.8 298.5 291.9 279.3 272.7 269.4 276.7 277.9 268.4 256.7 256.2 258 257.7 262.4 269.1 282.7 291.7 292.2 298.1 299.8 306.8 309.2 309.2 309.2 304.4 304 291.6 276.8 261.5 250.9 242 236.8 232.4 229 223.2 216.5 211.3 210.5 208.1 206.1 203.5 201 200.9 209.1 209.9 210.1 217.3 231.4 241.1 252.8 266.4 282.2 297.4
412.2 410.9 408.9 406.5 403.8 395.5 390.6 384.5 377.9 374.1 368.4 364 359.3 349.1 339.5 338.9 329 312 298.5 284.6 270.3 257.7 249.6 238.5 227.9 219.5 213.7 208.8 193.7 183.6 177.3 184.7 189.8 196.2 204 215.2 227.4 243.8 250.2 254.9 256.9 262.7 264.3 262 263.4 268.6 272.5 265.8 261 255.2 249.5 252.8 246.8 241.9 234.5 229.3 221.6 216.4 207.1 203.6 202.1 198.7 196.9 205.5 205.9 206.3 206.4 206.9 208 208.4 210.5 216.8 235.2 245.9 250.1 255.9 265.6 276.6 281 274.7 280.5 279.3 283.3 287.5 284.2 275.6 266.1 256.5 240.5 218.1 190.9 162.9 139.8 116.7 103.9 100.3 89.6 79.9 68 55.9 50.7 48 36.8 39.5 47.1 50.3 57.9 66.6 65.3 44.5 25.2 23.1 25 26.8 32.5 47.1 64.3 92.5 119.1 127.6 137 143.2 155.5 166.6 186.2 196.5 204.2 211.2 217.4 229.7 235.7 246.1 251.3 251 253.1 259.8 259.5 260.5 262.2 265.5 280.4 309.6 362.6 369 360 330.4 324.8 307.2 303 295.1 284.5 283.2 284.9 284.9 283.1 268.2 260.6 265 267.9 265.3 274.3 282 294.2 302 304.4 307 309.5 308.3 306.5 308.3 311 307.5 304.9 294.8 285 269.7 259.5 246.4 238.8 237.4 235.2 226.7 220.6 214.5 211.3 209.1 207.2 201.8 200.9 200.9 208.7 211 210 216 227 235.9 251 260.7 274.6 284.7
417.9 420.3 418.2 414.8 413.5 409.4 402.2 393.3 384.1 379.3 378.6 371 365.7 355.6 351 343.3 332 317.4 317.2 296.2 282.9 267.6 257.7 249.2 236.2 225.2 219.5 213 199.8 188.3 174.4 184.9 192.8 199.5 208.5 218.9 228.4 241.4 251.2 259.6 262.5 268.3 271.8 267.3 267.1 269.6 272 269.8 266.8 264.6 254.9 260.4 258.1 251 248.3 241.8 233.5 228.7 219.1 209.5 207.7 205.3 202.4 201.4 203.6 204.5 205.3 204.5 205.9 206.7 210.7 220.4 236.1 243.8 248.7 257 266.8 280.1 283.8 278.9 278.3 279.7 283.1 287.7 288 279.9 266.6 256.4 239.2 216 194.8 165.2 141.8 121.5 107.9 109.8 102.4 86.8 69 55.4 51.4 46.2 39.7 39.6 49.4 51.7 58.8 66 59 40.8 28.6 26.4 26.9 28 29.3 39.7 62.7 92.4 118.1 131.1 136.4 142.8 147.3 155.8 169.6 183.3 197.7 203.8 215 227.8 238 249.1 256.7 249.5 250 254.2 256.9 258.1 257.9 262 278.2 313.1 356.2 369.8 363.8 342.8 334.2 317.8 309.2 306 299.8 297.5 294.6 288.7 282.9 274.9 270.5 278.6 281 277.6 286.7 299 304.9 315.7 319.2 314.6 316.2 317.4 315.8 313.1 313.1 304.7 299.8 295.5 285 274.7 268.7 255.2 243.8 237.2 237.9 230.4 222.9 216.6 213.7 210.9 208.5 202.2 200.9 200.9 207.2 210.5 208.5 215.2 230.7 238.1 248.1 262.8 273.6 281.6
417.7 429.5 429.6 419.2 418.7 420.4 409.4 402.5 391.1 385.2 384.3 378.4 372.6 366.1 360 350 339.5 329.8 326.4 311.7 295.1 280.7 269.4 258 244.8 231.1 224.3 217.9 208.7 196.4 178.7 184.9 196.3 202.6 211.8 221.8 230 236.4 248.3 262.6 267.5 276 278.9 273.6 268.2 270.9 273.7 275.6 274.4 271.5 268.6 265.6 265.9 257.8 253.2 250.3 242.7 238.7 233.5 217.4 219.2 214.5 210 208.5 206.1 207.3 207.6 208.3 206.6 208 211.1 218.6 227.7 235.5 246.8 257.8 268.8 278.8 284.9 284 280.3 281.6 282.7 288.7 289 284.5 274.2 258.5 237.1 213.1 188.8 165.6 140.8 119.7 110.4 112.6 112.6 93.2 70.3 56 53.3 44.7 42.5 42.4 48.2 51.7 57.9 61.2 49.3 37.2 27.3 25.1 25.6 23.5 27.1 40.4 59.1 87 115 126.2 130.9 141.7 145.7 153.9 166.8 182.6 194.5 201.9 208.5 217.2 226.1 233.1 242 244.3 246.9 249.2 254.5 256.2 257.1 259.2 277.9 313.2 351.6 367.9 367.2 360.5 346.8 334.7 324.4 320.1 316.5 311.3 304.6 295.7 286.9 288.1 290.6 287.5 288.1 289.1 299.6 316.6 319.2 325.4 330.7 328.8 329 328.6 325.8 321.8 316.6 307.3 303.5 296.7 284.5 274.4 261.8 250.1 240.6 234.4 229.2 227 221.8 216.7 212.7 209.8 207.9 201.7 200.9 200.9 207 208.6 206 214.2 228.4 238.3 246.2 257.7 260.7 267.2
421.7 430.3 432 430.2 426.8 420.1 416 407.2 400 392.1 387.8 379.6 381.5 376.4 367.5 359.8 349.1 345 337 326 307.9 291.9 280.4 266.5 252.4 239.5 229.8 223.9 218.2 204.6 196.7 185.5 199.8 205.3 214.7 224.9 234.1 239.9 245.8 258.5 271 281 284.1 277.2 272 272.3 278.2 280.9 280.4 276.6 273.2 264.6 271.5 267 265.4 255.6 251.7 249.4 244.6 234.1 227.8 223.7 219 217.4 212.3 209 209.1 209.2 208.6 208.9 210.7 213.5 221.6 232 242.4 255.9 271 279.4 289 287.1 284.6 283.7 283.5 289.6 290.9 287.5 280.2 263.9 237.3 210 182.9 156.3 136.6 116.6 106.9 109 106.6 91.4 71.7 55.2 51.1 50 49.8 48.4 46 49.4 54.5 54.2 43.2 34.7 27.9 20.7 20.9 18.6 21.7 33.4 51 66.9 90.8 107.2 118.3 130.4 135.4 151.1 165.2 179.3 192.7 200 204.6 209.7 213.2 216.9 223.5 231.1 241.8 246.3 256.8 257.7 258.3 259.7 276.9 306.9 352.6 367.3 370.6 365 361.4 356.2 346.6 335.3 331 327.6 314.1 307.5 309.9 306.3 310.7 304.4 302.4 305.4 317 328.7 335.9 343.8 350.3 356.5 359.9 358.4 351.3 338.8 329.3 316.4 313.5 307.9 292.6 279 269.4 259.6 250.6 242.3 235.5 229.2 222.7 218.4 210.1 207.5 205.5 201.9 200.9 200.9 202.5 204.2 205 215.1 226.7 233.1 239.4 243.6 245.5 255.8
422 428.3 427.7 431.7 428.7 424.5 419.5 415 404.7 399 396 389.7 388.5 383 375.6 369.5 360.2 353.7 345.3 334.6 317.8 304 288.4 275.2 260.2 249.3 239.9 232 224.8 214.7 207.6 189 201.1 211.1 215.7 229.3 238.6 244.4 248.5 256.4 267.3 281 285.5 283.3 280.2 278.6 281.3 284.7 283.7 281.6 275.9 267.6 272.9 274.2 271.4 266.9 263.6 259 250.9 246.3 238.1 230.8 229.3 226.9 221.4 214.2 211.4 211.4 210.7 210.6 212.1 212.7 219 228.5 239.3 251.2 265.6 278.2 287.8 288.9 283.2 286.9 287.7 288.9 291.4 289.4 283 267.6 236.4 206.6 176.1 153.2 133.4 115.3 105 106.6 98.8 87 71.3 54.5 53.8 55.1 58.6 57.1 50.2 47.7 48.2 44.7 40.2 30 23.9 17.7 17.4 17.6 22.3 31.9 45 62.1 78.1 89 105.8 124.5 132.9 145.6 159.8 172.5 187.5 195.5 199.6 203.6 207.4 210.2 212.8 228.9 237.9 245 254.1 259.7 260.6 260.9 273.4 303.2 345.8 374.8 374.3 376.9 388.3 385.9 373 360.4 355.6 347.6 336.9 326.8 324.2 322.6 321.2 323.9 323.5 328 333.5 341.6 354 363.1 378.5 399.8 408.5 404.5 392.8 366.6 344.8 326.8 319.8 313.9 299.1 289.3 278.2 265.6 255.1 251.2 243.6 233.5 228.1 224.4 217.1 210.8 204.5 201.8 200.9 200.9 206.1 206.7 208.6 214 224.9 228.6 235.7 236.2 237.7 242.9
430.5 427.1 429.8 436.7 435.6 429.1 421.6 417.1 413.3 404.6 398.6 399.7 395.5 391 381.6 373.4 365.1 358.4 349.8 337.9 323.6 311 298 285.7 266.9 255.9 245.9 238.3 230.3 221.5 210.5 198 210.1 213.3 223.9 230.6 239.9 246.5 251.1 257.7 268.3 282.1 285.2 283.8 284.1 285.3 285.3 286.3 285.4 284.2 281.9 277.2 277.8 276.5 274.8 273.2 271.7 268.7 262.1 258.2 250.4 240 238.3 236.5 231.4 223.7 217.2 214.1 212.2 212.4 216.3 216.3 216.4 224.9 233.2 245.4 259.5 273.9 281.7 288.9 283.9 286.4 289.6 290.3 292.6 289.4 284 260.5 227.6 198.2 171.1 148.9 127.9 111.3 103.3 103 96.2 86 68.1 54.1 58.4 59.3 66 67 61.7 48 44.3 39.9 38.5 33.3 20.6 17.3 17.3 17.7 21.4 28.1 40.5 56.9 70.7 84.6 101 116 127.9 137.9 150.8 163.3 175.8 184 189.8 197.1 199 201.3 204.7 222.7 233.5 242.9 247.8 252 256.9 259.5 267.3 298.4 343.2 374.8 380.3 377.9 390.6 412.4 406.9 393.3 388.3 374 361.3 352.6 347.7 344.9 341.1 340.3 341.7 347 352.9 365.2 380.4 405.3 415.1 424.6 426.8 423.8 417.5 398.2 360.3 338 326.7 320 307.2 293.5 283.2 270.3 259.5 251.2 245.6 241 230.1 227.5 220.2 214.9 205.7 201.5 200.9 200.9 205.5 206.4 208.7 214.4 224.3 226.5 225.7 228.1 230.3 232.5
432.7 429.9 432.8 435.5 434.6 433.2 428 421.2 415.9 410.5 404.9 406.4 400.9 397 388.8 379.8 367.9 359.5 350.6 340.9 327.6 316.9 304.4 294.3 278.5 264.1 251.3 244 234.6 225.2 214.1 200.4 216.7 221.2 225.2 234.9 239.6 249.6 255.1 259.6 267.5 280 286.7 284.5 285.3 288.2 289.5 291.1 295.4 294.9 293.3 285.3 284.9 282.5 279.1 282.3 279.5 278.1 275.6 274 265.5 251 247.2 245.5 240.9 233.6 225.9 220.3 216.5 214.4 217.5 218.9 217.6 222.8 230.9 239.3 251.5 266 278.4 287.8 287.7 286.3 290.3 293.9 294.9 291.6 285.8 262.5 223.6 192.9 166.6 144.4 127.9 109.2 101.6 100.1 98 83.9 70.8 58.2 65.6 66.1 73.2 85.6 66 51.2 42.3 40.7 34.3 29.1 19.7 17 16.8 18 21.7 33 43.3 54.4 69.5 83.2 92.9 106.1 117.4 126 137.7 151.5 163.7 171.8 178.3 187.2 190.2 192.2 199.5 214.7 223.2 232.8 242.1 246.7 247.8 252.5 258 289.2 327 369.5 379 375.3 377.9 398.9 412.6 411.7 420.5 431.9 396.8 383.8 380.9 374.9 369.5 367.5 369.3 374.1 381.4 392.7 416.2 439.4 441.7 439.7 439.6 434 424.9 414.2 383.1 351.4 332.3 322.3 312.2 298.7 285.9 273.3 262.3 252.5 247 239.6 231.1 228.2 221.4 213.3 206.8 203 200.9 200.9 202.8 205.4 207.7 213.5 221.3 222.7 221.5 222.4 227.7 231.9
438.3 435.6 436.7 440 439.2 436.3 434.3 425.3 420.1 410.8 408.6 412.1 409.1 399.9 392.6 385.9 370.1 361.1 352.5 343 332.2 319.9 310.1 301.9 287.4 272.4 259.2 249.1 239.9 230.4 214.9 204.9 220.1 228.9 231.4 237.3 247.7 255.1 259 263.1 269 274.8 281.5 285.4 286.2 291.6 295.5 293.9 298.8 298.7 300 296.8 288.1 291.2 284.4 285.1 284.2 283.2 280 279.3 275.6 262.4 257 253.2 249 242.4 235.7 226.4 221 221.1 219.6 222.1 223.7 222.7 232.5 241.8 249.2 258.3 268.8 281.3 285.9 284.8 288 293.3 292.2 293.9 288.7 264.2 226.5 192 164.8 143.1 127.6 107.1 101.9 101.2 103.1 88.4 79.1 62.7 71.5 75.4 78.8 86.9 70.3 54.5 42.3 35.7 32.6 26.9 18.8 16.9 16.9 18.3 24.3 34.2 44.9 55.4 64.8 79.7 87.6 98.9 108.3 117 128.9 140.4 153.6 164.2 172.5 179.4 185.3 189.1 198.4 206.3 212.8 222.7 228.1 230 235.6 239.7 254.5 275.8 301 344 365.3 367.8 367.2 379.3 403.2 409 408.9 421.5 432.1 439.1 440.2 440.2 412.2 403.8 415.6 435.7 444.8 446.7 455.2 458.6 457.8 454.5 451.8 445.3 439.1 424.4 397.8 379.7 344.2 323.7 307.6 299.5 288 275.6 267.9 256.7 248.3 241.1 234.3 230.3 223 213.9 209.3 203.8 200.9 200.9 205.4 207.3 210.3 213.7 215.6 217.7 218.2 220.7 223.1 229
444.4 441 438.6 442.9 444.2 440.8 436.6 429.1 418.6 417.2 413.3 413.3 411.4 405.3 398.3 388.4 375.4 364.6 352 342.9 335.3 326.6 316.3 306.9 295.8 279.7 266.5 255 244.9 232.2 216 212 221.2 232.3 239.9 238.8 249.2 256.2 261.1 268.4 273.2 276.8 279.8 284.7 286.4 292.1 301.1 298.7 301.9 305.9 303.1 300.8 291.9 295.2 294.2 289.7 291.3 288.9 287.6 289.5 282.7 273.4 272 265 259.7 253.3 245.7 237.2 231.2 229.5 225.2 225.4 229.3 231.7 233.8 243.5 248.5 255.2 265.2 278 285.5 285.7 287.7 290.9 291.4 291.8 286.1 271.7 228.9 192.9 165.9 144.8 128 108.4 102.4 101.7 100.4 95 85.8 69.5 78.7 90.6 83.9 88.6 82.7 58 42.9 35.6 32 24.8 17.2 16.4 17.6 19.6 26.8 37.4 48.1 58.2 64.8 72 81.9 94.3 100.6 102.2 113.2 129.1 140.8 148.6 158.4 167.1 178.4 182.2 190.1 201 207.1 212.5 218.7 224.6 232 234.8 247.1 262.1 281.5 305.6 339.9 352.8 350.3 361.1 371.2 379.3 393.3 408.6 420.5 425 431.9 439.3 442.9 441.7 442 442.6 445.1 449.8 455.4 459.8 460.8 459.6 454.6 453.1 447.4 435.2 413.9 392.1 350.8 331.6 316 298.9 289.3 280.8 273.8 262.1 253 244.7 239.2 231.2 223.4 214.2 209.9 201.2 200.9 203.3 207.6 213.5 213.1 217.4 218.9 217.3 216.8 218.9 221.1 226.5
447.8 445.8 445.7 442.5 444.3 443.1 438.8 430.5 424.8 419.3 415.6 414.9 414.6 408.7 400.5 390.6 385.2 369.7 358 346.4 337 329.7 322.3 309.6 301.8 286 272.5 259.4 248.9 233.5 214.7 220.3 221.9 232.8 242.9 249 249.6 256.4 264.6 271.9 276 280.3 285 287.2 289.2 296.8 306.9 308 310.6 315 312.6 308.5 302.1 300.6 301.4 300.3 298.6 298.7 295.5 295.4 293.4 287.4 285.1 280.1 274.3 264 257.2 241.5 242 237.5 231.9 230.2 235 236.1 237.8 244.8 251.6 261.4 268.8 278 285 286.9 288.7 290.6 295.2 291.7 286.9 275.4 232.4 195.6 170.4 149.3 128 111.8 103 103 104.1 100.2 90.4 79.3 82.6 89.9 86.6 90 84.1 62.3 46.5 35.9 33.9 23 20.2 16.7 16.3 18.1 31.2 49 54.2 60.1 66.4 71.3 80.2 88.4 91.3 92.2 99.2 112.5 124.1 134.3 146.3 154.3 164.7 172.2 174.2 185.7 198.4 203.7 206.7 219.1 226.3 231 235.7 246.4 263.4 285.8 308.5 324.9 337 341.4 348.4 354.7 366.8 385.8 409.6 412.9 418.7 428.9 436.7 439.4 439 442.8 443.2 443.6 450.8 455.6 456.7 457.1 455.9 456.8 453.1 440.9 422 398.4 369.2 336.6 320.5 304.3 287.4 279.5 273.9 269.5 256.9 247 238.7 230.2 223.5 214.4 210.2 203.2 200.9 207.3 212.5 219.6 217.4 217.1 217.5 215.6 215.6 215.9 219.1 223.3
447.1 446.2 446.9 444.3 445.1 446.7 443.1 435.9 431.6 423.5 417.9 416.8 415.2 411.7 398.4 392.6 387.4 373.8 360.3 349.2 337 328.4 323 312.3 303.4 291 278.7 265.9 253 237.8 221 225.5 231.3 236.2 246 253 256.8 259.9 263.6 272.3 277.7 284.7 290.5 294.2 297.5 301 308.2 313.8 320.9 320.5 326.3 324.1 320.2 313.8 312.4 309.6 309.9 308.2 304.9 301.6 299.1 295.9 295.6 292.1 289 278.8 268.1 253.4 249.9 244.7 239.8 233.6 240.4 243.5 246.1 244.6 254.5 265 272.6 279.5 286.9 291.6 290 292.4 297 295.8 289.7 279.5 244.3 199.3 175.2 154.2 132.6 116.5 104.4 104.1 105.4 103.4 95.5 84.1 89.4 95.8 93.8 92.7 90.9 67.7 50.2 35.5 29.2 22.3 17.6 17.5 17.6 19.9 33.4 46.2 54.7 61 63.7 71.1 80.4 84.9 82.3 85.1 92.5 104.1 111.5 121.9 133.2 141.1 146.3 156.8 166.5 175.1 186.1 190.7 192.1 200.7 219.1 225.7 228.9 236.2 247.4 263.2 278.5 290.6 316.3 324.3 325.9 334.4 347.8 364.4 383.8 397.8 408.4 415.2 420.8 433.6 432.5 435.4 439.5 439.2 443.3 449.7 450.7 451.7 451.3 451.9 450.1 439.9 428.5 411.5 376.6 344.4 327.2 312.1 298.1 283.1 276.1 266.2 257.4 251 239.7 232.6 223.5 215.6 208.6 202.2 200.9 208.2 213.5 219.2 219.3 219.4 219.5 218.4 215.6 215.6 215.6 218.9
447.8 447.4 447.5 447.6 447.1 444 444 442.6 434.4 429.4 420.5 418.4 414.5 410.6 396.4 390.3 386 380.7 363 351.1 340.1 329.3 320.4 314.3 306.6 296.2 283.3 271.1 258.7 243.6 226.7 230.7 239.4 244.5 247.5 254.8 262.9 266.1 267.3 270 278.2 287.4 294.7 296.4 305 306.5 311.9 316.7 329.4 328.7 329.4 330.8 327.4 327 322.5 323.2 320.3 315.2 315.4 315.3 308.9 301 302.7 300.5 298.8 290.2 275.1 267 260.8 255.2 250 240.7 247.1 250.2 251.4 254.8 254.7 267.8 277.2 284.7 292.8 294.9 292.3 294.2 303.3 303.8 296.5 282.9 251.5 205.6 181.5 160.4 141 120.7 105.4 104.9 105 105.4 102.7 97.7 103.4 111.5 106.8 107.2 90.7 73.5 50.9 37.2 32.1 25.3 18.7 18.3 18 17.7 24.1 34.8 41.4 47.5 60.5 69.1 75.4 77.4 78.6 81.5 86.7 97.5 101.7 109.7 122.3 125.6 130.3 142.5 154 168 175.5 177.6 182.8 191.6 202.9 215.9 223.6 229.7 240.7 252.5 260.5 271.6 292.8 308 315.5 338.9 342.1 354.5 356.6 375.1 382 392.3 406.5 420.6 427.5 428.6 429.7 431.2 438.2 446.7 443.8 447.5 445.8 447.3 444.7 434.8 424.7 416.6 387.5 350.8 331.1 318.6 307.6 291.5 279.9 268.2 259 250.7 242.7 235.1 223.8 218.2 207.2 202.5 201.1 209 216.7 220.8 220 220.1 221.9 224.1 216.2 215.6 215.6 215.6
446.7 446.3 451.7 453.4 449.5 447.4 447.9 441.6 438.6 431.2 421 416.1 410.5 408.6 396.7 388.2 387.1 380.7 364.3 351.2 341.1 330.2 319.9 311.7 308.7 300.1 289.3 276 262.2 247.8 234 236.2 247.1 252.3 252.2 260.7 264.6 268.4 271.4 273.3 281 285.1 296.5 301.6 310.4 315.5 324.5 329.3 333.2 337 336.3 332.8 333.6 337.1 329.7 328.1 327.1 325.2 324.8 320.7 317.8 314.1 307.4 305.5 303.1 298.3 282.1 279.1 273.3 264.8 258.8 251.7 252.6 257.6 261.3 262.1 257.1 271.9 283.3 296.8 302.1 301.3 297.6 303.2 314.6 315.2 306.6 290.8 260 218.1 188.7 168 148.5 127.5 109.3 106.3 106.3 109.8 111.1 110.5 123.4 121.5 118.9 115.2 96.7 80.7 52.2 38.6 33.5 29.4 23.2 18 16.3 15.7 16.7 22.2 28.3 39 53.4 59.1 61.2 64.2 69 76.7 80.8 88.8 93.2 98.1 106.8 114.2 118.6 127.7 142 155.8 164.2 171 180.7 185.5 195.4 206.1 217.2 234.1 241.4 248.9 253.4 261.2 278.8 290.5 309.5 334.9 339.5 340.1 342.2 354.9 364.7 367.8 379.5 397.8 414.9 421 424.4 424 430.3 436.9 437.5 436.7 435.7 437.2 434.8 427.8 421 418.3 399.7 358.3 335 320.3 313.9 300.6 287.8 274.9 260.4 252.4 245.2 236.7 224.9 219 206.9 201.4 203.2 210.3 215.3 218.3 218.8 220.4 222.7 229.3 223.5 216.4 215.6 215.6
446.9 447.4 448.6 450.6 450.2 443.6 443.7 443 438.1 429.6 420.2 411.7 406.3 403.2 394.9 389.2 388.4 381.5 366.8 350.9 340 334.4 316.9 308.1 307.5 300.6 291.2 279.4 266.9 253.1 234.5 244.7 254.9 259.4 262.5 265.1 270 273.1 276.9 280.8 275.3 287.1 296 302.9 320.1 328.9 332.1 336 339.3 340.4 340.3 337.7 341 341.8 334.6 338.5 338.1 333.7 339.2 338.5 334.9 325.4 317.2 312.5 307.2 304.7 300.4 294.3 284.8 273.4 266.2 261.3 259.2 264.7 271.7 271.2 274.7 280.1 296.4 306.2 314.6 314.9 311 312.9 322.9 323.6 316.8 298.6 270 236.2 198.7 175.8 156.6 135.8 117.6 108 108.3 114.8 117.6 117.5 136.7 134.8 128.8 135.3 122.5 87.4 59 41.1 34.1 31.1 28.8 23.1 17.5 15.7 16.3 17.4 24.2 28.8 38.8 43.5 48.1 49.9 54.7 61.3 68.2 75.4 80.2 84.8 93.4 103.5 108.9 117.8 131.4 143.3 153.3 167.6 174.3 182 190.6 199.3 210.8 226.5 235.9 243.1 247.7 262.6 274.8 278.6 301.9 325 330.7 328 335.5 346.1 350.2 356.7 362.6 370.3 381.3 403.3 406.9 413.3 420.3 426.7 428.4 426.9 426.4 428.7 427.7 424.1 415.6 416.7 405.8 369 341.8 323.3 312.6 305.4 295.3 283.3 266.1 256.9 250 237.6 225.8 214 204.9 203.8 205.6 210.1 214.2 215.9 220.1 221.2 223 226.3 225 218.5 217.5 215.8
443.3 450.5 447.5 447.9 449.4 446.6 438.7 440.6 438.6 433.5 417.9 410.6 406.2 397.5 392.2 385 386.3 376.8 367 349.7 339.5 332.7 323.6 304.9 303.5 300.6 291.7 280.5 269 253.9 238.4 256.2 260.8 266.7 268.3 271.4 273.7 278.9 282.2 283 285.1 290.2 295.6 302 316 325.8 331.3 336.4 338.6 340.1 341.5 342.4 344.4 349.5 348.2 349.1 349.7 348.1 353.7 353.8 352.2 344.6 329.3 323.7 315 311.8 313.4 307.3 297.9 286.2 278 274.1 265.3 274.1 277.9 280.6 285.5 287.9 299.8 318.8 328.3 327.3 323.9 319.6 328 330 328.1 305.8 277.7 247.9 212.3 185 165.9 145.5 125.7 111.4 112.3 121.3 124.5 126.9 139.6 143.7 148.7 141.8 126.1 107.1 74.3 45.2 35.1 30.7 29.5 28.3 25.6 17.7 16 16.4 17.8 22.5 23.6 30.6 34.8 41 45.4 48.9 55.1 63.3 66.3 70.4 79.6 87.9 100.1 111.6 124.4 135.2 143.9 157 168.8 178.2 186.1 188.5 193.5 207.5 224.6 228.9 244.5 253.6 268.7 278.5 297.6 313.4 317.7 322.6 334.9 337.3 347.6 348.1 344.1 353.3 357.5 370 379.8 393.6 393.8 404.4 416.1 415.4 418 424.8 423.5 417.7 412.9 412.6 406.9 382.6 349.1 327.8 314.6 307.4 297.7 289.4 273.1 260.9 257.3 240.3 227.8 218.7 206.9 202.4 200.9 205.4 209.8 217.4 222.1 222 223.3 225 223.1 219 217.3 217.8
437.2 449.4 445.9 448.3 446.6 445.5 437.2 436.5 436.8 435.2 419.3 409.4 403.8 394.6 387.2 380.8 377.1 371.6 364.3 352.1 340.7 331.2 325.9 307.7 302.3 298.6 292.2 280 266.4 252.8 250.8 265 271 271.8 272.6 275.3 280.6 283 284.6 286.3 289.7 290.1 294.3 298 312.5 320.8 328.4 334.2 337 342.2 344.4 345.6 348.3 351.4 353.8 356.6 359 357.4 355.7 358.7 358.2 353.3 346.1 333.7 325.9 319.8 320.3 315.7 311.7 299.2 288.4 283.7 276.6 280.7 286.5 291.7 298.4 299 304.6 321.7 340.2 341.4 336.3 329.2 336.8 337.6 336 318.3 289 262.9 231.7 199.3 175.7 155.9 134.3 119.7 119.9 129.6 130 138.7 148.7 151.9 156.2 144.3 131.7 119.2 93.1 59.8 38.1 29 26 28.7 37.7 23.9 17.2 18.5 22.1 20.8 21 22 23 27.6 35.2 41.1 48 55 59.2 60.7 67.1 79.7 100.6 114.8 119.3 126.4 134 146.2 151.1 163.3 172.4 181.4 187.7 195.2 203.7 225.3 241.7 259 269.6 282.2 291.2 299.1 302 311.7 320.1 331.9 340 338.8 336.7 335.1 346.2 356.7 358.8 360.3 366 374 378.1 384.4 401 410.8 414 412.8 409.3 410.2 405.4 386.7 362.7 331.3 315.2 306.6 297.1 290.1 278.9 263.2 252.5 240.7 228.7 220.1 209.9 205.9 201.6 201.7 202.9 214.6 217.8 219.3 221.2 227.7 223 218.6 218.3 217.9
434.4 445.5 443 450.4 445.8 444.2 439.6 429.4 432.8 433.7 420.3 408 401.5 390.9 383.5 377.8 373.6 368.4 361 352.2 339.8 331.7 325 311.9 302.1 299.6 291.9 284.7 273.2 257.3 254.2 271.9 277.2 279.4 279.8 282.3 286.6 289.1 290.6 292.3 293.9 293 297.7 305.3 316.9 321.3 327.7 333.3 336.5 344.2 346.3 348.7 353.5 354.2 355.4 352 360.8 364.6 359.5 361.3 360.2 358.2 353.9 350.2 339.4 331.9 329.6 326.5 321.7 310.7 301.2 293.8 285.3 287.5 291.6 305.4 308.1 309.9 320.9 319 342.2 350.5 345.1 340.9 341.5 342.7 347.2 336.2 303.1 274.7 245.4 217.2 188.9 164.9 140.9 127.2 126.6 131.9 136.6 148.1 152.3 156.8 162.5 156.2 135.8 129.8 105.5 83.8 46.8 31.2 23.4 23.6 34.6 25.8 15.8 17.4 16.4 17.6 20.2 20.8 16.9 18.4 24.7 34 41.9 48.5 49.6 60.3 70 78.5 91.5 109.3 124.9 134.7 135.8 140.3 140.7 148.5 156.6 169.4 179.1 184.6 196.6 225.8 248.5 267.7 277.9 289.6 291.4 292.3 296.9 311.5 320.2 324.7 328 336.1 333.6 330.1 338.6 345.1 350.7 349.2 347.4 355.5 354.3 358.8 368.7 384.6 402.7 400 396.9 402.6 396.3 383.8 364.5 333.7 317.4 302.5 294.5 285.9 277 262.6 249.6 240.5 230.7 220.3 211 206.2 202.1 203.1 204 216 219.7 221.9 224.4 230.4 227 220.9 221.3 220.9
428.7 439.5 440.5 448.6 448.3 440.2 437.7 430.8 425.9 426 417 404.4 398.5 387.7 379.3 375.5 370.2 365.5 357.8 348.3 338.2 335 325.9 312.9 304.6 299.9 294.8 288.8 277.7 256.9 267.8 277 281.1 286.3 287.7 288.3 291 296.7 298.2 300.4 300.5 300.8 304.5 309.8 321.8 331 330.2 335.5 337.2 343.5 349.4 351.6 355 359.8 362.7 360.5 363.6 366.9 366 362.4 365.3 364.6 361.7 357.3 346.5 341.9 338.1 331.7 329.4 321.8 310.4 298.2 295.6 299.9 300.5 309.3 319 321.6 321.5 326.1 335.8 351.5 349.8 348.8 345.6 345.8 346.7 344.8 319.2 287.2 258.9 229.6 200.4 175.6 149.5 136.2 130.2 134.6 142.2 155 157.9 158.9 166.6 162.4 142.2 129.6 114.2 94.5 58.9 36.5 24.3 22.3 20.6 15.6 14.1 11.7 13.9 14.2 15.3 15 13.5 13.7 19.7 27.9 36.1 40.4 44 55.3 64.6 75.9 90.9 110.5 131.2 138.9 141.3 145 147.5 148.5 155.8 158 167.5 173.8 198.4 226.9 254.1 265.6 271.7 281.9 284.5 296.9 304.4 306.8 319.2 325.5 328.1 326.1 327.6 325.6 326.8 334.4 340.4 338.9 338 344.8 349 347 355.6 360.5 368.5 380.4 388.1 390.5 386.4 372.2 351.1 326.1 312.2 298.4 290 283.5 269.1 257.8 245.5 237.5 227.8 218.4 209.5 204.8 200.3 202.1 204.8 213.1 220.6 224.6 230.6 238.5 229.4 222.7 222.1 223.3
422.2 428.2 435.4 442.3 443.8 440.1 433.6 430.7 422.9 421.8 420.2 403.5 393.2 384.2 376.3 372.2 367.5 363 356.2 347.1 338.2 333.9 329.7 318.5 306.5 301.3 295.9 287.6 269.7 269.5 276.6 285.1 288.9 292.1 295.7 297.9 298.1 303.5 305.8 306.1 308.3 309.6 309.5 317.9 331 331.1 333.1 337.4 338.6 340.6 348.5 353.1 357.3 363.5 366.9 366.9 361.9 368.2 371.2 367.1 369.1 368.9 367 361.1 350.8 344.8 340.5 335.5 331 324.6 319.3 308.4 304.1 307.8 314.2 314.7 320.5 327.4 327.5 332.6 336.5 347.7 352.8 353.6 350 347.3 343.7 345.7 328.9 299.7 267.7 236.4 211.2 188 162.7 143.6 136.4 143.6 156.8 160.3 167.1 163.4 164.3 163.9 154.3 136.6 116.4 100.2 76.6 46.3 28.4 23.1 20.8 15.3 10.9 10.9 10.9 10.9 10.9 10.9 10.9 11.7 16.9 22.5 30.7 33.8 40.2 47 57.6 75.3 93.2 109.2 126.3 137.3 139.9 143 147.2 150.9 157 163.1 165.7 171.2 198.3 217.9 237.2 248.4 259.2 265.9 280.1 290.5 301.3 311.6 319.5 321.3 327.5 329.9 320.3 319 321.8 323.2 327.1 327.4 334 335.3 337.1 343.7 347.7 352.4 351.5 350.8 355.7 357.4 355.7 344.9 332.9 319.1 309.3 293.9 282.1 274.3 263.4 249.9 237.5 233.9 228 218.9 207.2 197.7 193.6 203.9 207.6 212.1 219.8 226.9 232.5 238.5 231.9 228.4 229 227.5
408.7 419.9 426.6 432.3 437.5 434.6 427.7 428 426.7 415.7 416.9 403.6 392.5 381.6 372.8 369.7 364.7 357.7 354.8 349.8 338.6 333.2 327.9 321.2 310.7 303.1 295.1 290.1 288.9 271.7 284.5 291.3 294.2 299.2 301.9 306.1 307.6 307 309.7 310.7 315 315.6 313.5 323 331 332.5 335.1 337.5 340.2 344.9 351.1 356 362 367.1 369.8 369.2 368.9 367 374 372.5 373.1 374.3 373.2 367.3 355.4 350.8 344.4 341.1 335.4 333.4 331.2 321.9 314.3 323 325.7 323 325.7 332.5 336.6 336.4 346.3 341.9 357 356.4 353.5 349.9 345.8 342.2 331.2 308.8 278.4 250.1 223.4 199.2 171.9 151.1 149.7 160.1 172.4 175 170.5 170.5 159.1 158.7 154.7 138.4 121.5 103.7 82.9 56.7 35.1 26.7 21.5 15.2 10.9 10.9 10.9 10.9 10.9 10.9 10.9 10.9 14 17.1 26 32.8 36.3 43.2 52.8 68.1 80.8 95.4 114.8 129.9 133.5 136.7 141.7 149.2 157.4 161.3 163.2 173.7 197.6 212.6 225.7 232.6 241.2 256.5 271.2 283.7 295.2 302.9 309 312.8 315.6 315.2 313.7 313.7 314.8 315.7 316.4 318.6 328.4 326.1 324.9 335.7 341.8 342.2 339.5 336.7 339.2 336.7 330.9 327 326.2 313.9 305.3 294.9 286.6 273.5 258.6 250.1 235.3 228.6 223.2 212 201.3 193.6 194.6 201 205.3 209.5 219.6 226.5 233.6 239.1 240.8 238.2 239 237.2
398.4 412.9 419.6 425.9 426.1 424.6 422.9 423 424.8 420.1 409.7 399.6 388.7 382.1 371.6 364 364.8 358.2 354.2 350 341.1 333.8 325.2 320.2 311.9 302.6 301.1 296.7 296.8 286.2 290.8 299.7 301.7 305.3 308.6 310.3 314.4 317.8 321.5 322.5 324.8 326 326 326.8 329.8 333.1 336.7 340.4 342.4 347.1 351.9 357.7 366.9 369.5 372.1 374 370.6 371.9 372.1 374.9 375.1 377 376.6 371.8 364.9 364.5 358.6 347.7 344.8 342.5 339.4 332.4 334.2 329.6 333.8 330.8 330.2 337.7 341.1 341.4 355.6 355.2 353.2 357.7 355.3 354.5 348.7 342.4 336.4 321.5 291.1 258.1 230.9 208.3 180.2 161.5 160.9 175.9 184.4 180.3 178.3 166.5 158.7 160.9 157.3 148 128.1 112.4 88.7 65 47.9 37.7 24.8 19.5 11.1 10.9 10.9 10.9 10.9 10.9 10.9 10.9 12.9 15.6 25.1 29.2 33.1 40.7 50.5 61.9 76.1 88.8 104.9 114.8 120.5 133.4 145.6 151 157.1 161.5 165.7 178.8 194.2 204.9 217.5 219.1 233.1 251.2 258.6 283.2 287.4 294.3 301.5 309.8 313.1 311.6 314.8 310.8 316.8 313.7 310.1 310 317.2 318.6 317.4 326.8 330.6 329 327.4 331.8 334 329.7 325.9 320.2 316.5 305.1 302.7 294 280.6 269.6 257.4 243 229.7 220.2 215.3 203 198.4 190.6 191.7 196.4 203.5 210.2 216 221.6 232.9 243 249.1 250.5 249.8 247.7
383.5 395.9 407.5 412.2 412.9 414.1 417.9 419 419.3 415.8 409.7 406.5 391.6 379.6 371.4 362.3 360.2 357.9 351.9 348.5 340.2 333.4 325.2 317 312.3 307.8 307.1 302.1 302.3 295.5 285.8 305.2 308.3 312.5 313.5 315.8 319.2 323.6 325.9 326.4 333.3 333.2 330.7 331.8 333.7 335.8 342.6 345.4 348.3 352.1 357.4 362.9 369.8 371.2 376.7 381.6 378.1 377.3 380.8 377 379.6 380.6 380.7 375.3 369.6 369 368.1 366.4 358.1 352.6 345.3 339.6 339.8 337 336.9 336.7 330.5 338.7 344 347.9 364.8 364.1 363.8 361.4 360.4 357.1 355 348 341.9 326 298.1 266.2 239.2 213.6 186.6 170.8 174.2 185.6 189.5 181.8 181 170.5 157.5 157.2 159.3 150.6 129.7 111.7 92.9 71.9 58.2 49.2 33.5 21.8 13.2 10.9 10.9 10.9 10.9 10.9 10.9 10.9 10.9 10.9 17.1 25.2 32.8 40.2 48.6 58.5 66.9 80 94.9 100.6 114.9 131.5 141.2 149.6 158.7 165.6 171.6 181.1 192.1 194.6 207.4 212.4 234.5 244.2 256.6 269.6 278.1 289 293 305.2 305.3 297.7 303 301.8 301.7 303.2 307 305.2 307.2 303.7 305.4 312.7 315 313.4 314.4 321 318 312.8 312.4 309.8 301.5 293.1 292.7 283 269.1 262.8 247.8 230 221.4 214.4 207.9 198.8 198 188.9 189.1 193.5 206.6 210.5 213 218.4 231.7 242.6 254.5 258 256.6 255.4
373.4 380.6 395.4 403.9 403.5 403.8 406.8 412.9 414.4 409.5 407.9 397 389 377.3 369.7 362.2 355.2 354.1 349 345.2 341.2 332.6 326.9 321.2 316.6 312 310.1 309.8 306.5 305 293.8 309.9 315.9 318 319.2 320.3 322.3 326.4 330.9 330.9 335.9 337.6 335.2 336.4 339.2 340.4 345.8 349.5 354.9 359 365.2 372.5 377.3 377.8 379.5 383 383.5 383 384.2 383 387.3 391 386.8 379.3 373.9 371.6 371.3 370 368.4 366.5 358.9 351.3 344.4 343 340.2 339.7 333.7 338.5 347.2 354.9 368.1 370.9 369.6 367 365.2 361.4 358.3 351.7 342.1 324.6 301.4 274.5 248.4 221.7 191.3 178.8 186.5 196.6 187.5 181 176.8 170.9 160.1 156.5 153.9 149.9 129.4 111.5 94.8 80 65.6 57.2 51.5 39.9 12.9 10.9 10.9 10.9 10.9 10.9 10.9 10.9 10.9 10.9 15.1 25.3 31.6 37.5 45.1 55.2 62.5 70.7 85.1 98.9 115.1 129 138.8 147.7 158 167.2 172.6 177 189.4 188.5 198.5 207.2 220.4 238 246.8 259.9 271.9 275.8 285.1 294.8 291 291.8 291.5 290.9 301 298.6 303.9 294.8 295.7 296.9 298.7 302.9 308.2 308.6 310 309.5 309.3 306.9 305.5 300.7 295.6 283.7 281.4 268.6 260.6 243 233.9 223.5 213.1 210.3 205.6 197.1 198.8 189.2 185.1 193.9 203.6 202.9 212.3 222 229.7 237.5 254.1 258.2 260.9 272.2
365.4 370.4 379.3 389.2 393 393.4 399.4 401 405.6 404.6 403 397.5 382.1 373 361.9 359.4 354.1 349.8 347.5 344.9 339.7 333.6 329.5 326.5 323.5 318.7 317.4 313 313.2 312.4 303.9 315.4 318.8 321.6 322.7 325.4 327.5 332.3 332.7 335.5 340.6 342 339.8 341.7 344.1 346.1 352.1 357.6 361 368.2 375.7 378.8 380.8 382.2 384.8 388.9 389.5 388 389.3 387 390.2 396.6 394.2 385.1 380.2 375.7 374.4 374.2 373 371.7 370.1 366.5 357.3 353.2 348.8 342.5 339 345.2 351.1 359.5 373.4 376.1 377.3 376 373 365.4 361.6 358.4 349.8 330.8 307.7 281.4 254.8 232.3 200.3 191.5 196.6 191.6 189.2 188.5 175.8 169.4 163.8 162.1 155.1 142.4 125.9 112.1 100 81 69.6 65.4 52.8 41.8 28.1 10.9 10.9 10.9 10.9 10.9 10.9 10.9 10.9 10.9 11.7 20.3 27.2 32.3 38.4 49.4 57.7 64.9 78.3 93.4 113.8 128.3 147.8 159.4 161 167.3 171.9 174.1 183.4 182.6 189.8 198.7 203.2 214.9 235.9 246.5 256.8 264.8 272.7 281.4 277.7 280.9 284.1 286.7 290.7 291.7 292.3 286.7 281 278.6 285.4 294.5 294.3 294 296.5 297.2 294.4 291.2 292.6 290.9 283.2 274.6 264.2 252 243.3 237 230 220 212.1 206.9 201.1 195.7 194.3 185 182.1 194.7 197.3 206.3 216.7 223.5 228.7 233.6 252.8 256.6 259.1 275.2
357.9 361.9 367.2 376.2 381.9 383.7 390.9 395.2 397.2 397.7 396.3 393.3 381.3 368.3 359.7 356 353.5 350.8 347.5 345.2 344.4 342 333.4 330.6 328.8 324.4 323 319.5 319.7 316.4 311.6 318.2 324.2 325.7 330 330.7 334.5 337 336.7 338.2 342.8 350.4 352.1 345.3 348 351.3 357.3 362.4 367.5 380 379.5 383 386.5 390.3 393 395.7 396.4 396.2 396.5 395.4 395.4 396.6 396.4 389.4 386.6 386.5 381.9 378 376.9 375.7 373.2 369.9 366.1 363.5 360.5 355.4 352 352.3 361.2 369 372.1 381.6 384.5 381.2 377.5 371 366.2 364.2 358.9 339.6 312.5 288 262.6 236.9 208.3 205.5 205 197.1 190 185.6 176.2 170.4 166.2 163.8 157.7 148.1 127.3 109.9 99.4 83.3 71.9 65.2 57.1 44.1 35.3 18.5 10.9 10.9 10.9 10.9 10.9 10.9 10.9 10.9 10.9 12.4 22.1 25.5 31.3 38.3 50.7 57.4 66.1 85.4 104.9 131.6 155.3 172.7 169.2 167.2 166.7 174.8 175.9 178.5 179.3 184.8 196.6 201 218.1 231.5 241.4 249.3 261.5 270.9 265.8 264.4 267.5 280.1 276.8 272.2 271 266 264.2 261.8 269.3 271.2 272.2 277.1 276.6 278.9 277.2 269.6 269 277.6 269 256 243.5 237.8 239.1 231.4 222.9 215 211.3 203.6 195.6 192.8 190.3 182.3 184.5 190.8 199.1 213.9 221.2 226.9 231.3 236.9 250 256.2 263.7 274.8
353 355.9 361.4 365.6 370.3 376.7 382.3 390.1 391.6 390.9 392.5 386.6 382.8 369.1 356.1 352.8 353 351 348.5 348.4 345.2 344.8 338.3 338 337.3 335.5 332.9 327.3 325.5 322.9 322.6 322.1 325.4 330.7 333.7 333.7 336.4 339.6 348.7 343.7 344.6 351.9 350.1 349.2 354.7 358 361.6 367.9 378.6 383.1 387.6 393.2 396.3 399 403.6 405.3 409.4 408.7 414.1 408.2 401.2 400.6 402 399.5 399.4 400.3 397.8 393.8 389.9 385.7 381.3 375.7 371.5 369.8 367.7 363.2 358.5 356.2 366.9 379 376.8 387.8 393.5 392.4 383.1 379.7 372.9 370.5 361.4 344.4 314.2 289.4 266.2 240.6 216.2 218.7 209.4 198 191.4 187.8 173.1 164.4 164.7 162.9 157.9 153.7 131.9 107.9 101.5 87.9 79.5 70.8 57.9 44.6 40.3 26.2 12.9 10.9 10.9 10.9 10.9 10.9 10.9 10.9 10.9 10.9 10.9 16 22 30.8 41.8 52 68 89.9 111.3 138.1 160.9 169.8 169.6 167.7 163.4 170 171.3 171.2 178.6 171.2 188.8 187.1 204.2 217.6 230.2 241.4 249.2 257.7 247.7 243.9 252 257.3 248.7 244 245.8 250.5 244.7 251.7 254.6 254.8 257.4 262.2 258.8 254 260.2 261.4 254 251.4 245.8 242.8 240.7 232 233.4 222.9 215.9 212.1 209.6 200.4 190 184.7 182.3 179.4 181.8 189.7 203.4 217.1 226 233.2 237.7 245.5 254 256 265.8 274.5
347.2 353.1 356.4 361.9 365.7 371.7 378 384.3 385.9 387.4 380.8 379.2 376.7 368.3 360.5 352.1 351.1 349.6 348.5 347.6 347.7 344 340.4 338 336.3 339.2 336.3 331.6 330.4 330.8 328.2 325.8 327.8 329.7 335.3 337.7 338.4 341.5 347.9 347.3 347 350.5 352 354.9 359.7 361 364.8 377.2 380.4 386 393 401.6 407.6 413.3 418.6 421.1 422.2 422.7 424.5 422.5 417.8 410.9 409.7 417.1 418 415 413.5 412.9 408.9 401.7 392.1 379.1 378.9 379.3 375.9 369.4 366 364.1 367.7 375 379.3 386.7 394.2 395.2 393.6 387.1 377.2 370 362.8 348.6 315 290.5 266.5 245.1 226.5 222.9 213.5 202.8 191.6 183.9 174.2 163.5 160.7 159.5 155.4 145.9 129.6 107.7 101.2 92 79.1 71.7 63 47.7 34.9 34.4 21.4 10.9 10.9 10.9 10.9 10.9 10.9 10.9 10.9 10.9 10.9 11.5 17.9 26.5 40.3 56.6 74.4 97.1 119.8 142.1 156.9 158.2 155.9 154.8 152.6 151.3 159.3 159.4 163.5 158.9 162.4 170.5 180.2 202.6 207.4 214.5 221.9 215 213.9 216.4 222.8 229.9 234.3 236.9 234 233.8 236.3 244.8 247.3 247.2 245.7 250.7 247.1 248.1 252 252.9 249.3 248.7 246.8 241.1 237.5 229.3 226.4 218.1 212.7 208.2 204.8 197.2 182.5 179.8 177 173.8 182.1 192.9 205.4 221 228.7 236.4 240.9 251.3 255 254.9 261.8 273.8
342.5 351.9 358.3 362.5 367 369.9 377.1 383.2 385.8 385.8 379.8 373.7 371.4 372 362.8 353.8 349.4 348.7 348.4 346.9 347.1 345.1 339.6 342.8 343.2 344.2 344.8 339.4 335.7 337.9 331.8 328.2 326.6 331.4 332.6 337.7 339.8 343.3 346.3 348.7 351.3 352.2 354.4 359.4 361.5 364.9 370.4 377.7 381.5 389 396.1 404.5 419.1 424.6 427 430.3 429.4 429 428.8 428.6 425.9 419.5 419.7 429.7 429 426.1 422.4 421.9 418.2 412.5 404.1 394.6 389.8 386.4 384 378.9 372.5 371.7 377 376.2 378.4 387.8 395.9 398.1 400.3 391.8 381.7 376.1 356.6 342.2 310.4 284.8 264.2 241.7 227.2 222.6 218.6 212.6 196.5 187.6 173.7 164 161 159.4 152.2 139.1 127 113.7 103.5 96.3 76.9 70.1 66.3 54.1 39.4 29 21.2 11.9 10.9 10.9 10.9 10.9 10.9 10.9 10.9 10.9 10.9 10.9 16.1 25.5 38 49.9 63.5 82.1 100.5 113.4 126.3 130.4 129.7 128.1 131.7 131.4 138 140.8 139 143.9 146.6 155.1 160.2 172.5 169.7 175.5 187.3 200.2 200.4 202.5 210.5 221.4 228.9 229.1 224.8 222 221.2 228.5 234.1 238.7 238.4 238.6 236.5 239.7 244.6 245.8 240.7 243.2 242.7 239.1 232.6 226.3 224.8 215.1 210.3 208 203.4 192.6 179.3 170.2 173.1 176 182.9 198.1 208.7 222 229 239.4 245.5 256.9 259.7 261.2 267.7 272
341.6 348.7 355.2 363.9 365 368 375.3 379.9 382.1 382.9 377 372.9 369 367.5 367.1 356.5 348.9 347.2 347.5 347 346.5 346.9 341.6 343.3 345 348.5 347 344.2 341.8 338.9 335.5 332.6 332.2 328.8 334.5 338.6 341 344.4 346.7 348.5 351 352.8 357.5 359.8 362.2 366.1 370.8 378.6 383.1 392.4 399.4 406 420.2 426 429.2 432.6 431.6 430.6 432.4 433.6 430.3 426.8 430.7 439 439.6 435.4 431.4 430.7 426.5 421.3 413.9 404.4 404.7 398 390.7 384.2 379.4 376.8 381.9 381.9 382.8 393.6 397 398.2 400.9 396.8 383.8 377.3 360.1 329.7 302.9 278.7 257.2 232.3 218.5 217 217.8 214.5 209 196.2 183.1 168.6 159.7 158.4 159.8 140.8 132.5 118.8 100.3 92.8 77.2 66 65.9 56.4 39.7 30.4 25 13.6 10.9 10.9 10.9 10.9 10.9 10.9 10.9 10.9 10.9 10.9 17.5 29.9 44.6 63.1 73.1 75.4 82.4 88.6 99.2 111.5 104.3 102.6 109.9 109.7 113.3 120.9 116.4 124.4 127.5 126.7 134.6 137.2 143.3 159.2 175.2 187.7 186.7 199.2 202.7 214.8 218.1 215.7 208.9 210 210.4 218.1 223.6 231.7 232.1 229.2 232.4 235 237.6 238 235.8 239.1 241.7 237.7 230.1 229.1 222.4 214.7 207.6 205.9 196 185.5 175.8 166.1 172.6 176.2 184.4 198.9 214.1 228.2 237.2 243.8 251.4 256.5 263.7 264.9 270 274.6
336.9 344.4 350.1 359.5 360.6 363.1 364.3 371.7 375.1 371.2 372.5 374.1 366.9 363.2 363.3 361.4 349.4 347.7 347.3 347.3 346.9 346.6 344.3 344.7 346.9 347.6 349.7 346.9 344.4 341.5 339 337.3 335 331.5 336.6 340.7 341.6 344.1 347.3 350.3 351.8 353.5 356.1 359.4 361 368 374.8 379.9 383.8 394.3 401.4 410.9 418.9 424.3 430.7 432.4 432.3 435 438 440.9 435.4 432.8 438 444.3 446 448.2 445.8 443.7 434.6 429.2 425.6 418.3 412.6 405.3 396.7 392.6 387.5 386 382.5 384.3 389 396.5 399.1 400.7 403.2 401.4 385.7 372.5 356.1 318.7 290.3 266.4 244.4 226.9 218.6 212.2 211.4 209.8 208.2 201.5 188.2 174 159.1 157 149.6 140.7 130.3 121.4 101.8 89.8 78.5 65.5 59.3 53.3 36.1 31.2 23 14.5 16 15.1 12.8 10.9 10.9 10.9 10.9 10.9 10.9 10.9 19.2 30.6 46.4 65.9 71.6 79.9 86.9 88.4 82.6 87.6 80.1 80.1 88.3 92.8 98 97 96.2 103.1 100.5 98.4 109.6 120.8 134.9 155.5 164.4 168.5 168.8 184.6 192.5 201 210.7 203.1 193.5 192.3 198 207.3 211.5 219.6 219.7 219 221.5 230 234.7 231.7 227.8 233.5 236.3 232.7 226.4 226.6 228.6 215.2 206.6 200.8 190.7 176.6 169.1 160.6 165.5 175.3 186.8 204.2 222.7 235.4 245.7 251.3 255.1 257.2 263.5 265.6 271.2 275
331.5 336.7 343.6 348.8 355 358 357.8 360.2 362.5 365.9 366.7 365.8 362.6 360.4 358.9 360.4 349.6 347.1 347.6 348.3 348.7 348 347.1 347.7 347.7 347.4 349.9 348.4 346.9 343.1 341.7 337.6 336.3 334.4 336.8 340.8 343.7 344.7 346.4 348.6 350.4 354.5 355.8 357.7 362.5 372.5 374.9 379.3 385.3 393.3 401.3 408.9 417.8 422.3 428.5 431.6 432.8 436.6 438.8 441.6 439.6 439.9 446.6 448.5 452.3 454.5 453.5 450.2 447.1 440.9 431.3 428.4 424.6 411.3 404.6 397.6 395.1 391 388.4 388.7 390.8 399.7 400.6 402 401 398.7 385.6 356.1 336.8 302.8 274.3 248.7 231.3 223.3 215.2 206.7 203.6 197.4 195.4 191.3 182.4 167.6 155.6 155.6 149.7 135.4 125.5 119.7 106.2 94.6 82.1 65.2 53.8 43.4 34.1 28 24.5 16.1 15.6 14 12 11.3 11.2 11 10.9 10.9 10.9 10.9 20 30.3 42.3 58.6 62.5 69 77.9 77.8 73.2 65.5 63 65.2 64.5 72.9 75 79.1 75.6 78.6 69.2 77.8 90.7 105.5 123.6 136.6 148.2 148.5 156.9 169.7 188.8 194.3 188.6 185.9 183.1 182.6 187.5 193.8 199.1 209.8 208.8 211.3 212.8 222.6 224.3 222.9 221.9 226.8 229.1 225.8 220.1 220.2 219.7 217.5 203 197.1 175.7 156.1 149.2 160.9 161.9 173.2 184.5 207.2 225.2 239.8 244.3 254.3 254.2 257.3 262.7 266.1 272.1 271.6
328.4 329.6 338.8 344.3 348.4 351.9 350.7 353 355.2 359.6 361.2 360 358.4 357.1 355.2 356.3 348.6 347.4 348.8 349.6 350.1 350.5 349.4 348.6 349.6 350.4 350.6 351 350.1 347.6 343.5 339.7 337.5 336.3 337.4 341.9 344.8 347.9 349 350.5 351.3 352.9 354.6 356.9 361.7 369.1 374.9 378.2 383.1 392.4 398.9 405.8 414.7 418.9 422.3 428.5 428.8 433.3 438.2 444.1 447.3 447.4 450.2 451.8 458.2 462.7 462.7 459.8 457.8 454.7 452.2 445.9 432.7 423 422 418 410 404.7 400.2 398 397.2 402 402.2 402.3 400.8 397.8 387.8 346 308.1 286.2 253.6 226.7 215.6 210 203.1 199 192.8 187.7 180.4 174.2 168.6 160.9 149.5 146 140.8 128.4 118.7 112.6 101.4 90 81.8 69.8 50.7 41.1 29.7 23.5 20.4 16.6 13.7 13.5 12.4 11.8 12.3 12.7 11.8 10.9 10.9 11.1 24.2 29.5 33 39.6 49.3 59.3 66.4 69.6 66.3 58.4 53.4 50.8 47.3 54.7 59.4 62.7 54.7 54 51.5 66.2 80.8 93.9 104.3 115.7 121.6 127.2 138.7 151.6 163.2 166.2 164.8 169.4 168.8 168.5 179.3 183.9 194.3 201.9 201.8 205.9 207.6 209.9 215.6 220.6 222.9 225.3 222.1 219.5 213.7 212.9 210.6 206.4 197.2 188.7 162.7 137.1 158.4 161.5 163.8 171.4 185.1 207.7 226.2 234 238.3 249.4 247.9 254 260 264.4 268.6 268.6
326.1 325.2 328.1 335.9 337.3 342.7 346.1 347.9 350.1 352.6 355.5 354.1 355.9 357.1 354.5 353.9 348.1 348.2 349.6 350 351.2 351.7 351.4 350.1 350.8 351.5 352 353.2 351.6 348.5 344.7 340.6 339 339.6 340.5 341.5 346.2 349.3 351.4 351.5 349.8 352.4 352.8 353.4 361.4 367.3 373.1 377 380.6 385.6 394.7 400.1 406.4 412.5 414.4 418.1 421 424.1 428.7 435.5 442.5 448.9 451.4 456.7 462 469.5 469.8 467.6 466.6 465.5 467 463.5 451.1 437.5 431.2 433.5 431.2 428.5 424.6 415.2 409 408.4 408.4 406.4 400.5 399.4 380.6 332.2 289.3 261.5 236 213.5 200.7 191.1 182.8 179.6 176.1 170.8 165.8 162.2 156.6 149.8 145 138.7 131.4 119.9 109.7 103.6 93.6 88.1 78.8 66.7 50.9 39.4 27.6 23 17.3 17.1 18.8 17.2 13.9 12.9 13.5 13.5 12.3 11.9 11.9 10.9 13.7 21.5 27.9 31.6 37 48.5 51.7 50.9 47.3 47.2 43.1 44.5 40.4 38.3 43.5 47.2 36.3 36.8 40.6 52.6 59.6 70.5 79.2 92.3 100.9 107.9 112 119.5 128.5 131.7 141.3 150.3 156.1 154 167.6 173.4 184 189.1 192.3 194.3 196.6 205.6 217 224.8 227.9 224.5 224.7 221.7 214.5 210.5 211 199.3 193.7 180.9 151.5 138.6 154.7 160.1 163.8 178.4 188.9 205.5 219.1 227.7 233.8 235.8 242.2 249.8 260.2 261.6 269.4 268.6
314.1 320 323.3 326.9 331.3 335.6 342.8 343.7 344.7 347 347.8 348.7 349.4 357.7 358.4 350.7 348.6 349.2 350.8 351.5 353.7 354.2 357.6 354.1 352.2 351.7 352.4 353.7 351.6 348.8 347.4 343 342.3 343.5 344.3 342.5 343 347.6 350.2 350.5 350.1 352.1 352.5 353.7 355.7 362 369.9 374.6 379 382.8 388.9 394.2 400.7 405.9 407.8 411.6 414.8 419.1 425.6 431.2 438 448.1 458.4 463.6 466.7 476.1 476.7 474.4 474.3 472.3 472.4 471.3 465.8 452.4 447.1 446 444.3 441.3 439.2 434.6 429.9 425.9 417.6 413.7 406.8 399.3 362.7 308.7 272.9 250.6 223.1 203.8 190.8 180.2 170.7 167.9 163.8 159.9 155 151 145.9 138.1 132 131.2 126 115.3 103.9 91.9 89.4 86.7 76.5 64.5 55.9 38 29.1 20.9 17.2 19.9 24.4 23 15.6 14 14.2 14 13.3 13.1 11.9 11.5 13.9 22.7 29.1 29.8 27.7 28.4 31.5 32.1 31.2 32 29.2 29.9 30.7 29.5 27 30.2 25.5 26.6 30.7 38.6 45.4 52.4 60.7 67.1 74.1 71.3 81.7 90 100.6 113.5 123.2 129.1 134.6 146.4 156.2 168.7 176.1 181.5 181 184.7 192 203.7 214 216.1 222.7 220.4 218 215.7 210.5 208.7 198.4 187.9 187.3 175.4 144.8 135.1 151.7 156.8 164.2 179.3 190.1 199.2 204.7 217.2 227.1 227.9 240 245.2 248.9 260.3 264.9 264.4
303.1 310.1 314.5 319.9 324.4 328 330.6 338 342.4 345.2 346.3 346.1 345.2 353.9 358.1 358.1 350.3 351.3 352.6 354.5 356.6 356.3 359.5 359.2 355.5 354.7 352.9 354 352.3 349.5 348.3 347 345.6 345.6 345.3 346 346.7 345.3 347.8 350.1 350.9 351.8 352 352.3 353.9 356.2 361.9 369 376.8 380.7 383.9 387.3 395.1 399.3 403.6 408.7 414.7 418.7 423.6 427.7 435.3 445.8 455.9 464.5 469.5 477.5 480.5 479.3 478.4 477.8 475.5 478.9 473.9 465.1 459.5 458.7 454.8 451.8 448.1 448.4 442.9 438.5 430.3 420.7 412.7 395 326.2 286.6 256.7 237.7 215.7 199.9 187.2 171.8 167.9 159 154.8 150 147.8 143.6 142.1 138.7 125.8 122.8 118 106.4 95.4 88.2 86.5 83.6 78.7 69 55.6 38.4 26.1 21.2 18 19.5 22.1 21.1 15.1 15 14.9 14.8 13.6 12.6 11.6 11 13.5 15.6 22.6 21.5 19.1 16 17.3 19.1 18.7 18.9 19.3 18.8 17.4 18.5 19 15.7 17.1 18 24.4 24.3 28.8 36.2 44.7 46.6 52.5 52.2 61.9 67.9 81 89.1 103.1 118.1 131.1 135.8 144.6 156.4 160.8 168.7 175.2 175.3 195.4 204.4 206.7 213.7 212.8 210 208.9 205.1 200.4 199.4 193.9 185 180.4 169.6 143.7 129.1 147.3 151 161.2 173.4 183 197 201.5 208 213.1 224.5 234.6 239.9 251.1 262.5 268.3 267.3
301.1 297.5 308.9 315.6 319.3 321 324.2 331.1 336.9 338.9 340.3 342.3 341.3 350 354.1 354.4 353.7 355.2 359.2 361.2 363.3 363 362.3 361.2 359.2 356.2 354.3 355.5 354.9 351.3 350.3 350.4 348.1 348.5 348.6 348.3 348.4 347.5 349.1 349.8 349.5 351.8 351.2 351.7 352.8 355 358.4 366.3 374.1 378.4 381.9 383.9 388.6 393.4 401.5 406.8 411.6 417.3 423.8 427.8 431.5 439.8 450.3 462.9 467.7 477.9 486 488.3 491 490.9 486.3 488.7 486.8 473.4 475.6 476.2 470.9 468.4 465 461.1 457.3 448.8 442.3 431.9 412.7 366.9 311.5 273 250.3 232.7 219.3 203.6 186.8 171.1 157.4 151.2 147.9 143.6 143.1 143.4 138.5 133.7 125.8 117.4 111 103.7 92.9 84.4 77.2 74.4 71.1 67.9 55.9 44.8 28.1 22.6 20.2 22.1 21.2 20 15.8 15.7 15.6 15.2 14.2 13.2 12.2 11.3 11.4 11.8 12.9 14.3 12.4 11.2 11.2 11.7 9.1 10.7 12.9 9.7 9.5 11.2 10.2 10 10.6 8.5 8.5 9.1 13.6 21.4 25.5 31.2 37.6 34.9 45.4 54.3 69.5 80.9 92.7 105.8 117.3 121.6 139.3 146 151.4 154 166.2 176.3 191.5 191.4 203.1 206.6 205.1 201.3 199.9 191.3 196.5 194.8 191.4 183.3 172 147.7 131.2 125.8 140.7 148.2 159.3 166.9 181.2 195.8 199.2 203.8 214.1 222.9 230.6 240.7 248.8 264.6 264.2 263.3
301.4 297.1 302.7 308.6 312.4 313 317.1 326.5 330.6 332.8 332.6 335.5 338.2 348.5 353.7 355.4 355.9 358.3 362.4 365.2 368.4 367.6 366.9 366.6 365.9 360.3 356.5 357.4 357 356.5 351.7 351.4 353 353.2 349.9 348.9 350.2 350.6 347.2 350.6 350.1 350.7 351.8 351.6 353.5 354 357.1 363.3 369.9 376 379.1 381.6 384.3 386.5 394.3 400.5 407.1 412.5 419.3 425.6 429.1 434.7 442.9 456.7 464.6 478 491.3 491.7 493.9 494.3 493 491.8 489.8 486.1 489 488.3 484.3 481.8 479.3 474.6 469.6 462.6 454.1 446.4 405.2 354.4 306.4 265.7 242.9 227.4 213.2 197.6 181 167.4 154.4 147.8 144.3 141.4 140.4 142.5 139.6 135.5 126.9 112.7 103.4 97.1 81.6 74.6 69.3 66.2 57.2 54.3 47.1 43.9 34 23.6 22.6 22.1 21.3 19.2 17.2 16.1 15.8 15.4 14.8 13.8 12.9 11.7 11.3 10.8 10.6 11.6 10.9 10.9 10.9 9.1 8.5 8.5 8.5 8.5 8.5 8.5 8.5 8.5 8.5 8.5 8.5 8.5 8.5 8.5 8.5 13.9 18.2 24.2 35.6 45.9 58.4 71.2 80.4 92.6 102.1 106.6 121.1 134.2 140.3 152 152.2 157.8 170.3 178.6 182.8 187.5 187.4 180.9 178 186.9 190.3 188 185.5 176.3 161.1 134 107.2 133.8 138 144.8 154.6 171.9 180.8 185.9 193.8 198.5 207.2 223.6 232.4 238.4 246 255.2 257.2 258.6
