ncols 200
nrows 87
xllcorner 170000
yllcorner 781450
cellsize 50
127.5 122.4 119.7 118.8 116.4 140.6 144.7 148.7 145.1 145.4 147.1 146.1 147.9 170.5 190.4 203.2 211.9 207.7 221.9 239.2 242.9 244.5 251.6 261.1 261.6 251.1 255.2 250.8 259.2 270.1 263.1 252.7 219.6 204.9 207.1 222.7 229.1 219.9 218.6 201.3 213.7 224.2 231.5 222.9 209.3 210.6 207.3 207.9 211.2 219.9 216.6 207.9 218.7 220.7 236.5 234.5 213.9 227.9 235.7 248.4 254.3 250.8 260.1 254.9 252.6 243.4 232.8 221.3 210.4 210.1 212.7 217.8 222.9 220.3 222.4 225.2 215 219.6 219.7 234.9 247.9 248.1 254.7 261.3 258.1 254.7 261.6 268 276.5 302.5 339.9 336.2 340.8 343.2 329.2 327.7 316.7 308.6 313.1 329 338.3 322.8 345.2 356.5 366.5 364.4 342 337 339.3 356.5 362.8 359.9 357.6 369.1 385.7 417.1 417 408.9 392.6 373.7 364.7 356.4 341.9 352.3 370 374.5 375.3 387.1 418.8 430.7 412.7 396.7 384.2 377.6 370.8 358.5 348.2 343 335.4 321.3 303 290.3 283.8 289.7 294.8 289.5 313.5 298 295.6 284 274 257.5 270.1 279 280.3 272.3 265.7 274.5 280.3 296.2 310.4 320.1 327 332.4 335.3 348.4 358 355.2 350.2 353.7 351.9 358.1 358.2 372 376.2 388.5 401.1 407.1 401 400 391.2 387.6 377.6 358.8 334.6 315.2 288.8 266.3 243.4 219.6 198.6 176.7 161.9 153.1 124.9 100.3 83.3 65.9 48.3 44.1
124.5 117.4 113.8 109.1 108.5 120.7 120.5 118.9 120.2 126.7 128.6 129.9 142.6 168 181.5 186.3 188.6 206.9 220.8 230.3 233.2 233.4 238.8 240 234.4 230.2 238.8 235.5 237.8 235.5 226.5 214.8 196.6 185.3 197.8 198.1 196.6 193 184.3 168 187 194.2 195 187.2 176.1 173.9 174.5 178 181.3 184.6 186.6 178.1 196 193.2 201.9 202.3 199.1 199.7 205.3 210.9 213.7 229.3 237.8 233.6 227.1 214.4 198.2 194.3 190.2 190.7 198.5 205.5 203.5 206.3 205.2 206.6 207.1 215.8 216.4 227 236.1 231.4 238.1 245.3 244.9 247.9 261.6 272.2 278 303.5 331.8 330.1 326.5 327.8 318.9 313.3 303.8 294.8 298.6 307.2 318.9 307.8 328.1 340.9 347.5 340.1 321.6 311.9 328.9 347.8 345.5 331.3 333.3 356.8 376 391.6 390.8 368 353.8 342.3 342.4 330 324.6 358.7 359.3 365.9 380.4 386.2 418.2 411.3 389.7 369.9 358 365.9 359.7 352.8 340.8 334.1 322.8 304.8 291.6 282.9 275.9 273.6 276.2 276.2 276.6 284.1 283.3 280.9 267.5 254.6 270.8 271.9 268.1 263.7 256.6 266.8 278.6 298.1 301.3 308.1 328.5 337.3 348.1 359.9 366 370 368 360.8 361 363.5 372.8 381.4 400.1 411.6 413.4 401.4 397.6 396.9 394.1 390.6 365.3 345.6 328.4 312.1 280.9 254.9 233.3 212.1 191.4 180.6 171.4 149.7 133.9 117 89.7 67.6 48.2 46.5
116.8 111.8 105.1 99.9 105.1 111.9 112.4 109.2 110.6 117.2 119.2 123.9 138.2 154.6 165.9 176.3 202 218.5 226.5 229 222.9 217.5 223.4 220.7 212.2 214 213.1 213.2 213.7 205.3 204.9 200.2 194 173.1 182.6 175 163.8 160.2 161.6 156 159.9 165.4 169.6 166.9 165.6 151.7 152.3 156.2 160.1 155.9 153.2 149.7 164.2 164.3 171.1 172.7 168.5 169.3 181.6 192.7 202.7 210.8 208.5 203.4 191.2 183.1 173.5 173.4 170.4 169.9 184.2 183 185.3 187.5 196.2 191.4 198.1 203.8 211.3 210.2 214 218 227.4 232.8 240.9 249.5 264.7 278.7 281.1 298 316.1 314.4 310.8 304.7 307.1 292.7 280.7 278.4 286.1 294.7 289.5 284.2 301.5 315.3 321.2 304.1 297.5 291.1 310.3 336.2 321.9 310.5 319.9 352 369.9 365.3 360.6 347.5 336.6 314.3 307.8 295.4 320.7 347.5 360 364.2 375.1 395.3 402.6 386.8 368.8 346.7 338.2 334.7 342.2 343.9 327.9 313.5 290.8 284.3 275.7 278.9 265.2 257.4 253.9 243.9 256.6 267 271.4 271.6 260 245.1 259.1 255.4 254 253.3 246 257.3 274.4 280.4 287.1 308.5 328.6 343.7 357.8 368.3 371.9 379.5 372.3 374.5 369 371 384.5 400.4 416.7 418.8 407.6 405 402.2 408.3 401.8 390.1 365.8 335.2 318.5 297 272 246.7 227 210 193.1 185.5 165.5 144.7 135.2 110.6 85.1 60.4 49.9 44.1
100.6 101.5 97.6 100.9 105.5 116.2 114.8 108.1 107.5 113.1 113.8 120.2 128.9 134.1 153.4 179.1 206.1 217.7 213.4 213 214.5 214.1 228.2 225 208.3 206.7 189.6 186.4 182.8 182.6 185.5 176.8 171.1 159.5 167.5 156.9 151.1 145 139.8 142 142.5 139 142.7 145.7 142.7 139.8 136.4 131.9 133.5 135.1 130.7 132.9 133.4 134.6 139.9 148.2 150.5 160.5 170.7 171.8 174.5 177.5 178.6 170.3 164.1 159.6 153.9 153 147 154.7 162.6 164.7 174.2 175.7 180.7 179.7 186.1 191.9 198.9 200.6 209.8 223.8 228.6 238.8 247.2 258.2 277.1 280.6 289 302.7 314.9 327.5 309.8 290.9 298.4 271.7 256 260.4 277 283.2 265.8 266.8 284.7 314.2 306.1 280.8 272.2 273.3 292.1 315.4 300.6 283.8 304.8 340.6 344.7 343.6 333.8 322.6 303.1 284.1 272.4 296.3 322.6 344.7 370.2 381.6 382.1 385.6 375.9 359.9 336.5 318.8 321.7 302.9 303.1 311.7 298.4 283.9 265.3 259.8 270.7 269.6 254.6 231.6 227.2 228.8 236.7 251.3 264.4 263.4 253.5 240.2 253 239.5 229.6 230.6 234.7 243.4 256.3 270.7 287.6 309.6 329.2 347.6 361.9 371.7 377.1 381.6 384.1 373.9 377.4 387.3 398.5 411.7 422.7 416.1 413.9 414.7 430.7 424.5 407.7 385.4 360.8 335.3 310.9 287 263.2 242.7 223.8 205.8 189.7 174.3 155.8 146.4 120.4 96.6 76.6 70.3 54.7 59.2
92.7 101.1 106.3 103.1 106.8 111 109.5 103.2 105.5 108.1 108 111.3 119.5 133.1 153.5 176.3 188.3 202.5 203.3 204.1 205.3 211.8 216.3 207.1 194.9 185 173.3 166.8 167.7 167.7 162.6 162 156.8 147.5 142.4 140.9 136.7 130.5 125.4 119.2 120.9 118 119.6 118.4 120.6 117 115 110.7 110.5 111.5 113.2 116.1 117.7 119.1 125.2 130.1 139.5 145.7 150.7 151.8 147.7 150.8 144.5 146.5 141 137.3 139 135.7 134.1 148.6 153 158.4 163.7 168.6 172.4 175 177.9 182.2 200.8 207.6 220.4 231.4 234.3 241.6 252.8 265.9 275 289.1 297.7 310.4 298.3 315.5 304.2 272.4 261 242 227.1 237 260.3 252.7 243 243 254.9 283.3 278.9 249.9 244.1 244.4 255.3 282.8 274.7 259.4 287.3 318 312.6 309.8 305.1 293.5 268 250.9 255.2 289.1 306.7 334.5 360.1 374.9 383.4 372.9 348.4 330.5 309.8 290.9 298 287.9 276.7 266.5 268.7 250.8 237 249.7 250.5 239.6 228.4 211.3 216.7 214.2 225.9 241.7 255.1 249.5 239 221.6 227.4 215.4 208.2 218.9 223.8 236.8 243.9 267.7 289 311.6 329.8 353.7 376.8 376.6 375.6 384.3 378 376 384.7 409.6 420.8 429.9 425.3 412.1 416.7 418.6 430.6 414.6 396.3 375.8 348.5 328.6 304 278.1 259.9 249.6 230 211.5 187.5 167.6 152.2 136.7 110.7 100.3 92.4 76.4 52.2 57.1
92.8 100.7 107.1 99.9 101.7 105.5 100.6 100.5 109 108.3 102.4 107.1 128.8 142.3 149.9 157.9 175.3 186.2 193.6 197.5 198.8 199.6 195.8 189.4 179.7 169.7 158 149.1 149.9 146.8 142.4 139 140.7 134 126.4 124.5 118.8 110.9 112 109.1 108.8 100.6 97 101 103.9 98.6 98.4 96.3 97.5 97.8 99.1 103.5 106.4 108.1 113.3 115.9 118.9 128 129.1 129.8 125.4 122.2 125.7 127.6 125.4 127.3 127.9 125 129.8 150 159.6 168.6 175.6 180.8 182.1 184.4 194.6 203.4 212.6 226.1 241.8 249.7 250.8 257.8 266.8 280.9 291.3 289.7 279.3 278.5 270.3 266 262.5 258 225.8 207.1 204.8 219.3 229.6 234.2 224.3 220.5 227.2 244.5 239.9 218.6 212.2 211.7 233.8 255.9 240.4 237.4 269.8 293 288.1 284.2 272.9 260.8 237.5 213.6 257 282.6 303.4 336.6 351.6 365.7 359 355.1 330 299.5 279.1 268.1 259.1 257.8 253.2 242.9 231.1 218.6 223.8 222.9 223.2 208.7 207 206 198.5 208.3 213.1 229.3 238.4 230 220.3 207.3 196.4 192.7 199 208.9 207.1 223.5 242.6 263.1 288.5 311.1 325.7 353.4 370 365.3 378.1 373.8 367.7 367.1 396.9 415.6 433.6 426 420 405.2 406.1 401.7 411.1 400.5 381.4 358.5 346.2 333.4 313.1 281.9 261.4 248.4 226.1 207 188.2 164.4 146.5 129 118.7 108.2 92.6 73.7 52.7 52.2
88.5 94.6 96 97.3 99.2 103.2 99.9 99.5 106.3 106 96.2 107.1 124.6 137.2 147.9 153.4 159.7 166.9 175.9 178.3 175.1 172.8 169.5 161.1 154.3 147.2 138.2 135.6 139.7 133.4 129.1 132.7 125.7 121.5 118.6 114.3 108.6 103.9 101 101 99.4 93.2 85.9 88.4 89.6 89.6 89.9 87.8 85.6 84.3 85.8 90.1 94.7 97.5 98.6 100.7 101.3 105 108.1 113.9 113.5 109.6 113.1 115.3 113.5 119.6 115.7 128.6 142.2 153.4 162.5 175.9 186.7 200.3 203 213.5 222.6 223 241 254.4 272.7 269.4 273.4 285.9 299.3 288.3 281.6 270.1 250.6 247.5 242.2 227.3 217 214.4 195.7 178.6 188.8 196.9 208.6 213.1 193.8 194.2 208.3 217.7 205.4 191.5 186.5 187.8 211.2 219.1 211.8 216.8 249.7 262.4 259.4 255.4 236.5 221.9 201.6 212.3 241.8 260.1 282.9 321.2 337.1 335.2 326 315.7 300.2 270.2 251.2 244.3 239 228.3 224.8 223.5 206 208.5 209.6 202.3 194.4 194.3 209.9 189.5 181.4 196.2 195.3 205.4 216 213.7 200.8 195.1 179.5 180 186.4 191.9 208.3 225.6 245.7 257.2 282.3 296 318.4 340.2 354.2 363.2 366.2 355.1 351.4 362.9 395.3 406.8 419.6 412.6 407.4 395.1 391.9 389.6 395.9 388.4 373.7 353.7 349.1 334 321.6 287.4 266.1 241.2 222.5 203.9 185 166.3 150.3 138.5 122.2 103.4 89.4 71.6 57.9 52.2
87.7 90.9 94.6 96.4 103.2 109.2 103.5 101.9 99 96.7 93.5 100.2 113.4 122.8 125.4 148 156.2 162 164 159.1 155.6 148.6 141.9 139.4 138.2 134 123.7 123.1 124.8 117.1 116.6 119.3 112.6 115.7 107.7 106.1 103.1 93.8 95.3 95.9 93.6 87.4 82.7 86.7 91.8 79.8 78.7 77.3 77.7 78.4 79.2 80.8 83.7 87.1 89.5 91.7 94 91.4 93.2 94.1 100.4 102.6 100.2 108 112.4 117.7 127.7 144.7 160.7 173.6 180.6 193 209.2 213.2 230.4 247.5 243.1 250 266.6 293.5 300.4 281.5 294.2 302.1 302.4 279.5 256.2 241.3 228.2 236 218.8 201.2 194.1 179.7 167.2 158.1 184.4 189.1 178.6 185.7 168.9 171.4 182.8 181.1 173.8 158.3 156.5 174.4 190.6 197.3 181 192.2 213.7 216.2 212.2 210.2 197.7 190.2 175 201.9 217.8 234 259.9 284.6 301.6 293.9 285.8 277.7 261.1 237.1 216.1 214.1 207.1 208.6 212 204.9 199.4 199.5 188.8 179.8 177.3 194.1 188 172.5 164.2 176.9 172.7 182.3 198.3 199.9 186.3 172.5 162.2 168 178.2 189.7 205.8 222.5 242.2 249.2 267.9 282.1 309.9 329.5 329.8 341.9 337.9 335.1 338.3 352.4 372.2 393 410.7 411 396.6 388.6 385.4 382.9 380.9 371.3 359.9 348.3 350.1 341 322.2 300.6 272.8 248.1 242.5 221.1 199 192.3 161.8 145.3 123.5 104.3 90.7 76.3 64.8 52.2
89.6 95.7 97.2 99.7 107.3 106.4 98.3 92.4 83.1 83.5 85.2 87.9 98.3 105.8 121.6 136.8 145.7 149.3 146.5 142.4 141.8 133.4 127.8 130.6 132.5 131.6 120.1 114.4 113.2 109.9 109.9 103.7 102.8 105 95.7 95.6 89.5 90.4 90.8 86.6 85.6 79.4 80.5 83.6 88.2 78 74.8 74.6 75.2 76.6 77.2 78.5 79.2 81.9 84.6 86.6 87.5 84.4 94.3 100.7 103.9 107 106.2 108.3 118.1 133.5 146.2 157 171 183.3 193 213 230 245.9 259.5 269 272.1 285.8 305.4 316.9 306.3 298.2 290.8 284.2 268.2 247.9 229.5 214.1 199 209.7 195.2 183.2 172.4 156.2 146.2 141.6 154.4 168.1 151.5 154.8 143.8 143.1 142.3 144.7 137.8 134.8 140 153.3 165.5 168.6 156.5 165 178.2 177.5 175.6 168.7 171.1 160.2 174 190.1 197.2 211.6 240 253.7 236 236.9 239.2 240.6 235.8 203.8 185.3 180.5 173 182.5 204.5 197.8 199.8 186.7 168 165.5 174.5 173.2 166.2 153.2 157.8 151.2 152.5 154.1 172.3 176 166 156.5 149.4 160.4 169.5 172.4 179.9 190.6 210.7 222.7 240.5 255.5 271.5 285.7 297 301 313 318.4 329.5 349.9 378.1 400.1 411.6 403.6 387.1 391.4 383.7 385.8 392.3 366.7 351.8 346.5 350.6 339.3 324.5 303.7 290.7 271 259.5 231.1 204.9 191.2 169.3 148.9 122.5 111.8 98.2 85.9 70.8 57.6
95.3 94.8 94.7 101.9 107.9 106.6 90.8 82.7 80 81.2 78.6 83.7 93.5 102.1 113.6 123.2 134 138.2 134.9 128.7 125.8 125.6 121.4 128 128.3 121.6 117.7 110.2 106.6 104.7 103 102.2 96 90.7 81 80.9 79.8 82.1 79.2 76.7 77.2 76.6 80.5 79 81.3 75.7 75.6 73.6 75.1 77.3 76.4 77 78 79.8 80.9 84 89 89.4 93.8 95.6 101.2 100.3 104.7 117.2 129.7 143.3 151.3 163.3 174.3 196.6 209.7 227.1 245 266.7 285.3 296.1 309.5 320.1 331.2 323 317.2 293.2 269 253.7 238.3 228.4 212.4 189.8 168.7 171.6 169.7 172 154.2 139.5 127 121.5 120.9 126.1 120.9 122.4 118.4 121.4 119.8 119.2 119.7 118.9 123.3 135.6 142.4 150.2 136.1 138.6 145.1 140.9 143.5 148.5 146.8 148.4 166.9 169.3 176 176.4 179.5 184.5 187.5 197.7 204.8 200.5 192.8 172.1 161.3 153.5 150.5 162.5 171.5 177.5 184.8 166 156.8 150.3 147.8 142.6 142 143.3 141.2 137.4 133.9 132.9 134.6 141.8 145.4 144.6 143.6 147.3 150.8 164.3 176 186 205.7 224.9 244.4 258.1 269.7 279.5 292.3 302.1 310.2 322.4 341 348.2 366.3 382.8 393.1 384.4 375.5 384.9 377.8 375.2 376 350.6 340.4 346.1 341.9 335 320.3 296.9 288.3 280.2 262.3 243.5 217.3 197.9 175.3 152.3 132.5 122.5 110 102.2 76.3 62.9
90.8 85 91.8 101 105.3 103.2 92.3 84.9 78.9 79.2 76.1 86.2 92.2 99.3 106.7 118.6 137 138.6 127.2 120.5 115 118.4 116.3 116.4 115.3 110.7 101.8 91.7 84.1 82.4 81.5 82.5 83.7 79.9 72.1 73.4 71.6 71.8 69.7 70.2 68.1 67.5 65.5 69.6 71.4 72.1 70.2 73.5 76.5 81.2 83.9 86.5 85.1 86.6 87.7 90.7 92.8 91 90.3 93.5 95.9 102 110.5 121 131.9 153.4 174.7 192.2 205.4 227.3 239.2 253.4 267.1 286 299.6 309.7 321.4 330.7 330.9 320.7 303.9 274.8 247.5 229.3 219.9 210.2 194.1 171.2 152.7 143.7 143.1 141 130.3 119.7 109.5 108.4 99.9 101.6 100.8 106.3 107.4 108.6 106.1 110.8 110.3 111.3 113.4 121.6 121.5 125.1 117.3 119.7 124.2 123.8 127.7 126.1 127.2 145.3 151.6 149.3 148.2 153.4 157.5 161.5 161.1 162.7 167.3 172.9 157 148.2 138.4 133.9 140 139.3 147.9 151.4 152.5 145.4 144.5 132 123.4 121.9 125.9 126.6 130.2 130.8 126.9 121.6 122.5 129.1 132.1 130.9 141.9 153.2 168.1 178.4 190 203 220.4 241.6 263.2 275 278.5 286 296.2 304.7 314.7 333.7 355.5 368 380.3 372.6 365.5 361.8 362.4 368.3 367.1 361.1 355.6 345.6 335.7 336.3 341.7 321.2 300.5 282.8 277.7 275.4 264.6 248.5 231.5 209.7 192.3 163.7 141.2 136.9 126.7 113 89.1 72.1
76.4 75.4 84.8 101.6 93.6 87.7 84.3 80 74.3 74.3 75.6 83.6 86.3 88 97.3 113.8 128.1 125.9 133.1 126.7 110.9 107.6 105.9 105.2 98.2 89.7 80.5 72.1 65.6 61.7 61.6 65 68.3 65.6 69 67.2 63.2 60.3 63.6 71.8 74.4 82.2 88.7 92.4 93.7 94 107.5 109.4 107.9 109.4 108.4 110.3 110.7 110.7 110.4 110.7 108.2 108.7 105.9 103.8 108 112.3 124.3 140.7 155.4 170.6 187 200.3 208 219 234.8 250.5 272.6 285 300.7 320.8 323.9 319.7 310.8 302.7 279.5 251 221.4 202.4 196.3 187.3 169.9 153.5 133 124.3 115.1 118.7 111 103.2 98.3 97.4 96.4 97.9 102.7 104.2 108.7 107.9 108.2 108.2 105.4 106.8 105.4 106.3 109.4 109.7 110.7 110 111.9 116.7 114.1 114 121.4 130.7 136.7 129.5 129.8 133.7 142.9 146 139.7 135 145.9 145 131.4 124 117 122.1 128.6 121.4 136.7 133.2 127 131.4 125.7 116.8 114.1 110.4 114.2 115.2 121.3 117.9 116.9 115.9 117.7 127 137.9 144.9 154.8 169 177.1 190.4 203.7 217.7 234.2 261.6 274.5 283.4 289.8 298.9 308.7 317.2 331.7 346.9 366.4 369.2 367.2 365.4 363.2 366.1 371.8 377.4 367.4 356.3 347.4 335.8 324.6 312.8 302.3 290.1 280.5 272.9 266.8 261 257 246.7 236.2 217.9 199.7 176.8 161.5 149.8 134.9 114.1 95.4 67.5
68.8 70.4 80.2 82.3 81.6 76.7 76.6 73.9 70.9 69.5 72.4 80.1 83.9 83.9 96.4 103.5 106 108.2 118.6 112.2 103.5 102.2 98.6 94.3 83.7 74.4 65.6 58.2 58.4 54.2 52.5 57.9 58.5 55.6 56.2 64.6 74.4 81.4 80.1 88.6 101 109.3 115.1 115.4 119.1 120.8 122.8 115.4 112.3 111.2 113.1 114.5 117.5 127.8 139.1 134.7 137 135.9 140 145.8 142.9 156.4 175.4 185.8 184.7 197.6 208.1 226.3 238.3 241.4 246.9 262 270.8 283.4 291.7 305.6 301.5 297.1 286.6 274.6 252.4 223.9 198 183.4 175.5 165.2 142.1 132.4 118.6 112 97.8 94.8 97.2 93.4 91.4 96.3 98.9 101.6 108.5 109.4 110.4 110.9 108.2 105.4 105.4 105.4 105.4 105.4 105.4 105.4 105.4 105.4 105.4 107.4 109.9 112.1 114.9 116.7 119.7 120.5 113.6 124.2 124.9 126.7 112.6 119.2 117.1 112.7 105.4 105.4 105.4 107.6 113.8 117.6 122.7 119.7 114.2 116.7 114.4 111.1 107.4 107.5 109.5 110.2 110.1 111.9 113 115.4 123.5 137.5 146.2 155.4 169.1 179.6 185.8 197.6 211.5 225.4 245.5 265.6 281.3 289.7 297 305.3 318.8 335.6 348 360.9 372.4 370.8 366.4 366.6 375.1 394.5 400.3 401.4 383.8 369.2 363.5 354.9 342.2 327.8 309.6 296.2 280.7 269.1 259.1 252.4 241.1 229.9 217.5 199.3 186.7 171.1 161.9 149 128.3 109 87.8 67.1
56.6 54.4 62.7 70 69.2 68.5 72 72 66.9 66.5 68.1 78.1 75.8 84.2 89.5 90 87.8 87.1 87.8 90.1 93.1 88.5 88.3 78.4 70.2 63.2 61.4 56.8 52 49 50.4 54 52.6 55.7 61 68.2 69.8 71.7 74.7 82.8 87.1 98.2 108.2 117.8 125 133.1 141.3 126 121.8 125.4 129 133.3 148.5 167.9 181.9 177.7 185.2 193.1 188.5 185.2 190.5 210 216.6 226.4 235.8 238.3 239.9 245.9 250.9 260.1 275.9 299.9 314.3 324.4 323.1 328.1 329.3 323.3 304.3 286.8 256 216.8 183 167.8 151.6 134.3 117.4 107.4 103.7 98.5 90.9 89.1 90.2 90.5 93.1 98.5 100.4 106.7 116.8 116.8 114.7 111.4 108.5 105.4 105.4 105.4 105.4 105.4 105.4 105.4 105.4 105.4 105.4 105.4 107.3 108.5 108.6 109.5 106.8 105.4 105.4 105.4 109.2 105.4 105.4 105.4 105.4 105.4 105.4 105.4 105.4 105.4 105.4 106.4 105.4 108.6 105.4 105.4 105.4 105.4 105.4 107.5 106.6 109.5 110.7 112.5 115.2 118.9 125.4 134 148.9 159.7 176.8 186.2 196 209.6 223 236.9 250.4 266.5 278.2 282.2 296.4 308.2 319.4 331.3 347.8 362.6 368.4 368.1 371.1 373.2 390.4 404.9 399.7 389.6 374 366.5 367.4 360.2 344.4 325.3 310.7 303.5 296 277.3 269.1 257.4 246.5 235.8 218 199.6 179 165.6 162.8 150.4 128.6 101.1 83.2 70.4
41.8 46.5 56.6 55.5 62 62.3 63.8 65.6 66.3 58 65.3 68.6 63.9 66.7 68.8 69.1 68.7 69.6 71.6 76.2 78.2 72.9 66.8 76.8 81.6 81.1 73 60.6 59.4 48.6 49.5 52.1 52.8 56.5 62.3 73.9 88.7 96.8 111.6 121.8 127.7 137.4 155.2 163.7 164.9 162.1 158.7 168.2 165.4 177.1 181.1 175.5 182.7 194.9 202.7 205.6 210.4 218.8 225.2 233.4 232.8 248.7 258 271.7 280.4 278.5 285.2 292.8 298.8 295.4 295.7 308 324.6 332 335.5 338.3 332 316.8 302 277 244.1 208.4 179 170.4 151.2 133.1 116.6 97.4 92 89.4 87.3 88.8 89 93.6 100.4 105.2 110.9 118 117.6 118.6 120.2 118.6 119.2 123.4 124.3 120.5 118.8 114.8 110.4 105.4 105.4 105.4 105.4 105.4 105.4 105.4 105.4 105.4 105.4 105.4 105.4 105.4 105.4 105.4 105.4 105.4 105.4 105.4 105.4 105.4 105.4 105.4 105.4 105.4 105.4 105.4 105.4 105.4 105.4 107.4 105.4 114.1 115.2 117.9 118.9 125.5 129.7 132.9 141.4 150.7 152.8 156.6 166.1 174.6 188 206.3 216.6 231.4 238 249.1 258.2 271.2 285.8 301.4 315.6 329.9 352.2 363.4 366.3 367.1 368.5 376.1 375.7 376 373.4 369.2 368.3 374 379.3 364.4 348.7 335.9 339 336.4 319.9 297.7 279.8 268.9 257.5 252.8 239.6 221.9 199.9 185.1 181.3 169.5 149.9 121.6 95.7 79.6
33.6 36.3 37.6 38.2 40 42.1 43.1 45.3 46 53 58.9 64.9 79.6 85 87.2 82.9 79.1 72.6 74.1 78.7 87.5 87 94.1 94 92.3 87.2 72.8 59.4 48 56.9 51.2 57.6 63.8 69.5 85.3 100.6 124 127.4 145.9 153.2 157.9 162.5 162.9 163.8 156.3 145.1 150.1 153.6 154.8 177.4 179.5 192 214.5 221.6 223.4 235.5 242.9 238.1 249.3 263.7 257.2 270.1 272 294 282.2 283.3 302.8 322.7 323.3 326.2 324.6 331.6 332.1 340.3 341.5 333 314.4 295.5 290.6 258.9 233.7 198 173.6 166.4 144 126.7 111.3 99.1 92.4 88.6 91.5 101.2 108.2 126.3 135.6 145.7 145.8 145.9 146.4 148.8 147.1 146.5 147.1 146.9 147.9 146.2 143.6 138.1 132.2 122.4 113.8 120.8 125.2 124.7 120.8 113.4 108.5 105.4 105.4 105.4 105.4 105.4 105.4 105.4 105.4 105.4 105.4 105.4 105.4 105.4 105.4 105.4 115.2 113.5 112.2 114.9 119.3 120.5 122.8 129 144.6 154.4 151.5 147.2 149.2 156.5 164.8 173.1 172.8 179.3 182.6 188.3 191.4 197.2 205.3 215.1 223.6 235.1 248.2 263.5 278.9 293.5 309 326.2 344.3 367.8 390 397.8 397.2 402.5 396.5 404.7 399.6 400 388.3 387.4 394.6 389.8 383.9 372.4 366.4 363.6 345.5 339 320.7 303.7 289.6 279.1 278.6 273.1 254.3 242.7 222.9 203.7 196 187.8 174 138.7 114.1 99.7
32.5 32.9 35.8 39.7 46.5 53.3 54.7 57.9 53.9 55.8 67.9 91.1 97.7 102.3 102.6 104.4 91.7 80.9 78.7 80.4 87.3 90.6 94.6 99.2 95.4 85 62.2 47.5 50.5 54.1 60.6 79.6 89.8 105.8 100 113.5 128 133.5 144.4 147 159.3 165.8 155 146.5 130.8 121.6 120.9 121.9 126.1 139.8 149.9 176.9 208.1 225.2 235.6 243.3 246.6 251.7 258.8 254.3 257.5 261.5 272.2 295.1 297 307.9 318.9 325.2 319.9 313.7 322 332.5 327.6 315.5 303.1 294.5 281.8 263.1 253 238.4 218 183.9 161.5 149 128.5 115.1 102.5 100.3 91.6 91.1 102 111.9 127.6 146.3 153.7 159.5 161.7 163.2 164.8 174.8 187.4 182.6 184.4 183.8 181.1 169.3 163.3 155.6 148.8 143.6 144.1 151 156.8 153.5 144.2 127.9 114.9 108.3 106.2 106.6 108.5 115.3 120.1 118.8 122.1 123.3 113 109 111.3 116 120.9 125.1 129.1 127.2 128.3 139.3 147.7 147 148.8 152.4 175.5 185.3 178.7 182.7 187.4 191.8 198.8 203.5 208.1 212.8 213.9 228.7 225.9 226.3 233 238.5 243.7 252.8 267.1 285.2 301.9 316.3 333.3 354.5 371.7 402.7 432.4 427.7 426.5 429.3 434.3 421.1 423.8 418.1 404.9 401.3 403.2 397.9 383.6 376.6 366.6 353 341.2 329.7 326.6 323.6 301.7 297.9 289.8 280.6 270.4 262.1 241.6 221.5 212.8 204.6 193.6 164.9 144.2 132.2
43.5 41.8 44 50 55.9 62 63.5 63.9 63.7 71.6 85.4 101.1 116.2 117.4 111.6 112.9 99.5 87.8 82.6 101.6 96.9 96.6 95.9 94.3 86.8 74.1 48.6 44.9 55.4 62 68.1 77.8 90.9 114.3 119 122.4 126.9 138.4 139.1 155.7 161.5 159 144.7 135.8 116 104.9 94.4 96.8 102.2 115.3 137 156.9 181.4 188.5 195.4 202.3 224.8 242.9 235.4 235.4 253.2 250 289 303.6 311.3 317.6 314.1 302.6 298.7 309.9 312.4 310.8 299.4 287.5 277 263.2 248.4 237.4 229.5 217.4 198.9 165 147 129 119.8 107.8 97.6 93.6 89.8 100 107.1 119.9 136.4 153.2 158.3 163.6 171.5 173.8 176.6 185.7 195.9 206.3 207.4 202.1 188 186.1 184.4 190.7 188.6 178.7 181.6 191.7 189.4 172 156.7 146.4 138 130.1 129.1 131.3 130.8 131.6 131.4 132.6 142.4 142.1 139.9 144.1 139.6 147.5 153.1 143.9 142.4 146.3 150.9 160.8 166.7 172.8 181.3 179.7 195 199.4 203.1 221.2 232.1 231.9 237.3 236 241.6 244.4 246.9 253.7 257.8 261.8 266.9 272.2 275.5 286 292 308.4 324.8 340.5 363.3 397.3 424.2 444.3 451 446.4 450.1 453.6 452.7 440.6 429.9 421.6 411.9 400.3 404.2 406.9 385 373.8 358.6 343.1 340.2 340 333.5 319.9 304.8 303.5 301.6 296.1 291.5 280.2 258.7 254.5 249.2 245.5 225.6 194 184.7 166.3
66.2 62.9 68.1 73 66.3 66.8 70.2 71.1 80 92.7 113.9 121.9 121.4 115.4 107.7 97.7 89 76.2 86.4 99.8 106.5 108 95.1 96.3 76.9 59.5 37.1 46.3 60.1 69.9 75.1 77.5 91.5 112.2 106.7 115.8 130 140.8 136.7 142.9 147.5 140.3 130.3 123.5 110 99 83.5 81.2 87.5 95.9 109.7 121.4 134.4 151.2 186.9 202.7 205.7 197.8 204.6 231.5 232.4 255.8 260 267.2 307 300.1 281.9 274.6 288.7 292.9 292.8 293.7 273.5 265.2 252.4 242.1 228.2 215.6 204.9 194.5 169.3 149.4 130.5 118.8 108.4 97.3 91.4 85.6 92.2 101.3 116.9 132.5 141.3 153.6 161.9 170.2 174.4 182.6 180.7 187.8 196.8 211.4 207.9 198.7 198.2 213.5 225.4 233.9 231.7 228 231.7 229.1 214.3 200.3 194.5 186.3 174.7 161.5 159.4 156.5 156 157.4 151.6 158.9 169.6 173.9 174.1 169.8 170.6 173.8 177 174 168.7 177.7 183.3 189.8 202.4 210.9 214.5 209.2 211.2 222 237.6 269.2 278.4 279.1 280.1 274.6 275.7 275.1 279.4 286.9 295.4 298.7 302.7 306.9 312.6 316.7 322.6 337.2 353.8 391.3 432.3 452.5 457.2 462.4 462.7 465.9 468.1 464.9 456.8 449.1 431.7 425.3 414 407.7 404.2 394.8 379.2 369.3 353.6 349 332.5 322.4 317.2 306.8 304.4 301.6 301 298.4 291.7 281.9 265.2 266.6 271.8 256.4 237.8 234.6 217.8 197.8
82.1 86.6 87.6 85.5 78.6 76.9 75.8 77.4 95.3 105.2 120.9 119.8 114.6 100.9 83.4 86.4 72.8 72.5 98 107 101.1 96.4 82.6 80.1 70.1 51.1 43.4 44.1 67.5 82.2 76.2 71 76.6 79.8 86 102.9 109.6 110.1 113.1 118.6 114 114.4 111.2 99.8 95.2 92.7 79.6 67.6 64.3 68.2 75.8 101.7 128.5 144.8 160.4 158.1 161.1 156.6 161.6 183.7 192.2 191.2 204.7 223.6 243.8 258.7 242.4 252.6 274.9 270.2 267.6 253.3 243.2 234.7 233.6 218.2 207.8 193 172.8 163.7 154.1 131.5 120.9 110.1 95.4 89.4 85.8 85.4 92.8 105.8 121.5 140 146.4 155.7 169.7 172.2 174.3 181.9 181.1 184.8 198 209.7 208.7 206.7 227.6 251.5 261.1 266.4 248.3 252.4 255.7 263.7 259.3 247.6 251.5 248 228.7 208.7 197.6 192.2 187.8 184.1 184.7 191.7 203.7 207.4 200.3 197.2 201.2 212.7 206.5 197.7 201.6 219.9 223.6 229.4 246.6 254.4 244.2 238.1 237.6 246.9 258.9 269.7 284.1 290.3 296.4 302.5 302.9 312.7 319.9 334 339.2 337.9 334.5 338.7 344.9 348.7 356.7 373.1 401.7 428.2 459 463.1 472.1 471.5 474.6 482.2 481.5 474.9 469.2 456.3 435.5 420.6 412.9 407.8 401.6 389.9 373.1 353.9 345.3 335.8 324.2 313.7 316.3 311.4 300.9 295.5 293.1 288.9 291.7 287.3 273.9 280.8 267.3 256.2 253.1 250.4 237.2 220.7
83.2 86.6 90.7 88.4 74.4 73.7 76 90.2 107.6 107.5 109.2 114.2 98.6 77.1 64.7 69.7 68.4 81.9 93.6 95.8 90 81.9 74.5 70 64.2 44.1 36.9 34 58.9 66.4 69.4 55.9 60.2 64.4 72.1 84.1 101.3 106.3 99.4 97.9 98.8 102.8 100.1 90.3 82 79.4 76.2 63.3 56.8 55.8 66.2 85.7 95.1 107.6 114.9 118.9 123.5 128.4 132 142 149.2 166 186.9 199.4 202.3 205.7 216.2 223.8 241.5 247.9 231.5 217.3 228.1 217.1 198.5 181.9 165 155.9 151.5 163.6 148 126.3 114 94 86.3 79.3 76.4 86.3 95.1 112.8 125.8 141.6 149.7 158.3 170.1 172.4 183.9 180.6 177.9 185.4 199.4 211.6 211.4 242.2 255.3 262.8 269.1 267 262.3 272.6 290.4 303.7 294.7 288.3 283.6 276.1 266.4 254.9 239.3 230.5 220.2 218 222 226.8 252 240.9 231.5 234.3 234.9 231.2 224.1 225.1 253.6 265 256.7 265.6 281.5 285 280.5 273 271.2 278.7 291.4 301.4 307.1 318.5 321.9 321.9 333.4 342.5 353.2 362.9 364.9 367.4 371.1 377.4 378.2 383.3 393.6 412.9 435.9 458 469 476.9 488.3 487.3 490.7 491.5 479.6 472.2 469.2 452.3 435 416.4 403.4 400.3 396.1 377.9 358.1 344.5 330.8 331.8 330 320.3 323 320.6 306 292.8 282.6 282 283.5 284.8 274.7 274.4 268.2 263.8 265.7 259.1 249.4 242.7
78.8 91 83.8 68.9 70.2 71.2 80.3 91.6 100 100.4 102.2 99.4 80.5 60.1 55.2 61.3 72.3 90 90 91.8 84.5 76.4 66.2 56.5 45.8 36.4 30.6 31.7 48.9 62 59.3 55.6 53.3 64.7 70.1 81.4 96.3 91.7 86.2 84.6 87.5 94.6 86.4 76 70.7 63.5 64.9 57.5 45.8 54.3 66.6 68.2 77.3 93.8 93.4 98.1 96.9 96.9 109.3 122.4 130.1 135.5 132.6 137.7 176.1 182.8 208.6 224.9 222 209.7 198.3 192.8 198.1 182.6 172.1 150.4 139.1 165.4 172.7 165.9 135.5 114.4 93.6 79.1 72 68.3 79 93.6 100.8 112.9 134 143.5 147.7 155.6 166.8 170.5 181.9 179.6 172.9 180.3 202.6 202.8 233 254.7 259.9 263.7 267.8 283.9 295.9 307.5 313.2 329.8 322.1 317.8 310.9 304.7 296.4 288.7 282.7 266.1 275.4 264.9 259.2 272.4 278.9 275 269.6 272.1 258.6 257.9 245.7 249.4 265.9 272.2 275.4 287.8 305 322.4 318.3 301 298.6 306.8 316.3 335.2 335.3 343.8 328.8 331.4 350.6 356.3 360 367.7 377.2 383.3 390.5 398.7 397.1 402.6 417 438 454.2 467.1 481.3 484.1 495.6 500.4 498.1 483.7 472.8 469.5 464.9 445.3 427.5 410.2 399.4 395.1 385.4 367.2 351.6 344.8 343.2 354.3 344.9 331.3 314.8 320.5 310.7 293.6 285.4 282 273.6 274.9 275.9 275.5 270.6 269 270.4 261.8 256.6 246.4
75.8 79 62.8 61.2 73.7 69.2 72.8 72.7 76.2 90.8 89.5 75 57.9 53.3 49.4 69 76.8 90.8 86.5 85.3 77.3 68.6 62.8 43.3 32 27.9 22.1 28.3 39.1 50.9 61.1 54.5 51 59 64.5 78.5 84.4 81.8 73.9 76.9 69.7 73.6 54.4 64.3 66.6 52.8 51.9 30.1 39.7 56.5 67.5 70.9 71.7 72.6 74.8 70.6 85.1 77 88.5 88.5 101.5 99 100.6 115.6 148.2 170.2 195.9 198.9 196.4 180.3 156.1 144.8 144.1 148 124.7 133.4 151.8 164.7 177.6 149.6 114.4 95.5 80.9 71.2 63.7 71.8 87.9 99.1 102.2 118 132.1 136.5 140.6 150.5 165.2 170.8 182.7 174.2 167.8 179.3 191.2 213.1 247.4 260.1 266.7 278.7 307.8 324.8 327.9 338.7 342.8 343.2 340.3 340.2 328.8 316 311.4 319.1 325 321.8 317 307.8 297.3 298.5 311.5 310 307 310.7 297.9 276 267.3 273.5 284 306.4 316.8 328.8 333.7 343.8 335.3 319.1 317 321.8 329.9 340.4 344.1 336.8 326.7 339.5 348.3 358.9 369.6 380.1 389.9 396.7 404 406.7 408.6 419.1 438.7 450.2 457.6 471.5 479.8 485 501.5 504.3 494.2 476.8 469.9 457 445.7 431.4 422.1 413.5 402.6 383 368.8 370.3 370.1 365.7 361.8 356.8 348.1 336.6 312.7 313.4 309.1 296.9 283.3 277.9 272.7 279.3 279 278.6 274.7 272.2 271.6 264.3 256.2 258.8
67.4 62 55.3 68.2 70.7 56 49.8 52.3 66.8 99.4 69.2 49.9 40.2 36.1 61.5 87.9 73.8 70.8 69 75 75.2 60.4 48.2 36.4 23.9 21.7 21 31.2 44.7 59.5 54.8 47 36.1 45.6 63.2 72.4 79.8 79.6 67.7 66.3 57.6 45.6 46.7 51.4 52.6 36.4 34.8 17.4 21.7 30.8 45.7 58.5 53.4 47.1 41.8 46.7 58.6 53.8 58.5 63 67.3 75.3 95.5 120.7 146.1 157.7 158.8 153.3 137 134.1 117.9 112.8 105.6 114.1 132.7 153.2 172.3 174.1 156.9 126.6 96.7 80.7 70.7 70.8 61.8 80.1 96.1 97.1 102.1 119.2 124.1 129.2 134.2 152.3 162.1 173 174.8 165.1 165.2 175.6 201.1 235 249.9 265.9 289.6 309.7 335.3 343.9 343.8 354.5 358.8 358.3 348.5 343.6 338.8 328.9 343 360.7 362.6 355.3 348.2 334.8 344.5 342.6 346.2 347.2 345.6 339.1 324.5 304.2 300.9 301.7 318.9 349.1 353.7 348.2 348.8 351.3 341.8 330.3 325 326.2 331 339.7 344.2 331.8 335.8 348.2 362 377.4 388.4 397.8 402.5 408.4 414.9 418.9 423.8 435.5 454.2 459.8 472.1 474.6 478.2 483.4 500.7 496.9 482.7 472.7 460.8 451.8 432.7 416.6 412.7 401.5 389 374 372.5 381.9 379.5 369.6 363.7 357.5 352.8 343.3 319.7 306.3 311.6 293.7 280.3 273 266 276.2 284.5 283.3 279.5 275.9 273.8 267.3 264.6 263.8
62.6 48.2 42 45.9 51.6 32.5 32.8 35.5 62.9 67.8 49.1 36.3 26.8 29.4 62.1 70.4 73.2 58.7 51.9 59 51.4 49.6 39.2 35.7 15.6 17.4 26.5 39.4 60.4 65.9 52.4 51.8 32.2 34.1 67.2 65.1 66.3 59.1 52.3 54.9 43.7 29.7 30 29.6 27.6 11.9 8.4 6.6 7.3 9.2 24.8 29.9 29.7 24.2 27.9 30.9 38.4 45.2 56.8 64.8 71.4 84 104.5 111.4 115 114.4 109.9 101.9 94.8 92.3 85.3 98.6 125.4 140.5 155.3 162.7 152.3 136.8 118.5 99.4 74.9 59.4 63 66.5 69.8 81.5 96.5 95.6 99.4 114.8 121.2 122.7 130.8 151.4 161.7 171.8 164.7 158.9 164.7 188.6 221.1 232.9 249.5 288.3 304.3 322.8 341.5 348.4 353.3 360.4 361.8 357.2 357 356.1 345.3 346.7 360.1 373.2 371.4 357.1 350.6 345.8 358.1 375.3 374 371.9 368.8 358.7 348.6 336 335.5 335.5 342.3 354.6 353.2 354.2 361.9 369.6 360.3 343.9 336.6 335.5 340.5 354.3 339.9 336.4 346.9 356.8 372.5 386 396.9 403.8 409.5 414.3 421.4 427.7 435.1 448.2 459 466.1 477.7 484.9 480.5 488.3 497.5 490 475.5 463.3 449.6 434.5 421.9 411.5 399.9 390.4 378.6 375.1 387.7 389.8 384.2 369.6 359.8 348.2 336.8 336.2 325.5 303.4 299.5 288.7 280.5 270.3 266.6 265 279 284.4 285.5 278.9 278 272.5 270.5 265.8
39.4 33 27.5 28.6 24.4 22.3 22.3 29 45.8 43.9 28.8 20.2 17.8 35.8 46.2 54 68.1 42 32.8 30.3 38.6 39.3 32.9 26.1 8.9 21.8 43.8 58.8 65.8 63.5 51.8 44 29.3 27.2 55.2 54 46.3 44.3 34.5 25.3 14.4 19.6 17.9 24.1 7.8 5.6 2.7 -1.7 -1.7 2.4 7 8 11.1 9.1 13 21.4 28.4 38.8 54.2 73.8 89.4 96 95.7 94.6 87.6 77.7 77.6 74.8 74.9 75.6 92.6 122.8 132.7 129.8 118.9 113 104.5 98.6 89.1 63.1 53.4 43.9 54.4 55.5 70.1 79.7 90.1 79.4 92.5 113.5 120.4 122.5 126.6 144.1 157.4 158.8 157.6 159.1 182.4 205.6 216.9 240.5 271.4 293.7 309.1 323.7 342.4 351 354.7 361 358.5 354.7 360 360.8 350.1 351.1 357.5 367.9 367.6 355.2 350.6 352.8 368.8 377.9 375.7 378.8 373.9 363.2 355.4 347 353.6 364.6 359.7 363.4 357.9 362.5 369.1 369.1 368.1 356.7 346.6 338.9 352.6 356.6 340.8 345.2 361.8 375 386.7 397.1 405.8 411.1 417.5 420.8 426.4 435.3 441 451.2 461.3 473.5 481.6 484.8 483.8 487.9 491.2 474.6 457.9 446 431.9 426.1 416.1 403.3 388.8 381.4 386.1 401.1 390.7 385.3 377.7 373.9 365.2 348 329.2 328.5 321.4 302.3 290.3 283.3 276.3 267.2 260.7 262.5 275.1 277.7 279.4 275.5 278.3 274.1 274.4 269.9
21.5 17.9 22.4 22.2 19.2 11.7 17 18.8 18.2 19.6 8.3 9 8.9 17.1 33.1 55.2 61.7 37.7 21.2 20.3 23.5 16.4 23.4 8.4 11.3 27.9 45.1 54 56.3 55.2 48.9 49.6 33.6 16.1 17.8 24.5 8.7 8.4 8.6 8.7 8.5 8.6 6 3.3 2 -1.7 -1.7 -1.7 -1.7 -1.7 -1.7 6.6 8 5.5 11.3 26.5 31.8 47.5 69.3 83.7 99.1 104 99.1 84.1 73.2 65.1 56.8 49.6 49.7 81.7 119.5 123.1 110.4 103.7 94 86.2 80.7 68.8 52.3 33.6 28.2 39.6 45.4 51.4 64.3 54.2 64.5 78.6 82.9 98.6 113.2 118.4 125.9 141.9 152.1 152.8 154.7 174.6 188.8 202 235.5 263 285 302.7 311 329.3 341 354.4 355.3 355.8 354.2 360.3 362.4 362.8 352 347.1 362.5 368.9 352.1 352.1 350.8 365.6 384.8 390.3 391.1 385.8 375.9 368.3 359.7 352.9 358.5 363.3 368.8 370.3 372.1 368.7 367.3 370 367.2 363 355.8 350.8 356 354.3 338.2 356.2 375.3 385.8 392.8 398.7 403.9 410.7 417.9 426.4 430.5 438.2 439.7 451.2 464.7 472 483.1 480 481.1 486.8 479.5 459.8 444.9 432.4 421.1 412.7 403.2 390.2 382.9 391.9 405.8 393.9 382 379.1 376.4 367.9 350.1 332.6 321.1 319.6 311 299.9 284.5 275.3 274.6 263.5 259.4 266 280.1 273.1 272.2 277.2 279.8 277.9 283.1 292.7
6.7 8.3 20.5 19.7 18.5 4.6 1.4 0.7 3.7 2.4 2.4 2.7 4.8 12.6 20 52.5 35.8 23.6 7 6 7.2 6.1 6.8 -1.7 18.4 21.9 32.9 38.2 44.4 38.9 31.3 22 14.1 7.2 4 -1.7 -1.7 -1.7 -1.7 -1.7 7.7 6.5 -1.7 -1.7 -1.7 -1.7 -1.7 -1.7 -1.7 -1.7 -1.7 -1.7 2.3 9.8 42.7 44.2 55.3 63.5 66.6 66 78.5 93.7 86.4 76.3 60.9 40.7 39.1 57.6 77.2 101.7 106.4 97.1 90.2 73.5 66 54.9 45.8 32.5 22.9 22.6 30.5 35 27.9 31.6 47.7 66.9 75.8 89.7 102.1 113.5 117.5 119.9 134.7 141.1 143 144.5 157.9 177.6 199.6 230.9 245.2 261.1 290.9 304.6 312.5 324.5 326.8 339.5 348.9 349.5 345 352.8 358.2 357.9 351.7 347.1 347.1 356.7 352.1 356.5 362.8 382.2 389.3 392.1 394.7 379.9 380.1 370.1 355.1 362.2 366.3 367 372.4 378.3 387.8 387.2 391.3 384.5 374.2 373.4 362.7 353 352.5 335.4 337.6 356.8 376.9 389.3 395.3 400.7 403.7 409.1 417.4 419.5 424.3 434 441.4 456.3 462.2 470.3 476.9 474.7 474.9 470.8 459.9 444.2 425.9 413.8 409.1 402.4 389.4 377.1 380.4 389.7 393.7 386.3 378.2 367 364.7 359.5 342.7 326.8 315.4 302.9 307.7 297 289.3 276.8 271.3 262 258.5 272.6 274.6 269 281.2 291.8 280.7 280.1 288.5 301.7
-1.7 1.2 8.3 5.8 -1.7 -1.7 -1.7 -1.7 -1.7 -1.7 -1.7 1.7 9.3 19 9.5 29.9 25.6 2.1 1.1 0.9 0.9 5.9 0.4 -1.7 8.1 15.2 28.8 19.1 25.8 22.9 6.8 5.3 2.9 -1.7 -1.7 -1.7 -1.7 -1.7 -1.7 -1.7 -1.7 -1.7 -1.7 -1.7 -1.7 -1.7 -1.7 -1.7 -1.7 -1.7 -1.7 -1.7 5.6 7 26.8 30.3 25.1 28.3 31.4 47.3 54.7 61.8 59.1 43.6 33.6 41.4 51 68.6 74.9 80.9 76.3 63.4 51.4 39 32.8 22.5 15.8 15.2 17.2 22.4 38.2 41.6 45.8 53.3 73.1 76.3 80.9 93.1 101.3 106 109.4 110.7 115.1 123.8 123.8 145.9 166.3 197.3 226.9 236.4 245.9 256 282.4 292 307.4 312.1 321.6 339.6 349.6 347 345 351.7 358.7 360.7 358.2 347.1 358.3 352.1 358.4 356.4 371 385 389.2 385.6 381.3 381.5 379.5 365.2 348.1 359.5 361.4 369.7 378.2 373.8 393.5 395.3 395.1 388.8 388.3 379.3 365.6 346.2 334 334 340.7 367.5 385.7 395.3 400.1 403.7 408.2 416.8 415.8 418.9 421.9 431.6 443.8 458.8 457.5 463.2 468.9 470.2 462.9 455.6 444.5 432.8 416.2 400.3 395.1 389.9 378.6 367.6 375.9 381.3 377.5 372.3 367 361.9 346.8 355 340 319.3 304.7 292.3 295.6 295.9 288.8 279.7 268.7 259.3 254.8 268.5 268.4 263 283.7 289.3 278.1 279.4 286.2 299.6
-1.7 -1.7 2.4 -1.7 -1.7 -1.7 -1.7 -1.7 -1.7 -1.7 -1.7 10.4 21.3 23.5 2.4 6.8 -1.7 -1.7 -1.7 -1.7 -1.7 -1.7 -1.7 -1.7 3 5.7 9.9 7.7 7.8 -1.7 -1.7 -1.7 -1.7 -1.7 -1.7 -1.7 -1.7 -1.7 -1.7 -1.7 -1.7 -1.7 -1.7 -1.7 -1.7 -1.7 -1.7 -1.7 -1.7 -1.7 -1.7 -1.7 8.4 8.4 11.9 10.7 15.1 30.9 36.3 36.2 40.6 32.4 24.2 27 39.8 60.4 67.3 51.9 41.2 35.2 25.7 22.2 21.7 16.2 12.5 15.2 28.3 38.1 37.9 32.9 38.7 43.8 63.2 64.7 64.7 65 64.7 73.8 81.9 91.9 96.5 106.1 108.3 113.9 125.6 150.8 173.8 209.7 213.6 220.7 233 242.3 259.6 277.9 294.6 303.4 313.5 339 353.5 349.7 345 351.2 354 358.8 365.6 352.8 361.1 352.1 361.5 356.2 369.6 380.4 387.1 384.4 374.3 381.7 368.3 352.5 342 352.5 351 364.1 368.3 364 387.4 391.1 390.9 390.1 388 374 363.8 340.3 339.8 334.6 343.6 373.4 392.6 400.3 407.9 415.3 421.1 422.1 411.8 420.4 423.4 432 444 450 447 453.8 458.7 454.1 449.7 445.6 430.6 420.5 401 380.5 379.4 379.7 369.4 358.3 369.8 375.4 371 359.7 352.4 348.4 341.6 330.6 322.8 307.4 299.6 287.2 284 292 286.7 281.2 268 254.2 245.6 261.2 263.2 270.5 284.7 283.5 274.3 280 291.1 305.7
-1.7 -1.7 -1.7 -1.7 -1.7 -1.7 -1.7 -1.7 -1.7 -1.7 -1.7 6.5 -1.7 -1.7 -1.7 -1.7 -1.7 -1.7 -1.7 -1.7 -1.7 -1.7 -1.7 -1.7 -1.7 -1.7 -1.7 -1.7 -1.7 -1.7 -1.7 -1.7 -1.7 -1.7 -1.7 -1.7 -1.7 -1.7 -1.7 -1.7 -1.7 -1.7 -1.7 -1.7 -1.7 -1.7 -1.7 -1.7 -1.7 -1.7 -1.7 1.6 13.7 5.6 5.9 4.8 12.3 14.9 11.5 11.7 13.5 20 37.4 50.6 64.7 70.8 59.1 35.6 21.1 12.5 9.9 10.3 10.6 11.6 12.1 21.5 39.2 38.1 34 33.9 42.8 40.9 46.4 52 59.1 64.3 79.3 82.8 89.6 90.8 99 106.5 106.9 108.1 131.9 156.1 178.1 184.8 187.1 209.1 223.7 234.7 242.9 251.4 276.6 296.6 307.7 330.6 342.2 351.7 346.1 358 360.3 364 368.8 359.6 360.7 354.2 359.6 356.3 365.2 379.1 376.9 373.8 372.5 373.1 352.6 344.7 342.8 350.4 346.7 350.7 348.5 350.2 370.8 376.5 381 383.8 380.6 363.9 345.2 339.6 334 334 345.8 364.4 378.3 388.6 401.2 408.3 410.9 410 411.1 415.3 427.1 436.8 445.8 438.3 436.4 442.5 448.7 438.2 431.4 424.9 415.6 408.2 381.7 373.9 374.6 367.3 356.4 356.2 362.6 366 361.8 352.2 343.2 333.6 334 318.2 309 298.4 288.9 283 275.4 284.7 280.7 273.3 260 249 241.1 253.8 254.3 268.1 278 273.8 275 282.2 296.8 312.3
-1.7 -1.7 -1.7 -1.7 -1.7 -1.7 -1.7 -1.7 -1.7 -1.7 -1.7 0.1 -1.7 -1.7 -1.7 -1.7 -1.7 -1.7 -1.7 -1.7 -1.7 -1.7 -1.7 -1.7 -1.7 -1.7 -1.7 -1.7 -1.7 -1.7 -1.7 -1.7 -1.7 -1.7 -1.7 -1.7 -1.7 -1.7 -1.7 -1.7 -1.7 -1.7 -1.7 -1.7 -1.7 -1.7 -1.7 -1.7 -1.7 -1.7 -1.7 -1.7 -1.7 -1.7 2.5 11.1 10.7 24.4 21.1 36.5 48 55.1 53.2 53.9 68.3 43.6 35.6 11.3 10.7 8.9 9.3 10 11.1 12.3 12 25.6 27.7 29 32.8 32.9 35.8 43.4 50.5 58.8 73.4 85.2 95.1 98.8 95.8 93.7 99.1 101 93.4 115.5 138.8 157.7 153.8 160.2 181.4 204.6 219.7 236.2 246.8 252.9 252.3 266.7 281.1 302.6 316.8 329.3 339.8 348.5 354.4 364.9 363.1 359.3 348.5 345.4 350.6 354.2 362.7 370 369 359.7 359.5 356.7 341.3 336.5 340.4 344.7 341.2 345.2 342.7 344.7 353.7 362.6 371.6 372 361.9 353.2 351 337.1 336.7 334.2 352.2 375 387.6 400.1 413.1 418.4 411.9 416.5 417.2 426.8 435.2 444.6 445 431.7 435 437.2 434.5 424.2 412.9 405.5 395.4 381.6 373.5 370.9 368.4 356.4 365.6 358.4 352.9 356.6 351.7 342.6 331.7 323.8 325.7 311 301.4 290.4 279.8 274.6 271.1 281.8 270.9 261.5 251.7 241 231.6 246.4 261.6 262.2 271.5 269.5 275.2 290.3 302.3 327.7
-1.7 -1.7 -1.7 -1.7 -1.7 -1.7 -1.7 -1.7 -1.7 -1.7 -1.7 -1.7 -1.7 -1.7 -1.7 -1.7 -1.7 -1.7 -1.7 -1.7 -1.7 -1.7 -1.7 -1.7 -1.7 -1.7 -1.7 -1.7 -1.7 -1.7 -1.7 -1.7 -1.7 -1.7 -1.7 -1.7 -1.7 -1.7 -1.7 -1.7 -1.7 -1.7 -1.7 -1.7 -1.7 -1.7 -1.7 -1.7 -1.7 -1.7 -1.7 -1.7 -1.7 -1.7 -1.7 6.3 25.8 44 39.5 32.7 26.2 14.3 14.3 11.6 8.8 8.2 7.8 7.7 8.6 8.9 9.5 9.9 10.2 10.8 10.8 14 23.8 30.4 33.1 33.9 46.2 57.5 64.8 72.4 88.4 95.7 96.9 98.4 92.7 92.6 91.7 84.7 93 112.2 128.7 137.5 145.5 170.8 198.2 210.3 221 230.1 239.9 238.9 238 235.5 249.3 263.1 282.3 295.4 314.8 335 344.7 362.5 363 352.1 343.1 338.2 340.5 349 360.1 363.6 358.8 350.8 346.8 341.2 334.9 333.6 333.4 328.9 328.8 340.2 340.8 346.1 363.6 371.5 375 367.4 362.6 361.2 349.2 334 341.1 348.4 372.3 380.4 392.1 402.2 411.9 409.9 412.2 416.7 422 436.4 443.9 436.1 432.3 422.8 417.8 413.9 414.3 404.5 406.5 399.8 382.1 368.5 365.2 358.8 354.9 348 363.6 348.1 334.9 333.5 338.6 327.9 321.9 319.4 322.2 305.8 293 280.6 271.9 270 268 274 263.3 254.3 243 235.9 226.4 239.3 248.5 258.1 267.2 265.2 289.9 297.7 307.8 324.9
-1.7 -1.7 -1.7 -1.7 -1.7 -1.7 -1.7 -1.7 -1.7 -1.7 -1.7 -1.7 -1.7 -1.7 -1.7 -1.7 -1.7 -1.7 -1.7 -1.7 -1.7 -1.7 -1.7 -1.7 -1.7 -1.7 -1.7 -1.7 -1.7 -1.7 -1.7 -1.7 3.4 -1.7 -1.7 -1.7 -1.7 -1.7 -1.7 -1.7 -1.7 -1.7 -1.7 -1.7 -1.7 -1.7 -1.7 -1.7 -1.7 -1.7 -1.7 -1.7 -1.7 -1.7 -1.7 0.8 4.8 5.5 7 8.5 3.3 5 5.1 5.4 5.7 6.3 7.8 13.3 18.8 14 16.1 11 11.4 11.9 22.6 33.9 41.1 46.9 46.5 51.6 61.7 78.1 82.2 77.2 87.1 91.9 89.6 90.7 88.1 84.9 81.3 80.7 94.6 105 121.1 140.9 141.1 158.4 178.1 198.6 206.6 221.3 225.4 230.3 226.3 224.2 227.7 235 249.5 257.2 272.7 309.4 319.5 338.6 354.4 346.3 335.1 330.6 329.5 337.4 350.6 350.6 346.5 344.9 339.9 327.8 329.8 333 333 325.5 327.6 333.6 341 352.6 360.6 375.2 381.3 374.2 363.9 359.2 341.3 337.6 338.8 354.8 380.9 390.9 383.4 397.9 400.9 401 405.7 407.2 422.4 434.3 435.9 424.6 418.9 405.7 397 390.4 388.3 389 388.8 382.2 374.6 369.5 358.1 347.4 340.7 326.2 345.6 335.6 329.2 321.5 318.5 315.6 311.9 316.5 313.3 297.8 288.8 273.4 265.2 264.7 262.5 261.6 253.6 242.4 233.8 230.4 224.6 225.9 234.6 254.3 266 260.4 281.8 292.9 309.6 313.7
-1.7 -1.7 -1.7 -1.7 -1.7 -1.7 -1.7 -1.7 -1.7 -1.7 -1.7 -1.7 -1.7 -1.7 -1.7 -1.7 -1.7 -1.7 -1.7 -1.7 -1.7 -1.7 -1.7 -1.7 -1.7 -1.7 -1.7 -1.7 -1.7 -1.7 -1.7 -1.7 2.4 -1.7 -1.7 -1.7 -1.7 -1.7 -1.7 -1.7 -1.7 -1.7 -1.7 -1.7 -1.7 -1.7 -1.7 -1.7 -1.7 -1.7 -1.7 -1.7 -1.7 -1.7 -1.7 -1.7 -1.7 -0.2 0.9 5.6 7.8 8.6 7.4 6.6 7.2 7.6 9.6 24.9 28.2 27.3 23.6 23.5 19.1 18.2 38.4 48.9 47.5 55.2 59.2 66.4 80 86 85.2 82.7 82.2 80.6 81.8 77.2 81.6 74.9 73.2 93 103 125 141.5 143.9 136 144.5 156.7 163.8 170.6 190.4 197.8 203.7 208 201.9 209.3 211.9 227.4 243.6 255.1 286.2 300 316.1 334.1 332.3 322.3 322.1 323.7 333.6 338 331.1 326.5 324.2 327.5 325.4 328.9 333.8 326.7 318.8 318.4 330.7 337.4 353.1 356 378.3 373.7 372 366.4 353 342.2 340.4 336.3 356.4 381.8 381 382.5 390.1 388.4 395.4 392.3 397.8 414.8 422.1 425.4 419.4 405.4 390.2 382.5 373.6 367.3 371.7 367.8 367.7 361.7 364.6 339.5 333 328.2 314.9 322.2 324.1 320.8 315.7 307.4 309.9 310.2 307.7 297.9 281.2 273.3 264.2 258.5 257.4 256.2 254 248.5 235 227.7 227.9 224.5 222.6 227.6 245.9 252.2 254.8 260.3 282.1 297.9 302.4
-1.7 -1.7 -1.7 -1.7 -1.7 -1.7 -1.7 -1.7 -1.7 -1.7 -1.7 -1.7 -1.7 -1.7 -1.7 -1.7 -1.7 -1.7 -1.7 -1.7 -1.7 -1.7 -1.7 -1.7 -1.7 -1.7 -1.7 -1.7 -1.7 -1.7 -1.7 0.8 1.6 9.2 -1.7 -1.7 -1.7 -1.7 -1.7 -1.7 -1.7 -1.7 -1.7 -1.7 -1.7 -1.7 -1.7 -1.7 -1.7 -1.7 -1.7 -1.7 -1.7 -1.7 -1.7 -0.6 0.1 1.9 5.8 7.6 29.2 37.7 34.7 19.5 14.2 27.2 27.4 29.1 42.4 47 43.6 40.3 32 28.5 32.1 42.5 53.2 61.4 61.7 64.5 77 80.6 81.8 74.7 72.2 71.8 71.4 77.6 71.2 71.2 91.9 97 122.4 133.1 133.4 134.3 138 141.3 152.1 157.2 167.5 174.6 186.2 188.8 194.1 197 196.9 197.7 216.6 232.8 246.1 276.2 298.7 316.2 333.7 327.4 312.4 316.5 322.1 329.7 331.2 320.8 309.9 315.5 335.1 325.2 326.2 330.8 319.5 312.2 314.2 330 341.3 350.2 354.7 369.9 365.3 366.4 358.4 346.2 347.2 344.9 330.2 357.4 372.3 369.1 378.6 379.7 382.1 381.5 378.8 388.5 403.8 407.1 414.8 408 395 380.4 365.6 359.5 347.5 350.3 357.9 355.6 351 341.3 322.5 318.1 308 301.5 321.1 321.8 314.8 306.3 296.5 294.6 305.3 293.6 280.2 268.4 255.9 250.2 245.9 241.4 248.5 248.5 240.3 229 222.3 227.3 223.8 220.6 225.8 243.6 240.4 248.4 258.3 291.2 315.1 314.4
-1.7 -1.7 -1.7 -1.7 -1.7 -1.7 -1.7 -1.7 -1.7 -1.7 -1.7 -1.7 -1.7 -1.7 -1.7 -1.7 -1.7 -1.7 -1.7 -1.7 -1.7 -1.7 -1.7 -1.7 -1.7 -1.7 -1.7 -1.7 -1.7 -1.7 -1.7 -1.7 0.8 -1.7 -1.7 -1.7 -1.7 -1.7 -1.7 -1.7 -1.7 -1.7 -1.7 -1.7 -1.7 -1.7 -1.7 -1.7 -1.7 -1.7 -1.7 -1.7 -1.7 -1.7 -0.3 0.9 1.4 3.2 22.1 28.8 41.5 47.4 53.1 52.6 41.2 47.6 51.4 53.2 51.9 57.2 61.9 61 54 50.4 42.5 46.1 53.9 65.9 74.5 68.4 69.8 70 67.4 66.3 66.1 62.2 68.1 63.6 76.2 92.4 94.9 103.5 111.5 134.7 141.7 138.4 136.7 140.6 141.1 144.7 154.8 161.5 174 192.8 204.8 200.4 197.8 199 205.6 224.4 235.1 264.5 298 314.7 328.1 318.2 306.8 309.5 312.1 312.9 304 301.7 294 310.1 328.5 322.7 335.3 324.8 313.6 305.5 314.4 333 340 345.7 361.1 364.3 364.2 366.2 353.4 345.3 350.5 339.1 325.2 346.3 363.1 360.5 370.2 379.1 374 373.4 371.3 379.6 392.2 397 399.7 391.9 382 369.7 349.8 342.9 338.9 350.1 344.5 337.9 332 326.5 317 299.7 290.4 279.3 298.1 311.8 313.1 299.8 287.8 285.4 293.7 283.9 277.3 261.5 249.1 238.3 233.4 230.2 235.4 241.3 233.7 223.8 219.3 226.1 223.3 221.6 226.9 239.1 238.9 253.7 266.7 298.6 313.9 308.9
-1.7 -1.7 -1.7 -1.7 -1.7 -1.7 -1.7 -1.7 -1.7 -1.7 -1.7 -1.7 -1.7 -1.7 -1.7 -1.7 -1.7 -1.7 -1.7 -1.7 -1.7 -1.7 -1.7 -1.7 -1.7 -1.7 -1.7 -1.7 -1.7 -1.7 -1.7 -1.7 -1.7 -1.7 -1.7 -1.7 -1.7 -1.7 -1.7 -1.7 -1.7 -1.7 -1.7 -1.7 -1.7 -1.7 -1.7 -1.7 -1.7 -1.7 -1.7 -1.7 -1.7 -0.2 2 2.3 4.4 7 19.8 35.2 51.4 57.1 63.2 63.9 54.2 62.6 64.2 69.5 75.1 79.9 80.3 74.2 73.8 70.1 69.6 73.1 69.6 59 53.1 53.4 57.4 56.7 56.3 53 51.8 53.2 51.3 70.5 80.9 86 100.6 105.1 123.6 140.7 159.8 161 148.7 138.6 141.3 139.1 145.8 154.1 165 180.2 197.9 195.9 201.3 203.9 205.5 213.6 234.1 256.7 283.4 309.8 310 306.4 296.5 296.8 294.1 298.1 292.7 280.7 282.9 306.6 322.5 317.8 332.3 323.3 308.5 298.8 309.6 325.4 335.5 332.7 355.5 363 367.3 358.3 345.4 345.9 350.1 336.9 317.4 335.6 346 350.7 362.7 368.7 368.1 364.6 368.7 383.2 395.9 397 388.2 372.5 363.6 347.6 332.9 330.7 340.1 343.8 331.5 316.8 312.5 307.9 297.5 285 271 262.4 263.5 285.7 295.3 293.1 279.4 272.5 273.6 271.7 266.1 259.2 246.8 232.7 224 220.5 230.8 239 234 223.6 218.6 224.2 216.4 223.3 234 236.4 240.2 259.3 277.8 304.7 300.5 301.8
-1.7 -1.7 -1.7 -1.7 -1.7 -1.7 -1.7 -1.7 -1.7 -1.7 -1.7 -1.7 -1.7 -1.7 -1.7 -1.7 -1.7 -1.7 -1.7 -1.7 -1.7 -1.7 -1.7 -1.7 -1.7 -1.7 -1.7 -1.7 -1.7 -1.7 -1.7 -1.7 -1.7 -1.7 -1.7 -1.7 -1.7 -1.7 -1.7 -1.7 -1.7 -1.7 -1.7 -1.7 -1.7 -1.7 -1.7 -1.7 -1.7 -0.2 -1.7 -1.7 0.2 1.8 5.1 19 29.5 25.9 18.2 24.4 40.2 50.3 59.1 62.7 64.4 70.2 68 63.2 62.4 70.2 78.2 75.1 71.7 71.4 66.8 70 75.4 66.7 53.6 57.5 52.7 48.2 48 42.9 42.8 54.2 58.3 65.5 64.1 87 91.8 110 125.6 142.5 160.8 171.7 175.3 162.2 157.4 155 140.4 153 158.8 161.2 177.7 188.6 202.7 211.2 205.5 208.3 235.4 263 283.3 295.9 293.3 285.7 279.6 282.2 278.8 283 277.1 262.3 273.3 302.2 315 312.2 320.4 318 300 291.5 302.8 318.2 330.1 324.6 346.8 355.3 361.2 351 338.2 345.3 340.7 322.1 301.9 322.4 330.8 340.9 351.2 352.4 360.7 360.6 362.4 379.2 388.1 381.8 374.4 363.5 345 332.3 324.6 326.3 327.4 322 316 301.3 289.1 281.4 280.3 268.7 259 242.1 242.8 263.8 267.1 268.4 266.4 259.6 266 263.8 262.9 254.6 240.3 228.4 219.3 214.7 230.1 242.3 231.8 220.9 217.7 220.3 210.2 226.5 235.3 234.2 244.2 272 290.4 290.9 294.7 312.3
-1.7 -1.7 -1.7 -1.7 -1.7 -1.7 -1.7 -1.7 -1.7 -1.7 -1.7 -1.7 -1.7 -1.7 -1.7 -1.7 -1.7 -1.7 -1.7 -1.7 -1.7 -1.7 -1.7 -1.7 -1.7 -1.7 -1.7 -1.7 -1.7 -1.7 -1.7 -1.7 -1.7 -1.7 -1.7 -1.7 -1.7 -1.7 -1.7 -1.7 -1.7 -1.7 -1.7 -1.7 -1.7 -1.7 -1.7 -1.7 -1.7 8.4 -1.7 -1.7 5.6 5.1 7.4 15.1 32.9 39.1 42.9 28.7 31.2 40.4 51.6 54 54.9 52.4 44.7 42.3 51.8 65.2 62.9 59.4 55.2 55.9 60.7 59.1 58.1 52.9 35.3 34.6 26.8 36.6 40.6 45.9 52.8 60.5 57.2 66.1 84.6 94.5 98.6 118.8 142.5 157.9 176.2 184.5 188 182.2 175.8 173.9 155.3 166.2 170.3 165.2 160.6 171.5 195.8 209.4 203.8 210.6 237 259.1 284.6 296.2 287 275.4 267.2 267.3 264.5 266.2 258.1 252.6 263.7 291.8 309.1 302.8 307.8 308.7 293.1 289.5 297.6 312.8 317.2 311 326.1 347.2 350.3 342 339.6 337.1 330.4 308 284.6 306.9 315.7 332.1 338.7 337.1 344.7 346.2 357.9 364.8 366 372.1 365.5 351.9 342.8 330 322.4 325.3 322.5 313.8 303.4 291.3 278.9 266.4 253.6 248 234.8 220.3 225.7 237.9 242.9 245.9 248.5 247.6 251.9 260.9 262.9 254.4 237.2 227.4 215.9 208.7 217.6 227.2 224.3 217.8 211.8 207.6 211 230.3 234.4 233.6 261.7 278.9 283.8 290.7 307.6 308.4
-1.7 -1.7 -1.7 -1.7 -1.7 -1.7 -1.7 -1.7 -1.7 -1.7 -1.7 -1.7 -1.7 -1.7 -1.7 -1.7 -1.7 -1.7 -1.7 -1.7 -1.7 -1.7 -1.7 -1.7 -1.7 -1.7 -1.7 -1.7 -1.7 -1.7 -1.7 -1.7 -1.7 -1.7 -1.7 -1.7 -1.7 -1.7 -1.7 -1.7 -1.7 -1.7 -1.7 1.1 -1.7 -1.7 -1.7 -1.7 24.8 23.8 6.5 1.9 5.4 8.6 17 17.5 26.6 32.4 39.3 37.9 36.9 23.5 23 24.1 22.6 22.2 23 28.7 32.1 34.1 36.1 39.6 41.9 39 43.2 39.7 36.8 29.8 24.4 28.1 32.2 28.3 28.2 48.6 60.5 49.2 66.3 76.3 94.2 103 109 136.1 150.7 167.4 185.3 193.2 200.2 195.8 194.6 191.1 180.2 186.1 176 177.9 169.3 160.3 170.3 187.5 198.3 211.1 228.9 260.2 278.5 289.3 282.6 269.6 261.1 252.9 248 244.9 240.1 250.6 265.8 279.2 300.3 300.8 298.1 297.6 284.5 284.7 300.2 307.6 301.2 303.6 320.1 342.2 343.3 329.9 332 330.8 316.6 295.3 269.4 287.4 295.9 313.7 317 319.7 328.3 329.7 338.2 351.2 364.9 359.5 349.2 346.8 333 323.4 321.4 316.7 308.5 300.6 290.5 276.6 265.6 253.1 238.2 223.7 213.9 201.9 214.8 226.7 233.2 235.6 233.3 240.2 244 260.3 259.2 239.5 224.2 213.6 212.2 207.2 202 210.1 220.5 211.7 207.3 203.1 217.6 234.4 233.8 237.9 272.5 271.7 281.3 303.3 305.9 297.2
-1.7 -1.7 -1.7 -1.7 -1.7 -1.7 -1.7 -1.7 -1.7 -1.7 -1.7 -1.7 -1.7 -1.7 -1.7 -1.7 -1.7 -1.7 -1.7 -1.7 -1.7 -1.7 -1.7 -1.7 -1.7 -1.7 -1.7 -1.7 -1.7 -1.7 -1.7 -1.7 -1.7 -1.7 -1.7 -1.7 -1.7 -1.7 -1.7 -1.7 -1.7 -1.7 -1.7 2.4 -1.7 7.6 6.9 18 19.8 30.4 16.8 14.6 13.7 19.7 14.9 7.5 12.2 19.8 10.1 10.2 13.8 11.4 4.6 1.6 1 1.2 2.2 4 15.3 18.3 22.6 24.7 29.4 33.6 40.9 44.1 40.2 26.4 19.8 19.1 22 39.3 59 50.8 44.2 62.5 89.4 92.6 94.5 103.3 116.6 140.2 167 177.6 187.7 196.3 201.8 203.9 199.8 198.9 187.8 193 186.1 179.3 175.4 161.8 166.8 175.4 189.7 199.8 218.3 235.7 257.3 280.1 270.7 254.6 243.5 233.5 229 230.9 235.1 246.4 266.1 266.1 297.9 297.1 287.6 288.8 275 282.7 294.7 294 284.8 295.7 319.3 335.2 328.9 316.2 322.1 318 305.1 282 259.9 273.9 277.7 288.1 291.6 303.9 314 323.3 338.9 346.9 351 348.6 342.3 330.1 318.6 323.7 322.4 314.3 303.7 290.6 278 274.7 253.9 238.5 222.5 206.6 197.7 185.5 186 208.1 226.2 227.9 221 231.6 239 232.7 229.2 220.6 215.2 203.7 204 203.9 197.3 202.7 207.7 203.9 199.1 203.6 227.7 238.6 234.3 250.2 268.1 259.8 277.6 301.2 293.6 284.9
-1.7 -1.7 -1.7 -1.7 -1.7 -1.7 -1.7 -1.7 -1.7 -1.7 -1.7 -1.7 -1.7 -1.7 -1.7 -1.7 -1.7 -1.7 -1.7 -1.7 -1.7 -1.7 -1.7 -1.7 -1.7 -1.7 -1.7 -1.7 -1.7 -1.7 -1.7 -1.7 -1.7 -1.7 -1.7 -1.7 -1.7 -1.7 -1.7 -1.7 -1.7 -1.7 7.8 -1.7 -1.7 -1.7 -1.7 10.5 16.8 -1.7 -1.7 4 8.8 20.4 11.9 -1.7 -1.7 0.4 -1.7 -1.7 -1.7 -1.7 -1.7 -1.7 -1.7 -1.7 -1.7 2 2.4 8.3 20 34.6 30.2 36.1 37.5 26.1 19.9 15.2 17.1 33.3 50.4 56.4 43.9 36.7 45.8 70 75.7 84.6 97.5 106.1 117.2 130.9 159.9 196 204.8 206.2 203.5 198.6 196.8 195 191.9 201.2 195.7 182.8 175.2 165.5 170.8 173.4 186.1 191.3 210.3 216.4 245.6 265.3 255.7 243 230.8 220 220.5 234.9 236.3 240.4 255.6 266.8 292.4 280.1 281.8 281.1 267.9 278.1 291.3 281.5 270.2 282.8 317.8 322.3 317.5 309.7 307.5 289.9 284.1 261.9 252.2 263.5 270.9 284.8 277.4 294.3 304.4 310.8 326.4 328.3 337.1 333.4 332.9 323.7 311.3 311.5 308 300.4 290.9 279 266.4 258.7 243.3 228.2 209.9 195.3 177.1 167.5 163.1 190.8 221.4 215.1 209 224.2 230.4 225.2 208.7 202.1 201.5 191.6 185.8 190.9 182.8 181.1 187.2 188.9 192.2 213.5 241.7 233.4 248.2 260.5 256.8 259.2 279.7 288.4 280.9 282.3
-1.7 -1.7 -1.7 -1.7 -1.7 -1.7 -1.7 -1.7 -1.7 -1.7 -1.7 -1.7 -1.7 -1.7 -1.7 -1.7 -1.7 -1.7 -1.7 -1.7 -1.7 -1.7 -1.7 -1.7 -1.7 -1.7 -1.7 -1.7 -1.7 -1.7 -1.7 -1.7 -1.7 -1.7 -1.7 -1.7 -1.7 -1.7 -1.7 -1.7 -1.7 -1.7 -1.7 -1.7 -1.7 -1.7 -1.7 -1.7 -1.7 -1.7 -1.7 -1.7 -1.7 -1.7 -1.7 -1.7 -1.7 -1.7 -1.7 -1.7 -0.8 -0.8 -0.9 2.9 3.9 4.9 3.4 12.6 17.2 22.9 31.3 35.2 26.2 22.3 23.2 14.7 10.8 13.4 39.8 45.6 42.8 42.1 34.9 39.5 45.6 46.6 54.2 81.4 97 120.8 125.9 132.2 154.4 179.4 205.8 213.8 213.9 207.6 199.1 194.8 194 195.5 199.9 191 178.7 171.9 169.5 167.9 177.4 181.2 203.4 209.3 239.4 254.8 236.6 229 213.3 219.8 227.7 230.8 240.8 238.4 248.7 261.7 280 266.7 271.3 268.8 262.9 282.1 282.6 271.7 262.8 287.4 299.1 308.7 301 301.7 296.9 275.8 269.2 244 247.7 246.7 260.3 262.7 271.1 279.3 280.2 291.2 305.1 310.3 315.8 318 312 301 297.9 282.2 279.7 277 278.5 264.3 256.4 244 230.8 213.6 196.5 180.6 161.7 154.4 152 169.5 196.1 195.8 198.3 211.3 211.5 209.1 200.6 186.4 185.6 185.7 174.4 177.4 173.4 177.3 182.2 181.2 189 219.2 236.5 232.3 251.6 255.6 248.1 266.7 272.1 276.3 276.7 277.3
-1.7 -1.7 -1.7 -1.7 -1.7 -1.7 -1.7 -1.7 -1.7 -1.7 -1.7 -1.7 -1.7 -1.7 -1.7 -1.7 -1.7 -1.7 -1.7 -1.7 -1.7 -1.7 -1.7 -1.7 -1.7 -1.7 -1.7 -1.7 -1.7 -1.7 -1.7 -1.7 -1.7 -1.7 -1.7 -1.7 -1.7 -1.7 -1.7 -1.7 -1.7 -1.7 -1.7 -1.7 -1.7 -1.7 -1.7 -1.7 -1.7 -1.7 -1.7 -1.7 -1.7 -1.7 -1.7 -1.7 -1.7 -1.7 5.5 7.1 18.2 -1.7 9.5 19.8 24.1 24.2 19.3 16.1 13.3 11.9 15.3 18.9 15.6 9.9 9.2 9.7 14.7 21.4 27.1 37.7 33.7 31 39.3 43.5 47.7 54.1 59.6 63.4 87 122 143.1 142.7 144.6 177.9 197.8 202.6 208.2 209.6 206.3 198.4 194.9 195.4 196 188.6 177.8 168.6 164.7 160.1 169.5 176.1 196.4 204.9 232.3 237.2 221 212.5 206.2 221.5 226.7 228.4 238 239.1 248.6 262.7 262.1 252.9 257.1 256.4 251.5 270.5 266.4 260.6 259.9 280.5 296.8 299.1 284.8 284 276.7 268.5 252.6 224.1 232.6 229.9 239.5 242.9 255.7 259.5 268.3 285.6 292.3 294.3 301.8 288 278.6 267.9 271 258.3 246.9 251.6 247.2 246.4 239.6 230.7 215.1 202.1 184.9 165.5 148.5 140 140.5 144.5 165 174.5 174.9 180.9 186 187.8 190.3 178 172.3 174.2 163.2 161.3 163.4 174.6 177.5 171.9 192.9 216 218.1 231 244.7 240.5 239.8 247.8 273.6 278.2 268.6 273.1
-1.7 -1.7 -1.7 -1.7 -1.7 -1.7 -1.7 -1.7 -1.7 -1.7 -1.7 -1.7 -1.7 -1.7 -1.7 -1.7 -1.7 -1.7 -1.7 -1.7 -1.7 -1.7 -1.7 -1.7 -1.7 -1.7 -1.7 -1.7 -1.7 -1.7 -1.7 -1.7 -1.7 -1.7 -1.7 -1.7 -1.7 -1.7 -1.7 -1.7 -1.7 -1.7 -1.7 -1.7 -1.7 -1.7 -1.7 -1.7 -1.7 -1.7 -1.7 -1.7 -1.7 -1.7 -1.7 -1.7 -1.7 -1.7 2.6 3.2 -1.7 -1.7 -1.7 -1.7 -1.7 14 10.9 6.6 3.6 4.1 3.6 5.5 7.1 8.2 16.4 28.1 40.3 37.5 36.2 29.9 29.1 44.1 47.3 47.2 51.1 55.3 64.5 75.3 86 98.8 129 141.3 149.1 159.1 183.6 198.6 205.1 208.8 196.2 194.1 194.4 192.7 193.6 185.6 166.6 160.2 154.4 148.6 156.6 168.2 180.8 194.8 221.5 223.8 199.5 185.3 207.6 222.3 225.8 225.7 232.7 238.5 246.4 257.8 248.1 242.7 242.7 244.1 244 250.8 250.7 254.1 258.2 276.7 283.5 282 274.9 265.4 255.5 251.7 228.8 200.9 219.4 207.6 221.8 232.7 238.8 243.2 255.5 263.4 267.9 265.6 275.3 266.5 250.9 237.1 232.7 230.8 220.8 222.2 227 235.7 229.2 219.2 198.5 183 166.7 150.4 137.9 130.7 123.6 121.7 132.5 146.1 161.4 158.3 158.8 158.2 171.2 167.2 158.5 150 147.9 145.1 146.3 155.7 166.2 173 196.3 202.6 203.8 213 221.4 227 227.9 240.7 263.9 260 264.2 263.6
-1.7 -1.7 -1.7 -1.7 -1.7 -1.7 -1.7 -1.7 -1.7 -1.7 -1.7 -1.7 -1.7 -1.7 -1.7 -1.7 -1.7 -1.7 -1.7 -1.7 -1.7 -1.7 -1.7 -1.7 -1.7 -1.7 -1.7 -1.7 -1.7 -1.7 -1.7 -1.7 -1.7 -1.7 -1.7 -1.7 -1.7 -1.7 -1.7 -1.7 -1.7 -1.7 -1.7 -1.7 -1.7 -1.7 -1.7 -1.7 -1.7 -1.7 -1.7 -1.7 -1.7 -1.7 -1.7 -1.7 -1.7 -1.7 -1.7 -1.7 -1.7 -1.7 -1.7 -1.7 -1.7 2.4 2.9 1.7 3.4 5.1 9.4 25.1 35.3 35.8 44.3 45 40.4 33 29.2 28.9 31.2 43 51.1 52.7 54.4 56.4 69.3 76.4 84.5 102.2 113.4 121.1 136.3 151.5 160.1 174.7 186.5 191.8 192.2 187.5 188.3 189.1 187.8 176.4 160.4 142.6 144.2 133.1 144.9 164.4 184.5 192 207.1 198.9 181.3 186.6 208.8 222.4 226.1 220.4 225.4 230.8 242.1 253.6 238.4 235.6 231.5 226.9 222.2 227.6 232.9 245.4 262.1 277.2 279.4 273.7 269.4 257.1 244.9 231.7 210.7 184.6 201.1 195.3 215 234.3 227.9 225.2 238.2 247.4 247.3 229.8 241.9 237.5 225.5 207 202.2 199.5 194.5 187.2 195.1 193.8 188.6 198 188.8 173.6 156.8 138.8 129.3 123.1 108.2 105.3 102 123.8 143.4 143.8 133.5 128.4 137.8 147.4 140.4 131.9 134.2 135.8 132.9 143.6 156.2 172.9 187.9 191.9 187.7 184.7 189.3 204.9 220.3 229.9 246.1 240.9 250.3 250.8
-1.7 -1.7 -1.7 -1.7 -1.7 -1.7 -1.7 -1.7 -1.7 -1.7 -1.7 -1.7 -1.7 -1.7 -1.7 -1.7 -1.7 -1.7 -1.7 -1.7 -1.7 -1.7 -1.7 -1.7 -1.7 -1.7 -1.7 -1.7 -1.7 -1.7 -1.7 -1.7 -1.7 -1.7 -1.7 -1.7 -1.7 -1.7 -1.7 -1.7 -1.7 -1.7 -1.7 -1.7 -1.7 -1.7 -1.7 -1.7 -1.7 -1.7 -1.7 -1.7 -1.7 -1.7 -1.7 -1.7 -1.7 -1.7 -1.7 -1.7 -1.7 -1.7 -1.7 -1.7 11.9 28.1 30.6 31.6 35 38 43.2 47.1 49.1 45.1 36.7 36.4 31.6 28.8 28 28.8 40.6 52.1 57.6 60.5 56.4 66.3 80 87.1 91.5 97.6 107.6 123 130.7 139.4 153.4 158.8 169.2 180.1 182.8 176.5 178.3 175.4 173.7 161.5 147.8 130 128.6 119.7 135.4 150.6 177.6 187.1 190.1 175.7 156.4 176.1 199.7 211.8 217.5 213.6 215.5 223.3 231.5 235.9 227.9 232.2 232 220.3 210.6 204.6 213.2 235.1 259.5 273.4 269.4 258.5 252.6 240.2 224.1 209.3 189.9 166.7 182.7 172.6 185 204.7 202.6 200.6 224 231.3 223.8 205.1 202.3 205 194.3 177.7 166.4 170.5 160.9 155 155.6 156.9 161.6 160.3 169.7 161.7 139 130 115.8 116.6 98.4 84.9 85.3 105.9 122.5 129.4 118.1 111.9 108.6 111.9 117.9 112.2 112.6 119.6 123.6 130.1 153.9 176 176.3 175.1 167.1 158.9 168.1 190.6 211.1 213.3 224.7 227.1 237 240.3
-1.7 -1.7 -1.7 -1.7 -1.7 -1.7 -1.7 -1.7 -1.7 -1.7 -1.7 -1.7 -1.7 -1.7 -1.7 -1.7 -1.7 -1.7 -1.7 -1.7 -1.7 -1.7 -1.7 -1.7 -1.7 -1.7 -1.7 -1.7 -1.7 -1.7 -1.7 -1.7 -1.7 -1.7 -1.7 -1.7 -1.7 -1.7 -1.7 -1.7 -1.7 -1.7 -1.7 -1.7 -1.7 -1.7 -1.7 -1.7 -1.7 -1.7 -1.7 -1.7 -1.7 -1.7 -1.7 -1.7 -1.7 -1.7 -1.7 -1.7 -1.7 -1.7 -1.7 -1.7 4.9 9.5 15.7 17 30.7 37.2 34.8 36 35.7 33.5 32.3 29.8 29.3 29.4 28.6 28 35.3 61.7 79.2 71.5 64.4 62.7 82.7 89.2 93.2 96.6 113.1 116.3 128.4 139.5 147.6 148.7 153.5 155.4 166.7 163 161 161.1 152.1 148 137 118.8 109.8 109.7 120.8 133.5 152.2 171.8 165.9 151.3 150.6 171.4 195.1 196.9 208.1 209.7 217.6 231.4 228.6 221.7 213.9 214.5 218 210.3 204.9 195.5 206.5 223.9 260.1 264.6 255.6 249.6 234.4 223.7 210.5 190.8 170.6 152 162.7 151 158.3 174.8 172.8 177.4 194.9 201.1 192.2 182.6 181.7 189.5 168.5 148.8 139.7 135.8 136 129.6 128.9 127.8 130.2 133.3 137.6 134.2 122.3 105.5 99.8 86.1 76.2 73.8 65.6 80.2 97 106.7 100.3 86.4 81.7 85.5 85.9 98 112.8 130 134.7 140.6 149.3 157 151 156.4 145.7 142.7 152.3 166.3 183.8 195.4 200.2 212.9 226.1 225.1
-1.7 -1.7 -1.7 -1.7 -1.7 -1.7 -1.7 -1.7 -1.7 -1.7 -1.7 -1.7 -1.7 -1.7 -1.7 -1.7 -1.7 -1.7 -1.7 -1.7 -1.7 -1.7 -1.7 -1.7 -1.7 -1.7 -1.7 -1.7 -1.7 -1.7 -1.7 -1.7 -1.7 -1.7 -1.7 -1.7 -1.7 -1.7 -1.7 -1.7 -1.7 -1.7 -1.7 -1.7 -1.7 -1.7 -1.7 -1.7 -1.7 -1.7 -1.7 -1.7 -1.7 -1.7 -1.7 -1.7 -1.7 -1.7 -1.7 -1.7 -1.7 -1.7 -1.7 -1.7 3.1 8.3 20.9 33.4 36.2 40.4 50.9 47.6 46.1 35.8 35.1 36.6 32.6 29.8 29.6 31.5 31.9 46.9 52.7 59.4 64.9 66.8 68.1 72.3 84.1 89.8 94.4 101.4 112.4 121 132.9 137.6 139.9 145.9 142.1 141.7 144.7 141 134.9 141.4 126.1 106.1 95.4 97 105.9 122.1 131.5 146.6 141.6 141.9 145 167.6 188.1 187.3 200.3 208.9 215.5 229.8 216.5 202.6 199.5 201.4 208.7 197.7 189.5 183.6 200.5 213.3 240.7 245.8 237.7 231.1 219.7 206.3 194.4 172.7 145.2 147.2 142.6 138.8 135.6 143.7 147.1 161.9 171.6 179.9 179.9 160 154.5 147.6 129.2 120 111 108.3 109.9 111.2 107.6 107.7 104.4 108.7 126.2 105.3 83.3 72.7 70.2 63.4 59 55.9 56.4 60 67 65.1 60 58.8 62.5 87.9 108.7 120.7 121.8 126.8 134.8 139.8 140 134.8 132.7 133 125.8 132.6 138.5 142.3 156.5 170.3 177.1 193.3 197.3 208.9
-1.7 -1.7 -1.7 -1.7 -1.7 -1.7 -1.7 -1.7 -1.7 -1.7 -1.7 -1.7 -1.7 -1.7 -1.7 -1.7 -1.7 -1.7 -1.7 -1.7 -1.7 -1.7 -1.7 -1.7 -1.7 -1.7 -1.7 -1.7 -1.7 -1.7 -1.7 -1.7 -1.7 -1.7 -1.7 -1.7 -1.7 -1.7 -1.7 -1.7 -1.7 -1.7 -1.7 -1.7 -1.7 -1.7 -1.7 -1.7 -1.7 -1.7 -1.7 -1.7 -1.7 -1.7 -1.7 -1.7 -1.7 -1.7 -1.7 -1.7 -1.7 -1.7 -1.7 1.2 2.4 3.6 8.5 13.2 15.9 23.6 41.6 49.8 53.4 55.9 48.8 39.4 41.8 46.6 43.4 35 31.1 30.5 32.2 35.9 41.3 35.5 49.4 65.3 62.1 73.9 75.3 93.7 100.4 109.7 123.2 126.6 132.8 132.4 130.7 133.1 132.8 117.8 117.6 127.9 115.4 94.1 82.9 83.4 93.3 117.9 121.3 132.7 145.2 142.2 141.4 154.9 168.9 177.8 197 200.7 208.9 220.1 210.8 191.2 180.2 190.5 197.3 192.2 169.8 174.5 191.3 209.1 234.7 228.4 216.5 210.5 202.7 187.5 174.3 152.7 125.1 127.3 119.4 120.9 121.7 127.9 130.8 142.6 164 169.2 156.1 140.1 136 120.7 103.8 86 78.6 91.3 89.6 87.8 90.8 90.5 86.5 87.1 84.6 73.6 62.4 55.8 50.9 43.8 41.6 39.7 37.6 39.9 45.1 38.2 44.4 56.2 73.1 94.2 116.2 126.7 133.2 135.3 134.2 135.1 127 119.6 123.3 110.2 117.1 129.4 138.2 133.4 142.1 148.1 154.3 168.5 179.9 190.2
-1.7 -1.7 -1.7 -1.7 -1.7 -1.7 -1.7 -1.7 -1.7 -1.7 -1.7 -1.7 -1.7 -1.7 -1.7 -1.7 -1.7 -1.7 -1.7 -1.7 -1.7 -1.7 -1.7 -1.7 -1.7 -1.7 -1.7 -1.7 -1.7 -1.7 -1.7 -1.7 -1.7 -1.7 -1.7 -1.7 -1.7 -1.7 -1.7 -1.7 -1.7 -1.7 -1.7 -1.7 -1.7 -1.7 -1.7 -1.7 -1.7 -1.7 -1.7 -1.7 -1.7 -1.7 -1.7 -1.7 -1.7 -1.7 11.4 13 8.4 16.6 10.4 4.8 3.5 5.3 6.6 7.8 9.8 20.1 39.1 52.9 67.4 70.2 59 54.2 60.5 65.1 61.4 54.3 34.7 30.5 30.5 30.5 30.5 30.5 30.5 30.5 30.5 46.6 68.5 74.6 82.4 92.6 113.7 112.5 126.1 119.6 114.6 107.1 111.8 102.7 100.4 107.1 104.3 87.2 76 77.7 83.4 88.7 112.3 137.1 141.7 138.8 139.8 154.5 164.4 179.3 183 188.1 201.7 208.4 198.8 185.3 174.6 178.9 181.5 177.7 157.7 174.5 187.1 208.8 220.3 208.9 195.7 187 176.6 161.5 150.1 134.4 112.3 108.9 106.3 109.3 114.8 117.8 120.4 136.3 156.9 156.2 136.7 121.9 116 98.1 79.6 69.5 61.6 67.6 67.5 72.5 75.3 67.8 61.4 59.3 55 45.9 40.7 37.3 33.8 29.1 28.4 27.1 28.9 28.3 29 31.4 36.9 48.2 63.7 80.1 96.9 113.1 128.2 135.5 122.4 117.4 107 103.3 104.7 95.3 102.1 109.4 116 116.2 124 151 163.2 162.8 170.4 179.8
-1.7 -1.7 -1.7 -1.7 -1.7 -1.7 -1.7 -1.7 -1.7 -1.7 -1.7 -1.7 -1.7 -1.7 -1.7 -1.7 -1.7 -1.7 -1.7 -1.7 -1.7 -1.7 -1.7 -1.7 -1.7 -1.7 -1.7 -1.7 -1.7 -1.7 -1.7 -1.7 -1.7 -1.7 -1.7 -1.7 -1.7 3.7 22.1 14 -1.7 1.8 -1.7 -1.7 -1.7 -1.7 -1.7 -1.7 -1.7 21.3 6.2 8.5 4 3.8 13.5 28.4 20.6 17.5 26 30.5 28.9 23.9 26.5 22.5 14.6 9 12.9 20.5 22.3 28.3 35.9 60.1 71.9 76.2 77.5 70.8 73 74.5 71 61.6 50.2 34.4 30.5 30.5 30.5 30.5 30.5 30.5 30.5 30.5 30.5 55.6 73 77 96.9 101.7 111.2 108.5 103.4 91.1 86.4 89.2 97.3 106 97.8 82.9 64.4 71.7 80 89.2 114.1 135.3 133.5 136.2 140.7 149.1 156.8 173.1 170.4 183.7 194.4 195.3 183.2 179.3 169.3 159.9 161.5 160.6 145.7 167.5 188.5 214.7 212.3 194.1 182.6 176.8 160.5 144 134.3 123.4 103.1 88.6 92.4 108.6 115.6 102.2 108.8 122.5 141.2 137.1 120 104.6 99.6 84.1 62.8 51.5 49.7 49.9 49.4 50.8 51.2 44.5 40 33.9 31.8 28.8 27.5 24.8 19.6 19.1 22.1 23.9 25 25 26.9 27.1 29.2 36 47.4 63.8 86.3 103.5 125.4 125.8 111.6 103.4 90.8 82.9 85.1 81 88 93.4 98.9 101.1 106.1 144.4 158.1 167.2 167 164.2
-1.7 -1.7 -1.7 -1.7 -1.7 -1.7 -1.7 -1.7 -1.7 -1.7 -1.7 -1.7 -1.7 -1.7 -1.7 -1.7 -1.7 -1.7 -1.7 -1.7 -1.7 -1.7 -1.7 -1.7 -1.7 -1.7 -1.7 -1.7 -1.7 -1.7 -1.7 -1.7 -1.7 -1.7 -1.7 -1.7 -1.7 28 42.9 62.4 20.9 12.8 31 23.2 11.7 20.9 13.1 25.7 48.8 67.4 60.7 52.1 29.6 27.9 42 50.1 45.6 49.1 51.7 50.6 45 44.6 44.8 46.4 38.9 30.2 31.8 31.5 30.3 33.4 34.2 50.4 68.9 76.9 87.8 87.7 91.3 97.1 95.4 79.3 62 49.6 45 30.5 30.5 30.5 30.5 30.5 30.5 30.5 30.5 45.6 67.5 67.9 96.3 94.3 94.3 92.4 85.2 85.3 82.4 90 101.5 104.2 95.3 78 59.9 67 87.4 95.6 108.4 129.3 129.8 126 132.3 142.1 139.5 158.4 164.4 181 185.7 188 174.9 164.1 154.5 146.7 139 141.4 135.5 159.8 185.9 204.7 192.4 169.8 166.4 157.5 140.5 128.7 118.5 106.4 89.6 68.8 89.9 104.4 106.9 95.9 92.3 95.9 109.5 125.6 97.4 79.9 75.9 63.3 49.3 38.3 38.4 35.4 34.3 34.4 31.2 28.2 23.9 18.1 18.2 21.8 22.9 22.1 22.2 22.7 20.5 22.5 23.7 29.2 28.8 28.5 27.5 29.7 38.8 52.6 74.6 98.6 115.2 112.3 99.9 94 76.2 69.6 71.7 68.1 70.5 80.8 87.9 83.5 85.5 113.5 131.2 154.1 153.6 149
-1.7 -1.7 -1.7 -1.7 -1.7 -1.7 -1.7 -1.7 -1.7 -1.7 -1.7 -1.7 -1.7 -1.7 -1.7 -1.7 -1.7 -1.7 -1.7 -1.7 -1.7 -1.7 -1.7 -1.7 -1.7 -1.7 -1.7 -1.7 -1.7 -1.7 -1.7 -1.7 -1.7 -1.7 3.5 9.6 29 54.7 70.6 77.9 38.8 49.1 49.7 53 47.5 57 57.6 68.3 86.1 98 103.3 83.2 64.1 66.1 77.4 84.2 90.1 92.6 79.5 65.3 62.6 67.3 68.4 66.8 54.5 46.6 43.2 42.5 37.7 43.5 53.7 74.5 77 70.5 88.6 104.8 114.1 118.4 112.8 105.2 81.6 70.7 67.4 52.3 38 30.5 30.5 30.5 30.5 30.5 30.5 33.4 64.1 67.6 63.2 85.3 79.2 79.2 71.4 70.2 74.5 85.1 92.4 94.3 85.1 65.8 60.7 70.5 90.4 99.8 106.8 118.6 122.6 117.5 121.7 130.5 128.4 149.3 156.7 167.3 172.7 173.2 154.3 152.1 144.4 136.7 131.1 118.8 128.3 153.1 170.6 182.1 167.6 150.8 152.2 141.6 130.6 116 102.5 93.2 73.3 59.1 73.8 81.8 85.8 85.3 71 81.6 91.4 83.9 61.7 58.7 46.3 38.9 33.4 31.3 31.1 27.7 25.9 24.6 22.5 19.8 20.2 23.1 29.3 31 25.2 23.6 25.6 24.9 23.4 21.6 22.2 24.2 25.4 25.6 27.6 29.8 37.5 56.4 82 104.3 109.2 101.5 88.5 80.7 65.9 58.8 56.4 57 57.3 64.2 63.4 61.7 64.6 86.5 104.5 124.8 126.9 125.8
-1.7 -1.7 -1.7 -1.7 -1.7 -1.7 -1.7 -1.7 -1.7 -1.7 -1.7 -1.7 -1.7 -1.7 -1.7 -1.7 -1.7 -1.7 -1.7 -1.7 -1.7 -1.7 -1.7 -1.7 -1.7 -1.7 -1.7 -1.7 -1.7 -1.7 -1.7 -1.7 -1.7 14.6 12.4 34.4 53.8 72.2 80.6 83.5 63.3 69.1 75 75.5 81.1 86.7 91.4 102.8 114.2 126.9 135.6 114.6 100.8 108.6 120.6 129.1 133.3 128.7 113.9 105.3 90.5 99.1 96.2 89.8 76.2 70.2 71.5 73.2 67.3 64.7 88.5 99.4 104 99.6 97.1 112.7 126.3 140.6 135.7 129.9 115.7 97.3 87.9 78.1 52.6 44.6 30.5 30.5 30.5 30.5 30.5 30.5 48.7 58 58.5 63.1 62.1 62.1 59.7 61.8 66.6 68.7 67.8 68.3 63.4 50.4 55.8 74.5 90.8 98.5 109.5 109.3 114.9 111.4 119.5 122 116.7 133.7 140.1 141.9 158.1 154.1 134 132.9 129.7 122.4 113.7 107.6 121.2 143.5 156.2 165.3 147.2 140.5 141.3 131.1 121.6 103.1 88.3 76.1 57.2 51.2 62.7 68.6 74.6 79 63.6 59.6 64 57.5 36.5 29.5 22.4 24.9 25.2 23.8 22.5 17.4 19 17.1 17.1 19.9 21.1 24.7 31.7 33.2 29.9 25.8 26.4 25.5 23.6 19.7 19.7 22.4 27 27.4 28.1 31.3 42.6 60.3 90.7 110.5 99.4 81.9 72.7 60.9 53.7 48 47.4 49.6 52 48.1 52.2 54.2 50.5 62.6 77.5 90.7 90.5 95.6
-1.7 -1.7 -1.7 -1.7 -1.7 -1.7 -1.7 -1.7 -1.7 -1.7 -1.7 -1.7 -1.7 -1.7 -1.7 -1.7 -1.7 -1.7 -1.7 -1.7 -1.7 -1.7 -1.7 -1.7 -1.7 -1.7 -1.7 -1.7 -1.7 -1.7 -1.7 2.1 29.3 48.6 34.7 54.1 66.3 77.3 87 99.9 88.9 86.1 87.5 90.5 93.2 97.6 100.3 112.8 118.1 125.8 131.7 133.6 134.3 138.2 145.7 151.5 150 140.4 132.4 130.8 130 128.7 122.2 121.8 107.6 103.2 103.2 101 115.1 115.9 122.8 131.2 131.1 141.3 136.5 128.1 133.5 144.2 160 150.2 136.7 113.4 107.2 98.8 82.5 55.5 35.9 30.5 30.5 30.5 30.5 33.4 45.2 44.4 48.2 53.5 47.3 48.3 50.5 59 62.2 59.4 50.3 45.9 46.4 52.2 71.1 86 92.7 96.2 101.5 103.2 107.3 109.8 115.9 112 104.7 118.3 125.3 124 129.7 130.7 117.9 121 115.8 105 104.2 105.3 113 130.5 135.3 140.9 124.7 127.9 131.4 123.8 112.3 97.5 80 64.4 51.5 44.7 49.5 57.2 63.7 72.4 56.3 43.4 35.8 24.1 22.1 19.3 18.8 17.9 15.7 18.3 17.7 18.7 20.1 23.5 28.2 32.8 32.9 35 38 36.6 29.3 26 26 26 20.3 19.7 19.7 23.6 21 26.1 29.9 37.3 43.2 63.9 90.6 97.8 79.5 62.3 56.5 51.5 40 37.9 39.2 43.7 43.1 38.7 45.9 45.7 39.8 47.2 58.4 66.3 72.5 72.5
-1.7 -1.7 -1.7 -1.7 -1.7 -1.7 -1.7 -1.7 -1.7 -1.7 -1.7 -1.7 -1.7 -1.7 -1.7 -1.7 -1.7 -1.7 -1.7 -1.7 -1.7 -1.7 -1.7 -1.7 -1.7 -1.7 -1.7 -1.7 -1.7 -1.7 -1.7 8.6 33.3 64.4 72.1 57.9 74.6 95.8 91.5 90 89.3 95.1 98.5 103.8 107.9 109.2 112.4 117.4 130.4 142.5 150.6 151.9 146.2 146.1 151.5 151.2 147.9 143.3 138.8 145.3 145.9 148.7 150 149.3 144.6 144.8 129.1 124.4 139 149.5 152.6 158.8 159.7 167.7 166.6 157.8 165.5 166.9 168.9 161.3 150.5 127 107.4 111.8 104.1 76 51.6 39.1 30.5 30.5 30.5 31.4 51 50.8 55.6 56.5 58 50.4 49.9 52.9 48.3 46.1 44.1 42.4 49 72.8 87.3 94.6 98.6 93.3 97.4 100.7 103.2 112.1 113.5 103.3 93.9 106.9 114.1 113.1 111.2 108.9 100.1 105.9 107.6 92.9 116.3 104 104.6 117.4 118.6 119.3 107.4 124.6 123.2 116.3 103.2 92.7 77.4 52.2 42.8 35.7 40.1 44.7 51.3 57.6 43.4 34.4 25.1 21.3 14.6 13.3 14.1 18.2 22.1 21.7 20.6 21.6 24.1 26.9 39 48.6 47.8 51.2 46.8 36.9 29.2 26 24.8 22.9 19.7 19.7 19.7 24 19.7 19.7 25.8 34.1 47.3 75.2 89.5 78.3 57.9 47 49.5 38.9 34.1 33.4 33.7 38.6 33.6 34 35.1 34.6 34.8 37 44.2 54.2 57.1 61.1
-1.7 -1.7 -1.7 -1.7 -1.7 -1.7 -1.7 -1.7 -1.7 -1.7 -1.7 -1.7 -1.7 -1.7 -1.7 -1.7 -1.7 -1.7 -1.7 -1.7 -1.7 -1.7 -1.7 -1.7 -1.7 -1.7 -1.7 -1.7 -1.7 -1.7 1 18.1 52.1 70.5 85.4 83.2 87.1 90.7 90.2 89.8 94.9 101.5 109.7 118.5 116 119.7 124.9 138.5 143.4 148.3 155 157.2 154.8 153 155.7 158 163.1 167.1 160.5 158.6 159.8 167.7 163.8 170 168.8 173.5 159.2 157.3 174.7 194.8 188 179.3 182.2 184.1 191 183.1 163.8 166.8 169.4 168.1 157.4 136.2 121.2 115.9 112.2 99.9 74.8 65.1 59.7 44.6 36.9 39.1 44.2 52.4 61 58.7 73.5 61 50.7 51.4 52.4 45.4 43.9 40.6 54.8 86.3 90.5 90.9 93 87.2 86.8 96.3 91.7 99.2 99.4 90.2 85.7 101 104 93.1 91.7 86 86.8 93.1 86.6 94.3 115.9 98.7 93.8 112.8 108.4 102.9 98.4 120.6 115.7 111.3 97.9 86.2 69.4 44.8 34.4 33.3 35.7 36.4 37.5 35.8 30.7 25.7 16.1 15 16.1 29.9 28.8 43.1 48 49 41.3 43.6 49 55.1 64.9 69.3 67.8 66 53.2 44.8 36.9 30.4 25.2 21.5 19.7 24 24.7 25 25.9 28.4 19.7 35.2 57.1 82 65.6 51.8 37 44.5 37.3 34.3 33.6 32.9 31.8 29.6 28.6 28.6 30.8 34.3 34.1 28.6 33.9 42.5 46 54.3
-1.7 -1.7 -1.7 -1.7 -1.7 -1.7 -1.7 -1.7 -1.7 -1.7 -1.7 -1.7 -1.7 -1.7 -1.7 -1.7 -1.7 -1.7 -1.7 -1.7 -1.7 -1.7 -1.7 -1.7 -1.7 -1.7 -1.7 -1.7 -1.7 2.2 28.2 53.2 69.8 87.2 88.6 86.4 91.6 93.7 100 113.4 121.4 130.3 137.8 135.4 140.8 144.9 147.5 151.4 158.4 160.7 162.7 168 168.6 168.2 168.2 169.2 174 181.8 191 201.7 199.6 191.5 187.5 186.9 188.8 195.5 189.5 197.2 214.4 231.2 210.8 201.3 198.2 191.3 191.5 189.2 167.4 164.7 174.9 176.1 166.7 145.4 136.3 128 125.4 109.6 94.3 76.7 71.1 50.8 33.1 41 46.3 53 57.7 58.9 69.8 63.6 59.7 51.4 50.1 50.6 48.7 45.2 45.7 75.8 79.3 83.4 76.5 70.7 67.5 91.7 77.7 80.4 82 87.1 73.5 84.8 89 73.9 68.8 69.8 72.7 63.9 62 98.6 107.5 91.8 83.5 90.1 94.2 87.9 86.6 105.7 106.2 100.8 88.8 77.7 59 37.7 29.6 33.7 35.6 30 31.7 36 26.4 19.7 17.3 19.2 19.6 42.9 53.1 59.8 66.4 59.7 67.9 76 83 81.6 86.7 90.5 83 73.1 68.8 57.3 47 36.9 26.4 23.2 24.5 27.5 30.1 25.6 28.2 32.8 33.9 33.2 59.1 57.1 39.8 34 32.1 34.1 34.3 33.2 33.6 33.8 28.6 28.6 28.6 28.6 28.6 28.6 33.5 28.6 28.6 31.6 40.2 47.1
-1.7 -1.7 -1.7 -1.7 -1.7 -1.7 -1.7 -1.7 -1.7 -1.7 -1.7 -1.7 -1.7 -1.7 -1.7 -1.7 -1.7 -1.7 -1.7 -1.7 -1.7 -1.7 -1.7 -1.7 -1.7 -1.7 -1.7 3.1 14.6 28.1 49.7 71.4 93 99.2 92.4 91.6 101.2 115 131.5 143.8 150.8 153.7 155.4 153.2 154 157.4 161.3 165.6 170.7 179.1 179.8 184 187.5 189.7 193.6 191.3 190.5 191.2 206.2 224.7 232.3 231.2 217 214.8 229.2 217.3 212 222.9 234.2 248.7 236.9 216.3 212.3 216.3 213.3 203.2 188.3 165 174.6 181.1 176.2 164.2 153.3 147.5 133.6 110.5 99 87.1 76 54.1 36.3 38.5 47.7 51.6 61.6 58.3 59.8 61.2 62.6 68 65.7 46.7 50.1 41.2 43.7 60.1 65.6 69.8 50.9 42 48.2 72.5 62.2 71.6 69.2 65.1 61.4 72.2 70.8 61.5 54.8 47.4 56.4 49.7 68.6 94.1 89.9 77.8 80.6 82.7 88.4 72.5 81.7 95.6 94.2 88.5 80.1 65.4 45.3 27.5 24.9 32 29.9 28.3 31.6 32.8 23.6 12.1 22.6 21.6 32.9 65.7 70.2 80.8 77.4 82.6 96.5 104.7 113.4 112.7 109.2 100.9 92.3 83.7 78.1 65.9 49.9 39.3 31.3 29.9 34.8 38.7 33.4 27 28 39.6 38.6 30.5 50 39.5 33.7 28.6 28.6 33.6 34.3 34.1 34.7 35.2 28.6 28.6 28.6 28.6 28.6 28.6 28.6 28.6 28.6 28.6 32.4 38.6
-1.7 -1.7 -1.7 -1.7 -1.7 -1.7 -1.7 -1.7 -1.7 -1.7 -1.7 -1.7 -1.7 -1.7 -1.7 -1.7 -1.7 -1.7 -1.7 -1.7 -1.7 -1.7 -1.7 -1.7 -1.7 -1.7 12.7 47 62 71.3 86.9 111.7 122.3 123.3 113.4 109.6 123.1 136.1 149.5 156.9 153.6 156.4 159.8 160.4 160.4 160.2 165 169.7 174 182.5 190.2 195.8 204.4 203.8 204.3 211.8 207.2 210.7 222.2 232.3 241.3 243.1 239.6 246.9 247.7 233.6 231 247 257.8 258.8 258 244.8 232 231.2 234.8 230.5 204.6 186.9 174.5 187.7 181.4 177.7 176 157.5 144.1 124.9 112.3 100.9 75.8 61.3 38.9 39.3 43.1 57.8 57 54.9 51.1 63.2 66.2 69.6 71.4 64.1 44.7 37.5 27.7 40 44.4 52 31.3 26.9 39.6 65.1 47.9 58.5 57.4 54.5 42.3 46.3 48.3 43.6 33.6 30 34.2 42 75.7 96.7 86.3 70.8 73.6 70.7 68.7 65.6 83.8 91.3 90 79.5 69.1 55.9 32.3 24.3 24.1 32.6 29.5 25.7 32.6 28.8 19.9 16.6 24.7 25.1 71.9 96.7 92 95.7 99.2 104.1 116.6 120 117.5 116.4 104.3 100.6 98.2 87.8 81.4 68.7 65 61.1 48.2 43.5 49.6 46.5 36.6 30.5 30.9 43.7 40.3 28.6 34 33.2 28.6 28.6 28.6 33.3 33.4 28.6 36.1 34.1 28.6 28.6 28.6 28.6 28.6 28.6 28.6 28.6 28.6 28.6 28.6 32.6
-1.7 -1.7 -1.7 -1.7 -1.7 -1.7 -1.7 -1.7 -1.7 -1.7 -1.7 -1.7 -1.7 -1.7 -1.7 -1.7 -1.7 -1.7 -1.7 -1.7 -1.7 -1.7 -1.7 17.8 37.3 37.4 56.1 90 117 114.9 128.4 135.4 139.6 133.8 129.1 127.8 130.8 138.8 142.4 149.5 152.8 159.1 161.6 164.4 164.7 165.1 166.5 173.5 181.3 189.3 200.1 222 223.3 219.8 218.7 219.2 218.8 221.6 232.7 239.6 241.3 245.2 252.1 250.3 244.4 241 252.3 262.5 261.8 270.5 269.5 263.9 260.6 253.8 249.5 242.1 223.3 203.4 191.3 196.6 187.7 188.8 181.6 173.3 159.3 141.8 125.6 108.1 81.9 62.8 45.4 44.4 44 55.7 47.3 39.8 42.2 61.1 69.8 68.9 68.8 64.9 39.3 34.1 39 36.7 34 27.3 20.2 13.9 37 52.8 38.9 47.1 42.4 34.7 23.9 23.3 26.9 22.3 16.7 15 29.8 35.4 79.9 85.8 82 59.9 83.1 57.7 52.6 62.8 84.6 82.9 88.1 76.8 63.5 45.4 29.1 16.5 18 30.6 28.3 22.5 29.3 23.8 9.8 18.7 24.6 48.9 85.5 98.3 98.6 98.7 108.9 118.4 121.9 114.9 117.3 107.1 93.4 98.4 96.3 82.3 68.2 59.8 82.6 76.6 65.5 66.4 55.6 41.3 35.5 28 34 40.9 36.2 28.6 28.6 31.3 28.6 28.6 28.6 33 28.6 28.6 28.6 28.6 28.6 28.6 28.6 28.6 28.6 28.6 28.6 28.6 28.6 28.6 28.6 28.6
-1.7 -1.7 -1.7 -1.7 -1.7 -1.7 -1.7 -1.7 -1.7 -1.7 -1.7 -1.7 -1.7 -1.7 -1.7 -1.7 -1.7 -1.7 -1.7 -1.7 -1.7 -1.7 21.5 34 41.6 69.7 90.8 112.2 117.7 131.5 147.2 149.6 144.4 143.7 140.2 135.3 137.9 144.8 146.3 154 153.7 161.6 171.9 179.1 182.7 188.7 194.1 194.9 206.4 211.6 219.3 224.2 225.1 219.3 220.9 220 226.4 229 231.3 235.9 240.5 252.3 256.1 253.6 245 248 263.2 266.4 269 288.8 280.6 270.4 267 264.3 265.2 256.3 231.1 212.8 209.7 204.2 198.2 200.1 193.5 183.4 176 163.1 141.3 117.4 89.7 71.9 49.7 47.8 50.3 41 39.7 44.3 44.2 56.9 72.3 77.2 71.3 56.1 37.9 16 25.2 26 29 27.9 28.5 26.8 24.6 21.9 21 24 29.6 17 9.6 7.4 13.8 7.5 7.7 14.1 31.1 29.3 65.8 77.8 75.1 55.8 58 43.6 48.2 73.7 82.7 78.3 82.9 74.4 59 41 25.9 13.5 13.5 24.6 23.3 19.9 27.9 18.3 11.1 16.9 32.2 62.6 83.9 105 103.9 106.3 111.9 118.3 100.6 105.5 97.8 90.7 82.4 86 84 69.6 56.8 64.1 79 77.4 76.7 68.3 56.1 43 37.2 29.7 30.7 42.9 34.8 29.3 28.6 28.6 28.6 28.6 28.6 28.6 28.6 28.6 28.6 28.6 28.6 28.6 28.6 28.6 28.6 28.6 28.6 28.6 28.6 28.6 28.6 28.6
-1.7 -1.7 -1.7 -1.7 -1.7 -1.7 -1.7 -1.7 -1.7 -1.7 -1.7 -1.7 -1.7 -1.7 -1.7 -1.7 -1.7 -1.7 -1.7 -1.7 4.5 24.9 43.3 45.1 65 91.9 103.2 115.6 133 159.7 160.8 164.9 157.5 150.7 147.3 149.7 150.3 152.9 157.8 163.5 168.5 171.4 174.5 177 185.5 194.6 206.1 206.7 211.8 217.7 222.4 216.7 216.7 217.6 216 216.9 221.1 225.6 232.7 232 238.9 247 246.5 243.9 242.7 250 267.8 269.6 278 280.3 285.5 278.4 273.9 274.8 276.1 263.3 244.3 227.9 226.2 230.3 223.7 207.8 200.1 195 183.6 168.1 148.4 124.2 97.1 81.4 58.8 53.7 54.3 45.2 40.3 48 51.8 52.7 70.7 65.3 77.7 63.9 37.6 14.1 9.4 10.2 5 2.3 1.8 4.5 27 24.5 17 26.1 19.9 8.8 5.2 -1.7 -1.7 6 5.4 15.1 16.8 14.6 45.6 68.8 68.1 49.2 33.4 43.3 49.1 79.1 73.4 73.3 74.4 66.6 52.4 36.7 16.9 11.3 11.5 18.7 21.9 17.4 17.9 13.6 12.5 17.2 57.3 75.6 80.6 87.9 85.7 92.3 102.4 99.7 93.8 81.7 71.2 76.6 82 84.3 76.9 59.9 51.3 60.6 72.4 79.9 74.3 65.3 61.3 53.7 51.4 56.8 54.5 46.7 46.3 35.2 28.6 28.6 28.6 28.6 28.6 28.6 28.6 28.6 28.6 28.6 28.6 28.6 28.6 28.6 28.6 28.6 28.6 28.6 28.6 28.6 28.6 28.6
-1.7 -1.7 -1.7 -1.7 -1.7 -1.7 -1.7 -1.7 -1.7 -1.7 -1.7 -1.7 -1.7 -1.7 -1.7 -1.7 -1.7 6.7 4.7 8.7 32.7 39.9 46.6 49.9 75 98.3 115.5 139.3 169.8 182.8 177.1 179.2 170.9 161.6 164.1 152.6 147.6 150.4 154.7 160 165.8 173.7 176.3 182.5 188.9 191.9 201.1 209.6 219.3 217.7 216.8 217.5 216.8 214.3 207.3 204.3 215.2 222.2 221.6 233.7 240.1 245.1 246 243.5 240.2 253.7 263.8 282 283.4 280.4 276.4 273.1 273.3 274.7 275.2 257 242.9 238.4 235 237.4 236.9 219.3 202 188.2 181 170.2 150.8 125.7 103 88.5 66.7 61.1 58 50.2 39.4 43.5 46.4 50.4 61.9 58.8 52.5 50.4 36 10.9 3.8 1.7 -1.7 -1.7 -1.7 -1.7 28.4 9.6 11.8 17.1 11.4 -1.7 -1.7 -1.7 -1.7 -1.7 2.3 6.8 8.4 12.6 25.3 51.7 54.6 39 35.5 40.1 42 69 58.7 65.5 66.9 55.6 46.3 26.8 10.7 10.2 10.7 13.1 21.3 15.4 12.9 10.1 12.4 16.1 53.1 71.4 74.8 75.7 76.9 79.6 83 77.2 82.4 62.3 59.6 65.1 69.3 62.4 56 51.7 44.9 65.6 69.6 73.6 72 70.6 69.6 64.8 84 84.1 74.2 70.6 60.7 47 34.4 28.6 28.6 28.6 28.6 32.4 28.6 28.6 28.6 28.6 28.6 28.6 28.6 28.6 28.6 28.6 28.6 28.6 28.6 28.6 28.6 28.6
-1.7 -1.7 -1.7 -1.7 -1.7 -1.7 -1.7 -1.7 -1.7 -1.7 -1.7 -1.7 -1.7 -1.7 -1.7 -1.7 6.8 9 21.1 41.9 41.3 45.2 54.4 68.2 94.1 114.7 148 175.2 201.8 206.9 190.7 182 172.4 168.2 157.9 147.6 141.1 138.5 138.4 144.5 156 161 168.5 175.7 185.1 187.7 203.7 209 209.7 211.9 213.3 211.1 206.2 199.3 203.1 202.3 202.3 204.4 209.7 231.5 244.2 248.8 247.7 245.6 241.2 253 264.6 276.6 284.3 276.7 276.6 271.3 275.1 277.5 277.6 250.8 243.7 239.1 236.6 236.2 230.8 217.6 209.9 195.5 171.7 159.3 141.2 123.4 107.9 91.7 72.2 63.2 57.8 51.4 40.4 39.7 43.5 46.9 61.4 56.1 38.8 34.3 28.4 9.3 2.1 -1.7 -1.7 -1.7 -1.7 -1.7 5.3 4.3 9.6 14.4 6.4 -1.7 -1.7 -1.7 -1.7 -1.7 -1.7 9.2 8.4 13.5 20.2 31.9 36.5 22.8 45.7 34 34.6 55.5 50.2 62.2 56.3 43.5 31.3 18.2 9.1 9.2 10.3 11.6 12.5 12 8.4 10.6 12.1 15 44.6 63.3 68.3 66.4 62.1 64.4 54.5 58.1 53.6 43.6 50.2 52.3 49.6 46.7 39 35.1 47.1 63.8 73.3 68.8 69.2 74.3 73.5 85.5 104.1 99.9 101.1 96.1 71.4 56.5 41.8 33.6 33.7 30.3 31.2 33.5 33.1 31 28.8 28.6 28.6 28.6 28.6 28.6 28.6 28.6 29.3 28.6 28.6 28.6 28.6 28.6
-1.7 -1.7 -1.7 -1.7 -1.7 -1.7 -1.7 -1.7 -1.7 -1.7 -1.7 -1.7 -1.7 -1.7 -1.7 -1.7 8.3 26.5 49 45.4 49.9 61.6 85.4 103.1 120.2 146.8 179.1 196.5 207.5 200.7 185.1 173.7 164.1 153 143.7 144.5 132.7 129.4 127.3 130.3 140.7 142.9 159.4 163.8 174.1 179.9 190.7 195.3 198.9 200 197.3 195.1 196.6 198.7 197.1 197.7 199.6 200.6 228.2 241.7 247.9 248.4 248.1 246.3 241.1 225.2 233.7 247.9 255.8 262.7 262.4 264.9 266.5 265.8 249.5 239.4 238.5 232.8 228.6 229.9 223.1 211.4 204.5 192.2 171.9 153.2 138.7 128.4 112.3 95.1 74.4 64.6 51 54.1 46.5 39.3 41.1 41.4 54.7 51 30.7 20.7 14.7 5.3 -1.7 -1.7 -1.7 -1.7 -1.7 -1.7 -1.7 -1.7 5.2 4.9 5 -1.7 -1.7 -1.7 -1.7 -1.7 -1.7 3.6 6.9 11 19.7 17.4 14.4 36.3 30.7 25.8 30.5 42.8 54.2 57 45.7 30.5 20.4 9.7 7.9 8.5 9.8 11.4 12.6 24.8 7 10.4 11.1 14.7 36.8 48.4 56.4 55.4 43.4 41.5 35.9 38.3 33.8 30.7 39.3 43.9 40 34.4 28.7 34.9 55.9 64 66.7 66.4 66.6 79.8 89.3 111.9 111.8 117.6 119.3 99.5 78.9 57.4 41.7 36.3 33.2 32.8 41.4 50 42.1 37.1 32.6 32.8 29 28.6 28.6 28.6 28.6 28.6 28.6 28.6 28.6 28.6 28.6 28.6
-1.7 -1.7 -1.7 -1.7 -1.7 -1.7 -1.7 -1.7 -1.7 -1.7 -1.7 -1.7 -1.7 -1.7 -1.7 -1.7 31.2 59.9 59.9 53.6 67.7 92.9 119.9 141 152.9 163.5 183.2 194.6 194 186.5 177.8 161.8 149.8 142 139 136.1 128 121.7 121.6 128.5 140 140.6 147.6 152.6 167.4 175 189.7 191.3 184.3 186.3 186.3 189 190.3 192.7 194.5 197.4 199 208.1 230 237.4 235.7 240 240.8 237.9 231.5 217.2 208.6 211.9 215.5 219.3 231.1 241.8 241 235.4 224.2 227.2 229.8 220 219.1 226.5 218.6 207 196 186.1 171.3 168.8 145.6 130.5 123.5 112.7 87.7 66.5 50 56 50.5 41.7 36.5 37.2 49.1 41.7 28.9 10.3 9 3.9 -1.7 -1.7 -1.7 -1.7 -1.7 -1.7 -1.7 -1.7 -1.7 3.3 -1.7 -1.7 -1.7 -1.7 -1.7 -1.7 4 -1.7 10.2 18.7 13.5 9.3 23.7 44 37.1 20.2 26.4 35.6 53.3 50.5 31.6 25.9 18.1 7.9 6.9 7.9 9.3 10.9 13 24.9 9.9 7 10.2 12.4 22.2 28.1 36.2 38.7 33.3 26.8 26.7 35.2 23.1 31.9 37.7 39.7 35.8 28.4 25.8 38.3 50.4 59.1 62.9 64 67.6 88.8 111.7 115.3 125.3 128.3 116.5 93.9 77.4 55.5 44.3 38.2 38.1 41.3 62.3 64.1 53.6 49.1 44.3 42.1 40 40 36.6 33.2 34.5 32.9 32.8 28.6 28.6 28.6 28.6 28.6
-1.7 -1.7 -1.7 -1.7 -1.7 -1.7 -1.7 -1.7 -1.7 -1.7 -1.7 -1.7 -1.7 -1.7 -1.7 33.9 70.7 73.4 64.6 72.8 93.5 123.8 136.7 155.8 169.6 175.7 183.4 181.6 177.2 178.5 162.5 146.4 143.7 139.5 136.4 131.2 126.6 120.2 122.1 129.4 134.6 134.3 139.5 144.1 152.8 153 160 165.3 172.3 176.2 181.8 187.7 191.6 196 199.2 202.6 199.8 202.5 222.6 226.1 224.6 230.1 219.8 215.1 216.4 210 202.9 205.3 208.9 211.1 208.7 208.5 203 199.1 213.1 217.4 211.5 203.9 207.6 212.5 208.7 200.2 180.8 168.9 173.8 171.8 163.6 143.2 122 115.2 94.9 66.9 49.1 50.7 51.6 43.8 34.1 31.6 36.6 25.1 13.6 5.1 4.9 -1.7 -1.7 -1.7 -1.7 -1.7 -1.7 -1.7 -1.7 -1.7 -1.7 -1.7 -1.7 -1.7 -1.7 -1.7 -1.7 -1.7 4.2 -1.7 16 14.6 8.4 16.2 28.8 33.8 27 9.7 19.2 32.2 46.4 26.1 23.4 27.2 8.7 5.3 5.5 3.8 7.9 9.3 11.1 14.9 8.8 8.9 9.3 11 13.2 24.4 23.1 30 29.3 22.9 25.6 20.5 24 27.9 30.9 30.9 29.3 25.3 30.3 39.7 50.6 60 63.3 66 70.5 103.9 111.7 124.2 127.8 122.3 102.8 88.1 72.9 57.1 49.7 46.8 48.5 63.5 78.5 76.7 71.1 62.7 70.2 63.6 60.1 63.5 50.6 45.5 49.6 51.5 42.5 33 28.6 28.6 28.6 28.6
-1.7 -1.7 -1.7 -1.7 -1.7 -1.7 -1.7 -1.7 -1.7 -1.7 -1.7 -1.7 -1.7 -1.7 19.2 85.4 86.7 83.5 91.6 108.4 126.3 149.6 164.2 171.5 173.9 177.3 175.2 170.4 168.6 160.1 147.9 132.7 131.7 129.4 127.6 124.8 121.2 118.3 116.6 120.8 118.8 119 114.8 121.9 129.7 129 141 159 171.5 173.5 184 196.6 201.5 204.8 204.7 197.5 203.7 202.7 214 212.1 199.3 200.2 204.1 208.3 204.4 205 194.4 196.8 201.4 202.4 202.7 195.6 191.9 185.4 196 202.3 200.2 186.8 188.8 201.2 200.6 186.1 169.4 168.9 175.7 175.1 172.4 165.8 138.7 106.9 91.4 69.3 50.3 49.4 55.9 35 31.8 26.8 21 6.6 3.9 1.2 -1.7 -1.7 -1.7 -1.7 -1.7 -1.7 -1.7 -1.7 -1.7 -1.7 -1.7 -1.7 -1.7 -1.7 -1.7 -1.7 -1.7 0.1 2.2 2.4 18 7.4 4.7 9.9 23.5 20.9 21.7 17.5 22.9 25.4 35.7 28.4 27.1 16.2 4.7 6.3 6.4 7.1 7.5 7.2 5.3 6.5 6.5 8.6 10 12.2 15.6 32.9 24.8 35.5 23.7 23.8 22.6 20 25.8 23.2 28 28.8 25.5 27 34.3 45.8 54.3 58.1 65.1 70.6 80.9 104 116.1 116.4 111.7 106 101.2 85.4 67.4 68.9 65.7 66.6 77.8 86.7 97 88.8 88.2 91.7 98 94.9 92.5 80.5 74.1 74 70.3 63.3 46.9 37.2 33.2 32.9 28.6 28.6
-1.7 -1.7 -1.7 -1.7 -1.7 -1.7 -1.7 -1.7 -1.7 -1.7 -1.7 -1.7 -1.7 4.5 53.7 79.1 96.6 119.1 130.5 145.7 161.3 173.5 181 180.5 173.4 162.1 156.9 161.5 159.9 147.1 135 124.2 118.5 119.7 117.3 118 116.2 114.2 113.8 113.8 113.8 113.8 113.8 113.8 113.8 116.1 127.4 144.6 157.1 167.9 178.7 186.8 192.6 196.5 190.1 195.6 194.4 189.9 192.6 186.5 178.6 190.7 198.5 199.4 192.4 190.7 186.2 187.6 181.7 181.5 181.8 182.4 185.9 174.5 169.3 166.5 168.6 164.7 175.7 199.4 196 177.3 168.9 179.4 180.1 187.6 182 164.5 144.3 118.9 94.6 78 55.3 48.9 44.6 30.6 30.4 21.7 -1.7 -1.7 -1.7 -1.7 -1.7 -1.7 -1.7 -1.7 -1.7 -1.7 -1.7 -1.7 -1.7 -1.7 -1.7 -1.7 -1.7 -1.7 -1.7 -1.7 -1.7 0 1.5 14.5 18.1 2 3.5 19.7 25.7 18.9 4.1 4.3 16.2 25.7 24 17.5 22.7 7.6 6.1 6.4 7.1 8.2 8.9 9.4 8.9 10 9.2 13.8 27.1 28.3 17.1 17.4 17.4 24.9 21.4 20 16.6 19.8 23.7 23.2 32.9 26.7 26.9 28.3 37.2 44.8 48.8 56.7 63.3 70.5 93.5 100.7 100.7 97.3 105.5 101.7 96.5 88.1 80.8 90.6 90.3 90.7 100.7 109.1 106.8 108.3 114.1 116.6 118.4 118.9 107.4 98.9 103.3 95.4 83.1 66 55.7 58.3 53.3 43.4 35.9 32.3
-1.7 -1.7 -1.7 -1.7 -1.7 -1.7 -1.7 -1.7 -1.7 -1.7 -1.7 17.5 6.5 38.8 65.9 107.3 117.6 157.1 163.8 166.9 177 179.9 170.8 160.1 155 148.3 148.3 156.7 152.8 139.7 132.5 124.6 113.8 113.8 113.8 113.8 113.8 113.8 113.8 113.8 113.8 113.8 113.8 113.8 113.8 116.2 120.1 131.6 150.1 161.7 170.4 182.2 183.3 181.4 178.6 198.5 191.8 178.4 169.1 168.1 160.9 160.1 165.8 167.9 178.2 185 180.9 171 165.1 165.1 165.1 165.1 165.1 170.6 164.6 164.6 164.6 164.6 190 202.5 194 177.8 170.9 194.4 187.5 188.7 181.7 170.9 158.4 131.3 109 85.8 58.3 44.9 33 22.7 21.1 -1.7 -1.7 -1.7 -1.7 -1.7 -1.7 -1.7 -1.7 -1.7 -1.7 -1.7 -1.7 -1.7 -1.7 -1.7 -1.7 -1.7 -1.7 -1.7 -1.7 -1.7 -1.7 -1.4 -1.7 -1.7 -1.7 -1.7 12.6 21.5 19.2 10.4 2.4 2.7 12.2 20.4 15.2 24.4 14 3.8 6.2 7.1 7.8 9 10.4 11.1 16.4 15.2 7.4 26.3 18.9 16 13.5 13.4 13.1 11.6 11.8 17.8 18.3 16.2 17.6 28.9 32.5 21.5 22 23.9 31.2 34.8 42.9 57.4 65.9 81.7 83.9 88 84.1 91.1 92.1 96.4 101.8 100.2 105.4 109.9 115.3 117.9 121.4 124.3 129.6 140 144.8 143.1 133.5 126.5 118.8 124.3 115.6 104.7 89.1 75 79.1 82.2 72.4 58.7 51.8 43.8
-1.7 -1.7 -1.7 -1.7 -1.7 -1.7 -1.7 -1.7 -1.7 -1.7 26.7 51.4 46.2 71.7 97.7 132.6 142.1 171.4 170.1 172.9 167.9 165.9 157.5 152.9 151.3 148.3 148.3 151.2 146 139.2 129.2 119.7 118 116.8 116.2 117.3 113.8 113.8 113.8 113.8 113.8 113.8 113.8 113.8 113.8 113.8 119.1 121 136.5 151.7 149.8 162.5 165.9 151.5 163.3 178.7 182.2 165.5 169.3 149.7 140.6 140 144.1 151.5 161.7 179.4 176.3 176.1 168.9 165.1 165.1 165.1 165.1 166.4 164.6 166.5 177.2 178.2 198.1 206.3 194.2 186.7 188.8 201.1 195.7 190.6 177.4 170.7 156.8 135.4 112.8 90.6 64.2 48.5 35.3 19.2 4.9 -1.7 -1.7 -1.7 -1.7 -1.7 -1.7 -1.7 -1.7 -1.7 -1.7 -1.7 -1.7 -1.7 -1.7 -1.7 -1.7 -1.7 -1.7 -1.7 -1.7 -1.7 -1.7 -1.7 -1.7 -1.7 -1.7 -1.7 12.5 3.7 4.9 1.5 1.4 3.8 11.7 8.6 23.9 15.9 5.3 5.1 6.5 7.4 8.5 9.4 11.2 28.8 25.2 11.9 10.1 8.6 11 11.1 12.2 13.6 15 15.7 16 17.4 14.1 17.5 16.5 21.8 24.9 18.7 21 23.5 34.8 39.7 48.6 57.5 63.5 70.6 72.1 73.4 77.4 92.5 111.8 120.1 130.1 132.9 129.3 132.8 135.9 133.5 139.2 145.9 157 169.2 171.1 166.3 158.2 143.9 138.4 129.8 121.3 108.3 101.6 99.2 106.5 97.2 92.2 77 64.1 58.3
-1.7 -1.7 -1.7 -1.7 -1.7 -1.7 -1.7 -1.7 5.4 15.9 72.7 66.6 81.6 92 125 137.4 151 167.4 163.6 158.2 155.8 151.5 152.4 149.2 152.1 148.3 149 162.2 146.2 144 132.4 119.2 119.9 120.4 119.7 113.8 113.8 113.8 113.8 113.8 113.8 113.8 113.8 113.8 113.8 113.8 119.1 125.3 126.3 128.3 131.8 135.6 139.2 146.2 157.5 161.9 150.4 142.6 134.9 124.8 127.2 137.6 137.1 138.8 144.2 169.5 174.1 175.1 175.1 175.7 176.2 169.7 169.3 165.1 176.4 191.8 201.5 203 206.5 212.4 197.8 196.2 213.7 204.1 195.9 184.8 179.7 171.1 150.9 131.3 119.3 94.1 65.2 49.7 31.1 -1.7 -1.7 -1.7 -1.7 -1.7 -1.7 -1.7 -1.7 -1.7 -1.7 -1.7 -1.7 -1.7 -1.7 -1.7 -1.7 -1.7 -1.7 -1.7 -1.7 -1.7 -1.7 -1.7 -1.7 -1.7 -1.7 -1.7 -1.7 -1.7 -1.7 -1.7 -1.7 -1.7 -1.7 2.4 4.9 10.3 13.3 5.4 3.9 5.2 6.4 7.6 8.7 9.8 15.9 26 16.1 11.3 11.6 14.7 17.5 15.9 18 20.4 22.4 23.3 21.5 24.9 20.5 19.7 19.2 18.6 17.6 19.2 20.1 26.6 35.6 40.7 48.2 53.7 60 62.8 64.7 85.8 100.7 117.1 136.3 140.6 149.7 144.5 143 151.3 154.9 152.3 158.1 174 190.9 197.3 199.2 192.3 179.5 170 153.7 141.8 129.3 125.9 127 131.6 126.4 114.5 100.8 89.1 78.3 75.1
-1.7 -1.7 -1.7 -1.7 -1.7 -1.7 -1.7 23.3 23.7 63.6 83.8 86 86.4 109.9 126 136.6 155 161.6 153.2 151 145.6 142.5 137.2 142.2 155.1 157.7 164.4 145.2 141.1 123.5 114.6 114.9 128.3 124.7 127.2 118 113.8 113.8 113.8 113.8 113.8 113.8 113.8 113.8 113.8 113.8 113.8 123.2 129.2 130.4 130.4 128.4 127.3 135.7 132.2 128.8 124.8 123.6 119.6 113.8 113.8 126.7 131.3 140.6 142.3 163.6 177.8 177.5 177.1 169.9 166.7 164.5 176 190 199.1 214.5 221.7 220 220.4 218.4 209.5 206.1 211.4 204.1 194.7 181 170.2 157.9 133.7 119.2 101.3 76.2 51.9 38.3 25.6 -1.7 -1.7 -1.7 -1.7 -1.7 -1.7 -1.7 -1.7 -1.7 -1.7 -1.7 -1.7 -1.7 -1.7 -1.7 -1.7 -1.7 -1.7 -1.7 -1.7 -1.7 -1.7 -1.7 -1.7 -1.7 -1.7 -1.7 -1.7 -1.7 -1.7 -1.7 -1.7 -1.7 -1.7 -1.7 -1.7 -1.7 3.5 3.4 4.2 5.4 6.6 7.8 9.3 11.1 30.6 22.1 18.2 13.8 13.5 24.1 30.4 42.4 55 47.6 40.5 37.8 35.9 32 27.4 22.5 21.1 19.8 19.4 19.8 20.5 23.7 34.9 45.3 50.9 53.4 55.4 62.2 88.9 106.6 112.8 136.4 145.2 143.2 151.2 150.3 156 164.3 175.2 175.3 179.2 206.2 224.9 226.3 222.7 216.4 205.7 187.3 173.6 160.6 150.4 158.3 157.5 161.9 144.6 130.9 119.2 108.1 98.3 92.6
-1.7 -1.7 -1.7 -1.7 -1.7 24.3 28.3 32.6 57.1 72.5 84.6 98.2 96.9 119 126.6 138.9 151.4 141.5 138.9 145.6 127.7 124.2 120.8 150.2 154.6 169.5 151.7 130.6 126 100.1 100.9 95.1 108.7 111.4 113.8 116.9 121 113.8 113.8 113.8 113.8 113.8 113.8 113.8 113.8 113.8 113.8 122 125.1 130.6 131.4 125.4 114.6 113.8 113.8 113.8 113.8 113.8 123.7 117.3 113.8 113.8 124.1 138 143.2 161.6 178.7 175 179.3 163.7 175.8 199.4 208.4 214.5 214.9 223.1 226.5 224.5 224.7 224 214.3 213.6 202.9 193.9 187.9 165.2 153.4 131.6 119 100.2 84.4 59.1 35.9 21.8 -1.7 -1.7 -1.7 -1.7 -1.7 -1.7 -1.7 -1.7 -1.7 -1.7 -1.7 -1.7 -1.7 -1.7 -1.7 -1.7 -1.7 -1.7 -1.7 -1.7 -1.7 -1.7 -1.7 -1.7 -1.7 -1.7 -1.7 -1.7 -1.7 -1.4 -0.5 -0.3 0.6 2.6 3.5 -1.7 -1.7 -1.7 2.8 -1.7 4 5.3 6.6 7.6 8.5 10.4 32.9 25.2 17 14.9 30.8 44.2 51 62.1 67.1 59.2 57.5 51.5 43.9 36.9 31 25.3 23.1 21.3 20.2 20.8 21.3 29 34.9 43.5 49 44.8 61.1 89.1 112 120.7 136.3 154.1 150.8 156.5 159.6 164.5 161.3 180.1 191.1 195.5 203.1 225.3 237 238 238.3 235.5 229.5 205.7 191 177 184.1 188.6 185.5 179 167 159.9 146.8 139.3 128.3 114
-1.7 -1.7 -1.7 -1.7 25.8 44.8 43.4 79.2 81 83.9 97.4 94.7 93.9 111.1 127.7 134.3 129 123.2 127.6 123.1 108.7 113.7 125.1 156.5 155.1 144.4 118.6 107.5 97.2 86 87 83.6 83.6 105.1 120.6 122.3 132.9 124.7 113.8 113.8 113.8 113.8 113.8 113.8 113.8 113.8 113.8 119 127 124.9 126.9 117.2 113.8 113.8 113.8 113.8 113.8 113.8 113.8 113.8 113.8 113.8 113.8 132.7 142 160 172 172.7 166.5 168.3 187.1 196 206.3 215 227.5 229.4 224.2 223.8 221.2 216.9 212.8 206.4 198.7 183 166.7 153 136.2 124.6 100.5 83.3 58.3 32.5 17.5 -1.7 -1.7 -1.7 -1.7 -1.7 -1.7 -1.7 -1.7 -1.7 -1.7 -1.7 -1.7 -1.7 -1.7 -1.7 -1.7 -1.7 -1.7 -1.7 -1.7 -1.7 -1.7 -1.7 -1.7 -1.7 -1.7 -1.7 -1.7 -1.7 -1.7 -0.8 0.1 0.7 1.7 2.7 3.5 4.1 -1.7 -1.7 -1.7 -1.7 5.6 5.3 6.3 7.3 8.6 10.3 34.7 21.8 15.2 15.6 46.5 55.8 63 74.6 75.4 75.5 75.7 69.7 59.1 44.8 39.3 31.6 25.9 20.1 21.9 22 23.1 23.5 30.7 35.4 42.9 62.4 82.2 109 123.4 130.4 150.9 162.9 161.2 165.6 167.8 171.4 171.9 194.7 211.3 218.9 222.7 235.2 246.2 251.1 255 260.5 242.3 225.1 218.4 216.7 213.8 208.4 205.2 199.4 198.5 188.2 176.5 163 149.8 135.6
-1.7 2.1 34.4 37.6 48.4 52.2 78 94.6 98.8 97.5 91.2 82.9 96.8 113.9 121.2 118 105.2 99.6 103.4 102.7 106.4 119.6 139.4 149.1 142.1 125.1 104.7 91.2 78.4 77.5 76.3 82.7 92.3 105.2 112.5 123 145.1 132.6 114 113.8 113.8 113.8 113.8 113.8 113.8 113.8 116.1 128.4 131.8 120.6 125.7 113.8 113.8 113.8 113.8 113.8 113.8 113.8 113.8 113.8 113.8 113.8 113.8 122 140.7 161.1 167.2 164.8 152.1 162.4 177.7 197.1 207.1 212.1 220.7 225.8 228.4 224.9 223.7 221.1 215 206.8 188.9 170.1 156.9 136.6 122.3 109 93 68.7 44.4 22.1 -1.7 -1.7 -1.7 -1.7 -1.7 -1.7 -1.7 -1.7 -1.7 -1.7 -1.7 -1.7 -1.7 -1.7 -1.7 -1.7 -1.7 -1.7 -1.7 -1.7 -1.7 -1.7 -1.7 -1.7 -1.7 -1.7 -1.7 -1.7 -1.7 -1.7 -1.1 -0.2 0.7 1.6 2.5 3.2 3.6 4.2 -1.7 -1.7 3.8 5.2 5.5 5.6 6.1 7.6 8.9 25 21.7 13.7 13.5 17 51.6 71.1 74.8 80.7 78.9 81.6 76.2 62.3 55.3 55.6 56.2 40.9 24.3 23.5 23.8 27.6 39.7 38.3 41.4 48.3 66 81.6 98 115.8 125.8 144.3 162.3 166.1 165 170.8 173 176.3 177.4 203.5 223.7 231.7 240 248.2 253.6 266.4 274.7 273 250.9 244.9 242.5 240.8 237.5 227.3 224.4 224 220.3 211.3 203.6 192.1 180.2 167.4
7.5 33.2 61.5 78 87.9 90.1 107.7 103.2 92.6 84 76.5 72.5 81.3 102.6 99.1 91.1 89.3 99.4 111.4 114 122.1 135.5 136.4 135.2 120 107.9 91.3 79.1 71.7 77.7 83.5 94.5 98 116.1 111 113.2 142.4 140 125 113.8 113.8 113.8 113.8 113.8 113.8 113.8 118.1 126.7 119.1 113.8 119.7 113.8 113.8 113.8 113.8 113.8 113.8 113.8 113.8 113.8 113.8 113.8 113.8 118.3 149.3 163.9 163.2 158.3 145.6 151.2 160.4 184 202.7 213.1 224.4 229.9 229.5 229.5 230.7 225.6 219.5 205.6 186.1 168.4 152.2 134.2 118.1 103.9 83.1 64.4 32.1 7.8 -1.7 -1.7 -1.7 -1.7 -1.7 -1.7 -1.7 -1.7 -1.7 -1.7 -1.7 -1.7 -1.7 -1.7 -1.7 -1.7 -1.7 -1.7 -1.7 -1.7 -1.7 -1.7 -1.7 -1.7 -1.7 -1.7 -1.7 -1.7 -1.7 -1.4 -0.5 0.4 1.3 2.1 2.5 3.2 3.9 4.4 3.2 3.4 4.5 5.5 5.9 6.4 6.9 7.2 8.5 16.6 11.2 11.9 12.6 28.7 60.8 87.7 93.1 87.5 87.5 77.7 67 61.3 60.5 66.8 57.2 39.8 23.3 25.8 28.7 39.6 50.1 51.7 53.5 65.8 86.4 100.1 114.5 126.3 140.6 164.2 170.3 159 162.4 170.7 171.5 179.5 186 208.5 228 238 251.4 269.4 265.9 269.3 282.2 277.9 260.2 259.3 262.9 258 255 244.2 244 239.9 231.9 228.6 230.3 225.3 215.9 201.8
63.5 97.4 107.3 103.8 104 95.9 86.2 81.8 74.2 72.5 70.5 70.1 70.8 80.7 85.7 89 91.7 111.8 127.9 135.5 138.6 140.2 132.3 123.4 109.7 94.7 84.4 74.5 72.3 86.6 97.2 105.5 107.2 110 117.4 110.8 116.8 137.8 134.9 124.8 113.8 113.8 113.8 113.8 113.8 113.8 118.9 120.7 113.8 113.8 113.8 113.8 113.8 113.8 113.8 113.8 113.8 113.8 113.8 113.8 113.8 113.8 113.8 122.5 141.4 146.3 156.8 144.2 147.6 166.5 172.2 188 214.1 228.5 229.7 233.1 233.9 237.9 236.6 229.7 211.4 194.6 177.6 159 140 125.4 112.3 92 70.3 51.7 28.3 -1.7 -1.7 -1.7 -1.7 -1.7 -1.7 -1.7 -1.7 -1.7 -1.7 -1.7 -1.7 -1.7 -1.7 -1.7 -1.7 -1.7 -1.7 -1.7 -1.7 -1.7 -1.7 -1.7 -1.7 -1.7 -1.7 -1.7 -1.7 -1.7 -1.7 -1.1 -0.4 0.4 0.9 1.4 2.5 3.1 3.8 3.8 3.8 4.3 5.1 5.5 5.7 6 5.3 6.8 7.6 8.6 9.5 10.7 12.4 37.9 67.2 86.2 92.4 92.5 82.2 71.4 65.4 66.5 73 71.1 54.8 35.4 25.1 30.4 33 51.4 57.6 62.2 64.2 80.2 98.8 115.9 128.3 139.2 153.5 172.7 170.1 149.7 153 164.2 170.6 181.9 194 203.9 221.9 238.2 264.9 277.9 274.2 275.3 280.7 275.5 267.2 267.5 273.9 271.1 271.2 259.7 257 255.2 254.6 255.5 253.4 248.8 241.1 230.9
89.4 112.5 110 105.7 97.8 77.6 85 77.5 71.1 70.1 72.5 72.4 71.8 74.7 88.2 89.8 100.9 120.4 133.1 148 141.6 139.9 128 118 100.5 85.7 70.8 69.8 72.4 84.1 106.7 102.6 105.7 108.5 114.7 114.6 111.3 133.1 143.8 137.7 116.8 113.8 113.8 113.8 113.8 113.8 113.8 113.8 113.8 113.8 113.8 114.6 113.8 113.8 113.8 113.8 113.8 113.8 113.8 113.8 113.8 113.8 114.3 128.7 133.8 132.4 135.7 133 150.7 185.6 182.9 188.1 217.9 219 224 232.4 240.3 235.2 230.5 214 201 184.6 162.4 142 118.7 105.8 96.7 80.2 54 33.6 12.1 -1.7 -1.7 -1.7 -1.7 -1.7 -1.7 -1.7 -1.7 -1.7 -1.7 -1.7 -1.7 -1.7 -1.7 -1.7 -1.7 -1.7 -1.7 -1.7 -1.7 -1.7 -1.7 -1.7 -1.7 -1.7 -1.7 -1.7 -1.7 -1.7 -1.7 -1.7 -1.2 -0.8 -0.4 0.4 2.3 2.8 3 3.7 3.8 4.3 5 5.7 5.9 6.1 6.3 6.8 7.7 8.1 9.3 11 13.7 41.6 60.7 71.2 84.9 86.4 70.5 62.8 68.1 79.2 85.5 69.2 52.9 33.3 34.5 30.6 49.3 65.4 66.6 68.8 76.3 95.4 113.9 125 137.3 146.4 153.5 164.9 160.7 141.7 155.6 158.1 172.4 187.8 205.3 204.2 216.6 247.4 270.3 274.5 267.8 270.3 262.3 260.1 257.7 265 276.5 282.2 278.3 274.5 273 274.4 275 275.5 272.5 267.4 258.4 249.7
100.8 107.2 106.7 104.4 91.8 73.2 66.6 64.6 62.8 64.2 73 80.6 74.8 79 92.8 101.2 110.7 120.5 131.8 144.6 137.2 131 123.9 113.8 91.6 75.5 67.5 74.7 73 96.1 108 103.5 104.3 112.6 117.2 119.3 113 123.3 137.7 147.4 130.7 117.6 116.7 113.8 113.8 113.8 116.6 119.2 113.8 113.8 113.8 113.8 113.8 113.8 113.8 113.8 113.8 113.8 113.8 114.9 115.2 113.8 120.3 132.1 130.3 130.5 131.8 141.4 163.5 193.1 194.9 192.7 208.6 215 221.3 224.1 220.2 222.2 211.4 203 192.7 175.4 147.5 118.2 103.8 87.5 76.7 61.5 40.4 22.1 6.4 -1.7 -1.7 -1.7 -1.7 -1.7 -1.7 -1.7 -1.7 -1.7 -1.7 -1.7 -1.7 -1.7 -1.7 -1.7 -1.7 -1.7 -1.7 -1.7 -1.7 -1.7 -1.7 -1.7 -1.7 -1.7 -1.7 -1.7 -1.7 -1.7 -1.7 -1.7 -1.7 -1.7 -1.7 -1.4 -1.7 2.5 4.2 3.8 3.9 4.5 4.9 5.7 6.1 6.4 6.7 7.5 8.3 9.2 10.6 12.3 18.1 35 43.9 52.3 70.1 73.1 58.7 63.6 72.5 91.3 79.4 64.9 52.5 52.2 56.9 51 49.2 63.8 68.5 77.5 90.3 105.5 113.7 127.4 140.9 149.5 152.9 158.8 145.3 138.5 141.9 155 168.9 187.6 206.1 213.5 227 253 263.8 263 254.8 244.1 238.4 243 249.3 254.5 272.8 282.9 278.3 279.9 295.8 290.5 290 288.2 280.1 273.8 269.1 263.4
86.8 97.6 88 83.5 75.9 62.8 59.5 64.1 62.7 64.7 70.2 70.9 73.3 84.9 100 111.2 122.9 136.3 140.1 142.2 133.9 124.5 122 105.9 80.4 71.3 58.5 66.8 74.5 100.6 119.7 109.5 106 130.1 127.8 128.3 122.4 116.2 124.8 147.1 146.2 127.9 118.5 113.8 113.8 113.8 113.8 113.8 120.2 119.9 113.8 115 113.8 113.8 115.6 113.8 113.8 113.8 113.8 117.8 116.4 116.4 121.8 135.6 129.9 143.3 159.5 183.6 187.6 203.4 201.2 203.8 206.7 214.9 217.1 212.2 208.9 205 193.7 183 176.2 160.4 133.3 112.6 97.3 84.1 62 45.8 28.8 8.3 -1.7 -1.7 -1.7 -1.7 -1.7 -1.7 -1.7 -1.7 -1.7 -1.7 -1.7 -1.7 -1.7 -1.7 -1.7 -1.7 -1.7 -1.7 -1.7 -1.7 -1.7 -1.7 -1.7 -1.7 -1.7 -1.7 -1.7 -1.7 -1.7 -1.7 -1.7 -1.7 -1.7 -1.3 -0.5 0 -1.7 2.7 3.9 3.5 4.1 4.6 4.9 5.5 6.3 6.6 7.7 8.3 9 11.2 20.6 25.1 22.4 24.4 27.3 30.4 41.6 47.5 46 59.3 79.6 85.8 76.6 68.1 54.9 56.2 65.3 67.7 55.8 48.9 69.7 83.1 101.2 114.9 125.1 130 134.8 140.4 145.2 143.6 137.4 136.4 140.6 152.7 163.4 188.6 207.1 222 243.2 250 252.1 241.2 229.2 222 215.5 234.3 246.6 235 254.1 274.4 265.3 272.8 285.3 279.9 276.9 278.2 282.8 283.2 274.9 267.8
63.2 74 74.1 74 67.7 62.6 60.2 63.3 58.3 60.9 63.9 69.7 92 106.2 114.5 124.1 132.3 136.6 139.9 136.2 134 120.5 113.9 94.3 74 65.8 53 65.8 68.9 95.2 125.6 116.4 110.7 141.1 144.3 142.3 137.1 131.2 122.6 128.6 145.9 140.5 124.8 113.8 116.4 122.6 119.8 114.1 113.8 118.2 113.8 113.8 113.8 119.4 124.9 117.8 119.3 113.8 113.8 117.6 118.6 116.6 118.2 123.3 140.2 160.3 175.8 193.3 202.7 207.8 205.2 205.6 212 215.7 209.8 200.5 185.4 183.8 174.7 174.3 169.9 137.2 116.7 94.8 85.1 79.2 57.4 37.1 23.7 -1.7 -1.7 -1.7 -1.7 -1.7 -1.7 -1.7 -1.7 -1.7 -1.7 -1.7 -1.7 -1.7 -1.7 -1.7 -1.7 -1.7 -1.7 -1.7 -1.7 -1.7 -1.7 -1.7 -1.7 -1.7 -1.7 -1.7 -1.7 -1.7 -1.7 -1.7 -1.7 -1.7 -0.5 0.2 0.8 1.5 2.4 4.7 4.5 4.1 4.2 4.7 5 5.4 6.2 6.8 8.6 11.2 27.6 38.4 49.6 57.3 42.8 40 38 37.2 36.5 39.1 53.4 68.5 89.2 91.4 98.7 75.6 69.8 75.3 88.8 91.7 65.7 76.5 75.7 96.9 115.7 127.4 135.4 137.8 141.3 135.8 134.8 133.8 134 135.7 139.4 151.8 164.3 188.3 203.5 215.6 224.7 224.1 224.8 209.2 199.6 195.1 192.1 217.8 218.1 216.6 223.3 243.5 241.1 251.1 277.6 287.5 289.4 299.1 299.9 291.6 287.8 280.3
44.9 64.1 77.9 74.2 72.3 63.9 53.9 53.7 53.5 59.8 69.8 83.4 98.8 117.7 134 144.2 141.2 136.6 133 129.5 130.7 120.2 108.4 89.4 75.2 58.2 55.5 60.3 61.9 91.1 129.6 126.4 120.9 142 151.3 148.7 144.2 143.7 136.6 128.4 136.1 147.3 138.8 122.1 113.8 134.5 133.4 119.8 116.9 118.1 120.3 117 113.8 124.9 136.5 134.9 136.8 122.8 113.8 115.7 115 116.1 118.7 136.9 172.9 185 191.6 196.1 202.9 208.8 210.4 208.9 211.5 214.4 200.5 180.8 163.8 163.3 148.7 150 136.4 121.8 91.2 75.1 65.8 65.4 51.4 39.8 18.2 -1.7 -1.7 -1.7 -1.7 -1.7 -1.7 -1.7 -1.7 -1.7 -1.7 -1.7 -1.7 -1.7 -1.7 -1.7 -1.7 -1.7 -1.7 -1.7 -1.7 -1.7 -1.7 -1.7 -1.7 -1.7 -1.7 -1.7 -1.7 -1.7 -1.7 -1.7 -1.7 -1.7 0.4 1.7 2.2 5 5.8 5.2 5.3 4.9 5 5.7 5.7 6.7 7.7 20.2 28.4 38.8 47.8 61.9 71.1 75.3 67.2 61 52.4 46.9 50.5 58.3 70.5 87.9 99.6 106.9 94.6 85.3 88.2 98.6 103.2 95.5 78.4 94.1 95.8 103.2 121.2 124.4 128.6 137 130.8 136.1 133.7 130.3 133.3 135.8 139.4 143.4 153.2 153.8 172.3 184.5 183.8 189.2 183.3 177.5 178.3 178.3 182.5 189.1 196.5 207.7 218.3 231.6 251.5 279.6 299.3 303.9 303.1 310.9 310 301.5 301.2 294.6
43.3 80.6 87.3 72.6 68.8 53.1 52.7 54.7 62.2 78.1 89.6 105.3 120.7 139.3 154.7 147.4 138.9 131.1 121.9 118.9 117 107.3 100.9 90.4 71.6 55.2 48.8 54 61.2 89.3 134.4 135.8 140.3 143.7 153.4 155 153.5 151.9 144.9 138.7 135.2 138.8 129.6 121.5 117.4 127.1 138.5 130.4 121.3 117.8 119.1 120.2 125 140.5 142.5 140.5 144 133.4 122.7 120.9 123.8 123.7 133 166.7 197.4 207.1 208.7 200.7 208.2 213.6 216.3 217.1 212.2 200.6 188.6 162 144.4 127.8 119.8 119.3 105.3 93.1 74.2 54.8 45.5 51.7 38.1 24.1 -1.7 -1.7 -1.7 -1.7 -1.7 -1.7 -1.7 -1.7 -1.7 -1.7 -1.7 -1.7 -1.7 -1.7 -1.7 -1.7 -1.7 -1.7 -1.7 -1.7 -1.7 -1.7 -1.7 -1.7 -1.7 -1.7 -1.7 -1.7 -1.7 -1.7 -1.7 -1.7 -1.7 -1.7 3.6 14 20 24.7 19.2 29 31.3 33.9 28.1 26.9 35.3 31.9 33.6 42.1 53.6 80.5 81.7 96.6 100.6 91.1 79.8 69.8 63.4 67.8 72.4 80.4 81.2 92.3 102.3 105.6 105.2 103.7 101.8 107.7 109.5 98.2 96.3 105.7 108.5 114.9 123.6 123.8 122.5 119.7 120.2 122.9 132.1 134.6 136.5 142 146.5 157.2 166 169.5 169.3 161.1 169.5 180.8 186.5 182.3 186.1 192.7 187.1 204.6 210.8 227.7 241.7 247 269.2 294.6 302.1 308.1 307.8 312.3 308.8 309.1 304.5 296.5
