ncols 200
nrows 82
xllcorner 310000
yllcorner 794000
cellsize 50
892.9 865.1 847.4 826.4 811.7 795.7 780.3 763.8 755.1 745.7 738.1 736.6 738 738.1 734.6 726.5 715.4 701.1 694.3 686.8 680.9 670.9 663.6 657.5 655.3 653.4 652.7 647.5 638.5 637.1 633.2 633.7 643.8 660 675.4 685.7 687.5 684.6 680.9 685.7 698.7 715.6 732.3 745.4 756.8 768.6 778.4 790.5 802.7 814.7 829 843.6 857.2 871.6 882.4 892.8 903.6 915.1 923.3 929.4 937 940.7 945.2 942.6 937.6 929.8 916.7 904.2 888.9 877.7 868.8 860.1 855.6 848.5 839.3 829.6 816.5 794.3 761.8 729.8 702 674.9 646.9 623.3 597.8 573.3 561.1 557.9 559.1 569.2 588.6 620.1 648.6 683.2 719.5 753.7 771.9 785.7 800.1 811.3 819.6 818.3 823.6 830.3 836.2 846.6 850 849.8 850.2 850.4 849.3 852.9 855.4 858.5 858.4 858.8 860.1 856.3 854.2 847.2 826.2 804.1 792.2 777.2 759.3 742.8 733.5 742 751.7 757.8 764.5 772.4 776.8 777.1 773.9 771.7 774.5 782 791.5 797.6 799.6 803.4 802.3 801.4 799.2 795.5 788.2 777.3 765.1 749 734.2 717.5 701.4 690.9 682.3 677.1 673.2 663.2 650.6 652.6 657.1 648.3 647.8 641 639.7 638.1 636.7 635.2 631 627.2 624.6 621.7 618 615 612.6 611.2 613.8 620.8 627.1 633.4 641 648.5 657.8 670.2 683 700 712.5 725.6 736 745.1 750.4 748 744.7 735.1 716.4 703.9 691.1 678.7 667.6 657.1
889.5 861.5 838.8 822.4 806.9 790.2 777.6 760.2 746.9 737.7 731.6 729.6 729.3 728.6 725.3 719.2 710.7 697.6 689.1 679 671 663.4 657.6 653 652.8 651.2 649.7 647 638 634.8 630.2 631.2 636.4 646.4 660.1 671.2 675.6 665.6 678.6 693.8 709.4 726.6 739.4 753.6 765.3 775.1 786.6 800.2 810.4 820.3 832.5 847.5 862.7 873.3 882.8 892.1 900.3 908.2 915.3 920.5 925.2 929.2 931.1 929.3 924.5 916 904.5 890 872.5 859.3 850.8 843.6 837.7 831.5 824.7 815.7 798.9 775.8 743.7 708.7 675.2 650.7 626.8 604.6 581.9 562.8 558.4 560.3 571.6 588.8 612.5 636.6 668.3 711 742 762.9 772.9 789 801 812.8 818.5 818.1 825.7 832.5 838.2 843.3 843.4 843.4 844.1 843.1 843.4 849.3 853.4 856.3 857.7 856.3 854.7 855.3 854.1 846.1 832.6 817 795 781.5 768.4 754.2 746.7 755.4 763.7 769.4 776.5 783.7 786.5 786.9 787.6 792.6 794.8 801.1 802.6 806.6 809.7 812 812.3 811.4 809.7 805.6 797.4 784.6 773.8 759.2 741.1 726.7 710.3 697.1 689.4 684.7 675.8 666.8 652.6 650.4 649.6 635.8 637.8 638.5 634.8 633.1 626.6 623.9 621.9 619.2 616.8 614.3 611.6 608.8 605.6 603.5 605.2 610.3 617.2 624.4 631.3 642 653 665.7 677.2 690.8 699.6 709 718.1 725.2 729.4 728.9 724.8 716.1 693.9 682.5 672.5 660.5 653.8 645
892.1 859.4 837.2 819.3 802.8 786.2 770.3 755 741.4 731.6 727 723.8 719.3 719.2 713.8 710.4 702.2 690.8 683.4 673.2 661.6 656.1 652.1 649.2 651.3 650 648.9 646.3 640.6 636.8 630.4 628.3 630.5 638.1 648.7 657.1 660.2 667.1 683.5 699.2 716.1 731.2 746.8 761.8 772.1 783.9 796.9 809.7 817.8 828.3 840.8 852.6 862.4 872.2 879.9 886.7 893 898 904.1 908.3 912.3 916.8 918.5 916.5 911 900.3 885.1 869.7 854.6 842.8 834.5 825.5 819.6 811.7 803.9 793.4 772.8 747.2 718.9 685.5 650.6 627.2 605.7 584.3 571.7 561.8 562.9 577.1 590 613.6 636.7 665.3 697.2 730.8 751.3 771.7 773.5 785.3 799.8 811.5 815.8 818.1 826.2 831.4 832.4 833.6 835.9 836.1 838.9 837.5 841.2 846.3 847.4 852.9 855.3 855.7 855 854 854 846.3 836.2 818.9 804.7 785.9 775.5 770.2 767.2 771.3 777.2 782.9 789.5 795.4 793.7 794.9 800.9 808.4 812.9 819.5 819.5 817.5 817 818.8 820 819.5 815.4 812.2 803.5 791.2 779.8 763.7 748.1 731.8 713.3 699.3 691.2 686.6 679.2 667.4 651.2 648.3 645.3 639.4 633.2 629.4 625.8 625.4 620.1 618.1 615.6 613.3 610.8 607.9 603.2 600.9 599.2 596.7 600.1 604.8 611.4 616.6 625.6 637.6 648.2 659.5 671 683.1 689.2 694.2 696.8 701.7 705.6 706.8 705 694.4 673.9 662.5 654.7 647.7 639.4 631.1
896.5 855.9 837.9 817.9 799.9 781.9 766.2 751 735.8 728 721.6 717 710.4 707.8 702.4 698.6 690.3 683.9 677.1 667.6 657.5 652.5 649.2 646.9 647.1 646.4 646.8 646 641.3 633.6 630.1 625.9 626.9 634.7 641 644.8 655.8 669.7 685 702.1 720.3 737.8 755 769.9 784.7 795.8 808.5 817.9 827.8 836.7 845.9 853.6 858.9 866.6 873.2 876.4 881.5 885.2 891 892.9 896.6 901.4 905.2 902.4 894.7 882.6 867.5 851 834.7 822.5 814 807.1 799 790.8 782.4 763.1 743.2 715.5 683.5 654 628.7 605.1 587.9 570.2 562.4 567.2 576.8 589.1 611.5 636.1 662.1 694.1 718.4 735.5 755.8 770 776.9 785.3 800.6 809.1 815.2 818.9 824.9 824.8 824.5 825.4 826.8 829.6 833.8 831.4 837.6 842.6 843.1 846.3 850.3 852.5 850.1 855.8 855.2 847.2 839.8 828.1 815 795 788.8 789.8 785.7 790.9 792 795.3 801.5 803.7 805.2 805.1 811.9 820.5 828.8 834.8 835.7 830.5 825.3 823.6 822.9 821.3 818.3 815.8 807.1 794.8 781.6 764.5 747.6 730 709.8 697.3 692 685.8 677 662.4 654.5 649.2 641.7 638.6 633.4 627.3 623.3 618.5 615.6 611.7 608.1 605.5 602.9 601.1 597.5 594.4 593.4 592.1 595.5 600.5 605.8 610.6 621.4 631.8 643 652.7 664.3 674.4 678.7 680.7 679.8 680.7 681.9 682.5 680.4 673.5 655.7 645.1 639 631.1 623.4 619.6
885 857.9 837.4 818.4 800.7 782.1 764.1 745.3 731.9 723.3 716.3 710.6 702.2 695.7 692.9 688.4 683.5 676.8 669.6 661.5 654.2 648.7 646.6 644 643 643.9 644.6 643.4 641.3 635.2 627.1 627.2 625.5 631.3 636.3 645.8 655.7 670.8 688.5 705.8 727.8 746.9 764.4 779 793.1 805.7 818.2 829.8 837.3 842.1 847.2 851 853.8 857.7 861.5 863.5 867.6 872.8 874.6 879 884.3 886.7 887.9 886.3 874.3 862.9 849.5 834.2 817.2 803 791.5 784.5 775.8 768.6 752.6 732.4 709.8 681.7 654.9 629.7 605.2 580.9 571.6 566 563.4 575.5 591.3 607.8 629.2 656.3 691.6 709.3 727.7 744.7 763.2 767.7 778.3 786.5 799.3 807.8 812 815.1 818.7 818.2 817.4 819.7 823.6 826.5 828.2 827.5 835.5 838.9 838.7 844.2 841.4 842.8 845.1 848.7 847.7 843 835.6 834.5 825.8 812.5 807.1 803.6 805.7 808.9 806.6 807 814.2 819.7 822 819.3 825.8 834 837.8 844.7 845.1 841.2 835.6 826.7 822.9 820.6 818 813.1 804.6 791.1 778.2 762.2 745.5 724.4 706.3 694.2 687.2 681.9 673.3 658.7 654 651.5 642 638.1 632.7 625.5 619.4 613.4 610.3 607.7 603 599.2 597.2 595.2 591.4 588.7 588.2 587.6 592.2 597.6 601.4 606.9 614.7 624.9 638.3 648.6 656.1 664.2 667.7 667 663.7 663.1 661.3 660.6 660.2 654.2 636.4 629.3 620.9 617.3 611.6 608.1
898.7 866 842 821.7 802.7 783.4 762.9 741.7 727.8 718.7 708.8 702.9 693 687.7 684.6 679.6 677.2 670.3 662.6 657.2 650.9 645.4 643.4 641.9 641.2 641.6 642.1 642.2 640.7 635.6 626.9 623.3 623.6 629.3 635 644 655 669.1 687.9 709.9 732.5 752 771 785.5 799.9 813.1 825 836.7 841.2 843.8 844.6 846 844.7 847.1 849.4 851.1 852 855.5 857.9 861.9 864.3 867.8 867.6 862.5 854 844.1 832.8 818.2 800.1 786 770.9 760.4 753.5 742.3 727.2 704.3 679.8 653.7 629.1 606.8 585.5 569 564.4 568.9 575.8 587.8 605.5 625.8 649.9 675 699.7 713.6 729.6 747.2 761.2 766.3 774.1 784.4 795.6 803.2 807.1 809.9 812.4 813.1 813.3 815.4 819.5 824 824.9 825.5 831.4 832.6 833.6 838 831 831 834.9 835.3 832.8 831.8 827.3 834.9 829.9 824.7 815.1 820.8 819.9 819.6 819.6 824.7 828.6 835.7 836.3 833.5 840.4 843 843.8 847.8 850.3 845.9 833.7 824.3 819.3 817.8 814.2 806 794.8 784.5 772.4 755 736.9 714.6 701.8 689 681.5 675.9 668.8 659.4 656.9 652.1 641.1 633.1 627.2 621.6 615 610.3 606.6 602.4 598.3 592.5 589.6 587.6 587.1 585.2 583.2 584.4 588.2 592.2 597.5 603.2 611.6 619.8 632.3 643.3 650 652.5 652.5 651.7 650.7 650.3 648.9 645.3 640.6 633.7 621 612.8 607.8 604.1 600.1 597.1
923.9 880.3 851.5 826.2 804.1 785.8 763.9 740.8 724.7 712.3 702.6 695.1 688.8 679.2 675.6 674.2 670.6 664.4 659.1 653.9 648.2 644.2 641.5 639.1 639.3 639.7 640.5 641.9 638.2 634.1 626.3 624 621.4 627.9 631.7 643.2 656.9 672.1 691.3 712.6 732.7 753.8 772.1 788.2 803.8 816.4 826.8 835.1 839.3 839.3 837.2 836.1 832.6 833.1 835.7 838.6 838.7 840.2 839.2 838.8 844.1 844.8 846.1 841.6 832.9 823.9 813.2 801.5 784.6 767.4 751.9 737.4 731.9 717.8 699.6 679 654.7 630.8 608.7 585.8 570.6 567.5 571.5 580 587 603.6 623 639 664.1 683.5 701.3 713.9 727.3 746.6 757.9 762.9 773.3 782.6 795 798.8 803.2 805 806.5 808.3 808.7 810.8 815.9 820.2 821.9 821.6 824.4 825.1 827.7 827.4 820.5 820.2 819 816.6 815.6 816.4 825.7 829 832.7 829.9 826.4 832.7 826.6 831 837.6 838.7 848.1 849.2 844.3 844 849.5 850 851.8 852.6 848.6 841.4 827.3 818.3 812.4 811.4 806.3 796.4 784.3 773.9 760 741.2 727.8 707.8 693.1 682.8 674.4 669.3 666.1 661.9 656.3 652 639.6 632.1 623.1 615.3 611.4 606.6 602.7 598.3 595 591.4 586.5 584.2 581.9 581.3 578.5 581.4 584.4 589.1 594.2 599.9 607.4 616.2 626.3 636.2 642.1 643.6 642.7 638.5 633.1 629.7 631.5 629.7 622.8 614.2 605.3 599.2 597.1 593 590.1 588.5
937.3 902.4 861.9 831.6 807.2 782.1 760.7 735.7 718.4 706.3 697.4 691.2 683.5 672.5 662.3 662.9 664.3 660.6 655.4 651.3 646.5 641.8 638.7 637 636.8 638.1 640.1 640.9 638 633.1 625.6 623.2 619.1 624.8 630.7 642.4 658.1 672.5 691.3 711.8 731.8 753.5 772.3 786.4 803.6 815.3 823.4 828 831.3 832.5 829.4 824.3 818.5 818.9 820.3 820.9 821.5 820 820 819.6 822.4 822.5 822.5 818 811.1 804 794 781.3 764.4 749.3 731.1 716.4 706.9 694.6 676 657.6 633.8 612.3 592.8 573.7 568 570.4 577.5 586.1 599 615.7 635.8 651.3 665.7 684.2 700 711.1 723.7 741.6 753.7 760.2 770.2 780.8 792.2 794.6 798.7 799.8 802.3 804.6 806.4 807.6 811.3 816 817.5 816.2 817.6 819.3 817.1 811.6 806.1 804.7 803.1 794.1 793.4 802 810.6 820 823.6 828.5 832.7 832.5 837.9 844.9 846.7 853.2 859.8 856.5 850.3 850.1 850.8 850.2 854.5 851.1 841.6 832.3 819.1 809 803 801.1 795.3 782.9 771.9 757.6 745.2 727.9 715.7 698.1 685.4 675.5 669.5 667.4 664.1 659.9 655.1 651.8 642.1 635.8 626.1 616.4 608.9 602.2 596.9 593.8 590.9 588.1 584 581 579.2 577.6 573.9 578.1 581.7 586.5 591.7 596.5 605 612.2 620.7 628.7 634.5 632.2 631.5 627.7 622.4 618.8 615.2 612 606.5 599.3 590.6 588.5 585.9 582.6 580.8 580.2
939.3 904.1 867.2 834 806.4 777.8 757.1 731.1 713 700.2 691.7 686.6 679.5 670 665.4 661.5 655.2 655.2 652.8 649.1 643.2 638.1 636.6 635.1 634.4 636.1 638.4 638.3 635.9 632.6 623.7 620 617.2 621.1 628.1 640 655.5 673.1 687.9 709.6 730.1 751 770.2 783.8 799.5 811.4 819.1 820.4 820.4 819.8 815.2 810.4 803.9 798.6 797.3 801.4 802.2 801.2 799 799.2 799.1 797.9 792.5 790.1 788.7 781.9 770.8 757.4 743.4 726.6 709.4 696 682 673.1 657 635.7 614 594.1 573.9 571.1 570.4 577.5 580.8 594.8 607.4 623.8 640.8 654.7 669.9 683.9 694.8 707.5 721.6 736.6 751.7 757.2 766.6 777.2 785.2 788.7 791.7 794.8 797 801.4 803.9 805.2 806.7 809.8 810.7 808.1 809 806.6 802.8 794.3 785.1 784.3 780.2 776.2 778.1 788.6 794.8 805.6 812.1 822 829.9 833.5 843.1 853.2 852.5 859.6 859.4 853.6 845 844.6 845.9 845.4 845.7 838.8 829.7 820.5 810.6 801.2 794.2 790.9 781.5 771.8 757.8 744.9 732.8 715.1 702.5 689.3 679.9 668.9 662.8 659.3 657.2 656.1 654.6 648.7 639.9 630.5 622.2 615.7 610.9 602.8 591.9 588.2 585.7 584.3 582.1 579.4 576.6 573.7 568.6 575.3 579.1 584.2 589.1 594.3 600.7 607.5 613.9 620.2 625.3 625.7 621.3 615.4 611.4 608.8 605.3 600.9 594.4 586.3 581.8 578.7 575.6 573.6 572 571.2
927.8 902.3 864 830.5 800.1 773.1 749.8 723.5 705.9 696.7 688.4 682.3 671.9 667.1 664.2 661.2 655.8 645.7 647.9 646.9 642.2 635.2 632.1 631.6 630.4 634 636.2 635.4 633.6 629.2 621.9 619.3 616 619.1 627.3 639.5 651.6 665.7 683.3 705.5 728.2 746.7 765.6 779.9 792 802.7 808.6 809.3 805.4 803.2 798.4 792.9 789 783.1 775.3 778.7 780.3 778.5 775.8 773.9 773.7 770.2 768.2 767.4 765 757.8 746.3 732.7 719.6 706.1 693.2 678.8 661.9 650.9 635 617.3 595.9 576.4 573.4 574.2 574.6 582.2 586.4 594.9 612.1 627 640.3 653.3 666 679 689.5 702.4 716.4 730.8 743.1 752.2 761.6 770.4 777.4 782 787.2 790 793.8 797.6 799.3 802.1 802.8 805.3 803 800.5 799.2 793.6 784 774 769.1 761.7 763 763 767.3 775.4 783.8 793.6 800.1 811.1 823.5 830.2 844.3 851.3 858.7 859.5 853.7 848.8 837.1 834.7 835.6 836 831.9 825.5 817.5 809.8 802.3 794.6 783.9 778 769 757.4 747.4 733.1 718.7 707.5 692 683.4 672.4 667.4 663.4 659.2 656.3 655.1 650.1 644.4 636.4 630.9 619.5 608.7 598.6 592.3 587.3 583.4 581 580.2 579.2 577.7 574.7 571.3 565.1 572.4 576.1 580.6 585.5 589.9 595.7 601 606.8 612.8 615.4 616.2 612.1 604.9 599.5 594.8 591.1 586.6 583.6 577.8 573.5 569.8 566.9 565.4 564.5 564.1
917.3 895.4 860.3 828.9 793 763.6 744.5 721.5 703.2 692.8 685 677.2 673 666.4 663.3 660.7 654.7 645.9 639.8 642.9 640.4 632.7 630.3 627.5 627.1 630.4 632.7 632.1 629.7 624.6 618.5 614.6 614.3 619.1 625 638 652 667.2 679.8 703.2 723.7 741.6 761.2 773.8 784.5 790.6 793.1 792 789.1 787 782.6 778.2 771 765.5 760.7 758.8 757 757.2 755.3 750 748 745.9 742.8 741.2 741.1 735.8 725.3 714.6 700.9 686.3 671 655.7 641.5 627.7 613.3 597.5 582.3 577.5 579.3 574 580 589.4 596.8 599.7 613.6 627.1 639.1 651.1 664 675.5 684.6 697.9 712.7 726.3 739.5 748.8 759.1 767.8 774 780.1 784.1 788.8 791.7 795.6 797 797.6 797.5 797.4 790.4 786.7 783.8 779.4 766 753.1 747.5 745.2 743.4 746.7 753.2 759.6 767.9 777.9 787.1 800.9 812.8 824.5 837 845.9 854.6 854.9 849.3 841.1 826.4 823.8 821.2 820.7 820.9 813.2 804.7 796 789.4 781.8 772.7 765.6 752.7 744.4 730.3 720.6 709.7 698.4 683.8 675.7 666.3 661.7 657.4 656 654 649.6 644.8 639.3 633.3 626.1 622 611.5 601.1 589.6 583.6 580.6 577.2 574.4 575 576.5 572.5 569.2 562.4 568.5 572.5 576.4 580.2 584 588.7 594.8 597.5 602.5 607 604.7 598.8 591.7 586.2 583 578.6 577.1 574 569.3 565.1 560.7 557.8 556.9 557.7 555.5
905.1 887.5 856.8 821.4 790.1 762.6 741.1 722 702.1 690.9 682.3 677.1 671.4 668.2 663.8 660.7 652.9 644.6 635.9 636.8 635.9 631.3 626.9 624.8 624.3 626.8 627.8 627 625.5 621.4 614.4 613 612.8 617.6 626.1 641 658 672.5 688.2 707.2 727.2 746.3 760.5 768 775.1 781.7 782.8 781.4 778.5 773.9 770.7 766.5 760.1 752.8 747.8 744.4 740.7 736.2 730.7 728 725.4 723 722.2 719.4 720.1 713.6 704 692.8 677 661.9 648.5 633.7 620.7 609 595.8 585.8 575.3 579.7 578.2 578.2 582.2 591 599.4 602.8 614.9 625.7 637.9 650 661.9 669.4 682.7 695.7 709.7 724.3 736.3 746.2 757.5 765.7 771.7 778.7 783.2 787.9 790.1 791.1 794.1 792.7 792.6 786.4 776 771.5 767.7 759 747.2 738.6 732.9 730.2 727.5 728.3 735.8 743.6 755.6 762.6 775.2 787.7 801.8 816 828.9 840.4 849.9 852.5 850.3 837.7 819.2 810.2 809.8 805.8 803.9 797.1 789.3 781.5 774.2 766.9 757.3 744.9 737.3 729.3 719.9 709.6 699.8 688.9 676.2 670.3 662.2 661.6 657.3 652.6 648.4 644.6 641.3 636.9 631.5 623.7 617 611.2 605.2 598.4 594.1 584.9 576.4 573 570.5 569.6 570.4 567.3 560.6 562.4 568.3 572.6 575.5 579.6 582.6 585.4 589 592.8 595.5 595.5 589.2 583.9 578.7 574.8 569.7 567.8 565.2 559 556.2 553.2 551.2 550.1 548.7 556.1
887.4 879.1 850.7 817 787.3 761.5 740.2 720.2 702.9 692.6 682.7 678.3 674.1 669 664 659.2 652.8 643.3 636.4 630.2 629.5 627 624.2 619.7 621 623.1 623.5 621.8 622 616.2 612.7 609.9 612 617.1 628 642.7 664.9 679.7 697.6 716.1 734.3 749.4 762.7 770.1 774.1 777.5 776 775.3 771.2 770.1 762.4 759.7 752.8 745.3 738.6 734.2 732.3 725.2 716.7 710.5 708.2 706.9 703.1 700 696.8 691.6 681.6 669.7 658.4 646.2 630.9 616.9 599.8 594.6 593.4 585.4 577.7 578.4 581.2 580.7 584.2 595 600 603.1 615.7 625.1 640.7 654.1 661.8 672.2 682.2 695.4 709.1 721.9 731.8 741.2 752.8 760.6 767 773.7 779.2 782.1 786.1 787.5 787.4 785.3 782.6 775.2 764.8 757.2 750.3 743.6 733.8 723.7 719.7 717 714 713.1 719.9 730.6 739.3 751.1 764.7 778.4 792.7 808.4 827.5 837.1 849 852.5 853.1 837.7 816.9 803.8 799.8 794.8 787.6 780.8 774.2 766.2 757.2 748.1 739.1 728.5 724.2 716.4 706.7 698.2 691.6 681.5 670.8 662.3 658 654.4 652.5 647.8 642.9 640.8 637.3 631.5 629.1 622.9 610.5 602.2 594.8 595.3 597.5 591 580.9 572.7 571.3 567.2 566 566.1 562.3 554.9 563.4 567.5 571.5 574.7 576.1 579.2 581.4 583.6 583.9 582.3 578.7 573.8 569 565 561.1 558.6 554.8 550.4 547.1 546.2 544.9 542.8 550.4 557.7
869.4 865.8 845.7 817.5 787.9 761.7 740.9 723.4 705.8 696.7 685.1 679.8 674.1 669.2 662.2 656.2 647.9 642.7 635.8 627.3 625.1 622.8 620.1 617.8 615.8 617.7 617.9 613.2 614.2 611.1 609.6 609 612.1 617.8 628.8 646.8 666.4 685 703 721.4 738.5 753.6 766.4 773.2 777.3 778.5 775.2 764.9 762.5 763.4 760.3 752.5 745.6 739.9 730.9 723.1 715.2 701.7 697.5 684 684.1 684.6 683.6 678.9 675 671.1 661.2 654 641.1 627.3 614.5 602.5 595.3 590.9 591.5 584.7 581.6 578.3 581.4 584.6 587.8 592.5 601.6 612.6 616.6 627 641.8 653.3 661.8 671.2 679.6 693.4 704.7 716.4 727 737.1 748.7 757.7 764.9 769.5 773.5 776.4 779.4 778.5 778.3 776.5 770.7 762 753.9 745.4 735 726.7 718.4 710 704.9 701.4 701.1 701.9 704.9 714.6 727.4 741.5 757.3 774.4 790.6 807.9 824.2 836.1 845.3 853.2 853.7 839.2 815.6 800.8 793.6 784.8 774.7 768.7 759 746.8 737.4 730.8 723.6 717.8 709.1 701.2 696.4 690.1 683.8 674.6 662.7 657.8 653.6 651.1 646.4 640.6 636.9 634.7 630.9 627.3 622.1 616.3 608.7 601.2 591.1 586 585.7 579.9 572.4 570.4 568 566.4 561.4 562.5 561.6 555.4 555.5 560.6 562.9 565.2 568.9 573.2 573.4 573.8 573.7 572.4 566.6 562.5 558.9 553.6 551.6 548.2 545.1 542.7 541 538.8 538.1 545 552 560
854 855.1 840 818 790.1 766.8 745.3 729 712.5 700.2 691.8 683.4 676.9 668 659.2 652.4 646.3 641.2 636.3 628.2 620.6 620 617.8 613.2 611.5 611.9 611.4 607.6 607.8 608.6 606.7 608.6 610.1 619.7 632.6 650.2 670.4 689.8 708.8 727 745 758.4 770.8 776.4 781.4 781.4 778.7 772.4 767.1 753.9 752.3 748.2 743 732.4 721.9 719.9 713.2 701.1 691.1 680 668.8 665.6 662.5 659.9 656 650.7 643.1 634.3 625.7 614.6 605.8 596.7 590.5 591.7 588.3 577.2 581.9 581.1 582.5 584.2 589.6 598 606 609.7 615.1 628.6 640 651.5 661.2 669.8 679.5 690.7 702.6 713 724.2 734.6 744.4 753.2 760.1 764.6 767.2 770.6 771.9 772 769.8 767.2 760.4 750.8 738.8 730.1 719 708.9 703.2 696.1 693 691.8 691.7 691.7 696 704.7 718.7 737.4 756 773.5 791.7 809 821.8 835 847.2 857.8 855.7 841.3 816.8 800 789.7 779.1 766.6 757.7 742.4 733.6 726.7 720.8 712.9 707.3 699 693.3 686.5 680.3 673.9 661.8 654.1 651 648.6 642.8 638 633.4 631.1 627.9 626.4 621.5 615.4 609.9 604.5 597.1 589.5 582.5 578.2 575.2 571.8 568.1 567.4 565.4 561.5 558.3 559 555 548.2 554.7 556.7 559.1 562.2 565.2 565.8 565.8 564.9 560.5 557.7 553.3 548.9 545.2 542.8 540.3 537.4 536.2 534.6 533.8 536 544.3 552.3 562.6
830.3 841.2 837.8 815.3 790.6 770.1 750.1 733 717.2 705.7 697.4 687.4 678 667.8 658.6 650.4 646.8 643.6 640.4 634.6 626.4 617.8 615.5 613.3 610.1 607.7 605.4 606 607 605.7 605.6 608 610.6 622.3 636.1 652.9 674.1 692.1 714.7 731.3 749.2 763 774.1 778.7 781.4 782.3 779.1 771.7 763.9 753.3 742.3 738.9 737.9 728.9 720.4 718.9 711.4 700.4 685.7 671.4 659.6 649.1 640.6 638.5 637.4 630.2 624.4 619.5 616.1 607 599.4 590.2 586.6 584.5 580.8 583.3 582.7 582.3 583.1 585.4 590.9 601.9 607.5 610.3 621.6 629.9 635.9 648.7 658.9 667.2 674.9 685.1 697.6 706.2 720.3 730.2 740.1 749.7 755.6 759.6 761.9 764.6 766.4 766.3 761.8 755.2 746.2 737.7 724.2 714.7 705.6 695.4 691.2 686.6 683.7 681 680.6 682.9 689.4 700.6 716.4 736.1 754.9 772.9 791.7 808 822.4 838.9 848.9 857.2 854 839.3 819.5 800.5 787.3 773.4 760 745.9 733.4 725.2 715.5 709.4 703.9 698.1 691.3 683.9 673.4 670.5 665.8 661 650.6 645.3 640.9 635.4 632.8 630.7 626.9 623.2 619.5 613.4 604.6 598.8 594.8 589.9 584.4 579.6 576.8 574.2 571.3 568.7 567.3 564 560.6 557.5 553.3 552 548.6 549.5 552.3 554.6 556.3 557.5 557.5 556.7 553 550.8 547.7 545.4 542 538.8 536 533.7 532.7 530.8 529 532.7 537.3 544.1 553.9 563.8
804.2 817.7 826.5 809.2 790.1 771.4 754.4 737.1 725.4 710.9 701.4 694 679.4 670.5 661.4 652.3 647.1 645.3 643.6 637.8 630.5 620.5 613.5 611.5 608.9 605.9 603.9 604.5 603.4 602.9 605.4 608 611.7 623.3 637.7 652.2 673.3 694.2 717.3 735.6 753 766.9 775.8 779.1 780.8 779.8 776.8 771.4 761.9 753.4 735.3 722.1 724.1 723.6 714.3 712.9 707 696.2 682.6 667.5 649.8 641 634.5 630.3 628 622.2 617.3 612.4 606.6 601.2 593 591.1 590.3 582.3 581.1 586.7 584.6 584.8 584.7 588.9 593.4 600.7 604.4 614.3 621.8 629.9 632 644.3 649.4 658.9 665.9 668.3 685.9 702.8 714.3 725.5 735.9 746.6 752.5 756.5 757.8 759.4 760 757.4 753.7 745.8 733.3 725.2 713 702.4 692.4 686.8 682 676.7 674.1 673 672.8 677.2 685.3 698.1 715.9 735.7 755.2 772.8 792.1 806.3 822.3 835.5 848.4 853.5 849.7 840.1 819.3 798.8 784.5 769.6 756 740.7 728.9 716.6 705.7 700.6 695.3 688.2 682.6 675.2 667.2 663.7 659.2 650.7 641.1 639.8 635.8 633.1 630.3 626.7 623 616.7 612.2 603.9 597.6 591.3 587 584.2 580.7 577 574 570.2 569 566.7 564.3 562.3 560.2 557.2 554.2 549.8 542.3 540.5 547.3 549.5 550.8 552 550.4 548.9 546.6 544 540.7 538.2 535.7 533.5 529.6 527.6 526.1 525.5 526.3 531.6 536.8 545.3 554.9 564.9
785.4 803.7 817.8 805 790.6 773.9 758.4 741.5 728.4 718.2 708.4 700.4 686.5 672.6 664.6 655.3 648.4 644.7 642.4 638 631.6 623.4 612.6 609.9 607 603.5 603.8 603.3 601.7 604.1 606.4 608.3 612 624.3 637.4 652.9 674.4 697.2 721.1 736.8 754.8 767.4 774.4 777 777.5 776.5 773.1 768.1 757.8 751 737.7 723.1 709.7 712.1 708 701.5 696.8 688.8 680 665.9 651.5 644.7 637.2 627 617.8 613.2 614.7 609.9 603.9 594.5 589.6 589.1 588.5 584 582.3 586 588.1 586.1 586 590 591.2 600.2 606.8 614.9 619.1 630.1 632.5 641.3 651.5 659.4 667.6 672.8 680.8 699.4 712.1 721.3 732.3 743.4 749.2 753.1 754.7 754.3 752.6 748 743.5 732.7 721.2 711.4 701.3 691.7 683.6 677.9 674.5 670.2 667.4 665.2 666.2 672.3 681.6 695.6 716 735.3 755.2 772.5 788.8 805.7 822.8 834.9 844.9 847.4 842.4 832.6 815.7 796.7 779.8 766.8 753.6 737 722.2 712.1 697.7 688.6 686.5 678.3 671.9 663 659 653.1 649 643.7 640.5 637.3 631.8 628.5 625 621.2 616 610 604.4 598 593.5 589.9 586.3 582.2 578.2 574.4 571.1 567.8 565.8 563.9 561.6 560.7 558.6 556.3 554 551.1 546.3 536.6 536.6 542.8 545.5 546.1 544.5 541.7 539.1 536.1 532.7 530.6 529.2 526.6 522.7 521.7 521.7 521.7 526.3 531 537.5 545.8 554.6 563.7
769.1 800.6 805.4 797.7 786.5 774.5 760.9 746.1 737.5 728.8 714.2 701.9 690 679.4 666.2 655.5 648.1 643 639.5 635.1 629.7 623.2 614.6 609.3 607.5 605.6 601.7 597.7 599.4 603.2 605 608.3 615.3 623.8 639.6 654.7 674.5 698.2 722.3 739.3 753.3 763.1 768.5 771 773.4 770.5 765.8 758.4 745.3 736.9 727.6 716.8 703.5 700.2 694.4 687.9 689.4 683.2 674.2 663.4 652.7 642.7 637.1 626.2 617.8 617.5 615.4 606.8 596.1 595.8 590.5 590 587.4 588.7 583.7 587.7 586.7 587.4 587.4 590.3 592.4 599.4 603.6 610 618.9 624.7 631.1 639.9 647.4 654.9 663.6 672.5 675 695.3 708.6 715.8 728.7 738.6 745 748.1 749.6 748.9 744.1 739.3 733.6 717.9 708.8 702.5 692 684.3 676.9 671.4 667.2 661.6 659.8 660.1 660.6 668.1 678.6 694.4 714.7 733.7 753.8 770 788.5 803.7 818.8 833.2 839.1 839.2 834.3 824.7 809.5 792.7 775.5 762.7 749.5 731.4 715.6 703.6 690.6 676.5 671.6 665.3 660.3 654.6 646.8 640.3 639 636.6 633.9 630.9 627.4 624.5 620.9 617.3 612.4 606.5 601.6 598.4 593.3 589.4 584.9 580.9 577.5 574.6 571.4 567.8 565.1 562.1 559.5 558.6 556.8 555 552.9 550.7 548.4 545.3 537.8 530.1 538.6 540.4 539 535.9 534.5 531.2 528.6 525.8 522.6 518 516.5 516.7 517.1 520.4 525.2 531 538.3 547.4 556.4 564.2
757.1 774.2 785.2 786.3 783.2 773.3 766.6 759.7 750.7 741 724.3 704.4 691 679.5 667 657 647.6 639.3 635.5 630.3 625.3 619.7 612.7 607.6 604.8 601.6 599.2 599.1 600.4 602.3 605.5 608.8 614.8 625 639.2 655.7 675.9 698.2 722.3 737.6 748.5 757.5 760.1 760.4 762.7 756.7 751 745.8 737.7 732.1 723.4 710.9 693.9 680.6 680 673.4 676.1 669.4 667.1 654.8 645.8 630.1 625.9 624.8 619.7 613.1 611.9 601.4 595.7 591.2 591.8 589.4 587.2 586.3 589.2 590.7 590.6 590.6 588.3 593.8 596.6 597.3 599.9 608.2 615.1 621.2 629.8 634 644 652 659.8 670 678.8 690.9 703.4 712.9 722.5 732.7 739.8 742.1 742.4 740.5 735.5 731 723.4 709.9 702.8 694.3 685.5 677.6 669.5 664.4 658.1 655.5 654.8 654.3 656.6 664.7 677.6 692.5 712.5 731.5 751.5 768.6 785 799.9 815 827.2 831.7 829.7 825.1 814.8 802.4 787.3 770.9 756.7 744.1 725.3 709.5 695.3 684.1 674.3 661.8 654.7 651 646.7 640.5 635.3 631.8 628.2 625 625.1 624.5 620.8 617.8 615.5 612.4 607 603.4 599.9 594.5 589.3 585 581 577.3 574.7 570.4 567.2 564.7 562.9 559.9 557.3 554.3 551.5 550.5 548.3 547.4 546.5 540.6 532 525.8 531.9 533 532.4 530.9 529.4 527.3 523 517.2 513.8 513 512.7 514.8 520 525.3 531.7 540.2 548.9 557 565.3
742.4 752 761.3 773.3 779.8 781 779.7 774.3 765.1 749.7 730.8 709.1 692 678.1 666.7 655.3 644.7 637.8 632.6 628.3 621.7 615.5 608.6 605.8 602.2 596.9 596.2 598.7 606.5 606.3 606.1 609.8 618 625.7 639 656.9 674.3 697.2 719.7 734 743.3 751.6 753.1 754.3 754.3 750.1 744.3 737.8 730 720.2 708.5 693.5 686.8 683.6 675 672.3 667.4 666.8 656.1 654.2 644.6 635.3 630.7 625.5 618.2 609.5 605.9 597.3 593.9 594.1 593 591.8 590.4 593.2 594.5 592.8 591.9 592.3 588.6 588.4 592.9 606.8 599.9 607.2 612.1 619.2 626.6 633.3 640.8 646.1 655 664 675 686.3 701.7 709.4 718.1 726.2 734.1 734.6 734.6 732.5 728.6 721.6 713.4 702 694.4 686.8 679.1 668 660 656.1 650.6 649.6 648.6 647 652.2 662.2 675.2 691.8 710.5 730.9 750.8 767.8 784.2 794.2 809.9 819.6 823.9 823.7 818.9 808.7 797.2 781.8 767 752.5 737 720.5 702.6 687.9 677 666.4 654.5 646.3 641.4 638.3 634.4 629.6 622 620 617.8 618.4 617.5 616.4 614.4 610.7 608.2 605.9 602.4 597.7 593.2 588.7 584 580.4 578 574.6 573.7 569.8 567.5 564.5 559.8 556 557.3 556.1 552 548.4 542.6 537 535.6 527.5 522.1 523.6 526.7 528 528 526.3 525.4 521.8 514.9 512 510.7 511.2 514.1 519.2 525.2 533.8 542.2 551.1 559.5 566.5
727.6 734.6 739.8 750.4 770.2 784.9 791.2 788.3 776.1 755.5 733.4 711.5 693.3 678 667.6 653 642.8 635.6 629 625.2 619.7 613.1 606.7 604.5 597 595.6 595.1 602.5 608.9 606.6 608.2 610.8 618.6 627.1 636.9 653.4 670.6 692.6 713.9 726.4 734.1 742.1 743.2 745.2 745.2 740.2 734.3 730.1 719.2 711.3 699.6 688.7 683.2 676.3 672.8 673.6 671.3 666.7 661 651.3 644.6 639.7 634.5 623.5 615.9 604.4 599.2 598.2 597.7 595.7 592.8 593.8 596.4 596.5 596.7 595.7 593 588.8 588.2 585.5 591.6 596.2 600 603.8 607.1 616.1 622.1 625.9 635.8 641.4 650.1 660.7 672.6 683.9 696.6 704.5 711 719.7 727.6 727.7 726.6 722.9 718.6 711.2 703.3 694.8 686.7 679.3 668.8 659.6 653.3 650.1 646.1 643.3 642.7 641.6 648.4 658.5 672.7 690.6 712.1 732.9 751.9 767.4 781.2 791.4 807.3 813.5 817.8 822.6 813.9 805.6 792.2 777.6 761.1 745.7 729.5 714.2 695.6 680.5 670.4 657.8 656.1 648 639.2 629.9 626.8 623.2 616.7 612.4 611.4 611.4 611.7 611.5 610.1 607.7 606.2 603 599.8 595 591.2 587.6 585.3 580.2 577 574 570.6 568.2 567.8 564.3 558.9 559 561.1 559.8 555.4 551.9 549.3 546.6 540.7 534.9 529.8 517.7 515.9 522.8 524.2 523.8 523.7 519.8 514.1 511 508.6 506.9 512.9 518.4 527.4 536.6 545.6 553.9 561.6 568
726.6 716.1 723.8 735 755.1 777.4 796.2 798.5 780.1 756.5 731.4 710.8 693.2 677 665.8 650.9 640.3 631.6 626.6 623.5 619 612 603 599.6 593.7 592.9 592.4 608.8 608 605.5 607.6 612.1 619.1 625.8 634.3 650 665.6 688 705.7 715.8 724.1 728.8 733.4 732.1 732.2 725.2 718.2 713.4 708.1 696.2 688.6 683.1 677.6 674.3 669.6 670.2 667.6 665 652.6 646.1 640.4 631.8 623.1 614.2 607.8 601.3 601.6 599.2 598.3 597.6 598 601.2 599.8 600.4 599.5 598 596.4 595.1 592.9 584.6 590.4 599.3 601.5 602.3 604.8 608.2 619.2 625.4 629.2 640.7 649 659.2 673.8 682.2 693.4 701.4 708 716 720.8 721.3 719 714.8 710.1 702.8 694.9 685.6 678.3 669.9 661.2 652.4 647 644.5 641.2 638.1 636 637.3 645.8 657.1 672.6 692 711.6 733.5 750.5 765.9 779.5 790.7 802.4 809.3 813.4 815.2 808.5 801 790.1 775.5 757.6 738.4 723.6 707.1 692.7 677.4 662.8 658.6 651.2 642 635.2 629.9 619.1 613 610 607.2 605.1 605.8 606.7 607.5 606.9 606.4 604.3 601.5 597.7 594.1 592.4 589.4 585.9 580.1 577.5 574.8 571.1 563 562.5 560.2 561.2 565.8 564.9 560.5 556.5 552 550.1 543 538.4 534.2 530.8 526.6 512.8 513.3 517.6 521.3 521.5 518.1 513.6 510 507.1 507.4 513.6 520.1 529.1 538.7 549.4 557.6 564.2 569.9
722.2 706.2 707.3 720.8 741.5 766 788 798.2 777.4 753.4 727.1 705.4 688.5 674.1 662.7 647.7 636.2 628.4 623.7 620.4 616.5 610.4 601.6 594.1 591.7 590.8 603.1 604.1 602.6 602.8 602.7 608.4 617.4 626.5 635.7 641.2 658.3 681.5 696.4 707.8 710.3 713.3 721.3 723.7 716.8 709.1 699.8 693.1 690 683.1 679.2 675.5 669.8 666.9 663.4 661.6 658 655 644.9 639.2 632.7 630.6 610.1 606.3 603 603.9 601.8 605.5 605.6 604.7 607.8 608.5 607.6 606.8 603.9 602.7 600.2 597.2 595.6 586.8 584.7 594.4 596.1 599.8 603.5 607.8 613.8 623.1 628.6 637.4 647.2 658.3 671.7 680.3 689.1 696.1 702.7 711.4 716 716.7 712.8 706.8 700.2 696.1 688.7 678.5 670.2 662.2 653.2 646.5 643.1 639.5 635.5 632.1 629.6 636 643.9 655.7 672 692.4 713.5 731.2 750.7 766.1 776.3 787.8 798.7 804.6 807.7 806.9 802.6 796.3 787.3 773 756.4 734.6 725.3 709.4 692.9 677.6 659.7 653.3 644.1 635.9 630.1 623.7 615.8 607.3 600.5 599.5 597.1 598.4 601.8 603.1 604 604.8 601.9 598.9 595.2 593.8 591.2 584.6 584.2 582.5 578.2 570.3 565.1 569.8 571.4 567.8 568.4 567.7 564.1 559 555.1 549.7 545.1 542.6 538.3 532.5 529.4 526.6 519.9 508.9 509.7 514.8 516.9 516.7 513.4 509.6 503.9 507.1 514.6 523.8 533.5 543.5 555.8 562.7 567.3 572.6
711.3 699.8 687.5 705.2 726.6 754.4 778 784.6 769.4 745.4 721.6 700.6 684.2 669.4 658.2 644.6 633.4 625.7 620.9 617.8 613.8 609.2 602.7 593.2 588.3 598.3 600.6 600.1 599.3 600.5 601.9 604 611.9 622.8 632.8 639.4 654.1 668.8 685.8 688.6 698.9 700.4 704.8 701.4 697.3 686.3 682.4 678.8 671.9 673.5 667.2 666 661 655.2 653.3 652 652.1 652.8 650.9 647.5 646.6 640.9 633.2 624.3 618 612.3 610.8 611.9 609.1 614.8 618 617.4 615.7 612.1 609.5 605.7 604.8 600.5 597.8 595.6 589.2 587 600.4 597.5 601.8 605.5 610.2 616.6 624.8 633.6 644.2 656.5 668.5 678.2 686.8 691 697.6 705.9 710.8 709.9 705.6 698.6 694.3 688.3 680.3 669.6 662.2 655.1 646.2 640.9 637.6 634 629.5 624.8 626.7 632.6 641.6 656.8 675.7 696.3 715 732.9 751.3 766.3 774.4 785.9 793.9 797.6 800.2 800.5 798.1 792.6 784.6 771.2 757.8 742.8 730.2 714 696.5 682.9 659 648.6 641.1 633.7 625.8 619.5 612.9 604.6 595.5 591.1 590.5 591.4 594 597.6 600.5 600.2 599.5 598.3 597.5 596.2 593.6 589 584.6 579.6 576.1 576.2 574.6 574.8 573.4 570.5 569 567.5 564.6 558.5 553.7 548.5 544.1 541.8 538.1 531 527.6 525.3 521.1 515.3 506.5 503.3 512.1 513.7 512.4 507.5 501.2 507.4 514.6 526.7 541.3 555.6 564.8 568.3 571.1 574.4
699.3 690.5 678 692.1 717.4 744.6 771.3 778.2 759.7 735.4 711.6 692.7 676.3 661.9 650 637.8 629.3 622.9 618.1 615.1 611.2 607.2 603.1 598.3 588.2 588.7 597 596.8 596.4 597.4 600.4 603.6 608.3 617 625.7 632.1 646.2 662 673.4 673.8 676.7 674.8 685.5 681.3 681.5 673.3 672 668.3 666.2 663.2 660.5 657.3 655.3 656.7 659 664.6 668.7 669 665.8 664.1 659.8 654 648 641.7 632.2 624.7 620.6 615.3 623.9 626.9 625.8 624 622.1 618.1 615.3 609.7 607.6 603.4 600.2 596.3 591.8 579.9 590.6 593.5 598.2 601.8 607.2 614.3 621.7 627.8 642.1 653.9 664 674.2 681.3 687.3 694.6 702.5 704.5 703.6 698 692.1 688.4 681 671.9 661.2 653 646.5 641.1 636.2 631.5 627.2 623.4 618.4 623.8 630.7 642.2 660.5 678.7 699.6 716.6 735.4 751.4 765 774.2 782.2 786.1 789.6 791.3 791.6 792.1 788 780.7 772 763 751 741.4 725 705 684.1 660.2 646.6 638.8 631 622.2 614.6 608.9 601.6 594.8 586.1 583.1 585.2 589.1 593.7 597.1 598.7 599.4 599.6 599.6 598.1 594.9 589.8 586.6 585.4 582.9 581.1 579.3 577.1 575 572 569.1 566.1 562.5 557.4 552.7 547.8 543.1 539.3 534.2 529.1 526.9 524.3 521.5 517.8 512.4 500.6 502.6 510.2 509.3 503.3 496.7 508 516.4 532.9 551.7 566.8 575 576.9 577.3 577.9
683.8 678.9 670.7 682.5 709.7 738.3 767.3 770.6 748.2 726.3 702.5 682.8 668.6 654.7 640 631.6 624.5 618 615 610.7 606.7 603.4 601.6 598.3 587 587.3 592.4 594 594.8 596.1 599.4 602.9 607.7 614.2 622 628.4 640.8 656.3 665.1 665.3 666.2 669.5 667.9 666.8 666.4 671.9 661 661.4 659.4 659.3 659.7 661.4 666.1 669.3 676.7 680.4 683.9 685 684 683.4 678.5 670.1 665.2 657.6 647.7 637.6 632.2 636 638.5 636.8 634.3 632.8 627.3 622.4 618.4 611.6 610.2 605.5 602.2 597.8 593.3 582.1 578 587.6 596.2 599.5 604.6 612 621.2 628.4 638.5 650.8 660.6 670.4 677.2 685.8 692.9 698 699.3 697.7 692.6 687.7 681.3 672 663.2 650.7 645.3 640.6 636.5 631.6 625.6 620.1 617.6 614.8 620.7 630.5 646.3 664.9 683.4 701.2 720.3 738.1 752.7 762.9 772.7 777.9 779.6 782.2 784 784 785.4 785.3 781.6 775.2 768.7 758.8 746.1 735.5 706.1 684.9 660.1 650.1 637.7 629.2 620.4 612 603.6 595.2 590 584.3 576.7 576.9 583.2 588.5 593.1 596.4 598.6 600.2 599.8 598.3 595.6 590.5 591.8 589.5 586.6 585.1 582.9 579.6 575.7 571.8 568.7 564.9 560.8 553.7 548.5 545.6 543.2 537 532.2 528.3 525.4 522.3 519.5 517.7 514.5 505.3 498 501.7 504.9 497.3 495.2 509.2 520.3 539.6 560.7 577.7 586.3 586.9 584.7 585.1
669.2 665.9 655.2 675 704.5 734.2 758.3 754.3 735.9 712.3 693.1 673.2 657.9 643 632.9 625.2 620.3 615.2 610.6 606.5 603.8 601.6 600.6 598.1 591.2 585.8 584.2 589.7 590.9 593.9 597.9 603.5 607.3 614.2 622.1 627.8 633.6 644.4 659.6 660.2 660.8 660.7 661.3 664.1 663.4 661.6 661.1 658.8 660.9 661.4 667.4 671.5 678.3 683.1 687.5 691.8 696.4 696 696.4 695.7 693.4 685.6 676.9 669.7 662.2 655 651.2 651 648.9 646.3 642.4 637.5 633.5 629.7 622.7 613.8 612.9 607.8 603.6 598.7 593.1 583.6 575.2 584.4 590.5 596.1 602.1 610.7 618.9 627.3 634.8 646.8 656.7 668.3 675.4 683.4 689.4 694.5 696.2 693.9 691.1 682.9 673.2 663.5 652.3 644.4 639.5 636 631.3 625.1 616.8 613.5 611.7 611.3 619.8 632.6 651.9 669.2 687 704.1 723.8 740.4 753.3 762.6 771 771.2 772.9 774.6 777.5 776.8 777.6 778.3 777.2 772.2 767.7 760.3 753.5 731 704.8 684.7 659.4 648 635.5 625.3 617.1 608.2 600.7 590.1 585.8 580.3 573.3 570.6 576.7 583.1 589 592.5 596 598.5 598.9 598.1 593.9 594 595.7 595.9 593.9 589.9 585.8 581.8 575.8 571.9 568.4 564.1 559.2 551.8 546.9 542.5 536.8 537 529.3 525.4 521.6 519.4 516.9 514.7 513.6 507.3 496.8 488.9 496.1 487.7 501.3 510.1 524 544 566.3 583.4 594.8 599.6 605.7 604.3
654.5 650.5 650 670.8 701.1 730.3 745.5 737.7 719 702.6 680.3 660.9 645.2 633.4 627.1 620.6 616.9 613 608 604.6 601.4 599.3 600 598.2 593.6 587 582.5 584.5 587.7 591.1 595.8 600.3 603.7 612 621.8 628.9 635.1 639.9 648.9 653.1 657.6 654.6 652.5 651.4 655 657.5 660.7 662.8 665.5 669.5 677 682.9 688.2 692.7 697.8 701.6 703.9 706.4 706.5 704 699.9 695.6 689.1 682.9 676.8 671 666.9 662 657.4 654.7 652.3 648 642.3 637.6 629.6 621.5 615.9 609 604.6 599.5 594.2 583.9 572.1 578.2 586.6 592.9 598.7 608.6 615.5 626.4 634.6 645.5 655.7 666.1 676.6 685 690.2 693.4 695 692.1 688.4 673 664.6 653.4 645.6 639.6 634.3 629.4 623.9 616.7 611 606.9 605.3 610.4 622.2 635.3 657 675.2 694.3 711.7 728 743.4 753.3 761.5 766.2 766.3 767.6 766.6 766.8 767.6 768.3 767.2 767.7 764.6 761.1 754.4 748.2 729.6 704.1 684.4 659.8 645 633.7 623.2 615 605.9 595.2 590.1 585.2 577.2 569.6 561.6 569.1 577.6 582.5 587.7 591.3 594.9 596.3 595.4 594.2 596.7 600 601.5 599.1 595.4 590.3 585.7 581.8 575.3 570.1 563.3 558 551.9 545.4 544.4 532.5 530.5 526.1 520.4 516.6 515.8 514.4 512.3 511 508.9 501.7 491.9 488.6 485.2 503.8 512.1 526.5 546.5 567.7 588.2 603.5 618.8 618.5 615.3
646.6 642.6 645.6 670.2 697.8 724.5 734.5 722 704.6 686.2 669.7 650.7 636.8 627.2 622.1 617.1 613.7 609.3 605.8 602.4 601.4 599.9 598.9 598.2 594.1 587.5 581.4 583 586.5 589.2 593.3 594.9 599.9 609.1 619.8 628.2 636.4 644 644.7 646.6 646.2 647.3 648.4 650.3 653.8 659.1 665.6 669.3 673.7 679.9 684.6 690.9 695.7 699.3 704.7 708.8 713.9 716.8 717.2 714.6 711.1 708.9 707.9 698.5 690.6 684.7 678.3 673.8 671.9 669.2 659.8 655.1 650.7 644.7 636.6 628 622.1 612 604.6 600.7 592.8 584.3 574.9 569.2 582.9 590 597.1 605.8 613.8 624.9 633.4 648.2 655.2 666.1 677.2 685.3 691.2 693.1 692.4 689 682.1 666.6 656.4 645.8 640.5 633.1 627.8 621.2 613.5 609.7 605.2 601.3 600.3 610.8 624 642.7 662.9 683 701.3 719 733.2 743.7 754.8 760 761.1 761.4 759.6 759 756.8 756.2 757.1 757.8 757.1 756 752.7 750.1 744.7 726.8 704.7 680.1 659.4 644.9 632.2 621.4 612 601.2 594.7 589.1 584.4 578.5 573 568.9 557.8 570.6 576.1 580.4 585.3 589.1 591.2 593.8 595.1 598 602.3 602.7 604.9 598.4 591.5 591.3 588.1 580.2 573.6 565 557.9 548.2 543.5 536 526.6 521.6 519.1 516.8 514.2 512.7 510.7 509.8 509.4 508.9 503.2 493.5 480.1 492.3 504.9 513.9 526.7 548.1 572.6 596.3 610.4 618.6 620.8 621.8
639.6 633 643.4 666.5 693.2 715.6 716.7 704.1 684.8 673.2 656.6 642.6 628.4 620 612.9 613.1 609.8 607.4 604.2 602 601.2 600.1 598.2 597.4 594.8 589.1 582.1 580.1 584.3 585.4 589.7 594.2 599.8 607.8 617.3 625.3 632.9 642.4 645.2 646.1 648.1 649.5 655 658.7 663.4 667.1 670.6 675.6 679.9 686 690 696.7 700.4 703.8 708.4 713.1 718.2 722.4 722.2 722.6 721.5 717 715.5 707.4 698.8 693.9 688.6 685.7 681.2 678.2 672.1 662.2 655.9 651.2 644.2 634.1 625.8 616.1 605.3 600.9 595.5 589.3 580.5 566.1 576.4 583 594.1 603.1 612.9 625.9 635.9 648.6 656.6 668.4 679.6 686.7 691.3 692.4 690.3 685.7 675.2 657.2 649.6 640.2 631.9 624.5 617.9 610.5 603.6 601.3 598.2 595.9 602.3 613.9 630.8 650.5 668.4 690 708 722.9 735.2 746.2 751.7 755.1 752.1 757 752.4 750.3 747.9 747.8 745.6 747.7 749 748.3 746.6 744.8 740.9 723.5 698.9 675.4 657.8 642.6 629 617.5 607.1 599.7 593.2 587.6 581.8 574.9 569.1 563.5 548.1 563.1 570.1 574.6 578.7 582.2 585.3 588.8 592.9 594.7 597.1 599 600.7 597.1 592.9 596.8 592.3 583 575.8 566.3 555.5 544.5 537.5 532.4 523.5 516.8 511.1 508 506.8 506.6 505.8 505.3 504.1 502.5 494.5 488.1 477.5 492.3 505.4 515.1 526 549.7 573.5 594.4 606.8 618.2 625.2 630
635.8 627.5 639.3 664 685.7 695.5 685.5 678.9 669.9 655.5 643.7 633.4 623.2 614.7 608.1 607.4 606.4 604 602.4 601.9 600.4 599.4 598.4 597.1 595.1 591.8 583 579.1 581.5 582.8 587.5 593.5 598.3 607.7 615.9 623.2 631.6 637.6 642.5 645.8 650 654.4 659.9 664.1 667.5 671.2 674.9 678.2 683.3 688.6 694.5 698.9 701.8 705 708.7 713.8 718.3 721.9 722.5 722.8 722.1 719.7 717.3 711.7 706.5 701.3 696.7 694.1 691.1 688.4 683.8 673.8 663.2 654.5 648.6 638.1 627.3 618.6 607.2 601.9 596.1 592 585.8 572.6 564.2 578.2 591.6 602.4 612.2 626.1 636.3 649.4 658.5 672.6 681.2 690.8 691.7 691.6 686.6 679.2 662.3 648.9 639.4 629 618.3 609.7 604.2 599.8 595.9 593.2 591.7 594.6 604.4 620.8 638.6 657.9 678.4 695.5 714.8 726.9 738.3 748.6 753.1 751.2 747.5 747.7 744.5 742.4 741.3 742.1 741.4 740 736.4 737.8 738.3 736.2 731.9 718 696.3 672.5 654.9 638 626.2 614.3 604.6 597.3 588.6 581.4 574.6 569.4 564 558.4 545.6 556.5 562.3 566.3 571.3 574.4 576.5 580.9 584.5 588.7 589.4 591.1 594.4 594.2 595.5 597.5 589.9 582.6 574.7 561.3 549.8 538.3 531.4 522.6 515.3 510.7 507.9 506.2 502.6 500.7 498.8 498.8 499.4 494.9 488.2 476.8 474.3 492.5 505.3 514.7 525.6 546.9 569 587.1 602.7 616.6 626.8 627.7
619.5 624.4 636.6 655 672.3 667.9 661.9 655.8 650.4 639.9 631.2 624.7 617.5 610.7 607.4 605.4 603.2 603.3 601.7 600.3 599.2 598.6 597.3 596.8 596.3 593.9 587 578.6 577.5 578.4 583.8 591 599.2 611 617.1 620.4 628.3 635.3 639.9 645.6 651 657.2 661.5 665.6 669.2 673.1 676.8 680.1 684.9 689.2 695.2 699.3 701.8 703.7 707.9 713.1 716.8 719.9 721.4 721.1 720.6 719.7 719.7 714.8 710.3 707.9 704.1 699.5 697 694.8 691.9 683.4 668.5 658.2 651.5 640.2 629.8 619.1 609.8 602.9 596.8 591.8 588 574.7 559.2 575.9 588.8 600.8 612.5 628.9 645.1 652.4 665.4 677.5 682.6 686.8 688.9 686.7 677.7 670.4 653.1 640.4 629.8 617.1 608.7 603.2 598.3 593.6 589.7 587.1 585.8 595.5 608.9 627 646.5 664.2 682.7 698.4 717 728.1 738.6 747.7 751.1 751.4 744.1 740.2 736.4 732.5 733.2 730.5 729.3 725.1 729.2 727.7 728.7 726.5 722.3 709.1 687.6 669.3 653.1 636.7 622.9 611.3 601.2 593.1 581.2 571.1 564.7 561.1 556.1 550.7 543.2 549.2 553.5 557.7 563.1 563.7 565.4 570.4 574.8 577.3 579.1 580.6 582.5 586.4 588.2 591 588.3 579.9 569 556.5 541.7 531.1 521.6 515.5 510.6 507.8 504.2 498.8 498 497 496.2 494.6 490.1 489.5 488.7 476.6 472.5 489.6 504.3 512.3 523.1 543.7 563.9 584.8 599.6 610.4 620.3 618.3
613.4 621.2 631.5 645.6 651.7 646.9 643.5 639 634 628 620.9 614.8 610.6 606.9 604.8 602.3 600.4 600.8 600.4 598 597.5 597.2 595.4 595.3 597.5 596.2 593.4 589.5 578.1 575.2 581.2 591.3 599.3 602.8 608.2 616.9 627.1 634.3 639.8 645.2 651.7 656.7 661.2 665.2 669.6 673.8 677.7 681.1 685.8 688.9 694.8 699 701.4 702.2 705.4 709.3 712.5 716.7 717.2 717 716.8 716.3 715.4 714.4 711.2 709.1 705 702.4 699.8 696.4 693.3 682.5 671.9 659.6 650.3 641 630.3 618.8 609.6 600.6 596.5 592.4 586.1 568.5 556.3 573.2 587.6 598.4 614.5 630.2 646.6 660.2 674.9 682.4 682.9 686.7 685.2 678.5 670.2 660.3 642.6 630.3 620.5 608 603.4 597.8 593.7 589.1 585.5 581.6 586.9 597.5 614.6 633.6 651.7 669.3 687 703.5 717.7 726.7 738.2 744.2 750.9 744 738.6 734.9 729.8 723.6 722.9 722.9 722.2 720.2 712.8 720.1 718.6 717.3 709.5 701.3 684.2 663.8 648.5 630.8 618.6 607.3 595.4 582.6 572.1 567.8 561.1 555 553 546.5 538.8 538.5 545.8 548.6 551.5 553.9 556.4 559.7 563.7 564.5 567.8 567.2 569.9 572.5 576.6 579.4 578.6 570.7 559.6 549.6 533.7 521.6 512.4 509.3 507.4 502.6 496.2 490.5 490.1 490.4 488.1 487.3 492.6 491.9 486.9 472 471.3 488.7 499.1 509 521.1 539.9 562.3 581.3 598.5 609.8 613.2 609.4
611.7 616.9 625.2 634.1 633.2 630.4 628.1 625 622.1 618.5 613.2 609.3 606 604 601.7 599.4 595.8 598.2 597.6 592.6 593.8 594.6 593.6 593.6 597.1 597.4 596.7 595.2 591.1 576.1 578.9 590.2 596.1 599.4 605.6 614.2 624.8 632.4 638.9 646.6 651.4 654.8 659.5 664.3 668.8 673.7 678 681.4 685.7 689.4 693.7 697.6 700.1 701.3 702.9 705.6 708.7 712.5 711.4 711.7 711.7 711.7 709.9 709.2 707.4 705.4 703.6 701.9 697.8 693.3 688 678.2 668.1 658.2 650.5 640.8 628.3 616.7 608.8 600.8 596.2 591.9 585 564.4 555.3 569.8 587.8 599.3 615.6 632.8 649.7 663.6 679.9 685.9 683.6 681.9 680.7 673 662.1 650.2 634.4 622.8 611.9 604 599.5 593.3 589.6 585.5 580.5 577.2 585.9 599 618.8 640.5 657.4 674.8 691.4 704.2 718.8 725.8 733.8 740.5 742.6 739.5 736.3 730.5 724.7 718 716.5 716.4 713.7 712.3 711 710.2 710.8 709.1 701.9 688.6 673.7 659.1 641.9 626.6 613.7 596.8 585.8 574.8 561.7 557.4 553.1 548.9 542.7 540.7 540.5 530.1 535.3 540.6 543.7 545.8 547.8 548 551.9 554.2 555 556.5 555.8 559.6 564.9 565.2 567.2 560.4 550 541.1 528 519.2 510.2 504.9 500.5 492.9 489.3 490.9 488.6 485.5 485.3 489.6 484.4 480 481.9 462.4 469.3 486.5 496.4 503.7 516.5 538.6 560.6 584 597.2 611.4 617.7 605.9
607.5 611.2 618.1 623.3 622 619.2 617.3 614.7 610.4 608.7 607.3 604.6 602.4 601.8 599.4 592.8 590.6 590 589.4 587.1 590.6 590.2 588.1 589.5 592.3 596.3 597 596.4 595.1 588.9 577.4 594 597.6 599 601.7 611.2 621.1 628.9 637.1 646.2 651 655 658.5 663.5 668.3 673.4 677.6 681.4 685.4 688.7 692.8 696.7 698.8 700.6 701.8 703.4 703.5 704.5 705.3 705.5 706.1 703.6 702.4 700.7 700.3 700.3 700.1 697.8 693.2 688.9 684 674.1 666.4 656.2 649.1 636.7 626.2 616.5 605.5 598.8 595.2 591.4 582.9 562.3 550.9 565.5 584.4 597.4 614.9 632.4 649.8 666.9 682.1 689.7 679.7 676.7 674.1 666.4 655 639.7 626.6 614.9 606.8 599.4 593.5 589.7 586 581 575.4 576.7 587.8 603.5 622.7 644.6 661.8 679.8 695.5 707.8 718.7 723.6 729.8 739 737 732.8 730.2 726.1 721.7 714.5 709.9 706.9 707.4 706.7 705.7 704.4 702.4 694.1 687.1 677.4 665.4 652.9 639.1 623.4 604.5 592.7 579 557.5 543.9 539.3 537.2 532.3 529.4 526.4 532.7 531.5 524.9 531.6 536.1 538.3 539.2 539.7 539.7 541.3 541 543.7 544.6 547.1 554.9 553.8 552.1 548 541.7 531 521.8 512.6 502.3 491.9 491.8 490.8 486.4 485.5 484.4 484.2 483 481.8 483.2 483 481.6 458.9 467.7 485.4 494.4 503.1 504.1 534.7 558.7 582.2 597.8 606.7 606 595.1
601.6 603.1 609.7 614.2 614.7 612.2 608.6 605.8 602 602.5 602.2 602.4 601.7 599.7 600.9 587.7 585.3 584.3 584.6 583 585.8 583.2 580.2 579.4 582.1 587.6 595 596.6 593.3 589.9 576.3 589.6 588.3 595.8 600.2 612.1 622.8 630.8 638.2 646 650.1 655.9 660.4 664.8 669.9 674.1 678.1 682.8 685.8 690.2 693.1 695.5 698 701 700.4 700.1 699.5 699.6 699.9 699 698.2 697.2 695.6 694.7 694.6 694.5 693.6 691.6 688 683.9 677.8 670.8 661.6 653.3 643.1 632.6 621.4 611.4 602 597.4 594.1 590.2 582.5 565.2 548.9 559.4 578.3 596.3 611.9 629 648.4 664.8 679.2 682.7 672.4 669.4 666.6 658.7 644.4 631 620.5 610.5 602.1 595 589.4 585.9 582 577.1 569.5 577.1 588.9 607.3 627.7 650.2 667 684.2 698.6 710.2 717 719.7 726.8 731.5 730.6 727.9 726 724.8 718.9 710.8 706.3 703 698.1 696.6 696.9 695.1 692 687.1 676.2 667.9 660.1 648.5 632.1 612.5 598.8 587.3 564.7 553.7 557 552.6 547.7 543.9 540.2 533.9 524.3 519.6 519.1 525.2 530 531.6 531.6 532.2 533.5 533.9 533.7 534.3 536.6 536.6 538.2 538.2 537.3 533.9 529.5 521.6 515.4 500 500.1 494 485.9 482.8 476.9 478.9 481.7 480.6 479 478.5 475.7 477.2 470.8 455.7 468.2 482.9 492.3 501.4 499.7 527.2 556.7 579.9 593.2 600.8 597.3 595
598.1 592 599.9 602.3 605.3 604.1 599.8 600.1 598.2 599.6 602.7 602.7 602.2 599.7 588.2 582.7 578.9 580.4 583 579.5 579.2 577.3 575.6 575.5 577.2 583.2 585.4 584.5 580.4 575.5 571.5 578.3 582.3 592.7 601.7 611.9 622.6 632.8 639.2 645.2 649.7 656 661.4 667.3 671.6 677.2 680.2 684.8 689.3 693.5 694.6 696.7 698.1 700 698.6 698 697.1 696.6 695.5 693.8 691.2 689.7 689.9 689.6 688.7 687.7 686.1 684.9 682.3 676.4 670.8 665.1 657.1 647.2 637.5 626.8 614.7 605.9 601.2 596.5 592.5 584.2 575.8 569.3 548 551.4 572.9 593.4 605.3 626 643.7 661.6 674.4 673.5 666 665.1 660 650.9 636.6 625.9 615.1 606.1 597.3 590.6 585.3 581.4 577.6 572.2 566.9 576.6 592.8 612.1 632.9 651.5 670.4 687.6 700 710.4 712.6 714.3 719.4 723 723 724.9 721.7 716.9 711.8 706.5 701.4 697.9 695.1 690.9 685.6 684.9 680.2 673.8 663.4 657.5 650.4 637.8 623.7 612.2 599 578.9 556.2 568.8 563.3 556.4 552.9 547.6 543.5 538.5 534.1 527.2 514.7 515.2 521.3 525.2 526 525.5 525.4 526.1 527.8 526.7 527 527 525.3 524.2 525 524 520.7 514.6 505.4 498.8 495.7 487.7 482.3 480 479.3 468.6 460.9 463.4 467.2 470.8 469.5 469.4 463.8 452.5 471.2 480.9 490.4 494.1 497.1 521.6 552.9 576.7 586.5 593.5 592.5 590.1
593.9 585.9 589.4 588.5 587.4 592.2 597 597.7 594.9 590.7 595 598.6 601.9 593.8 580.5 577.7 575.1 576.8 575.9 574.4 572.9 572.4 571.9 572.7 574.1 575.1 563.3 570.5 568.8 565.4 565.8 567.6 579.9 588.4 601.3 615 623.6 632.1 640.2 646.3 649.4 656.6 663.2 669.6 675.4 680.2 684.8 688.6 692.1 694.6 697.9 699.8 699.6 699.3 698.7 697.7 696.6 693.8 692.5 690.5 688.1 685.3 683.9 682 680.8 678.2 676.5 675.6 673.2 669.5 663.2 657.3 649.8 640.3 631 621.9 611.8 602.6 597.5 592.2 584.9 577.2 569.1 556.4 548.4 553.4 571.2 592.9 607 622.8 640.2 654.6 665.5 664.3 659.7 658.5 654 644.1 630.8 620.2 611 601.7 591.5 586 581.2 578.2 574.2 565.6 564.9 577.2 595.1 617.4 636.2 656.1 674.7 690.7 701.5 707.2 707.9 709.3 712.9 714.3 716.2 715.7 710.6 707.7 706.1 700.6 697.4 693.5 691.2 686.7 680.3 673 666.2 657.6 650.2 644.7 639.3 626.7 617 607.4 592.7 566.7 576.6 578.7 570 563.6 558.4 552.7 548.2 542.9 536.7 531.7 526.3 513.5 509.6 518.4 519.9 520.1 519.5 520.1 519.8 520.7 520.6 519.3 517.9 516.4 516.6 515.9 513.7 505 499.8 493.7 490.2 481.6 480.8 474.6 470.6 466.4 463.6 453.7 447.8 463.1 463.7 460.9 449.6 454.5 471 477.5 488.8 490.4 497.2 520.1 550.6 573.8 579.7 587.4 584.6 581.9
589.2 582.4 581.8 584 584.4 585.5 586.3 588.8 589.3 589.4 585.7 592.9 597.5 596.4 576.9 573.9 572.2 571.4 570.1 569.6 569.1 568.5 569.2 570.8 570.6 568 553.3 555.4 558.6 563 562.1 564.8 581.7 591.9 602.6 617.7 624 631.4 641.9 646.1 650.4 658.4 666.9 673.7 678.6 684.7 688.5 692.7 696.4 700.8 704.1 705 704.1 701.9 699.7 698.1 695.7 693.2 691.2 688.8 685.5 683.4 680.8 677.9 675 671.8 669 667.2 663.2 659.9 654.2 649.8 642.7 634.5 625.8 617.6 606.1 599.2 592 582.6 574.7 568.5 559.9 549.5 540.2 562.3 576.9 593.8 606.5 623.4 637.8 647.5 661.3 659.2 653.4 651.3 648.1 635.4 623.1 613 605 596.1 587 581.4 577.5 573.3 569 559.6 564.3 577.5 598.4 620.3 639.8 659.2 677.3 693.7 701.5 703.3 702.8 702.7 708.7 704.1 702.2 703.2 701.7 701.7 699.3 697.9 695.3 691.9 687.2 682.6 674.7 666.3 657.1 647 639.9 632.2 626.3 618.9 612.2 599.5 579.3 576.9 591.6 587.6 580.5 572.4 565.1 559.5 552.9 545.7 539.4 533.1 527.9 523.7 517.8 505.5 511.9 512.3 513.5 512.1 512.1 514.7 514.2 512.3 508.2 505.9 507.2 504.3 506.2 501.3 495.2 487.6 484.6 481.5 469.5 471.2 467.5 465 462.5 452.2 445.3 452.3 455.5 451.7 444.9 461.6 470.8 477.2 485.5 491.4 499.1 519.1 548 567.8 570.5 575.7 576.4 573.9
584 579.9 574.2 577.4 579 579.3 579.8 580.1 582 585.7 585.3 580.6 591.1 595.4 579.8 572.3 570.5 569 566.6 566.8 565 565.1 565.2 566.9 566.5 560.1 550.6 564 575.2 577.6 573.4 572.1 582.1 593.4 601.8 619.9 624.4 633.5 641.2 645.3 651.1 660.3 668.6 676.1 682.2 688.6 694 698.1 703.4 710.5 712.9 713.5 712.2 705 701.8 698.7 696.3 694.3 690.6 688.8 687 685 682 678 674.3 669.1 662.6 659.5 657.1 650.9 644.1 639.8 634.1 625.7 618.6 608.9 599.2 594.2 583.7 573.7 566.3 561.8 547.5 545.6 546 567.8 582.4 599.4 612.4 624.3 636.7 651.7 660 653.2 648.4 645.6 640.8 626.6 614.4 604.8 597.6 590.3 582.8 576.4 571.9 568.9 564.4 556.8 563.2 578.8 600.4 621.6 642.1 661.3 680.4 695 701.1 701.1 698.8 697.6 700.6 694.2 690.4 691.5 691.2 693.2 694.6 695.5 694.4 693.5 683.7 674.3 666 657.3 650.6 639.5 629.9 623.2 618.1 613.9 604.4 583.3 586.6 602.1 602.8 603.5 595 584.2 573.7 567.4 559.9 550.6 541.5 536 530.7 523.1 516.5 509.7 504.2 509.3 508.3 506 505.1 505.3 505.9 502.2 498.6 497.7 500.7 501.4 497.4 494.4 488.6 483.6 478.5 471.2 472.8 471 466.5 461.9 455.7 450.1 442.7 441.9 442.3 440.2 449.6 465.3 471.8 476.4 480.6 490.4 497.4 518.3 544 558.6 567.8 562.5 563.1 561.7
577.6 573.7 567.1 570.1 572.6 574.6 576.2 576.3 577.3 580.8 583.4 582.9 586.7 587 573.3 572.8 570 567.1 563.8 561.9 561.1 561.9 562.6 561.5 561.7 552 550 571.5 573.2 571.1 568.1 571 584.2 590.8 602.7 618.8 626.4 633.6 640.1 644.5 647.9 659.9 668.8 677.5 684.6 691.7 697.7 703.8 710.6 716.3 718.1 718.1 717.3 709.7 702.3 699.4 696.8 695.2 691.8 691.2 688.7 686.5 683.6 681.5 678.2 674.6 670.4 664.4 660.3 658 654.8 646.6 639.4 631.5 624.3 615.8 606 597.4 588.4 575 563.5 551.2 540.8 541.6 552.4 569.7 585.9 602.2 616.7 629.6 643.8 656.5 657.9 648.1 642.1 639.4 631.9 617.5 605.4 597.4 590.2 582.7 577.1 573.3 567.7 563 557.9 551.9 563.5 580.4 603 623.4 643 664.3 682.4 697.8 701.2 700.6 692.3 690.7 691.2 680.2 677.2 679.6 682.7 685.6 688.3 691.3 692.8 687.7 677.8 667.3 658.3 647.2 639.4 631.6 624.3 615.9 609.7 603.7 598.8 604.1 611.5 616.6 617.4 614.9 607.7 595.6 584.6 574.6 564.4 554.4 541.5 536.3 531.1 522.7 516.9 509.6 494.8 502 503.7 500.9 499.8 497.2 491.9 493.1 490.9 487.8 492.5 492.3 491.8 486.9 481.7 479.2 476.7 473.7 468.8 462.9 457.9 453.1 451.1 442.1 441.2 436.7 438.1 435.8 454.1 461.8 467.5 472.1 475.1 483.5 492.9 512.7 535.2 548.2 550.8 553 549.9 550.8
572.1 568.7 567.1 564.1 569.7 571.4 572.6 571.1 571.3 571.3 574.8 578 584.8 575.7 570.8 578.1 574.3 568 563.2 558.9 557.9 557.3 557.7 558.4 552.2 547.4 565.4 569.3 565.7 564 569.6 577.4 584.5 592.3 608.6 623.6 629.6 632.8 637.8 642.5 646.1 658.7 667.3 677.4 685.7 692.9 700.2 708.1 713.8 718.9 721.4 721.8 723.8 717.3 707 701.4 696.5 694.7 693 691.5 689.8 687.7 685.6 683.8 681.6 678.4 674.5 670.1 666.5 662.6 659.2 654.4 647.7 640 629.5 621.7 611.1 602.3 594.8 582.7 569.5 557.7 541.9 533 556 575 592.6 609.5 625.7 639 653.6 662.4 658.4 644 634.3 630.1 621 608.7 598.3 591 584 576.5 571.9 569.3 561.3 555.3 550.8 551.8 563.3 581.2 604 624.7 645 664.8 683.6 697.8 700.4 703.6 695.5 684.6 676.8 671.5 670.3 672.1 673.1 676.7 680 682.5 684.1 680.9 671.2 659.4 648.8 640.3 630.4 623.2 617 611.6 607.4 610.5 611.3 621.5 629 634.2 635.7 629.6 621.4 610.2 598.4 582.8 571.2 561.5 545.7 537.3 530.3 522.2 516.7 510.1 503.1 491.5 499.6 496.9 495.7 491 490.3 488 488 487.4 483.5 485.6 483.6 482.2 477.6 471.3 468.6 466.4 463.9 462.4 462.3 459.8 455.8 452.3 449.1 437.8 432.7 441.5 453.6 459.3 464.8 468.5 472.2 482.2 491.8 512 526.2 540.1 539.7 543.6 537.1 540
567.6 564.1 562.5 555.3 564.1 566.9 568.1 565.2 565.4 564.4 564.4 569.1 574.1 569.1 568 581.1 577 569.3 566.1 560.5 555.4 551.5 552.4 551.7 546.2 556.7 565.1 563.9 561.2 565.3 571.2 577.8 584.2 595.7 606.4 623.4 629.1 633 636.7 639.8 644.1 655.6 665.7 676.2 685.1 691.7 700.8 708.3 714.7 720.9 724.4 724.2 724.9 720.9 713.5 707.5 696.8 694.8 692.8 691.9 690.4 688.4 686.5 685.2 683.6 682 678.2 677.4 676.7 671.5 667.3 661.5 656.1 647 637.7 626.8 613.7 607 594.8 587 573.7 553.9 535.2 534.1 559.8 581.9 599.5 620.4 638.9 651.1 663.9 668.2 658.1 641.1 629 623.8 613.4 601.3 591.3 584.4 578.9 571.6 566.8 561.2 551.9 548.2 545.6 550.4 563.2 584 605.1 625.8 645.7 665.3 684.3 698 703.8 701.9 692.1 682.2 672.5 666.9 666 664.1 666.7 667.4 669 671.3 674.8 671 656.4 648.5 639.6 630 624.4 620.3 617.2 608.3 613.4 613.7 618 629.1 639 643.9 643.8 639.8 628.7 620.5 607.3 591 578.1 565.4 547.7 537 529.3 522.1 515.9 509 503.1 491.5 494 493.4 490.9 488.3 486.5 483 477.2 471 474.4 475 474.9 472.9 469.9 469.1 466.1 463.4 461.6 457 453.7 452 447.1 440.9 440.5 439.1 429.3 442.4 451.5 455.3 459.4 464.5 469.2 483.3 495.9 509.5 521.3 526.3 528.6 528.4 527.2 530.1
561 555.8 555.1 554.6 561.2 562.2 560.5 555.3 558.2 558.9 559.9 563.7 567.6 566.8 563.8 566.8 566.3 561.2 566.7 560.9 554 549.9 540 542.7 547.6 553.9 556.6 558.7 563.2 565.3 569.9 575.3 587.8 596.8 608.1 624.4 630 634.1 635.6 638.4 644.7 650.4 665 675.3 683.2 689.9 698.2 707.4 714.2 720.8 725.5 725.6 725.2 727.5 725.4 711.9 700.1 695.5 692.9 691.7 689.1 686.8 685.4 685.1 685.8 684.9 683.2 683.5 682.4 679.9 675.8 670.8 666 655.9 644.6 633.1 620.8 611.2 599.1 590 574 553.8 531.6 541 563.6 588.1 612.7 634 650.7 663.5 672.1 669.7 654 637.7 625.4 617.3 605.6 593.9 584.6 578.8 573.3 566.9 561.1 553.3 545.8 544.3 543.8 550.1 564 585.9 607.7 627.4 646.6 668 687.4 699.7 703.8 698.5 688.8 684.1 673.9 665.1 660.5 660.3 658.7 658.7 660.2 659.2 660.3 653.5 644.8 635.9 627.5 623 620 617.9 612.5 612.2 616 617.1 620.5 630.7 640.6 646.7 646.5 642.3 633.7 626.7 612.5 599.8 585.8 569.4 553.5 539.5 529.5 521.9 514.8 508.9 502.5 498.1 488.3 481.6 483.7 480.7 478.1 477.4 477 476 468.4 473.3 470 468.9 464.3 462.5 461 456.5 453.7 451.1 448.8 447.1 445.7 443.9 439.4 435.4 429.6 438.5 446 452.3 458.2 461.3 472.6 484.8 491.3 502.5 510.2 514.9 519.3 517.8 521.4 523.6
552.2 549.1 545.8 554.7 557.7 557.3 554 550.2 552.5 553.8 554.6 557.5 561.7 562.5 555.2 557.2 554.6 553.4 554.8 554.2 547.2 538.1 540 546.4 557.1 557.8 562.6 564.7 565.6 567.6 572 581 590.6 596.5 610.9 621.4 629.1 633.7 635 637.4 644.9 649.8 663.6 672.9 682.1 688.8 697.8 706.6 713.3 719.5 726.9 730.9 727.9 726.6 722.8 711.6 705.8 696.3 692.3 689.6 686.5 684.1 682.4 681.5 682.6 683.8 684.4 685.1 685.1 683.6 680 676.7 671.6 662 649.4 637.6 624.3 611.6 598.9 586.7 563.4 543 525.1 543.1 566.7 595.9 622.9 644.4 659 669.9 674.6 666.7 651.3 634.1 617.3 608.9 596.9 586.6 577.1 571.6 566.4 560.8 556.2 547.3 541.7 540.8 540.3 549.7 564.9 587.2 608.9 629 650.5 671.7 691.8 703.8 704.4 697.8 689.2 683.8 671.4 663.8 660 657.7 653.6 649.9 648.5 647.7 647.3 640.7 633.5 627 623.3 619.9 617 614.1 610.8 612.7 615.1 617.1 620.4 628.7 639.5 645.1 644.5 640.4 636 629.6 618.6 602.4 591.2 580 567.8 551 534.3 519.2 513.6 508.2 501.7 495.3 491.7 480.9 475.2 476.6 473.6 472.7 471 467.3 464.4 465 463.3 461 457.5 456.1 455.2 452.6 448.9 444.3 441.8 439.4 436.6 436.2 434.9 433.5 422.1 434 442.8 447.3 451.3 460 467.9 476.5 486.2 492 499.4 502.6 504.3 505.2 510.5 513.4
543 541.1 547.1 551.7 553.4 553 548.9 545.7 546.5 546.5 547.9 552 554 553.8 551.1 545.5 545.1 543.9 543.6 534.5 534 535.8 541.8 558.3 562.8 564.6 564.9 567.9 569.5 573.3 580.8 591 594.4 602.2 610.1 621.6 629.8 624.3 632.8 636.6 642.3 648.2 663 671.5 679.9 687.5 698.5 706.9 712.7 718 724.4 729.3 729.5 730.5 721.6 709.8 704.3 700 691.9 688 685.5 681.6 679.6 678.3 678.9 680.2 683.2 685.5 686.1 685.2 682.4 678.7 674.8 663.6 652.1 638.1 624.5 613.8 599 583.7 561.9 537.9 523 542.2 570.2 599.7 628.1 646.8 664 671.3 670.8 662 645.1 626.3 611.8 601.5 590.4 581.1 570 565.9 561.8 556.7 552.1 542.1 537.9 537.3 540.1 549.7 566.8 589.9 610.9 632 654.5 676.7 693.7 702.5 703.3 697.7 689.7 680.3 670.4 665.8 661.8 654.9 650.9 645.8 639.8 639.3 635.7 631.3 627.5 622.6 619.2 615.1 612.2 610.2 608.7 610.4 612.8 615.7 618.7 624.5 636.2 643.7 643.8 640.6 636.2 629.5 620.5 613.8 599.7 588.8 570.4 555.4 538.8 519.5 510.6 504.5 497.3 491.8 487.3 478.3 472.1 468.1 468.4 468.1 465.2 464.7 459.9 458 454.2 453 447.8 447.2 446.6 444.2 442.2 438.3 434.6 433.1 432.2 430.6 429.1 427.4 418.2 426.3 436.2 441.8 443.6 456.1 466.3 469.9 474.5 479 483.3 487.8 491.9 499.9 499.5 500.4
539.2 536.7 545.6 550.1 550.9 548.3 543 540.4 541.5 539.4 543.1 545.8 545.2 542.8 538.8 537.5 532.3 527.1 528.9 531 534.4 539.5 555.2 562.5 566.5 575.5 568.1 573.4 577.6 581.4 586.3 594.7 598.9 605.6 612.3 621.4 630.2 628.8 626.8 633.7 637.4 646.2 662.2 670.2 679.9 690.4 700.2 707.9 713.5 717 721.1 724.9 725.8 724.3 717.8 708.2 702.7 695.6 691.1 688.1 684.9 680.3 676.9 674.6 675.2 677.2 680.3 683.4 684 683.4 680.3 676.8 670.7 661.2 650 634 622.6 611.6 599.1 585.3 558.8 533.3 521 542.8 571.1 602.6 626.5 647.6 667 669.3 663.9 654.1 638.4 618 605.5 593.2 583.3 572.9 566 562 557.7 552.9 547.2 536.7 534.1 534.2 539.6 550.5 570.1 592.2 612 637 661.6 680.5 694.3 702.6 703.8 697.9 689 681.5 678.1 673.6 664.1 653.5 646.6 639.5 633.9 630.3 627.5 624.6 621.5 617.6 613.7 609.9 605.4 605.4 605.2 606.2 608.5 611.4 615.3 621.1 632.1 639.9 642 641.3 637 631.5 627.3 619.9 605.7 588.6 572 557.6 535.1 515.9 508.3 501.1 493.3 486.5 476.2 473 471.4 468.8 459 459.9 457 453.8 447.4 449 444.7 444.1 441.1 439 437.3 435.8 434.4 431.2 428.2 425.9 422.3 422.4 423.2 423.6 414.4 418.9 428.1 434.1 439.6 447.7 455.7 463.3 463.5 464.2 466.9 472.6 479.6 484 486.3 486.9
530.2 541.8 545.7 550.6 546.8 545.2 540.6 534.9 535.5 536.5 535.5 535.2 533.4 527.8 522.4 521.7 523.6 533.6 535.6 543.3 545.9 559.1 564.5 573 572.8 573.6 572.4 578.6 581.7 584.2 590.2 595.4 600.3 608.9 614.9 623.2 630.7 625.5 625.7 633.6 640.9 645.5 660.7 669.8 679.7 691.2 702 709 713.7 716.7 720.5 723.3 723.2 719.8 713.9 709 703.9 696.7 691.9 686.6 681.7 677.8 671.9 668.9 668.1 670.1 674.1 677.2 678.3 676.5 674.2 671.4 665.3 655.3 641.9 628.8 618.3 608.5 596.4 585 558.4 531.1 518.5 540.3 571.9 600.6 625.9 645.7 660.8 659.5 654.2 638.8 626 609.9 598.4 585.3 575.9 568.1 562.5 558.8 554.7 550.1 543.2 535.1 532.1 532.6 539.1 551 572.4 592.7 616.9 643.4 666.4 684.4 695.7 701.7 702.7 697.5 690.6 686.8 683.4 675.6 666.8 657.5 648.1 640.3 633.7 627.7 624.4 620.9 615.3 609.5 605.1 603.9 599.7 598.9 599.1 599.7 603 606.4 610.3 617.8 628.1 635.6 640 640.7 638.4 634 628.8 621.4 605.1 589.2 572.6 554 530.8 510.4 502.3 497 489.1 478.9 474.6 470.1 464.2 458.9 455.8 452 448.1 445.8 440.3 441 436.7 435.8 433.1 431.5 431.9 429.8 428.1 424.8 421.9 420 419 417.7 415.9 416.1 410.8 415.7 423.4 427.9 432.4 438.1 440.3 445.6 445.9 449.1 453.9 461.6 464.4 469.8 470.8 472.6
533.1 540.1 547.3 545.7 542.3 539 536.9 525 527.6 525.7 524.7 523.9 523.2 519.4 519.4 523.8 537.2 543.3 550.7 554.8 558.3 562.7 567.6 570.3 573.1 575.4 575.1 580.1 585.2 588.7 592.7 596.8 601.5 608.4 614.4 618.9 616.2 618.5 630.3 634 645 644.2 658.1 668.6 679.3 689.7 700.4 708.2 713.4 717.3 720.6 724.1 725.4 723.8 718.9 713 705.9 698.6 690.5 683.3 676.7 671.5 665.9 658.3 660.6 661.9 665.6 669.8 671.1 670.1 667.5 665.5 660.1 649.3 635.3 623.2 613 602.8 596.1 584.8 560.3 531.7 517.4 537.9 570 598 621.7 638.8 648.2 645 635.2 622.2 612.5 598.9 590.4 581 572.3 564.6 559.3 555.6 551.1 546.6 540.3 533 528.8 531.2 538.8 554.7 573.6 594.8 621 648.7 671.5 686.4 696.9 702.6 702.3 697 694.4 691.1 682.6 675.2 668.1 662.8 653.3 643.6 634.6 628.5 624.1 621 616.7 606.6 600.7 595.9 593.7 590.5 588.8 591.9 596.9 601.3 605.1 614.1 623.6 631.8 636.9 637.8 637.1 632 624.7 615.6 605.1 587.6 572.5 550.7 530.2 509 496.1 491.5 485.6 475.8 469.3 460.1 456.8 451.9 449.4 445.9 438.6 439.8 436.7 431.7 430 428.8 425 423.1 420.3 423.8 421.1 418.2 415.9 417.8 414.5 411.4 411.4 411.6 407.5 412.9 416.4 419.2 422.4 422.5 426.3 428.1 430.9 435.7 438.8 445.3 450.9 455.5 454.1 456.6
530.4 538.6 541.3 535.6 530.4 525.9 522.8 522.3 515.1 510.6 512.6 514.9 515.6 518.9 532.6 537.6 548.5 555.6 559.5 565.2 567.6 570.1 572.3 576.4 580.1 580 578.8 582.4 587.6 591.1 594.5 596.4 599.2 605.8 612.5 613.7 612.8 624.5 632 631.8 645.3 642 652.6 666.2 677.2 687.4 696.6 704 712.3 718.5 719.7 723 727 726 722.5 717.1 709.4 700.9 690.6 680.2 671.6 664.8 655.7 653.1 652.3 654.2 655.9 659.8 660.9 661.4 661.1 659.1 652.6 642 630.8 618.3 608 598.5 592.8 578.6 555.3 528.9 514.7 534.3 567.1 597.3 616.5 627.4 633.1 632.2 619 612.6 608.7 595.9 586.6 577.7 569.7 561.6 555.8 552.1 547.5 542.6 537 530.4 523.9 530.9 540.4 555.9 575 598.6 626.5 653.2 674.3 687.9 695.1 700.3 704.1 704.6 700.1 692.5 683.5 677.1 673.8 669 657.8 648 639 633.3 626.6 621.1 617.1 611.2 597.9 581.8 575.3 573.5 573.1 578.7 590.8 594.8 599.1 609.2 619.3 627.3 632.5 636.1 634.3 630.6 625 621 608 587.9 569.2 547.8 526.4 508.2 495 488.1 479.5 472.2 464.7 455.6 450.4 445.9 442.2 439.7 435.3 429.7 433 430.5 428.2 428.3 423.7 420.2 416.9 415.6 413.6 408.8 409.7 409.9 409.9 409.6 407.4 406.1 405 409.6 410.2 413 412.6 415.5 417.6 416.7 417.4 422.7 427.4 428.1 433.5 435.6 438.1 439.4
522.5 523.5 523.3 522.4 519.5 516.3 517.1 516.6 508.8 515.2 514.3 520.4 527.8 527.1 530.5 542.2 553.2 565.1 573.4 574 573.1 574.3 578.8 583 586.5 587.1 587.1 590 590.5 593.4 595.2 596.6 597 600.7 608.7 611.5 613.4 621.3 630.1 629.6 639 638.9 641.9 661.7 672.7 682.4 690.8 698.5 705.5 711.3 713.1 716.9 721.6 721.9 719.9 715.5 708.1 700 688.4 677.4 668.5 660.3 652 646.8 644.2 643.4 646.2 649.8 650.7 650.9 650.3 648 642.9 633.4 624.4 611.8 600.8 593.6 579.9 564.3 541.5 522.2 513.4 535.4 568.3 596.8 612.3 623.2 620.7 614.7 612.2 609.4 604.3 590.8 581.2 574 565.4 558.3 552.3 547.9 543.9 539.4 534 527.9 521 530.1 542 557.1 578.4 601.5 629.3 653.5 675.1 686.1 695 703.4 707.8 707.8 699.6 691.1 687.7 683.1 678.6 670.3 661.9 654.1 650.1 644.4 632.2 622.8 617.9 611 589.7 580 586.5 583 578.6 567.4 580.4 588.4 594.2 604.2 614.5 622.6 629.1 631.8 631.8 630.1 630.2 624.6 609.7 586.2 568.4 546.8 522.4 502.5 490.8 484 477.4 468 462 451 445.6 439.9 437.1 434.3 432.7 425.7 428.8 423.5 422 421.5 415 414.2 409 407.8 409.2 408.6 402.5 400.5 401.2 404.1 403.4 402.6 401.6 404.3 405.9 407.6 405.4 409.3 408.9 412 411.7 414.5 416 414.9 418.5 419.9 421.4 422.5
516.8 516.9 518.8 519.7 518 514.1 513 506.2 517.3 519.1 520.1 522.5 529 535.1 540.4 548.9 554.4 567 569.2 572.3 577 582.9 587 592.2 594.5 596.7 594.4 596.2 596.7 597.5 596.8 596.8 597.7 597.1 598.6 608.8 604.7 618.1 626.6 627.3 635.6 638.3 632.2 655.1 667.5 677 684.4 690.9 696.8 700.1 704.3 710.5 714.6 714.2 712 708.2 702.3 694.9 685.1 673.7 664.7 654.2 646.9 642.8 638.8 635.1 636.4 639.6 640.5 641.6 641.9 640 633.2 623 614 601.4 593.2 582.7 566 546.7 526.8 509.8 516.9 543 573.2 599.1 615.2 619.9 615.7 610.8 607.5 605.8 598.3 585.3 577.2 569.4 562.1 554.6 549.5 544.8 540.3 536.5 532.3 526.6 520.2 529.7 542.7 557.8 578.7 604 629.1 651 674.4 685.2 697.2 703 705.6 702.9 692.1 689.5 687.9 686.9 682.4 675.1 668 666.5 661.3 650.2 634.8 625.2 619.6 611.9 592.6 581.4 585.5 584.5 579 564.2 570.3 580.9 588 598.3 609.1 616.6 623.1 627.1 627.4 625.1 622.8 621.7 609.6 586.7 569.7 544.8 522 507.2 490.5 482.3 474.8 465.4 459.3 449.6 440.8 436.9 434.6 431.6 429.4 423.2 422.3 418.1 414 412.6 408.5 407 401.5 399.3 398.2 396.8 395.8 395.1 393.2 399.5 400.3 399.1 399.5 397.3 398.6 403 398.8 401.5 403.9 403.6 404.2 405.3 406.5 411.8 410.2 410.6 411.8 412.3
513.5 518.9 518.8 514.9 511.5 508.4 503.7 506.2 516.6 518.5 521.9 528.5 536.3 544.6 549.8 556.8 564.1 568.8 573.3 581 585.6 592.9 599 603.2 603.6 603.2 601.2 600 601.9 602.7 601.8 600 598.9 598.4 597.2 595.2 597.5 608 618.8 622.5 627.5 633 623.7 635.7 658.6 668.3 675.8 682.2 686.9 691 695.4 699.8 702 701.4 698.2 694.6 693.4 690.2 682.3 667.5 656.5 647.2 641.4 638.3 633.2 624.1 627.3 625.4 625.6 629.8 631.3 629.6 624.7 613.7 603.8 593.5 580.4 564.3 546.6 529.2 515.7 506.7 526.5 553.4 582.5 602.6 618.5 619.9 614.4 608.3 603.9 599.8 591.3 580.4 573.6 566.1 558.3 552.1 547 542.5 538.5 534.5 530.9 523.7 518.9 529.3 541.8 558.2 580.3 604.2 625.4 648.4 671.7 684 693.5 696.9 700.2 694.8 686.6 683.5 683.7 684.9 682.3 677.5 676.8 671.8 662.2 649.9 635.3 626.3 617.5 609.3 594.1 585 588 585.6 580.2 567.6 562.2 565.9 581.3 591.6 601.1 609.3 618.4 626 624.7 620.9 617.2 614.7 606.3 592.9 569.8 553.7 530.6 509.6 492.4 484.4 476.7 464.3 454.8 448.1 444.3 435 431 428.5 426.6 421.1 416.1 412.5 409 406.7 404.3 402.9 401.4 399.8 398.7 397.4 400 394.5 393.5 393.4 396 396.1 396.8 395.9 392.8 391 394.2 392.7 393.7 397.5 397.8 400.6 399.9 398.9 401.7 404.4 402.7 403.7
515.6 518.5 516.7 513 507.4 503.4 500.9 510 514.9 520.7 528.3 537.4 544.7 551.9 559.8 566.3 572.6 579 584.8 589.7 595.8 601.2 606.6 611.8 612.1 610.1 609.3 609.4 606 607.1 605.4 603.4 604.1 604.7 601.7 599.1 587.3 576.1 599.6 614.8 617.7 617.8 625.5 609.1 637.3 657.3 663.3 669.9 672.7 676.7 679.3 681.6 683.4 680.8 682.1 682.1 678.8 677.4 665.2 652.4 644.6 637.3 633.4 630.6 626.8 620.8 616.2 617.3 617.7 619.5 621.2 620.1 615.2 605.1 593 582.8 566.2 548.2 529.3 516.6 503 514.2 536.2 563.7 588.4 611 620.8 619.8 612.8 605.4 600.7 594.8 585.3 577.3 570.4 561.7 555.6 550.3 545.7 540.9 537.4 533.3 527.9 519.2 517.9 530.7 543 559.6 580.2 601.4 624.3 647.1 665.3 680.6 688.3 692.1 691.4 689.3 680.5 676.3 677.9 679.9 680.4 682.7 676.5 668 660.6 647.4 635 622.7 615.3 603 593.9 589.9 588.4 585.1 580.9 578.2 570.4 558.3 572.4 584 593 600.8 609.2 615.3 619 615.3 612.9 617 607.7 594.5 572.1 554.5 534.1 517 498.3 487 478.5 467.8 457.2 450.2 442.6 435.3 429.9 427 423 418 412.8 411.2 408.1 406.5 404.5 407.6 403.6 402.2 402.4 402.5 399.7 394.3 393.3 393 393.5 394 393.5 392.7 391.8 389.5 388 385.9 383.5 382.4 389.2 390.4 391.8 390.7 391.3 394.6 396.3 396.1
513.8 513.4 512.2 510 507.1 497.9 500.4 512.2 519.4 528.6 537.2 546.7 555.2 564 572.2 581.4 587.5 592.2 596 600.5 607.1 610.2 615.2 618.9 621.3 619.2 616.3 616.3 614.5 611.4 611.1 609.3 609.3 609.7 604.2 601.5 601.1 589.3 586.1 608.1 612.3 616.2 616.7 611.4 613.5 638 646.7 650.5 652.6 655.4 657.8 655.3 656.9 659.7 654.3 655.2 651.4 646.6 638.6 629.7 622 615.8 611.9 609.2 611.9 608.5 602.9 606.8 608.7 611.4 613.2 608.6 604.9 595.5 583.4 571.8 552.5 533.5 517 507.2 507 526.5 550.4 575 595.8 612.6 620.1 618.8 609.7 602 598.5 591.7 582.4 574.3 566.3 559.3 553.1 547.5 542.4 538.3 535.3 531.8 526.1 519.3 514.9 529.2 541.6 558.9 577.9 599.8 620.8 639.2 659.8 671.5 678.5 681.4 678.8 680.3 672.6 669.8 671.6 673.7 675.4 670.9 664.9 656.2 652.1 638.7 626.3 619 607.5 606.4 596.3 590.8 587.5 583.5 580.3 577.9 572.2 556.6 567 575.8 584.4 590.5 598.1 603.6 607.3 609.6 615.8 616.6 610.9 598.7 577 556.6 538 519.1 504 493.4 481.1 473.6 466.1 458.5 450.2 441.2 433.6 426.1 419.3 411 411 412 410.4 410 408.4 408.6 406.4 404.7 406.3 404.1 396.7 397.2 396.1 392.3 392 391.5 391.1 391.4 390.3 389.2 385.2 384.7 383.5 381.6 380.3 378.8 377 378.6 379 381.2 383.2 385.1
507.5 508.6 506.9 506.1 496.2 497.5 508 518.5 528.5 537.3 547.6 556.6 568.2 577.5 586.7 594.4 597.5 601.8 606 611.6 616.6 620.6 622.9 625.4 629.5 630.7 628.7 625.9 624.5 621.4 620.1 616.1 613.8 609.7 604.7 602 599.2 591.8 573.4 592.4 602 604.3 608.5 614.2 594.8 618.5 622.2 624.1 625 627.7 632.1 628.2 627.9 627.8 620.6 620.8 620.8 618.1 610.4 601.8 598.7 597 592.8 593.1 593.7 594.1 582.2 591.7 597.7 601.6 602.9 598.5 593.7 586.5 574.6 558.7 540.9 522.7 506.4 496 513 537.1 560.1 585.7 600.2 615.1 617.6 612.1 603.7 597.9 596.6 586.9 578.9 570.5 562.5 556.7 550.1 544.6 539.4 535.2 532.9 530.4 525 517.9 505.1 522.6 539.2 555.6 574.9 595.1 614 633.1 645.9 657.1 666.8 666 666.6 665.8 661.8 662 661.1 661.4 660.3 654.7 650.9 642.4 633.8 627.2 620.6 618.5 611.5 601.5 596.8 591.2 586.6 581.7 578.4 574.7 569.5 552.8 560.9 568.7 573.6 582 587 592.7 598.3 606.1 612.8 615 608.3 599.8 574.1 559.3 544.2 525.1 507.8 491.4 485.1 476 469.9 464.9 456.3 445.3 433.8 428.3 419.7 414 417.2 419.3 412.9 415.8 413.9 412.2 411.8 405.9 406.3 403.3 403.7 405.2 401.1 398.9 395 393 390.9 390.6 390.8 387.1 387.2 386 382.8 381.8 381.2 378.3 376.8 374.9 374.6 373.8 372.7 371.5
498.5 499.6 493.8 493.6 497.8 505.5 516.6 524.9 540.6 551.4 559.3 569.8 581.5 591.3 599.6 603.3 606.7 611.4 616.9 621.4 624.2 626.8 630 632.8 637.1 641.2 640.5 635.7 633 629.2 624.8 621.6 615.2 610.8 606.3 603.4 600.1 595.4 586.3 571.1 590 591.1 595.8 597.2 594.3 598.3 602.3 602.9 603.1 604.3 603.6 598.6 593.7 590.8 587.2 586.4 586.5 585.9 583.9 578.9 577.2 576.7 575.2 577 577.3 576.5 564.3 570.7 580.3 589.9 593 592.2 586.9 576.4 565.2 553.4 533.5 515.7 497.1 498.7 518.5 541.5 566.6 591.2 601.5 611.5 608.6 604.6 595.4 592.1 590.5 579.1 572.5 566.4 559.1 551.8 546.3 541.4 536.6 533.6 531.6 529.2 525.3 517.7 501.2 515.7 536.2 552.7 569.6 590.4 608 624.1 631.3 641.1 649.3 651.9 651.5 651.6 648.9 648.4 643.6 642.1 639.1 637.3 629.6 623.9 619.7 618.6 617.9 613.7 609.1 604.2 598.2 591.3 584.8 579.9 575.3 572.6 569.3 557.4 551.8 564 566.2 570.2 575.8 582.2 589.1 593.8 602.5 606.9 599 587.4 573 566.9 548.4 526.7 522.1 505.2 498.4 485.9 474.1 467.9 460.2 449.3 442.1 434.1 428.3 420.4 426.5 420 420.7 422 419.4 421.1 419.9 416.5 418 414.7 413.5 412.7 407.6 402.5 401.4 397.7 396.7 396.5 394.8 392.4 394 391.8 389.4 388.8 386.6 388.3 385.4 381.3 380.6 378.1 377.2 377.8
490.3 491.4 493.4 498.3 507.2 517.2 526.1 539.5 554.9 564.4 572.6 584 594.6 602.7 607.3 611.8 617.5 622.3 626.5 630.2 632.1 635.4 638.3 640 644.3 648.5 647.5 644.7 641.6 637.9 635.4 629.2 625.7 618.5 611.2 607.8 602.3 598 595.1 581.6 570.5 581 581.9 585.2 579.6 581.7 579.5 580.2 578.3 576.5 574.9 569 560 559.8 557 556 556.8 553.7 553.2 550.9 550.2 553.5 556.5 554.8 553.3 555.3 548 552 562.1 573.8 584.7 587 578.3 569.1 559.5 547.6 533.7 509.9 492.4 501.3 520.3 542.2 567.2 589.6 598.2 601.7 599.7 592.9 588.5 584.7 580.5 572.2 568.7 563.4 555.2 548.7 543.5 540.3 535.8 532.6 529.6 526.6 522.9 514.7 497 516.1 536 551.8 565.6 582.9 598.3 609.5 619.6 627.5 628.6 631.6 630.2 628.6 629.3 626.8 624.7 622.4 620.8 620.6 618.6 618 615.3 614.5 614 611.3 607.5 603.5 596 588.8 582.5 576.9 572.9 570.1 564.3 556.2 546.9 558.9 560.9 562.7 566.7 570.9 577.7 582.6 586.3 588.5 582.6 576.2 568.8 560.2 546.2 545.8 537.6 529.5 507.2 490.7 474 463.3 461.2 456.9 447.9 436.5 425.9 427.1 429.1 430.8 430.3 430.9 430.8 430.7 432.8 429.6 422.7 420.6 418.9 416.3 413.8 411.2 407.1 404.6 401.8 400.8 401.7 399.3 398.5 395.8 393.2 394.9 393.8 393.9 392.2 392 389.6 389.2 388.5 387.4
490.4 495.2 502.8 509.5 519.4 528.2 542.5 556.6 568.4 578.4 591.2 600.8 608.6 619.3 622.7 628.5 631.1 633.3 637.1 639.9 642.2 644.5 643.2 648.1 650.6 653.4 654 650.7 648.3 645.8 643.2 639.7 634.3 629.1 623.2 616.9 609.5 602.8 598.5 587.2 581.1 559.9 565.3 568 567.3 556.2 565.5 561.2 557.3 554.4 549.7 540.1 531.7 529.4 529.3 529.9 529.3 529 528.2 527 524.3 527.7 528.5 529.3 529 530 531.7 533.1 546.6 560.6 572.8 579.1 573.6 565.5 554.4 543.3 529.1 506 488.3 501.1 517.9 538.1 561.3 583.8 589.2 593.7 591.6 583.7 581.8 578.1 572.8 567.2 564.6 560.9 552.4 545.2 540.7 539.5 534.9 531 527 523.3 518.2 509 491.4 515.1 537.9 550 562 573.8 587.1 596.4 605.2 608.8 610.8 611.1 613.3 614.8 612.2 608.4 610.9 607.7 605.3 602.8 605.5 605.8 605.3 606.5 606 605.1 603.7 599.3 590.8 583.1 577.2 572.9 569.8 565.9 560.5 555.4 539.9 553.2 554.3 555.3 558.4 561.2 566.9 572.4 574.7 575.5 571.5 569 560.2 553.6 554.5 549.3 545.9 535.2 508.6 492.6 478.8 472.6 468.1 462.2 451.8 429.3 436.7 438.5 440.4 442 440.6 440.7 441.3 440.8 439.5 437.2 432.2 432.8 428.6 423.3 419.2 416.8 410.3 409.2 411 407.9 404.5 406.2 407.5 405.9 404.7 405.6 405.1 405 403.3 401 400 399.8 399.1 397.2
503.1 508.3 516.9 522.6 532.1 548.6 564.6 571.5 582.6 595.9 607.5 617.1 626.5 634 637.9 642 644.3 644.7 646.5 648.3 649.3 650.8 652.4 653.6 656.2 658 658.7 657.8 654.8 652.6 650.8 647.4 642 637.1 632.2 625.5 618.5 610.4 601.3 595.3 585.8 561.5 539.3 547.3 549.3 542.6 542.7 538.3 534.8 533.7 529.7 522.2 512.3 512.2 509.4 513.7 514.5 514.8 513.2 509.3 511.5 511 510.9 507.7 510.4 511.8 512.8 515.4 529.3 548.5 563.8 567 563.7 557.5 548 536.1 524.1 507.3 486.9 495.2 509 525.9 549.6 571.7 578.8 583.9 579.5 575.9 576.7 572.1 566.1 563 560.1 556.4 550.1 547.7 544.8 536.4 533.5 528.8 524.1 520.7 515.4 500.4 490 515 536 546.9 556.3 564.7 574.8 581.5 587.1 588 590.8 593 595.6 598.4 598 597.2 592 589.7 588.5 588.2 589.9 589.5 591.9 593.7 592.8 591.2 589 586.7 585 577.6 574.7 570.8 565.7 560.3 556.9 552.1 532.4 537.6 547.1 547.7 548 552.3 557.6 560.7 564.2 564.3 563.9 560.3 558.3 550.7 550.2 544.8 538.5 527 510.5 497.5 484.9 474.6 467.8 460.6 441.5 442.9 450.2 453.5 451.8 452.4 453.4 452.2 453 450.9 453.1 450.6 449.3 445.5 441.4 435.8 429.5 422.3 419.9 416.5 416.5 412 414.1 414.6 415.5 414.6 416.3 418.5 418.6 418 415.2 410.7 408.2 410.4 408 406.2
523.8 526.7 531.9 541 550.6 568.8 577.3 585.8 598.3 611.5 621.7 632.6 642.7 649.4 653.3 655.9 659.1 656.3 656 655.5 655.1 656.5 658.2 659.7 661.5 663 664.1 664.5 663.2 658.5 655.2 651.5 647.5 643.7 634.7 627.4 626.2 619.7 609.8 600.7 590.8 578.9 556.2 530.7 526.3 524.4 529.1 527.4 525.8 524.1 510.2 501.5 493.9 491.4 492.5 492.7 495.3 496.7 492.4 488.7 489.7 489.9 490.5 486 493.2 494.2 496.8 500.9 515.7 537.2 551.4 555.3 555.7 549.8 540.1 530.9 520.2 505.2 483 488.8 500.6 520.4 542.2 558.9 568.5 571.8 569.9 571.7 571.3 569.5 563.2 561.2 558.2 555.1 550.4 548.7 545.6 534 528.2 523.7 520.7 516.7 508.9 496.7 486.4 514.7 529.8 544.1 552.8 558.1 561 564.6 567.9 571.7 570.6 573.5 579.3 585.1 583.4 579.4 576.6 571.4 573.7 573.4 574 575.1 578.1 576.6 577.2 576.6 572.8 576.1 574.1 571.3 569.4 564 558.6 554.2 550.4 542.6 530.1 523.8 536.2 538.5 539.7 545.4 547.2 549.3 551.3 555.9 556.4 552.4 550.9 546.1 544.4 540.6 534.9 524.6 514.6 505.9 495.9 479.5 468.9 452.4 433.5 451.5 458.7 461.1 468.2 466.9 469.7 470.5 469.3 466 465.7 465.5 461.6 456.3 451.3 445.9 438 432.6 429.7 426.2 423.7 423 421.5 419.5 426.2 431.1 433.4 434.9 434.1 432.2 428 424.9 419.3 418 415.8 413.2
541.3 543.8 551 560.4 569.4 579.2 589 600.7 610.1 622.2 633.9 644 654.7 661.6 665.4 668.4 671.4 668.9 666.9 663.3 660.4 661.4 662.9 662.9 665.4 667.9 668.8 668.9 667.7 664.1 659.4 656.1 652 646.3 639.1 636 630.9 625.9 617.2 608.8 600.6 589 571.2 553.2 526.4 512.5 501.1 513.8 513.5 500.6 495.8 485.5 481.8 478.5 477.5 475 474.8 472.2 472 472.1 472 470.1 468.8 469 468.8 471.7 476.4 482.6 500.9 521.4 540.5 550.1 549.9 548.3 541.2 526.6 517.7 507.5 489.6 481.3 496.5 515.3 533.5 548.4 557.5 562.9 563.1 569.1 570.1 566.3 562.4 560.2 554 549.7 550.2 544.1 538.3 528.3 524.3 520 514.8 509.4 500.5 489.9 485.8 512.2 526.8 540.4 549.1 550.9 551.5 552.5 556.1 556.7 556.7 558.7 564.6 566.9 568.1 565 560.3 558.4 560.7 560.8 560.7 563.9 562 563.4 563.3 563 562.2 561.4 561.3 564.4 557.4 556.6 551.5 546.6 541.8 538.1 527.3 528.4 518.2 526.3 527.5 530 538.3 539 544.2 544.3 542.9 541 539.2 536.7 537.2 536.7 533.7 525.4 518.2 511.3 499.9 479.8 457.3 437.9 449.1 465.6 470.7 477.7 482.9 481.9 487.2 488.2 485.1 477.2 474.9 475.6 471.3 465.7 460 455.6 448.6 442.5 437.4 435.8 435.4 432.6 425 429.2 439.2 446.1 447 449 447.7 445.8 442.3 437.7 433 428.2 423.6 422
554.5 558.6 565.9 576.8 587.1 592.4 600.7 610.3 622.5 631.2 643.1 654 662.8 670.3 676.5 682.5 682.1 679 679.2 675.4 670.8 668 667.4 668.7 669.9 672 672.9 673 671.8 668.1 664.5 660.5 654.1 649.2 646.1 640.8 634.6 629.4 622.6 614 605.1 593.4 580.8 562.5 553.9 539.8 525.3 508.8 494 490.1 496.8 500.1 505.4 504.8 504.6 499.9 497.1 490.8 487.8 485.9 480.5 472.7 471.9 468 467 458.1 456.2 457 480.1 503.1 522.9 541 551.3 553.2 539.3 521.7 509.2 503.4 492.3 475.5 492 508 526.6 540.8 544.3 549.8 556.1 565.7 568.3 561 558.6 556.5 555.2 550.7 544.8 538.1 531.5 523.1 518.1 514.5 508.6 501.4 493.7 487.6 484.1 508.3 523.9 536.6 544.6 547.7 548.7 546.8 546.9 547.2 545.2 547.8 552.6 554.6 556.4 552.5 550.1 548.7 548.7 548.2 549 552.3 552.9 553.1 551.6 553.6 551.1 550.8 551.8 553.1 551.8 554.1 544.4 539.4 530.5 530.2 525.9 521.2 518.1 512.6 513.7 520.1 525.5 528.5 529 526.1 527.1 525.2 524.5 526.6 525.1 525.6 531.5 524.4 516.6 510.8 498.1 470.9 442.7 443.4 465.5 477.2 484.5 495.5 501.5 499.5 497.3 492.9 490.7 488.1 494.5 493 482.4 472.3 466.8 460.5 456.6 450.3 446.7 444.3 443.5 441.3 434.6 442.9 454.3 464.8 466.5 462.5 459.3 457.6 454.4 451.3 450.2 441.7 434.7 429.8
568.9 577.3 584.9 591.5 598.9 601.8 609.7 618.1 629.8 639.1 649.7 660.1 668.8 676.6 685.2 691.3 692.4 689.3 687.5 684.5 681.8 677.9 677.7 674.5 673.5 675 676 676.8 675.7 672.9 669.1 664.5 659.1 656 650.6 646.6 643.2 636.6 626.5 621 610.5 602.9 591.6 581.4 571.4 562.4 551.2 534.2 519.7 529.1 521.6 525.4 528.1 523.9 521.6 521.5 518.1 514.1 511.1 508.8 504.4 498.3 496.9 493.2 488.5 479.3 470.6 450 458.5 481.5 506.5 525.3 543.2 547 530.4 518.8 510.2 503.8 492.2 471 485.4 502.1 518.7 527.3 531.3 538.6 548.8 560.5 564.3 557.7 555.2 556.9 558.1 549.1 541.4 532.6 525.3 518.4 513.3 508.2 501.7 497.3 489.2 478.6 483.8 503.4 519.5 531.5 539.2 538.8 543 540.9 540.6 540.2 535.2 536.2 542.2 544.6 544.7 544.5 542.6 540.7 541.8 541.1 538.8 541.2 543.8 544 541.2 540.9 540.6 539.6 542.6 539.4 540.9 537.8 532.6 529.6 523.1 522.1 517.3 513.4 508.8 505.2 503.1 507.8 513.4 519.9 519.4 518.5 516.6 518.5 515.6 517.4 520.7 517.5 521.6 515.7 507.3 502 497.2 471.9 446.2 472.8 485.4 495.6 498 506.6 505.5 503.5 500.8 498.6 497.3 495.9 496 491.4 486.8 484 483 475 467.2 460.2 455.7 450.6 450.6 448.1 449.8 460.3 476.8 484.1 482.3 477.2 473.1 471.3 467.6 462.4 459.6 455.6 447.5 443.7
583.6 590.5 598.7 600.9 604.4 609.8 615.9 625.5 634.2 644 654.1 663.2 673.3 682.3 690.2 699.5 699.3 698.6 694.4 691.9 688.1 685.5 684.9 683.9 681.7 678.7 679.7 680.3 678.6 676 673.4 668.5 667.4 662.2 658.3 653.2 650 645.2 640 633 624.2 616.4 607.8 600 591.9 581.8 570.8 560.5 555.1 558.9 553.8 555.1 554.6 551 546.4 542.7 538.9 536.3 529.9 525.9 521.9 515.6 508.2 503.4 496.7 486.7 485 475.7 446.2 460.1 483.2 505.3 516.8 517.3 514.1 508.9 503.6 498.9 491.4 467.1 483.5 496.5 504.6 512.1 517.5 526.4 538.8 550.1 549.5 549.8 551.7 554.8 552.3 545.8 536.3 526 519.1 514 508 502.5 497.2 492.3 485.9 465.1 482.8 500.4 515.5 525.1 530.5 530.3 536.1 539.4 538.3 535.4 527.5 526.8 534.6 534.3 534.4 534 531.2 533.2 536 537.2 536.7 536.8 531.4 527 532.8 532.6 530.8 527.5 529.1 527.5 527.2 525.3 521.8 519.2 515.1 512.8 509.4 506.5 504 501.7 498.3 501.9 507.5 511.4 508.8 506.4 502.2 502.8 503.4 508.1 508.7 511 511.6 508.2 506.3 498.2 486.5 479 474.8 495.4 508.4 508.1 506.5 508 508 507.7 506.4 506.7 507 507.4 509.2 508.4 505.3 503 497.6 489.7 482.1 470.3 463.7 461.4 459 460.4 464.4 474.3 489.3 495.3 495 493.4 487.2 483.1 483 476.8 473.7 466.7 459.7 458.8
595.7 601.4 602.8 606.2 608.7 616.2 621 630.5 637.4 644.4 655.6 665.8 675.6 684.7 693 703.5 704.5 702.5 703.7 702.5 697.6 692.8 689.9 688.9 687.8 684.8 683.2 682.8 680.9 678.5 674.4 674.3 671.3 670.8 666 663.9 657.8 654.6 650.3 646.6 641.4 633.6 628.2 621.8 612.9 606.2 593.8 583.2 586.2 586.8 582.3 582.1 578.4 575 570.3 565.5 560 554.4 549.2 541.8 535.6 526 520.5 514.3 504.4 492.9 486.1 478.8 460.7 444.4 462.8 486 490.7 497.2 493.6 491.9 490.4 487.5 480.3 469.6 472.6 488 493.5 501.3 506.5 515.9 528 536.1 533.9 544.6 548.4 552.5 547.8 541.7 529.4 518.3 509.6 506.1 502.5 498.2 493.2 486.6 479.8 462 480.8 497.8 509 518 519.7 523.9 525.2 524.2 521.3 518 519.6 519.1 524.6 523.1 523.3 523.6 529.1 530 539.1 540.4 543 544.9 542.1 535.1 517.7 522.4 514.9 516.7 515.2 514.9 513.2 514.1 511.3 508.9 507.1 504.3 502.5 500.4 497.2 497.1 493.3 498.3 501.8 503.6 503.8 502.1 499.4 497.5 495.7 495.3 496.3 498.1 498.9 497.7 493.9 491.8 493.6 486.5 507.7 513.2 523.4 516.5 514 515 517.5 523.3 528.2 526 525.4 526.7 533.1 530.1 524.8 519.6 512.1 502.2 492.6 480.2 475.6 477.4 471.7 473.6 481.9 493.7 502.7 509.6 516.4 516.5 508.1 499.8 495.7 491.5 490.1 482.6 470.1 464
604.1 606.2 605.1 611.7 611.8 619.5 623.7 631.6 637.9 644.8 653.9 664.5 674.6 684.3 694.3 704.5 710.2 711.6 712.1 710 706.3 700.1 696.6 693.8 692.1 689.1 687.5 685.5 681.5 680 677.7 676.6 676.1 674.6 673.1 671.3 668.2 664.9 660.9 659.1 655.7 652.3 649.8 643.8 637.1 631.5 622 615.1 617.1 612 607.3 606 602.8 599.4 595.4 589.5 583 575.7 568.3 562.1 551.9 542.1 537.5 526.8 513.9 499.8 493.8 485.2 466.9 441.9 454.1 464.4 474.4 474.1 473.9 474.3 474.5 473.3 466.1 461.5 461.4 473 480.6 487.5 496.3 504.5 514.8 521.6 524.1 537.8 544.9 546.4 542.3 535.5 522.7 512.3 497.4 496.3 494.4 490.6 484.5 479.5 473.4 456.4 478.5 494.1 502.6 509.1 510 512.4 512.9 510.9 510.3 511.3 513.3 515.9 518.3 519.2 517.8 523.4 527.1 535.4 542 545.3 549.2 550.8 547.5 539.3 531.5 519.5 507.3 504.8 502.2 500.6 504.1 503.7 504.5 501.7 499.6 498.1 495.3 493.1 490.4 493.9 492.4 496.7 498 498.1 497.7 495.2 492.5 491.5 491.9 489.1 488 487.8 485.2 487.2 493 497.6 499.9 514.3 520.2 525.4 527.2 530.9 531.7 538.6 551 550.2 556 549.9 549.2 557.4 554.5 547.2 541.5 537.1 531.5 524.1 513.4 505.3 499.5 494.3 485.7 488.7 495.2 505.7 520.5 533.3 538.6 536.8 523.7 513.6 506.7 500.9 496.9 489.6 476.4 469.8
610.2 611.3 609.2 615.4 617.5 618.7 625.2 628.2 637.3 642 652.2 662.7 672.3 682.2 692.4 701.7 712.3 718.9 720.5 719.9 717.6 713.6 706.4 703.3 699.3 696.4 694 690.4 686.1 682.1 681.2 681.3 679.7 678 676 674.8 675.3 671.8 671 668.9 667.7 666.1 669.1 667 660.2 654.1 651.6 644.2 640.8 633.2 632.3 630.8 625.9 622.7 617.2 612 603.5 595.1 588.3 581.4 571.3 558 548.2 534.7 522.1 509.4 497.7 489.8 471.9 443.5 449.6 452.7 457.3 464 464.3 462.2 461.8 460.5 459.1 457.2 453.3 460.2 467.1 472.1 483.4 495.1 502.9 507.6 513.9 528.1 536.3 539.1 533.2 522.7 511.9 504.3 495.1 486 483.9 480.4 476.6 471.6 465.3 451.6 481.3 489.4 496 500.6 503 503.3 503 503.7 503.5 504.9 508.7 513.4 517.1 514.4 513.3 525.1 531.4 539.6 545.8 550.7 555.1 557.1 556.7 548.2 537.7 530.6 522.5 515.2 508.8 500.6 497.7 499.2 498.5 497.4 494.6 491.5 489 486.6 484.8 484.5 484.4 492.6 493.8 492.7 490.3 488.6 488.1 484.6 483.7 481.7 478.6 477.5 479.1 485.2 493.1 501.4 517.3 525.2 526.5 536.1 541.8 551.4 558.6 568.9 568.8 571.9 572 569.3 567.3 574.9 574.6 562.5 569.8 569.9 554.7 540.3 536.5 525.6 521.4 517.6 506.5 506.1 507.6 516.1 535.6 544 543 545.9 537.5 524.9 517.6 508.5 502.5 497.7 488.4 473.5
614.4 614.5 611.9 616.3 618.9 619.4 621 627.7 632 639.5 644.9 657.5 667.5 679.3 688.6 698.3 710 720.9 726.6 727.7 728.3 723.4 718.2 713.3 710.6 706.4 701.5 696.6 691.7 689.9 687.4 683.4 683.8 683.3 680.1 681.1 680 678.8 678.1 678.8 677.4 679.2 681 680.6 679.1 675.3 671.3 665.6 664.5 658.5 653.4 649.8 646 640.9 636.1 630.7 623.8 612.5 604.1 595.4 585.7 576.6 560.8 549.1 536.6 520.9 507.8 493.2 477.9 460.4 441 436.9 442.7 451.5 456.8 455.5 454.4 453.4 453 450.7 445.3 450.5 453.3 457.3 467.2 479.1 485.5 489.7 500.1 515 524 526 517.4 506.5 500.9 493.8 486 478.7 472 467.7 466.3 463.7 455.5 450.6 474 484.8 490.9 494.2 496.4 497.2 497.6 499.9 500.4 503 508.3 501.7 502.6 504 517.7 527.7 534.5 543.2 551.2 556.9 562.6 565.7 561.4 550.7 543.2 536.1 527.2 520.3 509.9 502.1 494.9 494.6 494.6 491.6 488.3 485.7 484.8 482.3 480.5 479.8 481.3 481.4 485.5 485.1 482.7 480.2 479 477 475.9 474.6 473.2 472.4 475.9 486.2 495.5 509 522.7 528.1 536.9 545.7 556.9 569.4 582.4 587.5 593.2 600.5 603.3 592.1 592.6 592.6 589.3 582.3 582.4 570.9 562.5 560.2 553.4 554.2 555 543 532 520 519.7 528.3 546.2 554.7 556.1 556.9 549.1 535.4 528.1 519.9 506.2 500.1 494.8 485.7
616 614.7 614.5 615.7 617.5 619.5 621.4 623 629.2 632.9 643 651.6 663.7 673.8 685 694.1 705.6 718.4 727 732.3 733.2 729.4 725.6 721.3 716.6 712.3 708 703.2 699.3 694.3 691.8 689.8 689.4 685.9 688.6 687.6 687.1 684.5 685 685.5 687.7 689.4 689.6 690.8 690.1 687.7 685.4 683.2 678.7 675.9 671.7 665.9 661.8 656.3 649.4 643.3 637.4 629.3 620.5 611 599.3 585 573 560 546.2 532.8 517 503.9 492.6 478.5 467.1 453.6 437.8 434.9 444.1 449.2 448.6 446.8 446 445.7 442.9 443.9 439.6 443.4 453.1 460.8 468.9 474.3 485.4 500.2 503.9 505 498.8 490.6 487.5 481.6 476.6 471.5 464.4 458.8 457.6 457.7 441.5 456.4 469.5 479.5 486.2 488.2 490.1 490.8 492.3 494.6 497.1 498.1 507.7 497.9 492.9 502.4 518.8 528.1 536.8 546.3 554.3 561.4 565.6 567.3 561 557 553.1 547.9 536.5 524.7 512.7 501.6 495.6 492.3 488.4 484.4 482.1 480.5 479 477.5 476.8 475.7 476 475.6 475.9 475.5 474.1 473.1 472.6 472.5 471.5 470.3 469 469.8 475 485.3 499.2 514.3 525 530.8 541.6 555.5 569.5 584.9 602.3 610.9 613.8 613.1 610.7 599.1 603.8 599.6 590 586.3 580.9 576.6 569.1 569.3 565.3 565 562.3 551.9 548.8 541.2 532.4 535.8 545.9 554.8 563.6 571.3 554.5 544.2 540 526.5 513.1 510.5 506.7 488.3
614.2 613 611.7 612.9 614.5 615.8 618.7 621.4 624.2 626.8 637.2 646.6 657 669 680.2 690.1 702 713.5 723.6 729.3 731.5 732.4 730 725.8 722.9 719.3 714.8 710.2 706.9 702.7 700.4 698 696 695.7 693.4 695.1 693.8 693.2 692.2 692.9 695.7 698.1 699.2 698.3 699.5 699.3 697.4 695.9 692.2 687.9 685.4 680 675.9 672.8 667.9 660.6 653.2 647.5 636.4 624.6 613.9 602.8 587 572.8 560 544.6 532.1 519.1 507.5 496.6 482.9 471.1 457.8 449.4 432.8 440.2 446.5 447.5 444.6 442.1 439.2 436.3 432.1 434.4 438.8 444.5 451 459 466.3 479.5 484 484.3 481.3 475 474.9 470.8 466 461.7 457.8 454.6 452.2 453.6 436.1 455.8 466.9 475.1 479.6 482.4 483.9 485.9 488.2 489.4 490.9 492.5 497.1 493.4 486 493.1 514.2 527 535.7 545.1 555.6 560.8 563.4 563.9 564.6 569.7 565.9 551.6 536.7 524.9 512.6 501.7 496.5 493.1 489.6 485.5 481.2 477.8 476 474.4 473 471 471 470.3 470.2 469 468.3 468.4 467.8 467.4 466.2 465.7 465.8 467.7 474.6 490.1 501.6 511.9 522.8 531 542 559.3 571.3 589.8 608.2 607 601.8 606.4 599.6 595 592.7 592.1 591.3 587.5 578.4 574.6 577.9 577.4 575.1 577.2 577.4 571.5 563.5 551.5 546.1 543.8 548.3 556.6 561.9 560.3 555.8 552.3 547 536.5 526.4 512.7 503 485.1
610.4 609.1 606.5 608.9 611.1 611.2 613.3 616.2 620.4 624.8 630 640.2 651.3 664.2 674.7 686.3 698.3 709.5 720.7 728.3 732.8 732.9 731.7 732.4 728.7 725.9 721.4 717.8 713.4 712 709.3 705.8 702.4 702.9 701.6 702.2 702.3 702.6 700.7 700.8 703.2 705.8 706.4 707.1 708.4 709.2 709.1 705.7 703.4 698 698.2 694.5 691.8 686 681.8 677.3 669.2 663.6 654.1 643.1 632.3 619.6 606.9 591.7 577.6 562.8 548.7 535.4 521.6 508.1 496.9 486.3 476.3 463.6 456 432.3 439.9 439.8 437.9 435.8 434.2 431.1 427.7 429.3 426.7 432 435.9 438.3 446.9 457.5 464.1 465 467.9 463.5 461.2 460.6 459.1 456 453.6 450.1 449.2 450.6 431.6 456.5 463.7 469.6 473.4 475.4 477.5 479.7 484 482.7 484.1 488.8 491.1 495.9 487.3 493 512.6 521.8 532.5 541.4 552.3 556.8 559.8 563 569 571 558.1 548.7 536.2 526.4 517.6 508.2 500.1 492.8 489.6 485.2 480.8 477.2 475 472.1 470.1 468.8 465.3 466 465.1 464.1 464.1 464.5 463.4 462.6 462.2 461.8 463.4 467.4 476.6 490.4 500.4 511 521.1 532 543.2 553.6 568.2 586.5 597.8 596.4 595.2 596.3 593.1 585.3 584.8 586.2 585.5 574 570.7 574.4 577.3 579.9 584 583.8 581.9 582 582 573.6 559.8 555.5 555.3 558.8 564.5 569.1 568 563.8 556.3 550.7 533.7 520.5 501.8 486.4
605.2 602.4 600.5 605.7 607.6 607.1 608.5 611.3 615.6 619.6 626.2 634.2 647 658.9 671.5 681.7 692.1 705.8 715.9 725.6 731.3 732.9 734.7 735.7 732.8 727.9 724.3 719.7 718.9 718.8 716.9 714 709.7 711 709.9 711.6 710.9 712.4 711.1 708.3 711.2 713.2 713.9 715.3 716.9 717.4 715.8 715.3 713.5 711.3 709.8 706.2 701.3 696.9 691.2 687.1 681.1 676.1 668.5 660.3 651.4 639.9 626.5 612.1 598.7 584.3 570.2 555.7 539.9 524.1 510.2 498.9 491.2 480.3 470.9 450.3 428.5 437.1 435.1 434.2 432.1 428.7 423.6 428.3 425 424.6 427 429.9 430.9 438.7 443.8 447.5 451.2 451.8 451.8 452.9 449.2 447.2 443.6 443.4 444.8 446.9 426.3 449.9 457.1 463 466.3 469.7 471.7 474.2 476.3 478.1 481.7 483.9 485.8 491.2 486.5 488.8 508.8 517.9 525 536.7 545.3 552.5 557.6 564.5 566.7 556.9 554.8 548.2 542.7 533.5 523.3 514.5 506.5 500.3 494.3 488.7 484.2 479.5 475.1 471 467.9 465.6 461.8 462.3 461.6 460.9 461.1 461.2 460.4 458.2 458.4 459.1 462.4 468.8 477.9 488.9 499.8 508.2 518.3 528.3 539.9 551.1 564.9 577.8 582.4 587.4 585.7 581.5 575.9 576.8 572.3 571.7 568 562.7 565.1 568.6 572.7 581 587.8 587.3 587.2 588.8 584.9 576.1 564.5 559.7 559.9 564.3 571.9 578.7 582.8 577.3 572.4 563.5 546.1 527.4 507.7 487.8
599.5 596 594.3 599.2 602.8 601.9 603.7 605.9 608.8 615.4 620.9 630 643.3 653.7 667.2 677.8 689 700.3 710.6 718.8 727.2 732.6 734.4 734.1 732.4 726.8 723.6 724.8 726.5 724.2 723 719.8 716.7 716.3 716.2 718.2 718.8 719.4 718.9 716.9 718.7 719.9 721.3 722.8 723.3 724 724 723.8 722 720.2 718.7 715 711.5 705.6 703.2 698.1 692.8 688.4 683.4 675.4 666.3 657.5 646.5 634.3 621 606.6 590.9 576.4 558.7 542.7 529 514.9 503.3 494.8 483.5 469.2 450.3 435.2 426.5 422.2 421.3 420.6 421.2 419.5 417.1 419.4 416.8 421.4 426.3 425.3 425.6 429 432.3 435.3 436.9 436 434.5 434.9 434.8 436.3 437.9 443.4 425 433.2 451.1 457.5 461.5 463.1 467.8 469.5 470.2 473 475.9 477.8 481 484 485.7 486.3 504 511.7 520.7 531 540.3 548.3 555.8 560.9 555.1 553.4 553.6 550.7 544.1 538.1 530.3 522.3 515 509.5 503.6 496.1 487.6 481.3 475.3 470.6 467 463.9 458.6 457.2 457.8 458.1 458 457.7 456.5 454.6 455.5 458.4 464 469.8 478.5 489.1 497.8 507.3 515.9 525.1 534 546.8 560 572 574.7 574.9 572.6 566.2 566.5 566.6 561.7 557.6 557.2 557.8 561.4 564.8 568 576.6 581.1 584 584.8 581 575 569.9 565.7 563.4 563 570.7 578.5 584.8 583.6 578.7 577.6 572.7 552.8 543.4 515.9 491.9
593 588.1 589.3 591.6 595.3 595 597.4 601.7 604.2 612 617.7 626.8 638.6 651.6 663.4 674 685.1 696.6 707.6 715.5 720.3 726.2 732.7 732.5 729.7 726.1 722.5 726.4 727.4 725.8 725.5 724.3 721.3 721.7 722.2 724.2 727.3 728.2 728.4 727.3 727.6 728.3 731.8 733.7 733.2 733.5 733.8 734.4 735.6 730.4 727.1 724.7 721.4 716.5 711.8 709.9 705.7 699.8 695.1 690.4 682.6 675.6 665.9 657.3 644.4 630.9 612.6 596.3 581 564.4 550.1 533.9 517.5 505.5 493.9 485.2 471.7 451.8 446.8 436.8 430.4 425.5 423.5 418.3 416.2 414.5 412.4 411 412.7 419.6 417.9 417.4 417.7 418.4 421.1 421 420.6 420.8 420.6 422.9 427 435.8 420.2 427.3 447.2 453.2 455 457.3 460.7 462.2 463.4 467 470.5 472.8 474.2 476.9 482.2 480.6 496.5 503.6 512.4 521.7 531.5 541.5 548.7 549.8 548.9 552.3 556.1 556.8 550 541.2 536 533.3 527.7 519.6 509.5 498.8 489.7 482.8 477 471.5 467 463.1 459.7 456.2 452 452.9 452.8 452.3 452 451.7 454.4 458.2 463.8 470.5 479 487.6 496.3 505.6 513.4 522.4 532 543.2 554.2 563 565.7 560.7 558.1 556.8 559.1 557.7 552 552.4 552.2 553.1 556.2 559 561 567 571.7 577 577 575.2 571.7 571.2 568.6 564.8 563.1 568.4 574.5 578.5 583.2 577.2 573.8 560.7 541.7 529.1 516.6 508.5
588.9 584.7 581.4 583 583.2 588.2 591.4 595.1 601.6 608.9 614.3 624.6 635.2 649.5 658.8 673.1 682.8 694 702.2 709.9 716.3 719.7 724.2 727.9 726.2 723.4 721.6 724.5 725.6 725 725 724.6 724.5 724.1 725.8 730.5 734.5 737 737.7 736.3 737 737.1 739.9 745.2 744.5 746.4 748.3 744.7 742 741.4 736 734.4 732.5 729.1 725.7 720.6 717.5 710 707.4 702.7 695.8 688.7 680.1 674.1 663.4 652.2 638 620.4 604.1 587.9 571 554.4 537.2 522.6 510.7 501.6 491.1 480.7 467.7 452.7 449.1 442.5 435.1 429.6 429.7 435.5 438.5 427.4 415.2 408 409.6 412 412.5 412 411.7 410.6 409.9 409.4 409.6 408 408.3 412.4 410.6 425.1 443.9 445.2 447.2 448.5 452.3 453.4 455.3 459 462.9 465.9 469.5 472.4 477.8 471 491.5 497.5 503.8 512 521.4 531.1 537.3 540.1 541.3 545.5 551.3 553.3 550 545 548.1 545.9 532 520.9 510.2 497.6 489 482.8 476.7 469.6 463.2 460.8 457.6 453.7 448.1 448.4 447.5 447.3 448.6 450.4 452.1 456.1 463.3 470.6 476.7 485.5 494.8 502.4 510.9 518.9 528 538.5 548.7 556.8 556.1 552.8 552.4 548.7 548 545.6 545.8 548.5 547.8 548.8 551.7 556 556.9 560.5 565.8 567.5 567.5 569.7 569.7 569.5 568.2 567.6 566.6 568.1 572.8 574.9 576 571.8 567 556.6 553.1 538.5 536.1 530.8
583.9 582.1 576.7 572.9 576.6 580.1 584.4 590.8 599.3 605.9 611.5 623.1 635.1 648 660.7 671.1 680.9 690.3 698.2 704.7 710.3 712.4 715.1 717.9 718.8 719.4 719.8 721.5 723.5 723.5 723.8 724.4 725.3 727.2 732.1 736.1 737.9 741.1 743.1 743.5 744.3 745 744.5 750.7 753.1 760.2 762.7 759.3 753 750.9 747.6 745.2 742.4 740.7 735.8 731.1 727.7 722.7 721 714.9 706.4 700.3 693.5 687.6 680.5 671.2 658.8 643.7 629 610.4 596 575.4 559.4 541.2 527.4 517.1 507.6 497.9 486.6 476.9 471.1 461.7 451.4 446.3 437.4 442.9 440.2 435.7 430.3 418.9 407.4 405.3 406.2 404.8 403.7 407.3 406 406 404.5 402.6 402.6 405.6 406.1 415.7 428.2 430.5 436.8 440.3 443.5 445.4 448.5 450.1 452.5 458 462.5 467.7 463.4 475.4 489.2 489.5 495 502.7 509.7 516.6 523.5 526.8 530.3 535.8 541.8 545.3 546.5 547.7 546.3 540.6 528.2 516.8 503.8 494.8 485.4 478.8 471.1 464 461.9 459 453.8 449.9 444.6 445 444.8 445 445.2 446 448 453.7 461.8 468.1 475 483 491.2 498.9 506.1 513.9 523.5 532.2 542.7 548.5 548.8 546.7 543.7 538.9 536.3 535.7 537.1 541.1 544.6 545.1 545.9 547.7 550.8 555.1 559.7 561.8 563.7 567 568.2 567.2 570.3 567.6 566.1 567 569.6 568.8 564.5 560.6 549.6 544.2 541.7 545.1 544.3 540.7
583 580.9 573.1 570.3 572.7 576.4 581 586.8 596.3 603.7 611.2 621.1 635 647.1 659.3 667.1 676.3 684.3 690.4 695.5 702 705.6 708.5 710.6 713.1 713.9 714.8 717.4 720.4 722 723.4 723.9 725.6 729.2 731.6 736.4 740.3 742.5 744.8 747.8 749.7 748.4 750.2 754.2 760.2 763.9 767.9 770.7 770 768.5 764.2 761.5 759.9 753 747.2 742.9 737.4 734 732.6 725.1 715.4 706.9 702 697 688.4 683 672.5 662 650.2 635.5 616.5 598.9 582.1 565.1 546.6 531.7 522.8 510.9 499.9 491.5 484.2 476.7 470.8 463.7 455 456 450.7 447.8 443 436.3 426 415.5 405.3 403.2 403.9 402.2 401.1 399.8 399.2 398.2 399.9 402.2 402.6 403.7 411.7 417.9 424.7 430.5 434.5 436.4 439.5 439 442.1 449.5 455.9 460.5 454.7 469.3 475.6 482 487.8 494.5 498.8 503.9 509.3 512.7 516.3 522.2 528.2 534.7 539.6 540.9 539.2 532.5 519.4 507.6 497.9 486.8 478.6 472.8 468.9 466.1 461.5 454.9 447.5 444.4 442.7 440.2 443.4 442.9 441.8 441.7 445 449.4 457.9 465.8 472.3 478.8 486.8 493 499.5 508.2 517 525.6 532.7 541.8 542.6 539.6 538.4 533.2 530 528.6 532.8 543.3 544.2 540.5 541.2 539.5 541.4 547 551.6 555.3 556.8 555.6 558.5 560.6 568.5 563.6 563.2 563.9 562.2 560.6 556.9 544.1 533.1 526.7 528.8 528.9 535.6 541.5
582 579 571.2 568.6 569.8 573.7 578.4 585.4 594.4 602.5 611.3 620.8 633.5 644.3 655.4 664.2 670.6 677.3 682.4 686.5 692.1 695.1 698.5 700.2 702.1 704.7 707.5 709.6 712.1 714.6 716.9 718.8 721 724.3 728.3 732.7 736.4 741 745.6 750 751.9 749.1 753.1 757.8 762 766.6 773.8 778.2 781.4 781.4 777.1 779.7 776 768.9 762.9 758.6 753.2 744.5 736.3 729.5 721.6 713.3 708.8 703 695.7 690.8 683.6 673.2 665.1 654.2 638.3 622.5 600.7 582.9 561.2 548.6 535.6 522.4 513.3 499.1 491.2 491.2 486.9 483.1 471 468.7 463.7 459.2 454.2 449 443.3 435.7 425.1 422.5 423.6 418.3 415.4 411.4 406.6 401.4 396.9 398.6 397.5 396 400.5 406.3 411.9 419 424.4 429.1 431.1 431.9 429.2 434.7 446 453.5 452.8 460.9 470.7 475.1 479.3 483.4 488.7 493.7 496.7 499.8 502.1 504.3 509.3 516.3 524 527.6 527.3 516.1 504.4 494.2 484.5 480 475.7 473.8 466.3 460.1 451.9 446 443 440.8 440.3 435.1 440.9 440.1 438.9 438.9 440.9 445.3 454.7 463 468.6 473.9 480.2 487.1 495.4 503.2 511.1 518.7 527 536.3 543.2 540.7 535.1 529.2 525.5 525.4 531.3 533.9 533.1 530.2 529.4 530.6 529.4 528.9 532 533 535.9 533.4 541.6 539.5 550.7 547.5 548.1 547.3 548.4 550 545.6 530 519.8 515.8 515.8 517.7 521.8 528.9
578 575 563.9 565.9 567.4 571.7 577.4 584.2 592 601.1 612.2 622.1 633.7 643.9 652.7 662 670.7 673.6 674.6 675.5 679.1 682.8 683.7 689.8 691.5 692.7 695.6 699.2 702.5 705.7 708 710.5 714.3 717.6 722.6 727.1 731.6 737.8 743.2 748.5 750.2 751.6 753.9 757.4 763.4 770.6 778.3 784.8 787 788.1 791.8 793.3 788.7 775.4 775.9 775.9 770.7 762.3 750.9 740 734.5 724.7 717.3 711.5 704.1 697.4 690.2 681.7 674.9 664.3 651.5 631.7 611 590.8 573.6 557.3 543.9 535.3 521.6 511.2 505 499.7 494.2 488.8 485.9 480.1 474.5 469.3 464.6 461.3 456.5 451 446.2 442.9 442.1 438.4 437.2 432.9 428.5 423.8 419.6 409.3 397.3 392.1 388.7 395.7 401 406.5 414.6 422.5 424.7 424.6 421.6 421.6 435.1 446.7 441.8 449.3 461.7 466.1 468.6 471.5 476.2 481.8 486 488 488.8 491.1 494.7 498.5 503.3 507.4 506.6 497.4 489.7 480.4 478.3 475.4 477.1 465.7 456.6 451 446.2 441.2 438.7 436.7 437.3 432 436 436.1 435.8 436.5 438.7 444.9 451.3 458.6 463.9 468.4 473.2 481.7 489.7 498.5 505.8 514.9 522.4 528 532.9 530.6 528.1 525 520.7 522.4 525.1 526.4 524.3 520.4 519 516.8 515.7 513.3 513.6 517.2 516.4 516.5 520.9 521.2 527.7 529.3 532.5 533.8 534.8 535.8 529.6 516.8 512.5 512.4 519.6 517.7 519.4 518.1
567 565.7 560.5 562.7 566.1 570.4 577 583 589.9 600.3 612.5 623.2 632.5 642 649 658.6 664.8 671 670.5 670.4 671.1 670 672.1 673.5 677 681.8 684.5 687.3 691.5 695 697.6 701.6 704.3 709.1 713.2 719 725.2 731.7 738.4 745 745.7 748.4 751 755.3 759.6 768 774.9 786.1 790.4 794.8 799.6 794.9 788.3 786.3 785 782.9 776.4 766.3 756 750.5 744.5 733.6 725.6 720.1 711.1 705.4 698 692.1 687.4 678.2 663 641.4 618.8 597.6 581.6 565.4 554.6 545.4 533.1 525.6 517.1 504.7 495.9 496.9 494.1 488.7 484.8 480.8 476.8 472.7 469.5 466.1 462.4 458.5 456.2 453.8 452.5 450.8 446.3 443.2 436.6 432.6 425.2 407.5 389.1 386.3 385.5 390.5 399.9 407.8 416.1 413.4 416.2 415.5 428.3 437.3 436.3 448.2 448.2 455.3 458.8 462 464.3 468.2 471.7 474.3 475.6 478 482.5 485.3 485.3 486.3 486.8 483 475.9 472.6 470.2 465.8 460.3 451.4 447.5 445.4 442.3 439.5 435.9 432.5 432.2 431.5 431 432.2 433.1 433.5 435.7 441.3 446 451.5 456.8 462.3 467.7 478.5 485.9 493.5 502.4 510.1 518.7 524.2 527.2 528.8 530.1 523.1 517.4 514 515.4 514.3 509.6 510.6 512.2 512 506.2 500 500.9 502.2 503.8 506.6 506.6 507.5 511.4 515.2 518.9 521.2 524.1 523.4 513.5 508.6 506.3 508 515.3 519.3 516.6 513
