ncols 200
nrows 87
xllcorner 150000
yllcorner 760600
cellsize 50
171.9 175.7 170.6 161.4 163.9 167.5 151.5 152.3 148.8 148.3 146.9 144.9 139.1 128.3 117.8 115.3 108.5 105.9 99.4 89.2 90.3 82.7 81.4 79.2 76.8 80.5 93.7 100.1 104.7 107.5 120.7 123.3 125.3 125 118 117.5 117.6 118.6 117.8 123.2 124.7 126.2 124.8 132 130.4 130.2 129.6 129.2 148.4 163.4 170.9 175.5 177.3 182.6 184.7 184.9 194.9 203.2 207 205 204.5 205.8 213.6 218.8 221.6 222 228.4 230 228.3 219.5 216.8 214.5 215.2 215.8 216 211.9 200.3 184.1 180.6 182.1 174.8 167.1 160.7 158.8 161.5 172.4 171.2 172 166.2 156.3 155.8 160 147.8 134.5 134.5 135.4 129.1 114 121.9 129.8 143.3 165.7 188.2 191.5 190.4 189.5 193.2 195.3 194.9 194.5 182.9 193.3 204.9 207.3 203.7 199.6 199.9 205.1 208.2 208.7 205.4 196 193.8 192 193.5 192 199.7 203.4 203.4 199.5 191.6 192.1 198.5 197.4 199.4 190.3 178.2 165.6 162.9 162.8 166.3 166.1 161.9 150.9 144.6 137 134.2 133.2 135.7 135.7 135.7 141.4 158.3 163.1 161.8 160.8 153.2 150.6 155.7 153.7 155.5 145.2 144.8 144.7 146.1 153.4 161.9 174.3 178 185.4 182.4 198.1 209 218 203.3 187.2 200.1 206.5 204.6 217.6 230.1 246.8 257.2 264 266.8 266.3 277.5 280.5 280.9 282.3 277.5 279.9 276.6 265.8 286.8 290.5 293.1 290.4 294.4 293.3
167.1 163.1 159.5 157.9 155.6 154.1 150.2 141.3 142.3 140.2 138.3 131.8 127 122.2 110.2 107.3 103.5 100.4 97.1 92.2 81.4 77.4 75.8 74.9 75.3 87.8 95.3 101.1 102.8 109.9 120.8 123.1 124.6 123.2 121.3 119.4 120.5 122.3 122.8 128.7 129.8 136.6 139.3 141.4 138 139.6 136.8 137.3 148.5 154.8 166 165.9 170 175.8 180.1 188.1 200.5 203.4 200.2 201.2 200.9 203.2 209.5 212.7 213.8 214.4 218.3 222 221.8 214.3 215.7 214.5 213.8 214.5 213 208.8 196.1 184.7 182.5 181.9 179.8 175.2 167.9 164.8 179.4 189.6 194.2 183.9 170.9 161.1 157.5 158.1 154.2 137.6 141.4 134.5 127.1 116.5 120.1 127.5 143.4 179.9 189.3 198.9 197.5 196.3 194.3 198.6 198.6 193.2 190.6 183.9 192 201.3 203.8 201 200.7 201.7 208.7 209.9 207 201.7 195.6 192.5 196.7 195.6 196.5 201.9 202.8 201.3 196.1 193.4 195.1 195.4 193.9 192.1 177.4 166.8 164.4 163.4 165.8 169.3 171.5 167.6 149.9 140.6 135.6 134.2 138.8 139 137.1 139.5 155.2 160.2 160.8 159.4 155.5 151.4 152.6 150.5 153.6 149.2 138.9 141.9 140.2 150.9 162 168.2 179.5 179.3 180.8 184.8 196.8 202.1 194 183.6 189.7 198.1 196.8 202.5 222.8 239.7 253.8 263 270.7 270.5 263.6 269.9 270 277.5 278.7 277 265.6 258.9 270.7 285.9 289.7 291.3 296.8 292.9
165.7 164 158.5 150.1 142.1 139.8 138.6 132.6 132.1 131.3 127.2 120.3 116.1 111.8 104 99.7 98.7 95.8 94.5 88.8 86.5 77 72.7 70.2 81.5 88.9 92.9 98.5 100.5 107.6 115.9 121.6 124.1 124.2 122.6 123 123.2 124.2 126.2 128.7 135 140.2 144.2 143.4 142.9 146.1 148.6 149.8 153.4 152.9 157.7 162.3 165.5 174.3 183.5 191.6 194.4 195.6 200.7 200.8 201.6 204.2 205.1 205.7 211.5 211.9 212.1 212.2 214 211.5 212.4 211.3 211.1 213.5 212.5 203.2 191.1 188.1 189.9 188.3 184.7 184.6 178.3 180.2 193.2 199.1 201.7 193.6 181.1 163.8 161.7 158.6 158.5 136.6 145.2 140.9 134.6 119.8 117.3 122.7 141.9 180 187.2 200 202.8 205.2 199.1 194.4 203 201.1 193.5 190 186.8 187.8 198 203.6 204.8 204.7 204.7 210.5 209.1 204.9 198 195.1 198.5 201.2 198 198.8 202.5 200.5 204.3 194.3 193.6 192.3 189.2 189.5 178.5 167.1 165.5 165.3 164.7 165.9 174.9 175.2 158.6 145.5 137.2 136.7 134.7 147.2 140.1 139.4 147.1 156.7 155.6 159.7 156.8 153.4 150.2 151 156.4 148.9 138.8 136.6 137 150.6 158.2 170.5 174.3 179.8 183 179.1 185.8 187.8 186.9 181.5 181.7 190.4 194.5 200.5 209.7 230.3 252.3 255.2 267.2 274.8 264.2 257.9 263.5 274.7 279 273.2 266.1 249.9 256 268.1 271.8 285.5 289.4 292.9
168.5 159.8 154.2 146.9 138.2 131 126.8 125.9 119.3 119.6 114.4 108.1 105.8 101.6 96.3 93 92.3 92.5 89.7 86 84.4 80.7 69 80.2 83.7 84.2 87.8 90.1 97.9 106 110.8 120.5 124.4 124.7 123.7 125.7 125.5 125.7 129.6 131.8 132.6 136.5 145.4 149.8 146.4 148.9 153.1 154.2 158.4 165.3 172.2 172.5 174.2 174.8 190.5 189 189.9 190.5 196.7 198.6 201.6 204.4 203.6 202.9 204.9 210.5 208 208.2 208.5 208.4 208.2 209.8 207.4 207.4 206.1 197.7 190.5 192 194.4 194.8 192.2 188.5 192.2 202.8 206.9 207.9 205.2 199.8 188.4 174.6 166.2 160.5 153.2 150.6 151 156 151.4 134.6 122.4 121.4 140 171.1 192.7 197.5 205.7 207.6 203.3 195.6 199.9 207.5 205 195.5 191.5 187.9 190.5 202.2 205.4 204.7 205.5 208.9 210.9 204.9 199 197.4 197.8 201.7 201.2 199.4 200.2 199.8 199 199 194.2 191.3 186.7 173.7 181.8 170.1 166.5 167 165.8 165.6 169.4 176.6 167.6 147.5 139.4 138.8 137.5 141.6 148 141.2 140.5 146.3 149.2 161.2 158.5 152.8 150.2 151.2 154.7 153.2 145.2 135 134.8 145.8 156.8 163.7 176.1 174.5 180.2 177.2 177.1 179.3 176.6 179.7 179.5 181.5 190 196.9 200.6 212.7 236.8 250.2 256.3 265.9 259.1 250.6 255.2 266.3 275.3 269.1 261.7 246.8 249.3 254.2 263.7 279.5 291.7 296.5
166.2 158.4 153.9 149 137.7 128.2 122 116.6 114.5 110.4 106.1 102.6 97.2 93.7 90.4 89.1 86.1 85.1 84.1 84.5 80.2 77.1 74.7 81.9 85.1 83.1 89.4 93.4 100.6 102.5 106.7 116.6 121.2 125.4 125 125.3 130.2 127.2 130.1 132.1 133.5 137.8 145.3 151.8 151.2 150.8 158.1 157.1 161.9 173.4 176.1 187.2 186.5 180.9 186 188.5 190.3 191.1 193.6 195.2 200.3 200.7 200.6 200.5 201.8 204.7 207.2 207.4 208.6 206.8 205.7 207.3 207 206.4 202.7 196.2 193.3 193.6 200.4 202 203.2 196.8 197 205.7 206.4 206.7 205.6 203 196.4 182 174.9 160.9 165.5 160.8 155.5 159.9 159.4 152.7 139.5 127.4 141.7 170.7 191.7 196.1 206.8 209.9 211.9 200.9 196.9 201.8 213.1 207.4 195.9 193.1 192.6 195 200.8 202.2 204.6 205.9 206.6 205.8 200.7 199 198.7 199.6 200.3 199.6 199.9 200.1 198.2 202.1 195.7 192.1 185.6 190.4 193.3 181 167.9 167.8 169.8 167.4 166.1 168.2 163.3 146.7 140.8 139.3 139 128.7 152.4 142.2 140.8 142.7 147.6 152.1 156.3 152 150.2 150.3 153.9 154.5 148.1 139.8 132.8 138.7 152.9 159.4 165.4 169.7 176.2 174.6 171.3 166.7 164.6 176.1 179.1 181 185.1 191.8 196.9 195 213.2 237.9 246.3 246.1 246.6 239.1 257.7 255.7 261.8 262.1 251.8 245.3 245.7 247.4 258.8 272.4 286.2 296.3
162.6 157.6 147.4 146.2 135.8 129.5 120.8 116.6 111.5 102.7 100.5 94.6 92.2 88.9 87.5 87.1 85.9 82.2 81.1 80.8 77.9 74.7 67.7 77.7 79.1 80.7 86.3 91.9 97 102 101.1 113.8 119.1 123.3 125.1 124.2 128.3 131.3 128 130.7 133.9 134.5 139.8 146.9 155.8 152.1 157.6 164.2 171.1 184.2 189.5 195.3 192.6 184.8 189.3 191.5 193.4 191.9 193.7 193.7 195.9 197.6 199.5 198.8 199.4 202.1 203.5 204.7 205.6 205.3 204.4 205.1 205 204.5 198.4 195.2 195 196 205.9 206.2 204.2 201.9 208 213.2 212.8 209.7 205.8 206.6 204.3 191.6 182 169.4 169.3 169.6 159.2 164.4 163.9 163.9 148.1 139.1 139.5 162 193.5 199.3 203 211.9 213.9 204.7 199.6 199.8 203.9 213.5 215.4 205 193.6 189.2 196.6 201.3 202.3 205.6 206 205.5 203.3 200.6 199.7 199.2 199.3 199.2 201.2 197.4 196.4 195.8 199.2 193.3 184.8 192.5 198.8 199 181.1 170 175.2 174.1 167.3 163.9 160.6 146.7 145.1 137.9 130.4 126 139.7 146.2 145.3 140.5 143.1 151.8 156.4 157 150.2 150.2 152.6 152 148.7 143.5 132 132.8 144.5 151.4 157.2 161.9 172.5 172.5 165.5 165.6 161.2 170.5 176.6 182.6 188.6 195.9 190.5 188.1 191.3 214.3 229.2 225.5 227.7 226.2 240.6 254 247.9 246.8 250.1 237.1 241.3 244.7 248.7 253.8 278.2 295.1
157.1 148.5 141.1 133.6 128 123.6 116 109.4 106.2 99.1 95.2 89.6 87.4 86 86.3 86.6 85.7 83.2 80.7 77.8 73.3 71 60.2 66.7 74.1 80.3 84.1 88.5 93.6 98.1 99.2 110.6 116.8 121.2 123.6 122.5 124.5 129.6 127.1 126.8 131.6 134.6 138.6 141.2 144.1 149.7 160.2 178.6 190.2 193.7 194.6 196.6 196.3 191.4 184.6 189.2 188 190.2 192.2 199.4 203.1 200.2 198 198.2 198.6 199.1 202.1 202.5 202.4 202.4 203.3 202.2 199.3 201.4 198 195.1 194.3 202.1 209.2 206.8 208 211.7 216.9 213.9 214.9 220.1 210.6 206.8 205 199.7 189 177.4 174.4 173.7 168.8 164.2 164 163.8 154.1 141.8 138.5 155.4 190.3 201.3 201.6 212.8 211 209.4 204.7 199.6 204.2 213.8 221.1 212 206.2 197.6 189.4 202.3 201.9 203.2 204.2 203.6 202.8 202 200.7 200.3 199.7 198.2 200.3 197.1 197.5 196.7 193.6 191.5 191.8 198.1 201.7 200.8 193.6 177 177.3 175.6 171 160.3 155.3 145.9 139.2 143.6 129.1 125.7 133.5 141 149.6 149.5 140.9 151.2 158.4 161.6 152.6 150.2 150.7 150.3 149.2 144.5 133.1 131 138 144.3 149.1 156.6 162.7 169.8 160.3 155 149.5 156.4 169.1 180.9 188.3 194.5 197.2 189.3 185.1 185.6 206.9 210.3 213 221.1 231.4 234.2 242.7 239.6 242.3 239.5 233.4 242.3 241.4 246 264.4 286.7
151 141.2 130.8 123.8 118.7 113.5 109.5 104.7 100.2 94.2 93.3 87.7 85.2 84.4 84.3 85.2 86 83.9 80.7 75.9 71.8 65.5 64 58.5 75.5 79.9 82.8 84.2 88.5 91 94.8 105.7 113.4 118.7 118.7 120.6 122.1 124.3 126.4 123.1 131.9 135.4 139.1 142.9 147 159.2 168.9 185.1 196 193.9 194.7 195.9 196.6 192.9 184.2 185.1 192.6 197.3 198 201.5 208.8 205.8 199.5 199.5 201.2 200.7 200.4 200.8 202.6 202.7 202.7 201 199.3 198.4 196.4 195.7 197.9 204.5 209 209.7 212.1 219.3 227 223 215.1 219.8 209.3 207.5 206.1 205 195.5 194.7 189.2 179.7 174.9 166.7 169.3 181.4 170.3 147.4 138.9 149.9 176.1 198.9 204.8 207.3 210.4 209.1 208.1 208.2 201.8 207.2 221.7 218 212.2 206.4 199.6 195.8 202.8 202.3 204.1 203.6 202.2 203.8 200 199.7 199.3 197.3 197.1 196.2 197 197.6 202.2 191.9 193.4 199.7 207.1 203.4 199.8 190.2 180.2 176 170.3 158.7 151.4 143.2 139 139.3 141.9 124.5 126.9 136.3 142.1 150 142.2 144.8 159.4 162.4 159.7 152.5 152.4 150.6 150.7 144.1 136.9 129.3 135.8 137.5 142.6 147.3 154.9 162.3 157.9 135.8 155.8 162.6 168.8 173.5 183.2 193.4 191.4 191 193.1 182.4 182.4 197.3 199.4 213.2 227.3 232 232.3 236.4 228.6 231 234.2 229.2 237.9 236 245.2 262.7
137.1 130.6 120 111.3 109.3 103.9 101 97.3 95.5 91.3 90 87.3 84.4 83.3 83.6 85.2 85.2 85.7 78.7 77.4 71.6 65 62 62.3 73.5 77.3 80.6 82.8 86.5 89.1 91.6 98 105.4 111.6 114.8 115.8 119.7 119.8 117.4 118.8 128.9 135.4 143 151.7 164.6 163.1 172.2 189.4 189.8 193.9 195.1 194.7 197 196.6 192.3 191.1 198.2 205 205.1 209 209.6 207.4 203.8 205.5 202.6 202.4 201.4 201.7 202.7 202.8 202.1 201.2 200.1 199.1 197.5 197.5 200.6 207.2 210.2 210.6 212.6 220.7 233.3 219.5 213.7 211.7 209.3 208.2 206.2 204.4 195.9 203.3 201.2 192.5 184.4 180.6 173.7 183 182.6 157.7 141.9 147.7 172.5 196.4 205.8 205.1 208.9 210.2 210.7 216.3 212.1 209.7 214.6 219 216.1 211.5 205.1 199.9 198.4 202.3 202.6 207.7 204.8 200.2 199.7 199.1 198.5 196.4 196.3 200.4 197.8 198.2 198.1 194.3 193 197.5 206.8 205.4 204.1 199.9 196.2 180.9 170.8 158.8 148.1 141.8 138.8 136.8 139.3 129.5 127.6 131.8 136.3 141.7 141.8 142.3 158.1 163.3 161.4 155 150.1 151.6 151.7 149.8 142.1 130.2 133.5 135 136.5 142.1 148.9 159.6 154.6 141.4 155.3 167.8 171.2 174.8 176.6 180.6 187.2 187.4 190.4 185.2 182.4 184.3 196.9 211.4 226.7 230.3 230 225.5 228.9 218.4 214.8 220 225.7 231.2 227.5 242.3
121.6 117.5 110.4 104.1 99.7 96.7 92.9 90.1 88.2 86.9 86.8 84.8 82.5 82.1 83.1 84.5 83.9 84.4 78.6 75 71.3 69.8 65.6 60.2 71.3 75 78.5 80.5 83.7 84.6 86 91.1 95.8 101.9 106.3 110.2 115.8 117 116.7 117.4 125.6 137.2 154.2 161.7 170.1 174.9 181.5 180.5 184.7 188.7 192.3 193.6 195.3 201.1 197.9 197.1 203 207.8 212.2 215.9 210.9 211 208.7 207.1 204.9 205 201.2 202.2 203.3 203 201.3 200.6 201.1 200.2 198.8 199.5 202.8 211.7 211.1 211.9 216.7 227.6 237.4 222.5 220.7 214.2 211.8 210.4 209 209.1 201 206.8 211.4 204.6 193.3 195.8 183.1 186.9 192.2 166.8 153.3 150.5 168.6 190.4 202.1 204.9 209.2 211 212.4 222.1 228.2 219.4 213.2 216.6 216.1 211.8 209.5 206.7 192 202.6 203.7 203 204.3 200.9 198.7 198 198.1 197.9 198.6 198.9 199.1 198.3 196.5 193.8 193.3 195.9 202.9 207.3 206.6 207.8 201.7 188.2 177.1 161.6 146.6 146.8 141.7 137.4 134.5 136 124.7 133.4 137.1 140.2 141.4 141.8 144.4 167.3 162.9 159.8 154.5 154.1 155 156.1 140.9 131.8 130 133.8 133.3 134.7 142.8 148.4 127.9 142.3 154.6 167.2 171.2 179.5 178.6 180 179.6 183.1 183.1 183.1 183.1 183.1 186 204 218.2 231.1 227.1 215.5 222.3 212.9 211.6 211.7 219.1 225.1 223.3 232.9
106.6 104.2 100.3 95.9 90.8 87.9 87.7 82.7 81.1 79.6 80.3 78.2 78.6 79 80.6 80.7 79.4 79.4 75.8 71.3 71 68.2 65 66.4 67.4 71.8 74.8 77.7 79 79.4 79.4 86.3 94 99.6 105.3 108.6 114 117.6 118.4 118.5 122.3 134.2 151.3 162.5 168.4 170.6 178.2 178.1 181.9 183.9 188.9 191.8 196.4 198.4 200.2 201.7 203.8 208.1 213.5 213 208.4 208.8 208.3 206.3 204.4 201.9 202.1 203.5 205 204.4 201.3 201.6 203.2 201.5 203.7 208.3 208.8 213.3 213.5 217 223.8 234.5 236.6 227.7 224.1 218.4 213.8 212.6 210.8 209.2 202.9 207.7 209.3 208 205.7 200.9 195.8 193.7 193.3 177.3 156.4 153.1 162.8 184.4 202.3 208.4 214.8 212.5 215 224.3 229.8 223.5 215.3 216.2 219.3 213.5 211.2 207.8 194.9 196.9 198.5 201.2 203 204 199.8 199.3 200.5 202.8 205.4 203.3 202.9 199.5 198.1 195.9 199.1 195 197.5 205.3 207.6 209.9 206.6 193.8 183.5 166 149.1 148.8 147.5 141.4 137.4 129.4 127 124.4 135.8 139.6 140.3 141.4 140.7 152 163.4 162.1 161 159.7 157 155.6 146.6 133.7 133.4 130.8 133.7 129.3 131.5 135.3 125.9 138 155.4 165.4 171 175.8 187.6 186.9 182.2 182.7 183.1 183.1 183.1 183.1 183.1 198.7 212.4 224.4 217.1 211.7 208.5 207 208.4 205 213.9 217.9 222.4 220.4
95.4 93.5 91.2 86.6 83 79.4 77.6 77 77.3 74.5 74 72.3 73.8 74.8 74.8 74.3 74.9 73.7 71.7 71.1 69.9 70.3 61.1 59.1 66.4 69.1 71.6 73.7 75 71.3 75.2 84.2 88.2 92.1 99.8 105.7 114 120.8 123.1 120.9 128.2 135.4 148.8 161.7 167.8 173 173.1 177.9 180.6 184.6 185.2 192.6 195.2 197.7 201.1 204.2 208.9 209.5 212 209 204.3 205.1 205.9 204.5 202.8 202 203.3 204.8 207 206.4 202.5 206.1 208.5 206 207.3 206.5 212.9 217.6 222.8 219.3 228.4 236.8 239.8 232.5 228.4 221.9 218.6 214.6 212.3 209.6 204.7 206.2 211.2 212.9 213.3 209.6 207 209.6 189.5 182.8 161.5 155.8 164.6 178.1 204.6 208.3 217.4 223.5 220 224.2 226.6 227.5 223.6 218.5 222.3 219.3 212.8 209.9 199.7 191.8 193.8 198 200 207.8 202.5 201 201.7 206.4 211.2 215.9 207.8 205.2 199.8 202.1 200.1 197.2 196.2 199.8 207.5 210.9 209.7 199.7 185.5 175.1 157.2 150.9 150.6 146.8 139.2 131.4 130.5 121.5 125.6 139.2 137.8 137.5 139.1 143.5 157.3 166 165.2 170.4 161.1 156.8 148.9 134.8 137.5 131.7 124.8 129.1 123.1 111.9 132.5 136.9 153.6 161.5 171.7 179.5 184.1 193.3 193.4 192.2 190.9 185.6 183.1 183.1 183.5 183.1 198.4 207.5 215.1 210.1 207.5 202.1 204.3 201 205.9 215.9 215.9 221.3
84.1 82.6 81.4 78.1 77.4 71.2 71.1 67.7 68.1 64.2 68.8 67.8 69.5 71.4 71.7 69.4 70.3 70.8 67 64.1 63.7 67.3 58 59.2 66.9 71.5 74.9 73.3 73.7 68.9 68.6 80.5 86 87.9 98.2 104.7 113.9 119.6 123.4 124.2 131.1 136.8 149.6 165.2 163.6 164.9 175.4 181.9 179.4 181.9 184.9 185.1 190.1 196.2 201 204 206.2 210.9 213.9 205.3 204.8 203.6 203.6 203.3 202.2 203.3 204.6 205.8 209.8 209.3 206.6 211.5 213.7 212.9 212.6 206.8 210 218.2 225.2 236.6 232.7 240.5 249 237.4 233.4 234.9 224.8 217.1 212.1 209.2 208.1 217.3 217 217.7 216.2 217.3 221.5 218.2 192.9 183.5 172.2 160.2 165.4 176.9 194 206.5 221.7 227 230.8 224.9 227.5 229.4 230.3 225 220.8 226.7 215.4 209.3 204.8 192.6 192.3 193.1 203.2 206.7 206.2 204.8 208.7 203.9 212.7 216.8 216.8 208.5 206 210.4 209.8 198.2 197.2 198.4 203.7 209.6 210.9 204.7 195.8 182.1 164.2 155.8 152.3 152.8 138.2 132.9 126.4 130.8 122.6 130.4 135.7 132.9 135.9 141.6 152.4 158 168.5 171.8 168.2 160 151.3 138.4 139.9 133.9 124.9 122.5 124 113.4 127.5 138.6 148.7 156.4 167.4 181.9 188.2 194.4 196.1 196.9 196.3 197.3 182.7 183.1 182.4 183.7 187.2 200.5 202.7 205.1 202.8 202.1 199.2 204.1 210.9 216.8 224.4 224.2
76.7 73 70.4 68.6 68.3 65.7 64.6 63.4 61.1 60.9 61.7 65 66.2 69.6 64.8 66.1 64 65.3 59.3 60.4 59.8 62.4 52.1 55.9 64.2 70.1 66.4 65.5 62.8 59 63.1 76.2 85.7 89.7 97.2 104.9 107.3 114.5 118.8 123.2 134.6 139.2 144.3 158.4 161.3 166 173.3 181.2 179.1 180.2 179.9 182.3 187.8 195.3 202.9 206.4 211.3 216.6 214.2 206.8 204.3 203.7 203.2 202.8 203.5 204.7 207.8 209.2 209.5 213 209.9 210.8 222.4 218.8 224.2 216.7 220.8 224 230.3 239.2 244 245.5 249 258.8 238.1 234.6 234.2 221.4 213.8 212.8 213.6 221 227.4 221.1 222 224.4 222.6 215.1 199.4 189.7 179.4 164.8 170.2 178.5 188.7 205.4 215.6 228.6 231.9 226.8 228.1 230.3 230.7 230.4 223.7 227.2 221.8 209.6 206.9 201.4 193.2 193 197 203.6 209.1 210 212.1 207.1 209.6 213.6 217.5 211.6 208.9 217.1 218.8 212.1 200 199 202 209.6 210.2 207.9 202.9 189.5 174.1 162.7 156 153 152 134.2 125.9 128.9 122.7 124.2 129 127.6 130.5 136.8 148.4 155 163.1 175.7 172.7 163.3 155 140.8 140.5 137 132 119.8 114.8 108.5 127 140.6 149.1 153.4 159 176.2 190.4 197.4 200.8 200 201.9 200.2 192.8 188 186 187.2 182.4 188.9 196.7 197.9 198.3 198.7 197.7 199.7 210.7 215.7 223.4 225.5
69.8 68 62.9 63 62.7 60.5 58.3 58.1 58.1 57.9 59.5 61 64.3 69.8 65.9 61 56.9 54.6 56 56.9 57.3 59.1 54.1 50.3 58.9 61.5 59.6 55.1 55.9 57.9 63.4 74.2 83.6 88.6 92.6 98.1 104.8 111.2 116.5 125.9 132.6 136.7 140.6 153.4 159.3 166.5 171.7 167.4 170.9 175.1 175.9 180.4 186.9 198.4 205.2 210.9 218.5 222.3 221.1 209.3 204.7 204 203.5 203.6 205 206.2 209.8 212.7 212.3 213.3 215.9 217.5 227.4 230.9 227.4 220.4 227.2 235.9 240.6 246 249 256.1 256.5 260.2 252.6 237.8 237.5 233.9 226.5 218.3 219.8 227.5 231 228.2 229.7 236.3 228.8 216.7 199.6 193.7 185.6 170 170.7 178.5 186.8 199.1 216.9 221.3 230.4 230.4 229.8 232.4 231.1 230.3 226.2 225 225.8 211.7 207.4 204.2 203.3 196.2 193.6 199.6 209.3 208.9 211 210.1 211.2 211.9 214.6 220.9 216.1 223 224.6 219.5 212.3 203.4 204 209.7 210.3 209.4 203.9 196.9 181.5 168.8 166 154.5 147.9 141.3 133.5 123.1 124.6 123.7 125.9 124.6 122.3 134.6 141.9 145.4 150 170 176.9 168.4 159.9 145 139.6 136.1 134 125.2 98.4 112.3 123.6 138.7 149.9 152.8 153.5 170.1 182.7 195.4 203.3 204.4 205.5 206.5 201.3 193.7 189.5 189.4 187 185 185.7 193.4 196.5 196.8 196.5 200.5 204.8 215.5 224.7 232.4
66.1 60.3 57.8 55.8 57.3 55.5 52.7 53.3 53.7 56.4 58.4 60.6 63.6 62.6 62.4 58.8 50.2 50.6 54.7 56 56.2 58.2 60.1 44.1 51.9 56.6 53.3 54.9 55.2 58.1 62.7 69.1 78.2 84.6 86.7 95.2 104.5 110.8 118.4 127.1 129.2 135 140.8 150.2 156.3 160.9 162.5 164.5 166.4 166.1 167.6 176.4 187.1 196.8 205 210.7 222 225.7 220 210.7 207.5 206.8 206.4 205.8 205.5 208.6 217 222.4 220.9 223.6 218.8 230 237.2 243.8 238 232.9 229.7 240.4 249.3 252.7 254 261.5 265.9 272.8 246.7 246.2 253.8 242.7 243.4 238.2 236.1 238.2 236.3 232.3 238.9 243.5 234.4 212.6 197.5 192.2 191 176.1 171 179.1 189.5 195.7 207.2 217.1 221.5 228.2 229.9 233 229.9 230 225.9 222.8 220.7 219.8 210.8 207.3 208.3 206.7 201.8 195.9 200.8 206.2 209.4 210.1 207.5 213.9 215.5 217.1 222.2 220.7 225.6 220.4 217 211.8 209.9 208.2 211.4 211.6 207.7 203.7 189.7 170.1 166.5 164.9 147.5 143.6 138.8 125.5 120.4 122.6 119.8 116.9 112.9 129 140.8 141.6 134.1 151.1 175.5 174.6 160 149.7 138.9 134.5 129.6 124.9 98.5 113.2 118.1 135.3 144.5 148.7 149.8 159.4 176.3 188 200.2 210 211 212.8 210.1 200.8 195.5 193.1 188.4 185.3 184.1 189.3 200.8 201.6 199.3 203.8 206.9 215.8 219.9 231.8
62 55.1 51.4 51.8 51.1 49.8 47.3 49.6 49.7 53.2 57.9 60.6 60.1 57 56.1 53.4 49.5 49.5 53.3 54.1 56.1 56.1 54.8 48.9 48.3 47.4 50.8 49.1 53.7 59.6 61.8 66.1 69.3 74.8 81.7 90.2 100.6 110.9 122 129.4 131.9 134.3 139.2 144.9 148 150.4 152.9 156.9 162.6 160.4 169 181.1 194.6 201.5 205.6 215.1 223.8 226.8 220 221 217.7 212.2 217.2 219.3 220 221.1 225 226.2 233 235.5 230.2 233.3 248.4 252.9 251.8 242.5 238.3 237.2 248.5 255.6 259.3 266.1 270.2 267.9 246.1 257 262.7 259.8 257.6 275.1 269.5 255.8 247.3 240 249.5 262 236.4 219.4 193.2 188 188.2 180.9 170.1 178.8 193.2 196.5 198.1 213.7 216 219.6 226.5 229.9 227.9 225.6 224.3 220.5 217.2 217.6 219.6 214.3 211.7 214.1 202.6 201.3 196.5 203.5 205.8 208.3 208.9 209.5 215 218.9 216 218 220.8 228.2 224 214.7 214.8 217.5 215.2 214.2 213.6 208.5 199.4 173.4 165.3 160 150.6 139.9 137.3 130.3 123.9 114.8 110.6 106.2 104.6 116.8 131.8 141.1 132.8 134.4 160.8 174.1 166.8 148.8 141.9 133 127.5 117.5 99 112.7 113.3 125 141 143.1 143.8 156 166.5 182.3 196.3 205.4 216.5 221.7 219.3 213.2 200.9 198.9 192.7 187.5 185.4 187.3 195.6 206 203.9 204.2 208.8 213.3 226.6 229.2
56.7 52.8 49 46.5 47.4 45.7 44.5 46.4 48.2 53.8 58.3 59.1 54 48.7 46.7 48.1 47.7 50.3 54.7 56.8 57 53.9 50.8 48 51.5 45 45.2 44.9 51.9 60.5 67.6 73.9 77.5 82.1 81.3 89.8 99.5 106.8 117.2 127.6 132.3 134.9 137.7 140.5 145.9 145.4 145.5 152.7 153.7 156.2 169.2 187.2 201.7 206.9 210.8 220.9 224.9 221.3 225 226.6 224 227 231.8 238.9 246.2 262.2 258.5 260.1 264.3 253.5 248.2 257.3 261.8 265.8 263.3 252.4 247.6 246 253.8 260.7 263 272 271.4 270.6 255 271 270.7 267.7 282.4 301.2 300 282.6 263.3 254.1 262.9 266.3 245.4 222.6 198.1 187.8 182.2 174.4 166.5 171.1 193.6 197.6 204.5 198.1 210.5 208.4 218.6 222.2 223.7 221.2 220.6 221.7 212.2 213.6 218.1 221 218.7 215.7 212.6 198.9 200.9 205.5 207.3 207.3 209.6 209.9 211.4 215.1 219.3 217.6 219.2 222.2 227.7 233 223.2 226.2 235.9 218.4 216.6 213.3 203.5 183.5 165.2 157.2 145.6 138.4 134.4 129.3 127.1 118.9 115.2 110 100.8 108.3 120.1 128.5 131 127.6 147.4 165.7 173.2 151.5 146.3 134 124.7 101.5 109.1 115.6 114.1 116.4 129.9 140.8 141.5 147.7 166.7 172 183.2 201.9 214.6 226.5 225.2 220.5 211.7 203.4 195.2 190 188.8 185.1 187.9 196.9 205.6 207.5 210 212 218.2 227.8
48.7 46.8 43.9 44.5 44.2 44 43 42.4 46.7 51.2 54.6 50.4 50.6 42 42.1 43.6 47 53 55.9 58.3 59.1 54.7 52.4 51 47.4 26.4 41 49.7 58.6 65.9 72.1 78.7 83.1 85.1 87.3 90.4 94.6 104 114.3 123.2 129.3 133 133.7 133.5 135.7 135.7 139 141.7 142 154.1 168.9 181.9 206.6 213.6 217.7 225.7 224.1 229.1 239 251.4 258.5 265 264.3 270.3 278 281.6 290.6 304.1 300.4 278.8 265.3 268.1 270.3 275.5 273.5 261.4 255.3 252.9 258.1 264.1 267.6 275.2 276.7 274 263.7 273.9 282.6 287.2 303.6 321.4 310.6 299.4 284.8 277.3 277.4 283.3 260.3 235.7 203.6 191.3 182.2 167.4 162.5 166.4 187.2 193.7 198.7 197.2 196.7 203.1 209.3 213.6 217.5 216.9 215.5 219.3 210.3 209.2 211.4 221 224.7 220.2 216.6 199.6 198.6 213 210.6 206.9 210.4 216.7 212.4 219 216.3 219.8 218.3 220 226.1 233 235.3 230.1 234.9 239.1 219.4 215.2 209.2 193.2 170.1 159 148.2 141.1 135.5 128.8 126.7 124.4 122.5 113.5 102.3 98.2 114.1 118.3 125.9 124.9 133 154.9 169.7 157.5 141.5 133.3 117.8 109.3 106.8 118.5 114.5 114.5 114.8 129.5 137.3 143.4 157.4 166.4 173.7 188.7 207.5 219.7 220.5 224.3 221.5 211 203.4 196.5 191.3 186.2 187.9 193.7 209.6 210.5 211.4 212.2 214 219.6
44.1 42.4 40.7 43.5 43.2 42.4 39.8 39.1 41.7 47.9 45.7 43.9 41.9 43.5 44.9 47.6 51.3 53.6 54.8 60.2 59 54.1 52.9 49.3 40.9 40 48.2 55.7 64.6 73.4 73 78.6 82.8 83.2 89.7 88.4 95.1 105 114.5 120.1 126.2 129.9 129.2 130.1 131.4 130.8 131.9 137.9 145.7 156.3 166.4 182.5 208.8 217.2 222.5 229.9 228.5 238.8 253.1 266.7 290.2 302.4 313.7 322.3 337.2 327.7 336.6 336.5 324.8 308 289.8 278.9 288.2 285.1 277.1 268.5 261.1 256.8 265.5 270.7 274.6 281.9 277.7 268 267.7 279.1 292.2 309.5 326.6 330.5 323.2 312.3 298.4 290.4 286 291 267 241.7 208.2 191.4 183.3 163.4 154.7 156.1 162.2 184.2 191.2 197.6 194.7 197.4 202.4 206.7 213.7 214.9 214 214.1 212.6 208.4 211.6 217.3 226.8 225.2 217.8 208.6 197.9 203.7 212.7 209.8 208.7 221.5 222 219.8 223.4 218.4 221.7 219.6 223 230.4 237.2 236.8 236 239.4 227.7 217.3 208.1 197.6 179.6 164.1 149.2 144.3 135.5 132.6 129 127.5 127.3 123 109.4 95.8 102.7 111.7 116.4 116.1 121.5 148.1 156.1 155.1 135.9 129.2 114.1 100.2 107.6 117.8 120.2 117.3 115.4 119 128.6 132.6 150.1 157.4 161.6 177.1 186.6 203.8 213.9 225.5 224.3 222.5 210.6 201.7 195.4 189.5 191.2 189.6 202.4 213.5 214.8 215.4 214 214
34.9 34.9 36.8 37.8 39.6 37.9 37.8 37.6 39.8 41.9 42.5 44.1 39.4 38.9 43.8 47.2 53 54 56.1 57.6 54.8 54.8 51.1 38.4 25.5 47.6 54.3 59.9 70 72.8 73.7 79 83.4 88.7 95.6 95 99.1 104.2 109.1 114.5 118.4 122.2 125 129.4 128.4 128.8 130.4 138.9 146.9 157.8 172.1 190.7 211.4 222.6 231.6 234.7 242.3 260.9 278.6 289.7 315.4 330.9 341.1 353.3 367.5 370.2 372.1 354.6 330.9 321.2 305.7 298.6 300.3 293.7 280.2 270.9 265.9 262.5 273 278.1 290.3 279.3 273.1 273.1 284 290.7 306.3 321.5 336.9 341.1 335.2 324.3 309.6 297.9 290.9 280.2 250.9 227.6 207.1 196 182.2 162.6 150.2 144.8 146.2 166.2 182.8 193.3 194 196 196.2 198.1 207.4 213.6 210.6 208.9 212.5 207 206.3 214.9 225.7 227 225 209.9 199.7 199.1 216.5 218.4 220.1 223.9 227.4 226.3 227.5 221.6 223.4 223.4 220.6 230.6 236.3 237.5 239.7 241 236.3 221.3 208.8 196.3 183.6 164.6 148.4 145 136.2 131 132.8 130.7 129.4 129.3 119.5 103.2 95.1 107.2 108.1 105.9 109.8 132.7 148.3 144.5 136.8 128.3 113.9 92 101.7 116.5 125.2 125.2 116.5 119 120 125 136 150.6 158.7 174.3 180.5 187.6 213.8 221.4 221.3 224.1 218.5 204.1 195 188.1 187.8 190.8 195.6 208 216.5 219.6 221.7 215.1
34.6 34.1 35.8 35.7 36.4 36.7 37.2 37.2 38.3 39.4 39.4 37.9 37.9 39.7 46 49.8 56.5 53.4 56.2 55.2 54.2 50.6 41.4 31.9 42.5 52.7 56.2 57.5 64.5 71.6 72.8 76 87.6 92.1 99 104.1 98.5 99.7 103.2 109.1 114.8 116.6 123.4 125.4 126.5 127.9 134.7 141.6 153.2 159 183.8 200.4 217.8 225.4 229.3 243.1 262.7 289.3 318.8 332.4 340.6 343.5 351.8 368.6 370 356.7 345.1 333.8 329.4 319.4 305.2 308 301.3 292.8 284.1 274.1 278.9 274.5 281.6 292.4 306.1 282.6 277.4 284.5 289.8 301.5 319.5 335.3 344.1 343 338.4 329.5 317.4 308.8 301.5 269.9 237.9 217.5 206.4 198.6 186.2 165.3 148.8 136.5 134.9 140 157.2 172.7 191.7 193.3 194.1 195.4 200.4 207.1 210.2 205.2 207.2 207.7 203.9 210.9 220.9 226.2 226.3 217.6 200 199.1 210.7 218.4 221.5 221.5 226.4 229.1 234.5 230.6 224.1 223.7 223.2 230.5 235.1 238.7 240.9 241.1 231.8 224.7 213.7 201.6 187.4 169.3 153.6 143.6 136.9 127.6 130.5 135.3 131.9 129.2 126.2 112 96 96.9 101.3 101 100.8 119.7 132.9 134 133.2 129.4 119.2 99.9 92.9 112.9 124.4 129.2 123.7 118.7 127.1 122.8 130 144.4 151.8 159.6 174.7 180.1 193.1 207.9 217.4 218.9 224.2 210.2 201.5 191.1 187.8 187.8 189.8 200.8 211 221.8 230.6 225.3
37 39.8 36.9 35.9 35.6 36.1 36.3 37.1 37.9 37.9 37 37.3 37.9 39.9 46 49.6 50.9 52.2 49.1 51.5 50.2 41.5 33.5 35.6 46.7 48 48.4 52.4 60.7 68.5 74.2 79.5 85.5 93.8 101 103.1 99.5 101.9 103.9 107.6 112.9 119.1 120.7 125.1 127.5 130.4 137.1 144.7 151.5 165.5 190.8 209.9 222.7 235.4 253.9 272.6 294.7 322.9 341.7 356.6 355 352.8 364.7 373 355.1 335.7 337.6 334.1 327.6 322.4 309.6 311.1 302.9 296.1 289.6 287.8 287.6 282.2 289.7 308.5 312.3 288.7 286.1 296.9 308.1 315.7 334.8 348.1 350.2 345.7 342.6 333.4 320.7 311.6 293.4 257.2 226.4 212.7 205.1 197.1 188.1 167.4 149.4 135.6 127.4 127.8 131.5 147 172 192.5 192.3 195.6 198.3 197.3 206.3 203.3 202 204.3 201.8 203.9 215.5 223.9 224.2 220.1 206 199 206 220 222.5 223.4 227.8 229.3 234.3 235.2 232.1 226.1 226.6 224.6 229.2 238 242.4 243.4 234.1 227 215.2 199.9 192.2 167.2 158.1 147.1 136.6 129.3 122.2 130.5 132.5 126.7 117.1 119.5 101.7 93.7 95.1 94.5 95.9 107.4 128.5 127 126.4 127.9 117.5 95.7 82.1 109 118.4 127.2 128.2 121.2 123.7 127.8 126.4 136.2 158 155.1 161.2 168.9 180.7 193.7 206.1 213.5 217.8 215.1 202.8 193.6 187.8 187.8 187.8 191.1 205.4 216.8 229.5 232.6
36.6 39.4 37.7 35.8 35.5 36.4 36.6 39.2 38.3 36.4 37.5 37.7 39.6 46.9 50 49.3 52.3 54.3 44.2 42.7 41.6 41.1 38 24.3 43.4 41.6 47.9 55.7 63.2 71.6 78.4 87.6 96.6 101.8 110.5 103.3 101.8 105.8 107.1 108.8 110.9 117.4 121.8 126.1 131.5 136.2 145 152.5 156.2 173.2 193.5 216.5 237.7 260.4 286.5 313.1 329.6 341.3 349.4 356.2 353.5 356.3 360.5 355.9 345.5 333.7 331.2 331 328.6 326.2 318.2 318.4 307.8 300.9 297.3 296.3 290.6 293 305.3 324.6 312.9 297.6 305.6 316.6 331.5 337.3 351.3 359.6 358.9 352.5 344 332.5 319.4 312.1 290.9 254.7 227.5 210.5 201.3 195.2 189.2 174.8 146.1 135.5 127.2 123 128 132.3 156.6 189.8 191.1 189.1 196.4 195.5 202.9 201.8 199.4 199.3 198.5 201.3 208.6 219.1 222.4 223.6 210.6 198.4 204.8 224.7 222.7 222.9 226.4 234.1 231.4 234.6 236.9 237.1 229.1 230.9 227.2 231.1 242.4 241.7 237.8 223.7 218.1 200.6 193.3 169.7 156.9 152.5 136.5 133.1 126 119.9 123.9 122.8 112.8 108.5 109.9 99.7 98.6 91.3 92.9 96.3 112.3 122.5 122 117.1 110.6 92.8 90.1 97.1 114.1 119 127.9 128.2 123.2 126.2 129.5 129.5 141.4 151 155.3 161.8 174.1 182.3 190.1 202.7 211.2 210.6 204 197.9 192.6 187.8 187.8 187.8 202.6 211.2 228.4 232.2
34.9 38.9 39.5 37.4 35.2 36.5 37 39.2 38.8 35.7 36.5 38.7 48 56.2 52.9 49.6 48.5 45.2 43.4 44.8 39.8 40.8 41 23.2 37.2 39.9 50.5 60.5 73.7 75.9 83.8 98.6 98.2 108.5 109.8 105.6 105.7 107.7 106.8 105.9 107 111.5 119.8 128 132.3 139.4 148.3 160.3 170.2 185.6 201 227.8 255.9 281 316.1 337.1 346.9 346.5 343.2 343.3 350.4 357.1 349.5 345.4 340.6 330.7 329.7 328.8 327.2 325.8 324.6 327.1 315.4 311.3 303.7 305.2 294.9 293.1 308.3 318.2 319 321.1 330.7 329.7 345.8 358.8 366.3 366.6 371 355.4 346.5 329.2 319.2 316 298.8 256.5 224.5 206.7 197 189.8 183.1 174.5 145.1 133.5 125.1 122 123.5 127.3 146.2 179.1 190.2 187.4 188.8 194.9 191.7 204.9 195.7 193.1 195.9 201.8 202 215.8 220.8 217.2 209.4 201.4 199.8 216.3 225.9 222.7 227.2 233.1 233.3 234.2 236.8 238.6 245 232 232 233.5 237.9 245.2 243 233 220 212.3 195.5 179 158.3 152.3 137.6 137.8 129.7 122.5 118 118.7 110.3 107.4 107.7 107.7 99.8 97.3 85 92.8 102.3 111.6 113.4 106.4 101.7 93.3 75.3 96.7 105.5 114.7 125.6 130.9 126.6 130.3 131 129.8 130.3 146.2 153.3 157.4 167.3 179 189.8 194.3 196.4 199.1 201.9 199.1 197.8 191.8 187.8 187.8 197.3 206.5 227 235.9
29.7 31.3 34.5 35.1 34.5 36.1 35.1 37.3 35.6 35.7 37.4 45.4 57.6 62 56 44.7 44.4 42.5 43.9 41.7 39.6 34.6 40.7 33 40 45.8 59.5 71.3 84.3 85.5 94.1 94.8 105.3 114.5 113.1 113.6 108 104.3 104.3 106.2 112 116.3 119.6 128.1 134.2 146.7 153.8 170.2 185.3 198.3 220.7 252.9 272.4 301.2 323.9 335.2 332.5 334.4 336.1 334.8 345.3 348.6 343 337.1 333.8 330.4 328.6 327.5 326 329.3 326.7 331.2 322.7 318 310.6 309.5 301.6 301.7 309.6 321.3 335.3 344.8 343.3 359.9 363.4 378.6 382 370.1 368 352.3 340.3 330.3 320.4 316.1 299.9 256.6 223.5 202.6 192.1 185 177.5 171 146.8 132.4 124.3 121.2 120.1 123.9 138.4 164.1 192.5 186 180.8 187.7 189.6 196.2 192.6 188.8 191.9 197 198 207.1 216.4 210.7 204.7 199.9 201.7 208.6 226.6 220.1 221.5 228.3 234.8 235.8 236.5 238.3 243.9 235.9 238.1 238.3 237.9 247.8 248.6 243.8 223.8 216.8 204.7 183.5 159.6 149 140.8 140.6 132.8 119.8 116.9 117.3 109 107.1 106.5 108.4 104.7 96.2 88.4 85.2 89.2 101.9 104 95.7 95 97.5 73.3 85.1 98.2 110.1 118.3 134.7 130.1 130.6 132.8 133 134.6 134.3 148.8 153.8 157.1 169.7 177.2 184.1 190.2 183.2 191.5 198.1 201.1 197.9 195.3 190.8 187.8 198.9 220.3 234.2
29.9 30.5 32.4 33.9 34.8 33.9 33.6 34.5 35 36.8 39.9 52.8 61.3 69.1 53.8 42.6 41 39.8 41.2 41.1 39.8 42.9 24.7 34.3 45.1 61.5 71.9 77.9 80.3 93.9 93.2 97.4 110 113.4 111.3 112.2 110.4 106.1 101 108.7 114.2 119.4 125.9 131.9 139.3 153.9 164 178.5 195.2 217.1 241 266 279.8 289.8 299.9 307.9 314.3 321.9 326.8 323.9 329.4 337.3 342.8 335.6 333.2 331.6 329.9 328.1 328 327.5 328.2 339.7 328.4 322.9 314 310.3 308.9 311.2 313.8 319 344.2 362.7 370.7 362.8 388.6 411.3 390.2 372.2 356.3 342.9 336 328.3 322.2 313.2 296.7 255.6 223.4 205.9 190.1 179.5 171.7 160.7 142.1 130.2 124 119.8 117.9 122.5 132.1 151.4 179.7 186.1 178.5 172.4 182.7 183.4 190.1 184.4 186.6 193 193.9 198.4 211 210.8 202.1 200 200.4 208.6 221 217.2 217.4 222.8 234.1 238.2 239.1 238.9 241.7 247.5 241.1 244.8 244.3 244.4 250.7 252.2 240.8 219.1 210.3 194.3 174.5 155.5 143.6 141.7 135.3 122.6 117.1 116.4 113.6 113.4 108 103.6 102.8 95.7 90.7 84.6 82.2 87.8 89.7 87.4 91.2 91.8 80.3 74.1 91 105.4 113.5 126.6 136.3 133.8 137.1 139 137.6 139.2 135.7 146.8 153.7 154.5 163.8 170.1 174.3 180.5 187.1 194.5 198.2 200.4 200.4 196.4 191.2 188.5 204.8 231.9
29.5 32.9 34 33.6 33.7 34.4 34.9 36.9 36 40.7 48.3 56.1 62.6 68.1 49.9 43.5 39.7 38.3 40.2 40.7 40.8 42 22.1 31.1 43.5 50.1 61.6 68.1 85.7 89.1 88.3 97.3 109.8 107.9 105.5 101.5 107.3 100 97.6 106.2 112.7 120.5 127.9 137.9 146.4 155.9 172.5 188.8 212.4 235.4 251.7 261.6 266.8 271.9 276.5 286 300.4 311.8 319.7 321.3 318.1 323.9 333.3 339.9 339.1 333.7 333.7 333.4 336.2 334.5 342.1 349.8 339.6 328 320.9 318.9 324.9 324 323.2 329.4 345.1 368.7 388 387.3 403.4 423.9 392 377.3 351.6 340.6 328.3 325.3 321.4 312.1 293 253.3 224.3 210.2 192.7 175.6 164.3 149.9 136.7 126.9 122.2 117.7 117.1 120.3 127.5 138.9 159.7 182.5 177.2 163.1 170.9 180.2 184.5 177.3 179.8 186.1 189.5 191.5 203.9 207.9 202 199.4 200.8 203.3 211.4 213.5 216.6 221.6 231.1 237.8 244.2 241.9 241.2 246.9 245.8 259.2 251.2 248.9 248.8 251.3 245.5 231 214 203.7 186.1 165.4 154.9 143.4 141.6 134 120.3 116.4 117 116.6 111.4 107.3 100.4 97.5 91.5 88.7 85.2 79.7 81.6 88.1 90.3 91.2 79.9 70.7 87.6 99.5 110.3 115.8 128.4 135.4 140 144.6 140.1 143.6 138.5 135.7 148 151.5 152.6 165.4 169.6 171.8 182.2 189 191.9 196.1 197.6 198.1 200.3 190 190.8 221.5
27 30.3 31.9 33.1 39.1 37.5 43.2 43.7 43.6 52.3 56.2 57.5 55.2 58.5 45 44.2 37.5 37.9 39.3 39.8 40.2 39.6 26.5 27.4 34.1 43.1 55 66.4 76.6 85.5 90.5 93.8 95.2 90.5 93.3 96.1 83 102.5 98.2 104.4 113.2 123 128.3 136.8 150.4 161.6 184 200 226 233.3 240.1 243.5 252.7 252.5 264.3 279.9 295.8 306.9 312.9 314.5 313.4 322.8 334.5 344.6 347.9 341.3 342.2 352.3 353.2 354.5 363.5 363.7 357.9 344.4 334.4 335.5 336.5 331.4 332 340.5 354.7 375.9 398.4 406 421.8 425.4 394.1 378.5 357.5 344.5 326.8 317.7 314.2 304.9 286.7 251.2 224 213 195.3 175.4 161.4 143.3 131.5 123.6 119.7 116.4 113.9 118.2 122 129.9 140.6 154.8 154.7 143.9 152.8 171 175.2 176.9 176 182.9 185.1 188.7 199.2 202.8 205.6 200.5 205.8 204.4 204 210.9 216.1 222.4 230.1 243.3 253 253.1 250.2 244.6 249.5 259.1 263.6 254.1 250.5 250.8 248 242.1 219.2 206.7 193.9 173.7 154.6 147.1 141.2 135.4 128.4 118.3 115.4 116.4 114.1 108.9 97.4 99.8 93.7 89.7 87.2 84.3 71.1 80.9 88.2 87.3 80.5 73 86.5 103.2 107.3 107.7 122.1 133.3 145.8 152.6 151.6 146.9 150.9 140.2 137.7 142 148.2 154.8 160 172.1 178.6 185.5 190.7 192.6 194.7 196.3 200 200.4 190.4 202.6
21.9 25.3 28.5 30 37.1 35.6 37.7 42.9 51.1 61 63.2 60.7 51.9 44.9 44.3 37.2 36.6 37.4 38.8 38.5 38.6 40.5 26.4 19.1 32.7 44.8 55.5 66.9 78.6 81 84.3 87.7 85.9 85 85.4 78.9 89.6 93.7 103.8 103.4 117.2 122.2 129.7 144.1 152.7 180.5 210.8 222.3 218.3 224.1 223.5 233.2 235.2 244.9 260.4 272.2 285.7 299.1 302.9 307.7 312.5 317.9 328.4 344.1 347.4 350.4 349.1 355.5 372 377.2 385.9 385.1 378.9 371.5 361 351.6 346.2 342.8 344.6 355.3 363.9 382.5 402.5 420.3 432.2 420.8 399.1 377.5 359.7 344.1 323.6 315.9 310.6 297.5 273.2 249.1 224.9 214.1 195.9 176.4 153.7 136.9 128.2 120.7 116.4 112.6 110.6 114.8 117.2 121.5 127.4 132.1 136.8 127.8 138.8 155.6 170.8 172.6 170.7 179.7 184.5 187.2 190.7 196.9 208.2 203.7 205.3 212.3 208.3 209.3 214.9 223.3 236.9 246.5 256 262 262.5 255.1 249.8 256.8 262.7 266.9 256.5 253.1 249.6 246.9 232.9 211.6 200.9 178.8 157.9 149.5 141.2 136.4 129 121.2 117.9 115.5 114.1 111.6 100.4 96.2 93.8 89.8 87.1 81.7 74.5 70.8 81.4 86.5 74.1 66.7 84.1 94.5 110.1 112.4 114.3 129.7 144 152 158.8 154.7 154.2 153.1 142.1 139.1 138.7 144 157.7 162.7 170.8 181.3 187.3 191.5 192.2 193.7 201.1 205.6 194.1 193.5
12.9 23.4 25.5 27.7 31.3 34.7 38.9 43.3 49.2 59.7 63.3 60.5 44.8 42.5 40.4 35.2 35.7 37.6 40.3 37.3 37.3 28.3 27 5.6 32.6 43.1 50 62.2 72.7 72.1 71.2 66.8 70.5 76.4 71.8 70.4 77.9 93.3 109.7 116.4 116.7 126.1 132.8 145.3 169.5 200.2 214.2 222.2 222.3 215.1 215.5 212.9 223.3 236.6 252.4 266.6 279.4 293.7 303.1 307.3 314.4 318.8 326.4 337.8 355.7 361.6 372.4 369.2 387.6 398.5 405.3 403.9 407.3 405.1 396.5 384.6 366.2 360.4 363.5 376.2 384.3 391.5 409.4 427.1 439.2 412.7 392.3 373.8 357.6 341.8 321.9 312.9 309.9 288.7 256.7 238.8 226.6 213.6 206.4 185.4 153.8 136.6 124.6 118.1 114.1 110.6 107.5 111.6 113.6 116 118 120.2 122.3 121.9 126.4 133.3 151.1 169.7 169.3 177.2 188.1 186.6 190.7 198 204.6 207.1 202.6 213.3 209.7 210.7 214 230.5 245.6 246.8 257.4 267.7 267.8 266.9 256.5 255.3 260.4 263.7 269.9 257.4 252.4 250.6 246.9 222.6 201.8 184.2 163.4 148.8 144.4 137.8 130.8 125.3 119.8 118.2 109.6 110.5 104.3 99.5 96.1 91.4 87.2 84.8 83.2 73.3 64.9 81.9 83.6 63.9 74.7 86.6 105.5 118.7 123.7 125.9 139 150.7 157.8 164.6 155.8 156.9 151 146.9 141.9 140.6 147.8 156.6 162.6 173.4 180.3 186.4 189.8 193.9 197 206.2 201.6 194.6
10 16.8 25.2 25.1 26.8 32.8 35.2 40.5 45 51.4 56 50.3 40.2 42.4 34.8 34.4 35.7 38.3 33.1 28.4 25.8 21.5 20.5 5.6 32.9 42.3 46.8 58.6 58.9 55.7 58.3 59.9 62.5 64.2 61.9 67.2 80.8 99 113.9 119.7 115.8 125.5 142.7 164.9 180.4 195 212.3 215.8 210.8 204.6 198.7 198.1 219.2 234.2 246.7 262 278.8 291 300 310.9 314.1 321.2 335.6 339.1 355.3 375.6 386.3 398.1 403.9 412.8 434.6 434.5 440.4 443.2 451.2 430.7 400.4 391.4 390.6 395.5 402.5 408.5 419.3 441.2 437.9 407 384.7 369.5 359.7 344 328.6 319.3 314.2 287.4 262.9 246.7 230.9 211.6 199.7 187.2 156.4 134.1 121.5 113 112.1 109.1 106.7 107.3 110.6 111.7 113.6 113.7 112.1 112.2 112.5 113.8 128.2 143.6 172.5 174.7 190.1 187.5 188.2 200.5 205 208.2 205.8 203.6 212.9 211.3 215.2 228.4 244.3 248 258.3 268.5 271.4 269.8 263.6 256.1 258.4 263.1 267.7 269.1 252.4 250.6 249.6 237.2 206.2 186.8 171.5 152.1 149.8 143.2 130.2 128.3 120.5 117 113.1 106.8 108.4 103.2 98.6 92.7 89.2 88.4 86.9 75.9 63.1 71.1 85.1 63.5 68.6 81.8 96.1 117.5 128.1 132.4 134.8 150 160.7 166.5 165.2 157 156.5 152.1 152.9 145.1 142.6 149.3 155.5 165.1 170.1 177.9 183.3 186.6 195.8 213.2 206.2 196
5.8 11.6 17.8 21.4 22 25.8 30.3 33.9 38.9 41.2 43.2 43 39.3 35.2 30.5 31.8 34 37.2 24 23.7 22.4 19.1 8.1 23 25 34.7 43.6 49 54.4 51.3 50.2 54.5 54.4 53.1 58.6 70.4 87.2 103.6 118.6 113.3 114.6 117.6 136 174.3 186.1 187.9 192.7 196.9 192 188.7 189.3 210.7 217.6 235.2 237.1 254 272.2 287.3 299.8 315.2 324.4 328.9 355.4 362.2 355.9 370.7 390.4 416 439.4 438.8 443.4 466.9 487.1 483.2 496.5 482.8 431.4 415.5 407.6 423 417.1 427.2 431.3 451.8 436.6 395.7 380.2 369.6 359.9 341.2 329.4 322.4 318.8 288 263 247.2 233.1 208.9 192 177.4 150.4 133.1 120.5 110.1 108.6 107 105.4 105.4 107.2 108.1 108.8 107.2 106.7 108.1 107.7 108.9 125.7 157.3 172.3 173.6 194.9 192.5 190.7 199.2 204.6 208 206.4 204.6 204.4 211.6 212.2 227.8 242.5 248.1 254.4 265.6 273.4 271.5 271.4 260 257.9 260.1 266.1 268.3 257.5 247.6 246.2 241 217.6 191.2 176.1 161.4 147.6 148 134.3 131.6 125.2 116.6 112.3 107.4 105.1 104.3 99.2 94 86.7 81.4 78 72.6 62.9 62.3 77.2 45.5 68.9 94.7 93.8 110.6 127.5 138.9 136.7 146.7 161 162.3 166.6 163.8 159.6 154.8 154.8 152.9 150.6 145.5 151.6 159.9 163 168 178.4 180.8 188.9 213.3 215.4 203.4
3.8 5 7.8 13.2 17.5 19.1 19.5 26.6 32.2 33.5 34.6 29.3 29.8 28.7 26.8 29.2 34 17.1 19.2 21.5 22 0 15.9 15.1 19.5 25.5 37.9 44.6 49.5 46 43.1 43.6 46.2 51.5 61.2 76.4 94.4 109.7 121.9 112.1 107.5 110.2 122.7 154.3 174.4 183.6 188.4 181.2 182.4 177.7 193.5 214.4 228.2 237.5 243 248.4 265 287.9 305.8 317 329.7 330.7 359.4 373.3 374.1 374.7 396.8 412 442.6 463.3 473.6 479.1 490.9 503.8 516.4 521.9 461.2 440 424.3 432.8 435.7 437.9 441.8 450.8 434.8 397 373.4 366 357.9 344.1 329.5 330.3 317.5 286.4 263.9 251.7 237.1 211.3 190.6 168.8 149.6 130.3 118.6 110.1 106.6 105.1 104.2 104 104.2 104.9 104.6 103.8 104.1 105 105.5 108.2 127.7 156.3 179.2 174 189.1 192.9 193.9 195.1 204.1 216.6 209.9 207.1 210.2 211.1 212.9 223.3 237.2 245.8 252.7 267 267.9 271.4 271.3 268 260.9 260.2 261.5 265.6 265.6 250.2 244.9 243.5 228.9 202.1 180.3 165.7 147 138.1 135.3 133.4 130 121.2 111 108.3 101.1 100.5 98.9 93.9 92.2 90.8 86.4 78.1 63.8 61.5 44.9 51.9 71.3 90.7 110.6 105 122.5 131.8 137.9 143.8 157.5 167 164.6 170.4 167 160.4 154.5 156.1 155.7 149.2 147.4 151.6 160 162.9 171.9 179.2 179.7 203 219.5 212.8
1.6 -1.6 3.5 8.9 15.8 16.8 15.4 15.6 19.1 23.4 27.3 22.9 20.4 21.5 20.5 23.2 14.2 13.2 16.1 9 -1.6 -1.6 6.9 7.2 6.6 6.3 9.2 40.4 43.1 42.9 38.8 42.2 47.6 50.1 58.8 73.4 94.1 116.9 118.2 97 97.2 97.1 102.1 128.8 151.7 167.3 174.9 168.4 167.8 175.9 190 208.6 232.1 249.9 257.7 260.2 264.1 282.5 310 318.6 334 332.6 353.3 374.1 389.1 400.4 403.9 423.4 443.6 473.6 482.3 497.5 495.1 497.4 513.4 524.7 483 466.2 442.9 449.2 454.5 452.5 446.1 450.1 411.3 388.5 370.6 359.3 352.3 338.9 328.9 323.1 300.7 279.3 271.1 262.7 242 218.3 193.6 170.2 147.7 129.6 116.4 108.6 105.8 103.7 103.2 102.9 102.7 102.6 101.9 101.5 101.8 101.9 102.9 109.7 131.8 158 175.8 174.8 185.2 193.5 195.1 195.9 203.5 213.5 214 212.9 211.7 208.5 216.9 227.4 240.1 246.3 250.8 256.4 263.8 268.9 270.6 273.6 267.6 261.5 261.2 261.9 267.1 251.7 243.9 242.6 232.3 215.4 185.6 168.8 149.9 138.4 139.4 139 132.6 126.7 115.3 106.8 101.1 101.4 99 100.8 102.9 103.7 89.9 79 68.8 57.8 48.2 53 70.8 85 106.5 110.3 111.5 130.1 136.1 143.8 155.2 161.9 164.2 165.9 169.1 162.1 163 157.9 156.7 153.4 151.9 150.3 149.1 154.8 162.5 167.1 177.8 188.4 211.6 214.3
-1.6 -1.6 0.8 2.8 9.7 14.5 12.6 11.6 12.3 13.4 13.9 15.7 14.8 14.8 13.9 13.2 9 5.1 12.7 3 -1.6 -1.6 3 2.2 1.6 2.1 3.5 7.7 37 30.6 30.4 39.7 43.4 45.2 45 50.4 70.9 98.6 78.4 68.1 68.1 82.2 82.1 95.1 114 150.7 160.7 153 164.2 177 183.1 209.1 225.4 250 276.2 275.6 266.1 277.7 304.3 322.2 329.6 334.6 351 384.9 408.8 419 419.3 421.3 440.3 469.8 480 499.2 496.9 505.9 500.9 502.4 488.5 484.3 460.2 464.2 469.4 459.4 436.4 437 405.3 374.6 364.5 354 339.2 329.3 316.7 305.1 290.9 282.3 272.7 264.6 249 223.5 195.2 170.3 146.7 125.3 114.4 106.4 103.8 102.6 102.4 102 101.7 101.2 100.8 100.4 99.5 100.4 99.5 107.2 124.3 150.5 171.4 180 180.2 194.4 194.3 196.5 206 205.2 208.2 214.5 211.8 213.5 215.4 232 240.4 248.4 250.6 252.4 259.3 267.3 270.8 274 273.6 268.9 261.4 260.9 264.5 254.6 244.7 237.8 232.6 220.8 193.9 171.5 156.6 142.4 144.6 147.3 136.6 131.7 121.6 111.6 103.5 104.5 103.8 104 102.8 105 94.9 79.3 72.9 60.6 42 45.7 64.9 80.6 102 117.4 107.6 116.3 134.7 145.9 151.9 161.7 163.5 167.3 168.9 166.2 163.7 164.5 163.3 160.7 159.1 158.9 152.5 151.7 155 159.6 169 175.1 194.1 207.4
-1.6 -1.6 -1.6 -1.6 2.2 8.9 11.8 4.1 6 7.9 9.2 10.1 8.8 7.1 8.8 2.3 1.5 -1.6 -1.6 -1.6 0 -1.6 -0.1 -1.6 -1.6 -1.6 -1.6 -1.6 1.6 2.1 2.4 13.6 16.5 13.4 13.5 22.8 45.9 34.8 34.7 40.1 35.9 47.8 57.9 68.9 90.2 125.5 146.9 150.8 162.3 167.3 181.8 198.6 223.4 247.2 277.2 286 280.5 278.6 291.5 315.4 329.3 335.9 352.2 381.7 423.8 425.7 442.5 434.8 444.4 464.6 475.6 475.2 489.7 484.4 479.2 465.7 467.4 462.2 454.1 452.5 457.9 438.3 413.1 405.9 399.7 369.4 356.7 340 322.8 317.7 298.5 286.6 280.1 274.2 270.9 261 249.3 222.1 190.8 169.5 147.4 122 109.8 105.3 102.8 102.2 101.6 101.4 101.2 100.8 100.2 99.8 99.2 99.8 98 105.7 118.1 138.6 165.6 178.5 180.3 181.1 191.5 191.6 198.4 206.1 208.3 217.2 215 213.1 210.9 228.8 234.7 256.2 262.5 255.8 257.5 266.2 272.8 273.8 277.3 269.1 262.5 260.4 260.8 255.2 246.9 239.2 229.3 219.9 194.5 173 157.7 146.9 144.5 150.4 143.4 135.7 130.9 119.1 106.5 106 105.4 107.1 105.7 101.1 97.4 84.6 77.5 66.8 46.6 42.5 59.1 72.5 94.5 114 124.8 112.3 124.1 147.9 150.3 159.4 168.8 168.1 168.8 167.7 164.2 163.8 173.5 166.5 163.1 164.5 160.4 157.5 157 155.7 159.5 167.6 179.9 194.3
-1.6 -1.6 -1.6 -1.6 -1.6 -1.6 2 1.6 2.1 2 2.8 2.3 2.3 2.5 -1.6 -1.6 -1.6 -1.6 -1.6 -1.6 -1.6 -1.6 -1.6 -1.6 -1.6 -1.6 -1.6 -1.6 -1.6 -1.6 0.3 1 1.4 1.3 2.4 6.3 2.4 2.4 2.4 2.4 4.2 22.2 37.4 58.9 79.7 116.7 137.8 150.1 164.6 171.6 179.3 200.8 223.6 245.8 264.7 281.9 287.9 278.2 287.4 300.7 327 337.1 349.1 373.7 413.5 437.2 452.3 452 458.1 466.9 468.9 466 466 457.9 440.7 442 437.4 425.2 429 419.9 424.5 404.2 394.6 385 380 360.6 347.5 326.3 317.3 301.3 283.2 277.8 272 267.5 262.8 257.1 248.8 220 187.8 166.1 148.8 124.8 107.3 104 102.8 102.2 101.9 101.7 101.3 100.8 100.4 100.1 101.6 106.8 103.3 107.7 113.7 132.2 157.3 172.1 176.3 181.4 183.6 192.9 194.7 205.4 212.5 212.2 217.9 209.7 205.6 220.6 232.7 244.1 260.8 265.7 259.3 266.7 274.8 275.3 275.4 269.8 264.2 259.5 259.2 262.4 250 239.8 232.1 221.5 201 177.8 161.6 143.3 140.9 151.6 148.1 139 133.1 119.3 111.8 105.8 104.7 100.7 103.3 107.1 102.8 86.4 80 71.1 42.5 34.4 56.5 66.1 84.9 103.9 124.7 121.2 116.4 138.8 143.4 158.9 168.2 178.9 175.4 167.6 165.7 170.7 165.2 170.9 166.4 166.1 164.8 165.8 163.5 159.3 159.5 160.6 171.4 188.8
-1.6 -1.6 -1.6 -1.6 -1.6 -1.6 0.1 -1.6 -1.6 0.3 2.3 1.7 0.2 -1.6 -1.6 -1.6 -1.6 -1.6 -1.6 -1.6 -1.6 -1.6 -1.6 -1.6 -1.6 -1.6 -1.6 -1.6 -1.6 -1.6 -1.6 -1.6 -1.6 -1.6 -1.6 -1.6 -1.6 -1.6 -1.6 -1.6 1.5 3.8 30.9 47 61.1 96.5 142.1 146.9 164.9 170.8 181.4 200.8 219.2 244.3 258.7 265.4 280.7 281.6 281.4 300.8 320.4 329.5 344.8 376.5 415.6 444.7 442.2 447.9 445.9 452.5 468.1 446.4 433.6 421.7 413.6 419.2 407.8 402.3 394.6 390 379.3 373.3 380.2 369.9 356.3 345 331.5 319.3 304.4 290.6 275.4 271.7 265.7 260.2 257.2 251.6 247.4 211.3 183.3 163.7 148.7 126.7 107.9 103.2 103.6 103.2 102.7 102.3 101.8 102 101.7 102.2 106.7 108.1 99.3 94.2 110.3 143.3 156.8 163.5 167.6 173.8 181.5 190.3 192.6 197.5 210.6 212.6 218.7 213.6 204.2 210.5 225.1 236.5 245.8 264 261.8 265 275 278.6 273.6 267.9 261.9 258.6 258.3 260.1 253.2 243 233.6 220.8 199.5 178.7 160.4 143.7 137 151.2 148.6 140.5 132.7 120.6 116.3 110.2 102.3 100.5 93.6 93.1 101.6 92.8 77.6 70.2 41 31.7 53.9 60.2 72.5 94 111.1 134.4 117.3 119.3 133.2 147.5 161.2 174.5 176 171 166.7 169.8 178.5 170.4 176.1 174.9 170.9 170.2 170 166.7 160.1 160.7 161.7 178.3
-1.6 -1.6 -1.6 -1.6 -1.6 -1.6 -1.6 -1.6 -1.6 -1.6 -1.6 -1.6 -1.6 -1.6 -1.6 -1.6 -1.6 -1.6 -1.6 -1.6 -1.6 -1.6 -1.6 -1.6 -1.6 -1.6 -1.6 -1.6 -1.6 -1.6 -1.6 -1.6 -1.6 -1.6 -1.6 -1.6 -1.6 -1.6 -1.6 -1.6 -1.6 1.4 12.1 36.3 47.3 72.8 98.9 148.6 153.7 170 184.2 192.4 213.2 238.6 243.6 249.9 253 262.7 269.3 295 326.3 333.9 335.3 368.2 401.9 423.4 427.8 437.8 444.2 447.8 463.2 436.6 407.6 389.7 390.6 383.5 380.2 374.4 368.2 361.9 364 356.6 353.7 342.3 336 325.4 319.3 310.5 296.1 283 272.1 265.1 257.8 254.8 253.3 249.1 227.3 198.4 177.6 157.8 144.1 123.1 109.9 104.7 104.5 104.5 104.4 104.8 104.5 105.3 104.6 105.1 111.7 106.8 94.7 91.3 108.3 144 158.1 162 170.2 185.4 197.5 185.9 195.4 201 217.6 214.1 214 212.9 205.1 203 220.4 231.7 243.3 253.6 261.4 266.8 269.2 276.3 275.5 264.1 260.6 257.2 256.7 255 250.7 242.6 234.8 216.8 196.9 176 157.2 142.3 135.3 145.8 145 138.5 133.1 119.2 118.5 114 104 97.5 92.9 83.7 85.9 90.4 76.3 67.2 39.4 37 53.1 58.3 67.6 75.8 93.7 120.7 127.2 112.6 124.5 135.4 153.9 157.6 168.9 172.5 169.8 169.3 180.8 184.6 175.8 182.2 179.7 176.5 173.5 169.8 166.9 162.1 161.3 162
-1.6 -1.6 -1.6 -1.6 -1.6 -1.6 -1.6 -1.6 -1.6 -1.6 -1.6 -1.6 -1.6 -1.6 -1.6 -1.6 -1.6 -1.6 -1.6 -1.6 -1.6 -1.6 -1.6 -1.6 -1.6 -1.6 -1.6 -1.6 -1.6 -1.6 -1.6 -1.6 -1.6 -1.6 -1.6 -1.6 -1.6 -1.6 -1.6 -1.6 -1.6 -1.6 2.7 25.6 37.4 49.9 72.9 109.6 128.7 145.8 163.2 182.4 197.3 208.6 206.2 214.8 226 239.7 258 289.6 315.5 335.9 338.6 348.7 384.5 404 415 433.9 441.1 449.9 441.6 409.2 382.8 369.5 359.4 350.9 349.7 350.5 349.6 347.4 348 344.2 337.7 327.3 316 311.3 306.1 296.6 288.8 281.5 268.4 257.2 252.8 251.4 248.7 246 209.9 187.6 172.4 153.1 138.1 121.8 110.6 106 105.8 107.8 110.9 111.2 113.2 113.3 111.4 107 98 92.2 88.1 90.7 109.8 143.7 160.9 169.3 173.4 185.6 195.2 196.4 198.1 204.1 213.4 221.4 216.1 213.7 205.6 200.4 212.8 227.6 237.4 247.2 256.2 260.8 266.9 271.1 274 264.3 260.3 254 254.2 255.1 245.5 238 233.1 217.9 193.9 177.2 157.8 148.5 136.5 134.2 137 133.6 128.7 122.9 115.4 111.6 106.5 98.6 91.1 84.2 79.6 79.5 77.5 67 48.2 33.8 48.3 54.7 61.2 63.5 75 88.5 103.2 98.4 103.6 120.4 132.9 147.5 156.3 173.1 171.2 176.4 189.4 197.5 195.1 183.9 192.6 188.3 179.7 173.4 176.6 172 166.9 163.5
-1.6 -1.6 -1.6 -1.6 -1.6 -1.6 -1.6 -1.6 -1.6 -1.6 -1.6 -1.6 2.1 -1.6 -1.6 -1.6 -1.6 -1.6 -1.6 -1.6 -1.6 -1.6 -1.6 -1.6 -1.6 -1.6 -1.6 -1.6 -1.6 -1.6 -1.6 -1.6 -1.6 -1.6 -1.6 -1.6 -1.6 -1.6 -1.6 -1.6 -1.6 -1.6 0.9 4.5 24.4 22.3 40.2 80.4 103.5 117 121.6 129.1 143.6 157.1 160.6 178.1 190.2 216.3 261.5 282.1 305.4 327.5 342.5 348.2 359.3 391.1 400.1 421.9 437.7 438.9 406.8 372.5 351.2 342.1 341.1 343.9 332.6 328.6 329.5 331.9 325.9 334.4 322 312.4 306.1 304.6 294.8 291.2 284.3 275.7 263.6 255.8 247 248.1 243.1 217.6 193.1 175.8 168.3 150.5 130.9 120.3 113.3 108 108.3 114.6 121.9 125.3 117.7 114.1 105.4 96 90.9 86.9 87.9 90.4 112 148.1 160.8 176.3 177.9 185 191 200.6 203.3 199.2 207.1 213.1 222.5 210.5 210.6 200.8 207.4 225.6 229.7 241.5 250.1 259.9 266.4 264.6 269.8 268.4 260.6 251.7 244.8 246 241.8 230.8 231.6 219.1 192.5 176.9 162.6 152.5 140.2 128.5 128.7 128.5 123.2 119.4 113.6 110.3 109.1 101.9 91 84 77.6 75.3 72.7 68 56.5 21.5 42.7 50.4 56.1 61.2 54.6 67 77.6 91.4 88.2 103.7 123.4 134.8 151.9 158.9 177.3 179.9 197.5 208.8 208.8 207.6 202.5 201.6 196.1 185.6 176.1 180.4 178 169.2
-1.6 -1.6 -1.6 -1.6 -1.6 -1.6 -1.6 -1.6 -1.6 -1.6 -1.6 -1.6 -1.6 -1.6 -1.6 -1.6 -1.6 -1.6 -1.6 -1.6 -1.6 -1.6 -1.6 -1.6 -1.6 -1.6 -1.6 -1.6 -1.6 -1.6 -1.6 -1.6 -1.6 -1.6 -1.6 -1.6 -1.6 -1.6 -1.6 -1.6 -1.6 -1.6 -1.6 -1.6 1.9 2.4 12.2 34.1 65.2 76.5 83.6 93.4 106.9 119.5 128.2 143.3 174.7 211.3 256.9 291.6 311.5 325.1 347.4 350.5 363.6 372.9 393.4 411.9 428.8 408.7 370.7 347.8 336.8 332.8 327.7 332.7 322.7 313.2 318.1 321.8 312.6 323.1 318.1 308.9 303.4 293.5 291.6 284.1 281.3 269.6 259.8 245.6 240.2 234.4 216.9 198.8 175.2 160.7 155.7 140.4 127 119.4 117.3 110.2 113.1 117.6 119.8 118.4 114.8 114 103.3 92.9 87.9 86.2 87.3 92.7 114.4 142.5 160.2 171.7 182.5 188.8 194.8 208.5 210.6 201.1 200.7 211.4 214 218.1 204.1 206.6 200.1 223.6 228.1 235.4 246.1 254.5 261.3 262.4 264.6 267 258.2 256.3 248.2 243.6 236.9 227.6 222.4 220.2 192.6 175.9 166.4 154.1 139.6 129.1 126.3 121.9 119.5 116.9 113 109.6 106.5 101.7 92.7 82.1 73.1 73.1 71.7 67.8 61.4 41.8 37.6 48.6 52.2 55.9 50.1 58.2 65.8 78.3 80 89 107 128.3 138 157.2 169.1 186.5 204.4 212.5 220.1 219.2 218.2 210.8 201.5 195.1 193.8 184.8 184.3 181.8
-1.6 -1.6 -1.6 -1.6 -1.6 -1.6 -1.6 -1.6 -1.6 -1.6 -1.6 -1.6 -1.6 -1.6 -1.6 -1.6 -1.6 -1.6 -1.6 -1.6 -1.6 -1.6 -1.6 -1.6 -1.6 -1.6 -1.6 -1.6 -1.6 -1.6 -1.6 -1.6 -1.6 -1.6 -1.6 -1.6 -1.6 -1.6 -1.6 -1.6 -1.6 -1.6 -1.6 -1.6 -1.6 -1.6 1.3 7.8 24.1 42.3 51.6 63.4 77.4 90.7 109.4 144.5 167.6 208.3 246.5 283.7 321.6 337.4 350.9 354 359.6 375.3 375.5 381.6 384.2 353 334.9 326.2 324.6 319.9 316.4 317.2 313.8 308 305 304.3 300.2 310.7 314.7 316.5 305.3 289 284.2 277.6 273.9 260.4 251.7 235.6 231.1 213.3 195.3 180.2 162.1 147.6 140.4 127.8 119.5 118 116.8 115.8 116.5 122.5 118.7 116.7 114.9 117.9 117.8 92.9 86.3 85.9 88.2 97.1 116.9 141.5 157.1 172.5 185.2 189.5 199.2 206.1 207.7 213.7 204.6 207.7 207.1 209 203.5 200.8 197.5 213.4 226.2 234.9 244.7 251.2 259.6 265.3 257.7 260.2 256.1 256.5 249.4 245 229.8 225.2 223.3 210.4 193.2 173.5 163.4 154.2 140.1 130.8 123.7 116.4 115.9 112.8 111.8 107.3 100.8 99.2 91.9 84.5 72.7 65.3 66.9 64.9 59.3 44.2 31.7 46.6 47.7 44.4 43.8 51.2 59.9 66.7 71.3 83.9 95.8 116.1 129.6 149 168.6 183.8 197.7 211.5 227.6 230.4 230.9 226.5 213.4 203.3 200.3 196.8 191.8 187.6
-1.6 -1.6 -1.6 -1.6 -1.6 -1.6 -1.6 -1.6 -1.6 -1.6 -1.6 -1.6 -1.6 -1.6 -1.6 -1.6 -1.6 -1.6 -1.6 -1.6 -1.6 -1.6 -1.6 -1.6 -1.6 -1.6 -1.6 -1.6 -1.6 -1.6 -1.6 -1.6 -1.6 -1.6 -1.6 -1.6 -1.6 -1.6 -1.6 -1.6 -1.6 -1.6 -1.6 -1.6 -1.6 -1.6 -1.6 -1.6 2.4 16.1 35.2 40.5 50.3 69.1 113.2 144.4 167.5 207 240.8 276 314.7 340.2 358.9 357.6 361.9 377.5 369.2 347.6 334.9 323.9 317.5 317.9 313.5 305.9 304.2 302.8 308.3 304.9 299.2 292.6 294.2 284.3 293.4 295.5 302.2 283.6 274.3 270 266 252.3 234.4 218.4 210.1 196.7 179.7 161.6 151.3 135.8 130.1 120.9 117.9 117.6 125 121.6 119.2 121.5 118.9 119.9 115.7 115.5 119 94.6 86.3 86.5 94.4 103.4 114.2 134.1 156.4 170.7 184.1 197.8 199.1 203 205.2 209.5 209 205.4 213 206.6 203.1 198.7 197.3 200.3 222.8 231.9 241.8 248.5 255 267.2 256.6 253.4 253.9 251.9 248.7 248.3 231.1 219 221.5 206.5 187 177 160 149.7 138.1 134.3 127.9 110.4 107.5 110.5 109.5 104.7 98.2 92.8 90.4 84.6 71.9 61 58.6 63 56.6 44.1 25.7 40.8 45.7 38.2 38 44.1 54.5 61.3 66.1 74.5 87.8 104 122.9 136.6 164 182.3 194.5 208.5 220 230.6 247 239.9 219.1 212.4 215.5 209.2 195.2 195.6
-1.6 -1.6 -1.6 -1.6 -1.6 -1.6 -1.6 -1.6 -1.6 -1.6 -1.6 -1.6 -1.6 -1.6 -1.6 -1.6 -1.6 -1.6 -1.6 -1.6 -1.6 -1.6 -1.6 -1.6 -1.6 -1.6 -1.6 -1.6 -1.6 -1.6 -1.6 -1.6 -1.6 -1.6 -1.6 -1.6 -1.6 -1.6 -1.6 -1.6 -1.6 -1.6 -1.6 -1.6 -1.6 -1.6 -1.6 -1.6 -1.6 2.3 16.5 29.1 39.8 66 112.9 142.6 167.6 204.9 242.7 269.4 309.3 333.8 365.8 359.7 373.2 384.8 355.3 338.2 329.3 317.9 306.7 307.6 301.7 298.8 297.3 293.9 299.1 300.5 290.1 286.3 281.4 273.2 269.5 275.4 277.2 273.8 266.2 259.7 244.2 226.2 210.3 200.8 189.5 180.9 169.3 146.8 135.8 128.1 121.9 119.4 117.2 117.9 124.8 125.8 124.1 119.8 118.5 118.5 122.4 112.8 112.9 98.7 85.3 88.1 102.1 103.3 110.9 130.1 153.9 167.5 184.4 197.1 205.2 203.5 208.1 209.5 207.8 206.5 206.2 206.4 203 199.4 206.6 198.7 212.4 228.9 233.1 245.1 251.4 256.4 256.1 245.6 249.6 248.1 243.6 243.5 234 218.1 211.8 207.3 184.2 173.2 160.1 149.2 144.2 132.3 127.2 116.3 104.4 107.3 109.2 100.1 96.7 92.4 81.3 79.6 72.1 66.9 51 51 53.7 41.3 17.4 34.6 40.7 36.4 33.5 34.4 48.4 57 64 67.9 76.5 92.4 112.5 127.3 149 176.3 190.7 206.5 220.4 227.5 247.1 248.4 234.2 219.9 225.2 223.8 215.1 196.4
-1.6 -1.6 -1.6 -1.6 -1.6 -1.6 -1.6 -1.6 -1.6 -1.6 -1.6 -1.6 -1.6 -1.6 -1.6 -1.6 -1.6 -1.6 -1.6 -1.6 -1.6 -1.6 -1.6 -1.6 -1.6 -1.6 -1.6 -1.6 -1.6 -1.6 -1.6 -1.6 -1.6 -1.6 -1.6 -1.6 -1.6 -1.6 -1.6 -1.6 -1.6 -1.6 -1.6 -1.6 -1.6 -1.6 -1.6 -1.6 -1.6 0.2 4.4 28.5 37.7 59.8 98.3 131.5 160.3 194.4 231.8 273.5 298.9 323.3 353.8 370.6 367.7 381.3 356.8 328.1 317.5 308.5 290 285.3 290.3 292.5 290.3 289.3 293.2 291.8 286.5 274.9 254 254.7 254.2 258.5 261.9 262.1 256 239.7 214.3 202.6 193.5 183 179.5 176.3 163.4 145.1 128.6 124.2 119.7 117.4 117.7 118.9 126.7 126.2 126.7 119.7 117.6 116.5 117.1 109.2 109.3 100.6 81.1 90.8 92.6 95.7 103.5 114 142.8 162.5 184.4 195.1 202.8 207.2 213.3 215.2 212 206.6 206.4 205.3 199.5 198.8 202.1 195.7 205.2 224.2 230.7 242.2 247 250.4 254.1 249.5 242.6 242.4 239.1 242.6 235.5 217.7 212.1 202.5 184.6 168.8 164.5 147.2 144.6 138.6 125.3 115.3 103 101.8 104.2 100.1 92.3 91.5 79.6 72.1 69.9 67.2 59.6 42.5 40.4 36.3 11.8 30 33.2 31.8 28.7 35.2 45.9 51.3 63.3 62.3 72.3 79.9 96.5 116.8 138.7 158.4 184.2 198.3 215.4 225.1 241.6 256.3 251.3 236.9 231.8 231 223.3 213.3
-1.6 -1.6 -1.6 -1.6 -1.6 -1.6 -1.6 -1.6 -1.6 -1.6 -1.6 -1.6 -1.6 -1.6 -1.6 -1.6 -1.6 -1.6 -1.6 -1.6 -1.6 -1.6 -1.6 -1.6 -1.6 -1.6 -1.6 -1.6 -1.6 -1.6 -1.6 -1.6 -1.6 -1.6 -1.6 -1.6 -1.6 -1.6 -1.6 -1.6 -1.6 -1.6 -1.6 -1.6 -1.6 -1.6 -1.6 -1.6 -1.6 -1.6 2.7 26.4 42.7 55.7 86.2 123.4 160.5 198.3 217.7 263.7 287.5 320.9 338.7 364.3 367.9 363.4 344.6 322.1 306.2 287.4 276.6 275.7 278.4 281.6 281.8 286.8 286.1 279.2 275.6 258.6 241.9 239.5 242.8 245.4 248.5 248.7 240.8 215.4 200.1 187 181.1 173.7 164.7 161.7 150.7 144.9 121.1 119.4 116.4 121.5 122.9 121.6 128.1 130.7 126.9 123.7 118.4 114 113.6 99 89.7 84.2 80 84 86.6 92.2 98.1 103 124.1 154 180.2 193.8 197.7 205.2 210.1 215.1 212.4 206.4 206.5 207.7 196.4 194 195.1 197.8 202.5 210.4 231 237.1 242.1 247.3 252.2 249.2 236.9 236.9 237.4 234.5 239.1 217.2 212 194.9 181.3 163.4 163.1 156.5 144.9 142.2 120.7 116.3 107.9 102.2 99.2 95.7 88.3 82.7 76.3 63.3 64.6 64.6 62.7 46.5 34.6 32.6 11.9 23.9 27.1 26.8 27.1 31.6 41.7 50.3 56.5 58.7 62.8 74.8 85.7 110 144.7 151.3 181.7 192.4 205.4 228.1 236.7 248.2 256.6 242.6 235.3 237.2 233.1 220.1
-1.6 -1.6 -1.6 -1.6 -1.6 -1.6 -1.6 -1.6 -1.6 -1.6 -1.6 -1.6 -1.6 -1.6 -1.6 -1.6 -1.6 -1.6 -1.6 -1.6 -1.6 -1.6 -1.6 -1.6 -1.6 -1.6 -1.6 -1.6 -1.6 -1.6 -1.6 -1.6 -1.6 -1.6 -1.6 -1.6 -1.6 -1.6 -1.6 -1.6 -1.6 -1.6 -1.6 -1.6 -1.6 -1.6 -1.6 -1.6 -1.6 -1.6 1.4 20.8 46.8 60.4 87.5 113 156.7 192.5 217.7 234.7 273.7 310.2 333.6 334.8 358 352.3 332.5 313.9 293.7 277.9 267.5 267.4 267.1 268.3 269.3 276.4 274.8 263.6 255.5 241.7 233.3 231 231.5 234.2 235 230.5 214.2 200.5 188 171.4 164.3 157.4 153.4 144.3 139.2 131.4 118.5 114.9 114 122.2 127.4 123.7 127.1 131.3 122.8 116.8 117.8 104.5 98.9 91.1 82.5 79.4 77.9 82.9 86.9 88.9 88.7 95.2 107 127.7 167.3 188.9 195.8 202.8 205.4 213.2 211.5 213.3 205.1 202 206.9 188.4 192.2 196.9 194.2 202.2 218.9 233.9 238.3 239.2 242.5 246.6 234.8 231.4 229.5 234.9 229.1 216.5 209.4 193.4 170 157.7 156.9 161.4 147.1 138.2 129.4 115.7 109.7 106.5 98.9 90.2 84.6 73.4 70.6 60.4 58.9 58.4 57.9 46.9 32.2 29.2 15.8 18.8 20.2 20.8 22.7 26.7 37.7 50.4 59.8 55.4 56.4 64.5 84.1 94.5 126.3 158 168.1 195.7 205.4 221.9 231.9 238.5 252.4 244.7 241.7 234.2 231 226.4
-1.6 -1.6 -1.6 -1.6 -1.6 -1.6 -1.6 -1.6 -1.6 -1.6 -1.6 -1.6 -1.6 -1.6 -1.6 -1.6 -1.6 -1.6 -1.6 -1.6 -1.6 -1.6 -1.6 -1.6 -1.6 -1.6 -1.6 -1.6 -1.6 -1.6 -1.6 -1.6 -1.6 -1.6 -1.6 -1.6 -1.6 -1.6 -1.6 -1.6 -1.6 -1.6 -1.6 -1.6 -1.6 -1.6 -1.6 -1.6 -1.6 -1.6 2.9 14.6 43.1 59.6 92.7 112.5 145.9 166.7 189.5 239.4 254.2 287.8 314.9 333.6 329.6 328.5 316.3 306.5 289.1 268.5 259.5 253.2 255 257 254.3 255.1 259.2 245.5 242.2 239.4 231.8 221.3 219.4 220.8 218.6 199.9 193 181.5 167.6 160.9 155.9 144 142.7 136.2 126.6 119.9 114.3 111.4 112.8 122.1 137.3 121.1 124.5 127.7 118.8 109.6 104.9 100.1 93.2 86.4 80.7 74 66 78.3 84.3 81.6 79.6 85.5 94.7 106.6 128.5 154 183.2 192.8 201.4 201.5 203.8 210.3 203.7 203 198.6 195.3 187.8 193.1 189.8 200.8 208.4 231.9 231 227.8 233.2 234.6 230.6 222.6 225 230.1 222.3 214.7 205.7 188.5 166.2 157.4 150.9 151.7 150.5 143.1 131.3 114.8 109.6 106.3 98.2 89.4 80.7 73.3 66.4 55.8 54.5 53.4 48.8 43.4 25.3 22.4 15.9 8.6 13.3 15.1 17.6 20.5 36.5 45.4 50.9 52.6 52.1 62.3 76.7 87.4 117.9 142.2 172.2 190.8 207.2 223 225.9 231.6 243 245.1 244.7 235.1 224.9 220.9
-1.6 -1.6 -1.6 -1.6 -1.6 -1.6 -1.6 -1.6 -1.6 -1.6 -1.6 -1.6 -1.6 -1.6 -1.6 -1.6 -1.6 -1.6 -1.6 -1.6 -1.6 -1.6 -1.6 -1.6 -1.6 -1.6 -1.6 -1.6 -1.6 -1.6 -1.6 -1.6 -1.6 -1.6 -1.6 -1.6 -1.6 -1.6 -1.6 -1.6 -1.6 -1.6 -1.6 -1.6 -1.6 -1.6 -1.6 -1.6 -1.6 -1.6 -1.6 31.4 45.2 64.2 83.1 104.7 127.9 161.3 170.8 204.1 236.9 262.1 279 307.3 292.3 309.1 307.4 292.7 279.3 274 252 249.3 248.8 247.9 248.8 250.9 240.4 241.3 240.5 241.2 238.2 224.7 209.6 212.1 206.9 189.1 171.9 158.9 152.8 149.1 144.6 135.4 125.1 125.8 120.3 110.1 106.6 107 109.2 114.6 118.7 115.9 123 125.1 113.5 104.2 101.9 98.9 92.6 85.3 78.9 71.7 59 70.5 71.9 70.8 71.1 74.8 81.1 87.7 101.2 124.3 155.1 185.2 193 203.1 200.4 203.7 207.8 202.2 196.2 200.4 185.9 190.2 190.6 196.2 201.2 211.1 216 217.3 225.3 228 226 221.7 221.4 218.4 215 210.1 202.4 180.8 166.7 155.1 146.2 143.7 145.6 138.3 129.6 120.7 114.5 106.4 100.9 88.8 78.2 69.2 58.9 53.4 48.3 51.5 46.6 38.3 23.3 16 9.7 8.1 7.6 12.4 15.8 19.2 31.7 47.5 55 54.7 49.6 56.1 66 84.9 116.2 134.9 158.4 182.1 204.2 223.5 227.4 230.5 230.6 239 233.7 238.7 231.8 221
-1.6 -1.6 -1.6 -1.6 -1.6 -1.6 -1.6 -1.6 -1.6 -1.6 -1.6 -1.6 -1.6 -1.6 -1.6 -1.6 -1.6 -1.6 -1.6 -1.6 -1.6 -1.6 -1.6 -1.6 -1.6 -1.6 -1.6 -1.6 -1.6 -1.6 -1.6 -1.6 -1.6 -1.6 -1.6 -1.6 -1.6 -1.6 -1.6 -1.6 -1.6 -1.6 -1.6 -1.6 -1.6 -1.6 -1.6 -1.6 -1.6 -1.6 -1.6 25.4 53 66.9 84.7 97.8 118.5 137.8 160.9 189.5 224.1 235.1 241.9 251.7 261.4 281.3 296.8 288 278.7 266.8 249.5 248.1 250.2 245.7 244.9 244.4 240.4 233.5 234.2 250.2 245.8 226.8 209.9 199.8 193.9 170.9 159.5 153.7 144.4 139.1 132.4 125.8 113 111.7 112.6 104.7 103.1 104.9 107.2 111.1 111.3 113.9 115.2 116.3 102.4 101.5 99.9 97.2 94.9 89.4 84.6 74.8 66.1 51.4 61.3 59.1 63.3 67.3 72.5 76.2 81.9 102.1 131 172.4 191.3 192.7 194.7 199.9 198 198.4 198.8 189.1 188.3 185.2 187.5 192.9 198.3 195.2 197.4 208.1 221.3 221.7 223.1 218.6 211.2 206.6 205.6 201.6 201.1 171.2 160.6 148.8 139.8 133.9 139.1 139.9 127.1 117.4 112.2 107.4 100 89 74.1 67.4 55.7 47 41.1 41.6 41.8 29.1 20.4 15.1 8 7.4 1.8 7.7 14.5 16.3 24.7 37.9 52.7 60 48.5 51.3 61.7 82.8 104.4 135.9 148.5 176.6 198.6 211.5 230.7 230.2 227.7 226.9 221.8 220.7 225.7 227
-1.6 -1.6 -1.6 -1.6 -1.6 -1.6 -1.6 -1.6 -1.6 -1.6 -1.6 -1.6 -1.6 -1.6 -1.6 -1.6 -1.6 -1.6 -1.6 -1.6 -1.6 -1.6 -1.6 -1.6 -1.6 -1.6 -1.6 -1.6 -1.6 -1.6 -1.6 -1.6 -1.6 -1.6 -1.6 -1.6 -1.6 -1.6 -1.6 -1.6 -1.6 -1.6 -1.6 -1.6 -1.6 -1.6 -1.6 -1.6 -1.6 -1.6 -1.6 -1.6 45.2 78 87.2 98.3 120.9 130 155.6 184.2 207.1 200.3 208.2 222.1 243.7 265.2 276.9 280 277.6 264.1 247.3 246.9 246.8 246.3 252.9 276.2 267.4 250.8 235.3 223.2 232.4 216.4 201.5 199.3 170.8 153.7 148.9 141 140.9 130.6 125 120.7 105 101.2 103.7 101.2 100.8 103.2 107.5 107.1 108.9 111.9 103.4 98.7 97.7 99.8 98.6 96.7 96.3 97.3 87.9 81.8 69.9 62.6 44.5 28.1 43.9 57.9 61.3 65.6 70 87.8 109.3 137.6 164.6 190.4 193.3 194 194 196.7 198.7 187.4 181.1 188.8 182.9 181.8 193.2 191.7 187.9 200.9 212.6 216.7 214.8 216.1 209.6 199.2 200.4 196.4 177.7 155.7 144.8 133.4 127.3 121.6 130.3 136.3 123.2 113.3 118 105.7 97.2 89.3 73.1 60.6 47.7 41.2 35.5 30.3 30.6 24 13.4 14.7 6.8 5.8 5.4 4.9 5.4 13.1 20.2 33.3 44.4 52.7 47.8 51.2 69 80.1 102.4 137 146.3 167.6 188.8 215.2 217.1 237.5 225.3 222.3 218.7 217.2 216.2 219.3
-1.6 -1.6 -1.6 -1.6 -1.6 -1.6 -1.6 -1.6 -1.6 -1.6 -1.6 -1.6 -1.6 -1.6 -1.6 -1.6 -1.6 -1.6 -1.6 -1.6 -1.6 -1.6 -1.6 -1.6 -1.6 -1.6 -1.6 -1.6 -1.6 -1.6 -1.6 -1.6 -1.6 -1.6 -1.6 -1.6 -1.6 -1.6 -1.6 -1.6 -1.6 -1.6 -1.6 -1.6 -1.6 -1.6 -1.6 -1.6 -1.6 -1.6 -1.6 -1.6 27.9 59.3 76.4 74.4 102 126.2 138.3 164.1 171.8 187.6 200.1 211 239.8 253.6 265.8 270 272.2 260.1 248 246.3 247 258.4 252.2 287 284.2 256.5 235.2 224.6 206.3 202.6 186 184.6 182 156.1 133.6 128 117.1 113.9 115.9 111 96 95.1 98.2 98.3 100.2 104.5 106.3 104.9 99.3 100.5 99.3 96.5 95.4 98.9 98.4 97 97.1 97.8 95.2 84.5 75.7 66.1 61.2 43.6 34.7 50.8 52.6 54.8 57.8 70.6 90.1 112.1 139.1 163.6 185.5 192.2 184.1 187.7 179.5 182 181.1 181.2 178.9 180.4 178.9 180.6 179.7 190.6 203.2 210.9 207.7 211.5 200.9 194.8 183.9 169.3 148.2 127.6 129 124.9 117.5 110.6 113.7 121.5 112.7 101.7 110.3 100.9 89.9 75.8 70.4 55.2 41.7 37.7 33.9 21.1 20.1 11.2 6.8 5.7 5.4 5.8 5 3.8 4.6 5.8 15.5 28.5 37.4 45.4 47.1 47.9 72.8 81.8 99 118.7 142.5 159.5 186.9 197.6 214.9 226.7 232.1 220.1 215.3 212.7 210.5 211.8
-1.6 -1.6 -1.6 -1.6 -1.6 -1.6 -1.6 -1.6 -1.6 -1.6 -1.6 -1.6 -1.6 -1.6 -1.6 -1.6 -1.6 -1.6 -1.6 -1.6 -1.6 -1.6 -1.6 -1.6 -1.6 -1.6 -1.6 -1.6 -1.6 -1.6 -1.6 -1.6 -1.6 -1.6 -1.6 -1.6 -1.6 -1.6 -1.6 -1.6 -1.6 -1.6 -1.6 -1.6 -1.6 -1.6 -1.6 -1.6 -1.6 -1.6 -1.6 -1.6 1.7 15.5 22.4 36.1 75.3 99.3 116.9 126.6 149.8 169.7 183 211.2 233.7 238.6 252 254.4 262.9 259.6 256.2 276.5 281.8 284.6 261.2 285.1 289.9 254.5 229.4 216.6 173.4 182.8 180.1 171.9 167.5 156.1 144.4 127.8 102.5 97 98.3 94.2 89.5 92.6 95.4 98.5 103.9 110.5 98.2 96.3 83 90.2 95.1 94.7 94.2 97 97 95.5 97.1 99.1 96.6 91.1 78 67.4 59.5 50 22.9 44.2 42.2 42 42.4 52.5 66.9 86.2 110.9 138 160.2 180.3 173.3 171.2 172.6 174 171.2 168.1 176.6 168.7 172.1 176.7 175.2 183.1 192.4 194.6 195.5 194.7 188.9 177.2 156.8 139.8 124.1 112.6 115.8 119.6 112 94.9 97 96.8 90 90.1 99.5 99.2 85.5 71.3 62.3 45.4 35.4 31.8 30.9 18 7.3 4.2 3.9 4.4 4.8 4.8 4.2 3.7 3.1 3.4 8 22.6 36.2 48.3 54.9 48.9 58.5 75 92.6 112.5 134.2 155.6 184.6 192.2 206 213.4 231.6 222.2 215 209.5 203 204.8
-1.6 -1.6 -1.6 -1.6 -1.6 -1.6 -1.6 -1.6 -1.6 -1.6 -1.6 -1.6 -1.6 -1.6 -1.6 -1.6 -1.6 -1.6 -1.6 -1.6 -1.6 -1.6 -1.6 -1.6 -1.6 -1.6 -1.6 -1.6 -1.6 -1.6 -1.6 -1.6 -1.6 -1.6 -1.6 -1.6 -1.6 -1.6 -1.6 -1.6 -1.6 -1.6 -1.6 -1.6 -1.6 -1.6 -1.6 -1.6 -1.6 -1.6 -1.6 -1.6 -1.6 -1.6 -1.6 3.8 25.5 71.3 91.2 99.2 122 158.1 186.2 204.5 216.8 225.3 241.2 248.4 260.4 266 277.9 287.2 308.2 293.5 270.6 283.4 282.1 245.3 225 203.1 177.8 167.2 165.7 163.6 153.2 135.6 136.9 118 103.8 87 84.9 83.9 82.9 87.7 96 101.7 105.5 92.5 91.8 83 70.8 72.8 86.6 92.7 96 100.4 101.8 94.2 96.3 101.1 100.2 93.9 81.2 68.1 57.5 49.7 25.9 35.8 34.6 33.1 31.5 36.8 49 64.4 84.8 112.1 138.8 167.3 166.4 161.3 164.7 163.4 161.8 163.1 168.3 165.9 156.8 170 171.6 172.7 178.8 174.9 176.6 167.1 151.4 138.3 125.7 116.9 104.7 104.5 103.8 106.7 103 90.3 78.2 80.5 78.9 83.1 96.3 92.1 83.1 65 51.9 38.3 28.7 28.1 26.4 18.4 3.7 2.7 3.2 3.9 4.3 4.5 4.4 3.1 3 3 -1.6 15.4 34.7 50.9 53.3 48.4 50.6 77.1 92.4 114.1 126.1 155.6 183 190.5 198.5 202.6 221.6 224.4 208.6 206.1 198 202.5
-1.6 -1.6 -1.6 -1.6 -1.6 -1.6 -1.6 -1.6 -1.6 -1.6 -1.6 -1.6 -1.6 -1.6 -1.6 -1.6 -1.6 -1.6 -1.6 -1.6 -1.6 -1.6 -1.6 -1.6 -1.6 -1.6 -1.6 -1.6 -1.6 -1.6 -1.6 -1.6 -1.6 -1.6 -1.6 -1.6 -1.6 -1.6 -1.6 -1.6 -1.6 -1.6 -1.6 -1.6 -1.6 -1.6 -1.6 -1.6 -1.6 -1.6 -1.6 -1.6 -1.6 -1.6 -1.6 0.7 8.3 39.1 56 84.7 101.8 136.3 164.3 181.8 198.5 213.2 231.7 240.4 253.2 277.4 310.9 305.7 292.7 296.9 263.4 261.1 237.2 221.2 201.2 181.9 166.2 134.7 136.6 146.8 123.3 109.8 107.2 97.9 103.4 84.3 78.1 75.7 71.1 80.4 91.3 100.5 83.7 88.2 85.9 64.3 52.3 60.9 80.8 93 90.6 97 106.1 106.8 90.7 93.9 97.5 100.5 85.3 67.7 55.3 46.4 34 15.7 25.1 23.5 23.4 27.2 32.7 47 65.6 89 121.8 154.6 154.3 153.2 151.6 153.8 153.3 154.2 156.4 163.8 153.2 166.9 168.6 162.6 150.5 136.4 131.3 126.5 119.4 110.3 102.3 89 82.6 85.9 95.1 97.6 92.7 79.6 65.2 67.9 61.5 85.6 88.1 88.3 77.2 61.9 47.1 36.9 22.6 20.2 21.3 9.9 2.6 2.4 3.9 4 3.4 3.6 3.9 2.8 2.7 -1.6 -1.6 -1.6 24.5 41.9 44.9 47.3 45.8 69.2 90.7 117.5 122.5 144.8 164.1 169.4 190.6 197.2 206.6 213.6 199.3 195.9 188.1 194.8
-1.6 -1.6 -1.6 -1.6 -1.6 -1.6 -1.6 -1.6 -1.6 -1.6 -1.6 -1.6 -1.6 -1.6 -1.6 -1.6 -1.6 -1.6 -1.6 -1.6 -1.6 -1.6 -1.6 -1.6 -1.6 -1.6 -1.6 -1.6 -1.6 -1.6 -1.6 -1.6 -1.6 -1.6 -1.6 -1.6 -1.6 -1.6 -1.6 -1.6 -1.6 -1.6 -1.6 -1.6 -1.6 -1.6 -1.6 -1.6 -1.6 -1.6 -1.6 -1.6 -1.6 -1.6 -1.6 -1.6 4.6 28.4 48.5 73.1 94.1 115.4 152.4 172.6 189 207.4 214.6 234.1 253 276.9 290.4 292.6 301.7 287.1 252 241.5 213.4 200.2 180.1 165.7 151.5 125.8 113 110.5 101 86.8 79.3 78.5 88.9 81.8 79.4 79.5 80.3 76.5 66.7 72.2 69.8 71.1 57.5 39.9 38.4 53.3 72 85 79.9 87.3 92.4 96.2 86.2 87.3 94.9 96 84.2 64.9 52.4 46.4 31.9 23.6 12.4 18.7 16.1 20.1 24.3 32.1 49.8 74.8 107.4 148.9 150 148.5 148.2 147.6 146.8 151.2 153.3 148 149.2 138.2 142.1 129.8 118 109.2 105 98 94.7 87.3 78.4 63.5 55.8 60.6 65.6 76.4 69 58.5 46.8 50.8 52.1 76.6 79.1 72.2 62.9 48.3 41.1 32.3 22.1 10.6 10.1 4.4 2.4 2.4 2.3 3.7 2.4 2.7 2.6 2.4 1.8 -1.6 -1.6 -1.6 16 39.1 37.9 44.7 40 47.8 83 102.1 122.3 129.2 155.2 167.1 179.4 191.1 201.2 193.4 184.1 179.9 175.8 185.7
-1.6 -1.6 -1.6 -1.6 -1.6 -1.6 -1.6 -1.6 -1.6 -1.6 -1.6 -1.6 -1.6 -1.6 -1.6 -1.6 -1.6 -1.6 -1.6 -1.6 -1.6 -1.6 -1.6 -1.6 -1.6 -1.6 -1.6 -1.6 -1.6 -1.6 -1.6 -1.6 -1.6 -1.6 -1.6 -1.6 -1.6 -1.6 -1.6 -1.6 -1.6 -1.6 -1.6 -1.6 -1.6 -1.6 -1.6 -1.6 -1.6 -1.6 -1.6 -1.6 -1.6 -1.6 -1.6 -1.6 -1.6 10.9 41.1 72.1 94.3 119.4 140 165.4 182.5 195.6 211.6 230 252.4 268.4 280.4 280.8 280.7 270.1 244.1 214.6 198.1 171.4 160.3 143.5 134.2 117.9 82.5 90.9 76.3 66.8 60.4 60.1 75.1 77.4 80 93.1 93 74.8 47.3 56.9 49.5 38.3 32.5 31.5 32.7 45.9 60.9 69 70.7 76.7 82 76.2 76.9 80.7 83.1 87.8 83.3 62.4 49.1 39.4 27.1 18.7 11.3 11.9 11.2 13.4 17.4 23.4 41.6 69.7 109 142.7 144.8 144.5 145.6 136.9 139.4 147.9 147.9 143.2 135.5 115.6 114.1 105.7 96.5 88.7 84.5 78 77.2 71.4 60.8 47.9 40.6 35.7 31.2 36.1 37.3 37.9 34.4 36.6 53.6 64 64.7 55.6 43.3 34.4 27.5 26.7 16.5 4.3 4.2 2.4 2.5 2.4 2.4 -1.3 -1.6 1.8 0.9 1 0.7 -0.3 -1.6 -1.6 11.4 26.4 26.6 34.2 31.7 38.3 74.3 95.6 104.9 114.9 147.1 167.7 178.8 180.2 184.9 184.8 173.4 170.2 171.5 170.9
-1.6 -1.6 -1.6 -1.6 -1.6 -1.6 -1.6 -1.6 -1.6 -1.6 -1.6 -1.6 -1.6 -1.6 -1.6 -1.6 -1.6 -1.6 -1.6 -1.6 -1.6 -1.6 -1.6 -1.6 -1.6 -1.6 -1.6 -1.6 -1.6 -1.6 -1.6 -1.6 -1.6 -1.6 -1.6 -1.6 -1.6 -1.6 -1.6 -1.6 -1.6 -1.6 -1.6 -1.6 -1.6 -1.6 -1.6 -1.6 -1.6 -1.6 -1.6 -1.6 -1.6 -1.6 -1.6 -1.6 -1.6 1.5 7.1 40.6 85.8 108.3 130.8 158.7 180.9 196.7 209.2 231.8 248.1 257.3 267.2 262.9 252.2 238.7 220.3 198.5 173.1 146.8 142.8 111.4 90.2 86.9 75.7 57.6 55.9 52 49 43.7 58 81.7 104.5 82.2 75.2 74.8 66.5 36.4 33.5 27.4 27.2 26.9 29 39.4 56.8 63.2 61 60.2 69.1 61.4 67.2 72.8 73.6 79 87.2 65.4 45.2 31.6 21.2 13.4 8.5 6.2 10.1 11.4 12 17.1 37.3 68.2 101.6 135.4 137.8 143 133.5 130.9 135.5 139.1 146.6 141.5 121.8 102.6 98.7 88.9 80 71.1 72.6 69.3 61.6 62.2 56.8 42.4 29.9 22.5 17.3 16.3 18.8 19 18 21.1 34.6 42 47.8 35.7 27.5 20.3 15.2 14 3.5 0.9 0.6 1.5 2.4 4 2.3 2.5 -1.6 -1.6 -1.6 -0.4 -0.7 -1.6 -1.6 -1.6 2.5 19 19.1 22.3 28.3 34.5 66.5 79.4 100.1 108.6 121.9 141.2 160.1 165.5 170.5 174.1 162.5 166.4 162.8 159.4
-1.6 -1.6 -1.6 -1.6 -1.6 -1.6 -1.6 -1.6 -1.6 -1.6 -1.6 -1.6 -1.6 -1.6 -1.6 -1.6 -1.6 -1.6 -1.6 -1.6 -1.6 -1.6 -1.6 -1.6 -1.6 -1.6 -1.6 -1.6 -1.6 -1.6 -1.6 -1.6 -1.6 -1.6 -1.6 -1.6 -1.6 -1.6 -1.6 -1.6 -1.6 -1.6 -1.6 -1.6 -1.6 -1.6 -1.6 -1.6 -1.6 -1.6 -1.6 -1.6 -1.6 -1.6 -1.6 -1.6 -1.6 -1.6 0.6 4 40.2 90.8 117.9 141.8 170.1 193.9 204.3 221.9 236.2 237.2 235.4 229.1 204.7 194.7 155.6 154.2 143.5 111 107.4 89 72.7 61 51 39.3 35.9 31.7 30.8 39.8 57.3 89.3 91.2 75.6 74.6 68.5 53 40.8 32.7 18.1 19.3 17.7 25.5 32.1 37.8 38.8 40.2 44.5 48.4 51.3 56.9 62.9 64.7 60.2 66.1 60.3 41.6 28.9 17.8 8.1 3.6 6.5 7.6 9.3 9.8 14.8 34.6 61.3 97.4 124.2 125.5 128.2 127.6 127 128.6 133.1 142.5 130.3 102.1 88 83.6 78.2 68.6 60.3 62.4 60.7 51.9 50.9 50.8 44.7 29.6 17 7.9 5.8 6.3 6.3 6.7 9.3 21.3 24 25.2 23.1 21.2 14.8 4.8 3.9 -1.6 -1.6 -1.6 -1.6 -1.6 2.7 5.3 8.5 10.9 5 -1.6 -1.6 -1.6 -1.6 -1.6 0.4 1.4 8.4 9.1 14.9 24.9 27.9 57.9 68.3 79.1 94.7 111.2 130.2 154.4 158.5 160.9 165.7 151.2 156.8 152.8 150.2
-1.6 -1.6 -1.6 -1.6 -1.6 -1.6 -1.6 -1.6 -1.6 -1.6 -1.6 -1.6 -1.6 -1.6 -1.6 -1.6 -1.6 -1.6 -1.6 -1.6 -1.6 -1.6 -1.6 -1.6 -1.6 -1.6 -1.6 -1.6 -1.6 -1.6 -1.6 -1.6 -1.6 -1.6 -1.6 -1.6 -1.6 -1.6 -1.6 -1.6 -1.6 -1.6 -1.6 -1.6 -1.6 -1.6 -1.6 -1.6 -1.6 -1.6 -1.6 -1.6 -1.6 -1.6 -1.6 -1.6 -1.6 -1.6 -1.6 1.2 9.6 74.1 92.5 120.1 153.5 175.3 197.1 208.2 215.9 218 163.8 163.7 110.2 110.5 103.5 105.8 106.1 91.2 81.4 64.2 55.9 41.9 29.6 22.5 20.8 22 24.6 38.4 52.7 72.3 75.7 82.6 63.8 46.7 42.9 37.7 28.6 18.6 9.4 14.6 21.1 32.9 39.5 42.6 31.9 34 36.5 42.2 46.3 51.4 53.6 47.6 49.5 51 31.4 11.8 5.2 2.4 3.7 4.4 5.7 7.4 9.4 13.2 33.4 62.6 99 110.7 119.3 120.1 123.3 125.4 123.2 124.5 128.8 117.5 84.2 69.1 66.6 58.9 53.6 52.3 49.8 51.7 45.6 36.9 43.9 40.6 27.1 20.9 2.4 1.1 0.6 1.1 2.4 5.2 14.5 14.3 15.8 13.8 6.7 2.4 1 0.7 -1.6 -1.6 -1.6 -1.6 -1.6 -1.6 9.6 15.1 13 14.3 8.7 -1.6 -1.6 -1.6 -1.6 -0.9 -0.2 1.4 1.4 3.8 18.3 22.1 48.3 58.4 63 80.8 103.7 117.9 141.5 155.9 149.3 143.8 139.7 149.6 145.8 145.1
-1.6 -1.6 -1.6 -1.6 -1.6 -1.6 -1.6 -1.6 -1.6 -1.6 -1.6 -1.6 -1.6 -1.6 -1.6 -1.6 -1.6 -1.6 -1.6 -1.6 -1.6 -1.6 -1.6 -1.6 -1.6 -1.6 -1.6 -1.6 -1.6 -1.6 -1.6 -1.6 -1.6 -1.6 -1.6 -1.6 -1.6 -1.6 -1.6 -1.6 -1.6 -1.6 -1.6 -1.6 -1.6 -1.6 -1.6 -1.6 -1.6 -1.6 -1.6 -1.6 -1.6 -1.6 -1.6 -1.6 -1.6 -1.6 -1.6 -1.6 -1.6 9.6 19.8 56 122.8 165 183.2 168 191.5 163.9 114.1 89.5 83 84.6 82.8 79.9 74.2 64.2 59.1 36.4 29.2 28.8 13.3 11.4 12.4 16.6 23.4 38.1 49.4 62.4 54.6 53.1 46.1 33.3 27.1 22.8 10.3 6.5 5 6.3 7.4 16.8 22.6 28.3 24.7 31.9 39.1 38.2 38.6 37.8 38.5 35.4 32.3 34.7 12.5 3.6 1 0.8 1.4 2.3 3.5 4.9 7.5 12.5 36.6 67.5 101.5 105.4 104.5 113 116.8 119.8 116 118.1 106.9 81.6 63.1 50.7 53.2 44.7 46.2 43.3 39.4 40.5 39 28.1 25.8 27.2 21.4 11.8 1.7 -1.6 -1.6 -0.4 2.4 7.1 10.3 12.2 13.3 9.2 2.2 0.6 -1.6 -1.6 -1.6 -1.6 -1.6 -1.6 -1.6 -1.6 2.2 7.7 13.9 16.5 19.9 -1.6 -1.6 -1.6 -1.6 -1.6 -1.6 -1.6 -1.6 -1.6 6.7 6.4 26.9 40.5 44.8 61.3 84.6 103.1 122 134 131.7 126.7 128.9 130.5 138.3 144.9
-1.6 -1.6 -1.6 -1.6 -1.6 -1.6 -1.6 -1.6 -1.6 -1.6 -1.6 -1.6 -1.6 -1.6 -1.6 -1.6 -1.6 -1.6 -1.6 -1.6 -1.6 -1.6 -1.6 -1.6 -1.6 -1.6 -1.6 -1.6 -1.6 -1.6 -1.6 -1.6 -1.6 -1.6 -1.6 -1.6 -1.6 -1.6 -1.6 -1.6 -1.6 -1.6 -1.6 -1.6 -1.6 -1.6 -1.6 -1.6 -1.6 -1.6 -1.6 -1.6 -1.6 -1.6 -1.6 -1.6 -1.6 -1.6 -1.6 -1.6 -1.6 -1.6 5.2 34.3 102.5 139.5 144.8 112.4 93.3 79.6 73.5 70.4 60.4 60 65.4 57.3 38.7 29.6 32.1 10.8 5.4 5.5 5.3 3.3 5.7 4.4 15.8 16.3 29.1 37.1 25.9 16.4 11.9 6.2 6.4 7.1 2.5 1.3 2 4.3 3.8 5.3 7.5 11.8 16.4 26.1 32.8 41.1 38.7 37.9 32.9 19.2 7.4 5.2 2.2 -1.6 -1.6 -1.6 -1.6 0.2 1.7 4 5.5 9.8 38.7 67.6 98.8 102 104.2 103.9 108.7 109.7 108.3 102.7 78.9 60.3 44.8 33.7 40.1 33.2 39.5 34.2 32.5 32.8 35.1 24.4 20.8 17.6 16.4 3 -1.6 -1.6 -1.6 -1.6 3.3 8.5 10.9 11.8 12.8 11.1 5.5 0.7 -1.6 -1.6 -1.6 -1.6 -1.6 -1.6 -1.6 -1.6 1.1 3.5 12.9 13.7 21.3 8 -1.6 -1.6 -1.6 -1.6 -1.6 -1.6 -1.6 -1.6 -1.6 -1.6 10.9 25.3 38.2 43.3 72.1 83.9 98.5 110.1 109.4 111.3 116.6 117.8 130.3 139.2
-1.6 -1.6 -1.6 -1.6 -1.6 -1.6 -1.6 -1.6 -1.6 -1.6 -1.6 -1.6 -1.6 -1.6 -1.6 -1.6 -1.6 -1.6 -1.6 -1.6 -1.6 -1.6 -1.6 -1.6 -1.6 -1.6 -1.6 -1.6 -1.6 -1.6 -1.6 -1.6 -1.6 -1.6 -1.6 -1.6 -1.6 -1.6 -1.6 -1.6 -1.6 -1.6 -1.6 -1.6 -1.6 -1.6 -1.6 -1.6 -1.6 -1.6 -1.6 -1.6 -1.6 -1.6 -1.6 -1.6 -1.6 -1.6 -1.6 -1.6 -1.6 -1.6 0.7 13 68.5 131.3 128.1 85.1 68.1 67.3 56.7 48.7 41.4 40.6 37.2 33 10.6 4.4 3.2 1.5 1 0.5 -1.6 -1.6 -1.6 -1.6 -1.6 1.8 4.7 9.4 7 2.1 -1.6 -1.6 1.6 -1.6 -1.6 -1.6 -1.6 -1.6 -1.6 -1.6 2.7 7.1 10 15.1 23.5 31.4 38 38 34.2 10.7 1.7 -1.6 -1.6 -1.6 -1.6 -1.6 -1.6 -1.6 0.6 2.6 4.5 8.7 41.6 74.9 98.6 99 99.5 98.9 100.3 100.8 97.7 77.4 53.8 37.1 25.1 23.7 30.6 28.2 28.1 31.4 25.5 27.2 24.1 20.7 16.1 12.2 6.2 -1.6 -1.6 -1.6 -1.6 -1.6 -1.6 7.8 9.1 9.5 12.2 13.7 4.8 3.6 -1.6 -1.6 -1.6 -1.6 -1.6 -1.6 -1.6 -1.6 1.4 2.4 7.4 12.4 14.9 3.9 -1.6 -1.6 -1.6 -1.6 -1.6 -1.6 -1.6 -1.6 -1.6 -1.6 -1.6 22.2 30.1 31.4 52.3 64.5 80.8 91.2 102.1 96.9 101 108.1 118.3 126.7
-1.6 -1.6 -1.6 -1.6 -1.6 -1.6 -1.6 -1.6 -1.6 -1.6 -1.6 -1.6 -1.6 -1.6 -1.6 -1.6 -1.6 -1.6 -1.6 -1.6 -1.6 -1.6 -1.6 -1.6 -1.6 -1.6 -1.6 -1.6 -1.6 -1.6 -1.6 -1.6 -1.6 -1.6 -1.6 -1.6 -1.6 -1.6 -1.6 -1.6 -1.6 -1.6 -1.6 -1.6 -1.6 -1.6 -1.6 -1.6 -1.6 -1.6 -1.6 -1.6 -1.6 -1.6 -1.6 -1.6 -1.6 -1.6 -1.6 -1.6 -1.6 -1.6 -1.6 2.6 48.9 116.1 102.5 64.5 53.4 48.5 36.8 23.9 21.7 24.7 21.6 15.1 -1.6 -1.6 -1.6 -1.6 -1.6 -1.6 -1.6 -1.6 -1.6 -1.6 -1.6 -1.6 -1.6 1.8 -1.6 -1.6 -1.6 -1.6 -1.6 -1.6 -1.6 -1.6 -1.6 -1.6 -1.6 -1.6 -1.6 8 4.8 4.3 6.5 15 24 21.3 20.7 4.2 -1.6 -1.6 -1.6 -1.6 -1.6 -1.6 -1.6 -1.6 1.5 3.2 6.1 23.6 51.2 75.7 93.7 97 95.2 94 92.9 93.1 79.9 55.8 36.7 25.5 17.5 15 23.9 24.4 26.9 20.7 19.4 28.2 27.7 19.9 16.7 12.3 3.1 -1.6 -1.6 -1.6 -1.6 -1.6 -1.6 -1.6 4.6 4.1 8 15.4 11.9 3.8 -1.6 -1.6 -1.6 -1.6 -1.6 -1.6 -1.6 -1.6 2.4 2.4 4.4 8.8 6.7 -1.6 -1.6 -1.6 -1.6 -1.6 -1.6 -1.6 -1.6 -1.6 -1.6 -1.6 -1.6 20.6 27.1 23.2 35.4 55 63.8 96.1 94.5 93 96.6 101.8 106.4 116.1
-1.6 -1.6 -1.6 -1.6 -1.6 -1.6 -1.6 -1.6 -1.6 -1.6 -1.6 -1.6 -1.6 -1.6 -1.6 -1.6 -1.6 -1.6 -1.6 -1.6 -1.6 -1.6 -1.6 -1.6 -1.6 -1.6 -1.6 -1.6 -1.6 -1.6 -1.6 -1.6 -1.6 -1.6 -1.6 -1.6 -1.6 -1.6 -1.6 -1.6 -1.6 -1.6 -1.6 -1.6 -1.6 -1.6 -1.6 -1.6 -1.6 -1.6 -1.6 -1.6 -1.6 -1.6 -1.6 -1.6 -1.6 -1.6 -1.6 -1.6 -1.6 -1.6 -1.6 1.1 27.8 83.6 62.6 17.6 27.2 22.6 3.9 0.5 0.6 1.3 1.4 -1.6 -1.6 -1.6 -1.6 -1.6 -1.6 -1.6 -1.6 -1.6 -1.6 -1.6 -1.6 -1.6 -1.6 -1.6 -1.6 -1.6 -1.6 -1.6 -1.6 -1.6 -1.6 -1.6 -1.6 -1.6 -1.6 -1.6 -1.6 -1.6 -1.6 -1.6 -1.6 3.3 10.9 7.7 7.3 -1.6 -1.6 -1.6 -1.6 -1.6 -1.6 -1.6 -1.6 2.6 6.7 13.1 18.6 43.7 61 66.5 86.5 90.4 91.2 88.9 86 87.5 64.7 41.4 28.4 17.9 12.2 9 16.5 19.1 21.4 19.3 14.5 18.3 29.4 19.2 16.4 16.7 4.6 -1.6 -1.6 -1.6 -1.6 -1.6 -1.6 -1.6 -1.6 1.6 5.6 11.6 10.5 9.3 -1.6 -1.6 -1.6 -1.6 -1.6 -1.6 -1.6 -1.6 2.4 6.6 6.8 10.9 9 -1.6 -1.6 -1.6 -1.6 -1.6 -1.6 -1.6 -1.6 -1.6 -1.6 -1.6 -1.6 9.6 22.1 14.7 16.2 35.7 55.1 87.7 101.7 109.2 98.2 104.1 112.1 112.8
-1.6 -1.6 -1.6 -1.6 -1.6 -1.6 -1.6 -1.6 -1.6 -1.6 -1.6 -1.6 -1.6 -1.6 -1.6 -1.6 -1.6 -1.6 -1.6 -1.6 -1.6 -1.6 -1.6 -1.6 -1.6 -1.6 -1.6 -1.6 -1.6 -1.6 -1.6 -1.6 -1.6 -1.6 -1.6 -1.6 -1.6 -1.6 -1.6 -1.6 -1.6 -1.6 -1.6 -1.6 -1.6 -1.6 -1.6 -1.6 -1.6 -1.6 -1.6 -1.6 -1.6 -1.6 -1.6 -1.6 -1.6 -1.6 -1.6 -1.6 -1.6 -1.6 -1.6 -1.6 12 43.2 17 1.4 -1.6 -1.6 -1.6 -1.6 -1.6 -1.6 -1.6 -1.6 -1.6 -1.6 -1.6 -1.6 -1.6 -1.6 -1.6 -1.6 -1.6 -1.6 -1.6 -1.6 -1.6 -1.6 -1.6 -1.6 -1.6 -1.6 -1.6 -1.6 -1.6 -1.6 -1.6 -1.6 -1.6 -1.6 -1.6 -1.6 -1.6 -1.6 -1.6 -1.6 2.3 12 -1.6 -1.6 -1.6 -1.6 -1.6 -1.6 -1.6 -1.6 -1.6 23.5 31.9 41.7 45.5 57.6 56.4 59.3 65.7 77.8 84.6 82.6 79.9 81.2 58.9 34.2 21.1 10.2 6.3 5.1 11.9 15 16.8 15.2 11.5 12.3 23.3 23.5 17.6 20 4.2 -1.6 -1.6 -1.6 -1.6 -1.6 -1.6 -1.6 -1.6 -1.6 -1.6 4.2 5 2.6 -1.6 -1.6 -1.6 -1.6 -1.6 -1.6 -1.6 -1.6 1.5 9.2 12.4 12.8 7.8 -1.6 -1.6 -1.6 -1.6 -1.6 -1.6 -1.6 -1.6 -1.6 -1.6 -1.6 -1.6 -1.6 17.5 4.9 4.8 20.9 46.5 78.7 95.6 114.9 124 120.9 112.1 110
-1.6 -1.6 -1.6 -1.6 -1.6 -1.6 -1.6 -1.6 -1.6 -1.6 -1.6 -1.6 -1.6 -1.6 -1.6 -1.6 -1.6 -1.6 -1.6 -1.6 -1.6 -1.6 -1.6 -1.6 -1.6 -1.6 -1.6 -1.6 -1.6 -1.6 -1.6 -1.6 -1.6 -1.6 -1.6 -1.6 -1.6 -1.6 -1.6 -1.6 -1.6 -1.6 -1.6 -1.6 -1.6 -1.6 -1.6 -1.6 -1.6 -1.6 -1.6 -1.6 -1.6 -1.6 -1.6 -1.6 -1.6 -1.6 -1.6 -1.6 -1.6 -1.6 -1.6 -1.6 -1.1 0.7 0.4 -1.6 -1.6 -1.6 -1.6 -1.6 -1.6 -1.6 -1.6 -1.6 -1.6 -1.6 -1.6 -1.6 -1.6 -1.6 -1.6 -1.6 -1.6 -1.6 -1.6 -1.6 -1.6 -1.6 -1.6 -1.6 -1.6 -1.6 -1.6 -1.6 -1.6 -1.6 -1.6 -1.6 -1.6 -1.6 -1.6 -1.6 -1.6 -1.6 -1.6 -1.6 -1.6 -1.6 -1.6 -1.6 -1.6 -1.6 -1.6 -1.6 -1.6 -1.6 2.3 32 54.8 47 50.7 65.8 66.5 68.8 68.4 68.9 69.8 71.1 73.2 74.1 63.1 39 14.5 5.2 2.8 2.4 3.7 14.1 11.1 12.8 8.7 8.3 20.9 23.4 17.9 18 3.2 -1.6 -1.6 -1.6 -1.6 -1.6 -1.6 -1.6 -1.6 -1.6 -1.6 2.3 2.6 -1.6 -1.6 -1.6 -1.6 -1.6 -1.6 -1.6 -1.6 -1.6 -1.6 3.6 11.2 11.6 11.5 -1.6 -1.6 -1.6 -1.6 -1.6 -1.6 -1.6 -1.6 -1.6 -1.6 -1.6 -1.6 -1.6 13 2.2 0.9 9 38 74.7 88.7 112.8 126.5 120.8 115.3 107.6
-1.6 -1.6 -1.6 -1.6 -1.6 -1.6 -1.6 -1.6 -1.6 -1.6 -1.6 -1.6 -1.6 -1.6 -1.6 -1.6 -1.6 -1.6 -1.6 -1.6 -1.6 -1.6 -1.6 -1.6 -1.6 -1.6 -1.6 -1.6 -1.6 -1.6 -1.6 -1.6 -1.6 -1.6 -1.6 -1.6 -1.6 -1.6 -1.6 -1.6 -1.6 -1.6 -1.6 -1.6 -1.6 -1.6 -1.6 -1.6 -1.6 -1.6 -1.6 -1.6 -1.6 -1.6 -1.6 -1.6 -1.6 -1.6 -1.6 -1.6 -1.6 -1.6 -1.6 -1.6 -1.6 -1.6 -1.6 -1.6 -1.6 -1.6 -1.6 -1.6 -1.6 -1.6 -1.6 -1.6 -1.6 -1.6 -1.6 -1.6 -1.6 -1.6 -1.6 -1.6 -1.6 -1.6 -1.6 -1.6 -1.6 -1.6 -1.6 -1.6 -1.6 -1.6 -1.6 -1.6 -1.6 -1.6 -1.6 -1.6 -1.6 -1.6 -1.6 -1.6 -1.6 -1.6 -1.6 -1.6 -1.6 -1.6 -1.6 -1.6 -1.6 -1.6 -1.6 -1.6 -1.6 -1.6 7.1 39.3 62.6 62.3 60.5 60.6 70.9 75.9 76.9 74.4 73.1 70.9 69.5 67.7 66.1 58.1 30.1 5.3 2.4 2.4 2.4 8 8 4 3.6 3.9 6.9 19.1 19.2 17.4 3.3 -1.6 -1.6 -1.6 -1.6 -1.6 -1.6 -1.6 -1.6 -1.6 -1.6 -1.6 -1.6 -1.6 -1.6 -1.6 -1.6 -1.6 -1.6 -1.6 -1.6 -1.6 -1.6 2.3 7.1 18.9 19.6 11.7 -1.6 -1.6 -1.6 -1.6 -1.6 -1.6 -1.6 -1.6 -1.6 -1.6 -1.6 -1.6 -1.6 -1.6 -1.6 -1.6 22.6 64 84.8 114 120.7 114.3 103.5 108.9
-1.6 -1.6 -1.6 -1.6 -1.6 -1.6 -1.6 -1.6 -1.6 -1.6 -1.6 -1.6 -1.6 -1.6 -1.6 -1.6 -1.6 -1.6 -1.6 -1.6 -1.6 -1.6 -1.6 -1.6 -1.6 -1.6 -1.6 -1.6 -1.6 -1.6 -1.6 -1.6 -1.6 -1.6 -1.6 -1.6 -1.6 -1.6 -1.6 -1.6 -1.6 -1.6 -1.6 -1.6 -1.6 -1.6 -1.6 -1.6 -1.6 -1.6 -1.6 -1.6 -1.6 -1.6 -1.6 -1.6 -1.6 -1.6 -1.6 -1.6 -1.6 -1.6 -1.6 -1.6 -1.6 -1.6 -1.6 -1.6 -1.6 -1.6 -1.6 -1.6 -1.6 -1.6 -1.6 -1.6 -1.6 -1.6 -1.6 -1.6 -1.6 -1.6 -1.6 -1.6 -1.6 -1.6 -1.6 -1.6 -1.6 -1.6 -1.6 -1.6 -1.6 -1.6 -1.6 -1.6 -1.6 -1.6 -1.6 -1.6 -1.6 -1.6 -1.6 -1.6 -1.6 -1.6 -1.6 -1.6 -1.6 -1.6 -1.6 -1.6 -1.6 -1.6 -1.6 -1.6 -1.6 -1.6 10.3 45.8 65.4 75.7 70.5 66.3 68.7 74.7 75.2 74.7 73.8 72.5 72.4 67.4 63 57.4 34.7 4.4 2.4 2.4 2.4 2.8 4.3 2.4 2.4 2.2 5.3 11.2 15.4 10.8 5.2 -1.6 -1.6 -1.6 -1.6 -1.6 -1.6 -1.6 -1.6 -1.6 -1.6 -1.6 -1.6 -1.6 -1.6 -1.6 -1.6 -1.6 -1.6 -1.6 -1.6 -1.6 -1.6 3.7 17.3 22.9 28.5 23.9 4.3 -1.6 -1.6 -1.6 -1.6 -1.6 -1.6 -1.6 -1.6 -1.6 -1.6 -1.6 -1.6 -1.6 -1.6 -1.6 19.3 51 84.1 101.8 115.1 111 100.8 103
-1.6 -1.6 -1.6 -1.6 -1.6 -1.6 -1.6 -1.6 -1.6 -1.6 -1.6 -1.6 -1.6 -1.6 -1.6 -1.6 -1.6 -1.6 -1.6 -1.6 -1.6 -1.6 -1.6 -1.6 -1.6 -1.6 -1.6 -1.6 -1.6 -1.6 -1.6 -1.6 -1.6 -1.6 -1.6 -1.6 -1.6 -1.6 -1.6 -1.6 -1.6 -1.6 -1.6 -1.6 -1.6 -1.6 -1.6 -1.6 -1.6 -1.6 -1.6 -1.6 -1.6 -1.6 -1.6 -1.6 -1.6 -1.6 -1.6 -1.6 -1.6 -1.6 -1.6 -1.6 -1.6 -1.6 -1.6 -1.6 -1.6 -1.6 -1.6 -1.6 -1.6 -1.6 -1.6 -1.6 -1.6 -1.6 -1.6 -1.6 -1.6 -1.6 -1.6 -1.6 -1.6 -1.6 -1.6 -1.6 -1.6 -1.6 -1.6 -1.6 -1.6 -1.6 -1.6 -1.6 -1.6 -1.6 -1.6 -1.6 -1.6 -1.6 -1.6 -1.6 -1.6 -1.6 -1.6 -1.6 -1.6 -1.6 -1.6 -1.6 -1.6 -1.6 -1.6 -1.6 -1.6 -1.6 6.1 44.1 62.2 75.2 78.7 80.4 75.5 67.7 70.6 71.7 72.7 73.3 73.8 71.8 68.9 65.1 35.6 4.3 2.4 2.4 2 1.4 1.5 1.3 2.4 3 2.4 4.4 8.5 3.6 3 -1.6 -1.6 -1.6 -1.6 -1.6 -1.6 -1.6 -1.6 -1.6 -1.6 -1.6 -1.6 -1.6 -1.6 -1.6 -1.6 -1.6 -1.6 -1.6 -1.6 -1.6 -1.6 14.1 28.1 33.7 30.2 25.2 9.5 -1.6 -1.6 -1.6 -1.6 -1.6 -1.6 -1.6 -1.6 -1.6 -1.6 -1.6 -1.6 -1.6 -1.6 -1.6 27.3 47.3 81.1 95.6 99.6 112.4 103.1 93.2
-1.6 -1.6 -1.6 -1.6 -1.6 -1.6 -1.6 -1.6 -1.6 -1.6 -1.6 -1.6 -1.6 -1.6 -1.6 -1.6 -1.6 -1.6 -1.6 -1.6 -1.6 -1.6 -1.6 -1.6 -1.6 -1.6 -1.6 -1.6 -1.6 -1.6 -1.6 -1.6 -1.6 -1.6 -1.6 -1.6 -1.6 -1.6 -1.6 -1.6 -1.6 -1.6 -1.6 -1.6 -1.6 -1.6 -1.6 -1.6 -1.6 -1.6 -1.6 -1.6 -1.6 -1.6 -1.6 -1.6 -1.6 -1.6 -1.6 -1.6 -1.6 -1.6 -1.6 -1.6 -1.6 -1.6 -1.6 -1.6 -1.6 -1.6 -1.6 -1.6 -1.6 -1.6 -1.6 -1.6 -1.6 -1.6 -1.6 -1.6 -1.6 -1.6 -1.6 -1.6 -1.6 -1.6 -1.6 -1.6 -1.6 -1.6 -1.6 -1.6 -1.6 -1.6 -1.6 -1.6 -1.6 -1.6 -1.6 -1.6 -1.6 -1.6 -1.6 -1.6 -1.6 -1.6 -1.6 -1.6 -1.6 -1.6 -1.6 -1.6 -1.6 -1.6 -1.6 -1.6 -1.6 -1.6 3.3 38.5 54.8 71.6 74.3 77.4 75.4 72.4 65.3 68.6 65 68.4 73 68.1 69.1 67 51.7 13.8 2.4 1.5 0.4 -0.2 -0.1 -0.4 -1.6 -1.6 -1.6 -1.6 -1.6 -1.6 -1.6 -1.6 -1.6 -1.6 -1.6 -1.6 -1.6 -1.6 -1.6 -1.6 -1.6 -1.6 -1.6 -1.6 -1.6 -1.6 -1.6 -1.6 -1.6 -1.6 -1.6 -1.6 13.7 23 29.5 33.1 32 28.1 13 3.3 -1.6 -1.6 -1.6 -1.6 -1.6 -1.6 -1.6 -1.6 -1.6 -1.6 -1.6 -1.6 -1.6 -1.6 21.7 43.5 65.9 95 94.2 99.1 97.7 82.8
-1.6 -1.6 -1.6 -1.6 -1.6 -1.6 -1.6 -1.6 -1.6 -1.6 -1.6 -1.6 -1.6 -1.6 -1.6 -1.6 -1.6 -1.6 -1.6 -1.6 -1.6 -1.6 -1.6 -1.6 -1.6 -1.6 -1.6 -1.6 -1.6 -1.6 -1.6 -1.6 -1.6 -1.6 -1.6 -1.6 -1.6 -1.6 -1.6 -1.6 -1.6 -1.6 -1.6 -1.6 -1.6 -1.6 -1.6 -1.6 -1.6 -1.6 -1.6 -1.6 -1.6 -1.6 -1.6 -1.6 -1.6 -1.6 -1.6 -1.6 -1.6 -1.6 -1.6 -1.6 -1.6 -1.6 -1.6 -1.6 -1.6 -1.6 -1.6 -1.6 -1.6 -1.6 -1.6 -1.6 -1.6 -1.6 -1.6 -1.6 -1.6 -1.6 -1.6 -1.6 -1.6 -1.6 -1.6 -1.6 -1.6 -1.6 -1.6 -1.6 -1.6 -1.6 -1.6 -1.6 -1.6 -1.6 -1.6 -1.6 -1.6 -1.6 -1.6 -1.6 -1.6 -1.6 -1.6 -1.6 -1.6 -1.6 -1.6 -1.6 -1.6 -1.6 -1.6 -1.6 -1.6 -1.6 4.6 33.7 49.2 65.3 66.1 75.1 78.7 74.2 70.7 62 61.4 61.1 62.6 63.9 65.4 66.6 63.2 28.4 2.3 -1.6 -1.6 -1.6 -1.6 -1.6 -1.6 -1.6 -1.6 -1.6 -1.6 -1.6 -1.6 -1.6 -1.6 -1.6 -1.6 -1.6 -1.6 -1.6 -1.6 -1.6 -1.6 -1.6 -1.6 -1.6 -1.6 -1.6 -1.6 -1.6 -1.6 -1.6 3.4 16 23.8 23.5 30.5 31.5 32.1 33.6 14.6 6.8 -1.6 -1.6 -1.6 -1.6 -1.6 -1.6 -1.6 -1.6 -1.6 -1.6 -1.6 -1.6 -1.6 -1.6 21.3 41 57.5 78.1 87 88.3 75.9 74.8
-1.6 -1.6 -1.6 -1.6 -1.6 -1.6 -1.6 -1.6 -1.6 -1.6 -1.6 -1.6 -1.6 -1.6 -1.6 -1.6 -1.6 -1.6 -1.6 -1.6 -1.6 -1.6 -1.6 -1.6 -1.6 -1.6 -1.6 -1.6 -1.6 -1.6 -1.6 -1.6 -1.6 -1.6 -1.6 -1.6 -1.6 -1.6 -1.6 -1.6 -1.6 -1.6 -1.6 -1.6 -1.6 -1.6 -1.6 -1.6 -1.6 -1.6 -1.6 -1.6 -1.6 -1.6 -1.6 -1.6 -1.6 -1.6 -1.6 -1.6 -1.6 -1.6 -1.6 -1.6 -1.6 -1.6 -1.6 -1.6 -1.6 -1.6 -1.6 -1.6 -1.6 -1.6 -1.6 -1.6 -1.6 -1.6 -1.6 -1.6 -1.6 -1.6 -1.6 -1.6 -1.6 -1.6 -1.6 -1.6 -1.6 -1.6 -1.6 -1.6 -1.6 -1.6 -1.6 -1.6 -1.6 -1.6 -1.6 -1.6 -1.6 -1.6 -1.6 -1.6 -1.6 -1.6 -1.6 -1.6 -1.6 -1.6 -1.6 -1.6 -1.6 -1.6 -1.6 -1.6 -1.6 -1.6 2.8 30.8 43.8 56 61.9 66.4 70.8 79.6 79.1 67.2 59.9 58.9 58.6 59.1 58.8 61.2 60.9 45.4 8.9 -1.6 -1.6 -1.6 -1.6 -1.6 -1.6 -1.6 -1.6 -1.6 -1.6 -1.6 -1.6 -1.6 -1.6 -1.6 -1.6 -1.6 -1.6 -1.6 -1.6 -1.6 -1.6 -1.6 -1.6 -1.6 -1.6 -1.6 -1.6 -1.6 -1.6 -1.6 17.7 32.5 27.3 24.7 25 22.9 24.2 28.2 14.3 4.6 -1.6 -1.6 -1.6 -1.6 -1.6 -1.6 -1.6 -1.6 -1.6 -1.6 -1.6 -1.6 -1.6 -1.6 8.8 28 37.3 66.3 79 88.2 78 75
-1.6 -1.6 -1.6 -1.6 -1.6 -1.6 -1.6 -1.6 -1.6 -1.6 -1.6 -1.6 -1.6 -1.6 -1.6 -1.6 -1.6 -1.6 -1.6 -1.6 -1.6 -1.6 -1.6 -1.6 -1.6 -1.6 -1.6 -1.6 -1.6 -1.6 -1.6 -1.6 -1.6 -1.6 -1.6 -1.6 -1.6 -1.6 -1.6 -1.6 -1.6 -1.6 -1.6 -1.6 -1.6 -1.6 -1.6 -1.6 -1.6 -1.6 -1.6 -1.6 -1.6 -1.6 -1.6 -1.6 -1.6 -1.6 -1.6 -1.6 -1.6 -1.6 -1.6 -1.6 -1.6 -1.6 -1.6 -1.6 -1.6 -1.6 -1.6 -1.6 -1.6 -1.6 -1.6 -1.6 -1.6 -1.6 -1.6 -1.6 -1.6 -1.6 -1.6 -1.6 -1.6 -1.6 -1.6 -1.6 -1.6 -1.6 -1.6 -1.6 -1.6 -1.6 -1.6 -1.6 -1.6 -1.6 -1.6 -1.6 -1.6 -1.6 -1.6 -1.6 -1.6 -1.6 -1.6 -1.6 -1.6 -1.6 -1.6 -1.6 -1.6 -1.6 -1.6 -1.6 -1.6 -1.6 -1.6 9.2 40 44 46.4 59.6 57.9 75.2 74.9 68 66.5 61.2 55.8 55.4 54.6 56.4 57.7 47.4 21.6 -1.6 -1.6 -1.6 -1.6 -1.6 -1.6 -1.6 -1.6 -1.6 -1.6 -1.6 -1.6 -1.6 -1.6 -1.6 -1.6 -1.6 -1.6 -1.6 -1.6 -1.6 -1.6 -1.6 -1.6 -1.6 -1.6 -1.6 -1.6 -1.6 -1.6 -1.6 12.7 28.6 23.6 22.3 21.1 15.4 16.6 14.9 9.5 -1.6 -1.6 -1.6 -1.6 -1.6 -1.6 -1.6 -1.6 -1.6 -1.6 -1.6 -1.6 3.1 2.4 13.4 0.2 16.4 28.7 46.1 58.7 72.6 81 78
-1.6 -1.6 -1.6 -1.6 -1.6 -1.6 -1.6 -1.6 -1.6 -1.6 -1.6 -1.6 -1.6 -1.6 -1.6 -1.6 -1.6 -1.6 -1.6 -1.6 -1.6 -1.6 -1.6 -1.6 -1.6 -1.6 -1.6 -1.6 -1.6 -1.6 -1.6 -1.6 -1.6 -1.6 -1.6 -1.6 -1.6 -1.6 -1.6 -1.6 -1.6 -1.6 -1.6 -1.6 -1.6 -1.6 -1.6 -1.6 -1.6 -1.6 -1.6 -1.6 -1.6 -1.6 -1.6 -1.6 -1.6 -1.6 -1.6 -1.6 -1.6 -1.6 -1.6 -1.6 -1.6 -1.6 -1.6 -1.6 -1.6 -1.6 -1.6 -1.6 -1.6 -1.6 -1.6 -1.6 -1.6 -1.6 -1.6 -1.6 -1.6 -1.6 -1.6 -1.6 -1.6 -1.6 -1.6 -1.6 -1.6 -1.6 -1.6 -1.6 -1.6 -1.6 -1.6 -1.6 -1.6 -1.6 -1.6 -1.6 -1.6 -1.6 -1.6 -1.6 -1.6 -1.6 -1.6 -1.6 -1.6 -1.6 -1.6 -1.6 -1.6 -1.6 -1.6 -1.6 -1.6 -1.6 -1.6 -1.6 26.8 44.8 42.1 51.3 50 58.6 58.5 65.3 65.5 59.6 57.4 54 52.1 54.1 56.7 54.3 31.1 -1.6 -1.6 -1.6 -1.6 -1.6 -1.6 -1.6 -1.6 -1.6 -1.6 -1.6 -1.6 -1.6 -1.6 -1.6 -1.6 -1.6 -1.6 -1.6 -1.6 -1.6 -1.6 -1.6 -1.6 -1.6 -1.6 -1.6 -1.6 -1.6 -1.6 -1.6 14.8 21.8 16.5 18.9 15.9 5.5 6 2.3 -1.6 -1.6 -1.6 -1.6 -1.6 -1.6 -1.6 -1.6 -1.6 -1.6 -1.6 -1.6 -1.6 -1.6 15.7 12.4 19.2 13.8 25 30.7 48.1 70.4 81.8 84.1
-1.6 -1.6 -1.6 -1.6 -1.6 -1.6 -1.6 -1.6 -1.6 -1.6 -1.6 -1.6 -1.6 -1.6 -1.6 -1.6 -1.6 -1.6 -1.6 -1.6 -1.6 -1.6 -1.6 -1.6 -1.6 -1.6 -1.6 -1.6 -1.6 -1.6 -1.6 -1.6 -1.6 -1.6 -1.6 -1.6 -1.6 -1.6 -1.6 -1.6 -1.6 -1.6 -1.6 -1.6 -1.6 -1.6 -1.6 -1.6 -1.6 -1.6 -1.6 -1.6 -1.6 -1.6 -1.6 -1.6 -1.6 -1.6 -1.6 -1.6 -1.6 -1.6 -1.6 -1.6 -1.6 -1.6 -1.6 -1.6 -1.6 -1.6 -1.6 -1.6 -1.6 -1.6 -1.6 -1.6 -1.6 -1.6 -1.6 -1.6 -1.6 -1.6 -1.6 -1.6 -1.6 -1.6 -1.6 -1.6 -1.6 -1.6 -1.6 -1.6 -1.6 -1.6 -1.6 -1.6 -1.6 -1.6 -1.6 -1.6 -1.6 -1.6 -1.6 -1.6 -1.6 -1.6 -1.6 -1.6 -1.6 -1.6 -1.6 -1.6 -1.6 -1.6 -1.6 -1.6 -1.6 -1.6 -1.6 -1.6 2.9 31.8 40.6 41.2 48.6 51.4 56.4 57.2 64 64.1 60.4 54.5 50.6 51.2 51.9 55.2 27.4 -1.6 -1.6 -1.6 -1.6 -1.6 -1.6 -1.6 -1.6 -1.6 -1.6 -1.6 -1.6 -1.6 -1.6 -1.6 -1.6 -1.6 -1.6 -1.6 -1.6 -1.6 -1.6 -1.6 -1.6 -1.6 -1.6 -1.6 -1.6 -1.6 -1.6 -1.6 7.8 17.9 8.8 7.3 -1.6 -1.6 -1.6 -1.6 -1.6 -1.6 -1.6 -1.6 -1.6 -1.6 -1.6 -1.6 -1.6 -1.6 -1.6 -1.6 -1.6 -1.6 11.5 19 24.4 39.1 20.9 29.9 39.3 53.3 69.9 74.4
-1.6 -1.6 -1.6 -1.6 -1.6 -1.6 -1.6 -1.6 -1.6 -1.6 -1.6 -1.6 -1.6 -1.6 -1.6 -1.6 -1.6 -1.6 -1.6 -1.6 -1.6 -1.6 -1.6 -1.6 -1.6 -1.6 -1.6 -1.6 -1.6 -1.6 -1.6 -1.6 -1.6 -1.6 -1.6 -1.6 -1.6 -1.6 -1.6 -1.6 -1.6 -1.6 -1.6 -1.6 -1.6 -1.6 -1.6 -1.6 -1.6 -1.6 -1.6 -1.6 -1.6 -1.6 -1.6 -1.6 -1.6 -1.6 -1.6 -1.6 -1.6 -1.6 -1.6 -1.6 -1.6 -1.6 -1.6 -1.6 -1.6 -1.6 -1.6 -1.6 -1.6 -1.6 -1.6 -1.6 -1.6 -1.6 -1.6 -1.6 -1.6 -1.6 -1.6 -1.6 -1.6 -1.6 -1.6 -1.6 -1.6 -1.6 -1.6 -1.6 -1.6 -1.6 -1.6 -1.6 -1.6 -1.6 -1.6 -1.6 -1.6 -1.6 -1.6 -1.6 -1.6 -1.6 -1.6 -1.6 -1.6 -1.6 -1.6 -1.6 -1.6 -1.6 -1.6 -1.6 -1.6 -1.6 -1.6 -1.6 -1.6 8.4 37.2 38.3 43.5 46.4 53.6 55.3 55.7 62.4 61.4 55 53.7 47.8 50.8 46.5 19.4 -1.6 -1.6 -1.6 -1.6 -1.6 -1.6 -1.6 -1.6 -1.6 -1.6 -1.6 -1.6 -1.6 -1.6 -1.6 -1.6 -1.6 -1.6 -1.6 -1.6 -1.6 -1.6 -1.6 -1.6 -1.6 -1.6 -1.6 -1.6 -1.6 -1.6 -1.6 -1.6 11.7 -1.6 2.7 -1.6 -1.6 -1.6 -1.6 -1.6 -1.6 -1.6 -1.6 -1.6 -1.6 -1.6 -1.6 -1.6 -1.6 -1.6 -1.6 -1.6 1.8 13.7 20.2 28.3 37.7 37.1 25.4 35 46.4 58.6 60.9
-1.6 -1.6 -1.6 -1.6 -1.6 -1.6 -1.6 -1.6 -1.6 -1.6 -1.6 -1.6 -1.6 -1.6 -1.6 -1.6 -1.6 -1.6 -1.6 -1.6 -1.6 -1.6 -1.6 -1.6 -1.6 -1.6 -1.6 -1.6 -1.6 -1.6 -1.6 -1.6 -1.6 -1.6 -1.6 -1.6 -1.6 -1.6 -1.6 -1.6 -1.6 -1.6 -1.6 -1.6 -1.6 -1.6 -1.6 -1.6 -1.6 -1.6 -1.6 -1.6 -1.6 -1.6 -1.6 -1.6 -1.6 -1.6 -1.6 -1.6 -1.6 -1.6 -1.6 -1.6 -1.6 -1.6 -1.6 -1.6 -1.6 -1.6 -1.6 -1.6 -1.6 -1.6 -1.6 -1.6 -1.6 -1.6 -1.6 -1.6 -1.6 -1.6 -1.6 -1.6 -1.6 -1.6 -1.6 -1.6 -1.6 -1.6 -1.6 -1.6 -1.6 -1.6 -1.6 -1.6 -1.6 -1.6 -1.6 -1.6 -1.6 -1.6 -1.6 -1.6 -1.6 -1.6 -1.6 -1.6 -1.6 -1.6 -1.6 -1.6 -1.6 -1.6 -1.6 -1.6 -1.6 -1.6 -1.6 -1.6 -1.6 2.3 33 35.7 39.8 43 44.4 53.5 55.2 55.4 60.2 54.8 54 52.1 41.8 36.9 14.9 -1.6 -1.6 -1.6 -1.6 -1.6 -1.6 -1.6 -1.6 -1.6 -1.6 -1.6 -1.6 -1.6 -1.6 -1.6 -1.6 -1.6 -1.6 -1.6 -1.6 -1.6 -1.6 -1.6 -1.6 -1.6 -1.6 -1.6 -1.6 -1.6 -1.6 -1.6 -1.6 -1.4 -1.6 -1.6 -1.6 -1.6 -1.6 -1.6 -1.6 -1.6 -1.6 -1.6 -1.6 -1.6 -1.6 -1.6 -1.6 -1.6 -1.6 -1.6 -1.6 -1.6 7.8 19.3 23.2 39.3 35.1 25.8 26.7 34.6 38.2 47.7
-1.6 -1.6 -1.6 -1.6 -1.6 -1.6 -1.6 -1.6 -1.6 -1.6 -1.6 -1.6 -1.6 -1.6 -1.6 -1.6 -1.6 -1.6 -1.6 -1.6 -1.6 -1.6 -1.6 -1.6 -1.6 -1.6 -1.6 -1.6 -1.6 -1.6 -1.6 -1.6 -1.6 -1.6 -1.6 -1.6 -1.6 -1.6 -1.6 -1.6 -1.6 -1.6 -1.6 -1.6 -1.6 -1.6 -1.6 -1.6 -1.6 -1.6 -1.6 -1.6 -1.6 -1.6 -1.6 -1.6 -1.6 -1.6 -1.6 -1.6 -1.6 -1.6 -1.6 -1.6 -1.6 -1.6 -1.6 -1.6 -1.6 -1.6 -1.6 -1.6 -1.6 -1.6 -1.6 -1.6 -1.6 -1.6 -1.6 -1.6 -1.6 -1.6 -1.6 -1.6 -1.6 -1.6 -1.6 -1.6 -1.6 -1.6 -1.6 -1.6 -1.6 -1.6 -1.6 -1.6 -1.6 -1.6 -1.6 -1.6 -1.6 -1.6 -1.6 -1.6 -1.6 -1.6 -1.6 -1.6 -1.6 -1.6 -1.6 -1.6 -1.6 -1.6 -1.6 -1.6 -1.6 -1.6 -1.6 -1.6 -1.6 -1.6 7.8 33.7 35.8 39.5 40.9 50.1 53.7 53.1 52 50 51.7 52.8 40.2 30.6 5.7 -1.6 -1.6 -1.6 -1.6 -1.6 -1.6 -1.6 -1.6 -1.6 -1.6 -1.6 -1.6 -1.6 -1.6 -1.6 -1.6 -1.6 -1.6 -1.6 -1.6 -1.6 -1.6 -1.6 -1.6 -1.6 -1.6 -1.6 -1.6 -1.6 -1.6 -1.6 -1.6 -1.6 -1.6 -1.6 -1.6 -1.6 -1.6 -1.6 -1.6 -1.6 -1.6 -1.6 -1.6 -1.6 -1.6 -1.6 -1.6 -1.6 -1.6 -1.6 -1.6 -1.6 12.3 14.5 23.5 39.8 38.4 31.1 16.8 23.2 34.3 40.5
-1.6 -1.6 -1.6 -1.6 -1.6 -1.6 -1.6 -1.6 -1.6 -1.6 -1.6 -1.6 -1.6 -1.6 -1.6 -1.6 -1.6 -1.6 -1.6 -1.6 -1.6 -1.6 -1.6 -1.6 -1.6 -1.6 -1.6 -1.6 -1.6 -1.6 -1.6 -1.6 -1.6 -1.6 -1.6 -1.6 -1.6 -1.6 -1.6 -1.6 -1.6 -1.6 -1.6 -1.6 -1.6 -1.6 -1.6 -1.6 -1.6 -1.6 -1.6 -1.6 -1.6 -1.6 -1.6 -1.6 -1.6 -1.6 -1.6 -1.6 -1.6 -1.6 -1.6 -1.6 -1.6 -1.6 -1.6 -1.6 -1.6 -1.6 -1.6 -1.6 -1.6 -1.6 -1.6 -1.6 -1.6 -1.6 -1.6 -1.6 -1.6 -1.6 -1.6 -1.6 -1.6 -1.6 -1.6 -1.6 -1.6 -1.6 -1.6 -1.6 -1.6 -1.6 -1.6 -1.6 -1.6 -1.6 -1.6 -1.6 -1.6 -1.6 -1.6 -1.6 -1.6 -1.6 -1.6 -1.6 -1.6 -1.6 -1.6 -1.6 -1.6 -1.6 -1.6 -1.6 -1.6 -1.6 -1.6 -1.6 -1.6 -1.6 -1.6 29.3 30.9 33.6 36.5 39.8 50.6 51 49.6 48.2 49.7 54.7 39.4 29.4 -1.6 -1.6 -1.6 -1.6 -1.6 -1.6 -1.6 -1.6 -1.6 -1.6 -1.6 -1.6 -1.6 -1.6 -1.6 -1.6 -1.6 -1.6 -1.6 -1.6 -1.6 -1.6 -1.6 -1.6 -1.6 -1.6 -1.6 -1.6 -1.6 -1.6 -1.6 -1.6 -1.6 -1.6 -1.6 -1.6 -1.6 -1.6 -1.6 -1.6 -1.6 -1.6 -1.6 -1.6 -1.6 -1.6 -1.6 -1.6 -1.6 -1.6 -1.6 -1.6 -1.6 -1.6 12.6 11.7 24.8 29.4 29.1 33.4 22.6 9.3 15.9 20.8
-1.6 -1.6 -1.6 -1.6 -1.6 -1.6 -1.6 -1.6 -1.6 -1.6 -1.6 -1.6 -1.6 -1.6 -1.6 -1.6 -1.6 -1.6 -1.6 -1.6 -1.6 -1.6 -1.6 -1.6 -1.6 -1.6 -1.6 -1.6 -1.6 -1.6 -1.6 -1.6 -1.6 -1.6 -1.6 -1.6 -1.6 -1.6 -1.6 -1.6 -1.6 -1.6 -1.6 -1.6 -1.6 -1.6 -1.6 -1.6 -1.6 -1.6 -1.6 -1.6 -1.6 -1.6 -1.6 -1.6 -1.6 -1.6 -1.6 -1.6 -1.6 -1.6 -1.6 -1.6 -1.6 -1.6 -1.6 -1.6 -1.6 -1.6 -1.6 -1.6 -1.6 -1.6 -1.6 -1.6 -1.6 -1.6 -1.6 -1.6 -1.6 -1.6 -1.6 -1.6 -1.6 -1.6 -1.6 -1.6 -1.6 -1.6 -1.6 -1.6 -1.6 -1.6 -1.6 -1.6 -1.6 -1.6 -1.6 -1.6 -1.6 -1.6 -1.6 -1.6 -1.6 -1.6 -1.6 -1.6 -1.6 -1.6 -1.6 -1.6 -1.6 -1.6 -1.6 -1.6 -1.6 -1.6 -1.6 -1.6 -1.6 -1.6 -1.6 8.7 27.9 30 33.7 36.1 41.5 48.2 48.1 47 52.9 54 40.9 16.6 -1.6 -1.6 -1.6 -1.6 -1.6 -1.6 -1.6 -1.6 -1.6 -1.6 -1.6 -1.6 -1.6 -1.6 -1.6 -1.6 -1.6 -1.6 -1.6 -1.6 -1.6 -1.6 -1.6 -1.6 -1.6 -1.6 -1.6 -1.6 -1.6 -1.6 -1.6 -1.6 -1.6 -1.6 -1.6 -1.6 -1.6 -1.6 -1.6 -1.6 -1.6 -1.6 -1.6 -1.6 -1.6 -1.6 -1.6 -1.6 -1.6 -1.6 -1.6 -1.6 -1.6 -1.6 6.8 16.5 13.9 27.7 28 23 27.3 2.8 -1.6 -1.6
-1.6 -1.6 -1.6 -1.6 -1.6 -1.6 -1.6 -1.6 -1.6 -1.6 -1.6 -1.6 -1.6 -1.6 -1.6 -1.6 -1.6 -1.6 -1.6 -1.6 -1.6 -1.6 -1.6 -1.6 -1.6 -1.6 -1.6 -1.6 -1.6 -1.6 -1.6 -1.6 -1.6 -1.6 -1.6 -1.6 -1.6 -1.6 -1.6 -1.6 -1.6 -1.6 -1.6 -1.6 -1.6 -1.6 -1.6 -1.6 -1.6 -1.6 -1.6 -1.6 -1.6 -1.6 -1.6 -1.6 -1.6 -1.6 -1.6 -1.6 -1.6 -1.6 -1.6 -1.6 -1.6 -1.6 -1.6 -1.6 -1.6 -1.6 -1.6 -1.6 -1.6 -1.6 -1.6 -1.6 -1.6 -1.6 -1.6 -1.6 -1.6 -1.6 -1.6 -1.6 -1.6 -1.6 -1.6 -1.6 -1.6 -1.6 -1.6 -1.6 -1.6 -1.6 -1.6 -1.6 -1.6 -1.6 -1.6 -1.6 -1.6 -1.6 -1.6 -1.6 -1.6 -1.6 -1.6 -1.6 -1.6 -1.6 -1.6 -1.6 -1.6 -1.6 -1.6 -1.6 -1.6 -1.6 -1.6 -1.6 -1.6 -1.6 -1.6 -1.6 11.9 30.7 32.9 32.4 32.5 40.7 43.5 46 51.6 53.5 45 21.1 -1.6 -1.6 -1.6 -1.6 -1.6 -1.6 -1.6 -1.6 -1.6 -1.6 -1.6 -1.6 -1.6 -1.6 -1.6 -1.6 -1.6 -1.6 -1.6 -1.6 -1.6 -1.6 -1.6 -1.6 -1.6 -1.6 -1.6 -1.6 -1.6 -1.6 -1.6 -1.6 -1.6 -1.6 -1.6 -1.6 -1.6 -1.6 -1.6 -1.6 -1.6 -1.6 -1.6 -1.6 -1.6 -1.6 -1.6 -1.6 -1.6 -1.6 -1.6 -1.6 -1.6 -1.6 0.5 10.4 10.3 18.8 16.3 23.6 24.1 1.5 -1.6 -1.6
-1.6 -1.6 -1.6 -1.6 -1.6 -1.6 -1.6 -1.6 -1.6 -1.6 -1.6 -1.6 -1.6 -1.6 -1.6 -1.6 -1.6 -1.6 -1.6 -1.6 -1.6 -1.6 -1.6 -1.6 -1.6 -1.6 -1.6 -1.6 -1.6 -1.6 -1.6 -1.6 -1.6 -1.6 -1.6 -1.6 -1.6 -1.6 -1.6 -1.6 -1.6 -1.6 -1.6 -1.6 -1.6 -1.6 -1.6 -1.6 -1.6 -1.6 -1.6 -1.6 -1.6 -1.6 -1.6 -1.6 -1.6 -1.6 -1.6 -1.6 -1.6 -1.6 -1.6 -1.6 -1.6 -1.6 -1.6 -1.6 -1.6 -1.6 -1.6 -1.6 -1.6 -1.6 -1.6 -1.6 -1.6 -1.6 -1.6 -1.6 -1.6 -1.6 -1.6 -1.6 -1.6 -1.6 -1.6 -1.6 -1.6 -1.6 -1.6 -1.6 -1.6 -1.6 -1.6 -1.6 -1.6 -1.6 -1.6 -1.6 -1.6 -1.6 -1.6 -1.6 -1.6 -1.6 -1.6 -1.6 -1.6 -1.6 -1.6 -1.6 -1.6 -1.6 -1.6 -1.6 -1.6 -1.6 -1.6 -1.6 -1.6 -1.6 -1.6 -1.6 7.1 30.8 31.8 29.9 29.3 30.2 32.3 36.9 38.8 44.9 41.7 30.2 -1.6 -1.6 -1.6 -1.6 -1.6 -1.6 -1.6 -1.6 -1.6 -1.6 -1.6 -1.6 -1.6 -1.6 -1.6 -1.6 -1.6 -1.6 -1.6 -1.6 -1.6 -1.6 -1.6 -1.6 -1.6 -1.6 -1.6 -1.6 -1.6 -1.6 -1.6 -1.6 -1.6 -1.6 -1.6 -1.6 -1.6 -1.6 -1.6 -1.6 -1.6 -1.6 -1.6 -1.6 -1.6 -1.6 -1.6 -1.6 -1.6 -1.6 -1.6 -1.6 -1.6 -1.6 -1.6 6.2 14.1 -1.6 -1.6 20.6 13.5 -1.6 -1.6 -1.6
-1.6 -1.6 -1.6 -1.6 -1.6 -1.6 -1.6 -1.6 -1.6 -1.6 -1.6 -1.6 -1.6 -1.6 -1.6 -1.6 -1.6 -1.6 -1.6 -1.6 -1.6 -1.6 -1.6 -1.6 -1.6 -1.6 -1.6 -1.6 -1.6 -1.6 -1.6 -1.6 -1.6 -1.6 -1.6 -1.6 -1.6 -1.6 -1.6 -1.6 -1.6 -1.6 -1.6 -1.6 -1.6 -1.6 -1.6 -1.6 -1.6 -1.6 -1.6 -1.6 -1.6 -1.6 -1.6 -1.6 -1.6 -1.6 -1.6 -1.6 -1.6 -1.6 -1.6 -1.6 -1.6 -1.6 -1.6 -1.6 -1.6 -1.6 -1.6 -1.6 -1.6 -1.6 -1.6 -1.6 -1.6 -1.6 -1.6 -1.6 -1.6 -1.6 -1.6 -1.6 -1.6 -1.6 -1.6 -1.6 -1.6 -1.6 -1.6 -1.6 -1.6 -1.6 -1.6 -1.6 -1.6 -1.6 -1.6 -1.6 -1.6 -1.6 -1.6 -1.6 -1.6 -1.6 -1.6 -1.6 -1.6 -1.6 -1.6 -1.6 -1.6 -1.6 -1.6 -1.6 -1.6 -1.6 -1.6 -1.6 -1.6 -1.6 -1.6 -1.6 -1.6 17 28 28.8 27.2 26.7 27.4 31.6 34.8 40.5 41.6 30.6 -1.6 -1.6 -1.6 -1.6 -1.6 -1.6 -1.6 -1.6 -1.6 -1.6 -1.6 -1.6 -1.6 -1.6 -1.6 -1.6 -1.6 -1.6 -1.6 -1.6 -1.6 -1.6 -1.6 -1.6 -1.6 -1.6 -1.6 -1.6 -1.6 -1.6 -1.6 -1.6 -1.6 -1.6 -1.6 -1.6 -1.6 -1.6 -1.6 -1.6 -1.6 -1.6 -1.6 -1.6 -1.6 -1.6 -1.6 -1.6 -1.6 -1.6 -1.6 -1.6 -1.6 -1.6 -1.6 4.8 8.5 -1.6 -1.6 -1.6 7.9 -1.6 -1.6 -1.6
-1.6 -1.6 -1.6 -1.6 -1.6 -1.6 -1.6 -1.6 -1.6 -1.6 -1.6 -1.6 -1.6 -1.6 -1.6 -1.6 -1.6 -1.6 -1.6 -1.6 -1.6 -1.6 -1.6 -1.6 -1.6 -1.6 -1.6 -1.6 -1.6 -1.6 -1.6 -1.6 -1.6 -1.6 -1.6 -1.6 -1.6 -1.6 -1.6 -1.6 -1.6 -1.6 -1.6 -1.6 -1.6 -1.6 -1.6 -1.6 -1.6 -1.6 -1.6 -1.6 -1.6 -1.6 -1.6 -1.6 -1.6 -1.6 -1.6 -1.6 -1.6 -1.6 -1.6 -1.6 -1.6 -1.6 -1.6 -1.6 -1.6 -1.6 -1.6 -1.6 -1.6 -1.6 -1.6 -1.6 -1.6 -1.6 -1.6 -1.6 -1.6 -1.6 -1.6 -1.6 -1.6 -1.6 -1.6 -1.6 -1.6 -1.6 -1.6 -1.6 -1.6 -1.6 -1.6 -1.6 -1.6 -1.6 -1.6 -1.6 -1.6 -1.6 -1.6 -1.6 -1.6 -1.6 -1.6 -1.6 -1.6 -1.6 -1.6 -1.6 -1.6 -1.6 -1.6 -1.6 -1.6 -1.6 -1.6 -1.6 -1.6 -1.6 -1.6 -1.6 -1.6 3.4 22.7 26.6 23.8 25 25.5 25.9 27.9 35.8 38.9 29 -1.6 -1.6 -1.6 -1.6 -1.6 -1.6 -1.6 -1.6 -1.6 -1.6 -1.6 -1.6 -1.6 -1.6 -1.6 -1.6 -1.6 -1.6 -1.6 -1.6 -1.6 -1.6 -1.6 -1.6 -1.6 -1.6 -1.6 -1.6 -1.6 -1.6 -1.6 -1.6 -1.6 -1.6 -1.6 -1.6 -1.6 -1.6 -1.6 -1.6 -1.6 -1.6 -1.6 -1.6 -1.6 -1.6 -1.6 -1.6 -1.6 -1.6 -1.6 -1.6 -1.6 -1.6 -1.6 -1.6 0.1 -1.6 -1.6 -1.6 2.2 -1.6 -1.6 -1.6
