ncols 200
nrows 85
xllcorner 310000
yllcorner 360800
cellsize 50
43.6 44.7 46.6 46.6 46.5 45.7 44.2 43.7 45.7 47.6 49 49.7 52.4 53.8 55.7 56.6 59.1 60.8 61.2 60.2 59.2 59.5 60.4 62.5 63.9 65.5 67.8 69.9 70.9 71.5 72 72.2 75.6 78 78.9 83.3 86 86 88.4 92.5 95.2 98.5 102.4 105.5 108.3 112.4 114.2 114.5 114.7 116.2 117.7 119.4 121.3 124.1 126.1 130.4 134.5 139.9 147.9 154.8 160.5 167.2 172.3 178.1 180.8 182 183.6 185.7 189.6 196.8 202.4 208.6 216.5 225.8 235.9 252 269.5 288.7 304.3 316.9 327.8 337.1 347.2 355.5 365.7 380.4 396.4 408.2 424.7 439.3 447 454.8 453.2 449.4 449 452.2 452.6 445.9 435.3 432.6 428.8 424.7 421.6 418.8 410.3 398.9 387.7 376.5 369.5 354.6 348.9 342.1 342.3 341 337 335 329.7 321.6 313.2 304.6 299.5 296.5 290.7 286.6 280.5 275.2 269.5 265.4 260.7 254.5 245 248.4 259 275.9 279.4 279.5 278.1 276.5 273.7 274.4 275 274.1 270.9 264.4 259.3 254 245.6 235.2 231.6 229.1 225.4 221.2 218.2 214.5 211.2 209.3 209.5 210.4 207.6 205.1 199.2 193.7 190.7 185.4 178.1 167.2 164.2 169.4 168.3 170 175.2 171.4 168.5 149.9 150.5 151.5 176.1 192.2 196.1 194.4 198.4 205 209.4 215.6 219.1 222.1 223.5 225.1 225.1 224.8 224 226 227.9 225.2 222.7 220 217 211.6 207.6 206.5
41.5 43.9 45.1 46 45 45.4 43.4 42.5 45.4 47.1 48.2 49.9 50.7 53 54 56.4 58.6 58.8 58.5 58.2 57.6 58.7 59.8 61 62.2 63.6 64.1 65.9 67.6 69.1 71.3 73.5 75.6 79.1 82.2 86.1 88.4 89.7 90.6 92.5 95.5 98.5 101.7 105.6 108.9 111.3 113.3 114.4 115.1 116.1 117 118.1 120.4 122.2 126.1 130 133.5 139 147.6 153.9 161.8 170.3 180 187.6 191.6 196 197.8 198.4 204.1 211 216.8 221 226.6 238.5 249.3 260.6 274.4 293.9 310.9 327.5 339.5 350.3 355.1 360.7 370 388.3 404.4 415.9 426.6 442.8 448.3 453.7 453.3 450.3 445.8 446.5 447.4 440.5 430.6 425.6 424.6 423.4 417.3 413.8 407.6 396.2 387.5 378.8 370.3 359.2 346.1 338.1 335.8 332.9 330.7 328.6 322.8 315.7 307.7 300.3 295.9 293.7 289.4 281.8 278.7 271.3 265.6 260.9 257.6 253.6 246.9 239.6 239.2 251 266 273 274.4 273.8 270.7 267.3 268.8 268.6 264 255 247.9 241.3 232.5 225.2 219.9 217.6 215.8 216.1 213.1 209.5 206.9 203.1 205.7 206.4 198.7 193.4 191.7 187.5 183.1 175.6 162.7 169.8 180 186.9 186 185.8 183.9 180.8 174.9 160.5 159.5 153.8 151.9 177.4 191.9 190.7 193.8 205.7 210.9 215.1 218.6 222.2 223.9 224.8 224.6 224.6 224.8 226.5 227.7 226 221 218.9 216.2 212.6 207.7 205.6
40.4 42.8 43.9 44.8 45.1 43.7 41 43.2 44.4 45.9 47.4 48.7 49.3 51.1 53.7 53.7 56.4 57.6 55.4 54.7 56.4 57.8 59.6 60.8 62.3 63.6 65.3 66.1 67.8 69.9 71.9 73.2 74.7 75.9 81.8 86.1 89 90.6 91.7 91.9 94.3 97.6 101.2 105 108.7 110.4 112.2 113.8 114.7 115.9 116.7 117.2 119.1 121.8 124.9 129.4 132.8 137.3 145.8 153.3 161.4 171.2 182.3 190.7 199 205.4 208.1 212.1 220.3 226.4 231.1 235.8 242.8 253.5 262.5 275.3 289.6 302.6 317.1 330.7 344.2 356.3 361.6 366 376.9 389.2 402.8 416.2 425.4 442 450.9 449.9 450.1 450.7 445.5 445.1 443 438.5 432.6 424 419.4 416.3 410.1 405.2 400.8 392.6 385.2 377.1 369.4 355.7 344.2 337.6 331.1 328.7 323 321.1 317.2 311.3 305.1 299.6 296 292.1 286.9 282.1 277.7 272.9 268.4 262.3 259 252 245.5 239.2 234.3 231.3 245.5 259.3 265.9 265 259.7 254.2 258.9 255.2 246.6 236.4 228.1 221.4 215.4 211.3 209.8 209.6 208.4 206.1 203.4 202.2 199.5 197.9 196.5 193.4 188 184.3 174.1 167.6 166.9 167 174.7 182.7 189.4 191.1 191.9 191.6 186.6 182.8 178.6 173.4 167.3 162 156 159.4 189.1 187.4 191.9 200.9 208.6 212.8 215.8 219.5 223.5 224.6 224.8 224.4 225.6 227.5 229.6 225.8 219.2 215.3 211.9 210.2 207 205.6
40.4 40.5 41.4 42.7 43.6 41.9 40.3 43 44.1 44.8 45.9 47.5 49.2 50.1 52.4 51.3 53.6 52.6 54.5 56.1 57.2 58.2 59.8 61.2 62.8 63.8 65.6 67 68.3 69.8 71.2 72.3 73.4 76.5 81 85 88.6 90.4 91.7 91.6 93.4 96.5 98.5 103.1 107.4 110.3 111.5 112.9 113.1 114.6 114.8 116 117.8 121.3 123.9 127.9 133.1 138.1 144.7 153 160.8 171.9 182.9 192.6 203.1 212.2 219.8 225.8 233 237.7 244 252.1 256.6 264.5 276.4 289.8 304.4 313.6 324.6 334.1 345.5 353.7 359.6 370 381.5 391.2 402.5 414.4 422.9 436.5 446.6 450.6 449.8 451.9 451.5 446.4 447.5 442.7 436.7 422.9 413.1 407.7 402.9 398.4 396.1 390.4 382.5 374.3 363.8 353.1 336.4 333.1 329.2 323.2 316.9 314.2 310.8 305 299.2 297.5 293.3 289.3 284.8 282.2 277.3 272.6 267.3 263.5 258.4 252.9 247 241 233.9 228.9 226.4 236.9 243.2 242.7 240.7 240.3 238.1 232.4 225.3 217.4 213.8 210.7 207.8 205.2 203.3 202.7 200.5 196.7 195.3 193.6 186.8 186.2 181.8 174.9 173.8 177.1 173.5 177.1 179.9 184 187.1 190.8 193.8 195.7 195.1 193.4 189.8 184.1 181.9 176.7 171.6 167.3 160.9 153.3 175.9 182.5 189.3 194.9 202.8 210.1 214.8 219 223.4 224.5 225.1 225.8 225.8 228.3 227.9 220.3 213.1 211.3 208.1 207.2 206.5 207.5
38.2 39.2 39.8 40.9 41.1 39 41 42.6 44.2 44.3 45.8 46.8 47.6 48 50.3 49.7 50.9 54.2 56.7 57.6 59.5 60.1 61 61.7 63.2 64.2 64.9 66.5 68.4 69.4 69.8 71.5 73.6 76.4 80.1 83.3 87.2 89.4 90.3 91.1 91.3 93.6 97.6 101.4 106.2 109.3 110.9 111.6 110.6 112.4 113.4 115.4 117.8 120.3 123.2 127.6 132.1 137.6 143.2 150.8 160.2 170.3 183 195.2 206.8 217.3 225.2 234.9 243.1 247.9 253 260.8 269.8 275.9 287.1 302.6 317.7 320.6 328.2 335 342.7 350.4 357 370 380.9 390.7 401.5 413.2 419.6 429.9 437.9 445.9 450.4 449.1 448.3 446.4 444.2 437.8 432.9 417.9 404.2 394.9 387.8 384.1 380.2 376 371.4 364.5 358.9 350.6 344.5 338.2 328.7 316.6 311.8 309.8 307.7 300 295.1 291.7 288.5 286 282.2 278.3 272.5 267.9 264.8 260 254.9 249.3 243.7 238 234.7 227.9 223.7 220.1 221.8 222 220.7 220.3 218.5 213.7 210.2 207.1 204.6 202.2 197.6 194.4 191.8 192.7 188.9 186.8 186.3 183.6 180.6 180.5 185 184.5 185.6 184 183.2 184.6 188.6 191.2 194.5 197.8 198.7 199.2 196.5 194.8 191.3 186.3 182.8 178.1 173.9 169.7 167 154.3 161.1 186.5 195.7 195.2 201.6 207.1 214.1 218.6 223.1 224.6 225.6 226.5 228.3 228.3 227.6 218.2 213.9 209.2 208.6 207.6 208.1 209.4
37.5 38.3 38.7 39.8 39.4 38.3 41.4 42.5 42.9 43.3 44.1 44.4 45.5 46.8 49 50.8 52.3 54.7 55.4 58.1 59.7 61.1 62.1 63.6 64.4 64.9 66.1 67.3 68 68.5 69.8 71.6 73.9 76.7 79.2 81.8 84.9 86.6 88.5 89.6 90 92.5 95.6 100.2 105.6 108.8 110.3 110 108.3 110.3 113.2 115 118.1 120.2 123 127 131.1 135.2 140 147.5 157.2 168 180 193.5 206.5 217.9 228 236.7 247.6 254.9 262.8 271.5 284.7 291.1 293.4 305 316.1 321.6 327.8 330.4 337.9 345 351.1 359.3 371.3 382.7 392.2 396.5 402.6 416.5 435.5 444.8 448.3 446.7 445.4 445.4 441.2 434.8 425.6 408.8 394.7 383.6 375.1 370 368 365.1 361.2 358.9 353.4 350.7 347.2 342.4 332.9 320.7 309.2 307.1 304.5 299.9 295 290.1 287 282.9 276.8 268.9 267.3 262.3 255.1 250.6 245.4 239.7 235.4 231.9 229.3 223.7 219.2 217.3 216 214.4 212.6 209.8 207.3 206.1 204.8 204.4 203 203.1 201 199.7 195 196.7 196.8 193.5 192.2 190.5 189.8 189.3 187.9 187.7 188 187.8 189.9 192.7 195.9 200.8 200.4 200.8 200.8 200.2 198 195.5 192.1 186.7 184.2 176.1 173.9 170.6 170.7 159 158 188.8 196.8 203.8 207.7 207.9 212.3 217.7 222.2 224.4 224.9 226.2 222.7 226.2 228 220.2 214 210 208.8 212.4 213.7 217.8
37.3 37.6 38.4 38.1 36.8 39.1 40.1 40.1 40.7 42.5 43.6 45.1 46.1 47.5 48.9 51.4 52.3 54.4 55.8 58.2 59.7 61.6 62.8 64.4 65.3 66.3 66.2 67.6 67.7 67.7 69.5 71.3 73.3 75.9 77.8 80.2 82 84.2 85.5 86.9 88.3 91 95.5 99.8 104.7 107.7 109.4 107.2 105.7 109.4 113.2 116.1 117.2 121 123.7 126.8 131.1 133.2 137.7 145.3 153.4 162.6 174.5 188 200.3 212.2 223.2 235.7 249.2 258.9 267.7 275.9 287.3 292.6 294.9 302.9 312.5 317.8 324.5 329.2 333.6 339.5 346.2 353.3 358.6 365.2 368.7 370.9 380.6 404.1 428.1 440.4 445.6 443.6 442.5 439.9 436.5 431.8 423.2 406.1 390.7 380.2 371.9 365.6 360.5 357.5 354.7 353.5 351.8 349 346 344 340.4 333.9 321.7 308.2 300.6 298.6 289.6 286.1 278.5 275.5 271.2 263 260.3 253.8 247.7 240.2 235.5 230.5 227.9 224.3 222.7 219.2 216.1 215.5 214.1 212.7 211.6 211.4 210.5 209.7 210 209.6 207.9 205.7 205.3 204.5 197.3 202 198.8 197.1 195.6 196.4 194.2 191.7 190.8 191.7 194.3 193.7 195.1 197.4 202.3 203.5 203.1 202.2 202 201.2 198.7 196.8 192.1 186.9 183.7 178.5 173.4 168.1 170.2 157.7 170.9 192.5 199.1 205.4 210.1 212.7 214.9 216.2 218.5 218.3 217.7 213.3 211.2 211.5 216.2 212.2 212.4 212.2 218.5 221.8 220.7 224.7
37.1 37 36.8 36.3 36 36.8 38.4 40.4 41.9 42.7 43.6 45.1 46.4 47 48.1 51.2 51.7 53.4 55.8 58.5 60.1 61.6 63.1 64.3 65.8 66.4 67.1 67.9 68 68.3 69.1 71 73.1 74.5 76.3 78.3 80.4 82.1 82.7 84.3 87 89.8 93.4 99.1 104 107.1 107.5 104.2 106.1 110.3 113.1 116.6 118.9 121.8 124.8 127.3 131.6 134 136.7 143.7 150.3 159.2 169.4 181.1 192.6 204.9 216.8 228.7 243.7 257.8 268.3 276.7 283.9 290.2 293.5 297 303.8 312.4 319.4 324.3 333.4 335.7 337.9 343.1 346.2 345.5 348 351.1 366.2 391.1 418.1 436 443.7 447.4 441.9 435.1 429.1 422.1 412.9 398.6 386.6 375.8 368.5 363.1 353 348.3 346.7 347.5 346.5 344.9 342.5 342.3 339.2 334.8 330.7 322.2 314.4 305.3 297.2 287.8 279.4 270.7 260.6 257.7 253.7 248.3 238.4 233.7 230.4 227 224.5 224 222.6 221 219 217.3 216.5 216.1 217.4 215.9 214.9 214.1 213.1 211.6 210.8 208.9 208 205.5 202.1 204 200.2 197.2 196.8 199.7 196.7 196.2 195.8 196.6 197.1 197.3 198.3 204.6 205.1 203.3 203.4 202.8 202.4 201.7 198.2 195.1 191 188.7 187.3 181.6 173.7 166.1 166.2 156.1 177.8 193.8 200.3 205.2 211.5 215.3 217.1 216.4 214.1 211.6 209.6 209.6 211.8 211.1 211.5 213.2 214.9 218.5 225.7 228.1 226.6 228.3
35.8 35.7 35.7 35.2 36.2 37.1 39.5 40.1 41 42.5 43.1 44.7 45.5 46.4 48.1 51.3 52.4 53.5 55.5 58 59.1 61.3 62.7 63.9 65 66.5 67.3 67.9 67.8 67.8 68.5 69.9 71.8 72.6 75.5 76.4 77.7 79.3 81.4 83.8 85.9 89.4 93 98.5 104.2 107 105.2 100 105.8 108.8 112 116.3 119.5 122.7 125.3 127.9 130.9 133 135 142.9 148.7 155.7 164.7 173.8 185.2 197.8 209.4 221.4 236.3 248.2 260.4 269.7 277 285.9 290.3 284.8 291.8 302.3 309.1 319 327.5 329.8 328.7 326 325.7 328.6 333.8 347.2 370.3 395.1 419 434.4 439.9 440.5 438.7 434.1 422.8 418.7 407.3 395.4 386.9 378.3 370.3 363.9 351.3 338.9 339.6 337.7 336.3 338.5 336.7 333.4 329.1 328.3 322.8 312.7 305.1 298.9 290.3 280.9 272.9 264.6 256 250.8 247.4 244.2 239.5 231.8 230 227.4 230 229.1 227.6 227.3 225.4 222.4 220.7 222.7 222.7 221.8 220.6 219.1 217.5 216.5 214 212.9 209.3 207.2 207.9 205.2 201.3 198.4 200.5 201.7 200.5 200.4 199.2 199.9 200.4 201.6 208.4 208.3 209 206 203.4 202.7 202 200.1 197.5 195.7 196.2 194.2 190.8 183.1 172.7 166.9 162.6 154.7 179 191.9 201 207.5 211.6 215.9 218.7 216.2 214.7 212.1 211 211.2 212.8 220.6 218.4 218.1 220 222.2 228.8 231.4 230.4 231.7
34.6 33.7 33.9 35.7 37.2 37.8 38.2 39.9 41.4 42.7 42.9 43.2 44 45.2 47.8 50.1 51.5 53.7 55.2 57 59 60.9 61.6 63.4 64.6 65.8 67.2 67 67.2 67.3 68.2 68.9 70.6 71.9 73.6 74.7 75.8 78.1 80.8 83.4 85.8 88.9 91.9 96.6 101.7 103.8 99.1 101.1 102.3 104.3 106.3 109.7 113.3 118.3 122.2 126.6 129.6 132.7 134.3 140.7 146.7 153.1 160.3 168.2 177.1 189.2 201.2 214.1 227.9 239.5 249.4 260.4 268.2 273.9 276.9 273.5 280.1 289.6 298.8 306.9 313.9 314.7 313 312.3 316 323 335.2 353.6 380.3 402.4 416.6 425.3 434.1 438.8 439.2 425.2 410.4 411.1 406.6 399.7 390 382.8 372.7 361.3 351.9 338.9 329.7 326.2 323.9 325.2 322.5 319.1 318.5 312.7 304.9 299.4 290.9 284.3 277.3 269.4 260.8 252.9 248.9 244.3 241.3 239.9 239.8 239.3 234.6 234.9 234.2 235.6 234.4 232.2 231.2 230.1 227.4 230.8 228.8 227.2 225.5 222.5 220.1 217.5 216.4 216.9 212.8 210.9 210.2 207.1 203.5 203.1 203.9 204.4 203.1 203.4 204.6 207 207.8 211.5 212 211.8 211 208.8 205 203.5 202.3 199.9 199.1 198.5 198.6 197.4 192 184.3 172.9 165.9 157.3 164.7 177.2 189.9 197.5 205.7 214.8 217.2 220.3 220.6 222.3 214.7 214.9 218.2 223.6 225.9 224.4 223.4 225.7 225.9 228.7 233.1 235.4 234.1
32.7 33.3 35 34.8 35.9 36.9 38.8 40.2 40.8 41.7 41.9 42.4 43.2 44.8 46.6 49.3 51.4 53.6 53.6 56.3 58.1 59.5 60.7 63 63.9 65.3 66.7 66 66.6 66.8 67.9 67.6 69.4 71.1 72.4 73.6 74.7 76.4 80 82.7 86.2 88.9 91.1 94.7 98 101.2 93.1 98.1 103.4 108 111.6 115.3 118.7 121 121.6 124.6 128.7 132.3 134.4 139.2 144.2 150.9 156.8 164.3 172.6 183.3 192.8 204.1 215.8 225.8 237.2 247.6 255.8 261 264.7 260.4 268.3 278.9 285.2 291.6 295.1 294.7 298.4 304.8 316 327.6 342.8 362.3 384 400 413.8 421.6 427.1 432 430.5 419.4 403.9 393.6 393.4 387.7 380.5 375.4 367.4 356 343.2 331.2 324.5 316.3 316.4 307.6 304.9 302.1 302.1 296.3 290.6 281 273.9 265.5 259.1 255 251.4 247.2 243.6 241.3 239.8 239.8 241.2 240.7 243.8 244.4 245.7 245.1 242.8 241.6 238.6 236.3 235 236.3 234.3 231.8 227.4 224.1 222.2 221.9 221 220.6 218 216.8 216.3 209.8 208.1 208.1 209.2 208 207.2 209 211.9 213.8 212.3 211.8 212 212 210.8 209.5 207.2 205 204.2 200.7 200.3 199.5 200.4 199.3 193.7 186.1 174.7 165.8 156.4 174.3 185.2 191.1 195.9 202.8 211.7 217.6 219.6 220.4 223.2 224.6 225.7 225.7 227.8 230.5 230.8 229 230.9 230.1 231.9 237.6 239 236
32.6 34.2 35.5 34.4 34.7 36.8 38.1 38.9 40 40.9 41.2 42.3 42.6 43.8 46.4 48.7 50 52.7 53.2 55.1 56.6 58.2 60.4 61.2 62.8 64.3 64.7 65 63.9 64.4 65.9 66.3 68.2 69.4 71.2 72.5 73.6 75.9 77.9 81.5 84.9 87.8 90.4 92.8 92.5 90.6 96.2 102.1 104.8 109.2 113 116.4 120.2 123 124.9 125.7 128.1 131.8 135.2 138.4 144.3 149.8 155.3 162.7 171 180.1 189.3 197.5 205.8 214.7 223.7 233 240.8 247.5 251.7 250.5 256 265 272.4 279.8 275.1 285.8 299.1 312 326.2 341.4 355.8 369.7 385 402.6 416 424.8 422.9 416.1 415.1 408.6 395.9 382.4 376.1 371.3 365.7 358.4 348.7 340 331 325.6 317.3 311.2 309.1 302.5 297.3 292.1 287.8 279.4 272.9 267.4 263 258.4 253.9 249.9 246.9 243.9 241.8 243.6 245.7 247.9 250.1 257.3 261.4 261.8 260.8 258.9 255.2 252.1 247.7 244.7 242.7 239.4 239.1 235.7 228.3 226.7 226.9 225.6 224.7 224.6 222.2 220.9 221.2 215.6 215.5 217 220 216 211.8 213.5 216.9 214.6 213.5 213.4 212.4 211.7 210.6 209.4 207.5 205.6 205.6 203.8 203 201.5 202.2 202.3 196 187.5 175.4 166.5 157.2 182.4 193.4 190.9 193.8 205.2 212.1 217.7 222.5 223.9 226.9 230.1 233.8 233.4 233.2 235.2 234.8 233.4 235.9 234.4 235 239.7 241.2 239.3
31.6 32.2 34.2 34.4 35.4 36.4 37.6 38.8 39.5 39.8 41 41.5 41.9 43.8 45.4 47.9 49.7 50.7 52.6 54.1 55.7 57.7 59.2 60.3 60.5 62.5 62.7 60.1 58.3 60.8 63.6 64.6 65 67.2 69.7 71.6 73.4 75.9 77.4 79.3 81.6 82.5 84.6 85.6 90.2 94.7 97.6 101.2 104.7 109.2 113.9 117 119.7 123.7 126.9 129.3 129.5 132.2 135.1 138.5 144.1 148.1 154 160.6 168.3 176.6 184.3 191.2 197.3 204.4 209.8 216.2 224.1 229.8 238.2 239.9 244.7 251.5 256.7 264.4 280.4 292 307 323.9 340.1 356.7 367.9 376.9 389.9 402.5 414.9 422.8 419.9 414.7 403.4 397.3 388 378.7 369.8 363 358.5 350.5 341.2 332.3 326.2 321.1 316.2 306.5 301.8 300 293.6 287.1 281 276.9 268.5 261.6 257.6 254.5 250.9 247.5 246.9 246.9 249.2 254.7 257.8 262.8 268.8 273.6 277 277.4 276.7 273.1 266.1 261 254.6 249.6 244.7 243.4 240 232.8 231.9 232.3 230.9 228.7 229.1 228.9 225.4 224.3 224.6 222.1 223.9 224.8 225.4 220.8 217.2 216.6 218.1 216.6 214.8 214.2 213.1 211.7 210.3 209.9 207.5 206.6 206.9 206.6 205.3 203.3 202.8 202.3 196.6 188.8 180 168.1 157.5 183.6 192.8 191.5 194.5 206 213.7 217.4 221.2 225.5 229.1 234.5 238.1 239.7 239.7 239.8 237.7 236.8 240.2 238.4 239.7 244.4 246.5 246.2
30.7 32 32.7 34.5 35.7 36.2 37 38.2 37.7 39.2 39.4 40.5 41.6 42.9 44.8 45.6 48.6 49.8 52 53.2 55 56.1 58.2 59.2 59 60.6 57.1 57.3 61.5 64.2 65.8 66.9 68 69 71.2 72.3 74.2 76 77.9 79.9 82.7 85.3 87.9 90 92 94.2 97.1 100.2 104.7 109.9 114.8 117.7 120.4 122.9 126.6 130.2 130.8 132.2 135.8 137.9 141.5 145.6 149.2 152.5 163.2 169.6 175.9 179.5 183.9 193.2 198.5 203.9 209 215.5 223.2 228.5 237 244.6 257.1 266.8 281.9 298.4 315 330.2 345.4 361.3 375.7 385.4 394.1 402.9 408.1 411.3 408.8 404.4 396.6 392 383 373.6 366 356.8 348.1 339.3 331.7 324.3 321.6 316.8 312.2 305.9 298 294.4 287.9 282.1 277.6 274.7 270.1 261.7 257.5 253.9 251.9 253.2 256 258.1 268.2 273.2 280.1 282.9 287.9 292 292.7 291.1 287 282.4 275.9 266.1 256.1 250.8 247.8 245.6 241.1 237.6 236.9 235.3 233.8 231.8 233.1 232.8 229.3 227.8 228.3 228.5 229.1 230.3 228.9 225 222.6 222.1 220.8 218 216.6 215 213.7 214.6 211.9 211 208.7 208.1 207.8 207.5 206.2 204.3 201.8 200.8 199.1 192.9 188.3 174 160.9 180.4 195 199.7 200.6 208.6 211 216.5 219.7 225.7 233.2 236.2 242.1 244.9 245.8 245.8 243.9 242.5 243.1 242.1 243.5 250.4 252.8 251.5
31.3 31.5 30.9 33.3 34.8 35.8 36.5 37 37.9 38.7 39.2 40.1 41.6 42.8 44.4 45.9 47.6 49.4 51 52.8 54.6 56.2 56.2 56.9 56.4 53.6 57.5 61.2 64 66 68.2 69.5 70.4 71.3 71.8 73.7 74.4 76.4 77.7 80 82.5 85.1 86.5 88.4 91 92.7 96 99.4 104.1 110.4 114.2 118.7 121.1 122.2 123.2 125.9 128.2 130.4 132 133.3 136.2 144.8 152.1 157.9 164.3 170.4 174.8 182.1 190 195.9 202.1 208.8 216 223.4 230.6 237.4 246.3 254 263.8 272.9 286.8 302.4 319.7 333.5 351 366.9 380.6 390 396 402.8 406.3 405.8 404.5 401.9 397.9 380.3 375.4 371.3 367.8 362 349.4 338.8 329.2 321.5 317.9 315.1 308.4 303.4 295.8 290.2 284.8 279.2 273.1 271.2 265.7 259.2 258.1 260.9 261.9 267.2 271.1 278.3 286.9 294.2 297.1 302.9 304 303.9 301.9 299.5 293.9 285.1 274.6 264.1 257.1 253.3 251.8 247.5 241.7 242.1 241.4 239.6 238.8 238 237.8 236.5 234.7 232.6 232.2 234.2 233.8 235 234.9 232.5 229.8 225.2 222.5 219.4 218.3 216.3 215.7 215 213.1 212.1 210.7 209.1 206.8 208.3 207.9 206.1 202.6 202.7 202.5 195 187.5 172.8 165.6 158.9 190.3 197.9 200.8 209.7 210.5 213.3 219.5 227.7 232.8 238.5 241 246.1 250.8 250.8 250.6 246.9 248 245.6 246.7 254.5 255.4 254.1
31.4 31.8 31.8 31.8 34.1 35 35.3 36.9 37.3 38.5 38.5 40 41.3 43.7 43.7 45.6 47.1 48.2 50 51.3 53.2 54.2 54.2 54.5 53 56 59.3 61.3 63.1 65.6 68.3 69.8 71.5 72.5 73.8 74.7 75.9 76.6 78.3 80.1 82.4 84.8 86 87.5 90 91.7 95.4 98.9 105 109.9 114.2 117.1 112.5 112.3 117.6 122 123.3 127.2 130.3 134.1 139 144.9 151.6 157 164.3 171.3 177.2 185.1 192.1 198.8 205.4 212.7 222 230.6 241.5 250.9 259.3 267.2 276.7 284.3 293.8 308.4 325.5 339.8 353.4 370.9 387.2 395.3 401.3 407.1 409.8 412.8 407.6 401 395.3 378.1 365.8 361.2 357 350.7 343.4 336.5 327.5 319.3 314.4 307.6 300.8 293.3 287.6 282.8 280.5 277.5 270.6 264.8 264.2 270.6 273.4 278.4 284.9 288.8 291.9 297 303.6 311.4 314 315.7 314.6 311.4 308.5 304.1 297.2 286.1 273.8 267 259 257.4 255 247.8 248.4 246.1 246.4 245.3 244.1 243.1 242 240.3 240.3 238.1 236.6 238.1 239.6 238.9 237.5 236.7 233.5 231.3 228.2 221.9 219.9 218.1 216.2 215.9 212.9 211.5 210.4 209.5 206.7 206.4 208.5 205.6 203.5 202.5 200.3 185.9 175.8 171.7 166.4 159.8 174.8 189.8 199.3 207.1 211.1 214 219.9 227.1 233.5 237.1 241.8 249.3 254.8 256 254.2 251.8 251.1 247.9 250.6 256.4 256.8 255.3
31.8 31.5 31.4 31.4 32.8 34.1 35.2 35.8 36.7 38.1 38.8 39.9 41.5 42 44 45.4 46.8 46.8 49.2 50.4 51.1 51.8 52.6 51.7 54.4 57.3 59.2 60.4 62.7 65.2 68.2 70.1 71.7 72.9 74 75.3 76.4 78.2 79.4 80.9 82.6 84.1 85.6 87.6 89.5 91.5 94.2 98.9 103.8 108.6 108.4 105.4 116.2 120.3 123.3 125.7 127.2 130 132.7 135.3 138.5 143.2 149.7 156.6 163 169.8 177.5 186.7 193.7 202.7 211 218.7 230.8 241.2 254.8 262.2 268.7 276 285.1 294.3 305.5 316.3 330.4 345.6 360.1 373.8 386 394.5 400.9 404.3 403.2 400.3 394.1 388.5 381.3 371.2 361.7 355.3 350.5 346.2 340.6 333.2 325.8 319.9 314.7 309.7 303.2 294.6 286.5 280.5 280.5 280.5 276.8 274.3 281.8 291.6 296.4 304.1 307.3 315.1 316.7 320 326.6 328.3 328.5 326.2 323 317.4 311.8 305.1 295.8 280.2 270 270 262.8 259.5 255 255.7 254.9 255.1 253.9 251.5 251.1 248 245.9 245.6 245.6 244 243.4 242.7 243.6 242 240 239.2 238.5 236.9 233.3 224.3 221.3 217.9 215.8 214.3 212.8 211.3 210.6 209.6 206.2 204.4 206 205.2 202.6 199.3 188.2 190.2 189 176.6 160.2 162 168 182.5 193.7 205.6 209.6 214.3 221.4 227.9 233.9 237.8 244.2 251.5 257.8 260.6 258.3 255.6 252.2 249.4 255.1 257.4 256.9 252.4
31.9 31.8 31.4 32.2 32.4 33.1 34.6 35.3 36.5 37.6 38.2 39.9 41.5 42.3 43.4 45.6 45.9 47 48 49.4 49.4 49.8 51 53.1 55.1 56.9 58.1 60.7 62.9 65.9 69 71.2 72.9 73.4 74.3 75.4 77.3 79 80.3 82.2 83.5 83.2 85.5 87.3 89.3 92.4 95.2 97.5 101.4 102.9 100.8 109.6 115.1 118.5 121.2 124.9 127.4 130.2 133.5 135.4 138.4 142 147.9 154.7 161.2 168 175.9 184.3 195.5 206.3 216.4 225.6 235.8 246.2 261.5 268.6 274.7 283.7 290.9 300.3 315.2 329.7 341.2 350.4 360.3 372.7 382.6 390.4 399.9 403.3 401 393.9 391.7 388.1 379.7 369.6 361.2 353.7 348.4 345 340 338.3 332.4 325.8 317.5 309 300.5 291.7 284.4 280.5 280.5 280.5 280.5 287.1 297.8 305.7 316.3 321.6 328 332.7 335.6 338.3 339.5 339 336.6 336.2 331.6 320.6 313 302.5 287 275.9 270 270 268.6 261.6 262.3 265 263.6 263.2 261.6 259.2 257.8 254.6 251.2 251 250.1 249.2 248.3 247.8 247.9 246 245.4 240.9 240.6 237.8 234 223.1 219.7 218.3 216.9 214.8 212.4 211.1 209.9 207.9 205.7 205.3 203.3 200.6 197.8 195.9 195.6 193.9 190.1 175.6 161.4 161.7 169.7 184.6 200.8 206 208.9 214.6 223.1 227.7 232.5 237.7 244.2 253 260.9 266.6 265.1 259.5 252.4 251.8 255.8 256.1 253.9 246.2
32.3 32.2 32 31.6 32.9 32.2 33.4 35.1 35.5 37.3 38.7 39.5 41.2 42.9 43.1 45.1 46.1 46.3 47.3 47.9 48.4 49.4 51.7 53.6 55.6 57.4 58.8 60.8 63.3 66.7 70.1 72.3 73.5 74 74.4 75.3 77.3 79.2 80.4 81.9 82.4 83.3 84.3 86.7 88.2 91.2 94.6 95.9 95.6 98.3 102.8 107.1 109.1 114.4 120.2 125.1 127.4 130.2 133.1 135.3 138.5 141.6 146.3 152.2 159.1 166.6 173.5 182 194.5 205.3 215.6 226.9 237.8 252.2 261.5 265.1 274.6 290.9 305.1 308.5 319.8 335.7 347.7 361.7 368.2 374.5 380.4 387.6 393.1 395 396.6 398.2 404.2 399.3 389.6 377.3 369.3 361.4 353.8 346 340.9 338.7 331.4 324.3 316.1 307.1 299.4 290.3 283.5 280.5 280.5 280.5 292.4 303.6 315 322.6 332.5 340 343.9 346.8 350.1 351.6 352 351.3 348.7 343.7 336.4 325.1 314.2 294.2 283.4 279.5 273.8 270 268.8 270.5 274.5 274.9 274.8 272.4 269 265.2 260.7 257.7 255.6 255.2 254.2 254.1 253.6 253.7 252.5 251 249.1 245.1 242.6 240 234.6 226.6 223.1 221.7 219.4 215.1 213.3 211.7 210.2 209 208.3 207.8 208 206.1 205.2 201.7 196.7 193.5 186.5 176.4 161.9 161.5 161.8 185.2 200.2 204.4 209.1 216 220.7 224.5 232.5 237.7 244.4 251 258.2 266.6 267.9 261.7 254.5 254 256.4 253.2 249.7 239.9
32.3 32.5 32.2 31.9 32.1 32.5 32.8 34.4 36.2 37.2 38.3 38.9 39.8 42.6 43.9 44.7 44.8 45.1 45.5 46.7 48.3 50 51.7 53.5 55.8 57.3 59.2 61.3 63.9 67.9 70.8 72.7 73.5 73.4 73.2 74.2 76 77.5 78.9 80 80.5 81.5 83.8 85.6 88.9 90.8 90.9 91.8 96.9 99.8 107.7 112.7 116.2 115.7 119.7 122.6 125.9 129.1 132.1 135.3 137.8 141.7 144.7 149.7 155.9 164 171.5 180.4 189.8 200.9 211.7 224.3 237 247.7 256.2 262 272.7 292.6 305.8 320.2 331.2 340.9 352.6 360.8 370.4 379.3 388.8 394.4 391.8 387.3 391.8 400.3 409.8 411.6 396 386.3 379.6 372.3 366.3 355.5 346.2 336 327.6 320.3 313.5 307.1 297.8 291.3 288.6 285.1 286.4 292.1 305.7 316.8 329.7 336.9 347.6 352 354.5 357.3 360.5 361.7 362.5 358.8 353.2 346.3 338 325.3 304.8 288 284.1 279.7 278.1 276.4 280.3 287.6 288.7 287.6 285.1 281 273.1 266.8 264.7 263.8 262.3 261.1 261.4 260.3 260.5 260.7 258.2 256.5 253.2 248.5 244.8 242.3 237 228.4 226.4 224.5 221.8 218.4 217.9 217.6 216.4 215.7 215.7 212.6 212.6 210.5 207.8 204 198.6 194.6 185.2 173.7 164.5 163.4 161.9 189.3 204.2 208.8 211.6 215.5 218.8 223.5 229.5 236.3 243.3 250 257.4 265.6 267.8 260.8 251.3 255.3 254.5 247.8 239 238.6
31.4 32.3 32.6 32.4 32.2 32.3 32.3 33.6 34.6 36.7 37.2 38.7 39.7 40.5 43.3 44.3 43.9 43.9 44.7 46.9 48.6 50.3 52.1 54.6 56.8 58.1 60.2 62.2 66 69.2 71.3 71.9 72.7 72.5 72 72.5 74 75.5 77.4 80.2 82.4 81.9 83.8 87.2 87.4 86.9 90.5 95.7 100.1 104.7 108 112.7 116.5 119.2 120.9 123.2 126.4 128.9 132.1 135.5 138.6 140.9 144.1 148.6 153.4 162.3 169.3 177.3 185.4 195.5 205.8 216.9 229.1 241.3 248.1 257 271.1 287.2 301.9 316.4 329.4 341 351 362.1 369 377.3 386.2 394 392.9 383.8 385.4 391.7 398.2 404.2 400.8 389.8 384.3 380.4 375.6 364.6 353.5 341.3 333 324.7 314.2 306.9 301.7 297.8 293.2 290.3 295.2 301.9 313.9 323.1 343.9 347.3 354 356.4 362.1 366 370.2 370.1 369.7 364.8 358 349.4 337.5 319 296.8 287.4 285.1 283.8 283.6 287.6 295.6 300.5 301 299 293.7 285.6 277.5 275.9 277.2 276.1 271.8 270.5 269.8 269.8 267.7 265.9 263 259.8 257.3 252.7 250.1 245.5 241.7 232.1 231.4 229.4 229.4 225.5 224.5 224.8 222.9 221.4 221.3 218.5 219.7 218.4 215.6 211.7 206.5 199.5 184.4 174.1 168.1 163 170.6 191.4 206.8 212.3 213.3 215.5 218.7 224.6 229.4 234.3 240.2 248.2 254.6 260.4 262.5 259.5 251.9 250.6 244.8 239.4 238.3 238.4
33.3 33 33.2 32.5 32.4 32.6 32.7 32.5 34.1 34.6 35.8 37.7 38.8 39.8 41.4 41.1 42 42.7 44.2 47.4 48.6 50.5 53 55.4 57.7 59.2 61.8 64.5 67.4 69.8 71 71.8 71.6 71.5 71 70.6 72.3 75 77.8 80.3 82.5 82.5 84.1 86.8 84.2 86.9 92.1 96.3 100.3 104.7 109.1 111.7 116.3 119.1 121.5 123.6 126.3 129.4 132.7 135.5 138.3 140.8 142.9 145.7 150.3 158 166.4 174.4 182.6 190.6 200.3 211 221.4 231.9 239 250.4 264.6 279.9 297.6 314 326.1 335.1 343.1 356.5 368.7 380.9 386.8 389 387.1 377.2 372.8 378.5 391.4 399.3 403.2 401.6 391.8 385.8 380.8 374.7 364.1 353.4 345.6 335.4 327.6 320.8 313.5 304.3 296.5 296.6 304.6 313.9 322.1 332.9 345.8 354.1 365.5 374 377.4 380.2 381.1 380.6 380.1 369.7 359.2 345.7 333.2 312.7 293.8 289.6 289.9 288.6 292.4 301.4 308.3 312.9 316.2 314 307 292.8 290.6 295.5 292.4 288.7 282.3 280.8 280.4 279.7 273.3 269.3 266.6 264.4 262.5 259.9 254.6 249 241.8 233.4 236.6 236.9 235.8 235.7 233.2 229.6 228.8 228.2 226.6 223.3 223.1 221.6 219.4 213.9 208.9 201.2 186.4 174.8 165.8 163.7 177.3 193.7 207.8 212.8 212.2 215.4 217.6 221.5 227.7 233.2 238.4 245.9 252.8 259.6 260.4 260 254.1 250.3 245.1 248.8 242.3 240.7
33.7 32.2 32.2 33 32.5 32.8 32.8 32.5 33.2 33.1 35.6 37 37.7 39 39.3 39.7 41.8 43.3 45.4 46.8 48.7 51 53.4 55.7 58.6 60.3 62.2 65.1 67.5 69.6 70.4 70.1 69.9 69.5 68.4 69.1 71.6 74.8 77.1 79.7 82.3 83.7 85.4 83.5 82.3 88.5 91.5 95.3 99.8 104 108.3 111.5 115 117.1 120.1 122.8 125.3 129.4 132.9 135.1 137 139.6 141.2 143.9 146.8 152.3 161.5 169.4 178.2 187.8 195.4 205.2 214.6 224.4 232.5 245.1 259.1 275.9 292.2 307.2 317.9 332.5 340 346.6 358.1 369.6 378.9 385 374.4 370.3 363.8 365.6 379.4 396.3 405.5 405.2 401.2 400.7 395.2 389.5 384.5 378.2 366.5 353.9 344.4 334 327.3 319.4 309.3 304.3 315.5 324 331 339.4 355.3 369.3 380 387.1 390.1 390.3 388 386.4 381.9 368.6 357.9 343.4 327.7 308 295.3 294.4 294.9 294.8 304.1 314.3 323.7 329.1 329.9 327.3 316.2 309.9 310.1 307.6 304.5 299.6 293.2 292.2 291.4 287.6 281.6 275.6 270.8 270.8 267.3 264.3 259.3 254.9 245.9 241.3 244.4 245.2 243.5 242.7 240.6 237.1 236.2 234.6 233 230.1 226.2 224.8 221.4 216.2 210.7 202.4 187.1 175.1 167.3 164.5 180.3 195.1 204.4 209.8 210.8 213.4 217.1 220.6 226.3 230.7 237.9 244.9 251.9 258.9 263.3 264.7 258.6 255 255.9 257.6 257.6 251.9
33.7 32.9 32.9 32.8 32.8 32.5 32.7 32.8 33 33.1 34.8 36.2 36 37.5 38.5 40.1 40.5 42.1 44.6 46.8 48.2 50.6 53 55.3 57.6 60.5 62.5 64.9 67 68.2 67.9 67.6 67.2 66.4 65.6 67.7 70 72.9 75.9 79.4 81 82 83.9 78.6 82.9 87.7 91.7 95.3 99.5 103.6 106.5 109.5 112.2 114.9 117.6 120.9 124.3 129 130.4 132.3 135.7 138.2 139.5 142.1 144.7 149.9 157.5 168.4 175.6 184.2 192.9 201.4 210 216.8 226.3 239.4 255.2 271.7 286.3 301.9 316.1 325.1 332.5 338.3 345.3 356.4 367.2 366.6 361.2 357.1 356.1 358.4 374.6 396 407.7 409.1 411 411.9 410.5 409.8 407 400.7 389.5 376.4 363.8 353.7 346.2 335.2 326.3 321.9 323.3 331 335.2 345.2 363.7 377.9 386.7 393.5 394.3 390.4 387.1 384.7 378.7 367.9 355 342.2 326.4 307.7 300.4 300.8 298.3 308.3 322.5 332.1 339.6 342.9 341.2 337.1 330.7 328 322.9 320.2 317.8 313.1 306.5 303.9 301.4 294.7 289.7 282.7 279 278.7 272.2 267.6 262.9 258.4 256.7 257.2 258.5 254.3 251.5 250.3 250.6 246.3 242.2 240.8 237.8 233.6 229.8 226.8 222.6 217.6 213.4 201 189.5 175.2 166.4 163.7 181.7 195.4 204.5 209 212.7 217.5 217.6 219.3 224.5 229.6 235.7 243.7 249.4 257.6 263.6 268 264.1 261.2 262.3 264.9 263.9 261.3
34 33.5 33.1 32.8 32.3 32.5 33.3 33.1 33.3 33.1 34 35.4 36.4 37.1 38.5 40.2 41.2 42.7 44.7 46 47 49.5 51 53.4 55.9 59.4 61.1 62 63.8 65.6 65.7 64.8 63.8 63.5 63.4 66.2 68.6 71 74 76.3 76.9 77 76.7 77.5 82 86 90.7 94.7 98.6 102.2 105.4 108.5 110.5 113.7 116.4 118.6 121.9 125.1 129.5 130.9 133.2 136.1 135.3 139.6 143.5 147.5 152.9 162.7 171.2 179.6 189.4 197.4 205.2 212.2 222.8 237.4 254.7 270.1 287.4 305.2 314.4 321.8 326 331.9 335.5 340.6 350.9 350.7 350.5 349.2 350.9 354.5 368.1 389 405.4 410.9 413.8 416.5 417.8 418.7 422.6 418.5 412.9 400.8 381.4 373.6 367.6 356 341.6 333.9 329.7 335.2 338.7 350.1 367 383.4 392.4 394 391.6 389 385.2 380.5 375.2 366.3 353.8 345.2 329.9 311.7 306.6 305.5 307.9 322.2 335 345.7 352.9 355.6 354.2 348.6 344.1 340 335.6 331.2 327.7 324.4 318.7 313.3 307.1 302.1 297.1 288.9 286.9 285.4 278.7 275.7 271.1 267.2 267 271.3 270.8 266.4 266.1 264.7 263.2 257.9 253.3 246.9 241.9 237.6 234.8 228.7 225.3 222.1 215.1 205.7 195.8 179.4 164.3 164.7 177.8 195.9 206.4 210.1 213.2 216.8 217.7 219.6 224.5 229.2 232 240.6 247.1 254.6 265.8 264.4 263.5 263.8 266 266.7 270.6 268.4
33 33.2 33.4 33.2 33.5 33.5 33.3 33.3 33.3 32.7 33.7 35.4 35.8 37.4 38.7 39.3 41.2 42.6 43.6 44.4 46.1 47.4 49.7 51.6 53.7 56.5 58.9 60 60.7 62.7 62.6 60.1 57.9 58.7 59.9 61.7 64.9 68.4 71.2 72 72.2 71.6 75.1 78.3 81.2 84.8 89.2 93 97.1 101.3 104.8 107.2 109.5 112 115.1 117.1 120.1 123.2 126.8 130.3 130.8 130.8 136.7 140.5 144.3 147.2 152.3 159 166.5 175.4 184.1 191.5 197.8 208.7 221.4 238.5 253.2 271.3 286.4 300.8 313.3 317.7 321 330.8 327.9 326.7 336.1 333.9 337.2 335.9 340 346.9 362.4 387 404.5 415 423.5 425.4 427 429.9 432.1 428.7 421.8 413.5 405.3 400.3 393.6 378.3 360.5 344.2 333 338.8 344.3 355 371.9 388.6 397.6 399.4 396.1 392.1 387.6 380.4 371.9 363.7 353.6 341.2 324 314.1 315.3 311.1 322.6 336.6 349.2 358.7 364.7 365.7 363.2 358 354.4 349.7 348.1 344.8 338.8 334.3 329.9 321.8 315.8 309.4 301.7 295.7 294.1 288.9 287 284 280.4 277.2 281.2 281.3 283.9 283.3 280 276.5 269 263.7 258.2 252.9 247.6 243.1 238.5 233 228.1 224 217.6 208.4 196.8 182.7 169.2 163.1 178.6 196.5 205.9 208.5 211.1 214.7 215 216.7 223.2 226.1 230.9 236.8 246 250.7 264 263.3 263.1 265.4 255 266 266.8 265.3
32.9 32.9 32.8 32.4 33.3 33.4 33.3 33.2 33.4 33.1 32.7 34.7 35.4 37.2 38.8 39.5 40.5 41.4 43.3 44.3 45.3 46.7 48.6 50.1 52.1 53.5 55.9 56.9 57.9 58.2 56 56.6 59.3 61.1 62.5 63.4 64 64.9 65.9 68.2 70.9 73.3 76 79.4 81.8 86 89.6 93.2 96.9 100.3 103.4 106.6 108.7 111.1 113.1 116.3 119.6 121.7 122.8 125.1 126 131.9 136.2 140 143.4 147 151.2 156.1 163.7 170.4 177.3 185.3 194.2 206 222.4 237.3 251.1 269.3 283.3 297.7 308.8 312.1 310.6 317.8 316.7 312.7 319.2 319.6 324.9 327.1 333.2 341.1 359.1 383.1 397 412.5 423.3 429.5 436.1 442.5 445.6 436.8 429.1 423.4 422.4 416.1 408.2 395.2 373.8 354.1 337.8 347.3 350.3 360.6 375.3 390.6 399.6 402.1 397.5 391.8 384.9 379.6 370.1 362.6 349.2 340 327.2 321.4 322 321.9 337.1 350.9 362.5 370.8 373.9 372.2 369.6 365.5 362 359.7 356 354.1 349.6 345.9 340.8 332.5 325.4 315.9 309 305.5 302.8 301 298.9 296.4 297 297.9 295.9 297.5 299.1 296.7 288.4 280.9 274.6 269.4 265.5 259.5 254 248.1 242.6 235.8 228.9 223.9 219.4 210.8 196.5 184.8 174.6 165.2 177.6 197.5 205 207 208.1 210.4 213.2 214.9 220.9 224.9 228.9 233.6 241 246.6 258.4 259.6 259.7 259.5 255 254.8 250.9 246.6
32.8 33.4 33.4 33.1 32.6 33.4 33.4 33.5 33.6 33.6 34.1 33.5 34.4 36.7 37.5 39.7 40.2 41.4 43.2 44.2 45.2 46.4 47.8 48.9 50.1 50.2 51.5 50.1 53.1 54.9 56.8 59.7 60.9 62.9 64.4 65.7 66.5 67.2 67.4 69 69.6 73 75.4 79.3 82.9 85.7 88.7 91.9 95.5 98.6 101.7 104.7 107.3 109.8 111.3 113.3 116.4 119.2 119.9 123.2 128.5 132.2 134.7 138.9 142.5 145.7 150.1 155.5 160.8 166.4 172.9 179 191.3 201.4 219.4 235.5 249 264 276.3 289.1 298.1 300.1 296.6 296.9 295.1 295 287.7 300.4 307.4 320.5 331.2 339.9 351.1 371 383.7 401.1 413.3 428.1 439.2 446 449.8 445.4 441 434.7 430.3 426.1 415.1 399.2 377.5 359.3 344.6 349.1 354.6 363.6 379.5 392.8 398.5 395.8 393.6 390.7 386.1 381.9 374.7 367.8 360 352.1 340.3 332.5 328.5 339.2 351.9 364.4 374.6 380.7 381 378.9 375.9 371.8 368.2 366.2 365 363 359.5 355.2 349.8 341.6 334.8 328.1 321.5 317.8 315.1 315.6 316.8 318.1 318.1 317 316.2 313.5 311.7 308.6 300.3 290 281.9 275.7 269.2 264.3 257.8 251.4 243.2 236 230.8 226 219.7 212.1 203 189 179.1 165.6 168.2 185.8 197.5 201.9 199.7 207.5 211.4 213.8 218.9 223.9 227.4 231.6 237.4 242.9 247.4 251.6 255.8 258.7 258 246.5 246.6 235.2
33.2 33.2 33.5 33.9 33.3 33.5 33.7 33.9 33.9 34 33.7 33.1 34.9 36.2 38 39.3 40.7 40.5 42.6 43.8 45.1 46.2 47.3 47 47 50.2 51.4 53.1 54.7 57.6 59.7 61.3 61.7 63.9 66 67.8 68.5 68.6 69.4 70.3 70.9 72.2 75.2 78.7 81.9 85 88 90.4 93.1 95.7 99 101.9 104.5 106.1 106.6 111.4 113.6 117.9 122.4 125.5 128.6 131.8 134.8 137.7 141.3 145.1 149 153.4 157.1 162 168.5 178.6 187.6 197.6 210.9 227.4 244.6 257.5 267.1 275.1 285.1 286.2 278.3 275.1 274.4 277.3 283.7 285.8 291.2 306.6 315.3 324.9 334.8 348.7 362.5 377.7 394.7 412.1 431.6 443.8 448.8 446.9 444.7 443.6 434 427.4 412.8 394.3 376.5 361.8 349.9 350.8 357.5 366.7 382.9 396 400.8 400.4 400.3 399.7 394.1 387.5 381 377 369.8 360 348.4 339.5 336 351.8 365.1 377 386.9 391.9 391.4 388.2 385.3 380.9 377.5 375.7 373.4 370.8 366.2 362.3 357.4 350.5 343 336.4 332.3 329.8 330.8 332 332.8 332.7 332.8 332.2 330.2 327.2 324.4 319.2 311 299.6 290.4 281.4 273.3 266.2 259.8 250.7 244.1 237.2 233.1 228.1 219.7 214.6 206.6 198.9 186.9 173.2 167.2 166.1 174.6 181.9 189.9 203.1 209.6 211.7 217.6 222.8 226.3 229.7 234.9 240.5 244.7 248.4 244.7 246.1 234.6 231.3 222.9 233.3
33.4 33.4 33 33.5 34.3 33.6 33.9 33.7 33.9 33.9 34.1 33.6 33.8 34.6 37 38.4 39.4 40.7 40.9 43.3 44.5 44.9 45.3 46.9 49.2 50.7 51.9 53.8 55.6 58.2 60.6 62.3 62.6 64.8 67.2 68.6 70 70.6 71.4 72.3 72.3 74.3 73.7 77.6 81.4 84.1 86.8 88.7 90.7 92.7 95.7 98.9 100.1 103.3 107.7 111.6 115.8 119.2 121.2 124.5 127.3 130.2 133.4 137.1 140.8 144 146.3 148.7 154.5 159.6 164.8 173.6 183.5 193.3 202.9 214.8 231.8 242.9 253 259.5 263.3 262.8 259.1 259.3 261.6 269 273.2 276.1 280.9 293.8 302.6 308.3 314.8 329.9 345.3 362.7 378.3 397.2 421.3 437.5 445.8 447.9 449.9 443.6 434.1 425.8 413.1 395.1 376.9 361 352.8 354.3 362.2 370.1 385.5 400.5 406.2 408.2 408.4 405.9 398.4 392.8 388.5 384.5 380.4 371.3 352 347.6 344.9 361.4 377.4 390 398.8 402.9 402.3 399.1 394.8 390.5 386.6 382.6 380.1 376.3 371.8 368.6 363.7 357.9 349.7 344.1 342.3 341.8 343.9 344.8 345.3 345.5 344.2 341.5 338.6 336.4 332.1 326.6 318.5 308.9 300.1 290.3 279.8 271.1 263.5 255.7 247.4 237.7 233.2 227.3 222.1 215.6 211.3 208.2 199.5 183.4 172 166.7 167.3 172.4 180.8 184.1 196.2 207.1 216.8 220.7 223.9 227.8 231.8 236.5 240.9 246 248.7 239.1 222.1 223.2 226.1 223.4
33.5 33.3 33.4 33.5 33.9 33.6 33.9 34 34.1 33.9 33.9 33.9 34.1 33.9 34.6 36.2 38.3 40 40.8 41.1 41.8 45.3 46.4 47.7 48.4 50.4 52.5 55.3 56.9 58.6 60.4 61.3 62.9 64.8 66.8 69.2 70.5 71.4 72.9 74 75.7 74.1 77.4 76.8 77 82 83.6 85.6 86.8 89.1 92.3 95.9 99.5 103.6 107.6 110.3 113.4 116.8 119.9 124.1 126.8 129.8 133.8 136.8 140.2 140.6 142.6 146.9 151.4 158 161.7 170.2 178.2 185.5 193.7 203.2 217.5 227.3 233.9 241.7 244.5 245.2 245.8 247.5 252.5 258.8 263.1 268 274.8 284.9 293.5 303.5 316.1 327.2 341.3 354 370.6 387.8 409.4 428.8 444.3 449.4 446.7 441.5 436.5 427.3 412.9 388.5 371 360.7 355 359.5 366.3 374.9 392.7 403.3 409.6 412.8 413.1 409.5 404.6 399.4 398.9 398.1 392.6 382.4 362.8 366 359.5 373.2 389.6 402.9 410 412.2 411.2 408.3 403.9 399.3 394.5 388.9 384.1 380.4 376.8 372.9 368.2 363 356.6 352.4 352.3 352.3 354.7 356.2 354.1 353.5 353.3 351.8 348.7 343.3 337.9 329.5 322.7 313.7 304.9 298 287.6 277.6 268.2 260.3 252.6 244.9 236.5 231.6 223.9 219.2 217.6 212.2 212.5 197.5 188.7 173.4 166.9 168.3 169.1 175.6 182.6 203.5 215.4 218.4 221.8 225.2 229.1 234.5 239.8 244 247.8 245 230.8 221.3 222.9 213
34 33.4 33.7 33.7 33.7 32.7 33.9 33.9 34.3 34.2 33.7 33.9 34.3 34.1 34.6 35.8 37.9 39.6 39.3 39.2 43.4 43.6 46.3 47.2 47.4 49.6 53 55.5 57.5 58.8 59.9 61.3 63.1 65.1 66.5 68.5 69.4 71.2 73.6 74.6 76.3 76.6 77.9 79.3 79.7 81.8 83.1 84.5 86.6 88.1 90.4 94.4 97.8 102.2 104.7 109.6 113.3 116.3 119.4 122.8 126.6 129.9 131.7 131.7 133.4 137.8 143.6 147 152.5 158.3 164.3 168.7 172.9 178.9 185 191.9 201.6 211.5 214.1 220.7 226.1 230.4 235.8 240 243.7 252.1 260.7 269.5 276.7 284.9 295.7 312.5 328 339.1 347.7 358.6 373.4 389 410.1 428.4 443.9 450.5 452.9 442.8 433 422.2 403 382.2 370.3 362.7 359.4 364.1 372 378.9 395.1 407.2 413.2 417.4 416.7 415.3 412.2 413.4 412 409.3 403.7 390.1 379.3 381.7 380.4 385.6 402.2 413.4 419 420.7 419.3 415.8 410.9 405.8 400.4 393.3 388.4 384.5 380.9 376.8 371.5 367.3 362.2 359.2 359.4 360.6 361.6 362.4 363.1 362.6 361.2 359 356.2 351.9 346.5 334.8 327.6 319 309.4 301.1 291.9 283.9 274.6 264.8 256.4 248.8 243.1 236.2 229.3 224.3 220.9 212.9 208.4 199.5 194.4 191.4 176.4 168.6 168.8 169.1 170.3 189.3 211.5 215.9 220.1 224.4 228.3 231.3 234.7 239.3 245 253.9 234.9 219.9 210.7 211.9
33.6 34.3 34 33.8 33.6 33.9 33.8 34.4 34 34 33.1 33.5 34.7 34.2 34.5 34.5 36.4 38.4 38.8 39.8 41.4 43.7 44 45.1 46.7 49 52 55.4 57.8 58.6 59.4 60.7 62.1 64.5 66.5 68.5 69.9 72.1 73.8 75.9 77.6 78.1 79.8 80.2 81.9 83.4 85.1 87.1 88.8 90.3 91.4 93.4 95.1 99.8 104.4 107.9 110.8 113.7 118.8 122.4 125.9 125.9 125.3 130.7 135.3 141.1 143.7 146 150.2 157.1 166.1 174.2 180.7 185.2 189.6 196.7 202.6 207.4 213.1 218.9 224.9 231.8 237.1 241.9 248.5 257.8 271.1 282.1 291.1 299.5 311.6 330.1 346.7 354.2 362.1 373.1 388.7 399.8 416.2 431.4 438.9 447.3 446.8 438 427.7 414.1 397.5 385.8 376.5 368.6 363.7 368.8 376.2 385.7 403.3 412 418.7 425.2 426.4 424.8 426.5 425.6 424.7 419.2 412.4 406.2 399.1 399.4 400.9 401.9 413.9 421.3 425.6 426.4 424.9 421.3 416.9 410.6 405.6 398.5 391.6 387.7 383.3 378.1 373.9 369.4 365.8 364.6 364.6 365.5 366.8 369.3 370.8 370.3 367.7 364.9 361.8 356.3 349.3 341 334.5 324.8 315.5 305.5 295.4 288 278.1 269 259.4 252.1 245.8 240.2 232.5 225.5 219.8 214.2 206.9 202.2 201.1 186.7 188.3 184.1 176.4 171.2 169.3 176.8 196.4 211.2 218.9 222.6 225.9 228.6 232.5 235.7 243.2 249.2 243.2 223.5 210.9 210.3
34.2 34.2 34.3 34.1 33.9 34.4 33.6 34.2 34.6 34.4 34.2 34.5 34.8 34.8 35.7 35 36.1 36.9 37.8 39.1 40.3 41.4 43 44.3 45.9 47.9 51 54.5 56.9 58.1 59 60 61.2 62.9 65.6 67.5 69.9 72.5 74.5 77.1 79.4 80.2 81.1 82.4 83.5 84.2 86.1 88.3 90.9 92.6 93.4 93.3 96.4 98.2 100.5 103.8 106.6 111.5 116.5 120.1 121.8 121.4 126.4 131.1 135.9 139.5 141.4 145.8 150.2 155.9 165.5 173.3 181.6 186.8 193.8 200.3 205.6 212.4 219 225.9 233 242.8 248.5 254.1 259.5 269.5 288.4 301.4 315 323.2 335.1 350.2 365.2 373.8 380.9 387.3 405.8 413.7 422.8 435.3 448.5 453.2 452.4 445.6 438 419.1 406.4 396.4 385.3 374.8 367.7 371.7 380.2 395.3 409.5 417.4 423.1 429.7 433.9 442.6 445 440.7 435.6 426.7 426.3 422.6 417.7 417.6 415.9 416.1 422.4 426.7 429.6 429.6 428.1 425.3 421.1 414.6 409.1 401.7 392.7 387.6 381.9 375.6 370.8 368 366.4 366.2 366.5 368.2 371.8 376 376.2 373.6 371.9 368.3 363.1 356.4 349.6 341.9 335.3 325.2 317 308.1 298.8 290.5 280.3 270.5 262.4 254.8 249.3 241.7 234.5 226.4 219.6 213.4 206.5 197.5 193.4 189.1 198.5 194.9 179 174.8 170 170.6 187.6 208.4 217.2 219.3 223.3 226.4 228.3 233.6 240.9 251.2 242.8 226.7 211 213.7
34 34.2 35 34.4 33.9 34.6 34.1 34.4 33.9 34.6 35.2 35.6 35.5 35.1 35 35.4 35.7 36.7 36.9 37.8 39.3 40.8 42.3 43.7 45.1 46.4 49 52.7 54.9 56.2 56.5 57.9 59.6 61.6 64 66.7 69 72.3 75.3 77.8 80.5 81.9 82.8 84.2 85.1 85 86.9 90 93.3 95.5 96.7 97.5 98.6 100.6 101.9 104.4 106 108.5 111.3 115.2 118.1 123 128.3 132.5 135.6 138.7 142.7 145 150.8 154.8 160.9 170.6 180.6 187.7 195.7 204.1 212.3 219.7 227.5 236.4 243.7 253.7 263.9 272.9 280.3 291.4 301.5 315.3 330.3 347.8 356.2 363.4 373.9 387.6 395.1 401.1 418.2 423.5 433.8 449.1 458.3 460.6 459.6 454.5 441.8 426.6 414.3 402 390.4 383 372.9 374.3 387.6 404 415.4 424.3 431.5 439.1 446.8 452.3 453.9 449.9 442.7 438.3 435.4 433 433.7 433.1 430.1 429 429.8 431.6 433.3 433 430.9 426.7 421.6 415.6 407.9 399.5 390.2 382.4 375.3 369.5 363 359.2 360.5 363.8 364.2 368.4 374 377.2 375.9 374.2 371.9 367.4 362.3 357.4 349.7 339.5 331.7 323.9 316.7 308.4 299.4 289.6 281.4 273.6 265 257.7 250.8 242.9 234.4 225.6 218.4 211.7 200.4 193.8 195.9 195.8 199.1 196.9 187.8 178.2 175.1 170.2 188 210.5 214 215.8 218.5 221.8 225.3 232.4 240.5 248.9 248.5 232.6 221.5 220.7
33.9 34.1 35 36 35.3 35.8 34.5 34 34.6 34.5 34.8 34.5 35.1 35 34.9 35.8 36.1 36.3 36.2 37 37.6 39.3 40.9 42.3 43.6 45.2 48.4 50.2 52.8 54 54.2 55.6 57.3 59.9 62.5 65.8 69.3 73.2 76.1 78.8 80.9 82.3 84.3 85.7 87.1 87.3 88 90.9 94.9 97.2 98.7 100.2 101.5 102.4 103.3 105.8 108 110.5 114 115.8 120.7 124.5 128.3 131.2 134.1 137.1 141.9 144.1 149.8 154 158.8 166.2 177.4 187.1 195.3 205.2 217.8 228.4 236.6 246.9 256.7 264.9 275.9 290.3 299.7 311.5 316.4 325.8 335.4 351.7 368 371.7 376.8 387.9 398.3 404.7 419.7 427.8 439.5 455.7 464.7 467.7 463.8 456.5 445.6 436.3 429.5 408.5 399.4 389.7 380.1 381.9 397.1 415.7 423.5 432.6 442.9 454.9 458.4 456.4 455.8 454.2 455.4 457.7 455.5 449.1 446 444.6 438.5 435.6 433.8 434.2 434.7 433.5 431.2 427.4 420.7 413.8 404.7 394.8 382.3 371.8 363.4 355.5 349.1 347.9 348.9 351.6 357.1 363 368.3 370.4 371.2 370.8 371.1 368.6 363.2 356 346.7 338.1 329.4 320.6 314.7 306.6 297.6 290 281.6 274.5 265.8 258.8 249.9 241.1 232.3 223.1 215 207.5 201.5 199.6 198.7 200.8 201.2 199.2 197.8 186.4 180 173.1 192.8 206.3 210.2 212.2 215.1 218.8 223.6 231.7 239.5 247.9 262.5 243.8 225.5 215.6
34.2 35.1 36.5 36.6 37 37.4 35 34.1 34.4 35 34.7 35.2 34.7 35.1 34.8 35.7 36.7 36.4 35.7 36.2 36.2 37.4 38.9 41.2 42.5 43.8 46.2 48.1 50.8 51.2 52 53.7 55.6 57.8 61.6 65.5 69.4 73.5 76.5 79.1 80.7 82.3 83.7 85.6 87 88.3 88.9 90.6 94.1 97.3 99.2 100.7 102.2 103.5 104.9 105.8 108 110.6 113.3 117.6 120.7 123.9 127.1 130.1 132.8 135.8 138.8 142.4 147.1 152.8 157.9 164.5 173.2 184.2 195.3 204.5 217.8 231.2 241.5 257 265.9 275.8 286.8 299 303.2 321.3 327.8 333 342.2 354.4 368.2 373.3 370.9 378.6 386 393.4 409.8 421.1 432.4 446.8 459.8 464.4 472.3 466.6 452.6 439.2 433.4 410.7 401 394.8 387.6 391.1 404.5 422.5 433.8 439.8 453.5 466.3 469.4 470.2 471.2 469.9 469.7 471.1 468.6 463.8 455.9 448.1 440.9 437.8 435.6 432.4 429.8 428.4 425.3 420.6 415.1 404.9 396.5 384.5 372.6 356.5 349.4 345.3 341.9 339 337.6 337.7 342.2 347.6 354.8 360.1 360.7 363.8 365.7 363.2 358.9 351.9 343.7 334.6 326.6 317.8 309.4 302.6 296.2 288.5 281.4 273.9 264.8 256.1 247.9 237.5 228.5 221.6 215.7 211.7 204.4 202.8 201.5 201.7 201.9 201.9 200.3 193.8 185 174 176.8 194.5 202.1 206.2 211.1 218.7 223.1 231.2 237.9 246.3 256.9 255.5 236 219.7
34.7 35.5 37.3 38.5 38.4 37.8 36 34.3 34.4 35.2 35.3 34.9 35.2 34.2 34.6 35.6 35.2 36 35.8 36.2 36.5 36.6 36.6 39.2 40.3 42.2 45.3 46.3 48.2 49.2 50.4 51.8 54.4 57.1 60.7 64.7 69.3 73.2 75.5 77.8 79.5 81.6 82.6 84.5 86 87.4 87.3 89.1 91 95 99.4 100.8 101.8 102.9 104.3 105.8 107.5 109.4 111.9 115.9 119.5 122.3 125.5 128.7 131.6 134.5 136.9 140.4 145 149.6 155.2 160.2 166.3 179.5 191.4 201 211.3 224.1 238.5 253.5 269.3 285.1 291.8 298.1 301.6 314.7 328.3 338.7 346.3 356 361.1 361.9 360.2 362.2 369.8 377.4 396.5 410.4 424.7 440 452.4 455.5 454.8 454.4 453.5 439 431.5 417.2 404.5 396.4 395 399.3 412 425.5 436.4 452 466.8 475.7 481.4 487.3 485.7 486.2 484.9 479.2 474.9 470.5 459.3 450.3 441.2 437.3 431.3 426.6 421.9 417.7 411.5 405.8 399.1 392.2 384.1 374 356 350.6 346.4 342.8 338.3 330.7 331 327.5 325.8 331.1 336.1 341 346.1 349.9 352.3 352.8 349.3 345.3 337.3 330.3 322 314.7 306.2 299.2 292.1 285.3 277.5 269.4 260.5 251.4 242.1 234 226.7 222.8 217.7 212.4 206.6 205.3 205.4 203.2 201.1 200.9 200.3 198.6 185.5 173.5 172.5 174.2 185.7 202.4 210.4 217.4 222.2 228.8 237 246.9 256.5 265 240.4 239.7
35.1 36.6 38 39.3 39.5 38.7 36.6 34.3 34.7 34.8 34.7 35 34.9 35.7 35.5 35.4 35.3 35.8 36 36.2 36.5 36.2 36.4 36.6 38.7 40 42.4 44.4 46.1 47.5 49.2 51.1 53.6 56.3 60 64.8 68.6 72.4 74.9 77 79.2 80.4 81.7 82.7 84.9 85.8 86.1 87.5 89.6 93.3 97.8 99.2 100.9 102.8 104.3 105.7 107.2 107.7 112 114.7 117.8 121.8 123.5 126.4 129.9 132.4 134.8 136.7 142.6 146.9 151.1 156.8 162.5 168.6 184.3 194.5 204.4 214.7 227.6 245 261.8 278.8 289.5 297.6 298 311 325.1 334.1 340.9 343.2 345.6 343.4 344.8 344.9 349.9 361.7 380.7 399.5 415.9 429.7 438.1 442.2 442.6 442.6 443.5 433.5 428.4 420.3 412 409.9 407.1 407 414.4 426.7 446.4 466.8 482.5 492.3 495 496.6 496.8 496 494.5 489.2 482.5 470.8 460 449.9 440.6 430.2 421.1 410.9 404.2 397.9 395.1 392 386.9 381.6 373.7 359.9 352.5 349.1 344.2 341.4 338.9 336.2 330.1 323.2 317.6 315.4 324.1 327.5 329.5 334.3 337.3 339.3 339.6 337.1 329.9 323.7 316.1 308.1 301.9 294.2 287.2 279.8 271.4 263.1 252.8 245.8 241.3 235.4 230 226.5 220.7 213.7 208.5 205.7 202.6 202.6 202.6 201.5 201.7 195 176.5 177.8 182.1 172.5 184.6 203.6 211.8 216.8 221.5 224.4 234.6 244.8 254.4 264.8 268.8 267.7
35.5 37 37.9 38.8 39.9 39.5 37.3 35.1 35 35 35 35.3 35.2 35.7 35.6 35.7 35.8 35.2 35.7 36.4 36.5 36.5 36.6 37.1 37.2 38.5 40.7 42.7 45 47.1 48.5 50.4 52.9 55.8 59.4 64.1 68.6 72.2 74.5 76.7 78.8 79.8 81 82.4 83.4 84.4 86.3 87.6 89.4 90.9 94.3 97.9 100.1 102.8 104.6 106.2 107.3 108.8 111.6 114.3 116.8 119.2 122.1 125 127.1 129.5 132.6 136.7 139.7 144.7 149.4 153.7 160.2 164.9 179.1 186.8 196.7 206.5 218.3 233.5 250.4 264.6 277.7 290.7 292.3 303.1 315.1 322.6 325.6 327.2 326.8 324.5 326.8 329.9 338.5 354.2 372.1 389.2 405.9 421.5 431.7 434.7 435.8 435.2 434.5 433.2 430.2 425.7 424 426 421.9 419.3 420.4 429.4 449.1 469.9 487.3 499.2 505 504.5 502.3 500.1 498.4 494.3 484.3 468.3 451.9 441.5 429.4 417.8 407.2 402.6 393.4 388 383.6 380.2 377.2 372.6 364.8 358.4 353.5 350.4 345.7 343.8 344.4 336.7 329.1 322.8 317.4 313.5 303.7 315 316.2 316.4 323.3 327.8 328.3 325.2 321.4 315.8 309.1 302.8 295 287.2 279.2 272.3 264.5 256.5 250.6 246.3 243 237.2 234.6 230.9 221.8 214 208.5 206 199.1 196 199.9 201.8 202 185.2 181.5 191.8 181.5 172.6 181.2 204.7 211.5 215.7 218.6 221.5 230.8 240.7 250.4 257.8 264.2 275.1
35.1 36.5 37.8 39.1 40.2 39.6 37.5 36.1 35.6 34.8 35.1 34.7 35.6 35.7 35.3 36 35.9 36 36.1 36 36.5 36.7 36.8 37.2 37.2 38.8 39.8 41.9 43.6 45.7 47.8 49.8 52.8 55.4 60 64.3 68.7 71.7 73.8 75.9 78.3 79.2 80 80.9 82.2 84.2 86.1 87.7 89.4 90.9 93.1 95.8 98.3 101.7 104.7 106.7 108.3 109.7 111.6 113.4 115.4 117.7 121.2 123.4 125.5 128.1 131.7 134.6 138.2 142.4 147.5 152.4 157.3 163.4 173.6 180.1 188.3 198 209.1 222.3 236 248.7 267.2 279.4 282.9 293.2 300.9 303.9 308.1 307.6 305.7 308.9 312.6 323.5 335.6 352.9 371 389.1 407.8 418.2 427.1 437.4 436.8 436.2 434.2 433.9 432.9 431 431.5 431.3 429.3 431.4 430.6 432.9 443.2 461.1 477.6 494.9 507.3 511.8 509.6 502.9 498.1 492.5 480.6 464.8 446.5 435.3 427.8 425.5 422.1 412.5 402.9 393.9 384.5 379 373.9 371.8 364.9 362.1 358 356.7 357.9 357.4 354.2 343 329.6 321.2 314.4 309.1 306.3 296.6 304.5 303.4 308.3 313.6 313.6 313.7 311.2 308.5 303.5 295.5 287.7 279.6 272 267 260.2 254.6 251.2 247.8 244.9 241.7 238.2 233.8 224.3 216.8 209.7 205.7 201.6 196.8 201.9 203.7 199.7 178.9 195.1 197.3 183.5 174.3 177.3 194.7 208.3 209.8 211.2 212.8 226.2 235.2 242.5 252 257.7 267.8
35.3 36.4 37.5 38.2 40 40.6 39.4 36.4 35.8 35.4 35.3 35.1 35.3 35.9 35.9 35.9 36 36.2 36.8 35.9 36.2 36.8 37 37.1 37.6 37.8 39.6 41.5 43.3 45.2 47.9 49.9 52.8 55.9 59.4 64.7 68.1 71.1 73.3 74.7 76.6 78.3 78.7 79.6 81.1 82.6 84.8 87.2 88.8 89.8 91.5 95.1 97.8 99.4 102.7 104.9 107 110 111.8 113.1 114.5 116.3 118.3 120.9 124.2 127.4 129.8 132.4 135.5 140 145.3 150.6 155.4 159.9 165.9 173.4 181.6 190.3 200.6 212.4 225.9 238.1 256.2 266.4 274.2 281.6 285.4 288.5 291.3 290.4 289.9 299.5 309.3 319.3 338 357.6 375.6 390.5 399.7 405.5 416.7 426.3 434 432.4 437.1 438.8 439.5 438.9 439.7 443.1 440.3 440.4 442.7 446 454.5 465.4 481.9 495.3 504.8 511.7 514.5 509 499.2 489.7 479.7 463.8 452.1 449.9 446.9 444.1 437.7 427.7 415.8 406.1 397 389.6 383.6 374.6 370.6 368.5 368.8 370.5 371.6 369.9 364.1 352.9 338 323.3 312.1 306.4 300.6 298.1 291.1 292 296 300.8 303.1 301.3 301.4 296.4 292.4 287.2 279.3 273.9 268.4 264.3 260 255 252.6 250 247.2 243.8 239.1 234.5 225.7 217.9 211.3 208.4 202.4 201 205.4 204.3 197.8 181.3 199.6 199 191.2 173.9 174.9 178.9 194.6 199.9 199.9 203.3 219.4 228.2 238.7 246.5 252.2 261.9
35.4 35.7 37.1 38.3 41 40.8 39.5 36.8 35.9 35.6 34.9 35.5 36 36.5 36.5 36.2 36.4 36.5 35.9 36.1 36.9 37 37.1 37.4 37.3 37.8 39.7 41.9 43.6 45.5 48.3 50.8 53.2 56.2 59.9 64.6 67.6 70.5 72.9 74.2 74.8 76.1 77.6 78.7 79.6 81.7 82.3 84.6 87.5 89 91.1 93.6 96.2 98.2 100.7 102.8 105.9 109 111.1 111.7 113.5 114.7 118.1 119.5 123.2 125.7 128.1 131.4 133.6 137.9 142.6 148 153.3 156.9 162.1 167.8 173.7 184.1 196 203.9 218 231.5 245.3 257.9 266.3 272.5 275.9 278.1 275.7 274.5 290.1 295.5 304.2 318.2 337.9 357.2 369.3 383.6 391.9 398.5 403.9 413.2 419.2 425.6 428.5 437.7 442.4 443.6 445.3 447.2 448.4 446.7 452.7 463.1 473 483.4 492.1 501.5 509.4 513.4 515.8 514.5 507.8 497.6 487 475.3 464.3 460.3 458.9 455.1 449 438.9 430.8 422.2 414.5 409.5 403.3 395.2 391.5 386.8 385.6 384 383.1 377.7 371.1 358.5 344.2 327 308.5 299.5 294.7 293.5 290.5 285.7 286.6 289.6 291.9 288.8 287.6 285.2 280.5 277.5 274.1 271.4 266.8 262.3 259.8 257.3 254.4 251.1 247.7 242.6 238.9 233.1 226.1 218.5 211.7 209 205.1 205.8 206.8 205.7 192.4 191.2 200.4 199.9 198.3 190.6 183.4 179.4 176.5 175.9 176.7 184.9 207.5 225.8 234.9 243.6 248.4 255.1
36.2 35.5 36.8 38.9 39.6 40.1 38.7 37.1 36.1 35.7 35.1 35.7 35.8 36.8 37.1 37.1 37.1 37.3 35.5 36.3 37 37.5 37.6 37.5 37.4 37.5 39.8 42.1 43.6 45.8 48.8 50.5 53.5 56.3 59.5 63.3 66.3 69.6 72 74 73.9 75.5 76.8 77.9 79.6 79.9 81.7 84.1 86.5 88.6 90.3 92.3 94.5 96.8 98.5 101.3 104.6 107.2 109.4 109.6 111.3 113.8 116.1 118.5 121.6 124.2 126.7 129.6 132.3 135.8 140.4 145.8 149.9 153.4 157.8 164.4 170.7 178.7 188.6 200.3 213.9 227.7 240.9 252.1 261.1 263.6 264.7 262.5 259.9 272.4 285.8 292.9 303.8 320.8 336.9 355.1 363.9 375.6 384.2 386 393.9 403.1 410.9 418.4 420.6 427.8 435.7 443.1 448.4 448.9 451 452.6 456 472.3 484.4 497 506.8 512.3 519.7 525.3 524.6 520.6 513.9 508.3 498.1 487.4 480.5 473.8 473.9 469 458.2 451.8 445.8 438.8 434.8 429 423.8 416.7 410.7 404.4 397.6 392.3 384.4 375.4 367.4 356.1 342.2 325.2 305.9 293.7 291.1 289.2 286.8 279.7 279.8 277.7 278.1 278.1 277.7 275.5 272.3 271.1 269.5 267.1 263.8 260 258.6 256.9 254.4 250.2 245.5 241.1 236.2 231 224.7 219 213.5 209.3 203.1 204.3 205.2 203.7 184.8 201.3 201.1 201.2 202.6 200 192 188.3 190.1 184.4 178 185.3 209.3 216 224.5 236.8 244.6 249.1
36.4 35.6 36.9 39.4 40.1 39.7 38.6 37 36.2 35.4 35.6 35.6 35.7 36.3 36.9 37.4 37.4 37.8 36.8 36.8 37.2 37.1 37.7 37.4 37.2 37.9 40.1 42.1 43.8 46.2 48.6 50.7 53 56.4 58.9 62 65.6 67.7 69.7 71 72.4 73.9 75.7 77.2 78.5 78.7 81 82.7 85.2 87.7 89.3 91.1 92.2 93.2 96.3 100.1 102.5 104.7 105.3 105.5 108.2 111.1 114.8 117.4 120.1 122.7 126.2 128.2 132 135.2 138.9 142.3 145 150.8 155.8 162.9 169.1 176.2 186.4 197.9 211.5 224.7 235.9 245.2 248.3 249.2 250.7 248.9 262.3 271 283.3 291.6 305.2 321.7 339.2 350 358.9 365.9 370.9 375.6 384.9 397.2 406 413.2 414.1 420.1 427.7 436.6 444 450 451.4 450.7 459.2 475.6 490.7 505.5 515.7 526 533.3 537.6 534.9 529 526.6 522.9 514.9 504.2 495.4 491.2 486.8 476.4 456.2 454.2 461.4 456.7 449.7 441.9 436.1 429.4 420.1 410.2 399.7 389 377.5 368 357.4 345.2 334.6 319.2 302.1 291.2 288.5 286.3 282.8 275.9 275.2 272.8 269.6 267.4 267.5 265.5 263.5 263.1 262.8 261.3 260.5 257.8 256.7 254.8 251.2 246.8 242.6 238.2 233.5 227.9 222.6 217.8 213.5 209.1 202.6 204.1 201.9 194 194.1 198.9 202.7 203.3 203.4 197.7 195.6 196.3 196.4 190.3 177 177.3 178.1 179 204.4 231.8 243.4 244.4
35.3 35.8 36.5 39.5 40.6 40.6 39.4 38.1 36.7 36.3 35.4 35.2 36.2 36.2 36.6 37.1 37.4 38.7 38.6 36.5 37.4 37.5 37.6 37.6 37.4 37.5 39.8 42.6 44.7 46.2 47.8 49.5 52 55.1 57.8 60.5 63.3 65.4 67.3 69.6 71.9 72.9 74.5 76.3 77.5 78.3 79.3 82.3 83.7 86.6 88.8 89.3 90.5 92.4 95 96.3 99.5 99.7 102.7 107.4 110 112.3 114.4 116.7 119.3 122.2 125.1 128 130.9 134.2 137.6 141.2 147 152.2 155.4 160.7 167 173.7 183.9 193.5 206.1 217.2 226.6 232 235.9 239 233.5 251.1 262 275.3 285.4 296.1 309.3 325.7 338 347.8 354.7 360.2 367.2 372.5 378.9 389.6 400.9 404.8 407.6 413.1 421.4 430.2 437.8 442.7 445.7 450.3 463.6 480.1 493.7 503.7 518.5 530.3 540.8 543 541.5 540 534.9 528.6 526.8 518.2 506.7 503.5 491.3 469 445.5 447.3 452.4 452.8 448.2 442.9 438 428.8 416.1 405.5 394.3 381.7 368.9 357.1 344.6 333.8 323.7 310.3 297.1 288.1 284.7 283.5 280.9 276.4 265.5 265.6 262.9 261.9 260.5 258.2 255.8 255.5 255 254.5 253.9 251.3 250 247.7 244.5 241 236.8 233.2 229.1 224 220.2 216.6 212.8 207.2 202.7 198.4 188.8 195.2 202.3 203.1 201.9 204.7 199.7 197.8 201.2 199.8 199 198.1 190.1 186.7 184.6 181.6 179.2 211.8 238.8 239.6
35.8 36.1 36.8 38.7 40.8 40.6 40 38.1 37 36.4 36.6 36.1 36.5 36.5 36.5 37.4 38.4 39.6 39.6 37.3 36.9 37.3 37.4 37.4 37.5 38.1 40 42.5 45.2 47.4 48.9 50.3 51.4 53.4 56 58.7 61.4 64.2 67.2 69.4 71.6 71.9 73.2 75.3 76.7 77.2 78.3 80 82.7 85.3 87.2 87.1 89.2 91.5 93.1 93.7 95.3 99.6 102.6 104.9 107.3 110.9 113.9 117 118.9 121.7 124.8 127.7 130.7 133.7 137.4 140.9 144.7 150.7 155.6 159.5 165.4 175 182.3 192.8 198.2 209.2 216.6 223.4 228.3 227 241.2 251.9 266.6 280.7 291.4 303.3 315.8 333.3 343.3 348.5 354.2 359.1 367.2 369.4 375.1 384.8 390.8 398.8 403.1 407.6 415.9 422.3 427.5 431.9 439.9 442.4 463.3 474.5 486.9 494.5 507 524.9 536.4 542.7 545.5 546.7 541.9 545.2 535.8 524.6 508.7 494.1 476.5 455.6 430.4 428.6 431.5 433.8 425.9 425.4 421.5 412.4 404.3 395.5 382.4 368.9 356.1 342.3 330.7 320.5 308.6 295 287.8 283.3 280.5 279.8 277.9 274.8 270.5 263.3 255.5 256.2 254.3 252.4 249.5 248.7 248.2 247.3 245.8 244.8 242.1 238.6 237 233.8 231.7 228.5 224.8 221 216.9 214.3 209.4 202 197.2 196 198.2 199.7 203.7 202.9 203 202.3 202 199 201.3 201 199.9 199.9 200.2 197.3 193.9 185.7 179.6 194.6 205.6 229.5
36.2 36.5 36.7 38 40.2 41.3 41 37.9 37.2 36.9 36.8 35.8 36.7 36.8 36.7 37.7 38.8 40.9 41 39.2 36.8 37 37.1 37.4 37.9 38.4 40.2 42.7 45.3 47.5 49.6 51.7 53.3 54.3 56 58.9 61.8 65 66.7 68.3 70.4 70.9 71.6 73.9 75.8 76.5 78.3 79.3 81.7 84 85.4 86.7 87.1 89.1 91.3 92 92.8 97.8 101.7 103.9 106.3 109.4 112.5 115.2 118 120.3 123.4 126.9 129.9 133.4 136.9 140 143.7 149.3 155.6 158.5 164 172.1 180.1 188.3 195 203.7 209.7 214.8 213.6 230.2 242.7 253.3 270.7 284.2 296.7 309.6 320.7 334.9 342.9 348.7 352.8 352 351.5 364.6 373.6 378.3 386.8 399.1 404.9 408.8 414.5 417.1 419.9 426 431.2 438 452.6 451.7 458.7 472.6 491.5 509.4 524.9 535.9 546.6 549.6 554.6 551.6 538.4 519.3 497 474.5 454.3 437.3 414.6 404 407.6 404.8 400.4 398.1 398 393.5 387.5 377.9 365.9 352.3 340.2 325.3 314.3 303.7 291.2 286.9 283.2 279.7 278.7 277.1 275.3 272.2 266.8 258.1 254.3 254.3 255.3 249.4 247.5 245.6 243.5 241 237.6 234.5 234.2 230.9 230.2 228.2 225.5 223.8 219.5 213.8 210 203.2 204.1 201.7 199.9 199.9 200.4 203.1 206.4 205.1 205.4 205.7 204.3 201.8 203.7 203 199.7 200.1 200.9 199.4 197.7 190.9 180.4 180.5 184.7 203.6
36 36.6 36.8 37.1 39.3 40 40.4 38.6 38.4 37 36.8 36.1 36.4 36.3 36.9 38.2 39.9 41.9 41.8 40.4 37.6 36.8 37.3 37.8 37.9 38.3 41.1 43 45.4 48.3 50.8 53 55.4 57.1 58.3 59.4 61.8 64.6 65.2 67.1 68.9 69.8 71.2 74.5 75.5 76.9 78 78.8 80.4 81.8 84 85.6 86.6 87.2 88.3 90 92.8 95.9 99.9 102.2 105.3 108.2 111.1 114.3 117 119.9 122.6 125.8 128.6 131.8 135.1 139.3 142.8 148.4 153.7 158 162.3 171.6 177.1 184.3 191.6 197.6 202.1 207.4 220.2 231.6 241 254.8 274.2 287.1 299.6 312.9 322 330.9 334.7 339.4 335.9 330.1 333 352.6 366.7 374.7 386 394.4 401.2 405.7 408.8 413.4 417.2 420.5 425.2 425.8 423.7 420.2 439.9 461.8 479.3 497.3 513 528.5 541.5 547.5 552.1 551.1 526.6 496.6 474.5 452.6 432.9 415.5 395.8 380.9 379.9 377.4 373.8 372.7 373.3 370 365.4 357.5 346.9 333.5 319.6 305.4 296.4 290.2 286.2 282.8 279 276.4 272.5 272.4 270.8 265.9 264.4 266.2 263.6 259.1 246.8 243 242.6 240.9 240.7 238.2 232.4 229.5 228.1 226.5 223.2 219 215.6 215.1 213.2 209.6 210 208.6 206.9 204.5 202.2 203.4 203.7 207.2 207.5 205.8 205.6 205.8 206.5 206.8 207.7 205.2 201.4 201.6 201.5 199.3 196.8 183.4 181.7 180.5 183.7 190.3
35.7 36.5 36.7 37.1 37.1 38.5 38.2 37.4 36.6 37.2 36.7 36.7 36.1 36.4 37.3 38.5 41.5 42.5 42.8 41.4 38.4 37.8 37.9 38.3 38.1 38.1 40.2 42.8 45.6 48.5 51.9 54.3 56.5 58.2 59.8 60.6 62.3 63.9 64.9 66.7 67.7 69.4 71.3 73.2 75.2 76.3 78 78.1 80.5 80.7 83.5 84.1 84.1 85.5 87.6 90.8 93.2 94.2 96.5 99.8 102.7 106.1 109.7 112.9 116 118.3 122.2 124.9 127.5 130.5 133.9 137.6 141.4 146 151.7 156.5 160.5 167.9 175.2 179.5 185.4 190 196 206.4 217.2 228 241.2 253.7 272.2 285.1 298.8 312.5 315.4 314.3 308.9 308.8 309.9 308.9 324 346.1 360.2 371.5 378.5 388.2 395 400.6 403 407.6 412.8 416.3 414.4 407.9 400 405.7 426.9 448.7 467.7 490.2 509.1 521 532 537.9 545.4 542.4 515.1 481.6 453.7 431 410.8 394 377.4 361.9 357.5 354.3 351.1 350.1 350 347.6 342 337.6 325.1 313.3 300 294.9 291 287.8 285.4 282.6 279.5 278.1 278.8 275.8 273.6 272.7 273.2 271.2 265.8 259.4 252.4 247.4 239.6 236.1 233.8 231.6 229.4 228.2 226.1 223.6 221.1 224.8 225.3 222.7 220.9 217.1 213.5 209.3 204.8 205.2 203.6 208.5 209.1 208.4 209.2 209.4 207.4 208.2 207.9 208.6 209.5 204.8 202.9 202 199.9 195.2 185.3 182 180.8 183.8 189.9 196
35.5 36.4 36.7 37 37.3 37.4 37.3 37.6 38 36.8 36.7 37.1 37.1 37.5 37.9 39.3 42.5 43.7 43.9 42.4 39.1 37.9 37.6 38.5 38.7 39 39.8 42.9 46 48.9 52.5 55.1 56.8 58.7 59.6 61 62.3 63.9 65 66.8 67.6 68.7 70.7 72.2 74.3 75.5 77.1 78.2 78.6 80.5 82 82.5 83.6 85.7 88.3 90.4 91.9 93.8 95.1 97.3 100.3 104 106.9 110.6 114.7 117.6 120.4 123.6 126.2 128.6 132.2 136 140 143.9 149 154.4 158.5 163.8 171.9 174.8 178 184.7 192.8 202.4 212.7 223.6 239.4 254.5 267.2 281.3 294.5 298.7 297.8 293.1 284 283 287.5 296.7 319.6 337.2 349.6 355.8 365.8 374.9 381.8 386.5 389.1 391.4 397 396.2 394 388.8 379.3 393 417.5 438.5 467.5 485.2 498.9 509.2 519.4 525.7 532.5 532.9 515.6 482.8 453.2 428 404.1 379.9 365.2 357.3 353.3 346.2 340 334.9 330.3 326.2 323.2 318.1 309 303.7 299.1 296.6 293.3 291.9 289.1 284.9 287.1 284.7 284.2 281.5 279.9 278.7 276.8 270.5 262.8 256.4 251.6 247.2 242.3 235 232.8 230.9 229.4 227.7 226.9 228.8 228.7 228.3 227.8 227.6 225.3 222.1 219.8 216.6 209.3 207 209.8 211 211.9 211.6 210.3 211.6 209.7 207.9 208.1 209.3 207.6 203.7 203.6 203.2 199.5 189.5 183 184.1 183.9 185.9 203.2 211.4
35.2 36.1 36.9 37.1 37.6 37.4 37.2 37.7 38.1 36.8 37.2 37.3 36.6 37.2 38.1 40.3 43.6 44.4 45 43.1 39.9 37.9 38 38.5 38.7 38.9 40.5 43.3 46.1 49.8 53.3 55.2 56.5 57.3 58.9 59.6 61.3 63.3 65 66.5 68.1 69.5 70.5 71.5 73.2 74.9 76.9 77.2 78.3 78.9 79 81.7 83.6 85 87.4 88.8 90.5 92.4 93.9 96.1 98.4 101.4 105.2 109.1 112.9 115.8 119 122.1 124.1 127.5 130.7 134.4 138.6 143.9 149.7 154 157.2 161.5 166.9 167.5 173.3 179.2 188.2 197.3 209.1 214.7 232.9 250.3 265.4 275.5 284.1 285.9 280.5 270.2 261.3 263 280.2 300.9 315.6 325.3 335.4 339.8 347 356.7 364.6 371.5 371.5 372.8 371.9 371.2 371.8 370 364.1 385.3 414.5 442.5 469.2 483.8 494.2 506.1 518.3 522.9 530.3 530.8 520.7 491.4 471.5 444.3 417.1 393.1 369.7 354.4 349.4 344 339.7 334.6 330.1 324.3 318.6 313.6 308 304 301.8 300.2 300.8 300.2 306.1 312.9 314.7 314.2 309.9 305 299.9 293.2 284.4 273.7 259.8 253.5 250.6 247.3 243.2 235.5 234.4 233.6 235.3 235.3 234.2 234.7 234.5 232.7 232.9 233 229.4 225.9 223.3 219.6 214.9 212.8 212.7 212.4 213.9 213.2 211.3 211.5 209.5 207.1 209.5 209.6 204.8 204.4 205.7 206 197.7 185.5 183.8 182.9 186.4 192.9 214.6 217.4
35.9 35.6 36.5 36.4 37.1 36.8 37.5 37.3 37.9 37.3 37.4 37 37 37.9 38.6 40.5 43.9 45.4 45.1 43.6 40.8 38.5 38.4 38.6 38.7 38.9 40.5 43.1 46.4 49.8 53.2 54.4 55.3 56.2 57.5 59 61 62.5 65.1 66.7 67.9 68.8 69.7 70.4 71.9 74.3 75.2 75.7 76.3 76.8 78.6 81.3 83 84.6 86 88.4 90.6 91.4 93.4 94.7 97.2 100.4 104.1 107.4 110.9 114.5 117.7 120.9 123.5 125.8 129.5 133 137.4 141.1 146.6 152.8 155.2 157.3 160.3 164.2 169.2 175.3 182.3 191 201.8 209.6 225.6 242.8 257.6 269 273.9 268.4 253.7 243.9 247.1 265.1 279.7 291.5 301.5 305.9 310.9 317.2 323.1 331.8 338.5 342.5 343.1 343.5 341.7 345.1 347.1 347.4 352.1 380.5 412 441.1 464.6 479.1 490 501.7 511.3 514.4 520.6 520.4 511.8 488.9 480.3 456.6 428.1 399.2 378.8 359.3 346.5 339.5 335.3 330.8 326.9 321.9 316.8 315 313.1 307.7 307.2 309.3 316.2 325.7 332.1 339.1 344.4 344.3 337.8 327.2 313.2 298.7 286 268 255.5 251.6 248.8 245.4 240.8 240.1 240.4 240.8 242 244.3 246.2 246.5 243.6 241.1 240 237.8 232.3 230.8 226.3 220.9 216.1 215.2 213.6 214 215.4 215.3 212.4 211 210.6 209.2 208.6 207.7 205.1 205.5 206.6 203.6 189.5 185.3 183.1 183.5 189.5 200.7 215.1 217.2
35.8 35.8 36.1 36.4 36.7 36.9 37 36.8 37.7 37.8 37.5 37.4 37.8 38.1 38.3 39.7 43.8 45.6 45 43.6 41.5 38.7 38.2 38.8 38.9 39.4 41 43.3 47 50 51.8 52.9 54.5 55.6 57.3 58.4 60.3 62.5 64.4 65.9 67.2 68.3 69.2 69.9 71.2 72.9 74.5 75.9 75.7 76.5 78.3 80.1 81.8 83.1 85.4 87.5 89.3 89.9 91.9 95.4 96.3 98.8 101.6 105.3 109.1 112.8 115.5 118.4 120.8 124.2 126.6 130.7 134.2 137.5 140.7 145.2 149.3 152.9 155.1 161.4 167 172.7 178.1 186.8 195.1 205 218.3 232.6 247.4 260 263.3 247.5 232.9 226.9 243.9 257.2 266.3 269.9 273.5 279.1 283.6 288.8 298.1 303.7 308.7 310.9 310.8 310.7 311.4 316 323.4 335.6 357.7 386.1 417.5 445.2 464.3 480.7 491.5 495.6 500.2 502.3 507.5 508.4 497.8 484.8 477.8 462.4 436 413.9 388.9 371.1 359.3 347.2 338.7 332.9 330.3 324.5 321.1 319.3 319.1 319.4 325.2 332.9 342.3 351.2 357.4 361 364 359.1 346.9 329.5 313.1 294 274.8 259 254 250.6 247.3 243 252.3 254.3 254.7 252.5 252.3 253.7 257.1 254.2 252.8 248.1 246.2 243.3 239.6 236.5 232.1 225 218.4 218 216.8 216.6 217.2 216.6 213.2 211.9 211.1 208.8 206.6 206.8 208.1 208.8 207.8 199.6 187.6 183.2 183.5 188.9 195.2 206.3 213 216.6
36.1 36.1 36.4 36.8 37 37.5 37.3 37.7 37.2 37.5 37.6 38 38.3 38.3 38.2 38.9 41.2 45.4 44.7 43.5 41.8 39.3 38.5 39.1 39.4 39.6 40.9 45.1 47.3 50.2 53.3 52.8 54.6 55.9 57.4 58.6 60.4 61.6 63.1 64.8 66.5 67.2 67.9 69.3 70.6 72.1 72.9 74 73.4 75.5 76.6 78.6 80 81.7 83.8 85.6 87.4 88.3 90.5 92.5 94.6 97.4 100.2 102.8 105.9 110.2 113.1 116.1 119 121.9 123.7 126.5 130.5 135.2 136.3 142.3 145.4 150.4 155.5 159.3 164.1 170.7 177 184.7 192.6 199.4 210.2 222.9 235.7 243.6 238.6 228.6 215.1 217.9 224.6 228.8 235.1 239.9 244.8 250.5 255.7 263.2 269 274.7 279.2 282.7 285.7 288.3 297 309.4 324.6 343.8 366.1 389.3 416 443.9 469 479.4 487 493.1 495.8 494.9 499 499.1 491.9 487.4 477.7 467.1 452.5 426.3 400.5 393.1 382 371.2 359.8 349.4 344.9 339.6 330.6 330.7 338 342.4 346.4 352.5 360.2 371.6 373.8 373.4 368.3 357 342.8 324.1 303.9 282.1 262.8 257.1 253.9 249 251.1 263.9 272 275.7 278.7 274.6 270.7 268.6 269.8 263.9 259 254.6 252.7 249.1 245.7 241.6 237.2 231.4 223.8 219.9 218.8 218.6 217.6 215.5 212.8 211.3 210.3 208.1 207.1 206.8 208.7 208.6 202.5 191.8 183.4 186.3 190.4 192.3 192.8 205.6 213.5 214
36.3 36.8 37 37 36.9 37 37.3 37.7 37.7 36.9 37.3 37.4 38.4 38.4 39.3 38.9 39.5 40.8 42.5 43 41.4 38.5 39.2 39.3 39.1 39 40.9 45.4 47.7 49.8 52.9 52.6 53.4 55.2 56.1 58.3 59.7 60.7 61.9 63.3 65 66.3 67.8 69 70.9 71.4 72 70.9 73.1 74.4 75.6 76.9 77.6 80.8 82.1 84.2 85.6 87.3 89.3 91.5 93.8 95.8 98.4 101.4 103.8 107 110.8 114.1 116.3 118.1 121.5 128 132.2 135.5 140.6 144 147.1 149.9 153.2 157.8 163.5 168.1 175.1 182.5 190.3 195.1 200.7 209.8 219 218.1 211.4 209.9 199.4 200 202.5 207.5 213.1 218.7 223.2 228.6 236 243 248.2 253.9 259.7 266.1 275 286.3 301 318.2 336 356.8 379.8 400.3 424.9 449.3 469.8 476.5 479.3 483.8 487.9 487.7 488.7 492 487.6 484.9 478 465.9 447.6 430.2 432.7 422.7 413.9 399.7 382.2 368 370.1 352.1 348.4 356.7 366.8 367.7 370.7 374.4 375.2 382.8 381 374.2 364.5 349.1 334 314.2 292.1 271.3 259 256.3 253.9 256.7 271.3 281.9 290.4 297.4 296.9 294.3 286.2 280.6 278.3 273.2 268.6 263.3 258.4 253.7 250.3 244.9 240.7 235.5 225.7 222.2 219.8 218.7 217 214.6 212.4 210.8 209.9 208.9 207.3 207.8 209 206.3 194.5 186.6 183.5 193.9 199.1 201.9 194.3 202.6 209.9 211.2
36.8 36.7 37 37.2 36.7 37 37.7 37.8 37.8 37.8 37.9 37.5 38.3 38 38.2 38.3 39.1 39.7 39.8 39.5 39.3 39.3 38.9 39.1 39.3 39.5 39.8 44 47.3 48.6 50.1 51.2 52.4 54.1 56 57.8 58.9 59.9 61 63 64.8 66.3 67.9 69.3 69.9 70.5 69.9 69.4 71.5 72.7 73.9 75.7 77.2 79.1 81 82.6 84.3 85.7 88.5 90.6 92.8 94 97.8 100.8 103.5 105.9 108.9 111.9 113.7 119.1 122.6 126.7 129.9 133.6 138.3 142.6 145.1 147.2 150.4 154.9 161.4 167.4 171.6 179.3 185.9 188.8 193.2 196.5 198.3 196.2 189.2 191.2 193.1 204.2 207.3 211.1 214.5 214.7 220.2 222.5 228.7 235.7 241 247.1 253.7 266.1 283.9 297.4 311.1 331.4 354.5 375.5 394.1 414.3 438.8 455.5 466.3 472.9 475.5 477.7 480.2 481.1 483 485.1 483.6 483.1 475.8 459.3 451 443.5 441.1 437.2 432.9 422.4 408 396.9 388.9 379.3 384.6 388.3 387.6 389.8 390.7 391.6 391.2 388.2 379.7 369.2 355.8 341.4 323.1 302.1 280.1 263.3 259.6 258.3 261.8 279.6 291.2 300.2 307.2 309.1 307.7 306.1 299.4 293.6 286.9 280.5 274.5 270 264.7 257.8 253 247.2 242.7 237.5 230.5 223.4 220.1 219.2 217.1 215 214 211 209.7 209.2 208.6 208.2 205.1 199.4 185.3 184.4 196 205.5 210.3 210.6 202.9 199.3 203.9 206.5
36.7 37.5 37.4 37.5 36.7 37 37.7 37.8 37.9 37.9 38 37.6 38.2 38.4 38.9 38.5 38.9 39.4 39.4 39.1 39.1 39.4 39.1 39.1 39.3 39.6 39.9 42.1 44.7 47.6 49.5 51.7 52.3 52.7 54.7 56.6 57.9 59 60.2 62.3 64.3 66.1 66.8 68.1 68.3 67.7 67.8 70 71.3 73.1 74.4 75.6 76.9 79 80.5 81.6 83.9 86.6 88.3 90.8 92.8 94.8 97.6 100.4 102.4 104.3 106.8 108.6 112.7 117.9 120.7 123.3 127.6 131.6 135.2 138.6 142 144.4 148.6 152.6 157.4 164.1 168.1 174 180.2 183.6 186.5 183.8 175.8 175.9 189.2 196.1 204.4 208 212.2 217.9 223 227.3 230.5 234.2 236.8 239.7 248.8 258.7 270 283.4 298 313.1 328.6 342.5 366.7 390.9 410.9 431.3 445.1 452.1 462 468.6 472 473 475 472 473.3 476 477.6 478.3 468.8 455.1 446.5 443.8 441.6 437.9 434.1 431.5 427.1 421.1 412.6 406.4 405.3 402 400.3 398.1 397.7 397.8 394.6 385.5 371.3 359.7 347.5 330.2 309.3 288.7 267.6 261.5 260.6 266.7 279.9 297 307.6 317.5 321.2 319.3 317 313 306.9 301.2 293.8 287.1 280.7 274.5 268.4 261.6 254.9 249.2 243.4 237.4 228.9 222.3 219.5 219.1 217.1 216.9 213.8 211.2 209.4 208.9 207.8 205.7 202.6 189.5 186.5 199.9 211.3 217.3 216.1 213.7 208.8 204.4 202.7 204.9
36.7 37.7 37.1 38 37.5 37.1 37 37.5 37.9 37.9 38 38.7 38 38.7 38.9 39.1 39.4 38.7 39.8 39.2 39.1 39.5 39.1 39.2 39.7 39.7 39.9 40.2 43.9 47.9 49.9 52.1 52.9 53.7 54.6 55.7 57.3 58.3 59.4 61.8 63.7 64.8 65.4 63.8 65.5 68.2 70.3 71.1 71.9 73 74.3 75.7 77.5 79.2 80.5 82.4 84.1 86 87.8 90.8 92.9 95.1 97.2 99 100.8 102.7 104.9 107.9 110.7 114.9 118.3 122 125.2 128.8 132.9 135.3 138.5 142.2 147.5 151.7 155.8 161.4 166 170.4 175.9 179 180 171.6 174.7 190.4 203.1 211.6 216 221.7 228 233.7 239 243.5 245.9 250.7 257.2 264.5 273.9 281.3 292.3 306.2 321.1 331.7 348.6 363.4 375.8 405.7 424.9 441.9 447.5 449.5 457.3 465.9 468.4 468.7 468.9 466.6 468.1 469 470.2 472.9 461.3 450.2 445.1 442.7 442.1 441.4 438.8 437.5 435.6 431.4 421.6 415.3 411.3 407.7 403.7 400 397.4 392.6 385 369.5 357.7 344.2 330.9 313.9 292.9 272.5 266.2 263.1 266.9 281.7 300.6 315.7 324.8 332.4 333.9 331.8 326.6 321 314.7 306.8 300 292.5 286.3 279.8 272 263.4 256.1 250.8 243.8 234.7 228 221.9 219 217.6 217.4 215.7 213.1 210.5 207.5 205.5 205 204 198.6 185.9 195 214.6 222.1 223.8 222.4 219.2 211.4 208.4 206.9 210.7
37.3 37.5 38.2 37.9 37.9 37.8 37.8 37.6 38.2 38.4 38.6 38 38.1 38.5 38.9 39.4 38.9 39.1 39.8 40.1 40.1 39.5 39.6 39.7 39.2 39.6 39.7 40.1 40.4 44.9 47.7 51.1 51.7 53.5 54.3 55.6 56.8 57.7 58.8 59.9 61 61.9 62.4 64.8 68.2 70.3 71.2 71.4 72.1 73.3 74.9 76.3 77.6 78.6 80.5 81.9 83.6 85.4 87.2 90.1 92.9 95.1 96.4 97.1 99.3 101.1 103.5 105.6 108.9 112.8 116.9 120.6 123.4 126 129.2 131.6 135.7 139.6 145.6 150.4 154.6 159.1 163.9 167.9 172.3 174.7 171.8 166.4 178.9 193 206 217.4 223.8 234.3 245.5 253.9 256.1 259.8 262.4 268.4 275.7 282 289.4 300.9 315.2 330.4 343.7 357.8 367.6 378.9 398.3 420 432.6 443.9 446.9 449.2 455.3 465 468 465 462.3 461.2 462.1 463.8 463.5 463.1 454 449.4 442.6 442.4 442.9 443.9 442.6 440.2 435.9 429 421.2 415.8 411.4 405.9 400.8 395 386.4 377.4 366.2 350.7 338.8 321.9 305 289.4 275.8 270.6 267.1 269.3 284.7 301.9 319.9 331.5 339.6 344.3 343.3 339 332.8 326.4 321.3 312.6 303.7 297 290.1 282.3 273 264 255.9 248.6 240.2 233.9 229 223.2 218.2 216.4 215.5 214.1 212.6 210.8 206.1 204.5 203.3 200 190.3 185.1 200.8 215.7 224 226.4 225.9 223.4 219.3 219.9 219.3 218
37.5 38 38.1 38.6 37.8 37.7 37.7 37.6 38.1 38.8 38.3 38.3 38.3 38.9 39.2 39.4 39.5 39.8 40.2 40.2 39.8 39.4 39.7 39.9 40.1 40 39.7 40.1 40.6 43.9 48.1 50.2 50.5 52.9 53.9 55.5 56.2 55.4 57 58.2 59.6 61.7 63.8 65.6 67.7 70.1 71.9 72.6 72.8 73.9 75.6 76.7 77.3 77.2 79.4 81 82.5 84 86.5 89.2 90.8 94.3 95.5 96.2 97.1 99.6 102.1 105.1 107.9 110.7 114.7 118.3 121.7 124.3 126.4 129.8 133.3 138.2 144 148.4 152.8 156 159.9 166.3 170.7 170.9 162.7 173 183.9 196.5 209.4 221.2 234.9 247.6 258.6 265.1 270.8 277.5 279.9 286.6 291.7 295.7 304.1 319.2 335.3 352.3 366.5 377.2 382.2 389.5 406.9 429 441.8 446.2 448.4 453.7 459.2 467.1 467.9 463.3 460.1 458 453.9 453.3 450.7 447.8 444.3 442.6 442.5 443.4 444.4 444 438.5 436.1 430.8 423.6 417.5 411.6 407.5 400.5 393.2 381.3 372.2 360.3 345.4 330.9 315.3 297.8 282.8 277.4 274.4 272.5 274.4 287.5 304 321.5 334.6 345.5 350.3 350.5 347.8 341.8 336.5 331 324 314.2 304.9 297.4 290 282.2 273.3 265.9 255.3 245.6 238.3 232.8 229.1 225.2 218.1 216.8 214.8 213.3 213.1 209.8 206.2 202.3 199.2 196.3 186.9 188.3 205.3 217.3 224.7 226.6 228.2 226.3 225.2 226.1 226.3 224.4
38.3 38.3 38.1 38.1 38.7 38.5 38.4 37.9 38.8 38.2 39.2 39.1 39 38.8 39.2 39.6 39.2 40.2 40.2 40.1 39.3 39.9 40 40 40 40.3 40.7 40.4 40.6 43.1 46.6 49.3 50.8 51.6 54 55.2 54 54.1 56.8 59.2 61.3 62.9 63.7 64.5 66.2 68.7 71.1 72.5 73 73.7 75.2 76.2 76.9 76.8 78.3 79.7 80.8 83.7 85.7 86 87.4 92.2 93.8 94.2 96 97.8 100.3 103 106 109.4 112.9 117.5 119.8 121.4 124.9 128.1 131.8 136.2 140.6 145.6 148.9 152.1 156.9 163.4 168 163.7 158.9 176.7 186 198.2 210.5 227.7 243.3 258.4 269.8 279.9 287.1 292.4 293.9 298.2 303.4 306.3 314.4 330.1 342.8 361.8 379.6 388.8 392 398.6 415.7 435.7 450.8 455.7 455.7 460.3 462.9 466.4 468.9 464.1 459 456.3 452.6 449.2 449.7 444.5 443.7 444.2 445.9 448.8 448.7 445.2 440.5 432.9 427.6 418.8 408.9 396.4 389.4 381.9 372.4 362.9 349.5 336 323.2 307.7 295.2 289.6 282 279.5 278.8 285.4 292 306 320.7 335.9 348.7 353.2 356.5 354 348.8 344.2 338.2 331.7 324.9 314.6 305.6 298.3 290.7 280.8 272.2 265.1 253 242.8 235.7 231.9 229.2 225 218.2 215.6 214.5 212.7 210.1 207.9 205.2 200.5 196.4 191.5 186.5 192.6 208.2 217.3 224.1 226.4 228.2 227.7 228.8 230.8 231 230.9
38.5 38.7 39 38.5 38.9 39.1 38.8 38.9 39.2 38.4 38.7 39.4 39.9 39.9 39.4 39.7 39.6 39.9 39.7 39.9 40.1 39.8 39.7 38.7 40.3 40.5 40.5 40.8 40.7 41.1 44.3 47.5 49.9 51.8 53.1 52.3 52 54.8 57 59.2 61.3 62.3 63.1 63 64.7 67.5 69.4 71.8 72.2 73 73.7 75.1 75.5 76.1 77 78.3 80.8 82.4 83.4 85.3 87.2 90.8 92 92 94.1 96.2 98.7 102.1 105 108.1 111.2 114.7 118 122.3 124.2 127.4 130.4 133.7 138.5 142.3 145.3 146.5 149.7 154.8 162.9 154.7 168.1 176 189 201.2 215.3 233.2 249.1 265.5 280 294.4 301.7 307.7 310.5 313.5 314.6 317.4 324.7 337 346.9 358.8 378.2 394.4 402.1 405 421.1 440.4 454.2 463.7 465.4 464.3 466.4 473.4 470.6 463.6 459.9 457.6 450.8 443.4 444.7 446.5 449 451.2 451 451.2 450.4 446.2 441.2 433.8 427.7 419.7 405.6 392.4 368.9 357.6 345.3 336 326.5 317.1 307.6 301.7 296.9 288.4 286.5 288.7 293.6 303.7 310.6 323.1 339.5 351.8 359.2 360.8 360.9 356.4 349.9 344.7 337.8 329.6 322.6 313.9 304.4 296.6 286.9 278 268.8 260.5 250.3 240.6 233.8 230 227.9 223.5 217.9 215.5 214.3 213.5 209.8 205.7 203.6 201.3 197.6 188.7 186.3 197.6 210.5 215.7 221 224.9 227.2 229.2 230 233.8 236.5 236.7
38.5 38.7 38.8 38.9 39.1 38.7 39 39.2 39.4 39.7 39.3 39.7 40.2 40.3 40.3 40.6 40 40.7 40.2 40.5 40.4 40.4 40.4 40.1 40.7 41 41.2 40.9 41 41.5 41.6 45.1 49.1 51.2 50.5 49.8 52.8 55.8 57.1 59.2 61.1 62 62.4 62.5 62.9 65.4 67.1 70.3 71.4 71.8 72.8 73.6 74.2 75.3 75.3 78 79.5 80.7 81.8 84 85.6 87.4 88.8 90.7 93 95.5 97.7 100.8 104.2 106.8 110 113.7 117.4 121.6 123.8 125.8 129.4 131.8 135.4 138.5 138.7 136.5 140.1 148.2 150.9 150.2 166.6 175.5 191 204.9 217.8 235.3 254.8 272.8 290.8 303.1 316.4 324.5 323.5 324.5 325.8 327 331.6 339.1 347.4 351.5 363.8 383.5 399.8 412.4 427.9 441.4 455.7 463.9 470 471.2 468.2 473 467 464 458.6 452.3 446.5 441.7 432.6 439.2 444.5 447.9 451 452.5 450.7 446.6 440.2 433.3 424.6 417 405.5 395.6 382.7 362.1 342.9 329.5 319.6 314 306.5 300.4 296.1 296.6 306.5 309.6 315.3 325.2 333.4 344.6 353.6 363.6 367.6 367.3 363.3 356.7 350.4 342.8 335.3 328.7 320.9 312.1 302.2 293.6 283.2 273.9 265 255 245.7 236.9 233.6 228.7 225.3 219.9 217.1 214.6 213.2 211.8 213.3 209 210.9 208.1 193.1 188 188.2 202.2 211.8 217.6 223 226.3 228.6 229.9 232.1 235.5 239 240.7
38.7 39.1 39.5 39.6 39.5 39.7 39.1 39.3 39.6 40 40.2 40.3 40.3 40.5 40.4 40.8 40.6 41.1 40.5 40.7 40.9 40.7 41 40.6 40.6 41.3 41.3 41.2 41.2 41.1 41.8 42.7 46.4 47.9 48.8 52.4 53.5 55.6 57.1 59.1 60.6 61.4 61.7 61.8 61.8 62.9 65.4 68.5 69.9 70.8 71.1 71.9 72.7 74.2 75 76.7 77.2 79.5 80.9 82.4 84.3 85.6 88.2 90.1 92.4 94.9 97.4 99.6 102.7 105.6 108.7 111.9 115.3 118.2 121.2 124 126 127.7 126.8 130.3 139.2 144.2 147.9 147.6 149.2 154.4 165.8 174.6 188.6 205.5 220.5 236.6 256.9 278.1 298.4 313.6 323.5 329.4 331.4 333.8 329.7 332.7 336 334.6 335.4 338.1 350.6 370.1 391.4 408.9 427 442.7 455 462.6 465.2 466.1 464.3 462.3 460.7 455.7 451.5 446.8 441.1 434.6 430.3 428.9 438.1 441.8 444.4 446.9 443.6 439.5 436.1 427.9 421.1 414.1 404.8 397.9 390.3 376 354.7 337.3 324.8 320.2 316.8 318.6 319 326.1 329.7 333.6 338.1 344.9 351.2 359.5 365.4 369.6 369.9 368.5 362 354.6 347 341.2 334.2 324.6 316.7 307.4 297 289.2 279.1 267.7 258.9 249.6 241.2 235 232.9 228.4 222.5 219.6 217.5 216.8 217.1 217.1 215.5 215 212.4 205.6 192.1 188.5 192.2 204.3 213.4 218.7 224.2 227.7 229.6 231.7 233.2 237.4 241.9 244.8
39 39.4 39.8 40.1 39.8 39.5 39.3 38.3 39.6 40.3 40.5 40.4 40.8 40.8 40.7 40.9 41.3 41.1 40.9 41.1 41.4 41.2 41.3 40.9 40.6 41.1 41.2 41.1 41.1 41.3 41.5 42.2 41.7 44.7 48.9 51.8 53.7 55.6 57.1 58.9 60.2 61.8 61.6 61.7 61.2 62.3 64.1 64.9 67.4 68.8 69.3 69.7 71.3 72.8 74.3 76.1 77.2 79 79.5 82.1 83.5 86 88.1 90.2 92.3 94.6 96.9 99.4 101.6 104.5 106.2 106.8 111.6 114.1 116.7 118.6 121.3 125.8 130.8 135.5 139.5 142.8 146.5 149.9 152.6 156.3 162.8 172.3 189.7 205.3 220.3 236.5 256.1 277.1 302.5 319.8 330.3 336.3 337.2 331.8 323 313.7 310.3 310.8 314.6 319.1 334.8 358.2 379.3 401.8 419.7 440.6 451 460.2 463.7 464.7 461.4 457.8 453.9 451.2 449 443 434.9 427.5 423.6 419.2 429.4 434.6 437.6 439.6 437.8 431.9 423.9 418.3 414.4 408.7 407.7 402.3 394.2 379.8 362.3 346.6 339.6 340.5 336 337.5 340 343.7 348.1 351.7 353.6 356.2 365 370.9 371.4 370.2 369.4 366.9 360.5 351.4 343.4 338.1 330.3 320.7 311.1 301.2 291.7 282.6 273.1 262.3 254.8 246.3 239 234 230.2 226.8 220.9 219 220.3 223.1 213.7 220.3 220.3 211.4 201.8 200.8 194.2 187.1 194.8 203.5 212.9 218.1 223.7 227.5 230 231.7 234.9 239.3 244.8 251.5
39.3 39.4 39.6 39.3 39.8 39.9 40.1 39.8 40.3 40.7 40.5 40.8 41 41 41.3 41.5 41.7 41.4 41.3 41.4 41.8 41.9 42 41.7 41.6 40.7 41 41 41.1 40.9 41.6 41.7 42 45 49.5 52.9 53.5 54.5 56.8 58.3 60 61.3 61 61.1 61.2 61.7 63 62.7 65.3 66.2 67.5 69.4 70.8 71.9 73.7 75.1 76.9 78.4 80.8 82.1 83.4 85.8 88.1 90.1 91.9 94.8 96 98.1 100.7 102.5 105 110 110.6 113.3 117 119.9 123.7 126.1 130.4 132.7 136.4 139.1 142.7 146.6 149.7 154.6 160.8 168.3 186.2 202.5 220.5 235.9 250.1 272.6 298.9 316.5 328.4 335.6 334.3 321.9 303.6 289.2 284 287.6 293.1 300.6 321.8 345.5 371.2 397.1 415.1 434.5 447.1 455 459.1 460 459.1 454.7 449.1 443.9 439.4 430.9 424.1 417.1 414.2 405.8 415.7 422 425.8 426.2 425.4 418.4 412.4 407.5 405.7 405.5 405.9 401.3 391.1 377.5 368.7 360.9 358.5 355.4 352.6 355.1 358.7 360.3 367.1 365.7 363.7 371.4 373.9 374.2 373.2 371.9 368.8 362.8 358.6 347.7 338.6 332.3 323.6 313.4 305.5 296.2 284.7 275.8 267 259.2 251.4 243.8 237.2 233.5 230.1 226.2 220.4 221.7 223.7 223.8 221.4 216 210.8 200.6 195.7 194.8 188.1 191.2 200.1 208.5 217.7 221 222.6 226.6 231.4 234.4 238.7 243.1 251.1 258.8
39.4 40.2 40.1 40 39.9 40.1 40.2 40.9 40.3 41 41.1 41.2 41.3 41.3 41.6 41.9 42.1 42.3 42.3 42.2 42.1 42.3 42.4 42.3 42.1 41.6 41.1 41.4 41.6 41.4 41 41.4 42 43.6 48.3 51.3 52.9 53.9 56.1 58.1 59.3 60.4 60.4 60.7 60.6 61 62 62.9 63.7 64.5 66.5 67.9 69.5 71.5 73.1 74.2 75.6 78.5 80.9 82.7 83.7 85.9 87.3 89.8 91.4 93.3 95.6 96.9 99 102.5 107.8 110.7 113.1 116.5 119.4 122.2 124.6 128.2 131.3 134 137.6 139.5 141.3 143.5 147.4 152.2 158.5 165.7 181 196.3 211.9 234.3 249.4 266.9 290.9 311.1 327.3 329.7 322.7 305.4 283.4 268.3 264.5 270.2 279.5 301.2 326.1 349.2 371.8 392.8 414 429.3 443.3 448.2 451.9 453.7 454.9 448.7 441.1 434.6 428.8 421.6 412.2 406 402.9 399 399.5 405.7 405.1 407.2 405.1 401.7 400.8 400.1 399.9 399.6 398.8 394.4 391.9 388 379.8 376.2 371 369.6 370.6 370.7 372.6 376.7 378.6 378.9 377.4 378.4 378.5 378.1 375 373.2 367.4 359.7 354.2 341.2 332.6 323.6 313.6 306.6 299.1 287.9 276.5 268 259.6 253.8 248.1 242.5 236.6 232.7 227.8 223.1 222 223.4 225.3 216 218.2 213.5 208.5 199.4 194.4 188.7 189.5 195.6 204.9 213.7 220.5 224.3 225 228.3 233.2 237.5 240.1 247.4 255.6 265
39.4 40.4 40.1 40.6 40.1 40.4 40.8 40.6 40.9 41.3 41.3 41.4 41.6 41.6 41.9 42.2 42.2 42.3 42.4 42.5 42.4 42.8 41.5 42.4 42.3 42.1 41.2 41.2 41.3 41.6 41.7 41.8 42.2 42.5 46.5 49.7 51.1 52.6 55.4 57.6 60.2 61.1 61 60.6 59.9 60.3 61 62.5 63.3 63.7 65.7 66.8 69.3 70.9 72.6 73.8 76.4 78.5 80.5 82.4 83.2 84.7 86.6 88.5 90.1 92.4 94.5 95.7 98.8 103 105.3 109.7 112.7 115.9 119 121.4 125.3 128.4 131.3 133.9 137.2 140.6 142.8 143.9 145.7 150 156.2 164.9 175.5 192.1 206.2 227.2 244.5 263.9 282.4 303.4 318.5 317.2 307.5 286.9 262.3 250.6 265.3 280.7 295.7 313.7 333.6 348.9 361.9 379.1 398.4 415.3 433 445.5 447.6 450.3 450.2 442.5 435.7 430.3 425.1 417.5 406.5 397.9 389.6 386 386 387 386 383.6 385.6 382.7 386.1 387.8 390.2 390.4 390.7 390.7 391 388.4 388.7 385.7 387 386.6 385.3 382 383.6 388.7 389.2 387 386.2 384.9 383.7 379.6 375.7 371.5 365.6 357.1 347.5 331.9 320.9 310.2 302.8 297 289.5 280.2 269.3 263.1 256.7 250.4 244.8 241.3 237.8 232.6 226.8 223.9 223.9 223.2 224.5 217.1 214.7 212 206.6 199.6 194.2 189.1 192.3 200.2 209.7 216.3 222.8 226.2 229 231.8 235.3 240.6 243.6 253.1 256.4 267.6
39.8 40.2 40.3 40.3 40.7 41 41.3 41 41.7 42 41.5 41.7 41.9 41.6 41.7 41.9 41.9 42.6 43 42.8 42.2 43.3 43.4 42.8 42 41.7 41.9 41.2 41.8 42 41.6 42 42.3 42.3 43.8 47.8 49.9 52.3 55 57.4 59.7 59.6 61.1 60.5 59 58.2 58.7 61.6 63.3 64.5 65.8 67.5 68.8 69.5 72.1 74.3 76.3 78 79.5 81.1 82.8 85 85.8 87.1 88.2 90.8 92.7 94.9 98.2 101.6 104.3 108.4 111.8 115.5 118 121.3 124.6 128 131.6 133.9 136.9 140.3 142.7 144.8 146.6 148.2 154.6 161 170.6 185.1 200.5 217.3 238.6 256.7 271.1 289.4 304.7 302.9 288.8 265.6 241.7 251.7 271.6 289.7 305.3 316.3 330.5 341.5 352.4 360.9 375.7 392.9 410.8 433.3 446.5 449.9 449.9 446 437.2 427.9 421.9 412.3 399.8 390 381.5 377.5 376.6 375.6 373.3 369.7 371.8 370.4 372.1 369.4 368.5 369.8 375.2 383.8 390.6 395.7 395.1 393.9 392.4 391.5 389.5 387.2 391.3 395.2 394.8 394 391.5 387.6 383.7 380.1 374.4 369.2 361.6 351.2 335 325.6 313.7 303.3 292.8 285.5 276.4 268.2 263.6 259.8 254.4 249.1 244.4 240.1 236.9 230.8 226.8 226.5 226.2 225.2 223 214.7 210.7 204.9 198.7 195.8 192.4 189.4 196.7 205.2 215.2 218.7 223 227.7 231 234.6 239.4 245 248.2 254.1 259.3 272.1
40.5 40.6 40.6 40.7 41.3 41.5 41.6 41.4 41.4 41.8 42 42 42 41.4 43.1 42.1 42.3 42.8 43.2 42.9 43.1 43.3 42.9 42.8 42.7 42.6 42.4 41.9 41.5 42.1 42.2 42.4 42.1 42.3 43.2 46.8 49.3 51.8 55.8 57.1 58.7 59.6 59.6 60.1 57.8 59.7 61.2 62.1 64.2 64.9 65.5 66.9 68.1 69.6 72.1 74.2 75.8 77.3 78.9 80.4 82 83.9 84.3 84.6 86.6 89.2 91.1 93.1 95.3 98.2 102.1 105.9 110.2 113.6 118.7 121.6 124.3 127.8 131.5 134.9 137.4 139.5 142.3 144.8 147.3 147.5 152.5 158.9 166.3 177.9 191.3 207 226.6 244.4 261.8 278.2 289.1 284 267.7 247.8 231.7 252.1 271.3 286 303.6 313.4 319.4 323.9 329 338.6 355.5 375.4 404.4 428 443.2 451.4 453 448.7 440.5 432.8 419.4 405.5 391.5 380.9 374.4 372.3 371.1 368.1 364.8 362.5 362.2 361.8 361.2 359.8 357.2 358.4 363.8 376.6 388 395 394.7 394.3 395.2 394.4 394.5 393.5 392 393.8 395.6 393.1 389.5 385.3 381.5 377.5 373.9 366.5 351.2 338.3 331.4 323.8 311.8 298.9 287.7 279.8 272.6 267.6 263 259.1 254.2 249.2 243.9 240 234.6 229.4 227.5 227.7 227.1 225.3 216.9 210.6 203.3 199.8 194.9 193.1 190.6 190.1 200.5 211.4 218.8 219.3 222.1 226.4 232.9 237.5 243 247.3 250.3 255 262.3 276.7
40.7 41 40.6 40.5 41.4 41.9 42.2 41.9 41.5 42.2 42.7 42.7 42.3 42.7 42.8 42.6 42.7 43.6 43.1 43.1 43.9 43.5 43.3 43.1 43 43 42.8 42.2 42.2 42.6 42.6 42.7 42.8 42.3 43 45.6 47.5 49.9 52.7 53.8 55.3 57 58.5 58.8 55.9 59 59.7 61.1 62.2 63.2 65.1 66.2 67.7 70.6 72.2 73.6 75.2 76.7 78.2 79.8 81.5 81 82.3 84.5 85.8 87.7 89.8 92.3 95.8 98.8 103.2 106.6 109.3 114.7 118.6 121.6 124.6 126.7 130.3 134.1 137.4 139.1 141.4 144.4 146.8 148.8 152 156.8 162.8 171.2 182.2 196.9 214.4 231.3 248.8 261 267.6 262.6 244.8 227.2 231 250.1 263.8 276.3 285.9 291.5 295.8 300.7 308.2 326.4 347.3 374.4 402 425.1 439 446.9 453.1 452.7 449.4 439 426 412.9 398.2 385.6 375.7 371.2 368.1 365.5 363.4 360.7 359.8 357.6 355.5 355.1 353.3 352.2 355.5 366.3 381.8 392.4 392.8 393 394.5 394.2 393.6 391.2 386.4 388.2 387.5 385.5 382.2 379.7 376 365.5 353.3 343.7 337.1 332.6 326.1 318.5 307.3 293.7 285.4 279.5 274.4 267.8 262.8 259.2 254.3 252.2 246.2 239.3 232.7 228.4 227.8 226.5 225.5 222.1 214.7 209 202 197.2 195.3 194.6 192.6 190.2 202 216.6 219.3 220.8 221.2 225.1 231.7 238.7 245.7 250.7 252.2 257.3 268.1 279.9
40.9 41.4 41.2 41 41.5 41.8 42.4 42.1 41.9 42.5 42.7 43.2 42.9 42.9 43.5 43.3 43.2 43.2 43.4 43.9 43.9 44 43.7 43.5 43.3 43.1 43.2 42.9 42.2 42.5 43.1 43.1 42.3 42.1 43.1 44.3 45.9 46.9 50 51.2 53.4 55.2 54.7 55.5 57.5 59.4 61.7 63.3 63.4 64.7 65.1 65.9 68.6 70.2 71.5 72.7 74.4 76.1 77.6 79.1 78.5 80.2 81.9 84.3 84.9 86.7 89.3 91.9 95.3 98.4 101.1 102.9 105.3 108.1 116.8 120.7 123.1 125.7 129.8 133.1 136.4 138.6 141.1 143.9 147.1 148.2 150.7 152.5 155.8 160 173.2 187.3 202 216.5 233.8 242.7 245.1 240.8 221.7 213.1 231.8 242.7 252.1 260.3 262.3 267 277.2 295.5 313.3 336 359 379.7 403.3 420.7 432.8 442.4 450 453.4 452.4 444.5 432.6 420.1 408.3 391.5 380.5 375.4 372.4 370.9 369.5 365 362.9 360.7 357.2 351.4 349.9 347.9 344.8 353.1 367.5 379.1 388.2 391.4 393.3 389.6 384.2 377.8 376.1 371.2 369.8 368.4 362.2 354.8 349.2 342.5 334.8 329.6 327 322.6 313 303.7 298.6 291.6 284.5 279.8 276 268.1 263.9 261.1 263.5 260.9 244.9 236.1 232.1 228.7 226.2 219.7 218 213.6 213.6 207.1 201.6 198.7 201.2 197.1 191.9 192.5 200.8 217.3 218.9 221.5 223.5 225.5 231.9 239.4 245.8 250.5 255.6 257.8 271.9 283
41.3 41.3 41.8 42.1 42.1 42.5 42.3 43 42.8 42.4 42.6 42.7 42.9 43.2 43.6 43.6 43.6 43.4 43.1 43.8 44 44.1 43.9 43.6 43.4 43.6 43.4 43.3 42.9 42.8 42.9 42.9 42.9 42.9 43.2 43.8 44.3 49.4 52.3 53.9 57.1 59.1 59.8 59.9 61 61.1 62.7 64.3 65.7 65.7 65.5 66.7 68.2 69.7 70.5 72 73.5 74.5 76.8 77.8 77.7 79.5 79.9 82.7 83.9 86 89.2 91.2 93.1 94.4 96.3 99.6 103.9 110.2 112.9 119.1 123 124.2 128.9 132.3 135.2 138.2 140.1 143.2 137.2 133.1 136.1 140.1 148.8 151.6 159.6 174 187.4 203.1 214.9 224.4 225.6 217.5 201.5 216.4 222.1 227.4 233.7 238.9 255.9 271.7 285.4 300.5 317.4 339.4 360.6 380.5 397.8 411.9 424.9 436.4 445.2 449 449.7 448.6 442.4 433.3 422.9 412.2 398.7 387.3 381.5 380.1 379.7 379.1 376.8 374 367 362.9 354.3 340.8 338.5 340.1 352.7 362.5 369.2 372.2 372.1 371.4 366.3 360.7 361.2 356.2 350.2 342.6 335.5 328.4 321.2 314.5 310.4 304.3 301.9 296.1 290.8 288.3 285.8 284.1 280.7 278.1 273.2 268.1 264.9 264 266.7 259 241.3 235.2 232.1 228.6 223.9 217.5 213.4 210.2 211.1 203.6 201.8 200.2 198.4 196.6 194.4 190.8 197.2 208 216.4 222.7 227.9 232 237.3 242.7 247.4 251.5 256.8 262.9 277.2 288
42.2 42.1 42.1 42.7 42.8 42.8 42.4 43.2 42.5 42.6 42.9 43.2 43.3 43.6 43.7 43.1 43.8 44.1 43.7 44.2 44.2 43.4 43.9 43.7 43.5 43.8 43.7 43.6 42.8 43.3 43.1 42.6 43.1 43.1 43.4 43.4 43.3 45.4 51.2 53.9 57.4 60.2 61.4 61.9 61.8 62.4 63.5 64.7 66.6 65.7 66.6 67.1 68.2 68.7 70.6 71.9 72.9 74.3 74.6 74.9 76.7 78.3 80.3 82 83.8 86 88.1 90 92.2 95.2 97 99.1 103.2 106.5 113.9 115.7 118.5 123.7 127.7 131 134.1 134.2 130.8 129.7 128.1 136.7 146.8 150.7 154.2 160.5 163 159.6 169.7 187.9 197.5 203.2 199.9 197 188.9 200.7 204.8 213 219.5 230.6 241.3 257.7 275.7 296.2 317.8 340.8 358.3 378.7 391.6 403.7 414.9 428.2 438.9 447 449.3 450.1 447.9 443.4 435.1 421.3 418.6 408.7 403.4 398.6 394.4 392.6 391.6 387.3 376.6 369.9 355.3 335.6 331.7 330.8 336 341.4 346.6 350.8 349.9 349.8 346.1 340.1 332.7 326.1 317 310.4 305.1 298.2 292.4 287.1 280.1 277 273 268.9 264.7 262.2 260.5 259.6 261.1 261.7 265.7 264.9 260.5 260.7 257.6 250.2 241.9 234.7 231.2 228 220.8 215.5 211.9 212.5 208.8 204.9 203.9 204.1 199.8 198.5 197.3 192.5 191.7 206.7 212.3 221 228.4 233.9 239.6 243.5 248 253.4 256.7 268.2 282.1 290.8
42.8 42.4 42.7 42.8 43 42.8 42.9 43.1 43.6 43.8 43.7 43 43.4 44.4 44.3 44.4 44.5 44.6 44.8 44.1 44.7 44.3 43.9 44.1 44.1 44 44 43.3 43.3 44.1 43.9 43.3 43.3 43.1 43.6 43.5 43.7 44.2 46.6 53.2 56.3 59.5 61.3 61.5 61.1 61.9 62.9 64.4 65.9 66.2 66.2 66.7 66.8 67.8 70.1 70.9 71.6 71.2 73 74.4 76.7 78.1 79.5 80.8 83.5 85.8 87.9 90 91.9 94.2 95.9 97.3 100.6 104.1 107.1 113.4 116.4 122.2 121.1 123 116.5 118.6 122.4 126.9 137.6 143.2 148 150 154.8 160.7 166.9 170.3 163.9 170.7 183.9 177.8 181.1 187.5 195.1 204.6 212.4 218.8 218.2 221.3 232 244.4 260.6 282 305.7 332.4 350.7 373 389.6 398.7 409.2 423 435 441.7 447.1 450.3 454.3 450.6 439.4 435.2 433 429 429.3 425.1 419.7 413.3 404.9 397.5 386.5 373.8 356.8 338.2 328.9 321.5 321.3 322.1 325.3 327.1 329.8 327.1 323.4 318.7 309.6 303.4 295.9 288.9 281.4 274.7 270.8 266.7 263.5 260.8 257.5 254.9 252 250.6 250.3 252 251.8 249.8 250.9 250.2 247.4 244.4 244.6 242.1 236.5 231.6 228.9 226.2 219.3 215.7 212.2 212.1 208 208.1 208.9 206.4 202.4 202.7 206.4 197.8 196.8 208.9 210.3 215.3 223.3 230.2 236.1 242.1 247.6 254 260.1 269.4 284.3 295.2
42.6 42.6 42.8 42.9 43.1 43.3 43.8 44.1 44.2 44.5 43.8 43.8 44.7 45.2 44.8 44.4 44.4 45 45.1 44.8 44.8 44.9 44.5 44.7 44.6 44.5 44.5 43.3 44.3 44.2 44.3 44.1 43.3 43.5 42.5 43.5 43.4 43.4 43.7 50.5 54.5 57.8 59.8 61 60.5 60.8 61.7 63.4 65.5 66.2 66.6 66.9 66.9 67.3 67.5 68.1 69.8 70.8 72.7 74.7 76 76.8 78 79.6 82.2 85 87.1 89.3 90.9 92.7 96 98 100.8 104.7 107.2 108 110 112.3 110.6 115.5 120.5 125.7 130.9 132.6 135.7 141.3 146.1 150.1 153.5 160.1 170.2 179.5 184.3 179.7 182.2 194.8 202.8 208.9 217.9 224.3 231 233.9 233.4 233.9 232.5 236 252.2 268.2 289.2 312.9 335.9 355 375.6 392.4 406.7 416.6 427.3 440.3 447.9 450.3 453.5 451.4 452 456.7 458.3 454.1 450.4 446.5 437.6 427.7 417.5 407 394.7 381.2 364.1 346 329.1 323.2 313.7 309.6 307 307.3 306.9 307.8 305.5 303.1 295.5 286.5 280.9 274.8 269.8 266.3 262.5 260 257.8 255.5 252.8 251.4 250.9 250.1 246.4 244.5 243.6 241.2 239.5 237.9 235 233.6 231.8 230.8 226.6 225 222.2 220 218 215 213.1 212 211.1 209.6 209.7 206.2 206.6 206 210.6 205.9 192.8 205.9 207 210.9 216.1 221.5 229.5 237.9 245 253.2 258.4 269.2 281.8 299.5
43.6 42.6 42.8 43 43.7 43.3 44.2 43.6 44.5 44.6 44.1 45 45.3 45.1 44.6 45.3 45.3 45.8 45.4 45.6 45.3 45 45.3 45 44.7 44 44.1 45.2 44.5 44.2 44.3 44.3 43.6 44 43.4 43.2 43.3 44 43.7 44.2 52.8 55.1 57.7 58.9 59.3 59.2 59.9 61.2 63.4 65.2 66.7 67.3 67.2 67 65.6 67.3 70.2 72.2 73.2 74 74.4 75.4 76.7 77.3 80 83.4 86.6 88.8 91.8 94.3 96.5 98.4 100.7 105.2 104.5 104.1 105.1 108.8 114 120.9 128.5 131.1 134.8 137.9 140.3 142.3 146.3 150 154.3 158.5 168.7 178.6 187.1 192.4 198.7 206.2 216.9 225.1 233.7 242.1 247.2 251.7 250.7 248.8 245.6 240.7 246.2 257.1 275.5 295.1 314.8 335.1 355.6 372.7 392.9 413.4 425.7 436.3 447.8 452.2 455.8 462.2 468.6 467 464.5 460.9 458.1 451.5 445.4 437.5 429.4 417.2 404.4 387.8 375.6 353 333.5 324.7 316.4 307 300.8 296.2 294.2 294.5 290.2 284.6 279.3 276.4 271.5 267.7 265.6 262.1 260.3 258.2 257.4 256.9 256.5 256.8 256 252.3 253.5 252.7 248.7 243.9 242.2 240 240.2 241.1 239 237.1 233.3 229.5 226.2 223.6 221 216.2 214.1 212.4 212.1 211.8 207.9 206.5 204.7 205.8 207.7 207.6 201.4 196.2 201.5 205.7 210.7 214.5 224.3 233.6 244.3 251.2 256.4 267.5 279.6 299.9
43.6 43.3 43.5 43.6 43.7 43.7 44 44.3 44.8 45.2 45.3 45.2 44.8 44.9 45 45.7 45.4 45.2 45.8 46.4 46.2 45.7 45.7 45.5 45.2 44.6 45.1 44.6 44.6 44.4 44.3 44.3 44.6 43.9 43.6 44.1 43.9 44.5 44.1 44.1 48.3 51.8 54.2 56.3 57 57.4 57.8 59.6 61.3 64.7 66.5 66.9 66.5 65.3 65 67.6 70 71.8 72.6 72.7 73.3 74.3 75.6 76.3 78 81.1 85.1 87.3 90.8 93.4 94.2 95.4 96.7 99.1 98.8 101.7 106.4 111 117.8 122.9 126.4 130.2 132.8 135.7 139.3 142 145.3 149.7 153.6 157.7 165.7 177.1 187.7 196.3 207 218.3 230.3 239.3 245.9 253.3 260.5 265 268.2 266.6 263.3 258.1 252.9 253.9 266.7 279.5 293.1 312.5 332.3 350.7 372.7 398.9 424.4 439.9 450.8 456.9 460.3 468.4 471.4 467.4 465.3 463 461.5 456.6 446.1 439.8 434.5 420.7 406.2 389.3 373.5 355.5 343 331.6 317.4 305.7 299.4 292.1 288.8 284.5 281.1 278.2 274.2 270.6 268.6 266.1 266.1 265.1 263 262.8 262.5 262.3 261.6 262.9 262.1 260.2 260.4 259.4 255 252 249.7 248.1 246.7 242.9 240.8 237.4 233.1 230.9 228.6 226.2 224 221.2 217.4 213.7 212.5 210.5 206.9 205.3 202.3 202 203.4 204.5 199.6 195.9 200.7 204.7 210 216.3 218.6 226.4 243.4 248.5 255.5 266.1 280 296.5
44.3 44.4 44.4 44.3 44.1 44 44.4 44.4 44.8 45.2 44.9 45.7 45.8 45.4 46.1 46 45.8 45.6 45.9 46.5 46.7 46.1 46.1 46 46 45.9 45 45.1 45.3 45.2 44.9 44.7 44.4 44 44.2 44.4 44.5 43.7 44.4 44.2 45.4 49.2 51.4 53 53.8 54.9 55.9 57.8 59.7 63 64.4 65.3 65.8 64.1 64 66.4 68.6 70 71.8 71.9 72.4 73.4 73.7 74.8 76.8 78.7 81.6 84 86.5 87.6 90 91.9 94 95.4 98.3 101.7 105.5 110.2 115.9 121.1 124.5 127.8 130.8 133.5 137 140.3 143.8 147.8 151.8 156 162.5 174.7 187 197.1 208.3 222.7 240.4 253.9 262.9 268.3 274.9 279.9 285 289.4 285.4 279.9 274.3 269.6 272 283.8 295.6 309.2 327.5 348.7 373.8 402 426.2 442.3 450.5 456.3 463.4 469.5 471.3 466.6 465.3 458.7 458.3 451 439 428.7 422 410.1 398.5 382.2 366.3 354 339.2 328.6 317.4 303.7 296.3 292.3 284.9 281.5 277.8 273.7 272.2 271.7 271.1 272.1 273 273.6 271.5 271.7 271.7 272.4 271.7 271.1 271.5 271.9 269.5 267.4 263.1 258.4 256.7 252.8 249.2 243.9 240.5 237.3 233.6 231.3 229.1 226.6 224.3 222.8 219.6 215.4 211.8 208.6 207.3 205.6 204.1 202.5 200.1 198.8 195.8 196.2 200.5 206.2 220.7 226.5 224.6 223 233.7 248.3 255.4 264.2 279.4 292.3
44 44.9 44.3 44.7 44.5 44.3 44.9 45.1 44.9 45.2 45.2 45.9 45.9 46.3 46.1 46.3 46.1 45.9 46.2 46.5 46.8 46.8 47.1 47.1 46.5 45.6 45.2 45.5 45.9 46 45.5 45 45 44.6 44.1 44.5 44.6 44.4 44.6 44.5 44.4 46.2 48.4 50.1 52.2 54 55.7 57 58.9 61.7 62.5 63.4 63.3 62.6 62.1 65.2 67 68.4 70.3 71.2 71.5 71.5 72.7 74.5 76.4 78.5 80.4 82.6 84.1 85.9 88.2 90.5 92.4 94.8 97.4 100.3 103.4 107.8 110.3 114 122.4 125.3 128 130.7 134.2 138.1 141.6 145.9 150.6 154.9 160.8 170.1 184.2 196.4 207.8 221.3 240.6 257.7 269.4 279.4 291.7 301.7 302.2 301.4 300.4 298.8 295 290.8 292.3 296.3 307.3 322.7 343.1 363.2 386.5 411.7 433.6 445.1 454.2 457.4 462.3 467.6 463.1 458.5 450.1 451.2 448.5 439 428.4 418.4 408.9 397.3 385.8 371.3 358.5 344.5 330 317.1 307.1 296.6 288.3 286.6 281.9 279.2 276.3 277.8 278.7 277.6 281.1 283.1 282.9 286.4 287.4 288.8 288.3 284.4 282.9 283.4 284.7 286.3 283.1 276.9 271.6 265.8 261.7 257.1 252.6 247.9 242.2 237.6 234.9 234.3 231.9 225.8 224.6 222.8 221.1 218 215.7 210.8 209.2 207.3 206.2 202.8 197.8 196 195.1 195.5 201 211.6 226.5 234.3 233.6 234.5 230.1 236 250.3 262.9 273.2 288.9
43.7 44.5 45 44.2 45 44.8 45.4 45.9 45.7 45.3 46.3 45.9 46 46.9 46.7 46.5 47 46.5 46.6 46.8 46.9 47.2 47.5 47.4 46.7 45.2 46 46.3 46.5 47 46 45.5 45.4 44.8 44.5 44.7 44.6 44.7 44.4 44.3 44.3 46.3 48 48.7 50.9 53.4 55.2 55.7 57.3 59 59.9 60.7 61.8 60.8 61.4 64 64.9 66.8 68.5 69.4 69.6 70.3 72 73.6 75.3 77.5 79.7 81.7 83.6 84.6 86.8 89.4 91.2 94.4 95.3 97.4 101.2 104.9 105.9 108.7 114.5 122.6 125.9 128.1 131.1 135.5 139 144.1 148.4 153.8 159.4 168 179.8 193.4 204.1 216.9 233.2 250.9 264.2 277.6 292.9 301.1 302.6 305.8 312.1 312.7 313.2 312.7 314.8 319.3 326.9 339.8 359.9 381.9 400.1 421.5 439.4 447.7 455 456.9 456 451.8 451.4 448.6 440.2 439 432.2 424.1 412.4 403.8 391.3 379.3 364.6 352.9 340.8 328.5 313.3 302.6 293.4 287.6 284.7 283.5 285.6 284 283.4 292 296.4 301.6 301.1 302 302.7 304.3 305.8 306.4 306.5 305.3 302.4 301.8 302.1 300.7 297 291.7 281.9 274.3 269.2 261.4 256.5 250.4 245.8 238.9 236.9 236.9 234.6 230.4 225.9 222.4 221 218.9 216.2 213.6 211.4 211.5 209.3 204 198 196.5 195.8 195.5 204.3 218.1 226.5 238.6 241.2 240.3 237.8 238.7 242.5 248.4 259.4 268.3
44.3 43.6 44.6 45.3 45.6 45.8 45.9 46.6 46.9 46.1 46.7 46.1 46.2 47.1 46.6 47.6 47.1 47 47.6 47.6 47.4 47.5 47.5 47.4 45.9 46 46.8 47.1 47.1 46.9 46.6 46.3 46 45.3 45.7 44.8 44.5 44.9 45 45.3 45.4 46.9 47.6 47.6 49.4 51.9 53 53.4 54.3 56.5 56.6 58.4 60.3 58.5 60.4 62.2 63.3 63.6 63.6 66.2 68.4 70.5 71.5 73.3 75 76.6 78.7 80.6 82.1 84.4 86.6 87.9 89.5 91.6 92.7 95.5 98.6 102.6 101 106.7 112 119.5 122.4 125.4 128.6 132.4 136.9 140.6 146.6 151.3 157.3 165 175.1 188.7 199.3 209.3 223.8 238.5 251.9 265.5 278.4 289.6 296.2 305.2 316.3 324.4 327.9 328.4 334.5 339.5 342.7 355.9 377.5 393.1 405.3 425.7 442.1 447.2 449.7 452.5 450.2 445.8 443.6 443.6 431.1 419.8 411.7 403 393.9 383.2 368.8 352.3 341 330.9 318.1 306.9 299.9 292.2 288.5 290.1 293 294 295.2 297.4 305 314.4 324.6 330.4 327.6 324 320.2 321.2 322.2 324.6 329.5 330.7 328.3 325.8 321.9 317.7 313.4 307.3 297.5 276.5 272.5 266.3 260.3 252.6 248.2 242.9 238.2 237.1 235.6 230.6 226.2 222.6 221.7 219.1 216.8 215 215.5 215.6 211.9 205.9 199.8 196.6 196.4 199.3 208.4 218 230.9 241.5 243.9 243.2 244.3 245.6 245.5 254.1 269.1 282.1
46 43.9 44.8 45.2 45.6 46 46 46.7 46.4 45.1 47.6 46.7 46.7 46.9 47.7 47.9 48.2 48.1 47.8 48.5 47.8 47.7 47.8 47.3 46.5 47.3 47.3 47.5 47.4 46.8 47 46.3 46.3 45.9 45.7 45.2 45 45 46.1 45.8 45.9 46.5 47.1 47.7 47.8 48.6 50.4 50.9 52.8 54 54.6 55.7 58 57 59 60.4 60.9 62.2 65 67.6 70.3 71.7 72.7 73 73.4 75 77 78.4 81.1 83 84.5 85.9 87.5 89.2 90.8 92.7 97.2 99 100 105.8 109.8 113.9 119.2 123.3 126.6 130.5 134.6 138.4 143.8 150.7 155 161.8 172.5 183 193.3 204.7 216.1 228.7 241.5 254.5 265.4 276.3 291 306.2 318 330.1 339.5 342.4 345.7 348.9 354.3 366.3 382.6 400 409.7 424.3 438.1 440 444.4 447.6 446.2 443.4 438.1 428 416.3 402.5 392.2 384.7 370.1 359 344.5 331.6 319 308.4 301.3 296.9 292.8 291.7 293.8 298.5 305.5 311.5 318.9 322.6 337.4 343.1 347.2 348.2 345.7 339.7 338 337.8 341.8 346.5 350 350.4 349.5 346.4 341.2 335.1 329.8 320.9 312.1 295.3 278.3 273.1 266 257.3 250.9 245.7 240.9 238.7 235.7 229.9 225.6 224 221.5 219.2 218.7 219.5 220.4 219.3 213.8 206.9 199.4 196.5 199 205.3 215.3 228.9 241.1 245.4 244.2 244.7 248.1 251.3 250 254.9 269.2 284
46.8 44.9 43.7 44.8 44.8 46.1 46.5 46.4 46.5 46.9 47.8 47.9 48.3 47.9 47.9 48.2 48.7 48.6 48 49 48.4 48.6 48.3 48.2 47.7 47.8 47.9 47.9 47.5 47.7 47.4 46.8 46.4 46.1 45.6 45.5 45.3 44.8 45.2 44.1 46 45.8 46.9 48.8 50.7 50.7 51 52.1 52.3 53.1 53.3 54.8 55.2 56.7 57.3 58.5 60.9 62.7 65.7 68.4 71 71.9 71.8 71.8 72.8 74.8 76.8 77.3 77.7 80.8 82.6 84 85.7 86.9 89.1 90.5 92.6 93.5 96.9 101.9 105.9 112 114.6 120 125 128.3 132.9 138 141.8 147.8 153.4 158.5 169.6 180 188.5 199.2 208.8 219.7 232.6 244.3 260.7 277.2 293.3 310.7 322.2 334.8 345.1 352.4 358.3 361.4 360.8 367.1 379.8 393.7 404.3 413.9 424.5 430.7 434.4 437.8 436.6 431 419.4 408.4 397.9 385.8 374.1 361.4 350.3 337.1 324.8 313.9 306.5 300.5 297 299.9 302.4 301.1 307.8 314.8 325.8 333.9 344 352.9 360.2 363.8 363.3 361.5 361.7 355.2 356.9 356.9 361.1 365.3 367.3 367.8 366.1 362 356 350.1 342.6 334 326 313.9 303.5 283.2 275.8 262.1 255.4 248.2 242.3 238.7 235.1 229.7 228.4 227 224.3 221.9 220.7 222.3 223.5 219 212.8 205.9 197.4 196.8 203.7 212.8 232.3 238.5 246.8 244.6 244.2 253.9 257.1 257.1 259.1 261.5 269.2 283.4
