ncols 200
nrows 86
xllcorner 190000
yllcorner 870650
cellsize 50
6.4 6.4 6.4 6.4 6.4 6.4 6.4 6.4 6.4 6.4 6.4 6.4 6.4 6.4 6.4 6.4 15.3 17.9 17.7 24 49.9 76.3 111.4 137.6 149.5 167.8 184 204.6 220.7 238.7 255.3 298.8 302.8 314.7 329.6 344.9 342.8 308.9 332.7 353 376.5 390.1 405.5 398 400.7 401.8 404.4 410.2 408.1 416.8 424.1 432.1 450 462.4 480.5 492.4 497.4 512.7 528.3 545.2 564.8 573.1 569 566.4 575.3 592.1 589.5 551.3 520.6 493.4 471.6 452.5 436.3 418.9 390.5 384.3 370.6 359 350 329.7 317.6 319.4 317.6 288.9 269.5 257.6 255.2 257.6 264.3 277.5 299.3 329.8 358.1 399.8 403.6 414.5 430.1 448.1 459.3 475.4 490.1 508.5 526.8 563.2 594.1 634 667.3 689.9 697.8 691.9 673.9 655.1 635.4 613.4 579 534.3 528.9 452.7 414.2 386.8 374.6 352.9 339 308.4 282.9 263.4 254.6 255.8 256.8 259.5 275.1 284.9 302.2 318.5 314 315.4 314.4 315.2 307.5 301.4 298.3 299 301.1 307.8 317.6 328.3 350.2 359.3 379.8 418.5 429.8 455.6 484 507.9 527.6 541.2 542.8 545.8 548.5 545 538.3 550.1 557.7 579.8 605.3 615.2 620.2 615.7 605.2 605 583.9 554.5 497 455.5 434.4 425.9 424.9 428 441.9 463 459.6 458.1 466.9 456.5 429.5 376.9 332.7 291.9 272.2 253.7 244.6 236.6 233.8 239.6 249.7 260.4 271.1 277.9 289 300.1
6.4 6.4 6.4 6.4 6.4 6.4 6.4 6.4 6.4 6.4 6.4 6.4 6.4 6.4 6.4 6.4 6.4 10.5 14.7 14.9 21.2 40.9 62.4 83.6 119.4 133 155.5 186.2 197.9 216.1 234.4 276.6 279 296.3 319.8 337 329.7 291.8 324.3 350.9 375.4 388.2 395.3 394.6 392.8 393.6 395.7 396.1 403.1 407.5 413 417.5 427.9 441.7 452.8 465.8 478.4 493.1 508.6 522.3 539.3 553.9 550.2 549.7 561.6 575.3 576 547.5 519 488 463.5 448.6 427.8 412.8 399.4 379.6 374.9 366 348.5 335.7 315.5 314.4 306.6 287.5 273 261.7 256.8 257.1 264.4 277.9 300.8 335.6 360.9 391.2 402.8 416.5 436.2 446.5 451.6 466.4 479.9 497.4 528 559.2 593.7 638.8 671.1 692.7 712 710.1 704.3 686.1 664.9 629.1 599.6 565.7 509.1 474.7 439.5 407.5 384.4 370.2 346.8 319.1 293.8 273 259.4 261.7 262.4 267.7 276.6 291.3 312.6 352.8 353 354.2 341.9 337.6 333 325.4 316.8 311.4 306.1 309.1 315 350.8 359 371.3 389.7 402.4 415.7 438.1 452.4 487.3 503.7 512.3 515.2 519.8 520.8 514 523.6 534.1 565.2 594.2 607.8 620.6 627.8 626 613.8 604.4 595.2 564.2 508.6 469.5 451.2 444.8 439.7 442.9 438.4 448.8 445.4 449.1 466.4 466.7 465.9 427.3 392.8 337.3 304.1 286 271.8 253.2 248.9 251.3 263.3 277.1 284.1 293.7 291 299.2
6.4 6.4 6.4 6.4 6.4 6.4 6.4 6.4 6.4 6.4 6.4 6.4 6.4 6.4 6.4 6.4 6.4 6.4 10 13.5 15.3 20.8 36.7 55.6 77.2 90.7 132.5 159.1 173.5 188.7 214.8 238.6 247.7 276.3 294 321.4 311.2 288.1 320.5 348.3 368.8 388.8 392 388.8 385.1 382 385.7 383.6 393.2 398.2 403.1 403.9 408.4 420.4 435.1 446.6 461.1 476.1 494.8 505.3 519.2 526.3 530 536.6 549.1 563.6 569.7 539.7 505.5 479.2 454.6 437.1 422.9 410.3 398 381.9 372.2 362.7 349.6 336.7 319.7 308.1 297.8 285.2 274.8 262.9 258.4 258.2 268.4 280.6 307.9 352.1 371.9 391.5 407.9 427.5 431.9 444.9 452 464.2 472 486.3 520.8 554.3 591.8 637.5 664.9 691.6 712.9 716.1 712.7 702 674 643.9 610.1 557.3 543.9 526.9 465.7 422.9 394.4 374 354.9 325.6 301.6 280.4 267 264.9 269.4 273.2 285.3 300.3 329.6 363.3 392.2 410.3 417.8 385.1 373.9 366.4 349.9 331.5 323 336.2 337.6 334.8 345.5 360.4 370.8 386.4 391.8 412.2 430.8 467.9 476.7 482.8 485.4 492 489.1 487.3 495.7 549.5 569.3 588.5 604.2 618.4 627.2 634.2 623.3 613.4 600.6 563.9 520.2 489.1 476.8 477.2 458.9 446.9 438.4 438.4 443.8 463.2 465.1 462.1 483.4 461 432.4 391.7 346.3 321.2 295.4 287.7 296.8 344.8 343.2 346.9 339.4 318.8 311.4 305.1
6.4 6.4 6.4 6.4 6.4 6.4 6.4 6.4 6.4 6.4 6.4 6.4 6.4 6.4 6.4 6.4 6.4 6.4 6.4 6.4 7.7 12.6 18.1 35.8 47 62.8 104.9 134 145.9 160.3 188.5 201.9 224.2 248.5 270.2 296.4 287.6 284.6 318.7 343.5 370.7 386.6 386.7 390.3 381.7 367.8 373.2 379.6 387 390.5 394.1 395.8 402.4 414.4 428.7 438 445.6 463.4 474.1 483.9 492.6 505.2 515.5 533.9 545.2 553 555.2 532 495.5 468 446.7 430.8 417.7 406.7 393 381.9 375.3 357 339.9 329.8 318.8 305.3 296.8 288.2 281.9 265.4 260.6 261.5 269.1 285.1 313.5 365 383.3 394.8 419.2 422.2 435.1 446.8 453.3 461.8 471.9 478.9 508.7 544.1 590.4 628.5 656.8 683.3 702.4 704.4 697.1 688.8 677.5 657.7 627.5 597 585.3 534.1 483.8 439.4 404.2 378.2 358.6 332.8 309.7 286.8 272 272.5 274.4 280.9 290.8 308.3 334.9 365.8 391 415.2 432.4 445.3 444.9 396.7 375.8 358.8 374.2 395.6 400.6 366 340.2 347.6 357 368.5 374.2 387.1 428.4 453.5 455.6 454.5 458.7 461.7 457.7 469.8 488.1 523.1 540.8 559.3 583 598.3 617.5 619.7 625.9 619.7 610.5 576.5 545.2 522 521.6 502.4 475.1 450.1 440.5 438.4 456.9 462 466.6 459.5 465.2 470.5 464 433.6 376.3 340.9 316.6 337.3 387.5 408.7 412.7 405.6 368.3 338 321.7 313.9
6.4 6.4 6.4 6.4 6.4 6.4 6.4 6.4 6.4 6.4 6.4 6.4 6.4 6.4 6.4 6.4 6.4 6.4 6.4 6.4 6.4 6.4 8.1 16 26.7 42.3 67.1 91.2 122.2 133.7 159.3 178.3 199.9 225 242.9 260.4 261.5 284.4 307 339.1 362.5 379.7 389.5 392.4 375.7 341.4 357.3 372.3 380.1 382.2 386.5 390.3 395.9 407.5 419.3 423 428.7 442.9 452.5 461.8 471.3 488.9 505.4 527.3 545.4 549.4 545 526.4 499.8 464.5 442.4 426.1 409.2 399.1 389.5 381.2 384.8 354.8 334.4 322.7 314.2 301.8 296.1 293.5 287.5 266.4 262.1 261.7 267.3 291.1 326.3 363.5 404.4 402 413.6 430.4 438 446.7 452.8 459.4 477.2 478.2 501.6 540.9 583.8 620.7 652.2 673.7 690.4 688.2 682.5 682.6 675.7 657.5 634 629.4 587.7 536.8 500.1 448.6 411.9 382.7 361.6 340.7 319.2 297.6 279.9 288.1 283.6 287.4 299.5 315.3 335.3 361 393.4 421.4 443.6 465.4 475.1 450.5 415.2 429.9 443.5 472.4 481.5 441.9 435.8 385.1 376.6 383.5 395.7 384.4 422.7 430.5 433.5 432.7 426.3 423.1 431.8 443.5 469.4 489.6 508.1 532.4 559.2 579.2 596.7 605.1 613.2 614.3 609.8 599.6 573.6 551.8 545.2 514.3 482.3 458.8 446.9 442.4 446.2 450.6 452.9 455.8 454.9 475.4 473.1 442.9 389 355.8 368.2 400 438.8 450.6 447.8 421.1 394.4 374.4 346 330.3
6.4 6.4 6.4 6.4 6.4 6.4 6.4 6.4 6.4 6.4 6.4 6.4 6.4 6.4 6.4 6.4 6.4 6.4 6.4 6.4 6.4 6.4 6.4 7.9 13.3 25.7 43.2 62.2 80.3 107.2 131.3 152.7 185.6 217.6 227.9 224 243.4 260.2 290.2 328.4 346.2 363 388.5 386.5 354.7 322.6 348.7 363.3 371 375.6 380.2 384.9 388.4 396.5 403.9 410 417.9 429.7 437.6 446.7 456.7 475.8 492.8 529.1 550.7 560.9 544.6 524.4 501.8 472.4 442.7 422.3 407.7 397 390.6 382.2 363.8 350.7 331 318.9 310.3 300 295.1 291.1 281.5 267.6 264.1 263.6 265.8 298.1 324 361.9 399.9 400.9 414.3 427.7 436.6 445.1 450.9 457.8 468.9 473.8 495.5 539.3 574.1 612.7 640.7 661.2 674.9 671.1 670.4 670.5 667.5 654 646.9 650.9 611.4 554.8 509.1 461.6 420.8 387.9 365.6 348.7 334.8 313.7 301.3 306 303.4 298.9 318.6 325 339.9 361.1 387 418.7 442.6 458.7 480.9 497 479.9 445.9 466.6 480.4 489 494 489.9 483.6 453.3 437 415.1 401.9 395.7 410.6 407.2 405.6 401.4 409.2 415.9 425.5 439.9 454.1 478.3 506.7 537.7 556.6 571.3 583.8 591.5 597.2 600 603.6 593.5 585 577.3 555.8 518.9 481.3 474.8 458.1 454.3 457.1 449.8 450.4 460.8 468.8 457.5 443.8 389.8 366.5 381.9 419.1 451.3 467.5 468.4 457.1 443.2 406.9 370.3 348.1
6.4 6.4 6.4 6.4 6.4 6.4 6.4 6.4 6.4 6.4 6.4 6.4 6.4 6.4 6.4 6.4 6.4 6.4 6.4 6.4 6.4 6.4 6.4 6.4 6.4 7.1 21.9 36.3 53.6 73.6 104 120 181.5 204.6 222.2 201.3 198.9 231.4 268.1 308.2 326.2 342.3 379.1 372.5 340.9 306.1 326.3 342.9 355.4 365.3 372.8 377.8 382.8 387.6 394.2 401.5 407.1 415.5 425.3 434.5 446.6 464.8 510.1 550.8 560.1 559.1 539.6 516.9 491.6 472.2 444.3 423.2 407.6 393.8 388.7 384.2 358 343.8 327.9 315.9 310.6 303.4 296.2 288.6 278.2 269.9 265.7 265.9 271.1 295.5 321 357 387.9 407.3 416 423.5 430.1 439.1 445.9 453.1 461.1 468.5 492.9 537.8 575.6 608.4 640 654.9 656.9 658.4 659.4 658 658.1 643 644.5 642.2 625.1 595.3 555 481.8 431.2 400.9 378.4 356.4 342.5 327.6 323.4 321.3 320.4 321.4 324.8 334.7 348.7 365.7 392.1 416 439.5 465.3 480.8 487.1 494.4 484.1 464.9 473.2 476.2 477.4 482.4 488.9 482.7 467.2 453.1 422.1 408.6 403.4 397.1 396.4 394.5 396.8 402.4 412.8 436.8 443.2 484.4 506.2 525.3 533.4 545.1 557.2 570.1 579.6 589.7 597.1 597.4 590.9 590.5 576.3 526 512.7 513.3 499.2 490.8 474 460.1 474.4 470.5 460.4 437.7 425.1 397.9 381.1 404.2 442.8 460.2 463.3 478.4 476.2 473.3 425.8 394.7 375.3
6.4 6.4 6.4 6.4 6.4 6.4 6.4 6.4 6.4 6.4 6.4 6.4 6.4 6.4 6.4 6.4 6.4 6.4 6.4 6.4 6.4 6.4 6.4 6.4 6.4 6.4 6.4 17 32.2 47.7 73.5 94.7 136.2 182.2 203.8 177.7 167.8 210.4 244.2 282.1 301.8 313.2 342 354.1 335.1 291.6 296.8 315.2 330.3 345 362.8 371.1 376.4 382.5 387.6 393.7 400.6 407.5 417 426.3 438.4 475.6 510.9 539.9 552.6 557.1 542.2 514.1 497.6 480.2 448 422.6 409.5 394.1 383 380.7 358.2 338.3 324.2 320.1 314.4 305.8 296.6 288.1 278.4 271.2 267.6 267.5 274.1 294.4 322.8 356.7 383.3 395.5 403.7 416 425.9 437.5 452.7 456.9 462.7 467.1 495.8 530.2 566 597.7 624 640.2 641.7 642.4 644.6 646.4 643.7 636.7 641 645.7 630 608.9 595.3 517.1 447.5 416.7 388.5 363 350.5 336.2 332.1 342.1 338.8 342.9 343.8 354.4 360 372.9 394.7 419.5 439.2 456.2 470.5 476.7 489.4 488.9 478.5 470.8 469.2 468 468 466.4 468.3 460.6 442.9 424 406.1 395.3 393.1 392.1 393.5 400.2 403.5 434.6 440.4 456.2 470.2 485.3 500.5 511.7 527.5 533.2 546.3 566.3 582.2 586.6 593.9 594.8 594.6 580.6 580 570 555.2 530 519 498.7 495.2 503 483.3 459.4 427.3 412.5 399.4 390.2 407.8 435.7 446.3 452.5 469.6 470.3 471.2 456.8 445.2 415.2
6.4 6.4 6.4 6.4 6.4 6.4 6.4 6.4 6.4 6.4 6.4 6.4 6.4 6.4 6.4 6.4 6.4 6.4 6.4 6.4 6.4 6.4 6.4 6.4 6.4 6.4 6.4 6.4 11.4 28.7 47.6 70.6 102 143.1 175.2 151.6 155 195.1 228.4 254.5 277.4 290.2 323 340.6 335.9 302.9 267.2 285.4 310.8 336.1 354.9 364.5 372.4 378.1 382.6 388.7 395.5 403.9 413.6 420.6 436.9 476.5 503.8 535 555.6 556.8 544.4 516.7 499.4 487.4 454.3 426.4 408 393.3 379.3 373 359 337 332.9 327.3 321.3 308.3 295.4 287.6 278.2 271.9 268.3 269.9 276.8 298.3 325.1 352.4 381.3 389.3 400.7 414 426.6 441.1 447.8 453.3 460 467.8 496.5 519.6 555.4 584.2 609.9 621.5 625.3 625.2 627 631.3 631.1 642.2 642.7 642.6 620.7 603.6 587.7 553.8 470.8 435.3 410.1 377.2 358.3 345.3 341.1 348.2 350.9 356.1 362.2 372.6 386.3 396.3 410.2 422.4 435.4 446.2 457.5 466 471.9 476.4 473.5 470.6 465 462 458.6 454.5 449.3 443.9 426.4 414.4 402.8 397.7 393.3 393.8 397.2 402.4 418.7 422.1 422.3 433.5 452.1 461.7 475.4 484.5 498.8 507.2 518.7 542.2 559.2 570.9 588.8 585.8 593.2 612.4 621.7 620.4 596.4 569.2 552.8 539.4 513.2 497.3 473.2 452.1 420.4 402.7 393.5 393.3 418.9 426.8 424.6 441.9 450.8 460.8 476 495.7 497.3 474.7
6.4 6.4 6.4 6.4 6.4 6.4 6.4 6.4 6.4 6.4 6.4 6.4 6.4 6.4 6.4 6.4 6.4 6.4 6.4 6.4 6.4 6.4 6.4 6.4 6.4 6.4 6.4 6.4 6.4 13.7 28.1 45.1 67.2 104 151.9 131.9 136.4 177.7 219.7 241.2 257.8 276.5 308.4 315.2 316.1 271.4 257.2 283.4 315.9 338.2 351.9 361 368.3 374.5 380.9 386.9 393 399 411.3 417.7 434.5 465.3 490.2 524.2 549.5 564 542.8 521.3 494.3 482.7 465.9 436.2 410.6 395.8 383.1 367.6 353.3 341.3 346.9 342.1 329.2 319.2 294.8 286 278.3 272.8 269.3 273.5 280.4 294.7 319.7 343.2 361.7 387.5 399.8 411.9 426.3 440.4 447.5 453.3 459.7 468.9 492.3 510.9 533.3 565.7 592.2 600.9 604.4 606.2 609.8 612.6 624.7 639.8 639.3 630.6 616.9 600 583.9 550.6 486.2 458.5 426.5 394.6 370.8 356.9 347 348.9 357.5 365.8 379.2 382.2 403.2 419.1 437.3 440.8 448.4 454.3 457.7 461.9 465.5 468.8 470.4 467 463.4 456.5 454 449.1 442.7 435.3 423.3 412.2 400.7 394.1 389.6 390.9 390.5 405.3 404.4 407.3 409.4 421.3 436.2 442.2 449.4 461.8 468.8 481.8 495.5 517.5 528.8 546.2 564.9 571.8 598.3 623 628.2 635.8 628.5 606.3 590.7 555.9 521 500.9 467.9 446.1 414.7 399.7 396.6 394.5 402.2 410.3 411.5 421 435.6 458.3 475.3 489.1 488.6 482.9
6.4 6.4 6.4 6.4 6.4 6.4 6.4 6.4 6.4 6.4 6.4 6.4 6.4 6.4 6.4 6.4 6.4 6.4 6.4 6.4 6.4 6.4 6.4 6.4 6.4 6.4 6.4 6.4 6.4 6.4 9.8 27.5 48.1 71.1 104.9 102.5 133.6 180.2 212.9 231.9 237.6 265.5 284.7 284.6 286.4 243.1 263.1 299.7 324.4 334.3 346.8 356.5 365.2 373 379.2 385.6 391.1 398.3 412.3 420.1 433.5 462.7 479.7 504.9 543.4 552.6 538.6 523.4 495.2 479.3 465.8 435 413.9 400 397.2 393.3 372.6 350.6 360 348.6 332.8 321.7 294.3 285.2 277.4 273 271.5 274 281.5 295.5 316.6 339 362.4 378.9 399.3 412.7 423.7 438.6 446 462.5 463.6 466.2 487.1 504.1 525.5 549.6 571.2 576.7 583.7 587.9 590.6 596.7 613.1 621.9 624.7 613.2 603.9 588.5 572.3 548.8 494.2 461.5 437.8 413.3 388.5 368.2 357 352.1 361.6 377.3 384.5 401.2 414 436.2 460.6 466.8 472 479.3 473.8 472 466.5 465.1 468.4 463.9 460.1 454.3 450.6 446 439.9 428.2 420.1 413.1 404.9 399.9 391.8 387.2 387 391.1 392.8 395.7 400.7 404.9 414.3 422.5 434.1 443.7 442.6 452.2 466.3 488.6 501.5 517.5 537.5 558.9 599.5 617 629.2 638.3 640.3 644.1 627.8 577.8 538.5 508.6 476.4 442.1 427.2 420.9 400.4 394.5 395.6 399.2 403.7 414.8 431.4 465.4 474.1 480.8 475.4 469.2
6.4 6.4 6.4 6.4 6.4 6.4 6.4 6.4 6.4 6.4 6.4 6.4 6.4 6.4 6.4 6.4 6.4 6.4 6.4 6.4 6.4 6.4 6.4 6.4 6.4 6.4 6.4 6.4 6.4 6.4 6.4 14.5 32.4 55.9 71.8 88.6 117.3 158.6 190.2 220.2 219 250.2 257.2 255.7 231.6 236.4 275.7 316.6 332.1 338.9 350.3 353.8 358.6 366.4 374.6 384.5 390.4 401.5 415.1 423.3 437.5 468.8 493.8 501.3 531.7 535.6 528.5 520.7 501.5 470.3 455.5 438.5 417.2 411.7 412.2 401.3 390.2 365.2 360.2 347.9 333.2 316.5 295.7 285.6 277.3 272.5 273.1 275.6 283.9 299.7 318.4 345 372.9 376.1 390.4 400.4 413.6 427.5 444.9 467.9 467.4 466.3 484.3 504.9 515.4 533.8 549.8 555.5 562.9 569.6 573.1 585.5 601.6 607.9 609.3 599.7 590.5 573.2 563.8 534.7 499 470.8 444.9 424.7 397.5 379.3 366.2 360.9 376.1 393 399.8 420.9 438.1 460.5 483.1 502.4 516 513.9 504.1 494.7 480.8 467.8 461.6 460 457.1 449.2 447.5 444.6 436.7 425.3 415.3 410 406.8 399.7 394.2 386.9 386 386.1 384.3 387.8 390.6 394.5 398 407.1 416.1 423.5 423.8 429.1 441.6 458.6 477.2 490 523.7 546.4 567.8 596.1 606.2 618.2 622.6 628.3 626.4 604.3 560.1 522.5 488.5 463 450.1 429.4 407.6 397.3 396.2 396.4 399.8 415.2 445.9 458.7 465.8 466.9 462.8 448.8
6.4 6.4 6.4 6.4 6.4 6.4 6.4 6.4 6.4 6.4 6.4 6.4 6.4 6.4 6.4 6.4 6.4 6.4 6.4 6.4 6.4 6.4 6.4 6.4 6.4 6.4 6.4 6.4 6.4 6.4 6.4 13.1 24.1 38.6 44.3 63.8 91.8 117.6 155.2 192.7 198.1 221 213.8 204.5 210.6 254 308.7 345.9 336.2 342.5 354.3 349.4 355.1 367.9 374.9 384.2 390.6 400.7 412.2 427.3 435.9 465.8 484.4 488.5 521.1 523.3 515.2 505.5 489.9 464.4 452 435.4 420.3 414 410.8 407.3 401.6 381.3 356.3 347.2 333.1 315.6 297.1 285.8 278.7 273.5 276.7 276.7 284.5 307.8 331.7 344.2 363.4 375.4 387.4 394.9 407.3 425.8 448.2 454.8 460.3 462.4 480.7 494.5 505.9 516 527.4 535.7 541.9 550.1 553.6 571.3 588 592.3 593.3 588.8 577.8 562.5 548.3 526.6 495.3 473.1 449.1 428.1 403.3 394.1 382.5 378.3 394.7 412.7 426.1 447.2 467.7 493.9 527.7 563.5 564.4 552 544.9 530.9 510 491.7 475.7 469 453.9 445.2 441.6 439.7 434.1 428.9 422.4 416.1 408.1 399.1 393.6 388.4 383.8 382.6 382.8 383.1 383.6 386 390.9 395.7 398.5 406.8 409.5 414.6 422.2 443.2 460.6 485.1 501.8 519.1 530.6 562 575.2 586.7 592.3 604.4 610 607.7 579 555.5 512.1 493.3 470.1 436.9 418.5 406 402.9 404.7 412.9 415.7 430.4 444.2 451.8 447.4 445.3 433.5
6.4 6.4 6.4 6.4 6.4 6.4 6.4 6.4 6.4 6.4 6.4 6.4 6.4 6.4 6.4 6.4 6.4 6.4 6.4 6.4 6.4 6.4 6.4 6.4 6.4 6.4 6.4 6.4 6.4 6.4 6.4 13.8 21.9 30.5 37.1 45.8 68.5 92.9 121.5 146.1 158.8 178.8 167.3 186.5 222.8 255.2 296.2 319.3 324.3 327.5 338 344.2 353 364.7 373.5 380.6 389.8 400.4 416.8 429.5 432 450.4 459.1 476.7 503.6 511.5 503.5 501 485 462.7 445 429.9 416.3 412 410.5 412.3 407.6 393.8 375.4 348 332.2 315.8 298.6 285.5 279.9 278 281.1 281.1 291.9 315 338.1 343.7 362 372.6 380.6 389.4 408.4 419.1 431.4 445.3 450.6 455.7 469.7 481.6 489.7 497.5 510.1 516.8 523.3 529.9 541 557.4 570.3 575 575.6 573.2 565.6 557 548.5 520.5 487.4 467.1 450.4 432.1 419 413.4 401.8 400.6 418.9 435 455.3 478.1 509.9 581.9 621.1 615.2 614.3 614.9 603.5 596.6 584.2 564 521.6 500 479.1 464.8 465.5 445.5 434.3 432.9 434.5 427.5 417.3 407.9 397.5 393.5 391.5 387.3 380.1 379.9 381 382.5 383.4 385.4 389.5 393.9 398.2 401.2 406.4 423.6 455.7 460.8 478.6 489.7 499.9 519.9 541.6 557 563.4 579.9 585.8 588.8 579.9 551.5 540 511.8 494.3 455 430.5 431.7 457.4 426 415.9 415.2 420.3 429.7 429.6 428.3 428 421.4
6.4 6.4 6.4 6.4 6.4 6.4 6.4 6.4 6.4 6.4 6.4 6.4 6.4 6.4 6.4 6.4 6.4 6.4 6.4 6.4 6.4 6.4 6.4 6.4 6.4 6.4 6.4 6.4 6.4 6.4 6.4 11.7 20.1 27.5 24.9 31.2 56.7 82.1 106.4 115.1 129.7 134.4 163.6 186.5 212.7 239 262.4 280.9 295.2 306.9 315.8 333.8 342.8 354.8 374.6 381.9 391.9 406.6 423.9 443.3 435 437.3 446.4 469.7 487 494 489.6 490.7 480.1 466.4 437.2 423.7 412.8 408.4 412.6 414.6 409.4 401.8 389.2 358.6 333.9 318.4 301.5 286.8 281.3 282.4 286.5 284.2 293.5 310.8 338.2 348.7 356.2 370.3 376.7 387.4 403.8 413.2 421.9 436 440.8 450.8 462.4 472.7 476.5 481.9 490.8 497.9 507.6 514.2 527.1 541.8 551.6 556.8 556 557.4 551.1 548.5 538.2 503.4 483.7 466.2 453.2 439.4 433.5 440.8 418.3 423.7 444.7 485.4 509.9 537 604.7 630.9 640.7 648.7 663.5 670.8 685.4 695.3 669.9 653.5 598.3 597.2 560.6 513.1 491 464.7 453.3 471.9 464.6 455.1 444.4 419.1 408.4 408.3 402.5 399.4 392.6 382.7 379.2 379.9 379.4 381.2 382.5 385.7 387.9 392.2 400.6 413.7 433 440.3 456.9 467.2 473.9 491.2 512.8 525.9 530.9 551.8 563.6 567.9 554.9 547.7 553.2 527.3 494.2 473.4 494.8 525.6 487.7 435.1 414.7 416.2 418.6 419.3 416.9 417.8 413.9 413.9
6.4 6.4 6.4 6.4 6.4 6.4 6.4 6.4 6.4 6.4 6.4 6.4 6.4 6.4 6.4 6.4 6.4 6.4 6.4 6.4 6.4 6.4 6.4 6.4 6.4 6.4 6.4 6.4 6.4 6.4 6.4 6.4 13.1 18.2 19.7 21.6 45.2 70 89.4 91.7 95.7 122.6 152 169.6 189.5 217.3 237.6 250.8 263 279.3 303.1 319.5 333.7 352.1 375.8 390.8 401.6 427.6 438.6 438.5 435.4 432 444.3 459.1 472.2 479.9 479.9 476.4 472.5 460.2 437.9 421.2 411.7 403.9 403.4 407.3 411.6 407.6 392.5 373.2 339 318.3 302.6 287.9 282.3 284.3 292.6 291.6 293.7 313.6 338.8 349.6 354.9 364.1 371.8 386.3 408.5 411.1 417.7 429.3 431.2 442.6 462.5 463.5 465.2 470.2 475.8 484 492.2 502.5 512.1 523.2 531.9 540.2 542 542.4 539.5 532.6 524.1 498.2 479.6 465.9 454.2 469.8 472.3 454.6 430.5 445 473.2 529.3 549.3 580.8 607.6 619 627.5 639.6 652.9 665.5 677.5 689.3 700.2 704 661.3 679.4 590.9 552.3 525.4 545.3 544.4 526.1 499.2 496.5 503.6 472.7 434.6 422.6 415.8 414.8 401.8 389.4 383 381.3 385.7 379.4 378.5 380.1 381.4 384.9 402 406 409.9 423 435.2 448.1 454.7 463.4 489.1 495.7 501.5 518 531.4 536.6 526.2 531.4 546.9 552.5 532.4 524.4 552.8 550.4 498.1 462.3 431.7 413.9 413.9 413.9 413.9 413.9 413.9 413.9
6.4 6.4 6.4 6.4 6.4 6.4 6.4 6.4 6.4 6.4 6.4 6.4 6.4 6.4 6.4 6.4 6.4 6.4 6.4 6.4 6.4 6.4 6.4 6.4 6.4 6.4 6.4 6.4 6.4 6.4 6.4 6.4 8.1 12.3 15.2 20 28.8 45.2 61 66.3 84.6 116.5 140.9 150.2 172.5 207 222.7 231.1 244 273.9 303 319.4 331 361.7 390.2 396 408.1 416 418.7 419.3 420 431.6 443.7 450 461.2 466.9 467.6 465.6 466.4 455.4 438.8 418.3 406.2 401.5 396.8 396.4 407.9 411.3 392.5 378.7 350 320.3 304 290.7 282.3 285 294.8 305.5 304.6 311.3 345.4 352.1 358.1 362.4 369.5 388 399.9 400.9 405.9 425.3 421.2 436.2 441.3 451.7 452.6 457.4 462.4 471.6 479.4 488.4 499.1 507.4 515.6 524 527.1 527.3 528.5 519 507.5 491.8 476.5 469 476.3 513.3 490.8 458.9 446.9 476.7 514.3 537.8 560.1 581.3 593.9 602.9 615.8 627.8 639.8 651.8 664.6 678.8 692.5 702.8 703.2 666.6 605.1 608 622.7 634.2 594.8 572.4 546.1 545.7 540.9 519.8 504.9 462.6 443.6 434.9 413.4 403 390.7 383.1 382.1 380 377.8 378.7 380.4 382.4 389 395 399.2 407.5 418.4 423.9 435 449.3 473.1 469.5 474.8 484.7 502 507.8 502.9 510.1 529.3 541 556.7 563 567 560.2 548 497 477.6 439.2 422.1 413.9 413.9 413.9 413.9 413.9
6.4 6.4 6.4 6.4 6.4 6.4 6.4 6.4 6.4 6.4 6.4 6.4 6.4 6.4 6.4 6.4 6.4 6.4 6.4 6.4 6.4 6.4 6.4 6.4 6.4 6.4 6.4 6.4 6.4 6.4 6.4 6.4 6.4 11 14.4 19.9 26.4 36.7 46.1 55.1 79.1 100.2 114.4 132.6 161.8 194.7 210 218.1 229.3 250.2 274 303.1 341.9 367.3 382.2 389 398.5 401.1 401.1 403.6 408.4 431.3 433.3 449 453.2 450.2 452 453.7 460.5 442.5 435.7 408.7 398.7 395 392 391 393.2 405.7 397.5 374.6 350.6 323.6 306 291.5 283.6 283.8 303 329.1 321.8 315.2 340.5 355.4 358.1 362 366.8 377.8 387.9 394.2 398.2 407.5 413.2 428.2 429.1 436.1 442.1 447.7 453.8 458.1 467 475.5 485.7 494 503 508.2 512.7 515.2 514.3 510 502.5 492.4 486.8 482.1 488.8 506.9 486.3 470.8 462.8 492.3 534 538.4 557.5 571.6 580.6 588.6 601.5 615 625.8 638.7 651.4 666 681.9 692 699.7 689.9 672.4 687.9 713.9 665.5 665.2 653.3 602.8 605.4 596.9 584.9 564.2 517.4 489.6 472.7 444.2 422.7 399.1 387.4 384.2 379.1 377.8 377.8 378.7 379.8 381.3 386.5 391.8 395.3 401.5 410.8 424.7 436.4 443.8 447 453.2 463.3 478.2 479.3 479.7 486.4 505.2 519.4 539 542.7 551.1 567.7 570.1 532.5 506.1 475 444.4 415.4 413.9 413.9 413.9 413.9
6.4 6.4 6.4 6.4 6.4 6.4 6.4 6.4 6.4 6.4 6.4 6.4 6.4 6.4 6.4 6.4 6.4 6.4 6.4 6.4 6.4 6.4 6.4 6.4 6.4 6.4 6.4 6.4 6.4 6.4 6.4 6.4 6.4 12 16 20.1 25.4 31.7 37.8 44.6 54.3 82.9 101.9 119.6 157.6 188.8 191.4 214.3 225.3 236.6 256 277.6 315.3 346 355.5 362.2 376.5 383.5 389.2 390.8 400.2 418.9 429.7 436.1 440.3 436.6 438.8 443.8 443.2 435 421 399.3 392.3 388.5 384 381.6 381 394 398.1 384.2 356.2 327.7 310 294.5 284.9 285.6 307.2 349.4 343.7 330.9 331.7 352.7 358.1 362.8 362.8 371 378.2 382.6 390.2 397 401.6 412.9 413.6 424.4 431.8 438.7 443.8 447.3 456.8 464.9 474.6 483.7 491.3 500.3 503.5 505.7 505.9 505.1 504.9 505.4 505.4 491.9 494.7 499.9 493 480.2 477.4 525.7 530.1 539.2 549.8 560.9 569.7 577.7 587.6 600.2 612.3 624.9 640 655.8 670.4 683 699.8 717.7 732.4 749.5 734 740.3 730.5 694.5 668.7 676.7 657.3 640.4 613.3 576.9 530.6 522.6 492.1 470.3 438.4 406.3 401.2 391.3 385.6 379.8 377.9 378.3 379.2 380.8 384.7 388.6 389.9 399 407.3 413.5 419.6 426.3 436.3 448.8 457.2 460.2 462.2 463.9 479.9 495.2 508.8 517.4 532.8 542.3 554.9 565.4 542.7 506 469 439.6 431.6 436.5 442.3 414.9
6.4 6.4 6.4 6.4 6.4 6.4 6.4 6.4 6.4 6.4 6.4 6.4 6.4 6.4 6.4 6.4 6.4 6.4 6.4 6.4 6.4 6.4 6.4 6.4 6.4 6.4 6.4 6.4 6.4 6.4 6.4 6.4 6.4 12.1 15 18.2 21.5 25.5 29.2 34 40.2 65.1 77.4 109.2 143.4 163.8 171.3 198 208.8 226.6 235 255.7 286.4 302.2 322.9 338.8 363.3 374.1 380.1 384.9 394.2 405.6 426.3 430.6 427.4 427.8 421.8 418.9 427.5 423.9 405.2 390 384.7 382.8 377.9 372.2 371.2 386.9 392.6 388.5 360.6 343.5 316.4 297.6 287.9 294.2 311.2 335.3 357.4 346 336.6 339.8 361.7 363.5 360.2 363 370.1 369.6 381.9 386.4 389.4 398.7 405.1 415.3 418.9 427.2 430.9 440.7 447.1 455.4 464 470.7 479.4 489.3 494 497.4 500.8 503.8 508.1 517.3 498.8 494.8 497.6 500.7 497.8 486.2 494.7 514.9 524.2 541.1 544.2 551.5 557 566.2 578.1 588.3 602.4 617.9 633 646.9 661.5 677.8 697 715.6 733.8 749.1 764.7 771.9 785.5 710.8 739.3 742.6 723.7 694.8 672.5 607.1 580.4 556.4 545 519.9 507 466.1 425.9 404.2 399.9 392.4 380.8 376.7 376.4 377.7 381.7 382.6 384.1 387.4 391.9 398 411.7 417.4 431.6 444.3 439.1 442.2 444 446 459.8 469.6 480.6 492.4 501.5 513 528.6 535.3 545.6 546.4 506.1 506.1 500 514.8 494.4 442.1
6.4 6.4 6.4 6.4 6.4 6.4 6.4 6.4 6.4 6.4 6.4 6.4 6.4 6.4 6.4 6.4 6.4 6.4 6.4 6.4 6.4 6.4 6.4 6.4 6.4 6.4 6.4 6.4 6.4 6.4 6.4 6.4 6.7 12.2 8.5 12.5 15.3 18.6 20.9 22.8 28.1 42.1 53.4 102.4 127.1 133.2 154.1 167.6 180.1 194.2 210.4 228.1 251.7 279.6 299.5 323.7 339.9 358.5 372.6 382.9 394.9 402.7 413.8 423.3 421.2 417.2 409.8 408.2 410.5 406 389.2 382.9 377.4 377.3 373.8 365.1 363.1 367.9 384.7 378.3 357.6 354 322.5 302.3 293.8 307.7 329.8 344.5 357.8 364.8 349.3 346.1 353.4 359.1 357.7 360.8 364.2 365.7 372.7 375.8 377.7 396.3 406.3 407.2 408.4 414.6 423.4 430.4 438.3 445.8 454.3 461.9 469.6 478 484.6 489.6 495 503.9 521 507.7 500.6 497.8 499.2 499 498.5 492.9 496.4 506.6 515.1 523.9 537.7 540.8 545.3 557.4 570.1 582.4 600.2 613.2 624 638.2 654.3 673.4 693.1 711.6 727.3 743.6 759.3 774 775.2 773.1 793.2 815.6 770.8 717.9 674.8 648.7 632.5 605.2 605.4 579.1 528.1 497.5 475.3 448.9 422.8 406.3 388.1 377.1 376 375.7 377.2 378.8 381.7 383.3 385.4 387 396.9 416.5 434 438 425.7 424.8 425.6 429.1 440.9 448.9 456.5 465.4 470.9 480.6 495.9 508.4 514.9 529.4 541.9 547.6 547.9 537.8 529.5 503.4
6.4 6.4 6.4 6.4 6.4 6.4 6.4 6.4 6.4 6.4 6.4 6.4 6.4 6.4 6.4 6.4 6.4 6.4 6.4 6.4 6.4 6.4 6.4 6.4 6.4 6.4 6.4 6.4 6.4 6.4 6.4 8.3 6.4 6.4 6.4 6.4 6.4 6.4 6.4 9.3 7.4 20.3 40.4 75.3 90.2 112.4 131.1 141.6 159.5 177.8 193.9 215.4 237.5 259.6 276.7 304.6 319.2 356.2 369.8 375.5 393 402.1 404.7 412.5 414.9 407.1 400.1 399.7 401 392.4 378.8 374.4 369.9 369.2 365.9 361.4 357.2 359.8 378.3 372.9 355.6 347.7 327.8 307.4 301.6 324.3 338.2 352.1 352.7 365.2 359.7 354.3 346.4 352 355.9 360.5 363.1 365.8 367 364.9 368.8 384.6 393.9 398.8 399.4 404.7 414 421.4 429.7 435.6 445.1 454 462.1 470.1 477.7 483.1 489 501.8 510.1 505.5 502 501.2 501.1 498.9 495.3 491.1 490.7 497.3 509.6 519.4 525.3 530.1 539.1 550.5 561.4 577 592.1 603.2 615.9 628.2 647.6 666.1 683.9 701.2 717.8 734.7 752.3 768.4 784.1 800.7 816 824.9 796.9 759.4 713.3 676.2 685.7 646.5 626 611.1 577.3 542 517.5 470.4 453.3 426.9 415.7 402.7 395.1 393.6 381.6 376.7 376.3 377.6 381.9 378.4 385.1 388.4 396.3 405.3 407.7 408.3 413.1 418.3 421.4 423 430.8 445.2 448.5 458.9 465.9 472.6 481.2 499.7 514.1 520.8 527.5 548.9 560.2 548.5
6.4 6.4 6.4 6.4 6.4 6.4 6.4 6.4 6.4 6.4 6.4 6.4 6.4 6.4 6.4 6.4 6.4 6.4 6.4 6.4 6.4 6.4 6.4 6.4 6.4 6.4 6.4 6.4 6.4 6.4 6.4 6.4 6.4 6.4 6.4 6.4 6.4 6.4 6.4 6.4 6.4 6.4 19.4 46.6 53 83 101.7 128.3 166.6 188.1 199.1 215.3 230.4 247.3 260.3 279.5 303.2 343.1 364.9 367 386.1 394.9 395.9 401.4 409.9 405 392.8 390.9 390.1 383.1 369.8 367.6 363.8 362.9 357.3 354.1 349.8 350.6 370.9 368.7 359.7 349.5 328.7 310.8 305.1 325.8 336.1 350.1 352.6 364.3 363.6 362 352.5 350.8 356.9 362.1 367.9 362.4 361.6 359.6 361.4 372.5 383.3 385.5 390.4 397.8 405.7 413.6 421.6 428.4 435.5 445.5 454.2 462.3 470.2 476.1 482.6 494.3 504.4 502.1 498.2 499.1 497.4 495.1 489 486.2 486 490.9 499.9 508.3 513.6 523.1 534.8 547.6 558 573.3 584.1 593.8 605.8 620.7 638.4 655.5 671.5 688.7 706.6 725.8 742.9 760.9 777.1 795.1 810.2 819.5 817.3 791.5 747.4 739.5 695.8 695.2 686.6 670.5 622.5 589.1 525.6 520 499.3 472.4 458.8 443.9 427 414.1 395.8 381 382.8 378.3 374.9 370.8 379.3 381.8 379.8 379.6 386.3 388 392.3 395.9 399.5 404.4 409.9 417.2 421.7 432.3 436.5 441.9 451.2 464.6 472.4 479.8 496.6 514.6 532.6 535.4
6.4 6.4 6.4 6.4 6.4 6.4 6.4 6.4 6.4 6.4 6.4 6.4 6.4 6.4 6.4 6.4 6.4 6.4 6.4 6.4 6.4 6.4 6.4 6.4 6.4 6.4 6.4 6.4 6.4 6.4 6.4 6.4 6.4 6.4 6.4 6.4 6.4 6.4 6.4 6.4 6.4 6.4 6.4 19.1 32.2 50.4 91.6 122.6 165.5 215.5 220 222.8 239.5 240.8 248.9 277.5 299.2 323.9 340.5 346.7 370.1 386 391.7 395.6 399.8 398.5 386.8 379.1 375.9 370.6 362.8 361.1 356.1 354.4 350.2 349.2 342.6 342.6 357 363.6 353 341.9 327 311.9 312.5 317.3 338 347.4 352.2 365.1 363.1 359.9 355 350.4 353.2 364.1 364.1 360.2 359.2 356 358.2 363.8 371.8 378 385.2 390 399.9 406.5 413.6 421.4 428.4 437.1 446.4 455.4 463 470 478.2 489.1 493.7 493.8 494.4 495.8 493.3 488.7 484.3 481.2 480.6 486.2 492.5 500.8 508.4 518.5 530.2 541.9 554 566.2 573.5 582.1 592.6 609.8 625.4 641.2 657.3 675.6 694 715.1 733 754.1 771.1 787.4 801.9 811.7 818.1 814.1 779.1 768.5 735.9 744.5 740.4 693.8 642.3 577 587.9 574.7 551.2 526.7 500.5 471.5 458.4 440.5 420.3 409.4 404.8 391.3 385.7 377.5 368 365.4 365.9 364.7 364.8 371.2 373 374.4 378.4 385.9 388 392.7 396.3 404.4 408.7 412.4 419.2 429.2 438.4 448.9 459.4 473.1 494.2 507
6.4 6.4 6.4 6.4 6.4 6.4 6.4 6.4 6.4 6.4 6.4 6.4 6.4 6.4 6.4 6.4 6.4 6.4 6.4 6.4 6.4 6.4 6.4 6.4 6.4 6.4 6.4 6.4 6.4 6.4 6.4 6.4 6.4 6.4 6.4 6.4 6.4 6.4 6.4 6.4 6.4 6.4 6.4 6.4 14.6 46 75.5 105.3 143.5 189.2 204.2 225.9 222.5 236.6 245.4 263.3 277.3 322.9 321 332.4 362.1 381.4 383.3 390.5 387.1 378.6 375.3 366.9 360.1 356.3 354.4 352 350.6 348 343.4 340.4 337.1 335.6 348.1 357.5 346.9 341.8 324.8 311.1 310.7 311.7 328.4 343.9 349.2 358.5 362.3 360.5 357.8 350.4 347.7 355.3 357.5 357 358.6 357.1 354.3 358.7 369 374.7 380.9 384.6 392 401.1 408.7 415.3 421.9 430.4 438.9 448.1 455.6 464.4 474.3 483.9 484.1 487 489 487.5 483.2 480 476.5 475 474.5 481 488.3 495.5 503.8 515.1 524.1 534.5 544.8 552.3 561.9 573 585 597.2 613 627.3 642.8 663.8 684.1 705.6 726.9 748.2 766.4 782 796.4 806.3 813 816.6 816.4 814.1 793.3 792.4 744.1 692.3 650.3 635.8 643.8 640.3 610.3 578.3 549.3 518 515.2 494.4 454.7 442.6 428.8 414.4 406.7 393.6 381.2 376 367.9 364.5 364.2 358 350.3 359.2 364.4 363.7 364.5 369.2 375.2 379.3 382.8 388.1 392 400.3 410.6 417 428.7 442.5 458.7 478
6.4 6.4 6.4 6.4 6.4 6.4 6.4 6.4 6.4 6.4 6.4 6.4 6.4 6.4 6.4 6.4 6.4 6.4 6.4 6.4 6.4 6.4 6.4 6.4 6.4 6.4 6.4 6.4 6.4 6.4 6.4 6.4 6.4 6.4 6.4 6.4 6.4 6.4 6.4 6.4 6.4 6.4 6.4 6.4 6.4 31.1 65.2 71.2 108.7 150.2 167.1 183.9 214.6 220.8 231.3 236.7 250.6 274.9 301.7 318.2 345 357.5 364.2 371.6 369 366.7 356.7 353.2 347.1 344.4 342.5 342.5 342.6 340.9 338.1 332.3 332.6 329.4 338 352.5 341.4 336 323.2 321.4 315.1 312.6 315.4 336.3 340.7 351.1 359.4 360.5 354.5 346.8 342.4 347.4 350.8 352.6 354.2 356.4 351 355.1 369.5 372.5 376 380.5 385.3 392.7 402.4 408.2 416 422.6 432.3 440.2 448.6 458.3 466.6 471.6 475.5 479.8 477.5 475.4 474.7 471.3 470.1 469.1 471.6 478.4 483.4 490.6 501.3 510.8 520.2 529.5 537.2 543 552.9 563.5 573.4 584.5 598.9 615.1 632.8 656.1 676.5 697.3 720.5 741 760.7 778.5 791.5 801.3 809.3 813.3 816.5 819.5 818.8 810 757 720.9 696.4 686.9 697.8 705 669.2 629.2 595.8 561.4 576.5 543.5 498 469.3 453.1 439.8 427.5 417.5 413.5 404.8 391.9 378.8 376.6 369 357.8 347 342.1 345 344.2 348.7 354.6 359.6 363.6 370.4 373.1 382.8 396 399.8 405.4 415.4 429.7 441.7
6.4 6.4 6.4 6.4 6.4 6.4 6.4 6.4 6.4 6.4 6.4 6.4 6.4 6.4 6.4 6.4 6.4 6.4 6.4 6.4 6.4 6.4 6.4 6.4 6.4 6.4 6.4 6.4 6.4 6.4 6.4 6.4 6.4 6.4 6.4 6.4 6.4 6.4 6.4 6.4 6.4 6.4 6.4 6.4 6.4 6.4 24.3 48.5 70.4 103.4 124 166.5 196.3 195.6 210.7 216.2 227.5 248.6 267.7 287.1 309.8 316.6 331.5 342.5 347.7 359.5 346.7 339.7 338.2 336 333.7 333.9 330.8 331.3 328.9 327.2 326.4 322.9 328.3 339.4 334.4 326.8 315.8 321 317.4 313.2 313 326.3 332.6 342.8 351.4 365.9 352.7 352.4 340.6 341.6 344.3 346.3 346.5 348 347.1 353.1 365.1 368.5 370.8 374.6 381.3 388 396.2 401.5 409 417 427 434.5 441.1 449.2 457.3 461.7 465.7 467.6 465.3 466.1 467.1 465.5 464.7 465.4 464.9 468.9 476.2 488.3 498.5 505.9 511.5 519.9 526.1 534.1 543.9 554 564.1 576.2 591.1 608.9 627 646.7 670.8 693 715.1 735.4 755.8 773.7 787.2 797 805.5 810.6 815.5 819.1 820 814.5 797.7 758.5 739.1 741.4 758.2 735.2 707.2 671.5 638.5 621.2 625.8 587.7 536.2 511.4 488.9 466.5 467.6 466.1 444.5 431.4 419.3 404.2 388.5 380.3 367.5 353.5 348.8 340.4 337.1 334.4 341.1 339 343.7 350.7 356.8 364.5 376.3 382.7 385.3 398.5 405.7 419.4
6.4 6.4 6.4 6.4 6.4 6.4 6.4 6.4 6.4 6.4 6.4 6.4 6.4 6.4 6.4 6.4 6.4 6.4 6.4 6.4 6.4 6.4 6.4 6.4 6.4 6.4 6.4 6.4 6.4 6.4 6.4 6.4 6.4 6.4 6.4 6.4 6.4 6.4 6.4 6.4 6.4 6.4 6.4 6.4 6.4 6.4 6.4 22.6 45 62.4 108.3 137 144 169 179.3 198.4 197.6 224 229.3 240.7 272.9 287.3 295.1 312.4 334.1 339.2 336.1 326.1 323.6 329.6 327 325.8 326.1 325.2 323 321.6 322.9 320.2 319.8 331.8 328.3 319.7 307.6 316.7 319.6 316.1 321.8 314.7 323.9 335.2 344.4 358.9 351.6 350.5 341.4 340.7 340.9 341.1 342.2 343 341.9 348.5 358.3 361 364.2 369.6 377.1 384.7 393.9 397 404.3 411.3 419.5 427 434.3 440.9 446.2 451.3 455.8 456 458.2 460.3 462.7 462.3 462.6 462.1 462.7 465.5 471.2 481.1 490.5 496.7 503.1 507.7 513.9 524.1 533.9 544 557.5 571.3 586 603.9 623.3 644.9 668 691.3 711.8 732.5 752 767.2 781.6 792.8 801.4 809.6 815.1 819.3 821 821.7 820.8 789.1 804.7 793 813.9 779.4 764.3 725.4 701 709.9 686.1 613.5 590.1 578.3 532.4 543.8 563.6 527.1 500.6 477.7 451.1 415.6 414.2 396.7 383.7 375.6 368.4 356 343 334.8 327.5 330.2 331.3 338.9 342.7 347.7 355.6 363.1 371.4 380.5 386.9 400.2
7 6.4 6.4 6.4 6.4 6.4 6.4 6.4 6.4 6.4 6.4 6.4 6.4 6.4 6.4 6.4 6.4 6.4 9.3 6.4 6.4 6.4 6.4 6.4 6.4 6.4 6.4 6.4 6.4 6.4 6.4 6.4 6.4 6.4 6.4 6.4 6.4 6.4 6.4 6.4 6.4 6.4 6.4 6.4 6.4 6.4 6.4 6.4 10.7 33.5 77.3 96.5 109.9 128.4 147.8 158.4 164.4 173.8 188.6 214.1 234.4 264.8 272.2 274.9 296.3 312.1 319.4 315.8 314.2 318.6 325.2 323.5 323.3 326.7 322.4 318.1 317.8 314.6 311.3 316.8 319.3 310.3 301.4 309.6 327 331.1 333.8 317.9 315.1 328.1 340.4 346.6 349.5 345.3 344.2 339.9 339.9 338.6 338.2 339.1 338.8 343.2 349.4 355 360.1 364.5 371.3 380.4 388.2 393.4 399.1 404.9 409.6 417.9 427.6 434.7 438.6 442.2 444.6 442.5 441.3 448 454 453.6 459.6 459.7 462.7 464.9 468.1 475.4 483.2 485.5 490.3 495.7 504.1 516.8 528.2 540.1 555.7 569.2 585.1 603.1 623.4 646.6 668.8 691.9 712.9 731.7 749 763.9 775.9 787.7 800 809.7 815.7 820.5 822.8 824.2 824.1 820.4 828.2 831.2 832.8 827 800 746.6 789.4 753.2 687.1 660 639.4 614.9 596.3 616.5 625.1 572 538.5 500.5 451.2 449.2 436.9 419.5 416.5 410.9 399.9 389 372.8 361.7 345.5 329.7 322.3 324.4 326.5 332.5 338.8 344 352.7 359.7 366.5 377.4
10.2 6.4 6.4 6.4 6.4 6.4 6.4 6.4 6.4 6.4 6.4 6.4 6.4 6.4 6.4 6.4 6.4 6.4 6.4 6.4 6.4 6.4 6.4 6.4 6.4 6.4 6.4 6.4 6.4 6.4 6.4 6.4 6.4 6.4 6.4 6.4 6.4 6.4 6.4 6.4 6.4 6.4 6.4 6.4 6.4 6.4 6.4 6.4 6.4 6.4 19.3 64 79 98 124.1 122 128.8 145 163.9 179 200.9 225.2 242.2 248.2 254.9 266.2 284.3 301.3 302.5 307.9 324.2 319.7 321.4 319.6 322.1 318.8 311.2 309.3 303.9 309.3 311.6 304.9 298.7 310.9 330.2 342.3 337.2 326.6 315.5 320.5 339.4 339.6 345.9 342.8 339.4 339.2 341 338.5 335.8 336.2 336.7 337.9 343 349.2 354.6 361.8 366.5 375.2 383.3 390.2 395.2 398.8 402.8 410.3 419.3 425.1 428.1 424.8 437.4 448.6 454.9 461.5 463.7 461.9 456.4 459.5 461.3 464.1 466 468 473.1 477.1 482 492.8 502.2 514.8 526.3 538.2 550.5 567.9 586.2 606.9 629.6 654.9 673.3 694.7 715 732.3 745.6 759.5 772.3 786 801 809.7 816.7 822.4 825.8 827 828.1 831.1 835.2 838.9 841 841.4 829.1 819.9 817.4 781.3 736.2 721.3 680.6 672.3 631.5 679 643.9 603.8 560.3 505.1 498.6 480.3 453.1 453 454.7 447.5 433.7 433.1 407.6 390.3 368.8 347.2 336 326.9 318.6 318.8 324.7 327.7 331.5 338.3 346.5 354.6
10.9 6.4 6.4 6.4 6.4 6.4 6.4 6.4 6.4 6.4 6.4 6.4 6.4 6.4 6.4 6.4 6.4 6.4 6.4 6.4 6.4 6.4 6.4 6.4 6.4 6.4 6.4 6.4 6.4 6.4 6.4 6.4 6.4 6.4 6.4 6.4 6.4 6.4 6.4 6.4 6.4 6.4 6.4 6.4 6.4 6.4 6.4 6.4 6.4 6.4 6.4 12.3 53 70.1 79.5 84.8 108.2 127.6 135.8 152.6 167.6 183.6 206.2 218.1 228.8 240.9 253.2 275.1 279.2 292.1 313.2 306.5 313.6 310.8 317.5 308.5 301 302 295.4 298.4 309.4 306.4 297.9 303.1 326.3 332.7 331.1 328.4 319 316.6 328.5 335 338.7 345.2 344.7 336.2 340.5 344.7 339.8 334.6 334.1 334.4 336.3 343.4 347.2 354.8 362.3 370.6 378.2 386.2 388.4 391.9 399.5 403.4 410.2 414.6 422.6 434.2 443.1 450.9 457.3 463.7 466.5 466.1 462.9 461.2 462.7 463.3 465.5 468 472.1 477.2 484.7 489.8 506.2 514.2 524 535.9 550.4 575.9 597.9 618.2 639.3 658.5 677.1 694.9 712.6 728.4 743.5 756.4 772.2 788.1 799.5 810 819.5 827.5 829.9 831.3 833.7 838 840.9 845.1 847.7 848.4 845.6 839.2 825.5 806.8 780.8 754.3 740.2 724 669 684.4 666.3 613.9 554.3 551.9 535.8 504.8 507.3 500 496.7 498.9 495.5 488.7 442.1 416.4 393.9 373.1 358.2 341.2 328 317.1 316.1 315.8 319.1 321.8 325.9 335.2
12.8 6.4 6.4 6.4 6.4 6.4 6.4 6.4 6.4 6.4 6.4 6.4 6.4 6.4 6.4 6.4 6.4 6.4 6.4 6.4 6.4 6.4 6.4 6.4 6.4 6.4 6.4 6.4 6.4 6.4 6.4 6.4 6.4 6.4 6.4 6.4 6.4 6.4 6.4 6.4 6.4 6.4 6.4 6.4 6.4 6.4 6.4 6.4 6.4 6.4 6.4 6.4 7.9 31.9 36.9 62.9 86.7 102.1 112.5 131.1 146.8 157.9 176 191.8 206.4 224.5 234.9 245.3 256.6 275.1 295.8 292.4 292.2 301 304.4 296.7 292.7 293.2 286.5 281.7 309.6 312.5 297.6 294.5 316.2 324.8 323.2 322.2 322 316.4 319.1 330.5 335.1 338.4 342 335.3 341.6 352.7 352.8 337.4 332.6 331 331.6 337.7 341.2 348.7 357.1 363.2 369.7 374.3 378.7 385.1 393.4 397.4 400.6 413 425 433.9 441.8 450.7 458.4 464.3 468.2 468.6 466.1 463.5 464.2 464.5 465.5 470.6 476.1 482.4 490.8 503.5 512.5 519.5 528.2 542.7 561.4 587.6 608.3 627 642.8 660 678.5 695.1 711.5 728.6 741.2 754.5 772.7 787.8 800.7 812 823.4 831.1 833.1 835.6 838.8 842.3 845.8 849.9 854.3 855.3 851.3 844.6 829.5 812.1 795.2 775.9 747.8 726.7 699.8 686.9 655 608.5 566 579.9 563.4 537.4 553.5 552.6 547.1 543.9 532.3 509.5 490.1 454.2 420.3 396.3 379.8 358.6 338.7 321.3 315.2 314.6 314.3 314.9 315.1 315.7
6.4 6.4 6.4 6.4 6.4 6.4 6.4 6.4 6.4 6.4 6.4 6.4 6.4 6.4 6.4 6.4 6.4 6.4 6.4 6.4 6.4 6.4 6.4 6.4 6.4 6.4 6.4 6.4 6.4 6.4 6.4 6.4 6.4 6.4 6.4 6.4 6.4 6.4 6.4 6.4 6.4 6.4 6.4 6.4 6.4 6.4 6.4 6.4 6.4 6.4 6.4 6.4 6.4 6.4 6.4 27.3 47.8 63.7 87.3 114.9 126.8 138.6 146.8 166.5 182.1 202 215.3 223.8 237.9 249.2 273.7 277.5 274.4 274 276.2 276.2 277.6 280.4 273 265.1 280.7 297.9 299.1 294 299.3 314.9 316.8 318.9 316.4 316.7 323.6 325.2 332 334.1 335.9 334.6 335.5 352.6 351.5 339.3 331.6 330.8 327.8 331 337.4 346.4 353.4 357 362.4 366.5 372.3 379.2 384.9 395 404.8 414.3 422.7 430.7 439 448.1 456.8 464.7 468 470.1 468.1 464.4 465.3 465.4 466.1 476 484.1 493.6 505.5 517.7 526.1 533.9 541.2 553.3 582.2 602.4 616.5 633.7 649.5 664.3 678.8 696 710.3 725.2 735.9 756.1 773.7 790.8 804.2 815.9 824.8 831.5 835.9 838.9 842.3 845.7 849.2 853.4 856.2 857.1 856 849.1 831.2 812.2 795.1 772.5 745.3 724.6 708.2 700.3 660.5 616.4 620 640.4 598.4 568.1 589.1 595.7 593 585.7 574 557.4 523.4 480.2 445.8 421.2 398.1 378 361.6 343.9 323.4 313.9 313.4 312.5 312.2 311.4
6.4 11.9 6.4 6.4 6.4 6.4 6.4 6.4 6.4 6.4 6.4 6.4 6.4 6.4 10.4 10.6 7.7 6.4 6.4 6.4 6.4 6.4 6.4 6.4 6.4 6.4 6.4 6.4 6.4 6.4 6.4 6.4 6.4 6.4 6.4 6.4 6.4 6.4 6.4 6.4 6.4 6.4 6.4 6.4 6.4 6.4 6.4 6.4 6.4 6.4 6.4 6.4 6.4 6.4 6.4 6.4 21.7 45.9 56.5 81.2 89.5 116.1 141.5 152.1 164.4 171.9 180.4 209.4 221.6 234.1 249.9 259.1 258.4 259.9 259.3 258.5 262.8 264 259.6 248.3 264.8 286.4 300 295.9 288.4 298.9 306.5 311.2 314.9 317.8 325.2 318.4 326.1 331 334.7 335.8 332.1 339.9 339.1 336.7 331.2 330.8 325.4 326.5 332.2 338.2 344 348.5 351.4 357.5 362.7 372.9 372.7 393.4 402.3 414 422.1 428.3 435.7 444.1 454 461.2 465.4 469 469.5 468.2 467.3 468.7 473.3 486.1 497.3 505.6 517.9 538.3 551.4 556.8 559.4 571.1 595.7 613.8 632.3 643.1 653.7 665 682.4 691.5 706.8 717.8 735.6 755.1 775.6 794.1 807.3 817.4 825.7 833 837.7 842.1 845.6 849 852.3 855.4 857.7 857.9 855.9 847 828.6 809.3 792.4 772.9 753.2 731.4 715 706.3 655.4 649.2 676.4 685.8 615.5 598 620.8 630.4 643.3 641.2 630.8 600.7 580.9 529.7 468.6 455.7 421.5 405.8 387.4 369.6 346.2 328.4 320.1 312.1 311.7 311.2
10.8 11.5 6.4 6.4 6.4 6.4 6.4 6.4 6.4 6.4 6.4 6.4 6.4 6.4 7 8.4 6.4 6.4 6.4 6.4 6.4 6.4 6.4 12.3 6.4 6.4 6.4 6.4 6.4 6.4 6.4 6.4 6.4 6.4 6.4 6.4 6.4 6.4 6.4 6.4 6.4 6.4 6.4 6.4 6.4 6.4 6.4 6.4 6.4 6.4 6.4 6.4 6.4 6.4 6.4 6.4 6.4 6.4 23.4 44.7 74.6 102 119.1 129.4 135.6 140.5 159.1 197.6 210.3 214.6 223.1 239.9 242 244.7 244.1 240.7 243.3 244.4 243.9 232.8 249.1 276.4 305.4 302.1 289.7 282.4 290.5 298.8 308 314.3 315.7 318.2 316.3 326 336.9 333.3 329.7 339.4 334.1 331.3 329.5 336.8 329 320.9 326 332.3 337.1 340.6 342.2 345.9 353.8 355.8 374 387.3 398.6 410.6 418 426.4 434.1 441.7 448.9 454.2 461.2 465.6 469.1 470.6 472.3 475.7 482.5 497.7 513 521.2 536.7 549.4 559.8 568.9 572.2 581.9 610.9 625.9 636.3 645.3 652.1 661.7 670.8 683.1 697.2 712 732.7 755.9 775.8 794.4 807.4 817.4 826.1 833.3 838.1 843.8 847.6 850.9 853.9 856.5 857.1 855.7 852.2 842.2 820.8 802.8 784.8 769.3 752 730.2 721.2 689.7 675.3 669.9 694 680.8 639 623.3 659.6 688.2 703.9 722.8 710 638.4 620.1 533.5 521.9 490.7 457.9 434.7 415.8 395.3 369.4 347.1 330.6 316.6 311.7 311
11.2 6.4 6.4 6.4 6.4 6.4 6.4 6.4 6.4 6.4 6.4 6.4 6.4 6.4 6.4 11 11.5 6.4 6.4 6.4 6.4 6.4 6.4 7 6.4 6.4 6.4 6.4 6.4 6.4 6.4 6.4 6.4 6.4 6.4 6.4 6.4 6.4 6.4 6.4 6.4 6.4 6.4 6.4 6.4 6.4 6.4 6.4 6.4 6.4 6.4 6.4 6.4 6.4 6.4 6.4 6.4 6.4 6.4 17 51 81.1 93.1 106.7 108.7 130.3 153 179.6 187.6 190.5 206.1 216.3 233.4 232 227.9 223.6 224.6 222.4 223.3 212.9 230.3 267.7 310.7 307.8 300.2 288 277.5 284.2 293.3 304.7 307.3 316.8 320.5 314.2 328.1 335.4 326 326.5 328.6 326.1 325.2 324.9 328.2 321.2 317.8 321.3 326.5 330 332.9 335.8 352.1 362.7 374.2 386.8 397.7 407.4 415.5 424.9 432.8 439.2 446.2 451 462 464.5 467 471.3 475.4 480.6 490.6 509.9 526.2 532.7 545.5 558.3 570.4 577.8 582.5 594.5 617.7 629.3 634.9 641 646.2 653.6 662.9 673.8 690 708.2 729.6 754.7 776.6 794.7 807.4 818.9 826.6 833.9 839.1 845.1 849.4 852.5 854.8 855.8 854.8 852.8 846.8 835.8 815.7 797.9 777.6 765.1 746.2 735.5 723.6 702.8 684.8 698 702.5 696.9 662 655.3 700.6 711.6 721.1 728.7 725.3 690.8 608.9 586.3 554.2 541.8 512 486.9 447.9 419.1 389.5 366 350.1 333.1 321.8 311.8
11.2 6.4 6.4 6.4 6.4 6.4 6.4 6.4 6.4 6.4 6.4 6.4 6.4 6.4 8.3 10.6 12 6.4 7.6 12.3 6.4 6.4 6.4 11.3 12.8 13.2 13.6 14.9 6.4 11.2 6.4 6.4 6.4 6.4 6.4 6.4 6.4 8.4 11.4 6.4 6.4 6.4 6.4 6.4 6.4 6.4 6.4 6.4 6.4 6.4 6.4 6.4 6.4 6.4 6.4 6.4 6.4 6.4 6.4 6.4 22.1 52.2 75 83.1 90.9 125.9 140.5 153.9 167.6 178.1 186.2 206 230.4 221.4 214.2 210 208.4 201.9 200.2 195.6 213 243.2 296.8 299.3 298.2 295.7 280.8 271.1 271.9 296.5 303.1 310.5 317.5 311.8 317.3 325.8 325.9 316.7 319.6 316.4 319.7 313.6 315.5 319.3 311.6 315.3 317.7 319.9 323.9 337.7 347.8 357.3 369.7 382.5 396.2 405.4 411.9 422.6 434.7 437.9 441.5 447 457.4 461.7 465 468.7 475.6 483.9 495.8 517.6 529.5 537.1 545.7 559.1 576.2 583.7 588.6 605.1 620.3 621.7 625.4 628.7 634.7 642.5 652.9 665.6 684.5 704.1 728.1 752.3 774.2 792.4 807.4 817.5 825.1 832.9 841.2 847 850.8 853.1 853.7 853 850.8 847.8 840.6 826.4 809.6 794.5 775.4 759.4 746.9 736 727.9 717.8 716.7 724 729.5 717.1 696.7 691.9 700.2 705.7 715.9 718.2 719 678.4 668.5 624.1 602.9 584.2 556.1 522.7 488.9 436.7 409.3 387.4 370.3 351.4 335.6 320
6.4 6.4 6.4 6.4 6.4 6.4 6.4 12.6 9.2 6.5 6.4 6.4 6.4 6.4 6.4 6.4 6.4 6.4 12.1 12.6 6.4 6.4 6.4 6.4 12.4 13.1 13.7 14.1 15 6.4 6.4 6.4 6.4 6.4 6.4 6.4 8.4 9.6 8.4 6.4 6.4 6.4 6.4 6.4 6.4 6.4 6.4 6.4 6.4 6.4 6.4 6.4 6.4 6.4 6.4 6.4 6.4 6.4 6.4 6.4 6.4 32.7 48.9 52.9 61.1 95.3 113.1 127.9 139.9 159.7 176.8 192.7 205.8 208 205.5 195.6 195.7 189.5 182.6 177.8 197.9 227.5 284.1 293.9 296.5 296.2 287.4 272.2 264.9 279.2 288.4 298.3 302.3 305.9 309.5 316.4 323.7 312.9 310 308.4 305.6 304.6 306.8 309.2 309.8 309 308.1 315.2 324.8 334.6 343.8 352.3 365.1 378.1 397.1 400.8 408.3 418.7 431.5 436.7 438.8 444 451.5 458.1 461.3 466 473.3 482.8 495.2 520.8 533.4 539.2 543.3 556.5 572.2 581.5 586.8 602 606.3 609 612.6 617.6 624.9 632 643.1 659.9 678.4 698.4 722.9 745.8 767.4 786.3 802.3 813.3 821.6 834.2 842.1 847.7 850.4 851.5 850.6 848.8 845.9 841 832.1 815 801.2 787.4 771.6 756.3 743.6 737.2 732.7 744.4 744.3 749 754.1 744.3 725.4 713 706.7 707.4 711.4 711.8 709.4 697.1 712.1 666.7 652 623.7 604.8 558.4 521.6 485.3 462.8 421.4 415.1 394.8 375.1 337.5
6.4 6.4 6.4 8.4 6.4 6.4 6.4 6.4 12.2 6.4 7.7 6.4 6.4 6.4 6.4 6.4 6.4 6.4 9.3 11.9 6.4 7.2 6.4 14.9 13.2 13 12.8 13.3 10.1 6.4 6.4 6.4 6.4 6.4 6.4 6.4 6.4 6.4 6.4 6.4 6.4 6.4 6.4 6.4 6.4 6.4 6.4 6.4 6.4 6.4 6.4 6.4 6.4 6.4 6.4 6.4 6.4 6.4 6.4 6.4 6.4 6.4 6.8 22.8 34.8 59.5 96.2 122.4 146.7 170.1 176.1 180.7 195.1 191.7 188.4 182.9 181.2 176.9 170.4 168.7 187.4 211.6 267.5 291.7 297.5 296.4 290.3 275.6 266.2 264.9 277.9 287.8 290.2 296.9 305.9 318.7 313.5 304.7 296.4 299.6 296.4 296 299.4 301 300.6 300.9 309 316.2 323 329.4 340.5 347.2 358.6 372.1 384.3 392.3 403.1 414.4 428.4 436 434.3 437.6 446.9 451.8 456.5 461.5 469.6 480.8 492.9 510.6 529.4 532.9 538.7 547.3 561.3 568.6 575.3 585.3 591.7 595.4 598 604.4 612.8 622.2 634.9 650.5 668.7 691.2 712.2 732.8 754 774.5 791 805.1 820.5 834 841.2 845.1 847.2 846.9 845.5 842.8 838.9 833.6 823.6 806.1 792.9 779.7 766.9 753.3 743.1 738.6 742.6 752.4 762.9 768.2 771.4 759.6 741.2 726.9 718.1 714.8 713.4 711.4 708 708.4 707.7 695.4 686.2 673.7 646.1 613.6 568 536.1 533.5 469.6 474.1 463.5 420.7 362.2
6.4 6.4 7.9 8.7 6.4 6.4 6.4 10.4 8.9 12.8 13 12.7 7.2 12.5 13 8.3 6.4 6.4 9.5 6.4 6.4 6.4 6.4 14.2 13.3 12.5 12.4 12.2 6.4 6.4 6.4 6.4 6.4 6.4 14.4 13 10.4 6.4 6.4 6.4 6.4 6.4 6.4 12.5 6.4 6.4 6.4 6.4 6.4 6.4 6.4 6.4 6.4 6.4 6.4 6.4 6.4 6.4 6.4 6.4 6.4 6.4 6.4 6.4 18.9 61.9 88.1 116.2 151.1 160.8 156.8 165.8 169 175.3 175.1 170.7 169.4 165 155.7 151.8 169.2 200.3 256.8 290.5 300.7 303.9 295.8 279.8 267.8 262.2 265.4 277.7 287 294 303.7 310.6 306 294.1 288.2 288.1 286.7 284.2 288 296.5 286.6 298.6 306.9 317.5 321.4 325.2 342.1 345.8 350.1 360.9 371.7 381 394.9 414.3 429.4 432.7 429.3 431.4 438.8 445.6 451.3 457.7 465.6 475 484.8 503.2 517.6 522.6 530.7 534.3 542.7 551.2 563.8 570.2 574.5 579 584.6 591.8 602.9 613.8 626.2 641 659.5 678 697.2 717.4 738.1 756 775.1 793.9 816.8 831.4 837.4 840.3 842.4 841.7 839.3 836.1 831.6 824.7 811.7 796.8 783.3 772.2 760.8 750 742.9 741.9 746.3 755.2 767 780.9 783.5 773.9 756.4 738.1 726.9 723.4 719.2 718 717 714.9 714.6 706.2 716.6 719.8 698.2 644 603.7 578.2 536.1 529 524.4 520.6 484.6 396.8
6.4 6.4 6.4 6.4 6.4 6.4 6.4 6.4 6.4 12.9 13.4 13.2 13.6 14 13.5 12.2 6.4 10.4 7.1 6.4 8.1 6.4 11.7 13.5 12.9 12.2 12 11.8 10.5 6.4 6.4 6.4 6.4 6.4 6.4 12.8 9.9 6.4 6.4 6.4 6.4 6.4 7.6 12.9 6.4 6.4 6.4 6.4 6.4 6.4 6.4 6.4 6.4 6.4 6.4 6.4 6.4 6.4 6.4 6.4 6.4 6.4 6.4 6.4 6.4 39.3 80.7 94.4 108.2 117 127.1 142.2 153.7 153.5 161 159 157.8 153.9 142.4 139 155.6 181.9 228.9 290.6 301.7 303.2 296.7 280.8 272.1 262.9 259.5 267.7 285.2 285 301.7 299 297.5 291.3 286.5 281.6 275.6 271.9 273.8 282 279.6 292.5 296.6 307.9 318.4 324 331.6 342.9 349.5 356.8 364.8 374.6 389 406.4 414.8 419.5 420.7 424.3 432.1 437.4 444.8 452.8 460.3 468.1 478.8 492.7 506 510.2 514.8 520.8 527.9 537.9 549.7 553.7 556.9 562.4 569.9 582.2 593.9 603.4 616.2 631.3 647.4 663.4 679.9 697.5 717.9 742.1 764.7 787.9 815.2 830.1 832.3 833.2 833.7 831.9 829.4 826.4 821.8 814.3 802.2 787.4 774.3 762.7 752.6 745.8 741.9 744 749.1 758.3 771.6 781.6 794.6 788.9 770.9 752.7 740 736.3 735.2 732 732.1 734.1 723.9 716.6 718.3 719 713.3 677.3 637.5 610.1 588 588 581.1 550.8 484.4 432.3
6.4 6.4 6.4 6.4 6.4 6.4 6.4 6.4 8 13 13.7 13.9 14.6 15.9 15 13.1 9.1 10.4 6.4 9.8 11 6.4 12.8 10.9 6.4 12.4 10.7 12.4 10.9 6.4 6.4 6.4 6.4 6.4 6.4 6.4 9.8 6.4 6.4 6.4 6.4 6.4 9.1 11.9 11 6.4 6.4 6.4 6.4 6.4 6.4 6.4 6.4 6.4 6.4 6.4 6.4 6.4 6.4 6.4 6.4 6.4 6.4 6.4 6.4 22.8 65.4 80.4 86.8 93.5 99.3 116.4 131.9 146.9 146.6 145.4 145.7 144 132.3 129.5 149.1 179.7 232.5 284.3 300.4 300.4 298.6 282.7 269.3 264.2 258.5 258.1 270.5 280.3 286.7 287.9 288.2 283.1 279.6 281.5 273.7 259.5 255.1 252.6 278 285.9 290.4 300 306.2 318.2 325.4 342.7 348.9 353.8 358.7 368.1 376.8 387.9 398.5 405.4 409.8 414.5 420.9 429.4 438.1 446.5 454.4 461.7 469.4 481 490.1 497.7 503.9 508.6 513.7 521.4 528.4 534.5 540.8 548.3 559.2 570.7 584.2 594.1 604.2 620.1 633.8 646.6 661 679.5 703.6 729.6 753.8 782.7 813.9 822 821.4 823.3 825.8 824.6 821.9 817.1 811.2 802.5 788.5 776 763.5 750.7 743.7 740.1 739.5 744.3 751.1 761.5 772.1 786.4 799.4 798.9 780.8 767 755.9 751.7 754.5 750.5 754.5 750.8 732.3 725.6 727 727.4 729.7 703.7 663.5 635.5 647.3 637 600.6 533.7 509.9 465.8
6.4 6.4 6.4 6.4 6.4 6.4 6.4 6.4 6.4 13.1 14.3 14.6 15.6 17.2 15.5 12.8 10.9 8.1 6.4 10.7 6.4 6.4 6.4 6.4 6.4 6.4 6.4 7.2 6.4 6.4 6.4 6.4 12.8 11 6.4 6.4 13.6 15.8 13.8 6.4 6.4 6.4 11.3 13.1 13 11.9 9.6 6.4 6.4 6.4 6.4 6.4 6.4 6.4 6.4 6.4 6.4 6.4 6.4 6.4 6.4 6.4 6.4 6.4 6.4 16 47.2 52.7 58.7 70.2 78.6 101.7 121.3 142.3 146.9 137.2 135.6 130.3 123.4 124.2 149.2 176 229.3 261.3 290.6 296.2 298.8 285.5 268.8 260.3 257 253.2 255.9 267.6 272.8 282.3 275 272.9 266.7 263.1 260.7 247.6 240.2 256.1 269.4 279.1 285.5 292.2 297.9 309.3 319.1 325 338.5 351.7 355.1 358.7 368.3 376.4 385.6 392.7 400.6 403.2 411.9 420.6 430.5 437.2 450.7 453.7 459.6 470.8 478.1 484.8 489.9 496.2 500.7 506.7 510.8 517 523.6 534.4 544.3 556.4 568.2 579.9 591.9 605 619.7 631.5 648.2 666.7 692.6 717.9 743.1 775.1 801.2 802.1 803.2 807.5 813.9 814.7 813.2 808.1 799.6 789.3 776.9 763.7 748.3 738 735 736.2 738.4 743.6 750.3 763.5 779.2 794.4 803.7 803.2 788.5 776.4 772.6 772.2 770.3 774.2 769.1 758.8 746 732.2 732.7 731.5 740 724 685.4 679.6 676.5 645.2 593.3 556.4 506.8 465.2
6.4 6.4 6.4 6.4 6.4 6.4 6.4 6.4 6.4 12.5 14.9 15.8 16.6 16.9 17 12.6 6.4 6.4 12.8 12.3 11.6 6.4 6.4 6.4 6.4 6.4 6.4 6.4 6.4 6.4 6.4 6.4 11.6 11 8.5 14.1 17.9 20 19.7 14.7 6.4 6.4 6.4 12.1 12 9.2 6.4 6.4 6.4 6.4 6.4 6.4 6.4 6.4 6.4 6.4 6.4 6.4 6.4 6.4 6.4 6.4 6.4 6.4 6.4 6.4 15.7 31.9 46.2 48.9 56.3 86.4 105.8 131.7 142.6 134.5 120.7 116.6 109.2 124.7 142.4 171.7 202.5 232.7 270.3 287.1 297.2 293.3 267.8 255.2 252 250.4 248.8 249.8 256.7 266.3 259.4 256.5 250.2 247.8 242.9 233.1 230 250.4 262.5 278.4 282.5 282.6 291.5 299.2 311.6 318.2 325.6 337.1 343.7 350.7 357.3 366.7 375 381.9 391 396.1 402.3 412.3 421.6 430.2 436.4 444.7 451.7 461.9 468.8 475 480.6 484.9 488.3 493.8 496.4 502.8 510.8 520.1 529.3 540.3 551.7 563.4 578.2 591.7 607.5 619.3 635.5 653.5 678.4 705.7 735.4 765.3 775 779.7 783.4 789.7 796 801.6 801.3 795.6 788.1 776.7 762.2 746.5 733 727 728.5 733.4 737.6 741.9 749.1 763.3 783.8 798.8 805.3 802 792.8 782.7 778.2 778.6 786.2 790.6 783.2 768.6 751.1 743.8 739.8 737.6 739.3 731.7 725.7 712.6 686.2 627.3 575.8 558.6 519.6 491.5
6.4 6.4 6.4 6.4 6.4 6.4 6.4 6.4 6.4 6.4 12.8 15 17.1 17.9 17.4 13.1 6.4 6.4 12.3 11.8 7.3 6.4 6.4 6.4 6.4 17.6 17 14.9 13.5 6.4 6.4 6.4 10.9 13.1 15.7 18.9 20.6 25.3 24.1 18.3 6.4 6.4 7.8 11.7 6.4 6.4 6.4 6.4 6.4 6.4 6.4 6.4 6.4 6.4 6.4 6.4 6.4 6.4 6.4 6.4 6.4 6.4 6.4 6.4 6.4 6.4 6.4 43.5 57.8 72.4 55 65.8 91.7 108 120.7 121.9 112.6 107.3 98.2 118.5 137.5 159.1 197.2 229.5 251.7 276.2 290.8 286.8 269.3 248.8 247.6 245.1 243.8 243.8 245.3 244 244.9 241.6 235.1 231 226.2 210.7 217.9 229.8 248.8 260.6 272.6 278.2 285.5 293.7 299.4 310.3 319.6 326.5 334.6 337.7 344.8 357.2 365 377.7 385.9 389.5 393.9 409 414.2 419.9 426.6 434.3 440.5 451.6 459.3 464.6 472.2 475.3 479.2 483.8 487.5 492.3 501.8 510.2 519.5 527.5 538.5 550.9 563.2 578 593.2 606.8 622.5 640 666.3 693.9 727 745.9 752.2 755.2 759.5 764.5 774.6 782.4 786.8 783.5 776.2 762.2 744.3 729.3 717.8 715.4 723.3 732.3 736.1 740.4 745.8 757.9 774.4 791.9 804.8 801.3 793.9 784.5 777.7 779.6 787.9 793.1 786.1 770.5 754.4 746.1 742.4 740.7 737.7 727.1 723.6 705.9 655.6 637.6 627.5 632.6 554 515
6.4 6.4 6.4 6.4 6.4 6.4 6.4 6.4 6.4 6.4 13.7 13 12.7 13 14.5 14.1 12.8 9 7.7 6.4 6.4 6.4 6.4 6.4 6.7 19.8 21.6 20.7 16.8 8.7 6.4 6.4 11 13.1 15.1 19.3 21.5 25.6 22.7 19.4 12.6 8.2 10.8 11.5 6.4 6.4 7.3 8.6 6.4 6.4 6.4 6.4 6.4 6.4 6.4 6.4 6.4 6.4 6.4 6.4 6.4 6.4 6.4 6.4 6.4 6.4 6.4 28.9 53.4 57.9 50.2 57.1 77.6 96.7 106.9 101.6 100.5 91.8 85.9 105.2 127.1 151.7 190.7 218.3 242.3 256.4 265 269 264.1 245.1 243.4 241.3 237.8 236.7 235.5 231.3 229.4 226.5 221.6 215.4 212.2 212.1 195.7 212.6 227.4 247.5 263.3 273.8 279.9 285.8 290.9 300.7 314.1 318.6 323.8 328.7 337.4 352 365.1 376.1 379.6 384.6 387.1 398.5 407.4 410.3 417.2 423.5 429.8 439.9 452.1 456.9 463.3 468.9 469.6 474.8 476.7 485.4 493.7 502.1 511.8 518.5 525.8 540.2 554.6 569.2 582.1 594.9 609.6 632.1 652.9 683.8 713.2 727.4 726.6 728.7 731.4 739.2 752.1 761.4 766.8 766.7 760.3 744.5 726.7 710.9 702.6 711.4 721.4 729.8 735.8 740.5 744.3 751.9 762.7 775.7 793.2 794.8 791.4 781 774.3 775.8 781.4 784.8 779.1 764.2 753.5 747.1 743.3 739.2 732.5 722.2 715.1 710.2 695.2 677.2 681.1 611.9 579.8 546.5
6.4 6.4 6.4 6.4 6.4 6.4 6.4 6.4 6.4 6.4 14.6 14.2 13.5 12.5 13.1 14.3 13.6 8.7 6.4 6.4 6.4 6.4 6.4 6.4 7.3 17.3 19.1 19.8 17 15 6.4 12.1 11.7 13.1 12.5 15.6 19 20.1 19 17.6 12.2 13 13.3 13.3 16.3 14.6 14.5 14.7 12.9 6.4 6.4 6.4 6.4 6.4 6.4 6.4 6.4 6.4 6.4 6.4 6.4 6.4 6.4 6.4 6.4 6.4 6.4 14.2 29.1 44.4 39.2 40.8 78.1 101.3 117 116.6 94.1 78.6 82.7 104.5 118.6 140.5 165.7 198.5 220.1 219.3 232.7 248.9 254.7 243.6 243.9 236.9 232.2 228.5 228.2 224.7 219.9 215.3 209.3 203.8 199.6 195 194 206.9 216 231.5 249.7 262.9 269 275.5 286.7 295.6 301.1 311.1 315.6 325.2 335.7 341.9 357.5 372.3 379.4 379.4 384.6 392.5 398.5 402.2 410.4 419.1 424.2 432.1 443.5 451.1 455.6 459.4 462.4 463.1 471 479.5 488.1 496.1 504 512.3 521.6 537.3 552.6 564.3 574.7 586.3 602.3 620.9 643 669.7 694.1 705.1 700.6 701 704.9 716.4 731.3 746.3 750.6 750.5 744.1 725.6 706.9 693.8 696.4 708.5 719.4 730.8 736.8 738.6 741.2 747.8 758 771.6 782.7 785.9 782.9 773.8 771.7 772.9 775.4 775.5 768.6 755.7 748.7 744.3 741.4 737.3 730.1 724.2 720.5 721.3 723.2 701.9 679.3 640.9 617.7 602.7
6.4 6.4 6.4 6.4 6.4 6.4 6.4 6.4 6.4 6.4 14.3 15.1 14.7 13.4 8.8 13.6 14.1 6.4 6.4 6.4 6.4 6.4 6.4 6.4 16.8 15.2 16.3 15.9 15.2 14.8 6.4 12.4 12.6 12 10.4 10.6 11.1 15.5 14.6 8.8 8.2 12.7 13.5 13.7 14.8 16.9 16.1 13.7 8.4 6.4 6.4 6.4 6.4 6.4 6.4 6.4 6.4 6.4 6.4 6.4 6.4 6.4 6.4 6.4 6.4 6.4 6.4 6.4 13.2 17.2 18 23.2 51.5 85.7 102.6 105.4 88.4 72.1 78.9 102.1 107.5 117.3 152.8 195.4 198.2 192.9 202.9 217.3 235.5 236 254.2 243.1 228.3 220.6 220.7 217.8 214.6 209.6 200.7 197.2 189.7 184.1 187.7 197.4 208.8 221.3 231.9 247.2 260.8 266.5 276.8 287.1 293.5 300.3 311.2 317.3 326.3 334.2 351.9 363.7 369.8 375.8 380.5 385 391.6 396.7 406.2 411.3 416.9 430.8 436.7 443.9 449 452.6 454 456.7 465.5 475.8 484.9 492.6 499.3 508.1 519.9 536.5 550.6 562.7 570.9 583.6 603.4 619 637.7 659.7 683.9 680.7 678.9 682.4 686.3 699.8 720.9 738.4 738.3 733.8 724.9 705 688.9 679.5 692.9 704 715.6 731.4 733.2 733.7 736.3 742.5 754.3 768 776.3 779.5 773.4 767.2 768.8 771.6 768.8 761.9 752.8 744.5 742.6 741.3 737.1 731.9 728 727.2 732.3 728.2 720.7 707.6 693.2 682.7 662.7 635.1
6.4 6.4 6.4 6.4 6.4 6.4 6.4 6.4 6.4 6.4 6.4 6.4 13 10.2 6.4 8.6 7.8 10.5 12 13.6 14.1 14.8 6.4 8.5 15.2 14.3 14.5 12.9 12.9 12.4 6.4 12.2 14.5 13 9 9 10 15.4 12.4 8.2 14.5 14 13.9 14.1 14.3 18.2 16.4 14.2 6.4 6.4 6.4 6.4 6.9 13.3 6.7 6.4 6.4 6.4 6.4 6.4 6.4 6.4 6.4 6.4 6.4 6.4 6.4 6.4 6.4 6.4 6.4 15.8 30 58.1 94.6 91 79 61.7 73 96.9 104.5 104.2 113.3 137.8 154.3 173.9 174.6 189.8 208.4 222 237.8 248.4 235.5 217.8 214.2 210.8 209.1 204 198 190.5 184.7 173.8 186.6 194.6 201.8 213.8 214.8 238.9 253.9 264.2 275.5 282.6 289 294.1 302.1 310.6 317.4 326.8 341.7 348.9 351.5 366.3 373.2 378 385.5 389.8 396.1 399.7 404.2 421.9 434.5 437.1 442.7 444.8 448 453.6 460.4 472.9 481.1 490.2 498.3 510.9 522.6 536.6 551.3 564.6 573.7 591.4 613.3 626.1 639.5 651.2 665.3 662.8 660.4 664.8 672.2 688.7 708.3 720.2 718.9 716.1 700.3 682.9 672.4 675 687.4 701.2 713.4 721.9 725.8 726.3 731.5 737.1 747.3 757 770.9 774.5 767.1 761.1 764.1 766 759.5 747.2 736.9 736 736.8 736.9 729.6 728.7 727 727.5 729 722.5 710.5 707.3 691.6 665.5 635.6 616.5
6.4 6.4 6.4 6.4 6.4 6.4 6.4 6.4 6.4 6.4 6.4 6.4 10.6 6.4 6.4 6.4 6.4 6.4 13 14.8 19.3 19.6 17.4 9.5 14 16.7 16.3 15.5 13.7 12.3 6.4 9 13 11.6 9 9 10.9 14.4 10.8 9.2 17 17.4 14.2 14.4 14.7 17.7 20.6 18.9 14.8 6.4 6.4 14.3 21.9 19.6 12.5 6.8 6.4 6.4 6.4 6.4 6.4 6.4 6.4 6.4 6.4 6.4 6.4 6.4 6.4 6.4 6.4 6.4 14.9 34.6 60.7 74.3 64.1 53.2 67.3 79.5 84.6 86.2 83.4 100.9 126.2 139.1 153.2 170.7 178.1 194.4 212.3 243.4 235.5 219 209.4 206.3 204.3 198.1 192.5 187.1 179.9 171.7 179.7 190.4 196.4 197.8 208.8 233.3 251.5 268.7 276.6 286.4 289.8 291.8 295.9 302.6 310.2 317.7 326.3 331.1 343.6 355.3 366.2 374.1 381.5 385.6 390 391.4 391.9 405.6 420 428.7 431.3 436.1 448.6 454.1 460.5 472.8 481.1 485.8 498.3 514.1 525.9 541.8 551.3 563.8 590.9 597.4 621.3 629.7 639 650.4 645.1 644.5 644.7 652.4 659.5 677.8 685 692 700.2 693.8 678.9 665.6 657 668.8 683.2 697.3 708.3 712.1 714.5 717.4 722.6 731.2 738.6 750.6 761.5 766.5 760.7 753 751.4 751.1 741.3 731.6 724.3 722.5 724.3 719.5 722.1 725.6 725.1 724.3 721.4 716.5 713.2 716.8 697.7 658.5 630.8 609.4
6.4 6.4 6.4 6.4 6.4 6.4 6.4 6.4 6.4 6.4 6.4 6.4 6.4 6.4 6.4 6.4 13.9 6.4 10.7 13.8 18.2 20.7 19.1 18.9 16.7 16.3 18.8 17.8 17.4 14 6.4 8.6 11.3 9.1 9 9 11.3 16.2 8.2 8.5 13.7 14.5 13.6 16 19.6 20.6 23.9 22.8 20.4 14.6 14.1 18.7 27 21.6 6.4 6.4 6.4 6.4 6.4 6.4 6.4 8.1 11.4 6.4 6.4 6.4 6.4 6.4 6.4 6.4 6.4 6.4 6.4 12.2 25.5 32.3 42.2 39.5 45.6 66 77.1 73.5 69.4 72.4 99.2 115.6 128.6 143.6 164.8 170.4 179 202.5 222.3 216.5 210.2 203.3 199.4 191.1 186 182.6 177.1 172.1 168.8 178.3 185.5 195.9 207.9 230.4 252.4 261.4 277.2 287.8 297.3 298.4 295.8 297.4 300.6 303 317.4 331.8 345.2 354.7 361.7 372 376.8 378.7 382.6 384.1 386.7 391.7 404 416.5 422.2 434.1 445.4 452.6 462.2 473 482 489.7 500.9 516.6 538.4 544.2 551.5 571.3 601.3 613.2 626.1 627.3 629.8 629.2 629.6 628 632.3 648.5 654.1 662.3 660.1 671 679.5 670.4 658.5 650 650.4 661.1 671.2 684.7 695.9 697.4 702.3 705.9 712.3 723 731.7 742.5 750.9 757.3 756.4 748.7 741 735.3 727.4 721.8 716 711.6 708.3 705.9 714.4 722.7 718.5 718.6 719.5 718.5 723.8 721.2 698.2 659.9 637 628.2
6.4 6.4 6.4 6.4 6.4 6.4 6.4 6.4 6.4 6.4 6.4 6.4 6.4 6.4 6.4 6.4 6.4 6.4 6.4 12.1 16.9 18 18.2 19.1 18.9 19.1 20.8 18.7 17.7 14 6.4 11.3 11.3 11.1 9 11.8 13.3 12.4 8.2 13.1 13.1 13.6 13 17.9 17.6 20.4 23.1 21.4 21.4 19.7 18.6 20.9 21.3 12.8 6.4 6.4 9.1 6.4 6.4 6.4 6.4 11.3 11.7 11.3 6.4 6.4 6.4 6.4 6.4 6.4 6.4 6.4 6.4 6.4 6.4 13 18.2 21.1 27.9 52.5 69.3 61.2 58.4 50.9 68.1 94.5 115.4 124 132.2 134.5 146.7 162.1 189.2 204 205.5 204.3 198.5 186.4 177.6 175.7 174.1 169.6 159.4 175.8 184.4 196.7 210.2 225.3 254.7 258.7 268.9 277.7 289.7 293.7 289.9 287.3 294.7 303.3 319.7 337 350.2 357.7 359.7 360.3 369.4 374.7 376.6 377.7 381.6 386.3 394 401.4 414.9 431.2 439.9 454.1 462.1 475.9 482.6 491.9 511.4 543.3 555.3 551 557.3 578.1 607.1 617.8 628.1 624.2 614.9 613.2 614.1 620.8 630.1 647 642.2 643.3 640.9 650.5 653.9 644.8 636.7 628.8 639.3 649.4 659.3 670.3 678 680.9 686.7 693.2 702.3 714.4 726.4 734.6 744.1 751.5 748.3 742.2 736.4 728.8 721.8 717.4 712.3 705.9 705.9 705.9 708 711.4 711.7 713.1 718.2 719.9 725.1 722.9 691.8 649.2 629.6 606.3
6.4 6.4 6.4 6.4 6.4 6.4 6.4 6.4 6.4 6.4 6.4 6.4 6.4 6.4 6.4 6.4 6.4 6.4 6.4 6.4 6.4 15.5 15 16.3 18.3 21.1 22.6 22.6 21.3 16 6.4 11.6 11.4 10.2 9 11.6 11.7 9.5 9 14.2 12.7 12.8 13.8 15.7 18 19.5 22 23.1 22.7 20 19 17.3 14.6 6.4 6.4 6.7 10.5 6.4 6.4 6.4 6.4 6.4 11.3 11.2 6.4 6.4 6.4 6.4 6.4 6.4 6.4 6.4 6.4 6.4 6.4 6.4 6.4 11 13.9 33.6 49.2 56.9 47.5 37.3 39 57 79.6 100.7 108 115 126 143.8 163.1 180.9 198.7 206.3 208.4 188.1 177.2 172.6 168.1 165.5 162.9 172.7 184.4 194.6 204.7 218.6 235.3 239.5 247.6 257.9 267.2 271.3 268.2 287 296.2 304.6 331 344.2 349.7 354.6 358.5 363 373.4 372.2 375.9 376.8 384.7 385 388.8 398.6 410.1 423.3 437.9 462 473.4 477.7 484.2 493.9 514.3 530.2 537.3 545.7 559.9 580.3 604.7 612.9 614.8 610.4 603.5 600.2 603.8 610.8 620.4 629.3 632.6 626.2 626.1 636.2 630.4 621.4 617.9 614.2 623.8 636.1 646.3 655.5 659.2 663 668.5 680.6 695.2 708.9 717.6 721.3 728.6 733.1 735.5 735.3 732.8 726.9 719.5 711.8 706.3 706.6 705.9 705.9 707.9 708.7 708 709.4 712.6 719.7 728.4 721.8 686.9 650.1 625.6 608.2
6.4 6.4 6.4 6.4 6.4 6.4 6.4 6.4 6.4 6.4 6.4 6.4 6.4 6.4 6.4 6.4 6.8 6.4 6.4 6.4 6.4 6.4 6.4 8.2 16.9 19.3 20.6 19.4 18.4 6.4 6.4 6.4 11.7 12.4 11.6 12.1 6.4 6.4 16.7 19.4 18.8 15.9 14.6 18 18.6 19.2 20 26.5 25.6 26.6 23.7 18.1 10.8 6.4 12.4 12.1 12.8 6.4 6.4 6.4 6.4 6.4 6.4 6.4 6.4 6.4 6.4 6.4 6.4 6.4 6.4 6.4 6.4 6.4 6.4 6.4 6.4 6.4 6.4 16.2 34.2 39.3 35.3 33.8 33.6 38.7 53.9 67.9 85.2 101.5 112.5 135 150.6 164.6 200.2 208.7 215.2 190.9 173.5 169.2 165.9 161.4 153.3 167.2 177.7 189.1 195 202.5 209.5 217.9 228.6 241.4 253.4 264.1 278.4 285.1 293.8 308.3 322.5 340 353.8 355.5 358.6 368.5 380.3 384.9 380.2 376.2 377.4 379.4 383.9 391.9 402.7 417.7 437.6 465.9 496.5 488.7 497.1 508.3 516.6 529.8 534.2 550.5 565.8 577.4 591.3 606.4 605.8 595.6 589.6 586.2 595.4 602.2 608 614.9 622.8 617.8 616.4 615.8 608.5 603.9 602.5 601.7 611.7 623.2 633.8 640 640.3 643.2 653.5 665.9 680.3 692.2 700.7 706.7 714 721.7 730.5 736 730.2 723.4 715.8 707.9 707.7 711.1 709.4 710.2 709.9 707.5 707.5 707.5 713 723.2 740.4 731.1 704.9 681.6 628.5 607.9
6.4 6.4 6.4 6.4 6.4 6.4 6.4 6.4 6.4 6.4 6.4 6.4 6.4 6.4 6.4 6.4 11.2 6.4 11.2 12.7 13 10.8 10.6 11.2 6.4 6.4 11.1 15 10.4 6.4 6.4 6.4 13.6 12.9 11.9 10.4 6.4 6.4 17.7 21.3 21.1 19.3 20.2 20.9 19.7 19.7 20.9 28.2 26.5 23.1 22.3 14.3 10 15.4 21.7 20.8 18 13.5 12 6.4 6.4 6.4 6.4 6.4 6.4 6.4 6.4 6.4 6.4 6.4 6.4 6.4 6.4 6.4 6.4 6.4 6.4 6.4 6.4 6.4 17.9 27.9 32.3 32.3 33.3 39.5 49.9 60 75.7 97 104 120.3 136.7 155.9 167.2 182.5 199.4 185.6 176.4 162.1 154.3 152.1 158.2 163.7 169.7 178.5 191.1 192.3 196.5 202.2 213.6 223 246.1 259.5 273.2 279.4 291.1 311.9 325 333 342.6 352.2 359.4 376.3 378.4 384.1 383.3 377.1 376.2 380.2 382 386.8 397.5 416.6 447.7 480 481.2 487.6 506.7 505.8 515.6 528.5 536.2 557.7 576 571 577 592.1 590.7 587.1 578.5 575 590.1 597 604.5 616.5 618.8 611.6 603.3 598.2 590.3 590.9 585.7 589.9 599.9 611.2 626.4 628.2 623 629.4 637.9 649.1 659.5 671.1 680 693.1 705.4 716.3 735.7 734.4 724.8 715.6 707.5 707.9 714.4 715.3 711.5 713.4 709 707.5 707.5 713.5 722.9 733.1 737.1 726.4 698.9 663.6 639.2 609.5
6.4 6.4 6.4 6.4 6.4 6.4 6.4 6.4 6.4 6.4 6.4 6.4 6.4 6.4 6.4 6.4 10 6.4 13.5 13.3 13.8 8.3 6.4 6.4 9.8 6.4 6.4 6.4 6.4 6.4 6.4 6.4 12.4 13.9 11.8 6.4 6.4 6.4 16 20 22.6 22.7 21.6 21.1 20.3 20.9 22.3 25.5 26.5 25.3 15.5 10.9 10.1 20.3 21.3 21.3 22.1 17.5 10.9 6.4 6.4 6.4 6.4 6.4 6.4 6.4 6.4 6.4 6.4 6.4 6.4 6.4 6.4 6.4 6.4 6.4 6.4 6.4 6.4 6.4 6.4 20.2 28.9 30.8 37.3 50.5 59.4 68.1 82.5 97.3 113.1 116.5 120.9 133.1 144.8 157.8 173.2 171.1 168.6 167.1 153.8 141.7 150 159.6 163 169.8 176 175.2 181.8 189.9 200.9 220.2 240.6 261.1 269.9 277.9 285.9 304.2 322.8 331.8 341.9 355.5 362.8 363.8 374.1 382.6 383.2 375 373.2 375.5 378.4 381.4 397.6 418 452.2 491.1 488.1 481.4 485.1 494.6 506.8 514.1 527.7 551 559.6 565.9 564.3 570.6 567.7 567.8 564.3 565.4 578.3 581.1 586 602.5 604.5 596.6 587.5 580.4 578.8 572.4 569.3 577.6 584.3 591.9 610.6 610.2 605.6 610.4 619.6 630.3 642.6 652.8 664.4 678.4 694.3 708 725.5 721.7 711.9 704.7 704.9 717.1 724.7 717.4 714.3 710.1 707.9 707.5 710.9 719.9 733.4 741.6 743.2 737.6 704.6 667.4 646.5 619
6.4 6.4 6.4 6.4 6.4 6.4 6.4 6.4 6.4 6.4 6.4 6.4 6.4 6.4 6.4 6.4 10.7 6.4 13 13.7 14.3 6.4 6.4 6.4 6.4 6.4 6.4 6.4 6.4 6.4 6.4 6.4 6.4 9.9 6.4 6.4 6.4 7.6 16 19.2 21.6 22.3 21.2 20.5 17.2 17.7 19.2 21.1 23.7 22.4 16.8 11.3 13 20.9 25.1 23.1 21 18.4 11.5 6.4 6.4 6.4 6.4 6.4 6.4 6.4 6.4 6.4 6.4 6.4 6.4 6.4 6.4 6.4 6.4 6.4 6.4 6.4 6.4 6.4 6.4 8.5 21.6 30.2 41.3 56.9 66.7 71.9 89.3 94.9 100 106.8 117.9 112.9 123 136.1 143.3 140.2 168.4 163.6 157.2 140.5 148.3 150.5 153.7 160 164.2 166.9 170.2 184.8 201.3 217.9 240.8 269.6 277.2 277.9 287.6 301.3 316.4 332.6 340.2 357.4 357.5 358.9 368.7 374.9 373.7 372.9 370.7 371.4 373.1 379.7 401.1 416.5 437.5 464.6 469.6 472.7 471.7 485.5 494.3 502.2 528.1 548.9 555.7 555.7 550.4 552.4 550.3 551.9 553.7 553.1 563.4 566.3 570.5 579.8 592.1 580.8 571.5 564 560.9 557.8 557.6 564.7 569.2 574.2 581.3 585.8 584 591 598 612.6 626 634.7 648.1 664.2 679.5 691.1 704.9 703.9 698.7 701.1 713 726.4 727.6 720.7 712.4 706.3 705.6 707.7 718.6 727 738.7 745.5 758.5 751.1 715.9 680.3 661.6 649
6.4 6.4 6.4 6.4 6.4 6.4 6.4 6.4 6.4 6.4 6.4 6.4 6.4 6.4 6.4 6.4 6.4 7.1 12.6 12 12.2 6.4 6.4 6.4 6.4 6.4 6.4 6.4 6.4 6.4 6.4 6.4 6.4 6.4 6.4 6.4 6.4 7.8 15.6 17.8 19.3 21.1 19.3 19.5 16.3 16.3 16.3 16.3 16.9 17.9 24.4 17.2 16.1 18 21.3 20.6 15.8 18.4 17.6 6.4 13.7 6.4 6.4 6.4 6.4 6.4 6.4 6.4 6.4 6.4 6.4 6.4 6.4 6.4 6.4 6.4 6.4 6.4 6.4 6.4 6.4 6.4 8.5 27.6 46.5 63 67.2 67.2 66.3 74.9 86.6 97 90.6 95.1 99.5 108.8 114.4 117 149.9 159.8 155.8 145.6 131.2 140.1 147.8 152.6 154 161.4 167.2 178.6 191.3 212.8 236.4 250.2 258.3 274.6 288.3 305.3 321.8 328.2 341.3 346.2 350 350.2 360.3 376.6 368.5 367.6 367.1 366.7 370.5 382.1 405.2 419.2 430.2 440.4 448 450.4 455 470.3 481.9 496.8 507.8 528.6 538.3 546.6 543.5 536.2 534.7 541.1 535.2 537.8 547 549 553.9 562.8 572.2 561.4 554.3 549.4 542.8 546 544.2 548.6 554.6 556.1 559.2 562.3 561.2 574.5 582.5 596.1 608.9 619.8 636.3 651.1 665.3 676.2 685.3 684.9 691.3 713.4 727.2 732.7 722.5 714.7 705.8 701.6 703.9 710.7 724 734.1 748.9 758.7 768.9 762.1 736.6 713.7 695.4 669.9
6.4 6.4 6.4 6.4 6.4 6.4 6.4 6.4 6.4 6.4 6.4 6.4 6.4 6.4 6.4 6.4 6.4 13 12 12 7 6.4 6.4 6.4 6.4 6.4 6.4 6.4 6.4 6.4 6.4 6.4 15.5 6.4 6.4 6.4 6.4 6.4 11.7 15.9 16.9 17.1 16.5 17.8 18.8 18.1 18 16.3 16.3 18.8 19.4 18.9 20.9 17.4 16.7 16.1 14.2 14.3 11.9 11.3 12.1 6.4 6.4 6.4 6.4 6.4 6.4 6.4 6.4 6.4 6.4 6.4 6.4 6.4 6.4 6.4 6.4 6.4 6.4 6.4 6.4 6.4 6.4 8 32.1 50.6 59.6 59 60.8 59.7 60.6 69.7 81.9 84.9 90.9 91.2 86.1 95.7 122.1 147 150.2 143.8 131.2 126.9 138.8 139.8 146.9 152.9 156.9 164.4 182.1 195 211.7 224 239.9 269.1 296.1 321 325.8 326.5 330.8 335.5 342.1 346.5 357.2 371.1 362.3 364.7 362.4 363.5 368.7 381.7 407.2 408.8 419.6 427.3 428.4 436.3 440.2 463.9 478.4 482.5 494.7 504.6 521.7 527.5 531.9 525.4 521.8 522.1 520.8 519.7 532 535.4 537.8 539.1 544.8 540.8 538.2 539.6 535 537.8 538.7 537.9 540 543.8 546.5 548 552.5 559.9 567.1 579.2 593.2 608.9 626.8 640 649 657 663.6 669.4 686.3 708.8 726.3 725.5 714.2 704.5 696.3 698 705 713.2 726.1 735 751.8 772.7 773.9 764.9 752.3 737.1 729 688.6
6.4 6.4 6.4 6.4 6.4 6.4 6.4 6.4 6.4 6.4 6.4 6.4 6.4 6.4 6.4 6.4 6.4 13.2 11.6 12.3 12.7 13.2 12.4 6.4 6.4 6.4 6.4 6.4 6.4 6.4 6.4 11 15.7 16.4 6.4 6.4 6.4 11 7.9 7.5 10.5 12.1 8.9 13.9 16.1 17.6 17 18.2 20.5 21.7 18.3 18.4 18.6 16.6 15.3 13.4 12.6 13.4 11.9 6.4 6.4 6.4 6.4 6.4 6.4 11.6 12.3 6.4 6.4 6.4 6.4 6.4 6.4 6.4 6.4 6.4 6.4 6.4 6.4 6.4 6.4 6.4 6.4 6.4 12.1 31.3 45.2 48.9 56.4 58.1 55.3 56.7 62.9 68.6 83.8 80.8 79.9 85.8 97.3 126.8 141.7 139.8 127 112.8 130.1 130.9 139.5 139.4 147.8 154.8 169 181.8 201.5 214.7 237 270.8 306.9 322.8 323.6 323.2 324.2 327.4 336.4 342 354.9 353.9 354.6 356.8 358.4 363.6 370 379.2 392.1 399.8 405.4 408.6 413.2 416.4 422.9 438.9 450.1 462.8 481.2 488.1 500.2 505.5 510.1 510.4 509 508.8 509.5 508.8 513 519.3 524.6 523.5 523.8 522.9 526.1 528.9 532.5 533.4 535.5 535.3 537.1 543 544.9 542.2 542.4 547.2 552.5 566.2 583.8 600.6 614.9 626.8 633.1 640.2 645.5 663.6 678.5 696.4 712.1 708.9 703 695.8 692 704.9 706.9 715.5 727 738.6 757.1 773.9 778.1 773.4 766.5 756.5 745.5 706.4
6.4 6.4 6.4 6.4 6.4 6.4 6.4 6.4 6.4 6.4 6.4 6.4 6.4 6.4 6.4 6.4 6.4 14.3 12.8 9.8 11.3 15.8 6.4 6.4 6.4 6.4 6.4 6.4 6.4 6.4 6.4 10.4 12.8 15.2 6.4 6.4 6.4 16.8 15.8 12.6 6.4 6.4 6.4 6.4 6.4 14.2 15.6 18 22 24.3 19.1 17.1 18.2 14 12.4 11.8 11.5 12.4 7.2 6.4 6.4 6.4 6.4 6.4 6.4 7.9 6.4 6.4 6.4 6.4 6.4 6.4 6.4 6.4 6.4 6.4 6.4 6.4 6.4 6.4 6.4 6.4 6.4 6.4 6.4 6.4 27.6 33.5 43.3 58.2 53.3 51.5 50.5 59.8 68.4 70.5 78.1 94 89.3 95.8 119.8 134 122.7 106 119.2 124.3 130.8 131.4 139.9 148.3 160.3 176.1 192.6 216.3 255.2 272.1 304.4 310.4 318.1 318.6 320.9 325.3 332.9 338.1 342.6 344.1 341.6 368.1 371.7 373.5 373.9 376.9 379.6 382.8 389 395.2 402.4 404.1 410 420.6 430.4 448.9 464.3 476.5 490.3 489.2 488.7 491 492.4 492 502 508.9 504.3 505.3 507.3 509.9 517.5 526.4 537.5 544.9 545.9 541.1 539.6 538.4 539.3 536.5 539.9 537.1 535 539.8 543.7 553.6 565.7 583 600 612.2 620.3 625.5 639.8 654.5 669.6 688 697.2 692.9 688.1 686.8 692.1 704 709.3 721.6 730.3 741.6 758.2 778.6 782.6 773.8 771.5 766 735.5 705.3
6.4 6.4 6.4 6.4 6.4 6.4 6.4 6.4 6.4 6.4 6.4 6.4 6.4 6.4 6.4 6.4 6.4 6.4 6.4 6.4 6.4 6.4 6.4 6.4 6.4 6.4 6.4 6.4 6.4 6.4 6.4 6.4 11.6 6.5 6.4 6.4 6.4 14.8 17.8 17 17.1 17.9 18.4 6.4 6.4 9.2 13.5 16.2 16.8 17.7 18.5 19.1 15.9 12.5 12.1 11.8 7.9 6.4 6.4 6.4 6.4 6.4 6.4 6.4 9.8 10.3 10 6.4 6.4 6.4 6.4 6.4 6.4 6.4 6.4 6.4 6.4 6.4 6.4 6.4 6.4 6.4 6.4 6.4 6.4 6.4 12.4 19.8 30.3 50.4 52.4 51.9 51.3 53.6 57.7 63 68 81.9 82.4 95.3 97.6 114.7 115 106.5 109.3 116.4 119.9 124.5 135.8 144.5 154.6 168.6 184.3 217.2 242.4 266.6 286.6 296.5 302.2 315.6 324.5 325.2 326.3 330 329.9 326.2 350.9 381 378.6 382.5 382.5 378.2 376.3 375.2 378.4 387.1 395.7 396.9 400.7 408.5 419.1 437.6 444.2 456.5 465.5 472.6 475.9 478.8 479.1 489.9 502 494.9 492.8 492.5 497.6 515.3 524.7 537.1 572.5 571.9 563.2 557.9 550.6 547.6 541.3 542.7 536.3 533.6 531.7 531.7 538.4 547.8 557.9 577.1 593.6 602.3 600.5 619.7 630.5 642.2 660.7 680.9 681 675.3 674.1 678.5 688.2 691.6 701 712.2 723 741.5 759.6 767.3 768.8 775.9 761.2 740.7 706.5 682.7
6.4 6.4 6.4 6.4 6.4 6.4 6.4 6.4 6.4 6.4 6.4 6.4 6.4 6.4 6.4 6.4 6.4 6.4 6.4 6.4 6.4 6.4 6.4 6.4 6.4 6.4 6.4 6.4 6.4 6.4 6.4 7.8 6.4 6.4 6.4 6.4 6.4 18 17.3 17.4 17.7 18.4 16.2 13.8 13.9 13.2 17.2 17.6 16.9 16.7 16.8 17.6 16.5 13.7 11.9 11 6.4 6.4 6.4 6.4 6.4 6.4 6.4 6.4 11.2 10.8 11.3 12.1 6.4 6.4 6.4 6.4 6.4 6.4 6.4 6.4 6.4 6.4 6.4 6.4 6.4 6.4 6.4 6.4 6.4 6.4 6.4 6.4 6.4 22.5 42.5 47.4 49.4 52.3 55.3 67.3 74.5 73.1 79.3 92.1 94.5 98.8 108.3 104.8 101.6 108.1 113.4 118.9 125.8 135.2 143.7 156.1 179.2 204.8 228.9 243.7 266 278.7 298.5 313.9 322.5 324.5 318.7 316.4 313.8 318.9 358.2 369.8 370.7 367.9 378.8 381.1 373 375.1 380.8 390.6 391.1 391.6 391.5 397.1 409 417.9 425.5 434.7 441.8 452.6 470.8 466.1 469.5 481.4 485 480.6 477.7 474.6 496.2 508.6 522.6 538.9 561.1 571.9 571.3 567.6 561.3 554.7 550 545.5 537.6 535.2 530.8 529.6 529.7 540.1 549.5 564.2 576.5 585.7 591.8 605.7 615.4 626 645.9 655.2 656.7 655.9 662.2 667.6 676.4 679.6 688.1 702.4 715.6 730.9 745.8 738.6 745.8 749.8 724.6 703.4 673.7 651.2
6.4 6.4 6.4 6.4 6.4 6.4 6.4 6.4 6.4 6.4 6.4 6.4 6.4 6.4 6.4 6.4 6.4 6.4 6.4 6.4 6.4 6.7 13.9 9.9 6.4 6.4 6.4 6.4 6.4 6.4 6.4 6.4 8.8 14.6 6.4 6.4 6.4 17.5 16.4 16.7 17.2 18.7 18.6 18.1 16.7 14 17.5 27.2 31.4 23.4 29 24.3 20.4 12.9 6.4 6.4 6.4 6.4 6.4 6.4 6.4 6.4 6.4 10.7 11.8 11.1 11.4 10.9 6.4 6.4 6.4 6.4 6.4 6.4 6.4 6.4 6.4 6.4 6.4 6.4 6.4 6.4 6.4 6.4 6.4 6.4 6.4 6.4 6.4 6.4 18.2 32.6 50.3 54.8 54.6 56.2 69 82.5 82.3 82 70.9 76 93.1 85.7 108.2 110.7 111.4 113.8 119.8 124.8 130.3 148.1 181.7 191.1 206.8 225.6 251.6 276.6 299.7 310.3 313.9 312.2 307.4 305.9 304.5 311.5 350.9 357.9 357.5 354.4 364.8 365.1 369.7 380.4 385.6 401.2 398 385.7 386 389.3 397.4 400.4 409.7 414.1 425.1 448.6 472.3 461.7 455.9 479 478.1 468.3 457.3 480.8 491.9 506.2 517.9 536 558.6 595.2 590.3 574.2 565.1 559.4 552.1 546.3 540.1 534.1 528.9 530.1 527.9 527.3 530.4 540.8 553.6 561 571.6 585.5 598.6 611.4 624.2 629.1 632.6 639.4 646.3 652.8 659.8 665.1 675 690.1 701.2 709.7 706.7 703.5 715.9 712 693.6 669 643.5 627.3
6.4 6.4 6.4 6.4 6.4 6.4 6.4 6.4 6.4 6.4 6.4 6.4 6.4 6.4 6.4 6.4 6.4 6.4 6.4 6.4 6.4 6.7 12.1 6.4 6.4 6.4 6.4 6.4 6.4 6.4 6.4 9.6 14.5 14.9 6.4 6.4 6.4 6.4 15 15.3 12 15.9 18.6 17.7 16.5 16.3 26.4 27.9 27.7 28.1 27.5 27.1 24.1 19.9 6.7 6.4 6.4 6.4 6.4 6.4 6.4 6.4 6.4 6.5 11.9 7 10.8 8.9 7.9 9.8 6.4 6.4 6.4 6.4 6.4 6.4 6.4 6.4 6.4 6.4 6.4 6.4 6.4 6.4 6.4 6.4 6.4 6.4 6.4 6.4 6.4 14.9 41 52.4 58 50.4 55.6 70 76.1 69.2 58.9 63.1 74.9 93.5 101.9 112.4 114.9 108.1 113.8 118.7 126.8 141.7 165.5 175.5 189.3 213.9 241.6 262 282.2 297.8 303.1 298.8 301.5 302.7 297.6 305.8 329.9 345.6 348.4 343.9 347.9 354.7 370.7 377.7 382 393.7 388.1 379.4 383.6 390.6 391.1 395.5 399.2 405.1 418.7 436.1 449.4 441.7 435.6 448 458.1 452 451.9 472.6 491.9 502.7 517.7 537.4 580.6 595.1 584.1 577.8 564.9 559.3 552.5 543.8 539 532.6 527.6 521.8 521.2 524.7 525.4 527.6 533.5 539.5 549.5 568 583.6 593.5 602.4 605.3 605.2 616.9 624.5 633.3 639.3 647.4 655.3 663.7 667.7 671.8 675.4 680.1 683 672.3 657.6 645.1 617.7 607.2
6.4 6.4 6.4 6.4 6.4 6.4 6.4 6.4 6.4 6.4 6.4 6.4 6.4 6.4 6.4 6.4 6.4 6.4 6.4 6.4 6.4 6.4 6.4 6.4 6.4 6.4 6.4 6.4 6.4 6.4 6.4 6.4 12.1 8.2 6.4 6.4 6.4 6.4 6.4 6.4 12 12.5 13.1 19 26.2 22.9 25 25.1 26.1 26.9 25.4 23.4 21.8 12.7 6.4 6.4 6.4 6.4 6.4 6.4 6.4 6.4 6.4 6.4 6.4 6.4 6.4 6.4 6.4 6.4 6.4 6.4 6.4 6.4 6.4 6.4 6.4 6.4 6.4 6.4 6.4 6.4 6.4 6.4 6.4 6.4 6.4 6.4 6.4 6.4 6.4 6.4 10.2 40.2 44.2 44.9 44.6 51.9 59.4 59.1 45.4 51.5 71.2 86.9 88.7 103.6 113.8 105.1 118.8 123.5 125.4 136.5 151.9 166.4 177.7 203.5 225.8 235.1 253.4 269.9 265.8 282.1 298.2 297 293.8 303.1 320.9 328 334.6 327.1 336.2 348.8 365.4 365.4 366.3 374.4 378.3 374.7 379 385.9 393.8 394.1 396.5 401.8 416.5 422.6 427 416 419.7 428.3 426.1 426.5 445.9 474.3 497.1 512.4 526.4 541.3 566.8 575.1 569.8 556.6 552.5 554.8 547.8 539.4 532.1 527.6 522.8 518.1 516 515.4 515.7 519.4 522 524.5 528 544.3 556.7 565.8 576.6 579.7 581.2 585.7 604.7 612.3 618 624.3 628 634.4 637.5 640.7 651.6 657.5 651.5 636.2 628.4 618.8 589.3 582.1
6.4 6.4 6.4 6.4 6.4 6.4 6.4 6.4 6.4 6.4 6.4 6.4 6.4 6.4 6.4 6.4 6.4 6.4 6.4 6.4 6.4 6.4 6.4 6.4 6.4 6.4 6.4 6.4 6.4 6.4 6.4 6.4 6.4 6.4 6.4 6.4 6.4 6.4 6.4 6.4 6.4 6.4 9.2 20.9 25.1 19.8 21 23 22.8 22.1 20.2 17.4 13.4 6.4 8.1 13.7 6.4 6.4 6.4 6.4 6.4 6.4 6.4 6.4 6.4 6.4 6.4 6.4 6.4 6.4 6.4 6.4 8.3 6.4 6.4 6.4 6.4 6.4 6.4 6.4 6.4 6.4 6.4 6.4 6.4 6.4 6.4 6.4 6.4 6.4 6.4 6.4 6.4 13.3 22.8 30.3 38.2 40.1 40.5 41.6 34.4 32.6 53.6 68.8 77.2 93.8 96.4 99.3 117.2 134.2 131.7 137 143.3 154.2 170.7 187.4 208.4 218.2 218.4 233 259.2 272.5 280.4 286.6 291.4 302 307.1 311.2 312.1 312.7 325.6 337.8 347.1 346.6 352.8 357.6 365.6 366.9 378.2 382.1 394.7 401.7 394.3 398.9 407.4 410.5 410.6 389.5 406 410.5 404.3 414.3 444.1 471.5 489.2 515.5 535.8 539.3 547.3 554.3 550.6 542.3 537.3 536.6 536 529.2 526.2 521 520.8 517 510.5 505.8 500.4 510.6 511.9 507.3 510.6 520.3 530.4 545.2 551.3 551.4 555.5 568.3 580.6 591.9 594.5 598 602.1 607.2 615.2 617.1 620.6 620 617.7 597.4 592 578.7 562.7 556.8
6.4 6.4 6.4 6.4 6.4 6.4 6.4 6.4 6.4 6.4 6.4 6.4 6.4 6.4 6.4 6.4 6.4 6.4 6.4 6.4 6.4 6.4 6.4 6.4 6.4 6.4 6.4 6.4 6.4 6.4 6.4 6.4 6.4 6.4 6.4 6.4 6.4 6.4 6.4 6.4 12.1 6.4 16.1 21.6 21.7 16.2 16.3 19.1 18.9 17.1 11.9 6.4 13.1 6.4 6.4 6.4 6.4 6.4 6.4 6.4 6.4 6.4 6.4 6.4 6.4 8.7 6.4 6.4 6.4 6.4 6.4 10.1 8.4 6.4 6.4 6.4 6.4 6.4 6.4 6.4 6.4 6.4 6.4 6.4 6.4 6.4 6.4 6.4 6.4 6.4 6.4 6.4 6.4 6.7 10.4 12.1 19.1 29.3 25.7 24.1 19.1 24.9 42 54.8 59.2 64.4 82.6 89.7 115.5 137 143.2 136.4 141.2 148.6 155.7 172.2 185.7 191.1 214.1 237.1 247.8 269.9 279.9 289.4 289.4 291 295.4 293.4 290.2 298.2 311.8 325.1 332.2 331.4 339.2 346.7 352.4 362.6 368.7 379.1 394.2 402.4 395.7 398.4 401.3 408.5 399 373.6 384.9 381.2 402.7 424.7 446.4 474.4 493 514.7 531.4 533.9 542.2 537.2 539.9 524.7 523.3 522.6 521.8 520.2 518.7 516.1 515.2 514.8 507.6 492.3 491.6 495.9 498.3 493 495.7 500.6 508.4 515.5 518.5 525.1 537.7 552.5 564.2 571.6 572.6 576 582.1 585.5 588.6 594.6 592.5 589.8 579.6 567.9 561.7 543.4 534.5 529.3
6.4 6.4 6.4 6.4 6.4 6.4 6.4 6.4 6.4 6.4 6.4 6.4 6.4 6.4 6.4 6.4 6.4 6.4 6.4 6.4 6.4 6.4 6.4 6.4 6.4 6.4 6.4 6.4 6.4 6.4 6.4 6.4 6.4 6.4 6.4 6.4 6.4 6.4 6.4 6.4 12.4 6.4 15.6 17.3 16.3 8.9 14.8 15.8 12.1 6.4 6.4 6.4 6.4 6.4 6.4 6.4 6.4 6.4 6.4 6.4 6.4 6.4 6.4 6.4 6.4 12 14.2 14.3 14 8.8 7.5 6.4 6.4 6.4 6.4 6.4 6.4 6.4 6.4 6.4 6.4 6.4 6.4 6.4 6.4 6.4 6.4 6.4 6.4 6.4 6.4 6.4 6.4 6.4 11.3 11.2 12.2 13.3 13.6 14.9 18.7 20.8 23.3 37.9 43.6 48.9 62.3 85.9 112.5 124.4 138.5 150.9 141.8 145.3 149 158.3 174.2 202.7 217.8 230.6 243.3 246.6 260.2 280.6 278.5 284.7 282.9 285.6 283.6 290.7 297.2 315.4 314.8 316.6 325.2 340.4 347.6 357.7 361 370.4 380.4 392.9 394.1 393 394.5 384 374 362.7 357.4 381.3 400.5 422.3 452.7 501.4 497.2 506.9 523.3 517.6 523.3 523.7 517 510.9 510.2 517.5 513 516.1 515 514.4 509.7 507.7 500.8 493.8 483.9 487.5 487.4 477.7 483.6 485.2 488.9 497.6 499.3 507.2 522.5 542.6 551.5 549.9 550.5 553.6 559.9 563.8 563.3 565.6 564.6 558.9 543.2 534 533.5 517.4 517.1 515.4
6.4 6.4 6.4 6.4 6.4 6.4 6.4 6.4 6.4 6.4 6.4 6.4 6.4 6.4 6.4 6.4 6.4 6.4 6.4 6.4 6.4 6.4 6.4 6.4 6.4 6.4 6.4 6.4 6.4 6.4 6.4 6.4 6.4 6.4 6.4 6.4 6.4 6.4 6.4 6.4 6.4 6.4 6.4 6.4 6.4 6.4 6.4 6.4 6.4 6.4 6.4 6.4 6.4 6.4 6.4 6.4 6.4 6.4 6.4 6.4 6.4 6.4 17.9 23.5 19.4 19.3 17.2 15.5 14.2 13.7 11.4 11 6.4 6.4 6.4 9.4 6.4 6.4 6.4 6.4 6.4 6.4 6.4 6.4 6.4 6.4 6.4 6.4 6.4 6.4 6.4 6.4 6.4 6.4 6.6 11.6 11.5 13.4 14.3 15.9 18 19.1 19.7 20.8 29 36.8 50.7 73.6 107.7 104.4 124 138.9 144.5 141.8 147.5 153.9 174.2 199.4 205.2 213.7 223.6 245.8 249.7 255.5 271.2 278.2 279.9 280.9 276.8 280.5 295.4 300.9 298 304.3 321.1 336 337.8 353 348.7 356.1 364.9 373 373.2 374.2 372.5 369.2 357 341.3 350.7 377.5 399.9 427.9 472 485.3 483.7 501.1 505.9 512.3 512.7 504.7 496.9 498.4 506.7 497.6 506.1 522.1 512.9 513 511.3 503.9 494 489.6 483.3 475.3 474.4 470.5 479.3 480.2 482.7 481.4 483.7 494.8 502 517 525.4 526.7 531.4 534.6 537.5 537.8 532.8 534.7 538.2 526.1 516.2 508.9 500.7 497 499.5 504.3
6.4 6.4 6.4 6.4 6.4 6.4 6.4 6.4 6.4 6.4 6.4 6.4 6.4 6.4 6.4 6.4 6.4 6.4 6.4 6.4 6.4 6.4 6.4 6.4 6.4 6.4 6.4 6.4 6.4 6.4 6.4 6.4 6.4 6.4 6.4 6.4 6.4 6.4 6.4 6.4 6.4 6.4 6.4 6.4 6.4 6.4 6.4 6.4 6.4 6.4 6.4 6.4 6.4 6.4 6.4 6.4 6.4 8.4 12.4 7.4 6.4 25.4 40.2 39.3 35.1 42.9 35.2 27.6 14.1 13.7 11.3 8.1 6.4 11.8 12.8 15.2 13.8 6.4 6.4 6.4 6.4 6.4 6.4 6.4 6.4 6.4 6.4 6.4 6.4 6.4 6.4 6.4 6.4 6.4 6.4 8.7 11.5 13.1 14 15 17 17.8 17.3 17.7 22.9 31.2 39.7 52.8 70.4 76.5 104.1 113.9 122.6 133.2 146.6 161.6 161.5 177.6 188.2 207.4 221 231.6 243.9 236.7 264.8 272.9 278.9 276.9 270.3 280 288.1 291.5 282.1 306.4 326.2 328.1 324.5 344.6 343.5 348.4 351.6 352.9 351.7 351.1 349.6 348.6 338.5 324.7 353.2 371.1 393.2 445.6 458.6 458.1 465 483.5 496.5 491.9 488.4 487 483.5 477.9 477 485.5 502.3 513.7 510.4 514.8 510.7 500.2 488.3 483.1 477.2 471 460.6 460.9 467.2 472.4 475.4 465.7 469.7 478.9 484.7 500.2 504.1 514.2 516.4 511.2 510.3 508.7 506 508.7 508.1 496 492.1 488.9 486.5 487.7 497.9 512.5
6.4 6.4 6.4 6.4 6.4 6.4 6.4 6.4 6.4 6.4 6.4 6.4 6.4 6.4 6.4 6.4 6.4 6.4 6.4 6.4 6.4 6.4 6.4 6.4 6.4 6.4 6.4 6.4 6.4 6.4 6.4 6.4 6.4 6.4 6.4 6.4 6.4 6.4 6.4 6.4 6.4 6.4 6.4 6.4 6.4 6.4 6.4 6.4 6.4 6.4 6.4 6.4 6.4 6.4 11 7.2 12.3 12.5 12.9 10 6.4 34.5 46.9 42.3 37.9 40.9 38.6 32 21.5 11.2 6.4 6.4 11.8 14.9 13.8 14.2 12.8 6.4 6.4 6.4 6.4 6.4 6.4 6.4 6.4 6.4 6.4 6.4 6.4 6.4 6.4 6.4 6.4 6.4 6.4 6.4 6.4 11.4 13 13.8 14.6 15.6 14.7 14.5 16.4 25.1 35.9 42.4 48 60.4 79.3 103.5 120.4 125.6 148.7 160.3 164.8 169.4 178.4 198.3 222.3 224.7 228.4 225 249.6 257 257 260.1 266.4 268.6 270.7 269.1 283.9 307 313.7 306.8 312.9 330 331.5 331.6 337.5 333.2 336.8 332.5 328.4 325.2 317.4 328.4 345.1 362.3 400.5 435.7 435.9 438.2 444 458.2 466.6 471.6 468.8 467.6 464.3 466.7 470.8 478.7 493.2 499.6 507.4 506.8 515.1 501.4 487.9 478.9 471.9 465.9 460.4 447.7 454.9 460.4 458.2 451 456.6 462.1 466.7 473.2 482.5 494.3 490.3 488.2 486 484 482.5 485.2 477.5 475.2 476.5 477 477.5 489.3 512.3 508.8
6.4 6.4 6.4 6.4 6.4 6.4 6.4 6.4 6.4 6.4 6.4 6.4 6.4 6.4 6.4 6.4 6.4 6.4 6.4 6.4 6.4 6.4 6.4 6.4 6.4 6.4 6.4 6.4 6.4 6.4 6.4 6.4 6.4 6.4 6.4 6.4 6.4 6.4 6.4 6.4 6.4 6.4 6.4 6.4 6.4 6.4 6.4 6.4 6.4 6.4 6.4 6.4 6.4 6.4 6.4 6.4 6.4 9.9 13.7 6.4 6.4 28.7 46.1 43 37.2 33.8 33.3 29.2 23.1 12.2 6.4 6.4 12.8 17 16.3 13.3 11.8 6.4 6.4 6.4 6.4 6.4 6.4 6.4 6.4 6.4 6.4 6.4 6.4 6.4 6.4 6.4 6.4 6.4 6.4 6.4 6.4 6.4 6.4 6.4 6.4 10.9 11.9 11.2 12.9 17.2 27.1 34.1 41.7 48.8 60.6 86.1 96.4 125.7 140.4 164.2 169.2 175.7 178.6 180.5 205.2 212.4 214.1 214.7 237.2 254.2 253.8 253.8 257.9 261.5 261.6 258.8 272.4 285.2 288.9 289.1 296.7 312.1 312.8 317 316.1 321 318.7 313.9 311.8 310.9 301.1 321.8 336.8 358.8 405.2 414.8 422.8 426.6 424.9 431.9 434 444.3 454.8 456 448.5 457.5 455.4 461.7 477.7 493.7 503.2 499 498.5 498.4 480.1 475.1 465.5 456.8 453.7 439.9 444.6 445.8 441.7 438.4 443 446.2 451.2 452.1 459.7 468.6 468.3 464.6 462.3 461.3 459.4 458.8 459.3 460.1 464.1 468.3 480.9 492.8 504.5 489.8
22.8 17.5 6.6 6.4 6.4 6.4 6.4 6.4 6.4 6.4 6.4 6.4 6.4 6.4 6.4 6.4 6.4 6.4 6.4 6.4 6.4 6.4 6.4 6.4 6.4 6.4 6.4 6.4 6.4 6.4 6.4 6.4 6.4 6.4 6.4 6.4 6.4 6.4 6.4 6.4 6.4 6.4 6.4 6.4 6.4 6.4 6.4 6.4 6.4 6.4 6.4 6.4 6.4 6.4 6.4 6.4 6.4 6.4 6.4 6.4 6.4 32.2 43.7 42.9 37.1 33.1 30 23.9 22.4 14 6.4 6.4 11.2 14.5 18.4 12.4 7.2 6.4 6.4 6.4 6.4 6.4 6.4 6.4 6.4 6.4 6.4 6.4 6.4 6.4 6.4 6.4 6.4 6.4 6.4 6.4 6.4 6.4 6.4 6.4 6.4 6.4 6.4 6.4 6.4 12.1 16.4 22.5 29.7 39.2 45.4 56.6 82.6 99.5 131.9 158.1 169.4 171.7 179.7 180 181.8 194 200.5 211.4 231.8 247.6 262.6 250 254.2 255.7 253.3 250.5 257.1 266.9 271.7 273.3 284.4 299.6 297.3 297.9 302.5 309.2 300.9 298.7 297.4 296.8 298 310.9 327.1 366.1 390.3 391.8 390.8 390.1 393.7 404.5 420.8 440.7 437.7 430.3 423.5 429.8 437.1 447.5 482.4 486.8 482.6 488 484.3 477.3 470 468.1 465.5 457.1 444.5 437.4 433.1 431.9 428.3 422.8 426.4 430.9 437.2 441.1 443.5 450.5 444.4 440.1 436.4 432.4 431.2 431.4 437.8 453.9 455 463.6 484 490.3 478.5 468.9
46.5 35.6 42.4 39.8 38.5 24 19 6.4 6.4 6.4 6.4 6.4 6.4 6.4 6.4 6.4 6.4 6.4 6.4 6.4 6.4 6.4 6.4 6.4 6.4 6.4 6.4 6.4 6.4 6.4 6.4 6.4 6.4 6.4 6.4 6.4 6.4 6.4 6.4 6.4 6.4 6.4 6.4 6.4 6.4 6.4 6.4 6.4 6.4 6.4 6.4 6.4 6.4 6.4 6.5 6.4 6.4 6.4 6.4 6.4 18.2 35.1 42.1 43.7 41 36.4 30.8 24.3 18.5 13.8 11.4 11.7 6.4 6.4 11.6 6.4 6.4 6.4 6.4 6.4 6.4 6.4 6.4 6.4 6.4 6.4 6.4 6.4 6.4 6.4 6.4 6.4 6.4 6.4 6.4 6.4 6.4 6.4 6.4 6.4 6.4 6.4 6.4 6.4 6.4 10.1 15.1 22.4 27 29.1 38.1 46 55.2 78.1 99.9 127.3 140.6 155.7 168.8 183.6 191.2 188.3 187.2 204.3 230.6 243.5 248.2 242.6 249.7 246.1 247.8 241.1 249.5 254.8 259.5 259.8 268.3 284.1 277.3 280.5 285.5 284 283.5 284.1 286.5 285.3 290.2 301.9 322.3 362.7 367.5 361.6 356.9 363.9 385.5 405.7 420.3 421.4 413.4 405.3 408.6 415.4 423.2 439.6 465.9 473.7 468.9 464 465.2 452 456 474 470.9 460.4 443.9 430.7 415.7 415.6 412.9 406.7 412 417.2 431 434.1 429.7 425.6 419.7 412.2 405.7 406.6 410 414.2 435.4 443 446.8 470.9 477.4 472.8 460 451.1
54.1 61.3 64.6 69.5 70.3 52.5 41.6 21.9 15.6 6.4 6.4 6.4 6.4 6.4 6.4 6.4 6.4 6.4 6.4 6.4 6.4 6.4 6.4 6.4 6.4 6.4 6.4 6.4 6.4 6.4 6.4 6.4 6.4 6.4 6.4 6.4 6.4 6.4 6.4 6.4 6.4 6.4 6.4 6.4 6.4 6.4 6.4 6.4 6.4 6.4 6.4 6.4 6.4 6.5 6.4 6.4 6.4 6.4 6.4 6.4 21.5 36.5 43 42 39.4 36.8 32.1 28.1 17.8 12.3 15.9 15.1 6.4 6.4 6.4 6.4 6.4 6.4 6.4 6.4 6.4 6.4 9.7 6.4 6.4 6.4 6.4 6.4 6.4 6.4 6.4 6.4 6.4 6.4 6.4 6.4 6.4 6.4 6.4 6.4 6.4 6.4 6.4 6.4 6.4 6.4 12.1 19.7 29.3 33.2 35.6 40.8 45.4 57.3 75.8 87.8 102.2 119.2 144.4 170.6 193.9 195.5 177 191.2 212.1 227.7 229.3 233.3 235.5 236 232.3 230.8 242.1 244.5 245.3 245.8 245.8 253.3 255 264.6 266.9 269.5 271.8 272.1 269 273.9 282.9 296.3 322.7 332.7 332.2 335.2 348.6 369 382.8 395 404 401.1 394.6 388.2 396 401.2 415.3 440.6 451.2 447.1 445.6 444 441.7 433.2 442.9 467.2 475.2 463.4 444.7 421 406.1 398.1 396.8 397.1 399.9 411.2 435.4 420.2 406.5 400.7 396.4 390.6 387.1 388.1 390.3 412.9 427.5 432.2 457.5 465.5 459.4 449 442.2 430.9
76 78.2 77.4 79.1 82.2 71.1 51.4 40.5 37.4 29.2 23.1 20.3 17.8 17.4 15.9 6.4 6.4 6.4 6.4 6.4 6.4 6.4 6.4 6.4 6.4 6.4 6.4 6.4 6.4 6.4 6.4 6.4 6.4 6.4 6.4 6.4 6.4 6.4 6.4 6.4 6.4 6.4 6.4 6.4 6.4 6.4 6.4 6.4 6.4 6.4 6.4 6.4 6.4 6.4 6.4 6.4 6.4 6.4 6.4 7.2 28 29.5 33.3 37 33.8 33.5 31.4 29.5 22.2 15.8 16.3 12.3 6.4 6.4 6.4 6.4 6.4 6.4 6.4 6.4 6.4 6.4 11.7 11.8 6.4 6.4 6.4 6.4 6.4 6.4 6.4 6.4 6.4 6.4 6.4 6.4 6.4 6.4 6.4 6.4 6.4 6.4 6.4 6.4 6.4 6.4 6.5 16.1 24.2 34.3 39.6 42.7 47.5 49.4 55 66 81.9 96.3 120 146.2 159 151.7 157 169.2 185.9 195.1 210.3 220.8 223.4 219.1 215.4 215.4 229.8 230.2 227.3 226.8 230.5 237.4 240.4 250 253.8 258.9 258.8 255.4 257.1 269.3 277.4 289.3 308.7 303.6 310.8 318.9 340.7 355.4 368.8 376.9 376.5 371.2 372.5 376.1 387.7 400.1 412.8 438.2 436.3 426.3 418.8 417.7 413.2 416.3 430.6 462.4 466.2 458.7 438.7 411.9 399.2 388.4 384.4 384.4 400.3 406.8 404.2 390.7 386.2 382.8 374.1 369.2 375.9 378.2 378.3 392.2 403.4 423.6 431.3 442.7 435.2 431.6 416.1 408.8
93.4 91.8 95.6 100.9 99.1 98.5 106.7 80.2 69.8 78.5 69.3 45.1 32.1 26.6 19.7 17.6 6.4 6.4 6.4 6.4 6.4 6.4 6.4 6.4 6.4 6.4 6.4 6.4 6.4 6.4 6.4 6.4 6.4 6.4 6.4 6.4 6.4 6.4 6.4 6.4 6.4 6.4 6.4 6.4 6.4 6.4 6.4 6.4 6.4 6.4 6.4 6.4 6.4 8.5 6.4 6.4 6.4 6.4 6.4 15.2 21.5 27 33.5 40.8 41.5 40 32.6 30.2 23.8 21.6 18.5 11.9 6.4 6.4 6.4 6.4 6.4 6.4 6.4 6.4 6.4 11.6 13.5 10.4 6.4 6.4 6.4 6.4 6.4 6.4 6.4 6.4 6.4 6.4 6.4 6.4 6.4 6.4 6.4 6.4 6.4 6.4 6.4 6.4 6.4 6.4 6.4 15.2 20.5 27.7 37.9 44.5 50.1 47.8 51.1 56.9 68.5 77.2 83.4 94.5 101.1 116.2 132.2 150.7 170.3 188.7 204.8 214.2 213.1 205.6 198.8 203.7 208.4 214.2 217.5 217.6 219.9 222.3 228.8 239.1 244.7 249.9 245.8 247 256.8 266.8 268.9 274.5 280.9 287.3 297.2 305.1 321.4 341.7 345.7 349.2 353.9 359.4 364 370.4 391.4 394.7 410.3 423.1 421.8 405.6 395.8 389.8 390.4 395 433.2 444.5 441.2 444.7 419.1 405 393.3 384.7 374.4 375.4 394 386 377.9 372.3 370.2 364.7 362 364 367.4 366.4 368.7 373.2 382.5 398.5 407.8 413.7 408.9 407.5 388.6 375.3
131.9 137.5 141.6 157.5 156.2 151.7 147.8 109.5 104 115.9 97 74.8 56.2 44.3 31.6 31.3 25.8 22.4 20.4 18.7 6.4 6.4 6.4 6.4 6.4 6.4 6.4 6.4 6.4 6.4 6.4 6.4 6.4 6.4 6.4 6.4 6.4 6.4 6.4 6.4 6.4 6.4 6.4 6.4 6.4 6.4 6.4 6.4 6.4 6.4 6.4 6.4 6.4 9.4 6.4 6.4 12.9 7.6 13.4 16.6 22.2 29.2 35.1 39.5 41.1 39.9 35.6 33.1 23.5 21.8 20.4 11.9 6.4 11.7 6.4 6.4 6.4 6.4 6.4 9.8 16.1 18.6 21 13.6 6.4 6.4 6.4 6.4 6.4 6.4 6.4 6.4 6.4 6.4 6.4 6.4 6.4 6.4 6.4 6.4 6.4 6.4 6.4 6.4 6.4 6.4 6.4 14.3 17.2 19.6 27.7 40.6 45 44.6 48.7 54.5 58.1 63.4 67.8 76.1 84.1 99.6 114.3 140.7 170.3 182.4 191.5 204.3 208.4 197.9 190.4 192.5 199.1 208.7 211.7 212.5 210.3 211.7 220.7 231.4 231.1 232.5 229.8 241 248.4 254.4 259.6 263.5 269.1 283 286.9 290.3 303.7 313.9 320.2 328.9 334.8 348 356.7 375.2 386.7 384.4 401.4 398.8 397.3 389.7 380.4 376.2 375 384.6 407.5 423.1 417.4 423.1 401.5 388.3 395 384 370 362.6 372.3 368.5 360.1 357.8 355.2 353.6 358 361.8 356.5 351.7 349.4 351.9 366 372.1 375.2 385.5 386.8 382 363.6 356
146.4 163.6 176.9 187.7 186.2 184 155.4 123.4 123.5 140 112.1 100.8 86.2 67.2 57.6 48.8 43.7 39.8 35.9 30.2 22 6.4 6.4 6.4 6.4 6.4 6.4 6.4 6.4 6.4 6.4 6.4 6.4 6.4 6.4 6.4 6.4 6.4 6.4 6.4 6.4 6.4 6.4 6.4 6.4 6.4 6.4 6.4 6.4 6.4 6.4 11.7 10.6 10 12 16.7 16.9 16.1 19.4 18.4 23 32.2 35.3 38 37.9 36.9 34.1 30.4 29 28.4 23.8 22 13 12.7 16.2 18.7 6.4 10.6 6.4 13.4 16.2 22.6 24.6 22.6 10.4 6.4 6.4 6.4 6.4 6.4 6.4 6.4 6.4 6.4 6.4 6.4 6.4 6.4 6.4 6.4 6.4 6.4 6.4 6.4 6.4 6.4 6.4 6.4 10.2 14 15.1 25.9 40.6 43.2 45.6 49.6 55.9 62.9 63.5 69.2 72.7 85.5 105.7 125.2 161 172.1 180.9 183 188.1 187.3 179.6 185.1 197.1 202 205.2 204.7 203.1 201.3 206.9 216.1 219.5 219.1 238.1 242.3 249.6 259.2 260.7 260.7 264.7 270.1 278.7 287.7 290.1 302.2 312.6 313.9 329.8 358.6 356.5 365.9 365.4 369.4 383.2 380.1 372.8 368.5 369.4 369.6 371.9 365.7 374.5 387.9 402.5 393.6 372.6 366.6 372.8 372.8 356.7 348 344 345 345 338.4 343.5 359.5 359.5 350.4 342 341.8 336.7 335.8 339 353.9 358.1 366.3 372 354.8 341.8 342.6
154.8 169.8 197 206.4 201.6 195.7 172.2 146.1 155.9 150.9 133.2 116.1 101.3 111.5 94.2 84 65.9 58.1 49.5 43.5 33.7 22.6 15.9 6.4 6.4 6.4 6.4 6.4 6.4 6.4 6.4 6.4 6.4 6.4 6.4 6.4 6.4 6.4 6.4 6.4 6.4 6.4 6.4 6.4 6.4 6.4 6.4 6.4 6.4 6.4 6.4 17.9 13 13 13.3 17.8 20 23.7 25.5 24.1 22.2 33.2 38.6 39 37.7 35.6 31.6 28.7 31.5 29.6 27.4 25 15.3 20.4 23.2 21.8 16 12.4 12.9 15.1 20.4 25.1 24.8 22.4 15.4 6.4 6.4 6.4 6.4 6.4 6.4 6.4 6.4 6.4 6.4 6.4 6.4 6.4 6.4 6.4 6.4 6.4 6.4 6.4 6.4 6.4 6.4 6.4 6.4 12.5 14.1 14.6 27.3 37.7 43.6 46.5 50.5 62.4 72.1 69 65.4 73.5 86.9 109.5 140.3 159 166.8 172.1 169.6 166.4 162.8 176.9 186.7 189 190.9 191.6 193.2 190.6 197.1 205.8 213.3 223.1 234.9 245.8 259.5 265 259.6 260.7 267.5 283.3 296.8 291.3 291.4 300.1 303.3 310.3 332.1 356.2 349.7 360.8 358.1 360.2 373 367.2 358.4 362.7 359.6 350.4 355.3 353.8 362.4 366.6 379.4 371 349.9 345.5 351.6 351 340 329.4 324.7 324.4 327.5 337.6 338.8 351.2 350.3 338.5 328.6 328.9 322 329.7 326.4 332.2 344 361.4 352.2 333.3 324.8 334.6
152.9 172 208.2 217 210.7 202.7 187.7 171 168.1 161.5 151 139.6 144.8 148.7 127 111 88.1 77.4 63.2 56.6 47 34.6 21.8 12.9 6.4 6.4 6.4 6.4 6.4 6.4 6.4 6.4 6.4 6.4 6.4 6.4 6.4 6.4 6.4 6.4 6.4 6.4 6.4 6.4 6.4 6.4 6.4 6.4 6.4 6.4 11.4 17.2 15.2 13.6 22.2 24.6 19.9 31.2 37.3 35.4 27.1 32.9 34 35.6 35.3 33.2 31.4 29 30.4 31.3 31.3 25.8 27.5 29 27 28.3 23.2 17.7 18.8 27.6 32.1 27.6 25.6 22.4 17.5 6.4 6.4 6.4 6.4 6.4 6.4 6.4 6.4 6.4 6.4 6.4 6.4 6.4 6.4 6.4 6.4 6.4 6.4 6.4 6.4 6.4 6.4 6.4 6.4 9.1 13.3 15.4 17.7 30.5 38.3 41.1 43.2 53.6 67.9 70.3 62.4 61.8 74.8 85.9 105.4 117.1 128.2 146.4 154.8 152.5 141.9 158.4 171 174 180.7 179.4 182.9 189 197.8 208.3 223.1 236.5 240.6 252.2 264.8 260.7 259.6 260.7 269.6 289.4 288.8 287.8 288.8 297.3 311.1 316.9 337.1 337.7 341.5 344.7 336.2 345.1 350.2 343.2 343.3 352 349.6 343 340.4 346.6 359.9 353.8 345.7 336.7 330.2 334.6 336.3 344 325.7 319.4 306 306.7 309.8 322.6 327.9 340.4 328.3 325 316.7 313.5 317.5 321.7 315 317.3 339.9 340.2 326.2 318.9 321.4 317.4
147.9 175.7 212.8 216.9 213.6 209.1 189.1 180 173.5 170.1 164 169.1 173.1 165.5 150.4 122.7 107.5 98.1 80.7 66.1 60.6 48.7 32.5 19.9 6.4 6.4 6.4 6.4 6.4 6.4 6.4 6.4 6.4 6.4 6.4 6.4 6.4 6.4 6.4 6.4 6.4 6.4 6.4 6.4 6.4 6.4 6.4 6.4 14.7 17.9 27.9 31.2 31.3 25.8 33.9 32.4 28.8 34.6 36.7 36.6 37.8 35.2 33.9 31.2 30.4 29.7 29.3 30.7 32.9 39 39.2 39.6 37.8 35.3 33.2 29.9 27.2 22 19.9 35.8 42.1 37.6 32.3 26.5 27.2 18.4 6.4 6.4 6.4 6.4 6.4 6.4 6.4 6.4 6.4 6.4 6.4 6.4 6.4 6.4 6.4 6.4 6.4 6.4 6.4 6.4 6.4 6.4 6.4 6.4 13.5 15.8 17.7 19.1 27.8 30.7 32.5 39.1 48.1 53.7 57.4 54.5 58.6 70.3 84.4 97.6 108.3 119.3 136.2 139.5 115.6 140.2 149.3 156.4 163.8 167.6 177.1 188.4 200.9 210.1 218.7 240.6 252.2 263.6 269.4 266.7 261.9 260.9 270.3 291.1 295.4 286.6 287.1 296.9 304.5 313.5 313 304.5 307.4 309.9 311.5 316.8 321.7 324.5 323.6 332.3 337 334.9 329.5 345.9 349.5 345 333 321.8 320 336.9 332.9 314.9 306.2 312 303.2 301.4 300.7 308.7 317 322.7 312.4 308 306.9 312.9 316.9 314.5 310.3 306 323.8 319.9 309.5 305.5 306.2 308.7
156.7 176.6 191.2 211 220.1 219.5 193.5 185.7 179.4 177.5 180.2 182.5 177.6 170.4 159.6 137.2 122 114.4 94.8 81.3 68.9 55.8 43.1 28.1 16.5 6.4 6.4 6.4 6.4 6.4 6.4 6.4 6.4 6.4 6.4 6.4 6.4 6.4 6.4 6.4 6.4 6.4 6.4 6.4 6.4 6.4 18.5 20.8 22.2 22.6 25.1 34.8 32.4 30.9 35.6 33.2 34.5 36.7 38.3 39.3 39 37.6 33.2 31.2 30.8 30.6 32 34.5 41.5 41.8 39.1 36.7 36.6 34.1 31.8 29.7 27.3 21.2 20.2 37.4 39.8 36.9 34.1 30.6 29 22.4 6.4 6.4 6.4 6.4 6.4 6.4 6.4 6.4 6.4 6.4 6.4 6.4 6.4 6.4 6.4 6.4 6.4 6.4 6.4 6.4 6.4 6.4 6.4 6.4 6.4 15.4 16.8 17.1 21.2 26 28.2 30.1 37.3 44 38.9 60.9 56 59.1 72.1 85.2 96.2 111.4 121.2 110.7 135.4 135.9 130.8 134.1 149 160.5 172.3 183.5 198 205.5 213.2 225.8 235 258 274.8 275.1 277.5 264.6 264.9 287.2 289.7 284.1 289.5 307.3 302.6 296.4 293.4 279.1 278.8 287.2 293.2 293.9 298.5 301.8 303.9 315.6 324.5 328.4 324 334.3 339.6 333.9 325.9 319.3 310.3 315.2 304.4 297.7 308.9 302.9 298.7 298 298 302.5 316.7 309.2 305.7 302.9 307.1 320.1 320.1 311.3 305.5 298.3 308.5 299.5 298 298 300.8 301.1
164.5 181.5 196.9 213.5 225.4 215.2 200.9 196.3 189.9 182.2 188 183.9 174.3 166.6 159.2 146.9 134.7 136.4 125.3 103.7 86.6 68.2 52 38.2 26.1 14 6.4 6.4 6.4 6.4 6.4 6.4 6.4 6.4 6.4 6.4 6.4 6.4 6.4 6.4 6.4 12 6.4 13.4 10.4 11.1 25.8 25 22.8 22.8 24.7 29.5 32.5 32.5 36 31.6 33.5 34.7 37.2 42.4 41.9 41.5 41.7 40.5 36.5 31.7 33.5 34.6 36 37.8 35.7 34.3 32.6 31.4 29.4 28 23.5 19.7 18.2 32.9 36.9 36.2 36.4 30 26.5 19.5 16.6 6.4 13.9 6.4 6.4 6.4 6.4 6.4 6.4 6.4 6.4 6.4 6.4 6.4 6.4 6.4 6.4 6.4 6.4 6.4 6.4 6.4 6.4 6.4 6.4 6.4 15.2 16.4 19.3 22.2 24.2 26.7 28.6 24 49.4 65.3 74.7 78 74.2 63 87.4 94.8 107.6 117.5 143.2 159.6 169.2 161.2 160.6 161.3 160.7 164.9 192.3 201.8 206.4 213.5 215.7 229.9 252 273.9 274.9 262.9 262.6 268 266.7 283.9 297.6 294.1 289.9 286 278.9 273.4 274.2 278.4 277.9 277.8 279.6 287.6 303.5 318.1 323.5 325 328.5 342 341.4 330.8 322.5 311.5 307.3 296.7 293.2 294.4 297.9 303.2 309.7 298 298 298 298 298 298 300.5 308.3 314.4 308.5 304 302.3 298 298 298 298 298 298 298
171.9 190.6 215.4 224.4 224 220.9 207.6 206.4 208.8 223.9 223 224.6 211.9 195.2 183.7 172.4 156.8 162.3 143.8 121.4 99.9 78.4 61.4 49.4 38.3 23.5 6.4 6.4 6.4 6.4 6.4 6.4 6.4 6.4 6.4 6.4 6.4 6.4 6.4 6.4 9.2 12.3 13.2 14.3 12.6 14 27.5 27.3 24.4 22.6 28 30.6 31.2 28.3 28.6 29.3 35.5 37.9 44.2 48.4 46 43.8 45.3 43.8 40.9 39.5 36.9 36.2 36.8 37.4 35 31.8 30 27 25.8 24.8 20.3 15.2 14.7 30.1 35.2 35 32 27.5 23.2 19.7 15.2 13.3 11.2 12.1 6.4 6.4 6.4 6.4 6.4 6.4 6.4 6.4 6.4 6.4 6.4 6.4 6.4 6.4 6.4 6.4 6.4 6.4 6.4 6.4 6.4 6.4 6.4 13.6 19.4 22.1 22.8 23.4 18.9 27.3 42.9 59.9 78.1 88.4 93.2 98 105.5 80.7 93.1 117.7 142.6 166.2 176.3 189.5 190.4 183.8 184.5 191.1 191.4 195.6 198.3 202.7 204.4 217 231.2 243.8 249.4 248.1 256.6 260.6 280.6 292.3 290 281.7 273.7 271.5 268.9 270.4 272.5 273.4 274.9 278.5 279.2 282.1 291.3 305.5 315.7 332.9 330 344.1 336.6 327.3 319.8 302.3 297.1 291.4 293.6 299.1 299.9 316.6 316.2 298.4 298 298 298 298 298 298 302.7 306.3 301 298 298 298 298 298 298 298 298 298
