ncols 200
nrows 82
xllcorner 240000
yllcorner 703750
cellsize 50
334.5 352 357.1 369.8 378.2 365.7 361 352.2 349 335.9 322.8 310.2 286.9 263.2 237.6 216.3 194.1 182.3 169.9 155.7 151.2 152 152.6 155.8 156.8 157.6 162.9 173.3 178 191.5 201.3 207.4 215 224.3 232 239.2 243.7 247.2 250.6 254.5 255.4 254 257.9 269.2 272 271.6 268.9 272.3 283.4 287.1 291.6 289.4 283.4 268.9 264.1 255.6 248.7 235.6 228.6 222.4 232.3 247.4 257.7 268.1 277.1 284.8 301.5 306.7 316.5 339.4 351.1 355 341 326.8 325.2 330.1 333.3 340.7 348 349.7 351.1 359.7 369.5 375.8 378 384.2 392.3 399 404.7 407.7 410.5 412 412.7 412.3 412.7 414.4 418.8 428.6 428.9 427.8 431.3 426.7 427.6 429.2 418.5 411.6 403.4 392.7 382.9 365.1 353.7 348.2 342.9 338.8 324.3 314.6 310.6 305.1 298.2 291.4 282.4 273.8 262.8 243.8 250.2 258.1 260.9 258.5 271.7 274.5 275.9 279.5 288.1 310.5 314.5 315.9 327.8 310.6 298.8 292.5 287.4 285.1 280.8 273.8 263.2 242.3 232.4 232.6 230.6 226.6 228.9 239.5 247.5 255.7 261.7 268.2 276.4 281 271.7 264.5 251.2 238.6 236.8 226.8 205.1 180 157.8 150.4 164.4 154.6 138.1 113.2 113.2 113.2 113.2 113.2 113.2 119.2 118.3 118.8 117.4 113.2 122.2 127.8 129.9 144.1 157.7 167.3 177.3 186.2 193 197.2 199.3 199.1 193.9 187.5 179.3 178.1 182.1 185.4
336.2 356.7 362.3 370.5 378.3 375.1 373 369 354.1 342.9 323.9 311.8 287.9 261.4 230.7 205 183 176.4 167.5 158.7 152.5 148.3 150.7 151.5 152.3 155.1 164.9 168 174.6 185.4 196.9 207.5 217.7 226.8 234.4 242.2 247.7 251.6 256.8 261.2 261.8 263.4 265.5 269.4 273 276.2 275.1 277.3 290.2 299.5 303.4 297.9 288.3 275.2 268.1 261.4 255.6 236.3 239.5 227.2 240.6 255 265.3 274 279.7 291.4 305.4 310.2 320.1 346.7 359.4 359.4 343.6 343.3 334.8 345.7 349.1 361.7 364.4 359 358.2 368.8 372.7 379.9 385.4 389.9 399.4 405.8 409.2 415.6 421.6 429.2 431.8 427.6 422.5 423.7 437.2 443.6 440 444.8 442.3 436.9 433.4 431 422.5 409.7 403.4 385.1 370.2 358.3 352.4 346.3 343.1 334.6 319.2 313.4 309.4 300.6 293.7 285.5 278.8 267.1 248.7 263.4 272.3 268.6 266.4 269.7 276 279.5 285.1 279.6 288.6 299.8 306.6 307 315.1 302.5 303.7 306 292.2 284.3 277.2 267.5 257.4 248.4 242.3 245.3 250.1 241.9 237.9 246 257 264.6 271.4 276.2 283 301.2 290.3 269.2 264.9 256.6 251.3 237.5 210.9 189.7 174.2 163.7 165.8 169.3 143.6 121.8 113.2 113.2 113.2 113.2 113.2 113.2 114.9 113.2 116.5 124.6 124.2 123.4 121.7 137.9 150 160.2 169.3 178 184.5 188.4 190.4 188.3 182.7 174.8 168 166.3 169.1 167.9
341.6 360.8 370.1 372.3 375.8 379 379.2 375 359.2 344 326.9 308.3 284.8 258.8 230.1 198.7 178.8 171 163.1 156.7 153.4 148.7 147.5 149 150.2 153.8 157.1 159.3 171.1 184.8 196.3 208.5 218.9 227.4 235.4 243.7 251.6 256.6 261.6 266.4 268.9 270.3 271.9 273.2 278.6 281.7 282.5 282.4 293.1 301.4 307.2 301.9 289.1 274.3 268.6 260.1 248.1 250.5 250 241.7 250.2 265.7 270.4 276.8 284.9 290.3 302.5 314.2 327.5 347 363.6 364.8 352.6 354.4 346.7 353.7 356.9 366 372 371.8 370.8 372.4 377.3 379.6 383.5 391.6 404 414.3 417.6 423.1 430 436.6 441.5 433 430.1 439.7 449.2 450.3 448.3 448 446.1 442.5 436.7 429.4 420.3 404.5 390.3 374.5 364.2 358.4 352.7 343.5 340.7 326.6 317.4 309.1 304.7 296.1 290.5 282.6 276.5 265.6 261.1 270.5 276.1 274.8 277.6 285.6 285.1 291.2 296.3 289.9 287.9 299 304 306.5 305.2 304.9 305 303.6 297.3 283.5 272.1 270.4 264.9 259.9 257.7 261.2 258.6 255 250.8 256.4 264.7 273.2 277.4 281 285.6 290.5 284.9 278.1 275.3 267.9 260.3 248.9 232.6 218.1 200.3 186.5 171.5 160.2 149.9 137.8 120.4 113.2 113.2 113.2 113.2 113.2 113.2 113.2 113.2 134.6 130.5 124.5 118 129.7 140.6 148.2 155.6 164.2 170.9 175.9 177.2 174.6 167.6 157.9 151.6 152.8 153.5 149.1
344.1 360.7 368.5 371.9 381.1 387.4 385.7 374.5 360.7 341.3 328.5 303.7 279.4 253.9 227.6 199.9 173.9 168.2 160.9 154.6 152.7 147.9 145.1 145.2 148.2 150.6 155.9 162.2 167.6 181.6 193.8 206.4 217.2 225.9 234.2 243.9 253.3 260.2 265.4 269.8 273 275.3 280.2 283 289.2 287.5 286.3 288.2 293.3 305.3 312.9 301.4 288.1 277.8 267 256.3 255.5 257 258.3 257.5 255.8 272.6 277.3 279.2 287.4 290.2 305.9 319.6 330 350.9 360.8 362.9 360.7 360.9 353.8 359.2 363.9 372.6 379.4 381.7 377.5 383.2 388.8 393.2 396.2 398.5 407.8 418.2 426.6 435 438.6 439.1 439.6 441.7 449.4 446.7 450.8 454.1 454.6 451.4 450.5 446.9 437.3 427.9 414.9 406.2 388.3 372.1 360.9 355.2 346.4 340.2 332.3 322.2 314.4 304.5 297.7 291.2 284.7 274.8 269.8 262.6 271.5 276.9 279.3 283.5 292.3 294.7 291.4 297.1 302.2 305 303.4 297.8 301.1 301.7 302.9 303.2 303.1 303.5 287.9 282.9 284.5 284.1 283.8 282.1 276.5 280.1 268.1 267.5 261 277.9 283.6 282.8 288.2 292.8 289.6 290.2 295 298.3 282.7 275.7 269.8 273.5 273.9 254.9 227.7 207.9 196.5 184.3 183.9 166.9 128.9 113.2 113.2 113.2 113.2 113.2 113.2 113.2 113.2 129 130.9 125.6 113.2 117.5 126.7 129.3 134.2 143.8 152.3 157.3 159.9 158.7 153.5 143.3 141.3 141.4 142.5 149.4
344.9 354.7 362.5 365.3 380.1 389.6 386.1 381.8 358.6 338.3 321.9 292.3 269.6 246.6 222.7 200.2 172.2 164.2 160.3 153.3 151.9 147.4 142.6 143 146.2 149.1 151.3 153.5 158.3 174.4 188.9 203.4 214.2 225 233.6 243.6 253.7 261.9 268.1 272.4 275.2 281.6 287.4 291.8 292.8 292.6 290.6 293.8 298.6 301.4 301.6 293.5 281 270.1 265.9 264.2 263.2 263.5 265.8 264 258.8 272.9 278.9 280.9 285 289.8 305.3 323.9 336.5 353 359 368.9 357.4 354.3 364.7 368.4 372 386.4 387.1 386.5 385.3 389.3 395.3 401.3 403.4 407.9 416.1 426.9 433.6 441.6 440.7 441.6 443.6 449.5 453.2 452.2 455.3 457.9 459.8 456.4 451.9 446.6 432.8 423.8 418.5 405.5 390.7 372.9 363 353.1 344 337.8 324.6 319.6 309.1 297.5 285.6 281.6 282.7 281 271.2 269.5 274.1 279.6 285.1 290.1 297.8 300 300.6 301.4 304.4 311.6 312.7 301.8 298.6 300.4 303 302.8 299 300.1 300.4 298 302.1 297.9 300.6 307 293 279.1 281.3 283.2 275.8 292.5 302.2 306.9 300.4 299.6 296.2 299.4 302.9 304.3 286.9 283.1 287.1 299.3 308 304.5 255.7 254.7 229.2 209.6 203.7 185.6 136.2 118 114.5 113.2 113.2 113.2 113.2 113.2 113.2 113.2 113.2 113.2 113.2 113.2 113.2 113.2 113.2 115.9 131 136.5 139.9 140.4 140.6 139 138.9 140.5 148.8 159.4
348.2 354.7 357 362.3 371.7 373.7 376.2 376.2 360.9 326.9 304.4 278.5 261.3 243.4 223.1 202.1 179 164.4 159.7 154.1 148.2 144 139.3 141.6 143.4 146 150.6 153.8 155.5 169.4 185.4 199.9 210.8 222.7 232.1 240.2 250.2 262.1 269.3 274.8 281.3 288.8 297.1 301.4 298.4 300 295.2 297.7 302.9 301.1 297.7 293 283.3 277.3 277.2 275.3 272 270.8 273.9 268.5 261.6 271.6 275.5 279.6 283.4 289.1 301.6 320.9 336.6 350.5 353.7 359.3 353.8 351.8 361.6 370.2 375.7 385.5 394.1 399 393.3 399 400.6 408.2 412.6 415.4 422.8 424.6 427.1 434.4 440.9 445.5 453.5 456.5 460.6 458.6 459.3 463 458.3 460.8 451.6 445 430.5 419.4 415.6 413 390 370 357.1 349.3 341.1 332.4 324.2 317.4 302 292.3 292.6 292.6 290.8 285.2 280.1 281.9 282.1 285 287.6 296.3 307 301.2 300.8 303.2 305.3 304.5 302 303.1 301.7 303.6 304.6 303 305.7 308.1 309.4 309.7 313.9 305 307.6 302 299 293.5 293.3 288.7 290.7 307.3 317.8 327.4 319 321.9 315.8 317.9 309.2 300.2 298.5 294 295.4 305.7 315.7 289.7 268.1 260 237.3 220.1 218.5 175.3 157.4 129.5 113.2 113.2 113.2 113.2 113.2 113.2 113.2 113.2 113.2 113.2 113.2 113.2 113.2 113.2 113.2 113.2 123 135.5 136.4 142.8 145.7 151.1 149.8 142.3 151.3 164.3
339 349.8 359 360.1 363.2 366.7 360.3 357.6 351.1 322.8 291.1 273.9 260.4 242 223.2 203.8 182.2 166.9 158.9 149.9 145.1 141.4 137.1 139 139.6 145.5 150.1 151 152.1 165.7 181.9 196.6 206.9 218.3 227.7 236 248.5 261.5 271.5 278 285.8 296.7 304.5 310 308.2 304 300.1 299.8 301.8 299.5 296.3 292.6 288.8 288.4 288.9 287.5 281.6 280.1 281.2 270.9 265.2 264.5 275.3 281.8 285.8 293.8 298.5 313.1 331.3 339.4 346.5 352 349.7 350.7 361 374.5 380.1 389.6 397.3 402.9 402.5 404.7 406.5 416 419.8 422 424.1 428.4 431.1 437 444 452.5 458.2 464.1 464.3 464.6 460.1 456.9 455.5 450.6 451.7 436.2 423 420.8 426.4 409.4 383.1 369.4 362.9 346.8 340.5 329.1 320.4 307.1 298.9 303.5 303.4 302.3 300.7 296.4 293.4 296.6 296.9 291.7 292.9 297.7 307.1 304.4 302.6 303.6 305.3 305.9 305.1 310.6 308.8 310.6 311.8 316.9 322.1 314.4 315.4 318.1 316.5 313.3 309.8 310.1 306.5 306 303.4 295.4 304.3 320.9 333.5 343.9 346.1 350.5 344.1 325.7 316.4 315.8 311.1 311.9 308.7 317.6 322 301.2 281.7 275.3 240.5 209.1 202.8 171.7 150.6 120.2 113.2 113.2 113.2 113.2 113.2 113.2 113.2 113.2 113.2 113.2 113.2 113.2 113.2 113.2 113.2 128.8 143.3 160.6 165.1 160.5 161.6 164.2 157.1 149.8 148.9 162.2
334.9 344 353.2 360.7 350.5 356 354.6 348.2 331.9 311.6 283.5 263.7 254.5 237.6 221 203.4 183 168.4 158.5 153.4 147.8 141.7 136.3 134 138 143.4 148.6 148.8 150.1 162.9 178.6 192.3 203.4 212.5 224.1 234.2 246.2 260.5 272.5 281.3 288.6 301.6 308.3 314.6 317 310.2 302.4 301.4 301.2 298.8 301.4 299.2 300.5 303.2 307 304.8 291.4 290.3 289 278.3 275.3 272.5 278.4 279.7 287.5 301.1 304.3 312.1 321.8 326 336.9 345.2 349.3 353.7 370.8 383.3 385.7 397.3 404.6 412.5 410.1 412.5 416.1 420.5 425.9 429 435.6 438.6 436.1 445.6 451.6 461.1 465.2 464.7 459 456.4 452.6 450.7 446.1 439.4 433.3 424.3 422.1 423.8 417.8 397.5 378.4 370.9 356.1 346.1 337.2 326.9 310.9 308.8 311.8 312.8 314.4 314.4 312.7 309.5 307.5 313 311.4 299.9 295.3 298.1 302.1 304.1 303.4 305.1 307.4 309.6 311.2 314.4 317.6 321.3 326.2 331.7 335.1 328.3 321.2 327.4 332.1 329.7 324.4 322 315.8 320.9 319 306.5 323.2 333.6 348.6 354 352.2 358.4 355.8 347.8 342.9 331.2 317.7 323 320 330.1 314 271 278.7 258.9 204.5 176.2 158 143 124.4 113.2 113.2 113.2 113.2 113.2 113.2 113.2 113.2 113.2 113.2 113.2 113.2 113.2 113.2 113.2 113.2 138.7 149.7 166.6 176.2 170.4 147.8 144.3 149.1 154.6 152.1 155.9
330.1 342 345.2 351 347.4 340 338.5 334 312.9 290.5 274.6 263.4 250.4 234.3 216.5 202.8 185.2 171.6 159.1 155 149 140 136.2 131.9 134.1 137.6 142.9 145.8 148.8 155.9 172.8 186.9 199.3 211.2 224.4 230.9 242.5 258.6 273 283.2 291.3 304.7 314.4 320.4 324 319.5 305.2 302.8 300.7 301.4 309 310.7 315.1 320.2 319.3 313 298.1 299.3 297.2 284.9 285.8 283.9 279 284.6 284.8 298.6 304.1 307 315.7 331.5 338.9 345.8 351.7 358 382.2 396.8 390.9 404.4 409.3 417.1 417 416.7 419.3 423.3 429.2 432.9 441.6 440.6 442 449.3 454.7 460.7 460.6 453.3 449.7 449 444.3 440.5 437.9 430.4 421.9 422.5 419.9 414.8 404 389.7 381 366.8 354 352.2 340.3 325.3 310 318 319.5 324.2 326.9 327.4 328.4 327.9 322.9 324.3 317.9 308.2 300.4 302.5 303.1 305.3 305.3 306.5 310.8 316.3 318.9 323.8 331.3 336.1 343.1 351.2 352.3 342.5 332.9 336 338.9 341.7 339.3 336.3 331.3 335.6 331.8 324.2 335.7 344.2 355.4 364 366 366.3 380.7 383.3 380.6 355.6 332.2 302.1 299.4 294.1 255 243.6 243.5 211.1 170.4 148.7 135.4 122.9 116.7 113.2 113.2 113.2 113.2 113.2 113.2 113.2 113.2 116.8 113.2 113.2 113.2 122 133.9 124.1 113.2 113.2 119 125.9 130.8 135.8 143 152.1 157.5 165.3 163.6 159.6
330 335.6 339.6 341.7 341.3 337.8 326.4 311.4 294.3 280.2 271.8 260.1 246.8 231.1 215.6 201.2 186.6 174.4 162.3 154.6 149.3 142.3 135.8 130.9 130.1 131.8 139.9 145 147 150.5 166 179.7 192.4 208.4 221.5 230.1 239.8 254 268.9 282.3 291.6 301.1 316.7 322.2 320 317.9 305.8 303.4 301 300.5 309.8 315.2 333.2 331.9 325 313.5 304.9 305.2 302.4 293.3 297.9 295.5 295.5 284 291.3 298.4 300.6 307.1 321.9 339 344.4 349.9 355.5 362.6 380.1 395.1 394.6 408.5 413.7 421.3 421.2 422 425.6 428.5 432.9 438.6 441.9 443.8 446.8 449.8 453.7 458.2 454.8 452.8 449.5 446 445.3 435.5 428.8 423.3 417.9 419.1 413 407 395.2 381.2 369.9 361.9 359.8 353.7 339 326.8 317.2 326.6 331.1 337.5 340.3 343.9 341.2 337.8 330.3 332.1 320.6 310 304.3 304.3 307 307.7 307.1 312.9 319.7 323.6 327.5 334.5 338.3 346.9 355 358.6 364.1 358.1 348.1 343.2 345.6 345.9 346.4 341.1 347.2 348.3 345.4 335 347.2 355 366.7 370.9 377 386.3 393.9 398.5 400.8 381.8 352.5 307.3 274 252.8 237.8 220.4 200.3 168.5 147.2 132.5 123.9 119.2 115.6 113.2 113.2 113.2 113.2 113.2 113.2 113.2 113.2 113.2 114 116 113.9 113.4 131.6 128.3 113.2 113.2 115.7 122.1 125.8 140.2 150.4 158.3 162.6 164.6 164.8 163.3
332.3 337.3 340.1 341.6 341.3 336.5 324.5 309.3 294.3 279.5 267.8 253.8 239.5 223.8 207.9 194.4 181.2 172 162.4 151.4 146.5 140.5 135.1 128.5 125.7 127.5 136.7 142.4 144.5 144.2 158.1 173.3 186.5 203.9 219.3 225.6 236.5 248.2 262.5 281.5 292.4 297.4 310.4 319.3 317.2 311.8 307 304.9 299.1 300.2 313.7 330 341.7 335.7 324.3 319.4 309.2 307 303.5 300.9 304.5 303.1 299 290.6 300.5 306.9 311.6 309.1 325.1 337.9 348.6 358.7 362.4 369.5 383.6 392.4 398 411.9 418 428.6 432.7 427.6 434.8 432.1 438.9 446.9 447 453.1 452.6 451.8 452.3 453.9 451.4 453.2 451.8 442.3 435.1 427.8 422.7 418.9 414.3 409.9 406.2 401 390 381 368.9 365.9 362.2 351.6 343.2 326.3 329.3 336.1 344.7 349.3 350.7 350.7 347.2 341.5 334.9 330.6 323.5 312.9 303.8 307.9 307.5 309.6 312.7 318.9 324.4 330.9 337.1 344.7 352.3 355.3 363.9 370.4 368.5 366.2 361.4 353.2 357.5 365.1 367.2 352.8 355.6 357.9 350.9 346.2 355.8 367.5 378 386.6 393.1 399.4 413.1 408.7 409.2 395.6 382.1 312.8 269.2 240.2 224.8 201.9 180.5 161.5 145.9 139 125.9 120.7 117.2 113.2 113.2 113.2 113.2 113.2 113.2 113.2 113.2 124.1 123.5 126.4 127.8 124.8 120.6 116.6 113.2 113.2 117.4 124.3 134.4 144 152.9 159.5 161.7 161.1 159.7 156.8
335.9 340.1 347.2 345.2 340.6 330.9 325.5 309.6 295.1 276.6 261.4 246.1 232 213.2 195.4 182.4 172 162.8 155.1 146.2 142 135.1 129.3 125.3 121.2 122.4 131.9 136.7 138.3 140.3 146.6 164.3 180.2 196.3 217.9 219.4 233 241.6 254.2 275.4 293.9 298.2 304.6 313.8 316.7 313.5 307.3 298.1 297.9 309.1 326.1 333.6 345.1 333.7 326.2 323.5 316 309.4 303.9 303 304.8 303.6 301.5 302.6 306.5 315 312 313 331.8 348.6 358.6 362.9 366.6 372.2 383.2 392.2 405.8 415.4 428.3 439.2 441.8 437.9 442.9 438.3 447 449.9 451.2 453.6 454.3 454.5 454.4 454.9 448.1 445.9 441 435.9 429.5 425.5 425.2 416.6 410.1 402 403.8 397.6 386.1 376.3 370.3 369.5 360.3 345.8 343.8 335 342 356.4 359.7 365.3 361.4 358.2 350.6 344.5 336.5 330.4 324.4 315.3 305.9 305.8 308.9 315.9 323.3 323.8 331.8 338.8 347.1 351.7 363.9 362.6 373.2 380.4 378.3 375.7 376 371.3 361.4 368.7 374.9 366.4 358.7 366.2 358 367.4 367.7 378.9 395 400.4 408.1 412.3 425.8 424.5 422.8 388.6 352.3 309.2 266.9 236.1 215.8 196.1 179.7 166 156.8 141.3 133.4 129.1 128.7 119.4 113.2 113.2 113.2 113.2 113.2 113.2 132.7 133.6 139.8 139.6 141.8 135.7 125 122.2 125.1 117.6 113.2 124.4 133.9 142.8 150.8 155.9 156.6 153.6 151.6 155.2
335.7 337.2 344 345.1 338.2 327.4 317.2 314.6 295.3 275.4 257.6 242.2 227.7 210.2 191.5 180.7 172.8 163.5 153.3 144.7 137.4 131 124.9 118.8 116.6 119 126.4 129.1 132.6 134.1 138.5 155.1 167.7 182.7 201.1 216.9 219.7 231.9 243.4 265.2 289.7 293.5 302.7 310.7 315.7 314.8 296.1 298.2 304.2 318.7 333.8 337.1 342.2 332.7 326.6 319.2 317.9 307.9 304 304 305.8 307.3 306 305.2 310 318.2 313.4 320.3 336.6 353.3 363.2 364.9 366.7 376.5 385.6 401.4 413.6 430.8 434.4 446.4 447.5 446.5 448 444.9 448 449.7 452.6 455 455.5 459.3 459.2 458.5 450.3 439.9 434.7 430.9 426.7 424.9 418.7 413.4 409 400.2 395 388 381.9 376.4 372.6 366.9 354.3 356.5 351.4 350.5 355.7 367.2 370.8 371.5 368.3 360.3 352.9 345 338.2 331.6 324.4 317.2 308.9 310 310.8 317.5 326.3 333.1 339.5 347.6 357.1 361 368.6 370.6 375.6 385.8 393.6 393.1 388.5 386.7 378.3 370.4 375.7 374.8 367.3 370 374.3 378.9 385.8 379.7 404.4 416.1 421.3 422.9 429.7 430.9 413.4 378.1 338.8 298.7 265.9 239.3 220.9 201.5 181.2 168.2 167.1 149.2 139.2 140.9 130.3 113.2 113.2 113.2 113.2 113.2 128.4 122.7 136.7 146.1 147.5 161.9 161.8 152.4 143.5 140.2 136 128.2 116.7 118.9 129.8 139 146.4 150.5 147.3 146.2 145.5 153.1
335.4 336.9 338.9 338.9 336.6 325.9 310.6 305.6 287.9 267.9 249.1 234.6 224.1 206.7 191.7 182.2 173.4 164.8 153.2 140 131.6 125.8 117.9 114.6 114.2 116.3 121.2 123.3 126.3 129.9 134.5 144.4 157.5 171.9 189.4 201.5 209.5 221.6 232.7 251.9 274.1 282.5 290 301.5 300.7 292.2 297.6 303.9 313.4 326.7 335.9 336.7 335.2 330.7 323.8 321.2 321.8 313.7 309.5 311.8 308.7 311.5 310.8 306.3 310.7 322.3 315.9 324.9 344.2 353.1 361.1 363.7 366.5 376.8 387.9 406.1 427.2 436.9 446.6 446.6 449.6 453.3 453.6 447.5 448 450.4 451.7 453.8 456 459.4 455.4 454.5 453.5 442.2 434.1 428.8 425.3 419.2 415.6 410.5 401 397.6 394.9 389.3 381.4 376.2 372.1 364.4 366.2 365.3 360.2 363.3 370.4 378.3 380.6 380.1 372.7 365.6 352.8 343.2 338 332.2 325.5 317.3 314.7 313.9 314.8 321.1 329.9 339.8 345.2 355.3 362.6 370 381.5 382.5 392.6 407.9 402.5 410.1 410.9 408.9 398.7 382.3 380.9 381.2 376.7 383.5 389.8 389.1 395.5 385.8 415.4 425 426.3 431.6 424.7 424 392.7 364.5 331.3 295.5 276.2 255.4 228.3 202.2 183 171.8 162.3 151.1 138.5 130.8 129.5 117 113.2 113.2 113.2 116.6 131.9 131.2 136.3 148 155.4 175.7 173.8 171.5 170.8 162.2 150.2 136.7 120.6 115.2 123.9 134.2 140.6 144.2 143.4 141.8 141.4 160
333.6 336.5 337.3 335.5 333.5 324.1 310.7 291.9 276.9 255.8 243.4 233.6 221 208.7 193.5 180.5 171.5 162.5 149.1 132.4 123.1 119.9 114.5 112.1 111.3 111.2 114.3 116 122.4 128.8 131.2 135.7 150.1 163.3 178.3 192.2 201 210.9 223.1 236.1 257.5 270.9 275.8 278 281.9 291.2 300.1 307.9 325.7 330.4 336.3 337.7 337 334.5 330.1 328.9 335.4 326 315.6 320.9 315.1 312.5 312.2 309.6 317.2 323.9 318.5 331.1 344.3 354.1 368.4 368.7 371.7 385.7 395.1 417.8 437.1 440.4 451.5 446.2 444.7 453.3 453.1 448.1 449.2 452.4 452.9 451.6 456.2 453.7 449.3 444.2 441.8 431.4 428.2 427.3 420.5 417.8 412.3 405.6 400.1 397.1 392.2 387.1 380.9 382.1 374.5 374.6 374.7 374.8 374.4 377.1 385 389.6 389.6 385.6 376.6 365 350.9 341.9 337.5 333.9 327.4 321.8 319.3 318.7 321.5 329.4 333.1 351.5 355.7 368.3 373 379.5 383.9 391.9 405.3 419.3 420 416.6 417.9 414.1 405.8 403.8 394.4 394 393.1 400 399.5 396.8 399.5 399.9 414.5 420.8 422.8 426.6 413.7 407.3 386.2 364 339.6 320 295.1 268.2 238.2 211.6 186.9 172 163.3 147.5 141.7 138.1 143.5 129.8 118.4 113.2 113.2 113.2 113.9 120.9 133.4 149.8 164.2 177.7 169.8 170.3 187.8 188.6 178.8 152.9 131.8 113.3 117.1 126.9 132.7 136.5 137.4 135.8 140 157.7
327.3 337.6 334.8 332.5 326.1 321.1 306.7 290 269.6 253.2 240.7 230.6 220 208.1 194.6 179.9 168.2 158.4 146 131.5 122 115 112.8 109.3 104.2 103.3 108.1 114.1 120.5 126.5 127.9 130.9 140.7 155.1 169.8 181.3 191.9 201.8 215.1 228.4 242.6 252.3 257.6 266.1 281.9 292.3 301.4 312.9 332.5 333 335.1 336.2 339.6 341.5 335.1 336.4 337.7 327.6 321.4 326.1 319.8 317.6 318.7 316.9 321.2 328.4 325.4 337 351.3 358.9 367.1 371.2 374.4 389.4 405.6 420.4 436.9 437.7 441.4 436.8 440 446.5 448.5 449.3 450 454.9 452.7 447 441.5 441 431 428.2 426.5 433.6 428.7 421.3 421 421.3 417.5 411.2 406 399 392 387.4 386.2 383.3 384.7 384.9 385.1 386.5 386.8 390.5 398.1 398 393.2 385.7 374.9 366.1 359.2 347 341.3 335.8 329.1 323.6 318.8 319.8 326.1 331 336.3 356.5 362.5 374.6 378.9 382.3 389.4 402.9 413.2 422.6 420.9 428.5 431.2 432.7 438.1 433.2 413.1 402.1 406.6 409.3 412.9 406.8 414.3 406.3 417.5 420.1 423.8 422.8 411 410 400.9 386.6 367.6 341.4 314.1 281.9 252.8 223.7 200.5 184.7 169.8 158 155.7 155.7 163.9 150.3 139.5 121.1 113.2 113.2 113.2 119.1 139.3 161.2 177.6 170.7 167.9 175.2 194.5 211.2 209.6 189.9 161.6 127.6 111.1 118 123.1 127.4 129.9 132.1 144.5 165.2
322.1 332.8 332.9 325.4 319.4 315 302.2 280.2 261.8 243.5 234.2 224.9 215 203.4 190.6 175.3 162.6 153.2 143.3 133 121 111.4 109.3 107.5 102.1 99.9 105.4 111.1 118.1 123.3 125.8 127.2 130 145.6 158.6 168.5 178.3 193.2 206.7 217.6 228.1 236.6 244.5 264.5 281.2 292.8 302 311.7 330.1 326.1 325.8 336.1 339.5 335.6 334.9 335.8 338.4 334.4 326.4 329.4 327.8 327.4 324.3 323.5 324.6 331.2 330 343.1 356.8 362.5 368.1 370.8 375.9 391 408.5 418.2 435.8 430.8 430.5 430.3 436.9 454.7 456.7 451.1 452.9 457.7 448.8 436.8 431.4 429.4 422.1 416.4 425.1 424.7 418.2 422.5 424.5 422.7 424.6 417.1 410.6 400.1 398.5 393.2 394.1 393.4 393.8 393.6 396.5 398.3 398.9 402.5 407.9 408.4 404.5 394.7 385 375.1 360.1 353.8 344.2 337.2 331.4 325 320.5 323.8 327.9 332.9 338.9 358.6 366.6 373.5 380.4 399.3 400.3 411 423.7 433.9 438.3 441.4 447.5 454.8 459.6 458.4 435 420.7 420.7 419.1 422.1 425.6 425.3 417.1 425.7 433.1 433.5 430.3 429.3 428 425.9 415.8 399.4 363.1 328.4 295.4 261.1 230.8 208.8 193.8 181.7 169.5 167.5 166.9 166.2 170.5 152.1 141.4 125.9 113.2 113.2 113.2 124.1 143.4 168.2 166.3 167 179.4 195.5 213.2 220.9 212.2 197.2 156.5 120.1 112.3 111.7 118.1 119 126.7 141 155.3
313.6 317.6 329.9 312.2 303.6 301.5 288.2 265.1 244.2 232.6 223.6 215 204.7 195.4 183.9 168.8 156.3 147.5 138.5 130.8 120.5 111.2 105.4 104.5 102.2 100.9 100 106.1 113.2 116.7 121.9 124 124.4 135.9 148 159.3 171 182.7 195.5 209.2 217.9 230.4 247.7 265.7 280.8 291.8 301.3 309.7 322.4 322.8 325.2 329 329.6 331.4 335.5 338 339.6 337.4 330.5 334.1 335.6 336 329.5 325.9 325.6 331 335.1 344 354.8 360 364.9 371.4 377.9 396.9 407.1 414.7 424.6 424.5 432 431.6 449.7 455.6 455.3 460.3 455 450.8 439.4 429.8 426 423.2 418.3 416.3 419.4 414.8 414.8 418 422.6 421.4 420.8 416.5 417.6 407 402.1 400.7 398.1 400.9 403.6 403.9 408.3 408.9 409.2 414.8 420.3 418.6 414.6 408.3 391 376.1 366.9 359.3 345.7 339.9 332.7 328.6 324.3 323.8 329 336.7 347.2 359.3 368.1 378.7 387.7 399.3 408.9 418.5 430.7 440.4 447.8 455.4 464.5 474.2 476 467.4 438.3 437.5 431.1 430.4 433.2 433.9 430.2 436.2 437.6 456.4 460.9 455.5 453.7 447.5 441.4 431.6 407.7 378 341.3 308.1 273.5 239.2 230.4 211 196.7 179.7 168.5 161.6 170.2 181.7 167.6 164.6 143.1 121.1 113.2 113.2 114.6 129.5 152.3 170 172.3 179.3 195.8 213.3 224.9 225.3 196.9 190.3 149.9 126.7 112.2 109.1 109.5 116.6 126 137.9
313.1 304.4 300.8 292.1 280.6 273.7 264.8 249.2 235.2 225.7 216 205.2 195.3 185.9 179.8 167.5 154.7 142.2 132.8 124.6 117.3 108.8 102.6 100.9 100.4 101.3 98.3 99.9 106.3 110.6 115.2 118.8 120.3 127.1 138.4 150.7 163.5 174.2 184.1 201.7 213 227.3 246 263.9 278.7 289 301.9 311.1 319.7 328.1 330.9 330.9 331.3 333 343.6 341.1 337.6 334.3 335.2 344.4 348.8 347.7 336 331.1 326.6 335.7 342.4 343.5 354.9 357.5 372.9 378.2 382.1 399.4 408.2 414.4 427 429 432.2 438.9 454.1 456.2 455.9 469.7 455.7 440.3 433.6 430.2 424.8 420.8 423.1 414.8 414.8 414.8 414.8 416.2 418.1 419.7 423 423.1 415.9 413.3 406.5 404.1 405.2 408 410.8 413.5 417.6 419.8 421.8 427.9 431.2 430.3 425 416.3 399.3 383.8 369.5 358 346.9 343.1 337.3 332.6 328.9 327.1 328.9 338.8 350.2 358.2 371.8 382 395.7 408.2 415.6 427.4 438.1 449.4 461.4 472 480.2 487.9 488.1 463.1 451.7 449.8 446.2 449.5 445.9 448 450.4 453.8 457.9 457.6 473.9 481.2 476.2 463.3 454.9 448.1 437.1 417.1 357.8 323 291.1 260.6 245.5 235.2 222.3 204 183 161.2 155.6 160.3 160.7 175.5 160.7 138.6 114.4 113.2 113.2 127.2 155.3 172.7 171.4 178.4 199 206.4 217.8 202.5 195.1 193.5 187.9 172.9 140 108.7 104.1 106.5 111.9 119.7
311.2 302.3 290.3 277.6 263.5 254.6 249.7 246.3 237.6 225.4 214.3 203.6 194 186.2 177.8 166.3 155 141 126.9 116.8 111.4 103.7 101.3 99.4 99 99 96.1 96.6 97 101.5 105.9 112 115.7 119.1 130.2 143.3 155.3 165.2 180 195.5 208.7 222.1 241.6 259.6 275.7 290 305 315.3 319.1 327.3 332.6 333.5 334.1 336.9 347 340.6 336.8 334.2 340.1 346.8 350.7 352.1 340.6 333.9 328.9 336.8 346.8 348.5 358.8 366 376.7 380.5 382.1 398.3 407.9 419.2 431.3 430.9 434.7 444.4 454.5 456.5 461.3 462.5 454.9 435.5 432.1 426.3 424.7 424.7 417.1 414.8 414.8 414.8 416.8 414.8 415.9 429.9 422.2 420.4 418.6 415.4 410.9 409.4 410.7 413.2 420 423.7 427.6 432.9 435.7 438 439.8 437.5 430.8 421.3 407 393.1 381.7 367.6 356.8 348.8 341.4 336.5 331.8 326.5 329.8 337 348.4 358.4 374.9 388.9 400.6 411.5 422.8 434.1 449.9 463.8 475.4 484.4 497.3 500.8 498.5 471.2 475.6 480.5 477.4 474.9 474.1 464.5 461.2 465.9 469.5 473.3 482.4 490.6 486 480.2 468.1 460.6 458.2 441.8 371.8 336.2 311.3 277.9 267 259.9 247.7 231.1 210.4 187 161.8 149.7 146.7 164.2 164.5 145.8 113.2 113.2 120.5 127 147.8 162.8 165.9 179 195.4 182.4 191.3 195.1 192.9 172.3 193.2 188 146 114.9 104.8 104.4 101.4 107.3
294.6 291.9 283.7 271.7 256 249.6 240.8 234.6 229.5 221.3 209.9 201.4 191.2 183 176.2 164 154.1 142.2 130.4 119.1 113 107 100.8 99.4 97.4 97 95.6 95.1 95 97.1 100.2 104.9 109.9 114.4 121.5 133.1 147 159.3 174.3 188.6 200.5 213.4 233.2 254.3 271.5 288.8 307 316.1 320.9 325.7 332.3 334.7 338.1 338.9 338.8 338.5 336.9 332.5 336 344 343 341.9 342.3 339 334.1 334.8 347.1 352.4 364.8 369.2 373.1 380.3 387.7 399.9 407.8 418.7 431.3 432 437.2 450.4 452.2 453.3 462.6 461.7 448.7 435.7 431.7 432.1 427.2 420.7 418.4 414.8 414.8 414.8 414.8 414.8 414.8 425.1 420.8 418.5 417.4 416.3 413 414.2 420.3 425.1 428.6 432.1 436.6 445.5 447.7 450 450.4 446.6 440.5 432.6 422.9 417.8 400.2 392 393.6 359.4 345.5 339.7 335.3 330.9 331.7 341.2 354.4 362.8 375.2 391.9 403.1 417.9 432 442.8 460.9 472.8 488.4 498.7 504.8 515.4 497.7 491.8 498.3 503 497.3 494.8 502.5 480.9 480.8 474.3 481.8 487.8 490.9 506.1 512 512.6 506.4 491.9 475.2 429.8 389.1 348.7 318.2 300.5 292.6 283.6 272.6 257.1 237.1 214 184.6 164.7 148.7 141 136.3 122.2 113.8 113.2 119.7 123 140.1 165.3 162.3 173.4 184.1 159.4 172 167.8 166 158.5 176.1 169.5 148.4 118.6 107.9 107.1 103.2 100.8
274.7 273.1 266.8 261.7 247.9 239.9 234.2 227.7 222.9 216.5 206.2 197.8 190 179.6 170.4 162.5 152.4 141.6 130.9 121.1 112.6 106.5 101.7 98.5 97.3 100.7 99.3 94.4 94.9 94.6 96.5 98.4 103.3 109.5 114.1 126.6 138.2 152.6 165.9 177.7 194.9 211 226.3 248.2 265.3 281.9 305 312.6 319.5 321.5 334.4 339.2 342.7 339.6 337.5 333.9 331.7 332.3 332.4 337 338.7 343 347.1 345.6 341 343.1 355.9 355.7 361.4 366.3 376.5 384.8 396.2 406 413.5 419.4 429.3 433.9 439 446.6 450.5 450.1 453.1 449.2 436.8 432.6 436.9 430.8 424.5 415.6 414.8 414.8 414.8 414.8 414.8 414.8 414.4 416.7 419.1 416.1 414.8 413.1 415.2 419.8 426 431.2 435.5 442 451.1 454.6 457.9 461.5 462.4 461.8 458.7 450.2 438.7 428.1 418 417.6 392 367.7 350.5 343.6 338.2 333.3 333.7 344.1 356.2 367.7 377.5 390.5 404.1 418 439.7 455.9 474 482.7 499.7 508.4 511.8 510.6 503.5 507 516.6 523.1 514.1 518.5 522 504 506.8 487.6 485.4 495.3 503.1 496.8 515.4 517 513.3 502.1 481.5 443.6 400.4 358.6 330.8 322.3 313.5 305.8 296.9 282.9 262.8 240.7 215 190.8 166.5 139.7 132.4 126.4 134.8 113.2 116.8 117.8 130.6 147.3 141.2 140.4 147.5 159.1 167.8 170.3 169.2 160.1 148.7 155.7 159.5 140.7 110.3 107.7 104.3 100.5
270.5 261.1 253.7 247.1 240 233.3 229.2 223.9 217.7 214.3 204.5 193.8 186.6 179 168.7 156.5 147.4 138.8 129.8 120.9 113.6 107.1 102.2 98.7 96.6 95.6 97.4 93.2 93.2 93.9 93.3 94 95.9 101.5 108.7 118.6 131.1 145.7 155.6 169.1 189.2 205.7 220.1 240.5 260.2 280.6 301 308.5 315.2 320.3 327.9 336.6 343.1 343.8 334.1 330.6 331 331.6 332.4 336.7 341.1 352.7 347.4 345 344.3 352.6 359.8 358.9 364.4 371.8 373.6 383 401.1 410.8 419.4 427.3 438 442.4 445.9 453.2 453.9 449.7 447.5 442.4 437.1 436.1 435.3 426.9 418.2 414.8 414.8 414.8 416.1 422.9 420.4 414.8 417.8 417.2 415.5 414.1 413.7 417.7 422 425.9 432.5 437 443.6 455 462.7 465.5 469.7 470.8 477.7 484.2 479.6 477.4 458.6 443.4 433.2 419.2 393.5 368.9 358.6 348.9 341.4 336.7 335.2 345.4 358.3 368.7 382 395 407.4 420.2 441.2 467.7 492.6 495.8 503.1 514.9 517.4 516.5 518.3 523.4 542.9 548.5 538.5 541.8 540.5 523.1 510.9 507.5 501.1 496.9 506.1 506.3 509.6 515.8 514 506.7 494.6 439.9 415.4 373.6 344.1 333.8 325.9 330.6 322.6 306.1 290.5 269.5 239.5 213.8 187 159.8 136.2 126.2 125 111.3 116.5 115.4 119.4 129 130.4 139.7 149.4 166.4 174.2 179.2 177.9 173.7 145 152.9 159.7 142.7 106.2 104.2 102.4 99.2
264.9 257.7 251.4 244.6 237.5 230.8 224.7 222.4 216.5 209 202.5 192.9 184.4 176.6 166.9 159 150.5 140.3 130.3 120.6 114.5 107.3 101.4 97.8 96.4 95.5 94.4 92.9 92.2 91.7 91.2 92.7 93.1 96.4 103.3 111.3 122.5 138 151.5 164.7 181.5 197.8 214.5 233.3 254.5 277.5 298.1 305.4 309.2 316.6 327.9 335.9 339.2 336.9 331.2 331.9 332 332.4 333.6 338 344 345.1 345.4 346.7 348.5 357 361.9 370.1 375.7 380.7 386.9 388.9 407.1 413.6 423.4 434.5 443.7 445.9 447.3 460.7 458.6 452.2 441.9 441.4 435.9 431.6 427.2 419.1 414.8 414.8 414.8 414.8 414.8 422 421.6 416.2 414.9 414.4 414.1 414.8 416.8 421.1 426.6 434.6 439.5 447.9 457.1 466.8 473.8 477.9 482.4 489.1 497.2 500.6 497 491.4 476.2 459.9 446.2 429.4 410 395.8 368.1 355.8 346.2 340.2 338.8 347.9 357.9 369.7 381.2 395 406.7 423.8 439.4 465.3 492.8 505.2 510.5 515.1 519.8 528.4 534.9 540.1 554.4 558.2 558.1 551.2 551.7 537.7 530 531 526.1 514.9 502.2 505.1 503.8 508.9 517.4 511.3 501.9 459 410.4 382.5 362.4 347.4 335.5 341.1 349.3 325.9 325.2 305.3 267.6 238.9 208.3 183.8 156.7 129.8 114.1 110.3 113.1 112.4 116.2 119.1 124.5 150.9 153.2 165.4 186.6 191.1 169.6 168.1 145.1 133.7 156.4 129.7 104.4 99.5 98.5 99.5
262.6 257.8 253.1 249.4 239.7 233.4 228.2 220.5 210.5 204.6 200.1 190.1 182.4 173.1 167 160.7 151 140.4 129.2 123.9 120.1 116.2 107.5 99.5 96.6 95.1 93.8 92.8 91.7 91.2 90.4 91.3 90.3 92 95.9 102.3 112.8 127.7 144.2 157.8 172.2 190.4 209 228 250.8 272 293.6 298 301.3 314.3 330.3 329 326.9 329.8 332.4 333.5 334 334.5 336.5 339.9 340.3 343.7 346.9 352.8 357 364.2 373.3 378.3 382.6 391.7 396 399.8 409.4 415.6 429.4 438.2 444.9 448 452.6 460.7 446.1 439.3 442.2 439.8 436.7 432 420.9 414.8 414.8 414.8 414.8 414.8 414.8 420.7 418.7 415.5 415.7 418.1 419.3 421 422.5 424.9 433.9 442.8 449.4 456.6 467 475.7 485.5 490.8 500.7 509.1 515 518.6 521.3 511.9 489.7 470.4 457.9 444.6 429.7 405 378.4 364.3 349.2 345.7 340.4 352.5 360.2 372 383.9 399.3 411.4 423.9 442.7 462.2 495.2 509.7 518.3 523.8 529.5 539 545.6 557.2 574.8 584.1 582.3 576.4 579 563.7 550.7 546.6 545.9 550.3 533.6 507.8 505.8 508 515.8 518.6 497.5 451.9 424.1 402.7 380.9 368.6 357.7 347.5 344.5 338.5 345.7 338.3 294.5 262.6 236.3 205.5 173.6 138.1 114.8 110.9 109.5 113.8 115 111.8 116.3 136.3 145.3 145.8 145.8 141.6 135.9 135.5 124.4 115.6 122 106 103 106.5 108.6 110.9
257 251.6 248.8 244.1 235.5 229.6 223.5 216 209.5 201.1 195.1 186.5 180.2 172.5 165.9 159.1 152.3 142.4 134.1 128.5 123.6 117.4 113.1 103.8 98.1 94.7 93.5 92.6 91.6 90.5 89.9 89.9 89.4 89.4 90.9 96.1 104.9 116.4 135.2 150.8 166.9 183.3 203 220.9 243.8 261.3 277.8 286.6 299.4 314.9 321.7 327.9 327.5 330 334.9 337 340.6 340.9 341.8 343.4 347.6 347.8 353.8 358.1 371.1 375 379.2 384.8 390.1 399 399.5 404.3 414.5 426.4 436 441.1 447.2 450.6 458.8 456.6 441.6 438 445 447.4 438.1 426.5 415.1 414.8 414.8 414.8 414.8 419.6 418.5 416.9 418.6 416.9 417.6 418.9 421.8 426 429.1 436 441.6 455 463.1 472.2 477.8 487.5 497.3 503.7 516.2 525.2 532.1 538.1 538.3 531.3 509.7 489.5 472.4 457.9 449.2 409.4 384.7 372.1 360.7 361 352.8 354.2 363.9 375.8 387.4 401.6 414.4 426.1 444 466.1 494.7 516.9 526.3 529.8 542.9 556.5 563.4 578.1 593.7 604 610.8 605 595.1 599.7 574.6 568.6 568.9 575.5 563.1 543 517.4 511.4 516.4 514.6 496.2 477.1 456.2 421.6 395.1 386.1 372.1 361.4 355.3 355.8 363.3 366.9 316.5 283 257.8 222.3 185.8 149.7 126.9 116.8 109.5 121 121.8 111.7 115.6 119.1 122.8 123.1 122.3 126.1 129.4 122.5 113.8 106 104.4 101.8 105.5 117.9 120.9 123.4
253 253 245.2 240.9 231.5 226.4 220.7 211.7 207.9 200.4 194.9 188.8 182.2 175.5 167.9 161.6 154.2 146.2 139.4 134.2 126.8 119.6 112.4 106.7 98.8 94.9 93.2 92.4 91.5 90.4 89.4 89.4 89.4 89.4 89.4 89.4 99.3 110.6 125.3 143.9 159.6 179.4 194.7 214.5 236.4 255.2 269.5 279.3 288.1 301.7 307.5 322.1 325.3 330.6 333.6 337.9 342 346 347.8 351.2 349.6 354.8 361.1 367 378.6 389 395.6 399 402.3 406.4 400.5 405 422.4 436.9 442.6 446.6 449.6 457.2 464 447 444.8 438.3 440.9 442 432.4 421.8 414.8 414.8 414.8 414.8 415.9 419.2 417.8 418.4 418.1 418.2 421.6 426.8 431.8 435.3 440.7 449.5 460.7 469.8 478.3 483.9 490.4 497.5 504.3 516.7 528.7 540 546.9 548.4 546.4 542.3 524.8 502.4 492.7 473.1 452.4 437 408.9 390.7 375.6 383.9 366.1 358.8 369 381.2 390.9 403 418.6 434.4 449.5 468.2 491 510 521.7 543.8 558.5 564.2 583.8 596.4 609.6 622.2 631.3 628.8 630.3 628.7 613.7 593 588.2 603.9 586.2 571.1 550.1 518.9 518.3 519.6 506.4 500.8 477 438.6 410.7 397.3 384.9 379.2 375.2 370.6 382.4 374.3 322.9 298.2 268.8 232.3 191.9 163.7 145.2 127.7 111.8 111.6 111.7 110.4 110.1 114.8 116.4 117.7 118.1 119.9 116.9 111.8 106.8 102.8 103.4 102.4 101.7 116.4 130.3 137.5
248.9 242.4 239 238.6 232.9 225.4 220.4 215.4 210.8 203.4 197.4 190.2 184 178.8 173.6 166.8 157.8 148.9 144.8 138.4 130.9 121 112.8 104.4 98.1 95 93.2 91.8 91.1 90.1 89.4 89.4 89.4 89.4 89.4 89.4 95.3 105.6 118 134.9 154.3 171.5 187.6 208.2 229.8 247.3 261.6 270.8 276.7 293.6 304.4 309.2 315.6 323.3 331.7 338.1 345.2 355.5 359.1 358.9 354.6 358.7 363.7 375.4 383.9 397.4 403.9 409.7 413.2 419.1 407.4 410.4 431.2 435.4 448.5 449.8 452.9 456.6 452.9 449.9 447.9 438.2 437.3 434.9 426.7 415.7 414.8 423 415.3 417.5 422.1 423.1 421.5 420.5 423.1 424.3 424.9 427.7 439.8 446.2 454.7 465.8 476 479.5 490.9 497.7 504.6 509.8 517.3 531.3 542.3 550 558.8 560.7 555.3 546.6 538.9 518.8 507 492.4 485.6 469 429.4 408.4 393.4 390.2 377.6 367 373.8 385.8 396.2 407.6 422.8 440.4 458.2 475.4 495.5 513.9 530.2 554.6 567.3 583.2 596.7 612.6 623.1 637.8 651 655 657.6 656 645.1 625.2 611.9 623.8 589.9 574.5 554.5 535.8 526.8 521.1 518.6 515.1 499.2 457.8 423.4 412.1 404.3 397.9 397.3 384.6 383.9 365.4 337.1 313.4 286.2 251.3 210.5 185.5 170 151.4 129.5 115.5 110 109.4 109.3 112.2 113.7 114.3 111.4 108.4 108.7 104.7 103.8 105.3 105.4 103.6 102.2 105.1 118.1 126.8
250.4 247 242.3 235.6 232.8 228.8 223.6 217.3 213.4 207.7 200.5 192 189.4 185 179 171.2 160.8 156.2 148.7 142.2 137.7 129.9 119.9 106.1 98.6 95.3 93.5 91.7 90.5 89.4 89.4 89.4 89.4 89.4 89.4 89.4 92.3 99 113.5 130 147.1 160 178.2 199 220.1 238.6 251.7 262.2 269.9 292 295.9 308.1 313.2 319.5 328.7 339.9 361.8 362.8 361.3 360.2 362.4 369 373.9 376.5 387.6 400.3 414.8 420.5 424.6 417.6 408.6 409.2 427.5 440.2 451.6 457.9 454.3 454.2 452.9 452.7 451.8 439.9 438.9 428.8 420.6 416.9 421.9 419.6 418.6 420.2 424 425.3 427.2 424.5 427.1 431.3 429.2 438.3 447.8 457.6 467.9 477 487 495.9 503 509.1 514.7 521.1 532.4 547.6 558 564.4 567 570.9 566.8 559.3 551.5 530.5 523.9 508.1 493.9 477.4 434.5 417.1 405.7 397.9 389.8 371.6 380.8 390.2 404.1 417.4 433.1 450.9 470.9 487.7 508.1 519.9 542.3 560.7 580.1 598.7 611.9 622.5 638.4 652.5 674.9 690.6 688.8 688.4 676.9 649.1 634.7 639.6 598.1 575.9 563.3 559.8 552.3 535.7 523.7 517.8 490.1 460.9 439.6 426.5 428.1 427.8 419.9 406.3 390.3 377.3 357.2 330.9 306.9 274.2 237.9 213.8 193.9 173.6 150.9 135.4 122.5 111.7 109.6 108.5 109.2 109 108.5 110.5 119.8 113 111 106.9 105 102.2 102.9 107.6 109.2 109
251 248.9 244 239.9 236.8 232.3 227 220.1 216.3 209.4 202.4 197.9 194 188 183.7 175.9 169.5 163.6 156.8 151.8 145.8 137.1 126.2 113.4 102.3 95.6 93.9 92.1 89.4 89.4 89.4 89.4 89.4 89.4 89.4 89.4 89.4 92.3 107 123.2 140.1 154.5 171.5 191.7 211.2 228.5 241.6 252.7 262.9 282.2 292.2 302.7 311 321.4 338 354.2 358.6 364.2 368.3 362.2 369.1 378 379.5 381.9 392.3 405.9 421.8 426.8 425.8 412.7 408.6 409.2 422.3 434.9 450 457.6 454.8 455.4 456.5 459.5 459 450.1 447.6 441.6 432.6 425.2 422 421.2 427 427.4 426.2 426.7 428.1 429 434.6 437.1 440 446.3 455.4 468.8 479 486.9 497.2 505.4 512.6 517.7 524.1 532.3 543.6 557 573.9 580.6 583.2 583.8 579.1 574.7 559.6 547.3 532.6 511.5 500.8 482.5 450 424.4 413.6 405.8 394.9 382.2 388.6 397.4 409.8 425.3 440.8 459 477.4 503.3 514.7 531.9 554.9 574 594.3 620 634.9 646.8 651.7 671.8 685.3 709 709.8 711.8 692 670.1 645.5 639.7 621.3 606.2 592.8 578.3 560.3 542.2 522.5 520.4 484.1 468.2 452.5 439.6 447.4 445.2 429.9 416.3 406.3 403.4 376.7 368.4 364.8 296.5 265.8 237.8 214.8 194.5 173.8 155.5 143.1 132 122 115.5 111.6 110.5 110.7 115.2 118.2 115.3 114.1 109.5 105.3 101 103.4 109.4 107.2 107.3
254.8 249.9 248.1 244.6 239.2 235.1 230.4 223.7 218.2 216.2 211.6 204.5 198.1 193.2 187.8 182.1 178.6 173.1 166.3 159.5 151.3 142.1 131.2 117.7 105.6 97 93.5 90.5 89.4 89.4 89.4 89.4 89.4 89.4 89.4 89.4 89.4 89.4 100 115.1 131.1 148.2 164.3 184.2 202.2 217.1 229.5 243.6 255.9 275.4 290.9 298.9 312.5 327.2 352.6 353.9 360.6 367.7 367.7 368.8 374.5 378.8 383.5 386.6 394.4 403.7 422.9 426.5 428.6 414 407.2 410.2 417.1 432.4 446.1 448.9 463.3 463 461.6 460.5 458.5 460 455.3 452.6 442.8 432.6 430.3 427.9 434.6 434.5 437.7 430.4 434 440.6 443.7 443.3 450.4 457.9 466.8 476.3 486.3 496.4 507.9 515.2 520.7 526.2 532 544.2 553.2 565.1 581.5 594.3 596.2 594.7 587.7 582.6 567.6 553.8 535.9 517.9 510.9 489.6 454.7 431.3 418.3 411.1 397.3 386.7 397.5 403.9 415.7 433 451 472.2 491.8 512.3 521.1 543.3 569.8 589.3 611.6 631.8 647.2 662.9 672.8 671.4 679.1 704.7 725.4 724.7 699.9 675.2 654.7 662.2 648.8 635.6 620 595.7 584.5 556.9 528.3 506.7 492.3 470.6 460.5 457 461.1 454.2 450.5 446.7 427.6 416.7 399.4 398.5 377.9 322.9 286.9 253.9 230 211.2 193.1 173.9 157.5 146 138.8 130 124.5 120 118.1 118.6 119.8 116.2 117.5 116.7 111.6 104.8 103.4 104.1 102.5 99.2
260.1 254.9 252.4 247.6 241.8 237.7 232.3 226.3 224 223 216.4 209 203.5 200.1 196.6 194.6 187 180.3 172.2 163.6 153.5 144.3 134.2 121.7 108.6 98.6 94.8 91.3 89.4 89.4 89.4 89.4 89.4 89.4 89.4 89.4 89.4 89.4 95.9 109.7 125.1 142.9 156.7 175.4 190.9 203.2 217.7 231.4 246.3 264.8 279 296.3 312.4 330.1 347.5 341.9 348 357.9 370.6 374.4 376.2 383.4 390.9 393.7 396.5 405.3 418.5 417.9 422.1 408.1 406.7 408.2 415 427.1 434.3 447 469.4 470.7 467.9 467.5 461.9 458.4 457.9 460.1 445.4 435.2 432.8 431.4 440.4 438.8 439.4 445.1 447.3 447.6 451.1 452.9 462.4 471.6 478.2 485.7 496.8 506.2 517.2 524 533.8 539.4 546.7 555.5 568.5 581.9 590.8 605.2 608.9 605.3 596.8 584.8 569.8 554 536.9 526.2 517.6 487.6 461.9 436.4 423.4 416.3 406.2 401.8 406.9 412.9 425.9 442.2 459.5 480.6 501 511.8 524.9 554.2 580.7 607.2 626.4 641.5 653.1 671 681.5 688.2 673.2 684.8 713.1 716.4 707.8 695.6 670.7 685 688.9 664.8 641.4 622.8 604.9 566.5 524.6 512 492.8 483 473.6 471.2 476.8 475.1 466.2 458.5 448.3 418.8 400.7 406.8 392 354.7 308.3 268.9 247.5 229 209.9 190.2 170.9 158.8 151.6 143.7 133.7 127.7 124.1 122.4 125.3 125.1 123.9 122.1 116.8 112.4 111.9 112.1 111.5 108.6
264.8 259.4 256.7 251.2 245.5 239.7 235 233.1 229 224.1 221.2 218.4 213.6 211.8 209.1 202 194.4 187.7 177.3 169.9 161.5 152 141.7 132.1 118.1 107.8 99 93.4 89.4 89.4 89.4 89.4 89.4 89.4 89.4 89.4 89.4 89.4 89.4 106.6 122.3 137.4 149.9 165.1 180.8 192.4 205.2 220.5 235.4 253.8 273.7 291.6 306.1 324.1 332.5 340.1 351 365.5 374.8 382.5 382.5 387.2 395.2 396.4 402 406.4 408.6 415 411.2 404.1 412.2 408.5 418 425.3 431.9 450.9 468.3 490.2 477.7 474 469.4 462.8 461.8 460.2 442.9 433.7 431.8 434.7 445.8 454.7 451.7 455 452.8 459.1 460.6 462.5 473.2 483.7 491 501 509.6 517.7 527.6 535.5 543.9 553.7 559.7 568.2 580.7 593.2 603 615.4 619.3 615.2 605.7 591.8 576.7 566.4 550.3 533.1 507.4 482.6 466.8 454.1 438.5 425 415.8 413.1 412.9 422.4 435.9 454.1 473.8 488.1 499.7 516.7 547.7 575 592 624.2 640.1 644.3 649.8 655.4 663.1 675.4 666.6 672.7 685.5 696.3 703.5 706.4 692.5 705.9 702.6 680.6 663.7 627.9 589.3 558.4 521.6 506.5 500.4 496.8 495.6 494.5 491.5 484.6 480.5 467.4 450.3 420.1 407 398.3 378.3 346.6 315.4 281.6 264.2 244.4 222.5 201.2 182.8 172.7 161.9 151.5 141.5 133.3 129.2 130.4 131.3 131.6 128.2 124 120.3 119.6 119.9 120.1 119.8 119.4
272.8 266.7 263.8 256.1 247.1 245.2 242.7 237.7 233.5 233.4 229.7 225.4 221.3 220.2 215.9 209.1 202.3 196.3 190.2 180.2 171.2 160 156.9 146.5 131.1 112.7 101.4 95.6 89.4 89.4 89.4 89.4 89.4 89.4 89.4 89.4 89.4 89.4 89.4 100.4 116.9 131.7 143.6 155.1 169.5 181.5 194.7 211.4 228.6 247.4 266 285.9 299.9 316 331.1 342.9 356.9 365.7 380.6 385.6 389 391.6 395 399.9 409.4 412.7 412 414.5 408.4 406 417.8 409.7 414.1 420.6 438 447.4 473.6 498.4 484.5 477.1 475.7 462.7 458.3 453 441.6 443.5 435.8 444.7 455.4 454.9 454.8 457.1 463.3 469.2 473.7 479.7 486.3 495.9 502.8 513.9 521.5 530.2 541.6 549.5 558.3 566.8 574 581 590.8 604.2 616.5 624.2 632.3 630.4 618.6 596.6 590 574.3 544.2 535.5 523.2 506.8 492.3 474.3 447.3 433.4 425.1 422.7 420.5 430.6 446.1 466.6 484.8 500.3 510.9 539.5 568.2 577.7 598 619.6 626.1 640.1 643.5 638.6 637.7 658.8 652.2 664.5 690.6 696.9 698.8 688.3 684.7 713.5 720.2 703.9 678.5 639.1 602 542.2 521.1 513.1 512 515.1 518.8 511.7 500.5 491.3 479.9 466.6 447.3 430.9 429.3 423.9 388.7 364.6 340.1 300.5 278 255.7 231.6 210.5 194.1 182.5 168.3 156.9 147.5 143.3 149.4 138.6 135 135.2 130.5 123.8 120.7 121.2 124.8 127 128.8 128.2
276.1 274 266.8 265.2 256.6 252.8 248 244.5 245.4 243.8 238.7 233.5 232.4 230.2 226 219.5 213.9 209.1 200.5 192.6 182.7 175.3 165.8 152.2 138.3 125 109.2 98.5 91.7 89.4 89.4 89.4 89.4 89.4 89.4 89.4 89.4 89.4 89.4 90.5 110.6 123.6 135 138.6 156.6 169.2 186.3 202.4 217.3 238.9 259.9 279.1 296.6 313.1 328.2 345.9 357.8 368.4 376.4 383 396.1 397.2 396.5 401.6 409.9 412.2 412.1 416.3 402.2 409.3 418 411 412.8 426.7 438.5 460.2 488.2 494.7 476.7 475.8 466.5 468.4 468 449.5 444.5 445 444.9 451.6 455.4 455.3 457 462.7 471.9 479.6 488.1 494.7 500.1 507.2 516.1 524.9 534.6 542.3 552.3 562.1 569.5 578 584.6 590.4 600.1 609 623.2 627.5 632.7 632.5 619.1 601.2 586.5 573.1 565.8 547.6 528.6 508.2 497.6 470.9 459 442.9 434.5 429.6 431.7 440.7 459.5 477.8 493.3 509.7 526.4 552.9 574.1 576.3 584.7 606.5 622.1 622.6 633.3 626.7 615.7 638.5 644.8 652.1 680.3 682.4 676.9 658.1 671.1 700.5 726.1 705.5 678 635.8 589.8 550.1 536.1 527.4 522.7 525.1 527.7 521.9 511.2 501.7 489.2 474.7 461.1 451.9 436.5 427.7 412.4 369.1 348.3 309.7 286 263 244.5 223.9 201.3 190.3 177.1 164.7 152.9 150.6 163.1 159.9 140.7 137 130.2 121.2 121.3 124.2 129.6 132.9 134.3 133.6
283.9 279.3 276.4 269.2 264.4 261.5 259.6 258.4 254.5 252.4 249.4 243.3 240 236.8 232.5 227.1 224.2 218.8 210.8 202.6 194.5 188.7 174.8 163 149 134.6 118.7 105.2 94.5 89.4 89.4 89.4 89.4 89.4 89.4 89.4 89.4 89.4 89.4 89.9 104.2 113.7 126 133.1 140.7 160.2 177.2 195.1 214.2 234.4 252.1 273.1 291.8 308.9 325.7 342.7 356.9 367.6 376.8 384.2 397.3 399.8 400 401.4 408 411.5 410.6 405.5 397 411.9 416.9 411.5 418.3 427.1 438.6 471.8 484.3 479.6 474.8 473.6 472.9 476.9 477.8 455.4 449.2 454.4 449.7 451.7 456.9 459.6 461.8 473.2 481.5 496 505 510.7 517.1 521.6 529.2 537.3 545.4 554.8 563.3 574 581.1 588.7 595.9 603.7 614.2 619.9 625.6 630.2 635.6 628.6 620.3 610 598.9 585.3 579.9 567.1 543 527.3 502.6 475.2 464.3 451.4 444.9 444.1 447.8 456.8 470.4 491.1 507.9 518.5 541.3 570.4 587.1 578.6 579.1 596.4 598.5 602.8 605 607.3 596.4 610.5 625.6 628.7 656.3 675.6 653.6 641 662.6 693 705.9 689.4 663.4 618.9 588.9 570.5 555.6 549.5 547.5 541.1 536.5 533.9 522.5 506.2 487.4 474.4 474.1 454 431 428.1 415.7 365.1 342.8 316.1 291.8 274.9 257.1 235.6 213.3 197.4 182.6 170.2 158.7 154.9 160 164.9 164.4 151.8 139.2 126 129.2 129.9 134.7 138.3 139.1 137.2
293.5 289.3 284.2 277.7 276.1 275.9 275.7 273 267.8 263.4 257.5 251.6 250.4 245 240.8 239 235.6 228.2 221.6 213.1 206.4 198.7 186.9 172.9 156 141.3 127.9 110.7 99.7 89.4 89.4 89.4 89.4 89.4 89.4 89.4 89.4 89.4 89.4 90 98.6 107.8 118.3 125.8 137.1 150.6 167.3 189.8 208.2 225.9 245.5 261.4 277.3 299.1 319.1 336.4 350.9 362.7 378.8 389.6 397.5 403.9 405.8 407 410.7 414.5 412.7 401.8 389.9 397.1 402.5 410.1 421.8 432.7 455.2 452.6 464 472.1 475.7 475.3 484.6 484.7 470.4 460.6 456.7 455.4 458.3 462.4 463.1 464.5 471.1 480.7 498.7 511.1 520.5 528.1 531.3 537.2 543.1 549.4 555.3 566.2 576.4 583.7 593.2 598.1 606.3 616.7 622.1 632.2 633.5 633.4 639.3 645.1 640.2 629.8 624 614.5 601.1 586.6 568.4 546.4 518.5 483.3 471.2 470.6 458 457.7 467.3 473.2 487.6 505.2 515.2 530.6 556.9 578.2 584.7 579.6 569.3 592.9 589.9 579.7 574.6 571.6 572.4 582.1 597.4 599.3 620.2 643.6 646.7 630 655.3 682.6 692 682.6 656.6 621.9 607.2 598.2 582 564.9 570.7 572.6 543.4 529.2 525.5 499.7 485 474.5 466.9 464.6 423 421.9 412.7 361.9 352.6 319.4 302.1 285 265.7 244.3 222 202.7 185.7 170.4 159.8 148.5 146 146.7 154.2 147.2 138.2 135.6 134 135.3 138.7 140.9 141.1 138.2
304.3 298.8 291.9 288.4 290.5 290 289 284.7 280 272.3 262.8 263.3 260.8 255.6 251.2 249.2 246.9 239.9 234.4 226.6 218.7 210.2 198.5 183.3 165 152.4 138.4 121 108.3 98.3 89.4 89.4 89.4 89.4 89.4 89.4 89.4 89.4 89.4 93.5 96.6 103.8 112 116 129.4 145.1 164.1 184.1 202 217.1 236.8 255 273.8 298.1 315.4 332 345.9 362.1 378.1 387.1 399.8 403.5 409.5 412.4 418.5 416.9 414.2 390.1 387.6 393.6 402.5 412.8 425.3 439.1 456.3 450.3 451.8 478.5 484.8 481.4 490.7 478 470.1 460 458.7 464.2 469.6 474.6 471.6 470.5 479.1 496.4 512.5 530.7 536.7 540 546.4 547.4 552.2 555.8 567 576.8 588.2 594.6 602 610.8 621.5 632.7 636 638.2 637.4 641.1 653.3 664.2 660.4 663.1 654.4 649.2 625.5 618.5 582.3 555.6 527.8 501.8 489.2 480.5 469.8 473.1 481.4 491 506.4 516 525.6 548.5 573.9 587.9 590.5 579.8 562.1 575.4 566.4 551.3 547.5 547.3 556.7 561.6 568.6 578.5 602.7 622.8 634.2 618.6 642.6 666 682.7 674.6 644.6 633.5 622.1 615.1 594.6 585.4 596.6 587.1 564.3 524.2 510.8 489.9 478.2 466.2 458.5 438.7 413.3 410.4 390.7 363.2 349.2 334.5 326.1 304.1 284.6 241.7 221.5 202.4 182.8 168.3 156.2 142 139 138.5 135.9 134.1 134.3 133.7 134.2 136.2 138.5 140.3 139.1 135
312.3 306.1 302.8 303.2 303.4 300.2 298.1 294.8 287.4 279.1 271.3 272.4 269.7 267.5 261.9 258.8 255.3 251.2 246.8 239.1 232.1 222.7 210.5 195.4 179.6 163.1 147.1 132.6 117.2 103.9 92.6 89.4 89.4 89.4 89.4 89.4 89.4 89.4 90.3 93 96.1 100.7 105.8 111.1 117.7 139.4 158.5 177.4 194.7 209.7 225.6 248.4 271.3 291 308.1 327.7 345 359.6 376.5 387.2 394.3 400.9 406.5 413.1 422.6 421.5 410.6 390.1 386.1 390.2 400.7 413.4 432.7 445.9 447.3 455.5 463.7 476 490.3 491.5 475.5 475.6 464.5 460.7 462 468.8 478 482.7 480.8 480.6 492.4 512.6 529.7 539.5 547.6 548.5 554 554.6 559.3 565 572 585 597.6 607.6 615.4 624.8 639 649.3 654.8 659.5 646.5 652.1 667.5 681.4 686 680.5 670.9 661.8 656.5 649.1 602.1 576.2 543.4 521.7 506.4 505.8 481.5 485.8 498.2 507.5 518.2 527.3 538.2 565.4 582 586.2 583.1 572.1 551.6 554.4 549.7 536.3 535.8 532.9 542.9 548.2 562.1 573.3 588.6 603.1 611.2 615.6 642.4 665.6 671.8 666.1 662.1 654 644.8 632.7 617 602.1 602.9 593.6 570.6 517.7 491.4 482.8 472.8 451.4 442 421.4 405.3 392.7 375.9 363.2 360.6 353.5 341.3 330 282.3 237.3 212.4 195.2 180.8 166.3 157.2 147.8 150.6 149.4 146.3 141.9 134.1 130.4 129 132.3 134.8 136.3 134.3 128.5
323.7 317 317.3 315.7 312.8 309.2 306.5 302.6 294.5 283.4 283.5 281.3 279.6 276.9 274.4 268.5 265.2 261.5 257.7 252.5 245.5 235.5 222.9 208 191.9 171 155 140.5 125 108.7 99.8 92.7 89.4 89.4 89.4 89.4 89.4 89.4 91.1 93.5 96.5 100.6 103.4 104.9 110.1 131.1 149.8 167.2 185.8 200 217.9 239.5 256.4 277 297.8 320.6 344.5 364.8 382.3 390.9 396.3 400.4 401.5 405.5 411.8 415.7 406.3 389.4 384.4 388.1 399 421.4 441.8 455.1 451.6 459.5 466.3 471 476.4 473.5 476 474.1 467.1 463.3 468 474.6 480.3 484.6 487.6 494.8 514.9 531.6 542 547.7 552.3 555.4 558.6 559.1 564 573.9 582.1 598.7 609.7 616.8 629.4 643.5 659.9 673.9 683.2 683.1 665.5 648.8 665.9 684.9 686.8 691.3 692 691.3 684.6 676.5 630.6 592.2 572.5 540.5 534.4 535.9 497.3 501 512.5 523.2 531.8 538.9 568 596.3 598.3 591.5 585.3 563.6 546 537.6 529.8 525.4 523.9 527.4 533.8 542.1 550.2 563.4 579.5 603 613.5 620.4 637.2 664.4 681 681.6 678.8 676.2 665.7 659.3 637.7 610.1 593.2 582.7 556.2 510.1 483.6 478.1 451.1 441.8 429.5 419.9 401.2 389 383.2 366.3 360.2 356 329.7 295.4 256 224 198.7 187.6 177.8 169.4 161.2 159.8 161.6 158.2 152.7 146.2 139.3 131.7 125.6 124.2 126.9 129.8 128.2 122.4
332 330 330.9 326.8 321.5 316.9 313 310.1 301.4 296.5 293.3 291.1 288.8 288.4 283.1 280.6 276.7 275.5 271 264.2 258.4 250.6 238.9 223.5 205.5 181.9 162 146.7 130.5 111.6 104.4 97.9 89.4 89.4 89.4 89.4 89.4 89.4 89.4 94.1 95.5 98.4 101.8 102.3 105.4 122.6 140.5 157.1 175.8 190.5 207.8 229.6 248.2 269 289.8 314.9 335.2 366.8 378.8 393.7 392.1 403.8 402.7 396.9 405.7 405 391.9 375.7 379.9 384.4 398 430 445.6 458.8 452.6 459.3 466.1 471.1 471.3 475.5 481.1 483.2 477.9 470.3 472.1 481.7 485.1 488.5 499.7 516.1 533 546.6 559 560.1 563.6 569.9 564.1 566 568.2 577.9 593.1 606.2 617.9 634.4 653.9 674.5 688.1 699 695.2 680.9 669.9 639.5 656.6 669.5 681.7 677.2 685.6 676 671.8 655.1 632.9 622.8 583.5 563.9 560.3 532 517.6 519.1 526.8 539 544.3 561.3 582.3 597.8 600.9 592.3 573.8 553.1 540.7 537.5 526.8 525.6 522 526.7 531.7 535.2 536.4 547.1 570.1 588.7 610.6 617.3 629.4 655.7 677.7 685.4 680 674.5 662.4 641.5 626.2 600.5 573.6 563.5 542.8 509.9 488.8 458 447.6 434.1 424.4 408 398.5 397.4 388.7 359.8 350.1 330.5 299.8 270.7 242.9 215.5 197.7 189.7 181.8 173.4 167 169.7 169.9 164.8 154.4 146.4 140.7 131.5 127 122.5 122.8 123.4 121.3 117.7
345.1 344.8 344.1 340.7 335.4 329.4 322.2 316.3 312.4 308.6 304.7 302.1 300.2 299.7 297.8 293.4 289.5 288.7 286.6 281.9 275.6 268.6 256.3 237.3 217.1 193.9 171.1 153.4 135.3 118.3 107.6 102.7 94.2 89.4 89.4 89.4 89.4 89.4 90.1 97.5 96.5 96.6 97.6 101.8 102.3 114.5 133.6 147.9 166.2 181.7 198.4 221.4 240.4 260.4 284.5 305.8 331.5 359 369.1 388.3 384 392.1 399.7 386.6 395.9 390.3 371.9 366.6 373.6 380 403.4 427.8 446 455.5 447.1 468.6 466.8 478.5 471.1 476.4 484.5 488.7 495.7 483.5 478.3 485.5 489.9 495 510.6 531.1 544 552.4 560.2 561.7 570.2 565.5 562.1 566.1 573.9 585.6 610.8 624.6 639.7 657.1 677.1 693 700.2 698.7 686.2 670.2 654.6 629.9 650.5 646.7 656.8 663.4 652.2 640 643.6 641.6 615 624.3 610.3 580.4 560.4 541 540.6 538.7 541.8 550.9 557.9 579.3 593.4 604.3 605.9 592.2 573 551.8 536.9 534.2 532.3 529.4 523.7 521.4 524.4 523.3 519.9 529.1 548 562.4 584.6 603.4 624.2 643.5 658.5 671.4 666.8 661.2 644.2 633.3 617.5 585.2 567.5 553.5 526.1 503.2 485.8 447.8 428.6 419.6 410.9 401.2 396.2 393.8 369.1 340.2 316.5 298.1 281.2 255.5 229.3 209.7 199.2 190.3 183.5 175.3 175.2 176.7 175.1 168.6 158.7 147.8 143.1 132.3 129.1 126.5 121.3 116.4 112.9 115.9
356.6 356.1 354.7 350.8 345.8 338.3 328.8 325.4 324 321.9 319.1 315.5 312.4 311 310.5 307.2 304.5 301.8 301 297.7 294.3 288.8 276.9 252.5 222.8 198.7 178.7 158.5 138.8 122.6 112.3 106.7 98 89.7 89.4 89.4 89.4 89.4 89.4 96.8 96.1 95.6 96.6 104.3 101.8 112.2 127.4 141.8 155.6 176.6 194 213.5 233 253.5 278.8 295.6 321.6 345 360.4 373.6 376.5 385.9 394.7 384.4 370.5 367.7 353.5 363.7 368.5 375.9 404.1 432.3 441.6 455.3 443.8 463.9 462.8 468.3 469.2 480 484.2 503.3 510.8 491.4 482.1 488.1 493.6 503.4 526.1 540.3 551.5 554.2 552.1 555.3 557.7 551.5 564.1 569.2 583.8 597.9 618.2 641.9 653.1 673.6 690 700.4 695.7 691.6 678.6 660.4 634.6 617.3 624 620.3 630.1 633.8 627.4 624.1 619.8 621.8 607.6 623.1 601.4 587.4 563.2 554 559.1 556.9 561.2 570.4 574.6 589.8 605.8 606.4 603.3 593.9 575.5 548.7 541.7 539.6 534 529 520.7 511.6 508.5 508.8 499 507.6 524.3 540.1 564.8 588 611 629.7 640 645.2 648.7 652.3 642.9 626.3 609.2 585.6 563.3 551.9 531.6 490.4 466.8 437.8 420.4 412.8 405.1 394.9 389.5 379.1 351.1 322.8 300.6 289.3 267.3 242.2 222 207.7 199.2 192.9 184.7 181.8 182.8 181.5 179 168.1 158 156.2 150.2 140.4 131.9 130.7 124.9 124.1 130.4 128.5
364.9 366.3 363.7 358.7 353.4 345.6 339.5 337.1 335.1 334.5 333.8 330.7 325.5 321.9 321.7 320.2 320.3 315.6 314.1 313.4 314.2 314.3 305.7 278.9 243.6 212.5 185.6 167.1 148.4 128.7 110.4 104.7 96.9 91.6 89.4 89.4 89.4 89.4 89.4 95.3 97.8 94.1 96.2 99.6 100 107.4 121.6 133.2 150.1 170.2 189.2 206.2 229.2 249.6 269.3 289.2 310.7 332.3 352.7 362.9 371.6 372 374.9 368.7 351 343.6 351.7 360.3 364.8 375.1 394.9 425.8 430.8 429 434.3 454.6 453 458.5 467.9 485.3 511.1 510.5 500.8 480.6 484.3 491.8 500.9 515.6 534.2 540.4 549.5 550.3 538.1 536.6 540.7 552.2 570.6 586.9 599.1 611.9 628.9 645.4 664.8 680.2 684.6 691.7 688 679.7 671.8 647.3 616.7 603.6 607.4 605.2 606.6 606.6 619.1 624 606.2 609.5 595.4 602.9 585.4 588.4 565.7 571.5 580.1 583.8 588.3 592.7 594 596.1 609.4 611.7 594.6 575 561.2 550.3 543.5 545.4 536.5 525.2 516.6 510.7 498.9 488.5 475.3 490 501 522.8 544.8 582.4 603.9 621 630.7 634.8 631.5 637.3 627.4 611.6 586 563.9 550.1 542.8 518.7 474 447.8 427.2 410.3 402.9 392.3 385.4 375.4 358.3 334.1 306.3 286 268.5 250.4 235 221.5 207.4 199.6 194.6 187.9 191.7 190 188.3 183.9 177 171.7 166.5 159.3 146.8 135.9 133.5 127.4 133.6 132.5 131.7
374.1 374.3 373.1 367.7 362.8 359.9 356.6 350.9 347.8 346.1 342.5 341.7 338.2 333.9 331.8 331.6 332.1 329.6 329.1 331 328.8 323.6 315.9 299.9 259.6 223.2 197.4 174.5 154.2 131 108.2 100.4 95.9 93.2 90.4 89.4 89.4 89.4 89.4 94.5 96.2 92.8 95.2 94.3 96.5 102.6 113.1 126.7 145.8 166.4 184.4 201.2 220.9 243.3 259 278.5 300.1 321 340.4 347.4 360.7 361.4 359.6 346.5 344.8 340.3 348.3 356.8 362.8 372.7 383.6 404 407.2 415.5 425 438.5 447.2 450.2 466.2 490.8 506.4 497.6 481.1 474.6 484.5 496.5 507.8 528.4 539 542 542.8 544.8 539.3 535.3 542.4 554.6 586.1 605.7 609.6 626.7 636.4 654 667 670 675.2 675.5 674.4 667.5 662.1 637.6 605.4 590.7 601.3 589.3 591.1 594.3 598.1 590.1 580.2 588.6 574.4 584.6 568.2 569 579.5 585.8 604.6 612.4 620.4 620.2 618.1 617.3 602.7 600.3 591.7 590.1 575.9 560 551.9 557.3 545.5 527.9 515.3 508.5 471.3 456.5 460.5 473.6 485.9 506.7 538.7 570.1 590.3 601.3 613.6 621.9 618.4 619.2 613.8 592.7 567.7 545.6 537.5 513.1 494.9 468.7 444.8 425.7 404.4 382.8 379.1 374 360.3 337.9 313.3 289.3 273.9 260.8 247.6 235.4 223 211 204.3 193.8 198.2 200.4 198 196.9 194 188.7 183.6 176.6 166.2 153 141.5 133.8 129.6 135.7 136.2 137.3
384.2 385.6 384.7 384 378.4 375.9 368.2 365.5 361.7 357.5 355.6 356.1 352.8 348.4 343.2 341.7 344.2 344.4 344 341.3 334.9 328.1 314.1 302 271.3 229.7 203.2 179.2 159.2 134.7 111.4 100.2 99.6 94.4 90.1 89.4 89.4 89.4 89.4 89.4 93.7 89.4 91.2 92.9 93.8 98.9 111.4 127.1 143.9 162.5 179.6 195.3 213.1 230.5 247.8 269.5 290 309.1 317.3 325.9 348.7 348.3 336.1 344.1 336.8 336.7 346.5 353.8 360.8 368.8 373.9 392.8 397.6 415.7 422.1 431 440 451.9 464.5 480.9 480.7 475.6 465.9 474.8 488.7 502.3 521.8 538.9 547.1 549.1 544.9 548.4 534.1 537.7 550.4 574.1 588.5 601.8 609.1 624.7 640.2 647.5 656.9 662.6 672.6 670.5 658.8 652.2 643.4 624 594.9 579.3 583.2 577.4 566.5 570.6 565.7 558.7 556.4 566.7 555.9 563.5 560.7 571.5 582.3 602.8 620.7 635.1 640 633 628.1 623.7 606.2 598.3 603.2 596.6 584.7 566.3 565.1 553 545.8 528 509.8 488 458.5 445.4 446.4 460.6 478.3 498.2 528.6 561.2 583.2 591.3 599.5 608.2 597.8 602 595.8 576.1 547.6 531.6 513.9 501.1 479.2 456.1 433.3 411.3 390.3 369.3 355.9 356.9 342.8 319.2 298.6 280.7 268.9 260.7 254.9 240.2 224.9 217.9 208.8 202.9 207.1 209.7 209.2 205.4 203.6 198.4 192.5 183.6 170.9 153.9 139.3 136.4 137.9 140.2 140.7 141.5
398.1 403.5 405.3 400.9 394.3 387.8 386.6 383.3 376.5 370 367.9 367.6 366.6 361.9 355.7 351.1 355.5 362.7 363.2 351.8 344.2 331.5 307.9 288.6 268 236.2 212.3 188.9 163.7 138.3 112.9 102.7 107.1 102.7 89.4 89.4 89.4 89.4 89.4 89.4 89.4 89.4 89.4 89.4 93.1 95.7 107.7 122.5 139 157.4 172.8 186.8 201.7 213.7 242.9 261.1 273.3 289.5 302.1 309.4 322.6 318.8 332.5 337.4 328 339.7 346.5 352.9 361.3 367.2 364.3 379.1 381.3 407.9 423.9 430.1 434.2 446.7 450.9 456 454.2 454.6 465.1 480.6 499.2 512.5 533.3 541 546.8 546.7 541 536.7 534.6 545 563.8 574.6 589.2 597.9 603.1 617.1 628.9 639.5 645.7 659.7 666.9 659.5 646.8 637 626.4 606.2 586.7 567.8 565.8 563.3 550.6 550.1 552.5 543.4 545.8 542.5 546.5 548 563 574.8 595.6 621.4 635.5 649.1 649 641.9 636 633.9 625.3 602.4 601.7 597.5 574.4 575.1 567 547.7 529.5 506.6 483.2 463.4 448.6 436.1 437.9 455.7 472.7 489.6 515.1 548.5 566.2 574.6 582.7 593.5 578.8 578.6 566 550 533.9 523.3 506.4 490.7 467.2 445.7 426.4 405.8 386.7 361.4 337.9 333.1 320.6 306.2 292.5 278.7 266.8 261 253.7 243.5 231.6 224.9 211.4 210.7 218 220.1 219.5 215.5 213.4 208.4 199 187 171 155.2 142.8 142.7 145.4 144.7 143.8 147.1
413.4 418.4 419.2 415.4 414 404.3 397.1 400.7 391.7 384.9 381.8 380.3 378.4 375.9 368.9 363.1 361.7 372.1 372 364.2 355.5 335.2 312.2 286.4 261.6 237.2 216 193.7 168.4 143 119.6 108.3 105.9 102.5 89.4 89.4 89.4 89.4 89.4 89.4 89.4 89.4 89.4 89.4 89.4 89.4 106 120.8 137.3 151.8 164.8 176.7 191.7 208.4 230 246.2 256 274.6 292.2 300.9 301.6 308.2 316.6 331.2 320.4 339.8 343.1 359.4 366.9 359.2 358.3 362.8 377.6 400.3 420.2 425.5 433 440.7 438.1 443.6 448.4 454.5 469.6 494.4 515.8 520.4 529.7 536.9 539.9 538.3 531.1 533 536.2 553.4 565.1 572.9 583.8 587.8 597.6 604.4 618.3 627 635.5 646.8 653.6 654.6 642.9 632.9 626.2 591.3 572.2 556 539.6 539 536.7 523.4 521.7 521 524.9 529.3 536.5 555.6 569 580.4 613.4 643.1 656.4 662.4 656.1 649.5 642.8 632.3 627.3 602.6 587.8 575.8 574.4 577.8 568.9 543.4 528.6 511 488.1 465.2 452.5 439.6 428.1 447.6 465.5 480.4 506.7 535.6 554.1 560.7 567.5 568.4 564.1 559.8 547.5 535 510 498.3 474.7 459.9 450.3 427.8 409 386.1 365.6 345.5 324.9 316.1 308.9 298 286.3 276.8 266.8 258.8 253.3 245.4 234.2 222.5 208.8 220.3 227.2 230.7 229.3 225.6 222.3 215.3 204.3 189.7 173.2 155.2 147.8 141.3 149.1 149.6 149.7 152.8
430.2 435.7 435.2 437.7 432.5 420 411.4 409.2 402.2 399.1 395.7 392.2 390.4 387.2 381.1 375.3 369.5 370.1 374 370.1 352.4 330.6 313.3 287.1 260.1 237.5 218.2 196.1 167.2 142.4 115.7 111.9 109.6 103.5 90.8 89.4 89.4 89.4 89.4 89.4 89.4 89.4 89.4 89.4 89.4 89.4 102.9 118.6 133.2 146.6 155.3 165.3 181.2 197.4 213.4 225.2 240.1 256.2 284.6 295.2 300.2 288.2 302.8 319.6 321.2 326.1 343.8 364.6 351 349.2 355.3 362.4 374.3 403.4 413.4 418.1 431.9 431.6 433.7 438.9 446.7 457.9 477.2 508.5 537.5 524.1 526.2 534.4 534.6 530.9 527.3 528.5 541.5 544.7 553.3 567.3 572 578.1 589.5 603.7 616.4 623.7 627.6 638.5 643.1 640.9 626.8 622 594.2 570.4 559.1 538 516.8 512.5 517.4 513.3 513.3 514 516.6 527.5 543.9 562.3 581.1 599.3 623 645.5 663.6 670.1 663.4 649.4 640.5 631.8 619 607.1 583.2 579.5 580.1 579.5 567.6 554.3 547.8 522.2 490.9 469.6 452.5 435.5 420.7 438.5 457.7 472.4 497.6 527.5 540.7 535.7 538.5 544 542.3 538.5 519.6 498.4 489.6 471.4 446.3 438.5 431 413 393.4 370.1 344.6 331.9 313.9 304.2 298.3 289.9 279.6 270.6 263 254.6 246 235.3 218.5 219.1 226.9 235.7 240.6 241 238.7 234 227.5 218.3 204.8 188.2 170.1 155.2 151.1 145.6 152.9 154.9 156.4 158.6
446 457.6 458.5 463.4 453.9 435.4 423.4 419.5 412.8 408.7 407 406 401.8 397.8 394.5 388.5 377.6 372.7 367 356.3 345.3 336 317.3 295 267.2 241.6 221.1 199.5 169 144.2 121.4 118.4 106.8 101 89.7 89.4 89.4 89.4 89.4 89.4 89.4 89.4 89.4 89.4 89.4 89.4 98.6 113.2 127.1 138 146.5 153.2 170.7 184.7 196.9 206.8 224.8 241.6 271.3 280.9 277.1 274.3 293.1 308.7 308 311.9 330.4 338.3 331.7 340.7 350.6 360.7 371.3 390.8 402.6 405.8 417.6 421.4 428 431.2 444.4 463.3 496.7 523 537.1 529 525.3 526.4 524.4 519.5 521.8 539.3 542.3 539.8 550.2 558.7 565.8 564 575.8 590.1 606.4 614.2 623.5 630.3 632.7 626.7 610.1 597.5 571.5 558.9 540.3 519.2 496 499.2 498.9 499.1 503.4 503 515.1 533.2 550.6 568.3 591.5 609 626.2 638.6 648.2 653.2 652.1 641.8 637 637.5 642.4 621.5 596.3 582.5 588.3 587.7 573 557.9 547 523.1 493.7 473.7 449 429.8 412.4 429 446.5 462.5 481.8 507.7 518.7 519.2 504.6 510.3 506.7 496.2 478.3 471.4 454.1 439 427.2 421.7 411.5 395.8 376.7 356.3 333.6 319.7 306.8 296.2 288.3 280.5 270.6 263.7 256.6 242.3 233.5 234.2 237.8 240.5 245.3 248.8 252.9 254.7 247.3 238.3 230.1 218.1 202.3 185 170.3 159.3 156.1 149.1 155.7 160.5 162 165.1
453.5 465.1 472.8 472.5 463.3 444.1 434.5 435.3 429.4 420.5 416.6 414.6 411.5 408.9 407 404.6 386.4 374.7 372 373.1 364.7 354.1 334.9 308.6 282.1 254.4 228.5 205.9 181.1 157.2 139.3 121 110.9 97 89.4 89.4 89.4 89.4 89.4 89.4 89.4 89.4 89.4 89.4 89.4 89.4 90.1 105.5 117.9 128.4 137.7 146.8 157.9 170.1 182.5 194.7 211.5 225.4 251.1 263.9 258.7 269.6 289.8 306.3 293.5 299.4 309.8 317.2 323.4 335.9 345.8 357.7 365.4 379.2 389.2 394.5 405.7 416 421.8 431.2 449.9 474.9 504.3 517.9 527.7 522.4 518.2 515.7 515 515 523.2 536.8 538 535.1 538.4 544 554.4 563.6 578.7 587.8 599.4 610.5 617 618.4 614.8 604.3 595.3 573 549.2 533.2 518.6 502.2 484.8 480.7 480.1 484.5 490.3 502.2 518 537.4 555.8 570.1 581.2 596.7 605.9 616.7 633.3 645.2 647.1 644.2 648.9 653.3 638.2 616.3 598.7 591.2 585.7 577.9 571.3 553.9 540.8 519.7 490 467.2 438.8 422.2 406.3 422.3 437 455.7 470.4 492.2 497.8 484.5 479.1 477.7 475.6 465.6 453.7 442.1 430 420 412.2 403.3 392.9 379.2 360 339.2 317.9 306 297.5 288.2 280.3 274.1 264.7 254 246.1 250.2 250.4 253.7 257.6 260.3 255.7 257 258.6 255.7 249.6 238.8 227.1 211.3 193.6 178.2 167.5 161.6 156.2 156.3 159.7 164.4 168.3 171.3
456.5 472.7 476.1 477.7 472.8 457.4 448.9 451.2 444.2 439.2 433.9 427.7 421.1 419.5 420.3 414.6 391.8 377.4 381.5 383.9 377.1 366.2 347.4 319.4 292.9 265.2 237 210.3 185.9 172.8 145.4 127.4 108.9 95.8 89.4 89.4 89.4 89.4 89.4 89.4 89.4 89.4 89.4 89.4 89.4 89.4 89.4 96.6 107 116.4 126.6 137.1 147.2 159.9 173.8 184.4 198.6 208.9 225.3 237.9 241.4 257.2 278.1 288.8 277.6 289.9 298.4 307.1 315.7 330.4 341.2 351.7 360.3 369 381.2 399.9 407.7 415.3 423.3 435.5 458 489.5 504.8 510.5 516.1 518.9 516.1 515.3 514.2 515.8 528.8 536.6 536.2 535.7 532.1 542.5 549.1 560.9 571.9 579.4 590.7 598.8 601.1 602 598.5 585.1 569.6 546.8 530.1 520.3 503.6 491.8 477 457.3 463.4 473.4 487.4 503.1 522.9 542.7 562.2 573.9 584.3 590.3 603.1 617.4 630 639.4 647 654.2 655.8 656 649.7 621.8 605.3 601.6 597.8 571.2 566.3 549 537.4 511.9 486.8 467.7 443.8 426.9 404.9 412.2 424.5 439.2 459.4 469.8 462.9 455.9 453.2 452.7 451 446.4 440 430.1 417 407.7 401 393.1 378.6 362.1 344.6 323 311.5 296.6 287.3 283 272.2 264.7 256.9 260.2 263 265.3 268 269.9 270.5 269.2 263.3 262.7 264.1 258 249.1 236.5 219.6 200.7 183.1 172.2 166.8 162 156.6 161.8 162.9 167.3 171.9 175.2
462.4 472.5 486.9 487.7 481.5 468.3 463.1 461 459.5 452.5 446.3 439.8 435.9 427.2 421.8 413.2 401 386 390.8 393.9 387.7 372.2 348.5 324.8 298.9 269.1 237.6 207.6 196 183.9 159.9 139.9 120.3 106.4 92.9 89.4 89.4 89.4 89.4 89.4 89.4 89.4 89.4 89.4 89.4 89.4 89.4 90.6 101.3 105.7 114.2 122.8 138.7 152.8 165.3 174.9 186.8 196.2 206.5 216.4 229.1 249.2 257.7 259.9 268.4 281.6 289.7 297 306.5 324.7 335.2 347.7 366.3 374 381.6 403.6 415.3 415.3 426 442.9 473.3 489.8 504.7 511.1 516.8 522 515.2 508.4 508.1 516.8 529 534 539.2 534.9 526.1 537.4 545.2 551.3 558.4 565 576.3 585.4 593.4 596.1 588 573.2 559.9 540 520 510.9 497.8 486.3 466.3 448.2 462.5 474 485.4 501.3 526.8 551.7 566.4 579.9 583 586.6 597.6 613 628.9 644.1 659.7 661.1 654 656.1 644.5 627.8 625.2 615.9 606.3 590.5 550.4 535.8 528.2 517.2 499.9 472.3 443.2 425.1 401.6 401.7 411.7 420.1 425.7 432.5 432 433.7 432.5 429.5 429.4 430.6 428.1 420.5 409.2 396.8 389.1 379.2 369.9 349.7 330.4 315.4 302.8 289.1 278.2 268.1 270.2 270.1 274 278.4 281.7 281.7 280.8 281.1 280.2 272.8 263.7 267.1 266.4 258.6 246.1 228.4 206.4 187.7 176.9 172.9 168.2 161.6 161.1 166.8 167.3 169.4 173.2 176.6
467.3 479.7 487.1 488 484.6 480.2 473.8 467.5 471.8 463.3 454.3 453 444 430.7 419.5 413 403 392.4 400.9 400.5 392 372.3 348.9 325.7 300.6 270.3 235.3 217.6 226.3 196.7 166.7 147.2 127.6 116.1 98.3 89.4 89.4 89.4 89.4 89.4 89.4 89.4 89.4 89.4 89.4 89.4 89.4 90.8 98.1 97.7 101.5 113.9 130.2 144.2 155.5 165.1 176.2 184.6 189.5 197.9 215.9 230 237.3 242.8 260.7 273 281 289.1 301.2 318.9 332.9 346.7 364.5 374.2 380.7 403.5 413.8 416.8 433.2 454.8 482.6 491 506.7 512.5 521.6 519.4 510.1 503.1 505.4 515.3 523.4 529 531 527.6 513.9 527.6 533.6 535.8 543.1 555.4 572.2 585.8 581.9 582.6 580.1 567.3 542 523.4 512.1 502.4 483 473 457.8 439 455.5 466.1 478.9 501 527.9 543.3 556.9 568.2 575.3 580.4 592.1 601.9 613.4 631.2 645 653.6 647.4 646.4 647.1 645 637.5 630.6 622.8 586.1 550.1 531.2 523.8 524.1 494.2 458.3 432.1 413.1 401 391.6 398.8 404.9 411.1 417.1 417.6 407.5 404.6 401.7 407.9 408 409.1 400.8 383.7 380.2 366.8 360.3 353 333.6 316.7 306 298.2 285 280.4 284.4 286.8 290.2 293.4 291.5 292.6 291.2 290.5 292 285.8 277.5 273.2 274.7 266.4 255.4 238.8 216.2 192.6 183.9 178 174.3 169.3 163.1 167 169.3 171.2 171.2 174.2 176.9
469.3 486.6 492.9 491.9 487.5 484.9 482.1 473.6 480.9 474.1 470.9 464.8 448.8 439.4 422.5 410.4 402.9 405.4 406.9 409.9 400.3 379.7 353.5 328.2 299.6 277.3 267.9 266.4 248.6 221.9 187.5 161.1 144.8 131.3 111.5 92 89.4 89.4 89.4 89.4 89.4 89.4 89.4 89.4 89.4 89.4 89.4 89.4 89.4 92.8 98 110.3 122 132 145 156 165.4 171.8 175.1 184.4 198.1 207.8 219.4 234.8 251.5 261.5 266.9 282.8 298.4 313.5 327.6 341.1 358.3 378.4 383.4 397.3 403.5 419 438.7 469 483.5 490.8 509.6 517.5 522.1 516 499.8 498 506.4 509.6 510.4 514 513.1 506 496.7 510.2 519.9 527.5 540.6 551.4 565.8 576.4 580.3 582.9 576.1 556.1 532.8 518.4 500.6 483.5 464.6 454.6 441.3 425.2 450 461.8 480.7 506.5 525.7 535.7 548.2 561.3 570.1 577 585.1 596.6 609.7 622.6 639.6 646.5 650.3 663 665.8 659.3 648.5 634.5 617.7 589 557.9 539 524.8 513.8 491.9 463.3 436.5 416.7 398.3 383 392.5 393.7 396.2 398.1 391.6 391.3 387.8 387.1 386.4 381.3 374.6 368.8 362.3 352.2 344.5 341.7 334.4 324.7 314.3 299.6 286.4 292 296.9 300.5 301.7 303.5 302.7 302.3 302.4 303.3 302.2 300.6 293.7 288 286.4 281.6 267.9 248.7 227.8 200.9 188.9 183.4 178.7 173.5 168.9 166.7 170.5 172.2 173.4 173.8 173.8 174.3
474.9 486.4 495.7 493.9 492.8 493.5 491.1 481.4 484.7 487.4 476.6 467.6 453.1 446.8 433.3 428.6 423.7 410.8 410.9 412.1 399.9 380.7 358.5 333.1 305.5 304.5 298.2 279.5 247.5 220.8 195.4 175.6 159.6 145.4 124.6 108.1 89.4 89.4 89.4 89.4 89.4 89.4 89.4 89.4 89.4 89.4 89.4 89.4 89.4 89.4 95.9 101.9 109.2 121.8 133 144.5 153.5 159.1 160.6 169.7 180.4 192.8 209.9 226.8 240.8 248.8 257.1 274.3 291.2 306 320.5 335.3 352.9 381.6 380.8 383.4 399.9 418.8 440.7 470.7 485.3 491.1 502.5 511.8 517 514.2 496.1 497.6 503.9 507.3 507.3 502.3 497.2 495.1 491.9 501.9 508.7 522.6 534.4 547 558.8 569.3 576.8 580.9 576 553.9 526.8 508.2 492.6 471.2 454.2 434.6 418.7 432.2 444.4 456.5 479.3 504.2 524.6 532.2 545.5 555.9 566.8 577.1 585.4 598.9 618 633.4 647 657.8 663.2 664.7 670.9 667 647.2 631.4 612.5 586.8 565.7 539.6 530.5 513.6 501.2 466.8 454.1 429.5 398.6 380.5 384 385.4 384.5 381.6 380.1 378.6 372.1 368.1 363.1 355.2 350.1 348.2 342.7 336.8 334.2 332.1 325.2 317.1 308.1 293.5 297.4 305.1 309 310.7 312.8 313.3 312.7 311.5 313 310.2 308.5 304.6 297.7 293 283.5 278.3 259.9 240.9 216.1 199.6 190.4 183.3 176.9 174.4 171.3 173.8 172.2 174.1 175.1 174 172 170.5
481.3 480 493.5 496.6 499.3 499.2 492.4 488.6 493.1 497.7 485.1 466.3 454.4 448.7 434.7 435.5 430.8 415.8 414.3 412.8 406.9 387.6 364.1 343.1 348.1 350 330.5 304.3 269.7 239.2 222.2 198 191.7 165.8 140.2 118.6 101.4 89.4 89.4 89.4 89.4 89.4 89.4 89.4 89.4 89.4 90.3 89.4 89.4 89.4 93.2 95.9 102.8 111.4 119.7 132.1 140.7 146.1 148.1 156.2 168.2 181.3 200.9 217.7 230.1 237.5 246.3 265.8 283.8 296.8 312.5 327.2 342.2 365.9 368.2 385.3 398.7 424.3 450.7 473.8 482.9 488.7 498.7 504.3 507.5 498.8 497.2 504.3 504.2 509 506.5 498.6 489.3 488.2 483.2 491.3 502.2 516.7 529.3 544.6 561.1 571.1 574.9 573.9 563.4 544.5 517.2 499.5 480.4 462.6 446.4 429.4 417.1 422.8 433.3 447.2 463.2 481.7 506.5 519.6 536.7 555.7 569.6 580.7 593.2 608.7 626.2 644.6 662.4 672 679.6 660.6 663.3 665.3 647.6 628.3 609.5 581.9 561.8 537.8 533.5 506.2 504.1 473.6 457.8 406.8 391.5 382.7 375 372.1 376.9 374 365.3 364.6 358.3 353.1 345.3 339.4 336 335 331.7 327.9 325.2 321.5 318.9 308.4 298 310.2 313 317.4 320 320.9 321.6 321.3 319.7 320.3 316.6 312.8 308.3 303 299.5 292.6 284 274.5 255.7 233.2 210.4 196.3 188 181.6 181.3 179.2 179.8 179.3 178.4 177.6 175.7 173.1 171.9 172.7
485.5 485 489.2 498.2 500.6 495.9 495.3 494.6 502.7 496.9 480.3 464.1 455.1 447.6 437.1 443.8 434 421.8 416.1 412.8 407.7 383.6 381.3 391.4 385 375.3 360.1 323 293.6 266.2 240.8 217.3 196.4 168.1 147 126.9 108.2 93.9 89.4 89.4 89.4 89.4 89.4 89.4 89.4 89.4 89.4 89.4 89.4 89.4 89.4 92.8 98.8 104.4 111.7 120.2 128.4 133.5 140.7 146 153.1 171.7 190.6 206.3 217.2 223.8 238.7 257.9 275.6 288.6 303.7 319 332.7 349.4 362.5 383.7 408.3 440.7 455.5 473.1 477.3 482 491.1 491.7 491.1 487.1 500.5 505.3 495.7 492.4 490.6 484.4 479.3 477.2 478.5 486.9 497.5 510.7 522.4 540.1 556.6 570 571.9 569.6 562.4 541.2 511.3 493.3 472.9 456.6 439.8 424.3 408.6 411.5 424.9 438.7 458.5 479.8 501.1 518.3 535.7 556.5 573.1 589.4 602.3 618.8 634.8 648.4 660.7 664.3 667.4 654 663.2 659.2 651 638.6 606.7 567.4 549.2 530.4 519.3 492.4 471.1 449.3 424.9 411.5 399.4 388.3 381.1 370.3 362.7 359.2 355.2 352.5 349 345.9 345 345.7 342.8 338.8 334.5 329.4 324.2 321.7 317.2 313.8 316.2 321.2 324.3 326.1 328 328.7 329.9 328.5 326.1 323.7 320.5 316.9 315.9 314 308.2 301.2 295.9 277.6 252.1 228.5 208.3 198.6 194.5 191.4 190.6 186 185.9 184 182.6 180 178.5 180.9 181.8 180.2
488.2 491 490.1 494.5 493.8 494.7 493.9 494.5 498.7 490 479.8 470.1 464.9 451.9 445.9 446.3 440.1 427.8 422.5 414.5 405.7 408.9 417.7 400.8 392.5 389.4 374.8 336.5 307.6 285.5 261.9 237.2 208.7 174.6 147.2 133.4 118.4 101 91 89.4 89.4 89.4 89.4 89.4 89.4 89.4 89.4 89.4 89.4 89.4 89.4 89.4 94.4 100.5 104.6 110.8 119 125.8 133.2 136.7 149.2 166.1 178.8 192.8 201.3 213.4 231.6 250.1 266.3 280.8 295.6 307.6 325.4 343.2 356.7 387.4 423 444.6 449.7 459.4 466.8 468.3 473.8 481 483.2 489.5 486.8 484.3 486.4 485.7 485.3 480.4 476.4 469.9 472 478.9 490.1 505.1 517.7 534.9 552.3 563 567.3 563 560.2 538.6 503.9 485.7 468.2 451.5 436.8 419.5 404.8 397.6 416.7 435.4 454.5 475.9 502.1 519.8 537.7 556.9 580.3 598 613.7 622.6 637.7 645.5 658.2 659.3 646.2 645.9 658.5 657.1 647.4 627.3 591.6 560.6 537 528 512.9 478.3 457.2 442 426.7 413.3 402 392.9 382.2 376.7 371.9 370.5 369.7 366.3 362.2 356.9 357.3 354.5 351.2 346.6 341.4 337.5 333.9 330.9 330.2 330.1 329.5 331.7 332.8 334.2 336.1 336.8 337.1 336.3 333.8 331.7 329.6 326.2 325.6 326 315.7 303.6 289.8 270.6 247.6 222.9 207.8 208.2 206.2 202.9 200.3 195.5 195.9 191.3 188.3 186.1 187.4 186.5 187.6 186.4
487.3 493.3 492.8 486.2 488 491.5 494.4 493.4 491.5 486.1 481 479.1 464.1 457.8 456.2 454.5 445.1 429.4 425.4 417.7 418.8 428.3 422.7 412.5 402 393.6 375.6 339.4 320.1 302.2 280.6 254.2 223.3 184.4 155.3 137.4 128.1 111.7 97.6 89.4 89.4 89.4 89.4 89.4 89.4 89.4 89.4 89.4 89.4 89.4 89.4 89.4 90.2 96.4 102.3 107.4 113.1 118.6 125 133.2 142.9 157.4 168.2 178.9 187.7 203.8 222.6 239.9 255.1 268.1 284 299.6 318.1 339.2 355.4 389.9 420.6 443.5 451.5 456.7 465.5 463.4 465.4 475.1 484 489.3 480.6 474.8 478.6 482.3 483.7 479.5 472 467 465.3 473.3 484.3 498.1 511.8 526.6 545.6 549.9 554.1 553.2 549.4 533 499.7 478.7 465.1 448.8 428.2 408.8 395.5 395 410 423.3 447.3 468.4 494.1 518 540.5 554.4 573.7 592.7 610.5 622 633.1 637.8 644.3 643.4 644.4 644.8 657.4 657.8 635.5 615.3 575.5 544.4 529.5 523.1 506.2 478.8 453.7 434.7 424.3 405.8 398.2 389.8 384.2 384.7 381.2 381.8 380.3 377.4 374.5 368.3 368.2 364.1 360.3 355.6 350.5 347.9 346.1 344.3 342.7 342 340.6 340.7 340.5 341.8 343.2 344.8 344.2 343.6 341.9 339 335.6 332.7 328 320.1 312.2 296.7 284.5 269.9 250.6 230.7 228.6 224.3 219.6 214.3 208.6 201.5 202.9 200.6 198.6 196.4 195.8 195.7 195.8 194.6
489.3 493.4 487 481.2 482.9 490 495.3 496.2 493.2 487.5 480.5 475.1 466.5 466.1 466.3 462.1 449.5 430.6 423.9 422.6 432.5 436.3 428.9 418.9 412.4 400 383.7 353.4 341.4 320.6 296.3 268.7 237.6 202.3 168.2 146.5 130.2 118.2 106.8 92.8 89.4 89.4 89.4 89.4 89.4 89.4 89.4 89.4 89.4 89.4 89.4 89.4 89.4 94.6 99.3 105 108 112.3 117.5 127.4 136.9 149.3 159.8 166.2 174.5 194.4 213.7 230.9 244.4 259.6 272.9 289.9 308.1 327 350.6 382.5 409.5 435.1 447.7 456.3 459 459.7 462.8 470.5 475.7 477.6 473.7 473.2 477.1 479.1 480.9 477.8 469.1 462.3 464 474.1 483.9 495.6 507.4 523.4 536.3 543.2 546.8 546.2 540.3 520.2 492.3 474.4 460.8 443.5 424.7 405.1 386 387.7 397.2 413 431.7 455.7 476.1 508.1 537.1 552.1 572.2 590.2 605.5 614.3 627.4 636.9 645.1 646.4 644.8 645.2 652.9 653.8 642.1 615.8 568.1 536.2 525.2 521.4 503.7 474.9 448.5 427.7 416.2 401.8 398.6 395.3 393.1 391.5 390.4 390.9 391.5 391 383.5 384.2 379.5 374.5 371.2 365.3 361 359.4 358.8 357.5 355.9 354.6 352.6 352.7 351.9 352.4 351.4 351.9 351.9 352.6 352.2 349.5 342.4 336.2 328.7 321 310.6 298.6 287.2 272.5 256.6 249.4 244.2 237.1 230.4 223.8 215.1 203.7 212.7 210.9 209 208.6 208.6 205.7 204.9 202.9
489.1 483.9 479.3 480.4 487.6 490.2 495.9 500.5 497 492.6 482.6 473.1 471 473.2 473.5 465.6 446.9 432.3 427.7 426.6 441.7 442.7 441 431.5 420.6 407 387.9 377.7 357.2 336.6 307.7 280.3 249.6 213.5 180 161.1 135.5 117 111.6 103.8 95.4 89.4 89.4 89.4 89.4 89.4 89.4 89.4 89.4 89.4 89.4 89.4 89.4 93.1 96.6 101.9 103.6 104.9 108.6 117.6 129.6 142.2 149.6 151.4 168.9 189.1 207 222.5 236.7 249.4 267.2 290.9 314.6 340.6 371.1 399.4 426.6 450.8 467.3 468.1 462.1 460.2 462 466.9 472.2 473.7 473 471.3 476.4 473.9 473.3 464.5 460 458.5 463.9 475.9 486.2 497.1 506.4 518.2 527.1 533.4 537.5 538.8 531.2 507.7 484.5 472.7 458.7 439.8 420 401.7 386.6 378.3 384.9 401.6 421.2 437.9 460.5 489.5 520.3 537.8 559.2 578.9 591.6 605.3 619 633.4 641.8 645.7 649.5 644.5 651.1 645.9 630.3 595.7 560.8 534.8 519.7 512.5 494.8 469.7 443.5 427.5 420.7 412.1 407.3 405 403.2 398.4 399.2 401.5 403.4 400.5 397.1 393.6 388 384.9 380.9 376.2 371.6 370.9 370.6 369.4 368.3 367.6 365.2 365.2 363.8 362.1 361.2 361.3 360.6 362.4 362.4 359.9 352.8 345.1 336.4 325 316.7 306.8 292.8 273.4 264.3 262.6 257.1 249.7 240.8 232.1 220.4 225.4 222.6 221.1 217.6 217.1 217.4 218.1 217.7 214.8
473.6 477.4 477.1 479.9 487.9 491.7 494.7 501.1 500.5 486.6 482.2 476.6 477.4 481 478.9 463.5 450.1 437.4 435.3 437.9 446 451.1 448.4 439.8 429 414.2 399.6 386.1 370.1 347.4 313.3 287 259.9 230.9 201.3 173.8 150.6 129.7 114.9 104.5 98.8 93.3 89.4 89.4 89.4 89.4 89.4 89.4 89.4 89.4 89.9 89.4 89.4 90.7 94.2 98.9 100 101 106.1 112.8 124.8 134.4 140.2 148.3 164.3 183.2 198.9 210.3 226.3 245.8 266.2 291.4 317.5 345.9 376.3 406.6 435.7 460.6 481.7 492.9 487.7 464.1 461.4 467.9 469.5 468.6 466.3 462.9 459.1 456 452.3 452 451.8 454.8 465.6 477.2 486 494.2 503.3 514.1 523.8 532.7 538 536.8 525.5 506.6 483.4 473.5 458.3 440.3 422.3 404.9 387.1 373.9 375.2 388.9 411.2 429 449.7 472.2 504.6 529.2 555.4 572.7 585.9 601.8 617.5 633 642.5 646.3 647.2 641.9 652.7 642.3 633 594.3 557.3 538 517.2 502.7 483.1 463.5 445.8 437.3 433.9 428.5 423 419 418.9 413.5 409.4 410.6 410.8 405.3 405.6 403.4 399.8 397.1 391.7 388.3 384.7 382.9 382 380.8 378.8 377.1 374.4 374.5 372.9 372.2 372 372.6 370.8 369 369 370.5 361.7 350.9 341.1 333.2 326.9 314.7 298.2 280.9 274.9 273.9 267.9 259.8 249.5 240.2 233.9 236.8 233.7 232.3 229.5 230.8 232.2 230.8 229.4 227.3
461.3 476.3 477.5 486.2 492.9 496.3 497.3 502.9 502.6 490.5 480.8 476 479 486.2 475.4 460.4 453.4 438.3 436.2 444.7 448.3 454.7 455 444.3 435.7 423.4 417.9 399.6 378 340.9 307.4 288 266.8 244.5 219.3 194.9 170.1 150 132.7 117.5 107 98.2 89.8 89.4 89.4 89.4 89.4 89.4 89.4 89.4 89.4 89.4 89.4 89.5 92.2 94.8 96.9 98.5 100.4 110.4 120.5 125.5 136.7 148.9 162.8 175.3 189.9 200.8 221.7 241.2 262.5 293.4 322.2 349 379.8 411.7 440.6 471.3 491.9 498.3 493.7 465.9 460.2 466.7 467 463.6 460 458 456.2 454.8 453.1 449.2 449.4 454.5 465.8 476.8 484.3 491.8 500.8 510.2 517.8 527.2 536.2 537.1 521.9 498.1 488.2 476.1 461.3 444.2 426.7 407.1 388.8 372.1 367.3 380.7 403.6 420.4 440.5 466.3 498 525.4 553.4 570.7 587.1 599.6 610 625.1 632.7 637.7 636.2 639.8 649.9 639.7 630.5 593.8 566.7 540.9 516.1 501.9 486.9 467.4 449.7 443.3 438.5 433.1 434.4 433.1 432.3 425.2 419.7 418.8 417.2 415.9 416.1 412 409.3 405.8 401.5 397.5 396.5 395.8 395.4 393.5 390.8 388.1 384.7 383 382.3 382.5 383.1 385 385.9 386.1 381.8 375.4 367.1 358.1 348.8 340.2 332.4 321.2 303.8 290.1 287.7 284.4 278.2 268.5 257.3 244.8 247.6 250.1 247.2 240.7 238.7 238.2 241.4 240.9 238.3 236.7
464.2 477.7 480 488.1 492.8 498.6 497.6 503.3 502.1 495.5 486.3 473.7 474.9 479.9 467.4 452.9 444.6 438.1 441.4 451.2 449.1 455.6 454 443.7 437.7 427.2 424.7 412.4 384.2 345.9 314.7 293.3 273.2 255 233.7 212.1 189.7 169.6 151 132.4 120.2 107.8 97.1 94.2 90.2 89.4 89.4 89.4 89.4 89.4 89.4 89.4 89.4 91.4 92.3 94.3 95.8 97.8 100 107.5 116 124.5 136.2 146.7 156 162.9 182.3 199.2 217 237.4 263.7 295.1 322.8 355.3 387.6 417.4 439.9 465.7 483.6 491.2 487.5 472.1 457.5 471.6 470.6 464 458 456.3 455.2 455.2 455.3 451.4 446.8 452.9 465.2 473.7 480.6 487.4 496.8 506 515.2 526.9 530.6 526.7 512.5 503.9 493.3 477.7 461.9 446.5 430 410 389 370.1 357.5 369.8 395.5 413.8 433.9 457.3 483.8 514.6 548.1 568.3 578.9 589.7 597.6 611.9 617.6 619.7 623.2 633.8 642.8 633.4 622.9 599 568.4 542 520.3 504.5 490.9 474.1 461.9 454.8 451.9 449.6 448.1 447.4 444.9 439.7 435.4 433.7 430.3 428.5 424.7 421.7 419.4 416 412.5 408 408.7 407.9 406.4 405.6 402.5 400.6 397.9 399.1 401.4 401.3 398.1 397.8 400.2 403.6 403.1 395.9 376.3 364.2 356.9 347.1 341.2 328.9 311.7 303.3 300.1 294.5 286.9 275.9 263.6 256.8 260.8 259 257.5 254.1 249.6 248 249 247.3 246.7 247.9
460.2 472 480.4 484.9 494 495.8 501.8 501.7 503.3 500.8 491.7 474.9 472.8 475.2 456.7 444.3 441.1 440.7 445.8 453.9 453.4 449.7 449.7 448.3 443.8 433 429.3 420.7 405.6 374 340.4 313.6 289 263.7 243.8 222.4 205 188.1 169.1 151.2 134 117.2 103.3 99.5 95 91.1 89.4 89.4 89.4 89.4 89.4 89.4 89.9 91.5 92.8 94.5 96.5 97.5 98.4 105.8 115.8 121.9 132 139.6 146.1 159.6 178.1 192.9 211.9 233.6 261.8 294.7 323.8 355.4 385.4 411.2 438.1 455.6 466.5 477.6 471.5 458.3 453.6 465.1 463.3 459.1 455.5 452.8 451.1 452.2 454.6 449.3 439.2 448.1 458.4 468.8 476.5 486.7 496.6 506.3 517 521.8 522.1 518.5 514.7 513.7 495.2 478.4 461.2 446.8 429.8 410.9 386.1 366.2 353.4 363.3 385.3 403.1 421.6 449.3 486.5 516.7 546.3 567.6 578.8 584.9 590.8 604.4 610.6 615.1 623.4 632.6 641.9 634.9 624.4 604.1 565.8 545.9 526 511.6 499.1 486.3 476 471.4 463.7 461.7 459.9 458.2 457.4 453.4 451.4 447.6 439 437 435.2 431.6 428.4 424.2 421.3 419.4 418.4 418.6 417.5 415.8 412.1 411.4 416 422 421 416.6 413.4 414.4 418.3 417.8 421.8 415.3 393.1 373.3 365.2 357 349.8 338.7 321.8 318.2 312.4 304 294.2 281.5 266.8 270.7 272.9 271.8 271.7 267.3 263.6 258.9 257.8 257.6 259.7 258.7
453.3 472.7 479.5 484.2 494.1 495.5 498.2 500.9 505.1 503.5 492.9 478.3 467.1 465.6 452.3 444.1 451.4 446.4 448.4 450.5 450.5 449.8 451.5 449.1 452 444 436.6 434.9 424 397 362.3 327.4 302.1 281.8 262.1 241.7 224.7 207.2 188.7 168.1 147.1 125.4 110.3 107.1 102.6 97 93.7 89.4 89.4 89.4 89.4 89.4 89.4 90.9 93.2 95.5 95.3 95.9 97 104.8 113.9 118.6 124.5 129.4 143.9 160.7 175.4 189.6 207.4 230.9 262.1 297.8 324.9 349.1 383.4 408.5 431.3 445.3 462 469.6 467.1 452.2 440.6 449 446.2 443.8 445.5 442.4 444.3 446.5 449.3 445.9 436.5 446.3 452.6 463.5 474.6 486.6 497.5 509.3 513.9 519.4 519.7 520.6 522.5 515.7 493.5 476.6 463 448.4 434.2 411.5 384.8 363.4 348.9 353.8 377.9 393.6 414.8 438.4 470.1 505.5 535.8 557.2 571.5 576.1 590 601.4 610.3 614.9 621.1 632 639.4 636.2 627.5 604.2 571.5 546.4 532.6 519 509.4 500.3 492.9 481.8 474.7 475.1 473.1 471.2 465.1 465.8 461.4 451.4 451.1 449.1 448 443.2 440.5 438.5 438 439.1 434.4 430.6 428.5 427.8 430 437 441.3 438.7 435 431.5 432.1 442.2 438.4 431.7 426.5 422 401.2 381.7 373.6 367 355.7 345.5 336.6 329.7 320.6 310.2 299 284.9 278.5 284.6 285.5 282.3 279 277.7 277 271.6 270.5 269.8 270.9 270.4
452.9 469.8 478.3 483.6 495.5 499.8 497.5 496.7 504.4 503.8 495.5 475.7 468.1 460.1 447 447.3 460.3 452.7 450.4 448.6 449 449.8 450.7 450.6 451.5 454.7 442.1 435.1 427.6 411.3 374.9 332.9 306.1 293.2 276.6 260.1 243.1 223.6 203.6 181.9 159.8 139 117.6 114.2 113.4 102.7 97.9 91.9 89.4 89.4 89.4 89.4 89.4 89.4 93.9 95.7 93.3 94 95.5 104.9 110.9 113.4 118.9 131.3 143.6 156.1 170.1 184.4 203.9 231.9 261.1 292.3 318 346.6 376.8 402.4 423.5 440.3 447.7 457.1 453.1 432.4 420.1 430.3 431.1 430.6 427.7 428.2 431.8 434.9 436.5 435.7 437.1 441.6 448.3 460.2 473.2 486.3 498.5 503.6 505.1 502.4 509.3 522.8 520.1 510.6 488.5 477 464.3 449.4 435.4 409.7 380.8 353 342 340.4 368.7 385 404.7 427.9 459.1 488.6 521.9 547.3 562.4 566.8 582.5 595 602.9 608.2 617.9 628 636.2 634.1 629.3 614.4 579.4 552.8 539.4 526.8 519.3 513.1 506.6 499.2 490.8 484.8 480.2 476.9 473.6 471.2 467 467.7 462.6 459.3 459.1 457.9 455 452.9 455.2 452.3 449.8 449.7 447.5 446.8 443.4 451.1 452 452.1 452.6 449.7 457.2 463.7 461.4 450 435.8 421.8 405.8 390.1 384.7 378.3 363.7 353.9 346.6 336.4 324.4 310.2 302.4 293.6 295.6 292.5 293.6 294.3 294.4 295.2 293.5 288.1 284.8 284 280 279.7
449.1 465 471.4 475.7 492.5 500.7 498 490.2 496.1 496.4 487.7 472.8 464 452.5 447.6 448.9 454.5 454.9 449 448.5 448.9 449 456.2 456.9 455.7 458.4 450.5 433.4 427.3 400.9 369.1 341.6 319 301.9 290.5 273.2 259.1 236.9 216.7 195.4 173.1 150 130.1 125.8 123 110.1 103.2 98.9 96.8 89.4 89.4 89.4 89.4 92.2 94.9 94.1 92.4 92.6 96.2 102.2 106.7 111.4 117.9 126.9 137.5 147.2 166.5 186.5 205.5 232.1 257.5 286.7 322.2 350.5 374.2 393.4 406 414.7 418.4 415.6 412.3 397.1 401.2 408.7 405.6 404.8 404.9 405.7 409.7 412.1 421.6 424.8 431 436 446.8 458.5 470 481.6 488 491.1 489.5 493.9 510.5 516.6 515.7 503 488.7 477.9 464.5 448.4 426.2 402.2 375.7 345.6 331.2 340.4 354.5 372.3 391.7 415.8 440.3 470.1 498.7 526.4 549.5 559.2 567.7 582.8 592.8 603.9 616.9 626.2 635.6 633.8 628 616.2 589.9 561.6 550 537.4 529.7 522.4 516.8 511.5 506.9 500 492.2 489.2 485.7 480 478.4 477.5 473.9 470.9 468.8 466.7 468.5 467.3 467.8 464.9 460.9 461.1 458.4 459.6 460.5 464.4 465.7 469.1 471.5 471.5 477.8 482.7 477.7 464.8 448.2 428.6 414.2 402.8 397.8 386.4 373 362 351.5 338.8 324.3 319.3 315.6 309.2 308.4 304.5 307.7 310.5 312 312.2 308 305.1 301.7 299.9 294.7 292.2
438.1 453.6 462.8 470.7 485.6 494.9 499.4 487.9 485.4 474.1 467 460.3 460.7 461.6 456.5 453.6 447.9 449.6 446.8 448.3 450.2 459.9 458.6 466.4 459.9 459.9 456.1 443.6 425.4 411.3 393.4 368 342.4 320.7 308.9 292.6 273.6 252.1 230.4 208.1 184.9 164.4 148.4 137.8 128.6 119.6 111.1 100.7 98.1 89.4 89.4 89.4 89.4 89.4 90 89.4 89.4 91.9 95.9 98 102.3 105.2 111.8 117.7 125.8 144.2 165.8 184.8 206.2 237 266.1 295.3 321.5 336.4 351 372.2 385 385.3 382 377.2 370.7 372.8 381.7 384.7 383.2 381.3 384.5 392.8 397.4 398.3 400.2 406.9 421.2 431.9 441.9 451 460.8 469.1 475.5 479.1 481.2 496.7 503.1 507.7 503.7 493.4 487.5 477 463.8 449 425.7 395.7 363.5 335.1 323.1 330.4 344.2 360.8 382 403.1 428.6 453.5 483.2 520.3 532.8 546.4 559.6 577 591.4 601 609.9 620.7 627.4 629.2 628.5 616 597.7 575.4 559.3 543.8 537.2 531 526.1 523.5 523.2 516.1 506.5 503.7 498.9 494.5 484.8 488.8 485 483.4 480.4 477.2 478.9 483.4 482.3 478.4 477.1 473.6 471.7 472.2 473.9 472.1 480.5 485.6 491.6 497.4 497.9 502.9 497.1 481.3 460.9 435.9 421.7 412.3 406.8 393.2 378.2 366.2 352.2 338.2 335 334.5 327.8 325.8 325.8 320.7 325.7 329.3 330.3 330.9 326.7 323.6 325.5 320.9 319.1 308.9
421.2 438.7 446.3 460.2 475.1 485.4 493.9 486.5 467.6 471.8 459.5 457 460 466.1 464.1 457.5 450.2 444.8 449.3 450.1 460 468.5 466.2 464.6 462.8 467.7 463.3 455.5 447.9 427.5 421.4 399.2 378 347.3 328.6 306.5 283.8 261.6 237.2 214 188.5 176.3 165.4 151.6 136 130.8 122.5 108.5 96.7 89.4 89.4 89.4 89.4 89.4 89.4 89.4 89.4 91.3 94.9 96.6 98.7 100.1 102.4 104 122.3 143.8 163.9 179.6 205.7 237 266.5 284.4 300.9 315.1 329.8 342.5 352.2 354.7 348.8 343.6 350.1 358.6 363.3 367.9 368.4 367.6 367.9 366.6 372.3 383.4 393.4 404 414.2 424.1 433.7 442.3 450.5 457.8 462.4 471 481.6 488.6 493.2 498.3 494.1 488.5 485.6 475 462.4 446.4 414.9 385.7 353.1 332.2 316.1 318.4 330.6 350.9 368.6 389.7 413.1 434.2 464.4 497.2 520.8 537.6 550.4 569.9 582.8 593.4 600.6 607.6 616.1 623.8 626.8 621.1 602.9 584.9 571.5 560.5 549.3 543.1 536.2 536.5 533.1 530.6 523.5 518.5 510.7 507.7 497.4 503.3 500.6 496.4 495.5 494.7 496.9 497 493.2 491.4 486.4 486.6 488.5 487.2 486.5 489.4 494.4 496.1 505.8 508.7 519.3 512.8 494.6 479.4 463.4 442.4 427.5 419.5 409.7 394.8 382.1 367.4 354 343.6 350 345.6 341.4 339 336.7 336.5 340.7 344.4 348.4 351.4 347.8 340.9 342.8 342.8 341.6 332.9
406.5 418.8 437.4 447.4 463.1 476.2 481.9 478.2 462.1 458.9 450.4 455.9 457.9 465.5 462.6 456 448.6 445.3 444.5 451 466.6 478.8 470.6 469.9 463.3 468.6 467.3 467.1 455.4 445.5 445.1 435 412 369.1 339.6 315.2 287.6 265.7 243.2 215.8 200.2 193.7 182.3 165.8 146 142.9 134.7 120.5 103 89.4 89.4 89.4 89.4 89.4 89.4 89.4 89.4 91.1 94.3 96 97.6 97.2 95.5 98.8 118 142.6 161.6 178.8 206.6 234.7 259.4 277.6 288.9 300.6 309 325.6 337.2 341.9 337.4 327.8 336.8 344.9 349.1 351.5 349.8 347.4 349.4 357.2 367.3 378.1 385.5 395.2 404.3 413.8 422.5 430.1 436.6 442.1 451.4 463 473.2 477 480.7 485.5 484.1 485.1 485 473.9 462 438 403.1 377.1 352.4 329 314.2 308.4 322.9 340.9 359.6 378.4 396.9 415.1 450.9 481.1 502.2 522.9 544 558.7 571.8 581.4 590.7 596.7 606.7 615.5 626.3 622.6 607.3 595.9 584.3 576.7 564.2 557.3 553.4 549 543.9 538.2 535 530.2 524.8 517.4 514.4 512.8 512.3 508.7 507.1 507.7 507.8 505.5 501.7 499.9 503 505.5 505.7 500.6 502.9 503.1 504.5 508.4 519.7 523.9 530.6 524.1 511.6 490.6 469.5 446.9 431 422 407.5 398.8 382 373.1 360.5 360.5 358.1 352.7 352.3 351.4 349.5 350.1 354.3 358.2 362.4 361.9 356 351.4 351.9 349.6 350.8 344.4
388.9 404.2 423 432.3 443.6 453.2 462.8 465.1 455.3 446.9 445.1 451.8 454.8 457.1 456.9 450.4 445.3 445.3 445.3 454.3 464.9 473.5 473.3 468.3 463.5 471.1 476.3 470.5 466.3 462.1 455.8 446.3 431.6 401.1 355.7 329.5 293.6 271.2 248.3 228.1 220.1 212.1 197.9 178.4 158.3 156.2 148 132.7 111 100.2 94 89.4 89.4 89.4 89.4 89.4 89.4 92.5 93.8 94.8 95.8 99.6 94.7 94.9 116.4 138.6 158.3 178.1 202.5 226.1 247.9 260.1 270.8 285.1 302.3 314.2 327 331.6 328.7 314.2 327.9 332.2 335.2 335.1 335.3 332.8 334.8 347.5 355.8 364.1 372.6 382.1 390.5 399.8 409.2 416.6 422.4 433 443.3 455 463.6 468 470.9 474.1 479.2 491 486.2 472.9 458.6 436.5 399.8 377.4 354.2 332.9 315.4 302.4 310 329.2 348.6 365.7 384.6 401.9 439.9 477 499.7 519.4 535.8 550.4 561.9 571.2 579.1 589.3 597.1 604.7 611.2 617.2 611.6 604.4 595.7 588.7 579.9 578.5 570.8 566.3 557.8 548.9 546.8 540.9 537.2 528.7 527.4 524.2 524.5 523.6 528.2 525.4 522.1 517.2 513.7 519 520.2 522.5 522.3 517.3 516.7 518.2 520.3 524.4 538 541 544 545.3 522.8 501.9 476.4 450.2 434 424.4 415.3 397 398.9 387.5 379.6 376.5 368.9 361.4 362.5 365 361.7 361.7 369.1 375.3 370.5 368.6 365.4 365 369 370.8 369.1 363.1
368.1 386.3 398.8 410.7 422 431.7 440.5 446.4 444.8 445.2 442.1 448.8 451.1 452.9 452 447.7 445.3 445.3 449 454.6 461 465.3 470.2 464.4 461.5 472.1 478.5 473.6 472.8 471.8 460.4 456.1 441.7 422.7 379.3 347.4 309.1 282.1 264.1 252.7 243.5 230 211.8 188.3 173.1 169.6 161.3 146.2 128.6 114.6 103.6 94.7 89.4 89.4 89.6 90.7 89.4 96.7 93 93 95.7 99.6 93.5 93.6 110.6 133.6 152.6 172.9 192.9 214.3 230.5 247.5 262.5 277.3 293 308.5 318.4 320.7 321.7 305.4 315.3 317.9 318.4 318.9 320.9 319.3 320.8 330.9 342 349.4 350.3 363 369.9 383.7 393.2 406.3 415.3 424.9 434.9 445.6 454.6 464.1 467.5 475.5 487.3 484.9 475 463.8 453.5 429.7 410.6 381.8 356.5 333.1 311.9 297.9 300.5 319.4 335.8 355.2 374 395.7 427.4 457.8 481.9 503.1 522.3 538.1 547.8 565.2 573.3 585.1 590.5 596.7 605.2 612.1 609.2 603.8 600.8 597.4 593.1 591.4 587 584.8 570.6 566 561 556.2 551.4 546.6 542 538.3 539.5 542.9 545.8 546.1 544.1 532.4 532.4 535.4 537.3 543 537.4 533.5 532.8 531.2 529.5 534.2 547.6 547.8 539.6 530.4 518.2 492 467.5 457.9 438.9 428.6 409.5 414.3 406.6 398 391 386.7 378.2 373.2 378.6 379 377.5 375.8 381.2 385.2 389.5 385.2 380.3 381.8 378.1 368.3 365.7 360.5
349.4 352.7 378.1 380.7 391.6 414.5 426.8 427 428.9 434.8 433.4 440.5 445.5 448 446.3 445.4 445 445.3 449.3 451 454.4 460.8 468.7 466.2 459.3 469.6 473.4 473.9 474.1 479 462.8 457.1 447.1 422.1 389.5 373.4 339.3 299.9 280.7 276.9 262.9 246.1 225 202.9 185.9 182.7 174.2 160 139.7 129.6 115.2 108.4 92.9 89.4 93.5 95.3 93.5 93.2 92 93.7 97.4 95.6 95.3 92.9 108.2 128.6 146.4 166.2 185 203 219.7 238 259.6 272.1 281.7 291.7 298.1 302.9 303.5 295.2 294.7 298.4 301.8 302.5 305.9 308.6 306.1 310.4 317.4 319.4 324 335.2 357.1 368.7 383.5 396.2 405.8 415.5 425.6 435.8 450.3 462.2 467.7 474.1 481.2 476.8 465.8 458.3 448.4 433.6 409 379.4 355 335.2 312.5 294.1 286.7 309.3 329.2 348.5 366 382.3 405.2 434.7 465.8 492.5 513.6 532.2 547.5 559.6 565.7 574.6 580 583.1 592.8 599 601.3 598.9 596.5 599.8 604.5 606 602.6 597.4 591 580.5 571.7 568.6 561.9 558.2 554.4 552.6 555.7 560.9 562 562.3 558.8 555.2 547.5 550 550.6 552 548.5 545.9 548.4 537.9 535.4 539.9 543.4 533 524.8 510.8 499 489.1 477.2 461.9 442.1 430.9 426.4 424.7 414.9 412.5 402.6 393.3 386.8 383.2 388 388.4 385.2 384.8 387.4 395.6 399.7 401 395.8 398.9 399.4 391.4 380.4 364.8
327.8 329.9 342.5 359.4 374.9 389.3 397.2 404.6 421.1 426 418.9 436.5 439.3 445.3 443.2 442.1 443.1 449.3 443.9 445.5 451.6 454.5 466.2 464 457.7 469.7 480.1 475.4 472.2 471.6 459.1 450.5 443 422.8 400.6 382.5 364 320.9 312.9 308.5 279.5 257.1 236.5 213.9 197.5 195 188.3 174.3 156.9 145.3 140.4 131.9 116.6 97.4 97.5 97.6 96.4 91.1 91.5 95.4 98.2 103.7 92.4 91.9 107.2 125.6 142.2 158.4 173.8 190.4 207 223.5 239.5 251.5 264.8 272.1 280.4 286.3 286.9 282.1 279.3 279.7 285.6 287.2 290.3 292.2 288.8 281.4 289.4 299.4 307.2 324.6 342.3 359.2 373.1 384.4 393.6 401.8 416.4 430.2 444.6 452.1 456.6 460.1 462.1 461.4 457.4 452.2 444.7 434.6 410.1 375.8 355.3 331.7 312.1 290.5 284 299.9 318.6 332.2 358.1 380.1 408.9 438.9 463.2 484.6 502.2 520.9 535 546.3 554.7 562.3 568.1 571.8 579.9 587.3 590.3 590.8 590.7 595.9 603.3 611.5 615.5 610.2 602 593.6 582.2 574.6 570 569 570 570.9 575.3 576 577.2 573.4 569.9 565.2 564.2 559.6 561.2 561.7 557.7 553.6 547 539.5 539.5 538.9 534.1 526.6 518.6 508.2 498.4 496.3 487.2 462.4 436.5 440.5 438.9 435.8 424.7 416.9 408.8 405.1 403 399.1 396.4 393.8 392.5 393.8 395.3 396.2 394.3 393 388.3 385.1 385.2 379.9 374.9 364.8
313.9 313.4 319.4 339.7 355.2 363.6 370.7 381.5 404.9 407 409.4 424.7 430.4 435.3 436.6 439 443 449.9 440.4 441.4 448.3 450.7 455.9 461.5 455.5 467 478.4 474.7 472.4 464.7 451.2 438 434.9 421.8 400.9 379.5 349.6 345 336.4 309.9 288.3 267 243.8 223.9 208.7 207.4 201.6 190.5 178.7 170.4 165.3 155.7 141.1 123.5 105.4 101.4 98 91.6 92.2 96.3 102.2 104.1 92 93 105.9 120.4 133.3 145.2 159.8 173.6 190.6 206.8 221.7 236.5 247 256.6 264.5 266.9 267.8 267.1 263.4 265.2 271 273.4 273.7 272.9 270.4 262.2 272.8 282.3 293.6 309.2 331.7 348.6 362.8 370.6 380.9 397.6 411.7 424.6 434.5 440.1 444.3 448.3 450.7 449.7 446.2 443.6 437.2 425.5 397.9 371.2 351.8 330.2 309.4 287 278.2 291.7 307.4 329.2 347.2 371.3 398.6 425.9 449.4 474.3 493.8 508.5 521.9 533.1 545.9 553.7 558.7 560.5 570.2 574.2 576.1 580.7 582.4 588 597.9 607.4 611.9 613.1 608 597.2 587.8 579.5 576.8 582.2 583.3 590.7 592 590.3 593 590.6 588.3 586 581.4 577 572.4 569.5 565.2 554.9 549.5 550.7 548.6 539.8 536.3 537.1 532.7 525.6 510.9 506.8 491.5 462.7 444.3 450.8 446.4 442.9 431.5 424.3 417.2 419.8 419.2 416.8 412.7 407.3 405 406.6 402.8 401.5 402.4 397.5 397.7 389.3 385 381.9 370.3 358.8
295.8 301.2 296.3 315.1 335.1 345.5 349.6 364.8 380.7 390 397.6 413.4 422 423.3 429.4 433.3 441.4 443.1 439.8 437 443.5 448.6 449.8 454.7 454.8 459.2 467.4 475.5 473.2 467.3 460.3 432.3 425.1 413.4 393.2 371.5 366.9 357.3 338.7 315.3 302.2 274.8 247.7 230.9 220.4 219.1 213.8 206.3 200.4 194.4 187.3 178.3 164.3 146.5 122 110.6 103.4 94.4 91.2 94.2 97.8 95.9 89.9 91.6 101.8 111.7 120.8 131.4 144.3 160.1 178.2 196.1 212.1 227.1 237.6 245.9 249.3 247.2 247.6 250.7 252.3 255 257.2 258.1 257.6 253.1 250.1 249 255.3 263.4 279.2 294.3 313.5 332.1 339.8 359.7 376.5 390.3 403.5 415.4 424.1 428.9 430.3 433.7 437.2 435.5 435.5 434.9 428.9 418.2 389.3 370.2 350.7 329.6 307.2 283.8 271.4 279.8 299.1 318.9 337.1 358.8 385.7 410.8 437.7 466.3 487.3 497.9 508.6 516.8 530.4 541.1 547.2 550 554.5 560.5 566.5 571.9 578.1 581.4 589.3 597.3 610.9 612.6 609 603.7 592.4 584.9 586.7 599 608.3 609.9 608.2 607.8 603.8 603.9 600 600.8 597.3 592 585.4 575.2 568.1 560.5 555.2 554 550.7 546.9 541.9 542.2 540.2 534 513.3 503.7 483.7 467.3 464.1 462.4 456.9 448.7 444.9 440.9 430.5 430.8 430.3 428.1 425.3 419.9 414.8 415.8 411.3 418.6 418.3 409.4 402 397.2 389.4 382.9 373.7 360.7
273.4 274.8 273 283 306.7 315.9 329.2 348.8 363 374.7 381.7 395 410.9 411.9 418.5 424.5 434.6 443.2 440.9 436 437.6 444.4 450.8 443.8 451.7 451.8 461.9 470.6 472.9 467.3 467.4 447.6 416.2 402.4 380.8 371.1 374.4 366 349.7 325.8 303.5 278.9 254.2 237.6 229.3 231.2 227.1 220 216.7 216.5 209.6 202.4 184.9 167.3 142.6 121.6 117 101.5 104.3 95.4 90.8 87.6 89 89.3 96.6 102.2 108 118.5 134.9 152.2 170.3 188.1 203.8 216.1 225.4 232.8 236.3 235 231.1 235.4 237.2 239.7 243 238.1 239.4 236.7 232 230.2 235.6 253.3 268.1 283.1 295.4 310.7 335.7 354.5 367 378.9 389.9 403.1 411.3 416.3 417.9 419 423.8 424.9 426.9 426.2 421.1 410 391.2 368 348.2 327 303.6 280.4 262.7 269 285.6 307 332.2 358.7 385.7 412.1 440.8 456.7 474.9 484.9 493.2 501.7 509.5 523.4 532.2 535 542.7 548.4 553.5 559.2 565.6 574.1 582.6 589.1 601.1 606.4 609.3 606.5 600.4 603 604.6 608.5 613.1 615.1 612.9 612 610.3 608.2 606.7 608.2 606.4 602.8 597.9 588.6 576.7 572.2 567.5 562.9 557.4 553.9 551 551.5 551.8 537.4 511.9 498.9 486.5 470 473.2 470.2 463.4 460.6 461.1 455 446.7 445.5 444 440.5 438.6 435.2 427 425.1 418.8 418.6 409.8 402.6 400.7 397.1 393.1 392.3 386 362.1
246.3 251.2 249.7 258.3 268.4 285.4 310.7 323.7 339.1 355.4 363.3 378 388.9 399.5 400.9 408.5 421.8 438.4 439.9 436.3 435.3 437.2 451.4 444.1 438.2 441.7 450.7 454.7 460.9 462.3 467.8 452.2 408.2 394 380.8 376.7 375.4 370.8 355.3 329.7 306.1 280.8 256.6 241.4 243.2 245.3 241.1 231.2 230.1 242.7 246 230.6 210.1 185.3 159 133.2 126.4 116.2 116.2 105.7 93 87.6 87.6 87.6 91.6 97.2 100.7 116.3 132.5 148.5 164.9 179.5 192.9 202.8 209.3 217.3 223.6 221.6 218.5 215.8 215.5 217.4 221.8 221.8 223.5 223.4 219.7 220.8 229.7 241.7 258.6 267.5 281.2 307.6 327.8 341.6 352.6 362.9 376.1 388 395.1 401.6 404.3 406.9 410.5 413.9 417.2 416.5 412.2 402.1 385.8 368 348.8 330 303.2 283.8 260.4 257.3 270.1 293.2 320.4 348.6 379.1 406.2 426.9 443.7 453.6 464.8 472.7 478.1 490.2 500.5 512.2 517.3 523.9 532.9 539.2 546 554.5 563 572.2 577.7 587.7 597.6 602.6 606.5 607.8 609.2 608.2 610.5 614.1 615.7 612.8 608.9 609.1 607 606.3 607.5 605.6 602.4 602.3 596.3 586.7 584.1 578.2 572.5 567.2 560.8 556.3 556.5 555.1 529 508.3 502.8 493.7 486.6 490.5 480.9 474.8 476.3 478.9 471 462.4 465.1 461.4 450.7 448.9 447.5 438.4 436.2 424.1 416.1 410.7 412.6 408.3 402.2 394.2 387.9 372.9 363.1
224.3 228 232.6 234.2 238.6 261.2 285.3 294.8 310.9 329.3 343.2 359.8 371 383 382.1 391.9 410.9 427.1 425.7 431.5 434 432.3 437.8 442 427.6 427 432.4 436.9 445.4 454.5 454.5 438.7 403.5 397.9 397.7 383.5 379.5 372.4 365.9 339.8 305.8 276.5 255.8 246.7 250 264.8 256.7 241.9 244.7 256.8 257.8 253.1 227.8 199.5 169.2 140.6 134.2 125.9 116.7 107.3 90.2 87.6 87.6 87.6 89.5 94.9 103.3 114.2 125.4 139.5 152.9 166.2 177.9 187 198.4 206.3 210.7 208.5 202.1 195.7 196.2 203.9 204.2 204.3 209 207.3 212.3 221 229.3 235.2 248.1 257.1 276.7 296.9 312.2 325.8 338.3 345.2 355.7 368.5 376.9 383.3 388.3 393.1 396.9 401.1 405.5 406.2 402.3 394.4 381.8 367.2 349.1 330.6 307.3 284.1 267.8 250.4 253.4 276.5 304.5 334.4 363.5 390.5 409 423.2 434.8 443.2 454.1 460.6 468.2 476.3 485.9 493.6 507.1 513.6 522.4 531 537.6 547.2 558.3 566.6 574 584.8 592.5 596.4 599 602.9 607 608.3 609.8 610.7 610.1 606.4 604.1 601.6 602.5 603.9 603 601 598.5 596.2 592.2 588.9 587.6 582.3 573.5 565.8 562.4 557.8 546.4 525.1 512.3 506.5 500.8 503.4 501 497.1 495.5 497.2 489.3 477.7 478.5 481.3 474.5 466.7 463 454.1 445.3 437.6 435.9 428.2 417.6 415.6 409.6 401.2 389.8 380.3 367.8 366.3
205.3 207.9 211.2 207.9 221 239.2 254.4 269.8 287.8 304.1 319 332.2 343 352.5 365.3 380.5 398.7 408.7 412.8 418 431.9 431.1 421.6 421.5 421.1 421.5 423.5 421.5 428.5 440.3 442.6 422.1 405.3 407.8 408.2 397 379.1 373.2 360.2 343.1 302.1 274.3 264.3 253.9 256.8 270.8 268.8 255 244.1 255.4 256.1 259.2 239.3 201.1 162.9 136.3 120.1 117.4 111.8 99.6 87.6 87.6 87.6 87.6 87.6 92 98.6 107.3 114.7 126.6 138.9 148.3 160.1 173.1 188.5 198.5 202.9 199.4 193.2 187.4 187.3 193.6 194.6 199.2 203 207.1 213.4 218.8 224.5 228.4 233.8 249.7 266.1 281.7 294.4 309.2 321.1 328.3 338 349.1 358 363.3 372.5 380 385.1 389.3 393.4 394.5 390.9 384.6 374.6 362.1 346.7 328 309.3 287.4 268.5 250.5 239.3 260.8 289.1 316.9 349.3 379.8 399 409.1 417.9 425.1 433.2 439.2 446.3 456.1 464.9 471.8 488.9 497 504.5 514 521.7 531.4 541.2 551.3 558.7 568.5 576.1 583.7 588.5 594.2 596.7 600.1 601.5 602.4 604.8 603.3 602 600.7 596.5 597.2 598.2 597.5 593.9 594.4 592.8 591.8 592.8 589.6 582.4 574.3 568 557 542.2 521.5 513.6 508.9 506.4 506.9 506.7 505.2 505.2 501 492.7 481.5 489.7 489.2 484.5 477.2 470.6 457.8 458 455.3 451.8 432.8 426.4 418.8 412.8 405.9 393 379.1 374.4 373.9
