ncols 200
nrows 83
xllcorner 220000
yllcorner 704350
cellsize 50
503.7 507.5 505.9 506 511.5 510.6 513.8 523.2 541.9 562.4 574.2 583.6 600.2 583.9 574.8 562.2 548.9 531.1 515.4 494.2 484.3 484.3 498.3 512.9 525.4 535.1 542.2 519.8 505 523.2 527.5 536.9 545.2 551 561.8 576.3 598.8 630.3 660 681.9 706.4 724.7 735.2 741.4 704.8 628.7 603.2 585.8 555.8 494.4 477.4 438.5 421.9 377.1 337.9 315.7 289.1 267.6 250.5 245.8 246.7 248.5 251.3 254.2 263.1 274.3 286.5 305.7 324.4 349.2 374.9 394.5 408.6 426 444.2 457.4 469.2 490.7 521 535 554.4 568.4 592.2 606.8 629.9 640.2 621.1 595.2 578.8 564.8 548.6 527.3 500.1 483.4 484.8 507.6 531.6 557.3 587.6 612.9 649.8 696.4 738.2 771.6 814.9 857.4 889.2 926.4 957.5 988.8 1003.9 972.9 961.3 929.6 905.5 903.8 895.6 891.1 859.4 820.8 796.9 798.9 820.3 847 858.3 820.5 786.4 735.1 693.9 670.2 641.6 621.6 601.4 583.7 544.5 514 489.1 472.7 452 441.7 432.5 427.2 416.9 405 389.2 389.6 377.5 366.3 353.9 332.2 321.3 305.6 299.2 286.2 281.2 275.1 272.5 272.6 275.7 276.2 277.4 277.1 279.9 282.7 281.6 282.1 282.2 287 286.2 289.9 297.1 301.9 312 319.6 325.7 330.5 339.8 348 350.9 342.4 351.6 342.2 340.9 329.5 313.2 301 286.9 278.3 279 275.5 266.6 263 266.3 266 259.7 248.1 242.6 234.7 224.8 218.2
532.2 535.9 531.7 533 531 534 533.9 550.5 560.1 579.8 588.4 603.7 595.4 575.3 573.8 554.3 526.1 516.6 495.4 486.5 489.3 491 503.8 521.1 538.7 558.9 571.2 546.5 533.8 533.3 545 558.6 570 575.2 583.2 592.7 611.5 638.4 668.3 688.7 714.4 733.4 749.4 756.8 701.3 641.2 566.1 539.3 516.9 498.4 430.9 403 386.4 361.7 322.5 304.8 274.5 258 246.6 247.3 249.1 249.5 252.3 257.7 267.1 277.3 293.6 313.6 335.2 357.8 384.3 403.9 423.1 437.8 454.5 469.1 482.2 501.9 528.6 553.5 569 585.9 605.6 632 647.4 659.7 630.6 599.5 585.7 573.8 559 544.9 517.2 495.5 488.6 509.7 536.2 568.6 591.4 616.2 656.1 697.3 747.8 776.2 813.1 849.2 876.8 909.5 940 967.4 997 986.8 970.9 952.3 943 944.6 937.4 900.1 872 837.9 820.5 849.2 903.4 860.7 837.4 809.3 773.7 719.2 681.1 654.7 625.3 610.8 583.6 562.7 531.4 506.2 482.1 460.6 444.9 430.4 421.3 418.8 409.7 397.1 384 369.9 361.4 346 335 319.4 307.1 299.4 289.1 287.2 286.1 284.9 283.8 282.4 285.7 287.1 291.7 295 296 298.9 303 302.5 304.8 306.8 307.3 309.5 315.7 326.6 332.7 341.9 349.7 354.2 362.5 371.7 380.9 381.6 384.9 391 397.1 360.3 352 330 317.1 314.5 320.9 305.7 286.4 283.7 286.3 286.5 280.5 268.3 257.4 244.3 236.6 228.4
554.6 565.4 567.5 563.8 559.5 564.8 561 569.7 584 597.4 602.9 608.7 573.7 565 549 535.2 502.1 488.1 481.8 487 493 499.1 509.1 524.4 545.8 568 582.5 574.5 555 540.9 555.6 575.2 588.5 598.6 609.3 618.8 634.1 658.8 682.4 701.7 721.5 737 752.3 738.9 698.8 621.2 552 506.2 483.8 451.4 417.1 376.9 348.2 325.5 307.3 295.1 266.9 255.4 246.5 247.6 248.5 251.2 254.1 261.4 271.7 283.9 299.4 322.1 345.2 364.5 389.7 417.9 434.5 450.3 468.9 484 492.6 512.2 529.8 563.5 586.6 603.6 624 659.5 676.6 672.4 640.2 606.5 592.1 581.6 571.1 558.3 538.2 517.5 503.9 515.1 538.6 567.5 594 617.2 655.2 698.2 736.4 778.3 805.9 837.5 868.6 889 911.3 936.6 966.3 972.1 980 992.5 983.4 957.1 939.7 921.7 884.3 852.8 849.3 901.6 902.6 842 808.1 784.2 739.3 701.1 665.7 636.9 614.3 595.5 574.3 545.8 523.3 503.4 475.9 454.9 438.5 423.9 409.6 406.3 396.1 382.3 369.6 356.8 344.3 332 320.9 311.2 301.6 293.4 293.6 296.7 297 294.7 294.4 295.1 300.6 304.5 311.4 312.5 316.8 320.1 322.4 324.5 326.1 328.2 330.5 333.1 338.2 345.4 352.4 363.9 373.4 388.3 392.9 406.2 410.3 412.3 435.8 453.7 443.1 398.9 383.6 366.8 355.6 349.7 344.2 332 315.3 308.7 309.5 309.8 301 292.4 276.4 262.6 252.5 242.4
575.6 585.9 598.4 602.1 585.6 582.5 586.5 597.6 609.4 613.9 606.5 575 555.5 544.7 528.6 512.5 482.9 478.7 480.9 491.8 498.7 507.8 522.9 539.7 557.9 579.7 597.5 605.9 597.4 567.2 568.3 581.1 602.3 622.4 635.8 645.4 659.8 680.9 700.4 724.5 744.3 757 758 729.9 688.1 612.5 536 483.1 455.4 428.7 398.5 361 337.4 316.1 297.7 280.7 260.2 251.9 247.1 247 247.1 251.6 256.9 265.3 274.9 290.8 306.8 332.3 352.7 373 394.2 424.3 443.3 460 480.9 492.1 508.8 525.9 541.9 564.8 587.8 618 647.3 670.4 695.1 694 665.4 629 603.9 595.8 583.3 571.6 557.7 544.5 532.8 542.4 553.7 573.8 598.5 621.9 649.7 684.7 722.3 772 803.7 816.7 847.2 869.9 891.8 914.1 936.3 950.9 964.5 973.6 967.6 952.7 932.8 923.8 898.1 877.2 878.5 908.7 864.8 812.8 777.3 745.5 715.7 673.8 646 623.2 601.8 584.3 559.6 537.3 514.1 494.8 473.2 455.2 433.7 418.2 399.4 387.8 381.1 368.9 357.4 345 335 326.1 317.3 306.4 300.7 301.9 305 308.8 308.1 308.6 311.5 310.7 319.6 324.8 330.4 336.2 338 339.3 344.5 349.7 349.1 354.2 359.5 364.3 367.7 374.4 378 386.5 409.2 430.3 443.4 450.6 455.3 461 460.2 496 484.1 446.2 420 399.9 390.3 380 363.7 357.4 355 344.4 349.6 352.3 333 320.5 311.6 292.5 271.7 258.3
604.4 613 620.1 625.2 611.8 608.3 614.5 625.4 620.4 614.3 601.1 562.7 547.8 532.1 511.8 487.4 476.9 476 485 496.9 506.8 517.4 534.7 564.3 585.5 605.4 621.6 628 636.8 629.5 611.1 605.6 617.8 640 657.7 671.3 683.2 697.6 718.4 740.7 754.1 762.8 741.4 697.2 651.2 581.2 520.9 496.5 441.1 414.7 378.4 349.1 330.4 315.8 297.8 281.1 258.5 250.2 247.2 247 246.6 251.9 258.1 267.4 280 294.8 318.3 341.1 360.2 381.1 405 426.7 453 471.9 487.5 497.5 517.6 543.7 557.8 573 610.3 649.1 669.4 694.5 725.8 729.6 698.6 649.7 622.4 608.5 595.9 591.4 581.7 572.7 559.5 563.1 571.5 585.4 604.5 627.4 648.2 673.9 715.7 747.6 781.5 803.3 821.5 846.6 874.7 897.6 923.5 935.9 945.4 961 945.6 932.7 923.7 918 911.8 903.1 899.7 896 835.9 789.8 752.6 715.7 686.5 664.3 634.1 607.8 584.6 566.2 545.8 526.3 505.4 489.2 466.9 447.9 427.4 415.9 395.7 379.8 369.5 358.5 344.5 336.2 327.8 317.5 309.5 310.1 311.7 317.6 321.5 324.3 325.3 324.7 328.6 333.8 339.9 346.5 354.7 356.9 358.3 362.1 368.8 370.8 375.9 382 388.3 386.2 394.8 400.6 397 407.8 438.1 464.4 485.1 500.4 506.9 520.3 517 550.4 507.7 482.8 462.1 428.3 420.4 415.8 389.5 402.3 395.5 378.4 391.9 391.9 381.6 356.3 345.2 333.2 293.5 274.9
620.6 633 639 647.3 637.1 630.3 636.1 634.7 617.1 593.6 579 555.4 539.5 523.8 491.7 475.3 474.1 476.9 491.9 503 513.3 527.3 546.4 573.5 595.2 614.9 636.2 642.7 653.4 663.1 678.5 672.6 668 674.4 679.3 688.9 702.6 717.9 731 757.9 779.4 758.2 731.9 673.7 626.3 576.5 519.8 456.1 424 393.5 369.7 347.5 327.8 314.3 291.7 276.2 257.4 247 247 247 247 251.8 258.6 269.4 286.7 304.1 327.8 347.9 367.7 392.5 415.1 437 457.3 479.2 493.8 518.2 535.3 557 573.8 591.3 610.8 652.7 678.1 710.6 747.9 760.2 722.2 684.2 649.6 634.7 617.6 607.8 600.2 592.7 586.7 591.1 598.6 601.3 617.5 637.8 653.7 675.2 703 734.6 761.6 780.3 800.5 826.7 854.1 879.5 908.3 925.3 926.8 933.8 931.6 923.1 916.9 912 907.2 898.1 894.1 872.9 854.8 785.6 727 690.9 660.7 636 613.6 588.7 566.5 548.8 532.9 511.9 494 476.6 457.2 441.3 423.8 404.4 385.6 370.8 358.3 347 336.6 325.1 320.3 318.3 319.3 322.5 324.8 331.5 337.7 341 344.4 344.8 347.7 354.5 362.4 367 373.9 378.7 381.1 386.8 390.9 396.8 404.9 414.2 420.9 412.7 416.9 417.2 413 436 463.2 518.1 539.4 556.1 572.6 570.3 559.3 571.2 535.5 503.6 486.4 464.5 447 441.6 418.3 425.5 416.8 417.5 428.5 421.6 412.3 382.3 378.1 358.9 318.3 290.3
638.6 651.9 656.7 674.7 654.7 646 645.5 628.6 591 580.7 555.5 551.6 526.6 513.3 489.4 470.4 469.6 481.5 495.6 511.7 525 541.1 562 579.1 593.7 621 642.6 654.8 672.8 685.3 707.8 728.3 751.2 737.6 719 710.5 718.5 737.1 752.6 771.7 790.2 750.4 722.4 661.9 622.5 569.1 517.3 438.3 409.1 380.4 357.8 338.2 322.1 304.5 284.8 273.2 253.7 247.2 247 247 247 251 259.3 270.4 289.5 311 332.5 353.8 376.5 401.4 424.4 445 465.2 485.3 506.8 527 546.3 565.1 584.1 601.8 622.7 653.1 689.9 730.9 764.5 779.5 751.5 708.5 686.4 679.5 648.2 631.8 622.7 615.1 613.9 621 628.5 629.1 630.3 645.6 661.1 676.6 700.3 721.6 737.3 756.2 782.1 812.2 844.1 867.5 883.2 896 904.7 918.7 925 916.8 908.1 902.5 899.5 892 873.7 836.6 835.5 737.1 701.5 670.6 644.1 620 587.3 560 542.2 528.2 512.3 493.7 480 462.9 446.5 429.2 411 392.1 377.4 365 352 339.8 330.6 326.7 328.4 329.6 333.1 336.8 341 347.4 353 358.6 361.9 365.8 371.6 378.1 385.6 394.2 399 406.2 412.2 422 419.4 432.7 439.9 444.3 442.1 442.4 447.4 444.9 441.1 460.9 518.9 551.2 569.5 599 608.3 597.9 592.7 581.4 558 520.3 500.8 481.2 468.2 452.8 444.4 446.4 438.8 446.6 460 463.1 439.9 414 398.1 366.7 331.8 306.7
658.4 668.1 692.5 695.1 666 637.8 626.6 607 566.2 555.3 545.7 534.4 513.2 492.5 469.6 463.1 470.2 485.1 497.9 515.7 537.3 552 571.9 586.4 604.6 620.2 644 668.5 687.1 710.6 729.3 746.1 773.4 795.9 774 761.9 762.4 773.1 779.4 793.4 798.9 746.3 707.7 659.2 596 547.3 496.3 429.6 404.1 373.9 352.5 335.6 316.1 294.9 280 268.6 253 247.7 247 247 247 252.2 262.8 278.5 297.7 319.9 340.6 361.7 386 408.1 433.1 455 473.3 491 518.3 541.7 561.9 574.9 592.8 619.9 638.7 664.4 691.6 730.3 768.5 798.9 786.2 747.7 720.9 704 694 668 657.6 653.4 643.4 643.3 642.2 644 646 655.8 666.2 680.5 697.1 710.6 727.6 747.9 773 804.1 842.8 859.9 869.5 878.4 883.9 892.4 902.4 900.6 893.6 893.3 891.2 887.2 842.6 811 787.2 734.1 694.4 659.6 630.3 599.4 571.1 543.8 522.5 505.5 492.6 478.3 464.6 451 433.7 418.3 400.8 383 370.1 360.6 348 338.9 337.6 335.4 339.7 341.6 346.1 353 359.5 364.6 371.4 378.7 383.4 390.4 396.2 406.8 416.1 430 434 437.9 445.6 449 451.2 460.4 466.9 473.9 472.8 469.2 478.2 474.2 464.8 514.7 564.2 588.6 622.5 648.4 649.3 648.5 634.1 612.7 581.4 540 514.3 495.1 476.8 469.9 465.9 460.9 462.7 477.3 493.9 498.3 480.9 441.7 417 398.8 353.1 323.5
697.1 707.5 706.4 690.1 656.4 625.5 593.7 562.6 552.2 542.5 534.8 512.5 491.7 480.6 463.1 460.9 474.3 485.2 494.2 516.9 543.3 563.1 583.4 598.5 620.5 639.2 655.4 676.4 694.5 722.9 747 771.1 787 807.3 835.7 846.6 819.3 811 812 815.8 796.2 751.1 698.7 647.1 580.4 547.5 490.6 423.7 397.5 370.7 349.8 333.4 320.9 297 282.4 265.3 254 247 247 247 247 253.2 267 281.2 305.9 326 344.7 364.2 390.1 418.1 441 462.5 480.7 501.3 525.6 555.5 571.2 587 603.1 631.7 657.3 682.6 702.2 731.6 774.7 817 803.8 781.2 751.1 747.1 743.8 723.1 696.2 692.7 684.7 675.6 659.9 658.5 658.7 664.8 673.9 685.8 696.6 709.4 723.6 743.3 762.7 792.2 828.4 844.7 853.6 864.2 872.2 879.5 888.7 888.9 885.9 884.5 884.8 881.2 833.4 788.6 750 730.7 669.7 641.4 606.6 577.7 553.7 524.6 504.4 489.9 477.9 464.2 451.8 437.7 419.1 405.2 387.6 377.1 364.8 355.3 350.2 350.8 349.4 349.8 353.6 357.3 362.3 366.4 377.4 385.6 393.4 400.2 408.8 412.8 424.2 434.4 455.3 467.9 475.4 483.3 486.8 485.2 485.9 488.9 492.6 497.1 493.2 501.2 503.1 488.6 500.5 538.7 586 619.5 653.3 674.6 680.8 663 641.3 628.7 587.3 560.6 536.2 519.1 501.3 491.3 487.7 487.1 489.4 500.9 526.3 521.6 514 468.5 441.6 408.6 377.2 340.5
708 713.2 711.1 671.6 640.4 614.4 567.4 550.2 539.7 539 512.5 497.3 476.8 461.6 455.6 461.7 476 483.1 495 515.4 539.2 555.3 585.9 611.5 634.2 652.8 667.6 686.9 708.3 734.9 755.4 773.3 795.6 818.3 841 861 874.9 866 851.7 816 797.7 756 703.5 630.4 577.1 533.7 477.4 429.2 395.4 373.6 348.3 331.6 311.4 299.5 279.8 266.4 253.4 247 247 247 247 256.3 270.6 288.7 312 329.7 346.1 369.9 397.5 425.5 446.6 470 495.4 515.2 537.3 562.7 584.1 600.3 618.8 650.2 676.2 696.7 717.8 746 782.6 824 829.2 816.7 791.9 781.9 779.5 769.4 755.1 728.4 716.3 702.9 679.7 668.5 668.7 670.2 681.5 689.7 698.7 709.8 722.4 740.4 756.1 779 807.6 832.2 839.3 846.8 858.1 865.8 874.9 879 874 874 873.9 871.4 845.2 800.5 767.4 735.9 683.1 643.5 611.3 573.4 540.2 516.3 492.6 478.7 460.6 450.2 435.5 419.7 406.1 393.1 377.9 368.5 362.3 357.4 358.3 361.8 359.8 362.5 366.6 372 377.9 387.1 396.5 406 416.8 422.7 432.2 441.2 451.6 466.2 491.2 498.9 509 529.5 523.9 527.2 520.9 523.9 531.8 537.5 526.5 523.3 516 516.2 536.8 580.8 627.4 652.3 682.9 712.4 713.6 684.4 656.7 636 602.2 572.2 555.5 534.7 520.2 515.5 508.5 511.6 515.1 524.7 537.5 536.5 511.6 485.3 448.3 431.1 399.3 359.2
708.1 716.7 694.2 664 623.5 595.9 553.4 536.7 530.1 513 497.1 475.8 460.4 448.8 451 463.3 475.2 474.9 488.8 509.7 531.2 552.6 578.7 602 627.1 651.4 667.4 688 711.6 733.7 753.3 784.8 804.9 827.5 848.4 872.6 891.3 897.7 861.3 823.9 782.5 746.7 704.1 645 577.9 503.8 468 430.1 394.2 371.1 347.2 328.1 310.2 296.8 278.4 275.6 254.7 247 247 247 247 261.6 276.4 297.2 317.1 336.5 349.8 373.1 401.5 428.6 452.4 477.7 502 526.1 546.7 572.2 600.9 618.5 638.6 661.8 690.5 718.2 732.5 767.4 801 833 843.5 833.2 821.6 805 788.5 779.2 770.5 742 732.1 710.8 696.9 676 674 676.1 679.1 691.6 699.1 710.7 721.2 735.1 753.9 774.2 797.4 819.4 826.5 835.1 844 852.3 860.2 864.6 860.5 862 862.9 860.2 842.8 804.2 770.2 726.3 679.8 648 617.9 586.8 542.2 506.9 485.1 468.9 446.5 432.8 418.8 406.1 395.1 386.6 378 367.7 366.9 367.6 368.9 371.9 370.6 374.4 380.9 386.6 396.4 406.5 416 428.3 439.8 449.4 460.3 470.7 480.1 499.5 515.9 531 542.8 562.8 571.5 572 569.9 560.9 568.4 564.4 554.7 542.6 536 541.4 575.6 618.8 642 684.5 723.7 740 741.7 713.7 675.9 642.9 620.4 605.2 588.7 572.2 559.6 545.4 536.7 532.8 540.3 555.4 557.1 537.9 513.1 484.5 463.6 433.8 403.1 361.6
705.6 709.1 679.8 652.3 608.8 565.1 534.6 532.7 513.8 492.3 473 455.5 444.3 442.2 445.8 458.8 466.8 474 490.8 509.3 533.5 553 577.3 602.9 628.8 648 664.4 685.9 713.3 740.5 765.5 789.3 814 837.2 867.1 883.2 888.2 877.1 858.4 820.3 786.3 733.6 690.4 623.7 569.7 502.1 460.9 421.5 394.6 374.2 348 327.1 308.7 292.4 278.2 263.1 251.3 247 247 247 246.5 262 282.7 303.8 324.2 340.2 350.4 372.8 398.5 426.1 455.3 484.3 506.1 530.8 553.8 587.5 616.4 639.3 656.2 679 699.8 727.7 748.3 783.8 818.3 853.4 847 838.7 826.4 809.2 795.8 768.2 754.3 739.5 731 716.7 702.8 686.9 678.7 679.5 680.4 685.5 697.1 709.4 717.8 729.8 752.9 770.6 780.9 793.1 813.9 813.8 828.5 838.3 846 849.8 848.9 853 852.1 848.5 825.6 775 732.9 703.5 682.2 647.4 614.4 578.2 534.4 501.2 473.7 453.5 439.2 423.2 408.1 397.5 389.6 381.5 378.2 375.3 374.5 377.4 378.6 381.3 383.1 389.1 394.3 403.4 413 425 437.3 451.8 464.8 476.9 489.2 501.7 507.7 526.9 548.4 560.9 587.2 617 618.5 623.8 619.2 610.5 608.7 609.3 581.5 562.9 565.2 591 629.7 652.9 684.8 716.2 751.2 768.9 785.5 754.5 705.1 668.1 651.9 636.4 622.7 599.7 585.8 575.9 568.8 560.8 577.4 571.6 571.1 530.7 505.3 482.2 471.8 446.3 409.8 376.6
697 695.6 666.1 629.5 575.2 544.8 529.3 527 497.9 481.4 457.9 441.2 437.1 433.3 438.7 449.5 462.4 476.4 496.2 514.6 532.7 551.8 574.7 602.4 632.1 656.3 680.8 705.5 728.1 751 771.6 788.8 815.6 842.2 861.3 887.9 875.2 848.5 850.6 820 779.7 722.2 672.1 618.4 566.8 501.1 449.5 418.3 394.8 374.8 356.8 329.6 311.2 288.8 275 256.8 249.9 247 247 247 248.7 266.2 289 313 331.3 339.3 351.4 370.8 395.2 426.5 454.6 483.2 510.8 536.2 568.6 601.3 635 662.1 674.6 694.6 711 734.2 761.8 804.7 835.8 849.4 849.2 827 816.5 800.8 774.5 755.8 738.2 727.6 725.3 723.8 698.3 691.5 680.2 679.3 676.5 683 694.4 705.7 712.4 719.3 739.8 765.3 769.3 773.9 785.2 792.5 807.7 814.8 837.8 837.2 839.5 842.8 841.2 835.2 800.7 755.6 726.4 686.9 656.9 629.5 606.2 571.7 540.5 503.2 465.2 448.7 426.1 414.1 403.5 394.7 386 382.8 382.4 384.8 384.7 389 390.9 394.2 398.8 405.3 409.4 418.2 431.1 447.1 461.4 475.1 491 505.8 519.1 529.7 538 552.8 571.1 602 628.7 646.5 661.4 672 682 647.1 646.5 636.6 597.6 586.5 591.4 639.7 670.4 694.3 723 766.3 785.4 801.8 816.6 771.5 732 696.6 682.1 659.6 637.5 619.4 606.3 597.9 583.6 596.4 585 565.1 545.5 521.4 503.1 479.9 472.3 445.5 409.7 387.2
689.3 679.3 654.2 610.4 558.7 532.3 526.7 510.5 495.1 471 447.3 436.4 429.5 428.8 437 450.4 460.4 476.8 491.6 514.4 531.3 554.3 584.9 621.8 642.6 662.8 684.7 707.5 733.1 749.7 767.6 794.9 814.4 839.3 851.9 875.6 864.7 836.7 827.1 810.5 765.3 707.7 659.5 611 563.1 498.7 453.3 422.4 399.4 382.1 356.2 330.7 310.2 294.2 278.3 266.9 247.4 247 247 247 253.4 274.6 299.3 319.6 333.6 335.5 351 368.2 390.7 426.8 452.4 481.5 520.5 550.1 581.1 622.1 648.6 676.5 693.9 703.7 727.3 750.6 769.8 801.7 835.5 838.1 834.5 814.9 814.4 795.6 768.9 743.7 731.5 719.3 717 724.5 710.4 691.3 683.5 675 669.9 674.9 687.9 701.1 706.5 711.9 722.4 738.7 744.2 754.6 778.3 775.7 785.9 797.9 815.3 820.4 832.2 832 830.9 824.5 801.9 746 706.6 671.2 646.3 625.8 602.7 576.7 547.7 499.2 468 443.7 427.2 411.7 394.9 388.8 386.7 387.1 388 392.5 395.6 399.7 403.7 408.5 413.8 418 427.3 435.4 451 466.4 485.6 502.1 518.7 533.9 546 559.4 570.9 582.6 604.2 626.2 644.7 663.4 685.9 695.3 700.8 706.3 691.5 655.6 620.6 620.2 625.2 670.7 689.1 720 757.4 791.2 818.5 830.3 823.6 790.3 751.8 712 691.9 666 652.3 633.5 620.5 605.3 585 597.9 566.7 548.2 514.7 493.3 478 481.4 466.2 439 408.9 385.6
682.2 655.9 637.7 586.5 546.5 531 520.8 500.2 482.3 458.6 441.2 428 425.4 427.8 440.9 453.5 466.5 481.7 493.6 507.6 529.9 563 582.3 609.8 634.5 657.2 681.7 709.4 724.5 748.6 767 791.5 810.2 833.7 842.3 855.8 846.3 824.5 808.2 782.9 746.6 697 638.9 604.9 550.4 500.5 457.8 429.4 404.9 382.3 358.5 332.5 308.3 288.2 274.9 261.7 250.4 247 247 247 255.9 281.3 303.3 323.4 332.7 328.9 349.9 364 386.8 418.8 445.9 485 521.8 556.1 586.7 629.5 655.8 673 684.6 704.9 729.6 746.1 763.7 795.6 825 829.2 819.6 806.6 797.3 774.6 760.7 742.6 729 716.7 713.7 717.8 697.5 699.2 687.2 671 666.2 668.6 677.1 692.6 702.3 705.4 710.4 717.2 725.5 738.1 756.7 758.4 768.5 786.1 796.7 807.6 819.7 819.3 816.7 813.2 804.3 770.6 723.9 682.4 666.2 650.2 632.8 575 548 497.5 466.1 443.5 430.3 412.9 400.8 397.1 390.8 395.3 398.6 404.3 408.4 413.3 419.3 423.5 428.3 435.8 445.2 457.9 474.3 489.8 509.1 530 545.3 560.9 573.4 590.6 607.7 612.8 641.3 662.5 677.1 694.2 704.1 713.9 718 724.8 711.2 671.5 654.2 663 673.5 701.7 737.8 755.6 788.5 818.3 838.8 841 839 804.4 750.6 715 697.9 669.6 648.2 625.8 628 609.6 579.8 565.5 534.9 522 500.4 471.6 464.4 471.2 470 437.1 400.3 375.3
677.1 648.6 608 578.7 544 532.7 515.8 494.5 466.7 444.9 434.9 424.1 421.9 431.9 444.2 450.4 467.9 483.6 500.7 515.8 528.5 548.9 567 586.4 606 636.2 667 689.1 711.7 726.9 755.4 787.3 810.5 822.9 823 826.7 836.1 813.5 772 743.8 728.1 671.5 626.7 586.2 551.4 503.5 469.1 433.7 411.4 387.5 361 335.6 310.2 288.7 275.5 261.7 253.2 247.5 247 247 265.3 285.3 312.1 328.5 332.4 328.1 342.5 354.2 380.6 411.3 439.9 480.9 522.9 556.2 585 615.5 643.8 664.5 672.3 685.7 703.1 723.8 741.1 776.6 804.4 822.5 813.7 798.4 780.6 762.4 754.3 740.2 723.7 715 707.8 705.2 687.6 685.3 688.3 670.3 661.4 661.5 668 678.4 689.8 699 701.5 705.4 711.9 722.5 736 745.9 757.5 771.9 785.3 795.3 805.7 805 805.3 802.4 795 780.2 736 714.5 676.2 643.4 618.9 571.5 528.6 490.6 464.5 443.6 427.4 413.6 408.4 402 402.7 407.5 413.4 417.6 423.2 428 431.6 435.6 445 456.6 467.3 482.8 500 515.4 534.4 552 567 586.8 610.8 632.7 643.5 662.1 676 697.3 711.3 714.7 724.2 736.9 743.3 739.5 737.9 703.5 709.4 688.1 722 745.5 768.6 794.9 812.5 837.6 841.9 837.9 826.2 786.8 749.5 715.5 691.7 673.8 650.1 617.1 594.1 582.1 578 543.2 507.8 497.7 476.9 466.9 454.7 452.1 454.3 434.7 400.8 365
681.6 634.1 602.1 569 550.4 534.2 516.3 497 469.8 450.2 431.9 424.1 422.1 433.1 435.8 446.3 466 482 506.5 526.3 540.2 554.1 572.9 591.2 613 645 663.7 686.5 704.4 718.9 748.5 772.1 787 798.4 810.2 816.5 824 802.6 753.8 705.8 682.3 641.8 606.7 575.5 530.8 502.2 466 441.2 407.2 392.4 370.2 346 319.7 301.5 281.8 262.8 250.6 247 247 251.4 269.7 293.1 317.2 328 326.5 325.4 332.7 344.1 369.6 403.1 435.2 470.5 517.8 556.6 570.7 592.8 608.2 636.8 659.3 677.7 682.4 698.9 729.8 758.1 781.1 802.3 801.2 785.4 762.8 754.2 750.4 738.3 723.3 709.1 704.1 698.6 684.7 675.5 655.6 667.1 653.4 654 660.5 670 678.4 685.3 691 697 705.2 713.6 726.5 738.9 749.3 762 781.1 784.1 791 791.1 792.5 791.2 786.7 775.6 761.3 729.9 671 627.9 597.3 553.4 519.3 491.3 464.6 442.2 427.4 419.2 410.4 410.5 414.3 422.8 430.7 435.6 438.8 443.1 446.3 455.1 467.9 480.9 493.9 506.1 526.5 542.3 559.2 573.2 587.9 612.6 641.2 670.4 691.2 703.8 701 721.1 731.8 741.1 747.8 745.9 754.4 742.8 748.7 766 753.2 723.2 738.9 751.4 773.4 801.2 817.5 841.9 835.6 827.5 816.3 750.7 736.2 711.1 680 651.4 637.7 607.9 574.6 569.1 558 530.1 495.5 481.1 461 461.6 438.4 430.7 431.8 409.2 384.1 361.7
689.2 649.7 600.1 573 561.6 538.1 521.1 513.5 470.2 455 438.5 428.8 419.7 424.3 424 438.8 465.9 487.7 513.9 527.9 543 558.4 574.9 595.7 622.3 647.7 668.5 681.1 691.5 718.5 743.7 759.9 777.7 797.6 801.4 808.9 818.9 801.4 758.1 721.9 679.4 641 604.9 568.3 539.5 500.6 469.9 445.8 419.1 401 380.1 354.8 325.8 303.5 286.7 267.9 252.9 247 247 254.5 272.4 297.2 318.6 327.7 310.7 319.4 328.8 329.9 357.1 393.8 434.5 463.7 500.5 524.6 546.2 563.4 580.9 604 627.5 653.6 666 684.3 714.8 742.6 749.5 765.9 777.7 780.4 764.5 751 743.3 733.9 722 710.6 697.3 688.1 665.6 656.5 645.3 645 642.9 648.3 654.1 659.3 671.9 678.1 683.3 692.4 697.9 708.2 718.1 729.6 741 752.7 766.7 776.7 780.7 780.9 780.1 780.3 776.8 767 746.7 726 672.4 630.2 586.2 553.8 520 488.1 465.2 443.5 431.3 421.6 417.7 420.5 427.7 436.9 444.8 453 455.7 460 467.8 479.8 492.4 505.2 520.4 537.4 554.3 569.4 580.2 593.3 614.8 656.9 682 708.4 730.3 736 739.3 743.1 754.8 757.2 763.9 756.4 752.2 741 753.8 770.9 783.8 759.7 759 762.9 774.2 800.5 815.6 830.2 821.4 815.7 761.2 722.2 707.6 693.4 672.1 628.8 621 602.7 571.2 560.2 541 525.9 493.8 475.7 458.5 427.5 417.6 410.3 406 397.2 370.5 345.5
701.9 661.8 615.7 582.2 561.4 541.1 524.3 511.3 470.9 452.5 443.4 430 418.4 418.1 424.6 443.9 460.7 483.9 508.3 522.4 542.6 562.6 588.4 609.8 630.6 650.6 669.4 678.4 689.1 707.4 728.9 747.3 764.8 784.5 794.2 811.8 817 795.8 759.7 718.6 693.7 651.1 613.5 581.4 553.1 521.4 489.7 454.3 421.2 404.4 389.2 360.1 334.7 310.8 298.8 281 257.3 247 247 255 272.8 294.1 323.2 325.4 306.3 315.6 325.7 318.8 342.2 373.2 417.5 450.1 477.7 502.6 520.3 538.1 555 577.7 597.6 617.5 648.2 662.4 698.5 718.7 721.9 732.4 752.4 763.1 763 746.7 738.8 731.9 718.4 706.1 685.4 659.2 645.5 642.6 631.2 630.7 628.3 640.7 648.9 652.2 659.7 669.2 677.1 683 693.7 701.1 708 721.9 730.6 740.1 752.9 763.1 767.4 768.7 769.6 768.7 762.4 754.3 737.4 697.9 655.2 634.5 577 546.3 516.9 492.2 467.4 449.3 436.7 429.4 428.3 436.4 443.4 453.5 463.6 472.6 477.4 479.5 491.4 506.2 516.7 535 550.2 566.7 579.8 591.1 600 614.2 644.5 692.7 727 743.1 754.7 753 760.9 756.3 766.6 765.4 754.9 743.2 722 727.6 753.1 758.9 773.6 757.1 758.3 771 779.4 791.6 806.8 811.6 804 794.1 767.6 689.8 672.2 663.9 663.2 601.8 598.9 570.4 550.8 551.4 535.5 509 486.5 466.3 449.9 416.3 405.7 395.8 376.6 370.7 363.1 329.8
702.7 676.2 622.5 592 565.5 541.1 518.8 497.1 470.7 454.5 439.3 423.6 412.3 414.7 428.8 442.6 459.1 479.7 498.4 519.8 541.8 564 586.6 608.7 628 641.9 656 684.3 697.1 706.5 720.3 740.1 756.3 776.5 797.5 813.7 823.3 798.5 760.8 716.6 683.4 652 620.5 588.9 550.6 522.4 496.9 458.2 423.8 406.1 385.1 357.9 344.9 319.8 299.2 284.7 269.7 249.8 248.8 256.9 274.2 288.2 304 308.5 298.5 299.3 310 305.6 325.8 356.6 390.1 421.5 458.6 484.2 504.8 522.2 536.4 555.6 576.3 590.8 609.8 634 664.1 688.5 688 702.5 729 750.2 754.5 742.5 735.3 728.5 714.2 704.1 685.5 654.8 638.9 625.8 622 621.4 621.1 631.1 642.9 646.9 652.8 661.6 671.3 679.6 686.4 691.7 702.9 710.4 718.1 727.1 741 750.2 754.9 756.7 756.9 755.3 749.1 739 719.1 680.6 643.6 609.3 573.2 546.1 514.7 490.9 470.8 453.8 444.2 440.5 442.2 451.2 461.9 474.4 486.3 493.3 500.1 505.5 515.1 532.2 546.7 560.9 578.6 590.1 598.1 608 620.4 644.5 674.9 710.7 744.5 758.8 768.4 764 763.5 753 753.9 720.6 729.6 712.3 711.4 704.4 714.1 721.7 744.6 750.1 757.5 765.7 782.4 790.1 796 790.5 783.2 763.6 721.2 676.1 636.1 616.5 604.7 588.6 570.2 546.5 548 536.6 518.6 491.8 462.1 456.1 420.6 395.4 391.6 361.6 354.8 343.6 338.2 317.8
698.7 674.1 630.4 589.2 554.7 530.3 496.9 489.2 467 452.8 435.2 417.3 408.6 411.8 427.7 447.8 464 477.7 498.5 520.5 540.1 561.9 584.7 610.4 632.1 648.9 676.1 695.4 705 709.4 728.8 749.9 768 787.6 806.2 825.6 830.9 805.2 763.1 717.3 674.7 643.9 618.3 586.3 551.3 526.3 498.6 451.2 423.4 397.3 380.4 365.1 346.4 329.1 309.3 292.6 280.6 264 252.1 259.4 270 280.3 299.1 302 295.1 285.6 293.1 290.4 312.2 337 368.9 400.4 438.9 461.3 482.9 497.3 512.2 530.2 547.3 568.1 590.8 612.9 630.5 649.4 664.3 678.1 707 743.5 751.9 741.4 731.1 722.4 715.8 697.7 672.5 642.7 626.6 621 617.1 615.4 613.3 619.3 627.3 636 642.6 655.9 664.7 671.9 679.9 686.6 692.9 697.6 705.7 713.5 725.4 734.6 741.2 744.3 742 737.8 733.1 723.8 707.3 673 640.6 608.3 575.5 545.5 514.6 492.4 473.8 462.8 454.3 452.5 460.1 472.7 486.4 499.2 510.7 519.8 527.4 534.9 543.4 557.1 573.2 587.5 602.9 610.5 619.9 628.8 645.8 668.2 691.9 726.4 755.7 773.1 778.7 763 732.9 706.4 683.4 686.5 674.3 684.9 688.7 679.5 677 688.9 715.9 737 751.3 768 778.4 794.1 793.4 764.8 758.2 733.1 688.1 635.5 616.5 598.1 579.1 558 549.6 538.8 532.9 523.7 509.1 472.3 447.5 429.7 403.2 382.5 366.5 347.2 329.4 322.7 307.5 314.1
693.4 655.9 642.6 586.2 550.7 518.9 481.4 471.6 459.6 446 436.7 411.9 407.7 413.6 424.5 441.4 458.7 482.4 502.3 522.2 539.2 564.9 587.3 609.2 632.7 654.4 677.1 702.3 719 722.8 742.9 761.9 782 801.2 818.9 832.2 828.7 801.9 765.5 716.7 672.6 638.6 619.2 579.1 551.6 524.9 504.7 452.5 433.2 398.8 384.9 370.2 351.9 332.2 316.7 309.1 292.8 273.7 263.6 261.4 262.4 275 280.8 297.2 288.2 275.3 279 269.9 297.8 318 349.5 378.2 402.8 433.1 455.7 475.9 483.9 503.8 521.9 539.6 566.4 580.6 599.3 619.7 630.8 654.8 691.9 728.6 747.7 737.4 728.7 718.5 710.6 686.8 655.1 636.1 623.3 614.6 610.8 609.1 606.3 609.4 614.5 625.9 636.5 649.5 657.2 665.8 669.9 675.9 680 686 690.5 697.8 706.2 716.2 724.3 727.7 726.2 722.1 716.7 706.6 693 667.7 635.9 607.6 577.2 543.4 514.9 495.8 483 473.8 470 473.7 479.8 494.5 507.4 524.1 535.1 543.5 555.8 563.1 568.8 582.6 596.6 612.5 624.4 634.3 642.5 652.3 670.6 687.3 715 735.7 761.5 776 774.4 718.7 679.5 650.6 653.1 642.6 632.6 642.7 666.1 655.9 655.8 669.5 699.1 725.8 745.5 768 779.1 792.4 787.5 752.1 725.3 686 660.3 627.4 604 582.9 569.1 551.9 542.7 537.1 534.6 510.2 490.6 458.5 435.1 409.1 390.9 371.8 353.7 337.4 319.3 306 298.5 289.7
658.3 645.2 619.9 566 535.6 502.1 471.2 461.8 451.8 434.7 421.1 414 409.4 412.4 418.7 435.4 458.4 477.9 497.3 523.6 541.5 562.7 589.2 621.5 643.6 666.6 690.6 711.1 732.6 748 759.1 777.8 798.2 812.4 822.7 822.9 813.2 789.1 747.3 710.8 671 644.4 611.7 586.4 550 522.9 476.5 456.2 423.5 395.5 385.3 371.3 355.5 333.8 323.7 313.7 305.2 288.5 274.2 264.9 260.9 260.1 261.2 273 275.8 258 256.9 254.3 275.3 297.5 328.5 357.1 374.2 393.4 415.7 434.5 459.7 477.8 502.6 514.9 545.2 561.8 571.7 590.9 609.9 640.2 672.9 709.4 733.2 730.3 727.5 714.2 691.5 669 647.4 627.6 616.1 606.6 606.1 601.3 600.8 601.5 607 615.7 627.6 641.9 649.7 655.1 660.8 661.5 663.2 665.6 672.5 673.9 682.7 692.9 702.7 708.6 709.1 706.8 700.2 689.9 682.1 660.7 632.6 602.4 574.3 545 519.7 508.8 499.3 494.1 495.3 498.2 502 518.8 535 551.2 561 568.5 579.4 586.4 591.7 602.1 619.1 635.2 649.3 659.3 670.2 684.2 698.1 716.2 739.8 750.5 764.6 777.3 768.1 692.8 656.7 620.7 611.9 604.6 600.3 613.1 623 623.8 639.9 651.8 683.5 714.1 734.7 763.7 775.6 780.2 772 739.8 713.7 681.8 654.9 619 595.6 582.8 571.1 554.4 545.8 543 533.7 504.4 482.5 450.9 433.6 400.4 380.4 362.3 345.4 329.6 309.5 293.4 285.4 275.1
641.3 620 586 546.1 514.3 475.6 464.6 462.5 446.4 430.6 418 414.5 411.3 408.2 415.7 432 456.9 480.4 505.2 523.2 547.5 564.5 595.6 625.8 656.8 672.6 693.9 715.1 735.3 759.9 770.6 785.2 800.1 810.1 812.4 797 787.9 748 721.2 689.7 667.5 648.9 606.9 579.2 548.1 511 476 454.1 418.1 389.9 380.4 369.1 347.7 333.1 325.9 319.9 317.1 297.6 281.6 270.3 260 241.9 241.4 245.3 245.5 240.4 236.8 239.3 257.3 278.6 307.5 335.3 351.6 366.9 389.4 407.2 438 457.7 475.2 499.9 521.5 547.2 559.4 574.7 592.7 624.3 663.3 700.9 711.6 716.8 711.7 700.5 681.4 655.5 634.3 614.8 605.6 595.5 596 587.7 592.3 593.2 599.5 606.5 618.3 630.8 637.2 635.2 637.6 639.3 644.7 642.9 645.3 655.1 658 667.4 679.6 686.3 691 689.5 688 679.9 671.6 655.7 628.6 600.6 570.2 558 542.7 534.3 527 522.8 522.9 522.4 530.9 545.3 561.2 575.1 586 590.1 602.4 608.2 614.7 622.9 637.7 658.2 678.2 691.5 707.4 716.2 729.8 746.2 756.9 757.2 755.7 760.1 734.4 665.1 624.7 596 591.2 588.1 583.3 587.8 598.4 605 624.1 647.7 659.6 684.9 717.3 733.8 760.9 763.1 760.7 728.3 707.7 685.7 650.6 622.7 597.8 584.3 570.9 560.8 551.3 548.6 529.7 494 466.2 445.3 433.7 393.8 372.1 358.1 343.3 329.5 302.9 283.5 277.4 261.3
607.9 584 561.6 528.6 491.4 469.3 454.1 450.1 441.1 426.1 416.5 412 403.9 402.1 412.6 428.8 451.3 477.9 501.6 530.7 548.7 572.5 596.2 625.9 656 675 694.4 717.5 740 755.5 766.5 776.8 786.4 791 778.6 773.6 759.7 726.5 692.4 665.7 649.9 631.1 595.3 569.1 539.4 497.8 469.6 449.1 407.6 385.4 376.4 358.2 342 330.7 322.7 324.3 323.5 296.9 285.8 275.8 261.1 238.9 232.2 225.8 220.4 216 217.9 218.7 240.5 253.9 278.6 299.5 327.1 343.7 368.7 390.8 412 429.6 456.1 477.4 497.3 527.1 541.8 550.8 572 613 649.7 677.5 687.3 692.3 686.2 681.2 664.7 640.8 619.5 605.4 592 584.8 580.4 568.1 573.5 571 584.9 597.9 607.5 613.3 615.8 614 616.8 617.7 615.8 618.7 622.8 633.2 638.8 643.4 654.7 665.8 672 674.2 672.2 668.3 661 643.9 623.5 605.6 597.7 588.1 572.9 567.6 559.8 554.9 552.9 554.8 562 570.8 585.6 599.7 609.2 619.4 632.2 634.2 630.5 640.8 656.4 682.8 711.1 727.9 739 740.8 746.9 753.4 767.3 758.8 740.1 753.6 732.3 646.7 612.1 584.4 570.5 570.5 574 577.4 585.2 593.8 608.7 624.7 642.3 664.1 689.7 710.7 727.1 743.2 741.2 714.9 701.1 680 656 630.8 616.1 594.1 580.1 570.2 560.4 562.4 531.7 486.8 467 438.9 415.8 391.1 365.6 349.3 338.8 327.2 299.8 279.9 277.6 254.2
583.3 568.9 540.8 504.6 476.5 458 442.1 428.1 424.8 421.8 416.9 412.2 404.7 397.9 409.8 425.6 454.1 480.4 503.7 533.1 555.1 575.2 603.1 631 659.6 676.5 693.8 714.3 728.1 743.1 751.2 757.9 771.6 765.4 744.9 738.3 710.9 686.3 663.7 640.8 625.2 601.2 578.5 556.5 524.4 489.9 457 428.6 410.5 382.7 370.2 354.3 342.9 326 319.8 319.3 327.4 295.1 286.4 276.6 259.2 242.3 212.7 210.8 212.5 207.4 203.8 203 225 236.9 256.4 275.1 296.7 324.6 344.7 368.8 387.7 406.9 434.5 456.1 475.5 501.1 521.9 540.1 562 596.4 626.4 663.6 676.4 669.8 669.2 660.2 641.2 634.6 608 592.6 580 568.1 563.6 550.1 552.9 556.2 570.2 580.7 587.3 594.2 593.5 591.8 593.4 594 588.2 591.8 597 604.4 616.2 623.9 631.8 643.3 654.5 660 659.3 656.2 650.7 641 630.1 618.6 610.4 608.1 605.9 600 594.2 589.5 587.6 585.9 588.9 594 611 626.8 632.8 647.2 654 648.3 648.9 660.7 678.4 708.8 744.4 756.3 763.6 754.3 752.4 747.4 749.7 740.9 716.8 701.2 681.6 653.2 603.3 571.7 563.6 567 570.4 570.2 577.7 588.4 597.5 610.5 628.7 641 661.6 686.2 694.4 717.9 720.5 710.5 697.9 684.2 674.7 657.5 636.9 618 597.6 582.5 571.2 555.6 528.4 488.2 463.8 433.3 407.5 387.9 367.8 350.4 325.2 309.1 291.5 272.4 250.7 236.3
569.3 544.3 507.2 487.1 464.7 443.2 431.8 421 416.3 415.5 415 411.4 399.7 393.2 407.1 425.6 454.4 480.7 505.1 538.6 556.8 578.4 600.1 625.7 651.9 669.3 687.1 703.7 713.7 721.4 728.2 726.7 727.2 726.9 721.3 702.3 680.8 656.9 628.9 615.9 602.3 578.8 562.7 536.5 501.4 480.6 444.7 417.6 399.4 380.1 364.3 353.3 331.5 322.5 316.6 311.6 305.2 291.4 287.6 282 254.7 237.6 217.8 196.1 202.5 204.2 196 189.1 206.5 223.5 237.2 255.6 277.1 297.8 322.5 345.9 368.3 387.3 410.1 426.6 454.6 477.9 499.3 521.1 552.8 584.1 615.5 647.3 659.1 656.7 654 638.1 624.3 613.1 592.1 574.3 562.5 553.8 543.9 531.9 529.1 538.7 553.1 562.9 572.2 574.3 571.6 560.9 570.1 569.9 565.5 570.5 577.5 586.1 595.8 601.1 613.5 623.2 633.5 643.4 648.5 647.7 644.8 640.1 635.4 630.8 625.6 620.1 629.1 629.6 626.8 624.6 622.5 619.1 624 624.3 637.6 647.4 649.7 661.3 669.5 668.2 669.4 686.9 707 734.6 757.5 772 776.1 767 757.3 738 725.5 713.8 710 682.4 649.5 607.5 581.1 559.4 560.1 560.1 565.1 562.7 566 575.6 588.8 600.1 614.2 629 653 659.5 675.6 689 704.4 714.4 704.6 693.9 683.9 678 667.2 645.8 625.3 598 581.6 562.4 523.4 494.6 467.5 438.6 403 386.1 368.8 349.9 327.8 305.2 281.4 264.5 246.4 236.1
545.3 526 483.3 464.4 444.6 429.6 423.8 417.7 410.8 414.1 411.1 406.2 394 386.8 400.2 420.5 448.1 474.3 502.9 535.3 561.7 585.3 609.8 623.2 648.2 651.6 665.6 669.2 676.9 688.7 699.7 696.8 692.3 685.8 678.8 664.3 639.6 623 596.3 584.1 575.3 560.2 541.7 520.2 484.3 461 431.9 404 388.1 373.3 360.2 344.4 331.2 318.1 310.6 303 296.5 286.7 282.9 267.6 243.4 225.3 209.2 188.3 180.1 187.3 173.1 180.6 193.9 204.2 222.4 233 255.7 281.1 299.4 322.7 346.6 367.9 385.2 408.2 425.5 455.8 480.4 501.4 537.6 567.7 595 631.6 636.7 640.5 631.9 612.2 609.5 584.4 570.6 558.1 547 535.8 525.4 512.3 516.1 522.3 534.4 540.9 549.9 553.4 550.4 539.1 545.6 546.9 542.2 551.2 557.6 565.9 571.7 580.1 594.4 602 615.6 627.3 635.8 639.2 638 638 635.5 637.2 635 641.1 645 653.2 663.5 667.6 661.2 662.1 660.9 655.3 654.4 660.5 667.1 681.4 692.2 688.2 694 721.5 733.9 759.3 768.8 775.2 787.5 777.6 756.8 734.5 711.2 692.9 683.3 666.7 643.1 606.9 586.5 558.5 553.9 550.8 545.8 549.3 556.5 568.2 580.2 591.1 603.3 617.5 628.2 640.8 660.8 676.1 688.8 690.9 701.5 701 689.9 677.8 665.3 658.7 640.6 601 584.4 567.8 533.6 503.5 472.4 436 408.8 386.5 370.3 352.8 330.2 309.9 285.7 266.4 246.3 232.6
502.5 487.2 459.6 450.5 431.4 423.9 415.5 410.1 406 413.5 400.9 392.5 382 380.6 392.4 412.7 431.6 453.2 478.9 506.6 544.3 577.1 604.7 597.3 601.9 618.6 631.3 641.6 650 658.6 661.4 662.2 660.3 654.5 650 638.4 616.5 596.4 571.8 558.1 549.3 534.7 519.7 496 475.2 450.5 421 402.2 383.4 368.1 356.9 339 317.6 312 307.5 290.7 290.8 274 267.1 242.9 226 211.7 193.8 181.4 157.7 168.9 159.6 170.1 177 189 199 218.5 232.1 259 278.6 303.5 322.1 344.8 365.9 383.8 403.9 430.3 451.9 479.8 509.7 534.8 568.4 595.8 614.7 621.3 607.6 595 576 564.2 553.1 542.1 528.8 513.6 505.7 491.2 501.4 506.1 514.7 521.5 525.6 528.5 529.3 516.9 519.4 520.6 521.5 530.6 534.4 538.9 544.3 560.2 571.2 583.4 596.6 612.2 625.7 629.4 631.4 638.2 639.3 642.2 645.4 651.6 658.3 668.8 683 696.7 713.6 704.2 685 680.7 679.5 692.4 684.9 695.5 708.4 711.4 720.8 745.6 762.5 775.2 781.3 784 787.1 780.1 759.4 734.6 708.1 680.8 669.6 648.7 638 611.8 585.9 569 557 553.4 543.5 536.9 546.6 560.6 571.1 583.3 592.5 604 616.1 628.8 648.9 656 659.4 669 682.4 681.2 676.6 671.8 649 636.7 631.1 596.7 580 569.3 538.6 514.4 471 442.5 420 392.6 373.3 352.6 332.9 311.8 291.3 271.9 252.8 230.8
481 467.2 443 428.3 418.8 413.9 405.3 398.7 399.4 398.3 388.4 371.3 376 375.4 380.8 395.8 409.2 427.2 452.3 482.2 510 547.4 561.8 566.3 566.6 572.4 581.8 609.6 622.2 630.3 632.7 629.9 625.9 620.4 615.2 609.1 591.5 574.3 550.8 537.2 526.6 513.5 495.1 477.5 459.8 436.1 415.5 393.8 377.4 366.1 353.1 333.1 313.7 302.9 297.2 283.3 284.5 270 250.6 231 213.7 196.9 179.6 161.8 145.8 150.2 150.4 156.5 163.4 168.7 178.7 194 218.1 235.6 259.6 281.2 305.2 323.1 343.8 359.5 385.9 409.1 428.7 452.5 487.5 510.7 542.2 567.9 594.8 599 587 571.2 564.3 551.6 539.4 525.9 511.8 500.1 488.2 473.9 478.7 493.2 495.5 498.3 501 505.3 502.8 499.2 495.8 501.7 502.1 510.8 512.7 518.7 527.5 537.2 548.8 570.8 585.3 600.5 611.7 616.3 628.7 636.5 640.7 646.5 653.4 657.9 666.6 681 697.1 711.2 731.9 746.6 717.6 705.6 713 708.1 702.7 714.8 728.7 733.1 742.4 767.6 785.6 793.3 798.9 799.4 799.2 790.9 774.2 736.5 698.9 676.7 662.8 642.2 630.4 617.9 607 590.7 567.4 550.8 542.7 532.9 536.1 550.8 563.5 572.6 581.7 593.8 605.3 615.1 631.6 634.1 646.4 649.4 649.5 666 660.7 652.4 643.1 625.2 603.5 589.4 568.7 557.7 528.7 511.4 484 457.4 437.6 415.9 391.5 359.4 339.9 312 292.1 275.6 254.2 234.6
467.1 445.4 427.7 416.3 409.5 399 390.7 383.7 382.9 373.6 362.4 362.1 357.1 364.9 370.5 389.8 397.1 414.8 437.4 454 478.7 484.2 514.4 510.8 527.6 533.6 548.8 568.4 578.3 586.3 587.6 584.6 588 587.7 581.1 576.3 563.7 550.1 531.2 514.4 503.2 491.7 476.5 461.1 443.8 428.5 409.1 387.5 370.5 360.7 346.4 326.1 310.3 300.7 288.1 283.5 279.6 263.7 254.3 240.1 217.8 194.2 172 152.2 141.8 139.1 143.1 145 149.9 155.3 166 179.8 194.6 220.3 236.6 261.3 286.2 302.3 321 333.9 357 374.7 404.9 433.7 463.5 486.8 514.4 541.1 565.9 572.4 567.4 557.4 548.4 534.3 522.5 507.6 493 483.1 469.5 458.6 473.4 477.2 475.8 479.1 480.1 481 480.1 474.4 479 485.3 488.5 489.8 497.2 504.9 509.9 514.4 539.3 564 574.3 587 601.1 613.4 625.9 634.7 641.6 648.5 655.6 666.9 676.6 691.1 709.1 724.9 746.1 762.9 777.4 753.7 734.2 727.9 725.9 738 748.3 758.1 770.7 795.1 810 814.1 815.5 809.6 807.8 800.1 776.1 745.1 712.1 683.3 670.9 639.7 631.7 624.9 620 606.3 582.7 566 555.1 534.9 526.2 543 556 563.8 571.4 582.6 590.4 601.6 611.2 616.5 627 626.2 620.7 629 635.3 628.4 625.8 611.5 592.4 568.2 556.7 532.1 514.6 496.4 478.9 449.5 426.5 412.8 399.4 367.2 344.3 318.6 289.8 266.5 251.2 231.3
445.4 427.2 413.4 406.5 396.4 385.1 375.4 373.1 356.9 348 345 337 345.6 346.7 352.5 366.5 378.9 393.4 408.5 424 441 459.6 466.4 481.5 486.5 496.4 501.1 525.2 525.6 520.7 537.4 535.6 548.3 549.9 548.2 545.7 536.7 521.9 506.5 490 482.1 468.9 459.2 445.7 432.6 418.5 398.8 378.6 364.8 352.8 338.6 321.4 306.2 293.4 285.5 284.3 278 271.8 262.3 249 227.5 205.4 185.1 157.5 141.7 133.8 137.2 138.3 141.6 148.2 151.5 163.8 178 196.6 217.7 241.3 265.3 284.1 302.4 317.9 335.1 366.2 390.2 414.3 441.7 458.4 491.9 513.1 531 539 538.6 531.1 527.1 519.3 506.7 492.1 476.7 464.5 449.3 445.8 463.5 460.7 459.5 461.5 462 461.1 458.1 452.4 463.9 470.2 472.1 474.9 481.6 488.2 493.7 511.7 531.5 553.1 574.1 587 601.1 612.3 618.9 630.5 638.8 650 662.1 672.5 684.8 704.5 722.2 740 757.2 779.3 802.9 781 762.8 753.8 755.7 767.3 780.1 791.6 808.8 828.6 842.8 836.3 832 825.4 820.7 815.8 792.8 757.1 729.3 700.3 662.6 642.6 631 625.4 622.6 614.1 588.2 571.7 561.9 538.7 520.5 533.9 544.5 558.7 561.9 570.4 577.3 585 597.2 597.3 596.3 596.5 595 598.4 597.4 597.7 593.7 601.5 577.9 556.4 552.4 526.4 498.8 477.8 471.2 440.3 415.9 404.9 384.5 364.6 342.6 321.3 292.5 270.8 253 233.8
427.8 410 402.1 396.8 380 365.5 356 347.7 334.6 329.7 321 311.7 316.8 325.1 335.2 348.4 358.9 367 372.6 382.3 400.2 420.9 428.7 437 443.7 446.9 455.1 462 467.8 471.3 479.8 498.4 503.4 511.7 511.4 514.5 506.7 494.6 479.6 469.2 456.9 449.5 439.8 432.7 417.8 406.7 389.9 368.3 356 343.1 325.5 310.7 298.3 290.2 284.8 285.6 284.7 276.9 269.5 260.8 242.4 219.7 192.5 167.5 146 136 133.2 132.7 135.2 140.6 143.3 150.3 161.1 179.1 202.7 215.6 241 258.9 282.4 301.6 320.7 344.5 364.7 391.9 412 438.2 458.7 483.2 502.2 513.6 513.1 508.3 507.2 498.6 487.3 477.6 460 441.5 430.4 434.2 446.7 444 445.1 441.9 446.4 445 442.6 444.3 448.7 455 457 461.8 469.6 475 487.1 505.2 532.2 554.7 572.1 587.7 601.3 607.2 618.8 628.7 640.4 653.8 664.6 674.8 691.1 711.8 736.2 755.8 770.1 791.5 813.6 820.8 794.5 787.7 794.3 806.3 816.3 829.4 850.7 869.8 869.8 860.2 854.9 844.8 834 826.3 794.9 767.1 741.7 698.6 661.8 641.7 635.2 623.7 612.9 610 594 576.7 557.5 539.7 519.4 526.1 535.6 544.6 555.4 562.4 566.6 571.7 574.6 574.8 571.1 574.1 580 586.6 571.2 575.6 574 579.7 571.6 542 544.4 529 499.8 469.2 454.2 426.8 404.2 387.5 375.7 353.2 335 315 299.6 276.2 256.6 232.6
404.2 395.6 386.5 375.7 358.5 344.6 333.3 321.9 316.1 305.7 291.5 282.3 292.9 303.4 317 325.2 333 338.2 341.6 348.9 361.2 373.8 385.3 393 404.3 410.7 414.9 425.1 434.9 440.5 446.8 446.3 475.4 485.3 485.4 487.2 480.7 469.2 459.2 449.6 441 433.1 429.1 420 406.1 394.2 376.3 357.2 346.5 328.5 313.9 305 299.8 288.8 287.2 288.3 290.4 281.4 277.6 265.7 251.3 229.9 201.4 179.3 158.8 149.5 137.1 129.9 127.7 133.3 136.2 140 152.8 165.8 183 200 225.4 248.1 268.8 277.5 298.7 319 344.6 361.5 392.6 413.3 439.3 462.2 476.5 487.5 492.7 490.1 487.4 478.2 469.3 457.7 444.3 429.9 414.6 422.2 425.1 423.8 427.4 420.6 428.2 430.3 430 433.2 438.1 440.2 443 453.7 464.6 481.7 494.3 504 533.1 556.3 571.6 587.3 599.1 606.7 618.4 627.8 640.4 654.7 665.9 679.6 696.4 719.5 742.2 757.6 779.1 804.4 820.5 838.1 842.4 835.2 836.7 853.8 863.6 872.1 898.3 896.8 888.8 878.2 871.2 865.5 849.9 817.8 780.2 749.1 714 688.3 652.1 644 637.1 633.5 596.2 593.2 582.3 574.8 577 537 517.4 519.7 531.5 538.9 547.8 553.5 557.9 561.2 559.7 554.7 549.9 551.4 556 561.2 555.6 555.2 557.7 567.6 555.7 529.8 526.6 507.7 480.1 461.6 437 419.5 397.9 373 356.3 346.9 325.7 302.1 286.2 276.1 260 229.7
387.6 378.3 368.7 348.6 332.3 327 307.5 296.5 290.6 278.4 268.8 260.4 273.4 283.9 292.4 299.9 306.4 311.3 314.9 321 332.3 340.7 348.5 358.9 369.6 380.5 386.7 397.5 405.6 412.6 419.2 423.1 428.7 446.3 453.3 456.7 449.8 442.7 436.6 432.1 423.5 412.6 410 401.9 389.6 377.7 361.7 345.4 334.3 323.5 310.3 302.2 295.4 287.6 289.2 290.3 291.6 290.9 284.7 270.1 252.3 232 207 190.3 171.1 156.6 142.9 133.4 128 128.1 131.1 132.7 141.8 155.6 170.3 182 205.3 224 246.8 258.7 280.8 298.3 323.6 343.9 367.3 392.2 414.9 437 452 467 470.1 473.3 469.1 459.3 447.7 435.7 423 408.1 401 412.7 403.2 410.3 402.7 409 411.9 418.4 414.9 420.9 427.9 437.6 456.4 465.2 479 490.8 505.5 521.2 543.8 561.6 575.4 591.9 597.6 608.1 615.9 629.3 640.9 655.8 669.1 682.6 700.1 722 744 756.6 780.6 810.6 831.9 845.8 862.9 869.7 881.3 902.5 912.9 912.6 918 912.9 907.7 896 886.3 877.2 862.3 819.2 782.8 738.2 708.9 673.9 656.9 652.2 643.1 625.4 583.4 573.4 567.6 562.5 562.8 528.7 512.8 510.8 517.5 526.7 536.9 548 550.9 549.6 546.7 538.9 534 536.8 537.3 537.4 545 541.6 545.5 549 535.2 512.1 507.7 485.9 464.7 448.6 426 409.2 393.3 361.7 340 322.3 311.9 286.4 277 258.1 242.1 220.5
363.1 357.9 338.6 319 311.6 296.4 279.7 268.3 260.1 247.3 235.8 246.3 256.9 266.5 272.4 275.9 278.4 283.3 290.9 299.6 305.6 314.4 324.5 331.7 339.6 349.9 354.2 364.6 374.2 377.6 389.7 395.9 404.3 411.5 414.6 418.1 421 419.8 416.9 410.3 406.2 396.3 385.9 384 375.2 362.4 347.9 332.6 317.8 314.9 308.9 298.7 289.7 288.2 288.9 293.4 296.3 297.3 293.6 280.6 261.2 238.8 220.1 203.1 187.2 166.8 148.8 137.9 131 124.5 126.8 130.2 137.1 145.8 157.8 166 185.8 205.3 228 235.3 259.8 281.8 304.6 325 342.3 370.5 393.3 415.8 432.1 445.6 455.2 456.3 448.9 438 428.8 416.6 403.8 396.2 397.9 398.9 391.3 389.4 387.7 388.6 395.5 405.1 416.8 431.8 443.5 456.2 469 480 496.5 509.5 523.8 541.1 559.4 573.4 586.4 596.4 602 610.2 620.8 628 643.6 655.1 670 685.9 701.7 718.2 738.6 751 779.7 814.9 834.9 851.1 864.9 874.6 887.3 906.7 919.7 920.7 921.7 920.5 915.9 910.5 907.2 892.7 855.8 816.7 792.6 731.3 702.1 660.3 656.1 659.6 638.3 604.8 577.9 560.9 555.5 544.9 546.6 516.9 504.7 507.5 507.5 511.9 519.5 535.5 541.7 541.7 537 525.9 515 514.7 515.2 528.9 530.9 528.4 520.4 522.7 513.7 501.6 492.6 474.6 447.8 430.9 410.6 391.6 384.1 361.3 328.6 319.3 295.8 271 253.3 238.2 225 211.8
343.7 327.1 310 293.5 282.6 268.5 254.8 246.6 237.7 227.5 217.6 232 238.4 241.3 247.3 251.7 259.2 260.5 262 272 280.5 285.7 293.6 299.6 305.2 315.8 326 332.2 338.1 344.4 352.9 354.4 362.3 373.9 380.4 389.3 391.8 393.6 389.9 385.4 381.4 377.4 366.6 363.6 356.3 343.6 331.7 316.5 305.7 306.8 300.9 294.4 290.2 289.4 290.4 295.6 303 306.5 303.7 290 273.5 254.1 239 222.2 203.1 186.2 166.2 149.6 135.3 126.1 123.8 126.6 130.2 137.6 145.9 152.3 166.2 189.9 201.9 216.5 241.6 259.6 286.1 305.1 329.1 346.7 371.5 396.5 411.2 428.6 434.7 433.7 428.5 418.7 408.7 395 390.2 378.5 387 386.7 373.7 379.6 394.8 404.3 408.9 418.7 429.8 449 458.2 477.2 488.7 500.6 512.7 528.2 544.6 561 576.5 590.2 601 609 612.2 618.7 621.2 631.7 636.2 646.9 667.7 689.6 700.7 714.1 721.9 736.4 774.7 805.1 826.2 846.4 858.7 875.1 882.5 889.1 907.5 918.8 925.8 925.2 922.5 915.3 909.6 884.6 835.8 797.5 768.4 728.9 682.3 661.2 649.3 638.7 620.9 601.2 574.8 557.6 551 539 529.9 510.7 503.1 501.7 502.7 505.6 513.2 528.9 537.2 532.9 520.3 512.6 496.9 491.5 488.5 493.9 502.9 505 509.6 509.8 500.9 490.3 480.8 465 434.3 414.6 397.6 379.6 363.1 335.5 321 304 286.2 259 243.7 225.9 213.8 199.7
315.7 300 284.3 271.9 256.8 245.2 233.7 223.7 217.7 202.4 201.6 210.5 212.6 215.8 220.4 224 229.9 232.4 237.3 244.3 251.6 258.1 265 273.1 279.3 287.5 293.6 298.4 305.8 314.5 321.7 326.5 333.4 337.7 346.9 354.7 359.5 363 362.1 363 358.5 353.9 349.2 341.4 339.1 326.5 313.4 303.2 304.2 299.1 298.1 289.5 287.4 292.2 295.7 306.2 314.2 319 314.9 301.3 284.7 265.3 250 235 218.2 198.5 179.9 165.4 146.8 129.4 123.6 122.6 125.6 129.6 135.4 142.8 152.3 177.4 189.1 202.9 222 240.5 263.9 282.7 306.9 328.5 350 369.4 391 408 416.2 413.2 405.2 401.3 392.3 375.8 371.8 364.5 370.8 368.1 385.1 393.4 407 412.9 421.5 432 442 464.1 472.3 493.5 510.8 520.7 536.9 547.2 566.4 583.9 596.6 612.5 621.5 625.4 627.5 627.2 626.2 627.8 629.9 634.2 645.3 654.4 660.1 681.4 692.3 718.3 752.3 792.5 808.8 830.6 845.8 862.4 872.8 874.1 882.7 900.3 916.4 919.5 902.3 913.4 906.3 883.3 826 786.9 751.6 727.3 695.9 672.8 653.5 624.9 607.3 581.3 566 550.6 533.6 519.3 515.6 509.7 508.3 502.4 502.7 494.8 499.2 509.8 509.1 517 502.3 483.5 475.1 472.5 467.7 469.3 476.1 482.2 482.8 489.3 487 478 469.9 451.1 423.2 402.5 381.8 364.4 346.1 320 305.2 295.7 288.3 250.9 228.2 215.6 199.7 190.7
290.8 269.7 257.5 248 234.1 224.2 214.3 199.1 193.2 181.1 181 182.7 186.8 190.6 195.1 199.1 204.5 204 210.6 219.2 227.2 230.4 241.7 253.1 257.2 264.2 266.7 272.2 279.6 285.2 290.9 298.6 306.8 309.1 312.9 322.1 328.2 333 335.2 337.1 337.8 334.2 328 321.7 320.9 311.1 303.1 295.9 296.6 293.1 291.4 284 288.7 299.6 305 317.3 326.2 335.7 330.3 316.2 299.1 281.5 264 244.6 230.3 211.9 192.5 177.1 161.6 145.9 129.5 121.4 123 126.1 130.4 133.7 146 160.3 170.6 189.7 200.8 229.6 245.1 264.3 289.5 309.2 333 353.2 371.3 383.7 394.4 391.1 385.1 377.8 374.1 362.3 359.9 352.4 361.6 381.1 397.3 405.8 419.5 428.1 438.3 455 465.8 469.3 492.6 505.5 521.1 535.7 554.1 570.5 583.6 602.6 622.9 638.1 648 651.7 650.3 646.6 634.1 627 625.1 623.2 626.3 630.9 638.1 650.8 670.9 698.6 730.7 760.1 788.9 807.6 830.8 845.6 861.2 859.4 860.9 865.6 875.8 880.8 888.9 888.3 876.8 856.7 814.1 782.2 755 734.4 712.1 696.3 676.2 646.2 609.6 593.9 564.6 545.7 531.6 516.4 513.9 517.3 519.3 516.7 507.4 495 485.3 492.8 488.3 479.2 468.2 459.2 454.9 448.9 447.7 450.5 459.3 460.1 467.9 472.5 475.4 473.6 458.1 432.9 413.1 390.2 368.2 349 317.7 303.5 278.7 276.4 254.9 228.1 210.8 196.5 189.3 179
262.1 246.4 234.3 224.3 212.8 200.9 187.2 178.3 170.9 157.3 158.7 159.6 162.5 166.4 172.2 177.3 180.3 180.2 192.8 197.9 204.1 209.3 217.8 228.5 230 237.7 241.2 248.6 253.6 260 267.4 273 278.9 286.5 293.4 297.7 302.5 306.7 309.3 311.5 313.2 313.7 311.8 308.1 306.2 301.2 293.5 293.2 293.7 289.4 281.4 282.8 296.5 306.7 316.7 328.9 339.4 347.1 343.1 330.7 317.7 302.6 281 264.7 248.6 229.4 209.8 194 178.2 160.8 144.2 125.6 121.1 123 125 128.7 141.6 150.3 157.4 172.2 192 209.1 224.8 248.2 272.1 290.9 310.9 332.3 348.9 359.8 368.4 370.7 366.8 358.7 352.1 341.4 338.9 355 373.3 386.2 402.2 416.5 429.3 445.7 459.1 472.8 482.7 494.3 501.5 510.4 532.5 547.3 565.5 581.1 600.6 620.8 643.9 663.4 678.9 681.5 676.3 666.8 654.2 640.8 626.8 623.9 624.5 623.8 628.7 634.1 651.1 677 713.5 720.7 750 757.9 806.6 813.7 827.9 846.4 843.1 837.4 841.2 847.2 866.1 863.9 854.1 843.3 805.4 778.4 761.2 750.2 743.8 728.3 698.7 644.5 616 588.1 572.7 547.1 528.2 515.7 514.5 517.3 522.9 525.2 519.4 500.9 478.8 472.8 463.7 456.4 449.1 439.3 439.1 432.5 427.1 432 442.9 443.6 449 457.3 470.2 465.9 450.8 433.3 410.7 382.6 359.2 334.8 311.4 289 267.9 251.7 237 220.5 200 186.2 176.3 159.6
236.7 224.2 209.9 201.4 190.2 179.3 168.7 160.8 156.7 144.4 145.2 146.4 148.9 154.5 156 159.8 159.6 162.1 172.7 178.3 184.2 191.8 205.6 195.6 203.7 214.7 222.1 226.8 233 239.6 244.5 247.9 250.6 263 268.5 272.8 277.3 285 291.2 292.1 292.1 294.7 294 295.1 293.2 286.9 281.5 284.3 287.1 277.6 282.8 292.5 302.9 318.7 329.9 344.2 354.7 360.6 356.4 347.9 336.9 322.5 300.8 286.1 269.8 247.8 232.3 212.9 193.6 175.2 156.8 138.7 122.4 119.9 122.9 126.5 133.8 139.7 148.8 157.8 178.9 188.9 204.5 229.9 251.1 271.5 293.2 307.6 329.6 341 349.6 350 344.8 340.6 327.3 332.3 345.3 360 376.2 393.8 411.4 429.1 448.2 463.2 473 489.5 503.1 512.1 525.7 532 536.5 560 575.1 588.5 605.7 636 660 683.2 701.5 711.8 700.2 689.2 674.3 654.7 642.2 626 623.7 617.2 620.9 621.7 634 654.6 682.1 692.2 702.3 733.3 772.1 787.6 792 814.9 834.9 825.5 813.7 814.7 820.6 820.4 804.5 799 789.8 791.5 786.4 784 785.5 766.1 717.8 650.6 622 596.9 574.1 557.4 533.8 521.5 516.3 517 521.8 524.9 521.5 488.6 471 454.1 453.5 444.8 434.9 423.4 415.5 412.8 412.7 416.9 423.6 432.9 434.1 442.6 463.2 452.7 445.6 432.9 408.8 387.6 365.4 335.3 303.4 280.5 263.5 241.3 234.9 213.4 186.4 177.5 164.9 144.4
212.8 200.4 192.7 181.6 170.3 161.6 155.2 151.9 147.6 136.7 132.5 132.9 136.4 139 141.1 143.4 145.6 149.5 153.4 159.5 166.2 174.8 178.4 179.8 186.1 195 201.5 205.6 212.4 220 224.9 228.3 232 235 243.5 248.7 253 258.5 265.7 269.4 275.3 277.2 278.5 280 278.3 278.5 278.6 280.9 275.8 278.9 289.8 301.1 313.6 328.9 342.4 362.2 369.9 379.3 387.2 373.4 351.7 337.8 322.5 302.6 283.5 262.3 245.3 229.3 208.8 187.5 169.8 150.6 135.6 120 120.7 124.2 127.1 131.6 141.6 151.4 170.4 182.2 196.2 216.3 235.1 257 274.2 291.8 306.5 328.4 326.7 328.4 326.1 315.5 322.8 342.6 356.6 373.7 387.3 411.4 422.3 443.6 459.6 481.5 494.8 510.5 529.1 544 550.8 558.1 561.3 566.4 585.9 599.4 612.9 637.8 675.7 699.6 716.6 728.4 721.6 712.2 692 670.7 653.1 628.2 618.3 612.9 610.2 613.3 620 633.6 650.8 658.1 675.4 691.2 709.1 733.3 758.6 785 809 810.3 803.3 791.2 781.9 784 769.6 758.5 756.1 776 777.4 794.7 801.3 795.8 755.5 709.7 651.9 613 589.3 567.6 547.6 534.9 528.3 519.6 519 519 505 487.5 470.3 454.5 444.3 436.6 416.3 410.1 396.4 395.2 394.5 401.7 405.9 406.5 413.1 427.4 440.2 432.3 430.9 416.5 397.7 383.9 356.6 316.7 294.9 272.8 249.3 235.6 224.3 200.7 176 167.5 154.5 145.2
193.6 181.1 174.9 161.4 152.5 145.5 143.2 139.2 132.5 125 122.1 123.1 125.3 123.6 126 128.5 133.4 138.3 140.8 145 152.1 157.5 161.2 165.2 172.1 180.3 183.4 187 193.4 201.1 205.5 209.6 215.2 219.7 228.6 234 238.1 243.6 250 254.4 259.6 262.3 267.4 269.3 271.6 271.6 272.7 269.4 276 287.6 297.7 311.2 322.4 340.6 354.6 369.6 386.4 405.3 407.8 394.3 365 350.3 337.5 325.4 303.6 276.3 257.4 241.7 223 204.6 184.4 161.8 146.9 127.6 119.2 121.7 123.7 125 137.8 144.4 158.9 169.5 184.6 203.4 215.8 241.7 258.9 275.8 292.7 310.8 313.7 310.8 306.3 315.2 332.9 347.7 363.8 384 401.3 418 436.3 454 473.5 494.6 520.9 542.1 558.6 576.3 579.8 581.8 584.8 585.2 593.2 608.1 622.2 645.3 676.5 709.4 732.3 745.1 747.3 740.8 715.2 689.3 659.9 636.1 627 618.1 608.7 611.3 613.9 615.2 632.6 638.4 654.4 674.3 686.1 702.6 734.7 761.1 787 794.3 792.1 777.5 767.1 745.8 733.9 717.5 718.6 746.4 765.5 781 803.2 808.8 786.1 725.2 671.2 636.3 612 586.5 566.4 551.3 539.1 533.3 523.3 513.4 495.5 481.5 468 451 428.3 412.1 406.7 394.8 384.3 378.6 379.4 382.8 382.9 392.7 394.1 407.8 420.2 409.2 403 386.2 374 361.4 337.2 294.4 278 260.1 239.5 219.9 208.5 191.1 167 148.5 132.6 141.9
173.1 157.7 147.5 141.9 135.3 129.6 130.1 125.1 118.3 113.9 113.1 115.7 115.9 115.4 118.5 120.2 126.8 132.3 133.5 138.3 141.4 143.7 149.1 154.4 159.7 166.7 170.8 177.2 181.8 187.8 191.5 194 199.1 205.6 215.9 220.4 225.9 231.4 237.9 245.8 248.2 251.4 259.2 260.6 262.8 266.3 263.9 270 284.7 293.9 306.4 321.9 336.6 353.6 369.2 384.5 411.9 428.9 421.3 411.1 380.7 363 348.2 339.7 320.1 296.2 270.6 251 237.3 220.3 194.6 174.1 151.7 132.8 120.7 119.3 120.5 121 130.9 134.6 143.9 161.3 179.7 188.2 206.1 227.6 240.3 261.5 277.8 293.4 294.3 293.2 298.9 322.3 337.3 357.4 376.2 389.2 408.4 427.6 447.6 472.1 494.4 520.7 546.1 571.2 587.4 608.7 617.4 617.8 612.3 609.3 612.5 620.1 634.1 651.9 682.4 713.5 739.5 760.4 773.3 771 744.6 712.1 669.9 648.5 632.5 622.8 611.4 604.5 600.7 600.1 614.2 625.6 628.8 649 661.4 681.1 712.1 739.9 763.7 771.3 774.5 760.9 745.4 720 697.2 688.5 688.6 719.1 755.5 770.6 800.9 806.6 800.3 763.1 718.4 672.1 640.3 609.6 587.9 572.1 557 546.4 536.4 536.4 507.9 483 462.2 440 426.1 408 390.1 387.4 380.3 373.2 371.3 372.2 371 375.8 382.4 391 399.6 390.8 379.8 369.4 353.2 343.4 314.6 285 266.7 247 227.9 209.3 191.4 174.7 152.4 134 124.5 120.3
152 137.3 131.3 125.5 118.5 114.6 112.3 109.6 108 107.9 108.5 110.9 117.4 123 127 132.3 133.2 135 137.4 139 145.9 148.2 151.3 157.3 160.5 163.4 162.6 167.8 173 177.7 182 186.8 192.1 198.4 204.3 209.4 218.5 223.8 232.4 238.1 237.9 247.5 254.7 250.3 256.6 255.7 267.9 279 290.4 306.4 321 336.6 352.2 368.8 384.1 403.1 435.8 449.8 429.5 412.8 393.3 374 360.1 347 332.6 312.4 281.7 260.8 240.5 228.4 209.2 183.2 159.7 138.5 122.2 118.6 118.6 119.1 122.5 127.7 134.8 153.7 164.2 176.9 192.2 208.5 228.2 251.7 264.8 275.6 264.6 280.2 300.5 320.9 341.1 358.1 375.7 397.8 421.8 444.6 470.1 494.8 527.2 552 566.7 586.4 607.8 624.4 637.3 650.4 651 645.8 639.8 645.4 651.4 668.7 690.1 714.1 745.1 769.2 789.7 798.8 762.8 725.7 688.8 669.3 642.9 619.8 610.5 601.7 591.1 589.3 598.4 608.4 607.2 620.8 642.9 663.5 680.8 711 736.9 751.2 757.5 749 732.3 702.1 678.1 669 673.4 711.3 734.9 759.3 789.5 805 796.4 780.7 751.3 703.1 672.3 634.6 604.5 584.2 570.3 561.8 544.8 533.8 522.9 498.8 478.2 460 442.2 420 404.7 392.7 375.9 369.1 360.3 367 365.7 363.1 370.7 376.9 381.5 371.5 358.6 346 333.2 333.5 313.4 267.4 248.9 230.6 215.8 195.3 174.2 151.6 132.2 121.1 115.8 111.5
134.5 122.5 116.2 110.8 105.7 103.1 102.6 103.6 102.7 105.6 113.6 121 127.9 133.4 138.1 146.2 151.6 153.5 156.7 159.9 163.8 164.9 165.8 170.6 173.6 174.3 175 175.2 176.8 177 178 184.1 187.1 192.1 195.2 204.6 210.3 218.2 223 228.3 235.9 243.8 242 249.6 254.4 260.6 278 287.9 302.3 318 333.3 352.7 371.9 384.8 398.6 428.1 460.7 464.7 438.4 421.7 403 380.5 365.3 354.7 344.8 321.1 297 267.8 244.5 229.9 209.7 190.7 168.6 147.4 125.5 120.7 117.8 118.8 121 123.7 128.5 140.2 152.4 174 181.2 199 215.9 237.3 249.6 247.2 258.4 278.3 301.3 321.7 339.4 358.3 379.4 405.5 430.6 456.3 485.6 518.7 543.5 564.2 583.3 599.9 618.4 636.5 656 673.7 681.8 685.4 671.7 666.7 671.2 685.2 702.5 720.9 745.1 773 795.9 822.2 782.6 746.8 717 688.5 657.6 634.3 623.3 606.9 589.7 584.1 586.1 587.3 593.7 612.2 621.4 645 660.5 675.9 695.1 728.9 738.5 730.5 713.5 678 657.1 652.4 656.6 683.7 716.6 742.3 778.2 787.6 789.6 777.7 755.9 730.5 702.9 662.1 624.7 597.4 583.6 576.5 556.2 535.4 522.2 500.2 489.6 473.3 452.6 429.3 409.2 396.8 385 374.4 366.5 349.3 356.6 358 359.9 366.9 366.4 353.4 343.9 334.5 315.8 311 292.8 254.2 223.8 208.7 198.7 179.5 155 128.6 111.1 109.8 102.1 97
119.5 108.8 103.3 102.5 98.6 97.3 98.5 97.3 106.8 116.5 126.8 137.4 143.9 150.9 157 163.5 171.6 174.9 176.8 184.6 188.3 194.2 191.8 194.5 197.2 195.7 194.2 191.7 190.6 189.3 186.6 189 189.4 191.1 196.5 203.6 207 214.4 217.9 223.8 231 240.5 248.4 257.3 262.1 271.7 288.8 302.9 315.7 333.8 353.2 369.7 385.7 401.5 425.1 438.3 470.4 473.9 445.9 427.3 410 390.9 376 359.4 349.5 333.2 305.6 277.9 255.3 241.8 223.6 200.2 177.9 156.8 131.4 123.5 119.3 118 119.3 121.5 125.1 131.2 146.4 163.9 180.3 196.6 205.3 228.7 231.4 240.1 257.7 277.5 297.9 312.9 335.7 355.4 385.5 410.9 439.2 466.6 497.9 524.8 546.4 570.8 596.5 611.7 628.5 645.9 670.5 698.1 701.8 712.5 701.8 694.8 703.7 711.8 716.1 731.5 751.6 773.5 796 821.5 799.4 764 734.1 705.8 672.2 646.5 627 612.5 595.9 578.3 570.8 578.2 578.8 595.8 610.7 623.8 647.6 653.2 669.1 680.9 689.7 701.8 670.5 644.6 632.6 639.5 645.2 669.4 695.6 724.7 762.1 774.6 783.6 771.4 754.6 735.1 721 698.3 652.6 612.1 601.4 593.5 573.6 546.2 525.3 504.9 493.2 476 458.5 432.4 414.9 399.9 387.9 378 367.1 359.7 341 345.4 350.2 354.4 352.6 338.3 332.3 319 299.9 287 271.4 231.5 203.1 191 181.4 163.9 138 107 98.4 92.4 86.8 72.8
103.7 97.4 95.7 94.4 94.3 97.1 102 111.3 120.8 129.3 141.3 154 165.4 174.1 177.6 185 194 197 200.9 205.5 212.1 214.7 215.3 219.3 219.1 220 218 217 214.2 209.4 209 203.2 200 194.5 202.1 205.1 208.6 215.9 222.2 229 237.2 246.7 254.5 264.8 272.9 286.1 303.1 314.8 328.8 349.7 367.7 386.9 406.4 431.4 454.8 460.4 477.6 468.2 452.7 432.6 416.6 399.2 383.1 367.4 354 335.4 309.9 291.1 266.8 249.9 230.7 208.3 190.5 171.6 152.5 133.1 118.3 117.8 118.8 120 122.2 123.6 143.7 160.3 174 188.9 187.9 200.5 220.6 236.8 254.5 276.1 293.8 315.3 334.6 360 383.1 415.5 439.3 470.1 504.2 525.8 545 579.3 603.8 619.5 639.1 652.7 680.3 707 718.1 732.8 731.1 722.1 730.3 740.3 745.8 747.8 760.6 775.8 799 817.7 817.1 801.2 775.7 732.7 690.2 657.6 633.1 620 598.9 584.1 569.7 568.1 570.7 580.1 593.1 599.9 615.5 635.9 646.9 655.7 670.5 664.7 619.2 614.1 609 623.6 637.4 654.1 678.7 710.1 742.2 760.7 767.6 757.8 739.7 732.3 725.8 700.2 666.3 634.2 623.2 606.6 586.2 561.8 535.9 518.3 508.2 498.1 470.7 446.4 423.6 405.8 391.8 378.2 366.7 353.7 342.2 345.2 340.2 344.4 337.4 324.3 314.4 306.9 281.4 265.6 250.5 210.1 184.2 172.5 169.1 145.5 119.1 91.4 81.3 77.2 69 54.7
90.8 89.6 90.9 89.9 92.6 104.1 115.5 126.1 136.1 147.6 162.8 171.1 180.8 190.3 196.7 203.4 214.7 222.6 225.7 232.8 238.8 243.6 244.8 243.7 241.7 240.4 239.3 237.4 234.7 233.3 229.9 224.4 222.4 213.1 207.5 208.7 213.6 218.7 225.8 235.2 244.7 253.3 264.3 273.2 286.6 296.6 312.8 330 348.9 366.2 386.6 405.9 435.7 468.2 484.4 474.9 473.4 471.4 460.2 441.3 419.3 405.8 394.9 376.5 359.7 345.2 317.3 297.4 274.9 254.3 236.7 218.7 200.7 185 161.2 140.1 121.8 117 118.5 119.7 121.1 123.1 138.6 152.1 166.6 179.6 182.6 197.8 216.9 232 251.2 271.3 290.2 309.5 333.3 358.5 384 414.2 438 467.2 495.3 523.7 548.6 571.3 598.5 612.5 631.8 652.6 688.7 714.6 730.5 746.5 750.8 749.6 758.9 771 774.1 776.9 781.4 785.5 802 822.7 846.8 838.6 799.3 755.3 711.4 671.5 640.2 620.5 586.5 574.2 566.7 555.3 563.1 561.9 569.7 583.5 596.1 614.5 626.5 625.1 622.4 603.8 593.5 587.4 588.6 604.7 622.5 636.1 655.5 692.3 717.3 735.8 725.4 715.3 701.8 713.6 712 690.4 661.6 656.7 652.4 625.8 603.7 575.5 553.7 540.4 520.1 512.7 485.9 462.3 431.2 414.1 398.3 376.2 365.6 352.9 338.1 335.8 328.7 329.2 324.5 309.8 296.2 284.7 263.1 243.2 222.7 191.5 168.3 154.6 149.6 125.3 98.3 76.7 63.2 59.8 52.6 39.4
87.1 87 87.3 94.4 103.5 115 132 145 155.4 166.1 177.9 189 198.1 208.8 221.4 232.3 241.3 246.9 258.9 270.9 278.5 271.3 271.7 270.2 268.6 264.5 264.3 259.9 255.9 253.3 247.3 241.2 239.8 230.1 222.6 215.9 219.7 224.4 234.3 247.2 256.9 262.9 274.8 280.8 298.7 313.6 328.6 351.6 369.8 385.9 405.9 434.2 467.1 496.1 511.5 499.9 494.1 466.8 450.7 445.9 421.5 410.2 401.4 380.6 362.7 349.6 327.4 306.8 284.7 264.3 248 224.4 212.6 192.3 170.1 150.5 126.7 116.6 118.5 119.7 123 126.4 133 146.5 155.6 166 178.9 191.4 208.8 224 242 260.2 280.5 300.8 330.1 354 378 407.2 431.7 460.8 489.8 529.1 550.7 565.6 586.5 606.5 631.5 658.5 691.9 718.2 736.5 763.7 771.5 777.4 785.8 794 799.2 799.8 797.8 798.8 806.5 826.2 860 851.7 779.5 769.5 728.1 679.2 643.7 622.3 603.6 575.4 567.9 554.6 545.7 547.9 554.6 564.7 577.1 589.7 613.2 597.4 592 577.5 583.1 572.4 569.5 582.4 598.3 611.1 631.4 651.3 666.3 681.3 682.9 690.1 671.7 676.4 686.8 684.8 656.1 661.6 662.8 651.7 620.8 586.9 564.4 545.2 527.6 516.7 498.8 468 436.5 418.5 401.3 378.3 364.9 352.8 338.9 327.1 328.6 313.2 307.7 295.2 279.1 265.4 245.9 227.1 203.4 176.6 154.9 140.3 127 112.5 92.3 69.1 42.6 39 34.8 19.2
83 87.4 94.2 105 119.1 138.4 150.1 161.6 173.1 185.1 199.6 211.4 221.8 232.6 245 253.1 270.3 274.2 287.8 304.8 310.9 307.6 308.2 306.1 301.4 291.9 287.5 283.7 276.9 270.2 258.6 259.7 253.7 245 242.3 236.8 227.5 235.5 244 260.9 272 276.3 282 292.7 314.8 328.4 345.2 372.1 390.8 413.4 426.2 461.5 500.1 525.3 537.4 513.6 502.5 477.3 456.9 439.4 424.7 413.8 397.5 376.5 364.9 356.2 332.7 315.1 296.3 276.2 259.5 239.2 220.1 200.5 180.5 156.2 132.4 116.6 117.9 119 122.6 127.3 132.5 141.7 148.7 163.8 174.8 193.2 203.9 220.2 235.9 253.4 273.2 298.9 324.6 347.9 374.7 403.9 425.4 448.2 477.5 516.8 546.4 566.8 592.8 620.4 640.4 659.5 691 719.2 734.1 763 788.3 805.1 810 817.8 823.3 823.7 820.3 819.7 819.8 824 792 775 756 753.2 737.2 674.3 642.1 621.7 602.8 583.6 567.8 554.1 545.2 540.4 543.2 549.8 553.2 558.7 566.3 566.6 561 557.5 563.3 549 551.2 561 576.5 592.1 614.7 628.3 638.6 640.9 648.4 652.6 646.6 648.9 669.5 675.2 645.8 650.6 656.4 661.3 635.5 598 567.9 547.2 528.4 516.5 495.6 472.8 441.4 423.1 394.7 377.7 360 348.3 335.1 325.6 314.2 308.2 292.3 277.6 263.2 247.8 230.9 212.5 185.9 166.9 145 124.4 109.4 95.1 85.6 62.9 35 23.6 14.7 12.8
85.1 95.1 105.5 120.1 137.9 148.6 165.9 181.1 192.5 205 220.5 234.8 248.8 259.4 272.8 282.5 291.7 302.1 316 334.7 339.3 342.2 337.5 332.4 327 319.3 314 302.5 294.7 285.9 281.8 280.2 272 262.8 253.3 243.1 245.7 249.9 258.2 267.8 282.6 286.7 292.4 308.8 333.7 354.9 372.2 393.7 416.5 431.8 454.3 487 533.8 549.1 545.9 522.9 508.2 488.4 464 449.4 432.3 415.4 399.1 386.3 367.2 354.9 340.1 322.2 306.3 288.5 268.8 248.8 227.4 209.4 191 166.4 146.7 123.9 116.3 118.3 121.3 125.1 129.5 140.5 148.4 156.7 171.9 181.8 194 208.2 225.1 247.5 271.5 294.7 318.7 340 367.1 399.1 417.5 445.2 473.7 512 549.5 577.3 602.5 614 643.9 660.7 683.9 707.5 732.5 763.8 793.8 832.6 836.2 841.6 845.9 847 843.5 843.2 854.3 791 759 745.9 735.3 730.6 711.8 673.4 644.1 618.5 595.9 582.2 564.2 559.4 543.6 537.8 532.7 536.8 541 540 539.6 536.8 547.8 547.1 544.3 531.5 535.7 546.6 556 565.1 580 608.9 614.5 616.2 623.2 613.7 622.8 626 632.4 643.7 633.7 639.9 642.1 637.3 623.9 595.1 574.5 547.8 525.3 510.9 495.6 474 442.8 417.9 396.7 380 358.5 339.6 329.2 319.4 309.4 283.4 269.3 267 254.4 237.2 217.3 203.3 179.4 161.8 134.9 115.6 102 91.3 74.6 48.5 22.9 15.6 14.7 11.9
94.2 106.8 121.3 133.9 149.5 166.2 184.1 199.5 213.2 225 240.4 255.5 270.3 284 298.5 307.1 318.2 324 335.3 345.5 354.5 364.6 363.6 355.8 349.5 343.1 334.1 324.1 313.8 307.4 307.5 302.6 292.4 279.1 266.8 259.5 259.2 251.9 268.9 277 295.1 302.4 311.3 326 354.5 369.7 397.4 415.9 434 457.5 479.2 514 561.1 569.9 552 538.2 521.2 500.2 475.9 458.9 444.4 424.7 404.2 387.6 371.6 357.7 345.4 329.1 312.8 297.1 277.2 256.8 237.9 219.1 201.4 176.6 153 131.8 116.5 115.7 118 123.9 127.1 134.3 141.9 148.7 157.1 167.3 177.6 195.5 218.9 239.5 265.1 287.1 308 332.6 361.7 390.7 409.9 438.4 471.7 508.5 547.8 586.2 601.8 611.5 638.4 656 685.3 707.5 727 760.5 794.1 823.3 838.9 851.9 868.4 871.7 866.2 870.1 847.8 785.5 736.7 719.5 715.2 706.2 695.7 684.7 644.7 619.8 594.2 586.4 573.4 559 551.3 538.2 527.9 526.5 525.8 527.2 525 530.3 538.7 529.1 513.9 516.3 517.4 529.4 536.9 546.3 554.5 567.3 577.5 589.3 595.2 596.8 597.1 600.8 607.6 614.1 618.9 627.2 634.6 632.8 613.5 590.7 572.4 547.1 523 498.1 485.9 459.4 433.7 411 393.6 383.3 357 338.1 329.1 314.3 299.7 277.9 248.7 259.8 247.3 231.9 206.7 197.3 171 154.6 128.7 106.9 95 80.6 56.2 30.3 21 15.4 14.1 12.2
109 126.9 137.3 152.7 170.1 186.8 200.8 216.9 231.3 244.5 259.8 275.1 288.6 309 320.9 337 343.4 350.1 360.6 373.5 378.1 384.1 383 380.3 372.2 362.5 351.7 343.1 332.7 321 326.7 320.3 310.4 293.8 279.7 271.7 265.6 255.7 270.3 286.9 298.8 312.6 326.1 346.4 368.3 395.4 422.6 436.7 451.1 476 501.9 552.6 576.5 570.7 573.6 552.2 540.3 516.2 492.8 472.2 452.4 437.5 419.3 394.4 377.8 362.4 349.2 335.4 322.8 303.4 283.4 263.1 246.6 229.4 207.7 190 166.1 145 127 114.4 113.3 118 120.8 126.5 133.8 139.9 151.1 159 170.1 188.8 208.1 232.7 256.7 277.5 301.8 326.9 353.9 380.9 399.9 434.2 469.5 504 551.7 577.9 590.6 609.3 631.9 657.4 680.1 705.3 727.8 758.2 792.6 818.9 836.6 850.9 863.8 859.3 876.7 854.5 812.4 764.5 734.5 707.7 690.5 689.4 675.8 662.5 627.8 606.2 587.3 584.7 564.7 557 558.4 547.6 536.5 522.5 509.8 513 517.2 518.6 518.5 503.5 496.6 500 508.8 516.3 521.7 530.8 536.9 544.2 556.1 563.5 572.1 571.3 571.7 581.8 588.9 595.5 602.6 611.1 621.1 639.6 624.3 588.9 563 541.8 515.4 493.7 469.7 454.5 426.5 411.7 387.6 378.3 348.1 333.1 318.3 309.2 289.7 267.6 238.6 237.7 235.5 229.7 200.7 176.1 165.9 139.8 119.2 97.4 84.4 63.1 36.4 25.3 16.2 14.4 14.1 14.2
126 138.4 155.7 173.7 188.3 203.9 217.4 230.9 247.5 261.7 277.5 297.2 314 326.7 342.3 356.5 367.4 372.8 389.5 399.8 401.6 403.5 408.3 405.7 397.8 386.4 385 362.3 349.8 343.5 344 339.7 324.6 306.6 292.9 278.9 274.3 271.2 272.6 290.7 305 318.6 336.5 361.7 382.2 412.9 433.5 452.2 474.6 498.5 529.2 568.5 585.3 581 586.9 575.7 561.6 544.9 505.1 488.3 467.6 439.5 423.1 409.7 381.2 367.9 356.1 339.9 323.5 312 291 273.4 254.6 235.9 216.7 195.7 175.3 151.1 134.6 116.3 112.8 114.4 115.1 117.9 124.4 128.6 137.2 150.5 161.1 173.6 199 221.8 249.2 273.2 294.6 319.3 346.2 366.4 392.9 425.4 462.6 505.2 549.1 563.9 592.1 609.4 631.8 657.7 684.1 700 726.1 757.8 788.4 819.1 830.1 846.2 853.7 843.6 852.3 854 816.1 768.5 729.4 707.6 686.5 670.5 658.6 642 635.5 608.7 589.6 572.5 566.4 557.2 556.1 556.5 542.3 530.2 514 503.1 500.3 495.4 494.7 492.7 489.5 491 495.6 501.7 511.1 517.6 524.2 525 531.5 545.7 551.3 557.3 558.6 566.5 572.1 582.4 587.5 592.9 600.1 617.3 619.2 601.6 558.2 531.3 505.2 489.8 466.4 445.9 425.8 405.4 376.8 358.5 344 326.3 310.6 299.1 281.9 267.6 231.4 219.9 220.3 217.5 191.2 165.4 144.7 125 108 90.6 69.4 44.6 26 19.5 13.9 13.7 14 14.6
141.4 156.4 173.3 188.4 204.8 221.4 233.4 246.1 263.2 276.8 304.5 320.7 330.7 350.8 362 374.5 386 390.8 407.4 419.1 418.4 425.8 429.8 427.3 416.7 419.6 401.7 384.2 370 361.7 356.4 348.9 334.3 322.9 308.1 294.6 285.7 282.3 282.8 296.3 313.1 329.1 349.8 378.9 407.7 424.8 446.7 470.2 492 526.7 556 584.2 593.9 598.8 598.2 589.6 569.7 545.2 513.3 491.8 480.6 443.2 419.6 411.9 386 371.9 361.2 345.8 327.6 310.4 292.2 278.2 263.3 241.6 219.8 198.8 181.1 157.2 144.2 124.3 111.7 111.9 112.4 112.3 115 121.5 130.1 139.6 148.1 166.9 191.8 212.9 242.1 266.3 285.3 310.8 332.6 355.1 385.2 414.3 443.9 497.7 537.7 562.6 583.4 609.1 628.6 655.5 675.6 695.7 715.7 749.8 773.3 800.3 826.8 836 834.3 824.8 833.7 823 825.9 787.9 734.9 703.6 687.1 672.4 657.2 642 637.7 612.6 593.4 577.7 572.3 564.4 560.3 555.6 548.2 534.8 518.3 505.9 496 490.2 489.1 487.5 486.9 486.4 487.6 489.8 497.4 505.2 509.7 512.2 515.7 523.5 531 538.3 543.9 551.5 555.3 564.7 568.9 574.9 581.5 596.2 604.7 592.9 548.9 526.2 500.1 483.3 463.9 432.5 418.9 389.9 366.5 343.8 336 313.5 303.8 288.5 274.1 250.7 220.4 197.5 195.6 189 173 150.1 129.6 111.3 94.4 75.3 49.2 26.2 19.6 14.2 13.1 13.2 13.9 15
158.4 174.1 189.1 204.7 219.7 235.1 250.7 260.9 276.5 296.3 326.3 339.5 354.7 371.4 383.5 394.7 402.4 406 424.7 430.3 443.3 454 456.1 447 445.9 444.7 419.2 395.5 379.7 377.4 370.9 365.6 346.2 345.7 333.8 315 300.8 293.8 295.5 302.2 324 339.5 365.2 391.2 417.5 433.4 458.4 482.9 509.3 542.3 574.3 597.2 609.7 611.6 611.2 592.2 566.4 546.3 520.2 500.2 472.1 441.8 424.9 413.7 391.4 374.9 365 348.3 331.1 315.1 301.1 282.9 270.3 253.9 230.6 205.6 185.4 164 146.7 127.8 115.6 110.4 109.8 109.1 112.1 114.6 122.9 130.4 144.1 162.3 178.7 201.9 228.8 252.5 277.1 299.2 323.8 347.4 370.8 402.9 432.8 477.8 527.3 564 587 612.1 639.3 654.7 666.3 679.7 710.8 741.1 769.6 796.7 807.3 812.9 809.6 800.8 807.3 802.7 789.5 809.4 735.9 709.7 684.9 674.9 663.2 650.1 640.2 625.7 598.8 584.3 578.9 572 567.3 558.5 550.1 538.5 523.7 510.2 499.4 491.7 482.8 478.7 478.1 477.1 479.3 481 485 490.4 495.4 496.6 505.1 506.4 508.8 521.3 528.5 535.7 538.6 546.3 549.5 556 562.4 573.3 584.5 577.8 541.6 502.7 491.9 470.2 449.2 425.8 409.3 377.8 351.9 333.5 317.9 305.6 295.3 283.2 263.8 240.3 213.8 189.6 172.8 171.4 154.3 133.5 114.3 94.7 76.1 57.8 34.8 18.2 14 13.2 12.6 12.6 12.3 14.4
177.2 192 204.4 220.3 235.6 249.2 267.9 283.1 296.2 320.6 341.9 356 369.1 389.1 396.1 409.6 421.8 426.4 436.7 448.9 458.6 463.2 466.2 463.1 469 463.7 431.5 407.4 396.4 393.9 386.1 377.9 371.3 377.6 360.9 341.3 324.5 313.5 307.2 307.1 330.1 353.8 369.6 394.2 420.2 441.3 463.3 490.2 519.5 554.7 585.4 607 624 632 621.8 607.2 575.9 562.7 526.8 496.5 471.6 445 431.1 414.9 399.3 382.9 369.9 356.2 341.2 322.5 307.1 290.2 278.6 261.6 241.2 218.5 189.9 169.6 152.9 131.3 121.1 112.6 109.1 106.5 107.7 110.2 115.7 122.9 134.7 151.1 168.3 189.5 215.8 245.3 265.1 289.3 316.5 337.6 359.5 391.1 421.9 459.3 515.2 545.9 582.2 610.2 639 652.8 659.7 670.1 705.2 731.9 754.9 776.9 788.5 792.5 787.5 779 780.5 774.9 771.3 762.1 758.1 729 695.8 681.8 675.1 668.6 663.6 643 612.4 597 587.7 575.1 573 563.8 550.1 542.6 530.6 518 507.3 495.8 486.9 482 474.1 468.7 470.6 469.1 477.6 479.4 478.7 482.1 484.5 492.6 496.6 498 504.8 515 522.3 526.5 526.8 531.9 541.8 559.1 562.8 532.9 517 485.7 475.9 449.6 427.5 411.1 404 368.7 338.6 321.8 309 299.7 287.5 274.5 254.7 233.4 211.2 186.6 167.6 159.2 137.1 117.8 98.7 80.5 61.7 42.1 26.3 14.3 12.6 12.7 12.5 12.3 11.8 12.1
189.7 204.3 220.6 235 248 267.7 287.5 300.6 321.8 341 361.4 374.7 391.8 401.7 408.9 426.2 436.8 442.8 450.5 466 474.3 477 478.2 483.6 492.4 483.4 447.9 424.5 416.7 409.9 400.3 393.8 393.9 397.2 395.9 371.4 355.6 339 335.6 333.8 341.2 362.7 386.3 401.6 421.4 452.5 472.8 495.7 527.6 562.2 593.1 623.2 640.2 644.7 638.5 612.3 590.2 548.2 520.3 497.7 470.5 451.8 431.5 419.2 405.7 381.6 377.3 359.9 344.1 326 316 304.4 288.7 271 248.8 223 195.9 181 157.1 136.1 124.2 113.6 110.5 112.4 106.6 111.2 114 125.8 133.2 143.5 159.8 185.3 213.2 237.7 257.5 282.5 306.3 330.6 352.4 381 411.7 443.2 491 522.2 564 603 618.8 636 634.6 653.9 693.1 716.5 729.4 753.5 761.1 758.4 753.6 757 768.7 768.9 760.7 736.5 728.8 719 707.5 690.3 690.1 693 686.4 668.2 632 609 597.9 581.3 575.5 565.5 554.8 543.3 535.9 525.3 513.1 502.3 492.5 483.4 475.4 469.1 459.1 463.1 466.5 464.4 464.8 467.1 469.3 478.2 481.3 482.3 483 493.8 498.6 503.9 507.4 511.9 520.2 528 531.8 499.9 484.7 471.6 456.1 427.4 412.2 391.9 367.6 347 337.6 310.5 301.6 295.1 278.9 263.9 245.5 222.7 201.3 178.3 161 138 114.1 97.5 87.4 69 49.3 36.6 16.2 14 12.7 12.4 12.2 12.5 12.7 12.3
203.2 220.6 237.5 251.1 264.6 287.6 302.7 313.6 347.3 360.5 374.8 386.2 401 414 426.2 436.9 448.6 457.1 469.5 478.2 486.9 491.2 499.9 506.5 508.2 483.3 452.5 437.6 431.9 424.7 414.2 411 417 418.3 417.6 404 382.9 388.8 374.9 368.8 359.4 383.9 401.2 416.1 432.8 458.8 479 504.6 529.2 568.7 604.2 634.1 649.5 634.3 613.5 597.4 561.8 536.8 509.2 491.5 479.4 459.7 440.6 422.3 415.3 395.7 377.7 368.5 352 333 322.1 312.9 295.3 278.8 262.5 233.2 204.1 182.4 167.9 144.6 130 114.6 109.5 108.9 105.2 106.2 113.3 121.3 125.4 136.8 151.8 174.9 201.6 229.2 250.2 274.7 297.1 321 344.4 369.7 398.9 433.6 469.7 503.2 547 588.7 597 613.1 617.2 632.6 672.1 690.5 709.3 717.9 729.7 732.2 732 730.2 740.1 736.2 725.2 713.7 705.1 691.5 685.8 684.3 693.1 697.4 700.5 687.2 652.4 621 604.1 590.2 580.2 571.6 561.3 550.8 540.9 532.2 522.1 511.9 500.8 490 478.3 469.3 460.6 453.2 453.9 450.3 448.9 448.2 454.1 460.9 467.1 467.8 470.6 472.3 478.2 486.7 487.3 491.1 501.9 497 488.3 480.5 464.6 452.6 435 414.8 396.2 380.9 357 334.3 316.3 302.4 297 284.2 270.4 254.8 233.4 213.5 191.4 169.4 154.5 134.6 114.5 89 73.5 57.8 46.4 24.5 17.8 14 12.6 12.2 11.8 11.7 12.3 12.1
216.8 233.4 252.8 265.4 280.5 302.5 314.4 329 363.4 376.5 388.2 396.4 414.5 427.7 440.4 451.1 463.1 474.4 482.4 489.8 497.7 506.9 518.1 523.8 521.4 491.1 459.5 453.2 443.7 435.5 430.1 430.3 438.6 443.2 448.7 439.6 416.4 415.8 417 408.4 376.4 403.2 419.3 424.5 448.6 468.3 493.3 516.5 536.6 567.9 611.2 637.5 653 654.5 620.5 594.5 566.8 536.8 512.7 490.2 481.5 464.5 447.5 425.7 416.4 399.5 381.1 370.6 354.1 339.8 327.9 316.6 300.2 286.6 270 250.3 212.9 183.6 169.7 150.1 135 118.9 109.8 107.1 105.1 101.8 111.7 113 120 128.8 146.4 167.9 194.2 218.3 242.5 264.8 289.1 314.2 336.7 362.6 389.7 421.8 458.5 489.5 524.2 555.9 589.5 596.2 606.3 615.5 643.5 668.2 679.9 690.6 703.8 713.9 713.3 707.4 707.8 702.7 697.4 689.3 680 672.7 671.2 669.1 671.8 695.1 680.6 681.1 665.4 637.6 626.1 601.3 593 582 566 556.3 547.9 539.4 528.6 517.6 506 494.6 484.9 473.4 463.9 452.6 443.5 442.6 440.6 437.9 436.2 444 453.4 451.2 449.5 455.4 460.1 466 464.7 470.7 483.1 476.9 467.7 459.9 450.7 438.4 419.1 401.2 371.2 360.1 348 323.4 307.4 300.4 293.9 278.6 263.9 246.5 224.9 203 180.7 161 146.3 126.2 107.4 88.5 71 54.1 37.1 21.6 18.8 15.3 12.5 11.9 11.4 11.1 11 10.9
228.8 243.4 266.6 279.8 295.8 314.8 330.7 351.9 372.4 389.9 400.1 409.9 426.8 440.1 458.5 472.5 480.8 488.8 495.4 504.8 515.9 527.5 540.8 544.8 542.5 499.1 469.5 464.1 450.9 444.9 447.8 457.4 461.4 470.5 473.9 465.6 441.9 439.5 441.8 421.4 402 423.6 435.5 441.1 451.1 474.2 492.4 521.8 536 563.3 615.6 639.5 647.7 644 633.8 598.7 564.8 544.2 521.2 498.4 475.3 461.5 452.9 433.3 415.5 399.3 382.7 373.8 358.5 343.7 329.8 317.8 308.5 289.9 266.6 239.7 210.1 185.9 169.9 154.8 136.2 121.7 114.4 107.2 102.8 102.3 105.7 107 113.7 123.3 138.1 159.8 183.5 210.1 236.4 259 279.9 298.8 329.1 357 381.9 409.6 451.7 481.7 515.1 548.9 576.3 596 585.3 597.5 610.9 639.6 652.1 670.7 673.6 675.1 677.2 677.5 680.3 683.2 676.3 666.2 662.1 651.7 650.7 649.5 646.9 651.7 663.7 663.6 661 658.9 640.6 620.7 598.3 587.1 574.7 561 554.6 546.5 535 521.5 511.1 500.7 490.5 480.6 468.7 458.5 447.4 433.8 430.4 431.9 425.7 433 437.3 435.3 432.8 434 442.6 445.6 447.3 450 459.3 459.3 454.1 443.5 434.5 416.1 402.9 383.1 358.2 342 322.9 309.9 299.8 293.6 288.4 274 259.3 239.9 217.9 196.6 171.5 154.3 134.8 118.7 101.6 88.7 71.1 57 40.6 21.5 16.3 12.9 11 11.4 10.4 10.4 10.3 9.2
243 260.8 280.6 293.7 310.7 331.6 345.2 365.8 388.9 400.9 413.2 423 441.5 457.6 474 485.1 496 506.1 514 521 534.1 545.3 560.6 568.6 553.3 510.5 487.9 483 461.1 457.5 471 481 488.2 498.5 503.7 483.7 468.3 470.8 454.8 416 420.4 439.2 446.7 455 464.1 481.3 504 525.5 541.3 568.9 612.7 643.8 650.8 637.5 623.9 600 567.2 544.1 533.7 514.2 484.3 463.1 448.5 431.7 420 400.3 386.9 374.3 362 348.8 337.2 328.7 323.4 298.7 273.1 241.7 218.7 197 173.5 154.2 141.7 124.9 116.3 106.3 102.2 101 102.3 103.7 109 121.8 131.6 155.1 175.9 201.7 223.5 249.7 268.3 286.3 323.3 350.4 377.1 403.9 434.2 476.7 507.5 535.6 563.6 585 571.1 586.1 602.1 608.5 619 639.8 642.2 649.2 649.6 652.3 657.2 660.3 650.1 648 638.8 626.4 626.6 628 624.6 630.2 639.2 644 649.6 656.5 647.2 632 601.9 590.5 581.6 575.5 567.4 556 543.9 526.7 516.6 507.3 497.2 487 475.2 464.8 452.8 442 432 420 420.2 416.6 420.4 419.3 415.8 414.8 420.6 421.8 428.2 433 436.1 438.6 435.3 427.7 417.5 401 384.2 367.9 346.7 327.5 311.7 304.2 298 290.9 281.8 263.4 247.6 227.1 208.1 188.6 165.3 146.5 127.9 114.8 97.5 81.8 67.2 51.9 34.8 18.2 15 11.5 10.9 10.7 10 9.5 8.8 7.4
253.9 273.5 286.6 307.4 324.3 342 358.2 378.3 400.8 410.5 424.3 439 454.5 474.5 488.6 502.2 508 520.1 529 538.7 551.4 569.2 581.5 581.9 561.7 522.3 503.4 502.1 486.9 484.5 495.1 502.4 512.7 527.4 532.8 507.1 492.1 489.9 455.1 421.6 433.1 448.2 456.5 467.3 478.9 493.2 513.7 534.5 555.8 578.7 627.5 644 649 642 622.9 597 565 539.5 529.4 513 489 466.8 450.7 434 416.6 402.5 389.5 378.5 366.9 355.4 348.1 343.6 322.1 299.5 280.4 253.2 230.5 203.7 181.7 159.6 140 124.8 114.7 106.9 99.5 100.4 99.8 101 105.6 116.6 127 144 164.5 191.5 216.4 234.5 259.6 280 315.8 341.5 368.3 397.1 426.9 468 496.1 525.3 553.7 557.9 553.9 567.1 590 596.6 598.4 599.7 612.1 614.7 618 625.9 632.9 633.1 630.8 623.6 614 599.2 603.6 605.1 608.1 609.3 619.4 634 632.8 628.8 624.1 624.8 599.7 594.5 592.3 589.3 583 567.9 551.2 533.9 519.4 513.3 503.9 495 483.3 473.4 460 446.8 434.7 424.2 412.5 403.8 406.1 403.7 401.1 400.9 403.1 402.9 409.9 416.4 418.4 417.6 414.4 407.8 398 384.2 374.7 352.4 332.9 315.4 303.1 297 291.3 283 269.4 253.8 235.8 217.3 197.6 179.2 156.8 138.3 123.6 111.4 95.9 81.3 67.2 49.6 31.3 12.5 11.1 9.3 9.5 9.8 9.5 9.5 5.7 5.6
262 278 300.8 323.4 335 353.9 369.5 389.6 408 418.2 435.3 448.1 473.4 488 500 509.7 523.3 533 541.5 558.2 578.5 591.9 605.5 602 565.2 533.4 526.5 521.6 509.4 514.2 519.6 522.7 534.4 548.1 546.4 533.4 521.1 492.9 454.6 428.1 441.6 457 464.9 477.5 491.2 512.6 534 558.5 572.5 594.1 632.2 645 639.9 629.5 624.3 596.3 555.4 532.5 515.7 502.9 483.3 466.6 449.8 438 424.1 407.3 394.9 383.7 370.8 359.7 346.8 339.5 317.8 308.6 296.7 267.4 245 219.2 194.8 167.9 147.3 130.9 115 105.1 98.4 99.3 96.9 98.2 105.4 110.1 123.4 137 157.7 176.9 203.8 224.9 246.6 270.5 302.7 330.1 356.6 384.9 423.8 451.3 486.4 501.3 545.3 545.3 540.5 558.5 571.4 580.1 583.4 582.6 581.6 585.9 594 603.6 615 608.3 601.5 601.1 600.2 583 577.1 577.6 583.6 589.8 596.2 618.2 622.2 608.9 602.3 600.7 594.8 595.7 599.1 601.5 601.4 581.7 556.4 541.1 526.4 517.5 510 501.9 490.9 479.6 468 454.9 440.4 427.9 416.5 406.8 391.4 392.5 391.3 389.3 388.5 386.2 392.1 397.4 399.7 398.9 397.6 390.7 380.1 367.5 357.3 337.7 324.6 306.3 294.2 293.9 282.7 274.2 258.1 243.1 227.9 206 187.6 168.2 147.4 132.9 120.3 108.1 92.2 79.9 64.2 42.4 25.8 10.4 5.9 7.4 6.3 8.9 8.7 8.5 4.6 5.1
264.5 285.9 306.4 327.4 344.1 363.8 374.1 391.3 405.1 428.1 445.1 456.5 485.8 495.5 508.3 518.1 533.2 547.4 558.3 582.2 603.2 611.3 617.2 613.7 581.4 561.8 550.5 551.5 538.8 545 546.4 551.7 558.2 563.5 563.4 542 526.2 509.2 453 436.1 447.6 463.6 474.4 486.9 509.2 529.9 557 572.9 591.8 610.1 645 650.7 642.2 631 609.2 588.1 561.9 538.8 513.3 491.1 484.7 467.9 451.8 436.1 426 412.5 402.3 387.7 377.6 365.1 350.6 334.6 324.5 312.5 301.8 282.4 263.1 236.3 210.2 183.1 159.6 137.6 123.2 108.3 100.9 97.6 98.7 98 104.1 105.1 114.6 131.2 149.8 168.7 195.6 213.5 233.3 258.4 282.8 319.3 344.9 376.2 413.6 442.2 471 488.6 509.2 518 530.6 554.9 549.5 566 564.7 563.5 565.6 563.2 569.7 581 594.2 587.3 574.4 569.6 567.3 560.4 558.2 561.7 562.9 560.7 566.1 599.2 611.6 603.1 593.7 588.7 588.7 592.9 604.3 610.1 602.5 596 564.4 550.1 538.2 524.3 515.6 507.6 496.8 485.2 473.4 461 447.8 432.9 420.6 408.3 397.5 382.7 381.5 378 377.8 373.8 378.1 381 382.3 381.5 378.8 375.6 363.3 346.7 342.6 324.2 309 301.6 289.9 274.3 269.5 263.9 248 238.7 222.4 199.4 179 158.8 143.6 129.5 118.1 104.4 90.2 78.7 60.8 38 19.5 10.3 5.2 5.6 4.9 5.4 7.1 7.4 4.2 4.9
262.2 285.9 307 327.6 344.3 363.5 383.1 391.9 413.6 438.2 453.5 466.3 487.6 507.9 520.7 527.3 540.5 558.8 573.1 605.6 616 626.9 634 629.6 598.2 588.7 584.9 583.9 581.8 576.5 574 575.8 585.4 590.3 575.5 547.5 519 506.3 456.4 447.9 457.8 471.4 484.8 505.2 528.5 548.6 577.3 600.3 608.6 629.6 650.2 645.6 634 621.1 604.6 590.3 560.4 537 502.6 486.4 480.3 463.2 455 445.2 431 418.7 407 395.5 382.9 370.3 357.6 343.5 331 319.1 306.5 293.2 280.3 257.6 226 200.5 177.1 152.5 135 119.3 109.4 101.3 98.9 96.9 100.7 101.9 108.6 129.7 140.3 161.4 185.7 206.2 224.9 246.9 264 296.5 325.8 366.5 396.8 424.4 464.5 491.1 501.5 492.1 515.5 533 541.3 544.5 553.4 556.5 554.7 540.2 555.8 559.9 560.1 556.6 550 545.9 539.8 538.6 542.3 549.5 547.5 537.2 542.2 575.4 592.5 591.7 587.7 583.8 583.1 587.7 597.1 610.1 598.9 597 579.9 561.3 550.3 535.6 523.1 512.8 502.2 491.3 478.7 465 451.8 437.9 423.8 411.3 400.1 387.1 373.3 371.2 366.6 363.7 362.6 368.5 364.8 365 364.4 359.1 348.3 334.1 321.6 308.9 306.8 296.8 282.9 264.8 255.4 257.5 246.2 228.4 220.9 196.5 170.8 152.6 141.2 129.7 115.8 101.6 86.4 71.6 48.8 32.2 11 7.7 4.3 4.2 4.1 3.8 4.5 7.6 4.3 4.8
266.7 277.2 301.4 319.5 344.6 368.5 388.7 399.2 412.5 446.9 461.3 473.6 485.5 511.1 520.9 532.9 548 569.8 588.6 618 633.4 641.1 645.1 645.1 621.3 614.8 614 609.3 607.2 601.1 598.8 601.8 608.1 601.8 569.2 548.5 511.1 482 455.5 463.1 472.8 481.9 497.5 524.3 549.3 572.3 600.2 618 629.7 645.8 652.2 647 632.3 611.4 584.6 563.9 540.8 525.7 503.6 484.3 476.4 467.9 460.4 450 437.8 425.6 415 400.5 387.2 374 360 349.9 338.4 322.7 310.2 299 286.1 261.4 235.1 214.6 197.1 174.1 150.3 132.8 118.1 107.9 99.9 95.2 99.6 104.4 106 116.7 134.1 146.3 169.6 190.7 212.7 234 249.3 271.1 298.9 329.2 359.4 396.4 440.9 468.3 467.3 453.9 491.7 518.8 527.6 522.3 540.4 541.8 535.1 517.6 525.2 528.3 528.2 527.6 525.6 517.1 515.1 517.6 517.7 521.6 524.4 514.4 519.7 551.5 567.7 571.9 573.9 573.7 573.1 577.3 586 593 588.5 596.4 585.8 573.1 561.3 546.4 531.9 519.4 509.1 497.4 484 470.5 457.2 442.7 427.7 414.8 403.1 391.1 377.7 365.2 353.1 354.8 353.2 354.3 354.6 348.2 349.7 341.9 329.1 325.2 303.6 300.4 296.4 285.9 278.5 255 242.2 237 225.6 213.7 200 182.2 163.6 148.8 137.9 126 113.9 94.8 80 59.7 41.9 25.4 10.7 4.8 3.7 3.6 3.1 3.3 2.9 2.6 3.8 4.6
285.2 297.9 308.7 319.8 335.2 363.5 391.4 406.9 418.4 432.8 453.4 480.3 493 511 528.3 539.4 557.1 580.7 602.6 629.7 644.9 653.3 658.7 660.7 657.4 639.7 634.2 633.4 635.6 626.5 625.9 628.6 623.6 597.8 560 527.5 499.2 473.1 475 481.7 484.9 493.2 513.3 548.6 568.2 589.6 614.1 634.1 647 656.3 656.6 647.6 635.4 615.8 581.6 553.8 533.9 516.4 500.7 488.1 480.7 471.6 462.6 451.7 442.5 430.2 418.2 403.8 391 379.2 365 352.8 341.6 330.2 317.1 300.6 298.3 276.3 252.5 230.7 211.3 196.5 167.2 142.8 128.4 112.8 101.9 99.2 93.6 97 99.9 105.2 124.5 138.4 159.1 182.4 200.4 220.7 236.1 260.7 275.7 298.1 325.7 362.6 400.7 426.5 411 424.7 459.6 489.2 509.7 510.1 510.1 521.8 503.5 504.2 507.6 502.7 500.2 499.1 497.3 493.5 494.7 495.6 497.3 506.1 507.4 497 495.3 518.6 544.1 553 550.9 558.9 559.8 564.7 572 575.3 573.8 576.6 576.6 568.6 560.3 550.2 541.6 532.6 516.6 503.2 490.6 476 462.1 447.7 432.2 416.9 404.2 392.1 379.1 366.9 351.9 341.1 340.9 343.1 340.8 337.8 334.9 328.2 315.4 304.2 293.8 289 284.4 276.2 261.1 243.4 234.7 220.2 208.4 200.2 187.7 172.7 151.6 142.7 132.8 118.5 106.6 87.9 70.4 49.8 33.8 16.3 9.2 3.4 2.8 3.2 2.6 1.8 2.5 3.7 3.8 5.4
300.2 311.2 322.8 333 345.9 361.7 376.7 393.9 421.4 432 446.8 462.3 500.2 513.4 525.6 547.1 555.1 591.5 611.8 637.4 649.2 660.8 661.8 670 677.4 681.3 652.8 655 656.8 649.9 648.1 649.2 635.5 597.4 547.4 521.8 493 492.2 496.8 501.4 499 512.9 537.7 560.4 587.1 602.2 630.9 651.2 672.5 681.6 669 656.6 634.9 604.8 577.7 562.2 540.7 516.3 500.8 488.8 480.4 472.1 463.8 452.9 442.8 432.9 422.2 408.3 397.7 384.9 372.6 357.5 348.1 336.3 321.7 306.6 286.5 267.8 254.8 235.1 222 206.4 179.1 160.5 137.7 126 110.1 100.6 95.7 94.6 98.3 100.6 110.5 128.8 146.8 166.5 187.1 206.2 224.6 243.2 263.8 280.7 296.9 328.6 366.8 369.1 378.4 394.5 430.6 455.5 459.4 474.5 474.6 476.2 477.1 492.4 493.1 489.4 480.1 477.4 475.8 476.6 480.2 481.7 479.5 479 476.8 475.2 472.6 481.3 513.8 524.3 530 538.3 540.5 547.6 555.8 558 558.6 558.3 559.2 555.1 549.1 546.1 541.1 538.5 524.9 510.6 498.1 483.6 468.4 452.6 434.3 418.8 405.5 391.6 379.2 364.4 352 337 324.4 333 329.3 327.9 319.2 308.6 299.6 290.8 281.7 272.7 270.1 263.7 245.2 226.8 216.7 209.4 194.7 192.3 173.5 152.5 144.8 137.1 126.1 114.9 93.2 84.4 59.4 41.8 28.1 11.1 3 2.4 4.6 4.5 2.1 2.7 3.2 3.7 4.3 7.4
302 316.2 334.2 345.9 358.5 374.8 388.2 401.8 412.3 435.4 449.3 464.8 495.8 514.8 525.3 543.8 559.1 600.6 607 636.5 646.3 654.2 657.8 665.3 680.6 691.3 676.9 671.3 671.9 665.2 667.3 664.3 646 601 561.7 524.2 510.6 513.1 520.9 519.1 527.9 538.6 560 578.3 606.2 621.2 646.2 678.7 696.6 700.1 687.1 674.7 637.3 601.5 580.9 561 547.2 523.5 510.1 489.7 480.5 472.8 465.4 455.9 444.4 435.1 424.9 413.9 402.2 389.8 380.6 369.1 355.3 342.8 333.9 318.3 300.1 268.7 256.1 238.1 224.8 207.1 186.9 167.8 150 133 110.7 99.3 95.7 93.9 93.6 94.5 97.7 118.8 135.1 153.9 178.6 197 213.5 228.1 247.3 264.9 280 297.3 320.7 333.5 356.4 369 383.1 418.5 435.4 439.8 441.5 445.1 454.8 473.5 471.3 458 461.8 459 460.8 461.4 461.3 461.8 463.4 464.8 464.2 456 455.7 454.1 490 502.8 511.2 516.6 520.1 526.4 536.2 538.8 541.9 543.1 542.3 540.5 542 540.4 539.6 541.1 534 517.6 505.1 490.7 474.4 456.2 438.4 419.9 405.7 390.8 376.4 362.7 349.7 336 322.9 314.8 317.1 311.7 305.3 297.3 287.1 279 268.3 259.7 251.8 243.3 226.6 215.4 201 196.8 189.3 184.2 160.3 145 140.4 131.6 119.4 102.5 84.7 69.5 51.8 34.5 17.4 5.4 4.5 2.7 1.7 2 -1.4 2.8 4.6 4.2 5.3 9.1
280 309.5 334.8 351.7 369 383.9 406.9 413.1 429.4 425.8 451.7 470.2 483.2 501.4 522.3 543.1 568.6 595.6 605.1 624 629.7 639.8 650.6 650.7 663.9 682.2 680.6 682.3 686.4 687.6 687.2 685.2 670 624.3 589.6 532.4 525.3 534.4 545.5 554.2 563 564.8 580.4 605.3 622.5 652.9 674.6 699.9 712.3 725.6 716.4 690.9 634.4 609.8 583.5 564.5 556.5 533.6 510.8 489.3 482.8 472 461.6 456.9 447.2 438.3 429.3 417.4 408.6 399.8 388.3 376.8 367.7 354.2 342.2 329.5 315 290.8 261.5 245.2 231.8 220.2 208.2 185.3 162.1 140.5 122 108.4 99.7 95.3 93.2 91.9 97 105.5 127.5 141.6 160.9 176.5 188.4 208.3 228.6 246.3 262.6 279.7 295.3 316.5 333.4 346.8 359.5 377.2 397.9 411.6 413.6 418 437 438.5 437.4 439.8 438.6 446 445.6 444.9 443.9 440.8 438.3 440.5 444.9 438.9 445.2 439.8 466.3 478.1 473.5 488.9 501.1 500.8 512.2 518 524.6 525.9 527 529.3 526.9 523.3 522.3 535 536.4 529.1 512.2 493.5 478.5 459.1 441.6 422.3 403.6 388.3 374.1 360.8 348.2 334.2 317.3 312.7 302.1 305.1 295.7 287 278.9 268.4 257.3 245.7 235.7 220.5 207.3 201.3 194.2 184.3 186 167.4 144.2 142 137.2 125.4 109.7 89.5 71.2 56 41.2 24.9 8.9 4.7 1.9 1.7 1.7 1.7 -1.4 2.2 3.6 4.6 6.5 7.8
266.5 296.9 335.3 352.9 367.3 380.4 416.7 427.5 435.9 445.5 456.6 459.3 482.3 497.6 518.1 535.3 557.6 581.2 596.7 595.7 615.6 627.8 638.1 648 664.6 679 686.3 687.8 693 702.2 700.4 693.2 676.6 632.9 597 549.1 546.7 555.2 574.3 583.5 585.4 603.3 613.4 627.7 644.1 679.3 705.5 714.2 733.3 746.6 724.4 693.2 647.3 615.5 591.2 566 554.5 539.4 518 494.9 479.6 475.3 468.7 459.7 451.4 442.2 433.8 425.4 416.4 408.2 397.8 388.5 377 368.2 352.7 334.3 324.3 315.4 267.7 255.6 242.3 237 225.3 200.4 175.2 153.6 130.2 113.6 105 97.2 95.4 90.4 97.2 102 119.5 130.9 144.7 159.6 173.2 190.4 209 225.1 244.5 260.6 272 294.9 308.9 329.5 343.8 357 366.1 373.6 386.8 394.9 416.1 422.9 429.4 423.4 423.2 421.7 426.7 429.2 422.2 420.2 417.2 417.2 420.5 424.4 425.4 424.2 440 443.8 432.6 447.9 476 468.9 484.2 496.2 505.7 508.8 512.2 512.5 508.2 506.9 513.5 523.2 531.7 537.8 517.7 497.4 480.1 461.6 444.1 423.8 404.4 386.1 371.9 357.3 343.1 331.1 316.2 301.6 296.1 291.1 285.2 278.3 264.7 255.2 245.3 234.8 220.5 211.1 200.1 184.5 178.4 170.3 164.8 146.4 133.7 138.7 128.5 117.4 95.8 77.6 62.2 47 30.1 16.4 5.4 3 1.4 0.7 -0.1 -0.9 -1.4 1.1 1.6 4.7 5.9 8.6
262.8 299.1 334.3 354.6 366.4 381.2 407.5 432.4 439 451.1 462.8 471 480.4 500 515.9 528.6 545.1 564 572.7 583.2 604.7 615.2 639.3 647 663.4 685.8 690 688.5 701.5 712.9 709.4 693.9 670.1 629.4 590.3 556.4 564 579 587.7 605.1 619.8 637 646.5 654.8 674.9 706.7 721.5 739.9 754.4 758.1 728.1 696.6 652.3 620.3 597.4 580.5 570.6 561.6 524.4 497.3 490.6 480.5 470.2 462.1 456.6 447.2 438.1 429.6 421 413 405.3 399.9 388.4 377.9 359.6 350.8 332.1 302.6 275.1 264.2 250 243.5 233.1 211.5 186.2 163.4 136.9 123.4 110.1 98.3 96.3 91.1 92.9 95.2 114.6 124.2 135.6 146.7 160.2 170.5 186.6 204.4 225.2 232.7 251.5 268.6 280.3 313.7 327.6 334.2 342.4 351.6 356.9 371.9 391.6 398.4 408.9 409.9 408.4 414.2 408.4 406.9 407.6 403 398 394.7 397.5 402.3 391.8 396.2 418 412.8 407.9 427.8 451.3 453.1 453.9 467.9 481.2 490.3 493.2 492.3 489.4 491.7 491.3 505.1 516.9 527.7 523.3 498 480.7 463.6 445.8 425.7 403.8 384 367.5 351.4 339.4 325.1 311 296.9 286.9 274.1 270.6 264.4 252 242.2 230.4 222.8 208.8 200.9 182.9 174.3 162.6 149.4 141.9 131.5 129.2 135.1 117.9 100.2 84.3 68.2 53.8 38.1 22.4 8.1 2.7 1.2 0.9 0.5 -0.2 -0.9 -1.4 -0.5 0.8 3.2 5.4 10.1
259.4 301.5 334.3 353.1 368.5 383.5 403.5 434.6 446.2 457.9 469.8 479.9 492 492.4 511.9 526.3 546.7 558.9 569.7 574.1 590.5 612.8 629.1 649.7 658.4 676.1 690.5 694 709.1 716 711.9 688.6 654.8 630 591.3 578.3 589.2 598.6 618.3 648.4 668.8 671.2 679.4 692.1 714.5 718.7 739.5 760.6 767.1 743.4 724.1 689.6 669.7 628.9 609.5 590.3 581.1 559.8 533.8 514.3 499.8 490.4 477.7 469.6 457.8 450 440.6 434.3 425.4 419.4 413.9 405.2 396.5 382.8 372.6 350.9 327.6 299.6 283.3 269.6 259.5 248.6 236.1 221.8 199.8 173 146.2 133.6 113.9 105.4 98.9 93.1 91.6 92.3 108.8 118.5 124.6 138.1 146.7 158.2 167 185.8 195.7 213.9 231.4 244.6 259.1 275.8 289.4 308.9 320.6 320.3 330.5 347.4 365.3 381.7 388.6 387.1 389.3 394.7 393 395.6 387.4 386.4 385.3 370 376.8 377.4 367.7 372.5 387.8 388.5 384.9 398.7 409.2 423.4 424.4 443.2 459.2 470.3 474.1 472.1 473.8 473.7 474.1 487.4 494 510.9 507.6 494.5 480.3 464.3 445.2 424.9 399.9 381.3 362.2 348 334.6 320 305 293.6 283.7 268.2 260.7 249.3 242.9 231.4 221.9 207.4 194.3 182.6 173.2 163.7 149.7 143.4 133.5 121.3 121 117.2 100.3 89.7 74.7 61.7 46.2 33.1 13.3 4.9 1.3 0.5 0.2 -0.2 -0.5 -1.4 -1.4 -0.6 0.4 1.5 5.6 12.4
250.6 274.9 323.3 348.5 363.7 380.5 398.2 419.3 441.4 459 471.4 486.5 508.5 513.1 515 525.5 543.2 549.7 563.3 569.3 583.9 607.5 623.8 646.6 661.3 668.8 683.8 697.3 716 716.2 709.1 686.2 655.8 631.4 597.1 598.7 621.8 635.2 657.6 687.2 722.5 709.9 711.6 724.9 737.8 741.3 760.5 786.6 777.4 752.6 713.4 693.4 680.6 649.3 622.9 608 599.9 573 557.2 539.5 512.3 502.7 488.4 481.3 471.2 459.7 456.1 442.6 429.7 427.2 422.1 413.7 404.2 386.9 373.7 355.8 327.8 306.2 294.6 280.4 268.8 255.3 242.1 230.9 211.9 184.7 159 145.3 129.4 116.7 103.7 92.2 90.1 91.4 105.4 109.7 120.7 126.3 133.7 147.4 155.6 166.7 180.6 195.4 210.5 221.6 235.1 247.3 257.8 268 281.2 291.1 296 311.1 323.3 348 366.7 364.5 367.8 369.1 364.1 367.2 358 344.4 352.1 344.9 353.9 352 342.3 343.9 357.6 350.9 368.9 373.3 378 383.4 397.3 410.6 428.7 447.7 453.5 457.3 456.4 458.8 452.3 466.1 479.6 490.2 492.9 489.6 473.3 460.5 443 425 400.4 377.4 358.2 343.9 329.4 314.5 298.4 287.7 279.6 264.6 247 236.4 228.3 219.2 208.2 191 183.5 173.3 160.6 147.9 137.4 128.9 116.9 111.4 106.8 96.6 84.1 74.6 65 53.2 38.6 25.4 8.5 1.5 0.5 -0.2 -0.6 -0.9 -1.3 -1.4 -1.4 -0.3 0.6 1.5 5.3 17.5
238.6 266.6 316.3 325.5 363.1 382.8 393.5 421.7 444.8 458.8 475.2 494.2 508.9 524.6 525.7 530.5 534.4 544.4 552.9 569.4 578.1 597.6 619.3 637.4 650.3 667.3 673.4 698.5 713 713 711.5 690.2 656.1 628.5 617.6 641.6 648.2 665.2 689.4 723.1 737.7 754.5 756.7 766.5 776.6 799.4 790.2 779.4 751.6 729.8 716.2 699 674.7 649.7 630 618 609 596.9 581.9 547.6 527.5 520.7 510.5 498.7 486.7 484.3 476.2 456.8 446.5 438.5 432.3 424.4 409.6 396.1 375.6 350.5 330 315.1 303.4 290.8 279.7 260.8 246.3 231.2 215.4 194.2 179.8 164.7 152 144 115.3 95.6 90.1 91.4 96.1 102 107.8 116.7 124.1 134.9 147.3 152.4 162.7 174.8 185.3 196.3 207.4 225.2 231.9 245 254.8 262.3 270.8 280.7 291.1 304.4 312.1 324.8 344.3 344.4 333.8 326.6 333.9 313.3 312.1 314.1 322.8 314 304.9 310.6 324.3 324 342.1 352.4 354.5 356.2 367.4 380.6 401.2 423.1 431.4 434.8 438.2 438.6 434.2 442 463.3 470.2 481.9 478.9 465.1 449.6 436.7 423.2 398.1 372.1 353 339.5 324.8 307.2 293 283.2 272.6 254.5 240 225.2 209.4 202.5 191.2 180 174.2 160 147.9 134.9 124 115.4 104.3 99.7 91.1 81.8 72 65.2 54.6 42.3 30.9 12.4 -1.4 -1.4 -1.4 -1.4 -1.3 -1.4 -1.4 -1.4 -1.4 -0.2 0.7 1.6 8.1 23.8
237.2 262.3 285.1 321.9 342.8 381.8 395.8 418.8 439.8 452.6 467.3 494.9 511.8 524.7 528.7 534.1 543.9 552.9 560.8 567.9 580.2 588.3 605.2 630.1 653.8 662.9 671 692.3 708.4 710.8 706.6 689.3 658.1 636 645 661.2 682.5 703.6 726.2 735.9 751.4 771.8 797.9 817.1 820.5 809.5 798.4 775.3 749.4 735.5 712.2 694.3 678.4 655.1 644.1 636.5 637.5 625.7 609.3 573 550.7 539 529.6 517.6 507.3 510.5 486 461.1 453.6 447.3 438.2 433.3 422.3 407.9 386.4 363.1 341.8 319.8 308.2 302.2 289.4 272.6 257.3 240.5 224.2 206 197.1 187.2 172.6 146.9 122.5 103.2 91.7 90.9 94.8 96.4 99.6 112.1 116.9 117.4 131.9 135.6 141.3 151.9 161.2 169.9 178.5 193.8 210.2 219 231.7 241 248.5 254 263.7 268.3 278 287.7 288 298.2 294.6 298.5 293.8 284.3 278.7 276 278 279.6 273.3 274.5 283.7 289.6 313.2 322.1 327.3 332.8 333.6 346.5 371.7 398.7 408.9 411.2 420 421.6 416.3 420.3 435.4 444 464.3 470.9 453.6 438.6 426.2 418.4 391.9 370 348.7 334.2 317.9 302.3 289 278 261.9 240 227.8 209.8 195.1 185.6 177.5 169.7 157.9 147.2 135.9 118.5 106.8 97.3 94.5 95 84.7 71.5 65.8 58.8 49.4 35.9 18.7 -1.4 -1.4 -1.4 -1.4 -1.4 -1.4 -1.4 -1.4 -1.4 -1.4 -0.1 0.8 4.1 9.4 28.9
224.5 261 274.6 307.6 336.2 370.1 386.9 407.8 430.7 441.2 463.1 484.6 512.1 525.1 528.9 537.2 547.7 558.9 567.5 578.3 589.7 602 612.5 623.7 640.7 658.6 672.8 689.7 704.8 706.8 706.5 682.5 665 659.9 670.1 691.2 711 743.8 761 757.1 766.4 784.6 818 827.3 823.4 811.4 798.8 781.1 757.5 745.2 714.7 695.5 689.5 668.7 660.7 667.1 660.5 641.1 628.4 601.3 572.6 557.7 546.2 531.9 522.9 522.8 507.8 481 463.7 457.4 449.3 441.7 436 419.6 402.1 376 356.6 336.4 320.6 306.9 301.8 283.3 266.6 247.8 232.4 220.3 207.8 196.5 186 167.4 132.5 114.5 99 90.1 91.7 91.1 107.3 109.3 103.4 103.4 116.6 123.3 126.7 132.9 140.2 146.4 153.6 167.7 180.4 196 206.1 215.8 225.5 228.4 239 250.1 255.5 253.9 253.4 254.6 258.9 259.9 254.9 253.7 248.4 250.2 253.5 252.2 242.3 244.7 252.7 266.1 284.3 291.9 304.1 311.8 309.9 320.6 339.1 369.2 376.8 384.5 397.6 400.9 400.4 400.5 400.2 413.9 444.3 449.2 437.6 424.5 412.4 406.8 382.5 362.8 342.3 330.1 312.4 296.9 282.4 268.6 248.1 234.1 222 205 188.1 175.9 164.9 159.2 143.3 138.2 124.4 107.4 93.9 85 92.2 85.8 77 70.1 62.1 54.1 44.2 28.2 8.8 -1.4 -1.4 -1.4 -1.4 -1.4 -1.4 -1.4 -1.4 -1.4 -0.5 0.4 1.1 6.4 18 35.2
220.8 240.6 267.7 295.5 334.6 361.1 382.1 400.1 424 433.8 464.2 482.2 505.8 522.2 532.9 547.2 553 563 576.2 585.6 604.4 611.2 627 639.6 649.7 659.8 666.6 678.1 698.1 702 702.9 690.6 691.4 712.7 728.3 724.5 756 795.9 804.8 796.1 789 799.9 830.5 824.1 812.7 807.8 794.7 783 769 754.2 727 706.5 697 687.3 679.4 679.9 663.6 644.8 633.4 606.7 585.8 576.4 563.1 556.3 538.7 541.9 530.4 496.4 482 473.3 462.5 455.1 450.1 442.5 422.2 388.6 367.6 347.7 327.5 315 307.7 287.8 271.2 253.7 244 234 229.1 204 195.7 184.3 144.1 122.6 103.9 91.4 90.2 89.4 95.4 96 94.4 94.9 101.4 108.2 109.1 118.9 123.5 123.8 136.1 149.5 163 170.9 178.1 191.3 210.3 204.9 211.2 218.5 213.8 217.6 221.3 224.4 227.1 227.6 224.8 222.2 214.9 222.5 231.8 228.6 218.1 219.5 229.1 244.2 254.8 268.3 283 287.8 285.9 293.6 313.1 331.3 349.4 361.7 375.2 385.8 381.5 387.6 386.8 403.9 419.3 424.1 414.5 406.8 397.1 387.2 368.4 347.4 335.9 323 308.5 290.5 275.3 263.3 246.2 232 218.7 203.3 186.9 170.1 153.5 141.6 135.3 125.7 112.6 95.1 81.9 91.2 87 80.3 73.5 67.8 58.7 48.9 35.8 20 -1.4 -1.4 -1.4 -1.4 -1.4 -1.4 -1.4 -1.4 -1.4 -1.4 -0.5 1.1 1.6 8.7 23.4 43.1
217.7 233.8 254.2 272.6 316.7 333.5 373.8 394.8 403.6 426.1 459.2 475.8 502.4 522.7 537.9 554.8 566.2 570.5 577.1 585.6 604.8 614.8 628 637.3 654 666.4 670.3 676.8 689.5 691.9 695 708.3 722.6 743.6 764.9 765.1 799.7 834.5 840.1 834.7 816.1 820.6 824.6 816.7 805.8 799.1 788.5 781.6 773.1 763.7 736.2 713.5 700.8 693.5 678 671.2 659.7 642 629.7 614.5 602.4 594 588.1 569.1 551.3 551.3 546.1 515.9 507.9 502.6 477.3 471.5 477.9 473.6 441.4 426.2 397.7 362.8 343.2 326.3 323.5 304.3 283.9 262.1 255.6 244.6 250.2 213.7 195.8 178.8 155.7 135.2 110.4 99.1 92.5 89.8 87.4 89 90.3 91.8 92.1 94.8 97.3 95.6 104 109.6 120.1 134.9 149.5 155.6 157.6 161.9 161.3 172.6 172.6 172.4 175.3 179.2 188.2 191.8 198.2 196.7 192.5 189.5 187.6 193 193.9 200.9 187 191.3 206.5 218 229.8 243.7 256 266.4 259.1 267.9 280.2 304.7 316.3 341.2 350.5 362 362.5 371.6 368.8 381.3 397.1 396.4 394.5 389.6 383.5 374.5 353.9 336.9 327 313.4 301.8 281.6 265.5 243.9 233.8 223.6 211.2 193.2 176.9 159.7 141.3 129.8 123.6 113.7 98.1 79.6 89.3 89.6 82.5 75.2 71.7 65.5 55.7 43.1 26.9 9.3 -1.4 -1.4 -1.4 -1.4 -1.4 -1.4 -1.4 -1.4 -1.4 -1.4 -1.4 0.8 5.5 12.3 32.8 52.1
194.3 210.8 248.5 259.7 288.3 314 360.8 387.3 387.9 405.9 442.5 465.2 503.5 529.4 545 559.1 568.9 580.6 583.5 586.9 600.2 617.9 625.9 636.2 652.9 668.9 676.8 678 685.4 687.2 696.7 730 740 758.4 782.6 804.4 826.1 833 839.6 834.3 823.9 819.4 820.9 811.4 802.9 795.2 787.8 781.2 775.1 748.2 727.5 703.4 698.2 683 668.7 658.6 649.7 639.1 632.6 629.8 612.1 599.4 589.4 575.4 562.6 566 551.9 540.6 532.1 512.7 501.2 495 496.4 480.2 472.2 450 418.1 380 357.4 332.2 332.9 316.5 300.5 285 265.7 253.5 243.8 224 199.5 184 167.4 145.5 122.2 108.4 100.4 94.5 91.4 86.9 88.4 88.2 87.4 86.4 87.9 86.8 89.4 102 110.8 119.5 130.9 137.2 135.3 140.1 142.2 148.9 140.4 137.3 137.9 141.5 151.8 163.5 169 167.7 160.5 158.4 158 154.4 159.2 160.7 162.3 170.5 182.5 194.3 205.4 208.9 218.2 225.2 234.7 244.5 248.9 269.7 291.8 312.6 324 338.9 344.6 350.6 350.8 367.1 378.7 379.5 377.4 366.5 373 366.8 336.2 325.3 314.4 302.9 290.3 269.8 254.7 238.6 228.8 217.8 201.5 180.2 160.5 145.7 128.4 120 105.1 95.1 79.6 86.1 91.4 85.5 78.1 72.8 69.2 61.5 48.7 38.1 19.5 -1.4 -1.4 -1.4 -1.4 -1.4 -1.4 -1.4 -1.4 -1.4 -1.4 -1.4 -1.4 0.4 9.4 22 37.8 55.3
166.3 195.2 228.3 244.9 266.1 291.1 328.8 356.7 365.8 394.5 421.2 450.7 491 526.4 543.4 561.4 577.3 585.8 595.8 596.7 597.7 608.1 622.1 630.4 649.4 668.8 675.6 682.6 684.1 680.3 699.5 732.6 751.9 765.5 794.2 814.3 844.8 843.7 834.4 830.2 821.8 812.6 811.3 806.4 805.4 797.5 776.4 757.3 739.9 732.8 709.8 689.1 680.9 672.2 662.8 650.8 642 627.1 625.3 623.7 605.6 597.1 588.6 577.3 572.3 573.7 568.9 562.8 551.3 536.2 521.3 511.3 512.4 496.9 485.2 472.4 441.8 413.8 386 352.9 347.4 333 324.6 306.3 288.9 268.5 246.4 229.9 213.1 191.8 179.6 160.1 146.7 126.5 116.2 109.1 104.3 96.5 90.1 88.4 86.1 82.2 83.6 85.6 84.9 90.1 99.3 106.2 112.7 123.6 113.2 121 128.7 130.8 117.1 112.7 117 113.9 115.4 124.5 132.9 131 131.6 133.7 129.7 127.5 129.2 136 138.3 148 158.1 167.8 174.9 181 188.8 192.1 206.2 218.6 222.8 239.8 263.8 281.4 295 313.5 324.5 333.1 331.9 346 358.8 363.9 353.9 345.9 345.5 337.9 320.9 313.7 302.2 290.2 273.8 257.5 243.9 231.9 222.8 212.3 196.1 169.9 153.5 134 118.3 102.9 92.2 81.3 75.9 85 85.3 79.6 72.9 69.1 64.4 56.8 42.5 30.8 12.2 -1.4 -1.4 -1.4 -1.4 -1.4 -1.4 -1.4 -1.4 -1.4 -1.4 -1.4 -1.4 1.2 11.5 29.7 45.7 59.9
