ncols 200
nrows 82
xllcorner 310000
yllcorner 840250
cellsize 50
384.9 388.8 392.6 395.4 398.2 399.3 395 377.8 372.6 368.6 367.7 367.3 364.3 360.1 358.5 357.8 355.1 346.1 341.6 340 342.4 343.9 345.3 346.3 346.6 346.3 345.5 346 346.5 349.2 351 353.4 355.8 355.8 357 358.7 358 357.8 351.7 349.7 354.6 359 361.1 362.5 360.4 356.6 356.6 357.4 358.1 356.2 355.8 354 352.2 347.2 344.2 341.8 339.8 338.5 336.8 334.6 332.6 330.5 329.2 328.9 327.6 322.7 321.2 307.8 297.4 297.5 292.8 297.3 293.5 292.5 300.8 302.4 297.1 282.6 274.1 271.5 273.6 266.9 265.1 275.1 274.3 269 263.2 256.7 246.4 258.6 260.4 262.9 262.8 262.8 261.8 258.3 258.5 262.5 263.7 263 267.9 269 269.9 271.8 271.7 272.4 272.7 273.5 274.3 275.3 274 270 264.7 260.3 256.1 252.7 249.8 246.9 243.3 240.8 238.3 235.9 234.3 233 231.7 230.4 229 227.7 226.4 225.5 224.7 224 222.7 220.1 216.6 213.4 212.7 210.3 208.6 206.3 201.1 197.8 196.4 195.7 195.7 195.6 195.2 194.7 195.3 194.1 190.8 189.8 188.2 187.7 186.2 185.2 186.5 192.7 197.7 201.6 207 212.8 217 220.7 223 225.5 228.9 231 231.2 232.8 235 238.2 240.4 242.3 244.1 244 243.7 243.1 242.2 241 240.2 239.3 238.5 237.5 236.1 235.7 235.4 235.1 235.5 237 238.1 238.7 239.9 241.2 241.9 241.9 242.3 243.7 245 245.9
382.3 387.4 388.5 389.1 388.2 395.7 395.7 380.6 373.4 368.8 369.4 366.8 365.9 362.2 360.2 359.3 357.1 350.4 343.8 341.2 344 345.7 347 348.6 349.2 347.5 349.3 349.9 350.5 349.7 353.7 354.6 356 357.2 357.9 361.5 361.9 361.4 358.4 352.5 358.2 361.8 363.4 361.6 356.6 356.6 356.6 356.6 356.6 359.9 356.7 354.9 350.4 345.9 341.4 339.3 339.1 337.4 335.3 332.5 330.5 328.2 325.7 323 311.4 305.7 303.1 303.8 304.1 303.2 303.9 308.1 306.5 302.9 304.5 302 300 297.8 295.4 290.1 278.9 274.1 268.9 265.1 254.9 252.5 253 248.9 250.4 262.2 265.4 266.3 265.8 264.7 264 263.4 263 265.9 266.6 266.3 267.3 268.8 270.5 272.4 272 272.7 271.9 271.9 272.9 274 273.7 270.9 267.7 262.9 258.7 254.4 250.5 247.6 245.2 242.2 239.4 236.7 234.9 233.5 232.2 230.8 229.7 228.5 227.3 227.7 227.6 226.6 224.8 221 218.2 216.2 215.1 214.2 210.7 206.8 201.1 197.3 196.1 195.3 196.4 196.1 196.3 194.5 194.8 193.3 189.8 188.9 187.9 188.2 188 184.7 185.7 187.7 195.1 198.5 203.3 209 213.3 216.8 220 223.7 227.1 227.2 228.9 230.5 233 236.1 238.5 240.5 242.4 242.4 242.1 240.9 239.6 238.3 237.1 236.2 235.4 234.6 233.7 232.8 232.4 232.5 232.8 233.9 235.5 235.4 236.2 237.6 238.7 239.1 239.6 241 242.3 243.7
379.9 385.1 386.7 384.2 384.5 392.5 388.9 378.2 372.3 373.8 371.7 366.9 366.1 364.9 362.2 361.5 358.8 354.7 348.1 346.2 346.5 347.6 349.2 350.8 351.6 350.6 351.8 353.5 354.4 354.4 354.4 355.1 356.5 357.8 359.4 361.6 362.8 364.1 363 358.6 356.4 356.4 360.3 356.6 356.6 356.6 356.6 356.6 356.7 359.3 357.3 352.6 348 344.8 341 340.7 338 336.1 328.1 324.4 324.3 318 317.8 312.5 311 313.3 311.1 310.1 308.3 311.9 310.9 312.6 309.1 306.5 304.6 302.2 299.9 295.9 293 287.3 277.5 278.6 278 275.8 271.4 271.5 266.4 262.8 266.5 268 268 269.4 269.4 268.7 268 267.3 267 269.5 269.9 268.7 269.1 270.2 271.3 271.9 272.6 271.8 271.8 271.6 271.6 271.4 272.3 270.3 267.7 264.3 259.9 255.5 251.3 248.3 246 242.9 240 237.4 235.8 234.3 232.9 231.7 230.6 229.4 229.5 229.7 229.3 228.3 226.7 223.4 221 219 214.5 212.4 211.4 207.2 201.3 197.3 195.9 194.9 194.7 195.5 193.5 193.7 193.8 192.3 188.1 188 187.6 187.3 187.5 183 184.9 187 194.9 198.5 201.5 205.1 209.1 212.1 216.5 222.4 223.5 223.9 226.5 229 231.6 234.1 236.5 238.9 240.4 240.7 240.2 238.9 237.7 236.3 234.6 233.7 232.9 232.1 231.1 229.9 230 230.2 230.4 231 231.8 232.7 232.9 234 235.1 236.2 236.9 238.3 239.6 241
386.6 385.5 380 381.9 382.3 380.3 379.2 376.8 377.2 378.2 374.4 368.1 368 365.3 364.5 362.6 361.8 362.7 358.1 352.9 350.6 351.2 351.5 352.9 353.5 353.8 353.2 355.5 356.5 356.1 356.2 357.9 358.9 359.9 361.3 363 365.9 363.8 361.4 357.4 356.4 356.4 357.5 361 356.6 356.6 356.6 360 361.3 357.5 356 350.6 344.4 343.5 344.7 343.6 340.2 336.4 336.8 334 329.8 326.8 321.6 321.7 319.7 319.8 320.3 315.5 312.9 316.6 315.7 313.9 310.6 307.6 305.2 302 301.6 298.4 289.5 284.1 283.5 284 288.5 283.9 279.1 274.6 272.1 271.4 272.1 275.3 276 274.7 274.4 273.2 272 271.1 270.7 271.7 271.5 270.9 271.4 272.4 273 272.6 273.3 271.9 271.6 271.2 271.2 270.7 271.1 269 267.3 264.2 260.7 256.6 252.9 250 247 243.9 240.7 238.3 236.7 235 233.8 232.6 231.5 230.8 230.7 230.4 230 229.5 228.8 226.4 222.1 217.7 213.7 210.7 207.8 204.7 200.9 197.6 195.9 194.2 193.5 193.4 193.2 193.3 191.8 188.6 187.9 188 188 187.4 187.4 184.5 184.3 185.9 194.4 200.5 202.3 204 206.9 208.5 213.6 218.1 218.2 220.6 223.5 226.8 229.4 232 234.5 236.6 237.8 238.6 238.2 237 235.7 234.2 232.5 231.2 230.4 229.6 228.4 228.7 228.5 227.9 228.1 228.7 229.2 229.5 230 230.5 231.6 232.8 234.2 235.6 236.9 238.3
378.3 379.3 376 372.8 373.1 373.1 379.6 380 383.4 391 383.7 382.8 372.4 368 367 367.1 368.4 373.1 371.3 365.1 359.2 356.9 356.3 355.2 356.1 354.8 354.5 357.4 358.5 355.9 358.7 360 361 362.1 363.5 364.8 364.8 363.2 361.6 359.3 358.5 357.8 359.8 360.3 359.2 356.6 356.6 356.6 357.3 356.4 353.5 351.3 350.9 349.6 350.1 348.1 343.2 340.2 337.3 335.1 332.4 330.2 326.8 325.2 324.7 323.6 322.5 320.3 319.4 319.6 319 316.7 313 308.7 307 304.4 301.2 291.9 290.5 289.5 288 292.1 292.3 286 281.1 279.2 278.5 279.1 281.1 284.2 284 282.9 281 279.2 276.6 275.9 274.7 274.5 274.3 273.1 273.6 274.4 274.3 273.7 274 272.7 271.3 270.9 270.9 270 268.8 267.4 265.9 264.1 260.6 257.1 253.9 250.6 247.9 243.9 240.8 239.5 238.5 236.9 234.7 233.6 233.2 231.6 231.4 230.9 230.5 230.1 229.4 227.8 223.5 219.7 215.8 212.5 208.1 204.7 200.3 196.8 194.4 193.4 193.3 193.1 192.8 190.6 188.8 188.5 187.9 187.8 188.1 187.2 186.3 186.1 182.8 183.9 195.3 199.6 199.6 201.3 204.5 206.5 210.1 212.6 215.4 219.9 222.4 224.5 227.1 229.3 231.7 233.6 234.8 235.6 236.3 235.1 233.8 232.1 230.4 228.8 227.9 226.9 226.9 227.1 227.2 226.7 226 224.9 225.5 226.1 226.7 227.4 228.4 229.6 231.2 232.7 234.1 236.4
366.6 367 370.2 370.5 371.5 372.7 373.7 382 382.4 388.7 397.4 400.1 378.3 371.7 370.3 368.2 374.9 380.2 382.2 375 369.8 364.8 361.2 358.1 358 357.2 357.7 359.3 359.5 357.9 360.3 362 363.1 364.3 365.4 365.4 365.4 363.9 362.4 361.2 360.3 359.4 360.1 360.4 360.6 358.7 356.6 356.6 356.4 353.7 354 356.9 354.5 353 353 352.1 347.9 343.2 340.4 338.2 335.9 334.2 332.2 330.5 328.1 327.5 325.3 323 322.6 323.4 325.6 319.7 313.9 309.7 307.8 304.8 300.4 296.6 297 296.9 294 295.9 295.5 292.5 288.8 284.7 284.8 286.5 288.2 290.1 290 287.6 285.4 284.8 282.1 280.8 280 277.9 276.5 275.5 276.3 276 275.5 275 274.7 273.4 272.1 270.7 270.4 269 267.4 266.6 264.4 263.1 260.4 257.2 254.1 251.3 248.5 244.5 241.9 240.3 239.5 237.5 235.7 234.6 233.3 232.7 231.9 231.5 231 230.6 230.4 229.2 226.6 225.9 221.8 216.6 214.8 211.2 202.1 195.9 193.8 193 193.1 191.9 190.2 189.3 188.4 188.3 188.2 190 192.8 189.6 185.9 186.7 182.4 181.7 192.4 196 196.2 197.6 201.4 203.1 203.3 211 213.3 215.8 219.1 221.3 223.7 226.3 228.6 230.6 232.6 233.6 234.4 233.1 231.8 229.8 228.3 226.7 225.4 225.2 224.9 224.7 225.3 223.9 222.5 222.1 222.4 222.8 223.4 224.3 225.3 226.5 228.1 229.8 231.2 232.6
372.5 370.7 368.4 369.8 370.4 371.8 373.4 374.5 375.8 384.1 395.9 404.9 386.8 377.4 379 383 383.9 386.1 393.7 388 380.3 374.1 369 363.4 361.7 361.8 361.1 361.9 361.8 361.4 361.8 363.5 365.2 365.9 366 366 365.9 364.4 363.4 362 360 360 359 360.3 360.6 361.8 359.8 356.5 355.9 354.5 359.9 360.9 358.8 356.2 355.8 357.5 354.5 350.8 349.8 346.4 342.4 338.6 337 334.8 332 331.1 329.9 327.8 326.8 329.6 330.4 324.2 318.4 313.9 310.7 305.1 302 301.5 301.6 301.8 298.8 299.8 299.4 296.9 295.5 294.3 294.2 296.3 297.1 296 295 293.6 293.4 292.2 288.3 286.3 283.5 280.8 279.1 278.8 279.8 278.7 277.2 276.3 275.4 274.2 272.8 271.3 269.6 268.1 266.9 265.6 263 261.9 260 257.4 254.6 252.3 249 245.7 243.3 241.8 240.4 239.3 236.7 235.2 234.9 234.8 233.7 232.5 231.6 231.2 231.1 231.1 230.3 227.9 223.5 219.2 215.4 209.9 202.6 195.4 193.6 192.6 191.4 191 190.6 189.8 188.9 188.4 188.9 191 191.1 189.5 186.2 186.5 182.6 181.8 188 191.6 192.6 193.5 194.4 195.4 199.5 205.5 207.5 213.6 216.9 218.2 219.8 221.4 224.5 228 229.4 230.6 231.5 231 229.9 227.8 225.6 224.1 223.2 222.7 222.3 222.1 221.7 221 220.5 219.6 219.5 220.3 221.4 222 222.7 223.1 224.1 226.1 228.4 230.2
373.8 374.3 375.4 370.5 373.1 373 372.1 374.3 375.7 382.9 389.8 400.3 400 389.5 392.4 395.1 395.5 399.8 406.1 404.6 394.1 384.3 377.8 372.5 368.3 365.9 364.6 364.2 364.8 365.2 365.1 365.7 366.2 366.5 366.6 366.6 366.5 365.4 364.8 363.4 361.9 361.3 360.8 361.2 361.3 362.7 361.8 357.8 355 359.8 360.4 364.9 362.6 361.6 361.5 362.5 366.2 361.2 356.5 350.9 347.9 343.6 341.9 341.5 339.2 334.8 332.8 331.5 330.9 332.4 332.3 326.5 322.1 317.8 311.3 309.6 305.9 306.1 307 305.3 303 303.5 302 300.2 300.2 303.5 303 302.5 303.4 304.4 302.1 299.3 298.6 297.4 294.6 293.3 289.8 285.2 281.7 282.4 283.1 281 279.7 277.6 276.5 274.5 272.8 271.3 269.7 267.7 265.7 263.2 262.3 261.2 259 257.3 254.9 252 249.8 246.5 243.6 241.1 239.5 238.3 237.3 237.2 236 235 234.5 233.5 232.3 232.8 232.9 232.5 231.8 228.4 222.6 218.3 213.3 208 197.7 195 194 193 192.3 190.7 189.9 189.5 188.9 188.4 189.6 190.2 190.7 191.3 190 185.2 184.5 181.6 183.3 186.9 187.6 188.4 189.2 192.5 195.6 197.7 202.9 210.6 214.1 216.1 218.3 219.8 222.1 224.6 225.9 227.3 228.5 228.3 227.2 224 222.7 221.6 220.8 221 220.5 220 219.6 219.2 218.7 217.7 217.6 218.4 220.5 220 220.5 220.5 221 222.6 224.9 226.2
379.7 376.4 375.4 371.9 374.7 374.5 373.3 374.7 376.2 383.6 389.9 394.4 401.4 402 404.4 407.6 407.9 407.6 408.7 408 403.6 393.3 386.2 379 372.1 369.3 367.9 366.3 367.4 366.6 367.9 367.9 368.7 369.1 370.1 369.8 369.1 367.1 366.1 365.1 364.2 363.6 363.3 363.6 364.4 363.7 365.3 360 358.2 360.3 363.9 362.5 364.2 365 367.6 370.1 370.7 372.4 368.1 359.3 352.6 348.8 346.9 344.8 342.6 340.6 337.7 336.5 335.2 338 334.5 330.4 325.6 319.2 315.5 313.6 311 310.2 310.9 307.8 307.7 308.2 306.1 304.2 305.5 311.9 308.4 308 308.7 309.3 308.9 306 304.9 304.1 300.1 299 295.6 290.8 285.7 285.4 284.3 285.1 282.3 279.6 277.4 275.4 273.4 271.5 269.7 267.8 265.8 262.9 261.8 260.7 258.1 256.3 254.6 253.6 249.9 247 243.8 242.7 241.3 239.6 237.8 237.1 236.2 234.9 235.2 234 233.6 233.8 233.9 233.5 233.7 230.2 224.9 221.4 218.6 212.5 204.3 195.4 194.6 193.8 199.8 190.9 189.1 188.7 188.3 188.6 189.4 190.7 191.1 191.3 188.6 185.9 184.5 181 179.6 185.5 186.3 187 186.9 188.2 193.3 199.2 203.4 206.8 209.2 212.1 214.5 216.8 218.8 220.9 222.4 223 223.7 224.9 223.5 221.8 220.1 219.3 218.4 219.2 218.6 218.1 217.6 217.3 216.8 216.4 216.2 216.2 216.8 218.1 219 218.8 218.7 219 220.8 221.8
386.7 383.7 379.2 373.6 375.9 375.3 374.8 375.8 377.1 383.1 387.2 388.6 390.2 397.1 404.8 408.7 409.5 409.5 407.1 404.4 399.7 393.5 391.1 384.4 378.2 374.3 371.6 369.7 369.5 368 369.5 370.1 371 371.6 372.7 373.8 373.6 370.8 368.5 367.3 366.7 366 365.7 365.4 365.7 363.2 361.3 361.3 360.8 366.1 364.8 363.9 365 365.9 368.5 371.1 374.4 377.3 379 369.6 360.6 355.2 352 349.6 346.3 343 341.3 341.2 341 341.1 337.1 332.1 328.6 324.4 320.5 316.9 316.9 316.6 314.7 314.2 315.4 315.6 314.9 313.1 314.4 315.9 314.8 313.2 313.4 314.3 315.4 313.3 312.2 310.2 307.2 303.3 300.4 295.9 292.4 288.2 286.3 286 284.8 282.1 279.1 277 275.1 273.1 270.1 267.7 265.7 263.7 261.7 259 257.4 255.2 253.6 253.5 251.2 248 245.9 243.6 241.4 239.6 238.1 237.7 236.5 235.4 235.5 234.4 233.6 233.5 233.5 233.3 235.4 234.4 231 225.4 222.5 213.7 206.4 196.3 195.6 194.9 199.3 192.1 188.6 188.2 188 188.1 189.3 190.2 190.9 190.7 189.7 185.7 184.1 178.3 183.5 185 186 186.3 181.8 187 193.9 196.3 200.4 202.9 204.8 206.4 208.8 211.6 213 215.6 218.1 219.4 219.8 220.1 219.2 218.4 217.1 216.2 215.5 217 217.2 216.5 215.8 215.3 215 214.6 215 215.3 214.6 216 216.7 217.2 217.1 217.1 216.5 217.1
388.2 389.5 384 375.8 377.1 376.2 375.3 376.7 380.7 382.7 383 380.9 384.8 393 403.3 407.8 409.9 408.7 403.1 398.9 393.3 387.2 390.3 389 385.3 379.7 378.7 372.6 370.4 370.1 371.5 372.4 373.3 374.2 375.3 375.6 375.1 373.1 370.4 369.5 368.7 368.3 368.9 368.5 366.8 365.8 364.8 366.6 371.6 367.2 365.9 365.3 366 366.7 368.4 370.5 375.3 378.9 380.2 379.1 371.3 364.3 358.8 355.3 350.2 346.4 345.3 344.9 344 341.9 338.2 333.6 331.3 328.8 325.8 320.9 321.6 321.4 319.2 319.4 320.5 321 320.6 321.2 322.4 323.9 325.5 325.1 323.4 321.6 320.8 319.4 318.1 315.1 313.4 310.2 305.5 301.3 296.4 291.8 289.8 288.4 287 284.5 281.3 278.9 276.9 274.3 271.2 268.3 266 263.8 261.8 259.4 256.8 254.1 252.4 250.5 249.4 247.4 245.5 243.7 241.7 239.6 238.7 237.5 236.3 236.8 235.9 235.1 234.2 233.3 233.2 233.5 234.9 234.1 230.2 226.6 220.9 215.2 209.6 199.2 195 193.8 198 192.6 188.1 187.8 187.8 187.9 188.5 190.1 190.3 190.1 189.9 187.2 184.9 179.3 178.8 183.4 183.5 175.7 176.3 185.4 189.7 193.5 195.5 196.9 199.2 201.4 203 205.4 208.9 209.9 211.9 214.2 214.5 215 214.7 214.2 214.2 213.3 213.9 214.3 215.8 215.1 215 215.2 214.6 213.6 214 214.3 213.6 213.3 212.5 213.5 214.1 214.7 215.1 214.2
384.6 387.8 380.2 374.6 378.6 377.8 375.7 382.4 386.3 384 381.6 380.9 384.4 394.4 404.5 409.1 408.8 403.7 396.3 391 386.9 386.9 386.5 387.6 387 383.5 382.1 375 372.1 372 371.7 373.7 374.9 376.2 376.6 376.6 376.6 375.6 372.3 371.6 370.8 372.6 372.5 369.6 368.5 368.2 368 369.1 374.4 368.3 367.1 366.8 367 367.7 368.9 374.9 379.9 383.3 383.7 381.6 378.5 373.3 367.5 362.4 353.3 349 348.4 347.6 346.6 344 340.7 336.1 333.6 330 326.5 325.7 324.9 324.2 322.6 322.8 324.8 326.5 326.8 326.2 328.9 332.4 335.3 335.6 334.5 331.7 328.1 325.9 323.4 320.8 317.7 315 310.8 306 301.9 294.3 292.6 291 289.2 286.7 283.6 280.7 278.5 275.6 273.4 270 267 264.9 263.1 259.8 256.5 253.5 251.1 248.8 247.2 246.8 244.8 243.1 241.3 239.4 238.6 237.5 236.3 236.6 235.9 235.2 234.4 233.6 233 233.8 233.5 231.5 229 225.5 220.8 216.1 211.2 202.4 195.5 193.4 193.1 192.1 187.7 187.5 187.5 187.6 187.7 189.4 189.9 189.8 189.7 189.1 185 179 177.6 180.9 183.1 174.7 174.1 179.6 185 186.3 188 190.4 193.7 195.7 198.3 201 203.6 205.5 206.7 208.7 209.2 209.9 210.3 211.6 212 214.8 216.3 215.5 214.7 214.2 214.3 214.4 214.6 214.3 212.8 212.3 212.6 212.4 211.3 210.4 211 211 212.5 210.8
378.3 386.1 376.5 379.1 380.8 380.3 376 383.9 386.3 385.3 385.6 386.6 391.8 400.1 405.9 407.1 403.6 396.8 391.3 387.9 386.9 386.9 386.9 386.9 385.5 386.3 384.3 384.6 377.5 373.9 373.6 374.9 376.7 377.3 378 378 378 377.2 374.7 373.9 374.3 382 375.3 370.1 372 371.9 371.2 372.3 375.1 374.1 371.8 370.1 369.1 369.8 373.4 378 382.2 384.1 386.4 383.7 381.6 378.3 373.2 365.7 356.2 351.6 351 350.5 348.5 345.6 341.3 337.4 334 330.9 327.9 327.2 326.7 326.2 326.1 326.7 328.2 330.9 331.9 331.6 333.9 337.8 339.8 340.5 341.5 341.1 336.8 335.2 328.5 325.4 324.8 320.8 315.4 310.1 305.8 300.7 295.6 293.4 291.5 290.8 286.9 282.6 280.3 278 275.2 271.8 268.3 266.4 264.5 261.2 257.9 254.7 251.4 248.8 246.3 245.4 244.2 242.3 239.9 238 237.4 236.8 236.1 236.2 235.7 235 234.2 232.8 232.6 234.1 232.8 230.5 229 226.6 221.8 217.2 211.9 204.8 197.8 193.5 193.2 192.2 187.6 187.1 187.1 187.2 187.4 187.6 189.7 189.7 189.7 189.6 184.3 185.1 177.9 177 175.6 173.6 173.4 172.2 172.3 185.1 185 187.2 190 190.6 194 197.4 199.4 201.5 201.7 202.7 204.2 205.6 207.3 208.2 210.4 213.7 215.3 214.9 213.9 213.5 212.9 213 213.3 213.9 214.5 213.1 210 210.5 209.9 209.1 208.7 206.9 207.4 206.9
394.8 378.2 385.9 392.6 389.2 382.2 379.2 378.1 384.8 388 392.2 395.7 400.7 406 403.8 404.3 401.4 393.4 390 386.9 386.9 386.9 388.3 388.3 387.3 386.6 386.4 385.9 384.2 381.7 377.9 374.8 378.4 378.2 379 379.3 380.3 379.4 380.2 381.4 383.9 382.1 374.4 374 375.4 376.8 376.3 376.3 377.2 380.4 378.1 377 374.7 373.7 377.3 379.8 382.4 387.1 390.5 389.2 383.6 380 376.5 367.9 358.8 353.1 351.9 350.7 348 346.6 342.5 338.8 335.4 331.9 329 328.6 328 328.8 329.8 329.9 331 332.9 333.8 335.5 337.8 341.1 342.9 343.9 346.9 346.8 345.1 341.9 334.1 330.3 329.5 326.8 320.8 314.2 309.8 304.4 299.2 296.6 294 292.8 290.2 286.8 283.5 280.4 277.2 274 270.9 268.2 265.8 262.7 259.7 256.7 253 250.2 247.5 244.8 242.5 241 239.2 237.4 236.6 235.2 236 235.7 235.5 234.5 232.9 231.3 231.8 232.5 230.9 229.8 230.6 226.6 223.5 220.8 218.3 212.3 203.4 193.3 192.3 189.9 187.5 186.7 186.8 186.9 187.1 187.4 187.1 188.9 189 189.4 184.9 184.8 176.5 176.4 175.4 174.4 172.7 171.9 170.5 172.9 184.2 184.5 186.3 187.8 190.6 193.3 194.8 196.4 201.2 203.3 205.2 209 210.3 210.8 211.7 213.2 214.7 213.6 211.7 212.1 212.2 211.6 211.8 212.1 212.3 212.9 212.6 209.3 207.1 206.5 208 206.9 205.3 203.6
393.3 397 401.7 399.2 393.8 389.2 385.9 383.9 378.8 388.5 396.4 402.4 406.2 406.3 402 400.9 401.4 392.1 389.3 386.5 386.9 390.1 393.1 389.6 389.4 388.7 387.2 386.3 385.4 383.5 382.9 379 381.9 382.1 383.3 383.3 384.1 382.7 384.2 383.2 381.4 378.9 378.8 378.2 380.2 381.7 381.7 382.2 384.2 386.6 389.4 390.1 385 380.8 381.1 382.2 385.8 388 384.9 386.2 384 378.4 373.2 366.4 360.6 354.4 349.9 348.7 347.4 344.6 344 340.2 336.4 332 329.6 328.9 328.5 330 331.4 332.1 332.9 334.4 335.6 337.1 340.5 343.7 345.6 348 350.4 350.8 349.5 347 340.5 334.7 332.9 330 325.9 319 313.6 308.4 302.5 300.2 297.5 294.6 292.5 289.6 286.1 282.5 279 276 273 269.8 267.1 264.8 261.8 258.4 254.7 251.5 249 246.9 245.1 243.2 240.9 238.8 237.1 235 233.6 234.6 234 233 231.4 229.4 228.8 230.1 229.3 230.6 230.3 226.2 224.2 222.1 216.6 211.6 205.4 193.9 191.7 189.7 188 186.5 186.5 186.7 187 187.2 186.9 186.7 185.7 185.3 184.1 185.2 185.3 183.6 183.2 181.5 172.2 171.5 169.7 168.5 168.9 180.7 184.2 185.6 186.9 189.1 191.9 195 199 201.7 204.7 207.7 209.6 210.9 211.7 212.7 212.4 210.9 210.5 210.5 210.5 210.9 211.8 211.6 211.3 210.6 211.2 209.8 206.5 204.2 205.2 205.2 203.8 200.9
404.7 410.3 409 405.4 399.6 393.8 391 389.8 385.6 379.7 390.6 400.1 399.7 404.1 400.9 400.9 402.1 396.4 389.7 387.9 387.4 391.5 393.3 390.6 390.4 390.2 388.4 387 386.2 384.8 382.5 385.9 387.2 388 388.3 387.1 386.9 385.9 384.5 383.5 384.3 384.2 384.2 385.9 387 389.3 389.6 392.3 395.3 394.8 394.5 395.7 395.7 392.7 388.7 385.4 387.9 385.1 382.2 385.1 384.9 378.2 369 360.6 356.7 349.3 347.4 344 343.8 342.7 342.6 340.8 336.4 331.8 330.1 329.5 328.3 329.4 331 332 333.2 334.1 335.7 338.4 342.3 345.6 348.2 349.6 350.2 351 352 350.7 344.5 338.6 335.3 332.4 328.5 324 316.9 312.3 307.3 302.2 300.3 296.4 293.6 291.3 288.4 284.6 280.7 278 274.4 270.7 267.4 265.5 263.8 260.1 256.3 253.2 250.9 248.9 247 244.9 242.6 240.4 238.3 235.5 233.6 230.8 230.3 230.7 229.3 228.1 227.3 227.6 226.8 225.7 225.7 225.3 223.4 218.7 212.3 204.9 199.3 195.6 191.7 190.7 189.7 186.6 186.1 186.5 186.9 187 186.8 186.6 186.3 185.5 185.3 185 184.3 184.5 184.4 183.7 182.7 181.8 177.8 171.1 168.3 170.4 178.8 183.2 183.6 187.6 191 193.8 195.8 199.5 202.1 205 206.8 210.5 211.6 211.8 210.5 210.5 210.5 210.5 210.7 210.1 211.2 212.1 212.5 210.9 209.8 209.1 207.3 203.8 203.4 201.8 201 198.9
415.7 414.5 411.7 407.3 402.8 396.8 392.3 392.9 391.3 383.8 386.4 400.1 395.3 403 401.7 402.1 401.6 394 389.9 388.7 388.9 389.7 391 391.7 391.5 391.3 389.9 388.7 387.9 387.5 387.5 388.2 389.3 389.5 388.8 387.8 385.7 384.7 384 385.7 387.1 387 387.3 391.2 394.1 397.3 397.9 400.1 402.7 403.4 401.8 397.2 395.2 392.5 387.8 387.5 386.6 383.5 380.7 381.5 384.6 379.1 367 357.7 350.6 347.9 346.2 344.1 341.1 340.3 341.1 339.3 336 331.7 330.7 330 327.4 327 328.5 329.5 329.9 330.9 333.6 337.1 340.7 344.3 346.8 348.9 350.2 351.1 352.1 353.1 348.7 343 337.6 334.3 330.8 326.3 319.9 315.6 311 304.5 301.3 298.6 295.2 292.7 290.2 286.5 282.3 280.1 275.8 271.6 268.7 265.2 263.3 261.8 258.3 255.1 252.6 249.7 248.9 246.7 244.3 242 239.8 237.3 234.8 232.7 230 225.9 227.4 226.8 226.2 224.3 223 222 222.1 220.8 218.4 214 207.4 201.8 199.2 196.6 193.3 190.8 190.2 188.5 185.4 185.5 185.8 185.7 185.6 185.5 185.5 185.7 185.2 184.6 184.2 184.1 184.4 184.4 183.6 182.3 181.3 182.4 181.6 170.8 170.7 176.7 183.4 186.3 188.9 192 194.4 199.2 202.2 205.2 208.6 211 211.8 212.4 211.9 211.4 211.6 210 208.9 209.2 210.1 211 211.3 210.4 209.6 209 207 203.5 201.9 200.1 199.4 198.4
420.2 417.2 413.5 408.8 403.9 397.3 395.2 394.9 397.1 394.9 382.6 382.7 388.2 396.9 398.2 397.8 389.8 388.6 387.9 388.5 389.6 390.4 391.9 392.4 392.3 392.3 391.8 390.7 388.4 389.2 388.4 389 389.7 389.7 390.1 389.4 387.2 386.7 387.3 386.7 387.9 389.6 390.4 393.9 397.6 400.5 401.4 405.1 408.1 409.8 408.3 403.5 399.7 396.9 393 389.1 385.7 383.5 379.4 378.4 379.3 375 367.7 359.6 351.7 350.6 346.9 343.3 339.6 337.4 337.6 336.5 335.4 332.6 331.3 329.2 326.6 323.6 326 326.6 326.7 327.7 330.7 334.7 338.2 341.5 344.8 348.5 350.4 351.8 353.2 354.4 351.1 343.5 338.8 335.9 333 328.6 322.6 318.7 313.7 307.2 302.4 299.9 296.7 294.2 291.3 287.7 283.8 281 277.7 273.7 271.4 269.1 266.2 263.4 261.3 257 253.8 251.7 250.8 248.4 246.4 244.3 241.4 238.6 235.5 233.2 230.6 227.3 222.8 226.4 224.3 222.8 221.1 219.5 218 216 213.1 209.3 204.6 201.7 198.4 195.7 193.5 191.9 190.2 190 187.5 185 184.6 184.4 184.4 184.5 185.3 190.9 189 189.7 185.1 183.1 184 184.4 184 183.4 182.6 182.2 179.9 164.6 170.4 174.4 181.7 184.6 187.7 193.5 195.5 200 203.4 206.3 208.2 210 210.8 212 213.4 211.1 209.2 208 208.2 209.8 210.9 211.1 212.3 212.1 210.7 208.2 205.4 202.6 200.2 198.3 197.7 196.6
425.8 423.1 416.4 412 403.6 398.7 397.6 397.3 401.3 404.4 401.4 387.9 381.9 385.7 388.5 385.6 385.8 386 386.9 388.8 390 391.1 393 393.3 392.9 392.9 392.8 391.6 388 390.3 390.4 389.6 389.8 390.2 391 390.8 390.3 389.9 389 388.1 390.7 392.5 394.5 397.4 400.4 403.4 405.2 408.7 412.3 414.5 412.8 408.9 405.9 402 395.8 391.6 387.8 383.9 379.6 377.5 375.8 371.2 367.7 359.1 352.1 352 346.5 341.1 337.8 334.8 332.2 331.9 331.6 329.1 328.7 329.7 325.7 323 320.9 322.7 323.8 324.6 327.7 330.8 335.7 339.5 342.7 345.5 349.5 352.7 354.3 355.5 351.1 345.4 340.7 336.7 334.2 330.5 324.9 321.4 315.7 310.4 303.7 301.1 298.5 295.6 292 288.5 285.1 282.3 280.7 276.4 273.5 270.5 267.5 265 263.5 260.6 257.3 254.3 252.7 250.7 248.8 246.7 243.9 240.8 237.6 236 231 226 221 223.3 222 220.7 218.2 216.4 214.8 213.5 210.8 205.6 202.7 201.2 199.2 195.3 194.6 192.8 191.1 189.4 191.1 186.2 184.7 184.1 184.5 184.7 185.5 186.2 187.2 186.9 183.2 182.9 183.5 184.2 184.2 183 183.2 182.3 175.3 162.4 167.6 171.1 177.5 181.7 189.5 192.9 195.3 198 202.4 203.8 205 207 209.3 210.8 210.7 209.7 207 207.3 207.6 210.3 211.7 212.4 211.4 211.1 211.7 210.7 208.1 203.7 200.3 197.2 196.3 195.6
431.8 428.9 423 414.4 405.5 400.5 399.1 399.6 404.5 406.8 405.6 398.2 389.2 383.6 384.1 384.5 384.9 385.2 386.1 388 389.9 393.1 394.1 394.2 394.1 393.7 393.6 392.2 392 391.7 391.6 391.2 390.9 391.2 392.4 394.5 393.5 392.7 391.8 391.4 393.4 394.7 397 400.1 403.1 406.6 410.5 413.5 416 417.1 415.9 415 411.8 407 402.8 398.5 394.8 391.1 381.7 375.9 374.1 366.3 364.2 355.9 352.2 348.9 344.2 341.4 339.3 338.2 336.8 329.4 327.5 327.2 326.5 327.6 324.9 321.2 317.4 319.2 319.2 321.3 324.5 328.3 333.2 337.5 340.8 344.6 349.7 352.9 355.5 356.3 351.3 346.2 340.8 336.9 335.4 331.8 326.8 322.3 318.4 312.7 305.9 302.6 299.9 297 293.5 289.9 287 283.8 281.9 279.7 275.2 272 269.8 267.4 265.1 262.5 259.6 256.9 255.3 253.3 250.9 248.4 246.1 243.2 239.9 238.2 231.8 225.4 220.2 217.3 214.7 214.7 215.3 213.4 211.5 210.5 208.3 204.8 202.2 200.4 196.1 195.5 194.6 193.4 191.7 189.9 190.2 187.5 187.6 185.8 184 184.9 185.3 185.6 185.3 184.3 183.5 183.7 183.8 183.8 183.2 183.5 183.3 182.8 181.9 162 165.2 168.6 172.3 179.3 191 193.8 194.8 195.9 198.7 201 202.9 204.5 207.3 207.4 207.7 206.2 205.5 206.2 207.6 209.5 210.5 210.6 210.2 209.5 209.3 208.4 204.7 201.5 198.8 197 195 192.8
438.1 432.5 426.9 418.3 409.4 401.8 401.2 402.6 404.2 407.7 407.4 403.6 392.4 385 385.8 386.1 386 384.4 386.1 388.3 392 395.7 397.5 396.7 396.3 396 395.1 394.8 394.5 395.4 394.5 394.5 394.8 395.6 395.9 396.6 396.8 396.3 395.5 392.8 395.9 396.8 399.9 402.9 406.2 410.1 414.1 416.7 419.2 420.3 420.4 420 417.1 412.5 409 404.1 400.6 398.2 389 379.2 371 364.8 360 355.4 351.6 350.7 347.1 343.6 341 338 334.4 329.1 323.4 323.7 325 325.8 325.8 317.7 313.3 313.3 314.5 316.3 320.5 325.8 330.4 334.8 339.1 343 348.9 354.1 355.6 355.8 349.1 343.8 339 335.8 334.9 333.7 328.9 324.4 321.5 314.8 308.9 306.3 302.1 299 295.5 293 290.6 286.6 283.3 280.8 277.2 275.2 273 271.1 268.2 265.6 262.4 259.7 257.8 255.4 252.5 249.7 247.3 245.3 243.2 239.3 232.8 229.1 224.2 222 217 217 210.2 210 208.4 205.8 204.8 202.6 200 197 195.5 195.2 194.5 194 192.3 190.5 189.3 189.5 188.9 188.2 185.7 182.8 184.9 185.2 185.3 182.7 183 183.3 183.5 183.5 182.7 182.8 182.8 182.5 182 162.9 163.7 165.1 171.3 182.9 187.2 189.3 193.5 194.6 198.6 201 203.2 205.8 207.8 207.3 207.1 206.7 206.1 205.3 206.3 208.7 209.9 209.3 209.6 208.7 206.9 205 202.4 200 196.2 195 193.5 191.6
442 435.8 428.7 419.6 410.6 403.5 401.7 400.1 398 402.1 407 403.7 393.4 386.8 386.7 387.1 387.4 387.3 386.1 389.9 394.7 398.1 399.4 400.6 399.8 400.1 399.7 397.5 398.6 399.6 399.2 399.6 400.3 402 400.7 400.2 400.1 398.9 398.3 396.9 398.6 400.4 403.7 407 410.4 413.9 417.4 421.1 421.9 424 425.7 425.2 422.5 418 413.1 406.9 401.5 398.3 391.5 381.8 374 370.9 362.6 356.5 353.6 352 349.3 343.9 340.2 335.2 328.8 323.5 322.5 320.8 321.9 325.3 325.3 318.1 312.4 310 310.7 312.5 317.8 323.7 327.9 332.6 337.5 344.2 352.1 357.1 355.6 351.2 346.6 341.5 337.9 334.8 333.3 333.4 331.7 327.6 321.9 316.4 312 308.3 304.7 301 298.4 296 293.5 290 285.7 282 279.3 277.9 276 274 271.6 268.7 266.5 263.4 260.7 257.9 255.3 252.7 250.8 246.2 243.1 240.1 236.7 234.2 228.6 224.7 219.6 217.3 214.8 207.6 205.5 203.1 201.5 201 200.1 196.9 195.4 195.2 194.4 193.8 192.8 191.3 189.8 188.9 188.7 187.4 187.8 183.7 180.7 182.8 183.3 182 182.5 183 183.7 183.1 182.3 182.3 182.3 182.2 176.3 160.7 162.2 163.4 173.7 183.2 185.4 186.2 192.2 196.7 199.6 201.5 205.3 207.6 208.6 209.3 210.6 209.6 206.8 204.2 203.2 204.9 206.4 208.4 209.6 208.5 206.1 205.4 201.8 197.8 195.6 193.5 192.5 190.3
446.9 438.1 429.9 420.9 411.4 403.7 397.6 395.9 394.8 395.8 405.2 394.3 387.9 384.5 389.4 390 390.1 389.5 387.2 392.4 397.9 401.8 402.9 403.5 403.6 403.5 403.3 401.5 402.4 403.3 403.9 404.4 405.6 406.7 405.3 405.3 403.6 402 401.9 401 400.8 403 406.8 411.1 414.6 418.1 421.6 424 424.8 428.1 430 429.1 425.9 420.2 415 411.1 403.2 394.9 389.6 381.5 374.1 370.5 361.8 356.5 353.8 352 349.3 344.6 338.3 330.7 326.2 322.2 322.1 320.4 316.5 321.1 322.4 317.1 311.6 309.2 305.9 311.4 316.3 322.3 326.8 331.4 338.5 347.3 354.3 355.4 352 346.1 341.4 338 335.3 332.8 331.7 332.3 333.4 330.2 322.4 317.1 314.9 310.9 308.2 304.8 300.3 298 296.1 293.4 289.8 286 280.7 278.6 275.3 272.4 270.7 268.9 266.7 264.1 261 256.7 253.9 251.2 249.9 246.4 242.6 238.7 236.1 232.6 227.6 221.8 217 213.6 211.3 206.9 204 201.8 200.3 199.5 198.5 197 198.6 197.2 194.6 193.5 193.1 191.5 190.1 189.4 189.1 188.5 185.9 181.3 179.3 177.3 177.1 181 182.7 183.3 183.6 182.8 182.1 181.9 181.9 182.5 180.5 162.9 161.3 161.8 171.4 181.7 181.9 185.4 189.6 193.8 195.5 198.8 203.8 205.6 206.2 206.7 206.8 205.9 202.8 200.2 201 203.4 205.3 206.8 208 208.6 207.4 204.9 201.3 196.7 193.9 192 191.2 189.6
450.7 440 431.1 423.1 411.1 403.6 397 395 393.6 392.7 396 388.8 385.7 389.2 392.1 393.3 393.4 392.8 391.8 396.7 401.2 404.9 407.3 408.3 408 407.4 408.5 407.7 408.2 408.7 409.2 409.8 411 410.7 409 407.7 407 406.4 407.5 405.4 405.3 407.2 411.2 415.3 419 422.4 425.3 426.3 427.6 430.2 431.6 432.1 428.5 420.7 415.8 410.5 401.7 393 387.1 380.3 373.3 368.1 361 355.8 353.1 351.6 347.6 340.5 333 327.7 324.9 325.1 325.3 324.5 323.9 317.8 312.9 307 307.4 305.1 303 308.6 316.2 320.8 325.8 329.9 338.3 346.4 351.4 350.9 344.6 339.9 335.5 332.9 331.4 330.7 330.9 331.7 331.5 329.6 325.3 320.2 316.1 313.1 310.8 308.3 304 302.3 298.3 295.6 292.4 287.5 283.1 279.2 275.3 272.8 270.5 269 267.1 264.8 261.2 259.1 257.4 255.2 254.1 250.2 246 241.7 237.9 233.7 228.8 223.2 218.5 218.2 212.3 207.5 204.9 203.8 202.9 202.2 198.6 200.1 201.2 199.9 196 193.5 193.3 192.3 190.8 190.1 189.3 186.6 183 184.1 184.7 186.5 175 176.9 182.6 183.3 183.3 182.8 182.5 182.1 182.2 182.8 180.8 172.7 160.9 160 161.8 180 181.3 187.3 191.6 192.7 192.6 195.1 198 198.9 199.7 201.5 200.9 198.8 198.3 197.9 201.1 203.5 205.2 205.7 206.3 205.8 204.1 201.5 197.7 194.1 191.7 189.7 189.2 188.5
451.4 441.5 432.6 423.6 413.1 403.1 399.5 395.5 392.1 390.2 389.2 386.6 390 392.9 395.1 397.1 398.1 398.3 397.5 400.8 404.5 408 410.8 412.5 413.3 412.5 412.8 414.9 414.6 415.2 415.7 417.1 417 414.2 413 411.9 413.1 413.8 413 412.9 411.5 412.8 416.4 420.4 424.1 427.1 428.3 428.6 430 430.5 429 431 428.8 420.1 412.8 406.3 398.8 392.1 385.4 379 372.2 365.9 359.7 356.2 352.9 349.5 343.2 336.6 329 326 327.1 327.6 327.2 326.7 326.8 325.2 320.8 313.2 304.1 303.9 297.7 304.4 313.1 319 324.4 327.1 333.3 339.7 342.7 341.7 334.8 331.1 327.2 326.4 328.3 328.5 329.8 330.5 330.7 328.2 326 322.8 318.9 315.5 313.7 311.4 308.8 303.4 299.2 297.5 294.2 288.7 283.7 279.7 275.9 273.9 271.5 270.1 267.4 265.1 262.9 261.2 259.5 257.8 256.4 253.4 249.1 244.2 238.2 236.8 231.9 224.9 219.2 216.6 212.1 209.5 209.5 206.6 205.6 204.5 201.8 201.1 198.8 198.3 197.4 195.8 193.2 192.6 191.2 190.2 187 186.2 189.3 188.5 185.5 186.4 181.4 173.3 180.6 182.5 182.8 182.8 182.8 181.8 181.8 182.9 179.5 170.1 159.4 159.8 160.2 174.3 182.5 189.8 190.9 190 190.1 190.2 191.8 193.2 194.5 196.5 195.6 195.6 194.2 198 201.8 203.4 203.7 203 202.6 202.1 200.5 198.6 196.2 193.7 190.5 188.2 186.6 185.7
450.4 441.8 433.5 423.1 411.8 410.1 406.8 398.9 394.1 393.8 392.6 395.5 396.6 397.5 400.1 401.1 402.1 402.2 401.6 402.9 407 410.7 414.3 416.2 418 418 419.1 421.1 421.5 421.7 422.6 424.2 423.5 420.9 419.9 419.9 419.9 420.3 418.9 417.6 419 421.1 424.2 427.2 429.8 431.5 432 430.8 430.2 428.9 426.4 423.2 421.4 414.6 409.5 404 397.7 391 384.2 378.8 371.8 364.5 359.1 355.8 352.9 347.4 340.8 332.5 329.9 328.6 328.8 329.9 327.3 327.5 328.1 327.9 323.4 317.3 309.9 308.3 306.6 293.5 307 312.5 317.4 321.7 326.8 331.6 333.1 330.4 325.9 322.4 320.9 319.3 322 323.3 327.9 329.8 328.7 326 324.5 323.7 321.4 317.3 315.9 315.4 312.6 307.1 301.2 298.7 295.1 290.5 284.4 280.5 277.1 275 273 272.1 270.7 268.7 266.4 263.2 261.5 259.8 257.4 253.8 249.9 244.9 240.3 236.6 234 227.1 221 216.9 214.9 213.6 210.7 207.5 206.6 205.4 203.2 200.3 197.6 196.9 196.4 197.9 194 191.5 190.3 190 189.2 189.7 189.1 188.3 184.2 185.6 183.3 174 173.7 181.1 177.5 181.8 182.4 181.6 182.3 182.2 174.3 162.7 159.1 159.1 160.2 170.1 181.5 185.9 188.2 186.4 187 190.7 192.1 193.8 193.9 190.8 190.7 190.4 194 195 197.9 199.8 199.1 198.2 198 198.4 197 195.7 193.8 191.3 188.2 186.6 185 183.8
448.6 440.9 431.2 415.7 419.9 416.3 412.6 407.2 402.1 398.6 393.7 399.4 401.9 404.6 404.7 405.3 405.9 406.3 406.4 405.9 408.5 413.1 417 419.7 422 423.9 426 428.6 429.5 429.8 429.6 430.1 429.8 428.5 426.2 428.6 429.8 429.1 427.9 425.7 424.5 426.8 431.3 434 435.2 434.9 433.7 430.6 428.2 426.6 423.9 418.9 414.4 411.3 406.1 401.6 396.2 390 383.3 376.7 370.4 363.7 359.5 354.5 349.9 345.4 340.7 335.9 334.9 333.3 331.9 330.7 329.8 329.7 329.5 327.8 323.1 316.7 310.7 308.1 306.3 297.9 301.4 308.9 310.6 313.6 318.4 322.9 324.2 324.3 319.4 316.3 312.7 311.1 314.1 317.6 322.2 325 325.4 323.7 323.2 322.9 321.8 318.2 316.9 316.5 313.9 308.9 303.1 299.1 296.8 292.6 286.7 281.5 278.3 276.3 275 274.1 271.4 269.4 267.1 264.3 262.1 260.3 257.2 253.8 249.4 247 244.1 238.7 233.8 228.7 223.6 218.5 214 209.8 207.7 206.8 205.1 204.4 202.7 199.7 198.7 197.2 196.6 197.1 195.4 192.5 191.5 190.7 190.5 190.3 189.1 189.3 186.3 181.8 183.2 178.8 173.1 171.7 175.4 182.3 182.9 181.1 181.7 180.9 161.4 155.9 158.3 157.1 159.8 165.7 180.3 182.5 184.1 184.8 187.2 191 193.2 194.3 192.2 187.6 186.8 189.1 189.7 189.2 192.1 195.1 195.8 195.5 195.2 194.7 193.1 191.3 189.7 187.9 186.6 184.9 183.4 183.2
446.2 438.8 422 430.1 427.5 423 418.6 413.3 408.2 403.6 398.9 400.9 403.6 404.7 409.7 411 411.7 411.6 411.4 411.4 414.6 417.4 420.4 423.5 427.6 431 434.1 436 437.4 438.4 438 437.2 435.4 435.7 435.5 438.5 440.8 439.7 438.7 438.7 435.7 435 437.6 439.2 438.1 437.8 434 429.4 427.2 425.1 421.2 415.2 410.7 406.5 401.2 396.5 391.8 387.7 379.3 372.6 366.7 363.1 357.5 352 346.9 343.2 341.7 344.4 342.8 338.4 334.5 332.9 332.1 330 328.4 326 320.3 314.3 309.3 306.2 303.3 298.7 290.8 303.2 306 307.7 311.8 313.7 313.8 317.3 313.8 308.6 303.9 302.3 304.4 309.8 314.9 319.3 320.8 321.2 321.4 320.2 320.3 318.5 316.9 316.7 314.3 309.5 303.4 300.5 297.9 294.3 288.4 284 280.8 278.5 276.3 274.8 273.3 271 268.2 265.1 262.7 259.5 256 252.5 248.9 245.1 243.3 241.3 235.1 229 222.6 216.7 212 210.5 209.2 207 205.6 204.1 202.5 201.3 199 197.4 197 197.2 195.7 193.4 192.2 190.9 190.7 190.4 189.9 188.6 188.4 185.5 182.1 179.4 173.9 170.8 171.5 174.5 176.6 180.6 181 178.8 153.9 170.3 155.8 159 159.4 166.4 181.2 181.5 182.4 183.7 186.8 187.8 187.8 189.7 189.5 188 184.4 183.4 184.3 185.6 186.5 188 190 191.3 191.3 190.6 188.9 188.1 186.5 184.7 184 183.6 183.4 183.1
444.7 434.1 437.1 436.1 434 428.7 424.3 418.6 413.4 408.1 400.9 402.5 404 408.3 415.8 416.4 417 418 418.4 416.9 419.7 422.1 424.7 429.2 434.2 438.3 440.6 442.5 443.9 445.3 445.2 444.7 444.3 445 446 448.9 451 451.3 450.8 449.2 445.5 442 440.5 441.7 440.9 437.6 432.9 428.5 425.6 422 417.6 411.3 406 400.4 397.1 391.7 389.2 383.5 375.7 370.5 364.1 357.9 354.5 349 346.1 345 344.6 347.3 344.3 339.6 337.4 335.9 332.4 329.8 327.7 323.9 317.9 312.6 308.8 304.7 300.4 296.2 285.2 293.1 294.7 297.6 301.7 302.8 305.2 306.1 305.5 300.8 296 293.3 295.2 300.9 304.4 309.4 313.1 313.8 315.5 316.7 317.8 318.2 316.6 315.9 314.3 309.8 304.3 301.9 299.1 295.4 290.5 287 283.5 281.4 279.4 277.8 275.4 272.6 269.8 267 262.8 259.2 255.7 251.9 248.7 245.4 241.4 238 233.4 228 222.1 215.7 213.4 212.4 210.9 209.1 208.1 207.1 204.9 201.2 198.9 198.8 198.2 197.1 194.8 193.6 192.1 190.8 190.6 190.2 189.9 189.2 187.8 186 182.8 181.6 177.5 179.3 168.2 168.3 171.7 173 174.1 166.6 154.3 168.8 174 180.4 180.5 181.5 181.2 181.2 180.8 182.8 183.9 184 183.1 183.7 185.3 186.9 185.1 182.6 181.8 180.8 181.4 182.1 184.4 187 187.2 186.9 186.2 185.9 184.7 184 183.4 182.6 181.5 180.3
443.8 439.5 442.3 441.8 439.4 435 429.7 424 419 413.7 402.9 403.6 413 419.6 421.5 423.4 423.8 424.9 424.6 424.6 425.3 428.2 429.8 434.2 439.8 443.9 446.8 448.8 451.4 452.6 454.1 454.4 454.3 454.3 455.8 458.3 461.7 461.7 460.2 457.3 454.3 448.8 442.9 441.3 439.3 436.1 430.4 426.1 423.7 420 414.7 408 401.4 397 393.1 387.9 383.3 378.7 374.4 369.3 360.9 353.3 350.1 347.7 345.9 345.1 346.1 346.8 346 341.6 339.4 336.8 333 331.5 328.1 322.4 315.8 311.2 306.9 302.6 297.5 293.2 288.3 280.9 285 288.8 292.1 294.6 296 298.9 298.6 294.5 289.4 286.7 286.4 290.5 292.8 298.8 304.7 309.3 311.2 311 314.1 315.8 315.8 313.9 312.8 309.1 305.6 303.2 300.1 296.6 292.7 289.1 286.1 284.7 283.3 281.8 278.8 276 273.2 268 263.7 259.4 256 251.6 248.3 245 241.2 236.9 231.6 226.1 221.3 217.7 215 213 210 209.2 207.1 205.6 203.1 201.1 200 199.4 197.7 196.3 193.8 193.4 192.5 191.1 190.5 190 189.6 189.4 188 187 184.6 181.6 184.6 182.8 179.2 174.2 161.9 161.9 159.9 158.5 155.5 155.6 155.2 167.6 170.1 177.5 181.2 180.6 178.8 181.3 182.1 182.6 182.3 180.8 181.1 182.4 183.3 181.9 180.8 180 178.7 179 180.1 182.2 182.8 183.1 184.2 184.3 184.7 184.6 183.5 181.2 179.8 179.6
444.9 446.7 446.9 446.4 444.1 439.4 434.3 428.1 423.1 418.4 404.7 410.6 420.7 425.6 427.9 429.7 430.8 431.1 430.1 431 432.4 433.3 435.6 440 445.7 449.5 452.6 455.6 457.9 460.8 463.6 465.6 464.7 462.2 462.9 466.5 469.4 468.3 466.1 463.1 459.1 453.3 445.7 440.9 437 430.9 427.7 424.1 421.2 418 412.5 405.3 397.7 393.7 388.9 382.3 375.7 372.5 369.2 365.9 357.3 352.5 349.5 347.6 345.8 345.6 346.3 344.8 343.6 341.2 340.3 338.3 335.7 330.6 325.9 320.5 314.5 309.3 305.3 301.5 295.3 290.7 287.8 284.9 276.6 280.7 284.9 286 288.4 290.4 290.2 289.3 287.3 282.6 281.6 283.5 284.3 289.5 295.1 303 304.8 306.1 309.1 312.4 313.4 313.1 312.4 310.1 306.9 304 300.4 297.1 293.7 290 288.8 287.9 287.3 285.1 282.3 278.3 273.1 268 263.6 259.9 255.7 251.2 247.9 244.5 240.3 235.8 230 225 221.4 219.1 216.2 213.2 210.2 209.4 209.2 207.1 205.7 202.7 201.1 199.2 197 194.9 193.2 193 192.9 191.6 190.3 189.9 189.4 189.1 188.6 188.3 188.3 188 186.9 185 182.3 177.8 165.1 158.8 159.1 156.1 156.8 153.1 149.2 154.7 156.2 161.1 170.6 170.5 173.2 179.5 181.1 180.9 180.7 177.4 176.1 176.5 178.3 180 180.1 178.7 176.3 177.5 177.5 178.8 180 182.6 183.3 182.1 181.7 181.5 180.9 179.2 177.2 176.9
452.7 451.6 451.5 449.6 447.3 444.2 438.7 432.3 428.2 419.7 405.5 417 427.1 431.6 434.2 436.3 437.8 438.1 438.3 437 438.5 440.6 443.5 444.1 450.4 455.1 458.4 461.7 464.7 469 471.6 472.9 471.5 468.8 468.9 469.2 469.3 470.2 468.5 465 459.3 453.7 447.3 440.1 433.9 433.2 428.4 420.6 418.3 418.2 411 400.2 393.6 387.9 381.5 376.4 370.5 367.9 365.7 361.3 354.3 351.3 348.2 346.1 344.4 343.1 341.6 340.5 340.2 340.1 340.6 340 338.3 332.3 327.5 324.2 318.5 311.3 304.7 298.9 293.6 288.4 286.5 285.1 283.4 273.7 280.2 282.2 283.5 284.7 284.8 284.6 284.3 281.1 267.5 277.6 278.8 282.3 287.8 292 296.5 299.9 305.1 308.7 310.6 313 311.9 309.8 307.3 304.3 300.8 297.3 295.3 293.5 292 291.6 293.1 289.4 284.3 278.8 274.2 269.2 263.6 259.7 255.2 250.9 247.5 243.7 239.2 234.7 228.9 225.1 221.3 218.9 216.4 213.4 210.3 208.3 208.3 206.3 206.6 204.9 201.2 200 198.4 196.7 194.4 192.8 192.3 191 190.2 190.3 190.2 189 188.5 187.9 188.8 188.7 188 186.9 184.5 182.4 177.5 178 173.9 170.1 163.6 155.2 148.6 147.1 147.6 147.7 149.5 154 166.8 180.6 181.1 180.8 178.9 175.1 169.4 169.7 170.4 172.1 173.1 173.8 175.4 175.2 176.6 177.1 178.2 180.7 180.9 179.4 178.4 177.7 177.2 176.8 174.8 174.5
456.6 455.9 454.5 452.4 451 448.7 444.5 438.2 432.2 415.1 408 426.8 433.5 437.7 440.7 442.9 444.3 444.8 446.8 446.4 446 446.8 451.6 453 455.4 459.4 462.9 466.4 468.7 471 472.7 473.7 471.9 470.4 469 468.2 467.8 466 464.8 460.9 457.2 452.6 447.8 442.6 439.3 435.3 431.2 424.8 416.8 415.1 406.4 397.5 390.5 383.8 375.2 369.5 366.2 361.3 359.2 357 352.2 348.3 344.3 343.5 341.8 338.9 336.7 328.4 337.2 340 339.9 341.4 338 330.7 326.6 325 318.7 311 299.9 295.9 289.6 285.4 284 283.6 283.6 282 268.9 266.5 266.9 268.5 268.1 265.5 262.3 261.9 262.4 268.5 273.2 274.7 279.9 285 289 293.7 299.2 304.1 307.4 311.6 310.8 309.2 306.9 304.4 301.2 299.7 298.8 297.5 296.4 294.2 294.6 291.7 286 280.7 275.9 270.6 265.4 261.2 255.4 251 247.4 243.1 238.2 233.5 228.7 224.9 221.2 219.2 216.2 213.7 210.8 207.9 206 205 204.7 202.8 203.2 203.1 200.2 198 194.8 192.5 191.8 190.9 190.1 189.3 190.3 189 189 187.2 187.9 189.1 188.5 187.7 186.4 184.8 184.2 182.8 177.8 175 166.7 163.6 149.3 143.1 144.3 143.8 145.7 145.1 156.1 174.5 174.8 173.1 172.3 168.1 165.8 165.8 165.4 166.3 167.8 171.5 172.9 173.2 174.8 175.1 176.3 178.1 178.3 178.2 177.2 176.5 175.4 174.5 173.6 172.6
458.6 457.9 456.9 455.8 455.2 453.5 450.5 444.3 429.7 412.3 413 434.3 439.4 444.7 447.6 449.3 451.7 452.7 452.8 452.9 453.3 455.8 456.7 458.2 459 461.5 464.3 466.1 467.9 468.8 470.1 470.9 470.3 468.2 466.2 464.7 464 462.1 461.9 458.8 455.9 451.9 450.5 447.9 443.4 439.5 433.3 426.5 418.1 412.1 402.5 391.3 386.3 379.5 371.6 365.6 360.3 357.3 353.4 353.1 350.6 348.2 345.4 347.1 347.7 347.3 346.5 340.7 326.5 333.1 338.7 338.1 335.2 329.7 326.1 323.3 317.9 306 299 294.2 288.7 284.6 283.5 282.2 281.5 273 268.1 270 270.2 264.1 265.4 262.2 259.1 257.4 256.2 256.5 255.2 259.6 273 275.1 282.1 288 293.3 299 303.3 308.1 308.8 307.5 306.4 304.5 304.3 303.5 302.8 301.9 300.8 299 295.3 292.6 287.3 282.4 277.6 272.2 267.8 263.3 256.9 251.2 247.2 242.6 237.8 231.9 228.9 228.9 223.8 218.9 216.9 214.8 212.9 209.5 207 205.2 204.2 202.8 201.7 201.5 198 195.9 196 193.7 191.7 190.8 190 189.2 188.2 187.8 188.8 187.7 186.5 187.3 187.7 186.9 186.9 186 184.3 184.4 178.6 172.9 168.2 171 150.2 145 142.4 141.5 140.4 139.6 140.5 150.6 161.9 164.3 161.5 159.8 161.9 162.5 165.1 166.1 167.3 167.3 168.4 170.8 174.6 174.8 175.4 176.2 176.2 176.3 175.4 174.3 173.3 172.5 171.6 170.6
460.5 460.7 460.6 460 458.8 457.9 455.2 449.3 423.8 412.7 428.5 440.6 445.1 450.4 454.3 456.9 458.4 458.7 458.6 458.6 458.1 459.6 460.1 461.4 462.7 463.9 465 466.2 467.3 467.1 467.7 468.2 467.9 465.9 463.4 460.9 459.9 459.3 457.9 456.5 454.5 451.6 449.4 447.6 444 436.1 428.4 418.8 410.3 406.2 398.7 390.6 380.6 373.8 366.4 361.5 357.5 355.8 353.1 354.1 351.6 350.5 350.7 350.9 351.6 352.2 350.1 345 340.4 336.2 314 328.1 329.4 324.8 321.1 318 309.7 302 294.6 292.4 289.5 284.6 282.9 277.8 272.7 270.6 281.2 281.4 283.3 280.2 267.1 261.6 260.5 264.4 264.6 254 253 252.6 256.6 264.3 274.5 280.7 286.3 291.7 299.3 302.7 304.8 304.4 304.6 304.1 304.7 305.8 306.6 305.8 305 303.1 298.5 293.2 288.8 284 279.2 274.6 271.1 265.4 258.9 252.7 246.6 241.7 236.8 232.8 229.1 225.6 222.8 221.6 219.3 216.7 214.2 211 208 206.2 205.2 203.5 202.5 201 199 197.7 196.6 195.7 191.5 190.7 189.8 188.9 188 187.4 187.7 187.6 187.9 185.9 185.8 186.6 187.5 186.7 185.7 184.1 179.9 176.7 175.9 174.4 159.1 145.8 142 141.7 140.1 139.3 138 135.2 145.5 148.3 155.1 163.1 164.8 165.3 165.4 165.3 165.1 165 165.4 170.2 172 173.5 175.6 175.9 175.5 174.7 173.4 172.3 171.4 170.5 169.7 168.6
462 462.7 463.5 463.2 462.4 461.5 459.2 451.5 420.6 417.9 439.5 446.7 452 456.5 460.8 462.5 463.7 464.3 463.8 463.1 462 462.7 462.4 463.6 463.9 465.1 466.2 466.4 466.3 466 465.3 465.6 465.6 463.8 461 458.4 456.8 454.7 452.8 452.4 452.2 450.5 450.2 448.5 443.3 436.4 428.3 417.5 409.3 402.9 393.4 385.1 377 371.3 366.1 364.5 361.1 358.6 359.5 358.8 356.1 354.8 354.1 354.1 353.7 352.2 351.2 349.3 340.8 340.1 334.3 326.5 308.4 317 311.3 310.6 304.4 298 292.7 290.3 284.7 280.8 276.2 274.9 280 279.5 283.1 285.4 286 287.5 287.8 284.9 289.9 281 276.2 272.5 257.4 251.2 250.9 251.5 260.8 271.6 279.5 286.9 291.4 296.9 299.1 300.1 302.2 303.9 304.8 307.7 309.3 310.4 308.8 305.7 299.9 294.1 290.5 286.1 281.8 277.2 273.5 268.9 261.5 253.7 246.5 241.5 237.3 233.4 231.8 230.9 228.3 222.5 219.8 217.8 215.4 212.5 209.2 207.8 206.9 206.1 204.1 203.3 201.7 200.4 196.2 194.7 194 190.5 189.6 188.7 188.3 189 186.9 185.7 185.4 187.7 187.4 185.2 187.5 187 187 187 182.3 176.9 172.5 171.2 171 167.5 153.7 140.2 140.6 140.7 139.4 136.4 134.7 139 153.1 164.3 165.1 165.4 165.3 165.2 164.9 164.3 163.8 167 169.9 171.8 173.8 175.6 176.2 173.5 172.3 171.2 170.1 169.1 168.5 168.9
463.4 464.8 464.9 464.8 465.1 463.7 459.9 451 427.7 418.3 437.9 454.1 458.5 462.1 465.6 467.7 467.9 468 466.7 465.4 465.5 465 465 465.4 465.6 466 465.4 465.5 465 463.9 464.1 463.3 463.2 461.4 459 456.4 452 448.8 447.9 447.1 448.8 450.8 450.3 447.4 442.3 436.2 428.3 419.1 409.5 401.6 389.5 383.3 375.4 372.2 366.9 363.7 363.1 362.9 363.3 363.1 361 361.2 358.5 356.5 355.2 354.2 353.1 351.9 343 334.5 332 325.1 320.1 310.3 300.4 299.5 298.8 295.4 286.1 282.5 285 279.7 280.8 283.8 284 284.4 286.8 289.3 290 288.7 289.3 287.9 287.2 282.6 276 273.8 270.4 268.5 249.5 248.9 248 257.5 272.6 281.3 285.7 289.2 292.9 293.3 295.9 301.6 303.3 306.4 309.2 310.8 310.5 306.7 301.7 295.4 291.4 287.7 284.3 279.6 274.9 270.7 263 255.5 247.7 241.2 237.9 238.5 231.7 228.4 225.2 222.1 219.9 218 214.4 213.5 210.4 213 214.8 212.1 210.8 205.5 204.7 202.9 197.9 195 192.9 190.8 189.5 189 188.6 188.5 187 186.2 185.5 185.8 188.1 187.2 185.8 187.4 186.5 176.3 171.4 165.6 163.1 160.7 162.6 162.9 162.8 164.4 152.6 153.6 138.2 136.8 135.5 135.7 145.2 163.1 164.7 165.3 164.9 163.7 164.6 164 163.4 163.5 166.8 169.9 171 172.8 172.8 172.7 171.5 170.2 169.1 168 167.3 169.3
463.9 464.9 465.1 465.2 465.1 463.9 459.1 449.9 434.3 421.5 440.1 459.5 464.5 468.1 470.4 470.3 468.6 468.2 468.1 467.3 467.4 466.7 466.1 466.4 466.3 465.1 464.1 464.3 464.6 463.3 461.8 461 461.2 459.2 455.1 450.5 446.6 443.2 442 444.3 448.9 451.4 449.4 446.2 440.6 434.3 426.9 418.9 407.2 400.1 387.8 379.6 371 371.2 371.4 370.6 368.1 366.9 367.5 368 366.4 365 360.7 356.2 355.7 354 352.2 349.5 346 335.9 329.2 323.7 316.7 309.1 305.5 301.5 293.7 294.9 287 287.7 281.8 288.7 288.5 287.5 287.6 288.3 291 293.2 294.5 291.5 290.3 290 286.2 282.7 279 276.3 272.8 269.3 267.5 249 246.9 245.5 265.5 271.5 278.7 282 286.8 286.6 289 295.3 297.9 302.4 306.9 309.2 309.2 307.2 302.5 295.3 292 288.9 284.8 281.4 276.9 270.8 263.3 256.7 249 241.8 238.6 236.9 230.6 226.5 223.6 222 220.2 218.2 216.1 215 213.2 212.7 214.9 211.9 210.8 205.6 203.1 201.3 199.5 198 195.1 192.8 190.2 189.4 189 189.9 190.6 189.2 186.4 184.4 186.6 187.5 186.6 183.7 178.2 168.9 166.5 166.4 164.3 160.6 158.9 157.7 154.7 153.2 150.3 156.3 161.7 146.6 136 137.2 131 149.6 163.3 163.3 158.7 163.9 164.7 164.3 163.3 163.2 164.4 169.3 169.4 169.5 170.8 171.7 171.9 170.9 169.6 168.3 166.1 168.6
461.9 462.2 462.7 463 462.5 460.7 457.8 451.2 432.3 422.8 444.3 461.3 465.5 468 468.6 468.6 468 468.2 468 467.9 467.1 466.4 466.8 466.7 466.4 464.6 464.2 463.2 462.4 463.2 462.7 458.7 460.8 460 454.2 449 446 440.9 436.2 440.2 446.2 448.7 447 442.7 437.9 431.5 423.7 415.4 405.3 396.3 385.7 376.7 378.5 381.4 382.9 378.7 376.6 375.8 373.3 373.2 371.8 366.4 362.9 354.7 350.9 351 348.1 343.7 341.3 332.1 327.7 321.6 312.9 307.2 304.2 301.3 299 288.3 292.7 290.2 295.7 294.5 295 294.3 292.8 293 295.8 297.8 299.5 296.9 292 291.6 289 285.6 284.7 281.7 276.7 271.3 267 259.1 247 243.6 252.7 265.2 274.2 276.3 279 280.3 282.4 286.6 290.5 296.9 303.4 306.4 304.9 302.5 297.5 293.8 291.1 287.8 284.8 281.4 276.7 271.2 263.5 255.3 248.4 242.8 238.4 235.1 231.3 227.5 225 222.4 220.5 218.3 217.3 216.3 213.2 213.6 213.2 212.1 209.4 206.5 203.2 201.5 200.7 200.2 196.8 194.6 191.9 189.8 189.6 189.3 189.6 189.7 189.4 187.4 183 182.7 180.9 177.2 174.9 172.1 170.6 167 164.6 162.7 163.2 163.1 159.2 156.7 157.4 149.8 144 153.9 156.2 140.3 129.9 141.9 148.4 159.9 165.5 165.4 165.3 165.2 164.3 162.9 163.1 166.3 168.5 169.4 170 170.6 170.8 171 170.4 169.1 165.8 165.9
458.9 459.1 459.4 460 459.7 458.1 456.4 453.8 441.5 422.9 434.1 458.6 463.4 464.8 465.3 465.9 466.5 466.9 467.2 465.6 465.7 466.1 466.4 466.7 466 465.2 464 464.1 464.5 463.3 463.6 462.6 461.3 461.1 456.9 451.3 448.4 444.8 439.5 431.9 438.9 442.9 442.1 438.6 433.8 427.3 419.6 411.3 399.5 390.8 379.2 384.7 386.9 392.3 393.8 388.1 387.9 385.8 380.2 377.7 374.7 368.2 365.7 357.4 348.1 343.4 339.7 336.8 335 331.3 324.9 317.9 310.6 306.1 302.8 294.7 293.3 297.8 299.2 302.7 304.1 305.2 303.7 301.4 298.6 298 300.7 303.3 304.9 299.5 295.5 293.1 290.1 288.2 288.1 283.7 277.8 273.4 269.7 267.4 266 242.5 244.5 252.7 265.5 266.4 270.9 271.7 274.4 280.7 283.9 291.1 299.3 300.6 298.1 295.4 291.4 288 286.3 285.5 282.8 280.3 276.5 271.5 264.4 254.7 248.2 243.8 239.7 236.2 232.4 229.7 226.8 224.1 221.3 219.4 218.4 217.4 215 214.9 214 212.8 210.3 207.5 204.8 202.6 201.9 199.8 197.7 195.5 193.2 190.6 188.9 188.3 188.5 188.8 188.7 186.1 184.9 183.2 184.4 180.1 178.2 176.5 174.4 171 169.8 169.1 169.2 167.4 166.7 166.7 165.9 164.1 156.7 140.6 142 141.9 138.9 138.4 160.3 166.2 166.1 166 165.9 165.9 164.7 162.9 162.3 163.6 166.7 168.6 169.4 169.6 169.8 169.9 170.1 169.4 167 164.2
454.2 454.4 454.9 456.4 458 457.4 456.6 454.3 450.3 428.6 429.3 455.7 460 461.3 461.8 463.1 464.2 463.6 463.1 462.5 463.8 465 465.3 465.9 466.5 465.4 465.5 465.5 465.9 465.6 464.6 463.5 461.7 460 456.9 453.2 448.4 445.5 440.9 428.5 430.4 435 435.4 433.2 427.7 420.9 413.2 405.8 395.5 385.1 389.4 394.6 395.9 398.8 400.9 397.5 393.8 389.2 384.7 378.4 373 369.6 366.4 356.2 344.8 338.8 334.6 330 328.4 324.7 317.8 314.4 310 304.2 304.3 297.2 303.5 303.5 306.8 309.4 311.2 312.1 310.6 307.4 303.2 303.2 305.4 306.5 306.4 302.8 298 294.3 291 289.1 288.1 285.1 280.2 272.8 267.6 263.4 258.9 245.1 241 242.2 252.5 258.6 260 263.2 262.8 267.5 275.9 284.7 292.5 293.1 290.7 287.3 283.8 281.3 281.3 280.4 279.6 278.5 275.5 269.7 262.7 255.1 248.7 245 240.6 237.2 233.4 229.7 226.7 224 221.3 219.8 219.3 218.5 217.6 217.4 216.6 214.7 211.5 208.6 206 204 202.9 200.7 198.6 196.4 193.6 191.5 189.3 187.4 187.6 187.9 188.3 187 185.4 185.8 186.9 186.5 183.9 181.9 178.4 179.1 177.8 178.4 174.8 168 166.8 166.6 166 165.1 165.9 162.1 148.5 136 133.4 131.6 148.6 161.4 166.7 166.7 166.6 166.4 165.1 163.6 162.5 162.5 163.6 165.1 166.5 166.9 167.5 168 168.3 168.8 167.8 167
448.7 449.3 449.9 452.9 454.8 455.6 454.9 453.5 450.8 438.2 435.1 453.8 456.1 457.7 458.2 458.5 460.5 460.5 459.8 460.5 462.3 464 464 465.9 466.1 466.1 466.5 467.2 467.2 466.5 465.5 464.7 464 460.8 456.4 453.8 448.7 445.3 440 431.9 423.5 425.6 425.4 424.2 420.6 413 406 399.1 389.5 395.4 400.4 403.7 404.2 407.5 407.8 403.4 398.7 392.9 387.7 378 372.5 369.7 364.7 351.4 339.3 334.3 328.6 325.7 322.8 319.8 311.8 308.3 309.9 309.3 307.3 305.9 307.3 310.1 313.3 315.9 318.1 318.5 317.4 313.6 309.1 309.2 309.5 308 305.7 303.2 300.5 296.9 293.4 290.9 290.3 288.7 285.1 278.8 271.5 267.3 262.3 260.2 240.3 240.4 238 244.7 246.9 248 248.5 254.7 265.7 278.3 280.2 280.1 279.1 274.8 272.7 273.9 274.9 276 275.3 274.4 270.8 265.1 258.6 254.8 249 245.4 240.7 236.4 232.6 229.3 226.6 223.9 221.3 220.1 219.4 219.7 220.3 219.9 219.2 216.7 213.1 210.3 207.9 205.5 203.8 201.6 198.6 195.6 193.5 191.3 189.4 188.1 187.7 187 187 188.2 187.8 189.3 188.2 189.7 186.2 183.7 182.5 184.9 182.9 183.7 178.5 168.4 167.1 166.5 165.8 165.6 165.9 164.6 162.4 156.4 147.4 137.4 136.4 152.3 167.4 167.6 167.4 166.8 165.8 165.3 162 161.9 162.3 163.3 165.2 164.6 164.7 165.3 166 166.3 166.7 166
441.7 441.7 444.3 449.4 451.6 452.6 450.2 446.6 436.6 432.3 436.6 449.8 451.9 454.1 454.7 455.1 455.7 456.4 456.7 457.6 459.9 461.7 463.5 464.6 465.9 466.8 468.3 468.8 468.3 468.1 469 468.3 465.8 462.2 457.9 452.6 448 444.7 438.5 430.6 420.9 418.4 416.8 415.3 412.4 406.3 400.3 398.7 402.4 407.4 410.1 410.9 411.9 412.7 409.8 404.8 401.7 395.5 384.4 376.5 371.6 369.2 360.9 347.4 338.6 331 326.7 323.5 317.3 314.1 319.8 319.8 318 315.3 307.1 309.9 314.1 316.5 320.1 321.4 323.4 323.6 321.6 318 314.4 315.1 313.8 310.8 306.2 303.5 302.8 300.7 297.8 293.5 291.9 291.5 290.6 286 274.7 267.9 263 259.7 251.1 239.7 238.7 234.4 233.9 232.2 232 245 255.5 261.7 263.8 266.7 265.5 261.5 258.1 261.5 268.2 270.9 270.9 269.9 267.4 263.2 256.1 251.7 249.5 245 240.5 235.6 231.9 229.2 226.5 223.9 221.8 220.6 220 220.6 221.3 221.8 221.1 218.1 213.8 211.5 209.1 206.7 204 201.7 198.9 197.1 195.4 192.3 190.6 190.1 189.8 189.6 190.8 192.8 196.4 200.3 199.1 196.3 190.2 185.2 184.2 185.3 184.7 184.6 180 169.2 166.6 166.5 166 166.1 165.9 165.5 164.6 163.2 147 138.7 126.9 142.8 166.8 168.1 168.2 167.2 167.6 167.1 163.8 160 162 162.9 163.9 163.9 164.5 163.3 163.6 163.7 163.4 161.1
433.4 435.7 439.6 440.6 438.6 437.4 438.1 431.8 431.7 437.9 442.5 445.9 447.6 450 451.6 451.4 451.2 450.6 452 453.6 456.5 459.8 462.1 465.5 465.8 467.3 468.7 470.7 470.7 471.7 472.5 471.5 468.1 464 459 452.2 448.1 444.7 438.7 431.9 425.4 418.7 413.6 407.4 405 402 406.1 410.4 414.4 415.8 416.2 416.7 417 415.5 411.8 406.5 401 393.3 383.1 376 371.8 368.6 357.5 343.4 336.2 330.6 327.5 321.3 324.1 322.7 323.6 322.9 319.3 316.1 312.4 317 319 321.9 326 326.3 326.2 325.7 321.3 319.3 319.3 320 317.8 314.2 313.2 308.9 306.2 302.3 299.5 295.7 292.4 290.2 289.1 286.4 279.4 270.8 265.4 263.2 255.6 248.4 241.4 238.1 232.3 231.6 229.8 229.1 241.4 245.2 248.1 250.3 251.7 246.4 242 247.5 258 262.1 265.3 264.5 262 259.4 252.3 249.6 246.9 243.2 239.8 235.1 231.8 229.1 226.5 224.5 222.5 221.2 221.2 220.7 221.5 222.7 220.7 217.3 213.8 211.8 209.4 207.1 204.6 202.6 202.2 199.9 197.1 194.6 193.3 193 192.5 194.5 196.4 199.3 203.9 207 206.1 199.8 193.1 187.6 185 185.7 185.7 185.2 181.7 171 168.6 167.3 166.4 165.8 165.6 165.2 160 148.9 135.4 131.9 132.1 143.1 162.1 167 167.2 164.5 165.2 167.1 167 158 159.3 162.4 162.7 162 162.5 161.8 160.4 160.5 158.7 156.3
427.4 434.2 438.1 439.4 445.2 448.2 447.9 432.7 443 444.4 443.2 442.5 443.7 444.8 447.2 447.2 445.9 446.6 446.9 451.8 456.5 459.1 461.7 464.6 466.8 468.5 471.3 473.6 475.5 476.2 475.6 473.9 469.7 465.3 459.3 452.6 447.9 445.4 441.4 435.4 426.9 420.8 416.5 412.7 411.6 414 418.4 419.2 419.4 420.8 421.7 422.7 422 420.4 415.6 409.6 403.2 392.9 381.5 376.4 373 367.4 352.6 340.3 331.6 330.3 328.7 328 328.4 327.8 328.5 327.8 322.9 317.9 316.7 323.3 324.7 327.1 329.7 328.4 327.6 324.8 321.9 322.9 321.6 321.9 320 320.8 318.6 314.2 310 306.2 300.6 297.2 293.1 290.2 285.4 279.8 277.4 270.7 264 257.6 254.9 247.6 242.4 245.1 245.2 243 237.6 228.5 227.6 225.6 226.7 234.8 236.4 233.2 230.1 239.8 250.2 253.7 257.6 256.3 254.8 249.8 245.5 244.1 242.5 241.4 238.8 236.4 232.5 229.2 227.1 225.1 223.1 222.2 222.3 221.7 222 221.8 219.5 216.7 213.9 211.9 209.7 207.4 205.2 205.2 205.1 202 198.3 196.8 195.1 194.1 194.5 197.5 200.2 203.9 209 212.3 211.2 205.2 198.2 190.4 186.6 185.3 185.3 184 180.2 172.2 168.5 166.6 165.4 161.7 163 158.1 153.8 142.8 132.9 130.7 125 153.6 155.9 157.4 156.9 155.6 155.5 158.4 159.4 156.6 157 158.4 157.5 156.3 155 153.4 153.4 153.3 152.6 151.4
426.8 434 442.4 452.5 455.2 453.1 450.2 438.3 438.7 441.9 440.8 439.6 438.9 439.9 441.1 442.1 442.3 444.1 449.7 453.9 456.9 460.8 463.2 465.3 467.7 471.1 474.5 477.4 479.1 478.5 476.9 473.6 469.5 465.1 459.3 452.9 447.7 445.3 443.3 437.1 429.2 426.1 422.3 418.9 419.1 423.7 423.6 424.7 424.9 425.2 427.1 427.2 426.4 424.1 416.5 409 399.3 389.6 378.7 374.8 370.8 365.1 348.6 336.6 332.8 331.6 330.2 333.4 333.8 335.5 334.1 331.5 328.2 322.9 322.8 328.9 331.4 333.3 334.2 334.5 333.8 329.7 324.7 324.7 323.4 323.9 325.5 324.5 321.5 318 312.5 308 303.6 300.2 294.6 289.5 284.3 277.8 272.9 267.5 261.3 257.6 253.1 247.1 251.6 252.3 250.9 248.7 242.3 232.3 228.3 226 224.6 223.3 222.5 221.3 222.4 226.2 233.6 236.3 243.2 246 244.3 237.3 233.8 236.4 236.8 238.2 238.9 236.7 231.9 228.4 225.8 224.4 223.5 223.1 223 221.5 220.3 220.7 222.6 219.6 216.8 213.6 211 209.2 207.1 205.7 204.7 200.4 198.6 196.5 195.7 195.4 197.4 200.2 203.1 207.4 212.4 216.6 216.2 211.2 203.4 196.6 192.6 189 184.7 181.9 178.7 173.4 168.4 167.3 166.2 163 158 156.1 155.2 151.1 133.3 128.2 131.7 150.9 153.7 154.4 154.2 153.7 154 153.4 153.5 153.7 152.1 153.8 153.3 151.4 151.1 147.6 148.1 150.3 150.2 150.2
420.8 433.5 443.3 449.5 453.5 452 449.3 438.7 429 438.4 436.1 434.5 434.3 435 436.3 437.7 442.1 447.9 453.2 456.7 460.2 462.2 464.6 466 469 472.6 474.7 477.4 478.7 477.6 475.5 472.2 468.1 463.9 459.3 453.1 449.1 445.4 442.4 441.6 438.1 431.7 426.8 425.3 426.5 426.2 426 427.1 429.1 431 431.4 431.6 427.6 419.9 414 406.5 395.7 386.6 377.4 372.4 363.1 351.9 343.2 339.7 335.8 330.9 338.2 340.4 341.2 341.1 339.7 337.3 334 328.2 323.4 333.7 336.5 339.3 340.8 342.4 343 339.1 331.9 328.8 328.2 327.9 328.9 326.2 323.6 320.6 316.2 310.7 306.3 300.6 295.6 290 282.2 276.4 273.5 268.4 262.4 258.3 254.6 255.3 255.6 257.5 255.8 252.6 246.3 238.8 236.4 233.7 230.8 222.9 221.5 220.6 219.4 218.2 218.9 224.8 231.2 233.2 230.3 223.1 223.5 230.9 231.7 234.6 236.3 233.5 230.1 227.1 224 224.3 224 223.7 222.2 220.6 219.4 220.1 225.4 223.3 217.3 215.9 214.9 211.7 208.2 205.6 201.6 198.4 196.8 195.6 196.3 196.5 198.3 200.5 203.5 208.7 213.9 218.9 221.2 217.8 212.8 208 199.2 193.9 186.1 181.5 177.9 173.5 168.3 167.5 166.5 163 157.3 155.6 156.2 156.5 140 136.4 124.9 145.5 152.1 153.3 154.6 155.2 155 154.8 154.6 153.2 152 148.7 146.9 147.7 142.2 140.9 141.4 145.2 144.9 143.3
416.3 427.9 438.5 445.1 449.3 446.3 444.1 441.8 422 431.4 431.8 429.3 429.7 428 434.6 440.4 445.4 451.1 454.7 458.1 463.9 464.8 465.6 467.1 469 471 473.2 475.4 474.8 474.3 472.8 470.4 466.5 463.1 460 454.8 451.3 448.7 446.7 445.2 444.4 440.7 436.6 432 430.4 429.9 432.1 434.2 435.4 434.8 433.6 431.1 423.7 412.3 406.3 397.6 388.7 379 371.5 362.8 351.4 348.2 344.9 342.1 335.3 337.8 345.3 347.9 347.7 346.5 344.9 341.1 336.8 330.9 330.6 339.1 342.1 345.7 347.8 349.7 351.1 346.3 341.4 339.2 338.4 338.3 334.6 330.8 327.4 324.1 318.8 313.5 308.4 302.8 296.8 290.9 284.3 280.2 275.6 270.2 264.8 262.4 259.6 260 260.5 262.2 260.7 254.7 249.3 246.1 242.8 238.9 233.2 230.1 229.1 226.4 218.7 216.5 216.2 214.5 213.9 215.6 216.9 214.6 215.5 220.6 224.1 226.7 229.2 229.4 228 224.9 222.1 223.4 223 222.3 220.7 220.7 220.2 219.7 221.7 219 214.4 211.9 211.6 209.8 206.8 203.3 199.7 197.3 196.1 195.2 195.9 196.4 197.4 199.6 203.2 208.6 214 219.3 220.4 217.9 216 214.2 205.4 192.8 185.2 180.3 176.1 171.8 167.9 167.3 164.8 158.5 156.9 155 152.3 150.9 149.8 146.9 126.3 133.2 151.9 152.2 155.6 155.1 154.7 154.5 154.3 153.5 152.4 150 147.2 143.6 142.8 142.9 141.8 141.2 140 140
411.1 421.6 431.7 435.4 437.7 438 437 436 432.8 416.8 422.4 424.5 420.4 430.6 436.8 442.5 448.9 454.1 457.5 460.3 462.1 465.4 466.2 467.5 467.5 469.1 470.1 470.6 470.8 470.1 469.8 467.7 464.7 462.9 460.5 456.6 454.6 452.4 450.1 449.6 449.1 447.3 444.1 440.9 439.3 438.2 439.3 438.8 438 435.9 432.4 426.7 414.9 403.1 392.5 386.1 377.9 369.6 360.6 354.4 349.4 348.9 343 343 342.8 342.7 350.2 353.2 352.6 351.1 347.9 344.7 338.5 339.7 333.3 344.2 347.8 352.9 357.2 357.2 357.4 353.3 347.5 349.6 350.3 349.6 342.9 337.5 332 328.1 324 316.4 310.5 305 299.4 293.2 287.8 283.8 279.2 274.2 269.5 267.1 265.6 265.9 266 265.8 263 259.6 255.2 252.1 246.5 241.6 237 235.1 233.5 228.5 226.5 227.2 215.4 213.7 212.7 211.3 210.2 209.5 208.6 210.7 213.5 217 220.3 223.5 224.1 221.8 220.3 222.1 221.7 220.8 221 222.3 222.6 221.1 218.6 214.1 209.9 207.4 206.3 204.9 202.5 200.5 198.5 196.7 195.8 194.9 194.6 195.7 196.6 198.7 203.2 208.9 215.2 219.1 220.8 220 214.4 209.8 201 190.9 184 179.9 177.8 173.9 167.7 166 161.7 156.9 154 150.4 149.3 148.2 140.1 135.6 132.3 122.9 143.1 150.4 154.8 154.7 154.4 154.1 153.5 152.3 148 143 141.6 141.6 142.1 142.1 142.2 141.4 139.9 139.4
412.4 411.7 420.5 426.5 427.5 428.7 431.6 431.9 428.4 424.8 412.8 414.7 425.5 434.3 439.4 445.2 450.8 454.3 457.6 460.3 461.8 463.1 464.1 464.9 464.7 463.7 465.2 466.2 466.5 467.6 466.4 465.3 463.5 462.3 460.5 458.6 456.7 454.4 453.3 453.3 453.2 451.9 449.8 447.2 445.1 443.9 442.2 441.6 438.3 431.3 427.3 418.4 406.3 391.4 381.1 375.6 365.7 360.2 357.7 355.7 354.4 349.8 349.4 349.1 348.7 348.7 355.7 358.4 357.1 354.6 351.4 348.2 341.5 344.1 337.5 346.1 353.1 358.6 363.8 364.6 363.3 361 356.5 356 356.7 355.3 351.5 345.9 339.9 333.4 328 320.6 313.7 308.3 303 296.2 291.5 287.5 282.9 278.2 275.9 272.1 272.6 272.9 269.9 268.8 267.2 264.5 261.3 254.8 248.3 244.2 240.6 240.2 236.3 231.6 228.9 224.4 223.9 214.5 213.4 211.9 211.1 209.2 208.4 207.8 206.2 205.5 210.4 214.2 218 217 219.1 220.1 220.2 220.3 222.3 219.1 217.9 216.6 214.3 209.6 205.8 204.4 202.9 200.8 199.5 200 200.5 198 195 194.3 194 195.4 196.8 199 204.2 210.4 215.5 218.7 221.5 220.5 214.7 206.8 197.4 188.4 181.8 180.1 178.9 173.7 167.9 163.7 157.1 154 150 148.5 146.1 131.2 127.7 129.2 128.8 118.8 139 146.2 151.8 154.3 153.9 153.3 152.5 145.5 142.8 142.5 141.8 142.1 142.1 141.9 141.6 141.5 141.2 140.8
418.9 407.5 412 416.3 419 421.1 424.6 426.7 426.3 423.2 413.4 412.2 429.1 436.8 440.8 445.1 448.9 452.8 456.3 458.9 460.4 461 461.8 463 463.3 461.6 459.2 460.2 460.5 461.1 462.3 462.9 462.3 460.8 460.1 458.7 457.2 455.1 455.4 456 456.3 457.2 455.9 452.6 450.4 447.9 444.1 440.8 435.1 427.4 417.8 407.4 395.3 382.4 373.6 368.1 368 363.4 358.9 357.6 353.7 354.9 356.5 355.3 355.1 357.1 360.4 361.9 359.5 358 355 352.8 347.7 347.8 341.9 348.9 356.9 362.7 366.5 368.7 367.8 367.4 365.3 363.5 362.3 359.9 356.5 352 346.6 338.9 332 324.5 319 314.1 308.9 302.4 295.5 291.2 287.1 283.5 279.9 279.6 278.8 277.6 274.2 272.6 269.3 267.3 262.3 256 252 249.7 245.7 241.3 238.4 235 233.1 225.8 220.9 219.7 220.5 215 214.5 210.7 209.8 206.7 205.9 204.3 204 206.2 209.4 211.8 219.4 221.3 218.5 217.9 216.3 212.8 212.3 212.1 209 205.6 206.7 205.9 203.1 200.3 199.9 199.5 199.6 198.4 196.1 193.3 193.8 195.9 196.4 199.1 204.2 208.8 212.4 215.7 217.5 217.4 213.4 204.9 194.8 185.3 177.9 177.1 175.4 171.2 166.2 158.9 152.7 150 150.2 150.2 137.6 123.3 123.5 123.6 124.4 128.2 139.3 139 147.5 150.9 152.2 151.9 145.4 142.6 142.4 142.4 142 142.1 142.2 141.9 141.7 141.4 140.7 140.4
423.9 416.7 406.9 404.6 408.1 412.8 416.3 421 422.8 420.5 412.7 411.7 429.2 435.8 439 442.9 446.8 450.6 453.8 456 456.8 458.1 458.9 459.3 459.5 458.2 455.2 454 454.4 455.1 457.6 458.3 457.8 458.5 457 456.5 453.9 453.4 454.8 456.3 457.2 457.1 455.7 455.3 452.6 448.4 443.7 438 431.1 418.6 405.5 396.1 383.8 376 377.4 379 376.4 370.2 362.1 358.9 359.1 361.5 364.3 362.4 360.6 360.2 361.9 363.8 364.4 363 359.6 354.9 352.6 353.4 351.2 351.4 360.2 365.9 369.7 373.7 376.6 377.2 373.3 371.9 370.3 364.2 360.6 357.3 352.7 344.6 338.7 330.6 324.3 319.2 314.1 308.8 302.6 296.6 292.1 288.4 286 284.3 283.3 282.1 278.6 274.8 271.3 268.9 262.8 260.2 257.7 255.1 250.8 245.8 242.7 236 232.1 226.7 224.5 224.4 224.3 222 217 213.3 211.3 211.3 205.5 203.7 202.1 200.9 202.9 208.2 215.7 215.3 215.9 211.9 209.7 206.4 205.6 203.8 201.8 202.3 204.9 205.6 202.9 202.9 200.4 198 197.7 196.7 195.7 192.2 191.7 195.1 195.4 197.3 201.4 204.2 207.3 209.9 211.2 211.5 209.3 202.4 193 184.2 178 172.5 169.7 166.8 158.8 152.1 151.1 150.9 151.4 140.1 125.7 122.4 121.5 120.3 116.3 122.7 129 134.9 142.7 144.5 145.3 143.9 142.1 141.2 140.2 140.4 140.9 141.6 142.2 142.1 141.9 142 142.6 138.4
425.3 419 412.9 407.6 403.2 403.2 408.7 413.6 416.3 408 406.5 414 425.7 431 435.9 439.7 443.3 447.3 450.2 451.8 453 452.1 455 455.6 455.8 454.7 452.3 451.4 450.8 450.6 451.3 452.2 454.1 452.5 452.6 452.2 449.6 450.4 452.6 454.1 455.3 456 456 455.3 451.4 447 441.3 433.8 423.3 408.4 395.8 386.8 379.4 380.8 385.3 386.2 380.6 375.5 368.8 363.9 363 368.3 371.1 369.7 368 370.7 373.1 372.2 369.7 368.7 365.9 359.2 356.3 358.8 354.7 354.3 362.5 368.7 373.3 377.8 381.9 384.3 383.9 383 380.1 372.1 367 364.3 358.2 350.3 345.6 336.6 328.7 323.4 318 312.5 306.1 300.9 296.9 293.6 291.7 289.9 288.3 285.7 282.4 277.8 275.8 273 269.8 266.7 263.7 259.5 256.7 251.4 246.8 238.7 232.8 230.6 229.6 229.4 226.6 220.3 216.4 215.9 215.6 212.6 206.6 204 202.6 201.2 200.9 200.5 205.5 205.7 205.8 202.1 201 199.6 197.2 195.1 195.3 199.8 202.2 201.1 199.8 198.8 198 193.4 192.4 190.2 189.2 186.1 187.1 189.6 194.4 194.8 197.6 198 201.1 203.3 204.8 204.8 203.1 196.9 190.9 184.2 177 171 165.5 156.6 151.1 150.7 150.7 143.2 133.7 126.5 124.6 124.1 123 114.5 122.2 123.7 124.8 128.8 135.9 137.7 140.3 142.2 141.2 140.6 139.6 139.4 140 139.2 138.5 140.5 140.1 138.7 137.8 134.8
428.9 422.5 415.4 411.7 405.6 400.1 401 406.8 403 409.6 405.4 409.6 421.8 425.9 429.6 435.1 437.9 440.8 443.3 446.5 448.3 448.8 449.9 451.6 450.1 449 448.3 447 446.8 446 446.2 446.7 447.5 446.9 443.8 443.9 444.7 446.6 449 451.3 453.2 453.7 453.5 452.7 450.6 444.6 437.1 429.9 416.5 401.2 392.6 384.9 386.7 393.6 397.9 395.2 390.7 386.5 378.1 373.6 368.6 373.7 376.5 377.3 380.1 381.8 382.4 379.7 376.8 375.4 371.9 366.2 358.9 359.6 356.6 357.2 363.7 370.4 375.3 380.8 385.4 389 392.9 392.4 389.4 383 375.5 370.9 364.6 357.5 352.1 343.6 335.2 326.3 320.9 315.5 310.5 305 301.3 298.7 297 294.7 292.9 291 287.4 283 280.2 279.1 276.7 273.8 270.3 264.9 261.1 257.4 250.7 240.3 236.5 235.9 233.9 229.4 226.7 222.8 219.2 220 217.2 214 211 214 214.2 201.7 200.1 198.4 196.9 196.6 196.6 197.2 196.3 193.9 192.1 190.4 190.2 189 197.4 195.2 190.3 188.1 182.9 178.4 172.1 180.2 179.4 173.1 179 182 184.2 191.1 192.2 193.2 194.4 196.7 198.3 197.9 195.9 191.9 186.2 179.8 172.5 166.7 156.5 146.5 145.8 142.2 134.8 128.3 124 124.3 124.1 122.4 116.9 114 118.8 120 124.2 121.6 130.4 133.3 134.6 134.5 140.4 140.1 139.5 139.6 139.9 138.8 137.9 137.7 137.9 136.3 135.9 135.8
431.5 423.7 418.1 413.3 407.2 402.2 395.9 398.9 403 405.9 403.2 407.4 416.7 420.1 424.2 428 430.6 433.5 436.4 439.5 441.7 445.1 446.7 447.3 446.4 445.3 443.8 442.6 442.3 442.8 441.6 440.8 440 438.4 438.3 439.3 440.2 442.3 445.3 447.5 448.7 448.7 448.2 447 443.7 437.8 430.2 422 410.9 400.5 394.7 397.2 402.8 409 406.7 402.9 398.4 393.8 387.3 380.4 373.3 382 384.3 387.8 389.2 389.1 388.3 385.7 382.8 380.3 378.5 371.4 364.3 361.6 360.6 361.2 363.1 370.6 378.6 386.3 391.4 395.3 399.8 401.5 398.7 393.6 386.2 380.8 374.8 365.7 359 351.6 343.3 331.6 324.4 319.5 315 310.1 306.7 303.8 302.6 299.9 298 296.1 293.7 291.2 289 287.3 284.4 280.7 276.7 272.5 268 261.5 254.3 245.2 240.3 237.2 233.7 230.2 226.2 224.4 224 224.2 221.1 218.3 216.7 217.2 216.3 208.7 200.9 201.7 198.9 196.1 195.6 195.4 195.2 192.9 190.9 190.2 189.5 188 186.1 187.4 184.6 185.2 185.4 191.7 185.9 176 165.8 166.8 159.7 161 166.8 179.2 178.7 166.2 177.1 189.6 191.5 188.8 186.8 183.4 178.5 174.1 171.5 161 147.7 140 133 125.4 127.5 125.6 125 125.2 124.6 117.4 113.4 115 113.2 112.3 112.2 115.3 126.1 130.9 132.1 132.4 133.2 137.3 139.7 139.8 139.8 139.1 138.7 136.9 136.9 137.7 136.6 132.7
433.7 424.4 420 415.2 409.3 405.2 400 395.3 396 400.9 399.4 403.1 410.4 412.6 417.6 421.9 424 426.1 429.3 431.9 435.7 438.6 441 442.3 442.4 441.2 440.2 438.9 439.1 438.5 438.5 437.9 436.9 436 435 433.1 435.1 436.8 441.2 442.2 442.5 442.7 442.1 437.7 434 427.8 420.1 412.1 407.5 400.5 406.2 415.6 421.5 418.6 413.5 409.2 404.6 398.2 392.5 383.3 383.4 390 392.1 396 395.7 395.3 394.4 391.8 388.9 385.5 383 379.6 374.3 371.1 368.5 368.3 364.7 372.7 380.1 389.6 396.3 400.7 406 409.8 408.7 404.4 396.9 390.7 385.1 374.8 366.5 360.8 352.9 343.5 334.1 326.7 321 315.9 312.9 310.1 308.4 306.7 305 301.8 299.8 298.1 297.3 295 289.5 284.7 283 278.5 272.9 265.3 258 250.8 243.9 238.6 234.7 230.8 227.6 226.7 227 226.5 221.9 218.6 216.6 215.5 214.2 212.9 210.7 207.5 205.4 195.6 194.3 193.1 192.3 192.3 191.2 190.4 188.7 187.8 187.6 186.6 186.8 189.5 191.3 191.1 188.9 186.3 176.6 176.2 177.5 160 145.5 161.9 163.4 165.1 157.4 173.2 184 180.5 176 173.2 170.9 168.1 160.9 149.2 137.7 129.3 127.8 127 127.1 125.9 125.9 125.3 123.6 114.3 114.6 113.2 115.6 115.5 113.7 111.2 111.1 122 129.2 131 132.5 132.9 137.8 140.1 139.7 139.4 139 136.8 137.5 137.8 131.9 131.6
434 425.4 421.4 416.5 411.4 407.2 403.5 399 391.1 390.4 393.5 399.4 399.1 399.7 411.5 416.2 418.7 421.3 423.8 426.9 433.1 436.1 437.8 438.3 437.9 437.6 436.7 437.2 436.9 435.7 434.4 434.1 432.6 431.3 430.6 430.5 430.7 430.2 431 433.4 432.9 434.3 433.4 429.7 424.1 413.8 409.1 407.9 406.2 408.4 423.3 428.6 427.4 424.6 420.3 415.5 409.8 403.4 396.5 391 392.3 395.5 396.6 399.3 400.7 399.8 399.1 397.9 394.9 391.8 389.1 386 382.8 378.3 375.3 374.7 374.9 378.6 384.4 393.3 400 405.1 412.2 416.2 417.5 413.7 408.5 403.3 396.5 388 374.1 366 359.2 351.4 342.8 334.9 328.1 323 321.7 319.2 316.7 314.8 312.2 310.7 309.5 307.5 304.1 300 294.6 292.8 289.2 285.2 279.2 270.1 264.2 257.2 248.7 242 237.9 234.1 230.7 229.9 230.5 227.7 222.8 218.1 215.7 215.6 214.9 214.2 212.8 208.8 203.1 202.3 196.6 193.7 193.7 193.4 191.3 190.6 189.4 191.3 188.4 194.8 194.2 192.7 190.5 189.3 188.6 188.5 187.7 189.2 186.1 188.5 165.4 143.3 140.9 143.2 150.1 154.7 167.1 171.4 167.2 163.8 159.6 154.6 145.6 135.2 130.1 129.1 128.4 127.3 128.1 127.5 127.3 125 120.2 114.3 114.3 118.4 125.7 119.6 115.8 115.4 110.9 110.9 115.8 128.5 131 132.4 133.4 137.1 138.8 138.2 138.3 137.3 136 130.6 128.9 123.9
432 425.8 422.7 417.8 413 408.9 405.3 401.3 396.8 391.8 389.4 394.9 397 394.8 406 410.9 413.8 417 420 424 430.3 434.7 436 435.7 435.1 435.1 434.7 435.9 435.1 433.9 432.6 430 429 428.7 428.4 428.6 427.5 426.3 424.7 424.8 424.9 424.4 424.3 421.6 420.3 420.3 422 420.1 418.4 427.2 431.5 432.7 432.1 428.9 425.5 421.1 416.5 410.1 400.3 398 399 400.9 401.7 402.3 405.1 404.5 403.7 403.1 402.4 399.4 396.3 393.2 390.4 385.9 381.2 381.4 381.9 381.5 389.4 396.7 403.4 410.3 418.3 422.5 426.2 424.6 421.4 418 412.3 405.5 388.8 375.5 363.5 356.7 349.8 340.4 334.1 330.1 327 325.2 323.4 321 318.2 317.4 315.5 312.5 309.1 308 303.7 300.6 300.2 296.2 287.4 279 271.8 262.5 255.3 247 242.5 237.8 234.5 233.6 232.4 228.7 225 220.7 217.3 217.7 217.4 215.8 212.1 209.7 207.2 206.2 199.7 195.9 203.4 203.9 198.5 198.1 197.9 197.4 200 201.9 201.8 199.6 197.1 195 194.3 193.5 192.4 185 180.9 177.1 174.9 153.8 149.9 141.6 133.5 135.2 141.6 154 153.4 151.2 148.6 141.1 135.2 131.6 130.3 128.6 128.4 129.7 128.7 127.6 126 122 118.5 114.3 114.4 133.4 137.7 136.9 136.1 124.6 115.9 110.9 110.9 123.4 128.5 130.2 131.2 133.4 137.8 138.7 137.4 132.1 126.8 124.7 123.7 120.1
432.3 427.4 423 418.7 414.6 409.8 405.8 400.7 397.3 393.8 388.3 385.6 391 395.5 400.2 407.2 411.6 415.1 418.2 422.2 428.4 432.3 434.6 434.4 435.1 433.7 433.5 433.4 433.2 432 429.9 428.4 427.4 427.1 426.8 426.5 424.6 423.8 423.8 422.7 423.1 424.3 425.6 426.5 429.3 430.8 431.8 433.5 433.8 435.5 436 436.6 435.7 433.3 429.9 425.8 421.5 416.1 404.7 403.3 408.8 408.9 411.2 410.1 410.4 410.5 410.3 408.8 408.4 405.5 403.1 400.3 397.2 393 389.3 388.9 389.7 388.3 392.8 399.3 407.3 414.8 422.8 429.8 433.7 435.8 434.7 432 426.3 418.4 405 391.8 377.5 365.5 356.4 348.6 341.8 337.6 336.4 334.5 331 328.6 324 322.6 321.4 319.8 317.6 314.1 315 313.4 306.7 296.9 284.5 277.4 272.9 267.6 259.7 252.4 243.9 240.8 237.3 235.4 232.5 228.7 225.2 221.9 219.1 218.4 217.4 215.1 213.4 213.5 210.1 206.2 201.3 207.8 204.1 202.7 200.5 203 202.6 201.9 205.3 208.6 207.7 204.3 200.8 197.4 195.2 192.3 189.3 186.7 185.5 182.2 180.4 174.6 169.8 154.4 142.2 130.8 128.1 128.1 133.4 139.5 133.6 135 133.1 123.3 120.8 120 125.7 129.3 128.3 126.8 123.6 121.3 120.2 114.3 114.3 127.1 139 137.9 137.5 135.9 121.4 117.1 110.9 111.2 121.5 130.1 130.3 130.6 132.9 133.7 132.2 125.7 124.6 124.5 120.3 117.2
433.6 428.1 423.2 418.2 414 410 405.3 399.1 393.7 393.4 390.9 385.8 384 389.7 392 403.1 408.6 411.8 416.7 420.9 426.9 430.2 432.5 434.5 435.4 433.7 433.1 431.9 431.2 429.8 428.3 426.8 425.9 425.3 424.2 423.5 422.3 421.4 422.4 421.3 424.8 424.9 426.9 430 432 433.7 435.3 436.6 437.8 438.9 440.2 439.5 439.5 437.5 434.4 430.6 425.8 414.9 414.3 413.4 415.4 417 419 415.3 415.7 416.3 415.8 416 414 412.4 410.9 408.7 405.7 401.5 399.4 397 397.1 396.7 396.8 405.4 412 420 427.2 434.1 439.6 443.2 444.8 443.3 437.7 429.1 419.3 407.9 390.9 380.1 369.3 360.7 355 350.2 346.6 346 341.6 336.3 333 329 328.7 328.3 324.8 321 318.6 313.5 306.2 301.3 293.8 285.4 277.5 268 259.1 250.5 247.3 245 243.3 239.3 235.3 229.2 225.3 221.7 219.9 218.7 216.9 215.9 216.2 214.9 211.6 208 205.6 205.8 206.6 206.2 203 204.5 204.4 203.9 207.6 212.9 211.5 207.7 202.8 198.3 194.3 191 192.8 193.9 192.6 191.5 188 180.3 176.2 172.5 170.1 159.3 141.5 135.8 126.4 125.3 131.6 121 119.4 118.7 118.7 118.3 117.7 117.7 118.8 123.9 122.1 121.9 121.6 117.5 115.4 115.5 121 138.8 138.8 136.9 125.1 118.5 117.2 110.9 111.3 126.3 128.1 128.1 128.1 127.1 125.7 125.8 125.4 124.4 120.1 118.1
433.6 428.6 423 417.2 412.2 405 403.4 401.1 397.8 397.1 394.8 389.4 383.7 383.3 385.3 397.6 406.5 411.3 414.5 420.1 425 429.7 432 434.4 435.4 434.6 432.3 432.1 429.9 428.6 427.1 425.6 423.9 423.1 422.3 421.6 420.7 419.1 420 421.9 424.2 426.1 429.4 432.1 434.1 435.9 438 439.9 441.1 441.4 442.2 442.9 442.7 441.5 439.2 433.5 419.5 418.7 422.3 420.7 421.8 423.4 424.2 423.8 418.2 419.7 421.4 424.1 423.2 420.8 419.3 417.2 414.9 412 409.8 407.9 405 404.5 404.7 411 417.3 424 431.6 437.3 442.5 447.8 450.3 449.2 444 436.8 428.9 419 403.6 392.5 382 375.3 368 363.7 361.1 358.7 355 349.6 345.5 340.2 338.7 336.8 330.1 324.2 317.5 310.4 305.3 299.6 291.7 283.2 276.2 265.5 259.3 257.2 254.1 252.4 249.3 246 240.8 233.3 228.7 224.8 222.5 220.3 220.4 219.4 217.7 215.1 211.8 209.4 207.7 206.8 207.3 207.4 204.5 206.4 207.6 208.5 210.5 213.7 211.9 207.2 202.7 198.5 194.3 194.6 196 196.1 195.5 193.9 191 178.1 173.7 172.6 169.9 160.6 157.5 156.7 133.6 119.7 119.2 118.9 118.5 119.5 118.6 117.9 117.6 119.3 118.8 117.7 117.7 117.5 119.4 119.3 117.1 116.1 115.5 135.3 138.9 138.4 125.2 119.8 117.2 116.9 109.8 113.6 127.1 127.8 126.5 127.1 126.8 125.8 126.5 118.8 118.8 118.8
431.5 426.7 421.1 413.9 413.1 411.8 409.4 408.1 403.9 402.7 396.7 390.9 386.7 379.7 382.9 392.4 403.7 409.2 414.4 419.5 424.5 429.5 431.4 433.8 434.8 433.2 432.4 430.5 428.9 427.6 426.2 425 423.7 421.2 420.5 419.8 419.3 417.9 419.9 421.1 422.8 425 428.5 433.4 436.3 438.3 440.7 442.3 444.5 444.1 443.7 445.1 444.6 443.6 441.2 434 423.3 429.7 427.3 426.8 427.8 428.3 429.9 430 421.7 422.5 430.8 434.8 432.9 429.6 429.4 427.2 423.1 422.5 420.7 418.1 415.6 412.7 410.6 415.6 422 429.5 434.9 439.8 445.6 451.1 454.2 452.5 447.9 441.6 435 426.3 416.3 405.3 396.3 390.4 385.2 381.9 375.1 368.4 364.4 361.7 352.8 348.2 343.2 341.5 334.9 326.7 318 310.9 303.5 297.2 289.5 282.1 264.9 266.7 267.7 265 259.9 255.7 253.7 249.4 245.6 238.5 235 231.2 230.1 226 222.2 220.7 218.4 215.8 213 210.3 208.9 208.1 209.2 208.9 208.2 208.7 209.8 212.5 211.5 212.6 211.5 207 202.9 198.9 194.8 197.4 198.1 197.4 195.1 184.4 180.6 186.9 174.3 171.1 164.9 161.2 157.4 149.8 121.7 119.2 121.4 121.8 121.9 122 121.4 121 120.9 119.1 117.7 118.2 117.7 116.8 117.7 116 115.5 115.4 117.4 139.3 138.2 138.1 125.3 121.8 119.2 118 113.8 109.8 117 125.1 125.1 125.8 124.2 124.4 123.7 119.3 119.1 119.2
429.1 426.8 422.8 420.8 419.9 418.7 417.4 415 411.2 407.2 401.6 394.8 388.1 378.3 380.3 386.8 400.7 407.8 414.3 420.8 426 430.2 432.5 434.9 435.1 434.2 432.7 431.2 428.4 426.6 425.1 423.6 422.2 420 419.2 418.2 415.4 416.2 418 420.5 422.4 424.8 428.6 432.4 436.1 439.6 443 445.2 446.2 446.1 446.3 446.5 445.8 444.7 436.9 426.1 435.5 434.4 432.5 432.9 433.3 432.6 432.8 431.6 423.5 432.4 441.7 444.4 442.7 439.2 438.2 435.9 433.4 431 430.1 428.6 425.4 421.1 419 421.6 428.2 435.3 440.5 444.1 449.4 453.7 456.1 455.2 451.3 445.6 439.7 431 421.9 414.2 407.3 400.8 395.8 389.4 385 381.9 374.5 370.1 360.8 352.3 346.3 340.3 336.5 327.1 317.6 311.3 301.2 293.7 286.8 273.6 276 276.7 275.9 273.2 265.5 261.3 256.6 252.7 249.6 244.9 240.9 235.5 233.2 229.6 225.5 222 219.5 216.6 214 211.4 209.2 209.3 210.4 210.6 208 207.7 208.7 210.3 210.5 210.8 210.2 207.8 204.3 200.7 196.7 198.8 198.4 197.4 193.1 192.9 193.7 192.2 179 170.1 164.8 159.7 157.8 139.9 119.3 121.4 122.4 122.5 122.6 122.7 122.5 122.2 121.8 121.3 120.3 119.9 117.5 117.7 117.3 116.5 115.5 118.8 142.2 142.3 142.2 140.5 124.9 123.4 120.3 118.4 117 109.8 109.4 117.2 122 124.4 125.7 123.1 121.1 120.1 119.6 118.8
432.1 431 428.7 427.6 426.1 424.1 421.4 418.2 414.6 409.4 405.3 398.9 390.6 379 377.2 383.6 398.2 408.5 414.6 419.9 424.6 429.3 431.3 434.9 435.2 434.6 432.6 430.6 428.3 426.6 425 423 421.1 420 418.3 416.8 415.4 413.2 414.3 419.7 422.9 425.4 429 432.5 436.8 439.7 442.6 445.7 445.3 444.8 445.6 446.4 446.1 441 430.7 440.5 440.6 439.4 438.7 438.2 437.2 431.2 425.3 425.8 433.8 444.5 449.9 450.7 450.4 449.6 448.2 445.4 442.9 441.6 440.8 439.1 433.7 429.1 426.6 427.9 435.2 442.1 445.3 449.7 454 456.9 458.8 458.2 453.9 448.7 442.9 434.3 426.9 422 416.3 411.3 406.7 400.9 393.5 388.7 383.4 376.4 367.7 356.3 350.9 343 334.3 325.3 317.3 307.3 297.9 290.3 283.8 283.3 284.3 283.9 283.5 280.8 274.9 267.7 262.8 258.5 254.6 250 246.3 241.9 237 233.7 229.5 225.4 221.5 219 217.1 214.7 211.6 210.8 210.3 209.2 207.7 207.7 207.7 208.5 209.1 209.1 208.6 207.6 204 200.3 199.9 199.6 198.8 197.9 196.8 195.1 191.7 184.7 174.4 169 163.4 158.5 157.3 135.4 121 122 122.9 123.1 123.2 123.3 123.3 122.6 122 121.6 121.2 120.7 121 119 117.6 117.5 127.7 141 141.2 142 142.3 140.9 125.8 123.5 121.6 119 118.4 116.1 109.4 110.8 118 119.6 119.2 121.4 119 118.9 118.4 118.1
435.6 433.6 432 431.6 430.1 427.4 424.2 420.4 416.5 411.7 408.1 404.1 399.2 381 375.4 380 397.7 407.6 415 421.6 424.8 428 431.2 434.1 434.6 433.7 431.8 430.1 428.3 426.4 425.4 423.7 422.4 420.8 419.1 416.9 413.2 409.2 411.7 415.3 421.8 424.6 428.3 432.4 435.9 438.2 440.3 443.4 442.2 442.9 443.6 443.9 445.4 438.3 442.9 445.6 445.5 443.6 443.8 442.4 440.3 430.4 442.8 444.7 446.7 452.5 456.2 457.6 459 460.5 458 454.8 452.4 451.2 449.6 447.9 442.7 437.4 433.5 436 443.2 449.2 451.4 453.9 458 462 463.7 463.2 458.6 452.4 446.5 440.3 436.9 432.1 426.4 421.5 416.8 410.6 401.7 393.9 386.2 377.5 368.9 359.6 354.2 347.1 336.6 326.4 315.7 306.8 297.6 287.3 291.7 289.9 289 289.2 288.9 289.7 285.2 274.3 269.2 265.5 261.1 256.3 250.3 245.8 241.6 237.7 233.1 229.3 224.6 221.6 220.1 218.3 215.9 213.5 212.6 210.8 210.7 209.6 208.6 208.6 208.1 207 206 204.8 203.9 201.8 202 200.2 199.8 199.3 197.4 195.7 193.1 180.5 173.4 169.4 165.3 157.7 157 129.7 120.6 122.1 123.2 123.4 123.5 123.6 123.2 122.7 122.2 121.5 122.3 122.9 131.3 131.4 131.3 142 142.3 142.3 142.2 142.1 141.9 141.8 128.6 122.6 122.8 120.4 118.8 119.2 110.4 109.1 116.6 117.8 119.3 119 118 118.2 117.9 118.4
437.8 436.3 435.4 434.7 432.8 430 425.5 421.6 417.7 413.8 410.7 410.5 401.3 379.5 374.6 376 395.7 406.8 414 419.1 423.4 426.3 429.7 432.1 432 431.9 431.7 430 428.2 426.5 426 425.2 423.1 421.2 419.3 417.4 414.4 411.9 406.2 410.2 417.4 421.7 425.7 431 434.9 436.9 437.9 437.4 437.6 439.5 440.4 441.8 442.3 443.8 446.2 447.2 447.5 447.6 447.4 446.3 446.9 435.3 449.7 453.1 454.7 457.6 461.8 465 467.4 468 466.9 463.4 461.5 459.9 458.2 455 451.6 446.4 442.6 447.2 453.7 456.4 457.7 460.9 463.7 467.5 469.2 469.1 465.8 459.4 453.5 448.5 443.3 439.7 435.2 429.9 423.2 416.1 406.3 396.8 388.1 378.6 368.3 360.4 352.8 345.5 337.8 328 317.5 307.1 299 299.8 297.6 296.8 294.7 294.9 297.8 298.3 293 286.3 278.8 273.6 268.4 262.9 257.2 250.3 246 241.3 237.2 233.2 228.5 224.5 222.5 220.9 218 216.2 214.7 214 213.5 212.4 211.2 210.1 210.2 207.7 205.3 203.7 203.3 202.6 202 201.3 200.9 200.1 195.5 192.1 192.4 181.3 173.5 166.4 160.7 158.4 156.2 130 120.1 122.5 123.2 123.6 123.8 123.3 122.6 122.5 124.8 125.2 125.1 137.7 143.8 143.2 142.7 142.4 142.4 142.5 142.3 142.1 141.2 141.7 131.6 122.8 122.8 121.6 118.2 118.8 116.3 109.5 111.6 115.8 117.3 119.2 119.2 118.3 118.9 118.4
440.4 438.3 438.3 437.5 434.4 432.4 426.2 422.5 418.6 414.2 410.9 409.2 394.7 384.2 373.3 374.9 395.6 404 411.7 416.9 421.1 423.1 424.7 426.3 427.8 430.2 430.2 430.4 428.8 428.8 428.6 427.7 425.6 423.6 420 417.2 415 413.9 411.6 404 411.3 416.4 419 428.3 431.1 430.9 432.2 432.2 433.5 433.5 435.6 439.6 440.4 441.7 445.1 446.4 449.4 450.7 451.5 448.6 437 433.5 449.1 459 459.4 462.1 466.6 470.2 473.1 475.1 474.4 472 470 468.4 465.3 462.2 458.1 456.3 455.2 458.4 462.8 464.2 465.6 469.6 471.8 472.7 474.8 476.1 473.8 467.2 460.3 454.2 448.3 443.9 440.3 434.3 426.9 418.5 408.8 396.9 384.8 375.5 367.9 358.8 350.6 342.3 335.5 323.1 305.6 313.6 310.7 307.8 306 303.2 302.1 305.1 307.5 305.7 300 293.5 286.5 280 273.9 267 261.8 256.7 251.4 245.8 241.4 237.1 232.4 228.4 226 223.7 220.5 218.2 216.7 215.4 215.9 214.2 212.6 212.4 212.4 210.3 208.3 205.9 204.4 203.8 202 201.2 201.6 199.7 193.7 185.4 185.3 179.7 172.1 164.8 159.1 157.8 158 134 120.6 122.1 123.3 123.8 123.8 122.3 125.1 126.3 125.9 125.5 132.1 144.6 144.7 144.3 143.4 143.7 142.7 142.2 142.2 141.9 141.6 141.4 134.4 122.9 122.4 121.1 119.7 119.6 119.6 110.7 108.9 115.6 115.2 115.7 118.3 118 117.6 116.7
441.1 438.6 437.3 436 433.9 431.3 425.8 420 415.4 412.5 409.1 404 392.8 380.7 370.3 377.7 392.8 403.5 410.2 414.6 417.9 419.3 420.8 422.4 425.9 427.7 428.7 430 431.5 431.7 431 430.2 428.2 426.2 422.8 418.3 415.9 413.7 411.5 404.9 404.6 411.4 413.5 417 423.8 423.9 425.1 426.5 427.9 427.9 431 434.6 436.4 438.7 443.2 446.6 449.6 452 454.7 447.2 456.3 457.2 459.8 463.4 463.9 466.2 470.8 474 477.9 480.4 481.2 479.5 477.5 475.4 472.4 469.4 467 466 466 468.5 470.8 473.1 474.6 477.4 477.4 477.8 479.4 479.8 477.9 472.9 466.5 458.7 452.2 448.7 443.7 437.4 428.3 417.4 407 397.4 385.6 373.9 364.9 358 349.2 341.6 333.5 321.1 326 323.7 318.7 317 315.2 315.1 313.9 314.9 317.3 313.3 305.7 299.9 292.7 284.9 280 273.1 266 260.5 255.3 250.9 245.2 240.9 236.2 232.3 230.1 228 224.7 221.6 219.7 219.3 218.4 215.9 214.8 214.7 214.6 213.4 211.4 208.8 207 204.6 202.1 200.5 199.2 199.4 198.3 186.5 178.9 176.5 169.9 162.8 156.9 151.7 155.9 133.4 120.4 120.9 123.8 124 123.6 124.9 126.5 125.9 125 126.3 138.6 144.7 144.7 144.2 143.8 148.2 155.5 154.7 151.6 143.6 141.7 141.1 137 124.3 123.2 122.4 120.7 119.4 119.2 114.6 109.4 113.6 115.1 114.9 114.8 114.8 114.9 110.7
438.6 436.1 433.9 432.8 431.1 428.6 424 420.7 416.4 411.4 406.4 398.1 389 381 367.7 375.2 390.6 402.5 407.7 411.2 414.1 415.5 416.7 419.2 422.7 425.1 428.1 430.3 432.4 433.4 432.8 432.6 431.2 428.4 425.8 419.7 417 414.4 411.9 406.2 397.4 404.5 408.6 412.6 416 419.5 418.6 419.2 421.3 422.8 425.9 428.5 431.4 436.7 442.1 446.8 450.4 453.6 454.7 447.3 458.9 462.2 463.4 462.9 464.6 470.2 473 476.1 481 484 484.6 486.8 483.2 481.7 479.1 476.1 473.8 474.1 474.6 477.6 479.3 480.9 483.1 482.9 482.9 483.7 485.4 485.7 483.6 479.9 471.6 464.2 456.4 449.9 445 438.4 426.3 416.4 408 400 390.2 376.6 366.5 360.4 352.3 342.4 337.4 336 334.9 331.6 327.3 326.2 326.4 326.4 326.1 325.3 324.9 321.7 314.1 306 297 289.7 283.2 276.7 271.2 265 258.8 254 249.6 244.2 239.7 236.7 234 231.8 229.4 227.5 225.3 223.8 222.6 218.8 216.3 216.4 216.5 215.9 214.3 210.7 207.4 204.7 201.8 200.2 197.5 196 196.9 190 177.8 171.8 166.6 160.1 163.2 155 154.5 130.9 122.7 122.9 122.2 124.2 125 125.9 126.4 125.6 125.4 127.7 142.5 144.8 144.4 144 147.4 156.3 160.1 160.3 159.2 160.9 146.4 145.5 142.4 128.8 126.2 123.8 121.4 119.4 118.8 115 110.8 109.2 114.5 114.4 112 109.8 109.8 109.8
436.1 431.7 430 429 426.6 423.9 421.2 417.6 413.2 408.6 405.1 401.3 391.7 381.8 367.4 371.4 386.1 398.9 405.6 407.4 408.9 411.5 412.8 415.4 419.7 424.8 427.2 430.9 432.8 433.9 433.7 433 434.2 432 427.8 423.1 418.4 415.8 413.2 408.2 403 395.4 403.2 406.4 410.7 411.7 411.8 411 413.7 415.4 418 421.7 430.1 437.8 441.5 445.7 449.5 451.4 448.3 458 459.6 461.6 461.6 461.4 462.8 469.1 472.8 476 480.5 484 487.9 491.7 490.6 488.1 485 480.3 479.3 479.2 482 484.3 485.5 487.1 488.2 489.1 490.4 491.5 492.1 490.8 488.1 482.3 475.4 468.6 460.8 452.7 446.6 438.7 427 418 409.2 401.6 392.9 382.1 370.7 363.1 358.1 352.7 346.9 345.2 343.1 339.9 336 336.3 336.6 337.6 337.3 335.9 335 329.6 322.9 313.9 302.5 295.7 287 279.2 273.6 268.1 262.5 256.8 252.6 247.5 244.4 241.5 239.2 237.3 235.4 233.6 231.2 230 226.8 222.8 218.7 218.3 218.5 217.5 214 210.5 206.9 202.3 200.5 198.6 197.1 191.4 187.8 181.6 175.2 171.6 166.7 162.1 163.6 157.5 143.6 130.6 123.6 120.3 120.5 123.9 125.1 126 126.5 125.5 128.3 129 144.4 144.2 145.7 147.4 155.6 162.3 162.6 162.6 161.9 158.8 160.2 160.4 157.9 135.6 129.8 125.1 123 120.9 119.9 119.4 114.7 110.1 109.8 109.8 109.8 109.8 114.6 123.2
432.1 426 422.1 421.9 419.6 417.8 416.2 413.4 409.5 405.1 402.4 396.4 388.7 378.7 370.4 365.7 379.4 392.9 400.4 403 402.6 404.4 408 410.5 415.6 422.3 427.8 430.6 432.4 434 434.9 435.2 435 433.6 430.9 425.1 420.7 417.5 414.6 409.7 402.8 393.5 394.4 400.7 404.8 403.3 402.8 401.9 404.2 406.5 408.5 417.7 428.6 435 441.3 444.3 447.8 449.4 449.2 455.6 458.4 458.5 458.9 459 461.5 466.3 470.1 473.9 478.3 482.7 487.7 492 492.4 490.7 488.2 482.8 484.5 485.8 486.2 489.2 490.8 492.2 493.5 495.5 498.3 498.4 496.6 495.6 492.6 484 476 470.1 463.2 454.1 447.3 436.5 428.5 419.4 411.4 404.1 396.6 386.9 377.6 369.6 365.1 361.1 358.9 356.6 351.6 350.5 345.2 344.8 346.1 349 350.3 347.9 344.1 338.9 331.2 321.2 310.7 301.1 291.6 283.5 276.6 270.6 265 260.6 257.1 253.3 250.3 248.8 246.3 243.3 242.1 239.4 236.8 234.3 232.1 227.8 223.4 220.8 220.9 216.9 213.4 209.8 206.2 201.9 197.1 192.3 189.8 185.4 181.5 177.4 173.4 170.1 166.4 163.7 164.2 159.9 145.7 130.5 124.2 123.6 121.1 120.2 126.2 126.7 126.1 126.3 128.4 131.3 144.7 147.2 148.3 154 161.1 162.2 162.5 162.4 161.7 161.3 161.3 161.4 156.6 148.3 133.3 127.7 124.2 123.1 122.4 121.3 120.3 116.9 112.2 128.1 140.3 133.3 140.8 153.3
426.8 421.1 411.1 411.8 409.4 407.8 407.7 406.7 404.7 402.1 396.9 391 385.3 378.2 371.3 361.8 370.1 386.3 395.4 397.2 396.4 398 401.8 407.7 412.6 419.4 425.3 429.4 431.7 433.3 434.4 435.1 436.3 436 433.3 426.3 423.2 419.5 416.6 413.1 406.8 398.8 388.9 389.3 397.5 392.8 392.1 389.2 391.7 399 407.5 415.5 424.6 432.8 438.3 443.5 445.6 447.8 450.8 452.1 453.5 455.2 455.9 457.6 461.1 462.8 466.1 470 474.3 479.6 484.8 488.6 489.9 490.4 488.1 485.3 487.4 489.4 490.1 492.9 495 496.4 500 501.6 503.3 503.3 501.7 500.5 496.2 486.6 477.1 471.7 466 456.7 448 436.8 428.4 421.9 414.7 407.6 400.5 391.6 382.9 373.7 371.2 368.7 366.2 366.5 365.1 362.9 360.7 357.9 358.6 359.5 360.2 357.5 352.6 348.3 339.2 328.5 316.2 305.2 296.9 288.6 280.3 273.5 268.8 265.8 262.7 259.7 258.1 257.2 253.5 251.9 249.4 246.5 242.1 239.6 236.8 233.3 228.5 225.6 223.8 218.9 213.3 209.2 205.3 200.9 197.6 191.5 186.9 189.3 186.3 184.9 184.2 183.6 171.9 168.4 168.5 157.3 144.6 131.7 124.7 123.8 123.2 120.2 125.3 126.6 126.4 128.9 130.5 135.7 146.5 149.3 150.4 161 162.1 162.3 162.4 162.3 162.3 162.8 162.7 161.6 160.6 147.5 146.7 132.3 128.3 126.6 125.8 124.7 124.9 129.5 140 153.2 162.5 161.4 167.5 171.6
418.9 415.7 407.6 397.6 391.2 393.4 396.7 398 398.1 397 393.4 383.1 381.7 378.2 370.7 365.7 365.7 378.8 389 391.4 391.2 393 396.6 403.8 409.5 415.7 421.3 424.7 428.6 431.2 433.7 435.8 437.6 437.4 434.9 432.7 427.3 424.2 421 418.2 412.6 406.3 398.2 390.4 386.1 379.3 377.9 386.7 391.4 399.8 408.1 416.5 426 434.2 439.8 443.6 445.9 443.3 448.1 449.5 450.6 451 451.5 453.2 456.9 457.9 462 465.9 470.5 475.7 479.4 483.1 485.8 487.7 487.6 488.3 489.3 491.9 494.4 496.4 499.3 502.3 504.7 506.8 507.4 506.9 505.8 502.5 497.1 490.6 479.2 472.7 467.2 459.7 449.9 440.2 431.9 424.7 417.4 410.3 404.6 399.3 390.4 381.8 378.3 376 374.1 373.5 375.9 375.4 373.9 372.6 371.6 371.4 369 363.1 358.4 355.6 346.9 335.1 322 310.4 300.7 292 284.5 277.8 273.9 271.2 268.3 266.7 265.7 262.9 262.3 259.1 255.7 251.8 247.4 244.5 241.7 238.5 232.6 229.2 224.1 218.5 212.9 208.6 204.6 200.6 196.8 191.9 192.9 201.5 194.8 199.6 194.8 194.8 184.5 175.3 172.2 161.7 148.9 133.1 124.7 124.1 123.6 121.4 120.3 127.2 126.1 129.7 131 137.8 146.9 150.8 153.1 162.9 162.5 162.3 163.4 164.4 165 166 169.1 170.5 168.4 163.3 160.5 151 137.8 134.7 135.4 137 142.7 155.8 166.7 173.6 178.3 182.4 182.8 186
413.6 405.5 394.5 391.3 397 388.9 382.9 379.4 386.5 387.5 385.2 378.9 376.9 375.1 370.8 365.4 358 375.4 380.4 385.1 385.9 387.8 392.3 399.9 404.1 409.9 416.3 420.9 425 429.3 432.8 436.1 438.9 440.2 438.7 435.2 431.3 427.9 423.9 420.1 415 410.9 403.8 396.8 388.6 388 380 381.9 386 398.9 407.1 418.3 427.5 435.3 442 445.2 446 441.2 445.5 445.2 444.7 444.6 446.3 448.1 450 453 456.6 460.5 465.7 470.2 475.1 479.7 482.9 485.2 487 489 491.3 494 497 499.9 502.9 505.9 509.1 510.6 512.9 510.5 507.4 504.1 498.1 487.9 479.9 472.7 466.3 458.6 450.9 442.5 434.1 427.8 420.2 414.2 409.2 403.7 396.5 393.3 389.2 386.4 384.6 383.2 384 384.7 382.9 381.1 380.9 379.9 376 367.5 363 358.6 351.3 339.7 325.6 313.4 303.6 295.4 287.9 281.8 278.8 276.5 274.3 273.8 272.4 270.4 267.8 265.2 262 258.4 254 249.6 246.2 242.5 235.9 230.5 225.6 219.8 212.4 208 202.7 200.3 195.7 194.5 199.9 201.5 202.6 201.5 200.4 200.2 197.1 181.4 166.4 162.9 158 140.1 125.1 124.6 124 123.7 120.5 127.4 127.8 130.1 131.1 138.1 147.2 151.8 155.7 162.6 162.1 166.4 170.2 171.7 173 173.5 177.9 175.9 172.6 170.6 168.5 165.8 158.1 165.4 161.3 166.7 169 179.1 185.2 187.9 190.3 191.7 192.4 196.5
402.3 397.5 404.4 403.5 401.7 398.5 394.2 387.5 377.8 372.2 373.3 375.6 372.8 371.3 368.1 360.8 359.4 369.7 374.1 378.5 378.2 380.8 386.8 392.1 398.5 404 408.8 414.6 418.9 424.9 429.4 436.3 439.9 442.2 440.8 437.1 434.3 431 426.9 421.8 420 413.8 406.9 400.6 388.5 387.6 384.9 372.5 381.2 397.2 406.7 416.5 424.7 432.3 439.5 443.5 443.5 438.8 440.2 438.5 437.7 438.7 440 441.3 443.3 448.1 451.5 455.2 460.2 465.8 470.9 476 480.4 483.1 485.4 488.8 492 494.9 497.9 502 505.6 509.2 512.7 514.8 515 511.6 507.3 502.8 495.3 487.6 479.6 471.6 461.9 455.6 450.6 444.1 435.5 430.7 423 417.8 412.8 407.1 402.5 401 400.1 399.5 395.9 392.7 389.6 388.1 388.1 388 387.7 383.8 377.2 371.8 366.1 361.2 354.1 343.3 328.5 317.5 306.9 299 291.2 286.5 284.2 282 280.8 281.1 278.8 277.5 276.5 272.2 267.9 263.9 259.4 253.8 249.9 245 238.1 232.8 227.2 219.8 212.2 207.5 202.1 199.5 195.4 201.1 202.3 204.4 205.4 203.7 201.3 200.1 195.9 174.9 166.1 160.5 156.7 146.4 127.3 125 124.5 124.6 122.2 120.7 128.9 130.3 131.5 137.5 147.8 153 157.7 162.4 172.6 178.1 183.6 182.8 181.9 180 180.7 178.5 176 175.1 175.4 174.6 174.9 177.6 179.3 181.5 183 188.4 190.5 194 196.5 198.6 201.9 205.8
408.6 410.7 409.6 406.5 403.8 399.4 394.4 389.3 380.9 377.8 369.2 365.3 369.9 367.8 366.1 363.6 354 361.8 365.9 368.9 366.7 367.2 378.1 384.3 390.4 396.1 399.9 408.2 417.4 421 429.1 436.8 441.6 443.7 442.5 439.9 437.1 433.6 429.6 425.7 422.6 417.4 410.5 400.2 393.6 381.4 381 372.1 378.6 395.8 408 416.7 423.5 430.1 434.9 438.5 437.2 435.9 434 432.3 431.9 432.5 433.2 433.9 437 440.6 446.7 450.3 456 461.3 465.9 471.9 477.1 480.7 485.4 489.3 491.9 495.1 499 503.4 507.1 511.4 514.2 514.5 512.7 509.5 504.7 499.7 492.8 485.6 476.2 467.6 460 453.8 449.2 443.6 436.8 431.5 426.4 421.2 416.6 412.6 407.8 404.8 404.6 405 402.3 398.8 393.8 389.8 386.6 385.9 385.6 382 375.7 372.2 365.8 361 355.8 345 331.2 320 310.3 302.5 294.2 291.5 288.9 287.7 288.9 287.2 284.6 282.7 281.6 278.1 273.3 268.3 263 257.7 252.9 247.1 240.6 233.9 226.1 216.3 210.8 205.7 202.7 199.2 198.1 202.6 203.8 205.9 207.2 204.4 201.3 195.7 190.6 174.2 162.7 161.7 162.2 153.5 131.9 125.7 125.2 125.2 123.1 120.7 129.5 130.5 131.7 136.8 148.4 154.2 158.9 173.4 183.2 183.8 183.6 185 185.9 185.4 184.3 181.7 181 180.8 180.5 181.7 184.3 186.2 188.9 190.7 192.2 194.7 197.7 200.7 203.1 206.8 211.4 214.6
416 415.3 413.2 409.8 406 401.7 397.8 394.2 387.1 382.1 377.4 367.8 363.9 363.5 363.3 362.1 351 356.4 361.6 365.5 366.1 366.5 368 377.4 381.9 387.8 389.3 402.1 410.6 419 426.9 434.7 441.4 444.2 444.1 442.4 439.5 435.8 432.2 428.6 424 418.9 412.2 404.4 396.6 383.5 372.6 369.6 378.6 392.8 404.2 415 422 428.1 432.3 432.5 430.9 430.6 428.4 427 426 426.4 426.2 426.6 430.1 434.2 439.2 445.6 452.2 457.4 462.9 469.2 474.6 480 483.9 487.6 491.4 496 500.3 504.7 508.8 510.8 512.5 511.2 508.5 504.7 500.1 494.8 487.9 480.6 471.6 465 458.7 453.1 448.1 442.9 437.4 432.4 427.8 423.5 420.7 417.3 412.2 408.3 407.9 407.2 404.6 401.2 394.5 387.6 383.4 381.4 378.4 373.3 371.4 368.6 363.8 359 353.2 342 331.6 322 314.2 305.7 298.1 294.6 294.9 295.1 295.4 293.4 291.4 288.8 285.5 281.1 275.3 270.6 266.2 261.7 256.5 250.8 242.8 235.1 222.5 214.1 209.5 205 202 201.3 202.9 204.1 205.3 206.6 207 203.6 196.3 186.8 186.8 171 164.5 166.6 165.9 160.7 138.3 128.1 126.9 125.5 123.5 120.7 128.7 131.7 132.7 137.2 149.4 155.8 162.5 182.4 184.1 185.1 187.3 189.6 190.2 189.8 188.8 185.3 184.6 184.7 186.3 187 190.4 193.1 195.9 198.9 200.3 202.6 204.9 207.6 210.3 215.3 220.2 222.7
420.5 418.8 416 411.8 408.9 404.9 400.9 396.3 388.8 384 377.4 371.9 362.9 357.5 359.5 358.9 356.9 348.5 364.3 366.3 365.4 365.1 363.9 363.8 371.6 378.2 384.9 397 406.1 415.2 424.8 432.7 438.5 443 444.1 444.7 441.5 437.8 434.2 430.3 425.3 419.3 413 405.9 397.9 386.2 373.8 366.3 375.1 389.9 401.9 412.5 420.2 426.5 426.8 425.2 424.6 423.7 422.6 421.8 420.6 419.3 418.2 419 422 426.3 432.6 439.5 446.9 453.1 458.8 465.9 471 476.8 482.3 486.9 491.6 495.6 499.7 503.7 506.5 506.8 507.8 506.6 503.3 499.2 494.6 489.8 483 476.4 469.4 462 457.7 452.3 447.4 442.2 436.6 431.6 427.3 424.2 422.5 419.1 415.5 412.1 408.6 405.9 402.1 396.9 390.3 382.9 376.5 373.7 369.6 366.6 365.8 363.5 358.7 352.3 344.6 337.8 329.4 323.9 315.3 307.4 301.6 299.6 299.8 300.2 299.6 298.4 295.2 291.5 287 280.7 276.1 272 267.5 264.3 257.4 249.9 241.7 230.3 219.7 213.8 209.3 205.1 203.3 205 205.8 206.4 207.6 206.8 206.2 201.2 193.5 180 171.3 168.6 168.8 167.2 165.6 165 149.4 130 129 126.7 124.1 121 120.9 132.1 133.5 139 151.2 157 169.9 182.6 184.5 188.6 191.6 193.8 194.6 193.5 190.3 187.7 189.2 190.2 191.7 192.5 194.4 197.7 201.2 204.4 207.5 209.9 212.8 214.3 217.7 222.8 227.7 229.9
425.2 422.5 418.9 415.8 412.5 408.3 404.1 399.4 392.4 382.3 375.6 370.9 366.1 359.7 353.6 351.4 354.2 346.8 357.8 364.6 364.8 361 359.8 361.3 363.5 374.4 385.1 394.3 404.3 416.4 425.3 432.3 437.6 443 445.4 446.6 444.2 440.4 436.3 431.8 426.2 420.7 413.1 407 399.7 388.1 373.2 363.3 368.4 386.5 399.5 409.9 418.3 421.7 421.3 419.4 418 417.8 416.8 415.7 414.2 412.4 412.9 410.6 414.7 418.6 427 436.1 444 451.6 458.1 463.8 468.2 473.2 479.1 485.6 490.3 494.4 497.5 500.9 503.2 503.4 503.2 501.5 498.8 494.7 490 486.4 480.5 474.2 465 458.4 455.2 450.7 445.6 440.8 434.6 429.4 425.8 422.6 419.8 416.5 414.1 410.1 405 400.7 396.3 390.5 384 376.4 369.2 365.7 362.3 361.1 360.1 356.8 352.4 346.6 339.8 332.6 327.1 321.5 314.7 307.7 303.4 301.5 301.7 301.8 300.9 298.1 293.9 290.3 284.3 280.1 276.9 272.9 268.3 263.4 254.9 246.4 238.3 227.7 218.4 213.9 209.6 205.9 204.6 205.1 206.9 208 208.9 207.7 204.2 198.1 190.7 177.5 176.5 182.3 167.3 166.8 165.2 157.9 138.7 133.2 129 127.1 124.3 122.1 121.2 132.4 134.1 140.3 152.8 159.7 175.6 184.2 188.1 192.8 195.3 196.4 195.2 193.4 192.7 193.3 193 194.3 196.4 198.6 200.1 203.4 206.6 209.8 213 216.1 219.1 221 224.1 229.5 233.2 234.3
429.6 427.9 425.7 422.3 418.3 413.4 408.6 404.4 398.8 389.9 381.7 374.5 366.3 360.7 356.1 348.1 355.9 346.1 356.8 362.1 361.7 359.8 356.1 355.5 360.3 367.8 379.5 392.5 403.3 415.7 424.5 431.8 436.9 442.1 446.6 447 446.1 442.4 438.2 433.7 426.6 422.6 415.4 408.8 400.8 390.2 375.8 362.4 365.8 378.1 392.6 403.2 410.3 412.4 413.3 411.7 411.1 410.9 409.9 408.4 406.8 404.6 404.1 404.8 410.9 420.1 428.7 436.3 443.8 451.3 456.7 461.8 466.3 470.1 476.2 482.7 488.9 492.2 495.2 497.9 498.9 498.3 497.4 495.6 494.2 491.2 487.8 483.7 477.5 469.8 461 455.6 452.3 447.7 442.6 437.4 431.2 426.1 422.6 419 415.6 411.6 408.4 405 400.9 395 388.4 380.7 374.8 367.6 363.4 359 356.8 355.8 354 350.6 346 340.1 334 328.2 321.8 316.9 312.2 306.9 303.8 301.9 300.7 299.2 295.9 292.8 290.2 287 283.7 280.4 275.8 270.4 264.7 258.6 251.1 244.9 235.7 226 219.2 214.8 210.1 206.4 205.9 205.7 207 208.3 209.4 208.1 202.6 199 193.8 184.4 174.6 165.3 156.7 155.9 147.6 141.3 133.9 139.6 130.1 127.2 125.7 124.5 121.6 130.4 134.6 140.9 155.5 164.6 180.3 185.6 191.8 196.7 198 198 196.8 196 196.1 195.8 196.7 198.4 200.9 203.5 206.8 208.9 212.1 215.3 218.2 220.9 223.7 227.1 229.3 231.7 235.2 238.2
435.3 434.2 432.5 429.1 424.8 420.2 413.7 408.1 403.8 395.8 387.7 380 371.7 361.9 358.1 349 344.7 342.1 353.1 358.8 359.1 355.7 351.9 350.1 357.4 359.8 375.2 381.7 398.6 409.8 420.5 428.5 435.3 441.6 445 447.4 446.3 444.1 440 435.4 430.2 423.5 416.2 410.4 401.7 391.6 380 361.4 362.2 371.2 384.3 393.8 400.9 403.4 404.4 404.7 404 402.9 401.6 400.2 398.7 396.5 396.8 405.8 414.7 422 429.4 436.6 443.6 450.3 455.7 460.3 464.4 467.6 472.8 479.4 484.7 488.3 490.3 492.2 493 491.4 490.9 491.1 489.6 487.6 484.5 479.7 473.4 465.9 457.4 452.8 448.6 443.6 438.6 433.2 427 422.1 418.4 414.6 410.6 406.3 402.2 398.2 393.9 384.8 378.5 372.2 366.6 359.4 356.5 353.1 351.5 349.6 347.3 345.3 342.2 335.2 329.5 323.8 318.3 313.7 309.2 304.7 302 299.3 297 293.9 291.2 288.9 286.4 283.5 279.2 275.5 269.8 265.3 259.2 253.9 248.2 241.7 233.9 225.3 220.4 216.3 211.3 207.1 206.2 206.9 208.4 207.7 208.3 206.2 202.4 197.5 190.7 182.4 165.1 154 160.6 145.3 145.4 141.8 145.4 151.6 131.2 126.6 125.7 124.9 122.1 125 134.9 140 156.7 169.8 179.8 188.4 194 199.6 200.7 199.6 198.6 198.9 198.6 199.4 200.5 202.9 205.4 207.9 210.7 214.2 217.3 220.1 222.8 225.5 228.3 232.1 234.5 235.8 239.5 241.7
443.6 441.4 438.4 434.6 429.9 425.1 418.8 414 407.5 401.2 394.6 388.4 381 368.5 363.2 359.3 357.1 349 339.5 341.9 347.1 346.8 344.1 344.1 351.4 356.1 367.7 376.2 390.1 405.4 416.8 427 435.1 441.4 446.3 448.4 448.2 447 442.5 437.9 432.7 425.3 418.6 411.9 402.6 392.3 381.7 362.3 355.9 364.2 376.6 385.8 392.6 395.2 397.3 396.4 395.1 394.2 393.2 391.9 390.6 387.5 397.6 406 414 422.4 430.4 437.6 444.2 450.5 454.7 457.7 461 465 469.9 475.2 479.4 482.4 484.5 485.6 485.9 485.6 486.1 485.9 484.3 482.3 479.9 475 468.3 461.3 454.8 448.3 442.4 439.3 434.5 429 422.4 416.1 413.3 409 404.5 399.5 394.9 390.3 385.3 375.8 368.9 363.3 358.3 353.1 349 347.1 346.2 343 341.9 341 337 332.1 326.1 320.7 315.1 310.6 306.2 301.7 298.8 295.7 291.4 289.2 287.5 285 280.2 276.9 273 269.1 264.3 260.1 256 250.7 245.1 239.5 233.3 225.8 222 217.5 211.9 208.3 207.2 208 208.2 207.6 205.6 203.2 201.6 197.1 187.7 178.4 161 166.5 165.8 163.5 164.5 164.1 164.7 162.8 136.1 127.3 126.4 125.3 121.6 124.9 134.7 139.6 154.2 166.1 179 190.7 197.7 201.3 201.6 200.8 201.1 201.4 202.3 203 205 207.2 209.4 212.3 215.4 218.5 221.7 224.6 227.4 230.1 232.9 235.3 237.9 240.1 243.4 247
