ncols 200
nrows 82
xllcorner 330000
yllcorner 652300
cellsize 50
251.7 240 232.9 230.4 239.4 247.7 250.7 250.5 249 247.6 247.3 245.7 239.9 226.3 225.4 225.4 225.4 236.4 244.8 250 249.7 249.7 250.3 253.1 255.2 249.3 233.4 244.3 248.2 247.7 246.1 244.3 243.2 242.4 241.7 242.3 243 243.4 243.6 242.3 241.1 241.9 242.6 241.1 239.3 240.1 246.2 252.3 257 259.4 260.3 261.4 262.8 263.1 261.7 259.9 258.6 256.9 256.6 257.5 259.7 261.2 262.2 262.6 262.7 261.8 260.4 258.9 259.9 261.3 262 263.5 265.2 266.5 266.4 266.8 270 271.9 271.8 269.4 265.1 257.8 262.2 269.9 276.4 279.3 281.5 283.1 282 281.8 282.7 283.5 283.4 281.6 280.2 279.2 278.4 276.7 275.8 275.1 275.2 275 274 271.6 268.6 265.8 268.7 270 270.3 271 271.5 271.9 271.2 269.7 268.8 269.4 273.2 274 275 275.9 277.6 278.1 278.2 278.1 277.5 274.7 276.9 276.3 277.5 279.2 280.4 280.7 281 281 280.8 280.1 279.2 277.5 276.2 275.1 275.7 276.2 277.2 278.2 279.4 280.3 280.3 280.7 280.9 280.8 280.1 279.9 279.2 278.3 278.3 278.6 279.2 281.8 285.4 289.2 294.1 299.6 306.5 315.1 323.4 328 331.4 333.2 334.1 333.2 332.2 330.2 326.3 322.4 319.1 315.9 311.6 305.9 301.4 298.8 296.7 294.8 293.1 293.5 292.5 292.1 292.4 291.6 288.4 283.9 280.1 274.6 266.4 266.2 285.8 295.7 299 301.6 304.5 309.2
260.9 252.8 242.3 234.6 230.2 232.6 238.3 240 239.9 239.3 238.8 237.2 235 225.4 225.4 225.4 228.6 241.1 248.9 252.3 254.8 258.1 258 256.6 254.7 242.3 242.1 253.6 256.9 258.5 257 255.2 250.1 245.9 245.3 245.4 244.9 244.2 243.9 243.4 242.5 242.2 243.3 243.7 245.4 249.7 255.5 259.3 260.7 262.1 263.1 264 264.5 264 262.1 260.6 259.4 258.3 258.7 259.6 260.8 262.1 263.4 264.8 265.2 264.8 263.5 262.3 263.5 264.3 264.5 265.3 267.1 267.9 268.6 270.7 276 278 278.7 274.1 269.2 257.4 255.2 271 277.7 281.4 283.8 284.5 284.8 284 285.6 286 284.8 282.4 280.7 280.1 279.3 278.3 276.1 275.8 275.1 274.4 273.7 270.5 267.2 268.1 270.6 271.5 272.5 273.5 274.1 273.7 272.7 272.1 272.3 272.3 275.5 277.3 278.3 279.1 279.6 279.8 279.9 280.2 279.2 275.8 279.2 279 277.7 279.8 281.7 282.1 282.2 281.8 281.7 281.2 280 278.6 277.2 276.5 277 277.6 278.6 278.8 279.6 280.2 280.5 281 281 281.2 280.7 280.6 281.4 281.1 281 282.1 286.5 290.2 294.9 299.6 305.8 312.3 320.2 327.8 332.8 336.7 337.7 337.5 337 334.9 333.3 329.7 326.7 323 319.7 316.3 312 306.7 302.2 299.6 298.3 296.6 295.3 294.3 291.9 289.3 289.8 289.9 287.5 284.1 281.6 275.9 266.4 268.5 288.3 295 298 300.2 303.2 307.5
266.8 262.1 253.9 246.6 239.3 233.7 230.4 226.6 228.7 230.6 229.4 225.4 225.4 225.4 225.4 225.4 225.4 246.3 255.5 255.1 257.9 260.2 260.6 259.1 251.4 238.1 250.6 258.8 260.6 261.9 262.6 259.1 254 252 251.6 253.3 250.2 246.9 247.9 247.9 248.2 250.1 252.9 255.5 258.2 257.6 260.4 262.6 264.2 265.3 265.9 266.4 266.8 265.5 263.3 261.7 260.4 260.1 261 261.9 263.3 263.3 264.9 266.5 267.7 267.7 266.6 265.5 265.7 266.3 266.5 267.1 268.8 269.8 270.3 272.3 276.8 280.8 282 278.3 262.7 259.5 254 271.8 279.6 283.1 285.5 287.3 286.4 286 287.2 286.3 284.6 282.5 281.9 281.6 281.1 279.6 276.9 273.9 272.7 271.6 270.9 268.5 268.2 270.4 272.2 273.7 275.1 276.1 276.1 275.2 274.2 275.2 275.4 275.8 278.6 279.6 280.5 281 281.3 281.4 281.4 280.9 280 280.4 281.1 280.4 279.7 280.8 282.7 283.6 283.5 283 282 281.1 280.1 279.1 277.8 277.4 278.4 278.5 279.3 279.3 280.2 281.4 281.8 281.9 282 282.3 283 283.8 284.6 285.4 287.2 289.3 294.2 299 303.7 311.2 318.5 324.5 331.1 336.2 340.6 342.5 342.9 340.6 338 335.9 332.5 328.7 325.7 322.7 319.1 315.5 311.6 306.8 302.9 300.9 299.7 297.9 296.8 295.9 292.6 289.3 288.1 288.7 287 284.1 281.7 277.1 267.1 266.9 284.5 292.5 296 298.4 301.2 306.1
268.4 267.5 264 258.1 252.2 246.3 240.8 236.4 233.4 231 225.4 225.4 228.4 225.4 225.4 225.4 237.3 255.4 258.8 258.7 260 261.8 260 255.7 243.3 241 256.3 260.5 261.3 261.9 261.6 258.3 256.1 256.5 256.3 255.3 251.3 252.4 255.4 255.3 258.4 260.3 261.3 262.4 262.6 261.8 263.4 265.6 266.5 267.6 268.3 268.8 268.9 267.6 264.9 263 262 262.1 263.3 264.3 266.3 266.5 266.7 268.5 270.1 270.6 269.5 268.3 267.9 267.8 268.2 269 270.6 271.9 272.8 274.2 275.2 278.5 280.7 276.8 258.7 270 264.6 273.7 281 284.3 288 290.3 288.5 287.8 287.8 286.3 284.4 282.9 282.9 282.8 281.3 278.9 275.8 272.7 271.4 270.1 270.3 270.4 270.9 272.8 273.9 275.8 277.8 278.7 278.9 277.8 276.8 277.6 278.9 280.3 280.8 281.7 282.3 282.7 283 283.3 283 282.1 282 282.6 282.5 281.8 280.9 282.1 283.9 285.1 284.6 283.3 282 281 280 279.4 279.2 279 279.1 279.8 279.7 279.7 280.6 282.1 283.2 284 285.6 288.1 288.5 290.6 291.5 293.2 294.8 296.7 301.4 307.5 313.9 320.3 327.6 332.7 338.3 343 346.3 346.5 345.1 342.4 339 335.9 331.6 327.3 324.1 321 318 314.9 311.3 307.2 304.2 302.3 301 299.5 298.4 297.4 293.6 290.3 287.6 287.2 286.1 283.9 282.5 276.9 270.8 266.9 276.7 288.7 294.3 297.4 300.5 306.4
269.9 270 266.2 263.3 262.7 260 252.8 246.1 242 239.6 236.8 235.5 234.2 225.4 225.4 226.1 249.6 257.2 260.3 261.4 262.3 261.5 255.5 246.8 241.3 250 259.9 261.1 261.5 261.8 260.8 259.3 260 260.9 261.7 258.7 253.4 255.1 259 259.2 262.6 264.2 264.5 264.5 264.7 265.1 266.6 268.2 268.9 269.7 270.6 271.2 271.4 270 266.7 264.4 264 264.2 265.6 267.5 269.5 270 268.6 270.5 272.4 273.2 272.2 271.1 270.3 269.6 269.9 271.2 273.3 275.1 276 276.9 277 276.8 278.4 275.1 260.7 266.2 267.2 277 282 284.4 287.7 289.6 289.7 289.4 288.3 286.8 285.1 283.7 283.8 283.9 282 278 274.4 272.2 272 272.1 272.6 273.4 274.1 274.8 275.9 277.9 280.2 281.6 281.6 280.4 279.6 279.4 280 281.3 282.3 282.6 283.4 284.3 285 285.1 284.3 283.4 283.9 284.4 283.9 283.2 282.4 283.6 285.2 285.6 285.1 283.5 282 280.8 279.8 280 279.7 279.9 280.1 280.6 281.4 282.3 283.4 285.7 288.3 289.6 291.8 294.5 296.1 297.7 299.5 300.6 302.1 304.1 307.7 314.4 321 326.9 333.3 338.9 343.7 347.9 349.5 348.3 346.2 342.9 338.9 335.4 330.9 326.8 322.7 319.6 317.1 314.2 311 307.5 305.5 302.9 302.1 300.9 298.7 298 293.8 290.3 287.1 285.9 284.8 283.6 282.6 278.7 271 266.9 269.2 286.5 292.8 296.2 299.3 306.8
268.3 267.4 264.6 261.7 261 261.1 259.4 252.6 248.2 247.4 246.5 244.4 238.4 229.3 225.4 225.4 238 257.8 260.5 262.8 258.9 253.2 246.7 244.7 252.1 257.7 260.8 261.9 262.7 262.9 261.4 261.2 262.6 264.5 264.6 258.7 259.1 257.5 260.3 261.8 263.4 265.6 266.1 266.1 267.3 268.6 270 271.3 271.6 272.2 272.8 273.5 274.1 272.7 269.3 266.4 266.7 267.8 268.8 270.9 273.2 273.8 272.1 272.8 274.6 275.8 275.3 274 273.3 272.6 272.7 274.6 277.1 278.3 279.2 279.9 280.6 280 280.5 277.7 268.3 265.2 270.8 276.9 281.4 283.5 285.5 287.4 289 290.1 288.6 286.6 285.1 284.8 285.1 284.1 281.5 276.6 272.5 272.8 273.2 273.8 274.5 275 275.4 276.3 278.2 280.4 282.8 284.1 283.8 282.4 281.3 281.4 281.7 282.1 282.7 283.6 284.9 286 286.7 286.5 285.3 285.1 285.3 285.7 285.4 284.8 283.8 284.6 285.9 286.1 285.1 283.6 282.3 281.1 281.2 280.3 280.7 281.3 282.4 284.9 286.5 288.2 290.3 293.1 295.2 297 299.2 301.4 303.7 305.5 306.5 307.4 308.9 309.7 312.7 318.9 325.7 331.7 338 342.4 346.5 350.3 351.6 349.8 347 343.2 339.1 335.2 331.3 327.2 323.1 319.5 316.7 313.7 310.6 307.5 305.1 303.3 302.3 300.5 298.5 297 293.7 290 286.8 285.1 283.9 282.4 281.2 277.2 270.7 266.9 268.4 283.3 290.3 293.6 299.4 307.3
266.6 266.6 264.4 262.7 260 259.9 259.7 258.5 256.8 258.8 261.2 254.7 245.8 238 231 225.4 225.4 241.9 253.6 252.9 249.4 246.9 249.8 256 261 263.7 263.2 265.2 268.2 267.1 265.2 264 266 268 264.1 259 262.6 259.4 261.3 263 264.9 268.1 268.1 267.9 270 272 274 275.2 275.7 276.1 276.8 276.9 276.6 274.8 271.2 269.4 270.5 271.6 272.2 274.5 276.9 276.9 275.8 275.7 276.8 277.6 277.2 277 276.3 275.7 275.6 277 279 279.8 280.3 281.4 283.4 283.6 283.5 281.7 273.7 261.8 271.5 277.5 281.8 285 285.6 286.2 287.3 287.8 287.4 285.6 285.6 285.8 285 282.4 278.4 274.2 273.7 273.8 274.6 275.4 276 276.2 276.8 278.3 280.7 282.8 284.8 285.6 285.5 284.4 283 283.4 284.1 284.6 285 285.3 286.6 287.5 287.8 287.4 286.5 286.8 286.9 287.1 286.8 286.2 285 284.7 286.2 286.2 285 283.5 283 282.1 282.1 283 284.4 286.6 290.3 292.9 294.8 296.9 298.2 301 303.7 305.4 306.7 308.3 310.5 312.8 313.1 313.2 314 314.7 316.6 320.1 326.7 333.3 338.8 343.9 346.9 351 352.2 350.8 347.6 343.6 339.6 335.8 331.7 327.6 323.8 320 316.7 313.7 310.3 306.9 303.2 302.2 301.8 300.8 298.6 296.3 293.9 291.2 286.9 284.4 283 281.4 279.1 274.6 270.3 267.2 269.1 278 286.6 291.1 298 306.5
262.8 265.8 263.9 262.2 260.3 259.9 260.3 260.1 261 261.5 260.4 259.4 251.1 245.4 235.6 225.4 225.4 231.3 246 245.9 248 254.5 261.6 266.8 265.6 266.4 266.9 271.5 273 271.8 270.2 267.1 267.8 267.7 261.8 261.4 264.7 261.5 265.8 267 268.5 269.9 269.7 269.9 272.2 275.1 277.6 279 279.4 280.1 280.5 280.2 279.2 276.3 273.1 273.2 274.2 275 275.8 277.8 279.3 279 278.6 278.4 278.6 279.2 279.2 278.9 279.1 279 279.1 279.3 279.7 280.7 282.1 284.7 288.2 287.7 285.6 284.2 275.8 265 273.1 279.1 284.1 287.8 287 285.4 285.6 286.1 286.2 286.2 286.2 284.7 282.7 278.9 275.4 275.3 275.6 275.9 276.6 277.4 277.7 277.7 277.9 280.2 283.2 285.1 286.4 286.6 286.4 285.5 284.9 285.6 286.4 287 287.3 287.6 288.3 288.5 288.5 288.2 287.5 288.1 288.4 288.3 288 287 286 284.4 285.4 285.7 284.6 284.1 286 285.7 287.4 289.7 293.3 296.6 299.7 302.4 304 305.7 307.3 309.3 311.9 312.7 314.1 315.8 317.7 319 318.7 317.7 318.4 319.7 319.7 321.7 326.6 331.9 336.7 342.1 346.3 349.6 351.3 351 348.2 344.2 339.4 335.7 331.9 328.1 324.3 320.6 317.2 313.5 309.8 305.7 301.8 300.6 300.1 299.6 298.3 296.4 293.5 290.5 286.9 284.1 281.9 280.2 277.7 272.9 270.5 268.4 268.7 271.7 282 290.4 297.5 304
261.6 265 263.8 262.2 260.5 260.2 260.6 260.4 260.5 261.1 259.4 257.7 256.2 253.6 242.9 226 225.4 232.1 246.9 251.4 258.2 264.5 267.8 268.2 268 268.7 270.8 275.2 274.5 273.7 272 269.3 268.4 264.2 262.9 270.8 267.8 263.8 265.6 268.1 270.8 271.1 272 272.9 275.3 278 280.6 281.6 282.8 283.6 284.3 283.6 281.1 278.4 276.2 276.9 278 278.1 279.3 281 282.1 282 281 280.5 280.6 280.6 280.4 280.3 280.6 280.5 280.4 280.3 281.4 284 285.9 288.3 290.1 289.9 289.7 286.6 267.3 268.5 276 280.3 283.9 286.6 286.4 286.1 286.6 287.5 287.2 286.2 284.9 282.4 280.8 277.6 277.2 277.8 278.4 279 279 279.4 279.7 279.7 280.4 282.5 285.1 286.5 287.3 287.7 287.3 286.8 287 287.8 288.7 289.1 289.3 289.4 289.1 289.3 289.3 289.4 289 289.8 290.1 289.8 289.3 288 286.9 286.2 286.7 286.6 287.2 288.3 289.5 293.2 296.5 300.1 303.7 307.2 310 312.8 314.1 314.9 315.7 317.9 318.9 319.8 321.1 322.4 323.9 324.4 323.5 322.6 321.9 322.6 321.9 321.6 325 329 333.3 338.1 342.8 346.9 349.1 349.9 347.8 343.6 339.2 335.2 331.5 327.6 323.6 320.3 316.7 312.9 308.8 305 300.8 298.2 297.8 297.3 296.6 295.6 292.3 288.9 284.9 282.6 280.8 278.8 276.5 272.3 271.6 271.7 269.7 270.9 282.9 289.4 294.9 299.9
259.8 262.8 262.5 260.8 260.1 259.2 259.8 260.4 260.8 261.2 259.2 257.1 254 249.4 237.9 227.8 226.8 235.3 252.6 259.6 268.4 269.1 270.5 269.7 268 268 270.7 275.2 274 272.9 273.5 271.7 266.2 262.5 272.9 277.1 270.8 268.5 267.6 269.6 268.4 271.4 274.5 276.8 278.5 281 283.3 284.2 285.2 286.5 287.2 286 283.4 280.5 280.5 281.2 281.5 281.9 282.7 284.5 285 284.6 283.6 283.3 283.3 283 282 281.4 282.1 281.9 281.6 282.3 284.1 286 286.4 287.1 287.5 286.4 289.2 286.5 266.1 271.9 280.7 285.6 285 286 286.6 287.1 288.5 289.4 288.2 286.3 284.1 282.1 279.9 277.9 279.5 280.2 281.9 282.6 282.5 282.1 282 282.2 283.2 284.8 286.4 287.4 288.1 288.7 288.7 288.4 288.7 289.7 290.5 290.6 290.8 290.6 290.3 290.2 290 290.1 291 291.7 292 291.5 290.8 289.3 288.6 287.8 289.6 290.9 294.3 296.5 300.9 303.9 306.3 311.8 316.4 318.9 321.7 323.8 324.3 323.8 324.3 325.9 327 326.7 327.2 328.5 329.2 329.1 328.1 326.7 325.1 324.3 322.3 320.7 322.5 326.3 329.8 334 338.6 342.9 345.2 347.9 342.6 341.4 337.5 333.8 330 326.1 322.8 319.4 315.8 311.9 308.2 304.8 300.4 295.8 294.5 294 294 293 290.2 286.6 283 281.4 280 279.5 276.5 271.5 271.7 274.2 272.3 271.2 285.1 288.7 293.9 299.1
257 259.7 260.4 259.2 259.9 259.5 259.1 259.3 258.6 258.1 258.7 255.7 251.8 242.8 232.9 228.3 229.2 238.1 251.6 267.4 271 271.3 270.7 269.7 269.8 269.5 270.3 272.3 271.7 272.7 274.3 271.6 264.4 269.2 280.2 278 278.3 272.5 272.9 275.5 274.9 272.2 275.7 279.3 281 283 284.6 286.6 287.5 289.2 288.6 286.9 284.3 282 283.5 284.6 284.8 284.9 285.8 286.6 287.3 287.3 285.9 284.6 284.6 284.1 283.5 282.8 286.1 291.2 290.3 289.6 287.4 287.4 287.8 287.4 286.7 284.3 279.9 274.2 266.5 273.5 283 286.7 287.5 287.7 288.9 289.6 290.1 290.5 289.5 287.3 285 283 280.8 280.7 281.7 283.3 285 286 285.1 284.1 284.4 284.5 284.8 286.3 287.5 288.3 289 289.5 290 289.8 290.2 291.4 292.1 291.8 291.5 291.3 291 291 291 291.1 292.6 293.9 294.1 294 293.2 291.8 290.7 292 294.7 296.6 300.9 306 310.1 312.9 318.5 324.2 328.8 331.2 333.7 334.8 334.2 332.9 333.2 334.3 334.7 334.1 334 335 335.1 334.1 332.1 330.6 328.1 325.7 323.1 320.6 320 322 326.2 329.7 332.3 336.2 339.3 340.2 336.7 339.3 335.1 331.3 328 324.3 321.5 318.2 314.8 310.8 306.8 303.8 299.8 295.2 291.3 289.7 289.5 289.2 287.2 284.2 281.2 279 276.8 275.9 274.5 271.8 271.7 271.8 272.2 270.1 280.2 288.1 293.6 299.1
257.6 255.8 257.4 257.2 259.2 259.3 257.5 255.2 254.3 252.6 248.9 243 247.7 249.8 239.4 228.1 230.7 239.8 251.4 268.5 274.3 274 270.8 270.1 270.9 271 272.5 273.7 272.5 274 274.7 268 265.4 276.8 281.4 282 280.9 274.1 275 275.8 277.3 275.5 274.4 278.3 282.3 283.9 284.4 285.1 286.2 287.2 287.1 286 283.9 283.1 284 285.4 285.8 287.5 287.7 288.7 289.6 289.9 287.8 285.7 284.9 284.7 284.7 286.5 288.9 293.2 294.6 294.7 289.7 286.7 286.3 286.1 285.7 285.3 277.2 270.1 269.4 272.4 280.4 285.9 287.8 290.2 291.6 291.6 291.7 291.2 290.7 288.6 286.6 284.2 281.6 282.7 284.1 285.7 287.1 287.2 286.5 285.8 286.5 286.8 286.6 287.6 288.5 289.2 289.9 290.5 291 291.1 291.7 292.6 292.9 292.2 292 291.8 291.8 291.9 291.8 292.6 293.9 295.4 296.1 296.1 296 295.3 296.1 298.1 301.5 301.9 309.6 314.8 320.1 325.3 333.3 338.3 341.6 343 344.8 345.2 343.8 342.2 342.5 342.6 342.4 341.8 341.4 342.2 341.4 339.5 336.9 334.2 330.7 328 324.8 321.5 319 318.7 321.7 324.2 327.1 328.9 331.6 334.7 334.2 335.5 332 328.6 325.4 322.5 319.8 316.9 313.4 309.6 305.7 301.8 298.5 294.7 289.2 287.1 286.3 283.8 281.3 279.1 277.5 275.6 274.3 272.7 271.5 270.4 270.9 269.5 267.7 267.2 277.4 286.4 293.5 298.3
257.2 254.4 254.4 254.3 255 254.2 251.5 250.2 250.2 250.6 257.7 257.7 257.7 253.5 246 230 231 238.1 251.1 270.6 277.6 274.6 270.7 270.9 273.3 274.7 276.1 275.5 273.1 272.2 270.1 265.7 273.9 282 283.6 283.4 281.7 277.8 280.8 282 280.4 279.2 277.9 279 283.4 285.4 286.3 287.7 288.8 289.9 290.2 287.7 284.5 283.4 283.2 284.4 285.9 287.1 288 289.3 290.5 289.5 287.8 285.9 285.5 286.2 289.4 292 290.3 290 289.2 287.5 286.1 284 281.5 279.9 276.8 275.8 275.9 277.4 272.3 271.9 279.3 285.4 288.4 291.3 292.8 293 292.6 292.2 291.7 290 287.9 285.7 284.1 284.6 286 287.3 288.4 287.9 287.3 287.5 288.5 288.8 288.6 289 290.3 291.1 291.9 291.9 291.9 292.1 292.6 293.6 293.5 292.7 292.5 292.4 292.6 292.7 292.8 293.1 294.4 296.6 298.3 298.5 299.3 301 303.8 306.9 311.8 314.2 317.3 325.1 332.3 340.6 347.3 352.1 353.8 354.1 354.3 353.5 352.4 351.1 351.4 350.8 350.1 349.3 348 347.9 346.3 343.7 340.8 337.3 333.5 329.7 326 322.4 319.5 316.6 316.4 318.4 321 321.7 324.3 326.9 328.7 330.3 328.2 325.4 322.9 320.4 317.8 315.2 311.9 308.2 304.1 300 295.6 292.4 287.8 284.2 284.1 283.1 281 278.7 279.2 276 274.4 273.4 272 269.5 269.5 268.8 268.5 268.8 275.8 284.1 290.8 296.3
255.7 254.6 255.6 256 257.5 258.9 258.9 257.7 257 259.5 260.3 259.7 258.5 253.2 249.8 233.5 230.7 236.4 249.1 269.4 278.2 274.3 272.2 273.7 275.5 275.8 274 272 269.6 267.7 267.3 274.9 282.9 284.6 284.2 283 280.5 281.3 283.9 284.8 284.2 284.7 284.2 282.7 284.5 287 290.6 294.4 295.9 296.1 295.9 294.7 291.4 289.2 287.9 287.8 286.7 286.4 287.2 288.7 288.2 287.6 287.1 286.4 286.8 290.9 294.2 292.7 290.5 291.3 290.9 288.1 287 288.1 286.9 284.7 282.1 281.5 282.1 280.5 276 272.9 277.3 284.6 288.3 290.8 292.5 293 293.2 293.4 292.6 290.5 288.2 286.1 285.5 286.5 287.7 288.7 289.3 288.9 289 289.3 290.1 290.4 290.1 290.4 291.9 292.9 293.4 293.3 293.2 293.4 293.8 293.9 293.9 293.5 293.1 293.3 293.3 293.4 293.6 294.7 296.1 298 300.3 302.3 306.1 310.4 314.1 318.2 322.5 326 324.3 335.7 344.6 351.8 359.6 363.5 364 363.8 363.1 361.7 360.4 359.4 360.1 359.1 357.2 355.8 353.5 352.1 349.4 346.8 343.1 339.4 335.6 331.4 327.3 323.8 320.3 317.2 314.2 313.1 315 316 318.3 320.1 322.2 323.7 323.5 321.7 319.8 317.5 315.7 313.1 310.1 305.8 302 298.4 293.6 288.9 285.3 289.7 289.1 287.8 286.6 286.1 285.4 284 281.1 278.4 275 271.4 267.1 268.7 267 268.8 276.2 282 287.8 292.5
254.9 255.7 257.7 259.1 260.3 261 261.3 260 258.5 260.7 260.8 259.1 257.1 253.6 251.5 240.6 231.9 234.9 248 268.3 277.4 273.5 273 274.5 273.2 271.7 270.1 269.7 269.2 269.9 272.8 279.1 282.7 284.5 284.7 283.9 284 284.4 285.4 286.1 286.3 287.1 288.1 286.6 286.7 290.9 295.1 297.5 297.9 298.2 298.2 297.1 295 294.3 292.5 290.5 291.6 290.7 289.6 289.1 288.6 290.2 290.9 292.9 295 297.4 295.4 293 292.4 293.4 291.9 287.9 288.5 290.3 290.2 288.5 286.7 286.5 286.3 284.8 281 275.8 276.5 284.8 288.4 290.2 292 293.3 293.8 293.7 292.7 290.7 288.3 287.2 287.5 288 289 289.9 290.5 290.6 290.7 290.5 291.7 292 291.8 291.8 293.3 294.7 294.9 294.7 294.6 294.6 294.8 295 295.1 294.8 294.7 294.7 294.7 294.8 296.1 297.8 299.7 303 306.3 306 314.3 320.4 324.7 329.4 333.6 337.1 335.6 343.2 353.7 361 367.9 371 371.8 372.5 371 369.2 368.5 367.6 367.5 365.9 363 360.3 357.9 354.9 351.7 348.2 344.2 340.5 336.5 331.6 327.5 323.9 320.5 316.6 313.3 311.8 311.2 312 313.1 314 315.2 317.1 317.4 317 315.8 314.8 312.7 310.7 307.2 303.6 299.9 295.9 290.9 290.9 293.4 294.5 293.3 293.4 291.8 291.1 289.9 288.9 286.2 282.7 278.3 274.8 270.6 269.1 266.7 274.8 278.9 280.5 283.8 287.8
255.8 257.3 258.3 259.9 260.7 261.3 261.6 260.1 259.4 260.4 260.9 258.6 256.2 254.1 252.1 250.5 236.7 231.6 247.1 265.3 273.2 272 270.3 268.8 269.8 273.3 276.4 276.3 275.2 275.3 275.5 277.6 281.3 283.4 284.8 285.2 285.6 286.2 286.9 287.8 288.6 289.3 289 287.8 291.3 295.5 298.3 298.9 299 298.8 298.6 297.7 296.7 295.5 294 294.6 296.1 296.5 295.5 293.6 294.3 295.3 295.6 297.5 296.7 295.5 294.5 293.7 293.7 293.1 291.2 290.2 291.6 292.3 292.5 291.2 289.3 290 289.8 287.2 283.1 277.7 273.6 283.5 288.3 290.3 292 293.1 293.9 293.3 292.2 290.3 288.9 288 289 289.7 290.3 290.8 292 292.1 292.1 291.9 292.8 294.1 293.9 293.7 295 297 296.8 296.4 295.9 295.8 296.3 296.5 296.6 296.4 296.2 296.3 297 298.2 299.9 303.1 306.2 311.1 316 318 317.4 330.1 335.8 340.5 345.3 347.3 346.2 348.6 358.2 366.9 371.3 373.6 375.4 376.7 376.4 375.3 375.8 375.7 373.5 370.4 367.3 363.7 359.3 355.9 352.6 349.1 344.5 339.8 335.7 331.3 327.3 323.6 320.1 316.3 313.1 310.2 309.3 308.6 309.7 309.7 309 310.3 311.2 312.2 312.3 311 309.4 307.1 304.6 300.6 297.1 292.5 294.2 296.7 297.5 299 299 298.8 296.6 295.6 294.5 293.3 291 287.4 282.3 277.9 272 264.8 265.9 274.8 281.3 281.1 281 282
257.4 258.9 259.6 260.6 261.1 261.8 261.8 260.7 260 259.7 260.9 260.2 256.7 253.6 253.5 248.8 234.7 232.6 242.4 259.4 264.7 267.4 268.8 270.5 275.4 279.9 281.7 279.2 278.5 278.2 278.7 279.3 281.8 284.4 285.5 286.2 286.7 287.3 288.3 289.3 290 290.1 288 290.4 295.9 298.6 299.9 300.1 300 300 300 299.2 297.8 296.6 297 299.2 299.7 299.1 298.1 297.5 297.8 297.6 297.6 297.2 296.3 294.8 294.9 294.8 293.9 292 292.4 293.8 294.3 294.1 293.5 292.4 292.6 293.9 293.8 288.9 285.2 280.7 274.8 282.3 286.9 290 291.8 292.7 293.5 292.7 291.8 291.1 290.4 289.9 290.5 291 291.5 291.9 293.4 294.3 293.9 293.3 294.1 295.6 296 295.7 297.2 299.2 299 297.8 297.1 297.2 297.7 298.1 298.2 298.2 298.4 299.2 301.6 304.7 306 310.2 314.7 320 324.9 330.1 321 338.6 345 350.9 355.1 353.9 352.6 355.1 360.1 368.5 371.5 373.4 375.6 377.8 379.2 379.6 380.7 380.7 375.9 372.2 369.5 364 359.2 355.6 352.1 348.2 343.2 338.5 334.4 330.2 325.8 321.5 318.5 314.3 311.5 309.4 308.6 307.5 306 305.8 305.4 305.1 305.7 306.4 305.9 305 304.6 302.4 299 295.9 293.3 295.4 299.6 300.8 301.9 302.9 302.6 301.8 300.4 299.7 298.6 297.1 294.8 292.5 287.5 281.6 273.2 265.7 270.4 271.3 283.1 284.6 282.5 277.7
259 260.1 260.9 261.6 261.8 262.8 262.3 261.2 260.3 259.9 260.1 260.5 255.7 253.9 251.9 240.9 233.4 234.4 245.1 254.4 263.6 269.4 272.6 275.1 278.7 281.8 281.7 279.6 280.1 280.9 281.5 282.1 283.4 285.1 286.5 287.2 287.8 288.4 289.4 290 289.4 289.1 289.1 293.3 297.9 300.2 301.5 301.5 301.4 302.1 301.9 300.5 298.7 299.1 300.6 301.8 301.5 300.5 299.7 299.2 299 299 298.3 296.7 295.8 295.6 296.1 295.9 294.6 293.9 295.3 296 296.1 295.7 295.2 295 293.7 294.1 295.1 290.3 286.2 283.4 280.5 277.6 286.3 290.1 291.5 292.5 293 292.9 292.4 291.6 290.9 290.5 291 291.9 292.7 293.2 294.3 295.9 295.5 294.6 295.3 297.2 298.2 297.7 299.2 301.1 300.5 299.1 298.1 298.6 299.5 300.7 300.9 300.9 302.1 303.6 307.9 310.8 313.7 318.3 322.9 329.9 335.8 340.8 337.1 348.7 353.5 358.7 359.6 357.1 361.4 362.4 361.7 367 370 371.5 373.6 376.7 379.8 380.6 380.4 379.6 374.7 371.4 367.7 361.8 357.2 353.2 350 345.9 340.4 335.1 330.8 326 322.6 318.9 316.1 313.2 311.4 309.3 308.2 305.9 305.3 304.2 303 301.2 300.3 299.9 299.5 298.5 297.3 296.6 296.1 296 298.5 301.3 303.1 304.3 305.1 306 305.8 305 304.4 303.7 302.7 300.8 298.8 297.4 293.1 286.5 277.7 268.3 268 265.4 279.7 286 284.7 279
260.6 261.6 262.3 263 263.5 263.4 262.8 261.8 260.7 259.7 258.9 258.6 256.6 254.8 246.9 236.6 235.3 240.3 254 259.7 270.7 274 275.5 277.5 280 281.4 280.6 281.7 282.7 283.7 284.9 286.1 286.5 287.9 287.7 288.2 288.7 289.2 289.8 290.3 290.5 290.3 292.8 297.2 300.2 302 302.9 303.3 303.1 304 302.4 300.4 300.3 301.7 302.9 303.3 303.4 302 301 300.4 300.1 300 299 297.9 296.9 296.7 296.9 297 296.5 295.2 297 297.9 297.8 297.5 297.3 297.3 298.3 295.9 293.3 291.4 287.8 286 284.3 281.9 283.5 290.2 291.2 292 292.7 293.2 293 292.2 291.5 291.3 291.3 292.6 293.7 294.2 294.8 296.6 296.8 296.3 297.3 299.6 300.7 300.3 301.3 303 302.1 300.5 300 301 302.2 303.8 304.1 305.3 308 311.7 314 317.2 321 326.6 332.7 339.8 346.8 350.4 346.7 355.3 362 363.7 362.9 361.6 368 367.7 365.1 365.4 367.8 369.1 371 373.3 376.4 377.2 376.8 374.7 371 367.7 364 359.6 355 350.7 346 341.2 335.3 330.7 325.3 321.3 318.4 316.1 313.8 311.8 310.9 310.1 309 307.9 306.9 306.8 306.1 305.7 305.2 303.9 302.8 301.9 300.8 300.4 300.9 301 303.1 305 306.4 307.3 307.4 308.6 309.7 308.9 308.2 307.5 306.5 304 302.1 300.6 297.5 291.1 280.9 270.1 264 271.5 275.2 281.7 284.4 279.6
262.4 263.3 264 264.7 265.2 264.4 263.4 262.4 261.4 260.1 259 257.8 258.3 255.4 242.8 235.2 239.9 243.3 258.1 263 271.9 276.4 277.8 279.3 280.9 281.2 281 282.7 285 286.8 288.3 289.6 289.9 289.2 288.6 289 289.3 289.7 290.2 290.9 292 294.5 297.4 300.1 302.4 303.3 304.1 304.5 304.6 303.6 302.1 301.7 303.2 304.6 304.5 304.6 303 301.8 301.4 301.7 302.5 302.3 300.8 299.2 298.6 298.4 298.3 298.3 298 297.9 298.4 299.3 299.5 299.3 299.5 299.8 301.5 299.3 296.8 298.1 293.3 288.6 286.6 282.8 281.1 289.6 291.6 292.5 293.2 293.6 293.3 292.6 292.1 292 292.1 293.4 294.8 295.1 295.7 297.2 298 298.2 299.2 301.7 303.2 302.8 303.6 304.9 304.2 302.8 302.5 303.6 305 307.2 308.3 310.8 314.8 318.5 322.5 325.1 329.7 338 344 351.6 356.2 359 354.7 360.8 367.7 368.9 368.1 365.6 371.2 371.1 367.3 366.4 366.1 366.6 366.5 368 369.6 370.9 370.8 369.7 366.8 363.1 358.8 355.3 351.5 347.1 341.1 335.3 330 325.5 321.6 319.2 316.4 315.2 314.6 314.2 313.5 312.8 311.8 310.6 309.5 309.4 309.3 309.2 308.8 307.7 306.6 305.7 304.7 304.4 304.7 305 306.2 308.1 309.9 310.5 311 312.3 312.9 312.4 311.8 311.1 310.2 307.4 305.2 303.8 301.6 296.8 287.6 275.9 267.4 262.9 270.8 275.1 277.7 275.8
264.6 265.1 265.7 266.3 265.9 265.1 264.1 263.2 262.5 261.4 259.9 260.2 260.1 256.8 236.7 235.9 243 248.4 259.4 265.2 274.1 277.4 278.9 280.4 281.3 281.8 282.5 284.2 286.4 288.6 290.8 291.9 291.5 290.4 290.2 290.8 291.2 291.2 291.9 293.2 295 297.6 300.2 302.3 304 304.6 304.8 304.5 303.2 302.8 303.8 304.7 304.6 304.1 303.8 302.9 301 300.9 303.3 304.2 304.1 303.5 302.5 301.2 300.2 300 299.9 299.7 299.4 299 299.8 300.8 300.9 300.9 301.3 301.3 301.5 300.1 297.3 299.9 296.8 291.7 289.3 283.5 284.9 288.2 291.8 292.8 293.4 293.9 293.7 293.1 292.9 292.8 293 294.5 296.1 296.3 297.2 298.9 299.9 300.2 301.2 303.7 305.6 305.4 305.2 306.2 306.2 304.8 305.1 306.2 309 311.6 314.4 318.4 322.1 324.9 329.5 333.8 341 349.4 357.3 360.7 365.2 367 367.4 361.8 371.4 371.4 371.6 367.2 371.2 370.7 367.3 365.6 365.1 364.2 364 363.2 363.7 364.7 364.7 363.8 360.5 356.2 352 349.1 346.3 342.3 337 331.2 326.7 323 321.8 321.6 320.3 318.4 317.7 317.5 317.3 317 315.8 314.3 313.2 312.9 312.8 312.6 312 311 310 308.7 307.8 307.5 307.2 307.8 309.5 311.3 313.1 314.2 315 316.1 316.1 314.7 314.1 313.3 312.5 310.3 308.2 306.6 304.8 301.3 295.6 285.8 274.9 265.5 262.6 270.5 269.8 268.8
266.7 267 267.6 267.7 267 266.5 266.1 265.7 264.8 263.5 261.4 262.3 262.5 256.5 240.1 237.5 248.8 259.3 262.2 268.4 275.5 277.9 279.8 281.2 281.7 282.5 283.8 286.7 289 291.2 292.9 293.4 292.1 291.6 292.1 292.7 292.8 293.1 294.5 296.3 298.3 299.2 301.2 302.3 303.6 304.1 303.6 302.4 302.9 302.9 303.1 302.8 302.2 302.8 301.8 301.9 302.7 304.1 305.5 305.5 305 304.5 303.9 302.5 301.7 301.5 301.4 301.4 300.9 300.2 300.9 301.9 302.5 302.3 302.2 302.1 301.6 300.3 297.6 296.7 296.3 293.6 289.6 287.7 289.8 287.7 290.8 292.3 293.7 294.1 293.9 293.7 293.8 294 294.4 295.8 297.5 298.1 299.1 300.6 301.7 301.9 303.1 305.4 307.5 307.5 307 307.6 307.8 306.7 307.5 309.7 313.3 317.8 320.6 324.9 329.9 334.2 338.8 345.7 353.6 363.6 368.8 371 372.6 373.7 373.3 365.8 375.6 373.8 371.8 369.9 370.6 368.9 367.1 365.9 364.3 362.1 360.9 359.8 359.1 358.6 358.5 357.4 354.2 349.9 345.7 342.4 339.6 336.6 332 327.3 326.7 327.2 326.1 325.5 323.9 322.4 321 320.9 321 321.2 320.6 319.5 318.2 318 317.2 317.3 316.2 314.4 313.2 312 311.2 310.9 310.7 311.7 313.3 315 316.6 318.1 319 319.5 319.3 317.7 315.5 314.4 313.5 312.6 310.5 308.7 306.3 303.1 298.7 291.5 284.1 273.8 263.4 262.5 268.2 264.9
268.7 269.2 269.3 269.5 269.5 269.6 268.8 268.1 266.8 265.1 262.6 261.1 260.3 248.3 236.7 242.1 256.2 270.2 269.3 275.3 275.3 278.2 281.3 283.4 282.3 283.1 285.2 288.2 291.9 293.3 293.8 293.4 292.9 293.5 293.6 293.5 294.1 295.7 297.8 299.7 301.7 301.6 301.6 302.1 302.8 302.8 303.3 303.8 305.1 306.1 305.9 305.8 306.8 307.8 308.6 308.7 309.2 307.7 306.7 306.4 305.9 305.5 304.6 303.6 303.3 303 302.9 302.6 301.9 301.4 301.6 302.7 303.3 303 302.8 302.4 302 301.1 299.2 296.4 294.1 291.7 286.5 291.9 291.5 290.2 290.5 292.4 293.6 294.2 294.1 294.5 294.7 295.3 295.7 297 298.7 300.1 300.7 302 303 303.6 304.5 306.8 309 308.9 308.5 308.6 309.3 309.7 311.7 315.4 320.8 325.5 329.6 332.8 338.7 346.7 352.2 359.8 367.7 373.5 377.8 379.2 378.3 378.6 377.2 365.2 375.1 375.2 373.8 371.7 370.9 369.6 368.6 368.1 366.6 364.8 363.3 361.7 358.3 354.1 352.2 350 347.7 344 339.7 337 334.1 330.6 329.6 330.9 331.9 331.6 330.1 329.3 327.9 326.2 324.7 324.7 325 325.3 325.7 324.4 322.7 322.4 322.2 321.7 320.4 318.7 316.7 316.2 314.9 314 313.8 315.1 316.7 318.3 319.9 321.2 321.9 322.4 321.9 320.4 318.1 316.9 315.3 313.7 311.7 309.3 306.7 303.5 299.7 295.2 288.9 281.4 271.5 264 262.1 265.7
270.5 271.2 271.3 271.6 272 272.2 271.6 270.3 268.5 266.4 263.5 260.8 246.9 237.6 238.8 241.3 253.4 265.4 270.5 271.4 273.7 278.7 283.5 284.5 283.2 284.2 286.4 289.8 293.3 294.7 294.3 293.8 294.2 295 294.9 295.8 297.7 299.8 301.7 303.6 304.5 304.5 301.5 302.8 305.4 306.8 307.5 308.4 308.9 311.6 312.3 311.7 311.3 311.2 310.6 310.7 309.9 308.5 307.9 307.4 307.1 306.6 306.1 305.5 304.6 304.1 303.7 303.3 302.8 302.5 301.6 303.2 303.5 303.6 303.2 302.8 302.5 302.8 301 296.3 293.5 289.8 292.1 293.5 292.4 291.3 291 292.8 293.6 294.1 294.2 295.1 295.6 296.4 297 298.3 300 301.7 302.3 303.1 304 304.9 306.1 308 310 309.9 309.6 309.6 310.6 313 317.4 322.7 328.9 334.4 339.5 345.9 354.3 361.4 368.3 375 378.5 382.1 385.1 385 382.9 381.9 380.2 376.7 373.8 375.9 376.1 373.7 372.7 373.6 374 373.2 372.1 369.9 367.2 365.3 361.9 358.6 356.1 352.5 347.8 341.7 337.5 334.3 334 334 335.5 336 336.1 335.4 333.9 333 331.6 329.8 328.4 328.7 329.1 330 330.6 328.7 327.4 326.5 326.6 325.2 323.8 322.9 320.3 320 318.8 317.6 316.9 318.1 319.8 321.4 322.7 323.6 324.3 324.4 323.1 322.5 320.1 317.8 315.9 313.9 311.3 308.9 306.3 303.5 300.5 296.9 291.9 284.9 276.6 269 262.6 260.3
273.1 273.5 273.4 273.6 273.6 274 273.4 272.1 270.4 267.3 263.6 260.5 243.9 238.8 241.1 255.8 258.8 258.9 264.1 266.4 271.3 277.9 284.3 284.5 283.6 285.4 287.8 290.9 293.4 294.1 293.9 294.4 296.4 296.3 297.6 299.9 302.5 303.9 305.6 306.7 307.1 305.8 303 306.1 309.2 310.3 310.8 310.7 311.2 313.1 313.5 313.3 312.7 311.6 311 310.3 310 310.4 310.3 310.1 309.3 308.9 308.3 307.2 306.2 305.1 304.5 304 303.4 303.5 303.7 303.7 303.9 303.8 303.3 302.8 302 300.4 298 294 293 292.4 293.8 294.5 293.3 292.5 292.1 292.8 293.6 294.2 295 295.9 296.7 297.9 298.7 299.8 301.6 303.3 303.8 304.5 305.4 306.3 307.6 308.9 310.6 310.7 311.1 312.1 313.8 318.2 324.2 330.5 337.6 345.3 352 361.6 369.6 376.1 380.5 383.8 387.2 389.3 390.6 389.4 387.7 384.9 382.2 378.9 377.2 377.7 377.5 377 377.9 379 380.2 380.4 378.6 375.1 371 368.4 365.2 361.2 358.2 354.8 350.1 343.9 338.9 337.6 338.8 340 340.6 340.1 339.5 338.8 337.9 336.8 335.3 333.9 332.4 332.5 333.7 334.9 335.1 333.5 332.3 330.6 330.4 328.9 327.5 326.7 324 322.6 321.5 321.1 320.5 321.2 322.8 324.2 325.1 325.9 326.7 325.6 323.7 322.4 320.2 318.2 316.2 313.6 311.1 308.5 306.2 303.5 300.5 297.3 292.6 286.3 280 273.5 267.5 262.4
275.8 276.1 275.2 274.4 275 275.6 274.9 273.5 270.8 267.4 263.6 259.6 243.5 239.3 253.3 268.1 270 268.5 263 264 268.5 276.8 283 283.3 283.5 285.7 288.8 291.6 293.4 293.2 293.5 295.4 297.6 300.3 302.5 304.7 306.2 307.5 308.5 309.6 308.7 306 304.2 309.5 311.9 311.7 311.7 312.6 314.4 315.4 316.2 317.4 317.5 317.3 316.5 314.8 314.3 314.2 313.8 312.6 311.5 311 310.1 309 307.6 306.5 305.5 304.7 304.2 304.3 304.4 304.4 304.4 304 303.5 302.8 301.2 298.4 297.4 298.1 295.9 295 295.3 295.3 294.8 294.4 294 294.1 294.9 296.1 297.2 298.1 298.6 299.3 300.5 301.7 303.2 305 305.4 306.1 307 307.9 308.9 310.2 311.6 312.8 314.2 315.8 321.4 328.6 335.2 342.2 350.5 359.2 368 377.7 383.8 387.1 389.5 391.2 393.4 394 394.2 392.4 389.2 386.1 383.4 378 380.9 381.3 381.6 383 384.5 385.9 386.3 386.7 383.9 379.7 375.7 371.9 367.6 363 359.1 355.9 351.9 346.1 343 341.7 343.6 344.8 344.9 344.1 343.9 343.6 342.7 341.6 340.3 338.5 336.7 336.5 337.3 338.5 338.8 337.6 336.2 334.4 333.5 332.3 331 330.1 327.5 325.8 324.4 324.1 323.7 324.2 325.4 326.2 326.5 326.9 327.1 326.3 323 321.8 320 318 315.9 313.4 310.8 308.3 306 303.5 300.9 297.6 292.6 286.7 282 275.8 271.8 267.7
278.2 277.5 276.4 275.3 276.2 276.9 276.2 274 270.5 267 263.4 255.3 243.4 240.5 262.7 272.1 273.1 271.4 267.7 264.3 266.1 273.6 278 279 281.1 284.9 288.7 291 292.7 293.3 294.3 296.8 300.4 304.8 307.2 308 309.8 310.8 311.8 311.3 309.4 305.9 306.8 311.7 312.9 313.3 314.5 315.8 318.1 318.6 319.3 320.5 321.2 321.3 319.7 318.2 317.9 317.6 316.4 314.9 313.6 313 312.2 310.9 309.4 307.8 306.9 306.1 305.3 305.1 305 305 304.6 304.3 303.5 302.6 301.1 299.4 299.8 299.5 297.3 296.8 296.9 296.7 296.5 296.8 296.3 295.8 296.6 298.1 299.5 300.8 300.7 301.5 302.7 303.9 305.1 306.5 307.3 307.8 308.6 309.4 310.5 312.3 313.7 316 320.1 321.6 330.9 338.3 346.2 354.5 367.2 377 384.5 390.6 393.2 395 396.3 397.5 397.8 397.1 396 394.3 391 387.6 382.3 384.3 385 385.7 388 390.2 391.2 392.7 392.3 391.1 387.5 383.7 378.2 374 369.7 364.5 360.1 356.8 353.8 348.9 346.5 345.7 347.9 349 348.9 348.7 348.3 347.8 347.2 345.8 344.3 342.6 340.4 339.3 340.6 341.6 341.1 340.2 339 337.5 336.2 335.3 334.4 333 330.8 329.2 327.7 327.1 327 326.6 327.1 327.1 327.1 327.4 326.4 325.2 321.6 320.2 319.4 317.5 315.5 313.2 310.9 308.5 305.6 303.1 300.7 296.9 292.7 287.4 282.8 277.9 273.1 269.1
278.9 277.6 275.7 275.7 276.7 277.8 276.4 273.1 269.6 265.8 260 249.5 244 246.4 267.6 274.7 275.6 273.9 269.5 268.4 267.8 270.6 274 277.6 281 285.5 288.9 291.4 294 294.7 295.8 298.9 304 309.2 310.5 311.3 313.2 314.1 313.6 312.4 310.1 306.1 310.2 315.6 315.8 316 317 318.3 319.8 320.9 322.1 323.3 323.9 323.8 321.9 320.4 320.2 320 318.5 316.8 315.6 315 314.2 312.7 311.1 309.4 308.2 307.4 306.5 306.1 305.7 305.4 305 304.6 303.7 302.8 301.6 301.4 301.1 300.1 298.6 298.4 298.3 298.1 298.1 298.6 298.7 297.9 298.8 300.3 301.7 302.9 303.4 303.9 304.9 306 307.3 308.6 309.3 309.8 310.3 311.2 313.1 315 318.2 321.2 325.3 330.5 338.9 349.9 355.9 369.3 381.4 389.9 396.1 399.5 401.6 401.7 401.7 401.4 401 399.7 398.1 396 392.4 388.8 387.2 388 388.6 390.7 394.7 397.3 397.6 398.6 397.1 394.6 390.7 386 380.3 375.4 370.7 366.1 361.6 357.8 355.3 351.8 348.9 349.2 351 352.4 352.2 352.4 352.6 352.1 351.5 350.1 348.3 345.4 342.8 342.2 343.5 344.2 343.5 342.4 341 339.2 337.9 337.1 336.6 335.4 333.4 331.2 329.9 330 329.5 328.9 328.9 328.5 327.7 327.2 326.1 324.9 321 318.5 318.8 316.9 314.9 312.8 310.7 308.1 305.2 302.6 299.3 295.7 291.7 288 283.5 279.8 275.6 272.6
279.5 277.2 275.9 276.1 277.5 277.9 275.3 271.4 267.3 260.6 252.6 244.7 245.3 257.9 273.6 277.5 278.2 279.1 275 274.6 274.6 271.7 278 282.2 285.2 287.7 290 292.3 294.9 296.1 297.8 302 308.1 312.5 313 314.2 315.9 316.4 314.5 312.4 310.7 306.4 313 317.6 317.8 318.7 319.6 320.6 322.1 323.5 324.9 326.1 326.5 326.1 324.3 322.9 322.4 322.5 320.9 318.9 317.4 316.2 315.1 313.9 312.1 310.4 309.1 308.3 307.4 306.9 306.4 305.9 305.3 304.8 304 303.3 302.8 302.3 301.7 301.3 300.1 299.9 299.8 299.7 299.7 300.2 300.9 300.1 300.5 302.4 303.5 304.7 305.6 306.3 307.2 308.1 309.4 310.8 311.5 312.1 312.5 313.8 316.3 319.9 324.8 328.6 335.2 341 349.9 364 370.2 382.8 393.1 401.7 405.5 407.5 408 407.3 406.4 404.9 403.7 402.2 399.6 396.8 393.4 390.1 391.1 391.8 393.1 396.2 400.6 402.9 403.1 402.7 401.2 397.8 392.7 387.2 381.2 375.8 370.9 366.7 362.6 359.5 357.6 354.8 351.4 352.8 355 355.3 355.6 356.2 356.4 356.6 355.8 354.1 351.2 348.3 345.8 344.9 345.7 346.3 345.8 344.8 342.5 339.9 338.5 337.5 336.8 336.3 334.6 332.3 331.9 331.3 330.7 330.2 329.6 329.2 328.2 327.1 326 324.1 321.5 319.1 318.4 316.4 314.3 312.2 309.7 307.2 304.3 301.3 297.9 294.5 290.6 287.4 284.8 281.6 277.4 272.9
278.7 276.7 276.4 276.6 277 276 272.4 268.1 259.8 248.7 240.7 249.6 262.3 268.4 275.5 278.7 278.8 280.8 278.1 275.1 277.4 273.1 277.6 283.7 287.2 287.9 290.5 294 296.6 298.1 299.8 305.1 309.9 314.1 315.3 316.2 317.3 317.2 314.4 312.8 310.6 308.7 318 320.3 320.3 321.2 322.4 323.4 324.7 326.1 327.6 328.9 329.4 328.3 326.7 325.5 324.9 324.7 323 320.8 318.3 317.1 316 314.8 312.9 311.1 310 309.1 308.3 307.8 307.5 307 306.4 305.8 305.3 304.8 304.2 303.8 303.4 303.1 302.2 301.8 301.5 301.2 301.3 302.1 303.1 302.5 302.1 304.3 305.8 306.9 308.6 308.6 309.6 310.8 311.9 313.5 314.4 314.9 316.3 317.4 321.6 325.9 332.7 339.5 345.4 353 360 374.8 385.3 396.2 403.6 409.6 412.6 413.1 412.7 411.5 409.7 407.5 405.9 403.7 401 398.1 396 395.2 395.3 396.1 398 401.1 404.8 406.5 406.6 405.8 403.8 399.8 393.7 387.9 382.1 376.1 371.2 366.9 364.3 361.5 358.8 355.7 353.9 356 357.9 358.2 358.9 359.6 360.1 360.3 359.6 357.5 354.5 351.5 348.7 348.4 348.1 347.5 347.1 345.9 343.1 339.9 337.5 336.2 335.2 334.8 334.3 333.1 332 331.2 330.5 329.9 329.3 328.5 327.6 326.4 324.8 323.2 321.2 318.9 317.4 315.5 313.3 310.7 308.2 305.7 302.7 299.8 296.4 293 290.3 287.9 285.5 281.8 277.7 273.1
277 275.8 275.6 275.8 275.1 272.5 268 262.3 247.4 253.7 256.3 257.8 268.3 273.2 277.7 278.6 278.7 280.3 278.8 278.9 279.8 276.8 278.8 283.4 287.4 288 291.5 295.8 298.3 299.9 300.1 307.6 311.5 314.2 316 316.7 317.5 316.7 314.7 313.9 311.1 312.3 319.3 321.8 322.7 323.7 324.7 325.9 327.2 328.6 330 331.2 331.1 330 328.7 327.3 327.1 326.4 325.1 322.3 319.5 317.6 316.4 315.1 313.7 311.9 310.8 310 309.3 309.1 308.8 308.2 307.6 307.4 306.7 306.2 305.6 305.4 305.2 304.8 304.3 303.9 303.5 303.2 303.2 303.8 304.8 304.6 303.9 306.1 307.9 308.9 310.8 312 312.7 313.7 315.2 316.5 317.9 318.6 320.6 323 327.5 334 343.7 350.2 357 365 372.8 384.2 397 405.5 410.8 413.8 415.2 415.7 414.8 413.4 411.3 409.2 406.8 404.5 401.7 399.7 399.1 398.8 398.9 399.9 401.7 404.6 407 408.5 408.6 407.3 403.7 398.6 392.6 386.7 381.1 375.5 371.1 367.6 365.2 362.4 359.6 357.9 357.8 358.8 360.8 361.6 362.3 363 363.5 364 362.8 360.8 357.5 354.3 352.2 350.5 349.9 348.6 347 344.5 341.2 338.8 336.3 333.9 332.6 332 332.2 331.6 330.7 329.9 328.8 328.4 327.8 326.7 325.6 324.9 323.1 321.5 319.8 317.5 315.8 314.3 312 309.6 307 304.6 301.4 298.3 295.2 292.4 289.7 287.5 285.3 281.8 277.3 275.2
275.9 274.7 274.6 274.3 272.4 268.5 263 251.7 251.3 261.2 264.1 266.8 270.6 274.9 277.4 278 279.1 279 278.6 280.5 280.9 281 283.9 284 285.8 288.3 292.1 295.7 299.5 301.8 302.8 308.7 310.9 312.6 315.5 316.6 317.3 316.4 314.4 312.1 311.4 318 321.9 323.2 324.5 325.6 326.8 328.1 329.4 330.7 331.9 332.4 332.5 331.4 330 328.7 328.2 327.5 325.9 322.9 319.9 318.1 316.5 315.2 313.9 312.4 311.4 310.7 310.2 310.3 310 309.5 309.4 309.2 308.5 308 307.4 307.3 307.1 307 306.4 305.9 305.6 305.3 305.3 305.9 306.5 306.1 305.8 307.8 310.1 311.3 313 314 315.2 317.2 318.8 320.2 322.3 323.7 326.1 329.2 336.2 346.1 355.1 364.9 372.6 378.9 386.1 393.4 404.9 410.6 413.7 415.3 416.3 416.3 415.5 413.9 411.6 409.1 406.8 404.5 402.9 402.1 402.1 402.3 402.7 403.7 405.5 406.9 408.1 408.5 408.7 406.3 401.7 396 390.5 385.3 380 375.3 371 368.4 366 363.6 362.1 361.4 360.6 361.7 364 364.9 365.6 366.4 366.7 367.1 365.6 363.2 359.8 356.6 354.3 352.4 350.6 348.3 345.7 342.3 339.2 336.3 333.7 331.3 330.3 329.3 329.4 328.9 328.2 327.5 326.8 326.1 325.2 324.4 323.5 322.4 321.1 319.7 317.9 316 314.2 312.7 310.9 308.4 305.8 303.3 300.7 297.6 294.6 291.9 289.3 287.4 285.2 282.3 278.7 277.3
274.8 273.7 273.4 272.3 269.5 265.7 252 250 266.2 269.5 271.4 273.7 272.5 275.4 276.5 277.4 280.2 280.4 279.4 281.3 281.2 282.9 286.6 285.7 285.6 287.8 291.7 295.5 300.6 300.8 303.5 309.2 309.5 311 314 315.9 315.9 314.5 311.6 312.2 318.8 323 323.9 324.8 326 327.1 328.4 329.4 330.8 331.9 332.7 332.4 331.9 331.6 330.1 329.4 328.8 327.6 325.8 322.9 319.6 317.9 316.8 315.4 314.3 313 312.1 311.3 311.1 311.2 311.3 311.3 311.2 311.1 310.8 310.4 309.8 309.3 309.2 309.3 308.8 308.1 307.7 307.5 307.6 307.6 307.7 307.7 307.9 309.6 312 313.5 314.8 316.3 318.3 320.4 323 325.1 327.5 329.9 332.4 335.2 345.2 356.5 368.3 377 384.1 392.2 399.5 403.8 409.1 412.2 414.8 416 416.1 415.5 414.7 413.7 411.4 409.1 407.1 405.8 404.8 405 405.3 405.4 405.9 406.7 407.8 408.2 408.7 408.5 406.4 402.8 398.5 393.3 387.7 383.1 378.6 375 371.1 369 366.7 365.1 365 364.4 363.9 365 367.4 369.3 370.5 371.1 370.8 370.2 368 365.4 361.9 358.6 355.8 353.4 350.6 347.3 343.5 340 336.6 333.4 330.4 327.6 326.2 325.8 325.9 325.2 324.6 323.9 323.4 322.8 321.8 320.9 320.1 319.3 318.3 317 315.4 313.7 311.9 310.1 308.6 306.9 304.3 301.6 299.3 297.1 294 291.4 289 287.8 285.7 282.9 281.4 279.9
273.6 272.7 271.2 269.7 266.9 258 255.5 266.9 272.9 276.4 277.2 275.9 274.6 275.4 276.3 277.8 280.7 281.1 281.5 282.6 281.5 282.9 286.8 287 286.9 287.6 290 294.8 299.2 300.5 304 308.7 308.9 310.2 311.8 313.1 312.6 311.4 313.4 317.7 322.8 324.6 325.5 326.4 327.5 328.6 329.5 330.3 331.5 332.3 332.6 332.1 331.5 330.8 329.6 328.7 327.8 327.1 325 321.8 319 317.8 317.1 315.7 314.7 313.5 312.6 312.4 312.4 312.5 312.7 313.1 313.4 313.4 313.1 312.8 312.4 312 311.8 311.9 311.4 310.5 310.1 309.9 310.1 310.1 309.9 309.6 310.2 311.5 313.8 315.8 317.2 319 321.6 324.6 327.6 330.1 333.4 337.1 340.4 345.8 355 367.7 378.2 390 399.3 404.8 409 411.8 414.2 415.9 416.6 416.3 416.2 415.3 414.4 413.2 411.3 409.5 408.5 407.7 407.8 408.3 408.4 408.4 408.9 409 408.4 407.7 407.4 406.2 403 399 394.7 389.7 384.6 380.8 377.7 374.6 371 369.1 367.8 367.3 367.2 367.4 367.2 368.2 371 374.2 375.3 375.8 375.6 372.9 369.9 367.2 363.6 360 356.4 353.4 349.5 344.9 340.9 337 333 329.7 326.8 324 322.2 322.2 322 321.1 320.5 320 319.4 318.8 318.2 317.5 316.8 316.1 315.2 314.1 312.8 310.9 309.1 307.4 305.8 304.1 302.2 299.8 297.6 295.7 293.1 290.9 289 287.3 285.6 283.9 284.1 282.7
272.8 270.9 266.7 259.4 261.4 246.6 263.8 271 276.4 279.7 281.9 279.1 276.7 277 277.4 279.1 281.1 282.3 283.3 283.1 281.6 281.8 286.1 289.3 289.3 288.6 288.1 291.7 297.1 299.9 303.3 307.3 308.4 309.7 310 310.6 310.7 313.4 317.5 320.2 323.9 325.8 326.7 327.7 328.6 329.3 330.1 330.7 331.3 331.7 331.5 330.9 330 329 327.7 326.8 326 324.8 323.7 321 318.4 317.8 317.2 315.9 314.8 313.9 314 313.8 313.8 313.9 314.1 314.5 315 315.5 315.7 315.6 315.5 314.9 314.7 314.6 314.2 313.2 312.6 312.5 312.7 312.7 312.4 312 312.9 314.1 315.8 318.1 319.9 322.1 324.9 329.3 332.7 335.7 340 345.2 349.4 354.8 363.5 375.9 392.1 404.3 410.3 413.3 415.3 417.1 418 419.1 419 418.1 416.3 415.5 414.5 413.2 412 410.8 410.4 410.4 410.8 411 411 410.8 410.7 409.6 407.7 405.1 403.9 402.1 399.1 395.3 390.9 386.3 382.3 379.4 376.5 373.8 371.1 370.2 369.5 369.1 369.3 369.6 369.9 371.3 374.7 378.3 379.1 378.4 378 375.2 371.7 368.3 364.1 360.2 356.4 352.5 348 343.3 338.4 333.6 329.5 326.5 323.4 320.5 317.5 317.1 317.2 316.6 316 315.5 315 314.5 314.3 313.6 312.7 312.4 312.3 311.4 309.8 308.1 306.4 304.6 302.6 301.1 299.7 297.7 295.8 293.9 291.3 289.3 288 285.9 284 285.6 285.7 283.4
269.2 267.7 268.7 265.3 251.1 260.6 271.5 275.1 279.5 284 286.5 281.1 277.5 277.9 278.1 279.6 281.7 282.8 284.1 284.4 282.6 281.9 284.9 289.9 290.5 288.4 288.3 290.4 295.2 299.5 302.8 306 307.8 309.3 310.2 311.4 313.4 315.9 318.7 322 324.6 326.2 327.5 327.8 328.4 328.7 329.1 329.6 330.4 330.3 329.4 328.7 328 327 326 325.3 324.5 323.6 322.6 321.3 319.3 317.9 317.3 316.1 315.4 315.1 315.3 315.2 315.1 315.2 315.6 316.4 316.9 317.6 318.5 318.9 318.7 317.9 317.8 317.7 317 315.9 315.2 315.3 315.3 315.3 315.1 314.8 315.6 316.7 318.3 320.2 322.4 325 329.7 334.2 338 342.4 347 352 358.2 367.4 376.2 388.2 398.3 412.1 418.3 420 421.1 421.2 421.7 422.1 421.2 420.1 417.4 415.9 414.9 413.8 413 412.6 412.3 412.2 412.5 412.1 411.2 409.9 408.8 407.1 404.5 401.9 399.9 397.9 394.9 392 388.8 384.7 381.6 378.9 376.6 374.1 371.3 370.8 370.9 371.1 371.6 372.3 373 374.9 377.6 380.3 380.3 379.1 377.4 374.7 371.4 367.5 363.2 359 354.8 350.5 345.8 341.2 335.7 330.6 326.7 323.5 320.4 316.9 313.4 312.2 312.5 312.1 311.6 311 310.7 310.7 310.5 310 308.7 308.6 308.7 308.3 306.7 305.1 303.5 301.9 300 298.6 297.1 295.6 293.8 291.9 289.4 287.7 286.5 284.1 284.2 286.7 285.7 283.6
272.6 271.2 268.4 260.4 252.5 270.5 273.5 276.3 281.5 286.7 287.1 280.3 278.1 278.5 278.9 280.1 282.2 283.2 284.1 284.9 283.2 283.6 283.4 288.7 289.7 286.9 288.3 290.6 293.5 298 302.5 305.1 307.5 309.2 310.7 312.4 314.9 317.3 319.5 322.1 324.5 326.3 327.3 327.5 327.7 327.7 328 328.6 328.5 327.8 327.1 326.5 326.3 325.8 325.3 325 324.7 324.4 323.7 322.5 320.4 318.7 317.5 317 317 316.9 316.7 316.6 316.6 316.8 317.2 318.1 319.1 319.9 320.8 321.8 321.4 320.8 321.1 321.1 320 318.5 318.1 318.3 318.1 317.9 317.6 317.7 318.8 319.9 321.4 323.6 326.2 329.1 334.6 340.2 345.7 351.2 355.4 360.5 366.9 375.7 384.3 401.1 408.7 419.2 425 425.6 425.1 425.3 425.4 425.1 424.2 421.9 419.1 417 415.6 415.3 414.6 414.2 413.7 413 412 410.6 408.5 406.7 405.1 403.7 401 398.4 396.1 393.9 392.1 389.4 387.7 385 381.8 378.6 376.1 373.7 371.4 371.7 372.1 372.7 373.4 374.3 375.3 376.9 378.7 379.1 377.7 375.7 374 371.4 368.5 364.9 361.1 357.2 352.6 347.6 342.9 338.2 333.6 328.6 324.9 321.7 318.3 314.3 310.5 308.1 307.5 307.4 306.9 306.5 305.9 306 306.2 306.3 305 304.3 304.9 304.6 303.5 302 300.4 298.9 297.5 296.7 294.9 293.2 291.5 290 288 286.9 286.1 285.4 285.8 286.2 284.6 282.5
273.5 271.2 268.3 252.3 262.7 269.5 270.9 271.9 280.7 287.4 284.6 279.9 280.4 280.1 280.3 281.2 282.8 284.5 285.8 284.6 281.4 283.2 287.7 289.7 287.1 286 289 292.9 294.7 296.8 301.4 304.8 307.1 309 310.6 312.6 315.2 317.5 319.8 321.9 324.1 325.7 326.3 326 325.7 325.7 326.1 326.6 325.9 325.4 325.2 325.4 325.9 325.8 325.6 325.5 325.3 325 324.4 323 321.4 319.7 318.9 318.3 318.4 318.7 318.5 318.1 318.1 318.7 319.4 320.2 321.2 322.1 323 324.3 324.3 324 324 324.2 323.1 321.7 321.2 321.4 321.2 321.2 320.7 321.3 322.6 324.1 325.8 327.6 330.7 335.1 340.5 347.2 354.1 359.5 364.7 371.9 376.8 383.7 396.1 410.3 413.4 425.2 429.2 429 428.4 427.9 427.5 426.2 424.8 422.7 420 418.1 416.8 416.5 416.1 415.7 414.1 412.2 409.9 407.6 405.3 402.9 401.4 400.1 398.1 395.9 393.6 391.6 389.7 388.9 387.5 385 381.7 378.4 376.5 373.5 371.3 371.6 372.7 373.7 374.4 375 375.7 376.9 377.1 375.3 372.9 370.8 368.8 366.8 364.3 361.2 357.8 354 349.6 344.7 340.3 335.3 331.2 326.8 323.2 319.8 316.6 312.6 309.5 306.5 304.7 303.4 302.4 301.8 301 301.4 301.7 301.8 301 299.6 301.1 300.4 299.6 298.5 297.1 295.9 294.9 293.8 293.1 292 289.4 289.8 288.6 287.8 290.6 290 288.5 286.2 283.7 282.1
273.9 271.5 268 271.3 270.9 270.9 270.9 275.6 280.1 286.2 282.8 282.1 283.3 281.7 280.7 281.1 282.9 285.6 286.6 285.5 283.4 280.9 288.2 286.2 284.3 287.2 290.1 295.6 297.5 297.1 300.2 303.9 306.3 308.3 310.5 312.6 314.7 317 319.3 321 322.3 323.5 323.4 323.5 323.5 323.4 323.6 323.7 323.5 324.1 324.6 325.3 325.9 325.9 325.8 325.8 325.7 325.6 324.6 323.4 322.2 321 320.3 319.6 319.9 320.1 320.3 320.2 320.7 321.2 321.8 322.4 323 323.9 325 326.3 326.6 326.5 326.8 327.2 326 325.3 325.2 325.1 324.6 324.6 324.9 325.7 327.5 329.4 331.2 333.8 336.9 341.3 346.5 354.9 363 368.1 374.7 381.6 386.3 395.5 408.4 414.7 424.3 430.3 432.4 430.4 429.8 429.1 428.1 426.7 425.3 423.4 421.3 419.2 418.3 417.4 416.9 415.5 413.6 410.8 407.7 404.6 401.9 399.5 398 396.7 394.8 393 391.3 389.4 388 387 385.5 382 379.8 377.9 376.1 372.7 371 371.5 372.5 373.5 373.9 374.2 374.4 374.9 373.8 371.2 368.2 366.1 364 362 359.8 359 352 349.3 345.6 341.6 337.7 332.9 328.1 323.9 320.8 317.8 315.1 312.2 309.2 306.6 303.3 301 299.5 298.5 297.8 296.8 296.6 296.2 294.4 293.3 295.4 294.4 293.8 292.6 292.4 292 292.3 288.5 289.2 288.3 281.9 286.1 287.3 285.8 292.2 292.5 291 288.4 281.9 276.4
275.1 274.3 270.9 270.9 270.9 270.9 270.9 271.1 278.6 284.3 282.6 280.1 280.7 280.7 279.7 279.8 281.9 285.5 286.7 286 285.9 284.5 281.7 281.6 288 291.5 291.2 296 298.4 297.4 300.4 302.8 305 306.6 309.8 311.4 313.6 315.9 318.1 319.4 320.4 320.6 320.5 320.5 320.5 320.5 320.8 320.8 321.9 323.8 324.7 325.5 325.9 325.8 325.8 325.9 325.9 325.5 324.6 324 323.4 322.3 321.6 321.1 321.5 322 322.3 322.4 322.9 323.4 323.8 324.4 324.7 325.5 326.6 327.8 328.2 328.9 329.4 329.9 329.2 328.2 328.3 328.6 328.5 329 329.7 330.9 333.2 335.2 337.3 341.1 344.1 348.6 354.3 364.7 374 379.7 385.2 389.3 396.8 406 416.6 423.8 429.6 432 432.1 430.3 429.3 428 427.5 426.8 425.5 424 422.1 420.1 418.9 417.8 416.2 414.6 411.8 408.5 405.3 402.2 399.5 397.2 395.3 393.5 391.9 390.4 388.7 386.9 385.6 384.9 382.5 379 376.7 375.2 373.6 371.8 370.8 371.2 372.3 373.1 373.4 373.4 372.7 371.9 370.1 367.1 363.8 361.3 359.2 357.1 355 352.8 349 345.2 341.4 337.7 334.4 330.1 325.2 320.6 317.8 315.4 313.3 311.3 309.1 307.3 304.6 301.5 298.9 296.8 296.4 294.8 292.1 290.4 287.2 286.1 286.8 285.2 284 284 281.2 280.9 280.6 277.3 276.3 275.4 275.1 272.8 273.6 274.6 288.5 291.5 282.6 278.2 270.5 264.8
274.1 270.9 270.9 270.9 270.9 270.9 270.9 270.9 275.4 278.8 280.4 280 277.8 277.9 277.1 277 280.1 284.1 286.6 286.5 286.5 286.1 279.2 286.2 293.1 294.1 292.5 296.2 297.9 297.8 299.9 301.5 303.1 305.8 309.3 310.4 312.2 314.3 316.4 317.2 317.6 317.7 317.7 317.8 317.6 317.6 318 318.9 321 324.1 324.7 325.3 325.6 325.6 325.7 325.8 325.6 325.2 324.7 324.7 324.6 323.6 322.7 322.6 323.3 323.9 324.2 324.6 325.1 325.5 325.8 326 326.3 327 328.2 329.3 330.1 331 331.6 332.4 331.9 331.2 331.6 332.1 332.9 333.8 334.6 336.6 339 341.7 344.7 348.3 352 358.3 365.5 374.3 383 390 392.8 398.6 406.8 414.9 422.4 429.3 431.5 431.5 430.4 429.1 428 426.9 426.7 426.8 425.6 423.9 422.5 420.9 419.5 416.8 414.9 412.7 409.7 406.3 403 400.4 398 395.9 393.7 391.8 389.7 388.1 386.2 384.1 382.6 382.4 379.1 375.9 373.8 372.4 371.4 369.9 369.4 370.2 372 373 372.9 372.2 370.7 369 366.6 363.6 360.3 357.4 354.7 352.3 350.1 347.5 344.3 341.1 337.3 334.2 330.2 326.1 322.5 318.8 316 313.1 311.3 309.9 308.5 307.2 305.3 302.9 300.1 297.7 295.6 293.8 291.6 288.4 287.5 287.8 286.8 286.5 288.8 287.6 283.1 285.1 288.5 288.9 286.6 283.1 283.6 277.9 273.6 270.2 272.1 270.7 266.5 265.8 268.3 266.4
273.8 270.9 270.9 270.9 270.9 270.9 270.9 270.9 270.9 274.6 275.6 276.2 275.1 275 274 274.7 277.1 280.7 284.3 285.5 285.7 280.7 279.5 291.5 294.8 294 293.2 296.3 297.3 298.2 299.6 300.9 301.6 305.1 308.6 310 310.9 312.9 314.4 315.3 315.8 315.6 315.5 315.3 315.4 315.4 316.2 318.1 320.5 323.3 323.9 324.6 325 325.6 325.8 325.8 325.6 325.2 325.6 325.8 325.4 324.4 324.1 324.1 325 325.6 326 326.4 327.1 327.7 327.9 327.6 327.6 328.7 329.9 331 332.5 333.2 334.2 334.9 334.5 334.3 334.8 335.9 336.9 338.5 340.1 342.6 345.8 349.2 352.9 357.7 362.7 369.1 375.5 384.6 387.9 393.1 400.9 406.3 413.2 419.5 425.1 428.9 430 428.6 427 425.3 423.7 424.2 425.1 425.3 424.6 423.8 422.7 421 418.7 415.6 413.2 410.2 407.4 404.2 401.7 399.6 397.6 395.3 393.2 390.5 388.6 386.9 384.7 382.7 380.9 378.3 375.9 373 371.6 371.1 370.1 369.2 368.7 369.7 372.2 372.7 372.1 370.6 368.3 365.6 363.3 360.1 357 354 351.2 347.9 345 342.2 339 335.8 333.5 330.8 326.8 323.4 319.6 315 311.7 308.2 306.5 306.3 306 305.9 305.4 304.4 301.9 297.8 295.4 294.1 291.6 289.4 290.3 291.5 293.2 293.9 294.8 294.5 294.9 295.8 297.3 299 299.1 297.9 295.5 291.1 285.3 279.8 276.4 277.6 279.3 285 290 286.8
274 270.9 270.9 270.9 270.9 270.9 270.9 270.9 270.9 270.9 270.9 270.9 270.9 270.9 270.9 271.3 274.8 276.8 278 275.9 274.5 274.6 279.2 290 292.9 292.9 294.4 296.3 297 297.7 299.2 300.5 301.4 304.4 307.9 309 310.1 311.3 312.3 313.4 314 313.7 313.3 312.9 312.8 313.8 315.7 318 320 322.4 323.2 323.7 324.6 325.1 325.7 326 325.8 326 326.2 326.3 325.9 325.4 325.5 325.9 326.7 327.2 327.6 328.2 328.9 329.3 329.2 328.9 329.4 330.6 332.3 333.8 334.9 335.7 336.9 337.3 337.4 338.1 338.5 339.6 341.2 343.1 345.8 349.3 353.1 358.4 363.2 369 374.4 380 385.9 392.7 398.7 399 400.9 408.3 416.5 421.2 424.2 426.2 426.2 424.8 423.1 420.9 419.3 419.9 421.6 422.7 422.7 423.2 422.5 420.5 417.3 414.2 411.2 408.2 405.5 403.2 401.6 399.9 398.2 396.4 393.9 391.4 388.7 387.5 385.9 384 382.4 379.6 376.2 373.9 373.3 372.7 372 370.7 368.9 368.7 371.7 371.8 371.1 369.3 366.7 363.5 360 356.7 353.7 350.8 347.8 344.8 341.1 337.9 334.6 332.9 330.5 327 323.4 317.8 315.3 317.2 316.1 314.3 312.4 307.9 304.4 303.2 302.8 303.2 299.9 295.9 292.4 292.2 293.2 294.2 295.1 296.4 298.2 299.8 302.2 302.9 302.6 304 307.1 307.8 307.9 308.1 307.7 306.7 301.5 298.6 296.7 297.1 298.4 299.9 300.3 295.6
270.9 270.9 270.9 270.9 270.9 270.9 270.9 270.9 270.9 270.9 270.9 270.9 270.9 270.9 270.9 270.9 270.9 270.9 271.5 271.5 277.8 278.1 277.1 286.2 289.5 291 295.4 296 296.1 297.4 299 299.5 300.1 303.5 306.6 307.5 308.2 308.9 309.9 311.5 312 311.2 310.4 309.8 311.8 313.4 315.6 318 320.1 321.7 322.7 323.8 324.7 325.4 325.9 326.1 326.1 326.3 326.4 326.5 326.4 326 326.3 327 328 328.5 329 329.8 330.5 330.8 330.5 330.4 331.5 333 334.8 336.4 337.5 338.3 339.4 340.4 340.3 341.6 342.3 343.9 345.5 348.6 351.7 356.1 367.4 369.2 375.1 380.3 385.2 390.5 395.8 401.5 406.7 407.7 399.5 405 416.7 420.1 420.9 421.6 420.9 420.6 418.7 416.6 414.6 415.6 417.5 419.9 420.9 421.3 420.4 418.5 415.8 413.1 410.5 407.7 405.5 403.9 402.7 401.3 399.6 398.1 396.1 393.5 390.1 387.4 385.3 383.2 381.5 379.1 376.5 375.3 375 374.1 373 371.8 370.2 366.5 369.1 370.2 368.6 366.4 364.6 361.4 357.9 354.2 350.9 348.2 345.4 342 338.7 335.3 332 329.2 327.2 324.3 319.5 318.9 320.7 319.2 317.7 316.2 314.3 311.2 307.6 301.7 299.7 298.8 297.2 295 294.9 295.8 297.1 298.2 299.7 302.5 305.4 306.2 308 309.3 309.7 310.9 313.3 314.9 316 316.7 316.6 316.5 315 313.3 309.9 306.8 305.8 304.2 303.9 298.8
270.9 270.9 270.9 270.9 270.9 270.9 270.9 270.9 270.9 270.9 270.9 270.9 270.9 270.9 270.9 270.9 270.9 270.9 275.9 280.6 284 281.9 274.5 281.2 286.5 289.2 291.8 294.1 293.4 293.5 294.8 296.4 298.9 302.6 304.9 305.6 305.7 306.4 307.5 308.8 309 308.1 306.4 309.1 311.3 313.3 315.7 318 320.3 321.9 323.1 324.3 325.3 325.8 326 326.2 326.3 326.5 326.6 326.6 326.5 326.7 327.4 328.1 329.2 330 330.6 331.3 331.9 332.5 332.3 332.6 334.4 336.5 338.3 339.3 340.5 341.3 342.2 343.7 344.2 344.8 346.2 348.2 350.4 353.8 358.1 368.4 374.9 378.4 386.3 391 395.7 400.9 406.3 409.3 412.4 412.9 402.3 402.2 413.2 415.6 416 416.4 416.7 416.4 414.4 412.2 410 410.7 413.5 416.1 418.5 418.9 418.3 416.5 415.3 412.8 410.4 408.5 406.9 405.6 404.4 402.8 401.1 399.9 398.2 395.3 390.6 387.2 384.9 383.1 381.3 378.9 376.9 376.2 376 375 373.6 372.6 371.5 369.5 364.2 361.3 361.5 360.6 360.2 357.7 353.9 351.3 348.3 345.5 342.8 339.8 336.4 333.2 330.3 327.5 324.7 321 320.6 322.1 322 321 319.7 317.6 315.5 313.2 310.3 307.1 303.4 299.7 296.9 297.4 298.4 299.5 300.9 303.3 306.1 308.8 310.8 312.3 314.2 315.5 316.1 318 320.3 322.5 323.6 324.5 324.9 324.9 324.9 322 318.9 316.2 313.1 309.1 305.7 302.5
270.9 270.9 270.9 270.9 270.9 270.9 270.9 270.9 270.9 270.9 270.9 270.9 273.4 273 270.9 270.9 270.9 274.1 277.2 281.9 284.8 283 276.9 278.2 283.4 287.8 291.9 294.8 293 288.7 289.9 292.5 298.2 302.1 301.7 303.5 303.6 303.2 304.3 305.3 305.1 304 306 309 311.4 313.5 315.8 318.1 320 321.7 323.1 324.4 325.4 326.1 325.8 325.8 326 326.3 326.5 326.7 327.1 327.4 328.1 329.1 330.6 331.4 332.1 332.9 333.5 334.1 334.5 335.1 337.7 340.1 342 342.8 343.8 344.9 346 346.9 347.9 349.1 350.9 353.3 356 359.8 368.2 377.3 377 389.1 396.3 400.9 405.7 411.1 414.9 415.6 416.5 414.3 405.5 399.7 404 406.9 409.6 410.6 412.2 412.2 410.3 408.3 405.9 406.1 409 412.9 415.6 416.2 415.8 415.2 414 412.7 410.4 409 408.2 407.4 405.9 404.3 402.7 401.6 399.6 395.9 391.2 387.4 385.3 384.1 381.7 379.4 377.8 376.9 376.5 375.5 374.3 373.8 373.1 371.9 370.7 369.4 366.5 361.4 354.1 350.7 348.2 346.3 344 342 338.4 336.2 334.1 331.5 328.5 325.9 322.5 322.6 323.6 323.9 323.8 322.8 321.8 319.8 318 315.7 312.7 309.9 305.7 301.4 300.2 301.4 301.9 303.6 306.4 310.1 312.4 315 316.6 318.2 320.5 322.5 324.2 326 327.8 329.2 330.4 331.5 331.9 332.5 332.4 330.5 324.6 321.5 315.9 315.5 310.2 306.3
270.9 270.9 270.9 270.9 270.9 270.9 270.9 270.9 270.9 270.9 271.9 274.6 275.6 274 274 273.5 273.5 274.5 276.9 281.5 284.5 283.7 279 276.7 280.5 286 289.9 290.4 286.1 282.8 284.5 288.8 295 298.1 296.6 299.4 297.3 296.9 298.9 299.7 300.1 301.9 306 309.1 311.7 313.9 316 317.8 319.7 321.3 322.8 324.1 325.1 325.2 325.1 325.1 325.4 326.1 326.7 327.1 327.5 328.2 328.9 330.3 332 332.8 333.7 334.4 335.2 335.9 336.6 337.6 340.3 343.8 345.9 346.8 347.9 348.9 350 351.2 352.2 353.8 355.7 358.5 361.9 366.9 382.1 381.4 378.3 393.3 403.9 408.8 413.4 418 420.5 419.1 417.8 413 406.3 401 399.1 399.6 401.6 405 406.7 407.5 406.5 404.4 401.7 401 404.5 408.5 411.7 412.6 413 412.8 412.5 411.9 410.3 409 408.1 407 406.2 405.3 404.2 403.2 400.6 395.9 392.9 389.3 386.7 384.7 382.1 379.7 378.8 378 377.1 376.1 375.5 375.3 374.8 373.4 372.2 370.8 369 364.9 361.1 356.5 352.3 350.1 347 342.9 337.8 332.3 332.2 330 328.1 325.7 324.1 325.4 325.5 325.5 325.5 324.5 323.6 321.4 319.3 316.9 314 311 306.1 303.4 304.9 305.7 306.5 308.6 311.7 315.5 318.2 320.6 322.3 324.4 327 329.5 331.4 332.7 334.2 335.6 337.3 338.4 338.4 338.6 337.7 335.6 332.5 327.6 323.5 321.2 316 312.8
270.9 270.9 270.9 270.9 270.9 270.9 270.9 270.9 272.1 274.5 275.9 277.9 278.4 276.4 275.9 276.1 275.2 276 277.1 280.9 284.3 283.4 281.2 281.7 280.6 280.9 279.9 280.3 280.3 287.1 290.9 285.5 284.4 285 288.3 289.5 294 297.2 296.5 297.6 294.5 301.6 305.9 309.2 311.6 313.5 315.5 317.4 319.3 320.8 321.9 323.1 323.7 323.9 324.2 324.3 324.7 325.6 326.6 327.4 327.8 328.7 329.9 331.4 333.1 334.1 334.9 335.8 336.8 337.6 338.4 340.1 343.7 347.6 349.8 351 352 353 354.1 355.1 356.5 358.4 360.6 363.2 367.6 373.3 380.5 387.8 378.8 394.8 411.2 416.5 420.1 423 423 421.1 418.1 412.4 408 402.7 396.9 395.3 394.2 397.3 400.7 402.4 401.7 400 396.9 396.6 400 404.3 407.4 408.7 409.5 409.7 410 409.5 408.3 407.4 406.8 405.3 404.8 404.4 404.2 403.9 401.2 397 395.2 391.9 389 385.4 382.5 380.3 379.7 379 378.1 377.3 376.9 376.9 376.2 374.6 373.2 371.8 370 367.5 363.9 359.2 353.7 350.1 345.4 340.9 337.9 334.8 332.8 330.5 328.5 326.3 327 328.2 327.3 327.2 327.1 326.4 325.5 323.4 321.2 318.3 315.2 310.6 307.4 308.1 308.8 309.6 311.2 313.5 317.6 320.3 323 325.5 327.9 330.5 333 335 336.6 337.7 339.9 341.8 343.8 345.2 343.9 343.5 342.1 339.1 335.4 331.7 329.4 325.4 321.8 320.4
270.9 270.9 270.9 270.9 270.9 270.9 271.7 273.7 276.4 277.4 279.4 281.4 281.3 278.6 278 278.1 276.6 276.6 277.8 281.1 284.3 283.9 283.4 286.3 286.7 285.8 285.7 285.4 286.4 288.9 292.3 293.2 291.8 290.5 293.2 294.6 298.4 299.3 301.3 302.4 300.8 297.5 304 308.8 311.3 313.2 315.1 317.1 318.9 320.4 321.5 322.1 322.3 322.5 322.8 323.3 324.2 325.2 326.1 327.1 328.3 329.7 331.2 332.6 334.1 335.3 336.1 337.2 338.3 339.2 340.2 343.1 347 351.5 354.6 355.6 356.5 357.5 358.7 359.5 361 363.2 365.6 368.4 373.1 379.5 386.2 394.6 378.9 396.2 418.6 423.4 425.5 426.1 425.1 422.1 418 413.2 408.4 403.8 398.1 392.6 389.4 389.6 393.1 395.5 396.1 394.6 392.4 393 395.9 399.8 402.6 404.4 405.5 406.6 406.9 406.3 405.2 404 403.6 403.2 402.3 401.3 402 401.8 399.5 397.4 396.5 392.6 390.4 386.8 383 380.9 380.3 379.8 379.2 378.5 378.1 377.7 377.2 376.2 375.4 373.3 371.4 369.2 364.8 359.4 353.9 350.1 345.7 341.6 338.4 335.1 333.5 332.9 330.5 328.3 330 330.3 329 328.9 328.8 328.3 327.4 325.6 322.2 318.2 313.7 312.5 312.5 312.1 312.6 314.5 316.9 319.3 323.8 325.2 328.2 330.3 333.6 336.1 338.7 340.3 341.2 342.8 345.2 348.4 349.3 349.3 347.4 345.9 345.3 343.6 340.6 336.5 334 329.6 327.8 325.6
270.9 270.9 270.9 270.9 270.9 273 275.2 277 279.2 280.7 282.6 284.4 283.8 280.8 278.2 278.1 277.6 277.8 278.6 280.8 283.5 283.6 283.9 288.3 289.8 290 291.3 290.3 288.4 295 296.4 298.3 299.6 298.4 297.1 295.3 298.1 299.4 301.4 303.6 303.8 304.3 299.7 307.7 310.7 312.6 314.7 316.7 318.7 320.2 321.1 321.1 321 321 321.3 322.3 323.7 324.7 325.8 327.2 328.5 330.5 332 333.8 335.1 336.3 337.5 338.6 339.7 341 342.4 345.6 351 356.3 359.6 360.7 361.2 362.2 363.1 364 365.5 367.8 370.6 375.1 379.8 386.1 393 399.8 404.6 417.2 425.7 429.2 429.3 428.8 425.9 422.2 416.8 411.8 408.3 404.4 399.9 394.6 389.4 384.5 385.1 388.2 389.6 388.6 387.2 389.7 392.3 395.1 397.7 399.3 400.9 403 403.8 402.2 400.9 399.7 399.4 399.6 398.5 397.5 398.1 398 397.7 398.4 396.9 394.1 391 388.3 383.8 381.6 382.3 382.1 380.9 380.1 379.6 379.2 378.9 379 378.6 375.5 372.2 369.8 365.6 359.3 354.1 350.2 346 342.1 338.2 336 334.6 332.7 330.4 330.5 332 331.8 330.8 330.7 330.4 329.8 328.7 327 323.6 319.8 317.1 316.6 315.7 315.7 317.2 319.2 322.2 325 327.3 328.4 332.8 335.5 338.9 341.8 343.4 344.9 345.9 347.8 350.7 352 351.9 350.9 349.7 349 348.5 348 345.9 340.5 336 332.2 332.7 328
270.9 270.9 270.9 270.9 270.9 271.7 277.1 279.7 281.9 283.4 285 286.2 286.1 283.4 280.6 279.7 279.6 279.4 279.1 280 281.5 283.1 285 289.4 291.1 291.5 293.1 293.7 288.5 292.9 296.6 300.9 302 300.6 298.9 297.2 298.3 299.3 301.6 304.3 304.5 304.8 300.7 307.1 310 311.8 314 316.2 318.1 319.4 320.1 319.7 319.1 319.2 320.3 321.6 323.1 324.8 326.2 327.5 328.8 330.9 332.8 334.6 335.9 337 338.4 339.8 341.3 342.8 345.2 349 355.1 361.3 364.8 365.4 365.4 366.6 367.5 368.6 369.7 372.3 377 382.6 388.1 395.9 403.4 410.8 418.9 426.7 429.9 432.4 433 431.5 427.3 421.8 416.5 411.9 408.2 405 401.1 396.2 391.2 385.6 381.2 381.9 383.5 383.1 383 385.8 388.6 390.1 391.5 393.3 396.6 399.2 399.3 397.5 395.4 394.6 394.8 395.5 395.7 395 394.9 395.4 396.7 397.4 396.4 393.8 391 389.8 383.9 383.8 384.6 384.4 383.2 382.3 381.7 381.2 381 380.9 380.5 377.3 373.1 369.9 366 359.7 354.6 351.9 346.4 341.3 338.2 336.5 334.2 332.9 333.4 333.7 333.8 333.4 332.6 332.2 331.8 331.1 330 328.2 325.3 322.6 320.6 319.8 319.2 320.6 322.6 324.3 328.6 334.2 336.2 333.5 335.4 340.3 344 345.4 346.5 348 348.8 349.7 351.9 352.4 352.2 351.4 350.7 350.4 349.8 348.9 346.5 342.8 338.2 335.9 334 330.6
270.9 270.9 270.9 270.9 270.9 274.5 279 282.4 283.7 283.7 284.7 285.7 285.7 284.5 282.4 281.2 280.5 279.7 278.7 279.8 282.3 284.7 287 290.8 291 291.6 292.4 292.6 291.7 291.7 294.2 299.6 300.2 299 298.5 298.7 299.2 299.7 302 305 305.5 304.9 300.5 306.1 309.2 311.1 312.6 314.1 316.1 317.8 317.7 317 316.8 318 319.7 321.2 323 324.7 326.4 327.7 329.1 331.2 333.3 335.2 336.6 338.1 339.6 341.1 342.4 344.8 348.2 352.6 359 365 368.7 369.3 369.5 371.1 373.5 374.2 374.8 378 383.6 390 397 406.4 414.2 421.1 427.9 435.5 437.9 438.8 438.2 433.6 428.9 424 418.4 413.6 409.7 406.1 402.2 397.1 391.9 386.1 380.6 377.7 378.2 377.5 378.7 377.5 381.7 383.8 385.7 388.7 392 394.4 393.4 391.4 389.1 387.6 389.5 391 391.8 392.5 393 393.3 394.2 394.8 394.7 392.9 391.2 388.2 385.1 387.9 387.8 386.7 385.6 384.6 384.2 383.1 382.6 381.7 380 377.1 373.1 369.1 364.9 359 354.9 351.2 345.2 341 338 335.2 334.4 337.5 337.6 337 336.8 335.7 334.7 333.6 332.9 332.1 331.7 330 327.9 326.2 324.4 323.1 323.2 324.6 326.9 333.5 342.3 346.6 348.5 347.4 335.1 340.1 348.3 348.3 347.6 348.1 348.6 349.5 350.6 350 349.2 348.9 348.3 347.9 347.6 346.1 344 341.1 338.1 334.5 333.4 332
270.9 270.9 270.9 270.9 271.7 273.8 277.3 280.3 281.4 281 281.9 283.4 284.3 283.5 281.9 280.6 280.1 279.1 278.2 279.1 283.4 287 289 289.9 290.8 291.6 292.5 293.6 294.5 295.2 293.4 297.4 298.1 298.1 298.1 298.7 299.3 300.7 302.6 305.5 305.3 305.3 302.5 305.3 307.7 308.8 310 311.5 313.2 314.4 315.4 315.1 315.7 317.6 319.3 321.1 322.9 324.5 326.1 327.5 329.2 331.5 333.7 335.8 337.7 339.3 340.8 342.4 344.5 347.1 351.5 356 362.2 368.3 371.7 372.7 374.1 376.3 380 380.5 380.8 384.3 390.3 397 406.9 417.1 427 433.6 439.7 445.2 446.1 444.7 441.1 435.5 430.5 425.6 420.6 415.7 410.5 406.8 403 397.8 392.2 386.1 379.8 375.7 374.4 373.6 373.9 374 375.9 378.5 381.6 383.7 386.9 388.3 387 384.3 381.5 380.7 383.5 386.1 388 389.2 390.5 391.1 391.7 392.2 392.7 391.6 389.6 387.1 388.5 390.1 389.6 388.1 387.2 386.3 386.7 385.7 383.1 381.4 378.6 375.7 372.2 367.8 362.9 358.2 355 349.8 344.2 340.1 336.1 337.7 342 342.5 341.4 340.3 339.3 338.1 336.6 335.2 333.9 333.3 333.6 332.3 330.7 329.8 329.7 329.1 329.2 331.2 335.1 342.2 350.2 354 355.2 355.2 352.8 342.9 345.5 346.9 346.5 347.1 347.3 347.4 346.1 345.4 345.2 344.4 344.2 344 342.7 341.4 339.4 336.8 334.4 332.3 330.1 326.5
270.9 270.9 272.3 273.1 270.9 270.9 270.9 274.7 275.9 277.4 278.9 280.7 281.5 281.2 279.7 278.9 278.8 278.3 278 278.5 282.2 287.4 289.6 290.2 291 293.1 294.9 296.2 297 297 297.3 295.7 296.6 297.4 298.2 299.4 300.6 301.7 303.8 305.4 305.7 305.7 305.4 304.6 306.5 308.1 309.2 310.3 311.6 312.5 313 314.2 316.1 317.6 319.4 321.2 322.9 324.6 326.1 327.6 329.7 332.1 334.4 336.6 338.6 340.8 342.6 344.3 346.5 349.7 354.5 359.7 365 370.9 374.1 378.5 380.4 381.8 385.2 387.1 388.4 392.4 397.4 405.9 416.2 429.5 440.2 444.3 447.8 450.8 449.7 447.2 442.3 437 432 426.6 421.3 416 410.7 406.8 402.5 397.8 392.2 385.8 380.2 375.1 371.9 370.1 369 369.2 370.9 374.4 377.6 379.5 381.1 380.9 380.5 377.4 374 373 377.7 381 383.5 385.7 387.1 388.4 389.5 390 390 389.2 387.9 386.8 388.6 389.7 389.9 389.2 387.7 387.6 387.5 386 383.1 380.2 377.4 374.5 370.4 365 359.9 356.1 350.4 344.4 339 339.9 342.1 345.7 346.3 346 345.5 343.9 341.6 340.4 338.6 336.8 335.5 335.1 335.4 334.8 334.6 334.3 334.2 334.6 335.7 337.9 342.5 349 355.9 358.8 359.3 358.7 356.2 347.5 345.1 345.8 345.6 344.4 343.4 342.8 341.5 340.6 339.4 338.6 338.9 338.3 336.7 335.5 333.7 331.2 329.7 327.8 325.2 320.8
270.9 270.9 270.9 270.9 270.9 270.9 270.9 270.9 270.9 274.5 276.6 278.3 278.9 278.4 277.5 276.7 277 277.6 278.2 279 281.4 285.8 289.2 291.1 291.4 294 296.4 298 298.5 298.5 298.2 296.5 296.9 297.8 299.5 301.1 302.4 302.9 303.9 305.7 306.5 306.6 306.8 306.8 307.8 310 311.3 312.9 314.3 314.1 314 315.3 316.6 318.1 319.7 321.2 322.9 324.7 326.2 328.1 330.6 333 335.3 337.5 340.1 342.3 344.1 346.1 348.5 352.4 357.8 363.9 369 374.5 380.6 385.7 386.7 387.9 390.5 393.4 397.4 403.2 406.9 414.8 426.3 439.5 447.1 449.4 450.2 451.3 450 447.3 442.6 437.7 432.3 425.8 420 415 410 405.4 401 395.9 389.8 384.3 379.9 375.3 371.7 368.3 366.2 365 366.8 370 373 374.5 375.1 374.9 374.2 371.3 368.2 367.9 372.2 376.4 379.6 381.8 383.9 385.4 386.3 386.4 386.2 385.4 384.2 384.9 386 387.2 388.5 388.8 387.6 386.4 386.1 384.2 381.2 378.6 375.9 372.3 367.7 361.6 355 353.4 343.5 345.4 346.2 347.7 349.5 351.2 351 349.9 348.9 347.6 345.3 343.1 341 339.2 338.5 338.5 338.6 338.8 339.2 339.3 339.6 340.3 341 342.6 347.4 353.4 358.6 359.9 360.1 359.8 356.4 350.4 346.7 343.9 341.7 339.9 339.3 337.8 336.5 335.4 334.5 333.7 333.2 332 330.6 328.8 327 324.9 323.1 321.7 319 314.5
270.9 270.9 270.9 270.9 270.9 270.9 270.9 270.9 270.9 272.8 274.8 276.3 276.8 276.4 275.4 275.2 276.1 277 278.7 279.7 282.7 286.4 291.1 292.9 292.3 294.8 297.5 298.8 299.2 299.1 299 298.3 298.9 299.5 301.8 303.8 304.2 304.6 305.1 305.9 306.9 307.5 307.6 308.1 309.1 311.1 313.5 315.3 316.2 315.4 314.9 315.7 316.9 318.4 319.8 321.3 323 324.8 326.9 329.1 331.4 333.9 336.1 338.3 341.1 343.8 345.9 348.2 351.2 355.5 361.4 367.6 373.7 381.9 389.4 394.7 395.8 396.7 399.5 401.6 408.1 414.7 417.7 422.8 434.5 445.4 450 449 448.8 449.3 447.7 445.1 441.9 437.6 431.5 424.2 418.6 413.4 408.3 403.7 398.3 393.1 387.2 382.7 378.6 374.8 371.9 368.5 365.8 363.6 362.4 365.6 368 369.6 370.8 369.4 368 366.2 363.6 365 368.9 372.4 375.4 377.9 380.1 381.5 381.8 381.7 381.6 381.3 381.7 382.5 383.5 384.5 385.3 385.7 384.4 383.9 383.2 381.2 378.5 376.4 373.2 369 364.5 354.3 346.7 346.2 348.6 352.5 353.7 355.3 356.1 356 356 354.9 353.5 351.2 349 346.8 345.5 344.3 343.7 343.5 343.9 344.1 344.6 345.2 345.9 346.6 347.2 348.8 350.4 354.4 358 359.9 359.9 358.6 354.2 348.2 345.5 342.6 338.4 335.7 335.9 334.2 332.5 331 330 328.6 327.4 326.3 324.4 321.6 320.5 318.6 316.3 314.3 311.9 308.7
270.9 270.9 270.9 270.9 270.9 270.9 270.9 270.9 270.9 270.9 272.5 274 274.6 274.4 274.1 276 276.9 278.4 279.2 280.6 283.4 285.9 289.8 293.5 293.6 295.2 297.3 299 299.6 299.5 300 300.9 301 301.7 303.9 305 305.4 305.5 305.7 306.5 307.5 308 308.5 309 309.8 311.2 313.6 315.4 315.4 314.6 315.6 316.4 317.2 318.6 320 321.6 323.4 325.2 327.3 329.6 331.9 334.4 336.5 339.4 342.1 345.1 347.6 350.5 354.1 358.9 365.7 373 382.2 393.7 401.5 405.1 405.8 406.3 409.4 412.2 417.7 424.5 428.2 429.7 439.6 446.9 448.8 447 446.5 446 444.4 442 439.4 435.1 428.8 421.6 415.7 410.8 406 400.4 394.9 389.8 385.7 382 377.9 374.3 371.7 369.5 367.2 364.8 362.3 360.4 361.9 363.7 365.1 364.3 363.2 361.7 358.5 362.5 367.5 369.6 372.4 373.6 375.6 376.9 377.2 376.7 376 376.1 377.4 378.6 380.3 380.9 381.3 381.2 380.4 380.5 380.6 378.4 376.4 374 368.5 357 358.7 361.7 360.7 359.2 356.2 357.2 359.3 360.5 362.2 362.4 361.1 359.7 358.3 355.7 352.9 351.3 350.9 350.4 350.1 349.9 350.5 351.3 351.1 351.4 352.2 352.8 353.4 354.4 355.7 356.5 358.3 359.5 358.9 356.4 351.2 347.6 346 342.1 338.2 335 333.2 331 329.3 327.3 325.6 323.8 321.5 320.1 316.7 314.1 311.3 309.3 306.9 306.1 303.8 303
270.9 270.9 270.9 270.9 270.9 270.9 270.9 270.9 270.9 270.9 271.6 273.6 272.1 272 275.1 276.9 278.9 280.9 282 281.4 282.4 284.8 288.1 293 295 294.3 296.4 298.6 299.9 300.8 301.9 302.6 302.4 303.2 305.1 305.9 306.2 306.3 306.4 307.1 307.9 308.6 309.2 309.7 310.3 311.4 312 313 313.8 314.4 316.1 316.9 317.7 319.1 320.5 322.2 323.8 325.6 327.9 330.2 332.4 334.8 337.4 340.4 343.3 346.3 349.1 352.8 358.2 363.3 371.6 382 394.6 405.7 412.9 417 416.7 416.5 417.6 421 424.6 431.4 434 435.2 439.9 443.6 444.1 443.3 442.8 441.8 440 437.5 434.3 430 423.6 417.2 412.3 407.8 402.7 397.2 392 388.1 384.5 381.3 377.9 375.7 373.5 370.8 368.6 366.4 364.3 361.2 358.3 356.4 357.3 358.1 358.3 356.5 355.2 360.1 364.5 368.1 369.6 370.6 371.5 372.2 372.1 370.8 369.8 370.8 372.6 374.7 376.5 377.7 376.9 376.2 376.1 376.8 377.6 376.2 373.7 369.4 357.2 367.7 368.4 367.5 365.2 363.2 360.6 362.3 364.7 365.1 368.2 368.3 367 365.7 363.5 360.6 358.4 357.3 357.1 357.7 357.2 357.6 358.3 358.5 357.9 357.9 358.5 359.1 359.6 360.3 360.2 359.7 359.4 359 357.5 354.1 350.5 348 345.4 342.4 339 335.9 334.1 331.1 329.6 326.4 323.6 321.2 316.3 315.5 314.1 308 299.3 295.3 292.5 290.7 292.2 294.8
270.9 270.9 270.9 270.9 270.9 270.9 270.9 270.9 270.9 270.9 270.9 271.9 270.9 273.6 275.6 278.5 280.9 283.3 284.1 282.8 282.1 284.2 287.6 293.5 296.5 294.7 295.6 298 301.1 302.3 303.1 303.3 303.5 304.6 305.9 306.6 306.9 307.1 307.3 307.7 308.4 309 309.6 310.1 311.3 312.4 313.8 314.8 315.8 315.5 316.6 317.5 318.7 320.1 321.6 323.3 325.1 326.9 329.4 331.8 334 336.3 338.8 341.7 344.5 347.5 350.5 355.7 362.8 370.4 381.4 397 412 421.6 428.1 431.2 430.4 428.4 421.9 424.4 421.3 428.1 433.5 433.8 435.7 437.6 438.5 438.3 437.4 436.5 434.6 431.4 427.8 423.4 418 413.4 409.5 404.9 400 394.7 390.3 388.3 385.6 382.4 379.9 377.9 375.8 373.1 370.3 367.8 365.7 363.1 360.5 356.7 354.4 350.6 351 351.1 351.7 357.1 361.4 364.1 366.2 366.8 366.5 366.5 365.4 363.3 363.2 365.4 368.7 370.9 372.2 372.5 371.8 371.4 372 373.5 375 374.1 371.8 359.8 371.1 372.7 372.7 372 369.8 367.2 365.8 367.7 369.8 369.7 372.4 373.2 372.4 370.8 368.4 365.8 364.3 364.3 364.4 364.9 365 365.5 366.2 365.7 365 364.8 364.6 365 365.4 365.2 364.1 363.2 361.5 360.7 357.5 354 351.1 348.8 346.7 343.6 340.1 338.4 336.2 333.7 331.7 327.8 325.5 324.2 321.6 319 315.4 312.3 309.9 306 300.3 293.8 284.9 276.7
270.9 270.9 270.9 270.9 270.9 270.9 270.9 270.9 270.9 270.9 270.9 270.9 270.9 273.3 276.2 280 282.7 285 285.3 284.1 283.1 283.9 286.8 293.3 298 296.4 296 297.8 301.8 303.6 304.1 304.3 304.4 305.2 306.5 307 307.4 308.2 308.2 308.2 308.7 309.3 309.9 310.9 312.3 314.5 318.1 319.9 320.4 316.5 317.3 318.7 319.8 321.3 322.9 324.8 326.8 328.6 331 333.7 336.3 338.4 340.8 343.2 346.5 349.7 353.6 360.8 369.1 379.8 395.2 412.1 426.7 434.4 440.4 441.3 439.8 438.4 428.9 422.9 416 420.6 427.9 428.4 430.5 431.4 432.2 432.4 431.5 430.3 428.4 425.1 421.6 418.8 414.9 411.5 407.3 402.4 398.7 395 391.8 389.7 387.3 384.8 382.7 380.6 378 375.2 372.3 369.6 366.8 364.4 361.9 359.4 357.6 354.8 351.6 346.6 346.5 353 356.8 359.4 361.9 362.5 361.3 359.7 357.9 356.6 357.3 361.1 364.6 366.5 367.4 367 367.3 367.5 368.2 368.6 370.5 366.2 364.2 373.9 375.5 376.4 376.6 376.5 374.9 372.5 371 372.3 374.4 375.5 375.9 377.3 377.1 375.5 373.4 371.4 371.4 371.5 371.9 372.6 373.1 373.5 373.8 373.2 372.3 372 371.3 370.4 370.5 369.7 366.9 364.9 364.2 361.9 358.3 354.6 351.8 349.7 347.7 345 342.4 340.7 338.6 336.5 333.6 329.5 326.1 323.7 320.9 318 315 312.4 309.6 304.1 298.7 294.8 287.7 281
270.9 270.9 270.9 270.9 270.9 270.9 270.9 270.9 270.9 270.9 270.9 270.9 272.1 274.4 276.8 281.2 284 285.9 286.5 285.1 283.5 283.5 286.3 292.9 299.1 298.1 296.8 299.2 302.5 304.4 305.3 305.4 305.3 305.8 306.7 307.3 307.9 308.1 308.3 308.6 308.9 309.7 310.4 311.6 313.1 316 321.3 322.3 321.1 318.5 318.3 319.7 321.1 322.8 324.8 326.9 328.7 330.6 333.3 336.1 338.9 341.3 343.4 346.2 348.9 351.7 357.5 365.2 377.2 392.5 409.9 426.1 440.1 446 450.2 449.6 447 444.3 435.4 421.3 415.3 415.7 419.9 420.5 424.6 424.7 425.8 425.8 424.3 422.9 421.5 418.8 416.8 416.4 413.9 411.1 403.6 404 401.3 398.5 395.1 392.4 390.1 387.6 385.6 383.8 380.7 377.6 374.5 371.5 368.7 365.7 363.2 361.1 359.2 356.7 353.9 350.7 343.4 345.1 351.9 354.4 356.1 357 355.8 354.3 352.2 350.5 353.3 358.2 360.8 362 362.3 361.8 362.5 363.6 364.4 365.1 366.9 370.2 372.5 376.8 378.7 379.8 380.3 380.7 379.8 378.2 376.5 378 379.6 381 380.6 381.2 381.3 380.1 378.5 378.2 378.5 378.9 379.6 380.7 381.1 381.4 381.4 380.6 379.7 378.9 378.1 376.8 375.2 372.6 369.8 367.2 365.5 362.5 358.5 355.4 352.8 349.8 348.2 345.8 344 342 339.9 337.7 334.4 330.7 327.4 323 319.8 316.7 313.4 310.3 306.1 300.8 295.3 290.2 285 280.2
270.9 270.9 270.9 270.9 270.9 270.9 270.9 270.9 270.9 270.9 270.9 272 273.7 275.8 277.4 282.1 285.1 287 287.5 286.6 285.3 285.1 286.8 294.6 300.7 300.8 298.8 299.9 302.2 304.2 305.8 305.5 305.5 305.7 306.1 306.7 307.5 307.9 308.1 308.4 308.7 310.1 310.9 312.1 314.4 316.1 318.9 321.3 319.8 318.9 320.3 321.4 322.5 324.4 326.8 329.3 331.1 333.1 336.1 339 342.3 344.2 346.3 349.8 354 355.4 361.7 372.5 387.5 406 424.4 440.3 452 455.3 455.5 452.6 448.8 445 437.6 422.1 415.5 411 411 411 416.4 418.1 418.9 418.3 416.5 415.3 414.9 413.9 414.8 415 413.3 410.4 409.1 407.6 404.9 402.1 399 396.2 393.7 390.8 388.6 386.7 383.8 380.1 376.8 373.6 370.6 367.5 364.5 362.4 360.3 357.4 354.9 351.4 346.1 338.5 345.9 349.2 350 350.5 348.7 348.8 346.2 346.1 350.6 354.1 356.3 356.4 356.3 356.5 356.9 359 360.1 362.5 366 370.1 374.3 378.8 381.3 382.9 384.4 384.5 383.9 382.5 382 383.1 384.5 385.1 384.2 384.3 385.2 384.5 384.5 384.8 385.4 386.4 386.9 388 388.7 388.9 388.8 387.9 386.9 385.7 384.3 382.3 380.1 376 372.3 368.9 365.8 362.5 358.4 354.8 351.6 349.3 347.2 345.4 343.5 341.5 339.2 336.6 332.8 328.8 325.7 321.2 317.4 314 310.3 306.3 301.6 296.3 290.4 284.4 279 274.3
270.9 270.9 270.9 270.9 270.9 270.9 271.2 270.9 270.9 270.9 270.9 273.6 274.9 276 277.8 280.3 284.9 288.1 288.4 287.2 286.3 286.7 286.9 292.6 298.3 299.9 299 300 300.7 302.6 304.7 305.3 304.6 305.3 305.6 306.3 306.9 307.4 307.8 308.3 308.7 309.7 311.5 313.7 315.4 317.1 319.1 320 320.1 320.8 322.4 323.7 325.3 328.1 330.6 333.1 334.5 336 339.1 342.4 345.6 347.7 350.1 354.3 359.3 361.5 365.8 380.7 397.9 418.1 437.3 452.8 459.2 459.3 455.4 451.1 447.2 442.1 433.5 423.8 416 411 411.4 408.6 411.1 410.2 410 408.9 408.2 407.3 409.3 410.3 411.5 412.6 410.7 402.4 411.1 411.3 408.7 406.1 403 400.1 397.1 393.7 391.6 389 385.6 381.5 378.4 375.3 372.1 368.7 365.8 362.9 360.9 358.2 355 351.7 347.3 340.8 335.4 342.1 345.7 346.3 344 341.3 339.6 342.8 347.6 349.6 350.9 350.7 349.4 348.8 349.8 352.5 356.9 360.9 365.8 370.9 376.4 380.5 383.4 386.1 387.6 387.7 387.1 387.3 387 387.6 387.9 388.2 387.4 387.9 389.5 389.3 389.8 390.5 391.8 392.9 393.8 394.6 395.3 395.4 395.1 394.1 392.9 391.1 389.2 386.7 382.2 377.1 373.4 369.3 366 360.5 354.6 350.9 348.2 346 344.4 342.5 340.4 338.6 335.2 332.9 329.8 325.2 320.5 315.4 311.1 308 304.5 300 295.4 289.3 282.3 276.5 271.4 264.6
270.9 270.9 270.9 270.9 270.9 270.9 272.1 270.9 270.9 270.9 271.3 274.4 275.7 277 279 277.8 282.4 287.8 288.1 288.4 288 288.1 287.8 292 297.5 297.4 297.9 299.9 300.6 301.6 304 304.6 302.7 304.2 304.9 305.7 306.3 306.9 307.2 308.1 308.1 310 312 315.8 318 320.3 322.3 321.6 321.5 322.5 323.8 326 328.5 332.8 335.4 337.8 339.1 339.9 342.3 346.7 349.9 352.5 355.2 361 366.5 370.4 375.3 388.1 404.5 427.3 446.9 457.9 459.5 456.6 451.7 447.7 444.4 438.2 430.4 423.4 414.6 411 409.6 406.4 405.1 403.4 401.9 400.1 399.3 399.7 400.2 400.7 405.1 407.1 402.8 407.8 412.2 413.2 411.8 410.2 407.2 404.1 400.5 396.9 393.6 390.2 386 382.6 379.7 376.7 373.8 370.3 366.5 363.3 360.6 358.1 355.7 352 347.6 343.3 338.1 333.5 337.1 341 339.4 334.9 331.1 337.9 341.6 343.6 344.6 344.5 341.1 339.6 345.2 350.7 355.8 361.1 366.5 372 378.3 382.9 386 388.8 390.7 391.1 391.6 392 392 391.7 391.6 391.5 390 392.4 393.1 394.2 394.7 396.2 397.6 398.9 399.7 400.1 400.5 400.2 400.1 398.8 397.3 395.2 392.9 389.3 384.5 378.8 373.9 368.9 363.5 355.5 350.2 346 343.5 341.6 340.3 338.6 336.4 333.1 329.7 327.2 323.6 318.7 313.2 308 302.8 299.6 296.3 291.5 286.6 281.4 275.1 269.1 262.4 255.2
270.9 270.9 270.9 270.9 270.9 270.9 270.9 270.9 270.9 270.9 271.7 275 277.3 278.6 281.3 282.5 280.6 285.5 288 289 289.6 289.1 287.5 291 291.8 291.8 297.1 301.4 303.4 304.5 305.3 300.4 304.1 304.2 304.9 304.9 305.5 306.3 307.1 308.3 310 312.6 312.9 318 320.9 324.3 326.4 323.8 323.2 324.2 325.9 328.2 332.6 337.3 340.7 343.2 344.4 344.1 346.3 352 356.7 359.1 362 369.8 377.5 380.1 388.1 396.3 412.8 433.9 451.1 455.2 454.2 452.7 449 444.1 439.1 433.4 426.9 419.6 414.5 414.2 413.2 410.7 409.7 408.5 406 405.7 405.3 392.6 388 388.7 388.4 394.8 395.1 405 409.4 412.2 412.9 412 409.9 406.7 402.6 398.4 395.4 392.2 387.2 383.5 381.1 378.2 375.4 371.9 367.5 363.7 360.9 358.3 355.9 351.7 347.3 343.5 340.9 340.4 336.7 329.2 327.4 326.8 321.2 326.5 333.7 337 336.5 334.8 330.4 339.6 347 353.1 357.8 362.8 367.7 373.5 380.2 385.2 388.8 392 394 395 396.2 396.8 396.6 395.8 395.2 394.8 393.9 395.1 396.2 397.4 398.9 400.2 401.8 402.7 404 404.3 404.4 404.7 404.2 402.3 400.3 398.2 394.8 389.8 384.3 378.3 372.8 367.9 360.2 352.5 346.2 340.9 338.3 335.6 335.1 332.2 330.1 327.4 322.2 318.1 314.6 309.4 303.8 297 291.9 289.7 286.6 283.1 278.3 271.2 264.6 259 255.6 252.6
270.9 270.9 270.9 270.9 270.9 270.9 270.9 270.9 271.6 272.8 275.2 278.2 280.1 281.5 283.9 285.6 285.1 283.9 286.7 290.2 291.2 291 290.8 292.1 293.3 295.8 293.6 297.9 304.9 307.8 298.7 302.8 306 306.9 306.2 307.1 307.1 308.1 308.5 309.2 311.3 315.9 316.4 318.3 324 326.8 327.7 325 327 326.7 327.9 330.3 335.2 342.1 345.9 348.8 349.7 350 351.8 358.2 363.5 366.9 371.3 379.9 390.4 390.8 397.3 405.4 420.7 438.8 449.8 450.7 449.6 448.7 445 439.7 433.6 428.7 422.9 420.8 420.8 420.8 420.8 418.2 417.8 417.9 417 415.7 414.3 410.2 404.8 400.8 392.4 394.2 380.8 393.2 403.9 407.7 409.5 410.6 408.9 406.8 402.9 400 397.5 394.8 390.3 386 383 380.3 377.3 372.7 368 364.4 361.3 358.7 355.7 351.8 347.7 345.4 345.1 345.3 344.7 341.9 338.5 331 328.3 323 311.1 325 328.5 324.4 330.1 338.9 347.5 354.5 359.6 364.7 370.1 376.8 382.8 388.1 392.4 395.4 397.6 399.3 400.6 400.8 399.7 398.5 396.8 396.3 395.4 396.2 397.8 399 400.5 401.2 402.3 403.2 403.7 404.2 404.4 405.3 405.5 403.5 401.2 398.3 394.1 388.6 383.1 376.9 371.3 366 358.3 350.9 343.7 337.3 330.5 328 326.6 324.8 321.6 317.8 311.8 307.5 304.9 300.5 294.5 288.2 281.5 278.9 276.4 271.4 267.2 260.8 256.2 253.4 252.4 249.9
270.9 270.9 270.9 270.9 270.9 270.9 270.9 273.9 274.1 275.2 278.9 281.7 282.8 284.5 286.4 288.5 288.5 289.1 285.6 292.3 292.2 292.2 294.1 296.3 297 299.3 298.8 295.8 295.6 296.4 301.2 307.2 309.4 307.8 307.9 308.8 309.1 309.9 311.2 311.4 312.3 317 321.6 320.2 322.5 324.8 326.5 326 327.9 331 332.8 335.5 339.8 346.8 352.2 354.1 354.9 355.3 357.9 363.6 369.8 375.7 381.6 392.7 403.2 406.2 409.4 415.9 430.1 442.5 448.5 448 444.9 442.6 439.6 434.8 430.8 427.5 426.8 427.3 427.7 428.2 427.6 427.2 425.4 424.5 423.5 420.6 417.8 413.6 409.4 405.4 399.6 389.3 371.9 376.9 393.9 402.6 405.2 405.8 405.2 404.2 403.1 401.1 398.9 396.8 392.6 388 384.5 380.9 377.2 372.7 368.1 364.7 362.1 359.5 356.5 353 350.5 349.3 349.3 350.1 348.8 346.1 342.6 336.8 334.8 330.4 321.8 311.9 316.5 316.8 330.4 340.3 346.1 354.7 361.7 367.3 373.6 380.8 386.5 391.4 396 398.9 401.4 403.2 404.4 403.8 402 399.5 396.7 395 394.5 395 396.2 397.5 397.5 398.6 399.4 399.9 399.9 400.2 400.4 400.7 401.4 401.9 399.9 396.5 391.4 385.8 380.7 375.4 369.9 364 356.6 349 342.1 334 325.3 314.5 315.8 316 312 306 300 297.3 295.3 291.2 284.7 279.1 271.4 267 264.2 259.7 256 253.5 250.6 248.5 248.1 246.9
273.1 270.9 270.9 270.9 270.9 270.9 274.9 275.8 276.5 278.3 281 284 285.9 288.9 288.6 288.9 291.3 292.2 287.8 292.2 293.5 293.6 295.5 297.7 299.6 301.9 303.2 300.3 297.6 297.7 302.4 308.5 309.3 309.7 311.2 310.9 312.4 314.1 314.5 314.4 315.1 316 320.5 324.3 323.5 324.3 326.2 327.6 328.9 331.5 335.4 340.2 344 350.8 357 359.9 360.5 361.4 364.1 369.8 376.8 384.2 392.5 404.4 415.4 419.1 418.9 425.9 440.1 447.9 449.6 447.6 444.8 439.8 436.4 433.8 431.7 432.6 433.6 434.1 435 435.8 436 434.7 433 430.9 427.5 423.9 420.6 416.1 410.9 405.6 399.9 390.2 378.5 367.9 378.7 391.9 397.8 400.7 401.3 401.7 401.4 400.1 398.5 396.8 393.3 388.1 384.2 380.4 376.6 372 368.1 364.9 363 361.4 358.6 355.4 353.7 353.5 353.9 354.2 352.7 349.9 345.5 339.2 335.7 333.3 328.4 309 311.5 316.8 330.4 343.2 352.5 358 364.9 370.5 376.5 383 389.7 394.5 398.8 402.5 405.2 406.9 406.9 405.7 403.1 399.3 395.7 392.3 391.2 391.4 392.7 393.5 393.9 394.8 396.1 396.5 396.5 396.3 396.2 396.2 396.9 398.1 396.5 393.2 388.6 383.4 378.5 372 367.3 361 354.3 348.1 341.4 332.8 324.1 315.9 303.4 301.3 299.8 294.1 288.7 286.5 284.7 280.6 276 269.8 262.4 257 253.8 251.8 250.8 248.6 247.6 247.3 246.8 246.4
273.7 272.7 271.6 272.2 270.9 274 274.1 275.8 278.5 279.7 282 284.9 288.5 292.9 292.8 290.8 292.9 293.9 291.8 293.7 296.2 296.4 297 299.4 301.8 303.9 305.1 303.7 300.5 299.4 300.7 306.9 311.8 310.9 311.8 311.2 314.5 317.2 318.8 319.6 319.5 318 319.9 321.8 324 325.7 327.7 329.5 330.5 332.3 335.5 341.6 348.3 355.1 361.1 364.6 366.9 368.8 372.3 378.1 386.4 394.6 404.7 416.8 427 429.5 427.9 436.8 448.1 453 451.8 450 446.8 441.4 438.1 437.2 438.1 440.6 442.5 442.3 441.6 441.6 441.3 439.7 437.4 434.6 430.5 425.6 421.1 416.3 410.1 403.4 397.2 390.3 383.6 371.8 366.7 375.2 388.9 394.9 396.5 397.6 397.6 397.2 396.1 395.3 392 387.1 383.5 379.9 376.6 372 367.8 366.3 365.4 363.9 361.8 359.3 357.5 358 358.5 357.7 356.3 352.7 347 341.5 338.3 332.4 325.5 315.8 304.4 318.3 332.7 348.7 358.2 363.8 368.9 374 379.9 386.4 392.3 397.4 401.5 405.9 408.7 409.7 409 406.8 403.1 399.2 394.3 390.1 386.6 385.3 387 388.4 389.8 390.9 392 392.2 391.9 392.1 391.9 391.7 392.4 393.7 393.2 389.2 384.9 381.3 375.4 369.7 364.2 359.7 352.4 345.3 339.8 331.9 324.5 317.6 309.7 298.5 284.7 282.4 278.1 274.1 274.1 270.9 265.5 258.6 253.6 249.5 248.7 248.5 248.3 247.9 247.4 247.1 246.4 245.6
274 273.1 272.8 273.9 275.2 280.1 277.2 276.3 279 281.1 283.4 286.7 292.6 296.8 296.9 294.8 294 297.4 295.3 291.9 297.5 299 300.8 302.6 304.5 306.2 307 306.3 304.1 302.5 301.8 304 307.7 308.4 310.8 310.4 312.6 317.2 319.2 318.3 319.5 320.1 322.4 324.3 325.8 326.8 328.9 330.2 332.6 335.9 338.7 342.3 348.3 355.1 364.1 368.8 373.4 378.5 383.3 391.2 396.8 407.1 417.3 427.8 437.3 439 437.1 443.5 453 456.1 453.9 451.6 448.6 444.6 443.9 444.9 447 449.5 451.6 450.2 446.6 445.4 444.9 442.8 439.5 436.1 431.8 425.9 419.4 413.9 407.3 400.5 393.6 387 382.2 375.7 367.1 362.8 378.2 388.2 389.9 391.6 392.9 392.9 392.6 392 389.4 385.5 382.6 378.9 375.5 372.5 369 367.7 367.3 366.9 365 363 360.5 361.3 361.7 360.1 358.3 353.8 347.8 343.5 339.2 331.8 319.5 314.7 303.6 323.1 342.5 356 362.8 368.2 373.3 378.1 383.7 389.3 394.9 400.7 405.2 409.6 411.3 411.7 410.5 407.2 402.7 397.7 391.6 386.4 381.8 379.4 381.5 383.1 384.3 384.5 385.4 386 387 387.4 386.8 386.5 387.8 389.4 388.2 384.9 381.7 377 372.1 366 360.2 356.1 348.9 343.6 336.4 328.2 320.5 313.3 306.8 298.1 286.8 277 270.3 265.8 263.4 260.5 254.9 250.3 249.4 249.4 249 248.5 248.1 247.7 247.3 247 246.2 244.2
273.2 273.5 274.7 274.6 277.9 281.8 279.6 278 279 282.6 285.6 289.2 294.6 299.2 298.6 297.7 296.2 298.8 297.9 296.4 295.4 299.9 304.6 307.2 307.9 309.2 309.3 308.8 308.2 306.8 304.5 303.1 303.8 306 308.7 310.5 312.2 314.6 316.3 318.5 319.8 321.5 323.6 325.2 326.9 329.2 331 332.9 336.6 340.3 343.5 346.8 352.2 358.3 366.3 373.2 380 388 396.3 402.9 407.5 417.1 427.4 436.6 444.2 447.2 445.4 447.5 455 457 456.8 455.2 452.2 450.6 450.9 453.2 455.1 456.4 456.4 454.9 451.8 449.9 448.3 445.1 440.5 435.8 430.8 424.3 417 410.7 403.6 396.8 389.5 383.4 378.9 374.9 369.2 361.8 364.3 378.7 382.9 383.8 386.1 387.1 388.1 388.6 385.8 383.6 381.4 377.5 374.7 372.1 370 369.3 369.2 368.8 367 365.1 363.9 364.2 364.1 362.1 359.4 354.9 349.5 346.1 340.6 327.1 312.5 300.4 316.8 335.1 351.9 360.1 365.8 371.8 376.7 382.8 387.8 393.8 400 405.5 410.2 412.7 413.5 413.9 411.2 407.1 402.2 395.8 389.3 382.6 377 373.1 373.7 375.4 376.2 377.1 378.2 378.8 379.6 380.6 381.4 381.5 383.1 384.5 383.5 381.1 377.1 371.9 365.9 359.6 355.8 349.3 344.3 338 330.7 322.2 315.5 306.6 299.4 290.2 280.6 272.7 264.6 257 253.9 251.7 250.2 250.3 249.8 249.4 248.9 248.3 247.9 247.5 247.4 246.9 244.9 247.2
273.5 275.1 276.9 276.4 276.3 283.6 282.2 280.9 280.6 283.5 287.6 294.3 299.5 300.6 299.9 298.7 298 300.3 300 298.9 294.2 302.3 307 311 312.3 312.3 312.3 311.5 311.5 310.4 308.6 305.1 305.2 307.3 309.6 311.6 313.6 315.8 317.8 319.7 321.4 322.8 325.1 326.8 330.1 332.5 334.4 337.5 341.9 345.9 349.7 354 358.7 365.5 372.5 379.8 390.3 400.4 408.2 413.6 419 424 434.1 443.5 448.8 451.2 451.2 451.8 457.1 459.9 461 460.4 458.4 457 458.8 460.2 461.1 460.9 459.7 457.3 454.3 453.2 451.3 446.7 441.4 434.6 428.7 422 415.3 407 399.5 392.5 385.1 380.5 376.1 372 367.5 363.7 355.5 373.7 376.2 376.9 378.2 379 381.4 382.8 381.2 380.9 378.6 375.8 373.6 370.6 369.3 369.2 369.3 369.2 367.9 365.9 364.1 366 365.8 363.9 361.7 358.2 353.3 348.6 340.8 323 301 311.9 327.9 341.1 352.1 361.3 366.9 373.9 380.2 386.4 392.2 398.6 405.3 410.1 414.2 416.2 416.2 415 411.2 406 400.8 393.7 386.9 380.1 374 366.7 365.5 366.3 367.1 368.8 370.1 371.6 372.4 373.3 374.2 375.8 377.7 379.2 377.7 374.4 370.2 365 359.8 353.5 348.1 341.8 335.8 330 323.9 317.1 308.2 297.8 288.9 279.4 271.6 264.6 255.5 251.4 251.6 250.9 250.4 250.2 249.7 249.2 248.6 248 247.6 247.2 245.1 247.4 252.7 273.9
277.5 278.4 278.9 277.9 277.3 279.9 283.3 282.4 283 286.4 289.8 298.4 303.1 301.7 301.2 301.8 300.8 302.3 302.9 301.9 302.1 297 306.6 311.8 314.4 315.4 314.6 312.7 312.1 310.7 307.6 305.7 307 309.2 311.5 313.2 315.3 317.8 319.9 321.8 323.7 326.1 327.7 331.6 334.7 337.6 341.1 345.2 349.4 353 357.5 362.9 369.1 376 383.2 392.8 405.8 416.3 421.6 425.7 428.2 429.6 434.4 445.4 450.7 452.3 453.8 454.9 459.5 462.6 464 463.7 462.9 464.1 465.1 462.8 461.7 461.4 460.8 459.3 456.3 453.7 450.6 445.1 439.7 433.2 426.2 420.1 412.5 404.7 395.9 388.7 382.9 378 373.3 369 363.8 358.7 352.3 362.6 368 368.7 370 371.7 374.2 376.5 375.4 376.2 374.7 373.3 371.5 368.8 367.1 367.4 368.5 369.3 368.1 365.4 364 365.2 365.1 363.8 362.1 359 354.2 348.1 339.6 322.5 298.4 308.3 325.5 339.8 349.5 359.9 367.6 376.1 384.4 390.6 396.8 404.1 410.4 415.1 418.5 419.6 419 416.7 411 405.1 399.3 391.8 384.8 378.4 371.6 364 359.4 357.2 358.3 360 361.4 362.3 363.9 365.9 368.1 369.6 371.6 372.4 370.5 367.5 362.7 357.6 353.1 348.3 342.7 334 326 319.8 314.1 306.7 298.5 286.2 276.8 265.7 260 256.1 250.6 251.8 248.8 250.5 250.2 250.3 249.7 248.9 248.3 247.7 246.1 250.1 256.2 267.7 277.2 289.9
280.6 281.6 281.4 280.2 279.7 281 284.1 285 285.1 287.2 292.5 299.9 302.6 300.8 301.1 302.3 302.8 303.5 305.2 305.8 306.6 307.1 299 309.8 312.6 314.4 314.1 311.5 310.2 309.9 307.9 308.1 308.9 311.4 313.8 315.1 317.3 320 322.3 324.5 326.5 328 330.4 333.6 338.7 344.1 348.8 353.9 359.4 364.5 368.5 373.7 380.5 387.7 395.3 408.9 421.3 430.6 435.4 436.4 438.2 437.5 435.5 438.6 442.2 447.2 453 455.3 459.7 463.8 465.9 466.9 466.9 466.9 464.3 460.2 459 458.1 459 458.4 455 450.9 447.3 442.4 437.1 430.8 423.5 417.1 410.7 403 395.2 388.4 382.8 378.4 374.6 370.9 366.7 364.7 359.2 349 354.1 355.7 360.2 364.3 367.2 369 370.1 370.6 370 368.8 366.6 365.1 362.9 364.5 366.2 367.3 366 363.7 363.7 364.3 363.9 362.1 360.3 358.3 354.6 350 341.9 328.4 306.9 298.3 316.2 333.4 348.4 358.5 368.7 377.4 386.6 394.3 401.7 408.5 415.3 420 423.6 422.6 420.8 418.1 412.7 405.9 398.6 390.7 383.1 376.6 369 360.7 353.3 346.9 346.9 348.2 349.8 351.9 355.1 358 361.2 363.6 365.2 365.4 362.5 359.7 354.9 351.3 347.7 342.9 336.6 328.1 317.1 308.6 301.9 295.5 285.1 275.2 265.3 256.6 253.4 252.7 252.7 252.7 252.5 248.2 249.8 250.5 249.8 248.6 251 255.6 262 272.7 282.9 289.9 298 305.7
283.6 283.9 283.9 282.7 282.2 283.8 286.5 287.5 289.1 290.4 289 296.2 299.8 298.7 299.7 301.3 302.5 304.4 306.3 307.6 308.7 309.8 310.1 301.3 309 311.1 311.9 311 310.2 309.7 310.6 311.5 311.2 313.4 315.1 316.5 318.4 321 324.1 327 329.6 331.3 333 336.3 342.9 351.3 358.5 364.7 373.3 377.8 382.6 391.8 395.6 408 417.1 427.9 437.6 444.8 447 447 446.3 445.6 440.5 435.5 435.8 439.3 447.9 453.9 459 463.6 466.7 467.5 464.9 461.6 458.3 455.5 454.1 454.6 456.6 456.2 452.8 448.2 443.9 439 434.8 428.7 421.6 415.4 409.1 402.7 396.6 390.1 383.7 379.2 376 371.6 367.4 364.9 362.1 355.6 345.2 343.7 343.7 346.7 358.5 362.1 363 363.3 364.1 363.6 361.9 360 356 357.7 362.5 362.7 363.3 363.8 362.1 363.2 362.4 361.3 359.6 357.9 355.3 351.1 344.3 335.7 319.4 292.4 304.1 325.1 343.7 356.4 367.2 380.7 390.6 398.7 405.6 412.6 419 423.7 424.4 422.9 421.1 417.9 412.5 406.3 398.3 389.3 380.4 374.6 367 358 349.4 340.8 336.7 334.8 336.8 341.9 346.3 350 354 355.6 357.5 357.4 355 351.7 348 344.6 341.5 335.6 329.2 321 309.9 297.4 289.8 282.1 272.6 264.1 257 251.3 253 253.3 253.5 253.6 253.2 251.6 249 249.6 250.6 260.5 266.9 275 284.6 294.1 299.8 303.4 309.1 312.9
286.9 286.6 286.9 286.4 286 285.6 289.1 290.2 292.1 293.4 296.3 296.5 296.8 297.8 299.7 302 302.8 304.5 306.4 308.3 310.2 311.5 313.4 311.5 307.4 310.5 311.8 312 312.6 313 314.8 316.8 314.3 314.9 317.1 318.3 319.7 322.1 325.5 329.2 332.6 335 335.8 340.8 348.2 361 369.5 381.8 393.7 398.6 403.6 415.1 419.6 429.2 438 444.9 452.7 457.1 457.7 455.5 453.7 452.2 446.5 436.6 431.8 433.1 440.4 444.6 447.7 458 461.8 461.9 459.6 456 451.5 447.4 448.2 453.1 455 453.8 449.6 445.3 441.7 437 432 426.3 420 414.3 408.4 402.4 394.6 389.7 384 379.3 375 371.3 367.8 365.2 363 360.7 359.3 354.9 347.2 338.5 341.3 348.3 349.9 355.8 357.1 355.7 349.2 348.8 343.5 344.6 350.3 358 358.7 356.7 354.9 354.5 355.7 357.3 358.2 357.5 354.6 350.3 345.6 340.4 329.2 299.8 292.4 314.3 338.1 354.7 367.4 381.4 392.1 400.9 407.9 414.3 420.2 423.9 425 423.3 421.2 417.7 412.4 406.8 397.6 388 378.2 372.6 366.5 359 352.6 346.8 342 332.1 324.2 327.7 336.3 343.5 345.3 347.2 349.8 348.4 346 342.9 339 336.1 332.1 325.1 317.9 310.6 299.9 288.1 277 266.8 260.3 252.4 253.9 253.8 253.8 253.9 254.2 254.3 254.5 258.6 264 267.2 274.8 281.6 289.4 293.1 302.7 304.7 307.9 310.4 311.1 311.7
289.9 291.2 290.9 290.9 290.2 288 290.8 292.1 293.8 296.2 299.2 301.3 301.3 301.2 302.1 303.1 303.5 304.8 306.8 310 313.1 314.9 316.7 311.3 310.2 312.3 314.3 315.2 316.5 318.2 320.2 321.1 318.4 317.3 319 320.5 322 324.3 327.4 331.7 335.2 338.7 340.7 346.6 356.4 371.6 386.9 401.9 414.3 420.4 426.8 437.3 442.7 446.1 453.3 459.6 463.9 465.8 463.4 459.7 457.4 454 449 442.5 430.9 428.9 429.6 431.5 435.2 444.6 453.7 455.2 453.6 449.4 442.6 439 444.5 450.1 450.6 449 445.2 441.1 438.4 434.2 428.8 423.3 417.9 412.6 407.3 400.1 394.4 389.2 384.1 378.8 374.3 370.9 368.4 366.3 365.4 363.4 362.2 359.6 357.2 349.2 338.7 332.8 332.4 339.9 339.2 337.1 329.7 329.9 326.9 330.4 338.7 345.2 343.6 340.5 334.8 337.8 343 345.2 349.4 352.1 351.4 343.9 341.4 338.5 327.9 308.3 292.2 309.7 330.9 348.9 366.3 379 390.7 400.1 407.4 413.2 418.9 422.5 425.2 423.3 420.9 417.7 413.6 407.5 398 387 376.1 371.6 365.9 361.2 355.1 349.3 343.1 335.9 327 315.2 322.1 333.4 336.9 340 340.7 339.2 334.9 330.2 325.7 322.8 319 310.9 303.6 294.4 284.5 269.8 260.2 254 252.5 254.2 254.6 254.5 254.5 254.6 254.7 255.2 257.5 276.4 285.4 292.5 300.3 302.6 307 304.8 307 309.4 310.1 308.6 306.3 307.6
292.4 293.5 294.5 295 294.8 292.4 291.7 293.8 295.4 297.6 300.4 302 302.6 303.9 304.5 304.5 305.2 306.3 307.5 310.6 315.2 317.7 318.5 314.8 311.8 314.9 317.1 319 321.5 323.7 324.9 323.7 320.6 320.7 322.4 323.4 324.7 327.8 332.3 337.1 343.2 346.8 345.4 352.6 366.1 386.3 406.1 423.7 436.3 443.2 448.2 455.7 460.8 461.2 466.7 471.2 472.8 470.2 466.1 462.2 458.6 453.7 448.4 442.2 435.6 429 426.9 425.7 425.2 431 440.6 444.5 444.9 441.7 434.6 433.5 438.7 443 443.9 443 439.5 436.6 434.1 430 424.9 419.8 414.4 409.1 404.3 399.4 394.3 389 383.8 377.9 373.6 370.1 368 368.1 367.6 365.9 364.1 361.7 357.7 352.1 346.9 342.9 332.3 330.3 326.5 327.2 325.7 323.5 318.5 317.2 320.3 320.1 317 311 308.8 311.9 320.1 328.7 334.9 338.8 339.8 337 333 328.4 318.9 305.9 290 299.7 316 336.1 359.7 375.7 386.9 396 403.9 410.4 416.1 419.7 422.4 422.7 420.5 417.5 413.7 407.9 400.5 390.5 381.2 373.3 368.5 363.2 358.5 350.7 343 335 326.9 316.2 310.2 320.5 327.4 330.1 329.5 327.4 321 315.3 310.4 306.7 304.5 296.9 289.2 279.5 267.6 259.1 255.6 252.7 254.6 254.9 255.2 255.3 255.2 255.3 255.3 255.7 272.2 292.8 305.1 313.4 317.2 314.1 314.1 312.2 308.5 304 304.7 302.5 298.7 297.8
294.5 295.5 296.6 297.2 301.3 295.1 293.2 295.1 297.3 299.5 301.7 303.4 305.2 306.6 306.5 306.5 307.9 309.4 310.5 310.8 313.1 316 317.3 315.2 315.7 318.8 320.9 322.5 324.5 327.5 327.5 325.8 322.2 323.5 325.7 326.9 328.9 332.9 338.2 343.5 350.5 355.9 354.7 361.6 377.7 399.9 422.6 442.8 454.5 460.5 465.1 471.6 475.2 474.7 477.4 479.1 478.2 474 467.8 462.7 458.1 452.5 446.2 439.1 435.1 429.9 427.2 425.2 420.9 420.6 425.7 428.8 430.8 427.3 425 424.3 430.1 434 435.6 434.7 432 429.3 426.9 423.4 418.8 413.5 410.4 407 403.1 399.1 393.7 388.7 383 376.8 373.2 369.8 367.8 368.9 368.7 367 364.9 361.9 358.9 355.1 348.1 340.9 346.3 348.8 347.8 348.1 344.2 341.7 341.5 335.8 328 318.4 319.2 315.7 311.8 307.1 302 302.6 308.2 314.6 319.1 321.4 320.6 316.1 308.4 297.8 290.4 289.7 302.5 322.7 345.7 365.6 379.8 389.3 398.8 405.9 412.3 416.7 419.6 421.7 419.7 417.1 413.4 408.5 403.5 396 387.2 378.5 370.2 363.6 357.7 350.7 342.9 334.8 325.4 315.5 301.7 308.1 315.7 318.5 316.7 312.6 308.3 304.1 299.9 294.3 288.9 282.8 273.9 263.2 259.1 255.8 252.8 255 255.4 255.7 255.8 256 256 256 255.9 266.5 285.2 305 319.1 325.5 327.1 325.2 321.1 317.7 312.6 305.3 299.9 294.4 290.4 285
296.5 297.7 298.4 298.5 299.9 297.9 295.9 297.5 299 301.2 303.2 305.7 308 308.7 308.4 308.2 309.6 311.1 312.4 313 314.1 315.3 316.4 316.8 318 322 324.2 324.8 325.6 328.2 328.9 326.7 325.3 327.4 330.7 333.9 338.8 344 350.3 356.8 362.9 369.7 367.1 371 388.1 411 436.8 458 467.7 472.1 477.1 483.3 485.1 483.9 482.7 480 476.8 472.3 466.4 460.9 456.2 450.5 443.2 437.7 436.6 434.6 432 430 427.3 418.6 414 413.6 413 412 410.3 410.1 415.4 422.6 425.6 422.5 419.7 414.9 411.6 409.7 409.9 408.7 405.8 401.7 398.5 396 391.6 387.5 381.3 374.2 369.2 366.1 365.1 366.4 366.9 365.6 363.7 362.9 361.8 357.1 343.8 350.9 358.5 359.5 359.7 359.6 359 357.5 356.2 354 348.4 344.3 339.3 332.4 326.7 321 314.3 306.5 301.6 298.3 296.7 298.1 300.5 298.2 293.4 290.4 288 286.9 292 309.7 332.8 353.6 371.5 383.2 392.6 400.8 408 413.5 415.9 418 419.6 416.9 413.4 408.6 404 398.9 390.7 383.7 375 363.6 356.6 349.7 341.8 334 324.5 314.1 302 296.7 303.2 306.5 304 300.9 296.6 292.6 289.4 283.4 275.3 268.7 260.1 258.2 254 254.9 255.3 255.9 256.3 256.7 257.2 257.4 257.4 256.9 265.7 280.5 299.6 318.8 329.9 335.3 335.5 333.3 327.3 320.2 312.3 304.4 294.7 279.9 278.8 273.4
289.8 298.8 298.8 298.7 298.6 299 298.6 299.7 300.8 302.5 304.4 306.9 309.4 310.4 310.2 310 310.9 311.9 312.9 313.8 315.2 316.5 317.9 319 318.8 322.3 325.5 326.9 327.5 328.8 329.6 328.6 328.2 331.7 337 344.4 350.8 356.7 363.7 373 384.1 391.8 384.1 382.7 395 418.9 447 466.6 474.4 478.8 483.5 488.8 490.4 488.5 485.8 480.9 476.4 471.1 464.8 459.6 454.5 449.2 443.5 441 440.2 438.3 435.4 434.1 432.4 424.7 421.5 412.7 408.2 407.2 406.6 403.2 401.1 404 406.4 404.7 401.8 395.6 391 392.4 395.3 395 392.6 389.9 389.9 388.4 387 383.1 378 370.1 364.3 356.1 360.6 363.2 364.6 363.6 363.6 363.4 363.5 356.6 343.9 360.4 364.4 365.9 367.1 366.8 367.1 366.5 365 362.8 361.3 357.8 353.4 346.4 340.9 332 327.1 327.2 323.1 312.9 296.4 293.5 292.9 291.8 290.3 289.2 288 287.1 286.2 299.8 321.6 341.4 359.2 376 386.9 394.8 403.1 409 412.2 413.7 415.8 416.8 413.2 408.2 403.5 398.8 393.4 386.3 378.8 366.2 356.2 348.7 340.7 331.4 322.6 313.2 302.8 285.7 289.3 294.6 293.5 290.7 287.8 284.3 279.6 272.7 263.9 258.8 254.9 256 255.3 255.5 256.5 257.5 257.7 257.8 258.4 258.9 261.2 270 280.9 299.9 317 330 340.2 343.5 342.3 338.2 330.3 320.4 308.4 295.7 283.8 270.6 267.7 265.6
283.3 298.5 299.1 299.3 299.3 299.7 300.1 300.7 301.8 302.9 304.6 307.3 310 311.2 311.8 311.5 311.6 312.5 313.4 314.8 316.2 317.5 318.9 319.7 320.2 322.9 325.9 328.1 329 331.3 331.3 330.2 331.7 338 345.7 354 362.5 370.6 380 393.1 406.7 415.3 401 393.6 412.6 423.5 450.6 467.6 475.4 480 485.6 490.6 492.1 489.7 485.4 480.2 475.9 471.6 465.8 460.7 455.4 450.9 447 444.5 443.2 441.4 438.6 436.3 435.3 430.4 424.1 418.2 416.7 416 417.7 415 408.3 399.1 393.2 392.5 389.4 385.9 381.3 378.5 376.5 374.6 371.7 366.6 369.7 373.7 379.8 377.8 373.1 364.9 357.4 345.7 355 360.3 362.8 362.4 362.7 362.8 361.8 354.1 348.3 364 369.1 371.8 373.2 374.3 374.7 374.6 373.6 372.4 371.1 369.2 365.6 360.6 353 344.9 339.1 341.7 339.3 334.8 322.1 307.4 301.1 303.6 303.5 296.2 287.8 285.9 283.7 287.8 306.5 326.2 342.7 360.9 377.2 387.6 396.1 402 405.3 408.8 410 411.8 411 406.7 402.1 398.3 393.5 387.6 381.9 370.3 356.1 347.3 338.1 328.6 320.6 312.1 302 291.9 280 281.1 282.4 281.8 278.9 272.4 266.8 258.2 257.3 257 256.7 256.1 255.6 255.8 258.3 259.3 259.3 259.4 259.7 266.8 274.8 288.3 303.8 319.1 333.9 344.6 348.1 351.1 349.2 342.4 330.2 313.2 294.2 285.1 275 267.2 265.8 276.8
