ncols 200
nrows 86
xllcorner 280000
yllcorner 595350
cellsize 50
160 173.3 186.6 196.4 210.6 221.2 235.5 251 272.1 289 303.9 313.9 326.9 330.2 334.1 329.8 321.4 311.3 306.4 293.6 280 267 252.4 242 229.3 223.4 219.8 216.1 210 201.9 195 189.8 185.1 196.9 208.4 220.3 231.2 242 248.3 255.4 255.8 243.4 235.2 228.4 221.2 215.7 206.7 194.5 186.8 184.8 179.3 178.4 173 168 163.8 155.4 150.4 147.2 142.2 137.1 132.1 129.6 126.8 122 119.3 116.1 116.8 117.1 118 115.9 121.3 134.7 145.1 143.3 154.6 158.3 154.4 158.5 162.5 167.1 170.2 171.4 168.5 161.3 149.4 144.6 142.2 139.7 140.8 148.4 153.8 154.9 155.8 154.1 151.2 146.4 140.5 136.2 130.4 124.7 120.4 115.9 110.8 107.5 96.8 92.7 89.9 90 77.9 81 78.8 78.9 72.1 70 74.1 72.5 73.1 64.9 65.8 60.4 54.3 67.9 79.4 81 82.3 85.8 91.7 99.6 107.3 110.3 112.1 110.2 106.2 102.7 94.2 89 87.6 81.5 78.9 77.7 78.3 78.8 77.7 77.2 75.4 75.1 79.1 87.8 95.7 107.4 117.8 123.5 125.3 122.3 127.9 131.7 136.6 141.1 145.4 148.3 151.9 155.6 156.3 156.1 154.9 160.1 166.2 169 168.7 167.8 166.2 159.7 170.1 171.5 172.4 173.4 185.4 191.2 193.4 195.2 198.8 202.2 204.9 208.9 208.8 210.7 213 215 217.6 229.1 233.5 234.4 234.2 233.1 231.8 224.8 210.4 192.5 185.3 194.6
155.6 167.8 180.4 190.5 204.5 219.2 233.5 249.6 276.3 296.3 312 319.4 316.3 319.9 322.1 317.6 314.1 302.2 293.5 282.2 272.9 256.8 242.2 232 225.3 219.6 215.3 212.4 203.8 197.9 193.1 190.2 178.4 197.5 213.6 227.2 236.6 246.7 254.7 258 258.1 252 242.1 236.9 230.1 224.3 213.6 205.9 195.3 190 190.6 188.9 180.9 176.1 168 162.3 155.2 149.6 144.5 137 131.8 127.8 125.4 123.7 117.1 114.5 115 117.9 116.4 116 122.6 134.8 140.2 141.6 153.4 153.2 150.9 155.1 157.6 162.2 162.7 164.5 164 159 148.9 144.5 140.2 139.3 139.7 145.7 152.2 152.2 153.2 150.7 148.9 145.2 144.9 141.7 131.3 128.8 122.8 115.6 113.5 106.3 95.2 90.6 85.1 81.3 77.8 77.8 78.9 77.9 75.9 71.8 76.7 72.3 69.2 65.2 62.9 54.9 56 73.5 77.9 79.2 79.5 79.7 91.1 99.7 106.4 109.9 111.2 110.4 108.6 103.2 96.4 86.1 88.1 82.8 79.7 77.7 77.3 77.8 76.7 75.8 72.9 75.7 79.7 86.7 97.4 109.4 118 124.7 125.9 117.5 130.9 135.9 139.8 142.2 145.5 148.8 152.5 155.3 155 154.8 157.4 165.6 171.6 174.3 173.8 174.1 173.4 162 173 174.8 174.8 178.4 174.9 183.4 190.9 193.9 197.5 201.1 203.1 204.5 207.6 209.5 212 212.2 213 223 226.6 228.9 229.5 225 222.7 219.2 205.7 188.6 181.2 191.6
151.7 160.4 171.3 185 198.9 214.6 229.4 250.5 277.5 303.8 313.8 317.8 311.5 310.3 307 302.9 301.7 291.3 281.1 271.3 255.6 246.8 235.3 223.8 217.5 211.7 210 208 199 195.6 191.7 190.2 179.4 200.6 218.5 230.3 243.5 254.9 259.7 258.8 257.2 254.6 246 238.3 232.6 225.5 217.3 212.9 202.9 195.8 196.2 194.3 189.6 175.9 173.3 171.8 160.5 153.8 148.3 140.1 135 130.4 126.3 123.1 115.4 112.5 113.9 115.8 115.6 115.3 120.4 133.4 136.2 146.4 141.7 144.4 147.9 150.6 155.6 159 157.6 159.7 159.3 155 148.4 143.7 140.5 137.3 135.7 135.5 141.1 145.8 147.6 145.8 146 145.5 144.8 139.8 132.3 126.3 119.4 111.9 110 104.4 95.1 89.8 82.5 79.7 78 77.7 78 77.4 78.4 76.8 73 70.8 64.3 63 54.4 53.4 66.8 71 75.6 79.4 79.4 77.8 88.9 98.7 104.7 107.5 110 109.3 107.2 104.4 98 85.9 89.2 81.8 78.9 77.1 76.7 75.8 75.5 74.9 74.1 73.9 78.9 87 99.1 109.3 118.6 125.8 125 124 132.2 135.5 140.2 142.7 146.4 149.2 153.2 153.2 153.9 157.2 165 171.2 176.7 178.9 178.8 181.7 182.6 170.6 166.8 170 171.8 178.1 180.4 176.9 181.3 190.1 195.5 197.2 198.3 202.2 206 209.2 210.3 209.8 212.1 211.8 218.7 223.6 224.9 222.9 219.3 213.8 201 188.5 178.9 187.1
148.3 150.5 161.9 177.3 192.3 208 225.7 246.8 280.1 301.7 308.3 310.7 306.3 299.4 294.1 294.4 286.4 276.7 270.2 261.3 246.6 237.6 225 215.6 213.1 208.9 208.2 203.3 194.7 192.7 189.6 187.6 184.7 205.9 220 236.3 249.7 256.7 255.3 255.9 255.6 254.8 249.5 240.4 233 227.1 220.5 217.2 206.4 197.7 198.2 198.5 195.8 181.5 175.3 174.4 164.8 160.5 152.5 143.7 139.3 133.3 129.6 124.6 114.1 111.5 113 113.5 114.5 113.6 116.3 126.6 140.3 143.3 139.7 138.8 139.9 148 155 153.8 151.9 150.3 149.1 150 145.3 143.2 140.1 136.4 132.5 132.7 136.5 138 140.3 139 142.3 145 141.7 137.4 133.7 128.2 119.9 112.3 105.9 99.7 95.1 89 84.1 80.3 77.6 77.6 77 77.6 78.3 76 71 70.9 62.3 61.7 53.3 58.1 67.5 68.5 70.9 76 78.1 77 83.6 96.2 103 104.2 107.5 108 106.3 101.8 96.9 90 83.6 80.9 78.6 76.2 75.4 74.7 74.3 73.8 71.6 73 78.8 86.3 101.1 111.1 119.5 125.8 122.5 123.1 131.3 135.1 141.1 144.1 145.9 150.3 150 153.1 155.6 164.6 171.6 176.1 181 183.2 183.9 187.4 186.8 181.3 177.8 172.3 170.8 177.9 185 180.8 178.4 184.9 192.7 193.6 197.8 201.3 203.8 205.7 206.2 207.1 210 208.3 216 218.9 220 219.8 216.1 213.1 197.9 189.1 177.3 184
146.5 146.6 151.6 163.4 181.9 204.3 220.8 247.2 271.3 294.1 304 305.3 303 294.5 287 281 273.5 266.8 259.5 248.7 240.9 231.7 218.2 209.8 208.2 207.3 205 199.3 192.4 189.4 190 184.4 189.2 210.6 224.1 237.7 249 253.3 253.3 253.4 254.9 253.8 250.6 246.8 237.5 231.1 226.9 222.2 213.8 202 198.3 198.7 198.7 183.6 182.8 177.2 169 165.9 155.5 148.5 141.5 135.2 129.6 125 113.2 109.4 111.6 112.8 110.9 111.1 115.6 121.3 129.4 135.9 137.1 136.9 136.5 147.2 150.8 145.8 144.9 145.7 147.7 148.7 143.7 144.1 139.2 135.7 131.2 131.2 134.2 135.6 137.5 137 137 143.2 139.1 135 132.8 128.9 121.3 113.4 108 98.4 95.3 87.7 81.4 79.4 78 76.8 77 77.6 76.8 73.3 67.8 62.2 61.5 52.9 58.9 62.8 66.3 68.4 68.1 72.6 76.3 77.5 78.8 94.4 101.7 101.5 104.8 106.4 105.6 101.9 96.9 91.9 86.7 81.4 78.2 75.7 74.6 74 73.9 72.1 72.4 73.8 78.8 90.1 101.9 111.5 119.3 122.5 116.7 122.9 128.8 136.8 142 144.3 147.5 147 148 152.8 159.8 167.1 174.4 179.6 184.3 186.8 188.1 191.5 188.2 184.1 183.7 176.7 170.8 175.4 184.9 185.1 181.7 181.7 189.2 192.4 196.2 199.2 201.1 202 201.2 205.6 208 206.6 213.1 215.8 216.8 216.2 212.6 209 198.9 187.2 177.3 181.1
145.1 145.4 146.5 152.4 172.4 200.4 217.8 241 263.2 287.7 303.8 297.4 298.1 291.3 282.4 273.9 263.3 256.3 247.5 238.5 230 222.4 213.2 207.8 204.3 202.6 200 196.4 189 185.8 187.8 174.8 195.7 212.7 225.7 237.5 248.1 253.2 253.1 253.1 253.7 251.2 248.8 246.1 242.7 236 232 226.4 217.6 206 201 196.7 195.3 187.8 187 183.3 175.3 166 160.4 153.6 144.4 137.7 133.9 128.4 116.6 110.1 109.6 109.8 110.9 109.8 113.7 117.4 121.5 126.1 130.5 132.8 133.4 142.3 142.3 141.7 144.2 146.8 150.7 149.1 143.3 140.8 138.4 135.1 131.9 131.2 132.1 134.2 138 141.7 136.9 136 133.1 130.9 126 121.3 112 102 98.5 95.2 94.9 88 81.3 79.5 78.2 77.6 77.2 77.3 76.5 72.9 61.6 61.2 57.4 54 62.1 64.8 64.6 67.6 66.1 68.9 75.5 77.5 77.6 91 99.2 100.6 101.8 103.3 104.8 101.6 98.4 93.9 87.9 79.9 77.4 76.1 73.8 73.7 72.3 72.1 70.5 74.5 80.4 91.9 103 112.2 118.1 120.4 118 120.6 134.2 140.1 143.1 143.7 146.3 144.8 146.6 156.5 167 173.5 178.3 182.9 187.1 189.7 191 192.1 187.9 186.8 185.5 181.2 173.4 171.2 182 185.7 174.5 175 185.4 182.3 192.4 196.4 197.5 197.8 199.2 202.6 204.2 204.7 207.9 210.9 213.9 213.9 213.3 208.8 201.8 190.3 178.7 176.6
143.3 143.7 145.7 147.5 163.9 192.1 213.7 231.5 253.6 278.5 297.7 297.6 291.8 295.1 290.1 276.7 260.9 249.8 236.1 229.9 222.3 214.7 207 208.5 203.4 201.6 196.7 193.8 186.8 185.9 182.4 176.7 198.9 214.5 225.5 237.2 246.9 251.5 252.6 252.1 250.4 248.1 245.5 244.1 241.7 239 236.7 229.3 223.1 210 207.1 196.8 194.3 194.1 190.8 189.2 181.4 169.5 164.7 156.3 146.6 140.7 138.3 130.4 121.2 109.9 108.5 108.6 109.1 106.8 112.3 114.8 117.4 119.1 119.1 124.5 129.4 134.8 134.9 136.8 142.9 147 148.6 142.2 138.7 137.2 135.3 133.4 131.9 128.5 125.7 131.3 134 134 132.3 128.3 122.6 119.5 117.4 114 105.4 99.3 97.3 96.4 94.8 87.6 81.1 78.6 76.9 76.9 76.5 76.9 77.5 68.1 61.1 59.9 52.9 61.9 63.1 64.2 64.6 64.4 65.2 66.6 73.9 76.5 76.4 89.6 96.6 98.2 98.6 100.3 102.2 102.1 100.1 94.8 89.4 82.3 76.7 75 73 72 71.5 70.6 71.8 76.7 82 92.2 101.9 111.9 118.5 116.5 117.3 127.2 134.3 140.8 139.2 143 145.9 143.7 153.7 167.1 173.1 177.2 182.1 185.6 188.7 191.6 193.5 192.9 189.8 189.3 188.2 186.8 181.7 170.8 177.3 176.3 172.3 172.1 172.2 172.4 173.9 186.1 191.9 192.1 195.8 198.7 200.5 200.1 203.8 203.8 207.1 208.6 209.5 206.4 201.3 191.2 181.3 174.1
139 142.7 143.5 146.8 158.3 185 208.8 226.5 248.8 278 298.8 300.8 293.7 299.7 295.1 279 263.9 247.7 234 221.5 216.2 209.9 201.1 205 201.5 197.5 193 189 183.6 183.3 179.5 182.7 202.8 215.5 227.5 238 243.9 247.3 248.4 248.5 247.2 244.4 242.9 241 238.7 238.8 237.9 229.2 221.2 211.9 210.1 205.3 196.9 196 189.8 189.3 185 175.1 167.2 160.1 148.6 145.2 141.8 133 124.2 114.1 107 106.3 108.3 106.9 107.3 111.1 114.2 113.1 113.9 116.4 122.3 124.9 129.5 135.1 139.4 140.7 139.4 132.5 133.6 133.1 130.4 127.4 125.4 122.5 120.8 124.8 127 125.3 121.4 115.7 111.2 108.9 106.5 100.8 100.6 98.5 97.1 97.3 93.2 85.3 80 79.9 76.3 76.3 76.3 77.7 77.7 61.8 59.7 52.9 60.1 61.6 63.3 64.5 64.4 64.3 64.2 65.1 70.8 77.4 85.1 87.9 92 94 96.6 97.2 99.2 100.9 100.1 94.8 89.9 85.1 76.3 73.3 72.4 70.4 70.8 70.7 72.9 76.9 84.1 93.8 102.5 110.5 106.7 115.9 122.1 129 136.6 138.1 134.8 142.7 144.4 144 157.8 170.8 177.6 181.8 185.4 188.1 190.7 193.6 195 194.3 192.4 191.8 191 190.4 190.2 181.3 171.6 172.7 172.1 172.2 172.2 172.2 172.2 177.6 183.8 189.4 193 195.4 196.7 197.5 199.1 199.7 201 197.5 199.7 202.3 199.3 192.9 182.2 173
140.7 142.1 141.7 145.3 151.5 176.1 203.2 223 247.4 276.3 293.7 303.5 304 305.8 295.5 281.4 265.7 247.1 234 220.7 213.1 207 201.3 199.6 198.4 195.2 190.8 187 183.2 179.2 172.7 183 205.4 211.1 230 240 241.5 240.2 240.1 239.2 238.2 238.3 239.6 240.8 236.7 232 232.5 228.9 218.5 215.4 211.4 201.6 200.7 194.5 190.5 187.9 183.6 177.3 171 166 156.3 149.9 146.6 136.2 128 117.1 108.9 105.5 106.2 105.8 105.9 107.4 106.9 111.5 114.3 113.2 115.4 117.5 121.4 127.2 131.4 131.3 128.3 123 125.8 123 118.8 117.3 116.3 115.4 114.8 115.3 116.8 115.1 112.6 108 104.4 100.8 98.9 99.2 99 94.8 94.2 98.7 93.1 88.4 82.6 79.2 76.2 75.4 76.4 77.3 77.2 61 54.6 56 60.6 60.9 63.5 64.3 64.3 64.1 64 63.8 73.6 85.4 84.5 84.9 88.1 92.8 95.6 93.5 96.7 98.5 98.5 94.1 90.5 84.5 76.3 72.7 70.3 70.1 68.8 70.2 73.1 78.3 85.7 95.4 99 100.5 112.3 118.9 122.5 128 133.6 129.8 137.1 141.7 144.5 143.5 158.9 172 179.8 184.5 188.2 191.6 194.1 195.8 194.9 196.1 195 194.1 192.4 191.5 191.6 189.5 179.8 172.2 172.2 172.2 172.2 183.9 172.2 172.2 172.6 184 188.8 191.2 192 193.4 195 196.4 198.4 199.5 199.3 192.6 194.3 192.3 183.8 173.3
140.7 140.8 141.1 141.6 149.7 168 199.3 221.9 246.5 276.5 300.2 306.5 306.6 301.4 290.1 278 260.9 244.7 230.9 220.4 217 208.1 203.8 202.3 199.4 192.4 189.3 183.7 180.3 178 173.9 182.1 200.9 208.1 228.1 237.9 238.2 234.4 232.1 230.9 231.2 232.8 234.3 234.8 234.2 230.6 226.9 224.7 221 219.1 212.2 203.3 206.1 201.2 194.4 185.9 187.2 180.8 174.3 168.1 163.4 156.5 147.1 140.4 130.5 119.6 110.1 105.5 104.5 104.8 104.4 104.7 104.4 110.9 112.7 110.5 108.8 110.1 111.7 116.4 118.1 118 117.1 116.3 114.6 113.2 110.1 107.4 106.9 105.9 105 102.9 105.4 104.4 101.3 96.6 92.5 93.6 95.6 96.6 98.9 90.8 93.4 95.6 92.2 91.2 81.5 77.5 76.2 75.1 75.9 77.1 68.6 55.5 52.9 60.4 60.1 62.6 63.4 63.8 63.9 63.7 63.4 63.3 74.5 84.4 83.5 84.8 85.7 92.9 95.4 91 92.8 96.2 96.6 93.4 90.2 84.1 76.4 71.2 68.9 69 67.7 71.9 76.5 80.3 85.7 91 95.3 106 114.3 118.9 123.1 127.8 128.1 133.8 142.5 143.2 142.7 143.9 163.3 173.5 181.9 186.8 190.4 193.4 196.2 197.6 197.2 197.2 198.1 195.6 193.4 192 190.7 191.2 188.3 183.4 172.9 174.5 185.5 184.1 175.6 172.2 167.2 170.8 184.8 187.1 189.4 189.7 191.4 192.4 193.8 195.6 196.6 196.3 191.1 185.8 184.6 175.7
142.2 139.8 139.1 140 148.2 163 192 220.7 245.8 273.5 297.3 305.5 303.9 295.4 288 272.2 259 244.1 227.7 224.3 218.6 208.9 208.5 208.3 201.5 194.6 187.1 184.1 179.1 175.9 170.4 178.2 196 202.3 215.4 226.5 228.1 225.9 224.8 223.6 224.7 226 227.9 227.5 229.5 227.6 222.7 220.7 221.9 217.1 207.3 208.8 210.4 206.1 199.8 190.4 190.1 183.4 176.4 170.8 165.9 156.9 149.4 145.9 134.7 123.1 112.5 107.1 103.4 103.6 104.3 105.1 106.1 105.5 105 105.1 105.2 106.6 105 106.8 107.9 108.4 109.9 108.5 106.7 104.7 102.4 95.5 94 94.8 93.9 94.7 95.3 94 91.2 87.6 84.7 77.7 85.9 84.4 89.7 90.2 86.3 83.9 78.7 78.1 77.8 77.2 76.4 75.7 75.8 76 62.9 52.9 59.5 60.1 61.1 62.7 63 63.3 63.5 63.5 63.4 63.3 72.1 81.9 82.3 83.2 84.1 88.5 91.1 88.6 89.6 91.9 93.2 92.2 88.6 82.2 75.7 71.2 68.3 68.5 69 74.7 77.2 80.8 86.8 93.8 99.7 105 114 118.1 124.8 130.1 124.5 136.4 144.1 143.5 139 146.5 161.4 174.5 181.4 188.6 192.7 195.6 196.3 196.9 198.7 199 199.2 198.4 195.6 194.8 193.5 192.5 190.2 187.4 183.5 190.2 190.7 184.3 175.3 173.4 167 164.3 179.9 183.3 185.5 186.9 188 188.6 189.4 191.3 192.4 193.4 192.3 189.4 178.8 176.5
144.5 141.1 139.4 136.9 137.8 159.3 184.8 215.4 246.6 274.7 293.2 303.7 296.5 294.5 281.4 269 256.9 239.7 232.3 226.8 215.9 210.1 204.5 201.6 197.5 191.9 185.5 182.7 180.5 174.9 169.5 173.8 186.4 197.4 202.8 213.3 216.8 218.8 217.9 217.7 214.9 218.2 219.5 220.5 220.7 222.7 221.1 218.1 216.3 216.2 208 211.3 216.8 210.5 202.6 194.1 191.8 187.7 181.4 176.4 168.5 158.9 151 147.3 135.3 125.8 115.6 108.7 101.9 103 104.3 104.2 102.7 103.6 102.8 102.2 99.9 102.2 104 102.6 101.5 101.7 102.1 98.3 95.3 93 90.8 87.4 85.8 85.8 85.8 87.4 82.5 82 81.1 79.1 75.5 79.7 71.5 74.4 78.8 78.3 78 77.3 77.3 77.1 76.9 76.2 76.5 76.2 75.1 75.2 63.3 55.5 56.8 59.1 60.6 62.5 62.8 63 63.1 63.3 63.1 63.1 67.1 76.7 82 82.6 83 83.4 86.9 87.2 86.6 86.9 88 86.9 83.5 77.6 72 69 67.8 67.8 69.9 75.1 79.7 82.6 91.4 101.7 109.1 102.7 109.8 118.1 124.3 123.4 124.9 140 144.1 141.7 138.5 147.5 156.7 171.8 180.7 189.1 193.6 195 195.8 198.3 196.9 200.1 199.7 200.1 198 197.5 195.7 193.1 192.3 189.4 188.2 191.8 192.6 190.8 186.8 182.9 177.2 163.5 164.9 179.8 181.9 184.1 185 185.7 186.3 187 188.1 189.2 189.6 187.9 183 174.9
146.7 142.2 140.4 139.5 134.5 153.3 178.8 209.5 243.1 269.1 287.2 291.4 296.8 286.2 276.8 264.5 251.3 244.2 236.3 226.6 215.8 206.2 202.6 196.6 191.9 187.2 182 180.9 178.5 175.1 170 172.4 175.4 185.8 190.5 195.9 202.4 208.7 211.6 209.4 208.3 210.1 213.1 216.1 213.8 216.7 218.4 214.6 212.9 215.1 210.7 215.5 217.2 214.1 204.5 200.1 199.6 197.6 188.8 182.2 172.3 162 155.7 149.5 140.7 132.8 123.1 111.6 105.5 99.7 101.9 100.5 101.9 99.8 98.9 98.4 98.2 97.4 99.9 98 95.2 95.8 93.5 90.2 88.7 87.4 87.2 87.1 87.2 87.4 86.7 86.2 81.5 81.5 79 79.4 81.3 85.6 85.4 74.3 71.5 74.3 77.3 77.3 76.8 75.5 74.6 74.8 75.4 76.4 76.5 72.7 66.1 52.8 55.3 55.8 57.7 62.2 62.1 62.6 62.4 62.6 62.7 62.5 64 72.6 79.2 81.8 80.6 78.6 80.2 84.2 84.1 82.7 82 81.1 77.8 74.6 67.8 67.2 66.1 69.5 73.4 75 76.8 88.5 99.3 106.6 106.7 103.3 113 117.3 118.6 122.6 133.1 137.9 143.3 141.1 140.9 146.9 153.9 169.4 180.7 188.3 193.7 195.4 196.7 198.1 199.6 200.2 200.3 199.8 199.8 199.8 198.1 195.5 194.4 192.3 190.8 189.7 189.6 190.8 187.3 184.1 181.7 174.7 161.9 168.5 179.2 181.3 182 183.3 183.3 183.3 184 185.2 186.1 185.8 183 175.6
149.8 142.9 140.3 140.2 135.1 148.9 173.7 202.5 235.6 260.9 277 287.1 289.1 284.9 273.3 262.9 253.2 245.9 237.3 226.3 216.1 204.4 198.5 192.1 186.3 182.7 179.9 178.4 178.5 174.6 170.4 169.6 171.6 171.3 172.4 175 181.5 189.6 200.2 196.7 199.7 202.4 205.2 207.9 205.7 210.5 212 210.9 209.6 209.5 210.9 216 217.9 214.1 208.4 209.6 209.8 204.5 196.9 190.1 178.6 169.1 158.8 152.6 144.7 139.3 126.7 117.1 110.3 103.7 101.9 99.1 98.7 98.4 97.3 96.8 95.7 94.4 95.3 95.4 93.6 91.3 89.5 89.3 87.6 86.3 85.9 84.9 85.5 84.1 83.3 82 81 80.2 79.6 83.6 87.4 89.7 93.1 88.1 81.7 68.6 75.2 76.7 76.3 75.5 75.8 75.9 76 75.4 76.2 73.5 66.2 62.1 53.3 52.4 55.2 55.3 55.4 55.1 55 54.7 55.1 62.2 62.2 64.3 74.2 77.9 76.7 76 74.9 77.5 79.2 77 74.5 75.1 72.5 70.4 66.9 68 69.2 70.9 73.9 75.2 80 94.3 100 102.2 100.1 107.2 112.8 116.3 120.1 129.1 132.9 137.1 142.2 141.5 139.8 146.2 152.4 166.2 179.2 188.3 192.8 195 196.5 199.1 200.5 200.2 199.9 201.1 201.7 201.4 199.7 197.5 196.1 193.8 195.6 192.7 189.3 190.1 189 186.2 182.2 179.1 171.5 161.2 170.7 178.8 179.6 179.7 180.7 180.3 180.3 181.1 182.5 182.4 181 174.9
150.6 142.9 139.8 141 136.1 144.3 168.9 197 225.4 259 283.9 295.3 293.5 283.5 268.3 257.1 252.4 247 236 224.2 215.9 207.2 196.8 195 187.7 180.3 179.3 180.3 175.5 171.8 169.3 164 170.7 170.1 169.3 169.3 169 173.1 179.4 183.3 186.4 192.6 196.2 199.5 198.8 198.7 205.2 206.5 204.4 205.3 210.7 217.4 217.4 213.1 214 213.3 215.2 209.9 203.1 195.7 184.5 172.3 161.2 153.9 150.8 142.5 133.2 123.1 117.1 108.4 102.4 101.1 100.1 100.3 99.3 98.1 96.7 93.3 95.3 94.9 93.1 90.8 89.7 87.8 86.7 85.7 85.1 83 82.2 82.6 81.9 84.1 85.2 83.6 84 87.1 93.4 95.8 90.6 91.6 89.9 84.2 69.1 71.7 75 75 73.9 76.7 75.7 75.5 73.7 69.7 63.2 61.6 60.4 56.4 53.8 53.1 52.3 52.1 51.5 55 54.3 54.8 61.5 61.7 69.3 76.3 75.2 74.5 74.3 74.5 74.2 73.2 72.2 71.7 70.1 65.4 67.4 68.5 70.8 72.6 74.5 74.3 85.2 94.1 97.5 98.4 104.5 108.8 114.6 113.6 121.4 129.9 131.6 135.9 139.6 135.4 141.8 146.6 151.5 164.3 177.5 186.2 191.8 193.6 196.8 199.2 200.9 200.9 201.3 201.6 201.9 201.5 199.2 197.7 196.8 195.5 196.3 195.2 190.1 189.5 189.4 187 183.6 179.8 176.5 171 159.4 171.6 176.5 176.5 178 177.2 176.8 177.6 179 178.7 177.3 174.9
152.9 146 140.5 141.7 135.7 139.7 162.9 190.7 218.5 252.9 276.8 288.5 287.9 279.8 267.5 252.8 248.4 244.7 236 223.9 214.4 207.4 203.9 196.6 188 179.5 178.5 175.5 172.8 170.2 166.7 165.8 168.6 170.9 171.5 172.7 170.8 165.3 164.2 167 171.6 175.3 182.4 187.9 190.5 190.3 196.7 199.1 197.8 200.7 211.1 219.3 221.4 210.9 215.4 218.1 216.7 213.7 209.8 201.3 188.6 177.5 165.6 158.5 153.8 147.9 138.2 127.1 120.5 114.3 107.6 105 103.1 102.9 101.3 99.3 99.2 94.6 91.3 94.9 91.6 90.6 90 85.4 86.8 86.8 87.1 89.4 89.5 89.6 90 91.4 91.7 89.5 93.6 97.3 102.8 102.4 99.4 89.9 90.7 88.5 83.7 66.4 74.9 74.5 73.8 73.3 75.4 75.6 70.8 64.5 60.9 61.8 60.1 59 56.4 56.4 53.9 54 54.2 50.9 51.6 51.1 54 59 65.3 74.5 75.3 73.9 72.9 72.9 72.6 72.2 72.3 71.8 69 63.8 65.8 69.5 71.4 71.4 72.8 77.1 88.3 94 94.1 101.1 106.5 112.7 112.2 114.4 124 128 129.7 134.5 136.4 134.8 142.5 146.8 149.8 158.3 171.7 183.2 189 192.5 196.1 198.1 200.4 200.6 202.5 201.6 201.8 200.2 198.1 197.6 196.4 197 197.1 195.4 192.9 189.6 187.4 186.4 184.1 181.5 178 175.6 168.5 158.6 168.2 174 175.5 175.5 174.4 174.4 174.5 175.1 175.5 174.2
154.3 148.2 141.2 137.2 135 140 155.3 183.1 212 238.1 264.8 276.3 275.3 264.6 259.3 253.4 248.2 241.9 235.1 226.5 216.2 208.9 202.2 194.2 186.3 180.5 178.8 171.2 170.1 167.8 160.8 164.9 177.5 181.5 180.5 182.9 180.6 175.8 177.8 165.6 159.9 164.6 170.3 176.6 180 183.4 187.3 186.2 189.2 197.5 207.8 215.9 216.4 210.2 216.4 219.3 219.9 217.3 214.3 206.6 195.9 185.2 171.9 163.5 155.6 152.1 142.9 133.6 124.6 117.2 113.9 109.6 106.3 102.4 102.8 102.6 101.2 96.8 92 92.4 87.6 90 89.9 91.9 89.9 94.3 95.4 95.6 98.9 99.9 100.2 97.7 98.5 99 102.5 106.7 105.8 105.4 101.8 100.9 92.8 90.1 76.9 68.9 65.4 74.3 74.9 70.9 75.7 75.7 71.8 60.7 60.8 60.6 59.7 58.8 58.6 55.4 54.8 55.3 54.2 54.6 55.1 55.2 53.2 50.9 61 73.3 75.5 74.8 72.7 72.3 72.8 72.5 72.7 72.4 67.8 67 65 70.3 70.8 70.8 73 77.6 89.7 94.9 94.1 101.5 108.9 108.9 109.7 116.6 123.2 125.9 128.8 131.4 133.7 135.2 143 146.2 148 152.9 165.6 179.6 185.7 190.8 194.4 196.1 199.2 200.7 202.5 202.8 202.4 200.6 199.1 198 196 195.5 195.6 195.2 193.3 191.4 187 186.5 184.6 181.9 179.2 176 172.8 166.2 157.9 161.9 172.7 174 173.3 171.5 173 172.4 173.6 173.1
158.1 150.5 140.7 137 135.2 138.1 149.4 175.1 204.4 223.8 236.2 244.9 252.4 252.9 253.5 253.5 250.2 240.9 233.4 225.3 216.6 209.4 199.4 190.9 184.2 177.5 170.4 167.9 168.6 166.4 161.1 172.8 190.8 188 190.6 194.3 189.3 186.1 185.6 173.9 164.1 158.9 156.5 162.2 169.3 173.9 176.1 175.8 182.3 194.2 203.3 205.8 208.2 209.5 214.8 222.6 221.9 218.7 215.2 208.4 200.1 188.3 178.8 163.6 159.1 153.6 147.6 139.4 128 121 116.4 111.2 109.8 106.1 102.8 101.7 99.9 96.9 91.9 90.6 92.1 92.7 100.3 104.7 107.7 112 113 111.6 109.7 107.3 107.4 108 109.1 106.9 109.7 112.9 109.8 109.2 108.8 106.2 96.9 87.4 80.2 67 64.2 65.4 75 68.1 70.6 65.5 61.4 60.4 60.1 59.5 59 58.7 58.5 57.8 55.4 54.2 54 53.9 53.4 53.3 53.9 53.1 56.3 72.7 75.2 74.7 73.4 72.4 72.8 72.5 72.4 72.8 68.9 66.8 64.7 68.5 71.2 71.3 72.8 81.7 91.3 93.3 94.4 99 104.4 106.1 115.6 118.3 120.2 122.7 125.5 129.5 132.3 136.5 143.7 144.2 144.8 149.3 161.4 174.9 182.4 188.5 191.8 195.4 197.6 199.4 202.2 203.6 202.7 201.8 200.1 199.6 196.9 194.5 194.9 195 194.1 192.1 190.3 185.6 183.7 181.1 176.4 174.5 170.9 170.1 168.1 156.3 161.1 172.2 171.9 165.8 160.9 159.7 169.2 171.4
161.7 151.3 139.9 135.6 135 136.3 145.7 165.4 191.2 212.6 228.3 236 244.7 248.3 244.3 246 242.5 237.8 230.8 221.7 211.8 205.6 197.3 187.6 179.1 171.9 166.7 166.6 167.5 162.4 159.6 182.8 201.7 194.5 197.9 202.5 202.4 195.9 188.1 178.2 170.1 163.9 159.5 150.9 152.4 155 157.8 161.1 170.5 182.9 192.4 197.1 204.7 208.1 211.4 220.5 221.2 217.6 215.3 209.6 203.6 193.6 183.1 170.8 165.4 156.2 151.9 144.2 133.6 127.7 119.4 114.8 110.7 107.2 103.4 100.1 97.3 93.4 90.5 94.3 95.4 108 111.4 115.1 118.6 119.1 120.8 119 114.8 116.1 118.9 121.8 122.3 123.5 125.9 123 114.6 114.1 113.5 110 101.2 91.4 83.5 72.6 68.5 67.5 63.8 62.4 62.6 62 60.6 59.9 59.5 59.6 58.9 58.3 58.1 58.1 57 55.7 54.3 54 53.8 53.8 54.7 53.7 53.9 70.9 74.2 73.4 73.2 72 71.1 72.6 72.4 72.3 69 66.6 63 66.6 71 71.8 74.4 77.3 82 85.7 91.2 98.2 107.2 115.2 114.7 116.8 119.4 121.1 121.5 124.4 128.4 133.1 141.6 142.7 144.9 144.5 154.3 168.4 179.7 185.1 189.4 193.3 195.8 197.3 202 201.5 201.4 200.3 200 198.4 196.3 195.8 195.1 193.9 195.9 193.5 191.7 188.4 183.9 181 181.8 178.6 175.4 172.2 171.1 165.6 155.6 156.3 156.7 154.3 154.1 153.8 153.8 161.2
163.2 152.2 142.3 135.1 132.7 135.4 141.5 154.9 174.9 193.6 213.1 226.5 234.6 237.2 234.3 233.8 232.4 227.1 219.1 213 203 200.3 190.5 180.2 170.6 166.3 166.6 168.5 165.9 157.8 169.7 194.1 206.4 200.7 209.3 216.1 213.6 202.1 192.5 181.7 176.2 170.9 165.7 159.7 154.6 151.7 148.3 150.3 157.7 164.8 174.8 185.4 195.5 200 206.7 212.5 213.9 213.8 214.6 211.1 205 196.4 187.6 174.8 163.6 155.5 154.1 147.8 136.7 132.8 125.8 116.9 112.4 107.4 103.8 98.5 94.9 95.1 100.2 105.6 112.5 115.9 119.3 120.9 121.8 123 123.3 120 120.7 125.1 132.3 136.2 136.3 135.6 136.2 132.6 121.8 114.9 115.4 112.2 105.6 96.3 83.6 77 74 73.3 72.2 70.7 66.6 65.3 60.9 59.7 58.8 58.4 58.3 57.9 57.8 57.7 57.4 55.9 54.5 54.1 53.7 53.6 53.5 53.2 50.3 63.5 73.1 73 70.7 69.3 68.4 72.2 72 70.9 68.2 65.4 63 65.8 67.2 70.7 76.4 82.6 85.4 92.9 99.1 107.3 113.5 116.7 112.2 117.2 117.4 115.9 116.9 122.7 127.5 131.8 139.9 143 143.7 141 147.9 162.6 173.3 180.5 185.6 190.3 193.9 197.2 199.9 200.7 198.8 199.3 199.2 197.7 197.4 196.3 195.6 194.6 193.7 193.7 191 187.9 185 184.2 183 180.2 176.8 173.2 170.6 169.1 162.5 156 155.7 162.8 166.4 159.5 153.7 153.6
162 150.5 142.7 135.3 133.9 136 145.5 150.4 162.8 178.8 192.8 203.3 212.9 218.5 220.8 221 219.9 214.8 207.8 209.1 198.7 195.9 184.9 172.8 165 165.1 169.9 168.2 162.5 162.4 185.3 204.4 205.9 208.7 219 230 225.5 205.5 198.2 190.7 185.1 180.5 174 167 162.9 159 154.1 148.5 146.8 154.5 162.5 175.7 189.2 197.6 203.1 208.2 210.8 212.2 214.3 210.6 203.3 201.4 194 178.6 169.9 166.6 158.2 148.6 141.2 136.8 132.1 123.9 115.6 105.9 101 95 98.2 103.9 113 116.7 120 123.3 126.9 129.9 133.7 137 137.3 129.2 127.7 133.8 139.2 146 147 146.7 151.4 136.4 129.8 122.8 115.8 112.8 108.4 99.3 91.6 81 82.8 77.2 77.2 77.7 77.9 73.1 68.4 65.5 58.4 58.2 57.8 58.1 57.4 57.7 57.6 56.1 54.7 54.2 53.6 53.5 53.3 53.5 50.1 55.1 68.6 68 67.4 65.5 65.4 72.1 68.9 68 68.2 66.6 60.7 65.7 65.5 71.9 85.8 88.9 90.1 98.1 101.8 108 112.9 116.7 114 116.2 115.6 113.8 120.9 126 132.1 132.8 140.8 141.9 142.2 141 143.2 155.3 166.7 174.7 182 187.5 189.8 193.4 196.3 197.6 197.4 198.3 198.3 196.8 196.7 195.8 195.8 194.6 193.4 193.3 191.9 190.3 188.8 185.3 183.2 180.6 177.1 174.3 171.9 169.1 167.4 166.9 170.1 171.7 168.9 167.6 157.9 153.7
163 154.4 146.4 136.1 133.7 142.1 145.8 155.2 155.6 172.8 181.5 189 196.4 202.8 205.5 205 206.1 202.9 199.6 194.9 194.5 186 173.6 166.4 162.5 166.7 167 164.1 157.9 175.7 195.1 207.2 207.5 211.3 228 237.3 235.8 217.6 206.3 201.1 197.6 190 184.2 174.6 168.9 163.5 160.9 157 150.4 144 145.4 158.5 180.5 195.7 204 207.9 209.6 214 213.7 206.5 204.2 203.7 196.5 181.4 176.3 167.3 156.2 151.2 146.6 141.5 135.8 128.6 117.7 107.8 99.3 104.3 112.6 118.8 123.5 126.1 128.3 131.5 136 139.3 146.3 147.3 139.6 135.1 136.3 140.2 144.8 151.2 157.1 151.8 144.6 142.1 136.5 127.9 122.4 114.8 113.7 102.8 94.3 87.1 95.1 96 97.1 92.8 88.5 82.6 79.7 75.2 73.1 59.3 58.4 57.2 57 57.1 57.3 56.6 54.9 54.3 53.8 53.4 53.2 53.2 53.2 51 65.4 61.3 60.8 61.8 70.8 72.8 70.1 66.1 67.7 66.5 65.5 62.6 59.8 71.2 86.8 89.2 90.2 97.9 102.9 105.9 109.6 112.3 114.9 114.7 112.6 116.6 119.1 127 135.4 138.5 140.7 140.8 142.3 141.6 139.4 149.2 160.7 169.2 176.2 181.6 185.5 188.6 190.6 193 195.3 196.4 195 196 196 195.4 195.5 195 194 193.7 193.2 192.3 189.8 186.3 183.4 180.8 178.5 176.1 173.3 169.5 167.4 166.8 168.6 168.7 166.4 165.3 164.5 161.3
169.7 158.9 150.7 141.2 132.8 135.5 137.9 149.6 154.4 165.2 174.6 179.5 186.8 192.3 193.6 193.9 195.6 195.5 188.5 184.2 185.2 178.5 168.2 161.1 161.1 164.2 162.5 159.2 158.3 183.4 199.2 207.2 212.4 221.7 234.1 239.8 243.2 229 217.2 208.1 205.9 202 192.1 183.1 175.3 173.2 173.4 165.9 155.7 150.1 141.7 147.7 166.9 185.7 200.8 209.3 211.1 215.1 208.4 205.1 202.6 201.4 193.6 184.5 175.7 170.4 161.6 153.5 150.9 147.1 138.7 128.2 115.8 106.5 107.8 116.9 125.4 132.3 134.4 135 136.4 139.4 141.7 150.9 158.1 153.3 144.4 145.5 144.8 147.6 151.9 159.2 164.2 156.8 147.1 147.3 142.3 136.1 125.3 118.1 113.2 96.8 101.9 107.8 112.6 110.7 108 106.3 100.5 90.8 86.9 83.4 78.5 73.3 62.7 57.7 57.4 56.1 56 55.9 55.1 54.4 53.9 53.3 53.3 52.9 53.7 50.1 61.6 59.9 59.8 63.2 72.8 72.5 71.1 67.2 71.3 71.5 71.5 63.6 60.3 71 87.4 87.8 89.1 99.3 103.7 105.6 109.1 111.3 113.4 112.9 107.8 119.2 126.3 135.7 139.7 139.5 140.1 139.3 139.3 141.9 138.1 141.4 154.2 162.8 170.3 174.8 178.4 183.2 186.8 189.6 191.9 194.1 193.6 195.1 195.5 195.5 195.5 195.2 194.3 195.3 193.9 193.1 191 187.7 184.4 182.7 180.3 177.6 174.3 170.1 168.3 166.1 165.1 166.2 167.1 166.4 164.6 162.6
180.3 165.5 156.1 145 136.2 132.2 134.4 141.9 147.7 158.7 166.9 172.2 173.9 183.6 185.7 184.4 189.2 188 181.6 179 176.4 169.7 162.4 155.8 162.2 164.1 158.6 155.4 159.1 188.8 203.6 208.8 215.3 232.5 241.5 243.4 244 241.9 231.5 224.4 217 212 197 188.5 180.6 180.7 185.3 169.2 158.4 153.2 144.7 140.9 159.1 180.2 196.4 206.1 210.7 217.4 208.2 203.3 205.2 200.3 191.2 183.9 177.6 170.3 163 155.7 152.3 146.9 136.6 125.4 112.1 110.3 118.4 125.7 136.6 150.4 153.5 146 146.3 150.3 154.6 162.2 166.2 162.2 156.7 156.2 155.7 154 158.8 164.1 166.4 159.1 151.3 150.7 147.9 141.9 127.8 116.8 105.4 109.7 116.1 121.3 125.2 124.5 119.1 112.3 105.1 100.2 93.9 90.5 86.8 80.2 73.6 69.2 57.7 56.3 55.7 55.1 54.9 54.6 53.5 53 53.1 52.7 53.8 50.1 59.3 61.1 59.2 68.3 73.5 72.7 71.2 71.1 71.8 71.2 70.8 63.8 60 65.7 88 87.2 91 100.5 105.4 105.1 108.2 109.3 110.8 110.4 103.2 116.5 132.1 136.2 141 140.2 140.1 139.5 140.9 140.6 137.3 137.3 144.6 155.1 163.6 169.6 174.6 178.4 182.4 185.8 188.4 191.3 192.5 193.2 195.3 195.1 195.3 195.3 195.1 194.6 195.1 193.6 191.7 188.1 186.7 183.4 181.3 179.2 176.8 173 169.7 165.9 164.9 164.8 165.9 165.3 164.9 163.6
187.5 175.3 161.2 151 143.4 133.8 132.6 134.6 137.2 151.2 163.3 167.6 168.1 172.6 177 181.6 181.9 178 176.2 176.8 172.7 164.1 156.6 155.5 162.2 162.4 156 155.3 168.4 194.8 203.3 213.6 220.9 240.2 244.9 249.4 245.4 244.7 239.7 234.3 227.5 220.2 206.8 192.7 187.2 187.6 184.7 168.9 159.5 154.7 147.3 141.8 154.8 177.3 194.5 198.3 207.3 215.8 208 206.9 203.9 196.1 189.4 182.9 177.1 170.8 163 156 149.4 140.6 128.6 118 111.3 120.2 125.4 131.4 144.9 155.8 161.9 152.5 155.1 161.2 160.9 165.4 170.8 172.7 167.2 165.4 164.4 163 164.6 168.2 168.6 161 153.6 150.7 148.7 143.4 130.1 120.7 119.5 124.5 129 132.4 131.9 128.4 123.2 117.6 110.5 106.1 100.5 98.2 93.3 86.2 81.7 72.1 60.4 56.8 56.4 56.3 56.2 55.1 54.3 53.2 52.6 52.7 53.3 50.1 55.3 56.1 55 61 71.7 72.3 71.2 69.1 70.9 71.3 70.7 61.5 61.8 65.7 87.5 84.1 94.6 100.5 104.6 104.7 107.6 107.2 108.2 109.6 104.6 112.7 126.4 136.4 141.7 141.5 141.8 141.1 142.1 138.3 137.3 137.3 137.8 145.1 157.9 166.3 170.6 174.5 178.4 182.5 184.5 188.7 191.1 192.5 193.8 195.1 194.8 195.1 195 195.4 195.2 194.6 192.4 189.4 188.4 185.7 182.1 180.4 178.8 175.4 171.9 167 164.6 163.3 164.5 165.2 164.5 163.8
198.5 184.3 167.8 155.3 151.4 140.8 132.9 131.5 133.6 140.3 156 160.2 161.3 161.9 169.9 172.8 172.2 170.7 171.1 170.1 166.5 159.2 152.5 156.7 161.9 156.7 153.5 156.6 177.5 198.6 202.1 217.2 228 242.2 244.5 251 247.5 246.2 243.4 238.8 233 228.4 217.8 194.7 192.7 189.7 182.7 172.8 164.6 157.5 147 142.1 156.2 174.6 190.6 198.2 202.2 208.5 208.7 207.6 197.6 194.6 187.6 180.7 174.7 167.2 160.5 151.1 144.4 133.2 122.1 112.3 117.7 125.1 130.4 136.2 149.7 163.4 173.6 167.2 159 163.6 166.2 169.8 174 175.7 173.5 172.7 171.5 170.6 168.7 170.5 169.5 163.4 154.6 150.2 147.4 141.9 133.1 123.5 123 128.9 132.4 134 132.7 131.3 128.4 123.4 116.1 111.4 104.9 101.7 95.5 89.4 82.6 73.1 61 57.1 57 57.1 56.5 55.1 54.5 53.7 52.9 52.7 53.1 50.1 53.3 54.6 54.5 54.1 54.1 54.3 62.8 68.4 67.1 71.6 70.8 60.7 61.8 65 80.7 82.9 95.7 101.6 104.6 105.4 106.7 106.1 106.7 106.6 107.2 103.3 125.3 131.9 140.5 142 144.6 142.8 141.6 137 135.8 137.3 137.3 139.4 154.2 160.3 166.2 170.9 174.7 178.3 181.8 184.7 187.5 190.1 192.3 193.3 194.4 195.2 194.3 195.2 195.3 195.2 193.7 190.8 188.8 186.6 183.8 181.3 180 177.9 174.4 170.5 166.5 163.9 162.4 165 164.1 162
207.2 193.7 179.2 164.6 156.4 146.9 138.6 131.5 131.5 132.3 141.8 148.7 152.5 154.3 156.2 160.7 165.3 163.5 166.2 163.8 159.2 151.4 149.8 156.7 158.4 155.7 151.6 164.6 184.6 198.9 206.1 216 233.4 244.9 247.2 251.2 248.3 245.5 241.3 238.9 233.3 227.3 217.3 203.1 199.5 191.5 183.5 175 169.2 157.4 148.1 140.3 154.8 175.3 190.3 203.1 195.6 202.5 203 209 197.1 191.3 185.8 178.3 171.7 163.8 152.4 145.6 136.5 130.3 116.9 112.1 123.1 130.3 137.2 144.9 158.3 173.8 180.9 169.2 162.5 165.5 173.5 177 179.5 179.3 178.2 177 175.4 173 170.4 170.4 168.1 163.1 156.4 150.9 146.5 141.8 135 127 118.1 132.7 135.1 133.9 133.2 132 130.4 128.3 121 115.7 110.8 105 95.5 88.7 81.8 71.6 61.1 56.2 56.2 56.5 56.3 55.8 55.6 54.4 52.9 52.9 53 50.1 53.7 53.7 54 53.5 53.2 54.8 54 53.8 65.7 67.6 71.2 59.7 57.4 64.4 72.9 82.7 92.2 98.3 103.4 104.8 104.7 103.1 104.2 100.7 90.2 104.3 121.7 128.3 137.3 140.5 143.5 142 140.4 137.6 135.2 138.3 134 138.1 146.7 154.2 159.6 165.8 170.7 174.2 178.2 181.9 185 187.8 189.8 191.8 193.8 194.7 195.2 195.4 195.6 195.7 195.2 193 189.8 187.7 185 182.9 181.3 179.5 177 173.7 170 165.6 163.4 161.8 161.1 160.7
206.9 195.2 187.4 175.9 159.7 156 139.2 134.7 127.1 132.2 133.5 137.9 144.1 146.6 145.5 152.7 155.8 155.4 155.7 156 151.5 150.4 156.4 152.1 146.3 147.2 160.2 171.1 192.5 202.2 212.6 221.4 238.7 248.4 251.3 251.3 249.6 244.2 241.1 237.8 234.1 226.8 222.7 214.4 201.9 190 181.6 175.1 171.7 157.6 147.2 139.3 147.8 168.6 185.7 198.6 193.3 194 198.4 204 198.8 189.9 184 177 168.6 158.3 148.9 137.9 132.1 125.9 111.5 114.4 126.6 133.9 142.4 151.4 164.3 181.4 186.8 173.1 167.7 166.4 170 176.8 179.6 180.2 180.5 179.8 177.1 174.7 171.1 171.6 169.6 162.2 158.1 151.6 146.9 142.2 138 132.2 118.4 129 134.8 135.3 134 132.4 130.1 127.7 124.3 120.2 112.3 105.6 97.6 88.2 77.5 68.4 58 56.2 56.1 56 56.5 56 55.1 54.7 54 55.8 52.8 50.1 53 52.6 54.2 53 53.8 54.1 54.6 54 61.5 66.6 71.2 68.9 61 63.6 74 82.1 93.3 97.9 99.9 102 102.6 101.2 99.4 88.1 97.8 109.9 119.1 127.4 132.2 136.3 142.5 141.2 140.2 137 134.8 136.4 133.5 135.1 142.6 149.3 154.9 160.1 165.6 170.7 175.2 178.3 181.9 184.9 187.6 190 192.4 194 194.8 195.3 195.6 195.8 195.5 194.6 192.4 189.1 185.4 183.7 182.2 179.7 179 176.2 172.7 168.2 165.9 163.1 161.6 161.9
206 196.7 188.9 182.1 170.8 158.8 142.9 136.2 131.1 131.1 130.7 131.3 137.8 141 142.1 145.8 146.3 148.1 145.1 146.3 144 143.6 145.6 149.6 150.9 157.9 170.8 185.2 198.7 208.9 217.8 229.2 244.9 252.6 254.6 254.5 254.1 248.6 243.1 243.7 242.8 237.6 231.5 224.5 212.9 196.8 181.8 176.6 169.2 158.7 149.1 139.9 141.6 157.8 171.4 185.5 189.5 191.5 192.8 195.6 192.4 188 181.2 172.8 164.9 155.6 144.4 134.4 126 115.8 112.7 113.8 125.2 135.6 149.7 161.7 170 181.7 190.7 181.5 172.8 168.9 167.5 174.7 182.1 181.6 179.3 176.8 175.5 172.1 169.4 168.7 167.6 162.8 159.1 153.8 148.1 144.3 140.9 136.3 130.3 123 134.8 135.6 134.5 133.4 131.9 129.5 125.6 121.1 115.1 106.4 96.8 87.2 76.4 68.8 57.9 56.4 56.1 56.2 56.3 55.9 55.4 54.3 68 71 53.6 50.1 52.8 52.8 53.2 57.5 59.8 53.3 54.5 53 61.5 66.4 66.3 66 60.7 66.5 77.6 85.2 91.4 96 98.5 100.5 100.2 98.9 96.9 90.2 96.4 107.2 113.9 124 129.3 134.4 137.6 140.2 140.6 136.9 135.4 132.8 132.2 130.7 140.4 145.2 150.3 155.9 161.9 165.8 169.9 175.2 178.3 181.6 184.8 186.8 190.8 193.2 193.6 194.6 195.6 195.8 195.3 194.7 193.7 190.8 187.8 185.2 183.6 180.8 179.9 177.8 175.2 171.7 167.9 164.3 162.4 162.5
207.1 199.9 193.3 187.9 179.1 166.1 151.2 136.4 138.1 127 129.6 130 132.1 136 137.2 137.8 141.5 142.1 139.7 136.2 138.5 147.6 151.3 157.3 161.3 174.4 188.2 197.4 209.5 219.4 222.8 239.7 250.4 254.8 257.5 255.7 255.7 249.2 248.5 248.8 246.4 246.4 240.7 233 220.6 201.5 189.8 178.4 170.6 160.4 150.1 142.2 136.2 142.5 155.5 165.8 179 188.3 189.2 189.1 188.4 183.9 177.4 168.6 161.1 153.4 138.7 128.8 116.9 113.5 112.8 123.1 139.5 152.4 164.2 172.3 174.5 181.4 187.3 188.1 178 171.2 167.6 174.2 184 185.5 179.9 178.8 176.6 170.6 166.9 167.9 165.7 163.2 159.7 153.8 151.7 146.2 142.9 138.1 135.3 127 133.1 134.7 134.5 133.7 132.3 129.3 126 121.8 114.7 105 95.4 86 78.3 66.9 59.2 57.3 56 55.6 55.2 54.8 54.1 61.8 72.4 64.4 52.9 50 52.9 52 53.4 60.9 60.7 52.5 54 54.7 60 65.2 66.5 61.8 57.4 72.4 83.4 87.6 90.4 93.7 95.8 96.8 97.2 94.5 91 89.4 95.1 108 109.6 118.3 125.5 131.5 135.7 138.5 139.5 137.2 135 132.4 130.2 129 134.1 143.2 147.6 153.8 159.6 163.2 166.2 170.3 174.7 178.7 181.2 184.4 188.8 190.2 193.3 194.9 196.5 196.6 196.2 194.9 193.9 192.3 189.6 186 183.7 182.7 180.5 179.2 177.2 174.1 171.1 167.9 164.4 162.3
209.7 201.3 198.4 189.9 181.2 168.7 154.9 141 139.9 133.5 127.3 128.8 129.2 134.9 134.7 131.5 133.7 136.2 139.7 142.7 147.8 156.7 163.9 172.3 178 188.8 198.6 208.9 217 223.1 235.3 247.1 253.5 257.8 260.7 258.1 258.2 254.1 253.2 254.2 254.5 253.7 247.8 236.1 225.2 213.5 193.1 183.2 172.5 163.3 153.2 145 139.1 135.5 141.9 153.6 161.9 179.2 185.4 188.3 181.8 176.5 170.8 165.8 155 147.3 133.5 119.1 114.8 118.2 131.9 144.9 159.3 170.7 180.8 184.9 185.8 183.3 181.4 186.9 182.5 176.9 171.1 176.3 182.8 185 179.6 178.2 176.5 170.3 165.5 163.8 163.3 162.3 159.4 155.2 152.5 148.1 144 138.2 135 131.8 132.3 132.7 134.5 133.8 131.9 128.7 125.6 120.7 113.2 103.6 93.9 85.3 75.6 67.1 60.8 58.5 56.2 55.7 55.2 54.6 54.5 71.4 70.6 59 53 49.5 52.3 52.4 57.5 60.2 59.5 57.4 54.6 59.8 59.3 62.4 61.3 54 66.3 76.7 86.2 84.6 88 90.4 92 93 93.1 91.9 85.3 89.3 96 106.6 111.2 113.4 121.2 128.2 133.7 136.3 137.5 136.2 134 131.2 129.4 127 130.9 139.2 144.2 150.1 156.9 160.8 163.1 166.3 170 174.7 178.1 180.8 183.2 188.3 191.4 194.2 197.1 197 196.5 195.2 194.2 192.7 190.6 189.3 185.3 183.2 181.6 179 178.2 175.7 172.7 170.1 166.5 163.8
209.7 201.9 193.9 185.8 179.6 171 160.4 149.7 138.2 133.1 131.7 125.9 128.5 128.9 129 130.9 136.1 143.7 156.4 156.9 162.9 170.1 179.7 185.8 189 201.3 210.4 221.3 223 231.1 248.4 255.5 256.4 261.9 263.8 260 261.8 261.5 261.1 259.5 259.9 254.8 249.4 243.4 230 219.1 204.8 189 179.2 168 156.6 150.4 143.8 137.9 134.3 139.8 151.3 160.9 166.2 179.3 179.7 171.9 164.7 156.8 149.2 141.7 125.3 115.5 121.6 133.8 146.1 160.4 174.8 184.7 182.9 196.2 199.5 188.1 181.2 186.6 187.5 180.9 177.8 174.7 182.8 187 184.7 180.4 179.6 175.8 163.8 162.9 161.9 161 159.6 156.8 153.1 150.4 143 138.1 135.7 134.2 132.6 131.8 133.4 133.2 130.7 127.5 122.5 117.5 111.2 99.4 90.3 81.7 73.5 66.3 61.3 58.6 56.5 56 55.5 55 58.7 70.9 69.5 54.4 51.2 51.7 52 51.3 57.3 60.2 61.5 58.9 59.8 59.2 59.8 60.7 56 60 66.7 82.7 86.3 84.8 86.2 87.7 89.1 88.5 87.8 87.8 79.7 85.4 96.6 105 111.1 108.9 114.4 121.9 128.1 133.4 136.2 136.5 134.8 131.7 128.5 125.5 124.9 133 139.8 145.8 152.8 155.4 159.7 163.1 166 170.5 174.4 177.4 179.7 183.8 189.3 192.5 196.1 197.5 197.9 196.2 194.1 192.5 191.2 189.4 187.5 183.6 182.3 179.9 178.5 177.3 174.7 172.1 169.1 165.4
202.9 195.9 189.9 180.9 170.8 166 160.5 152.6 143.7 136.2 131.7 129.7 128.3 127.5 123.9 136.6 145.3 151.9 161.7 166 176.5 183.4 189.3 193.5 200.7 207 218.6 227.3 232.7 244.7 256.2 260.2 260.1 262.5 264.7 264.9 264.4 265.7 261.7 262.5 262.6 257.3 252.4 245.7 234 223.2 213.1 198.2 184.9 171.3 163 157.4 152.9 143.6 135.7 133.5 140.6 147.6 150.6 161.2 168 164.1 157.4 150.6 143.5 136.8 121.4 122.3 133.5 143.2 153.2 171.1 184.8 189 192 204.6 205.6 195 183 184.7 186 183.8 182 178.6 184.6 190.5 188.1 186.2 187.3 181.5 168.3 161.6 161.4 159.8 159.4 157.5 154.5 150.6 141.7 139.4 136.7 131.1 132.6 131.5 134.3 132.3 130 126.6 117.8 113.8 103.4 95.2 88.4 83.1 76.8 66.5 59.3 57.8 56.6 56.3 56 55.2 65.2 70.6 67.6 52.7 49.9 52.9 52.1 51.3 57 61.1 61.7 58.1 58.8 59.6 59.9 53.8 59.5 65.6 66.9 85.3 88.2 87 83.9 83.6 84.9 82.3 81.9 80 79.4 87.6 92.6 101.2 107 110.5 109.9 113.9 122.2 129.2 133.9 135.7 134.2 131.5 129.7 125.7 124 125.9 133.9 140.4 144.9 149.2 155.7 160.4 162.9 166.6 170.1 173.1 175.7 179.7 185.9 189.3 193.8 196.3 197.3 196 194.8 193.4 191.5 189.7 187.5 184.3 182.5 180.6 179.1 177.9 176.2 173.4 170.6 167.5
190.1 187 181 173.6 166.4 160.4 155.6 150.1 144.2 138.7 133.5 129 128.3 126.8 127.9 134.4 141.3 157.5 168.7 176.6 189.3 190.4 196.6 207.9 212 219.4 227.6 233.8 244.7 256.6 268.2 272.9 266 267.7 269.2 268.2 264 265.8 263.6 262.4 261.4 257.1 251.1 246.2 236.3 227.9 219.1 207.2 190.9 176.7 173.1 168.1 160.9 153.8 145.9 135.3 131.7 137.9 142.1 145.4 150.7 152.5 149.2 144.3 135.4 127.3 117.1 130.2 142 152.4 158.6 174.1 187.1 188.4 198.9 206.5 210.4 202.1 192.3 194.2 196.8 190.8 185.4 181.2 185.2 190.6 192.8 194.1 195.6 188.2 176.1 165.7 160.8 161.5 159 157.4 155.1 151.2 142.6 141.1 135.4 132.6 132.6 134.1 134.5 132.1 131.3 127.4 117.9 114.2 106.6 97.9 91 85.2 77.3 66.4 57.7 57.5 56.6 56.3 56.1 55.5 69.6 69.2 62.1 52.4 49.5 52.7 51.5 50.8 57.4 59.7 58 53.2 53.8 57 53.8 54.7 57.2 65.4 78.7 86.2 86.5 86.9 83 78.8 77.9 77.7 76.2 78.7 81.1 85.1 90.5 101.1 104 107.3 106.6 110.2 116.6 126.1 129.8 131.4 131.9 130.9 128.1 125.7 123.2 123.2 127.7 137.4 143.9 148.5 154 156.9 160 162.2 165.1 168.2 170.8 174.8 182.4 188 189.7 193.1 194.9 195.2 194.6 193.2 192.4 189.3 187.6 185.9 182.9 181.2 179.8 178.5 176.6 174.5 170.8 168.6
173.8 175.5 172.8 167.9 162.3 157.3 155.2 150 144.6 144.1 135.6 129.5 127.8 126.5 129.4 132.4 145.7 161.5 174.4 188 197.1 192.7 205.8 216.7 225.8 232.7 238 246.5 256.6 267.2 279.8 280.7 277.4 275 272.9 272.9 265.9 262.2 260.9 260.9 256.7 252.8 250.6 244.5 238.4 230.7 222.4 214.5 201.4 185.5 183.3 177.7 168 160.3 153.6 144.4 133.5 130.5 130.6 135.3 140.2 142 141.6 135.9 127.2 124.1 123.2 137.6 149.4 159.2 163.6 170.5 180.4 192.5 200.9 207 212.1 215.2 205.2 201.5 200.5 196.5 189.9 186.8 190.3 194.4 197.7 199.2 196.5 189.2 177.6 168.4 164.5 163.4 159.5 156.8 153.5 150.3 142.8 142.9 135.4 131.2 130.8 135.4 135.4 132.5 130.9 128.3 125.2 119.7 110.8 101.4 94.2 86.1 78.5 65.9 57.7 56.9 56.5 56.3 56 55.5 68.4 67.6 56.1 52 49.5 51.1 51.5 51 51.3 51.5 52.6 53.3 53.5 53.2 53.4 55.3 59 68.5 85.4 85.5 83.2 81.6 81.4 79.6 74.1 74.5 77.8 83.6 82.7 84.3 90.7 97.7 102.5 104.4 107.2 107.1 110.4 118.8 124.5 127.7 130.5 130.6 129.6 125.3 122.7 121.2 125.1 131.5 139.1 144.8 150 153.5 154.8 157.3 161.2 163.5 165.5 170.5 179.7 184.1 186.4 188.8 191.4 193.6 193.3 193.8 192.7 190 187.8 185.4 183.6 181.5 180 178.4 176.9 174.8 172.1 170
167.2 169.1 166.5 163.6 164.4 165.1 163.9 153.2 144.9 138.1 132.1 130.7 128.4 122.9 126.7 131.5 146 168.1 178.7 192.9 196.5 201.7 210.6 225.9 234.1 240.7 249.1 254.1 264.3 275.5 286 285.2 281.6 281.5 278.1 271.7 268.5 261.9 256.4 253.5 250.2 250.6 246.7 242.7 237.4 231.1 226.7 218.5 207.6 194.8 191.6 182.2 176 166 160.7 151.3 145.8 139.4 131.7 130.5 132.2 134.9 130 127.2 124.3 122.5 128.7 144.4 155.8 163.8 171.1 178 188 197.3 203.7 206.8 212.1 209.4 212.2 205.5 206.3 201.7 193.7 194.4 197.9 199.1 201.1 199.8 197.6 188.4 179.7 170.7 164.9 164.3 160.6 153.1 151.3 147.6 145.6 141.8 136.2 134.6 134.6 136.7 136.4 132.8 130.9 130.4 128.9 123.3 114.7 104.8 96.1 88.2 78.7 67.3 58.1 56.8 56.5 56.5 55.9 54.7 68 63.6 55.9 51.3 52.1 51.6 50.9 50.8 50.8 51.8 52.5 53.4 53.4 52.6 53.3 61.9 68.1 69.2 81.2 81 78.3 78.8 78.4 77.9 73 78.9 85.3 85.7 86.4 83.1 88.7 94.8 99.8 104.3 104.1 104.3 107.8 111.8 118.9 123.3 127.1 129.3 128.6 125.6 122.9 120.3 120.8 126.7 132.9 140.5 145 147.8 150 153.6 157 159.5 160.7 165.4 175.1 181.6 184.3 185.9 187.9 189.1 192 192.7 191.6 189.8 187.8 185.1 183.9 181.1 179.7 178.3 176.1 174.3 171.7 169.3
153.7 153.3 152.6 154 154.2 159.4 150.8 139.5 135.2 132.4 130.3 129.2 127 124 125.6 130.3 151.6 171.1 183.2 193.4 198.5 209.4 223.1 232.9 235.9 250.9 255.4 260.5 270.7 281.4 286.8 290.7 288.6 288.5 279.2 271.5 262.7 258.2 253.6 249.4 244.6 243 243.4 239.8 235.2 231.8 225 220.9 209.6 210.1 200.3 189.6 182.5 170.8 165.2 161.4 155.5 146.5 139.5 137.2 137.4 135.2 134.2 133.5 134.2 123.8 135.2 149.8 162.2 168.2 175.2 181.7 190.2 201.1 208.9 205.5 208.1 208.2 214.8 207.7 205.2 211.6 199.6 197.2 202.2 203 204.1 200.1 196.4 188.2 182.9 174.5 167.6 163 158.5 152.8 150.9 151.4 147.4 142.4 138.3 134.8 136.7 136.7 137.2 134.1 132.3 131.7 130.3 126.1 117 107.2 98 88.4 78.1 69.1 62.2 64.2 59.1 58.9 61.3 67.3 69.1 62.1 56.9 49.5 52.3 51.7 51.1 50.9 50.8 51.7 53 53 52.4 51.6 52.8 67.6 67.5 69 69 74.2 74 75.4 76.4 77.1 73.7 77.4 82 84 86.1 82.9 86.6 91.6 96.5 101 101.4 100.5 104.5 106.9 114.2 119.4 124 126.4 127.2 125.8 123 120.1 119.5 120 126.8 133.9 139.4 143.8 146.6 152.1 153.7 155.3 156.4 161 170.9 177.4 180.7 183.2 185.2 187.4 189.4 191 189.9 188.6 186.5 184.9 182.9 181.1 179.4 177.9 176.2 174.2 172.2 170.3
159.9 157.2 155.2 150.3 146.8 136.9 137.9 139.1 140.5 135.1 132.8 130.4 129.2 127.1 121.5 128 157.8 168 185.2 195.9 202.8 209.2 222.6 233.4 242.4 253.3 258.6 264.9 276.8 287 287.9 292.4 292.7 287.8 279.6 272 262.2 255.7 248.5 244 241.6 239 239.3 236.2 233 229.8 225.5 221.2 213.3 214.9 202.3 195.3 184.7 175.5 172.6 165 159.3 152.8 144.6 138.9 138.5 138.8 137.8 136.3 129 128 141.5 155.6 166.6 172.8 177.2 183.6 189.3 196.2 200.6 204.5 204.9 205.2 215.9 211 203.1 206.7 202.5 200.1 200.6 201.8 203.6 199.5 192.9 188.4 183.4 175.7 169.8 163.7 158.5 152.1 150.7 149 148.5 140.5 137 136.7 139.7 138.9 137 136.1 135 134.1 133 128.7 119.7 110.8 102.2 94 82 72 63.6 69.8 64.9 61.9 64.7 67.5 68.9 62.5 56.8 49.3 51.9 51.5 51.2 51 50.5 50.9 51.7 51.9 51.8 49.8 57.8 67.6 67.8 68.3 67.8 69.3 70.7 73.7 75.8 76 71.8 75.9 80 83.2 85.1 80.3 85.3 88.7 92.6 95.9 98.7 97.7 100.8 105.4 107.4 116.2 121.5 123.4 124.7 123.3 121.4 120.5 118.3 118.3 121.2 130.3 137.1 140.9 142.8 146.5 149 151.2 151.7 156.4 167 173.9 176.5 179.5 182.5 185.5 187.1 189.3 188.6 187.3 184.8 182.4 181.5 179.9 178.2 177.4 176 173.6 171.4 169.6
175.6 172.5 164.6 160 161 159.9 158 156.3 147.6 142.3 134.7 138.4 133.7 128 124.5 128 159.2 166.1 182 193.1 202.9 216.1 225.2 235.7 247.1 252.5 263.8 272.9 275.6 284.9 291.5 294.8 296.1 287.4 281.6 275.7 265 255.3 245.7 240 237.5 236.3 236.3 233.5 231.5 230.7 230.5 226.2 218.4 215.2 207.8 201.1 190.5 181.2 175.9 167.5 163.4 157.4 149 143.5 142.7 142.6 140.1 138 131.7 133 146.9 160.1 169.5 174.6 180.5 186.5 191.4 193.6 198.2 205.7 206.6 207.1 210.9 215 205.9 206.1 206.1 206.7 204 200.1 199.5 195.5 195.2 189.1 182.6 176.7 170.2 162.9 157.5 152.9 151.7 149.2 147.6 142.7 138.2 139.2 140.8 141.3 141 139.2 138.2 137.5 135.8 131.4 123.7 113.5 103.9 95 86.8 75.4 67.2 69.4 65.5 62.8 64.2 67.4 68.7 63.9 57.6 48.9 51.7 51.2 51.1 50.7 50.5 50.6 50.8 51 51.7 51.1 62.1 64.8 66.8 67.3 68.4 67.5 68 70.7 74.1 72.5 71.4 74.9 78.5 82.3 83 78.1 86.1 86.1 89.6 93.1 95.5 96.9 96.8 98.1 105.2 111.3 116.9 121.1 120 119.1 120.9 119.4 117.7 117.7 118.2 123.8 132.7 137.1 139 141.9 145.7 147.5 148.1 151 159.5 170 173 176 180.3 183.4 184.2 186.6 186.1 185.2 183.4 181.4 179.1 177.4 176.6 176.1 175.3 173.7 171.9 169.2
191.8 185.4 178.7 175.7 170 166.7 167.5 162.3 155.7 149.2 141.5 135.6 131.2 128.4 124.4 126.8 154 167.1 178.1 188.8 204.6 217.6 226.3 238.1 245.7 257.9 268.3 273 277.9 284.3 293.1 297.6 294.3 293.1 288.3 281 266.8 257 246.8 238.9 235.1 233.3 231.6 230.5 230.7 233.3 234.8 229.5 223.8 217.8 210.1 204.4 196.1 184.7 178.2 174.9 168.3 162.8 152 146.1 145.5 145 144.1 140.5 135.6 139.6 151.4 164.1 170.4 174.9 181.3 188.4 192.3 191.5 196.3 205.6 216.5 213.2 212.9 214.2 211.7 206.3 210.9 212.8 205.9 201.3 199.3 200.8 197.7 191.7 184.8 178 171.1 163.6 153.7 153.1 154.1 154.5 152.2 144.4 139.8 139.8 142.1 144.2 145.2 145.2 142.3 141.1 138.2 133 124.7 115.4 107 99.3 90.3 79.3 70.9 70.1 67.6 65.6 64.4 67.5 68.5 66.2 58.3 48.6 51.6 50.8 50.6 50.6 50.5 50.4 51.1 51 51.1 50.8 53.4 60.1 64.7 66.3 67.3 68.2 67.4 67.7 70.4 69.9 74.3 74.3 75.7 79.6 76.1 78 87.2 86.2 86.4 90.4 94.1 94.9 95 96.3 99.7 105.5 111 113.4 115.2 115.2 118.5 116.7 116.1 116.6 117 116.4 126.9 133.1 135.8 138.5 141.7 144.2 145.7 144.7 151.1 158.7 164.9 168.9 176 180.6 182.4 182.9 183.3 182.4 181.6 180.2 178.1 176.3 175 174.7 174.2 173 171.3 169
205 197.5 192.2 186.7 179.7 178.6 176 173.4 158.8 150.7 144.9 140.9 132.7 126.7 124.7 122.6 141.3 162.6 177.7 189.1 202.4 215.2 223.3 232.3 243.3 257.3 270.3 273.8 275.4 282.4 293.2 296 295.6 296.6 294.4 285 274 259.9 248.5 239.2 233.9 231.4 229.3 227.4 229.1 234.5 235.2 232.6 230.4 219.5 214.3 206.9 200.4 189.1 180.8 181.1 174.6 164.5 153.9 150.5 147.5 145.8 146.1 142.5 140.8 146.3 156.3 166 173.2 177 183.9 187.6 183.5 191 199.4 207.3 212.8 216.7 215.2 215.1 210.4 212.8 214.9 217.7 216 209.6 205.3 200.2 202.5 193.6 186.1 179.5 171.8 162.1 156.4 153.3 156.9 159.1 154.3 146.9 144.2 141.8 144.4 146.7 149 148 146 143.7 139.6 134.4 126 117.7 108.1 101.6 91.6 82.7 74.3 70 68.4 67.6 66.9 67.8 69.4 70.1 64.7 53.7 48.5 51 51.1 50.4 50.3 50.3 50.7 50.9 49.4 51.7 50.7 55.3 65.7 65.6 66.3 67.2 67.8 66.9 67.7 69.5 73.1 73.6 73.7 74.1 70.9 75.9 84.6 88.2 86.4 87.5 90.6 91.6 92.9 95.4 97.7 100.9 104.3 111.7 119.6 119 116.3 116.3 115.7 116.1 116.3 116.4 118.2 129.8 132.8 136.3 138.5 141.3 143.1 140.2 149.5 153.5 158 163.1 170.7 176.4 179.5 180.4 179.6 180.1 179.4 178.7 177 175.2 173.7 172.9 173.2 172.1 170.7 169
217.9 210 204 198 190.6 185.3 180.3 176.3 161.6 153.6 148.7 145.3 136.4 127.6 125.1 119.1 133.8 159.5 174.1 186.5 196.9 210.2 219.3 232.4 243.8 255.4 265 270.2 280.1 281.1 289.9 295 300.3 297.2 293.9 287.3 278.1 265.9 252.9 240.8 233.9 230.6 227.6 226.4 228.8 232 234.5 235.9 231.3 222.3 217.7 211 204.5 192.8 187 181.3 174.1 166 158.2 155 149.5 148.6 145.8 144.6 147 153.1 163.1 168.9 178.6 181.6 185 184.2 189 199 205.3 211.3 212.7 212.3 209.4 218.9 215.9 219.1 222.5 220.2 214.6 212.7 210.7 209.4 202.2 192.4 187.3 180 171.6 161.2 157.3 156.5 160.3 160 154.2 150.4 149.5 145.9 146.9 149.2 153.1 152.9 149.5 147.2 142.2 136.6 129.2 121.2 111.5 100.8 93.1 86.1 78.5 70.9 69.2 67.7 66.9 67.5 68.6 71 68.9 58 48.5 48.5 48.5 49.9 50.8 50.1 48.3 47.6 47.6 48.7 49.3 54 64.5 65.2 65.4 65.7 67.3 66.5 66.6 68.4 71.6 72.8 72 70.2 70.9 75.5 80.2 87.2 87.3 85.5 87.4 88.4 91.9 93.7 95.8 98.3 102.8 109.2 121.5 124.7 122.4 117.5 115.7 115.6 115.7 115.7 116.2 123 129.4 133.8 137.1 138.4 140.1 136.7 145.1 150.8 156 160.4 166.6 172.3 174.9 175.8 177.4 177.3 177.5 176.6 175.2 173.4 171.8 170.5 170.3 170.4 169.7 168.1
231.5 221.3 214.3 206.8 198.9 195.5 187.3 177.2 166.6 158.5 152.7 146.9 139.7 127.7 125 119.7 128.5 147.1 168.1 182.7 196 207.1 217.4 232.1 245.5 251.7 257.3 265.8 272.9 281.7 286.1 293.7 298 295.8 287.9 283.9 278.4 268 256 244.9 237 230.8 226.3 225.5 228.2 230.5 233.5 233.5 229.7 224.2 219.5 213.4 205.5 197 190.7 184.3 176.9 167.5 161.2 159.2 152.3 148.8 146.9 146.6 150.7 162.6 167.8 173.8 181.7 183.5 185.2 185.5 193.1 199.8 204 211.1 212.6 207.4 207.8 217 221.8 224.1 225.1 221.7 216.9 214.5 217.9 214.5 205.2 192.3 186.2 176.8 169 163.1 158.9 158.6 160.3 161.4 155.2 153.4 152.2 148.5 149.9 154.2 152.7 156.1 153.5 150.7 146 141.7 132.8 124.1 114.5 102.9 95.2 88.1 80.4 73.2 70.7 68.2 67.4 67.3 67.5 71.8 70.8 60.6 51.1 51.4 50.7 50.9 50.5 48.4 50.9 50.7 50.8 50.3 46.9 51.6 65.9 64.8 65.2 65.4 65 67.5 67.6 67.5 69.9 72.6 71.7 69.9 70.7 75.8 78.7 82.1 85.1 84.3 84.2 85.2 87.4 90.3 92.9 96.1 99.6 102.7 118.1 127.4 129.1 126.1 118.3 115.3 115 114.8 115.4 116.9 123.9 130.6 133.4 134.8 136.6 133.5 141.8 147.2 153 157.4 163.8 168 171.1 171.9 173.7 174.5 173.8 174.1 172.5 171.5 170.2 167.7 167.5 167.5 167.4 166.6
244.3 233.6 228.2 216 205.4 201.9 192.3 182.4 173.5 163.7 153.4 147.1 141.1 127.1 123.8 117.2 126.2 145.7 165.1 178.3 192.3 203.3 218.9 235.2 244.4 247.9 251.5 256.2 266.7 275 282.9 292 294.8 290.6 284.3 280 273.7 266.4 257 246.6 238.2 230.4 225.4 225.3 226.1 228.3 230.2 227.4 227.1 222.6 219.7 214.3 206 199.3 191.3 184 179.4 169.1 166.7 158.3 156.3 153 149.3 149.3 154.7 162.5 170 177.8 184.5 186.4 185.3 191.7 198.6 202.4 206.4 210.5 207.6 206.9 213.3 225 222.9 223.7 222.4 220.1 217.1 215.1 213 210.7 203.9 196.7 185 180.9 173.5 170.8 162.8 160.8 162.4 164.6 156.7 154.9 152.6 153.4 154.9 157.7 158.7 156.8 155.2 152.5 149.9 145.2 136.3 126.5 115.3 104.4 97.2 89.9 82.2 75.1 71.4 68.5 67.6 66.6 67.3 71.4 72.8 63.1 52.2 51.4 51.5 51.6 51.6 51.2 50.9 50.5 50.1 50.3 49.7 46.9 57.2 65.2 64.3 64.1 64.9 65.7 66.9 66.4 68.2 72.7 71.7 69.2 70 74.3 74.7 77.5 80.6 81.4 81.7 82.2 84.2 86.1 88.6 92.7 96.4 101.5 106.5 121.4 128.4 132.8 129.8 119.6 115.3 114.1 114.2 115.9 119.3 125.3 131.6 132.7 132.1 132.3 138.6 144.9 150.6 155 159.9 163.7 167.4 168.4 170 170.8 170.6 169.6 168.4 168.3 167.6 165.8 164.2 164.7 164.4 164.6
254.1 242.1 235 225 218.7 206.5 196.1 184.3 176.9 167.7 157.6 149 139.6 126.6 125.1 116.2 124.7 144.3 158.8 174.4 188.1 203.5 222.4 230.6 239.4 245 249.6 252.9 258 270.1 282 289.2 287.9 284.3 281.4 278 271.6 262.7 254.6 246.3 237.2 228.7 224.2 224.2 223 224.3 223 223 222.9 219.3 217.7 214.3 211 199.4 192.4 187.2 180.8 174.7 166.4 159.6 157.1 154.2 152.7 152.8 157.8 165.2 169.7 180.6 187.7 190.1 190.3 194.6 200 204.8 206.9 207.9 207.3 208.6 222.9 225.7 220.8 223.4 220.2 218.1 215.2 212.3 212.1 206.7 202.5 196.5 187.6 181.3 177 173.3 164.8 162.1 163.6 163.7 158.4 155.7 155.6 155.3 157.5 161.7 159.8 158.2 155.1 153 151.6 146.1 137.9 129.4 118.1 110.7 103.2 93.5 85.7 79 71.4 68.7 67.4 67.1 66.6 70.2 71.4 64.5 54.7 50.5 51.1 50.6 50.8 50.9 50.9 50.5 50.2 50.1 49.9 47.5 52.8 55 63.6 61.2 63.9 65.2 66.6 66.7 66.9 70.9 69.5 68.2 71.4 73.1 72.4 73.7 76.2 78.4 80.2 80.8 81 84.2 88.3 89 93.4 96.9 102 108.7 124.2 132.3 132.7 129.1 119.6 114.5 114 114.3 115.9 119.4 127.3 130.3 129.5 130.8 135.7 140.4 145.1 152.9 156.8 159.5 162.5 164.2 165.9 167 167.5 166.3 165.4 164.2 163.6 163.2 162 161.9 161.8 161.8
258.7 249.5 240.8 228.8 224.4 213.2 201.9 189.5 179.8 169.7 160.7 151.4 141.8 133 124.5 119.5 124.3 140.2 157.5 171.8 187.8 203.1 217 226.6 234.3 241.1 246.4 250.8 255.1 268 279.5 284.4 281.9 279.9 279.1 278.9 275.2 265.5 255.5 243.5 236.5 229.7 222.5 218.5 218.4 214.8 214.9 217.1 220 217.2 211.8 213.1 210.6 200.5 193.2 188.1 182.2 178.7 168.7 163.4 159.2 158.5 157.5 155.8 161.7 167.3 172.6 180.7 186.3 193.1 193.3 197.2 201.4 205.4 207.4 208.7 209.6 209.1 220.8 221.6 215.5 219.9 218.6 214.3 211.7 209.6 207.1 205.9 200.9 195.4 188.8 178.4 171.9 167.5 163.3 162.7 162.2 161.3 159.7 157 158 157.9 160.5 164.5 162.2 159.8 154.7 154.2 152.1 146.9 139.8 130.8 121.7 115 104.3 98.3 90.5 82.6 71.1 68.2 67.5 66.7 66 68.5 70.6 66.1 57.3 49.9 50.8 50.8 50.4 50.6 50.3 50.4 50.2 50.2 50 47.3 53.2 52.9 62 61.1 64.8 64.4 66.6 66.4 66.1 66.9 68.3 72.3 73.1 73.3 71.6 72.5 74 76 78.7 79.6 80 82.7 85.2 87.7 89.2 93.4 98.4 101.9 114.2 128.5 133.9 131.1 126 117 114.1 113.8 114.1 115.4 122.4 127.9 128.7 127.6 131.2 135 138 145.8 152.8 155.4 157.9 160.4 161.2 162.6 163.4 163.9 161.9 160.2 159.6 159.7 159 158.1 159.3 159.1
259.4 251.9 241.1 233.7 227.7 219.4 206.3 194.4 183.7 171.4 160.2 150.8 141.3 132.7 126.9 120.3 122.4 140.9 157.3 170.5 185.4 199.3 213 222.7 231.2 239.2 244.5 249 255.9 267.9 277.8 280.8 281 282 281.1 279 271.4 263.3 255.6 244.9 236.5 229.9 225.8 217.5 213 208.5 206.8 211 213.2 210.4 206.2 207.9 206.5 202.5 195.2 188.6 185.9 181.4 171 164.7 163.4 162.6 161.3 159.3 163.6 168.5 174.2 178.6 184 191 195 199.5 203.5 208.9 212.5 215.7 216 209.7 217.6 217.3 214.7 214.1 214.6 212.1 211.2 209.2 207.1 202.2 198.2 194.3 187.1 175.7 172 168.2 166.7 167.3 164.3 162.4 159.4 159.5 159.6 159.6 162.6 163.9 161.1 159.5 154.8 153.5 151.5 147 140.4 131.9 124.8 119.2 110 102.3 87.2 81 71.7 68.6 67.6 66.7 66 66.8 69.2 66.6 58 50.3 50.1 50.6 50.1 50.2 50.3 50 49.8 50 49.6 46.6 50.8 53.2 54.9 63.1 64.7 64.2 64.5 65.3 66.1 67.1 69.5 71 71.9 72 71 71.7 73.2 74.8 76.4 78.4 77.8 77.4 80.1 83.6 85.6 87.8 94 100.2 104.5 119.2 129.8 133.2 131.2 122.6 114.7 114.2 113.7 114.9 116.5 125 127.2 126.4 125.5 129.7 136 141 148 151.5 153.2 155.2 156.3 158 160.7 160 159.1 157.7 156.3 155.7 155.8 155.1 155.8 156.3
253.8 246.9 238.5 234 227.6 220 210.1 198.7 185.7 172.2 157.8 149.6 139.2 129.9 126 121.5 116.9 129.1 153.7 172 188 199.8 214 223.9 232.2 240.8 248.2 254.9 261.9 273.4 282.5 282.1 285.2 284.5 283.4 278.2 271 263.3 255.8 249 237.7 229.2 224 218.8 212.7 208.4 205.8 204.3 204.4 200.3 199.5 201.2 202.2 199.8 195.9 189.1 186.4 183.1 174 167.2 166.2 164.7 165.9 164.7 165.3 169.5 173.9 179.6 183.9 191.1 198.6 203.6 207.5 212.2 216.2 220.4 221.5 211.1 214.8 214.8 213.4 211.1 211.4 212.7 210.8 207.1 205.5 201.2 198.2 193.5 187.5 174.9 172 168.4 169.7 169 163.1 162.1 163.3 162 161 160.8 163.8 165.3 163.7 161.4 158.1 156.6 152.7 147.3 141 134.8 127.4 121.5 116.5 110.6 102.7 92.9 80.6 67.6 67.4 66.9 65.7 66.1 67.2 67.3 59.9 50.5 49.5 50.3 50 50 49.4 49.6 49.5 49.8 49.4 46.6 51.6 52.3 61.1 63.9 64 62.8 64.5 65.7 65.5 66.8 69.3 71.1 71 71 71.8 71.4 72.4 73.6 74.5 75 74 75.2 81.5 87.7 91.3 90.4 92.9 95.6 102.3 107.8 120.2 129.4 131.2 128.6 117.8 113.9 113.6 114.2 115.6 118 124.7 125.5 123.9 125.1 131 135.8 140.6 148.5 149.1 151 152.2 155.4 156.9 156.5 155.5 155.1 154.3 152.8 152.1 150.9 152.7 151.9
245.1 241.5 236.2 232.4 225.8 218.5 210.4 199.5 186 171.8 154.3 146.1 136.5 128.1 123.3 119.9 115.5 139 155.2 170.9 189.9 206.4 218.4 228.3 238.9 250.4 258.9 265.2 272.8 282.7 288.2 288.9 290.6 288.4 283.3 276.9 269.2 263.4 255.9 247.2 237.5 232.8 228.9 223.7 217.8 214.5 209.5 207.1 202.7 198.2 197.3 195.6 195.7 194.7 191.6 188.7 185 182.6 175.9 170.4 168.9 168.3 165.2 161.6 164.4 169.3 174.5 180 182.4 185.9 192.9 200.7 206.5 212 216.4 219.3 221.6 216 212.2 213 211.6 211 209.5 207.5 210.9 211.5 203.8 201.2 196.3 191 185.2 176.6 172.2 169.7 170.1 168.2 163.6 162.4 164 164 162.8 161.5 164.1 166.7 166.6 163.9 159.3 156.4 152.7 147.8 141.7 135.2 130 123.5 119 112.7 105.8 99.6 87.8 71.5 66.4 66.4 65.8 65.5 66.6 66.5 61.7 52.1 49.8 50.3 50.1 49.8 49.5 49.3 49.3 49.3 49.3 46.6 49.3 53.2 64.9 63.5 64.5 63.6 64.3 65.7 66.8 68.5 68.6 71.5 72 71.5 72.2 72 72.3 71.9 71.9 71.6 71.8 73.9 82.8 90.6 94.9 94.8 95.3 94.7 98.8 103.5 110.8 120.5 127.6 128.8 123.5 116.6 115.8 113.8 115 117 119.5 123.2 124.1 122.3 127.4 132.1 135.5 140.6 145.5 147.1 148.3 150.1 153 153.5 152.9 152.1 151.9 150.6 149.1 146.8 149.2 149.6
235.7 232.2 228.9 227.8 222.7 216.7 210.2 199 184.9 168.2 152 141.9 133.4 125.1 121.2 118.5 119.6 144.2 162.9 177.1 196.5 210.7 221.5 233.7 248 258.1 270 277.1 286.1 293.3 296 294.5 294.9 288.9 281.5 274.8 267 260.7 253.1 242 238.3 236.5 233.5 231.6 228.4 225 218.7 215.6 209.1 203.4 200.1 195.5 193.3 191.2 188.6 186.6 185.7 182.7 176.2 171.6 171.3 172.4 166.3 162.1 161.4 168 170 173.2 176.8 182.8 190.4 195.5 201.9 208.5 212 213 210.6 216.1 213.5 212.9 211 210.5 207.6 205.4 205.9 204.8 199.5 196.7 194.4 190.5 181.7 170.8 170.2 173.5 174.1 166.6 163.6 161.9 165 167 164 162.1 164.9 167.2 167.5 165.1 160.7 156.6 151.9 148.1 140.2 132.6 129.7 125 120.2 113.5 106.2 102.1 90.3 76.4 66.9 66.4 65.3 64.7 65.8 65.7 63.5 54.6 49.9 49.6 49.6 49.4 49.4 49.1 49.3 49.4 49.5 46.4 49.6 57.3 64.9 63.3 63.9 63.3 64.5 65.6 65.1 70.3 70.8 71.6 72.5 74.5 74.3 74.4 73.9 72.8 71.5 71.3 71.3 73.5 80.6 88.2 93.9 96.7 98.7 99 98.9 99.6 103.7 112.3 119.6 126.1 128.4 123.8 117.2 115 114.1 116 118.5 120 121.9 121.4 122.5 127.6 131.8 135.8 140.1 142.2 143.4 146 148.4 149.5 149 148.8 148.7 148.3 147.2 144.3 145 146.4
225.6 222.7 221.5 221 215.8 213.4 208.1 197.4 183.3 166.2 148.9 138.4 129.8 123.3 120.3 113.9 125.5 150.4 168.9 185 205.8 218.1 229.4 237.8 253 264.7 276.1 287.4 294.9 299.8 299.5 300.9 295 288.6 281.4 271.6 263.9 255.9 247.1 247.4 246.4 248.8 246.4 243.2 241.6 237.3 230.1 222.5 218 208.7 205.7 201.3 196.5 194.1 191.8 188.1 185.5 181.9 175.8 171.2 169.4 167.7 163.5 163.5 162.2 166.9 169.5 169.1 178.8 184.8 188.2 191 198.3 205.6 210.5 208.1 210.6 216.2 216.9 213.3 205.8 204.9 206 200.8 198.6 195.8 196.3 193.4 192.8 190.7 178.5 174.3 169.1 172.7 171.7 166.8 163.4 162.3 165.3 168.2 164.2 163 166.9 167.4 166.7 167.7 160.8 156.2 153.1 148.4 142.3 132.9 129.1 124.4 119 113.3 104.9 100.9 91.6 79 70 66.1 64.5 64.7 64.4 64.9 63.9 56 49.4 49.7 49.3 48.5 48.9 48.8 49.2 49.1 49 46.3 49.4 53.5 64.6 63.8 63.5 63.3 64.7 64.8 64.5 70.6 71.7 70.4 71.5 72.7 74.2 75.2 75.7 74.2 72.7 71.6 71.7 72.5 79.4 86.3 92.9 96.7 99.3 99.8 98.7 98.2 101.5 104.2 111.4 118.7 126.3 127.5 121.1 115.5 113.5 115.1 116.6 118.5 119.5 120.3 119.4 122 127.4 132.1 134.8 137 139.3 141.6 143.6 145.1 145.7 145.8 145.1 144.6 142.2 141.8 142.5 142.6
214.2 213.3 213.8 212.5 210.9 208 204.5 195 181.7 162.9 148.8 135.6 126.5 121.4 117.3 117.7 128.6 152.3 170.8 190.7 211 225.5 233.4 242.7 258.6 269.3 283 293.2 300.3 302.3 304.6 300.7 293.9 287.4 279.7 273.5 265.8 259.6 258.2 256.8 262.5 261 259.9 257.8 252.5 248.6 241.6 232.4 224.4 215.9 210.1 204.2 198.5 194.5 191.5 189.3 184.3 181 179.7 175.5 171.8 165.1 165 163.9 164.2 166.3 168.4 168.2 179.3 183.6 184.5 186 194.7 205.3 206.7 203.4 206 211.8 214.9 211.6 204.5 203.5 201.1 197.9 195.9 193 192.7 192.4 193.8 184.7 175.8 169.3 167.4 172.5 169 166.6 164.1 162.6 165.2 166.9 162.8 163.7 167.8 166.6 167.8 166.1 162.7 155.6 152.2 148 143.2 136.5 128.2 123.3 118.6 111.8 104.3 98.1 90.2 81.6 72.6 66.3 63.9 64.1 57.9 57.7 61.2 55.7 49.7 49.9 49.3 49.9 49.5 48.5 49.1 49.3 49 46.3 49.7 49.8 56.7 63.8 63.3 63.4 63.8 64.6 63.4 65.9 69.2 71.1 71.3 72.6 73.1 76.6 76.3 75.4 73.7 71.7 71.3 72.2 78.3 85.5 90.8 96 98.1 99.1 99.6 97.9 97.3 98.2 103.5 112.7 119.4 124.5 124.4 120 114.9 113.3 114.7 117 118.5 118.5 118.8 119.1 123.5 126.8 129.5 132.4 134.7 137 138.8 140.6 141.6 141.4 140.7 138.6 138.5 138.7 141.5 140.3
203.9 203.7 205.8 204.3 203.4 202.5 199 190.3 178.2 160.9 147.5 133.8 124.5 120.6 112.4 119.6 132.8 158.5 179.3 199.1 216.5 232.4 239 250.2 261.7 274.3 288.9 298.2 303.2 302.9 303.3 298.4 294 288.1 280.7 277.4 276.4 272.2 271.8 272.2 276.3 275.3 274.9 272.8 262.2 254.9 248.9 236.7 229 221.9 214.2 207.1 201.2 197 193.2 188.6 187.8 180.7 177.7 177.9 172.9 165.6 164.1 164.3 163.1 164.4 166.9 169.6 178 178.6 182.2 186.7 193.3 205 197.6 197.4 201 205.3 209 209.8 203.2 201.7 201.2 199.1 198.5 194.7 188 188.7 189.7 177.8 171.1 168 168 172.9 167.2 166.7 165.4 164.6 165 166.4 165 165.8 167.5 167.7 167.3 166.7 162.9 157.7 151.7 147.2 143.4 137.9 129.6 123.1 119 113.5 105.6 98.3 89.3 76.8 70.9 66.3 63.1 59.4 56.5 55 56.2 54.5 53.1 51.5 51 51.7 50.9 48.4 48.9 49.5 46.2 49.4 49.1 48.6 52.3 60.7 63.7 63 64.1 64.1 66.7 69.4 70.9 71.7 72.7 75.2 71.7 74.7 76.8 75.4 72.7 71.8 71.2 72.4 76.7 84.3 90.4 94.6 97.4 98.5 98.6 98.1 97.1 97.4 101.3 105.8 113.7 119.2 124.4 124.2 120 115.2 113.7 115.6 116.6 116.3 118.6 117.9 120.9 123.3 124.9 127.3 129.7 133.6 134.6 135.5 137.5 137.8 136.6 135.3 136.4 137 138.3 138.4
196.8 195.3 193.5 197.2 197.6 196.8 194 185.9 175.8 158.8 143.2 129.8 122.4 118.3 114.4 122.2 139 166.9 190.9 207.5 224.7 236.4 248.8 255.7 267.1 281.4 293.2 301.6 303.6 300.1 297.2 294.7 291.4 288 284.4 283.6 283.9 282.8 284.5 288.6 290 289.2 284.1 275.6 265.7 257.1 248.6 240 230.9 223.3 215.1 209.4 201.9 197.2 192.5 189.9 188.3 181.9 179.7 178 173.1 166.5 164.8 165.6 165.1 164.5 167.8 169.4 171.3 175 182.1 187.7 192.2 197.4 193.9 198.3 201.5 201.4 203.4 207.7 202.9 201 199.1 200.5 189.5 188.7 188 186.6 184.5 179 172.8 167.8 167.7 166.6 165 167.2 166.7 165.8 164.8 165.4 167.6 167.9 169.1 169.1 168.1 166.4 161.9 157.3 151.6 146.3 141.9 137.9 130.7 123.7 119.7 114.8 109.5 101 91.4 83.1 73.7 67.3 61.9 58.2 56 55.2 55.5 54.5 54.5 54.5 53.8 52.6 50.9 48.3 49 47.2 47.7 49.4 49.1 49.2 52.2 58.5 63.3 63.1 64 63.3 66.3 69.3 70.4 73.6 75.6 75.2 75.1 72.1 73.4 72.5 70.4 71.4 72.6 74.6 76 82.5 88.3 92.7 95.5 97.2 97.1 97 96.5 93.8 97.5 102.7 107.1 113.7 120 124.2 123.6 119.8 115.1 111.9 115.6 114 117.3 117 117 117.6 119.9 120.9 123.7 128.5 130.4 131.6 131.7 133.8 133 133.6 134 134.5 135.3 135.8
191.3 186.4 184.3 188 188.8 188.1 186.4 179.4 169.7 156.8 141.4 126.7 118.2 113.7 116.5 125.2 148.7 176.3 201.3 216.4 230.8 246 257.6 262.4 275.1 287.6 294.4 301.4 296.2 294.4 292.5 291.2 288.9 285.2 285.3 286.2 290.3 296.6 297.7 297.3 298.5 295.5 285.2 276.2 270.9 262 249.2 238 229.4 222.9 215.6 208.8 201.5 196.4 193.6 189.3 185.5 180.7 178.7 176.2 170.5 168 165.5 165.8 165 164.4 165.6 166.7 170.8 171.5 180.5 190.5 193 189.4 192.7 196.7 198.2 199 199.8 198.1 198.4 197.3 198.4 200.2 192.2 192.3 190.8 188.2 188.3 180.4 168.8 169.2 168.1 166.2 162.5 165.9 164.2 164.6 164.3 165.2 167 167.8 168.1 167.6 167.2 165.5 162.5 157.3 152.2 147.5 141.2 136.5 128.9 125 120.6 116.1 111.4 103.1 92.7 84.7 77.1 69.7 62.7 57.6 56.2 54.8 54.9 54.8 55 54.9 55 53.4 50.5 49.1 48.7 45.9 49.4 49 49 49.1 49.2 57.5 63.1 62.7 63.1 63.3 63.8 70 71 73.5 75.4 77.1 76.5 71.8 72.1 70.7 71.5 72.5 73.8 73.8 75.3 80.2 85.2 89.3 91.3 93.4 94.8 95.7 95.5 93.4 97.4 99 103.1 106.7 112.5 120.7 122.3 121.1 117.2 114.8 111.6 113.7 113.9 114.7 114.8 114.9 115.5 116.5 118.6 121.5 123.7 126.9 128.4 129.7 130.1 131.1 130.5 131.8 133.1 134.1
195.9 190.1 184.9 179.2 176.3 178.1 176.7 171.7 164.6 152.9 139.6 124.3 115.4 111.2 120.1 131.7 155.6 180.4 204.4 218.8 240.6 254.5 261.8 270.9 282.5 292.7 295.4 294.9 288.8 288.3 288.3 288.1 284.7 281.3 282.1 286.3 295.5 298.2 300.4 299.2 300.2 295.2 289.5 280.1 272.6 263.1 250.7 239.2 229.5 220.1 214.8 206.9 199.8 198.1 192.1 186.2 186.3 181.3 180.8 174.7 169.2 165.9 164.4 165.4 164.6 164.5 165.8 166.3 167.5 171.5 178.3 184.1 184.7 185.1 193.1 198.5 195.1 196.4 196.9 194 198.3 197.5 196.8 195.4 195.3 194.2 191.2 189.5 187 176.7 170.4 172.8 168.1 165.3 161.2 162.9 161.6 164.2 165.6 165.6 167.6 167.9 168.6 168.7 168.3 164.8 161.6 157.7 152.6 147.2 140.2 135.3 130.1 123.5 119.6 116.2 111.2 103.9 95.9 87.3 80.1 70.9 59.9 55 55.4 54.6 54.8 54.9 54.8 54.7 54.4 54.1 50.9 48.9 45.5 48.6 49 48.6 48.6 48.2 50.3 62.5 62.2 62.4 63.1 62.5 63.5 67.6 71.4 73.9 76.4 77.8 76.8 75.1 72.7 72.1 71.9 73.1 74.3 74.7 74.2 76.9 82 85.5 85.5 89 92 93.8 94.2 93 92 97.5 100.6 103.7 106.4 114 121 122.4 118.5 113.6 110.6 110.2 111.2 111.8 112.1 112.5 112.3 112.8 114.6 116.1 118.9 121.2 124.1 126.6 127.4 128.8 128.3 128.1 130.7 131.8
196.5 190.9 183.5 180.3 179 169.2 166.7 164 158.8 148.6 135.5 122.7 113.1 115.2 123.8 139.5 160.5 187.2 208.4 225.8 244.9 254.3 267.5 280.1 287.5 291.8 291.1 284.1 279.1 280.7 284.6 282.9 280.3 278.8 278.7 282.5 288 297.2 301.5 303.7 303.7 297.8 289.7 280.7 271.5 258.7 252 240.2 229.9 215.9 209.8 202.5 197.6 194.5 190.6 186 185.2 179.1 177.1 175.8 167.9 165.9 165.3 165.2 165.9 166.1 165.9 166.5 168.3 171 176.3 180.7 185.5 190.2 195 199.5 194.6 198.1 195.1 194.6 195.9 193.2 194.6 193.5 196.9 192.7 188.8 189.6 183.6 174.1 176.3 176.1 166 158.6 160.8 159.2 159.1 163 164.7 166.9 167.2 168.7 169.8 169.2 168.5 164.6 162.5 157.8 152.1 146.2 140.3 135.4 131.7 127 120.4 116.4 111.4 105.6 97.4 90.6 81.4 71.3 62.3 60.1 54.7 54.3 53.8 54.4 54.4 54.2 54.1 54.2 52.9 49.2 46.9 48.5 48.7 48.3 48.9 48 52 63.4 62 63 62.9 63.6 63.8 66.8 71.3 74.1 75.7 76.3 75.6 76.5 75.4 72.5 70.6 69.8 71.8 72.4 73.2 74.1 78.2 82.1 83.1 86.3 90.2 92.2 93.8 93.3 92.2 92.1 97.2 101.2 102.3 106.6 115.4 120.7 117.9 115.9 112 108.1 108 109.5 109.9 110.1 110 109.8 109.8 112.7 115.1 114 118.3 121.1 122.9 125.7 126.2 125.1 127.2 129.2
195.8 190.5 183.6 179 175.5 170.7 162 161.3 154 144.1 130.7 119.3 110.3 116.3 124.7 144.5 168.9 193 213.4 230.4 245.6 258.9 275.4 280.2 281.7 281.5 275 271.1 272.4 278.7 282.6 281.5 277.5 275 272.9 272.9 277.9 285.8 291.9 299 299.1 296.7 292.3 284.4 272.1 262.8 249.6 239.5 228.8 220.3 206.8 204.1 195.2 190.3 192 187.1 185.3 180.6 175.4 171.2 168.1 164.8 163.3 165.1 166 166.7 165.5 166.6 168.4 168.8 174.9 179.7 181.5 185 192.6 195 194 197 197.9 191.5 193.4 195.1 193.3 199.1 195.2 191.6 186.4 185.6 180.5 177 176.5 170.7 162.3 158.4 158.5 155.7 160 161.2 164.5 165.8 167.9 168.8 168.5 169.2 168.1 166.5 163.1 157.9 152.5 145.1 139.7 133.9 130.4 124.8 120.5 116.9 112.1 105.3 99.7 90.9 82.1 71.7 62.5 58.5 54.8 54.6 53.7 54.2 54 54.3 54.2 54 53.1 51.5 44.9 48.6 48.3 48.2 48.2 47.3 51.8 63.3 62.4 62.8 62.1 63.4 63.4 62.4 71.2 72.5 74.8 76.6 75.7 74.9 74.8 73.1 70.9 69.8 68.4 69.2 70 70.4 72.4 76.4 80.4 84.1 87.2 88.7 90.1 91.4 92.3 90.9 92.7 97.4 99.6 102.3 106.9 114.5 118.1 115.8 112.5 109.6 107.3 105.9 107.3 108 108.8 106.7 107 108.3 111.3 109.9 113 115.8 116 124.9 124.3 124.3 124.3 125
196.4 192.3 183.6 176.7 174.5 167.7 161.7 148.3 149.2 142 129.1 118.5 108.7 115.4 128.8 149.7 176.6 196.2 216.5 232.9 247.7 261.3 268.9 271.5 271.8 268.2 264.6 263.4 268.2 274.7 279.6 279.2 277.1 273.6 268.8 266.7 266.9 273.1 282.4 288.3 291.2 294.3 289.7 288.9 279.8 267.5 253.6 242.2 229.1 218.5 209.2 199.3 193.4 188.4 193.3 189 185.1 178.8 172.7 172.8 169.1 165.7 163.2 163.8 168.4 170.2 166.6 169.8 167.2 170 172.2 176.6 179.9 180.8 192.7 192.2 194.1 195.7 196.9 189.7 192.3 194.9 193.3 199 192.1 191.1 188.5 185.7 184.3 180.6 173.1 166.9 162.3 159.1 160.6 157.9 155.9 159.4 162.8 163.4 166.8 169.2 167.5 168.9 167.2 166.9 163.6 158.2 152.8 147.2 139.6 132.9 128.9 124.9 120.7 115.2 109.9 103.9 99.2 91.5 82.4 71.9 63.3 57.5 54.5 53.7 53.4 53.5 53.7 53.6 53.7 53.5 52.6 52.7 44.8 48.3 48.1 48.3 47.8 47.9 57.6 62.4 62.3 62.2 62.2 63.1 63.1 62.6 70.3 72.3 73.8 75.7 76.2 74.3 74.6 73.2 72.7 71.5 69.7 69 68.7 70 70 70.6 76.3 83 85.1 85.9 88.7 90.3 91.4 90.2 90.2 91.6 96.1 98.5 100.7 104.9 113.7 115 112.7 110.7 107.9 105.7 104.3 105.6 106.6 105.3 104.1 104.5 105.7 107.9 111 109.7 112.2 117.8 118.7 121.5 122.4 122.6
194 187.9 181.7 176.7 170.5 165.8 157 147.3 136.6 130.8 118.4 114.4 109 116.8 129.1 151.9 176.2 197 217 233 247.9 256.7 259.8 260.4 258.5 254.3 253.8 257 264.7 271.8 276.6 281 276.4 271.2 266.9 261.9 258.8 262.2 270.7 281.3 284.9 292.9 295.2 293.7 285.4 273.4 258.4 252.4 236.2 223.8 213.4 203.5 193.1 186.9 192.2 189.3 185.2 175.8 176.9 174.9 171 165.9 163.1 164.2 172.7 166.5 173.1 170.3 167.2 168 175.9 173.8 176.7 178.4 187.3 190.4 190.7 193.2 189.5 187.6 191.4 194.5 192.2 192.2 193.2 192.8 188.4 182.9 179.5 173.7 171.3 165 158.9 157.6 160 153.3 153.5 157.9 160.3 162.1 165.2 168.5 166.7 167.5 166 165.3 163.4 159.1 153.4 147.2 139.3 131.3 128.5 125.6 121.1 113.9 108.6 102 96.7 91.3 82.7 71.7 62.8 60.1 56.4 53.6 53.3 53.2 53 52.5 52.9 52.7 52.7 51.5 44.8 48.3 48 48.3 47.6 47.5 50.6 62.2 62.4 62.1 61.9 62.8 62.8 62.7 69.3 71 72.6 74.2 74.2 73.1 73.1 72.7 73.4 71 70 68.3 69 69.8 71.3 68.3 69.8 78.1 81 83.2 86.9 89 90.1 88.6 88.2 90.1 90.7 96.4 97.1 100.3 106.4 112.5 111.9 110.3 108.4 107 104.2 103.3 103.5 103.8 102.7 102.6 103.3 103.9 107.1 107.3 111.1 112.9 112.4 117.3 119 120.6
190.2 185 181.1 172.7 167.3 160.1 154.7 149 141.2 135.8 125.3 113.8 110.3 115.6 127.1 149.3 175.3 195.3 211.2 226.3 238.6 245.8 248 249.1 247.6 244.3 247 249.8 259.4 269.2 277.3 280 275.7 270.3 264.4 257.8 249.7 250.6 259.6 268.5 276.2 286.6 297.8 300.2 292.8 279.1 267.1 255.1 245.2 229.2 221.3 207 194.2 186 189.7 188.3 183.9 180.1 177.1 174.7 171.2 169 163.3 162.6 171.8 167.1 174 171.4 167.5 167.7 169.9 171.3 177.1 177.9 180.1 184.9 188.4 186.8 185.3 186.1 188 191.5 194.7 193.9 192 192.3 187.7 184.8 182.9 175.9 169.2 163.6 158.7 157.3 158.8 151.2 153.9 156.1 156.5 158.5 162.7 165.6 165.2 164.6 165.3 164.4 162.5 158.6 153.7 147.8 139.8 131.7 126.7 123.4 120.2 114.7 108 100.9 95.1 88.3 79.7 70.4 63.8 62.8 58.6 53.5 52.8 52.7 52.6 52.8 52.6 52.6 52.9 49.8 48.1 48.1 48.6 47.7 48 47.9 48.9 62.4 61.7 62.1 61.4 62.1 62.8 62.7 68.1 69.5 72.8 72.2 73 72.8 71.9 71.3 71.3 71.4 71.2 68.7 68.8 69 70.1 69.3 70.3 73.8 77.2 80.6 83.7 86.6 88.2 88 86.3 86.9 86.5 89.7 95.9 95.9 99.9 108.1 111.2 109.8 107.9 107.6 105.4 103.4 103.2 102.6 101.9 101.7 101.3 100.8 102.4 104.3 106.8 107.4 109.2 114.4 116.2 117.5
189.2 186.4 178.6 172.1 162.6 153.8 151.9 148.6 140.7 133.7 126.6 112.9 108 113.5 123.8 146.2 170 188.7 203.8 216.4 224.7 232 235 237 235.7 235.1 236.9 248.6 256 265.2 273.2 277.5 273.4 268.4 262.8 255.5 247.1 241.8 251.4 258.3 266.7 279.9 291.3 299.4 294.2 285.5 272.1 259.1 248.9 235.4 223 211 199.1 188.7 183.4 184.5 183 180.5 177.8 175 170.9 167.1 164.5 162.6 164 167 170.7 171.9 170.5 167.8 169.4 173.5 175.9 177.6 178.7 182.5 185.3 184.2 184.5 186.1 188 190 196 190.9 190.7 188.8 190.3 186.5 184.2 175.8 168.8 166.9 157.1 151.3 155.3 148.8 153.8 155.1 154.9 156.2 159.2 162.8 163.6 162.5 159.5 162.3 160.9 156.9 152.6 147.8 141.3 132.6 123.2 121.5 118.8 114.6 106.8 99.1 92.5 84 76.4 69.9 65.2 63.4 59.8 53.6 52.9 52.5 52.7 52.9 52.1 52.1 51.6 48.1 48.2 47.2 47.9 47.5 48 48.1 47.4 61.2 61.3 61.8 61.5 61.9 62.7 62.2 69.2 69.3 69.4 71.6 72.1 72.3 71.4 70.8 71.7 70.9 69.2 67.2 68.4 68.7 69.9 68.6 69.2 72.5 74.5 77.1 79.7 82.7 85.5 85.7 84.7 83.4 83.8 86.3 88.2 94.6 94.9 101.6 107.3 108.5 107.5 106.7 106.3 103.9 102 100.9 101.8 101.1 100.9 100.5 100.8 101.6 103.8 105.6 106.3 109.9 113.3 116
189.7 182.2 170.8 163.5 165.9 163.6 154.7 139.3 133.5 130.3 128 118 109.5 112 116.9 132.3 154.4 173.1 189.5 202.1 208.7 216 220.2 221.8 222.7 221.2 235.7 244.3 251.4 260.3 270.1 276.1 271.8 265.9 260.1 252.3 244.7 236.5 239.8 246 257.4 268.1 279.4 285.2 283.7 284.2 270.3 259.7 244 233.6 222.8 217.3 206 194.5 180.8 178.9 178.4 178.1 178.7 173.4 171.8 170.7 165.6 162.4 162.2 163.4 171.7 171.8 173.3 168.5 169.3 175 180.2 180.3 181.4 183.5 183.4 184.1 184.1 184.7 187.6 187.2 192 195.3 186 188.5 186.7 185.2 178.6 177 171.4 161.7 152.9 149.6 149.2 148 153.1 153.2 155.4 153.9 155.1 158.3 161.8 159.6 157.3 158 158.1 154.7 150.4 146.8 141.2 134.4 125.6 119.4 117.3 113.1 107.1 99.8 90.1 82.1 77.9 74.2 67.5 62.2 56.9 53.2 52.8 52.5 52.5 51.8 51.5 50.9 48.2 48.1 47.6 44.1 48.1 47.7 47.9 47.7 47.3 60.1 61.6 61.6 61.2 61.3 61.6 66.4 70.6 71.1 70 70.5 70.7 70.2 70.6 69.8 69.9 69.4 67.4 67.3 68.1 69 69.3 70.2 66.8 67.9 71.1 74.2 75.2 78.3 82.2 82 83.1 82.5 84.1 84.7 85.3 87.2 94.6 93.6 102.8 107.3 108.4 107.7 106.6 106.5 102 101.4 101.2 100.7 100.5 100.3 100.5 101.3 102.6 103.6 103.6 105 110.8 114.8
189.7 188.9 183.3 177.4 171.6 161.9 155.6 151.1 143.7 134.3 121.8 117 110.3 110.2 113 120.7 134.8 154 171.9 183.4 189.6 198.6 205.7 209.6 210.9 219.3 229.3 239.4 245 254.4 263.5 270.3 268.9 263.7 258.5 250.4 241.5 234.5 232.1 237.4 245.9 253.4 264.9 271.2 279.2 278 268.5 254.7 243.8 232.6 226.5 220.7 214.3 201.2 191.8 182.2 176.3 175.4 175.7 176.2 171.6 170.7 168.5 163.8 162.2 166.1 173.3 171.4 173.1 170.5 168.8 172.5 178.4 179.6 181.7 183.7 184.4 184.4 184.2 183.7 185.1 187.1 187.5 195.4 188.3 183.1 186.5 181 177.4 175.7 167.9 157.6 152.6 153.5 151 146 151.8 152 152.3 150.2 150.6 154 158.2 156.8 153.8 153.8 153.9 151.8 148.3 144.5 141.5 134.5 126.6 118.9 114.9 111.3 105.2 99.8 92.5 82.9 78.5 76.3 67.5 59.4 54.3 52.9 52.9 52.4 52.4 48.6 48 47.6 47.8 48.1 47.7 48.3 47.2 47.6 47.3 47.6 47.2 58.4 60.4 59.7 60.1 61.6 66 71 71.2 70.6 71.1 70.3 68.7 70.1 70.4 69.2 69.1 69.2 67.2 67.4 68 68.9 68.5 70.1 69.5 67.9 66.9 68.1 70.1 74.4 75.7 79.9 81.2 82 83.9 83.4 82.8 83.9 88.1 93.5 98 104 106.8 107.1 107 106.9 106.2 101.6 101.5 100.4 100.1 100.1 100.1 100.7 101.3 101.4 102.7 103.2 106.6 111.7
202.1 193.1 194.7 189.9 183.1 174.5 166.5 153.2 147.4 141.6 132.3 123.7 116 109.5 111.4 113.3 121.4 137.9 154.7 163.4 172.6 179.6 185.8 196 199.8 209.1 219.3 229.2 240.9 248.5 256.5 263.6 265.2 260.3 255.5 248.6 241.4 231.8 229.9 230.6 233.1 240 249.3 259.4 263.7 267.8 257.4 252.3 242.3 238.2 240.6 234.7 219.8 215.3 199.5 189.3 181 177.9 174.8 175.1 172.2 169.4 168.2 165 163.6 164.8 168.8 168.9 170.6 170.2 169 172.1 173.9 176.7 182.3 184.4 184.4 184.4 184.4 186.5 186.7 185.8 187.8 185.5 186.9 182.2 178.7 173.3 174.6 174.5 171.1 160.5 152.5 150.1 148.7 143.3 149.7 150.1 149.3 147.2 145.9 149.9 152.7 153.5 151.7 152 149.5 148.4 143.4 140.3 139.5 135.1 126.7 120.5 112.5 108.1 103.5 98.6 92.1 83.2 75.5 75.6 62.2 57.1 54.3 53 52.6 51.6 48.2 47.5 47.9 48.2 47.7 48 47.6 47.6 44.1 47.3 47.9 47.1 47 58.2 60.8 60.9 60.3 69.4 71.2 71.8 71.1 70.8 71.3 70.6 70 68.9 69.4 69.1 69 69.2 67.8 67.5 67.9 67.4 67.5 70.7 69.8 68.1 67.3 66.5 67.1 69.6 73.6 76.6 79.5 80.1 82.5 82 81.8 82.9 84.5 91.7 93.3 100.4 105.5 108.5 106.7 107.1 108.7 104.5 101.3 100.3 100.2 99.7 99.6 99.7 99.9 100.2 100.9 101.7 103.6 107.7
213.9 208.5 204.8 201 195.1 188.1 175.7 167.7 155.2 145.6 138.7 132.4 125.5 105 109.3 109.1 112.3 121 133.7 144.4 156.9 167.8 173.1 178.3 188 200.9 206.5 219.4 231.3 237.9 244.9 251.6 253.9 253.9 252.1 244.9 238.4 230.3 227.1 224.8 224.6 231.5 237.1 249.2 256.4 256.7 255.5 249.9 254.9 259.9 257.4 249.7 232.5 218.5 202.4 190.7 189.5 182.7 174.1 173.5 171.2 169.6 168.4 170.4 166 163.5 165.6 166 165.2 170.8 167.4 171 174.6 179 182.3 183.5 184.4 184.4 185.9 189.6 186 185.8 190.9 190.8 192.8 189.1 184.7 178 173.1 172.2 170.5 166 154.5 149.8 145.4 140.7 147.4 147.6 146.2 144.9 144.2 145.1 147.4 148.9 149.3 149.4 148.2 146.3 144.4 141.8 135.3 133.8 128.6 121.5 110.5 105 103.5 97.9 90.6 79.3 79.4 77.7 67 55.9 52.8 52.4 52.4 51 47.5 48 48.4 48 47.6 47.9 47.4 47.2 47.6 44.3 46.3 47.2 46.6 56.6 60.3 59.8 62.7 71.1 72.4 72 71.5 69.8 71.1 69.7 70.5 70.4 69.5 69 67.5 67 66.2 67.2 67.2 67.9 67.6 73.5 71.1 67.6 66.6 66.5 66.7 67.7 70.2 74 77 77.9 79.9 79.2 83.2 86.5 84.7 85.8 91.2 93.8 102.2 106 106 106.1 108.5 107.9 102.3 100.8 100.4 99.8 99.9 99.4 99.1 99.2 99.8 100.5 101.4 104.4
222.9 221.2 216.9 210.9 206.8 198.3 186.9 175 163.7 153.6 144.7 138.5 133.5 120.8 109 106 104.8 113.1 122.1 132.6 145.4 153.7 161.1 167.1 176.3 187.9 196.2 206.3 214.1 219.8 230.2 234.3 237.5 238.6 243.4 240.5 234.6 229.9 223.3 218.7 223.3 225.8 232.5 242.1 249.4 254.6 258.1 268.2 272.2 271.1 265.8 256.8 238.6 218.4 205.4 196.3 193.7 187.3 177.2 173.5 176.1 173.6 169 168.7 167.9 163.5 162.9 162.3 162.8 164.1 164.5 167.7 175.8 181 185.8 186.3 187.2 184.4 188.3 188.1 187.5 190.7 187.1 194.5 196.7 193 187.8 181.4 173.9 165.1 169.2 165 158.7 151.4 142.9 139.3 143.2 144 144.1 142.6 142.8 141.9 142 144.2 146 146.6 144.8 143.3 141.7 139.9 134.3 129.9 127.9 121.3 108.8 103.2 101.5 95.5 86.2 79.4 81.6 79.4 68.9 58.8 52.4 52.2 51.7 49.4 47.9 47.7 47.7 47.9 47.5 47.8 47.6 46.9 46.6 46.9 47.2 44.1 47 54.8 60.4 59.6 62.4 71.3 73.1 72.4 70.2 71.7 70.7 68.8 68.5 69.1 69 69 68 66.7 65.6 66.6 67.3 68 70.1 74.1 76.7 72.2 67 68.1 70.1 67.7 68.4 71.8 74.4 75.6 77.2 78.4 84.9 88.4 87.9 86.7 91.2 92.9 96.6 101.2 103.4 105.2 106.8 108.5 105.8 100.7 100.6 100.5 99.8 99.8 99.5 98.9 99.1 99.7 100.2 101.7
235.4 235.1 230.9 224.1 220.2 211.9 197.3 180.6 173.3 165.1 152.1 144 138.7 133.3 126.1 120.4 115 105 109.6 117.1 131 141 142.7 158.9 165.9 175.9 183.1 191.2 201.5 210.6 216 226.1 231.7 234.4 229.3 225.7 224.7 222.5 219.8 214.8 221 223.3 228.1 238.2 246.7 254.3 266.1 274.1 274.3 275.4 270.3 258.6 240.1 222.7 209.7 198.7 189.3 186.8 184.3 173.5 175.5 176.6 170.9 168.3 167.9 166.3 164.8 164.2 161.6 162.3 164.8 165.6 171.3 178.1 183.9 184 183.3 185.3 187.7 187.5 185.7 184.4 183.2 191.1 195.5 190.6 188.3 183.6 175.6 165.3 158.5 161 158.6 151.9 144.7 137.6 132.6 138.7 141.7 140.1 140.5 140 138.1 137.4 140.5 142.9 141.8 140.2 138.6 137.1 133.7 128.1 125.3 121.7 113.1 101.3 97.4 94.2 84.4 82.3 82.6 80.7 67.9 61.2 54 51.6 51.6 48.2 47.5 47.7 47.6 47.5 47.4 47.6 47.7 47.5 46.6 47.3 47.6 47.1 44.2 52.3 59.5 57.9 61.7 69.1 69.3 70.9 68.1 70.3 68 67.1 68 67.5 66.9 67.8 66.7 67 66.4 67.3 67 67.6 69.7 75.3 78.5 75.6 71.4 66.1 71.7 68.4 66.9 70.4 71.5 73.8 73.5 79.5 85.2 88.2 89.5 89.8 87.1 89 91.3 95.5 99.4 104.2 105.8 107.7 107.3 104.4 100.5 101.3 100.1 99.7 99.6 99.5 99.1 99 100.1 101.2
249.6 250.9 248.4 244.5 235.6 225.9 212.2 199.4 187.1 171.6 156.6 150.2 143.8 136.8 130.5 121.9 117 107.9 104.2 105.7 115.7 127.7 140.7 150.3 153.6 162 171.5 177.6 192 203.4 214.8 220.3 224.9 225.7 222.1 219.3 214.1 210.4 213.6 212.5 216.5 228 232.6 239.1 244.9 254.7 265.1 272.5 275.7 281.8 274.4 258.7 241.5 225.3 213.6 198.8 191.3 188.3 179.9 176.3 173.3 171.6 171.7 170.5 168.4 166.2 164.1 163.5 160.5 160.7 162.6 164.7 165.9 170.8 176.4 184.8 187 184.3 188.2 186.4 184.3 185.4 178.1 184.5 185 187.8 187.9 183.1 177.6 169.7 164.9 152.6 155 151.9 142.8 136.9 129.1 133.8 140.6 138.6 136.9 137.4 135.9 133 137 139.9 138.5 136 134.5 134.1 131.3 127.7 124.1 119.7 114.7 107.7 96 90.1 84.5 81.1 80.9 78.6 66.8 61.6 61.7 59 51.4 49.8 47.1 47.4 47.6 47.3 47.1 47 46.8 46.8 46.9 47.2 47.9 48.3 46.7 44.9 55.3 59.7 60.8 65.6 65.6 70 66.7 69.5 66.7 66.7 66.5 65.8 66 66.8 66.9 67.1 66.4 66.8 66.4 66.7 70.6 74.9 80 79.2 74 71.6 66.5 68 67.8 68.3 70.5 70.7 76.3 80 84.1 87.6 90.2 92.7 90.9 86.5 87.1 91.4 95.5 102 105.5 107 107.1 106.7 103.3 100.6 100.8 100.8 99.4 99.4 99.2 99.1 99.6 100.1
265.6 266.6 266.1 259.5 253.5 244.1 226.6 219.6 198.5 184.5 161.2 157 149.1 140.4 131.6 123 118.8 114.7 106.9 100.5 107.4 117.1 128.5 137.6 139.4 148.6 155.9 169.6 184.7 195.2 207.4 214.2 217.1 217.5 216.1 213.8 208.5 202.7 210.5 221.9 225.6 231.5 238.8 243.7 250.2 255.7 265.6 271.6 272.8 272.8 271.7 258.8 243 229 212.1 199.8 191.2 183.5 180.5 176.2 169.3 171.2 171.6 171.2 171.7 169.9 168.7 163.8 160.8 159.4 160.4 162.4 167.1 171.9 177.2 181.3 181.9 181.9 183.9 188.2 184.9 181.1 181 174.6 175.5 179.6 182.1 180.8 176.5 170.7 164.2 150.9 151.8 149.7 143.3 134.2 127.9 130 135 134 132.8 134.4 135.1 131 132.3 136.2 136.3 134.3 130.9 128.9 128 124.8 121.5 115.5 114.5 110 98 90.4 86.2 83 79.5 78.7 70.3 62.7 62.9 62 62.3 57.5 47 47 46.8 47.2 46.8 46.8 46.4 46.4 46.5 46.6 47.7 47.8 47.1 44.1 54.1 58.3 60.4 62.3 67.2 67.4 67.4 66.3 66.9 64.9 65.5 65.8 65.2 65.5 66.1 65.5 67 66.9 65.8 67 71.2 76.8 81.3 82.6 77.6 70.9 69.3 65.4 66.8 69 70.2 75.3 78.8 83.3 85.5 88.9 90 90.4 90.2 87.2 86 87 93.4 97.6 102.9 106.3 107.1 106.7 105.9 101.9 100.7 100.8 100.2 99.9 100.3 100 99.7 100.2
278.7 278.4 279.8 272.9 266.1 254.8 241 234.4 217 187 172.2 164.6 155.4 145.4 133.1 124.7 118.3 110.8 109.2 106 104.3 106.6 117.2 120.7 128.6 133.7 140.7 156.6 169.1 184.2 195.9 202.6 210.3 210.7 209.7 209.9 203.5 198.8 212.6 228.9 233.2 241.5 249.1 256.1 259.5 258 267.5 271.2 268.5 264.9 261.6 253.7 240.5 227.3 212.1 198.1 188.1 181.9 177.9 176.2 169.8 166.2 171 170.5 175.2 173.5 168.9 162.9 160.8 159.1 159 161.8 162.8 168.5 171.9 178.3 180.7 183.5 185.4 184.1 182.6 179.9 174.9 174.1 168.5 169.1 174.5 176.4 174.8 169.9 162.8 151.3 142.3 143.9 141.6 134.7 127.5 122.7 125.7 130.8 129.3 131.2 131.7 130.8 129.8 131.6 131.5 131.5 129.2 125.7 122.9 120.5 118.2 110.2 110.2 108.8 100.4 91.5 88.4 85.8 81.6 75.5 70.7 64.5 63.3 62.2 61 61 52.9 47.1 46.7 46.9 46.5 46.3 46.5 46.5 46.6 46.6 47.1 47.1 47.4 46 49.1 59.1 59.8 62.4 67.2 67 68.8 66.1 65.4 64.7 64.9 64.4 64.5 64.6 65.7 66.9 68.1 66.8 66 67.8 73.3 78.4 82 84.8 79.4 71.4 68.7 69.7 67 66.9 70.9 76.6 81.5 86 87.3 89.2 90.1 90.2 90.6 89.3 87 86.4 91.2 94.8 100.8 104.1 105.5 105.3 105.6 104.4 101.2 100.2 100.6 100.3 101 99.4 99.6 99.7
283.6 283.9 284.6 281.4 275.1 264.1 255 243.4 220.4 203.3 187.9 173.4 161.6 150.2 138.5 127.7 111.1 109.1 107.2 105.8 104.9 103.8 105.2 110.5 113.4 119.6 128.4 137.9 151.3 167.3 180.7 192.5 201.6 201.3 200.7 201.1 195.9 199 212.8 228.2 240 250 264.1 269.2 265.4 265.4 270.2 268.6 266.6 258.6 251.6 239.5 235 222 209.7 195.9 185.2 179.6 179.7 178.1 167.4 167.4 166.3 170.5 175.9 170.7 166.1 163.4 161.6 157.7 158.4 158.8 159.4 166.3 172.9 176.3 180.3 182.5 184.4 182.5 181.7 179.5 176.9 171.8 171.2 161.1 167 169.7 170.8 169.5 164 155.4 145.8 134.6 127 130.2 126.9 124.8 119.3 125.8 127.7 126.8 127.5 128.3 127.1 127.9 126.9 126.4 126.2 123.1 119.7 117.6 114.5 107.7 108 108 101.8 96.5 92.8 87.3 82.1 77.5 73.8 65.5 62.7 62 60.9 59.7 59.7 50.7 46.1 46 46.3 46.7 46.7 46.7 46.7 46.4 47.2 47.1 46.3 46.5 44.3 59.3 59.5 63.6 68.6 68.4 68 65.8 65.5 64.3 64.6 65.5 66.1 65.9 66.6 66.5 66 65.7 65.3 68.4 74.2 79.2 82.6 86.1 81.1 74.9 68.1 66.7 65.4 65.2 68.6 74.3 81.5 86.5 87.9 90.3 90.7 90.8 90.8 90 89.1 86.7 86.6 91.1 97.1 100 103.6 104.9 105.7 104 101.6 101.2 100.5 100.2 100.8 102.2 102.1 101.7
281.9 282.5 281.9 281.8 276 267.7 259.8 249.1 232 210.7 194.7 180.9 166.6 154.9 143.1 129.5 112 110.1 107.8 107.5 106.3 103.8 102.1 103.3 104.9 110.7 117.1 124.8 128.9 149.4 164.6 178.8 190.3 193.3 194.1 190.1 186.6 192.7 213.5 231.4 242.4 257.9 263.1 271.5 273 265.4 261.7 260.6 263.5 255.7 247.2 234 223.7 213.6 202.2 193.2 184 179.1 175.2 175.5 172.3 166.3 167.7 165.8 166.4 168.3 165.8 159.5 159.5 157.2 154.4 156.9 157.9 162.8 170.6 177.5 180.5 183.5 183.1 182.2 179.1 179.3 175.6 171.2 167 163.6 159 163 164.6 164.9 163.2 157.5 149 137.9 124.4 124.9 125.8 122.8 118.5 117.9 124.6 122.5 123.6 124 124 126.3 123.8 122.9 122.5 121.5 118.5 114.7 111.9 112.3 104.9 107.8 107.8 102.1 94.9 89.4 82.5 76.4 73.2 66.9 62.3 62 62.1 59.6 59.4 47 47.1 47.1 46.8 46.6 46.5 46.6 46.7 46.9 46.9 46.1 47.7 46.6 43.8 59.3 58.6 66.5 71.2 69.8 70.1 68.2 66.3 64.4 64.3 66.5 67.1 66.8 66.4 67.1 65.3 64.4 65.3 68.3 75.7 80.1 83.7 85.6 80.1 74.6 71.5 66.3 66.8 65.1 65.9 72.7 78.7 84.8 87.3 91.3 91.5 91.3 91.2 91.1 90.4 88.2 86.2 89.8 94.5 97.9 102.7 104.9 105 103.1 101.9 100.9 102.4 102.3 105.8 103.8 102.8 102.4
276.4 275.8 276 274.4 268.9 263.8 257.5 243 231.1 215.8 200.8 183.2 168.4 155.1 141.2 123.7 115 114.5 112.7 110 107.3 107.4 105.1 101.2 102.2 103.2 108.6 114.4 114 131.3 148.3 162.8 174 180.6 182.8 177.1 176.9 192.5 213.2 231.7 247.5 258.9 266.6 270.6 263.7 263.9 267 257 252.5 249.1 239.3 232.1 217.5 206.6 195.5 186.4 178.8 175.8 173.7 172.3 169.3 164.6 164 166.1 163.6 164.8 161.2 161.2 157.2 155.1 153.4 155 157 161 166.9 172.4 180 181.7 182.8 180.9 177.8 177.5 173.2 170 165.1 161.3 157.4 155.5 158.3 158.4 158.7 155.9 150.7 139.3 126.9 116.7 122.2 118.2 117.4 113.6 116.6 116.8 118.9 119 117.8 122.8 120.6 119.4 118.5 117.6 116.1 112.3 109.9 108.4 101.3 104.3 103.5 101.1 92.5 87.5 80.3 75 72.3 66.5 61.9 61.7 62 58.8 58.7 45.7 46.9 46.9 46.3 46.2 46.3 46.3 46.5 46.3 46.1 46.5 46.5 46.5 43.9 58.7 58.3 66.9 68.9 69.7 70.4 69.6 67.3 63.4 65 68.1 67.2 67.7 67.7 68.5 66.8 64.7 66.2 68.5 76.9 80.5 82.7 83.4 80.7 75.2 73 68.1 68 65.1 65.1 69.2 77.4 82.2 87.1 89.6 91.4 90.4 90.6 90.1 91.4 90.8 88 86.6 91.5 95.9 100.4 105.1 105.9 104.6 103 101.8 103.1 103.5 106.2 104.4 103.3 103.2
267.9 266.5 263 259.5 256.6 253 244.5 230.3 215.7 202.6 184.9 172.4 161.3 146 133.5 116.3 124.8 120.8 114.3 112.2 110.1 108.5 111.6 106.8 99.7 100.6 101.8 102.2 105.3 110.3 130.2 142 153 160.3 164.6 158.3 182.2 200.2 219.6 239 254.8 260.3 267.7 264.6 258.3 260.7 262 255.9 246.7 236.2 229.4 224.4 213.8 202.6 193.4 180.9 173.5 171.8 171 166.9 162.8 161.4 161.7 161.8 158.9 161.9 159.8 158.8 156.7 154.2 153.3 152.4 154.5 156.3 160.3 168.3 172.9 176.2 183.1 178.5 179.2 174.5 173 168 167.2 160.7 156.2 150.3 150.9 152 152.5 151.7 148.4 140.7 128.1 117.9 112.9 113.5 110.6 109.6 113.7 111.2 112.9 115.8 114.1 118.5 119.3 116.4 113.8 113 112 110.5 107.1 105.7 98.8 102 104.7 97.4 89.5 86.5 78.5 74.4 72.3 65.1 60.3 60.6 61.4 58.3 52 45.9 46.3 46.4 45.9 45.6 46.1 46 46.1 46 46.2 46 45.9 47.4 43.9 47.1 58.4 62.7 64.8 66.6 67.7 68.4 67.4 66.3 65.3 67.4 66 66.5 67.1 68.5 66.7 65.4 67.1 71.2 79 80.4 82.4 82.1 80.3 76.4 72.4 67.9 66.1 64.7 64.2 66.8 72.5 79.8 86.7 88.5 90.5 90.6 89.8 89.6 89.9 91.1 89.9 88.3 89.2 93.3 97.2 100.8 106 106.2 105.7 105 102.7 102.6 106.3 104.8 105 104.4
251.6 247.8 245.3 242 239.2 231.4 218.1 202.6 191.1 179.6 163.8 146.1 132.5 129.2 119.1 120.1 131.7 128.4 123.6 118.4 114.2 110.7 110.1 110.3 102.6 100.6 97.1 100.7 101.4 101.9 107.1 117.8 129.3 139.6 140 169.2 186.4 206.2 225.4 240.3 253.9 257.9 261.5 252.7 253.4 261.6 269.9 262.7 254.4 235.6 223.8 213.3 206.6 199.3 190.6 181 171.2 168 167.2 166.7 168.2 164.4 159.3 159.2 156.4 154.8 155.4 155.5 153.7 152.4 151.3 151.1 149.3 151.4 155.5 159.6 163.4 170.5 173.3 176.3 176.6 172.3 170.3 166.7 161.8 163.2 158.4 154.3 150.1 146.4 146.6 146.6 142.4 137.7 127.7 118.9 107.6 109.5 107.8 104.9 109.7 107 106.7 109.8 110.7 111.6 114.8 115.4 111.9 109.1 106.3 104.8 102.5 100.3 93.2 96.8 101.7 100.9 91.7 83.1 78 73.6 69.1 62.5 60.4 59.7 61.2 59.1 53.6 45.7 46 46.4 45.9 45.7 46 45.6 45.8 45.9 46 46 46.1 46.6 43.9 45.8 57.9 61.2 62.9 65.4 67.3 68.9 67.5 67.8 64.6 67.3 65.7 65.1 66.3 66.3 64.8 66.3 69.2 75 77.8 81.5 82.3 82.5 82.3 77.6 72.1 69.7 67.5 65.3 64.2 66.1 70.4 77.5 83.2 87.2 89.7 89.4 90.3 90.1 89.9 89.5 89.3 88.7 87 88.8 95.5 99.1 104.2 107.8 106.3 108.4 107.3 106.2 103.7 105.1 106.4 106
241.3 230.8 228.8 225.1 218.5 207.2 187 165.5 154.7 139.9 127.1 123.5 122.2 121.1 126 140.6 142.4 138.9 132.5 127.7 123.7 118.9 115.6 111.3 108 101.6 99.7 97 99.2 99.9 100.7 102.7 113.1 128.1 147.5 170.1 189.5 208.4 224.5 242.5 245.1 253.2 248.8 247.5 249.2 260.5 268.5 263.2 251.2 237.4 229.7 212 202.4 194.6 186.7 178.3 172.4 170.2 170.7 167.4 169.3 167.7 162.8 160.3 160.1 154.8 152.6 152.2 151.1 152.1 153.9 152.8 152.6 147 148.5 152 157.1 162.2 167.2 168.3 170.3 169.9 168 162.6 160.3 160 160.3 155.8 151.9 147.1 143.2 142.4 139.6 134.3 129.5 119.8 107.2 103.7 103.6 100.6 103.5 102.8 101.3 103.7 105.6 105.8 107.1 109.1 108.6 107 104.1 102.1 99.8 96.7 91 89.7 98.4 96.7 90.7 85.4 75.9 73.2 68.7 61.5 60.5 57.7 60.5 60 58.3 45.5 45.9 46 46.3 44.9 45.5 45.6 45.8 45.9 45.8 45.8 45.7 46.3 45.2 45.1 57.8 59.9 63.2 65.6 67.4 67.7 65 67.8 63.7 65.1 65.6 65.2 66.9 66 66.8 68.5 71.3 75.1 77.9 79.8 84.7 82.7 81.2 78 74.4 72.4 66.2 66.1 65.9 64.7 69.2 76.3 79.3 83.6 87.4 88.8 89.2 89.7 89.1 88.6 87.7 86.9 86.3 88.8 94.4 99.4 102.3 105.9 109.1 111 110.1 109.1 105.6 104.6 106.2 106.8
219.8 203.7 197.6 205.1 193.6 171.7 153.6 140.8 134.1 144.5 145.1 140 142.9 142.9 142 154.4 157.7 155.8 147.8 139 136.7 131.7 125.9 120.3 114.7 106.2 105.4 103.5 99.6 96.4 94.9 93.2 104 120.9 138.8 162.5 186.1 204.4 215.5 226.9 235.1 242.9 239.9 239 246.5 254.1 256.2 259.7 253.7 256.6 238.9 215.9 201.9 196.3 185.9 181.6 177.7 171.9 170.7 168.4 169.4 169.5 168.1 161.6 159 159.3 159.5 152.9 150.3 150.5 155.5 153 148 142.4 142.4 146.7 150.7 156.4 158 161.1 163.8 165.4 164.7 162.2 158.6 161.5 156.5 155.5 153.1 149 145.7 145.1 141.5 136.1 130.1 122.3 111 103.5 100 97.2 97.5 99.4 97.5 96 99.4 100.9 98.3 98.6 99.3 100.1 100.6 98.1 97.1 96.6 88.4 84.2 93 94.2 87.7 83.5 75.7 74 71.7 62.3 61.2 56.9 57.4 59.7 59.9 51.2 45.6 46 45.9 45.9 44.5 45.3 45.9 45.8 45.7 45.5 45.8 47 43.6 45.8 48.6 59.6 60.9 64.3 67.4 62.8 63.1 63.4 64.1 66.6 67.8 69 67.7 67.1 68.9 70.7 72.7 76 77.4 80.6 84.4 81.6 81 76.7 75.8 74.8 70.7 66.4 66.8 63.1 66.4 72.2 76.3 80.1 84 86.8 88.1 88.9 89.2 88.9 86.3 86.2 85.1 86.8 91.3 100 102 103.5 107.4 112.3 111.8 110.1 107.3 104.3 103.5 105.1
197.3 198.5 196.6 187.7 188.9 186.4 183 171 162.1 167.9 160.6 158.5 161.5 155 160.1 172.7 174.9 173.4 168.9 160.9 153.8 141.4 135.5 132.3 125.4 117.3 117.3 111.9 102.8 101 101.6 99.7 89.4 108.4 125.5 149.1 174.8 195.6 209.8 221.8 228.7 231.4 224.5 233.4 246.3 252.9 248.9 257.6 261.3 258 238.8 222.6 206.5 195.3 188.4 182.7 178.6 175.2 174.7 174 170.1 167.8 165.5 165 162.4 162.7 162.6 157.5 155.6 149.8 149.5 150.4 153.3 144.3 131.9 137.7 140.2 147.4 149.4 151.6 154.5 159.9 160.4 159.2 157.3 158.6 157.8 152.2 152.3 151.1 150.7 146.5 142.8 136.7 131.4 124.8 115.7 107.2 99.8 99.1 97.1 92.1 95.1 96.1 94.2 95.9 94.1 94.5 95.3 95 94.2 93.9 93 93.6 88.6 82.9 85.3 88.8 86.3 80.1 73.4 72.2 72.4 62.7 60.3 56.5 51.1 54.1 59.5 60.4 56.2 46.2 45.5 44.5 45.9 44.6 45.3 45.5 45.7 44.9 45.5 46.6 43.3 47.2 48.2 60.1 61.2 62.5 59.4 65.8 72.1 71.8 67.8 68.7 68.7 69.6 68.8 68.4 68.8 70.4 74.3 76.2 78.3 80.1 80.8 80.8 79.2 77.2 73.5 74.2 70.8 67.7 65.4 63.6 66.3 71.7 75.2 78.7 82.5 84.5 86.6 88.2 88.2 87.5 86.6 85.4 84.4 84.6 90.4 97.3 102.6 104.4 106 108.7 110.9 110.2 107.2 104.8 103.7 103.7
211.7 215.9 214.2 215.9 213.9 210.6 203.9 200.2 189.5 183.4 177.9 177.3 183.1 166.5 184.5 188.8 191.6 192.2 188.2 175.7 169.4 150.6 147.5 145.9 135.3 127 126.1 119.1 111.4 102.6 101.1 100.8 97.9 102.5 115.7 132.4 156.4 182.1 202 211.1 213.9 209.6 215.1 225.4 242.5 247.4 251 259.9 264.7 256 238.7 223.9 211.8 198.5 188.2 182.8 180.4 178.7 175.7 174 171.4 169.8 165.9 164.2 161 159.3 159.3 158.5 156.7 154 150.2 148.5 147.9 143.8 135.6 126.2 131.1 131.6 141.1 143.3 143.7 151.1 153.9 156.4 155.6 153.9 153.3 151 148.8 150.3 150.3 148.4 144.7 138.7 131.6 124.1 120.7 112.5 102.6 98.5 95.6 95 89.8 90.4 92.8 93.2 90.8 91.6 91.8 92.6 89.3 87.7 89 87.8 86.7 81 80.5 86.5 85 83.2 74.4 74.8 69 61.8 60.6 58.3 53.5 53.9 60 60.4 60 48.3 47.2 47.1 47.4 46.8 46.3 46.1 45.4 45.1 46 46.6 43.2 45.9 48 54.4 56.4 60.3 65.5 70.7 74.6 77 71.7 71.5 70 69.9 69.8 69.7 69 71.4 74.1 79 77.8 80.2 79.5 80 79.6 80.1 72.8 69.6 68.8 68.5 65.3 62.5 65.2 70.1 73.7 77.4 81 83.8 83.9 86.4 88.7 88 87.1 84.6 83.7 84.2 88.7 98.6 102.9 106 106.7 107.7 109.8 109.7 107.4 105.3 104 102.8
225 225.7 227.7 229.3 227.6 224.3 218.7 212.3 204.5 202.1 199.7 197.2 199.4 184 198.6 202.9 205.7 205.8 204.3 195.5 181.9 173.9 166.1 152.7 139.9 140.5 133.7 127.3 121.9 117.2 104.5 99.7 99.5 88 111.3 122.5 140.3 160.7 177.6 185.8 197.3 198.4 207.3 218.4 233.4 244.8 254.9 262.5 266.2 254 238.6 223.2 211.4 202.3 189.3 184.5 180.1 178.2 177.4 173.3 172.6 168.4 165.4 163.4 160.4 160.9 158.5 157.1 154.9 154.1 154.1 150 146.9 142.8 136 126.3 127.8 122 126.2 134.2 137.4 143 146.9 150.7 153.1 153.1 147.4 146.7 147.4 147.7 151.2 150.5 146.7 142.4 132.8 127.6 118.5 110.8 104.6 100.8 97.3 96.3 92 85.2 90 91 90.4 92.5 96.5 97.1 92.5 83.1 79.9 80 80.6 80.8 75.7 78.4 84.5 81.7 72.3 74.5 67.8 60.9 59.5 58.4 55.6 54.2 59.4 60.1 59 52.9 46.5 46.8 47 46.9 46.5 45.7 45.4 45.7 45 45.1 43.1 46.5 49.2 57.5 63.8 64.3 67.2 70.4 73.1 75.5 75.8 73.3 71.7 71.1 71.3 71.4 68.1 73 74.2 77.1 78.9 79.3 79.4 80.2 79.6 77.1 75.5 67.7 66.2 67.2 64.9 62.5 64 68.8 72.6 76 79.8 81.4 83.5 85.7 87.6 87.7 85.2 83.4 83.4 81.9 87.4 94.4 102 105.4 107.5 109 109.9 111.3 108.2 105.9 104.5 103.6
241.8 239.6 239.5 238 236.4 232.3 230.1 222.8 217 212.5 208.1 208.9 197.6 208.1 211.1 215.6 223.5 221.5 217.8 202.8 193.9 193.6 180.3 168.9 152 151.2 145.1 135.5 128.3 124.8 113.7 102.1 99.1 94.6 104.5 113.8 122.3 138.5 154.5 168.8 182.3 191.3 199.9 213 226.6 239.6 253.6 263.6 261.8 245.8 235.1 220.7 210.7 197.9 190.2 184.6 180.5 179.3 177.7 176.9 172.1 167.8 166.5 166.8 163.4 161.3 158.4 156.2 154 152.9 153.8 152.1 146.1 139.8 134.6 132.6 129.2 123.1 117.3 124.1 128.5 134.8 140.1 142.9 143.7 148.9 147.9 145.6 147.4 144.6 146.2 148.9 147.7 144.3 136.7 127.5 119.8 112.4 103 101.7 99.6 91.6 88.6 86.6 85.5 87.3 87.1 89.3 91.3 93 93 87.6 80.1 77.9 77.4 74.8 71.9 73.1 77.4 75.2 70 71.2 65.9 59.8 58.3 55.4 52.2 50.3 52.8 57.9 56.5 55.3 47.7 46.8 46.8 46.5 46.5 46 45.3 45.3 45.3 45.9 45.5 43.3 48.4 60.8 63 65.1 71 70.9 71.7 74.9 76.5 74.2 73.7 72 72.5 73.7 69.6 73 76.8 77.6 79.8 79.6 79.1 78.9 78.5 75.9 73.8 68 65 64.4 65.8 62.1 63.8 67.1 70.9 74.8 77.3 79.3 81.4 84.9 85.6 86.4 86.6 84.3 82.7 82 86.2 93.3 100.5 104.3 106.9 109.6 110.9 110.2 108.9 107.6 105.3 104
256.8 254.1 250.6 252.4 247.1 239.8 233.2 228.7 223.6 218.4 215.7 206.1 214.7 217.3 221.1 224.3 235.7 234.5 232 218.8 209 208.2 190.2 178 167.5 167.3 153.1 141.2 135.7 127.4 121.8 112.5 102 98.4 89.1 104.4 111.1 122.7 136.5 153 168.9 182.2 193.4 206.3 222.5 236.9 248.7 259.6 255.5 244.8 229.7 219.8 207.8 201.2 199.4 192.4 185.8 185 182.4 179.2 173.8 169.1 165.5 164.1 162.3 160.2 156.9 154.6 152.5 151.7 151.8 149.4 150 147.8 135.1 131.7 129.2 121.3 118.3 114.2 115.6 125.9 129.2 133.3 139.7 143.7 142 142 139.8 144.1 144.2 142.2 144.7 142.5 138 127.9 120.4 112.8 101.8 99.2 100.1 90.9 86.5 85.8 78.7 83.3 83.5 85 87.3 87.8 88.6 89.2 86.6 78.2 75.7 74.1 74.9 69.3 67.9 66.8 69.7 66.8 59.8 59.5 56.9 50.3 48.3 47.2 47.1 51 53 53.3 49.9 48.3 48.9 48.4 48.9 46.9 46 45 45.4 44.4 44.8 49 48.6 63.8 64 67.4 73.5 73.3 72.8 76.4 76.7 75.9 75.7 74.4 73 74.8 73.2 68.6 76.3 77.5 80.4 80.3 79.8 79.5 78.6 76.1 74.2 69.7 65.7 63.6 64.8 64.4 61.7 64.9 67.6 71.9 74.5 76.9 78.2 81.7 84.8 85.4 86.8 85 83.4 82.3 85.6 91 98.7 103 106 108.8 110.4 109.7 109.2 107.7 106.5 104.4
272.7 271.3 265.7 265 257.3 249.1 240.3 230.4 230.7 224.6 219.8 216.1 220.9 225.4 229.2 233 238.4 245.6 238.7 229.3 220.4 214.7 203.6 188.2 182.5 172.7 166.7 154.8 147.6 135.1 125.4 122.5 113.1 101.7 99.3 92.8 97.8 110 118.9 137.1 155 171.4 190.7 202.9 217.9 232.4 242 255.7 251.1 241.4 232.7 225.4 216.2 213 213.9 202.5 198 187.1 182.5 180.4 178.7 173.1 168.2 164.2 162 158.3 155.9 153.1 150.3 149 147.9 144.9 146.7 145.2 136.9 132.8 127.8 122.3 118 112.4 109.1 109.9 117 126.2 131.4 134.8 135.5 136.9 137.1 137.5 139.9 139.8 138.9 136.6 136.2 131.2 122.1 110.9 103.6 102.7 99 89 89.2 84.5 78.3 79.6 80.7 80.5 82.3 84 84 85.5 85.8 81.4 76.9 72.8 71 71.7 68.6 67.9 65.5 67.4 58.7 55.5 53.1 49.5 48.2 48.5 47.5 48.6 49.5 48.4 48.8 48.4 48.2 48.1 48.6 48.4 46.6 44.8 45.3 42.5 50.1 47.6 56.4 63 64.8 68.1 71.1 70.5 73.3 76.3 77.4 77.9 76.9 76.1 75.1 74.4 74.4 73.2 68.4 75.9 78.6 80.8 80.8 80.1 79.2 75.8 71.3 69 65.9 64.2 62.1 62.7 61.3 64.2 66.8 70.8 73.4 74.5 77.4 80.4 81.6 84.5 85.3 84.9 83.7 83.5 85.9 86.5 97.4 102.4 105.3 107.8 109.6 109 108.9 107.2 106.2 104.9
289.3 291.2 283.7 275 265.1 257.2 245 240.6 233.6 224.4 216.3 225.8 228.9 233 238.6 244.1 248.3 253.1 245.7 239.5 230.4 220.5 210.2 198.7 191.3 182.3 177.5 170.6 162.1 143.9 134.6 131.3 117.7 108 103.1 101.2 90.7 95.3 109.2 119.9 136.2 155.8 176.4 196.6 211.4 223.8 231.2 240.8 239.7 238.1 242.4 234 220.3 215.8 211.9 200.9 194.2 188.1 180.7 177.1 173.4 171.2 169.2 164.3 159.1 155.3 153.5 150.8 148.3 146.8 144.8 143.1 143 139.8 139.7 135.8 131.6 128.6 118.6 112.2 108.5 105.1 105.6 113.7 123.8 128.4 130 131.5 133.6 134.9 134.8 134.9 135 133.4 131.7 128.4 120.3 112.5 106.8 100.9 93.2 90.7 91.3 84.1 76.5 74.2 76.3 75.8 76.2 78.5 80.5 82.3 84.5 83 78.6 76.3 72.2 68.9 65 65.4 59.5 59.1 57.8 54.3 51.7 49.8 46.1 44.2 43.8 44.1 48.3 56.9 51.8 47.3 48.4 48.9 48.6 46.7 46.1 45.1 44.7 42.7 48 53.2 50.5 60.4 71 69.2 68.7 69.9 74.3 78.4 78.3 79 78.1 77.5 75.9 75.7 75.9 75.6 72.9 73.7 79.6 81.8 81 80.8 79.2 73.1 68.3 65.9 66.3 67.8 62.8 60.1 61 63.5 66.2 68.6 72.1 74.7 76.1 76.9 79.2 82.1 83.4 84.1 84.8 82.9 86.8 87.4 96.1 101.9 104.7 107 108.7 108.9 108.3 107 105.4 104.2
306.7 304.5 294.6 285 275.4 265.4 256.4 247 237.9 234.2 231.4 232.3 236.4 242.4 248 250.7 250.4 251.2 248.5 243.3 236.9 228.2 219.3 209.9 198.9 191.7 185.1 175.6 170.8 159.3 146.2 135.3 117.6 111.7 104.5 99.6 98.3 94.1 88.2 108 119.9 137.5 155.6 178.2 198.4 207.7 211.9 223 234.3 243.3 248.4 238.8 224.3 210.9 202 195.8 192.2 186.5 178.1 174.4 170.9 165.9 163 160.7 158.2 153.8 150.3 149.1 145.6 143.9 141.7 140.9 139.6 138.8 138.3 134.9 131 129.2 121.4 118 111.3 107.2 102.9 102.3 110 118.7 126 130.6 129.4 129.4 130 129.8 129.7 128.3 126.3 124.5 120.1 112.7 105.2 97 94.3 89.6 92.6 84.7 77.4 70.6 74.9 70.5 70.7 73.6 77.6 79.1 81.5 79.5 79 79.2 74.8 70.6 67 61.8 62.1 56.4 58.2 58.6 57.5 48.1 45.6 43.4 43.8 47.3 51.4 56.2 56.8 47.2 48.7 48.7 46.8 44.8 45.7 45.4 42.1 45.7 50.4 53.8 49.8 58.5 70.7 70.1 70.5 68.3 76.6 79.1 80.1 80.6 78.5 77.4 76.5 75.8 77.3 77.2 76.9 69.8 80 82.6 83.3 83.9 80.2 71.5 67.5 65.5 67.5 65.8 63 59.9 60.6 63.9 65.6 68.3 71.8 72.9 74.2 75.5 77.7 79.2 82.3 83.8 83 82.9 86.5 87.7 94.5 99.8 103.1 106.1 108.1 108.3 107 106 105.7 104
