ncols 200
nrows 85
xllcorner 250000
yllcorner 823750
cellsize 50
113.7 118.7 123.8 136.7 145.1 147.7 157.7 164.9 171.4 178.6 182.6 185.8 189.1 192.3 189.8 196.7 199.7 202.2 204.5 206.8 209.3 211.7 211.5 217.3 224.2 228.4 230.9 235.5 240.2 244.1 248.1 251.6 253.9 254.7 249.9 247.5 248.5 256.8 259.5 258 253 243.1 222 192.5 173.4 161 157.9 150.4 125.7 89.6 62.2 43.8 25.8 15.3 15.3 15.3 15.3 15.3 15.3 15.3 15.3 15.3 15.3 15.3 15.3 15.3 15.3 15.3 15.3 15.3 15.3 15.3 15.3 15.3 15.3 15.3 15.3 15.3 15.3 15.3 15.3 15.3 15.3 15.3 15.3 15.3 15.3 15.3 15.3 15.3 15.3 15.3 15.3 15.3 15.3 15.3 22.6 35.9 58.1 76.3 110.2 128.8 154.9 171 186 201.6 218.3 246.2 271.9 293.3 306.1 323.5 343.2 363.4 374.1 382.9 390.4 401.8 412.8 417.9 415 414.1 416 410.5 395.4 394 400.1 406.6 410.2 406.4 413.8 415.4 404.8 390.5 382.8 365.9 321.9 303.5 301.9 300.6 295.7 287 281 274.7 268.8 263.3 258.9 255.5 253.8 251 246.9 247 246.8 244.7 242 240.3 240.4 242.5 248.7 247.3 244.8 240.8 237.9 237.8 237.9 237.9 239.6 244.8 253.8 259.5 264.2 271.8 277.3 283 283.9 283.4 282.4 281.5 281.6 284.7 292.6 302.5 314 317.9 308.4 309.7 315.8 319.4 318.8 313.6 308.9 303.3 297.7 295.4 295.9 295.2 295.2 293.8 291.2 288.6
126.9 135.2 136.9 148.2 155.8 162.7 169.8 177.7 181.8 187.5 191.6 193.9 196.4 199.2 199.9 199 206.2 208.6 210.9 213.3 215.9 218.6 219.8 224.1 230.6 233.3 235.8 240.4 244.6 248.2 251.5 254.2 256.4 257 250.4 248 253.8 261.4 258.6 254.4 246.4 230.7 212.2 186.6 162.6 155.2 155.6 141.5 113.4 70.3 58.2 33.8 15.3 15.3 15.3 15.3 15.3 15.3 15.3 15.3 15.3 15.3 15.3 15.3 15.3 15.3 15.3 15.3 15.3 15.3 15.3 15.3 15.3 15.3 15.3 15.3 15.3 15.3 15.3 15.3 15.3 15.3 15.3 15.3 15.3 15.3 15.3 15.3 15.3 15.3 15.3 15.3 15.3 15.3 15.3 16.3 29.7 51.8 69.8 97.7 121.6 141.7 164.3 178.3 193.2 211.9 233.1 259.8 281.7 302.1 324 349 368.3 382.8 386.3 386.8 398 414.3 413.9 413.2 414.9 412.3 405.7 397.2 394.6 397.6 403.1 412.5 412.1 415.2 417.6 412.1 387.1 381.4 369.2 337.5 316.4 305.5 299.8 297.7 289.6 283.3 276.5 269.2 264.6 261.1 258.8 256.8 252.5 248.6 248.4 250.6 246.9 244.7 243.4 241.5 243.3 252.7 251.5 249.1 246.4 238.8 236.5 236.8 236.9 237.1 238.9 245.4 254.5 261.2 265.5 271.4 276.4 277.9 276.6 275.9 275.2 274.8 276.7 282.5 289.6 293.6 294.4 294.1 301 303.3 311 314 311 310 300.2 293.6 287.2 285.1 284.9 285.4 284.7 284 281.7 278.8
141.6 146.8 152.6 158.7 166.7 174.5 181.2 187.7 192.4 195.6 199.3 201.9 203.8 205.1 205.7 205.1 211 214.1 216.8 219.5 222.2 224.6 226.9 229.6 233.8 237.7 240.6 244.6 248.1 251.2 252 254.7 257.7 258.5 253.5 258.7 261.7 261.8 258 251.2 241 222.9 201.4 173.1 152.7 151.8 145.5 127.1 103.8 56.9 36.4 15.5 15.3 15.3 15.3 15.3 15.3 15.3 15.3 15.3 15.3 15.3 15.3 15.3 15.3 15.3 15.3 15.3 15.3 15.3 15.3 15.3 15.3 15.3 15.3 15.3 15.3 15.3 15.3 15.3 15.3 15.3 15.3 15.3 15.3 15.3 15.3 15.3 15.3 15.3 15.3 15.3 15.3 15.3 15.3 24.1 44.4 69 91.2 117.4 133.9 150.9 171.4 191.6 208.9 231.1 251.2 274.6 303.1 321.6 345.8 370.3 381.8 390 390.3 391.8 403.7 409.1 413 416.9 419.1 407.2 399.6 395.2 395 401.2 406.6 412.7 411.2 414.5 412.3 388.5 377.5 367.1 349.5 332.8 324.1 308 297.6 296 287.2 278.8 272.5 268.1 264.1 260.7 260.3 257 250 248.9 253.1 248.8 245.4 244.4 244.6 244 249.3 259.9 247.9 243.1 240.1 237.6 234.9 235.2 235.7 235.4 238.9 247.7 255 259.6 265.3 270.4 272.4 270.9 269.3 268.6 268.3 268.6 271.1 278 282.9 288.8 286.8 289.1 288.1 298.5 304 306.7 296.7 291.7 289 283.5 277.3 274.4 275.3 275.7 274.2 273.7 270.6 267.7
152 158.9 166.5 171.3 178 185.8 193.2 196.9 201.2 203.6 206.4 207.7 209.3 210.4 210.5 207.1 210.9 219.9 222.9 225.8 228.4 230.3 231.8 234.9 238.1 240.8 243.7 246.5 250 252.8 252.1 254.5 257.5 259.6 256.5 257.5 259.9 259.4 254.3 245.7 232.2 214.8 186.6 155.9 148.7 145.3 124.8 107.6 82.8 45.1 18.5 15.3 15.3 15.3 15.3 15.3 15.3 15.3 15.3 15.3 15.3 15.3 15.3 15.3 15.3 15.3 15.3 15.3 15.3 15.3 15.3 15.3 15.3 15.3 15.3 15.3 15.3 15.3 15.3 15.3 15.3 15.3 15.3 15.3 15.3 15.3 15.3 15.3 15.3 15.3 15.3 15.3 15.3 15.3 16.5 35.6 57.9 82.1 112.1 130.6 142.4 165.6 192.1 215.8 243.1 251.9 273.6 310.2 320.7 340.7 363.1 378.4 387.9 394 401.3 406.1 406.7 412.2 418 418.3 415.8 402.8 398.5 396 396.6 402 404.9 406.8 401.2 406.7 394.6 380.9 376 359.5 353.9 332.4 318.1 302.1 294 287.2 281.4 274.7 272.2 272.8 269.2 263.8 262.1 253.1 248.8 248.1 250.8 245.2 245.3 245.7 244.5 243.2 250.8 254.4 245.4 236.2 234.7 232.9 233.4 232 232.2 234 240.5 248 254 257.7 262.5 266.1 264.6 263.3 262.9 262.3 262 262.6 266.6 273.7 279.4 283.4 281.9 281.2 279.1 290.3 293.2 288.7 280.9 276.4 273 267.4 264.7 264 265.3 265.6 263.5 262.7 258.9 255.7
162.5 170.9 178 184.5 189.1 197.4 202.8 206.1 209.2 211.3 212.2 213.5 214.6 215.6 216.5 216.5 213.5 222.3 229.3 231.4 232.8 233.9 235.3 238 241.2 244 246.5 249.3 251.6 252.7 251.5 254.5 256.9 259.8 260.2 253.8 258.3 255.8 248.3 238.2 223.7 202.4 165.5 147.1 141 125.9 104.5 81.3 61.2 34.7 15.3 15.3 15.3 15.3 15.3 15.3 15.3 15.3 15.3 15.3 15.3 15.3 15.3 15.3 15.3 15.3 15.3 15.3 15.3 15.3 15.3 15.3 15.3 15.3 15.3 15.3 15.3 15.3 15.3 15.3 15.3 15.3 15.3 15.3 15.3 15.3 15.3 15.3 15.3 15.3 15.3 15.3 15.3 15.3 20 40.7 66.3 94.1 123.8 142.5 162.3 188.9 211.9 238 269.9 273 292.9 322.1 332.7 356.2 374.6 384.9 398.9 406.5 412.1 406.5 406.2 411.8 419.1 415.3 405.2 404.3 401.9 400.9 408.7 407.1 401.1 394.2 391.7 393 378.8 366.8 366.8 368.2 352.7 331 312.5 297.8 292.3 285.2 278.9 272.7 271.8 271.3 274 266.6 255.7 249.4 247.9 246.4 245 243.4 244.4 246.2 239.6 239.7 245.2 243.9 236.2 233.1 231.9 230.8 229.7 229.2 230.5 234.1 241.5 247.4 251.8 254.9 257.2 256.1 255.3 255.5 256.4 256.6 256.6 257.4 264 272.4 274.5 275.8 274.2 271.4 270.2 275.1 277.4 274.9 267.6 262.7 257.5 254.9 252.2 254.1 255.6 255.5 253.8 252 247.9 243.3
173.5 182 189.1 195.7 200.7 204.1 210.9 213.3 215.2 216.4 217.7 218.7 219.7 220.7 221.6 222.5 219.3 222.3 233 235.4 236.4 237.4 238.8 241.5 244.4 247.2 248.6 250.3 252.1 252.2 251.2 251.3 254.4 260.2 261.2 260.5 256.2 251.5 241 228.4 213.6 185.6 150.8 144 127.7 116.7 86.9 65.1 36.3 15.3 15.3 15.3 15.3 15.3 15.3 15.3 15.3 15.3 15.3 15.3 15.3 15.3 15.3 15.3 15.3 15.3 15.3 15.3 15.3 15.3 15.3 15.3 15.3 15.3 15.3 15.3 15.3 15.3 15.3 15.3 15.3 15.3 15.3 15.3 15.3 15.3 15.3 15.3 15.3 15.3 15.3 15.3 15.3 15.3 23 49.1 76.7 111.3 142 156.5 181.3 209.1 230.8 263.2 296.6 303.7 307.9 335.4 341.1 362 378.1 401.8 409.4 412.8 411.7 408.5 410.1 417 422.9 409.3 406.9 409.4 407.9 404.2 404.6 398.6 388.2 384 381.6 375.9 366.3 360.5 365.9 363.1 350 317.8 300.3 294.8 287.9 282.4 271.6 271.7 271.9 277.2 271 260.8 250.6 248.9 247.5 245.5 243.4 243 248.2 242.6 235.6 235.2 237.5 235.9 230.6 229 229.5 228.3 227.3 227.6 230.1 235.8 240.8 244.6 248.1 249.8 249.2 248.1 247.7 248.3 251.1 251.9 251.3 253.4 259.6 266 267.6 268 266.3 263.5 260 260.8 258.2 256.6 255.9 251.4 245.7 242.4 241.9 244.9 246 245.9 243.8 242.6 237.8 230.6
184.8 192.9 199.9 206 210.9 212.2 217.7 220 220.4 220.7 221.9 223 223.9 224.9 226.6 228.3 225.1 222.7 238.4 239.3 240.4 241 242.3 245.1 247.8 249.7 250.4 251.2 251.4 251.3 251.3 251.5 252.5 254.6 255.6 254.8 249.4 244.5 235.1 222.1 198.8 165.7 139.2 133.8 124.1 115.3 80.4 55.5 30.7 15.3 15.3 15.3 15.3 15.3 15.3 15.3 15.3 15.3 15.3 15.3 15.3 15.3 15.3 15.3 15.3 15.3 15.3 15.3 15.3 15.3 15.3 15.3 15.3 15.3 15.3 15.3 15.3 15.3 15.3 15.3 15.3 15.3 15.3 15.3 15.3 15.3 15.3 15.3 15.3 15.3 15.3 15.3 15.3 20.1 36.9 61.8 93.5 130.2 153.9 166.1 194.8 224.7 250.7 281.2 313.7 334 333.1 341 348.7 366.3 400.3 410.6 410.2 413.5 418.5 418.4 422.2 422.5 419.6 416.7 417.7 418.8 410.1 405.9 402.8 396 385.7 373.9 367 364.3 354.3 357.1 356.3 347.9 331.1 304.4 296.1 290.3 285 282.2 272 271.7 276 278.3 263.4 254.9 251.4 250 247.7 246.2 242.3 241.2 239.7 236.6 232.8 232 231.7 228.5 226.5 225.5 226.4 226.1 224.8 225.9 230.3 235.3 239.8 241.4 243.7 242.3 238.8 238.6 239.3 242 245.4 245.2 243.8 247.1 252.2 259.9 260.2 260.6 259.5 256.4 251.1 248.6 246.8 245.4 243.6 241.2 235.5 231.7 232.5 235.2 236.1 235.9 233.2 230.5 225.1 219.3
195.4 203.5 210 215.1 219.1 221.1 222.7 225.5 225.7 225.9 226.1 227.2 228.7 230.4 232.1 233.8 234 226.5 241 242 243.6 244.9 245.9 248.5 250.5 252.5 252.8 251.5 252.1 252.2 253 254.9 255.1 255.8 254.2 250.2 242.5 235.8 226.8 208.8 182.3 146 127.7 128 126.6 108.1 72.7 44.5 15.3 15.3 15.3 15.3 15.3 15.3 15.3 15.3 15.3 15.3 15.3 15.3 15.3 15.3 15.3 15.3 15.3 15.3 15.3 15.3 15.3 15.3 15.3 15.3 15.3 15.3 15.3 15.3 15.3 15.3 15.3 15.3 15.3 15.3 15.3 15.3 15.3 15.3 15.3 15.3 15.3 15.3 15.3 15.3 24.5 39.9 56.8 76.6 112.9 145.6 163.3 180 207 240.1 267.6 300.1 330.5 349.8 354.4 348.5 363.3 385.9 407.9 407.5 409.9 421.6 422.6 424.6 425.2 422.7 422.3 429 431.2 426.7 417.3 412.2 402.8 392.2 380.1 366.1 357.6 349.7 345.1 350.2 344.5 336.7 312.4 304 294.4 286.5 283.7 286.6 280.6 271.7 280.8 269 255.5 251.8 251.4 252 250 244.7 243.3 242.1 239.6 234.1 230.4 228.3 227.3 224.5 222.8 222.2 223.3 224.3 224.1 224.6 231.9 234.7 237 238 237.3 234 229.8 230.8 232.6 234.3 238.7 237.7 237.4 241.8 247.1 250.5 252.7 255.4 252.8 247.3 242 237.8 235.4 233.3 232.2 231.1 225.7 222.8 222.4 224.6 225.4 224.8 222.5 219.2 217.5 215.9
205.9 213.3 218.1 222.4 226.1 228.6 226.1 229.5 230.3 230.5 230.4 231.5 233.4 235.1 236.8 238.5 239.6 239.9 239.4 244.2 245.6 246.9 248.9 251.1 252.8 254.7 253.8 252.8 253.2 254.3 257.4 259.1 258.1 257.5 253.1 246.3 235.9 226.6 210.6 189.6 162.1 133.3 118.7 130.3 120.4 96.8 69.3 34.2 15.3 15.3 15.3 15.3 15.3 15.3 15.3 15.3 15.3 15.3 15.3 15.3 15.3 15.3 15.3 15.3 15.3 15.3 15.3 15.3 15.3 15.3 15.3 15.3 15.3 15.3 15.3 15.3 15.3 15.3 15.3 15.3 15.3 15.3 15.3 15.3 15.3 15.3 15.3 15.3 15.3 15.3 15.3 28.2 47.4 65.5 79 97.6 127 157.7 177.9 199.7 226.6 258 288.2 317.5 342.2 354.3 363.1 356.7 376 400.8 403.4 406.6 424.6 430.1 423.9 425.5 424.4 423.6 434.6 439.9 434.9 421.9 427.9 422.8 406.1 396.5 386 374 356.5 344.2 339.9 338.4 326.1 319.3 312.3 297.3 288.7 283.6 281.7 283.2 276.1 273.2 276.2 259.1 251.8 251.4 251.7 254.5 250.4 244.4 243.5 242.7 236.8 232 228.2 225.2 223.5 222.6 220.6 220.6 220 222.4 223.4 225 232.2 233.8 233.9 233.6 232 227.9 227.4 226.7 227.5 228.8 231.2 231.1 233.5 237.8 242.7 245.2 246.3 248.3 241.1 235.3 230 224.7 223.7 222 221.2 221.7 217.2 215.8 215.3 215.1 215.5 215.5 215 215 214.3 214.5
216.2 222.2 225.8 229 232.1 234 231.8 233.8 234 234 234.4 235.4 236.4 238.7 240.7 241.6 242.6 244.1 238.3 245.7 247.2 248.5 251.4 254.3 256.5 257.9 254.9 254.7 258.8 257.9 263.2 259.5 256.8 251.9 247.3 239.1 226.1 213.9 195.6 174.7 143.1 123.7 114.2 122.6 104.1 78.9 55.2 15.3 15.3 15.3 15.3 15.3 15.3 15.3 15.3 15.3 15.3 15.3 15.3 15.3 15.3 15.3 15.3 15.3 15.3 15.3 15.3 15.3 15.3 15.3 15.3 15.3 15.3 15.3 15.3 15.3 15.3 15.3 15.3 15.3 15.3 15.3 15.3 15.3 15.3 15.3 15.3 15.3 15.3 15.3 27 49.7 68.3 81.2 98.8 116 145 175.5 198.2 216.4 244.8 274.6 305.4 330.4 350.7 363.2 368.9 368.6 380.9 397.5 396.7 418.6 433.6 422.9 421.1 421.6 424.5 430.4 437.4 434 424.9 414.7 428.2 420.3 414.9 399.4 393 372 359.1 339.6 335.4 331 320.8 313.9 301.5 291.6 285.7 280.1 274.2 271.9 266.4 263.7 260.4 251.9 250.6 250.6 251.2 253.3 247.4 244.5 242.5 238.7 234.6 231.5 228 224.7 222.5 221.3 219.5 218.1 220.8 222.7 221.3 224.4 229.6 232.6 232.7 229.3 226.3 226 225.8 225.4 225.1 225.9 227.2 227.8 231.1 234.1 237.2 238.2 237.6 233 229.2 224.2 219.9 217.1 215.7 215 214.7 214.6 213.9 213 214.2 214.6 214.6 214.7 214.6 214.2 213.9 214.1
226.4 230.5 231.7 235 237.2 237.4 235.4 237.1 237.3 237.5 238.4 239.4 240.5 241.5 243.7 244.4 245.4 246.5 241 247.3 248.7 251 253.9 256.9 259.8 261.4 258.2 256.2 258.7 260.6 265.9 258.8 255.4 249.8 243.1 232.5 215.7 196 179.2 157.6 125.8 112.9 105.1 97.5 76.9 53.6 23 15.3 15.3 15.3 15.3 15.3 15.3 15.3 15.3 15.3 15.3 15.3 15.3 15.3 15.3 15.3 15.3 15.3 15.3 15.3 15.3 15.3 15.3 15.3 15.3 15.3 15.3 15.3 15.3 15.3 15.3 15.3 15.3 15.3 15.3 15.3 15.3 15.3 15.3 15.3 15.3 15.3 15.3 20.7 46 67.2 80.5 97.1 111.1 134.4 167.4 197.2 214.6 226.9 261.9 292.3 317.7 343.3 355.6 368.7 371.1 379.3 388.8 393.8 405.5 431.1 433.4 420.4 416.3 417.1 416.7 426 424.1 416.6 410.4 414.9 416.9 417.1 404.9 397.4 384.8 372.2 354.2 345.6 341.8 338.2 323.3 303.5 292.5 286.5 281.3 275.1 271.6 266.1 263 258.9 255.3 250.4 249.7 249.7 252.9 250.7 245.5 243.3 238.8 233.8 230.2 226.9 224.5 223.1 221.4 219.7 215.7 220.2 223.2 221.9 220.3 222.3 226.8 227 226 225.6 226 225.4 224.7 224 224 224.9 225.8 225.6 227.4 229.1 230.5 229.8 227.4 224.2 221.1 216.1 213.5 213.2 213.2 213.2 213.3 213.9 214.2 214.3 214.6 214.9 215 215.1 214.8 214.6 214.4 214.4
233.8 236.9 237.7 240.4 240.3 240.6 240.1 239.7 239.9 240.6 241.5 242.5 243.7 245 245.8 246.2 246.9 247.8 244.3 248.6 250.6 253.8 256.9 260 263 266.9 266.3 257.8 258.4 258.2 257.3 256.8 251.2 244.7 234 219 201.5 181.1 162.2 135.8 111.9 100.4 90.8 77.2 54.4 23.1 15.3 15.3 15.3 15.3 15.3 15.3 15.3 15.3 15.3 15.3 15.3 15.3 15.3 15.3 15.3 15.3 15.3 15.3 15.3 15.3 15.3 15.3 15.3 15.3 15.3 15.3 15.3 15.3 15.3 15.3 15.3 15.3 15.3 15.3 15.3 15.3 15.3 15.3 15.3 15.3 15.3 15.3 15.4 37.1 63.1 77.6 89.8 108 133.2 160 189.4 215.2 228.7 246 275 307.9 330.5 348.9 362.1 369.1 382.6 384.6 393.1 404.2 415.7 430 433.8 421.5 413.3 407 406 411.2 410.4 408.4 397.6 404 410.3 407.1 404.4 397.5 385 376.2 358.3 349.7 346.2 331.9 308.8 296.6 289.3 282.1 277.4 272.6 269.7 263.2 262.1 257.5 254.4 251.3 248.9 250.6 252.8 249.6 245 240.7 234.6 229.3 225.8 222.9 222.5 220.7 218.6 215.8 216.8 221.4 220.4 219.1 220.1 224.2 224.9 224.4 224.9 225.3 225.7 225.6 224.9 223.6 222.3 223.3 223.1 223.4 223.9 224.7 224.9 222.8 220.5 217.1 214 212.8 213.5 213.5 213.6 213.7 213.7 214 214.4 214.6 215.1 215.4 215.5 215.6 215.3 215 215 215
239.2 241.6 243.5 243.3 243.4 243.4 242.7 242.3 242.8 243.7 244.6 245.5 246.4 247.6 247.9 247.8 248.5 247.6 246.8 250.2 252.8 256.5 259.7 262.8 263.2 268.4 271.1 268.8 261.3 256.5 250.3 248.5 244.4 233 218.9 203.3 187 167.2 148.1 121.3 100.3 92 75.3 60 25.7 15.3 15.3 15.3 15.3 15.3 15.3 15.3 15.3 15.3 15.3 15.3 15.3 15.3 15.3 15.3 15.3 15.3 15.3 15.3 15.3 15.3 15.3 15.3 15.3 15.3 15.3 15.3 15.3 15.3 15.3 15.3 15.3 15.3 15.3 15.3 15.3 15.3 15.3 15.3 15.3 15.3 15.3 15.3 20.1 52.3 74.8 84.3 99.5 126.8 155.4 188.6 213.5 233.1 240.8 269.7 290.7 325.7 344.8 356.6 367.8 382.9 389.9 390 420.6 410.1 419.3 429.1 426.8 423.8 417.4 407.9 399.4 399.9 399.1 394.7 385.7 399.8 407.3 404.6 405.6 398.5 391 372.8 354.5 344.4 324 309.3 299.7 292.3 285.5 278.9 276.3 274.7 270.4 265.2 260.1 253.6 252.8 250.5 248.8 251.1 251.5 248.1 240.9 234.4 229.2 225.8 222.7 221.4 222.3 220.6 215.7 212.5 213.9 216 216.9 216.3 221.2 225.2 223.2 223.8 224.3 224.9 225.5 225.8 224.5 222.5 221.3 221.3 221.7 222.1 221.7 221.1 220.3 217.3 215.3 212.7 212.6 213.2 213.7 213.9 214 214.1 214.2 214.3 214.5 215 215.5 215.9 216 216.1 215.8 215.5 215.5 215.5
244.1 245.8 246 246 246 245.8 245.3 245.1 246 246.9 247.8 248.7 249.3 249.7 249.6 249.4 249.1 249 248.9 251.4 255.5 259 262.5 262.4 265.1 267.9 270.2 267.7 267.7 258.3 251.9 250.3 240.2 219.4 201.6 189.2 173.9 152.8 134.7 107.4 88.7 74.7 58.1 26.9 15.3 15.3 15.3 15.3 15.3 15.3 15.3 15.3 15.3 15.3 15.3 15.3 15.3 15.3 15.3 15.3 15.3 15.3 15.3 15.3 15.3 15.3 15.3 15.3 15.3 15.3 15.3 15.3 15.3 15.3 15.3 15.3 15.3 15.3 15.3 15.3 15.3 15.3 15.3 15.3 15.3 15.3 15.3 15.3 22.2 53.1 74.9 90.8 113.1 142.8 173.3 222.8 239.1 250.5 260.2 286.6 305.2 343.9 356.3 365.2 373.8 384.8 391.9 406.6 420.5 421.2 416.7 419.5 420.2 422 415.1 412.1 396.7 392.2 383.7 376.9 381.7 394.8 398.2 407 401.2 399 380.1 368.5 345.2 325.7 311 301.9 294.9 287.7 282 279.8 279 275.2 270.3 263.7 258.1 253.1 250.4 248.6 249.2 248.8 249 242.7 235.5 229.9 225.2 221.9 221.8 220.5 219.6 214.8 212.3 211 213.5 211.9 213.8 214.8 218.7 224.2 223.6 223 224.9 224.2 224.9 225.5 223.1 221.8 220.8 219.8 219.6 219.6 219.1 217.8 215.8 212.2 212.5 212.9 213 213.6 213.8 213.9 214.1 214.2 214.4 214.5 214.8 215.5 215.9 216.3 216.5 216.5 216.2 216.1 216.1 216.1
248.1 248.3 248.4 248.5 248.1 247.6 247.1 247.5 248.1 248.9 249.8 250.3 250.7 250.8 250.4 249.9 249.4 249.2 249.3 253.8 259 262.1 265 261.7 261.3 264.9 268.2 263.8 258.2 252.7 250.7 249.2 235.8 212.2 192 181.7 159.4 139.7 121.6 90.3 73.6 57.2 20 15.3 15.3 15.3 15.3 15.3 15.3 15.3 15.3 15.3 15.3 15.3 15.3 15.3 15.3 15.3 15.3 15.3 15.3 15.3 15.3 15.3 15.3 15.3 15.3 15.3 15.3 15.3 15.3 15.3 15.3 15.3 15.3 15.3 15.3 15.3 15.3 15.3 15.3 15.3 15.3 15.3 15.3 15.3 15.3 19.2 40 61.9 80.6 104.6 130.6 158.5 191.4 231.7 260.9 266.4 286.8 309.5 333.3 351.9 362.6 368.7 375 383.5 395.6 411 429.1 422.1 416.3 410.1 410.6 413.5 406.6 397.6 385.5 378.2 368.7 367.4 379.8 387.8 396.7 399.9 397.7 389.9 374.8 357 328.6 312.6 304.3 297.8 291.4 285.9 284.4 283.9 279.9 274.2 268.6 262.5 255.7 250.6 246.5 246.3 244.7 244.6 242.2 236.4 231.3 225.9 220.9 217.9 217.1 216.7 214.9 211.8 209.4 209.3 210.2 209.4 210.4 212.4 216.3 221.7 222.3 226.3 227.4 225.3 225.6 224.5 222.6 221.2 220.3 219.4 217.3 217.3 216.4 213.9 211.4 213.1 212 212.8 213.5 213.7 213.9 214 214.1 214.3 214.4 214.9 215 215.3 215.3 216.8 217.1 217.1 216.6 216.6 216.6 216.7
250.4 250.5 250.6 250.3 250 249.6 249.1 249.8 250.4 251 251.6 251.3 251 250.8 250.5 250.1 249.7 249.3 251.1 257.8 261.8 263.8 263.8 259.4 258 257.7 258.1 257.1 250.5 242 245.1 237.4 229.9 208 182.9 169.4 143.8 127 102.1 80 61.3 29.9 15.3 15.3 15.3 15.3 15.3 15.3 15.3 15.3 15.3 15.3 15.3 15.3 15.3 15.3 15.3 15.3 15.3 15.3 15.3 15.3 15.3 15.3 15.3 15.3 15.3 15.3 15.3 15.3 15.3 15.3 15.3 15.3 15.3 15.3 15.3 15.3 15.3 15.3 15.3 15.3 15.3 15.3 15.3 15.3 23.6 39.7 58.5 78.6 97.1 124.9 151.5 174.5 211.5 254.6 273.8 287.7 307.7 329.4 344.8 359.9 364.4 367.2 371.4 385.2 401.2 412.4 424.2 421.3 419.1 408.3 405.9 403.3 395 376.9 365.7 360.6 360.8 366.2 373.7 382.6 392.1 389.2 386.6 378 364.8 342.3 316.1 306.5 300.2 294.7 290.5 289.5 288.2 286.3 279.5 273.5 267.7 259.7 251.5 247.5 244.8 240.4 239.4 239 235.9 230.7 226.1 222 217 214.3 212.4 211.3 211.3 210.4 203.7 203.9 207 207.9 208.5 210.4 212.9 218.6 224.1 229.8 231 227.9 223.6 223.8 222.2 220.7 219.5 218.1 216.3 213.5 213.2 212.2 212.7 213 212.6 212.8 213.1 213.8 213.9 214.1 214.2 214.4 214.8 215.4 214.8 216 215.2 216.5 217.1 217.1 217.4 217.4 217.4 217.4
252.6 252.4 251.9 251.7 251.9 251.5 251.4 252.1 252.7 253.1 252.4 251.6 251 250.7 250.4 250.1 249.7 250.7 254.7 259.4 262 263 261.4 256.2 255.8 255 257.7 251.5 240.9 234.8 232.1 222.3 218.6 197.2 164.6 152 127.1 107.1 85.1 66 43.5 15.3 15.3 15.3 15.3 15.3 15.3 15.3 15.3 15.3 15.3 15.3 15.3 15.3 15.3 15.3 15.3 15.3 15.3 15.3 15.3 15.3 15.3 15.3 15.3 15.3 15.3 15.3 15.3 15.3 15.3 15.3 15.3 15.3 15.3 15.3 15.3 15.3 15.3 15.3 15.3 15.3 15.3 15.3 15.3 21.6 39.8 56.9 74.3 93.5 115.6 148.8 172.5 197.5 230.8 274.9 289.3 312.4 323.9 334.4 350.3 360.3 364.2 363.5 374.3 391.3 399.4 409.4 418.9 419.8 416.7 405.8 398 387.3 372.7 357.4 356.2 356.3 353.6 356.1 363.8 374.7 377.3 383.2 378.7 368.4 344 317 308.6 303.4 298.6 296.8 296.9 295.6 293.9 287 278.6 273.6 263.6 256.6 250.5 246.2 241.9 237.5 233.6 232.7 231.8 226.5 220.5 217.4 214.4 211.4 209.3 205.2 204.2 201.8 197.9 206.4 204.4 206.6 206.8 209.6 211.4 215.2 224.5 226.4 231.3 227 221.2 219.2 218 217.4 216.7 215.4 213.1 211.8 212.3 212.1 212.6 212.8 212.4 213.2 213.5 213.5 214 214.1 214.3 214.7 215.3 215.6 215.2 215.7 215.7 216.2 217.2 217.5 217.3 217.2 217.2 217.2
252.6 253.5 253.2 253.1 253.4 253.4 253.7 254.4 254.4 253.8 253.1 252.3 251.4 250.8 250.4 250.1 251.5 255 258.4 260.8 263.2 260.9 256.3 255.2 258.4 255.1 250.7 243 231.8 227.6 222.8 211.3 196 176.8 147 132.8 112.1 91 69.7 51.1 21.5 15.3 15.3 15.3 15.3 15.3 15.3 15.3 15.3 15.3 15.3 15.3 15.3 15.3 15.3 15.3 15.3 15.3 15.3 15.3 15.3 15.3 15.3 15.3 15.3 15.3 15.3 15.3 15.3 15.3 15.3 15.3 15.3 15.3 15.3 15.3 15.3 15.3 15.3 15.3 15.3 15.3 15.3 15.3 26.8 44.3 56 76.1 93 111.2 137.6 167.6 191.9 218.9 253.2 286 312.8 317.4 329.5 337.3 353.4 354.8 357.9 362 377.3 390.7 398.8 406.4 422.9 423.2 417.3 398.1 373.1 358.3 355.9 356.6 358.2 347.8 342.8 348 364.9 368.5 373.8 380.5 368.6 346.9 318.9 311.9 306.1 302.8 302.7 303.6 303 303.2 294.6 284.6 278.1 272.7 261.3 250.4 246 243.6 240.5 235.6 230.2 227.8 227.6 221.3 215.3 211.2 209.7 207.3 203.3 198.9 197.2 195.3 197.1 198.2 199.7 204.6 206 208.7 212.3 217.6 223.8 223.8 221.6 220.1 217.7 212.7 211.5 212.4 210.5 211.4 210.8 211.6 211.2 212.3 212.5 212.5 212.9 213.2 213.5 213.5 213.4 213.3 214.4 214.7 215 215.2 215.2 215.3 215.5 216.8 217.3 217.9 217.8 217.2 217.2 217.2
253.8 254.7 254.4 254.5 254.8 255.2 256.1 255.7 255.1 254.4 253.8 253 252.1 251.3 250.7 252.2 256.1 259.5 260.9 262.3 262 260.2 257.2 255.1 254.7 254.3 247.2 236.3 232 222.1 211.8 198.7 178.9 154.1 130.5 105.3 86.1 69 53.8 31.6 15.3 15.3 15.3 15.3 15.3 15.3 15.3 15.3 15.3 15.3 15.3 15.3 15.3 15.3 15.3 15.3 15.3 15.3 15.3 15.3 15.3 15.3 15.3 15.3 15.3 15.3 15.3 15.3 15.3 15.3 15.3 15.3 15.3 15.3 15.3 15.3 15.3 15.3 15.3 15.3 15.3 15.3 17.4 33 50.2 70.3 86.2 101.6 118.8 135.6 159.8 182.4 211.7 238 260.9 315.1 325 318 330.2 338.1 345.6 347.6 352.1 360.1 373 386.1 396.9 405.3 415.9 418.6 399.4 376.9 359.6 357.1 355.9 355.4 346.3 340.4 338.7 345.6 356.4 368 369.8 364.5 344.3 320.6 313.8 309.3 305 308.4 312.7 312.8 311.8 303.2 292.1 283 276.4 268 255.1 246.2 241.8 239 233.2 228.6 223.2 219.8 221.2 218 211.2 205.7 202.1 200.3 196.5 196.1 195.6 196.1 197.5 197.2 203.2 207 207.8 210.5 218.3 219.1 220.6 222.3 221.9 216.3 213.3 210.5 210.8 210.5 210.7 211.1 211.5 211.3 211.3 212.2 212.4 212.6 212.9 213.1 213.4 213.5 213.4 213.3 214.3 214.1 214 214.5 215 215.1 215.3 216.7 217.7 218.4 217.8 217.8 217.2 217.1
256.8 256.3 255.9 256.5 257.1 257.8 257.4 256.7 255.8 255.1 254.5 253.7 252.8 251.9 252.2 254.9 258.9 262.3 263.1 262 260.6 258.9 256.7 252.7 248 247.3 238.7 223.2 214.4 207.5 201.5 179.6 152.9 133.6 106.7 85.5 66.9 52.8 30.9 15.3 15.3 15.3 15.3 15.3 15.3 15.3 15.3 15.3 15.3 15.3 15.3 15.3 15.3 15.3 15.3 15.3 15.3 15.3 15.3 15.3 15.3 15.3 15.3 15.3 15.3 15.3 15.3 15.3 15.3 15.3 15.3 15.3 15.3 15.3 15.3 15.3 15.3 15.3 15.3 15.3 15.3 15.7 35.7 52.4 71 92.3 104.7 127.9 144.6 159 177.7 203.5 230.2 250.8 288.8 329.8 327.3 319.9 333.5 330.7 338 342.7 347.8 356.6 365.9 380.8 396 402.2 408.1 401.3 382.3 366.2 362.2 365 359.7 345.6 335.1 327.2 332.3 340.3 351.1 365.4 359.6 339.6 322.9 316.3 310.7 309.3 313.6 319.2 328.7 324.6 313.6 299.7 291.1 283.6 271.7 261.8 252.7 244.7 238.4 233.9 228.8 222.4 218 210.5 214.4 212.2 205.6 200.8 196.8 196.3 196 195.6 194.2 196.6 198.8 201.8 200.3 202.4 210.3 212.5 218.6 221 224.3 228.1 218.9 213.6 212.3 210.1 211 210.2 210.4 212 213.2 212 212 212.1 212.3 212.5 212.8 213 213.3 213.5 213.4 213.5 214.3 214.7 214.9 214.8 215.1 215 215.2 217.1 217.6 217 218 217.8 217.4 217.2
258.2 258.3 258 258.5 259 258.9 258.2 257.6 256.8 256 255.2 254.4 253.3 253.4 255 257.8 261.5 264.6 263.9 261.7 259.4 257.5 254.9 249.9 245.9 239.9 220.6 212.9 202.1 190 178 154.7 136.3 108.4 87.2 71.4 54.7 29.3 15.3 15.3 15.3 15.3 15.3 15.3 15.3 15.3 15.3 15.3 15.3 15.3 15.3 15.3 15.3 15.3 15.3 15.3 15.3 15.3 15.3 15.3 15.3 15.3 15.3 15.3 15.3 15.3 15.3 15.3 15.3 15.3 15.3 15.3 15.3 15.3 15.3 15.3 15.3 15.3 15.3 15.3 15.3 25 48.8 69.4 89.9 106.7 121.3 141.4 162 182.5 203.7 230.2 249.1 269.5 304 328.9 327.3 320.1 320.3 325.3 333.6 339.2 345.7 354.4 364.5 382.6 393.6 399.9 403.8 386.6 372.7 366.2 368.6 367.9 355 342.4 327 322 326.1 335.4 344.6 349.3 337.4 323.3 317.7 312.7 311.4 315 328.9 335.4 337.1 323.8 306.7 297.8 292.5 282 266.9 256.2 247 242.5 236 231.8 226.1 219.6 214.1 208.3 206.4 205.4 200.7 196.2 195.2 195.5 195.7 195 195.9 203 208.6 210.3 205.7 207 208.3 208.5 212.5 218.7 220.7 215.8 213.4 209.7 209.6 210.1 210.5 211 211.6 212.1 212.9 215.4 216.9 215.3 212.2 212.4 212.7 212.9 213.2 213.5 213.4 213.9 214.3 214.6 214.8 215.2 215.8 215.9 215.7 216.8 217.5 217.9 218.2 218.1 217.8 217.5
259.5 260 260.1 260.5 259.9 258.8 258.2 257.6 256.9 255.9 255 254.1 253.6 256 257.8 260 264.1 265.9 264 261.5 259.2 256.5 253.3 247.1 240.3 225 214 207.1 185.4 173.8 153.5 135.9 119.8 90.4 72.4 61 37.9 15.3 15.3 15.3 15.3 15.3 15.3 15.3 15.3 15.3 15.3 15.3 15.3 15.3 15.3 15.3 15.3 15.3 15.3 15.3 15.3 15.3 15.3 15.3 15.3 15.3 15.3 15.3 15.3 15.3 15.3 15.3 15.3 15.3 15.3 15.3 15.3 15.3 15.3 15.3 15.3 15.3 15.3 15.3 15.3 31.6 53.7 80.4 104.5 117.4 140.6 157.5 174.9 201.3 224.7 251.8 278 288.3 312 325.6 324.6 314.6 318.4 324.4 330.6 335.9 340.9 349.6 369.7 388 401.2 404.8 392.7 375.4 374 367 361.9 358.2 349.7 333.5 317.5 313 318.5 328.8 330.6 329.1 321.6 317.7 313.2 311.8 313.1 326.7 342.5 347.1 340.4 313.2 304 298.5 289 276.4 263.7 251.4 242 239.6 233.2 226.2 222.9 216.9 211.8 206.4 200.8 199.8 196.4 195.4 194.7 193.3 193.5 201.2 209.6 216.2 215.4 215 212 212.7 212.7 209.1 208.5 209.6 210.7 209.9 209.8 212.3 211.8 211.9 212.3 211.4 211.5 214 214.4 217.7 217.1 215.9 212.2 212.4 212.6 212.9 213.1 213.4 213.4 213.9 214.2 214.6 214.7 215 215.8 216.3 217 220.6 221.6 220.2 217.8 217.9 218.6 219.6
260.8 261.3 261.7 261.3 260.1 259 258.1 257.5 256.8 255.6 254.5 253.5 255.2 257.7 259.9 262.1 264.8 265.7 264.1 261.5 258.9 256.2 252.2 245.9 232.4 216.4 208.6 197.3 180 163.5 142.1 124.3 101.3 76.4 61.4 45.8 19.3 15.3 15.3 15.3 15.3 15.3 15.3 15.3 15.3 15.3 15.3 15.3 15.3 15.3 15.3 15.3 15.3 15.3 15.3 15.3 15.3 15.3 15.3 15.3 15.3 15.3 15.3 15.3 15.3 15.3 15.3 15.3 15.3 15.3 15.3 15.3 15.3 15.3 15.3 15.3 15.3 15.3 15.3 15.3 18.6 46.6 58.6 88.7 118.2 140.3 168.5 179.5 197.7 223.8 245.9 282.4 304.2 312.9 316.1 321.9 318.4 311.9 315.8 320.8 327 330.6 332.4 346.5 371.9 386 396.4 377.8 368.6 369.7 366.6 360 354.7 350.1 341.1 325.5 312.1 302.3 312 321.1 322.8 321.2 316.7 313.9 312.5 312.8 325.3 340.9 345.2 340.6 320 312.5 306.7 293.6 279.9 268.3 257 248.3 239.5 233.2 228.4 223 215.8 210.6 206.3 201.5 197.5 196.7 195.4 194.7 194.6 194.4 202.1 215.3 233.9 235.4 227.6 219.8 219 224.9 226.8 221.8 218.2 218.9 220 221.5 216.4 215 213.3 213 213 213.2 211.5 215.3 214.9 217.2 216.7 215.6 212.5 212.6 212.8 212.9 213.1 213.3 213.6 213.9 214.2 214.5 213.8 214.3 214.7 216.1 217.8 219.4 222.1 222.5 217.7 218.9 219.2 221.6
262.1 262.6 262.7 261.6 260.3 259.2 258.2 257.3 256.6 255.5 254.3 254.5 256.8 259.8 263.6 264.9 265.5 265 264.1 261.6 259 256.5 253.5 245.7 230.1 221 208.1 192.9 178.9 159.3 134.3 112.1 85.7 64.4 52.8 28.1 15.3 15.3 15.3 15.3 15.3 15.3 15.3 15.3 15.3 15.3 15.3 15.3 15.3 15.3 15.3 15.3 15.3 15.3 15.3 15.3 15.3 15.3 15.3 15.3 15.3 15.3 15.3 15.3 15.3 15.3 15.3 15.3 15.3 15.3 15.3 15.3 15.3 15.3 15.3 15.3 15.3 15.3 15.3 15.3 38.3 67.6 87.1 118.7 145.3 172.3 193.2 210.2 231 247.7 269.7 299.7 317.5 321.4 317.2 317 309 307.4 311.2 315.9 321.7 323.1 325.5 343.1 367.3 370.5 364.6 361.3 360.6 358.2 355.3 351.9 348.8 334.1 319.6 303.2 296.8 296.4 308.4 315.9 316.6 315.3 313.2 312.1 315.5 318.3 339.6 350.7 344.5 324.9 315.1 315.6 302.2 287 272.3 257.7 249.4 242.1 237.2 231.6 224.8 220.3 213.8 207.3 201.8 197.7 195.3 195.8 193.9 192.5 194.8 198.4 213 228.4 245.8 252.5 240.6 234.2 226.2 231.2 236.8 231.5 229.3 228.3 228.5 227.9 223.3 218.4 216.1 215.5 213.6 213.8 213 212.2 216.8 217.1 216.5 217.6 213 213.1 213.2 213.3 213.4 213.7 213.7 213.5 213.8 214.1 214.1 214.7 215.8 218.1 218.6 219.3 220.8 222.5 219.1 219.3 219.7 222.3
263.5 263.9 263.7 262.4 260.5 259.4 258.4 257.4 256.4 255.3 255.1 256.6 258.9 263 266.2 267.4 267.4 265.8 264.3 262.6 260 259.6 259.3 256.6 249.9 233.5 208.7 190.2 171 145.8 125.4 100.9 79.2 60.8 34.3 19.6 15.3 15.3 15.3 15.3 15.3 15.3 15.3 15.3 15.3 15.3 15.3 15.3 15.3 15.3 15.3 15.3 15.3 15.3 15.3 15.3 15.3 15.3 15.3 15.3 15.3 15.3 15.3 15.3 15.3 15.3 15.3 15.3 15.3 15.3 15.3 15.3 15.3 15.3 15.3 15.3 15.3 15.3 15.3 23.8 59.3 85 105.3 142.1 172.7 202.6 218.1 238.1 255.8 281.4 291.6 308.6 324.8 318.1 313.4 312.6 304.3 302.1 306.7 310.1 314.2 317.9 321.6 333.4 347.4 358.1 356.5 351.3 351.4 346.8 345.1 333.1 320.6 306.6 292.7 288 290.8 295.1 306.8 311.8 312.5 311.9 310.3 314.3 317.9 327.2 337.6 338 327.9 317.3 316.4 313.4 294.1 281 263.3 253.6 243.8 236.7 229.7 226.7 219.2 212.2 208.4 203.8 198.3 194.9 195 194.4 193 195.7 196.6 210.4 222.5 238 256.2 266 258.6 250.1 236.6 240.6 244.1 238.4 237.1 236.3 236.4 235.6 230.5 224 221.1 218.2 215.6 216.3 214.7 212.4 216.1 216.4 217 217.9 218.8 213.1 213.3 213.5 214 213.8 214.2 213.4 213.4 213.9 216.7 217.2 218.2 219.8 222.3 221.6 219.6 221.1 220 219.1 221.1 223.3
264.8 265.1 264.1 263 261.8 259.5 258.1 256.7 255.4 254.8 256.2 257.6 260.9 265 266.2 266.8 266.7 265.5 264.4 262.8 261 262.2 261.3 258.6 252.7 242 214.4 186.9 164.4 136.7 111.7 89 70.3 51.6 28.4 15.3 15.3 15.3 15.3 15.3 15.3 15.3 15.3 15.3 15.3 15.3 15.3 15.3 15.3 15.3 15.3 15.3 15.3 15.3 15.3 15.3 15.3 15.3 15.3 15.3 15.3 15.3 15.3 15.3 15.3 15.3 15.3 15.3 15.3 15.3 15.3 15.3 15.3 15.3 15.3 15.3 15.3 15.3 17.4 45.2 75.9 103.3 130.2 166.8 205.1 226.4 240.7 260.7 286.5 307.5 309.7 312.4 323.1 314.2 306.2 302.2 299.4 299.1 300.7 304.1 308.2 313.7 318.7 329.4 340 349.6 346.3 336.5 333.9 328.8 320.8 310.9 297.6 284 280.7 284.6 288.2 297 305.5 307.6 309.5 309.2 308.9 311.6 319.7 327.1 324.8 326.4 318.5 309.4 315.4 307 285.7 266.7 255.6 248.9 239.4 233.7 224.8 219.1 213.3 207.6 201.8 198.7 194 193.8 194.5 195.8 194.7 195.8 206.6 218.7 230.6 244.9 261.1 275.2 272.4 259 250.7 251.2 250.7 247.2 246.2 245.1 244.9 240.8 236.7 232.8 226.1 223.8 222.7 220.2 215.1 214.5 215.9 216.7 217.7 219.1 219.2 215.8 214.1 214.3 213.8 214.2 215 214.7 215.2 216.8 220.7 221.7 223.9 228 230.8 229.6 223.7 220.5 220.2 221.7 219.6 219.8
265.5 265.2 263.8 262.1 261.1 258.9 257.3 256.2 255 255.5 256.8 259.2 263.1 265.5 265.4 266 265.8 264.6 264 264.2 265.1 266.7 263.6 257.8 247.5 235 215.6 175.4 150.4 128.2 95.3 78.1 61.6 36.9 17.8 15.3 15.3 15.3 15.3 15.3 15.3 15.3 15.3 15.3 15.3 15.3 15.3 15.3 15.3 15.3 15.3 15.3 15.3 15.3 15.3 15.3 15.3 15.3 15.3 15.3 15.3 15.3 15.3 15.3 15.3 15.3 15.3 15.3 15.3 15.3 15.3 15.3 15.3 15.3 15.3 15.3 15.3 16.4 38 63.2 93.3 119.9 159.3 198.3 228.5 247.8 263.4 289.4 310.6 329 324.8 317.7 315.9 309.8 302.3 300.7 299.4 299.2 299.2 299.8 302.4 308.1 317.8 327.6 335.3 339.3 333.9 323.9 316.6 309.5 302.3 289.4 279.7 275.8 277.5 281.8 289.7 298.1 302.2 304.2 306 309.2 310.1 311.2 318.4 322.4 322 316.9 305.4 311.4 305.5 290.5 269.8 258.5 249 242.4 234.7 228.4 222.2 214.3 206.8 201.9 197.2 195.4 192.9 195.3 195 195.2 195.4 201.6 216 229.2 241.3 252.1 261.4 268.2 268 263.8 263.7 259.7 258.1 259 259 255.4 252.9 246.3 242.2 239.1 234.6 227.8 226.5 221.1 215.1 215.2 216.3 217.2 218.4 219.5 219 217.2 215.3 215.2 216.2 216.4 216.9 217.3 217.9 218.9 224.3 231.9 237.3 241.7 245.8 243.9 233.9 221 220.7 221.6 220.8 220.4
265.6 265.4 263.8 261.9 259.5 258.4 257.3 256.1 255.7 256.7 258.3 261.3 265.4 265.7 263.7 264.5 266.5 266.9 267.1 267.5 269.2 269.3 265.8 257 244.5 230.6 208.9 175.7 135.6 107.7 83.2 67.8 45.8 23.9 15.3 15.3 15.3 15.3 15.3 15.3 15.3 15.3 15.3 15.3 15.3 15.3 15.3 15.3 15.3 15.3 15.3 15.3 15.3 15.3 15.3 15.3 15.3 15.3 15.3 15.3 15.3 15.3 15.3 15.3 15.3 15.3 15.3 15.3 15.3 15.3 15.3 15.3 15.3 15.3 15.3 15.3 15.7 36.4 55 82.6 117.2 146.4 190.6 228 252.2 268.2 296.8 309.6 326 341.3 333.1 322.1 317.1 305.7 303.4 300.7 299.4 299.5 299.5 298.9 299 303.6 316.7 328.3 328.8 326.3 319.4 309.7 298.4 289.4 281.3 275.6 273.1 272 274 283.5 291.1 295.4 298.7 300.9 303.6 307.4 307.1 306.7 313.2 316.2 314.3 311.2 297.7 308 286.1 267.6 258.7 249.7 241.3 234.2 228 220.7 215 208 201.3 196.6 195.4 194.3 194.5 195.6 195.1 195.5 198.6 209.6 223.9 237.7 247 255.4 262.7 269.1 271.4 273.1 277.8 271.7 272.8 280.4 273.7 267.5 260 252.9 247.7 243.4 237.5 231 227.2 219.7 216.1 215.9 216.7 217.9 218.8 219.6 219 217.7 217.6 218.6 220 219.4 219.2 220.4 221.6 226.9 236.2 245.2 251.8 252.6 257.5 252 234.5 222.4 221.7 222 220.8 220.9
265.8 265 262.7 260.5 259.1 258.3 257.2 256.1 256.8 257.6 260.7 264.2 266.1 265.3 264.9 264.8 268 268.2 268 271.9 272.4 270 264.2 255.8 236.5 218.2 193.3 162.4 120.3 90.3 74 56.6 28.4 15.3 15.3 15.3 15.3 15.3 15.3 15.3 15.3 15.3 15.3 15.3 15.3 15.3 15.3 15.3 15.3 15.3 15.3 15.3 15.3 15.3 15.3 15.3 15.3 15.3 15.3 15.3 15.3 15.3 15.3 15.3 15.3 15.3 15.3 15.3 15.3 15.3 15.3 15.3 15.3 15.3 15.3 15.6 34.6 52.4 70 96.5 133.4 168.7 216 252.6 270.2 294.6 324.4 326.4 330.7 344.7 335.6 325.6 320.6 312.8 302.6 300.7 299.9 300.8 299.4 298.7 298.4 300.6 311 317 313.9 310.2 301 290.3 283.3 275.7 270.7 267.7 266.7 266.7 275.4 283.3 287.7 291.1 294.5 297.1 301.7 297.2 297.1 301.4 308.6 302.7 303.1 293.5 289.2 287.4 268.6 259.6 250.7 242.4 234.1 229.1 222.1 214 207.7 200 196.4 195 195.5 193.2 193.5 195.6 195.1 197.5 206.2 220 232.5 246.4 254 260.5 266.6 272.8 280.7 291 282.7 283.5 291.2 297 284.1 274.2 265.8 258.6 252.9 246.4 239.1 232.5 224.5 216.9 216.3 216.6 218.2 219.1 219.6 219.7 219.7 220.7 222.3 224.1 224.1 223.1 222.4 223.9 227.6 235.1 246.2 253.1 265.1 267.9 263.9 251 236.1 226.5 222 221.3 220.7 221.3
265.9 264.6 262.3 260.3 259.1 258.1 257 256.9 257.5 258.9 262.2 263.9 264.4 264.9 267.2 267.1 269.3 268.9 266.8 274 274.4 268.3 260.7 250.3 231.3 199.2 176.7 144.8 107.7 79.1 65.8 37.3 15.3 15.3 15.3 15.3 15.3 15.3 15.3 15.3 15.3 15.3 15.3 15.3 15.3 15.3 15.3 15.3 15.3 15.3 15.3 15.3 15.3 15.3 15.3 15.3 15.3 15.3 15.3 15.3 15.3 15.3 15.3 15.3 15.3 15.3 15.3 15.3 15.3 15.3 15.3 15.3 15.3 15.3 15.8 37.3 55 66 85.2 115 150.9 200.5 246.1 276.1 278.8 323.2 336 338.8 333.7 336.7 337 329.8 317.7 309 303.2 301 300.4 302.8 300.6 300 297.9 299.8 303.6 304.3 299.1 294.4 286 279.7 273 266.4 262.7 261.2 261.6 267 276 281.5 284.8 287.3 290.3 292.7 293.6 290.4 290.4 293 301.7 292.5 286.1 282 275.5 268.1 260.7 252.2 242.3 234.8 228.5 221 213.3 205.9 199.9 196.9 195.3 195.1 194.8 193.2 193.8 195.4 198.4 204.3 216.5 230.7 242.5 251.4 258.3 265.9 272.1 278.9 285.2 288.8 294 303 303.6 299.8 288.7 277.6 268.7 261.5 255 247.2 239.2 230.4 218.7 216.6 217 217.2 218.6 219.5 220.2 221.5 223.6 226.1 227.3 228.9 228.3 227.2 226.4 228.9 232.5 242.1 253.7 260.6 276.9 275.1 265 248.1 235.6 225.4 221.9 221.5 220.8 221.3
266.1 264.2 261.5 259.5 258.8 257.9 257.4 257.7 258.3 261.7 264.9 264.3 263.4 265.1 267.9 269.4 270.2 270 264.3 271.4 271 262.9 252.9 241.1 220.5 186 155.2 124.7 95.9 71.5 48 18.3 15.3 15.3 15.3 15.3 15.3 15.3 15.3 15.3 15.3 15.3 15.3 15.3 15.3 15.3 15.3 15.3 15.3 15.3 15.3 15.3 15.3 15.3 15.3 15.3 15.3 15.3 15.3 15.3 15.3 15.3 15.3 15.3 15.3 15.3 15.3 15.3 15.3 15.3 15.3 15.3 15.3 15.3 36.6 54.8 69.9 85.8 107.3 143.7 179.4 229.8 267.8 287.3 292.7 328.5 336.8 344.4 334.5 331.5 330.9 325.1 310.9 305.7 301.5 301.5 301.1 303.8 304.7 304.7 298.5 300.3 299.8 296.9 291.3 285 280.1 273.4 266.4 261.8 259.3 258.1 259.8 270 275.3 278.8 281.3 283.9 284.6 284.8 286.3 283.9 283.6 285.2 283.3 281.6 276.8 270.8 266.3 259.5 250.5 242.1 235.5 228.6 222.6 215 207.6 199 195.6 195 195.1 195.3 194.7 193.2 195 198.6 203.6 215.3 226.7 238.2 249.7 255.8 262.1 269.3 277.1 284.3 289.4 296 311.7 320.9 316.2 299.5 290.9 280.7 271.5 262.8 253.8 245.1 236.8 224.5 217.6 216.9 217.5 218 218.8 222.6 225.5 227.6 229.8 231.9 232.8 233.6 232.6 232.2 231.1 232 235.8 246.1 260.5 263 278.1 278.8 259.5 244.9 234.9 224.5 221.7 221.9 222.2 221.8
265.7 263.2 260.6 259.3 258.7 258 257.9 258.1 259.8 263.3 264.7 263.2 262.3 265.5 268.3 270.4 270.5 270.4 261.2 265.8 264.1 257.5 246 226.9 199.2 161.9 130.2 104.5 87.4 61.1 33.1 15.3 15.3 15.3 15.3 15.3 15.3 15.3 15.3 15.3 15.3 15.3 15.3 15.3 15.3 15.3 15.3 15.3 15.3 15.3 15.3 15.3 15.3 15.3 15.3 15.3 15.3 15.3 15.3 15.3 15.3 15.3 15.3 15.3 15.3 15.3 15.3 15.3 15.3 15.3 15.3 15.3 15.3 33.8 62.2 76.3 88.2 105 129.2 167.6 212 250.6 278.6 288.1 314.7 327.7 335.9 340.8 329.8 326.9 326.5 317 301.5 300.7 301.1 301.3 303.3 304.6 306.7 303 297.2 296.6 294.4 290.1 285.7 280.3 274.3 268.8 263.4 258.5 256.6 255.2 261.8 268.7 272.2 275.1 277.3 278.3 278.8 277.6 278.4 278.3 277.2 276.8 274.6 271.3 266.6 261.9 257.5 249.7 242.5 234.4 228.6 222.7 215.6 207.6 201.1 195.3 193.8 194.4 194.9 195.2 193.8 194.3 197.8 203.6 209.6 223.1 234.2 243.8 253.1 259.9 266.7 273.2 281.3 288.7 294.8 307.1 321.6 325.6 308.2 301.4 294.1 286.2 274.5 261 252.2 242.5 231.8 219.4 217.2 217.4 218 219.1 223.5 228 231 232.9 234.9 236.9 237.9 238.5 237.3 236.7 234.3 234.4 240.1 252.8 267.5 266.1 279.6 273.2 252.1 245.5 233 223.3 222.7 223 223.3 223.2
264.6 262.1 260.2 259.3 258.9 258.4 259.1 259.7 261.9 264.2 264.3 262.6 262 264.4 266.8 268.6 269.5 268.4 257.7 257.7 256.8 248 232.3 210.7 174.3 132.4 107.5 89.3 70.1 46.8 15.8 15.3 15.3 15.3 15.3 15.3 15.3 15.3 15.3 15.3 15.3 15.3 15.3 15.3 15.3 15.3 15.3 15.3 15.3 15.3 15.3 15.3 15.3 15.3 15.3 15.3 15.3 15.3 15.3 15.3 15.3 15.3 15.3 15.3 15.3 15.3 15.3 15.3 15.3 15.3 15.3 15.3 24.5 61.3 81.8 95.5 115.1 128.2 150.8 184.1 233.9 266.7 285.9 300.7 325.5 335.7 337 333.1 326.5 321.5 318.1 311.8 299.7 299.9 300.6 302.3 305.6 304.8 307.7 297.5 292.9 291.5 289 284.6 280.2 276.4 272.4 267.8 261.1 255.4 253.8 253.6 261.6 265.8 267.3 270 271.7 272.8 273 272.2 270.2 270 269 267.4 262.8 259.1 256.5 252.7 248.2 242 233.3 227.6 221.3 215 206.9 200.3 194.9 194.3 192.5 194.3 192.5 194.2 194.8 196.6 202 210.4 219.1 229.6 239.8 250 258.2 264.9 271.2 277.5 285.2 293.3 302.4 317.9 324.4 314.8 312.5 310.5 299.6 288.7 275.4 259.8 248.6 238.7 225.4 218.5 217.5 218.1 218.6 222.3 228.5 232.6 236 237.9 240.2 242 242.9 244.3 243.3 241.5 237.9 238.4 243.6 257.7 272 268.4 274.4 254.6 253.8 246.9 230.1 225.3 223.6 225.2 225.7 223.9
263.5 261.4 260.2 259.3 258.9 259 259.7 261.3 264.4 268.9 262.6 260.3 260.9 263 264.9 266.2 267 266 253.8 251.7 248.4 235.3 218.2 184.5 140.1 109.6 87.7 79.7 58.2 30.5 15.3 15.3 15.3 15.3 15.3 15.3 15.3 15.3 15.3 15.3 15.3 15.3 15.3 15.3 15.3 15.3 15.3 15.3 15.3 15.3 15.3 15.3 15.3 15.3 15.3 15.3 15.3 15.3 15.3 15.3 15.3 15.3 15.3 15.3 15.3 15.3 15.3 15.3 15.3 15.3 15.3 27.1 48.1 76.3 97.9 119.3 136 156.3 168.1 210.5 253.4 285.4 295.6 315.2 330.5 333.9 331.5 321.6 321.8 316.9 312.7 299.7 299.6 300.4 301.6 306.1 304.8 310.5 297.5 292.2 288.7 284.9 284.8 281.5 277.7 274.5 271.3 265.7 257.9 251.6 249.3 254.1 258.8 260.4 260.6 262.7 266.4 267.2 268.5 266.7 263.4 261.5 260.5 258.7 253.2 249.5 247 243.1 238.8 231.3 225.5 217.9 213.3 206.6 197 194.6 194.8 194.7 195.1 194.9 194.5 194.1 196.2 200.1 208.2 218.5 227.9 236.8 247.6 257.1 263.4 269.4 275.6 282 289 297.6 305.7 314.6 318.6 323.5 319.5 317.9 303.6 285.5 270.3 255.9 244.6 230.7 220.1 217.8 218.1 218.7 220.9 226.7 231.8 235.9 240.9 243.2 245.6 247 249 250.7 250.1 245.8 240.8 242 250.9 261.8 273.9 269.6 257.9 259.8 261.6 244.2 228.6 225.2 226 224.3 225.1 224.1
262.8 261.4 260.2 259.3 259.3 259.7 260.7 263.1 267.1 265.2 260 259.4 260.7 262.6 263.6 263.6 263.6 263.2 250.9 245.8 237.7 220.4 192.6 154.8 120.8 94.5 82.6 67.6 46.6 17.5 15.3 15.3 15.3 15.3 15.3 15.3 15.3 15.3 15.3 15.3 15.3 15.3 15.3 15.3 15.3 15.3 15.3 15.3 15.3 15.3 15.3 15.3 15.3 15.3 15.3 15.3 15.3 15.3 15.3 15.3 15.3 15.3 15.3 15.3 15.3 15.3 15.3 15.3 15.3 15.3 26.9 52.4 69.3 93.9 112.3 137.8 153.9 178 186.7 228.4 274.4 294.1 303.7 317.9 330.2 323.4 318.6 319.8 313.2 313.1 304.1 298.6 299.3 301.3 306.4 305.2 307.4 301 287.3 285.6 283.4 280.9 280.4 278.1 275.1 273.1 274.3 268.4 255.2 248.8 248.7 251.2 253.4 251.6 252.4 256.4 260.6 262 262 259.9 257.8 253.9 250.3 247.4 241.8 237.6 237.3 232 227.4 223.2 216.9 209 203.1 195.6 194.1 193.7 193.6 194.4 194.6 194.1 194.1 195.2 197.7 205.9 214.3 225.1 235.5 244.4 253.9 261.4 267.4 273.3 279.3 285.4 293.3 301.8 309.7 318 325.8 321.9 327 329.8 303.2 278.7 263.5 250.1 237.5 226.4 220 217.8 218.2 219.1 224 230.6 234.9 239.1 245 248.3 250.9 253 255.6 257.2 254.7 247.9 243.7 245.3 251.9 258.3 266.7 261.5 261.9 268.3 258.5 237.1 226.5 225.7 227.5 225.6 225.4 224.1
263.2 261.8 260.5 259.6 259.8 260.8 262.4 267.8 267.7 262.5 257.4 258.9 260.5 261.5 261.1 260.3 260.2 259.6 248.3 234 224.7 196.9 172.5 137.4 104.9 88.3 79.1 60.8 43.8 18.2 15.3 15.3 15.3 15.3 15.3 15.3 15.3 15.3 15.3 15.3 15.3 15.3 15.3 15.3 15.3 15.3 15.3 15.3 15.3 15.3 15.3 15.3 15.3 15.3 15.3 15.3 15.3 15.3 15.3 15.3 15.3 15.3 15.3 15.3 15.3 15.3 15.3 15.3 15.3 16.8 57.6 74.9 89.7 111 141.1 158.6 180.6 202.3 214.1 249.1 284.1 296.8 304.7 318.9 320.4 322.7 315.1 309.2 309.1 305.5 299.6 296.5 300.2 297.4 302 295.4 290.4 285.1 283 281.2 279.5 277.8 276.4 274.7 273.9 274 278.1 269.6 257.7 247.3 245.6 247.2 245.1 242.7 245.5 250.6 255.3 255.9 254.1 252.1 250 245.2 240.3 235.2 229.6 225.8 222.6 219.8 218.4 215 208.2 202.3 196.7 192.7 194.3 191.5 191.8 194.5 194.1 193.9 195.4 197.4 203.5 211.9 221.4 232.4 242.3 250.8 258.2 264.6 270 276.3 282.6 289.3 297.3 304.4 312.5 316.3 318.6 328 328.1 309.2 288.8 271.2 257.3 244.6 232.7 222.2 219.9 217.7 218.7 220.9 228.6 233.3 237.9 243.9 248.5 252.2 255.9 259.7 263.1 262.2 256.8 250.2 247.7 250.9 255 258.5 261.6 271.8 273.7 262.9 245.1 231.4 227.8 229.3 232.3 225.8 225.8 222.5
262.4 262.1 261.4 261.4 261.3 263.4 264.1 269.3 262.9 259 256.3 259 259.6 260 259.7 259.2 259.2 255.7 239.5 216.8 198 175 153.8 121.2 93.8 82 70.6 61.1 45.8 17.5 15.3 15.3 15.3 15.3 15.3 15.3 15.3 15.3 15.3 15.3 15.3 15.3 15.3 15.3 15.3 15.3 15.3 15.3 15.3 15.3 15.3 15.3 15.3 15.3 15.3 15.3 15.3 15.3 15.3 15.3 15.3 15.3 15.3 15.3 15.3 15.3 15.3 15.3 15.3 38.5 75.3 86.4 105.9 130.7 164.7 181.6 212.4 225.1 249.1 262.3 293.8 303.9 310.5 311.7 321.5 317 313.8 301.2 305.9 298.3 297.3 292.6 291.2 290.7 290.1 287.8 284.4 281.3 279.4 277.6 276.2 275.3 273.9 273.2 272.8 281.5 278.1 267.7 254.7 245.6 238.2 239.8 236.9 237.5 240.7 246.3 250.4 247.9 246.2 244.3 240.6 233.3 227.9 222.6 217.1 214 211.5 209.9 208.3 208.4 200.6 196 192.4 192.8 194 194.6 194.3 194 193.7 195.8 197.9 201.5 208.5 219.4 229.9 239.1 248.3 255.1 262.3 267.7 273 278.4 285 292 299.1 305.4 309.3 313.6 317.2 316.5 310.2 296.1 280.6 266.6 252.5 239.7 227.9 222.4 220.2 218.1 219.3 225.4 231.2 235.9 241.1 247 252.2 256.9 262.4 267.3 267.8 264 258.4 253.8 253.3 257.4 259.8 260.2 269.8 279.8 275.7 257.4 240.3 229.6 228.8 238.2 232.9 226.9 225.7 223.2
261.8 262.4 262.2 262.5 263 264.9 268.5 266.3 258.5 256.4 255.6 257.7 258.4 258.7 257.7 258.4 257.4 248.4 225.4 196.7 176.8 161.9 137.8 106.1 85.5 75.5 70.2 58.2 36.6 15.3 15.3 15.3 15.3 15.3 15.3 15.3 15.3 15.3 15.3 15.3 15.3 15.3 15.3 15.3 15.3 15.3 15.3 15.3 15.3 15.3 15.3 15.3 15.3 15.3 15.3 15.3 15.3 15.3 15.3 15.3 15.3 15.3 15.3 15.3 15.3 15.3 15.3 15.3 15.7 54.8 82.7 103.5 121.7 155.9 183.4 202.9 226.2 242.4 271.6 282.5 290.2 303.7 303.4 308.2 316.4 311.1 303.7 300.2 298.8 292.3 287.8 284 283.9 284.6 284.1 281.4 280.1 277.6 275.5 274.2 273.6 273.5 272.8 271.9 278 280.3 271.1 258.9 247.7 240.5 237 234 232.6 236.4 239 242.9 244 241.7 236.8 232.2 225.5 219.1 212.6 205.2 203.1 202.8 201.4 199.3 198.3 198.1 195.1 192.6 194.4 192 192.8 194.4 193.1 193.6 194.6 196.5 200.1 205.5 215.5 227.4 237.2 245.3 253.3 259.7 265.4 270.8 276.1 281.5 286.9 293.8 299.8 305.4 308.6 312.6 316.1 325.1 316.9 293.7 276.2 262.6 249.4 233.8 224 221.4 219.8 218.3 221.2 228.4 234.1 238.6 244.5 250.4 257.4 262.5 266.5 270.8 268.3 264.6 260.6 258.2 261.5 264.3 263.4 262.4 282.3 274.9 269 254.7 237.3 229 231.1 236.7 233.7 228.6 226.2 224.6
263.8 263.4 263.2 263.3 264.4 266.6 267.1 258.2 256.7 256.7 255.8 256.3 257 257.5 255.4 255.5 252.8 240.7 213 177.1 164 147 121.1 94.2 78.2 73.2 64.2 49.7 24.3 15.3 15.3 15.3 15.3 15.3 15.3 15.3 15.3 15.3 15.3 15.3 15.3 15.3 15.3 15.3 15.3 15.3 15.3 15.3 15.3 15.3 15.3 15.3 15.3 15.3 15.3 15.3 15.3 15.3 15.3 15.3 15.3 15.3 15.3 15.3 15.3 15.3 15.3 15.3 34 57.7 87.8 115.8 138.6 180.5 199.1 227.9 236.9 255.8 279 289.7 292.4 300.8 299.9 306.2 309.8 304.7 290.5 296.6 287.7 282.5 277.5 279 279.1 279.3 277.8 276.1 274.8 273.6 272.2 271.6 271 271.3 272.2 276.5 281.5 271.8 260.4 247.4 242.2 237.2 234.8 232.1 230.5 230.3 235.6 238.1 235.8 230.9 225 217.3 211.4 206.3 202.4 197.6 196.7 198.2 195.1 194.3 194 193.6 193.1 194 194.2 194.1 194.2 194.3 194.3 194.6 196.2 198.8 204.1 211.9 221.6 232.7 241.9 249.2 256.6 262.7 268 273.3 278.6 283.9 289.2 294.2 299.7 305.3 308 311.9 315.2 321.3 311.2 287.2 270.6 257.9 243.8 231.4 222.1 220.4 218.7 218.7 224.8 231.2 236.8 241.9 247.8 253.7 260.8 266.4 269.4 271.3 270 266.1 262.4 266.2 271.7 273.2 267.4 276.1 279.5 269.1 267.3 254.4 234.8 229.4 232.8 238.7 237.1 227.5 225.5 224.8
264.5 264.1 263.8 265.2 267.1 268.3 266.9 257.3 256.2 255.7 254.9 254.8 255.7 254 252.7 251.6 246.4 223.4 198.8 167 150.2 130.4 115.8 81.9 74.8 67.7 52.3 30.9 15.3 15.3 15.3 15.3 15.3 15.3 15.3 15.3 15.3 15.3 15.3 15.3 15.3 15.3 15.3 15.3 15.3 15.3 15.3 15.3 15.3 15.3 15.3 15.3 15.3 15.3 15.3 15.3 15.3 15.3 15.3 15.3 15.3 15.3 15.3 15.3 15.3 15.3 15.3 25.2 43.6 59.8 89.5 118.4 151.6 197.2 214.4 245.6 252.1 265.6 283.1 290.6 293.1 299.3 295.8 298.4 301.3 290 282.1 282.1 275.9 272.4 272.6 275 275.1 274.7 272.6 271.9 270.8 269.5 269.2 268.7 268.4 270.6 275.4 272.4 266.7 253.9 246 239 234.4 233.2 231.7 230.5 229 229.7 231.6 230.7 226.5 218.6 207 200.2 197.4 198 198 195.7 194 195.4 193.6 193.8 192.5 193.4 193.8 193.7 193.9 193.9 194.8 196.5 195.6 197.3 197.7 203.2 212.2 221.5 229.8 237.3 244.9 252.5 259.3 264.3 269.2 274.6 279.9 285.1 290.2 294.9 300.2 304.9 307.4 312.3 318.3 320.5 301.4 279.5 268 256 237.2 225.6 221.3 220.3 219.2 220.7 226.4 233.7 239.2 245.1 251.1 257 263.1 269 273.9 274.3 270.6 265.9 268.9 280.1 287.8 276.2 269.7 268.8 269.5 269.8 263.2 253.1 234.8 230.5 236 245 235.1 227.1 226.9 224.5
265 265.5 264.4 266.3 267.2 266.6 267.3 257.4 255.4 254.8 252.8 253.7 253.2 250 247.8 245.1 231.4 209.1 178.1 158.9 143.1 128.1 98 76.1 71.7 60.5 32.6 15.3 15.3 15.3 15.3 15.3 15.3 15.3 15.3 15.3 15.3 15.3 15.3 15.3 15.3 15.3 15.3 15.3 15.3 15.3 15.3 15.3 15.3 15.3 15.3 15.3 15.3 15.3 15.3 15.3 15.3 15.3 15.3 15.3 15.3 15.3 15.3 15.3 15.3 15.3 23.7 35.3 48.6 66.2 87.9 117.2 156.1 199.1 231.6 253.7 260.5 270.8 287.1 292.8 291.2 298.3 292.8 291 290.2 277.8 271.9 270 267.1 266.8 269.9 270.7 270.3 269.4 268.2 267.5 266.8 265.8 265.3 265.6 271.4 270.8 265.2 256.6 246.2 238.8 234.9 231.8 227.1 225.1 225.6 226.5 223.6 225.8 226.1 221.1 211.2 205.5 200.9 194.8 194.2 198.5 198.3 195.6 193.4 192.7 192.8 193.7 191.3 191.3 193.4 192.8 193.2 195.4 198.4 197.2 196.4 198 201.4 208.3 218.1 227.3 235.9 243.9 250.6 255.6 261.7 266.2 270.2 275.7 281.1 286.4 290.9 294.7 299 302.1 305.9 312.2 309.9 307.7 288.6 273.4 263.3 247.5 234 221.6 220.6 219.5 219.5 221.7 230.3 235.7 241.9 248.2 254.4 260.3 266.2 276.2 277.3 273.2 271.1 273.7 284.6 299.6 289 278.9 272.3 269.4 269 274.4 260.1 245.2 234.6 232.7 238.3 242.2 233.8 227.4 227.2 224.6
265.1 265.2 265.6 265.2 266.1 265.9 264.8 256.3 253.8 253.2 252.1 252.6 249.1 246 243.7 234.6 217.3 191.4 174.8 151.5 133.7 108 84.8 72.7 59.2 42.3 16.1 15.3 15.3 15.3 15.3 15.3 15.3 15.3 15.3 15.3 15.3 15.3 15.3 15.3 15.3 15.3 15.3 15.3 15.3 15.3 15.3 15.3 15.3 15.3 15.3 15.3 15.3 15.3 15.3 15.3 15.3 15.3 15.3 15.3 15.3 15.3 15.3 15.3 15.3 15.3 34.6 46.8 62.7 73.4 93.4 127.4 161.7 202.2 242.6 257.6 262.3 272.5 287.5 290.2 290 289.3 285.2 282.3 268.9 266.2 262.5 262.2 261.2 263.3 266.1 266.1 265.1 264.4 263.7 263.1 262.4 261.8 260.9 257.3 259.2 253.8 247.6 242.3 232.3 226.6 225.7 226.6 223.4 223.4 223.8 217.4 218.6 220.3 215.1 208.9 200.8 200.2 195.7 193.4 196 199.1 197.6 194.7 193.4 193.3 190.9 192.4 193.4 191.7 193.5 193 194.5 198.4 200.1 197.1 197.4 198.7 206.6 213.3 223 232.4 240.4 248.3 254.2 259.3 264.3 268.2 272.2 276.5 282.2 287.6 290.8 293.7 296.8 299.5 302.1 303.6 303.2 291.1 278.6 267.9 256.9 239.7 228.8 220.6 219.9 219.7 220.1 223.1 232.5 238.9 244.7 251.1 257.4 263.2 271.7 278.5 276.7 272.9 277.3 280.5 293.7 292.1 285.8 283.6 277.5 269.1 268.4 266.8 259 245 235.3 234 239.6 241.9 233.6 228.6 226.9 225.8
265.3 265.2 265 264.4 263.7 263.5 259.5 255.4 253.3 252.8 253.2 249.4 245.2 242 237.2 221.9 201.7 187.1 173.7 140.4 108.8 90.5 77.5 63.8 44.1 15.3 15.3 15.3 15.3 15.3 15.3 15.3 15.3 15.3 15.3 15.3 15.3 15.3 15.3 15.3 15.3 15.3 15.3 15.3 15.3 15.3 15.3 15.3 15.3 15.3 15.3 15.3 15.3 15.3 15.3 15.3 15.3 15.3 15.3 15.3 15.3 15.3 15.3 15.3 15.3 24 44.7 58.5 70.9 81.3 102.9 142.3 172.8 209 248.2 264.2 259.3 271.3 278.8 279.6 279.3 275.3 270.2 258.4 254.4 253 255.4 254.9 254.9 258.2 260.9 258.2 259.8 259.9 259.3 258.6 258 257.3 255.3 246.7 242.5 238.9 238.7 229.8 221 216.9 216 214.5 216.5 218.8 219.2 209.8 210.1 207.8 203 198.5 195.1 192.7 194.1 193.3 191.8 194.4 193.9 192.6 193.5 192.1 193.5 193.3 193.4 193.4 193.5 193.5 195.8 202.7 200.4 198.9 198.1 204.7 213.1 220.6 228.5 236.6 244.9 251.6 257.3 262.1 266.9 270.7 274.5 278.2 282.7 287.2 290 292.6 295.5 298.7 298.7 297.7 291.8 283.1 274.3 263.4 249.8 235.7 222.9 220.5 220 219.8 220.5 225.7 233.4 241.3 247.3 253 258.6 264.9 271 273.5 276.1 280.6 286.2 289.8 296.5 292.2 295.3 290.7 276.3 268 266.7 270.5 258.6 246.2 237.1 237.1 239.9 239.1 233.1 228.8 227.4 226.3
264.8 264.5 263 262.5 265.4 258.2 256.3 256.6 254.4 255 253 249.3 242.7 236.7 227.8 210.8 197.3 186.5 160.8 130.3 108.1 91.7 67.7 46.2 24.3 15.3 15.3 15.3 15.3 15.3 15.3 15.3 15.3 15.3 15.3 15.3 15.3 15.3 15.3 15.3 15.3 15.3 15.3 15.3 15.3 15.3 15.3 15.3 15.3 15.3 15.3 15.3 15.3 15.3 15.3 15.3 15.3 15.3 15.3 15.3 15.3 15.3 15.3 15.3 16.3 34 54.2 66.9 78.1 90.7 112.4 149.5 185.6 204 245.6 259.1 255.7 270.7 271.9 268.9 268.6 264.6 256.9 244.3 242.4 246.4 247.5 248.1 252 254.5 254.1 254.1 254.7 255.2 254.7 254.1 253.5 250.8 246.6 237.4 233.3 227.9 224 217.5 214 212.7 212 210.8 211.4 212.1 202.1 201.4 197.2 195.3 193.5 192.7 192.9 190.9 192.3 193.3 193.3 192.1 191.1 193.4 193.3 193.2 193.7 193.8 194 194.2 193.3 194.2 200 202.4 199.2 198.2 201.2 210 218.8 227.2 235.2 242.2 249.4 254.7 260.2 265.2 268.5 272.6 276.8 280.4 282.5 286.6 289.5 292.4 295.2 300.7 297.3 292.1 287 279 270.9 259.7 245 230.7 220.9 219.9 219.9 220 221.7 229.5 236.9 243.7 249 253.6 259 265.6 273.2 281.1 285.3 289.8 298.3 299.6 298.4 302 301.8 285.9 274.2 267.6 263.9 264.2 255.4 244.9 240.4 240.4 239.5 238.6 234.9 229.6 228.4 226.6
263.5 262.4 261.9 263.2 258.5 256.3 255.4 255.2 257.6 258.3 256.3 247.9 240 230.7 220.5 210.6 195.4 175 150.5 122 105.6 78.9 54.6 20.8 15.3 15.3 15.3 15.3 15.3 15.3 15.3 15.3 15.3 15.3 15.3 15.3 15.3 15.3 15.3 15.3 15.3 15.3 15.3 15.3 15.3 15.3 15.3 15.3 15.3 15.3 15.3 15.3 15.3 15.3 15.3 15.3 15.3 15.3 15.3 15.3 15.3 15.3 15.3 15.3 25.7 43.3 59.5 71 85 101.3 130.5 160.6 189.3 207.5 240.2 248.7 250.4 265.8 263.5 264.2 258.5 254.3 245.1 233.5 235.5 239.5 240.5 242.8 246.9 248.1 250 251.2 250.7 250.4 249.9 249.3 248 244.8 240.3 231.6 223.5 219.3 217.2 214.2 213.7 212.5 211.2 214 210.5 202.5 199.5 196.7 194.2 193.4 192.3 192.6 193 192.9 192.8 190.1 193.2 193.2 192.6 192.9 192.9 192.6 194.1 194.9 194.6 194.7 193.7 200.5 204.4 200.7 199.3 202 208.2 214.8 224 233.4 240.8 247.6 253.6 258.9 263.7 268 271.6 275.6 279.4 281.6 283.7 285.9 288.4 291 294.8 298.6 293.1 286.4 284.1 278.8 268.9 255 239.4 226.4 220.5 219.4 219.5 220 223.5 232.1 239.1 245.4 250.3 255.1 261 276.1 290.1 292.2 294.8 299.6 304.7 302.7 307.8 304.1 292.2 281.9 274.9 268 261.6 255.9 249.7 246.9 245 243.8 242.3 240.1 237.3 229.1 227.5 226.8
262.1 259.7 258.2 260 254.9 254.5 255.6 255.1 261.7 260.4 253.7 248.1 238.7 230.3 220.1 208.7 188 164.8 146.9 121.4 100.7 65.1 34.8 15.3 15.3 15.3 15.3 15.3 15.3 15.3 15.3 15.3 15.3 15.3 15.3 15.3 15.3 15.3 15.3 15.3 15.3 15.3 15.3 15.3 15.3 15.3 15.3 15.3 15.3 15.3 15.3 15.3 15.3 15.3 15.3 15.3 15.3 15.3 15.3 15.3 15.3 15.3 15.3 18.3 31.7 48.1 65.9 77.2 92.3 121.5 148 169.5 192.7 212.3 232.7 243.2 248.5 260.1 259.2 256.8 251 248.2 234.7 228.7 230.1 231.7 234.5 238.3 241.8 245 246.7 245.8 245.1 245.4 244.4 243.5 242 240.5 236.3 229.8 221.3 216.7 214.7 213.4 214.2 215.8 214.7 210.6 207.3 201.2 197.7 195.1 192.8 192.5 192.4 192.6 192.4 192.8 192.7 192.7 192.8 192.7 192.3 192.4 192.2 192.1 194 195.9 196.2 196.7 199.5 205.7 201.8 200.5 200.3 208.7 217.3 222.1 228.8 238.5 245.7 251.9 257.6 262.2 266.8 271.1 274.7 278.3 280.6 282.8 284.4 286.1 288.1 290.1 290.6 290.9 286.4 284.9 288.8 280 262.2 247.9 231.6 223.1 220.4 219.6 220 221.2 224.8 233.4 240.1 247.1 252.3 259.8 266.1 283.1 299.5 302.7 304.8 307.8 308.5 305.7 305.7 296.4 288.9 284.1 276.7 268.4 260.5 254.9 252.4 251 248.8 246.7 244.7 242.3 239.9 230 228.2 228.3
258.6 257.9 260.4 255.9 253.3 253.1 256.1 260 262.9 258.5 251.4 245.2 232.9 225.6 218 197.6 180.1 160.3 144.7 124.8 91.1 54 15.3 15.3 15.3 15.3 15.3 15.3 15.3 15.3 15.3 15.3 15.3 15.3 15.3 15.3 15.3 15.3 15.3 15.3 15.3 15.3 15.3 15.3 15.3 15.3 15.3 15.3 15.3 15.3 15.3 15.3 15.3 15.3 15.3 15.3 15.3 15.3 15.3 15.3 15.3 15.3 15.3 26.1 38.9 56 72.3 85.6 106.8 136.3 164.1 175.5 197.6 213.6 224.8 234.8 242.8 249.4 247 240.5 243 236.2 223.5 223.6 224.3 227 231.5 236.1 240.1 241.8 242.1 240.9 239.9 240.3 237.7 237.2 238.5 238.6 236.3 226.8 225.3 223 224.4 227.8 223.4 215.6 210 208.1 204.7 197 193.8 193.3 192.8 192.1 191.1 190.1 192.5 192.7 192.3 192.4 192.4 192.3 192.1 191.9 193.2 194.5 197.3 198.8 200.6 202.9 205.3 204.2 201.6 200.5 206.6 214.2 220 226.2 234.7 241.9 248.7 255 261 265.6 269.8 274.1 277.8 280.2 281.8 283.3 284.9 286.4 286.8 287.3 287.8 285.3 284.7 287.8 293.4 278.1 254.8 239.1 228.2 221.3 220.4 220.6 220.8 223.2 227.1 235.7 241.3 248.2 257.2 266.6 273.2 295.5 311.1 312.9 313.2 313.6 314.6 309.4 303.7 296.3 288.5 283.9 276.5 266 260.6 258.3 256.6 254.5 251.9 249.3 247.2 245 242.7 232.9 229.3 229.1
255.7 255.3 255.8 253.6 252.7 252.9 254.4 261.6 260.8 254.9 243.9 242.7 230.5 221.8 211.8 188.4 170.6 157.2 141.6 117.2 81.2 44.7 15.3 15.3 15.3 15.3 15.3 15.3 15.3 15.3 15.3 15.3 15.3 15.3 15.3 15.3 15.3 15.3 15.3 15.3 15.3 15.3 15.3 15.3 15.3 15.3 15.3 15.3 15.3 15.3 15.3 15.3 15.3 15.3 15.3 15.3 15.3 15.3 15.3 15.3 15.3 15.3 23.7 36.6 50.8 63.3 78.5 98.8 121.4 154.9 181.3 184.8 204.9 213.6 219.9 226.2 237.7 239.9 232.2 231 231.8 217.7 217.1 217.5 219.8 223.7 228.4 232.9 235.3 236.2 236.6 235.4 234.6 235.2 231.5 234.1 246.4 247.3 229.9 229.6 231.9 230.6 228.4 228.7 224.2 211.6 210.2 205.9 194.1 191.4 191.7 192.3 192.7 192.5 192.5 190.3 192.6 192.4 191.9 191.9 192.1 192 193.1 194.3 196 198.7 202.9 205.5 206.5 207.6 206.8 203.6 202.1 204 211.9 218.8 224.6 231.5 240.3 246.9 253.8 259.3 264.6 269.6 272.9 277.2 280.3 282.4 283.3 284.1 285.1 286.4 286.5 286.4 285.8 283.2 282.3 284.6 290.8 280.6 245.9 232.6 227.2 220.8 219.9 220 220.2 221.3 229.5 236.6 244 250.9 266 278.8 288.3 301.4 315.1 323.4 322.2 320.1 318.2 312.9 304.8 294.7 291.8 283 272 266.8 264.7 262.4 259.9 257.2 254.2 251.6 249.1 247.2 244.1 234.3 229 228.5
254.4 255.5 254.4 250.8 251.5 251.5 257.5 259.8 251.7 242.8 243.6 234.4 224.4 211.6 195.7 179.2 163.8 144.8 123.9 99.6 72 38 15.3 15.3 15.3 15.3 15.3 15.3 15.3 15.3 15.3 15.3 15.3 15.3 15.3 15.3 15.3 15.3 15.3 15.3 15.3 15.3 15.3 15.3 15.3 15.3 15.3 15.3 15.3 15.3 15.3 15.3 15.3 15.3 15.3 15.3 15.3 15.3 15.3 15.3 15.3 15.4 32.1 45.9 59 68.9 91 116.8 139.5 170.8 196.4 193.1 206.6 212.5 214.7 226.2 226.6 228 226.8 228.7 217 211.8 210.9 212.4 215.7 221.9 226 228 230.2 231.1 230.9 229.9 229.4 230.1 229.1 234.5 247 236.9 231.4 237.7 237.6 236.5 226.2 220.7 217.2 214.3 207.9 194.3 191.4 190.9 191.7 192.4 191.8 190.3 192.2 191.8 192.2 192 191.6 192.3 192.8 194.2 198.1 199.8 203.1 205.7 209.5 212.4 213.6 209.3 206.1 203.7 203.6 210.6 217.4 223.7 229.7 237.5 246.2 252.7 259.6 265.5 270.2 273.7 276.9 280 282.7 284 284.7 285.5 286.1 286.4 286.4 285.5 283.7 280.8 276.6 275.4 277 262.5 231.7 227.3 225.1 220.5 219.9 219.5 219.9 221.7 231.1 237 244.2 260.2 273 284.1 295.4 310.9 319.8 329.6 327.2 319.4 314.9 312.9 296.6 286.3 285.8 275 271.5 270.5 269 264.9 262.4 259.8 255.9 253.1 251.1 248.8 242.9 231.5 228.9 229.9
253.8 253.9 252 250.8 249.1 249.9 256.3 256.2 244.7 247.8 236.2 221.8 201.9 186.7 175.2 162.1 145.7 127.2 109 86.6 59.2 29.8 15.3 15.3 15.3 15.3 15.3 15.3 15.3 15.3 15.3 15.3 15.3 15.3 15.3 15.3 15.3 15.3 15.3 15.3 15.3 15.3 15.3 15.3 15.3 15.3 15.3 15.3 15.3 15.3 15.3 15.3 15.3 15.3 15.3 15.3 15.3 15.3 15.3 15.3 15.3 27.4 41 53.9 66.4 79.8 105 131.7 154.8 191.5 208.5 209 213 217.7 216.6 223.5 223.8 222 225.7 221.1 215.6 209.3 208.9 209.4 213.2 220.5 220.9 222.8 224.9 225.7 225.5 224.8 226.6 229.1 225.5 227.7 232.8 232 240.1 243.6 244.9 241 222.9 217.8 214.2 209.7 199 191.8 191.6 190.9 191.6 192.2 191.8 192.4 192.7 191.3 191.5 191.5 191.8 195.7 198.8 199.9 203 207.4 209.4 212.4 217 216.6 213.3 209.4 206.5 204.2 208.7 214.7 222.3 228 235.9 243.1 251.2 258.1 265 270.7 275.1 277.9 280.9 286.4 285.1 285.6 286.1 286.9 287.4 287.4 286.4 285.2 282.9 279.3 270.4 259.8 250.1 238.5 230.2 226.2 224 220.7 220.1 219.5 220.1 222.7 230.1 238.1 249.3 261.9 274.3 291.8 309.9 321.7 331.4 335.5 329.4 316 308 302.6 289.6 282 277.5 276.4 276 278.3 271.4 268.1 264.5 260.5 256.8 253.5 252.4 248.8 238.4 231.3 229.2 229.4
253.4 252 250.2 249.1 249.1 250.8 246.9 242.1 248.5 245.9 227.5 220 200.5 177.1 166 156.9 139.8 125.8 108 83 54.5 30.6 15.3 15.3 15.3 15.3 15.3 15.3 15.3 15.3 15.3 15.3 15.3 15.3 15.3 15.3 15.3 15.3 15.3 15.3 15.3 15.3 15.3 15.3 15.3 15.3 15.3 15.3 15.3 15.3 15.3 15.3 15.3 15.3 15.3 15.3 15.3 15.3 15.3 15.8 28.4 39 50.4 61.6 73.9 91.1 110.8 143.3 169.8 201.2 218.1 222 214.6 211.7 214.6 212.9 213.8 218.6 220.6 221.3 209.1 208.8 208.1 208.1 210.8 216.7 216.8 218.2 219.8 220 219.8 219.9 223.8 220.6 217.1 219.1 227.2 235.3 240.4 244.6 238.6 228.6 220.9 216.9 212.4 205.5 197.6 190.9 191.4 190.8 191.3 191.9 191.9 192.4 192.2 192.4 192.5 193.3 195 199.1 203.6 209.2 213.4 216.5 218.3 223 223 218.2 213.7 209.9 208.3 206.7 211.5 219.4 226.3 233 241 249.1 255.3 262.5 269.9 275.1 279.1 281.6 286.5 286.8 287.5 288.2 288.5 288.8 288.9 288.6 288 286.7 283.9 279.7 270.9 261.2 248.4 237.6 229.9 225.1 222.9 220.9 220.2 219.8 221 223.6 232.9 243.5 255.6 269.4 280 299.5 317.1 326 333.5 338.1 326.8 312.6 303.8 292.5 283.9 282.4 280.4 278.9 277.9 276.5 274.2 271.2 265.2 260.3 257 256.6 253.9 246.7 232.5 229.8 230 230.5
252.9 251.8 249.6 249.1 250.8 245.8 242.4 246.4 249.1 235 218.9 211 194.4 172.1 163.1 159 137.4 117.7 85.7 60.1 45.7 25.7 15.3 15.3 15.3 15.3 15.3 15.3 15.3 15.3 15.3 15.3 15.3 15.3 15.3 15.3 15.3 15.3 15.3 15.3 15.3 15.3 15.3 15.3 15.3 15.3 15.3 15.3 15.3 15.3 15.3 15.3 15.3 15.3 15.3 15.3 15.3 15.3 19 26 35.5 45.5 58.3 69.3 82.4 109.8 121.1 153.6 183.1 215.5 223.4 220.5 211.9 205.4 204.5 214.2 217.1 224.5 220.9 213.7 208.2 208.6 208.9 205.7 208.2 213.6 212.1 214.5 215.1 214.5 213.9 213.5 213.8 210.5 209.4 214.6 225.6 240.1 241.8 240.4 232.4 222.4 217.6 213.7 209.3 202.8 195.8 190.6 191.7 192 191.2 191.2 193.1 193.4 194.6 196.4 199.2 200.3 201.3 205.4 213.1 219.3 227.7 229.8 229.4 229.8 224 218.3 214.3 211.3 209.7 210 214.2 222.2 230.6 239.3 246.5 253.6 260.5 266.8 272.4 277.9 281.1 285.4 288.3 288.7 289.8 290.7 291 290.9 290.6 289.6 289.2 287.7 284.8 280.2 271.8 261 247 235.5 229.2 224.8 222.2 220.8 220.3 220.1 221.1 225.1 236.5 247.4 258.2 270.8 294.9 302.1 321.4 335.5 335.6 336.5 320.4 303.9 293.4 287.8 285.6 286 282.3 279.2 279 279.5 276.1 270.3 264.7 259.8 258.5 257.2 252 243.4 231.3 230.7 230.5 231.1
251.6 251.5 251 249 244.2 241.1 237.6 243.7 242 221.9 209.3 203 186 171.3 161.1 148.2 131.4 100.4 64.7 47.4 43.5 15.3 15.3 15.3 15.3 15.3 15.3 15.3 15.3 15.3 15.3 15.3 15.3 15.3 15.3 15.3 15.3 15.3 15.3 15.3 15.3 15.3 15.3 15.3 15.3 15.3 15.3 15.3 15.3 15.3 15.3 15.3 15.3 15.3 15.3 15.3 15.3 22.9 30.3 33.4 38.5 53.9 69.1 79.5 95 123.9 140.1 167.7 196 218.4 217.6 209.2 201.8 202.6 218.3 221.9 216.9 219.6 213.7 206.1 207.4 209.2 206.6 203.4 204.6 207.5 208.7 210.8 210.2 208 206.1 206.1 203.5 200.9 202.5 213 229.8 239.5 238.5 234.4 227.6 217.7 216.1 211.7 205.9 198.8 193.3 191.3 191.9 190.3 190.8 193.1 195.5 202.8 202.7 204 207.5 208.1 208.4 213.4 220.6 231.4 241 239.5 236.1 230.6 223.5 218.3 215.8 212.4 210.2 212.9 219.6 227.3 235.3 243.5 251.3 258.2 264.7 270.3 275.7 279.7 283.4 287.1 287.7 290.3 292.1 292 292 293.1 291.8 290.4 290.7 289.1 285.7 280.1 268.7 256.5 243.9 235.1 228.6 224.1 221.9 220.8 220.6 220.5 220.8 228 240.1 250.5 262.1 282.3 299.9 311 324.5 334 335.6 330 311.8 293.5 289.5 287.8 287.7 285.2 281.4 279.8 284.9 284.5 276.4 267.8 263.7 259.7 257.4 255.7 248.4 232 231.8 231.3 231 231.6
250.2 250.1 249.9 245.7 239.8 234.8 240.1 238 226.4 210.9 207.7 193.4 180.3 169.7 154.5 137.2 116.3 78.6 57.8 44.1 24.1 15.3 15.3 15.3 15.3 15.3 15.3 15.3 15.3 15.3 15.3 15.3 15.3 15.3 15.3 15.3 15.3 15.3 15.3 15.3 15.3 15.3 15.3 15.3 15.3 15.3 15.3 15.3 15.3 15.3 15.3 15.3 15.3 15.3 15.3 15.3 26.7 35.6 45.9 50.5 43.2 63.4 79.5 100 115.5 135.6 163.1 183.1 201.2 215.4 214.5 202.5 201.9 216.2 217.2 215.3 213 209.5 205 207.2 208.4 208 202.3 199.4 201.4 203.5 205.1 205.3 203.8 200.5 197.9 195.7 194.2 193.9 198.7 211 229 234 229.6 224.4 220.5 219.8 214.5 208.2 200.8 195.4 190.8 191.2 192.1 192.3 192.5 194.3 201.8 212.7 220.1 215.4 217.1 214.9 217.6 223.3 231.8 241.9 249.7 245.5 236.5 229.9 224.3 220.5 217.5 214.4 214.2 217.3 223.1 231.4 238.8 246.4 254.6 261.7 267.5 273.3 277.4 281.3 285.3 286.6 288.1 290.1 291.7 293.2 295.4 294.2 292.7 292.5 293.2 294.6 289.3 274.5 262.2 252 241.6 234.8 228.4 225.4 223.3 221.3 221.2 220.9 220.8 232.2 243.7 251.1 265.9 279.5 304.8 319.4 324.1 322.3 331.3 320.5 299.7 286.3 287.1 290.7 290.8 285.1 282 280.2 285.9 279.2 270.6 265.7 261.8 258.1 255.9 252.6 239.5 231.9 232.2 231.5 230.7 231.3
248.7 248.8 248.8 243.1 235.7 233.7 235.3 225.7 213.5 209.6 198.8 189.2 175.2 155.5 138.7 119 92.3 70.5 50.9 29.7 15.3 15.3 15.3 15.3 15.3 15.3 15.3 15.3 15.3 15.3 15.3 15.3 15.3 15.3 15.3 15.3 15.3 15.3 15.3 15.3 15.3 15.3 15.3 15.3 15.3 15.3 15.3 15.3 15.3 15.3 15.3 15.3 15.3 15.3 15.3 26 36.8 48.9 56.3 52.4 45.8 64.9 92.6 119 136.3 152.3 178.7 193.8 212.9 211.4 212.9 204.8 208.1 213.4 210.1 207.5 205.4 204.7 206.7 209.2 209.1 206.9 197.4 195.5 197.3 199.3 200.3 198.3 194 191.2 190.1 189.4 190.5 190.5 198.4 213.9 223.5 220.6 220.5 218.8 224.9 221.6 211.6 199.4 196.9 192.8 190.4 191.1 191.9 192.1 189.7 199.1 210.1 220.8 233.9 230.3 234.9 226.6 229.7 233 242.4 254.6 252.6 245.5 235.7 231.6 226.6 222.8 219.3 215.5 216.8 221.3 228.9 235.4 241.4 249.8 257.3 264.5 269.9 274.8 279.1 283.1 286.1 287.8 289.5 291.1 293.9 296.7 297.5 294.9 294.6 296.7 302.2 299.6 284.2 269.4 258 248 239.3 232.7 228.1 227.2 225 222.5 221.4 220.6 221.3 236.1 245.8 252.4 265.2 293.1 309.7 314.9 319.2 321.4 319.9 307.1 290.3 283.8 283.1 293.2 289.2 284.6 283 278.9 278 272.5 268.5 263.6 259.6 254.1 247.3 239.3 233.6 232.2 232.5 232.4 231.6 232.7
247.1 247.1 245 234.1 231.9 231 226.1 212.5 210.1 199.9 189.7 182.9 164.3 139.8 121.1 103.5 82.4 61.7 39.3 15.3 15.3 15.3 15.3 15.3 15.3 15.3 15.3 15.3 15.3 15.3 15.3 15.3 15.3 15.3 15.3 15.3 15.3 15.3 15.3 15.3 15.3 15.3 15.3 15.3 15.3 15.3 15.3 15.3 15.3 15.3 15.3 15.3 15.3 15.3 15.3 31.8 47.7 61.5 75.5 53.6 51.2 69.7 102.3 134.4 152.4 164.3 189.5 202.7 210.5 204.2 201.6 196.4 204.5 205.9 199 202.1 203.5 207.4 210.4 211.3 209.9 199.9 193.4 191.7 193.8 195.8 194.6 189.4 184.7 183.9 184.6 185.6 186.7 190.9 202.9 214.3 207.3 209.5 213 220.9 223.7 216.7 202.1 195.2 193 190.2 191 191.8 192.5 191.2 195.1 205.3 212.6 222.3 230.7 237.9 245.7 250.2 253.5 247.4 252.9 259.9 254.7 242.8 237.5 234.2 228.7 224.5 219.3 219.7 220.2 224.1 231.9 238.1 243.8 251.7 258.8 266 271.4 276.5 280.9 284.7 287.4 289 290.7 293.1 298.2 299.2 297.2 296.3 297.3 307 303.2 291.6 276.3 265.9 254.8 244.1 236.9 231.8 228.2 228.6 230.6 224.8 221.5 221.1 222.6 239.6 247.4 253.7 268 288.2 305.4 304.8 315 316.9 310.7 297.3 286.3 281.3 280.9 288.9 286.4 284.5 280.9 276.5 272.6 268.3 264.6 259.8 253.2 245.7 239.2 235.4 236.8 233.2 232.9 232.4 232.1 233.1
245.4 244.6 240.5 226.4 219.4 222.8 210.2 204.8 198.9 187.8 176.5 166.9 151 137.6 113.4 95.4 70.7 42.3 18.5 15.3 15.3 15.3 15.3 15.3 15.3 15.3 15.3 15.3 15.3 15.3 15.3 15.3 15.3 15.3 15.3 15.3 15.3 15.3 15.3 15.3 15.3 15.3 15.3 15.3 15.3 15.3 15.3 15.3 15.3 15.3 15.3 15.3 15.3 15.3 19 35 52.4 69.7 72.9 48.9 59.8 83.8 114.7 145.8 166.5 173 193.7 201.6 193.3 186.2 184.7 186.7 189.5 191.9 195.5 199.6 207 213.8 212.5 211.7 201.8 192.9 188.2 189.9 190.7 190 186.8 181.8 178.6 181.5 184.4 186.4 191.6 197.3 200.3 199.6 197.9 196.4 196 202.2 210.8 207.4 195.5 192.8 190.7 190.8 191.6 192.4 190.7 196.8 209.5 219.2 220.5 222.8 234.7 245.4 257.6 266.6 278.1 265.1 263.4 259 249 245.1 241.5 236.4 231 224.3 220.1 222.4 225.1 228.8 232.8 240.8 245.8 252.6 260.2 267.4 273.1 278.1 282.6 285.9 288.6 290.6 293.1 297.9 301.3 298.8 297.5 298.4 299.1 303.2 300.8 283.5 272.6 261.5 250.6 242.1 236 231.6 229.9 232.9 234 228.3 221.4 221.1 224.5 240.3 246.3 254.5 264.5 280.5 297.5 297.6 309.7 309.4 301.4 294.7 283.5 279 278.7 279.8 280.6 278.7 276.4 272.4 268 264.5 258.9 253.1 247 239.4 237.5 238.2 236.6 236.6 233.9 233.2 232.1 233.3
242.5 240.7 237 216.8 216.4 204.4 201.1 197.3 185.5 171.9 165.9 154 142.8 121.9 107.3 89.1 48.1 21.7 15.3 15.3 15.3 15.3 15.3 15.3 15.3 15.3 15.3 15.3 15.3 15.3 15.3 15.3 15.3 15.3 15.3 15.3 15.3 15.3 15.3 15.3 15.3 15.3 15.3 15.3 15.3 15.3 15.3 15.3 15.3 15.3 15.3 15.3 15.3 16.6 31 46 62.1 80.7 69.3 46.1 70 99.3 129.1 155.3 175.4 188.1 192.9 194.2 176.5 176.1 177.8 181.6 185.9 190.5 194.3 198.2 205.5 210 206 198.9 191.7 186.7 184.3 186.4 184.8 182.9 178.5 175.6 179.2 188.9 194.2 194.7 199.6 195.7 195 195.1 195.2 194.3 193.9 193.7 193.5 193.4 192.4 191.6 191.6 191.5 190.2 191.2 192.1 204.6 214.2 220.1 225.5 228.5 239.5 247.3 258.5 272.7 284 281 270.1 258.8 248.3 247.1 242.9 238.5 231.4 222.2 223 224.9 228.4 232.4 236.2 242.3 248.8 254 261.6 268.8 274.9 279.8 284.3 287.5 289.6 291.7 295.8 298 298.4 297.7 298.5 298.7 299.2 304.4 288.5 278.7 269.4 257.9 246.7 240.4 235 231.8 232.4 234.7 237.2 227.8 221.7 222.1 229.9 240.4 248.8 256.4 263.6 274.7 283.7 285.2 297.7 301.5 298.4 290.9 280.7 275.8 275.1 275.3 275 273.7 272.2 268.6 263.2 259.4 254 248.4 241.9 240.5 241.6 239.8 238.6 237.2 235.9 233.5 232.8 232.5
238.1 234.8 228.4 208.4 203.8 196.3 196.9 186.1 175.9 167.1 155.9 148.9 129.3 106.9 94.2 63.8 34 15.3 15.3 15.3 15.3 15.3 15.3 15.3 15.3 15.3 15.3 15.3 15.3 15.3 15.3 15.3 15.3 15.3 15.3 15.3 15.3 15.3 15.3 15.3 15.3 15.3 15.3 15.3 15.3 15.3 15.3 15.3 15.3 15.3 15.3 15.3 15.3 25.7 39.8 57.4 80 84.6 61.1 51.7 77.8 108.9 135.9 167.8 179.5 187.5 192.4 175.5 173.8 170.1 173.2 177.7 183.7 188.1 191.3 195.1 197.5 198.8 196.5 191.3 185.9 181.3 181.9 181.5 179.4 174.5 173.5 180.8 193.3 202.8 205.6 194.3 193.4 193.2 193.8 193.5 193.3 193 192.6 192.3 192.1 192.1 191.2 191.7 191.7 191.7 191.5 191.7 192.5 197.6 212.2 222.8 228.2 235.4 241 247.7 255.9 267.8 280.1 285.5 269.9 256.3 249.8 248.2 245.8 238.4 229.5 224.4 226.3 229.4 231.4 236.2 241.8 245.6 250.6 255.6 261.6 269.6 276.7 281.3 286 288.8 290.9 293.7 297.3 297.5 296.9 296.5 297.1 297.3 296.4 292.7 284.1 275.5 265.8 254.7 245.6 239.2 234.7 232.6 234.8 236.9 237.8 225.7 221.7 222.7 231.3 242.4 252 257.7 262.9 270.9 275.7 278.3 290.7 299.5 286.8 283.7 274.8 272.1 272.4 272.6 272.3 270.7 267.9 264.5 259.3 254.4 249.5 245 244.3 243.1 243.1 242.6 241.7 240.2 237.9 234.7 234 233.1
228.1 228.3 216.7 200.6 189.1 193.8 188.5 177.9 170.3 160 150.9 134.9 113.3 96.2 68.1 38.9 15.3 15.3 15.3 15.3 15.3 15.3 15.3 15.3 15.3 15.3 15.3 15.3 15.3 15.3 15.3 15.3 15.3 15.3 15.3 15.3 15.3 15.3 15.3 15.3 15.3 15.3 15.3 15.3 15.3 15.3 15.3 15.3 15.3 15.3 15.3 15.3 18.6 38.4 50.2 68.8 91.1 100.9 69.7 56.9 61.6 80.6 92.2 118 143.6 173.5 167.4 166.6 165.2 166.2 172.3 174.8 181.1 185.6 188.6 190.6 191.8 189 185.1 181.1 178.7 178.5 175.9 175.2 171.9 173.2 179.3 196 210.3 215.6 202.2 192.6 193.3 193.1 192.9 192.7 192.5 192.3 191.9 191.5 191.2 190.8 190.8 191.5 191.6 191.7 190.7 191.9 192.9 195.8 209.9 224.1 230.7 237.8 242.5 247.4 254.4 262.2 275.4 274.5 263.6 260.1 255.6 253.4 249.4 235.4 227.2 227.9 228.8 232.6 235 240.5 246 249.9 253.5 257.2 262.6 271 277.9 282.9 287.2 290.1 292.9 295.7 297 297.4 297.2 296.6 295.6 295.9 292.9 287.9 281.7 271.6 261.4 252.5 244.4 238 234.5 234.9 239.5 241.6 235.3 223.9 221.6 222.3 234.5 245.9 254 258.5 263.3 267.9 271.6 274.3 278.3 284.5 273.8 268.8 268.4 267.6 269.3 269.1 268.9 266.8 263.5 260 255.5 251.3 249.9 246 246.3 246 245.7 245.2 244.8 242.6 239.9 237 234.2 234
221 217 208.9 190.8 189.6 188.9 174.3 168.7 162.7 151.6 137.2 117.1 101.5 80.8 47.1 15.3 15.3 15.3 15.3 15.3 15.3 15.3 15.3 15.3 15.3 15.3 15.3 15.3 15.3 15.3 15.3 15.3 15.3 15.3 15.3 15.3 15.3 15.3 15.3 15.3 15.3 15.3 15.3 15.3 15.3 15.3 15.3 15.3 15.3 15.3 15.3 15.3 27.2 44.2 61 79.2 100.9 109.5 87.5 81.5 101.2 119.2 138 137.6 161.5 164.6 164.5 166.7 166.3 165.8 169.3 172.9 179.1 183 185.7 186.5 183.2 178 173.6 172.8 172.2 171.1 166.6 167.7 174 192.7 181.8 202.9 212.8 202.9 191.5 192.1 193.6 193.5 193.2 192.9 192.7 192 191.5 191.4 191.1 190.8 190.8 190.5 191.4 191.3 191.7 193.1 201 208.8 215.9 227.7 235 239.5 243.1 246.9 254.6 260.8 267.8 271.4 270.4 265.5 263.6 258.5 246.9 233 230.2 231.1 233.1 236 239.4 243 247.3 251.4 255.6 259.7 264.1 270.2 277.9 283.7 288.3 291.3 294.2 296 296.8 297.4 297.4 297.4 295.7 293.2 293.5 288.2 278.6 268.7 259.4 251 243.5 238.3 235.9 236.7 241.9 246.4 235.2 224.4 222.2 222.9 229.9 245.9 254.5 258.4 261 262.9 265.9 267.8 268.9 267 265.1 263.9 264.1 264.6 266.2 265.1 263.5 261.2 259 256 255.5 252.9 250.5 250 250 250 249.5 248.8 246.9 244.6 241.7 237.3 235.5 236.5
216.9 210 186.3 180.9 185.6 173.6 164.2 157.8 149.7 132.6 118.4 100.8 80.9 53.7 19.5 15.3 15.3 15.3 15.3 15.3 15.3 15.3 15.3 15.3 15.3 15.3 15.3 15.3 15.3 15.3 15.3 15.3 15.3 15.3 15.3 15.3 15.3 15.3 15.3 15.3 15.3 15.3 15.3 15.3 15.3 15.3 15.3 15.3 15.3 15.3 15.3 27.1 47.1 56.4 71.2 91.1 111.5 121.8 115.2 117.6 152.4 163.5 184.7 183.5 158.4 158.7 167.2 165 162.2 161.9 166.2 172.3 176.8 179.8 181.7 179.5 173.7 167.9 165.5 164.8 163.9 162.3 159.9 165 185.7 190.7 184.3 194.3 195.6 190.3 194.2 195 194.1 193.7 193.5 193.2 193 191.4 191.2 191 190.9 190.7 191.4 191.3 191.5 191.7 191.7 193.1 201.1 216 224 231.7 240.5 243.7 244.2 248.2 254.7 262.7 270.3 278 274.5 271.7 270 257.9 240.2 233.9 232.3 233.4 236.5 239.7 242.9 246.9 250.9 254.8 258 261.7 266.1 272.2 278.3 284.4 288.6 292.2 295 296.3 297.7 299.5 299.5 298.8 298.1 298.5 296 284.9 274.5 265.1 256.1 248.3 242.5 238.8 237.2 241 247.5 250.3 237.8 224.3 222.1 222.5 225.8 240.6 252.6 255.8 257.2 257.8 259.9 261.1 260.4 259.4 259.3 260.1 260.8 262.1 263 261.4 259.8 258.1 257.3 256.5 255.6 254.5 254 255.2 254.4 254 252.3 250.3 248.4 246.4 241.9 239.3 240.1 240.6
208.4 195.1 174.9 174.1 172.1 164.2 156.3 147.3 131.5 120.8 106.5 83.2 53.2 23.3 15.3 15.3 15.3 15.3 15.3 15.3 15.3 15.3 15.3 15.3 15.3 15.3 15.3 15.3 15.3 15.3 15.3 15.3 15.3 15.3 15.3 15.3 15.3 15.3 15.3 15.3 15.3 15.3 15.3 15.3 15.3 15.3 15.3 15.3 15.3 15.3 32.1 62.4 62.6 74.8 84.3 100.9 121.7 131.8 147.2 167.4 181.8 199 194.5 169.1 156 162.6 159.3 154.5 155.4 159.6 163.2 169.9 173.7 177.6 177.3 171 161.2 156.6 157.4 158.7 157.4 155.8 156.5 171.7 193.5 195.8 192.3 189.6 189.2 199.9 196 194.1 194 193.8 193.6 193.4 192.8 190.9 190.8 190.7 190.6 190.6 191.2 191.3 191.5 191.4 197.8 201.7 204.8 219.3 227.4 234.2 242.6 247.3 247.8 253.3 259.9 272.2 270.1 278.7 277.6 277.9 269 250.1 238.5 234.8 234.4 237.1 240.3 243.5 246.6 250.2 254.2 258.1 261.3 264.6 268.1 273.8 279.2 284.4 288.6 292.3 295.7 297.3 299.2 302.6 303.6 301.2 305.1 300.9 291.3 279.9 271.1 262.7 254.5 246.3 242.2 239.5 240.6 247.9 254.2 256.7 240.2 228.2 223.6 222.7 223.2 232.6 248.3 250.5 252.9 253.1 252.9 254.3 254.7 255.2 255.8 257.2 258.2 259.3 259.5 259.7 258.5 258.5 258.1 257.8 257.2 257.7 259.5 259.7 259.1 257.7 254.6 252.4 249.9 247.3 242.1 243.9 244.1 244.3
198.8 176.6 164.5 162.2 156 147.5 142.6 130.1 115.9 104.9 80.7 58.7 22.2 15.3 15.3 15.3 15.3 15.3 15.3 15.3 15.3 15.3 15.3 15.3 15.3 15.3 15.3 15.3 15.3 15.3 15.3 15.3 15.3 15.3 15.3 15.3 15.3 15.3 15.3 15.3 15.3 15.3 15.3 15.3 15.3 15.3 15.3 15.3 15.3 20.5 56.5 87.1 76.8 87.5 97.2 111.9 130.2 146.9 170.3 185.3 193.8 196.5 185.5 163.3 155 159.7 154.6 154.6 154.3 157.1 163.4 168.4 168.6 168.1 165.5 155 149.4 146.2 149.4 151 152 152.6 174.1 189.5 195 190 187.6 188.8 191.3 193.4 192.2 191.5 192.7 193.1 193.6 193.3 191.8 190.6 190.5 190.4 190.4 190.9 191.5 192.1 192.7 192.4 197.2 204.6 211.8 224 233.4 238.6 241.8 246.6 253.7 261.9 266.7 271.2 273.5 278.6 277.3 276.1 262.8 242.3 238.5 236.2 237.8 241 244.1 247.3 250.4 253.6 257.5 261 264.2 267 269.9 273.9 279 284.1 288.2 292.2 295.8 298.9 302.4 307.8 309.4 304.8 309.2 297.4 285.4 275.1 267.2 259.5 251.9 245 242.2 242 248.3 258.3 261.9 251.4 240.9 233.9 225.4 223.4 223.3 226 239.1 245.2 248.1 247.9 248.3 249 249.9 251.4 252.9 254.1 255.4 256.5 257.8 257.9 258.1 258.5 258.9 259.6 261.5 264.3 265.1 263.6 261.6 260.8 258 255 252.2 248.2 248.4 248.3 248.4 248.5
182.1 171.7 158.7 141.5 137.1 128.8 122.7 110.9 97.3 68.9 50.7 16.6 15.3 15.3 15.3 15.3 15.3 15.3 15.3 15.3 15.3 15.3 15.3 15.3 15.3 15.3 15.3 15.3 15.3 15.3 15.3 15.3 15.3 15.3 15.3 15.3 15.3 15.3 15.3 15.3 15.3 15.3 15.3 15.3 15.3 15.3 15.3 15.3 15.3 32.9 75.1 97.2 99.6 101.5 108.6 122.3 144.2 155.2 178.4 193.9 192.6 182.4 168.7 166 154.7 154.4 155 154.7 154.5 157.5 164.1 165.4 162.9 154.6 144.7 141.3 143.1 143.7 145.2 147.8 149.5 174.9 184.1 191.4 192.9 183.6 193.5 191.1 189.9 189.5 190.8 190.2 189.8 191.2 191.6 191.7 190.8 191.2 190.9 190.6 190.5 190.1 192 191.4 192.1 192.7 197.3 208.4 218.8 230.6 237.1 240.4 243.4 247.7 256 266.8 272.6 272.1 272.3 271.7 268.8 265.7 254.8 240.5 238.6 238.2 241.4 244.6 247.9 251.1 254.2 257.4 260.6 263.3 266 268.7 271.6 275.6 279.6 283.7 287.9 291.4 294.8 298.2 304 310.4 307 301.1 300 286.3 278.9 271.9 264.6 256.8 249.8 244.7 243.2 247.9 261.9 268.1 259.5 246.8 240 237.1 231.2 224.8 224 224.5 233.1 240.5 242.3 243.3 244.5 246 247.8 249.2 251.7 252.9 255.4 256.5 257.4 258.6 260.3 261.7 263.5 266.7 268.2 270.8 270.2 266.9 263.9 262.4 259.4 256.5 253.1 251.5 252.9 253.2 253.3 253.4
174.5 167.9 147.7 128.9 120.3 106.8 93.1 75.6 57.4 36.7 20.2 15.3 15.3 15.3 15.3 15.3 15.3 15.3 15.3 15.3 15.3 15.3 15.3 15.3 15.3 15.3 15.3 15.3 15.3 15.3 15.3 15.3 15.3 15.3 15.3 15.3 15.3 15.3 15.3 15.3 15.3 15.3 15.3 15.3 15.3 15.3 15.3 15.3 17.2 47.3 84.5 101.1 107.7 110.1 118.7 139.7 156.1 164.7 183.7 189.5 172 161.8 168 161.6 157.5 154.6 155.7 155.3 155.4 158 161.2 158.3 149.5 143 141.4 144.1 144.2 144.5 144.5 147.4 156.2 183.8 186.4 184.5 177.3 199.4 196.5 191 190.5 190.6 189.3 186.9 187.1 187.7 189.4 189.9 191 191.5 191.7 191.7 190.9 190.9 192.4 191.8 191.9 192.7 198.4 212.9 225.4 234.9 239.6 243 246 250.6 260.2 270 275.7 274.7 272.9 269.3 259.9 252.7 245.5 240.9 239.5 241.6 244.8 248 251.3 254.7 258.5 260.9 263.1 265.6 268 270.5 273.3 276 278.7 282.9 286.7 290.1 294.4 298.4 300.3 303.4 301.7 293.9 287.5 281 274.4 268.1 261.9 254.2 248.6 247.3 248.4 259 274.3 264.9 252.9 244 240.8 239.2 237.9 225.2 224.1 224.9 227.7 236.4 238.2 240.3 242.4 243.4 245.6 248.4 250.8 252.5 255.7 256.7 258.4 262.2 266.2 269.9 273.6 275.4 276.5 276.4 273.8 270.7 267.5 264.4 261.5 258.4 256.5 256 256.4 257.3 258.2 258.3
168.3 155.8 136.2 123.3 108.9 88.5 63 48.8 30.4 15.3 15.3 15.3 15.3 15.3 15.3 15.3 15.3 15.3 15.3 15.3 15.3 15.3 15.3 15.3 15.3 15.3 15.3 15.3 15.3 15.3 15.3 15.3 15.3 15.3 15.3 15.3 15.3 15.3 15.3 15.3 15.3 15.3 15.3 15.3 15.3 15.3 15.3 15.3 26.8 61.8 92.3 104.5 109.6 114.8 131.4 156.3 169.8 176.9 187.5 163.2 159 159.9 166.7 165.9 161.1 156.1 155.4 157.2 156.3 158.8 155.6 147 140.9 138.9 143.3 146 145.9 145.7 146.4 151.5 161 183.3 175.4 174.1 189.8 197.8 192.5 186.5 184.4 187.3 186.6 189.1 190 190.5 190.3 191.4 190.2 190.5 192 191.3 190.8 191.4 194.2 193 191.8 191.7 203.9 217.7 225 233.6 240.9 244.1 247.2 253.8 258.8 267.1 276.1 273.1 270.2 265.7 261.5 253.5 244.9 242 241.7 245 248.2 251.4 254.7 257.9 261.6 263.8 266 268.2 270.7 272.8 274.3 275.8 277.6 280.6 284.6 288.6 291.5 293.3 295.1 296.4 291.9 288.5 283.6 278.1 271.6 265.2 258.7 253.1 251.5 252.6 253.6 263.6 269.5 256.6 246.9 243.3 242.3 241.4 236.9 225.5 224.3 225.9 229.1 233.8 236.5 238.4 241.6 243.3 246.4 250 251.7 254.9 259.3 260.6 265.6 270.8 274.9 278.3 280.8 282 282.1 280.5 277.4 273.8 270 266.4 263.8 263.2 262.6 261.3 261.3 261.3 263.1 262.4
151.9 138.7 129.4 119.8 102.9 79.1 50.4 27.2 15.3 15.3 15.3 15.3 15.3 15.3 15.3 15.3 15.3 15.3 15.3 15.3 15.3 15.3 15.3 15.3 15.3 15.3 15.3 15.3 15.3 15.3 15.3 15.3 15.3 15.3 15.3 15.3 15.3 15.3 15.3 15.3 15.3 15.3 15.3 15.3 15.3 15.3 15.3 15.8 38.5 73.1 93.6 106.6 110.4 118.7 141.9 159.9 174.6 176.7 160.2 159 159 162.7 174.8 169 155.2 155.5 160.6 153.6 156 154.3 145 139.4 137.8 143.2 146.1 146.8 148.3 149.1 146.4 162.6 168.4 163.6 171.8 177.7 189.1 191.8 188.3 184.6 187.4 183.3 185.9 189.5 191.4 192.8 193.1 193.9 192.8 191.6 188.6 190.5 190.7 191.9 192.2 194.5 190.4 191 207.2 217.6 226.2 232 240.6 244.8 248.4 259.1 262.8 265.5 267.7 265.9 265.7 267.5 263.5 250.6 244.2 242.7 245 248.3 251.6 254.8 258.1 261.3 264.6 266.8 268.9 270.7 272.6 274.4 275.8 277.2 277.8 279 281.3 285 286.6 288.1 289.7 290.4 287.7 284.7 281.6 274.8 269 262.6 260.5 257.6 257.2 257.4 256.8 258.4 255.8 247.6 246 244.1 242.9 239.8 231.4 225.9 225.5 226.7 230.1 233.3 236.8 239.4 242.9 246.2 250.6 253.3 256.7 261.2 266.3 269.9 275.4 280 283.6 286.1 288 287.5 285.6 282.3 279.2 275.4 271.8 269.2 266.5 265.9 266.3 267.3 267.6 267.9 267.9 267
138.9 127.9 121.5 110 91.5 68.3 38.5 15.3 15.3 15.3 15.3 15.3 15.3 15.3 15.3 15.3 15.3 15.3 15.3 15.3 15.3 15.3 15.3 15.3 15.3 15.3 15.3 15.3 15.3 15.3 15.3 15.3 15.3 15.3 15.3 15.3 15.3 15.3 15.3 15.3 15.3 15.3 15.3 15.3 15.3 15.3 15.3 25.2 48.9 81.2 94.2 111 122.2 123.2 149.7 165.7 172.4 160 159.1 158.6 164.6 181.3 174.8 156.3 155.7 160.4 154.5 150.6 148.6 142.2 136.8 140.1 144.5 144.1 145.8 148.3 157 161.5 146.8 162.4 158.6 158.4 176.9 178.7 182.3 188 186.5 180.4 186.2 187.9 189 190.6 192.2 194.1 195.2 195.8 193.3 193.5 191.6 190.6 189.6 192.6 194 190.8 190.4 191.8 206.5 217.2 225 231.7 239.3 244.9 248.1 253.3 262.9 266.4 264.8 261.5 266.3 269.8 257.5 247.1 244.1 243.6 247.6 251.1 254.5 257.8 261.1 264.5 267.3 269.3 271.1 272.5 274.4 275.8 276.4 276.9 277.7 278.4 280.1 281.4 283 284.9 286.5 286.6 285 282.1 277.1 271.6 264.7 264.5 264.1 262.2 261.5 258.4 255.8 257.2 250 246.6 245.9 244.8 240 232.9 227.4 226.1 226.4 227 230.6 233.8 236.8 240.6 245.2 248.7 253.9 258.4 262.8 268.8 274.5 279 285.2 288.9 292.3 292.7 293.6 291.4 289.1 285.5 280.7 277.5 275.1 272.8 270.3 271.1 271.9 273 273.9 273.7 272.7 271.5
127.1 116.2 103.6 93.6 74.5 44.7 19.5 15.3 15.3 15.3 15.3 15.3 15.3 15.3 15.3 15.3 15.3 15.3 15.3 15.3 15.3 15.3 15.3 15.3 15.3 15.3 15.3 15.3 15.3 15.3 15.3 15.3 15.3 15.3 15.3 15.3 15.3 15.3 15.3 15.3 15.3 15.3 15.3 15.3 15.3 15.3 17.3 35.2 61.7 89.7 99.4 124.1 128 129 157.8 171.6 159.3 159.5 157.8 158 168.8 171.9 157.6 157.5 154.6 148.5 149.3 145.4 138.3 133.5 142.8 150.4 151.3 153.7 155.8 163.2 172.1 169.7 145.9 149.8 152.6 157.6 175.6 176.5 182.2 180.2 180.5 184.9 190 190.6 191.2 192.3 193.4 194.6 195.8 195.4 194.7 194.9 190.9 191.9 191.2 191.5 192.3 190.4 190.4 193.9 208.7 216.6 223.3 230 236.9 243 247.2 248.9 254.6 261.4 255.8 257.1 262.2 261.6 247.7 244.4 243.3 246 250 253.9 257.3 260.6 264 267.1 269.5 271.5 273 274.4 275.3 276 276.8 277.6 278.4 278.9 279.7 280.4 281.4 282.3 283.1 283.8 282.5 277.7 272.6 269.5 268.6 268.2 267.9 266.7 264.3 260 256.2 251.6 248.8 247.7 245.6 240 233.3 229.3 227.2 227.1 227.1 227.8 230.6 234.9 238.4 242.5 247.1 252.3 257.5 263.1 269.4 275.7 283.3 288.5 294.5 297 298.5 299.2 297.9 295.3 291.4 286.9 283.3 281 278 276.4 275.9 276.4 279.8 280.9 281 279.4 278.3 275.4
112.5 99.2 83.9 69.5 46.8 41.2 15.3 15.3 15.3 15.3 15.3 15.3 15.3 15.3 15.3 15.3 15.3 15.3 15.3 15.3 15.3 15.3 15.3 15.3 15.3 15.3 15.3 15.3 15.3 15.3 15.3 15.3 15.3 15.3 15.3 15.3 15.3 15.3 15.3 15.3 15.3 15.3 15.3 15.3 15.3 15.3 28.6 43.1 72.1 93.5 103.3 126.4 127.9 134.1 156.7 153.8 156.2 154.7 152.9 153.1 155.7 155.9 156 155.9 147 141.6 140.2 135.3 138 148.8 158.6 159.7 164.6 169.3 173.8 181.2 188.8 176.3 157.4 161.5 161.7 150.3 167.4 173.9 176.2 178.4 192.3 195 192.4 192.7 193.5 194.6 195.1 195.4 195.5 195 195.2 195.1 193.8 194.4 191.9 191.1 192 190.4 190.4 196.9 209.8 215.3 220 226.4 232.2 238.6 242.4 245.4 244.5 247.6 250 253.4 256.7 248.6 243.6 242.5 243.6 248.1 252.3 256.3 260.1 263.4 266.8 269.2 271.3 273.2 274.4 275.2 275.9 276.7 277.5 278.3 279 279.5 279.3 280 280.5 280.9 281.3 280.5 279.8 276.6 273.8 272.9 272.4 272 270.8 269.3 265.3 260.9 256.5 252.6 249.2 246.7 242.8 234 229.5 228.1 227.5 226.8 226.9 229.2 231.7 236 239.9 245.5 250.9 256.6 262.2 270.4 278.5 287.5 294.9 299.4 302.6 304.2 304.9 303.7 301.1 297.2 293.1 289.8 286.7 283.8 280.8 281 281.9 285.3 287.9 289.3 286.9 285.1 282.6 278.6
95.8 79.6 61.3 38.7 30.3 15.3 15.3 15.3 15.3 15.3 15.3 15.3 15.3 15.3 15.3 15.3 15.3 15.3 15.3 15.3 15.3 15.3 15.3 15.3 15.3 15.3 15.3 15.3 15.3 15.3 15.3 15.3 15.3 15.3 15.3 15.3 15.3 15.3 15.3 15.3 15.3 15.3 15.3 15.3 15.3 19.9 39.1 50.4 79.9 96.6 113.6 131.7 123.7 128.2 142.3 147.5 142.8 141 143.5 145.4 150.5 149.8 148 144.3 137.8 136.2 130.1 135.3 151.2 164.1 166.7 174.5 181.5 189.7 203.3 210.7 203.9 179.2 177.3 174.2 162.7 162.2 163.8 172.2 174.2 186.4 195.8 195 194.5 195 195.8 196.3 196.6 196.2 195.2 194.6 194.9 195 195.1 195 192.6 190.5 190.5 190.7 191.1 201.3 208.4 213 216 221.2 226.8 229.5 234.4 235.7 238.2 244.3 243.2 246.3 243 241.6 241.1 242.1 245.9 250.1 254.4 258.6 262.6 266.3 268.7 270.8 272.9 274.3 275 275.8 276.6 277.4 278.2 278.9 279.7 280.1 279.9 279.9 280 280 280 278.6 277.4 276.8 277 276.6 276.1 275.4 273 269.3 263.9 260.1 255.9 252.3 249.1 245.3 235.4 230.3 228.6 227.7 227.7 227.7 228.1 230.5 233.5 237.7 242.9 249 255.5 262.2 270.3 278.9 289.5 299 304.7 308 310.4 311.1 309.8 306.6 302.3 299 296.4 293.2 290.2 286.9 286.4 287.5 290.1 294.7 296.7 296.6 293.7 290.2 287.8 281.5
80.9 61.6 41.3 21.9 15.3 15.3 15.3 15.3 15.3 15.3 15.3 15.3 15.3 15.3 15.3 15.3 15.3 15.3 15.3 15.3 15.3 15.3 15.3 15.3 15.3 15.3 15.3 15.3 15.3 15.3 15.3 15.3 15.3 15.3 15.3 15.3 15.3 15.3 15.3 15.3 15.3 15.3 15.3 15.3 17.2 27.7 40 57.7 91.7 117.5 135 138.7 119.3 124.6 136.4 134.8 145.9 144.3 140.5 140.3 140.4 139 138.4 135.4 121.3 126.3 140 155.3 167.7 177.9 190.3 194.3 205.5 219.5 232.2 220.4 199.5 186.7 181.9 172.8 167.7 176.4 177.9 181.4 185.9 189.1 193.9 195.9 196.8 197.4 197.9 198.2 197.6 195.8 194.5 194.6 194.7 194.8 195 195.5 193.7 191.5 191.1 191.6 194 200.9 206.4 208.4 210 213.6 219.6 225.2 224.8 228.2 228.6 232.3 232.7 235.1 236.8 237.5 239.6 244.1 247.9 252.6 257.4 261.6 265.8 268.5 270.4 272.5 274.7 275.2 275.8 276.5 277.3 278.1 278.8 279.6 280.4 280.7 280.4 280.2 280.4 280.4 280.3 279.3 279.7 279.9 280.8 279.9 279.2 277.9 273.9 268.7 262.6 258.8 255.9 251.2 247.1 238.8 231.4 229 226.9 226.9 227.3 227.5 229.1 231.8 236 240.8 246.8 254.2 261.9 269.9 279.5 293.6 302.4 313.5 315.5 315.6 317.2 316 312.8 308.6 304.6 301.6 299.3 296.9 292.9 293.2 292.7 295.9 298.9 303.6 304.3 304.2 301 296.9 292.7 285.1
68 45.9 29.1 15.3 15.3 15.3 15.3 15.3 15.3 15.3 15.3 15.3 15.3 15.3 15.3 15.3 15.3 15.3 15.3 15.3 15.3 15.3 15.3 15.3 15.3 15.3 15.3 15.3 15.3 15.3 15.3 15.3 15.3 15.3 15.3 15.3 15.3 15.3 15.3 15.3 15.3 15.3 15.3 15.6 28.3 39.9 40.6 62.2 107.7 131.5 139.3 121.6 119.9 121.4 131.4 145.2 138.8 114.9 111.3 122.8 125.5 127.9 122.1 120.7 134.5 145.4 160.8 174.3 196.6 208.2 220 228.4 244.1 251.2 233.1 207.6 198.1 191.3 183.3 174.6 175.7 183 187 189 191.6 191.7 195.2 197.4 198.3 199.3 200.4 199.4 197.6 195.7 194.5 194.6 194.7 194.7 195.5 195.3 194.5 192.8 191.6 192.1 192.9 196.7 200.9 202.4 203.6 205.8 209.3 220.6 221.6 226.6 222.5 225.2 225.3 229.3 231 232.8 238.2 243.8 250 255.6 260.9 265.6 268.6 270.6 272.4 274.3 276.1 276.1 276.7 277.3 277.9 278.7 279.5 280.3 281 281.3 281 280.7 281 281.5 281.4 282.7 284.2 284.5 285.3 283.9 280.8 277.4 271.3 266.4 262.3 259.1 254.4 248.5 239.9 233.5 228.3 226.5 225.6 225.2 227 227.3 229.5 233.2 238.8 244.6 252.3 259.7 267.9 277.6 288.7 300.9 311.5 322.9 323.8 324.3 321.4 318.6 315.1 310.8 307.6 305.3 303 300.7 297.2 298.7 299.1 305.9 308 313.5 314.5 312.1 308.1 302.9 296.4 289.3
50.5 30.7 15.3 15.3 15.3 15.3 15.3 15.3 15.3 15.3 15.3 15.3 15.3 15.3 15.3 15.3 15.3 15.3 15.3 15.3 15.3 15.3 15.3 15.3 15.3 15.3 15.3 15.3 15.3 15.3 15.3 15.3 15.3 15.3 15.3 15.3 15.3 15.3 15.3 15.3 15.3 15.3 15.3 26.4 39.5 41.4 48.9 75.5 114.9 130.4 128 114.6 120.4 126.1 128.8 121.8 105.9 95.3 98 109.2 111.2 110.7 129 135.9 148.4 160.5 181.3 205.9 228.3 241.3 245.8 258.3 247.8 242 217 207.1 199.9 192.2 183 174.4 182.9 189 191.9 193.9 193.3 194.3 196.9 198.6 199.5 200.3 200.8 200.5 198.7 196.8 195.6 194.7 194.6 194.5 195.6 195.8 195.4 194.2 192.9 192.7 193.7 194.6 197.7 202.9 204.6 210 202 208.6 219.7 218.4 214.5 213.9 218.4 222.4 225.7 229.6 235.9 244.3 252 258 264 268.5 270.5 272.6 274.7 276.3 277 277.1 277.5 278.2 278.8 279.4 280.2 280.9 281.7 281.8 281.5 281.2 281.3 281.8 282.5 287.4 288.3 289 288.8 286.1 282 275 269.7 265.8 261.8 257.7 251.5 242.1 234.2 230 226.4 224 224.8 225.7 226.6 228.9 231.3 238 243.8 250.2 258.4 266.5 277.2 286.4 297.3 310.5 319.2 334.9 331.6 328.4 324.9 320.4 317.3 313.6 311.2 308.9 306.6 303.2 303.6 304.9 309.8 317.1 321.1 323.4 322.8 319.7 314.8 307.4 300.1 292.6
37.7 16.2 15.3 15.3 15.3 15.3 15.3 15.3 15.3 15.3 15.3 15.3 15.3 15.3 15.3 15.3 15.3 15.3 15.3 15.3 15.3 15.3 15.3 15.3 15.3 15.3 15.3 15.3 15.3 15.3 15.3 15.3 15.3 15.3 15.3 15.3 15.3 15.3 15.3 15.3 15.3 15.3 25.5 39 42.3 48 60.7 92.3 115.5 125 113.2 107.7 119.2 110.5 95.7 89.1 91.3 114.4 120.7 100.7 116.2 132.3 140.2 150.7 170.4 194.9 223.2 251.4 269.8 259.2 260.2 255.1 236.4 216.2 205.4 198.4 194.6 191.2 180.7 176.9 189.4 193.6 195.8 197.2 197.5 194.7 196.7 198.7 199.7 200.5 200.5 200.6 199.7 198 196.9 195.9 195.6 195.2 196.1 197.6 196.8 195.3 194.5 193.6 193.4 194.4 197 204.5 211.8 209.3 198.9 203.7 206.3 204.5 202.2 207.3 216.9 222.2 229.8 234.9 239.7 246.3 254.5 261.6 266.7 270.9 273.1 274.3 276.3 277.7 278 278 278.4 279 279.6 280.3 280.9 281.6 282.2 281.9 282 281.8 281.6 282.1 285.2 290.8 290.7 290.6 289.1 285 279.1 272.3 269.1 264.4 259.1 255 246.9 236.1 229.8 225.7 222.4 222.4 222.6 224.1 226.4 228.8 235.1 242.6 249.2 256 264.5 274.7 282.7 291.9 306.4 316.8 325 337.4 336.4 331 326.6 323.7 320.6 317.7 315.2 312.7 310 307.8 308.9 313.2 321.7 328.8 333.2 333 330.4 325.6 317.8 311.3 304.8 296.8
30.4 15.3 15.3 15.3 15.3 15.3 15.3 15.3 15.3 15.3 15.3 15.3 15.3 15.3 15.3 15.3 15.3 15.3 15.3 15.3 15.3 15.3 15.3 15.3 15.3 15.3 15.3 15.3 15.3 15.3 15.3 15.3 15.3 15.3 15.3 15.3 15.3 15.3 15.3 15.3 15.3 21.1 38.5 42.8 42.7 61.6 67.6 95.4 115.7 110.8 101.9 97.9 97.9 76.9 90.9 103.4 122.8 132.1 134.4 129 133.4 148.1 153.8 162.4 190.7 224.5 267.2 276.2 269.2 254.3 251.4 244 215.9 202.9 196 192.3 190 187.1 177.7 181.7 193.7 197 201.5 200.9 201.6 199.2 196.1 198.6 199.9 200.5 200.6 200.7 200.8 199.3 198.2 197.5 197.4 197.4 198.8 199.4 198.5 197.2 196.5 195.5 194.2 194.1 197.7 202 214.1 203.2 194.2 195.2 196.8 197.3 204.7 212.2 220.2 226.8 236.7 241.2 244.5 249.8 256.8 263.4 269 273.3 274.3 275.5 277.3 278.2 278.1 279 279.2 279.9 280.5 281.1 281.7 282.3 282.2 281.9 281.9 282.1 282 282.4 287.8 288.6 289.4 290.4 286.8 281.6 276.2 272 268.2 262.6 258.6 246.7 237.6 230.5 224.9 221.1 220.1 219.8 221.3 224.1 227.4 230.4 236.2 244.3 254 261.3 271.7 281.5 290.9 299.2 315.5 323.9 332.1 343 335.4 331.8 329.7 326.8 324.7 321.9 318.8 314.9 311.3 311.9 317.8 324.3 338 341.5 342.2 339.2 335.7 328.7 322.1 315.3 308.1 297.5
24.3 15.3 15.3 15.3 15.3 15.3 15.3 15.3 15.3 15.3 15.3 15.3 15.3 15.3 15.3 15.3 15.3 15.3 15.3 15.3 15.3 15.3 15.3 15.3 15.3 15.3 15.3 15.3 15.3 15.3 15.3 15.3 15.3 15.3 15.3 15.3 15.3 15.3 15.3 15.3 16.7 37.5 44.1 43.7 51 74.1 92.4 99.8 110.5 92.4 67.3 65.7 76.8 77.2 109.8 124 141.3 136.8 140.2 148.4 160.7 172.8 172.4 183.6 223.6 259.6 282 271.1 256 242.1 234.1 220.7 208.7 199.8 193.7 190.8 187.8 183.1 180.5 189.7 198.6 203.8 203.5 202.1 203.9 202.6 199.4 198.8 200 200.4 200.5 200.6 200.8 200.5 199.4 199 199 199.2 199.3 199.7 199.9 199.1 198.6 197.5 196.2 194.7 198.6 200.6 196.6 196.5 193 194.6 195.5 199.8 206.2 212.6 222 230.6 239.7 244.5 247.9 253.2 259.9 265.8 270.8 273.3 275.6 276.9 277.8 277.5 277.4 278.6 279.9 280.8 281.7 282.6 284.3 285.7 284.7 283.2 281.3 281 281.2 282.9 286.5 287.6 288.4 287.5 282.3 278.1 275.5 273 267.7 260.7 251 241.2 231.8 224.6 220.2 218.5 218.5 218.5 222.2 225 229.4 234.5 240.2 249.1 259 267.6 278.3 286.5 298.5 305.2 320.9 329.5 337.1 339.4 336.6 334.8 332.7 331.5 328.9 326 321.6 316.9 317.6 318.3 324.5 332.9 344.5 349.5 349.3 345.1 337.8 332.3 327 320 309.7 299
15.3 15.3 15.3 15.3 15.3 15.3 15.3 15.3 15.3 15.3 15.3 15.3 15.3 15.3 15.3 15.3 15.3 15.3 15.3 15.3 15.3 15.3 15.3 15.3 15.3 15.3 15.3 15.3 15.3 15.3 15.3 15.3 15.3 15.3 15.3 15.3 15.3 15.3 15.3 15.3 38 43.3 44.4 44.5 57.1 87 106.5 101 91.9 61.9 72.7 89.2 90.9 110.9 126 137.1 159.2 154.2 163.5 174 185.8 194 185.2 202 253.7 279.5 269.5 256.8 244 234.3 214.8 210.2 204 198.4 194.7 192.1 187.7 183 183.7 195.7 204.7 203.9 203.1 203.6 204.8 204.7 203 199.7 199.6 200 200.2 200.4 200.9 201 200.3 199.7 199.3 199.2 199.3 199.4 199.9 203.1 202.9 199.6 198.1 196.2 197.4 193.9 193.5 193.5 193.5 193.8 195 197.3 205.1 207.8 218.5 230 237.9 243.8 251.7 259.1 263.4 269.1 271.8 273.6 275.9 277.2 276.6 276.5 277.7 282.5 283.8 283.2 284.2 285.9 287.7 288.4 285.3 282 280.7 280.4 280.8 282.4 285.2 286.6 286.7 282.5 279.4 278.1 277.9 273.8 267.2 258 245.5 235.1 226 220.8 217.9 216.7 216.5 218.6 222.1 227 232.8 238.6 246.6 255.1 264.9 275.1 284.8 295 302.8 311.1 322.1 332.4 338.5 341.1 340.6 338.7 337.9 336.8 333.3 330.2 324.6 323.2 324.1 326.4 332.2 339.6 352.4 354.9 352.4 346.5 342.5 337.6 331.6 321.9 310.5 296.6
15.3 15.3 15.3 15.3 15.3 15.3 15.3 15.3 15.3 15.3 15.3 15.3 15.3 15.3 15.3 15.3 15.3 15.3 15.3 15.3 15.3 15.3 15.3 15.3 15.3 15.3 15.3 15.3 15.3 15.3 15.3 15.3 15.3 15.3 15.3 15.3 15.3 15.3 15.3 19.4 44.8 44.4 44 44.4 62.1 95.3 96.5 94.8 57.9 60.9 83.2 103.2 118.2 147.2 173.9 191.7 176.9 174.8 189.6 203.8 213.7 211.2 211.4 223.5 256.8 273.8 255.1 240.6 226.4 214.2 209.2 205.3 201.2 197.2 195.4 191.9 187.4 183.2 190.9 200.8 203.1 203.4 204.5 204.7 204.1 205.6 201.9 198.9 199.1 199.6 199.9 200.5 201 202 202 200.3 199.7 199.3 199.3 199.5 201.3 206.4 206.2 201.5 199.5 197.6 197 193.5 193.5 193.5 193.5 194.7 195.1 196 210.9 212.7 215.7 226.4 237 246.6 256.1 263 266.9 270.8 272.8 274 276.2 275.8 275.4 277.3 282.4 284.4 284.9 286.3 284.3 289.1 292.2 288.7 283.9 280.6 279.9 279.5 280.9 282.3 283.9 285.1 282.2 280.1 279.8 281.7 280.5 274.9 264 251.9 240.5 231.1 222.1 217.1 216.8 216.8 217 219.8 224 228.9 235.2 243.1 253.1 261.6 272 282.1 292.1 300 308.5 317.6 326.9 335.4 341.5 347.3 344.9 344.5 344.3 342.7 339.3 332.5 327.7 328.2 329.2 332.3 339.8 346.7 352.5 356 350.4 348 347.8 342.6 333.9 321.5 308 294.4
15.3 15.3 15.3 15.3 15.3 15.3 15.3 15.3 15.3 15.3 15.3 15.3 15.3 15.3 15.3 15.3 15.3 15.3 15.3 15.3 15.3 15.3 15.3 15.3 15.3 15.3 15.3 15.3 15.3 15.3 15.3 15.3 15.3 15.3 15.3 15.3 15.3 15.3 15.3 23.8 27.1 22 31.5 40.4 66.1 87.9 91.7 69 46.6 72.8 93.6 113.2 142 221 226.3 211 177.9 196.4 211.3 222.6 231.1 221.9 235.2 253.7 264.2 255.4 236.7 224.5 212.3 212.2 206.7 202.6 199.5 195.9 195.2 191.6 186.6 184.6 195.2 201.5 202.6 204.2 204.6 204.7 204.6 201.8 199.7 198.5 198.7 199.1 199.2 200.5 201 203.7 204.3 201.7 200 199.5 199.1 199.4 202.4 204.8 206.4 202.7 199.5 197.8 193.5 193.5 193.5 193.5 193.5 196.8 196.6 196.2 216 216.5 216.9 225.6 238 251.1 258.9 263.9 267.6 271.5 273.7 274.6 273.9 274.5 277.3 281.3 285.7 287.8 287.9 283.9 287.5 292.2 291.2 287.3 281.2 279.2 278.8 278.7 279.8 280.7 282.3 280.9 279.4 280.1 283.4 288.6 282.4 271.7 256.6 245.8 235.5 225.6 218.8 215.6 215.3 215 217.4 221.6 226.8 232.4 238.3 248.8 257.5 267.7 276.9 288.1 296.6 305.5 315.1 324.1 331.5 338 345.2 348.6 350.3 351.7 351.1 348.3 342 335.5 332.7 332.8 334.3 337.3 342.9 349.5 352.7 352.7 350.1 355.1 354.7 344.2 333 319 303.6 289.7
15.3 15.3 15.3 15.3 15.3 15.3 15.3 15.3 15.3 15.3 15.3 15.3 15.3 15.3 15.3 15.3 15.3 15.3 15.3 15.3 15.3 15.3 15.3 15.3 15.3 15.3 15.3 15.3 15.3 15.3 15.3 15.3 15.3 15.3 15.3 15.3 15.3 15.3 15.3 17.8 15.3 17.6 15.3 38.5 59.8 74.4 64.8 41.8 52.4 83.5 108.4 138.2 195.3 227.8 213 189.2 193 210.5 225.4 241.3 241.7 229.5 248.9 256.6 246.5 234.6 221.8 211.5 210.9 208 204 200.5 197.7 195.4 194.6 189.9 185.1 188 199.9 203 205 204 205.3 204.4 202.7 199.9 198.9 198.1 198.3 198.2 198.2 199.8 201.1 204.1 206.1 203.4 200.1 199.2 198.6 200.7 201.9 201.1 202.8 203.9 197.5 195 193.5 193.5 193.5 193.5 193.5 193.7 194.5 195.6 208.6 214.8 216.6 225.1 240.2 252 259.6 264.7 268.5 271.1 272.5 272.3 273.2 277.3 281.5 282.3 281.9 284.3 282.8 285 286.9 289.1 286.1 278.2 277.4 277 277.4 278.3 279.1 280.1 279.2 278.7 279 282 294.1 291.9 280.3 262.4 251.5 239.8 229.7 220 216.2 215 214.6 215 218.2 222.5 228.5 235.7 243.5 254.3 264.7 274.7 284.2 295.2 302.1 312.6 322.7 330 336 342.5 347.4 352.7 357.1 358.9 356.6 352 344.6 339.2 336.3 337.3 338.8 341.1 344.6 348.3 350.2 350.1 353.1 354.8 352.7 343 330.6 313.4 298.4 284.8
15.3 15.3 15.3 15.3 15.3 15.3 15.3 15.3 15.3 15.3 15.3 15.3 15.3 15.3 15.3 15.3 15.3 15.3 15.3 15.3 15.3 15.3 15.3 15.3 15.3 15.3 15.3 15.3 15.3 15.3 15.3 15.3 15.3 15.3 15.3 15.3 15.3 15.3 15.4 16.7 19.5 25.3 29.4 34.1 45 49.1 37.9 42.8 65.1 92.6 122.9 162.3 215.6 211.7 198.9 186.7 202.8 225 235.8 246.8 247.3 232.6 238.7 228.6 222 210.7 203.3 204.9 205 202.6 199.1 197.8 195.4 194.2 193.4 188.1 186.9 190.6 200.4 203.6 204.8 203 204.1 202 200.2 199.5 198.8 198 197.4 197.4 197.4 198.4 200.3 202.3 202.5 201.9 199.9 198.6 199.6 203.4 200.1 199 197.3 198.1 194.3 193.6 195.4 195.6 194.8 193.5 193.5 193.5 194.5 195.9 198.2 210.6 216.2 227.4 243.3 252.9 261.1 265.3 268.7 269.9 270.3 272.1 275.3 277.4 285.7 285.2 278.9 279.3 283.2 285.6 286.8 284 277.6 273.2 274.5 276.5 276.9 278 279 278 276.4 277.9 280.2 292.1 299.2 288.8 273.2 256.5 242.1 232.5 222.8 215.9 215.3 214.4 213.9 216 220.4 224.4 231.7 240.4 250.4 261.4 271 280.9 290.5 302.5 309.3 318.1 330 335.6 341 346.8 353.4 360.7 366.6 366.5 361.2 355 348.7 343.2 340.2 340.9 340.6 343.1 345.3 347.5 348.6 349.9 355.7 354.8 352.1 340.1 323.6 310 293.3 279.1
15.3 15.3 15.3 15.3 15.3 15.3 15.3 15.3 15.3 15.3 15.3 15.3 15.3 15.3 15.3 15.3 15.3 15.3 15.3 15.3 15.3 15.3 15.3 15.3 15.3 15.3 15.3 15.3 15.3 15.3 15.3 15.3 15.3 15.3 15.3 15.3 15.3 15.3 16.5 18.6 36.2 43.4 44.4 33.7 32 37.6 39.1 46.3 82.3 114.6 148.9 192.7 216.2 210.1 188.1 199.3 211.1 230.5 234.5 248.7 237.1 227.3 224.5 208.2 203.8 196.1 196.4 199.7 199.5 196.8 194.8 193.8 193 191.6 190.9 188.3 188.7 196.7 198.5 199.7 202 202.2 202.1 200.1 199.6 199.2 198.6 198 198.5 197.4 196.5 196.9 198.2 199.3 198.8 198.5 197.5 196.4 200.4 202.6 199.9 194.9 197.5 192.7 193.4 196.6 199 199.3 197.5 194.5 193.5 193.6 194.2 195.4 197.2 202.3 216.4 227.8 242.2 254.4 261 265.1 267.1 268.3 271.1 273.8 275.4 283.7 283.1 282.4 277.6 280.7 284.4 284.7 281.7 277.6 274.2 271.3 272.4 274 276.2 277.2 276.7 276 276.2 277.9 280.8 297.2 299.3 281.1 263.1 246.9 235 223.9 216 214.5 214.4 214.3 213.5 217 222.7 229 236.4 246.7 256.5 267.1 277.8 286.8 297.5 308.4 315.9 324.6 332.6 340.7 346.4 353.9 359.7 372.1 373.3 369.3 365.3 359.9 352.6 346.8 343.8 342.7 341.5 341.6 342.4 346.3 348.9 348.2 348.4 348 348.7 330.9 316.5 304.4 286.5 273.1
15.3 15.3 15.3 15.3 15.3 15.3 15.3 15.3 15.3 15.3 15.3 15.3 15.3 15.3 15.3 15.3 15.3 15.3 15.3 15.3 15.3 15.3 15.3 15.3 15.3 15.3 15.3 15.3 15.3 15.3 15.3 15.3 15.3 15.3 15.3 15.3 17.4 21.1 21.4 37.2 48.2 60.8 62.6 46.6 42.2 36 43 67.8 91.8 142.5 166.8 189.8 199.5 185.1 192.1 203.1 219.1 235.7 231.1 231.6 223.4 214.4 209.4 192.7 188.4 191.7 194.2 195.1 195.5 194.6 194.2 194.9 195.4 191.8 190.1 190.4 194.9 198 200.1 199.6 201.1 200.9 200.1 199.4 199.3 199 198.4 199.9 201 199.4 197.9 196.4 196.1 196 195.1 195.2 195.4 197.3 200.5 202.4 196.2 193.6 192.5 192.6 195.5 197.3 198.6 199.4 200 197.1 194.3 194.2 194.8 195.3 197.2 203.3 215.4 227.7 240.9 254.1 260.1 263.5 265.7 269 271.7 272.3 277.2 277.5 278.8 276.9 276.8 281.3 282.5 280.4 276.3 271.8 270 270.1 271.9 272.8 274.6 275.2 274.4 273.5 274.1 276.2 280.8 297.2 296.7 271.7 253.7 239.4 226.8 216.5 213.9 213.5 213.1 212.5 214.3 219.7 226 234.2 241.8 253 263.2 274 284 294.7 305.9 314.9 324.8 333 339.1 345.1 353.4 359.6 366.7 377.2 375.6 374.3 371.4 366.3 357.1 349.3 345.3 343.1 340.8 340.1 340.7 347.1 346.5 345.3 347.7 343.4 334.5 325.8 312.9 295 280.6 267.3
