ncols 200
nrows 83
xllcorner 230000
yllcorner 940700
cellsize 50
350.9 358.6 355.8 347.9 350.7 355.1 370.5 384.5 407 432.8 455.5 472.5 491.3 514.5 536.3 561.7 588 625.3 662.5 697.4 720.4 721 715.5 707.6 695.6 682.5 669.4 651.9 635.2 628.3 622.3 621.5 619.4 609.4 587.9 562.3 534.6 507.8 488.3 473.9 472.8 485.8 506.4 509.5 518.4 528.1 518.6 509.8 504.3 497.4 491.8 497.1 498.7 498.7 498.7 496.7 500 494.6 491 485.9 474.8 464.5 452.9 439.8 432.9 424.7 416.6 410.9 408.3 407.1 401.5 396.6 390.4 387.9 383.3 390.5 394.2 400.9 412.6 424 436.8 444.4 451.5 463.2 472.1 477.6 493.1 506 521.8 529.5 536.8 546.7 558.6 573.5 588 605.3 624.5 643 662.7 681.4 697.6 714 727.8 739.2 751.1 759.8 765.3 767.4 764.3 755.4 738.3 730.3 731.4 719.5 693.7 674.9 670 649.5 633.1 620.3 612.5 605.1 596.8 596.4 587.7 577.6 566 526.5 518.2 511.6 507.6 503.3 494.3 489.2 485.6 485.5 486.2 487.8 489.6 492.5 494.5 501.9 506.9 508.9 507.9 505.5 503.4 501.9 499.8 495.9 488.8 474 466.7 461.7 453.8 449.1 444.1 439.6 433.8 429.6 422.8 416.3 408.8 400.9 392.6 384.4 377.3 369.4 358.6 348.1 342.5 335 331.5 328.9 326.8 328.5 328.3 328.5 325.5 322.5 321.1 317.4 314 304.5 300.4 295.4 295 291.4 282.8 282.8 274.9 274.1 272.1 266.6 262.4 253.1 255.1 254.9 248.8 247.9
328.3 342.1 343.9 345.7 345 350.2 360.9 372.8 393.2 421.9 453.3 474.3 492.4 514.2 536.9 561.1 589.7 626.9 663 694 704.9 704.1 698.8 692.9 685.9 674.2 658.1 643.7 627.6 621.7 614.6 612.4 609.6 601.8 590.5 570.8 544.5 524.5 516.8 516.8 517.7 527.3 532.5 522.5 534 526.8 521.1 511 500.6 497.4 493.7 498.7 498.7 498.7 494.1 500 498.8 493.5 487.5 477.7 468.1 460.2 445.4 433.2 423.4 418 415.4 410.3 406.5 400 391.2 388 383.9 377.3 386.8 390.5 394.5 402.9 414.2 426.2 428.7 434.7 450 464.7 470 477.1 490.4 502.9 515 524.6 529.6 539.9 550.7 566 578.4 595.9 614.2 634.5 651.3 670.1 686 701.2 716.3 728.3 738.7 747.9 753.5 754.9 753.1 744.1 735.6 729.7 728 727.2 719.9 712.7 693.5 675.5 655 643.4 637.6 634.5 620.4 605.1 596.2 584.1 572.4 539.2 517.5 504.1 501.2 496.4 492.1 483.1 487.8 487.8 487.8 487.8 487.8 486.2 489.9 495.2 499.4 502.2 500.6 500.3 496.1 494.2 490.3 487.9 483.4 470.6 464.8 459.3 451.9 444.5 440.4 434.4 429.3 422.7 418.3 412.9 405.5 397.4 392.5 384.4 375.6 367.2 361.1 355.4 344.3 337.3 331.9 330.8 328.6 329.2 328.3 325.2 321.4 317.6 315.2 312.8 311 309.4 298.1 299.7 293.9 290.1 287.9 285.2 282.1 281.6 277.3 274 268.8 268.3 259.7 258.4 255.5 249.6
293.3 322.1 327.8 336.2 342.3 345.3 349.4 360 379 403.9 444.1 466.6 493.8 516.1 540.7 564.3 605.4 642 678.1 691.5 690.7 687.6 685.1 679.9 671.3 660.4 646.7 630.2 619.6 613.7 608 601 599.6 593 584.7 572.7 555.7 541.9 540.3 542.1 539.3 543.3 537.6 537.6 540.8 534.4 521.9 512.8 497 496.5 496.3 498.7 497.1 496.6 501.4 499.9 496.8 490.9 480.9 472.3 463.8 451.2 435.5 422.2 419.4 413.3 409.3 405.2 395.8 388.2 382.9 379.9 377.3 379.2 384.1 390.3 400.6 408.9 419.7 419.7 417.9 434.9 456.4 465.5 469.2 486 491.5 498.3 509.6 518.5 525.3 533.8 545.3 557.8 572.2 589.1 604.5 622.9 640.2 658.4 674 689.4 704.1 716.4 727 735.8 740.2 741 734.2 723.9 716.6 713.4 715.9 717.2 718.3 716.1 707.7 688.2 668.5 657.2 652.2 646.1 632.4 616.9 605.2 586.3 567.8 543.8 513.1 500.9 495.9 494.6 491.9 487.8 487.8 487.8 487.8 487.8 487.8 487.8 487 488 490.6 494.4 496.6 492.8 490.9 488.3 485.2 478.7 473.7 468.4 458.2 457.2 450.6 442.5 435.6 432.7 427 420 416.9 411.5 405.4 403.1 394.1 390.1 387.7 374.5 365 357.2 351.1 346.3 336.4 335.2 332.3 332.3 331.9 330.8 328.8 324.7 322.5 317.8 314.7 325.4 323.3 317 310.1 304.7 294 289 285.9 282 279.4 280.4 276.7 268.2 261.6 256.2 254.4 252
275.4 313.3 316 331.5 336.4 337.1 336.9 352.1 368.3 387.6 427.8 462 491.3 517.1 546.8 573.8 612.9 652.8 669.1 674.9 673 671.3 667 663.6 657.4 647 630.6 618.9 606.7 605 602 584.6 586.2 580.6 574.6 567 558 554.9 558.4 553.4 551 550.4 542.8 547.8 539.9 536.3 525.5 511.4 499.9 494.8 494.7 496.2 496.5 501.3 502.6 500.8 496.8 487 476.8 468.6 457.1 449.1 431.7 423.3 417.2 404.4 402.6 392.2 381.9 376.4 373.2 371.3 366.4 376.7 384.7 393.9 403.6 410.3 414.9 410 417.7 436.6 448.4 454.5 457.5 474.4 491.9 495.3 503.8 514 520.6 528.5 538.8 551.5 565.9 581.8 597.1 613.1 631 647.3 663.7 677.9 690.9 702.8 713.6 721 722.7 716.1 706.5 697.2 692.1 691.4 695.8 703.8 710.6 714.3 709.9 694.2 675.1 665.2 659.8 650.4 638.5 625.8 606.2 582.2 559.8 534.1 503.2 491.2 492.9 494.6 490.5 487.8 487.8 487.8 487.8 487.8 487.8 487.8 487.8 487.8 487.8 485.3 488.2 488.9 485.6 482.3 480.8 476.3 469.5 462.1 452.8 452.7 446 439.4 432.7 424.1 421.7 417.9 414.3 411.8 407.6 405 402.3 399 393.6 391.2 380 369.4 362.1 349.8 345.3 342.7 340 336 336.6 337 336.1 336.2 341.8 339 338.9 337.5 334 329.4 324.4 323.1 317.5 309.7 299.6 298.6 300.8 296.7 286.2 284.2 281.1 277.5 272.3 262.6
263.7 292.9 306.2 326.4 327.8 328.8 327.6 333.9 354.9 369.7 416 456.8 488.6 518.8 548.2 579.8 627.4 655 652.6 653.9 651.4 652.2 651.5 647.3 640.1 629.2 617 605.1 598.7 597.4 594.8 586.3 563.8 563.6 558.9 558.6 554.4 562 562.4 558 557.2 554 552.6 550.6 541.7 533.4 521.1 506.7 496.5 495.2 493.7 497.3 500.9 504.5 503.5 501.1 496.2 485.6 474.5 465.2 452.7 449.3 428.9 421.3 412.6 399.6 392.3 380.5 370 368 363.1 361.2 368.7 377.2 386.4 395 401.7 405.8 407 404.8 424.9 430.8 440.2 444.9 446.9 464 485 491.1 499.8 509.5 515.2 522.6 533.4 547.6 561.3 576.2 591.6 605.6 621.3 636.2 652 665.3 677.9 688.4 698.2 703.4 693 683.8 676.4 669.4 663.9 661.8 669.9 685.4 695.4 705.3 704.6 692.3 677.6 668.1 662.9 651.8 641.9 631.3 612.1 579.1 558.6 536.8 506.4 489.9 488.8 489.2 486 487.8 487.8 487.8 487.8 487.8 487.8 487.8 487.8 487.8 487.8 484.9 484.5 482.8 480.9 478.2 473.5 472.2 464.7 457.4 448.5 442 443.5 436.3 431.5 429.4 423.3 421.2 417.8 418.8 416 413.8 411.3 410.5 407.3 412.6 396.5 398.9 394.1 385.6 371.1 365.2 358.4 351.5 344.8 343.3 348.9 353.8 355.8 353.4 350.8 356.1 352.9 346.9 340.7 335.3 333.8 329.6 316 304.8 302.6 300.3 299.3 296.4 290.8 285.9 285.1 281.7
248.7 262.9 294.3 315 321.2 321.3 319.6 319.8 339 354.7 396.5 444.2 487.7 522.8 554.2 595.5 633.6 642 640.2 633.6 631 630.5 630.8 629.7 622.1 611.9 599.6 592.3 588.7 588.1 584.2 576.8 562 545.9 546.7 546.6 553.6 563.5 566.9 567 560.5 558.6 560.3 546.9 540.7 531.7 515.9 504 495.6 492.6 492.6 495.8 498.3 502.7 502.8 501.3 493 483.9 471.3 463.8 452.1 447.3 430.7 416.6 404.5 392.9 380.9 369 358.5 356.2 356.3 366.4 372.4 380.1 385.4 391.1 396.9 401.4 403.3 404.9 424.5 434.1 434.5 437 444.6 460.7 473.4 481.5 494 502.9 509.9 517.9 529.7 542.6 557.7 571.7 587.1 601 612.7 626 641 654.3 665.6 674.5 682.8 679.7 660.4 651.7 645.7 638.6 634.4 630.9 639.2 660.2 679.9 693.6 699.6 691.1 679.7 673.4 666.3 656.7 646.6 638.9 618.6 595 579.3 550.7 523.8 501.3 489.6 492.5 486.8 487.8 487.8 487.8 487.8 487.8 487.8 487.8 487.8 487.8 487.8 486.4 485.6 483.4 478.7 471.1 466.2 465.5 462.4 454.9 446.8 442.3 439.6 437.6 434.5 432.7 431.1 431.6 427.8 436.7 426.9 423.3 422.3 428 434.4 434.3 426.4 420.8 415.9 410.3 409.2 406.9 402.1 391.3 378.8 365.4 360.2 358.4 360.5 364 359.8 368.1 367 362.4 360.9 361.2 353.7 343.2 325.8 318.3 304.9 303.3 307.5 305.4 302.1 296.8 292.3 291.5
226 256.3 288.6 309.5 315.1 314.6 313.8 311.9 321.6 343.5 374 423 479.6 524.1 559.9 597.7 628.3 627.7 622.1 621.1 618.9 614.4 614.7 611.9 603.8 594.7 586.7 580.3 577 578 572.1 562.5 552.1 539.9 530.2 530.2 545.6 562.7 572.2 572.8 570.4 566.8 557 545.5 538.2 526.1 512.6 502.6 496.2 492.1 491.3 494.1 496 499.9 502.6 501.1 489.6 480.3 469 458.3 452.8 441.1 424.2 413.4 402.5 386.5 373 356.3 344.1 352.8 360.9 366.8 370 374 379.4 384.4 388.8 393.8 396.2 400.8 416.2 426.8 427 435.2 439.9 456 466.2 474.8 485.3 494.4 502.7 513.5 527.9 542.2 556 570.1 583.4 595.9 606.5 618.3 630.1 643.2 651.8 658.2 663.3 650.5 629 615.3 611.3 605.4 601.2 599.9 611 634.9 662.3 682.5 694.5 693.2 685.4 679.8 671.1 662.4 651.3 642 625.7 597 578.6 557.4 533.9 517.9 494.2 498.1 492 487.8 487.8 487.8 487.8 487.8 487.8 487.8 487.8 487.8 487.6 491 489.9 482.5 477 472.5 467.3 463.2 455.6 453.9 450.6 442.2 441.3 439.5 436.2 430.8 431.7 436.9 440.9 447.3 446.3 440.4 438.8 441.6 446.3 443.6 440.2 434.8 435.3 430.9 429.7 431.1 423.9 406.7 400.3 386.2 370.6 377.4 374.9 373.1 373.7 383.3 379.4 371.7 375.6 374.5 364.3 359.1 349.9 338.9 325.8 311.4 310.6 321.2 318.3 309.3 304.4 299
218.8 241 266.1 293.1 301.8 305.9 305.8 303.4 312.3 329.5 358.3 405 465.6 510.3 544.6 583.7 612.5 612.8 607.4 608.1 603.6 596.4 599 594.9 588.1 580 573 567.7 567.9 566.7 560.9 550 541.6 531.8 522.2 520 542.8 560.2 570.4 575.6 575.3 566.6 550.5 539.2 533 519.1 505.9 499.5 494.3 490 489.3 491.8 495 499.8 501.4 496.3 484.7 474.4 463.2 454.4 447.7 434.2 418.9 407.9 396.3 381 363.7 344.6 342.8 355.8 360.9 358.7 366.9 373.5 379.4 383 386.4 385.8 388.1 392.5 401.9 409.8 415.5 426.1 434.3 444.9 456.6 465.6 474.9 487.6 495.1 509.2 523.9 540.5 553.7 567.4 579.8 590.5 601.5 612.4 622 632.6 639.3 641.5 635.5 624.7 601 585.2 579 569.9 566.8 570.9 585.7 614.7 646.9 672.5 688.5 695.5 690.6 684.6 675.2 664.9 653.8 642.4 628.3 599.3 583.8 560.1 536.9 519 500.5 503 520.2 490.6 486.3 486.4 487.8 487.1 486.3 487.8 487.8 487.8 486.7 492.4 490.8 481.6 474.2 472.6 466.6 463 454.9 451.1 447 450.9 440.3 436.5 438 433.3 434.4 438.7 443.3 455.2 461.4 444.8 449.2 450.7 452.1 451.7 446 445.2 441.8 437.4 435 434.1 429.2 412.9 400.7 390.6 381.1 389.5 390.6 388.3 384.2 383.5 382.8 377.2 378.5 373.5 374.7 364 352.2 352.5 340.6 335.1 333.7 325.8 330.2 322.3 311.5 306.2
199.2 220.2 247.5 281.2 289.2 293.5 298.3 297 308.1 322 348.4 396.1 449.5 486.2 527.1 556.2 592 606.3 603.1 598.4 591.8 587.8 584.7 581.1 575.8 564.9 561.4 556.9 558.3 555 548.6 540.4 529.8 522 512.7 513.6 538.3 551 560.9 565.1 564.1 554.1 540.5 530.8 524.6 510.3 499.3 493.1 489.3 485.9 486.8 490.7 494.9 497.2 498.5 490.2 480.4 469 461.5 451.3 443.1 429.3 412.6 403.1 390.6 372.8 351.2 332.4 342.4 351.5 347.3 353.5 362 366.3 380.4 381.4 383.8 384.2 389 395.7 403.1 411.4 415.7 419.6 430.3 443.8 456.2 466.7 478.7 485.7 495.3 508.4 526.4 540.8 553.5 566.8 578.7 588.4 597.3 606 615 623.2 625.7 620.3 609.9 596 577.4 562.7 560 551.9 549.6 554 566.2 604.5 633.9 661.9 682.2 692.4 691.3 685.9 675.7 664.1 654.3 641.5 626.1 602.5 582.4 560.6 544.4 527.5 511.4 512.5 522.7 515.5 505.6 504.5 493.2 503.2 493.7 488.2 487.8 487.8 484 492.2 487.7 478.6 476.3 471.4 470 463.3 455.7 460.7 456.3 463.1 459.7 447.4 441 437.5 436.7 442 449.3 457.4 463.2 457 451.3 455.8 453.8 451 449.3 448.7 445.9 440.2 437.7 435.3 430.3 417.5 404.5 402.3 396 394.5 395.8 398.9 399 389.2 389.7 387.6 380.9 375.2 369.6 363.7 361.8 357.1 348.1 344.6 340.6 338.4 334.8 327.9 317.2 313.7
176.2 201.7 228 254.5 271.6 284.2 290.3 287.9 294.5 308.2 335.4 379.7 421.9 459.7 493.2 529.3 565.8 574.6 588.7 589 583.3 574.8 570 564.3 561.2 552.4 549.7 547 545.7 544.4 538.8 528 520 509.9 500.2 512.8 528.4 538.5 545.9 549.7 549.9 540.8 529.1 517.7 512.4 500.1 490.4 486.3 483.2 481.3 483.3 487 492.4 494.2 493.3 484 475.2 465.2 455.4 445.8 436.3 420 406.4 398.3 383.2 358.3 337.3 328.6 335.2 337.2 352.5 369.6 371.8 376.8 381 385.2 388.8 390.8 396.2 405.9 411.1 416.3 423.2 433 439.3 445.1 455.3 464.7 474.9 483.5 493.1 507.8 526.6 540.8 553.3 568 578.3 588.1 594.4 599.9 605.1 606.7 603.9 594.5 583.7 575 558.2 539.9 530.6 531.7 536.9 541.2 554.6 594.5 625.3 654.5 676.5 686.6 687.3 682.8 675 661.8 651.2 637.4 622.4 604.1 574.5 552.5 542.2 522.8 516.2 517.8 526.2 522 525.8 516.1 509.3 507.9 501.8 504.2 487.7 487.8 485.7 487.6 485 476.7 475.2 472.9 472.5 469.2 468 471.6 476.2 480.1 483.1 479.6 481 470.4 452.7 454.7 460.6 465.5 465.1 462.2 457.9 451.5 450.7 451.1 450 448.9 447.4 442.1 439.3 436.2 430.1 421.6 412.5 406.8 401.4 399.3 402.2 403.9 401.4 397.4 393.5 397.1 390.5 376.8 368.5 365.7 367 363.4 353.7 349.4 347.9 345.9 343.7 338.5 322.7 318.7
166.2 186.4 206.9 228.5 248.3 268.4 275.5 280.3 281.6 296 319.1 355 392.7 432.8 471.4 504.9 524.9 536 547.4 571.8 572.1 562.6 555.8 554.1 548.3 542.9 538.7 538.6 536.4 529.9 525.1 517 506.7 495.6 491.5 506 516.9 523.6 527.5 529.8 529.9 527 517.5 508.5 500.9 489 478.4 477.2 475.7 475.9 479.8 484.7 489.3 490.2 487.4 477.9 468.6 457.7 449.7 439.8 431.2 413.1 399.1 388.5 362.3 340.3 324.6 323.7 338.1 353.4 370.7 375.2 378.2 381.1 392.9 397.3 405.6 408.6 405.4 406.5 412.2 422.7 432.1 441.7 446.5 453.8 456.3 465.4 474.9 481.5 492.9 510.2 526.9 539.9 553.4 567.1 578.1 586.5 590.4 586.1 577.8 578.9 575.8 574.1 563.4 548.2 534.4 523.1 516.1 516.3 525 532.3 551.4 589.5 620.5 649.3 673.1 682.3 683.4 680.1 673.9 662.1 648 632.9 618.3 599.5 575.6 548.9 539.8 519.9 522.8 524.4 528.6 525.2 525.1 524.1 510.7 513.1 506.7 506.5 492.6 490.6 490.9 486.6 483.8 475.3 477.4 477.2 481.3 488.1 485.7 489.1 492 495.9 497.2 496 494.3 487.6 478.1 470.2 470.7 466.6 467.8 463.2 455.8 456.7 451.3 451.3 451.8 451 450.4 446.2 443.2 440.7 434.1 423.6 416.1 405.9 402.6 405.2 404.8 406 401.3 401.2 400.1 395.4 394.2 378.7 373.9 366.2 366.9 369.3 360.8 352.7 349 349.2 346.4 342.3 337 326.2
148 169.9 190.6 210.2 227.7 246.2 263.8 265.5 268.2 281.6 299.1 325.4 357 380.9 442.9 476.9 489.3 499.1 514.6 524.6 558.4 551.8 543.3 543.1 537.3 530.8 526.5 528.8 526.3 518.8 511.7 503.1 493.4 483.3 486.1 495.6 504.4 507.2 509 512.9 512.1 512.4 503.9 494.4 487.9 475 468.1 468.6 468.6 471.9 476.8 481.9 485.3 484.9 478.1 469.2 460.9 452.2 443.4 435.2 426.4 406.8 395.6 373.3 350.6 328.8 316.6 331.6 340.8 358.5 373.7 376.4 377.5 381.6 390.6 410.4 425.5 420.2 415.5 416.5 423.7 433.9 443.4 451.2 456.4 462.2 465.5 468.6 476.8 485.9 496 510.3 525.6 541.8 555.8 567.7 578.9 575.4 550.3 542.8 528.8 528.5 538.4 548.5 541.5 528.6 516.2 510.6 508.8 511.1 518.7 522.5 553.3 583.8 616.2 646.3 667.8 678.5 680.8 678.9 673.6 659.3 645.1 627.5 611.1 594.9 569.9 551.7 541.2 522.8 519.9 523.5 532.2 532.4 528.5 524.1 520.4 518.4 512.9 510.1 506.5 500.1 495.2 486.5 490.7 482.6 487.4 483.5 495.2 503.6 496.4 499.6 501.9 507.6 507.4 509.5 508 500.1 493.1 482.5 474.7 466.1 472.6 477.4 476.2 471.1 461.4 453.9 453.2 451.9 451.1 448.2 443.7 440.1 435.9 424.7 417.3 409.2 406.1 407.3 408.4 405.3 405.6 406.8 410.9 403.2 395.8 392.2 376.5 366.8 365.5 364.9 364.5 357.8 353.4 352.1 350.7 345.7 341.5 335.8
133.1 151.1 175.9 198.1 226.5 243.6 249.2 254 251.8 266.9 279.5 299.2 323 345.2 378.4 438.5 451.7 460.2 449.8 501.1 546.8 539.3 531 530.5 525.9 519.9 517.2 518.2 512.9 506.7 497.3 491.7 482.9 472.8 476.3 484.7 490.9 490.6 492.3 497.1 496.8 497.9 490.4 483.1 476.1 463.3 460.8 461.8 463.4 467.1 471.9 476 479.2 477.9 468.9 460 451.6 444.5 438.1 430.6 419.7 399.1 383.7 356.1 337 320.6 320.6 330.5 342.4 360.1 372.5 376.4 379.2 387.1 405.7 426.6 432 430.8 429 431 434.9 442.7 451.9 460.4 465.5 470.5 474.8 481.4 492.9 500.6 507.9 518.4 533.8 552.7 562.3 568.3 556.7 525.9 501.8 494.4 490.2 494.1 499.4 504.6 507.2 501.7 499.3 498.7 499.2 502.8 509.6 517.4 551.4 580.4 611.7 640.5 666.1 675.9 680.1 680.4 675.6 661.4 644.6 622.7 604.8 585.4 569.9 549.6 541.2 529.6 522.4 525 533.9 539.5 535.3 528.1 528.6 528.2 522.4 517.9 511.3 504.6 498.6 492.8 499.2 491.6 493.3 495.2 503.5 509 505.1 511 514.8 519.3 522.5 525.8 517.5 511.4 501 491.5 484.8 472.6 471.9 480.3 483.2 474 468 457.4 458.4 453.9 450.8 449.2 444 439.4 435.4 430.3 421.2 414.4 409.9 409.5 406.2 405.5 410.1 418.4 418.2 416 403.2 396.3 378.3 369.5 367 364.9 365.9 362.3 355.4 352 354.2 350.1 348.7 351.8
123.1 139.7 160.8 182.1 206.6 223 231.6 238 242.5 255.1 255.4 273.2 293 312.2 339.3 387.5 406.6 421.5 466.7 511.5 536.2 528.4 519.7 515.2 510.7 505.8 502.3 505 503.8 498.3 486.1 479.2 471.5 461.6 468.1 474.1 478.4 478 477.1 482.1 482.3 484.9 477.6 469.6 463.3 455.3 455.2 457.1 460.7 462.6 468.8 472.3 474.5 472.9 461.3 454.4 445.9 440 434 428.2 413.4 392.3 364.7 343.7 326.2 308.2 322.4 329.8 345.3 361.5 374.8 378.3 383.3 400.9 430.6 437.6 440 441.7 441.3 444.1 448.1 452.8 460.7 468 473.6 481.1 487.8 494.3 505.5 520.2 524.3 529.6 549.2 555.7 559.8 526 498 475.4 456 450.7 448.2 454.9 464.8 475.8 475 478.9 479.3 481.4 483.6 485.4 494.1 508.2 541 578.2 607.9 636 662.5 675.8 682 686.3 680.2 664.3 648.9 628.8 608.9 595.6 571.6 551.5 543.8 533.6 522.6 535.1 545.5 549.6 551.9 542.1 531.3 528.2 526.2 519.3 514.1 507 501.5 503.7 508.3 502.7 504.4 512.4 512.1 517.6 525.4 526.4 530.3 534.1 535.8 535.2 527.7 522.5 512.9 501.2 487.9 483 477.7 475.2 478.7 470 467.6 460.8 456.1 454.4 449.6 449.3 447.6 440.2 436 430.8 425.3 417.7 416.3 411.8 407.6 410.1 414.1 421.7 421 417.1 405.8 393.7 387.7 381.7 372 365 368.6 366.5 359.4 354.1 353.9 353.2 351.9 354
112.2 124.1 141.7 165.4 189.5 209.2 217.9 223.9 237.6 242.9 246.3 246.3 264.5 282.2 307.5 329.8 354.2 414 452.1 492.8 521.8 517 510.7 503.6 496.3 488.2 485.1 491.1 492.7 487.8 477.4 468.6 461.9 451.2 460.3 463.7 467 467.3 466.3 468.7 468.9 472.1 464.4 458.6 453.6 449.4 452.4 456.4 459.8 461.4 465 470.1 470.5 466.5 457.3 450.5 444 437.7 429.7 421.1 406.5 380.9 353.3 334 313.3 308.1 320.2 334.9 346.4 367 380.4 385.6 399.1 425.5 439.2 446.5 453 454.8 454.7 457.4 461.8 466.3 472.9 478.7 483.4 490.5 497.1 506.6 517.1 529.3 538.2 545.7 556.5 553.3 526.6 489.9 457.6 435 423 406.5 413.3 426 435.9 449.4 446.6 453.6 464.5 469 466 465.6 475.8 497.5 532.6 567.6 600.1 632 657.5 676.2 687.4 692.2 689.1 673.7 657.8 636.6 618.4 600.9 587 568.5 547.8 530.6 528.1 540.6 550.2 551.6 560.8 552.1 543.1 536.1 532.3 526.6 519.6 511.1 507.7 514.1 519.7 514.2 516.1 522 526.4 530.9 537.9 544 549.4 546.8 546.3 547.3 541.5 534.2 521.4 507.1 493.6 483.5 479.3 472.1 467.9 465.4 465.3 461.7 455.2 455.1 449.9 448.4 447.5 442.2 441.5 435.8 431.2 423.3 416.7 415.7 415.3 417.2 416.4 419.8 423.6 418.6 413.7 403.2 389.3 387.3 377.1 369.4 373 373.6 369.7 359.9 361.5 358.5 357 356.7
103 113.2 126.9 146.2 171 192.9 204 212.7 223.5 231.7 234.1 233.5 235.9 253.7 278.7 304.5 323.9 376.1 415.7 440 478.2 506 499.7 492.4 486.1 473.8 472.8 475.9 483.6 477.9 468.5 457.9 452.3 440.4 447.3 454.4 457.9 458.1 456.7 457.8 458.3 458.2 453.1 447.8 443.2 446.6 453.2 456.6 458 457 461.9 465.2 465.1 460.5 454.2 445.6 436.5 429.9 423.4 410.4 393.2 369.1 341.3 323 306 310 322.2 337.9 354 375.1 387.7 394.3 411.3 426.3 442.3 453.5 460.8 464.8 467.3 470.8 474.7 480.3 484.2 488.6 495.4 504.8 511.6 520 530.7 540.3 547.3 556.8 563.1 540.6 492.7 461.3 437.3 415.5 405.8 397.7 388.1 394.1 411.2 416.5 430.7 432.2 450.4 452 451.9 461.8 465.8 493.8 526.1 560.8 594.9 626.3 655.4 675.8 689.9 696.5 697.7 683.7 664.5 640.7 617 595.8 585.6 574 563.1 557.8 545.4 544.3 551.3 555 557.2 552.8 547.4 540.9 537.6 531.8 525 518.5 517.1 527.4 526.9 525.7 531.9 534.8 539.1 543.8 548.8 555 555.1 554.1 551.4 554.5 547.2 539.3 530.2 512.2 493.7 480 476.6 470.3 463.7 463.1 462.6 462 455.4 455.5 453.4 446.1 445.7 442.5 442.7 439.4 438.7 429.5 434 432.6 422.6 418.5 417.8 421.3 418.2 415 413.8 402.2 395.7 389.1 384.9 382.6 377 375.2 375.1 366.7 363.8 369.7 367.3 360.4
94.6 101.9 115.9 132.7 148 173.6 185.8 194.2 208.9 219.1 218.9 221.6 222.3 235.5 260.9 275.4 296.8 324 373.4 405.9 427.7 488.6 493 486.2 479.3 465.7 458.8 464.3 472.1 468.1 458.4 447.1 440.7 432 432.3 444.8 448.4 450.2 449.4 451 450.4 447.8 440.5 437.2 440.1 446.6 452 454.6 454.3 455.1 457.6 458.9 458.9 454.3 447.5 437.5 429.9 422.5 415.5 399.8 383.7 356.7 336.6 318.8 300.6 311.3 325.4 342.5 365.9 388.1 399.2 407.5 424.9 439.1 453.1 463.3 472.7 478.3 481 484.5 488.1 491.9 495.6 501.1 509.3 517.7 525.5 534 541.5 550.1 557.8 567.2 569 522.5 477.3 447.9 420.9 401.5 396.7 390.2 380.5 376.2 394.5 401.4 405 417.4 422.1 425.1 437.6 458.2 456.4 490.3 514.7 550.6 583.5 616.6 647.9 674.2 689 699.4 700.6 688.4 666.9 638.8 612.5 591.8 583.7 573.9 570 567.1 562.3 553.3 558.8 558.6 562.7 557.9 547.4 541.2 541.8 541.9 536.5 531.7 530.5 535.3 537.4 540.4 543 542.8 545.5 549.4 553.8 560.3 558.1 556.3 555.5 556.1 551 542.4 532.5 513.3 492.3 479.5 473.3 469.4 463.7 461.3 463.6 458.8 454.9 455 453.3 445.1 444.3 438.3 437 435.2 438.5 432.3 436.4 442.9 437.4 427.3 421.4 424.6 424.5 420.5 410.4 406.6 396.7 390.2 387.2 382.5 378.6 377 376.6 373.5 369 372.9 372 364.3
86.6 91.7 106.3 122.9 134.5 153.1 168.8 171.3 187 202 206.6 207.6 206.7 222.1 233 243.7 261.4 289 338.2 370.8 409.1 463.8 493.2 484.2 474 459.5 448.7 451.8 459.9 458.1 447.4 435.3 426.5 422.5 420.3 434.9 439.7 440.2 439.4 439.1 438.7 435.3 429.4 431.5 438.3 444 449.3 449.6 451.4 452.9 453.9 450.9 450.4 445.7 437.8 429.8 419.5 410.2 402.5 383.3 365.5 344.7 318.4 306.5 301.6 316.1 328.9 345.1 376.4 397.4 411.2 426 444.2 456.2 472.6 487.1 492.2 494 497.5 500.2 503.4 508.3 512.8 517.4 524.1 531.1 539.4 546.8 553.3 561.4 570.5 581 577.4 519.2 467.3 433.1 409.8 396.4 387.1 383.6 375.3 366.8 368.9 383.8 386.2 394.1 403.4 410.9 423.7 433.7 441.7 475 507.5 541.8 575.2 610.7 643.7 669.5 684.3 695.5 701.2 693 673.3 645.2 619.9 605.6 590.2 579.6 571.7 572.3 564.1 556.9 562.5 561.5 564.6 567.2 566.9 566.6 550.7 545.1 544.2 540 543.5 547.9 549.5 548.7 550.3 550.8 550.2 556 559.3 563 560.9 561.5 561.9 558.5 554 545.4 533.4 512.6 490.6 478 472.8 468.7 464.4 460.7 461.3 459.1 455.4 449.8 449 443.4 443.6 438 435.1 434.1 434 435.1 439.1 451.4 440.7 432.8 425.7 426.1 431.2 424.7 415.3 411.9 405.9 392.4 394.5 393.2 381.2 378.4 382.4 379.8 372.2 371.3 368.5 362.8
81.8 87.5 96.2 107.7 116.9 128.3 146.7 157.5 172.4 192 195.5 196.8 195.9 199.9 203.3 213.9 237 259.7 287.2 335.8 376.9 417.5 471.9 476.5 465.8 453.4 438.6 442.2 447.7 444.1 436.7 425.5 416.9 410.5 413.5 423.8 430 430.9 430.3 428.1 425.1 422.2 418.2 426.5 434 439.2 444.9 446.2 447.7 447.7 448.8 445.1 442.1 437 427 420.2 407.2 397.1 385 364.1 348.6 329 305.1 294.2 308.8 319.2 331.7 349.4 381.9 405.3 425 442.5 459.2 472.8 491.8 500.9 507 510.6 514 517.9 521.7 526.7 530 533.5 538.6 545.3 553.7 559.8 567.1 575.6 585.5 588.9 562.4 517 472.2 431.8 407.5 392.4 381.9 378 372.8 366 363.4 365.2 371.6 374.4 380.6 392.9 409 419.1 437.7 467.6 500.8 540.1 573.5 608 640 663.3 680.7 692.5 700.3 697.9 677.2 650.4 625.5 615.6 601.4 587.9 578.4 566.2 563.1 561.4 564 569.4 575.6 588 586.5 580.3 577.8 572.7 556 555.6 560.3 564.2 562.9 560.8 560.9 560.8 561.2 567.2 568 570.4 567.3 562.1 562.8 557.5 550.3 543.7 527.7 506.5 487.5 473.4 469.8 467.7 468.4 461.1 459.8 460.3 459.5 454.9 453.8 449 445.4 445.6 442.2 437.7 435.5 441.2 445.9 451.9 446.1 436.6 429.9 427.5 436.8 426.9 420.9 413.2 408 401.7 398 402.9 391.4 387.3 386.2 380.8 375.5 371.3 365.3 358.7
73.8 79 87.6 96.3 104.4 111.5 122.3 133.7 155.2 177.1 185.4 187 186.1 184.4 180.3 189.3 211.1 233.1 255.6 296.5 335.6 375.2 413.4 449.3 456.4 441.9 431.9 428.8 434.5 434.8 428.8 416.2 406.4 394.8 404.1 413.1 419.2 419.3 418.4 415.1 413.3 410.7 406.1 416.1 426.8 434.1 439 440.6 442.7 443.3 441.8 436.3 432.6 427.1 417.6 407.3 395.3 381.1 365.9 348.4 329 312.6 294.4 297.8 314.7 325.2 338.5 354.2 388.5 417.2 438.9 457.8 470.6 493.5 507 514.7 519.3 524.5 530.8 533.9 537.9 541.1 543.7 548.6 554.5 559.6 566.1 572.6 580.4 589.1 595.9 596.2 569.4 526.9 482.2 444.4 405.6 386.7 378.2 373.9 369.6 363.9 362.5 365.3 369.9 372.9 378.6 387 398.4 407.4 434.1 462.9 506.4 540.6 575.2 607 635.4 659.1 676.1 690.4 698.6 698.1 681.9 656.1 634.4 614.2 596.1 582.2 569.5 564.4 564.7 562.6 568.5 579.6 592.3 597.6 595.6 593.4 591.1 583.6 570.3 574.4 572.7 572.7 573.9 575.1 580.7 579.6 579.1 585.2 587.1 583.9 583.3 575.5 564.7 556.6 548.1 537.3 524.6 505.3 488.5 475 469.8 468.7 465.2 460 458.7 458.7 459.7 458 456.9 456.5 450 446.7 441 438.5 441.1 455.6 452.3 453.5 451.8 439.8 434.9 430 436 431.3 424.8 420.1 416.5 414.5 406.9 405.3 396.5 393.7 385.5 375.1 370.1 365.8 362.6 355.3
68.6 73.9 79.6 86.8 95.1 101.6 108.7 118 131.6 149.4 164.4 176 175.7 172.7 167.1 168.8 185.8 207.2 228.5 257.6 299.1 322.7 375.5 430.4 443.6 427.2 412.9 413.1 418.4 421.3 417 407.5 394.1 382.8 393.6 400.2 405.2 405.4 404.2 401.9 398.7 396.6 387.8 405.4 418.3 426.9 432.6 435.1 435.9 435.7 433.4 425.4 418.9 409.2 400.9 390.6 378.5 363.4 342.4 326 311.6 303.4 285.9 306 320.4 330.5 343.1 363.4 395.4 422.2 449.9 470.7 489.4 509.9 520.7 527 531.4 536.8 543.2 546.5 549.9 554.1 558.3 563.7 568.2 572.2 578.5 586.8 594.4 600.1 603.1 599.8 576.9 535.2 491.6 450.8 408.2 383.5 373.9 368.9 365.2 363.4 363.2 367.3 370.5 374.3 377.7 387.1 394.4 402.3 427.3 468.7 505.1 540.7 579.6 608.8 633.9 656 674.2 690.3 697 696.8 679.1 656.6 633.8 605 587.1 572.8 561.4 559.1 560.2 565.3 570.5 585.4 598.3 602.6 603.9 603 598.6 590.4 591.4 589.3 585.9 586.1 585.4 589.4 597.5 599.9 594.1 598.4 598.2 597.4 591.6 584 572.9 559.4 550.7 535.7 520.4 506 488.5 474.8 469.3 464 462.3 460.7 458.7 458.7 465.7 470.9 464.1 463.3 454.7 450.3 440.6 440.4 450.8 466.9 459.2 457 459.7 448.4 440.5 436.1 439.2 437 429.9 433.9 424.6 424.8 419.5 411 401.6 392.4 381.7 370.9 362.6 360.4 356.7 352.9
61.3 66.8 71.7 77.4 85.7 93.3 100.4 112.2 122.6 136.5 150 166.5 165 159.5 158.7 155.4 163.3 179.5 206.5 238.4 262.9 297.5 347.2 395.9 433.3 420.3 401.8 404.8 410.5 407.4 405.3 395.7 385.2 373.2 381.8 385.1 388.5 389.2 389.8 386.3 384 372.6 373.7 394.9 408 419.2 423.9 424.8 428.7 426.9 423.4 414.6 397.5 386.7 377.6 368.6 356.4 336.2 318.7 304 298 293 289.8 311.8 324.7 334.6 348.4 375.5 404.1 429.4 463.6 482.2 504.7 522.5 531.1 537.7 545 549.7 553.4 558.5 562.4 566.7 572.3 577.4 580.4 584.6 591.2 599.5 602.9 603.2 601.5 594.3 570.8 539.1 494.4 456.4 402.8 376.5 368.8 365.4 362.7 360.8 364.4 370.3 373.6 373.8 378 384 389.8 399.2 424.1 458.9 503.8 543.7 584.7 612.5 635.5 657.4 675.6 689.1 696.3 696.8 675.5 651.4 619.4 590.8 569.9 555.2 549.3 552.6 560.6 564.9 574.3 589.7 605.9 607.9 611.4 609.5 607 607.8 609.1 605.1 602 607 614.1 612.2 613 613.5 607.6 604.3 602.8 600.6 595.5 585.7 572.6 559.4 546.3 529.2 516.8 503.7 486.1 475.3 469.4 463.4 463 460.8 458.8 463.9 463.5 469.6 472.2 471 465.9 456.8 445 451.3 463.1 475.5 464.9 461.7 460.5 459 451 444 446.3 443.1 437.9 439.9 440.4 432.5 427.4 411.1 399.7 391.2 376.3 367.3 360.6 358.2 355.4 350.8
53.6 61.4 65.6 72 79.9 85.3 93.1 103.4 115.4 123.6 141.7 156.4 153.4 151.2 150.4 149 142.5 159.8 190.2 215 230.2 264.1 304.4 342.2 386.4 408.6 396.9 391.6 403.2 398.1 393.6 382.3 373.5 363.6 369.1 372.6 372.4 374.9 372.8 368.3 370 352.9 368.5 387.2 398.8 407 411.8 410.7 413.4 415.7 414.7 394.6 377.3 364.2 354.2 341.9 326.6 309.4 296.6 283.1 275.1 275.9 298.3 315.8 329.7 340.4 356.9 382 414.9 451.5 473.4 496.4 518 531.8 541.2 547 552.8 558.3 564 569.2 574.1 579.1 584 587.8 589.4 592.2 597.9 600.2 597.5 593.1 589.4 578.2 553.7 528 496 450.7 393.1 369.4 361.3 359.3 359.3 360 366.9 372.2 374.3 373.8 378.1 381.7 384.9 399.3 421.5 461.5 502.2 545 586.2 615.6 640.2 659 677.3 689.3 696.2 696.4 672 646.5 618.9 587.1 554.5 541.4 543.9 547.2 553.5 560.7 574.8 591.2 606.4 613.7 616.9 621.5 620.1 622.3 620 618.1 618.8 633.9 633.9 632.6 633.5 624.6 617.3 612.9 611 604.4 597.8 585.1 572.3 558.5 545.8 529.9 517.1 505 493 480.9 471.7 463.4 459.5 459.5 458.6 461 463.8 469.7 476.5 478.5 471.8 470.2 467.7 466.4 472.7 478 474.7 471.8 468.2 470 458.1 451.7 452.1 449.9 452.4 451.5 444.7 433.4 421.3 403.1 395.4 387.8 374.1 365.1 359.3 358.6 354.8 348.6
50.2 58.4 65.9 70 73.9 74.1 87 100 108.5 122.8 137.9 142.3 141 139.9 139.1 138.3 132.4 140.9 166.6 183.9 202.6 231.8 262.1 307 332.3 381.7 380.7 378 390.8 389.1 384.8 372 361.1 352.3 356.5 362.2 359.4 357.2 356.2 351.5 352 342.3 362.3 377.5 383.3 390.4 393.8 388 393.9 394.6 390.6 375.8 356 338.2 324.4 309.8 295.3 284.5 272.8 260.8 263.9 284.6 305.4 320.6 336.8 350.3 366.1 391.1 429.1 463.8 483.9 509.1 530 543.9 550.6 557 561.6 567.6 573.7 578.5 582.7 586.5 590.5 592.2 594.2 595.7 594 591.3 588.7 581 569.6 551.5 528.6 507.4 478 436.4 384.6 362.7 359.3 359.3 359.3 362.6 368.3 373.6 372.7 373.3 376.3 379.5 382.3 396.1 418.4 461.5 496.1 544.2 588.7 618.2 641.7 661.5 677.4 688.7 695.4 693.7 669.3 635.7 607.7 574.9 548.3 534.9 532.9 542.4 545.9 553.7 571.5 591.8 610.1 618.4 625 628.1 634.4 637.8 636.4 631.5 638.8 650.5 651.2 653.4 647.6 640.2 628 622 616.2 609.5 599.5 584.6 570.6 558.7 543.4 528.4 514.6 503.6 494.7 492.1 482.7 471.4 466.6 460.1 460.5 463.3 472.2 481.6 484.7 490.3 485.4 487.6 484.8 485 486.8 488 483.1 481.5 481.5 485.1 472.4 460.7 458.9 460.4 460.9 452.7 440.6 433.8 416 398.4 389.5 383.9 371.8 363.2 359.2 358.2 356.6 350.6
45.5 52.7 63 68.3 68 68 71.8 88.2 103 118.6 121.3 126.7 125.5 126.1 126.2 124.4 124.2 122.6 139.3 153.5 174.4 196.1 226.5 255.3 287.2 336 350.9 356.7 375.2 375.9 376.4 363 351 341.5 346.5 348.5 347.4 341 339 338.3 333.3 326.7 351.8 354.5 363.2 369.1 369.8 358.1 356 358.5 351.1 340.8 320.8 304.1 290.2 278.9 269.1 263.3 254.9 251.6 273.1 295.5 314.2 329.1 344.6 361.9 379.9 403.9 444.8 475.6 497 521.4 540.8 551.9 557.9 563.5 569.1 576.1 581.3 585.4 589.1 591.5 591 591.7 591.1 588.7 584.3 579.3 574.6 562.7 546.5 528 505.6 484 457.2 422.7 374.7 359.3 359.3 359.3 359.3 365.1 370.8 373.4 372.6 373.7 374.5 378.7 384.7 392.9 412.1 460.8 499.5 541.1 590.7 620.7 642.8 661.3 676.3 687.4 692.1 690.1 669.9 632.6 597.2 561.8 536.7 525.8 527.6 532.1 534 543.7 565.6 590.2 610.8 624.6 637.6 647.4 655.7 663.1 663.5 656.4 656.7 661.1 666 663.6 654.7 646.1 637.2 630.9 624.3 613.4 603.6 587 566.8 553.7 539.6 529.5 520.8 512.5 497.8 490.7 481.9 478 467.8 463.4 465.9 476.4 485.4 489.7 499.6 497.2 499.4 500.7 506.8 501.8 496.4 497 495.3 492.1 493.7 485.1 471.3 465.5 465.8 463.2 462.9 452.3 434.7 427.6 410.7 399.8 391.9 381.7 371.6 361.7 359.9 359.4 357.1 350.3
42 44.2 46.9 52.1 55.8 63.2 66 76.2 92.1 107.7 109.4 115.6 113.6 112 118.2 117 115.3 109.4 112.4 128.1 142.7 162.9 184 218.2 254.6 279.7 315.5 334.5 352.4 357.7 365.7 354.7 344.4 333 335.6 334.8 331.9 325.7 321.2 323.3 317.7 311 329.7 330 333.4 337.8 336.7 333.7 318.8 321 312.1 299.3 286.9 271.8 259.9 249.5 248.1 247.5 239.1 260.3 281.9 303.7 323.4 341.3 358.8 378.1 398.3 421.6 462.3 486.4 509.6 531.3 548.9 558.2 563.6 570.6 576.6 582.3 587.4 592.4 593.8 590.1 587.5 583.7 577 572.4 567.1 563.8 554.2 541.6 523.7 503.1 483.9 464.7 440.6 399.6 366.9 359.3 359.3 359.3 359.3 365.8 371.2 371.7 372.7 372.8 372.4 376.4 381.7 392.8 414.2 462.4 499.2 545.7 588.5 622.3 642.8 660.8 676.7 686 687.3 682.4 663.8 631.3 596 558.6 525.1 515.3 519.2 521.1 523.7 536.9 557 585.9 610.3 629.1 647.4 662.7 672.1 679.4 685.8 686.5 687.2 683.9 676.1 672 659.7 651.9 642.1 636.6 628.8 617.7 602.9 578.7 559.8 544.2 540 532 521.1 510.3 504 503.5 502.8 484.3 483.7 474.4 476.1 488.1 494.1 496.5 504.4 503.3 506.2 506.9 507.1 503 498.7 500.8 500.5 497.9 493.3 479.4 472.4 468 462.8 462.6 459.3 449.6 432.2 418.8 406.2 398.2 386.6 375.6 367.3 359.5 358.7 359.1 355.3 346.5
41.8 41.1 42.2 44.8 49.1 56.5 64.8 75.3 84.2 94.4 99.8 105 105.3 105.2 112 110 107.8 102.8 98.3 100.9 115.8 135.2 154.4 176.3 227.5 252 270.2 295.5 342.2 347.5 350.5 340.4 335.4 323 317.8 315.4 308.9 308.3 304 303.2 296.3 290.4 298.2 304.1 300.1 303.2 303.1 302.4 288.8 283.3 276.4 266.8 255.8 245.4 233.3 230 235 235.7 245.6 268.7 292.3 315.7 334.5 351.6 371.5 394.2 416.4 450.4 475.3 496.4 518.9 540.1 556.4 564.5 569.9 576.3 583.3 588.3 593.4 596.9 595.8 590 583.1 575.4 563 552.4 546.1 542.4 530.7 520.1 499.7 480.5 461.6 443.2 419.8 380.4 360.8 359.3 359.3 359.3 359.5 367 370.6 371.3 372 371.8 370.8 374.6 380.5 391.8 416.6 452 493.6 539.9 589.9 622.9 642.1 659 673.8 681.2 682.2 674.3 656.4 622.5 588.1 549.7 516.1 508.9 510 513.6 515.7 530.6 553.6 580.1 607.5 632.5 654.7 671.7 683.5 693.5 699.6 701 696.8 692.9 683.6 674.8 663 656.8 646.7 637.9 630.1 614.3 596.8 572.6 555.6 543 535 524.5 518.7 512.6 511.4 513.9 509.5 496.7 503.6 496.3 500.5 505.5 507.4 506.5 510.1 508.7 509.3 504.2 503.2 501.1 499.4 501.3 504.1 497.7 491.9 476.4 468.7 462.3 460.4 458.5 453.4 442.9 428 412.9 401.2 392.6 378.8 367.8 362.9 356.9 354.6 355.1 349.1 345.3
43.4 40.7 41.9 42.3 43.1 48.3 56.5 59.1 72.6 79.8 87.4 98 100.1 102.1 102.1 106.2 100.3 96 92.2 91.4 92.5 107.1 126.6 145.2 183.7 230.1 242.6 264.1 320.2 330 335.5 327.7 321.4 309.8 304.5 294.9 286.9 285.2 281.7 278.9 275 268.8 271.2 274.6 270.1 267.8 267.3 262.6 260.7 256.6 249.2 242.3 230.6 220.2 216.5 215.1 220.2 233.5 259.7 281.9 304.9 328.3 346.8 365.7 387.9 408.2 435.4 467 490.6 504.4 526.7 547.2 563.2 570.4 576.1 581.7 587.1 590.3 595.7 597.7 595.8 587.2 575 562.2 545 533.5 523.1 514.9 511.7 499.5 475.2 455.5 439 420.7 391.7 370.8 359.3 360.8 359.3 359.3 362 368 368.3 369.6 370.3 370.2 369.6 372.1 379.4 397.7 415.5 449.1 497.6 542.8 589.5 618.9 638.5 655.3 666.5 673.2 673.2 664.3 645.3 612.2 576.9 531.4 510.1 507.1 504.2 505.1 507.3 523.8 545.2 573.2 599.9 629.9 657.4 677.3 691.6 701.6 709 713.8 711.2 702.7 688.2 677.9 668.3 658.7 647.3 636.9 627.5 612.3 596.5 574.6 554.5 541.5 533.4 525.4 520.1 519.9 520.5 521 513.9 516.7 517.7 518.6 519.1 520.7 519.1 517.1 518.6 516.7 512.4 505.3 500.4 497.6 494.8 496.3 497 494.3 489.2 477.4 466.1 455.7 454.8 450.6 443 434.2 419.4 406.2 396.4 387.7 374.5 363.8 358.7 357.1 351.9 350 352.6 349.7
45.6 45.5 41.1 43.6 43.2 46.6 48.1 51.7 60 67.7 76.7 86 84.6 86.2 92.2 95.2 95.4 91.7 85 84.8 83.6 87.7 99.3 120.9 151.6 197.4 216.7 240.7 299.2 315.3 324.1 316.5 307.1 294.6 289.9 282.2 271.9 263.7 259.9 265.3 257.4 248.5 250.3 245.7 243.9 240.5 239 237.1 237.1 237.9 226.9 219 209.1 208 207.6 219.2 238.5 254.4 275.3 298.3 320 341.6 360.1 382.8 407.1 430 453.2 477.9 495.9 511.3 532.5 551.8 565.2 573.2 579.7 586.5 590.8 592.5 594.8 594.7 587.6 576.4 561.9 545.6 529 513.4 501.6 490.6 481.1 472.5 457 441.3 428.8 406.9 385.2 369.8 362.2 360.8 360.5 360.1 364.1 365.1 367.1 368.7 367.6 367.6 369.7 370.3 383 398.8 421.5 455.8 497.7 542.1 589.1 615.2 633 647.8 658 660.8 661.3 651 632.2 600.4 567.5 523.3 508.8 502.5 499.3 499.3 503 518 533.5 556.8 584.3 621.3 652.6 679.1 695.4 708.3 718 720.9 716.5 708.1 693.5 679.3 669.1 657.1 642.6 634 627 611.3 594.7 572.6 558.2 547.1 546 541.5 524.3 524.8 529.4 529.7 523.1 525.9 529 532.1 528.7 531.5 528.7 528.3 529.9 523.9 517.8 507.3 506.7 498 491.5 492.2 490.6 487.4 482.5 470 459.7 452.6 449.9 442.8 429 420.7 410 396.6 391.7 382.2 368.3 360.6 357.2 355.8 354.2 349.6 347.4 347.3
48.8 47.3 41.6 45.8 50.1 51.6 52.1 52.2 54.6 60.3 67.2 73.1 76.2 78.7 84.8 89.4 89.8 86.9 78.4 80.9 79.2 75.6 80.9 99.9 126.8 162.8 178.9 216.3 258.2 300.8 317.6 304.6 288.9 282.5 282.5 272.7 267.6 255.3 234.3 249.5 243.3 228.5 233.7 226.9 225.6 221.5 217.8 218.2 216.3 216 207.3 201.8 202.1 210.4 224.8 238.9 253.4 273.9 292.1 316.6 338.2 356.2 376.8 399.9 429.9 455.2 469.1 484.2 498.7 517 538.2 555.1 566.4 570.8 580.6 590.3 593.9 593 590 582.3 568.3 559.7 545 527.6 513.7 498.9 487 474.7 461.5 449.7 442 426.4 413 393.1 380.7 373.9 366.9 361.2 359.9 362.4 364.8 364.9 366.2 366 365.1 362.9 364.1 368.7 384.8 398.7 430.8 465.6 504.5 548.3 588.4 613.4 626.7 638.3 646.9 647.7 644.9 633.9 614.9 585.5 556.8 520.7 506.5 498.2 495.8 489.5 496.8 512.6 528.6 544 566.6 601.1 630.7 672.2 695.9 709.3 720.7 724.2 720.4 710.4 699.8 683.5 670 656.3 639.7 634.5 627.6 611.8 591 577.1 564.5 555.3 550.7 543.7 540.6 542.3 543.4 541.3 536.3 534.3 537.6 538.7 539 538.7 533.6 535.6 534.6 526.4 520.7 513.1 508.9 502.1 491.5 494.4 490.3 481.6 474.3 460.9 453.6 446.2 441.5 432 420.5 409.4 394 387.1 382.3 374 366.2 359.2 356.6 358.8 354.3 349.7 347.8 351
47.2 47.1 41.9 41.6 43 48.5 51.7 53.4 54.6 56.2 63.3 67 64.6 71.8 77.7 81.6 85.1 81 74.8 77.1 77.1 72.9 74.4 85.9 104.8 136.5 164 191.9 217.1 274.9 300.3 289.9 276.3 271.7 273.3 266.2 256.1 245.5 216.9 232.4 228.1 216.5 216.9 211.3 207.2 203.8 200 200.9 198 199.8 197.6 201.6 213.7 223.2 236.7 251.5 270 291.5 311.8 336 356.9 373.6 393.5 420.4 447.4 459.7 472.4 484 498.9 517.2 540.9 557.2 565.8 572.4 582.8 591.8 592.9 590 580.7 568.1 552.3 537.7 525.8 514.3 502.7 491.6 478.1 469.5 456.8 442.6 431.4 417.8 401.3 385.2 376.7 369.1 360 355.1 360.7 363.1 365.3 363.7 364.5 361.6 359.4 358.1 359.1 363.4 380.4 403 432.7 472 514 546.5 586.9 607.5 618.2 629 634.5 634 629 617.1 598 570.8 546.4 518 500.6 493 488 482.2 493.5 504 512.6 528 550.8 580.7 623.1 666.9 695.2 709 720.9 726.1 722.8 715.6 705.6 687.4 671 660.7 646.6 637 628.4 614.8 595.4 580.5 573 566.5 557.3 561.4 565.3 559.8 555.9 548.2 547.1 545.2 544.4 541.6 539.2 535.6 532.5 537.2 535.1 526.8 519.4 512.8 506.2 498.2 491.6 492.6 484.8 476.5 470.2 457.6 450.1 441 435.2 426.9 412.2 394.6 386.5 383.2 374.7 366.8 366.6 359.1 356.3 355.5 358.4 356.1 351.4 358.9
45.4 46.6 45.6 41.6 39.1 41.5 43 48.6 51.4 50.6 55.5 57 60.9 67.8 71 75.4 78.1 76.2 72.4 73.5 72.5 67.4 68.4 74.8 92.3 111.6 146.2 167.2 190.2 250.4 269.1 271 264.2 260.5 264.1 254.8 245.9 235.5 213.8 213 210.1 202.5 202 194.4 193.2 190.5 189.1 190.1 191.3 199.4 206.3 216.2 225.3 238.1 253.9 270.2 289.3 308.7 329.5 361.9 373.4 387.7 408.8 428.2 444.5 460.4 468.6 478.1 493.1 509.1 533.6 554 566.1 573.4 581.9 589.9 592 584.4 572.2 558.5 543.3 527.8 516.7 504.8 494.7 484 470.8 459.8 446.8 436.1 424.4 411.9 395.8 382.5 373 366.6 357.4 355.5 358.6 360.4 361.5 360.1 357.2 353.6 352.6 352.8 351.2 360.6 379.8 408.9 440 476.3 511.3 547.6 585.3 601.2 608.1 615.2 618.2 617.1 610.6 599.6 582 555.3 529.5 508.8 493.8 484.2 476.6 480.3 488.8 493.6 503.9 515.6 536 581.9 619.9 659.9 690.6 704.6 717.9 724.7 727.4 720.4 712 690.2 672.3 663.6 649.2 638 634.3 617.2 595.1 589.7 579 575.6 578 579.8 576.9 574.3 573.3 564.1 560.9 555 546.9 540.8 539.5 537.4 530.5 531.1 529.9 523.4 516 506.9 501.1 494.4 490.2 489.5 480.6 469.2 463.8 453 445.5 435.3 425.1 414.4 403.9 389.3 383.2 377.9 373.4 365.6 363.4 357.4 354.7 363.1 361 362.1 358.7 361.7
44.2 41.8 44.6 44.2 41.3 38.5 37.9 38.7 46.5 48.6 46.7 45.5 47.3 60.2 67.7 69.2 68.7 67.2 66.3 71 66.7 65.4 66.2 74.6 83.7 94.9 120.8 138.7 166.7 219.4 250.6 255.6 248 244.1 247.9 246.2 237.7 228.5 211 198.4 190.3 191.3 190.9 189.6 185.7 187.4 191.9 198.2 203.5 210.1 220.1 229 242.7 257.5 270.4 289.2 308.6 330.2 349 377.7 385.9 397.5 407.7 426.5 445.3 454.2 459.6 464.6 478.8 494.8 515.5 538.3 556.2 565.2 570.6 578.3 583.5 575.6 563.8 551.5 536.2 522.5 510.7 497.8 487.7 477 465.1 453.7 439.7 428.2 419.6 405.1 389.7 375.5 367.4 360 351.7 353 355 356.8 357.5 353.7 351.1 348.8 347.1 347.2 348.1 359.3 381.8 412 444.6 478.4 512.8 546.6 580.1 593 597.1 601 601.2 596.6 590.4 580.4 560.3 530.6 507.1 492.5 478.3 475 470.5 473.6 475.3 479.5 489.1 502.2 532.9 576.5 616.8 654.3 679.4 696.7 711.9 720.8 724.9 723.5 714.3 687.6 672.6 667.9 654.1 641.5 628.5 617.7 603.1 596 590.3 592.1 596.8 594.9 588 587.2 582.8 573.9 562.7 552.4 548.7 544.5 539 538.1 531 527.5 521.6 514.2 506.7 503.4 493.3 489.2 484.4 481.9 475.2 463.8 459 447.2 441.3 434.2 424.5 415.8 390.9 386.4 381.4 374.7 370.8 366.1 362.8 357.3 357.6 361.9 364.5 365.3 368.9 368
44.7 39.8 41 42.4 40.5 38.5 37 36.8 42.4 46.5 44.7 44.7 45.5 52.7 62.9 63.6 64.2 62.6 61.8 64.8 62.8 61.3 60.6 65.9 75.5 85.7 100.4 116.4 142.2 195.8 236.5 238.2 231.1 229.3 232.8 233.7 228.1 221 203.3 189.6 176.8 178.7 178.9 186.5 193.8 195.8 200.5 206.5 213.7 220.3 230.7 244.8 259.1 272 291.6 309.7 328.1 348.2 363.8 380.6 384.4 391.2 400 418.3 430.5 439.6 445.4 450.5 462.4 475.5 485.3 503.4 541.1 555.3 560.5 561.6 565.6 558.2 550.1 542.9 532.3 520.6 506 495.6 483.4 472.8 460.2 447.9 437.1 425.5 408.7 394.8 376.9 369.2 361 353.1 341.6 347.9 352.2 352.5 351.7 349.3 345.8 341.8 340 336.5 342.3 357.1 380.7 419.4 456.2 487.3 517.8 554.3 578 585.3 589.1 589.7 584.7 577.2 566 551 530.6 503 479.9 471.8 466.5 465.3 463.2 463.1 459.4 465.9 479.2 495.7 532 569.3 608.6 643.6 662.8 684.8 702.2 714.3 722.2 723.7 716.8 691.3 675.9 671.2 666.7 653.3 647 631.6 620.3 614 610.2 612.4 613.8 603.7 600.2 596.9 583.9 574.7 559.5 554 550.8 543.7 539.8 535 532.8 529.1 521.2 512.5 502.6 497.5 488.5 481.6 478.6 474.6 466.8 458.1 452.2 444.9 438.4 433.3 423 414.6 389.5 381.5 380.7 377.8 373.3 369.1 362.1 360.8 357.1 357.7 362.9 368.9 372.8 377.5
41.2 40 34.7 41.5 41.3 40.6 39.3 37.6 40.6 44.4 44.3 45.3 45.3 48.8 53 56.1 57.9 57.7 58.8 59.6 59 53.3 59.1 63.9 69.8 80.3 89.7 100.5 125.9 161.9 220 222.3 217.6 215.4 221.5 220.3 218.1 208.4 192.2 169.9 167.6 181.3 195.8 199.8 205 204.7 209.6 216.4 225.5 234.6 246.3 260.5 274.5 287 310.5 327.6 341.8 350.9 362.6 375.4 381.9 382.6 388.5 397.8 408.6 421.2 430.1 435.6 441.1 454.1 466.3 480.2 522 537.5 543.6 548.8 547.7 544.2 537.8 532.3 528.6 517.5 500 489.7 475.4 465.4 457.8 445.4 431.1 422.2 403.4 380.1 371.9 363 353.7 345.2 335.1 342 344.4 344.8 343.5 341.9 336.8 332.1 332.1 331.4 340.1 356.1 384 421.1 458.4 493.4 527.8 563 576.3 580 581.1 576 566.9 554.9 541.8 527.6 504.8 481.5 465.6 459.7 460 458 457.5 454.2 452.1 471.9 480.7 498.6 528.7 561.9 598 628.3 649.7 671.3 693.2 706.9 717.8 723.9 719.2 699.2 685.7 684.8 684.4 678.6 668.5 660.1 654 641.6 632.4 622.9 620.4 613.2 611.7 600.9 587 578.3 569.5 565.2 555.2 549.2 537.1 535 531.8 526.1 516.2 510.1 501.9 496.6 487.5 476 472.6 465.9 463 456.6 449.4 448.7 439.8 431 421.7 409.9 390.9 387.4 377.1 374.1 372.5 370.6 364.9 366.3 366.9 362.2 361.1 369.3 370.5 383.2
34.7 34.7 34.7 38.8 39.9 40.3 40.4 37.9 38 38.9 39.9 43.5 43 45 47 51.4 53.5 54.5 56.7 56.8 56.4 49.4 56.6 61.2 68.8 76.2 87.1 96.7 112.8 140.2 193.2 212.3 207.4 203.9 207.7 210 210.7 198.4 174.4 171.8 194 205 206.1 208.7 215.3 217.2 221.7 229.1 237.5 247.8 261.2 276.1 289.1 304.5 327.8 336.4 344.9 351.1 361.3 371.6 375.2 374.3 378.1 387.6 399.5 409.3 417.6 426.6 425.8 434.8 443.8 460.9 477.3 499.7 510.1 520.3 522.8 523.1 517.9 519.2 511 499.9 485.1 475.3 465.2 454.7 443.4 432.1 420.8 410.9 393.5 373.4 364.3 355.6 346.4 336.3 333.9 337.6 338.1 339.3 337.5 336.2 331.5 326.4 324.1 328.6 338 358.1 387.1 425.6 462.1 499.7 535.7 563.6 574.9 577.1 571.7 563.3 548.2 537.7 522.8 506.5 488.3 464.1 459.2 458.7 455.1 449.1 445.5 444.8 454.1 463.5 472 506.9 529.3 564.9 595.9 616.1 633.6 661.5 683.8 701.4 713 721.3 722.6 715.4 703.3 695.4 697.9 693.6 686.5 682.5 676.6 671.1 663.7 651.4 644.1 635.6 622.2 607.3 597.3 597.4 587 571.2 561.8 554.5 542.1 535 531.8 527.4 517.4 507.2 504.5 496.5 485.6 475.9 475.3 475 470.9 458.8 451.8 448.4 441.9 433.1 422.8 411.6 405 397.3 393.1 389.5 376.8 369.4 366.7 369.2 375.7 375.8 377.6 381.5 384.6 383.9
34.7 34.7 34.7 34.7 34.7 40 41 39.5 37.3 36.3 36.7 40.5 43.2 45.1 47.5 49.3 50.5 50.6 49.9 51.4 52.3 47.3 51.3 60 66.6 73.8 82.2 89.2 107.1 125.2 165.9 202.1 199.9 196.4 197.5 199.8 199.2 185.9 161.2 184.2 201.3 212.1 214.7 220 226 229.2 235.3 243.9 251.5 260.9 272.4 289.3 315.3 330.9 335.8 341 342.9 349.4 357.5 364.2 365.9 364.8 367.7 376.4 393.2 402.7 408.6 415.6 422.5 426 435.4 445.8 454.9 463.9 480.5 492 495.7 496.4 496.5 491.2 492.8 485.7 473.5 464.7 457.2 446.1 434 421.2 410.9 395.8 378.5 367.1 357.6 347.6 337.9 329 327 331.5 333.4 332.8 331.3 328.3 325.3 320.8 319.8 322.9 333.8 362 396 434.7 475.5 511.5 546.6 565 571.4 570.8 560.4 550.8 533.2 520.2 508.2 484.3 463.9 458.5 460.5 459.8 456.9 450.1 443.7 448.4 449.6 460.4 476.3 509.5 532.1 554.3 580.1 599.7 617.2 647.5 675.2 695.1 708.5 719.8 724.4 721.7 716.7 712.7 712.5 706.9 701 696.7 692.4 688.7 683.4 674.6 665 654.3 644.2 629.9 618 600.2 583.2 572.3 567.7 561.8 549.1 541.4 533.7 525.4 516.3 509.9 500.8 496 484.2 482.7 482.5 477.8 471.1 461.7 457.3 451 444.3 432.5 425.5 419.3 409.8 401 398.3 394.3 378.8 373.9 372.1 375.8 384.4 388.8 385.6 386.1 386.4 390.3
34.7 34.7 34.7 34.7 34.7 37.6 40.2 39.8 39.5 37.6 39.3 40.2 41.3 42.9 46.2 47.7 48.8 49.2 49.6 45.1 43.5 46.4 47 56.1 63.2 69.7 77.6 87 96.7 114.9 143 189.1 193.6 190.2 188.3 189.2 188.1 175.1 159.8 193.8 207.8 215.8 218.8 223.4 231 236.5 244.4 252.7 260.8 267.4 281.6 304.1 329.1 337 338.2 339.9 338.8 345.2 352.4 356.9 357.9 356.8 358.9 364 370.7 388.7 398.1 407.5 410.4 419.6 428 432.6 437.9 443.4 451.2 462.8 465.3 465.5 469.6 471.7 472.3 469.5 461.8 456.5 447.5 435.3 423.4 415.7 406.9 388.2 375 360.8 349.7 337.9 329.8 319.3 316.1 322.4 326.8 326.7 324.2 320.8 316.7 312.9 315.9 320.4 334.5 367 412.2 444.4 491.6 529.6 556.8 568.7 569.7 567.6 555.6 542.1 526.4 509.9 490.7 468.2 458.5 461.7 462.2 460.2 455.5 448 443.8 448.5 452.3 462.7 477 508.3 525.4 543.2 559.5 584.7 609.6 639.5 668.4 691.5 706.1 718.5 726 728 725.6 723 721 716.8 711.8 707.7 704.7 699.3 692.9 685.2 675.6 667.5 654.2 640.5 625.5 606.8 586.4 577.1 570.5 567.1 557.3 553 543.6 530.5 516.4 508.9 502.6 493.1 487.7 487.7 486 483.7 476.9 471 467.7 458.3 452.7 441.9 429.3 420.2 408.6 399.7 400 398.4 392.8 383.9 380.1 382.6 390.2 397.7 393.2 392 394.2 392.2
34.7 34.7 34.7 34.7 34.7 37.9 34.7 34.7 34.7 37.1 40.1 40.6 41.6 42.6 45 47.9 47.7 45.5 41.9 43.7 45.8 46.7 47 48.9 54.8 65.1 72.9 81.2 94.3 108.4 130.2 176.2 183.8 184.5 178.9 175.8 175.4 163.8 172.2 195.3 205.7 214.6 216.3 221.7 230.3 237.3 246.1 255.2 262 270.6 285.9 316.5 334.1 336.7 334.6 334.7 333.3 337 345.6 348.8 348.8 346.3 349.3 351.3 356.7 372.2 385.5 392 398.4 405.4 414.6 422.3 422.4 427.8 434.2 434.8 438.1 448.1 451.8 452.4 453.1 449.9 449.6 443.8 435.9 426.7 416.3 409.7 401.7 382.8 365.6 351.6 340.8 327.8 320.3 309.6 302.3 310.5 316.6 318.9 316.5 312.1 306.7 303.1 313.1 321.4 342 375 417.9 458 507.2 546.6 561 567.5 566.5 561.8 548.4 534 519.5 508.4 489.4 463.6 460.7 462.3 460.3 457.3 449.5 445.6 446.4 445.9 444.4 449.5 468.2 505.5 516.8 534.5 550.5 578.3 604.4 634.3 664.4 688.7 706 718.7 726 729 729.8 727.8 725.8 721.6 717.5 713.3 708.8 703.5 696.4 688.2 679.4 670.1 658.9 641.7 627.6 616.3 601.6 588.9 579.8 569.2 560.7 556.5 550.2 540.6 527.7 511.2 504.7 493.6 491.2 494.5 489.3 488.3 480.3 474.7 469 468.3 460.7 452.8 446.7 436.3 427.7 417.1 404.9 401.9 409.5 390.4 386.8 389.6 397.6 398.4 402.3 402 398.9 401.3
34.7 34.7 34.7 34.7 34.7 34.7 34.7 34.7 34.7 34.7 40.1 40.9 41.5 42.1 42.7 46.5 48.4 46 44.4 45.7 46.9 47.9 48.9 49.4 51.9 60.3 69 79.6 93.4 106.5 120.3 145.9 162.4 177.6 168.2 162.5 160.9 146.8 178.5 195 203.4 211.2 213.7 219.1 227.7 236.5 244 253.6 262.9 271 286.9 324.1 327.6 333.4 328.7 327.5 324.6 328.4 335.5 338.3 339.5 338.6 339.2 339.9 342.8 348.2 363.8 369.5 381.3 395.3 397.5 402.6 401.2 404.1 410.9 410.7 413 417.4 423 427 432.1 431 431 431.5 427 418.1 410.9 408.8 395 374.9 355.9 341.9 329.9 322 313 305.8 293.1 295.2 301.9 307 305.8 301.5 295.2 299 308.8 327.5 350.2 380.3 422.8 466.3 510.4 547.9 560.3 566.7 562.8 554.8 544.9 529 514.1 500.1 484 467.3 458.9 457.7 454.4 450.5 444.6 439.4 442.7 442.4 437.4 436.1 463.5 495.7 513.6 528 542.9 572.4 604.9 632.1 662 686.8 705.7 717.6 723.9 727 728.3 727.2 724.9 721.1 716.9 712.2 707.6 701.9 694.7 686.3 677.7 667.3 656.2 641.5 629.4 618.8 611 603.2 593.7 578.1 564.4 560.8 553 548.5 539.6 522.1 509.4 494.8 494.5 497.6 494.9 495.3 484.9 482.5 475.6 468.7 469.1 466.6 458.6 454.6 443 436.2 432.6 412.5 408.4 412 409.1 406.4 401.6 405.1 408.3 408.1 409.4 410.8
34.7 34.7 34.7 34.7 34.7 34.7 34.7 34.7 34.7 34.7 39.3 40.8 40.9 41.4 41.5 40.7 41.7 40.9 44.3 45.4 46.9 47.9 49.1 49.9 52.1 54.6 61.8 77.3 88.3 101.7 111.2 124.5 142.8 163 159.2 141.3 143.1 163.1 186.5 195.3 202.1 210.4 213.4 219.6 228.5 236.8 244.3 252.8 261.7 269 286 329 331.3 329.6 322.2 318.5 315.3 318 324.6 327.6 330.5 330 328.8 328.5 329.6 331.7 335 342.1 360 378.5 385.3 385.3 386.2 382.7 383.8 388.4 387.8 385.4 382.5 389.7 384.7 408.4 420.5 423.2 421.6 410.2 405.3 392.9 377.8 359.1 343.3 330 320.9 312.3 304.9 299.1 284.5 289.4 292.9 293.3 292.3 287.5 282 287.9 306.4 332.7 359.6 389.9 425.5 472.5 507.1 539.5 558.5 559.8 558.8 549 539.8 522.7 507.2 492.5 477 462.8 454.9 452.1 448.9 444.4 439.7 436.4 438.7 436 435.1 433.8 459.8 489.7 506 522.4 539.1 571.8 604.4 634.7 660.2 685.6 701.9 712.4 718.3 720 720.9 721 718.5 715.2 711.8 707.4 702.7 696.3 688.4 679.9 672.2 664.8 654.1 642.7 630.7 617.7 610.3 602.2 593 581.5 578.2 568.5 556.2 549.6 544.3 535.3 527.7 512.4 502.4 503.2 509 504.1 503.2 497.2 491.4 478.8 479.9 473.6 465.1 459.3 451.5 447.8 437.1 432.4 427.8 426.1 414.7 415.3 410.6 413 414.3 415.3 414.6 423.8
34.7 34.7 34.7 34.7 34.7 34.7 34.7 34.7 34.7 34.7 34.7 39.7 37.3 38.9 41.3 41.9 43 43.7 44.4 45.3 46.7 47.9 49.2 50.3 52.7 54.7 56.1 67.1 82.6 94.4 107 120.2 134.6 150.5 137.8 138.9 160.6 179.3 194.9 202.3 207.8 212.5 214.7 222.8 231.8 238.9 245.3 253.1 261.6 269.4 285.8 329.4 332.2 326 317.5 311.4 309.4 308.9 313.6 317.4 319.4 319.5 317.9 320.5 320.7 323.7 324.6 329.1 342.7 357.1 369.7 371.1 370.9 365.2 366.8 368.7 364.7 361 357.1 351.5 353.1 369.8 392.9 401.2 404.6 396.5 388.2 375.3 362.3 346 331.5 317.1 309.2 301.5 294.8 290.8 286 280.7 282.7 282.9 276.8 273 271.4 284.5 312.2 335.4 362.7 388.5 417.9 469.8 508.8 534.9 551.6 553 548.2 540.4 531.8 512.2 498.6 483.2 465.2 454 447.7 444.4 441.5 438.4 435.7 424.7 431.3 426.4 429.3 431.4 460.6 481.2 499.8 519.6 541.7 578.8 603.8 636.4 662.8 682.7 695.3 705.9 709.6 710.1 710.4 709.9 707.5 704.8 702.1 698.4 693.1 686.4 678.9 672.7 665.9 657.3 648.9 635.3 626.3 613 609.7 599.9 592.7 586.6 580.2 574.4 564.9 554.5 552.8 544.1 532.1 522.6 517.3 512.9 516.9 514.3 511.2 505.7 499.6 491.5 485.3 477.3 471.9 466.9 459 452.1 446.8 440.9 438.1 434 428.1 425.2 419.6 420.3 423 421.2 425 429.1
34.7 34.7 34.7 34.7 34.7 34.7 34.7 34.7 34.7 34.7 34.7 35.2 39.8 41.1 42.5 42.7 42.9 43.2 43.8 45.4 46.2 47.7 49.4 50.9 52.6 54.2 55.7 59.9 65.6 83 100.2 114.8 129.8 115.4 139 158.2 171.5 185.2 199.3 205.2 212.1 216.2 215.7 223.1 232.4 241.7 245.6 252.1 260.2 270.8 289.1 328.2 329.2 321 311.7 304.8 302.3 303.5 307.1 309.8 310.9 310.7 309.3 311 311.2 312.2 313.4 321.1 342.8 348.3 345.9 356.5 353.3 348.8 349.2 345.6 340.8 336.7 336 331.7 331.7 333.8 344.9 353.2 368.2 378.2 372.7 361 345.6 330 316.5 300.9 294.3 288.3 282.8 280.7 276.9 272.7 273.5 271.7 267.2 263.1 263.3 280.9 310 329.2 354.7 369.7 400.4 453.7 489.3 515.2 530.2 534 530.8 525.6 516.8 502.1 487.8 470.8 453.7 443.4 439 435.7 432.9 430.5 428.1 417.4 419.1 415.8 421.4 424.2 457.5 477.9 501.4 521.7 553.4 579.6 610.1 642.6 665.4 677.4 689.5 697 698 698 697 695.4 693.8 692.3 689.4 685.8 680.9 673.9 667.6 662.6 657.9 649.4 639.4 629.3 619.6 612 605.3 597.4 591.9 585.5 580.7 572 573.8 569.6 557.5 544 536.6 528.8 523.2 521.7 517.6 518.8 514 511.3 505.3 498.9 489.9 483.7 477.5 469.7 464.5 459.3 452.4 447.7 442.7 441.3 443 441.6 437.2 434.7 430.7 432.1 431.6 437.8
34.7 34.7 34.7 34.7 34.7 34.7 34.7 34.7 34.7 34.7 34.7 34.7 39.7 40.9 41.6 42.1 41.1 42.4 43 45 46.4 47.6 49.1 50.5 52.3 53.8 55.3 57 59.8 73 88.1 104.2 117.3 133.4 153.3 166.9 180.9 195.1 203.4 207.8 215.3 218 218.7 224.2 232.9 241.2 245.5 249.9 256.9 268.9 293.6 320.6 325.7 315.5 307 299.1 297 300.3 301.6 303.2 302.7 303.2 300.6 300.5 300.6 301.3 305.4 305.8 319.7 332.6 333.4 338.9 336.2 326.8 327 329.3 324.5 321.4 319.4 322.6 319.3 316.6 318.3 319.5 325.4 339.3 339.8 329.6 318.3 305.8 294.1 288.4 281.2 275.7 272.1 270.5 267.4 263.5 263.4 259.5 259.1 254.8 265.8 287.4 303.5 315.1 325.1 340.9 361.6 411.2 451.4 478.8 501.2 507.2 504.6 500.3 494.9 484.9 472.4 455.9 441.3 432.4 428.9 426.9 423 420.8 419 413.5 410.5 406.5 416.9 426.1 455.1 473.7 502.9 530.5 563.6 590.5 617.7 646.9 663.3 673.2 682 686.6 686.1 684.4 681.8 678.8 678.2 677 674 671.4 666.9 661.6 656.2 653 649.5 641.8 634.9 625.5 613.4 606.8 601.9 594.8 585.9 581.6 577.3 575.7 572.2 572.5 566.4 557.9 547.1 536.3 529.9 528 524 518.2 513.8 513.9 508.5 499.8 493.8 488.8 484.4 472.3 468.9 462.4 458 453.2 449.1 451.5 448.8 451.2 448 447.2 449.8 447.4 444.4 449.6
34.7 34.7 34.7 34.7 34.7 34.7 34.7 34.7 34.7 34.7 34.7 34.7 38.4 39.2 40 40.8 42.1 42 43.8 44.7 45.8 47 48.4 49.9 51.8 52.1 49 58.6 63.2 67.4 72.5 91 115.8 134.6 152.7 168.8 183.5 199.6 205 209.7 216.1 221.2 221.9 226 232.3 239.1 244 250.1 256.2 265.8 292.8 317.1 321.3 313 304.8 295.4 292.1 294 295.3 296.3 296.6 296.3 294.8 291.9 293.7 295.1 296.9 295.2 294.1 296.4 304.1 311.3 313.6 310.8 307.5 309.6 314.4 308.9 307 308.9 304.6 297.2 292.8 294 295.8 298.8 295.3 292.9 287.1 285.1 279 274.8 270.2 267 263.6 261.5 255.1 252.3 250.5 251.8 249.1 263.1 274.9 283.9 289.3 293 296.8 313.8 337.5 366.9 402.9 421.3 459.8 466.1 474.9 475.8 469 465.8 457.2 440.7 427.8 422.4 419.7 416.5 414.1 413 411.4 403.9 401.3 404.2 419.8 436.8 455.7 480.8 508.4 535.7 568.6 599.2 626.4 647.6 660 668.9 673.9 676.6 673.9 670.8 666 664.6 663.6 661.9 661 656.5 653 649.1 644.8 642.6 639.9 634.9 630.5 618.9 607.3 601.1 592.2 584.9 578.8 575.5 575.2 573.8 572.6 576.7 572.2 560.2 552.3 542.9 537.9 533 523.2 520.6 515.5 510.1 505 500.1 495.5 489.6 484.6 481.6 477.8 472.3 468.8 464.1 458.8 459.6 458.9 458.1 454 456.9 458.7 459.7 460.2 460.2
34.7 34.7 34.7 34.7 34.7 34.7 34.7 34.7 34.7 34.7 34.7 34.7 37.3 39.5 40.7 41 41.7 42.7 43.5 44.4 45.4 46.3 47.7 49.3 50.1 49.4 54 59 65.9 74.8 81.4 93.5 115.8 137.4 153.2 171 183 194.2 201.3 211.5 217.6 223.2 226.3 228.5 234 240.1 247.5 250.7 255.4 263.5 293.2 314.4 315.6 312.8 302 292.4 285.6 287.6 289.4 289.8 290.8 288.1 287 285.2 286.8 287.6 293.4 292.4 287.6 288.5 290 289.2 292.6 298.1 303.8 305.7 308.2 305 300.7 294.9 290.5 287.7 287.2 287.1 282.3 280.2 279.4 278.6 275.7 271.6 265.3 263.4 259.9 256.7 251.1 249.7 245.3 238.3 241 246.7 253.5 263.9 269.9 271.9 277.8 275.6 277.4 297.8 319 356.3 374.5 390.4 403.3 427.2 441.2 440.1 441.5 442.3 437.3 424.5 415.7 411.5 409.3 406.7 403.6 403 401.8 395.6 393.1 400.8 424.6 446.1 469.1 494.9 518 540.2 574.4 605.8 631 648.7 659 664 666.2 665.1 661.3 655.1 651.7 650.7 649.3 647.9 643.9 641.4 638.9 636 633.4 630.4 629.6 626 621.7 612.8 602.6 594.1 585.3 582.5 577.6 576.8 575.2 574.5 576.2 577.9 570.5 562.3 551.9 544.7 538.9 529.7 525.7 521.1 512.5 507.1 505.7 502 494.6 487.3 486.6 483.2 481 477 472.1 468.8 466.6 463.3 458.8 459.7 460.1 460.1 459.3 461.5 462.9 463.7
34.7 34.7 34.7 34.7 34.7 34.7 34.7 34.7 34.7 34.7 34.7 34.7 35 39.3 40 40.5 41.3 42.3 43.2 44.1 45.1 46 47.1 47.6 46.4 48.6 53.3 55.7 66.3 75.5 81.6 91.1 114.3 134.9 149.6 173.5 182 187.8 193.6 207.2 217.6 223 227.6 231.4 235.9 243.6 249.5 254.9 258.2 266.2 291.5 307.9 310.4 307.5 297.4 290.6 281.9 280.9 284.2 284.8 282.8 282.3 280.5 276.6 278.1 277.5 280.6 284.5 281.2 282.7 282.5 282.6 286.5 288 295.4 297.4 301.9 298.9 292.7 288.1 282.9 278.5 275 275.2 274.1 272.6 270.4 265.6 263.6 259.4 254.7 254.3 249.6 243.3 241.3 241.9 234.4 234.2 244.4 248.5 252.3 256.7 259.8 263.2 269.4 264.9 266.7 285.9 303.2 333.1 346 358.8 368.8 376.7 397.4 406.4 410.7 413.2 415.5 411.3 403.2 399.3 398.1 395.3 394 392.8 392.7 389.4 387.1 395.9 423.8 444.4 470.3 498.8 523.8 547.2 581.8 609.3 634.2 648.7 655.8 657.6 657.1 653.7 647 639.1 635.1 634.3 633.8 632.9 630.3 628.2 625.9 622.8 620.9 619.8 618.3 615.9 612.6 610 602.2 588.8 583.6 581.8 579.5 578 578.5 579.2 576.8 574.2 568.9 561.1 551.4 540.1 531.8 527.1 520.8 514 510.7 508.6 506.9 499.6 494.7 487.6 482.9 481.3 481 478.2 473.7 470.1 468.3 466.2 461.9 458.1 460.1 456.5 460.9 463.6 464.6 464.6
34.7 34.7 34.7 34.7 34.7 34.7 34.7 34.7 34.7 34.7 34.7 34.7 35.2 39.1 39.8 39.8 40.1 41.8 42.8 43.8 44 45.4 46.5 45.3 46 49.5 50.8 52.8 54.5 69.8 74.9 88 106.1 123.6 145.7 173 178.3 183.3 188 203.5 212.2 216.7 222.3 228.2 237.2 243.8 251.9 258.9 264.2 270.6 289.3 304.1 302.7 301.7 291.8 284.5 277.7 277 277.4 275.8 274.3 274.1 272.1 268.2 268.3 266.9 269.2 272.2 270.1 274.2 273.3 274.4 278 284.7 290.8 286.3 281.5 277.2 278.5 276.1 272 268.9 265.9 261 261.7 262.2 259.2 254.7 250.3 248.6 246.9 240.5 239.8 235.5 232.8 231.1 229 240.1 242.8 245.4 244.8 243.9 249 256.5 256.5 257.2 255.8 268.9 287.1 304.5 318.5 339.3 348.4 356.2 373.9 374 370.6 370.5 383.1 388.4 387.8 384.5 383.9 383.8 384.3 383.7 383.7 379.2 383.4 397 416.7 442.2 468.1 498.9 518.6 552 585.7 611.3 636.6 649.1 653 652.3 648.8 639.1 630.9 624.3 620.4 619.9 618.6 617.8 614.6 614.2 611.7 610.9 609.8 608.7 607.5 605.3 604.6 603.4 598 588.5 584 580.9 580 577.2 576.5 576 570.3 566.2 560.7 553.5 544.3 532.1 526.2 520.4 512.9 508.4 506.2 504.8 499.7 493.4 490.7 486.5 482.2 479.9 478.7 475.3 471.8 471 465.3 463.5 460.1 457 455.8 456.7 459 462.1 461.9 461.9
34.7 34.7 34.7 34.7 34.7 34.7 34.7 34.7 34.7 34.7 34.7 34.7 35.4 39.1 39.6 40.3 41 41.7 42.5 43.1 43.2 44.1 44.7 44.6 44.5 47.4 49 49.8 51.7 55.9 66 81.3 100.8 114.2 143.2 175.9 171.5 176.6 183.7 196.3 206.5 208.1 215.2 220.3 231.3 243.3 257.8 268.8 269.4 273.8 284.8 298.1 298.5 295.7 286.3 279.6 274.5 271.3 271.2 269.6 267.9 266.5 264.5 260.9 261.3 259.3 256.7 259.5 260.1 260.9 262.5 263.9 265 271.4 274.1 274.7 276.4 269.9 264.1 259.4 258.1 257.6 255.7 253.6 251.5 250.8 247.6 241.8 239.7 240.3 238.4 233.9 233.1 229.1 227.2 227.3 233.7 237.3 238.8 239.6 237.9 239.7 240.8 246.6 247.2 248.6 252.6 262.8 277.7 289.7 315.1 328.8 338.3 335.7 337.3 342.1 344.8 345.3 344.4 346.8 363.9 366.4 368.7 369.1 371.6 371.3 371 371.7 375.8 388.4 403.8 429.3 465.5 493.8 514.7 555.4 582.2 609.3 631.2 645.7 652.6 647.9 641.7 630.7 619.4 612.9 608.8 606.5 604.5 602.3 601.6 601 599.2 599.7 599.6 598.7 597 595.5 595.3 595 592.2 587.3 580.6 579.4 577.6 577.1 570 569 563.9 560.1 555 543 530.4 523.6 517.1 510.5 504.9 501.6 500.5 498.4 493.2 488.9 487 483.1 479.7 477 473.8 470.2 465.9 462.5 458.3 454.9 452.1 450.5 449.5 452.1 455.4 455.5 454 454.3
34.7 34.7 34.7 34.7 34.7 34.7 34.7 34.7 34.7 34.7 34.7 34.7 35.3 38.8 39.4 40 40.9 41.4 42.2 42.1 42.5 43 43.4 42.9 46 47.7 49.2 50.4 51.6 55.5 58.7 75.5 97 111.1 138.7 166.6 168.2 169.7 174.9 188.9 202.9 201.4 207.8 211.1 220.4 236.6 269 278.7 280.6 280.5 284 293.9 295.2 291.5 285.9 280.5 274.5 267.5 264 263.4 263.1 259.7 256.8 253.6 253.5 253.5 248.7 252.7 253.8 254.2 253.7 255.3 249.9 245.2 246.4 247.6 249.3 250.5 250.7 248.8 247.8 247.2 246.5 245.5 243.5 241.1 236.1 234.3 233.4 230.1 230.1 227.5 227.9 225 224.7 224 231.9 235.2 236.5 238.4 238.8 238.8 235.9 238.7 243.3 245.6 246.3 255.2 267.7 278.4 291.6 317.1 322.3 322 322.6 325.6 326.5 329 332.3 335.8 343.1 348.2 351.1 351.9 357.7 360.8 362.6 366.7 371.1 379.4 396.5 420.8 456.6 488.7 509.3 543.8 576.6 606.9 623.3 637.4 647.9 641.5 636.3 628.6 616.7 605.9 598.3 594.1 591.7 588.7 586.5 586.2 587.3 588 589.3 589.2 587.5 585.1 585.2 585.1 583.9 581.2 577.5 575.3 576.2 571 563.7 560.7 557.9 553.5 545.3 530.3 520 513.8 508.3 501.7 498 496.4 495.9 490.5 486.6 484.4 482.2 478.5 475 471.1 467.3 465.5 460 457.3 450.1 444.6 441.8 441 441.9 445 446.6 445.5 445.2 442.9
34.7 34.7 34.7 34.7 34.7 34.7 34.7 34.7 34.7 34.7 34.7 34.7 34.7 38.6 39.3 39.8 40.6 41.6 40.9 40.1 40 42.4 41.9 45.1 46 46.8 49.1 51 52.5 57.3 61.1 69.6 87.6 103.8 128 149.8 160.3 158.3 161.9 173 188.1 189.3 196.9 201.8 212.6 231.5 259.7 281.6 282.9 285.4 287.8 288.8 289.7 290.2 286.1 284.7 277 266.5 256.7 257.4 256.3 253.6 250.5 244.9 246 246.2 241.1 241.8 246.4 246.3 245.3 247.3 244.1 240.1 239.2 240.4 239.7 239.8 240.6 240.5 239.6 238.6 238.3 237.3 234.5 230.9 227.6 228.6 230.3 229.9 227.8 226.5 227.3 226 222.3 222.5 228.6 232.6 235.4 237.4 238.1 237.1 236.4 236.1 238.9 243.5 246 251.2 260.2 265.6 273.7 284.4 299.2 301.2 305.2 309.1 313.7 319.8 324.2 330 332.7 333.8 335.9 338.5 344.7 351 352.6 361.4 366.1 372 393.9 418 448.8 478.1 494.6 525.9 564.9 594.9 611.9 628.2 637.4 635 631.2 625.1 614.2 600.1 587.8 582.3 578.6 575.3 572.9 573 573.6 577 578.7 579 577.7 576.3 574.9 574.2 575.6 575.2 571.1 569.6 567.2 562 556.8 552.9 550.2 544.5 535.6 521.6 514 507.2 501.8 497.3 495.2 491.7 487.3 482.9 479.3 476.2 473.7 470.8 467.1 462.6 457.9 457.6 455.7 448.8 438.8 433.7 429.6 426.8 428.8 430.9 431.6 424.2 424.9 423.2
34.7 34.7 34.7 34.7 34.7 34.7 34.7 34.7 34.7 34.7 34.7 34.7 37.3 38.6 39.1 39.6 40.2 40.4 38.6 40.7 42.1 42.8 44.4 44.9 41.7 44.3 42.5 50.2 52.8 55.5 62.8 68.1 78.5 91.5 113.5 137 145.5 144 149.1 155 171.3 175.6 183.6 189.5 203.4 229.1 257.7 276.8 275.8 279.2 283.6 284 281.1 281.1 279.4 279.9 275.5 265.2 258.9 255 245.6 246.5 242.9 240.4 239.9 238 233.5 234.4 237.1 237.1 237 239 238 237.5 235.5 233.6 231.5 230.3 232.4 233 232.1 231.4 231.9 230.7 227.6 222.6 219.6 222.2 226.8 228.8 227.9 226.3 226 225.2 220.1 221.9 224.4 229.9 233 234.5 237 238.9 237 235.4 235.8 242.2 246.4 251.4 259.4 263.1 269.2 274.9 280 285.3 290.3 297.7 305.9 311 312.8 318.2 321.9 321.5 325.8 328.9 336.7 340.4 345.6 352.4 356.7 366.5 386.8 410.5 437.7 462.6 478.7 504.8 543.3 557.8 584.9 605 618.7 622.8 622.8 615.1 605.6 593 579.5 572 566.6 563 559.2 558.4 560.9 564.2 567.1 568.2 566.8 564.5 563.3 562.8 564.7 564.8 561.2 559.4 556.7 551.5 546.9 542.4 540.5 535.4 527.8 517.2 511 501.2 495.6 492.3 490.1 484.6 480.4 476.8 468.8 464.6 460.7 459.1 454.8 449.6 446.9 447.8 442.6 432.5 426.7 420.7 417 411.6 412 412.7 411.8 408 404.9 398.5
34.7 34.7 34.7 34.7 34.7 34.7 34.7 34.7 34.7 34.7 34.7 34.7 38.2 38.7 39 39.4 39.7 39.1 38.9 41.2 42.7 39.7 44.3 41.5 46.1 47.1 48.2 43.1 51.6 55.1 61.2 68.2 72 82.3 95.3 117.3 131.2 129.6 133.6 138.7 154 160.5 169.2 174.7 191.2 231.4 250.7 268.3 265 267.5 269.4 274.4 275.5 274.7 269 270.7 269.3 263.5 255 251.5 248.9 241 236.3 234.3 234.2 230.6 226.3 228.8 229.6 227.7 228.5 231.1 232 232.7 231.3 228.2 226.9 225.9 226.6 226.8 226.1 225.2 225.6 224.3 220.2 215.7 210.9 216.9 219.6 222.8 224 223.6 222.5 222.6 223.9 218.7 220.5 228 230.1 232.4 235.4 237.5 234.9 233.7 237.1 241.1 242.9 248.7 259 263.7 263.2 265.8 273.1 274.9 280.6 286.6 290.4 297.2 299.3 303.7 307.5 312.2 316.8 320.4 328.6 331.5 337.1 344.5 350.5 360 376.4 397.9 426.5 445.4 460.9 481.6 502.8 531.7 556.9 581.8 595.1 605.4 607.1 602.1 593.1 582.4 571.5 563.9 556.7 550.4 546.1 546 546.6 550.6 554.3 555.5 553.2 550.8 549.4 549.6 550.6 551.9 549.9 548.3 545.9 542 537 533.1 530.7 526.9 517.7 510.8 502.9 494 490.4 485.2 479.8 474.9 470.6 464.4 456.7 451.3 445.6 440.2 438 434.1 433 428.7 419.8 413.4 410.2 402 395.7 392.7 390 388.4 387 384.6 380 379.7
34.7 34.7 34.7 34.7 34.7 34.7 34.7 34.7 34.7 34.7 34.7 35.1 36.4 36.6 35.3 35.5 35.9 36.1 39.3 39.6 38.3 40.6 41.6 44.5 51.9 55.4 53.2 51.5 46.2 53.8 61.1 66.4 68.2 73.8 83.3 97.5 105.5 114.2 119.3 126.5 143.8 150.8 156.2 163.6 180.4 214 236.6 248.9 247.2 250.4 259.3 264.2 270 264.5 261.6 258.1 261.5 261.2 253.3 248.2 245.2 236 224.8 229.5 228.4 226.2 223.5 223.5 224.4 223.2 224.6 225.4 226.1 227.2 226.6 225.4 223.9 222.4 222.1 220.8 220.5 218.6 218.7 217.6 214.3 209.1 207.2 211.2 212.4 210.1 211.6 214.8 217.8 219.8 221.5 220.7 215.4 224.2 226.2 229.3 229.8 229 227.9 228.1 234.4 238.7 241.8 249.7 256 258.8 257.9 257.4 259.5 265.2 270.3 275.5 280.1 286.5 290.9 292.8 299.8 302.8 309 315.4 321.9 325.9 331.8 337.7 344.7 353.1 370.8 392.3 416.5 430.7 438.3 456.5 485.2 506 528.1 550.5 570.3 583.2 585.9 581.7 571.7 564.8 556.4 551.8 545.6 537.6 533 532.7 533.8 539.6 542.3 542.3 540.5 538 534.5 534.1 535.1 538.2 538.1 536.3 532.7 530.1 525 522.9 519.9 514.8 506.5 500 491.5 486.5 481.9 475.7 468.8 464 458.1 452.4 445 438.6 429.4 423.7 419.7 412.5 416 406.3 393 387.2 383.8 378.6 373.1 365.5 364.3 364 363.3 358.9 358.7 357.2
34.7 34.9 34.7 34.7 34.7 34.7 34.7 34.7 34.7 34.7 34.7 35.6 36.8 37.4 37.9 37.6 37.3 38.6 39.1 40.1 42.2 43.6 46.2 54.4 59.4 58.9 61.5 55.2 55 53.2 54.8 61.4 67.8 71.4 76.2 80.6 88.3 96.9 104.5 112.2 129.9 143.8 147.9 153.4 171 205.6 220.3 239 237.1 236.3 244.3 252.7 253.4 252.3 252.2 247.3 251.6 253.6 250.3 245.4 237.1 227.7 222.1 223.5 223.3 222.1 219.5 220.7 219.7 220.9 222.5 222.9 222.9 222.4 222.8 223.7 221 218.8 218 215.6 212.5 211.9 212.2 211.4 208.8 206.3 205.4 207.1 207.5 207.6 207.9 211.5 215.4 217.9 219.8 220.3 214.7 218.9 219.6 224.9 223.7 222.3 222.2 225.3 229.7 232.9 234 240 246.1 246.5 247.9 250.6 251.1 255.7 262.5 264.6 269.9 272.6 279.9 284.7 291.5 295.6 304.7 310.4 318 317.8 327.2 332.6 338 350.8 368 390.1 406.6 421.7 422.9 436.2 465.5 483.5 506 524.7 543.2 555.9 555.3 552.2 549.9 544.7 539.2 535.1 528.5 521.2 517.7 517 518.8 523.7 528.7 530.2 528.1 524.2 515.9 519 521.9 525.2 525.1 522.4 519.7 517 513.2 509.6 506.2 500.5 492.6 486.8 480.4 475.3 468.6 463 456.4 449.5 443.9 435.8 425.6 416.9 409.1 402 395.7 387.6 381.8 374.6 367.5 361.2 356.7 354.1 349.8 346 344.2 338.9 336.6 335.9 333.8 330.6
36.3 43.1 42.1 34.7 34.7 34.7 34.7 34.7 34.7 34.7 34.7 35.4 36.5 36.8 37.4 37.1 38 39.6 40.2 40.8 44.4 43.7 49.5 54.2 55.1 57 60.8 56.5 56.7 57.4 54.1 58.7 63.9 66.6 69.6 74.5 78.1 82.4 87.9 99 115.4 127.5 137 146.3 159 199.2 214 221.5 228.7 225.5 229.8 237.9 241.2 240.6 242.1 240.8 242 246 242.8 239.2 229.1 222.1 217.3 221.2 220.1 220.5 217.6 218.9 219.6 219.1 219.5 219.6 219 218.5 218.2 217.6 215.6 211.5 211.5 209.5 205.3 207.5 207.2 206.1 205.3 205 204 205.1 205.7 205.7 208.9 213.6 215.9 217.3 219.3 218.2 211.4 217 218.7 220 221.4 221.6 221.9 223.5 225 227 226.5 229.2 230.7 235.5 238.6 239.7 241.3 251.7 253.3 253.5 256.2 264.3 268.9 277.5 280.6 288.4 296.8 305.7 313.1 317.4 326.6 333.7 338.8 348 364.9 381.3 395.8 409.1 414.8 430 445.5 459.5 483.3 503.3 516.2 521.2 521.7 520.2 521 518.2 516.4 515.4 507.5 502.4 499.9 498 500.2 505.3 511.2 511.4 510.9 508.8 500.2 502.9 507.6 510.3 511.5 509.1 504.1 499.1 495.2 491.7 488.1 482.9 478.1 473 465.2 461 453.1 448.8 437.3 428.9 419.8 409.2 398.2 386.1 378.1 374.9 370.6 368.9 356 346.3 342.3 338.5 336.1 333.3 330.6 328.8 326 321.3 320.2 318.3 316.4 317.3
42 39.1 40.3 44.9 39.9 34.7 34.7 34.7 34.7 34.7 34.7 35.1 35.5 36.5 36.8 37.1 37.3 37.8 39.6 41 44.1 45.7 47.1 55.4 58.7 59.6 62 57 60.7 62.1 63.2 61.8 65.6 68.9 62.6 71 75 77.4 87 89.7 99.2 114.5 126.2 136.9 150.2 187.7 203.1 208.8 217.7 213.6 213.7 225.5 230.7 230.1 231.8 232.3 229 233.3 232 225.7 221 215.4 214 217.7 217.3 218.3 211.5 215.3 216.9 214.6 214.6 213.5 211.7 210.4 211.3 210.6 209.4 205.3 204.8 202.7 202.5 203.7 204.2 201.2 202.4 202.2 202.4 204.7 205.1 205.8 209.7 213.9 215.9 216.2 214.8 212.9 212.7 213.6 213.9 216 218.5 222.2 221 218.9 221.9 223.4 223.4 226 227 230.3 229.8 232.1 237.2 239.9 242.8 246.3 250.8 256.1 261.5 263.8 273.5 284.2 287.6 296.3 311.5 318.1 325.9 333.7 340.1 347.5 358.8 372 383 397.8 415.2 428.6 436.7 441.5 453.3 467.2 481.6 493.6 498.6 498.5 496.4 494.3 496.1 496.2 486.5 486.6 482.1 476.1 479.5 485.2 490 491.1 490.3 489.8 484.9 485.8 490.3 492.3 494.5 491.3 487.7 480.3 477.1 473.6 469.4 464.9 462.1 456.7 451.6 442.2 431.3 421.3 414.7 402.7 391 376.9 366.2 359.4 354.2 348.1 347 342.2 329.6 325.3 321.6 319.6 317.8 315.5 314.6 312.1 310.4 308.5 306.6 304.3 304.1 302.5
43.4 39.2 39.1 43 44.7 41.2 35.8 34.7 34.7 34.7 36.2 35.5 35.4 36.3 36.5 36.8 37.1 37.1 39 40.1 41.3 45.3 48.4 53.4 58.8 63.4 65.3 66.4 67 68.7 68.8 70.3 69.3 75.1 75.7 67.7 74.2 78.7 83.6 89.2 95.6 103.8 111.7 125.4 135.7 158.8 185.3 194.3 201 199.4 202.5 210.9 218.7 220.8 223.2 222.1 222.2 221 221.3 214.2 208.3 208.2 210.4 212.1 207.9 212.1 205.1 207.8 210.1 207 207.1 206.2 204.5 203 203.5 204 202 201.5 200.5 199.6 199.8 199.9 199 200.2 201.2 201.6 202 203.4 205.4 206.1 208.8 210.9 215.1 214.1 211.4 208.6 211.1 212 214.4 217.6 218.3 220.4 217.4 219.2 223.1 225.7 228.8 232.1 233.2 233.3 237.8 243.6 253.3 245.8 247.2 247.9 254.8 256.3 261.5 268.3 278.9 283.9 293.3 301.1 307.8 316.8 324 333.6 339.4 346.3 357.3 370.5 380.4 394.1 414.8 422.4 422.5 431.1 441 440.4 456.3 470.5 477.5 477.9 477.4 477.5 477.6 473.5 468.2 469.2 464.8 460.5 462.9 465.4 468.2 469 470 468.5 464.9 466 468 472.1 473.5 470.6 466.1 460.1 457.8 454.4 450.4 447.5 443.5 437.3 433.1 416.2 404.7 395.8 393.8 373.9 359 348.6 338.7 331.6 327.2 322.2 318.1 310.7 307.6 307.5 306.7 303.9 302.2 301.1 300.1 297.1 295.8 294 292.7 291 287.8 285.8
45.1 44.3 43.1 44.6 44.7 43.6 41.6 34.9 34.7 34.7 34.8 35.7 35.4 36.1 36.5 36.7 37.1 38.1 40.2 41.5 42.9 47.6 52.2 54.3 58.9 63.8 70.9 73.4 76.6 74.5 73.6 76 76.1 76.5 76.3 71 79.1 80.4 82.7 87.7 96.7 98.3 105.6 116.3 134 153.9 164.1 178.2 186.1 190.9 196.8 203.6 207.7 212.9 216.6 214.9 212.5 215.6 212.3 201.3 203 203.3 203.2 206.4 200.4 203.6 200.4 200.5 201.3 201 200.6 198.9 196.9 197.6 197.4 197 196.3 198.8 198.4 194.3 195.4 197.5 197.7 198 198.4 198.5 199.8 201 202.9 206.1 209.1 205.5 206.8 205.6 207.5 209.8 212.1 214.7 215 215.5 216.6 217 220.2 223.9 226.7 232.8 238.8 242.6 245.9 248.6 255.9 269 272.3 263 260.2 262.3 258.8 263 270.7 274.7 280.3 284.3 295.6 302.8 309.1 319.3 328.8 337 344.5 352.9 361.2 368.9 380.3 393.7 402.8 406.8 407.4 417.9 434 437.4 451.7 457.5 460.7 462.6 462.9 461.3 461.8 458.6 456.2 454.2 452 450.2 448.6 452.6 453.1 451.8 451.4 449.9 443.8 443.7 445.7 447 443.4 443.3 440.6 434.1 428.9 429.6 427.4 424.9 419.3 413.1 400 389.1 377.6 361.2 350.8 340.1 336.3 322 312.5 305.8 300.7 297 292.6 292.1 289.9 290.2 290.5 288.8 288.3 287.2 284.9 282.2 280.7 279.9 278.5 277.5 272.9 271
46.8 45.8 45.2 45 45 43.8 42.1 40 34.7 34.7 34.7 34.7 34.7 34.7 35.6 35.3 37.5 39.1 40.4 41.4 42.3 46.2 53 57.8 60 63.6 71.4 79.4 82.9 79.3 80.4 82.8 83.6 80.5 78.4 74.6 79 83.5 86.2 90.8 93.6 96.3 105.5 116.9 133.5 165.5 178.4 185.3 182.4 184.2 189.2 196.5 200.8 206.2 208.2 205.9 205.2 204.4 201.4 201.2 201.3 197.9 198.2 200.2 193.5 191.2 191.7 192.2 194.2 193.3 189.8 187.1 188.1 187.6 187 191.1 192.5 195 193.3 195.9 197.1 195.2 195.8 197 200.9 200.2 199.6 200.4 200.6 202.5 205.7 207.2 208.4 212.3 212.7 214.1 213.6 220.3 222.3 222.9 227.6 231.1 233.4 239.5 244.3 253.4 259.9 263 270 274.5 280 285.9 288.3 283.6 281.1 280.9 279 275.4 282.1 286.7 291.3 295.9 299.2 304 313 321.7 329 336.4 344.9 352.9 363.8 370.8 381.4 396.2 399.1 400 402.1 411.5 417.4 423.8 433.3 443.3 449.1 451.6 452.1 450.9 451.5 447.8 446.5 445.8 444.6 443.7 439.2 439.3 440.6 441 439.5 435.8 430.4 425.5 425.6 424.6 419.4 418.9 414.2 407.3 406.8 400.5 390.6 384.8 376.5 372 365.5 361.9 351 332.2 321 311.7 301.6 295.5 290.6 283.2 276.6 277.7 273.1 274.7 273.1 274.1 275 273.4 273.1 272 270.6 266.7 265.3 265.2 263.2 262.7 257.9 256.7
44.8 44.8 45.3 45.1 43.7 43.2 45 42.1 36.4 34.7 34.7 35.1 35.8 35.3 35 36.5 38.7 38.7 39.7 41.6 42.9 47.2 52.1 57.6 64.8 66.4 71.4 76.8 84.2 82.5 84.8 87.2 88.4 84.7 81.7 73.9 78.1 87.3 91.3 93.6 96.3 97.2 105.5 118.9 131.8 165.4 175.8 190 187 185.3 186.3 189.3 196.8 200.5 202.9 200.8 197.3 201.4 200.9 201.5 198.8 193.7 195.9 193.3 185.6 182.1 181.4 186.4 188.3 184 183.6 190.9 189 189.6 189.9 192.9 195 198.2 198.7 197.2 198.2 199.4 200.2 202.2 203.3 202.9 202.9 206 207.2 209.8 212.6 215.5 216.9 224.3 224.8 224.5 222.9 231.6 237.2 239 241.5 246.5 248.3 259.4 282.8 287.7 287.2 291.3 297.7 300.5 301.2 302.7 303.4 305.3 302.9 304.6 300.5 296.5 296.8 300.1 300.6 305.3 305.3 310.7 318.8 327.6 335.6 341.2 348.1 358.4 363.8 371.3 382 392.7 395 398.5 407.1 419.2 416 422.6 431.8 440.8 447.1 451 451.2 450.3 447.3 444.3 442.2 441.3 440.5 442.3 436.9 431.7 431.2 429.6 427.1 423.4 419.4 406.3 407.1 405.3 398.7 396 388.5 376.7 375.4 368.4 356.8 351.9 344 337.3 331.9 318.7 313.1 301.1 293.6 286.1 282.5 275.9 274.8 266.7 261.5 259.3 260.4 260.7 262.3 261.4 261.4 261.2 258.1 257.7 256.4 254.2 253 251.5 250.2 249.1 247.2 246.2
36.4 36.4 41.6 43.1 41 40.3 41.8 42.4 38.3 34.8 35 35 34.9 35.5 35.2 39 39.6 40.3 41.1 41.7 42.7 46.5 53.9 62.6 71.4 69.8 74.5 76.5 80.5 87.7 85.6 88.3 90.3 90 88.5 80.7 74 85 90.7 95 98.2 101.5 106.5 115.8 128.1 173 180.4 189.6 187.2 186.6 187.8 189.1 193.3 197.9 196.9 194.4 194.7 198.8 198.7 199 194.3 189.8 192 187.6 179.7 177.3 178.1 179.2 181 181.8 189.7 192.4 194.4 195.9 196.9 199.9 199.2 203.9 204.7 205.4 204.1 204.6 205.4 207.3 207.8 209.2 211.8 214.7 219.4 220 222.9 226.1 230.1 229 232.8 234.4 234.8 243.8 253 254.9 259.4 264.3 269.9 279.7 295 301 306.4 311.7 314.4 316.5 319.8 320.5 320.1 320.6 322.3 322.3 318.8 314.4 313.8 314.1 313.8 314.3 317.9 324.9 330.4 336.5 343.3 349.2 353.5 361.5 370.5 376.6 390.1 398.8 398.2 402 414.5 422.7 424.7 433.3 447.7 456.6 458.4 459 459.9 459.5 454.9 447.5 444 443.8 441.5 435.1 432 424 419.9 419.6 409.7 399.5 397.8 392.1 385.8 381.1 375.3 369.3 363.3 362.4 354.6 344.8 335.1 328.8 320.5 311.7 306.7 301 289.9 281.2 273.3 273 270 265.8 257.8 257.3 255.1 244.2 248 247 245.9 246.2 248 247.2 244.1 242.4 240.7 239.6 238.9 238.2 238 236 234.2 234.2
36.4 36.4 36.4 36.4 36.4 38.9 39.4 38.8 38.3 35.4 36.5 35.6 34.7 35.8 36.8 39.2 39.8 40.6 41.4 41.5 42 44.5 52.2 62.5 70.2 69.8 76.5 77.1 76.7 84.5 84.6 89.2 93.3 94.6 92.4 85.9 85.9 77.5 87.3 94.2 95.7 100.1 107.2 115 125 178.9 191.3 189 186.1 186.5 190.2 188.9 193.4 190.3 188.3 187.1 193.6 195.8 194 191.8 185.8 182.8 182.5 177.4 175.7 177 182.5 184.3 187.4 189.8 192.8 192.9 197 197 201.1 201.7 203.9 209.6 211.3 216.8 213.6 214.1 213.5 214.9 215.8 218.7 223.6 223.8 227.7 230.9 232.1 232.7 235 235.2 239.6 241.6 249.9 260.6 267.7 271.5 274.5 281.3 284.7 295.5 303.7 312.1 318.2 328.8 327.9 330.5 336.9 333.8 334.1 336.3 338 337.4 330.3 331.9 331.8 331.7 331 330.4 331.4 334.3 340.4 347.8 348.2 355 361.5 371.9 377.8 385.9 400.1 410.8 409 412.2 422.8 431.4 431.8 442.6 456.7 467.2 474.2 474.7 476.2 466.8 463.2 455.5 448.5 451.3 447.3 442 437.4 433.4 430 423.8 418.8 409.4 400 390.5 381.8 368.9 351.7 351.5 345.9 337.3 329.1 319.9 312.5 301.5 295.9 284.7 285.4 276.7 272.7 263.8 257.7 255.4 258.7 253.5 244.9 246.3 245.1 233.9 231.4 233.1 232.1 232.9 232.9 232.8 231.9 231.2 229.6 228.9 228.8 227.9 227.5 226.2 225.2 224.4
41.8 39.7 43 37.3 39.5 37.2 37.3 37 37.2 36.4 36.3 37.7 37.3 38.8 39.2 38 40.1 40.8 41.8 42.3 42.5 43.6 49.8 60 64.7 70.2 77.6 78.8 80.4 81.3 88.8 93.4 95.2 96.3 98.3 93.6 95.7 92.1 89.8 90.3 92.8 98.4 100.4 114.5 124.8 160.5 182 183.7 183.9 183.8 187.1 188.1 191.4 184.8 183.1 184.3 186.4 188.9 186.6 185.5 177.4 173.7 177.8 174.9 177.2 181.7 184.1 187.3 188.2 190 188.9 190.5 195 198.4 203.6 205.9 209.7 215.6 215.3 219 218.7 218.4 220.6 221.5 224.1 229.4 233.4 232.2 236.6 237.5 237.2 237.3 243.9 251.3 255.5 259.2 265.9 273.3 284.2 285.7 292.2 293.7 304.2 311 313.6 321.8 331.2 339.2 340.7 345.5 347 349.7 348.9 349.2 350.8 350.1 340.9 345.7 350.5 346.1 346.4 347.5 347.9 344.6 345.6 350 357.5 364.7 371.5 382.5 390.4 398.6 410.9 418.7 421.9 424.9 434.5 444.6 445 447.4 460.7 471.1 476.7 477.3 480 472.2 465.9 458.2 453.5 454.5 451.1 444.8 440.1 432 427.2 424 419.8 411.6 403.9 393.2 379.1 365.4 355.1 343.5 325.1 317.5 308.6 301.3 290.3 280 271.6 262.1 265.2 256.7 250.9 244.8 242 241.5 239.6 235.8 232.1 231.2 227.1 225.6 221.4 218.3 220.3 219.8 218.9 219.7 220.3 220.6 218.8 218.6 218.5 217.7 216.9 216.3 215.8 215
45.2 46.7 50.1 53.1 44.5 39.3 38.2 37.6 37.5 37.3 37.7 37.3 37.4 38 40.3 40 40.8 39.7 41.3 42.4 43.4 45.3 48.4 54.9 62 71.1 78.5 80.1 86.7 87.4 90.4 96 95.4 97.5 100.2 97.4 102.2 93.1 98.6 90.4 92.3 95.8 100.1 109.7 123.7 155.4 172.5 174.3 183.6 179.6 180.2 183.7 186 180.2 179.2 176.4 176.2 176.9 176.7 176.2 172 174.4 182.4 172.9 178.8 182.2 187.4 188.9 182.8 183.8 186.5 191.8 193 202.3 205.3 208.3 210.4 215.8 217.9 219.6 221.7 223.3 227 228.6 232.1 234.5 236.9 242 243 242.9 246 248.1 255.1 262.1 268.4 277 282.2 290.4 299.8 309.4 309.3 311.8 323.6 329.8 331.9 337.6 344.9 350.9 352.6 356.5 363 360.9 359 362 362.8 362.6 347.7 360 360 359.6 365.4 362.7 360 355 352.8 357.6 364.9 369.8 381.9 396.3 405.3 412.7 420.6 426 432.9 444.1 458.9 459.2 454.5 462.1 473.9 479.2 480.8 486 481.6 467.7 461.5 457.6 454.2 449.6 445.9 441.6 436.3 430.6 427.4 422.6 416.5 407.6 398.3 383 366.5 350.7 339.5 325.1 313.6 289.4 284.9 278.6 270.4 258.8 255.8 247.2 242.3 240.8 238.4 229 222.2 224.7 225.2 224 219.6 219.5 216 212.8 211.1 207.1 210.3 209.6 210.1 211.6 213.2 213.3 211.6 211.4 208.4 208 208.2 207.6 206.9 205.8
48.8 53.2 61.1 71.7 63.9 54.7 41.8 40.3 46.3 40.6 37.4 38.2 38.7 37.1 39.7 40.7 42.3 42.4 43 40.4 42.3 44.2 50.9 52.4 59.2 67.7 78.3 82.6 87.8 93.4 95.7 97.6 98 100.6 101.9 102.5 101.6 104.3 101.4 96.7 92.7 95.2 98.7 102.8 110 143.5 168.7 168.5 169.4 170.2 176 177 175.6 176.5 176.1 174.3 173.7 164.3 160.1 166.3 168.3 172.4 170.8 167.5 179.1 181.4 181.8 180 182.3 184.6 187 194.6 200.5 203.9 203.9 206.5 207.9 211.9 218.8 222.2 227.7 230.2 233.1 233.3 236.7 240.5 243.4 252.8 251 248 255.8 259.6 264.4 269.6 277.9 288 297.1 304.2 312.7 323 326.1 327.3 343.9 346.1 349.7 354.4 368.8 376.3 375.8 376.5 373.1 372.1 367.4 369.1 369.8 368.4 365.6 367.2 366 368.6 374.5 374 372.4 367.8 365.3 376.7 380.6 383 396.5 410.2 420.2 424.4 430 442.3 455.9 469.4 481.3 482 478.6 485.4 490.6 494 491.1 493.7 487.4 470.7 453.8 451.1 446.1 443.4 439.3 434.4 427.6 426.2 423.4 417.4 409.2 394.5 381.9 367.1 344.7 327.2 317.5 307 282.8 272.1 272.7 254.9 249.3 241.4 234.8 226 225 225.6 224.9 221.8 211.1 213.2 216.9 213.1 212.6 211.8 209.8 204.7 205.3 201.9 205 201.4 202 207.5 209 211.6 207.3 207.6 202.5 200.6 201 200.4 200.5 203
54.1 59.2 69.7 81.7 88.8 75.8 56.2 47.4 45.6 44.8 39.1 39 40 38.9 38.4 38.8 42.9 43.4 44.1 43.7 42.7 44.7 46.2 48.7 50.8 66 73.1 84.3 93.2 98.8 102.3 101.8 102.9 105.7 105.8 107.6 107.1 108.4 108.9 104.9 91.7 93.2 95.9 101.9 106.3 115.5 129.9 142.1 150.9 157 166.8 166.5 165.8 170.6 169.3 164.8 158.3 151.9 166.5 161.8 165.2 161.8 169.8 171.7 174.5 177.1 178.2 181.9 183.8 185.9 189.2 193 198.4 202.7 204.8 211.5 215.7 219.4 224.1 227.6 230.1 237 238.1 239.1 241 246.6 249.9 255.4 256.9 254.7 261.6 267.9 273.1 280.9 295.2 306.1 313.4 320 324.7 332.2 339.9 352.4 359.8 363.6 366.1 370.9 377.1 384.6 384.9 386.7 382.3 381.8 378.1 378.3 375.4 371.8 370.5 371.6 370.6 379.4 383.4 383.5 383.7 379.9 380.8 387.8 387.2 395.4 410.4 428.3 433.3 440.6 451.9 467.7 482.6 481.7 494.8 504.1 500.9 500.7 501.5 503 501.3 497.3 484.7 469.9 458.4 451 446.1 438.5 431.8 426.4 420.6 416.6 411.3 403.4 390.9 374.4 360.6 344.1 322.5 305.9 296.2 288.6 264.2 253.7 247.4 239.2 232.6 227.1 220.3 217.6 215.6 217.8 214.4 212.1 206.2 206.1 203.2 202 203.7 205.1 206.8 204.4 197.7 195.6 196.3 195.2 199.1 210.1 211.9 209.5 202.6 203.5 199.1 196.5 193.8 196.6 196.1 195.5
53.1 60.8 91.6 97 102.6 98.8 79.2 61.5 52 45.2 42.1 46.5 43 47 44.7 41.9 39.9 41.3 46.7 44.7 43.4 46 45.5 50.6 50.6 53.4 63.3 81 93.2 102.3 109.2 109.1 107.2 110.2 112.2 115.9 118.6 115.3 118 109.8 113.7 107 97.6 95.4 102.9 109.3 119 128.8 139.8 146.9 154.8 159.2 160.8 161.8 159.8 144.6 153.3 161.2 176.4 161.5 164.2 171.9 175.1 178.6 180.1 178.3 181.2 182.6 187.1 189 191.7 195.6 199.3 203.9 208.7 213.6 218.5 225.7 226.6 229.9 233 242.4 247.3 245.3 247.5 249.9 253.1 257.6 264.9 268.3 273.2 280.5 287.1 299.6 312.3 321.1 333.2 338.1 346.5 347.4 349.6 357.2 365.1 373.6 373.5 380.9 386 394.8 398.8 395.7 391.3 386.6 387.6 386.1 382.4 377.1 376.1 376 375.2 387 388.1 391.1 391.1 387.9 394.1 395.2 398.7 401.2 422.1 439.9 454.3 457.3 469.8 482.9 491.3 499 509 521.5 518.3 514.6 509.9 509.2 507.7 497 485.5 474.5 460.8 453.1 446.3 437.5 430 422 416 406.9 386.2 377.8 364.8 346.2 327.4 313.8 297.6 283 271.5 259.9 248.3 239.3 231.3 225.6 223.6 221.4 213.3 209.9 204.5 204.5 202.6 200.5 198.4 204.7 200.4 196 195.2 199.4 201 200.7 200.3 192.3 194.3 192.6 197.5 201.5 207 204.2 196.1 195.7 194 191.3 190.2 191.2 191.9 188.5
61.5 74.3 91.8 100.3 111.9 110.1 98.6 84.8 68.4 59.1 46.9 44.6 47.1 47.3 48.7 47.8 44.5 42.5 46 45 43.8 47.4 56.1 65.7 71.1 70.6 72.2 83.4 92 100.8 114.4 118.1 114.8 117.6 117.3 121.6 124.6 119.9 116.9 115 118.8 115.8 109.2 101.9 99.6 108.2 114 125.3 132.9 143.8 152.2 150.4 139.4 143 143.3 146.9 159.4 170 177.7 172.9 180.3 182.2 182.9 190.1 189.8 184.8 184.4 183.7 185.4 190.3 196.2 199.8 203.5 208.2 211 215.7 221.9 223.9 225 228.9 234.2 239.5 246.4 247 248.2 252.8 257.9 265.2 271.7 280.9 294.8 313.1 320.7 325.5 339 342.9 348.8 354 358.6 359.5 367.2 370 378.9 381.1 384.8 385 392.9 404.4 406.5 403 403.1 396.8 391.7 390.3 387.7 383.4 382.7 380.5 381.4 391.4 393.5 395.1 394.9 393 395.4 395.3 398.6 402.4 424.5 449.2 472.3 474.4 487.7 500.7 508.4 511.5 518.9 526.3 527.9 522.8 516.5 511.7 508.9 495.8 486.2 478.4 462.6 450.2 440.2 434.8 425.7 415 407.5 400 385.4 362.5 334.4 313.4 298.8 286.5 273.8 262.5 250.4 238.5 228.3 225.8 223.8 218 219 215.9 212.4 209.8 205.3 208.4 202.3 203.2 200 200.9 196.6 195.8 192.8 193.4 196.2 198.7 195 192 191.1 189.8 191.1 194.3 193.4 193.5 192.3 191.4 196.5 192.8 189.1 190.5 188.6 185.3
74.2 86.2 86.9 93.7 105.5 110.8 110.2 102.3 90.4 77.6 67.2 53.2 47 48.5 49.3 48.8 48.7 42.9 44.6 45.3 44.8 50.7 59.6 74.6 83.2 91.7 85.7 90.8 93.5 99.7 118.6 123.2 120.1 120.7 122.2 126.3 126.3 121.5 119.1 122 122.1 122 117.8 109.5 105 108.5 113.6 118.3 124.3 135.4 145.5 137.6 135.1 141.8 147.2 157.8 164.1 170.7 175.5 180.6 184.4 184.7 187.1 193.5 191 187.3 188.5 193.2 197.9 197.5 197.2 201.7 208.7 213.9 215.9 216 219.2 222.1 224.1 229 240.2 243.8 246.8 249 250.9 256.5 262.4 272.7 285.8 307.1 328.9 350.7 368 371.9 373 375.8 376.9 375.3 372.2 375.4 382.1 392.6 392.7 389.7 391.1 398 403 405.4 407.6 405.2 404.4 400.1 393.4 391.3 387.9 383.1 385.7 386 385.8 388.8 391.6 394.6 394.3 392.9 392.6 393.5 393.4 401.6 431.4 456.5 470.3 481.7 499.2 513.3 524.1 528.8 534.8 540.3 534.9 528.2 520.1 512 501.7 491.9 482.5 475.5 460.1 449.4 442.6 436.7 419.6 407.9 398.9 381.7 367.2 349.4 330.7 303.6 281.4 265.6 253.9 241.6 232.4 224.1 218.7 217.8 213.2 215 215.3 211.8 210.3 207.8 203.3 206.3 202.5 200.7 200.7 206 196.6 196.3 193.4 193.9 192 192.1 191.9 195.2 190.7 189.8 189.2 191.2 190.9 191.3 190.2 190.5 194.5 186.5 184.7 188 186 185.1
69.3 83.1 87.5 90.8 102.9 107.2 107.1 103.3 95.3 88.7 87.6 75.1 65 50.8 50.8 51.5 51 46.2 43.5 46 45.7 48.7 60.1 82.7 92.8 97.4 101.1 94 102.7 104.6 112.5 125.5 125.3 125.1 127.8 132 129.7 126.2 122.2 124.4 124.6 124.5 122.9 109.1 106.4 110.6 112.6 116.7 120.3 132.9 135.7 132.9 139.6 149.8 157.1 163.4 169.5 174.3 182.1 188.4 189.1 188.7 192.8 196.6 193.5 196.1 200 204.5 207.1 208.5 205.6 207.5 206.9 211.1 213.6 216.7 221.6 221.6 226.6 231.8 239.3 248 250.7 253.2 255.3 263.3 270 284.7 313.2 345.4 367.9 381.6 390.2 397.2 395.5 394.1 392.2 390.6 390.9 394.7 403.2 410.2 411.9 414.6 416.9 417 411.2 418 415.6 411.1 403.1 402.9 396.7 390.3 387.5 385.5 383.3 382.5 388.3 388.5 388.7 391 391.2 391.7 391.8 391.9 392.2 408 429.7 446.2 461.8 478 504.5 516.5 530.7 545.4 550.8 552.1 544.7 534.1 524.1 515 504.6 490.6 481.1 470.1 459 450.7 443.3 435.2 419.4 406.5 388.4 371.5 355.9 334.5 311.9 285.3 263.7 251.9 238.9 228.5 219.2 216.5 213.7 211.3 209.5 212.7 212.4 210 205.5 206.9 206.2 207.9 204.3 202.7 206.9 207.7 203.1 204.4 198.4 194.9 194.7 192.2 192.3 194.7 190.8 193.6 189.9 188.3 190.5 191 189.4 191.8 190.3 186 182.2 181.2 180.8 181.8
69 80.4 85.6 90.6 101.5 106.7 106.7 103.2 99.2 95.5 90.9 87.7 77.7 65.2 54.8 52.9 50.4 44.2 45.3 47.3 47.1 47.3 59 88.2 93.4 101.3 116.5 111.7 104.9 109.4 114.3 120 127.3 130 131.2 134.1 133.1 128.6 125 125.3 125.4 126.2 126.1 113.3 105.6 106.2 109.6 113.1 116.9 114.1 118.5 133.3 148.4 160.1 167.9 170.5 174.4 179 187.8 190 191.3 191.6 200.6 201.4 201.1 204.2 207 207.7 212 211.8 213.4 214.1 215.1 219.1 221.7 219.2 219.2 223.5 227 233.2 241.5 252.8 259.6 256.8 262.2 272.3 287.8 308 340.5 370.5 389.5 403.8 411.7 415.3 414.2 412.2 408.5 409.8 410.4 411.2 422.8 426 437.9 442.3 444.4 441.8 438.5 438.4 429.3 417.4 414.1 400.3 396.3 391.4 388.1 385.9 385 386.5 386.3 389.1 387 387 388.9 391.2 391.1 391.3 393.6 406.5 422.8 437.2 453.7 474.8 489.1 504.2 523.4 542.9 552.4 559.1 552 543 532.3 523.5 512.4 500 488.7 472.9 463 453.2 446.4 434.7 425 406 379.5 366.5 342.3 319.2 292.2 270.3 254.4 237.6 229.6 220.2 215.7 213.5 211.6 210.1 208.6 211 210.5 207.5 206.3 208.1 212.1 213.1 210.6 210.4 208.2 204.9 204.6 205.9 198.9 200.9 196.1 192.3 194.3 199.6 194.4 194 193.1 193.2 197.2 194.2 192.9 193.7 193.2 191.1 190.1 186.1 182.5 177.3
80.6 86 89.6 91.4 97.7 108.1 108.9 105 99 98 92 86.5 79.8 67.7 60.9 56.5 49.9 46 47.7 48.5 48.6 50.6 65.1 88.3 97.1 116.4 127.6 127.9 125 113.1 113.8 116.4 123.9 130.2 134.1 135.2 139.7 130.7 128.9 127.3 126.6 127.2 126.8 124.3 115.3 115.6 112.1 115 121.4 129.1 141.7 151.7 154.9 159 162.1 169.1 177.1 184 188.7 192.1 195.6 200.2 202.7 205.4 207.8 208.6 211.3 211.9 213.9 216.3 219 219.1 221.6 222.5 223 224.5 225.6 232.1 236.5 243.3 251.6 259.7 266.2 280.8 283.6 294.2 313.1 331.3 359.5 381.9 404.3 426.2 429 431.9 429.7 426.5 425.7 424.4 425.2 427 437.7 448.1 457.4 459.6 463.2 461.9 458.8 450.8 441.3 429.2 424.9 410.9 409.2 401.8 389.7 386.9 384.8 385.9 395.3 390.5 392.4 399.5 393.2 390.4 390.9 391.4 395.4 403.1 417.9 427.3 445.7 469.5 480.6 494.6 518.5 537.4 552.9 562.1 563.2 554.9 543.5 533 523.9 514.9 504.8 486.5 469.6 461.6 454 442.3 427.4 410.1 379.4 357 335 309.7 283.9 257.8 241.5 229.8 222.1 217.5 215.5 212.9 210.5 208.6 207.9 208.4 208.2 213 207.7 210.7 209.3 211.5 213 209.8 207.2 206.4 205 202.8 198.6 196.7 195.7 195.7 199.6 197.7 197.6 200.2 198.8 199.2 201.4 200.4 200.2 200.3 202.7 199.1 197.2 194.2 189.2 185.3
68.9 76.1 88.3 97.8 96.4 101.6 111.1 105.1 100.2 97.1 91.6 83.4 77.9 70.5 60 56.7 51.3 47.3 48.9 47.7 49.5 52.4 64.9 89.4 107.2 123.3 137.1 140.3 137.5 128.1 114.1 116.5 121 125.1 130.6 136.6 143.6 128.3 132.1 128.6 128.6 128.2 127.8 126.7 127 124.7 124 133.8 126.5 126.8 141.1 143.6 143.8 151.6 159.4 170.2 178.5 183 190.3 193.9 196.5 201.1 203.8 206.9 208.9 210.1 212 216.8 219.9 222.5 224.7 224.2 226.6 226.2 226 230.9 234.4 236.2 244.1 250.9 261.3 270.2 285.3 298.2 308.9 316.3 341.8 352.1 371.5 395.1 423.5 442.7 447.1 447.3 443.8 443.1 442.3 437.5 439.3 447 457.5 469.1 472.8 476.7 480.7 477.5 469.7 463.1 458.2 447.5 436.3 428.2 430.3 425.9 418.2 414.3 406.9 409 397 395.3 394.6 407.5 399.4 394.9 391.2 393.7 398.9 400.4 407.4 421 440.2 456.8 473.2 490.8 512.5 531.7 554.2 567.9 573.2 569.9 561.8 551.8 543.8 534.9 522.9 507.8 486.7 472.9 458.9 448.5 431.6 415.7 384.7 349.9 322.9 295.4 272.2 251.6 234.5 223.1 218.7 215.3 212.7 212.1 210.5 209.1 212.4 215.9 214.3 214.9 215.4 215 213.4 214.9 207 207.5 205.8 203.2 202.5 199.7 196.9 203.7 202.6 198.1 199.3 204.3 206.3 208.8 209.6 210.5 207.4 210.5 211.8 212.4 213.5 212.7 208.6 205.3 198.6 192
66.3 73.3 83.4 90.2 95.8 100.4 110 103.5 98.6 95 90.5 83.4 75 68 59.8 52 47.3 49.7 49.6 49.1 52.2 57.7 66.9 87.7 109.1 130.4 141 150.8 144.7 139.5 133.1 116.9 120.1 126.3 127.8 134.2 138.1 135.6 133.7 133.6 132.8 130.1 128.8 128 125.7 123.6 130.6 138 132.5 137.3 134.9 140.5 147.5 149.9 156.4 166 173.7 179.4 189.1 194.6 202.2 204.8 207.3 208.9 209.5 215.1 212 220.4 222.7 227.4 231.3 232 233.8 234.4 234.6 236.9 239.1 242.9 248.5 256.7 272.7 284 295.3 309.9 320.1 339.8 358.6 368.3 382.7 405.9 439.4 462.5 469.1 468.3 463.9 467 463.3 456.8 457 465.2 475.7 480.3 483.8 485.5 488.9 487.4 484.3 477.2 472.1 464.6 458.9 459.2 452.3 444.9 444 439.3 436.1 434.9 425.7 408.7 403.6 407 402.2 396.9 403.1 397.3 403.1 400.9 408.6 416.9 428.9 446 467.1 485 505.7 529.4 555.1 575.4 584.7 585.5 580.1 572.5 566.6 558.2 545 528.6 508.5 493.4 473.1 454.8 438.4 426.5 405.8 354.2 321.2 293.4 270.4 247.5 233.6 222.6 217.4 213.7 212.6 209.9 209 212 217.6 222.9 221.5 222.4 224.4 223.9 220.3 215.9 213.1 210.4 207.3 203.1 201.5 199.4 199.6 203.5 200.6 202.4 210.3 212.8 215.3 212.3 216.1 221.4 222.9 227.3 228.4 230.8 230.3 228 225.4 223 219.7 211.9
62 67.4 79.2 81.8 88.5 95.8 108.7 104.3 98.2 93.2 87.4 80.8 76.7 67.1 58 49.6 49 50.8 50.6 50.4 52.3 64.3 72.3 94.8 111.4 130.8 140.3 150.7 151.9 150.4 143 126.5 122.1 128.1 133 137.1 137.2 146 145.2 145 141.6 137.1 130.5 131.4 127.1 125.9 139.8 141.4 137.4 139.7 136.2 141.6 142.1 146.4 150.3 157.9 167.5 175.8 186.1 191.7 196.8 204.2 207.7 209.4 211.6 213 213.4 219.4 224.9 229.4 233 235.7 239.4 240.3 241.5 243.5 246.1 253.6 261.4 266.4 277.8 287.7 301.3 314 327.2 343.8 360.5 377.5 394.4 417.3 462.3 478.9 484.8 484.4 482 480.2 479.4 478.3 481.9 491.3 497.4 498.6 498.8 497.4 496.3 494.3 491.7 491.4 487.7 479.1 481.8 478 479.9 474.2 469.5 464.6 462.9 455.3 448 438.3 426.5 417.8 408.3 398.2 395.9 394.8 401.7 401.7 408 415.6 425.2 440.8 464.2 480.4 505.5 530.8 556.6 576.8 593.3 597.9 596.6 593.1 585.9 575.3 560.9 546.5 528.1 515 501.6 477 449.9 432.8 419.4 393.6 329.6 300.5 276.3 253.3 239.6 224.5 221.2 218.6 213.9 215.5 220.5 223.3 232.2 234.7 227 227.4 228.1 229.3 223 215.7 211.9 210.3 209 205.6 201.1 202.3 205.2 204.2 209.9 215 216.3 222.6 221.8 223.8 227.1 231.1 235.6 240.3 242.3 246.5 247 249.3 250.2 255.4 257.9 246.3
53.4 64 68.1 74.1 79.3 89.4 98.1 98 97.5 92 85.4 80.3 73.1 63.3 57.5 49.4 51 51.8 51.9 51.8 56.4 68 77 103.9 109.5 131.7 140.7 149 155.1 157.2 145.5 135.8 137.5 131.4 138.2 140.8 139.4 145.1 151.6 152.6 155 153.6 150.6 145.6 139.1 140.9 151 153.2 139.8 143.2 138.7 147.8 149.5 147.8 153.7 158.5 163.1 170.1 180.3 188.3 196.4 203.3 204.7 210.7 211.6 213.2 216.1 225.2 228.2 231.1 235.1 236.4 239.8 242.5 251.1 257 262.9 269 271.9 280 289 299.9 311 321.8 335.8 356.4 369.7 389.5 407 448.5 482.6 496.1 501.6 501.3 501.6 501.4 502.3 500.9 502.3 506.1 508.5 509.6 512.3 512.5 513.2 510.8 509.2 508.9 502.7 496.5 499.2 496.7 497.7 497.7 495.8 498.4 499.6 494.5 478.5 457.3 445.6 435.7 422.8 411.1 404.3 397.1 402.1 406.6 407.7 411.4 427.9 449.1 468.1 485.5 506.8 534.9 557.3 578.4 596.2 611.2 609.1 608.1 602.9 590.7 575.5 557.4 542.3 529.7 516.6 492.9 470.5 453.3 438.9 418.6 395.7 328.4 288.9 262.1 250.9 238 232.3 228.5 225.9 233.3 233.3 246.9 245.5 242.8 239.4 227.8 223.9 219.9 213.8 215.6 213.1 213.3 204.3 202.8 202.3 208.1 210.2 217.2 221.3 219.2 227 230.7 232.1 242.4 244 248.5 252.9 256.8 262.6 269 272 278.1 283.7 293 299.5 300.9
46.6 56.5 66.2 72.8 80.8 87.5 91.4 93.2 93 90.3 86.2 80.8 72.6 61.6 50.8 50.2 52.1 53.2 53.1 60.6 65.9 73 85.1 107.7 119.6 128.9 140.2 150.1 158.5 165 150.7 157.9 147.2 139.4 140.8 143 143.6 148.6 151.1 154.5 157.4 161.9 163.7 160.2 156.5 157.4 156.8 147.9 150 148.3 144.8 150.1 150.1 148 159.2 162.1 165 167.4 173.3 183.6 193.1 200.4 204.2 208.5 211.6 213.7 218 226.4 232.4 233.1 235.9 240.9 244.7 245.8 257.3 266 276.8 279.5 283.9 290.5 297.5 307.1 320.2 332.1 350.6 366.2 383.8 406.2 435.7 470.2 510 523.1 527 528.9 528.9 528 523 522.2 521.3 524.6 528 528.6 527.3 526.5 526.9 530.5 529.9 525.8 520.1 514.2 513.6 513.7 516 517.8 517 523.4 527.6 517.3 497.7 476.6 463.8 450.5 439.1 425.3 411.3 409.6 414.4 412.9 409.6 416.4 437.2 458.1 477.5 495.3 515.9 540.9 564.9 583.3 603.4 617.8 624.3 618.1 608.5 597.5 584.9 569.1 554.4 541.7 529.3 514.7 499 485 466.5 441.7 411 387.5 341.4 279.5 266.1 258 248.4 251.4 248.4 261.7 258.8 256.5 247.9 245.6 240.5 232.4 226.8 218.4 214.2 214.5 212.1 205.7 211.1 213 212.8 212.7 220.9 226.4 233.9 235.5 241.5 248.2 252.2 257.3 262 270.1 275.8 281.7 289.4 295.4 301.2 313.1 318.2 324.1 330.5 334.8
49.1 53.1 54.4 67.4 78.2 84.6 86.1 90.6 90.2 92.3 86.8 78.7 68.9 59.2 55.2 52.2 53.9 54.4 54.3 61.8 72.7 79.7 92 111.5 129 143.4 145.3 155.2 167.3 169.2 159 161.3 158.2 151.1 147 147.4 148.1 151.4 157.5 156.6 158.4 166.9 172.3 169.7 166.2 162.4 156.9 149.3 152 152.4 149.3 148.6 153.8 155 156.9 161 164.4 170.1 175.1 177.9 188.6 197.5 201.5 203.7 208 215.8 223.2 228.8 233.6 238.9 245.1 251.1 249.7 250.8 258.3 270.6 282.4 283.8 287.8 296.6 303.4 314.9 323.6 334.2 357.2 374.1 395.6 421.2 452.7 501.9 534.6 546.8 555.6 562.8 562.5 556.1 546.7 543 543.2 544.4 546.6 546.9 547.3 546.7 546 548.3 547.8 543.3 537.6 532.8 530.8 528.6 529.9 532.7 541.2 548.2 545.3 525.6 504.7 486.9 476 463 449.6 437.5 424.4 414.9 430.8 420.5 424.2 439 457.6 479.3 496.1 513.5 528.1 550.3 572.1 591 607.6 620.2 628.7 622.3 611.1 601.4 590.1 575.7 562.2 551.2 540 527.9 520.7 510.6 493.4 471.7 437.4 406.4 361.1 312.5 279.7 276.1 276.4 283 277.1 272.2 268.6 259.4 245.2 241.8 234.7 224.6 221.3 214.8 212.9 210.5 209.5 217 218.4 216.9 223.5 223.1 233.1 242.8 243.3 253.7 261.9 270.7 279.9 285.2 290.3 296.7 305.2 313.5 318.3 329.3 337.9 344.9 349.6 351.6 355.6 356.6
47 49.7 54.9 59.4 64.8 72.9 81.1 84.3 87.5 87.5 81.8 77.5 72.8 59.7 54.5 53.1 55 54.9 55.7 65.1 75.1 85.4 110.3 119.1 139.4 151.9 152.5 163.8 173.7 172.1 168.7 165.6 162.7 161.1 155.8 155.4 154.1 155.5 160 162.7 162.1 167.2 172.1 170 167.9 163.7 159.2 150.3 152.1 153.6 154 150.8 154 160 162.9 163.5 164.7 168.2 172.7 177.1 183.4 193.1 196.6 202.8 211.4 220.8 230.8 238.3 245 249.1 255.8 260.1 259.8 259.9 261.8 274.2 283 285.8 292.1 300.3 309.6 316 324.6 340.1 357.6 375.1 398.7 427.4 463.5 505.9 548.6 573 582.1 585.3 583.4 577.8 566.2 558.9 559.6 564.4 567 567.9 567 568.3 566.8 566 564.5 558.5 553.4 550.5 547.3 544.2 547.3 554.9 558.9 562.8 548.9 529.7 511.2 495.7 483.7 473.1 456.2 444.8 434.2 432.3 438.1 434.1 441.5 458.4 477.2 497.1 516.3 535.7 553.2 569.1 584.2 596.9 610.5 620.6 626.5 624 613.2 604.5 594.1 581.5 568 556.4 547.8 538.9 533.2 527.2 515.8 498.6 476.1 449.5 408.2 348.5 305 291 302.5 295.2 283.6 277.3 269 262.2 243.9 239.3 233.5 220 216 214.9 216.4 220.4 218.6 225 225.3 230.2 228.7 240.3 254.2 258.1 259.9 270.5 286 297.4 311.7 324.5 341.6 343.8 346.4 352.2 353.7 361 368.6 373.6 375.2 376.8 379.9 382.7
46.6 47.2 48.9 56.4 59.9 65.7 73.3 79.1 84.5 84.1 80.6 77.5 72.3 66 57.7 54.8 56.6 55.9 56.9 68.6 79.9 105.5 117.3 123.2 140.1 151.6 154.6 167.6 183.2 187 187.2 179.7 172.3 167.7 163.4 162.3 160.4 163.9 163.7 164.9 169.6 169.2 170.1 169.8 167 163.7 159.3 154.2 153.3 153.6 153.7 151.5 156.4 161.6 166.4 167.2 168.8 172.4 175.3 178.3 183.5 191.6 197.1 204.3 218.9 227.3 237.3 245.2 253.7 262.3 268.4 271.9 272.9 276.3 280 287.2 286.4 288.5 296.6 305.1 314.4 319.8 329.2 341.5 356.3 374.9 399.7 430.1 483 524.4 572 598.6 601.5 600.7 599.1 589.9 583.3 578.3 579.6 582.1 585.2 585.6 585.1 585.2 584.2 582.2 577.6 573.3 569.6 566.2 562.9 559.9 559.6 564.3 566.8 571.2 556.9 533.3 515.9 501.3 489.1 480.8 466.8 455.2 445.5 450 451.7 443.3 451.1 476.2 495.7 514.4 536.8 558.7 575.3 591.5 604.6 615.7 622.8 627.8 628.3 623.7 616.7 603.7 594 584.3 572.2 560.2 553 547.8 544.3 541 537.5 527.8 504.2 472.3 440.3 386.9 335.7 323.2 303.6 289.9 285 275.8 267.2 252.9 242 239.6 237.1 220.5 218.8 218.5 223.3 224.6 229.5 235.8 231.6 234 247.2 260.4 267.8 280.1 291.8 308.5 322.9 336.9 345.9 357.6 366.8 371.8 378.3 384.1 387.2 390.8 392.5 396.5 397.3 400.5 404.4 406.9
50.8 51.6 50.9 50.1 56.8 62.4 66.5 70.9 75.4 78.6 79.8 77 74.4 68.6 63.5 55.3 57.5 58.6 68.5 77 87.2 114.7 118.3 124.1 147.6 154.7 160.5 169.6 189.3 198.3 194.6 189.3 180.3 176 171.4 170 170.1 172.4 170.1 170.9 174.7 173.9 171.9 170 167 168.2 169.5 160.5 155.6 153.9 153.1 152 152.9 159.5 167 167.9 168.2 173.1 178.5 182.4 184.7 191.7 196.6 206.8 214.2 225.9 238.6 250.4 260.6 269.3 282.3 283.3 285.6 287 293 295.3 293.2 296.4 307.6 311.1 318.2 326.2 334 343.6 356.3 371.9 400.6 443.1 486.1 528.4 573 599.6 605.9 608.9 606.8 601.2 598.8 598.2 597.4 597.4 601.7 604 604.3 603.6 601.7 598.4 591 585.9 582.8 581 576.7 574.1 575.1 577.8 584.7 577.3 555.6 529.2 516.1 502.1 494.3 487.3 476.2 468.6 466.2 463.8 462 458.1 472.5 490.4 508.8 531.5 556 578.8 594.8 607.6 622.5 637 642.5 642.3 638.1 630 623.1 606 591.8 582.7 571.9 561.4 556 553.7 550.6 549 549.2 545.4 532.8 488.6 448.4 397.1 357.7 328.1 304 290.4 277.8 268.6 262.7 245.8 237 235.8 227 223.7 223.5 231.5 228.8 234.1 238.6 237.4 238.4 246.5 259.8 276.6 294.7 309.3 325.1 340.1 355.2 366.6 376 385.2 392.7 400 407.3 409.1 412.8 417.7 418.2 417.6 418.9 421.4 425.2 428.4
55.7 56.3 56.1 53.4 52.1 54.9 64.5 68.7 69.7 71.7 74.4 72.8 70.5 74.6 70.5 65 69.5 62.9 68.9 81 89.4 115.6 117.6 120.9 152.3 160.6 164 172.3 185.8 203.1 195.6 193.4 185.5 184 189.5 194.4 183 180.8 180.6 179.9 177.7 178.7 179.5 172.1 167.6 170.2 173.2 170.5 159.2 154.6 153.2 152.8 154.3 157.9 161.9 167.4 171.5 175 179.6 190.1 191.8 197 203.9 205.3 213 225.4 240.7 253.9 263.1 272.1 286.1 290.6 293.7 295.5 303.1 302.3 302.1 303.8 313.7 318.1 322.3 327.7 336.3 346.1 358.1 371.8 401.2 431.3 491 531.1 570.7 596.8 603.4 608.3 607.8 606.1 606.3 607.7 606.7 611.7 614.9 619.2 622.4 622.6 620.6 611.5 605.1 601.6 598.3 597.2 596.3 595.2 595.4 598.8 597.2 578.9 547.9 518.6 508.2 503.3 500.7 494.4 489.5 481.5 479.3 477.9 472.5 471 487 500.1 523.7 547.7 573.1 593.8 614.6 631.7 645.6 654.8 656.8 656.4 653.5 644.9 631 612.5 595.1 583.4 569.7 558.4 554.2 554.7 552.5 552.3 552.1 549.7 542.6 491.9 434.3 398.6 357.2 328.2 312.2 296.4 280.1 269.5 257.6 247.1 236.7 228.4 223.3 223 227.2 232.9 236.7 238.7 240.5 247 261.4 264.2 286.7 305.9 321.8 338.7 352.6 370.4 382.6 394.6 402.8 409.9 418.1 424.4 429.2 431.9 433.5 435.2 434.9 435.7 437.6 440.2 443.3 444.6
