ncols 200
nrows 86
xllcorner 180000
yllcorner 803250
cellsize 50
371.2 365.7 360.9 359.2 363.8 366.8 375 388.6 410.4 432.2 450.8 472.8 483.4 506.8 511.5 508.9 502.8 501.8 501.7 506.2 504.1 502.7 501.7 490.5 483.6 484.3 477.8 475.8 476.2 468.6 460.8 470.3 467.9 468.5 472.3 475.5 482.4 490.7 480.8 474.1 440.4 413 391.3 369.4 365.7 348.5 328.5 305.8 275.3 247 225.4 211.3 202.8 194 178.7 162 147.1 130.6 112.7 98.8 88.1 70.7 48.9 36.8 32.3 18.4 11.5 6.7 1.5 -1.8 -1.8 -1.8 -1.8 -1.8 -1.8 -1.8 -1.8 -1.8 -1.8 -1.8 -1.8 -1.8 -1.8 -1.8 -1.8 -1.8 -1.8 -1.8 -1.8 -1.8 -1.8 -1.8 -1.8 -1.8 -1.8 -1.8 -1.8 -1.8 -1.8 -1.8 -1.8 -1.8 -1.8 -1.8 -1.8 -1.8 -1.8 -1.8 -1.8 13.4 22.6 27.5 35.2 44.2 54.3 63.3 74.2 96.2 114.3 119.8 132.5 143.2 141.6 120.3 101.3 140.6 153.8 166 182.9 204.8 231.1 256.9 279.2 301.6 327.6 346.3 338.3 328 307.3 346.5 367.3 371.7 393.5 419.1 411.6 408.8 413 410.5 406.6 410.7 397 375.9 352.8 355.3 350.1 348 347.4 365.5 359.4 367 357.5 344.7 321.7 293.6 301.9 300 295.2 276.3 264.5 256.5 254.6 254.1 258 269.4 263.8 261.4 274.7 287.3 299.4 296.6 298.8 280.6 248.4 244.6 234.6 218.7 215.8 225.2 236.4 260.2 276.6 287.1 266.9 251.2 229.4 206.2 199.5 204.2 186 176.8
373.7 367 362.6 363.2 365.8 372.7 384.5 398.3 413.8 432.3 450.9 468 486.5 496 511.6 510.1 509.7 505.7 504.2 513.1 502.4 503.6 498.1 491.5 481.8 470.8 473.2 464.6 466.7 466.2 459.3 465.4 472.2 470.2 479.6 487.9 477.5 485.2 487.2 479.7 460.9 432.7 418.1 393 367.1 343.5 321.7 301.4 282 258.2 231.5 210.5 199 193.9 182.8 164 150.7 134.7 121.8 109.7 96.1 82.8 65.9 51.6 35 24.1 13.3 5.6 1.1 -1.8 -1.8 -1.8 -1.8 -1.8 -1.8 -1.8 -1.8 -1.8 -1.8 -1.8 -1.8 -1.8 -1.8 -1.8 -1.8 -1.8 -1.8 -1.8 -1.8 -1.8 -1.8 -1.8 -1.8 -1.8 -1.8 -1.8 -1.8 -1.8 -1.8 -1.8 -1.8 -1.8 -1.8 -1.8 -1.8 -1.8 -1.8 -1.8 -1.8 -1.8 -1.8 -1.8 -1.8 15.7 29 42.7 57.3 73.2 83.4 96.3 112.3 119.2 107.9 87.4 91.9 122.1 142.3 153.3 169.3 191.3 218.6 243.8 268.8 291.7 308.9 324.4 313.7 297.6 283.9 328.9 341.3 353.1 378 386.2 385.4 377 382.3 379.5 375.9 363.4 350.4 348.8 318.4 312.4 316.8 309.9 310.1 308 312.5 327.6 316.2 286.4 275.7 257.6 264.7 274.5 276.1 264.9 241.8 228.2 228 236.3 239.4 246 239.7 242.7 251.7 253.8 260 257.2 254.2 231.5 207.6 205.7 188.3 195.7 197.4 191.9 207.7 223.9 236.9 240.8 222.6 214.9 211.5 197.2 156.9 159.2 150.3 147.4
374.2 368.2 365.4 365.6 370.9 380 395.7 408.6 417.8 436.2 460 473.8 489 507.9 514.3 511.3 506 505.3 504.4 505.5 500.9 495.9 493.5 482.1 470.8 463.2 461.3 459.4 459.4 460.1 459.6 462.5 468.1 467.8 470.2 477.3 479.8 480.9 484.3 477.5 468.1 448.8 421.3 392.8 360.3 333 311.9 294.6 276.7 257.3 236.6 217.8 203.9 195 183 163.7 148.9 143.9 130.7 115 99.7 87.7 71.2 55.7 45.1 31.6 19.3 6.3 1 -1.8 -1.8 -1.8 -1.8 -1.8 -1.8 -1.8 -1.8 -1.8 -1.8 -1.8 -1.8 -1.8 -1.8 -1.8 -1.8 -1.8 -1.8 -1.8 -1.8 -1.8 -1.8 -1.8 -1.8 -1.8 -1.8 -1.8 -1.8 -1.8 -1.8 -1.8 -1.8 -1.8 -1.8 -1.8 -1.8 -1.8 -1.8 -1.8 -1.8 -1.8 -1.8 -1.8 -1.8 10 20.2 30.8 42.5 55.7 71.2 90.1 103.1 94.5 73.9 69.2 89.4 93.6 106.5 139 163.5 187.4 210.5 240.3 259.4 280.2 294.9 297.3 284.7 262 264.7 298.2 318.7 330.2 342 350.6 344.5 337.8 339.7 341.1 340.5 332.1 317.7 302.4 286.7 281.2 282.2 278.2 279.4 278.4 277.8 278.8 272.6 248.8 232.4 217 229.6 251.3 251 235.2 209.4 199.1 204.4 208.9 216.2 223.8 214.4 220.5 229.2 233.7 230.8 226.1 216.4 189.6 170.2 158.8 170.4 187.7 181.8 168.9 186.4 188.3 185.5 186.7 172.6 178.7 178 168.9 149.9 135.7 137.3 161.5
378.5 372.6 370.1 370.6 381.6 389.3 407.5 421.7 433.9 448 475.3 488.5 496.6 511.8 522.3 519.8 510 512.5 507.6 503.9 498.2 494.5 486.1 483.2 477.7 468.7 467 460.9 462.9 465.9 462.8 463.5 465.6 466.1 466.7 468 469 471.1 468.5 468.3 468.8 455.3 435.9 404.8 370.7 343.3 317.5 297.4 275.1 255.4 235.5 224.9 219.8 203.4 183.4 175.2 164.4 149.3 137.1 120.1 105.5 91.7 78.1 63.5 50.1 36.6 23.6 9.6 2.2 -1.8 -1.8 -1.8 -1.8 -1.8 -1.8 -1.8 -1.8 -1.8 -1.8 -1.8 -1.8 -1.8 -1.8 -1.8 -1.8 -1.8 -1.8 -1.8 -1.8 -1.8 -1.8 -1.8 -1.8 -1.8 -1.8 -1.8 -1.8 -1.8 -1.8 -1.8 -1.8 -1.8 -1.8 -1.8 -1.8 -1.8 -1.8 -1.8 -1.8 -1.8 -1.8 -1.8 -1.8 -1.8 -1.8 11.7 20.9 36.3 55.1 68.4 69.3 58.3 49.3 61.9 69.7 83.7 113.8 148.2 178.1 200.2 217.1 232 255 275.9 286.2 287.2 265.1 229.8 246.8 279.2 291.6 299.1 301 304 306.9 311.7 308 303.9 302.8 303.3 291.8 274.3 259.8 251.8 253.7 256.8 253.7 245.1 240 233.9 225 204.1 191.4 187.7 189.9 206.8 208.4 192.8 175.8 174.1 187.4 188.6 190.1 186.4 195.2 204.5 213.8 219.8 212.8 204.4 177.1 149.2 137.2 143.1 151.3 151.6 146.8 141 152.4 154.6 144.3 143.6 147.1 150.9 149.5 141 130.6 115.7 129.7 153.7
384.5 381.1 381.7 381.9 396.1 405.8 424 434.8 449.8 456.9 476.4 489.6 495.6 513.2 522.3 516.9 508.6 501.4 501.7 493.6 488.8 488.8 484.2 480.6 471.7 472.3 472.7 462.9 469.5 480.5 472.7 473.6 474.2 477.2 472.2 471.5 472.1 477 478.6 477.6 475.4 470.9 457.1 431.9 399.2 365.4 335.3 308.5 282.7 260.6 240.5 230.8 224 209.6 202.8 190.1 176.9 153.6 141.6 128 113.1 99 84.6 68.1 54.2 41.2 28 14.7 4.2 -1.8 -1.8 -1.8 -1.8 -1.8 -1.8 -1.8 -1.8 -1.8 -1.8 -1.8 -1.8 -1.8 -1.8 -1.8 -1.8 -1.8 -1.8 -1.8 -1.8 -1.8 -1.8 -1.8 -1.8 -1.8 -1.8 -1.8 -1.8 -1.8 -1.8 -1.8 -1.8 -1.8 -1.8 -1.8 -1.8 -1.8 -1.8 -1.8 -1.8 -1.8 -1.8 -1.8 -1.8 -1.8 -1.8 -1.8 -1.8 -1.8 17.9 31.7 32.9 33.7 36.8 43.2 67.1 89.8 107.6 125.3 152.6 176 192.3 211.7 232.4 249.9 261.1 256.5 235.6 202.7 238.4 264.7 268.8 273.3 277.6 280.7 275.3 276.8 278.2 275.2 271.6 265.5 258.4 243.3 235 220.2 224.4 226.7 230.3 221 203.9 203.6 194 191.6 172.8 161.1 155.5 157.6 155.8 144.9 139.6 147.8 160.8 165.5 168.1 165.7 175.6 182.8 179.6 188.5 183.2 172.1 140.5 120.7 118.1 123.7 124.8 124.4 117.6 112.6 114.6 118.1 127.4 131.8 136.1 138.1 122.8 115.8 109.9 105.6 143 156.7
391.8 393.9 413.2 406.9 411.5 428.1 448 451.6 461.5 467.6 478.6 487.6 487.8 496.8 511.2 504.3 490.7 483.9 491 487.2 481.2 482.2 473.1 466.8 466.4 467.6 468.7 467.3 467.3 478.4 478.4 476.8 481.9 483.6 482.8 476.1 476.5 475.8 474.3 470.2 468.4 461.5 449.7 427.8 403.3 377.6 347.1 320.2 297.7 276.7 257.9 240.4 226.4 229 212.7 199.8 188.8 169.9 151.6 137.8 122.2 107.4 91.3 73.8 60 46.9 32.5 19 8.7 1 -1.8 -1.8 -1.8 -1.8 -1.8 -1.8 -1.8 -1.8 -1.8 -1.8 -1.8 -1.8 -1.8 -1.8 -1.8 -1.8 -1.8 -1.8 -1.8 -1.8 -1.8 -1.8 -1.8 -1.8 -1.8 -1.8 -1.8 -1.8 -1.8 -1.8 -1.8 -1.8 -1.8 -1.8 -1.8 -1.8 -1.8 -1.8 -1.8 -1.8 -1.8 -1.8 -1.8 -1.8 -1.8 -1.8 -1.8 -1.8 -1.8 2.1 10.8 20.4 31.7 43 58.3 72.4 84.3 103.3 134.1 167.9 191.3 219.6 237 250.3 255 244.9 218.3 178.5 214.3 245.8 253.4 252 251 251 255.9 259.9 257.7 244.5 241.3 241.5 227.3 209.3 197.8 189 190.4 196.6 202.4 185.8 177.9 175.7 171.7 166.8 149.2 133.6 129 125.5 113.4 109.5 112.3 118.3 135.2 139.8 139.2 143 148.4 157.2 145.8 145.1 131.3 114 109.3 100.3 104.4 113.5 103.9 97.3 98 106 103.6 111.6 112.3 120.8 122.8 110.7 94.7 92.1 83 124.9 151.3 146.7
409.8 418 427.5 421.1 427.1 446 466.4 474.9 483.3 493.5 486.4 482.1 479.9 477.7 476.8 485 481.1 479.7 481.7 479 478.5 471.5 463.3 461.3 469 465.6 468.2 468.2 469.9 469.2 476 479.7 485.1 484.1 480.5 480.2 482 477.6 470.2 464.4 456.9 439.1 437.1 420.9 399 383.5 357.6 333.1 310.3 286.8 273.7 250.3 237.8 236.5 221.1 208.9 201.2 188.3 168.3 152.3 135.1 118.8 100.8 83.7 67.8 52.8 37.3 22.7 9.8 3.1 -1.8 -1.8 -1.8 -1.8 -1.8 -1.8 -1.8 -1.8 -1.8 -1.8 -1.8 -1.8 -1.8 -1.8 -1.8 -1.8 -1.8 -1.8 -1.8 -1.8 -1.8 -1.8 -1.8 -1.8 -1.8 -1.8 -1.8 -1.8 -1.8 -1.8 -1.8 -1.8 -1.8 -1.8 -1.8 -1.8 -1.8 -1.8 -1.8 -1.8 -1.8 -1.8 -1.8 -1.8 -1.8 -1.8 -1.8 -1.8 -1.8 -1.8 5.6 11.6 23.1 35 51.9 67.3 87.9 114.1 147.5 185.3 202.8 222.2 236.6 244.2 231.2 222.8 192.6 163.9 203.3 237.4 265 261.9 255 251.1 254.3 256.5 253.7 246.9 234.1 216.7 198.5 177.6 169.3 156.7 151.2 154.8 152.2 142.4 141.4 144 145.1 136.7 120.7 109.9 105.2 98.9 86.4 81.8 81.3 88 97.7 108.2 107.8 115 118.8 118.4 113.5 106.4 85.9 74.8 70.1 81.6 98.2 102.8 94.4 93.9 94.5 93.6 87.9 87 98.3 100.8 97.2 88.1 83.5 66 88.5 117.3 126.3 127.9
434.1 435.8 437.9 446.1 452.6 471.7 486.1 482.1 487.2 486.3 483.3 479.4 472.1 471.6 465.4 457.6 457.1 460.8 469.4 469.3 465.3 461.7 456 453.6 454.4 458.3 462 462.7 469.3 473.9 481.6 484.1 477.4 476 475.5 474.2 473.1 472.8 470.9 469.5 468.4 442 403.6 386.3 376.1 368.9 352 333.6 314.1 294.5 275.1 263.3 252.5 240.9 229.2 218.6 210.6 200.3 181.9 172.6 153.2 129.8 110.6 93.9 76.8 64.4 43.4 27.2 14.2 7 -1.8 -1.8 -1.8 -1.8 -1.8 -1.8 -1.8 -1.8 -1.8 -1.8 -1.8 -1.8 -1.8 -1.8 -1.8 -1.8 -1.8 -1.8 -1.8 -1.8 -1.8 -1.8 -1.8 -1.8 -1.8 -1.8 -1.8 -1.8 -1.8 -1.8 -1.8 -1.8 -1.8 -1.8 -1.8 -1.8 -1.8 -1.8 -1.8 -1.8 -1.8 -1.8 -1.8 -1.8 -1.8 -1.8 -1.8 -1.8 -1.8 -1.8 3.3 11.2 21 33.9 47.2 66.3 87.5 107.3 134.9 169.4 190.3 202.9 206.9 214.9 206.2 198.8 167.3 149.6 188.5 206.8 229.6 246.9 244.1 238.8 236.4 231.9 232.5 223.7 206.8 206 192.9 175.8 151.2 130.6 124.1 119.8 114.5 109.6 108.3 112.5 111.7 105.6 96.9 84.8 81.7 75.2 65.5 61.6 54.8 57.8 71.3 77.4 85.4 88.2 93 90.6 78.8 60.7 54.9 53.5 49.9 59.3 77.9 90.2 86 75.5 86.8 78 70.2 72.1 74.7 84.2 76.3 80.3 55.7 63.9 67.5 100.7 106 90.6
459.2 468.7 470.1 475.3 473.6 484.5 488.6 487.2 483.6 484.9 478.4 473 466.3 458.4 453.7 448.2 451 451.9 453.3 457.8 457.7 452.8 451.6 451.6 451.6 456.8 459 472.6 486.7 488.9 486.8 486.1 482.3 481.9 491.7 496.9 495.1 484.9 479.8 484.4 475.6 458.2 431.4 407.3 390.8 358.6 343.2 327.1 309.6 308.1 292.9 275.9 262.9 250.3 237.7 229 218.4 203.5 185.8 175.4 159.1 136.1 119.5 101.8 82.7 63.1 45.3 31.9 22.7 11.9 2.6 -1.8 -1.8 -1.8 -1.8 -1.8 -1.8 -1.8 -1.8 -1.8 -1.8 -1.8 -1.8 -1.8 -1.8 -1.8 -1.8 -1.8 -1.8 -1.8 -1.8 -1.8 -1.8 -1.8 -1.8 -1.8 -1.8 -1.8 -1.8 -1.8 -1.8 -1.8 -1.8 -1.8 -1.8 -1.8 -1.8 -1.8 -1.8 -1.8 -1.8 -1.8 -1.8 -1.8 -1.8 -1.8 -1.8 -1.8 -1.8 -1.8 -1.8 16.5 27.2 38.9 50.3 70.2 91 111.3 127.3 152.8 168.9 174.9 174.1 178.5 176.1 175.1 146.1 134.1 169.5 184.2 195.6 208.6 208.9 204 197.6 191.1 184.1 174.7 176.6 178.8 168 149.7 138.8 118.1 101.4 96.8 94.3 90.9 88.4 90.1 90 86.4 74.8 61.8 57 52.7 38.3 30 30.3 31.7 37.8 47.3 56.8 60 66.7 56.7 41.3 42.6 43.3 38.7 44.9 54.1 66.8 69.8 61.7 51.1 77.4 66.6 57.2 60.7 59.7 61.5 78.1 55.4 32.2 38.5 59.8 95.8 88.2 65.9
508 508.5 497.9 490.7 491.5 494.3 491.1 491.4 483.3 478.8 471.2 465 456.7 448.9 442.5 437.2 437.9 440.3 447.5 454.2 453.8 452.4 451.7 451.6 451.4 456.9 463.1 482 490.8 495.6 492.1 488.2 494 491.4 497.3 504.5 507.8 498.1 494.3 500.5 495 474.4 447.6 421.5 399.6 379.3 360.9 346.3 333.9 319.4 304.7 288.3 279.4 263.7 252.2 240.6 225.2 207.1 191.9 176 162.6 145.2 134.6 108.7 87.2 65.6 51.3 42.3 33 19.7 7.7 -1.8 -1.8 -1.8 -1.8 -1.8 -1.8 -1.8 -1.8 -1.8 -1.8 -1.8 -1.8 -1.8 -1.8 -1.8 -1.8 -1.8 -1.8 -1.8 -1.8 -1.8 -1.8 -1.8 -1.8 -1.8 -1.8 -1.8 -1.8 -1.8 -1.8 -1.8 -1.8 -1.8 -1.8 -1.8 -1.8 -1.8 -1.8 -1.8 -1.8 -1.8 -1.8 -1.8 -1.8 -1.8 -1.8 -1.8 -1.8 -1.8 -1.8 6.9 12.2 32.4 46.9 66.3 99.5 122.1 147.5 146.8 142.8 148.7 145.2 148.2 140.9 138.4 118 117.4 144.9 164.3 171.8 180.1 177.4 173.4 163.3 152.8 148 136.7 143.4 148.6 143.4 136.6 114.7 96.1 82 78.8 72.6 69.1 69.9 75.2 71.4 68.5 59.2 45.2 42.6 35.2 25.8 17.2 12.9 14.5 26.6 29.9 24.9 20.5 17.8 16.5 28.2 32.6 38 50.8 62.1 61.4 58.7 52.9 43.5 37.3 63.4 56.6 39.1 38.4 35.7 48.7 53 26.8 17 18.9 47.2 57.5 60.8 38.5
533 523.5 510.8 504 500 496.9 493 489.1 482.1 472.4 464.9 455.4 445.7 436.3 431.4 429 427.1 426.4 435.4 439.6 443.8 445.5 450.7 456.2 458.3 463.9 475.9 484.2 493.4 498.3 497.9 499.9 506.8 506.4 499.7 509 508.8 506.9 506.9 517.7 515 497.2 469.4 437.9 418.1 394.6 373.4 355.7 342.3 332.6 318.5 305.8 295.4 277.4 265.8 252.7 235.7 220.1 200 180.3 169.9 156.8 140.7 120.6 99 77.9 66.5 57.5 48.7 33.6 15.7 4.6 2.1 -1.8 -1.8 -1.8 -1.8 -1.8 -1.8 -1.8 -1.8 -1.8 -1.8 -1.8 -1.8 -1.8 -1.8 -1.8 -1.8 -1.8 -1.8 -1.8 -1.8 -1.8 -1.8 -1.8 -1.8 -1.8 -1.8 -1.8 -1.8 -1.8 -1.8 -1.8 -1.8 -1.8 -1.8 -1.8 -1.8 -1.8 -1.8 -1.8 -1.8 -1.8 -1.8 -1.8 -1.8 -1.8 -1.8 -1.8 -1.8 -1.8 -1.8 12.1 25.2 52.8 88.7 122.3 153.6 153.2 131.2 124.8 117.9 117.5 104.1 100.8 89.1 102.2 123.1 141.9 157.5 153.5 143.6 128.1 126.3 120.4 110.8 107.8 113.2 115.2 115.6 109.9 89.1 77.4 67.7 60.3 50.8 43.9 43.6 42 41.2 29 17.4 10.5 11.1 11.5 12.7 9.1 -1.8 -1.8 -1.8 4.5 -1.8 -1.8 3.3 8.9 24.6 26.1 39.6 70.6 70.9 53.3 38.6 35 22.8 25.6 41.5 40.9 23.4 24.8 28.7 25.6 16.7 8.1 6.3 4.5 10.3 22.9 25.9 -1.8
545.5 536.7 520.1 513 508.5 503.3 498 491 480.9 472.4 464 453.1 439.8 428.3 421.8 418.5 417.6 420.3 424.8 429.8 432.7 439.8 449.6 454.8 464.4 477.3 492.3 493.6 499.5 503 507 511.5 513.5 513.5 508.8 517.9 527.2 533.8 530 544.1 532.1 512.6 485.5 457.4 435.5 411.7 394 376 359 343.5 332.4 323.1 311.6 296.3 276 262.8 252.5 236.3 215.4 201.7 190.4 167.2 152.6 134 113.6 96.9 86.4 80.5 71.8 54.6 33.9 22 24 25.5 18.6 7.8 0.8 -1.8 -1.8 -1.8 -1.8 -1.8 -1.8 -1.8 -1.8 -1.8 -1.8 -1.8 -1.8 -1.8 -1.8 -1.8 -1.8 -1.8 -1.8 -1.8 -1.8 -1.8 -1.8 -1.8 -1.8 -1.8 -1.8 -1.8 -1.8 -1.8 -1.8 -1.8 -1.8 -1.8 -1.8 -1.8 -1.8 -1.8 -1.8 -1.8 -1.8 -1.8 -1.8 -1.8 -1.8 -1.8 -1.8 -1.8 15.7 46.1 79.5 112.8 133.1 134.1 103.9 97.2 86.2 79.4 70.1 66.7 70.2 79.8 92 108.2 110.7 109.1 98.2 91.7 92.7 90.2 80.2 88.1 85.8 87.4 87.2 79.7 64.4 54.7 54.3 42.4 30.2 14.2 -1.8 -1.8 -1.8 -1.8 -1.8 -1.8 -1.8 -1.8 -1.8 -1.8 -1.8 -1.8 -1.8 -1.8 -1.8 -1.8 1.6 5.3 11.7 16.7 28.2 37.1 49.4 38.4 28 18.3 9.5 8.4 -1.8 13.5 6.3 -1.8 6.1 7.9 -1.8 -1.8 -1.8 -1.8 -1.8 -1.8 -1.8 -1.8
570 559.2 548.6 535 522.2 514.2 506.3 493.9 485.7 476.4 467.1 450.8 435.4 421.7 411.4 407.8 407.4 415.8 415.7 416.5 419.9 432.7 447.8 458.6 465.7 481.6 498.8 503.2 507.6 514.2 521.6 524.2 523.4 526.1 525.2 524.9 534.3 539.9 541.3 550.9 544.3 530.2 506 477.5 454.5 431.1 413.9 395.8 381.5 363.6 349.8 338.7 325 306.5 291.1 282 276.4 254.4 242 224.6 210.2 189.2 167 150.7 135.2 118.6 106.9 102.5 101.6 82.5 52.2 35.6 36.8 40.7 28.6 11 1.6 -1.8 -1.8 -1.8 -1.8 -1.8 -1.8 -1.8 -1.8 -1.8 -1.8 -1.8 -1.8 -1.8 -1.8 -1.8 -1.8 -1.8 -1.8 -1.8 -1.8 -1.8 -1.8 -1.8 -1.8 -1.8 -1.8 -1.8 -1.8 -1.8 -1.8 -1.8 -1.8 -1.8 -1.8 -1.8 -1.8 -1.8 -1.8 -1.8 -1.8 -1.8 -1.8 -1.8 -1.8 -1.8 -1.8 -1.8 -1.8 17.6 53.1 83 103.1 100.1 69.6 59.9 50.3 47.8 40.7 44 52.3 53.1 64.7 77.5 77 78.6 80.5 69.9 66.6 68.1 68.5 68.9 62.7 63.9 56.9 41.8 34.3 40.4 39.2 26.6 -1.8 -1.8 -1.8 -1.8 -1.8 -1.8 -1.8 -1.8 -1.8 -1.8 -1.8 -1.8 -1.8 -1.8 -1.8 -1.8 -1.8 -1.8 4.2 9.9 15.3 10.5 14.8 15.1 17.5 13 9.2 5.4 11.7 -1.8 -1.8 -1.8 -1.8 -1.8 -1.8 -1.8 -1.8 -1.8 -1.8 -1.8 -1.8 -1.8 -1.8 -1.8
601.7 588.1 570.1 550.8 540.6 532.5 517.1 499.8 491 481.5 466.9 447.4 429.6 414 402.9 397.5 398.8 408.6 407.3 407.9 415.1 429.7 449.5 463.9 471.2 486.4 507.8 518.8 526.8 531.5 535.8 538.4 537.1 539.4 537.3 531.3 541.5 543.1 555.5 569.4 585.8 562.1 530 504.6 480.9 461.3 441.4 424 408.2 390.1 369.2 348.4 340.5 326 309.2 303.4 287.1 282.1 271 244.5 220.8 203.7 189.6 174.7 162.4 142.9 132.4 121.5 117.6 103.4 68.9 46.6 46.3 38 23.1 10.3 1.6 -1.8 -1.8 -1.8 -1.8 -1.8 -1.8 -1.8 -1.8 -1.8 -1.8 -1.8 -1.8 -1.8 -1.8 -1.8 -1.8 -1.8 -1.8 -1.8 -1.8 -1.8 -1.8 -1.8 -1.8 -1.8 -1.8 -1.8 -1.8 -1.8 -1.8 -1.8 -1.8 -1.8 -1.8 -1.8 -1.8 -1.8 -1.8 -1.8 -1.8 -1.8 -1.8 -1.8 -1.8 -1.8 -1.8 -1.8 -1.8 -1.8 -1.8 29.3 55.1 64 37.7 23.4 19.1 22.1 24.2 33.6 32.1 24.4 26.4 36.7 40.5 51.3 59.7 54.7 57.7 60.4 61 51.3 45.5 31.1 22.4 16.4 8.6 -1.8 -1.8 -1.8 -1.8 -1.8 -1.8 -1.8 -1.8 -1.8 -1.8 -1.8 -1.8 -1.8 -1.8 -1.8 -1.8 -1.8 -1.8 -1.8 -1.8 10.5 20.3 21.1 48.3 58.7 33.7 21.6 22.3 13.1 4.8 -1.8 -1.8 -1.8 -1.8 -1.8 -1.8 -1.8 -1.8 -1.8 -1.8 -1.8 -1.8 -1.8 -1.8 -1.8 -1.8 -1.8
615 597 582.3 570.8 564.1 541.8 536.1 516.1 494.8 480.2 457.1 440.7 419.5 404.1 393.8 387.8 389.2 392.5 396.6 402.5 414.7 428.4 445.1 459.7 477 492 512.3 537.4 546.3 549 552.5 556.7 561.9 558.1 547.2 542 555.2 565.4 565.4 569.8 589.1 574.7 551.3 532.9 511.9 489.8 466.2 448.3 434 408.7 380.3 367.2 356.1 351.3 332.9 311 306.3 289.2 277.6 254 232.3 220.4 211.6 201.3 192.2 170.2 159.4 136.5 122.5 102 84.3 64.5 50.3 37.4 20.2 7 -1.8 -1.8 -1.8 -1.8 -1.8 -1.8 -1.8 -1.8 -1.8 -1.8 -1.8 -1.8 -1.8 -1.8 -1.8 -1.8 -1.8 -1.8 -1.8 -1.8 -1.8 -1.8 -1.8 -1.8 -1.8 -1.8 -1.8 -1.8 -1.8 -1.8 -1.8 -1.8 -1.8 -1.8 -1.8 -1.8 -1.8 -1.8 -1.8 -1.8 -1.8 -1.8 -1.8 -1.8 -1.8 -1.8 -1.8 -1.8 -1.8 -1.8 -1.8 -1.8 22.6 39.1 10.6 4.2 4.8 9.3 13.4 14.6 7.2 5.3 7.9 13.1 26.9 42.3 41.6 35.5 46.3 42.8 39.1 29.3 27.7 12.7 -1.8 -1.8 -1.8 -1.8 -1.8 -1.8 -1.8 -1.8 -1.8 -1.8 -1.8 -1.8 -1.8 -1.8 -1.8 -1.8 -1.8 -1.8 -1.8 -1.8 -1.8 -1.8 -1.8 2.3 4.4 37.1 39.5 57 44.8 30.1 15.9 6.9 -1.8 -1.8 -1.8 -1.8 -1.8 -1.8 -1.8 -1.8 -1.8 -1.8 -1.8 -1.8 -1.8 -1.8 -1.8 -1.8 -1.8 -1.8
629.5 610.8 594.5 588.1 570.7 548.9 530.6 511.1 490 467.5 444.9 422.1 404 390.9 381.8 377.4 377.8 380.6 386.9 401.9 416.8 431.9 446.3 462.8 483.3 504.3 519.9 540.2 555.7 559.6 566.7 571 578 571.2 561 557.1 560.6 579.5 577.9 579.6 589.6 576.6 557.3 540.4 520.8 499.7 477.8 459.7 441.2 412.1 401.1 382 369.6 363.4 343.7 336.6 329.7 305.7 281.2 258.1 245 238.2 235.4 219.5 206.5 187.4 164.4 142.7 118.4 97.2 82.9 73.9 54.8 39.3 18.9 3.2 -1.8 -1.8 -1.8 -1.8 -1.8 -1.8 -1.8 -1.8 -1.8 -1.8 -1.8 -1.8 -1.8 -1.8 -1.8 -1.8 -1.8 -1.8 -1.8 -1.8 -1.8 -1.8 -1.8 -1.8 -1.8 -1.8 -1.8 -1.8 -1.8 -1.8 -1.8 -1.8 -1.8 -1.8 -1.8 -1.8 -1.8 -1.8 -1.8 -1.8 -1.8 -1.8 -1.8 -1.8 -1.8 -1.8 -1.8 -1.8 -1.8 -1.8 -1.8 -1.8 8.7 9.8 -1.8 -1.8 -1.8 -1.8 3 1.3 2.4 3.9 5.9 8.3 14.5 19.5 12.8 27.8 27.3 24.6 16 -1.8 -1.8 -1.8 -1.8 -1.8 -1.8 -1.8 -1.8 -1.8 -1.8 -1.8 -1.8 -1.8 -1.8 -1.8 -1.8 -1.8 -1.8 -1.8 -1.8 -1.8 -1.8 -1.8 -1.8 -1.8 -1.8 1.3 3.5 7 30.4 37.6 26.4 25.6 8.5 -1.8 -1.8 -1.8 -1.8 -1.8 -1.8 -1.8 -1.8 -1.8 -1.8 -1.8 -1.8 -1.8 -1.8 -1.8 -1.8 -1.8 -1.8 -1.8
636.7 616 598.6 574.2 553 531.4 511.2 494.2 477.1 450.3 426.2 403.9 388.2 376.1 368.6 365.7 365 368.2 380.9 398 417.7 438.2 449.7 468.3 490.2 512.4 530.5 543.2 557.4 566.7 577.2 576.9 579.6 574 572.2 570.4 567.6 575 579.7 590.2 595.6 580.5 563.3 547.5 527.2 504.5 483.4 465.3 446.6 428.5 412.4 394.5 381.2 366 350.4 352.1 350.6 325.9 302.1 281.1 268.1 255.5 242.5 226.9 209.3 188.7 161.3 135.1 114.5 93.2 74.4 67.8 57.3 39.8 22.3 2.3 -1.8 -1.8 -1.8 -1.8 -1.8 -1.8 -1.8 -1.8 -1.8 -1.8 9.5 -1.8 -1.8 -1.8 -1.8 -1.8 -1.8 -1.8 -1.8 -1.8 -1.8 -1.8 -1.8 -1.8 -1.8 -1.8 -1.8 -1.8 -1.8 -1.8 -1.8 -1.8 -1.8 -1.8 -1.8 -1.8 -1.8 -1.8 -1.8 -1.8 -1.8 -1.8 -1.8 -1.8 -1.8 -1.8 -1.8 -1.8 -1.8 -1.8 -1.8 -1.8 -1.8 -1.8 -1.8 -1.8 -1.8 -1.8 -1.8 -1.8 -1.8 2.1 4.2 2.3 2.4 2.5 14.3 15.6 14.8 11.5 -1.8 -1.8 -1.8 -1.8 -1.8 -1.8 -1.8 -1.8 -1.8 -1.8 -1.8 -1.8 -1.8 -1.8 -1.8 -1.8 -1.8 -1.8 -1.8 -1.8 -1.8 -1.8 -1.8 -1.8 -1.8 -1.8 -1.8 0.3 2.5 9.7 18.9 20.7 11 7.3 -1.8 -1.8 -1.8 -1.8 -1.8 -1.8 -1.8 -1.8 -1.8 -1.8 -1.8 -1.8 -1.8 -1.8 -1.8 -1.8 -1.8 -1.8 -1.8 -1.8
619.7 601.6 578.9 553 530.7 501.4 477.9 461.9 452.7 436.6 412.5 391.7 374.7 362 356 353.2 353.3 363.8 377.5 395.1 418.4 441.5 456 475.1 494.7 523.7 547.6 558.3 573.8 587.4 591.9 593.1 587.8 590.6 591 586.6 584.6 582.4 597.2 606.5 600.6 584.9 562.2 546.1 527.6 507.8 490.4 471.9 454.9 436.9 419.4 399.4 389.7 381 368.6 367.2 357.2 342.3 319.5 301.5 290.6 272.7 246 225.9 203.6 180.5 154.8 134.2 112.3 91.3 74.4 62 53.1 36.6 21.6 3.6 -1.8 -1.8 -1.8 -1.8 -1.8 -1.8 -1.8 -1.8 -1.8 -1.8 15.1 10 -1.8 -1.8 -1.8 -1.8 -1.8 -1.8 -1.8 -1.8 -1.8 -1.8 -1.8 -1.8 -1.8 -1.8 -1.8 -1.8 -1.8 -1.8 -1.8 -1.8 -1.8 -1.8 -1.8 -1.8 -1.8 -1.8 -1.8 -1.8 -1.8 -1.8 -1.8 -1.8 -1.8 -1.8 -1.8 -1.8 -1.8 -1.8 -1.8 -1.8 -1.8 -1.8 -1.8 -1.8 -1.8 -1.8 -1.8 -1.8 -1.8 -1.8 2.4 3.2 2.3 1.2 -1.8 -1.8 -1.8 -1.8 -1.8 -1.8 -1.8 -1.8 -1.8 -1.8 -1.8 -1.8 -1.8 -1.8 -1.8 -1.8 -1.8 -1.8 -1.8 -1.8 -1.8 -1.8 -1.8 -1.8 -1.8 -1.8 -1.8 -1.8 -1.8 -1.8 -1.8 -1.8 1.3 3.2 4.9 5.9 4.8 3.4 -1.8 -1.8 -1.8 -1.8 -1.8 -1.8 -1.8 -1.8 -1.8 -1.8 -1.8 -1.8 -1.8 -1.8 -1.8 -1.8 -1.8 -1.8 -1.8 -1.8
590 571.4 549.9 521.4 501.8 472.2 448.8 429.6 418.5 407.4 391.3 374.3 359.9 349.7 345 342.3 347.8 360.6 373.8 392.4 420.9 441.6 456 469.9 502.9 533.4 557.9 578.6 588.7 604.6 604.1 603.4 604.4 603.8 608.9 607.5 603 601.4 622.8 619.2 606.1 587.2 567.5 546.9 529.7 516.4 495.4 476.4 460.2 442 425.3 412.5 398 388.5 384.1 374.7 363.2 349.1 323.7 315.4 300.9 273.7 245.6 222.7 200.9 177.4 153.8 134.3 112.9 92 74.8 62.9 49.9 32.5 17.4 4.8 -1.8 -1.8 -1.8 -1.8 -1.8 -1.8 -1.8 -1.8 -1.8 -1.8 -1.8 13.1 2.7 0.5 -1.8 -1.8 -1.8 -1.8 -1.8 -1.8 -1.8 -1.8 -1.8 -1.8 -1.8 -1.8 -1.8 -1.8 -1.8 -1.8 -1.8 -1.8 -1.8 -1.8 -1.8 -1.8 -1.8 -1.8 -1.8 -1.8 -1.8 -1.8 -1.8 -1.8 -1.8 -1.8 -1.8 -1.8 -1.8 -1.8 -1.8 -1.8 -1.8 -1.8 -1.8 -1.8 -1.8 -1.8 -1.8 -1.8 -1.8 -1.8 9.5 15 8.6 -1.8 -1.8 -1.8 -1.8 -1.8 -1.8 -1.8 -1.8 -1.8 -1.8 -1.8 -1.8 -1.8 -1.8 -1.8 -1.8 -1.8 -1.8 -1.8 -1.8 -1.8 -1.8 -1.8 -1.8 -1.8 -1.8 -1.8 -1.8 -1.8 -1.8 -1.8 -1.8 -1.8 0.2 2 3.1 3.6 3.1 -1.8 -1.8 -1.8 -1.8 -1.8 -1.8 -1.8 -1.8 -1.8 -1.8 -1.8 -1.8 -1.8 -1.8 -1.8 -1.8 -1.8 -1.8 -1.8 -1.8 -1.8
563.6 542.8 524.1 497.9 470.6 445.3 422.2 400.2 386.7 377.1 365.6 354.9 345 338.3 334.8 335 342.1 356.8 369.9 388.8 407.9 427.5 444.4 478.6 503.5 530.2 565.4 591.1 598.4 609.3 612.3 618.3 627.6 629 634.3 633 624.8 619.4 627.6 623.3 611.3 589.5 576.3 553.7 535.4 520.9 496.1 481.1 463.3 443.8 435.8 422.2 407.1 396.5 388.5 375.9 366.4 354.4 329.9 321.4 297.2 269.5 245.1 220.7 197.5 174.8 153.3 135.1 115.8 95.3 76.7 64 49.3 34 18.9 8.3 1.6 -1.8 -1.8 -1.8 -1.8 -1.8 -1.8 -1.8 -1.8 -1.8 -1.8 -1.8 5.5 0.8 -1.8 -1.8 -1.8 -1.8 -1.8 -1.8 -1.8 -1.8 -1.8 -1.8 -1.8 -1.8 -1.8 -1.8 -1.8 -1.8 -1.8 -1.8 -1.8 -1.8 -1.8 -1.8 -1.8 -1.8 -1.8 -1.8 -1.8 -1.8 -1.8 -1.8 -1.8 -1.8 -1.8 -1.8 -1.8 -1.8 -1.8 -1.8 -1.8 -1.8 -1.8 -1.8 -1.8 -1.8 -1.8 -1.8 -1.8 -1.8 -1.8 -1.8 -1.8 -1.8 -1.8 -1.8 -1.8 -1.8 -1.8 -1.8 -1.8 -1.8 -1.8 -1.8 -1.8 -1.8 -1.8 -1.8 -1.8 -1.8 -1.8 -1.8 -1.8 -1.8 -1.8 -1.8 -1.8 -1.8 -1.8 -1.8 -1.8 -1.8 -1.8 -1.8 -1.8 -1.8 -1.8 0.3 1.9 2.4 -1.8 -1.8 -1.8 -1.8 -1.8 -1.8 -1.8 -1.8 -1.8 -1.8 -1.8 -1.8 -1.8 -1.8 -1.8 -1.8 -1.8 -1.8 -1.8 -1.8 -1.8 -1.8
543.1 524.1 495.7 475.7 449.4 423.6 400.9 384.8 372.6 359.1 347.4 338.8 332.3 328.6 326.6 332.1 340.8 354.2 367.9 382.6 399 423.4 444.2 473.6 499.5 521.1 560.3 584.8 598.4 607.4 617.6 623.5 638.9 645.4 653.4 651.4 641.6 628.7 626 626.4 618.7 597.3 575.6 558.9 539.9 522 503.5 485.2 462.4 455.3 445.4 433.9 419.8 402.8 391.8 379.2 368.3 358.9 334.9 321.5 291.5 265.7 242.2 216.9 194.9 173.5 154 137.4 120.8 101.4 82 69.2 50.4 35.8 21.6 10.9 3.8 -1.8 -1.8 -1.8 -1.8 -1.8 -1.8 -1.8 -1.8 -1.8 -1.8 -1.8 2.4 0.8 -1.8 -1.8 -1.8 -1.8 -1.8 -1.8 -1.8 -1.8 -1.8 -1.8 -1.8 -1.8 -1.8 -1.8 -1.8 -1.8 -1.8 -1.8 -1.8 -1.8 -1.8 -1.8 -1.8 -1.8 -1.8 -1.8 -1.8 -1.8 -1.8 -1.8 -1.8 -1.8 -1.8 -1.8 -1.8 -1.8 -1.8 -1.8 -1.8 -1.8 -1.8 -1.8 -1.8 -1.8 -1.8 -1.8 -1.8 -1.8 -1.8 -1.8 -1.8 -1.8 -1.8 -1.8 -1.8 -1.8 -1.8 -1.8 -1.8 -1.8 -1.8 -1.8 -1.8 -1.8 -1.8 -1.8 -1.8 -1.8 -1.8 -1.8 -1.8 -1.8 -1.8 -1.8 -1.8 -1.8 -1.8 -1.8 -1.8 -1.8 -1.8 -1.8 -1.8 -1.8 -1.8 -1.8 0.1 0.6 -1.8 -1.8 -1.8 -1.8 -1.8 0.6 -1.8 -1.8 -1.8 -1.8 -1.8 -1.8 -1.8 -1.8 -1.8 -1.8 -1.8 -1.8 -1.8 -1.8 -1.8 -1.8
553.2 530.7 499.3 469.2 443 413.9 395.1 377.5 360.8 348.4 339.3 332 325.7 322.7 325.9 335.4 345 356.4 375.2 391.6 405.1 421 441.8 465.9 484.8 516.7 542.3 564.9 585.1 605 615.4 624.9 638.8 660.5 663.9 664 651.9 637.4 633.1 631 616.9 599 581.3 560.9 543.3 528.3 511.7 490.7 482.7 470.8 464.1 455.1 441.9 422.1 400.2 381.8 368.4 354.5 341.8 319 290.9 268.9 245.4 219.6 194.9 175.4 155.8 140.8 123.8 106.3 87.6 74.9 56.5 41.5 32.3 17 6.3 -1.8 -1.8 -1.8 -1.8 -1.8 -1.8 -1.8 -1.8 -1.8 -1.8 -1.8 2.9 4.1 -1.8 -1.8 -1.8 -1.8 -1.8 -1.8 -1.8 -1.8 -1.8 -1.8 -1.8 -1.8 -1.8 -1.8 -1.8 -1.8 -1.8 -1.8 -1.8 -1.8 -1.8 -1.8 -1.8 -1.8 -1.8 -1.8 -1.8 -1.8 -1.8 -1.8 -1.8 -1.8 -1.8 -1.8 -1.8 -1.8 -1.8 1 -1.8 -1.8 -1.8 -1.8 -1.8 -1.8 -1.8 -1.8 -1.8 -1.8 -1.8 -1.8 -1.8 -1.8 -1.8 -1.8 -1.8 -1.8 -1.8 -1.8 -1.8 -1.8 -1.8 -1.8 -1.8 -1.8 -1.8 -1.8 -1.8 -1.8 -1.8 -1.8 -1.8 -1.8 -1.8 -1.8 -1.8 -1.8 -1.8 -1.8 -1.8 -1.8 -1.8 -1.8 -1.8 -1.8 -1.8 -1.8 -1.8 -1.8 -1.8 -1.8 -1.8 -1.8 -1.8 20.8 9.4 7.4 -1.8 -1.8 -1.8 -1.8 -1.8 -1.8 -1.8 -1.8 7 9.1 7.4 7.7 24.7 36.7
542.4 516.2 486.4 452.9 430.5 404.2 380.5 368.6 351.7 339.8 330.4 324.3 321.8 317.1 327.8 340 350 364.2 382 397.9 410.1 429.1 445.5 462.1 479.7 506.1 523.4 548.2 568.2 589.2 601.1 605.5 621.3 654.9 662.2 661.3 650.2 635.4 635.5 632.4 614 595.7 580.6 559.9 546.2 523.1 516.4 511.5 498.7 488.2 484.9 473.1 457.8 435.4 413.9 390.2 368.4 355.9 341.7 320.8 299.8 275.9 249.6 222.2 197.5 180.9 160.7 143.7 128.6 110.6 92.3 80.2 64.7 51.4 42.8 25.1 9.4 2.4 -1.8 -1.8 -1.8 -1.8 -1.8 -1.8 -1.8 -1.8 -1.8 -1.8 3.1 6.6 5 0.8 -1.8 -1.8 -1.8 -1.8 -1.8 -1.8 -1.8 -1.8 -1.8 -1.8 -1.8 -1.8 -1.8 -1.8 -1.8 -1.8 -1.8 -1.8 -1.8 -1.8 -1.8 -1.8 -1.8 -1.8 -1.8 -1.8 -1.8 -1.8 -1.8 -1.8 -1.8 -1.8 -1.8 -1.8 -1.8 1 -1.8 -1.8 -1.8 -1.8 -1.8 -1.8 -1.8 -1.8 -1.8 -1.8 -1.8 -1.8 -1.8 -1.8 -1.8 -1.8 -1.8 -1.8 -1.8 -1.8 -1.8 -1.8 -1.8 -1.8 -1.8 -1.8 -1.8 -1.8 -1.8 -1.8 -1.8 -1.8 -1.8 -1.8 -1.8 -1.8 -1.8 -1.8 -1.8 -1.8 -1.8 -1.8 -1.8 -1.8 -1.8 -1.8 -1.8 -1.8 -1.8 -1.8 -1.8 -1.8 -1.8 11.7 27.1 28.8 30.7 27.9 23.5 14.3 7.6 11.9 -1.8 -1.8 9.6 17.4 21.3 24.5 29.1 37.3 66.6 76.2
520.7 494.3 463.1 441.6 412.8 386.1 367.3 352.6 340.1 328 320.7 319 317 318.5 328.8 341.9 351.2 368.8 387.1 402.2 415 431.4 447.6 461.7 474.2 497.2 514.6 528.9 540.3 559.1 576.4 582.7 589.6 607.7 631.6 638.8 636 628.3 629.2 624 612.7 597.5 579.6 564.9 553.3 543.6 537.1 522.7 509.8 498.6 488.6 475.7 462.4 439.5 419.1 402 383.4 363.9 340.6 321.7 300.2 279 254.9 229.9 202 184.3 167.3 150.1 135.4 116.7 93.6 83.7 74.5 55.5 45.1 25.9 17.1 6.8 -1.8 -1.8 -1.8 -1.8 -1.8 -1.8 -1.8 -1.8 -1.8 -1.8 5.3 8.1 7.7 2.1 0.4 -1.8 -1.8 -1.8 -1.8 -1.8 -1.8 -1.8 -1.8 -1.8 -1.8 -1.8 -1.8 -1.8 -1.8 -1.8 -1.8 -1.8 -1.8 -1.8 -1.8 -1.8 -1.8 -1.8 -1.8 -1.8 -1.8 -1.8 -1.8 -1.8 -1.8 -1.8 -1.8 -1.8 -1.8 -1.8 -1.8 -1.8 -1.8 -1.8 -1.8 -1.8 -1.8 -1.8 -1.8 -1.8 -1.8 -1.8 -1.8 -1.8 -1.8 -1.8 -1.8 -1.8 -1.8 -1.8 -1.8 -1.8 -1.8 -1.8 -1.8 -1.8 -1.8 -1.8 -1.8 -1.8 -1.8 -1.8 -1.8 -1.8 -1.8 -1.8 -1.8 -1.8 -1.8 -1.8 -1.8 -1.8 -1.8 -1.8 -1.8 -1.8 -1.8 -1.8 -1.8 -1.8 -1.8 -1.8 -1.8 12 24.2 46.5 52.2 57.6 47.7 36.6 25.7 28.4 24.5 24.5 28 30.5 36.3 39.4 51.8 70.4 82.3 89.8
497.4 478.4 442.9 414.6 387.4 368.9 354.2 339.1 326.4 314.9 309.6 309.4 306.3 318.2 333.8 349.1 362.4 378.3 392.9 410.1 426.3 441.7 460.4 461.1 475.5 487.8 504 513 522 535 544.3 554.8 561.1 574.3 606.3 629.5 629.7 623.8 616.6 617.2 623.9 616.7 597.3 581.3 570.9 561 550.2 529.8 517.2 504.8 490.9 477.4 462.3 443.9 426.8 407.1 387.9 360.4 346.8 326.4 306.7 279.3 257.1 233.5 210.4 191.6 175.1 162.8 148.5 130.3 111.2 99.1 86.5 66.5 60.4 35.9 25.6 14.6 3 -1.8 -1.8 -1.8 -1.8 -1.8 -1.8 -1.8 -1.8 12.1 11.5 14.2 15.2 2.4 0.9 -1.1 -1.8 -1.8 -1.8 -1.8 -1.8 -1.8 -1.8 -1.8 -1.8 -1.8 -1.8 -1.8 -1.8 -1.8 -1.8 -1.8 -1.8 -1.8 -1.8 -1.8 -1.8 -1.8 -1.8 -1.8 -1.8 -1.8 -1.8 -1.8 -1.8 -1.8 -1.8 -1.8 -1.8 -1.8 -1.8 -1.8 -1.8 -1.8 -1.8 -1.8 -1.8 -1.8 -1.8 -1.8 -1.8 -1.8 -1.8 -1.8 -1.2 -1.5 -1.8 -1.8 -1.8 -1.8 -1.8 -1.8 -1.8 -1.8 -1.8 -1.8 -1.8 -1.8 -1.8 -1.8 -1.8 -1.8 -1.8 -1.8 -1.8 -1.8 -1.8 -1.8 -1.8 -1.8 -1.8 -1.8 -1.8 -1.8 -1.8 -1.8 -1.8 -1.8 -1.8 -1.8 -1.8 -1.8 5.5 11.6 36 55.5 70.3 77.5 62.4 51.6 47.5 46.8 45.4 41.3 42.1 47.5 55.6 60.1 69.6 89.5 100.1 102.1
463.1 445.3 417.1 390.4 368.4 356.5 339.8 324.9 314.1 303.9 299.9 298.5 304.7 320.5 339.1 357.9 372.3 387.5 398 410.1 418.7 435 441.9 446.4 455.1 467.7 479.3 485.7 494 509.2 517.6 526.7 533.1 550.1 576.7 618 629 621.1 606.4 609.2 615.5 613.6 600.1 593.4 585.4 573.5 566.4 542.6 528.8 516.1 499.1 480.2 465.4 450.4 434.8 415.5 394.8 373.7 357.1 327.7 309.7 293.7 273.3 248.4 224.1 208 194.7 181.6 165.1 146.2 134.2 117.7 103.3 83.8 70.8 52.1 36.2 25 12.5 -1.8 -1.8 -1.8 -1.8 -1.8 -1.8 -1.8 13.7 25 27.6 35.2 39.6 17.3 1.2 -1.8 -1.8 -1.8 -1.8 -1.8 -1.8 -1.8 -1.8 -1.8 -1.8 -1.8 -1.8 -1.8 -1.8 -1.8 -1.8 -1.8 -1.8 -1.8 -1.8 -1.8 -1.8 -1.8 -1.8 -1.8 -1.8 -1.8 -1.8 -1.8 -1.8 -1.8 -1.8 -1.8 -1.8 -1.8 -1.8 -1.8 -1.8 -1.8 -1.8 -1.8 -1.8 -1.8 -1.8 -1.8 -1.8 -1.8 -1.8 -0.4 0 -0.3 -1.8 -1.8 -1.8 -0.1 -1.8 -1.8 -1.8 -1.8 -1.8 -1.8 -1.8 -1.8 -1.8 -1.8 -1.8 -1.8 -1.8 -1.8 -1.8 -1.8 -1.8 -1.8 -1.8 -1.8 -1.8 -1.8 -1.8 -1.8 -1.8 -1.8 -1.8 -1.8 5.9 9.2 9.5 16 20.8 29.3 42.3 69.9 82 86.9 73.3 70.2 68.9 68.7 65.7 62.3 53.3 67 79.1 91.8 85.1 92.9 109.3 120.5
435.3 409.1 385.5 363.2 347.9 334.8 321.9 310.6 301.2 293.7 288.9 289.6 308.2 325.3 340.5 361.2 376.2 381.7 387.6 395.4 400.3 411.3 419.1 426.9 430.1 433.9 446.2 456.3 472.8 486.5 490.7 499.3 513.4 526.9 552.8 571.8 593.1 601.6 595.6 597.2 600.8 601.9 599 597.4 593.4 588.3 576.5 559.6 543 527.3 509.9 486.5 469.2 456.2 441.7 426.3 404.5 389.8 368.2 343.9 321.9 298.8 278.3 260.3 234.2 216.4 206.9 192.7 178.9 157.2 136 126 115.5 102 90.5 74.4 47.1 34.2 22.8 7.3 -1.8 -1.8 -1.8 -1.8 -1.8 6.4 21.3 32.5 41.4 46.3 48 36.5 12.5 -1.8 -1.8 -1.8 -1.8 -1.8 -1.8 -1.8 -1.8 -1.8 -1.8 -1.8 -1.8 -1.8 -1.8 -1.8 -1.8 -1.8 -1.8 -1.8 -1.8 -1.8 -1.8 -1.8 -1.8 -1.8 -1.8 -1.8 -1.8 -1.8 -1.8 -1.8 -1.8 -1.8 -1.8 -1.8 -1.8 -1.8 -1.8 -1.8 -1.8 -1.8 -1.8 -1.8 -1.8 -1.8 -1.8 -1.8 -0.6 0.5 1.2 0.9 0.1 -0.4 -0.1 1.1 3.6 -1.8 -1.8 -1.8 -1.8 -1.8 -1.8 -1.8 -1.8 -1.8 -1.8 -1.8 -1.8 -1.8 -1.8 -1.8 -1.8 -1.8 -1.8 -1.8 -1.8 -1.8 -1.8 0.5 1.1 2.1 7.8 10.7 14.3 17 23.4 28.5 43.6 51.9 59.4 86.5 101.2 97 87 87.9 91.2 93.9 91.1 77 68.7 75 98 112.7 112.1 108.5 120.2 133.7
409.3 383.3 361.5 341.7 328.9 313.7 302 292.9 286.8 281.5 278.1 291.6 309.1 324.3 343.1 362.9 374.5 373.4 376.2 379.6 385.5 385.5 393 400.3 409 408.4 418 425.5 436.8 448.3 459.1 470.4 486 501.2 536.5 547.3 563.3 575.3 579.4 586.2 591.6 594.1 599.2 603.1 612.1 603.5 586.2 569.6 557.1 542.8 523.1 500.5 481.5 470.8 455.9 437.8 419 407.4 398.4 367.1 340.7 315.9 292.7 269.4 252.1 238.4 223.4 200.1 185.8 169 148 132.4 125 114 108.6 88.2 66 45.7 32.1 17.7 6.2 0.7 -1.8 -1.8 -1.8 15.7 25.8 44.9 55.6 58.4 57 46.3 29.3 -1.8 -1.8 -1.8 -1.8 -1.8 -1.8 -1.8 -1.8 -1.8 -1.8 -1.8 -1.8 -1.8 -1.8 -1.8 -1.8 -1.8 -1.8 -1.8 -1.8 -1.8 -1.8 -1.8 -1.8 -1.8 -1.8 -1.8 -1.8 -1.8 -1.8 -1.8 -1.8 -1.8 -1.8 -1.8 -1.8 -1.8 -1.8 -1.8 -1.8 -1.8 -1.8 -1.8 -1.8 -1.8 -1.8 -1.8 -0.1 1.1 2.3 1.9 1.2 0.6 0.4 1.6 2.4 2.8 -1.8 -1.8 -1.8 -1.8 -1.8 -1.8 -1.8 -1.8 -1.8 -1.8 -1.8 -1.8 -1.8 -1.8 -1.8 -1.8 -1.8 -1.8 -1.8 3.5 -1.8 4.7 4.8 10 22.4 20.7 24.2 27.9 34.4 45.9 64.1 75.5 88.8 92.5 107.9 105.3 99.5 102.7 107.2 110.3 108.2 95 89.7 96.1 109.6 120.3 131.8 136.4 134.8 152.6
386.8 361.8 343.7 325.6 309.1 295.6 288.2 279.7 273.3 268.6 279.5 294.4 309.5 324.8 342.2 360.3 362.7 362.3 361.8 364.4 370.6 370.9 372.6 376.8 381.6 391.7 392.8 399.8 412.2 421.6 429.4 439.5 455.2 469.6 492.3 511.7 528.7 548.3 563.6 570.6 580.8 587.2 609.8 619.9 620.4 623.5 600.5 583.2 568.7 559.5 544.7 527.6 507 489.8 477.3 460.6 443.9 427.9 420.2 396.5 360.5 335.7 310.5 283.3 265.5 251.9 231.8 212.4 195 179.4 160.2 142.6 132 126.1 120.3 100.6 82.2 59.7 42.3 31.5 14.3 4.5 3.8 2.6 12.8 30.6 43.2 64.2 74.1 69.5 62.7 55.4 43.8 -1.8 -1.8 -1.8 -1.8 -1.8 -1.8 -1.8 -1.8 -1.8 -1.8 -1.8 -1.8 -1.8 -1.8 -1.8 -1.8 -1.8 -1.8 -1.8 -1.8 -1.8 -1.8 -1.8 -1.8 -1.8 -1.8 -1.8 -1.8 -1.8 -1.8 -1.8 -1.8 -1.8 -1.8 -1.8 -1.8 -1.8 -1.8 -1.8 -1.8 -1.8 -1.8 -1.8 -1.8 -1.8 -1.8 -1 0.2 1.4 2 2.4 2.3 1.7 1.2 2.1 2.4 11.1 16.6 -1.8 -1.8 -1.8 -1.8 -1.8 -1.8 -1.8 -1.8 -1.8 -1.8 -1.8 14.2 23.4 17.9 19.6 9.1 11.9 12.9 12.7 8.5 8.9 9.3 24.9 29.8 35.3 42.6 42.1 44.3 56.2 69.6 82.2 102.6 116.9 113.8 112.2 116.3 121.3 125.3 129 129.6 119 117 122.8 129.4 131 147.2 155.6 161.4 168.3
363.8 343 328.9 313 295 281.9 273 266.2 257.6 266.8 281 301.8 313 326.6 339.2 348.6 350.4 348.7 347.1 350.3 352.2 354.8 359.3 360.2 364 369.9 375.8 380.8 387.4 395.8 405.4 414.9 427.1 440.8 460.5 482.2 501.6 520.2 545.1 555.1 567.9 578.8 607.2 633.5 630.8 622.7 617.5 605.4 598.5 595 580.3 561.4 542.3 517.6 498.9 481 459.2 440.4 426.2 404.6 377.3 347.5 322 293.2 276.8 260.3 237.2 220.2 205.3 187.1 171.7 158.2 146 137.6 132 114.4 91.6 71.6 58.1 49 33.1 18.5 12.7 13.6 38.7 53.1 51.8 78.2 88.8 79.2 70.6 63.1 53.6 29.8 -1.8 -1.8 -1.8 -1.8 -1.8 -1.8 -1.8 -1.8 -1.8 -1.8 -1.8 -1.8 -1.8 -1.8 -1.8 -1.8 -1.8 -1.8 -1.8 -1.8 -1.8 -1.8 -1.8 -1.8 -1.8 -1.8 -1.8 -1.8 -1.8 -1.8 -1.8 -1.8 -1.8 -1.8 -1.8 -1.8 -1.8 -1.8 -1.8 -1.8 -1.8 -1.8 -1.8 -1.8 -1.8 -0.9 0.1 1 1.9 2.4 2.4 2.3 2.2 2.4 7.6 19.5 27.3 28.1 19.7 8.8 14.6 -1.8 -1.8 5.4 8.3 6.5 17.7 28.1 40.3 43.3 45.4 42.4 33.4 33.6 28.6 20.6 18.2 15.5 23.4 34.3 39.5 46.3 51.5 55.1 61.6 73.6 83.5 90.2 108.2 124.8 131.4 134.2 133.8 146.2 159.4 153.3 154.9 157 166.7 173.6 174.9 169.1 181.2 184.2 198.2 217.2
338.3 317.5 305.9 293.3 281 270.5 260.8 255.5 258.1 269 284.1 299.4 308.6 320 331.5 339.8 340.2 335.4 339.1 338.4 339.3 340.5 344.1 348.5 351.6 353.9 358.9 363.2 368.9 376.5 383.5 393.2 405.8 418.3 435.9 454 474.9 492.9 520.8 538 556.7 572.3 601.2 621.8 632 632.1 623.9 617.2 613.8 609 595.8 577.9 560.8 531.8 504.7 486.6 462.4 438.7 420.4 402.4 381.9 355.9 329.8 303.8 286.3 272.7 250.1 227.1 214 200.2 185.1 173.9 159.7 151.5 140.8 124.3 102.6 81.1 73.4 64.7 49.7 38.4 29.1 46.8 69.3 77.1 79.9 72.8 89.1 87.2 77.8 70.6 64 46.9 20.8 -1.8 -1.8 -1.8 -1.8 -1.8 -1.8 -1.8 -1.8 -1.8 -1.8 -1.8 -1.8 -1.8 -1.8 -1.8 -1.8 -1.8 -1.8 -1.8 -1.8 -1.8 -1.8 -1.8 -1.8 -1.8 -1.8 -1.8 -1.8 -1.8 -1.8 -1.8 -1.8 -1.8 -1.8 -1.8 -1.8 -1.8 -1.8 -1.8 -1.8 -1.8 -1.8 -1.8 -1.8 -0.9 0 0.9 1.8 2.3 2.3 2.4 2.4 9.6 22.9 33.2 43.6 43.2 42.6 33.7 30.1 35.8 33.2 27.4 31.3 30.1 36.1 39 51.2 60.2 64.7 58.9 48.4 41.3 33.4 29.6 27.6 29.4 40.6 53.2 62.9 59.3 67.7 80.7 86.3 95.8 100.7 106.6 120.3 137.5 143.2 149.8 153 160.6 178.4 188.3 179.2 185.8 203.9 220.5 227.7 220 221.3 226.5 257.6 268.2
305.7 295.6 284.1 274.1 261 254 248.5 251.9 258.7 272 286.2 293.4 301.7 307.8 315.7 321 325.8 321 320.1 321.2 321.9 323.9 329 332.7 333.4 343 344.6 344.9 347.8 352.5 362.9 374.5 386.6 398.1 410.5 431.8 454.6 478.5 509.4 519.1 538.6 559.8 590.1 621.3 648 656 652.2 637.3 619.2 611.5 598 580.4 556.4 524.7 494 477.5 458.8 437.4 417 399.3 378.2 358.6 332.6 308.5 292.9 275.5 255.7 239.2 228 211.1 195.4 184.3 169.1 163.6 144.4 129.3 109.1 95.5 85.5 77 64.5 55.7 73.6 88.2 99.8 109.1 110.4 89.9 88.5 84.7 77.5 76.6 73 61.1 36.4 -1.8 -1.8 -1.8 -1.8 -1.8 -1.8 -1.8 -1.8 -1.8 -1.8 -1.8 -1.8 -1.8 -1.8 -1.8 -1.8 -1.8 -1.8 -1.8 -1.8 -1.8 -1.8 -1.8 -1.8 -1.8 -1.8 -1.8 -1.8 -1.8 -1.8 -1.8 -1.8 -1.8 -1.8 -1.8 -1.8 -1.8 -1.8 -1.8 -1.8 -1.8 -1.8 -1.8 -1.8 -0.8 -0.1 0.8 1.7 2.4 2.3 2.4 3.4 12.7 26.9 39.4 48.5 51.5 52.2 52.3 50.6 55.1 56.3 52.9 50.6 53.1 61 67.1 67.8 61.9 65.7 64 56.4 49.4 46.8 44.4 36.8 49.3 60.8 75 77.9 73.1 87 105.8 112 117.4 121.3 128.3 131.5 138.7 151.9 166.2 173.2 181.9 203.3 197.6 197.8 210.9 231.2 250.2 257.9 247.5 264.3 286.4 293.5 300.2
279.9 272.6 261.1 251.1 244.2 242.9 242 249.3 260.1 267.5 275.5 282.5 285.3 289 292.8 293.8 301.5 305.8 303.9 304.4 305.7 306.4 309.4 315.8 323.9 328.6 329.1 329.7 333.5 338.7 350.6 357.6 370.4 377.7 389 406.3 432.6 455.8 481.8 497.6 518.7 542.8 577 608.5 640.3 668.4 679.4 674 654.3 628 599 570.7 544.8 520.6 492.8 472.9 454 434 415.8 401.4 383.5 363.4 339 318.3 301.2 281.1 265.6 258.9 246.8 227.6 209.7 199 180.2 172.7 151.7 134.4 124.3 112.6 104.6 90.2 82.6 84.7 106.5 119 131.7 136.1 139.1 117.3 92.7 96.6 80.1 82.3 67 63.6 50.7 24.1 -1.8 -1.8 -1.8 -1.8 -1.8 -1.8 -1.8 -1.8 -1.8 -1.8 -1.8 -1.8 -1.8 -1.8 -1.8 -1.8 -1.8 -1.8 -1.8 -1.8 -1.8 -1.8 -1.8 -1.8 -1.8 -1.8 -1.8 -1.8 -1.8 -1.8 -1.8 -1.8 -1.8 -1.8 -1.8 -1.8 -1.8 -1.8 -1.8 -1.8 -1.8 -1.8 -1.1 -0.5 0.1 0.7 1.6 2.4 2.4 2.6 4.9 13.5 28.9 45.2 48.7 57.5 61.2 65.2 65.4 64.6 66.6 68.7 71.6 73.7 78.4 80.5 74.9 72.3 70.4 69.1 65.4 59.1 58.4 58.4 58.7 66.1 80.4 89.7 87.9 91.5 105.3 127 135.7 139.6 146.2 156.3 164 171.4 179.5 182 194.9 205.2 228.4 215.7 207.5 222.8 250.9 268.5 280.8 277.6 300.2 309.9 304.8 322.7
258.2 249.5 244.9 240.6 234.1 236.8 241.1 248.2 253.7 257.3 261 269.9 271.4 276.8 280.9 280.6 280.5 282.4 285.9 289.5 291.5 295.7 297.4 300.1 304.1 310.1 308.4 310.7 317.1 326.3 339.8 348 355.9 364.9 376.7 386.9 411.1 432.5 451.4 476.3 499.2 525.7 558.6 589.9 621.2 657.3 677.6 682.2 668.8 642 613.1 583.9 553.9 528 503.9 484.4 464.5 440.3 424.4 409 389.8 369.6 349.7 325.5 310.9 293 278.4 266.5 255.6 237.2 220.8 208.7 191 178.7 163 145.4 144.8 131.4 124.7 105.6 102 109.7 132.6 130.7 150.2 156.8 159.2 144.9 109.3 113.4 106.8 93.9 84 71.2 54.4 35.1 -1.8 -1.8 -1.8 -1.8 -1.8 -1.8 -1.8 -1.8 -1.8 -1.8 -1.8 -1.8 -1.8 -1.8 -1.8 -1.8 -1.8 -1.8 -1.8 -1.8 -1.8 -1.8 -1.8 -1.8 -1.8 -1.8 -1.8 -1.8 -1.8 -1.8 -1.8 -1.8 -1.8 -1.8 -1.8 -1.8 -1.8 -1.8 -1.8 -1.8 -1.8 -1.8 -0.9 -0.3 0.4 1 1.6 2.4 3.5 6.5 8.9 19 29.6 40.1 50.7 62.1 77.4 88.6 93.2 89.8 88.7 91.5 92.4 99.1 115.1 117.1 97.9 89.4 81.8 75.3 74 72.4 70.8 72.4 74.2 75.7 87.8 94.8 97.4 106.9 122.2 143.8 152.8 175.5 183.3 191.3 198.2 200.2 206.7 214.2 221.9 252.5 271.9 259.4 258.3 260.8 284.7 281.9 294.6 302.7 325 326.6 326.2 344.4
247.4 241.6 236.7 236.7 231.4 233.1 237.5 238.3 240.2 246.2 252.3 258 259.7 262.2 267 267.6 269.4 268.7 270.1 276.9 279.5 282.3 285.8 286.9 289.1 295 294.8 301.2 308.2 317.3 327.8 334.9 342.7 350 370 373.7 388.3 412 431.8 455 479.6 507.7 540.3 571.2 599.1 633.4 659.6 677.3 678.8 660 632.2 609.3 583.9 555.9 525.8 510.1 488.4 463.9 445.5 427.6 408.4 390.9 373.8 353.9 335.4 318.7 300.9 284.8 266.4 249.4 232.4 216.1 201 188.8 173.4 156.9 172.1 153.5 137.7 121.3 114.1 138.6 158.7 149.7 172.6 176.3 181 168 137.8 115.9 126.7 112.6 100.1 90.5 76.4 48.1 25.4 -1.8 -1.8 -1.8 -1.8 -1.8 -1.8 -1.8 -1.8 -1.8 -1.8 -1.8 -1.8 -1.8 -1.8 -1.8 -1.8 -1.8 -1.8 -1.8 -1.8 -1.8 -1.8 -1.8 -1.8 -1.8 -1.8 -1.8 -1.8 -1.8 -1.8 -1.8 -1.8 -1.8 -1.8 -1.8 -1.8 -1.8 -1.8 -1.8 -1.8 -1.2 -0.6 0 0.6 1.2 1.9 3.9 10.7 17.1 33.6 51.3 69.6 79.4 85.2 93 106.9 123.5 132 139.7 133.5 122.7 127.6 133.5 140.1 139.3 130 111.6 101.1 92.6 87.6 85.8 86.3 88.6 92.5 93.6 97.9 101 110.7 129.5 142.4 154.8 184.7 212.2 226.1 229.9 232.5 231.6 246.1 253.9 267.6 299.3 311.4 313 317.4 310.7 310.3 304.6 311.8 332.7 341.5 347.5 351.3 360.5
237.8 234.3 232.4 233.8 227.2 227.1 227.3 228.6 231.8 237.2 242.7 247.1 250.9 252.3 253.6 254.4 253.9 254.7 256.2 261.1 265.9 268.2 269.8 274.2 275.1 277.6 281.2 288.3 293.6 302.7 312.7 320.6 329.1 338.8 351.8 359.1 370.9 391.7 415.3 435.9 461.4 486 518.4 549.3 575.9 617.6 641 663.4 682.9 689.3 670.8 644 621.8 601.2 568.5 550.2 527.1 500.7 478.1 459.1 436.4 416.5 396.8 387.5 373.1 354.2 331.7 308.6 285.4 266.4 245.4 224.7 211.1 200.2 185.3 175.7 179.7 171 158.3 141.4 133 154.6 171.6 160.6 177 184.9 193.9 183.8 158.2 124.1 141.8 130.9 105.6 108.4 99.2 68.8 44.5 14.4 -1.8 -1.8 -1.8 -1.8 -1.8 -1.8 -1.8 -1.8 -1.8 -1.8 -1.8 -1.8 -1.8 -1.8 -1.8 -1.8 -1.8 -1.8 -1.8 -1.8 -1.8 -1.8 -1.8 -1.8 -1.8 -1.8 -1.8 -1.8 -1.8 -1.8 -1.8 -1.8 -1.8 -1.8 -1.8 -1.8 -1.8 -1.8 -1.8 -1.1 -0.5 0.2 0.8 1.4 2 5.1 14 31.8 53.7 66.9 85.3 103.8 111 123.2 137.6 159 185.1 191 175.3 168.2 158 161.1 169.4 173.7 159.4 140.1 125.8 111 109.4 110.9 110.7 112.9 113.3 116.6 119.6 120.3 124.3 140.2 153.6 173 209.8 233.9 249.1 261.9 272.8 283.3 301.9 312.6 323.1 333.4 340.8 343.5 343.6 349.7 346.1 336.1 340.3 351.6 358.1 365.3 374.9 388.3
230.4 227.1 227 230.1 223.3 220.5 220.7 223.5 227.4 232.3 236.4 239.3 240.6 242.5 243.4 243.2 242.7 244.7 247.8 254.1 256.4 257.9 259.2 261.3 264 264.6 269.7 273 277.3 285.7 293.9 304.1 317.7 328.4 339.4 348.6 357.8 373.3 396.4 418.1 443.6 470 497.4 526.8 551.8 591.6 617.4 644.8 671.3 682.7 682.3 665.2 647.3 626.4 599.3 574 554.8 533.3 511.7 486.9 463 444.8 422.5 402.1 382.8 359.6 336.5 312.2 291.3 275.9 257.4 235.9 222.3 210.2 197.5 189.1 185.1 178.2 168.8 158.6 153.1 168.3 176.7 166.1 166.3 168.8 181.3 187.3 171.1 147.3 150.2 142.7 112.9 108 100.2 83.1 61.9 35.5 -1.8 -1.8 -1.8 -1.8 -1.8 -1.8 -1.8 -1.8 -1.8 -1.8 -1.8 -1.8 -1.8 -1.8 -1.8 -1.8 -1.8 -1.8 -1.8 -1.8 -1.8 -1.8 -1.8 -1.8 -1.8 -1.8 -1.8 -1.8 -1.8 -1.8 -1.8 -1.8 -1.8 -1.8 -1.8 -1.8 -1.8 -1.8 -1.5 -0.9 -0.3 0.2 0.8 1.5 2.1 3 14.7 37.1 57.7 75.1 100.3 119.8 134 156.6 167.7 200.4 233.8 232.1 214.4 207.9 206.3 188 198.6 199.1 188.1 172.3 147.4 136 140.4 137.9 142.8 148.2 154.6 158.9 147.5 146.2 143.1 153.1 170.5 193.7 223.4 247.4 273.5 288.2 304.9 325.1 341.7 341.4 347.9 362.4 363.5 363 371.9 382.9 378.4 376.8 382.6 383.5 384.1 392.8 405.1 421.9
223.6 222 222.5 221.5 221 215.9 217.9 220.1 224.3 228.1 231.2 231.1 232.4 235.6 235.2 236.1 238.2 239.2 241.8 246.1 248.2 250.7 250.3 249.9 251.1 255.8 264.5 266.6 269 273.2 279.7 290.7 299.9 311.9 325.2 337.9 348.3 360.1 378.4 404.2 423.8 449.8 480.9 510 529.9 562.5 593.3 623.7 651.4 672.1 674.8 666.9 656.2 638 616.1 591 569.4 545.4 523.3 501.7 482.6 456.1 432.6 410.8 388 362.4 341.2 317 297.8 284.5 266.4 251.9 233.4 221 210.8 197.9 192.9 188.5 181.6 173.1 171.1 199.6 200.7 181.4 182.2 181 188.9 198.6 187.2 158.7 146.7 149.3 123.3 113 111.2 92.3 77.1 52.5 26.2 -1.8 -1.8 -1.8 -1.8 -1.8 -1.8 -1.8 -1.8 -1.8 -1.8 -1.8 -1.8 -1.8 -1.8 -1.8 -1.8 -1.8 -1.8 -1.8 -1.8 -1.8 -1.8 -1.8 -1.8 -1.8 -1.8 -1.8 -1.8 -1.8 -1.8 -1.8 -1.8 -1.8 -1.8 -1.8 -1.8 -1.8 -1.4 -0.8 -0.2 0.4 1 1.5 2.1 4.3 18.3 33.5 50.2 76.4 109.2 126.2 144.1 173.7 203.9 239.5 260.6 272.8 261.6 246.4 246.5 224.8 223.1 229 218.1 198.2 164.5 167.6 163.6 164.5 171.2 178.2 185.3 183.4 180.9 175 171.6 174.2 173.9 199.3 225 246.5 263.3 284.4 308.1 329.4 349.5 358.3 369.4 382.8 385.9 393.1 406.3 417.1 419.5 429.3 443.6 448.6 438 447 454.7 469.1
217.1 217.9 218.4 220.5 215.8 214 215.9 218 221.5 224.4 225.9 224.8 226.7 228.5 228.4 230.3 232.8 235.5 240.6 243.7 245.2 247.2 247.8 251.4 255 259.5 264 263.5 268.4 272.5 275.2 281.8 289 295 307.4 322.1 336.5 351.1 369.2 390.1 408.9 431.6 462.5 493.5 510.6 544 572.4 601.4 631.3 655.6 666.9 665.2 654.9 639.6 619.3 595.9 575.2 550.9 528.4 508.2 486.7 462.5 437.6 417.3 390.3 363.9 340.6 319 304.2 293 280.2 266.3 247.1 232.6 220.9 210.6 204.3 200.3 195.5 191.1 192.1 212.7 224.8 207 214 210 199.7 205.3 198.6 172.2 155.2 154.9 132.9 116.9 119.9 106.6 84.1 65.4 46.4 17 6.4 3.7 5.1 5.8 -1.8 -1.8 -1.8 -1.8 -1.8 -1.8 -1.8 -1.8 -1.8 -1.8 -1.8 -1.8 -1.8 -1.8 -1.8 -1.8 -1.8 -1.8 -1.8 -1.8 -1.8 -1.8 -1.8 -1.8 -1.8 -1.8 -1.8 -1.8 -1.8 -1.8 -1.8 -1.8 -1.4 -0.7 -0.1 0.5 1.2 1.7 2.3 8.9 28.7 45.8 71.2 89.9 103.1 125.8 151.7 192.3 228.3 260.8 272.9 290.5 294 282.5 280.1 261.6 254.1 253.4 236.6 199.4 196.5 188.8 189.7 190.5 200 201.7 206.4 212.5 208.1 201 204.7 209.1 202.3 209.1 228.9 243.7 262.2 285 307.8 332.8 350 358.2 376.1 394.8 415.5 424.8 436.7 450.5 460.3 472.5 480.1 487.7 492.5 493.7 499.8 505.8
214.6 211.8 213.4 215.7 213.1 211.8 214 216.7 219.2 221.3 221.4 221.8 223.8 224.2 224.7 228.6 231.5 235.3 236.6 239.7 242.2 244.1 249.8 255.5 265 275.7 273.9 276.7 281.5 280.4 282.8 288.4 294.5 294.1 296.3 308.8 322.8 339.8 359.1 376 395.7 415.4 447.5 482 498.5 528.7 559.8 590.6 616.1 636.5 653.2 657.8 652 647.4 624.6 599.4 574.6 549.9 527.3 511.4 491.6 463.9 440.3 420.1 389.4 365.5 342.8 321.7 306.9 296 285.3 271.7 258.3 243 230.5 219.8 216.2 217.2 218.6 214.3 220.3 236.5 242.8 232.2 230 226.3 219.9 213.3 205.8 189.1 164.6 169.1 152.2 127.7 126.4 119.6 93.1 76.2 62 41.7 12.6 8.6 8.8 8.4 6.2 5.8 2.7 -1.8 -1.8 -1.8 -1.8 -1.8 -1.8 -1.8 -1.8 -1.8 -1.8 -1.8 -1.8 -1.8 -1.8 -1.8 -1.8 -1.8 -1.8 -1.8 -1.8 -1.8 -1.8 -1.8 -1.8 -1.8 -1.8 -1.8 -1.8 -1.8 -1.3 -0.7 0 0.6 1.3 1.9 4.3 12.3 28.2 51.7 76.8 108.6 136.9 158.8 173.5 195.3 234.8 273.3 296.3 306.8 315.5 312.6 306.8 297.6 284.1 270.6 244.8 222.1 219.9 215 216.3 213.9 216.2 221.5 231.8 237.7 234.5 231.3 236.3 244.4 232 229.5 239.4 260.3 285.4 307.9 326.8 351.7 368.7 374.5 386 403.8 420.8 434.2 449 469.6 484.6 498.3 505.2 510.9 509.1 507.9 508.8 512
207.9 209.5 211 210.6 209.6 211.1 212.3 214.1 216.5 217.1 218.2 219.2 221 222 225 230.8 234.6 238.7 240.9 243.7 246.9 252.3 260.3 265.9 274.1 290.1 293.4 294.6 298.5 297.8 294.4 295.1 299.2 298.6 299.7 304.5 312.6 323.8 342.7 360.9 385.6 403.7 440.2 474.8 489.2 515.8 543.4 565.8 595.4 614.7 627.8 642.9 646.7 639.7 619.2 596.2 570.5 549 530.8 507.6 482.9 457.1 440.2 414.6 390.5 365.1 343.4 325 311.2 301 291.8 279.4 266.9 256.8 247.8 242.2 240.3 242.3 245.4 242.6 247.2 266.2 273.5 263.7 259.2 259.1 250.8 232 220.2 202.6 179.7 177.1 170 145.4 137.5 132.4 114 91 69.6 57.6 27.8 15.9 13.4 12.7 9.7 9.9 6.3 -1.8 -1.8 -1.8 -1.8 -1.8 -1.8 -1.8 -1.8 -1.8 -1.8 -1.8 -1.8 -1.8 -1.8 -1.8 -1.8 -1.8 -1.8 -1.8 -1.8 -1.8 -1.8 -1.8 -1.8 -1.8 -1.8 -1.8 -1.8 -1.8 -1.4 -0.7 -0.1 0.6 1.2 1.9 6.4 22.2 36.4 62.6 102.4 128.4 157 197.7 233.5 251.9 268.4 285.8 312 342.1 344.5 330.3 326 318.2 304.7 281 252.7 247.4 245.5 241.8 235.5 234.9 237.8 248.8 262.5 268.1 263.2 258.9 261.8 261.2 256.9 255.7 255.8 276.5 304.3 324.3 345.6 369.1 391.3 404.1 415.7 428.7 440.2 455 460.8 478.3 503.6 522 527.4 527.2 524.5 529.8 528.4 526.8
202.6 204.9 205.4 206.2 209.4 209.8 210.2 210.5 208.7 210.3 212.8 218.6 219.3 221.3 228.4 235.7 239.4 244.7 245.8 248.1 253.3 259.1 265.5 273.6 280.1 289.2 296.5 299.6 303.4 306.3 305.3 304.6 306.9 307.7 310.2 305.5 308.3 319 332.5 344.8 370.9 390.7 435.9 464.2 477.9 502.8 520.5 540.8 572.9 593.8 607.3 623.6 631 629.1 615.8 590.4 566.1 542.5 525.6 501.4 479.5 457.1 434.4 410.9 384.7 360.1 342 327.3 316.6 308.3 299 287.4 280.5 271.5 267.2 266.1 270.3 271.1 278.1 279.1 268.9 301.4 305 296.2 284.8 283 269.1 247.9 236.5 226.3 208.2 188.3 195.3 174.8 150.6 155.5 142.1 116.4 79.7 66.1 50.7 31.4 22.2 17.7 13.1 15.7 13.4 -1.8 -1.8 -1.8 -1.8 -1.8 -1.8 -1.8 -1.8 -1.8 -1.8 -1.8 -1.8 -1.8 -1.8 -1.8 -1.8 -1.8 -1.8 -1.8 -1.8 -1.8 -1.8 -1.8 -1.8 -1.8 -1.8 -1.8 -1.8 -1.8 -1.6 -0.9 -0.3 0.4 1.1 1.8 4.5 26.1 53.7 72.4 98.6 136.2 175.1 215.9 243.4 273.6 304.2 323.4 348.2 356.9 360.5 355.5 350.1 335.3 325.3 294.1 274.3 270.8 267.9 259.2 256.9 261.9 264.8 281.2 300.9 303.1 290.7 287.9 283.5 280.9 278.9 274 274.1 289.6 312 331.6 356.2 376.3 399.5 426.9 440.8 448 451.5 463.5 482.1 506 533.3 545.1 550.5 540.4 533.5 538.5 543 546.7
199.1 199.2 201.3 202.9 203.4 203.3 208.1 208.9 211.9 214.2 217.2 219.6 221.9 229.9 238.8 245.1 249.8 253.2 257.9 263.6 270.9 275.3 281.2 287.6 295.2 301.2 305.8 306.8 310.1 315.7 318.4 316.5 320.6 320.2 317.1 315.1 312.1 318.3 325.8 338.6 356.8 383.5 421.3 450.7 467.1 486.4 502.8 521.4 542 564.5 577.1 597.7 623.5 627.1 617.4 590.9 565.9 541 517.8 496.6 477 454.3 431.7 409 384.8 363.8 350 338.5 328 318.1 305.8 299.2 294.5 290.7 292.5 299.3 309.3 307.1 309.8 319.5 314 326.5 331.9 322.6 319.1 303.6 288.9 268.3 246.4 245.4 241.9 216 208.8 201.9 172.2 163.7 148 131.8 96.3 74.7 75.7 53.6 40.5 24.5 25.9 27.9 20.6 14.9 -1.8 -1.8 -1.8 -1.8 -1.8 -1.8 -1.8 -1.8 -1.8 -1.8 -1.8 -1.8 -1.8 -1.8 -1.8 -1.8 -1.8 -1.8 -1.8 -1.8 -1.8 -1.8 -1.8 -1.8 -1.8 -1.8 -1.8 -1.8 -1.8 -1.1 -0.4 0.3 1.1 1.9 7.2 25.8 52.8 81.2 112.6 139 171.6 208.2 247.4 283.8 320.9 346.7 374.1 372.8 375.8 365.7 361.7 350.4 343.8 315.5 304.3 289.5 282.7 277.4 282.1 292 306.1 325 338.5 330.4 320 326.1 312.3 306.3 304.5 297.7 291.5 306.3 317 339 365.9 391.2 405.9 424.8 442.2 450.8 458.4 473.8 493.3 518.2 547.4 563.4 581.4 574 558.4 553 571.1 575.2
196.7 197.1 199.8 202.8 207.4 208.8 206.1 208.5 213.5 217.1 223.5 230.8 239.7 246.5 256.1 264.7 272.2 276.2 280.7 290.1 294.9 300.2 305.9 313.7 320 325 328.4 330.7 334.5 338.5 339.2 344.4 339.3 337.4 333.2 328.5 328.5 318 330.3 336.8 354 381.9 418 441.7 457.1 468.8 484.6 501.6 515.1 540.8 564.9 584.2 603.4 616.1 608.9 589.3 564 541.2 518.5 497 477.4 452.2 429.9 405.5 392.4 375.2 361.9 350.1 340.6 328.3 319.6 315.3 311.6 312.5 321.8 333.8 343.5 351.4 372 350.3 341.3 353.5 348 343.4 338 325 311.6 292.5 266.5 262.6 267.4 245.3 222.7 212.3 200.7 183.5 151.7 136.8 118.7 91.5 90.4 84 61.3 31.2 39.1 40.2 36.2 26.8 12.3 4.9 3.8 -1.8 -1.8 -1.8 -1.8 -1.8 -1.8 -1.8 -1.8 -1.8 -1.8 -1.8 -1.8 -1.8 -1.8 -1.8 -1.8 -1.8 -1.8 -1.8 -1.8 -1.8 -1.8 -1.8 -1.8 -1.8 -1.8 -1.1 -0.4 0.4 1.1 1.9 6.2 24.7 49.3 81.5 119.5 152.4 181.6 208.8 245.4 284.9 329.2 348.8 354.9 375.5 402.1 394.9 378.1 362.3 347.6 341.9 329.2 309.9 300.6 300.2 309.4 330.2 347.1 359.6 364.1 349.9 350.5 356.1 346.7 339.3 326.2 323.7 310.2 326.3 334.5 352.9 373.6 389.6 401 406.7 422.9 440.9 450.3 474.8 511.6 528.1 557.2 595.4 606.8 605.6 593.3 576 566.2 580.8
193.5 200 201.8 203.5 206.2 209.2 211.2 213.6 221.2 232.9 240 247.8 258.8 268.2 279.4 288.5 295.7 301.9 310 319.7 324.7 330.3 340.6 344.9 351.2 357.6 371.9 375.3 376.7 373.1 375.2 378.9 368.2 363.3 356.9 348.1 340.7 341.1 332.7 337.6 358.4 385.5 413.3 436.6 448.3 460.5 474.9 490.5 503.7 528.4 554.7 570.1 583.6 593.8 599.3 597.9 572.7 548 524.7 502.9 477.9 450.7 430.1 418.7 405.5 389.2 373.6 357.8 348.1 339.9 334.6 332 329.4 337.2 351 375.9 392.7 398.2 406.4 401.3 390 388 365.8 358.3 357.3 353.7 351.3 318.7 300.2 280.5 285.1 269.5 254.1 236 217.6 205.2 175.1 148.6 131.2 119.9 111.3 99.1 84.8 57.5 44 69.4 55 45.7 25.2 21.1 28.7 33.5 31.5 18.1 6.8 -1.8 -1.8 -1.8 -1.8 -1.8 -1.8 -1.8 -1.8 -1.8 -1.8 -1.8 -1.8 -1.8 -1.8 -1.8 -1.8 -1.8 -1.8 -1.8 -1.8 -1.8 -1.2 -0.7 -0.1 0.6 1.3 2 6.9 26.6 52.6 83.4 125.1 160.7 187.2 219 251.2 283.9 317 344.8 357.9 391.6 416.5 425.4 402.7 382.4 373.5 366.2 353.1 337.7 327.3 320.5 338.4 374 378.8 380.6 376.1 365 375.2 374.6 362.6 352 341.3 333.2 327.6 328.3 340.4 353.3 371.2 385.3 390.7 400.9 408.1 417.2 439.1 485.8 524.1 539.4 574.7 607.7 614.8 627.2 621.5 614.1 600.1 584.8
192.3 198.7 201.2 203.7 205.8 210 213.5 224.1 237 251.6 258.9 273.1 283.3 295.2 305.7 314.8 325.2 335.6 340.1 349.3 357.4 364.4 376 388.1 400.5 399.2 424.6 426.9 416 407.1 404 402.4 393.2 382.5 372.9 363.1 350.3 354.3 350.1 340.7 358.7 382.4 406.7 428.4 440.6 454.2 469.3 486.5 500.6 522.2 533 546.3 564.5 582.2 599.4 601.5 580.8 571.1 552 523.6 491.3 457.3 436.3 422.8 411.4 394.6 378 366.1 357.9 350.6 345.5 343.2 348.3 367.2 387.9 409.9 430.3 444.8 453.4 437.7 418.1 403.7 386.8 373 374.8 374.8 360.5 343.6 329.3 306.7 290.5 306 311 274.5 250.7 220.6 208.8 173 146.9 145.6 145.6 120.1 97.7 82.3 43.9 62.6 78.5 65.1 47.1 39.2 45.2 48.3 47.8 44 25.2 7.4 -1.8 -1.8 -1.8 -1.8 -1.8 -1.8 -1.8 -1.8 -1.8 -1.8 -1.8 -1.8 -1.8 -1.8 -1.8 -1.8 -1.8 -1.8 -1.8 -1.2 -0.7 -0.2 0.4 1.1 1.7 2.3 9.2 28.9 57 94.7 129.5 157.6 187.8 224.4 259.7 288.3 307.9 340.9 363 404.1 419.9 426.9 406.8 411.3 412.7 401.5 386.8 364 356.6 347 345 365.2 377.3 384.7 377.2 374.8 381 377.7 371.3 354.6 344.5 337.5 334.9 335.9 345.4 356.1 367 376.5 378.9 385.2 391.3 404.1 438.6 487.3 519.9 546.3 576.7 606.8 626.5 633.1 640 637.1 627.3 616.9
192 198.1 199.6 202 208.8 214.3 226.2 238 256 269.6 286 298.7 309.3 323.8 336.2 347.4 362.6 384.6 390.4 392.2 415 409.6 436.4 454.2 452.1 448.5 445.1 446.9 444 432.1 427.2 420.3 407.7 394.5 384.7 376.1 369 367.6 364.4 352.6 360.2 383.4 403.9 422.9 437 450.2 465.3 481.5 494.3 507.7 519.5 536.9 564.6 587.6 596 597.2 578.5 569.4 555.5 534 507.3 477.2 454.5 435.1 414.4 399.1 387.9 378.7 368.6 361.5 364.8 375.1 383.7 412.2 454.3 467.2 479.5 501.3 489.3 459 431.3 407.5 409.1 392.2 391.4 396.6 403.9 388.6 346.9 332.5 318.5 321.7 320.8 314.6 272.8 244.5 219.9 202.9 176.6 162.6 159.2 142.5 113.4 93.1 77.8 54.7 72.9 83.7 66.4 63.8 67.6 73.7 72 58 43.1 23.6 5.8 -1.8 -1.8 -1.8 -1.8 -1.8 -1.8 -1.5 -1.6 -1.7 -1.8 -1.8 -1.8 -1.8 -1.8 -1.8 -1.8 -1.8 -1.4 -0.7 -0.2 0.4 0.9 1.6 2.2 2.9 13.2 34.8 63.5 93.6 128.3 154.9 182 216.1 243.1 271.2 301.2 332.8 368.3 402 426.3 438.2 435.9 439.3 441.4 433.7 418.9 397.2 387 373.5 363.9 368.6 368.3 370.8 370.2 369.3 371.4 375 363.4 353.6 349.4 345.7 341.5 337.7 344.1 356.7 370.7 368.8 368.6 375.6 386.3 407.7 436.8 470.5 510.9 536 573.1 606.1 625.4 641.8 648.8 649.1 643.8 634.7
191.6 196.2 198.3 202.8 213.7 228.6 244.7 261.3 279.4 296.9 309.9 326.6 345.1 361.9 372.8 387.8 400.2 426.4 427.4 434.9 444.7 457 461.8 472.9 466.4 466.6 461.1 460.1 457.8 456.3 448.2 436.9 422.7 407.3 396.9 386.7 384.7 381.7 380.4 373.9 367.7 385.3 404 420.3 433.4 448.7 461.9 475 490.2 499.5 512.6 535.9 556.3 576.9 593.5 596.5 596.8 581.1 562.5 542.6 516.6 492.7 463 443.8 425.1 415.6 402.1 389.5 381.2 376.4 385.9 397.3 416.1 450.1 501.9 532.9 518.5 517.9 506.1 478.8 460.4 425.3 429.3 424.8 421.2 418 424.5 426 385.2 349.7 348.4 358.6 343.1 328 302.8 257.7 236.9 215.7 196.8 173 153.2 160.1 135.1 108 90.2 58 68 77.9 90.4 103.6 102.4 100.4 94.9 82 63.2 44.2 24.4 9 -1.8 -1.8 -1.8 -1.8 -0.6 -0.6 -0.7 -0.8 -0.9 -1 -1.1 -1.8 -1.8 -1.8 -1.8 -1.8 -1 -0.3 0.4 0.9 1.5 2 3.2 2.7 17.7 39.1 63.4 94.3 120.7 149.1 183.8 209.9 238.7 259.7 299.3 330.1 363.4 395.5 416 435.1 447.1 454.4 465.8 463.7 440.1 423.7 415.7 398.2 388.7 384.3 388.5 378.4 366.7 363.6 362.7 361.4 360.6 357.8 355.4 351.9 343.6 342 340.4 348.4 354.5 357.7 369.5 381 390.6 412.5 436.2 461.5 500.2 530.7 575.2 609.5 635.3 651 657.4 659.6 663.7 658.8
194.7 196.1 199.9 210 223.6 242.4 259.5 283.3 299.9 322.9 345.8 368.2 393 414.9 426.7 432.2 441.6 458.7 457.7 458.1 467.7 475.9 476.5 481.4 489.4 489.5 497.9 504.8 490.9 473.8 460.9 450.9 435.6 425.8 413 392 398.3 394.9 392.8 387.3 382.6 394.7 403.9 417.6 430.8 443.2 456.6 470.4 483.5 492.7 515.2 539.2 560 584.7 595.1 601.9 608.8 604.8 582 557.6 534.3 509.2 485.1 465.5 440.6 427.7 410.6 398.4 394.8 393.3 406.9 421 471.5 484 514.5 537.5 537.6 525.3 512.6 490.1 477.5 461.9 440.2 447.6 454.7 420.5 427.9 433.5 416.3 371.1 361.5 370.1 365.7 347 329.1 287.5 250.4 224 198.4 187.9 162.7 149.5 149.3 122.5 102.6 81.5 58.9 78.9 85.9 105.7 124.1 131.7 117.5 99.6 83.6 64.4 49.2 33.9 15.2 9.9 1.9 0.4 0.4 0.2 0.1 0 -0.1 -0.2 -0.5 -0.9 -1.8 -1.8 -1.8 -1.8 -1 -0.1 0.8 1.4 2 3.1 2.4 6.5 23.2 39.1 59.6 84.7 117 151.4 191.9 210.1 229.1 258.3 298.6 324.4 344.8 361.3 393 422.9 457.2 478.5 486.6 480.3 465.1 450.1 439.5 423.8 405.2 388.7 392 383.5 376.8 363.7 359.3 359 361.1 358.9 352.3 346.1 342.4 342.1 340.5 343.3 346.9 358 372.4 383.7 393.2 416.6 436.5 464.3 501.1 531.7 573.6 606.3 631.1 654.8 653.8 653.9 653.1 651.5
194.1 199.7 209.4 221 238.1 259.6 279.5 306 333.4 363.4 385.4 411.2 431.8 460.4 479.2 486.7 486.2 491.3 490.6 495.9 496.7 501.6 502.7 502.4 503.7 521.9 540.4 540.5 516.2 489.7 472.8 458.3 445.7 437.2 426.1 413.7 411.8 407.3 404.7 398.4 394.9 402.8 408.2 415.8 425 436.8 450.6 463.1 476 488.8 518 549.8 573.4 596.2 609.1 618.7 631.3 629.8 601.2 573.3 550.9 532.3 504.7 474.7 454.6 436.8 422.9 412.9 413.6 417.2 435.8 450.7 495.1 525.7 538.9 558.4 559.8 542.3 524.1 508.7 486.7 493.8 461.6 452.2 460.8 439.8 433.4 436.8 435.2 397 377.4 381.2 388.6 369.9 339.2 327.5 275.3 238 211.8 187.6 172.9 155.9 144.1 138.8 131.5 107.7 78.3 72.1 86.5 98.6 122.8 148.9 152.6 128.4 106.8 86.7 74.3 64.3 47.8 39.1 23.9 4.1 1.5 1 0.9 0.8 0.6 0.4 0.1 -0.3 -0.8 -1.8 -1.8 -1.8 -1 -0.1 0.8 1.7 2.7 2.4 2.4 7.9 16.6 32.7 58 82.3 107.2 138.9 174.3 195.4 222.9 248.2 267 289.7 320.1 360 399.7 437.8 457.5 471.5 482.8 490.9 487.9 469.6 463.3 445.2 422.6 397.8 381.3 379.4 374.6 368.8 359.4 354.4 354.1 351.8 347.6 344.2 342.7 341.7 341.6 342.7 348 356.3 366.8 377.5 393.5 415.7 443.1 471.2 495 527.6 561 595 622.5 638.1 645.6 647.5 640.2 642.4
198.9 209.3 219.8 234.9 252.7 275.7 302.8 334.9 366.3 397.2 422.6 447.6 471.3 499.5 521 532.5 532.1 525.6 527.5 534.5 531.5 533 526.2 527.2 537.6 565.3 581.1 567.7 538.3 508.5 487.8 471.2 456.2 446.5 433.7 431.9 425.1 419.3 414.9 408.3 410.1 415.7 419.5 425.4 429.7 442.2 458 464 477.6 490.7 515 547.1 588.5 618.7 647.2 652.8 660.7 650.4 619.6 597.2 571.5 543.1 517.9 494.8 472.2 453 440.2 437.5 440.2 439.3 455.7 477.4 524.1 557.3 569.3 583.3 574.6 563 540.4 525.4 504.8 508.6 494.2 466.1 463.8 453.9 455.9 446.6 435.9 425.4 391.9 390 397.4 389.3 361.2 333.2 306.7 268.4 233 211.4 180.7 173.6 168.6 153.7 137.5 117 102.5 76.6 86.4 102.5 119.7 134.4 151.9 156.6 133.9 116 106.8 89.6 81 71.8 48.9 27.4 10.7 2 1.8 1.5 1.3 1.1 0.9 0.6 0.2 -0.3 -1 -1.8 -1.8 0 1.4 2.4 1.5 0.4 1.8 3.7 6.9 25 49.2 69.6 92.6 119.7 149.9 176.8 193.4 206.9 244.8 283.6 325.3 364.7 411.2 447.3 465.7 479.2 482.6 490 488.4 487.4 475.3 457.2 432.7 408.7 385.6 379.7 378.3 370 360.7 357.4 356.9 352.8 348.1 345.4 343 341.3 342.3 344.5 352 357.5 365 374 387.3 401.4 426.6 445.3 466.6 507.3 538.9 570.4 596.3 625.9 632 635 636.1 635.3
206.1 219.5 231.3 251.9 269.9 295 332.6 362.8 390.3 429.4 457.4 489.7 513.7 538.8 560.8 567.8 578.2 567 559.3 560 561.1 568.2 572.8 582.9 580.3 599.9 591.2 572.4 547.5 524.7 501.8 483.4 466.8 453.6 446.7 444 437.5 430 424.2 417.1 423.5 429.1 433.4 435.5 438.6 444.7 451.7 462.8 474.6 489.3 512.1 542.4 601.2 648 667.9 678.3 688.4 675.2 642.9 617.6 594.3 565.1 537.9 516.4 500.6 489.8 479.6 467.7 474.7 466.5 483.8 519.3 533.2 573.4 606.3 610.8 603.1 572 556 534.9 521 528.2 522.7 484 482.6 462.2 458.5 454.1 437.4 425.6 421.6 410 407.7 398.2 379.8 344.4 326.1 299.8 262.5 247.2 232.3 222.9 213.2 192.9 181.9 160.3 116.8 91.8 88.1 109.3 128.3 139.9 161.3 175.6 167.1 151.2 131 111.6 106.1 93.2 75.7 50.8 31.5 11.8 2.3 2.2 2 1.9 1.8 1.6 1.2 0.5 -0.3 -1.8 -1.8 -0.3 1.8 2.4 -1.8 -1.8 1.6 4.2 4.7 7.5 29.5 53.7 77.9 106.5 124 147 183.4 214.7 250.6 291.9 328.5 368.8 407.7 446.5 472 488.3 493.2 498 494.7 488 478.8 456.2 437.7 419.1 397.3 390.4 392 379.9 363.5 362.6 362.1 356.8 349.7 346.2 344.8 343.5 344 352.6 358 361.9 363.9 369.9 382.4 393.7 404.1 425.3 454.2 485.4 519.5 552.4 577.8 583.8 596.8 615.3 614.2 619.6
215.2 228.6 252.6 278.4 294.5 319.6 356.8 387.8 415.2 443.5 477.7 519.8 549.4 579.2 599.9 611.5 621.7 601.8 581.7 580.5 599.1 626.4 632.6 627.7 619.9 605.2 590.4 566 545.8 523.8 503.3 488 473.1 464.5 461.3 456.9 449.7 441.8 435.4 436.2 442.1 438.9 444.8 446.2 450 452.4 456.4 464.7 480.6 498 526 537.4 584.2 632.3 676 697.9 706.2 694 665.4 639.6 615.8 592.5 558.9 542 532.4 526.7 520.3 505.6 504.1 490.8 532.6 554 567.2 615.5 629.7 631.3 620.9 602.4 565.9 547.5 543 539.3 544.4 514.9 494.8 481.3 461.7 452.8 439.9 430.4 424.8 423.2 421.7 417.8 391.5 358.4 345.1 330.1 300.2 271 246 244.8 248.3 236.7 213.9 187.9 144.5 115.7 82.5 113.9 153.3 158.3 163.9 178.3 180.6 173.1 155.3 141.2 123.8 106.4 87.1 73.9 52 33.8 14.9 9.2 10.1 10.2 12.1 3.4 2.1 1.2 0.2 -1 -1.8 -1.8 2.5 -1.8 -1.8 -1.8 2.4 3.9 4.1 5.8 18.2 40.6 60 92.7 122.7 155.8 196.3 231.8 264.9 295.5 332.9 370.1 407.5 440.7 473.8 488.9 496.3 505.3 499 493.2 481.6 454.5 439.4 423.8 418.4 407.8 393 389.5 377 373 367.9 361.5 354.7 349.8 346.6 346.2 349.1 356.8 362.3 370 370.9 374 378.1 384.3 390.3 406.4 432.3 482.2 517.9 547.3 557.5 553.4 556.7 559.7 569.9 570.3
231 248 272 302.4 317.9 343.5 388.1 425.7 451.5 478.4 505.7 541.9 576 605.6 631.6 645 642.4 625.1 603.9 612.4 639.2 663.3 654.2 638.1 619.8 601.4 582.3 557.8 539 520.8 504.1 489.8 482.4 475.4 473.5 470.1 467.1 474 472 473.5 472.1 460.8 458.2 464.6 467.5 463.6 467.3 490.8 501.5 520.6 551.2 565.9 576.8 635.2 674.7 714.3 724.8 720.8 690.8 660.8 639.1 622.3 600 576.2 561.6 537.8 532 524.2 517.3 512.2 539 587.3 619.4 637.7 653.4 647.9 636.6 626.6 598.5 577.2 556.3 558.7 565.4 555.2 516.7 489.2 463.8 446.8 439.1 433.5 427.2 415.2 414.2 416.2 403.8 379 361.1 357.2 332.9 293.7 274.5 248.2 247 253.7 230.2 185.6 152 142 108.5 102.6 132.9 172.7 191.1 187.8 190.3 192.5 177.6 164.9 139.1 117.4 102 92.6 81 52 35.1 31.8 32.8 29.7 19.2 6.4 3.2 1.5 0.2 -1.8 -1.8 -1.8 -1.8 -1.8 -1.8 -1.8 3 3.6 3.9 5.6 15.3 28.6 45.6 70.9 107.6 145 189.1 224.1 258.1 296.7 330.3 369.9 404.4 437.3 464.7 488.7 507.5 509.3 502.3 497.6 468.5 455.2 443.6 438.1 442.5 425.7 400.4 396 390.8 383.5 379 369.9 357.8 353 349.6 350.1 354.6 367.2 380.5 382.4 374.6 381.5 378.2 377.7 381.8 397.5 425.1 451.1 494.5 537.8 540.6 530.3 525.6 532.5 534.8 534.9
244.8 264.9 292.2 319.1 341.4 363.1 410.7 456.9 494.5 525.9 556 590.3 621.2 656.1 670.2 684.4 686.2 661.7 640.6 646.8 679.4 688.7 671.2 645.1 618.6 594.5 571.8 551.9 535.6 518.9 507.3 499.1 492.4 487.5 488.7 487.6 499.5 511.8 514.2 512.5 501.8 494.1 494.7 495.8 492.2 490.2 500.4 520 531.8 554.2 585.3 592 583.3 620.2 662.2 727 734.7 739.4 722 698.2 674.9 657.1 625.1 598.6 569.2 547.3 528.7 520.8 516 530.8 558.1 616.7 655.9 667.4 679.6 673 658.2 643.3 635.1 616 591.1 587.1 582.6 568.7 543.5 502.2 479.3 449 434.1 427.1 419.3 410.2 400.3 401.9 406 395.6 381.4 377.6 361.1 325.7 298 279.9 263.7 249.7 224.7 177.4 154.6 141.8 122.4 95.1 131 166.4 187.3 212.6 202.5 205.4 204.3 190.5 180.3 143.1 128.1 114.5 88.7 71.8 60.8 49.1 40.9 35.8 24.8 7 3.4 2.2 -0.1 -1.8 -1.8 -1.8 -1.8 -1.8 -1.8 2.3 2.5 2.9 3.5 6.2 12.8 25.5 44.6 72.5 104.1 143 187.7 224.1 266.7 304.8 339 372.1 400 424.1 445.9 466.8 487.3 492.5 495.7 486.1 464.6 458.3 454.6 454.5 451.8 438.7 412.6 401.9 403.7 399.9 394.2 385.4 368.5 357.8 356.5 357.4 362.1 374 399.9 410.7 388.9 377 376.3 377.4 378.6 387.1 408.7 432 466.9 515.2 519.6 517.4 509.4 515.3 516.6 512.8
259.2 284.9 309.2 331.8 361.2 393.1 438.1 487.4 524.1 559.1 592.9 623.5 650.2 672.6 680.2 689.5 696.8 688.6 682 675.4 690 700.9 677.4 641.2 610 583.4 564.5 547.6 532.8 521.3 514.3 508.5 504.8 499.9 505.4 513.1 533.7 549.7 556.2 550.1 543.6 529.9 532.9 525.5 537.3 545.1 538.4 552.1 561.6 597.9 615.8 625.7 615.3 625.3 655.4 708.8 736.2 734.5 730.8 723.2 703.9 674.5 647.2 626.7 593.6 565.9 555.1 547.3 554.9 557.9 574.6 618.5 673.8 688.4 692.9 694.9 682 664.6 661.5 641 629.2 608.7 593.5 569.8 545.8 501.3 478.1 456.9 427.7 415.8 406 394.1 389.3 383.2 389.4 386.5 386.2 385.9 372 346.9 318.6 306.1 280.5 248.9 224.5 187.4 161.4 142.9 124.3 115.1 132.6 166.1 190.1 211.5 223.4 234.6 217.9 216.5 203.9 186 158.7 128.8 108.1 86.3 84.9 77.7 59.3 42.8 28.9 9.5 3.5 2.4 -1.8 -1.8 -1.8 -1.8 -1.8 -1.8 -1.8 -1.8 -1.8 2.8 3.4 4.8 9.5 24.6 43.5 69.6 98.2 135.4 171.4 213.8 258.2 297.3 329.8 352.9 378.9 404.3 425.5 448.7 462.6 468.8 470.1 462.7 460.5 461.2 459 468.1 462.5 450.2 430.3 409.7 412.6 421.7 408.8 403.1 387.6 369 366.5 368.6 369.2 387.4 417 421.8 405.3 387.2 379.5 378.1 381.2 385.8 402.8 430.9 482.8 491 483 482.8 485.5 487 501.4 495.2
273.3 297.3 326.8 348.9 375.6 409.9 441.9 496.1 538.5 568.9 604.6 631.5 650.7 668.3 677.3 680.5 692.5 686.9 687.7 683.2 691.3 699.8 665.8 629.2 600.6 579.7 561.1 547.2 536 528.3 520.9 518.4 518.6 520.7 529.3 545.2 565.5 587 595.2 600.4 581.1 572 562.4 550.5 565.1 564.7 572.4 590.2 610.4 636.9 646 645.1 637.6 641.9 669.7 710.6 739.6 743.2 739.4 745.6 739.3 710.4 677.6 648.8 609.9 577.7 568.7 563.4 569.9 580.6 632 647.8 681.5 695.9 702.2 702.7 695.4 684.3 670.1 661.1 638.4 618.4 594.8 568.1 550.2 507.5 478.4 459.6 424.4 404.7 395.8 383.2 374.9 368.2 368.4 370.6 370.3 369.3 364.4 359.4 332.9 314.3 283.3 249.8 222.7 200 173.3 159.2 126.2 129.2 147.4 173.1 198.9 229.7 247.6 255.4 246.8 233.3 218.2 202 185.5 154.1 125.3 111.5 107.9 93.5 79.4 64.5 34.5 11.7 4.9 2.3 -1.8 -1.8 0.7 0.6 -1.8 2.3 2.3 2.4 -1.8 2.7 3.7 4.7 9.2 21.6 45.3 66.3 92.3 127.6 165.2 196.6 239.3 267.7 293 323.3 353.8 382 405.4 425.2 440.6 448.6 445.7 452.3 459.6 465.8 471.1 475.6 471.9 462.1 442.5 424.5 417.7 427.5 422.7 417.2 402.8 384.4 385.8 387.8 382.8 402.4 433.8 426 410.7 394.7 383 382.3 388.3 388.4 397.2 417.3 448.2 473.3 488.2 486.7 480.1 475.1 477.7 477.9
286.1 312 338.6 362.1 390.6 423.7 452.6 496.4 542.6 572.3 604.4 626.3 640.2 655.9 670.7 671.9 680.4 683.4 685.2 687.3 693.8 694.4 658.4 623.6 600.1 581.6 564.2 552.3 547.8 541.2 535.1 537.8 543.9 552.5 566.5 576.4 594.1 623.2 634.3 631 620.3 603.6 591.1 592.9 605.9 603.8 608.7 626.6 654.7 679.7 670.5 663.5 662.6 660.5 720 751.2 751.7 750.7 746.6 755.1 756 716.8 689.8 660.4 631.5 606.3 592.4 581.1 589.8 628.9 682.1 689.5 691.6 697.9 698.8 689.1 677 659.2 650.4 643.4 629.9 607.3 587.4 556.7 532.6 503.1 472.3 454.7 419.8 398.7 383.7 370 361.2 355.2 349.5 349.5 347.2 343.4 344.5 343.8 337.9 323.4 302.5 276.2 239.2 214.2 190.6 155.5 118.2 154 165.7 177.7 205.3 235.1 260 268.6 271.5 258.8 238 214.4 197.3 178.5 147.2 138.7 120.1 100.8 93.2 77.8 37 10.1 4.4 2.4 -1.8 -1.8 -1.8 -1.8 -1.8 2.3 2.4 2.4 2.9 3.4 3.9 4.6 7 18.9 47.6 68 97.6 130.8 164.5 189.8 211.1 237.7 275.5 310.8 336.9 362.6 385.7 405.7 416.6 428.9 436.6 449.9 455.3 473.7 481.2 481.5 479.5 470.6 455.5 438.3 425.3 428.1 433.7 428.4 412.2 409.5 410.9 414 402.2 425.2 448.7 436.4 415.3 399.1 390 386.9 403 402.5 399.2 407.6 427.8 470.2 470.7 470.8 471.4 472 487.1 482.3
292.7 316.2 337 369.1 401.2 438.1 460.5 497.2 548.1 571.7 598.4 614.4 622 642.7 660.1 670.3 679.3 687.1 691.5 692.8 697.8 693.1 662.4 625.6 600.2 585.7 573 565.1 562.6 557.3 562.3 573.9 581.8 594.6 597.5 596.5 620.7 659.6 664.9 663.4 656.4 642.6 625.9 624.3 640.4 645.5 653.5 657 700 711.3 692.5 679 668.2 690.6 736.1 747.4 748.4 748.1 749.5 760.7 749.2 713.2 692.7 680.4 647.9 635.5 635.2 630.3 661 677 721.3 715.9 710.7 717.8 712.8 689.5 671.9 642.3 629.3 617 603.1 589.3 570.1 541.4 514.4 493.8 470 450 410.3 390.6 369.6 355.3 347.3 340.2 333.9 327.9 323.5 321.5 319.4 316.4 319 320.2 313.2 291.6 267.8 223.6 186.6 153.7 129 191.6 195.9 211.9 205.2 234.2 269.4 296.5 290.9 275.7 255.6 231.9 203.7 184.8 170 148.9 124.6 108.7 97.1 65.4 32.7 10.8 2.5 2.7 -1.8 -1.8 -1.8 -1.8 -1.8 -1.8 2.4 3 3.2 3.4 3.7 4.4 5.9 18.5 51.3 76.6 99.5 138.1 168.1 188.7 210.9 231.1 258.8 295.4 316.4 342.5 366.7 384.6 399.5 414.2 427.7 443.8 459.4 478.4 483.6 489 487.2 475.1 467.2 454 438.4 432.9 447 447.7 429.7 431.3 430.2 433 423.9 456.4 469 448.4 425.7 412 419.3 434.7 443 433.2 425.9 422.5 444.4 475.1 488.5 488.1 482 480.8 495.4 499.4
287.8 318.6 343.2 364.9 400.3 434.5 466.7 497.3 538.4 558.9 580.6 599.5 602 619.6 641.5 657 666.2 678.7 685.1 684.9 687.9 692.3 667.1 635.7 613.2 595.9 591 584.8 580.5 586.4 599.6 603.4 619.2 634 628.7 630.7 661.1 702.2 700.9 699 697.6 681.4 669.3 664.7 678.4 683 700.9 704.6 740.1 732.8 709.7 694.4 693.8 720.3 740.4 747.3 746.4 752.3 764.6 778.7 761.3 730.1 709.7 701.7 700.8 698.3 704.7 699.1 723.3 731.5 750.4 730.4 725.9 731.5 717.7 694.6 672.4 640.9 609.7 592.6 579.4 565.1 548.4 525.1 499.4 480.1 459.9 444.3 412.6 386.6 370 340.6 332.9 325.8 320.5 312.7 307.5 299.1 294.9 292.7 294.1 294.2 288.7 282.4 258.8 231 201.1 157.1 161.8 196.4 224.6 250.1 239.4 247.4 275.6 302.7 302 283.7 262.7 239.3 213.5 189 179 159.3 131.2 102.5 78.1 52.8 33.3 11.4 4.3 3.1 2.3 2.4 2.4 -1.8 -1.8 -1.8 -1.8 2.7 3.9 3.8 3.8 4.2 5.8 20.5 40.5 69.1 103.8 138.5 166.2 186 210.8 229.1 254.2 278.9 300 323.3 350.3 370.5 386.9 402.9 426.2 451.7 472.8 483.8 489.2 496.9 495.3 485 476.2 462.3 451.2 440.3 455.8 461.3 450.5 445.1 440.5 439.5 458.7 469.3 483.4 463.2 451.1 457.6 477.9 497.9 511.6 506 487.5 478.4 459.2 473.3 502.9 499.4 498.5 500.9 499.2 503.1
289.4 314.7 339.7 371.5 402.2 434 467.2 492.5 522.1 534.5 553.6 572.4 581.5 596.2 611.4 628.6 646.3 659.8 670 669 677.5 684.2 678.6 656.1 639.8 627.7 613.9 607 612.2 631.9 636.8 643.8 659.7 661.8 657.8 655.5 694.1 735.6 737.4 738.4 737.6 720.4 707.3 712.3 720.7 729.6 757.9 756.5 758.7 748.1 731.2 716.7 726.5 736.7 761.9 760.6 758.7 772.7 791 805.1 799.2 759.3 735.8 729.4 745.3 771.5 771 754.1 768.4 771 770 751.4 743.9 724.1 708.7 686.4 663.5 633.1 600.8 573 555 539.5 520.5 504.9 487.4 474.4 447.2 431.2 410.2 381.3 357 333.9 317.2 311.6 307.8 299.4 293.9 284.5 277.8 274.9 272.5 267 264.9 253.5 237.5 211 186.9 156.8 168.3 201 227.2 247.1 260.3 259.1 276.5 297.8 302.6 283.7 263.9 238.5 216.2 195 172.7 154.5 131.1 103.4 70.9 47.1 30.6 13.9 4.3 4.3 4.3 3.8 -1.8 -1.8 -1.8 -1.8 -1.8 2 2.1 3 3.3 4.1 5.3 23.5 47.3 73.8 103.3 137.2 160.5 177.7 209.1 230.9 248.7 266.8 280.8 305.7 328.2 352.9 377.6 392.9 413.1 450.7 474.1 493.2 498.7 506.7 505.8 492.1 479 479.5 467.1 461.7 462.2 470.5 466.9 458.9 456.9 456.9 472.9 486 493.6 477.6 492.1 509.2 535.2 562.4 577.4 566.2 544 518.8 503.5 498.2 500 515.7 520.6 520.7 512.4 505.8
294.4 315.8 335.3 360.1 388.8 424.3 452.1 470 498.4 511.3 528.5 546.8 558.8 571.1 585.8 601.8 619.7 634.2 643.7 650.8 666.4 675.3 691.9 695.5 674.5 654.4 642.4 646.6 662.3 678.9 686.4 683.8 699.3 706.5 692.1 686.2 735 772.2 774.7 777.4 776.5 762.3 740.5 762.5 781.1 782.1 781.1 764.6 763 758.1 746.1 743.2 745.1 762.8 771.5 769 769.2 792.7 818.6 838.1 825.2 797.4 790.5 778.2 795.1 830.2 821.4 808.5 799.8 788.1 774.9 751.4 728 708.5 687.9 664.6 640.4 615 587 561 535.4 513.6 495.4 481.2 468 454.3 436.4 415.8 408.8 382.7 338.8 321.2 308.7 298.5 294 287.4 279.6 270.9 262 257.7 251.9 247.3 242.5 237.4 222.1 194.6 171.1 161.9 187.6 211.6 231.9 249.4 266.3 278.8 282.5 304.8 298.2 280.2 257.7 237 209.9 191.1 167.4 140.7 120.4 103.3 71.3 44.1 25.8 12 4.7 4.6 4.6 4.7 -1.8 -1.8 -1.8 2.4 2.6 2.5 2.7 3.7 3.6 5.2 6.8 26.7 42.9 72.2 106.4 135.5 154.6 172.3 185.9 201.4 225.8 247.4 272.4 286.1 309.3 333.7 361.5 385 409.2 439.8 459.3 481.3 504.5 514.6 512.8 505.5 495.5 494.7 485.5 477.9 465.6 470.5 475.2 467.9 462.4 476.5 484.9 501.9 502.4 498.3 528.2 563.8 581.4 600.1 606.6 593.7 574.3 557.7 545.2 538.4 525.3 519.1 523.9 530.9 527.1 520.8
299 314.3 328.7 356.1 386.6 415.6 440.8 455.5 474 488.2 505.1 522.8 535.7 550 560.4 578.5 591.2 605.6 619.4 639.9 658.5 670.9 695.1 697.4 697.8 692.6 694.2 703.5 728.2 742 737.2 726.3 730.1 719.3 709.7 713.9 763.4 803 808.7 815.8 819.2 803 779.3 812.7 819.2 798.2 784.4 769.5 764.4 764 757.3 764 772.7 771.2 769.7 769.2 778.7 819.5 853.3 869.7 869.5 854.3 852.2 841.5 826.8 864.1 847.2 833.6 805.1 778.3 753.5 727.2 703.5 680 659.2 638.2 614.1 592.3 566.9 541.6 515.2 493.9 475.6 460.9 445.5 434.5 420 400.3 390.7 355.8 329.5 307.6 296.6 284.3 277.6 272.5 265.2 257.2 249.1 237.4 228.9 223.4 219.2 217.1 209 187.4 173.7 182.9 209.8 241 255.1 269.4 282.7 306.4 315.2 304.2 294.5 275.3 248.2 226.2 199.3 178.4 158.7 134.9 110.7 95 75.6 52.4 25.8 9.3 5.5 4.9 4.9 5 3.7 -1.8 2.8 3 3.1 4.2 4.5 4.3 4 4.5 5.5 19.4 37.7 64.3 91 119.3 132.5 149.5 160.8 199.1 226.7 249.8 266.1 284.5 307.7 332 353.7 379.4 404.9 426.2 447.2 467.6 496 519.7 529.2 525.1 515.9 509.5 502.2 491.3 477.1 476.8 473.9 477.9 486.7 490.8 504.7 521.5 516.1 515.9 560.8 593.6 605 614.2 609.5 603.1 594.2 593.4 588.8 575.8 559 543.9 533.9 532.1 533.1 529.4
294.4 311.8 332.2 355.4 375.7 401.2 425.1 440 453 469 483.5 497.9 512.3 525.4 537.2 551.5 563.3 578.2 601.6 624.2 646.6 663.6 689.7 696.8 709.1 711.8 718.3 737.5 757.2 778.7 773.8 759.3 752 745.1 742.2 759.6 801.6 835.5 845.6 861.2 867.6 832.8 815.1 845.2 820.2 800.1 787.5 778.3 769.3 764.9 768.3 788.7 795.1 789.2 787.5 795.3 810.2 847.2 885.9 905.2 915 907.7 896.6 886.6 868.1 853.4 836.8 807.7 783.7 750.8 721.6 698.3 675.4 652.4 629.8 608.1 587.9 566.7 543.9 517.6 498.3 472.7 454.7 442.5 427.2 417.5 406.3 388.7 373.3 347.5 322.6 302.7 286 279.6 268.8 256.9 250.1 240.9 229.4 218.4 208.6 205.1 201 195.9 183.3 207 211.5 212.8 234.1 280.8 289.5 319.1 318.8 347.1 333.5 308.6 294.7 269.2 240.8 214.1 194 170.8 147.7 126.6 105.7 83.7 66.2 54.8 44.6 13.4 6.3 5.2 5.4 5.7 5.1 3.5 3.4 3.5 3.5 4 4.5 4.1 4.2 4.8 5.4 11.1 32.5 56.7 89.1 91.2 110 133.7 163.4 203.3 240.7 267 284.2 307.9 333.2 354.5 356.7 374.5 400.9 418.1 435.5 456.6 485.9 525.7 546.1 543 535 526.9 519.2 514.7 499.9 491.8 482.4 484.7 495 506.9 520.9 537.5 536.6 531.3 564.4 596.9 614.2 616.3 603.6 600 606.2 612.8 610 598.2 586.2 574.4 563.6 552.5 538.7 507
287 303.9 329.3 345.6 366.3 386.5 407.2 424 434.9 452.5 463.6 475.5 490.3 502.1 514.2 526.3 541.9 565.3 584.4 616.8 635.3 663.2 681.1 694 710.8 720.8 734.4 752.1 772.4 795.5 805.1 799.9 788 787.4 779.8 795.9 842.7 868.4 882.4 904.4 905.9 871.4 863.8 853.9 829.4 805.3 798.4 796.3 794.4 807.8 811.3 818.1 811.8 812.5 817.8 833 850.7 881.1 918 938.9 953.4 935.2 922.5 899.7 869.9 834 801.4 771.4 748.4 720.5 694.1 665.2 643.8 622.9 602.2 580.2 560 539.2 516.2 492.8 471.6 452.1 435.9 422.9 413.3 401.6 390.7 371.8 355.6 329.4 312.4 291.5 274 265.1 259.9 247.9 234.9 225.5 216 209.8 210.6 204 205.3 208.3 226.7 246.7 247.2 250.2 261.9 301.1 347.2 370.4 359.1 364 338.1 307.2 288.7 266.5 234.8 209.8 195.8 175.9 145.9 122.4 102.2 84.2 75.9 55.3 54.9 34 7 5.5 5.7 5.9 6.1 4.7 3.9 4.4 4.7 4.2 3.2 5 5.2 5.4 5.5 14.7 34.8 55.8 69.7 83.2 106.3 136.4 162.6 194.7 236.4 267.2 293.4 330.1 353.8 376.5 381.5 379.3 402.7 421.5 440.6 460.3 484.4 518.5 544 553.5 551.4 540 533.9 532.1 520.6 504.2 490.5 484.4 494.2 504.7 516.3 531.4 542.5 541.4 564.6 591.1 604.8 614 608.1 603.7 611.9 605.9 607.2 603.7 595 579.9 566 545.8 517.8 485
286.2 299.5 318.3 337.5 352.8 368.4 390.3 407.1 419.5 434.2 444.6 456.3 470.6 482 490.9 507.7 527.2 553 580.6 606.7 628.5 652.8 669.8 696.4 712.7 727.6 750.7 765.5 783.2 809.4 827.3 841.9 842.1 828.8 815.8 832.8 878.1 900.8 919.7 941.3 947.8 928.8 907.9 877 850 827.7 817.3 821.7 830 847.5 834.5 823 821 830.2 839 860.3 885.6 918.2 947.8 936.6 925.2 887.2 877 869.8 839.8 814.8 779.5 746.4 710.6 683.1 656.9 632.9 611 591.5 572.1 551.4 529.2 507.2 486.7 467.2 448.8 432.5 419.6 409.4 400.4 389.8 372.4 353.6 335.6 319.9 299 285.2 274 259.4 251.5 241.1 229.8 221.2 223.7 225.3 222.6 221.2 221.6 234.5 254.9 267.1 273.7 282.7 301.4 347.3 384.2 402.9 381.5 352.6 323.8 296.5 272.2 256.3 229.3 209.7 199.4 180.4 150.8 127.4 106.1 89.7 79.4 60.2 46.4 31.5 10.9 5.8 6.1 6.3 6.5 6.4 6.3 6 5.5 5 4.2 5.8 5.7 5.4 8.3 22 40 50.3 60.4 79.4 112 146.5 174.3 205.6 239.9 266.8 299.3 342 367.8 392 398.4 398.6 416 437.4 452.8 466.6 483.6 499 521.4 549.7 563 552.5 550.9 543.9 532.1 515.6 502.3 490.5 487.6 491.8 501.1 504 508.4 513.8 526.8 553.6 578.5 588 593.6 587.9 571.9 561.7 570.4 560.2 532.1 522.1 518.1 497.4 474.1 448.1
283.3 294.7 307.1 329.4 344.7 357.1 375.6 391.8 404.2 417.9 427.7 440.1 452.8 462.6 474.3 492.4 513.4 539.1 569.8 593.6 616.3 641 657.1 681.1 702.4 727.7 756.2 774.3 792.4 818 839.9 859.1 875.4 866.4 852.5 874.1 914.5 935.9 955.8 972.1 986.8 963.6 935.7 915.7 892.2 866.6 866.9 874.7 883.1 892.9 872.9 843.8 828 840.2 852.3 886.4 916 923.1 905 897.2 894.5 850.8 828.7 833 808.6 789.7 759 723.6 693.8 660 627.6 601.8 574.7 557.6 540.3 522.7 504.1 490 464.7 444.9 426.8 414 405.9 398.3 388.1 376.3 358.9 340.6 325 313.6 293.2 278.2 268.4 256.7 251.5 243.7 229.4 235.3 237 236.7 239.2 242.8 253.4 269 284.2 300 316 329 364.5 376.5 407.3 428.7 396.4 358.3 326.2 290.4 268 245.6 224.8 206.1 198.8 177.7 154.8 132.2 113.8 111.4 99.4 76.8 57.9 33.4 8.6 6.9 6.1 6.6 6.7 6.6 6.5 6.4 6.2 5.6 5.2 3.6 5.9 6.7 10.7 19.7 32.6 50.6 72.3 100.7 129.2 158.1 185.8 212.8 245.9 277.4 312 351.7 374.8 395.6 406.7 415.8 436 455.9 471.1 477.4 483 494.3 511.5 527.6 552.9 562.4 561.1 553 537.5 525.5 514.9 501.8 487.4 488.6 501.5 506.7 499.6 489.5 487.1 505.7 521.9 532.8 532.3 522.3 510.3 508.1 512.1 516.8 493 482.8 474.2 461.8 443.2 416.8
275.5 288.4 302.9 317.9 331.8 343.6 361.5 378.1 391.5 402.5 414.9 427.4 437.8 447.5 463.1 483.7 501.5 526.5 555.7 578.7 601.9 626.8 642.8 662.3 687.8 717.9 747.6 774 794.5 816.3 841.1 863.8 879.9 894.2 897.1 923.2 933.6 943.3 957 970.7 987.2 993.1 972.9 957.4 920.2 904.5 917.5 921.7 934.2 932.2 912.7 877 859 862.3 879.8 907.1 897.6 876.7 859.9 847.8 832.4 824 787.2 791.4 770.5 746.3 725.8 697.7 669.4 633.4 604.5 564.8 542 525.3 512.9 501.3 487.6 468 443.5 425.3 408.6 398.7 392.4 386.2 377 361.6 347.7 335.2 316.5 297.6 281.5 264 255.1 254.4 247.3 242.7 242 248.4 251.6 252.5 261.7 271.8 283.8 302.1 333.4 364.9 371.6 403.2 416 419.1 440.5 426 393.5 362.6 322.2 291.6 267.1 247.5 227.8 203.2 188.2 174.4 157 136.4 122.5 121.4 105.1 82.4 57.7 33.6 11.4 8.1 7.2 6.7 6.7 6.8 6.7 6.6 6.4 6.3 6.2 4.8 5.6 6.6 9.9 14.9 35 48.4 70.6 103.8 136.7 163.6 199.7 226.4 256.6 287.5 313.9 350.8 372.6 404 418 426.4 450.8 460 469 478.2 486.5 501.9 506.6 516 521.3 540.4 553.9 557.9 546.1 534.8 521.7 509.8 495.1 485.1 489.1 496.5 492.9 477.2 470.4 466.7 474.7 481.1 480.5 469.2 464.6 469.8 455.2 444.4 445.1 440.1 439.1 431.9 410.9 390
265.9 281.4 293.3 304.9 318.5 335.5 350.2 366.6 378.5 389.4 402.8 415.3 425.2 436.4 454.3 471.9 491.9 512.1 540.9 560.3 585.8 609.4 625 644.4 666.5 697.2 731.8 765.5 787.6 806.6 829.4 850.7 867.2 885 898.9 911.3 923.7 936.2 948 961.7 975.9 990.4 1004 993.8 971.4 955.6 948.1 955.3 952 949.8 932.2 911 899.9 906.8 927.3 931.7 890.4 830.9 811.3 789.4 790.4 773.6 742.8 749.7 733 709.2 690.2 662.9 632.5 608 573.4 540.7 518.1 508.4 497.2 481.5 466.6 444.4 425.7 408.7 395.1 387.5 380 371.2 362.9 354.1 343.3 330.7 311.8 288.9 271 263.3 262 255.9 249.7 259.9 254.7 263.8 269.3 275.3 286.6 298.2 311.8 335.9 386.9 412.6 436 452.9 457.1 462.7 445.3 424.3 388.2 353.7 320.4 297.6 269.9 255 239.8 200.6 182.7 170.6 155.7 140.8 133.6 128.4 121.9 102.8 85 42.5 16.9 8.5 7.8 7.1 7.1 7.1 7 6.8 6.7 6.7 6.5 5.7 5.4 7.6 9.7 19.2 32.7 52.2 74.7 99.6 135 171.8 201.1 236.1 267.4 302.5 330.1 356.4 374.3 404.9 426.8 432.9 449.3 453.9 459.7 472.2 497.1 510.7 513.3 512 516.9 523.6 538.7 548.2 546.6 539 522.4 510.7 494.5 485.7 479.7 478.2 474.8 465.8 453.3 449.9 448.3 444.6 444.2 439.4 428.8 420.1 418.6 421.3 422.3 410.1 398.6 393.3 383.1 367.9
259.5 273.8 284.8 296.2 309.2 325.7 339.1 354.1 367.4 376.7 390.1 402.6 415.4 428.3 441.9 456.6 472.6 499.2 523.9 546.2 573.2 591 605.9 624.6 650.6 678.1 706.8 739.3 764.9 785.2 809 828.4 844.6 860.6 876.6 891.3 906.6 919.6 931.5 943.1 956.9 969.6 980.1 985.7 998.7 977.8 966.6 968.1 965.1 962.9 945.8 934 935.3 950.3 954.2 919.4 862.9 811 769.5 750.3 735.5 728.4 715 707.3 698.9 677.8 654.8 626 600.2 575.3 541.3 512.5 500.1 492.9 486.1 459.9 439.7 424.6 410 397.8 384.3 377 368.2 356.7 346.6 342.3 338.4 325.7 305.6 285.5 277.4 274.2 268.7 267.1 264.7 273.2 273.6 281.7 286.1 298.9 311.3 321 336.8 373.7 400.4 439.6 485.3 500.2 495.6 469.2 437.1 408.9 375.4 342.8 315.6 299.2 271.3 249.3 230.5 204.9 183.2 169 156.1 148.8 144.6 137.3 127.4 118.2 97.2 57.5 29.2 11 8.3 8 7.4 7.3 7.2 7.1 7.2 7 6.9 6.3 6.3 7.9 10.1 22.4 37.8 55.4 76 102.7 140.2 168.4 206.1 246.3 281.7 315.1 342.3 363.2 376.9 408.3 428.2 428.1 436.4 443.8 452.6 461.2 483.3 499.6 504.7 506.4 511.3 513.4 517.1 522.4 529.2 524.5 512.1 489.8 475.7 473.7 467.5 455.4 452.5 444.3 433.5 427.6 418.4 410.9 409.1 402.8 391.5 385.8 380.9 382.2 380.1 377.3 368.3 357.1 342.6 328.8
249.5 264.5 274.3 286.8 300 312.3 328.5 342.7 352 361.4 378.8 391 405.1 416.5 428.8 442.7 461.4 491.6 511 532.5 555.7 573.2 586.7 605.5 629.8 656.4 683.6 706.3 736.3 764.4 784.9 802 817.3 834.2 849.9 864 881.3 896.4 906.2 918.9 931 943 952.7 963.4 980.7 998.1 993.3 993.3 987.5 972.5 960.6 959.9 966 934.5 892.6 831.3 795 756.3 727.9 708 691.2 679.6 662.9 659 664.8 650.1 628.5 599.3 557.5 533.3 510.7 493.7 485 475.6 465.1 449.7 428.5 411.9 400.4 388.3 372.2 362.7 355.4 346 335.7 330.1 320.1 306.6 294.4 295.9 291 287.2 277.8 272 279.9 285.9 291.1 297.4 306.6 320.6 333.6 346.7 364.9 393.4 427.2 461.7 498.2 520.1 500.6 465.2 433.8 400.9 370.3 340.6 313.6 287.5 261.5 244.6 224.8 204.8 185.3 169.1 160.3 153.9 149.3 139.1 129.8 118 95.2 76.6 36.1 15.9 9.8 8.6 8 7.7 7.5 7.4 7.6 7.4 7.1 6.5 5.7 7.5 9.4 17.6 33.4 50.3 63.8 92.9 124.2 164.1 212.4 247.8 284.3 314.6 341 363.6 382.1 408 422.7 427.2 417.7 424.4 436 443.2 452.3 470 474.2 474.3 475 491.1 490.4 494.9 502.1 491.2 475.9 459.9 444.2 432.3 433.1 433.2 422.4 414.8 404.3 396.3 385.7 377.9 370.4 368.3 358.2 350.3 349 338.9 329.3 327.4 337.5 336.9 305.8 278.8
240.4 253 266.5 278.1 289.7 303.9 316.4 329 339.4 353 366.6 380.4 392.6 404.2 417.1 432 450.1 470.3 491.1 515.1 536.2 551.6 568.1 585.1 608 627.8 655.3 680.5 710.8 733.6 754.5 772.5 788.8 805.4 820.7 834.2 851.2 865.9 878.4 890.8 903.1 915.1 925.8 938.3 954.9 972 989.4 1009.7 1015.8 1004.8 990.6 988.9 971.7 925.1 882.9 830.4 773.5 740.4 707.5 676.6 658.5 645.6 632 624.5 615.7 617.8 604.6 576.9 538.6 511.8 496 484.6 473.9 463.9 455.2 441.6 421 401.7 392.1 379.9 365.2 350.1 344.4 337.6 326.4 319 306.3 299.6 307.4 304.2 309.4 303 292.4 287 294.3 300.8 308.4 315.4 326.3 342.2 372.7 393.8 400.3 440.4 465.5 495 518.1 524.5 498.5 470.2 433.3 399 370.7 341.9 307.3 277.7 255.3 239.9 225.1 206.8 190.1 178.5 160.8 154.4 149.1 138.7 128.2 122.3 93.9 66.7 42.2 19.7 11.5 9.1 9.3 9.1 8.9 8.6 8 7.9 7.8 6.9 6.5 5.7 8.7 10.7 24.3 38.9 59.4 83.4 121.4 149 189.2 228.4 268.1 306.6 332.2 351.2 363.7 382.2 398.8 410.8 417.2 411.7 404.9 412.5 433.3 437.4 433.4 434.3 441.8 452.5 444.2 467.7 465.2 451.9 444.5 432 416.3 395.1 389.4 384.6 393.5 385.5 377.7 363.4 349.8 343.7 335.5 330.3 325.3 323.4 316.3 303.4 298.5 305.6 310.2 290.4 265.8 253.6
233.7 246.6 259.2 270.1 281.6 295.1 307.4 315.9 328.7 339.1 353.7 366.1 378 388.8 402.7 415.9 432.5 452.4 471.9 497.4 514.1 529.7 549.5 566.2 586.8 608.4 631.5 654.6 679.9 703.7 723.1 743 759.8 774.1 789.1 801.6 818.4 830.9 846.8 859.7 871 887 900.4 914.4 929.6 946.2 963.4 981.1 989.5 995.1 1000.6 1006.3 967.7 923.9 834.5 792.9 754.9 724.6 693 652.9 636 626.9 615.3 604.8 594.5 581.7 563.4 562.1 539.9 506.5 492.7 483.5 474.5 463.6 446.3 424.9 408.3 392.6 382 374.5 353.2 343.2 334.8 329 317.1 313.8 315.1 318 315.4 321.1 324.8 320.1 307.4 301.2 308.4 316.1 324.1 333.1 347 367.5 422.3 434.1 444.9 490.2 514.2 534 543.5 518.9 493.6 463.1 432.6 401 366.1 335.3 306.4 284 268.1 247.9 227.5 209.1 200.2 185.3 167.4 155.9 149.5 143.1 132.7 119.2 104.6 95.2 62.3 32.9 18.9 10 9.6 9.5 9.7 9.4 8.7 8.2 7.8 8.4 7.8 6.8 8.8 10.1 22.6 41.2 66.9 88 111.9 140.2 177.1 220.5 267.5 297.5 312.6 328.5 337.4 355.3 362.4 373 377.3 380.2 379.9 379.6 382.1 385.7 383.2 389.3 397.3 401.1 400.6 408.8 423.6 417.8 409.2 399.5 382.4 361.8 356.3 345 339.5 338.2 346.1 338.5 325.8 309.2 301.6 291.2 285 276.3 278.9 275.4 268.3 264.4 259.8 244.3 225.3 217.2
234.5 240.7 249.7 260.7 271.7 282.7 293.9 305 316.9 327.5 337.5 350.4 360.5 369.4 383.9 398.6 415.3 436.4 453.3 477.8 492.1 509.2 527.2 544.2 564.8 583.3 607.5 630.1 653.8 673.3 695 715.3 734.5 744.4 754.8 766.6 782.8 793.9 813.7 825.4 838.6 858.9 876.3 890.5 906.5 922.3 936.3 950.6 957.9 961 964.1 968.2 966.1 926.8 851.4 785.5 751.1 722.3 691.2 646.5 630.3 626.6 610.5 594.4 591.3 581.4 545.8 525 512.6 498.1 487.4 480.2 471.7 462.1 450.3 415.2 399.3 383.5 370.3 356.1 345.8 339.3 330.9 325.5 320.3 325.4 328.7 328.1 332 337.4 336.6 333.2 323.6 315.4 324.5 332.5 341 353.6 370.5 402.7 458.2 477.5 490.9 527.9 558 562.1 549.6 526.5 489.6 455.5 422.1 391.1 367.7 339.2 313.8 294.9 278 257.6 229.1 218.2 218.1 194.9 175 156.4 148.9 143.7 133.8 122.4 109.3 97.6 74.6 43.8 27.3 11.3 9.4 10.4 10.7 10.1 9.6 8.7 8.2 8.8 8.1 7.7 6.7 10.8 22.9 43.9 75.6 95.4 113.2 137.7 169.2 209.3 254.8 281.9 297.4 305.2 329.5 349.4 351.9 354.2 356.7 355.9 353.8 351.2 354 355.3 351.3 352.7 354.1 353.7 355.2 361.9 373.1 374 387.1 382.1 361.7 336.2 324.3 314.2 304.9 302.9 301.4 299.2 291.8 280.5 266.5 261.2 260.1 253.2 251.2 244 234 224.3 216 197.5 185.1 171.3
227.6 236.8 243.6 250.2 259.6 270.1 281.8 293 303.3 314.5 322.4 332.9 341.4 351.1 365.1 383.2 399.8 417.4 435 454.8 466 486.3 503.3 520.6 540 559.2 583.7 602 627.5 646.8 666.2 687.3 706.4 717.9 721.8 731.3 744.7 757.9 776.7 787.3 806.7 829.7 846.3 867.5 885.4 900.2 911.3 918.5 924 925.7 928.5 929.3 928.3 923.2 918.8 808.1 753.4 721.7 690.9 653.6 634.3 623.1 614.4 588.6 568.6 547.1 515.5 501.1 492.5 485.5 478.7 473.9 469.7 463.6 450.6 410.8 394.7 382.4 371.2 361.7 357.2 347 333.6 333.1 333.8 338.3 343.2 345.7 345.8 349 349.9 349.2 342.7 330.1 339.7 350 359 377.4 406.2 449.5 509.9 524.2 551.1 572.6 570.5 558.3 552 534.8 499.2 453 415.5 390 367.5 344.5 324.8 305.8 282.3 258.2 245.9 232.7 223.6 210.1 189.3 164.6 152.9 147.3 133.4 124.6 108.6 92.7 75.9 55.1 31.5 12.8 10.3 11.3 11.7 11.5 10.4 9.4 9 9 8.6 8.2 7.6 10.4 24.4 38.9 64.8 87.1 108.6 133.1 172 200.5 237.4 264.3 280.4 298 323.7 327.7 332.9 327.6 328.8 326.9 322.9 319.9 325.8 323.6 311.8 311 315.7 317.2 321.9 328.3 328.8 340.7 360.6 362.1 349.1 321.7 302.1 293.1 284.9 275.6 265.6 260.4 272.8 261 248.6 234.1 226.1 229.8 216.6 206 191.9 182.8 171.6 165.2 146.6 143.8
219.9 228.6 235 241.3 248.9 257.7 268.2 279.9 290.7 300.4 308.8 314.6 322.5 333.9 347.6 362.3 379.9 400.1 413.3 433.6 439.9 463.6 477.8 493.4 514.2 532.3 558.5 577.1 599.8 620.3 639.8 657.8 677.2 690.5 695.3 699.9 710.1 718 732.2 757.1 771.6 793.3 816.1 842 862.4 880.7 890.8 892.7 893.3 892.1 892.5 898.6 903.3 906.6 907 875.1 781.2 719.4 687.8 664.9 651.2 627 607.7 590.2 558.6 523.5 496.7 486.8 479 475.2 470.7 468 465.2 458.7 440.7 409.2 396.7 391.4 375.2 367.9 358.7 352.8 350 353 352.8 354.3 357.8 357.3 361.6 362.8 366.3 369.3 362.2 345.7 354.4 367.7 380.4 404.2 442.7 496.1 549.2 573.5 593.9 594.4 573.9 556 545.9 532.9 508.1 465 422.7 392.5 372.7 352.5 335 313.6 290.6 274 261.4 251.7 235 222.1 203.4 175 160.9 148.8 138.8 129.5 113.3 95.3 76 66.9 41 16.5 15.6 13.3 17.5 14 11.4 10.2 9.6 9.5 9.4 9.2 7.9 9.6 13.3 29.1 47.6 68.5 92.1 123.8 158.8 191.7 226.4 257.1 264.5 270.7 280.2 287.9 290.5 289 283.7 282.5 283.1 285.5 285.8 281.2 276.3 278.7 282.1 280.2 288.4 301.4 300.2 300.1 323 341.1 317.9 304.1 287.6 273.7 266.2 253 247.6 236.4 240.6 237.6 221.3 208.3 199 197.2 186.9 176.1 163.5 157.5 144.5 129.1 123.9 118.5
212.8 221.3 227.9 232.7 237.6 249.2 260.2 270.2 279 290.3 294.6 297.7 306.8 320.4 332.2 346.6 366.3 383.4 396.4 410.6 415.9 437.2 451.2 466.6 486.9 506.3 527.3 550.6 575.5 592.4 611 630.7 647.6 660.8 667.2 670.4 677.4 686.3 697.6 717.4 728.4 761 790.9 817.9 832.9 853.1 866.2 867.1 860 853.8 847.4 857.3 877.1 888.9 887.3 879.2 814.8 743.9 712 697.1 678.5 649.5 627.2 605.2 570.6 528.9 483.2 471.6 467 464.2 463.2 461.4 460.5 451.2 426.3 408 396.7 390 383.2 371.8 370.3 372.4 376.7 377 373.7 368.8 369.4 369 373.6 378.8 386.1 391.1 376.7 357.1 370.2 386.5 404.3 435 493.1 543.7 585.7 601.2 607.6 589.8 571.9 562.4 548.3 530.7 509.6 476 436.8 402.1 381.7 363.2 347.9 328.8 303.8 291.4 282.7 261.6 237.4 220.8 204.6 182.8 166.6 152.7 141.7 132.6 120.8 103.6 85.9 64.5 41.2 28.9 30.1 16.9 25.8 29 13 11.3 10.3 9.9 9.7 7.3 8.6 9.6 18.9 14.7 46 67.1 92.3 127 151.4 175.5 207.7 228.2 225.5 238.5 235.7 232.7 239.3 250.6 251.2 244.1 244.7 251.2 251 250.8 253.3 248.3 241.1 247.1 252.4 274.7 276.5 267.2 277.5 280.7 264.4 275.7 268.5 254.5 242.8 225.7 217.7 217.9 221.5 217.5 213.5 200.5 173.9 154.6 142 130.2 133.6 124.2 127.6 121.2 104 98.7
207.6 213.4 217.7 222.3 229 239 249.4 259.6 268.5 277.1 280.9 284.9 292.1 307.8 314.8 331 349.3 363.8 376 391.9 395 416 429.7 446.5 463.4 484.6 502.1 524.7 550 564.2 584.1 601.2 618.4 630 638.3 642.2 649.9 659.3 668.6 683.8 696.6 733.4 763.8 801.6 814.2 826.4 836.2 837.6 830.2 824.4 820.3 820.9 830.5 850.2 864.4 866.1 842.5 783 751.2 725.5 705.1 671.2 649.1 617.5 568.7 514.1 486 474.4 468 460.6 455.5 455.6 453.9 442 428.5 412.3 397 393 387.4 387.6 389.9 392.9 394 393 391.2 385.5 385 387.8 388.4 396.3 401.7 401.1 388.7 374.8 389.7 405 428.8 468.5 522.5 573.7 609.5 604.7 598.8 580.9 568.1 562.3 548.4 530.6 509.5 498 464.1 431.2 407.3 389.9 374 350.3 338.6 323.1 305.5 280 260.4 240.4 217.4 190.8 176.1 160.2 143.1 132.6 122.2 106.5 92.9 67.2 46.7 44.8 40.6 27.7 16.4 31.5 15.6 11.8 11.4 11 10.6 8 9.2 10.4 26.6 33 32.3 42.5 71 103.3 127.9 146.5 176.8 185 184.1 196.9 201 205.7 213.2 218.8 232.1 227.9 218.4 218.5 217.9 222.1 223.5 211.5 203.3 207.6 225.9 236.4 227.7 228.5 245 227.8 214.4 232.4 241.2 233.1 218.8 201.8 195.9 189.3 194.8 196.2 191.6 182.3 157.7 135.5 117.2 103.8 94.4 104.6 117.8 105.9 92.2 81.7
200.8 206.3 209.1 214.3 220 227.4 237.7 247.7 255.9 264.6 267.7 270.8 276 290.3 299.9 317.5 334.6 344.9 355.9 369.2 369.1 399 409.7 425 441.2 460.2 475.2 497.8 524.8 535.9 552.6 570.1 589.3 600 607.2 612.1 619 634 649 659.8 670.2 693.6 735.5 771.3 794.6 808.4 820.4 820.9 822.3 820.2 814.9 810.7 806.5 819.1 843.1 852.5 836.3 822.5 817.1 814.2 802.4 736.7 666.3 623.5 561.4 525.7 496.1 470.6 460.9 457 451.9 449.5 444.9 439.1 437.2 427.1 412.8 407.5 409.1 407.5 408.6 409.2 411.8 415.4 414.2 410.5 408.1 408.2 404.8 407.1 414.9 411.4 395.2 393.3 407.4 426.5 456.7 509.2 546.5 589.4 616 604.9 588.2 571.8 567.7 559.3 546.3 528.1 509.8 497.1 483.2 466.4 447.6 428.5 406.7 385.8 369.9 339.8 318.4 301.7 282.6 256.4 226.6 205 187.8 167.4 148 134.2 122.7 106.4 92.2 76.2 67.8 59.4 51.6 37.1 22.6 24 17.8 12.1 12.4 12.2 11.3 9 10.3 12 27.7 39.4 41.3 39.4 36.2 55.8 76.9 98.2 117.7 137.7 148.3 159.3 166.3 177.2 187.8 195.5 195.2 194.4 199.9 202 201 193.2 188.6 185.1 184 177.2 175.2 182.5 184.1 188 177.5 170.6 175.5 191.6 198.6 201.3 190.9 178.3 177.8 172.2 166.9 161.6 159.3 150.4 144.1 124.4 101.4 85.1 74.2 85.2 96.2 84.7 79.6 72
191.9 197 199.1 207.5 214 218.8 225.5 234.5 242.2 250.8 255.8 258.6 263.9 272.6 281.1 297.5 309.9 325.7 336.5 345.8 356.2 375.8 388.8 405.8 422.1 436.7 453.8 472.2 494 507.1 524.5 540 563.1 567.2 572.7 580.8 597.4 610 630.4 642.4 650 665 688.5 738.1 765 791.9 803.4 807.6 810.2 810 810.2 805.7 801.1 805.1 817 828 816.6 804.6 826.5 830.1 808.5 742.6 650.9 610.2 584 562.2 501.2 468.9 462.6 465.6 464.5 459.7 450.8 455 462.6 469.1 462.3 435.7 432.2 431 432.1 431.4 436.4 446.9 447.9 447.2 438.4 429.8 424.7 423.1 428.6 422.3 402.9 412 427.1 451.7 493.7 540.5 584.3 623.4 614.9 597.4 583.7 566.8 564.7 553.3 538.4 519.4 502.5 494.5 487.2 474 459.7 441.9 427.4 409.1 386.5 360.8 348.8 328.6 305.9 276.3 243.4 217 193.3 171.4 151.2 136 123.8 109.5 102.4 95.5 89.9 80.4 63 44.4 27.3 20.4 19.4 13.8 13.4 13.1 12 8.8 11 18.9 27.8 42 48.9 50.1 52 38.3 48.9 72.7 89 103.3 120.7 134.8 147.9 156.9 168.2 170.9 162.9 167.3 169 178.6 173.5 168.5 168.2 168.8 167.2 161.7 154.6 149 146.6 141.6 140.5 134.3 138.3 143.8 159.3 165.2 160.6 156.1 154.2 148.2 141 133.3 126.6 126.9 118 106.4 91.3 78.5 66.5 64.8 69.8 65.1 64.7 61.3
181.4 187.3 195.8 200.2 205.4 210.7 218.7 228.4 234.9 240.8 246 250 256 263.1 269.6 281.1 293.8 309.7 321.5 325.7 339.8 358.8 369.9 386.1 399.6 414.6 433.6 451.9 466.3 481.3 499.9 508.8 529.3 537.6 542.4 553.4 569.6 585.8 614.9 627.9 632 643.3 660.6 699.2 726 747.6 771.6 783.8 788.1 789.4 792.7 790.5 790.5 801.2 805.7 821.5 814.1 801.7 822.2 828 782.8 732.9 673.2 638.8 620.1 576.4 516.9 487.2 482.3 488.9 488.2 461.7 455.1 467.1 473.7 480.7 476.6 466.6 464.1 463.8 469.9 468.7 475.7 478.9 487.2 486.8 479 472.8 447.3 441.7 441.3 429.5 412.1 430.2 442.9 484.7 536.2 579.7 618.8 632.9 611.4 592.5 579.8 564 555.5 539.8 523.5 509.7 493.3 486.2 482.2 473.8 459.8 438 424.9 409.8 388.1 369.5 357.5 340.8 323.7 295 260.9 228.9 199.7 177.6 157.8 142.6 131.3 120.8 111.1 109.6 100.1 86.6 67.9 49.7 29.9 22.4 17.3 15.2 14.4 13.9 12.7 10.8 12.1 16.5 26 33.8 43.6 48.9 55.2 57.3 53.1 50.3 71.5 87.8 105.7 118 131.2 138.6 141 140.5 139.5 136.8 133.9 143 141.6 143.5 144.6 143.9 145.8 140.9 139 136.6 124.4 114.2 104.2 96.3 99.3 114.8 113.5 125.4 134.5 139.4 144.3 130 111.9 103.1 98.4 95 90.2 89 79.8 68.3 61.5 59.4 60.9 61 57.7 65.2
173.3 180.4 186.9 192.2 197.9 203.2 210.8 217.9 224 230.7 232.3 240.8 248.7 255.7 260.9 270.6 281.9 294.1 303.3 307.8 327 340.1 345.2 362.7 380 395.7 413.7 430.7 444.5 458.8 470.1 476.8 501.3 516.6 519.2 530.8 546.4 554.3 578.4 611.3 617.5 628.5 646 663.2 685.1 703.9 726.4 743.7 756.7 754 761 760.7 760.4 785.7 794.3 803 799.6 803.6 820.8 841.5 818 765.4 739.4 700.3 654.9 606.4 573.2 536 524 519.1 493.9 470.3 464.6 477.8 488.4 492 495.7 500.7 500.8 517.5 533 547.5 553.9 545.1 525.1 511.3 498.2 489.8 471.9 456.9 452.4 438.9 425.9 443.5 463.6 524.4 578.3 617 648.4 630 608.5 589.9 575.8 553.9 540.2 521.7 505.5 495.8 483.2 477.5 473.3 467.9 455.6 441.9 422.3 412.9 382.6 364.5 348.2 333.3 316.7 296.6 271.8 241.6 209.2 184.5 166.7 151 140.7 127 118.8 123.4 115.5 107 81.1 52.9 32.7 25.4 16 16.5 15.7 14.5 13.1 11.8 11.3 15 19.3 24.1 30.5 39 52.1 58 62.5 61.1 45 62.3 64.4 99.5 112.2 112.6 117.5 111.9 107.9 104.6 103.5 101 101.5 105.8 110.4 118.6 120.1 115 111.8 108.5 95.7 89.9 80.4 74 68.6 82.6 95.4 91.7 111.1 105.4 112.6 112.3 95.6 82.9 74.7 74.5 71.3 71.4 67.2 60.8 58.2 54.6 56 55.3 57.6 64.9
167.9 171.8 177.2 182.7 190.2 196.9 202.7 208.7 213.8 217.4 226.1 230.7 238 244.1 252.4 263.1 272.2 281.3 289.8 296 314.3 323.1 335.2 350.2 365.6 380.2 396.1 410.3 426.2 435.1 445.7 455.3 475.8 493.9 493 498.9 523 535.7 556.1 589.7 601.3 604.7 621.9 647.4 651.3 660.2 685.5 703.2 718.4 717.7 720.6 722.5 726.5 746.2 764.8 758.8 765.4 791.9 807.4 826.5 833.7 809.6 803 749.2 702.1 678.4 623.1 590.8 567.5 554.4 512.6 490.3 487.7 499.1 508.8 522.1 532.3 541.1 552 569.6 605.2 618.6 624.6 609 554.1 519.5 510.2 492.1 477 468.3 456.6 439.8 435.2 456.1 495 552.8 602.8 639.7 646.4 624.5 607.2 591.2 565 543.4 524.8 509.4 494.1 484.9 474.7 469.1 467.1 460.3 446.7 432.2 425.5 410.3 380.8 362.7 341.7 324.4 304.6 289.3 268.3 243.6 213.4 190.3 173.5 158.3 145.4 132.3 132.1 122.3 122.3 105.2 85.5 56.7 36.6 25.1 18.3 17.7 15.7 14.3 12.8 11.7 13.1 14.6 14.7 17.5 30.2 43.2 58.3 63.6 71.4 78.5 79.4 72.6 71.7 56.8 75.8 85.7 83.3 80.9 77.5 73.7 69.4 70.1 71 74.7 75.8 79.1 84.6 86.1 85.5 79.9 71.3 69 58.1 54.3 51 53.5 63.1 80.5 80.7 78.3 83.7 85.4 76.9 70.1 73.7 68.4 61.5 57.7 59.7 58.2 56.3 56.2 57.6 58.6 59.7 64.4
163.2 168.2 172.3 177 182.6 189.3 196 200.1 203 208.2 216.8 222.2 229.9 235.1 242.7 254.7 263.4 273.8 277.8 286.5 302 312.8 325.6 339.8 352.2 365.7 382 395.8 408.8 417.7 430.4 434.1 451.4 462.9 464.9 472.1 486.5 518.5 538.2 565.7 582.1 585.5 594 607 613 623.9 643.9 659.7 667.3 675.8 672.7 675.8 680.5 697.8 709.1 720.8 743.4 764.9 784.2 802.3 824 841.4 838.1 779.7 790.4 714.9 686.4 653.1 603.7 580.7 547.5 523 518.5 529.9 541.6 555.3 579.6 590 612.2 634.8 667.6 690.6 682 632.6 570 528.6 507.1 491.6 481.1 472.4 457.1 439.2 447.5 472.7 512.8 570.1 622 656.2 647.1 625.3 605.2 583.8 557 530.7 516 500.9 487.7 476.4 465.3 460.1 457.1 450 433.9 426.4 421.3 398.1 384 359.5 337.8 323.9 297.8 279.4 263.8 241.5 217.1 202.4 186.1 169.4 155.1 143.3 135.2 133.1 119.2 100.1 80.1 60.4 39.6 24.9 20.3 19.4 21.5 21.6 18.3 13.2 12.5 19.3 15.8 23.1 42.5 56 64.6 71.5 79.2 83.8 86.1 85.4 76 69.2 55.2 60.3 58.9 61.3 58.7 57.3 54.7 56.2 54.1 56.7 56.7 64.4 60.1 59.3 58.4 55 56.8 52.3 50.5 49.2 44.5 44.6 47 56.8 66.7 70 70.9 63.8 61.9 62.3 66.2 59.9 57.4 56.5 56.8 55.1 55 57.6 58.5 60.8 65.6 72.6
158.6 162.6 167 171.8 178 183.6 189.8 195.7 198.9 203.6 209.8 217.3 224.5 230.2 235.8 247 254.5 263.7 266.4 275 289.5 298.3 312.6 323.8 338.6 350.9 365.8 380.9 390.2 400.9 408 415 431.7 442.2 442.7 451.5 465.9 487.7 511.3 538 557.3 564.8 567.6 584.3 585.8 597.4 624.7 644.1 647 660.7 655.8 652.2 648.1 667.3 676.4 696.8 724.7 739.4 750.3 762.4 786.8 807.2 822 841.5 844.7 816.1 769.9 679.8 634.6 609.7 577.9 560.8 554.9 561.3 570.8 585.9 610.4 643.3 670.4 686.9 697.9 686.3 642.9 602.3 569.3 528.7 502.5 489.1 484.3 481.1 466.9 453.9 466 487.7 523.3 583.6 638.9 668.8 649.1 628 605.2 571.5 542.1 522.7 504.4 490.1 472.2 459.2 448.9 445 439.9 429.2 416.8 414.6 407.2 392.1 379.8 361.3 337.3 316.4 300.2 277.4 260.1 242.8 225.8 208.1 192.8 185.1 168.3 155.8 138.5 130 121.2 103.4 77.9 57.3 38.9 25.6 22.9 22.8 21.2 27.3 42.4 37.7 18.6 11.2 23.8 35.3 46.5 57.9 56.3 66.1 66.4 67.5 67.5 65.9 64.8 60.1 52.6 48.4 43.4 38.1 42.7 44.4 43.1 43.3 45.7 45.8 44.3 46.4 45.8 47.9 45.7 48 45.7 41.7 42.2 42.3 41.9 42.7 44 50.6 57.7 58.3 59.5 55.4 54.9 55.7 57.9 56.3 55.1 52.4 54 66.7 68.8 73 83.5 87.6 90.2 96.1
155.6 159.8 163.2 167.8 174 180.4 186.9 190.6 195 199.6 206.6 212.9 219.5 223.5 228.1 238.2 247 252.4 255.8 267.4 278.9 287.6 299 309.1 324.6 335.7 350 362.4 375.5 384.6 387.9 397.1 409.9 420.1 428.2 432.2 445.5 464.1 485.4 503.4 541.2 555 549.1 559.5 560.6 588.1 615.8 613.3 615.5 631 622.5 614.3 617.4 627 656.8 677.6 691.7 711.1 712.1 730.5 751.6 776.2 802.2 829 843.6 814.1 764.3 686.2 656.8 627.1 613.4 595.2 586.9 587.3 593.6 612 643.1 681 706 701 659.8 627.4 601.7 576.9 558.1 540.4 512.1 498.5 494.8 497.8 492.2 486.3 500 512.6 537.7 596.4 656.3 672.5 647.4 621.3 598.6 560.1 523.6 500.1 486.4 469.3 456.1 447.8 442 437.4 431.7 419.1 408.6 405.5 403.9 391 371.6 353.8 337 314.9 298.1 277 257.8 245.4 230.6 212.5 201.2 190.6 174.9 157.6 141.5 128.3 115.3 97 73 52.8 37 27.7 26.3 24.5 23.2 39.2 52.8 58.8 45.7 28.6 12 30.5 33.6 34.7 41.5 40 45.3 47.7 51.3 49.2 47.9 46.6 39.7 35.8 34.5 30.8 30.1 31.6 36.6 37.7 39.1 39.8 40.1 41 41.3 40.9 40.7 41.6 40.5 40.1 41 41 41.4 42 42.8 44 43.2 48.6 51 51 51.6 52.7 53.8 52.3 57.1 68.1 80.7 89.3 94.6 106.1 115.1 114.5 120.4 124.4
