ncols 200
nrows 82
xllcorner 390000
yllcorner 494600
cellsize 50
416.5 413.6 414.8 416.1 416 416.5 408.7 397.9 383.2 368.3 355.8 340.4 328.9 306.4 281.3 263.2 251.6 247.6 243.2 244.2 256.3 275.8 298.3 323.1 349.4 376.6 407 419.2 420.7 420.9 421.7 425 429.4 433.4 436.7 439.2 440.7 442.2 444 446.3 448.9 448.5 446.9 445.2 442.6 438.5 434 430.7 427.2 423.8 420.7 417.7 415.3 413.6 407.9 409.7 408.1 405.6 402.6 398.9 367 390.5 392 392.3 394.2 396.1 396.7 397.6 398.7 399.4 398.8 400.7 401.3 401.1 400.6 400.3 396.5 393.5 390.8 384.5 380.8 379.2 378.4 375.9 375 371.8 369.8 367.2 363.7 359.6 353 347.8 341.6 333.6 326.9 321.9 316.5 311.7 300.1 264.8 250.2 268.7 308.6 317.8 330.5 346.5 355.1 363.9 372.5 383.6 390.3 398.2 396.2 395.6 397.6 405.8 405.3 404.3 404.3 409.8 415.5 419.7 423.9 426.3 426.4 426.2 426.1 426.1 426.6 427.9 431.8 432.1 430.5 429 426.1 423.2 422 420.2 418.6 416.1 412.9 407.8 406.2 402.7 400.2 398.7 396.9 396 395.4 394.7 394.7 394.6 393.8 390.7 386.3 382.2 377.4 374.5 372.3 369.7 366.9 361.5 356 352.1 348.1 346.7 344.7 335.4 330.7 327.4 317.5 312.5 309.6 307.4 303.9 299.2 295.5 290.7 284.4 281.7 275 271.8 264.2 259.9 254.7 250.8 246.2 237.4 238.1 238.3 238.5 239.2 237.8 240 241.3 238.9 239.2 240.8 244.1 246.5
406.7 404.9 405.4 406.3 402.6 400.6 397.8 391.5 379.5 367 356.7 337.3 328.5 309.5 293.1 269.4 256.4 247.8 246.6 243.8 242.9 265.3 287.8 310.3 332.2 357.3 384.8 405.8 414.5 414.6 414.7 415.4 416.2 422.9 429.9 433 438.2 441.5 443.3 446.7 449.4 448.9 447.2 445.1 441.4 437.8 433.3 430.5 427.1 423.9 419.7 415.8 413.5 411.9 408.9 396.9 403.4 400.2 395.8 391 381.1 359.5 375.7 379.4 380.9 383.2 385.1 386.9 388.1 389.9 389.3 391.3 390.9 389.3 389.8 388.8 385.4 380.2 376.9 369.6 368 365.4 363.7 362.1 359.7 357.4 356.7 354.2 351 347.6 344.9 341.9 336.4 330.5 325.7 319 315.3 310.2 301.7 270.9 247.9 261.6 304.4 314.4 324.6 337.7 346.4 356.2 364.2 370.6 378 379 380.9 381.8 385.3 387.3 391.9 400.8 401.5 403.7 409.2 414.6 418.6 423.7 425.1 425.4 425.4 425.4 425.2 425.5 427 428.9 428.8 425.1 424.7 423.7 419.6 415.6 411.7 408 403.8 399.9 398.2 396.1 394.8 394.6 394.5 393.6 393 392.3 391.6 390.8 388.8 386.3 381.4 378.4 374.4 371.5 368.7 364.4 358.9 351.7 344.6 342.3 338.4 334.7 329.3 325.4 319 315.8 312.8 309.4 305.7 300.8 296.1 290.9 286.4 280.9 274.6 268.6 261 252.6 246.2 239.2 235.2 231.3 226.5 223.1 221.3 219 216.8 218.7 217 219.5 218.1 218.4 220.9 226.4 228.8 230.1
398.9 394.8 392.7 394.1 394.8 391.5 386 382.8 377.1 368.4 357 343.6 330 314 300.2 280.5 264.8 253.8 245.5 246.4 242.3 256.6 272.5 291.7 315.9 338.2 364.1 392.3 399 407.6 408.5 409.8 411.4 413 420.9 429.2 435.2 438.7 441.5 442.8 449.1 451.4 451.6 451.2 448.6 443.9 437.8 433.2 428.3 423.8 419.1 414.8 412.3 409.1 404.8 401.1 385.6 392.6 387.1 379.5 372.2 339.9 353.4 365 367.2 371.5 373.8 376 377.8 376.5 379.4 379.4 379.1 377.6 375.2 373.1 368.7 363.8 359.2 358.2 356.8 352.3 350.1 348.2 346.5 345.3 343.5 341.6 340.5 337.5 335.8 333.1 330.1 326.5 322.8 315.8 313.5 307.8 301.7 276.3 252.1 249.3 291.8 308.7 318.7 328.7 338.4 344.7 355.4 360 362.2 365.4 366.3 367 370 376.1 383.4 388.3 395.7 403.3 406.3 407.7 415 418.1 425.6 426.4 427 426.4 425.2 424.2 422.7 421.6 419.7 419.1 417.1 415.5 414.2 410.6 406.6 403.2 400.4 397.7 395.6 393.8 393 393 393.3 392.7 391.3 390 388.4 386.6 383.9 380.9 377.8 373 370 365.1 360.5 350.3 347 339.5 336.8 335.3 331.1 327.3 323.2 319.4 316.4 312.7 308.2 302.2 297.4 290.8 285.2 279.5 274 266.4 257.9 251.5 243.7 236 231.7 226.5 222.8 219.2 215 213.5 212 212.5 212.6 211.1 210.7 210.8 211.4 209.4 210.3 211.6 214.1 214.6
381.1 376.8 375.8 378 380.6 378.1 377 375.2 372.3 368.2 361.4 342.9 329.1 318.6 305.2 284.5 264 254.8 244.8 245.7 243.7 245.6 262.1 276.9 300.3 321.8 344.7 368.5 386.7 391.4 397.8 402.9 405.3 405.7 415.7 422.2 431.5 437 438.9 440.1 443.1 443.4 440.9 439.5 436.6 435.3 431.5 424.5 421.1 417 412.8 410.3 407.1 402 398.9 394.6 388.8 376.3 380.3 372.7 365 348.6 327.1 340.4 354.7 361.3 363.4 364.1 364 365.5 365.6 365.6 364.7 364.1 361.6 357 353.1 348.2 344.6 342.8 339 337.2 336.5 335.4 333.8 331.1 329.9 328.7 324.6 324.2 324.6 322.6 319.1 318.4 316.7 312.8 310 304.1 301 283.5 245.6 246.3 278.6 302.5 311.1 319.6 326.4 335.2 344.6 351.9 350.2 352.6 355.2 358.4 361.3 367.7 374.6 383.4 387.3 392.7 402.2 404.3 405 407.4 415.2 424.2 428.2 430.9 429.7 428 423 419.5 418.5 416.8 415.1 413.5 411.9 409 406.4 403.2 401.2 398.7 396 394.3 392.5 391 390.2 389.4 388.7 387.6 385.4 384.2 381.3 379 376.2 371.2 366.1 355.8 350.6 346.8 342.6 339.2 336.4 333.4 329.6 326 322.3 317.7 311.9 304.7 298.8 291 282.6 276.8 268.3 261.4 253.7 244.6 239.2 234.1 229.6 224.9 221.7 216.4 213 211.3 209.5 204.4 202.2 201.7 200.3 197.6 195.8 195.1 195.6 200.8 203 201.2 201.1 205.5
377.6 372.3 368.6 368.8 366.9 368.2 364.9 366.5 368.3 366.4 363.3 352.7 333 325.2 311.8 282.6 261.1 251.6 244.3 244 243.7 243.5 253.8 269 285.6 306.3 326.3 346.1 365.4 380.4 384.8 386.5 389.8 392.5 402.7 416.5 427.3 432.9 438 440.9 441.6 440.7 437.8 433.7 430.6 428.1 424.6 420.7 417.3 415.4 414.6 403.7 397.8 394.3 391.7 388 384.1 378.8 365.3 369.8 363.5 350.5 334.7 320.4 346.6 353 352.9 353.2 352.1 352.1 353.7 352.9 352.2 350.7 348.3 344.8 341.2 336.5 333.6 330.9 327.5 326.1 324.9 323.5 320 318.7 316.7 313.1 311.5 310.3 308.2 309.1 308.7 307.2 307.5 305.9 305.2 302.3 299.2 292.9 254.9 240.4 265.1 295.4 301.7 310.2 318.3 325.4 331.7 339.4 342.6 342.4 342 346.6 356.3 358.7 366.1 376 382.6 384.7 391.3 400.3 401.2 402.2 403.9 412.2 416.4 422 423.1 423.3 419.8 416.4 413.7 412 410.8 410.6 408.8 406.7 404.5 402 399.8 398.8 396.4 394.5 392.3 390.8 388.9 386.9 385 384 382.3 379.3 376.5 370.9 367.9 363.7 359.4 354.9 350.2 346.4 342.3 338.2 334.1 329.8 324.8 321.7 316.2 310.4 300.6 291.7 286.8 277.3 264.5 257.2 251.2 245.6 239.1 235.1 228.8 226.1 223.5 218.4 213.4 209 205.1 203.3 197.1 193.7 193.2 191 190.6 190.6 190.6 190.4 189.7 189.6 189.6 190.7 191.1 191.4
375.6 370.4 367.4 356.9 355.3 357.6 358 357.3 360.2 363.9 362.2 357.5 341.5 332.1 312.4 284.6 265.4 250.4 244.6 244.4 244 242.4 244.7 260 274.3 290.3 309.5 325.9 342.3 358.2 373.3 378.7 380.1 383.3 391.4 403 418.9 427.8 433.6 437.8 440.7 440.3 438.3 434.4 430.4 425.8 422 417.5 414.1 410.5 399.1 392.8 389.3 388 387.2 383.9 379.8 376.6 371.5 355.8 353.8 346.6 333.6 323.9 333 340.7 341.9 339.6 339.4 333.7 331.7 331.9 331.6 331.1 330.5 330 328 323.8 320.2 318 315 311.8 311.3 310.1 307.2 304.6 302.2 300.9 298.2 298.5 295.2 297.1 295.7 294.5 294.4 292.8 291.7 293.5 294.8 284.8 258.6 236 247 285.2 294.5 300.1 308.9 314.8 318.2 323.4 328.6 333 334.4 336.3 342.1 350.6 357.3 362.1 371.1 380 381.8 386.2 393 398 399 400 404.5 410.9 412.4 410.6 408.9 408.8 407.9 407.3 407 407.5 406 404.3 402.7 400.5 398.3 397.5 395.7 393.6 391.7 390.5 388 383.9 381.9 379.5 377.2 373.4 369.6 367.5 363.9 361.6 358.6 354.3 349 345.1 340.5 336.5 332.4 327.7 322 311.2 305.2 293.4 285.4 277.8 266.4 258.6 252.8 246.1 239.9 236.1 231.9 225.9 223.1 217 210.2 207.4 202.5 200 196.7 194.2 191.7 192.8 193.6 192.8 193 193 192.9 192.4 191.5 192 191.8 191.6 191.7 191.5
363.7 359 356.6 352.1 342.3 346.1 348.6 347.2 354.8 359.8 358.9 355.9 348.5 336 316.7 293 270.8 252.9 244.1 244.4 244 239.7 242.7 247 261.5 275 291.2 306.2 321.4 335.9 348.1 358.2 368.9 373.7 379.9 389.9 397 408 418.2 428.1 436.4 437.4 435.5 431.3 427.2 423.6 418.6 413.2 407.3 399.1 392.1 387.7 385.2 385.4 384 381.3 377.8 373.7 369 363.3 357.2 350.2 340.5 325.1 307.4 303.8 314.8 316.1 314.6 314.4 315.4 317.2 318.8 321 321.6 319.7 317.6 313.8 310.1 305.7 302.5 299.7 299.9 294.2 290.7 289.4 287.3 287.8 284.8 283.4 283 283.7 281.5 280.5 279.2 278.9 279.8 280.1 281.5 272.1 259 232.8 239.9 268.1 282 292.4 301.1 305.1 307.4 311.2 315.6 320.3 326.3 331.5 335 339.3 346.7 353.9 357.9 363.5 374.3 377.8 380.9 386.8 394.8 396.3 397.1 400.1 406.5 407.4 406.5 405.4 404.8 404.1 403.7 402.5 402.5 400.3 398.7 397.7 396.7 395.6 393.9 392.1 390.2 388.4 386 383.2 380.1 377.8 374.8 370.2 367.3 364.3 362.1 359.1 354.6 348.5 345.5 340.7 336.9 331.5 326.3 319.3 311.9 302.2 287.8 282.1 270.1 261.8 253.9 247.3 243.9 239.5 233.3 227.4 222.4 216.4 211.4 198 196.7 193.9 193.9 194.3 191.7 193.1 193.3 192.9 192.6 192.2 192.3 192.1 192.3 192.5 192.5 192 191.7 191.4 191.1 191.1
337.8 333.1 337.4 335 333.7 338.2 342.1 343.9 348.9 351.1 350.9 350.5 345.8 337.1 323.1 302.7 281.6 261.7 244 244 243.6 243.4 242 243.2 247.9 261.5 272.6 287.7 300.6 315.5 326.4 335.1 341.4 346.9 356.4 372.5 385.4 394.7 402.4 407.6 411.2 414.5 414.2 411.3 408.6 409.1 408.1 404.1 395.2 390.1 386.1 384.2 382.2 381.8 379.7 377.1 373.4 368.6 363.8 357.7 351.1 344.8 337.8 330.1 322.7 312.1 306.8 299.9 293.5 299.4 300.5 302.9 305.6 308.7 309.1 306.9 305.4 304.3 302.2 299 293.5 294.1 289.7 287.6 284.2 281 279.8 276.5 271.8 267.5 265.3 262.4 260.9 261.8 263.1 258.9 261.4 260.8 261.3 261.4 255.9 235.3 236.3 252.3 265.4 276.4 289 291.9 297.1 301.7 304.2 308.3 313.3 315.2 326.5 330.7 334 339.6 347.8 352.6 357.1 365 373.8 378.1 382.6 390.6 393.9 395.4 399.3 405.1 405.6 404.6 403.2 401.9 400.7 399.4 397.7 395.6 394.9 394.6 393.1 392 390.9 388.8 386.9 385 382.8 380.6 378.5 375.9 371 367.3 363.5 361.2 356.5 353.3 348 342.8 338.2 334.4 329.7 323.7 316.7 310 301.5 291.2 281.1 269.3 260.5 252.8 247.2 241.8 237.5 230.9 224.2 216.4 208.9 201.3 193.9 193.8 194.2 194.1 194.4 193.9 193.5 193.2 193.1 192.7 192.3 192.8 191.6 192.4 191.9 192 191.7 191.5 191.5 191.1 190.7 191
322.4 324.5 318.2 321.3 323.9 332.1 336.4 339.9 336.7 335.7 336.8 337.7 332.1 323.4 321 307.4 289.3 273.8 256 243.1 243.5 242.9 238.9 240.8 241.6 243.5 261.4 271.6 284.8 296 307.8 315.3 321.1 329.5 337.3 345.7 352 361.5 372.2 385.4 396.7 401.5 400.6 396.3 393.3 391.4 389 387.9 388 384.8 384.1 383.1 381.8 380 376.3 373.1 367.1 362.4 357.3 350.3 344.5 338.7 333.4 328.4 324.1 319.1 314.5 309.5 304.7 295.2 282.9 281.5 290 294.3 294.4 294.9 295.1 294 293.7 290.8 287.7 285.2 283.2 282.2 281 277.6 275.5 272.5 268.4 263.1 261.6 259.4 254.7 253.2 252.7 246.1 244.3 245.2 246.8 246.7 245 231.9 233.6 241.1 246.2 257.4 265.6 274.2 283.7 289.4 293.4 297.2 300.8 305.1 312.7 321.5 325.8 330 333 340.3 345.8 350.1 356.4 364.8 374.7 379.6 384.8 392.3 394.3 396.5 399.5 403 401.9 400.9 399.7 397.9 395.8 393.6 391.6 390.5 389.3 387.4 386.1 384.6 383.1 381.9 380.5 379.4 377.3 373.6 369 364.9 355.4 351.6 348.1 345 340.6 336.2 332.4 327.9 321.3 315.1 307.7 299.4 290.7 280.8 269 260.3 253.1 245.5 240.6 233.8 226.5 221.6 211.9 202.1 195.7 193.9 193.7 194.5 195 192.1 193.8 193.8 193.4 193.1 193 192.5 193.4 192.8 197.9 197 196.1 194.8 195.5 194.1 192.8 191 191.1 190.3
298 307.3 302.2 313.5 320.4 330.3 322.1 320.2 319 316.5 317.5 316.1 312.8 311.5 307.9 301.4 288.2 280.9 266.2 247.6 241.5 242.7 241.9 238.1 240.7 240.6 244.5 258.1 269.2 280.5 291.6 298 306.8 314.5 325 331.9 336 347.6 355.9 359.3 365.5 370.1 373.5 376.7 382.9 377.5 376.7 370.4 377.2 377.7 377.9 376.2 374.1 372.7 367.9 365 359.5 355 349.8 344.6 339.2 334 330.3 328.6 322.7 318.1 314.9 310.3 305.3 301.6 294.4 284.5 266.2 281 280.8 281.5 284 283.4 281.1 279.3 275 273.9 277.6 276.1 275 272 269 267.1 260.5 258.4 257.2 253.6 249 246.6 244.6 243.7 240 241.4 237.6 235.8 236.5 231.3 230.8 231.3 235.1 237.6 246.5 253.9 263.1 271.7 277.2 282.9 284.5 294.9 300.7 305.8 312.3 320.1 323.8 327.9 334.3 340.2 344.4 350 357 367.6 375.5 380.8 390.4 391.8 393.1 393.5 395.5 396.8 397.2 396.8 395.2 392.9 390.7 389.4 387.1 385.1 384.2 383 381.2 379.9 378 376.8 373.1 369.5 362.4 355.5 350 344 341.7 337.5 333.6 330.2 326.5 322.4 317.4 311.2 303.7 294.1 279.7 268.6 261.2 252.3 244.8 238.2 231 223.4 216.9 207.2 198.4 194.7 193.8 193.7 193.9 194.7 192.2 194.6 194 193.7 193.5 193.3 196.9 202.1 202.6 203.3 202.3 204.8 206 206.4 206.1 205.8 204.6 204.1 203.5 201.3
279.5 289.2 295.1 306.9 304.4 301.7 302.2 300.1 300.4 299.1 297.4 297 296 294.6 291.6 289.4 281.8 276.9 267 257.2 244.5 241.5 241.4 240.9 237.5 240.6 240.6 240.1 251.9 264.9 276.7 285.6 291 305.3 310.1 312.7 315.9 328.6 335.5 339.9 345.5 348.3 349.4 351.5 353 353.4 348.2 354.5 355.4 363.5 360.8 360.6 359.3 358.1 355 353.3 349.6 345.1 339.4 336.1 330.3 323.3 318.5 316.3 310.5 306 302.9 298.2 294.4 288.6 284 280.5 253.1 272.3 274.1 269.7 265.4 265.4 266.8 265.9 258.8 267 266.6 265 262.7 262.3 259.2 256.5 253.1 249.2 245.9 243 240.6 240.7 239.4 239.9 237.6 237.7 233.9 233.7 229.7 229.5 229.3 228.5 230.4 231.1 228.9 235 244.4 250.2 257.7 262.6 273.8 281 287.3 293.4 298.3 303.3 311.4 319.7 324.2 329.9 334.5 339.1 343.3 350 360 370.6 378.1 386.8 389.3 389.6 390 391 389.2 390.1 387.5 389 386.4 384.1 383.5 380.1 379.3 377.3 375.2 372.4 370.2 369 364.9 359.6 354.2 349.8 345.4 341.5 337 334.2 331.3 327.9 323.6 317.2 311.2 303.3 293.9 283.6 272.3 261.7 252.2 244.3 237 228.8 218.8 210.9 202 196.3 194.6 194 193.8 194 194.1 194.6 194.1 194.3 193.9 194.1 197.5 206.4 207.6 208.1 209.8 214.1 212.3 207.4 208.5 214.4 215 212.5 209.8 212.6 213.2 210.8
276.1 280.5 289.9 285.1 283.2 277.7 279.5 280.2 283.3 282.8 281.7 281.1 280.6 280.3 276.4 275 270.1 267.7 262.2 254.6 247.3 242.9 240.9 240.8 239.5 240 239.9 239.1 238.3 248 261.8 268.8 278 284 295.6 299.1 306.3 314.6 318.4 325 330.3 332.7 333.3 331.7 330.9 329.3 332 331.4 338.6 340 339.3 336.7 335.1 335.4 336.4 332.7 329.4 326.3 321.2 320.3 316.7 311.3 307.4 303.5 300.4 297.1 290.3 285.9 283.4 276.1 274 269.9 256.6 253.6 259.7 255.2 252 252.1 250.8 251.3 248.8 251.3 250.9 249.8 249.3 249.9 249.8 249.1 245 240.3 238.4 234.6 233.3 232.7 231.3 230.5 228.1 225.6 225.9 226.6 227.5 227.4 227.7 227.1 225.2 224.2 223.2 221.8 223.2 230.9 237.3 239.5 251 256.7 265.9 276.4 283.4 288.8 294.3 301.3 310.5 318.1 321.8 326.5 331.6 337.5 345 354.6 365.9 375.9 385.4 387.2 388.2 387 386.4 386.1 385 384 382.9 381 378.6 376.5 374.6 373.4 370.1 368.1 365.9 363.3 359 352.6 349 345.5 342.5 339.5 336.3 332.3 328.2 323.9 318.9 312.7 303.9 290.5 283.5 272.1 263 252.1 242.2 233.4 225.3 215.4 207.1 198.6 195.8 194.2 194.1 194.3 194.2 194.4 194.7 193 194.5 194.3 198 205.5 210.3 212.5 216.9 220.3 223.9 227.1 225.1 217.2 218.6 231.7 227.8 229.1 225.3 226 223.5 218.6
273.5 275.8 279 277.4 274.7 262.9 264 263 264.4 266.7 268.4 266.4 270.2 269.6 268 266.1 264.5 261.6 257.1 252.8 246.7 244.1 242 241 239.8 236.9 239.7 239.5 238.8 237.9 240 254.1 261.6 271.1 277.9 284.2 288.5 294.6 300 305.4 311 316.1 317.7 316.9 315.6 314.5 313.3 317.9 320.5 312.5 312.9 315.1 316.2 314.5 316.2 317 315.3 311.5 306.6 305.8 301.9 299 293.6 291.9 287.3 281.9 278.8 275.4 268.6 265.9 263.7 260.4 254.8 235.9 249 245 242.9 240.2 239.4 238.3 236.1 237.5 239.4 241.5 242.5 239.4 233.4 229.9 235.8 232.9 230.8 229.6 228.9 227.8 224 217.8 217.1 221.2 223.2 224.1 225.5 225.3 224.6 224.9 223.6 222.4 220.8 219.3 217.4 216.6 218.7 225.2 230.6 235.1 241.9 252.3 264.4 273.7 283.1 286.7 292.9 301.5 308.2 313.3 319 324.4 330.7 337.8 346.3 357.9 372.5 382 385.4 385.2 385.1 384.5 383.9 382.2 381 377.7 375.9 373.1 370.8 364.9 362.9 359.8 358.5 356.8 354 349.9 346.8 343.3 340.5 336.8 332.6 327.4 323 316.4 310.8 303.9 295 284.6 266.3 261.1 246.9 239.7 231.4 223 211.8 204.2 197.1 195 194.8 194.1 194.1 194.2 194.3 195.1 191.8 195.4 194.5 205.8 211 216.2 219.7 224 228.9 233.8 236.1 239.9 243.5 240.4 242.8 243.6 238.3 240.1 238.8 236.8 234.3 232
265.3 270.4 273.2 270.6 260.1 258.5 258.3 257.5 256.7 258.1 259.3 258.8 259.8 259.3 260.4 257.8 257 257.7 256.1 254 248.5 245.7 241.4 240.5 239.1 238.9 238.7 239.1 238.9 238.4 237.6 237.4 247.5 253.6 259.9 266.3 272.5 278 281.6 285.3 289.2 293 293.9 294.6 299.3 297.3 296.7 296.9 296.2 296.7 298 298.7 298 299.3 297.4 297.7 297.6 294.8 292.8 292.3 289 283.9 279.1 277.3 274.6 271.9 268.5 261.5 256.2 253.9 251.8 249.8 245.6 242.4 242.4 239.8 237.4 234.8 229.9 227.5 226.2 223.3 222.2 222 218.8 220.9 220.8 218.2 217.1 222.4 223.6 218.3 217.6 217.9 216.9 216.7 216.6 216.5 217 222.3 222.3 222.6 223.4 222.8 221.5 220.8 219.5 218.1 216.6 215.1 214.1 214.1 213.8 220.3 225 233.8 239 247.4 259.5 268.2 276.8 284.6 291.2 297.5 303.5 311.9 317.9 323.9 330.3 341 350.8 365.8 373.5 373.6 373.4 370.8 372.4 373.4 374.9 373.2 366.7 363.4 360.8 356.3 356.5 355.7 354 351.5 349.7 344.4 341.3 337.5 333.5 329.6 325 320.2 313 308.7 301.1 293.9 283.8 274.7 257.2 247.1 238.1 227.8 219.1 208.8 200.1 196.8 194.7 194.8 194.8 194.7 194.9 195.1 194.8 191.8 195.3 207.6 213.3 217.4 219.6 226.8 231.1 240.5 246.1 251.5 252.8 253.6 253.9 253.2 251.4 248.8 246.2 249.1 247.4 246.3 244 242.8
262.3 260.9 259.6 259.5 258.8 257.6 257.2 256.5 255.7 254.9 254.1 254.2 255.5 256.5 256.4 256.2 255.3 254.1 252 252.3 250.5 246 244.4 240 240 239.4 236.9 237.9 237.9 237.7 237.5 236.6 236.5 243.7 248.4 251.7 256.8 260.4 265 268 269.2 274.3 277.2 281.1 281.7 286.8 287.2 285.9 287.6 291.3 292 292.4 292.1 291.1 289.8 290.7 289.7 284.9 281.7 279.5 276.5 272.7 269.1 266.4 263.8 262.2 259.3 252.5 248.7 247.4 245.3 243.1 240.9 226.6 239.1 237 234.4 231.5 227.2 224.3 223 221.9 221 220.9 219.1 220.8 220.1 219.5 218.8 218.4 216.8 218.5 217.8 217.3 217 216.6 216.6 216.5 216.6 219.4 220.7 221.3 221.5 220.6 219.8 219.2 218 217 215.4 214.5 212.9 212.1 211.7 210.9 210.9 213.4 214.6 224 229 235 252.9 260.7 270.2 279.3 286.4 294.6 300.4 308.2 316.6 323.9 334.8 346.4 358.9 364.8 366.7 366.4 366.5 365.7 366.2 363.9 361.5 359 357.5 356 352.5 349.6 347 342.3 340.8 335.8 331.7 328.5 324.7 320.5 315.3 309.4 304.2 297.6 290.8 283.3 270.4 258.6 245.6 234.2 224.9 216.9 206 198.4 196 195 194.9 194.8 194.9 194.8 194.8 195.2 193.7 200.6 212.1 219.2 222.2 228.4 236.6 245.6 251.1 255.6 258.1 260.6 260.9 260.6 260.3 259.8 257 258.2 257.1 258.6 258.8 258.5 256.8 250.5
261.5 258 259.4 257.1 257.3 257.6 256.7 255.8 255.2 254.7 253.8 253.7 252.2 251.7 251.6 253.8 256 255.2 253.9 253.6 252.3 249.3 244.8 242.5 240.4 240 239 237 237 236.5 235.3 234.1 233.7 233.5 234.4 239.7 242.3 246.8 252.2 255 258.9 264.2 266.4 269 272.5 276.3 277.6 279 279.8 283 285.5 286.5 285.5 284.6 283.5 280.2 276.3 275.6 273.7 268.6 266.6 263.7 261 257.4 252.3 251.4 249.7 246.4 242.5 233.7 231.7 231.4 227.3 227 225.4 224 224.1 223.7 223 222.5 222 222 221.6 219.2 221.4 220.8 220.1 219.5 218.9 218.2 218.6 216 217.8 217 216.7 216.6 216.5 216.2 215.6 217.9 219.2 218.3 219.6 219.1 218.3 217.6 216.6 215.6 214.6 213.8 213.1 211.9 211.3 211.1 211 210.8 211.1 210.1 217.2 223.4 226.7 241.1 248.3 255.8 266.4 276.2 283 288.5 297.4 307.9 316.3 328.1 340.9 350.3 357.2 358.9 357.3 356.3 355.1 353.7 350.6 347.5 345.2 343.2 340.9 339 336.8 334.1 329.7 327.2 321.8 319 314.9 310.4 303.8 299 293.9 285.6 277.9 266 254.5 243.2 235.8 223.8 214 205.7 197.7 195.7 195.2 195 195 194.9 194.9 195.2 195.2 195.8 205.8 216.3 222.9 227.7 236.4 246.9 256.1 259.1 259.1 266.2 267.1 267.4 266.3 267.5 268.3 268.6 267.8 267.1 268 268.3 268.6 268.5 268.2 261.7
271 268.7 265.1 260.4 257.4 254 254.7 252 254.5 254.1 253.4 252.4 251.5 250.7 250 249.2 248.4 247.6 246.6 246.7 248.4 251.5 246.5 242.7 241.2 240.7 236.5 238.2 235.8 235.6 236.5 237.6 237.6 236.8 234.8 232.5 234.8 237.3 239.1 244.6 250.2 253.9 256.7 258.4 262.3 267.4 271.3 271.7 272.9 275.1 275.7 277 276.6 276 274.7 271.9 269.8 267.7 264.7 257.5 255.5 253.7 251.9 246.4 243.6 241.9 238.7 232.6 224.4 223.1 225.4 224.8 223.3 221.9 221.8 221.9 224.1 222.7 222.5 222.4 222.5 221.8 221.7 221.4 221.5 220.7 220.2 219.5 218.9 218.7 218.2 216.9 217 214.5 214.2 213.9 213.6 216.5 215.5 216.3 217.5 217.1 217.6 217.6 217.1 216.1 215.2 214.5 213.8 213.3 212.5 211.8 211.5 211.3 211.1 210.8 210.6 207.9 209.7 208.6 209.6 218.4 227.3 235.9 243.4 251.9 260.1 270.8 279.1 286.3 295 307.8 317.7 327.9 340 346.3 348.7 348.7 347.4 345 342.8 340.3 337.7 335.6 333.8 325.3 327.8 324.7 321.4 317.3 312.8 308.1 303.5 299 292.5 286.4 280.9 268.7 258.3 248.8 238.5 230.3 221 209.2 202 197.8 196.5 195.5 195.1 194.9 194.9 194.9 194.9 195.7 196.5 209.5 220.1 226.1 233.7 246.9 258.7 261.7 263.6 268.2 269.4 272.1 271.8 273.2 275.1 275.2 278.3 277.8 279.1 280.2 280.3 279.7 279.2 278.4 278.3 270.7
278.5 276 272.9 273.6 270.8 262.4 262.2 258.3 256.2 252.8 253 252.3 250.7 248 247.6 246.6 244 245.2 248.2 248.6 243.4 241.9 239.3 242.3 241.1 239.4 241 239.7 238.8 238.1 237.7 236.8 237.3 236.9 236.4 235.4 235.1 231.3 234.1 233.2 234.7 235.2 240.1 244 248.3 254.2 255.2 255.7 261.1 262.2 262.3 261.9 262.4 261.8 261 259.1 254.9 252.4 250.3 241.2 241.8 237.2 232.9 228.8 228.8 227.8 226.4 223.4 228.2 228.9 230.4 236.6 237.9 237.8 234.3 225.8 224.5 223.4 222.6 221.8 221.6 222.4 222.5 221.7 221 220.3 220.2 219.6 220.1 218.3 217.7 217.3 217.5 217.3 216.7 216.9 216.6 215.9 214.4 215.6 215.5 215.9 215.8 215.7 215.7 214.9 214.6 213.8 213.3 213.1 212.4 212 211.6 211.5 211 210.9 209.5 210.5 209.6 209.5 208.6 208.7 209.1 211.1 219.8 226.3 232.9 248.8 257 264.3 275.7 284.7 300.1 309.4 318 330.3 336.8 339.3 339.5 338.4 336.3 334.7 332.2 329.5 325.4 321.1 318.6 313.6 309.9 305 298.7 294 291.6 285.6 278.7 270.7 259.4 251.3 241.9 234.1 223.5 212.8 206.9 199.9 196.9 197.1 196 195.8 195.4 195 195 195 195.6 196.9 213.7 224.4 229.7 241.4 254.8 266.2 267.1 269.7 275.2 277.1 278.3 279.7 282 284.9 286.1 286 290.4 291.3 291.4 291.2 290.3 288.7 288 289 287.6 278.7
297 290.4 283.3 280.3 277 274.6 269.8 266.5 263 261 257.3 257.5 255.9 255 254.9 254.7 254.1 252.3 253.5 254 256.6 255.9 254.2 251.7 247.6 242.4 242.9 241.6 241.3 240.6 238.6 236 236.2 236.5 235.8 235.4 234.8 234 234.2 233.6 232.9 232.1 232.2 232.3 230.9 228.9 230.4 234.2 235.4 237.2 237 242.1 243.5 243.4 242.8 240.2 239 235.5 232.6 231.5 229.4 228.4 225.7 225.4 225.1 226.5 227.1 231.7 235.2 233.3 233.6 234.8 236.7 236.6 235.8 235.4 228.9 225.1 224.8 224.8 231.8 229.2 227 227.5 229.5 230.7 232.9 232.7 235.1 236.7 234.1 236.2 237.7 237.2 235.5 235.1 230.1 230.3 228.3 217.2 213.5 215.5 214.7 214.8 214.4 214.1 214 213.4 212.8 212.8 212.3 212.3 212.2 210 209.1 211.1 210.4 210.1 209.6 209.3 208.6 206.9 208.3 208.2 208.1 210.6 220.4 223.1 228.8 237.2 254.8 263.4 279.4 286.6 298.8 309 318 329.2 331.8 330.8 329 326.3 322.8 318.7 315.4 311.4 303.5 301.6 299 293.6 288.7 280.7 275.5 268.2 261.1 252.6 242.9 236.6 227.6 213.7 211 206.4 197.8 196.9 196.3 196.3 195.9 195.9 195.7 195.4 195.8 196.2 198.6 215.4 227 234.6 246.1 259.3 268.5 273.9 278.1 279.9 283 286.7 289.8 292.6 295.8 299.8 303.3 304.9 304.8 305.4 305.2 304.3 304.6 303.2 301.5 299.1 295.6 287.8
311.4 308.7 303.3 296 293.1 285.2 280.4 276.4 274.1 270.5 265.1 262.4 260.4 259.2 257 255.1 254.2 255.8 257.2 259.5 259.9 259.1 257.4 254.8 251.9 247.2 242.9 242.2 241.6 241 241 236.6 235.5 236.5 235.8 235 234.2 234 233.2 234 231 230.7 230.7 230.3 230.8 231.9 231.6 231.1 230.6 227.9 227.5 227 226.9 228.4 229 228.7 227.2 229 228.8 228 226.8 225.1 230.7 232 235.7 228.1 228.1 235.3 237.1 235.9 235.8 235.2 235.9 235.4 235.5 236.4 236.9 235.5 236.1 234.4 233.6 234.1 234.8 240.4 243.5 247.4 251.2 250.9 250.8 255.1 255.1 256.9 255.1 252.7 252.9 250.4 245.4 238.5 236.3 234.1 232.9 231 222.5 218.3 215.1 215.5 214.5 214.1 213.1 212.7 211.8 212.3 211.5 211.3 211 210.7 210 209.9 209.6 209.2 208.7 208.7 208.3 208.9 207.9 207.6 207.1 206.7 215 219.2 223.7 237.3 256.2 265.9 276.1 286.5 297.4 308.5 315.6 317.2 318 315.7 312.8 308.2 304.3 300.6 292.6 291.1 286.3 279.6 273.7 266.5 258.6 251.8 246.1 238.6 227.2 220.4 214.4 211 203.2 197.1 196.6 196.6 196.3 196 195.9 195.9 195.9 195.9 193.9 197.3 214.9 226.7 236.7 249 258.3 269.1 276.3 282.8 285.8 291.8 296.2 302.2 307.1 312.8 316.9 318.6 320.5 319.1 320.1 321.1 320.8 319.7 317.8 314.2 310.3 306.5 300.6 297.2
320.5 320.2 317 307.8 309.5 302.2 296.4 294.9 289.8 285.5 278.2 277.1 274.3 269.6 265.8 265 265.3 261.1 267 267 264.4 263.4 261.4 258.4 255.7 251.6 250.1 246.1 242.8 243.9 246.2 244.8 240.7 235.5 235 234.5 235.9 237.2 235.8 236.2 236.1 235.7 234.1 232.9 233.2 232.8 232.6 231.9 230.9 230.6 230 229.1 229.3 228.8 228.9 229.6 229.9 228.8 228.8 231.2 239.1 239.1 238.4 238.9 239.4 239.3 231.7 238 239.5 239.9 240.1 240.8 240.7 240.8 239.8 238.7 238.6 238.7 239.1 238.6 244.7 249.5 250.4 252.4 255.5 257 262.1 264.4 261.9 267.8 264.8 271.1 270.6 269.6 268.2 266.8 259.4 255.4 252.8 247.2 239.7 234.9 232.4 229.7 226.8 227.8 224.2 221.3 219 216.1 212.2 211.8 211.2 211 210.8 210.3 209.8 209.5 209.3 209 208.9 208.6 208.6 207.7 205.5 208 207.2 207 206 206.2 207.7 215.3 224 239.1 250.7 263.5 276.3 287.4 297.6 302.5 303 301.3 296.2 294 289.3 284.5 278.6 273.9 269.2 265.1 259.2 252.8 246.6 237.7 229 221.2 216.4 213.5 201.8 199 197.9 197 196.7 196.5 196.3 196.2 196 196 195.9 193.8 200.7 213.8 227 237 249.2 262.7 271.2 277.9 286.4 293.1 299.9 307.3 314.6 320.4 324.9 327.5 329.4 331.5 333.4 335.5 336.6 335.4 333.6 330.2 325.7 320.9 317.1 311.5 303.8 305.4
327.9 327.4 322 321.1 319.4 316.3 313.1 308.7 303.1 296.5 290.4 287.5 285.1 281.4 277.5 274.1 270.2 266.4 262.7 263 267.2 270.1 268.3 265 263.2 258.3 250.5 248.1 246.4 249.6 248 249.7 249.3 247.7 244.7 242.5 238.3 237.3 236.8 236.7 237.3 237.5 236.6 234.3 233.9 233.1 232 231.1 230.9 231.3 230.6 231.7 235.5 241.7 243.3 240.1 241.5 242.4 242.9 244.7 243.1 242.2 241.6 243.6 242.3 241.7 237.6 244.1 245.3 245.3 244.6 244 244.7 243.9 243.9 245.8 246.6 249.1 250.1 254 257.7 259.7 261.4 267.3 270.3 273.9 278.4 280.2 276.1 288.6 277.7 283.7 278.7 282.4 273.3 272.3 270.3 269.4 267.4 264.5 257.6 251.5 239.9 234.2 232.7 231.1 231.3 230.1 229.4 229.3 228.8 223.5 220.4 212.7 210.5 210.1 209.3 208.9 208.8 208.4 208.7 207.9 207.1 207.4 207.8 206.8 206.8 207.3 207.1 206.5 206.5 206.5 207.4 209.3 223.9 238.7 254.5 265.2 272.2 276.9 278.3 277 273.6 271.4 269.7 269.1 265.9 259.4 260.2 254.8 245.8 234.8 226.5 221.8 217.6 213.6 210.7 198.4 198 197.5 197.1 196.9 196.7 196.6 196.5 196.3 196.2 196.2 195.8 201.5 214.6 226.5 237.5 250.3 263.2 274.1 283.8 291.2 298.5 309 316.4 322.5 329.5 333.2 339 342.7 346.1 349.4 348.7 347.5 345.7 343.7 341.1 337.5 333.4 328.4 323.4 315.9 314.4 313.7
338.9 331.6 335.3 332.7 327.3 329.6 327 321.4 319.7 312.9 306 300.9 297 293.3 289.9 284.3 283.5 282.4 279.6 275.2 270.7 268.4 263.1 261.2 259.2 259.5 260.6 260.1 261.7 255.5 256 255.1 253.7 250.9 248.4 247.6 245.5 243 238 236.9 238.8 240.8 240.3 238.5 236.6 233.1 232.2 234.9 238.8 241.6 246.4 247.1 246.8 247.1 245.3 247.1 246.2 248.6 248.7 248.3 247.6 246.8 245.8 244.8 244.4 245.5 238.7 245.4 247.1 247.8 248.7 251.8 251.3 251.4 254.9 257.3 260.7 263.7 264.5 265.5 269 273.3 275 281.9 284 286.7 288.8 292.9 289.1 292.3 289.1 289.9 287.6 290.9 283.3 289.9 284.4 283.2 275.8 270.7 269.8 270.8 265.8 261.1 256.2 251.9 245.5 238.7 232.9 229.5 228.7 228.1 227 226.4 225 220.2 209.2 208.3 208 207.6 207.7 206.4 206.4 207.3 207.4 207.2 206.8 206.6 206.9 203.7 203.8 203.7 204.6 203.8 203.8 208.1 223.2 235.9 243.7 251 256.8 260.3 260 260.2 259.6 257.8 258.2 244.6 239.7 231 221.6 218.3 215.8 213.9 211.6 202.8 198.6 198.8 198.2 197.8 197.4 197.2 197 196.9 196.7 196.5 196.6 193.8 202.9 214.3 224.9 234.4 251 266 277.1 286.6 295.3 304.9 314.7 321.7 328.9 334.6 343.6 344.8 347.6 350.2 351.3 351 350.5 349.7 349 347.4 345.7 343.9 339.8 335.9 331.7 324.2 325.6 324
347.2 344.8 345 343.3 341.3 339.8 337.9 335.8 333.5 329.6 325.1 315.3 314.3 314.1 307.3 302.1 303 300.3 298.1 294.8 291.7 284.1 285.6 284.2 281.6 281.7 280.2 276.5 275.7 272.7 269.1 265.4 259.7 257.1 252.3 252.8 249.5 248.5 248.7 247.6 246.5 245.3 247.5 244.3 244.3 248.5 249.8 253.6 254.5 254.7 253.3 250.2 249.2 251.9 252.8 253 252.2 253.1 252.6 252.2 253.6 255.6 254.7 253.5 255.3 251.4 242.3 249.2 249.7 254.8 254.5 258.7 260.5 269.7 272.3 274.5 275.1 276.4 279.4 282.2 286.1 288.7 290.2 295.4 298 299.2 301.4 304.5 302.7 303.3 301.7 295.2 300.1 300.7 303 302.8 298.4 300.9 297.7 293 286.6 287.5 280.7 276.5 273.7 271 268.4 267 261.2 255.2 249.1 244.2 236.8 229.5 228.3 227.7 225.9 220.3 219 217.8 211.2 211.2 207.2 207 206.6 206.5 206.7 206.7 206.7 206.9 206.4 205.7 205.8 205.7 205.6 204.7 203.3 204.9 210.8 221.7 228.2 233.6 235.2 236.8 236.8 235.1 229.8 224.2 221.6 215.8 213.7 212 206 200.5 199.8 199.2 199.2 198.9 198.6 198.2 197.7 197.5 197.3 197.2 197.2 197.2 194.4 204.1 213.8 223.6 233 248.2 266 277.6 287.2 296.7 307.5 316.9 326.3 331 337.6 343.3 345.7 347.9 349.2 350.1 351.7 353 353.6 355.8 357 355 352 349 346.3 344.3 342.4 339.7 338.9 337.7
355 353.8 352.2 351 349.3 347.9 347.1 345.6 344.1 342 340.4 337.3 336.2 334.1 331.5 328.8 329.4 324.1 325.5 322.7 321.2 316.7 311.9 308.1 308.9 303.9 298.9 300.2 290.1 291.1 291.2 286.7 280.4 276.3 273.2 265.3 259 260.2 260.2 259.3 259.9 260.7 255.4 261.6 260.8 256.1 258.6 264.2 258.2 255.7 256.3 255.9 261.1 261.2 261.1 261.5 258.7 263.7 263.6 256.4 263.5 263.1 262.5 262.6 264.2 251.1 250.7 252.9 260.8 264.8 270.2 277.3 278 286.5 284.9 286.2 288.4 294 297.6 300 303.6 306.4 308 310.1 307.2 308.6 314.5 317.5 316.1 318.3 313.9 308.5 315.8 324.3 327.8 328.3 325.9 323.2 320.8 313.1 311.5 307.5 304.3 292.8 296.8 290.7 288.4 284.8 278.6 274.3 270.1 267.4 263.1 253.7 244.9 237.3 234.3 232.4 230.7 225.1 215.5 213.9 209.9 207.7 206.7 206.4 206.3 206.2 206.4 206.1 205.7 205.6 205.6 205.4 205.2 204.3 204.8 203 204.6 204.6 204 211 215.8 215.3 215.3 215.2 213.9 213 212.6 212.6 202.9 199.6 199.4 197.8 197.3 196.8 198.5 198.7 196.1 198.7 198.1 197.8 197.7 197.5 197.4 195.3 205.4 214.2 221 233.7 246.6 262.9 275.6 287.3 296.7 305 317.2 325.1 331.2 337 343.6 346.7 348.3 349.9 351.2 352.8 356.4 363.3 362.4 361.5 359.8 359.9 358.1 355.7 354.1 351.1 350 347.6 345.6 344.1
358.4 358.1 357.1 356.3 356.6 355.6 354.9 355.1 354.4 349.1 351.3 351.8 350.6 349.8 348.1 347 345 342.9 340.9 339.9 333.3 333.7 331 327.5 324.1 322 318.9 317.1 313.1 308.9 305.8 302.1 301.9 297.2 290.7 284.3 281.8 275.9 271.9 266.2 267.6 270.8 262.8 273.4 264.4 269.1 264.2 262.1 266.9 268.8 273.7 273.2 272.2 271.5 274.1 268.4 270.4 271.6 270.6 262.3 268.6 269.7 269.2 269.7 266.1 252.5 260.1 268 271.2 277.9 284.4 288.5 290 295.8 300 300.7 305.5 308.6 312.9 314.4 317.2 319.6 320.1 319.8 313.6 318.6 332.6 337.6 333.3 342.5 338.4 327.3 344.1 352.1 360.9 361.6 358.7 356.1 349.4 343.8 339.4 335.5 329.9 321.5 322.1 315.1 309.3 302.3 286.7 283.6 277 276.5 267.3 263.9 263.3 262.2 254.8 243.5 238.1 231.3 230.4 227.9 225.8 220.2 215.3 209.4 206 206.2 205.9 205.7 205.4 205.6 205.4 205.2 204.7 204.8 204.5 204.4 202.7 204.2 204 203.3 209.1 206.3 206.3 204.6 206.2 207.7 205 203.7 200.2 199.7 198.2 199.3 199.5 199.1 198.6 198.6 199 198.9 197.1 197.7 198.3 198 195.5 208.5 216.5 221.6 233.4 245.4 260 272.4 284.3 293.4 302.6 313.9 323.7 329.7 338.6 344.6 348.8 350.6 353.4 356.5 358.5 358.9 361.7 362.6 362.9 362.1 361.5 360.3 358.6 356.7 355.7 354.1 353.5 352.7 351.9 351.3
364.8 363.4 360.9 359.1 358.2 358.3 358.4 358.1 356.8 355.9 360.2 361 360.8 360.7 359.6 359.8 356.5 354.1 353.3 351.6 343.1 346.5 346.3 344.1 339.7 329.8 325.8 323 320.6 317.2 318.2 313.1 315.4 317.7 314.1 306.8 304.6 300.9 295.6 293.3 291.2 284.5 274 276.3 277.9 283.8 284.3 287.3 286.5 286.3 283.9 281.4 283.3 282.8 281.5 276.4 275 278.4 275.4 276 280.6 277.6 272.8 271.5 262 259.9 273.5 278.4 284.5 292.4 295.2 295.4 300 306.7 310.6 312.4 316.3 319.1 322.3 324.1 326.7 328.3 328.1 333.9 338.2 342.9 346.4 349.4 350.5 359.6 360 355.7 363.9 371.8 372.4 373.7 374.4 373.2 373.5 373.6 371.6 366.3 358 347.2 343.6 336.9 330.6 320 317 309.2 294.5 281.2 274.7 273.2 270 266.2 264.1 262.2 260.9 248.2 241.2 236.8 232.2 229.3 225.5 221.9 217.4 207.8 205.8 205.5 205.5 205.5 205.3 205 204.7 204.3 204.1 203.8 203.7 202.7 203.8 203.3 204.3 203.1 202.6 201.6 201.6 201 201.2 200.6 199.1 200.5 200.9 199.9 199.8 199.2 198.7 198.3 198.5 198.3 198.6 198.5 196.3 195.7 208 215 222.5 232.5 244.6 256.7 269.4 279.2 287.8 299 311.6 323.8 330.4 336 342.2 349.3 354.9 360.6 362.4 361.5 360.9 360.9 361.4 361.8 362.6 362.4 361.3 360 359 357.5 356.1 355.6 355.2 355.3 356 355.8
373.3 372 368 365.2 362.1 361.8 360.8 360.4 361.6 363.5 364.6 366 367.6 367 366.2 365.5 365.5 368.3 367.9 363.3 362.4 363.5 360.1 357.8 354.9 349.8 347.9 345.6 341.9 336.8 332.9 333.4 329.3 332.1 327.3 324 318.5 306.9 300.5 297.3 293.3 286.9 284 294.5 295 298.3 296.8 296.2 298.3 296.8 294.4 294.3 293.3 293.2 292.4 295.4 294.9 293.3 292.9 293.6 294.6 290.8 277.9 259.5 258 272 285.9 293.7 298.3 304.2 306.9 308.8 311.5 312.8 317.3 319.4 321.7 324.4 327.9 329.4 330.8 333.1 338.7 343.7 347.6 350.7 353.9 359.3 361.5 363.1 369.1 370.5 372.2 375.7 376.8 383.3 384.6 385 385.5 385.7 382.5 376.4 371.4 370.2 369 360.5 346.9 338.2 326.8 314.9 300 289.7 283.7 285.6 283.8 275.1 275.2 273.9 269.8 271.3 264.6 261.1 254.9 243.5 239.2 227.5 223.8 220.4 215.1 205.2 205.2 204.8 204.6 204.7 204.4 204 203.6 203.5 203.6 203.2 202.6 203.3 203 202.5 202.6 202 201.8 201.3 199.2 199.8 201.1 201.7 201.5 201.4 200.6 199.7 198.9 198.7 198.2 198.2 198.3 199.4 203.5 205 213.5 222.8 232.1 244.1 255.8 266.6 274.2 283.4 292.4 308.8 321.5 330.9 335.9 339.4 346.2 356.2 365.7 364.2 362.5 361.6 361.2 361.9 363.2 363.3 363.5 362.3 360.7 360 359 357.8 356.8 357.2 357.1 358 359 360
384.3 383 380 375.3 372.7 372.3 372 372.3 371.1 370.7 371.6 370.3 372.5 371.6 372.6 372.4 374 376.4 374.2 369.6 373.2 373.6 370.5 368.6 365.8 365.2 362.5 361.7 359.6 356.3 343.8 343.9 344.4 342.7 340.5 339.5 333.7 325.5 316.3 317.3 317 304.2 304 313.9 310.6 303.6 304.6 308.5 305.4 302.6 303.7 303.5 304.8 305.3 305.7 307.3 305.7 305.5 305.5 304.6 304 297.9 271.6 260.5 269.9 287.5 297.2 304.6 310 313.8 316.1 317.5 316.2 320.4 325.8 328.4 328.7 332.1 334.7 337.2 342.9 346 348.6 352.5 354.7 358.7 363.3 368.2 371.3 374.5 375.4 377.8 379.8 382.5 385 389.8 394.1 395.5 392.7 391.4 389.6 387.5 383.1 384.1 381.6 371.9 367.2 362.2 337.8 326.5 313.7 309.4 309.3 314.1 307.8 300.6 304.7 299.1 297.9 293.1 286.3 279.2 271.1 262.2 258.2 253.7 246.1 238.2 230.4 222.8 217.9 207.5 204.2 204.2 204.1 203.8 203.5 202.8 203.1 202.8 203.5 201.8 202.8 202.5 201.8 201.6 199.9 200.3 201.6 201.2 201.4 202.2 202.8 202.9 201.5 201.1 200.7 198.5 198.4 198.8 200.4 207.6 210.2 214.7 222.3 232.4 244.3 255.1 263.8 272.2 280.1 286.9 301.2 315.2 327.9 336.2 339.3 342.9 348.7 361.3 364.9 364.8 363 362.2 363.3 365.8 365.1 364.8 363.6 361.5 359 360.3 360.1 359.6 359.1 359.2 360.8 362.2 363.1 363.9
392.7 391.4 389 386.6 382.8 379.4 379.5 382.6 382.7 383.1 382.3 380.6 381.3 381.3 381 381.3 381.5 382.9 382.4 382.2 381.9 380 378.3 376.3 375.2 374.8 372.6 371.4 369.6 367.2 361.4 355.4 351.6 352 350.2 348.3 345.7 340.3 337.8 335.4 328.4 303.8 322.1 326.7 326.9 320.4 319.8 319.6 316.5 314.8 315 315.2 317.2 318.4 317.2 318.2 314.4 315.7 314.7 310.2 304.8 293.8 268.9 266.3 283.9 299.1 310.4 315.3 319.9 323.9 326.7 329.4 332 333.9 336.3 339.2 342.4 346.6 351 353.2 355.6 359.7 362.5 364.6 367.2 371.3 373.7 379.2 381.4 385.3 386.7 386.3 390.4 392.8 398.6 405.5 410 412.9 411.9 410.5 410 408.4 404.5 398.8 393.5 387 384.2 377.8 369.6 358.3 344.5 340.2 341.8 339.6 325.8 328.4 326.6 323.3 318.4 311.8 306.8 300.9 292.2 284.6 278.2 270.4 261.3 255.8 250 239.8 231.3 219.8 218.8 213.2 209.2 204.6 203.5 202.5 202.3 202.4 202.2 202.6 201.2 201 201.3 200.7 211.1 210.2 202.2 201.1 202.3 203.2 204.3 204.4 203.9 203.4 203.3 202.7 202.8 203 210.7 209.7 219.4 225.4 231.1 243.9 254 263 270.6 276.9 284.4 295.2 311.2 322.5 335.3 341.2 342.7 344.7 350.8 360.9 364.6 365.1 365.5 365.8 366.6 366.1 365.7 364 362.4 360.3 359.3 361.2 361.6 361.7 362.7 364.7 366.1 366.3 366.5 367
398.3 397.5 395.8 393.7 392 389.5 388.7 389.5 390.3 391.1 391 391.4 393.2 394.4 395 394.1 392.3 392.3 390.2 388.8 388.4 387.5 385.3 383.7 382.9 382.3 380.7 378.3 376.5 376.2 373.6 370.1 363.2 359.9 358.6 356.7 354.8 350.9 347.3 343.7 317.3 329.7 337.5 338.1 335 332.8 331.3 329.8 328.6 328.4 328.6 328.9 327.8 327.4 327.3 326.9 324.3 320.5 315.2 310.1 304.6 287.6 263.2 275.9 295.6 309.7 317.5 324.2 329.8 333 335.3 337.7 339.7 343.9 347.6 350.7 354.7 357.7 358.2 362.6 365 366.8 370.3 374.1 378.6 383.3 387 389.6 391.4 393.7 394.2 396.5 399.8 406.3 413.9 422 427.6 429.3 429.3 427 426.2 424.3 420.4 414.3 404.7 399.3 395.4 383.4 382.5 380.5 374.6 372.5 359.6 350.6 350.6 348.5 341.5 336.5 328.4 322.8 319.7 316.1 308.1 303.1 296.9 289.1 281.8 275 266.8 257.7 252.1 241.6 234.7 226.2 220.8 217.8 215.3 213.5 209.7 204.3 207.1 205.1 202.9 202.9 204.8 206.1 205.8 206.1 204.3 203.9 203.8 204.8 206.2 205.9 206.4 206.4 206.9 209.1 212.9 216 217.3 223.8 229.8 238.3 247.4 249.1 261.8 270.6 277.1 282.6 289.9 304.1 318.1 330 340.5 343 344 346.5 353.7 362.7 366.1 366.5 367.3 368.7 368.4 367.6 366.8 364.2 362.3 361 361.3 362.9 364.3 367.2 367.8 370.3 370.5 371.3 373.5 375.6
403.6 402.3 401.6 400.7 399.4 397.8 396.4 395.7 396.4 396.9 397.3 398 398.8 400.6 401.1 401.6 400.9 401.8 398.9 397.7 397.2 396.3 394.7 393.7 392.8 392 390 388.1 385.4 383.5 381.9 379.1 376.8 372.8 369.2 366.6 363.1 358.4 353.7 336.4 331.3 344.2 345.9 344.3 342.6 342.3 344 342.3 341.8 342.2 341.4 339.7 337.5 336.6 335.6 332.3 326.8 321.1 315.6 310.4 304.8 286.3 264.9 284.5 303.2 315.3 321.5 329.2 334.8 337.4 342 345.6 349.6 354.2 358.7 361.6 363.8 364.7 368.1 372.4 377.6 381 384.4 385.4 389.9 391.4 396.3 401 403.7 400.1 400.4 405.2 411.7 420.2 435.6 444.7 444.8 444.9 443.7 440 440.9 439.6 432.6 423.6 419.8 417.2 410.1 401.7 396 386.9 382.3 379.3 373.4 371.4 369.1 364.4 357.6 351.8 345.3 335.9 331.6 325 319.8 315.5 311.2 303.7 296.2 290.7 283.9 276.5 268.9 259.6 253.6 245.8 235.2 233.3 231.6 221.4 219.8 218.1 217.6 215.7 215.7 212.9 212.3 212.2 210.9 211 212.6 212.8 210.8 212.4 210.9 209 210.1 214.5 217.4 220.4 223.7 224.5 227.7 234 246.2 246.8 257.8 264.7 267.8 275.3 281.2 287.2 296.6 309.2 319.6 330 340.7 343.9 345.7 350.1 362.8 368.2 368.5 368.9 370.8 371.6 372.9 372 370 366.4 363.9 363.4 364.8 367.4 370 372.1 372.5 373.7 376.6 379.5 382.7 385.4
409.3 407.8 406.7 405.4 404.2 403.1 402.1 402.1 402.3 403.2 404.1 404 404.4 406.3 406.8 406.9 407.6 407 404.9 405.4 404.6 403.1 401.9 401 400.8 399.6 398.4 395.4 393.8 391.6 389.8 386.4 384.1 381.5 378.7 374.4 370 365.9 361 336.6 344.9 352.4 351.6 352.3 352.5 353.3 351.7 355.9 354.7 351.6 350.4 348.9 346.8 343.8 340.8 335.8 329.3 324 319.3 315.9 307.8 285.9 272.8 288.5 311.7 322.7 326.6 334.4 339 343.4 351.6 356.3 361.7 365 367.5 369.7 373.4 376.6 381.2 384.6 386.2 389.7 392.2 392.7 396.9 401.1 405 406.2 407.6 411.1 415 420.5 429.7 433 452.3 456.5 460.8 462.2 454.3 447 442.1 441.8 440.6 441.6 437.3 431 421.8 414.5 407.4 399.6 391.3 383.9 379.8 378.9 377.6 372.3 367.4 362.6 356 345.9 342.1 340.7 334.1 328.3 322.3 313.5 308.5 303.9 297.7 291.8 285.3 278.1 270.4 265.2 259.7 252.5 246.4 243.8 238.1 228.9 231.4 230.7 228.2 225 220.5 220.1 220.1 219.9 217.4 217.6 218.4 220.6 221.5 210.9 216.3 223.1 226.5 228.1 231.1 236.8 245.7 255 259.3 266.1 266.1 273 273.6 278.2 285.3 293.5 304.3 313.2 321.8 331.1 342.9 346.3 350.5 357.6 370.4 369.9 369.5 371.7 374.8 378.2 379.8 376.6 372.3 372.6 370.8 370.6 373.6 374.5 374.3 375 373.5 380.6 385.9 391.5 395.8 397.2
416.4 414.9 413.6 412.2 410.8 409.5 407.9 407.4 407.5 407.9 408.3 407.9 408.6 410.2 411 411.2 411.5 411.4 411.1 411.2 411.2 410 409.4 408.4 407.2 405.5 404.1 402.4 400.2 397.4 394.5 393.3 391.7 386.8 384.6 379.7 375.2 371.8 354.2 349.4 354.3 360 360.4 362.2 361.8 364 363.7 365.4 363.3 362.2 361.4 359.1 356.8 351.8 344.2 340.9 335.2 328.9 324.9 322.4 310.7 286.3 278 296.8 313.8 323.9 331.1 338.4 345.8 354.5 361.4 365.6 368.5 371.1 373.1 376.4 381.1 385.4 388.1 392.1 392.8 396.8 399.9 403.4 406.3 409.6 413 416 420.4 427.8 435.9 444.4 454.2 456 459.8 456.1 461.5 464.7 468.7 468.4 454.8 447.8 445.2 444.7 442.6 437 430.8 424.6 419.6 414 407.9 400.6 389.2 380.3 376.1 374.8 373.2 370.7 364.9 359.5 354 352.2 346.5 339.1 330.6 325.2 319 314.4 309.4 304 298.2 290.1 285.3 278.7 271.6 264 256.1 254.5 251.1 245.4 243.2 238.6 234.6 233.3 231.5 230.7 230.2 228.7 227.1 227.5 227.3 227.6 225.5 215.6 226.1 231.8 234 236.7 244.9 252.8 260.6 266.9 269 274.4 271.9 277.8 281 280 291.8 300.4 309 316 327.3 338.5 345.8 348.7 354.5 364.9 370.2 371.1 372.6 376.6 381.2 387.4 386.4 382.6 382.4 383.5 383.2 381.8 380.2 379.6 379.4 383.9 388.3 394.8 400.6 406.8 409.8 411.7
421.5 420.3 419.9 418.9 417.1 416.4 415.1 414.3 413.9 413.8 413.3 413 412.6 413.7 414.2 413.8 413.8 413.7 414.2 414.6 414.4 414.3 413.8 413.4 412.9 411.5 411.1 409.7 407.5 404.8 401.8 399.6 397 393.6 390.1 385.7 381.3 377.6 356.1 369.4 366.1 365.2 368.5 370.2 372.6 373.2 375.4 375.5 375.1 374.5 373 370.8 365.5 359.5 352.3 343.9 337.8 335.6 331.4 327.8 316.5 288.8 278.9 295.5 313.9 324.2 335.9 344.4 352.5 359.2 366.2 369.9 373 376.5 381.4 385.2 389.5 394.7 399.7 403 406.3 411.1 416.1 419.9 417.1 426.9 431.5 435.7 439.1 444.9 453.5 457.9 459.8 460.9 461.5 461.1 461.8 462.9 465.4 468.6 471 468.4 456.4 448.9 443.7 441.8 438.5 434.2 428 424.4 419.2 413.8 405.9 394 385.1 379.9 375 372.2 369.8 366.7 364.7 358.6 352.3 340.6 332.2 334 327.1 322.9 320.9 315 307.4 299.3 291.9 281.7 273.2 267.3 270.1 260.9 256.6 257.5 255.2 252.7 249.5 244.8 243.3 244.1 242.1 238.9 237.3 235.6 236.8 234.2 223.8 229.1 236.8 239.6 245.3 251.5 258.8 265 270.6 276.7 276.6 278.2 280.4 281.9 287.5 292.6 295 305.3 312.4 321.1 332.3 341.9 346.9 351.6 358.5 370 372.3 372.3 377.5 383.6 392.4 394.8 395.2 399.1 399.4 398.4 398.5 392.7 390.1 390.5 394.4 395.2 403.6 409 420.8 427.1 429.3 429.7
426.6 424.9 424.5 423.4 423 422.1 420.2 420.5 418.9 419 419.9 419.1 418.6 418.6 418.3 418.7 418.4 416.9 417 416.8 416.9 417 417.5 417 416.5 416.2 415.1 414.1 412.9 411 408.7 405.4 401.8 399.8 396.7 390.7 387.4 382.3 379.5 379.8 381 380.5 380 380.5 382.3 384.1 384.8 383.8 385.9 384.3 382.5 377.2 370.9 363.8 356.7 350.1 343.9 339 334.2 331.4 321.5 296.3 273.5 293.4 315.5 329.3 340.3 348.2 356.6 363.8 369.1 372.8 378.5 384.3 390 394.7 401.2 406.3 412.2 418.2 423.9 430 431.8 431.7 433.6 440.4 443.3 448.9 456.5 457.5 459.2 463.1 464.3 464.9 464.8 463.4 463.4 462.9 463.6 464.5 467.6 469.6 468.9 459.5 451 446 442.3 438.1 434.8 431.1 427.2 423.1 418.7 411.1 401.6 392.9 384.4 375 371.5 368.9 362.8 361.2 350.2 348.6 332.5 328.5 325.2 317.1 325.7 321.1 314.2 301.6 290.9 293.3 281.9 286 281.7 271.6 273.8 271 266.1 264.2 258.2 256.6 256.3 254.6 252.8 249.9 246 243.7 245.4 233.3 231.7 240.7 244.6 250 257.6 265 269.8 276.2 280.3 281.7 281.7 283.5 285.4 290.2 294.6 301.1 305.8 311.4 317.8 327.6 335.4 343.4 348.8 354.8 366.7 373 375.4 377.7 384.1 393 399.8 400.6 405.5 408 408.1 407.2 408 407.2 407.5 405.1 408.4 410 419.1 426.2 433.1 435.3 440.6 437.8
432.9 431.6 430.5 428.4 428.4 427.2 425.9 425.1 425.1 425.7 426.5 425.5 424.6 425.3 424.5 424.3 423.9 423.6 422.5 422.5 422.3 421.6 420.7 420.8 420.3 419.8 418.9 418 417.1 415.8 414.8 412.9 410.3 406.5 402.7 397.9 390.2 388.8 390.1 390.4 392.1 393.3 393.4 393.9 394.3 395 395.2 396.5 395.3 392.4 387.5 381.9 375.7 369.3 362.9 356.3 347.4 341.9 335.4 328.7 314.2 293.5 278.5 296.1 319.6 336.8 344.6 351.8 358.9 367.9 373.6 379 383.8 393.5 402 411.9 420 425 430.3 438.4 445.6 451.8 461.9 461 463.4 462.9 458.2 459.8 464 464.4 466.6 467.3 467.6 469.1 470.5 470.7 468.1 464.5 464.5 465.1 465.1 466.6 467 465.1 456.4 448.4 445.3 443.5 441.5 439.3 435.4 431.9 426.9 421.7 414.7 406.8 401 392.8 385 376.5 375.3 372 368 362.9 355.2 351.1 341.2 323.3 317.1 317.8 310.1 299.4 300.7 305.9 294.5 296 285.9 290.4 291.4 286.8 283.1 278.7 268.1 270.4 271.3 268.9 265.6 260.9 256.3 251.2 249.1 233.9 242.9 247.9 254.7 261.8 268.5 274.8 281 283.2 285.1 285.9 286 290 297.4 301.4 302 308.1 312.6 318.4 323.5 331.1 338.6 345.7 351.8 360.6 373.7 377.6 379.1 383.1 393.6 405 405.3 406.5 410.2 412.9 413.3 414.9 421.5 426.2 421.3 423.4 427 427.8 430.3 441.5 448.1 450.5 450.6 452.1
437.8 437 436.5 435.3 435.6 434 433.6 432.9 431.9 432.4 433 431.9 431.9 432.3 432.3 431.4 430.8 430.4 430.3 429.8 429.2 428.2 427.2 425.9 425 424.5 423.8 422.1 421.1 419.2 417.1 415 411.5 407.7 403.5 397.5 397.2 398.3 398 400 400.7 403.2 404.6 405.6 406.7 406 405.8 404.5 402.2 399 394.3 388.8 382.5 375.1 366.6 357 348.8 338.2 330.6 317.3 315.7 301.9 281.3 296.3 317.7 331.5 346.3 353.6 363 374.1 380.1 385.2 394 406 422.7 431 439.4 449.5 455.7 458.2 462 466.5 468 468.1 467.9 467 465.1 465.6 468.1 469.9 481.4 491.4 491.6 489 481.1 479.1 474 469.1 467.2 467.7 469.7 470 469.8 467.7 464 461.3 453.7 451 449.7 449.4 446.6 442.3 436.9 431.7 426.4 420.1 413.1 408.2 401.4 394.9 388.7 383.2 378.1 374.1 369.2 363.8 358.9 344.7 331.4 325.6 324.8 322.4 320.7 317.5 310.6 306.2 303.2 302.5 300 296.2 292.2 287.1 279.1 279.6 278.6 274.1 269.6 264.3 259.9 256.3 237.4 242.5 251.7 256.5 265.6 271.3 279.1 283.7 287.7 289.8 291.2 293.9 297.8 301.1 303.6 308.4 310.3 313.6 323.1 328.6 331.1 335.7 342.2 350.1 356.7 368.6 377.9 381.7 386 393.7 407.5 410.9 410.7 412.5 415.3 415.4 416.5 421.5 428.4 431.9 433.1 433.5 438.4 440.8 443.7 449.6 454.9 455.3 457.5 457.2
446.3 446.5 446.6 445.9 446.4 445.4 445.2 443.7 442.5 442.2 441.2 439.9 438.5 439.6 438.2 437.5 435.6 436.3 437 436.5 435.8 434.9 434.2 431.8 431.2 430.5 429.3 428.4 426.8 424.4 421.6 419.3 416.1 412.8 407.8 403 404.7 404.9 406.8 407.9 409.5 410.3 412.2 413.9 414.5 413.9 411.7 410.6 408.3 405.1 400.4 393.9 386.5 377.4 366.7 354.8 349.3 342.7 335.5 331.6 327.3 314.2 289.2 290.2 309.8 323.7 346.3 360.1 371.4 381 385.3 390.5 399.9 407.1 420 430.3 444.9 455.9 460.2 466.8 468.9 468.8 468.8 467.8 470.5 473.3 473.6 478.2 485 482.4 493.6 495.5 494.5 493.2 492 485.2 480.3 477 472.8 472.8 476.1 478.7 477.1 472.5 467.8 465.2 463.6 463.9 462.5 458.8 457.7 454.4 449.9 445 437.2 431.3 425.2 418.8 413.9 408.2 402.6 396.8 390.5 386.2 380.5 374.9 368.1 360.2 356.1 350.4 345.3 339 332.2 326.8 323 318.6 314.8 309.7 305.5 302 298.1 292.4 288.5 285.4 282.1 278.4 273 269.3 266.2 259.4 242.7 258.2 266 269 274.4 282.7 287.6 291.9 294.3 297.1 299.6 301.8 304.9 309.2 312.9 319.3 324.6 328.4 332.3 334.7 337 340.6 347.3 354.2 362 376.2 382.6 387.7 394.2 404.7 414.7 416.7 416.9 417.1 418.3 417.5 420.6 425.7 433.8 437.8 453.2 455.3 456.2 451.8 456.3 457.3 458.6 460.1 461.2 462.3
457 457.8 457.3 457.7 457.3 457.2 455.5 454.9 454.5 454.4 454.9 454.8 454.3 452.6 450.8 451.9 451.2 450.7 449.5 447.5 445.5 443.5 441.2 438.7 437.1 435.4 434.7 433 431 427.5 423.5 420.2 417.8 413.9 401.5 410.7 411.9 413.5 414.2 415.3 414.8 416.7 419 418.8 418.8 417.5 415.6 413.3 411.3 407 402.7 394.9 386.8 380.9 372.7 364.1 356.9 349.1 342.6 338 331.8 325.4 307.7 285.9 300.5 320.6 345.2 359.8 372.4 376.7 383.9 391 399 408.9 418.5 426.1 435.4 449.4 462.7 472.2 483.3 484.5 485.9 488.6 488.2 489.5 489.2 490.8 491.5 492.3 494.7 496 495.3 494.3 493.2 491.5 484.8 483.5 486.8 483.3 482 482.5 483.9 481.6 474.4 470 465.8 465.9 466.7 466.2 465 462.7 459.4 454.3 447.4 441.4 435.4 429.5 423.7 418.4 413.3 407.4 401.8 393.9 389.5 384.6 379.5 373 367.8 362.1 356 350.8 344.2 339 334.2 328.9 324.9 320.8 316.3 312.1 308.3 302.6 298.9 295.1 291.9 287.3 278.9 275.2 272.4 247.7 258 270.7 275.2 279 281.4 290.5 293.9 298.2 301.7 303.3 305.5 307.7 312.2 319.4 326.4 333.6 338.4 339 337.5 338.8 342.7 349.3 351.4 360.3 373.1 381.9 388.2 392.7 400.6 412.6 418.6 419.6 419 419.5 420.2 420.8 426.1 431.6 436.8 447.1 459.5 459 457.9 461.7 461.6 460.7 463.7 465.2 465.7 467.3
471.2 470.9 471 470.8 471.7 471.8 470.3 469.9 469.1 469.7 470.2 471.3 469.9 469.3 470.6 470.6 470 467.8 465.8 461.8 458.6 454.6 449.7 445.4 442.4 440.2 438.5 436.1 433.6 429.8 425.7 422.4 419.8 412.1 415.8 415.5 418.4 420.4 421.1 421 421.9 423 423.8 423.6 420.6 417 415.5 412.6 407.4 405.3 401.4 401.1 395.6 389.1 383.5 373.2 360.1 351.3 343.8 338.2 333.2 328.9 307 291.4 295.6 313.9 339.5 352.8 363.7 372.2 380.7 389 401.5 412 416 420.9 428.1 438.9 451.4 466.2 483.4 487.4 489.4 492 491.3 490.1 489.5 491.2 490.5 497.3 497.9 501.3 504 504.6 504.7 504.1 502.4 496.3 492.9 492.4 490.3 488.4 486.1 484.2 481.4 480.6 483.2 483.4 480.9 476.5 471.1 468 464.8 459.1 452.5 446.7 440.6 434.8 430.4 426 421.4 416.4 410.4 404.3 399.1 394.4 390.2 384.6 378.8 373.2 369 362.8 357.5 350.6 345.2 340.2 336.5 331.7 326.2 322.5 317.8 309.5 303.9 303.8 298.4 292.3 288.6 281.9 271.8 250.3 271.6 278.5 282.7 287.6 291.3 294.9 302 305.1 307.9 311.1 314.5 320.2 326.4 335.1 340.8 343.7 344.1 344 343.1 346 353 357.3 362.1 364.6 379 388 393.7 398.9 408.4 418.9 423 423.1 422.2 423 424.4 426.9 431.1 435.7 442.4 456.5 463.7 463.6 464.4 466.1 466.5 465.7 468.2 469.4 471.9 472.8
482.7 482.4 483 483.4 484 482.9 483.5 483.6 483.9 485.6 486.5 489.2 489 487.6 487.2 491.2 492.7 489.6 483.2 475 469.3 464.6 458.2 453.5 448.3 445 443.3 439.9 436 431.7 427.3 421.8 414.9 420.4 422.1 423.3 424.5 425.7 426.3 426.8 427.4 427.9 428.2 427.8 424.1 419.7 413.8 411.8 407 405.4 406 403.5 399.2 394 388.1 376 361.2 353.2 345.4 339.8 334 328 307.8 318.5 304.3 301.6 325.5 349.4 358.6 369.1 380.9 383.6 400.7 407.3 412.8 415.6 427.9 436.8 446 460 474.5 488.3 491 491.8 491.5 492.4 492.3 495 500 504.4 505.8 507.6 508.4 510.1 509.5 509.7 509.8 506.2 500.7 498.7 498.2 495.7 491.6 488.3 486.4 485.3 486.9 491 491.5 488.8 486.4 481.9 476.5 468.2 461.2 452.9 446 438.6 432.2 427.8 424.6 420.6 416.5 411.5 406.6 401.5 397.1 393 388.3 383.1 377.8 373.3 367.7 362.8 357.5 352.5 347.4 342.1 336.6 330.5 325.2 319.4 311.1 308.4 301 297.6 290.7 284.2 261.7 261.9 278.9 285 289.6 294.9 300.4 304.5 309.3 313 318 321 326.4 334.3 342 346.4 346.4 347.6 350.3 351.7 351 357.2 360.1 366.2 374.8 378.8 386 393.1 398.9 407.4 416.9 425.7 426 427.4 426.3 427.2 429.4 431.9 436 439.8 448.5 460.4 466.9 466.5 468.1 468.8 469.7 470.5 472.8 475.7 477.1 480.4
489.5 490.1 492.9 492.8 492.6 493.5 496 499.1 500.4 500.9 503.6 506.3 504.5 504.2 503.8 503.8 508.7 506.1 500.7 495.4 487.6 475.5 468.6 459.4 453.8 448.9 444.8 440.9 437.1 430.5 427.8 424.6 424.3 425.8 427.6 428.4 429.9 430.4 431.3 431.3 430.7 431.3 431.7 431.4 429.4 425.8 420.8 413.2 412 406.9 404.9 406.2 402.5 398.1 390.2 378.2 364.3 356.4 346.7 337.5 332.1 329.1 317.8 329.4 325.8 304.2 330 341.5 349.8 363 372 382.7 394.4 401.5 406.7 411.8 423.9 433.5 444.8 457.4 467.6 479.9 488.1 489.8 491.5 491.4 497.9 501.1 506 509.8 510.7 513.9 513.9 514.4 515.3 515.7 514 510.5 507 509.1 506.8 503.2 498.8 498.2 497.5 496.1 494.5 495.6 495.8 494.6 493.1 493 495.6 493.3 480.4 470.1 462.2 451.5 440.4 432.9 429 424 420.2 414.8 409.7 404.8 400.7 396.5 392.1 387.8 383.7 379.1 374.3 369.4 364.5 358.8 353.3 346.3 340.9 334.7 327.7 321.7 312.7 309.7 303.7 298.3 292.3 273.6 261.3 282 288.7 293.4 298.2 304.2 310 314.1 316.3 323.3 327.7 334.2 341.6 349 350.2 349.9 351.4 357.5 357.5 358.8 357.5 364.8 369.9 379.3 384.7 390.9 388.5 398.5 404.9 415.3 422.8 429.7 429 429.1 430.6 432.2 434 438.4 442.8 446.9 458.5 464.6 470.5 471.8 472.6 473.7 473.6 476.3 478.8 480.8 484.2 486.3
515.4 512.8 515.3 510.1 507.2 513.3 517.5 519.8 521.4 524 524.2 522.8 518.9 518.2 518.6 523 525.1 524.3 518.8 508.2 496.1 486.2 474.8 465.2 456.7 451.8 447.7 442.1 439.1 434.6 427.8 429.5 429.1 430.2 432 433.4 434.8 435.9 436.2 435.5 434.3 433.1 432.3 431.4 430.8 429.5 426.3 422.2 414.9 409.3 404.5 404 402 396.1 389.1 379.8 366.6 359.7 350.3 343.1 335.2 331.5 328.2 330.3 332.9 312.7 332.7 342.3 350.9 345.3 363.2 372.5 382.7 397.1 400 411.2 422 431.2 440.3 452.7 471.7 479.8 480.5 485.8 487.5 491.8 502.7 508.3 512 513.2 514.7 516.5 517.6 518 519.4 520 517.5 515.3 515.5 518 519.5 515.9 511.5 510.7 508.4 502.6 499.3 499.6 501.2 502.3 500.4 497.9 498.4 498.2 494.7 486 476.9 468.4 460.1 450.4 442.4 434.4 428.2 421.9 414 408 403.3 399.2 395 391.1 387.2 382.9 378.2 373.2 367.8 362 355.7 349 342.5 335.8 328.1 321.5 313.7 308.7 303.5 298.4 294.9 273.3 279.8 293.3 297.8 302.4 307.9 313.5 319.3 323.9 328.2 334.4 342.5 351.5 354.1 352.2 353.9 358.7 361.3 362.6 363.9 367.2 367.1 373.9 383.1 389.2 394.9 399.8 401.7 397.3 410.1 419.3 427.7 430.2 431.7 432.6 434.6 436.5 439.9 444.8 448.1 459.3 464.9 471.8 474.6 477.3 477.6 479.8 480.6 482.8 486.4 486.6 488.1 491.4
523.5 525.6 526.7 528.2 528.9 529.9 531.7 532.3 535 535.8 534.6 533.9 531.2 529.6 527.9 529.8 530.1 528.5 524.7 517.9 506.4 493.5 480 470.4 463.1 456.5 451.2 446.8 442.9 437.6 436 434 433.8 435.3 437.6 439.6 440.4 440.8 440.1 438.1 436.5 435 435.7 435.8 435 433.5 431.4 428.3 423.4 416.2 406.8 402.5 401.4 396.3 386.1 376 368.7 363.6 353.2 345.4 339.3 335 332.3 332.7 334.3 334.3 341.8 324.7 342.2 350.2 357.8 363.4 374.1 383.5 394.4 409.2 419.5 426.6 435.8 446.4 466.6 476.3 481.1 482.4 485.5 495.7 505.6 509.7 511.2 513.1 515.1 519.1 521.8 522.9 524.3 524.5 522.9 523.1 524.7 528.9 526.2 518.6 514.7 512.6 507 504.2 504.3 505.4 509.6 511.5 508 505.9 504.8 500.8 495.9 489.8 485.3 478.3 470.6 464 457.5 450.4 442.2 432.5 424.1 417.6 411.1 404.6 399.8 395.4 391 385.8 381.2 376.2 370.3 363.6 358.2 351 343.8 336.5 328.5 321.2 314.9 308.8 303.3 299.5 294.9 266.6 294.1 301.4 306 311.3 316 322.2 327.8 332.8 339.3 345.4 356.1 358.3 359 361.5 362.8 364.6 367 369.9 373.1 376.2 378.2 381.3 392.1 398.9 404.4 407.1 409.6 407.9 414.1 423.1 429.3 433 435 436.8 439.4 440.9 445.8 450.5 458.7 466.4 472.6 477.6 480.4 481.9 482.2 483.8 486.2 488.5 490.4 492.6 496.1 498.8
528.5 532.7 538.3 542.1 543.4 544.7 547.5 550 550.2 551 549.4 544.2 540.7 540.8 538.1 537.2 537.1 534.3 529.1 521.5 515.1 501.3 489.2 476.7 466 459.9 455.2 451.7 447.1 445 442.8 442.4 441.3 442.4 444.3 444.6 444.2 443.7 442.3 441 439.8 439.2 439.7 440.1 439.2 437.2 434.8 432.4 429.7 425 413.3 402.9 397.6 395.2 389.8 378.6 376.9 368.1 358.8 353.8 346 339.7 335.9 335.2 335.9 340.4 349.6 356.9 354.9 336.8 358 369.1 368.2 384.8 398.2 410.1 417.8 426.3 434.6 442.5 454.5 467.4 476.5 481.4 489.6 501.5 507.3 510.3 511.4 512.6 518.6 524.2 526.5 527.2 526.7 527.1 526.8 527.7 528.8 528.9 527.4 524.2 527.2 525.2 521 514.1 513.8 513.2 516.1 517 514.9 511.1 509.5 507.9 505.2 497.9 493.3 488.5 480.8 475.7 470 465.4 460.1 451.1 439.7 431.3 422.2 413.1 407.1 402.2 396.7 391 385.2 379.2 372.9 365.9 360.1 352.6 344.7 336.8 329 320.6 314.4 308.9 304.2 301 282.2 287.5 302.4 308.9 313.9 318.8 323.9 328.9 336.3 344.4 353 358 360.1 362.6 364.8 367 370.1 372 374.8 379.7 385.1 388.1 391 391 398.7 404.2 411.4 415.7 418.8 419.5 414.1 424.7 431.3 435.9 439.1 441.5 442.2 445.4 451.1 454.1 465.1 473.2 478.4 482.6 483.5 485.2 486.8 487.6 490.4 493.8 496.9 500 502.5 506.3
542.8 548.8 555.1 562.3 564.5 565.4 568.2 567.7 566.4 568.1 565.5 557.9 551.1 546.2 542 542.2 540.1 536.1 531 522.9 515.6 506 493.1 479.1 467.3 460.3 457.6 454.4 452.3 450.9 450.5 450.1 449.5 449.8 450.3 450.6 450.1 449.3 448.4 447 445.8 446.3 446.5 446.5 444 441.1 438.5 436.3 434.3 430.2 424.6 409.6 400.7 399.8 395.8 394.2 385.1 371.4 362.6 358.8 352.9 343.9 340.4 339.1 339.4 344.4 350.7 353.8 365.8 344.6 370.6 374.3 383.5 391 397.8 405.6 417.8 426.2 434.3 441.6 451.4 461.8 469.7 476.7 491.6 501.6 507.8 508.8 509.7 515.2 522.9 528.6 529.9 532.6 533.4 528.6 527.1 527.6 525.7 526.6 526.1 526.1 526.7 527.2 524.4 524.3 526.1 525.8 525.1 524.9 524.7 522.9 520 514.2 508.7 499.7 495.1 493.4 490.1 484.6 479.7 476.3 471.6 464.9 455.3 443.6 435.3 424.9 415.7 408.4 401.6 393.4 386.9 380.2 373.3 366.9 360.8 354.1 345.9 337.7 329.7 321.1 315 309.8 305.4 295.5 282 300 309.8 316.4 321.8 326.2 332 341.5 353.8 360.5 361.2 364 366.7 369.4 372.2 376.3 380.1 381.7 384.2 388.2 391.5 395.3 397.6 398.8 402.7 407.1 416.5 421.5 424.5 426.1 426.7 422.7 432.9 438 442 443.2 443.7 449.9 455.1 464.1 471.4 477.4 482.5 485.5 488 488.9 491 491.7 495.6 499.7 503.2 506.6 509.3 512.2
564.3 569.9 572.5 572.3 573 572.5 573.1 572.7 571.4 570.6 568.2 566.4 561.4 556.4 550.7 545.3 540.5 536.4 529.5 522.8 514.4 505.1 491.1 479.2 470.1 465.8 462.5 457.5 458.4 458.4 458.4 457.9 456.8 456.1 455.8 456 455.1 454.6 453.4 453.5 451.7 452.2 453.6 451.8 449.2 446 442.5 439.8 436.9 433.5 428.4 416.9 407.4 403.1 402.7 392.4 381.4 370.8 366 357.8 353.5 351.6 347.9 346.1 347.6 347.4 352.8 351.8 360.3 373.5 378.8 381.4 393.6 398.5 403.1 410.1 419.6 431.7 438.6 448.1 455.9 460.8 464.6 473.9 486.1 497 502.4 504.1 508 516.7 524 528.8 530.1 531.5 534.7 530.8 529.6 529.2 527.8 526.2 525 524 524.4 525.1 527.8 526.5 531.2 533.1 532.6 531.7 531.5 533.1 531.5 523 507.3 498.2 495.5 492.2 489.1 484.3 480.9 477.7 470.9 462.8 452.8 440.4 432.8 424.9 414 405.8 400.3 393.9 387.1 378.8 371.2 364.2 357.7 350.8 342.7 333.9 324.5 318.2 312.7 307.7 301.4 281.7 302.3 312.4 318.8 324.5 330.5 337.9 346.8 356.6 361.7 364.6 368 371 375 378.4 382.6 385.2 386.8 388.8 393.2 397 398.9 401.2 404.1 406.9 406.8 415.3 421.5 425.5 427.3 429.9 432.4 433.3 430.4 440.3 444 444.5 449.1 454.2 460.2 471.2 478.3 483.5 486.3 487.7 490.6 492.9 493.4 496.6 501.1 504.2 508.1 511.4 514.9 515.1
573.3 573.5 573.6 576 575.6 575 577.5 575.6 573.7 571.9 571.3 572 568 567.9 562.3 553.1 543.3 536.5 528.7 520.5 512.2 503.8 492.8 480.6 473.3 470.6 467.8 464.6 464.8 465.3 466.2 465.5 463.8 462.9 462.6 462.3 461.4 464.3 463.4 458 455.8 454.9 456.5 455.8 453.7 451.2 446.1 442.1 438.6 435.9 431.9 423.6 413.7 407.2 404.1 394.7 385.8 374.2 370.8 366.2 361.4 358.6 356.5 353.9 351.7 352.3 355.1 363.7 372.1 379 384 387.8 400.8 405.3 409 416.7 425.5 436 449.8 451.7 461.6 467.3 472.6 479.6 484.5 493.5 499 501.4 506.9 515.4 523 527.9 528.4 529 532.5 530.4 527.7 527.1 525.5 522.6 522 522.1 522.6 523.7 526.5 528.9 533.1 534.2 534.9 536 535.6 534.8 534.4 532.2 513.3 499 498.2 489.6 485.8 480.4 473 469.1 461.4 452.5 442.9 430.1 426.4 417 403.3 396.3 391.9 387.1 380.9 373.2 365.3 357.5 349.9 343 333.3 324.1 316.9 312 306.8 299.6 289.9 303.5 314 323.1 332 338 343.8 356.4 361.6 363 367.2 372.5 377.1 381.8 387.3 387.8 392.5 392.7 395.8 399.2 399.7 401.3 404.7 407.9 410.5 414.4 416.8 419.5 424.5 428.5 433.4 436.3 437.4 438.4 439.3 441.3 444.9 447.8 453.7 458.5 465.8 473.6 482.2 486.2 488.5 490.1 493.2 494.8 496.4 501.6 504.8 508.9 512 515.8 517.9 519.1
575.7 576.9 576.7 578 578 578.6 579.1 578.8 573.9 572.2 573 575 572.6 571.2 568.3 559.9 548.7 537.1 529.9 519.4 514.1 504.1 492.8 481.4 477.3 475.4 470.4 470.9 471.8 472.7 472.6 470 469.7 468.6 469.3 470.9 467.6 467.2 465.6 459.3 457.9 457.1 457.5 458.6 458 456.3 451.6 446.5 442.4 438.3 435.1 429.1 419.4 410.4 402.5 396.3 392.1 384.4 385.7 377.3 369.1 366.1 363.2 360.1 357.5 357.4 361.4 359.7 374.1 380.4 388.8 395.6 406.8 410 415.1 422.8 429.7 438.9 455 462.7 464.5 473.5 480.6 483.2 486.4 493.5 498.4 500.7 505.9 513.7 521 525.5 525.3 525.7 527 524.4 521.9 519.5 519.9 519.3 519.5 521.3 521.4 521.8 523.4 529.7 532.7 534.5 537 538.8 540.3 537.3 532.7 531.3 525.2 496.4 492 488.6 483.4 471.4 465.6 460.4 451.9 445.5 434.3 422.4 417 403 393.2 386.9 382 377.6 370.7 363.1 355.1 345.9 337.5 330.4 320.5 311.1 305.3 300.2 289.9 294.9 310.8 320 330.2 341.6 348.9 355.6 360.5 363.7 367.1 370.7 375.5 381.1 386.4 392.2 395.7 395.1 399 399.9 401.2 402.9 405.3 408.1 412.1 417.1 420.7 421.9 422.8 423.8 429.2 434 437.6 439.3 440.9 442.5 443.3 444 447.1 451.1 455.9 462 468.3 475.6 483.5 487.1 489.1 492.5 495.9 497.2 500.9 505.1 508.8 513.2 515.4 518.6 520.6 521.9
578.3 580.2 580.7 581.4 581.2 582 582.7 577.7 574.6 572.4 573.3 575.7 575 572.5 570.2 565.1 555.2 542.1 530.8 519.9 515.7 508.5 499.6 494.9 491.2 486.1 475 478.4 482 481.7 481 476.4 478.2 480 477 480.7 478.7 474.3 469.5 464.4 461.3 459.4 459 459.7 459.5 457.6 454.2 451 447.1 440.5 435.8 431.6 424.4 413.4 406.8 402.9 400.5 396.7 392.6 385.1 380.7 373.8 371.1 366 365.5 364 370.1 354.4 372.2 381.6 393.8 399.7 408.9 413.8 419.6 426.6 433 441.3 458.2 467.7 466.6 479.1 484.9 487.2 486.5 493.4 499.1 501.6 507.2 512.8 518.5 521.9 521 520.7 518.9 517.4 514.8 515.6 517.4 516.8 517.3 522 520.2 520 520.3 527.9 533.4 534.8 537.2 539.1 539.5 536.2 532.2 529.1 521.4 499.7 489.4 484 476.4 463.5 456.7 448.6 441.5 437.3 424.9 415 407.7 394 386 379.3 373.4 367.5 359.6 352 343.4 334.4 326.7 315.5 305.3 299.7 296.1 298.7 303.7 318.6 328.5 336.7 346.3 359.1 363.2 364.8 367.3 370.1 374.6 378 383.6 390.1 393.3 397.3 401.9 401.3 402.7 402.9 405.4 410 413.7 417.8 422.3 423 424.2 426.4 428.2 430.1 434.2 437.3 440 442.6 444.3 445.2 446.5 446.8 448.8 454 459.4 464.4 471 479.2 484.8 487.8 491.2 494.9 497.5 499.5 504 507.2 512.2 516.4 518.7 520.6 522.8 523
581.2 582.9 582.9 583.2 584.1 584.3 583.8 579.3 574.2 572.8 575 575.7 575.2 572.4 569.9 566.1 560.3 549.2 537.3 525.7 518.2 516.1 512.1 508.3 503.1 495.3 489.4 492 494.1 491.4 490.6 488.9 488.4 491.3 494.8 496.7 491.9 487.1 481.8 477.6 470.2 463.7 461.5 461.6 460.9 459.4 457.5 455.7 453.1 446.9 439.9 436.3 429.8 420.7 414.9 410.2 403.7 404.4 402 394.4 388.9 382.1 377.6 380 375.9 368.6 361.6 357 363.2 385.4 395.9 405.6 414.8 417.2 423.6 431.3 438.5 443.1 459.8 466.7 471.6 480.8 486.4 489 490.3 499.3 502.8 503.3 509.5 513.3 517.6 519.5 518.7 518.3 517.6 512 511.7 513.5 516.5 512.9 513.7 515.5 516.7 517 516 522 528.8 532.3 533.9 537.4 535.9 531.9 528.1 518.9 503.9 493.1 484.7 477.2 468.5 457.1 448.9 439.4 433.3 425.3 414.1 404.2 396.2 385.2 377.8 370.2 363.6 357.6 350.3 341.8 333.9 324.5 316.8 306.4 298.5 298.2 304.5 315.1 326.5 337.2 344.6 349.1 356.9 364.2 369 371 374.3 378 382.3 386.7 391.8 396.8 399.3 403.1 405.6 405.2 407.7 409.1 411.4 417.1 422.1 425.7 426 426.5 429.2 432.8 433.5 434.8 436.5 440 443.2 445.9 446.6 447.8 449.7 451.3 452 456.2 462.3 467 476.3 484.3 488.1 489.9 493.2 496.4 499.8 502.4 507.3 510.9 515.7 519.1 521.3 522.8 523.2 525.5
586.1 586.6 585.9 586.2 587.1 587 585.7 580.8 575.7 575.5 575.9 577 576.5 573.3 569.7 566.4 563 556.5 545.1 532.8 527.7 522.2 520.9 515 507.7 501.2 501.9 503.2 501.6 501.4 498.4 496.7 496.4 500.3 506.9 507.4 504.7 499.9 494.9 491 481.1 474.9 467.8 466.5 464.2 461.4 460.8 460.8 458.1 451.9 445.2 439.7 432.8 424.8 419.2 414.2 411.3 412 410.2 404.6 395.4 392.8 385.8 384.7 377.3 370.1 360.6 363 363.5 371.1 388.7 407.8 418.8 418.7 426.9 435.5 441 446.6 463.9 475.4 479.2 484 487.8 489.6 491.3 502 503.6 505.6 511.2 515.4 519.9 518 517.6 516.1 514.7 510.1 508.4 510.6 514.9 513.7 512.8 513.2 513.5 512.9 512.5 514.4 518.8 524.9 526 526.7 525.5 521.7 511 499.5 490 482.1 474.2 469.2 460.4 449.8 438.7 430.4 423.2 413.6 405.2 397.3 387.2 377 369.9 361.5 354.8 348 341.2 333 325.9 315.7 305 302 303.9 311.3 320.8 333 342.6 347.7 353.7 360 365.6 371 375.6 380.2 382.8 386.7 391.6 394 398.5 401 403 406.8 409.7 413.2 416.6 418.5 422.3 425.4 427.9 429.6 431.4 434.2 438.3 439.2 439.3 437.6 438.9 443.7 446.5 449.2 451.2 452.9 455 456.6 459.3 460.2 464.2 471.8 482.3 487.8 491.1 493.2 496.8 499.2 501.7 505 509.4 513.7 518.5 522 524.4 526 526.9 528.1
592.6 593 588 588.3 591.2 592.2 585.8 580.3 577.3 580.4 579.4 579.5 578.3 575.2 571.3 567.4 563.4 558 548.8 539.6 532.3 528.3 525.5 520.5 512.4 508.8 510.1 509.1 506.4 505.9 505.8 504.5 505.9 502.7 506.1 507.3 507.6 506.5 505.8 502.4 494.3 486.6 481.1 479.9 478 473.8 469.6 463.4 466.2 455.8 447 441.6 433.4 426.6 421.5 416.2 416.5 416.7 415.5 411.3 405.2 398.4 393.1 386.3 382.2 377.6 360.9 362.2 364.8 371.2 376.2 395.7 409.9 421.7 426.7 438.1 443 457.7 471.5 483.9 484.3 485 487.9 489.9 494.8 499.3 502.8 507.1 516.2 519.5 523.1 518.4 516.6 514.9 508.9 503 504.5 506.8 509.3 511.9 511.4 510.9 510.1 509.4 507.9 507 509.9 511.8 512.2 510.4 504.4 497.4 491.4 485.4 477.7 471.3 468.4 460.9 450.6 437.9 429 422.1 413.3 404.7 397.4 388.9 380.3 370.2 362.4 353.4 347.1 339.1 332.2 325.5 317.4 306.8 303.3 307.7 317.1 325.5 334.3 343 351.3 356.3 362 368.5 375.1 380.6 387 391.3 393.9 396.9 400.9 402.9 403.5 405.7 409.4 414.4 419.4 423.8 424.9 430.2 430.4 430.1 431.4 435.1 439.4 442.8 442.9 442.2 442.2 441.2 446 447.9 450.8 454.7 457.3 458.4 460.1 463.1 465.5 467.8 465.8 474.3 485.5 490.3 493.1 496.3 499.4 500.9 502.2 507.8 512 517.1 521.1 524 526.1 528 530.4 533
593 592.7 590.3 592.9 597.1 593.4 585.1 581.9 584.5 584.1 583.2 582 580.5 577.4 573.6 569 564.8 559.3 552.9 548.2 538.3 536.2 529.5 526 523.1 519.5 518.6 516.4 512.6 506.8 516.1 515.2 512.1 506.9 508.4 510.3 510.2 511.2 510.9 508.9 506 498.9 492.3 491.7 490.7 492.2 478.6 466.2 464.2 457.5 448.7 442.3 433.6 427 420.4 419 420.5 422.1 421.5 415.9 411.8 403.2 389.3 391.2 385.9 380.1 362.4 364.9 369.4 377.2 389 391.2 402.3 420.5 426.4 438.2 450.9 462.2 476.8 486.2 485.9 487.1 489 492.3 497.1 504.5 503.9 508.4 518 524 523.4 518.5 518.3 512.3 501.6 497.3 500.7 502.6 505.2 507.1 508.3 506.5 504.2 502.6 498.9 498.4 498 497.3 494.7 491.2 486.3 483.1 477.3 470.9 468.7 466.9 461.9 451.2 440.7 430.1 420.3 412.9 402.4 395 388.4 379.7 371.3 365 357.7 348.7 339.8 331.8 326.8 318.8 310.4 305.6 314 322.3 329.8 336.4 344.3 350.3 359.2 365 370.6 376 383.1 389.1 395.3 398.7 402.1 403.7 407.2 409.5 413.5 417.1 421.1 430 438.4 438.8 437 442.8 436.1 435.1 441.5 444 447.6 449.8 449.1 446.7 445.4 444.7 449.2 450.2 455.7 459.9 461.5 464.1 466.7 471.1 473.5 475 472.5 478.3 488 493.4 495.1 498.6 501 503.6 506.3 511.4 516.2 520.5 523.6 525.7 527.6 530.3 534.7 538.8
592.1 592.8 594.7 597.4 596.5 592.7 585.7 585.9 587.6 586.6 584.4 584.1 583.5 577.8 574 570.6 566.2 564 560.9 556.5 551.1 548.5 541.7 535.1 534.4 531.3 526.6 522.7 517 517.4 523.4 522.6 519.1 514.9 515.1 518.9 518.7 519.2 515.7 511.1 507 501.4 498.6 499.8 497.3 497.2 491.8 477.3 470.6 460.8 451.5 442.8 434.7 425.8 428.2 429.1 425 421 416.2 419.3 415.1 405.7 394.1 394.4 390.2 383 362.7 372.7 376.2 369.9 391.6 398.5 404.1 406.7 424.6 435.7 448.4 464.6 477.5 480.5 483.1 486.2 489.7 493.5 497.5 502.1 504.8 510.3 518.3 521.9 523.7 516.8 515.3 503.9 497.4 492.7 492.4 493 499.1 499.5 501.3 500.2 495.7 491.3 488.4 487 485.6 484.2 482.4 479.4 477.2 472.2 467 465.4 462.8 459.7 453.9 440.7 430.7 421.7 413.7 402.9 393.6 387.3 379.5 370.2 362 356.3 349.3 339.8 331.9 325.7 321 311.9 308.6 317.9 327.3 336 342.4 348.7 354.2 361.8 368.8 374.6 379 384.4 390.8 396.7 402.2 406.1 412.6 415.9 415.9 424.4 431.1 436 441.4 444.1 446.8 448.9 448.4 449 446 446.9 448.7 451.5 453.1 454.5 451.4 452.3 452.9 451.1 453.5 454.4 460.1 463 466.6 472.3 476.9 481.2 481.8 482.1 480.4 481.1 489.6 495.6 499.7 503.3 503.8 505.1 510.4 514.6 519.1 523.7 525.6 527.9 530.7 535 539.8 544.7
594.3 595.5 597.9 598 596.9 593 587.3 589.8 589.4 588.7 585.4 584.4 581.5 576.5 573.8 570.3 568 564.3 561.3 561.4 563 559 549.5 548 544.7 544 540.3 531.3 526.9 527.9 531.9 531 530 521.6 524.9 527.2 526.6 525 522.9 517.3 513.8 507.7 505.1 502.2 500.5 498.6 494.3 483.8 475.2 465.9 453.5 445.8 431.7 429.8 439.3 437.9 432.9 417.2 425.6 414.2 406.6 399 400.4 395.4 391.7 380.1 365.9 379.4 380.6 387.5 399.3 402.9 408.9 417.2 423.8 429.2 442.8 463.4 472.2 477.8 481.9 487.6 489.9 494.3 497.9 500.7 505.7 513.2 518.4 517 519.1 512.1 510.4 501.2 494.9 500.1 500.4 497.4 489.5 487.9 488.4 489.5 488 485 481.2 480.9 477.4 474.8 472.4 470 466 462 459.5 457.3 452.5 445.6 440.9 428.7 420.9 412.7 401.6 392 381.9 374.8 368 361.9 354.2 346 339.2 332.3 324.6 318.5 313.8 310.4 322.4 332 339.3 347 352.3 358.9 363.9 370.4 377.1 383.2 389.6 398.2 406.4 413.8 417.7 421.2 427.6 431.2 433.5 442 443.1 447.5 454.8 457.9 464.2 465.6 457.9 463.3 461.8 461.9 463.7 463 461.6 457.4 454.6 453.7 456.3 452.2 454.8 459.3 464.1 467.2 473.1 479 484.2 489 489.4 489.9 489.3 482.6 491.8 497.4 502.6 506.5 506.8 509.1 513.4 518.5 522.8 525.8 528.5 530.5 533.9 539.1 544.2 550.5
598.2 597.5 597.6 597.4 597.1 593.5 591.2 591.5 592.2 590.7 587.2 584.2 580.9 576.8 572.2 569.7 567.6 565.3 563.5 562 562.8 560.1 556.2 553.7 554.1 554.2 550.8 544.4 534.5 542.5 545.4 546.6 541.7 532.1 531.8 530.5 530.8 530.7 529.4 525.9 520.6 515.2 508.8 507 505.6 502 495.8 489.8 480.7 467.4 446.7 441.5 444.5 443 452.8 447.7 442.6 427.4 433.9 426.5 415.9 407.5 397.9 396.6 394.6 386 376.9 381.4 377.6 383.6 402.7 409.3 423.6 425.9 429.8 434.9 442.8 457.4 475.5 479.6 484.2 490.3 491.2 497 500.1 503.1 507.4 513.3 517.1 513.2 513.7 509.3 506.3 499.8 499.2 502.2 500.2 497.1 493.9 492.5 490.6 481.3 475.3 473.6 475 474.4 470 467.6 463.2 460.4 455.7 450.7 447.1 440.3 436.3 432 424.3 418.8 411.8 400.9 390.5 380.2 372.8 364.1 358.1 352.9 346.3 338.3 332.5 324.7 320.9 314.9 317.5 328.2 338.6 344.8 351.2 358.7 363.7 368.1 372.9 378.4 385.8 393.9 404.7 412.8 420.9 427.3 431.1 435.4 438.6 441.3 440.4 446.3 455.3 467.3 471 471.8 475.6 476.5 465.8 475.2 474.7 474.6 473.8 474.6 472.7 469.8 460.3 456 456.2 458 459.9 464.4 468 473.2 480.6 485.4 489.8 494.1 496.2 495.6 495.2 490 494.6 500.9 504.5 508 510.2 512.9 517.7 521.8 525.2 527.8 530.9 532.5 536.3 542.2 547.6 552.4
601.2 599.3 598.9 598.6 597.1 592.8 592.3 592.7 593.2 592.5 588.5 587.3 581.8 576.9 570.9 571.2 567.9 566.9 566.2 563.5 562 559.9 558.9 557.3 560.1 559.5 558.3 553.4 552.2 555.9 553.6 550.2 546.8 539.5 539 537.2 535.3 536.2 533.7 528.6 526.2 520 516.1 516.3 512.1 505.4 498.2 492.3 480.9 453.2 448.8 452.1 461.3 458.3 442.8 435.2 431 435.9 434.9 427.8 417.3 406.2 396 400.7 391.8 388.3 381.5 372.6 385.1 400.8 406.4 418 430.7 438 447.4 445.7 452.1 456.7 473.7 483.9 489.7 492.6 495.1 501.2 508.2 510.1 509.9 513.8 514.5 511 508.8 504.4 501.4 505.4 508.2 508 506.2 504 501.2 495.6 489.2 486.3 482.2 476.4 464.3 467.4 462.8 457.9 455.7 452.4 447.3 442.3 435.6 428.7 424.4 419.8 409.1 408.4 400.3 390.1 381.5 373.8 359.9 355 350.3 347.7 344.3 334.9 325.6 323.5 320.6 320.7 334.4 342.5 350.2 357 363.7 367.8 372.9 378.1 382.1 388.8 393.7 406.5 419.3 428.1 437.5 443.7 446.9 449 447.7 452.8 453.6 454.2 462.9 470.5 472.6 477.7 478 477.9 473.9 479.1 478.6 478.7 476.1 477.7 477.8 476.2 470.7 462.9 459.9 457.7 461.9 466.7 473.5 478.5 486.6 492.1 496.6 500.6 501.4 500.8 501 501.2 501.2 503.7 504.7 510.9 512.5 515.8 520 524.2 527.7 530.9 533.5 535.1 538.6 543.3 549.4 552.9
602.6 600.5 600.6 600.7 596.7 595.6 593 594.4 594.1 592.2 591.1 589.4 584 578.1 575 572.1 568.4 569 566.7 565 563.4 561.7 562.6 562.5 561 560.9 561.6 558.5 561.2 559.7 556.3 552.3 547.7 542.5 543.3 545.9 547.1 546 540.5 532.2 528.1 523.9 524.4 521.2 513.2 506 498.7 490.9 474.9 455.1 473.3 478 468 466.4 461.1 458 449.3 442.7 435.7 428.6 418.8 408.9 399.2 403.2 401.6 399.6 386.6 375.2 390.8 403.6 413.3 426.4 436.6 447 449.5 454.6 463.5 470.1 471.6 485 493.3 495.4 497.9 502.2 510.5 512.4 513.6 515.3 514.2 509.4 505.2 506.2 507.5 510.7 513 512.9 509.4 506.8 503.6 497.9 492.6 485.2 481.9 474.9 465.6 457 446.3 442.8 447.7 444.2 435.6 419 413.3 407.5 401.7 402.5 400.4 395.6 384.7 374.1 379.1 367.4 368.8 363 352.8 346.6 344 332.5 328.3 324.1 322.7 337 347.4 354.3 361.5 368.9 375.7 380.5 384.4 389 397.4 404.7 407 420.5 432.7 444.4 449 452.5 454.3 453 452.5 453.9 458.2 459.4 464.3 468.8 470.9 477.5 480.1 482 478.2 482.5 482.1 482.9 482.1 479.8 479.8 478.4 474.9 468 468.9 463.5 464.5 471.6 476.2 480 489.6 496.2 501.1 504.1 505.5 505.7 506.1 507.1 506.4 507.8 510.9 513.1 516.4 519.8 523.4 527.3 529.9 532.6 535 536.5 540.3 545.1 549.7 552.8
603.2 601.3 601.4 601.2 599.7 597.3 595.4 594.7 593.9 593.1 593.2 591.5 585.6 583.2 578.2 573.9 572.3 568.1 567.8 566.3 564.3 564.1 561.3 562.3 562.9 563.4 560.6 561.8 564.4 560.5 559.2 557 552.6 547.5 549.1 553.6 555.2 551.9 548.8 544.4 535.8 525.2 520 519.2 513.8 507 501 480.9 472.5 478.5 493.6 495.9 489.6 481.9 469.8 455.9 452.2 447.3 439 431.7 421 413 406.5 408.3 406.2 403.3 389.6 380 380.8 405 423 430.3 440 445.7 456.4 467.1 472.6 477.7 480.5 486.6 495.7 502.7 503.2 506.1 512.5 514.3 521.3 517.8 513.8 506.7 509.5 510 511.3 513.6 514.3 515.1 511.3 508.1 503.3 497.8 493.1 487.7 481.5 474.5 468.3 463.7 453.4 440.9 438.6 437.8 433.9 437.9 434.4 432.1 428.6 423.9 414.1 406.1 402 403.3 389.6 381.1 374.1 369.2 366.1 353.2 343.5 337.9 331.4 326.7 339.9 353.7 361.4 364.3 370.9 379.2 386.7 393.2 405 412.2 416 421.7 426.5 438.8 445.8 449.4 453.4 455.3 455.9 458.6 452.9 458.2 460.4 463.7 467.5 470.8 476 481.1 486 486.5 483.6 487 487.2 488 488.8 486.6 481.2 478.7 477.3 476.5 474.1 471.5 475.5 478.5 482.2 486.3 489.2 497.4 503.9 506.9 508.3 509.9 509.5 510.1 511.1 513.1 513.2 514 518.8 520.3 524.8 529.2 531.6 534.4 536.3 537.6 541 545.7 548.8 551.3
603 601.3 601.4 601 600.2 596.5 596 596.2 595.3 594.1 593.3 589.4 588 584.9 581.1 575.7 573.4 571.9 568.3 567.4 565.6 565.4 564.6 564.6 562.3 564.7 563.8 564.9 565.7 563.3 561.6 560.4 557.3 555.4 556.3 558 558.4 555.6 553.3 551.8 543.7 528.2 525.5 522.7 514.6 509.6 500.9 480.6 486.4 500.8 510.7 510.1 505.6 498.4 483.9 467.6 453.3 453.1 446.8 435.5 426.1 414 413.3 412.5 409.6 398.4 406.6 393.2 381.4 396.6 423.5 433.9 443.7 457.5 463.4 477.4 483.3 487.2 490.8 496.9 501.6 507.7 510.9 510.4 513.6 515.8 525.1 520.7 513.4 510.3 515.2 515.5 514.7 513.7 514.4 513.8 511.3 508.2 504.3 498.5 493 488 481.6 474.9 468 461.1 457.6 460.9 457.1 458.4 453.9 446.4 444.2 441 438.4 437 434.1 431.8 427.4 418.2 410.3 398.1 394.8 387.3 385.2 374.3 351.1 340 330.6 346 358 366.7 370.1 378.8 386.8 393.4 404.6 416.2 426.5 436.2 440.5 445.9 446.9 450.4 453.8 453.8 454 457.6 460 462.5 463.6 465.1 465.7 469.7 475 476.2 482.1 487.9 490.2 487.4 487 489 490.3 489.4 490 488.6 485 482.8 477.5 479.2 478.3 476.7 481.6 485.5 490.5 494.3 496.2 502.9 506.6 510.5 511.3 513.1 514.3 514.5 515.1 515.7 515.7 516 521.3 524.1 526.1 531.1 533.5 535.3 536.6 537.9 541.3 545.4 547.7 549.5
603.5 602.9 602.3 600.1 599.5 597.6 597.5 596.5 595.9 596.9 593.2 588.5 589.2 585.4 582.5 576.1 574.4 573.4 570.7 569.4 567.8 565.4 565.2 564.8 563.4 564.5 564.1 565.2 565.1 564.4 562.2 561.5 559.8 559.3 560.3 560.7 560.2 559.2 557.3 555.1 548.6 539.5 533 528.3 520.4 513 501 483.9 504.8 510.7 515.4 514.3 509.9 503.4 495.5 481.6 467.4 452.2 449.8 441.9 431 425.7 416.2 413.4 405.4 410.4 413.2 409.2 390.4 385.6 411.9 435.1 448.2 459.5 483.1 490.5 493.7 497.8 501.6 505.9 500.6 508.5 512.4 512.8 513.7 517.1 522.4 518.6 513.1 516.8 520.3 520.9 517 514.3 513.2 511.8 509.5 506.5 499.8 495.9 490.7 485 478.8 472.5 468.2 474 473.3 474.3 469.9 472.4 467.3 464.6 457.5 451.4 448.9 447.3 444.5 441.5 438.2 434.1 428.7 422.1 412.5 405.4 392.8 378.9 362 341.4 347.9 356.7 369.8 375.9 383.7 393.4 403.4 412.9 420.7 436.8 448.9 451.3 451.8 452.7 453.8 455.7 458.7 459 459.8 460.6 463.7 468.8 470.8 474.7 476.9 479 488.4 491.4 491.6 498 499.5 496.5 491.5 495.7 497.4 495.9 491.8 486.9 485.8 481.9 480.9 482.7 482.9 481 487 490.5 497.6 498.3 502.3 507.7 511 513.4 514.4 515.9 518.3 518 518.8 518.4 518.9 520.4 522.1 525.1 528.9 530.2 533.6 535.7 537.1 537.8 541.4 545.2 546.9 547.6
604 601.5 602.5 599.1 598.1 597.2 596.8 597.3 597.5 597.6 593.7 588.3 586.7 585.4 580.1 575.5 573.1 573 570.9 571.4 569.1 567 563.9 564.5 563.5 565.3 565.6 566.7 565.5 564.3 563.2 562.6 562 561.6 562.5 561.7 560.8 560.1 558.4 555.5 550.5 543.8 536 529.5 510.7 497.4 490.2 501.6 514.6 517.8 516.9 513.1 510.3 507.8 503 498.8 486.5 462.5 454.1 442.7 441.9 430.6 419.9 416.4 416.1 418.9 418.6 419.4 406.8 392.3 403.6 436.3 451 476.8 491.5 494.1 499.1 504.2 506.8 507.2 505 506.7 513.6 514.9 515.2 517.2 519.8 516.2 514 518.6 523 522.6 518.6 514 512.9 511.6 510 504.8 498.4 493.2 486.1 481.9 480.7 481.4 479.7 480.7 483 481.9 482.2 481.1 478.4 474.6 469.3 465.5 458.9 455.4 451.8 446.8 439.9 435.2 431.2 425 417.1 410.1 400.5 386.3 363.3 342.4 358.4 368 381.3 391.1 402 410.6 416 428.7 441.7 448.1 453.3 456 456.7 454.9 456 454.7 460.5 463.4 464.2 470.1 477.8 482.9 485.7 491.6 496 493.9 498.9 499.2 498 498.5 499.5 500.3 495 498.8 503.5 500.7 496.7 489.4 485.4 484.8 483.4 484.9 486.3 486.6 490.9 497.6 499.2 502.2 509.8 512.1 513.2 515.9 517.2 518.5 519.8 520.7 522 522.6 522.7 525 525.8 528.2 529.7 531.9 533.5 535 537.5 539.4 542.3 544.5 546.3 547.9
600.7 600.6 602.5 600 597.2 594.8 596.6 598 598.4 597.4 594 588.9 583.6 582.5 578.5 576.4 575 572.8 570.1 570.8 570.3 566.7 565.9 565.9 565.8 566.5 565.7 566.2 565.8 564.9 564.4 563.6 562.9 563.1 563.7 562.7 561.1 560.7 559 554.2 548.3 543.5 531.5 518.7 524.2 513.2 509.8 518 525.4 526 522.9 519.4 513.2 514.2 510.8 506.3 497.1 480 462 454.3 449.2 440.6 430.8 426.3 423.4 425.6 422.2 427 412.7 393.8 403.3 436 454.1 485.1 490.8 497.2 504.8 509.2 509.1 508 505.5 506.9 512.4 515.7 516.6 517.5 517.8 515.6 516.4 518.5 520.7 523.4 518.3 513.8 512.5 510.8 508.6 502.3 495.6 488.7 486.5 487.6 491 490 488 488.9 490.6 493 491.8 488.6 485.9 483 480.8 476.1 470.6 465.7 459.7 452.5 446.4 438 428.3 419.1 411.9 409.8 405.8 390.7 369 347.9 361.3 381.6 402 408.7 413.4 420.8 430.8 440.8 447.6 451.5 455 458.3 460 460.3 460.2 460.2 463.3 467.9 475.8 486 495.5 498.5 500.6 501.3 502.2 502.9 500.5 499.3 498.4 499.1 499.6 499.6 497.2 498.3 503.1 503.6 499.4 493.8 489.7 490.1 489.8 488.6 490.4 491.4 493 498.9 504.8 510.4 511.4 512.7 515.3 518.6 519.8 521.8 523.1 523.6 525.5 526.6 526.5 528.4 528.2 529.3 530.6 533.3 535 537.7 537.9 540.7 544 546.3 545.8 548
600.5 602.1 602.9 599.8 596.9 595.2 596.6 596 598.3 596.8 593.2 587.6 582 579.1 578.4 577.8 574.1 573.3 570.3 570.4 569.8 567.8 565.1 564 565.6 567.2 566 566.7 566.6 565.8 565.5 564.9 563.8 563.6 564 563.1 561.1 560.9 560.1 554.8 549.1 531.2 523 529.2 531.3 530.2 529.9 533.3 539.5 543 541.1 538.4 527.2 520.5 513.1 509.3 506 496.1 474.9 459.6 455.6 451 440.7 433.8 435.8 432.3 433.8 432.3 424.7 402.7 406.9 435.8 456.3 485.6 491.1 500.5 508.8 510 509.8 508.8 507.1 507.4 512.1 516.3 518.1 519.5 517.3 515.7 516.8 518 519.3 521.7 517.6 513.4 512 510.7 507.4 500.7 493.4 492.8 497 497.7 497.7 496.7 495.8 497.7 498.6 498.8 497.4 496.2 494.6 491.3 488.5 485.7 480.3 474.7 467.6 462.3 453.3 445.3 432.7 419.8 409.5 402.7 401.2 402 379 363.6 368 396.9 408.2 418.3 428.1 436.6 444.5 448.1 452.4 454.1 457.2 460.1 462 462.4 464.1 472.6 479.5 483.8 486.7 497.8 499.5 500.1 500.3 500.9 501.1 502.3 501.2 499.9 500.1 500.6 503.6 499.8 497.3 499.6 501.4 502.9 499 498.4 496 498.8 500.5 496.6 495.6 497.9 499.4 498.7 505.7 508.1 510.8 513.1 517.1 521 523.3 526.5 528.9 529.6 530.1 529 530.7 530.6 530.9 532.2 533.4 535.7 538.6 541.6 541.9 542.7 545.1 545.1 548 547.8
598.1 600.9 602.5 600 596.6 594.2 594.6 596.6 596.6 593.7 591.4 587.4 582.6 579.3 577.6 574.5 574.4 572.8 573.7 571.1 570.7 568.7 567.3 567.7 566.4 566.3 567.3 565.6 566 565.8 566.2 565.4 564.7 564.2 563.8 562.5 560.9 559.4 557.7 549.4 546.1 525.5 536.1 538.2 539.1 542.7 548.5 553.1 554.8 554.1 549.9 549.8 542.4 534.1 524.5 518.8 508.8 505.7 495.4 472.8 461.5 461.2 452.1 439.9 442.3 438.9 440.9 437.1 433.3 413.5 402.6 429.3 457.1 485 491 502.3 508.1 509.2 510.4 509.6 508.4 508.8 513.9 517.1 519.7 521 518 513.7 516.3 517.1 518.4 519 516.5 513.5 511.9 510.1 506.5 500.6 499 503.6 504.5 502.9 503.9 502.3 502.1 503.6 505.1 504.8 504.7 502.1 499.6 496.5 493.3 490.6 485.1 480.8 474.8 468.7 458.5 449.2 438.1 423.9 413 405.7 399.9 397.2 398.9 365.8 372.1 400 415.2 432.7 439.1 446.2 450 451.3 455.1 455.9 458.8 462.8 465.7 470 482.8 490 497.6 497.6 496.2 496.5 497.3 499 500 501.1 501.8 502.3 502.1 502.4 501.8 504.4 506.1 503.2 498.5 501.9 502 503.1 500.3 502.2 502.2 504.8 505.4 504.6 503.3 505.2 506.3 506.6 507.9 509.2 513.6 517 522.3 527 530.2 532.4 533.8 534.6 534.8 533.1 533.3 533.6 534.5 535.7 537.8 541.2 544.6 546.7 547.4 546.5 547.4 548.1 549.3 548.9
597.3 599 600 599.5 594.4 592.6 594.6 594.6 592.9 590.7 588.5 585 581.4 576.9 576.2 574.2 572.6 573.6 573.9 571.4 571.6 570.4 569.7 568.6 567.2 566 565.7 564.8 565.8 565.9 566.8 564.5 563.5 562.5 562.2 559 555.6 547 543.2 534.4 528.8 527.1 543.2 546.2 550.6 553.9 556.9 559.5 561 560 557 554.1 550.3 543.1 531.5 522.8 512.5 509.4 503.7 489.6 474 465.2 465 446.7 450.3 445.8 447 444.2 437.3 424.1 417.3 419.4 451.8 483.1 490.9 500.2 506.9 510.1 511.3 511 509.5 509.2 513.2 516.7 519.2 520.7 519.4 513.2 517.2 517.4 516.1 517.8 516.3 514.3 512.8 509.8 504.8 503.2 507.1 509 510.3 509.5 509.7 506.3 510.4 512.4 513.6 514.3 511.2 506.8 505.2 500.4 495.8 491.8 487.4 482.9 478.1 470.8 461.5 447.1 442.1 426.7 418.4 410.7 406 400.3 396.9 373.1 384.2 402.6 417.9 438 443.6 448.9 452 454 455.8 458.5 468.1 472.7 481.3 491.7 498.4 499 498.9 498.7 497.3 497.8 498.5 500 501.9 504.1 509.9 511.7 513.4 512.9 510.3 508.9 508.9 509.1 501.9 503.6 503.5 504 504.5 504.8 505.4 506.6 507.1 507.3 507.9 509.7 512.9 514.7 517.9 517.7 523.9 525.6 527.3 530.7 532.9 534.6 535.9 537 537.3 536.8 536 536.4 538 540.1 542.4 547.4 551.6 552.8 552.5 550.4 550.8 551.8 551.4 550.6
594.5 595.7 597.3 597.2 593.2 591.1 595.3 594.7 590.3 589.1 584.7 583.1 580.8 577 574.5 573.3 572.7 572.7 575 572 571.9 569.7 568.4 567.9 567.2 565.4 566 565 565.2 564.6 564.3 561.9 561.8 555.7 553.4 552.6 551.3 554.7 556.2 552.3 554 551.8 553.9 557 557.4 559.7 561 561.8 561 561.8 561.5 556.2 550.4 544.8 535.6 523.7 517.4 511.6 506.3 499.6 481.5 469.2 474.1 455.9 458.2 456.8 452.4 451.1 442 437 419.1 418.4 443.5 465.9 489.6 499.9 508.4 510.1 511.7 512.3 510.2 508.5 511.7 515.2 517.7 519.3 519.5 517.3 517.6 518.5 517.6 515.9 514.5 512.4 512.6 510.8 507.3 508.3 513.7 516.2 516.8 515.1 512.5 510.5 515.3 516.7 518.7 518.2 515.2 512.5 508.6 503.7 498.7 493.7 489.1 484.9 480.4 471.7 465.3 457.6 445.8 434.8 424.1 418.9 414.9 408.3 399.8 395.8 383.1 403.2 425.7 439.6 444.3 448.3 452.8 455 459.5 471.1 483.9 492.2 502.9 503 501.3 500.2 499.4 499 499.8 504.6 505.7 509.2 509.7 512.4 521.3 525.4 524.3 523.2 518.6 516 517.1 515 509.9 506.4 506.7 506.3 506.7 507.3 507.9 508.5 508.5 510.5 513.9 516.5 522.9 522.1 523.9 524.6 526.5 527.9 529.8 532.3 534.7 536.3 537.4 539 539.7 539.1 539.5 540.5 542 545.1 549.6 554.5 555.9 556.3 555.5 554.7 554.6 553.7 552.6 552.9
593.7 595.3 593.2 594.2 593.8 590.7 592.1 591.8 589.2 587.2 583.2 581.8 578.6 573.8 573.8 573 572.8 574.2 574.4 572.8 570.8 570.2 570.1 568.9 567.9 565.6 564.4 564.9 564.3 564.7 560 560.6 558.9 547.6 550.5 549.4 552 554.8 556.8 558 560.4 560.5 561.1 561.8 561.5 561 562 562.9 564.7 565.2 563 558.8 549.9 541.1 534.1 527.2 520.9 516.9 509.8 502.5 493.1 474.8 472.4 464.5 463.2 465.8 460.5 457.9 453.2 445 424.9 422.9 443.2 459.1 485.8 500.3 508.7 509.6 511.5 511.1 511.8 510.8 510.5 513.8 515.8 518.8 518.5 518.2 517.8 518.9 518.3 517.9 516.7 515.5 514.9 513.9 514 517.8 518.5 521.1 521.8 519.5 516.3 513.9 517.7 520.1 521.9 520.1 518.9 516.5 512.2 508.7 501.4 494.3 489.2 485.7 481.5 479.8 475 467.3 449.6 440.3 434.9 427.7 420.8 413.9 405.8 399.6 384.7 412.7 428.3 438.5 444.8 449.8 456 462.8 471.8 486.4 502.7 505.3 506.8 506.6 503.8 501.1 500.8 511 516.7 518.9 521.5 524.8 522.3 525.1 524.2 526.4 527.3 529.3 526 521.4 519.4 517.4 512.8 514.3 512.7 511.5 512.7 511.2 510.3 511 512.7 516.5 521.8 525.2 526.2 525.7 526.2 527.4 528.9 529.6 531.1 533.8 536.2 538 539.3 540.8 541.5 541.2 543.7 544.9 546.4 550.4 552.9 556.7 557.5 557 556.6 555.9 555.5 554.8 554.6 554.1
594.7 595.8 593.8 593.4 592.9 589.4 588.3 588.8 588.1 585.6 583 580 579.5 573.8 573.3 572.7 572.2 573.2 573 571.4 568.5 569.2 567.2 566.8 564.4 563.8 563.2 562.5 562.2 559.7 557 556.9 552.1 547.4 548.2 550.7 550 555.1 558.9 559.6 561 562.8 563.1 562.8 561.8 562.7 563 564.3 567.2 566 564.2 559.8 550.4 540.4 530.6 525.9 520.2 514.8 511.5 506.7 500.3 482.7 478.1 475.3 474.5 474 468.4 464.6 463.2 454.4 438.7 427.4 434.3 452.4 487.1 497 509 510 511.3 511.6 513.5 513.2 512.2 512.6 511.7 518.3 519 520 520.1 519.7 519.1 518.7 518.4 516.5 517.4 518.8 522.3 522.5 522.5 524.1 524.3 523.9 518.9 518.4 516.8 522.5 523.5 524 521.5 518.5 513.4 509.9 506.4 497.9 491.8 488.8 487.1 485.9 481.4 473.5 456.4 445.7 443.9 437.6 426.4 419.3 412.9 405.9 390.9 410.9 422.4 435.2 448.2 458.5 466.8 474 492 498.8 503.5 506.9 508.3 508.6 509.6 512.3 516 523.6 522.7 522.2 524.8 526.3 525.5 525.4 526.2 526.3 526.7 527.9 527.8 525.3 523.4 518 519.1 521.6 520.2 516 518 518.2 516.6 519.8 522.7 526.9 529.3 528.7 528.1 527.7 528.5 529.4 530.1 530.7 532.5 534.5 536.8 538.9 541.1 542.6 543.6 544.8 546.6 548.7 551.6 554.7 556.6 557.7 557.8 557.1 556.4 555.3 555 554.7 554.4 554
591.2 591.4 592.5 591.9 591.7 587.1 583.8 586 586.5 585.2 583.6 579.8 579.8 574.7 571.2 571.4 571.2 571 570.4 571 570.1 567 567.9 565.3 565.7 564.4 562.9 560.8 556.1 550.5 550.7 551.5 545.9 546.4 547.6 550.8 552.1 557.2 559.3 560.4 561.1 561 563.6 561.9 563.1 563.3 564.8 567.9 574.3 574.3 566.5 561.5 553.8 542.9 535.2 527.1 520.8 514.8 511.2 506.7 501.5 494.3 485 482.4 479.5 482.3 482.8 474.8 472.1 466.6 453.5 443 445.3 443.3 488 496.5 509 509.2 510.9 512.7 514.7 514.2 512.8 511.5 512.6 518 519.9 521.6 521.5 521 520.3 518.4 519.7 519.3 520.5 523.8 525.3 524.8 525.7 526.3 526.3 524.8 523 521.8 519.6 524.8 525.6 526.3 522.8 518.1 513.6 509.7 506.5 501.7 495.6 496.4 494.9 490.9 487.4 480.3 468.3 454.9 452.3 445.2 437.6 427.5 419.4 410.6 410.1 408.9 427.8 440.9 451.9 461.1 473 490.5 497.5 498.4 502.3 505.7 508.9 510.8 514.7 518.2 522.3 523.7 522.6 522.4 523.8 526.4 525.6 526.8 527.3 527.2 527 527 527.4 528.7 527.8 523 525.9 527 526.7 521 526.1 528.6 526.8 528.7 531.4 531.5 531 530.6 530.2 530.1 530.7 531.7 531.7 532.4 534.3 537.9 540.4 541.9 543.4 545.1 546.5 548.2 549.8 551.9 555.2 556.3 557.7 558 557.5 556.9 556.2 555.2 553.5 554 553.6 553
587.9 590 588.7 589.6 590.8 585.2 581.4 584.6 584.3 583.8 581.5 579.1 575.8 573.5 571.4 571.4 570.3 569.6 571.5 570.9 568.3 567.4 565.9 564.7 563.9 560.3 555.7 551.9 549.7 550.8 546.9 546.5 546.1 546.6 546.7 551.1 554.2 558.4 561.2 560.8 562.9 562.8 564.6 563.8 564.1 564.6 566.9 572.8 583.4 583.1 575.7 567.4 560.5 549.6 543 535.4 526 519.8 516.1 513.3 509.5 504.7 493.4 499.9 495.8 492.4 488.9 486.3 481.2 475.9 465.5 452.2 446 439.8 466.9 490.8 502.3 507.2 508.8 512.7 515.8 515.3 513.4 511.2 511.4 515.7 519.7 520.9 522.4 522.2 521.4 519.2 520.6 521 523.4 527.3 527.8 526.9 527.2 527 527.8 526.4 526.7 526.6 521.6 525.8 527.9 526.4 522.3 519.2 515.4 511.2 507.6 504.8 504.4 502.7 501.2 498 490.7 483.4 474.8 464.7 460.9 453.5 444.6 439.9 431.9 423.7 423.2 422.2 431.8 441.3 457.9 472.5 482.1 488.8 495.9 499 502.2 504.4 510.3 519.4 520.9 520.1 521.5 523.6 523.8 523.8 525.1 527 526.6 527.6 528 527.5 527 527.6 529.2 529.4 529.4 527.2 529.5 529.4 529.2 527.8 530.3 531 530.3 531.6 532.4 532.4 531.9 532.1 532.5 532.3 533.8 533.8 532.8 534.4 539.3 544 544.9 545.4 547.8 548.7 552.4 553.5 554.9 555.5 557 557.7 558.1 557.8 557.2 556.6 555.9 554.7 553.9 552.8 552.7 552.1
584.2 586.3 588.4 590.9 589.2 585.6 579.9 582.7 582 579.9 579.8 577.3 573.1 571.7 570.2 570 570.3 568.2 570.6 569.7 568.2 565.7 565 563.9 562.4 556.9 551.4 547.6 547.2 547 546.3 545.5 546.2 544 546 551.7 556.4 560.9 560.9 561.4 562.4 563.8 565.1 565.6 565 567.2 570.6 576.8 583.4 581.2 576.7 568.7 562 555 549.6 544.9 532.1 528.1 525.7 518.9 516.3 508.2 506.3 502.2 506.6 500.2 496.9 498.2 491.1 483 472.6 461.2 450 452.4 455.8 488.8 491.8 498.2 502.9 512.4 516.4 516.2 514.1 509.1 509.6 513.3 518.9 520.6 522 524.8 523.3 521.9 521.8 524.3 527.3 527.6 527.3 526.6 525.1 524.5 524.7 524.7 524.6 524.1 525.2 527 527.3 525.2 522.1 518.6 515.1 511.8 508.1 507.2 508.7 508.5 505.7 503.2 498.9 490.4 482.4 478.9 472.3 464.1 455.1 448.1 439.2 432.6 429.8 440.4 435.9 456.3 462.3 469.1 478.9 487.5 493.8 497.8 502.1 505.9 515.1 516.8 516.4 517.1 519.6 523.7 525.4 526.1 527.3 528.2 528.5 528 528.2 528.3 528.8 531.9 531.7 530.8 528.9 528.8 528.2 528.6 529.2 529.6 529.6 531.2 531.6 532.3 533.1 533.1 533.2 533.9 536 536.5 537.6 536 535.1 538.3 545.1 544.8 547.7 550.7 553.5 554.7 555.4 556.3 556.8 557.3 558 558.2 558.3 557.5 557 556.3 555.5 553.9 551.7 551.6 551.3 550.5
581.6 584 586 587.3 586.5 583 579.4 579.5 579.9 577.7 577.2 577 574.4 570.8 569.4 569.2 569.4 567.5 568.5 568.2 566.1 562.8 560.3 560.7 558.4 554.9 545.7 544.7 545.6 546.1 546.9 546.5 545.6 543.8 546.8 553.2 558.6 561.3 561.4 562.4 562.4 565 566.2 566.9 568 569.9 572.6 577.7 582.8 576.6 573 568.8 565.6 558.2 552.1 547.6 543.1 537.3 534.5 528.3 523.7 522.7 521.2 508.2 511.8 504.2 500.4 501.1 497.7 486.7 477.6 470.1 455.9 452.6 453.8 488.2 491 495.5 497.1 509.8 515.9 516 514.5 510.1 508.3 509.7 517.1 519.3 521.3 525.4 526 523.3 523.6 526.1 528.2 527.4 527.3 526.9 525.2 524.7 524.7 524.7 524.5 525.7 526.7 529 531.9 527.8 521.8 517 513.7 512.1 510.8 512 513.2 512.5 509.5 505.7 500.5 495.8 492.7 488.7 483 475.5 466.3 455 448.3 443.7 445.4 450 459.9 460.6 465.6 469.4 474.8 483.2 490.8 497.4 503.2 511.3 514.5 514.1 514.4 515.4 519 523.3 525.4 526.3 528.2 528.8 529 527.1 527.9 528.5 529.6 533.9 533.8 533.3 532.1 529.4 528.5 529.4 528.9 529.5 529.8 531.7 532 533.1 534.7 535 536.2 538 539.6 540.9 540.4 538.8 539.1 544.6 549.1 549.1 551.2 555.8 556.3 556.8 557.3 557.9 558.5 558.7 558.5 558.5 558.5 557.6 556.6 555.9 555.2 553.2 552.3 550.6 550.1 548.7
576.7 577.5 579.8 580.6 580.3 579.9 575.9 575.1 576.8 576.9 576.6 577.5 573.6 571.3 569.2 568.2 567.4 566.7 567 566 564.3 560.2 558.4 556.8 553.9 550.4 544.5 542.1 544.3 545 544.7 542.6 542.9 543.4 547.4 552.6 560.1 561.8 561 561.5 563.1 565.6 567.1 568.6 570.4 570 573.3 576.9 582.3 572.8 570.8 568.6 566.8 560.3 555.8 552.3 547 541.5 540 537.8 534.9 532 524.4 516 514.1 509.8 506.2 503.6 501.5 492.3 484.6 477.1 463.3 450.3 467 488.3 489.7 492.5 495.6 506.6 513.2 514.4 515 510.5 508.8 510.3 514.8 518.6 522 525 526.4 524.3 522.2 525.6 527.6 527.6 527.5 527.1 525.3 524.7 524.7 524.7 524.7 526.8 528.6 531.2 536.2 534 523.4 516.8 514.4 512.9 513.3 513.8 515.2 515.4 513 506.7 503.8 500.5 497.5 493.5 488.9 479.7 471.4 464.8 460.7 459.2 461.7 465.9 467.2 466.3 467.2 469.4 472.5 478.4 489.2 501.8 508.8 513.3 512.4 513 513.7 514.6 518.6 522.3 524.9 526.3 528.8 529.4 529.7 529.1 528.6 529.6 532.1 534.5 535.5 535.4 534.6 533.6 531.8 530.3 530.7 529.5 531.8 532.5 532.9 535.2 537.2 538.6 540.6 542.2 543.4 543.5 543.1 542.4 544.9 547.9 550.2 550.5 547.8 549 556.2 558.3 559.1 559.5 559.7 560 559.8 558.6 558.3 557.8 556.5 555.3 554.5 552.3 550.2 548.5 547.2 547.3
573.4 573.3 574.4 575.7 574.7 574.9 573.2 571 573.7 576.6 576.1 577.4 573.6 570.9 570.1 568.7 568.5 566.8 564.1 562.7 560.4 557.6 554.9 552.2 550.4 548.5 541.2 541 542.6 543.2 540.1 536.7 538.7 543 547.5 553 557.1 558.2 559.7 561.7 562.9 563.8 566.6 568.7 569.7 571.5 575.3 576.3 582.2 577.5 572.1 569.9 568 563.2 559.1 553.5 549.1 544.8 540.6 539.1 538.2 536.7 527.8 522.3 522.8 513.3 510.2 505.8 501.7 494.6 492.4 482.8 469.9 453 471.1 488.6 488.9 491.4 493.6 498.2 510.6 512.8 516 514.2 510.9 512.8 513.7 518.1 522.3 524.6 526.3 525.8 524 526.2 527.2 528 527.8 527.9 526.7 524.4 524.7 524.7 524.7 529 531 533.3 537.3 541.6 531.2 519.2 516.4 515.2 516.1 516.5 517 516.8 514.4 510.3 506.9 503.1 500.4 496.2 491.7 487.7 480.4 476.3 474.8 478.5 479.1 473.5 469.8 468.9 468.6 469.3 471.5 478.5 490 503.7 507.7 509.8 512.4 513.1 512.9 514.6 518.1 522 524.3 526.4 528.2 528.8 529.3 529.3 529 531 533 535.6 536.6 536.5 536.5 536.5 534.6 533 531.9 531.7 532.3 534.1 534.6 536.9 539 540.4 541.9 543.6 544.7 544.9 545.4 546 549.1 550.3 550.9 551.1 549.5 551.2 550.3 557.2 560.1 560.6 560.9 561.5 561.5 560.2 558.8 557.8 556.3 555 554.5 553.5 550.8 549 546.2 544
570.4 570.7 570.6 571.2 570.9 570.6 569.3 571.5 571.4 574.5 574.5 575.1 572.7 570.8 569.4 568 566.9 564.6 560.5 558 557.7 555.1 552.3 549.6 549.2 546.2 540.8 536 533.8 533.7 533.4 533.2 537 540.7 544.7 547.9 555.4 558.4 560.7 561 562.3 563.5 564.8 569.3 571.1 573.8 576.1 576.9 582.5 580.2 573.4 570.4 568.5 565.7 559.8 557.8 552.1 548.8 539.8 537 537.1 538 530.3 523.6 528.9 518 510.8 508.1 503.1 497.5 499.3 490.6 478.3 454.5 459.4 486.7 489.6 490.4 493.1 494.1 508.6 512.1 515.9 516 512.5 512 513.8 517 521.1 523.3 525.3 525.7 524.8 526.7 529.1 527.7 528 528 530.3 529.6 526.7 527.5 529.2 530.4 532.5 534.5 537.1 544.6 540.3 528.7 518.9 519.9 519.3 518.9 518.7 518.1 516.4 512.5 510.3 506.6 501.4 497.9 496.1 493 489.6 486.9 488 492.3 488.4 478.4 475.3 471.9 473.9 473.6 471.9 485.9 494.8 500.8 505.2 509.9 512.2 512 511.2 513.7 518.8 521 523.2 525.4 526.9 527.3 527.6 528.5 530.3 532 534.3 536.8 537.7 538.1 538.7 538.6 536.6 534.8 533.7 533.4 533.2 534.3 536.8 538.1 539.4 540.9 542 544.4 545.6 546.4 546.7 548.5 550.5 551.4 551.7 551.2 551.2 551.5 551.8 554 558.2 559.7 561.5 562.2 562.8 561.6 560.3 557.9 557 555.8 554.8 553.4 551.6 548.9 548 546.5
567.4 570 569.3 568.6 569.8 569.4 567.6 567.9 569.3 571.7 572 572.7 573.1 571.2 569 567.3 565.7 561.1 558.1 555.5 554.3 551.4 547.4 545.3 543 541.7 538.7 532 529 529.4 531.5 531.3 535.4 539 543 548.4 555.5 556.6 558.4 561.4 559.8 562.4 565.5 568.6 571 574.6 576.1 577.3 582.4 583.8 574.5 572.2 569.2 567.1 561.6 559.2 554.7 549.4 539.4 533.1 534.9 535.9 531.8 527 526.7 520.9 514.8 510.5 505 500.4 503.8 498.4 484.5 463.3 464.9 483.8 490.7 490.8 492 494.2 503.6 511.5 514.9 517.1 513.1 511.8 514 516.8 521.3 522.4 524.4 525.4 525.5 526.1 528.9 528.3 528.2 529.7 529.8 528.5 527.5 528 530.3 530.6 532.9 534.3 536 542.2 543.1 537.4 527.6 525 523.2 521.1 521 520.3 517.7 517.5 513.3 509.1 504.3 502.4 502.5 502.9 499 497.9 499.8 498.9 493.8 487.4 488.2 484.7 482.2 484.9 476.3 486.6 493.9 499.4 504.3 508.5 510.1 508 506.7 512.3 516.5 519.1 521.2 523.1 525.5 526 526.3 527.7 530.1 534.4 536 538.1 538.9 539.2 539.7 539 538 536.5 535.7 535.6 535.9 535.8 537.6 538.9 540.1 542 543 545.2 546.4 547.6 548.7 550.2 551.8 552 552.1 552 551.9 552.3 552.1 552.4 554 552.6 560.9 563.8 564.1 563.5 561.7 559.6 557.8 556.5 555.2 553.8 552.8 551.1 549 546.3
567.5 568.7 568.7 568.3 569 566.9 567.1 568 568.5 569.4 569.8 571.1 572 569.7 567.8 565.6 563.6 560.2 555.9 553.5 550.3 546.3 542.3 539.5 538.1 536.2 534 529.7 525.5 526.7 527.9 530.1 533.7 537.9 541.2 545.7 552.2 553.7 553.5 555.5 558.2 563.6 564.8 567.3 570.6 573.9 575.1 575.6 579.6 584.9 575.9 572.8 570.5 568.5 563.1 560.4 556.7 550.2 544.2 533.8 531.2 532.9 531.8 529 528.5 524.3 517.8 513.2 506.4 503.8 504.4 501.1 490.3 473.6 457.8 482 491.2 491.7 492 494.1 497.1 510.2 513.2 516.3 515.2 514.8 515.2 517.4 523.1 522.9 522.6 523.8 525.6 524.6 527.2 527.9 527.9 528.4 528.6 527.5 527.2 527.8 529.6 531.6 533.3 534.3 535.3 540.6 543.7 541.7 535.1 530.1 528 524.8 523.9 524.4 524.1 522.2 519.4 515.6 512.6 510.6 511.7 512.8 511.5 509.7 507.1 502.5 498.8 497.7 492.9 486.6 484 482.3 481 481.3 488.9 495.3 501.6 505 505.8 503.5 504 510.9 514.3 516.5 518.8 521.2 524.3 525.1 525.2 526 528.6 533.2 536.5 538.3 538.6 538.8 538.9 539.3 538.4 537.8 537 537.2 537.3 537.4 537.1 539.1 540.5 541.8 544.3 545.9 546.9 549 550.5 551.8 552 552 551.9 552.1 552.4 552 552.3 552.5 552.3 552.3 556.8 563.2 565 564.4 563 561 559.2 557.8 556.5 554.9 553.2 551.8 549.2 547.7
565.3 566.4 565 564.6 567.2 566.9 565.8 565.3 566.2 568.3 568.4 568.6 568.6 567.5 566.8 565.1 563.1 559.7 555.8 551 546.4 542 539.2 535.3 533.4 531 528.9 527.1 525.1 524.7 525.4 527.5 530.6 535 539.4 542.4 547.5 551.1 550.2 551.2 555 560.9 562.3 565 568.6 572.3 573.7 573.9 575.2 584.9 578.2 573.4 570.5 568.9 564.3 561.5 558.3 553.8 546.8 536.6 532 528.5 527.7 530.6 528 526 519.5 515 507.7 504.5 503.9 499.9 494.4 481.4 464 475.9 488.8 493 492.3 494.3 497.1 505.6 511.2 514 515.6 516.1 517.4 518.1 523.1 524.5 522.6 523.3 524.7 526.1 526.5 527 526.7 526.8 527.4 526.9 526.6 527 528 532.1 533.8 534.1 535.4 538.9 543.8 543 539.7 535.1 532.4 529.5 530.3 529.8 529.4 528.2 526 523.4 523.9 523 521.2 519.6 518.7 515.5 511.7 506.7 507.8 503.1 494.5 488 484.8 481.8 480.3 479.8 482.1 489.2 495.3 500 501.6 499.6 501.8 507.6 512.1 513.5 516.8 519.7 521.9 522.5 523.8 524.4 527 529.9 534.6 537.3 537.6 538 538.2 538.5 538.7 538.4 537.9 538.1 538.5 538.7 538.5 539.6 541.3 543.4 542.6 545.9 547.5 549 550.4 551 551.2 551.9 551.9 551.8 551.7 552 551.9 551.8 551.9 551.8 553.7 559 564.4 565 563.7 562.2 560.6 559.1 557.7 556.2 554.3 552.7 551 548.8
562.1 562.9 563.1 562.7 563.4 565.4 562.7 563.2 564.3 565.8 566.9 565.7 565.7 565.7 566.3 564.4 562 561.7 556.8 548.7 543 538.9 535.7 531.6 528.6 525.5 525.7 525.3 524.6 522.8 524 526.6 528.7 532.1 536 538.7 544.7 547.9 548.4 548.1 552.1 558.4 561.3 564.2 567.8 570.1 571.6 571.5 571.4 578 576.8 572.6 570.2 568.1 565.1 562.1 560.2 555.4 551.6 543.4 533.8 530.4 530.6 531 529.7 527.6 520.8 516.4 509 506.7 506.7 503.7 497.9 488.3 470.8 471.9 492.5 493.5 493.8 496.1 497.5 498.9 506.4 511.5 515.5 515.7 517.9 518.4 521 523.5 519.9 523 524.7 526.2 526.7 526.7 525.8 526.6 526.3 526.2 525.7 526.3 527 530.6 533.5 534.3 535 537.2 544.5 543.9 541.4 537.3 535.4 534.8 535.2 535.4 535.2 533.9 532.5 531.1 530.7 528.6 527.9 525.7 522.3 518.3 514.7 511.1 513.7 505 497.5 490.4 485.1 481.9 480.8 480.3 480.1 483.8 490.9 495.8 497.7 497.1 499 504.1 509 511 513.3 516.4 518.6 519.8 521.8 523.1 524.7 526.9 531.8 535.4 537 537.3 537.7 538.3 538.3 538.3 538.1 538.6 539.6 539.6 539.4 539.7 542.6 544.7 545.4 546.1 547.7 549.6 550.8 550.5 550.8 551.4 551.7 551.4 551.3 550 550.3 550.9 550.9 550.5 552.2 553.8 559.4 564.3 564.1 562.6 561.1 559.8 558.3 557.2 555.7 554.2 552.7 549.9
