ncols 200
nrows 90
xllcorner 230000
yllcorner 342900
cellsize 50
-1.3 -1.3 -1.3 -1.3 -1.3 -1.3 -1.3 -1.3 -1.3 -1.3 -1.3 -1.3 -1.3 -1.3 -1.3 -1.3 -1.3 -1.3 -1.3 -1.3 -1.3 -1.3 -1.3 -1.3 -1.3 -1.3 -1.3 -1.3 -1.3 -1.3 -1.3 -1.3 -1.3 -1.3 -1.3 -1.3 -1.3 -1.3 -1.3 -1.3 -1.3 -1.3 -1.3 -1.3 -1.3 -1.3 -1.3 -1.3 -1.3 -1.3 -1.3 -1.3 -1.3 -1.3 -1.3 -1.3 -1.3 -1.3 -1.3 -1.3 -1.3 -1.3 -1.3 -1.3 -1.3 -1.3 -1.3 -1.3 -1.3 -1.3 -1.3 -1.3 -1.3 -1.3 -1.3 -1.3 -1.3 -1.3 -1.3 -1.3 -1.3 -1.3 -1.3 -1.3 -1.3 -1.3 -1.3 -1.3 -1.3 -1.3 -1.3 -1.3 -1.3 -1.3 -1.3 -1.3 -1.3 -1.3 -1.3 -1.3 -1.3 -1.3 -1.3 -1.3 -1.3 -1.3 -1.3 -1.3 -1.3 -1.3 -1.3 -1.3 -1.3 -1.3 -1.3 -1.3 -1.3 -1.3 -1.3 -1.3 -1.3 -1.3 -1.3 -1.3 -1.3 -1.3 -1.3 -1.3 -1.3 -1.3 -1.3 -1.3 -1.3 26.2 30.4 30.9 31.5 33.8 35.1 32.7 23.9 18 11.7 5.6 5.2 3.5 6.8 9.3 6.5 3.4 1.6 0.4 -0.5 -0.5 -0.1 0.2 0.2 -0.3 -1.3 -1.3 -1.3 -1.3 -1.3 -1.3 -1.3 -1.3 -1.3 -1.3 0.1 0.9 1.6 6.6 11.6 27.8 37.7 39.4 42.5 46 46.9 48.2 49.1 49.8 52.7 51.7 51.6 53 55 58.3 63.2 66.7 70.8 73.5 79.5 86.4 97.9 115.2 131 150.2 167.1 183.3
-1.3 -1.3 -1.3 -1.3 -1.3 -1.3 -1.3 -1.3 -1.3 -1.3 -1.3 -1.3 -1.3 -1.3 -1.3 -1.3 -1.3 -1.3 -1.3 -1.3 -1.3 -1.3 -1.3 -1.3 -1.3 -1.3 -1.3 -1.3 -1.3 -1.3 -1.3 -1.3 -1.3 -1.3 -1.3 -1.3 -1.3 -1.3 -1.3 -1.3 -1.3 -1.3 -1.3 -1.3 -1.3 -1.3 -1.3 -1.3 -1.3 -1.3 -1.3 -1.3 -1.3 -1.3 -1.3 -1.3 -1.3 -1.3 -1.3 -1.3 -1.3 -1.3 -1.3 -1.3 -1.3 -1.3 -1.3 -1.3 -1.3 -1.3 -1.3 -1.3 -1.3 -1.3 -1.3 -1.3 -1.3 -1.3 -1.3 -1.3 -1.3 -1.3 -1.3 -1.3 -1.3 -1.3 -1.3 -1.3 -1.3 -1.3 -1.3 -1.3 -1.3 -1.3 -1.3 -1.3 -1.3 -1.3 -1.3 -1.3 -1.3 -1.3 -1.3 -1.3 -1.3 -1.3 -1.3 -1.3 -1.3 -1.3 -1.3 -1.3 -1.3 -1.3 -1.3 -1.3 -1.3 -1.3 -1.3 -1.3 -1.3 -1.3 -1.3 -1.3 -1.3 -1.3 -1.3 -1.3 -1.3 -1.3 -1.3 19.6 32.9 39.1 38.3 38.8 40.6 37.7 30.9 21.9 18.2 14.6 8.2 6.4 4.8 5.2 10.5 13.8 10.5 3.5 1.6 0.8 0.5 0.5 0.8 1.2 1.5 0.9 -0.2 -1.3 -1.3 -1.3 -1.3 -1.3 -1.3 -1.3 -0.4 0.3 1 1.5 7.8 13.6 21.8 37.2 39.7 41.5 44.8 46.9 47.6 48.7 51.3 52.7 54.8 54.1 53.7 55 57.2 60.2 63.9 70.1 73.2 79.8 89.2 99.7 119.7 136.6 160 177.1 196.4 216
-1.3 -1.3 -1.3 -1.3 -1.3 -1.3 -1.3 -1.3 -1.3 -1.3 -1.3 -1.3 -1.3 -1.3 -1.3 -1.3 -1.3 -1.3 -1.3 -1.3 -1.3 -1.3 -1.3 -1.3 -1.3 -1.3 -1.3 -1.3 -1.3 -1.3 -1.3 -1.3 -1.3 -1.3 -1.3 -1.3 -1.3 -1.3 -1.3 -1.3 -1.3 -1.3 -1.3 -1.3 -1.3 -1.3 -1.3 -1.3 -1.3 -1.3 -1.3 -1.3 -1.3 -1.3 -1.3 -1.3 -1.3 -1.3 -1.3 -1.3 -1.3 -1.3 -1.3 -1.3 -1.3 -1.3 -1.3 -1.3 -1.3 -1.3 -1.3 -1.3 -1.3 -1.3 -1.3 -1.3 -1.3 -1.3 -1.3 -1.3 -1.3 -1.3 -1.3 -1.3 -1.3 -1.3 -1.3 -1.3 -1.3 -1.3 -1.3 -1.3 -1.3 -1.3 -1.3 -1.3 -1.3 -1.3 -1.3 -1.3 -1.3 -1.3 -1.3 -1.3 -1.3 -1.3 -1.3 -1.3 -1.3 -1.3 -1.3 -1.3 -1.3 -1.3 -1.3 -1.3 -1.3 -1.3 -1.3 -1.3 -1.3 -1.3 -1.3 -1.3 -1.3 -1.3 -1.3 -1.3 -1.3 -1.3 26.1 33.7 39.6 43.8 42.9 41.2 37.6 32.1 25.3 18.9 15 10.7 7.6 6.3 5.2 10.9 14.3 17.2 15.9 6.3 3.7 2.6 1.5 1.5 1.7 2.1 1.5 1.5 1 0.4 -0.1 -1.3 -1.3 -1.3 -1.3 -0.1 0.6 1.3 2.9 8.5 14.6 24.5 27.5 38.9 41.6 43.3 45.8 47.2 48.4 50.1 53.6 55.9 54.6 53.8 54.4 56.7 60.2 62.8 70.9 79.4 83.1 89.5 102.1 121 143.1 162.7 185.5 207.1 226.7 245.3
-1.3 -1.3 -1.3 -1.3 -1.3 -1.3 -1.3 -1.3 -1.3 -1.3 -1.3 -1.3 -1.3 -1.3 -1.3 -1.3 -1.3 -1.3 -1.3 -1.3 -1.3 -1.3 -1.3 -1.3 -1.3 -1.3 -1.3 -1.3 -1.3 -1.3 -1.3 -1.3 -1.3 -1.3 -1.3 -1.3 -1.3 -1.3 -1.3 -1.3 -1.3 -1.3 -1.3 -1.3 -1.3 -1.3 -1.3 -1.3 -1.3 -1.3 -1.3 -1.3 -1.3 -1.3 -1.3 -1.3 -1.3 -1.3 -1.3 -1.3 -1.3 -1.3 -1.3 -1.3 -1.3 -1.3 -1.3 -1.3 -1.3 -1.3 -1.3 -1.3 -1.3 -1.3 -1.3 -1.3 -1.3 -1.3 -1.3 -1.3 -1.3 -1.3 -1.3 -1.3 -1.3 -1.3 -1.3 -1.3 -1.3 -1.3 -1.3 -1.3 -1.3 -1.3 -1.3 -1.3 -1.3 -1.3 -1.3 -1.3 -1.3 -1.3 -1.3 -1.3 -1.3 -1.3 -1.3 -1.3 -1.3 -1.3 -1.3 -1.3 -1.3 -1.3 -1.3 -1.3 -1.3 -1.3 -1.3 -1.3 -1.3 -1.3 -1.3 -1.3 -1.3 -1.3 -1.3 -1.3 -1.3 1.4 35.1 39.9 44.2 46.3 45.4 43.5 38.9 29.6 22.7 16.6 12 9.4 7.3 6.1 5.7 14.5 17.9 20.2 21.7 13.3 8.7 6.5 5.6 5.7 7.2 7.9 9.2 1.4 0.7 1.5 0.7 0.2 0 0.2 0.5 1 1.6 3.7 14 20.9 22.7 28.5 38.5 40 42.9 44.8 46.5 49.1 50.9 54.2 55 55 53.9 56 58.2 59.8 63.9 70 72.7 87.7 99.1 103.1 120.8 145.7 167.6 189 212.3 235.3 256.4 278.4
-1.3 -1.3 -1.3 -1.3 -1.3 -1.3 -1.3 -1.3 -1.3 -1.3 -1.3 -1.3 -1.3 -1.3 -1.3 -1.3 -1.3 -1.3 -1.3 -1.3 -1.3 -1.3 -1.3 -1.3 -1.3 -1.3 -1.3 -1.3 -1.3 -1.3 -1.3 -1.3 -1.3 -1.3 -1.3 -1.3 -1.3 -1.3 -1.3 -1.3 -1.3 -1.3 -1.3 -1.3 -1.3 -1.3 -1.3 -1.3 -1.3 -1.3 -1.3 -1.3 -1.3 -1.3 -1.3 -1.3 -1.3 -1.3 -1.3 -1.3 -1.3 -1.3 -1.3 -1.3 -1.3 -1.3 -1.3 -1.3 -1.3 -1.3 -1.3 -1.3 -1.3 -1.3 -1.3 -1.3 -1.3 -1.3 -1.3 -1.3 -1.3 -1.3 -1.3 -1.3 -1.3 -1.3 -1.3 -1.3 -1.3 -1.3 -1.3 -1.3 -1.3 -1.3 -1.3 -1.3 -1.3 -1.3 -1.3 -1.3 -1.3 -1.3 -1.3 -1.3 -1.3 -1.3 -1.3 -1.3 -1.3 -1.3 -1.3 -1.3 -1.3 -1.3 -1.3 -1.3 -1.3 -1.3 -1.3 -1.3 -1.3 -1.3 -1.3 -1.3 -1.3 -1.3 -1.3 -1.3 0.6 34.6 40.5 45.9 48 49.2 49.2 44.5 34.2 26.1 20.3 15.4 10.8 9.1 7.6 6.4 10.5 17.9 20.7 22.3 25.5 25.3 16.1 13.4 13.1 13.1 13.7 14.2 16 11.3 2.5 1.7 1.6 1.2 1 1.2 1.6 2.1 10.1 15.7 28.9 36.5 33.5 37.5 39.8 41.1 44 47.1 48.2 51.4 54.3 55.9 57.9 58.5 57.7 60.2 62.7 63.3 68.5 74.2 82.3 95.8 113.3 126.2 141.5 166.5 191.5 215.4 237.8 263.8 287.9 312.6
-1.3 -1.3 -1.3 -1.3 -1.3 -1.3 -1.3 -1.3 -1.3 -1.3 -1.3 -1.3 -1.3 -1.3 -1.3 -1.3 -1.3 -1.3 -1.3 -1.3 -1.3 -1.3 -1.3 -1.3 -1.3 -1.3 -1.3 -1.3 -1.3 -1.3 -1.3 -1.3 -1.3 -1.3 -1.3 -1.3 -1.3 -1.3 -1.3 -1.3 -1.3 -1.3 -1.3 -1.3 -1.3 -1.3 -1.3 -1.3 -1.3 -1.3 -1.3 -1.3 -1.3 -1.3 -1.3 -1.3 -1.3 -1.3 -1.3 -1.3 -1.3 -1.3 -1.3 -1.3 -1.3 -1.3 -1.3 -1.3 -1.3 -1.3 -1.3 -1.3 -1.3 -1.3 -1.3 -1.3 -1.3 -1.3 -1.3 -1.3 -1.3 -1.3 -1.3 -1.3 -1.3 -1.3 -1.3 -1.3 -1.3 -1.3 -1.3 -1.3 -1.3 -1.3 -1.3 -1.3 -1.3 -1.3 -1.3 -1.3 -1.3 -1.3 -1.3 -1.3 -1.3 -1.3 -1.3 -1.3 -1.3 -1.3 -1.3 -1.3 -1.3 -1.3 -1.3 -1.3 -1.3 -1.3 -1.3 -1.3 -1.3 -1.3 -1.3 -1.3 -1.3 -1.3 -1.3 -1.3 3.1 40.1 44.6 48 50.6 51.3 47.6 37.3 30 25.2 19.6 15.7 11.2 10.3 8.6 8 14.1 20.7 22.8 24.4 26.8 27.8 28.9 25.9 24.5 23.3 20.5 19 22.4 19.6 12.8 8.4 4.7 1.4 3.4 5.9 6.9 18.1 26.4 31 37.5 38.5 37.1 38.9 40.7 43.7 46.7 49.3 50.6 54.3 55.9 58.2 60.4 61.7 62.7 62.1 65.3 71.4 72.2 80.3 95 112.6 130.1 145.8 160.3 188.3 213.7 242.2 263.5 292.5 318.2 340.5
-1.3 -1.3 -1.3 -1.3 -1.3 -1.3 -1.3 -1.3 -1.3 -1.3 -1.3 -1.3 -1.3 -1.3 -1.3 -1.3 -1.3 -1.3 -1.3 -1.3 -1.3 -1.3 -1.3 -1.3 -1.3 -1.3 -1.3 -1.3 -1.3 -1.3 -1.3 -1.3 -1.3 -1.3 -1.3 -1.3 -1.3 -1.3 -1.3 -1.3 -1.3 -1.3 -1.3 -1.3 -1.3 -1.3 -1.3 -1.3 -1.3 -1.3 -1.3 -1.3 -1.3 -1.3 -1.3 -1.3 -1.3 -1.3 -1.3 -1.3 -1.3 -1.3 -1.3 -1.3 -1.3 -1.3 -1.3 -1.3 -1.3 -1.3 -1.3 -1.3 -1.3 -1.3 -1.3 -1.3 -1.3 -1.3 -1.3 -1.3 -1.3 -1.3 -1.3 -1.3 -1.3 -1.3 -1.3 -1.3 -1.3 -1.3 -1.3 -1.3 -1.3 -1.3 -1.3 -1.3 -1.3 -1.3 -1.3 -1.3 -1.3 -1.3 -1.3 -1.3 -1.3 -1.3 -1.3 -1.3 -1.3 -1.3 -1.3 -1.3 -1.3 -1.3 -1.3 -1.3 -1.3 -1.3 -1.3 -1.3 -1.3 -1.3 -1.3 -1.3 -1.3 -1.3 -1.3 11.9 38.6 43.4 45.2 48.6 50.8 46.2 38.8 32.3 28.9 25.7 21.3 17 14.3 10.5 8.8 9.3 16.7 21.8 23.9 24.5 26.8 28 28.9 30.5 32.2 32.6 32 33 35 29 22.3 16.6 13.8 13.4 16.2 16.9 23.6 28.3 36.4 38.8 38.8 38.4 38.3 42.2 44.4 46.3 48.4 51.2 54.4 56.4 59.1 60.5 63.3 65.3 68.2 65.3 68.3 71.5 79.6 93 113.8 126.3 142.3 161.4 178.2 198.7 230.5 261.1 283.6 316.8 344.1 374
-1.3 -1.3 -1.3 -1.3 -1.3 -1.3 -1.3 -1.3 -1.3 -1.3 -1.3 -1.3 -1.3 -1.3 -1.3 -1.3 -1.3 -1.3 -1.3 -1.3 -1.3 -1.3 -1.3 -1.3 -1.3 -1.3 -1.3 -1.3 -1.3 -1.3 -1.3 -1.3 -1.3 -1.3 -1.3 -1.3 -1.3 -1.3 -1.3 -1.3 -1.3 -1.3 -1.3 -1.3 -1.3 -1.3 -1.3 -1.3 -1.3 -1.3 -1.3 -1.3 -1.3 -1.3 -1.3 -1.3 -1.3 -1.3 -1.3 -1.3 -1.3 -1.3 -1.3 -1.3 -1.3 -1.3 -1.3 -1.3 -1.3 -1.3 -1.3 -1.3 -1.3 -1.3 -1.3 -1.3 -1.3 -1.3 -1.3 -1.3 -1.3 -1.3 -1.3 -1.3 -1.3 -1.3 -1.3 -1.3 -1.3 -1.3 -1.3 -1.3 -1.3 -1.3 -1.3 -1.3 -1.3 -1.3 -1.3 -1.3 -1.3 -1.3 -1.3 -1.3 -1.3 -1.3 -1.3 -1.3 -1.3 -1.3 -1.3 -1.3 -1.3 -1.3 -1.3 -1.3 -1.3 -1.3 -1.3 -1.3 -1.3 -1.3 -1.3 -1.3 -1.3 -1.3 -1.3 26.1 41.5 44.8 46.3 45.8 42.2 38.5 34.4 31.4 28.7 26.7 22.8 18.6 14.8 11.8 10.5 11.8 18.5 22.4 24 24.3 26.3 27.5 28.6 29.5 31.3 31.4 31.6 32.5 33.9 35.7 34.9 29.4 29 32.1 31.8 33.6 33.6 36.4 37.6 40.1 39.4 40 42.7 47.3 48.2 48.2 51.4 54.7 56.2 59.5 61.7 64.5 63.8 67.5 73.9 70.4 76.3 82.1 94.8 109.4 129.4 146.6 163.3 183.5 201.5 215.7 242.8 279.4 319 347.6 371 397.9
-1.3 -1.3 -1.3 -1.3 -1.3 -1.3 -1.3 -1.3 -1.3 -1.3 -1.3 -1.3 -1.3 -1.3 -1.3 -1.3 -1.3 -1.3 -1.3 -1.3 -1.3 -1.3 -1.3 -1.3 -1.3 -1.3 -1.3 -1.3 -1.3 -1.3 -1.3 -1.3 -1.3 -1.3 -1.3 -1.3 -1.3 -1.3 -1.3 -1.3 -1.3 -1.3 -1.3 -1.3 -1.3 -1.3 -1.3 -1.3 -1.3 -1.3 -1.3 -1.3 -1.3 -1.3 -1.3 -1.3 -1.3 -1.3 -1.3 -1.3 -1.3 -1.3 -1.3 -1.3 -1.3 -1.3 -1.3 -1.3 -1.3 -1.3 -1.3 -1.3 -1.3 -1.3 -1.3 -1.3 -1.3 -1.3 -1.3 -1.3 -1.3 -1.3 -1.3 -1.3 -1.3 -1.3 -1.3 -1.3 -1.3 -1.3 -1.3 -1.3 -1.3 -1.3 -1.3 -1.3 -1.3 -1.3 -1.3 -1.3 -1.3 -1.3 -1.3 -1.3 -1.3 -1.3 -1.3 -1.3 -1.3 -1.3 -1.3 -1.3 -1.3 -1.3 -1.3 -1.3 -1.3 -1.3 -1.3 -1.3 -1.3 -1.3 -1.3 -1.3 -1.3 -1.3 1.1 35.5 42.3 46.2 46.4 42.6 39.6 36.5 33.4 30.8 28.6 27.7 24.5 20.7 18.2 16 13.4 11.4 17.3 22.9 24 25.1 26.5 27.4 27.4 27.9 29.8 30.4 30.1 31.1 31.9 34.1 36 38.1 39.4 38.9 36.4 34.2 34.8 37.5 39.3 39.2 40.6 43 46.3 48.5 49.5 51.1 54.9 58.2 60 61 62.1 66.4 68.1 74.5 74.9 82 86.4 96.2 111.5 130 147.6 167.4 186.6 210.9 228.4 248.7 255.6 312.4 341.7 374.5 396.5 421.2
-1.3 -1.3 -1.3 -1.3 -1.3 -1.3 -1.3 -1.3 -1.3 -1.3 -1.3 -1.3 -1.3 -1.3 -1.3 -1.3 -1.3 -1.3 -1.3 -1.3 -1.3 -1.3 -1.3 -1.3 -1.3 -1.3 -1.3 -1.3 -1.3 -1.3 -1.3 -1.3 -1.3 -1.3 -1.3 -1.3 -1.3 -1.3 -1.3 -1.3 -1.3 -1.3 -1.3 -1.3 -1.3 -1.3 -1.3 -1.3 -1.3 -1.3 -1.3 -1.3 -1.3 -1.3 -1.3 -1.3 -1.3 -1.3 -1.3 -1.3 -1.3 -1.3 -1.3 -1.3 -1.3 -1.3 -1.3 -1.3 -1.3 -1.3 -1.3 -1.3 -1.3 -1.3 -1.3 -1.3 -1.3 -1.3 -1.3 -1.3 -1.3 -1.3 -1.3 -1.3 -1.3 -1.3 -1.3 -1.3 -1.3 -1.3 -1.3 -1.3 -1.3 -1.3 -1.3 -1.3 -1.3 -1.3 -1.3 -1.3 -1.3 -1.3 -1.3 -1.3 -1.3 -1.3 -1.3 -1.3 -1.3 -1.3 -1.3 -1.3 -1.3 -1.3 -1.3 -1.3 -1.3 -1.3 -1.3 -1.3 -1.3 -1.3 -1.3 -1.3 -1.3 -1.3 7.8 34.8 43.8 46 33.5 29.2 26.9 26.1 26.8 26.7 27.6 27.8 25.6 22.6 19.9 18.1 16.3 13.2 17.3 23.4 24.3 26 27.5 25.6 27.5 30.3 31.3 30.9 30.4 34.2 33.5 33.8 33.6 35.8 37.8 38.7 36.2 34.9 37.4 38.4 39.3 40.5 42.2 46.1 49 51.3 54 56.2 58.8 61.2 64.3 64.9 66.3 68.9 72.5 80.6 83.2 89.7 101.1 117.1 131 149.7 170.4 194.7 218.2 247.1 263.2 284.1 295.5 304.5 335.8 373.8 415.6 439.9
-1.3 -1.3 -1.3 -1.3 -1.3 -1.3 -1.3 -1.3 -1.3 -1.3 -1.3 -1.3 -1.3 -1.3 -1.3 -1.3 -1.3 -1.3 -1.3 -1.3 -1.3 -1.3 -1.3 -1.3 -1.3 -1.3 -1.3 -1.3 -1.3 -1.3 -1.3 -1.3 -1.3 -1.3 -1.3 -1.3 -1.3 -1.3 -1.3 -1.3 -1.3 -1.3 -1.3 -1.3 -1.3 -1.3 -1.3 -1.3 -1.3 -1.3 -1.3 -1.3 -1.3 -1.3 -1.3 -1.3 -1.3 -1.3 -1.3 -1.3 -1.3 -1.3 -1.3 -1.3 -1.3 -1.3 -1.3 -1.3 -1.3 -1.3 -1.3 -1.3 -1.3 -1.3 -1.3 -1.3 -1.3 -1.3 -1.3 -1.3 -1.3 -1.3 -1.3 -1.3 -1.3 -1.3 -1.3 -1.3 -1.3 -1.3 -1.3 -1.3 -1.3 -1.3 -1.3 -1.3 -1.3 -1.3 -1.3 -1.3 -1.3 -1.3 -1.3 -1.3 -1.3 -1.3 -1.3 -1.3 -1.3 -1.3 -1.3 -1.3 -1.3 -1.3 -1.3 -1.3 -1.3 -1.3 -1.3 -1.3 -1.3 -1.3 -1.3 -1.3 -1.3 1.2 21.7 25.7 24 24.3 27.9 37.3 36.3 36.6 34.7 25.7 25.1 26.1 24.8 22.8 21.3 17.7 18 14.3 18 24.3 25.2 25.8 25.6 28.2 30.3 32 32.9 34.3 36.4 37.2 36.7 35.9 34.7 34.4 35.4 36.2 35.9 37.3 38.8 39.7 41.5 42.5 46 49.2 52.4 53.5 56.1 59 62.4 64.6 67.5 71.7 75.5 76.4 78.9 85.5 91 100 111.7 128.7 154.5 174.8 204.3 224.7 256.2 275.5 307.2 328.6 339.4 347.7 350.6 395.4 428.9 451.3
-1.3 -1.3 -1.3 -1.3 -1.3 -1.3 -1.3 -1.3 -1.3 -1.3 -1.3 -1.3 -1.3 -1.3 -1.3 -1.3 -1.3 -1.3 -1.3 -1.3 -1.3 -1.3 -1.3 -1.3 -1.3 -1.3 -1.3 -1.3 -1.3 -1.3 -1.3 -1.3 -1.3 -1.3 -1.3 -1.3 -1.3 -1.3 -1.3 -1.3 -1.3 -1.3 -1.3 -1.3 -1.3 -1.3 -1.3 -1.3 -1.3 -1.3 -1.3 -1.3 -1.3 -1.3 -1.3 -1.3 -1.3 -1.3 -1.3 -1.3 -1.3 -1.3 -1.3 -1.3 -1.3 -1.3 -1.3 -1.3 -1.3 -1.3 -1.3 -1.3 -1.3 -1.3 -1.3 -1.3 -1.3 -1.3 -1.3 -1.3 -1.3 -1.3 -1.3 -1.3 -1.3 -1.3 -1.3 -1.3 -1.3 -1.3 -1.3 -1.3 -1.3 -1.3 -1.3 -1.3 -1.3 -1.3 -1.3 -1.3 -1.3 -1.3 -1.3 -1.3 -1.3 -1.3 -1.3 -1.3 -1.3 -1.3 -1.3 -1.3 -1.3 -1.3 -1.3 -1.3 -1.3 -1.3 -1.3 -1.3 -1.3 -1.3 -1.3 -1.3 -1.3 3.3 16.9 23 31.9 38.9 39.5 44.5 44.5 43.7 40.4 37 26.8 25.9 24.6 23.4 22.4 19.9 17.9 15.2 18.6 25 25.9 25.2 25.5 29.4 30.8 32.9 35.2 37.3 40.2 42.2 39.9 38.6 36.9 35.4 35.9 36.4 37 38.8 40.3 41.9 44.2 46.7 49.3 51.3 53.4 56.8 58.2 59.2 63 68.5 71.1 72.3 76.1 81.6 85.4 94.3 102.8 114.6 127.2 150.1 176.8 202.5 230.5 259.5 282.9 311.9 341 366.6 380.8 388.2 390.2 408.7 433.8 460.2
-1.3 -1.3 -1.3 -1.3 -1.3 -1.3 -1.3 -1.3 -1.3 -1.3 -1.3 -1.3 -1.3 -1.3 -1.3 -1.3 -1.3 -1.3 -1.3 -1.3 -1.3 -1.3 -1.3 -1.3 -1.3 -1.3 -1.3 -1.3 -1.3 -1.3 -1.3 -1.3 -1.3 -1.3 -1.3 -1.3 -1.3 -1.3 -1.3 -1.3 -1.3 -1.3 -1.3 -1.3 -1.3 -1.3 -1.3 -1.3 -1.3 -1.3 -1.3 -1.3 -1.3 -1.3 -1.3 -1.3 -1.3 -1.3 -1.3 -1.3 -1.3 -1.3 -1.3 -1.3 -1.3 -1.3 -1.3 -1.3 -1.3 -1.3 -1.3 -1.3 -1.3 -1.3 -1.3 -1.3 -1.3 -1.3 -1.3 -1.3 -1.3 -1.3 -1.3 -1.3 -1.3 -1.3 -1.3 -1.3 -1.3 -1.3 -1.3 -1.3 -1.3 -1.3 -1.3 -1.3 -1.3 -1.3 -1.3 -1.3 -1.3 -1.3 -1.3 -1.3 -1.3 -1.3 -1.3 -1.3 -1.3 -1.3 -1.3 -1.3 -1.3 -1.3 -1.3 -1.3 -1.3 -1.3 -1.3 -1.3 -1.3 -1.3 -1.3 -1.3 1 17.3 21.8 27.5 36.8 43.6 47.4 48.3 49.2 48.7 44.8 40 33.7 31.7 29.1 27.1 26.4 22.2 18.4 17.4 18.4 21.8 23.6 23.1 26 29.3 32.3 34.4 38 40.9 44.2 47.5 45.5 41.4 39.5 36.6 36.6 38.1 39 40.6 41.5 43.6 46.3 48.8 51.3 52.3 57 57.8 61.2 63.4 65.7 69.4 73.7 78.1 79.7 86.2 95.8 103.1 113.9 127.4 144 170.4 202.5 222.6 250.4 280.4 322.9 339.3 363.6 381.6 393.6 404.5 411.5 418.2 435.2 458.8
-1.3 -1.3 -1.3 -1.3 -1.3 -1.3 -1.3 -1.3 -1.3 -1.3 -1.3 -1.3 -1.3 -1.3 -1.3 -1.3 -1.3 -1.3 -1.3 -1.3 -1.3 -1.3 -1.3 -1.3 -1.3 -1.3 -1.3 -1.3 -1.3 -1.3 -1.3 -1.3 -1.3 -1.3 -1.3 -1.3 -1.3 -1.3 -1.3 -1.3 -1.3 -1.3 -1.3 -1.3 -1.3 -1.3 -1.3 -1.3 -1.3 -1.3 -1.3 -1.3 -1.3 -1.3 -1.3 -1.3 -1.3 -1.3 -1.3 -1.3 -1.3 -1.3 -1.3 -1.3 -1.3 -1.3 -1.3 -1.3 -1.3 -1.3 -1.3 -1.3 -1.3 -1.3 -1.3 -1.3 -1.3 -1.3 -1.3 -1.3 -1.3 -1.3 -1.3 -1.3 -1.3 -1.3 -1.3 -1.3 -1.3 -1.3 -1.3 -1.3 -1.3 -1.3 -1.3 -1.3 -1.3 -1.3 -1.3 -1.3 -1.3 -1.3 -1.3 -1.3 -1.3 -1.3 -1.3 -1.3 -1.3 -1.3 -1.3 -1.3 -1.3 -1.3 -1.3 -1.3 -1.3 -1.3 -1.3 -1.3 -1.3 -1.3 -1.3 -1.3 4.4 21.3 25.4 34.5 43.1 49.6 53.9 56.1 55.1 54.7 50.7 45.4 40.9 38.1 34.5 32.3 29.6 26.6 20.1 19.8 23 22.7 23.4 25.3 27.3 30.5 35.9 40.4 44.2 46.1 49 51.3 48.2 43.9 40.2 37.3 38.6 41.1 41.8 42.5 43.2 44.7 46.2 50.6 53.8 58.1 59.4 60.6 64.6 66.5 71 73.8 78.8 81.4 85.3 90.5 101.9 112.2 124.8 137.8 159.2 188.8 219.8 238.5 273.9 306 334.1 366.8 380.1 391.8 403.5 411.8 415.7 420.4 428.2 446.2
-1.3 -1.3 -1.3 -1.3 -1.3 -1.3 -1.3 -1.3 -1.3 -1.3 -1.3 -1.3 -1.3 -1.3 -1.3 -1.3 -1.3 -1.3 -1.3 -1.3 -1.3 -1.3 -1.3 -1.3 -1.3 -1.3 -1.3 -1.3 -1.3 -1.3 -1.3 -1.3 -1.3 -1.3 -1.3 -1.3 -1.3 -1.3 -1.3 -1.3 -1.3 -1.3 -1.3 -1.3 -1.3 -1.3 -1.3 -1.3 -1.3 -1.3 -1.3 -1.3 -1.3 -1.3 -1.3 -1.3 -1.3 -1.3 -1.3 -1.3 -1.3 -1.3 -1.3 -1.3 -1.3 -1.3 -1.3 -1.3 -1.3 -1.3 -1.3 -1.3 -1.3 -1.3 -1.3 -1.3 -1.3 -1.3 -1.3 -1.3 -1.3 -1.3 -1.3 -1.3 -1.3 -1.3 -1.3 -1.3 -1.3 -1.3 -1.3 -1.3 -1.3 -1.3 -1.3 -1.3 -1.3 -1.3 -1.3 -1.3 -1.3 -1.3 -1.3 -1.3 -1.3 -1.3 -1.3 -1.3 -1.3 -1.3 -1.3 -1.3 -1.3 -1.3 -1.3 -1.3 -1.3 -1.3 -1.3 -1.3 -1.3 -1.3 -1.3 0.7 15.5 23 28.4 33.5 43.2 46.7 48.1 52.1 56.2 57.3 54.5 51.8 46 43 37.7 34.8 33 29.2 21.9 20.1 26.5 27.3 26.7 27.3 28.5 32.9 37.5 43.5 46.5 48.7 51.1 51 47.2 43.4 39.5 37.7 39.1 41.1 43 42.9 43.8 46.2 48.6 53.8 56.7 59.8 62.8 67.2 70.5 72.4 74.4 78 80 84.9 89.3 94.7 109.1 119.5 131.6 147.7 171.5 202.2 232.6 255.6 315.6 340.3 356.4 374.5 388.1 397.4 408 412.2 412.3 414.4 424.4 436.3
-1.3 -1.3 -1.3 -1.3 -1.3 -1.3 -1.3 -1.3 -1.3 -1.3 -1.3 -1.3 -1.3 -1.3 -1.3 -1.3 -1.3 -1.3 -1.3 -1.3 -1.3 -1.3 -1.3 -1.3 -1.3 -1.3 -1.3 -1.3 -1.3 -1.3 -1.3 -1.3 -1.3 -1.3 -1.3 -1.3 -1.3 -1.3 -1.3 -1.3 -1.3 -1.3 -1.3 -1.3 -1.3 -1.3 -1.3 -1.3 -1.3 -1.3 -1.3 -1.3 -1.3 -1.3 -1.3 -1.3 -1.3 -1.3 -1.3 -1.3 -1.3 -1.3 -1.3 -1.3 -1.3 -1.3 -1.3 -1.3 -1.3 -1.3 -1.3 -1.3 -1.3 -1.3 -1.3 -1.3 -1.3 -1.3 -1.3 -1.3 -1.3 -1.3 -1.3 -1.3 -1.3 -1.3 -1.3 -1.3 -1.3 -1.3 -1.3 -1.3 -1.3 -1.3 -1.3 -1.3 -1.3 -1.3 -1.3 -1.3 -1.3 -1.3 -1.3 -1.3 -1.3 -1.3 -1.3 -1.3 -1.3 -1.3 -1.3 -1.3 -1.3 -1.3 -1.3 -1.3 -1.3 -1.3 -1.3 -1.3 -1.3 -1.3 -1.3 1.7 21.8 25.7 35.6 47.3 56.4 61.4 65.4 67.5 68.2 64.7 64.7 60.7 56.3 52.4 46.3 40.6 35.6 30.3 26.1 21 24.8 28.6 29 29.6 31.4 35.1 38.9 43.8 46.4 47.6 49.5 47.2 44.3 41 39.1 38.7 39.3 40.1 42.8 42.8 45.2 48.5 52.7 58.3 60.9 64.4 68.3 72.2 76.7 78.8 80.1 78.5 81.9 86.9 95.7 103.4 115.9 125.6 139.4 156.7 182.6 216.3 247.2 284.3 323.1 346.5 368.3 385 396.2 400.8 403.2 403.5 399.8 404.3 413.3 428.3
-1.3 -1.3 -1.3 -1.3 -1.3 -1.3 -1.3 -1.3 -1.3 -1.3 -1.3 -1.3 -1.3 -1.3 -1.3 -1.3 -1.3 -1.3 -1.3 -1.3 -1.3 -1.3 -1.3 -1.3 -1.3 -1.3 -1.3 -1.3 -1.3 -1.3 -1.3 -1.3 -1.3 -1.3 -1.3 -1.3 -1.3 -1.3 -1.3 -1.3 -1.3 -1.3 -1.3 -1.3 -1.3 -1.3 -1.3 -1.3 -1.3 -1.3 -1.3 -1.3 -1.3 -1.3 -1.3 -1.3 -1.3 -1.3 -1.3 -1.3 -1.3 -1.3 -1.3 -1.3 -1.3 -1.3 -1.3 -1.3 -1.3 -1.3 -1.3 -1.3 -1.3 -1.3 -1.3 -1.3 -1.3 -1.3 -1.3 -1.3 -1.3 -1.3 -1.3 -1.3 -1.3 -1.3 -1.3 -1.3 -1.3 -1.3 -1.3 -1.3 -1.3 -1.3 -1.3 -1.3 -1.3 -1.3 -1.3 -1.3 -1.3 -1.3 -1.3 -1.3 -1.3 -1.3 -1.3 -1.3 -1.3 -1.3 -1.3 -1.3 -1.3 -1.3 -1.3 -1.3 -1.3 -1.3 -1.3 -1.3 -1.3 -1.3 -1.3 4.5 24.5 31.2 45.4 55.5 64.8 72.2 75.8 77.8 77.4 76.1 74.2 71.1 66.2 61.9 55 48.6 43.8 33.8 27.9 24.2 23.6 24.4 26.9 29.1 30.8 35.4 39.1 44.2 46.6 47.3 46.6 44.7 41.9 40.6 40.4 41.7 42.2 44.3 43.8 45.2 51 55.6 58.7 61.3 67 68.8 71.3 76.2 82.4 91.8 93.2 91.2 87.4 93.4 98.7 108.2 122.4 133.9 150.2 171.3 194 223.5 257.9 293.5 328.9 347.9 370.7 386.9 393.6 393.5 395.6 386.8 385.3 391 401 417.4
-1.3 -1.3 -1.3 -1.3 -1.3 -1.3 -1.3 -1.3 -1.3 -1.3 -1.3 -1.3 -1.3 -1.3 -1.3 -1.3 -1.3 -1.3 -1.3 -1.3 -1.3 -1.3 -1.3 -1.3 -1.3 -1.3 -1.3 -1.3 -1.3 -1.3 -1.3 -1.3 -1.3 -1.3 -1.3 -1.3 -1.3 -1.3 -1.3 -1.3 -1.3 -1.3 -1.3 -1.3 -1.3 -1.3 -1.3 -1.3 -1.3 -1.3 -1.3 -1.3 -1.3 -1.3 -1.3 -1.3 -1.3 -1.3 -1.3 -1.3 -1.3 -1.3 -1.3 -1.3 -1.3 -1.3 -1.3 -1.3 -1.3 -1.3 -1.3 -1.3 -1.3 -1.3 -1.3 -1.3 -1.3 -1.3 -1.3 -1.3 -1.3 -1.3 -1.3 -1.3 -1.3 -1.3 -1.3 -1.3 -1.3 -1.3 -1.3 -1.3 -1.3 -1.3 -1.3 -1.3 -1.3 -1.3 -1.3 -1.3 -1.3 -1.3 -1.3 -1.3 -1.3 -1.3 -1.3 -1.3 -1.3 -1.3 -1.3 -1.3 -1.3 -1.3 -1.3 -1.3 -1.3 -1.3 -1.3 -1.3 -1.3 -1.3 -1.3 14.2 29.6 41.9 54.7 66.7 76.3 81.8 85.7 86.9 86 84.5 82.3 78.5 76 71.1 64.3 56.1 49.3 38.9 30.7 27.6 26.8 26.2 27.3 27.2 27.4 29.3 34.5 39.5 44.3 46.8 45 42 41 41.5 46.1 49.5 51.3 51 51 48.3 52.8 56.4 60 65.2 69.4 73 77.7 84.1 90.8 109.8 121.3 131.8 134.1 141.2 155.1 133.8 131.6 141.1 160.4 182.3 202.4 229.6 259.1 292.1 322 343.4 357.3 371 375.1 379.1 372.8 369.5 371.5 377.9 385.4 396.8
-1.3 -1.3 -1.3 -1.3 -1.3 -1.3 -1.3 -1.3 -1.3 -1.3 -1.3 -1.3 -1.3 -1.3 -1.3 -1.3 -1.3 -1.3 -1.3 -1.3 -1.3 -1.3 -1.3 -1.3 -1.3 -1.3 -1.3 -1.3 -1.3 -1.3 -1.3 -1.3 -1.3 -1.3 -1.3 -1.3 -1.3 -1.3 -1.3 -1.3 -1.3 -1.3 -1.3 -1.3 -1.3 -1.3 -1.3 -1.3 -1.3 -1.3 -1.3 -1.3 -1.3 -1.3 -1.3 -1.3 -1.3 -1.3 -1.3 -1.3 -1.3 -1.3 -1.3 -1.3 -1.3 -1.3 -1.3 -1.3 -1.3 -1.3 -1.3 -1.3 -1.3 -1.3 -1.3 -1.3 -1.3 -1.3 -1.3 -1.3 -1.3 -1.3 -1.3 -1.3 -1.3 -1.3 -1.3 -1.3 -1.3 -1.3 -1.3 -1.3 -1.3 -1.3 -1.3 -1.3 -1.3 -1.3 -1.3 -1.3 -1.3 -1.3 -1.3 -1.3 -1.3 -1.3 -1.3 -1.3 -1.3 -1.3 -1.3 -1.3 -1.3 -1.3 -1.3 -1.3 -1.3 -1.3 -1.3 -1.3 -1.3 -1.3 5.2 28.8 36.1 52.6 66.5 78.2 87.1 93 96.3 96.9 94.7 93.9 88.4 86.7 83 79.5 71.6 63 55 42.7 34.5 30.9 30.7 29.8 29.8 30.2 32 31.7 31.2 31.4 34 40.2 41.7 41 41.8 43.2 49.4 52.2 55 56 56.5 53.7 54.8 57.3 63.2 67.4 70.9 76.8 88.5 97.1 121.8 144.6 154.7 178.5 194 199.4 202.7 179.4 158.5 154.3 161.6 189.2 211.8 232.6 259.3 286.2 310.4 330.8 342.1 353.4 354.6 354.2 355.1 355.9 358.2 362.1 367.1 378.7
-1.3 -1.3 -1.3 -1.3 -1.3 -1.3 -1.3 -1.3 -1.3 -1.3 -1.3 -1.3 -1.3 -1.3 -1.3 -1.3 -1.3 -1.3 -1.3 -1.3 -1.3 -1.3 -1.3 -1.3 -1.3 -1.3 -1.3 -1.3 -1.3 -1.3 -1.3 -1.3 -1.3 -1.3 -1.3 -1.3 -1.3 -1.3 -1.3 -1.3 -1.3 -1.3 -1.3 -1.3 -1.3 -1.3 -1.3 -1.3 -1.3 -1.3 -1.3 -1.3 -1.3 -1.3 -1.3 -1.3 -1.3 -1.3 -1.3 -1.3 -1.3 -1.3 -1.3 -1.3 -1.3 -1.3 -1.3 -1.3 -1.3 -1.3 -1.3 -1.3 -1.3 -1.3 -1.3 -1.3 -1.3 -1.3 -1.3 -1.3 -1.3 -1.3 -1.3 -1.3 -1.3 -1.3 -1.3 -1.3 -1.3 -1.3 -1.3 -1.3 -1.3 -1.3 -1.3 -1.3 -1.3 -1.3 -1.3 -1.3 -1.3 -1.3 -1.3 -1.3 -1.3 -1.3 -1.3 -1.3 -1.3 -1.3 -1.3 -1.3 -1.3 -1.3 -1.3 -1.3 -1.3 -1.3 -1.3 -1.3 0.7 4.1 24.9 34.8 47.6 62.1 78.1 89.1 97.1 103.2 106 105.4 102.8 98.8 96.8 93.2 89.1 84.5 77.9 70.7 61.2 46.5 39.2 36.3 34.6 33.4 34.2 35.9 36.7 35.6 35.2 36 36.7 36.5 37.2 39.6 42.5 48.1 53 55.7 56.9 58.5 60.1 57.8 57.3 59.1 67.3 71.2 75.5 86.2 99.4 116.6 139.2 168.9 185.4 208.2 229.5 228.9 227.4 220 194.1 180.4 180.7 204.5 221.5 235.9 253.9 274.1 296.8 315.2 325.9 334.5 336.9 335.2 336.1 341.3 343.7 347.3 354.4 364.9
-1.3 -1.3 -1.3 -1.3 -1.3 -1.3 -1.3 -1.3 -1.3 -1.3 -1.3 -1.3 -1.3 -1.3 -1.3 -1.3 -1.3 -1.3 -1.3 -1.3 -1.3 -1.3 -1.3 -1.3 -1.3 -1.3 -1.3 -1.3 -1.3 -1.3 -1.3 -1.3 -1.3 -1.3 -1.3 -1.3 -1.3 -1.3 -1.3 -1.3 -1.3 -1.3 -1.3 -1.3 -1.3 -1.3 -1.3 -1.3 -1.3 -1.3 -1.3 -1.3 -1.3 -1.3 -1.3 -1.3 -1.3 -1.3 -1.3 -1.3 -1.3 -1.3 -1.3 -1.3 -1.3 -1.3 -1.3 -1.3 -1.3 -1.3 -1.3 -1.3 -1.3 -1.3 -1.3 -1.3 -1.3 -1.3 -1.3 -1.3 -1.3 -1.3 -1.3 -1.3 -1.3 -1.3 -1.3 -1.3 -1.3 -1.3 -1.3 -1.3 -1.3 -1.3 -1.3 -1.3 -1.3 -1.3 -1.3 -1.3 -1.3 -1.3 -1.3 -1.3 -1.3 -1.3 -1.3 -1.3 -1.3 -1.3 -1.3 -1.3 -1.3 -1.3 -1.3 -1.3 -1.3 -1.3 -1.3 4.4 18.5 31.7 36.1 48.2 59.9 75.3 90.8 102 110.4 115.3 115.1 113.4 111 105.4 103 99.5 94.3 88.7 81 73.6 65.5 50.2 43 41 39.2 38.5 39.8 41.3 41.5 41.3 42.4 42.5 43.8 43 43.3 40.5 44.7 49.6 55.7 58.4 59.8 61 62.3 60.4 61.4 63.6 70.4 76.5 82.9 95.4 112.2 134.6 161.4 188 224.8 242 250.7 249.6 244.4 239.1 225.8 209.5 208.8 219.6 228.9 241.6 253 264.6 283.4 297.1 309 313.5 316.5 315.6 320.7 325.1 329.2 335.2 341.6 349.9
-1.3 -1.3 -1.3 -1.3 -1.3 -1.3 -1.3 -1.3 -1.3 -1.3 -1.3 -1.3 -1.3 -1.3 -1.3 -1.3 -1.3 -1.3 -1.3 -1.3 -1.3 -1.3 -1.3 -1.3 -1.3 -1.3 -1.3 -1.3 -1.3 -1.3 -1.3 -1.3 -1.3 -1.3 -1.3 -1.3 -1.3 -1.3 -1.3 -1.3 -1.3 -1.3 -1.3 -1.3 -1.3 -1.3 -1.3 -1.3 -1.3 -1.3 -1.3 -1.3 -1.3 -1.3 -1.3 -1.3 -1.3 -1.3 -1.3 -1.3 -1.3 -1.3 -1.3 -1.3 -1.3 -1.3 -1.3 -1.3 -1.3 -1.3 -1.3 -1.3 -1.3 -1.3 -1.3 -1.3 -1.3 -1.3 -1.3 -1.3 -1.3 -1.3 -1.3 -1.3 -1.3 -1.3 -1.3 -1.3 -1.3 -1.3 -1.3 -1.3 -1.3 -1.3 -1.3 -1.3 -1.3 -1.3 -1.3 -1.3 -1.3 -1.3 -1.3 -1.3 -1.3 -1.3 -1.3 -1.3 -1.3 -1.3 -1.3 -1.3 -1.3 -1.3 -1.3 -1.3 -1.3 1.3 11.7 18.3 25.5 40.9 48.9 60.4 70.7 88.9 104.4 116.4 124.7 128.2 126.7 121.7 117.6 111.9 109 105.1 101 94 84 75.9 64.9 55.1 50.6 46.4 42.7 44.1 47.5 49 47.3 47.4 47.9 48 48.4 47.6 46.8 43.5 42.4 48.6 56.1 60.6 61.7 62 63.6 63.1 64.5 68.7 72.3 80.2 91.9 107.5 130.1 157.3 184.3 215.3 249.5 259.9 261.1 260.7 258.8 252.6 245.8 234.4 231.5 233.6 238.9 246.4 256.3 264.6 272.2 282 291.2 296.4 298.2 304 308.1 312.4 317.1 324 330.6 337.7
-1.3 -1.3 -1.3 -1.3 -1.3 -1.3 -1.3 -1.3 -1.3 -1.3 -1.3 -1.3 -1.3 -1.3 -1.3 -1.3 -1.3 -1.3 -1.3 -1.3 -1.3 -1.3 -1.3 -1.3 -1.3 -1.3 -1.3 -1.3 -1.3 -1.3 -1.3 -1.3 -1.3 -1.3 -1.3 -1.3 -1.3 -1.3 -1.3 -1.3 -1.3 -1.3 -1.3 -1.3 -1.3 -1.3 -1.3 -1.3 -1.3 -1.3 -1.3 -1.3 -1.3 -1.3 -1.3 -1.3 -1.3 -1.3 -1.3 -1.3 -1.3 -1.3 -1.3 -1.3 -1.3 -1.3 -1.3 -1.3 -1.3 -1.3 -1.3 -1.3 -1.3 -1.3 -1.3 -1.3 -1.3 -1.3 -1.3 -1.3 -1.3 -1.3 -1.3 -1.3 -1.3 -1.3 -1.3 -1.3 -1.3 -1.3 -1.3 -1.3 -1.3 -1.3 -1.3 -1.3 -1.3 -1.3 -1.3 -1.3 -1.3 -1.3 -1.3 -1.3 -1.3 -1.3 -1.3 -1.3 -1.3 -1.3 -1.3 -1.3 -1.3 -1.3 -1.3 -1.3 3.6 17.9 24.7 29.1 43.5 59.3 72.2 88.1 99 107.5 120.6 129.8 137.1 143.5 138.5 132 126.1 121.6 116.4 110.4 105.9 98.7 87.6 76.7 67.5 58.2 54.3 49.5 47.6 51.6 54.6 56.2 58.2 55.4 54.3 54.1 52.4 51.6 50 46.8 44.5 44.5 53.5 58.8 60.5 63.1 64.8 64.6 65.7 70 75.6 83.5 97.8 120.8 152.4 189.5 231.3 254.6 273.6 271.9 270.1 270.2 268.8 267.9 262.6 257.8 250.3 246.6 247.7 252.5 258.8 265.6 268.8 274.4 279.8 284.9 289.1 293.4 297.1 301.1 306.2 313.3 320.5 327.7
-1.3 -1.3 -1.3 -1.3 -1.3 -1.3 -1.3 -1.3 -1.3 -1.3 -1.3 -1.3 -1.3 -1.3 -1.3 -1.3 -1.3 -1.3 -1.3 -1.3 -1.3 -1.3 -1.3 -1.3 -1.3 -1.3 -1.3 -1.3 -1.3 -1.3 -1.3 -1.3 -1.3 -1.3 -1.3 -1.3 -1.3 -1.3 -1.3 -1.3 -1.3 -1.3 -1.3 -1.3 -1.3 -1.3 -1.3 -1.3 -1.3 -1.3 -1.3 -1.3 -1.3 -1.3 -1.3 -1.3 -1.3 -1.3 -1.3 -1.3 -1.3 -1.3 -1.3 -1.3 -1.3 -1.3 -1.3 -1.3 -1.3 -1.3 -1.3 -1.3 -1.3 -1.3 -1.3 -1.3 -1.3 -1.3 -1.3 -1.3 -1.3 -1.3 -1.3 -1.3 -1.3 -1.3 -1.3 -1.3 -1.3 -1.3 -1.3 -1.3 -1.3 -1.3 -1.3 -1.3 -1.3 -1.3 -1.3 -1.3 -1.3 -1.3 -1.3 -1.3 -1.3 -1.3 -1.3 -1.3 -1.3 -1.3 -1.3 -1.3 -1.3 -1.3 -1.3 3.5 20.3 27.2 37.8 53 70.2 88.2 94 102.7 104.4 120.7 144.8 152 154.8 155.8 154.9 144.5 136.6 131.5 124.8 118.5 111 102.6 90.9 81.4 70.9 63.4 57.8 53.5 54.7 59.8 65.4 66.8 67.2 65.1 61.3 58.7 55.7 54.8 52.8 49.6 46.6 47.8 51 55.7 58.1 62.1 65.8 67.2 68.1 72.6 78.7 90.2 107.1 134.5 172 213.3 246.7 278.5 289.4 283.7 280.9 280 281.1 279.3 276.3 273 267.6 261.8 259.4 261.4 262.6 264 266.5 269.6 274.1 276.3 279.8 283.3 287.5 292 296.7 302 308.9 315.9
-1.3 -1.3 -1.3 -1.3 -1.3 -1.3 -1.3 -1.3 -1.3 -1.3 -1.3 -1.3 -1.3 -1.3 -1.3 -1.3 -1.3 -1.3 -1.3 -1.3 -1.3 -1.3 -1.3 -1.3 -1.3 -1.3 -1.3 -1.3 -1.3 -1.3 -1.3 -1.3 -1.3 -1.3 -1.3 -1.3 -1.3 -1.3 -1.3 -1.3 -1.3 -1.3 -1.3 -1.3 -1.3 -1.3 -1.3 -1.3 -1.3 -1.3 -1.3 -1.3 -1.3 -1.3 -1.3 -1.3 -1.3 -1.3 -1.3 -1.3 -1.3 -1.3 -1.3 -1.3 -1.3 -1.3 -1.3 -1.3 -1.3 -1.3 -1.3 -1.3 -1.3 -1.3 -1.3 -1.3 -1.3 -1.3 -1.3 -1.3 -1.3 -1.3 -1.3 -1.3 -1.3 -1.3 -1.3 -1.3 -1.3 -1.3 -1.3 -1.3 -1.3 -1.3 -1.3 -1.3 -1.3 -1.3 -1.3 -1.3 -1.3 -1.3 -1.3 -1.3 -1.3 -1.3 -1.3 -1.3 -1.3 -1.3 -1.3 -1.3 -1.3 0.6 4.4 27.8 46.7 58.6 82.1 95.8 99.9 101.3 113.3 122.6 134.6 150.3 160 169.7 180.2 188.3 165.2 160.2 147.8 140.7 132.5 124.4 115.8 105 93 83.3 75.3 69.5 63.8 60.2 61.8 73.1 76.1 76.2 75.3 72.3 67.5 64.3 60.7 58.2 55.2 51.8 49.6 50.7 51.6 53.3 58 62.9 65.9 68.8 70.8 75.6 82.1 95 112.9 143.4 180 224.7 265.3 294.6 297.1 291.5 290.8 290.5 290.1 290.1 286.4 281.6 276.5 271.5 267.8 265 263.3 262.4 263.6 266.2 268.9 270 271.8 275.1 278.6 283.4 287.8 292.8 298.2 305.6
-1.3 -1.3 -1.3 -1.3 -1.3 -1.3 -1.3 -1.3 -1.3 -1.3 -1.3 -1.3 -1.3 -1.3 -1.3 -1.3 -1.3 -1.3 -1.3 -1.3 -1.3 -1.3 -1.3 -1.3 -1.3 -1.3 -1.3 -1.3 -1.3 -1.3 -1.3 -1.3 -1.3 -1.3 -1.3 -1.3 -1.3 -1.3 -1.3 -1.3 -1.3 -1.3 -1.3 -1.3 -1.3 -1.3 -1.3 -1.3 -1.3 -1.3 -1.3 -1.3 -1.3 -1.3 -1.3 -1.3 -1.3 -1.3 -1.3 -1.3 -1.3 -1.3 -1.3 -1.3 -1.3 -1.3 -1.3 -1.3 -1.3 -1.3 -1.3 -1.3 -1.3 -1.3 -1.3 -1.3 -1.3 -1.3 -1.3 -1.3 -1.3 -1.3 -1.3 -1.3 -1.3 -1.3 -1.3 -1.3 -1.3 -1.3 -1.3 -1.3 -1.3 -1.3 -1.3 -1.3 -1.3 -1.3 -1.3 -1.3 -1.3 -1.3 -1.3 -1.3 -1.3 -1.3 -1.3 -1.3 -1.3 -1.3 -1.3 -1.3 1.1 14.1 36.2 73.8 114.7 115.6 138.8 160.6 141.3 156.9 150.4 157.2 163.8 160.1 189.4 194.3 197.8 199.4 191.7 182 159.8 150 141.3 131.7 120.8 108.9 95.8 86.7 79.5 73.3 68.4 67.3 70 82.9 85.8 84.8 82 77.5 72.9 68.7 63.9 60.9 58.3 53.7 53.4 53.4 52.3 52.2 57.9 62.8 66.9 69.9 73.4 78.1 83.1 97.9 118.4 149.7 184.5 227.7 260.3 283.8 293.7 294.8 296.8 298.4 300.8 300.8 296.4 289.6 282.4 276.3 271 265.7 262 259.2 259.2 261.8 264.1 264.8 265.7 268.6 271.1 275.2 279.8 285.1 289.3 296.9
-1.3 -1.3 -1.3 -1.3 -1.3 -1.3 -1.3 -1.3 -1.3 -1.3 -1.3 -1.3 -1.3 -1.3 -1.3 -1.3 -1.3 -1.3 -1.3 -1.3 -1.3 -1.3 -1.3 -1.3 -1.3 -1.3 -1.3 -1.3 -1.3 -1.3 -1.3 -1.3 -1.3 -1.3 -1.3 -1.3 -1.3 -1.3 -1.3 -1.3 -1.3 -1.3 -1.3 -1.3 -1.3 -1.3 -1.3 -1.3 -1.3 -1.3 -1.3 -1.3 -1.3 -1.3 -1.3 -1.3 -1.3 -1.3 -1.3 -1.3 -1.3 -1.3 -1.3 -1.3 -1.3 -1.3 -1.3 -1.3 -1.3 -1.3 -1.3 -1.3 -1.3 -1.3 -1.3 -1.3 -1.3 -1.3 -1.3 -1.3 -1.3 -1.3 -1.3 -1.3 -1.3 -1.3 -1.3 -1.3 -1.3 -1.3 -1.3 -1.3 -1.3 -1.3 -1.3 -1.3 -1.3 -1.3 -1.3 -1.3 -1.3 -1.3 -1.3 -1.3 -1.3 -1.3 -1.3 -1.3 -1.3 -1.3 -1.3 3.3 25.4 41.6 72.2 121.7 147.4 167.7 203.6 185.2 211.7 195.3 195.3 195.1 161.6 160.7 186.8 222.3 229.2 225.5 201.5 187.4 173.1 161.9 150.9 138.5 123.8 112.8 102.6 89.8 82.5 77.1 73.9 75.8 82.3 92.6 94.1 91.6 87.8 83.2 78.3 73.3 68.3 63.5 60.8 57 56.6 58.5 56.2 53.7 56.8 61.8 67.5 72.2 75.5 79.2 85.1 96.9 116.2 147.8 184.2 224.3 253.5 275.3 287.2 294.5 300.1 303.4 307 307.6 302.2 294.9 285.3 278.2 272.1 265.6 259.5 256.1 255.7 256.7 258.1 258.5 259.6 262.4 265 269 272.8 277.5 282.4 287.7
-1.3 -1.3 -1.3 -1.3 -1.3 -1.3 -1.3 -1.3 -1.3 -1.3 -1.3 -1.3 -1.3 -1.3 -1.3 -1.3 -1.3 -1.3 -1.3 -1.3 -1.3 -1.3 -1.3 -1.3 -1.3 -1.3 -1.3 -1.3 -1.3 -1.3 -1.3 -1.3 -1.3 -1.3 -1.3 -1.3 -1.3 -1.3 -1.3 -1.3 -1.3 -1.3 -1.3 -1.3 -1.3 -1.3 -1.3 -1.3 -1.3 -1.3 -1.3 -1.3 -1.3 -1.3 -1.3 -1.3 -1.3 -1.3 -1.3 -1.3 -1.3 -1.3 -1.3 -1.3 -1.3 -1.3 -1.3 -1.3 -1.3 -1.3 -1.3 -1.3 -1.3 -1.3 -1.3 -1.3 -1.3 -1.3 -1.3 -1.3 -1.3 -1.3 -1.3 -1.3 -1.3 -1.3 -1.3 -1.3 -1.3 -1.3 -1.3 -1.3 -1.3 -1.3 -1.3 -1.3 -1.3 -1.3 -1.3 -1.3 -1.3 -1.3 -1.3 -1.3 -1.3 -1.3 -1.3 -1.3 -1.3 -1.3 10.6 27.4 50.7 75.7 117.6 165.6 180.4 215.1 218.8 237 247.2 250.6 234.4 199.1 198.1 200.4 198.3 239.4 239.1 230.6 221.8 199.4 185.7 172.7 157.6 144.7 128.8 118.7 105.5 95.4 87 80.8 81.4 84.5 94 99.3 101 98 93.2 87.9 83.1 78.1 72.5 66.6 63.6 60 60.9 63.3 60.1 58.2 56.7 61.7 67.2 73.3 77.3 80.2 87.3 95.1 109.6 141.4 180.8 220.2 247.6 265.7 279.6 290.8 297.4 305 314.1 311.3 304.5 295.2 284.7 276.3 270 263.4 255.8 252.2 251.7 252.3 252.7 253.5 254.1 256.7 260.1 261.9 266 270 275.9 280.2
-1.3 -1.3 -1.3 -1.3 -1.3 -1.3 -1.3 -1.3 -1.3 -1.3 -1.3 -1.3 -1.3 -1.3 -1.3 -1.3 -1.3 -1.3 -1.3 -1.3 -1.3 -1.3 -1.3 -1.3 -1.3 -1.3 -1.3 -1.3 -1.3 -1.3 -1.3 -1.3 -1.3 -1.3 -1.3 -1.3 -1.3 -1.3 -1.3 -1.3 -1.3 -1.3 -1.3 -1.3 -1.3 -1.3 -1.3 -1.3 -1.3 -1.3 -1.3 -1.3 -1.3 -1.3 -1.3 -1.3 -1.3 -1.3 -1.3 -1.3 -1.3 -1.3 -1.3 -1.3 -1.3 -1.3 -1.3 -1.3 -1.3 -1.3 -1.3 -1.3 -1.3 -1.3 -1.3 -1.3 -1.3 -1.3 -1.3 -1.3 -1.3 -1.3 -1.3 -1.3 -1.3 -1.3 -1.3 -1.3 -1.3 -1.3 -1.3 -1.3 -1.3 -1.3 -1.3 -1.3 -1.3 -1.3 -1.3 -1.3 -1.3 -1.3 -1.3 -1.3 -1.3 -1.3 -1.3 -1.3 1.4 13.7 27.4 46.4 79 100.5 128.4 173.4 217.7 257.6 263.9 283 289.6 301.3 295.8 285.1 261.6 210.6 226.2 263.2 263.3 261.4 229.2 209.7 194.5 180.9 164.4 149.9 134.2 125.7 109 100.1 92 87.9 90.5 94.2 102.9 108 107.4 104.3 100.6 93.2 87.6 80.9 75 69 67.2 62.7 66.4 68.3 64.5 61.5 58.2 62.4 66.8 72.4 79.4 81.5 86.3 94.3 105.4 130.3 182.6 214.8 238.7 254.8 267.6 280.9 292 302.2 308.7 308.8 300.9 291 280 272.1 264.3 256.9 250.8 247.3 247.1 246.9 246.8 247.9 248.5 250.2 254 255.8 260.2 263.9 268.7 273.4
-1.3 -1.3 -1.3 -1.3 -1.3 -1.3 -1.3 -1.3 -1.3 -1.3 -1.3 -1.3 -1.3 -1.3 -1.3 -1.3 -1.3 -1.3 -1.3 -1.3 -1.3 -1.3 -1.3 -1.3 -1.3 -1.3 -1.3 -1.3 -1.3 -1.3 -1.3 -1.3 -1.3 -1.3 -1.3 -1.3 -1.3 -1.3 -1.3 -1.3 -1.3 -1.3 -1.3 -1.3 -1.3 -1.3 -1.3 -1.3 -1.3 -1.3 -1.3 -1.3 -1.3 -1.3 -1.3 -1.3 -1.3 -1.3 -1.3 -1.3 -1.3 -1.3 -1.3 -1.3 -1.3 -1.3 -1.3 -1.3 -1.3 -1.3 -1.3 -1.3 -1.3 -1.3 -1.3 -1.3 -1.3 -1.3 -1.3 -1.3 -1.3 -1.3 -1.3 -1.3 -1.3 -1.3 -1.3 -1.3 -1.3 -1.3 -1.3 -1.3 -1.3 -1.3 -1.3 -1.3 -1.3 -1.3 -1.3 -1.3 -1.3 -1.3 -1.3 -1.3 -1.3 -1.3 -1.3 1.5 19.8 35.6 49.7 69.6 94.4 125.7 179 210.4 269.4 279.1 320 326 320.9 320.8 317.2 313.6 289.8 270.8 265.2 286.1 284.5 269.2 242.8 218.1 202.3 188.2 169.9 151.7 137.5 129.1 114.2 103.9 98.1 97.3 99.1 109 114.4 114.4 113.5 110.5 107 101.7 95 84.7 78.6 72.8 69.9 71.6 74.4 72.2 68.5 64.8 63.7 62 65.7 70.7 77.2 81.4 85.1 92.4 100.7 118.1 157.2 191.8 224 249.1 262.3 273.5 285.2 295.8 299 297.1 291.7 282.2 274 264.5 255.8 251.6 246.9 242.5 241.6 240.3 241.2 242.2 243.1 244.8 247.9 250.6 254.4 258.6 262.7 266
-1.3 -1.3 -1.3 -1.3 -1.3 -1.3 -1.3 -1.3 -1.3 -1.3 -1.3 -1.3 -1.3 -1.3 -1.3 -1.3 -1.3 -1.3 -1.3 -1.3 -1.3 -1.3 -1.3 -1.3 -1.3 -1.3 -1.3 -1.3 -1.3 -1.3 -1.3 -1.3 -1.3 -1.3 -1.3 -1.3 -1.3 -1.3 -1.3 -1.3 -1.3 -1.3 -1.3 -1.3 -1.3 -1.3 -1.3 -1.3 -1.3 -1.3 -1.3 -1.3 -1.3 -1.3 -1.3 -1.3 -1.3 -1.3 -1.3 -1.3 -1.3 -1.3 -1.3 -1.3 -1.3 -1.3 -1.3 -1.3 -1.3 -1.3 -1.3 -1.3 -1.3 -1.3 -1.3 -1.3 -1.3 -1.3 -1.3 -1.3 -1.3 -1.3 -1.3 -1.3 -1.3 -1.3 -1.3 -1.3 -1.3 -1.3 -1.3 -1.3 -1.3 -1.3 -1.3 -1.3 -1.3 -1.3 -1.3 -1.3 -1.3 -1.3 -1.3 -1.3 -1.3 -1.3 -1.3 18.4 43.7 67.8 85.6 99.1 120.3 160.7 208 284.9 305.2 331.7 343.4 354.1 372.2 363.2 320.5 321.4 319.6 289.9 305.1 297.5 289 277.4 244 225.9 209.4 190.3 170.4 154 138.9 131.2 116.5 107.9 101.3 104.9 110.4 122.4 125.2 122.5 119.8 116.3 113 108 101.6 93.2 85 78.2 76.9 78.7 79.4 75.7 72.5 69.2 65.2 60.3 66.4 73.3 76.5 81.3 84.7 89.7 98.6 115.4 140.2 175.7 207.8 235.4 252.5 266.1 275.7 282 285.2 284.2 278.5 274.3 264.4 255.1 250.8 246.5 242.7 238 236.6 235.7 236.9 237.3 238.2 239.9 243.2 246 249.5 253.2 257.2 260.4
-1.3 -1.3 -1.3 -1.3 -1.3 -1.3 -1.3 -1.3 -1.3 -1.3 -1.3 -1.3 -1.3 -1.3 -1.3 -1.3 -1.3 -1.3 -1.3 -1.3 -1.3 -1.3 -1.3 -1.3 -1.3 -1.3 -1.3 -1.3 -1.3 -1.3 -1.3 -1.3 -1.3 -1.3 -1.3 -1.3 -1.3 -1.3 -1.3 -1.3 -1.3 -1.3 -1.3 -1.3 -1.3 -1.3 -1.3 -1.3 -1.3 -1.3 -1.3 -1.3 -1.3 -1.3 -1.3 -1.3 -1.3 -1.3 -1.3 -1.3 -1.3 -1.3 -1.3 -1.3 -1.3 -1.3 -1.3 -1.3 -1.3 -1.3 -1.3 -1.3 -1.3 -1.3 -1.3 -1.3 -1.3 -1.3 -1.3 -1.3 -1.3 -1.3 -1.3 -1.3 -1.3 -1.3 -1.3 -1.3 -1.3 -1.3 -1.3 -1.3 -1.3 -1.3 -1.3 -1.3 -1.3 -1.3 -1.3 -1.3 -1.3 -1.3 -1.3 -1.3 -1.3 -1.3 27.6 52.1 73.2 85 108.9 134.1 172.3 215.2 247.2 295.1 325.9 346.2 361.3 377.6 398.4 403.1 377.6 328.2 319.3 319.2 319.8 316.5 307.2 275.7 249.5 232.3 213.2 189.4 169 150.5 140.7 129.1 118 108.2 107.4 115.1 124 134.8 134.4 130.1 126.8 122.6 119 114.9 107.5 101.1 92.7 95.2 99.9 88.9 82.7 78 74.4 71.6 68.5 64.8 63.7 71.6 77.5 81.1 83.6 88.4 95.2 108 124.9 153.6 183.5 208.5 241.8 253.3 260.4 266.4 268.8 267.5 267.4 266.1 255.4 247.9 243 240 237.2 234.2 232.4 231.4 231.1 232.9 233.4 235.8 238.3 242 245.2 247.6 251.4 255.2
-1.3 -1.3 -1.3 -1.3 -1.3 -1.3 -1.3 -1.3 -1.3 -1.3 -1.3 -1.3 -1.3 -1.3 -1.3 -1.3 -1.3 -1.3 -1.3 -1.3 -1.3 -1.3 -1.3 -1.3 -1.3 -1.3 -1.3 -1.3 -1.3 -1.3 -1.3 -1.3 -1.3 -1.3 -1.3 -1.3 -1.3 -1.3 -1.3 -1.3 -1.3 -1.3 -1.3 -1.3 -1.3 -1.3 -1.3 -1.3 -1.3 -1.3 -1.3 -1.3 -1.3 -1.3 -1.3 -1.3 -1.3 -1.3 -1.3 -1.3 -1.3 -1.3 -1.3 -1.3 -1.3 -1.3 -1.3 -1.3 -1.3 -1.3 -1.3 -1.3 -1.3 -1.3 -1.3 -1.3 -1.3 -1.3 -1.3 -1.3 -1.3 -1.3 -1.3 -1.3 -1.3 -1.3 -1.3 -1.3 -1.3 -1.3 -1.3 -1.3 -1.3 -1.3 -1.3 -1.3 -1.3 -1.3 -1.3 -1.3 -1.3 -1.3 -1.3 -1.3 9.6 46.1 82.5 104 103.5 119 155.5 171 187.5 245.6 269.3 315.2 340.2 355.8 375.7 395.5 413 434.7 403.1 371.9 318.1 318.1 317.5 316.2 288.9 269 254.6 234.9 210.8 187.7 165.1 148 135.8 124 116.6 116.6 117 126.4 138.9 142.3 141.8 136.9 133.1 129.5 126.5 122 117.6 109 115.3 120.7 111.6 99.4 86.9 80.6 78 74.9 72.3 70.8 67 68.2 77.7 81.2 82.7 87.4 93 102 116.1 134.8 160.1 188.8 218.1 229.7 241.9 248.7 252.9 255.5 256.7 252 241.9 239.7 237.2 234.6 232.7 229.2 227.7 225.4 225.4 227.5 229.7 231.3 234.7 237.3 240.6 243.5 246.3 248.7
-1.3 -1.3 -1.3 -1.3 -1.3 -1.3 -1.3 -1.3 -1.3 -1.3 -1.3 -1.3 -1.3 -1.3 -1.3 -1.3 -1.3 -1.3 -1.3 -1.3 -1.3 -1.3 -1.3 -1.3 -1.3 -1.3 -1.3 -1.3 -1.3 -1.3 -1.3 -1.3 -1.3 -1.3 -1.3 -1.3 -1.3 -1.3 -1.3 -1.3 -1.3 -1.3 -1.3 -1.3 -1.3 -1.3 -1.3 -1.3 -1.3 -1.3 -1.3 -1.3 -1.3 -1.3 -1.3 -1.3 -1.3 -1.3 -1.3 -1.3 -1.3 -1.3 -1.3 -1.3 -1.3 -1.3 -1.3 -1.3 -1.3 -1.3 -1.3 -1.3 -1.3 -1.3 -1.3 -1.3 -1.3 -1.3 -1.3 -1.3 -1.3 -1.3 -1.3 -1.3 -1.3 -1.3 -1.3 -1.3 -1.3 -1.3 -1.3 -1.3 -1.3 -1.3 -1.3 -1.3 -1.3 -1.3 -1.3 -1.3 -1.3 -1.3 35.3 51.3 70.6 166.4 125.7 170.4 190.9 175.4 211.1 199.7 252.8 248.3 284.5 333.4 350.8 360.5 384.6 403.7 420.1 437.3 406.4 366.8 328.2 320.3 327.8 317.6 291.5 274.4 258.3 233.2 206.3 181.7 159.3 144.5 131.7 125.8 124.3 123 128.6 139.3 152 154.6 149.6 144.4 141.4 139.3 135.7 134.1 129.8 127.9 137.1 132.7 122.4 108.9 94.2 84.7 82 79.2 75.9 74.8 70 68 73.7 82 80.8 86.3 90.1 97 108.2 125 140.7 162.4 185.8 203 218 232 239 242.4 241.9 235.8 233.3 230.8 228.2 227.1 225.4 223.7 222.8 221.7 221 224.4 225.6 227.4 230.9 233.6 236 238.5 241.8 242.4
-1.3 -1.3 -1.3 -1.3 -1.3 -1.3 -1.3 -1.3 -1.3 -1.3 -1.3 -1.3 -1.3 -1.3 -1.3 -1.3 -1.3 -1.3 -1.3 -1.3 -1.3 -1.3 -1.3 -1.3 -1.3 -1.3 -1.3 -1.3 -1.3 -1.3 -1.3 -1.3 -1.3 -1.3 -1.3 -1.3 -1.3 -1.3 -1.3 -1.3 -1.3 -1.3 -1.3 -1.3 -1.3 -1.3 -1.3 -1.3 -1.3 -1.3 -1.3 -1.3 -1.3 -1.3 -1.3 -1.3 -1.3 -1.3 -1.3 -1.3 -1.3 -1.3 -1.3 -1.3 -1.3 -1.3 -1.3 -1.3 -1.3 -1.3 -1.3 -1.3 -1.3 -1.3 -1.3 -1.3 -1.3 -1.3 -1.3 -1.3 -1.3 -1.3 -1.3 -1.3 -1.3 -1.3 -1.3 -1.3 -1.3 -1.3 -1.3 -1.3 -1.3 -1.3 -1.3 -1.3 -1.3 -1.3 -1.3 -1.3 -1.3 56.6 80.9 98.2 169.5 225.6 185.7 204.6 221.5 230 266.8 261 253.2 288.4 324 340.6 352.3 363 384 403.8 418.3 432.8 398.6 371.5 348.7 346.6 325.4 317.3 292.5 278.7 260.7 229.7 200.4 176.4 158 143.8 137.2 137 136.7 132.4 137.5 148.8 162.6 164.7 158.8 152.9 149.3 148.7 149.2 147 143.4 139.1 143.8 143.3 134.7 120.2 105.7 92.4 87.3 82.4 79.7 77.1 74.9 70 74.4 78.6 81.1 84.3 87.2 93 101.9 113.7 129.2 145.6 162 175.3 193.5 209.8 223.5 226.6 226.4 226.3 224.5 223.1 221.7 220 218.3 216.8 215.7 215.9 216.4 218.7 222.1 224.7 227.2 229.3 232.1 234.2 235.4 238
-1.3 -1.3 -1.3 -1.3 -1.3 -1.3 -1.3 -1.3 -1.3 -1.3 -1.3 -1.3 -1.3 -1.3 -1.3 -1.3 -1.3 -1.3 -1.3 -1.3 -1.3 -1.3 -1.3 -1.3 -1.3 -1.3 -1.3 -1.3 -1.3 -1.3 -1.3 -1.3 -1.3 -1.3 -1.3 -1.3 -1.3 -1.3 -1.3 -1.3 -1.3 -1.3 -1.3 -1.3 -1.3 -1.3 -1.3 -1.3 -1.3 -1.3 -1.3 -1.3 -1.3 -1.3 -1.3 -1.3 -1.3 -1.3 -1.3 -1.3 -1.3 -1.3 -1.3 -1.3 -1.3 -1.3 -1.3 -1.3 -1.3 -1.3 -1.3 -1.3 -1.3 -1.3 -1.3 -1.3 -1.3 -1.3 -1.3 -1.3 -1.3 -1.3 -1.3 -1.3 -1.3 -1.3 -1.3 -1.3 -1.3 -1.3 -1.3 -1.3 -1.3 -1.3 -1.3 -1.3 -1.3 -1.3 -1.3 -1.3 44.3 85.4 131.4 149.3 219.5 257.3 228.3 252.4 267.8 270.8 292.7 294.3 291.5 307.4 324.3 340.1 349.6 359 378.7 397.6 409.8 409.4 390.3 373.3 361.4 341.6 324.9 309.7 295.4 281.5 261.5 227.5 197.5 177.6 163.4 151.4 148.4 145.8 144.9 141.8 147.9 164.1 178.8 172.1 168 161.1 156.8 156.5 155.4 153.9 151 149.6 154.9 153.9 146 132.6 118.2 102.6 91.9 86.7 83.7 82 78 74.2 72.4 75.7 81.1 81.7 85.8 90.6 97.1 106.7 118.9 133 147.2 160.3 175.1 192.3 210.9 216.1 217 217.4 217.2 215.4 214.2 214.2 213.1 211 209.9 210.9 212.7 216.4 218.1 220.9 223.7 224.8 226.8 229 230.6 232.2
-1.3 -1.3 -1.3 -1.3 -1.3 -1.3 -1.3 -1.3 -1.3 -1.3 -1.3 -1.3 -1.3 -1.3 -1.3 -1.3 -1.3 -1.3 -1.3 -1.3 -1.3 -1.3 -1.3 -1.3 -1.3 -1.3 -1.3 -1.3 -1.3 -1.3 -1.3 -1.3 -1.3 -1.3 -1.3 -1.3 -1.3 -1.3 -1.3 -1.3 -1.3 -1.3 -1.3 -1.3 -1.3 -1.3 -1.3 -1.3 -1.3 -1.3 -1.3 -1.3 -1.3 -1.3 -1.3 -1.3 -1.3 -1.3 -1.3 -1.3 -1.3 -1.3 -1.3 -1.3 -1.3 -1.3 -1.3 -1.3 -1.3 -1.3 -1.3 -1.3 -1.3 -1.3 -1.3 -1.3 -1.3 -1.3 -1.3 -1.3 -1.3 -1.3 -1.3 -1.3 -1.3 -1.3 -1.3 -1.3 -1.3 -1.3 -1.3 -1.3 -1.3 -1.3 -1.3 -1.3 -1.3 -1.3 -1.3 40.6 77.9 123.5 156.3 195.9 247.6 254.6 249.3 262.9 271.7 283.6 289.3 294.6 300 307.4 319.2 333.9 346.9 358 366.7 383.9 392.8 388.2 372.3 369.1 356.9 338.7 325.2 312.5 299.5 285.8 261 229.2 212.5 193.2 177.6 158.5 149.1 153.3 153.2 154.3 167.6 190.3 195.6 182.8 178.6 172.1 160.7 161.3 160.7 159.4 157 159.4 164.4 164.7 156.7 144.4 129.7 113.2 98.2 92 88.7 85.8 82.7 78.1 75.8 76.8 79 81.5 85.4 88.6 95.9 103.7 112.2 123.1 137.7 149.1 161.9 176.8 196.8 206 207.9 209.4 209.7 209.1 207.5 206.8 207 206.3 206.6 206.7 209.2 212.6 213.8 216 218.9 221.4 223.7 225.2 226.2 226.7
-1.3 -1.3 -1.3 -1.3 -1.3 -1.3 -1.3 -1.3 -1.3 -1.3 -1.3 -1.3 -1.3 -1.3 -1.3 -1.3 -1.3 -1.3 -1.3 -1.3 -1.3 -1.3 -1.3 -1.3 -1.3 -1.3 -1.3 -1.3 -1.3 -1.3 -1.3 -1.3 -1.3 -1.3 -1.3 -1.3 -1.3 -1.3 -1.3 -1.3 -1.3 -1.3 -1.3 -1.3 -1.3 -1.3 -1.3 -1.3 -1.3 -1.3 -1.3 -1.3 -1.3 -1.3 -1.3 -1.3 -1.3 -1.3 -1.3 -1.3 -1.3 -1.3 -1.3 -1.3 -1.3 -1.3 -1.3 -1.3 -1.3 -1.3 -1.3 -1.3 -1.3 -1.3 -1.3 -1.3 -1.3 -1.3 -1.3 -1.3 -1.3 -1.3 -1.3 -1.3 -1.3 -1.3 -1.3 -1.3 -1.3 -1.3 -1.3 -1.3 -1.3 -1.3 -1.3 -1.3 -1.3 16.6 47.9 78.4 109.6 152.5 170.6 185.6 207.9 240.9 243.6 251.9 262.6 273.9 281.9 288.5 296.1 303.8 314.9 326.8 338.4 353.3 363.8 369 372.1 366.9 365.4 361.8 350.7 336.8 325.5 314.3 302.4 289.4 270.8 270.6 246.5 245.8 222.1 238 172.9 175.7 175.5 178.7 194.5 223.6 202.9 191.6 186.6 178.8 169.6 167.4 165.6 163.4 162.4 164.9 171.5 176 164.8 152.6 139.5 122.9 106 97.4 92.8 87.9 85 81.8 80.7 82.4 83.9 82.4 84.5 89.2 95.4 102.8 109.2 117.8 130.5 141.9 153.4 165.4 183.2 195.2 199.3 202.1 203.4 203 202.3 200.5 201.8 201.3 202.6 203.2 205.3 207.3 208.8 210.9 213.6 218.3 219.7 220.2 221.3 221.9
-1.3 -1.3 -1.3 -1.3 -1.3 -1.3 -1.3 -1.3 -1.3 -1.3 -1.3 -1.3 -1.3 -1.3 -1.3 -1.3 -1.3 -1.3 -1.3 -1.3 -1.3 -1.3 -1.3 -1.3 -1.3 -1.3 -1.3 -1.3 -1.3 -1.3 -1.3 -1.3 -1.3 -1.3 -1.3 -1.3 -1.3 -1.3 -1.3 -1.3 -1.3 -1.3 -1.3 -1.3 -1.3 -1.3 -1.3 -1.3 -1.3 -1.3 -1.3 -1.3 -1.3 -1.3 -1.3 -1.3 -1.3 -1.3 -1.3 -1.3 -1.3 -1.3 -1.3 -1.3 -1.3 -1.3 -1.3 -1.3 -1.3 -1.3 -1.3 -1.3 -1.3 -1.3 -1.3 -1.3 -1.3 -1.3 -1.3 -1.3 -1.3 -1.3 -1.3 -1.3 -1.3 -1.3 -1.3 -1.3 -1.3 -1.3 -1.3 -1.3 -1.3 -1.3 -1.3 -1.3 -1.3 1.3 41.5 84 100.2 132.1 168.7 169.7 189.3 231.4 234.7 243.1 253.1 262.9 273.5 282.9 291.4 302.6 310.2 322.2 336.2 347.4 356.9 358.9 360.9 361.9 360.1 357 346 337.4 328 317.3 306.6 299.9 294 291.1 288.6 281.1 282.2 277.8 241.8 207.1 204.5 207.4 229.7 235.5 208.1 196.2 189.4 183.6 176.2 171.1 168.9 167.3 166.9 169.2 175 185.5 175.7 162.5 149.9 133 111.3 102.6 93.9 90.3 88.7 86.7 86.1 87.1 86.7 83.6 83.9 87.1 96.3 102.6 110 115.3 126.4 137.5 149.8 163.5 176.2 186.7 193.3 195.4 195.6 196.4 195.1 196.3 197 198 199.8 199.7 201.8 203.6 204.3 206.6 208.2 214 215.1 215.5 217 218
-1.3 -1.3 -1.3 -1.3 -1.3 -1.3 -1.3 -1.3 -1.3 -1.3 -1.3 -1.3 -1.3 -1.3 -1.3 -1.3 -1.3 -1.3 -1.3 -1.3 -1.3 -1.3 -1.3 -1.3 -1.3 -1.3 -1.3 -1.3 -1.3 -1.3 -1.3 -1.3 -1.3 -1.3 -1.3 -1.3 -1.3 -1.3 -1.3 -1.3 -1.3 -1.3 -1.3 -1.3 -1.3 -1.3 -1.3 -1.3 -1.3 -1.3 -1.3 -1.3 -1.3 -1.3 -1.3 -1.3 -1.3 -1.3 -1.3 -1.3 -1.3 -1.3 -1.3 -1.3 -1.3 -1.3 -1.3 -1.3 -1.3 -1.3 -1.3 -1.3 -1.3 -1.3 -1.3 -1.3 -1.3 -1.3 -1.3 -1.3 -1.3 -1.3 -1.3 -1.3 -1.3 -1.3 -1.3 -1.3 -1.3 -1.3 -1.3 -1.3 -1.3 -1.3 -1.3 -1.3 -1.3 1.3 43.4 81.7 94.9 131.8 164.2 169.9 185.5 204.8 223.9 232.4 243.6 254.8 265 275.4 286 297.4 309 318.7 330.5 341.2 350 352.5 354 354.2 355.9 350.9 345.4 339 331.2 323.6 315.6 310.9 307.6 306 304.4 304.3 304.8 304.6 283.1 252.2 236.6 244 261.4 246.4 213.7 195.7 190.6 185.4 180.4 175.7 172.2 170 170.4 173.3 181.1 196.1 187.8 174.7 158.9 138.3 113.9 107 100.7 95.7 93.2 93.1 93.4 91.4 90.2 87.4 87.6 87.7 93 101.9 109.8 114.8 123 135.3 145.5 156.9 174.9 184.4 187.3 188.7 189.9 190.7 190.6 191.3 192.3 195.6 195.7 194.2 197.6 200.8 201 203.7 205.6 209.3 213.6 215 213.1 214.4
-1.3 -1.3 -1.3 -1.3 -1.3 -1.3 -1.3 -1.3 -1.3 -1.3 -1.3 -1.3 -1.3 -1.3 -1.3 -1.3 -1.3 -1.3 -1.3 -1.3 -1.3 -1.3 -1.3 -1.3 -1.3 -1.3 -1.3 -1.3 -1.3 -1.3 -1.3 -1.3 -1.3 -1.3 -1.3 -1.3 -1.3 -1.3 -1.3 -1.3 -1.3 -1.3 -1.3 -1.3 -1.3 -1.3 -1.3 -1.3 -1.3 -1.3 -1.3 -1.3 -1.3 -1.3 -1.3 -1.3 -1.3 -1.3 -1.3 -1.3 -1.3 -1.3 -1.3 -1.3 -1.3 -1.3 -1.3 -1.3 -1.3 -1.3 -1.3 -1.3 -1.3 -1.3 -1.3 -1.3 -1.3 -1.3 -1.3 -1.3 -1.3 -1.3 -1.3 -1.3 -1.3 -1.3 -1.3 -1.3 -1.3 -1.3 -1.3 -1.3 -1.3 -1.3 -1.3 -1.3 -1.3 2.7 43.8 81.8 87 111.9 142.3 169.3 183.5 201.8 207.6 219.5 233 245.6 257.1 269.2 281.5 293.5 306 315.4 327.3 338.1 344.4 349.1 348.2 349.2 350.7 350 349 347.3 342 334.3 326.6 324.3 323.1 321 323.2 319.9 322.4 320.5 317.4 304.9 278.5 277.1 284.8 250 221.2 199.3 191.6 186.9 180.8 177.7 175.2 173.6 173.6 177.6 192.7 206.6 202 187 165.8 138 118.8 110.4 105.5 101.9 99 99.2 96 95.5 95.3 93.7 90.4 90.6 91.4 100.8 108 114.3 121.5 130.9 140.4 154.6 173.4 180.7 182.4 182.7 184.3 184.4 185 185.4 188.2 187.5 187.5 191 194.2 200.4 201.9 202.1 204.2 206.7 209.8 210.8 209.9 211.6
-1.3 -1.3 -1.3 -1.3 -1.3 -1.3 -1.3 -1.3 -1.3 -1.3 -1.3 -1.3 -1.3 -1.3 -1.3 -1.3 -1.3 -1.3 -1.3 -1.3 -1.3 -1.3 -1.3 -1.3 -1.3 -1.3 -1.3 -1.3 -1.3 -1.3 -1.3 -1.3 -1.3 -1.3 -1.3 -1.3 -1.3 -1.3 -1.3 -1.3 -1.3 -1.3 -1.3 -1.3 -1.3 -1.3 -1.3 -1.3 -1.3 -1.3 -1.3 -1.3 -1.3 -1.3 -1.3 -1.3 -1.3 -1.3 -1.3 -1.3 -1.3 -1.3 -1.3 -1.3 -1.3 -1.3 -1.3 -1.3 -1.3 -1.3 -1.3 -1.3 -1.3 -1.3 -1.3 -1.3 -1.3 -1.3 -1.3 -1.3 -1.3 -1.3 -1.3 -1.3 -1.3 -1.3 -1.3 -1.3 -1.3 -1.3 -1.3 -1.3 -1.3 -1.3 -1.3 -1.3 0.5 13.5 40.4 55.8 87 106.9 134.3 151.6 165.1 181.8 199.8 208.7 225.3 238.5 247.6 261.3 277.1 289.2 301.9 311.6 322.4 334.5 337.3 338.7 342 345.3 349.4 353.4 356.3 356.3 353.5 347.2 341.9 341.5 340.6 343.7 339.7 340.2 336.9 338.1 333.3 329.4 324.5 313.8 300.2 261.9 227.7 215.9 204.1 194.5 187.1 182.8 180.5 183.5 176.8 189.4 207.3 221.3 213.3 196 170.1 143.9 123.2 114.1 110.9 107.7 105.4 104 102.1 102.1 100.5 98.6 96.5 95.1 92.7 97.4 105 112.1 119.4 129.1 138.6 150.1 166.8 174.5 177.1 177.8 178.1 178.2 179.8 178.9 180.2 179.7 185 188.2 191.6 198 201.2 201.9 202.7 204.4 206.6 207.1 207.4 208.1
-1.3 -1.3 -1.3 -1.3 -1.3 -1.3 -1.3 -1.3 -1.3 -1.3 -1.3 -1.3 -1.3 -1.3 -1.3 -1.3 -1.3 -1.3 -1.3 -1.3 -1.3 -1.3 -1.3 -1.3 -1.3 -1.3 -1.3 -1.3 -1.3 -1.3 -1.3 -1.3 -1.3 -1.3 -1.3 -1.3 -1.3 -1.3 -1.3 -1.3 -1.3 -1.3 -1.3 -1.3 -1.3 -1.3 -1.3 -1.3 -1.3 -1.3 -1.3 -1.3 -1.3 -1.3 -1.3 -1.3 -1.3 -1.3 -1.3 -1.3 -1.3 -1.3 -1.3 -1.3 -1.3 -1.3 -1.3 -1.3 -1.3 -1.3 -1.3 -1.3 -1.3 -1.3 -1.3 -1.3 -1.3 -1.3 -1.3 -1.3 -1.3 -1.3 -1.3 -1.3 -1.3 -1.3 -1.3 -1.3 -1.3 -1.3 -1.3 -1.3 -1.3 -1.3 -1.3 -1.3 1.6 21.9 41.3 52.4 79.5 95.8 112 127.5 143.5 160.2 178.5 195.5 212.3 225.7 239.1 252 264.8 279.3 295.2 304.6 315.3 321.6 329.8 332.8 335.7 342.9 352.9 362.8 367.4 368.6 366.9 364 362.3 361.9 363.3 363.8 360 355.8 357 354.2 353.7 351.5 348 343 336.9 306.8 256.4 235.5 218.3 213.3 205.3 197.9 195.6 191.7 190.2 209.1 227.8 238.7 227.7 202.6 175.7 152.7 138.3 126.9 118.5 114.6 112.7 111.3 109.9 109.8 107.9 105.8 101.8 99.6 97.7 97.2 102.6 109.3 116.3 127.4 139.3 146.8 158.6 165.8 170.2 171.6 171.9 172.4 171.7 171.8 173.5 177.1 182.1 187.2 190.9 196.7 199.5 199.6 201.3 202.9 203.6 204.1 203.9 206.2
-1.3 -1.3 -1.3 -1.3 -1.3 -1.3 -1.3 -1.3 -1.3 -1.3 -1.3 -1.3 -1.3 -1.3 -1.3 -1.3 -1.3 -1.3 -1.3 -1.3 -1.3 -1.3 -1.3 -1.3 -1.3 -1.3 -1.3 -1.3 -1.3 -1.3 -1.3 -1.3 -1.3 -1.3 -1.3 -1.3 -1.3 -1.3 -1.3 -1.3 -1.3 -1.3 -1.3 -1.3 -1.3 -1.3 -1.3 -1.3 -1.3 -1.3 -1.3 -1.3 -1.3 -1.3 -1.3 -1.3 -1.3 -1.3 -1.3 -1.3 -1.3 -1.3 -1.3 -1.3 -1.3 -1.3 -1.3 -1.3 -1.3 -1.3 -1.3 -1.3 -1.3 -1.3 -1.3 -1.3 -1.3 -1.3 -1.3 -1.3 -1.3 -1.3 -1.3 -1.3 -1.3 -1.3 -1.3 -1.3 -1.3 -1.3 -1.3 -1.3 -1.3 -1.3 -1.3 -1.3 4.3 33.6 47.6 60.3 82.2 90.8 104.7 116.5 129.2 141.2 165.2 178.3 198.2 213.7 228.9 239 253.7 267 281 292.5 302.8 314.1 320.6 327.5 335.3 351.7 363.4 371.1 375.9 376.6 379.7 381 379.9 383.7 387.1 383.4 379.1 376.5 377.4 377.3 376.7 375.1 373 367.6 357 313.1 284.1 263.3 247.8 237.5 228.4 220.2 209.6 213.8 219.6 236.3 255.2 262.8 241.1 208 173.4 153.8 146.2 135.2 132 130.6 123.2 122.3 123.8 119.3 120.1 116.9 108.9 104.6 103.8 103.4 100.5 106.9 113.8 122.5 136 145.1 146.9 146.6 149.7 155.9 161.3 163.6 162.6 164 171.2 178 182.9 186.3 190.7 196.3 198 198 197.8 200.8 201.1 201.3 201.8 204.3
-1.3 -1.3 -1.3 -1.3 -1.3 -1.3 -1.3 -1.3 -1.3 -1.3 -1.3 -1.3 -1.3 -1.3 -1.3 -1.3 -1.3 -1.3 -1.3 -1.3 -1.3 -1.3 -1.3 -1.3 -1.3 -1.3 -1.3 -1.3 -1.3 -1.3 -1.3 -1.3 -1.3 -1.3 -1.3 -1.3 -1.3 -1.3 -1.3 -1.3 -1.3 -1.3 -1.3 -1.3 -1.3 -1.3 -1.3 -1.3 -1.3 -1.3 -1.3 -1.3 -1.3 -1.3 -1.3 -1.3 -1.3 -1.3 -1.3 -1.3 -1.3 -1.3 -1.3 -1.3 -1.3 -1.3 -1.3 -1.3 -1.3 -1.3 -1.3 -1.3 -1.3 -1.3 -1.3 -1.3 -1.3 -1.3 -1.3 -1.3 -1.3 -1.3 -1.3 -1.3 -1.3 -1.3 -1.3 -1.3 -1.3 -1.3 -1.3 -1.3 -1.3 -1.3 -1.3 -1.3 10 36 57.6 72.8 69.7 78.8 90.4 108.6 118.4 130.1 146.6 168.8 189.4 204.4 217.2 228.6 239 241.1 261.8 274 286.9 299.2 306.1 329.2 345 358 370.9 377.5 383.8 388.9 394 397.3 403.5 406.4 406.2 401.6 399 395.2 399.2 403.1 404.4 401.2 396.3 389.9 377.1 335.1 333.7 323.8 285.8 272.2 256.5 246.6 237.1 245.2 264.9 283.4 288.4 284.1 247.2 213.4 181.3 159 152.9 144.8 138.7 144.1 134.3 134.6 142.2 144.7 136.1 126.6 117.6 112 106.5 106.4 105.5 106.3 110.7 119 127 133.8 129.4 132.4 136.6 143.3 149 153.4 157.8 163.7 174.4 180.9 185.2 189.2 192.1 194.8 197 198.5 195 197.7 198.2 198.6 200.6 203.5
-1.3 -1.3 -1.3 -1.3 -1.3 -1.3 -1.3 -1.3 -1.3 -1.3 -1.3 -1.3 -1.3 -1.3 -1.3 -1.3 -1.3 -1.3 -1.3 -1.3 -1.3 -1.3 -1.3 -1.3 -1.3 -1.3 -1.3 -1.3 -1.3 -1.3 -1.3 -1.3 -1.3 -1.3 -1.3 -1.3 -1.3 -1.3 -1.3 -1.3 -1.3 -1.3 -1.3 -1.3 -1.3 -1.3 -1.3 -1.3 -1.3 -1.3 -1.3 -1.3 -1.3 -1.3 -1.3 -1.3 -1.3 -1.3 -1.3 -1.3 -1.3 -1.3 -1.3 -1.3 -1.3 -1.3 -1.3 -1.3 -1.3 -1.3 -1.3 -1.3 -1.3 -1.3 -1.3 -1.3 -1.3 -1.3 -1.3 -1.3 -1.3 -1.3 -1.3 -1.3 -1.3 -1.3 -1.3 -1.3 -1.3 -1.3 -1.3 -1.3 -1.3 -1.3 -1.3 2.3 18.9 30.3 41.2 56.5 70.8 86.1 93.7 101.6 109.4 118.9 131.5 148.8 170.4 188.6 199.9 208.3 220.3 230.3 245 253.1 265.2 276.9 307.4 333.9 350.7 363.8 375.3 384.2 395.6 406.4 413.9 418.6 423.8 426.2 422.1 419.1 419.1 422.3 423.1 426.8 425 423.5 415.1 406.5 392.4 384.6 377.1 355.5 340.6 304.7 289.6 279.2 294.9 296.5 311.4 329.2 328.1 294.9 256.6 222.2 190.9 169.9 165.8 167.3 161.2 152.2 154.5 161.1 166.6 166.5 154.2 145.6 133.6 122.7 112.4 109.1 109.3 109.4 109.4 113.5 116.7 119.2 122.6 126 130.6 134.3 143.1 154.3 158.8 167 174.9 181.2 186.5 189.4 193.5 195.2 195.5 196.7 194.2 195.3 196 196.5 200.5 202.8
-1.3 -1.3 -1.3 -1.3 -1.3 -1.3 -1.3 -1.3 -1.3 -1.3 -1.3 -1.3 -1.3 -1.3 -1.3 -1.3 -1.3 -1.3 -1.3 -1.3 -1.3 -1.3 -1.3 -1.3 -1.3 -1.3 -1.3 -1.3 -1.3 -1.3 -1.3 -1.3 -1.3 -1.3 -1.3 -1.3 -1.3 -1.3 -1.3 -1.3 -1.3 -1.3 -1.3 -1.3 -1.3 -1.3 -1.3 -1.3 -1.3 -1.3 -1.3 -1.3 -1.3 -1.3 -1.3 -1.3 -1.3 -1.3 -1.3 -1.3 -1.3 -1.3 -1.3 -1.3 -1.3 -1.3 -1.3 -1.3 -1.3 -1.3 -1.3 -1.3 -1.3 -1.3 -1.3 -1.3 -1.3 -1.3 -1.3 -1.3 -1.3 -1.3 -1.3 -1.3 -1.3 -1.3 -1.3 -1.3 -1.3 -1.3 -1.3 -1.3 -1.3 -1.3 -1.3 4.5 27.9 33.3 42.4 54.4 67.8 79.1 86.7 94.2 101.3 108.8 116 128.2 145.3 161.9 173.9 181.1 189.9 203.9 217.2 227.1 244.2 289.2 317.2 339.7 355.4 367.8 381.5 393.6 409.5 421.9 430 436.2 439.8 439.6 438.5 438.7 439.5 446.3 450.3 447 444.7 438.3 429.3 416.9 413.2 406.8 387.9 373.4 357 339.9 326.9 353 365.7 375.9 366.3 352.2 337 304.3 269.3 235.4 207.9 191.1 185 175.2 164.7 161.2 165.7 174.2 177.8 177.3 171.2 165.9 159.3 148.9 132 116.6 115.3 113.7 113.3 112.4 116.4 121.9 132.1 137.1 139.6 141.5 147.2 152.7 161 168.2 175.9 180.2 185.2 187.8 193.3 196 197.5 196.9 193.9 193.2 193.5 194.8 198.3 201.3
-1.3 -1.3 -1.3 -1.3 -1.3 -1.3 -1.3 -1.3 -1.3 -1.3 -1.3 -1.3 -1.3 -1.3 -1.3 -1.3 -1.3 -1.3 -1.3 -1.3 -1.3 -1.3 -1.3 -1.3 -1.3 -1.3 -1.3 -1.3 -1.3 -1.3 -1.3 -1.3 -1.3 -1.3 -1.3 -1.3 -1.3 -1.3 -1.3 -1.3 -1.3 -1.3 -1.3 -1.3 -1.3 -1.3 -1.3 -1.3 -1.3 -1.3 -1.3 -1.3 -1.3 -1.3 -1.3 -1.3 -1.3 -1.3 -1.3 -1.3 -1.3 -1.3 -1.3 -1.3 -1.3 -1.3 -1.3 -1.3 -1.3 -1.3 -1.3 -1.3 -1.3 -1.3 -1.3 -1.3 -1.3 -1.3 -1.3 -1.3 -1.3 -1.3 -1.3 -1.3 -1.3 -1.3 -1.3 -1.3 -1.3 -1.3 -1.3 -1.3 -1.3 -1.3 -1.3 7.9 15.9 25.7 34.2 49.8 62.9 77.3 82.3 88.5 94.3 102.4 109.9 118.8 129 140.3 152.5 164.1 175 186.5 193.5 224.5 269.1 300.8 324.9 345 362.1 376.1 386.5 404.2 421 433.3 442.5 449.2 451 451.3 456.2 457.3 464 470 470.6 467.3 461 448.2 438.8 429.3 422.5 414 395.1 387.4 378.5 370.9 374.6 392.5 400.3 397.8 387 366.7 346.2 316.7 283.6 244.7 222.8 203.3 193.2 184.1 177.7 170.3 174.2 182.5 185 181.6 178 173.9 168.7 162.1 152 136.2 125 125.4 121 116.4 119.1 135.7 144.6 148.6 149.9 148.8 150.7 159.3 164.2 170.6 175 179.6 184.9 188.8 195.3 196.6 197 197 195.2 192.2 192.1 192 194.8 197.9
-1.3 -1.3 -1.3 -1.3 -1.3 -1.3 -1.3 -1.3 -1.3 -1.3 -1.3 -1.3 -1.3 -1.3 -1.3 -1.3 -1.3 -1.3 -1.3 -1.3 -1.3 -1.3 -1.3 -1.3 -1.3 -1.3 -1.3 -1.3 -1.3 -1.3 -1.3 -1.3 -1.3 -1.3 -1.3 -1.3 -1.3 -1.3 -1.3 -1.3 -1.3 -1.3 -1.3 -1.3 -1.3 -1.3 -1.3 -1.3 -1.3 -1.3 -1.3 -1.3 -1.3 -1.3 -1.3 -1.3 -1.3 -1.3 -1.3 -1.3 -1.3 -1.3 -1.3 -1.3 -1.3 -1.3 -1.3 -1.3 -1.3 -1.3 -1.3 -1.3 -1.3 -1.3 -1.3 -1.3 -1.3 -1.3 -1.3 -1.3 -1.3 -1.3 -1.3 -1.3 -1.3 -1.3 -1.3 -1.3 -1.3 -1.3 -1.3 -1.3 -1.3 -1.3 1.6 13 33 40.2 48.5 54.3 57.9 76 81.9 85.6 90.8 98.6 105 111 120.7 130.1 140.7 150.8 158 173.5 213.6 244.1 285.7 311.2 332.9 352.4 368.1 379.2 396.6 415.2 431.5 444.5 453 460.9 463.4 471.8 477.9 485.2 490.8 489.7 490.2 485.8 476.1 471.1 456.7 444.3 429.8 414.2 401.7 395.1 390.7 390.5 395.4 413.5 416.1 411.7 405.7 384.8 357.1 333.3 296.8 255.8 226.8 206.4 203.6 198.9 192.5 183.1 187 189.5 188.4 182.7 177.4 172.2 167.4 162.4 156.4 147.2 138.1 138.6 137.5 124.3 122.1 140.4 146.7 152.2 157.3 160.4 161.6 163.9 168.4 171.1 175.4 182.4 187.5 192.1 196.3 198.3 198.3 198.4 195.9 190.9 190 188.9 190.6 193.8
-1.3 -1.3 -1.3 -1.3 -1.3 -1.3 -1.3 -1.3 -1.3 -1.3 -1.3 -1.3 -1.3 -1.3 -1.3 -1.3 -1.3 -1.3 -1.3 -1.3 -1.3 -1.3 -1.3 -1.3 -1.3 -1.3 -1.3 -1.3 -1.3 -1.3 -1.3 -1.3 -1.3 -1.3 -1.3 -1.3 -1.3 -1.3 -1.3 -1.3 -1.3 -1.3 -1.3 -1.3 -1.3 -1.3 -1.3 -1.3 -1.3 -1.3 -1.3 -1.3 -1.3 -1.3 -1.3 -1.3 -1.3 -1.3 -1.3 -1.3 -1.3 -1.3 -1.3 -1.3 -1.3 -1.3 -1.3 -1.3 -1.3 -1.3 -1.3 -1.3 -1.3 -1.3 -1.3 -1.3 -1.3 -1.3 -1.3 -1.3 -1.3 -1.3 -1.3 -1.3 -1.3 -1.3 -1.3 -1.3 -1.3 -1.3 -1.3 -1.3 -1.3 -1.3 5.1 24.5 40.5 55.4 60.6 63.6 72.6 75.8 72.6 82.9 89.7 97.3 102.8 109.3 116.3 123.9 134.2 143.1 160.6 182.9 225.5 269.6 295.8 319 338.8 356 370.9 385.4 407.1 424 440.3 453.3 464.6 472.6 481 490 499.9 509 513.1 511 507.9 504.3 497.6 476.2 461.4 448.3 429.4 417.4 411.2 404.1 401.4 405 411.9 426.3 431.3 425.4 417.5 394.5 366 344.6 313.5 277.4 239.4 224.5 215.6 207.4 201.9 203.2 200.1 196.6 190.2 183.5 177.2 170.9 164.8 160.1 155.6 150.3 146.9 144.3 142.5 137.3 124.5 139 148 154.2 160.1 164.4 166.5 168.6 170.7 172.3 179.1 187.2 191.9 196.2 200.1 200.1 200 201.2 197.3 193.3 188.3 185.5 186.7 189
-1.3 -1.3 -1.3 -1.3 -1.3 -1.3 -1.3 -1.3 -1.3 -1.3 -1.3 -1.3 -1.3 -1.3 -1.3 -1.3 -1.3 -1.3 -1.3 -1.3 -1.3 -1.3 -1.3 -1.3 -1.3 -1.3 -1.3 -1.3 -1.3 -1.3 -1.3 -1.3 -1.3 -1.3 -1.3 -1.3 -1.3 -1.3 -1.3 -1.3 -1.3 -1.3 -1.3 -1.3 -1.3 -1.3 -1.3 -1.3 -1.3 -1.3 -1.3 -1.3 -1.3 -1.3 -1.3 -1.3 -1.3 -1.3 -1.3 -1.3 -1.3 -1.3 -1.3 -1.3 -1.3 -1.3 -1.3 -1.3 -1.3 -1.3 -1.3 -1.3 -1.3 -1.3 -1.3 -1.3 -1.3 -1.3 -1.3 -1.3 -1.3 -1.3 -1.3 -1.3 -1.3 -1.3 -1.3 -1.3 -1.3 -1.3 -1.3 -1.3 -1.3 -1.3 12.5 38.9 50 67.5 70.2 74.4 78.6 83.3 85.6 87.5 91.6 97.1 102.9 107.9 114.3 120.5 127.5 140.2 160.7 191.1 244.3 276.7 305 323.6 341.9 357.6 373.7 392.3 412.9 430.5 449.8 465.1 472.2 484.7 495.6 513.7 525.6 533.1 533.1 527.5 523 512.1 494.2 470.7 457.1 440.3 430.4 422.6 415.6 411.5 412.1 414.7 424.6 442.4 444.7 436.2 430.3 406.4 376.4 354.7 330.1 300.9 271.8 237 222.9 213 218.3 214.5 206.5 199 189.7 181.6 176.6 170.8 165.2 160.6 155 151.2 148.2 147.6 146.1 141.6 127.7 134.9 148.8 155.4 161.1 165.4 168.5 171.5 174.1 179.4 187.4 193.2 197.8 200.7 204 204.7 204.9 203 199.5 195.5 189 183 182.9 184.4
-1.3 -1.3 -1.3 -1.3 -1.3 -1.3 -1.3 -1.3 -1.3 -1.3 -1.3 -1.3 -1.3 -1.3 -1.3 -1.3 -1.3 -1.3 -1.3 -1.3 -1.3 -1.3 -1.3 -1.3 -1.3 -1.3 -1.3 -1.3 -1.3 -1.3 -1.3 -1.3 -1.3 -1.3 -1.3 -1.3 -1.3 -1.3 -1.3 -1.3 -1.3 -1.3 -1.3 -1.3 -1.3 -1.3 -1.3 -1.3 -1.3 -1.3 -1.3 -1.3 -1.3 -1.3 -1.3 -1.3 -1.3 -1.3 -1.3 -1.3 -1.3 -1.3 -1.3 -1.3 -1.3 -1.3 -1.3 -1.3 -1.3 -1.3 -1.3 -1.3 -1.3 -1.3 -1.3 -1.3 -1.3 -1.3 -1.3 -1.3 -1.3 -1.3 -1.3 -1.3 -1.3 -1.3 -1.3 -1.3 -1.3 -1.3 -1.3 -1.3 -1.3 4 24.9 39.9 63.1 66.9 71 74.7 82.4 88.4 95.5 98.4 101.1 104.6 102.9 105.6 111.8 116 123.7 137.3 159.3 227 265.9 289.3 307.5 326.2 340.9 360.1 376 398.6 419.6 439.3 456.3 468.6 476.5 492.8 513.7 534.3 548.5 547.5 539.6 531.3 519.7 497.6 477.4 456.9 440.8 436.3 431.6 422.4 416.3 417.1 419.1 426.8 438.7 453.3 453.2 453.9 440.8 415.3 388.3 365.1 341 314 292.7 264 242 239.1 230.3 219.1 207.1 197.5 189.2 180.7 175 170.2 164.6 160.2 155.6 150.7 148 148.5 147.1 140.4 130.7 143.7 148.8 155.4 159.4 164 169 174 180.8 189.6 197.5 201.5 206 207.5 208.7 208.3 206.9 204.5 200.6 197 188.7 183.1 181.1 180
-1.3 -1.3 -1.3 -1.3 -1.3 -1.3 -1.3 -1.3 -1.3 -1.3 -1.3 -1.3 -1.3 -1.3 -1.3 -1.3 -1.3 -1.3 -1.3 -1.3 -1.3 -1.3 -1.3 -1.3 -1.3 -1.3 -1.3 -1.3 -1.3 -1.3 -1.3 -1.3 -1.3 -1.3 -1.3 -1.3 -1.3 -1.3 -1.3 -1.3 -1.3 -1.3 -1.3 -1.3 -1.3 -1.3 -1.3 -1.3 -1.3 -1.3 -1.3 -1.3 -1.3 -1.3 -1.3 -1.3 -1.3 -1.3 -1.3 -1.3 -1.3 -1.3 -1.3 -1.3 -1.3 -1.3 -1.3 -1.3 -1.3 -1.3 -1.3 -1.3 -1.3 -1.3 -1.3 -1.3 -1.3 -1.3 -1.3 -1.3 -1.3 -1.3 -1.3 -1.3 -1.3 -1.3 -1.3 -1.3 -1.3 -1.3 -1.3 -1.3 1 17.9 27.7 41.4 60.4 67.7 72 79.5 87.6 101.6 111.8 120.1 117.3 114 112.4 109.2 109.8 114.2 118 132.4 162.3 233.5 273 293.5 311.7 326.7 342 361.3 382.2 404.8 424.1 445.1 460.7 472.2 482.2 504 528.6 550.7 559.5 549.1 537.4 523.5 504.2 483.7 463.6 443.8 437.2 433 428.8 421 419.3 420.9 424.2 432.2 449.6 464.3 469.8 465.6 444.5 421.9 401.9 378.3 346.2 319 294.4 277.2 261.1 247.7 233.1 220.6 205.7 197 187.4 179 173.6 169.6 164.6 159.4 155 150.1 148.3 147.8 145.1 138.6 134.3 144.4 150.1 155.1 160.1 164.6 169.7 178.3 190.7 203.2 211.4 215.1 215.6 213.1 212.6 211.9 209.8 205.9 201.2 195.8 190.1 185 181.2 176.7
-1.3 -1.3 -1.3 -1.3 -1.3 -1.3 -1.3 -1.3 -1.3 -1.3 -1.3 -1.3 -1.3 -1.3 -1.3 -1.3 -1.3 -1.3 -1.3 -1.3 -1.3 -1.3 -1.3 -1.3 -1.3 -1.3 -1.3 -1.3 -1.3 -1.3 -1.3 -1.3 -1.3 -1.3 -1.3 -1.3 -1.3 -1.3 -1.3 -1.3 -1.3 -1.3 -1.3 -1.3 -1.3 -1.3 -1.3 -1.3 -1.3 -1.3 -1.3 -1.3 -1.3 -1.3 -1.3 -1.3 -1.3 -1.3 -1.3 -1.3 -1.3 -1.3 -1.3 -1.3 -1.3 -1.3 -1.3 -1.3 -1.3 -1.3 -1.3 -1.3 -1.3 -1.3 -1.3 -1.3 -1.3 -1.3 -1.3 -1.3 -1.3 -1.3 -1.3 -1.3 -1.3 -1.3 -1.3 -1.3 -1.3 -1.3 -1.3 -1.3 7.3 27.4 30.4 40.1 48.6 66.8 80.1 90 109.1 129.5 142.4 153 149.7 133.8 120.5 116.4 114 112.9 114.1 120 194.6 234.2 275.1 295.4 311.9 328.3 341.9 361.7 386.7 407.9 428.9 446.3 461.8 475.6 487.5 510.6 538.5 560.7 555.7 541 526.4 509 485.8 468 447.6 437.4 434.3 431 424.4 420 419.9 423.4 428.2 438.6 460.3 470.1 482.7 470.2 446.4 434.1 404.9 380.3 349.6 322.1 292.7 274.8 259.5 246.9 230.4 218.5 204.5 195.5 185.8 175.5 171 167.5 163.3 158.3 152.4 149.3 146.3 145.6 144.2 137.8 138.5 144.6 149.4 154.7 160.6 166.6 172.1 185.5 201.3 215 225.6 231.3 228.6 221.4 218.6 215.7 212 206.4 200.7 196.3 191.2 186.5 182.1 179
-1.3 -1.3 -1.3 -1.3 -1.3 -1.3 -1.3 -1.3 -1.3 -1.3 -1.3 -1.3 -1.3 -1.3 -1.3 -1.3 -1.3 -1.3 -1.3 -1.3 -1.3 -1.3 -1.3 -1.3 -1.3 -1.3 -1.3 -1.3 -1.3 -1.3 -1.3 -1.3 -1.3 -1.3 -1.3 -1.3 -1.3 -1.3 -1.3 -1.3 -1.3 -1.3 -1.3 -1.3 -1.3 -1.3 -1.3 -1.3 -1.3 -1.3 -1.3 -1.3 -1.3 -1.3 -1.3 -1.3 -1.3 -1.3 -1.3 -1.3 -1.3 -1.3 -1.3 -1.3 -1.3 -1.3 -1.3 -1.3 -1.3 -1.3 -1.3 -1.3 -1.3 -1.3 -1.3 -1.3 -1.3 -1.3 -1.3 -1.3 -1.3 -1.3 -1.3 -1.3 -1.3 -1.3 -1.3 -1.3 -1.3 -1.3 -1.3 1.4 14 21.3 29.5 38.7 50.7 69.2 96.8 120.7 125.6 158.4 175.2 185.3 180.2 157 135.7 127.2 121.8 118.9 115.4 138.3 222.6 257 277.8 297 312.3 330.4 348.4 365.2 390.7 407.8 428.7 445.1 461.1 477.8 489.8 518.2 543 545.9 544.4 526.7 509.4 488.3 470.8 452.8 441 433.8 430.2 426 418.2 413.7 417.2 424.4 433.8 449.6 464.2 468.8 477.2 457 440.5 429.2 399.9 370.2 345.3 322.9 287.1 269.4 255.6 243.1 227.8 215.2 203.6 193.8 184.6 172.5 167.4 163.8 160.2 156 152 148 145.3 144.4 141.4 136.8 139.1 143.8 148.5 155.4 160.2 166.6 177.3 191.2 209.3 223.7 234.1 238.8 237 228.7 222.9 218 213.5 207.4 202 197.2 191.7 186.9 182.8 179.7
-1.3 -1.3 -1.3 -1.3 -1.3 -1.3 -1.3 -1.3 -1.3 -1.3 -1.3 -1.3 -1.3 -1.3 -1.3 -1.3 -1.3 -1.3 -1.3 -1.3 -1.3 -1.3 -1.3 -1.3 -1.3 -1.3 -1.3 -1.3 -1.3 -1.3 -1.3 -1.3 -1.3 -1.3 -1.3 -1.3 -1.3 -1.3 -1.3 -1.3 -1.3 -1.3 -1.3 -1.3 -1.3 -1.3 -1.3 -1.3 -1.3 -1.3 -1.3 -1.3 -1.3 -1.3 -1.3 -1.3 -1.3 -1.3 -1.3 -1.3 -1.3 -1.3 -1.3 -1.3 -1.3 -1.3 -1.3 -1.3 -1.3 -1.3 -1.3 -1.3 -1.3 -1.3 -1.3 -1.3 -1.3 -1.3 -1.3 -1.3 -1.3 -1.3 -1.3 -1.3 -1.3 -1.3 -1.3 -1.3 -1.3 -1.3 -1.3 5.8 14.4 23.8 31.9 48.5 68.5 92.5 115 132.6 143 178.8 216.2 216.2 209.6 189.4 159.6 136.3 131 126.2 129.6 182.2 235.5 262.5 280.3 297.9 314 333.6 351.2 367.1 389 409.5 427.2 443.2 458.6 473.6 492.9 518.8 530.5 529.9 516.6 502.2 489.4 472.3 455.9 443.6 436.4 429.5 422.9 415.1 408.1 410.6 415.4 424.4 442.9 455.8 462.1 458.8 449.4 436.3 424.1 407.1 379.9 353.9 332 303.7 280 264.7 250.4 237.6 223.4 212.7 200.9 192.4 181 171.1 164.3 161 157.4 155.4 150.2 147.4 144.6 142.7 140.5 137 137.5 142.4 147.9 154.7 161 168.8 180 194.4 210.5 224.1 235.3 238.1 236.2 231.9 226.2 221.5 216.2 209.4 204 197.6 192.8 187.4 183.2 179.8
-1.3 -1.3 -1.3 -1.3 -1.3 -1.3 -1.3 -1.3 -1.3 -1.3 -1.3 -1.3 -1.3 -1.3 -1.3 -1.3 -1.3 -1.3 -1.3 -1.3 -1.3 -1.3 -1.3 -1.3 -1.3 -1.3 -1.3 -1.3 -1.3 -1.3 -1.3 -1.3 -1.3 -1.3 -1.3 -1.3 -1.3 -1.3 -1.3 -1.3 -1.3 -1.3 -1.3 -1.3 -1.3 -1.3 -1.3 -1.3 -1.3 -1.3 -1.3 -1.3 -1.3 -1.3 -1.3 -1.3 -1.3 -1.3 -1.3 -1.3 -1.3 -1.3 -1.3 -1.3 -1.3 -1.3 -1.3 -1.3 -1.3 -1.3 -1.3 -1.3 -1.3 -1.3 -1.3 -1.3 -1.3 -1.3 -1.3 -1.3 -1.3 -1.3 -1.3 -1.3 -1.3 -1.3 -1.3 -1.3 -1.3 -1.3 1.5 11.5 17.9 30.5 46.4 68.7 70.2 81.3 128.5 148.2 184.6 214.5 233.4 234.1 231.8 213 182.6 156 142.5 139.7 148.1 206.7 245.4 268.3 283.9 300.4 315 335.1 353.1 365.7 388.3 408.1 423.2 440.6 457.2 469.9 488.3 505.7 506.3 501.2 490.7 484.6 471.1 458.9 449 437.8 429.7 416.2 410.7 403.1 403.2 406.3 413.7 424.5 448.5 450.8 447.6 440.5 427.7 413.6 404 383.1 361.3 337.7 319 293.4 274.8 260.8 246.8 233.1 218.3 209.3 197.9 189 179.7 169.5 162.8 157.8 155.6 151.4 148.4 146.7 144.7 142.9 140.3 136.8 137.9 141.2 146.8 153.6 160.3 169.7 180 193.9 206.1 216.1 226.3 234.3 236.2 235.5 231.2 227.4 221.9 214.2 207.3 199.5 193.4 187.5 182.4 178.6
-1.3 -1.3 -1.3 -1.3 -1.3 -1.3 -1.3 -1.3 -1.3 -1.3 -1.3 -1.3 -1.3 -1.3 -1.3 -1.3 -1.3 -1.3 -1.3 -1.3 -1.3 -1.3 -1.3 -1.3 -1.3 -1.3 -1.3 -1.3 -1.3 -1.3 -1.3 -1.3 -1.3 -1.3 -1.3 -1.3 -1.3 -1.3 -1.3 -1.3 -1.3 -1.3 -1.3 -1.3 -1.3 -1.3 -1.3 -1.3 -1.3 -1.3 -1.3 -1.3 -1.3 -1.3 -1.3 -1.3 -1.3 -1.3 -1.3 -1.3 -1.3 -1.3 -1.3 -1.3 -1.3 -1.3 -1.3 -1.3 -1.3 -1.3 -1.3 -1.3 -1.3 -1.3 -1.3 -1.3 -1.3 -1.3 -1.3 -1.3 -1.3 -1.3 -1.3 -1.3 -1.3 -1.3 -1.3 -1.3 -1.3 -1.3 6.5 17.1 33.5 44.2 68.2 69.7 78.8 115 158.9 172.2 195.8 233.6 240.6 241.3 241.3 233.7 204.8 171.2 158 156.7 179.3 217.4 255.4 273.4 287.8 302.7 316.7 333 350.8 366.5 386 404.5 420.3 436.8 453.7 459.8 480.5 484.6 483.3 479.1 471.7 459 452.9 449.8 435.7 427.1 416.3 400.8 397.2 394.9 397.3 400.7 408.7 421.7 430.9 429.7 423.5 414.6 402.3 393.4 380.9 365.4 342.3 323.4 308.8 285.1 266.1 253.4 241.5 228 214.7 204.6 194.8 185.2 175.5 166.9 162.4 157.2 153.6 149.5 146.8 145.6 144.2 144.2 143.2 138.2 137.5 139.5 144.1 152 159.9 169.3 180.6 192.1 203.2 212.3 221.5 230.5 234.5 235.2 234.2 232.2 228.6 222.3 211.7 203.2 195.6 189.2 182.7 177.2
-1.3 -1.3 -1.3 -1.3 -1.3 -1.3 -1.3 -1.3 -1.3 -1.3 -1.3 -1.3 -1.3 -1.3 -1.3 -1.3 -1.3 -1.3 -1.3 -1.3 -1.3 -1.3 -1.3 -1.3 -1.3 -1.3 -1.3 -1.3 -1.3 -1.3 -1.3 -1.3 -1.3 -1.3 -1.3 -1.3 -1.3 -1.3 -1.3 -1.3 -1.3 -1.3 -1.3 -1.3 -1.3 -1.3 -1.3 -1.3 -1.3 -1.3 -1.3 -1.3 -1.3 -1.3 -1.3 -1.3 -1.3 -1.3 -1.3 -1.3 -1.3 -1.3 -1.3 -1.3 -1.3 -1.3 -1.3 -1.3 -1.3 -1.3 -1.3 -1.3 -1.3 -1.3 -1.3 -1.3 -1.3 -1.3 -1.3 -1.3 -1.3 -1.3 -1.3 -1.3 -1.3 -1.3 -1.3 -1.3 -1.3 1.5 12.3 23.3 40.6 64.6 90.9 97.2 107 159.6 196.8 204.4 225.6 245 249.7 248.3 247.9 242.5 225.9 199 178.3 176.2 194.5 242.5 265 278.1 291.5 301.5 315.2 332.6 346.2 366.4 385.2 398.9 415.2 432.2 441 448.2 461.6 464.4 463 460 448 437.4 431.3 429.9 423.2 415.2 402.7 389.6 386.5 387.4 388.9 393.3 400.1 408.6 409.1 404.3 400.3 390.8 379.7 372.3 358.8 341.6 322.3 307.1 293.1 273.8 255.1 245.7 234.3 222.4 211.8 202.6 193.1 182 173.4 167 161.3 156.5 152.3 148.8 146.4 144.1 144.1 145 144.6 140.5 137 138.8 142.6 149 157.6 169.4 180.2 189.6 200 208.7 217.8 227.8 232.3 234 234.3 233.1 230.2 226.6 218.8 209.2 198.9 190.1 182.2 177.1
-1.3 -1.3 -1.3 -1.3 -1.3 -1.3 -1.3 -1.3 -1.3 -1.3 -1.3 -1.3 -1.3 -1.3 -1.3 -1.3 -1.3 -1.3 -1.3 -1.3 -1.3 -1.3 -1.3 -1.3 -1.3 -1.3 -1.3 -1.3 -1.3 -1.3 -1.3 -1.3 -1.3 -1.3 -1.3 -1.3 -1.3 -1.3 -1.3 -1.3 -1.3 -1.3 -1.3 -1.3 -1.3 -1.3 -1.3 -1.3 -1.3 -1.3 -1.3 -1.3 -1.3 -1.3 -1.3 -1.3 -1.3 -1.3 -1.3 -1.3 -1.3 -1.3 -1.3 -1.3 -1.3 -1.3 -1.3 -1.3 -1.3 -1.3 -1.3 -1.3 -1.3 -1.3 -1.3 -1.3 -1.3 -1.3 -1.3 -1.3 -1.3 -1.3 -1.3 -1.3 -1.3 -1.3 -1.3 -1.3 -1.3 5.6 19.4 28.1 54.2 87.8 104.3 109.4 135.4 186.5 237.2 244.9 262.9 268.1 261.4 255.7 254.1 247.2 236.6 219.3 199.1 205 224.5 258.2 271.7 283.1 293.1 303.4 317.8 332.7 349 365.7 380.6 393.3 411.1 422.4 430.1 436.6 441 439.5 442.8 440 427.3 417.1 420.2 422.6 416.6 402.7 387 381.7 380.6 381.2 382.5 383.6 387 387.7 384.3 385.2 378.7 368.8 360.4 352.3 334.5 321.4 305.9 293 278.5 262.5 249.6 237.7 226.2 216.2 208.5 200 189.4 180.6 171 164.8 160 155.5 151.4 148.1 145.6 143.4 143.6 144.7 144.1 141 136.4 136.8 140.8 146.8 154.9 166.1 177.7 187.3 197.1 205 214.5 224 229 231 231 229.3 227 223.6 219.6 211 200.4 192.7 184.3 176.7
-1.3 -1.3 -1.3 -1.3 -1.3 -1.3 -1.3 -1.3 -1.3 -1.3 -1.3 -1.3 -1.3 -1.3 -1.3 -1.3 -1.3 -1.3 -1.3 -1.3 -1.3 -1.3 -1.3 -1.3 -1.3 -1.3 -1.3 -1.3 -1.3 -1.3 -1.3 -1.3 -1.3 -1.3 -1.3 -1.3 -1.3 -1.3 -1.3 -1.3 -1.3 -1.3 -1.3 -1.3 -1.3 -1.3 -1.3 -1.3 -1.3 -1.3 -1.3 -1.3 -1.3 -1.3 -1.3 -1.3 -1.3 -1.3 -1.3 -1.3 -1.3 -1.3 -1.3 -1.3 -1.3 -1.3 -1.3 -1.3 -1.3 -1.3 -1.3 -1.3 -1.3 -1.3 -1.3 -1.3 -1.3 -1.3 -1.3 -1.3 -1.3 -1.3 -1.3 -1.3 -1.3 -1.3 -1.3 -1.3 1.9 13.4 25.4 43.2 67.9 102.3 125.1 151.4 174.5 206.2 250.5 262.2 272.4 281.5 284.7 266.8 260.5 252 244.3 234.2 218.3 227.4 251.5 267.6 276.9 284.8 294.9 305.7 320.6 329.1 346.2 362.8 375.2 390.4 402.2 409.9 414.3 416.7 421.4 426 428.6 422.5 410.1 403.3 410.4 417.3 407.8 391.9 380.1 375.9 374.3 375 376.8 377.7 374.8 369.8 366.1 363.8 356.3 349 339 326.5 309.2 300.1 288.2 275.5 261.8 249.4 241.1 230.1 219.2 210.3 204.5 195.9 186.2 177.6 169.9 163.2 158.1 153.7 150.4 147.8 144.3 142.7 142.2 143.1 143.1 140.1 136.1 137 139.1 143.8 151.9 162.1 173.3 182.7 193.5 202.3 212.1 219.6 223.8 226 226.3 224.4 222.2 219.2 214.7 208.5 200.8 192.4 183.6 175.9
-1.3 -1.3 -1.3 -1.3 -1.3 -1.3 -1.3 -1.3 -1.3 -1.3 -1.3 -1.3 -1.3 -1.3 -1.3 -1.3 -1.3 -1.3 -1.3 -1.3 -1.3 -1.3 -1.3 -1.3 -1.3 -1.3 -1.3 -1.3 -1.3 -1.3 -1.3 -1.3 -1.3 -1.3 -1.3 -1.3 -1.3 -1.3 -1.3 -1.3 -1.3 -1.3 -1.3 -1.3 -1.3 -1.3 -1.3 -1.3 -1.3 -1.3 -1.3 -1.3 -1.3 -1.3 -1.3 -1.3 -1.3 -1.3 -1.3 -1.3 -1.3 -1.3 -1.3 -1.3 -1.3 -1.3 -1.3 -1.3 -1.3 -1.3 -1.3 -1.3 -1.3 -1.3 -1.3 -1.3 -1.3 -1.3 -1.3 -1.3 -1.3 -1.3 -1.3 -1.3 -1.3 -1.3 -1.3 -1.3 5.1 21.5 39.5 55.7 79.7 116 140 172.6 204.8 222 242.6 259.8 271.6 292.9 292.8 280.7 271.1 258 251.7 246.4 236 244.2 259.6 273.7 279.1 284.1 295.9 309.1 323.5 333.2 346.9 358.6 371.1 383.8 391 393.7 398.1 401.4 405.1 407.6 411.2 400.9 391.9 394.8 399.8 406.1 391.3 378.8 373.2 370.5 368.8 368.7 371.1 368.9 365.2 359.7 351.2 343.4 335.7 328.1 316.1 304.5 293.1 284.3 273.1 260.5 252.3 243.7 233.6 222.4 213.2 206.2 199 190.8 183.3 174.6 168.3 162.3 156.5 152.2 149.5 146 142.9 141.3 140.8 141.7 141.4 138.9 135 138.2 139.1 140.5 150.7 158.3 169 178.9 189.1 199.4 209.2 216.2 220 221.8 222 219.7 216.2 212.8 207.7 203.2 196.7 190.7 184.2 176.1
-1.3 -1.3 -1.3 -1.3 -1.3 -1.3 -1.3 -1.3 -1.3 -1.3 -1.3 -1.3 -1.3 -1.3 -1.3 -1.3 -1.3 -1.3 -1.3 -1.3 -1.3 -1.3 -1.3 -1.3 -1.3 -1.3 -1.3 -1.3 -1.3 -1.3 -1.3 -1.3 -1.3 -1.3 -1.3 -1.3 -1.3 -1.3 -1.3 -1.3 -1.3 -1.3 -1.3 -1.3 -1.3 -1.3 -1.3 -1.3 -1.3 -1.3 -1.3 -1.3 -1.3 -1.3 -1.3 -1.3 -1.3 -1.3 -1.3 -1.3 -1.3 -1.3 -1.3 -1.3 -1.3 -1.3 -1.3 -1.3 -1.3 -1.3 -1.3 -1.3 -1.3 -1.3 -1.3 -1.3 -1.3 -1.3 -1.3 -1.3 -1.3 -1.3 -1.3 -1.3 -1.3 -1.3 -1.3 1.9 13.8 25.6 46.3 65.3 83.4 110.5 146 169.8 205.5 224.4 242.4 260.5 273.4 283.1 290.6 288.6 281.8 266.4 258.5 254.1 250.8 254.9 265.9 275.2 280.3 285.9 297.4 309.7 326.8 335.3 345.8 352.5 361.7 372.1 375.8 377.6 379.7 382.7 385.6 389.3 390.6 383.8 384.7 386.5 387.3 385.8 379.2 372.4 369.2 366.4 363.9 362.9 361.7 360.5 356.2 348.4 339 331 321.4 308.8 301 289.6 281 271.2 260.6 251.2 245.7 237 227.5 216.8 209.4 200.9 192.5 185.7 179.7 172.3 165 160 155.2 151.1 148.1 145.2 142.2 140.2 139.4 139.7 139.3 136.8 135.2 138 139.4 143 148.6 155.5 163.6 174 184.3 197.6 206.8 214.3 218 219 218 214.7 210.1 205.8 200.9 196.5 191.4 186.7 182.3 176.3
-1.3 -1.3 -1.3 -1.3 -1.3 -1.3 -1.3 -1.3 -1.3 -1.3 -1.3 -1.3 -1.3 -1.3 -1.3 -1.3 -1.3 -1.3 -1.3 -1.3 -1.3 -1.3 -1.3 -1.3 -1.3 -1.3 -1.3 -1.3 -1.3 -1.3 -1.3 -1.3 -1.3 -1.3 -1.3 -1.3 -1.3 -1.3 -1.3 -1.3 -1.3 -1.3 -1.3 -1.3 -1.3 -1.3 -1.3 -1.3 -1.3 -1.3 -1.3 -1.3 -1.3 -1.3 -1.3 -1.3 -1.3 -1.3 -1.3 -1.3 -1.3 -1.3 -1.3 -1.3 -1.3 -1.3 -1.3 -1.3 -1.3 -1.3 -1.3 -1.3 -1.3 -1.3 -1.3 -1.3 -1.3 -1.3 -1.3 -1.3 -1.3 -1.3 -1.3 -1.3 -1.3 -1.3 -1.3 5.9 18.2 35.5 52.1 70.1 95.6 120.2 151.1 180.9 205.8 222.8 243.5 263.1 273.2 284.1 297.7 295 286 269.6 263.9 260.2 259.7 263.9 269.8 277 281.3 288.1 298.8 315.7 331.6 337.5 342.1 346.9 351.5 359.9 364.1 363.1 364.8 365.2 369 372.9 374.7 376.1 376.2 377.8 376.9 375.8 373.9 370.4 366.1 362.6 359.1 355.2 352.3 348.4 342.6 334.5 325.9 315.4 306.5 296 285.4 273.7 265.9 257.8 250.5 244.3 239.4 230.2 221.9 212.8 204.2 196.9 187.8 180.7 175.7 168.5 163.4 158.2 154.7 150.9 148.3 145.1 142.1 139.7 138.2 138.4 137.8 135 134.9 137.4 138.1 138.2 146 151.5 159.4 168.8 182.8 194.7 204.8 211.8 214.5 214 212 207.9 202.6 197.6 192.8 189.5 185.8 182.2 178.6 175.9
-1.3 -1.3 -1.3 -1.3 -1.3 -1.3 -1.3 -1.3 -1.3 -1.3 -1.3 -1.3 -1.3 -1.3 -1.3 -1.3 -1.3 -1.3 -1.3 -1.3 -1.3 -1.3 -1.3 -1.3 -1.3 -1.3 -1.3 -1.3 -1.3 -1.3 -1.3 -1.3 -1.3 -1.3 -1.3 -1.3 -1.3 -1.3 -1.3 -1.3 -1.3 -1.3 -1.3 -1.3 -1.3 -1.3 -1.3 -1.3 -1.3 -1.3 -1.3 -1.3 -1.3 -1.3 -1.3 -1.3 -1.3 -1.3 -1.3 -1.3 -1.3 -1.3 -1.3 -1.3 -1.3 -1.3 -1.3 -1.3 -1.3 -1.3 -1.3 -1.3 -1.3 -1.3 -1.3 -1.3 -1.3 -1.3 -1.3 -1.3 -1.3 -1.3 -1.3 -1.3 -1.3 -1.3 2.9 15.7 32.6 47.8 67 86.5 110.6 143.7 176.7 197.6 208.9 223 241.5 262 279.5 287.9 294 295.9 282.7 271.9 267.8 265.6 266.4 270.9 278.8 285 291.5 297.4 299.9 316.9 328.4 334.4 337 340.8 344.7 345.5 348.1 349.2 349.8 353.5 355.2 357.9 360.5 365.1 368.8 370.6 371.5 373.3 373.3 369 364 359.4 354.7 348.3 341.4 335.3 327.5 319.7 309.1 297.2 290.6 280.1 270.5 260.9 253.9 248.6 243.6 238.2 232.9 223.6 215.6 206.2 199.1 191.6 183.5 177.2 171.2 167.2 163 158.2 154.1 150.9 148.3 145.3 142.2 138.5 137 137 136.4 133.2 133.5 135.3 135.4 136.3 141 148.6 156.3 166.8 178.7 190.6 199.8 203.5 204.6 204.6 201.7 198.4 193.1 188.6 185 182.2 179.6 177.4 176.1 173.6
-1.3 -1.3 -1.3 -1.3 -1.3 -1.3 -1.3 -1.3 -1.3 -1.3 -1.3 -1.3 -1.3 -1.3 -1.3 -1.3 -1.3 -1.3 -1.3 -1.3 -1.3 -1.3 -1.3 -1.3 -1.3 -1.3 -1.3 -1.3 -1.3 -1.3 -1.3 -1.3 -1.3 -1.3 -1.3 -1.3 -1.3 -1.3 -1.3 -1.3 -1.3 -1.3 -1.3 -1.3 -1.3 -1.3 -1.3 -1.3 -1.3 -1.3 -1.3 -1.3 -1.3 -1.3 -1.3 -1.3 -1.3 -1.3 -1.3 -1.3 -1.3 -1.3 -1.3 -1.3 -1.3 -1.3 -1.3 -1.3 -1.3 -1.3 -1.3 -1.3 -1.3 -1.3 -1.3 -1.3 -1.3 -1.3 -1.3 -1.3 -1.3 -1.3 -1.3 -1.3 -1.3 1.6 7.3 35.5 54 68 76.2 99.8 126.5 159.4 189.5 202.7 213.3 226.1 243 263.4 280.2 289.7 294.4 295.4 278.3 273.5 271.3 271.1 272.5 278.9 284.3 290.1 296.7 302 307.2 315.6 324.5 330.8 333.4 335.9 336.3 336.4 335.5 335.7 337.1 339.6 343 345.4 350.2 356.4 362.5 364.9 369 374.3 377.9 373.2 363.8 357.8 352.1 342.3 333 323 313 304.2 292.3 285.3 276.4 268.2 257.1 250.3 247.3 241.2 236.6 230.7 224.2 216.8 207.6 200.3 193.1 186.5 178.9 172.7 168.5 165.5 162 157.8 154.1 151 148.4 144.9 141.7 137.6 135.3 135.1 133.7 131.2 132.4 133.7 134.7 134.7 138.5 147.1 154.2 164.7 174.5 185.6 192 193.3 194.4 194.5 191.4 189 185.3 180.6 176.7 175.1 172.7 172.2 171.7 170.1
-1.3 -1.3 -1.3 -1.3 -1.3 -1.3 -1.3 -1.3 -1.3 -1.3 -1.3 -1.3 -1.3 -1.3 -1.3 -1.3 -1.3 -1.3 -1.3 -1.3 -1.3 -1.3 -1.3 -1.3 -1.3 -1.3 -1.3 -1.3 -1.3 -1.3 -1.3 -1.3 -1.3 -1.3 -1.3 -1.3 -1.3 -1.3 -1.3 -1.3 -1.3 -1.3 -1.3 -1.3 -1.3 -1.3 -1.3 -1.3 -1.3 -1.3 -1.3 -1.3 -1.3 -1.3 -1.3 -1.3 -1.3 -1.3 -1.3 -1.3 -1.3 -1.3 -1.3 -1.3 -1.3 -1.3 -1.3 -1.3 -1.3 -1.3 -1.3 -1.3 -1.3 -1.3 -1.3 -1.3 -1.3 -1.3 -1.3 -1.3 -1.3 -1.3 -1.3 -1.3 0.4 3.9 36.2 56.8 65.5 81.1 88.9 112.6 146.8 176.7 197 205.2 217.3 232.7 246.9 264.5 276.7 287.1 293.7 287.9 277.4 274.2 274.1 275 277.5 285.6 291.2 296.1 300.2 305.3 308.5 315.1 322.5 327.6 330.9 330.6 327 325.2 324.2 324.4 324.6 325.3 328.1 333.2 340.7 348.2 354.5 359.9 365.7 372 375.1 375.6 363.6 355.4 346.6 334.6 322.7 310.5 299.8 288.6 280 272.9 264.3 257.6 248.8 244.3 240.3 235.7 230.4 223.4 215.9 208.3 201.1 193.8 187.4 181.5 175 168.9 165.2 163.3 160 156.4 153.2 150.3 147 143.9 140.7 137 134.2 132.8 131.7 130 132.8 134 134.3 133.9 139.2 146.7 153.2 163.4 171 179.5 181.2 182.8 182.8 182.1 180.9 178 174.4 170.2 168.2 166.8 165.8 165.8 166.1 164.4
-1.3 -1.3 -1.3 -1.3 -1.3 -1.3 -1.3 -1.3 -1.3 -1.3 -1.3 -1.3 -1.3 -1.3 -1.3 -1.3 -1.3 -1.3 -1.3 -1.3 -1.3 -1.3 -1.3 -1.3 -1.3 -1.3 -1.3 -1.3 -1.3 -1.3 -1.3 -1.3 -1.3 -1.3 -1.3 -1.3 -1.3 -1.3 -1.3 -1.3 -1.3 -1.3 -1.3 -1.3 -1.3 -1.3 -1.3 -1.3 -1.3 -1.3 -1.3 -1.3 -1.3 -1.3 -1.3 -1.3 -1.3 -1.3 -1.3 -1.3 -1.3 -1.3 -1.3 -1.3 -1.3 -1.3 -1.3 -1.3 -1.3 -1.3 -1.3 -1.3 -1.3 -1.3 -1.3 -1.3 -1.3 -1.3 -1.3 -1.3 -1.3 -1.3 -1.3 -1.3 2.7 25.9 53.2 77.4 89.5 100.9 115.4 133.5 150.9 181.3 198.1 212 222.8 241.4 253.3 265.9 281.1 285.9 291.7 279.7 275.7 273.8 275.4 279.6 283.2 291.3 295.7 299.5 303.9 306.5 311.3 314.4 321 323.9 325 322.9 318.9 316 313.4 312 312.7 316.2 320.3 325.5 333.9 340.6 347.9 355.4 362.1 369.4 374 370.6 359.4 349.8 338.7 326.5 313.6 296.8 287.6 276.9 268.9 260.7 255.9 250.1 242.3 238.1 233.2 227.8 220.7 214.7 207 201 195.1 189.4 182.8 176.8 171.5 165.4 162.9 160.6 157.1 154 151.1 148.9 146.1 143 140 136.6 133.6 131 129.8 130.1 131.7 132.2 134.1 136.5 142.6 149.2 153.2 159.9 166 169.8 172.5 172.1 172.5 171.1 170.2 167.6 165.4 163.3 161.8 161.4 160.2 160.5 159.7 158.8
-1.3 -1.3 -1.3 -1.3 -1.3 -1.3 -1.3 -1.3 -1.3 -1.3 -1.3 -1.3 -1.3 -1.3 -1.3 -1.3 -1.3 -1.3 -1.3 -1.3 -1.3 -1.3 -1.3 -1.3 -1.3 -1.3 -1.3 -1.3 -1.3 -1.3 -1.3 -1.3 -1.3 -1.3 -1.3 -1.3 -1.3 -1.3 -1.3 -1.3 -1.3 -1.3 -1.3 -1.3 -1.3 -1.3 -1.3 -1.3 -1.3 -1.3 -1.3 -1.3 -1.3 -1.3 -1.3 -1.3 -1.3 -1.3 -1.3 -1.3 -1.3 -1.3 -1.3 -1.3 -1.3 -1.3 -1.3 -1.3 -1.3 -1.3 -1.3 -1.3 -1.3 -1.3 -1.3 -1.3 -1.3 -1.3 -1.3 -1.3 -1.3 -1.3 -1.3 2 10.3 49.1 70.1 92.9 118.8 133.3 145.8 164.8 175.3 183.5 201.9 215.4 224.3 249.4 261 267.1 284.3 288.4 284.7 277.6 274 273.3 277.2 282.1 286.7 293.8 298.9 302.9 306.4 308.6 310.7 311.5 315.4 317.9 316.8 312.8 309.3 306 301.6 300 300.9 306.4 313.8 320 327.6 335.8 343.6 351.4 358.7 368.8 375.6 361.5 352.5 341.7 328.6 318 302.4 287.7 276.7 264.7 257.2 251.4 247.9 242.2 235.4 229.5 224.1 218.8 211 205 200 195.3 190.9 184.7 178.7 172.9 167.5 163.3 160.6 158.5 155.4 152.2 149.7 147.3 144.5 141.6 138 134.5 131.9 129.9 129.5 130.2 133.3 134.8 136.8 140.3 144 148.8 153 157 159.5 163.3 165.5 166.6 166.2 165.8 164.5 162.4 160.5 158.7 157.1 156.5 156 155.6 155.1 154.6
-1.3 -1.3 -1.3 -1.3 -1.3 -1.3 -1.3 -1.3 -1.3 -1.3 -1.3 -1.3 -1.3 -1.3 -1.3 -1.3 -1.3 -1.3 -1.3 -1.3 -1.3 -1.3 -1.3 -1.3 -1.3 -1.3 -1.3 -1.3 -1.3 -1.3 -1.3 -1.3 -1.3 -1.3 -1.3 -1.3 -1.3 -1.3 -1.3 -1.3 -1.3 -1.3 -1.3 -1.3 -1.3 -1.3 -1.3 -1.3 -1.3 -1.3 -1.3 -1.3 -1.3 -1.3 -1.3 -1.3 -1.3 -1.3 -1.3 -1.3 -1.3 -1.3 -1.3 -1.3 -1.3 -1.3 -1.3 -1.3 -1.3 -1.3 -1.3 -1.3 12.4 9.6 -1.3 -1.3 -1.3 -1.3 -1.3 -1.3 -1.3 -1.3 1.3 7.1 39.1 60.1 81.8 113.7 144.3 171.5 174.9 177.4 182.4 193.5 201.1 215.4 228.4 248.3 264.1 269.8 280.7 285.7 278.9 274.5 272.3 272.5 278.3 283.7 289.5 295.8 300.9 304.2 306.7 307.9 308.5 308.3 309 309.3 308.3 303.9 300 294.9 292.7 292.2 293.5 297.8 305.6 313.1 322.9 331.4 340 347.1 354.9 360 358.4 350.4 341.1 332.3 320.4 310.1 294.6 279.9 270.5 256.3 246.4 242.3 238.4 233.6 226.8 220.1 214.9 209.4 203.1 198.7 194.1 190.5 186.3 180.4 174.3 169.1 164.5 162.1 158.5 156.7 153.7 151.8 148.9 146.3 143.5 141.3 137.6 133.4 130.3 129 128.9 130.9 133.1 137 138.6 140.5 143 147.8 152 155.3 157.5 158.9 159.3 161.7 161.4 161 159.5 158 156.6 154.9 153.5 152.8 152.1 151.7 151.3 150.9
-1.3 -1.3 -1.3 -1.3 -1.3 -1.3 -1.3 -1.3 -1.3 -1.3 -1.3 -1.3 -1.3 -1.3 -1.3 -1.3 -1.3 -1.3 -1.3 -1.3 -1.3 -1.3 -1.3 -1.3 -1.3 -1.3 -1.3 -1.3 -1.3 -1.3 -1.3 -1.3 -1.3 -1.3 -1.3 -1.3 -1.3 -1.3 -1.3 -1.3 -1.3 -1.3 -1.3 -1.3 -1.3 -1.3 -1.3 -1.3 -1.3 -1.3 -1.3 -1.3 -1.3 -1.3 -1.3 -1.3 -1.3 -1.3 -1.3 -1.3 -1.3 -1.3 -1.3 -1.3 -1.3 -1.3 -1.3 -1.3 -1.3 -1.3 -1.3 -1.3 12.8 14.6 17.8 8.9 -1.3 -1.3 -1.3 -1.3 -1.3 1.2 4.3 31.4 52.2 74.6 98.5 127.7 156.6 174.5 180.4 183.9 193 204.6 213.7 219.3 228.3 242.2 255.4 268.8 283.8 278.6 274.3 271.4 270.3 272.7 278.2 283.9 289.8 297.6 303.2 305.9 307.3 306.1 305.3 303.9 302.9 302.1 299.2 294.6 289.1 286.4 285.1 284.6 287.7 293.2 300.4 308.4 318.2 326.6 334.3 340.8 348.8 353 350.2 344.4 335.4 325.3 313.6 302.1 286.3 277.2 266.3 252.2 241.5 231.2 229.7 226.5 219.1 211.8 207.2 202 197.9 193.6 189.6 185.8 182 177.2 172.2 165.8 162.4 159.7 156.8 155.4 153.2 150.3 148.6 146.2 143.9 140.9 136.8 132.4 129.7 128.3 129.2 130.7 133.4 136.3 138.9 141.5 145.5 148 151.7 153 154.6 155.7 155.9 157.1 157.1 156.9 156.4 155.4 153.6 152.2 151.1 150 148.9 148.2 148.1 148
-1.3 -1.3 -1.3 -1.3 -1.3 -1.3 -1.3 -1.3 -1.3 -1.3 -1.3 -1.3 -1.3 -1.3 -1.3 -1.3 -1.3 -1.3 -1.3 -1.3 -1.3 -1.3 -1.3 -1.3 -1.3 -1.3 -1.3 -1.3 -1.3 -1.3 -1.3 -1.3 -1.3 -1.3 -1.3 -1.3 -1.3 -1.3 -1.3 -1.3 -1.3 -1.3 -1.3 -1.3 -1.3 -1.3 -1.3 -1.3 -1.3 -1.3 -1.3 -1.3 -1.3 -1.3 -1.3 -1.3 -1.3 -1.3 -1.3 -1.3 -1.3 -1.3 -1.3 -1.3 -1.3 -1.3 -1.3 -1.3 35.5 -1.3 -1.3 26.6 28.8 27.2 24.2 29.1 17.4 9.6 1 0.8 1.9 22.6 37.4 49 72.7 94.6 118.2 142.9 165.2 176.3 183.7 193.8 206.2 217.2 223.9 230.4 234.1 239.7 248.1 259.1 274.7 270.7 269.1 268 267.9 271 277.6 283.7 290.2 296.1 303 306.4 305.7 303.3 301 299.2 296.7 293.7 290 285.5 281.1 277.7 277 277.9 282.8 288.7 295.1 303.5 314 322.5 328.5 333.9 339.6 342.2 340.6 335.6 326.8 316.7 303.4 294.9 281.3 271.9 263.6 248.6 238.1 231.1 217.8 211.4 210.1 205.8 201.4 197.6 193.5 189.9 186.1 182.5 178.9 173 168.7 164.4 160.2 157.2 154 152.5 151.1 149.2 147.2 145.1 143.8 140.5 136.6 130.3 128.2 127.8 128.5 130.7 132.5 134.6 138.5 139.9 144.6 147.6 149.5 151.1 151.7 151.9 153 153.9 153.7 153.8 153.7 153.1 151.3 149.8 149.1 148 146.9 145.8 144.7 144.3
-1.3 -1.3 -1.3 -1.3 -1.3 -1.3 -1.3 -1.3 -1.3 -1.3 -1.3 -1.3 -1.3 -1.3 -1.3 -1.3 -1.3 -1.3 -1.3 -1.3 -1.3 -1.3 -1.3 -1.3 -1.3 -1.3 -1.3 -1.3 -1.3 -1.3 -1.3 -1.3 -1.3 -1.3 -1.3 -1.3 -1.3 -1.3 -1.3 -1.3 -1.3 -1.3 -1.3 -1.3 -1.3 -1.3 -1.3 -1.3 -1.3 -1.3 -1.3 -1.3 -1.3 -1.3 -1.3 -1.3 -1.3 -1.3 -1.3 -1.3 -1.3 -1.3 -1.3 -1.3 -1.3 -1.3 -1.3 -1.3 72.2 72 70.2 62.5 64.8 61.9 50 66.5 42.4 43.1 32.6 31.6 34.9 47.9 65.7 78.9 85.6 111.6 133.7 152.1 167.8 178.5 187.4 202 215.2 227.7 235.3 241.3 243.3 244 247.3 252.1 260.2 264.1 264.7 264.6 266.1 268.9 276.5 282 289 294.5 299.2 302.2 301.8 299.5 295.6 291.9 288.6 285.8 282.3 276.3 273.5 270.6 269 271.6 278.5 284.1 289.9 298.1 309.4 319.4 323.2 325.8 329.6 330.5 328.5 323.1 315.6 305.4 297 288.3 278.1 269.2 259.7 246 237.3 229 220.1 208.8 203.3 199.8 196.9 194.3 191.3 187.2 184.2 180.9 176.6 173.8 169.1 165 161.3 157.9 154.4 151 147.9 145.8 144.4 142.4 141.9 139.7 135.9 129.4 127.9 127.6 127.2 129.3 133.1 135.4 137.6 140.9 142.3 143.8 147.9 149.1 149.8 150.1 151 152.3 153 153.3 152.8 152 150.5 148.9 147.2 146.1 145 143.9 142.5 141.2
-1.3 -1.3 -1.3 -1.3 -1.3 -1.3 -1.3 -1.3 -1.3 -1.3 -1.3 -1.3 -1.3 -1.3 -1.3 -1.3 -1.3 -1.3 -1.3 -1.3 -1.3 -1.3 -1.3 -1.3 -1.3 -1.3 -1.3 -1.3 -1.3 -1.3 -1.3 -1.3 -1.3 -1.3 -1.3 -1.3 -1.3 -1.3 -1.3 -1.3 -1.3 -1.3 -1.3 -1.3 -1.3 -1.3 -1.3 -1.3 -1.3 -1.3 -1.3 -1.3 -1.3 -1.3 -1.3 -1.3 -1.3 -1.3 -1.3 -1.3 -1.3 -1.3 -1.3 -1.3 -1.3 -1.3 -1.3 121.8 71.7 72.3 77.3 87.5 83.9 87.1 86.7 70.7 71.4 70.8 68.9 72 77 84 91.3 106.5 115.9 118.7 138.2 154.3 166.8 180.1 191.2 206.9 219.8 233.4 241.3 246.2 249.8 250.9 251 252.9 256.6 260.2 262 262.5 265.5 269.3 275.4 280 285.4 289.3 294.1 294.6 294 291.8 286.5 284.4 281.3 277.3 275.2 268.6 265.3 263.6 263.3 266.8 274.2 280.3 284.3 291.1 303 310.7 314.6 315.9 318.8 318.2 315.9 311.3 304.2 297.1 289.4 281.9 273.3 264.6 255.9 243.3 234.6 228.6 221.8 211.9 203.2 199.3 195.9 191.3 189.8 186.3 184.8 181.9 180 175.6 171.2 165.9 162.7 159.4 153.9 150.6 148.2 145.5 142.2 140 138.5 137.6 134.8 129.8 128.3 127.9 126.9 128.5 132.1 134.8 137 138.7 139.3 142.3 146 147 148.1 149.7 150.1 151.1 152 152.1 151.6 150.9 149.4 148 145.9 144.1 143 141.7 139.8 138.7
-1.3 -1.3 -1.3 -1.3 -1.3 -1.3 -1.3 -1.3 -1.3 -1.3 -1.3 -1.3 -1.3 -1.3 -1.3 -1.3 -1.3 -1.3 -1.3 -1.3 -1.3 -1.3 -1.3 -1.3 -1.3 -1.3 -1.3 -1.3 -1.3 -1.3 -1.3 -1.3 -1.3 -1.3 -1.3 -1.3 -1.3 -1.3 -1.3 -1.3 -1.3 -1.3 -1.3 -1.3 -1.3 -1.3 -1.3 -1.3 -1.3 -1.3 -1.3 -1.3 -1.3 -1.3 -1.3 -1.3 -1.3 -1.3 -1.3 -1.3 -1.3 -1.3 -1.3 -1.3 -1.3 -1.3 -1.3 125.4 98.6 99 102.9 96 92.9 98.1 97.1 85.2 97.9 101.2 99.3 100.2 107.2 112.5 133.7 136.4 139.9 142.9 149.1 159.2 169.7 185.1 198.6 213.8 224.8 235.4 243.2 248.1 254.2 257.6 256.3 255.4 257 259.1 261 263.2 267.2 271.2 273.8 276.6 280.5 283.4 285.6 285.8 283.6 280.7 279 277.9 274.1 270.1 266 261.7 258.3 252.5 257.6 262.6 268 273.6 277.7 284.3 292.9 300.7 304.5 305.5 305.3 304.7 303.6 299.2 294.6 289.4 283 276.6 269 260.2 250.4 239.9 233.1 227.6 220.9 211.7 205.3 201.1 197.4 195 191.2 187.9 185.9 183.5 180.7 176.2 170.7 166.3 163.1 159.5 156.2 152.6 149 146.6 142.2 139.2 137.7 135.8 133.2 131.5 129.2 128.1 127.2 127.6 131.8 133.2 136.3 136.8 138 141.8 143.5 145 147.8 148.3 149.7 150.2 150.9 150.7 150.4 149.8 148.4 147.2 145 142.7 140.8 138.9 138 138.1
-1.3 -1.3 -1.3 -1.3 -1.3 -1.3 -1.3 -1.3 -1.3 -1.3 -1.3 -1.3 -1.3 -1.3 -1.3 -1.3 -1.3 -1.3 -1.3 -1.3 -1.3 -1.3 -1.3 -1.3 -1.3 -1.3 -1.3 -1.3 -1.3 -1.3 -1.3 -1.3 -1.3 -1.3 -1.3 -1.3 -1.3 -1.3 -1.3 -1.3 -1.3 -1.3 -1.3 -1.3 -1.3 -1.3 -1.3 -1.3 -1.3 -1.3 -1.3 -1.3 -1.3 -1.3 -1.3 -1.3 -1.3 -1.3 -1.3 -1.3 -1.3 -1.3 -1.3 -1.3 -1.3 -1.3 77.3 118.6 118.7 113.3 107 101.8 102 105.7 105.3 101.3 106.2 111.9 116.9 118.7 122.5 129.8 141.7 143.6 147.3 151.4 163 169.1 181.4 195.9 210.5 223 232.1 240.1 246.9 251.9 254.6 256.8 257 255.6 257.1 258.4 260.8 263.5 269.3 273.8 273.7 273.5 275 276.5 277.4 276.9 276.2 273.6 272.2 269.6 266.7 262.7 259.5 251.7 245.2 245.5 256.1 260.5 264.9 268.5 271.1 278.5 284.7 290.9 294.1 295.5 295.3 294.6 293.3 290.4 287.2 283.2 277.5 270.8 262.1 251.7 242.9 235.2 231.1 225 218.4 213.5 207.3 203.9 200.6 197.6 193.7 189.5 186.4 183.1 180.2 175.7 170.2 166.5 162.6 159.1 155.6 152.6 149.8 147.3 144.7 142.3 137 134.4 132.9 130.9 129 127.7 127 127.4 131.3 133.6 136 136.8 139 140.9 141 143.6 144.7 145 148.5 149.4 149.3 149.5 149.2 148.6 147.5 146.3 144.1 141.4 138.5 137.3 137 137.1
-1.3 -1.3 -1.3 -1.3 -1.3 -1.3 -1.3 -1.3 -1.3 -1.3 -1.3 -1.3 -1.3 -1.3 -1.3 -1.3 -1.3 -1.3 -1.3 -1.3 -1.3 -1.3 -1.3 -1.3 -1.3 -1.3 -1.3 -1.3 -1.3 -1.3 -1.3 -1.3 -1.3 -1.3 -1.3 -1.3 -1.3 -1.3 -1.3 -1.3 -1.3 -1.3 -1.3 -1.3 -1.3 -1.3 -1.3 -1.3 -1.3 -1.3 -1.3 -1.3 -1.3 -1.3 -1.3 -1.3 -1.3 -1.3 -1.3 -1.3 -1.3 -1.3 -1.3 -1.3 -1.3 56.4 92.5 129.9 127.8 117.3 113 110.3 109.1 112 111.3 109.2 112.3 119.6 123 126.5 131.2 136.7 145.7 148.8 152.3 162.6 174.9 181.9 195.4 212.8 227.4 239.8 245.5 251.7 254.5 255 254.4 254.5 254.8 254.1 255.5 256.9 258.6 263.8 270.8 276.3 273.4 269.7 268.5 268.7 270.6 270.5 268.3 267.3 265.7 262.1 259 254.4 249.8 241.9 231.8 245.8 253.8 258 261.3 263.9 266.2 269.9 275.3 279.6 283.3 284.5 284.9 284.8 284 282.2 279.9 275 265.2 256 246.1 240.3 239.1 233.9 229.5 226.3 222.6 216.7 213 209.7 204.6 200.5 196 191.2 187.7 183.1 179.6 176.3 171.3 164.9 161.2 157.9 154.7 152 149.6 146.9 144.4 142.1 138.7 134 131.9 129.9 128 127.1 126.3 128.6 132 134.7 136 137.5 138.6 138.5 140.2 142.7 143.2 144.1 146.7 147.4 146.8 146.7 146.7 146.8 146.2 145.4 141.7 139.2 136.6 136 136 135.7
-1.3 -1.3 -1.3 -1.3 -1.3 -1.3 -1.3 -1.3 -1.3 -1.3 -1.3 -1.3 -1.3 -1.3 -1.3 -1.3 -1.3 -1.3 -1.3 -1.3 -1.3 -1.3 -1.3 -1.3 -1.3 -1.3 -1.3 -1.3 -1.3 -1.3 -1.3 -1.3 -1.3 -1.3 -1.3 -1.3 -1.3 -1.3 -1.3 -1.3 -1.3 -1.3 -1.3 -1.3 -1.3 -1.3 -1.3 -1.3 -1.3 -1.3 -1.3 -1.3 -1.3 -1.3 -1.3 -1.3 -1.3 -1.3 -1.3 -1.3 -1.3 -1.3 -1.3 -1.3 45.5 80.5 109.6 136.5 128.8 116.1 119.5 116.2 115.2 117.4 117 115.6 119 122.7 127.3 132.2 137.9 143.8 150 155 162.8 172.6 183.8 195.2 210.4 225.9 243 255.3 256.9 258.3 258.4 256.7 254.8 252.2 251.2 249.7 251 253.8 255.7 262.4 271.3 279 272.7 267.2 261.9 262.4 262 261.6 261.3 259 256.4 253.6 250.3 247.5 242.9 230.7 228.7 241.8 248.4 253.4 256.2 258.4 260.2 262.2 266.5 270.6 273.4 274.5 275.4 275.3 275.4 274.5 272.1 255.9 253.2 255.9 254.6 253.7 249.2 241.7 234 229.1 224.9 221.3 217.5 214.8 209 203.1 197.4 192 188 184.1 180 176.5 171.7 164.1 159.7 156 153 150.9 148.9 146.3 144.4 142.1 139.2 136.6 133.2 130.3 127.4 126.1 126 129.6 132.3 135.5 136.7 137.7 139.2 138.5 139.8 140.2 142.9 143.9 144.9 145.1 143.8 144.1 144 144.2 143.8 142.5 139.7 137.1 134.9 134.5 133.7 134.3
-1.3 -1.3 -1.3 -1.3 -1.3 -1.3 -1.3 -1.3 -1.3 -1.3 -1.3 -1.3 -1.3 -1.3 -1.3 -1.3 -1.3 -1.3 -1.3 -1.3 -1.3 -1.3 -1.3 -1.3 -1.3 -1.3 -1.3 -1.3 -1.3 -1.3 -1.3 -1.3 -1.3 -1.3 -1.3 -1.3 -1.3 -1.3 -1.3 -1.3 -1.3 -1.3 -1.3 -1.3 -1.3 -1.3 -1.3 -1.3 -1.3 -1.3 -1.3 -1.3 -1.3 -1.3 -1.3 -1.3 -1.3 -1.3 -1.3 -1.3 -1.3 -1.3 -1.3 0.4 33.8 72 101.2 136 127.6 112.9 120 119 119.3 122.1 122.3 123.7 124.9 128.5 132.5 137.8 142.9 148.3 155.2 162.9 170.1 179.6 193.3 205.6 218.8 234.4 247.1 256.2 259.7 257.6 255.2 256.2 250.4 247.4 245.8 243.2 244.6 247.9 250.1 258.8 267 272.2 270.7 264.9 256.8 253 253.5 254.1 252.7 251.4 248.4 245.6 243 239.5 235.5 223.3 222.7 235 243.1 248.1 251 252.6 254 256.2 258.1 261 263 264.1 265.4 265.9 266.1 266.9 260.8 264.4 270.8 270.1 265.8 261 254 247.5 240.4 235.3 231.5 229.1 227.9 224.8 220.4 214.7 203.9 196 189.7 186 180.8 175.9 171.4 164.6 158.6 154.6 151.3 149.5 147.7 145.5 143.2 140.7 138.8 135.3 132.9 130.9 126.6 125.4 125.8 128.5 131.8 134.9 136.8 138.1 138.9 137.8 138.5 138.2 139.3 139.7 141.8 142.6 141 141.1 141.5 141.4 140.7 139.5 137.6 135.1 133.6 132.5 130.9 133.3
-1.3 -1.3 -1.3 -1.3 -1.3 -1.3 -1.3 -1.3 -1.3 -1.3 -1.3 -1.3 -1.3 -1.3 -1.3 -1.3 -1.3 -1.3 -1.3 -1.3 -1.3 -1.3 -1.3 -1.3 -1.3 -1.3 -1.3 -1.3 -1.3 -1.3 -1.3 -1.3 -1.3 -1.3 -1.3 -1.3 -1.3 -1.3 -1.3 -1.3 -1.3 -1.3 -1.3 -1.3 -1.3 -1.3 -1.3 -1.3 -1.3 -1.3 -1.3 -1.3 -1.3 -1.3 -1.3 -1.3 -1.3 -1.3 -1.3 -1.3 -1.3 -1.3 -1.3 0.6 33.7 69.7 89.3 120.6 121.4 114.6 116.2 122 123.6 126.3 126.8 129.2 130.1 133.4 138.5 142.7 148.1 153.6 162.6 168.8 175.3 186.1 198.3 210.1 225.7 236.7 245.6 247.8 245.8 242 239.2 236.9 235.1 232.8 236.2 234.4 236.1 239.5 244.3 250.4 258.9 266.6 267 261.5 253.6 245.1 244.1 244.8 244.6 242.5 240.3 238.1 234.5 231.2 226 215.1 217.3 228.1 236.6 241.5 245.1 246.2 247.2 249.1 251.1 252.4 252.6 253.8 255 255.9 257.2 255.3 258.8 272.4 277.3 282.5 277.9 268.5 261.1 255.4 248.3 243.4 241.5 239 238 238 234.8 230.2 218.2 207.1 197.9 190.5 183.2 177 171.3 164.1 158.4 153.6 150.7 147.7 146.1 144.1 141.9 139.3 137.1 134.3 132.1 130.5 125.9 124.9 125.5 126 128.9 133.1 135.1 136 138.3 137.6 137.6 137.5 136.6 137.3 139 139.7 138.4 138.5 139.7 138.3 137.9 136.2 135 133.4 131.3 131 130.9 131.8
-1.3 -1.3 -1.3 -1.3 -1.3 -1.3 -1.3 -1.3 -1.3 -1.3 -1.3 -1.3 -1.3 -1.3 -1.3 -1.3 -1.3 -1.3 -1.3 -1.3 -1.3 -1.3 -1.3 -1.3 -1.3 -1.3 -1.3 -1.3 -1.3 -1.3 -1.3 -1.3 -1.3 -1.3 -1.3 -1.3 -1.3 -1.3 -1.3 -1.3 -1.3 -1.3 -1.3 -1.3 -1.3 -1.3 -1.3 -1.3 -1.3 -1.3 -1.3 -1.3 -1.3 -1.3 -1.3 -1.3 -1.3 -1.3 -1.3 -1.3 -1.3 -1.3 -1.3 1.4 45.3 67.4 79.8 100.1 108.2 110.2 112.8 126.4 128.7 130.1 130.7 133.5 134.8 140 143.8 149.2 153.3 159.1 168.2 173.4 181 191.4 203.8 216.8 229.6 240.6 244 243 240.5 237.2 234.4 231.7 230.2 227.5 224.1 221.9 226 232.5 237.2 241.2 250.6 258.9 262.9 259.4 251 240.4 235.5 235.7 236.2 233.7 232.9 230.5 227.1 223.9 217.7 208.6 212.7 223.2 229.1 235 237.5 238.8 240.2 241.8 242.3 243.4 243.3 244.6 244.2 245.3 247.6 256.8 269.8 278.9 286.7 290.6 287.5 283.9 274.6 268.5 260.6 255.7 252.1 252.6 252 252 252 246 234.6 217.8 206.7 193.9 188.1 179.5 172.8 165.7 159.1 153.1 148.7 145.5 144.6 143.6 141.4 138.8 135.5 133.7 131.1 129.4 128 124.6 124.2 124.9 126.8 131.4 133.4 134.6 135.6 136.1 135.8 136.5 136.5 135.6 136.7 137.2 136.7 137.3 136 134.8 134.6 133.1 131.2 130.3 130.5 130.8 130.7 131.8
-1.3 -1.3 -1.3 -1.3 -1.3 -1.3 -1.3 -1.3 -1.3 -1.3 -1.3 -1.3 -1.3 -1.3 -1.3 -1.3 -1.3 -1.3 -1.3 -1.3 -1.3 -1.3 -1.3 -1.3 -1.3 -1.3 -1.3 -1.3 -1.3 -1.3 -1.3 -1.3 -1.3 -1.3 -1.3 -1.3 -1.3 -1.3 -1.3 -1.3 -1.3 -1.3 -1.3 -1.3 -1.3 -1.3 -1.3 -1.3 -1.3 -1.3 -1.3 -1.3 -1.3 -1.3 -1.3 -1.3 -1.3 -1.3 -1.3 -1.3 -1.3 -1.3 -1.3 16 54.1 58 74.5 86.5 96.1 105.7 122.1 133.7 134.7 134.3 135.4 138 140.5 146.4 150 155.1 158.6 165.7 173.7 178.6 185.1 196.8 211 220.7 230.7 239.2 238.8 237 234.8 232.5 228.9 227.2 225.8 221.2 217 216.7 217.8 218.5 223.5 232.6 241.6 251.3 261.1 256.9 247.9 236.9 229.5 230 229.5 229.3 226.3 224.3 220.8 216 210.4 204.6 206.5 215.9 221.3 226.7 231.3 233.1 232.8 232.7 232.9 232.4 233.3 235.4 239.2 244.5 252 264.3 273.5 279.8 286.4 291.4 295.8 288.6 280.9 277.1 274.2 271.2 268 269.7 269.3 270.5 269.6 262.9 250.4 230.6 218.4 205.9 193.7 184.1 175.2 166.7 160.5 154.2 148.1 144.6 143 142 140.9 137.4 134.6 131.3 129.6 128.6 127.2 123.9 124.5 124.5 126.3 130 132 133.1 135 134.5 135.2 135.3 135.5 135.3 135.4 135.6 135.1 135.2 134.4 133.7 132.5 131.3 129.6 129.9 130 130.2 130.3 130.7
-1.3 -1.3 -1.3 -1.3 -1.3 -1.3 -1.3 -1.3 -1.3 -1.3 -1.3 -1.3 -1.3 -1.3 -1.3 -1.3 -1.3 -1.3 -1.3 -1.3 -1.3 -1.3 -1.3 -1.3 -1.3 -1.3 -1.3 -1.3 -1.3 -1.3 -1.3 -1.3 -1.3 -1.3 -1.3 -1.3 -1.3 -1.3 -1.3 -1.3 -1.3 -1.3 -1.3 -1.3 -1.3 -1.3 -1.3 -1.3 -1.3 -1.3 -1.3 -1.3 -1.3 -1.3 -1.3 -1.3 -1.3 -1.3 -1.3 -1.3 -1.3 -1.3 1 32.9 51.2 62.4 73.3 85.4 99.6 115.6 131.9 142.8 141.6 139.3 140.4 142.5 145.5 149.5 153.3 157.8 164.7 170.3 176.8 181.8 186.6 198.3 211.7 220.9 230.6 234.1 234 232.3 229.8 226.9 224.1 221.5 217.6 215.3 211.2 211.1 213 213.9 215.3 220.1 231.4 243.5 252 240.8 238.9 233.3 224.6 221.8 222.2 222.1 221.3 218.4 214.6 210 203 198 201.9 208.8 214.2 219.8 224.9 226.3 225.9 225.6 224.7 225.2 228 234.8 240 249.3 258 263.5 269.2 274.6 280.9 287.9 289.2 283.4 279.6 280.2 281.5 282.1 283.6 285.4 287.5 288.1 285.6 279 267 248.7 228.1 215.5 201.3 190 179.1 169.5 161.8 153.7 147.3 143.6 141.6 140.3 139.6 137.4 135.2 130.8 126.5 125.5 127 124.6 123.7 124.2 125.8 128.5 131.4 132.4 134.4 133.2 134.1 134.4 134.6 135 134.5 133.5 133.2 133.5 132.4 131.7 130.8 129.7 128.7 129.2 129.5 129.8 129.6 129.8
-1.3 -1.3 -1.3 -1.3 -1.3 -1.3 -1.3 -1.3 -1.3 -1.3 -1.3 -1.3 -1.3 -1.3 -1.3 -1.3 -1.3 -1.3 -1.3 -1.3 -1.3 -1.3 -1.3 -1.3 -1.3 -1.3 -1.3 -1.3 -1.3 -1.3 -1.3 -1.3 -1.3 -1.3 -1.3 -1.3 -1.3 -1.3 -1.3 -1.3 -1.3 -1.3 -1.3 -1.3 -1.3 -1.3 -1.3 -1.3 -1.3 -1.3 -1.3 -1.3 -1.3 -1.3 -1.3 -1.3 -1.3 -1.3 -1.3 -1.3 -1.3 -1.3 15.3 40.8 55.3 61.5 73.7 85.9 101.8 125.2 140 156.1 153.6 146.4 146.6 147.5 150.7 153.4 157.4 161 166.6 173.2 177.7 182.9 188.4 198.5 213.8 219.3 227 228.9 228.6 226.5 223.9 219.2 217.1 213.2 211.3 209.1 206.5 206.6 208.3 209.8 210.7 211.5 215 225.1 231.7 231.9 231.9 230.5 222.3 215.8 214 215.1 212.8 211.5 207.2 201.6 197.2 193.1 196.8 201.6 207.8 211.3 217.2 218.1 218.4 218.3 217.9 219.7 226.6 232.8 248 251.5 252.1 256.7 259.7 265.1 270.4 275.6 278.7 279.4 281.1 283.4 286.3 289.4 293.9 298 301.7 301.6 297.8 288.8 275.2 257.2 232.6 219.5 206.5 193.3 182.9 172.9 163 153.1 147.2 143 140.5 139.5 139.1 138.4 135.6 132 126 124 123.2 123.5 123.9 125.6 126.8 129.1 131 131.2 133.7 133 133.2 133.6 134.1 134.5 133 132.4 131.9 131.5 130.6 130.1 129.1 128.2 128.6 129.2 129.4 129.2 129 129.6
-1.3 -1.3 -1.3 -1.3 -1.3 -1.3 -1.3 -1.3 -1.3 -1.3 -1.3 -1.3 -1.3 -1.3 -1.3 -1.3 -1.3 -1.3 -1.3 -1.3 -1.3 -1.3 -1.3 -1.3 -1.3 -1.3 -1.3 -1.3 -1.3 -1.3 -1.3 -1.3 -1.3 -1.3 -1.3 -1.3 -1.3 -1.3 -1.3 -1.3 -1.3 -1.3 -1.3 -1.3 -1.3 -1.3 -1.3 -1.3 -1.3 -1.3 -1.3 -1.3 -1.3 -1.3 -1.3 -1.3 -1.3 -1.3 -1.3 -1.3 -1.3 3.7 28.9 50.5 55.3 62.4 74.9 87 105.1 131.3 145.5 160.2 163.4 161.4 154.2 151.5 154.2 157.1 160.9 164.3 167.8 172.7 178.9 184.6 189.2 197.4 212.6 217.5 221.5 222.7 222.7 220.2 216.5 211.7 208.6 206.9 205.2 203 202 203.7 204.4 205.7 206.6 207.7 210.2 213.9 219.5 224.1 225.5 226.4 220.9 213.5 207.8 203.8 202.6 203.3 200.8 197.6 192.1 189 193.1 195.9 200.5 205 210.2 211.9 211.4 212 213.4 218.5 224 231.4 237.7 242.2 244.6 247.7 251.3 257.1 263.6 268.9 272.7 277.4 282.4 286.7 290.4 296.3 301.9 310.1 311.7 310.7 306.6 296.2 281.5 262.8 237.3 224 210 196.9 183.4 175.1 161.6 154.3 146.9 142.1 139.1 138.8 139.6 139.2 135.5 131.8 126.9 122.8 122.1 124.5 124.6 125.8 127.6 129.1 130.1 130.7 131.5 133.1 132.5 132.9 133.2 133.5 132.4 131.9 130.9 129.6 128.7 127.9 127.2 126.9 127.8 128.1 128.5 128.6 128.5 129
-1.3 -1.3 -1.3 -1.3 -1.3 -1.3 -1.3 -1.3 -1.3 -1.3 -1.3 -1.3 -1.3 -1.3 -1.3 -1.3 -1.3 -1.3 -1.3 -1.3 -1.3 -1.3 -1.3 -1.3 -1.3 -1.3 -1.3 -1.3 -1.3 -1.3 -1.3 -1.3 -1.3 -1.3 -1.3 -1.3 -1.3 -1.3 -1.3 -1.3 -1.3 -1.3 -1.3 -1.3 -1.3 -1.3 -1.3 -1.3 -1.3 -1.3 -1.3 -1.3 -1.3 -1.3 -1.3 -1.3 -1.3 -1.3 -1.3 -1.3 1 23.4 39.1 48.6 53.8 64.7 76.6 90.3 110.3 134.5 151.9 161.6 172.7 176.3 166.9 156.7 156.9 159.6 162.4 165.9 172.4 176.7 181.2 185.2 189.4 193 206.9 215.1 216.5 217.4 216.9 212.9 207.1 204.3 203.6 202.8 201 199 199.2 200.7 201.7 202.4 202.1 203.3 204.8 209 213.5 217.6 219.5 220.5 218.9 211.7 204.8 201 198.2 196.3 194.4 191.4 187.1 183.8 187.9 190.5 194.1 198.5 203.3 204.5 204.4 206.2 211 215.9 219.8 224.2 228 231.4 235 239.7 243.9 249.6 256.6 262.7 270.5 276.6 283.1 288.2 293.8 300.7 311.4 318.9 320.8 319.6 312.7 303.4 286.2 267.7 238.5 225.6 211.5 198.4 185.8 176.1 163.9 154.2 147.1 141.5 138.2 137.1 139.2 138.1 135.8 131.2 125.4 122.4 122.7 124.8 126.1 127.1 127.2 128 128.9 130.7 130.9 132 132.1 132.4 132.7 132.5 131.2 130.2 129.2 128 127.4 126.8 127.1 126.2 126.5 126.8 127.1 127.9 128.2 128
-1.3 -1.3 -1.3 -1.3 -1.3 -1.3 -1.3 -1.3 -1.3 -1.3 -1.3 -1.3 -1.3 -1.3 -1.3 -1.3 -1.3 -1.3 -1.3 -1.3 -1.3 -1.3 -1.3 -1.3 -1.3 -1.3 -1.3 -1.3 -1.3 -1.3 -1.3 -1.3 -1.3 -1.3 -1.3 -1.3 -1.3 -1.3 -1.3 -1.3 -1.3 -1.3 -1.3 -1.3 -1.3 -1.3 -1.3 -1.3 -1.3 -1.3 -1.3 -1.3 -1.3 -1.3 -1.3 -1.3 -1.3 -1.3 -1.3 -1.3 14.6 32.9 48.5 49.1 55.3 67.3 78.8 94.4 116.6 139.8 152.1 164.2 175.8 184.6 178 165.8 160.6 161.7 164 168.7 173.8 179.2 182.2 185.5 188.8 192.1 198.3 208 211 213.1 210.4 205.4 202.3 199.8 199.6 198.5 197.4 195.5 195.9 197.1 198.4 199 198.8 198.7 201.1 204.6 210 212.9 214.5 216.3 213.6 208.5 202.8 197.3 193.9 191.5 189.4 187.5 181.4 181.9 182.8 184.7 188 191.8 195.5 197.6 198.7 201.3 207.9 212 213.9 217.2 220.6 224.7 227.8 231.3 235.9 242.1 250.3 260.6 268.9 276.1 282.6 289.3 295.6 303.2 318.8 327.5 330.8 328.4 319 307.2 293.1 272.1 246.9 225.1 211.4 198.1 187.3 176.6 165.8 155.4 147 140.9 137.6 135.9 137.1 136.8 136.2 132.1 126.1 122 121.7 124.8 126.8 128.3 127.9 129.2 129.6 130.2 131 131.6 131.5 131 131.3 131.1 129.2 127.5 126.1 125.7 126.3 125.7 125.9 126.4 126.8 127 127.3 127.4 127.8 127.6
-1.3 -1.3 -1.3 -1.3 -1.3 -1.3 -1.3 -1.3 -1.3 -1.3 -1.3 -1.3 -1.3 -1.3 -1.3 -1.3 -1.3 -1.3 -1.3 -1.3 -1.3 -1.3 -1.3 -1.3 -1.3 -1.3 -1.3 -1.3 -1.3 -1.3 -1.3 -1.3 -1.3 -1.3 -1.3 -1.3 -1.3 -1.3 -1.3 -1.3 -1.3 -1.3 -1.3 -1.3 -1.3 -1.3 -1.3 -1.3 -1.3 -1.3 -1.3 -1.3 -1.3 -1.3 -1.3 -1.3 -1.3 -1.3 -1.3 7 28.2 42.4 50.1 53.6 60.3 73.5 88.4 109.9 127.7 145.9 156.5 166.2 175.5 185.5 181 169.7 164.4 164.2 166.4 170 175 178.7 182.3 185.4 188.4 191.4 193.9 198.9 203.3 205 204.9 200.2 197.5 196.2 195.6 195.4 194.4 192.3 190.9 192.8 194.7 195.7 195.8 195.6 197.3 200 205.1 209.5 211.9 212.1 208.7 205.8 202.6 195.5 190.6 187.3 184.9 182.2 178.2 178.5 178.8 181.2 183.4 186.7 190 191.2 193.8 198.6 203.4 206.3 208.6 211.6 213.9 217.1 219.8 221.8 230.1 239.2 247.9 258.8 267.9 275.1 281.6 289.4 296.9 310.5 325.7 335.7 340.5 339.5 328.3 313.3 294.6 273.1 248.2 226.2 211.6 197.7 187.8 177.7 167.4 157.5 148.2 141.7 138 135.2 135.3 135.6 135.5 131.4 126.3 121.8 123 126 128 129.1 128.7 129.7 129.6 130.7 131.6 131.3 131.2 130.5 129.3 127.9 126.2 124.3 124 124.1 124.6 125.2 124.8 125.4 126.1 126.8 126.9 127.2 127.2 127.2
-1.3 -1.3 -1.3 -1.3 -1.3 -1.3 -1.3 -1.3 -1.3 -1.3 -1.3 -1.3 -1.3 -1.3 -1.3 -1.3 -1.3 -1.3 -1.3 -1.3 -1.3 -1.3 -1.3 -1.3 -1.3 -1.3 -1.3 -1.3 -1.3 -1.3 -1.3 -1.3 -1.3 -1.3 -1.3 -1.3 -1.3 -1.3 -1.3 -1.3 -1.3 -1.3 -1.3 -1.3 -1.3 -1.3 -1.3 -1.3 -1.3 -1.3 -1.3 -1.3 -1.3 -1.3 -1.3 -1.3 -1.3 -1.3 5.9 25.1 46.2 49.5 51.3 55.2 66.7 80.1 102.6 127.2 141.7 150.5 158.7 165 173.8 184.5 180.1 172.9 168.9 168.6 170.1 172.6 175.4 179.3 183 186.2 188.9 191.2 193 194.5 199.4 197.9 199.5 198.5 195.4 193.7 193.1 193 191.9 190 187 189 190.4 191.7 193 193.9 195.7 199.1 203.4 207 210.6 208.6 204.9 201.2 199 192.6 187.9 183.9 181.2 179.2 176.1 173.9 174.5 176.9 180 182.7 184.9 186.8 188.8 193.5 197.5 200.4 202.7 204.9 207.6 210.2 213.4 219.8 227.4 235.1 244.2 255.5 265.8 273.4 280.5 288.4 296.8 310.8 325.7 338 347.5 347.7 337.1 316.8 296 271.8 244.7 225.5 211 197.1 187 178.2 168.3 159.1 148.6 143 139.1 136 132.6 133.1 134.2 132 126.1 121.1 123.8 126.8 127.9 129.7 129.9 131.6 131 132 131.4 129.7 129.4 127.6 126 124.9 123.4 122.8 122.6 122.9 123.7 124.1 125.1 124.8 125 125.6 125.7 126.3 126.4 126.7
-1.3 -1.3 -1.3 -1.3 -1.3 -1.3 -1.3 -1.3 -1.3 -1.3 -1.3 -1.3 -1.3 -1.3 -1.3 -1.3 -1.3 -1.3 -1.3 -1.3 -1.3 -1.3 -1.3 -1.3 -1.3 -1.3 -1.3 -1.3 -1.3 -1.3 -1.3 -1.3 -1.3 -1.3 -1.3 -1.3 -1.3 -1.3 -1.3 -1.3 -1.3 -1.3 -1.3 -1.3 -1.3 -1.3 -1.3 -1.3 -1.3 -1.3 -1.3 -1.3 -1.3 -1.3 -1.3 -1.3 -1.3 1.3 16.1 39.6 48.4 50.3 52.4 58.9 73.6 96.9 123.3 142.9 147.9 155.2 161.9 166.1 173.7 180.7 179.9 176.9 173.7 173.2 171.8 172.7 176.2 179.8 183.4 187 190.4 192.5 193.8 192.9 193.7 196.7 195.4 199 195.5 193.1 191.4 190.4 190.3 188.3 184.9 185.4 186.4 187.6 189.5 191.6 194.3 198.3 202.7 205.6 204.6 201.5 199 196.7 192.2 189.8 185.1 181.1 179.1 176.8 172.9 171.3 171.7 173.5 176.3 178.7 180.7 182 184.3 187.7 190.8 194 196 198.8 201.4 204.4 211 216.1 224 230.9 240.4 252.5 262.3 270.8 278.2 285.8 295 307.9 323.8 338.8 350.3 351.4 335.4 314.5 292.9 269.6 242.1 223.8 209.1 196.4 185.5 176.3 167.6 159.5 148.8 144.2 139.4 135.8 132.9 129.4 128.8 128.9 126.5 120.8 123.2 125.8 128.5 130.7 131.6 132.7 132.8 132.1 129.5 127.9 126 125.1 124 122.5 122.1 122.4 121.9 122.6 123.5 124 123.9 125 125 124.9 125.3 126.1 126.3 126.6
