ncols 200
nrows 82
xllcorner 300000
yllcorner 271350
cellsize 50
298 295.7 293.6 294 294.7 296.6 294.8 294.2 294.3 294.8 295 299.2 301.2 303.3 304.3 305 305.2 302.7 304.5 304.6 304.5 303.1 302.4 305.5 308.5 310 310.7 311.8 313.4 314.6 315.5 316.6 317.5 318.3 321.8 330.2 334.3 334.4 335.6 335.3 334.2 334.7 333.5 329.7 329.2 329.7 330.7 331.9 332.8 334.1 334.4 334.7 335 334.5 332.4 333.4 336.2 336 336.5 336.5 338.9 340.8 342.4 344 348.3 366.4 381.5 398.9 414.8 429.4 441.4 455.5 466.4 469.8 466.4 457.6 456.2 466.4 469.6 471.9 470 465.6 462.7 458.8 453.2 447.4 444 441.9 440.9 440 439.8 439.2 438.4 434.6 432.5 424.3 416.3 411.1 406 401.4 394.7 393.5 392.5 383.2 404.7 422.4 441.6 454.3 461.3 470.9 478 478.9 477.5 474.4 471.5 470.8 470.9 474.4 475.3 474.8 473.6 467.5 463.3 460.7 456 449.6 445 437.9 433.5 428.3 420.9 412.5 402.6 377.8 367.3 362.2 359.8 342.3 332.2 322.6 319.9 340 358.4 385 405.4 413.1 415.7 419.6 421 420.6 418.8 412.7 405.9 392.3 381.4 381.7 380.7 373.3 363.5 355.6 346.2 336.5 328.4 322.2 314.8 310.2 313.3 313.3 306.9 301 291.9 287.9 282.2 273.8 298.7 314.4 338.6 360 380.6 396.5 398.6 398.5 395.5 389 381.9 374.3 365.8 359 351.5 345.8 339.7 334 328.7 323.4 316 312.6 310.1 306 306.4 305.1
294.8 292.1 292.7 292.8 293.2 293.3 293.8 293.6 294.5 294.9 295.9 297.1 302.2 304.2 305.2 305.8 306.4 307.7 309 310.3 309.7 308.5 304 305 308 309.5 311.2 311.4 313.2 315.2 316.8 318.7 319.2 320.2 325.8 333.3 336.8 338.1 338.3 338.4 336.9 335.5 333.4 332.1 331.5 331.5 332.1 333.3 334 334.7 336.2 336.6 336.8 336.2 336 334.8 337.6 338.1 338.1 338.6 339.4 342 343.9 346.6 349.5 365.1 377.4 393.6 409.3 425.6 437.1 453.9 465 469 463.9 456.4 458.5 463 469 470.4 468.6 463.4 458.4 452.6 446.2 443.4 442.3 442.2 442.9 441.5 441.5 440.2 439.2 435.9 422.9 408.7 409.7 405.9 400.3 397.7 390 390.1 378.5 394.4 413.5 431 447.7 460.5 468.3 473.8 479.4 479.2 478.1 475.4 473.4 475.6 477.2 479 479 478.8 475.5 470.8 467.1 461.3 453.7 448.4 443.7 443 436.2 429.2 421 412.7 401.9 378.5 368.6 362.3 356.9 342.2 333.3 324.3 313.6 330.2 349.4 369.6 393 410.1 415.9 418.7 419.5 420.6 419.3 415 405.8 398.8 399.3 397.5 391.5 382 370.2 360.4 351.9 340.6 332.8 325.2 315.6 317.9 318.5 318.6 312.2 306.1 299.9 297.1 286.4 277.7 277.8 299.4 320.6 340.4 360.9 379.5 390.4 395.1 393.9 388.9 382.7 375.1 366.8 358.4 349.8 343.2 338.8 333.4 328.4 321.1 317.6 313.6 310.4 306.5 302.8 300.6
291.9 291.6 292.4 292.5 292.1 293 293.1 294.7 295.2 296.2 296.7 297.9 300.2 304.1 305.5 306.6 307.5 309.6 309.7 310.6 310.9 306.3 307.7 307 308.4 308.5 310.2 310.5 313.6 315.5 317.7 319.7 320.8 322.7 328.7 333.5 336.1 338.4 339.2 338.7 337.2 335.8 334.5 333.6 334.5 334.2 334.5 336.3 335.8 336.9 338.2 339 339.3 338.6 338.4 336.1 339.8 339.9 339.7 340.4 342.2 342.9 344.7 347.7 353.4 361.1 370.9 387.3 403 419.2 434.2 451.2 462.8 466.1 461.1 455.8 454.5 458.5 467.8 468.9 464.5 458.5 454 449.1 445.5 443.4 448.7 451 450.7 449.5 449 446.6 442.8 433.9 421.3 408.9 398.7 400.2 396 391.9 384.2 374.6 385.3 403.6 418.9 436.8 454.1 467.5 472.6 476.5 478.8 478.8 477.2 475.6 477.2 476.7 478.4 480.2 479.3 480.3 477.5 471.4 466.1 459.2 453.3 451.2 450.2 445.5 437.5 428.4 419.3 410.7 397.2 377.9 369.8 362.8 359.6 341.8 333.3 325.6 311.5 327.6 349.3 370.1 385.9 408 415.6 417.7 421.4 422 420.2 416.9 411.2 412.2 411.1 405.2 397.7 386.9 374.9 365.6 355.3 344.7 335.4 325.3 324 323.6 324.8 324.8 322.8 316.1 312.3 310.6 290.9 286.6 273.3 279.3 301.9 320.8 339.3 354.6 372.5 388.2 391.4 386 381.5 375.7 368.9 361.1 352.4 343.1 336.2 332.1 326.5 321.9 318.1 314.6 312.4 310 308.5 306.1
291.1 291.3 295 297 294.6 294.6 296 300.8 298.3 297.7 298.7 302 300.7 301.4 304.3 307.2 308.1 309.5 310.7 311.3 311.4 309.4 311.3 311.9 311.2 311.7 311.4 312.6 314.7 315.7 316.8 320 321.3 323.5 327 330.7 333.7 337.5 339.2 338.9 337.8 336.2 335.3 335.2 335.7 337.1 337.6 338.9 339.1 339.6 339.9 340.6 340.9 340.3 340.1 338.2 341.3 342.3 342.5 342.2 343.3 344.1 344.7 347.1 353.8 364 376.3 388.8 403.1 421.7 435.4 451.6 462.8 464.5 461.3 455.9 454.3 462.5 466.2 466 463.4 458.9 454.1 449.1 445.5 446.4 456.9 460.7 462.8 461.2 458.5 452.6 444.9 435.8 415.6 403.7 395.9 387.3 392.4 384.5 372.1 382 398.7 416.2 430.7 445.2 461 470.6 473.7 475.7 478.1 478.2 476.5 476.4 478.1 477.6 477.3 481.4 483.7 481.4 475.8 470.2 465.9 458.7 456.3 455.3 451.5 445.7 436.9 427.7 417.8 405.7 387.2 376 368.6 363.4 360.7 343.1 334.8 327.5 311.3 320.6 345.6 372.6 388.7 400.4 411.8 417.3 424.3 425.3 425 421.9 418.6 417.9 415.2 409.4 400.8 388.9 378.6 367.6 356.5 345.5 336.3 330.3 331 330.4 329.9 329.2 331.9 325.9 317.9 314.8 298.3 287.2 281.5 274.3 280.2 302 318.2 334 349.7 365.9 378.3 379.5 378.3 375 371.4 365.1 357.1 349.2 341 333.5 327.6 322.4 319.8 317.8 316.2 314.9 311.5 303.3
290.3 290.6 298.1 298.5 298.5 295.6 296.1 300.3 299.8 299.4 304 305 305.5 305.2 306.5 305.5 308.2 310.4 311.4 312 312 310.6 312.6 313.3 312.9 313.6 314.4 314.5 315.9 317.7 319.4 319.9 322.2 327.4 329.8 332.4 334.2 336.4 337.8 338.1 338.5 337.2 336.6 336.4 336.9 337.7 340.4 342.9 343 342.5 341.2 341.9 342.3 341.7 341.4 340.2 343 343.9 344.3 344 344.5 344.7 345.6 347.8 353.8 364.4 379.2 391.9 406.5 425.8 440.5 460.5 468 467.5 461.6 454.2 456.2 466.2 468.7 467.1 464.1 460 454.6 448.9 448.9 455 464.1 470.7 470.4 465.7 458.9 451.2 442.5 428.7 406.7 399.4 392.7 375.6 383.7 375.5 376 392.2 407.8 424.3 437.6 453.2 463.9 472.2 474.8 475.9 477.5 479 474.3 473.5 475.1 478.3 481 484.7 483.3 478.3 472.7 468.7 462.4 460.4 459.3 456.5 450.6 444.8 437.1 427.1 417.4 403.6 383.3 374.5 365.9 362.4 358.9 344 334.1 328.1 320.9 308.6 332.5 358.1 379.2 396.8 408.1 415.4 424.5 429.4 428.6 426.1 423.6 421.2 417.1 412.1 402.8 390 378.3 366.1 357.2 350.3 341.9 337.8 337.5 336.7 336.4 334 331.3 326.9 319.1 312 303.3 298.2 292.7 275.1 273.5 276.8 295.9 309.4 327.1 344.1 360.4 372.5 378.6 376 372.1 365.9 359.1 351.1 342.8 333.2 326.7 322.3 321.1 320.2 318.1 313.8 307.6 299.7
298.6 298.9 299 298.9 299.2 300.2 298.9 297.7 300.2 303.2 305.5 305.9 306.1 307.4 307.3 309.6 309.4 311.3 312.2 312.7 311.6 312.9 313.7 314 314.4 315.3 317.1 316.7 318 320.1 321.4 322.5 322.2 328.5 330.8 332.7 334.5 335.8 337.4 338.4 339.2 338.8 338.2 338 339 340.8 342.8 347.1 346.9 345.6 344.4 343.6 344.5 343.5 343.5 342 344.5 345.3 345.1 345.6 345.8 346.4 346.9 348.6 352.1 361.1 375.4 392.2 405.5 425.1 446.7 464 468.9 467.3 459.2 452.6 460.2 466.5 468.1 466.3 462 457 453 452.9 455.3 462.7 473.4 473.3 469.8 466.3 459.2 450 438.2 418.2 400.3 392.8 388.1 379.7 373.9 362.6 386.9 398.7 407.3 427.9 440.7 453.1 466.9 475.1 475.6 477.1 478.1 477.6 472.7 471.6 475.1 479.1 481.5 482 478.7 471.6 469.1 463.6 461.7 460.2 459.3 455.4 451.1 445.2 437 428.7 414.5 394.2 381.1 374.6 365.8 361.7 358.3 345.9 338 332.5 321.6 309.6 304.5 334.1 362.6 388.6 409.2 416 422.7 433.3 434.6 432.2 427.6 423.5 418.8 411.5 403.4 392.3 378.7 371.2 362.8 355.1 346.1 346.6 344.5 342.9 340.8 335.9 330.2 323.4 315.4 309.9 307.9 306.8 298.8 288.2 275.5 273.8 276.5 286.3 301.1 320.1 337.3 357.5 367.6 368.3 371 365.9 358.2 350.6 342.2 332.2 323.7 320.6 316.9 312.7 310.9 308 302.7 297.9
299.8 299.9 300.8 299.9 299.6 301.2 302.1 299 300.6 304.7 305.9 306.8 307 307.8 308.5 310.8 311.8 310.8 311.4 312.2 313.2 312 312.2 314.3 316 316.9 318.3 319.6 320.6 320.8 325.4 325.6 324.4 325.2 330.5 332.9 334.8 336.2 337.4 338.7 339.6 340.6 340.7 344.3 344.9 345.1 347.6 349.6 351.2 349.5 346.9 346 345.6 344.6 345.2 343.9 345.7 346.5 346.6 346.8 347.3 347.9 348.4 349.5 352.3 358.9 371.2 384.9 400.5 422.1 446.5 463.9 470 466.3 454.3 453.3 466.3 468.3 468 465.2 461.5 457.8 459.8 460.9 461.5 467.2 473.7 471.2 471.8 467.3 456.2 445.9 431.5 413.4 394.8 388.4 383.9 379.7 357.1 372.1 391.3 404.6 415.9 426.8 437.5 449.2 460.7 469.5 471.5 467.4 466.4 464.6 465.7 468.4 471.6 475.1 477.6 475.1 467.2 466.3 460.9 458 456.9 456.5 456.9 455.8 451.8 446.1 439.7 430.2 419.7 406.9 387.7 374.2 364.4 360.6 357.3 344.5 336.6 330.7 326.8 320.6 306.4 315.4 346 369.1 392.9 412.6 424.9 430.7 433.1 433.9 430.2 424.9 420 412.6 403.1 391.1 381.2 374.8 366.2 357.1 353.1 355.1 351.7 345.8 339.9 331.9 325.7 318.1 316.7 314.4 315.5 317.7 312.3 293.4 283.3 278.2 273.7 273.8 276.3 293.9 315.3 334.6 346.2 360.1 366.7 364.9 358.1 349.5 340.2 330.7 320.9 314.8 309.6 305.8 303.5 301.6 296.8 288.9
301.3 304.6 304.3 301.9 301.4 300.5 301.9 300.4 301 305.1 306.3 307.2 307.8 308.9 309.8 311.6 312.1 312.3 311.7 312.9 313.8 312.8 313.8 315.1 316.6 317.7 319.5 320.7 321.8 322.7 324.4 326.8 326.7 327.5 326.6 328.7 333.8 335.8 338.3 339 340 341.2 344.9 347.4 348.6 349.4 352.6 355.2 353.5 350.6 349.3 347.2 347.4 347.3 346.3 345.6 346.5 347.3 348.1 348.3 348.9 349.4 350.3 351 353.1 359.3 368.7 380.6 396.8 419.3 441 461 469.5 454.7 447.9 460.4 464.6 465.6 463 460.8 459.1 462.3 464.4 465.1 464.5 466.7 470.6 475.1 472 463.7 451 434.8 422.6 408.2 391 384.2 378.6 376.1 354.1 374.5 393.5 411.3 425.9 443.5 456.3 466.1 470.3 467.6 460.3 457 455.9 453.8 456.3 457 459.9 468.2 469 464.8 459 452.5 445.6 444.8 445.9 449.9 454.3 453.7 452.4 447.8 441.5 433.8 421.5 409.1 393.1 376.4 367.6 358.6 356.1 346.7 338.6 331.8 327.5 321 310.2 300.6 325.5 349.5 371.4 395 417 427.9 433.2 430.5 427.6 427.3 423.2 416 407.5 393.6 384.5 376.8 369.8 363 357.8 357.2 350.2 341.3 333.5 326.2 324.9 322.3 318.2 317.3 315.8 313.3 305.6 297.5 291.8 286.4 282.9 274.3 272.9 274.6 289.1 312.5 337.2 359.3 365.9 363.2 355.1 345.9 336.8 327.3 317.6 307.1 300.1 300.2 299 296.6 286.6 304.3
306.3 307.1 306.9 306.4 303.6 303.1 301.9 301.2 301.5 303.6 306.4 307.1 308.2 309.2 310.4 311.8 312.2 312.7 313 313.5 314.1 314.3 314.6 315.8 317 318.1 320.5 321.7 322.8 324.1 325.4 326.7 327.8 329.5 331.2 335.1 336.4 335.7 336.9 337.8 340.8 342.8 345.1 347.6 351.2 353.8 358.7 359.4 357.2 354.2 351.7 350.2 348.4 348.9 348.6 348.2 348.8 349.2 349.6 350.3 355.2 355.9 357.2 358.9 363.2 368.4 375.9 384.9 397.9 416.9 437 454.7 449.4 436.1 438.9 456.8 463.6 463.8 461 460.3 463.2 468.4 467.4 467.1 465.5 467.3 471.4 474.6 467.3 454.5 439.9 425.9 415.3 402.6 390.7 379.6 374.2 370.3 349.5 370 390.8 409.5 423.5 435.2 444.1 451.6 453.1 451.7 448.8 447.8 447 442.5 436.1 438.2 443.5 454.8 462.1 459.2 452.2 444.2 437.7 434.9 438.1 443.3 449.3 453.7 452.4 450.6 445.7 433.2 420.6 408.7 394.5 379.8 368.2 361.3 353.5 349.4 345.8 332.3 326.5 320.6 311.3 302.7 307.3 331.6 351 370.3 393.5 416.9 430.9 432.5 427.6 425 423.1 418.7 411.5 399.8 388.5 382 375.3 364.5 356.9 349.7 340.4 329.8 320.6 318.8 322.8 325.4 323.6 322.1 319.8 316.9 313 313.3 300.7 293.7 290.9 285.7 273.4 272 275.3 300.6 329.3 355 360.8 359.5 350.5 341 329.8 320.5 310 300.6 291.1 292.9 291.9 289 293.5 317.5
307.8 308.4 308.8 308.2 306.3 306 303.8 302.6 302.5 303.4 304.5 306 307.1 309.4 310.6 312 312.6 313.3 313.9 315.2 315 315.1 315.4 316.9 318.7 321.8 321.5 323.2 324.9 326 326.3 328.1 329.2 331.5 333.7 336.4 339.4 339.9 340.2 341.1 341.4 344.2 347.1 349.7 354.3 359.1 361.4 362.3 361.4 359.6 355.9 352.8 351.2 350.3 350.6 349.9 350.7 351.4 352 360.3 366.9 366.9 368.1 370.8 374.3 382.1 390.4 398.9 407.2 420.5 436.3 444.6 438 417.2 419.2 441.2 452.4 457.1 458.8 468.7 471.4 469.3 466.7 464.4 464.8 470 469.5 468 457.2 442.8 430.5 423.3 411 398.9 386.1 376.5 371.1 365.9 346.3 362.9 376.7 392.6 406.4 416.8 425.2 432.1 436.8 440.1 440.4 439 433.1 422.1 409 417.2 433 452.8 457.3 451.3 444 437 433.7 431.3 436.8 441.8 446.2 448.9 453.8 451 442.6 433.3 420.8 408.4 394.3 383.3 372.7 362 355.7 347.2 342.8 333.9 326.2 320.5 312.6 306 297.4 310.8 327.2 346.1 370.5 393.5 413.5 422.4 423.2 422.2 419.7 415.9 412.2 401.7 390.8 386.6 375.4 360.5 348.4 337.5 325.2 316.3 312.5 314.7 323.4 331.9 332.2 328.5 324.9 322.8 322 321.8 318.2 310.5 304.5 294.3 286.3 272.4 272.3 288.5 317.8 349 353.4 351.1 343.8 332.4 322 310.9 300.2 289.8 284.7 284.3 284.7 283.6 301 317.1
310.3 310 310.3 309.8 309.4 308.8 307.8 306.9 304.2 304.3 305.8 307.7 308.5 310.6 311.6 312.8 313.7 314.9 315.4 316.4 316.8 316.8 318.4 320.4 322.1 323.6 324.8 325.9 327.1 327.8 328 329.4 331.4 337.8 340.5 340.7 340.8 342 343 343.8 344.5 345.8 349.3 352.2 355.9 361 365.3 366.2 365.5 363.1 360.7 357.5 355 353.2 352.9 352.6 353.3 354.1 355.6 368.2 378 378 377.7 381.2 385.1 393.3 400.7 410.2 419.2 426.7 433.3 432.3 424.5 406.1 408.3 420.4 435 445.2 454.9 460.8 466.7 463.5 460.1 461 465.4 463.4 463.4 457.2 445.9 436.6 429.9 421.5 410.7 400.5 387.6 373.7 368.4 364.5 352.8 344.1 361.5 373.2 381.7 390.1 398.2 403.5 409 414.9 417.2 412.5 410.5 398 386.1 402.5 427.4 443.9 445.6 441.8 435.5 430.2 425.1 423.6 427.7 432.8 443.2 450.5 452.5 450 442 432 422.4 411.7 401.7 389.4 378.4 367.8 358.4 348.1 340.7 335.6 329.2 322.6 314.5 308.8 301.9 294.3 302.7 325.8 345.7 367.9 387.8 407.3 419.7 419.6 416.5 411.9 405.6 397.5 387.4 380.4 366.4 350.8 335 322.9 314 310.5 307.9 310.8 325.8 340.6 339.4 331.7 326.5 324.3 323.3 321.3 318 315.3 310.3 302.5 288.3 278.8 272.1 274.6 309.5 338.8 342.9 338.9 332.5 324.6 312.7 300.6 290.4 282.6 282 282.8 283.4 287.3 296.4 312.9
312.8 311.8 312.1 311.4 311.2 310.6 309.6 308.2 305.4 305.8 306.7 308.4 310.3 311.7 312.7 314.6 316.1 316.6 317 317.5 317.8 317.9 318.7 319.9 322.5 324.3 325.5 326.9 329 329.8 330.6 331.8 339.3 344.3 345.4 344 345.5 345.2 345.3 346.2 346.4 347.2 349.7 352.9 355.5 364 369.2 369.8 369 365.6 363.9 360.7 357.2 356.1 355.3 355.7 356.1 357.7 360 375.5 387.5 388.5 389 391.3 397.4 404.7 412.1 418.1 426.1 431.6 432.1 429.1 412.9 393.2 392.9 402.4 417.7 438.1 444.6 449.5 450.3 452.8 450.7 455.9 449.1 454 451.7 444.5 441.2 436.9 432.4 423.4 414.2 404.1 390 375 368.3 362.1 355.4 340.6 343.6 353.9 360.9 366.2 372.2 376.7 380.6 383.7 387.5 390.3 391.3 377 375.1 397.3 419.8 433.9 435.3 433 427.2 416.9 415.9 420.5 429.5 439.3 444.5 449.2 452.9 449.1 442.8 434.4 428.3 417.6 405.9 393.8 383.2 372.1 361.6 355.6 345.7 334.8 328.3 322.9 318.3 312.5 307.5 301.1 297.2 298.7 321.6 342 362 384.2 404.7 414.8 414.7 410.4 405.1 397.5 381.2 365 348.2 336.2 324.5 315.6 309.1 305.4 304.2 313.4 327.5 345.3 342.3 335 325.6 322.1 319.4 317 314.4 312.2 309.3 305.3 292.3 281.4 271.3 271.8 299.9 328.8 333.4 330.7 323.4 311.7 298.3 289 281.1 283.3 286.8 285.7 287.1 288.4 295.8 307.8
319.1 315.5 314 313 312.5 311.9 310.9 309 308.2 307.9 307.7 309.9 310.5 313.2 314.7 316.3 317.6 318.3 318.2 318.5 318.8 320 320.7 322.2 323.1 324.7 325.9 327.3 330.2 331.6 334.1 338.9 344.1 347.8 348.8 352.4 352.5 352.6 352.2 351.7 349.9 349.6 351.1 355 358.4 364.8 370.3 371.5 371.1 368.1 366.4 363.7 360.4 357.6 357.8 358.1 359.5 362.1 366.6 378.7 391.9 399.9 401.6 402.4 406.6 411.9 413.8 416.1 424.9 433.7 429 422.6 406.2 382.3 380.1 387.9 403.2 421.4 429.3 433.4 434.8 434.7 433.2 429 429.5 431.5 434 441.6 442.4 438.3 433.3 425.3 416.1 407.5 397.8 385.3 370.9 362.2 353.5 346.9 337.4 333 335.5 342.2 346.9 352.2 357.1 361.7 366.3 369.5 369.9 357.5 369.5 393 416.9 425.5 431.5 426.9 415.7 404.9 400.8 409.5 423.4 431.5 438.2 447 451.6 449.1 443.9 439.4 432 420.8 408.6 395.7 384.1 375.3 369.6 361.8 351.9 340.6 330.4 324.8 319.5 315 308.7 303.9 297.6 291.9 294.2 317.4 336.7 361 384.4 400.5 408 403.4 396 383.4 362.1 347.1 334.7 324.3 316.5 308.7 303.3 299.4 303.6 314.2 329.8 342.3 342.9 334.3 324.4 319.1 314.6 310.6 310 307.6 305.3 305 296.4 283.5 271.3 271.1 295.6 322 325.6 319.4 305.5 292.8 280.2 284.3 285.6 287.3 287.7 287.5 288.6 293 302.1 311.2
327.2 320.6 318.2 316.3 315.9 315.6 314.3 313.5 314.1 311.5 311.8 310.3 312.7 314.6 316.6 318 319 319.6 319.5 319.8 320.4 321.8 322.6 324 325.1 326.3 327.6 329.1 331.7 333.8 337.9 341.6 346.1 351 355.2 357.6 358.1 358.6 360.5 361.5 359.5 355.1 353.4 356 360 363.3 367.2 370.6 370.4 368.8 367 364 361.7 360.8 360.4 360.8 362.4 368.7 375.4 382.3 397.7 404.9 407.9 408.7 410.1 411.6 403.6 401.1 407.3 414.2 413.3 408.1 397.6 382.2 368.5 378.1 390.6 403.2 411.8 418.1 419.4 419.1 416.3 408 412.8 424.9 429.8 440.7 443.6 440.5 434.2 426.5 419 414.2 407 398.9 383.4 366.3 354.5 347.5 338.5 333.2 331.7 329.6 328.9 333.2 337.5 342.4 347.9 349.7 350.3 344.6 361.3 385.3 407.6 418.4 423 417 408.4 400.3 386.5 391 401.3 417.4 428.6 438.9 447.1 447.2 443.4 442.3 431.9 422.8 408.2 395.5 387.3 381.7 375.8 366.5 356.5 344.6 333.7 326.8 320.8 315.6 310.5 305 299.6 292.8 286.4 292.6 312.8 337.6 361.7 381 389.4 387.1 378.5 363.4 348.3 326.8 322 314.5 308.2 302.7 298.3 297.2 304.6 314.2 332.3 343.2 341.4 333 323.9 316.1 310.1 303.7 299.9 298.2 293 292.8 288 282.1 274.4 270.6 280.9 309.4 310.2 300.8 286 275.1 284 287.6 289.4 289.9 291 291 291 295.3 306.4 314.3
338 331.1 326.5 325.3 325.2 322.7 322.2 322.1 320.7 320.1 319.5 314.6 313.2 315.8 318.1 319.7 320.1 320.9 321 321.3 322.2 323.7 324.7 325.8 327.3 328.6 329.3 331.2 332.9 335.9 339.4 343.7 349.8 356.5 360.9 362.2 363.7 366 369.8 370.8 370.4 364.7 360.8 358.9 359.2 362.4 365.2 368.6 369.9 368.9 368.6 367.1 363.7 363.1 362.3 364.4 368.2 372.1 380.3 389.4 403.1 405.5 409 406.1 407.3 399.6 391.2 386.2 389.7 390.8 392 390.5 384.2 376.4 359.8 369.9 379.1 386.5 397.8 403.1 404.6 403.1 397.4 388 404.9 422.6 433.8 441.7 444 440.9 435.6 429.3 425.2 426.6 419.3 412.3 400.9 380.1 362.3 351.4 336.9 332 328.4 326.2 324.7 324.2 324.9 327.7 330.4 333.1 332.9 335.8 352.7 371.2 388.8 402.8 405.9 402.2 396.2 389.4 376.3 372.1 381.7 400.4 418.5 432 440.3 442.5 440.5 440 431.7 420 405.7 397.2 391.7 385.9 378.9 368.7 358.3 348 337.5 329.7 322.2 315.6 311.1 306.7 302.6 298 290.9 286.1 286.7 311.1 337.9 356.2 368.8 372 363.8 348.9 335.2 320.4 308.6 305 301.2 295.7 295.2 299.2 306.5 321.1 338 347.1 344.7 334.9 324 317 311.1 305.7 303.9 301 296 289.5 282.2 278.2 275.4 272.2 273.7 299.5 293.6 283.3 274.5 282 286.3 291 293.7 294.8 294.6 295.5 296.4 303.7 311.6 316.5
344.1 339.8 336.5 334 331.4 328.7 329.4 328.9 325.4 323.3 322.1 318.5 316 317.5 318.6 321.1 321.3 322.2 322.3 322.6 322.7 324.8 326.7 328.3 329.9 330.5 331.1 332.6 334.9 337.7 342.1 348.4 354.9 361.7 363.9 365.8 371.4 377.1 380.1 381.3 379.6 375.1 370.1 366.4 363.8 363.2 365.5 368.4 370 370.1 369.2 366.5 365.2 364.8 365.1 368.8 374.4 378.6 385.1 392.3 404 401.6 398.4 395.6 395.2 388.5 380.1 372 372.2 375.1 375.1 374.2 370.4 365.6 353 366.3 373.4 379.9 386.1 389.5 388.8 380.9 371 382.5 403.6 422.5 436.8 440.9 442.5 439.1 436.3 431.6 430.3 430.2 427 422.4 415.3 400.3 379.4 362.3 345.5 335.2 329.7 326.2 323.4 320.9 320.3 319.1 320.3 321.4 321.4 324.4 334 351.2 364.3 380.3 386.4 386.6 384 380.6 370.1 359.9 366.3 382.3 403.1 420.4 430.3 437.4 443.3 438.6 426 412.9 403 396.1 389.9 386.6 378.6 369.1 357.1 347.6 338.4 332 326.3 318.1 311.9 306.4 302.9 301.3 298.3 288.2 283.1 286.1 314.5 339.8 346.7 349.2 345.5 334.8 321.4 309.8 301.9 296.6 292.9 291.2 294.7 299.7 311 329.6 346.2 354.8 350.4 338.2 326.3 317.6 312.2 313.1 310.1 305 298.3 291.8 287.1 281.8 276.6 271.3 272.6 285.1 281 275.2 275.8 286.6 292.3 296 299.6 302.1 306.1 307.3 309.5 313.3 316.6 315.2
346.8 344.8 341 336.7 334.1 334.3 334.2 330.2 326.1 324.4 322.9 320.3 316.4 317.8 321.9 322.8 323.5 323.3 323.8 324.2 323.9 325.8 328.8 330.7 332.2 332.3 332.6 334.6 337.2 340.2 345.8 353.2 361.6 365 367.5 371.6 381 387 390.9 391.2 388 385.1 379.9 374.8 369.1 367.9 366.9 369.8 371.5 371.4 370.6 369.3 367.5 368.1 368.6 373.2 382.5 385.1 390.3 394.7 397.9 394.8 389 383.7 380.4 375 369.3 361.8 357.9 357.9 359.9 359.4 356.4 352.2 350.4 358.2 364.3 372 376.1 375.7 370.1 357 369.9 387.8 409.8 424.9 437 439.6 439.6 439.4 438.7 436.6 439 436.6 432.1 425.6 419.6 409.9 399.4 385.6 366.6 349.9 335.1 328.5 324 321.1 318.2 316 314.7 314.9 315.9 314.8 319.1 328.6 343.3 352.3 363.4 368.5 371.5 368.6 358.3 347.4 354.8 370.2 390.8 410.9 427.6 436.9 438.8 427.4 413.6 405.9 397.8 389 383.9 380.9 373.4 363.5 354.1 345.2 335.3 329 324 319.8 313 307.6 302.7 301 298.3 294.9 288.9 281.1 288.8 315.8 333.7 333.3 329.2 320 307.2 300.3 295.1 291.4 288.7 291 294.8 304.9 315 334 354.9 363.7 356 342 330.8 322 320.1 318 314 309.2 301.8 295.1 290.8 286.5 279.6 271.3 270.6 274.3 274.1 270.6 282.4 300.1 306.9 310.5 315.5 318.7 320.7 319.5 318.5 317.8 317.2 312.6
350.2 346.7 342.2 339.2 337.1 336.9 333.9 329.7 325.1 323.4 322.6 319.9 318.3 323.4 323.9 324.3 324.3 324.2 324.8 325.7 327.4 330 330.6 331.9 334 334.4 335.6 338.3 341.4 343.3 349.3 357.5 361.8 368 370.9 380.6 391 396.7 399.9 400.9 398 395 389.4 382 374.7 371.6 369.9 371.8 372.8 373.4 371.9 371.4 368.9 369.9 374.6 380.7 389.8 391.7 390.6 397.3 390.3 385.6 380.8 372.2 367.1 364.3 357.9 353.6 349 346.1 344.3 343.4 342.9 340.6 342.8 347.4 353.9 362.2 362.6 360.2 350.7 358.1 373.8 396.9 413.2 421.7 432.5 439.4 440.5 437.5 437 438.4 436.3 434.4 429 422.6 414.6 406.1 397.4 389 380 369.8 356.5 341.3 328.9 325.2 321.5 317.5 313.8 312.2 311.1 310.4 311.5 314.3 323.2 332.8 339.7 346.5 351.3 351.1 345.9 336.4 345.7 360.7 380.6 401.6 415.6 424.5 418.6 409.5 401.1 392.2 383.9 377.2 373.7 371.3 364.4 356.3 347.5 337.7 329.4 322.2 319.1 316.5 312 307.5 302.7 300.3 298.3 296 289.3 283.9 281.1 302.2 321 321.8 313.4 304.7 298 293.6 289.7 286.7 286.4 290.3 295.6 307.5 319 342.5 362 369.2 359.1 344.9 334.7 324.7 325.6 323.9 320.3 314.2 307 300.9 293.8 288.9 285.1 277.4 270 271 273.1 273.8 279.9 300.3 315.9 323.6 329 330.1 328.8 325.3 321.6 318.3 314.6 310.2
351.3 346.6 342.6 339.9 338.8 335.7 332.7 326.4 322.9 321.9 321.5 322.1 323.1 324.2 324.7 324.9 324.8 325.5 326.4 327.1 329.4 332.5 333 334.8 337.1 338.3 341.9 344.4 345.9 348.5 356.8 359.9 366.3 370.7 376.2 386.7 398.3 404.4 408.7 410.9 408.5 405 398.3 389.9 381.1 376.6 372.6 373 373.7 374.7 373.7 373.9 372.4 371.8 378.2 386.3 398.1 394.2 386 384.5 381.6 377.7 372.6 367.6 363.7 356.1 349.3 346.1 343.8 340.8 337.9 335.9 335.3 336.1 336.3 337.8 339.3 345.3 349.2 348.7 343.2 356.8 377.3 395.4 409.2 419.2 430.4 435 434.7 435.1 436.2 436.6 431.6 426.6 422.3 414 406.5 398.9 392.6 385.2 378.5 370.6 361.6 352 343.7 336.6 332.5 328.7 325.3 317.7 310.2 308.3 307.7 310.7 316.3 321.1 323.2 329.8 334.3 336.5 335.4 326.4 335.7 350.7 369.4 387.3 400.3 403.9 396.4 390.2 383.3 377.9 371.6 366.1 363.2 359.7 354.4 346.4 338.9 331.1 322.3 316.3 311.9 313.4 311.1 307.6 302.8 299.2 297.2 295.8 291.8 285 279 279.6 299.5 309.2 304.4 297.1 291.9 288.4 285.7 281.2 286.4 290.3 299.3 311.8 326.6 349.7 367.9 370.4 360.5 348 336.7 330.4 331 329.3 324.5 319.1 312.4 307.4 299.3 292 287.4 282.2 272.2 270.2 269.9 269.8 276 294.4 310.4 327.7 331.9 332.8 334 327.3 321.6 316.5 312.1 307.5
350.2 344.3 340.2 338.1 335.3 331.8 330.4 324.5 321.3 321.1 321.6 322.8 324.1 324.9 325.2 325.5 326 326.4 327.4 328.8 330.5 333.6 334.7 337.8 340.8 344.3 347.4 349.4 350.9 355.2 359.3 362 369.4 374.6 380.2 392.1 405 410.2 416.9 418.1 416.6 413.2 406.6 398.3 387.7 380.6 377 374.5 375.4 375.6 375.5 376 380.2 377.6 377 383.6 389.3 382.3 376.8 375.5 376.8 375.4 363.3 356.1 354.9 350.8 347.6 344.7 342.5 340.6 340.3 338.2 334.7 332.3 332.9 331.3 332.5 336.8 340 339.1 345.8 363.4 382.7 396.6 405.7 412.8 422.2 425.9 426.6 427 428.6 426.1 419.1 415.2 410.9 403.9 398.8 392 386.9 380.3 373.4 365.8 357.9 351.5 343 337.8 332.8 328 324.3 319.5 313.7 308.9 306.8 308.9 313.2 316.4 317.7 318.8 320.1 321 320.4 322.5 329.3 342.3 356.3 370.8 377.7 375.6 375.4 373 368.8 364.3 359.6 358.7 354.3 349.8 344.7 338.7 332.4 326 319.5 312.2 306.6 306.9 306.6 304.3 301.5 298.2 296.6 295.8 293.1 290.9 285.5 278 278.8 301.5 296.9 290.9 287 283.6 281.1 282.7 286.5 293.3 305.1 316.6 335.1 356.6 372 375 364.3 350.6 339.3 335.5 333.2 331.8 327.2 321.8 314.3 309.6 302.8 296.2 287.4 285.4 276.6 271.6 270.2 270 271.7 274.7 295.8 308.4 323.5 334.1 332.3 324.4 318.9 314.8 311.1 305.5
345.7 339.6 337.6 333.4 330 328.2 326.9 325.4 321.9 321.1 321.4 322.7 324.1 324.9 325.8 326.4 326.8 327.3 328.5 329.8 331.3 333.8 336 339.9 343.9 346.9 349.1 352.9 355.3 359.1 362.7 367.9 370.4 376.3 381.3 397.1 408 416 422.5 422.9 423.9 421.5 415.9 404.6 397.8 386.6 380.7 378.1 376.9 376.9 376.8 378.9 388.1 387.1 378.8 379.6 379.6 378.4 377.2 373.8 376.2 373.8 365.5 357.3 352.1 349.5 347.2 345.6 343.9 342.4 340.9 339.3 336.7 333.3 332.1 329.7 330.4 334 334.6 339.3 351.1 369.5 380.9 390.4 400 407.3 411.2 415.4 415.3 413.9 412.3 410.3 407.3 404.8 400.4 394.3 389.3 384.8 379.5 373.3 365.8 357.1 342.1 336.7 329.3 323.3 322.2 320.2 316.4 312.6 309.6 307 305.4 305.1 306.6 308.4 310.1 312.8 312.5 312.8 314.6 314.5 320.4 328.8 339.3 348.5 353.5 356.3 358.9 358.9 357 354.1 353.8 351.8 349.5 345.6 339.6 333.4 328.3 322.8 316.5 311.5 306.7 301.7 302.2 301.6 298.5 297.3 296.3 295.2 292.8 290.6 287.7 277.7 276.2 288.4 289.1 286 281.6 278.6 277.9 281.8 287.1 294.8 306.8 319.2 338.2 360.9 375.9 377.7 367.5 355.6 343.8 338.8 336.3 332.8 326.7 322.1 316.4 309.9 302.2 298 297.1 291 285.3 277.9 273.4 270.3 268.6 269.6 274.7 287.1 305 323.3 322.8 317.8 313.8 312.8 308.7 302.2
338.3 335 332.3 329.9 326.8 325.7 325.5 325.1 323.9 321.7 322 322.8 324 325.3 326.2 326.8 327.5 328 329.6 331.1 333.3 335.5 337.5 341.1 345.2 347.8 350.5 354 358.8 362.3 365.1 370.3 373.4 379.5 385.4 402.1 413 420.5 425.9 429.3 430.9 429.1 419.8 418.7 408 396.7 391.3 386.4 383.4 379.7 379.3 380.4 389.5 391.7 383.5 380.9 379.1 377.4 377 372.5 370 366.2 359.8 357.5 359.5 359.3 359.7 354.8 350.6 348.2 348 342.9 341.2 338.9 337 327.9 327.9 329.5 333.9 341.3 360.7 370.2 376.9 382.1 390 397.5 400.6 401.6 401.1 400.5 399.6 398.7 396.2 392.9 389 387.2 382.4 378.1 372.2 365.5 353 336.7 339.3 337.5 332.6 328.3 324 320 318.5 314.7 311.4 308.3 305.8 303.9 301.7 301.7 304.7 307.1 307.6 307.3 308.7 305.1 309.1 312.8 319.9 325.9 330.8 338.1 343.7 344.3 344.5 345.4 347.7 347.9 346.9 343.7 339.8 336.4 332.6 326.8 322.2 315.4 311.1 304.3 300.2 296.8 294.6 294.2 294.2 293.3 290.9 289.6 287 284.6 275.1 275.3 281.5 280.2 278.7 275.9 276.4 281.1 286.7 295 306.7 321.2 341.6 365 377.7 382.3 372.5 359.4 345.9 338.4 335.3 333.7 327.1 321.9 315 304.4 300.8 302.1 299.7 296.5 290 283.2 277.3 272.1 269.7 268 268.8 271.9 283.2 298.8 306 307.3 306.9 307 305.6 301.2
331.4 328.9 326.6 323.7 324.1 324.2 324.1 324 324 322.7 323.2 323.2 323.7 325.7 326.5 327.2 327.9 329.3 331.5 332.7 335.2 336.6 338.6 341 344.7 348.7 351.3 355.5 361 363.7 369.2 375.9 382.8 385.6 391.7 408.7 417.5 423.8 428.3 433.7 437.9 439.1 431.2 430.3 423.4 412.3 401.9 395.7 390.7 386.5 382.9 383.7 387.7 386.4 383.9 382.4 380.5 378.7 375.1 371.9 367.7 368 372.5 377.4 383.2 384.3 381.1 374.2 366.5 360.7 356.1 349.3 343 337.6 336.5 336.8 326.6 327.3 330.8 346.1 359.3 367 371.1 376.3 381.5 384.1 386.3 388.9 390 392 393.8 392.1 387.3 385.4 383.2 380.4 376.5 372.1 366.3 349.1 349 351.5 350.3 346.5 342.9 341 337.9 334.2 330.5 325.8 317.3 312 308.5 304.9 302.3 300 299.7 300.7 301.7 301.6 302.7 300.2 302.7 300.5 302.8 305.3 310.1 317 326.9 328.5 328.7 336.2 342 344 344.1 342.6 341 338.6 336.1 331.9 326.4 320.9 314.3 309.2 302.3 296.8 293.5 291.7 291.3 289.9 288.1 287.1 282.6 281.2 276.7 273.1 273.7 274.5 273.5 273.8 277.6 279.7 286.3 297.3 311 325.1 345.2 367.9 380.5 386.3 375.3 360.4 346.7 336 331.6 330 325.6 319.9 312.7 305 304.7 305.2 303.9 301.6 297.3 289 285 276.3 273.9 270.7 268.8 269.3 273.8 279.8 291.3 297.8 299.7 302.7 301 298.3
327.2 323.6 322.2 320.9 321.9 322.7 322.6 322.5 322.8 323.3 322.7 323.7 324 325.3 326.9 327.6 328.4 331 333.2 335 336.4 337.9 341 343.9 346.9 349.4 352.6 357.7 363.8 369.9 375.8 381.6 386 391.6 401.6 413.4 420.7 430.5 433.9 439.5 447.5 443.9 442.6 443.4 436.8 425.2 415 406.5 400.7 394.5 389.2 389.5 389.9 389.5 388.4 388.9 387.3 384.7 382.1 379.2 379.3 385.5 395.6 396.5 399.3 399 395 388.2 376.9 367.8 358.7 350.6 342.1 333.5 331 329.8 326.5 325 328.2 343.2 356.6 361.7 365 368.8 372.8 374.3 376.7 377.9 381.2 384.1 384.3 380.8 380.6 379.8 378.2 374.2 370.7 365.9 354.3 355.2 358.5 358.3 356.5 355 352.3 348.7 344.6 340.4 334.7 323.7 322.7 318 311.9 306.9 304.2 301.5 299.4 297.1 296.7 296.2 296.7 294.8 295 292.4 289.2 291.2 294.2 295.5 301.5 307.7 312.9 321.6 333.1 337.5 337.6 338.4 339.5 339.6 338.8 335.5 330.6 324.6 319 313.6 306.7 298.7 294.7 291.4 289 288.1 285.9 284.7 282.3 280.4 277.1 275 274.9 271 271.9 271.8 274.1 278 286.1 301.7 318 331.7 349.4 372.8 383.6 386.1 376.3 361.7 347.6 335.5 328.8 326.8 323.4 318.8 315.8 316.8 314.9 312.2 309.6 305.5 301.4 297.6 290.7 282.3 274.8 270.6 268.5 267.8 269.1 274.8 280.6 286.7 295.5 298.6 297.3 295.3
323.2 320.2 319.4 319.3 320.1 320.9 321.4 321.9 322.4 323 323.3 324 324.5 326.2 327.7 328.3 329 331.8 334 335.8 337.2 339.9 342.5 345.9 349.3 352.1 355.5 360.3 366.5 372.4 378 384.3 388.6 396 407.9 417.1 425.2 436.3 441.4 448.8 451.2 450 450.2 451.2 448.3 439.5 427.7 419 410.8 403.9 398.5 395.2 396.5 397.2 397.4 397.5 397.4 395.3 395 388.6 393.3 405.1 408.5 407.3 408.8 406.2 401.9 393.4 381.7 367.5 358.2 347.1 337.1 329.9 329.2 327.8 325.2 324.3 327.5 345.9 357.4 361.4 362.2 362.1 362.1 370.4 372.3 372 374.3 374.3 372.4 372.5 375.6 373.4 371.7 369.8 366.6 359.5 360.7 363.6 365.6 364.7 362.7 360.8 357.6 353.2 348.4 341.6 332.6 331.4 328.9 324.4 318.8 315.4 311.6 308.1 306.2 303.8 302.9 302.6 296.3 292.7 291.2 289.7 288.7 287 286.3 286.3 290.2 293.7 300.2 307.5 317 326 330.6 335.1 339 340.4 339.8 338.7 333.9 328.3 323 317.1 310.6 303.6 296.1 292.5 289.2 287.9 285.6 283.1 282.3 280.1 278.6 275 273 270.8 270.5 270.1 271 275.1 287.1 304.8 321 335.1 357.3 378.1 387.3 387.8 375.2 362 348.1 336 329 326.9 325 326.5 328.5 328.5 326.6 321.9 315 309.5 302.1 299.3 296.3 287 277.8 271.4 269.7 267.6 268.4 268.2 274.8 282.9 291 293.6 294.3 293.7
319.2 317 316.8 317.6 318.5 319.7 320.6 321.2 321.8 322.4 323.1 324.2 325.5 327 328 329.6 330.9 332.4 334.7 336.3 338 340.7 343.4 346.2 349.9 353.5 358.4 362.1 369.5 375.4 381.2 386.1 391.5 402.6 413.4 420.2 430.2 439.8 448.4 453.2 455.4 458.9 456.3 460.2 455.7 450.9 442.7 432.3 422.9 412 410.9 406.2 406.7 406.5 406.1 407.7 408.9 409.4 408.1 404.6 403.4 412.3 412.8 414.4 413.1 412.6 406.5 396 381.4 369.3 357.2 342 333.3 328.3 327.7 328.1 323.6 322.7 329.9 351.2 360.1 363.6 363.9 355.5 353.8 358 362.7 362.4 364.2 365.5 366.1 367 369.1 371.4 369.4 368.9 368.6 368.5 370.3 372.2 371.8 370.4 368.3 366 362.2 357.5 350.9 343.5 341.3 338.5 335.7 331.3 329 325.3 322 318.4 316.6 314.3 312 309.4 308.3 305.6 303.1 298.5 294.2 288.6 286.6 284 284.3 289.7 294.2 298.5 304.2 309.9 323.5 332.7 336.9 338.5 340.7 340 335.2 329.4 323.7 317.9 312.5 306.5 299.6 293.2 289.5 287.8 285.6 284.6 281.7 277.9 276.8 274.2 272.9 270.8 269.3 269.6 269.4 272.9 282.7 305.4 325.1 342.4 364.1 383.2 391.5 387.5 376.5 363.7 350.9 338.3 337.5 338.6 335.6 338.3 338 338 336.3 329.8 320.6 313.8 304.9 299.5 296.2 290.4 280.5 273.7 271.9 267.9 268 267.8 267.7 273 282.5 287.9 290.1 291.6
311.6 313.6 310.9 312.3 316.2 318.6 319.6 320.4 321 321.7 322 323.8 326 327.6 328.9 330.2 331.5 332.4 334.8 337.2 338.8 341.3 344 346.7 351.4 355.2 359.5 365.4 373.5 378.5 382.5 388.9 394.6 406.7 416.5 424.7 433.9 440.6 451.7 456.7 458.1 463.7 462.4 465.9 463.4 458.2 450.6 441.6 433.1 425.4 420.8 416.3 416.2 416.2 416.9 419.1 421.8 421.2 418.8 417.5 412.6 416.7 419.1 420.7 419.2 416.4 408.3 397.8 384.3 372.4 356.6 339.6 332.2 327.3 325.7 323.9 321.7 322.3 334.8 353.5 364 362.9 360 352.5 347.2 353.5 355.1 355.6 360.1 362.2 362.8 363.5 368.1 371.4 373.8 375.9 374.7 375.7 377.2 378.6 377.6 376 373.7 370.6 366.9 361.8 357.6 352.6 348.5 345.4 341.9 337.6 334.8 330.7 327.5 325 322.5 320.3 317.8 313.5 310.4 307.2 304.6 301.4 296.9 292.6 288.7 286.1 282.3 287.7 293.7 293.9 295 301.1 317.1 327.4 334.3 338.2 338.5 336.4 332.5 328.5 323.8 318.5 313.4 307.1 300.6 295.4 290.1 287.7 285.4 284.1 283.1 279.9 278.1 274.8 271.5 270.5 268.1 268.5 268 269.2 277.5 301.9 325 347.1 370.5 388.5 394.3 391.5 382.9 373 358.1 344.7 345.2 346.6 346.2 346.6 347.7 348 343.3 336.7 327.7 319.5 309.1 301.5 295.7 294 283.5 276.5 273.8 268.7 267.8 267.5 267.2 266.9 270.2 273.9 282.1 286.3
304.9 307.9 311.7 314.3 315.6 315.3 317.4 318.6 319.9 321.1 322.3 324.6 326.1 327.6 329.5 330.9 332 333.7 336.4 337.8 339.6 342.7 344.9 348.6 352.7 356.7 361.5 367.8 373.8 381.4 389.1 392.8 400.5 412.8 422.6 428.4 434.8 441.1 452 459.4 465.5 470.9 470.9 472.7 469.3 462.9 455.9 447.8 439.1 432.4 424.4 424.4 423.9 429.5 431.5 434.3 433.6 433.3 430.3 429 424.8 425 427.4 427.8 424.8 419.4 412.4 402.4 388 375.1 357.2 339 329.6 326.4 324.4 322.2 320.7 321.1 332.5 355 357 356.4 353.2 347.7 340.4 350.8 348.4 348.2 357.8 361.9 359.9 363.3 369 374.2 377.1 378.6 379.5 382.8 384.4 383.9 383.3 381.2 378.3 374.4 371 366.3 361.3 357.5 352.9 349 345 339.2 336.3 331.4 329.2 324.7 321.6 318.4 315.8 312.7 308.3 305.8 303.5 298.2 293.4 290.5 288.4 285.6 283.2 281.4 289 289.1 289.3 291.9 302.1 317.2 324.6 327.8 326.7 328.2 327.7 324.6 321.5 318.2 313.1 307.3 302.1 296 291 286.8 284.5 284.2 283.2 281 278.7 276.1 270.6 269.5 268.4 267.4 266.9 268.1 274.4 291.9 318.4 349.2 372.9 392 398 396.2 390.8 379.1 365.6 354.7 355.2 355.3 353.8 354.9 356.7 352.4 348.4 342.2 331.4 320.8 311 302.4 298.1 290.6 284.9 280.2 276.3 270.8 267 267.3 267.1 266.7 266.4 265.9 273.2 273.5
308.6 310.6 313.8 315.5 316.7 317.8 318.1 319.2 320.3 321.5 323.5 325 326.8 327.5 329.4 331.3 332.3 334.8 336.6 338.3 341.6 344.5 346.8 349.3 354.4 358 364.9 371.2 380.3 385.9 390.2 395 405.1 419.1 427.5 432.3 437.5 443.2 452.2 461.8 471.7 478.8 479.2 478.7 473.2 465.4 457.5 450.7 442.9 439.4 433.2 435.6 439.4 442.8 446.4 448.4 445.9 443.9 441.8 439.9 437.7 437 435.1 429.5 424.8 420.2 412.1 400.4 387.9 373.5 355.7 338.1 328 325.3 322.8 321.1 319.8 319.5 322.5 344.4 350.3 345.9 343.2 339 331.9 338.9 339.8 341.7 349.4 351.9 352.5 360.2 368.4 376.5 381.9 384.7 386.7 389.7 389.8 389.3 387 384.4 381.2 377.6 373.1 369 364.5 359.4 354.7 349.1 344.7 339 334 330.2 325.4 321.1 317.2 314.5 311.6 308.2 305.3 301.8 298.2 293.5 290 287.1 285 282.7 281.1 279.3 280 283.2 284.2 286.6 290.7 298.2 306.1 312.1 316.2 319.4 320.8 319.3 317 312.9 308.9 304.8 299.6 294.2 290.1 286.5 284.2 282.7 282.5 281.3 278.5 276.1 272 268.8 268.3 266.5 266.5 266.6 274.5 285.8 311.6 344.4 369.6 391.3 400.9 403.7 400 386.9 373.2 362.6 360.4 360.2 359.3 358.9 356.9 354 349.5 342.9 334.8 325.5 314.6 301.6 296.8 295 289.7 282 277.6 271.3 266.6 267.1 267 266.7 265.9 265.8 265.4 269.6
308 311.2 313.8 315 316.9 318.1 318.9 320.4 321.7 322.7 324.1 325.4 326.6 327.5 329.2 331.1 332.5 335.2 336.9 338.6 341.5 344.3 346.8 350.8 355 361.4 371 377.5 383.3 387.3 393.1 400.4 413.2 422.5 431.4 437.1 442.6 447.7 457.6 468.7 479.3 482.5 482.2 481.3 474.2 466.1 458 448.5 443.5 444.5 444.7 447.6 451.6 455.1 457.7 457.8 456.1 454.6 451.8 449.1 445.9 441.6 436.6 430.2 422.6 416 407.1 395.9 383 366.8 349 334.1 327.7 324.7 322.9 320.2 319.2 317.7 318.9 328.6 332.2 329.7 330.9 328.1 328.8 331.4 333.1 334.4 339.3 345.4 353.9 364.7 374.2 380.5 385.2 392.2 395.9 396.3 395.1 392.3 390 386 382.3 377.8 373.5 368.9 363.5 358.6 352.4 346.2 340.7 335.5 330.4 324.3 319.5 315.4 311.7 309.1 306.4 302.3 299.2 295.1 291.6 288.9 288.7 287.8 287.2 285.9 284.4 282 278.8 278.3 278.4 281.7 283.3 285.6 289.3 295.2 302 309 310.7 309.6 307.5 304.4 300.9 298.4 295.3 290.5 287.7 284.1 282 281.4 281 279.4 277 274.5 270.6 267.8 266.5 265.5 265.2 267.2 275.4 284 302.4 325.5 346.3 378.5 404.7 409.9 406.9 393.8 379.9 368.6 366.8 363.7 360.1 356.5 354.4 350.4 345.6 339.3 333.1 325.8 316.7 310.3 306.4 301.1 290.8 285.6 279.2 274.6 269.5 266.1 266.7 266.6 265.8 266 265.2 265.5
307 309.2 313.5 315.7 317.3 318.4 319.1 320.3 321.5 322.9 324.3 325.3 326.8 328.4 329.9 330.7 332.6 335.7 337.7 338.8 341.7 344.1 348.7 352.7 358.4 368 376.4 380.2 383.3 388.8 397.6 407.8 416.9 425.8 434.2 440.8 446.4 453.2 464.3 475.1 483.7 483.8 483.4 480.4 474.6 466.7 453.4 436.7 441.8 444.9 449.8 456.9 460 464.2 463.7 463.2 462.1 460.5 457.4 453.9 448.9 443.4 436.2 428.2 419 410.3 399.8 387.8 370.9 351.6 339 330.7 326.8 323.6 321.2 319.1 319.3 316.7 317.1 318.2 320.4 320.5 321.5 322.6 324.3 328.4 333.1 340.1 345.8 352.6 363 373.2 380.7 386.6 393.9 401.7 402.8 401.4 398.3 394.8 390.7 386 381.5 376.9 371.4 365.7 359.6 352.8 345.6 340.4 334.9 329.6 323.5 318.5 313.6 310.6 307.6 301.3 299.4 297.2 298.3 296.6 295.8 293.6 292 290.2 288.4 287.6 287.3 284.3 280.5 278.6 276.2 275.8 279.3 280.9 280.8 279.2 283 290.8 295.1 295.8 296.1 294.5 291.6 289.7 288.1 284.4 282.9 280.6 280.6 279.8 279.6 276.7 275.2 273.2 267.8 266.5 265.7 264.6 264.7 267.7 276.5 284.5 298.9 318.7 343.3 375.4 404.3 415 410 397.3 382.6 372.6 368.1 362.8 357.4 351.1 346.2 340.8 335.7 331.7 331.1 328.3 323.4 316.6 312.1 306.7 294.6 289.8 283.8 277.2 273 268.3 266.4 265.2 265.8 265.6 264.6 264.9
307.5 308.2 310.9 315.1 317.4 318 319.1 320.1 321.3 323 324.2 325.7 327.2 328.7 330.4 331.4 332.9 334.5 337.1 339.1 342.9 345.5 350.5 354.1 362.1 369.2 376.2 380.8 383.4 394.7 403.3 412.1 420.7 431.6 438.5 444 452 459.4 469.6 479.8 486.2 486.3 484.8 480.5 472 461.2 442.7 430.1 433.3 436 448.7 461 465.5 466.5 463.7 466.2 465.5 462.1 458.5 454.2 447 441.7 433.9 424.6 414.5 404.6 392.4 371.8 349.2 337.7 334.1 329.3 325.7 322.9 320.8 318.9 317.9 316.2 315.7 315.8 316.1 317 318.3 322.8 328.6 335.2 347.8 357.1 363.8 371.2 379.4 385.3 393 399.9 406.5 407.6 406.7 403.4 400.2 397.1 390.9 386.2 379.5 373.4 365.1 357.2 351.3 344.7 337.5 331 325.7 320.7 316.7 312.7 309 306.8 302.1 299.8 299.6 300 302.3 304.4 302.8 300.8 297.2 293 290.8 289 288 286.4 282.7 280.8 278.3 275.4 274.5 273.8 275 274.5 274.2 274.8 277.3 282.7 283.9 282.2 281.2 280.9 280.8 280.5 280.2 279.3 278.5 278.5 277.6 274.3 273 269.3 266 265.4 264.4 263.9 263.6 269 277.1 285.2 304.5 326.9 354.4 382.8 405.5 417.2 411.3 397.5 382.3 374.8 369.8 363 355.1 355.7 353.1 347.6 340 337.6 333.5 328.5 324.2 318 315.4 306.5 302.5 291.7 285.3 280.3 275.8 273.4 269.6 268.4 269.1 266.4 264.8 263.9
308.4 308.9 311.1 313.9 316.9 317.6 319 320.1 321.1 323.2 324.6 326.1 327.6 329.1 331 332.3 334 336.2 336.9 339.3 341.3 344.8 349.8 354.5 361.6 372.5 376.7 381.1 386.8 394.9 404.8 415.4 426.1 436.6 445.8 452.6 459.4 465.7 471 479.5 488.7 488.4 485.8 477.7 463.4 446.2 433.3 424.7 423 429.5 441.7 454 459.5 464 462.2 464.6 462.8 460 455.8 449.3 439.3 435.5 429.8 420.8 411.1 397.9 375.2 356.1 347.1 345 338.7 331.8 325.9 323.4 321.7 319.5 318.1 317.3 314.5 314.5 314.6 315 317.4 323.2 331.9 347.6 363.8 375.2 382 387.5 393.8 400 407.3 411.4 413.7 412.1 408.4 404.7 401.1 395.8 389.4 383.4 375.7 368.5 358.1 350.9 345.1 337 328.9 323.2 319.5 315.6 310.7 307.2 305 303.6 303.7 305.5 306.8 308.6 309.2 309.9 306.6 303.1 299.3 295.4 291.9 289.1 287.1 286.8 282.5 281.3 278.8 276.4 275.1 274 273.3 271.9 271 271 271 271.2 274.1 275.1 275.3 274.7 275.5 275.6 275.6 274.1 274.1 274.9 273.8 272.7 272.2 269.2 265 264.9 264.4 263.2 262.8 269.5 277 290.8 312.8 335.1 360.2 388.5 413.4 421.9 411 394.8 385.3 379.4 371.1 361.7 359.9 359.8 358.3 355.1 350.3 344.6 337.2 330.4 325.9 323.5 318.9 311.3 305.4 294.3 289.8 285.8 281.9 278 278.4 275.4 278.3 278.5 271.3 264.4
311.3 310.9 313 314.2 315.6 316.6 318.4 320.1 321.4 323 324.4 326 327.8 330.3 332.5 333.8 335.7 337.8 339.6 340.7 343.1 347.1 347.8 351.4 362.2 374.4 377.6 380.4 387.1 397.5 404.9 415.6 427.6 440.1 450.6 458.8 465.2 471.5 478 482.4 489.5 487.1 481.1 471.2 458.9 445.6 430.8 422 419.3 425.1 436 445 452.4 456.4 454.2 453.3 450.8 447.8 449.1 441.7 435 428.1 427 416.7 406 390.4 372.6 366.2 359.6 352.2 344.7 337.8 331.3 326.9 323.8 320.2 318.3 317 315 312.7 313.1 316 321.7 329.8 344.4 362 378.7 387.3 394.4 401.1 407.3 412.9 416.2 417.4 415.9 411.9 407.5 403.4 400 394.9 389.9 381.9 370 355.6 348.9 343.4 337.1 330.9 325.7 322.1 318 312.9 313 310.5 311 314.8 319 318.2 316.5 314.8 313.4 311.9 308.6 304.9 300.2 295.7 292.7 289.5 287.7 284.4 281.5 280.9 279 279.8 279.1 278.2 275.6 273 270.7 270 270.1 269.6 269.7 271.8 272.3 273.7 274.1 273.3 272.4 271.1 272.4 272.6 271 270.6 268.6 265.1 264.7 264 263.8 261.5 261.8 270.3 283 303.8 326.6 350.6 374.1 397.9 418.7 421.3 410.9 397.4 387.4 383.2 373.6 364.8 366.3 365 363.7 363.4 359.3 350 341.8 335.9 330.1 325.8 319.7 316.9 310.8 301.6 294.9 292.8 290.1 288.3 285.9 283.5 285.4 282.6 278.9 271.9
313.6 313 314 314.9 316.6 317.8 319.4 320.2 321.7 323.1 325.1 326.6 328.7 331.8 333.5 335.9 337.9 339.9 341.6 342.4 344.4 348.3 351.8 353.8 358.9 371.3 378 382.3 386.8 399.2 409.5 418.3 432.4 445 456.4 463.3 469 476.8 484.6 488.5 487.3 482.9 474.8 464.2 447.6 438.9 426.4 420.1 416.4 420.3 429.5 442.7 451 450.4 444 438.3 433 431 431 428.4 425.4 418.8 416.6 410.2 401.9 393.3 382.7 372.1 364.4 357.3 350.3 343.6 336.5 330.7 326.3 320.3 316.6 314.9 313.9 311.9 315.7 328.3 336.7 342.8 356.7 372.9 385.3 396.8 404 410.5 416.4 421.4 422.6 419.4 415.8 411.8 407.4 403.4 401.2 397.6 392.2 388.2 380.5 372.4 363.8 354.9 346 338 330.3 324.4 319.7 318.9 320.3 323.4 327.3 328.2 325.2 323.5 321.2 318.5 316.3 312.3 308.8 306.3 301.4 296.1 292.4 290.1 285.5 283.4 281.6 281.4 282.7 281.7 280.7 280.6 276.7 275.4 273.7 272.7 268.9 268.7 268.5 268.8 270.8 272.1 272.8 272.9 271.2 269.7 271.1 271.6 269.1 267.2 266.5 264.3 263.4 262.3 262.1 261 261 269.8 293.1 312.5 338.3 364.8 387.5 410 421 420.7 410.3 397.3 396.8 387.7 376.1 367.6 370.1 370.4 373.2 371.8 366.2 356.4 347.9 342 334.7 328.9 323.8 317.9 314.1 309.1 303.2 303.4 300.5 296.4 293.7 291.9 292.1 290.4 285.5 281
315 315.1 315.2 315.5 317.1 318.7 319.6 321.2 323.1 325 327.9 330.6 333.1 335.5 337.1 338.8 340.5 342.1 344.1 346.6 346.5 349.1 353.1 358.2 361.6 371.4 380.2 387 392.1 400 410.7 423.8 439 453.4 461.9 469.1 476.1 483.8 489.2 489.2 483.9 477.8 469.9 459.8 449 430.4 422.1 417.2 414.8 416.7 427.3 440.6 449.4 442.4 432.8 422.9 416.8 409.1 408 410.1 408.4 401.8 405.6 402.8 396.8 388.4 379.1 372.3 367.9 362.4 356.5 348.7 341.2 333 324 317.8 315.9 314 311.6 310.9 327 339.6 349.9 356.5 367.7 379.8 391 404 411.1 417.9 422.9 424.7 422.6 419.4 415.6 411.5 407.5 403.6 402.4 398.7 395.3 389.2 382.8 374.5 364.8 356 346.7 338.7 330.3 325.8 323.7 326.3 334.3 333.4 332.1 329.1 326.5 323.7 320.8 318 315.3 313 309.1 304.2 301.2 295.8 292.6 287.7 284.6 284.8 283.5 282.8 281.2 280.7 279.7 278.7 276.5 274.4 274.1 272.5 270.2 267.5 267.6 267.2 267.1 267.5 270.4 269.8 269.1 267.2 269.7 270 267.7 266.5 264.6 264 262.7 261.8 260.6 260.1 260.4 273.5 298.7 324.5 349.2 377.1 400.4 419.9 425.6 421.5 415.3 410.5 404.4 392 378.2 371 373.2 382.4 385.4 382.6 375.4 366.6 358.8 353.1 345.1 336.7 328.7 327.4 321.3 316.2 311.1 313.3 308.5 302.7 300.1 297.6 297.6 295 288.9 283.9
318.6 317.9 318.6 318.9 319.7 320.7 321.7 324.5 327.6 329.5 332 334.9 336.6 338.8 340.6 341.9 343.6 345.2 348.5 351.2 353.8 351.5 357.7 362.8 367.1 375 385.4 393.4 400.2 403.6 410.7 420.6 441 455.9 465.5 474.9 482.5 488.2 491.9 488.3 480.7 472.1 463.1 452.4 441.5 428.9 418.2 414.8 412.6 413.8 424.6 437.6 445.7 438.1 426.5 408.2 399.2 393.3 388 385.7 384.8 380.3 383.2 382.3 381.9 378.6 373.7 369.9 368.5 363.2 357.4 350.4 342.6 334.7 323.3 318.4 316.9 313.6 310.5 310.4 332.6 347.8 360.8 368.5 376.2 386.2 396.6 407.5 416.6 423.8 424.8 424 421.4 418.6 413.7 409.6 405.7 404.5 402.5 399.9 397.3 390.1 382.5 370.8 361 352.5 342.8 336.1 336.5 337.1 339.8 340.9 338.3 335.3 332.7 329.4 326.7 324 321.2 317.9 313.3 310.4 306.8 303.8 299.7 295.2 290.1 288.1 288.6 287 286.3 283.6 282.4 281.8 281.6 279.2 277 275.4 272.6 270.9 270 269.2 267.8 266.8 265.7 264.4 264.4 263.9 264 263.4 263.2 262.8 263.5 261.9 263 262.4 261.5 261.7 260.5 259.4 260.1 279.3 307.3 334.9 359.3 388.2 411.6 429.9 429.1 422.8 418.6 417.9 407.9 396.8 382.5 376.1 381 397.6 396.4 391.5 385.1 377.9 370.4 363.5 354.1 350.8 344.8 338.6 335.6 330.8 325.3 321.7 317.1 309.8 306 303.9 301.6 297.6 292 286.2
328.9 326.8 325.3 325.1 326.1 327.7 329.1 332.3 335.4 337 338.7 340.3 341.7 343.3 345.2 345.6 346.8 348.3 352 356.1 359.7 360.5 364.4 370.5 374.4 378.4 387.8 396.6 401.1 411.5 419.1 427 441 455.9 464.9 475.2 484.6 491.4 491.9 485.7 475.1 463.5 452.6 443.5 432.8 422 416.5 413.1 411.1 409.2 422 433.5 441.3 441.2 431.9 415 395.5 384.1 374.6 369.2 366.7 365.4 363.7 361 358.8 356 358.8 361.7 366 359.2 353.3 348.3 342.3 334.9 323.4 319.9 318.2 317.3 312.8 309.1 335.9 354.3 367.9 375.6 383.7 392.2 400.6 409.7 420.3 423.7 422.4 420.9 416.8 413.3 409.5 408.6 406.2 404.9 404 402.1 400.4 392.2 382.2 370.7 359.5 355.6 354.5 352.7 351.8 352.4 348 343.9 341.2 337.7 334.4 330.9 326.7 323.2 319.2 315.6 310.9 308 304.8 300.9 296.3 290.8 291.3 292 290.2 288.7 287 285.2 285 283.9 283.2 280.6 279.3 275.9 272.6 271 269.6 269.8 269.1 268.5 268.3 267.9 267.6 263.1 263.4 262.6 261.3 260.6 259.8 259.3 259.5 259.1 258.8 258.9 257.1 258.6 261.5 285.2 313.1 339.1 367.8 396.9 422.8 435.6 430.9 426 422.5 420.3 412 404.5 388.4 386.7 401.9 407.6 405.5 400.2 395.4 387.7 379.9 374.5 369.2 365.1 359.8 355.5 349.4 343.1 335.7 329.8 324 316.7 311.3 307.1 304.9 301.3 292.7 287.1
338.7 334.9 333.8 332.9 333.4 335.7 337.8 341 342.5 343.7 345 346 347.6 349.3 351.2 351.8 354.1 354.9 357 360.8 366.6 368.7 371.5 378.3 383.5 387.5 389.9 396.7 405.2 413.3 422.4 432.5 439.9 450 459.2 471.9 480.4 485.9 489.7 484.6 464.3 450.4 441.9 433.5 427.1 420.8 416.3 412.1 406.9 403.9 409.7 424.5 437.2 442.7 437.8 425.4 412 397.6 385.2 374.5 366.3 361.6 359.8 357.5 353.1 350.1 348 348.2 349.2 347.6 346.3 342.8 339.4 332.5 324.9 321.1 318.8 317.7 314.3 308.9 330.9 354.1 368.7 380.8 391.1 399.1 406 414.8 421.8 420.4 418.8 418.7 414 408.9 406.4 406.2 406 405.8 405.7 404.9 401.2 394.8 386.6 379.6 374.6 371.5 368.3 363.2 361 353.7 349.1 346.2 342.8 336.6 332 327.7 322.5 319 315.2 311.6 307.7 304 298.3 295.8 293.8 293.1 293.6 292.6 290.9 288.2 287.6 287.4 286.4 284.8 283.9 282.1 280.6 277.2 273.5 272.3 271.2 271.1 271.3 270.5 269.8 269 267.2 266.7 266 264.7 263.1 263.5 262.9 262.2 260.9 258.6 257.5 257.7 257.5 257.4 262.9 287.8 315.2 340.8 371.9 402.7 429.6 438.3 432 427.7 425.2 421.8 413.9 401.7 389.8 403.1 416.1 416.9 413.4 409.4 404.7 397.9 392.6 388 384.2 379.5 373.2 366.8 359.2 351.5 344 335.9 328.1 320 315.3 311.6 307.4 303.5 293.6 290
344.4 341 340.4 340.7 342 344.1 342.8 345.5 346.9 347.7 349.8 350.8 353.4 355.2 357.1 358.8 360.6 362.6 365.2 368.8 372.7 376.7 382.3 388.2 393.2 398.4 401.9 403.2 405.8 411.2 420.2 431.9 441.2 445.6 453.6 464.8 474.9 480.9 488.9 486.5 469.3 452.8 443.7 437.5 427.8 422 416.7 413 407.5 398.9 401.4 415.7 433.2 442.6 442.9 435.6 425.7 416.3 406.5 394.2 382.3 370.7 362.8 356.4 352.6 347.8 343.8 340.2 338.2 338.2 336.7 336.9 337 329 323.6 320.9 318.7 317.6 313.6 308.5 316.2 347.7 368.3 383.7 394.8 403.6 410.4 415.4 415.1 412.4 413.3 411.4 405.5 401.2 400.9 403.2 405.1 406.5 408 407.6 404.8 398.9 393.4 388 382.6 378 373 366.8 360.7 354.4 348.6 341.6 335.6 329.7 324.4 320.9 318.7 316.2 309.7 305.7 306 303.5 301.4 297.9 295.3 295.8 295 293.4 292.5 291.8 290.1 290 289.9 287.6 285.9 284.5 282.1 278.3 275.9 274.4 273.8 273.7 274 274.1 271.8 270.2 269.8 269.6 270.3 268.6 265.5 263.7 263.9 263.2 262.3 261.6 260.8 259.7 256.3 256.7 262.3 287.1 314.6 341.3 372.6 402 428.7 436.6 431.9 427.9 425.5 422.8 408.7 398.2 406.1 419.9 422.6 422.7 420 417.4 413.2 410.6 406.3 401 397.7 390.5 383 375.3 366.8 357.6 347.2 338.4 329.6 323.1 317.5 312.8 309.8 302.7 297.2 295.2
347.5 343.9 345.7 348.5 349.1 349.1 347.3 348.8 351 350.5 353.3 354.7 356.8 359.1 361.3 363.5 365.7 367.6 370.4 373 376.8 382.3 387.8 392.5 399.4 405.3 411.5 414.7 419.6 419.5 422.5 428.7 434.1 441.3 449 460.5 472.9 482.6 488.5 481.5 470.1 459.9 453.1 448.9 435.9 425.6 419.1 412.7 405.4 399 396.3 405.8 425.3 437.9 441.9 440.1 433.7 427.6 420.2 412.6 404.3 394.3 383.6 374.2 363.5 357.4 349.5 342.9 337.7 333.7 332.4 332 329.9 326.6 322.3 320 316.2 315.7 314.5 312.2 306.4 328 359 381.4 394.2 403.4 409 407.5 405.6 404.2 402.4 397.6 389 383.9 386.5 395.1 402.5 407.4 409.9 410.5 406.3 402.4 397.2 391.4 385.7 380.4 375.3 369.7 361.4 352.6 343.7 335.6 329.4 324.7 320.3 317 314.1 313 312.2 310.3 308.3 305.5 302.5 298.7 299.4 298.4 297.3 296.8 298.2 298.3 297.3 298.8 296.7 294.6 291.5 288.3 285.6 282.1 279.6 277.1 277.7 278.5 277.6 275.6 274.4 272.7 272.5 273.3 272.4 271.2 266.8 264.4 264.4 264 263.3 261.6 260.6 260.4 256 255.6 259.4 284.7 311 339.3 371 398.9 423.9 432.9 431.9 427.9 424.2 419.1 411.5 410 422.3 430.2 431 429.1 424.7 425.5 423.3 421.7 416.9 412.8 407.3 399.1 390.1 381.5 371.8 360.3 349 337.2 329.3 323.6 320.4 316.8 312.6 305.3 302.3 299
344 343.1 347.5 350.9 349.7 347.8 348.1 348.4 349.2 350.3 352.3 354.5 357.2 360.2 363.6 364.5 365.8 369.9 371.4 374.4 378.5 384.1 390 395.3 402.2 410.3 416 421.3 429.1 435.8 437.9 439.5 443 448.3 451.5 464.9 477 485.3 483.3 477 468.8 461.1 457.7 449.1 437.8 429.6 422.6 415.6 403.3 395.1 389.9 397.7 418.9 431.7 439.8 440.3 435.8 429.9 424.2 415.8 409.3 402.2 394.5 386.2 375.8 365.4 355.5 345.7 339.2 335.7 333.5 326.9 325.6 322.5 320.5 317.9 314.6 313.6 313.9 312.9 307.2 315.9 351.9 375.8 392.2 400.2 401 396.7 393.8 390.6 385.7 378.6 369.4 364.6 371.5 389.3 400.3 408.8 411.2 409.8 407 403.3 397.9 392.3 385.7 380 375 364.8 356.3 345 335.4 330.2 326.3 324.2 323.4 320.7 318.6 317.7 315.3 311.7 309.6 306.8 302.4 304.1 306 304.1 301.2 303 303.5 303.9 300.2 303.9 303.6 300.8 299 296.2 291.2 287.6 283.6 280.7 281.7 281.6 280.9 279.5 277.1 275.6 275.3 276.1 274.9 273.8 270.2 266.9 264.7 263.8 262.8 262 261.3 260.1 254.8 255.4 257.7 280.5 307 334.8 366.7 393.5 414.1 425 427.7 428.2 425.6 423.3 420 422.7 430.1 436 435.4 431.8 427.4 432.4 431.8 428.7 422.5 418.5 412.7 403.9 394.8 385.5 373.5 361.4 346.4 338.9 331.5 327 323.6 319.4 314 309.6 307 312.8
338.1 338.4 342.9 343 342.5 341.6 341.2 343.2 344 346.7 348.9 351.7 353.6 356.4 359.8 362.9 365.2 369.8 368.8 369.6 375.5 381.8 389.5 395.4 404 411.2 417.4 422.8 435.7 441.2 443.7 449.2 455.2 458.7 462.7 474.9 480.3 482.9 476.6 470.2 464.7 458.9 450.4 437.8 429.2 424.8 418.6 410.8 398.5 392.8 387.7 390.3 409.7 426.7 439.7 439.5 432.6 428.8 422.5 417.8 411.8 404.2 396.6 387.8 377.6 366.8 355 346 339.6 336 333.4 330.3 326.4 320.7 318.9 316.5 315.9 312.3 312.8 313.2 307.5 312.4 346.6 370.6 384.8 393.6 389.3 384.3 380.3 377.9 370 360.9 353.7 358.4 375.2 392.1 401.7 409.4 411.2 407 404.5 400 397 393.2 386.6 378.8 368.3 353.6 343.5 337.6 335 333.6 331.4 330 328.1 325.7 325.2 321.6 318.4 313.7 309.4 306.1 309.6 312.2 314.3 310.9 307 309.5 309.1 309 305.7 309.9 310.7 310.2 306.2 302.2 298.2 292.4 286.9 285.1 285.6 284.3 283.6 281.2 280.1 279.3 278.6 279.8 278.3 277.2 275.3 270.1 266.3 264.1 263.3 263.2 261.3 259.9 253.8 254.9 258.1 274.5 301.1 328.7 360 384.9 406.3 415.8 420.6 426.8 424.9 425.9 424.6 428.2 434 436.9 435.4 433.4 430.7 435.5 436.8 430.6 425 419.6 416.4 407.9 398.1 388.1 377.3 366.4 355.3 344.7 336 331.6 328 322.9 318.2 314.2 318.5 318.5
329.3 329.4 327.7 327.7 329.1 330.1 331.1 334.1 336.8 340 342.2 343.1 343.7 346.1 352.2 357.4 363.8 365.3 364.1 364.7 367.1 374.9 385.2 393.3 403.2 410.7 417.1 423.6 438.1 442.3 445.2 458 463.6 467.1 472.7 481.1 482.3 475.4 469.1 463.1 458.1 448.3 436.4 424.8 421.6 423.1 419.6 412.7 403 391.3 387.3 389 408.9 423.4 434.9 435.3 428.5 426.3 422.6 418.8 412.2 404.1 396.1 385.6 374.3 362.4 349.9 341.7 338.6 336.4 334.8 332.5 329.8 325.1 320.7 317.2 316.1 314 309.4 312.2 306.7 304.6 337.7 360.2 376.3 377.4 375.7 372.9 367.9 361.4 353.8 346.3 352.2 366.3 382.6 394.1 402.3 406.9 406.8 403.2 400.2 399.6 396.9 391.9 386.1 375.6 364.3 357.4 351.9 349.9 348.7 347.7 346.7 344.5 341.5 338.4 333.5 328.1 321.3 313.4 310.4 311.3 317.3 321.8 322.9 319.2 311.8 318.1 315.9 314 311.7 316.2 317.3 314.2 310.3 308 304.4 297 292.4 291.7 289.9 287.9 285.7 284.6 284.5 281.6 283.9 283.5 280.6 279 278.3 273.7 267.1 264.7 264.1 263.1 262 260.7 254.1 254.5 257 275.4 295.7 321.9 350.7 375.4 396.7 412 415.8 419.9 423.4 425.9 425.5 429.3 433.3 433.8 431.9 430.1 429.3 436.2 436 433.1 428 422.7 415.3 406.1 396.7 387.3 377.8 368.2 357.9 347.2 338.9 334.5 328.6 323.9 321 322.8 320.6 318.9
318 318.3 314.7 315.5 317.3 318.5 320.5 325 327 329.6 331.2 333.1 334.3 336.9 344.4 353.1 357.1 358.8 360.4 363.6 365.5 369.2 381.3 394 403 407 415 424.2 438.2 441.4 449.9 464.1 469.9 474.8 481.4 483.9 476.5 468.8 460 452.7 445.5 434.3 423.4 418.1 416.9 421.2 419.5 416.2 408.4 391.1 382.6 385.6 403.7 418.2 425.9 427.6 425.7 424.5 421 416.5 409.6 400.8 390.5 379.2 367 354.4 347 343.4 340.8 340.9 344.5 344.5 341.6 336 326.7 320 316.1 314.8 311.4 305.7 303.8 301.5 319.7 344.9 357.5 362.7 364.1 362.4 356.6 346.1 339.9 345.4 361 378.3 389.4 395.9 398.2 402.9 402.2 398.9 397.2 398.6 397.6 395 390.9 385 377.6 372.8 370.2 367.4 363.5 362 359.4 356.1 351.6 345.2 338.8 331.3 320.6 315.6 316.9 323.2 328.8 331.7 333 328.8 323.2 324.4 324 320.7 317.1 323.5 324.3 321.3 316.7 313.5 307.7 301.4 297.8 295.6 293.1 290.6 289.3 288.9 287.7 285.7 287.4 285.8 281.8 280.2 277.8 270.6 268.5 266 264.4 263.4 261.4 259.7 255.1 253.7 255.1 270.8 290.8 312.9 336.3 362.5 382.4 397.2 411.9 417 420.8 422.6 418 426.5 430.7 427.8 426.8 428.4 429 433.1 435.5 430.7 426.7 420.1 411.8 403 393.7 385.5 376.6 367 356.6 347.1 340.1 335.9 329.6 327 326.3 323.5 320.4 317.3
310.5 309.6 310.7 314.5 315.8 316.7 318 319.3 320.8 322 323.5 325.6 329.1 331.2 337.2 343.9 347.6 350.8 356.9 359.9 363.6 366.3 375.9 392 400 404.6 413.9 424 435.7 441.4 456.5 468.1 474.5 480.1 483.8 477.2 470.1 460.9 453.7 436.1 429.3 421.7 416.6 414.6 412.9 418.7 416.2 413.8 410.7 393.8 379.2 379.2 390.9 407.6 413.6 412.1 413.8 419.1 418 413.2 407.8 399.3 387.5 372.7 362.9 358.2 354.7 351.1 351 356.1 357.4 359.2 355.4 346.5 332.3 321.5 317 314.9 312.6 310.7 309.8 303.9 301.7 326.1 337.1 347 349.9 349.8 339.3 330.6 333.4 353.3 371.4 386.3 392.7 392.9 393.3 396.2 396.2 394.4 396.5 400.3 399.3 397.9 396 393.6 389.7 387.2 384.1 379.8 375.6 372.3 369.2 363.8 356.7 350.2 343.1 329.5 321.6 322.1 330.5 336.8 341.1 342.4 342.3 342.2 337 332.5 332.2 329.9 326.9 331 328.5 324.8 320.8 316.7 310.8 306.3 304.7 303.1 300.1 296.1 292.7 292.6 292.6 291.7 289.4 286.2 283 280.3 277.7 275 271.5 266.9 263.7 262.2 261.5 258.4 255.7 253.3 254 265.3 283.4 302 322 345.4 366.4 383.4 397.5 408.7 412.6 401.2 403.9 420.6 425.2 421.3 419.3 424.1 427 430.6 430.7 425.5 422.6 415.1 407.9 399.1 390.9 382.8 373.6 365.4 356.6 348.2 342.5 336.5 331.9 329 324 320.8 317.4 313.4
307.9 309 311.7 313.4 315.2 316 316.8 318.1 319.5 320.7 322.1 323.2 324.9 327.4 332.7 337 342.3 347.2 351.5 354.2 358.6 364.1 373.7 386.6 394.8 404.7 412.8 423.1 433 442 460.7 470.4 478.9 482.5 476.2 470.3 463.5 456 447 435.8 426.1 416.1 411.9 408.4 410 414.4 415 414.2 408.4 391.5 377.8 374.6 378.9 388.1 397.3 397.1 400.8 408.3 412.3 407.4 404.3 400.1 393 383.9 374.6 369.5 365.2 363.1 365.8 366 366.3 364.2 359.3 349.6 337.6 324.6 318.1 315.3 311.6 309.7 308.7 305.8 299.3 301.9 317.8 330.1 333.2 330.2 321.5 321.5 342.1 364.1 381.6 390.7 389.8 387.5 388.5 389 389.9 392.9 397.9 400.8 403 402.3 401.9 400.6 397.5 395.9 392.7 383.3 381.7 379.7 376.1 368.6 361.6 353.8 339.3 327.7 325.4 332.3 338.9 348 353.2 354.3 355.8 353.4 348.4 346.7 345.1 342.9 337.9 338.7 335.3 329.9 328.1 327.6 324 320.2 317.3 314.3 311 307.2 300 296.5 298.3 295.9 294.7 290.6 285.5 282.5 281.5 279 274.2 268.4 264 262.5 261.7 260.1 256.8 252.7 253 259 274.3 293.4 310.3 331.2 351.5 367.5 383.5 397.8 388.8 377.2 385.6 410.1 414.7 412.2 410.9 415.1 420.3 423.4 422.1 417.2 411.9 407.4 400.1 394.7 387.2 378.7 370.3 362.1 353.7 349.5 342.8 337.7 331.7 326.1 320.3 318.1 312.7 307.4
310.2 310.3 312.9 315.2 316 316.3 317 318.4 319.3 320.4 321.2 321.8 323.5 326.8 330.6 332.8 336.5 341.7 344.8 348.3 356.6 363.8 374.2 386.3 397.3 406.4 414.9 427.9 438.4 447.1 462 472.2 479 476.7 469.2 462.7 456.4 448.6 438.9 430.5 421.8 412.3 407.9 403.7 407.9 413 416.7 413.7 400 389.6 378.2 371.3 370.9 373.4 379.6 381.2 390.4 396.2 400.3 399.8 403 399.7 394.3 387.7 382.4 378.5 377.3 373.7 370.6 369.8 367.6 365.7 360.3 352.5 341.2 329.7 320.9 316.3 312.9 309.8 308.9 306.9 304.9 298.1 307.6 314.9 315 311.9 312 325 352.1 375 390 389.8 382.1 383.1 382.8 382 386 390.7 398.9 404.4 405.9 406.3 407 406.6 404.6 401.4 399.1 390.5 389.2 385.4 378.7 372.4 363.9 351.3 333.5 326 332.1 341.5 350.7 358.9 364.3 367.9 370 368 364.8 361.8 357.4 355.3 351.5 349.8 346.1 341.2 347.2 343.3 338.6 334 330.8 327.6 322.4 316.2 303.7 302.7 303.2 301.5 299.7 297.7 290.3 285.5 284.2 283 278.8 269.2 264.6 263.7 263.1 261.1 259.6 254.1 252.3 254.3 268.2 283.2 299.3 316.4 334.1 353.4 373 375.5 367.4 358.8 373.6 397.2 403.5 404.6 404.3 404.2 407.4 411.7 410.4 407.2 402 395 389.8 384.8 376.7 371.1 365.1 358.6 351.5 346.6 340.9 333.8 328.8 323.2 316.9 311.7 307.6 301.2
311.6 312.8 313.7 315.3 316.5 316.4 316.9 317.8 318.8 319.7 320.7 321.7 324 325.8 328.8 332 335.2 338.8 342.5 349 355 363.9 376.1 387.2 399.6 410.5 421.9 433.7 443.2 454.7 465.7 471.8 476.9 472.1 464.3 456.5 448.7 437.1 428.3 420 412.5 403.7 401.2 402.7 411.7 419.4 421.5 419.9 413.3 396.5 378.5 370.9 366.4 368.3 367.7 366.7 369.4 377.2 382.2 388.8 393.3 392.2 387.4 382.5 377.3 376.6 374.4 370.9 369.7 367.8 365.8 364.3 360.4 354.8 347.7 334.3 325.8 320.6 314.6 309.7 307.8 307.2 306 304.6 296.8 295.8 298.2 307.7 319 338.2 365.1 379.8 384 378.3 373.3 375.2 371 373.5 376.9 385.8 395 401.5 407.1 408.2 409.8 411.3 409.1 406.8 402.9 399.7 394.7 388.9 381.3 374.1 361.1 342.5 331.2 331.9 338.2 350.9 362.4 370.9 375.9 382.4 382.4 382.2 378.8 375.1 371.5 366.2 362.4 360.1 359.4 359.9 359.7 356.3 352.5 347.3 342.9 337.2 330 320.7 307 312.9 314.6 312.3 310.6 308.2 300.3 293.5 287 286 280.7 269.9 266.3 265.6 264.4 264 262.8 257 251.6 252 259.3 271.4 288.8 302.5 322.7 345.6 357 356.7 350.9 347.2 365.5 388.4 395.6 399.9 400.6 397.2 395.1 393.8 396.1 395.2 388.1 379.9 374.2 372.1 366.3 360.2 357.2 352.7 346 342 335.1 327.7 321 317.3 312.8 305.5 299.8 293.9
312.2 313.5 314.2 315.5 316.2 315.4 316.2 317.2 318.2 319.7 321.3 321.8 323.1 325.5 328.2 331 334.2 337.4 340.8 346.7 353.3 363.3 374.3 388.7 400.8 412.8 426.1 437.9 448 458.7 465.5 469.2 473 466.7 459 450.8 439.4 426.9 417.2 409.8 403.5 400.1 399.4 404.8 416.5 424.5 426.8 424.5 421 410.6 387.3 373.4 368.1 363.3 364.9 363.2 360.5 358.2 360.5 365 374.4 378.7 377.4 374.9 371.1 370.8 366.8 364.8 364 361.7 359.2 360.6 360.6 357.1 350.7 342.5 336.8 331.2 322 313.5 304.9 305.6 305.7 304.7 300 294.7 306.3 318.8 332.2 352.1 368.6 373.3 365.7 363.1 359.5 361.1 358.5 364.6 373.8 384.9 392.2 401.8 409.2 412.3 414.3 415.5 414 410.6 406.5 402.7 397.5 391.4 383.2 371.2 351.8 337.6 336.1 337.2 346.9 361.7 372.8 382 390.7 396.2 397.8 395.7 390.8 387 383 377.6 375.4 374.3 373.7 371.8 368.8 367.1 362.3 360 352.5 345.1 337.5 322.3 310 326.3 333.5 332.4 329.4 324.9 317.6 309.8 300.8 293.3 288.9 276.1 269.6 268.9 266.9 266.1 265.1 258.5 251.2 251.5 252.1 266.3 276.7 295.8 315.9 329 340.2 337.8 327.9 332.4 351 378.6 395.2 399.1 396.2 390.1 386 385.1 383.6 378.6 376.8 369.4 362.2 356.5 352 347.4 345.1 340.8 336.9 332 325.8 312.1 309 304.5 299.6 297.4 292.7 287.7
312.6 313.3 314.3 314.8 312.6 313.2 314.3 316 318.2 319.7 321 321.7 323 325.2 327.9 330.7 333.4 337 341.1 345.7 352.5 361.4 375.5 386.5 399.2 413 428 437.4 449.2 456.6 459.1 461.7 466.4 460.5 453.7 446.4 432.1 419.7 412.8 405.7 401.1 398.3 398.2 406.9 419.2 425.9 429.2 429.8 429.7 423.3 407.3 393.6 377.3 365.2 359.1 361.8 359.5 354.8 352.7 349.7 353 356.4 357.5 357.8 357.4 357.7 356.7 359.7 357.8 355.4 352.8 355.5 360.5 360.3 355.8 348.6 342.9 335 326 315.8 306.9 303.3 303.1 300 295.9 293.2 313.4 330.9 342.3 355.9 364.5 356.3 357.1 349.7 341.2 342.9 345.8 357.4 371.5 380.3 389.1 403.5 412.5 415.3 417.6 418.8 416.7 413.8 409.3 405 399.4 390.9 378.1 359.3 343.1 341.8 340.9 344.8 356.2 370.7 384 396 405.8 412.1 413 408.5 402.9 398.1 394.2 389.2 386.7 385.5 383.2 379.7 376.7 374.7 372.1 365.3 358.3 348 333.3 320.1 323.8 338.4 347.5 349.3 348.3 344.7 337.1 327.1 316.2 307.9 298.8 287 276.7 272.1 272.2 270.1 268.1 264.8 251.5 250.4 250.8 263.4 271.5 285.4 301.5 314.6 319.1 318.6 316.9 334 360.3 386.8 397.4 396.7 393.4 388.1 382.9 376.9 372.2 369.2 364.4 357.5 350.9 338 330 324.8 323.3 319.1 313.3 308.4 300.3 297.4 292.5 287.7 283.2 285.1 283.2 281.2
312.6 312.9 313.8 310.6 314.1 315.3 316.5 317.4 317.9 319 320.6 321.6 322.6 324.9 327.5 330 332.5 336.2 340.3 344.3 352.4 361.5 371 382.6 396.5 412 421.6 430.8 440.7 445.1 451 452.3 456.9 453.6 447.2 438.1 424.9 414.1 408.1 402.4 398.3 395.9 397 403.4 418.9 426 434.2 437.9 439.1 435.8 426.6 415 399.1 384.2 372.9 358.1 354 350.9 351.7 349.4 343.2 340.9 338.2 336.7 336.5 339.9 347.6 351.5 352.4 347 346.7 353.3 362.5 360.1 354.8 347.6 341.2 334.9 325.1 314.5 306.1 301.6 300 299.1 295.1 292.3 307 332.5 343.9 349.3 347.2 344.3 338.5 333.7 328.7 330.1 342.2 355.8 368.1 380.2 393.5 408.2 416.4 417.8 420.4 421.2 420 417.3 411.2 405.7 397.6 382.7 366.1 353.1 350 348 353.2 356.9 362.9 378.4 395 407.2 418.8 424.6 423.9 418.3 414.2 409.3 405.3 401.7 398 392.2 387.8 384.2 382.1 380.6 376.7 369.7 360.7 347.8 331.4 325.2 334.6 349.5 358.9 362.6 362.2 360.5 348.5 338.9 329.7 318.7 309.8 298.8 287.5 278.8 277.4 274.5 270.3 265.9 258 251.8 250.6 257.1 266.5 274.7 287 297 300.1 303.1 316.5 341.2 369.4 395 400.3 398.6 395.4 390 383.2 377.7 370.8 363.9 356.9 353.1 349.1 346.7 341.2 333.2 325.4 317.8 310 300.5 295.9 290 287.4 282.9 276.6 276.8 278.6 277.3
312.3 307 307.8 311.6 316.8 317.6 318.7 319.3 319.4 320.5 321.4 324 324.6 325.7 327.1 328.7 331.8 335.5 339.5 344.1 352.7 361.4 371.3 383.1 392.7 401.8 411.5 425.2 434 441.8 448.5 451.2 452.6 450.3 440.1 429.1 417.7 409.3 403.1 398.3 396.3 393.2 395.4 403.9 419.1 430.4 440.2 446.1 448.5 448.2 441.3 435 420.2 410 399.5 385.8 375.5 364 353.3 349.7 346.6 343.8 340.8 340.4 338.3 330.9 333.3 341.4 343.1 336.4 338.9 349.9 354.3 351.9 347.1 344.3 339.3 332.9 322.5 313 304.8 301.9 299.4 297.3 294.6 291.4 293 318 329.8 334.4 333.4 329.5 324.6 321.1 320.2 331.5 346.5 362.3 376.4 389 405.1 415.1 420.2 421.8 423.7 425.4 423 417.8 411.1 402.7 389.9 376.2 371.7 367.2 363.9 365.8 369.2 370.6 374 391.3 407.9 417.9 427.1 431.7 432.6 428 422.6 415.7 410 404.7 399.7 392.2 387.7 385.1 382.2 381.4 377.6 373.2 360.7 347.3 338 339.5 345.6 363.6 375.7 375.4 374.3 370 360.1 350.3 340 329.5 319.4 309.1 298.7 287.3 283.2 279 271.9 266.5 258.8 253 249.4 251.3 263.6 268.4 274.9 281.3 292.5 306.2 325.2 352.9 377.3 400.5 404 402.4 398.1 394.1 391.3 386.9 380.5 375.1 370 361.1 353.4 348.2 342.1 334.2 329.5 322.9 315.5 305.7 300.2 294.9 289.7 283.8 280.2 274.2 275.8 273.8
304.9 311.4 315.6 316.2 319.4 320 321.1 320.9 320.7 320.7 321.7 324.2 326.6 328 328.6 329.2 331.8 334.9 339.1 344.6 351.7 361.2 371.2 379.5 391.9 406 416.8 426.9 436.1 444.2 449.4 452.2 452 448.2 437.1 420.7 412.7 404.3 399 395.9 394.8 392 391.5 402.6 414.1 426.2 439 449.5 450.6 454.5 450.7 446 439.9 429.8 414.9 405.3 395.4 382.5 368.9 357.5 350.8 346.8 344.3 341.3 339.4 334.3 328.4 325.7 329.6 326.4 326.8 334.5 332.7 338.1 341.9 339.7 336.7 330.6 321.8 312.3 304 301.2 298 295.7 295.5 290.5 291.3 306.7 319.1 324.1 319.6 316.8 314.2 312.3 321.3 337.6 353.8 369.6 385.7 401.4 412.6 421.2 425.9 427.4 428.9 429.3 426 417.8 409.3 398.5 391 392 388.8 385.1 379.1 378 383.4 383.5 390 398.8 414.1 424.8 433.2 437 438.9 433.2 427.7 418.2 410.8 402.9 391.6 386.8 384.4 382.1 382.9 379.7 373.8 367.3 358 344.6 353 349.7 357.2 375.1 387.9 388.2 384.3 378 368.8 359.5 348.9 338.2 328 318.5 307 291 287.7 284.5 278.1 270.1 260.5 254.8 249.9 248.7 255.2 264.1 267 278.4 294.9 317.3 336.3 365.9 388.5 405.3 407.3 405.4 402.2 401.4 400.3 397 393.1 388.2 382.7 374.7 364.7 355.7 347.5 339.3 332.2 325.1 316.9 310.9 307 300 291.7 285.1 281.5 275.5 268 265
310.3 314.7 316.8 317.4 317.7 322.7 323.5 323.2 322.9 322.4 323.3 326.4 328.7 330.4 331.6 332.8 332.2 334.8 337.5 342.9 349.9 360.5 371.2 382.5 397.1 411.5 424.6 437.2 443.4 448.4 449.7 449.9 449.5 445.5 438.6 430.7 416.2 403.9 397.9 395 392.4 390 386.8 395.8 408.3 422.1 438.1 443.9 445.2 456.1 454.5 450.6 444.8 440.3 431.5 421.8 411.5 396.3 385.8 373.2 359.8 350.8 345.8 342.9 340.8 336.8 331.7 327.2 322.9 320.8 319.8 319.1 319.8 324 334.8 336.6 334.3 327.7 318.8 309.7 305.6 302.8 298.7 294.8 292.8 291.1 289.4 296.7 309.3 310.3 309.5 307.1 305.1 312.2 325.6 343.2 360.8 379.1 398.8 411.7 419.6 427.5 431.7 432.4 432.5 430.6 429 421.9 414.2 405.6 406.7 404.8 400.5 395.7 390.4 391.3 393.6 399.3 404.1 411.4 419.9 431.9 439.3 443.4 441.3 433.2 425.6 414.9 406.5 388 379 376.6 376.6 376.8 377.8 376.5 371 362.9 352.1 355.4 367.7 367.8 368.5 386.6 396.6 395.7 390.2 385.2 376.9 367.2 356.6 346.6 335.4 324.6 313.3 299.7 293 290 286.2 278.4 268.1 258.2 254 248.7 250.7 263.7 270.6 285.2 307.6 329.3 345.7 376.3 396.8 409.2 410.9 408.5 406.3 407.5 408.2 406.4 402.1 397.7 391.8 384 375.9 366.4 357.2 348.8 339.8 329.5 322.4 317 309.8 304.2 296.9 288.5 281.9 277.6 272.4 265.3
316.4 317.1 321.3 322.2 319 324 325.8 325.7 326.1 324.9 327.3 329.7 331.5 333.1 334.9 334.5 334.4 336.1 338.6 343 347.8 359.9 371.7 385 400.2 412.8 428.9 440.1 443.1 445.1 445.1 445.1 443.9 440 434.4 428.1 420.6 413.9 404.2 394.4 391.6 388.3 383.2 384.3 397.9 412.9 427.3 434.9 442.2 452 452.4 451.2 446.8 443.7 437.3 432.7 424.9 411.7 399.7 388.1 376.9 363.8 352.1 346.6 343 338.7 332.9 329.3 326 322.8 319 315.3 314.2 315.3 322.2 335.8 329.6 324.7 318.1 310.9 305.8 303.3 299 294.8 293.2 290.9 287.6 290.3 296.5 301.1 300.6 299.7 305.5 315.1 328.5 347.2 367 389.3 407.6 416.6 424.6 431.9 435.7 435.8 436.3 435.5 432.6 427.2 423.1 420.6 419.4 415 410.9 406.8 404.9 405.2 403.1 408 415.1 419.8 430 439.2 444.1 444.2 435.7 426.7 417.1 408.2 392.9 378.7 367 361.6 367 371.4 372.2 372.3 368.9 360.8 359.4 368.7 381.4 375.6 379.6 396.6 404.4 403.2 396.8 390.2 383.4 372.7 362.1 351.2 341.6 330.1 318.8 305.9 300.2 297.6 292 287.1 277.3 267.1 257.7 248.5 248.2 248.8 268.1 285.4 309.8 334.1 351.7 379.6 400.4 412.4 413.7 411.6 411.4 412.7 413.2 411.9 407.2 402.3 396.4 390.3 382.2 373.5 364.5 353.8 342.9 333.7 324.5 317 309.1 302.6 297.5 288 280.3 274.2 270.5 264.4
321.9 324.6 325.9 329.7 322.6 327 328.1 329.3 330 329.3 330.7 332.6 334.5 336.4 339.2 339.4 338.5 336.8 339.6 343.8 348 358.5 372.1 386.4 396.7 409.1 429.4 434.9 436.4 437.6 437.9 437.8 435.9 433.3 431.3 426.3 420.6 412.7 402.8 393.7 391.1 389.1 387 385.5 386.3 401.3 411.5 424.8 436.6 445.5 448 446.9 447.1 443.8 439.5 436.8 430.7 423.2 410.5 402.4 390.8 379.5 367.1 356 348 341.2 340.7 337.5 333.1 327.6 323.4 318.5 315.6 312 314.4 326.7 324.3 320.3 316.1 311.9 306.7 302.6 300.5 296.2 291.8 290.9 288.9 287.9 289.5 293.8 294.4 298.5 303.9 315.3 331 351.5 372.6 395.6 413.2 425.4 430.9 435.9 438.2 439.1 439.3 439 436.1 432.2 430.2 430.6 429.2 423.7 419.3 414.1 413 414.2 414.8 416.4 420.1 427.7 436.4 441.4 442.1 433.9 425.4 414.1 402.5 390.9 375.2 360 349.1 346.5 354 361.6 368 367.7 366.5 367.1 368.7 380.7 392.2 389.4 393 405.3 412 408.2 401.6 393.2 384.6 375.6 366.5 355.6 346 335.8 324 313.1 305 301.7 297.2 292.3 285 271.2 264.4 257.8 250.4 247.3 258.8 277.9 306.4 331.3 351.6 376.2 401.3 411.7 412.9 413.2 412.1 410.4 412.8 410.9 406.8 400.2 395.5 390.2 382.6 374.8 366.4 354.6 342.5 331 322.7 313.9 306.8 300.2 294.1 288.2 280 272.5 267.4 259.1
329.7 328.9 329.7 332 325.6 329.5 330.5 331.7 332.4 332.5 335.2 339.6 341.5 340.2 342.2 342.4 341.6 340.8 339.6 343.7 348.4 356.6 370 385.9 394.9 412.2 421.8 425.8 421.9 426.1 427.2 428.3 428.3 428.1 428 424.4 416.1 408.8 400.6 394 391 389 386.1 383.9 372.1 383 391.7 406.8 419.7 434.5 443 443.9 444.3 444.1 444.1 440 434.9 427.4 419.1 409.2 399.6 387.1 371.5 360.2 349.9 349.5 353.5 350.7 344.5 335.3 330.1 322.6 316.6 313.4 309.6 309.8 312.1 312.1 311.1 309.6 305.6 301.6 300.2 296 293.9 292.3 290.2 286.4 286.1 290.2 293.5 296.9 303.5 314.6 331.2 352.1 372.8 399.1 418.2 426.7 432.5 436.8 439.7 441.9 442 442.1 441.3 439 436.8 434.1 431.5 427.1 421.5 417.6 416.9 416.5 418.2 420.3 422.8 431.6 434.8 433.1 429.8 420.2 410.3 397.3 383.4 370.3 355.6 341.9 333.3 331.9 338.3 349.5 358.7 362.8 368.5 374 377.7 386.8 400.1 399.5 403.6 413.6 420.7 413.7 406.5 398.3 389.3 379 369 361.3 350 340.1 328 315.4 306.1 300.4 296.2 293 286.7 273 265.2 266.2 256.2 246.1 255.2 278.1 303.4 331.3 352.7 377.4 399.8 408.1 409.9 413.3 409.6 404.3 403.8 402.7 401.8 397 390.3 386.1 379.2 372.1 362.4 350.2 336.3 324.8 315.3 309.2 301.6 295.9 289 284.1 278.1 269.7 260.4 256.3
334.1 333.4 332.3 333.8 329.9 331.9 333 334.5 335.6 341.2 347.8 350.9 351.9 345.9 344.4 344.1 345 344.6 344.2 343.6 348.8 354.6 365.1 377.9 389.8 401.7 408.4 407.3 407.5 411.4 414.6 417.5 418.6 421.7 425.8 425.5 423.1 418 407.3 399.7 392.5 387.3 383.2 380.1 374.7 367.8 376.2 391 404.4 414.1 421.8 434.3 447 447.3 447.7 442.1 436.4 429 420.6 414.8 406.2 392.3 374.9 360.2 352.7 359.1 367.6 362.3 353.4 346.1 340.8 328.1 320.6 314.3 310.8 307.5 305.6 304.4 303.8 303.6 301.9 299.3 298.3 296 293.9 292.5 291.1 288.3 283.6 286.4 291.5 295.2 301.7 313.1 330.4 352 374.6 401 416.9 422 430 437.1 440.2 443.8 444.1 443.5 443.5 443.5 440.8 438.2 433.9 424.2 419.1 416.4 416 415.2 415.4 417.5 421.2 429.4 430.4 423.9 414.8 404.4 391.8 377.9 363.6 352.1 339.4 335.4 332.1 328.9 326.4 329.1 342.5 357.7 366.9 378.8 384.2 391.2 401.9 405.1 408.5 416.5 420.3 417.4 408.9 400.3 392.6 383.3 372.7 363.1 352.6 342.3 330.1 316.9 305 298.5 293.4 289.5 283.1 272.7 264.8 261.9 255.8 243.6 250.7 279.3 306.9 333.7 352.2 378.9 399 407.7 411.4 408 401.2 391 389.5 389.8 389.8 387.7 383.5 377.5 371.9 363.8 353.5 340.2 327.9 318.3 311.8 305.3 295.5 290.1 283.5 277.8 270.4 259.8 256.5 256.6
337 335.9 335.4 335.1 332.1 333.9 336.1 337.8 344.4 352.8 358.3 360 359 355.3 346.5 346.3 346.8 346.8 346.6 342.9 347.6 352.8 360.1 368 377.8 388.3 393.6 394.4 398.5 400.4 403.4 406.1 404 415 422.1 425.4 426.1 423.6 418.2 412 403.2 388.4 383.8 381.1 376.4 369.9 363.4 370.3 382.2 392.6 401.2 420.8 436.3 443.9 444.6 442.1 436.7 429.6 421.9 412.6 404.4 393.7 372.5 361.7 357.5 368.6 374.1 371 361.7 355.2 348.8 338 326.4 318.5 312.3 308.8 306.7 305.7 302 300.3 299 297.7 296.9 295.8 293.6 292.2 291 289.3 286.2 283 287.9 292.3 297.6 310.8 328.7 350.2 375.5 405.1 418.6 423.7 429 434.3 440.7 442.5 441.8 445.3 445.6 444.3 442.2 435.8 426.2 415.5 411.6 409 406.7 407.8 409.9 416.3 421.3 427.3 425.1 411.6 400.3 386.9 372 358.9 348.3 343.6 339.2 335.3 331.6 326.4 324.2 320.9 323 340.3 359 373 385.1 396.5 405.7 407.9 409.8 411.9 412.9 410.6 408.1 403.2 394.5 384.8 374 363.7 352.6 340.9 329 316 302.2 293.9 287.8 281.4 276.8 267.3 258.8 256.1 252.7 247.5 251.1 281.8 308.5 334.6 352.2 370.1 394.1 404.5 406.3 403 393.4 381.8 375.1 373.7 373 371.2 369.5 363.6 358.4 351.8 342.2 329.5 320.7 313.5 308 304.2 295.2 285.2 278.5 269.9 259.9 256.4 257.2 261.2
341.6 339.8 338.4 338 337.4 334.7 338.5 342.3 351.4 361.6 366.7 366.9 366 362.5 352.9 348 347.8 348.2 349.2 348 349.1 352.3 356.5 361.7 367.5 377.1 382.7 385.9 389.1 391 394.9 394.3 397.8 408 418.2 425.2 425.8 423.2 419 412.7 404.3 390.3 383.2 380.9 377.8 371.7 367.2 359.3 362.4 374.1 392.3 409.8 426.5 438.1 442.4 439.8 434.7 427.6 420.7 412.2 403.1 393.8 380.1 372.1 366.7 377.2 382.9 378.8 372.5 362.8 356.8 349.5 337 323.4 315.4 310.7 307.8 306.4 304.8 303.3 301.1 297.5 295.8 294.5 292.8 291.4 289.7 288.8 287.2 282.2 282.9 287.2 292.8 306.7 326.4 349.9 374.9 402.3 415.5 424.2 428.9 434.2 436.5 437.5 437.3 444.4 449.4 445 435.4 422.9 407.7 399.5 397 392.9 389.8 400.1 406.9 413.9 418.7 423 415.4 400.9 386.5 373.5 355.9 350.7 346 343.9 339.7 338.7 334.1 326.9 319.2 318.6 310 321.6 338 358.5 387.9 404.6 412.8 410.5 411.3 409.9 407.5 406.4 403 398.5 389.1 379.4 370.2 360.6 349.4 335.9 322.4 309.9 295.3 285.3 279.7 274.9 268.4 261.1 257.8 257.1 252.7 246.1 251 280.9 309.4 334.1 350.1 359.9 381.5 394.9 398.9 394.5 385.9 374.4 363.1 359.9 358.1 355.8 352.4 348 344.4 339.9 332.1 324.8 320.3 314.5 308.9 302.3 293.6 279.5 271 264.6 256.8 255.9 267.4 267.6
346.6 343.5 341.5 339.9 339.8 337.4 341 345.4 355.9 368.3 369.2 372.2 375.2 369.1 357.7 351.2 350.4 350.5 351 350.7 348.7 352.7 356.3 360.1 363.8 369.3 374 378.5 382.7 385 386.9 390.9 396.5 408 418.2 422.9 421.5 420.3 416.1 410.8 400.7 390.5 383.7 380.4 376.4 373.3 369.2 362.8 355.7 360.1 377.4 398.2 415.7 430.7 437.7 437.4 432.3 426.1 420.8 412.1 403.6 396.1 391.4 378.4 374.4 382.9 388.5 386.4 381 371.8 365.6 355.4 345 332.2 324.7 320 313.1 309.4 306.8 304 301.5 298.2 296.6 294.2 292.2 290.4 288.9 286.4 284.5 283.3 281.3 283.7 292 303.1 324.8 347.3 371.3 392.2 399.8 414.3 425 428.1 429.2 430.7 431.3 433.7 441 434.4 418.8 401.2 387.1 378.2 381.4 375.9 388.3 397.8 406.3 413.8 419.4 418.2 406 392.6 378.5 362.4 354.2 350.8 349.9 349.4 345.2 343.6 341.4 331.7 323.8 319.6 314.1 308.8 326.4 351.9 383.2 403.7 411.5 411.7 410.9 410.3 405.6 401 397.9 389.5 381.2 371.1 361.4 348.8 336.6 324.9 309.7 294.8 283.4 278.4 274.9 268.5 264.1 269.8 262.6 261 255.5 244.3 249.2 278.7 310.2 331.8 348.3 355.6 362.5 379 384.6 381.6 375.8 369 358.5 347.4 343.3 340.1 334 331 327.3 325.8 319.9 318.7 318.9 314.6 310 302.2 290.5 278.1 267.6 260.4 255.1 257.8 263 263.2
350 347.7 343.4 341.9 341.6 341.1 341.8 348 359.9 367 371.5 379.9 382.9 376.2 361.5 353.7 353.6 352.9 352.8 352.8 351.9 352.7 356.1 358.5 361.8 366.9 370.7 374.4 378.1 380.2 384 389.3 395.1 408.4 416.3 417.5 416.4 414.7 411.3 405.5 397.5 389.7 383.9 379.6 373.4 370.5 367 363.8 360.3 352.2 357.5 381.9 405.1 421.9 432.9 434.8 431.9 427.6 420.9 414.6 407.7 401.1 393.5 385.2 380.1 387.6 391.7 389 383.9 376.5 368.6 359.6 350.6 343.9 336.5 330.4 324.2 314.4 311.8 309.1 309.2 308.4 304.6 300.1 295.9 291.9 288.9 287.1 285.3 284.2 282.5 280 287.1 297.6 321.6 336.7 352.3 368.2 383.6 400.3 412.2 418.6 421.4 421.5 424 424.8 421.8 415.9 399.3 377.7 366.1 363.3 363.5 369.8 384.3 393 407.1 415 416.1 414 404.6 392.9 381.1 370 365.3 364.2 362.7 364.7 361.9 357.2 349.4 336.1 319.6 317.9 314.3 305.2 324.1 353.5 381.5 398.7 407.7 411.7 411 407.9 402.5 392.9 383 374.1 361.6 349.7 335.9 323.4 312.9 304.2 295.1 285.3 281.5 278 278 280 282.7 268.1 263.7 259.8 256.7 243.6 245.3 275.3 309.2 329.5 346.6 354.2 355.5 360.8 371 369.5 365 357.9 349.2 337.3 335.5 330 326.4 320.1 315.5 313.8 311.6 313.4 315.4 315.5 311 304.7 295.6 278.9 267.6 256.5 255.6 255.8 257.8 259.7
352.7 349.8 345.9 344.3 343.6 344 343.9 349.2 358.7 364.8 376.6 386.2 387.5 381 368.6 356.8 355.3 355 354.6 354.4 354.3 353.5 355.7 357.6 360.6 364.8 368.7 372.2 374 380.6 385.1 392.5 397 406.9 412.8 412.8 411.5 408.9 404.9 400.5 393.7 388.7 383.3 381.7 381.2 377.2 374.2 367.2 360.3 355.6 348.5 364.5 389.2 410.7 422.5 428.9 430.2 426.9 421 414.9 409.5 403.7 397.8 390.9 386.9 389.8 390.8 390 384.7 378.4 372.3 364.6 358.2 352.6 347.5 340.3 327 322.4 321.3 325.1 323.8 320.1 314.2 309.4 302.3 296 290.8 287.8 285.6 284.2 281.6 279.6 285.4 293.6 309.9 323.3 330 342.8 364 390.7 403.6 411.5 413.2 412 415.5 416.1 409.8 397.6 376 359.7 355.5 356.4 369 381.3 392.7 403.8 411.7 415 415.3 410.4 405.2 398.8 392.7 388 385.2 381.5 380.6 376.4 369.6 362.2 351.7 337.5 316 312.7 310.3 304.5 324.1 353.8 380.2 392.7 404.4 406.1 408.5 406.9 402.5 393.8 379.8 364.1 346 334.5 323.5 312.9 306.1 298.5 294.8 294.7 296.8 296.9 295.1 292.1 286.7 275.7 259.9 259.8 251.4 246.3 243.7 274.3 307.6 328.2 342.2 349.8 352.3 349.4 353.7 354.5 349.8 344.2 338.8 332.7 324.8 319.1 315.6 312.4 309.1 307.4 306 308.9 313.6 315 310.1 305.4 296.6 285.9 275.3 263.5 254.6 255.4 256.1 257
356.2 352.5 349.1 346.7 346.3 346.1 347.3 351.6 357.1 365.5 379.2 389 391.4 387.5 375.5 364.2 358.3 357.2 356.6 356 356.5 355.5 355.3 357.6 360.5 364.2 370.1 375.7 381.1 386.4 390.9 396.7 402.4 406.6 410.8 410.2 407.2 404.6 400.6 396.2 392.2 388.6 388.6 390 388.6 387.2 382.6 374.6 363.2 356.3 348.7 344.9 369.6 389.6 406.5 417.5 422.1 422.7 418.1 413.8 409 402.9 398.3 394 390.2 388.8 389.5 388 383.8 378.6 372.6 370.5 365.8 360.5 355.8 344.9 334.4 335.6 334.2 336 332.9 327.1 321.8 316.5 306.4 298.3 291.4 287 284.8 284.3 280.6 278.4 286.3 291.2 298 305.7 317.7 336.2 361.7 385.9 397.4 400.3 402 405.4 408.2 405.6 399.3 378 357.5 353.5 352 362.4 382.8 398.2 406.9 412.3 419.3 419.4 416.3 413.5 410 405.4 401.3 396.5 394.6 390.7 385.5 379 372.7 363.5 352 333.6 313.2 310 302.6 305.3 322.8 345.7 366.8 385.5 393.4 396.6 400.3 402 399.6 392.7 381.4 367.9 350.5 338.5 329.2 319.1 311.3 309.5 312.6 315 307.1 299.1 292.9 288.8 282 273.4 259.9 257 246.9 243.8 243.4 271.8 303.8 323.5 335.6 342.9 342.6 342.3 338.8 336.9 335.4 332.1 329 326.3 319.2 312.2 309.1 305.7 304.5 303.2 303 305.9 313.1 310.9 305 299.4 292.5 283.9 277.8 274 265.1 254.1 254.9 255.7
359.9 356.7 354 352.7 350 349.2 349.8 352.1 359.5 367.3 382.9 393.4 397.6 394.1 379.1 370.1 362.5 359.5 357.8 357.6 357.6 357.4 357 357.9 360.2 364.2 370.1 375.5 381.9 388.6 394.1 399.7 403 406.1 408.5 407.9 405.8 404 401.6 398.5 395.5 395 396.4 398.2 397.7 396.3 390.8 381 370 358.2 349.8 343.4 353.9 372.6 392 402.2 412.7 419 413.7 409.8 406.2 401.6 397.1 393.1 391.6 389.6 388.8 386.5 381.6 377.7 372.6 373.1 369.2 364.8 360.4 353.9 350.2 346.5 345.8 343.5 339.9 333.5 327.1 319.4 308.4 298.3 290.8 286.6 284.4 282.7 279 278 283.2 287.8 300.6 315.5 331.7 350.4 368.3 389.4 392.1 394.4 395.4 398.4 399.2 398.4 386.7 366.5 350.3 348.1 353.1 377.9 400.3 411.2 421.8 424.4 425.8 424.1 421.9 418.6 415.3 411.1 406 401.2 396.6 391.4 385.5 379.9 372.7 361.5 348 326.9 311.2 305.2 299.8 309.2 331.6 352.8 368 379.2 383.8 388.1 391.5 396 398.7 393.3 383.8 373.7 362.3 351.9 344.2 338 334.5 332.5 327.7 318.5 307.2 297.4 290.6 283.2 274.4 267.1 265.4 251 244.9 242.8 245.3 271.7 297.3 314.5 324.6 330.8 331.8 329.9 328.4 324.3 324.1 321.3 318.5 318.1 312.7 307.9 306 303.9 302.3 301.9 301.9 306.4 309.1 305.6 300.7 292.3 283.2 277.7 274 273.8 271.2 264.8 254 254.7
364.1 362.1 361.6 361.3 361.5 356.6 354.1 356.9 361.2 370 385.2 396.5 401.9 400.2 392.8 379.9 368.7 361.8 358.7 358.9 359.3 359.4 359 358.6 359.5 362.2 366.9 373.3 384.2 392.9 397.4 400.4 405.5 408.5 410.1 408.8 409.7 409.7 409 407 405.4 405.3 405.9 407.3 405.9 403.4 393.1 382.4 371.6 361.9 352.7 345.4 340.7 354.5 372 388 398.6 405.7 406.9 404.4 401.9 399.3 395.8 396 393.8 390.2 387 384.8 380.6 376 373.5 375.4 371.6 367.7 364.3 360.8 359.1 356.2 354 349 343 336 328.1 314.1 308 301.2 291.8 286.6 283.1 281.4 277.7 276.8 286.1 301.8 313 329 344.9 364 384.2 390.8 389.7 384.4 389 395 396.3 393.5 386.6 362 347.5 342.5 348.1 380 406.2 423.8 433.3 436.7 428.7 424.8 426.3 422.4 416.6 411.9 404.5 399.4 395.1 389.7 384.2 377 367.6 355.6 340.5 318.7 306.9 302.4 298.1 312.7 337.7 354 366.3 369.4 372.1 375.8 381.1 387.4 395.6 394.8 384.2 378.3 371.5 364.9 360.5 353.1 344.7 336.5 327.1 316.7 304.6 295.9 288 283 276.6 268 257.9 253.5 244 242.4 248.9 267.1 286.1 301.8 310.7 314.6 316.5 317.8 315.9 313.9 312.5 311.2 312.4 311.4 307.3 303.7 302.9 302 301.6 301.3 301.8 303.9 302.6 299.7 294.8 288 280.9 273 270.9 268 264.9 257.1 253.6 254.1
370.4 370.6 370.5 371.3 371.6 368.7 364.4 362.4 361.2 370.4 385.3 398.6 406 405.6 399.8 390.2 377.7 366 361.8 361.3 361.3 361.1 361 360.5 359.9 361.9 364.6 369.6 377.3 389.4 396.2 397.5 405.8 407.2 409 412.2 414 419.1 419.7 417.5 416.6 415.3 415.3 413 409.7 403.3 391.4 380.6 369.8 363.1 356.4 348.4 341.5 338.6 355.2 373.9 385.3 393.7 398.5 400 398.2 396.4 394 400.1 396.4 391.2 386.3 384.4 378.8 373.8 376.5 375.5 373.4 370.5 367.8 366.5 364.6 361.9 358.2 353 346.6 333.6 323.5 315.1 304 299.3 292.8 286.5 282.6 279.1 276.1 279.7 298.8 317.1 333.5 347.2 360.7 376.3 390.9 392.4 383.1 374.3 384.9 394.1 396.3 394.8 387.1 365.1 344.3 339.3 341.2 358.9 385 407.4 430.2 429.3 417.6 424.3 426.5 421.9 414.3 408.7 401.8 396.5 392.8 385.1 380 372.6 362.3 347.5 330.8 310 302.6 299.6 294.3 314.8 341.7 355.4 366.5 362.4 360.8 361.4 365.4 373.1 381.3 387.5 387.9 380.1 369.2 360.2 352.3 344.9 336.8 328.2 319.2 310.1 301 292.3 283.7 278.5 276.2 268.5 261.1 250.5 243 241.2 247.5 259.9 273.4 285.1 295.8 301.4 303.8 303.7 304 304.3 306.1 306.4 306.2 306.9 304.4 301.7 299.9 303.7 301.5 301.3 302.2 301 298.3 295 288.2 282.6 277.2 271.1 261.8 260.9 257.4 254.9 252.3 260.1
378.8 378.9 380.5 381.1 381 377.9 374 367.7 365.7 372.3 387.2 400.7 409.9 406.6 403.4 396.3 388.9 378.5 369.4 364.7 363.4 363 363.3 362.3 362.2 363.3 364.6 367.1 371.6 378.2 384.3 388.8 397.1 401.1 404 407.1 413.9 420.6 425.9 425 423.6 423.3 421.5 416.2 410.1 401.9 390.1 376.1 366.6 355.4 353.1 349.6 342.8 336.2 338 355.2 369.1 378.7 393.3 395.1 391.1 392.2 394.2 401.6 397.1 394.7 388 380.9 376.1 372.5 375.3 375.6 375.2 373.8 371.1 369.7 367.9 365.1 361.4 357.1 350.6 341.3 335.5 327.7 315.1 302.2 292.9 286.9 282.6 276.8 279.3 298.9 320.4 332.6 347.5 357.8 369.9 380.9 385.4 380.9 371.5 371.1 382.4 394.8 404.4 399.1 388.5 372.3 349.8 336.3 334.3 337.9 356.4 378.6 401 403.6 404.5 415.3 417.9 415.9 412.2 405.2 399.7 396 390.2 380 372.4 364.7 355.4 337.7 317 302 299.1 296 291.4 311.3 337.6 358.6 367 356.3 345.5 341 343.7 349.3 358.7 369.3 376.4 371.9 363.1 354 345.3 336.6 328 319.3 311.1 303 295.6 287.9 281.6 277.1 273.1 264.2 258.7 248.9 241 241.7 246.6 250.3 261.9 273.2 283 286.9 288.2 291.1 293 294.5 299.8 304.8 305.1 302.9 300.3 300.8 298.6 302.9 303.6 301.5 303.8 304 300.5 296.9 289.6 283.2 277 268.7 262.5 255.1 254.3 252.6 263.6 284.7
387.8 388.1 388.7 390.8 390.2 387.9 383.6 376.2 370 373.2 386.2 401.4 409.5 407.5 405.3 402.5 397.1 388.6 380.2 372.4 369 366.4 366.7 366 366.3 368.1 367.6 369.5 372.1 374.4 376 378 381.6 389.7 395.3 399 410.6 417.6 424.2 427.2 427.6 426 422.4 415.8 408.1 398.3 388.8 372.4 362.5 354.4 348.6 343.8 340.2 336.4 332.2 336.9 347.1 359.4 375.6 380.4 379.6 389.5 398.5 403 400.8 397 389.7 382.5 374.8 370.6 373.6 374.4 375.5 375.6 374.3 372.5 370.4 368 363.6 358.3 352 348.2 341.5 333.5 321.9 305.8 290.1 286 282.4 276.4 286.2 313.5 333.9 350.8 360.2 370 382.2 385.9 381.1 371.2 367 368.7 382.6 394 408 403.6 394.4 381.8 361.1 338.6 329.6 331 336.6 353.5 371.5 377 393.8 411.9 414.1 413.9 410.5 405.8 400.7 395.2 384.3 373.4 363 351.5 339.2 321.8 305.7 299.7 296 292.7 289.7 306.2 325.7 351.1 361.4 353.2 339.5 321.6 320.3 326.3 336.3 348 357.1 355.2 349.1 341.7 335.4 327 318.4 310.8 302.9 296.7 292.1 287.7 283.2 279.5 275.9 266.2 257.5 248.4 240.4 241.3 246 248.6 255.7 264 271.3 273.1 274.1 276.3 275.1 289.4 299.5 304.9 303.7 299.6 298.3 298 298.8 302.1 303.6 302.7 303.5 303.6 300.4 298.1 294 284 275.5 269.9 261.8 253.4 252.6 263.4 279.5 286.6
394.9 394.7 398.5 400.5 399.9 397.6 392.6 386 375.7 374.6 381.4 398.6 408.9 408.5 409.4 409.9 404.5 394.1 390.6 385.3 380.5 377.3 375.8 377.7 377.6 378.1 380 374.2 372.7 373 372.9 371.9 372.5 375.2 378.5 390.1 405.1 412.8 416.6 421.3 425.5 424.8 419.6 412.8 404.4 391.7 372.2 366.6 360.5 356.8 354.3 351.4 347.3 340.1 336.2 330.7 331.7 343.1 354.2 359.9 369.3 385.7 396.1 403.6 404.4 398.6 391.4 384.1 374.9 369.6 368.2 369.8 372.6 375.2 375.3 374 371.8 369.5 365 360.1 354.8 350.8 343.4 334.2 312.3 295.8 289.3 285.6 280.8 277.9 278.4 308.6 335.4 359.4 369.3 380.9 392 394.4 381.2 364 362.3 366.9 381.9 395.7 404.6 405.9 401.1 382.7 359.9 334.2 326.3 326.4 328.4 337.8 350.5 376.7 396.5 411.7 416.4 417.1 414.4 410.6 404 395.6 385.7 375.3 362 347.7 328.1 325.3 315.4 300.7 293.2 290.1 283.6 294.4 315.1 336.1 348.9 355.4 343.8 323.7 310 309.5 315.6 328.4 341.8 340.6 333.3 325.6 320.4 312.9 306.8 300.4 294.6 291.3 289.8 286.9 282.1 277.1 271.6 262.8 253.6 241.4 240.1 241 245.5 249.8 254.8 258.6 263.3 263.2 269 274.9 286.5 296.7 302.2 306 303.9 302.1 298.5 296.7 297.1 298.6 300.1 301.1 300.9 302.7 303.9 303.7 296.4 287.9 274.6 269.1 257.4 252.3 256.9 276.6 283.4 286.3
398.7 403 406.2 410.6 408.1 405 399.6 395.8 385.6 381.8 381.9 393.8 409 411.2 416.3 415 410.1 405.3 401.2 397.5 394.3 394 392.2 391.3 390.8 392.4 393 388.8 376.7 372.8 371.4 369.7 368.1 365 368 378.8 395.4 405 409.5 414.5 419.1 419.6 414.8 408.5 399.8 383.4 378.5 374.3 369.8 367.1 366.7 369.3 361.1 350 338.3 335.2 328.1 329 336.3 344.2 359.3 381.3 394.3 404.4 406.1 397.7 389.3 384.4 374.6 366.8 363.9 366.3 369.2 371.8 375.8 375.8 374.2 371.3 367 361.8 355.2 348.8 334.4 315.2 301.1 298.9 297.4 290 282.1 277.5 272.8 293.7 325.6 350.7 371.5 384.1 398.4 393.4 370.2 356 362.2 374.4 389.5 403.4 411.5 409.8 398.2 375 351.3 328.1 321.5 321.4 326 336 355.5 381.2 402 415.9 421.5 421.8 419.4 414.2 407.6 400.7 394.6 385 376.1 366.2 354 335.8 324 310.7 296.4 290.2 284.4 281 302 323.3 340.9 349.5 347.8 334.4 315.5 303.5 302.1 309.1 318.8 319.7 315.4 308 301.7 295.8 290.8 287.7 284 283.6 283.4 280 277.2 271.5 262.6 250.6 246.6 240.3 239.9 242 245.1 247.9 250.7 254.6 258.1 263.1 271.5 283.3 298.2 305 305.9 308 306 305.2 301.6 296.9 295.9 295.4 295.5 296 300.1 306.1 309.9 306.7 297.1 286.6 276 268 254.9 253.5 258.1 276.4 279.5 280.7
400.8 404 413 420.7 418.1 414.7 410.2 405.6 398.4 392.1 389.5 393 409.5 417 420.7 418.6 417.5 414.3 413.5 413.7 412.4 407 406.9 406.1 404.3 404.8 404.8 403.4 395.6 381.5 372.2 369.6 363 361 359.2 366.4 384.3 394.8 404 408.7 411.4 413.2 410.8 402.7 394 390.3 387.2 388.2 387.2 386 384.3 380.2 369.8 359 345.2 335 330.9 324.3 330.3 336.8 357.1 379.3 396.6 401.5 403.8 395.8 387.3 380.4 372.7 357.6 361.1 362.9 369.9 373.5 376.9 377.4 376.2 373.1 368.4 362.3 354.6 330.9 315.7 308.1 311.2 314.2 313.1 305.2 289.3 278.8 274.4 278.8 308.1 336.3 363.1 385.7 397.7 378.8 355.2 344.3 362.7 382.9 397.7 412.8 417 405.1 396.6 365.1 341.8 316.7 317.2 318.5 326.6 344.3 365.8 391.3 409.6 420.5 427.4 428.1 425.4 419.7 413.1 407.2 399.5 390 381.1 370.4 358.5 347.1 338.2 328.6 313.3 300 291.3 279.7 289.6 315.8 337.9 351.6 355.8 346.4 332.3 313.3 297.2 296.5 301.3 300.1 295.7 290.8 286 280.7 276.7 274.3 271.7 271.8 273.1 271 267.8 261 253.8 244.4 244.4 239.4 239.5 242.1 251.2 255.5 255.8 257.9 258.6 265.5 280.3 294.5 307.6 312.2 313.8 310.5 309.7 309.5 304.3 299.6 296.4 294.1 293 294.4 299.3 306.6 311.9 303.6 295.7 283.4 276.5 269.4 254 253.2 256.9 267.5 271 273.9
400.2 402.9 420.1 428 427.6 426.7 422.9 417 409.2 405.3 402.3 397 408.4 419.9 423.8 423.8 423.8 423.4 424.2 424.3 420.9 415.3 417.6 414.7 412.6 411.9 412.9 411.2 405 398.1 385 370.8 362.8 355.6 355.2 357.7 371.1 382.3 392.2 402.5 406.4 409.7 409.6 403.1 400.9 399.8 399.9 401.4 403.2 400 395.9 387.6 373.7 360.4 351.1 340.2 330.6 326.8 324.2 334.3 355.3 374.9 388.9 398.6 398.2 391.2 384.5 376.5 366.3 351 355.3 360.4 368 378.5 381.1 379.9 378 375.7 370.2 355.8 344.2 328.5 322 327.5 332.1 328.7 323.4 313.9 292.2 280 274.8 271.1 290.5 322.4 345.1 370 377.3 358.2 341.9 339.8 364.1 387.4 409.5 422.8 416.2 403.1 377.3 353.6 331.3 309.7 313.4 316.7 332.1 353 377 401.6 414.4 426.2 432.6 434.3 431.8 424.9 418.5 411.9 400.8 389.3 378 368.2 358.4 348.8 339.5 330.7 323.4 312.7 298 286.8 279.6 307.3 334.2 355.2 361.2 356.9 345.9 326.7 309.1 290.5 288.3 285.9 279.4 272 268 262.9 261.5 261.5 259.6 261.8 264.4 262.4 256.5 250.8 243.5 238.7 238.2 238.3 241 253 265.1 266.4 266.2 267.7 269.9 268.1 284.2 300.5 313 314.9 316.5 319.8 324 319.6 309.4 302.4 297.7 294.9 293.3 293.1 298.2 303.3 305 298.3 292.9 286.7 274.6 264.4 251.7 253.1 253.2 261 265.9 268.6
399.6 403.5 423.6 431.4 434 436.9 434.3 428.8 422.4 418.7 416 410.5 410.3 419.1 425 427.6 430 432.8 434.4 431.4 422.4 418.1 417.7 415.7 414.9 415.7 413.5 409.9 405.9 400 392.7 378 361.4 354.9 350.5 352.7 359.7 373.4 383.7 394.8 402.4 408 410.4 409.9 409.7 409.6 410.3 411.1 408.5 402.6 396 386.5 372.3 359.6 350.7 342.5 332.5 327.4 321.5 329.2 349.1 366.8 380.7 389.6 390.8 385.6 378.6 368.3 359.4 344.4 351.2 359.4 370.4 378.8 384.4 386 381.7 379 375.1 367.5 352.4 334.5 339.7 343.6 346.9 346.2 337.4 321.8 302.3 285.2 276.8 270.6 282.5 306.3 336.7 348.5 352.4 341.5 325.6 337.5 354.7 379.2 402.2 416.2 407.6 381.8 358.8 336.7 316.4 300.2 308.8 314.5 334.7 359.4 385.1 406.8 418.5 428.1 435.8 438 433.8 427.8 423 409.4 396.3 384.9 372.6 363.1 354.1 345.5 337.5 330.5 325 317.7 308.4 289.3 275.1 295.8 323.9 348.8 361.5 365.5 355.5 341.6 323.4 309.2 294 288.2 283 279.1 273.3 265.3 258.8 253.3 248.1 253.4 256.4 252.9 248.1 240.2 237.4 237.3 237.8 246.1 250.4 265.7 272.6 275.4 276.4 278.4 279 278.7 280.4 294.6 306.9 315.5 322.6 331.7 332.5 324.6 319 306.3 300.1 295.9 293.7 292.3 295.2 299.2 299.4 295.6 290.4 286 273.8 261.6 250.5 252.9 252.9 252.4 257.2 258.1
399.5 405.4 423.5 433.8 440.1 447.9 443.8 438.1 432.7 428.3 425.2 420.5 418.4 421.5 428.5 433.3 440.3 441.6 437.3 429.7 419.1 408.7 410.4 409.8 410.3 409.6 407.6 405.3 402.4 398.2 391.5 378 363.8 353.9 348.1 348.6 354 365.6 377.4 386.9 396.9 405.7 413 414.3 413.9 416.1 418.2 413.8 408.6 402.2 393.7 383.8 370.8 360.1 349 340 331.7 327.2 320.7 320.6 333.4 353.5 369.2 380.1 385.2 377 371.6 358.4 348.6 339.3 346.9 363.6 375.4 385.6 387.1 388.8 388.3 385.8 382 376.9 358.6 344.9 352.4 359.1 362.1 364.4 354 325.3 302.3 285.8 276.7 270.2 276.8 301.2 322.6 332.2 334.6 329.1 317.7 330.8 344.1 362.9 382.4 392.8 382.1 360.9 340.8 321 305.6 300.3 305.1 313.5 339.1 362.8 389.5 412.6 422.5 428.3 429.8 430.2 429.2 420.7 410.8 394.2 381.8 372.1 364.3 355.6 347.9 341.1 335.4 329.6 323.2 317 309.9 290.5 276.2 286.2 315.5 342.4 368.6 375 364.6 355.6 342.7 326.7 312.8 305 300.3 293.8 290 283.7 277.9 272.6 264.3 242 248.1 246.5 239.4 237.6 237.3 236.8 253.1 259.5 264.1 271.5 277.3 279.7 282.5 285.9 286.9 285.6 293.3 300 312.8 321 334.3 345.2 343.3 335.3 328.7 310.1 302 298.9 295.7 293.8 292 294.6 294.6 290.7 280.2 275 270.7 260.4 255.1 251.7 251.9 251.5 251.8 253.3
401.7 407.7 421.9 436.4 449.3 454.2 449.6 445.7 443 437.2 431.2 427.9 428.8 435.6 437.3 445.4 447.6 442.6 433.4 420.1 410.3 397.8 393.6 395.9 400.3 399.9 399.2 397.6 395.5 393.4 386 372 360.3 349.5 344.4 345.3 348.5 358.8 370.2 381.2 390.2 402.2 414.8 419.2 421.5 421.5 419.8 415.8 410.3 402.6 390.4 381.1 368.6 356.8 346.8 341.5 335 329.2 326.1 319.8 319.9 340.6 357.2 369.9 369.3 366.4 357.8 344.2 334.8 338.2 354.7 369.1 383.6 391.1 396.6 396.6 396 393.6 390.5 384.8 366.8 358.8 366.4 372.6 375.1 378.2 355.5 325.6 301.9 286 276.2 268.5 279.7 298.4 315 326.6 326.4 319.7 309.5 314.2 325.7 341.4 355.6 363.3 354.3 338.8 324.5 307.3 290.4 297.7 301 317.5 338.7 366 392.7 416.6 423.1 424.7 417.8 412.8 408.7 400 385.9 376.3 370.2 363.2 355.7 348.8 341.8 336.8 331.3 325.6 320 312.5 306.2 287.5 273.8 282.9 313.4 342.2 367.4 381 373.2 365 353.2 340.2 328.5 322.7 314.9 312.9 306.7 300 291.4 284.4 275.3 255.6 236.9 235.2 234.7 236.6 246.7 253.8 259.3 268.2 274.7 279.4 283.2 287.5 289.5 291.9 293.2 294.7 304.8 312.7 323.5 334.8 350.1 358.1 353.5 347.8 333 318.2 312.1 302.2 299 297.9 296.2 294.1 292.1 286 282.2 280.1 273.5 265.9 260.3 255.8 251.6 251.5 251.7 252.1
409.5 412.9 419.4 437.6 451.9 454.7 454.1 454.9 453.3 445.7 437.4 437.2 443.8 445.3 449.5 453.9 450.7 430.2 419.1 409.1 396.9 385.1 377.3 379.2 384.3 386.1 387.5 388.4 390.7 389.2 380.2 365.6 356 345.1 342.4 342.7 345.8 353.9 366.2 374.9 387.2 402.9 417.9 426.9 426.5 424.8 422.2 417.7 411.5 403.7 396.1 387.6 376.8 366.7 355.3 345.9 340.2 335.5 329.9 322.1 315.7 330.4 346.1 361.9 363.6 357.3 343.1 332.7 335.5 348.2 365.3 380.1 390.7 396.8 403.1 406.5 405.2 402.3 398 394.2 381.8 375.4 381.4 386.6 388.9 382.4 348.2 318.6 300.1 280.6 273.6 270.6 291.9 312.2 323.2 331.7 329.3 318 305.9 303.6 311.3 319.2 325.9 332.5 329 319.9 307.8 298.5 283.6 293.8 303.3 322.7 343 366.9 390.4 414.5 420.6 416.5 406.3 400.8 396 385.9 371.8 366.6 360.2 353.4 346.6 340.8 335.5 331.1 326 320.1 313.6 305.9 298 280.8 267.9 287.7 317.1 342.4 363.8 380.7 373.5 361.8 351.6 339.2 333 330.2 325.8 314.4 305.8 294 283.9 273.4 261.2 241.3 234.8 235.5 238.4 246.4 259.4 266.2 277.1 281.4 284.3 287.7 291.4 293.2 295 296.1 299.2 301.8 309.2 319.6 329.2 346.1 362.7 369.9 364.6 360.1 345.3 335.9 324.6 315.4 311.2 304.8 301.8 302.3 297.1 290.9 288.3 286.1 274.7 268.4 265.3 261 259.8 255 251.1 250.2
421.3 425.6 424.2 432.8 447.7 454.5 462.8 465.4 459.9 452 448.4 449.7 453.9 457.2 459.1 458.6 451 429.9 403.6 393.8 382.8 378 369.4 366.6 365.5 368.3 373.2 383.8 386.2 383 377.3 365.4 350.7 342.4 339.3 340.2 343 349.4 363.7 374.8 387.9 405.2 419.9 429.3 428.6 427.1 422.7 417.3 410.6 403.8 396.6 388.5 379.7 370.5 359.2 350.9 342.9 334.8 327.9 319.6 315.2 317 338.5 352.3 353.1 339.9 329.4 331 339.4 359 376 391 405.1 411.2 417 417.8 414.4 410.9 406.3 400.7 397.1 395.8 398.3 398.8 395.3 372.2 341.8 315.7 293 277.8 270.1 277 297.6 319.7 333.9 341 336.3 322.1 310.3 299.8 296.8 300.3 303.9 306.6 306.8 304.1 299.1 292.4 280.1 287.9 305.8 321.4 341.7 361.4 380.6 399.5 407.6 402 392.4 386.1 378.2 369.1 359.8 355 349.2 343.1 338.2 332.9 328.4 324.1 319.2 312.2 305.3 298.8 287.7 274.5 266.1 293.6 321.1 342.7 355.7 364.1 360.1 349.4 339.2 328.5 320.6 314.4 305.7 297.7 289.3 278.8 268.8 256.6 238.6 233.2 234.5 240.1 240.9 248.8 254.6 269.5 282.4 286.4 290.7 293.2 294.6 295.8 298.6 301 302.5 304.9 314.9 323.5 334.5 354.4 373.5 378.3 375.9 369.9 358.4 351.7 342.2 333 320.1 313.9 314.3 310.2 302.1 299.9 295.3 290.7 281.7 274.1 274.1 271.8 271.6 264.4 252.2 250.1
431.3 436.8 441.6 439.6 448.8 462.5 471.9 472.2 464.7 459.9 460.5 463.3 466.4 465.3 461.3 454.8 443.4 427.6 408.9 389.6 378.6 367.2 362.7 361 359.7 360 366.9 375.3 375.8 375.3 371.2 364.5 352.3 340.3 337.6 337.4 340.3 348.9 363.8 377.9 391.9 406.6 419.3 428.2 429.6 425.2 420.7 415.7 409.4 402.6 395.1 388.1 380.8 370.9 361.2 352.2 343.1 334 325.9 320.3 315.4 314.1 334.8 346.6 336.9 326.9 325.6 329.6 349.4 369.3 386.9 401.9 416.9 426.4 429.6 427.8 423.9 420 413.7 409.5 405.4 405 405.6 403.8 395.4 362.8 335.2 309.5 287.1 274.5 267.3 276 302.1 327.1 341.2 349.9 345.9 334.9 324.9 313.9 300.1 292.3 286.6 290 291.9 292.9 290.9 285.6 276.7 288.3 299.7 318.7 336.1 351.5 369.3 378.1 380.4 378 371.9 364.4 355.5 349.2 345.4 341.4 336.6 331.1 326.3 322.2 319.1 315.2 309.2 303.6 297.7 290.2 275.2 268.8 276 299 323.3 338.8 346.3 348.2 346.7 338.2 327.7 317.2 307.6 298.4 292.5 282.9 273.5 263.5 256.1 240.4 233.6 234.2 239.7 243.9 249.1 248.8 245.2 262.8 276.5 286.7 292.8 296.1 296.5 296.1 298.9 301.1 302.6 305 312.7 322.9 336.2 359.5 379.5 384.9 383 382.1 377 370.4 355.2 340.1 330.4 330.7 329.7 324.8 319.1 312.9 307.3 298.9 290.5 283.8 280.7 278.6 273.7 261.4 253.1 250.8
444.3 452.2 458.1 462.8 467.6 475.8 482.5 479.9 472.5 471.8 472.2 474.7 469.6 461.1 453.6 443.5 430.9 414 399.4 386.9 372.9 363.2 360.2 358.5 357.1 356.9 357.9 362.1 362.2 365.3 363.2 359.5 353.1 338.4 335.6 334.4 337.3 348 364.5 382.1 396.9 407.9 415.2 421.1 422.5 421.2 417.5 412.8 406.7 399.9 392.4 386.7 380 371.7 361.1 352.8 343.4 334.2 327.3 320.3 317.6 310.7 324.5 334.2 322.7 319 324.2 340.3 359.1 379 396.6 412.4 427.5 435.3 438.4 435.6 432.7 427.4 420.3 414.9 410.4 411.3 411.1 400.7 388.3 356.8 329.8 306.3 283.8 273.1 267 269.4 299.3 324.6 350 359.6 357.8 351.7 342.5 330.9 319.4 306.9 294.4 285.7 284.8 286.1 284.1 279.7 274.5 285 296.3 311.1 326.2 341.1 352.9 355.9 358.4 355.5 350.4 344.6 336.2 332 326.7 323.1 320.1 315.8 312.8 310 307.9 303.1 298.3 293.7 289.1 274.7 264.7 258.5 285.6 310 326.7 333.4 335.7 334.8 332.7 326 317.7 308.2 298.1 288.1 279.1 268.9 259 250.1 242 232.2 234.3 235.7 246.5 248.3 252 258.3 255.9 251.5 262.9 274.2 288.4 296 295 294.1 296.3 298.5 299 302.4 307.5 318.9 336.2 360.7 382.2 389.6 390.2 391.3 388.6 382.5 365.3 350.9 345.7 345 339.9 334.3 331.6 325.9 318.6 311.3 301.3 292.2 286.9 284.4 279.7 268.7 258 253.5
460.7 466.5 472.9 479.8 484.2 489.8 493.5 486.9 482.4 480.8 480.7 472.5 460.3 447.4 436.4 426.4 409.9 393.3 381.3 377.7 368.4 361 358.7 356.7 354.7 353.8 353.5 352.5 351.9 353.3 351.9 352.9 350.6 339 334.4 332 334.4 346.5 368.1 386.5 398.5 405.6 410.4 414.7 416 414.6 413.4 408.3 401.8 394.9 389.5 383.9 378.5 371.4 361.9 352.2 343.4 335.2 327.5 321.5 317.8 313.8 309.4 320.7 312 313.8 328.9 347.4 364.9 383 404.6 421.8 437.8 445 446.2 445.2 439 432.3 426.4 420.2 413.9 414.6 410.7 397.4 378.5 349.4 324.7 300.1 280.6 272 267.1 263.2 294.7 320.1 351.5 368.1 379.1 374.6 364.2 352.2 337.4 317.8 306.8 291.9 284.9 275.1 273.7 273.7 268.7 280.1 290.7 301.9 317.3 327.1 333 335.6 336.5 333.1 328 323.1 318.6 313.6 309.7 305.2 302.1 299.4 296.7 295.6 293.1 289.7 286.9 283.4 279.2 265.4 254 276.5 300.3 322.8 329 332.1 330.7 326.7 322.5 315.9 307.6 297.4 286.9 276 267.7 257 248.6 240.5 231.8 232.6 237.8 244.5 253 260.3 263.8 264.9 263.6 261.4 261.2 258.7 271.6 289.3 290 289.5 291.1 294.6 296.6 299.5 305.3 316.1 335.8 363.1 384.5 392.6 396.3 397.2 395.8 390.3 377.4 363.4 359.4 353.9 349.6 348.2 343 335.6 327.2 317.1 307.8 298.3 294.9 290.3 283.2 271.4 259.7 254.9
