ncols 200
nrows 82
xllcorner 340000
yllcorner 292750
cellsize 50
271 274.4 276.1 277.7 279.9 281.9 281.3 283.1 283.7 285.1 284.8 287.6 290.1 295.8 303.7 312.3 319.6 326.7 332.9 337.1 338.2 332.9 340.1 344.8 350.8 352.7 345.6 341.3 341.3 342.2 345.9 356.6 372.5 386 397.2 404.6 393.8 397.4 407.1 413 417.7 422.5 426.3 429.7 432.5 433 433.4 433.1 431.6 427.7 412.4 427.2 439.8 451.2 461.6 467.6 467.3 467.3 466.3 463.2 459.2 454.3 454.7 456.5 456.1 454.3 450.2 444.9 438.6 421.3 427 432.7 435.1 436.9 436.5 435 432.1 428.9 426 423.6 418.5 413.5 408.7 403.5 400.4 398.8 395.9 393 390 386.3 382.2 377.8 373.3 368.8 365.5 360.9 354.5 344.4 335.1 329 322.5 315.7 309.3 303 301.9 288.9 270.9 282.6 281.1 273.6 258.8 239.5 235.2 253.6 267.5 268.1 259.5 253.3 253.3 248.2 242.7 232.4 224.1 211.4 200 191.8 186.7 181.8 178.4 173.1 173.1 171.6 172.8 169.3 165.6 164.2 158.3 154.4 154.5 160.2 164.9 169.7 169.5 169.1 168.7 167.9 168.5 169.2 169.4 169.7 170.3 170.8 171.7 172.1 173 173.3 172.9 171.9 171.2 170.5 171.4 172.4 173.3 176 178.6 180.7 178 176.5 179.2 181.1 179 185.8 191.3 200.6 209.9 220.3 228.3 234.4 238 241.6 246 247.1 249.1 255 262.2 272 285 296.1 305.7 305.9 307.2 307.6 306.6 305.7 304.7 302.5 300.3 299.5 298.7 298.2
271.6 274.2 276.8 280.8 285.9 289 285 285.5 284.6 284.9 288.3 291.2 294.8 301.8 310.5 320.1 327.3 334.1 340.2 345.3 343.8 340 348.2 354.3 362.2 363.4 356.5 349.4 348.7 349.6 352.8 354.5 359.1 372.7 380.1 390.9 384.4 395.2 410.2 416.6 421.9 426.2 429.8 433.4 435.8 435.7 435.3 435.1 432.9 429.6 418.8 426.3 438.2 449.4 459.1 464.1 465.8 465.1 464.1 461.3 459 458.3 458.8 459.6 458.2 456.1 451.7 446.5 437.1 425.2 438.3 440.4 442.7 442.6 440.8 438 434.1 431.6 428.3 425.8 420.3 414.8 409.6 406.2 403.1 399.9 397 394.2 390.6 387.1 383.1 378.2 373.8 369.6 366 360.1 354 342.3 334.9 328.5 323.2 316 309 302.6 291.7 284.1 288.6 286.8 277.5 266.7 247.1 238.7 254.9 273.8 277 270.5 267.7 266.2 258.3 250.1 244.7 239.4 229.2 225.5 216.9 205.5 197.9 193.5 187.2 180.2 173.1 169.1 165.7 164.9 163.1 161.1 155 154.5 158.6 161.9 165.3 169.8 169.4 169.1 168.6 167.9 168.9 169.3 169.9 170.9 171.6 171 171 172.2 172.1 172.9 173.8 173.6 172.2 171.7 172.5 173.5 173.8 177.1 179.9 180.2 180.4 180.2 180.1 183.1 181.9 184.1 193 200.8 210.2 216.7 220.5 224.2 228.3 233.9 236.2 241.4 248.1 253.6 261.7 279.2 288.6 293.8 295.7 297.6 299 299.8 299.8 300.6 300.3 298.1 296.3 294.4 293.1 293.9
271.4 273.5 277.4 282.6 287.7 289.6 287.5 286.7 287.2 288.8 292.5 294.9 298.1 304.2 314.1 324.3 332 339.6 346.8 349.8 346.3 344.7 352.8 361 370.2 372.5 367.5 361.4 358.6 358.4 362.4 364.7 364 365 369.6 375 384.6 402.6 414.5 421.8 426.6 431.4 435.7 438.6 439.3 439.1 437.5 436.3 434.3 431.3 424.4 427.3 437.6 447 454.2 461.1 462.8 463 461.9 461.2 461.3 461.7 462.6 462.1 460.4 457.8 453.4 447.6 434.7 441.9 445.4 448.1 448.5 447.7 445.1 441 437.1 433.3 429.9 426.8 421.2 415.5 410.8 407.5 404.4 400.7 397.5 393.8 390.7 386.7 382.8 378.1 374.7 371.4 366.6 360.2 352.4 341.6 334.8 329.2 323.4 317 310.9 307 300.1 292.3 289.3 279.2 267.6 252.3 244.1 257.9 274.5 285.1 277.4 270.2 272.5 267 254.6 246.9 245.1 241 232.8 220.2 213.7 203.5 199.8 194.6 186.2 180.1 174 169.8 165.6 163.5 161.2 158.9 155.7 156.2 161.1 163 167.9 171.4 170.2 169.1 168.6 168.7 169.4 170.1 171 171.3 172.4 172.3 172.4 172.8 172.7 173.3 173.7 174.1 173.5 173.7 171.9 173.3 174.5 176.9 178.6 179.2 180.6 184.5 182.1 185.6 185.2 183 192.4 199.2 204.1 208.6 213.1 217.2 220.7 224.7 229.4 238.8 245.2 252.7 265.3 277.8 279.5 282 285.7 289.2 292.6 292.6 292.3 293.3 293.3 294 290.6 287.5 287.4 292.3
271.2 274.2 276.6 281.2 287.1 292.5 295.1 294.9 293.7 294.9 299.1 301.4 302.9 305.4 316.7 327.9 337.2 344.8 350.3 353.3 351.8 348.2 355.6 365.5 375.1 380.3 379.4 375.4 371.6 369.5 372.2 375 378.6 379.2 381.1 388.8 395.7 408.7 420.6 427.2 432.8 437.3 441.5 442.9 443.4 441.9 439.4 438 435.2 431.5 424.8 426.3 436.4 444.4 450.7 456.5 461.5 461.9 462 462.6 463.5 465 464.6 462.8 461.9 458.3 454.7 450.3 442.1 449.7 452.5 455 453.8 450.7 447.6 443.3 439.7 435.1 430.1 425.7 421.1 415.5 411.2 407.3 403.2 399.1 395.6 392.9 389 385.2 381.4 378.7 376.1 372.2 366.2 358.7 350.7 341 334.5 328.8 324.3 320.3 315.9 311.3 303.9 297.3 292.1 284.5 274.4 255.9 259.1 276.9 284.9 275.8 275 269.5 266 261.4 250.6 242.3 243.2 235.2 222.4 212 205.3 199.2 192.3 188 181.6 177 173.4 170.4 166.8 163.4 160.3 156.9 156 157.6 161.6 165 168.8 172.4 171.1 169.3 169.1 169.5 170 170.5 171.4 171.4 172 173.1 173 173 173 172.8 173.2 174 174.2 174.2 171.9 172.8 174.9 176.3 176.6 178.4 180.9 184.6 185.7 186.8 188.1 184.7 187.1 191.8 196.7 202 207.6 214.9 217.9 224 230.8 237.5 244.3 253.9 265.7 268.1 272.5 276.1 279.5 283.1 284 283.3 283.2 285.5 285.8 287.1 283.9 281.2 287.6 290.9
273 279.3 279.3 279.7 284.1 293.5 302.7 305.9 306.4 306 306.1 308.6 311.8 314.5 316.4 330.1 341.8 350.2 354.1 357.2 357.7 352.9 354.8 364.9 377.9 387 391.6 391.8 388.3 383.9 386.4 390.2 394.8 400.2 403.4 405.9 408.9 417.6 427.9 434.7 439.7 443.8 446.8 447.2 446.2 443.6 440.9 438.6 435.1 431.3 423.9 427 435.6 443.5 451.4 458.8 463.7 464.3 464.2 464.9 466.7 467.1 465.8 464.7 462.9 459.8 456.4 450.6 450.8 454.9 457.1 458.2 457.7 452.5 448.3 444.6 440.4 435.7 430.4 425.6 420.5 416 411.4 405.6 402 397.5 390.5 382.4 382.2 380.1 378.7 380.4 377.2 371.7 364.3 356.6 348.7 340.1 335 329.4 324.2 321.4 318.1 311.4 306.7 300.5 293.6 283.1 269.3 260.6 273.8 278.3 278.9 274.6 273 268.9 261.9 252.9 243.2 238.4 233.9 224.8 215 207.4 202.1 197.6 196.2 191.8 184.2 177.1 173 169.8 165.3 161.8 158.8 156.9 157.9 161.9 163 166.4 170.5 174.4 174.1 170.1 170.9 171 171.1 172.3 172.6 172.6 172.5 174.4 174.6 174.2 174.7 173.1 173.9 174.3 174.4 174.1 172.9 173.1 174 174.8 176.3 178.5 181.4 184.8 188.2 186.8 187.2 185.5 188.5 193.5 198.5 204.4 212.3 218.2 221.9 225.8 231.4 237.2 244.7 255.4 259.6 263.4 266.9 272.3 273.6 274.3 273.9 274.7 275.9 277.3 278.6 279.5 277.5 282.7 286 292
279.1 285.8 284.8 284.7 284.2 285.2 290.6 303.5 312 314.4 315.4 317.6 322 326.9 320.6 330.5 342.6 353.4 359 360.7 362.1 361.3 356.8 366.4 378.1 389.4 398.4 403 405.8 401.7 404.2 409.7 415.5 419.8 421.1 420.5 415.2 426.1 434.9 441.2 445.8 449.5 451.1 450.8 448.8 446 442.7 439.2 435.2 431 427.1 428.2 434.8 443.7 451.1 457.1 460.8 462.9 466 467.3 468.9 467.4 466.9 465.9 463 459.7 456.4 453.8 456.6 458.3 459.6 459.4 458.2 452.9 448.7 444.2 440.1 435 430.9 426.4 421.6 417 411.3 409.3 405.5 400.9 395.8 390.9 382.8 365.5 367.5 374.6 375.6 370.1 361.4 353.4 347 340.3 335.8 330.3 324.7 321.5 318.1 310.4 305 296.5 284.9 272.9 276.1 283 293.1 291.3 278.8 271.7 269.6 267.7 260.1 251.2 240.8 233.3 225.2 218 211.8 208.7 202.4 202.5 197.8 192.6 185.4 177.3 175.7 172.2 165.4 161.8 158.3 157.2 161.1 163.7 166.5 169.6 173.9 176.4 172.4 169.7 171.6 171.9 172.4 173.3 174.1 174.4 174 174.8 175.8 175.8 175.7 173.7 174.1 175.6 174.7 174.5 173 173.3 173.7 174.5 176.4 179.1 182.2 190 192.6 188.5 187.4 187.6 189.8 194.4 200.5 207.3 213.3 217.8 220.5 223.9 231 237 245.1 250.8 251.2 256.9 262.7 267.7 267.4 267.1 266.8 267.1 268.1 269 272.9 272.5 274.7 281.1 288.7 296.2
283.4 293.4 293.1 289.6 289.9 290.2 289.3 294.9 309.4 318.8 323.4 327.2 331.3 335.1 328.9 328.1 339.6 350 358.4 363.2 365.5 366.7 363.7 367.1 380 390.4 400.2 410.1 416.6 419.2 422.8 427.2 432 434.2 433.2 430.4 427.3 428.3 439.5 446 450.7 453.6 454 453.4 451.3 448.2 444.4 440.4 435.8 431 427.1 428.4 432.2 439.9 448.3 453.5 456.2 458.9 462.4 465.9 468.1 467 465.6 464 462.4 459.6 456.4 458.9 460 461.6 461.8 461.1 457.4 453 448.8 443.7 439.4 435.2 431.4 427 422.4 418.1 415.3 411.4 406.8 402.1 396.7 390.8 383.7 375.9 351.2 356.7 366.9 363.7 355.7 350.2 346.3 340.1 334.5 329.3 323.8 321.4 315.8 307.8 299.4 293.2 289.2 286.8 294.1 298.3 296.6 290.5 276.4 278.5 270 264.7 255.6 247 237.2 230 222.4 217.6 212.7 209.1 204.4 208.4 201.7 193.8 183 184 180.8 170.7 163.8 159.6 160.6 166.3 166.5 167.9 170.9 176.5 177.4 176.7 173.3 171.1 169.8 171.6 172.8 173.3 174.4 175.6 175.7 175.2 176.5 177 176.3 176.2 175.3 176.2 175.9 174.7 174.2 174.1 174.7 175.6 177.4 183.4 189.6 195 198.2 191.5 189.4 189.3 190.5 192.3 198.3 204.7 211.7 216.7 217.9 221.2 228.1 236.1 242 242.8 246.5 252.4 259.2 263 261.9 258.6 260.1 261.4 261.6 263.5 264.8 268.9 275.2 284 293.3 297.3
281.7 293.3 300.1 297.3 295.5 297.8 297.9 293.1 302.2 317.6 328 334.1 338.6 339.7 334.7 330.7 337.1 347.6 356.8 363.2 368 371.1 371.2 368.4 375.4 386 396.2 408.2 418.8 427.9 433.1 437.7 442.6 443.8 441.3 438.6 436.2 433.8 442.7 448.9 453.3 455.1 455.3 454.6 452.5 449.1 445 440.8 434.8 429.9 430.1 432.1 434.1 434.8 441.4 444.9 448.1 452.5 458.4 463.5 466 466.3 465.2 463.5 462 460.2 460.6 461.8 463 463.3 463.7 461.5 458.2 452.9 448.3 443 438.9 434.8 431.5 427.7 424.4 421.3 417.7 412.9 408.1 403.2 396.5 390.2 383.5 375.7 357.5 330.9 337.7 336.7 346.4 346.4 344.5 338.8 331.9 327.4 323.7 321 314.5 307.8 301.8 298.2 295.8 297.7 300.6 300.6 296.3 285 275.9 274.1 267.4 260.8 252.9 241.8 233.1 224.2 216 208.5 202.2 200.3 210.1 209.5 201.6 189.4 186.6 186.5 177.2 169.3 162.5 159.3 161.4 164.6 168.8 170.5 175.7 180.5 180.1 179.1 174 172.6 170.3 171 171.5 172.8 174 176.1 176.4 176 176.7 177.4 178.2 177.5 177 177 177.1 176.3 176.5 176.9 177.7 179.1 183 194 202.1 202.6 204.5 197.8 191.9 192.3 191.9 194.8 198 198.7 205.3 213.4 215.9 219 224.9 233.3 237 236.5 243.7 251.2 251.4 250.8 250.6 251.2 253.4 254.6 255 259.9 264.8 275.6 282.1 288.5 291.3 294.1
280.7 292.1 300 303.9 303.9 305.9 306.9 299.4 298 313.2 328.1 341.5 345.6 344.8 341.6 337.7 337.8 343.6 353.5 361.1 370.3 374.8 376.9 376.9 376.2 380.9 392.3 403 414.5 425.9 434.7 441.7 448.3 450.7 450 446.8 444.3 443.1 448.3 451.4 454.6 455.2 455.2 453.8 451.9 448.5 444.6 440.4 434.4 431.9 434.1 436.4 438.3 439.4 440.8 446.3 452.1 456.4 457.4 460.7 464.1 465.3 464.7 463.5 463.4 463.3 463.3 464.3 465.1 465.6 464 460.6 457.2 452.9 447.1 441.5 437.3 433.8 431.4 429 426.9 423.9 419.5 414.7 409.9 404.9 399 393.9 388.9 383.3 374.1 344.3 321.6 309.8 324 341.9 342.5 338.1 331 327.2 323.8 321.5 319.4 310.7 306.1 303.5 303.3 304.3 303.7 298.5 291 274.5 276.3 270.5 264.4 258.2 249.7 238.1 229.2 216.9 207.8 201.5 198.1 194.7 196.7 200.8 193.8 187.3 188.4 178.8 172.4 168 163 159.7 164.4 163.7 170.6 172.3 176.9 180.4 181.7 180.8 174.4 173.3 171.8 170.5 170.5 172 175.9 177.2 176.9 177.1 177.8 178.8 179.8 179.5 179.4 179.5 179.9 180.6 180.9 180.9 183.2 186 196.3 205.8 210.5 210.9 210.3 202.9 195.9 194.1 194.4 197.8 198.8 201.3 203.3 210.8 214.2 217.1 222.5 229.3 230.4 233.3 240 242.2 240.3 240.6 242.9 245.3 245.2 249.3 258.3 267.5 278.8 282 283.5 286.1 290.7 296.8
284 295.5 305.6 311 314.5 317.9 315.1 307.5 301.1 306.8 321.5 337.1 346.4 347 345.1 344 343.6 348.6 356.9 365.3 373.1 378 381.5 384 385.8 385.8 387.5 398.7 409.8 421.4 433.7 442.7 449.8 453.9 455.3 453.5 452.2 451.3 453.9 455 456.6 456.2 455.7 453.2 451 448.4 444.5 439.3 436.3 439.2 439.5 440.5 441.8 443.4 444.2 447.5 454.7 459.7 462.5 463.5 462.6 463.6 464.6 464.6 465.1 465.4 466.4 467 468.4 468.3 464.2 460.1 455.9 451.6 446.1 440.6 435.5 431.9 429.7 430.7 429 425.8 421.4 416.5 411.7 406 400.1 396.2 391.4 384.4 375 353.7 328.9 303.4 309.1 335.7 340.4 336.9 332.4 327.8 326.1 322.2 321.5 316.5 311.3 309.9 310.8 310.5 306.2 297.9 286.6 272.4 275.2 266.2 261.1 254.2 246 234.9 225 217.3 207.4 205.2 202.4 195.7 189.6 185.2 183.8 181.2 178.1 173.4 170.2 168.7 162.2 160.9 166.4 169.7 171.2 172.2 175.7 178.6 180.7 182.3 175.7 173.9 172.3 171 171.5 173.4 176.8 179 178.6 179.6 180.9 180.9 181.9 181.9 182.3 182.7 184.3 186.5 186 188.1 190.7 199.6 212.2 218.1 218.6 217.4 216.7 203.8 197.5 197.1 198.6 200.6 203.7 204.5 207.1 206.9 210 213.9 219.1 222.7 225.4 230.4 233.6 232.9 233.8 236.2 239.1 243.4 249.6 257.3 266.6 279.6 280.7 279.7 280.8 286.3 296 299.3
287.1 301.5 313.7 323 331.4 331.1 323 313.4 307.5 303.4 310.6 323.9 334.1 346 350.3 352.2 353.5 353.5 364.1 371.8 377.9 383 388 393.4 396 397.8 399 395.7 407.2 417.1 429.3 438.8 448.5 455.2 457.5 457.2 456.1 455.8 456.6 457.8 458.2 457.8 456 454.4 451.9 448.8 444.9 440.2 441.2 443 443.3 445.3 446.7 447.4 450.6 450.9 455.4 460.5 463.7 464.2 464.1 464.8 465.9 466.5 466.8 468.2 469 470.3 471.9 469.9 465.2 461 456.1 450 443.9 438.3 432.7 427.3 426.8 428.4 428 425 422.2 417.5 412.1 406 401.3 397.8 392.3 385 361.6 335.5 312.1 291.9 304.7 332.5 340.8 336 330.3 330.9 328.1 322.2 322.6 321 318.3 317 315.8 311.7 306.9 297 278.4 268.6 270.4 263.1 258 248.8 235.2 225.8 220.5 214.6 212.2 215.2 211.1 202.5 192.8 187.6 182.2 179.7 176.6 173.7 173.3 171.9 162.1 163 166.9 170.2 171.6 172.3 176 180.6 182.6 183.8 178.6 174.7 173.2 171.7 172.8 175.3 178.3 180.8 181.3 182.1 183.9 184.6 185.5 185.7 183.9 185.7 189.8 192.5 192.4 195.2 204.9 218.8 230.7 234.5 226.6 222.9 218.4 206.1 199.9 202.4 209.6 204.2 207.7 209.1 210.3 210.3 209.5 212.3 215.7 219.8 222.1 225.7 227 228.9 232.1 236.5 244 252.7 264.9 272 274.2 276 275.2 273.5 280.2 293.3 294.9 290.9
289.1 304.2 320.2 334.6 347.2 344.5 332.3 321.5 313.6 311.1 308.5 312.2 325.6 343.9 356.2 360.6 363.4 361 369.7 377.5 383.7 389.4 396.3 403.4 407.2 409.2 410.5 409.8 405 414.9 425.1 434.5 445.1 454.9 459.6 460 460.5 459.9 459.9 460.4 460.1 459.3 457.7 455.5 452.7 449.7 446 440.6 444.7 448.2 448.5 450.2 451.9 452 454.5 457.1 459.4 461.2 463.3 465.1 465.8 466.9 467.5 468 469.5 470.8 472 474.3 474.6 472.3 466.4 461 454.8 448.7 442.6 435.1 429 421.9 419 417.3 416 417 417.6 416.5 411.2 405.4 402.7 398.9 392.1 375.1 348.5 322 297.6 281.5 310.7 340.7 339.7 331.9 327.6 328.2 323.4 318.3 323.2 320.9 323.5 321.3 316.2 311.1 304.8 290.5 273.1 272.3 262 256.8 250.7 244.1 240.5 232.6 221.9 215.3 219.1 223.5 219 209 200.7 193 185.9 181 177.5 176.9 175.5 168.5 162 163.5 165.3 171.3 172.6 173.2 176.9 179.9 179.7 181.3 179.2 175.8 172.2 172.7 174.1 176.9 178.4 181.1 182.7 183.8 185.1 186.8 186.8 185.7 185.4 188.5 194.2 198.8 201.1 209 225.2 241.9 255.2 252 236.3 230.3 222.9 212.3 203.3 206.8 217.9 211.1 209.2 212.9 213.5 213.6 213.1 214.5 215.7 218.7 221.4 223.7 227.2 231.3 236.4 244.8 257.5 269.9 278.9 282.6 274.9 269.2 268.1 272.6 286 287.6 282.7 279.9
291.4 303.8 318 335.2 356.2 357.2 345.7 333.8 324 319 315.3 310 327.3 346.1 360.7 368.9 372.8 374 371.3 381.9 388.7 396.5 405 413.1 418.6 420.9 420.5 419.4 417.7 414 424.2 433 445.1 455.9 460.9 463.3 463.7 463.7 463.6 463.5 462.8 461.3 459.6 457.5 454.6 452.3 449.1 447.1 449.2 451.9 453.4 454.9 456.4 457.9 459.1 462 463.5 465.1 465.2 466.3 467.4 469.2 469.7 470.7 472.1 473.2 475.5 477.3 476.6 472.6 466.4 459.7 453.6 447.4 439.8 428.4 420.9 412.3 403 398.9 397 396.6 400.5 404.9 404.3 405.8 403.2 398.4 389.5 363 335.7 307.8 284.9 281.7 312.3 339.7 335.1 326.1 323 320.2 317.4 315.8 315.6 316 316.9 314.5 310.7 306.6 295.2 282.5 270.7 269.4 261.6 250.9 243.3 235.9 230.3 224.9 222.5 225.9 230.9 226.6 219.8 209.4 199.8 191.7 185.7 179.4 175.5 180.7 176.9 168.6 161.6 164.3 165.3 171.7 171.8 173.5 175.7 176 177.7 177.1 177 173.1 172.5 173.5 175.3 177.3 178.3 180.1 182.2 184.3 186.8 189 187.9 189 192.7 194.7 200 204.6 213.7 233.7 253.1 267.7 281.5 267.3 250.8 243.3 229.8 214.2 207.7 205 219.1 214.2 212.1 213.7 215.1 215.9 217.7 218.4 219.6 222.8 225.3 227.6 231.7 238.5 246.8 259.4 272.9 284.9 284.7 280.8 275.9 270.7 264.9 270.5 276 271.1 269.1 269.9
300.2 309.6 322.3 338.2 357.1 365.3 358.1 346.9 335.7 327.2 319.8 313.2 329 347.3 364.6 376.9 380.6 384.3 383.2 382.9 392.1 401.2 412 421 426.5 428.5 428.9 427.3 425.3 421.1 427 435.1 446.1 457.8 462.9 467.2 468.6 467.5 466.5 465.6 465 463 461.1 459.4 456.7 454.3 451.2 452.2 453.9 455 456.9 459.1 460.6 462.6 463.8 466.3 467.7 467.9 467.7 468.9 469.6 471 472.3 473.1 474.4 476.1 478.7 480.3 477.9 472.2 465.7 459.4 452.8 445.6 437.6 423.7 400.5 389.3 379.4 374.4 370.7 372.1 377.1 381.1 387.3 402 399.6 394 384 357.2 326.1 295 271.9 287.4 315.1 319.7 324.2 321.2 317.9 318.3 315 313 313.5 315.1 313.4 309.5 304.1 297.5 285.3 270.9 263.2 254.3 246.8 241.1 240.5 238.9 234.9 234.1 233.6 238.2 234 225.6 217.9 204 194.6 188.3 182.3 178.6 173.6 170.3 168.8 165.5 161.7 164.1 169.1 171.9 173.2 173.5 174.4 176.5 178.3 178.1 175.4 173.3 175.4 176.3 177.5 177.6 178.6 179.8 182.4 185.4 188.5 189.9 190.6 196.1 203.2 204.6 206.8 215.3 236.6 260.1 282.2 295 298.6 280.1 267.1 252 233.4 220.2 213.9 206.5 216.6 215.4 214.7 216.1 216.3 219 220.8 222 224.1 227.7 230.7 234.9 243.1 252 264.8 276.8 285.3 286.7 285.7 283.4 280 275.9 266.6 261.2 259.1 256.5 256.7 260.4
311.1 320.7 332.6 351.8 367.2 373.2 369.2 360.1 348.6 337.5 326.9 315.9 328.4 347.4 365.7 382.6 390.1 392.8 392.6 390.7 393.6 405.3 416.5 425.4 431.8 433.4 434.2 434.2 432.5 429.3 430.7 440.4 450.6 460.1 465.1 469.8 472.7 472 470 469 467.5 464.9 463.1 461.3 459 456.8 454.1 455.8 457.4 458.2 459.8 462.9 464.7 466.8 467.9 470.7 470.9 470.8 470.9 470.6 471.7 472.8 474 475.2 476.8 478.6 479.1 478.9 477.5 471.3 465.3 459.3 453.1 444.7 425.8 405.8 407.9 408.8 400.6 388.3 373.1 352.8 352.9 349 368.5 382.8 381.8 376.6 366.3 357.5 330 292.7 265.9 278.3 285.4 285.7 296.5 307 309.3 315.3 309.9 307.1 313.9 314.5 310.2 304.2 292.5 283.7 276.9 263.3 257.3 253.9 254.4 255.5 254.8 250.6 245.8 243.8 240.2 232.4 226 220.1 210.7 199.8 196.9 191.9 188.9 180.3 173.5 169 165.6 163.2 162 164.5 168.8 172 173.3 174.5 175.3 176.9 176.9 175.7 174.4 174 177.6 181.1 180.7 178.8 179.6 180.9 183.3 186.3 188.7 192.4 198.2 203.6 208 212.2 214.7 235.9 259.5 283.9 304.3 317.7 302.3 286.1 275.7 255.3 234.2 226.1 221.6 214.2 209.3 215.2 216.9 218.3 219.6 223.6 225.8 227 229.2 233.6 239.3 245.4 257.8 269.1 280.7 287.4 289.1 290 288.5 285.4 280.9 277.2 270.6 260.3 251.6 248.8 247.9 248.6
318.9 331.8 345.3 361.2 374.6 380.2 376.4 369.4 359 350.6 336.4 318.8 328.9 347.4 365.3 387.5 396.6 399.9 400.1 398.2 403.6 413.6 421.7 427.5 434.1 437.1 439.2 439.5 438.3 436.7 437.8 442.6 453 462 466.9 472.3 475.7 475.8 474.2 472.5 470.6 467.7 465.1 463.3 461.1 457.6 457.1 458.8 460.5 462.5 463.8 466.6 469.1 471 471.7 472.4 473.1 473.1 473 472.3 473.7 474.6 475.9 477.2 477.9 479.4 478.1 476.5 474.8 470.5 465.9 459.7 452.8 438.8 428.9 426 428.2 425.5 419.8 411.1 398.4 375 344.9 331.9 346 353.6 347.7 345 336.5 329.9 323.6 300 267 257.4 253.6 256.6 269.6 284.3 281.8 292.1 303.8 315.4 316.9 315.4 308.9 304.3 297.7 287.7 280.1 273.1 272 270.5 269.8 260.6 256.3 255 252.2 247.1 244.1 237.5 222.1 213.4 205.3 200.2 196 191.6 186.1 177.3 170.4 166.2 164.4 164.1 163.2 166.6 166.5 169 170.9 174.2 175.4 175.9 175.9 175.3 174.2 176 177.3 181.4 181.4 180.1 183.7 184.7 184.1 187.1 192.2 198.7 204.4 208.5 213.2 219.5 229.7 254.2 279.9 303.1 323 319.1 303.7 293.7 274 253.5 238.3 231.5 227.9 219.2 210.4 212.3 215.2 219.4 222.4 225.2 229.3 231.2 235.2 242 250.9 260.9 271.5 282 288.5 292 293.9 292.2 289.2 284.5 279.9 276.1 271.7 267.2 261.6 258.5 251.9 245.7
318.7 334.8 353.3 369.3 381.6 385.9 382.5 375.9 367.6 358 339.6 322.1 329.7 347.8 366 387.9 401.3 405.7 406.9 407.4 413 420.2 426.5 430.8 435.8 441.3 443.5 444.4 443.2 441.9 443.2 447.5 454.4 463 469.6 475.3 477.7 478 476.2 474.3 472.5 469.3 467 465 462.3 460.9 461.6 462.6 463.9 466.8 468.6 471.3 473.6 474.9 475.6 475.3 475 474.6 474.2 474.1 475.2 476.2 478.1 479.7 481.3 479.4 477.8 475.5 473.8 470.6 465.8 460.2 451.4 441.7 442.5 439.7 436.4 431.4 424.7 415.6 397.1 379.1 370.9 346 328.8 318.1 313.9 314.7 306.4 294.1 293.1 275.4 260.6 257.1 257.3 247.9 246.7 258.9 260.8 280.1 307 316.8 319.1 316 309.3 304.5 299.7 292.6 284.5 282 272.6 268.6 264.7 259.6 255.8 255.2 252.7 246 240.4 230.8 216.3 203.8 200.1 195.8 191.3 187.1 181.1 174.4 168.7 166.2 165.4 164.6 163.4 167.5 169.6 171.5 172.4 173.5 172.5 173.4 173.7 174.3 178 178.3 175.8 176.9 178.3 180.2 183.8 185 186.7 190.3 198.6 205.3 210.5 214.4 218.2 227.5 239.5 263.2 290.6 314 321.7 316.5 306.8 297.2 269.8 253.1 242.7 237.3 232.2 219.1 213.1 213.4 215.8 219.2 222.5 226.3 231.6 236.5 242.5 252.9 265.4 274.9 282.6 288.8 294.3 296.4 294.8 290.2 286.2 282.9 279.8 276.8 273 268.6 266 262.8 258.8 254.9
314.1 327.8 344.3 365 383.6 390.6 387.9 382.7 375.3 365.2 342.3 327.1 328.9 343.3 361.2 380.9 400.2 408.7 410.5 413.8 417.9 423.9 430.1 435.5 441.1 446.1 449 449.8 449 448.4 448.9 452.6 459.3 467.9 472.6 477.8 480.1 479.8 477.9 476.5 474.7 471.5 469.4 467 463.8 465.3 465.9 467.3 470 470.9 473.7 475.8 477.5 478.8 478.8 478.2 477 476 475.2 475.5 476.1 477.3 479.7 482.6 482.8 481.2 477.6 474.9 473 469.5 465.5 460.8 456 452.9 448.5 445.8 441.8 435.7 428.3 420.6 407 404.1 394.9 372.7 352.3 337.2 322.5 311.7 294 287.3 274.5 267.9 271.2 278.3 277.5 263.3 247.5 243.2 251 269.8 295.2 317.9 320.9 316.7 310.1 304 298.1 291.2 285.6 283.6 278.7 270.2 266.3 261 256.3 255.1 252.1 242.8 229.1 216.4 206.7 210.2 202.1 189.2 184.7 181.9 175.6 172.2 168.7 166.5 166 165.1 164 168.4 170.7 172.3 172.2 172.1 171.5 171.8 173.3 174.2 178.4 178.5 177.2 178.1 181.1 183.7 187 189.5 192.9 198.3 207.6 213.9 218.2 221.1 230.1 246.7 264.1 269.4 284.5 305.8 316.4 313.8 307.3 295.2 267 253.5 245.3 240.8 233.1 219.8 215.7 214.3 220.4 221.2 223.6 228.4 235.1 241.6 251.5 267.7 277.4 285.7 293.8 298.9 300 296 291.3 287.9 284.8 282.1 279.9 277.4 274.1 269.7 266.5 263.1 259.7 256.1
313 328.1 343.4 362.8 386 395.6 392.9 389.1 382.8 371.4 350.4 333.1 326.4 338.3 357.5 375.7 395.4 405.3 411.3 413.8 418.3 425.7 431.4 438 445.2 451.3 453.9 454.8 454.5 454.1 455.2 459.4 466.6 473.3 476.5 479.7 482.1 481.4 479 478.4 476.8 473.8 471.4 469.1 467.3 468.4 470 474.6 474.9 476 478.2 479.5 480.2 482.2 481.2 480 477.8 476.3 476 475.8 475.3 477 480.1 482.9 482.7 480.4 476.5 474.9 473 470.2 467.5 464.4 460.4 457.8 454.7 450.7 445.1 439.2 432.9 425.5 418.3 412.6 402.8 393.6 384.6 369.7 353.6 345.8 333.8 301.8 278.2 288.2 299.7 304.1 299 286 264.9 241.2 243.2 266.5 294.6 320.9 322 317.2 310.6 302.4 296.2 289.4 284.9 282.7 278.6 270.2 266.8 261.3 254.1 246.2 240.5 231 227.2 227 211.9 223 215.7 195.7 183.8 178.4 178.4 170.9 168.3 167 166.3 165.6 165.2 168.7 171.6 172.1 171.2 170.4 170.7 172.1 172.9 174.9 178.4 181 178.3 180 187.5 194.8 204.1 206.9 208.9 211.9 217.7 221.5 225.7 233.4 251.3 269 287.7 302.7 302.3 304.8 313.1 310.7 305.4 293.7 267.2 254.9 247.5 243.6 232.4 222.7 218.8 218.2 222.2 224.6 226.6 230.8 238.4 249.2 265.5 277.4 289.1 299.6 303.8 303 297.5 293.1 289.4 286.4 283.7 281.6 279.4 277.1 274 269.9 266.5 263.2 259.8 255.7
314.7 328.4 345.5 367 389.5 400.3 398.4 394.5 389.2 381.7 364.2 343.7 333.1 331.5 349.7 367.6 384.8 402.3 407.2 410.2 415.6 424.8 432.5 439.4 448.6 455.2 457.6 458.4 458.7 460.2 461.6 466 474.3 478.2 481.1 482.9 483.8 482.6 480.5 479.8 478.3 475.5 473.4 471.5 470.8 473.3 476.1 477.5 478.5 479.2 481.2 481.8 482.8 483 482.3 479.7 477.6 475.6 474.9 473.6 473.1 474.9 477.7 479.4 479.5 477.9 476.2 474.7 473 472.1 469.5 467.2 466.4 462.9 459.5 454.7 449.2 442 436.4 429.5 422.7 415.4 406.3 400.4 394.7 381.6 365.6 347.8 319.8 294.7 295.8 315 323.4 315.6 303.7 288.1 259.1 238.7 242.7 272.3 305 325.3 323.7 317.8 309.1 300.5 292.9 286 282.8 280.3 275.9 269.4 265.3 262.1 256.8 250.6 243.4 235 239.7 231 213.6 193.7 199 199.9 181.1 175.7 172.4 169.8 168.6 167.6 167.2 165.9 165.2 170.5 172.1 170.3 170.1 170.2 172.1 173.6 175.7 178.3 181.9 182.3 181.8 186 198.2 211.1 218.5 219 221.1 224.2 227 230.9 237.8 249.3 263.7 289.3 308.9 323.9 318.6 313.4 313.6 309.5 302.9 295.1 268.8 255.2 248.1 245.2 234.9 222 220 221.8 221.8 226.9 229.3 235.7 245.4 259.4 276.1 289.8 300.7 306.1 304.1 298.8 295.1 291.6 288 284.8 282.4 280 277.7 275.3 272.4 269.6 266.2 262.7 258.8 254.6
320.4 333.9 350.4 372.8 393.5 403.8 403.2 399.7 396.7 394.4 380.2 359.8 344.6 336 338.6 354.5 372.1 387.1 397.2 402.6 412.2 422 430.1 440.4 451 457.8 460.5 461.6 462.5 463.7 467.2 472.1 478.1 480.2 482.4 484.7 484.4 482.7 481 480.5 478.7 476.8 475.5 473.9 474.7 477.1 478.7 479.5 480.5 481.3 483.1 483.8 484.4 483.8 482.1 479.9 477.5 474.8 472.8 471.5 470.7 472.1 472.3 474.1 474 474.5 474.6 473.1 473.1 472.6 472.4 471.6 471.4 469.4 465.1 458.7 452.5 446.5 439.3 432 424.1 414.4 406.4 398.9 386.3 363.7 342.8 325 306.8 309.9 325.5 329 317.2 296.6 284.3 275.3 250.2 234.7 248.7 280 312.1 328.2 324.1 317.4 306.9 297.7 289.6 283.4 281 277.7 271.7 267.5 255.9 255 254.1 248.9 243 244.2 240.3 230.8 203.7 181.4 194.3 189.6 176.7 172.7 171.7 169.8 169.2 168.3 167.8 166.5 170 169.7 172.1 171.2 170.3 170.7 173.8 176.4 179.1 184.2 187 184.6 185.9 195.3 209.7 225.6 230.3 231.6 235.6 241 238.9 243.5 254.9 270.1 286.8 303.8 324.3 333.3 324.3 319.9 316.4 308.4 298.2 289.6 269.7 253.2 246.4 241.4 230.9 223.9 227.8 228.6 228 228.5 233.5 242.6 254.1 266.8 285.7 299.7 305.3 304.3 300.5 297.5 293.6 290.1 286.6 282.7 279.8 277.6 275.3 273.2 271.1 268.5 265.2 261.7 257.1 253
328.9 343.6 358.6 376.6 396.7 407.3 407.9 406.7 405 403.1 396.2 378.8 361.3 345.8 337.4 350.1 368.3 379.9 377 394.6 408.9 417.9 426.3 439 449.8 458.2 461.9 463.1 463.8 465.9 470.1 475.1 479.7 481.7 483.4 483.9 483.3 481.3 479.8 480.1 479.2 478.1 478 476.7 476.5 478.9 481 481.2 482 482.6 484.8 485.7 483.9 482.8 480.8 478.3 476.5 473.7 471.3 468.8 466.4 467.8 468 467.4 466.9 468.7 470.7 470.7 471.9 474.1 475.3 475.8 475.5 473.7 469.4 461.8 455.6 449.6 441.8 432.9 423.5 413.5 404.4 387.6 366.8 343 334.4 332.8 334.5 341.4 330.8 311.6 289.4 271.1 258.7 250.8 238.3 232.2 253.8 287.4 320.1 328.5 321.6 315.9 304.1 293.9 284.8 281.3 280.7 278.4 268.9 255.6 260.3 255 250.5 247.8 244 244.4 234.4 222.1 195.5 184.5 191.4 178.6 174 172.3 171.3 170 169.3 169 168.3 167.3 166.5 170 171.4 171.3 171.4 173.2 175.2 179 183.6 188 190 190.4 192.9 201.5 215.2 230.9 237.5 241 248.6 250.6 251.6 259.9 277.7 291.8 311.7 323.6 340.4 338.9 330.5 325.6 317.3 306.9 291.5 280.1 266.3 251 244.4 237.7 231.2 227.9 235.5 234.8 231.6 231.9 238.7 250.9 263.6 275.2 295.8 302.9 302.7 300 297.4 294.5 291.2 288 284.1 280.7 277.1 274.9 272.8 270.7 268.4 265.9 261.9 258.7 254.9 251.5
345 355.6 369.4 383.3 399 410.5 415 413.7 411.6 409.4 405.1 394.9 377.5 357.5 343.9 343 355.8 359.4 375.2 390.8 402.3 412.1 422.5 437.2 448.2 455.4 460 461.7 463.1 467.8 471.2 476.6 479.7 482.5 483.8 482.9 480.6 479 478.5 479.1 479.3 479.5 479.1 478.6 478.8 480.5 481.9 482.3 482.3 482.3 482.8 483 482.9 480.5 478.2 475.5 473.4 471.4 469.8 466.3 462.1 462.8 462.7 461.7 460.1 464.8 466.1 466.4 468.6 474.5 479 480.3 479.8 477.3 472 465.7 458.8 452.7 443.9 433.9 423.7 413.4 403 385.7 366.4 366.1 365.7 362.4 349.9 330.1 307.8 285.8 265.9 251.4 242.2 236.3 232.7 229.7 258.5 284.7 302.2 306.6 309 309.6 297.6 287.6 275.3 273.2 279.6 274.6 252.1 260.9 266.2 263.1 260 253.2 238.3 232 227.3 207.6 185.3 186.2 184.1 175.1 173.5 172.5 171.6 170.8 170.2 169.1 168.2 167.2 167.5 169.7 169.8 170.5 171.7 174.9 178.6 184.9 190 191.3 192.9 195.1 199.1 206.2 217 228.9 238.4 248.5 259.3 263.1 273.7 282.2 295.2 315.3 332.7 343.1 350.2 341.9 334.7 326.2 312.2 301.8 287.2 273.1 264.2 253 245.5 238.9 233.3 231 236.5 237.4 233.7 236.3 246.5 260.3 272.6 286 302.2 304.1 299.6 296.3 293.4 290.2 286.9 282.8 279.9 276.2 272.7 268.5 266.3 264 261.1 259.5 257 254.2 253.2 250.5
363.1 368.4 381.9 394.6 405.8 414.1 416.8 416.5 415.4 413.3 409.6 405.4 392.1 371.1 353.6 344.7 350 364.2 368.7 386 398.6 409.4 423.9 437 446.9 453.9 457.7 459.3 462.3 467.8 472 477.5 478.7 480.4 480.7 479.7 477.4 476.2 476.7 478.4 478.9 480.2 480.5 481.2 481 481.7 481.8 481.6 481.3 480.8 479.8 479.7 479.7 478.6 476.4 473.6 471.2 468.8 466.9 464 460.1 456.3 456.2 454.9 454.9 457.9 458.8 447 465.5 477.1 481.1 482.3 482.2 477.5 472.5 467.4 461.3 454 444.2 434.1 423.9 411.2 398.2 392 387.5 380.8 370.2 354.5 329.4 306.1 283.5 263.1 252.2 248.2 254.5 253.5 235.5 226.5 240.1 261.9 270.4 275.8 281.1 283.6 280 271.9 266.4 265.5 270 263.3 245.4 247.8 258.5 255.8 251.7 245.4 226.2 225 234.4 204.5 185.8 190.7 177.8 175.9 173.9 173.1 172.3 171.6 170 169.1 168.8 171.6 169.6 168.9 169.2 170.3 173.5 179.1 185.5 194 197.4 196.1 196.6 199.9 203.8 209.1 218.8 230.2 241.6 254.7 267.2 280.5 297.6 311.9 317.7 339.5 356.7 365.9 357.6 347.5 336.9 325.2 309.2 297 285.1 273.7 265.4 257.4 250 241.8 236 234.1 236.5 238.8 237.6 243.7 255.4 270.6 280.7 299.1 304.2 300.3 296.1 291.5 287.2 284.5 279.6 275.6 272.2 268.3 265.4 261 257.6 255 253.1 251.8 250.6 249.3 247.9 246.7
377.6 382.5 388.5 398.5 408.3 416 418.3 418.2 418.7 417.8 414.6 409.4 401.5 389.4 367.4 352.5 349.9 360.7 374.5 390.4 405.7 417.3 429.8 440.2 447.9 452 452.9 453.2 458.3 466 470.7 473.8 474.9 477.5 477.5 475 472 472.7 475.5 478.5 480 481.3 483 483.5 483.3 482.7 481.3 479.7 478.4 478.3 477.2 477.1 476.1 475.4 474.1 471.9 468.9 467 464.8 462.1 458.1 452.5 443.2 443.9 446.8 451.8 441 435.6 460.8 477.2 480 481.1 479.7 476.4 473 468.3 461 453.5 444.1 434.2 427.7 420.9 411 401.3 390.6 376.9 357.8 332.6 308.4 284 266 258.8 260.7 267.7 270.7 259.3 243.1 234.4 223.8 230.3 240.3 247.4 253.7 259.1 254.1 260.3 261.7 249.2 251.3 246.5 233.6 228.9 233.7 229.6 226.6 221.8 209.5 229.7 230.3 202 181.9 179.5 177.5 175.9 174.8 174 173.1 171.3 170.3 169.1 169.6 169.1 169.7 168.9 169.3 172.2 177.9 185.9 193.5 198.6 200.1 198.6 201 204.9 210.8 218.1 225 234.2 246.8 263.4 278.6 301.8 321.1 338.4 349.8 366 384.7 386.6 367.4 353.1 338.1 323.7 311.3 295.4 284.2 274.3 266.3 258.6 251.1 244.3 239.6 238.8 239.3 244.8 244.2 251.3 263.9 277.8 294 306.2 300.9 295.9 289.5 283.5 278.4 272.2 268 265 262.9 259.6 256.8 253.9 250.4 247.6 244.6 244.2 242.9 241.7 241.3 238.2
389.8 394 396.8 402.8 411.6 418.3 421.1 420.5 422.9 420.7 417.8 411.7 404.3 396.5 381.7 360.9 352.9 360.1 374.9 390.5 407.2 419.5 430.2 439.2 445.1 447.1 445.7 441.5 445.3 451.1 462.8 462.2 469 471.8 471.9 469.4 465.6 472.3 475.8 478.9 481.7 483.4 485.6 486 485.2 483.5 481.7 479.4 475 475 475.2 474.4 472.2 470.8 469.4 467.6 466 465.1 463 460.9 458.8 454 447.9 427.5 436.4 441.1 425 429.7 454.7 470.1 473.7 475.2 474.1 473.1 471.2 466 458.7 452.6 447.2 440.2 433.3 423.8 413 401.4 386.3 361 335.9 312 291.4 274 274.9 279.1 284.6 291.8 294.4 276.5 257.6 248.5 232.4 223.9 218.7 221.8 230 236.6 232.5 240.9 250.4 237.7 234.3 230 219.8 211.3 204.5 200.2 198.3 197.6 199.4 223.3 223.3 192.9 180.4 179 178.3 177 175.8 174.5 172.8 171.4 171.2 170.6 171.4 169.9 169 169.4 170.2 174.6 181.9 192.8 199.8 202.1 202 202.8 206.1 210.3 215.8 225.2 234.1 242 255.7 275.3 298.3 321.5 342 361.4 379.1 392.1 409.1 398.7 374.1 355 338.7 322 309.9 299.6 282.9 272.6 266 263.5 257.4 246.6 244.4 244.4 244.2 246.9 250.1 259.6 275.6 288.6 306.6 304.4 297.1 290.8 283.3 275.2 268.1 262.1 258.1 255.1 253 250.8 249.2 247.9 244.9 242 239.5 237.5 236.1 234.7 233.4 232.7
399.4 399.3 400.1 404.9 409.7 413.2 417.6 420 421.5 421.6 419.9 415.4 409.1 401.1 389.1 373.7 360.1 356.9 368.4 383.3 397.2 415.5 425.5 432.5 436.2 435.8 429 421.8 429.1 435.4 443.1 453 459.2 463 464.5 462.3 463.3 471.3 476.1 478.6 482.5 486.1 487.8 487.5 485.3 484.3 481.8 478.7 474.6 470.6 471.7 470.5 468.3 465.7 464.3 463.1 463.7 464.8 464.5 462.5 459.4 455.8 447.3 429 415 417.5 408.5 423.4 444.6 449.7 453.8 463.2 466.5 467.6 465.8 461.4 458.5 455.9 451.4 445 437.5 427.2 414.8 400 378.6 341.5 318.8 298.9 289.8 293.8 297.3 303.7 314 319.6 316.9 300.5 283.1 269.6 248.8 237.6 227 218.6 213.9 214.6 214.2 215.9 220.7 222.7 217.7 212.4 204.2 199.7 196.7 196.9 192.3 190.4 190.5 203.8 206 186.6 180.7 179.8 178.4 177.1 174.8 173.3 172.3 173 172.6 171.5 171.3 170.3 169.8 170.2 172.6 176.5 186.9 199.4 205.8 207.2 207.1 207.5 209.9 215 221.3 232.6 239.9 252.6 266.4 292.4 317.1 341.2 363.7 384.3 403.9 420.7 428.6 406.2 380.4 356.1 337.1 320 307.7 294.9 282.3 274.3 282.6 278.5 259.6 250.1 249.9 249.3 249.9 252 258.1 270.5 289 301 306 300.5 293.8 285 275.5 268.8 261.8 256.4 252.1 249.4 246.7 244.6 242.5 240.2 238.4 237.2 236.7 233.9 231.6 230.3 229.2 228.9
390.6 390.1 391.5 392.7 396.3 400.3 408.4 417.2 422.3 423.6 423 418.6 411.4 405 399.3 387 373.7 363.4 363.3 376 387.1 407.5 417.2 420.4 421.2 419.9 416 408.6 411.7 417.7 436.5 448 450.2 451.6 453.2 456.2 466.3 471.8 475.8 479.3 483.1 487.4 488.7 488.2 485.6 482.5 480.5 476.1 471.8 465.7 467.5 465.6 462.5 459.9 458.6 458.1 462.9 466.7 467.2 464.4 460.2 454.4 448.2 437.6 407.5 391.2 400 420.5 419.4 415.2 430.7 440.1 444.8 450.2 457.4 459.6 461.1 458.5 454.6 448.3 441.7 429.1 413.4 396.6 369.6 338 312.3 311.1 315.2 318.2 324.2 331.9 339.8 334.8 326.7 309.6 307.9 286.2 276.3 261.8 250.3 237.7 224.9 218.6 214.3 208.4 205.9 206.1 206.3 202.9 199.4 210.6 220.2 215.9 201.3 193.5 187.5 187.5 188.2 183 181.5 180.7 178.7 177.1 175.4 173.8 173.8 175.6 174.4 171.6 171.1 171.1 170.9 171.1 174.3 179.8 191.2 205 209.1 209.5 210.3 212.6 215.3 219.8 227.4 237.8 250 261.7 281.8 307.8 334.7 361.9 385.4 407.8 428.9 444.2 433.4 408.6 382.1 355.8 335 315.8 303.7 292.9 285.5 284.6 286.9 274.8 260.8 255 254.7 254.7 255.3 259.3 268.3 285.1 297.6 307 302.6 297.2 289.5 280.8 271.2 263.2 257.1 253.1 249 245.8 243.6 241.4 239.4 236.6 234.2 233.3 233.8 230.8 228.2 226.1 226.2 226.9
378.4 379.9 381.3 383.2 385.9 398.2 408.8 417.7 423.4 425 423.4 419.3 413.9 411 405.6 398.9 388.6 376.7 368.4 367.9 379.9 393.3 398.4 401.2 405.8 402.6 398.9 403.1 412.1 415.5 423.6 436.6 432.9 444 452.4 456.1 465.1 471.8 475.5 480.9 484 487.4 487.8 487.4 485.3 481.5 476 472.8 468.3 458.2 458.5 456.5 456 452.7 451.2 455.7 461.6 466.6 466.7 463.1 458.7 454.5 450 442.9 424.7 394.5 384.8 397.4 388.8 386.2 399.6 413.1 415.5 425.3 447.3 461.6 464.4 460.9 456.5 450.4 442.7 428.3 412 394 369.9 342.7 338.8 341.3 343.8 350 353.4 350.7 344.6 341 331.4 333.4 327 313.9 302.2 288.6 275.5 247.7 232.5 229.9 227 222.2 215.2 210.8 210.3 212.8 224.4 238.9 240.8 216.8 200.6 194.9 189.5 185.8 184.3 182 181.6 180.8 178.4 176.5 175 174.6 176.2 176.5 174.3 174.5 172.3 171.6 171.2 172.9 175.1 181.4 196.9 206.9 210.4 213.3 215.3 218.2 221.9 226.7 234.7 243.7 256.2 275.3 287.7 315.9 349.2 379.4 406.3 428.2 448.9 455.6 436.4 408.7 378.7 357.1 338.7 322.4 314.7 303.8 296.2 292.5 280.8 269.2 263.1 260.1 260.4 260.4 263.3 269.6 281.3 297.9 305.8 308.1 301.4 293.8 285.1 276.2 268 259.7 254.6 250.5 246.5 243.9 241.7 239.9 238 236.1 234.2 232.8 232.1 231.6 227.7 225 225.1 225.9
366.7 368.6 370.7 374.6 385.4 398.5 410.3 418.2 424.2 425.8 423.7 419.9 417 416 412.3 407 400.7 394.8 382.9 378.6 377.7 378.5 381 385.2 390.3 395.3 401 415.1 428.6 430.3 428.4 430.5 441.8 449 458.3 464.4 467.2 470.9 475.4 480.3 484 486.5 487.3 486.1 484.1 481 475.2 468.8 463.5 460 454.5 452.8 441.2 438.4 438.5 450.8 457.9 461.9 462.8 459 455.7 452.4 449.5 444.4 436.8 408.1 385.3 368.8 360.9 361.2 371.8 384.7 388.6 419.6 448.9 466.4 465.6 460.4 456.2 450.3 440.2 426.3 410.6 392.1 370.9 356.4 361.4 366.1 367.1 367.5 362 352.5 346.9 342.9 343.1 342.7 334.7 322.8 306.1 292.1 270 247.6 248.7 257.7 241.7 232.4 234.5 232.2 235.8 243.2 256.3 263.5 245.3 218.6 202.3 193.3 189.5 186.5 184.2 182.7 180.5 180.1 177.8 175.8 175.3 176.6 178.6 177.4 174.4 173.5 173.1 172.5 173.1 174.3 177.9 186.5 203.5 212.9 215 217.8 220.3 223.7 228.6 233.6 244.6 253.7 262.5 288.2 310.7 321.3 351.7 383.4 414.9 437.7 452.6 455.2 433.1 405 378.7 358.2 344.2 336.4 324.7 316 304.8 289.8 279 271.9 268.2 266.1 266.4 271.1 272.9 282.3 298.7 308 313 307.4 299.7 290.9 281.4 272.6 265.7 258.9 254.7 250.9 247.3 245 242.7 241.2 239.2 236.8 234.4 232.5 231.1 230.2 227.9 225.4 224.6 224.1
352.9 355.8 365.6 376.3 387.8 401.3 413.2 420.6 425.2 425 423.6 422.2 420.1 418.1 415 410.3 406.2 405.8 403.7 400.4 397.8 396 396.6 397.2 398.9 402.2 414.4 431.4 438 440.2 439.4 436.7 443 450.7 462 468.7 471.7 474.7 478.4 481.7 482.5 485.3 485.8 484.3 482.7 479.8 475.4 470.9 465.6 461.4 459.4 457.4 455.3 449.9 434.4 441.6 452.2 454.3 454.3 453.9 452.2 449.8 447.4 445.7 444 432.4 408.1 395.1 386.9 362.3 346.7 359.7 390.7 424.6 452.8 465 463.5 458.9 453.6 446.6 436.2 423.1 408.1 390.3 375.1 368.7 372.6 373.3 370.7 366.7 360.5 355 351.5 349 347.5 344.1 332.6 311.3 295.9 275.5 262 265.6 274.7 254.9 239.9 247.8 260.6 259.4 265.2 274 275.3 263.1 247.5 223.6 203.6 190.8 188 185.7 182.4 182.3 181.1 179 177.2 176.7 177.8 178.7 182.6 179 175.4 174.2 173.7 173.4 174.6 176.1 181.1 191.8 208.7 216.7 218.8 222.8 225.8 229.6 234.7 243.6 254.1 270.2 278.6 294.7 322.7 348.3 361.9 385.5 416.8 440.1 452.5 450.8 426.1 399.6 374.2 359.1 350.6 345.4 335.2 325.9 311.8 295.1 284.1 276.6 273.9 272 276.8 278.4 282.8 295.8 310.8 314.7 312.3 305.2 296.4 286.4 276.5 269.9 264.8 260.1 256.7 253.7 251.5 249.2 246.9 244.8 242.8 239.9 236.3 233.8 231.3 228.7 228.3 227.4 225.4 223.1
346.2 357.1 367.3 377.9 389 402.6 413.1 418.6 419.3 420.9 420.2 419.7 419.7 419.3 415.5 412.6 410.5 411.6 414.7 417.8 422.2 423.6 422.1 425.1 426.7 423 430.4 439.4 443.8 445.7 445.9 445 444.5 452.4 464.4 469.9 474.6 478.3 481.7 484.6 485.1 485.5 485.6 485.1 483.4 480.3 476.1 471.3 467.3 464.3 461.2 457 453.7 450.4 434.8 429.8 439 444.9 447.6 448.1 447.3 445.7 446.1 446.5 447.9 444.9 437.7 426 402.7 369.2 338 353 385.5 416.4 440.2 452.8 455.6 452.1 446.4 439.1 429.6 416.8 401.1 383.8 373.1 376.9 375 372.1 368.8 364.4 360.7 358.2 354.2 350.8 346.6 338.6 323.9 301.8 287.2 287.1 292.9 296.1 274.8 250.5 248.2 269.6 285.1 284.8 283.1 277 268.6 260 246.7 220.6 199.3 190.8 188.7 183.5 181.2 180.6 179.6 177.5 178.5 178.8 182 182.1 181.1 180.5 177 175.9 175 175.7 176.8 179.3 183.6 195.6 210.7 216.1 219.2 225.7 231.5 235.1 241.2 250.6 263.2 285.6 300.9 296.3 323.3 353.8 382.2 404.3 424.4 439.8 448.2 435.7 414.3 391.3 368.8 356.7 352.2 349.8 342.2 334.5 327.2 308.7 290.5 281.9 278.2 280.7 287 287.1 296.1 312.9 318.5 316.6 309.2 301.8 293 281.4 271.7 265.9 264 262.5 260.4 257.6 254.8 252.9 250.5 248 244.9 242 239.1 237.1 234.2 233.2 232.8 231.2 228.7 225.9
348.7 362.1 370.7 379.9 388.4 397 401.1 400.7 405.3 408.7 409.1 409.6 411.8 414.8 413.1 412.9 413.5 414.8 419.4 424.1 430.2 435.1 437.7 439.9 440 434.9 440.6 445.7 448.4 449.9 451.1 450.8 452 455.8 463.2 470.4 476.5 481.9 485.5 487.7 488.8 488.1 487.9 486.6 485.2 481.3 477.1 471.7 466.6 462.9 459.4 454.8 448 446.1 444.5 426.2 419.2 429 439.6 440.9 441 440.5 442.2 445 445.5 441.8 436.6 426.5 396.8 368.3 336.7 345.9 374.4 394.2 411.2 430.7 436 435.8 432.3 426.5 417.3 402 385.4 367.1 354.6 367.4 367.5 364.6 363.9 362.9 361.9 360.3 359.1 355.2 347.1 335.1 318.2 309.8 311.3 313.9 312.8 300.1 270.3 250.1 260.7 285.9 291.3 288.1 284.4 277.7 263.3 246.7 228.6 210.8 196.2 191.7 186.1 180.7 178.5 178.6 177.7 178.9 180.6 181.5 182.7 181.2 180.5 179.5 176.8 175.7 176.2 178.2 179.2 181.4 186.2 196.2 207.5 213 218.8 225.6 233.8 241.1 250 265.3 274.1 295.5 317.7 322.6 324.1 352.2 382.2 410.8 430.8 440 443.9 419.4 400.3 380.1 359.4 352.2 346.5 343.9 344.4 337.7 331.4 314.6 295.1 287.4 287.8 296.4 298.5 297.5 310 320.4 319.8 312.5 304.1 296 285.1 273.9 266.6 262.1 261 262.9 262.5 260.8 258.2 254.8 250.7 246.2 244 242 239.2 237.5 237.9 238.9 238.4 236.3 232.7 229.1
352.7 365.1 373.9 382.3 387.2 387.9 386.5 386.3 392.2 390.9 390 390.5 398.2 404.9 407.9 409.1 409.9 415.1 420.2 427.6 434.3 438.6 442.4 446 445.4 442.9 447.4 449.5 452 454.4 455.2 456.3 458.2 460.6 465.3 472.4 480 485.7 489.1 490.6 491.9 491.1 490.3 488.8 486.6 482.3 476 470.4 465.8 461.2 456.9 455.5 456 455.4 450.8 443.3 431 412.5 429.1 432.1 431.7 432.6 433.8 434.5 429.6 423.9 417.1 405.4 386.5 355.6 332 326.4 345.7 359.6 388.5 403.8 405.1 404.2 403.5 399.8 390.9 377.2 360.6 341 330.6 351.3 363.5 358.5 362.9 363.7 364 364.2 365.3 362.3 356.2 346.8 336.5 331.2 320 316.6 313.3 291 263.2 253.9 275.9 295.5 291.4 286.5 284.3 279.1 264.9 245.2 236.5 208.5 194.4 187.6 182.6 179.8 178.1 177.6 178.1 179 179.5 179.8 181.8 181.7 179.6 176.6 176.3 176.3 179.4 182.5 182.4 182.4 188.8 196 205.3 212.6 219.8 228.1 238.1 250.2 265 285.3 296.4 302.4 328.3 347.9 347.5 352.9 379.2 406.1 431.3 427 419.5 402.4 387.1 366.5 351 344.5 338.7 337.2 339.5 334 327.3 317.1 299.9 294.7 298.9 312.9 305.4 307.7 317.1 320.2 313.9 306.7 298.2 288.7 277.3 266.7 261.3 257.6 256.6 256.5 257.4 257.6 257.6 252.4 247.6 244 241 240.1 238.1 237.1 237.1 236.9 239.5 239.3 234.8 231
347.4 363.3 377.9 384.5 376 371.6 373.3 383.6 385.5 380.7 376.9 374.1 386.9 394.3 397.5 399.6 403.4 410.9 421.6 429.4 437.2 443.3 448.1 451 451.5 448.5 452.3 454.7 456.3 458.8 460.2 461.3 463.7 466.8 470.9 477.1 484.8 491.1 493.7 494.2 494.6 493.7 492.6 490.9 487.2 482.8 478.6 473.7 468.4 463.5 460.2 457.8 456 453.4 447.4 434.8 422.4 412.8 410 417.1 417.8 418.8 418.3 410.7 404.3 397.1 388.3 374.2 359 345.1 320.6 304.3 315 333.2 353.3 367.3 370.9 370.4 373.1 373.1 363.5 350.2 335.8 317.9 319.4 347 354.6 355.2 357.5 363.3 366.5 369.7 371.1 368.2 360.2 350.8 342.2 336.1 330.1 321.7 304 275.7 258.1 258.9 287.4 301.4 292.7 286.6 284.1 278.7 264.7 244.7 225.6 205.5 193 185.5 179.5 179.3 178.7 178.3 178.7 178.5 178.3 178 179 181.4 180.2 177.2 176.8 178 182.7 187.2 184.9 184.3 190.4 201.3 208.1 215.9 224.2 237.6 250.6 259.6 277.5 299.1 314.6 320.2 333.6 358.6 376.9 384.4 391.8 411.7 420.5 417.4 400.5 386.9 371.6 352.1 340.7 333.3 329.3 329.6 328.8 326.1 323.1 315.3 303.7 304.6 308.1 309.7 306.8 312.3 316.4 313.9 306.1 299.8 291.6 280.7 269.2 260.7 257.2 253.7 252.6 252.5 253.5 253.5 253.2 248.1 245 241.7 238.5 236.6 236.5 236 234.8 234.1 234 235.4 234.3 230.6
347.2 361.6 372.4 367.4 357 354.8 370 378.8 377.1 367.8 363.8 363.2 376.4 384.1 386.4 384.8 395.7 411 422.7 432.9 440.2 446.3 452 454.9 454.8 452.8 455.9 459 460.7 462.5 463.9 465.5 468.6 473.7 477.6 484.9 490.4 496 499.1 499.5 497.9 496.4 494.7 492.3 489.1 485.3 480.3 474 469.2 464.2 460.8 457.9 452.2 442.8 427.3 427.2 433.5 434.5 422.4 405.4 392.8 393.4 388.4 379.6 374.7 366.8 357.6 344.4 328.7 325.5 327 321.5 296.2 304.4 321.3 333.5 338 338.6 343.4 343.9 335.1 321.4 309.7 296.9 322.2 347 337.1 347.5 347.8 362.7 370.8 375.7 375.9 370.9 362.6 352.7 344.4 336.9 331.3 321.2 309.2 277.1 254 258 287.6 299.3 289.7 287.1 285.1 281.5 265.9 244.6 224.3 202.3 192 183.9 178.6 179.4 178.1 177.6 178.7 179.6 180.3 178.8 178.5 182 180.1 180.6 178.2 180.5 185.8 190.4 188.5 186.2 192.1 201.3 210.2 220.3 231.4 246.1 264.6 282.1 286.2 305.9 329.9 344.8 356 369.7 387.2 398.4 398.7 403.5 405.1 401.8 383.5 368.6 352.3 338.3 331.7 325.6 322.4 321.7 321.7 319.4 314.8 309.3 304.5 311 307.8 303.6 300 307.1 311.9 307.9 300.7 293.4 282.4 270.7 261.5 256.1 252.3 250.2 249.1 248.1 249.1 249.3 248.7 245.6 243.3 240.5 238.3 236.1 233.8 232.5 230.4 229 229.3 230.3 231.3 229.5
351.1 363.9 362.7 354.3 342.3 344 357.3 359.6 357.9 351.4 348.2 352.3 362.7 372 373.1 380.2 392.6 408 424.1 437.6 445 448.7 453.6 454.5 453.5 453.5 457.6 461.8 463.7 464.9 466.6 469.3 473.3 480.1 483.4 489.9 495.8 499.2 503.2 503.7 502.3 499.9 496.4 493 490.5 485.4 480.1 472.9 469 464.6 461 458.2 450 442 447.7 452.7 453.8 451.8 447.5 436.3 413.5 388.2 373.5 366.3 368.6 368.2 361.3 356 363.4 359.3 361.9 343.3 315.1 293.3 292.4 300.6 305.2 307.7 309.8 312.6 309.3 295.2 286.6 299.4 326.7 317.9 331.4 318.4 334.9 362.1 377.2 382.2 382.1 373.4 362.6 351.6 340.8 333.8 329.5 319.4 311.5 279.4 250.5 250 277.9 289.1 282.2 291.1 286.7 278.3 260.9 237.7 216 196.8 188.5 183.4 178.4 179 178.1 177.8 178.4 180.1 182.5 182.1 179.8 179.7 178.1 179.9 180.4 183.8 189.9 194 188.9 189 197.3 206.9 215.8 225.4 238 255.6 272.9 295.4 309 317.6 341.7 364.6 378.4 384.8 383.7 383.8 380.5 388.7 381.8 373.5 364.3 350.8 341.4 329.7 322.8 318.7 316.3 316.4 316.3 314.3 307.1 304.2 304.3 304.6 298.8 294.7 291.9 300 306 300.1 293.8 284.5 272.5 261.9 256.2 252 248.9 246.8 245.1 243.9 243.3 244.9 245.4 244.5 242 240 236.8 233.7 231.5 229.2 227.2 225.2 225.4 225.3 226.5 227.1
348.1 352.6 349.1 338.1 330.9 332.9 337 335.3 332.5 333.5 338.3 342.1 349.9 356.5 365.8 378 392.1 408.8 426.6 440.6 448.9 449.3 449.5 447.6 444.3 451 457.4 461.7 464.5 466.2 468.1 471.2 476.9 484 487.9 493.3 498.6 503.7 506.1 506.5 504.1 501.4 497.4 494.5 491.7 486 480.2 474.8 469 464.3 460.6 456.8 443.9 455.3 458.9 461.8 461.5 459.2 455.5 448.6 426 417.6 407.8 402.1 403.1 402.3 396.4 390.9 398.7 395.3 393.3 360.9 329.8 307.3 289.8 279 277.2 280.3 282.5 285.1 285.9 272.4 286.7 309 325.5 298.8 310.3 306.5 333.8 361.8 382.6 385.7 381.8 371.8 360.7 347.7 336.6 327.8 315.1 309.6 300.5 276.3 248.4 243.9 269.8 269.4 280.3 287.1 281.1 272.3 252 229.2 208.9 192.3 185.5 180.9 178 177.6 178.4 177.8 178.4 181 184.1 185 185.4 180.1 179.1 179.8 180.9 184.1 190.8 192.3 188.3 193.8 204.9 214.8 223.7 233.9 247.8 266.3 287.6 307 330.6 337.4 357.1 376.6 387.3 382.9 368.9 360.7 360 371.1 363.8 353.4 344 340.5 333.4 323.8 317.6 314.1 312.6 311.5 311.8 313.5 306 300 299.3 296.1 292.5 287.1 287.5 297.4 298.4 293.1 284.5 272.3 262 255.8 251.8 248.3 245.9 243.8 242 241 239.5 239.7 240.6 241.6 240.8 238.4 234.7 231.4 228.5 226.2 224.1 223 221.7 221 221.1 221.7
332.4 332.9 331.9 324.5 321.8 322.3 324.4 327.3 332 336 339.7 343.1 346 356.6 368.1 378.8 392.7 407.3 428.3 443 449.5 445.9 441.7 433.5 436 447.5 454.5 459.8 462.6 465 467.8 471.9 478.5 485.3 489.8 495.5 500.6 505.9 507.9 506.1 503.5 501.1 497.7 494.9 491.4 485.3 479.3 473.3 466.3 463 459.6 454.1 454.3 461.4 464.5 466.9 467 464.6 461.1 456.2 452.2 447.8 441.2 436.1 435.1 433.3 430.1 427.6 431.7 429.4 406.4 378.1 348 321.8 303.4 291.1 283.2 269.8 264.4 264.6 264 261.2 280.9 301.5 310.7 282.8 284 309.2 339.5 368.6 385.2 386.2 378.4 368.1 355 341.8 331.6 318.8 307.9 286.9 272 262.7 248.1 235.3 241.3 250.1 248.6 252.5 261.5 257.2 240.2 226.4 201.2 186.4 181.4 179.3 179 178.9 178.3 177.9 179.9 182.8 186 187.3 186.3 180.4 178.7 178.8 180.6 184.1 189.3 190.4 191.5 197.3 206.7 218.8 232.6 247.2 258.6 272.7 295 321.3 346.7 363.6 375.6 385.2 384.5 372.3 353.9 341.9 341.9 349.1 342.7 332.4 331.9 329.5 326.4 319.7 315 310.1 309.4 306.8 307.6 313.9 308 299.2 288.3 287.8 285.9 281.1 279.3 294.4 289.1 280 269.2 260.6 255.3 250.6 247.9 245.5 243.4 241.6 240 238.3 237.3 236.4 236.6 237.4 237 236.1 233.8 230.4 226.7 223.9 222.2 220.9 219 217.9 217.1 217.5
309.6 312.7 314 313.9 317.6 321 326 333 339.6 348 354.2 351.8 349.4 359.6 372.4 384.3 397.6 414.8 430.9 441.6 444.6 438.9 431.1 421.5 424.6 435.5 442.6 452.6 456 458.5 464.5 471 479.2 485.2 491.1 497.5 501.7 505.4 506.5 504.5 502.2 499.4 496.6 494.1 490.2 483.9 478.7 473.2 468.3 464.2 456.6 455.5 458.6 464.7 468.4 471 472 470.7 465.9 463.9 461.1 458.4 455.9 454.1 452.6 451.1 448.2 446.9 444.7 440.4 421.8 396.4 369.8 347.7 328.8 319.6 311.8 301.8 285 275.5 262.3 252.7 265.7 289.5 281.3 266.7 288.9 317.9 347.8 376.5 386.3 382.1 374.6 363.3 346.4 334.1 328.5 324 323.5 311.6 294.3 277.5 253.3 239 229.7 223.5 221.2 222.2 228 229.7 222.8 210.5 190.8 180.7 179.8 179.3 178.7 179 178.7 179.1 181.1 185.3 187.9 189.3 187.5 179.8 179.4 180.1 181.2 183.5 187 190.3 193.8 200.2 209.9 223.1 237.9 257 278.6 294.3 302.1 324.3 354.2 377.5 384.2 380.3 373.1 361.8 338.6 322.5 326 327.4 318.9 319.4 317.5 317 316.9 314.3 311.9 307.9 305 302.6 301.8 302.9 305.9 297.8 285.4 281.3 280 274.1 269 274.6 271.5 265.6 258.6 254.8 250.3 247.7 245.5 243.6 241.6 240.3 238.6 237 236.2 235.4 233.3 234 232 231.7 232.1 231.4 228.7 224.3 221 219.3 217.8 216.7 215.5 214.6
307.8 308.5 310.1 314.6 319.4 325.3 332.6 343.7 356.3 362.5 364.9 363 355.5 355.5 368.5 384.6 403.1 417.2 423.6 429.6 432.1 425 411.6 418.7 424.8 430.8 440 444.5 452.1 457.3 465.8 475 481 487.5 494 498.9 502.4 503.7 504.2 502 499.4 496.6 494.4 491.8 488.4 482.5 477.7 472.8 468.3 461.6 461 458.7 463.5 467.6 470.7 474 475.2 473.9 470.9 469.3 467 462.8 459.6 458.3 457 454.8 452.4 449.2 444.4 437.1 427.1 410.4 392 371.4 350 331.7 318.3 309.1 297.3 290.9 272.5 258.1 250.6 277.1 260.5 276.1 302.6 330.1 358.4 383 386.4 380.4 368.9 350.3 335.2 328.3 324.6 320.8 320.8 313.1 303.4 285.8 255 248.8 245.1 236.6 233 219.1 210.4 206.9 207.5 200 184.9 180.9 179.6 179 179.5 179.2 180.1 182.5 179.5 184.8 189.2 189.3 187.4 181.2 179.6 180.7 182 184.9 189.9 192.7 196.5 202.6 212.6 227 242.9 264.9 291.7 316 330.6 339.1 364.2 378.1 379.3 371.3 354.1 338.9 323 310 308.8 303.8 303.7 308.7 309.8 309.8 310.4 312.5 312.5 309.8 305.6 301.4 300.3 293.9 291 286 279.1 275.5 272.2 264.9 262.9 260.2 257.9 255.7 255.6 252.3 248.9 245.9 244 242.1 240.3 238.7 237.3 235.8 234.4 233.2 231.6 230.1 229.4 228.2 228 228.8 229.2 225.1 220.8 218.6 217 215.6 214.7 213.9
303.8 307.5 310.6 316.8 323.1 330.7 347.8 362.1 368.8 372.3 373.1 369.9 363.1 363.1 362.3 379.1 396.7 406.4 409.7 412 409.6 402.1 411.1 420.7 432.8 441.5 447.8 456.6 464.4 466.9 470.8 474.9 483.1 490.1 496.1 501.1 503.3 503.7 502.7 500 496.8 493.1 490.2 489.2 485.5 480.8 476.6 472.8 468.5 466.1 465.2 463.9 465.6 470 473.6 476.1 477.3 476.4 475 473.1 469.7 464.6 461.9 459.6 457.5 456.3 453.7 448.3 439.9 427.9 411.2 391.9 368.9 347.6 325.2 304.7 289.7 275.9 265.5 255.6 251.4 250 244.4 262.8 251.4 278.3 308.8 341.3 369.1 384.3 384.6 371.8 353.6 334.8 327.7 322.2 314.5 303 298.9 293.1 278.9 266.4 271.3 280.5 276.3 267 259.1 246.9 230.5 204.7 199.6 193.7 185.2 182.7 180.8 179.6 180.5 182.1 184.2 186.6 186.6 181 182.9 183.8 180.7 180.4 182.5 181.7 184.1 190.9 193.4 193.8 198.6 204.7 213.9 229.4 248 273.5 295.9 321.8 343.3 356.5 365.8 364 363.1 357.3 341.8 318.1 306.5 297.9 291.7 289.4 294.2 298.9 305 305.8 309.8 316.1 319.1 315 309.3 303.4 299.5 294.7 286.2 278.6 275.2 272.3 269.5 272.5 271.6 271.5 271.3 266.8 261 255.6 250.8 246.4 243.1 241.2 239.5 237.9 236.3 235.2 233.9 232 230.4 229.1 228 227.1 226 225.1 225.1 223.6 220.8 218.5 217 215.9 214.8 213.2
309.1 313.5 319.2 323.8 330.5 338.9 357.3 373 380.2 383.1 383 377.9 372.1 372.6 371.9 370.2 379.6 387.2 389.3 390.4 398.4 407.2 419.5 433.3 440.1 449.2 454.9 463.7 472.6 476.6 480 483.5 486.7 494.6 498.7 503.1 503.8 503.5 501.7 498.7 493.2 488.1 485.2 484.3 481.5 478.4 475.3 472.7 469.5 469.4 468.9 467.4 468.6 471.4 475.4 478.2 479.4 478.6 476.3 473.4 469.2 464.8 461.5 458.2 455.9 454.5 448.2 440.3 428.6 411.7 390.8 366.6 345.9 322.1 300.5 282 266.6 269.4 269.4 269 263.9 254.1 243.9 247.1 249.2 277.5 306.9 335.5 362.1 376.9 364.1 346.3 328.7 322.9 321.4 319.9 318.7 319.6 308.4 293.6 296.1 296 298.9 299.3 298.2 286.5 265.9 251.3 226.7 205.9 195.9 190.6 186.3 184.1 182.4 182.2 183.4 185.5 189.2 190.1 189.1 186.8 185.1 180.3 180.2 181.4 184.3 182.7 187.2 196.4 199.2 196 199.2 207.5 218.3 231.6 248.7 271.8 298.1 322.6 344.8 362.1 359.8 347.6 345.5 338.9 322.9 308.3 294.1 284.9 280.3 285.1 297.7 308.6 305.2 305.2 312.6 321.7 325 319.6 312.2 303 295.5 289.1 283.1 276.7 279.3 280.3 280.7 279.6 279.9 283.6 280.3 273.9 266.8 261 254 248.6 244.8 241.3 238.7 237 235.6 234.4 233.3 232 230.4 229 227.6 226.1 224.8 223.3 222.2 222 220.6 218.8 217 215 213 212.7
325.5 329.3 330.6 333 338 346.7 361.4 380 391.2 395.8 393.5 387.9 382.1 377.7 382.7 381.5 385 387.2 392.3 398.1 407.3 419.1 434 447.5 453 456.8 463.6 470.5 480.3 486.9 491.4 493 494.7 499.3 501.9 503.5 503.3 501.4 498.7 494.4 489.2 484 480.3 479.8 478.7 477.2 474.7 472.8 471.7 472.5 472 472.5 474.2 475.8 478.3 481.4 481.9 479.7 476.2 471.5 467.1 463.1 459.1 454.6 451.9 448.6 440.5 427.8 410.7 389.7 368.3 347.1 323.2 300.9 281.1 278.5 289.5 292.9 293.1 289.9 284.1 268.5 254.5 243.5 240.4 262.3 286.7 314.6 338.7 344.1 334.6 318.4 302.2 308.2 310.5 325.1 323.9 321.3 319.2 308.1 300.8 299 305.2 297.3 289.2 280.9 261.8 243.5 220.3 201.9 195.3 189.2 186.9 185.2 184.2 185.2 186.1 187.3 187 191.3 190.7 187.8 184 180.3 181.2 184.6 182.6 184.8 191.7 201.3 200.5 198.4 199 209.7 219.3 232.5 250.6 273.8 296.5 315.9 337.3 352.5 352 336.6 331.7 327.5 314.4 303.2 281.5 274.4 273.5 288.8 303.1 316.8 307.2 303.2 314 326.8 331.6 322.7 311.7 301.3 292.8 286.9 282.8 284.3 285.3 287 287.4 287.1 290.3 292.6 287.3 281.3 273.7 265.4 257 252.4 248.9 244.7 241.8 238.4 235.5 233.7 232.2 231.2 230.4 228.8 227.1 225.7 224.5 223 221.4 219.8 218.5 217.1 215.6 215.4 214.7 215.2
332 329.9 331.2 334.4 341.5 349.6 361.1 379.6 396.7 403.5 398.7 394.8 390.4 387.9 389.2 392.1 404.6 407.3 412.4 418.4 424.8 438.7 450.1 456.1 460.9 464.2 471.7 483 487.9 494.6 497.8 500.2 500.5 502.4 503.3 501.9 500.8 497.6 494.8 489.9 484.4 480.4 477 478.8 478.5 477.6 475.8 474.9 474.6 474.9 474.5 476.4 478.8 479.9 481.9 483.3 482.6 478.8 474.2 468.2 463.2 459.1 454.4 449.3 443.6 438.2 427.3 409.9 388.4 367.2 347.2 323.9 303.2 295.6 289.7 302.5 314.5 316.8 316.5 312.7 300.7 285.1 263.1 247.7 239 239 266.5 292.5 306.9 310.6 303.6 291.9 277 292.7 305.6 326 325.5 322.9 320 317.4 312.2 296.2 284.5 286.8 283.9 274 255.2 231.4 209.2 197.1 192.2 188.2 186.2 184.5 185.7 186.1 184.5 187.9 187.9 189.4 194.4 186.9 180.8 180.7 182.1 183 183 186.7 193.4 198.9 197.9 198.2 199.2 206.8 216.8 231 245.7 261.9 279.7 299.4 324.8 346.8 345.6 327.3 318.7 318.9 307.2 285.6 270.5 266.1 273.1 291.3 305.5 318.1 306.1 300.2 312.3 325.8 329.9 319.7 307.4 297.7 289.8 287.9 289.6 291.3 292.8 295.2 295.6 297.8 300.8 300.5 295.6 289.6 280.7 268.5 260.9 256.3 252.9 247.8 244.3 240.9 237 234.1 231.6 230.7 229.1 227.8 226.2 225.6 224.2 222.6 220.6 219.3 217.7 217.9 219.4 218.8 216.7 217.1
326.6 326.2 327 331.2 339.1 349 359.4 375.8 392.4 401.4 402.3 401.1 397.7 396.8 396.7 404.1 407.9 419.8 428.8 439.4 446 451.9 458.9 464 467.4 470.6 478.7 492.1 496.5 502.4 505.8 507.5 506.8 506.5 505 502.5 498.7 494.1 489.6 484.4 478.7 476.4 474.5 477.4 478 478 477.8 477.1 477.2 477.3 478.6 480.8 482.7 483.8 484.7 483.5 480.2 476.2 470.9 464.5 459 453.5 447.4 440.8 431.7 420.3 406.9 389.3 366.7 342.1 324.9 303.3 293.3 300.3 312.3 326.8 338.3 338.4 334.2 326.2 308.8 285.4 260.8 260.5 253.4 233.4 241.6 263.1 274.6 279 275.5 263.6 259.6 270.2 297.1 320.4 325.2 324.7 323.7 322 320.4 313.8 285.9 270.3 272.1 274.1 248.7 222.5 201.3 191.8 189.7 187.2 185.2 184.2 185.7 186.3 185.4 186.5 187.9 189 194 191.1 185.3 180.9 183.3 183.6 184.2 186.5 190.2 191.4 190.6 195.3 199.6 202 212.4 222.7 234.8 249 271.7 299.4 324 346.6 341.3 316.1 297.1 301.3 294.1 273 260.3 261.2 270.8 286.7 306.2 313.4 302 293.7 305.8 322.8 324.7 310.6 302.1 294.7 294.9 295.1 296.2 298.6 301.3 305.2 311.7 315.2 314.2 310.7 304.9 298.4 286.4 274.5 266.5 261.6 257.6 252.5 248.2 243.8 239.6 236 233.1 231.4 229 226.9 225.7 224.6 223 222.1 221.3 220.9 220 219 220.3 223 221.1 219.2
320.7 321 322.1 326.9 335.4 346.3 357.5 370 386 396.9 402.6 405.7 404.7 405.3 407.7 409.2 418.5 422.9 431.2 444.1 452.1 458.6 464.6 469.4 473.3 477.2 486.5 498.7 503.8 508.3 510.6 512.5 510.8 508.3 505.6 502.4 498.4 490.1 484.3 479.6 476.2 472.1 474.7 476.9 477.1 478.5 478.6 479 479.6 480.8 483 485.1 486.1 486.5 486.2 482.2 477.8 472.7 466.6 460.1 453.4 446.4 439.7 431.1 416.4 394.3 382.3 366 345.6 325 307.4 299.5 310 325.9 339.7 349.6 352.6 348.4 339.7 316.4 287.8 274 280.1 284.2 269.6 246.7 230.5 236.3 245.4 252 252.6 245.3 265.6 281.3 300 313.4 324 326 327 327.3 322 315.1 284.4 266.8 267.3 260.5 237.8 213.7 194.8 189.3 188.2 186.7 185.5 185 184.4 185.5 187.1 187 185 184.4 188.6 188.9 182.6 181.3 183.7 184.4 184.1 185.9 187.5 189 190.4 191.3 198.3 202.8 207 218.3 229.8 245 265 286.3 312.2 338.2 329.5 305.9 285.3 280.9 277.2 258.5 253.1 257.7 267.2 285.8 302.4 306.9 294.2 287.4 295.8 307.8 308.1 305.9 303.7 302 300.7 303.1 308 309.3 313 324.1 333.3 338.8 337.5 332.6 323.8 310.7 298.4 285.8 276.1 268.4 263.7 258.4 254.3 249.7 243.7 239.7 235.9 233.8 230.4 228.5 226.8 225.6 225.6 224.5 223.7 223.2 222.5 222.2 222.5 222.8 225.5 223
314.9 315.8 318.6 325.7 336.3 348.2 359.7 370.5 383.8 391.8 398.8 404.7 410.5 414.2 418.7 418.4 425.3 432 437 448 455.9 462.7 469.2 474.4 478.1 482.4 492.3 502.5 508.4 512.8 514.6 514.4 510.9 508.5 505.8 501.1 495.7 489.3 482.2 476.3 472.3 468.8 474.4 475.2 476 477.6 479.6 481.1 482.3 483.9 485.9 487.2 488.7 487.6 484.3 479.5 473.7 468 461.6 455.2 447.3 437.4 426.4 414.6 397.1 374.1 353.2 339.1 323.7 308.1 307.1 318.7 336 353.5 364.7 367.8 363.9 353.2 333 306.4 292.5 309.1 310.5 305.5 287.4 260.4 240.3 229 224.8 230.8 233.6 242.4 258 267.4 276.1 285.7 297.5 315.1 326.1 328.3 321.2 302.9 276.9 263.2 265.3 247.2 227.5 207 191.6 189.1 187.9 186.9 186.4 185.9 184.9 185.6 183.3 185.7 186.8 183.1 182.5 183 180.3 181.7 185.5 189.8 192 187 187.3 188.6 190.5 193.5 195.3 200.5 204.8 211.8 223.1 236.5 253.1 276.7 302.1 315.3 314.6 290.7 272.6 263.4 259.7 247.5 247.1 254.6 262.5 277.9 292.4 299.9 284 285.4 293.5 298.8 304.2 309.3 310.9 312.2 309.9 314.5 320.4 323.9 330.9 343.5 352.7 357.8 358.5 351.5 343.4 332.4 321.1 309 296.9 284.6 275.3 270.6 265.5 258.6 250.3 244.1 240.6 237.7 235.8 232.8 231.4 230.4 229.5 228.8 227.4 226 225.2 224.7 224.3 224 225.5 225.8
309.6 311 315.5 324.4 336.7 351 358.6 366.4 374.7 382.3 391.7 402.1 412.1 421 427.1 427.7 431.7 438.3 438.9 451.9 459.4 466.1 471.7 477.1 481.5 486.2 498.5 505.7 509.2 514.3 516.5 513.1 509.7 506.8 504.1 498.9 493.5 488 483.1 478.2 472.8 466 471.8 470.9 473.2 476.9 479.9 482.7 484.7 485.4 487.5 489.4 489.1 486.3 482.5 477.3 471.2 465.4 458.1 447.9 440.9 429.7 410.3 393.8 374.2 354.8 356.1 326.4 311.1 317.8 332.8 346.8 363 380.9 385.1 380.7 371.6 354.6 333.3 316.2 320.2 329.9 337 324.4 299.4 278.7 257.1 244.2 229.4 222.8 221.8 225.6 229.1 236.5 244.7 254.7 270.6 287.7 302.8 313 312.7 292.3 268.9 260 250.6 237.5 218.6 200 190.7 189.8 188.1 187.9 187.4 185.7 184.5 185.6 185.4 183.7 188 186.9 182 181.5 181.4 183 187.6 197.2 195.3 192.4 191.9 189.7 191 193 196 197.6 202.4 207.7 215.5 227.4 244.9 264 278.7 288.9 294.9 277 260.4 252.1 245.5 242 243.7 250.5 255.7 265.1 276.9 286.4 280.9 287.5 296.6 303.4 309.9 316.4 320.8 324.1 323 328.5 338.2 346 352.5 361.1 370.5 377.9 377.3 370.3 360.5 351.6 342.9 333.7 322.3 302.5 298.1 293.5 288.1 277.1 266.3 257.7 249.7 246.8 243.7 240.1 237.9 235.7 234.2 233.4 232 230.2 229.1 228.6 228 227.1 226.7 227
303.1 307.5 312.4 324.1 337.4 350.3 349.7 355 363.8 374.3 386.7 401.4 413.5 426 434.4 438.4 441.1 445.5 450.9 456.7 463 469.2 473.9 478.7 483.3 490.1 501.6 505.6 508.9 512.1 513.2 511 507.6 504.7 501.2 496.1 490.6 485.9 481.1 476.7 471.5 463.5 468.9 466.9 471.9 476.5 479.9 483.1 486.2 487.6 489.9 490.2 488.2 484.4 480.2 475.4 470 463.9 458.1 449.9 438 429.6 410.6 400.8 395.2 387.6 354.4 326.2 333.8 342.8 360.4 375.1 389.2 402.1 395 385.9 373.1 369 361.4 342.4 347.9 350 353.3 342.5 317.3 291.2 276.9 268.3 253 236.2 228.1 218.7 216.4 215.4 216.7 228.3 241.3 256.2 272 284.5 281.6 271.3 257.6 252 239.1 226 203.7 193.1 192.1 189.7 189.3 188.2 187.4 186.3 185.1 184.7 185.9 184.6 183.3 182.7 182 183 184.4 189 194.3 199.5 194.5 192.4 192.4 192.4 192.4 193.3 195.1 196.5 201.4 205.3 204.9 217.5 233.4 246.9 256.8 263.2 272.9 264.6 250.5 243.6 239.2 238.3 243.7 254.4 256.8 261.2 266.2 274.5 282.3 291 298.3 307.5 317 326 337.3 342.6 342.5 352.4 359.2 365 370.4 377.1 385.8 394.7 399.2 390.9 377.4 367.7 358.2 346.1 330.3 312.2 316.5 312.5 307.6 297.3 287.2 275.6 267.9 262.6 255.5 252.3 250.1 246 243 239.6 236.8 234.8 233.4 232.5 231.5 230.6 230.4 230.2
296.9 304.5 310.3 322.4 333.5 334.9 339.7 352 364.4 373.6 386.2 402.7 418.1 430.7 440.3 446.8 451.6 449.5 457 463 467.3 471.4 475.1 480.3 486.3 495 501.2 504.5 507.3 508.8 508.7 507 504 501.7 497 492.3 486.8 482.3 478.2 474.1 469.7 458.1 463.9 460.2 469.5 474.7 478.1 483.2 486.7 489.7 490.8 489.5 486.6 482.7 478.5 473.3 468.4 464 457.8 451.1 445.2 437.9 428.4 420.5 410.8 385.3 350.8 351.8 362.7 372.8 387 399.8 406.3 407.1 398.2 389.7 384.9 384.1 375.4 367.3 369.8 364.3 363.3 354.5 326.7 309.9 301.8 287.1 264.3 266.4 263 253.2 244.2 233.6 220.6 212.1 213.5 228.2 241.2 252 254.4 250.5 245 239.6 231.5 211.8 196.2 193.1 191.6 191.6 189.5 189.2 188.6 187.1 186.2 185.5 185.9 184.5 183.3 182.5 181.9 183.3 187.6 193.2 199.1 197.9 194.6 192.2 192.4 192.4 193.7 195.9 198.5 202.2 209.5 209 211.4 208.1 215.3 223.8 230.6 236.9 245.6 249.5 238.2 236.6 235.7 238.6 247.2 260.6 270.6 268.7 276.4 283.6 289.1 295.8 304.4 321 337.7 351.6 359.3 360.8 363.3 367.5 373.6 380.2 385.3 391 396.2 400.6 403.2 399 389.5 380.1 368.8 354.8 336.2 328.6 328.4 326.2 321.3 315.5 306.1 284.9 288.6 284.9 276.3 274.9 268.9 263.8 258.5 251.7 246.5 242.1 239 237.3 236.6 236 236.7 238.6
296.3 302.3 308.7 315.4 320.2 329.5 343.4 357 371.7 385.9 399 410.8 425 436.1 445.4 453.8 459.2 459.5 462.2 468.6 471.8 475.2 477.8 481.9 487.1 496.3 499.9 502.8 504 504.8 503.8 502.2 500.9 499.4 493.8 487.9 482.7 477.8 473.3 470 466.4 462.5 445.1 450.9 463.9 470.5 476.6 482.1 486.3 489.7 489.3 487.2 484.2 480.4 476.9 472.2 468.3 464.6 459 454 449.2 444.1 436.6 428.8 418 392.4 368.6 380.2 387.3 397.3 405 411.2 412.8 408.1 401.3 395.1 397.1 387.1 382.5 373.7 378.1 378.7 376 368.1 352.6 334.9 322.9 307 288 293.1 297.4 287.6 275.2 258.3 243 228.7 216.5 209.1 209.2 217.3 227 229.9 234.2 231.5 222.2 202 194.4 194.8 193 192 190.8 189.3 188.4 187.9 186.9 186.6 186 184.7 183.5 182.5 184 185.6 190.2 195.1 200 200.6 197.4 192.4 192.4 193.9 196.8 198.7 200.8 207.4 214.3 215.1 217.2 217.3 216 218.1 220.6 215.5 219.8 225.4 228.5 232 233.4 240.4 250.3 265.1 283 280.1 293.5 301.9 298.6 306 323.5 339.9 359.3 370.8 373.4 377.2 379 378.6 389.4 392.2 394.1 395.2 395.4 395 396.3 393 388.9 383.8 370.9 356.7 343.1 339.4 339.7 340.7 336.6 328 315.2 302.3 307.1 302.4 296.4 289.7 281.9 277.8 274.3 268.4 262.5 255.8 248.5 244.1 243.5 243.8 245.3 243.3
296.8 301.7 305.9 310.6 322.9 333.8 345 358.5 376.9 395 411.6 419.3 430.7 440.5 449.9 458.6 465.3 466.8 469.9 472.8 476.4 478.4 480.5 483.6 489.7 495.7 498.7 500.9 500 499.3 498.7 497.9 496.5 494.9 491.6 486.9 481.6 475.5 468 464.7 462.4 459.5 442.9 438.5 447 462 472.4 479.8 485.3 488.3 487.7 485 481.9 478.3 474.7 471.6 468.9 466.2 461.3 456.5 453.1 448.9 442.7 434.3 421.8 400.5 395.5 404.2 406.5 412.8 414.3 414.5 416.1 405.2 402 396.9 390 382.4 374.8 367.8 383.3 399.4 394 388.4 366.6 353.8 343.8 326.1 316 323.9 326.5 315.7 299.9 282.9 268.3 253.1 237.2 222 210 206.5 206.8 208.8 213.6 220.5 219.3 198.4 196.6 194.2 193.1 192.5 191.2 189.8 189.2 188.1 189 190.4 190.5 190 185 182.3 181.8 185.5 191.1 197.6 204.5 205.5 198.1 194 195.8 197.1 198.8 201 204.3 211.1 216.5 221.1 225.7 227.7 230.2 237.4 238.6 233.9 230.1 225.9 225.2 231.6 236.7 244.1 251.8 265.9 279.6 290.5 302.8 308.2 308.9 325.7 344.2 362.6 377.3 384.6 389.5 391.1 388 383.6 382.8 382.7 381.8 380.6 382.1 386 386.7 381.2 374.4 368.2 360.5 351.5 346.6 344.9 348.7 347.2 343.4 332.6 324.7 320.5 319.4 314.6 308.1 300.3 294.6 289.9 284.9 280.7 275.5 269.4 262.7 255.1 252.2 252.2 250.7 247.9
295.6 299.2 303.8 312.4 323.5 335.5 349.6 364.1 381.4 400.4 418.9 431.8 437.3 444.2 452.3 461.7 468.5 472.6 474.5 476.5 479.3 481.5 483.3 485.7 490.1 494.3 497.1 498.1 496.7 496.1 494.5 493.3 493.1 492.3 490.2 485.3 479.7 474.7 470.2 464.8 452.1 446 441.4 427.9 428.7 438.9 456.8 475.8 482.5 486.4 486 482.7 479.1 475.7 472.8 470.8 469.2 466.1 462.3 459 455.5 453.3 445.5 436.8 427.4 414.5 416.2 417.4 417.9 418 416.7 412.6 405.7 399.5 392.6 380.4 367.6 353.1 344.6 339.8 357.4 373.4 379.1 379.5 371.5 365.6 357.1 343.5 345.6 351.5 346.2 336.6 321.1 306.6 291.8 275.7 256 237.3 223.1 211.1 204.9 203.3 202.3 203.8 200.5 197.7 197 194.8 194 193 191.3 190.6 190.3 190.3 190.4 190.8 190.8 188.8 186 184.6 182.4 186 194.7 202.8 205.9 206 198.5 196.6 197.3 199.2 205.5 209.2 207.8 215.5 220.5 225.8 234.1 242.4 249 254.1 254.4 250.5 242.3 234.1 232 235.2 239.4 246.7 254.9 266.5 280.2 296.2 309.6 316.4 327.8 346 366.6 383.1 393.2 402.1 405.6 400.7 391.2 382 373.8 372.4 369.3 367 372 377.3 374.4 368.1 360.3 355.8 352.6 350.5 349 347.8 349.3 347.4 343.2 338.9 333.7 330.6 327.9 322.7 317 309.7 305.3 298.9 292.8 289.6 287.3 284.8 278.1 274 265.3 260.6 257.1 252.3
293.3 296 302 311.1 324.1 339.1 355.6 370.1 388.7 410.7 426.1 436.2 441.5 446.6 453.3 463.9 469.9 475.4 478.3 480.2 482.6 484.2 485.9 487.3 489.9 492.2 494 495.1 493.7 492.1 489.9 488.3 488.4 488.1 487.9 483.4 478.2 473.7 469.6 465.9 462.3 458 452.1 443 417.3 420.4 440.6 463.7 480.1 483.9 482.8 478.9 475.3 471.9 469.2 468.8 467.5 465.2 461.8 458.3 456.5 456.4 448.4 440.2 433.6 429.1 426.1 425.1 421.4 420.1 414.1 405.3 396.8 383.4 370.2 354.7 338.4 323.2 309.4 307.7 324.9 335.9 343.7 353.3 365.6 370 364.2 360.6 365.9 365.5 356.5 346.5 335.8 321.8 306.8 290.6 268.2 248 235.5 225.1 216.4 208.9 202.6 200.3 199 197.9 196.8 195.8 193.9 193.2 192 190.9 190.3 190.4 191.5 191.1 190.8 188.1 183.7 181.9 183.3 187.9 199.6 204.3 205.1 203.8 197.7 196.7 198.8 204.1 209 211.3 213.9 217.8 223.4 231.1 239.8 253 264.4 269.4 268.5 262.4 251 239 237.5 239.9 243.4 250.4 261.1 272.9 282.1 299.5 312.7 325.4 347.5 367.5 386.4 398.7 407.6 415 416.1 406.4 392.7 384.5 378.3 367.7 355.4 354.7 364.3 369.3 371.4 361.7 351.2 341.3 339.9 346.6 350.5 349.8 347 345.7 341.7 339.9 339 337.1 329.9 327.3 320.4 318.2 316.2 307.2 298.9 296.7 296.9 295.4 292.5 293.4 285.6 276.9 271.2 264.6
291 295 300.5 308.3 322.4 340.4 359.5 377.7 401.5 418.1 426.4 433.3 441.4 448.6 457.7 467.4 474.1 478.5 481.6 483.8 484.9 485.5 486.3 487.7 488.8 490.4 491.2 492.6 490.8 488.5 485.7 483.9 484.3 484.8 483.6 480.2 475.6 472.3 468.5 465.1 462.1 459.2 455.4 450.2 426.4 409.8 426.3 450.7 477.3 480.5 478.4 474.2 470.2 466.4 462.8 464.2 463.3 459.4 456.6 453.2 452.4 451.8 449.9 445.1 439.8 436.2 434.2 429.4 423.1 416.5 409.3 397.7 380.3 364.5 347.1 329 311.9 299.2 301.9 291 293 301.9 313 323.9 337.2 352.7 365.3 371.8 371.7 370.5 362.6 348 338.8 326.3 306.2 285.6 264.3 245.5 234.2 227.3 222.3 215.9 210.1 206.9 202.9 198.8 196.8 195.7 194.5 193.2 193.1 191.3 190.9 189.1 189 189.9 190.7 190.3 184.3 182.8 184.1 192.6 202.1 203.2 202.4 199.4 197.6 199.2 203.7 206.5 209.2 212.5 216.7 220.2 228.4 239.1 250.3 265.7 277.6 282 278.6 269.5 254.2 245.7 245.9 244.3 249.2 257.5 269.5 280.1 290.7 306.6 317.6 339.6 362.8 383.6 399.5 411.3 419.1 423.3 419.5 405.6 398.3 391.6 380.9 367.4 358.6 345.5 351.3 354.8 358.5 358.4 349.9 343 332.6 333 353.4 352.2 350.2 346.8 341.5 319.8 325.7 332.4 327 320.9 317.3 317.7 314.5 309.4 301.5 301.4 303.1 302.1 300.1 301.2 301.8 298.6 291.8 281.7
289.5 294.2 299.2 306.5 320.9 340.4 361.1 384.3 404.1 413.3 417.6 425.4 433.5 443.2 455.3 468.4 476.2 481.3 484.8 486.4 487.1 486 486 487.4 487.9 488.3 488.7 489.6 488.2 486.3 482.1 475.8 478.8 479.6 478.2 475.1 472.3 468.8 465.8 462.8 460.5 458.3 455.1 449.9 427.7 404.8 412.3 437.8 467.9 476.8 474.1 468.6 461.8 456.4 446.3 456 455.5 444.7 434.8 433.9 442.6 450.3 454.5 447 443.4 441.2 436.6 430.1 420.7 412.2 400.5 385.3 364.1 343.7 325.2 308.2 312.8 320.9 324.3 309.2 292.9 280.4 280.8 292.8 307.5 327.4 350.7 346.4 348.6 351.3 348.9 343 328.7 312.8 289.5 270 250.3 237.6 227.7 222.5 217.8 215.4 213.9 214.4 214.8 214.5 198.9 195.1 194.3 193.3 192.7 192.1 191.5 188.7 187.7 187.6 187.8 187.5 184.5 183.2 186.3 196.3 200.3 199.2 198.2 198.1 199 200.8 204 207.7 211.1 214.4 219.6 224.8 233.1 246.4 260.7 277.4 288.8 291.7 286.2 273.8 260.4 255.1 250.8 254.4 260.4 266.8 279.9 288.8 297.7 308.4 323.1 349.4 376.3 394.1 409.4 419.3 424.7 423.3 413.2 404.5 396.6 389.2 375.6 364.6 355.7 346.8 337.5 337.2 341.6 344.7 346.3 342.4 330.7 321.5 342 352.1 349.5 346.4 338.6 323.5 305.4 317 318.3 311.4 308.3 308.7 303.1 299.8 296.7 302.1 304.5 302.6 302.8 305.9 308 307.6 302.9 295.1
289 293.4 297.7 305.5 321.4 340.1 362.5 382.4 396.2 397.6 399.2 408.5 419.9 432.4 447.7 465.6 475.3 482.4 486.9 488.6 488.2 487 486.1 486 486.3 486.6 487 486.6 486.2 484.1 478 470.6 473.2 473.1 471.8 469.9 467.8 464.7 462.4 461.2 459.2 457.1 454.1 450 429.5 407.5 399.2 428.1 458 473.5 470.7 464.6 451.8 432.6 422.4 434.6 434.7 417.6 406.4 415.2 439.7 451.4 451.7 447.7 447.2 442 435.6 427.9 416.6 404.4 383.7 364.8 347.2 327.1 317.9 327.2 338.8 348.4 347.8 335.3 316 302.9 287.8 272.8 281.4 313.3 323.3 316.9 318.3 319 320.1 316.7 306.9 290.1 269.1 253.4 240.8 225.6 219.3 216.5 214.3 211.8 211.1 211 211.6 207 199.8 194.1 193 192.9 191.2 190.3 190 188.7 187.8 187.6 186.1 184.8 184.1 184.8 187.9 195.7 193.5 194.2 194 197.4 200.5 203.7 206.3 209.9 213.5 217.9 222.7 228.9 238.5 254 272.1 289.2 299.1 300.4 292.2 276.3 266.5 262.4 259.3 264.6 269 274.9 287.9 298.3 304.9 319.1 339.2 360.4 384.9 398.1 408.1 415.3 414.1 411.2 405.1 397.9 391 382.7 370.5 359.3 348.6 344.3 340 331.8 324.6 332.2 338.1 338.6 330.1 315.2 329.9 347.6 343.1 337.4 333.3 322.3 299.4 299.4 302.8 298 287.9 293.7 289.1 280.5 281.5 295.3 298.6 300 303.5 309.5 311.8 311.2 306.1 300.2
288 292 295.9 303.9 324.7 343.8 363.1 380.4 380.8 377.4 381.4 390.6 406.8 426.4 444.9 461.2 474 481.9 487 488.9 488.8 487.8 487 485.7 484.6 483.7 484.6 484.2 483.6 481 475.2 470.2 463 466.4 465.6 464.4 462.5 459.6 456 455.9 456.1 454 452 448.5 425.3 401.5 393.8 425.4 457.4 470.2 467.5 461.5 446.1 418.5 401.7 411.1 414.2 394.6 388.9 415.9 435.1 445.4 448.6 446.5 444.6 440.5 431.5 421.2 408.7 385.9 364.6 344.5 328 330.4 342.5 355.6 367.5 377.4 376.2 362.7 345.5 329.7 308.1 283.4 266.7 294.8 292.2 285.3 285.8 285.9 286.9 284.1 281.4 268.1 255 242.5 226.2 225.5 220.9 221.7 219.1 212.7 208.1 208.4 210.3 207.2 198.1 193.3 192.9 192 190.9 189.7 189.6 188.3 188.5 187.7 185.8 185.4 184.9 184.4 186.6 190.1 192.6 194.1 195.3 199.8 202.2 204.4 207.9 212.7 215.4 219.1 226 233.3 243.1 263.6 283.6 299.8 308.3 308.8 299.1 280.5 271.5 272.4 272.6 275 278.3 285.4 294.9 305.6 316.4 338.4 358.1 376 388.7 396 400.1 401.1 400.6 400.9 398.5 393.7 387.6 381.4 371.1 362.7 358.8 353.5 346 338.4 329.5 320.7 322.7 326.7 325 309.7 325.3 333 329.4 328.5 325.2 319.2 302.8 288.6 285.2 283.2 273.6 276.2 280.3 274 267.8 279.2 282.8 296.2 301.5 306.5 309.5 308.6 304.3 302.1
287.6 292 295.8 303.5 323.8 343.7 361.5 366.3 363.4 363.7 367.6 384.5 405.2 423 439.4 455.1 469.3 479.4 485 487.4 487.9 487.7 486.3 485 483.8 481.5 481.7 481.4 479.7 476.8 472.5 468.3 462.4 455.1 457.6 458.2 456.7 454 450.1 447.4 448.4 448.8 448.3 444.5 418.2 396.5 385.7 415.8 447.9 466.2 464.1 459.2 443.3 414.6 387.5 388.1 389.8 374.4 386.6 402 424.1 439.6 444.7 444.3 442 437.3 426.9 414.4 392.7 369.8 347.5 347.5 350.9 358.2 370.6 385.8 396.9 402.1 398.4 387.3 364.3 332.4 305.7 284.1 266.2 262.5 263.9 258.3 257.6 257 257.2 253.8 253.5 248.2 236.1 225.8 241.7 241.1 237.2 233.3 226.8 216.8 206.5 204.2 207 204.3 195.8 191.9 191.1 190.7 190.4 189.2 188.8 187.7 187.3 186.3 185.6 185.5 185.5 186.1 189.7 192.4 194.1 196.4 199.6 199.6 202.6 207.5 211.3 215 219 223.5 230.3 239.5 250 271 293.1 308.1 315.8 315.9 307.6 292.6 284.1 286 281.9 281.3 286.6 293.1 300.7 312.7 335.6 356.2 374.1 386.2 391.6 391.8 391.2 391.9 393.5 394.2 394.7 390.3 383.7 379.2 376.4 372.6 367.1 360 351.8 343.7 333.4 324.5 313.3 310 312.5 304.4 322.2 321.1 316.9 318.5 317.9 314.8 303.1 293.6 280.9 270.2 266.2 260.8 265.1 272.4 262.6 263.5 277.3 291.1 294.4 297.1 300.4 300.5 301.6 304.6
286.2 291.3 296.8 302.7 321.6 340.3 348.5 350.3 348.7 349.3 363.5 379.1 394.4 413.4 425.8 446.6 463.5 476.1 482.5 485.2 485.9 486.6 485.2 484.3 483.1 481.1 477.9 476.9 475.4 472.1 469.1 466.3 459.7 454.9 447.6 451 450.8 447.8 441.2 436.1 430.5 433.7 435.8 435.7 411.1 388.7 377.6 408.3 442.9 465.3 463.3 456.6 445.3 416.9 387.9 367.9 365.2 354.9 366 382.2 407.7 431.6 443.6 443 437.7 432.1 423.9 409.9 388 372.3 375.2 374.9 377.6 387.4 397 411.4 420.1 419.2 411.9 396.6 365.7 335.3 308.4 284.1 283.2 275.6 273.5 271.4 266.6 262.4 255.9 254 248.9 246.4 244 245.3 252.8 254.7 245 239.5 231 218.4 205.4 202.4 202.5 199.7 194.9 192.9 190.9 189.5 189.2 189.1 187.9 187.2 185.6 185.3 185.4 185.1 186.2 188.6 191 193.1 195.4 197.9 199.9 202.1 204.8 208.9 212.9 216.7 220.4 226.7 234.1 243 255.6 280.3 300.5 313.6 320.4 320.3 313.7 304.4 299.1 297.3 291.4 293.6 302.3 306.6 311.3 329 350.4 369.3 388.3 397.1 394.1 387.8 383.5 383.5 386.3 386.6 385.5 383.4 379.5 378.1 378.3 381.3 377.6 370 358.2 347.8 339.6 330 315.8 307.8 300.1 299.5 315.9 315.7 309.5 308.8 309.7 307.4 301.4 295.3 285.7 279.1 273.3 268.7 256.8 255.9 257.3 254.2 266.8 279.5 283.5 286.6 289.6 293.1 296.9 301.1
288 292.8 297.1 302.5 318.6 329 333.7 332.4 338.9 349.7 356.1 368.4 383.1 397.4 414.9 437.9 459.3 472.6 478.6 482.9 484.7 485.4 484.5 483.9 483.2 481.2 477.3 473.2 469.5 466.6 463.4 461.1 456.5 451.6 448.4 439.5 444.6 440.2 431.8 411.8 404.7 408.5 411.8 416.3 401.7 378.1 376 408.5 443.5 466.4 462.4 454.6 445.3 426 399.1 375 356.4 344.3 345.8 363.4 386.5 417 439.9 443.2 436.7 429.5 422 411.6 401.5 392.2 394.5 394.7 401 412 422.6 431.1 433.3 428.1 418.2 401.5 367.8 336.5 309.2 306.9 311.2 303.7 307 304.4 299.3 294.2 287.8 286.2 282.6 276.3 256.3 247 265.9 259.7 246.8 239.9 229.7 216 204.1 200.8 198.8 196.3 195.6 193.3 190.7 189.3 188.3 188 187.1 186 185.5 184.9 184.6 186.8 191.4 192.7 191.9 193.7 195.9 197.2 200.2 203.8 207.3 210.3 214.3 218.2 222.4 228.3 235.9 245.2 266.6 288.5 305.8 316.5 321.6 320.7 315.6 310.2 304.8 302.8 303.4 306.5 313.7 316.1 326.3 344.5 362.2 380.6 401.8 406.3 398.2 387.5 380.5 378.4 378.6 378.6 377 376.9 375.1 375.8 378.6 382 383.4 378.6 369.4 355.7 342.7 332.5 324 316.2 301.3 296.2 317.1 316.6 308.7 302.6 298.2 298.3 300.9 297.2 289.2 283.7 276.8 273 264.7 253.9 241.6 240.5 258.7 268.7 271.4 275.2 280.5 286.5 291 293.5
288.4 293.4 298.3 303.9 311.6 318.2 323.7 330.9 344.4 359.6 373.1 375.3 378.7 391.1 409 431.6 452.9 467.4 475.3 480 483.5 484 483.8 482.9 482.6 480.9 477.6 473.9 470.3 463.2 453.7 450.8 449 447.2 443.9 438.4 432.7 430.1 423.6 411.5 386.4 382.2 383.2 391.3 385.6 363.9 378.7 412.5 446.5 465.3 460.4 453.1 445.9 435.4 417 400 376.1 348.2 329.6 344.5 368 396.5 428.9 438.3 435.4 428.3 421.3 414.6 408.4 408.5 408.6 411.1 419.8 431.3 441.7 444.7 441.6 433.6 422.6 406.9 375.1 342.3 317.3 330.6 340.3 334.7 340 338.7 333.1 326.5 319.3 317 312 284.3 260.3 243.6 246.4 251.2 241.8 234.5 224 211 201.9 199 197.7 197.1 194.8 192.8 191.8 190.6 188.4 187.3 186.6 185.8 185.8 185.2 185.8 190.5 193.6 193.5 194.1 193.9 195.4 197.8 200.8 204.3 207.8 211.9 215.8 219.7 223.8 231.3 239.8 253.6 274.7 292.8 307.8 315.4 318.5 316.5 311.6 306.3 303.4 305.9 311.2 316.2 321.7 326.7 343.2 357.3 375.7 393.8 406.9 401.2 395.9 387.1 378.4 373.9 373 370.9 369.5 369.1 369.1 372.1 377.3 383.5 391 384.1 376 365.5 353.4 340.8 331.6 315.7 292 301.9 321.8 320.7 308.6 302.5 298.8 294.3 291.3 293.7 291.8 286.6 282.4 277.8 272.2 263.8 250.2 231.5 257.7 262.8 264.4 265.3 268.3 278.6 285.7 286.7
288.4 293.3 297.7 303.1 308.9 316.9 327.9 341.7 353.9 367.1 386.3 394.1 395.1 396.3 408.3 427.6 449.5 464.2 472.8 477.9 481.4 483.4 483.7 482.4 480.9 479.6 477.9 474.8 470.4 465.1 458.8 453.5 446.2 436 433.7 429.3 420.2 415.5 406.2 391.4 391.8 385.5 369.3 364.8 367.8 355.7 380.6 415.4 447.6 463.2 457.3 450.4 444 437 427.1 413.8 386.7 357.4 331.2 330.6 354.5 386.4 414.4 434.3 430.9 424.9 419.1 416.5 414.2 416.5 416.7 423.1 435.8 446.2 453.1 452 447.8 437.9 424 405.3 378.2 356.4 342.5 356.4 368.2 365.6 370.8 371.6 364.9 354.1 342.7 336.2 327 293.2 268 248.3 238.9 239.9 234.5 228.5 220.4 214 213 198.4 196.9 195.9 194.2 192.6 190.1 188.8 188.6 188.5 186.6 185.3 185.6 186.2 187.2 189.9 191.7 193.3 193.1 195.8 197.9 199.4 201.6 205.1 208.2 211.4 216.7 221.3 226.9 232.7 241.7 258.4 277.3 293.4 305.6 311.4 312.3 309 303 298.8 299.9 306.3 313.6 321.3 331.5 344.2 356.7 370.2 384.3 392.5 397.2 394.9 389.8 383.1 375.7 368 365.4 364 362 361.7 363.3 367.8 373.7 381.9 388.9 382.5 376.4 370 358.4 346.5 327.8 304 287.6 303 326 327.5 315.5 301 294.5 294.4 287.4 276.8 281.6 283 281.3 279.3 273 266.5 245.7 230.7 253.2 259.7 253.6 250.8 255.2 269.6 279.3 281.5
288 292.4 296.7 301.8 307.6 316.8 330 347.5 361.4 378.1 395.6 407.4 411.6 414.4 422.3 432 448.9 462.4 470.6 475.6 480.1 482.4 483.4 482 480.7 479.2 476.7 473.5 470 465.9 461.7 456.8 450.5 442.5 439.4 436.7 431.6 425.3 422 419.9 418.1 409.4 391 366.1 350.3 352.1 378.8 410.9 442 457.8 454.1 447.8 441.6 435.1 427.4 415.5 389.2 360 331.7 318.8 342.4 371.2 401.9 420.1 418.5 414.9 410.2 404.5 399.1 399.3 415.3 432.1 446.5 455.3 458.7 457.7 450.2 436.4 424.9 410.3 393 376.1 368.1 382.8 393.4 389.3 384.4 375.2 366.1 355.5 345 332.7 318.9 296.9 270.3 250.6 238.3 234.4 233.5 236.1 232.2 225.2 210.2 196.6 195.6 194.4 192.8 191.1 189.8 187.9 186.7 185.1 186 188.3 187.9 186.8 187.9 190.1 191.8 192.9 195.7 198.2 199.4 200.8 202.9 205.3 207.5 210.2 217.1 222.1 228.1 233.7 244.1 258.7 275.9 289.9 300.3 305.1 304.4 299.3 294.5 295.2 300.1 308.7 321.1 334 344.8 356.8 371.4 382.2 386.1 387.9 388.8 385.7 380.7 376.5 371.1 365 360.6 357.3 355.3 354.1 355.9 360.3 367.2 375.1 377 374.1 370.9 367.2 357.4 345.1 322.1 298.1 283.9 306.5 329 333.2 325.6 305.6 296.6 285.5 281.5 274.4 262.4 267.7 276.8 278.8 273 261.7 237.4 229.2 246.2 253.2 251.1 245.1 251.7 261.5 270.2 275.9
286.3 290.8 295.8 301.3 305.5 316 330 346.6 360.3 380.2 397.4 408.4 417.1 424.8 435.2 446.9 456.3 464.8 470.1 474.9 479.3 481.3 482.7 482.4 481.4 479.8 477.3 474.4 471 467.7 463 456.8 453.4 450.2 449.7 449.5 448.3 446.6 444.1 440.1 435.1 426.2 405 372.5 350.2 343 367.1 399.9 431.3 450 448.1 443.5 437.8 434.5 425.8 412.1 386.3 357.4 330.2 309.3 331.3 357.9 388.2 399 404.7 400 389.6 381.3 374.9 385.4 415 439.8 456.8 461.1 459.1 453.8 440.1 427.5 417.9 414.5 405.2 390.5 389.9 400.9 400.7 395.6 385.3 372.5 363.9 349 336.9 323.7 313 285 263.2 241.6 233.6 233 236.3 243.3 239 225.8 203.5 194.2 194 192.8 191.9 189.8 189.3 186.9 185.7 185.5 186.4 186.4 187 187.5 191.1 193.2 195.1 197.4 199.5 201.8 203.3 204.7 206.3 208.6 211.5 213.2 215.6 219.6 226.2 234.1 244.4 259.8 271.8 283.2 292.7 297.3 294.9 289.2 288.5 294.2 304.5 317.2 331.3 345.8 358.6 371.5 383 389.5 386.9 381.9 378.7 373.9 368.3 366.9 364.4 360.1 357.8 354.7 348.7 346.4 348 353.3 357.6 364.1 366.5 366.1 364.6 359.6 351.7 341.6 325.1 295.7 282.1 309.2 330.2 334.4 329.6 319 298.9 288 274.2 263.4 253.3 249.5 258.3 263.3 265.3 259.6 240.3 219.9 235 247.4 249 245.6 244.1 251.2 259.8 266.7
286.5 290.4 295.6 301.3 306.8 315 330.1 344 357.1 374.2 386 393.6 410.8 430 442.5 452.9 459.5 466.6 471.4 475.6 478.6 481.6 483 482.5 481.4 479.1 476.6 473.4 470.2 466 463.5 461.3 459.2 455.7 456.1 456 455.4 454.6 451.1 446.7 441.2 434 408.7 379.8 358.8 340.6 355.3 386.7 415.4 434.8 437.4 435.1 433.4 432.2 422 408.3 383.5 354.8 327.5 303.8 322 344.6 364.2 377.5 384.8 380.1 363.7 356.5 358.4 389 420.1 449.1 463.7 462.6 452 436 417.5 401.6 403.2 413.1 409.2 401 403.5 403.2 399 392.5 378.8 360.7 346 333.6 317.1 299.3 293.8 273.3 253.2 233.7 228.1 233.7 238.8 239.2 235 221.5 199 192 191.1 191.1 189.8 188.6 187.2 185.7 184.7 186 185.9 186.3 186.9 188.3 193.6 194.1 194.7 198 200.6 203 205.3 207.7 209.7 211.9 213.9 216.2 218.4 221.3 225.6 235.4 246 256.6 264.2 275.3 282.7 286.6 286.3 281.8 285.4 296.7 309.2 323.8 340.3 354.8 369.2 382.4 383.5 378.2 376.6 373.2 368.3 361 354.3 354.4 354.5 354.7 354.6 352.8 347.7 340.6 341.4 345.4 349.6 351.8 354.7 355.8 355 351.7 344.9 335.6 322.8 296.9 278.1 294.5 316.3 324.5 323 317.5 309.4 288.2 270.6 261.2 256.7 248.4 239.2 241 245.3 254.7 241.3 225.3 222.9 231.4 238 235.4 228.3 246.9 252.2 253.8
286 290.6 296 301.3 307 314.8 324.5 335.4 347.6 363 378.5 392.9 414 432.4 447.4 456 462.1 467.3 471.5 475.1 477.9 480.8 482.7 482.4 479.3 476.4 475 472.4 469.4 468.4 466.1 464.2 462.1 461.1 459.9 460.4 459.5 457.3 453.7 449.1 444.4 438.1 411.5 385 365.3 340.6 343.1 370 392.9 410.5 423.5 426.9 427.4 422.2 414.9 404.6 385.2 356.6 327.8 300.9 312.5 331.7 345.1 360.3 363.8 356.8 341.7 341.7 368 397.9 427.6 453.1 460.2 453 436.7 415.2 393 376.4 389.2 408.1 407.8 407.3 410.8 407.8 399.8 383.6 365.9 345.8 326.9 306 291.3 275.6 267.5 255.6 241.8 223.4 219.5 238.2 236.6 232.6 223.7 208.2 193.8 189.6 188.6 188.7 188.1 187.3 186.4 185.2 185 185.3 185.8 186.3 187.3 187.9 189.6 193.2 197.4 198.7 202.7 205.4 207 209.5 212 214.7 216.9 220.8 225.3 228.4 231.7 235.3 245.7 254.4 259.6 266.6 272.5 276.1 277.3 276.3 282.4 294.7 312.1 330.4 347.3 362.2 374.7 379 364.1 356 357.3 361.4 356.4 346.2 333.4 337 341.8 344.3 348 347.6 343.2 338.1 334.2 339.8 342.3 343.9 343.8 344.9 342.3 340.9 333.8 326.9 316.3 302.6 282.9 280.2 302.8 308.9 311.3 309.5 306.1 298.5 284.2 274.5 267.9 255.2 242.8 233.7 228.3 234.6 233.6 225 215.5 219.1 222.9 220.1 229 247.2 250.9 243.4
285.7 290.3 295.7 301.1 306.4 314.1 328.5 343.7 355.3 369.4 383.1 403 422.8 436.9 449.4 458.6 463.8 467.4 471.7 474.3 475.6 478.3 479.4 479 476.9 473.7 471.9 471.3 470.8 469 467.2 465.9 464.4 463.4 462.3 461.7 460.2 458.2 454 450 445.7 440.8 410.9 385.6 366.3 342.5 330.8 348.5 367.7 389.2 407.5 420.3 419.9 414.1 407.4 398 383.5 361.9 333.6 305.1 298.7 315 324.8 338.2 341.8 332.5 328.7 353.6 380.5 409.7 436.3 450.1 449.3 436.3 416.5 395.5 374.3 355.5 374.3 390 403.3 407.6 409.6 404.6 393 374.6 357.1 326.4 303.6 282.5 269.5 257 247 236 219.8 205.4 215.1 241.6 232.9 218.2 207.5 198 188 187.5 187.3 186.3 186 185 184.6 184.3 184.3 185.4 186.1 187.5 189.4 189.7 190.7 196.4 200.8 202.2 205.5 208.9 211.6 212.9 215.4 218.5 221.8 225.3 227.7 236.1 242.1 241.3 240.3 249.6 257 259.2 262.6 265.9 268.6 272.6 281.5 296.2 315 335.5 352.1 366.4 369 356.2 345.3 340.8 338 347 348.7 341 320.3 315 318.1 335.3 341.3 340.2 338.1 334.8 326.4 335.5 337.4 336.9 335.9 333 329.8 326.8 321.9 317.3 308.2 298.3 275.5 270.2 285.5 290.2 298.1 300.5 299 296.8 292.3 282.5 274.6 260.6 250.8 245.6 235.5 227.3 224.6 220.6 215.5 215 214 215 229.2 249.6 249.2 241.6
284.3 288.9 293.7 298.5 303.9 312.2 324.4 341.4 356.7 372.2 389.4 411.5 430.1 446 457.4 463.3 467.3 469 470 471.9 473 474.4 474.6 474.1 473 471.1 468.8 469.1 468.7 467.3 466.5 465.3 464.3 464 463 461.1 458.1 455.5 452.6 448.9 445.8 440.4 414.6 385.5 364.4 342.8 326.4 333.4 350.2 374.7 390.4 407.2 411 407.6 398.6 388.6 377.9 364.3 340.7 313.6 288.6 299.4 309.4 319.6 317.8 311.7 339 367.3 394.4 419.7 438.4 439.9 432 415.4 395.3 374.7 355.3 338.6 350.9 366.1 389.1 402 406 398.3 384.8 366.4 349.3 319.3 288.9 264.4 254.8 243.2 229.6 215.4 200.7 196.7 211 230.8 231.7 209.3 207.6 191 185.3 185 185.2 184.7 184.7 184.3 184.9 184.1 184.6 185.5 187.3 189.8 196.8 194.8 193.2 193.7 197.5 200.5 204.5 210.4 213.7 217.2 220 221.7 225 228.8 235.9 244.6 250 248.3 244.9 244.1 250.4 254.6 258 261.4 264.8 272.4 281.9 299.4 316.6 335.8 353.1 351.1 349.3 341.5 333 326.6 324.2 333.5 338.5 336.2 327.3 305.6 307.8 329.6 336.3 335.5 333.4 330 317.2 330.4 332.2 331.1 326.9 323.7 318.4 316.2 314.2 309.7 302.3 293.8 275.8 263.3 265.9 272.4 281.7 290.6 291.4 290.4 285.6 280.3 275.8 267.5 258.8 251.7 240.9 230 219.4 216.9 213 207.1 219.4 228.4 238.3 248.7 247.2 239.9
282.9 287.1 292.2 297.8 302.5 311.5 323.3 338.6 357.6 375.8 394.9 418.1 436.4 452.4 465.8 470.4 470.8 470.2 469.6 469.4 470 470.2 470.6 469.9 468.4 467.1 464 465.3 464.8 464.8 464.4 464.8 463.8 463.4 462.3 460 456.7 453.1 449.4 446.4 443.4 438.6 423.6 388.6 364 342.2 327.3 320.2 338.3 358.2 373.4 383.3 395.9 398.7 389 374.6 364.3 355.3 344 324.3 295.2 290.6 295 303.5 295.9 323.7 353.1 379.9 405.1 422.8 428.1 425.3 412.5 392.3 372.9 353.6 334.3 323.7 348 373.7 392.8 404.5 406.8 393.1 375.9 356.9 341.2 312.9 282.9 256.1 241.5 224.9 209 192.1 188 188.4 195.4 207.1 214.6 207.7 206.6 185.6 184 183.9 183.5 183.6 183.8 183.8 184.6 184.5 184.8 186.4 189.5 193.3 199 200.8 200.4 200.9 196.4 198.7 201.1 208.3 214.6 219.2 223.8 227.1 229.4 235.2 244.7 252.3 256.3 257 253.8 254.6 255.1 254.5 257.4 260.1 265.2 271.6 284.1 300.9 319.5 336.9 336.3 336.8 336.8 332.8 323.3 316.3 313.4 321.8 324.9 323.8 320.4 300.8 299.7 321.6 330.6 334.7 328.7 322.9 307.1 319.2 324.5 323.2 320.3 315.5 310.7 308.4 306.8 303.4 297 289.9 280.4 267.1 254.5 255.1 268.2 278 280.2 276.5 278.8 275.1 268.9 263.6 259.9 252.9 245.7 235.5 226.1 218 212.2 208.5 205.7 227.6 239 238.5 238.6 234
281.7 285.8 290.7 296.3 302.6 311 320.8 332.9 351.4 372.6 393.8 417.4 437 456.2 470.9 473.5 471.5 470 468 467.2 466.1 465.9 465.8 465.4 464.1 462.2 457.8 460.6 460.9 461 462 462.4 462.9 461.8 460.4 458.4 455.2 451 447 443.8 440.5 435.9 428.1 399.9 370.2 346.4 327.2 316.3 328.9 341.4 350.1 360.7 373.4 381.6 377.3 371.4 357.6 334.7 331.8 334 312 284 282 287.2 302.9 331.3 360.1 386.3 407.4 416.4 414.1 406.6 392 371.3 348.8 331.2 312.3 323.3 351.9 381.3 401.5 407.7 402 387.6 368.3 344.4 324.8 300.4 273 250.1 231.8 211.2 191.2 186.1 184.5 184.2 184 186.2 192.5 199.4 190.6 184.5 183.1 183.4 183.5 183.5 183.9 184.1 184.4 184.6 187.1 190.9 200.8 203 202.4 205.2 204.4 206.5 207.6 208.6 201.8 208.4 218.6 221.8 228 233.9 235.7 242.5 252.7 262.7 265.4 265.3 263.8 261.3 259.5 258.2 256.8 257.5 263.5 270.3 284 301.1 321.7 333.4 322.6 321.5 324.5 324.8 317.5 308.1 302.2 306.5 309.8 308.4 305.9 285.3 296.3 315 325.3 330.4 325 317.4 301.5 309.2 314.9 314.8 312.5 307.8 303.2 299.7 297.5 296.2 289.9 284.1 278.5 269.4 258.9 253.2 260.7 268.6 271.2 263.1 262.6 264.6 260.7 257.2 253.5 250.5 245 238.4 235.5 229.8 223.4 214.8 204.9 219.3 231.6 228.9 232 225
280.6 285.2 289.7 295.8 302.2 309.2 320.1 333.1 348.2 365.3 391.2 414.6 437.9 458.1 472.4 474.7 472.2 469.3 466.8 465.2 463.2 461.4 461.3 460.7 459.2 457.6 452.5 455.3 456.1 457.3 459.1 459.5 459.8 460.2 457.6 456 453 448.3 444.2 440.4 436.9 431.9 423 400.2 371.2 345.4 323.2 312.9 316.5 322 329.3 342.8 350.4 358.1 361.6 358 347.9 340.5 318.2 311.5 312.1 304.8 280.8 275 302.3 329.5 356 379.7 393 394.6 390.6 382.7 371.9 352.5 332.4 309.7 299 325.4 356.5 384.8 404.5 409.1 400.3 382.8 362.3 338.2 310.1 283.9 261.2 242.7 221.2 196.5 186.2 183.9 185.3 182.7 182.8 183.4 183.4 184.7 184.9 182.6 182.6 182.7 183.4 183.4 184.1 183.8 183.6 185.9 189.2 195.6 199.4 207.3 208.1 210.2 210.6 211.9 213.5 212.7 208.6 207 221.7 227.9 234.3 239.4 244.5 255.2 267.8 276.3 278.6 277.7 273.5 267.8 266.2 263.5 256.6 256.3 262.3 270 285 303.6 321.8 328.4 314.9 308.3 309.7 311.5 308.6 300.4 295 291.4 294.2 294.1 287.3 277.6 295.3 309 314.4 317 314.5 309.4 300.5 297.1 304.9 304.8 303.9 299.8 296.1 292.3 289.6 287.9 283.7 279.8 274.3 268.8 261.5 252.2 253 259.7 265.6 257.7 249.7 251.4 253.5 252.5 250.9 247 243.3 240.7 236.8 230.6 223.1 217.9 210 204.6 222.1 221.9 220.4 214.6
279.9 284.1 288.4 293.9 300 308 319.7 332.9 350.7 372.2 395.5 416.2 438.8 457.8 469.8 471.7 470 467.5 465.1 463.4 460.1 456.7 456.4 456.1 455.1 452.6 447.7 451 452 453.9 456.7 457.4 457.8 458 455.2 452.8 449.9 446.3 441.4 436.5 431.8 423.3 405 378.1 353.5 348.8 339.2 322.7 308.1 305.9 312.9 321.6 327.1 341.2 343.9 336.7 327 319.5 317.4 299 295.5 289.3 284.9 264.7 288.9 316.9 338.8 360.5 366.3 368.8 366.4 359 349 331.6 312.6 294.7 300.1 330.1 363.1 391.5 411 406.8 393.9 376.6 356.8 339.9 317.6 293.6 262.7 237.1 210.9 192.2 184.1 189.8 192.4 187.4 183 182.4 182.2 182.1 182.2 182.1 182.3 182.5 182.8 183.1 184.5 183.7 185.2 189.1 193.9 205.2 209.8 212.4 214.6 215.7 216.6 217.7 219.2 218.4 215.2 208.5 221.3 230.4 239.2 246.7 255.8 269.1 283.5 293.8 293.1 290.1 282.6 277.4 274.2 268.7 256.1 253.4 260.4 268.8 281.8 300.1 320.1 325.5 311.3 301.5 296.8 296.1 295.1 291.8 286.9 283.1 284.6 284.5 274.5 272.5 290.8 300 303.3 303.9 298.9 292.1 286.6 286.1 295 293.9 291.5 290.4 288.1 285.6 281.5 280.3 279.9 277 272.4 267.8 260.6 251.5 246.8 251.5 256.4 257.1 245.6 243.4 246.1 251.1 248.3 244.7 240.9 242.3 238.7 230.9 224.8 220.1 210.7 200.2 209.5 210.5 207 201.9
278.8 283.1 287.5 293.3 299.9 308.1 316.8 330 347.3 372.1 394.1 414.8 436.7 454 464.3 466.1 465.5 463.7 462.2 461 457.7 453.6 451.9 451.5 450.6 448.2 443.7 446.7 448.7 451.1 454 455.2 455.8 455.7 454.1 452.2 449.8 446 442.1 431.1 420.6 401.6 382.4 377.2 381.8 381.1 360.7 342.6 326.6 313.6 301.2 300.7 310.3 324.1 324 316.1 306.7 299.4 295 296.4 280.1 272.3 259.2 260.4 274.7 294.7 316.1 332.7 337.4 341.4 341.4 340.1 328.6 309.1 290.6 279.6 306.7 338.2 369.7 395.5 413.2 405.1 386.6 367.3 350.5 334.9 312.5 286.6 259 232.2 206.6 188.5 184.9 196.5 213.2 205.4 198.9 189.9 184.3 182.1 182.3 182.4 182.4 182.5 182.8 184.2 183.7 185.8 189.6 200.7 205.8 211.3 216.7 216.9 220.1 221.4 222 223.4 224.1 223.4 222.1 214.6 216.7 231.3 238.9 252.5 266.5 283 299.8 305.6 307.3 302.3 292.7 290 281.1 268.6 255.1 252.2 256.8 265.3 280.5 296.9 315.5 323.3 307.8 296.3 290 288.2 287.1 284.2 279.7 274.9 275.4 276.3 267.4 266.7 284.6 291.1 291.4 286.8 282.4 281.3 277 276.8 278.8 278.6 278.8 278.8 278.1 276 274.3 276.2 276.5 274.9 271 265.4 259.3 248.7 240.4 243.3 248 249.3 242.1 236.6 245.3 248 242.5 239.4 237.1 238.6 235.5 230.4 226.1 220.9 214.1 200.6 197.7 197.8 194.7 193.5
278 282.4 287.1 292.8 299.2 307.2 316.4 331.6 350 368.8 388.8 409.6 431.2 446.7 453.9 458.1 459.6 459.6 458.4 457.6 454.9 451.7 447.3 447 445.8 443.8 440.8 442.7 445.5 449.4 453.3 456.2 457.6 456.8 455.7 455 453 449.1 444.9 438.7 432.1 425.9 417 412.4 414.9 412.3 387.1 366.3 347.9 330.3 315 301 295.3 301.7 304.8 299.9 287.7 278.4 275.9 278.2 275.1 279.9 285 272.6 253.3 272.2 288.5 301.7 309.8 313.6 317.1 319.3 309.2 286.1 266.8 289.7 317.1 349.4 378 401 408.7 393.2 376.5 358.2 343.8 323.2 305 279.8 253.1 228.8 203.2 186.6 185.4 202.2 222.3 223.4 218.3 198.5 185.4 183.2 182.5 182.5 182.8 182.9 182.9 184.2 186.3 189.4 195 206.9 215.8 219.9 222.9 223.9 228.3 230.4 229.9 230.3 230.1 228.2 226.6 221.3 216.8 230.6 241.6 256.7 272.6 293.1 307.9 315.5 316.8 309.8 305.8 302.5 285.6 268.7 254.7 249.9 253.2 263 275.6 289.5 301.4 308.2 304.6 295.6 285.4 283.6 282.6 280.9 277.3 272 265.1 263.7 259.5 265.2 280.1 282.9 281.5 277.8 276.4 274.5 269.8 272.4 268.9 267.7 267.2 269.2 269 269.3 268.2 268.1 266.8 265.3 266.2 264.4 254.6 245.6 238.1 235.5 239.8 241.2 236 231.9 239.7 240.3 235.6 232.6 232.2 233.8 228.5 223.1 218.7 213.6 207.8 200 195.1 192.2 191.2 189.8
277.5 281.6 287 293.1 299.8 307.1 316.7 328.7 341.8 356.7 378.1 398.6 424.1 440.4 448.3 452.4 454.3 455 455.2 454.3 452 449.4 446.2 440.7 441.3 439.5 438.7 442.1 446.3 449.8 454.1 458.7 461.2 461.3 460 458.2 455.5 452.4 448.6 444.2 440.7 438.6 436.7 437.2 439.5 437.4 417.4 393.7 372.9 353.5 334 316.1 302.5 292.7 288 284.5 288.4 296 305.3 306.2 307.4 312.3 315.2 301.3 276.3 257.2 254.6 270.7 279.9 288.9 294.2 299.1 289.5 265 271.7 303.5 332.9 359.1 383.2 401.6 397.1 380.9 363.4 347.1 329.4 313.3 296.4 275.2 249.9 225.1 197.6 185.5 186.6 206.6 223.7 222.6 215.3 197.9 183.6 183.6 182.9 182.9 183.8 184.9 185.5 187.2 189.2 198.4 206.5 213.5 222.4 229 231.4 232.7 237 240 238.9 239.1 236.4 234.7 230 225.3 223.2 236.1 251.1 267 281.8 299.6 314 321.6 322.8 321.9 318.5 305.9 284.5 269.5 255.8 249.8 249.3 254.4 266 274.8 283.6 293.2 293.5 288.9 281.3 278.8 278.1 276.3 276.1 275.4 271 257 251.7 264.6 272.4 273.2 272.4 270.5 268.9 265.8 263.5 262.8 258.5 259.1 259.4 262.5 262.1 260.9 259 258.2 255 253.1 251.4 252.5 250.1 244.9 237.7 232.1 229.5 229.1 227.8 229.3 230.2 230.5 227.6 224.7 225.6 223.3 218.2 210.3 203 199.6 197.4 194.9 194.4 193.6 192.7 192.1
276.5 281 286.1 292 298.2 305 315.1 333.1 354.4 375 389.9 404.8 415.5 434.1 443.5 447.7 449.8 451.1 451.5 451.3 449.5 446.9 444.3 441.3 434.8 433 439.2 442 445.2 449.2 455 461.3 463.8 464.7 462.9 461 458 455.4 453.1 451.2 449.3 449.2 450.4 450.6 451.2 448.3 440.9 421.8 398.7 378.5 357.1 335.5 322.7 315.2 307.3 302.1 313.3 323.9 333.9 337.5 340.6 346.1 344 328.2 307.7 282.5 252.8 239.9 247.6 256 254.8 272.5 269.7 247 278.7 311.3 339.1 364.5 385.1 393.2 380.3 367.2 351 335.5 319 305 288.6 269.1 245 221.2 196.2 184.9 188 208.4 225.4 220.3 209 191.1 183.3 182.6 183 183.6 185 186.4 188.9 190.9 197.4 205.3 215.7 226.5 232.2 237.1 240 242.9 246.2 250.8 249.7 248.2 245.1 240.5 234.3 228.6 225.1 241.3 259.5 275 290.9 308 323.4 330.9 334 331.8 327.1 308.6 286.6 271.8 259 253.1 247.3 247 254.1 262.5 268.6 276.1 278.3 276.8 274.3 273.8 274.2 271.5 271.8 274.2 272 255 246.6 257.7 265 264.3 262.6 260.4 258.5 254.8 256.4 256.6 253.1 251.4 254.4 256.3 257.2 257.1 255.8 253.5 251.5 248.1 245.7 243.7 241.9 239.7 235.2 230.8 227.6 224.5 222.1 220.8 221.3 220.9 217.7 214.7 211.9 207.6 203.6 205.2 202.4 201.1 200.5 201.1 202.1 203.4 202.8 201.4
275.9 280 284.8 289.6 295.4 302.6 315.4 336 362.2 385.9 405.5 421.3 431.8 435.1 438.8 443.9 446.1 446.9 447.8 447.6 447 444.7 442.7 440.1 434.5 433.6 437.3 440.1 443.3 448.9 454.3 460 462 462.9 462.1 460.3 458 456.8 457.6 457.3 456.8 456.3 457.3 457.4 455.6 453.1 447.1 437.9 427.2 405.9 381.3 364.3 351.3 339.4 337.1 328.6 338.7 351 359.8 367 371.7 375.6 370.1 353.9 326.5 304.3 287.9 267.2 257.6 245.3 241.4 232.6 244 250.8 267.3 296.9 324 341.3 360.2 375.9 368.1 354.5 338.3 323.1 307.4 295 281.5 262.7 240.4 217.8 194.6 184.1 189.2 209.4 226.7 215.7 203.1 187.5 182.9 183.1 182.9 184.4 185.8 188.6 192.3 197.1 204.1 212.3 222.9 232.2 238.9 243.5 250.5 256.5 262.3 266.9 265.9 263.7 257.8 251.6 239.1 232.2 232 242.8 264.9 283.9 299.9 323.7 335 340.4 341 337.8 328.5 313.4 293.1 278.6 265.7 255.6 249.8 244.5 244.5 248.9 256.8 263 265.7 267.5 268.2 267.8 265.7 263 263.6 263.2 263.9 255.2 243.3 247.9 255.3 255.1 253.5 251.4 249.3 247.5 249 247.5 246 246.8 248.6 250.4 252 253.7 252.5 250.2 248.3 245.2 241.6 239.3 236 233.3 230.2 228.2 225.9 223.9 221 217.6 216.4 213.4 210 215.3 215.4 216.5 216.6 216.4 214.8 215.3 215.4 214.7 214.2 213.6 210.8 206.3
274.6 278.8 283.4 288.8 295.6 302.5 316 336.5 364.1 391.9 412.7 431 440.8 443.5 442.4 443.7 444.1 444.1 444.7 444.8 444 442.8 440.8 438.2 434 430.3 433.5 436.2 441 447.3 452.3 455.9 458.2 459.1 459.2 457.5 457 457.7 459.3 461.5 462.3 462.8 462.4 460.1 457.7 454.3 448.7 440.4 430.7 419.6 406.7 395 381.9 370.8 367 359.8 361.2 375.9 386.3 395.9 402.3 403.1 395.3 373.8 348.8 334.4 314.4 300 290.8 282.7 274.1 257.3 230.7 225.6 241.4 270.6 292.1 308.3 328 349 355.2 343.4 327.5 309.9 297.6 284.9 275.1 257.1 235.7 212.7 190.3 183.1 192.2 217.8 216.6 212.9 201.3 187.4 183.8 183.6 183.9 184.9 187.7 192 196.6 205.2 213.4 219.5 232 240.5 246.3 253.4 262.8 272.8 279.7 284.6 284.5 279.7 271.4 258.7 243.9 238.9 239.2 249.8 271.9 291.6 309.8 330.8 343.1 346.2 342.5 337.4 328.6 318.9 306 286.9 274 264.2 255 248.7 241.3 242.5 246 253.1 257.6 265.3 269.3 266.2 259 255.3 255.1 256.6 256.8 254.3 244.6 237.1 246.7 246.3 245 243.7 243.2 241.8 241.2 240.5 240.5 242.7 244.1 246.2 248.2 250.2 250.3 247.1 244.2 241.8 238.1 236.4 232.3 231.3 228.1 225.7 223.8 222.1 219.9 217.9 215.7 216.5 222.6 224.5 224.2 224.6 224.7 224.2 223.6 223 220.1 218.4 215.3 212.8 208.6 205
273.6 278.2 283.1 288.8 295.9 303.8 315.8 334.1 366.4 390.4 413 433.3 444.8 446.7 445.3 444.6 443.6 443.1 442.3 442.1 441.1 440.1 438.8 435.6 432.3 423.1 425.5 430.9 436.3 443.4 447.8 450.6 452.8 454 454.3 454.9 455.8 457.1 459.6 461.9 463.6 463.7 463 460.2 456.9 453.7 448.2 439.6 429.3 418.7 410 404.6 400.4 398.3 393.7 388.3 391.5 401.6 413.4 425.3 431.6 429.7 417 395.8 372 346.6 325.7 311.2 300.1 293.6 274.7 253.9 248.8 236.5 222.1 240.4 259 280.6 299.2 323.6 336 329.5 314.8 300.5 288.3 279.6 265.1 249.2 228.7 206.8 188 182.5 194.5 216.7 214.3 212.1 203 191.2 184.9 184.6 185 187.2 191.2 197 205.6 207.3 217.4 232.9 242 249.6 256.7 266.2 273.7 286.8 296.6 300.9 300.9 293.8 281.2 262.9 253.6 246 249.8 254.5 278.1 299 320.8 335.7 340 340.5 336.2 330.8 326.1 322.6 313.5 298.5 284.5 274.6 265.4 255.7 248.5 239.5 239.3 244.9 253.1 265 270.4 267.2 262.1 253 247.4 250.4 250.7 249.5 244.3 234.6 241 239.7 239.9 237.9 237.6 237.3 237.3 236.6 237.6 238.6 240 242.6 246.2 249.2 250.4 249.5 247.3 243.5 240.6 237.3 233.9 229.9 227 225 222.6 220.8 217.9 217.8 218.3 227.6 232 230.8 229.3 230.2 228.9 227.1 224.5 222.1 218.8 214.4 211.7 208.1 204.5 202.6
273.2 277.8 283.1 289.6 297.2 305.2 317 334.4 357.5 385.4 410.6 430.4 443.7 448.2 448 446.1 444.6 442.8 440.4 439.3 438.3 437.2 435.4 432 429.3 426.1 416.8 425.2 432.3 438.4 442.3 445.1 447.3 448.9 449.5 450.5 451.8 453.5 456.1 459 461.4 461.7 461.3 459.1 456.1 452.5 445.8 435.7 424.3 413.9 409.4 406.4 406.9 412.8 414.5 415.2 418.4 428.9 440.3 447.8 449.1 444.2 429.9 396.4 367.8 343.8 330.2 321.8 306.5 290.5 282.4 286.7 280.1 258.6 235.8 220 231.8 251.9 272.9 295 320.8 312 302.6 292.8 281.3 269.3 257.6 240.3 221.2 200 186.7 183.1 197.8 215.4 214.6 213.3 205.1 195 188.9 185.6 186.7 189.8 195.8 208 216.7 224.1 221.2 226.6 246.2 256.9 264.2 274.3 287.3 301.4 311 316.2 315.2 307.6 291.8 274.2 261.3 256.8 264.3 265.8 281.1 302.3 327.3 336.5 334.9 332.7 329.4 325 321 316.2 310.9 305.2 298.5 288.7 276.4 267.1 258.6 249.5 238.4 239.5 249.1 260.1 264.6 262.5 259 250.6 242.3 241.7 244.5 243.5 238.6 232.1 234.1 233.7 232.2 231 232.4 233.9 233.6 233.7 235.3 240.3 245.1 249.3 252.7 255.6 256.4 253.7 250.1 246.2 241.8 238.1 234.3 231.9 229.9 228.2 225.5 225 222.2 220.6 221.3 230.6 232.5 230.4 229.1 229.3 226.5 224.1 221.8 218.5 215.3 211.1 207.9 204.5 201.8 199.9
