ncols 200
nrows 82
xllcorner 300000
yllcorner 201550
cellsize 50
262.9 265.8 258.6 264 265.9 276.4 284.1 283.9 283.6 284.6 285.7 287.7 291.9 296.7 301.2 304.6 306 304.2 313.1 322.6 334.4 343.8 353.7 365.7 373.9 382.9 393.2 402.1 409.4 417.2 426.2 432.3 441 445.3 448.6 450.8 452.5 453.6 453.7 453.6 452.9 449.3 443.6 437.1 429.9 423.6 417.1 405.6 391.4 374 374.9 369.1 359.8 339.8 327.4 319.5 309.6 303.7 298.1 293.4 289.6 287.8 281.4 277.7 275.2 273.4 271 264.9 260.2 255.2 249.7 244.5 236.3 234.4 235.6 234.6 233 231.9 228.2 222.7 220.6 213.7 212.7 205.7 201.2 197.7 194.2 191.3 186.4 186.2 185.7 189.5 189.8 187.2 172 170.7 169.7 168.8 163.5 156.2 162.3 161.9 162.7 162.4 163.1 171.8 178.6 182.3 192.7 195.3 201.6 207.8 210.8 210.1 214.1 219.1 222 223 224.6 226.8 230.6 233 238.5 233.4 234.8 247.4 255.5 259.9 268.2 271.4 271.8 275.8 283.1 288.7 294.6 299.1 304.3 314.6 320.8 329.1 336.4 341.8 350.6 357.8 361.5 367.1 370.7 373.1 372.9 369.9 366.9 363.2 358.1 369.9 369.8 366.4 373.5 382.3 391.3 400.4 408.6 409.6 409.2 404.7 404.2 408.6 409.1 409.6 409.6 409.6 409.4 408.8 403.2 380.8 352.5 339.9 339.9 344.9 333.8 342.2 344.4 345.9 348.3 352.9 362.2 367.5 372.8 377.8 380.9 383.5 386.7 391.1 392.2 391.8 390.4 389 387.4 387.4 386.1 383.7
261.9 261.5 257.9 263.1 261.5 267.6 273.8 277.4 279.1 280.2 281.8 283.7 288.5 292.6 296.1 299.5 306 309.3 314.5 323.5 336.2 346.6 357.8 371.6 382 394.1 399.9 406.9 412.9 420.2 428 442.8 446.5 448.5 449.2 448.8 448.4 450.3 454.2 455.5 456.2 455.7 450.8 441.9 434.8 428 420.1 411.4 399 382 372.4 368.3 355.2 342 331.9 321.4 309.8 305.1 299.5 294.8 290.8 287.1 281.6 279.5 277.9 275.5 271 267.2 264.6 260.1 254 245 240.1 236.6 234.3 229 232.1 233.2 235.1 231.7 219.7 217.7 215.6 204.5 199.7 198.1 196.3 190.4 187.1 186 185.6 187.1 188.4 183.9 172.8 170.5 169.9 169.5 167.5 165.4 162.9 160 162.1 162.3 162.8 164.8 172 177.2 190.8 197.8 200.8 201.7 205.1 206.8 211.8 217.2 220.5 220.6 221.7 224.3 228.2 231.3 232.5 234.9 243.5 248.3 256.4 262.5 266.4 267.7 272.1 276 286.4 292.5 296.5 301.2 311.3 319.7 331.1 338.6 344.2 347.9 354.7 359.5 362.4 365.5 369 370.4 370.6 368.2 366.1 361.7 355.1 355 349.9 346.7 353.5 362.9 373 383.9 392 393.8 388.5 381.7 383.4 393.1 408.2 409.1 409.7 409.6 408.9 408.2 397.2 379.7 354.7 344.7 343.9 342.4 330.8 335.9 338.8 344.7 350.4 357.9 363.2 369.3 374.7 378.2 380.9 383.4 385.3 387.6 388.7 389.2 389.7 388.7 387.1 386.9 386.7 384
248.6 253.4 262 261.6 261.6 262.6 267.1 273.8 275.2 276.3 277.9 283.3 290.3 295.7 298.4 304.9 306 308 312.7 324.1 335.9 348.4 362.7 379.8 398.8 398.2 406.8 409.8 416.3 423.2 436.4 441.5 442.2 444.3 444.8 443.1 442.9 448.8 450.6 452.1 454.6 454.5 452.1 442.8 436.4 429.4 420.7 411.8 402.1 389.7 376.2 368.8 356.7 344.6 332.9 321.7 311.3 305.9 301 297.3 293.8 288.8 283.1 280.3 280.5 275.2 271.7 270.4 266.2 262.1 254.3 247.5 245.4 244.8 242.3 237.3 232.4 225 217.2 216.7 216.8 217 214.9 203.2 199.5 197.1 195.6 193.4 188.8 184.6 185.1 185.4 185.2 175.9 171.7 171.2 169.8 168.3 167.2 165.3 163.8 160.5 161.4 162.8 162.7 163.7 166.8 171.9 183 197.5 200.3 198.9 201.6 205.7 209.6 214.2 219.2 220 219.4 221.9 226 233.7 232.6 233.4 240.3 251.7 255.9 261.6 266.8 269.6 273.1 279.8 285.5 292.1 297.7 305 314 327.1 331.3 340.5 347 351.7 356.9 357.7 360.7 367.6 370.7 369.6 368.1 366.2 364.9 361.4 357.1 351.9 347.8 339.5 342.3 343.1 353 364.6 373.2 375.5 369.8 359 356.1 369.7 393.5 408.8 409.5 409.4 409.4 400.6 379.3 368.3 352.3 343.9 338.4 340.6 333.1 332.2 337.1 346 353 357.8 365.4 372.3 375.9 377.6 378.2 379.9 380.7 383.7 384.6 386 388.1 388.9 388.4 386.9 386.9 384.9
244.9 245.7 260.4 261.4 261.7 262.6 267.1 273.2 271.6 271.4 279.2 285.6 292.3 299.1 304.4 309.4 310.4 309.6 311.5 323.1 335.4 349.2 364.6 382.3 401.5 409.2 412 413.4 417.2 430.2 436.7 436 436.5 437.6 438 436.2 439.3 443 445.7 447.6 450.2 452.5 450.9 446.5 437 429.1 421.2 413.1 404.1 395.2 381.6 372 357.9 346 328 319.4 312.4 307.3 302.8 298.4 299.3 296.2 298.1 293.3 295.1 276.5 273.8 271.8 265.1 260.9 253.5 251.4 249.7 249.2 246.7 243.6 237.9 234.7 230.9 222.9 217.5 218.9 219.1 213.2 199.9 195.7 193.5 197.4 188.7 186.2 183.7 183.8 183.2 182 173.1 171.1 168.2 167.3 166.5 165.9 164.7 164.2 157.4 164.1 162.7 161.5 162.7 168.9 174.9 192.2 195.1 194.2 201.1 205 207.2 211.3 217.7 218 215.7 218.9 224.7 232.3 233.2 234.6 237.2 253.6 256.5 264.1 268.2 271.1 275.9 282.8 287.7 291.8 298.6 309 322.5 327 330.6 338.8 346.9 354.3 356 357.6 361.7 368 366.3 365.2 365.1 364.1 363.2 360.6 356 351.4 347.3 344.4 341.4 338.9 336.2 345.3 351.5 355.6 350.3 348.5 351.1 356.2 374.6 394.5 409.2 409.1 408.6 398.5 373.2 351.6 344.7 340.3 339.4 338.3 325.7 329 336.9 345.5 351.9 356.1 366 371.9 374.2 374.7 374.4 374.9 376 379.1 381.2 383.1 385.7 388.6 389.6 388 386.9 386.9
239.5 245.1 259.2 260.2 258 257.4 261.9 264.3 264.9 270.8 280 286.1 294.8 301.3 306 310.9 312.6 316.4 313.4 319.8 331.5 346.3 361.6 381 400.4 410.2 411 416.4 421.6 428.1 428.7 428.5 428 428.2 429 432.7 436.6 439.8 441.3 443.2 445.9 447.7 448.2 445.4 440.4 430.1 421.1 413.3 406.1 396.5 385.2 371.7 352.6 345.1 328.7 322.4 315.3 310.6 310.8 305.2 300.2 297.6 296.2 296.8 295.2 278.6 273.7 270.3 270.5 262.9 261.4 259.8 257.9 257.2 254.5 251.2 245.7 241.1 236 234 227.5 224 215.9 211.8 203.9 197 198.6 200.4 193.4 186.4 183.7 183.4 183 182.3 176.4 176.4 176.8 167.5 167 165.5 164.9 165 157.1 161.1 164.9 162.4 161.4 164 170.7 187.4 189.4 193.1 198.7 201.5 204.2 209.1 214 213.1 211 212.8 223.7 231.4 233.5 236.3 241.4 247.5 253.7 262.3 268.5 271.9 275.1 280.5 288.4 293.4 302 309.4 322.2 324.9 329.2 334.4 342.3 352.1 355.3 356.2 358.8 358.3 358.8 360.3 360.9 362.7 362 360.3 356.3 351.5 347.6 343.7 340.5 336.7 331.6 328.7 325.9 336 346.3 348 352.4 354.4 360.1 376.3 393.9 408.4 408.4 394.6 371.8 352.2 343.8 336.7 334.6 335.5 325.8 321.5 334.2 342.7 349.4 354.8 364.6 370.7 371.2 370.2 369.5 370.1 371.4 374.9 378 380.8 384.8 390.7 391.2 389.4 387.6 386.9
236.4 252.5 256.7 254.2 250.3 250.8 254.1 258 260.7 266.3 275.1 286.8 296 303.4 306.8 310 312.5 314.8 315.7 317.6 327.3 342.6 359.7 380 400.9 406.3 407.5 411.7 418.4 419.4 420.2 420.1 419.5 419.1 421.1 428.3 432.2 435.1 436.6 439 442.6 444.1 444.7 443 440 432.6 422.3 414 406.5 396 382.6 368.9 354.9 343.2 334.1 324 316.7 312.5 311.6 305.6 299.2 295.5 291.7 287.8 281.3 277.7 276.7 275.1 272.3 269.7 268.2 266.1 263.1 262.1 259.6 256.3 252.1 246.3 241.6 237.1 236.8 235.1 221.5 216.6 209.9 200.5 199.2 200.3 197.2 189.2 185.7 185.8 182.5 178.8 177 176.6 176.4 168 166.9 165.9 165.3 165.4 167.2 159.7 167.3 165.6 162.1 161.8 169.2 179.7 186.3 189.9 194.2 198 201.4 206.3 209.4 205.8 210.5 213 224.8 230.3 234.4 239.2 243.7 248.4 255.5 259 264.5 268.7 273.4 279.7 285.3 291.6 303 310 319.4 322.1 326.3 328.9 336.6 344.8 350 350.9 351.6 351.8 353 354.7 355.8 359.4 361.6 361.1 359.6 355.8 348.3 343 339 335.6 332.4 326.8 320.7 337.4 344.9 345.5 353 354.7 353.1 362.9 384.4 404.2 403 387.6 370.3 354.2 346.5 338.6 331.8 327.3 325.2 321 331.9 341.6 346.9 355.1 361 366.7 366.6 365.4 365 366.5 368 372.7 376 379.4 384.6 389 391.5 391.5 390 387.4
234.8 238.1 240.9 241 243.7 247.2 251.6 254.5 255.7 257.3 268.8 285.2 298.1 303.1 305.1 307.6 310.4 314.4 315.6 316.3 326.8 341.4 357.8 379.7 397.8 401.3 402.8 405.7 413.1 414.8 410.3 411.3 411.7 411.1 415.8 423.1 427.2 431.3 435.5 438.9 441.6 443.3 443 442 438.9 433.4 423.9 414.6 408.1 394.7 381.5 372 363.7 348.8 340.2 327 320.4 314.3 311.8 306.2 299.6 298 296.7 288.8 295.9 292.8 284.8 277.9 276 275.1 272.8 271.1 267.5 265 261.9 259.9 255.5 251.2 245.6 240.3 238.8 231.9 225.3 219.9 213.2 206.8 200.1 198.9 197.3 196.5 189.5 183.8 186.4 179.1 177.7 177.3 176.9 169.6 167.1 166.1 165.9 165.9 171.1 157.7 160.7 164.7 164.8 162.6 166 175.8 184.3 187.7 191 196.1 200.3 202.6 201.1 205.1 210 214.7 224.9 231.1 234.8 240.2 243.6 250.5 254.7 254.6 260.8 252.3 270.7 279.7 274.6 291.1 299.4 312.4 316 318.8 322.4 326.1 331.5 336.5 341.9 344.4 344.9 344 345.6 347.9 350.5 357.5 362.3 363.6 365 363.6 354.6 344.2 338.2 335.6 331.2 321.3 321.9 334.5 340 341.7 349.4 351.4 350.4 352.2 373.4 390.5 389.5 369.9 358.2 353.6 348.2 340.4 334.5 326.8 318 316.4 328.8 338.6 343.6 351.1 357.6 362.2 361 359.9 361.1 362.8 365.9 371.5 374.5 378 383.2 389 394.4 395.8 394 391.9
233.4 232.4 233.2 235.9 238.9 242.8 245.4 248.6 250.6 252.5 271 286.9 298.4 301.7 303.4 304.7 306.8 310.1 314.6 315.4 324.1 340.8 356.1 377.6 391.7 394 394.6 396.7 401.8 407.2 403.8 401.5 402 406.5 410.7 418.4 420.7 427.1 437.4 441 441.5 442.5 441.4 440 437.4 434.6 426 417.7 407.6 401.4 389.7 376.7 357 354.9 346 333.9 326.9 317.9 312.7 307.9 301.7 298.2 295.1 297.4 296.9 298 287.1 282.2 281.1 279.8 277.7 274.6 271.2 268.4 266.5 264.5 259.3 255.1 249.7 245.4 240.3 233.8 228.5 224.1 217.9 212.2 206.9 200.4 198.2 196.7 192.3 186.9 182.9 184.6 178 177.3 177.5 171.6 166.6 166.6 166.7 170.9 171.9 161.1 158.8 165 164.8 164.3 164.4 171.5 180.3 185 188.9 195 198.8 197.6 193.9 204.8 209.6 216 225.2 229.8 234.1 237.9 240.9 248.7 251.1 252 252.9 262.2 269.4 273.7 275.9 284.1 296.3 305.9 309.8 313.7 316.7 320.8 324.9 329.5 334.6 337.6 337.3 339.7 340 342.8 348.6 358.8 365.4 371.7 371 368 361.3 350.4 338.9 335.5 332.9 324 319.6 330.6 334.3 336.8 344.5 347.2 347.1 346.9 361 370.6 373.6 360.4 358.3 351.6 346.9 340.9 334.8 328.9 307.4 322.1 323.9 333.3 339.7 346.6 352.1 354.4 355.3 355.4 356.6 359.8 364.2 369.2 372.6 377.5 384.7 394 397.7 398.9 398.6 398.2
231.8 229.7 230.2 232.6 234.5 238.1 240.8 243.3 246 247.1 268.4 283.7 297.1 300.5 303.8 304.2 306.3 310.3 312.7 313 319.8 331.4 348.1 366.2 383.8 387.8 388.6 390.3 394.7 400.5 401.4 396.1 396.5 397.4 401 404.6 409.3 414.8 425 430.4 434 434.6 436 438 434.7 433.2 426.3 419.1 412.9 404.3 392.7 383.6 369.3 363.6 355.3 346.5 335.7 326.2 318 310.6 307.4 301 298.7 297.3 294.6 293.5 291.5 287.7 286.3 287.5 285.8 280.5 277.4 274.2 271.5 268.4 264.1 258.7 254.4 249.2 243.9 236.9 229.5 226 222.2 216.1 212.7 207.4 199.5 198.8 197.5 189 189.1 185.5 180.3 177.9 177.9 174 168.8 167.1 167.3 173.1 167.3 159.7 153.7 158.6 164.5 163.3 163.5 168.9 177.5 182.1 186.6 191.4 195 193.2 194 207 209 217.7 222.9 228 232.4 235 238.2 241.5 240.5 248.5 255 256.3 264.8 270.8 276 281.6 290.2 299.9 303.2 308 312.5 314.6 318 322.2 327.1 330 329.8 332 335 340.7 352.5 362.5 372.3 376.5 375 370.4 365.1 357.4 345.6 336.3 332.7 326.4 319.5 326.2 329.2 332.1 340.5 342.4 342.8 342.5 345.7 349.2 345.9 350.5 353.8 350.2 347 340.9 335 329 309.6 319.5 321 326.9 333.8 338.3 342.3 348.9 351.2 351.6 353.9 358.1 362 365.8 372.7 380.9 391.6 398.4 402.6 406.2 408.2 406.7
230 228.9 227.9 229.2 230 232.6 234.3 236.9 238.9 244.4 264.6 278.2 293.4 299.3 302.1 303.2 304.9 310.2 312.8 313.4 319.6 327.5 339 354.9 368 378.5 381.5 385.6 390.8 393.2 392.4 390 384.5 385.9 388.8 391.7 397.5 403.9 409 413.3 417.6 420.8 423.3 425.5 426.6 425.3 420.8 417.1 412.8 405.8 397 389.8 381.5 374.5 365.9 355.8 347.2 340 328.1 320.4 314.2 307.1 304.3 301.6 299.8 298.5 297.4 296.9 295.6 296 294.4 290.6 287.3 282.6 277.9 273.9 269.1 263.9 259.7 254.2 247.7 239.8 232.4 225 220.6 216.8 213.2 209.5 205.1 200.6 195.7 190.5 188.5 185 179 178.8 179.4 176.1 172.9 172.3 173.7 165.2 162.2 158.3 157.5 158.2 161.4 163.3 163.3 166.2 174.9 178 184.1 188 188.5 185.7 196.1 207.8 209.2 216.1 221.8 227.9 230.9 233.8 234 232.3 236.3 248.4 254.3 255.5 264.4 264.1 269.8 278.2 285.1 294.3 296.7 301.8 306.1 309.9 312.7 316.1 320.4 322.4 323.7 327.8 333.3 345.5 356.8 372.7 378.2 379.9 378.1 373.7 367.5 359.7 349.7 338 332.1 327.7 324.3 318.4 321.8 325.3 333 336.9 337.6 337.3 335.6 337.6 340.2 344.5 353.1 347 345 339.3 335.2 329.9 323.4 312 318.5 322.7 328.1 331.7 337.4 345.3 348.5 350.3 352.2 355.1 360.2 367.7 377 388.4 396.7 406.7 413.8 414.7 416.3 415
226.8 225.3 225.1 226.4 227.2 227.7 228.7 230.4 231.3 239.8 254.3 272.3 291.6 298.4 300.4 300.6 306.4 312.2 314.3 310 311.7 318.6 327.2 338 349.7 362.2 370 376.6 381.6 382.3 381.2 380.2 376.4 376.5 377 379.9 385.7 393.1 399.2 404.3 407.5 410.3 414.3 418 420 418.5 416.6 414.6 412.9 409.2 404.2 398.8 391.8 383.2 373.4 364.9 350.7 345.2 335.6 328.1 323.2 320.5 314.4 316.2 307.9 305.2 304.6 304.6 304.5 303.7 302.1 299.3 295.3 289.8 286.3 281.8 277.7 271.4 265.8 260.7 253.4 244.3 237 229.8 223.4 219.7 215.2 210.5 207.9 202.3 195.4 193.2 189.3 187.4 182.3 179.9 177.1 176.1 173.5 168.7 175.1 159.1 160.5 158.7 157.7 153.3 158.2 162.3 162.7 164.6 167.5 176.2 180.1 182.3 181.8 186.4 199.4 208.6 210.6 216.6 221.6 227.8 229.8 232.2 233.2 239.8 244.7 248.5 252.4 254.9 259.9 263.2 266.6 271.8 284.9 288.6 290.3 295.2 299.7 304.5 308.7 310.9 315.1 317.8 323.3 327.5 338.4 353 372.8 381.8 386.4 386.3 382.8 377.5 371.1 363.8 353.8 342.7 333.3 330.6 326.7 315.5 313 318.5 323.3 330.1 330.9 331.2 334.3 336.9 337.7 342.8 342.2 342.6 340.2 337.1 332.5 327.5 319.4 307.5 313.7 319.2 324.6 330.8 340.6 346 346 348.2 349.1 353.8 361 371.1 384.1 392.1 402 411.6 415.9 418.3 420.4 421.1
222 222 222.3 222.7 223 223.3 223.6 224.6 227.6 239.3 253.2 270.3 286.8 295.7 296.4 294.2 308 312.6 316 317.1 305.9 298.6 316.2 326.1 335.7 347.8 360.6 369.5 370.5 372.4 373 371.4 371.4 371.9 370.6 370.8 375.6 382.5 388.2 393 395.1 397.8 402.6 407.6 408.7 410.6 409.9 412 414.1 413.7 410.1 405.8 400.1 391.3 380.5 369.6 362.7 352.3 343.1 335.4 329.6 325.3 322.9 319.7 314.6 310.7 309 309.2 310.3 310.7 310.5 308.3 304.9 300.5 296.2 291 281.2 277.6 271.8 266.6 259.2 251.8 244.2 235.5 228.7 223.1 218 213.4 207.4 203.4 202.5 196.4 197.6 188.4 187.7 183.6 180.2 176.1 174.5 169.8 165.2 160.1 157.8 157.4 158 158.1 157.8 160.5 162.2 163.4 166.3 172.6 174.9 178.6 180.5 191.4 202.3 209.3 211.8 215.4 221.9 227.2 228.5 228 233.4 238.8 244.1 246.6 249 251.5 256.7 261.1 263.9 269.6 277 282.5 285.1 290 295.6 300.5 305.2 306.9 309.9 317.9 322.4 329.3 343.7 365.6 379.8 386.9 391 390.5 385.9 380.5 374.4 367.6 359.1 349.4 341.1 335.4 332.8 322 312.9 312 315.9 322.6 325.3 326.2 328.9 331 332.7 333.4 335.4 337.7 336.1 335.2 330.4 324.7 317.8 297.5 308.3 316.4 322.3 331.4 339.2 343.2 344.1 345.9 344.4 353.7 360.2 371.9 384.2 392.7 405.2 412.3 416.9 420.9 424.5 428.7
218.2 219 219 218.3 218.2 218.4 218.7 220 228.6 239 254.9 267.4 276.4 287.3 285.5 293.1 307.2 312.1 315.7 318.3 311.1 298.9 306.5 315 324 333.6 347.8 361 364.9 366 366.8 365.2 365.7 366.4 364.4 362.5 366 371.2 374.8 378.4 381.1 382.6 387.6 393.5 399.2 402.4 405.7 408.3 416.1 419.5 415.3 411.8 405.8 398.4 388.8 378.4 367.3 360.6 351.6 345.3 338.9 333.7 329.3 326 321.8 319 317.5 318.6 316.8 316.4 316.1 314.3 311.3 309.3 305.6 296.3 289.1 284 276.5 272.7 263.5 256.4 250 241.8 234.2 227.6 222.1 218 211 204.7 200.1 207.5 201.9 188.8 188 185.4 182.4 177.5 174.6 171.7 167.2 160.7 157.3 157.3 158.3 158.4 152.7 159.2 162.1 162.6 164.5 168 170.6 178.8 184.8 193.1 202.1 207.9 209.9 214.4 220.9 225.9 228.6 227.2 225.6 234.4 241.1 244 245.4 248.7 254 258.2 263.6 265.5 270.9 276.6 280.3 282.6 289.5 295.2 299.3 304 308.3 314.7 321.4 332.4 348.6 369 380.4 389.3 393.4 392 387.7 384.2 380.9 372.6 362.4 351 342.7 337.3 336.7 333.2 320.2 307.3 307.9 315 321.3 322.2 323.5 325.5 326.8 326.8 328.9 331.4 331.3 331.5 326.4 319.6 315.8 301.2 306.5 313.6 322.4 331.6 336.8 337.9 340.5 341.6 345 352.2 358.8 371 383 392.8 405.7 411.9 418.3 424.8 435.9 442.5
213.7 214.1 213.8 213.9 214.7 215.6 214.7 215.6 227.9 247.7 257 268.4 271 273.4 274.8 289.6 305 310.7 316.4 317.4 312.7 299.4 297.8 308.6 316.4 324.7 334 348.6 359.4 361.7 361.3 360.1 356.8 358 355.9 353.7 356 360.1 364.1 366.2 369.2 372.2 375.6 381.7 388 393.9 398.8 407.9 424 427 420.8 416.6 411.1 404 397 387.3 378.2 368.5 361.8 354.5 349.7 345 340.4 337.9 335.2 330.1 327.2 324.8 320 319 317.9 316.7 314.2 311.4 308.2 305.4 298.7 288.7 278.6 273.6 269.2 259.3 253.2 245.9 238.1 231.9 227 220.4 213.3 209.1 207.4 209.3 205.4 193.1 187.9 185.6 181.3 177.4 173.5 173.4 169.3 163.5 157.4 157.8 158.5 158.4 157.3 157 160.4 161.9 162 167.6 174.5 180.6 186.3 193.5 200.8 205.4 209 211.5 220 224.9 228.2 227.4 224.4 231.1 237.7 239.4 240.3 244.8 249.6 257.4 260.2 262.4 267.5 272.2 273.5 281.5 287.9 293.6 299.1 302.5 306.5 311.4 320.4 334.9 354.1 370.9 381.1 390.3 393.9 392.2 388.2 384.3 378.4 372.3 362.3 355.7 347.7 337.8 334.3 329 319.2 314 307.7 304.2 315.9 316.9 318 320 321 321.2 322.4 325.4 326 326.2 321.5 315.6 310.8 301.5 305.4 311.4 322.9 329.9 332.2 332.2 336.7 334.4 344.6 349.8 359 372.6 381.6 393.4 404.5 411.6 418.7 432.4 450.8 457.1
208 209.1 209.8 209.2 211.2 214.8 213.5 217.3 230.4 245.6 261 268.4 269.1 270.6 271.9 287.6 303.3 309.6 314 318.5 313.5 298.8 292.2 304.1 310.8 317 323.7 335.3 349 356.1 357.7 356.4 350.3 348.4 345.3 346.7 349.2 351.4 353.5 356.7 360.4 364.4 367.4 371.9 379.3 385.6 393.5 405.2 422.2 426.4 425 420.9 416.1 409.3 403 396.2 387.3 380.4 374.6 369 363.4 359.3 354 349.2 346.2 341.8 337.5 331.1 325.8 322.6 320 317.4 314.6 311.6 308.8 304.9 300.2 295.9 283 275.6 271.5 270.4 256.4 249.4 242.2 234.5 228.7 222.8 216.9 209.7 212.8 210.5 207.7 198.6 188.1 187.2 180.1 176.5 173.8 172.4 170.6 166.6 158.4 157 157.2 157.8 157.3 151.7 158.1 161.1 161.3 168.6 176.9 182.8 188.8 194.1 200.7 207.7 208.3 210.5 218.4 222.9 225.4 225.8 223.5 228.9 233.1 232.3 235.9 240.5 247.4 252.8 255.5 256.1 263.5 268.8 275.1 281.7 287.3 292.4 297.2 301.8 306.7 312.5 323.6 338.8 357.7 372 382.1 391.6 392.5 391.2 390.4 387 381.6 374.7 368.8 360.6 350.1 339.2 330.6 326.7 323.8 320.4 310.9 302 309.4 312 312.7 314.6 315.4 315.7 316.3 318.5 318.4 319.2 316.3 312.2 306.1 299.1 290.7 312.2 321.5 326.9 328.3 330.7 332.9 333.6 341.2 348.8 359.1 371 380.5 393.6 403.2 410.8 421.9 440.7 457.7 460.2
202.6 203.3 205.1 204.3 207 212.8 213.7 213.6 227.4 243.9 259.6 264.4 263.4 264 270.4 286.7 301.7 308.6 311.1 317.6 313.2 298.9 287.4 301.1 306.4 311.8 317.9 323.7 333.7 341.1 346.9 349.9 346.3 339.5 336.9 339.6 342 343.7 345.7 348.4 352.4 356.5 361.2 366.4 372.3 378.2 388 399.3 416.5 425.7 427.4 424.4 421 416.2 410 403.7 398.7 394.5 388.3 381.8 373.2 367.7 361.1 354.5 349.2 344.7 340.3 334.2 327.6 323.5 319.7 316.4 313.6 311.9 308.6 305 299.4 294.1 290.6 279.1 273 267.2 258.6 252.6 246.4 238.5 231.3 226 218.9 214.9 212.5 206.4 202.6 204.4 188.2 188 185.6 179.9 176.2 172.2 171.2 168.2 162.9 156.6 156.4 156.8 157.5 154.3 157.3 161 161.7 167.7 176.2 182.7 190.1 196.6 206.5 208.3 207.9 211.1 218.6 220.6 221.8 222.5 219.3 226.5 229.6 229.2 231.8 237.3 245.2 248 248.7 254.8 263.7 269 274.5 280 284.8 290 296 300.7 305.6 314 326.4 343.5 360.7 371.9 382 388.6 390.1 390.3 390.2 388.3 384.4 378.5 372.1 364.5 354.5 343.5 336.5 332.2 329 325.4 321.5 303.5 299.8 304.1 306 309 310.4 311 311 312.1 311.2 309.8 309.1 306.7 300.2 298 303.7 311.6 318.9 323.8 324.8 328 328.4 331.9 337 346.4 357.9 369 379 392.6 401.4 410.2 425.1 449.6 459.8 461.6
200.5 200.3 199.9 200.5 205.3 210.7 211.8 218.8 228.3 237.5 249.8 252.3 256.3 263.7 270.3 286.4 299.5 307.1 308.5 310.5 306.9 294.9 284.1 297.7 302.1 307.7 312.2 315.6 320.6 325.8 332.9 339.5 338.3 333.8 330.7 332.5 332.8 336 338.9 340.6 343.8 347.8 355.4 361.3 366.8 372.5 382.1 394.3 412.1 422.3 425.1 423.1 421.7 418.8 413.5 407.9 402 397.1 391.6 386.8 381.9 376.4 367.5 356.9 350.2 345.7 341.1 334.7 326.7 321 315.9 313.1 311.3 309.5 306.8 303.1 299.9 295.4 290.3 283.2 275.6 268.3 260.5 254 248.4 241.3 234.4 226.3 220.3 215.1 206.2 198.7 198.9 204.3 194.1 186.4 184.5 183.7 180.5 173.3 171.2 168.8 163.1 156.3 156.5 156.8 158.1 158.7 154.3 161.5 161.5 164.3 174.7 182.6 191.7 201 207.8 207.8 202.4 213.2 219.9 219.9 219.2 218.6 219.1 228.1 229.3 228.1 228.4 235.3 238.1 240.9 250.6 256.6 261.9 266.5 272.3 276.8 281.6 290.3 295.7 299.8 306.9 319.7 331.7 348.9 363.9 372.4 382.8 386.5 389.1 389.3 389.2 387.2 382.9 378.2 374 367.2 356 346.5 340.2 339 337.7 332.7 327.6 321.9 314.2 302.4 296.9 297.9 300.6 305.9 306 306.8 305.7 303.2 301.6 300 292.9 286.6 305.3 309.6 314.8 319.2 323 324.3 323.6 324.3 334 346.8 356.7 366.6 377.9 389.8 399 411.7 431.7 455.7 460.8 460
199.5 195.8 198.1 199.8 202.7 206.4 205.7 216.4 228.8 231.2 236.6 248.8 263.5 271.6 275.7 285 295.7 301.7 305.5 301.5 289.7 287.6 281.2 291.3 298.3 302.1 305.6 309.1 312 315.8 321.3 326.5 329.7 326.9 324.4 324.5 324.8 327.6 332.2 333 335.7 342.1 350.5 356.3 361 368.5 379.1 389.4 406.3 416.5 421.1 420.1 418.1 415.9 411.9 407 401.9 397 391.2 384.9 379.7 376.3 371.9 361.3 351.6 344.8 340.1 332.7 325.1 318.9 314.7 309.3 306.9 305.6 303.5 299.5 296.1 294.6 290.8 285.7 275.2 268.6 261.1 254.5 247.8 242.7 236.2 228 221.5 214.4 207.2 197.7 198.7 203.2 198 185.9 184.7 180.9 179.7 173.5 171.8 170.4 166.6 158 157.4 157.6 157.7 161.4 150.6 161.7 161.5 161.4 173 182.6 191.7 208.4 207.1 207.3 197 212 217.7 218.8 218.2 217.9 224.7 228.1 229.1 227.9 225.9 226.6 229.7 239.7 247.8 254.9 259.4 264.2 270.1 276.8 285.7 292.7 297.1 303 313.6 325.5 342.1 357.2 367.3 376.1 382.8 385 386.8 388.2 388.1 386 383.3 379.7 375 369 361.6 353.5 346.7 347.2 346.5 341.6 336.9 330.6 320.4 312.6 302.3 297.2 289.4 296 300 300.9 300.6 298.1 295 293.6 287.7 292.2 301.7 306 310.7 316.3 319.2 320.1 319.2 319.7 335.2 344.9 356.8 366 376.8 387.5 397.8 415.8 440.1 457.1 459.8 461.6
196.8 195.2 197.2 198.3 201 202.5 206.5 216 223.8 228.6 245.2 257.8 267.2 274.8 278.1 280.4 288.2 295.7 300.8 297.5 277.1 274.9 278.2 281 293.1 296.1 298.3 301 304.1 307 311.7 316.6 320.6 321.8 319 318.2 318.4 319.8 322.9 327.1 331.6 337.2 343.7 350.2 357 366.6 374.4 382.8 398.8 410.2 415.7 415.2 413.6 411.4 408.7 403.3 398.7 395.6 389.9 381 375.7 372.7 369.7 365.7 354.5 343.4 337.8 332.3 324.4 316.1 312.2 308.3 302.8 299.2 296.4 293.5 289.6 290 288.4 285 276.4 266.8 259.3 253.8 246.4 241.9 236.3 229.2 221.9 215.8 209.8 198 199.2 203.3 202 185.6 183.6 177.3 174.1 172.2 171.8 172.9 170 161.1 157.9 158.1 157.5 163.1 156.9 156.5 161.6 161.7 169 182.3 189.9 209.3 207.4 208.5 193.3 211 213.8 215.2 214.4 216 227 226 227.6 228 224.9 225.5 233.7 238.1 249.1 255.9 263.4 266.6 273.3 281.9 289.7 294.6 300.5 309 318.5 335.1 351.3 364.4 371.2 379.2 380.4 381.1 383.1 387.1 388.1 387.5 385.5 382.4 377.1 371 364.5 356.5 352.3 351 348.2 343.6 338.7 333.3 328.2 320.6 312.7 305.3 299.8 291.8 289.3 292.8 294.9 295.9 290.7 288.5 282.3 287.2 293.9 299 305.7 309 313.3 314.5 309.5 322.7 334.5 344.2 357.8 365.8 376.2 385.7 399.7 420.3 448.9 457.9 463 464.2
202.9 207.2 204.5 201.6 200 202.9 206.1 213.4 226.1 241.6 254.7 263.1 272.2 278.2 278.5 278.1 279.3 288.3 295.4 291 270.4 271.3 272.3 272 285.9 288.7 290.7 293 295.7 298.2 301.8 306.4 310.9 312.3 309.2 311 312.5 314.3 316.2 320.8 330.2 332.3 335.1 342.7 353.7 365.1 370.4 376.7 392.7 405.1 409.9 408.8 407.5 405.3 403.2 399.3 395.6 392.2 389.1 379.6 371.7 368.5 365.8 363.6 353.3 342.5 335.2 330.4 323.4 315.1 308.8 304.7 299.8 292.8 287.8 286.2 283.5 281.9 280.9 277.3 269.8 261.6 255.3 250.8 244.9 240.5 235.8 229 222.5 216.5 209.8 198.9 198.4 203.7 202.3 187.2 182.4 175.5 173.1 172.1 171.6 171.8 169 162.5 159.9 158.8 157.7 162.9 162.1 154.5 163.3 161.7 162.6 172.1 186.2 197 208.2 205.6 189.6 207 210.3 210.1 206.9 208 219.8 221.7 222.4 222.9 222.2 226.8 228.8 240.5 250.2 255.8 264.8 269.7 277.7 284.9 291.4 298.7 307.8 318.2 329.8 345.8 356.5 365.6 371.6 376.8 376.3 377.2 381.2 385 385.7 384.6 382.2 378.5 375.2 371.5 365.2 360 358.3 357 356.1 348 343 337.9 332.8 325.8 317.7 309.5 305.2 300.7 292.3 287.6 282.8 287.9 287.1 283.2 279.1 281.7 287.2 292.9 300 303.5 307.1 308 311.5 322.7 333 342.5 356.3 364.5 375.1 384.7 402.6 426.6 451.2 459.9 463.6 463
197 203.9 196.4 189 195.4 203.3 208.9 215.2 231.4 249.4 259 270.6 276.9 279.3 279 278.1 277.2 280.1 287.6 283.3 270.5 270.3 268.3 269.5 278.4 281.7 282.9 284.3 286.2 288.3 291.8 296.1 299.9 302.7 302.5 303.8 304.7 307.7 311.2 314.6 320.7 323.7 328 335.1 343.4 357.8 365.6 373.3 388.2 402.2 404 402.7 402.4 400.7 398.2 395 391.9 390.2 387.9 380.3 372.5 365.8 362.2 360.3 350.4 342 333.3 327.1 321.2 313 307 303.4 299.2 291.3 281.1 276.1 273.3 270.4 267 265.6 260.8 255 250.4 246.5 243.5 239.3 233.6 232.1 226.5 217.1 207.3 199.3 197.2 201.8 196.1 185.7 184.6 178.1 173.9 172.6 171.5 172 166.3 161.3 159.8 159.9 156.3 161.3 162.8 149.1 160.1 160.9 161.9 164.1 178.1 185.5 191.6 191.4 187.9 201.4 207.7 205 202 198.3 210.1 213.6 216.7 218 211.2 223.3 233.1 242.9 254.3 255.9 264.7 270.9 281.8 289.3 297.9 306.5 316.5 332.1 345.5 352.3 360.2 365.9 371.4 372.8 371.4 375.3 379.8 381.1 379.4 379.3 378.3 376.6 374.9 371.6 368.1 364.5 362.2 362.2 358.2 352.7 348.5 342.7 335.9 328.8 321 313.1 306.3 297.3 297.1 295 289.4 283.4 279.2 277.7 277.1 278.2 282.3 286.2 293.8 296.6 301.5 296.5 305.8 319.2 330.7 341.1 354.1 362.5 372.3 385.9 406.1 434.7 452.1 459.6 462 462.8
189 186.2 186.5 193.1 200 204.8 206.6 214.8 232.6 246.2 261.3 272.4 278 279.9 279.9 279.7 279.8 281.3 281.6 277.3 270.5 265.4 268.6 267.1 276.5 274.3 274.9 276.1 277.3 278.7 281 285 287 289 291.5 293.5 295.7 299.6 304.2 309.5 312.7 316.4 317 327.3 338.1 350.1 359.4 371.1 386.2 396.1 397.8 397 397.3 397.3 394 391 388.4 386.5 385.1 381.2 373.6 366.2 359.8 354.5 345.9 338 329 322.3 316.3 305.5 301.2 299.4 294.2 287.8 278.6 269.3 263 261.2 262.6 259.1 253.7 249.9 245.5 241.6 239.3 235.8 232.3 232.9 232.1 225 206.7 201.2 195.2 198.1 188.9 182.8 179.9 177.3 174.5 172.1 171.7 171.8 167.2 160.5 156.6 155.6 155.6 155.7 158.2 148.4 158.2 156.4 160.6 162.8 168.4 177.1 184.1 186.5 186.5 194.2 204.5 202.6 200 192 196.4 204.1 209.5 203.9 213.3 218.8 224.9 238.8 247.6 254.3 262.9 272.6 283.5 293.3 303.2 315.7 329.7 343.2 350.6 357.2 362.3 367.9 369.2 368.3 368.7 372.6 375.2 375.4 374.8 377.9 379.9 381.2 380.9 379 374 369 365.3 363.4 359.8 355.2 350 343.8 337.1 330.5 320.5 316.3 308.8 307.2 303.1 299.2 293.8 288.9 282.5 276 272.8 274.3 277.5 280.2 284.5 291.3 296 291.3 302.3 316.8 329 339.5 351.5 361.1 371.3 386.2 408.6 438.6 452.8 457.5 460.1 461.9
177.6 185.2 193.1 199.2 202.6 205.6 206.7 213.3 228.8 240.6 255.4 267.4 277.4 279.4 280.4 280.6 280.7 280.7 280.7 278.5 274.9 271.4 265.3 269.3 274.7 266.9 268.3 268 269.2 270.2 270.6 271.4 272.8 275.4 278.4 282.2 284.4 289.7 295.9 302.7 306.5 310.9 314.8 323.6 333.7 344.9 352.1 367.6 385.2 390.9 391.5 391.6 391.3 391.5 390.3 387.3 384.8 382.9 381.7 374.7 369.7 362.4 356 348.1 338.9 330.4 323.9 317.5 309.9 300.6 297.2 295.3 287.4 284 276.6 268.4 260.8 254.8 252.4 249.2 247.7 246.4 242.1 237.8 234.5 231.1 230.4 230.6 230.2 221.7 203.8 201.8 196 189.8 184.4 181.9 178.1 175.8 175.3 172.6 173.1 167.9 162.3 158.6 155.6 155.4 155.5 155.6 157.5 154.2 156.8 156.6 157.9 159.2 159.3 165.8 175.2 181.5 182.4 182.7 194.8 198.2 198.5 194.2 189.5 193.8 199.5 203.3 211.1 218.1 223.6 228.5 244.1 255.3 263.9 271.9 283.4 296.9 308.9 325 338.4 344.7 347.3 352.7 360.1 364.6 364.4 363.4 369.1 370.6 370.6 370.9 373 379.6 384.2 385.7 385.3 383.2 379.6 373.6 368.7 365.1 361.2 356.4 351 344.8 338.2 332.1 326.8 320.6 316.6 312.9 308.1 302.6 296.7 292.7 287.7 282.2 276.6 273.3 273.1 277 280.5 286.2 289.3 289.5 303.8 315.3 326.9 339.1 349.8 359.9 371 387.1 411.9 440.4 450.7 454.4 457.4 460.1
182.1 188.3 193.7 198.5 199.4 200.7 203.2 208.4 222.5 237.8 250.5 261.7 274.2 279.3 280.3 280.3 280.7 281.8 281.2 282.6 281 276.2 268.6 265.2 267.3 263.3 262.4 261.9 261.2 261.9 259.7 257.9 259 261.8 265.2 269.3 273.3 279.8 287 293.6 299.7 305.2 310.6 316.4 323.3 335.3 346.6 364.8 382.4 386.4 387.3 386.4 386.4 387.3 387.9 385.1 377.2 368 368.2 365.4 362.1 359.1 354 347 336.1 325.7 317.7 310.7 303.1 295.8 291.7 286.5 281.8 278.9 273.2 265.5 258.5 254 248.2 244.3 242.2 241.9 239.2 234.7 230.4 228.5 228.1 220.7 218.4 213 206.1 201.9 195.9 187.4 191.2 183.2 178.4 175.9 175.7 175.1 173.9 171.2 161.5 159.1 156.4 155.6 155.6 156.3 156.7 156.2 155.2 156.4 156.2 157.7 157.3 156.9 164.5 172.4 177.6 174.6 186.7 191.9 195.8 196.2 190.3 191.4 195.8 202.6 208.9 217 225.5 235.4 245.8 255.6 264.8 272.8 283.9 297.6 311 326.3 338.3 340.2 341.3 344.2 353 358.3 358.6 364.3 368.2 368.7 368.7 368.8 373.4 381.2 381.8 382.7 383 381.7 379.3 375.3 371.7 366.4 362.4 357.5 351.2 344.1 339.5 334.5 329.3 324.9 322.3 319.7 314.9 310 307.4 300 292 286 279.7 274 269.5 274.3 276.9 279.5 281.8 290.7 301.4 312.4 325.8 337.1 348.3 359.5 371.5 388.7 414.9 438.4 446.9 451.3 454.4 456.5
180 183.6 189.6 194 194.2 194.5 196 200 214.6 230.4 243.9 254.7 265.5 276.2 278.1 279.1 279.6 281 281.6 282.1 282.5 280.2 269.8 262.7 259.5 256.9 255.4 255.2 254.1 252 248.6 245.6 246.8 249.8 253.3 257.2 263 270.2 277.4 285.2 291.2 297.2 305.1 309.6 315.5 330.1 343.8 364.2 376.9 380.7 383.5 382.2 382.3 383.6 383.6 381.3 365.8 362.9 362.1 360.8 360.1 358.7 351.3 345.1 335.6 324.5 313.4 304.3 297.4 289 283.9 279.9 275.4 271.1 267.2 261.3 257.2 252.8 247.9 245 241.5 238.5 235.5 231.7 225.2 220.5 217.8 214.8 211.3 207.8 202.7 198.9 196.2 193.7 190.9 182.7 179.9 179.4 179 178.6 174.6 172.7 166.8 160.9 158.1 155.6 156.3 156.5 156.6 156.4 148.4 156.4 156.2 156.1 155.8 155.1 154.5 162.8 171.3 173.7 178.6 186.6 193 194 187.8 188.1 192.1 198.6 205.5 216 227.5 237.9 244.9 255.1 264 271.6 282.4 294.5 307.3 322.5 333.1 334 334.7 335.8 343.1 351.3 352.9 358.9 364.6 366.2 366.5 367.3 374.7 380.7 383.2 384.2 383.4 383 380.2 376.9 372.9 367.7 363.2 357.5 350.9 346.9 342.5 337 330.8 332.6 329 327.5 323.2 319.8 312.8 305.9 298.6 290.3 282.4 274.6 267.8 272.6 273.4 275.6 281.4 288.7 299.1 313 326 334.5 347 358.2 372 391.1 419.8 434.9 443 447.8 451.8 452.9
178 179 183 187.7 188.2 187.1 186.8 186.7 204.2 219.8 233.3 244 255.6 267.3 276.8 277.2 277.9 278.3 278.8 279.1 276.5 272.3 262.9 253.9 249.5 250.3 252.6 253.2 249 246 241 237.2 237.6 240.7 244 247.2 252 257.8 267.2 277.1 284.6 293 299.8 302.6 314.1 327.4 345.1 360.7 370.3 374.6 377.4 378.3 379.7 380.7 380.5 378.7 374.7 371.8 368.6 366.1 360.7 358.4 349.1 342 333.4 323.8 315.1 306.2 300 289.2 282.2 275.8 272.3 267.7 262.3 258.2 253.4 249.3 245.4 241 236.7 232.9 230.4 225.6 218.6 213.1 210.9 208.3 205.6 202.1 198.2 194.2 190.9 193.1 190.6 188.1 185.1 182.6 180.4 178.2 175.2 172.6 170.2 162.5 160.2 155.7 155.9 156.6 156.6 156.6 147.9 155.5 155.2 154.4 154.6 154.3 150.5 152.7 162.4 168.2 168 179.9 186.5 186.3 182.9 184.3 189.2 195.8 203.3 212.6 224.3 235 244.5 254.7 261.8 266.9 274.9 286.9 300.4 314.1 325 328.2 328.7 329.4 332.9 340.3 345.8 351.9 359 362.1 363.1 367.1 377.1 380.7 385.3 386.7 384.7 385.2 383.2 379.4 374.5 369.6 362.5 358.4 354 349.2 343.3 337.6 337.2 336.7 335.5 333.1 329.5 325.6 320.4 314.2 304.8 295.3 286.3 276.7 267.4 271.2 271.3 273.2 279.6 288.2 297.9 311.8 325.1 335.5 345.2 359.2 374.6 393.2 421.2 431.2 439.5 444.6 448.8 450.4
174.4 176.5 178.2 183.4 185.6 184.2 182.8 185.9 193.4 208.5 220.9 233.6 249.3 260.2 272.3 274.4 275.1 274.9 274 270.6 265.9 257.5 249.1 242.7 249.2 250.8 254.4 253.3 248.3 242.8 238.2 234.5 232.7 234.8 237.3 240 244.1 249.2 258.7 273.1 283.1 295.4 296.2 301.4 313.1 327.2 345 358.6 364.7 368.1 371.5 374.7 377.7 379.1 379.1 378.3 376.5 373.9 369.7 365.6 359.5 352.1 344.3 337.3 330.3 323.4 317.2 310.1 302.7 292.3 286.3 280.9 275.1 268.9 262.5 256.8 251.3 246.7 241.7 237 233 229.3 226.1 222.6 218.1 214.3 210.3 204.9 199.9 196.7 193.9 191.3 189.3 190.1 188.9 185.1 182.4 180.2 179.4 175.1 176 168.7 164.4 163.1 160.3 159 155.7 156.6 156.6 156.6 152.1 154.1 154 152.8 151.3 150.9 150.7 150.6 151.7 162.3 164.9 170 177.9 178.5 176 179.5 186.6 191.7 200.2 208.3 220 231.6 242.4 252.2 258.2 260.9 266.2 279.8 291.6 304.6 314.7 320 320.1 321.7 325.3 330.2 337.4 344 352.7 358.1 361.2 366.5 376.1 380.6 387.8 385.2 383.7 383.1 381.5 379.1 375.7 371.4 366.6 361.5 356.5 352.2 347.5 343.7 342.6 342.1 343.9 341.9 336.4 331.5 326.4 318.5 309.8 298.1 288.6 277.5 267.9 264.7 268.2 271.2 278.8 287.3 296.6 310.6 323 333.6 346.2 359.7 377.1 399.3 417.4 426.6 434.4 440.7 445.8 448.1
166.6 170.4 174.1 179.5 182.7 181.6 181 184 187.4 193.8 206.3 221 238.2 251.6 258.5 264.8 268.7 269.9 260.8 258.3 253.5 242.1 232.6 237.6 244.8 252.4 259.5 255.5 250.1 243.7 237.9 233.9 230.6 230.1 231.6 233.5 239.3 246.7 259.2 272.8 280 291.1 293.5 301.3 312.6 327.4 345.9 352.1 358.3 362.4 366.9 372.2 375.5 378 381.5 384.1 383.5 379 372 366.2 359.8 351.4 341.9 333.6 329.4 324.3 318.8 310.8 304.6 297.2 289.6 283.8 278.1 272.4 266.5 260.1 254.8 250.7 246.7 242.7 239 235.1 233 230.6 227.2 223.9 218.4 207 198.8 194.9 196.6 195.9 194.4 192.1 189 187.2 184.6 181.4 179.6 174.6 176.6 166.1 163.9 162.5 160.6 159.8 155.2 156.4 156.5 156 155.3 153 152.4 151 150.7 150.7 150.7 150.4 150.3 150.4 159.1 159.1 167.3 173.8 174.5 178.5 183.3 186 195.3 204.5 214.9 226 237.2 248.1 254.1 256.4 260.7 272.2 282 293.5 303.9 308.5 308.5 314 317 321.7 329.1 338.1 349.1 355.7 359.4 366.8 373.1 379.8 384 384.4 385.8 386.4 385.3 383.4 379.6 375.1 369.9 364.9 360.1 355.3 350.2 348.7 351.1 350.7 351.6 347.9 342.3 337 332.2 319.8 307.3 297.1 289 280.1 267.9 264.6 266.3 270.5 276.6 284.9 295.9 310.4 322.8 333.8 348.5 367 383.4 402.6 414.3 421.4 428 435.6 442.3 445.7
160.5 164 167.2 174.1 178.7 177.4 177.3 179.6 184.4 189.4 197 208.5 226.4 241 250.8 252.9 252.6 251.1 251.3 245.3 236 227.4 228.6 231.9 238.7 249.8 262.7 259.9 251.6 244.4 238.1 233 229.2 227.3 228.1 232.5 238 247.4 261 270 277.9 286.7 292.9 299 313.9 324.2 341.4 338.9 353.6 359.1 364.6 370.8 374.1 383.3 389.3 392.2 392.1 387.1 378.5 369.7 361.8 353.3 343.3 334.6 329.4 325.3 318.8 312.2 306.1 299.2 291.5 286.3 282.4 277 270.1 263.5 257.5 253.9 250.2 246.5 242.7 238.7 234.7 231.2 227.3 221.1 215.1 205.4 201.3 205.7 205.1 203.6 201 196.1 193.3 189.6 188 186.6 184.2 182 177.1 171.8 167.9 165.1 160.7 160.9 156.2 156.7 156.7 156.7 156.5 150.4 150.8 150.6 150.4 150.3 150.2 150.1 150.2 150.2 150.2 156 156.9 162.8 173.8 180.3 181.7 181.7 188.5 201.1 210.6 222.2 233.6 243 248.4 251.3 255.1 262.5 272.6 280.5 290.4 293.4 295.2 305.6 307.2 313 319.9 332.1 345.9 353.2 358.6 365.3 370.4 377.4 382.6 385.2 389.6 391.2 389.5 386.9 383.4 379.4 375.7 371.4 366 360 359.4 361.8 361.2 361.2 359.5 354.4 348 342.1 335.1 321.6 308.9 298.6 289.6 280.8 273.2 264.2 264.9 268.1 275.5 283.5 295.3 309.6 323 335.3 357.3 376.5 390.8 400.6 409.2 416.2 422.7 431.7 438.6 443.3
154.9 157.9 162.1 167.8 174.1 173.8 172 173.6 179.7 186.6 192.5 200.5 214.7 228 238.3 245.8 245.8 244.9 242.3 232.7 223.5 224.6 227.2 230.3 234.2 248.9 257.3 257 251.9 244.4 236.8 232.4 228.4 226 227.9 232.7 239.3 250.5 261.4 265.1 272.4 280.6 289.2 297.5 310.9 319.8 338 341.1 349.9 357 362.8 369.6 382.2 393.1 400.6 400.8 399.2 392.8 384.7 375.2 365.7 357 346.7 337.2 331.4 326.8 321 314.9 308.8 303.7 297.6 293.2 288.3 280.8 274.4 267.9 261.6 256.8 252.5 248.9 244.8 240.7 235.6 230 225.3 216.6 218 213.6 212 211.9 210.4 209.1 206.9 203 200.4 197 192.2 187.8 187.3 186.2 178.9 176.5 173.4 167.4 161.5 160.2 159.7 156.5 156.6 156.7 156.7 146.1 150.3 150.3 150.3 150.3 150.3 150 149.7 149.7 149.8 150.4 153.2 155.8 166.7 174.8 178.9 179.4 184.9 195.9 208.6 219.3 230.4 238.1 242.8 246.3 248.6 252.8 262.1 270 275.9 279.3 284.7 292.5 297.5 298.9 314.4 330.6 346 350.1 355.6 361.5 368.8 375.9 381.9 387.2 392.9 397.7 397.3 395 392.3 389.2 386.3 381.7 376.8 372.2 370.9 370.9 367.7 366.5 362.2 356 349.4 343.2 336 320.3 304.1 295.9 288.6 277.8 272.4 262.7 263 267.6 274.8 282.4 294.4 308.9 323.7 341.6 364.4 378.6 390.2 398.2 404.8 410.6 416.7 427 434.7 440.3
151.3 154.3 160.7 163.3 167.8 169.4 166.9 169.3 175.1 182.7 187.7 193.5 203.6 210.7 220.2 228.6 239.7 239 233.6 222.8 221.3 223.5 226.5 230.1 236 245.4 251.6 251.8 247.6 240.4 235.3 231.5 227.3 224.7 227.7 234.6 243.2 253.8 258.6 263.1 270 277.1 285.3 295 305 314.9 328.2 336.9 348.2 356.8 366.7 380.6 392.6 404.1 410.2 409.4 404.7 398.1 390.3 381.6 371.2 360.8 353.5 341.8 334.6 330.1 324.2 318.7 315.5 312 306.2 300.7 293.9 287.4 280.5 271.8 264.8 258.5 253.9 251.1 247 241.5 234.9 229.5 227.5 226.7 223.9 220.9 219.2 217.5 215.6 213.9 212.1 208.9 206.2 203.4 199.2 194.4 192.3 190.1 184.6 177.7 174.9 172.1 165.8 162.2 160.1 159.3 156.5 156.6 155.8 149.3 153 150.5 150.4 150.4 150.4 150.1 149.7 149.3 149.8 151.1 151.6 150.9 153.9 159.4 165 174.3 180.7 190.3 204.8 217 225.8 231.5 237.2 240.4 241.8 245.7 253.5 260.3 262.8 266.7 275.5 281.9 285.1 295.6 310.9 331.6 343.4 347.8 353.6 359.8 367.8 374.3 382.5 388.8 398 405.5 410.7 412.3 410.2 406.1 401.3 395.9 390.6 385.6 379.2 374.8 372.3 368.3 362.8 356.9 350.6 341.5 332.1 315.8 298.9 290.6 281.2 271.8 267.1 262.8 261.3 265.5 274.1 282.1 295.3 310.7 323.1 347.6 366.5 377.4 387.2 394.7 399.1 404.6 411.6 422.8 431.9 437.7
149.2 154.8 159.3 161.9 163.4 164.1 162.1 165.4 170.5 177.1 184.4 188.4 195.7 200.9 204.9 212.4 220.5 222.6 219.7 217.5 219.1 221.5 224.9 229.3 234.5 237.3 240 241.7 241.4 236.8 232.4 229 225.3 223.6 228.4 236 244.3 251.4 257.1 262.2 268.5 274.1 279.9 288.6 298.5 309.8 324.7 340.3 348.8 357.7 374.2 390.5 402.4 412.5 413.8 413.2 411.1 404 395.3 386.7 378.2 369.6 360.5 350.8 341.8 335.7 329 326 323.8 321 315.2 307.5 300 292.7 285.9 276.9 268.2 260.3 255.5 252.3 249.8 240.8 235.3 233.4 232.2 231.4 229.4 227 225.3 223.4 221.8 219.1 216.9 213.7 210.7 209 205.3 199.8 195.8 191.1 187.4 179 178.8 177.8 174 168.2 163.6 160.7 155.1 155.5 153.6 150.9 150.4 150.5 150.5 150.5 150.5 150.1 149.7 149.2 149.1 149.6 150.2 150.8 151.7 153 154.5 163.6 173.2 181.9 194.4 212.7 217.8 224.3 229.4 233.3 235.9 239.7 244.6 251.2 258.4 258.4 266.2 267.4 275.5 288.5 306.8 331.5 343 346 351.5 357.8 364.9 372.4 381.6 391.2 402.7 416.2 425.7 428.5 424.7 419.1 413.4 406.6 399.3 391.2 384.8 379 375 370.1 363.6 357 349.9 338.4 324.1 309.8 299.2 287.3 277.8 270.4 264.6 260.7 259.8 263.3 274.1 283.3 298 313.6 327.2 351.3 364.9 373.7 382.6 389.4 394.5 399.4 406.5 420.1 429.6 436.7
146.8 150.6 153.3 155.2 156.1 156.1 156.8 160.2 168.3 174.7 180.8 185.8 189.8 195.4 200.5 206.3 209.6 211.1 211.4 213.8 216.6 218.8 222.4 226.5 228.7 233 232.5 233.1 233.5 232.6 229.2 225.6 223.4 224.1 234.5 236.8 240.8 249.4 255.7 260.2 265 269.5 274.6 283.6 292.6 305.1 320.1 336.9 346.9 361.1 379.5 395 406.3 411.8 414 413.4 412 407.9 401.5 394.6 387 379.1 370.3 361.3 352.1 344.3 340.4 335 332 327.5 321.1 312.1 302.8 294.6 288.7 280.3 270.1 262.5 258.5 252.4 245.8 245.9 245.4 243.7 242.4 241.4 241.5 239.3 236.7 234.2 231.1 225.8 221.8 219.4 219.3 219.1 211.2 207.5 203.1 194.8 192.3 181.3 180.3 178.6 176.4 172.5 167.8 165 159.3 156.5 152.8 153.3 144.7 153.4 150.8 151 150.3 149.8 149.3 149.2 149.1 149.4 149.5 150 151 151.7 151.4 156.9 163.4 172.8 186.6 200.9 210 215.6 219.4 224.3 228.3 232.3 237.2 241.8 244.6 248.7 253.4 261.1 281.1 286 305.8 329.6 341.1 344.1 349 356 363.6 371.4 381.5 393 408.7 425.5 440 439.8 436.1 430.2 423.9 413.9 402.2 391.2 383.7 377.5 373.4 369.3 363.2 356.9 350.2 336.8 318.4 306.3 298.3 287.6 276.4 269.9 263.8 258.9 258.7 263.1 275.4 285.3 300.4 314.1 328.9 348 358.7 368.8 376.8 383.6 390.5 395.4 402.3 416.3 428.2 436.1
142.8 144.8 148 147.4 161.6 163.8 165 165.6 169.2 173.1 177.6 182.6 186.7 190 191.9 200.3 204.4 203.6 206.5 209.4 212.2 215.5 219 222.6 223.7 225.3 226 226.9 226.7 226.6 225.4 223.3 222.4 218.5 227.2 237.4 240.8 247.6 252.7 257.9 260.7 262.4 269.3 277.4 287.4 301.1 314.8 329.4 342.2 360.8 379.8 394.7 404.9 408 409.7 410.6 411.9 410.7 406.8 401.6 394.9 386.6 378.6 370.4 362.2 353.4 346.2 340.5 337.1 331.2 324.5 315.8 305.6 295.5 289.2 281.6 274 267.7 259.8 256 252.7 255.1 255.5 254.5 255.8 257 256.9 256.9 254.4 252.3 249.3 244.3 239.4 234.4 232.1 226.7 218.5 213.5 204.9 196.8 194.5 190.4 181.7 180 177.3 175.6 173 167.8 162.4 159.2 154.9 152.9 150.6 146.9 152.8 150.4 150 149.5 149.3 149 149.1 149.1 148.8 148.9 149.3 149.4 148.2 148.8 155.8 166.8 179.7 190.9 202.3 208 213.3 216.2 220 225.7 230.7 233.8 237.4 244.6 265.3 271.5 285.2 288.1 300.8 325 337.2 341 347 354.3 362.4 371.4 381.4 394.9 413.7 435.1 444.6 443 438.8 429.8 421.1 414 402.4 389.7 380.8 373.8 370.4 366.4 361.8 355 346.6 334.2 315.5 303.9 295.9 285 272.8 266.1 259.2 257.4 258 267.8 276.1 285.6 300.3 313.8 326.5 344 354.9 365.2 373.7 380.6 388.3 394.7 405.4 419 426.8 436.9
143.3 145.5 149.2 153.6 160.5 164.1 165.8 167.8 168.6 170.9 174.7 179.6 184.1 187.2 189.5 192.1 196 198.5 201.9 205.3 207.9 211.2 214.7 217.3 219.9 220.5 221.7 222 220.7 220.9 219.8 217.1 213.4 218.5 231.1 238.9 244.5 248.7 251.9 255.7 257.4 258.3 262.4 269.2 281.9 294.8 307.8 322.6 336.7 356.1 375.3 392.6 401.9 404.6 407.8 409.9 412.7 413.4 410.8 408 403.7 395.9 386.3 379 370.4 362.1 353.9 345.1 339.7 334.5 328.1 317.2 307.8 296.8 290.3 283.8 278 272.9 263.9 260.5 263.6 267 269.7 272.2 273.1 274.3 274.4 275.4 274.5 272.7 269.3 264.3 259.7 253.9 247.4 239.3 230.7 221.4 212.6 202.9 196.6 197.1 186.2 182.4 180.6 180 177.7 171.6 165.5 161.6 158.5 154.7 150.8 146.6 146 152.7 149.7 149.4 149.4 149.2 148.8 148.5 148.1 147.7 147.8 147.4 146.3 145.8 148.9 157.5 171.9 184.4 194.8 199.9 206.8 209 214.2 220.7 224.9 228.5 233.8 242.6 266.4 285.8 288.3 290.1 296.5 320.7 331.1 337.4 344.3 351.3 360.8 370.5 382.4 398.1 419 442.5 444.1 439.7 435.9 425.6 415 409.9 402 387.2 376.5 369.3 364.8 362.9 358.9 351.8 344.4 329.9 311 299.4 288.4 278.9 269.5 262.5 256.6 256.1 258.8 268.6 276.9 287 300.4 315.4 325.3 342 353.9 363.8 374.2 381.3 389.4 399.8 417.1 430.4 436.8 438.2
143.3 146.3 149.7 153.1 157 160.4 163.6 163.6 167.6 169.9 171.8 176.4 180.9 184.4 187.6 190.1 193.3 195.6 198.3 201.4 204.3 206.8 209 212.7 216 215.8 216.5 214.8 215 214.6 213.8 209.2 208.9 223.4 232.3 239.2 244.8 247.7 249.9 251.1 253.2 255.3 257.4 263.2 273.7 285.8 302.5 319.1 335.6 354.5 374.2 389.7 398.7 401.8 405.6 409.7 412.4 415.5 416 413.5 406.9 398.5 390.9 385.1 378.4 368.5 360.2 351.1 342.4 336.1 330.1 317.2 306.7 296.8 291.6 285.6 280.4 274.6 273 272.1 274.4 277.4 282.4 287 291.2 293 294.9 295.6 294.4 292.9 292 285.4 277.8 271 263 253.5 243.6 235 223.9 212.9 202.5 197.3 196.1 183.7 183.1 182.9 183.1 177.1 169.7 164.3 160.7 157 153.5 149.7 144.3 145.7 149.6 148 149 149.4 148.6 148 147.5 147.2 146.7 146.5 146.5 146.5 146.6 150.2 162.6 176.6 187.1 191.7 197.5 203.6 208.2 212.8 218.8 223.4 227.8 242.6 267.6 287 280.9 280.6 297.4 318.5 328.9 335.1 342.2 348.3 357.4 368 383.4 400.8 425.2 444.8 442.1 437.5 431.4 419.2 409.9 406.1 399 384.6 372.1 364.6 360.1 356.3 355.2 348.9 337.8 321.9 307.6 294.5 284.4 274.6 267 259.6 254.8 255.1 258.6 267.9 276.7 288.4 304 316.6 333.2 347.3 356.7 366.7 375.7 384 393.8 409.3 427.2 438.6 446.3 449.4
138.9 141.8 145.2 148.9 151.4 153.7 156.9 162.7 167.1 169.9 170.4 173.8 178.3 181.3 184.6 188.3 191.8 193 194.2 197.4 200.2 202.5 204.3 207.1 209.7 211.3 209.8 208.2 208.1 208.8 207.3 199 214.8 224 232.4 238.2 243 245.5 245.8 246.2 247.7 252.6 255 258.8 268.9 279.8 296.8 314.4 332.8 354 371.3 386.9 395.7 399.3 403.4 407.5 411.9 416.5 418.2 414.5 407.9 400.1 394.5 389 383.6 374.7 364.3 354.7 346.2 335.7 327.7 315.4 302.9 297.3 292 286.4 281.7 281 282 283.8 287.3 290.5 297.1 304.1 309.7 312.5 314.7 315.2 315.1 310.9 306.9 301.9 292.7 283.7 274 264.5 254.9 244.7 234 223 211.5 202.9 197.6 194.5 183.6 187.8 183 179 176.5 169.8 162.2 160.6 156 152.8 149.5 147 142.7 145.8 149.2 148.3 148.6 147.7 147.7 146 145.7 145.5 145.6 145.7 146 148.4 156.9 170 179.4 187.5 191.8 197.8 201.5 207.1 212.3 215.5 221.9 233.7 248.3 254.1 264.6 282.6 300.5 317.6 324.7 332.1 339 344.8 354.6 366.6 382.5 403 431.1 444.3 440.8 436 429.5 419.5 404.3 401.7 392.2 381.1 369.1 359.7 354.1 348.9 348.2 343.2 332.6 314.2 304.5 291.8 282.3 272.8 265.6 259 253.9 254 261.4 269.4 277.7 289.3 304.9 316.8 337.2 354.7 360.9 370.8 379.7 386.9 398.5 419.7 433.7 443.9 452.4 457.1
134.6 140 142.3 145.9 146.9 151.8 158.5 161.4 164.3 167.6 168.2 171.7 176.4 179.5 182.2 184.2 187.8 190.7 192.2 192 194.8 197.7 200.4 202.2 203.6 206.1 203.1 201.9 202.2 201.2 195.2 201.1 212.9 221.6 231 237.7 240.2 241.6 242.1 241.2 241.9 248.5 251.5 255.9 265.1 276.9 292.1 308.8 327.6 349 366.4 382.1 393 397.1 401.5 405.7 410.2 414.8 418.4 416.5 409.2 403.6 397.8 392.4 387.1 379.3 367.4 356.5 346.5 335.2 326.2 315.1 307.6 300.8 294.8 290.2 290.6 291.4 293.8 296.9 302.6 310 317.5 323.2 327.5 329.9 331.1 331.9 331.3 327.8 321.5 312.7 304.3 295.3 286 274.6 263.2 252.9 243.8 232.6 221.3 211.2 201.9 195.7 193.3 184.7 188.5 182.8 181.2 174 167 161.3 157.5 154.1 151.2 149.9 148.8 150.1 146.6 142 147.2 147.9 146.7 145.8 145.3 144.9 144.7 144.9 145.4 147.2 155.5 163.7 172.2 178.2 187.1 191.4 195.5 200.6 204 210.4 217.7 224.4 231.6 246.1 266.1 282.4 301.3 314.4 321.7 329 335.7 341.5 352.2 364.9 381.8 402.4 434.3 442.8 438.3 432.7 427.3 419.6 401.3 395.5 386.4 377.5 365.7 356 348.9 341.6 342.4 339.3 328.4 311.2 297.9 287.3 280.2 272.7 265 259 253 255.7 264.4 270.5 277.3 289.1 306.8 319.9 339.9 357.5 364.3 374.6 381.8 390.4 407.3 425.3 437.4 448.1 456.1 461.8
136.2 140.4 142.6 144 147 151.4 154.7 157.4 161 163.9 165.1 169.4 174.5 178.1 180 181.1 184.4 187.1 188.9 187.7 191.3 195.8 196.8 196.2 196.1 196.8 196.7 195.8 195.6 192.8 196.9 204.2 212.4 221.4 229.7 235.2 237.9 236.4 236.8 237.6 238.3 242.9 247.1 252.4 262 274.6 289.2 301.7 319.5 342.9 361.9 377.5 390.2 394.9 399.4 403.9 408.1 412.3 415.8 417.9 411.2 405.6 399.9 394.4 388.7 381.1 369.5 356.4 346 335.8 325.5 319.5 313.2 307.9 301.6 303 301.8 304.6 308.3 311.9 318.3 325.4 332.6 339.1 345.3 348 349.3 351.5 349 342.8 334 325.4 317.6 303.9 293.2 282.9 274 263.3 251.1 240.4 230 219.6 211.4 202.8 200.2 196.1 186.8 187.2 183.4 178.2 171 163.8 160.1 158.1 155.2 154.3 154.8 155.2 152.8 147.8 141.1 147.6 146.8 145.8 144.9 144.8 144.9 144.6 144.8 147 154.2 158.3 165.7 171.9 177.2 185.6 189.2 191.3 199.6 204.8 210.8 218.3 228.8 246 264.6 282.2 299.6 312.4 318.5 325.5 332 338.3 349.7 362.9 379.9 402.7 434.1 439 434.7 428.8 423.3 417.1 399.7 392.9 382.7 373.4 362.9 352.9 344.1 333 336 331.5 321.9 311.3 295.5 283.2 277.5 270.8 264.1 256.6 252.8 258 266.4 272.6 278.6 291.2 307.1 321.6 340.2 357.6 366.9 377.6 384.2 396.1 415.5 429.3 441 450.6 458.9 464.9
132.2 136.9 141.2 142.8 144.5 147.3 149.3 152.9 157.6 161.2 162.4 167.1 172.2 176.1 176.9 178.4 181.3 184.2 185.5 186.4 191.2 195 193.7 191.2 190.1 191 193.3 190.4 189 194.9 194.3 206.3 213 222 226.2 231.8 233.6 232.3 231.6 233.5 235.1 237.8 243.3 250.2 259.8 271.4 284.4 297 315.9 336.4 356.5 373.3 387 392.6 397.7 401.9 407 410.2 413.5 416.1 412.8 406.9 401.6 396.1 389.9 382.6 369.9 357 349.5 340.9 333.6 328.5 322.2 315.6 312.8 312.9 311.1 317.1 321.2 326 333.4 342.7 350.4 358.1 364.9 369.6 372.2 370.8 364.1 351.9 342.9 334 325.1 313.5 299.6 288.4 279.3 271.2 258 244.5 235.8 226.5 219.4 211 207.2 201.4 196.1 188.1 186.3 182.8 178.5 173.9 164.4 161.4 158.5 156.3 155.8 155.8 155.1 151.8 145.8 143.7 146.8 146.2 147.3 145.2 144.9 144.5 144.2 146 153.3 156.9 160 165.6 170.2 176.2 181.5 186.2 193.6 197.2 205.3 219.6 232.8 250 265.1 282.6 298.2 312.1 316.3 323.8 329.2 335.7 347.2 360.9 378.4 401.6 432.4 437 433.6 425 419.6 413.9 400.6 389.8 380.8 370.2 358.2 350 341.2 331.6 321.5 322.7 315.5 305.7 292.3 280.5 273 266.9 262 249.9 251.7 261 267.9 274.5 281.5 291.3 306 322.5 340.1 357.1 368.4 377.8 386.1 404.4 421.4 432.9 443.6 451.8 460.2 468.2
131.9 133.1 139.6 140.2 140.4 141.6 143.8 148.7 154.4 158.7 159.3 163.6 169.4 171.9 173.6 174.9 177.5 182.4 183.1 185.9 190.1 192.6 193 187.9 186.6 185.5 186.7 186.7 194.4 197.3 198.9 207 212.1 219 222 227.7 229 227.8 226.1 227.3 230.4 234 239.1 246.3 256.2 269.5 282.9 294.9 309.2 328.5 348.7 366 382.6 389.6 394.9 399.7 404.9 410.5 414 415.5 414.1 408.5 403.3 397.7 391.1 384.5 375.3 365.6 357.5 351.1 345.1 339.8 330.7 321.7 318.8 318.8 321.5 326 333 340.7 350 359 372.1 383.3 388.2 388.2 388.4 383.4 372.1 358.3 347.2 336 327.8 316.6 307.2 294.9 283.3 274.3 263.5 249.5 239 232.9 226 218.2 210.7 203.5 198.9 195.5 189.3 186.5 186.2 184.9 173.1 164 160.4 157.1 155.3 155.1 153.7 151 146.1 140.7 147.9 145.9 147.2 145.1 144.7 144.2 143.8 144.7 150.8 155.1 157.8 161 165.3 168.9 175.4 180.9 186 193.3 206.8 217.6 230.8 248.6 263.1 279.9 294.3 309.1 313.6 320.2 326.9 333.4 344.8 359 377.2 402.9 431.4 434.9 431.6 422.9 415.7 410.5 397.9 386.3 377.9 366.7 354.5 345 337.4 329.5 316.5 306.2 305.8 294.7 284.9 275.2 269 264.1 257.8 248.2 252.5 260.8 268.4 273.6 282.4 292.4 307.9 320 338.8 355.1 368.2 378.6 393.4 413.5 424.8 434.2 444.2 452.9 461.2 471.6
131.2 131.7 133 137.6 137.8 137.7 139.6 147 151.1 155 156.7 161.6 165.2 167.3 169.4 171.9 174.1 180 182.5 184.9 186.6 189.1 188.7 185.1 182.8 182.7 173.9 186.3 193.4 196 198.2 203.2 209.9 215 217.7 223 223.7 223.1 222.1 223.1 226.3 229.5 234.2 244 254.9 267.8 279.7 291.2 304.9 320.6 337.9 355 370.3 384.4 392.2 397.9 402.8 413.1 415 414.7 413.5 410.8 404.9 399.1 393.7 387.8 380.5 373.1 367 361.4 355.7 349.3 338.5 329.1 326.8 329.8 331.2 338.6 347.4 357.3 371 384.2 390.9 397.3 398.9 397.1 394.2 388.1 376.7 365.9 352.4 338.5 328.7 317.8 309.3 300.5 287.4 277.3 265.4 254.6 242.4 237.5 231.7 224.5 217.9 211.2 205.5 200.1 195.7 189.7 186.4 181.9 181.3 174.1 163.8 160.2 155.9 154.6 153.2 151.1 147.1 144.7 143.2 146.7 145.4 146.3 144.3 143.6 143.4 143.6 144.6 149.8 154.3 156.1 160 164.7 169.8 174 177.6 190.1 202.6 212.8 227.1 244.2 259.1 275.4 290.1 303.9 309.1 317.1 324 331.6 342.7 357.9 377.4 405.1 431 434.2 432.1 422.4 411.3 405.1 390 382.6 374.3 362.7 351.5 342.4 334.4 326.7 313.9 294.9 294.9 286.6 276.9 268.3 265.1 261 255.2 247.2 252.1 263.7 269.5 278.7 287.6 296.8 308 319.1 335 352.9 366.9 382.4 402.7 419.3 428 435.7 443.6 452.3 463.6 471.7
130.5 130.9 127.4 132.4 135.8 136.3 138.5 147.8 150.1 153.1 155.4 157.2 160.5 163.3 165.4 171.1 171.4 176.2 179.3 177.1 181.5 185 184.5 182.2 177.1 171.8 180.1 186.1 190.9 194.3 197.9 202 208.4 212.9 214.9 218.1 219.2 217.2 216.9 218.9 220.9 223.7 230 240.4 253.6 266 277.7 289.6 302.8 312.1 327.1 345.3 361.8 374.8 386.1 393.7 400.8 413.3 414.8 414.6 413.1 411.9 408.4 402.2 397.2 392.8 387.6 380.8 375.6 370 364.4 354.1 347.8 340.2 336.4 340.7 343.8 351 362.5 372.7 385.2 394.5 398.8 401.4 401.2 398.5 394.5 389.3 382.4 371.5 356.9 342.6 329.1 317.3 312.3 301.2 284.5 273.1 261.6 253.5 246.4 241.9 236 230.6 223.2 216.5 209.7 204.2 199.7 192.5 190.3 187.8 187.7 183.6 168.9 162.4 158 155.2 153.5 151.5 148 145.1 140.1 147.4 146 145.3 144.2 143.5 143 142.9 143.7 144.3 151 152 155.6 159.8 165.2 168.5 175.2 185.3 196.8 208.8 224.3 241.1 255.9 272.1 285.8 298.2 304.4 313.9 320.4 327.8 341.7 357.9 378 410.5 430.3 435.4 434.1 421.2 411.1 400 385.9 378.5 370 359.3 348.9 338.7 329.8 321.8 313.4 297.3 283.2 277.2 269.6 265 261.9 258.2 251.8 247 253.1 264.8 274.9 286.3 293.8 303.6 313 324.7 336.4 354.6 369.4 393.1 410.4 422.3 429.6 437.7 442.8 450.5 461.9 470.3
129.6 129.3 129.1 128.9 130.6 134.1 136.6 141.1 146 150.5 151.9 152 154.7 157.9 162.9 166.3 168.6 171.4 171 164 177 180.8 175 168.9 167.3 177.2 180.3 184.4 187.7 193 196.9 200.9 205.3 210.7 211.8 212.3 212.7 212.2 210.7 214 215.6 218.7 227.4 238.2 251.5 265.2 273.5 285.9 301.5 310.4 321 338.3 353.4 367.2 375.4 382.6 393.8 409.4 414.5 415.6 414.4 412.7 410.9 405.9 401.9 397.6 392.4 387.5 383.1 377.4 372.4 365.4 361.4 354.3 349.5 353.4 356.2 361.3 371.3 381.7 390.7 397.3 399.6 401.6 402.7 400.2 395.7 390.6 385.5 375.5 361.1 348.4 333.9 321.5 309.5 294.5 280.8 269.7 262.4 256.8 251.3 244.9 239 233.9 227 220.4 212.9 207.9 203 198.5 190.7 191.5 187.7 187.6 177.1 165.7 161.6 157.6 154.9 152.5 146.7 145.5 143 145.4 146.5 153.8 144.2 143.7 143 142.6 142.6 142.7 146.4 148.8 150.7 157.8 162.8 163.8 169.3 179.7 192.8 206.2 220 236.7 251.6 268 281.3 293.8 299.8 309 316.6 325.8 340.3 358.8 381.1 416.3 429.5 439.1 440.9 422.2 410.5 398.1 386.2 374.8 366.1 356.2 344.8 333.6 324.2 315.3 304.7 291.6 279.1 271.2 265 261.7 258.7 255 247.1 244.7 257.8 268 282.2 292.5 299.9 310.1 322.5 335.6 348.8 360.1 381.4 399.1 414.3 422.9 431 437.6 442.4 448.8 458.2 467.6
129.2 129 129 128.9 130.5 130.7 134.4 139.3 144.3 147.4 148.4 148.3 150.1 155.5 161.5 163.2 162.6 165.6 163.8 162.3 161.7 160.2 160.5 169.5 177.1 178.5 179.4 181.4 185.1 189.9 194.5 198.4 201.7 206.6 207.8 207.7 205.7 205.7 205.7 209.3 209.7 214.9 225.9 234.7 250.8 262.7 268.5 282.8 300.6 306.9 319.5 335.8 352.9 364.4 369.4 375.6 388.7 402.3 409.2 414.6 414.9 413.3 412.2 409.7 406.1 401.2 397.2 392.5 388.2 384.2 380.8 377.2 373.2 368.8 366.2 366.4 368.4 372.4 378.9 385.4 393.6 398.1 400.5 402.6 404.7 401.4 397.2 392.8 388.9 377.2 359.5 348.1 336.3 324.3 309.4 296.1 283.7 273.4 266.6 258.6 252.9 247.1 240.7 235.4 227.8 220.8 215.3 210.4 205.7 201.5 197.7 190.5 189.1 189.2 183.6 170.4 163.6 161 155.3 153.1 148.4 145.7 143.5 139.8 146.3 151.2 144.4 143.8 143.3 142.8 142.7 142.6 144.3 146.2 150.2 162.3 162.7 164.8 164.3 175.6 191.5 200.2 215.1 231.9 245.5 259.5 275.8 287.6 294.3 304.6 313 322.8 340.5 360.2 384.7 419.4 429.9 441.8 441.8 425.5 411.5 400.1 387 372 361.8 350.4 339.5 328.1 317.2 306.2 295.7 285.1 273.5 267.2 261.4 256.9 254.8 249.5 243.9 253.5 265.8 274.2 287.9 297.4 305.9 321.8 335.4 349.2 365.5 378.7 388.8 401.2 413.4 422.2 429.5 436.5 442.6 447 453.7 463.6
129.1 129.1 128.3 128.4 129.6 127.2 132.7 138.1 140.9 144.1 145.8 147.1 148.3 153.6 157.3 160 162.3 160.3 161.4 159.2 155.9 167.6 171.7 175.2 175.2 175.8 177.4 180.7 183.9 188.3 192.6 195.8 199 203.7 204.5 205 200.6 199.8 200.6 203.2 205.4 210.8 221.4 230.8 243.4 254.5 261.2 275.3 292.1 305.3 318.4 331.2 349.2 361.3 366.4 371.3 382.7 394.1 405 412.8 414.2 413.6 412.3 411.6 408.5 403.7 400.3 398.1 394.1 389.8 387.6 384.4 382 378.5 376.8 378 378.3 380.5 385.6 391.3 396.9 399.2 401.2 403 403.9 402.2 398.4 393.5 388.5 379.5 358.8 348.4 337.1 322.5 309.3 298.5 287.8 279.3 271.4 263.9 258.2 250.3 244.2 237.2 229.8 223.4 218.5 213.4 208.5 204.7 201 196.6 190.5 188 183.8 173.1 165.4 161.5 159.2 158.1 153.5 147.7 144.7 139.6 145.7 146.6 145 143.9 143.6 143.4 143 143.2 144.4 148.7 156 162 161.3 162.1 162.5 167.3 178.7 193 208.3 224.3 239.2 252.5 268.2 283.3 290.2 299.4 308.8 321.8 339.7 359.9 386.5 418.7 431.4 441.9 444.6 431.3 413.1 400.7 385.5 370.8 359.7 346.6 334.5 322.5 310.2 297.6 286.9 276.9 267.3 261.8 258.1 254.4 248.6 244.6 246.1 256.2 269.6 280.2 291.8 302.4 318 333.7 349.1 367.9 382.3 390.5 396.5 401.6 412.1 421.8 430.4 438 439.8 443.9 447.9 458
128.6 127.7 127.9 127.8 127.5 129.6 131.6 135.3 137.6 140.6 145.9 148.8 148.2 150.6 154.7 155.4 155 153.5 157.7 167.6 169.2 170.1 170.9 170 169 171.6 175.3 178.5 182.6 187.5 190.6 192.2 194.9 200.1 201.8 201.7 202.3 214.9 213.3 198.7 202.5 208.5 218.4 227.2 236.3 246.5 254.8 268.1 284.4 298.9 311.9 325.2 342.6 354.4 357.8 362 371.9 382.7 393.7 407.5 411.9 412.5 411.9 411 409 406.5 404.1 402.3 398.5 395.6 393.4 389.8 386.2 384.5 383.2 384.2 385.9 387.7 392.4 397.9 402.1 403 403.6 403.5 402.9 400.8 397.3 391.8 385.3 377.4 362.5 350 337.6 326.1 314.7 305.1 295.3 287.2 282 277.2 270.9 262.5 253.5 243 235.3 227.3 221.8 216.6 211.6 206.9 202.8 198.5 192.2 190.1 182.9 177.5 170.7 165.3 162.6 160.5 157.8 154 148.2 143 140 146.8 145.5 144.7 144.3 144.1 144.1 143.9 151.4 158.2 160.9 161.2 160.7 160.9 161.6 162.6 171 183.3 196.4 211.3 233.8 245.9 261.1 277.4 285.5 294.9 305.2 318.6 338 358.8 387.3 416.7 431.1 443.7 443.8 431.2 414 402.4 387.7 369.6 357.3 343.3 331 317 303.7 290.2 278.4 269.2 261.6 256.7 253.1 249.4 243.8 243 251.8 261.8 273.6 285.8 298.2 310.6 327.2 344.6 364 380.8 393.5 400.3 403.7 403.8 408.4 420.1 431.2 440.6 441.8 440.5 442.1 450.5
128.6 127.6 127.5 126.9 127.2 127.8 130.6 132.6 135.3 137.6 145.6 148.6 149.2 147.9 149.4 149.6 147.6 149.2 161.6 166.3 168 166.7 165.5 164 164.7 168.7 172.3 177.2 181.3 185.8 188.8 190.2 192.4 196.6 198.1 203.7 220.6 222.8 216.8 196.6 200.3 207.7 215.6 223.9 232 240.7 249.5 260.6 275 289.8 306.4 320.5 330.8 337.1 343.9 353.9 361.6 370.4 381.3 389.2 397.6 406.4 409 408.6 407.3 407.3 406.6 405 403.4 401.3 399 396.3 393.5 391.5 389.8 391.1 392.9 394.8 397.1 402.2 404.8 406.4 407 406.1 404.2 399.8 396.5 392.3 381.3 372.1 363 355.1 344.3 334.8 324.1 314.5 306.7 299.8 294.7 289.2 283.5 276 268 257.8 245.9 235.5 228.2 221.2 215.2 214.3 208.6 200.6 195.6 189.5 189.6 180 174 170.3 167.1 163.8 160.9 158.4 158 155 141.6 141.8 146.3 145.5 144.9 144.7 144.4 144.2 145.7 158.4 160.4 160.8 160.7 160.8 161.3 161.8 166.2 177.6 189.7 212.7 228.7 240.7 253.9 270.3 280 290.1 301.4 315.5 336.1 357.6 387.4 413.9 428.5 439.5 441.1 428.7 414.3 403.3 389.2 370.1 356.8 340.8 328.4 312.7 296.3 282.8 272.1 263.5 256.5 251.6 247.6 243.7 242.2 244.4 256 268.7 280.6 291.6 302.1 318.3 336.6 356.6 378.2 390 401.1 405.2 407.2 408.1 409.2 416.1 430.7 439.9 442.8 442 440.9 442.4
128.8 128.1 127.8 126.9 127.1 127.3 128.8 131 135.1 140.2 143.5 147.4 148.4 147.4 143.9 143.6 144.7 153.1 156.7 161.4 163.9 163.4 162.5 162.8 162.7 164.1 168.4 173.9 179.7 183.6 186.9 189.3 191.4 193.5 195.2 196.8 208.3 212.4 204.4 197.8 199 205.5 211.8 219.7 228.3 236.7 244.9 253.4 265.7 283.3 300.5 313.8 324.1 329.5 333.2 344.7 353.7 360.2 368.3 378 385 395.1 404.4 405.9 405.7 406.4 408.6 407.6 406.7 405.6 403.7 401.1 398.1 397.5 396.6 398.1 400 401.9 403.8 406.3 409.6 411.5 411.6 410.6 408.4 402.1 398.2 393.4 383.8 374.8 368.6 361.3 354.7 348.2 340 333 325.8 316.8 311 303.7 294.9 288 280.7 271.2 259.8 248.4 239.3 230.5 222.4 217.8 209.9 203.9 199.3 195.3 190.8 188.5 179.7 176.4 172.7 168.5 164.3 162.9 161.8 160.2 155 138.9 143.6 145.3 145.1 144.8 144.5 144.4 144.4 147.4 159.4 160.6 160.7 160.8 161 161.3 162 172.5 187 204.3 223.3 235.6 248.2 263.7 274.5 284.9 296.4 311.5 332.6 355.7 389.7 409.9 425.1 435.9 436.4 428 418.7 403 387.4 370.8 353.4 337 323.8 308.7 290.5 277.1 266.3 258.3 251.5 245.8 243.1 240.8 241.1 250.9 263.2 274.9 284.9 295.4 308.1 324.6 345.3 372 385.4 396.6 404.2 407.5 411.3 412.3 413 413.9 422.6 436.5 440.5 441 439.4 440.6
129.7 128.1 127.8 126.9 126.7 126.5 126.7 128.8 137.9 143 142.9 142.2 145.9 146.8 141 141.9 144.4 149.5 152.8 155.1 159.3 160.4 162.4 162.8 162.6 162.6 166.4 172.5 178.7 182.5 185.7 188.4 190.5 191.4 191.6 191.7 191.5 191.5 199.1 202.2 198.1 204.1 210 215.7 224.8 233.3 240.2 246.8 258.2 275.5 292.4 305.3 315.6 322.1 325.9 329.2 341 349.5 355.6 363.8 373.8 382.5 397.7 402.3 404.2 405.2 406.9 408.9 409.5 408.4 407.3 405.9 402.6 402.8 403.5 405.2 407.1 409 411.6 415.1 418.7 420.5 422.2 420.9 417.4 411.9 403.6 396.9 389.1 383.1 378.2 371.9 364.9 360.8 356.2 350.2 341.4 334.2 327.8 321.9 313.4 304.2 294.4 283.9 273.7 264.1 251.2 242.3 233.1 223.2 216 210.5 206.3 200.7 194.4 190.6 187.4 184.2 176.6 171.9 170.2 169.3 173 168 160.8 153.4 137.1 142.2 145.1 144.9 144.7 144.6 144.6 144.7 150 160.1 160.7 161 161.3 161.6 162.1 166.8 178.7 196.5 216.1 230.3 243.2 258.1 269.8 279.9 290.9 306.9 328.1 352.4 387.2 403.9 418.1 431 436.5 425.7 421.8 399.4 386.1 370.1 350.1 333.1 319.3 304.4 286.3 272.1 261.1 253.4 247.3 241.4 238.4 240.7 246.7 254.4 265.5 279.3 288.2 298.5 314.2 333.8 358.3 381.5 392.6 398.9 404.6 409 413.1 414.9 415.8 415.3 418.1 427.1 436.1 437.3 437.2 437.5
129.3 128.9 127.2 126.9 126.7 126.5 126.8 128.2 135.8 141.2 141.5 140.5 141.3 142.7 138.2 140.8 146.8 149 150.4 150.5 152.1 155.1 158.2 160.7 162.1 163.8 166.3 172.7 178.4 181.2 184.7 186.9 189.4 190 187.8 187.6 186.1 187 204.1 202.9 197.7 202 207.5 214.4 222.1 229 235.8 240.6 248.8 267 281.7 295.1 305.6 313 317.4 320.8 326.3 337.4 345.1 353.7 362.7 371.3 383.9 393.2 401 402.4 404.6 406.9 409.3 410.4 409.8 408.3 407.2 409.2 410.5 412.4 414.7 417.7 421 425.4 429.3 433.8 436.2 436.2 432.3 425.8 419.2 411.1 402.3 394.7 390.2 385.6 378.7 372.5 366.8 363.5 358.3 350.8 343.7 336.6 327.3 319 311.4 299.9 288.5 275.8 265 255.5 242.2 233.2 224.1 220.1 214.3 207.4 203.2 197.6 193.7 188.3 183.6 180.6 177.4 176.8 177.9 176.5 170.2 164.3 157.7 138.4 140.3 144.7 144.6 144.6 144.7 144.8 144.6 151 157.8 161.3 161.7 162 161.9 162.2 174 190.9 207.6 223.4 237.8 252.9 265.5 275.4 285.6 302.8 323.7 346.3 378.1 398.1 409.7 420.8 429.9 425.7 420.9 406.6 385.8 367 346.1 329.3 316.4 300.2 282 268.3 257.8 250.7 242.9 236.2 238.5 243.7 250.8 258.1 270.2 281.9 291.7 305.5 321.1 341.7 368.4 388.5 395.6 400.3 404.5 409.3 413.7 414 413.8 415.2 417 420.2 429.1 434.7 433.9 433.1
128.8 128.5 128.1 126.9 126.7 126.9 126.5 127 130.5 134.9 137.9 138.3 137.7 136 133.8 141.7 147.7 150.7 150.5 150.3 150.5 151.2 152.6 155.5 158.5 163 167.6 170.6 174.1 179.8 183.5 185.4 187 186.7 183.9 181.7 180.3 176 201.3 201.3 195.3 200.1 206 212.6 219.7 225.1 231.1 235.4 241.7 253.4 267.9 280 292.9 302 308.2 312.2 315.7 322.7 333.2 344.4 352.3 362 372.8 381.6 391 397.9 400.6 403.5 406.4 409.4 408.8 408.3 411.2 416.7 417.3 419.1 423.3 427.3 431.6 437.3 442 447.3 450.2 448.9 445.2 437.9 431.5 425.4 419.2 413 405.6 400.4 394.7 387.9 380.7 373.5 369.2 364.9 358.9 352.5 342.5 331.2 319.3 311.2 303.8 290.3 276.6 267.5 255.9 243.4 235.9 230.3 223.5 218 213.8 208.7 202.9 197.2 192.9 186.7 181.1 181.1 180.6 179.9 178.7 172.3 165.4 161.4 149.6 136.3 145.5 144.8 144.7 144.6 144.2 144.2 154.6 156.4 159.5 161.8 162 162.2 166.5 182 199.9 219.2 230.2 245.5 260 270.6 281.3 297.7 317.7 338.4 365.6 391.5 400.2 413.8 420.6 426.7 421.9 409.7 385.1 362.8 342.9 326 312.6 296.2 278.5 265 253.6 242.1 237.3 237.1 240.6 247.3 253.7 261 273.3 284.1 293.9 311.6 328.9 349.7 375.6 389.9 397.2 401.4 404.7 409.1 411.5 412.6 413.6 415.6 418.1 421.2 425.1 430.1 430.9 428.6
128.2 128.2 127.6 126.8 126.8 126.7 126.5 126.8 127.1 130.6 132.6 134.1 133.3 133.1 137.2 139.4 148.8 150.8 150.4 149.9 150.4 151.3 152.1 152.6 153.7 164.5 167.8 170.1 173 179.7 182.1 184.1 184.7 183.3 178.7 176 174.4 174.1 179 198.3 192.6 197 202.5 208.8 214.7 219.4 226.2 231.3 235.5 243.3 258 268 277.4 287.9 294.6 302.7 305.5 311.2 321.6 331.7 340.8 349.7 358.4 370 381.3 389.1 395.2 399.7 402.3 405.7 406.7 410.1 415.2 418.9 422.5 426.2 429.6 434.7 441.6 448.9 454.3 459 460.3 459.3 454.7 446.7 440.1 435.1 430.3 426.6 422.5 417.1 411.5 404.7 395.9 387.3 380.5 373.8 368 362.7 354.8 345.3 332.3 319.3 311.2 302.7 289 277.2 265.9 254.3 245.3 238.2 231.6 226.3 222.6 220.2 216.8 212.1 206.1 201.1 192.8 184 181.1 180.2 180.7 179.5 172.8 165.2 161.4 149.5 136.2 145.3 144.9 144.3 144 143 142.6 142 149.7 160.1 162.1 163.8 161.9 173.7 192.8 213 226.2 242.9 254.4 266.4 277.2 293.5 311.9 331.6 354.7 383.5 390.7 405.8 417.7 427.2 423.6 411.4 385.1 362.3 338 319.4 308.3 291.8 275.3 262.2 253.4 243.2 236.5 235.7 241.2 247.6 253.9 261.9 276.6 286.4 302.1 319.2 337 362 381.1 391.2 397.9 401.9 405.4 408.5 409.8 411.1 413.5 415.9 418.3 422.4 425.5 424.3 426.1 425.7
143.4 127.5 127.5 127.2 126.6 126.4 126.5 127 123.5 127.1 128.2 129.6 130.4 132.9 134.1 135.1 139.2 151.2 150.1 150.1 150.6 151.5 152.3 148 153 162.4 166.2 168.5 168.5 177.2 180.3 182.5 184.2 182.3 178.1 172 170 168.7 175.8 186.8 191.2 194.8 199.9 205.5 211.2 217.4 221.8 226.1 231 236.8 248.5 260 268.3 274.5 282.5 288.7 295.8 301.5 308.5 316.9 327.3 335 346.2 358.1 370.4 382.5 390.5 394.9 399.8 403.4 406.9 412.7 416.2 420.2 426.2 429.1 435.9 442.4 450.9 458.6 461.7 463.9 466.6 466.5 462.6 451.5 446 443.7 440.5 438.8 435.8 433.1 429.8 422.6 413.4 403.7 394.5 385.5 375.1 369 362.6 352.7 344 331.8 318.9 310.3 300.1 288.5 276.1 263.2 253.3 248.1 244 239.5 234.4 233.4 233.8 228.1 222.7 218.4 214.2 204.9 192.1 187.6 182.3 181.6 177.5 170.1 163.4 158.2 143.3 140.8 145.3 143.4 142.8 142.2 141.4 140.7 143.5 152.2 159.1 162.6 162.4 168.2 186.4 207.4 221.7 229.3 250.9 263 273.1 287.4 305.3 324.6 346.2 371.6 382.1 396.6 413.1 424.5 421.8 410.1 383.3 361.2 337.8 316.4 303.6 285.4 270.9 259.6 251.5 243.8 234.6 234 242.4 248.4 255.1 264.4 277 289.8 308.4 328 351.8 375.4 388.3 396.4 399.7 402.5 405.5 408 409 408.7 411.9 415 417.7 422.1 424.4 419.5 419 422.6
136.3 128 126.7 125.9 125.5 125.7 126.4 123.6 126.3 126.4 126.9 128.2 130.3 131.2 132.7 132.8 133.1 150.6 151.9 140.4 146.9 142.6 137.9 142.6 147.1 156 161.6 164.2 164.8 171.6 178.4 180.7 181.1 183.2 178.3 169.4 165.5 168.1 178.2 185.5 189.5 192.5 197.1 201.5 207 212.5 216.3 220.4 224.9 230.4 239.7 250.6 259 264.7 269.4 277.2 284 291.1 295.1 303.9 304.5 320.8 333.1 345.2 359.8 372.4 385.3 391.9 399.6 403.2 406.9 413.6 416.6 422.3 425.1 431.9 440.4 447.4 456.7 462.6 465.1 466.1 467.2 467.2 463.8 456.2 452.7 452.8 451.9 450.5 448.1 445.6 442.8 434.7 426.7 417.9 408 397.3 385.8 375.6 365.4 358.6 350.2 341.6 331.8 318.8 309.6 297.5 284.1 272.6 263.9 258.9 255.4 252.3 249.1 247.6 245.7 242.6 240.7 236.4 232.4 224.3 215.7 205.4 198 188.9 181.6 176.5 167 159.1 151 136.2 144.6 143.4 142.7 142.1 141.2 139.6 140.2 147.4 155.8 164.8 164 164.1 182.4 203.2 220.6 220.8 247.9 257.7 268.4 281.8 298.5 318 336.1 359.4 375.2 389 406.1 418.9 420.3 410.4 386.9 359.8 335.7 313.7 296.8 281.5 268.1 258 250 242.9 236.1 233.6 241.8 248.3 256 266.2 279.6 295.3 315.7 338.2 366 383.2 395.4 399.8 401.4 402.3 405.2 407.7 406.3 406.6 409.7 412.7 416.6 423 424.8 419.7 414.1 416.7
130.2 126.9 126 125.3 124.8 124.9 125.7 125.7 126.4 126.1 126.2 129.8 130.4 130.3 132.3 130.9 131.1 133.8 152.9 153.5 152.8 137.5 136.9 141.7 143.8 152 157.1 158.6 162.3 167.6 174.7 178.3 177.4 178.3 176.2 170.1 164.4 172.4 178.9 183.2 188.1 189.5 192.3 197.3 203.1 208 212.6 216.1 219.7 224.9 231.7 241.1 249.9 256 259.7 265.5 273.2 280.3 286.2 293.9 304 310.2 320.8 332.1 346.1 361.6 380.3 390.7 398.7 403.1 406.9 414.2 417.8 422.4 423.5 432.3 443.9 449.7 456.1 461.2 464.4 466 467.5 468.8 466.6 460.5 460.3 461.4 460.5 458.7 457 455.4 452 443.8 435.5 426.6 416.4 406.6 396.5 386.5 375.6 365.4 356.8 347.7 339.7 331 316.9 303.5 291 282.4 276.3 271.6 269.6 266.3 263.3 262.4 257.5 253 253.1 251 246 240.4 234.2 221.7 212.5 203.9 191.2 181.8 174.2 161.6 151.8 142.3 140.6 143.3 142.7 141.9 141.2 140.2 138.3 141.8 153.2 160.7 165.9 159.9 176.2 197.5 215.7 229.6 242.3 252.7 264.7 275.5 292 311.4 328.5 350 368.2 383.2 400.4 411 417.4 414.5 389.7 360.7 334.6 309.5 293.3 277.9 266.7 257 249.5 241.8 235.6 233 241 248.2 256.3 268.5 284 300.9 323.9 353.1 377.7 389.4 399.5 401.5 402.8 402.1 403.8 404 402.3 403.8 406.3 410.8 416.6 419.8 422.2 419 412.3 410.5
128.3 126.9 126.3 125.5 124.7 124.2 124.2 120.6 126.3 125.8 128.1 126.4 130.4 133.1 132.4 128.2 128 129.9 133.2 151.7 140.7 135.7 136.9 137.2 140.7 146.5 152.6 156.6 162.2 166.3 171.4 175.1 176.5 172.4 171.3 167.1 168.5 173.2 178.2 183.2 186.6 187.7 189 193.5 199.2 204.7 210 213.5 217 220.9 227.1 234.1 239.8 246.3 251.3 255.8 263.5 271.4 278.1 289.1 296.7 307.5 320.3 330.5 340.7 354.6 373.8 390.2 397.8 403.6 408.3 415.1 418.6 421.1 422.4 431.1 440.4 448 454.2 460.1 462.7 464.8 466.5 467.8 468.4 466.2 466.2 466.4 465.8 464.2 462.6 460.3 455.8 448.1 440.8 433.4 423.9 414.5 405.3 395.6 384.9 373.9 364.1 354 344.8 337.5 325.7 310.9 300.5 295.3 290.7 286.9 284.2 281 275.7 272.4 268 265.2 262.7 259.5 254.8 250.3 244.8 237 225.3 214.2 202.6 190.2 182 170.6 154.5 144.8 136.2 143.2 142.9 142.3 141.5 140.6 137.8 138.5 143.5 156.4 163.9 162.4 168.9 190.9 211.2 223.4 236 247.3 259.6 270.8 285.9 306.1 322.4 342.7 362.5 376.8 393.1 404.7 414.7 415.1 398.2 362.9 335.7 308 290.4 278.2 265.2 254.7 248.5 240.2 232.9 231.3 240.8 248.4 257.2 270.2 286.4 308.3 332.7 361.9 382.4 392.4 400 402.1 402.3 401.5 400.4 400.9 399.8 400.7 403.3 407.7 413.7 417.3 419 416.5 411.1 407
128.5 127.5 127.1 126.3 125.5 124.7 123.8 124.8 120.6 125.4 124.9 124.5 128.3 129.2 126.8 124.3 124.6 125.7 128.9 129.2 129.4 129.6 128.9 132.5 135 138.9 145.8 153 158.2 162.4 167.2 171.3 174 169.7 165.5 160.6 169.3 172.4 177.2 181.8 185.4 186.5 187.7 190.3 196.4 201.9 205.7 209.1 214.5 219 222.9 227.4 230.1 234.6 241.5 248.3 255.8 264.5 273.2 284.5 296.1 308 324.3 338.1 346.7 355.9 369.4 386.7 398.7 405.2 409.9 415.7 417.6 419.8 420.5 427.7 435.3 442.8 450.3 456 461.3 463.3 465.2 466.6 467.4 469.1 469.8 469.7 469.7 468.2 467.3 463.6 458.5 452.8 444.2 436.8 428.5 420.1 410.6 401.2 391.7 380.7 370.3 358.6 348.6 341.3 334.1 320.3 313.7 308.7 304.7 298.8 294.8 291.6 286.8 283.7 279.6 275.3 268.9 264.2 259.6 254.5 248.8 243.1 235.1 223.9 211.7 198.6 185.5 179.6 163 147.5 140.8 140.3 143.4 142.7 141.9 140.7 136 138 139.1 148.3 159.8 163.6 164.7 184.8 205.9 216.7 228.9 242 254.8 266 281.3 300.9 318 337 357.9 370.7 385.3 398.6 410.1 413.6 407.2 366.9 339.2 310.7 291.4 276.2 265 254.2 247.7 239.9 230.7 230.4 239.4 246.8 257.3 271.8 290.1 313 340.8 364.7 382.6 392.3 399.3 401.8 401.7 399.5 396.8 396.5 396.7 396.9 400.3 404.5 410 413.9 414.9 413.5 410.6 405.9
129.4 128.3 127.8 127.2 126.1 124.9 124.9 124.3 123.6 123.7 123.6 123.4 123.7 123.5 122.7 123.1 123.4 123.2 123.9 124.8 126.1 126.2 125.3 126.2 130.4 134.5 140.3 148.9 153.2 156.5 161.6 166.9 169.3 167.7 160 160.4 166.8 171.8 176.7 179.8 184 185.6 186.7 189.4 194.8 198.8 201.5 204.7 209.3 213 216.1 217.2 216.6 223.7 233.7 242.4 250 259.9 273.3 286.9 301.4 315.6 330.2 344.5 356.7 363.6 373 386 399.1 407.1 412.1 417.2 417.1 418.7 419.6 423.4 430.1 437.6 445.2 452.3 458.1 462.6 465.4 467.9 469 471.2 473.2 474.7 474.3 473.3 471.1 465.7 460.7 455 448.9 438.2 431.1 422.9 414 405.1 396.8 385.7 375.4 363.5 352.7 345.9 334.6 328.8 324.1 319.1 313.9 307.9 303.6 299.7 296.8 294.8 285.8 279.6 275.7 269.1 262.1 256.2 249.9 244 238.8 230.5 218.5 204.1 193.2 183.1 170.8 155 143.6 134.6 141.8 143 142.4 141.7 139.5 137.6 138.5 141 152.8 156.6 160.8 181 197 195 223.5 236.4 249.8 261.7 277.2 295.5 313.8 331.3 353.3 365.4 380.8 394.1 406.5 411.8 410.3 377.1 341.8 311.8 292 276.1 264.7 254.7 247.5 240 228.9 230.8 236.1 245.6 256.5 273.2 292.6 316.8 345.6 365.6 379.8 390.4 398.7 400.1 399.4 397.8 396.5 394.8 393.6 394.1 396.9 400.6 405.7 410.1 411.5 410.8 408.6 405.8
129.4 128.8 128.2 127.3 126 125.3 124.7 124.2 123.7 124.7 124.1 127.4 121.6 121.2 120.8 120.8 120.9 120.8 121 123 124.8 123.5 123.2 124.9 128.1 130.9 136.3 144.7 149.1 152.1 157.9 163.1 164.6 162.9 155.2 158.4 164.1 169.9 175.1 178.8 182.4 183.8 185 187.4 191.7 194.5 197.9 202.4 203 204.9 207.2 208.1 210 218.6 229.6 237.8 246.3 260.3 277.6 293.6 311.8 327.4 343.5 356 366.1 370.7 379.3 391 402.9 410 415 416.3 416.3 417.7 418.6 420.2 425.5 432.5 440.2 448.1 455.3 461.4 465.7 468.6 471.1 473.9 477.5 479.4 479.4 478.4 473.9 468.6 462.2 456.3 450 439.7 431.8 424.7 415.9 407.4 398.5 387.3 376.2 365.2 356.5 349 342.8 337.6 332.1 326.8 321 314.9 309.6 304.7 300.7 296.7 291.2 284.6 279.3 273.5 264 257.9 250.4 243.4 238.5 233.2 223.1 211.8 199 187.3 178.7 161.9 147.2 138.7 139.7 141.1 142.4 141.8 137 137.6 138.1 138.4 144.8 155.5 158.4 175.3 192.8 193.6 219.8 232.4 245.1 258.1 273.6 290.4 307.8 327 350 364.1 378.4 391.8 404.7 409 407.1 383.9 344.1 313.8 292.9 275.1 265.2 254.4 246 239.3 230.3 229 233.7 244.5 256.9 274.1 293.3 318.7 347.7 364.1 376 386.6 394.8 396.8 396.9 395.2 394 392.6 390.7 392.4 394.5 396.4 401.1 406.7 408.5 408.1 406.1 403.9
129.3 128.4 127.8 127.4 127 125.3 124.6 124 124.2 120.6 120.9 123.1 122.3 123.6 120.3 119.6 119.8 119.5 120.3 122.5 122.7 122.3 121.5 122.3 123.8 127.7 133.6 139.3 144.4 149 155.9 158.9 159.3 158 151.1 156.9 161.7 167.7 174.3 178.4 181.3 182.1 182.8 185.2 186.9 190.2 194.3 198.3 201.2 204.4 204.2 203.2 212.4 220.3 226.3 233.8 250.9 268.6 283.4 302.2 320.1 339.7 360.3 370.5 372.5 376.7 384.9 396.4 407.1 413 416.3 416.3 416.3 416.4 416.7 418.9 421.9 427 435.3 443.5 452.4 459.3 465 469 472.4 476.2 480 485.6 486.1 483.7 480.5 474.4 465.9 458.2 451 443.2 431.7 425.9 417.3 409.4 400.2 387.3 374.6 367.4 362.2 356.8 351.4 345 339.3 333.6 328.3 322 317.2 312.2 306.4 301.1 296.3 289.7 281.9 276.9 269.4 261.3 254.4 245.5 238.2 232.5 224 212.3 202.4 192.9 183.5 168.3 153.1 140.5 134.6 141.1 141.3 138.8 137.7 137.8 137.6 138 138.6 150.2 158.8 170.3 188.4 191.5 216.7 229.6 241.2 256 270.8 286.1 304.1 323.7 347 362.8 378.5 389.6 403.2 407.1 406.5 392.1 352.2 320.5 290.4 277 264 256.2 246 238.5 230.8 228.7 235 246 257.2 273.8 293 318.9 346 362.5 372 382.3 389.4 391.7 394.2 392.7 391.7 389.9 388.7 389.3 391.4 392.9 396.7 402.5 405.6 407.2 404.9 399.6
129.1 128 127.6 129.1 129.1 126.7 125 124.1 123.2 123.5 123.9 123.3 122.6 122.8 122.6 122.7 122.3 119.2 119.2 120.4 120.2 120 120.5 121.7 123.9 127.5 132 135.9 140.7 145 150.6 154.4 154.1 153.2 146.3 152.7 157.6 162.4 169.1 174.8 179.4 180.5 180.1 180.4 183.1 186.5 189.9 195.4 212.7 217.4 213.6 199.8 210.6 215.1 223.8 237.8 256.6 272.9 289.4 306.7 326.7 352.8 374 384.9 377.3 381.1 387.7 399.4 409.4 414.1 417.1 414.4 413.7 413.3 413.7 414.7 417 421.6 429.5 440.2 450.1 457.6 463.7 468.2 472.3 475.7 482.8 490.9 490.5 489.2 487.1 482.6 474 461.4 452.7 446.6 436.7 427.9 421.9 415.4 407 394 381.4 376.9 371.3 365.6 359.6 352.7 346.5 340.9 336.3 331.7 327.2 321.7 315.6 309.2 303 296.5 288.5 279.8 270.3 263 256 248.1 239.7 232.6 222.8 212.6 203.7 194.7 183.5 177.4 161.5 147 134.3 140.5 138.6 139.3 137.6 137.8 137.8 137.7 138.3 144 156 166.9 183.8 200 213.7 226.3 238.7 251.2 268.6 282.9 300 322.3 345 367.3 382.8 391.3 402.6 407.7 409 397.5 361.2 329.2 295.6 277.2 261.9 254.3 247.4 236.9 230.6 226.4 236.1 246 255.8 273.4 291 314 342.3 359 366.9 379.2 384.3 387.2 388.8 390.3 389.2 388 386.6 385.7 388.1 389.6 392.5 397.6 400.1 405.4 403.6 396.9
135.9 131.2 130.7 130.7 130.2 129.6 127.1 123.6 123.9 122.7 122.7 121.5 122.8 122.5 122.5 121 120 120.5 121 118.8 118.5 118.6 118.7 119.8 123.2 126.8 130.4 134.2 137.1 140.1 144.4 148 148.2 148.1 142.8 144.2 167.3 170.8 171.7 173.9 178 179.2 177.8 177 178.7 182.3 186.1 214.9 218.9 212.6 193.9 201.2 205.7 210.3 224.8 240.6 259.2 273.4 290 308.3 331.5 360 384.1 388.8 387.1 387 389.7 397 409.9 414.1 417.4 414.9 407.9 408.7 410.3 412.6 415 418.7 426.6 438.1 449.8 457.1 462.6 466.8 471.4 476.8 485.9 491 491.3 490.5 488.8 486 480.1 470.6 457.6 448.9 441.4 434.8 428 421.2 412.5 400.9 391.8 386.6 380.8 374.5 367.7 361.1 356.3 350 345.2 340.1 334.8 329.7 324.9 317.7 309.4 299.6 291.1 283.6 273 263.4 256.8 250.6 241.9 232.6 223.7 214.2 205.9 198.7 186.5 181.1 167 158.1 138.6 138.6 136.1 141.5 141.8 137.9 137.6 137.5 138.3 139.1 150 163.9 175.8 194.6 209 223.4 235.2 248.1 263.8 278.9 297.8 322.2 346.5 370.6 389.1 398 403.1 406.9 408.5 400.1 371.5 337.3 303.2 276.1 259.2 252 246.4 236.3 225.4 227.7 237.3 244.1 253.6 271.8 288.9 310.3 336.9 355.3 360.9 374.6 379.1 382 383.9 384.9 385.2 384.3 382.8 382.6 384.2 386.2 386.8 390 391.1 393 396.8 390.9
142 138.9 135.9 134.2 133.8 133.5 129.7 126.8 125.7 123.2 122.8 119.2 121.7 121 120.6 120.2 119.9 119.6 119.2 118.8 119.5 118.2 118.6 118.6 121.7 125.3 129 130.9 133.7 136 138 140.8 142.4 144.8 138.1 142.2 169.4 173.2 165.3 170.5 175 177.6 176 174.9 174.4 177.9 183.2 202.4 195.9 182.1 194.1 196.6 201.8 211.9 226.6 243 259.7 273.2 291.3 308.3 329.1 358.7 381.5 388.2 387.7 389.9 391.2 393.1 399.1 411.1 411.3 405.1 403.5 403.9 405.6 409.2 413.3 417 424.3 438.4 450.9 457.9 461.6 465.2 471.4 480 488.2 490.5 491.1 491 489.3 486.7 482.8 476.5 469.2 460 450.3 442 433.9 426.7 419.3 410 402.3 395.5 389.4 382.8 376 371.9 367.1 359.8 351.7 345.8 339.4 333.5 326.7 320 312.3 303.7 292.1 282.9 275.3 266.6 257.7 252 245.6 236.1 225.9 221.5 210.8 206.1 192.3 183.5 168.3 161.8 147.4 134.3 138 139.4 139.6 141.2 137.4 137.5 138.4 139.2 145.2 157.6 173.2 188.6 206.3 218.5 231 243.3 260.2 276.9 296.1 320.4 345.8 374.7 393.2 399.8 403.4 406.6 408.2 402.7 379.5 339.8 311.3 279.2 261.9 249.2 245.1 235.8 226 225 235.7 240.7 252.4 269.5 285.5 305.6 331.2 350.2 357.2 368.7 374.1 377 378.5 379.8 380.6 379.8 379.4 379.9 381.3 382.7 382.8 383.6 383.5 383 383.2 378.4
144.3 140.4 138.3 138.9 137.7 135.8 131.7 129.9 128.7 124.5 122.7 122 120.8 120.6 120.4 119.9 119.7 119.3 119 118.8 119.5 119.8 118.6 118.2 118.7 121.3 123.9 125.8 129.1 129.9 131.3 133.3 136.4 137.6 131.5 136.2 158.5 173.8 163.8 167.5 170.8 175.1 174.7 172.1 168.8 174.2 176.6 178.8 171.2 186.1 188.4 192.8 199.8 211.8 225.7 241.2 260 273.3 289.4 305.4 325.5 353.4 374.9 385.9 386.6 388.6 391.9 391.7 390.6 393 398.1 397.7 398.9 399 403.7 407.8 412.4 416.5 424.3 439.5 452.3 458.7 462.1 465.2 473.2 484 488 488.8 489.8 490.2 489.1 487.8 485.6 480.3 475.2 470.7 464.6 457.4 447.8 438.6 427.5 419.1 412.8 406.1 399.1 392 384.7 380.1 375.3 369 361.4 353.1 345.4 337 328.6 320.6 312.9 304.8 291.1 280.6 275 267.6 260.1 253.2 247 238.7 235.5 240.9 228 215.8 198 184.2 172.4 165 158 138.8 135.1 140.5 140.1 138.3 137.3 137.5 138.4 140.1 145.4 154.4 165.9 183.8 201.8 214.4 226.8 238.6 252.9 272.7 292.4 322 347.4 375 393.6 399.3 401.5 405.6 405.2 403 385.5 341.6 318.2 287.5 262.5 250.2 240.1 236.8 224 224.8 232.6 237.6 250.5 266.6 282.8 302 325.2 346.4 355 365.3 370.6 371.5 374.4 375.3 375.3 374.4 375.4 376.7 378.1 379 379.4 378.3 377.3 376.3 374.8 371.3
144.7 141.9 140.4 139.6 138.4 134.8 133.7 134.2 135.5 129.7 124.1 122.6 119.5 121.9 120.2 119.8 119.5 119.2 118.8 118.9 119.5 119.7 119.7 117.6 117.2 117.7 120.1 123.4 125.1 124.4 125.5 125.5 128.7 128.6 126.5 136.4 152.7 169.2 165.3 165.5 167.3 171.5 173.8 172.6 162.3 169.1 172 173.3 177.2 180.8 186 191.7 198.5 210.8 223.7 239.4 258.7 270.8 286.4 302.1 319.6 345 367.7 380.5 384.7 387.4 389.5 391 388.1 385.7 385.1 388.2 390.3 396.5 402.8 407.6 412 416.2 424.3 440.7 453.3 458.8 461.9 463.5 471.8 482.2 485.5 487.5 488.6 488.2 488.4 488.5 487.8 484.8 482 479.2 474.3 469.4 462.9 454.8 445 432.5 424.4 416.4 409.4 403.1 395.3 387.8 382.7 377.1 369.5 360.6 350 340.3 331.5 323 314 305.6 296.7 287.3 276.7 268.6 262.6 256.8 247.8 240.9 244.8 247.7 227.2 222.7 205.9 185.9 177.1 165.9 160.8 152.1 133.5 140.1 138.9 137.9 137.4 137.1 138.7 142.3 147.5 153.5 162.7 177.2 197.2 211.6 223.1 229.3 246.9 260.2 281.6 310.7 350.4 374.4 390.6 396.9 398.2 401.8 401.7 401.2 388.6 345.5 321.6 291.4 263.9 249.3 239.4 231.6 222.2 223.7 230.5 235.7 247.2 263.3 279.3 297.9 320.1 343.8 351.3 361.6 365.4 367.7 369.8 371.2 369.9 369.8 372.4 373.8 375.5 375.2 375 373.4 372.3 371.2 368.5 366.4
148.3 145.6 142 139.3 136.7 134.7 135.9 136.8 135.3 133.3 127 123.1 116.9 119.9 119.8 119.7 119.3 119 118.7 119.1 119.4 119.3 118.7 118.6 118.3 117.2 116.9 117.9 121.2 125.3 125.8 121.4 120.6 122.5 129.7 137.6 147.2 154.2 159.3 163.2 165.9 168.7 171.1 171.5 168.1 159.2 167.4 162.8 176.8 180 184.8 189.9 196.5 208.6 222.1 235.7 253 267.4 281.8 296.8 315.2 334.7 359.1 372.5 382 385 387.2 388.5 388.7 383 378.3 379.2 385.3 394.1 401.7 407.2 412.8 418.4 426.1 440.5 451.8 456.7 460.2 460.3 465.5 477.6 481 483 484 484.4 485 486.9 488.5 487.8 486.6 484.7 482.5 478.6 472.7 465.5 458.1 449.5 437.1 427.4 419.9 413.8 406.4 396.9 390.3 384.4 376.4 366.4 356.1 347 337 326.6 316.4 305.7 299.7 289.3 276 266.6 261 256.1 250.1 241 251.8 244.8 237.8 229.3 210.4 189.5 181.6 172.1 163.1 157 145.9 132.7 137.5 137.6 137.8 140.4 139.4 141.6 144.7 155.7 163.3 175.8 193.2 207.4 217 223.6 244.2 254.8 271.5 310.9 351 373 387.1 393.8 394 395.1 398.9 399.6 385.8 354 322.6 296.3 267.5 248.4 237.6 230.7 223 222 227.7 232 242.1 260 275.5 295.9 315.3 339.3 350 358.6 361.4 364.3 366.3 365.6 363.2 364.8 368.1 370.8 372.6 371.8 370.8 368.2 367.1 365.5 363.4 360.8
151 147.1 143.8 140.9 138.5 135.9 137.1 137.4 135.5 133.5 131.1 125.3 121.9 119.3 119.5 119.8 119.2 118.9 118.6 119 118.9 118.5 118.6 118.4 118.2 118.5 118 117.2 115.6 120.3 121.3 119.7 121 128.2 134 135.7 142.7 149.8 157.2 161.4 163.5 164.9 166.7 166.7 166.7 164.2 162.3 172 176.1 177.2 182.3 188.6 195.5 205.8 219.2 232.9 247.5 263.4 276.8 292.5 308.3 327.2 350 362.5 375.8 382.4 384 385 385 379.3 373.3 371.4 376.2 384.4 401.6 407.6 413.7 419.3 425.3 437.6 445.9 448.8 452.3 454.2 457 468.2 476.7 480.4 480 481 482.2 485.2 487.1 487.7 486.5 487.2 486.1 484 479.7 474.6 469.4 462.6 453.1 441.2 431.7 423.9 414.1 405.7 398.2 392.4 383.1 373.1 364.5 355 343.7 330.9 318.5 308 297.8 285.2 272.4 265 258.7 254.8 248.4 244.6 252.2 249.3 243.3 227.6 208.6 191.8 183.9 175.9 165.6 160 150 141.6 134.8 137.4 137.7 137.3 142.3 139.3 147.3 158.7 167.8 175.1 188.1 202.3 215.7 221 231.2 247.5 276.2 297.7 336.6 371.6 379.7 390.5 391.7 393 397.9 399.7 388.3 355.8 328 303.2 275.2 250.8 239.1 231 222.2 220.8 225.5 229.5 239.6 257.1 272.9 294 314.5 334.9 347.8 355.2 357.5 360.5 361.1 357.9 355.6 361.6 364.8 367.2 368.4 367.7 366.8 364.1 361.8 359.1 356.8 353.8
153.6 150.2 147.9 145.4 141.7 137.3 138.1 137.7 135.8 133.9 132.1 126.4 123.3 119.8 117.8 119.9 119.5 118.7 118.7 118.5 118.6 118.7 118.6 118.3 118.1 117 117.9 117.9 117.5 115.6 118.1 118.8 124.6 132.8 135.1 133.5 137.8 144.4 155.3 160.6 160.9 160.3 160.7 163.1 162.5 162.6 152 171.5 172.7 174.6 181 188.3 193.6 202 216 227.8 241.4 257.6 271 287 301.3 319.1 341.8 354.9 367.5 376.2 379.9 380.5 379.7 374.2 369.3 367 368.6 374 391 403.2 411 417.4 421.8 425 429.2 430.6 434.7 440.7 445.4 454.6 467.5 477.5 477.7 477.1 478.3 481.5 484.6 485.9 486.3 487.8 488 487 483.4 479.1 473.4 469.5 463.4 456 446.8 436.9 424.6 414.1 406.8 400.9 391.6 383.4 373.8 363.6 349.9 334.4 320.9 308 296 280.9 271.1 263.8 258.7 253.6 245.3 245.3 252.9 252.9 242.9 227.2 206.9 194.3 183.2 177.4 167.1 160.7 153.3 144.5 136.3 136.5 137.8 137.5 138.6 139.8 149 159.7 165.7 174.1 184.5 197.7 211.4 225.1 228.6 244.2 268.1 292.8 318.3 362.5 375.2 386.8 389.6 391.7 395.8 397.8 392.9 358.9 330.5 304.4 277.3 252 240.4 230.5 221.6 219.6 223.2 227.8 237.8 253.9 271.3 289.6 312.3 332.6 343.7 351.6 353.5 353.8 353.8 352.6 351.2 358.2 361.3 363.7 364.9 363.9 362.9 360.2 355.7 352.9 351 346.3
161.2 157 153.1 150.7 145 140.3 138.7 137.9 136 133.2 128.6 127.2 124.5 120.6 119.9 119.3 119.2 119.2 118.5 118.6 118.7 118.8 118.5 118.2 117.8 116.7 117.6 117.9 117.6 116.7 115.5 118.2 122 130.1 131.5 131.9 135.1 141.9 151 157.5 157.9 158 157.5 159.2 161.3 161.6 150.3 155.4 165.6 169.8 177.9 185.5 190.8 198.5 210.8 222.6 234.1 249.8 265.5 279.7 295 310.4 330.7 347 358.5 368.9 375 377.4 376 369.3 365.7 362 363.4 366.5 380.1 394.6 405.5 412.9 417.6 419 416.9 411.9 412.9 420.3 432.5 442.7 454.1 468 474.5 475.6 474.6 477.3 480.8 483.4 485.7 486.8 487.3 486.8 485.2 480.7 475.6 471.4 467 460.7 453.6 445.3 434.2 423.8 416.4 409.8 402.4 394.9 384.9 371.4 354.1 337.7 323.9 310.2 294.3 282.3 272.5 265.1 259.8 252.1 245.2 242.9 252.7 252.1 242.6 230.9 207.5 195.2 182.5 177.7 168.9 161.1 154.4 147.2 139.3 131.8 136.6 137.8 137.5 138.5 149.2 157.6 165.9 173.6 182 194.4 209.7 232.5 234.9 240.7 256.4 287.2 304.5 351.3 370.1 383 387.1 391.3 395.4 395 392.3 362.7 333.3 306.4 280.9 258.5 241.2 230.4 220.2 219.5 219.4 226 236 250.6 270 291 312 330.9 342.3 349.1 349.4 349.5 349.1 347.6 348.2 354.6 357.8 360.2 362 361.2 359.4 355.5 351.2 346.5 341.7 339.2
169.7 164.8 159.2 154.3 147.7 142.5 139.4 137.8 135.4 132 128.3 125 122.7 121.4 120.7 119.8 119.2 119.6 116.1 118.4 118.8 118.7 118.4 118.1 117.4 116.5 117.6 117.8 117.5 117.2 116.6 116.9 118.5 124.3 128.3 129.2 133.7 137.4 146.5 150.7 154.3 155.6 156.1 156.8 157.5 156.9 143.8 155.8 163.6 166.9 175.5 182.4 187.5 194.5 204.7 216 226.9 241 258.4 272 287.9 302.8 318.2 339 349.8 359.6 368 371.8 370.7 364.9 361.6 355.1 358 361.7 366.9 380.8 395.1 405.6 409.9 411.6 408.9 403.1 398.4 402.2 411.9 428.7 439.3 454.1 468.4 472 472.6 472.8 476.3 480.7 482.5 483.7 483.9 485.5 485.3 482 477.6 473.8 469 463.5 457.2 450.5 440.9 431 423.7 417.3 410 402.7 392.6 374.7 353.1 335 324.1 312.6 296.5 285.6 276.3 268.7 261.6 252.3 246.5 242.5 244.2 235.6 229.4 224.3 207 195.5 181.3 175.6 167 159.8 153 145.2 139.5 136.6 135.5 136.8 136.6 136.7 146.3 155.8 162.8 172.1 181.8 191.1 207.2 233.6 243 247.2 247.4 272.9 303.2 352.5 368.9 378.9 383.5 390.2 392.7 392 389.6 366.4 336.2 308.6 284.5 263.8 244.5 232.7 223.4 218.3 217.4 225.1 233.6 248.2 268.6 292.1 313.5 329.1 340.6 345.9 346.1 345 343.8 341.8 343.7 350.5 354 356.6 358.6 358.3 356 351.2 347.4 339.7 331.8 328.9
174.7 171.8 165.6 161.3 152.6 146 142 137 133.2 130.9 128.4 126.5 134.6 128.1 120.7 120.3 119.2 118.7 118.5 118.5 115.4 116.4 115.7 114.7 117.5 116.9 114.1 116.7 116.7 116.7 116.4 116.2 118.8 118.8 122.1 126.2 131.4 136.1 143.1 145.8 150 152.4 153.2 152.9 152.9 151 142.5 155.7 162.3 165.4 170.8 178.3 183.1 189.2 199.8 209.8 218.6 233.1 249.2 264.5 279.5 294.1 309.7 327.9 342.4 350.9 354.5 357.1 354.7 354.7 351.7 347.7 349.9 358 361.4 369.8 380.4 393 400.1 401.1 398.8 392.9 389.3 389.2 398.1 410 423.1 437.5 455.3 465.9 469.8 471.2 472 475.8 478.8 479.4 480.1 483.1 482.4 480.9 477.9 474.2 469.2 463.9 458.7 453.6 444.2 435.1 426.1 419.4 413.1 405.1 393.4 375.9 353.8 334.4 324 312.1 298 287.8 280.6 273.6 264.9 254.6 248.7 244.9 234.3 227.8 218 208.3 204 193 181.4 172.1 163.6 156 148.8 144.3 141.1 136.7 132.1 135.3 135.3 135.4 141.1 152.5 160 169.1 179.8 185.7 201.9 225.4 246 250.3 245.8 264.1 308.2 347.9 367.2 375.7 381.1 387 389.6 389.1 386.9 373.1 339.2 312.1 287.4 267.4 249 236.8 226.8 221.2 216.9 216.9 230.9 246.5 269.1 294.4 317.8 328.9 337.7 339.2 340.5 336.1 336.1 336.7 341.1 346.7 350.5 353.2 354.4 354.2 352.2 347.7 341.1 333.2 325.8 317
179.3 176.5 171 165.8 159.5 150.1 143.7 138.7 134.2 132.1 130.5 132.1 131.5 132.7 122.7 120.4 120 120.1 119 118.6 119.7 121 117.8 117.2 117.5 117.5 116.7 115.7 115.8 115.8 115.9 115.7 115.6 117.8 118.4 121.8 128 133.2 138.9 140.6 142.5 147.5 149.9 149.2 147.8 145.5 143.5 152.9 157.8 162 165.3 170.6 178.3 187 194 202.6 212.5 224.5 239.2 256.4 269.9 284.6 299.2 316.7 333.9 345.2 347.7 348.6 348 345.5 344.4 341.2 343.9 352 356.3 361 369 376.3 384.6 386.6 384 380.2 378.3 381.7 389.6 399.3 410.6 423.6 442 455.9 463.6 466.8 468.1 468.4 474 475.7 477.3 478.8 478.7 478 475.9 472.3 467.9 461.9 457.6 452.8 443.4 434.2 425.5 420.2 415.6 406.8 395.3 378.5 353.1 333.9 323.9 311.6 299.1 290.4 283.8 277.3 268 259.1 251.7 243.3 230.6 218 209.3 200.5 194.3 187.9 180.6 167.4 162.2 156.1 151.7 147 141.4 136.4 135.9 132.5 134.9 135.1 135.1 148.8 157.5 165.1 173.3 182.8 200.4 215.9 236.9 246.9 241.5 277.2 322.7 342.8 361.7 372.2 379.1 384.4 386.6 386.1 383.6 376.5 341.8 313.2 291.2 270.1 251.7 238.4 229.6 222.7 214 214.2 226.7 245.7 268.4 295.5 317.9 328.5 333.5 333 332.3 332.2 331.7 333.5 339.3 344.6 347.5 349.5 350.1 348.8 346.5 343.4 333.5 327.7 317.8 309.8
188.2 182.1 177.4 171.3 165.3 158.5 153 154.1 143.4 135.9 133.4 131 129.6 126.1 124.5 124.8 125.8 125.3 121 119.7 119.8 118.8 118.7 117.7 117.3 117.3 117 116.5 113.4 115.9 115.8 115.8 115.7 116.3 117.5 118.3 124.9 129.2 133.1 133.9 136.1 141.2 145.1 145.8 145.1 144.6 139.7 148.8 153.1 156 162.6 170.8 179.4 183.8 188.9 197 206 216.8 230.2 246.5 260.2 275.3 289.6 305 326.6 338.3 343.8 344.7 344.7 343.7 340.4 335.1 338.7 344.9 351.3 355.4 359.7 364 366.8 367.9 365.8 364.8 368.7 375.4 382.2 387.4 398.1 413.7 432.2 448.2 456.8 460 463.5 464.5 466.4 470.5 471.7 473.9 473.9 473.7 472.4 467.8 462.9 457.5 454.3 450.1 441.3 432 426.5 421.6 416.8 409.1 397.6 381.2 354.7 335.6 324.6 313.3 303.6 294.3 287.2 277.9 271.2 262.3 250.1 237.6 225 219.5 212.8 202.9 197.4 191.6 185.1 181.8 168.4 160 151.3 147.2 140.2 136.1 136.7 133.6 134.5 134.7 134.8 142.6 154.3 159.8 167.8 178 192.8 210.8 223.2 231.1 241.7 292 318.6 337.5 356.1 367.8 377.3 381.6 383.3 382.6 381 374.4 346.5 317.4 291.9 271.6 252.9 240 231 224 214 212.7 224.4 243.2 265.7 294.5 313.6 323.8 326.4 324.9 323.9 318.3 324.4 331.7 336.6 341.5 343.7 345.5 344.7 344 342.1 334.5 326.7 322.3 310.6 302.2
204.8 194.1 185.1 178.1 171.1 163.6 156.7 150.6 141.8 138.9 136.9 134 129.7 126.1 127.3 128.8 128.9 128.1 124.1 120.7 122.2 121.5 119.4 118.6 118.1 117.5 116.6 116.4 113.4 115.4 115.4 115.3 115.4 115.4 116 116.7 118 124.2 126.8 126.6 128.5 131.9 137.1 140.3 141.1 142.4 143.2 145 148.6 153.8 165.3 170.1 175.1 180.4 184.7 192.1 199.6 210.6 220.8 234.7 251.9 267.6 280.8 294.7 317 331.9 338.6 340.1 339.6 338 333.9 330.6 331.9 336.9 343.6 350 352.9 353.7 352.7 351.5 352.4 354.8 363.5 371 376.4 381 389.8 406.4 425.2 442.7 451.7 455.5 458.4 461.2 463.3 464.4 466.9 468 469.6 469.9 468 464.5 461.1 457 451.7 446.7 438.4 431.8 427.6 423 418 411.8 400.2 383.4 362.3 343 328.4 315.8 306.5 297.1 289.7 282.1 271 256.6 243.3 243.2 239.2 235.2 231.5 224.1 213.7 202.8 190.1 182.4 176 165 154.4 146.2 138.5 136.7 136.5 135.4 133.6 133.8 134.1 141.2 151.2 157.5 162.7 172.7 184.3 209.7 215.3 221.4 247.2 294.8 312.3 332.1 353.6 363.1 373.9 378.6 380.5 379.4 377.7 373.1 352 323.4 296.7 273 255.2 242.2 232.7 225.4 216.4 212 219.6 237.3 263.6 291.3 305.9 317.5 318.9 314.6 308.6 311.6 322.1 329.9 334.7 337.9 339.8 339.9 339.2 337.8 335.2 327.4 322 314 302 293
221.3 208 195.7 185.1 178.3 170.8 163.5 155.2 148 144.4 141.7 137.7 132.5 127.7 128.1 130.4 130.1 128.2 124 122.4 121.9 120.8 119.8 118.1 117.1 116.5 115.8 115.8 113 115 114.9 114.7 114.9 115.2 114.5 115.5 116.7 117.6 122.1 123.1 124.1 125.3 130.3 135.1 136.2 135.5 137.5 146.8 152.4 156.1 162.3 168.6 173.7 177.4 182.5 187.2 192.8 201.5 213.2 226.1 244 259.3 272.8 286.6 305.3 324.5 332.8 334.8 333.1 329.6 327.7 325.2 324 328.4 335.9 342.4 344.9 345 342.3 343 345.8 350.4 360.5 366.9 370.5 377.2 389.2 406.9 427.2 438.9 446.7 451.3 454.8 458.2 460.8 459.2 461.2 463.5 465.4 466.9 464.5 462.4 459 454.5 449 443.8 437.7 432.4 427.1 422.6 418.2 412.1 402.4 387 367.9 346.7 330.1 317.7 308 298.3 289.3 279.6 261.2 263.5 261.6 261.5 258.2 251.2 243.5 235.7 227.5 214.8 203 190 182.5 171.1 160.6 149.9 139.5 137.3 137 136.2 130.7 134.2 134.4 134.3 148.5 155 158.5 169 180.9 195.8 206.3 222.6 256.6 289.9 307.5 326.1 346.4 359.1 370.2 375.1 376.9 376.7 374.3 371.5 360 328.2 297.2 275.3 257.2 245.7 234.2 226.8 218.6 212.3 215.7 231.6 257.7 283.7 297.7 307.2 309.5 300.6 295.8 309.2 321.2 328.1 331.6 334 335 334.7 333.8 331.9 328.7 322.2 315.3 304.1 294.6 286.4
231.7 220 206.7 194.2 185.6 177.4 169.9 163.6 156.1 149.8 145 142.2 138.5 132.3 129.2 130.3 128.7 126.1 125 123.1 121.3 119.7 119 118.2 117.4 116.7 115.7 115.8 112.7 114.8 114.6 114.3 114.1 116 113.6 114.9 115.7 116.6 118.7 120.9 121.3 122.4 125.8 129.9 131.2 132.1 137.5 149.6 153.3 156.2 161.3 166.3 170.8 174 178.7 183.1 187.7 196 206.5 218.2 236 251 265.3 279.2 294.5 316.7 326.8 330.9 327.9 323.7 321.1 319.9 317.1 319.9 326.5 334 336.4 335.1 334.9 339.5 343.9 350.9 357.4 363.2 368.6 379.7 392.9 408.6 427.1 436.6 443.6 448.2 451.7 454.5 457.2 458.2 456.4 459.1 461.3 463.3 463 460.3 455.6 451.9 447.9 442.2 436.2 430.6 425.5 420.3 415.7 409.3 399.6 385.8 369.3 346.9 328.2 317.2 305.8 294.5 282.4 277.4 282.3 282.2 282.2 281.9 277.3 268.4 258.3 247.6 237.9 226.2 214.5 200.4 184.9 177.8 166.2 156 146.4 138.1 137 136.6 134.5 133.4 134.3 134.6 145.6 149.3 153.9 163.4 175.6 188.8 195.9 228.5 259.2 281.4 301.8 321.5 338.4 356.4 366.2 370.3 372.9 373.2 371.9 369.3 360.7 331.2 302.9 278.7 260.1 246.9 234.4 226.1 219 212.7 213.1 225.2 247.8 273.5 288.9 296.5 297.4 283 292.8 304.8 318 325.5 329.1 328.6 328.8 328.4 326.9 324.3 320.9 315.1 306.5 296.8 289.1 285.3
239.1 227 214.5 202.1 191.9 183.5 175.3 168.1 160.9 153.7 148.7 144.3 140.6 134.6 131.9 130.8 128.5 127.5 125.5 123.7 121.5 120.4 120.1 118.7 117.5 116.1 115.5 115.5 113.8 114.6 114.3 114.2 113.2 113.9 117.7 117.3 115 115.4 116.4 118 118.1 118.4 120.8 125.6 127 128.7 139.6 148.1 151.8 155.4 158.6 162.5 167 171.7 174.2 179.2 183.6 191 200.1 212.2 228.3 244.4 259.5 272.5 286.2 308.9 319.4 325.7 323.3 319.7 316.2 313.5 310.5 313 319.3 323.6 326.3 327.7 329.2 335.5 340.7 346.3 358.6 362 369.3 386.4 398.7 410.9 425.7 434.2 441.4 446 449 451.8 454.3 455.8 455.5 453.7 456.7 459 459.1 457.7 454.6 451.1 447.3 440.8 434.6 428.9 423.8 418.6 413.4 405.4 397.2 384.6 371 352.3 330.8 314.5 302.4 289.6 292.8 300.3 305.5 308.9 307.6 304.4 299.3 289 271.3 257 250.1 238.6 225.1 210.1 194 185.2 174.4 163.6 153.6 144.1 137.6 136.8 135.4 133.4 134.3 134.4 135.6 145.6 149.9 157.8 166.9 180.3 197.1 223.2 252.8 275.9 298.4 315.2 334.1 348.8 360.6 364.8 367.8 369.1 368.6 366.6 357.9 338 309.2 283.7 266.1 248 235.3 227.3 218.7 211.4 211.3 219.6 239.4 260.9 279.3 287.1 282 278.2 289.3 300.6 313.5 320.7 324.9 323.6 322.8 321.5 320.2 316.1 312.6 306 297 289.9 285.2 286.9
244.5 229.2 215.2 203.9 192.7 183.9 176.9 169.8 163.7 156.6 153.5 145.2 141.1 136.2 133.9 132.7 128.6 128 126.2 124.1 122.5 121.7 120.5 119.2 118.1 116 115.2 115 115.1 114.4 113.3 114.7 114.7 117.4 117.7 117.3 116.3 115.1 115.4 116.8 117.2 117.4 117.3 120.5 123.6 126.5 139.9 147.1 150 153.4 155.8 159.3 163.4 167.3 170.9 176.2 179.9 186.7 195.2 207.5 224.3 239.4 253.8 266.4 278.7 296.7 313.3 316.4 318.1 316.1 311.8 306.8 302.9 306.3 311.4 317.5 319.6 321.1 325.7 330.6 336.4 342.1 355.6 362.2 368.8 388.3 401.5 412.6 426.1 433.1 438.4 443.5 446.4 449 451.1 452.1 452.4 451.6 451.5 453.7 454.9 454.1 454.3 451.3 446.8 440.7 433.7 427.3 422.1 417 411.1 402.9 393.8 384.9 376.6 363.4 339.7 319.1 303.6 308.4 316.9 323.4 328.7 331.6 328 322.9 314 304.3 291.9 271.3 253.8 245 234.9 221.8 204.4 188 181.4 171 162.3 152.1 141.2 136.4 135.2 132.2 134.1 134.2 134.2 138.4 145.2 150.9 160.1 175.1 190.5 214.4 246 271.2 295.5 309.5 323.1 338.4 352.5 359.2 361.5 364 364.4 362.5 354.1 343.8 317.1 290 271.2 254.9 240 228.8 218.2 209.8 209.2 215.2 229.4 250.5 264.8 275.9 265.4 274.2 285.5 296.6 308.5 315.2 318.5 318.7 316.4 314.7 311.5 307.5 303.2 294.2 287.6 284.4 288 293
240.2 223.3 210 201.3 191.2 180.5 175.6 171.7 165.7 161.8 155.9 145.2 141.4 140.1 134.6 133.5 128.7 128.3 127.4 124.4 123.6 123.1 122 121.7 120.5 116.9 115.9 115.1 115.6 114.7 114.3 114.5 117.3 117.6 117.6 117.3 117 116.6 114.9 115.6 116.5 116.8 117.3 119 121.2 125 135.9 142.8 147 150.6 152.4 156.2 160.3 163.7 167.2 173 177 182.6 189.8 205.1 221.2 234.5 248.2 260.5 270.7 283.9 303.7 310.8 312 310.9 307.2 301 297.5 300 305.3 313.1 314.8 316.3 320.8 323.5 330.8 335.9 347.7 357.6 366.7 387 400.4 409.7 425.1 433.2 436.7 441 444 446.1 447.7 449.2 449.6 449.3 448.9 449.5 451.1 452.2 452.9 451.4 446.3 440.4 435.4 429.5 422.1 415.6 408.7 401.4 392.1 381.6 374.2 359.5 343.8 332.3 328.5 333.5 335.8 339.2 345.5 348.4 345.8 337.6 326 314.6 305.5 290 266.6 247.5 237.1 231.5 214.7 197 188.7 178.3 169.1 159.3 150.7 138.3 136.5 130.5 133.7 133.8 134 134 135.6 144.4 151.4 167.3 186.2 208.8 238.3 264.6 292.5 307.8 316.1 325.4 340.3 351.9 356 359.4 359.9 358.4 351.6 343.7 327.2 298.3 278.4 262.3 245.6 230.2 218.2 210 208.1 211.5 222.2 238.6 253.8 261.4 254.6 272 283.8 294.4 305 310.5 313.3 313.4 311.4 307.5 302.9 299.5 291.2 282 282 287.9 289.4 297.1
230.1 217.8 209.1 201.4 191.2 181 177.2 173.8 168.4 162.7 157.2 149.6 145.5 141 135.3 134.5 132.3 128.9 128.2 125.9 124.9 124.1 123.8 125.5 123 120.2 117.3 115.1 111.7 114.7 114 115.2 117.6 117.6 117.6 117.4 116.5 114.6 114.9 114.5 115.2 116.4 117.7 117.5 118.7 121.8 130.3 138.4 143.9 146.5 149.6 153.6 157.6 161.2 164.2 169 174.1 179.1 187.2 202.5 218.5 229.8 242.9 254.3 265.2 276.6 292.4 302.7 305.4 304.5 301.2 295.8 292.8 294.9 298.3 303.9 308 310.7 313.1 317.8 324.4 329.1 335.3 349.4 361.8 379.6 396.8 406.3 420 432.6 435.6 438.5 441.7 443.5 445.4 447.4 447.5 447.3 447 447 449 452.1 454.8 452.7 448.9 444.2 439 432.4 425.8 417.9 412.3 405.8 398.1 391.3 386.4 376.4 359.9 353.1 351.4 348.6 349.3 355.7 359.4 360.8 359 352.7 339.8 324.7 312.5 297.1 278.1 260.9 241.8 229.9 222.7 206.7 191.7 185.6 175.6 165.3 156.1 148.8 137.8 134.9 133.1 134.1 134.2 133.7 133.9 136 148.5 163.4 184.7 207.3 232.4 260 288.6 308.1 312.9 321.4 328.1 341 348.6 350.6 352.5 351.5 349 342.7 331.4 310.1 289.9 271.3 253.7 234.9 218.2 209.4 206.8 209.9 219.7 230.9 246.1 250.7 259.1 268.4 280.7 291.2 299.8 306.2 308.4 309 305.4 300.2 293.6 287.5 278.1 279.9 285.6 289.8 291.6 303.2
225.7 216.6 210.1 203 196.1 187.9 184.2 174.1 166.8 165.5 156.1 150.7 148.7 145.3 140 136.1 133.5 132.5 130.4 128.4 127.1 126.3 125.8 127 125.5 122.4 119.2 115.5 111.7 114.9 114.5 116.9 116.9 117.1 116.7 116.1 115.5 113.5 113.6 114.7 113.9 115.8 116.2 116.3 117.1 118.2 124.3 133.3 137.7 141.7 147.1 151.7 154.4 157.6 161.2 165.3 169.8 177.1 184.4 200.2 215 226.7 235.6 248.3 260.9 272.5 284.6 294.6 298.2 297.4 294.4 291.1 288.4 290.9 293.6 298.5 302.1 304.3 305.4 311.5 317.6 320.9 327.5 341.9 356.5 376.9 386.7 401.4 410.1 422.2 431.5 436.2 439.8 441.6 443.5 445 445.6 445.1 444.8 446 448.6 451.9 455 453 452.4 452.7 448.6 443.3 432 425.7 418.9 412.2 404.9 397.1 391.6 381.9 371.6 367.8 365.9 362.6 361.8 363 366.6 368.5 367.1 359.1 348.2 335.6 315.3 301.4 288.1 272.4 254 234.9 222.1 213.4 197.3 191 180.4 171.9 162.3 155.2 143.5 134.7 133.6 130.4 133.8 133.6 133.5 133.6 141.6 160.3 181.3 205 230.7 256.9 284.6 304.4 311.8 319.5 322.5 327.9 337.2 343.7 346 349 347 341.6 333.8 320.4 300.4 281.6 262.2 240.2 219.4 208.9 206.8 206.4 218.5 225.6 236.3 238 254.2 262.9 276.7 287.6 295.1 301.8 303.4 301.2 297.3 288.5 282.1 276.3 279.1 283.8 288.6 290.1 298 307.5
