ncols 200
nrows 102
xllcorner 320000
yllcorner 373300
cellsize 50
-2.7 -2.7 -2.7 -2.7 -2.7 -2.7 -2.7 -2.7 -2.7 -2.7 -2.7 -2.7 -2.7 -2.7 -2.7 -2.7 -2.7 -2.7 -2.7 -2.7 -2.7 -2.7 -2.7 -2.7 -2.7 -2.7 -2.7 -2.7 -2.7 -2.7 -2.7 -2.7 -2.7 -2.7 -2.7 -2.7 -2.7 -2.7 -2.7 -2.7 -2.7 -2.7 -2.7 -2.7 -2.7 -2.7 -2.7 -2.7 -2.7 -2.7 -2.7 -2.7 -2.7 -2.7 -2.7 -2.7 -2.7 -2.7 -2.7 -2.7 -2.7 -2.7 -2.7 -2.7 -2.7 -2.7 -2.7 -2.7 -2.7 -2.7 -2.7 -2.7 -2.7 -2.7 -2.7 -2.7 -2.7 -2.7 -2.7 -2.7 -2.7 -2.7 -2.7 -2.7 -2.7 -2.7 -2.7 -2.7 -2.7 -2.7 -2.7 -2.7 -2.7 -2.7 -2.7 -2.7 -2.7 -2.7 -2.7 -2.7 -2.7 -2.7 -2.7 -2.7 -2.7 -2.7 -2.7 -2.7 -2.5 -2.1 -2 -2 -2 -2 -1.9 -1.6 -0.6 0.4 1.2 2.2 3.2 4.3 4.5 3.2 3.4 4.5 3.2 3.2 3.2 3.2 3.3 4.4 4.1 4.2 4.2 3.8 5 4.7 4.9 4.9 3.2 4.7 3.8 3.7 4 3.9 3.7 3.4 4.3 4.7 4.5 4.1 3.8 3.5 3.2 7 9.2 10.2 11.2 12.1 12.4 12.8 13.4 13.7 15.3 16.5 18.3 19.6 21.5 23.2 24.8 26.5 28 29.1 30.2 31.6 32.9 33.8 34.3 36.3 37.4 39 39.7 40.7 41.5 42 43.4 44.7 46 47.2 47 47.1 47.6 49.3 50.4 50.5 51.3 52.2 52.4 52
-2.7 -2.7 -2.7 -2.7 -2.7 -2.7 -2.7 -2.7 -2.7 -2.7 -2.7 -2.7 -2.7 -2.7 -2.7 -2.7 -2.7 -2.7 -2.7 -2.7 -2.7 -2.7 -2.7 -2.7 -2.7 -2.7 -2.7 -2.7 -2.7 -2.7 -2.7 -2.7 -2.7 -2.7 -2.7 -2.7 -2.7 -2.7 -2.7 -2.7 -2.7 -2.7 -2.7 -2.7 -2.7 -2.7 -2.7 -2.7 -2.7 -2.7 -2.7 -2.7 -2.7 -2.7 -2.7 -2.7 -2.7 -2.7 -2.7 -2.7 -2.7 -2.7 -2.7 -2.7 -2.7 -2.7 -2.7 -2.7 -2.7 -2.7 -2.7 -2.7 -2.7 -2.7 -2.7 -2.7 -2.7 -2.7 -2.7 -2.7 -2.7 -2.7 -2.7 -2.7 -2.7 -2.7 -2.7 -2.7 -2.7 -2.7 -2.7 -2.7 -2.7 -2.7 -2.7 -2.7 -2.7 -2.7 -2.7 -2.7 -2.7 -2.7 -2.7 -2.7 -2.7 -2.7 -2.7 -2.7 -2.7 -2.7 -2.4 -2.5 -2.5 -2.5 -2.7 -1.8 -1.1 -0.2 0.7 1.7 2.7 3.4 3.8 3.2 3.2 3.2 3.2 3.2 3.2 3.2 3.2 3.3 4.8 4.8 4 4.3 3.7 3.2 3.2 3.3 3.9 3.8 3.4 3.2 4.1 4.4 3.5 3.7 4.4 4.4 4.2 4 3.9 3.7 3.3 5 7.5 8.5 9.7 10.9 11.7 12.2 12.8 13.8 15.1 16.4 17.7 19.6 21.3 22.9 24.4 25.8 27.3 28.5 29.5 30.8 31.8 32.7 33.7 34.7 39.3 38.3 38.9 40.2 40.6 41.1 42.5 43.9 45.3 46.4 45.6 45.9 48.2 48.4 49.8 50.3 50.5 51.7 52 52
-2.7 -2.7 -2.7 -2.7 -2.7 -2.7 -2.7 -2.7 -2.7 -2.7 -2.7 -2.7 -2.7 -2.7 -2.7 -2.7 -2.7 -2.7 -2.7 -2.7 -2.7 -2.7 -2.7 -2.7 -2.7 -2.7 -2.7 -2.7 -2.7 -2.7 -2.7 -2.7 -2.7 -2.7 -2.7 -2.7 -2.7 -2.7 -2.7 -2.7 -2.7 -2.7 -2.7 -2.7 -2.7 -2.7 -2.7 -2.7 -2.7 -2.7 -2.7 -2.7 -2.7 -2.7 -2.7 -2.7 -2.7 -2.7 -2.7 -2.7 -2.7 -2.7 -2.7 -2.7 -2.7 -2.7 -2.7 -2.7 -2.7 -2.7 -2.7 -2.7 -2.7 -2.7 -2.7 -2.7 -2.7 -2.7 -2.7 -2.7 -2.7 -2.7 -2.7 -2.7 -2.7 -2.7 -2.7 -2.7 -2.7 -2.7 -2.7 -2.7 -2.7 -2.7 -2.7 -2.7 -2.7 -2.7 -2.7 -2.7 -2.7 -2.7 -2.7 -2.7 -2.7 -2.7 -2.7 -2.7 -2.7 -2.7 -2.7 -2.7 -2.7 -2.7 -2.7 -2.7 -1.7 -0.8 0.2 1.1 2.1 3.1 3.2 3.2 3.2 3.2 3.2 3.2 4.2 3.2 4.7 3.2 3.2 4 3.5 3.2 3.2 3.9 3.4 3.6 4.1 3.8 3.4 3.2 3.2 4.1 3.2 3.9 4.2 4 3.9 3.7 3.5 3.4 3.2 3.2 6.7 8 8.5 9.7 10.7 11.3 12.1 13.2 15.1 16.4 17.8 19.1 20.6 22.2 23.6 25.1 26.6 27.9 29.3 30.6 31.9 32.8 33.8 34.5 39.4 37.9 38 38.7 39.7 40.3 41.7 43.1 44.7 43.9 45.7 46.4 46.9 49.2 49.5 49.5 49.9 50.7 51.6 51.8
-2.7 -2.7 -2.7 -2.7 -2.7 -2.7 -2.7 -2.7 -2.7 -2.7 -2.7 -2.7 -2.7 -2.7 -2.7 -2.7 -2.7 -2.7 -2.7 -2.7 -2.7 -2.7 -2.7 -2.7 -2.7 -2.7 -2.7 -2.7 -2.7 -2.7 -2.7 -2.7 -2.7 -2.7 -2.7 -2.7 -2.7 -2.7 -2.7 -2.7 -2.7 -2.7 -2.7 -2.7 -2.7 -2.7 -2.7 -2.7 -2.7 -2.7 -2.7 -2.7 -2.7 -2.7 -2.7 -2.7 -2.7 -2.7 -2.7 -2.7 -2.7 -2.7 -2.7 -2.7 -2.7 -2.7 -2.7 -2.7 -2.7 -2.7 -2.7 -2.7 -2.7 -2.7 -2.7 -2.7 -2.7 -2.7 -2.7 -2.7 -2.7 -2.7 -2.7 -2.7 -2.7 -2.7 -2.7 -2.7 -2.7 -2.7 -2.7 -2.7 -2.7 -2.7 -2.7 -2.7 -2.7 -2.7 -2.7 -2.7 -2.7 -2.7 -2.7 -2.7 -2.7 -2.7 -2.7 -2.7 -2.7 -2.7 -2.7 -2.7 -2.7 -2.7 -2.7 -2.7 -2.7 -1.5 -0.5 0.6 1.6 2.5 3.2 3.2 3.2 3.2 3.2 3.2 3.4 3.7 3.2 3.2 3.2 3.2 3.2 3.2 4.6 4 3.8 4 4.4 4.1 3.4 3.2 3.2 3.6 3.4 3.8 3.8 3.7 3.5 3.3 3.2 3.2 3.4 3.7 5.3 6.6 8.1 8.8 9.7 10.6 11.6 12.5 13.7 15.9 17.2 17.8 19.3 20.9 22.5 24.1 25.9 27.8 29.1 30.4 31.7 32.9 33.9 34.3 35.6 37.6 37.8 37.7 38.3 39.6 41.5 43.2 42.6 42.8 45.2 46 46.7 47.7 49.8 48.8 48.9 49.8 50.7 51.5
-2.7 -2.7 -2.7 -2.7 -2.7 -2.7 -2.7 -2.7 -2.7 -2.7 -2.7 -2.7 -2.7 -2.7 -2.7 -2.7 -2.7 -2.7 -2.7 -2.7 -2.7 -2.7 -2.7 -2.7 -2.7 -2.7 -2.7 -2.7 -2.7 -2.7 -2.7 -2.7 -2.7 -2.7 -2.7 -2.7 -2.7 -2.7 -2.7 -2.7 -2.7 -2.7 -2.7 -2.7 -2.7 -2.7 -2.7 -2.7 -2.7 -2.7 -2.7 -2.7 -2.7 -2.7 -2.7 -2.7 -2.7 -2.7 -2.7 -2.7 -2.7 -2.7 -2.7 -2.7 -2.7 -2.7 -2.7 -2.7 -2.7 -2.7 -2.7 -2.7 -2.7 -2.7 -2.7 -2.7 -2.7 -2.7 -2.7 -2.7 -2.7 -2.7 -2.7 -2.7 -2.7 -2.7 -2.7 -2.7 -2.7 -2.7 -2.7 -2.7 -2.7 -2.7 -2.7 -2.7 -2.7 -2.7 -2.7 -2.7 -2.7 -2.7 -2.7 -2.7 -2.7 -2.7 -2.7 -2.7 -2.7 -2.7 -2.7 -2.7 -2.7 -2.7 -2.7 -2.7 -2.7 -2.7 -0.9 0 1 1.9 2.9 4.5 4.2 3.2 3.2 3.2 3.8 3.2 3.2 4.2 4.2 3.9 4 3.5 4 4.7 3.9 4.3 4.7 4.4 3.6 3.2 3.4 3.2 3.3 3.7 3.5 3.3 3.2 3.3 3.5 3.8 4 4.2 4.4 5.4 8.3 9.7 10.1 11 11.4 12 13.2 14.5 16.3 17 18.4 20.1 21.8 23.5 25.6 27.6 29 30.2 31.5 32.8 33.9 34.4 34.7 39.4 37.3 37.3 37.1 38.8 40.2 39.9 41.2 43 44.4 45.5 46.1 47.3 46.8 47.1 48.3 49.5 50.2 51
-2.7 -2.7 -2.7 -2.7 -2.7 -2.7 -2.7 -2.7 -2.7 -2.7 -2.7 -2.7 -2.7 -2.7 -2.7 -2.7 -2.7 -2.7 -2.7 -2.7 -2.7 -2.7 -2.7 -2.7 -2.7 -2.7 -2.7 -2.7 -2.7 -2.7 -2.7 -2.7 -2.7 -2.7 -2.7 -2.7 -2.7 -2.7 -2.7 -2.7 -2.7 -2.7 -2.7 -2.7 -2.7 -2.7 -2.7 -2.7 -2.7 -2.7 -2.7 -2.7 -2.7 -2.7 -2.7 -2.7 -2.7 -2.7 -2.7 -2.7 -2.7 -2.7 -2.7 -2.7 -2.7 -2.7 -2.7 -2.7 -2.7 -2.7 -2.7 -2.7 -2.7 -2.7 -2.7 -2.7 -2.7 -2.7 -2.7 -2.7 -2.7 -2.7 -2.7 -2.7 -2.7 -2.7 -2.7 -2.7 -2.7 -2.7 -2.7 -2.7 -2.7 -2.7 -2.7 -2.7 -2.7 -2.7 -2.7 -2.7 -2.7 -2.7 -2.7 -2.7 -2.7 -2.7 -2.7 -2.7 -2.7 -2.7 -2.7 -2.7 -2.7 -2.7 -2.7 -2.7 -2.7 -2.7 -1.2 -0.2 0.8 1.8 2.7 3.2 3.2 3.2 3.2 3.2 3.2 3.2 3.2 4.2 4 3.8 3.8 4.1 3.9 4.9 4 4.4 4.9 3.6 3.2 3.6 3.7 3.2 3.2 3.3 3.2 3.4 3.6 3.8 3.9 4.1 4.3 4.5 4.6 4.8 7.7 8.7 10.6 11.3 11.5 11.6 12.6 13.7 15.2 16.7 18.5 19.4 21.1 23.2 25.3 27.3 28.8 30.1 31.5 32.8 35.7 34.5 34.6 39.4 36.8 36.9 36.4 36.8 36.4 39 41.1 43 44.1 44.7 45.2 45.7 45.2 46.2 47.4 48.7 49.9 50.9
2.3 -2.7 -2.7 -2.7 -2.7 -2.7 -2.7 -2.4 -2 -2.2 -2.1 -2.2 -2.5 -2.7 -2.7 -2.7 -2.7 -2.7 -2.7 -2.7 -2.7 -2.7 -2.7 -2.7 -2.7 -2.7 -2.7 -2.7 -2.7 -2.7 -2.7 -2.7 -2.7 -2.7 -2.7 -2.7 -2.7 -2.7 -2.7 -2.7 -2.7 -2.7 -2.7 -2.7 -2.7 -2.7 -2.7 -2.7 -2.7 -2.7 -2.7 -2.7 -2.7 -2.7 -2.7 -2.7 -2.7 -2.7 -2.7 -2.7 -2.7 -2.7 -2.7 -2.7 -2.7 -2.7 -2.7 -2.7 -2.7 -2.7 -2.7 -2.7 -2.7 -2.7 -2.7 -2.7 -2.7 -2.7 -2.7 -2.7 -2.7 -2.7 -2.7 -2.7 -2.7 -2.7 -2.7 -2.7 -2.7 -2.7 -2.7 -2.7 -2.7 -2.7 -2.7 -2.7 -2.7 -2.7 -2.7 -2.7 -2.7 -2.7 -2.7 -2.7 -2.7 -2.7 -2.7 -2.7 -2.7 -2.7 -2.7 -2.7 -2.7 -2.7 -2.7 -2.7 -2.7 -2.1 -1.2 -0.2 0.8 1.7 2.7 3.2 3.2 3.2 3.2 3.2 3.2 3.2 3.2 3.2 3.2 4.4 3.7 4.5 3.2 3.2 3.2 3.9 3.4 3.2 3.2 3.2 3.2 3.2 3.2 3.3 3.5 3.7 3.9 4 4.2 4.4 4.5 4.7 4.9 5.1 6.6 8.8 10.4 10.7 10.3 11.5 12.4 13.4 14.3 15.5 17.1 18.8 20.5 22.4 24.2 26 27.8 29.5 31.3 33 34 35 34.9 34.8 36.8 36.4 35.8 35.4 37.2 39.5 41.6 42.6 43.5 43.7 43.5 43.5 44.4 45.3 46.5 47.7 49 50.3
-2.5 0.2 -2.7 -2.7 -2.7 -2.7 -1.6 -1.2 -1.1 -1.4 -1.4 -1.7 -2 -2.3 -2.6 -2.7 -2.7 -2.7 -2.7 -2.7 -2.7 -2.7 -2.7 -2.7 -2.7 -2.7 -2.7 -2.7 -2.7 -2.7 -2.7 -2.7 -2.7 -2.7 -2.7 -2.7 -2.7 -2.7 -2.7 -2.7 -2.7 -2.7 -2.7 -2.7 -2.7 -2.7 -2.7 -2.7 -2.7 -2.7 -2.7 -2.7 -2.7 -2.7 -2.7 -2.7 -2.7 -2.7 -2.7 -2.7 -2.7 -2.7 -2.7 -2.7 -2.7 -2.7 -2.7 -2.7 -2.7 -2.7 -2.7 -2.7 -2.7 -2.7 -2.7 -2.7 -2.7 -2.7 -2.7 -2.7 -2.7 -2.7 -2.7 -2.7 -2.7 -2.7 -2.7 -2.7 -2.7 -2.7 -2.7 -2.7 -2.7 -2.7 -2.7 -2.7 -2.7 -2.7 -2.7 -2.7 -2.7 -2.7 -2.7 -2.7 -2.7 -2.7 -2.7 -2.7 -2.7 -2.7 -2.7 -2.7 -2.7 -2.7 -2.7 -2.7 -2.7 -2 -1.1 -0.2 0.8 1.7 2.7 3.2 3.2 3.2 3.2 3.2 3.2 3.2 3.7 3.3 3.2 3.2 3.8 3.2 3.2 3.4 3.4 3.4 3.4 3.4 3.5 3.6 3.6 3.6 3.5 3.2 3.4 3.7 4 4.3 4.5 4.6 4.8 5 5.1 5.6 5.5 7.6 8 8.7 9.9 11.3 12.2 13.2 14.1 14.9 17 18.9 20.5 22.1 23.7 26 27.3 29.1 30.9 32.7 34.2 35.2 35 34.8 36.2 35 34.7 35.3 36.7 39.2 40.6 41.7 42.8 42.7 42.4 43.3 44 44.5 45.5 46.8 48.3 49.6
6.9 7.3 1.2 0.2 -0.3 -0.6 -0.4 0 -0.4 -0.8 -0.9 -1.1 -1.4 -1.7 -2.1 -2.4 -2.7 -2.7 -2.7 -2.7 -2.7 -2.7 -2.7 -2.7 -2.7 -2.7 -2.7 -2.7 -2.7 -2.7 -2.7 -2.7 -2.7 -2.7 -2.7 -2.7 -2.7 -2.7 -2.7 -2.7 -2.7 -2.7 -2.7 -2.7 -2.7 -2.7 -2.7 -2.7 -2.7 -2.7 -2.7 -2.7 -2.7 -2.7 -2.7 -2.7 -2.7 -2.7 -2.7 -2.7 -2.7 -2.7 -2.7 -2.7 -2.7 -2.7 -2.7 -2.7 -2.7 -2.7 -2.7 -2.7 -2.7 -2.7 -2.7 -2.7 -2.7 -2.7 -2.7 -2.7 -2.7 -2.7 -2.7 -2.7 -2.7 -2.7 -2.7 -2.7 -2.7 -2.7 -2.7 -2.7 -2.7 -2.7 -2.7 -2.7 -2.7 -2.7 -2.7 -2.7 -2.7 -2.7 -2.7 -2.7 -2.7 -2.7 -2.7 -2.7 -2.7 -2.7 -2.7 -2.7 -2.7 -2.7 -2.7 -2.7 -2.7 -2.1 -1 -0.1 0.9 1.8 2.7 3.2 3.9 4.4 4.5 3.3 3.9 3.3 4.5 4.1 3.7 3.2 3.2 3.7 4.4 3.8 4 4.1 4 3.8 3.8 3.9 4 4 3.7 3.4 3.2 3.5 3.8 4.1 4.4 4.7 5 5.2 5.4 5.4 4.3 5.5 8 8.3 9.8 11.1 12 13 13.9 14.1 16.1 18.4 19.9 21.4 23.1 25 26.9 28.7 30.6 32.5 34.1 35.3 35.3 35.4 37 33.8 33.7 34.4 36.3 38.5 40.9 41.8 42.1 41.8 42.2 42.3 42.9 43.8 44.7 46.2 48.1 48.5
6.2 5.3 8.5 2.1 1.2 0.7 0.8 0.8 0.2 -0.1 -0.3 -0.6 -0.9 -1.2 -1.5 -1.8 -2.2 -2.5 -2.7 -2.7 -2.7 -2.7 -2.7 -2.7 -2.7 -2.7 -2.7 -2.7 -2.7 -2.7 -2.7 -2.7 -2.7 -2.7 -2.7 -2.7 -2.7 -2.7 -2.7 -2.7 -2.7 -2.7 -2.7 -2.7 -2.7 -2.7 -2.7 -2.7 -2.7 -2.7 -2.7 -2.7 -2.7 -2.7 -2.7 -2.7 -2.7 -2.7 -2.7 -2.7 -2.7 -2.7 -2.7 -2.7 -2.7 -2.7 -2.7 -2.7 -2.7 -2.7 -2.7 -2.7 -2.7 -2.7 -2.7 -2.7 -2.7 -2.7 -2.7 -2.7 -2.7 -2.7 -2.7 -2.7 -2.7 -2.7 -2.7 -2.7 -2.7 -2.7 -2.7 -2.7 -2.7 -2.7 -2.7 -2.7 -2.7 -2.7 -2.7 -2.7 -2.7 -2.7 -2.7 -2.7 -2.7 -2.7 -2.7 -2.7 -2.7 -2.7 -2.7 -2.7 -2.7 -2.7 -2.7 -2.7 -2.5 -1.9 -1.2 -0.3 0.7 1.7 2.8 3.2 3.7 4.1 4.4 4.5 4.5 3.1 4.6 4.7 4.4 4.3 3.5 4.4 3.9 4.2 4.5 4.8 4.6 4.5 4.3 4.3 4.3 4.3 4 3.6 3.3 3.4 3.6 3.9 4.2 4.5 4.8 5.1 4.4 4.5 4.5 4.4 7.4 9 8.8 9.8 10.6 11.8 13 13.3 14.8 17.1 18.8 20.5 22.3 24.4 26.4 28.4 30.3 32.2 33.9 35.4 36.2 36.1 33.9 33.4 33.3 33.3 34.1 37.3 39.5 39.9 41.5 41.3 40.7 40.8 41.5 42.3 43.3 46 47.2 47.5
5.4 5.4 6.2 4.6 2.7 2 2 1.4 0.8 0.5 0.2 -0.1 -0.4 -0.7 -1 -1.3 -1.6 -1.9 -2.3 -2.6 -2.7 -2.7 -2.7 -2.7 -2.7 -2.7 -2.7 -2.7 -2.7 -2.7 -2.7 -2.7 -2.7 -2.7 -2.7 -2.7 -2.7 -2.7 -2.7 -2.7 -2.7 -2.7 -2.7 -2.7 -2.7 -2.7 -2.7 -2.7 -2.7 -2.7 -2.7 -2.7 -2.7 -2.7 -2.7 -2.7 -2.7 -2.7 -2.7 -2.7 -2.7 -2.7 -2.7 -2.7 -2.7 -2.7 -2.7 -2.7 -2.7 -2.7 -2.7 -2.7 -2.7 -2.7 -2.7 -2.7 -2.7 -2.7 -2.7 -2.7 -2.7 -2.7 -2.7 -2.7 -2.7 -2.7 -2.7 -2.7 -2.7 -2.7 -2.7 -2.7 -2.7 -2.7 -2.7 -2.7 -2.7 -2.7 -2.7 -2.7 -2.7 -2.7 -2.7 -2.7 -2.7 -2.7 -2.7 -2.7 -2.7 -2.7 -2.7 -2.7 -2.7 -2.7 -2.7 -2.7 -2.4 -1.7 -1.1 -0.4 0.5 1.4 2.5 3.2 3.4 4.1 4.5 4.6 4.2 3.7 4.6 4.8 3.9 3.5 4.4 4.4 4.5 4.8 4.8 4.8 4.8 4.9 4.9 4.7 4.7 4.5 4.2 3.8 3.5 3.2 3.5 3.8 4.1 4.3 4.6 4 4 4.2 4.4 4.6 5.9 8.3 8.4 9.1 10 11.2 14.8 16.7 15.7 16.3 17.9 19.6 21.7 23.8 25.7 27.6 29.6 32.6 33.9 35.1 36.7 36.1 34.8 37.5 33.4 33.1 32.7 35.8 36.9 40 41.2 40.6 39.9 39.3 39.8 40.4 42.2 44.5 45.2 46.1
5.2 4.8 4.5 6.3 8.1 4 2.6 1.9 1.4 1.1 0.8 0.5 0.1 -0.2 -0.5 -0.8 -1.1 -1.4 -1.8 -2.3 -2.7 -2.7 -2.7 -2.7 -2.7 -2.7 -2.7 -2.7 -2.7 -2.7 -2.7 -2.7 -2.7 -2.7 -2.7 -2.7 -2.7 -2.7 -2.7 -2.7 -2.7 -2.7 -2.7 -2.7 -2.7 -2.7 -2.7 -2.7 -2.7 -2.7 -2.7 -2.7 -2.7 -2.7 -2.7 -2.7 -2.7 -2.7 -2.7 -2.7 -2.7 -2.7 -2.7 -2.7 -2.7 -2.7 -2.7 -2.7 -2.7 -2.7 -2.7 -2.7 -2.7 -2.7 -2.7 -2.7 -2.7 -2.7 -2.7 -2.7 -2.7 -2.7 -2.7 -2.7 -2.7 -2.7 -2.7 -2.7 -2.7 -2.7 -2.7 -2.7 -2.7 -2.7 -2.7 -2.7 -2.7 -2.7 -2.7 -2.7 -2.7 -2.7 -2.7 -2.7 -2.7 -2.7 -2.7 -2.7 -2.7 -2.7 -2.7 -2.7 -2.7 -2.7 -2.7 -2.7 -2.2 -1.5 -0.9 -0.3 0.4 1.3 2.2 3.2 3.4 4.8 3.6 4.4 4 4.3 3.8 4.1 3.4 3.5 3.7 4.2 5 4.9 4.8 4.8 4.9 4.9 4.9 4.9 5 4.7 4.4 4 3.7 3.4 3.3 3.6 3.9 3.7 3.7 3.7 3.6 3.8 4.1 4.5 5.4 7 7.7 9.1 10.1 11.2 12.3 16.4 16.5 15.7 17.2 19 21.1 23.2 25 26.8 28.8 31.2 32.7 34.9 37.1 36.9 36.1 37.4 33.7 32.9 32.3 33.1 36.2 39.2 40.5 40.1 39.5 38.3 38.1 38.6 40.5 41 41.7 42.1
5.1 4.6 4.3 4.9 8.3 6.1 3.2 2.5 2.1 1.6 1.3 1 0.7 0.4 0.1 -0.3 -0.6 -1.2 -1.7 -2.3 -2.7 -2.7 -2.7 -2.7 -2.7 -2.7 -2.7 -2.7 -2.7 -2.7 -2.7 -2.7 -2.7 -2.7 -2.7 -2.7 -2.7 -2.7 -2.7 -2.7 -2.7 -2.7 -2.7 -2.7 -2.7 -2.7 -2.7 -2.7 -2.7 -2.7 -2.7 -2.7 -2.7 -2.7 -2.7 -2.7 -2.7 -2.7 -2.7 -2.7 -2.7 -2.7 -2.7 -2.7 -2.7 -2.7 -2.7 -2.7 -2.7 -2.7 -2.7 -2.7 -2.7 -2.7 -2.7 -2.7 -2.7 -2.7 -2.7 -2.7 -2.7 -2.7 -2.7 -2.7 -2.7 -2.7 -2.7 -2.7 -2.7 -2.7 -2.7 -2.7 -2.7 -2.7 -2.7 -2.7 -2.7 -2.7 -2.7 -2.7 -2.7 -2.7 -2.7 -2.7 -2.7 -2.7 -2.7 -2.7 -2.7 -2.7 -2.7 -2.7 -2.7 -2.7 -2.7 -2.6 -2 -1.3 -0.7 -0.1 0.5 1.3 2.1 3 3.2 3.2 3.8 4 3.4 4.5 4.1 3.4 3.4 3.2 3.4 3.3 4.5 4.9 4.9 4.9 4.9 4.9 5 4.4 4.9 4.8 4.6 4.3 3.9 3.6 3.2 3.4 3.3 3.3 3.4 3.4 3.3 4 4.6 5.3 5.9 6.5 8 9.1 9.9 10.6 11.8 13 15.9 15.8 16.6 18.1 20.5 22.5 24.3 26.1 28.3 30.9 33.2 34.9 37.6 37.9 37.5 35.6 37 32.2 30.6 32.9 36.5 37.5 39.4 39.7 38.7 37.3 36.9 37.3 37.7 38.9 40.6 42.2
4.8 4.5 4.5 4.6 5.9 9.4 8.2 3.1 2.6 2.2 1.8 1.5 1.2 0.9 0.5 0 -0.6 -1.1 -1.6 -2.3 -2.7 -2.7 -2.7 -2.7 -2.7 -2.7 -2.7 -2.7 -2.7 -2.7 -2.7 -2.7 -2.7 -2.7 -2.7 -2.7 -2.7 -2.7 -2.7 -2.7 -2.7 -2.7 -2.7 -2.7 -2.7 -2.7 -2.7 -2.7 -2.7 -2.7 -2.7 -2.7 -2.7 -2.7 -2.7 -2.7 -2.7 -2.7 -2.7 -2.7 -2.7 -2.7 -2.7 -2.7 -2.7 -2.7 -2.7 -2.7 -2.7 -2.7 -2.7 -2.7 -2.7 -2.7 -2.7 -2.7 -2.7 -2.7 -2.7 -2.7 -2.7 -2.7 -2.7 -2.7 -2.7 -2.7 -2.7 -2.7 -2.7 -2.7 -2.7 -2.7 -2.7 -2.7 -2.7 -2.7 -2.7 -2.7 -2.7 -2.7 -2.7 -2.7 -2.7 -2.7 -2.7 -2.7 -2.7 -2.7 -2.7 -2.7 -2.7 -2.7 -2.7 -2.7 -2.7 -2.4 -1.8 -1.1 -0.5 0.1 0.7 1.3 2.1 2.9 3.2 3.2 3.9 3.9 3.2 3.7 3.2 3.2 3.7 3.2 3.2 4 4.6 3.9 4.5 4.8 4.9 5 4.7 4.9 4.9 4.8 4.6 4.4 4.2 3.8 3.4 3.2 3.2 3.2 3.2 3.2 3.2 3.6 4.3 4.9 4.8 4.8 7.8 8.5 9.2 9.9 11.5 13 13.5 14.6 16.3 17.4 19.9 21.8 23.6 25.4 27.6 29.8 32.8 34.3 37.1 38.5 38.6 37.6 36.9 32 30.8 32.1 33.6 36.9 38.3 39.1 37.8 36.4 36.2 36.4 37.9 39.5 41.7 43.6
6.1 4.5 4.6 5.3 5 7 10.4 9.8 3.2 2.7 2.4 2 1.7 1.2 0.6 0.2 -0.3 -1 -1.6 -2.2 -2.7 -2.7 -2.7 -2.7 -2.7 -2.7 -2.7 -2.7 -2.7 -2.7 -2.7 -2.7 -2.7 -2.7 -2.7 -2.7 -2.7 -2.7 -2.7 -2.7 -2.7 -2.7 -2.7 -2.7 -2.7 -2.7 -2.7 -2.7 -2.7 -2.7 -2.7 -2.7 -2.7 -2.7 -2.7 -2.7 -2.7 -2.7 -2.7 -2.7 -2.7 -2.7 -2.7 -2.7 -2.7 -2.7 -2.7 -2.7 -2.7 -2.7 -2.7 -2.7 -2.7 -2.7 -2.7 -2.7 -2.7 -2.7 -2.7 -2.7 -2.7 -2.7 -2.7 -2.7 -2.7 -2.7 -2.7 -2.7 -2.7 -2.7 -2.7 -2.7 -2.7 -2.7 -2.7 -2.7 -2.7 -2.7 -2.7 -2.7 -2.7 -2.7 -2.7 -2.7 -2.7 -2.7 -2.7 -2.7 -2.7 -2.7 -2.7 -2.7 -2.7 -2.7 -2.7 -2.2 -1.6 -0.9 -0.3 0.3 0.9 1.5 2.1 2.9 3.2 3.2 3.2 3.2 3.4 3.2 3.3 4 3.5 3.2 3.5 4.3 3.5 3.6 4.5 3.7 3.2 3.8 4.6 4.9 4.9 4.7 4.6 4.5 4.3 3.8 3.2 3.2 3.2 3.2 3.2 3.2 3.2 3.3 3.9 4.1 4.3 4.7 7.5 8.3 9 9.7 11.6 12.8 13.3 13.8 15.2 16.7 18.7 21 22.8 24 26.7 28.6 31.4 33.5 36.2 38.8 38.6 36.7 34 31.8 30.1 31.3 33.9 36.1 37.8 38.5 37.2 35.9 35.7 36.7 38.3 40.1 42.4 43.5
5.9 6 6.3 6 5.4 4.8 7.6 9 8.1 5.3 2.8 2.3 1.9 1.5 0.9 0.3 -0.2 -0.9 -1.5 -2.7 -2.7 -2.7 -2.7 -2.7 -2.7 -2.7 -2.7 -2.7 -2.7 -2.7 -2.7 -2.7 -2.7 -2.7 -2.7 -2.7 -2.7 -2.7 -2.7 -2.7 -2.7 -2.7 -2.7 -2.7 -2.7 -2.7 -2.7 -2.7 -2.7 -2.7 -2.7 -2.7 -2.7 -2.7 -2.7 -2.7 -2.7 -2.7 -2.7 -2.7 -2.7 -2.7 -2.7 -2.7 -2.7 -2.7 -2.7 -2.7 -2.7 -2.7 -2.7 -2.7 -2.7 -2.7 -2.7 -2.7 -2.7 -2.7 -2.7 -2.7 -2.7 -2.7 -2.7 -2.7 -2.7 -2.7 -2.7 -2.7 -2.7 -2.7 -2.7 -2.7 -2.7 -2.7 -2.7 -2.7 -2.7 -2.7 -2.7 -2.7 -2.7 -2.7 -2.7 -2.7 -2.7 -2.7 -2.7 -2.7 -2.7 -2.7 -2.7 -2.7 -2.7 -2.7 -2.6 -2 -1.4 -0.8 -0.1 0.5 1.1 1.7 2.3 2.9 3.2 3.2 3.2 3.3 3.6 4.6 4.3 3.7 4.9 3.2 4.4 4 4.1 4.5 4.6 3.2 4.4 3.8 4.6 4 4.3 4.9 4.7 4.6 4.4 4.2 3.3 3.3 3.2 4.1 3.2 3.5 3.2 3.2 3.4 3.7 3.9 4.3 5.3 7.8 8.8 9.6 11.1 12.3 12.9 13.5 14.7 16.2 17 19 20.8 22.9 25.2 27.8 30.5 33.1 35.9 37.7 37.9 36.4 34 34.9 29.6 31.2 33.7 34.8 36.1 37.7 36.6 35.4 34.8 35.8 37.5 39.6 41.8 43
5.9 5.6 6.6 6.3 5.6 5 6.1 8 8.5 8 4.5 2.7 2.2 1.7 1.2 0.5 -0.1 -2 -2.7 -2.7 -2.7 -2.7 -2.7 -2.7 -2.7 -2.7 -2.7 -2.7 -2.7 -2.7 -2.7 -2.7 -2.7 -2.7 -2.7 -2.7 -2.7 -2.7 -2.7 -2.7 -2.7 -2.7 -2.7 -2.7 -2.7 -2.7 -2.7 -2.7 -2.7 -2.7 -2.7 -2.7 -2.7 -2.7 -2.7 -2.7 -2.7 -2.7 -2.7 -2.7 -2.7 -2.7 -2.7 -2.7 -2.7 -2.7 -2.7 -2.7 -2.7 -2.7 -2.7 -2.7 -2.7 -2.7 -2.7 -2.7 -2.7 -2.7 -2.7 -2.7 -2.7 -2.7 -2.7 -2.7 -2.7 -2.7 -2.7 -2.7 -2.7 -2.7 -2.7 -2.7 -2.7 -2.7 -2.7 -2.7 -2.7 -2.7 -2.7 -2.7 -2.7 -2.7 -2.7 -2.7 -2.7 -2.7 -2.7 -2.7 -2.7 -2.7 -2.7 -2.7 -2.7 -2.7 -2.4 -1.8 -1.2 -0.6 0.1 0.7 1.3 1.9 2.5 2.9 3 3.2 3.2 3.3 3.8 4.3 3.5 3.3 3.2 3.6 3.7 4.2 4.6 4.5 3.2 3.8 4.5 3.2 3.7 4.6 5 5 4.8 4.7 4.5 4.4 3.7 3.2 3.4 5.2 3.2 3.2 3.2 3.2 3.2 3.2 3.4 4.1 4.8 7.5 8.5 9.2 10.7 11.8 12.5 13.2 14.2 15.7 20.1 18.9 20.4 22.3 23.9 26.5 29 31 33.6 35.9 35.7 36.1 32.5 31 29.4 30.4 31.5 33.8 36.1 36.8 36 35.1 34.6 35.6 37.8 39.1 41.2 42.8
3.7 5.9 6.1 5.8 5.5 5.2 4.9 4.6 7.4 8.1 6.6 3.2 2.6 2.1 0.8 -1.1 -2.7 -2.7 -2.7 -2.7 -2.7 -2.7 -2.7 -2.7 -2.7 -2.7 -2.7 -2.7 -2.7 -2.7 -2.7 -2.7 -2.7 -2.7 -2.7 -2.7 -2.7 -2.7 -2.7 -2.7 -2.7 -2.7 -2.7 -2.7 -2.7 -2.7 -2.7 -2.7 -2.7 -2.7 -2.7 -2.7 -2.7 -2.7 -2.7 -2.7 -2.7 -2.7 -2.7 -2.7 -2.7 -2.7 -2.7 -2.7 -2.7 -2.7 -2.7 -2.7 -2.7 -2.7 -2.7 -2.7 -2.7 -2.7 -2.7 -2.7 -2.7 -2.7 -2.7 -2.7 -2.7 -2.7 -2.7 -2.7 -2.7 -2.7 -2.7 -2.7 -2.7 -2.7 -2.7 -2.7 -2.7 -2.7 -2.7 -2.7 -2.7 -2.7 -2.7 -2.7 -2.7 -2.7 -2.7 -2.7 -2.7 -2.7 -2.7 -2.7 -2.7 -2.7 -2.7 -2.7 -2.7 -2.7 -2.2 -1.6 -1 -0.4 0.3 0.9 1.5 2.1 2.6 2.5 2.6 2.9 3.2 3.2 3.3 3.3 3.2 4.1 4.5 4 3.2 4.2 3.8 4.6 3.5 4.9 4.4 3.6 4.2 4.9 4.4 4.4 4.7 4.8 4.6 4.5 3.6 4 5.1 3.7 3.2 3.2 3.2 3.2 3.2 3.2 3.2 3.7 4.5 7.1 8.4 8.7 10.1 10.9 11.8 12.5 14.2 16.6 16 17.2 19.2 21.4 23 24.8 26.8 28.8 30.4 32.3 34.3 34.5 32.8 30.7 35.5 28.8 30.7 32.5 33.6 34.4 34.5 33.8 34.2 36.4 38.5 40.2 41.6 42.8
4.8 5 5.9 5.7 5.9 5.3 5.5 5 5.8 7.7 8 7.1 1.6 -0.3 -2.2 -2.7 -2.7 -2.7 -2.7 -2.7 -2.7 -2.7 -2.7 -2.7 -2.7 -2.7 -2.7 -2.7 -2.7 -2.7 -2.7 -2.7 -2.7 -2.7 -2.7 -2.7 -2.7 -2.7 -2.7 -2.7 -2.7 -2.7 -2.7 -2.7 -2.7 -2.7 -2.7 -2.7 -2.7 -2.7 -2.7 -2.7 -2.7 -2.7 -2.7 -2.7 -2.7 -2.7 -2.7 -2.7 -2.7 -2.7 -2.7 -2.7 -2.7 -2.7 -2.7 -2.7 -2.7 -2.7 -2.7 -2.7 -2.7 -2.7 -2.7 -2.7 -2.7 -2.7 -2.7 -2.7 -2.7 -2.7 -2.7 -2.7 -2.7 -2.7 -2.7 -2.7 -2.7 -2.7 -2.7 -2.7 -2.7 -2.7 -2.7 -2.7 -2.7 -2.7 -2.7 -2.7 -2.7 -2.7 -2.7 -2.7 -2.7 -2.7 -2.7 -2.7 -2.7 -2.7 -2.7 -2.7 -2.7 -2.6 -2 -1.4 -0.8 -0.2 0.5 1.1 1.7 2.3 2.2 2.1 2.2 2.5 2.9 3.2 3.2 3.2 3.5 4.7 4.7 3.3 3.8 4.6 4.4 3.7 3.7 3.6 4.3 4.7 3.2 4.7 4.6 3.7 4 4.2 4.5 4.6 3.2 3.2 3.6 3.2 3.2 3.2 3.2 3.2 4.8 4.6 3.2 3.4 4.6 5.9 7.7 8.3 9.2 10.1 10.9 11.7 13.8 14.2 15.1 16.3 17.5 19.1 20.9 22.8 24.7 27.2 29.2 31.4 32 32.8 32.2 30 31.7 27.4 29 31.3 33.1 34.2 34.2 32.8 34.8 36.8 38.6 40.2 41.8 43.2
4.5 5.5 4.4 5.8 5.2 4.7 4.9 4.7 6.3 6.3 7.7 6.9 6.9 -2.7 -2.7 -2.7 -2.7 -2.7 -2.7 -2.7 -2.7 -2.7 -2.7 -2.7 -2.7 -2.7 -2.7 -2.7 -2.7 -2.7 -2.7 -2.7 -2.7 -2.7 -2.7 -2.7 -2.7 -2.7 -2.7 -2.7 -2.7 -2.7 -2.7 -2.7 -2.7 -2.7 -2.7 -2.7 -2.7 -2.7 -2.7 -2.7 -2.7 -2.7 -2.7 -2.7 -2.7 -2.7 -2.7 -2.7 -2.7 -2.7 -2.7 -2.7 -2.7 -2.7 -2.7 -2.7 -2.7 -2.7 -2.7 -2.7 -2.7 -2.7 -2.7 -2.7 -2.7 -2.7 -2.7 -2.7 -2.7 -2.7 -2.7 -2.7 -2.7 -2.7 -2.7 -2.7 -2.7 -2.7 -2.7 -2.7 -2.7 -2.7 -2.7 -2.7 -2.7 -2.7 -2.7 -2.7 -2.7 -2.7 -2.7 -2.7 -2.7 -2.7 -2.7 -2.7 -2.7 -2.7 -2.7 -2.7 -2.7 -2.4 -1.8 -1.2 -0.6 0 0.7 1.3 1.9 1.9 1.9 1.8 1.8 2.2 2.5 2.8 3.2 3.1 4.7 4.8 3.2 3.7 3.9 4.7 4.1 3.2 3.5 4.4 4.5 4 3.7 4.1 3.4 3.2 3.3 3.7 4.2 4.7 3.9 3.2 3.2 3.2 3.2 3.2 3.2 4.7 4.4 4.2 3.2 3.2 3.6 5.3 6.5 7.5 8.4 9.3 10.1 11.1 12.8 13.4 15.1 15.8 17.1 18.6 20.3 22.2 23.9 25.7 27.4 29.1 30.5 31.5 30.1 29 27.8 28.3 28.6 30 32.1 33.3 32.9 32.5 35 36.8 38.4 40 41.7 43.2
4.4 4.5 5.1 5.8 5.7 5.8 5.1 4.9 5.4 4.7 6.1 7.9 -2.7 -2.7 -2.7 -2.7 -2.7 -2.7 -2.7 -2.7 -2.7 -2.7 -2.7 -2.7 -2.7 -2.7 -2.7 -2.7 -2.7 -2.7 -2.7 -2.7 -2.7 -2.7 -2.7 -2.7 -2.7 -2.7 -2.7 -2.7 -2.7 -2.7 -2.7 -2.7 -2.7 -2.7 -2.7 -2.7 -2.7 -2.7 -2.7 -2.7 -2.7 -2.7 -2.7 -2.7 -2.7 -2.7 -2.7 -2.7 -2.7 -2.7 -2.7 -2.7 -2.7 -2.7 -2.7 -2.7 -2.7 -2.7 -2.7 -2.7 -2.7 -2.7 -2.7 -2.7 -2.7 -2.7 -2.7 -2.7 -2.7 -2.7 -2.7 -2.7 -2.7 -2.7 -2.7 -2.7 -2.7 -2.7 -2.7 -2.7 -2.7 -2.7 -2.7 -2.7 -2.7 -2.7 -2.7 -2.7 -2.7 -2.7 -2.7 -2.7 -2.7 -2.7 -2.7 -2.7 -2.7 -2.7 -2.7 -2.7 -2.7 -2.2 -1.6 -1 -0.4 0.2 0.9 1.5 1.7 1.6 1.5 1.4 1.5 1.8 2.1 2.5 2.8 3.1 3.1 3.2 4.8 4 4 4.6 3.8 3.2 4.7 4.5 4 3.2 3.9 4 3.2 3.2 3.4 4 4.5 4.5 4.9 3.2 3.2 3.5 4.7 4 4.5 4.2 4 3.7 3.5 3.8 4.8 5 6.4 7.8 8 8.9 9.9 10.8 11.5 13.4 14.4 15.1 15.6 17.6 18.8 20.1 21.7 23.3 24.6 26 28.5 29.2 29.3 28.1 26.9 33.7 26.6 27.5 30.1 31.1 31.3 32.2 34.8 36.7 38.2 39.8 41.6 43.2
4.2 4.8 5.2 5.6 5.9 6.1 6 7.5 5.3 4.5 5.8 7.2 3.2 -2.7 -2.7 -2.7 -2.7 -2.7 -2.7 -2.7 -2.7 -2.7 -2.7 -2.7 -2.7 -2.7 -2.7 -2.7 -2.7 -2.7 -2.7 -2.7 -2.7 -2.7 -2.7 -2.7 -2.7 -2.7 -2.7 -2.7 -2.7 -2.7 -2.7 -2.7 -2.7 -2.7 -2.7 -2.7 -2.7 -2.7 -2.7 -2.7 -2.7 -2.7 -2.7 -2.7 -2.7 -2.7 -2.7 -2.7 -2.7 -2.7 -2.7 -2.7 -2.7 -2.7 -2.7 -2.7 -2.7 -2.7 -2.7 -2.7 -2.7 -2.7 -2.7 -2.7 -2.7 -2.7 -2.7 -2.7 -2.7 -2.7 -2.7 -2.7 -2.7 -2.7 -2.7 -2.7 -2.7 -2.7 -2.7 -2.7 -2.7 -2.7 -2.7 -2.7 -2.7 -2.7 -2.7 -2.7 -2.7 -2.7 -2.7 -2.7 -2.7 -2.7 -2.7 -2.7 -2.7 -2.7 -2.7 -2.7 -2.6 -2 -1.4 -0.8 -0.2 0.4 1 1.4 1.3 1.2 1.1 1.1 1.1 1.4 1.8 2.1 2.4 2.7 3 3.7 4.2 3.5 4.2 4.2 3.7 3.2 4.9 4.8 3.2 3.4 4.9 3.2 3.7 3.2 3.4 4.1 4.7 4.4 3.2 3.2 3.2 3.2 4.4 4.2 4.3 4.1 3.8 3.5 3.3 4.9 5.1 5 5.8 7.6 8.1 8.7 9.7 10.6 11.3 12.5 13.3 13.8 14.9 16.6 17.9 19.3 21 22.5 23.8 25.1 26.5 27 27.3 26.6 24.6 33.6 24.9 23 27 28.4 28.8 32 34.7 37.2 38 39.7 41.4 43.2
4.4 4.7 5.1 5.5 5.6 5.3 6.2 7.4 7.1 6.4 5.6 6.5 5.5 4.6 2 -2.7 -2.7 -2.7 -2.7 -2.7 -2.7 -2.7 -2.7 -2.7 -2.7 -2.7 -2.7 -2.7 -2.7 -2.7 -2.7 -2.7 -2.7 -2.7 -2.7 -2.7 -2.7 -2.7 -2.7 -2.7 -2.7 -2.7 -2.7 -2.7 -2.7 -2.7 -2.7 -2.7 -2.7 -2.7 -2.7 -2.7 -2.7 -2.7 -2.7 -2.7 -2.7 -2.7 -2.7 -2.7 -2.7 -2.7 -2.7 -2.7 -2.7 -2.7 -2.7 -2.7 -2.7 -2.7 -2.7 -2.7 -2.7 -2.7 -2.7 -2.7 -2.7 -2.7 -2.7 -2.7 -2.7 -2.7 -2.7 -2.7 -2.7 -2.7 -2.7 -2.7 -2.7 -2.7 -2.7 -2.7 -2.7 -2.7 -2.7 -2.7 -2.7 -2.7 -2.7 -2.7 -2.7 -2.7 -2.7 -2.7 -2.7 -2.7 -2.7 -2.7 -2.7 -2.7 -2.7 -2.7 -2.4 -1.8 -1.2 -0.6 0 0.6 1.1 1 0.9 0.9 0.8 0.7 0.7 1.1 1.4 1.7 2 2.3 2.6 2.9 3.2 3.4 4.5 3.7 3.8 3.4 3.6 4.4 3.8 3.4 3.2 3.2 3.6 3.4 3.2 3.2 3.7 3.2 3.2 3.5 3.2 3.2 3.2 3.8 4.3 4.2 4 3.7 3.4 3.9 5 5.1 5.7 6.4 8.5 8.9 9.5 10.4 10.6 11.3 12.1 12.8 14.4 15.5 16.5 17.4 18.5 20.3 21.5 22.7 23.8 24.7 25.5 21.4 25.6 27.6 28.2 29.5 30.7 31.1 30.3 32.8 33.8 35.3 37.5 38.9 40.7 42.6
5.2 4.7 5.1 5.3 5.4 5.5 5.4 7.7 11.8 6.6 5.3 5.6 6.3 5.4 3.2 -2.7 -2.7 -2.7 -2.7 -2.5 -2.7 -2.7 -2.7 -2.7 -2.7 -2.7 -2.7 -2.7 -2.7 -2.7 -2.7 -2.7 -2.7 -2.7 -2.7 -2.7 -2.7 -2.7 -2.7 -2.7 -2.7 -2.7 -2.7 -2.7 -2.7 -2.7 -2.7 -2.7 -2.7 -2.7 -2.7 -2.7 -2.7 -2.7 -2.7 -2.7 -2.7 -2.7 -2.7 -2.7 -2.7 -2.7 -2.7 -2.7 -2.7 -2.7 -2.7 -2.7 -2.7 -2.7 -2.7 -2.7 -2.7 -2.7 -2.7 -2.7 -2.7 -2.7 -2.7 -2.7 -2.7 -2.7 -2.7 -2.7 -2.7 -2.7 -2.7 -2.7 -2.7 -2.7 -2.7 -2.7 -2.7 -2.7 -2.7 -2.7 -2.7 -2.7 -2.7 -2.7 -2.7 -2.7 -2.7 -2.7 -2.7 -2.7 -2.7 -2.7 -2.7 -2.7 -2.7 -2.7 -2.2 -1.6 -1 -0.4 0.2 0.8 0.7 0.7 0.6 0.5 0.4 0.3 0.4 0.7 1 1.3 1.7 1.9 2.1 2.4 2.8 3.1 3.3 3.1 3.2 3.4 3.2 4.9 4.6 3.7 3.2 3.2 3.5 3.7 4 3.4 3.2 3.2 3.2 3.5 3.5 3.2 3.2 3.5 4 4.4 4.1 3.9 3.9 4.5 4.7 6 6.3 6.5 8.6 9.1 9.6 10 9.7 10.2 11.2 12.1 13.4 14.8 15.8 16.7 17.6 18.7 20.3 21.4 22 22.2 20.6 21 24.2 26.8 27.9 29.3 30.1 30.8 31.2 31.6 33 34.7 36.3 37.9 39.8 41.7
6 4.8 4.8 4.8 5 5.3 4.8 5.3 5.7 5.5 5.4 5.2 5.2 6.4 5.7 4.7 3.7 1.3 -0.6 -0.1 -0.7 -1.5 -2.7 -2.7 -2.7 -2.7 -2.7 -2.7 -2.7 -2.7 -2.7 -2.7 -2.7 -2.7 -2.7 -2.7 -2.7 -2.7 -2.7 -2.7 -2.7 -2.7 -2.7 -2.7 -2.7 -2.7 -2.7 -2.7 -2.7 -2.7 -2.7 -2.7 -2.7 -2.7 -2.7 -2.7 -2.7 -2.7 -2.7 -2.7 -2.7 -2.7 -2.7 -2.7 -2.7 -2.7 -2.7 -2.7 -2.7 -2.7 -2.7 -2.7 -2.7 -2.7 -2.7 -2.7 -2.7 -2.7 -2.7 -2.7 -2.7 -2.7 -2.7 -2.7 -2.7 -2.7 -2.7 -2.7 -2.7 -2.7 -2.7 -2.7 -2.7 -2.7 -2.7 -2.7 -2.7 -2.7 -2.7 -2.7 -2.7 -2.7 -2.7 -2.7 -2.7 -2.7 -2.7 -2.7 -2.7 -2.7 -2.7 -2.6 -2 -1.4 -0.8 -0.2 0.4 0.5 0.4 0.3 0.2 0.1 0.1 0 0 0.3 0.6 1 1.2 1.5 1.7 2 2.3 2.6 2.6 2.9 3.2 3.2 3.2 3 3.3 4.3 3.5 3.6 3.8 3.9 4.2 4.5 3.7 3.2 3.2 3.2 3.2 3.2 3.2 3.3 3.7 4.1 4.3 4 4.5 4.7 5.8 6.1 6.1 6.2 7.5 9 8.7 8.8 9.1 9.7 10.5 11.4 12.5 13.9 15.1 16 17 18.1 19.2 19.1 18.5 18 18.2 20.4 23.3 25.9 27.5 28.8 29.8 30.5 30.8 31.8 33 34.7 36 37.3 39.1 40.8
9.8 5.5 5.5 4.4 4.7 6.3 11.1 3.7 5.4 5.6 5.4 5.1 8.1 5.1 6.5 4.7 4.2 4 1.7 1.3 0.3 -0.6 -1.3 -1.8 -2.1 -2.1 -2.2 -2.1 -2 -2.2 -2.3 -2.4 -2.5 -2.6 -2.7 -2.7 -2.7 -2.7 -2.7 -2.7 -2.7 -2.7 -2.7 -2.7 -2.7 -2.7 -2.7 -2.7 -2.7 -2.7 -2.7 -2.7 -2.7 -2.7 -2.7 -2.7 -2.7 -2.7 -2.7 -2.7 -2.7 -2.7 -2.7 -2.7 -2.7 -2.7 -2.7 -2.7 -2.7 -2.7 -2.7 -2.7 -2.7 -2.7 -2.7 -2.7 -2.7 -2.7 -2.7 -2.7 -2.7 -2.7 -2.7 -2.7 -2.7 -2.7 -2.7 -2.7 -2.7 -2.7 -2.7 -2.7 -2.7 -2.7 -2.7 -2.7 -2.7 -2.7 -2.7 -2.7 -2.7 -2.7 -2.7 -2.7 -2.7 -2.7 -2.7 -2.7 -2.7 -2.7 -2.7 -2.4 -1.8 -1.2 -0.6 0 0.2 0.1 0 -0.1 -0.1 -0.2 -0.3 -0.4 -0.4 -0.1 0.3 0.6 0.8 1 1.2 1.6 1.9 2.1 2.1 1.7 2.8 3.2 3.2 3.2 3.2 3.2 3.3 3.8 4.5 4.6 3.9 3.3 3.2 3.2 3.2 3.2 3.2 3.2 3.2 3.3 3.6 3.9 4.3 4.4 4.8 5 5.1 5.8 6.1 6.2 6.3 8.4 8.6 9.4 8.8 9.3 10 10.7 11.7 13 14.3 15.3 16.3 17.4 17.7 18.2 17.7 17.2 18.9 21.7 22.9 25 30.4 28 29.5 30.1 31 32 33.1 34.5 35.7 36.8 38.5 40.5
15 10.7 5.2 4.6 6.2 6.9 5.3 4.5 4.4 6 5.7 5.4 5.7 5.3 5.4 5.3 4.7 4 3 2.2 1.2 0.4 -0.3 -0.8 -1.2 -1.3 -1.4 -1.4 -1.5 -1.6 -1.8 -1.9 -2 -2.1 -2.2 -2.4 -2.7 -2.7 -2.7 -2.7 -2.7 -2.7 -2.7 -2.7 -2.7 -2.7 -2.7 -2.7 -2.7 -2.7 -2.7 -2.7 -2.7 -2.7 -2.7 -2.7 -2.7 -2.7 -2.7 -2.7 -2.7 -2.7 -2.7 -2.7 -2.7 -2.7 -2.7 -2.7 -2.7 -2.7 -2.7 -2.7 -2.7 -2.7 -2.7 -2.7 -2.7 -2.7 -2.7 -2.7 -2.7 -2.7 -2.7 -2.7 -2.7 -2.7 -2.7 -2.7 -2.7 -2.7 -2.7 -2.7 -2.7 -2.7 -2.7 -2.7 -2.7 -2.7 -2.7 -2.7 -2.7 -2.7 -2.7 -2.7 -2.7 -2.7 -2.7 -2.7 -2.7 -2.7 -2.7 -2.2 -1.6 -1 -0.4 -0.1 -0.2 -0.3 -0.3 -0.4 -0.5 -0.6 -0.7 -0.8 -0.8 -0.4 -0.1 0.1 0.3 0.5 0.8 1.2 1.4 1.6 1.5 1.1 1.2 2.7 3.2 3.2 3.2 3.2 3.2 3.7 3.8 4.2 4.6 3.8 3.2 3.2 3.2 4.2 3.2 3.2 3.2 3.2 3.6 3.9 4.4 4.1 4.2 4.3 4.5 5.2 6 6.1 6.2 6.9 8 8.7 8.6 8.9 9.6 10.3 11 12.1 13.4 14.6 15.4 15.7 16 17 16.8 16.9 19.4 20.7 21.6 23.8 31.5 27.5 28.9 30.2 31.2 32.2 33.3 34.4 35.7 36.7 39.5 41.4
20 14.2 10.6 5.6 7.4 6.6 5.4 4.6 4.7 5.4 5.5 5.8 5.7 6.2 4.6 3.7 4.6 4.1 2.2 3 2.1 1.4 0.7 0 -0.2 -0.6 -0.7 -0.7 -1 -1.1 -1.2 -1.4 -1.5 -1.6 -1.7 -2 -2.5 -2.7 -2.7 -2.7 -2.7 -2.7 -2.7 -2.7 -2.7 -2.7 -2.7 -2.7 -2.7 -2.7 -2.7 -2.7 -2.7 -2.7 -2.7 -2.7 -2.7 -2.7 -2.7 -2.7 -2.7 -2.7 -2.7 -2.7 -2.7 -2.7 -2.7 -2.7 -2.7 -2.7 -2.7 -2.7 -2.7 -2.7 -2.7 -2.7 -2.7 -2.7 -2.7 -2.7 -2.7 -2.7 -2.7 -2.7 -2.7 -2.7 -2.7 -2.7 -2.7 -2.7 -2.7 -2.7 -2.7 -2.7 -2.7 -2.7 -2.7 -2.7 -2.7 -2.7 -2.7 -2.7 -2.7 -2.7 -2.7 -2.7 -2.7 -2.7 -2.7 -2.7 -2.7 -2 -1.4 -0.8 -0.4 -0.5 -0.5 -0.6 -0.7 -0.8 -0.9 -0.9 -1 -1.1 -1.1 -0.8 -0.5 -0.4 -0.2 0.1 0.4 0.7 0.9 1 0.9 0.6 0.2 1.1 2.6 3.2 3.2 3.2 3.2 3.5 3.5 3.4 3.4 3.2 3.2 3.2 3.2 3.2 3.7 4.8 4.4 3.2 3.7 4.2 4.3 4 3.7 3.6 3.8 4.5 5.5 6.1 6.1 6.5 8.2 7.8 9.5 8.6 9.2 10 10.8 12 13 12.8 14.1 14.9 15 15.9 17.6 18.7 19.6 20.9 21.6 23.2 25.4 26.9 28.8 30.3 31.3 32.3 33 33.4 35.4 36.3 39.2 40.7
22.1 18.1 12.4 10.1 6.4 6.5 5.4 4.8 4.9 5.3 5.5 5.8 5.4 3.5 4.8 3.9 4.1 4 1.6 2.7 3 2.3 1.6 0.9 0.5 0.1 -0.1 -0.2 -0.5 -0.6 -0.7 -0.8 -1 -1.1 -1.3 -1.7 -2.7 -2.7 -2.7 -2.7 -2.7 -2.7 -2.7 -2.7 -2.7 -2.7 -2.7 -2.7 -2.7 -2.7 -2.7 -2.7 -2.7 -2.7 -2.7 -2.7 -2.7 -2.7 -2.7 -2.7 -2.7 -2.7 -2.7 -2.7 -2.7 -2.7 -2.7 -2.7 -2.7 -2.7 -2.7 -2.7 -2.7 -2.7 -2.7 -2.7 -2.7 -2.7 -2.7 -2.7 -2.7 -2.7 -2.7 -2.7 -2.7 -2.7 -2.7 -2.7 -2.7 -2.7 -2.7 -2.7 -2.7 -2.7 -2.7 -2.7 -2.7 -2.7 -2.7 -2.7 -2.7 -2.7 -2.7 -2.7 -2.7 -2.7 -2.7 -2.7 -2.7 -2.7 -2.5 -1.8 -1.2 -0.8 -0.7 -0.8 -0.9 -1 -1.1 -1.1 -1.2 -1.3 -1.4 -1.5 -1.5 -1.2 -1.1 -0.8 -0.7 -0.4 -0.1 0.2 0.3 0.5 0.4 0 -0.4 -0.6 1 2.8 3.2 3.2 3.2 3.2 3.2 3.2 2.9 3.2 3.2 3.2 4.4 4.5 3.2 3.5 4 3.9 4 4.4 4.2 4 3.5 3.3 3.2 4 5 5.8 6.3 6.1 6.9 7.5 8.6 7.8 8.8 9.8 9.8 11.1 12 11.1 12.3 13.9 15 16.4 18.3 20.1 21.6 22.5 22.9 23.8 31.6 26.9 28.3 29.6 30.9 31.4 31.7 33.1 34.5 36.1 38.4 41.4
24.8 23.4 18.8 14.5 13.8 7.8 5.5 5 5.1 5.5 4.9 4.3 4.4 4.4 3.7 3.5 3.5 3.5 4.1 2.1 2.6 3.1 2.3 1.7 1.2 0.7 0.5 0.3 0 -0.1 -0.2 -0.3 -0.4 -0.7 -1 -1.9 -2.7 -2.7 -2.7 -2.7 -2.7 -2.7 -2.7 -2.7 -2.7 -2.7 -2.7 -2.7 -2.7 -2.7 -2.7 -2.7 -2.7 -2.7 -2.7 -2.7 -2.7 -2.7 -2.7 -2.7 -2.7 -2.7 -2.7 -2.7 -2.7 -2.7 -2.7 -2.7 -2.7 -2.7 -2.7 -2.7 -2.7 -2.7 -2.7 -2.7 -2.7 -2.7 -2.7 -2.7 -2.7 -2.7 -2.7 -2.7 -2.7 -2.7 -2.7 -2.7 -2.7 -2.7 -2.7 -2.7 -2.7 -2.7 -2.7 -2.7 -2.7 -2.7 -2.7 -2.7 -2.7 -2.7 -2.7 -2.7 -2.7 -2.7 -2.7 -2.7 -2.7 -2.7 -2.3 -1.6 -1.1 -1 -1.1 -1.2 -1.3 -1.3 -1.4 -1.5 -1.6 -1.7 -1.7 -1.8 -1.9 -1.7 -1.5 -1.3 -1.1 -0.8 -0.5 -0.3 -0.2 -0.1 -0.2 -0.6 -0.9 -1.3 -0.7 0.3 1.3 1.4 0.5 0.9 1.6 1.4 0.9 1.9 3.2 3 3.6 3.5 3.7 3.8 3.8 4 4.3 4.3 4.2 3.9 3.4 3.2 3.6 4.3 4.7 4.9 4.8 5.5 5.8 7.3 6.8 7.7 8 8.4 8.9 9.6 10.4 10.8 11.8 13.5 15.2 17.1 18.6 20.1 21.6 22.8 23.8 24.8 31 26.5 27.7 28.9 30.1 30.5 32.3 33.9 35.1 36.4 38.1 41
29.7 25 21.5 18 14 9 6 5.6 4.8 5 4.6 4.2 4.6 4.4 4 3.8 3.7 3.4 3.6 3 2.1 2.7 3.1 2.4 1.8 1.3 1.2 0.8 0.5 0.4 0.3 0.2 0 -0.3 -1 -2.1 -2.7 -2.7 -2.7 -2.7 -2.7 -2.7 -2.7 -2.7 -2.7 -2.7 -2.7 -2.7 -2.7 -2.7 -2.7 -2.7 -2.7 -2.7 -2.7 -2.7 -2.7 -2.7 -2.7 -2.7 -2.7 -2.7 -2.7 -2.7 -2.7 -2.7 -2.7 -2.7 -2.7 -2.7 -2.7 -2.7 -2.7 -2.7 -2.7 -2.7 -2.7 -2.7 -2.7 -2.7 -2.7 -2.7 -2.7 -2.7 -2.7 -2.7 -2.7 -2.7 -2.7 -2.7 -2.7 -2.7 -2.7 -2.7 -2.7 -2.7 -2.7 -2.7 -2.7 -2.7 -2.7 -2.7 -2.7 -2.7 -2.7 -2.7 -2.7 -2.7 -2.7 -2.7 -2.1 -1.4 -1.3 -1.4 -1.5 -1.5 -1.6 -1.7 -1.8 -1.9 -1.9 -2 -2.1 -2.2 -2.3 -2.2 -2 -1.8 -1.6 -1.3 -1 -0.9 -0.7 -0.6 -0.8 -1.1 -1.5 -1.9 -2.2 -2.7 -2.7 -2.7 -2.7 -2.7 -2.7 -2.7 -0.8 1.2 3.2 4 4.4 3.8 4.3 4.1 3.4 3.2 3.8 3.3 3.6 3.9 3.7 3.2 3.7 4.4 5.2 5.1 5 5.1 5.1 5.9 7.1 8.3 8.1 9.8 7.9 8.3 9.2 10 11.8 14 15.4 16.3 18.1 20.1 21.5 23 24 25 27.7 25.6 26.7 28 29.4 30.6 32.1 34.4 36.3 37.6 38.9 41.4
31.7 27.3 25.4 22.3 17.8 11.6 9 6.4 5.4 4.6 4.4 5 4.3 4.3 4.2 4 3.8 3.4 3.6 4 1.6 2.2 2.8 3 2.4 2 1.7 1.3 1.1 0.9 0.8 0.6 0.3 -0.1 -1.2 -2.3 -2.7 -2.7 -2.7 -2.7 -2.7 -2.7 -2.7 -2.7 -2.7 -2.7 -2.7 -2.7 -2.7 -2.7 -2.7 -2.7 -2.7 -2.7 -2.7 -2.7 -2.7 -2.7 -2.7 -2.7 -2.7 -2.7 -2.7 -2.7 -2.7 -2.7 -2.7 -2.7 -2.7 -2.7 -2.7 -2.7 -2.7 -2.7 -2.7 -2.7 -2.7 -2.7 -2.7 -2.7 -2.7 -2.7 -2.7 -2.7 -2.7 -2.7 -2.7 -2.7 -2.7 -2.7 -2.7 -2.7 -2.7 -2.7 -2.7 -2.7 -2.7 -2.7 -2.7 -2.7 -2.7 -2.7 -2.7 -2.7 -2.7 -2.7 -2.7 -2.7 -2.7 -2.5 -1.9 -1.6 -1.6 -1.7 -1.8 -1.9 -2 -2.1 -2.1 -2.2 -2.3 -2.4 -2.5 -2.7 -2.7 -2.7 -2.7 -2.3 -2 -1.7 -1.5 -1.4 -1.3 -1.2 -1.4 -1.7 -2.1 -2.4 -2.7 -2.7 -2.7 -2.7 -2.7 -2.7 -2.7 -2.7 -2.7 -2.7 1.5 3.7 4.5 3.5 4.4 3.2 3.2 3.2 3.5 3.2 3.2 3.5 3.4 3.2 4 4.7 5.9 5.3 5.3 5.3 5.1 4.9 6.8 6.4 7.6 7.6 8 8.4 9.1 10 12 13.9 15 15.9 17.4 19.7 21.3 22.9 23.5 23.4 23.7 24.5 26 27.6 29.3 30.6 31.9 34.3 36.8 38.2 40.5 43
32.1 31.5 29.7 26.7 22.4 17.6 11.5 9.9 6.6 6.2 4.8 4.7 4.7 4.6 5.8 4.2 3.7 3.4 3.6 4 2.5 1.8 2.3 2.8 3 2.5 2.2 1.8 1.6 1.5 1.3 1 0.7 -0.3 -1.4 -2.5 -2.7 -2.7 -2.7 -2.7 -2.7 -2.7 -2.7 -2.7 -2.7 -2.7 -2.7 -2.7 -2.7 -2.7 -2.7 -2.7 -2.7 -2.7 -2.7 -2.7 -2.7 -2.7 -2.7 -2.7 -2.7 -2.7 -2.7 -2.7 -2.7 -2.7 -2.7 -2.7 -2.7 -2.7 -2.7 -2.7 -2.7 -2.7 -2.7 -2.7 -2.7 -2.7 -2.7 -2.7 -2.7 -2.7 -2.7 -2.7 -2.7 -2.7 -2.7 -2.7 -2.7 -2.7 -2.7 -2.7 -2.7 -2.7 -2.7 -2.7 -2.7 -2.7 -2.7 -2.7 -2.7 -2.7 -2.7 -2.7 -2.7 -2.7 -2.7 -2.7 -2.7 -2.3 -2 -1.9 -2 -2.1 -2.2 -2.3 -2.3 -2.4 -2.5 -2.6 -2.7 -2.7 -2.7 -2.7 -2.7 -2.7 -2.7 -2.7 -2.7 -2.2 -2.1 -1.9 -1.8 -1.8 -1.9 -2.3 -2.6 -2.7 -2.7 -2.7 -2.7 -2.7 -2.6 -2.5 -2.4 -2.4 -2.4 -2.7 -2.7 -2.7 3.2 4.4 3.8 3.2 3.2 4.2 4.4 3.7 3.4 3.2 3.2 3.2 3.6 4.6 5.2 4.9 4.7 4.5 4.3 4.2 5.8 5.3 6 8 8.4 8.8 9.2 10 11.9 13.3 14.5 15.5 16.9 19.4 20.9 22.5 22.6 21.6 23.1 27.7 25.3 27.2 28.6 30.2 32.7 35 37.2 38.6 42 43.6
36.5 33.5 32.2 30.1 27.2 21.3 14.7 12.6 9.7 7.3 6.6 6.6 5.9 4.5 4.4 5.8 3.8 3.5 3.6 5 4.1 4.1 1.8 2.3 2.8 3.1 2.6 2.3 2.1 1.9 1.7 1.4 0.5 -0.5 -1.6 -2.7 -2.7 -2.7 -2.7 -2.7 -2.7 -2.7 -2.7 -2.7 -2.7 -2.7 -2.7 -2.7 -2.7 -2.7 -2.7 -2.7 -2.7 -2.7 -2.7 -2.7 -2.7 -2.7 -2.7 -2.7 -2.7 -2.7 -2.7 -2.7 -2.7 -2.7 -2.7 -2.7 -2.7 -2.7 -2.7 -2.7 -2.7 -2.7 -2.7 -2.7 -2.7 -2.7 -2.7 -2.7 -2.7 -2.7 -2.7 -2.7 -2.7 -2.7 -2.7 -2.7 -2.7 -2.7 -2.7 -2.7 -2.7 -2.7 -2.7 -2.7 -2.7 -2.7 -2.7 -2.7 -2.7 -2.7 -2.7 -2.7 -2.7 -2.7 -2.7 -2.7 -2.7 -2.3 -2.2 -2.3 -2.4 -2.5 -2.5 -2.6 -2.7 -2.7 -2.7 -2.7 -2.7 -2.7 -2.7 -2.7 -2.7 -2.7 -2.7 -2.7 -2.7 -2.7 -2.6 -2.5 -2.3 -2.3 -2.5 -2.7 -2.7 -2.7 -2.7 -2.3 -2.3 -2.2 -2.1 -2 -1.9 -1.8 -1.8 -2 -2.2 -2.7 -2.7 3.2 3.3 4.1 4.5 4.1 4.3 4.5 4 3.6 3.2 3.2 3.2 3.3 4.1 4.2 4 3.8 3.6 4 5.5 5.8 6.1 8.1 8.9 9.3 9.6 10 11.4 12.8 14.1 14.4 16.8 19 20.5 21.5 20.9 19.9 22.3 28.7 24.8 26.3 28.1 29.7 31.7 34.3 37.2 39 42 44.9
40.1 37.6 34.9 30.4 23.1 23.3 15.1 12.8 12.4 9.9 8.4 5.5 5.4 5.9 6.5 4.4 5.8 4.1 4 4 4.3 4.6 3.9 1.8 2.3 2.8 3.1 2.8 2.6 2.3 2 1.4 0.3 -0.7 -1.8 -2.7 -2.7 -2.7 -2.7 -2.7 -2.7 -2.7 -2.7 -2.7 -2.7 -2.7 -2.7 -2.7 -2.7 -2.7 -2.7 -2.7 -2.7 -2.7 -2.7 -2.7 -2.7 -2.7 -2.7 -2.7 -2.7 -2.7 -2.7 -2.7 -2.7 -2.7 -2.7 -2.7 -2.7 -2.7 -2.7 -2.7 -2.7 -2.7 -2.7 -2.7 -2.7 -2.7 -2.7 -2.7 -2.7 -2.7 -2.7 -2.7 -2.7 -2.7 -2.7 -2.7 -2.7 -2.7 -2.7 -2.7 -2.7 -2.7 -2.7 -2.7 -2.7 -2.7 -2.7 -2.7 -2.7 -2.7 -2.7 -2.7 -2.7 -2.7 -2.7 -2.7 -2.7 -2.5 -2.6 -2.6 -2.7 -2.7 -2.7 -2.7 -2.7 -2.7 -2.7 -2.7 -2.7 -2.7 -2.7 -2.7 -2.7 -2.7 -2.7 -2.7 -2.7 -2.7 -2.7 -2.7 -2.7 -2.7 -2.7 -2.7 -2.7 -2.7 -2.2 -1.8 -1.7 -1.6 -1.5 -1.5 -1.4 -1.3 -1.3 -1.4 -1.6 -1.9 -2.7 -2.7 3.2 4.7 4.4 3.7 3.9 4.1 4.3 3.5 3.2 3.2 3.2 3.2 4.4 3.5 3.3 3.2 3.2 3.2 4.6 6.3 7.5 7.7 8 8.4 8.8 9.5 10.8 12.7 12.5 14.1 16.2 18.2 19.9 20.6 19.9 18.9 22.5 23.3 24.4 26.4 28.3 29.8 31.5 32.7 36.3 39.6 42.2 45.1
43.2 39.5 35.2 30.7 28.5 28 16.7 13.2 12.4 13.1 11.9 9.2 5.3 4.9 4.7 5.7 6.2 4.6 3.6 3.8 3.2 3.5 4.1 4.1 2.3 3.5 2.9 3.2 3 2.7 2.3 1.2 0.1 -1 -2 -2.7 -2.7 -2.7 -2.7 -2.7 -2.7 -2.7 -2.7 -2.7 -2.7 -2.7 -2.7 -2.7 -2.7 -2.7 -2.7 -2.7 -2.7 -2.7 -2.7 -2.7 -2.7 -2.7 -2.7 -2.7 -2.7 -2.7 -2.7 -2.7 -2.7 -2.7 -2.7 -2.7 -2.7 -2.7 -2.7 -2.7 -2.7 -2.7 -2.7 -2.7 -2.7 -2.7 -2.7 -2.7 -2.7 -2.7 -2.7 -2.7 -2.7 -2.7 -2.7 -2.7 -2.7 -2.7 -2.7 -2.7 -2.7 -2.7 -2.7 -2.7 -2.7 -2.7 -2.7 -2.7 -2.7 -2.7 -2.7 -2.7 -2.7 -2.7 -2.7 -2.7 -2.7 -2.7 -2.7 -2.7 -2.7 -2.7 -2.7 -2.7 -2.7 -2.7 -2.7 -2.7 -2.7 -2.7 -2.7 -2.7 -2.7 -2.7 -2.7 -2.7 -2.7 -2.7 -2.7 -2.7 -2.7 -2.7 -2.7 -2.7 -2.7 -2.3 -1.9 -1.5 -1.2 -1.1 -1 -0.9 -0.8 -0.7 -0.7 -0.8 -1 -1.3 -1.8 -2.3 -2.7 3.2 3.2 3.3 3.5 3.8 4 4.4 3.2 3.2 3.2 3.2 3.2 3.3 3.4 3.4 3.5 3.2 3.7 5 6.4 6.8 7.2 7.5 8.1 9 9.8 12 12.3 13.7 15.4 17.4 19.1 19.2 18.3 19.8 22.5 24.1 28 26.3 27.6 28.7 30.2 34.4 37.6 40.3 43.1 45.4
45.2 42.1 38.5 33.4 33.5 30.9 16.2 16.1 15.3 14.3 13.3 12.4 7.9 6.1 5.2 4.2 5.2 6.1 4 3.4 3.2 4.4 4.5 4.7 4.3 2.2 3.7 2.8 2.9 3.1 2.1 1 -0.1 -1.2 -2.2 -2.7 -2.7 -2.7 -2.7 -2.7 -2.7 -2.7 -2.7 -2.7 -2.7 -2.7 -2.7 -2.7 -2.7 -2.7 -2.7 -2.7 -2.7 -2.7 -2.7 -2.7 -2.7 -2.7 -2.7 -2.7 -2.7 -2.7 -2.7 -2.7 -2.7 -2.7 -2.7 -2.7 -2.7 -2.7 -2.7 -2.7 -2.7 -2.7 -2.7 -2.7 -2.7 -2.7 -2.7 -2.7 -2.7 -2.7 -2.7 -2.7 -2.7 -2.7 -2.7 -2.7 -2.7 -2.7 -2.7 -2.7 -2.7 -2.7 -2.7 -2.7 -2.7 -2.7 -2.7 -2.7 -2.7 -2.7 -2.7 -2.7 -2.7 -2.7 -2.7 -2.7 -2.7 -2.7 -2.7 -2.7 -2.7 -2.7 -2.7 -2.7 -2.7 -2.7 -2.7 -2.7 -2.7 -2.7 -2.7 -2.7 -2.7 -2.7 -2.7 -2.7 -2.7 -2.7 -2.7 -2.7 -2.7 -2.7 -2.7 -2.4 -2.1 -1.9 -1.6 -1.2 -0.8 -0.6 -0.5 -0.4 -0.3 -0.2 -0.2 -0.3 -0.4 -0.8 -1.2 -1.8 -2.7 -2.7 3.2 3.2 3.4 3.6 3.8 3.2 3.2 3.2 3.2 3.4 3.5 3.8 3.8 3.8 3.8 3.2 5.2 4.4 4.7 6 6.3 6.7 7.6 8.5 9.5 11.7 12 13.4 15.1 16.6 17.6 17 17.8 20.4 22.3 24.2 25.5 25.3 25.1 27.2 31 33.8 37.2 39.7 42.1 46.3
48 46.7 43 38.4 35.8 29.2 17 16.9 16.4 15.4 14.4 13.5 12.1 9.1 5.5 5 4.3 4.6 5.7 4.2 4.5 4.6 6.1 5 4.6 4.2 2.9 2.4 2.4 2.9 2.7 1.2 -0.2 -1.4 -2.7 -2.7 -2.7 -2.7 -2.7 -2.7 -2.7 -2.7 -2.7 -2.7 -2.7 -2.7 -2.7 -2.7 -2.7 -2.7 -2.7 -2.7 -2.7 -2.7 -2.7 -2.7 -2.7 -2.7 -2.7 -2.7 -2.7 -2.7 -2.7 -2.7 -2.7 -2.7 -2.7 -2.7 -2.7 -2.7 -2.7 -2.7 -2.7 -2.7 -2.7 -2.7 -2.7 -2.7 -2.7 -2.7 -2.7 -2.7 -2.7 -2.7 -2.7 -2.7 -2.7 -2.7 -2.7 -2.7 -2.7 -2.7 -2.7 -2.7 -2.7 -2.7 -2.7 -2.7 -2.7 -2.7 -2.7 -2.7 -2.7 -2.7 -2.7 -2.7 -2.7 -2.7 -2.7 -2.7 -2.7 -2.7 -2.7 -2.7 -2.7 -2.7 -2.7 -2.7 -2.7 -2.7 -2.7 -2.7 -2.7 -2.7 -2.7 -2.7 -2.7 -2.7 -2.7 -2.7 -2.7 -2.7 -2.7 -2.6 -2.3 -2 -1.7 -1.4 -1.2 -0.9 -0.6 -0.1 0.1 0.2 0.2 0.3 0.4 0.3 0.2 -0.2 -0.7 -1.4 -2.1 -2.7 1.2 3.2 3.3 3.5 3.3 3.9 3.2 3.6 3.8 3.8 3.9 4.1 4.4 4.3 4.1 3.2 3.8 4.2 4.4 4.8 5.4 6.2 7.1 8 9.3 11.5 11.8 13 14.4 15.8 15.2 15.3 18 20.3 22.1 24 23.3 26.6 27.3 27.9 31 34 36.8 39.2 41.6 44.6
51.8 49.8 47.9 44.6 40.1 27 17.8 18.2 18.1 16.6 15.6 14.7 14.2 13.1 11.3 7.1 4.9 4.4 5.1 5.9 4.5 4.4 4.4 5.2 4.6 4.5 4.3 1.6 2.1 2.5 2.9 3 1 -2.7 -2.7 -2.7 -2.7 -2.7 -2.7 -2.7 -2.7 -2.7 -2.7 -2.7 -2.7 -2.7 -2.7 -2.7 -2.7 -2.7 -2.7 -2.7 -2.7 -2.7 -2.7 -2.7 -2.7 -2.7 -2.7 -2.7 -2.7 -2.7 -2.7 -2.7 -2.7 -2.7 -2.7 -2.7 -2.7 -2.7 -2.7 -2.7 -2.7 -2.7 -2.7 -2.7 -2.7 -2.7 -2.7 -2.7 -2.7 -2.7 -2.7 -2.7 -2.7 -2.7 -2.7 -2.7 -2.7 -2.7 -2.7 -2.7 -2.7 -2.7 -2.7 -2.7 -2.7 -2.7 -2.7 -2.7 -2.7 -2.7 -2.7 -2.7 -2.7 -2.7 -2.7 -2.7 -2.7 -2.7 -2.7 -2.7 -2.7 -2.7 -2.7 -2.7 -2.7 -2.7 -2.7 -2.7 -2.7 -2.7 -2.7 -2.7 -2.7 -2.7 -2.7 -2.7 -2.7 -2.7 -2.7 -2.7 -2.5 -2.2 -1.9 -1.6 -1.3 -1 -0.7 -0.5 -0.2 0.1 0.6 0.7 0.8 0.9 0.9 0.9 0.8 0.4 -0.2 -0.9 -1.8 -2.7 -0.1 1.9 3.2 3.2 3.2 3.2 3.2 4.4 4.3 4.5 3.8 4.6 4.9 4.5 3.8 -2.7 4.8 4.6 4.5 4.6 5 6 6.8 7.6 12.5 11.6 11.2 12.3 13.4 14 13.5 15.4 17.7 20 21.2 22 22.9 27.7 27 28.8 31 33.9 36.3 38.7 41.2 44.8
55.5 54.4 51.8 49.5 41.3 24.8 19.7 19.6 19.6 18.9 17.7 18.5 19.2 18.1 14.4 12.1 9.4 5.1 5.1 5.1 5.7 4.2 4.5 4.6 5.7 4.8 4.4 4.4 1.7 2.1 2.4 2.7 3.1 -2.7 -2.7 -2.7 -2.7 -2.7 -2.7 -2.7 -2.7 -2.7 -2.7 -2.7 -2.7 -2.7 -2.7 -2.7 -2.7 -2.7 -2.7 -2.7 -2.7 -2.7 -2.7 -2.7 -2.7 -2.7 -2.7 -2.7 -2.7 -2.7 -2.7 -2.7 -2.7 -2.7 -2.7 -2.7 -2.7 -2.7 -2.7 -2.7 -2.7 -2.7 -2.7 -2.7 -2.7 -2.7 -2.7 -2.7 -2.7 -2.7 -2.7 -2.7 -2.7 -2.7 -2.7 -2.7 -2.7 -2.7 -2.7 -2.7 -2.7 -2.7 -2.7 -2.7 -2.7 -2.7 -2.7 -2.7 -2.7 -2.7 -2.7 -2.7 -2.7 -2.7 -2.7 -2.7 -2.7 -2.7 -2.7 -2.7 -2.7 -2.7 -2.7 -2.7 -2.7 -2.7 -2.7 -2.7 -2.7 -2.7 -2.7 -2.7 -2.7 -2.7 -2.7 -2.7 -2.7 -2.7 -2.7 -2.4 -2.1 -1.8 -1.5 -1.2 -0.9 -0.6 -0.3 0 0.2 0.5 0.8 1.2 1.3 1.4 1.5 1.5 1.4 1 0.3 -0.7 -1.7 -2.7 -1.1 0.5 1.9 3.2 3.2 3.2 4 4.8 -2.7 -2.7 -2.7 5 3.6 3.3 3.2 -2.7 4.7 4.9 4.9 4.7 4.9 5.7 6.5 12.5 12.4 11.9 11.1 12 11.4 11.7 13.9 15.8 17.6 18.6 19.5 20.4 22.8 25.1 26.8 28.7 30.9 33.4 35.8 38.3 40.7 44.1
60.6 58.6 55.6 54.9 43.3 25.7 21.6 21.5 21 20.7 22.2 25.1 27 23.2 19 15.9 12.8 9.6 5.5 5.4 5.6 6.5 5.4 4.2 5.4 6 4.8 4.7 5.7 1.8 2 2.3 2.8 2.5 -2.7 -2.7 -1.6 -2 -2.7 -2.7 -2.7 -2.7 -2.7 -2.7 -2.7 -2.7 -2.7 -2.7 -2.7 -2.7 -2.7 -2.7 -2.7 -2.7 -2.7 -2.7 -2.7 -2.7 -2.7 -2.7 -2.7 -2.7 -2.7 -2.7 -2.7 -2.7 -2.7 -2.7 -2.7 -2.7 -2.7 -2.7 -2.7 -2.7 -2.7 -2.7 -2.7 -2.7 -2.7 -2.7 -2.7 -2.7 -2.7 -2.7 -2.7 -2.7 -2.7 -2.7 -2.7 -2.7 -2.7 -2.7 -2.7 -2.7 -2.7 -2.7 -2.7 -2.7 -2.7 -2.7 -2.7 -2.7 -2.7 -2.7 -2.7 -2.7 -2.7 -2.7 -2.7 -2.7 -2.7 -2.7 -2.7 -2.7 -2.7 -2.7 -2.7 -2.7 -2.7 -2.7 -2.7 -2.7 -2.7 -2.7 -2.7 -2.7 -2.7 -2.7 -2.7 -2.6 -2.3 -2 -1.7 -1.4 -1.1 -0.8 -0.5 -0.2 0.1 0.4 0.7 1 1.2 1.5 1.9 1.9 2 2.1 2 1.5 0.5 -0.4 -0.9 -2.7 -2.7 -0.5 0.9 2 1.4 3.5 3.2 -2.7 -1.6 -2.7 -2.7 -2.7 -2.7 -2.7 -2.7 -2.7 3.4 3.8 4.4 4.5 4.6 5.1 6.6 10 11.4 11.4 11.1 12.4 12.4 11.3 13.1 15 15.8 16.8 18.1 19.8 21.5 24 26.7 28.3 30.3 32.8 35.3 37.8 40.2 43.4
65.1 62.3 56.3 55.4 42.5 25.5 23.4 23.3 23.2 24.6 29.1 33.3 32.5 27.9 21.3 17.4 13.2 11.4 7.4 5.8 6.6 6.5 6.9 4.5 3.9 4 9 7.2 7.9 6.3 3 1.9 2.6 -2.7 -2.7 2.4 1.8 0.6 -1.1 -2.7 -2.7 -2.7 -2.7 -2.7 -2.7 -2.7 -2.7 -2.7 -2.7 -2.7 -2.7 -2.7 -2.7 -2.7 -2.7 -2.7 -2.7 -2.7 -2.7 -2.7 -2.7 -2.7 -2.7 -2.7 -2.7 -2.7 -2.7 -2.7 -2.7 -2.7 -2.7 -2.7 -2.7 -2.7 -2.7 -2.7 -2.7 -2.7 -2.7 -2.7 -2.7 -2.7 -2.7 -2.7 -2.7 -2.7 -2.7 -2.7 -2.7 -2.7 -2.7 -2.7 -2.7 -2.7 -2.7 -2.7 -2.7 -2.7 -2.7 -2.7 -2.7 -2.7 -2.7 -2.7 -2.7 -2.7 -2.7 -2.7 -2.7 -2.7 -2.7 -2.7 -2.7 -2.7 -2.7 -2.7 -2.7 -2.7 -2.7 -2.7 -2.7 -2.7 -2.7 -2.7 -2.7 -2.7 -2.7 -2.7 -2.6 -2.3 -1.9 -1.6 -1.3 -1 -0.7 -0.4 -0.1 0.2 0.5 0.8 1.1 1.4 1.7 2 2.2 2.5 2.6 2.7 2.6 1.8 1.2 0.7 0.2 -1.2 -2.7 -1.4 -0.2 -0.1 -0.7 -2.7 -2.7 -1.2 0.2 2.1 3.8 4.8 3.5 -2.7 -2.7 -2.7 -2.7 5 3.8 4 4.3 4.6 5.9 7.2 9.1 9.8 10 11.5 12 11.3 11.7 14 14.6 16.4 18.2 19.3 21 22.6 25.5 27.3 29.5 32.1 34.6 37.1 40.2 42.4
69 64.7 58.1 51.5 41.6 28.8 25.7 25.8 30.6 36.2 33.3 37 35.5 30.7 22.9 17.5 16.4 13.9 11.7 6.5 6.4 6.4 6.4 7.4 4.4 4 4 8 4.6 4.2 5.6 4 -2.7 -2.7 3.2 3.2 3.2 1.6 -0.1 -2.7 -2.7 -2.7 -2.7 -2.7 -2.7 -2.7 -2.7 -2.7 -2.7 -2.7 -2.7 -2.7 -2.7 -2.7 -2.7 -2.7 -2.7 -2.7 -2.7 -2.7 -2.7 -2.7 -2.7 -2.7 -2.7 -2.7 -2.7 -2.7 -2.7 -2.7 -2.7 -2.7 -2.7 -2.7 -2.7 -2.7 -2.7 -2.7 -2.7 -2.7 -2.7 -2.7 -2.7 -2.7 -2.7 -2.7 -2.7 -2.7 -2.7 -2.7 -2.7 -2.7 -2.7 -2.7 -2.7 -2.7 -2.7 -2.7 -2.7 -2.7 -2.7 -2.7 -2.7 -2.7 -2.7 -2.7 -2.7 -2.7 -2.7 -2.7 -2.7 -2.7 -2.7 -2.7 -2.7 -2.7 -2.7 -2.7 -2.7 -2.7 -2.7 -2.7 -2.7 -2.7 -2.7 -2.7 -2.7 -2.5 -2.2 -1.9 -1.6 -1.3 -1 -0.6 -0.3 0 0.3 0.6 0.9 1.2 1.5 1.8 2.1 2.4 2.7 2.9 3.1 4 3 2.7 2.2 2 1.1 0 -2.7 -2.7 -1.8 -2.1 -2.7 -2.7 0 0.8 1.8 3.2 3.3 4.7 3.5 3.2 3.2 3.2 -2.7 -2.7 3.4 3.6 3.8 4.2 3.2 4.8 6.5 8.1 8.6 9.4 10 10.4 11.3 12.5 13.8 15.4 17.4 18.9 20.5 22.1 23.7 26.3 28.6 31.2 33.9 36.3 38.6 40
70.7 65.1 58.9 50 42 32.1 27.6 30.7 36.6 42 41.3 41.1 35 27.4 22.5 21 18.5 15.4 16.9 15.1 6.7 6.1 5.9 6.3 7.4 3.9 5.5 5.5 6.9 4.6 -2.7 -2.7 -2.7 1.2 3.2 3.2 3 1.4 -0.2 -1.7 -2.7 -2.7 -2.7 -2.7 -2.7 -2.7 -2.7 -2.7 -2.7 -2.7 -2.7 -2.7 -2.7 -2.7 -2.7 -2.7 -2.7 -2.7 -2.7 -2.7 -2.7 -2.7 -2.7 -2.7 -2.7 -2.7 -2.7 -2.7 -2.7 -2.7 -2.7 -2.7 -2.7 -2.7 -2.7 -2.7 -2.7 -2.7 -2.7 -2.7 -2.7 -2.7 -2.7 -2.7 -2.7 -2.7 -2.7 -2.7 -2.7 -2.7 -2.7 -2.7 -2.7 -2.7 -2.7 -2.7 -2.7 -2.7 -2.7 -2.7 -2.7 -2.7 -2.7 -2.7 -2.7 -2.7 -2.7 -2.7 -2.7 -2.7 -2.7 -2.7 -2.7 -2.7 -2.7 -2.7 -2.7 -2.7 -2.7 -2.7 -2.7 -2.7 -2.7 -2.7 -2.7 -2.7 -2.4 -2.1 -1.8 -1.5 -1.2 -0.9 -0.6 -0.3 0 0.3 0.7 1 1.3 1.6 1.9 2.2 2.5 2.8 3.1 3.2 3.2 3.5 4.4 3.9 4.4 3.2 3 2.1 1 -0.8 -2.7 -2.7 -2.7 0.5 1.9 3 3.3 3.2 3.2 3.2 3.2 3.2 3.2 -2.7 -2.7 -2.7 3.7 3.2 3.4 3.6 3.6 3.2 4.6 6.6 7.4 8.6 8.9 9.7 10.7 12 13.3 14.5 15.7 17.7 18.9 21.2 22.3 24.7 27.7 29.8 31.8 33 36.3 40.2
72.7 65.4 55 47.6 40.7 31.1 28.7 36 45 50.7 49.7 41.3 27.8 26.6 27.9 24.3 20.6 20.9 22.6 20.9 12.7 6.3 5.7 6.2 7 6.3 4.6 6.9 7.4 4.2 -2.7 4.8 8.1 12.6 10.8 3.2 2.8 1.3 0.1 -1.1 -2.7 -2.7 -2.7 -2.7 -2.7 -2.7 -2.7 -2.7 -2.7 -2.7 -2.7 -2.7 -2.7 -2.7 -2.7 -2.7 -2.7 -2.7 -2.7 -2.7 -2.7 -2.7 -2.7 -2.7 -2.7 -2.7 -2.7 -2.7 -2.7 -2.7 -2.7 -2.7 -2.7 -2.7 -2.7 -2.7 -2.7 -2.7 -2.7 -2.7 -2.7 -2.7 -2.7 -2.7 -2.7 -2.7 -2.7 -2.7 -2.7 -2.7 -2.7 -2.7 -2.7 -2.7 -2.7 -2.7 -2.7 -2.7 -2.7 -2.7 -2.7 -2.7 -2.7 -2.7 -2.7 -2.7 -2.7 -2.7 -2.7 -2.7 -2.7 -2.7 -2.7 -2.7 -2.7 -2.7 -2.7 -2.7 -2.7 -2.7 -2.7 -2.7 -2.7 -2.7 -2.6 -2.3 -2 -1.7 -1.4 -1.1 -0.8 -0.5 -0.2 0.1 0.4 0.7 1 1.3 1.6 1.9 2.2 2.5 2.8 3.1 3.1 3.8 4.4 4 4.1 4.2 4.2 3.8 3.2 3.2 3.2 1.8 1.4 1.4 2.4 3.2 3.3 3.7 3.8 3.2 3.2 4.3 3.2 3.2 3.2 -2.7 -2.7 4.4 3.2 3.2 3.2 3.7 4 4.3 4.9 6.1 6.9 8.6 8.6 9.1 10.2 11.4 12.7 13.9 15.1 16.8 18.7 18.9 20.6 22.2 26.8 27.9 31.7 34.3 37.6 41.2
70.2 59.1 51.9 45 35 30.6 36.4 47.3 55.7 57.9 55.7 38.9 32.4 34.9 32.6 28.5 25.2 30.7 29.7 24.7 18 12.8 6.3 7.1 6.2 6.1 6.7 5 4.2 4.1 4.4 7.6 15.9 19.3 18.9 16.5 3.2 2 0.8 -0.3 -1.3 -2.7 -2.7 -2.7 -2.7 -2.7 -2.7 -2.7 -2.7 -2.7 -2.7 -2.7 -2.7 -2.7 -2.7 -2.7 -2.7 -2.7 -2.7 -2.7 -2.7 -2.7 -2.7 -2.7 -2.7 -2.7 -2.7 -2.7 -2.7 -2.7 -2.7 -2.7 -2.7 -2.7 -2.7 -2.7 -2.7 -2.7 -2.7 -2.7 -2.7 -2.7 -2.7 -2.7 -2.7 -2.7 -2.7 -2.7 -2.7 -2.7 -2.7 -2.7 -2.7 -2.7 -2.7 -2.7 -2.7 -2.7 -2.7 -2.7 -2.7 -2.7 -2.7 -2.7 -2.7 -2.7 -2.7 -2.7 -2.7 -2.7 -2.7 -2.7 -2.7 -2.7 -2.7 -2.7 -2.7 -2.7 -2.7 -2.7 -2.7 -2.7 -2.7 -2.5 -2.2 -1.9 -1.6 -1.4 -1.1 -0.8 -0.5 -0.2 0.1 0.3 0.6 0.9 1.2 1.5 1.8 2 2.3 2.6 2.9 3.2 3.2 3.2 4.1 4.2 4.4 3.3 3.3 3.7 3.5 3.2 3.2 3.3 4.6 4.4 4 3.9 3.6 4.1 4.6 3.2 3.5 4.2 5.1 3.3 3.5 3.2 -2.7 -2.7 3.2 3.2 3.5 4 4.5 3.8 4.9 6 6.7 7.8 7.9 8.8 9.7 10.9 12.2 13.4 14.8 16.7 17.3 18.9 20.1 21.3 24 27.5 30.4 33.3 36.4 41.3
71.8 57.8 47.9 36.9 32.6 40.7 51.4 64.5 66.4 64.6 55.7 37.7 41.4 43.7 37.6 30.3 32.3 34.7 33.2 25.5 23.4 20.7 14.9 6.8 6.7 6.3 6.2 5.6 4.9 6.8 8.5 11 16.1 18.9 20.5 16.3 9.2 2.7 1.6 0.6 -0.3 -1.4 -2.7 -2.7 -2.7 -2.7 -2.7 -2.7 -2.7 -2.7 -2.7 -2.7 -2.7 -2.7 -2.7 -2.7 -2.7 -2.7 -2.7 -2.7 -2.7 -2.7 -2.7 -2.7 -2.7 -2.7 -2.7 -2.7 -2.7 -2.7 -2.7 -2.7 -2.7 -2.7 -2.7 -2.7 -2.7 -2.7 -2.7 -2.7 -2.7 -2.7 -2.7 -2.7 -2.7 -2.7 -2.7 -2.7 -2.7 -2.7 -2.7 -2.7 -2.7 -2.7 -2.7 -2.7 -2.7 -2.7 -2.7 -2.7 -2.7 -2.7 -2.7 -2.7 -2.7 -2.7 -2.7 -2.7 -2.7 -2.7 -2.7 -2.7 -2.7 -2.7 -2.7 -2.7 -2.7 -2.7 -2.7 -2.7 -2.7 -2.7 -2.7 -2.4 -2.1 -1.8 -1.5 -1.2 -1 -0.7 -0.4 -0.1 0.2 0.5 0.7 1 1.3 1.6 1.9 2.2 2.4 2.7 3 3.2 3.2 3.2 3.2 3.2 3.2 4.7 4.1 3.7 3.3 3.2 3.2 3.5 3.5 4.8 4.9 4.7 4.4 3.6 4.1 3.2 3.6 4.4 5 3.2 4 4.4 -2.7 -2.7 3.2 3.2 3.6 4.1 4.3 3.8 4.5 6 6.7 7.2 8.1 8.4 10.4 10.4 11.7 13 14.7 15.2 15.8 17.8 18.9 20 22.7 26.5 29.4 32.4 35.8 38.3
69.6 52.4 44.2 37.4 43.9 51.8 64.5 71.7 70.4 69.7 60.4 36.2 50.5 50 41.4 32.3 37.1 38.1 33.8 31.2 32.9 27.2 22.2 14.4 7.5 6.7 6.2 5.7 6.3 6.6 6.8 11.8 13.8 16.2 18.5 12.9 8.7 3.7 2.6 1.7 0.7 -0.3 -1.4 -2.7 -2.7 -2.7 -2.7 -2.7 -2.7 -2.7 -2.7 -2.7 -2.7 -2.7 -2.7 -2.7 -2.7 -2.7 -2.7 -2.7 -2.7 -2.7 -2.7 -2.7 -2.7 -2.7 -2.7 -2.7 -2.7 -2.7 -2.7 -2.7 -2.7 -2.7 -2.7 -2.7 -2.7 -2.7 -2.7 -2.7 -2.7 -2.7 -2.7 -2.7 -2.7 -2.7 -2.7 -2.7 -2.7 -2.7 -2.7 -2.7 -2.7 -2.7 -2.7 -2.7 -2.7 -2.7 -2.7 -2.7 -2.7 -2.7 -2.7 -2.7 -2.7 -2.7 -2.7 -2.7 -2.7 -2.7 -2.7 -2.7 -2.7 -2.7 -2.7 -2.7 -2.7 -2.7 -2.7 -2.7 -2.7 -2.7 -2.6 -2.2 -2 -1.7 -1.4 -1.1 -0.8 -0.6 -0.3 0 0.3 0.6 0.9 1.1 1.4 1.7 2 2.3 2.5 2.8 3.1 3.2 3.2 3.2 3.2 3.2 3.2 4.7 4.3 3.5 3.2 3.2 3.2 3.2 3.4 4.2 4.9 4.7 4.3 3.6 3.2 3.2 3.6 4.6 4.9 3.4 3.9 4.6 4.7 -2.7 3.2 3.4 3.7 4.2 3.9 3.5 4 6.5 6.9 7.7 9.2 8.7 9.6 10.1 11.5 12.7 13.1 13.9 15.2 16.4 17.4 18.7 21.2 25.1 28.4 31.6 35 37.9
49.7 42.7 39.8 47.2 53.2 66.4 72.1 69.4 66.7 65.6 46 48 57.2 53.4 43.4 35.3 40.8 41 38.2 37.8 37.8 32.7 28.7 21.4 17.6 7.8 7.1 6.2 6.7 6.5 6 7.4 12.3 14.7 16.1 11.2 4.4 4.4 2.5 2.9 2 0.9 -0.2 -1.4 -2.7 -2.7 -2.7 -2.7 -2.7 -2.7 -2.7 -2.7 -2.7 -2.7 -2.7 -2.7 -2.7 -2.7 -2.7 -2.7 -2.7 -2.7 -2.7 -2.7 -2.7 -2.7 -2.7 -2.7 -2.7 -2.7 -2.7 -2.7 -2.7 -2.7 -2.7 -2.7 -2.5 -2.7 -2.7 -2.7 -2.7 -2.7 -2.7 -2.7 -2.7 -2.7 -2.7 -2.7 -2.7 -2.7 -2.7 -2.7 -2.7 -2.7 -2.7 -2.7 -2.7 -2.7 -2.7 -2.7 -2.7 -2.7 -2.7 -2.7 -2.7 -2.7 -2.7 -2.7 -2.7 -2.7 -2.7 -2.7 -2.7 -2.7 -2.7 -2.7 -2.7 -2.7 -2.7 -2.7 -2.7 -2.7 -2.5 -2.1 -1.8 -1.5 -1.3 -1 -0.7 -0.4 -0.2 0.1 0.4 0.7 1 1.2 1.5 1.8 2.1 2.4 2.7 2.9 3.2 3.2 3.2 3.2 3.8 4.4 3.1 3.2 4.3 3.2 3.2 3.2 3.2 3.2 3.3 4 4.8 4.4 3.9 3.2 3.4 4.1 3.5 3.7 3.7 3.2 4.3 4.7 4.6 -2.7 3.2 3.4 3.6 -2.7 -2.7 -2.7 3.9 6.3 7.6 8.4 9.6 10.3 9.6 10.1 11.7 11.7 11.9 12.8 13.9 15 16.2 17.4 19.8 23.9 26.6 30.1 33.7 36.9
47.6 46.7 53.5 58.8 65.9 71.6 70.3 61.8 58.3 51.1 48.1 57.2 59.7 55.5 45.8 40.5 47.8 45.9 43.2 42.7 41.7 37.4 32.7 27.7 21.1 16.9 7.7 6.8 5.8 6.9 5.4 8.8 11.3 12.5 14.1 10.4 4.1 4.4 4.6 2.6 3 2.2 1.2 0 -1.2 -2.7 -2.7 -2.7 -2.7 -2.7 -2.7 -2.7 -2.7 -2.7 -2.7 -2.7 -2.7 -2.7 -2.7 -2.7 -2.7 -2.7 -2.7 -2.7 -2.7 -2.7 -2.7 -2.7 -2.7 -2.7 -2.7 -2.7 -2.7 -2.6 -2.5 -2.3 -2.4 -2.5 -2.6 -2.7 -2.7 -2.7 -2.7 -2.7 -2.7 -2.7 -2.7 -2.7 -2.7 -2.7 -2.7 -2.7 -2.7 -2.7 -2.7 -2.7 -2.7 -2.7 -2.7 -2.7 -2.7 -2.7 -2.7 -2.7 -2.7 -2.7 -2.7 -2.7 -2.7 -2.7 -2.7 -2.7 -2.7 -2.7 -2.7 -2.7 -2.7 -2.7 -2.7 -2.7 -2.7 -2.7 -2.4 -2 -1.7 -1.4 -1.1 -0.9 -0.6 -0.3 -0.1 0.2 0.5 0.8 1.1 1.4 1.6 1.9 2.2 2.5 2.8 3.1 3.2 3.2 3.2 4 4.2 4.6 3.2 3.2 4.4 3.3 3.2 3.2 3.2 3.2 3.5 4.1 4.7 4.2 3.7 3.2 3.2 3.6 3.2 4.5 4.5 4.3 4.9 4.5 4.4 -2.7 -2.2 -1.7 3.2 -2.7 -2.7 -2.7 -2.7 -2.7 5 6.8 8.1 9.9 10.3 9.9 11.6 11.7 11.3 11.9 12.7 13.5 14.6 15.7 18 20.4 24.2 28.2 31.9 35.4
47.1 54.5 60.2 66.4 73.7 75.4 68 59.6 58.2 60.2 57.4 57.4 59 58.5 49.7 44.4 52.7 52.3 48 47 44.9 40.7 35.6 28.7 22.9 19.4 14.9 8.5 6.3 5.5 6.4 6.4 7.2 9.7 10.7 6 3.8 3.9 3.9 4.2 3.7 2.6 2.5 1.4 0.3 -0.9 -1.7 -2.7 -2.7 -2.7 -2.7 -2.7 -2.7 -2.7 -2.7 -2.7 -2.7 -2.7 -2.7 -2.7 -2.7 -2.7 -2.7 -2.7 -2.7 -2.7 -2.7 -2.7 -2.7 -2.7 -2.7 -2.6 -2.4 -2.2 -2 -2.1 -2.2 -2.3 -2.4 -2.5 -2.7 -2.7 -2.7 -2.7 -2.7 -2.7 -2.7 -2.7 -2.7 -2.7 -2.7 -2.7 -2.7 -2.7 -2.7 -2.7 -2.7 -2.7 -2.7 -2.7 -2.7 -2.7 -2.7 -2.7 -2.7 -2.7 -2.7 -2.7 -2.7 -2.7 -2.7 -2.7 -2.7 -2.7 -2.7 -2.7 -2.7 -2.7 -2.7 -2.7 -2.7 -2.6 -2.2 -1.9 -1.6 -1.3 -0.9 -0.6 -0.4 -0.2 0.1 0.3 0.6 0.9 1.2 1.5 1.8 2 2.3 2.6 2.9 3.2 3.2 3.2 3.2 3.2 3.7 4.2 4.7 4.4 3.5 3.3 3.4 3.3 3.3 3.2 3.5 4.1 4.7 4.3 3.8 3.2 3.2 3.2 3.2 3.8 4.3 4.9 5.1 5.3 4.8 3.9 3.4 2.7 3.2 3.2 3.2 3.5 3.5 -2.7 -2.7 5.2 7.7 9.6 10.4 10.4 10.3 11.6 11.6 11.2 11.9 12.6 13.6 14.8 16.9 19 22.9 26.4 31 34.3
58.6 59.9 76.2 80.1 81.7 77.7 66.2 69.9 65.5 65.2 59.8 59.7 61.7 60.6 58.6 48.7 58.4 59.3 54.9 51.9 48.3 41.4 34.2 35.5 28.9 20.6 16.3 13.7 8 6 6 4.3 6.6 6.1 6.5 5.8 4.3 3.9 4.2 4.4 4.6 3.8 2.4 2.9 1.7 0.7 -0.1 -1.1 -2.7 -2.7 -2.7 -2.7 -2.7 -2.7 -2.7 -2.7 -2.7 -2.7 -2.7 -2.7 -2.7 -2.7 -2.7 -2.7 -2.7 -2.7 -2.7 -2.7 -2.7 -2.5 -2.3 -2.1 -1.9 -1.7 -1.8 -1.9 -2 -2.1 -2.2 -2.4 -2.6 -2.7 -2.7 -2.7 -2.7 -2.7 -2.7 -2.7 -2.7 -2.7 -2.7 -2.7 -2.7 -2.7 -2.7 -2.7 -2.7 -2.7 -2.7 -2.7 -2.7 -2.7 -2.7 -2.7 -2.7 -2.7 -2.7 -2.7 -2.7 -2.7 -2.7 -2.7 -2.7 -2.7 -2.7 -2.7 -2.7 -2.7 -2.7 -2.7 -2.7 -2.4 -2.1 -1.8 -1.5 -1.2 -0.8 -0.5 -0.2 0 0.3 0.5 0.7 1 1.3 1.6 1.9 2.2 2.4 2.7 3 3.2 3.2 3.2 3.2 3.2 3.4 3.9 4.4 4.5 4.2 3.2 3.7 3.7 3.7 3.3 3.2 4.6 4.8 4.2 3.6 3.2 3.2 3.4 3.2 3.2 3.8 5 4.5 4.6 4.4 4 4.1 3.4 3.2 4.3 5 5.2 4.5 3.4 -2.7 5.2 6 8.3 9.9 10.5 10.4 10.9 11.3 10.3 11 11.7 12.7 13.9 16 18.4 22 25.5 30.3 33.7
74.6 78 78.8 82.4 82.8 75.8 67.8 75.2 72.7 72.2 70.4 68.8 64 61.2 57.5 51.2 61.2 61.2 59.4 56.4 52.3 37.5 31.8 33.3 26.4 22.7 22.2 21.1 18.1 7.7 5.3 5.3 4.3 5.8 4.8 5.9 6.2 4.2 4.5 4.6 3.6 4.4 4.5 2.3 3.1 2.2 1.2 0.2 -1.9 -2.7 -2.7 -2.7 -2.7 -2.7 -2.7 -2.7 -2.7 -2.7 -2.7 -2.7 -2.7 -2.7 -2.7 -2.7 -2.7 -2.7 -2.7 -2.5 -2.3 -2.1 -1.9 -1.7 -1.5 -1.4 -1.6 -1.7 -1.8 -1.9 -2.1 -2.3 -2.5 -2.7 -2.7 -2.7 -2.7 -2.7 -2.7 -2.7 -2.7 -2.7 -2.7 -2.7 -2.7 -2.7 -2.7 -2.7 -2.7 -2.7 -2.7 -2.7 -2.7 -2.7 -2.7 -2.7 -2.7 -2.7 -2.7 -2.7 -2.7 -2.7 -2.7 -2.7 -2.7 -2.7 -2.7 -2.7 -2.7 -2.7 -2.7 -2.7 -2.6 -2.3 -2 -1.6 -1.3 -1 -0.7 -0.4 -0.1 0.2 0.5 0.7 0.9 1.1 1.4 1.7 2 2.3 2.5 2.8 3.1 3.2 3.2 3.2 3.2 3.2 3.2 3.6 4 4.4 4.7 3.5 3.7 4.1 4 3.6 3.2 4.6 4.6 4 3.3 3.2 3.3 3.9 3.8 3.2 3.2 3.5 3.7 3.8 3.6 4.7 4.2 3.7 3.2 3.9 4.5 4.8 5.2 4.2 -2.7 3.8 4.7 6.4 8.6 9.4 10.2 10.6 10.6 10.2 10.1 10.8 11.7 13.1 15.2 18.1 20.9 24.5 29.4 32.4
86.6 84.4 82 80.8 80.5 81 68.7 76.2 75.8 73.1 69.1 67.8 65.4 61.8 58.2 55.4 60 62.6 61.1 59 55.2 50.3 35.9 34.5 22.4 28.6 29.1 27 24.4 18.4 7.5 4.8 5.3 4 5.2 4.7 5.6 5.5 4.5 4.3 4.4 3.9 4.5 2 2.6 3.2 2.6 0.9 -1.2 -2.7 -2.7 -2.7 -2.7 -2.7 -2.7 -2.7 -2.7 -2.7 -2.7 -2.7 -2.7 -2.7 -2.7 -2.7 -2.6 -2.4 -2.2 -2 -1.8 -1.6 -1.4 -1.2 -1.1 -1.3 -1.4 -1.5 -1.6 -1.8 -1.9 -2.1 -2.3 -2.5 -2.7 -2.7 -2.7 -2.7 -2.7 -2.7 -2.7 -2.7 -2.7 -2.7 -2.7 -2.7 -2.7 -2.7 -2.7 -2.7 -2.7 -2.7 -2.7 -2.7 -2.7 -2.7 -2.7 -2.7 -2.7 -2.7 -2.7 -2.7 -2.7 -2.7 -2.7 -2.7 -2.7 -2.7 -2.7 -2.7 -2.7 -2.7 -2.5 -2.1 -1.8 -1.5 -1.2 -0.9 -0.5 -0.3 0 0.3 0.7 0.9 1.1 1.4 1.6 1.8 2.1 2.4 2.7 2.9 3.2 3.2 3.2 3.2 3.2 3.2 3.2 4.1 3.6 4.3 4.6 4.5 3.2 4.5 4.4 3.8 3.2 4.2 4 3.7 3.2 3.2 3.6 4.1 4.7 4.3 3.8 3.6 3.2 3.2 3.5 4.7 3.8 3.8 3.6 3.7 4.2 4.3 4.2 5.3 -2.7 -2.7 4 4.8 7 8 9.1 10 10 9.4 9.2 10.4 11.4 12.3 14.8 17.6 20.4 21.2 27.1 30.2
89.9 85 82.6 80.6 78.6 79.4 68.6 76.4 73.4 70.5 68 66.4 65.1 62.4 60.7 61.2 60.9 62.9 62.2 60.5 57.1 50.2 41 29.7 37.2 34.2 31.7 31.5 22.9 16.2 14.3 7 4.8 5.1 3.8 2.8 4.8 4.9 5.4 4.5 4.1 3.7 4.7 4.7 1.8 -2.7 3.2 0.8 -2.7 -2.7 -2.7 -2.7 -2.7 -2.7 -2.7 -2.7 -2.7 -2.7 -2.7 -2.7 -2.7 -2.7 -2.6 -2.4 -2.2 -2 -1.8 -1.6 -1.4 -1.2 -1 -0.8 -1 -1.1 -1.2 -1.3 -1.5 -1.6 -1.8 -2 -2.2 -2.4 -2.6 -2.7 -2.7 -2.7 -2.7 -2.7 -2.7 -2.7 -2.7 -2.7 -2.7 -2.7 -2.7 -2.7 -2.7 -2.7 -2.7 -2.7 -2.7 -2.7 -2.7 -2.7 -2.7 -2.7 -2.7 -2.7 -2.7 -2.7 -2.7 -2.7 -2.7 -2.7 -2.7 -2.7 -2.7 -2.7 -2.7 -2.6 -2.3 -2 -1.7 -1.4 -1.1 -0.7 -0.4 -0.1 0.2 0.5 0.8 1.1 1.4 1.6 1.8 2 2.2 2.5 2.8 3.1 3.2 3.2 3.2 3.2 3.2 3.2 3.2 3.3 4.6 4.2 4.6 4.7 3.4 4.1 4.5 3.5 3.2 3.2 3.2 3.2 3.2 3.3 3.7 4.3 4.7 5 4.3 3.9 3.8 3.2 3.6 4.4 4.4 4.2 4 3.8 4.3 4 3.8 3.9 3.4 -2.7 -2.7 -2.7 5.9 7.1 8.9 9.3 9.2 8.3 9.3 10.3 11.4 12.6 13.9 16.9 19.9 22.4 26.1 29.4
91.3 86.3 84.1 81.4 78.8 77.6 76.7 78.7 74.8 71.5 67.6 66.7 64.8 64.1 64.9 64.3 62.8 64 63.7 62.1 59.3 46 40.2 44 42.8 38.2 35.1 30.8 25.5 19.3 17.5 10.2 6.7 4.9 4.4 4.4 2.8 4.8 5.4 4.5 4.2 4.1 4.7 4.7 4.1 1.7 -2.7 -2.7 0.2 -0.4 -2.7 -2.7 -2.7 -2.7 -2.7 -2.7 -2.7 -2.7 -2.7 -2.7 -2.5 -2.3 -2.1 -1.9 -1.7 -1.5 -1.3 -1.1 -0.9 -0.7 -0.5 -0.7 -0.8 -0.9 -1 -1.2 -1.3 -1.5 -1.7 -1.9 -2.1 -2.3 -2.5 -2.7 -2.7 -2.7 -2.7 -2.7 -2.7 -2.7 -2.7 -2.7 -2.7 -2.7 -2.7 -2.7 -2.7 -2.7 -2.7 -2.7 -2.7 -2.7 -2.7 -2.7 -2.7 -2.7 -2.7 -2.7 -2.7 -2.7 -2.7 -2.7 -2.7 -2.7 -2.7 -2.7 -2.7 -2.7 -2.7 -2.5 -2.2 -1.9 -1.6 -1.2 -0.9 -0.6 -0.3 0 0.4 0.7 1 1.2 1.5 1.9 2.1 2.3 2.5 2.7 2.9 3.2 3.2 3.2 3.2 3.2 3.2 3.2 3.2 3.2 4.7 3.4 3 3.4 3.3 4.7 3.3 3.3 3.7 4 3.2 3.2 3.2 3.3 3.4 3.8 4.3 4.7 5.1 4.5 4.1 4 3.5 4.5 4.8 4.6 4.4 4.1 4.4 4 3.5 3.2 5.4 3.2 -2.7 -2.7 -2.7 6.9 8.1 8.7 8.9 8.4 9.5 10.7 11.8 13 14 16.8 19.3 22.1 22.9 29.1
90.3 84.3 81.7 81.1 77.4 78.4 84.5 82.3 77.5 73.6 68.2 68.5 66.5 66.9 68.2 66.4 65.5 65.5 65.3 64.7 62.6 45.9 42.5 54.9 49.1 41.8 37.4 33.5 27.8 23.7 20.4 17.3 14.7 8.6 5.6 5.5 3.8 2.8 2.8 5.4 4.7 4.4 4.1 4.2 5 -2.7 -2.7 2.1 3.1 1.7 0.1 -2.7 -2.7 -2.7 -2.7 -2.7 -2.7 -2.7 -2.5 -2.3 -2.1 -1.9 -1.7 -1.5 -1.3 -1.1 -0.9 -0.7 -0.5 -0.3 -0.4 -0.5 -0.6 -0.7 -0.9 -1 -1.1 -1.3 -1.6 -1.8 -2 -2.2 -2.4 -2.6 -2.7 -2.7 -2.7 -2.7 -2.7 -2.7 -2.7 -2.7 -2.7 -2.7 -2.7 -2.7 -2.7 -2.7 -2.7 -2.7 -2.7 -2.7 -2.7 -2.7 -2.7 -2.7 -2.7 -2.7 -2.7 -2.7 -2.7 -2.7 -2.7 -2.7 -2.7 -2.7 -2.7 -2.7 -2.7 -2.4 -2.1 -1.7 -1.4 -1.1 -0.8 -0.5 -0.1 0.2 0.5 0.8 1.2 1.5 1.7 2 2.3 2.5 2.7 2.9 3.1 3.2 3.2 3.2 3.2 3.2 3.2 3.2 3.2 3.2 3.2 3.2 3.2 3.2 3.2 2.8 3.8 4.1 4.4 3.8 3.2 3.3 3.5 3.8 3.6 3.3 3.8 4.2 4.6 5.1 4.6 5.2 3.7 4.8 5.3 5.2 4.9 4.6 5.9 3.7 3.3 3.9 3.4 3.3 3.4 3.4 -2.7 6 7.6 8.3 8.2 8.8 10 11.2 12.2 12.9 14.4 16.7 17.8 20.6 23.5 27.3
91.2 87.4 88.9 88.6 86.7 86.3 87.4 85.8 80.8 77.2 74.3 73.9 73.2 71.9 70.7 69.8 67.7 67.1 66.9 66.7 57.1 47.9 54.2 53.9 53 46.5 41.3 37.1 34.7 30.9 28.2 25.3 19.6 16.9 8.8 5.7 4.4 2.8 2.8 2.8 5.4 5.8 5.1 4.7 -2.7 -2.7 4.4 1.8 2.4 3.1 1.5 0 -1.3 -2.7 -2.7 -2.6 -2.4 -2.2 -2 -1.8 -1.6 -1.4 -1.2 -1 -0.8 -0.6 -0.4 -0.2 0 0 -0.2 -0.3 -0.4 -0.6 -0.7 -0.8 -1 -1.2 -1.4 -1.6 -1.8 -2 -2.2 -2.4 -2.6 -2.7 -2.7 -2.7 -2.7 -2.7 -2.7 -2.7 -2.7 -2.7 -2.7 -2.7 -2.7 -2.7 -2.7 -2.7 -2.7 -2.7 -2.7 -2.7 -2.7 -2.7 -2.7 -2.7 -2.7 -2.7 -2.7 -2.7 -2.7 -2.7 -2.7 -2.7 -2.7 -2.7 -2.6 -2.2 -1.9 -1.6 -1.3 -1 -0.6 -0.3 0 0.3 0.6 0.9 1.3 1.6 1.9 2.2 2.5 2.7 3 3.2 1.3 3.9 3.3 3.2 3.2 3.2 3.2 3.2 3.2 3.2 3.2 3.2 3.2 3.2 3.2 3.2 3.2 4.8 4.2 4.9 4.4 3.5 3.8 4.2 3.8 3.3 3.5 4 4.4 4.7 5.1 4.7 5 4.8 4.5 5.2 5 4.7 4.3 4.7 3.2 3.2 4.2 3.7 3.6 3.5 -2.7 -2.7 7.2 8 8.1 9.3 10.5 11.5 12.1 12.7 14.7 15.9 17 18.7 21.7 20.9
93.5 89.3 92.2 91.3 90.2 89.5 88.2 87.5 83.6 82.4 81.3 81.4 81 79.8 77.1 72.9 70.6 68.9 68.8 66.6 58.8 57.9 69.2 60.9 52.8 51.3 46.2 43.9 43.9 38.8 33.9 30.4 26.2 22.2 18.3 10.8 5.5 5.8 3.1 2.8 2.8 5.9 4.2 -2.7 -2.7 3.5 4.1 4.5 1.8 2.6 2.7 1.3 0 -1.1 -2 -2.2 -2 -1.8 -1.6 -1.4 -1.2 -1 -0.8 -0.6 -0.4 -0.2 0 0.2 0.3 0.1 0 -0.1 -0.3 -0.4 -0.5 -0.7 -0.9 -1.1 -1.3 -1.5 -1.7 -1.9 -2.1 -2.3 -2.5 -2.7 -2.7 -2.7 -2.7 -2.7 -2.7 -2.7 -2.7 -2.7 -2.7 -2.7 -2.7 -2.7 -2.7 -2.7 -2.7 -2.7 -2.7 -2.7 -2.7 -2.7 -2.7 -2.7 -2.7 -2.7 -2.7 -2.7 -2.7 -2.7 -2.7 -2.7 -2.7 -2.7 -2.4 -2.1 -1.8 -1.5 -1.1 -0.8 -0.5 -0.2 0.1 0.4 0.8 1.1 1.4 1.7 2.1 2.4 2.7 3 3.5 3.2 4.1 4.1 4.3 3.4 3.2 3.2 3.2 3.2 3.2 3.2 3.2 3.2 3.5 4.7 3.8 3.2 4.2 3.2 3.1 3.4 4.2 4.1 4.8 4.4 3.9 3.4 3.3 3.7 4.1 4.5 4.5 4.9 5.1 5 4.7 4.5 5 4.7 4.3 3.5 3.4 3.4 3.2 3.6 3.7 3.6 3.4 -2.7 6.3 7.4 8.5 9.6 10.7 11.1 11.9 12.6 14 15.1 15.8 16.4 18.8 21.6
93.2 94.1 95.1 94.1 92.9 92.1 90.4 88.8 86.6 86.8 85.6 85.8 85.3 83.7 81.8 77.9 74.1 71.9 69.8 68.7 60.1 66 71.4 65.7 52.7 55.9 52.3 50.1 44.6 40.5 36.5 32.7 27.5 26.7 23.1 22.2 11.4 5.8 5.8 5.6 5.7 5.6 6.1 -2.7 5.6 4.1 3.9 4.1 3 1.9 2.7 2.5 1.2 0.1 -1.1 -1.7 -1.5 -1.3 -1.1 -0.9 -0.7 -0.5 -0.3 -0.1 0.1 0.3 0.5 0.6 0.4 0.3 0.2 0 -0.1 -0.2 -0.4 -0.6 -0.8 -1 -1.2 -1.4 -1.6 -1.8 -2 -2.2 -2.4 -2.6 -2.7 -2.7 -2.7 -2.7 -2.7 -2.7 -2.7 -2.7 -2.7 -2.7 -2.7 -2.7 -2.7 -2.7 -2.7 -2.7 -2.7 -2.7 -2.7 -2.7 -2.7 -2.7 -2.7 -2.7 -2.7 -2.7 -2.7 -2.7 -2.7 -2.7 -2.7 -2.6 -2.3 -2 -1.6 -1.3 -1 -0.7 -0.4 -0.1 0.3 0.6 0.9 1.2 1.5 1.9 2.2 2.5 2.9 4.1 4.6 4.5 4.6 4.4 4.1 4.5 3.4 3.2 3.2 3.2 3.2 4.4 3.4 3.4 4.4 4.2 3.8 3.2 4 4.6 4.4 3.9 3.2 3.8 5 4.6 4.1 3.6 3.2 3.5 3.9 4.3 4.5 4.8 5 5 4.9 4.7 4.5 4.7 4.4 3.7 5.5 4.1 3.5 3.4 3.7 3.6 -2.7 -2.7 5.2 7.5 8.6 9.7 10.4 10.7 11.7 12.3 12.6 13.4 14 14.5 16.3 18.5
93.5 97.3 98 96 95.8 94.8 92.4 90.4 89.6 88.4 87.7 87.5 86.7 85.9 85 82 77.7 75.6 73.5 69.5 62.5 72.1 67.7 65.5 57.4 49.8 55.1 50.4 45.9 42.5 39.3 36.8 33.5 29.9 28.9 24.9 21.5 9.2 6.1 6.2 6.2 6 6 6.2 6.3 6.5 4.3 4.2 4.4 4.4 2.1 2.9 2.2 1 -0.1 -1 -1.1 -0.9 -0.7 -0.5 -0.3 -0.1 0.1 0.3 0.5 0.7 0.9 0.7 0.6 0.5 0.3 0.2 0.1 0 -0.2 -0.4 -0.6 -0.8 -1 -1.2 -1.4 -1.6 -1.8 -2.1 -2.3 -2.5 -2.7 -2.7 -2.7 -2.7 -2.7 -2.7 -2.7 -2.7 -2.7 -2.7 -2.7 -2.7 -2.7 -2.7 -2.7 -2.7 -2.7 -2.7 -2.7 -2.7 -2.7 -2.7 -2.7 -2.7 -2.7 -2.7 -2.7 -2.7 -2.7 -2.7 -2.7 -2.5 -2.1 -1.8 -1.5 -1.2 -0.9 -0.6 -0.2 0.1 0.4 0.7 1 1.4 1.7 2 2.3 2.6 2.9 3.5 4.3 3.9 3.9 4 3.7 3.8 3.2 3.2 3.2 3.2 3.2 4.2 4 3.5 4.7 4.5 3.8 3.2 3.2 3.2 3.8 3.4 3.4 3.4 4.4 4 3.4 3.2 3.2 3.4 3.8 4.2 4.4 4.6 4.9 5.1 5 4.8 4.6 4.5 4.4 4.8 4.3 3.8 3.2 3.3 3.7 3.5 -2.7 3.8 4.5 6.2 8.6 9.7 10.7 11.6 12.2 11.8 11.4 11.6 12.1 12.6 13.6 15.4
97.1 100.2 101.2 98.7 97.5 96.9 94.4 93.1 93.1 90.8 89.2 87.8 87.3 86.9 86.1 84 81.3 79.3 77.1 72.8 65 74.3 65.4 65.5 60.6 58.7 58.7 54.3 48 45.2 43.5 40.5 38.5 34.2 27.3 22.6 20.4 16.9 9.4 6.9 6.7 6.1 5.9 6.9 6.5 6.7 5.5 4.4 4.4 4.4 3.9 2.2 3.1 1.9 0.8 0 -0.6 -0.4 -0.2 0 0.2 0.4 0.6 0.8 1 1.2 1 0.9 0.8 0.6 0.5 0.4 0.3 0.1 -0.1 -0.3 -0.5 -0.7 -0.9 -1.1 -1.3 -1.5 -1.7 -1.9 -2.1 -2.4 -2.7 -2.7 -2.7 -2.7 -2.7 -2.7 -2.7 -2.7 -2.7 -2.7 -2.7 -2.7 -2.7 -2.7 -2.7 -2.7 -2.7 -2.7 -2.7 -2.7 -2.7 -2.7 -2.7 -2.7 -2.7 -2.7 -2.7 -2.7 -2.7 -2.7 -2.7 -2.3 -2 -1.7 -1.4 -1.1 -0.7 -0.4 -0.1 0.2 0.5 0.8 1.2 1.5 1.8 2.1 2.4 2.7 3 3.5 4.3 3.4 3.3 3.3 3.3 3.2 3.2 3.2 3.2 3.2 3.2 4.2 4.2 4.6 4.1 3.9 3.6 3.2 4.8 4.6 3.5 3.2 3.6 4.5 3.6 3.4 3.2 4.4 3.2 3.5 3.8 4 4.3 4.5 4.7 5 5.1 4.9 4.7 4.5 4.4 4.4 3.4 3.2 3.2 3.2 3.4 -2.7 -2.7 3.7 4.5 5.5 7.9 9.9 10.6 11.5 11.6 11.2 10.9 10.4 11.3 11.3 11.6 13.4
98 100.5 101.1 100.5 98.3 98.8 99.9 97.9 97.5 94.4 91.4 89 88.3 88 87.3 85.9 84.6 83 80.4 77.4 71.1 72.1 69.4 68 66.1 65.9 66.5 57.8 50.8 50.9 48 45.2 40.6 33.9 29.6 26.3 22.4 17.7 11.4 17.7 9.8 6.7 6.4 6.9 6.8 6.5 4.8 4.4 4.4 4.5 4.2 3.2 2.4 2.8 1.8 0.9 0.1 0 0.2 0.4 0.6 0.8 1 1.2 1.4 1.4 1.2 1.1 0.9 0.8 0.7 0.6 0.4 0.2 0 -0.2 -0.4 -0.6 -0.8 -1 -1.2 -1.4 -1.6 -1.8 -2.1 -2.3 -2.7 -2.7 -2.7 -2.7 -2.7 -2.7 -2.7 -2.7 -2.7 -2.7 -2.7 -2.7 -2.7 -2.7 -2.7 -2.7 -2.7 -2.7 -2.7 -2.7 -2.7 -2.7 -2.7 -2.7 -2.7 -2.7 -2.7 -2.7 -2.7 -2.7 -2.7 -2.3 -1.9 -1.6 -1.3 -1 -0.7 -0.4 0 0.3 0.6 0.9 1.2 1.5 1.9 2.2 2.5 2.8 3.1 4.4 4.5 4 3.7 3.4 3.2 3.4 3.2 3.2 3.2 3.2 3.2 4 4.3 4.8 3.6 3.3 3.6 3.2 4 4.2 3.6 3.2 3.8 4.3 4.4 4.5 3.6 3.8 3.2 3.5 3.7 4 4.2 4.4 4.6 4.9 5.1 5 4.8 4.6 4.5 3.9 3.2 3.2 3.2 3.2 3.2 -2.7 -2.7 4.1 4.5 4.5 5.2 8.7 10.6 11.2 11.1 10.8 10.5 10.1 8.6 8.6 10.5 11.5
96.8 99.2 100.1 100.8 100.8 103.6 106.2 107.1 103.5 98.2 93.9 90.8 89.6 88.8 88.6 87.4 85.7 84.1 83 81 75.7 72.7 73.2 70.3 72.7 73.4 66.7 61.7 58.3 56.7 52.5 48 41.3 37.9 35.1 31 23.5 18.6 12.4 17.4 16.2 15.5 10.2 6.9 7.3 7.2 6.7 4.7 4.6 4.5 4.9 4.5 2.6 2.6 2.7 1.9 1 0.5 0.7 0.9 1.1 1.3 1.5 1.7 1.7 1.5 1.4 1.2 1.1 1 0.9 0.8 0.6 0.3 0.1 -0.1 -0.3 -0.5 -0.7 -0.9 -1.1 -1.3 -1.5 -1.8 -2 -2.3 -2.7 -2.7 -2.7 -2.7 -2.7 -2.7 -2.7 -2.7 -2.7 -2.7 -2.7 -2.7 -2.7 -2.7 -2.7 -2.7 -2.7 -2.7 -2.7 -2.7 -2.7 -2.7 -2.7 -2.7 -2.7 -2.7 -2.7 -2.7 -2.7 -2.7 -2.7 -2.4 -2 -1.5 -1.2 -0.9 -0.6 -0.3 0.1 0.4 0.7 1 1.3 1.6 2 2.3 2.6 2.9 3.2 2.8 4.6 4.5 4.1 3.6 3.2 3.6 3.7 3.5 3.2 3.2 3.2 3.4 4.8 4.7 4.6 4.1 3.7 3.3 3.2 3.5 3.4 3.3 3.4 4.8 4.8 4.3 3.6 3.3 3.3 3.4 3.6 3.9 4.1 4.3 4.5 4.7 5 5.1 4.9 4.7 4.2 3.4 3.2 3.2 3.2 3.2 3.2 3.2 -2.7 4.5 4.5 4.5 5 5.9 9.4 10.3 10.3 10 9.9 9.5 9.5 8.6 8.6 10.8
99.5 100 100.3 101 103.9 108 112.1 111.9 108.4 102.4 97.6 92.5 90.8 90.4 89.1 88.6 87.2 85.7 83.9 80.3 74.9 77.9 78.2 77.5 74.8 71.6 68.1 65.9 62.8 61.1 56.7 51 45.2 41 34.9 30.2 25.2 20.9 16.6 20.2 18.3 15.4 13.3 10.7 7.2 7 5.9 8.1 4.8 4.4 4.9 4.3 4.1 3 2.4 2.8 1.9 1.2 1.1 1.3 1.5 1.7 1.9 2 1.8 1.7 1.6 1.4 1.3 1.2 1.1 0.9 0.7 0.5 0.3 0.1 -0.1 -0.3 -0.5 -0.7 -1 -1.2 -1.5 -1.7 -2 -2.2 -2.5 -2.7 -2.7 -2.7 -2.7 -2.7 -2.7 -2.7 -2.7 -2.7 -2.7 -2.7 -2.7 -2.7 -2.7 -2.7 -2.7 -2.7 -2.7 -2.7 -2.7 -2.7 -2.7 -2.7 -2.7 -2.7 -2.7 -2.7 -2.7 -2.7 -2.7 -2.6 -2.2 -1.8 -1.4 -1 -0.5 -0.2 0.2 0.5 0.8 1.1 1.4 1.7 2.1 2.4 2.7 3 3.2 3.2 4 3.8 4.2 4.7 3.2 3.4 4.1 4.6 3.2 3.2 3.2 3.2 4.2 4.8 4.2 4.1 3.9 3.5 3.2 3.2 3.2 3.3 3.4 5.1 4.8 4.7 4.6 3.9 3.2 3.3 3.6 3.8 4 4.2 4.5 4.7 4.9 5.1 5 4.4 4 3.6 3.2 3.2 3.2 3.2 3.2 3.2 -2.7 -2.7 4.2 3.9 4.5 5 6 9.3 9.3 9.2 8.7 8.6 8.6 9.2 8.6 9.2
102.1 101 101.7 102 105.8 110.7 114 114.1 111.4 106.1 98.1 94.8 92 91.9 90.4 88.7 88.1 87.2 84.7 75.9 81.1 80.8 79.8 77.6 74.9 72.1 71.6 69.5 65.8 62.3 57.2 52.3 47.3 42 35.3 30.3 26.2 20.8 23.9 24.4 21.2 17.2 16.5 14.4 12.4 6.5 6.4 6.4 8.4 6.2 6.3 5.6 4.9 4.5 4.4 1.8 2.8 2.1 1.6 1.8 2 2.2 2.3 2.1 2 1.9 1.7 1.6 1.5 1.4 1.2 1 0.8 0.6 0.4 0.2 0 -0.2 -0.4 -0.6 -0.9 -1.2 -1.4 -1.7 -1.9 -2.2 -2.4 -2.7 -2.7 -2.7 -2.7 -2.7 -2.7 -2.7 -2.7 -2.7 -2.7 -2.7 -2.7 -2.7 -2.7 -2.7 -2.7 -2.7 -2.7 -2.7 -2.7 -2.7 -2.7 -2.7 -2.7 -2.7 -2.7 -2.7 -2.7 -2.7 -2.7 -2.7 -2.5 -2.1 -1.6 -1.2 -0.8 -0.4 0 0.4 0.9 1.2 1.5 1.8 2.2 2.5 2.8 3.1 3.2 3.2 3.2 4.5 3.4 3.2 3.8 3.9 3.5 4.2 3.3 3.2 3.2 3.2 3.2 3.5 4.6 4.3 4.1 3.7 3.3 3.6 4.3 3.6 3.3 4.8 5.4 5.4 4.8 4.1 3.4 3.3 3.5 3.7 4 4.2 4.4 4.6 4.8 5 5 4.6 4.2 3.8 3.4 3.2 3.2 3.2 3.2 3.2 3.4 -2.7 3.2 3.5 4.1 4.7 5.2 7 7.9 8.3 8.5 8.6 8.6 7 7.6 8.9
107.7 105.8 105.8 104.5 105.6 107.5 113.1 116.8 114.5 104.9 100.3 96.6 93.5 92.7 90.2 87.9 87.7 85.5 79.9 84.8 82.7 81.4 80.3 78.9 77.3 74.6 73.2 70.3 66.4 62.4 57.6 54.5 50 42.6 37.1 31 26 25.8 26.8 29.8 25.5 20 20 17.7 15.5 13.6 6.1 6.3 7.5 8.1 6.8 6.6 6.3 5.8 4.2 4.4 3.3 2.9 2.3 2.2 2.4 2.6 2.4 2.3 2.2 2 1.9 1.8 1.7 1.5 1.3 1.1 0.9 0.7 0.5 0.3 0.1 -0.1 -0.3 -0.6 -0.8 -1.1 -1.3 -1.6 -1.8 -2.1 -2.4 -2.7 -2.7 -2.7 -2.7 -2.7 -2.7 -2.7 -2.7 -2.7 -2.7 -2.7 -2.7 -2.7 -2.7 -2.7 -2.7 -2.7 -2.7 -2.7 -2.7 -2.7 -2.7 -2.7 -2.7 -2.7 -2.7 -2.7 -2.7 -2.7 -2.7 -2.7 -2.7 -2.3 -1.9 -1.5 -1.1 -0.6 -0.2 0.2 0.6 1 1.4 1.9 2.3 2.6 2.9 3.2 3.2 3.2 3.6 3.2 3.3 3.2 4.5 4.2 3.7 3.4 3.2 3.2 4.8 3.2 3.2 3.2 4.7 4.6 4.4 3.9 3.4 3.6 4 3.5 3.4 4.2 5.3 5.6 4.6 3.9 3.4 3.4 3.8 4.2 4.5 4.2 4.3 4.6 4.8 5 5.1 4.9 4.4 3.9 3.5 3.2 3.2 3.2 3.2 3.2 3.2 3.8 3.7 3.5 3.9 4.3 4.8 5.5 6.8 8 7.7 8.4 7.2 5.7 6.6 8.2
113.3 110.8 109.1 107.7 109.1 111.3 112.5 112.6 111 105.1 103.1 100.3 96.7 92.6 90.4 87.8 84.7 87 86.1 87 85 82.9 81.2 79.9 78.6 77 74.7 70.7 66.4 62.7 59.6 53.7 49.2 36.5 34.3 33.9 32.2 31.3 31.9 31.7 25.7 26.2 24.6 21.6 20.6 17.1 9.6 5.2 6.9 5.8 8.4 7.3 6.5 6.3 6 4.1 4.1 5.2 3.2 2.7 2.9 2.8 2.6 2.5 2.3 2.2 2.1 2 1.8 1.7 1.5 1.3 1.1 0.9 0.7 0.4 0.2 0 -0.3 -0.5 -0.7 -1 -1.3 -1.5 -1.8 -2.1 -2.3 -2.7 -2.7 -2.7 -2.7 -2.7 -2.7 -2.7 -2.7 -2.7 -2.7 -2.7 -2.7 -2.7 -2.7 -2.7 -2.7 -2.7 -2.7 -2.7 -2.7 -2.7 -2.7 -2.7 -2.7 -2.7 -2.7 -2.7 -2.7 -2.7 -2.7 -2.7 -2.7 -2.6 -2.2 -1.7 -1.3 -0.9 -0.5 -0.1 0.3 0.8 1.2 1.6 2 2.4 2.8 3.2 3.2 3.4 4.1 3.2 3.4 3.2 4.1 3.9 3.7 3.3 3.2 3.2 3.2 3.2 3.2 3.2 3.7 4.8 4.6 4 3.4 3.2 3.2 3.2 3.5 4.2 5 5.8 4.7 4.4 4.6 4.7 5.1 5.1 5 4.7 4.4 4.5 4.7 4.9 5.1 5.1 4.9 4.4 3.9 3.4 3.2 3.2 3.2 3.2 3.2 3.3 4.1 4 3.8 3.9 4.5 4.9 5.1 6 7.2 7 6.8 5.9 5.7 6.1
119.3 115.8 113.3 111.9 116.4 121.6 118.3 117.3 116.4 113.2 107.4 103.4 99.1 95.4 91.6 89.1 87.6 88.7 89.4 88.7 86.7 84.7 83.7 82.2 80.7 78.4 73.7 65.9 61 57.9 51.7 47.3 47.4 43.2 40.9 40 40.1 38.8 36.8 31.7 29.9 31.7 28.6 26.3 25.1 20.7 15.8 7.3 6.8 6.6 5.7 8.1 5.8 5.9 6.7 5.2 4.1 4 4.2 4.1 3.1 2.9 2.8 2.6 2.5 2.4 2.3 2.1 2 1.8 1.6 1.4 1.2 1 0.8 0.5 0.3 0.1 -0.2 -0.4 -0.7 -0.9 -1.2 -1.4 -1.7 -2 -2.3 -2.7 -2.7 -2.7 -2.7 -2.7 -2.7 -2.7 -2.7 -2.7 -2.7 -2.7 -2.7 -2.7 -2.7 -2.7 -2.7 -2.7 -2.7 -2.7 -2.7 -2.7 -2.7 -2.7 -2.7 -2.7 -2.7 -2.7 -2.7 -2.7 -2.7 -2.7 -2.7 -2.7 -2.4 -2 -1.6 -1.2 -0.7 -0.3 0.1 0.5 0.9 1.3 1.8 2.2 2.4 3.2 3.2 3.2 3.4 3.2 3.2 3.7 3.4 3.3 3.2 3.2 3.2 3.2 3.2 3.2 3.3 3.3 3.2 4 4.2 4.1 3.5 3.4 3.7 3.7 3.8 4.1 4.9 5.1 5.5 5.3 4.8 5 4.9 4.9 5 5.1 4.9 4.7 4.7 4.9 5.1 5.1 5 4.8 4.3 3.7 3.2 3.2 3.2 3.2 3.2 3.6 3.9 4.5 4.2 3.8 4 4.3 4.6 4.8 5.1 6.1 6.6 6.1 5.9 5.6
123.7 121.8 119.1 118.4 122.5 127.3 131.5 133.5 133.7 126.3 116.8 109.9 105.2 98.5 93.8 91.3 89.7 90.6 91.2 90.2 88.5 86.8 86 84.1 81.2 77.6 72.2 66.5 72.5 67.6 61.4 56.8 54.4 50.2 47.8 48.7 44 38.5 33.6 32.9 34.8 33.9 32 29.1 27.9 26.4 23.4 14.4 7.2 7.4 7.2 5.9 8.1 5.9 7 6.5 3.9 3.9 3.9 3.6 4.9 3.1 3 2.8 2.7 2.6 2.4 2.3 2.1 1.9 1.7 1.5 1.3 1.1 0.9 0.6 0.4 0.2 -0.1 -0.3 -0.6 -0.8 -1.1 -1.3 -1.6 -1.9 -2.2 -2.7 -2.7 -2.7 -2.7 -2.7 -2.7 -2.7 -2.7 -2.7 -2.7 -2.7 -2.7 -2.7 -2.7 -2.7 -2.7 -2.7 -2.7 -2.7 -2.7 -2.7 -2.7 -2.7 -2.7 -2.7 -2.7 -2.7 -2.7 -2.7 -2.7 -2.7 -2.7 -2.7 -2.7 -2.3 -1.8 -1.4 -1 -0.6 -0.2 0.2 0.7 1.1 1.2 1.2 2.3 3.2 3.2 3.2 3.4 3.2 3.2 3.8 3.3 3.3 3.7 3.4 3.2 3.2 3.8 4 3.7 3.3 3.2 3.2 3.4 3.8 3.7 3.2 3.7 3.9 4 4.3 4.3 4.4 4.5 4.5 4.7 4.8 4.8 4.8 4.9 5 5 5.1 4.9 4.9 5.1 5.1 5 5 4.8 3.9 3.2 3.2 3.2 3.2 3.4 3.8 4.2 4.6 3.8 3.8 3.9 4.2 4.4 4.6 4.9 5.4 5.9 6.1 5.7 6.3
128.9 125.8 124.4 125.2 126.7 132 137.7 142.4 143.6 136.7 127.7 119.3 109.6 104.1 97.7 93.3 91.6 93.1 93.1 91.2 90.2 88.7 87.1 84.4 79.9 69 72 78.5 76.4 72.2 69.6 63.9 57.4 50.2 49.1 45.2 41.2 39.9 40.2 36.9 35.3 34.8 33.2 30.7 28.1 24.4 23.2 21.6 8.9 8.1 8 6.4 5.1 7.9 5.7 7.2 4.5 3.9 3.9 4 4 3.9 3.1 3 2.9 2.7 2.6 2.5 2.2 2 1.9 1.7 1.4 1.2 1 0.8 0.5 0.3 0 -0.2 -0.4 -0.7 -1 -1.3 -1.5 -1.9 -2.2 -2.7 -2.7 -2.7 -2.7 -2.7 -2.7 -2.7 -2.7 -2.7 -2.7 -2.7 -2.7 -2.7 -2.7 -2.7 -2.7 -2.7 -2.7 -2.7 -2.7 -2.7 -2.7 -2.7 -2.7 -2.7 -2.7 -2.7 -2.7 -2.7 -2.7 -2.7 -2.7 -2.7 -2.7 -2.5 -2.1 -1.7 -1.3 -0.8 -0.4 -0.1 0.2 0.2 0.1 0.8 2.3 3.2 3.2 3.4 3.7 3.6 3.3 3.2 3.5 4 3.9 3.6 3.5 3.2 4.6 4 3.6 3.4 3.3 3.2 3.2 3.3 4 3.9 3.2 4.4 4.3 3.9 4 4 4.3 4.4 4.5 4.6 4.7 4.7 4.8 4.8 4.9 5 5.1 5.1 5.1 5.1 5.1 5 4.9 3.7 3.2 3.2 3.2 3.2 3.6 3.9 4.1 3.7 4.1 4.3 4.4 4.4 4.5 4.6 4.7 4.9 5 5.1 5.2 6.2
134.9 131.8 130.5 130.7 132 135.7 141.6 146.3 148.3 144.1 134.7 125.7 114.8 106.8 100 96.1 93.3 95.5 95.2 93.1 91.3 89.8 87.7 79.6 82.8 81.3 80.3 80.3 79.5 76.2 70.5 62.8 57.5 53 50.5 46.4 43.6 44.3 41.9 37.7 34.6 32.8 30.1 26.6 25.5 21.8 19.1 18 9.7 9 8.6 7.4 6.1 5.4 7.9 5.3 7.1 4.7 5.4 4.1 4.2 3.7 3.3 3.2 3 2.9 2.8 2.6 2.4 2.2 2 1.8 1.6 1.4 1.1 0.9 0.7 0.5 0.2 -0.1 -0.4 -0.6 -0.9 -1.2 -1.5 -1.8 -2.2 -2.5 -2.7 -2.7 -2.7 -2.7 -2.7 -2.7 -2.7 -2.7 -2.7 -2.7 -2.7 -2.7 -2.7 -2.7 -2.7 -2.7 -2.7 -2.7 -2.7 -2.7 -2.7 -2.7 -2.7 -2.7 -2.7 -2.7 -2.7 -2.7 -2.7 -2.7 -2.7 -2.7 -2.7 -2.7 -2.4 -1.9 -1.5 -1.1 -0.8 -0.8 -0.9 -0.9 -0.7 0.4 2.1 3.3 3.5 3.7 4 4 3.7 3.6 4.3 4.6 4.5 4.4 4.3 3.2 4.3 4 4.5 4.8 4.9 3.8 3.8 3.2 3.2 3.3 3.2 4.3 3.6 3.6 3.6 4 4.5 4.6 4.3 4.4 4.5 4.5 4.6 4.7 4.8 4.9 4.9 5 5.1 5 4.6 4.2 4.9 3.6 3.2 3.2 3.2 3.2 3.4 3.7 3.5 3.9 4.3 4.8 4.9 4.9 4.9 4.9 4.6 4.7 4.7 4.8 4.9 5.2
139.3 136 135.8 136 136.7 139.5 144.5 147.7 149.2 145.2 137.4 130.3 118.3 108.7 102.9 99 96.5 97.2 98.4 96.8 94 90.9 87.6 86.6 87.1 86.3 85.1 82.9 80.4 71.6 65.1 63.4 63.2 58.7 53 52.9 48.7 44.5 43.1 39.7 37.2 34.4 32.9 32.6 32.7 31 22 15.1 14.2 13.4 9.4 8 6.7 5.4 5.1 7.9 5.2 6.5 4.9 4.1 4.1 3.7 3.4 4.3 4 3.1 2.9 2.8 2.6 2.3 2.2 2 1.7 1.5 1.3 1.1 0.8 0.6 0.3 0 -0.2 -0.5 -0.8 -1.2 -1.5 -1.8 -2.1 -2.4 -2.7 -2.7 -2.7 -2.7 -2.7 -2.7 -2.7 -2.7 -2.7 -2.7 -2.7 -2.7 -2.7 -2.7 -2.7 -2.7 -2.7 -2.7 -2.7 -2.7 -2.7 -2.7 -2.7 -2.7 -2.7 -2.7 -2.7 -2.7 -2.7 -2.7 -2.7 -2.7 -2.7 -2.7 -2.6 -2.2 -1.9 -1.8 -1.9 -1.9 -1.9 -2.7 -1.5 -0.3 1.7 3.3 3.7 4 4.4 4.4 4.4 4.4 4.6 4.6 4.6 4.6 4.6 3.2 3.9 4.6 4.1 4.7 4 3.2 4.3 3.7 3.2 3.2 3.2 3.2 3.2 3.3 3.7 4.2 4.6 4.8 4.5 4.3 4.4 4.4 4.5 4.6 4.6 4.7 4.9 5 5.2 4.7 5.1 5.1 5.1 4.7 4.1 3.5 3.2 3.2 3.3 3.3 3.7 4.1 4.5 4.8 5.1 5.1 5 4.8 4.4 4.5 4.6 4.6 4.7 4.7
142.7 140.3 141 141.1 142.2 144.5 146.9 149.4 149.7 146.4 141.4 133.2 124.3 113.3 106.3 101.6 99.7 98.8 100.1 98.5 95.6 91.4 88.4 90.1 89.4 88.4 86.8 84.8 75.3 71.8 73.6 72.2 67.9 59.8 56.8 57.4 49.7 47.1 46.3 43.6 40.4 37.6 34.7 33.7 32.7 30.3 24.6 19.7 17.6 15.6 11.2 8.7 7.3 6 5.5 5.8 7.9 5.5 6.1 6.2 3.8 3.7 4 4.2 3.8 3.7 3.1 2.9 2.7 2.5 2.3 2.1 1.9 1.7 1.4 1.2 0.9 0.7 0.5 0.2 -0.1 -0.5 -0.8 -1.1 -1.3 -1.6 -2 -2.3 -2.7 -2.7 -2.7 -2.7 -2.7 -2.7 -2.7 -2.7 -2.7 -2.7 -2.7 -2.7 -2.7 -2.7 -2.7 -2.7 -2.7 -2.7 -2.7 -2.7 -2.7 -2.7 -2.7 -2.7 -2.7 -2.7 -2.7 -2.7 -2.7 -2.7 -2.7 -2.7 -2.7 -2.7 -2.7 -2.7 -2.7 -2.7 -2.7 -2.7 -2.7 -2.7 -2.7 -1.3 1.2 3.6 4.8 4.7 4.3 4.5 4.4 4.3 3.8 4.3 4.4 4.4 4.5 3.6 3.6 3.3 4.2 4.6 3.3 3.1 4.2 3.8 3.2 3.2 3.2 3.5 3.8 3.7 4.1 4.4 4.8 5.1 4.7 4.4 4.2 4.3 4.4 4.5 4.7 4.8 4.9 5.1 5.2 4.4 5.2 5.2 5.1 5 4.4 3.8 3.3 3.2 3.2 3.4 3.7 4 4.4 4.6 4.9 5.2 5 4.5 4.3 4.3 4.4 4.5 4.6 4.7
145.3 144.3 144.8 144.7 146 147.6 149.8 150.3 149.6 147.8 144.6 140.6 133.1 119.7 109.9 104.8 102.4 100.4 100.3 98.3 96.5 91.3 92.8 91.6 90 88.5 85.5 80.1 77 81.8 80.2 73.6 64.7 60 61.4 60.2 52.4 52.1 50.6 46.7 43.2 40.2 37.8 34.6 32.6 29 25.2 22.1 20 17.6 14 9.9 8.1 7.2 6.5 5.8 5.4 7.9 4.6 6.7 6.9 3.8 3.9 3.8 3.7 3.7 3.7 3.1 2.9 2.7 2.5 2.3 2.1 1.9 1.6 1.4 1.1 0.9 0.6 0.2 -0.1 -0.3 -0.6 -0.8 -1.1 -1.5 -1.9 -2.2 -2.7 -2.7 -2.7 -2.7 -2.7 -2.7 -2.7 -2.7 -2.7 -2.7 -2.7 -2.7 -2.7 -2.7 -2.7 -2.7 -2.7 -2.7 -2.7 -2.7 -2.7 -2.7 -2.7 -2.7 -2.7 -2.7 -2.7 -2.7 -2.7 -2.7 -2.7 -2.7 -2.7 -2.7 -2.7 -2.7 -2.7 -2.7 -2.7 -2.7 -2.7 -2.7 -2.7 -2.7 0.8 3.5 4.5 4.7 4.6 4 3.9 4.1 4.1 4.5 4.4 4.1 4.5 4.5 3.3 3.2 4.4 3.9 3.2 3.1 3.9 3.6 3.3 3.7 4.1 4.6 4.4 4 5.3 5.3 5.2 5.1 4.8 4.4 4.2 4.3 4.4 4.5 4.7 4.8 4.9 5.1 5.2 5.2 5.2 5.2 5.1 5.1 4.7 4.1 3.7 3.4 3.2 3.3 3.6 3.9 4.2 4.5 4.8 5.1 5 4.4 4.2 4.3 4.4 4.5 4.6 4.6
144.1 145.3 146.5 147.5 150.2 151.8 153.4 152.6 151.1 145.6 145.4 142.4 138.4 131.9 117.8 107.8 105.6 102.8 100.7 99.2 96.7 94.1 94.8 92.5 90.7 89.7 88 85.1 85.2 85 82.3 76.4 69 66.8 67.7 60.9 57 59.9 51.9 47.7 48 44.6 41.6 37.2 34.3 29.4 26.4 24.9 22 19.2 15.7 12.8 9.9 8 7.1 6.1 5.6 5.4 6.6 4.5 7.5 7 3.6 3.8 3.7 3.6 3.5 3.6 3.1 2.9 2.7 2.5 2.2 2 1.8 1.6 1.3 0.9 0.7 0.4 0.2 -0.1 -0.3 -0.7 -1 -1.4 -1.8 -2.2 -2.7 -2.7 -2.7 -2.7 -2.7 -2.7 -2.7 -2.7 -2.7 -2.7 -2.7 -2.7 -2.7 -2.7 -2.7 -2.7 -2.7 -2.7 -2.7 -2.7 -2.7 -2.7 -2.7 -2.7 -2.7 -2.7 -2.7 -2.7 -2.7 -2.7 -2.7 -2.7 -2.7 -2.7 -2.7 -2.7 -2.7 -2.7 -2.7 -2.7 -2.7 -2.7 -2.7 -2.7 0.3 3.4 4.1 4.7 4.6 4.1 3.7 4.3 4.3 4.7 4.5 4.3 3.9 4.6 3.7 3.2 3.2 4 3.2 3.6 3.6 3.3 3.3 3.6 4.7 4.8 4.5 4.6 4.6 5.1 5.2 5 4.2 4.1 4.3 4.4 4.4 4.5 4.6 4.8 4.9 5 5.2 5.1 4.8 5 5.1 5.1 5 4.4 4.1 3.7 3.3 3.2 3.5 3.8 4 4.3 4.6 4.9 5.1 4.6 4.3 4.4 4.4 4.4 4.5 4.6
142.4 144.6 147.4 149.7 153.7 159.2 164.6 160.1 155.5 150.6 146.6 139.7 139.1 135.9 128.9 112.4 108.7 106.3 104.5 102 97.7 96.1 96.5 94.8 92.7 91.9 90.3 87.7 87.1 87.3 84.4 81.9 76.5 73.8 67.7 61.6 62.8 61.6 53.4 52.8 52.5 49.1 45.5 40.3 36 32.6 29.3 27 24.2 20.5 18.2 15.7 11.5 9.1 8.7 7.4 6.9 5.6 6.2 6.2 4.7 7.3 5.7 3.8 3.6 3.5 3.3 3.2 3.6 3.1 2.9 2.7 2.5 2.2 2 1.6 1.4 1.2 0.9 0.7 0.5 0.2 -0.2 -0.6 -1 -1.4 -1.7 -1.9 -2.7 -2.7 -2.7 -2.7 -2.7 -2.7 -2.7 -2.7 -2.7 -2.7 -2.7 -2.7 -2.7 -2.7 -2.7 -2.7 -2.7 -2.7 -2.7 -2.7 -2.7 -2.7 -2.7 -2.7 -2.7 -2.7 -2.7 -2.7 -2.7 -2.7 -2.7 -2.7 -2.7 -2.7 -2.7 -2.7 -2.7 -2.7 -2.7 -2.7 -2.7 -2.7 -2.7 -2.7 0.3 3.4 3.6 4.4 4.4 3.6 3.9 4.1 4.5 3.5 3.5 3.5 3.2 3.4 4 3.2 3.2 3.2 3.2 3.3 3.2 3.4 3.6 3.2 4.1 4 3.7 4.3 4.7 5 5.2 3.9 4 4.4 4.5 4.5 4.6 4.6 4.7 4.8 4.9 5 5.2 5 4.6 4.6 4.8 5 5.1 4.7 4.4 4 3.7 3.2 3.3 3.6 3.8 4.1 4.4 4.7 4.9 4.7 4.4 4.4 4.5 4.5 4.6 4.6
141.4 143.9 147.2 152.1 158.7 165.8 170.4 167.5 163.4 159.6 153 146.9 141.1 138.3 132.1 123.4 114.3 110.8 107.9 105.2 99.7 98.7 97.7 97.5 95.4 93.8 92.3 89 89.4 88.3 86.9 85.3 82.7 79.3 72.1 65.6 65.1 60.7 55.5 57.5 55.6 52.8 47.4 40.1 36.4 35 35.5 31.4 28.5 23.2 21.4 18.1 14.7 13.4 11.8 9.6 8.5 6.2 5.5 5.5 5.8 4.3 4.1 3.9 3.8 3.6 3.5 3.3 3.4 3.6 3.1 2.9 2.7 2.4 2.1 1.9 1.7 1.5 1.2 1 0.6 0.3 -0.1 -0.5 -0.8 -1 -1.3 -1.7 -2.3 -2.7 -2.7 -2.7 -2.7 -2.7 -2.7 -2.7 -2.7 -2.7 -2.7 -2.7 -2.7 -2.7 -2.7 -2.7 -2.7 -2.7 -2.7 -2.7 -2.7 -2.7 -2.7 -2.7 -2.7 -2.7 -2.7 -2.7 -2.7 -2.7 -2.7 -2.7 -2.7 -2.7 -2.7 -2.7 -2.7 -2.7 -2.7 -2.7 -2.7 -2.7 -2.7 -2.7 0.4 3.5 4.4 3.4 3.2 4.4 3.3 4.5 3.8 3.2 4.8 4.1 4 4.4 3.8 3.7 4.1 3.9 3.8 3.2 4.5 3.8 3.9 3.2 3.9 3.4 3.2 3.5 4.4 5 3.5 3.9 4.3 4.5 4.6 4.6 4.7 4.8 4.8 4.9 4.9 5 5.1 4.9 4.4 4.3 4.4 4.6 4.5 5 4.6 4.1 3.5 3.3 3.4 3.5 3.7 3.9 4.2 4.5 4.7 4.9 4.4 4.5 4.5 4.6 4.6 4.7
140.9 144.2 148.4 154.8 162.2 169 172.6 172.4 170.4 166.5 160.5 155 146.8 138.9 136.8 131 121.6 115 110.8 106.5 103.6 100.4 98.9 99.1 98.1 95.9 93.8 91.8 90 88.5 87.3 85.8 84.9 82.2 76.2 70.9 66.9 60 58.6 61.7 59.4 53.8 48.9 40.8 38.4 38 38 35.9 30.3 28.5 24.3 21.2 14.4 15.1 14.9 12 10.7 9.1 6.4 6 6.6 5.3 4.5 4.1 3.9 3.8 3.6 3.3 3.5 3.6 3.7 3.1 2.9 2.7 2.4 2.2 2 1.7 1.5 1.1 0.7 0.4 0.1 -0.1 -0.4 -0.6 -1 -1.5 -2.2 -2.7 -2.7 -2.7 -2.7 -2.7 -2.7 -2.7 -2.7 -2.7 -2.7 -2.7 -2.7 -2.7 -2.7 -2.7 -2.7 -2.7 -2.7 -2.7 -2.7 -2.7 -2.7 -2.7 -2.7 -2.7 -2.7 -2.7 -2.7 -2.7 -2.7 -2.7 -2.7 -2.7 -2.7 -2.7 -2.7 -2.7 -2.7 -2.7 -2.7 -2.7 -2.7 -2.7 0.1 3.3 3.5 4.1 3.2 4.3 4.2 4.7 3.2 4.7 4.6 4.3 4.5 4.6 3.6 4.6 4.9 4.7 4.5 4.6 3.8 3.2 3.2 3.9 3.2 4.6 4.2 3.6 4.1 4.7 3.9 4.2 4.5 4.6 4.7 4.8 4.8 4.9 4.9 5 5 5.1 5.1 5.1 4.8 4.4 4.4 4.3 3.9 4.9 4.6 3.9 3.5 3.4 3.4 3.6 3.7 3.8 4 4.3 4.5 4.8 4.5 4.6 4.6 4.7 4.7 4.8
141.3 145.2 150.4 155.9 163 169.2 174.3 175.8 175.3 170.7 166.6 161.2 154.9 147.6 139.2 135.7 126.4 118.8 114.7 112.3 108 103.6 100.8 99.7 99.3 96.4 94.8 93.3 90.9 89.3 87.7 86.4 85.1 81.8 75.3 68.5 67.5 66.9 64.4 69.6 60.6 54.5 48.8 43.9 41.6 40.4 39.3 38.2 35.3 31.7 29.3 25.4 18.7 13.1 16.3 15.2 13.1 10.3 8.2 7.7 6.3 5.7 5.3 4.7 4.2 3.9 3.5 3.4 3.5 3.6 3.6 3.9 3.2 3 2.7 2.5 2.3 1.9 1.5 1.3 1 0.8 0.5 0.3 0 -0.3 -0.8 -1.4 -2 -2.7 -2.7 -2.7 -2.7 -2.7 -2.7 -2.7 -2.7 -2.7 -2.7 -2.7 -2.7 -2.7 -2.7 -2.7 -2.7 -2.7 -2.7 -2.7 -2.7 -2.7 -2.7 -2.7 -2.7 -2.7 -2.7 -2.7 -2.7 -2.7 -2.7 -2.7 -2.7 -2.7 -2.7 -2.7 -2.7 -2.7 -2.7 -2.7 -2.7 -2.7 -2.7 -2.3 -0.3 2.1 3.8 4.4 3.2 3.8 4.3 3.5 4 4.8 4.6 4.6 4.7 4.3 3.9 3.2 3.5 3.2 3.6 5 3.4 3.4 3.8 3.2 5 4.5 4.3 4.4 4.1 4.5 4.3 4.4 4.7 4.8 4.8 4.9 4.9 5 5.1 5.1 5.1 5 4.9 5 5.1 5 4.1 4.2 4.5 4.7 4.4 3.7 3.6 3.5 3.5 3.6 3.8 3.9 4 4.2 4.4 4.6 4.7 4.6 4.7 4.7 4.8 4.8
142.7 147.5 153.1 158.4 164 170.8 175.3 177.7 177.2 172.9 169.1 165.5 160.6 153.9 145.4 136.9 130.7 123.6 119.7 116.3 111.8 107.5 104.3 102 99.2 97.7 96.1 94.2 92.3 90.2 88.9 87.9 86.5 84.4 74.5 80.5 76.1 73.1 71.7 66.5 59.2 53.4 48.5 48.2 47.1 46.3 43.1 42.1 39.2 34.4 31.8 29 21.9 14.4 14.6 16.6 14.3 11.4 9.9 8.6 7.2 6.8 6.8 6.5 4.7 3.9 3.5 3.4 3.5 3.6 3.7 4.1 4.3 3.2 3 2.8 2.5 2.2 1.9 1.7 1.4 1.2 0.9 0.6 0.3 -0.1 -0.7 -1.2 -1.6 -2.7 -2.7 -2.7 -2.7 -2.7 -2.7 -2.7 -2.7 -2.7 -2.7 -2.7 -2.7 -2.7 -2.7 -2.7 -2.7 -2.7 -2.7 -2.7 -2.7 -2.7 -2.7 -2.7 -2.7 -2.7 -2.7 -2.7 -2.7 -2.7 -2.7 -2.7 -2.7 -2.7 -2.7 -2.7 -2.7 -2.7 -2.7 -2.7 -2.7 -2.7 -2.7 -1.9 0.1 2.1 3 4.5 3.5 4.1 4.3 3.2 3.2 3.2 4.2 4.1 4.7 3.2 3.4 4.1 4 3.7 4.7 3.2 3.2 3.3 3.2 3.2 3.5 4.2 4.3 4.5 4.6 4.6 4.7 4.7 4.8 4.9 5 5 5.1 5.1 5 5 5 4.9 4.8 4.8 4.9 5 4.5 4 4.3 4.6 4.2 3.7 3.7 3.6 3.6 3.7 3.8 3.9 4.1 4.2 4.4 4.5 4.7 4.7 4.7 4.8 4.8 4.8
149 153.7 158.3 162 167.6 171.8 175.8 178.9 178.4 174.9 171.4 167.7 163.7 158.8 150.4 140.3 135.4 128.5 123.2 119.4 115.2 111.9 108.7 105 101.5 99.1 97.6 95.7 94.2 91.9 89.9 89 87.7 83.2 83.6 83.3 79.4 77.1 73 67 60.4 53.7 50.5 53.4 50.9 49.4 46.7 45.1 42.7 37.8 34.4 31.7 25.3 16.7 15.8 17.8 14.5 13.1 12.2 10.4 8.2 8 7.6 6.9 6.4 4.6 3.6 3.4 3.5 3.6 4 4.1 4.2 4.3 3.2 3.1 2.8 2.6 2.3 2.1 1.8 1.6 1.3 1 0.6 0.2 -0.3 -0.6 -1 -2 -2.7 -2.7 -2.7 -2.7 -2.7 -2.7 -2.7 -2.7 -2.7 -2.7 -2.7 -2.7 -2.7 -2.7 -2.7 -2.7 -2.7 -2.7 -2.7 -2.7 -2.7 -2.7 -2.7 -2.7 -2.7 -2.7 -2.7 -2.7 -2.7 -2.7 -2.7 -2.7 -2.7 -2.7 -2.7 -2.7 -2.7 -2.7 -2.7 -2.7 -2.7 -1.5 0.5 1.3 2.2 3.2 3.2 3.2 3.2 3.2 4.6 4.6 3.4 3.3 3.2 4.7 4 3.6 3.2 3.2 4.1 4 4.2 3.2 4.6 3.7 3.4 4.3 3.9 4.1 4.4 5.1 5.1 4.9 5 5 5.1 5 5 5 4.9 4.9 4.8 4.7 4.6 4.7 4.8 4.8 4.8 4.5 4.1 4.4 4 3.8 3.8 3.7 3.7 3.7 3.8 4 4.1 4.3 4.4 4.6 4.7 4.7 4.8 4.8 4.8 4.8
154.7 158.7 164 167 169.3 172.9 176.4 178.9 178.8 176.9 173.3 169.6 165.8 161.6 155.3 146.5 138.8 131.9 127.8 123.8 119.3 115.9 111.2 106.5 103.9 101.5 99 97.5 96.2 93.6 91.2 89.4 87.1 86.2 85.9 85.5 82.7 77.6 73.2 69.3 61.4 53.3 56 61.8 61.4 56.4 51.6 48.2 44.5 41.4 36.5 32.9 25 20.6 16.9 18.8 16.6 14.5 13.8 12.3 10.2 9.4 9.3 9 6.3 6.2 4.3 3.5 3.6 3.8 3.9 4 4.1 4.2 4.3 3.2 3.2 3 2.7 2.5 2.2 1.9 1.7 1.4 1 0.5 0.4 0.3 -0.7 -1.6 -2.7 -2.7 -2.7 -2.7 -2.7 -2.7 -2.7 -2.7 -2.7 -2.7 -2.7 -2.7 -2.7 -2.7 -2.7 -2.7 -2.7 -2.7 -2.7 -2.7 -2.7 -2.7 -2.7 -2.7 -2.7 -2.7 -2.7 -2.7 -2.7 -2.7 -2.7 -2.7 -2.7 -2.7 -2.7 -2.7 -2.7 -2.7 -2.7 -2.7 -2.7 -1.2 -0.3 0.6 1.6 2.6 3.2 3.2 3.8 3.7 4.4 4.3 3.2 3.2 2.9 4.2 3.8 4.4 3.9 4.4 4.2 4.5 4.2 3.4 3.9 3.4 3.4 3.9 4.2 4.3 3.8 4 5 5 5 5 5 4.9 4.9 4.9 4.8 4.7 4.6 4.5 4.4 4.5 4.6 4.6 4.5 4.5 4.4 4.2 3.9 3.9 3.9 3.8 3.8 3.8 3.9 4 4.2 4.3 4.5 4.6 4.7 4.7 4.8 4.8 4.8 4.8
159.3 164.6 167.6 168.7 170.9 173.7 176.5 178 178.7 178 175 171.1 167.7 163.9 158.4 151.9 143.2 136.3 133.7 129.8 124.2 119.4 112.9 109.8 107.2 104.3 100.9 98.4 97.4 95.4 92.9 90.2 90 88.6 87.6 86.2 83.9 77.6 73.4 68.9 61.6 56.7 61 66.8 67.6 63.9 53 47.2 45 39.8 34.6 31.5 31 27.6 20.6 22.3 19 16.5 15.2 13.8 13.4 12.3 10.8 9.5 9.2 8.5 6.1 4.8 3.6 3.7 3.8 3.9 4 4.1 4.2 4.5 3.4 3.2 3.1 2.8 2.6 2.4 2.1 1.8 1.4 1.3 1.3 0.7 0 -1.1 -2.7 -2.7 -2.7 -2.7 -2.7 -2.7 -2.7 -2.7 -2.7 -2.7 -2.7 -2.7 -2.7 -2.7 -2.7 -2.7 -2.7 -2.7 -2.7 -2.7 -2.7 -2.7 -2.7 -2.7 -2.7 -2.7 -2.7 -2.7 -2.7 -2.7 -2.7 -2.7 -2.7 -2.7 -2.7 -2.7 -2.7 -2.7 -2.7 -2.7 -2.7 -2 -1.1 -0.1 0.9 1.9 2.7 3.2 2.7 4.6 3.3 3.2 3 4.6 4.4 4.7 4.6 4.2 3.2 3.4 3.9 4.7 4.1 3.7 3.2 3.2 3.2 3.2 3.2 3.2 3.5 4.2 4.6 4.9 4.9 4.9 4.8 4.8 4.8 4.7 4.6 4.5 4.4 4.3 4.3 4.3 4.4 4.4 4.3 4.2 4.1 4.1 4 4 4 4 3.9 3.9 3.9 4.1 4.2 4.4 4.5 4.6 4.6 4.7 4.7 4.8 4.8 4.8
162.5 167.4 170.6 171.1 171.6 173.7 174.9 176.9 177.6 177.7 176.9 173.7 170.9 166.4 161.5 155.4 150.8 146.3 142.7 135.2 129.7 124.5 117.6 112.6 109.2 105.8 102 99.1 98.2 96.7 95.4 94 92.3 90.8 89.2 88.4 87.1 83.7 77.4 69.1 63 62.9 67.4 69.3 70.5 65.7 54.5 50.2 47 42.3 38.8 36.4 34.2 28.3 26.1 23.6 21.7 18.6 17 16.3 15.3 14.2 13 11.6 10.6 8.6 7.6 6 4.8 3.6 3.7 3.8 3.9 4.1 4.2 4.3 6 9.1 2.5 2.3 3.1 2.9 2.7 2.4 2.3 2.2 2 1.5 0.5 0 -0.2 -2.7 -2.7 -2.7 -2.7 -2.7 -2.7 -2.7 -2.7 -2.7 -2.7 -2.7 -2.7 -2.7 -2.7 -2.7 -2.7 -2.7 -2.7 -2.7 -2.7 -2.7 -2.7 -2.7 -2.7 -2.7 -2.7 -2.7 -2.7 -2.7 -2.7 -2.7 -2.7 -2.7 -2.7 -2.7 -2.7 -2.7 -2.7 -2.7 -2.7 -2.7 -1.8 -0.8 0.2 1 1.8 2.5 3.2 3.2 3.5 3.2 3.2 3.2 3.2 3.4 3.2 3.2 3.2 3.2 3.9 4.7 4.3 3.7 3.5 3.2 3.2 3.2 3.2 3.2 3.4 3.9 4.3 4.6 4.8 4.8 4.7 4.7 4.7 4.6 4.4 4.3 4.2 4.1 4.1 4.2 4.2 4.2 4.1 4 3.9 4.2 4.3 4.1 4.1 4.1 4 4 4 4.1 4.3 4.4 4.5 4.6 4.6 4.7 4.7 4.8 4.8 4.8
164.1 168.3 172.2 172.7 171.4 172.4 172.6 176.1 176.5 176.7 176.5 176 173.8 169.7 164.7 159.2 154.7 150.1 146.1 140.1 136.3 128.7 122.4 116.1 109.9 107.4 103.7 100.3 100.1 98.3 96.9 96.6 94.3 92.2 90.6 89.9 88.9 85.2 77.1 74.4 72.9 69.7 69.9 70.3 67.9 61.7 59.5 56.2 51.1 46 42.1 38.9 36.8 33.7 28.9 27.2 24.9 20.7 19.1 18 16.8 15.7 14.6 13.1 11.7 8.2 7.7 5.9 4.6 4.9 3.7 3.8 4 4 4.1 5.4 3.7 7.6 10.8 9.8 9.4 3.2 2.2 3.2 3.2 3.1 2.9 2.5 2.2 1.9 1.2 -2.7 -2.7 -2.7 -2.7 -2.7 -2.7 -2.7 -2.7 -2.7 -2.7 -2.7 -2.7 -2.7 -2.7 -2.7 -2.7 -2.7 -2.7 -2.7 -2.7 -2.7 -2.7 -2.7 -2.7 -2.7 -2.7 -2.7 -2.7 -2.7 -2.7 -2.7 -2.7 -2.7 -2.7 -2.7 -2.7 -2.7 -2.7 -2.7 -2.7 -2.7 -2.7 -1.5 -0.6 0.2 0.9 1.7 2.4 3.2 3.6 3.2 2.8 2.3 2.3 2.7 3.2 3.2 3.2 3.2 3.2 3.2 3.8 3.4 3.2 3.2 3.2 3.2 3.2 3.7 3.9 4.1 4.3 4.3 4.7 4.7 4.6 4.6 4.5 4.4 4.3 4.1 4 3.9 3.9 4 4 3.9 3.9 3.8 4 4.4 4.6 4.4 4.3 4.2 4.1 4.1 4.1 4.2 4.3 4.4 4.5 4.5 4.6 4.6 4.7 4.7 4.8 4.8
157 166.9 170.6 172.3 171 169.7 170.7 173.3 174.2 173.9 175.7 177.8 175.5 171.3 167.3 163 158.6 153.6 148 141.4 137.9 132.8 128.5 123.3 115.3 108.8 105.1 102.5 102.7 101.6 100.5 98.8 96.4 93.7 91.9 91.2 88.7 85.3 74.5 80.9 79 75.4 72.2 68.5 64.5 64.2 65.1 60.4 54.7 49.4 45.5 41.5 39 35.5 30.6 28.8 27 22.9 21 19.8 18.6 16.7 15.2 13.3 11.6 9.8 7.8 6.4 5.3 4.4 4 3.9 3.9 4 4.5 4.4 2.8 11.5 11.9 10.7 11.1 10.4 10.4 9.7 7.4 5.9 3.2 3.2 3.2 3.2 3.2 2.4 -2.7 -2.7 -2.7 -2.7 -2.7 -2.7 -2.7 -2.7 -2.7 -2.7 -2.7 -2.7 -2.7 -2.7 -2.7 -2.7 -2.7 -2.7 -2.7 -2.7 -2.7 -2.7 -2.7 -2.7 -2.7 -2.7 -2.7 -2.7 -2.7 -2.7 -2.7 -2.7 -2.7 -2.7 -2.7 -2.7 -2.7 -2.7 -2.7 -2.7 -2.7 -2.2 -1.4 -0.7 0.1 0.9 1.4 2.1 2.4 2 1.5 1.2 1.6 2.2 3.2 3.2 3.2 3.2 3.2 3.2 3.2 3.2 3.2 3.2 3.4 3.3 3.5 4 4.3 4.4 4.6 5.2 4.3 4.6 4.5 4.4 4.3 4.2 4.1 4 3.9 3.7 3.8 3.8 3.8 3.7 3.6 3.9 4.2 4.5 4.8 4.7 4.6 4.4 4.3 4.2 4.2 4.2 4.4 4.4 4.5 4.5 4.6 4.6 4.7 4.7 4.8 4.9
145.3 158.7 166.6 170.6 170.3 167.9 167.6 168.7 169.4 170.8 174 177.1 176.4 173 168.8 165.3 161.7 157.1 150.6 144 140.2 137.5 133.6 128.5 123.2 116.3 108.1 107.5 106.3 104.2 102.1 100 98 96 93.1 91.5 88.8 77.8 82.7 84.8 82.9 78.1 74.5 71.9 66.2 67.2 67.4 63.5 59.2 53.7 48.4 44.5 41.3 37.3 32.9 29.1 28.5 24.8 23.3 22 19.7 17.5 15.6 13.4 11.7 11.9 10.4 7.8 5.7 4.9 4.4 5.2 4.1 4.4 5.8 2.6 9.5 11.8 12.4 11.8 12.2 12.7 13 10.2 10 9.8 9.2 9 3.9 3.2 4.2 4.8 -2.7 -2.7 -2.7 -2.7 -2.7 -2.7 -2.7 -2.7 -2.7 -2.7 -2.7 -2.7 -2.7 -2.7 -2.7 -2.7 -2.7 -2.7 -2.7 -2.7 -2.7 -2.7 -2.7 -2.7 -2.7 -2.7 -2.7 -2.7 -2.7 -2.7 -2.7 -2.7 -2.7 -2.7 -2.7 -2.7 -2.7 -2.7 -2.7 -2.7 -2.7 -2.7 -2.3 -1.5 -0.7 -0.2 0.2 0.7 1 0.7 0.3 0.5 1 1.7 3.1 3.2 3.2 3.2 3.2 3.6 3.2 3.2 3.2 3.6 4.1 3.5 3.7 4.1 4.5 4.8 5.3 5 4.5 4.4 4.3 4.2 4.1 4 3.9 3.8 3.7 3.6 3.6 3.6 3.6 3.5 3.8 4.1 4.4 4.7 5 5 4.9 4.7 4.6 4.4 4.3 4.3 4.4 4.4 4.5 4.5 4.6 4.7 4.7 4.8 4.9 4.9
140.5 150.7 164.9 168.1 168.8 167.1 164.8 164.6 165.1 167.2 170.6 174.1 176.1 174.2 170 166.9 163.7 160 153.5 146.5 141.9 139.2 139.1 135.4 129.5 123.8 116.9 111.9 108.6 106 103.3 101.1 99.1 97.2 95.1 91.8 87 86.1 86.6 86.8 84.1 79.3 75.4 72.3 69.4 71.9 72.1 70.6 64.9 58.1 52.1 47.4 43.8 40.2 36.7 32 29.1 27.2 24.9 23.2 18.8 17.9 15.7 14.2 13.7 14.5 10.8 8.4 6.4 5.7 6.4 4.4 5.1 4.5 3.8 4.3 4.4 7.4 10.7 13.2 12.9 12.3 13.6 12.9 10.4 11 14.9 15.9 11.4 8.6 7.1 5.5 -2.7 -2.7 -2.7 -2.7 -2.7 -2.7 -2.7 -2.7 -2.7 -2.7 -2.7 -2.7 -2.7 -2.7 -2.7 -2.7 -2.7 -2.7 -2.7 -2.7 -2.7 -2.7 -2.7 -2.7 -2.7 -2.7 -2.7 -2.7 -2.7 -2.7 -2.7 -2.7 -2.7 -2.7 -2.7 -2.7 -2.7 -2.7 -2.7 -2.7 -2.7 -2.7 -2.7 -2.3 -1.6 -1.4 -1.1 -0.8 -0.4 -0.5 -0.7 -0.2 0.3 1.2 2.5 3.2 3.2 3.2 3.2 3.2 3.2 3.2 3.2 4.7 4.7 4.7 3.9 4.3 4.7 5.1 4.9 4.2 4.5 4.1 4 4 3.9 3.8 3.7 3.6 3.5 3.4 3.4 3.4 3.4 3.7 4 4.3 4.6 4.9 5.1 5.2 5.1 4.9 4.8 4.6 4.5 4.3 4.4 4.4 4.5 4.6 4.7 4.8 4.8 4.9 5 5
140.2 140.2 152.4 164.2 165.4 164.1 162.2 159.4 161.6 164.4 166.5 170.4 173.7 173.9 171.3 168 164.5 161 156.6 151.3 144.2 138.2 139.5 137.8 133.1 126.6 122.3 118.2 112.9 108.3 105.2 102.3 100.1 98.6 96.6 93.5 90.8 85.1 88.9 88.5 85.7 83 81.3 75.3 72.6 72.7 73.7 73.9 68.1 61.8 55.1 50.4 46.8 42.4 38.8 35 30.1 27.7 26.6 24.3 22 19.7 17.2 16.2 15.7 15.9 13.7 8.5 8.2 8.4 6.8 5.4 3.8 6.3 5.2 3.4 5 3.2 8.7 11.3 12.7 12.9 17.9 18.8 12.4 12.9 15.6 17.6 17.7 11.6 6.5 -2.7 -2.7 -2.7 -2.7 -2.7 -2.7 -2.7 -2.7 -2.7 -2.7 -2.7 -2.7 -2.7 -2.7 -2.7 -2.7 -2.7 -2.7 -2.7 -2.7 -2.7 -2.7 -2.7 -2.7 -2.7 -2.7 -2.7 -2.7 -2.7 -2.7 -2.7 -2.7 -2.7 -2.7 -2.7 -2.7 -2.7 -2.7 -2.7 -2.7 -2.7 -2.7 -2.7 -2.7 -2.7 -2.7 -2.7 -2.7 -2.7 -2.7 -1.8 -1.4 -0.8 -0.4 0.7 2 3.2 3.2 3.2 3.2 3.2 3.2 3.2 3.2 5.3 5 5 4.3 4.1 4.9 5.1 4.1 4.6 4 3.8 3.7 3.7 3.6 3.6 3.5 3.4 3.3 3.2 3.2 3.2 3.6 3.8 4 4.3 4.5 4.7 5 5.2 5 4.9 4.7 4.6 4.4 4.4 4.4 4.4 4.5 4.6 4.7 4.8 4.8 4.9 5 5.1
141.6 138.6 139.5 148.4 155.4 157.9 160.2 158.2 157.2 161 161.6 165.6 169.7 172.8 170.9 168.2 164.7 161.6 158.7 154.8 148.3 142.6 137 136.4 135.4 130.3 126.1 121.3 116.1 110.3 106.9 104.1 102.3 100.2 98 95.2 92.2 89.4 90.8 90 88.3 87.3 85.5 78.4 73.7 71.7 74.2 74.3 70.2 66.3 59.1 53.9 49 44 38.8 34.5 31.4 30.7 28.6 26 23.4 21 19.4 18.3 17.3 17 14.5 12.3 10.6 9.5 7.4 6.5 6 4.1 6.6 3.6 5.5 6.6 8.6 11.4 14.4 17.4 18.5 18.5 14.3 13.8 15.5 16.9 17.4 15.3 -2.7 -2.7 2.3 -2.7 -2.7 -2.7 -2.7 -2.7 -2.7 -2.7 -2.7 -2.7 -2.7 -2.7 -2.7 -2.7 -2.7 -2.7 -2.7 -2.7 -2.7 -2.7 -2.7 -2.7 -2.7 -2.7 -2.7 -2.7 -2.7 -2.7 -2.7 -2.7 -2.7 -2.7 -2.7 -2.7 -2.7 -2.7 -2.7 -2.7 -2.7 -2.7 -2.5 -2 -1.7 -1.7 -1.7 -1.8 -2.1 -2.7 -2.7 -2.6 -2 -1.5 -1.1 0.1 1.5 2.9 3.2 3.2 3.2 3.2 3.2 3.2 3.2 3.3 4 5 5 4.7 4.4 5.2 4.5 4.4 4.2 3.5 3.5 3.4 3.3 3.3 3.2 3.2 3.2 3.2 3.2 3.2 3.4 3.7 3.9 4.1 4.4 4.6 4.8 5.1 5 4.9 4.7 4.6 4.4 4.4 4.4 4.4 4.4 4.5 4.6 4.7 4.8 4.9 5 5.1
145.9 139.7 136.1 135.3 140.5 142.7 146.9 149.7 149.2 157.6 156 159.3 163.8 168.6 168.4 167.1 164.9 162.1 160.3 157.2 152.1 147.6 142.8 137.4 134.7 134.3 130.2 124 119.7 114.6 108.9 105.8 102.8 100.5 99.2 96.9 93.1 88.2 91.2 91.8 90.1 88.1 85.6 82.3 78.5 75 74 75.1 74.6 70 63.5 55.3 47.1 39.6 36.8 36.1 35.5 32.9 30.9 28.3 25.6 22.7 21.3 20.2 19.2 18.2 16.5 13.5 11.2 9.3 10.6 9.6 9.4 6.7 4.7 6.5 4.7 4 7.2 8.6 12 14.9 16.7 16.7 15.3 14.3 13.7 13.8 15.4 5.7 -2.7 5.4 6.6 -2.7 -2.7 -2.7 -2.7 -2.7 -2.7 -2.7 -2.7 -2.7 -2.7 -2.7 -2.7 -2.7 -2.7 -2.7 -2.7 -2.7 -2.7 -2.7 -2.7 -2.7 -2.7 -2.7 -2.7 -2.7 -2.7 -2.7 -2.7 -2.7 -2.7 -2.7 -2.7 -2.7 -2.7 -2.7 -2.7 -2.7 -2.7 -2.5 -2 -1.5 -0.9 -0.7 -0.7 -0.6 -0.7 -1.4 -2.7 -2.7 -2.7 -2.1 -1.7 -0.4 1 2.3 3.2 3.2 3.4 4.2 3.6 3.2 3.2 3.2 2.8 3.9 4.9 4.6 4.1 4.7 4.5 4.3 4.4 3.3 3.2 3.2 3.3 3.4 3.2 3.2 3.2 3.2 3.2 3.2 3.3 3.5 3.7 4 4.2 4.4 4.7 4.9 5 4.8 4.7 4.5 4.5 4.5 4.5 4.5 4.5 4.5 4.5 4.6 4.7 4.8 4.9 5
160.5 148.6 138.5 136.6 134.5 132.7 136.7 139.4 142.5 149.5 148.6 148.4 151.9 157 158 163.7 163 161.3 160.3 158.8 154.6 149.6 145.8 142.2 138 134.7 133.6 128.3 123.2 119 111.6 106.6 103.6 100.9 99.6 97.1 93.3 93 92.4 91.4 90.4 87.6 86.2 86.1 84.9 79.1 75.1 75.7 73.7 69.1 62.8 52.7 42.3 42.6 43.6 42.2 39.5 36 32.9 30.2 27.1 24.8 22.9 21.8 20.8 19.7 17.3 15.2 13.9 13.2 9.2 8.9 8.4 7.3 5.4 4.7 6.4 3.7 4.7 3.8 7.1 11.1 13.1 13.8 14.4 13.4 8.2 7.8 5.5 -2.7 4.8 5.7 7.2 6.2 -2.7 -2.7 -2.7 -2.7 -2.7 -2.7 -2.7 -2.7 -2.7 -2.7 -2.7 -2.7 -2.7 -2.7 -2.7 -2.7 -2.7 -2.7 -2.7 -2.7 -2.7 -2.7 -2.7 -2.7 -2.7 -2.7 -2.7 -2.7 -2.7 -2.7 -2.7 -2.7 -2.7 -2.7 -2.7 -2.7 -2.6 -2 -1.5 -1 -0.5 0.1 0.3 0.3 0.6 0.1 -0.3 -2.7 -2.7 -2.7 -2.2 -0.9 0.7 3.2 3.2 3.2 3.3 4 3.3 3.2 3.2 3.2 3.1 3.8 4.7 4.3 3.8 3.8 3.9 3.8 4.1 3.4 3.7 3.8 3.9 3.7 3.2 3.2 3.2 3.2 3.2 3.2 3.2 3.4 3.6 3.8 4 4.3 4.5 4.8 5 4.8 4.7 4.6 4.6 4.5 4.5 4.5 4.5 4.5 4.5 4.6 4.7 4.8 4.8 4.9
169.4 163.5 153 143.8 139.6 137.6 133.3 131.7 133 135.9 136.5 137.1 139.2 141.1 143.2 151.1 160.9 158.1 158 158.6 156.1 151.5 148 144.8 140.9 136.6 132.8 131.2 126.9 122 115.6 107.8 104.7 102.1 99.5 97.8 97.2 95.7 93.5 91.6 91 89.4 88.6 87.9 86.2 80.6 75.8 74.6 70.6 64.6 58.9 47.7 49.5 51.1 48.6 45.7 40.3 36.7 34.6 32.5 29 26.9 25 23.4 22.3 21 17.8 15.8 14.8 10.2 9.1 9.3 9 6.8 5.8 5.9 4.8 7 3.6 4 4.1 6.1 9.3 11.1 11.8 12.5 7.9 6.9 -2.7 -2.7 6.6 7.1 7.7 6.3 -2.7 -2.7 -2.7 -2.7 -2.7 -2.7 -2.7 -2.7 -2.7 -2.7 -2.7 -2.7 -2.7 -2.7 -2.7 -2.7 -2.7 -2.7 -2.7 -2.7 -2.7 -2.7 -2.7 -2.7 -2.7 -2.7 -2.7 -2.7 -2.7 -2.7 -2.7 -2.7 -2.7 -2.7 -2.7 -2.6 -2 -1.5 -1 -0.5 0 0.7 1.1 1.3 1.8 1.9 1.9 1.3 0.4 1 2.2 3.6 3.2 4.4 3.2 3.2 3.2 3.7 3.2 3.2 3.2 3.2 3.2 4.4 4.6 4 3.6 3.4 3.4 3.3 3.2 3.7 4 4.4 4.2 3.6 3.2 3.2 3.2 3.2 3.2 3.2 3.2 3.2 3.4 3.6 3.9 4.1 4.4 4.6 4.9 4.8 4.6 4.6 4.6 4.6 4.6 4.6 4.6 4.6 4.6 4.6 4.6 4.7 4.8 4.9
174.8 168.5 162.9 154.3 148.8 141.4 139.1 134.7 132.3 129.4 128.9 129.6 129.1 126.8 128 134.2 142.8 148.3 154.5 157.9 155.9 152.3 149.7 147.1 143.5 139 134.3 130.3 129.7 125.4 118.4 110.4 106.4 103.8 101.3 99.9 98.3 97.7 96.5 94.6 91.5 90.4 89.8 88.2 85 78.9 75.4 72.7 66.5 56.4 51.9 57.2 59.8 56.6 51.5 46.7 41.6 38.6 36.4 34.2 31.5 28.3 27 25.2 23.9 22.1 20.2 18.3 12 9.1 9.2 9.2 9.5 8.8 5.8 5.8 6.3 5.4 7.2 5.1 4.3 4.2 5 7.5 10.4 11.4 7.5 6.9 -2.7 5.3 6.8 7 7.2 6.9 -2.7 -2.7 -2.7 -2.7 -2.7 -2.7 -2.7 -2.7 -2.7 -2.7 -2.7 -2.7 -2.7 -2.7 -2.7 -2.7 -2.7 -2.7 -2.7 -2.7 -2.7 -2.7 -2.7 -2.7 -2.7 -2.7 -2.7 -2.7 -2.7 -2.7 -2.7 -2.7 -2.7 -2.7 -2.6 -2.1 -1.5 -1 -0.5 0 0.5 1.3 1.8 2.3 2.8 3.4 2.9 3.6 3.2 3.7 3.8 3.3 3.4 4.6 3 3.2 4.8 3.6 3.2 3.2 3.2 3.2 3.2 3.2 4.3 3.9 3.4 3.2 3.7 4.4 4 4.1 4.6 4.7 3.7 3.2 3.2 3.2 3.2 3.2 3.2 3.3 3.8 3.4 3.2 3.5 3.7 4 4.2 4.5 4.7 4.8 4.7 4.7 4.7 4.7 4.7 4.7 4.7 4.7 4.7 4.7 4.7 4.7 4.7 4.8
176.2 171.3 166.8 159.4 151.8 149.4 146 140.9 135.9 131.6 128.8 126.6 126.5 126.5 125 125 125.7 132.9 149.3 155.6 155 152.8 149.4 147.5 144.6 141 136.3 132.5 128.2 123.1 118.7 111.7 107.9 105.6 103.8 102.5 99.5 99.1 96.9 94.5 92.4 91.7 89.5 87.5 84.2 77.6 71.8 64.2 59.9 63 66.5 68.4 65.2 59.7 54 48.6 43.3 40.5 38.2 35.8 33.1 30.5 28.2 26.8 25.4 23.4 21.9 16.5 9.6 9.3 9.3 9.2 12.7 12.5 11.2 5.8 5.8 6.4 5.2 7.4 5.5 4.8 4.3 7.3 8.4 9.2 7.1 -2.7 5.5 6.4 7.7 7.2 6.8 5.1 -2.7 -2.7 -2.7 -2.7 -2.7 -2.7 -2.7 -2.7 -2.7 -2.7 -2.7 -2.7 -2.7 -2.7 -2.7 -2.7 -2.7 -2.7 -2.7 -2.7 -2.7 -2.7 -2.7 -2.7 -2.7 -2.7 -2.7 -2.7 -2.7 -2.7 -2.7 -2.7 -2.7 -2.6 -2.1 -1.6 -1 -0.5 0 0.5 1 1.6 2.5 3.1 3.8 4.3 4.5 4.3 3.6 4 3.8 4.3 4.8 4.8 4.7 4.6 3.5 4.2 3.6 3.2 3.2 3.2 3.2 3.2 3.2 3.2 3.2 3.2 3.9 5 4.7 4.4 3.9 3.9 3.2 3.2 3.2 3.2 3.2 3.2 3.2 4 4.3 3.4 3.2 3.3 3.6 3.8 4.1 4.3 4.6 4.8 4.7 4.7 4.7 4.7 4.7 4.7 4.7 4.7 4.7 4.7 4.7 4.7 4.7 4.8
176.1 172.1 167.2 160.2 157.6 154.6 150.9 147.2 139.9 137.8 137.4 136.6 133.9 133 128.9 125.5 123.9 123.8 133.8 152 152.9 151.4 148.4 147.5 145.3 142.2 139 135.7 131.9 125.2 118.4 116.2 113.4 107.3 106.7 105 101.4 100.4 97.3 94.4 92 90.6 89.6 86.6 80.9 73.4 64.8 70.5 74.9 75.7 76 71.7 67.3 63.4 56.1 50 46.2 43.7 39.9 37.5 34.8 32.1 29.4 28.3 25.9 23.3 18.5 13.4 12.8 12.7 9.4 13 13.3 12.8 12.1 6.9 7 6 5.7 5.7 7.4 5.5 4.3 4.3 4.9 8.2 6.6 -2.7 7.2 7.8 8.5 7.4 7.2 3.5 3 -2.7 -2.7 -2.7 -2.7 -2.7 -2.7 -2.7 -2.7 -2.7 -2.7 -2.7 -2.7 -2.7 -2.7 -2.7 -2.7 -2.7 -2.7 -2.7 -2.7 -2.7 -2.7 -2.7 -2.7 -2.7 -2.7 -2.7 -2.7 -2.7 -2.7 -2.7 -2.6 -2.1 -1.6 -1.1 -0.5 0 0.5 1 1.5 2.1 3 4.1 3.9 4.5 4.3 4 3.3 3.2 4 4.7 4.2 3.8 4.1 4.4 4.7 4.3 3.8 3.3 3.2 3.2 3.2 3.2 3.2 3.2 3.2 3.2 3.2 3.2 3.5 3.7 3.2 3.2 3.2 3.2 4 3.6 3.9 3.2 3.2 5 4.5 3.8 3.3 3.2 3.4 3.7 3.9 4.2 4.5 4.7 4.7 4.7 4.7 4.7 4.7 4.7 4.7 4.7 4.7 4.7 4.7 4.7 4.7 4.8
178.5 173 170.3 166.2 162.5 158.6 155.2 150.4 143.5 145.6 145.9 143.3 140 138.6 134.8 128.1 122.9 122.6 131.4 148.4 149.6 149 146.8 145.5 145.3 142.3 139.6 136.9 133.3 129.1 123.8 119.3 115 109 107.8 107.2 103.4 100.8 97.9 95 92.1 89.5 88.2 86.3 79.9 69.1 77.2 80.7 82 82.1 78.1 72.2 65.3 60.5 57.3 55.8 50.6 45.9 42.2 39.1 36.3 33.6 31.2 30.1 26.7 22 14.2 13.7 13.2 12.9 12.9 13.3 12.9 12.5 12.6 9.8 7.2 6.6 5.8 5.7 6.5 7.4 6.2 7.1 7.7 7.5 7 7 7.8 8.4 7.8 7.9 10.3 5.8 3.8 -2.7 -2.7 -2.7 -2.7 -2.7 -2.7 -2.7 -2.7 -2.7 -2.7 -2.7 -2.7 -2.7 -2.7 -2.7 -2.7 -2.7 -2.7 -2.7 -2.7 -2.7 -2.7 -2.7 -2.7 -2.7 -2.7 -2.7 -2.7 -2.7 -2.7 -2.6 -2.1 -1.6 -1.1 -0.6 0 0.5 1 1.5 2 2.6 3.4 3.6 4.3 4.4 4.1 3.8 4.1 3.2 4.1 4.5 4.2 4 4.3 4.5 4.6 4.2 3.7 3.2 3.2 3.2 3.2 3.2 3.2 3.2 3.2 3.2 3.2 3.2 3.2 3.2 3.2 3.2 3.2 3.8 4.5 4.1 3.3 3.2 4.1 4.4 5 4.5 3.9 3.4 3.4 3.6 3.9 4.2 4.4 4.7 4.7 4.7 4.7 4.7 4.7 4.7 4.7 4.7 4.7 4.7 4.7 4.7 4.8 4.8
179.9 176.1 174.4 169.7 166.2 162.6 158.4 153 146.8 151.3 152.3 147.9 144.1 141 137.3 129.3 122.8 122.4 126.7 143.1 145.3 145.9 144.6 143.3 143.9 142.4 139.6 137.5 134.6 130.4 126.1 121.6 117.7 112.3 106.9 106.2 104.1 101.3 98.4 95.6 92.9 90.1 88.1 84.3 73.2 80.8 84.6 81.4 82.5 80.5 77.2 72 69.2 69.6 64.5 59.6 53.7 49.3 44.9 40.5 37.6 34.8 33.5 31.2 27.6 18.3 13.8 13.6 13.1 12.9 12.9 12.8 12.4 12.5 12.8 12 10.8 7 5.5 5.7 6.1 6.3 6.3 7.2 7.4 7.6 6.8 7.4 8 7.5 7.3 7.5 8.2 13.3 4.8 4 -2.7 -2.7 -2.7 -2.7 -2.7 -2.7 -2.7 -2.7 -2.7 -2.7 -2.7 -2.7 -2.7 -2.7 -2.7 -2.7 -2.7 -2.7 -2.7 -2.7 -2.7 -2.7 -2.7 -2.7 -2.7 -2.7 -2.7 -2.7 -2.7 -2.1 -1.6 -1.1 -0.6 -0.1 0.5 1 1.5 2 2.5 3 4.4 3.5 4.5 4.5 4.2 4.5 4.6 3.4 4.4 4.7 4.3 3.7 4.4 4.7 4.4 4 3.6 3.2 3.2 3.2 3.2 3.2 3.2 3.2 3.2 3.2 3.2 3.2 3.2 3.2 3.2 3.2 3.2 3.2 3.2 3.2 3.2 3.2 4.2 4.4 4.6 4.7 4.1 3.6 3.3 3.6 3.9 4.1 4.4 4.5 4.6 4.6 4.6 4.6 4.7 4.7 4.7 4.7 4.7 4.7 4.8 4.8 4.8 4.8
182.1 178.7 177.3 174 169.6 165.4 160.8 154.9 151.3 155.4 154.4 151.9 147.4 145.7 141.4 133.5 124.2 122.3 124.5 136.3 140.6 141.5 140.6 141.1 143.4 141.8 139.5 137.3 134.5 131.1 127.6 123.3 119.5 114.5 108.5 105.1 103.1 101.5 100.2 97.6 94.6 91.1 88.4 79.2 83.8 86.5 85.6 81.6 80.5 82.1 77.4 76.9 77.2 74.2 67.9 61.2 55.6 50.2 45.1 40.7 37.8 36.2 33.8 31.7 31.7 29.6 23.9 14.6 13.3 13.1 12.9 12.9 12.9 13.2 12.1 11.8 11.4 7.5 5.3 6.7 6.5 6.4 6.3 6.5 7.5 6.8 7 7.5 7.6 7.4 7.1 7.1 7.9 8.6 4.8 3.9 2.3 -2.7 -2.7 -2.7 -2.7 -2.7 -2.7 -2.7 -2.7 -2.7 -2.7 -2.7 -2.7 -2.7 -2.7 -2.7 -2.7 -2.7 -2.7 -2.7 -2.7 -2.7 -2.7 -2.7 -2.7 -2.7 -2.7 -2.7 -2.2 -1.6 -1.1 -0.6 -0.1 0.4 0.9 1.3 1.7 2.1 2.6 3.1 4.4 4.6 4 4.6 4.6 4.6 4.6 4.4 3.8 4.7 4.5 3.8 4.5 4.7 4.2 3.8 4.2 4.6 3.2 3.2 3.2 3.2 3.2 3.2 3.2 3.2 3.2 3.2 3.2 3.2 3.2 3.2 3.2 3.2 3.2 3.2 3.4 3.2 3.2 3.4 4.1 4.7 4.3 3.7 3.3 3.6 3.8 4.1 4.4 4.6 4.6 4.6 4.7 4.7 4.7 4.7 4.7 4.7 4.8 4.8 4.8 4.8 4.8 4.8
183.5 180.5 178.3 175 170.6 166.7 162.2 155.5 158.2 157.3 154.8 152.7 151.6 149.9 145 137.9 127.5 122.7 121.6 130.4 136.4 137.1 135.4 137.9 141 139.8 137.4 135.8 133.7 130.3 127.3 124.2 121 116.9 110.9 106.6 103.5 101.8 100.6 99.1 96 89.5 84.1 88.9 89.1 86.8 86 84.2 81.5 84.2 81.3 83.3 80.3 76.2 71.2 63.9 57.5 52.1 46.7 39.8 36.9 36.2 33.8 34.1 33.6 31.7 27.9 23.3 15.8 13.6 13.2 13.2 13.1 13.3 12.7 13 11.3 9.2 7.5 6.9 6.7 6.5 6.4 7.1 6.7 7.5 7.5 7.6 7.6 7.4 7 6.6 7.8 6.4 5.3 4.3 3.6 -2.7 -2.7 -2.7 -2.7 -2.7 -2.7 -2.7 -2.7 -2.7 -2.7 -2.7 -2.7 -2.7 -2.7 -2.7 -2.7 -2.7 -2.7 -2.7 -2.7 -2.7 -2.7 -2.7 -2.7 -2.7 -2.7 -2.2 -1.7 -1.2 -0.9 -0.5 -0.1 0.3 0.7 1.2 1.6 2 2.6 3.2 4.6 4.4 4.6 4.6 4.6 4.6 4.7 4.7 3.8 4.4 4.7 3.9 4.7 4.5 4.7 4.7 4.7 4.4 4.7 3.3 3.2 3.4 3.2 3.2 3.2 3.2 3.2 3.2 3.2 3.2 3.2 3.2 3.2 3.3 3.7 4 4 4 4.1 3.2 3.5 4.1 4.6 3.9 3.3 3.5 3.8 4.3 4.8 4.7 4.5 4.6 4.6 4.7 4.7 4.7 4.7 4.8 4.8 4.8 4.8 4.8 4.9 4.9
183.5 180.3 178.1 174.5 169.1 166.3 162.2 160.7 162 158.9 155.8 153.7 153.7 151.6 147.2 140.9 133.5 124.8 121.8 122.3 132.1 132.5 134.4 135.9 137.3 137.5 135.9 134.4 133 130.4 127.3 124.6 121.5 120 112.9 107.8 104.1 102.2 101.4 99.7 94.4 91.4 92.6 92.4 91.4 89.5 86.8 83.5 82.1 85.6 85 84.2 82.4 78.3 74.2 67.4 59.3 54 48.8 42.3 36.8 35.8 35.9 36.1 33.8 30.7 27.6 23.6 21.1 17.9 13.6 13.8 13.5 12.7 12.5 12.5 11.2 10 8.9 7.3 6.8 6.6 6.5 6.4 6.6 7.1 9 7.2 7.6 7.4 7 6.7 7.3 6.5 8.8 4.7 4.7 2.7 -2.7 -2.7 -2.7 -2.7 -2.7 -2.7 -2.7 -2.7 -2.7 -2.7 -2.7 -2.7 -2.7 -2.7 -2.7 -2.7 -2.7 -2.7 -2.7 -2.7 -2.7 -2.7 -2.7 -2.7 -2.7 -2.3 -1.9 -1.6 -1.2 -0.7 -0.4 0 0.4 1 1.4 2 2.6 3.2 3.6 3.6 4.6 4.6 4.7 4.7 4.7 4.7 3.4 4.5 4.7 4.7 4.8 4.8 4.7 4.7 4.2 4.3 4.4 3.6 3.7 4.1 4.5 4 3.2 3.2 3.2 3.9 3.2 3.2 3.2 3.4 3.8 4.3 4.7 4.6 4.5 4.3 3.8 3.8 4.1 4.4 4.1 4.1 3.2 3.5 4.1 4.8 4.9 4.7 4.3 4.6 4.6 4.6 4.7 4.7 4.7 4.7 4.8 4.8 4.8 4.8 4.9 4.9
