ncols 200
nrows 83
xllcorner 410000
yllcorner 154850
cellsize 50
124.1 124.2 124.3 124.7 124.5 124.1 123.6 122.6 121.8 120.2 118.3 116.3 114 113 112.3 112.1 111.5 111 111.2 111 111.1 111.3 110.5 108.7 107.4 108.1 109.4 110.8 111.4 111.3 110.4 110 111.7 112.5 112.9 112.8 112.7 112.6 112.4 112.7 112.5 112.3 111.9 112.8 112.4 112.4 112.4 112.4 112.3 111.6 110.8 111.7 111.3 111.3 111.5 111.7 111.4 110.7 110.9 110.7 110.4 110.4 110.2 109.9 109.4 108.5 107 107.4 108.6 108.5 107.9 107.3 106.6 106.3 107.2 106.7 107.1 107 106.3 105.7 105.4 105.1 104.5 104.1 104.3 104.5 104.4 104.7 104.7 104.1 102.8 103.5 101.9 102.5 103.5 104.4 104.9 105.3 105.1 105.6 106.3 106.4 106.5 107.1 107.2 107.2 107.3 107.4 107.9 108.5 108.5 108.9 109.4 109.7 109.8 110.1 110.7 111.1 111.4 111.8 111.9 113.2 113 113.7 114.1 114.5 114.4 114.1 113.3 112.6 112.6 113.1 114.1 115.8 116.7 117.4 117.9 118.2 118.5 119 119.5 119.6 119.7 120 121 121.1 121.1 121.3 121.5 121.3 121.1 120.8 120.6 122.3 124.2 126.1 127.9 130.4 133 135.6 139.2 141.6 142.6 143.4 144.3 145.8 146.4 146.8 147.8 148.8 150.2 153.1 156.6 161.6 170.7 180.8 192.6 198.9 205.5 210.7 213.1 214.7 215.9 216.3 216.6 215.7 215.3 214.2 211.3 208.4 204.6 202 198.9 196.7 194.7 193.2 192.1 191.2 190.5 190
122.8 122.6 123.1 123.4 123.1 123.3 122.8 122.2 121.1 119.3 116.8 114.9 112.7 112.2 111.4 110.2 110.3 110.3 110.1 110.2 110.2 110.7 110.5 109.8 107.7 107.7 107.7 109 110.4 110.7 109.1 110.6 111.4 112.3 112.2 111.5 111.7 111.7 111.5 111.6 111.4 110.4 110.5 111.2 111.5 111.6 111.6 111.6 111.4 111 110.3 109.1 110.6 110.3 110.5 110.7 110.4 109.7 109.7 109.4 109.2 109 108.9 108.6 108.4 107.9 106.3 106.6 107.4 107.7 106.7 106.9 105.5 105.5 105.8 103.8 106 105.9 105.3 104.7 104.4 104.4 104 103.1 103.7 104.1 103 103.9 104.5 103.6 102.8 103.9 104.4 103.9 104.4 104.9 104.9 104.1 104.1 105.2 106.5 106.5 107 106.9 107 107.2 107.3 107.6 108.2 108.8 108.6 108.9 109.3 109.8 110.3 110.9 111 111.4 111.3 111.6 112.6 112.6 113.2 114.1 114.5 114.9 114.7 114.3 113.4 112.6 112.4 113.4 114.8 115.6 116.4 117.1 116.9 117.7 118.4 118.8 119.1 119.3 119.6 119.8 120.9 120.6 120.9 121.3 121.6 122.2 121.6 121.2 121.3 122.7 124.9 127.2 129.3 132.1 135.2 138.3 140.8 142.3 142.5 142.6 144 145.5 145.9 146.1 147.4 148.9 150.2 153.6 158.6 170.4 183.1 192.7 200.4 209.6 215 219.4 222.3 223.9 225.6 225.8 223 219.7 217.2 213.2 209.4 205.1 201.8 198.8 196 194.8 193.3 193.2 192.6 191.5 190.5 189.2
121.8 121 120.8 121 121.5 122 122.4 121.9 120.4 118.2 115.6 114.4 111.6 111.2 109.4 110.4 109.9 109.5 109.1 109.3 109.4 109.6 109.8 109.5 109.1 108 106.9 106 107.8 108 109.1 110.9 111.4 111.8 111.5 110.7 110.5 110.9 110.8 110.6 110.3 109.3 109.4 109.9 110.6 110.8 110.9 110.8 110.5 110.1 109.4 108.9 108.6 108.8 109.2 109.5 109.2 108.8 108.5 108.2 107.9 107.8 107.6 107.4 107.2 106.8 106.2 105.5 107.3 107.3 106.2 105.6 104.9 104.2 104.6 102.4 104.6 104.5 104.3 103.8 103.9 103.1 101.6 101.3 102.4 101.5 102.7 103.2 103.7 102.8 103.9 104 104.4 104.6 104.7 105 105.3 105.2 105.6 105.7 106.8 106.7 106.9 107.1 107.4 107.3 107.4 107.8 108.4 108.8 108.9 109.5 109.5 110.3 110.8 111 110.8 111.6 111.4 112.3 112.3 112.7 113.3 114.1 114.6 114.8 114.9 114.3 113.4 113.3 113 113.1 114.4 114.9 115.9 116 116.3 117.1 117.8 118.1 118.5 119 119.1 119.3 119.9 120.7 121.6 121.8 122.1 122.8 122.2 121.6 122 123.6 125.7 127.9 130.6 133.3 136.7 138.6 139.9 141.1 141.9 141.9 142.9 144 144.8 144.8 145.6 146.8 148.8 152.8 158.1 179.7 191.9 200.4 209.9 216.2 224.1 227.2 228 229.1 229 228.3 224.2 219.2 214.4 208.4 203.7 200.3 198.2 197.5 197.1 196.6 196.8 197.4 197.2 195.3 194 192
121.3 120.3 119.7 120.3 120.6 120.6 120.3 119.2 117.8 115.7 114.2 112 110.7 110.4 109.9 109.5 109.2 108.2 108.3 108.6 108.8 108.7 108.7 109 109.1 108.6 107.7 106.4 106 107.6 109.9 110.6 111.2 111.1 110.4 109.5 109.5 109.5 109.8 109.1 109.2 108.3 108.3 108.8 110.1 109.7 109.9 109.7 109.3 108.9 108.6 108.3 108.1 108 108.3 108.3 108 107.7 107.4 107.3 106.9 106.6 106.5 106.7 106.2 105.9 105.6 105.5 106.3 105.3 105.2 104.9 104.6 104.7 104 103.4 102.4 103.4 103 103 102.2 101.2 101.4 102.2 102.4 102.7 103.1 102.9 102.7 103.4 103.9 104.1 104.3 104.6 104.7 105 105.3 105.7 105.9 106.2 106.5 106.9 106.9 107.1 107.5 107.6 107.7 107.9 108.2 108.5 108.9 109.8 109.8 110.4 110.5 110.8 111.5 111.8 112.1 112.1 112.3 112.8 113.3 114.2 114.4 115 114.9 115 114.1 113.9 113.5 113.4 114.2 114.4 114.7 115.3 115.9 116.5 117.1 117.6 118.1 118.7 119.1 119.1 120.1 120.9 120.9 121.7 122.3 122.7 122.8 122.6 122.3 123.9 125.8 128.1 130.7 133.1 135.5 136.6 137.5 138.6 138.9 140.5 140.7 141.6 142.8 143.3 144 144.7 146.9 149.8 157.5 178.2 195.9 200.4 201.8 208.5 224.6 228.6 229.2 229.6 229.3 228 224 217.9 211.9 208.6 204.9 202.1 201.6 202 203.2 203.8 204.6 204.5 203.6 202 199.6 197
120.7 119.6 118.7 119.5 120 120.4 118.5 116.8 115.3 113.7 112.6 111.2 110.2 109.5 109.1 108.2 108.9 108.7 108 107.5 107.5 107.8 107.4 108.4 108.4 108 107.7 106.7 105.2 106.4 108.8 109.8 110.5 110.1 109.4 108.4 108.2 108.2 108 107.8 107.8 106.8 109.4 109.4 109.1 109 108.8 108.6 108.2 107.9 107.5 107.3 107.2 107.1 107.2 107.2 107.1 106.8 106.5 106.3 106.1 106 105.9 105.7 104.9 104.7 104.4 104.4 104.9 105 104.7 104.4 104.1 104.4 103.8 103.4 101.9 101.8 101.5 101.2 101.3 102.1 102.5 103.2 103.3 103.5 103.9 104.2 103.8 103 103.7 104.3 104.5 105.3 105 105.2 105.4 105.7 106 106.3 107 107 107.1 107.2 107.5 107.8 107.9 107.9 108.3 108.8 109.2 109.5 109.9 110.4 110.6 110.8 111.3 112.3 112.4 112.3 112.3 112.7 113.2 113.7 114.8 114.3 114.8 115.1 114.6 114.3 114.1 114.1 114.1 114.3 114.5 115.1 115.6 116.2 116.7 117.2 117.7 118.6 118.8 119.3 119.8 120.6 121.5 122.1 122.8 123.3 123.8 123.9 123.3 123.2 125.5 127.6 129.6 131.4 132.7 133.5 133.5 134.6 135.9 137.8 138.6 139.3 140.1 141.6 141.8 143 145.7 152.1 163.8 180.8 187.7 180.1 176.1 196.5 219.5 229.1 229.8 230.8 230.6 229.4 226.3 221.4 218.6 216.5 213.2 211.8 211.9 213.2 214.1 215.6 214.6 213.8 211.9 209.8 206.8 203.5
119.1 117.6 118.6 119.3 120.1 120.1 119.1 117.1 115.2 113.5 112.4 111.3 110.3 109.5 108.7 108.6 108.2 107.8 107.4 107.2 107.3 107.7 106.4 107 107.6 107.5 107.1 106.7 105.2 105 107.5 109.2 109.5 108.9 108.1 107.4 106.8 106.8 106.6 106.3 106.2 105.7 109.4 109.4 107.7 107.5 108 107.9 107.5 107 106.7 106.6 106.4 106.3 106.3 106.3 106.4 105.9 105.5 105.4 105.2 105.2 105 104.7 104.3 104 103.7 103.8 104.1 104.3 104.2 103.8 103.7 103.8 103.1 103.3 102.5 101 100.7 100.4 101.2 102.8 103.3 103.6 104 104.3 104.7 105.3 105.1 103.8 104.4 104.9 105.3 105.7 105.8 105.6 105.7 105.8 106 106.3 106.9 106.6 107 107.4 107.6 107.9 108.2 108 108.5 109 109.4 109.7 110 110.4 110.7 111.1 111.4 112.4 112.6 112.5 112.7 113 113.1 113.4 114.7 114.3 114.8 115.1 115 114.8 114.7 114.8 114.8 114.8 114.9 115.3 115.8 116.5 116.9 117.4 118 118.7 119.1 119.7 120.2 120.8 122.7 123.1 123.7 124.6 125.3 125.8 125.5 124.9 124.4 126 127.8 128.9 129.5 130.1 130.8 131.7 132.8 134.2 135.7 136.5 137.7 139.4 140.9 143.7 149.7 160.4 174.6 178.3 170.2 165.9 171.8 196.5 221.9 229.3 231.9 232.8 232.7 231.7 230.2 228.4 226.5 224.5 222.9 221.8 221.8 222.1 221.7 222.2 222.2 220.4 218.4 216.2 213 208.8
117.2 116.4 118.4 119.7 120.3 120.5 119.7 118.2 117 114.1 113 111.7 110.3 109.6 109.1 108.2 107.9 107.6 107.5 107.3 107 106.7 106.4 106.4 106.6 107 106.7 106.4 105.4 104.2 106.2 107.1 107.5 107.2 106.5 106.1 105.9 106 105.7 105.4 105.1 104.8 109.6 105.7 106.8 106.9 107.1 107.6 107.4 106.5 105.8 105.6 105.5 105.4 105.4 105.5 105.7 105.6 104.6 104.1 104.6 104.7 104.5 104 103.6 103 102.6 103.9 104.3 104.3 103.6 103.3 103.4 103.2 102.4 101.7 100.8 100.8 101.6 101.7 102.2 103.3 103.7 104.1 104.7 105 105.3 105.7 105.1 105.2 105.9 105.9 105.9 105.7 105.8 106 106.1 106.1 106.2 106.3 106.3 106.6 107.8 107 107.4 107.9 108.8 108.4 108.8 108.9 109.3 109.8 110.3 110.7 110.9 111.7 112.4 112.3 112.9 113.5 113.6 113.6 113.6 113.9 114.5 114.3 114.7 115.1 115.2 115.5 115.6 115.5 115.5 115.5 115.6 115.9 116.4 116.9 117.3 117.9 118.9 119.6 120 120.4 120.9 122.3 123.7 124.9 126 126.8 127.2 127.5 127.4 127.3 126.1 124.8 126 127 127.5 128.5 129.5 130.9 132.4 133.9 135.3 136.1 137.7 139.9 143.8 147.9 155.9 169.4 177.6 164.6 158.8 161.5 179.1 204.9 225.1 230.6 233.3 233.7 234 234.3 233.5 232.4 231.5 229.8 228.9 227.9 227.6 226.9 226.5 226.4 226 225.1 223.1 220.5 217.3 212.4
115.1 117 118.8 120 120.4 120.5 119.9 118.5 117.1 114.9 112.5 111.6 110.5 109.6 109.1 108.6 107.8 107.1 107.5 106.6 106.5 106.4 106.3 105.9 106.3 106 105.8 106 105.6 103.8 104.5 105.8 105.8 106 105.8 105.3 105.2 105.1 104.8 104.5 104.1 103.9 104.2 104.5 105.1 105.5 106.2 106.5 106.2 105.4 105.1 105 104.7 104.6 104.6 104.9 104.8 104.3 103.8 103.6 103.8 104.3 104 103.6 102.6 101.7 100.8 102.5 104.7 104.7 103.1 102.4 102.1 101.1 100.7 101.3 100.7 100.5 101.6 102.3 102.6 103.1 103.6 104.1 104.5 104.7 104.7 105.4 105.2 106 106.1 105.8 106.2 106 106 106.3 106.4 106.5 106.6 106.3 107 107.3 106.9 107.2 107.5 107.9 108.2 108.5 108.8 109.3 109.4 109.9 110.5 110.8 111.3 111.4 112.3 112.7 113.2 113.8 113.8 114 114.1 114.3 114.5 115 114.9 115.3 115.6 116 116.1 116.2 116 116.1 116.6 116.8 117.4 117.7 117.8 118.7 119.6 120.1 121.1 121.5 122.2 123.3 124.9 127.2 129.2 130 130.4 130.4 130.3 129.5 128.4 126.3 125.2 125.8 126.8 128.8 130.5 132.4 134 134.8 136.6 138.7 140.7 143.9 148.1 155.6 165.8 175.5 163.2 156 157.3 169.2 192.2 214.8 225.8 231.1 233.9 235.3 235.6 235.8 235.4 234.6 233.8 232.7 231.1 230.8 230.1 229.3 228.6 227.6 226.9 226.3 225.1 222.2 217.7 212.6
116.4 117.8 119.4 120.2 120.4 120.4 120.1 118.7 117.3 115.7 113.8 112.2 111.6 110.6 108.6 109.1 108.5 108.1 107.8 107.1 106.8 106.2 106.3 105.8 105.5 105.5 105.5 105.5 105.5 103.3 104.3 104.7 104.9 105.3 105.1 104.9 104.8 104.5 104 103.8 103.2 102.4 103.3 103.3 103.6 104.2 104.7 105 104.8 104 104.6 104.5 104.1 103.8 103.7 103.8 103.9 103 102.7 103.1 102.9 103.7 103.8 103.8 103.1 102 101 102.6 104.7 104.1 101.8 100.2 99.7 99.7 99.9 100.8 100.7 101.2 101.9 101.7 102.2 102.8 103.4 103.8 104.3 104.6 104.3 104.7 105.6 105.7 105.4 105.6 106.1 106.3 106.4 106.5 106.6 106.8 106.5 107 107.1 106.6 107 107.5 107.7 107.7 108.1 109.3 108.9 109.2 109.5 110 110.9 111 112 112.8 112.8 113.1 113.3 114.2 114.2 114.2 114.5 114.7 115.6 115.6 115.4 115.7 116.2 116.5 116.7 117 117.2 116.9 117.7 118 118.2 118.5 118.3 119.5 120.3 121.2 122.2 122.9 123.6 125.1 127.1 129.5 132.3 133 133 132.9 132.7 131.5 129.9 128.1 125.9 125.8 126.7 129.2 131 133.3 135.3 136.9 140 142.2 145.4 149 155.5 165.4 174.9 169.1 156.6 153.6 159.7 180 204 219.6 226.1 231.3 234.8 237 236.7 236.9 236.7 236.2 235.7 234.9 233.1 232.4 231.6 230.6 229.1 228.2 227.2 226.2 224.1 220.9 215.8 211
117 118.6 119.5 120.3 120.5 120.1 119.7 119.3 118.3 116.2 115.4 113.6 112.6 111.4 110.3 109.5 109.1 108.9 108.9 108.1 107.4 106.7 106.3 105.9 105.6 105.3 105.2 105.4 105 104.1 103.6 104.5 104.5 104.6 104.6 104.4 104.3 103.8 103.6 102.8 102.9 102.7 102.6 102.4 102.9 103.5 103.6 103.4 103.2 103.4 103.9 103.9 103.5 103.2 102.9 102.7 103.1 102.5 102.9 102.8 102.5 103.2 103.4 103.5 103.3 102.2 101.1 102.6 104.1 102.5 100.6 99.6 99.5 99.2 100.7 100.3 100.7 101.7 101.1 102.1 102.7 102.9 103.5 103.5 103.7 103.9 104.1 104.3 105.1 104.9 105.2 105.6 106 106.1 106.3 106.7 106.7 106.8 106.6 106.4 106.4 106.7 107.5 107.5 107.6 107.5 108.3 108.6 109.1 109.4 109.8 110.3 111.1 111.2 111.6 111.4 113.3 113.6 113.9 114.8 114.4 114.8 115.1 115.2 115.6 116 116.1 116.4 116.8 117.1 117.4 117.6 117.8 118.2 118.5 118.9 119.2 119.7 119.5 120.3 121.2 122.1 123.2 124 125.1 127.4 130.1 132.5 133.4 133.6 133.6 133.4 133.2 132.3 130.2 128.5 126.7 126.3 126.9 128.5 131.1 133.4 136.3 139.1 143.1 147.2 151.9 157.6 166.1 174.1 174.7 165.2 152.4 152 161.3 186 208.9 220.9 227.5 232.5 235 236.9 237.6 237.5 237.3 236.9 235.9 235.3 234.2 233 232 230.8 229.4 228.3 227 225.3 222.9 218.5 213.2 207.9
116.2 118.3 119.2 120.1 120.3 119.7 119.2 119.2 117.9 117.8 116.5 115.1 113.9 112.5 111.4 111.1 111.1 111.2 109.7 108.7 108.5 107.9 107.5 106.9 106.3 105.8 105.7 105 104.8 104.5 103.3 104.1 104.2 103.9 104 103.8 103.7 103.1 102.8 103 102.5 102.4 102.5 102.2 102.5 102.4 102.6 103 103.2 103.2 103.7 103.3 102.8 102.6 102.4 102.5 102.4 102.3 102.2 102.2 102.1 102.7 102.7 102.9 103.3 102.3 101.4 101.4 102.2 101.3 100.1 99.9 100.1 101.6 102.1 101.6 103.4 103 101.1 102.5 103.6 103.7 103.8 104.1 103.7 103.9 104 104.4 104.4 105.3 105 105.3 105.8 105.8 106.2 106.6 106.7 106.7 107.1 107 106.9 107.4 107.4 107.4 107.5 107.8 108.2 108.7 109.1 109.5 110.3 110.8 111.6 112 112.3 113 113.9 114.2 114.6 115.2 115.1 115.3 115.8 116.1 116.4 116.7 116.9 117.1 117.5 117.8 118.1 118.4 118.7 118.9 119.3 119.7 119.8 119.9 120.5 121.2 122.1 123.1 124.1 125.1 126.6 129 131.4 132.5 133.7 133.5 133.2 133.1 132.9 132.2 130.1 128.6 127.7 127.6 127.3 128.1 131.2 134 136.8 140.6 145.6 152.8 159.6 166.9 173.5 175.1 172.1 161.9 150.3 150.6 160.3 181.7 208.4 221.9 227 232.2 235.7 237.3 237.8 237.9 237.5 237.3 236 235.1 234.2 232.4 231 229.8 229.1 227.8 225.9 224.1 221.2 216.7 212.4 206.1
115.2 117.4 118 118.6 119 118.7 118.2 118.5 118.6 118.4 117.8 116.5 115.6 114.2 113.2 112.8 112.4 111.6 111.2 110.6 109.4 109.3 108.3 106.4 106.7 106.1 105.7 105.4 105.1 104.7 103.2 103.5 103.7 103.3 103.3 102.9 103.3 103 102.9 102.7 102.2 102.1 102.3 102.2 102.2 102.2 102.4 102.2 102.6 103 102.9 103.1 102.9 102.5 102.1 101.9 101.8 101.7 101.6 101.6 101.4 101.7 102.4 102.7 102.9 102.2 101.5 100.8 100.7 100.3 99.3 100.3 101.3 101.9 102.6 103 103.4 103.6 103.2 102.5 103.6 104.5 104.7 104.6 104.4 104.2 104.1 104.9 104.5 105.6 105 104.9 105.5 105.6 105.8 106.2 106.6 106.7 106.8 107.2 107.4 107.3 107.5 107.7 107.6 108 108.5 109.1 109.6 110.1 110.4 111.6 111.7 112.3 113 113.7 115 115.4 115.7 116.2 116.6 116.1 116.5 116.8 117.2 117.5 118.3 118 118.4 119.2 119.1 119.4 119.6 119.8 120.1 120.5 120.7 121 121.5 122.2 123.3 124.5 125.6 126.7 127.7 129.6 131.5 132.8 134.6 133.7 133.6 132.7 132.6 131.5 129.8 128.5 129.3 129.3 128.4 128 130.8 134 137.4 141.2 148.2 156.3 164.3 172.3 173.3 173.3 170.3 159.8 148.6 150.1 159.4 184 209.3 221.7 228 232.8 235.5 237.1 237.3 237.3 237.4 237.1 235.8 234.4 232.9 230.8 229.4 228.3 227.6 226.1 224.3 222.4 220.2 217.8 213.8 209.5
114.1 116.1 117.1 116.6 117.4 116.9 116.4 117 117.8 118.1 118.4 117.8 116.6 115.7 115.2 113.5 113.8 113.1 112.6 111.9 111.4 111.5 110.2 109 106.6 106.5 105.9 105.9 105.6 104.6 104.2 103.7 103.6 103.4 103.3 103.1 103 102.9 102.9 102.6 102.4 102.2 102.3 102 101.8 101.3 101.4 102.1 102.4 102.7 102.8 102.8 102.6 102.4 101.9 101.7 101.5 101.3 101.2 101.1 101 101.1 102 102.6 102.2 102 101.6 101.1 99.5 100.3 100.7 100.8 101.7 102.2 102.7 102.5 103.6 103.9 103.9 103.5 103.7 104.6 104.8 104.9 104.8 104.5 104.3 104.2 104.4 104.6 104.9 105.4 105.3 105.8 106.3 106.5 106.1 106.6 106.9 107.3 107.6 107.6 107.7 108.2 108.6 108.4 108.8 109.5 110.1 110.6 111.8 112.2 112.5 113.2 113.9 114.6 115.3 116.2 116.8 117.1 117.2 117.4 117.5 117.7 118.1 118.5 119.1 119.2 119.6 120.4 120.4 120.7 120.8 121 121.4 121.4 121.8 122.1 122.4 123.5 124.9 126.4 127.6 128.4 129.5 130.7 132.3 133.4 134.5 134.5 133.7 132.8 132.7 131.4 130.4 129.1 129.9 130.1 129.9 128.9 130.7 134 137.1 141 147.2 154.2 161.8 170.2 170.8 170.6 162.7 154.8 148.1 149.1 156.6 178.5 207.3 222 228.9 233.4 235.6 236.9 236.9 237.2 237 236 234.9 233.6 231.7 228.2 226.2 225 223.8 223.2 221.8 220.6 220.2 218.6 216.1 212.1
113.3 114.5 115.3 115.2 115.1 114.9 113.7 115.4 116.3 117.1 117.7 118 117.6 116.9 116.1 115.3 115.2 114.6 114 113.2 112.4 112 111.8 110.4 109.7 107.1 105.7 106.5 105.9 105.4 106 104.9 104.6 104.4 104.4 103.9 104.8 105 105 105 104.6 104 103.2 103 102.1 101.6 101.8 102.4 102.6 102.8 102.8 102.5 102.4 102.2 101.9 101.7 101.5 101.3 101.7 101 100.2 101.4 102.1 102.1 101.5 101.7 101.6 101.5 100.4 100.2 100.6 100.6 101.4 102.1 102.1 102.1 102.1 103.7 104.1 104.4 104.5 104.9 105.1 105.1 105 104.7 104.5 104.4 104.4 104.9 105.2 105.4 105.8 106.1 106.5 106.3 106.6 106.9 107 107.5 107.9 107.8 108.1 108.5 109.1 109.2 109 109.9 111.2 112.2 112.6 112.9 113.6 114.6 115.1 115.7 116.1 117.4 117.9 118.2 118.3 118.6 118.7 119 119.4 119.7 120.4 120.6 120.9 121.5 121.9 122 122.2 122.5 122.4 122.4 123 123.3 123.9 125.4 127 128.4 130.1 131.6 132.6 133.3 134 135.1 136.1 136.4 135.2 135 134.5 132.2 131 130.5 131.5 131.3 130.4 129.5 130.4 133.5 136.5 140.2 144.8 150.9 156.2 161.6 160.9 159.1 157.2 153.1 147 147.9 156 176.2 206.1 222 229.3 233.4 235.2 236.7 236.1 236.1 235.9 235.1 234 232.4 230.2 226.3 222.7 221.1 220.4 219.7 218.6 218.2 217.9 216.9 215.9 212.6
112.5 113.1 113.1 112.6 112 111.9 112 113.4 114.5 115.7 116.4 117 117.3 117.5 116.7 116.4 116.3 115.7 115.2 114.7 113.6 112.9 112.5 111.6 110.6 109 107.4 106.9 105.5 105.8 105.8 105.8 105.5 105 104.9 105.9 107.1 108.1 108 107.6 106.9 106 104.7 104 102.8 102.1 101.5 101.8 102.2 102.5 102.4 102.3 102.1 102 101.9 101.8 101.5 101.3 101.3 100.6 100.2 101 101.6 101.7 101.2 100.9 100.7 100.7 100.6 99.7 100.5 100.5 101 101.7 101.9 102.4 102.3 103.2 103.8 104.6 105 104.3 104.9 105.2 105.5 105.5 105 104.8 104.8 104.9 105.5 105.4 106 106 106.4 106.6 106.8 106.9 107.2 107.5 107.7 108 108.6 108.9 109.4 109.6 109.9 110.8 112.3 113.4 113.8 114.2 114.9 116 117.4 117.4 118.1 118.9 119.5 119.6 120 119.9 120.2 120.5 120.7 121.1 121.4 122.2 121.9 122.9 123.6 123.6 123.6 123.7 123.6 124 124.6 124.5 125.3 127 128.8 131.2 133.2 135.3 137 138.1 138.3 138.5 138.8 138.5 138.2 137.2 136.4 134.2 132.8 132.5 132.4 131.8 131.4 130.4 130 132.7 135.4 138.8 142.4 146.7 150.2 151.2 151.7 151.6 151.6 149.9 145.5 148.1 160.9 183.4 210.8 223.6 229.7 233.1 234.6 235.7 235.2 235.1 234.8 233.9 232.6 231.1 228.8 225.8 221.6 217 216.8 215.1 212.8 212.6 212.6 210.9 210.1 207.5
112.1 111.6 110.9 110.1 109.4 109.1 110.1 112.1 113 113.6 114.3 115.5 116 116.5 116.6 116.8 117 116.9 116.3 115.8 114.8 113.8 113.2 112.2 111 109.5 108.8 108.3 106.2 106.3 105.4 105.2 105.2 105.3 106.3 108 109.4 110.7 110.9 109.9 109.1 107.7 106.3 105 103.8 102.6 101.6 100.8 102.1 102.2 102.1 101.9 101.9 101.9 101.8 101.8 101.5 101.5 100.5 100.4 100.4 101.6 101.7 101.5 101 100.7 99.9 98.6 99.4 99.7 99.9 100.4 101.3 101.7 102 102.5 102.9 102.8 103.1 103.2 104.8 105.2 104.9 105.1 105.4 105.6 105.5 105.2 105.3 105.2 105.6 105.6 105.8 105.8 106.2 106.4 106.6 106.9 107.2 107.4 108.3 108.5 109 109.3 109.7 109.9 111 112.1 113.3 114.6 115.2 115.7 116.7 118 118.9 120.4 121.2 122.4 122.4 121.6 121.3 121.8 121.9 122.3 123 122.9 123.2 123.7 124.1 124.5 125.4 125.5 125.8 126.2 125.7 125.9 126.5 126.3 126.7 128.3 130.4 133.2 137 140.8 146.6 147.8 148.5 148.3 144.2 142.9 142.8 141.9 139.7 137.7 135.2 134.7 133.9 132.9 132.5 131.9 131 132.2 134.4 137.5 140.1 142 143.5 144.1 145.4 146.2 146.3 145.9 143.8 148.2 166.1 189.4 216.6 225.1 229.3 232.7 233.9 234.4 234.3 233.9 233.4 232.3 231.1 229.7 227.9 225.7 223.7 218.8 213.5 210 204.6 199.5 200.1 201.3 203.5 201.5
111.5 110.4 108.9 108 107.6 107 108.2 109.4 111.2 112 112.8 113.9 114.5 115.1 115.3 116.2 116.7 116.9 117.1 116.6 115.9 115 113.7 112.4 111.1 109.9 108.7 107.7 107.1 107 107.1 106.2 105.3 106.4 108 109.9 111.5 112.3 112.4 111.8 110.8 109.3 107.2 105.4 104.2 103.1 102 101.4 102.1 102.1 101.7 101.6 101.4 101.7 101.6 101.7 101.8 101.9 101.1 100.1 100.4 101.6 101.7 101.2 100.8 100.6 99.3 98.5 99.1 99.7 100 100.8 101.5 101.9 102.1 102.6 102.9 102.8 103.2 103.8 104.2 104.7 104.2 105.4 105.5 105.9 106 106.3 105.9 106.1 105.9 106 106.1 106.1 106.2 106.3 106.7 107.2 107.5 108.3 108.1 108.7 109.3 109.8 110.2 111.4 111.5 112.5 114.2 115.6 116.4 117.5 118.7 120.1 121.7 123.3 125.1 125.6 125.1 124.2 124 125.2 124.8 125.3 126.1 125.9 125.9 125.9 127.3 126.8 128 127.9 128 128.5 128.2 127.9 128.8 129.1 128.9 130 133.1 137 147.2 156.8 161.7 161.7 161.8 158.7 157 151 151.9 152.3 146 143.9 140.1 137 136 134.7 133.5 132.7 131.8 131.8 133.3 135.2 137.2 138.5 139.2 140.3 140.9 142.2 142.6 142.5 143.7 156 173.5 198.8 219.9 225.9 230.2 232.2 233.3 233.6 233.5 233 231.8 230.6 229.1 227.5 226.3 225.1 224.1 222.2 220.2 216 211.6 205.9 200 193 188.5 190
110.7 109.7 108.4 107.5 106.2 105.4 106.7 107.9 109.1 110.5 111.5 112.2 113 113.1 113.8 114.2 115 115.6 116.4 117.1 116.6 115.5 114.3 112.7 111.3 109.9 108.7 107.7 107.4 106.6 106.7 106.5 106.4 107.4 109.7 111.6 113.3 113.8 113.2 112.3 111.3 109.9 108.1 106.2 104.6 103.5 102.3 101.4 101.7 101.9 101.4 101.4 101.4 101.5 101 101.1 101.6 100.1 99.9 100.2 101.2 101.6 100.9 101.4 100.9 100.2 98.8 98.6 98.9 99.4 100 101.3 101.7 102.1 102.6 103.2 103 103.3 103.9 104.1 103.9 104.3 104.5 105.5 105.7 106.1 106.6 106.2 105.9 106.1 106.2 106.3 106.4 106.5 106.6 106.7 107 107.4 107.7 108.1 109 108.9 109.5 110.3 111.7 111.6 111.9 113.1 114.9 117 118.5 119.5 120.8 122.8 126.6 128.3 129.7 129.3 128.3 128.1 127.9 128.4 129 129.5 129.9 130.1 130 130.1 130.8 131.3 131.7 131.9 131.8 131.2 130.9 130.8 131.5 132.3 132.3 133.6 137.1 148.4 166.6 170.9 173.3 173.6 173.1 172.2 168.9 161.5 167.7 167 163.7 156.1 150.3 142.1 138.8 136.2 134.4 134.2 133.7 133.1 133.2 133.9 134.7 135.6 136.5 137.8 138.7 139.4 140.6 143.4 149.5 165.3 187.5 212.1 222.3 227.2 229.9 231.5 232.5 232.5 232.3 231.4 230.4 228.9 227 225.3 224.6 224.2 223.7 223.1 221.7 219.6 217.1 213.6 208.5 202.1 193.8 187.2
109.9 108.6 107.6 107 105 104.6 105.5 107.2 108.1 109.2 110.1 111.3 111.7 111.2 111.4 111.5 112.1 113.3 115 116.2 116 116 114.9 113.4 111.8 110.1 108.8 107.8 107.1 106.4 106.1 106.1 106.5 107.8 110.1 112.4 114 114.9 114.6 112.9 111.8 110.3 108.4 106.6 104.6 103.2 102 100.6 100.7 101.6 101.5 101.5 101.4 101.1 101.3 101.4 100.3 99.2 99.2 100.9 101.5 101.3 101.1 100.9 100.7 100.4 99.5 99 98.7 99.5 100.6 101.2 102.4 103.3 103.2 103.2 103.1 103.8 104 104.1 104.2 104.2 104.2 104.3 106 106.4 106.3 106.4 106.3 106.5 106.5 106.5 106.5 106.7 106.5 107.2 107.3 107.4 107.9 108.3 108.9 109.6 109.8 111.6 111.5 112.3 112.8 113.9 116.1 118.9 120.9 122.2 123.6 127 130.8 136 137.3 135.1 135.9 137.1 136.1 136.3 137.2 139.3 139.8 141 139.1 140.4 139.5 140.7 140.3 139.1 137.5 135.8 136.1 135.9 137.2 138 140.1 143.3 151.8 167.7 177.1 179.9 181.7 182.9 181.9 181.4 178.5 174.8 177.6 176.6 174.1 168.2 159.3 148.8 140.9 138.1 136.5 136.5 136 135.5 135.3 135.1 135.3 136.6 137.5 138.4 139.9 142.1 144.7 151.8 163.9 179.7 202.5 218.2 224.1 227.9 229.2 230.6 231.2 230.8 230.1 229.7 228.5 227.1 225.1 223.1 223 223.5 223 222.4 222 220.9 219.3 217.2 214.1 209.2 203.9 198.2
108.6 107.4 106.1 105.9 104.8 104 104.7 105.7 106.7 107.7 108.3 109.7 110.4 109.6 109.5 109.8 109.6 110.6 112.4 114.7 116 115.9 114.9 113.2 111.6 110.1 108.8 107.5 107.1 106.3 105.9 105.9 106.3 108.3 111 112.9 115 114.8 114.4 113.7 112.4 110.7 108.8 106.8 104.8 103.4 102.7 100.3 100.7 100.9 101.2 101.2 101.2 101.2 100.7 100.3 99.5 99.3 100 101.2 100.4 100.7 101 100.3 99.8 99.5 98.9 98.4 99.5 100.9 101.6 101.4 101.9 103.4 103.8 104.1 103.8 103.6 104.3 104.8 105.1 104.9 104.5 104.7 105.7 106.5 106.6 106.6 106.9 106.8 106.7 106.7 106.6 107 106.6 106.8 107.1 108.1 108.2 108.7 109.2 109.6 110.7 111.2 112 112.7 113.5 115.2 117.3 119 120.9 122.9 126.1 129.9 140.6 142.9 147.5 147.9 149.2 150.2 148.8 150 150.7 151.7 152.1 152 153.1 152 152.1 151.5 150.5 146.8 147.9 150 151.8 154.1 156.3 157.5 160.7 166.3 175.8 182.1 186.3 189.1 190.2 190.2 190 189.2 188.7 187.9 186.4 185.4 182.3 178.3 167.2 157.4 146.1 141.6 140.3 139.7 138.9 139.2 138.2 138.4 138.3 139.1 141.7 142.5 144.8 149.5 156.7 166.1 182.6 200.4 215.6 221.2 225.3 227.6 228.9 229.8 230.1 229.8 229.2 228 226.6 224.8 222.7 221.1 221.2 217.3 219.7 222.1 221.6 220.7 219.7 218.4 216.6 214.4 211.1 207.1
106.1 106.3 104.8 104.9 104.5 103.6 103.8 104.7 105.5 106.5 106.9 108.1 108.7 108.2 108.3 107.6 107.7 108.3 110.1 112.4 114.9 115.8 114.5 113 111.6 110.1 108.8 107.2 106.6 106 105.7 105.8 106.1 108.6 111.6 113.4 115 114.8 114.4 113.5 112.1 110.7 109.2 107.1 104.8 103.2 101.9 100.8 100.7 101.1 100.9 100.9 100.8 100.8 100.5 99.9 99.8 99.6 100.1 101.3 101.3 100.9 100.2 99.6 99.7 99.7 98.8 98.8 100 101 101.8 102.9 102.6 102.7 103.4 104.1 104.4 104.4 104.5 105.2 105.5 105.1 104.7 104.7 105.9 106.1 106.5 107 107.1 107.3 107 107 107 107.1 106.9 106.8 107.1 107.7 108.2 108.9 109.4 109.9 110.8 111.5 112.3 113.2 114 115.6 117.4 118.8 120.9 123.7 128.3 137.6 152.3 159.2 159.5 161.4 160.7 160 160 160.8 161.1 161.5 161.9 162 161.4 160.9 160.7 160 158.4 155.9 159.3 162.6 161.2 169.2 171.6 174.3 178.5 183.2 186.9 191.5 195 197.2 197.7 197.8 197.3 196.5 195.9 195.6 195.1 193.7 191.3 187.4 180.6 170.6 160.8 153.1 149 145.9 144.4 143.5 142.7 143.8 143.8 144.8 149.7 152 159.5 166.6 176.5 187.3 203.4 213.6 218.8 222.9 225.9 227.3 228.3 228.7 228.8 228.6 227.8 226.5 224.5 222.4 220.8 219.2 218.6 220.4 221 217.2 221.3 220.4 219.4 218.6 217.7 215.9 214.4 212.9
101.6 99.8 104 103.2 103.2 102.6 103.2 103.9 104.6 105.1 105.4 106.9 106.9 107.6 107.1 107 106.9 107.5 108.5 110.2 113.1 115.1 114.2 113 111.3 110.1 108.7 107.1 106.3 105.5 105.4 105.2 106.4 108.8 111.2 112.7 114 114.5 114.3 113.1 111.6 110.2 108.8 106.6 104.5 103.1 102 101.4 100.8 100.8 100.6 100.5 100.4 100.3 100.2 99.5 97.6 99.3 100.1 100 99.9 100.2 99.5 99.4 99.1 99 98.8 99.7 100.7 101.4 102.1 102.6 103.3 102.9 103.7 104.2 104.4 104.7 105.2 105.6 105.2 105 105.4 105.1 106 106.7 106.9 107.4 107.2 107.3 107.3 107.4 107.4 107.5 107.4 107.2 107.6 108.6 108.9 109 109.5 110 110.8 111.5 112.3 113.4 114.3 115.8 117.5 119.7 122.4 126.4 136.4 154.4 162.1 164.6 165.6 165.9 165.8 165.7 165.5 166.1 166.6 166.5 166.6 166.5 165.7 165.2 165.2 164.9 164.7 164.6 166.3 169.7 173.6 178.1 181.8 182 189.7 193.8 197.2 200.1 200.9 203.6 203.9 201.8 203.3 203 201.9 201.9 201.1 200.6 198.8 196.1 192.4 188.3 179.1 173.8 169 164.3 158.6 156.4 154.8 157.7 160.1 162.5 168.4 173.5 181.7 189.8 200.3 207.9 212 217.3 220.6 224.1 225.4 226.8 227.3 227.4 227.4 227.4 226.4 225.2 223.3 220.9 218.7 217.1 217.5 217.9 218.3 218.7 217.5 220.1 218.6 218.2 217.5 216.1 215.3 213.6
100.6 100.8 100.2 102.1 102 102.4 102.9 103.2 103.3 103.4 103.9 105.2 105.9 106.1 106.7 106.5 106.3 106.8 107.9 109.4 111.8 114.5 114.4 113 111.3 109.6 107.7 107.2 105.9 105.2 104.9 104.7 106.5 108.8 110.6 112.7 113.1 113.4 113.2 112.9 111.6 110.3 108.9 106.8 105.1 103.4 102.1 101.5 100.9 100.5 100.3 100 99.9 99.8 99.6 99.9 98.5 99.1 99.5 99.6 99.3 99.4 99.1 99.5 98.9 98.2 99.2 99.7 100.5 101.4 102.1 102.5 103.1 103.4 103.4 103.9 104.4 104.6 104.6 105.6 106.4 105.7 105.3 105 106.4 107.2 107 107.6 107.5 107.7 107.8 107.9 107.8 107.9 107.8 108 108.2 107.8 108.6 109.2 109.8 110.3 110.9 111.5 112.5 113.5 115.3 117.1 118.8 121.2 125.1 135.1 152.6 162.2 165.9 167.9 168.7 169 168.7 168.7 168.5 169.3 169.6 169.6 169.4 169.4 168.8 168.4 168.6 168.7 168.4 169.2 171.7 175.8 180.5 186.1 190.4 194.7 198.6 201.7 203.6 204.6 205.1 205.5 205.6 205.6 205.4 205.9 205.6 205.1 205.4 205.1 204.2 202.7 201.1 198.2 194.6 190.6 188.6 186.3 181 178.9 177.9 179.8 183.6 187 191.8 197.9 203.3 206.4 209.9 213.4 216.2 219.9 222.4 224.2 225.4 226.1 226.6 226.6 226.4 226 225.3 224 222.2 219.7 217.4 215.8 215.3 216 215.9 216.5 217.3 217.6 217 217.1 217.2 217.1 215 213.6
100.7 101.5 100.1 100.6 100.6 101.2 101.4 101.7 102.5 102.2 103.5 104.7 105.2 105.5 105.1 105.3 105.6 106.3 107.5 109.4 112.4 115 114.5 112.5 111.3 109.2 107.6 106.5 105.6 105 104.5 104.6 106.1 108.2 110 111.2 112.5 112.6 112.3 112.1 111.7 110.6 108.9 106.8 105.3 103.9 102.5 101.5 100.7 100.1 99.8 99.5 99.4 99.3 98.8 98.3 98.5 99.2 98.9 99.5 99.3 98.9 98.7 98.6 97.9 98.5 99.3 100.5 101.3 101.1 101.7 102.3 102.9 103.2 103.9 103.5 103.8 104.9 105.3 106 106 105.9 105.6 105.4 105.8 107 107.2 107.5 107.7 108.1 108.1 108.3 108.3 108.2 108.1 108 107.9 108.5 108.9 109.4 110.2 110.5 111 111.8 112.7 114.3 116.4 118.4 120.3 123.1 130 146.6 159.8 165.4 168.4 169 169.4 169.4 169.2 169.4 169.8 170.3 170.6 170.6 170.8 170.4 170.2 169.8 170 170.1 171 172.5 176.3 181 186.8 192.7 198.4 201.9 204.1 204.9 205.2 205.8 205.4 205.6 205.7 205.8 205.4 205.3 205.4 206 206.7 207.6 207.4 206.9 206.1 205.1 203.7 199.6 198.5 197.8 197.4 198.9 199.8 199.7 201 203.2 204.6 207.1 209.9 212.3 215.2 217.2 219.6 221.5 223.1 223.8 224.5 225.2 225.8 225.6 225.3 225 224.3 223 221 218.5 217.1 214 213 213.7 213.4 213.9 215.4 215.5 216 215.1 215.8 215.4 214.3 212.9
100.7 101.3 100.9 100.2 99 100.3 100.2 100.5 101.3 101.7 102.9 104.1 104.9 105 104.6 104.6 105.3 106.3 107.7 110.1 114 114.5 113.7 112.7 111 109 107.7 106.4 105.5 104.6 104.2 104.3 105.8 107.6 109.1 110.1 111.1 111.7 111.5 111.3 111.4 110.6 109.4 107.7 106.1 104.6 103.3 102.4 101.3 100 99.3 99.4 99.3 99 98.6 98.6 97.9 97.6 98.7 99.3 99.1 98.5 98.5 98.3 97.7 99 99.8 100.2 101.3 101 101.6 102.2 102.9 103.5 103.9 103.2 104.3 105 105.7 106.4 106.7 106.6 106.2 106.1 106.1 107.2 107.7 107.9 108.2 108.5 108.6 108.8 108.9 108.7 108.4 108.4 108.5 108.6 108.9 109.6 110.6 111 111.5 112.3 113.4 115.7 117.6 118.9 121.6 125.9 133 149 161.1 166.7 169.4 169.5 169.3 169.2 169.2 169 169.3 169.8 170.5 170.3 170.6 170.5 170.1 169.7 170.4 170.3 171.6 174.4 179.6 185.7 191.8 197.8 202.5 204.2 204.1 204.7 205.1 205.1 204.8 204.8 204.4 204.8 204.7 204.1 205.1 206.1 207.6 209 209.8 210.1 209.6 209.1 208.8 207.8 207.5 207.6 207 206.5 207.1 208.4 208.6 210.4 212.1 213.5 215.3 217.1 218.4 220 221.3 222.6 223.8 223.6 223.8 224.4 224.7 224.7 224.4 223.8 223.1 222.2 220.7 219.3 215.5 213.6 211.6 210.7 210.6 211.2 212 213 213.5 213.9 213.8 214 213.7 212.7
100.9 100.6 100.6 100.2 100 98.7 100.5 100.1 100.2 100.9 101.9 103 103.9 104.4 103.8 104.1 105.1 106.2 108.5 111.6 115 114.3 113.5 112.5 110.5 108.6 107.9 106.5 105.3 104.4 104 103.9 105.1 106.6 108.2 109 109.8 110.4 111.6 111.7 112 111.4 110.9 109.3 107.7 106.1 104.6 103.6 103.3 100.6 100.5 100.2 99.8 99.6 99.2 99.4 98.7 97.9 96.6 98.7 98.4 97.4 98.4 97.1 97.5 98.4 99.8 100.7 100.9 101.5 101.9 102.3 102.8 103 103.2 103.2 104 105.2 106.5 107.3 107.8 107.1 106.6 106.7 106.2 107.1 107.8 108.6 108.9 109 109 109.1 109.1 109 108.8 108.8 108.8 108.9 109.3 109.8 110.4 111.2 112.1 113 114.7 116.2 118.6 120.3 122.9 128.7 140.1 155.2 162.6 166.8 168.9 168.3 168.1 167.7 167.4 167.5 167.7 168 168.6 169 169.2 169 168.9 169 169.1 169.4 171 175.5 182 190.3 197.1 201.4 203.3 203.7 203.9 204.1 203.8 203.2 203.6 203.3 202.9 202.3 201.1 201.6 203.5 205.2 207.8 209.6 210.8 211.6 212.2 212.1 212.1 211.3 212.1 212.2 212.6 212.2 212.2 212.6 213.7 215 216.2 217.1 218.4 219.3 220.3 221.6 222.2 222.8 223.3 223.4 223.6 223.6 223.6 223.5 223.3 222.9 222.2 221.5 220.1 219.3 215.9 214.2 212.5 210.6 209.2 208.2 209.1 210.1 211 211.6 212.2 212.5 212.7 212.2
101 101 100.8 100.8 99.9 100.6 99.9 100 100.3 100.5 101.2 101.9 102.6 103.2 103.3 104 105.1 106.7 109.3 113.8 115.2 114.2 113.3 112.1 110.4 108.7 107.3 106.2 105.1 104.2 103.8 103.8 104.1 105.6 107.2 108.1 108.6 109.5 110.7 112 112.5 112.5 112.2 111 109.8 108.5 107.1 105.9 104.7 103.9 102.7 102.4 101.1 100.8 100.3 99.7 99 97.5 96.8 98.7 98.1 97.2 96.3 97.6 97.6 98.6 99.6 100.3 101 101.5 101.8 102.1 102.4 102.7 103.2 103.6 104 105.3 106.4 107.9 107.5 106.8 106.8 107.1 106.8 107.4 107.9 108.9 108.5 109.2 109.2 109.3 109.5 109.3 109.2 109.2 109.2 109.3 109.8 110.3 110.7 111.6 112.5 113.3 114.8 116.4 118.5 120.6 124.6 130.9 141.7 156.1 162.3 165.4 165.8 165.8 165.2 165 165.1 165.4 166.4 166.7 167 166.9 166.9 166.8 167 166.7 166.8 165.9 171.4 177.2 184.5 192.2 199.4 201.7 202.9 202.9 203.2 202.9 202.4 201.7 200.3 198.7 196.7 195 194.8 196.2 201.3 204.2 206.4 208.4 211 212 213.3 213.5 213.7 213.6 214.2 215.2 215 215.6 215.6 216.4 216.9 217.7 218.9 219.3 220.1 220.8 221.4 221.5 222 222.5 222.3 222.6 222.7 222.2 222.2 222.2 222.3 221.8 221.4 220.8 219.9 219.1 217 215.5 213.8 212.2 210.8 208.8 206.4 206.1 207.8 209 210.2 211 211.5 211.3
101 100.6 100.8 100.5 100.5 99.1 99.9 100 100.4 100.7 100.9 101.2 101.8 102.3 102.9 103.8 105.6 107.2 110.7 115.6 115.5 114.1 113 111.3 109.9 108.6 107.2 106 104.9 104.1 103.6 103.7 103.6 104.5 106.1 106.9 107.7 108.9 110.3 112.1 113.9 114.4 114.1 113.4 112.3 111 109.5 108.7 107.6 107.2 106.4 105.2 103.6 102.5 101.1 99.8 99 98.2 96.9 98.1 97.7 96.4 97.5 97.2 97.5 98.7 99.6 100.2 100.9 101.2 101.4 101.7 102.2 102.7 102.6 102.6 103.4 104.7 105.8 106.2 106.4 106.5 106.9 107.4 107.6 106.7 108.3 109.1 109.1 109.2 109.4 109.7 109.7 109.6 109.5 109.5 109.6 109.8 110.2 110.6 111.1 111.7 112.8 113.5 115.2 116.8 119.4 122.5 126.8 132.4 142 154.2 159.6 161.8 163.2 162.7 162.1 161.4 162.1 162.6 163.4 164.2 164.4 164.5 164.7 164.7 164.4 164.5 162.6 165.5 166.7 178.2 186.8 195 199.7 201.2 201.7 202 201.8 200.7 198.1 195.7 192.7 191.1 187 185.7 184.9 192.1 198.1 199.6 202.5 206.7 210.6 212.7 214.1 214.9 215.1 215.5 215.7 216.2 217.5 216.9 217.8 218.4 219 219.5 220 220.9 221.1 221.3 221.5 221.5 221.2 221.4 221.7 221.3 221.3 220.9 220.9 220.8 221.2 221.2 220.8 220.1 219.3 218 217.1 215.5 214.2 212.1 211 209.6 207.9 205.7 204.1 205.8 207.5 209 210.1 210.1
100.9 100.8 100.7 100.3 100.2 100.6 98.8 100 100 100.3 101.3 100.8 101.2 102.1 103.1 103.8 105.4 107.6 112 115.6 115 113.4 112.3 110.7 109.1 108 106.9 106.2 104.8 103.9 103.4 103.2 103.1 103.6 104.6 105.5 107.5 108.6 110.1 112.5 114.7 116.6 116.8 116 114.9 113.6 112.2 111.1 109.8 109.5 108.5 107.1 105.2 103.6 101.6 100 98.4 97.3 96.8 97.4 98.4 97.3 96.7 97.5 97.6 98.7 99.6 100.3 100.7 100.9 101.1 101.3 102 102.3 102.4 102.5 102.7 103.6 104.5 105.2 105.5 106.1 106.7 107.9 107.7 107.1 107.9 108.7 109.2 109.3 109.6 110.1 110 109.9 109.8 110 110.1 110.1 110.5 111 111.5 112.3 113.1 114.2 115.7 118.2 121 124.7 130.2 135.8 143.5 153.3 157.6 158.9 160 158.8 157.8 157.3 159.1 159.4 160.2 160.8 161.1 161.7 161.4 161.5 161.6 160.2 159.7 166.4 166.5 179.4 188.4 196.2 199.2 200.3 200 199.5 197.8 195.5 190.8 187.3 183.4 179.5 177.3 174.7 178.7 188.4 191 194.8 201.5 206.1 211.2 213 214.3 215 215.7 216.2 216.6 216.9 217.4 218.6 218.5 219.2 219.7 220 220.4 220.8 221 220.9 220.9 220.9 220.6 220 219.7 219.6 220 219.6 219.9 219.9 220.4 220.7 220.1 219.4 218.5 217.9 216.4 214.7 213.3 212.2 211 209.7 208.5 206.8 204.7 202 204.7 207.5 208.9 209.3
101.8 101.6 101.7 101.6 100.5 100.5 99.4 98.9 99.7 99.9 100.7 100.6 101.3 101.9 103.1 103.7 105.3 107.2 111.5 115.5 114 112.3 111.3 110.3 109 108 106.9 106.1 104.7 104 103.3 102.8 102.8 102.8 103.6 104.6 106.2 107.9 109.8 112.1 115.3 117.4 118.7 118.6 117.8 116.8 114.9 113.9 111.5 110.6 109.3 107.8 105.9 104.1 101.8 100.2 98.7 98.4 95.8 97.1 98.4 97.9 96.4 97.4 97.8 98.4 99.3 99.8 100.2 100.3 100.5 100.9 101.5 101.8 102 102.1 102.7 103.4 104 104.7 105.2 105.9 107.4 108.4 108.4 107.7 108.1 109.5 109.2 109.5 109.9 110.3 110.2 110.2 110.5 110.8 110.6 110.8 111.2 111.6 112.4 113.4 114.3 115.7 117.2 120.1 123.6 128.2 133.3 139.3 144.8 153.6 155.4 156.1 153.6 152 150.8 152.8 156 156.5 157 157.4 157.4 157.7 157.6 158 158 156.2 158.2 166.6 171.1 180.7 189.7 195.8 197.2 197.4 196.8 194.9 192.2 186.5 182.8 177.7 173.2 168.2 163.2 167.9 174.3 177.8 186.7 196.1 202 207.5 210.9 213.7 214.4 215.1 215.6 216 216.3 216.6 216.9 217.3 218.8 218.3 219.4 219.6 219.8 219.9 220.1 220.5 220.3 219.6 219 218.5 217.1 216.9 216.9 218.2 218.7 219 219.7 219.4 218.6 218.4 217.7 216.3 215 213.3 211.6 210.7 209.8 209 208.1 206.9 205.4 202.6 201.5 205.1 207.5 208.6
102.5 102.4 102.2 102.1 101.5 100.5 99.5 99.3 99.5 99.5 100 100.4 101.5 102.1 102.5 103.6 104.7 106.6 109.3 112.5 111.1 109.8 110.1 110.5 109.1 107.8 106.8 105.8 104.6 104.1 103.1 102.9 102.4 102.4 102.6 103.6 105.2 107.3 109.6 112.2 115.6 117.8 119.1 119.1 119 117.9 116.5 115.8 113.3 111.7 110.3 108.6 106.5 104 101.2 99.6 98.8 98.1 97.1 96.4 97.6 97.3 96.2 97.3 97.7 98.2 98.9 99.3 99.5 99.8 100 100.6 100.7 101.2 101.6 102.1 102.6 103.2 104.1 105.2 105.8 106.7 107.7 108.6 109 108.4 108 108.9 109.7 109.8 110.6 110.5 110.8 110.6 111.1 111.4 111.2 111.6 112 112.6 113.4 114.7 116 117.6 120 122.6 126.2 130.8 135.8 139.5 142.8 147.6 147.1 145.4 144.2 143.1 143.7 146.9 150.5 152.1 153.9 153.8 154.2 154.1 154.2 154.7 154.7 152 157.1 164.1 172.2 181.1 189.5 193 194.3 194.3 192.4 189.5 183 178 172.2 167.1 161.7 158.8 167.8 180.7 186.5 190.3 195.2 199.5 204.1 208.8 211.1 212.8 214.2 215 215.3 215.4 215.3 215 215.2 215.4 216.9 218.1 218.6 218.8 218.7 219.2 219.1 218.9 219 218.6 217.6 216.4 214.8 213.9 215.5 217.4 218.6 218.7 218.7 218.5 217.9 217.5 216.7 214.9 213.8 211.6 209.9 208.5 208.4 207.6 207 206.3 205.4 203.4 199.5 202.9 205.8 207.7
102.8 103 103.2 102.4 102 101.6 100 100.1 100.9 100.8 100.3 100.2 101.6 102.2 102.3 103.3 104 105.5 106.4 108.5 108.2 107.7 108.2 109.6 109 107.4 106.3 105.3 104.3 103.5 102.9 102.6 102.3 102.1 102.2 102.9 104.6 106.6 109 112.3 115.2 117.8 118.4 118.3 118.1 117.7 117 115.7 114.6 112.8 111.4 108.8 106.2 103.4 101.4 99.6 98.4 97.8 96.9 96.5 97.1 96.1 96.4 97.1 97.6 98.1 98.5 98.9 99 99.2 100.1 100.2 100.7 101.3 101.7 102.2 102.8 103.6 104.8 106.1 107.1 107.9 109.1 109.1 109.4 109.3 108.6 108.7 109.3 110.3 110.2 110.5 110.9 111.2 111.1 111.3 111.7 112.1 112.6 113.6 114.4 115.7 117.3 120 122.5 125.3 128.2 132.5 135.7 137.8 138.7 139.1 139.1 138.3 137.8 138.1 139.3 141.4 142.9 144.6 146.8 146.8 149.2 148.7 149.2 149.6 150.4 147.3 155.8 163.4 171.7 180.3 189 191.4 192 190.2 186.7 180 174.4 169.3 163.5 158.5 155.1 163.2 175.7 185.5 191.3 194.8 199 203.6 207.5 209.6 211.5 212.9 213.3 214.1 214.2 213.8 213.3 212.7 212.6 213.4 215.3 216.8 217.4 218 218.4 218.2 218 217.9 217 216.6 215.4 214 211.9 213.2 215.2 216.7 217.2 217.4 217.3 217.4 217 216.5 215.6 215.1 212.9 210.8 209 206.8 205.5 205.6 205.6 204.9 204 202.6 198.5 200.8 204.5 207
103.5 104 103.8 103 102.6 102 101.5 100 100.6 101.1 100.7 101.2 101.6 102.5 102.3 103 103.6 104.3 105 105.6 105.8 106 106.6 107.7 107.8 107.2 105.8 104.8 103.8 103.1 102.5 102.1 101.7 101.6 101.4 102.2 103.8 105.8 108.3 111.6 115 117.4 117.5 117.2 116.9 116.3 116 116.5 115.1 112.7 110.9 108.3 105.6 102.7 101 99.9 98.8 98 97.7 95.6 96.3 96.1 96.8 97 97.1 97.7 98.1 98.4 98.6 99.3 100.2 100.2 101 101.6 102 102.4 103.2 104.5 106 107.7 108.9 110 110.6 110.3 110 109.8 109.2 109.1 109.3 110 110.8 110.6 111.2 111.9 111.7 111.7 112.2 112.7 113.3 114.2 115.4 116.9 118.9 121.3 124 126.6 129 131.4 133 134.1 133.9 133.6 133.6 133.2 133.3 134 135.7 137.4 138 139 140.3 140.8 142.7 143.1 142.9 143.7 144.6 144.2 154.6 162.2 170.8 179.2 187.1 189.2 187.8 183.3 177.5 172.5 166.9 161.3 156.4 152 159.3 173.6 182.7 188.6 193.9 198.5 202.6 205.9 208.2 210.1 211.2 212 212.7 212.7 212.6 211.7 210.6 209 208.9 211 214.5 216 216.5 217.1 217.6 217.5 217.3 216.9 215.8 214.3 213.5 211.4 210.8 212.9 214.8 216 216.4 216.8 217.3 216.4 215.9 215.4 214 212.6 211.7 210.1 208.5 206.8 204.7 202.5 203.2 203.1 202.3 201.3 197.7 199.2 203.9 206.4
104.1 104.1 104.1 103.7 102.9 102.2 101.3 100 99.8 101.1 100.3 102.2 101.9 102.7 102.5 102.9 103.1 103 103.6 104.5 104.8 105 105.9 107.3 107.6 106.6 105.4 104.3 103.2 102.9 102.1 101.5 101.3 101.7 101.1 101.5 103 105 107.6 110.8 113.9 116.1 116.3 116.1 115.9 116 115.4 115 114.1 112.6 111.1 109 105.8 102.7 100.8 100.2 99 98.5 97.8 97.4 96 96.8 96.8 96.7 96.8 97.2 97.5 97.7 98.2 99.2 100 100.6 101.5 102.3 102.8 103.4 104 105.6 107.7 109.4 110.7 111.1 110.9 110.9 110.6 110 109.8 109.8 109.4 109.9 110.5 111.2 111.4 112.1 112.3 112.4 112.7 113.8 113.9 115.5 116.3 118 120.3 122.7 124.9 126 126.7 128.4 129.1 129 129.1 129 129.2 129.6 130.3 130.9 132.1 133.8 134.6 135.6 136.2 136.8 137.7 138.3 138.9 139.6 141 142.8 153.2 162 169.6 176.1 180.5 181.9 179.3 174.3 169.5 165 160.7 155.4 150.1 156.2 168.9 179.8 186.9 192.3 196.8 201.3 204.5 206.9 208.5 209.8 210.4 211.1 211.2 210.7 209.5 207.9 206.6 204.9 207.9 211.1 213.7 215.1 215.8 216.2 216.4 216.3 216 215.5 214.6 213 210.9 208.9 210 212.7 214.4 215.7 215.5 215.5 216.3 216.2 215.1 214.3 212.1 210.8 209.1 208.4 207.8 206.5 204.8 202.6 199.9 200.4 200.6 198.9 196.2 198.8 203.1 205.8
103.7 104.1 104.2 103.5 103.1 102.5 102 100.3 99.3 100.8 100.5 101.7 102.2 102.4 102.6 102.6 102.5 102.3 102.7 103.1 103.7 104 105.5 107 106.9 105.9 105 104.1 103.3 102.6 101.9 101.2 100.8 101.7 100.9 101 102.4 104.1 106.6 109.7 112.9 115.2 115 114.9 115.5 114.7 114.2 113.9 113 112.4 111.3 109.7 106.7 102.9 101.4 100.7 100 99.7 99.3 98.6 94.3 96.8 96.8 96.8 96.8 96.4 96.5 96.8 97.5 99 100.1 100.7 101.5 102.7 103 103.2 103.9 107 108.8 110.3 111.5 111.4 111.5 111.5 111.2 110.8 110.3 110.5 110.2 110 110.6 110.7 111.5 112 112.4 112.9 113.2 114 114.3 115.2 116.9 118.8 120.4 122.4 123 123.8 124.4 125.1 125.5 125.5 125.4 125.7 126.2 126.8 127.5 128.4 129.3 130.7 132.1 132.9 133.4 133.7 134.5 135.3 135.8 136.5 137.6 142 153.8 161.8 169 173.2 174.3 172.6 170.6 166.8 163.1 159.2 155.3 149.1 153 165.2 177.2 185.2 190.6 195.2 199.8 202.9 205.4 206.9 208.3 209.1 209.4 209.5 209 207.9 206.1 204.4 201.3 204 208.4 211.6 212.8 214 214.8 215.2 215.3 215 214.6 214.1 212.5 211 209.1 207.2 210 212.1 213.8 214.6 215 215 215.1 215 214.7 213.4 211.5 210.6 206.8 206.2 205.8 205.3 204 202.7 200.2 197.6 197.4 196.2 195.4 199.6 203 205.3
104 103.2 103.9 103.7 104.1 102.7 102.3 100.5 99.3 100.7 100.6 101.3 101.5 101.7 102.2 102.1 101.8 101.6 101.9 102.3 103.1 103.7 105.1 106.6 106.4 105.7 104.7 103.9 103.1 102.4 101.8 101.1 100.7 100.5 100.6 100.9 101.9 103.7 105.8 108.7 111.8 114.1 114 113.5 113.5 113.4 113.1 113 112.4 111.9 111.5 110.2 108.4 106.4 104.4 103.3 102.7 102.4 101.6 101.1 100.3 98.3 94.4 96.1 95.2 95.5 95.9 96.5 96.5 97.7 98.8 100 101.2 101.8 102.2 102.8 103.8 107.2 108.5 109.5 110.1 110.1 110.8 111.2 111.5 111.4 111 110.7 110.9 110.5 110.5 110.9 111.2 111.6 113.6 113 113.6 114 114.8 115.5 116.6 117.7 119.2 120.2 120.8 121.3 121.9 122 122.1 122.5 122.9 123.1 123.7 124.4 125.2 126.6 127.4 128.3 129.5 130.6 131.2 131.4 132.2 132.7 133.2 133.7 136.3 140.6 151.9 161 166.7 170.6 169.2 167.2 163.8 160.5 157.8 154.7 149.4 148.9 161.1 172.7 181.5 189 193.5 198.1 201.4 203.9 205.6 206.7 207.5 208.1 208.1 207.3 206.5 204.4 201.9 198.6 199.4 204.1 207.9 210.1 212.7 213.3 213.7 214.3 214.2 214.2 213.5 212.4 210.6 208.9 206.6 207.1 209.8 212.2 213.1 213.7 214.5 214.3 214 213.6 213.2 212.3 211.6 209.7 207 204 203.5 203.4 202.6 201.3 200 197.3 194.5 193.5 196.8 200.2 203.4 205.2
104.8 103.8 104.1 103.8 103.4 102.4 101.8 102.1 99.3 100 100.3 100.2 100.7 101.4 101.9 101.9 101.5 101.2 101.5 102.1 102.7 103.3 104.8 106.2 106.4 105.6 104.5 103.7 103 102.3 101.5 100.8 100.7 100.6 100.5 100.8 101.7 103.3 105 108.1 111.3 113 112.9 112.7 112.4 112.3 112.2 112.1 111.9 111.5 111.1 110.3 109.3 108.5 107.3 106.3 105.3 105.2 103.8 102.8 101.6 100 99.2 98.6 96.6 95.1 95.4 96 95.7 96.2 97.6 99.1 100.2 100.2 100.7 101.5 103.6 105.4 106.8 108.1 108.8 108.6 109.3 110.4 111.3 111.8 111.4 111 111.1 111.1 111.1 111.1 111.4 111.5 112.4 113.7 113.8 114 114.5 115.1 115.5 116.7 117.8 118.5 118.7 119.3 119.5 119.7 120.1 120.3 120.7 121.7 122 122.8 123.9 124.8 125.7 126.6 127.5 128.3 129.6 129.6 129.9 130.2 130.6 131.3 134.8 142.5 151.6 157.8 162.7 164.1 163 160.8 158.6 156.3 154 151 145.2 151.6 165 177.4 184.9 191.1 195.7 199.7 202.5 204.3 205.6 205.8 206.6 206.5 206.4 205.1 203.1 200.3 197 196.7 200.6 204.2 206.4 209 211 212.3 213 213 212.8 212.9 212.3 210.4 208.3 206.5 204.4 207.1 209.2 211.3 212.1 212.9 213.3 212.9 212.7 211.9 211.4 211.2 210.5 208.6 206.8 203.7 200.9 200.6 201.2 200 198.7 196.6 194 193.7 197.9 201.4 203.1 204.5
105 104.6 104.5 103.8 103.3 103.2 102.2 101.5 99.6 100 100.6 99.9 100.2 100.4 100.6 101.7 101.6 100.8 101 101.6 102.2 103.6 104.7 106.7 107.1 105.3 104.2 104 102.8 102 101.1 100.5 100.3 99.9 100.1 101.2 101.3 102.7 104.4 106.6 110 111.8 111.8 111.6 111.4 111.2 111.1 111 110.9 110.7 110.3 110.2 109.6 108.8 108.1 107.4 106.6 106 104.7 104.1 103 101.7 100.3 99.3 98.7 98 96.2 95.7 95.8 94.6 95.8 98.3 98.7 98.9 99.5 100.3 101.9 103.2 104.7 106.6 106.7 107.1 108.4 110 111.1 112.2 111.9 111.6 111.6 111.6 111.9 112.4 112.1 111.9 112 112.7 114 113.9 114.2 114.6 115 115.4 116 116.4 117.1 117.5 117.5 117.7 118 118.4 118.8 119.4 120.4 121.4 122.2 123 124.1 125.1 126 126.7 127.8 127.5 128 128.3 129 130.2 134.7 143.9 150.9 155.2 157.9 158.7 157.6 156.1 154.7 152.6 150.3 147 143.4 154.6 169.1 179.9 187.7 193.2 197.4 200.5 202.5 203.6 205.1 205.2 205 204.9 204.2 202.3 199.3 196 191.4 198.4 200.6 203 204.9 207.8 209.8 211.3 212 212.4 212.2 212 210.8 209 206.4 203.8 203.5 206.8 209 210.7 211.4 212.1 212 211.6 210.2 209.3 209.7 209.6 209.4 208.7 207 204 201.6 199.3 198.1 198.3 197.1 194.9 191.6 194.4 199.4 201.9 203.5 204.4
104.7 104.5 104.1 103.7 103 103.2 102.1 101.2 100.5 97.7 99.2 99.7 99.4 98.9 98.6 101 101.2 100.3 100.7 101.4 101.4 102.5 104.1 106.5 106.1 105.2 104.3 103.6 102.3 101.1 100.5 100 100 99.8 99.9 100.2 101.4 102.2 104.8 106.1 108.6 110.2 110.8 110.6 110.4 110.2 110 109.9 109.8 109.7 109.6 109.3 109 108.5 108 107.4 106.8 106 105.3 104.4 103.8 102.9 101.6 101.3 101.3 99.4 99.2 97.8 97.1 93.5 94.9 97 97.4 98.1 98.7 99.5 100.7 101.9 103 105 105.3 106.4 107.8 109.9 112.1 112.4 112 111.6 111.9 112 112.2 112.6 112.7 112.8 112.7 112.6 113.2 113.8 114.2 114.2 114.5 115.1 115.8 115.9 116.1 116.9 117.3 117.4 117.9 118.3 118.5 119 119.4 120.1 120.9 121.5 122.7 123.8 124.5 125.8 126 126.2 126.6 127.1 128.5 131.6 139.2 145.7 149.8 152.7 154.3 154.4 153.8 152.4 151.1 149.3 146.8 143.6 144.9 159.2 175.4 184.7 190.1 195 198.3 200.8 201.9 203 203.6 204.3 203.7 203.2 201.9 199.3 195.7 190.7 193.7 198.2 199.7 200.3 203.5 206.4 208.7 210.2 210.8 211.2 211.6 211 209.8 207.4 204.9 202.1 203.5 206.5 208.2 210.1 210.7 211.1 210.7 210 208.6 206.6 207.8 208.6 208.5 208.6 206.4 204 201.4 199 196.7 194.9 194.9 192.8 190.6 195.8 200 201.9 203.2 203.8
104.5 103.7 103.1 102.9 102.3 101.7 101 100.3 99.3 99.5 99.4 98.5 97.7 98.2 97.6 99.8 99.8 100 100.5 100.5 100.8 101.6 103.2 104.7 105.7 104.4 103.6 102.9 102 100.6 100.1 99.9 99.7 99.8 99.8 100.1 100.9 102.6 103.4 105.3 107.2 108.2 108.6 108.9 109.2 109.2 109 108.8 108.7 108.6 108.4 108.1 107.9 107.7 107.3 106.9 106.3 105.3 105 104.7 104.5 103.8 103 102.2 102.1 101 100 99.1 97.2 96.3 94.8 95.4 96.9 97.5 98.1 98.7 99.7 100.9 102 103.1 104.5 105.9 107.3 109.6 112 112.1 111.7 111.8 112.2 112.4 112.6 112.9 113.2 113.5 113.5 113.4 113.1 113.3 113.6 114.7 114.9 115.5 116.1 116.6 117.2 117.7 118.2 118.9 119.3 119.3 119.9 119.4 119.6 119.4 120 121 122.2 122.8 123.3 123.9 124.7 125.2 126 127.1 130.4 136.5 142.8 146.4 148.8 150 151 151 150.9 149.6 148.7 146 143.2 141.4 151.2 168.4 181.2 188.1 192.8 196.4 198.9 200.4 201.4 202.3 202.5 202.5 202.1 201 198.9 196 192 186.2 194.1 196.6 195.6 199.3 202.7 205.8 208 209.3 210 210.3 210.1 209.7 208.1 205.7 202.7 200.4 203.7 206.3 208.1 209.3 209.8 209.8 209.4 208.6 207.1 204.7 206.4 207.1 207.2 207.8 206.2 204 202 200.4 197.2 195.6 193.8 189 191.6 197 199.9 201.6 202.4 202.8
103.3 102.8 102.1 102.2 101.5 100.7 100.3 99.6 99.5 100.2 99.8 99.5 98.6 98.5 99.1 98.6 98.9 99.4 99.9 99.9 100.1 100.7 101.7 103.6 104.4 103.6 103.1 102.4 101.7 100.7 99.9 99.8 99.7 99.7 99.7 100 101.3 102.3 102.8 104.6 105.8 106.4 106.5 106.7 107 107.7 108 107.8 107.6 107.6 107.4 107.2 107.1 106.9 107.2 105.9 105.4 104.9 104.7 104.4 104.3 104.1 103.4 102.7 101.9 101.2 100 98.9 97.9 96.9 94.3 94.8 96.3 96.9 97.5 98.2 98.9 100 101.5 102.3 103.7 104.9 106.9 108.3 110.8 111.2 111.2 111.9 112.4 112.7 113 113.3 113.5 113.9 114 114.2 114.1 113.9 114 115.2 116.6 116.1 116.6 117.1 117.7 118.3 118.8 119.4 120 120 121.2 120.3 120.5 120.1 119.9 120.8 121.6 122.2 122.7 123.7 124.4 125.3 127.3 130 135.9 140 143.3 146.2 147 147.7 148.3 148.2 147.6 147.1 145.5 142 139.8 147.4 160.7 178.1 186.2 190.7 194.5 197.1 199 200 200.6 200.7 200.6 200.6 199.8 198 195.5 192.1 187.3 187.8 193 192.3 196.2 199.5 202.4 205.3 207.6 208.5 209.2 209.2 209.1 208.4 206.9 204.6 201.2 200.4 203.4 205.9 207.5 208.5 208.8 208.4 208.2 207.1 205 203.1 205.2 206.1 206.5 207 205.5 204.3 202.5 200.2 197.6 196.2 194.1 190.5 190.6 196.8 199.4 200.7 201.2 201.5
102.6 102.8 101.7 101 100.5 100.2 100 99.7 100.2 101 101.2 101.2 99.8 99.3 98.3 98.5 99.2 99.2 98.7 99.6 99.5 100.4 100.8 102.2 103.2 103 102.3 101.8 101.2 100.1 99.6 99.7 99.7 99.6 99.6 99.9 100.3 101.1 102.6 103.8 104.6 105 105.1 104.9 105.2 106.1 107 106.9 106.8 106.8 106.4 106.2 106.1 105.9 105.3 104.8 104.3 104.1 104 103.8 103.8 103.7 103.7 102.8 101.9 100.9 100.2 99.4 98.1 96.3 94.2 94.1 95.9 96.4 97.1 97.7 98.6 99.5 101.2 101.8 103.1 103.6 104.9 106.9 107.3 108.1 107.9 109.6 112.4 113.1 113.3 113.7 114 114.3 114.8 115 114.9 114.9 114.8 115.4 115.8 116.6 117 117.5 118.2 118.8 119.4 120 120.5 120.7 121 121.6 121.4 121.3 120.9 121 121.1 121.6 122.9 123.6 124.9 127.1 130.1 136.1 139 142 144.4 144.7 145.1 145.8 145.9 146 145.4 143.5 141.5 139.3 145.5 156.4 175.2 184.1 188.9 192.9 195.3 197.4 198.7 198.9 199.2 199 198.6 197.9 197 194.6 191.8 187.9 179 188.2 189.9 191.1 195.7 198.2 201.2 204.5 207.5 208 208.3 208.3 208 207.4 205.3 203.2 199.7 199.4 203 205.4 207 207.5 207.6 207.1 206.7 205.2 203.2 201.7 203.9 205.3 205.7 206 205.1 204.1 203.2 200.8 198.4 196.6 193.9 189.2 189.7 195.8 198.3 199.4 200 199.9
101.8 101.3 100.8 100.6 100.4 100.1 99.8 99.9 100.3 101.3 102.2 102.6 101.7 99.6 97.4 98.7 98.2 98.5 98 98.4 98.4 99.1 99.9 100.7 101.8 101.9 101.3 100.7 99.8 99.5 99.4 99.5 99.7 99.6 99.6 99.7 100.1 100.8 102 103 103.4 103.5 104.5 104.2 103.9 104.7 106 105.9 106 106.1 105.4 105.3 105.1 104.8 104.7 104.4 103.5 103.2 103.1 103 102.8 102.8 102.6 101.9 101.1 100.4 99.8 99.2 97.9 96.3 94.9 93.1 95.3 96 96.9 97.7 98.8 100.2 101.2 101.6 102.5 102.9 105.1 107.4 109 111 110.9 109.8 110.6 112.4 113.5 114.1 114.5 114.8 115.3 115.7 115.7 115.6 115.6 116 116.4 117.1 117.9 118 118.6 119.2 119.9 120.5 121 121.5 121.9 122.2 122.2 122.1 122.4 122.1 121.9 121.5 122.7 124.3 126 129.6 135.2 138.1 140 141.6 142.7 143.3 143.6 143.9 143.9 143.7 142.8 139.6 137.4 142.9 154.7 172.9 182.7 187.6 190.8 193.2 194.8 196.7 196.8 197 196.6 196.3 195.9 195.1 193.6 191.4 187.9 184.4 179.8 187.3 185.7 190.8 193.6 196.8 200.4 203.7 206.5 207.2 207.4 207.6 207 206.3 204.6 201.4 200.6 198.9 203 204.9 206.3 206.3 206.3 205.8 204.5 202.8 200.6 200.2 202.6 204.6 205.1 205.1 204.9 203.9 203 201.2 198.7 196.5 192.6 188.3 188 193.5 195.6 197.4 198.4 198.7
101.3 101 100.4 100.3 100.4 100.5 100.3 100.3 100.7 101.3 102.7 103 102.3 101.4 100.6 99.5 98.5 98.1 98.2 98 97.2 98.3 98.9 99.7 100.4 100.9 100.3 99.6 99.2 99.3 99.1 99.4 99.6 99.6 99.6 100 100.1 100.8 101.6 102.3 102.2 102.1 102 101.9 102.7 103.2 105 105 105.3 105.2 104.8 104.4 104.7 103.7 103.4 103.1 102.8 102.4 102.3 102.1 102 101.8 101.4 100.9 100.1 99.7 99.5 98.9 98 96.5 95 93.9 95.1 95.9 97.7 99.2 100.9 102.9 103.5 104.6 104.9 106.3 106.6 107.7 109.6 111.9 112.9 112.7 110.7 110.8 113.2 114.5 115 115.4 115.8 116.1 116.3 116.4 116.5 116.7 117 117.6 118.1 118.8 119.4 120.1 120.6 121 121.5 121.9 122.5 122.9 122.8 122.9 123.2 123 122.8 122 122.5 124.4 128.2 134 136.7 137.8 139 140.3 140.7 141.2 141.3 141.6 141.4 141 138.5 135.7 141.9 151.9 171.1 180.1 185.6 189.4 191.7 193.3 194.5 195 195.1 194.2 193.7 192.8 192.2 191.7 190.2 188.3 184.5 178.4 181.2 183.6 184.3 188.4 190.8 195.4 199.8 202.9 205.7 206.3 206.5 206.6 206.1 205.3 202.8 200.4 197.3 198 201.6 204.5 205.6 205.5 205.1 204 202 199.8 197.7 199.7 202.3 203.9 204.3 204.7 204.8 204 202.8 200.9 198.6 196.6 193.5 189.8 186.9 189.5 192.6 194.1 195.8 196.1
101 101 100.8 100.5 101.1 100.9 100.8 101.2 101.4 102.4 103 103.2 102.4 101.5 100.5 99.8 98.9 98.4 98 98.5 97.7 97.5 98.6 99 99.4 99.7 99.3 99 98.8 98.8 99.2 99.3 99.5 99.5 99.6 100.1 100.2 100.9 101.3 101.4 101.7 101.4 101 101.1 101.1 102.3 103.4 104.1 104.1 104 103.6 103.6 103.1 103 102.7 102.5 102 101.9 101.8 101.7 101.5 101 100.2 99.9 99.5 99.7 99.2 98.8 98.2 96.9 95.4 93.6 95.5 96.6 99 101.2 104.1 105.6 106.8 108.1 108.4 109.2 109 108.6 109.3 112.2 114.6 114.6 113.2 111.9 112.3 113.6 114.9 115.9 116.4 116.7 116.8 117 117.3 117.5 117.6 117.9 118.6 119 119.8 120.5 121.1 121.7 122 122.4 123 123.5 123.8 123.9 123.9 124 123.7 122.9 122.5 124.5 128.9 134.2 135.8 136.8 137.8 138.3 138.6 138.8 139 138.9 138.5 136.7 133.7 140 152 167.9 178.4 184 187.6 190.1 191.5 192.5 192.8 192.7 191.9 191.4 190.1 188.8 188.2 187.7 186.4 184.3 181.1 171.8 178.4 178.2 182.8 185.2 189.8 194.8 199.5 202.4 204.9 205.5 205.8 205.7 205.1 204.1 200.1 199.1 195.1 197.7 201 203.4 204.7 204.2 203.5 201.9 199.7 197.4 196.5 199.8 201.6 203.2 203.5 204.8 204.5 204.1 202.1 200.8 199.4 197.8 194.7 191.4 188.2 184.5 186.9 190.1 192.2 193.5
101.1 101.3 101 100.8 101.1 101.2 101.1 101.2 101.5 102 103.1 103.3 102.2 101.4 100.4 99.5 98.8 98.7 98.5 98.2 97.6 98.1 96.8 98.1 97.8 98.6 98.5 98.4 98.8 99.3 100 100.4 100.3 100.3 100.2 100.1 100.4 100.6 100.8 100.7 101.2 100.7 100.2 100.3 100.3 100.8 101.8 102.8 103.1 103 102.9 102.8 102.6 102.7 102.2 101.7 101.2 101.1 100.8 100.7 101.3 100.4 99.8 99.8 99.7 99.5 99.5 98.7 97.5 96.8 95.7 93.6 94.7 97.3 99.9 103.9 107.1 110.4 112 112.5 112.7 112.9 112 111.1 110.3 113.5 115.8 115.9 115.4 114.6 113.3 113.3 113.9 115.3 116.6 117.1 117.3 117.6 117.9 117.9 118 118.6 119.3 120.1 120.4 121 121.5 122 123 123.2 123.8 124.3 124.8 125 125.1 125 124.6 124.1 123.1 123.6 127.4 132 134.3 135.2 135.8 136.1 136.3 136.4 136.2 135.9 133.9 132.7 138 149.9 166.2 175.7 182.1 185.9 188.5 189.7 190.8 190.9 190.7 190.1 188.6 187 185.7 184.8 184.2 183.8 182.5 180.2 177.1 167.5 172.5 177.2 181.5 186.6 190.9 195.6 199.2 202 204 204.7 204.6 204.7 204.3 199.8 200 196.8 193.7 197.6 201.2 202.8 203.9 203.2 201.8 199.6 196.8 194.6 196.3 199.2 201.5 202.6 202.9 204.6 204.5 203.6 202.1 201 199.7 198.4 196.3 194.9 191.3 187.5 185.1 184.7 188.5 190.5
101.6 101.5 101.3 101.1 101.9 101.8 101.4 101.3 101.7 102.6 103.3 102.2 101.5 100.8 100.3 99.6 99 99 98.3 98 97.7 97.4 97 96.5 97.4 98.3 98.4 99.4 99.9 101.2 101.8 102 101.9 101.5 101 100.5 100.3 100.1 100 99.9 99.8 99.5 99.3 99.2 99.4 99.7 100.1 101.2 102.3 102.2 102.2 102 101.6 101.4 100.9 100.5 100.2 100 100.4 101 100.3 100.1 99.9 99.5 99.3 99.1 98.2 97.8 97.1 96.3 95.7 94.3 92.7 99.2 103.1 106.9 111.3 115.7 118 119.2 119.4 118.1 115.6 113.7 112.3 113.1 116.2 116.8 116.6 115.2 115.7 114.6 114.5 114.7 115.8 117.1 117.7 117.9 118.3 118.4 118.5 119.4 120.3 120.8 121.4 122.1 122.2 123 123.6 124 124.6 125.7 126 127.6 127.5 127.3 127.3 127.3 126 123.9 123.9 129.2 131.4 133 133.1 133.3 133.3 133.3 132.6 131.7 131.6 137.7 148.1 164.4 173.8 180.3 184.1 186.5 188 189 188.8 188.6 187.6 186.2 184.4 182.7 180.4 180.2 179.9 179.7 178.5 176.4 167.9 172.2 178.2 181.6 185.1 188.3 192.3 195.9 199.1 201.8 203.7 204 204.1 204.1 203.1 201.3 199.9 196.4 193.1 197.4 200.8 202.4 202.4 201.2 199.5 197 194.1 193 196.2 199.2 201.2 201.8 202.3 203.5 203.6 202.8 201.6 200.9 199.7 199.7 197.8 195.8 193.2 190.3 187.5 183.7 183.1 187.3
102.5 102.2 101.9 102.3 102.6 102.7 102.5 101.9 102.1 102.4 102.2 101.5 101 101 100.7 100.1 99.7 99.4 98.4 98.1 97.8 97.5 97.1 96.6 97 97.9 98.9 100 101.9 103.2 103.6 103.5 102.8 102.7 101.4 100.6 99.9 99.4 99.2 99.1 98.8 98.5 98.3 98.2 98.5 98.9 99 99.9 101.4 101.6 101.4 100.8 100.4 100.2 99.9 99.5 99.1 99.9 99.3 99.7 99.9 99.9 99.7 99.4 99 98.7 97.5 97 96.3 95.7 95.3 94.2 98.4 100.7 104.2 108.1 114 119.7 123.7 124.9 125.4 124.1 122.7 118.8 116 115.7 115.6 117.4 117.8 117 117.1 116.3 116.6 116.4 116.2 116.2 117.9 118.3 118.7 119.1 119.3 120 120.8 121.4 122.1 122.4 123.6 124 124.7 125.3 126.4 127.1 128.3 129.1 131.3 133.4 133.3 131.7 130.1 126.1 123.8 124.8 128.2 129.1 129.8 130.1 129.9 129.7 129.7 132 138 147.6 162.6 172 178.7 182.7 185.1 186.3 187.1 186.9 186.7 185.2 184 182.3 180.3 178.1 175.5 176.3 176.9 175.7 174.9 168.3 166.8 177 180.9 184.1 187.3 190.6 193.7 196.5 199.4 201.2 202.6 203.8 203.4 203 201.8 200 197.4 194 193.4 197.5 199.8 201.2 200.9 199.5 196.9 194.6 192.2 193.3 196.3 198.5 200.5 201.3 202.9 203.3 203.6 202.4 201.2 200.8 200 199 197.4 196.3 194.5 191.5 188.6 185.9 182.9 181.8
104.5 103.9 103.2 103.3 102.9 102.7 102.5 102.8 102.3 102.3 101.6 101.5 101.6 101.7 101.6 100.9 99.9 99.3 98.4 98.1 97.8 97.5 97.3 96.6 97 98.2 99.6 101.1 103.3 104.7 105 104.2 102.9 102.6 101.6 100.6 99.7 98.9 98.4 98.1 98 97.6 97.7 97.7 97.7 97.9 98 98.6 99.5 99.9 99.9 99.6 99.3 99.1 98.9 98.5 98.3 98.5 99 99.3 99.8 99.8 99.5 99.2 98.8 97.9 96.8 96.2 95.5 95.5 94 94.4 99.4 102.2 105.5 109.8 115.6 121.3 129.4 132.2 131.5 131 129.2 126.2 122.7 120.4 118.3 118.6 119.8 119.1 118.5 118.3 118.5 118.7 118.1 118 118.2 118.6 119.5 120.1 120.3 120.7 121.8 122.6 123.2 123.7 124.8 125.2 125.9 127.1 128.6 129.9 131.7 135.7 139.5 142.9 142.8 139.7 136 128.5 125.1 124.3 124.9 126.4 127 127.5 128.4 130.7 134.2 140 150.5 162.7 170.5 177.4 181.2 183.1 184.5 185 185.2 184.2 183 181.4 179.2 176.9 175.2 173.3 170.9 172.7 174.1 172.2 167.2 163.1 173.1 177.9 181.1 183.4 186.5 190 193.5 196.3 198.8 200.7 202.2 202.9 202.4 201.9 200.4 198.5 195.6 191.7 193.4 197.4 199.4 200.1 198.8 196.9 194.6 191.9 189.9 193.3 197 198.9 200.2 200.9 202.6 201.8 202 201.7 200.4 200 199.2 198.7 197.4 195.1 193.5 191.8 188.8 185.9 182.8 179.7
106 105 104.9 103.9 103.6 102.9 102.7 102.6 102.8 102.7 102.1 101.7 101.4 101.4 101.2 100.6 99.8 99.1 98.5 98.1 97.8 97.3 96.7 96.3 97.3 98.8 100 101.4 102.8 104.1 104.3 103.2 102.5 101.6 100.8 100 98.6 98.2 97.7 97.3 97.2 97 97 97 96.8 96.9 97.1 97.5 97.8 98.2 98.4 98.2 98.1 98 97.8 97.6 97.7 98.5 98.8 99.2 99.8 99.5 99.3 99 98.1 97.1 96.3 95.6 95.1 94.1 93.6 98.1 100.5 103.7 107 111.2 117.4 125 131.8 135.3 136.2 136.1 135.3 133.6 131.1 128.1 124.8 123.3 123.1 122.1 121.1 120.8 120.4 120 119.7 120.2 119.4 119.2 120.4 121.1 121.4 122.2 122.7 123.6 124.3 125.4 125.8 126.9 127.9 129.7 131.8 134.7 140.3 147.4 149.7 151 144.5 146.4 141.4 130 125.7 125 125.6 126.6 128.4 129.9 132.7 137.3 145.2 156.1 163.8 171.1 176.5 179.9 182.3 183.1 183.5 183.3 182 180.6 178.4 176.2 173.9 171.7 168.9 167.4 167.6 167.9 168.2 165.4 159.4 169.1 175.2 177.8 178.4 182 186.1 189.5 193 195 197.8 200.4 201.7 201.8 201.7 200.8 199 196.8 194 189.8 193.6 196.6 198.1 198.4 196.9 194.7 192.1 189.1 190.1 193.4 196.7 198 199 199.2 199.5 199.4 199.7 199.3 197.8 198.8 199.4 197.9 197.5 194.9 193.8 192.1 187.9 185.1 182.4 180.2
107.1 106 105.7 105 104.5 103.8 103 103.2 103.1 103 102.5 102.2 101.8 101.1 100.5 99.8 99.7 99.2 98.7 98.3 97.9 97.8 96.8 96.1 97.1 98.5 99.8 100.8 101.8 101.7 101.6 101.3 100.6 100.1 99.4 98.7 97.8 97.4 96.9 96.8 96.5 96.5 96.2 96.2 96.3 96.3 96.4 96 96.2 96.4 96.6 96.7 96.9 96.9 97 97.5 97.6 98.4 98.7 99.6 100.5 100.2 99.8 98.9 97.9 96.5 95.9 95.2 94.4 92.9 96.6 98.6 101 104.2 108.1 113.3 119.1 128.7 133.7 137.8 139.1 140 139.9 139.6 137.8 135.7 133.5 131.8 129.9 127.9 126.2 125.1 123.8 122.9 122.6 122.4 121 119.6 121.1 121.7 122.2 123.1 124.1 124.6 125.7 126.5 128.4 129.4 132.1 136.5 141.3 147.3 151.5 155 157.8 157.5 155.1 149.8 143.2 130.4 125.8 126.4 127.8 129.9 131.6 137.1 145 154.1 160.4 166 171.6 175.9 179 180.8 181.5 182.1 181.4 180 177.6 175.5 172.7 169.5 166.9 164.8 162.5 160.1 161.5 160.5 158.2 155.9 159.4 167.1 172.5 174.1 177.2 181.5 185.4 188.5 190.4 193.3 197 199.9 201.2 201.5 201.1 199.2 197.1 194.9 192.7 188.7 193.1 195.7 196.8 196.5 195.1 192.6 189.3 186.7 190.4 193.7 196 197.8 198.9 198.5 198.4 197.6 197 195.7 195.3 197.2 198.2 196.9 196.3 194.8 193.4 191.3 188 184.4 184 181.8
107.8 106.8 105.8 105.1 104.4 104.1 104.3 104 103.6 103.2 102.7 102.5 101.8 100.9 100.5 99.9 99.4 99.1 98.7 98.3 98 97.9 97.6 96.6 95.9 98.8 99.2 99.9 100.2 100.5 99.6 99.1 98.7 98.4 97.7 97.1 97.3 97.1 96.4 96.2 96.2 96.2 95.9 95.9 95.8 95.3 95.2 94.9 94.7 94.5 95.5 95.7 95.9 96.1 96.6 97.1 97.8 98.5 99 100.3 101 100.8 100.2 98.9 97 96 95.5 94.3 93.6 96.4 97.9 99.6 101.6 104.7 108.7 114.1 121.9 131.2 136.3 139.8 141.1 142.8 143.3 143.6 143 141.6 140.6 139.1 137.5 135.4 133 131.3 129.1 127.6 126.5 124.1 122 120.9 121.9 122.5 123.2 124 124.9 126.5 127.3 128.5 130.4 134.7 139.8 145.5 151.7 156.4 159.9 162.3 163.2 162.7 158.8 153.1 144.2 129.9 125.9 126.8 130 133.6 140.1 147.9 156.7 162.4 167.6 172.9 175.2 178 179.3 180 179.9 179.2 177.9 175.7 172.7 168.7 165.3 162.3 159.1 156.2 154.3 152.6 152.1 154.4 158.7 162.1 165.4 170 170.3 171.4 174.3 178.1 182.3 186.3 190.2 194.3 197.5 199.8 201.3 201.4 200.7 199.2 195.8 193.5 190.4 187.2 192 194.4 194.8 194.3 192.9 190.5 186.8 186.7 190.6 193.9 195.9 196.7 197.4 197.3 196.2 196.1 194 192 193.5 195.6 196.2 196.7 196.1 194.9 193.4 191.6 189.6 187.5 186.3 184
108.9 107.5 106.2 105.4 104.7 104.4 104.4 104.3 103.9 103.4 102.8 102.3 101.5 101.2 100.6 100.1 99.9 99.7 99.3 98.6 98.1 98 97.9 97.6 95.6 97 98.6 99.1 99.6 99.4 98.4 97.8 97.3 96.7 96.9 96.5 96.2 94.7 96.4 95.7 95.9 95.8 95.3 94.6 94.1 94.8 94.4 94.2 94.3 94 94.9 95.1 95.4 95.7 96.2 96.9 98.1 98.7 99.8 101.9 102.2 102.2 100.6 98.6 96.7 95.2 95.1 93.6 95 97.1 98.3 99.9 102 104.9 109.1 115.2 124.6 132.7 137.6 141 143.2 145 146.2 146.5 146.6 145.4 145.7 143.6 141.8 140.6 139 136.7 134.5 131.8 129 125.4 123.2 122.4 123 124.1 124.5 125 125.8 127.7 129.7 131.7 134.4 140.2 146.8 153.2 158.3 162.8 165.6 167.1 167.1 164.9 160.5 154 145.9 130 126.2 128.5 132.4 140.8 148.6 155.9 162.4 167.8 171.4 174.7 176.6 177.8 178 177.9 177.3 175.8 173.2 170.3 166.2 162 158.8 153.2 150.1 148.9 152.7 156.4 159.9 163.8 167.7 166.1 170.3 170.1 174.6 174.8 177.7 179.9 184.9 189.4 193.1 196.3 199.1 200.6 201.6 201.5 201.1 200 198.1 195.2 191.4 187.1 188.8 192.2 192.8 191.9 190.4 187.9 184.2 187 191 193.2 194.9 195.2 195.5 195.8 194 192.1 190.9 189.6 191.8 194 195.4 196.2 195.7 194.9 193.4 191.7 190.7 189.8 188.1 185.8
107.4 106.5 106.5 105.9 105.1 105.4 105.1 104.7 104.1 103.4 102.7 102.3 102 101.6 101.1 100.6 100 99.8 99.2 99.4 98.4 97.8 97.6 97.6 96.9 96.9 98.8 99 98.6 98.3 98 96.4 94.5 96 96.2 95.5 96.6 96.1 95.7 94.8 94.6 95.4 94.4 94.9 94.7 95.2 95.6 95.1 95.5 94.4 93.6 95.3 95 95.3 96.6 97.1 97.9 98.8 100.4 102.3 103.5 102.6 101.1 98.5 96.4 95.2 94.9 93.1 95.1 97.1 98.3 99.8 101.9 105.2 109.5 117.1 126.5 133.7 138.8 141.6 144.5 146.6 148.2 149.2 149.3 148.8 147.7 146.7 144.3 143.4 141.9 139.9 138.2 134.8 130.7 126.9 124 122.8 125.5 127.2 127.3 127.1 128.1 129.8 133.7 136.8 140.6 146.5 153.2 159.1 164.1 167.3 169.3 169.9 169.2 166.7 162 155.7 144.2 131.2 126.9 130.3 136 144.6 151.6 159.3 165.5 169.5 172.1 174.9 175.8 176.4 176 174.8 172.9 171.1 167.9 163.7 159.4 153.7 147.7 147.2 152.8 157 161.7 166.9 170.3 171.9 172.9 171.7 172.9 174.2 175.1 178.6 180.5 183.9 185.3 190.4 194.5 197.4 200.1 201 201.7 202 201.7 200.3 198.3 195.7 192.1 187.5 184.7 189.4 190.1 189.3 187.9 184.8 183.1 187.6 190.5 192.8 193.4 194 194.7 194.9 190.1 188.6 186.8 188.8 190.8 192.7 194.6 195.8 195.5 194.8 193.5 193.1 192.1 190.6 188.9 186.6
107 106.5 105.9 105.6 106.1 105.9 105.5 105.1 104.4 103.4 102.9 102.7 102.4 102 101.6 101 100.6 99.8 99.3 98.7 99 97.6 97.5 97.5 97.5 97 98.1 98.3 97.8 97.4 97.2 95.8 96.2 96.6 97 97 96.8 96.5 96.7 96.9 96.9 94.7 95.8 96.2 96.3 96.8 96.4 95.9 95.5 96 94.1 94.2 94.4 94.8 95.3 97.1 98.1 99.2 100.4 101.2 101.6 101.7 101 98.6 96.6 94.9 94.7 92.5 95.7 97.5 98.6 100 102.1 105.3 109.6 117.5 127.8 134.7 139.3 142.3 145.2 147.1 148.6 150.2 150.9 150.1 148.7 147.2 146.3 145.2 144.2 143.1 141.5 138 133.5 128.5 125.1 123.8 128.8 130.5 130.2 129.9 131.2 133.6 137.6 143.5 147.5 152.4 159.2 164.2 167.7 169.9 171.1 171.5 170.9 167.9 163.1 156.1 143.1 131.7 127.3 129.8 135.3 143.5 150.3 158 165.3 168.7 171.4 173.3 173.9 173.5 171.8 170.6 168.3 165 161 156.6 151.5 144.3 148 155.8 160.7 165.7 170.3 172.2 173.9 175.5 176.6 176.4 176 178.7 180.7 181.5 184.5 187.2 190.5 191.7 195.7 198.6 200.4 201.6 202.5 202.3 201.9 200.7 198.6 196 192.6 189.3 185.4 183.9 187.1 186.5 185.3 182.1 182.6 187.1 191.3 191.6 191.6 192.4 193.4 194.4 190.9 185 185.8 188.6 190.8 192.4 194.2 195.4 195.5 194.8 194 193.8 192.8 191.2 188.5 187.3
107.5 107.1 106.8 106.5 106.3 105.9 106.6 105.2 104.6 103.9 103.7 103.2 103.1 103.2 103 102.1 101.5 101 100.1 99.4 98.6 97.9 97.4 97.3 97 96.5 97.3 97.8 97 96.9 95.9 96 96.8 97.4 97.7 97.5 97.2 97.7 97.8 97.3 97.3 97.8 97.7 98.2 98.6 98.6 98.2 97.8 97.4 96.7 96.2 94.5 94.2 94 95.5 96.6 97.9 99.4 100 100.3 100 100.5 99.8 97.8 96 95.3 93.3 94.6 96.5 97.3 98.5 99.9 102.5 105.7 110.1 118.7 128.8 134.5 138.7 142.1 144.7 146.7 148.3 149.2 149.4 149.1 148.1 147.1 146.5 146.7 147.3 145.8 144.2 141.9 136.9 132 126.8 124.9 129.1 132.2 133.3 133.7 136.7 139.5 144.9 149.5 155.3 159.3 163.9 167.7 170.4 172.4 173.2 173.2 172.3 169.7 165.8 159 147.3 134 127.9 128.6 130.6 133.8 141.3 153.4 162.1 167 169 170.1 170.4 169.5 167.5 165.3 162.1 158.5 153.2 149 143.3 145.5 153.5 160.8 166.4 168.7 171.5 173.7 175.5 177.3 178.9 179.7 179.8 182.2 184.8 186.1 188.3 190.6 193.9 196 197.9 200.2 201.4 202.3 203.1 202.6 202.2 201 198.9 195.8 192.2 188.4 185.7 182.6 181.8 181.6 180.3 179.1 183.4 188.4 189.4 189.7 190.1 190.2 191.7 192 191.5 182.2 186 189.2 191.6 192.9 194 194.5 195.4 195 194.6 193.9 193.5 191.6 189.2 187
108.4 107.9 107.8 107.4 107.1 106.6 106 106.2 105.6 104.6 104.2 103.8 104 103.9 104 103.9 103.2 102.4 101.6 100.5 99.5 98.6 97.9 96.9 96.6 96.3 97.1 97.3 97 96.5 96.1 96 98.7 98.9 98.7 98.1 98.2 99.4 99.8 98.5 98.9 99.3 99.8 100.4 100.8 100.3 99.8 99.1 98.6 97.4 96.3 94.7 94.4 93.4 94.9 96.6 97.5 98.4 98.9 99.5 99.3 99 98.7 96.9 95.5 94.5 93.2 93.8 96.8 97.2 98.2 99.6 102.2 105.4 110.7 119.6 129.1 134.2 138.3 140.9 143.2 145.2 146.5 146.9 147.1 146.9 146.5 146.1 145.6 146.6 147.7 148.7 148.7 145.9 142.3 137.3 130.1 125.9 127.4 131.5 135 138.3 141.8 146.2 151.2 156.2 160.6 164.6 167.8 170.2 172.6 174 175.1 174.8 174.2 171.9 168.2 163.3 154.5 140 131.4 128.6 128.6 130.1 133.9 141.9 153.5 161.7 166.4 167.5 166.5 164.5 161.3 157.7 153.5 149.7 146.6 142.8 144.9 149.5 151.7 154.5 161.8 167.8 170.3 173 174.9 177.2 179.6 182.1 183 185.7 188.7 190.6 191.9 194.4 196.6 198.4 200.1 201.4 202.4 202.8 203 202.7 202 201 198.8 195.9 192.7 189.9 187.5 185 182.9 183.7 185.2 186 186.3 186.3 187.2 188.2 189.4 189.7 190.8 189.6 189.1 185.5 186 189.1 191.5 192.8 193.9 195.1 194.5 194.6 193.9 194 193.2 191.8 188.2 185.4
109.3 109.1 108.8 108.5 108.1 107.8 107.5 106.4 105.6 106.6 105.4 106 106.3 106.7 106.8 106.3 105.5 104.7 104 102.5 101.2 100.4 99.1 98.9 96.6 97.5 96.9 96.7 96.9 96.6 95.3 97.5 98 98.8 99.3 98.4 98.7 99.3 99.7 99.5 99.9 100.8 102 102.8 102.6 101.9 101.3 100.2 98.3 96.1 96.7 96.5 95.2 93.8 94.1 95.4 96.3 96.7 97.2 97.7 98.1 98.2 97.5 96.6 95.7 94.4 92.3 94 96.1 97.4 97.7 99.3 102.1 105.6 111.2 120.3 128.4 133.7 137.2 139.4 141.6 143 143.7 143.9 144.1 144 143.6 143.3 143.8 145.7 149.7 151.8 153.2 152.2 148.9 143.9 135.6 128.9 127.1 130.1 134.4 139.5 145.7 151.2 157.4 161.7 165.1 167.9 170.6 172.9 174.6 176 176.5 176.5 175.6 173.9 171.4 167.4 159.3 149.4 138.4 132 130.1 129.4 130.9 134.8 142.9 154.8 161 162.9 160.4 156.8 153.1 149.4 146.5 143.7 141.4 144.8 152.1 157.7 161.5 162.2 162.2 162.4 163.3 168.5 171 174.5 178.1 183 185.8 188.7 191.4 193.9 195.5 197.1 198.7 200 201.6 202.5 203.1 202.9 202.7 202.9 201.9 201.1 199.8 198.2 195.9 193.7 191.6 189.9 188 187.1 185.8 185.4 184 183.7 184.3 187.6 188.7 188.9 189.1 188.5 188.3 184.2 187.1 189.6 191.3 192.7 193.5 194 194.7 193.7 193.6 193.1 192.5 190.3 188 184.6
111.5 110.7 110.4 110.2 109.9 109.8 108.6 108 106.5 106.8 107.8 109 109.6 110.1 110.6 109.4 108.3 107.2 106.5 105.1 103.6 102.4 101.7 100.6 99.2 96 97.2 96.7 96.5 95.8 95.9 96.3 97.7 97 97.3 97.7 98.9 99.3 99.9 100.6 101 102.6 103.2 103 104 102.4 101.5 100.4 98.1 98 96.7 95.7 95.2 93.7 94.3 94.7 95.3 95.4 95.6 96.3 97.1 97.3 97 96.2 95.3 94.5 92.9 93.3 95.7 96.9 97.7 99.8 102.4 105.7 111.5 121.7 128.1 132.8 136 137.8 139.6 140.4 140.6 140.9 141.2 140.9 140.5 140.6 140.9 144.3 149.4 154 157.2 157.1 155.6 151.3 145.3 134.6 129.3 129.3 132.7 138.3 147.3 153.9 161 165.1 167.2 169.6 172.6 174.8 175.9 177 177.7 177.7 177.3 175.4 174.1 170.7 165.4 155.9 145.9 136.6 133.6 131.6 130.8 132.6 136.2 145.3 153.5 154.4 152.1 148.8 145.6 142.2 140.1 140.6 145.3 153.5 158.1 164.3 166.9 168.6 169.4 169.7 169.4 168.8 172.8 176 179.5 183.2 187.5 191 193.7 195.7 197.3 199.3 200.1 201.5 202.1 202.5 202.5 202.4 202.1 201.8 201.8 200.9 200.2 199 198 196.4 195 193.6 192.5 190.6 188.5 185.4 181.7 180.3 182.2 184 186.4 187.3 187 186.1 186.3 184.3 187.1 189.6 191.5 192.8 193.3 193.4 193.3 193.5 193.2 192.8 191.3 189.6 187.6 185.2
114.2 113.2 112.7 112.1 111.6 111.7 110.1 109.2 107.7 107.9 110.2 111.9 114.8 119.7 119.8 119 114.9 112.6 111.2 108.9 107.3 106.1 105.1 104 103 98.8 95.4 97.7 97.1 98.7 98.4 99.6 99.8 99.8 98.8 99.5 99.7 100.4 100.3 101.4 101.9 102.8 103.2 102.9 102.6 101.5 101 99.8 98 97.1 96.1 95.8 95.1 93.6 94 94.1 94.4 94.4 94.4 95 96 96.3 96.3 95.8 95 94.8 92.9 93.5 94 96.3 97.5 99.4 102.1 105.3 110.9 120.5 127.8 132.5 134.2 136.5 137 137.7 138 137.9 137.6 137.4 137.4 137.1 138.5 142.4 150.1 155.9 160.8 162.4 160.7 157.5 152.6 142.5 133.3 130.4 131.5 135.7 143.9 154.2 160.4 164.2 167.1 170.9 173.7 175.8 177.2 178.3 178.8 178.7 178.1 177.3 175.6 173.1 168.5 161.6 153 142.9 137 134.9 133 131.1 133.5 138.3 147.4 147.6 144.6 141.3 138.6 138.8 143.1 149.8 155.2 159 164.1 168.2 169.8 171.2 171.7 172.1 172.8 173.1 175.1 178.7 182.6 185.9 189.3 193 195.6 197.6 199.2 200.5 201.5 201.8 201.9 202.1 201.8 201.4 201.2 200.3 200.7 200.1 199.8 199.4 198.2 197.3 195.9 194.6 193.4 191.7 190.3 188.2 185 182.6 176.7 175.3 179.1 181.6 183.9 185 185.5 184.3 186.6 189.1 190.9 191.9 192.8 193.1 193.1 192.9 192.1 191.4 190.1 188.8 186.2 183.8
117.6 117 116.1 114.7 114 113.1 112.2 110.9 109.1 109.2 113.2 118.1 127.3 137 136.1 132.7 127.4 122.2 121.2 117.7 113.3 112.6 109.8 107.7 105.6 103.1 101.6 100.8 99.5 100.9 101.2 101.3 101.8 102.1 102.2 100.4 100.7 100.7 101.4 102.1 102.5 103.1 102.8 102.6 102.1 100.6 100 100.2 96.6 96.9 96.8 96.4 95.8 93.6 93.5 92.8 94.1 93.8 94.3 94.1 94 94.9 95.1 95.1 94.8 94.7 93.4 92.7 93.3 95.7 97.4 99 101.7 105.1 110.6 120.6 127.1 131.1 132.6 133.9 134.4 134.6 134.6 134.4 134.1 133.9 133.7 134 136.2 141.8 149.5 157.6 163.5 165.4 164.8 162 157.8 151 139.8 134.3 132.3 133.7 138.7 147.6 156.3 160.1 165.4 170 173.9 176.6 178.2 179 179.5 179.6 179.3 178.2 176.9 174.9 171.3 166.9 160.1 150.6 142.9 138.3 135.9 133.1 131.8 134.8 140.7 140.6 138.2 136.4 141.3 148.2 152.9 156.7 160.8 164.8 167.6 169.2 170.2 171 172.1 173.9 174.4 176.5 178.7 181.8 185.5 188.9 192.3 194.9 197.3 199 200 201.1 201.4 201.2 200.9 200.5 200.3 199.6 199.3 199 198.9 199.1 198.7 198.5 197.8 196.5 195 194.2 193.5 192.3 191.2 188.7 186.9 184.2 181.2 176.7 172.1 174.1 177.4 181.9 183.8 184.1 186.4 189 190.6 191.3 192.1 192.4 192.7 192 191.7 190.8 189.3 187.4 185.2 183.2
122.2 120.8 119.7 118.2 117 115.2 114.3 113 109.3 110.5 118.6 129.9 144 147.5 146.4 144.9 142.9 140.5 135.9 131.9 126.7 123 117 112.6 109.4 106.7 105.1 105 104.5 104.6 104.2 103.6 103.9 103.6 103.7 102.3 101.8 101.8 102.3 102.7 102.7 102.8 102.4 101.8 101.3 100.2 99.3 99.6 97 98.2 98.5 98.6 97.3 96.1 94.1 93.7 93.3 93.8 92.8 93.9 93.3 93.9 93.9 94.7 94.4 93 92.5 92.2 91.6 96.1 97.5 99 101.7 105.4 111 120 127.3 129.3 130.1 130.9 130.6 130.5 130.9 130.4 130.8 131 130.5 130.3 133.1 141 149.9 159.4 164.9 167.1 167.3 165.9 163 156.9 148.9 139.9 136.5 135.2 136.7 140.7 145.6 154.4 161.1 168.2 173.4 176.9 178.6 179.6 180.2 180.1 180 179.4 178.3 176.6 174.4 171.4 166.1 159.7 153.3 148.9 143.5 138.8 134.1 133 134.4 135 137.7 143.6 151.2 154.8 159 162.6 163.8 165.4 166.2 166.5 167.3 168.4 169.3 171.1 175.1 179.1 182.2 185 188.5 191.6 194.7 196.8 198.7 199.9 200.4 200.4 200.5 200.1 199.4 199.1 197.9 197.1 196.9 197.2 197.7 197.8 197.8 197.4 196.5 195.1 194.2 193 192 191 190.2 188.4 187.2 185.1 183.1 180.6 177.2 171.3 170.3 176.4 180.8 182.8 186.4 189 189.9 190.6 191.4 191.5 191 190.8 190.3 189.7 188.8 186.6 184.3 180.9
127.2 124.9 123.3 121.7 118.9 117.3 116.4 115.2 110.9 111.6 124.6 142.5 154.1 157.2 156.4 155.1 152.7 149.6 146.5 143 138.1 131.2 124.2 121 116 112.9 111.2 110.3 108.5 108.7 107.7 107.6 107.1 106.4 105.6 104.2 103.5 103.3 103.7 103.9 103.7 103.2 103 102 101.1 99.9 99.4 99.3 97.2 98.7 98.7 98.9 98.4 97.1 96.5 96.5 97 96.6 95.8 94.5 93.2 92.3 93.4 95.4 93.7 93.2 93.1 92.5 93.4 96.3 97 99.2 102.2 105.5 110.7 118.8 125.6 127.5 127.6 127.3 127 126.7 127 127.4 127.7 127.5 127.7 126.9 130.6 140.3 150.5 160.9 165.7 168.4 169.3 168.9 166.9 163.7 157.3 150.1 144.3 141.3 140.6 142.7 150.2 158.1 165.5 170.7 175 177.7 179 180.1 180.6 180.5 180.4 180.2 179.1 178.1 176.4 174.7 171 167.5 163.8 157.8 152.6 147.3 140.5 134.2 135 140.1 145.7 152.3 156.3 160.1 162 162.6 162.5 161.9 161.7 160.7 160 163.3 167.2 171.3 176.4 181 184.7 188 191.1 194.1 196.6 198.1 199.2 200.1 199.9 199.6 199.1 198.9 197.2 196.6 195.5 194.6 194.3 195.1 196.6 196.3 196.4 195.7 194.8 193.8 192.7 191.3 189.8 189.6 188.7 186.7 185.7 184.5 183 181.4 179.3 174.9 169.8 172.4 177.4 182 186 188.4 189.1 189.6 190.1 190 189.8 189.6 189.3 188.6 187.4 186.5 184.3 182.2
130 127.4 125.3 123.4 121.1 119.7 118.3 117.2 111.2 112 127.1 149.6 162.9 165.5 166 164.6 161.3 157.9 154.4 150.6 146 141.1 136.8 135.4 132.4 125.9 123.1 121.4 114.2 114.6 116.2 114.5 112.2 111 108.7 107.3 106.1 105.7 105.8 105.8 105.5 105 103.8 102.9 101.7 100.7 100.3 100.3 100 99.5 100 99.2 98.4 97.3 96.9 96.6 97.2 96.4 96.1 95.6 95.8 93.5 93.4 93.5 95.1 94.1 93.4 93.1 94.4 95.7 96.9 99.4 102.2 105.8 110.3 115.7 121.8 123.4 122.4 121.2 119.9 120.5 121.8 123.3 124 123.5 124.3 124.1 129 141.3 151.8 161.2 166.6 169.8 171.3 171.4 170.3 168 164.9 159.4 153.7 150.5 149.4 152.3 155.4 162.1 167.6 172.8 176 178.2 179.5 180.5 180.7 180.6 180.4 180.1 179.7 178.8 177.7 176.4 174.7 171.7 167.9 163.3 157.6 151.9 144.4 135.5 138.1 143.9 150.8 155.3 158.9 161.4 160.6 159.3 157 155.5 155.2 159.7 162.2 165.2 169.8 174.3 178.6 183.5 187.4 191 194 196.1 197.9 198.8 199.5 199.2 198.8 198.5 197.2 196 194.8 193.8 192.5 192.1 192.2 193.9 194.9 194.7 194.1 194 193.4 193 191.6 189.5 187.8 187.6 187 185.6 183.3 182.8 181.9 180.7 178.7 175 169.1 171.1 178.1 183.1 185.8 187.5 187.8 188.1 188.2 188.4 188 187.9 187.8 187.3 186.8 186.2 185.2 183.5
130.2 127.6 126.1 124.2 121.5 120.8 120 117.9 111.7 113.2 128.5 155.2 170.8 172.7 172.4 170.6 168.4 164.7 160.6 156.3 152.5 148.9 145 141.6 139.1 136.2 132.5 131.1 129.1 127.2 125.5 122.7 120.6 119.6 116.3 112.9 110.3 109.1 108.5 108.3 107.5 106.7 105.5 104.3 103.1 102.9 101.6 101.3 100.9 99.7 99.6 98.6 97.6 96.8 96.9 97.3 97.4 96.6 96.5 97.1 96.9 96.3 95.8 95.4 94.9 94.3 93.4 92.1 93.5 95.1 96.5 98.7 101.6 104.9 108.2 111.3 114.6 115.1 115.1 114.7 114.2 115.1 116.6 118.4 119.2 120.6 121.5 121.1 128.3 142.4 153.4 162.7 167.5 171.3 172.7 173.1 172.9 171.9 169.8 167.1 164.4 161.2 160.3 161.9 164.4 167 170.8 174.5 176.6 178.5 179.8 180.4 180.5 180.1 179.9 179.6 179.5 179 178.7 177.6 176.2 174.2 170.4 165.9 159 151.8 143.8 136 139.1 145.6 150.7 154.5 156.1 155.9 154.4 152.8 150.8 155.7 158.7 161.2 166 168.8 173.2 177.5 182.4 186.5 190.4 193 195.8 197.7 198.7 199.4 199.1 198.8 197.4 196.4 194.7 193.1 192.4 191.2 190.4 189.5 191.6 193.2 193.2 192.8 191.8 192 191.8 191.4 190.5 188.8 186.4 184.1 184.3 182.5 180.1 180 180.3 178.9 176.3 172 167.4 172.2 179.2 183.1 184.9 186 186.3 186.4 186.6 186.8 186.3 185.8 185.9 185.4 185.5 185.3 184.7 184.9
127.1 125.2 123.9 122.7 121.1 120.4 119.6 115.5 111.7 118.6 139 162.9 174.8 176.2 175.8 174.6 172.5 169.5 166 161.8 157.5 154.1 150.4 146.9 144.2 140.4 139 137.6 135.6 134.1 132.6 130.6 128.5 126.1 122.9 119.8 117.8 115.7 114.5 111.6 110.4 109.2 107.7 106.2 104.7 103.8 102.8 102.4 101 99.1 99.6 98.9 98.4 97.4 97.6 97.6 97.3 97 97.7 98.2 97.6 97.2 96.8 96.4 95.7 94.9 93.9 92.3 92.9 94 95.4 97.5 100.2 102.9 105.5 107.7 109.8 109.5 109.4 109.4 110 111.1 112.8 113.5 114.3 116.4 116.7 118.6 130.2 143.5 155.3 163.5 169.1 172.4 173.9 174.7 174.9 174.3 173.5 172.3 170.8 168.5 168.3 169.3 170.3 171.8 174.1 176.1 177.3 178.2 179.2 179.8 179.8 179.6 179.3 179.1 179 178.8 178.9 179.1 178 176 172.1 167.6 160.5 151.7 143.7 138.3 138.3 141.8 145.5 148.2 149.7 148.4 146.9 150.2 153.3 157.3 162.3 163.9 167.9 173.3 177 181.6 185.8 189.5 192.8 195.1 197.2 198.2 199.9 198.9 198.6 196.9 195.3 193.8 192.3 190.6 189.5 188.9 187.4 189.4 190.8 191.2 191.5 190.9 189.6 189.8 190.4 189.9 189.3 188.1 186.3 184 179.7 178.7 177.1 176.6 176.9 176.4 173.8 169.5 167.4 174.7 180.2 183.2 184.1 184.2 184.2 184.2 184.2 184.3 184.3 183.7 183.7 183.5 184.4 185.1 185.3 185.3
123.6 122.2 121.6 119.7 118 117.2 115.4 113.5 117.4 132.1 152.7 172.2 176.8 176.9 176.5 175.4 174.5 173.1 170 165.3 160.9 157.2 152.9 149.3 144 141.8 141.6 140.4 138.8 137.9 136.6 135 133.5 131.6 129.4 127.2 124.7 122.3 119.6 117.1 115.4 112 110.4 108.6 106.9 105.7 103.8 103 100.7 100.2 100.6 99.6 98.8 97.8 97.8 97.9 98.1 98.4 99.2 99.3 98.2 98 97.7 97.4 96.4 95.3 94.4 92.2 92.4 93.4 95.2 96.6 98.6 101 102.6 103.9 105.3 106.3 105.9 106.3 107.1 108 108.6 109.8 110.6 111.7 112.5 117.4 131.5 148 157.7 165 169.7 173.2 174.7 175.9 176.3 176 175.7 175.1 174.7 173.4 173.1 173.5 174.4 175.4 176.3 177.2 177.2 178.3 178.2 178.5 178.2 177.9 177.4 177.4 177.8 178.1 179.2 179.8 179.2 177.9 174.9 170.7 163.8 154.1 146.1 143.7 142.8 142.1 141.4 141.8 144 147.7 149.9 153.7 157.3 161.5 165 169.3 173 176.7 181.4 185.3 188.8 192.1 194.7 196.6 197.5 198.9 199.3 197.6 196.8 195.1 193.2 191.2 189.8 188.4 187.2 185.7 186 188.5 189.7 189.5 189.4 188.8 187.4 188 188.5 188.7 188.3 187.3 185.5 183 180.3 177 174.7 172.8 172 172.7 170.8 165.8 170.8 176.8 180.6 182 182.9 182.5 182.4 181.6 181.4 181.5 182 181.8 181.2 181.5 183.6 184.9 185.9 185.5
122.3 119.9 118.4 117 115.8 115.7 116.2 120.4 133.1 149.9 168 174.7 177.4 177 176.6 175.9 174.9 172.7 169.6 164.3 160.3 156.3 153 149.5 143.7 145.4 143 141.7 140.8 140 139 137.9 136.9 135.9 133.8 132.1 130.2 127.8 125.3 122.4 118.7 115.9 112.4 110.1 107.8 106.3 105.1 103.7 101.9 101.2 101.1 100 99.3 98.5 98.7 98.8 99.2 99.5 99.8 99.8 99.1 98.6 98.3 98 97.1 96.2 95.3 93.7 91.8 92.2 93.5 95.8 96.9 98.6 100.2 100.5 101.7 102.8 102.8 104.3 104.8 105.8 106.1 107 108.1 109.1 111.3 120.3 139.6 155.2 161.4 166.5 170.5 173.4 176 176.8 177.1 177 177.3 177.3 176.7 176.1 176.3 176 176.5 176.9 176.7 177 177.6 177.1 177 176.5 175.7 175.2 175 174.6 174.6 177.1 178.9 180.2 180.8 180 178.6 174.3 167.9 160.9 150.3 153.2 150.4 151.4 149.7 149 149.6 155 158.4 159.4 163.9 167.4 171.1 174.4 177.9 181.8 184.7 188.6 191.9 194.3 196.4 197.4 197.6 198.5 197.9 196.2 195.2 192.9 190.4 188.6 186.9 186.2 184.8 183.4 185.7 187.5 188.1 188.4 188.5 187 185.8 186.1 186.7 187.5 187.7 186.9 185.8 183.8 182.2 179.4 177.2 175.5 172.2 168.5 166.7 164.5 172.7 178 180.2 181 181.4 180.9 179.7 179 178.6 179.1 179.7 179.3 178.7 179.9 182.2 184.3 185.7 186.5
123.9 119.9 117.6 118.4 120.2 122.5 127.4 137.8 152.8 167.1 173.2 176.6 176.9 176.9 176.3 175.2 172.6 168.1 163.4 159.8 157.1 152.4 150 147.8 146 144.3 142.5 141.5 140.6 140.1 139.6 138.9 138.3 137 136.2 134.9 133.2 131.6 129.5 127.1 123.8 120.6 117.2 114.1 110.8 107.9 106.5 105.4 104 101.5 100.4 100.9 100.1 99.1 99.3 99.4 99.6 100.2 100.4 100.4 99.9 99.4 98.9 98.5 97.8 96.7 94.9 93.9 92.9 90.3 91.9 94.6 95.7 96.7 97.9 98.2 98.9 100.2 101.4 101.3 102.5 103.3 104.4 105.1 105.8 107.2 113.3 128.8 150.2 158.1 164.4 168.7 171.5 174 175.4 176.8 177.2 177.9 178.4 177.9 177.1 177.3 177.3 177.1 176.8 176.5 176.7 176.4 175.4 174.7 174.4 173.5 172.2 171.6 171.5 171.6 173.4 175.8 179.5 181.1 182.2 182.1 180.7 177.6 173.3 165.3 158.9 162.2 160.2 163.8 162.7 159.4 159.8 165.7 167.2 167.9 170.3 174.9 177.8 180.1 183.5 185.8 188.2 191.2 193.7 196.1 197.5 197.6 197.6 196.6 196.2 194.6 193.1 191 188.9 187 184.6 183.8 182.1 182.8 185.4 186 186.6 186.7 185.9 184.4 183.1 184.2 185.1 186.4 186.7 186.6 185.9 184.3 182.7 180.9 179 177.1 174.9 171.7 165.6 164.8 173.7 177.4 179.4 179.7 179.9 179 177.2 175.6 175.8 176.8 177 176.1 176.9 179.4 181.2 183.8 185.5 186.6
121.5 119.9 123 127.4 134.6 140.2 149.4 161.4 167.1 172.7 175.6 176.7 176.9 176.4 174.7 171.5 167.3 162.6 158.2 154.2 150.3 148.1 146.2 144.7 143.3 141.8 140.5 140 139.7 139.3 139.2 139 139.1 138.4 137.7 136.2 134.6 133 130.4 128.7 126.4 122.8 119.8 116.5 113.1 107.7 107.1 105.9 104.2 102.6 101.5 100.7 100.3 99.7 99.6 99.8 100.1 100.8 100.9 101.1 101 100.2 99.7 99.6 97.6 96 94.4 93.9 93.9 92.9 90.6 90 94.8 95.1 95.7 96.6 97.4 98.2 98.8 100.3 101.1 101.8 102.9 103.6 105.1 109.6 119.3 139.9 154.1 162 166.7 170.2 172.5 174.2 175.4 176.5 177.3 178 177.9 178 177.6 177.6 177.1 176.9 176.3 175.8 175.1 174 173.4 172 170.5 169.2 168.2 167.1 166.5 170.9 173.6 177.9 179.9 182.9 183.8 184 183.4 181.2 178.9 173.3 168.4 170.2 172.3 172.6 172 169.2 169.4 173.5 175.5 175.3 176.8 180.6 183.1 186.1 187.8 189.6 192.1 194.1 195.9 197.3 198.3 197.9 197.5 196.4 194.6 192.9 190.7 188.9 187.8 186.1 184.2 181.7 179.5 182.5 184.5 185.1 185.1 184.9 184.3 182.7 180.8 182.5 183.7 185.4 185.9 185.5 185 183.9 182.3 180.7 179.2 177.3 175.4 172.4 165.7 165 173.4 177.1 178.2 178.6 178.1 176.4 175 172.2 172.8 174 173.9 173.6 175.9 178.4 180.8 183.5 185.2 187.2
121.6 125.9 138.1 147.5 153.9 159 163.9 168.7 173.3 175.7 176.2 176.7 176.2 174.7 170.5 166.3 160.9 157.2 151.7 148.4 145.7 143.9 141.7 140.5 138.9 137.5 136.5 135.9 135.9 136.3 136.5 136.7 137.2 137.1 136.1 135.2 134 132.6 131.4 129.7 126.9 123 120 117.5 113.9 108.9 107.3 106.3 104.5 102.6 101.6 101.1 101.5 100.2 99.8 100.2 100.2 100.3 100.1 99.9 99.8 99.6 99.1 98.5 97.3 95.3 94.2 94.4 94.3 93.4 93.1 92 93 94.1 94.8 95.4 96.3 97.2 97.6 98.5 100.2 100.8 102.2 104.1 108.3 115.9 134 150 159.3 164.4 168.3 171 172.9 173.8 174.9 175.9 176.3 176.6 177.3 176.5 176.6 176.5 176.1 175.4 174.4 174 172.8 171.1 169.8 167.7 166 164.1 160.7 161.7 166.1 170.6 173.6 177.8 180.4 183.7 184.9 186.1 185.8 184.2 181.9 177.6 177.5 177.8 178 178.9 178.5 178.2 178.1 180.1 181.7 182.4 183.6 185.6 187.4 188.8 190.6 192.5 194.2 196 197 197.9 198.5 198.8 197.2 195.2 193.1 190.3 187.7 186.3 185.3 184.7 183.5 181.2 177.8 181.6 183.5 183.8 183.8 183.3 182.9 181.3 178.7 180.7 182.4 184.4 185.1 184.9 184.3 182.8 181 179 177.7 176.3 174.2 170.7 165.4 164.7 172.5 175.9 177 177 176.2 174.9 172.7 170 169.9 170.9 172.6 175 177.1 178.6 180.6 183.3 186 188.1
125.8 138 150.6 159.4 163.1 167.3 171.5 174.6 177.1 177.5 177.4 175.7 174.3 171 166.4 161.4 157.5 151.4 146.9 144 142.3 138.7 137 135.1 134 132.2 131.3 130 129.1 129.7 131.5 133.3 134.6 134.9 134.3 133.6 132.8 131.4 130.3 128.4 124.9 120.8 117.6 115.2 113.6 111.3 108.9 106.5 105 103.3 101.8 101.4 100.8 100.8 99.9 99.9 99.6 99.4 99.3 99.1 98.9 98.3 97.9 97.1 96 94.7 95 94.7 94.6 94.1 93.5 91.6 91.7 92.7 94 95 95.6 96.6 97.4 99.1 100.3 103 104.4 108.7 116.2 132.6 147.5 156.4 162.1 166.4 168.9 171 172.3 173.3 174.3 174.5 174.8 174.7 174.5 174.9 174.9 174.7 174.1 173.2 172.1 170.9 169.2 166.9 164.9 162.3 158.9 154.7 160.2 164.7 170.3 172.4 174.1 176.5 180.6 183.6 186.1 187 187.5 187.5 186.3 183.8 183.6 183.7 183.8 184.1 184.3 184.3 184.6 184.7 185.8 186.5 187.3 188.5 189.7 191.1 192.5 193.9 195.4 196.5 197.6 198.4 198.4 198.1 197.6 195 191.5 188.5 185.6 183.2 182.5 182.6 182 180.3 176.6 180.3 182 182.6 182.6 182 181.6 179.6 177.1 179.3 181.6 183.3 183.8 184 183.7 182.5 180.9 178.6 175.7 173 171 168 164 164.1 171.6 174.5 174.9 174.8 173.8 171.9 169.6 167 169.7 172.8 173.9 176.3 178.3 180.2 182 184.4 186.9 188.8
128 144 159.3 165.7 170.5 173.4 176.5 178.7 179 178.8 177 174.4 171 166.6 162.1 156.9 152.1 147.6 143.8 140 137.6 135.5 133.1 130.5 128.4 127 124.2 122.2 121.4 122 123.6 126.9 129.8 130.4 130.2 129.3 128.4 126.5 125.3 123.6 120.7 117.6 115.3 113.6 112.1 110.8 109 106.5 105.5 104.1 102.7 101.6 101.1 101.3 101 99.7 99.2 98.6 98.4 98.2 97.5 96.9 96.4 96.3 95.7 95.8 95.9 95.3 95 94 92.4 92.1 90 93.1 93.2 95.3 95.7 96.8 98.9 100.6 102.9 104.6 109 116.7 131.4 148.2 154.2 160.6 164.5 167.5 169.2 170.5 171.2 172 172.8 172.6 172.3 172.2 172 172.4 172.5 172.5 171.6 171 169 166.6 164.6 161.9 158.6 152.7 153.9 160.7 164.8 167.3 171.1 174.4 177.3 180.2 182.2 184.7 186.4 187.4 188.4 188.4 188.2 188.1 188 188.4 188.3 187.6 187.8 187.6 187.6 188 188 188.7 189.6 190.4 190.8 191.8 193 194.2 195.6 196.7 197.6 198.2 198.1 198 197.3 196.2 193.2 190.2 187.1 184 181.1 179.1 178.3 178.4 175.2 179.1 180.7 180.6 181.2 180.6 179.7 177.8 175.6 179 181.2 182.1 182.6 182.7 182.4 182.1 180.7 179.3 177.4 174.7 170.7 166.8 162.7 163.3 170.3 172.7 172.9 172.6 170.9 168.4 165.5 167.7 171.3 173.6 175.6 177.7 179.1 181.3 183.6 186.1 187.9 189.3
132.6 147.5 162.3 170.5 174.9 177.7 179.8 180.2 180.2 178.7 175.8 172.9 168.1 161.8 159.1 153.5 147.3 142.5 139.5 136.8 134.5 131.5 129 126.8 124.2 123.3 121.5 119.6 118.8 118.2 118.6 120.2 122.4 122.5 122.3 120.6 120 119.4 118.9 118.5 117.1 114.9 112.9 111.8 110.3 109.7 108.5 107.2 105.2 103.8 102.6 101.7 101.3 100.6 100 100.1 99.1 98.3 97.8 97.6 97.1 96.7 96.2 96.8 97.5 97 96.5 95.9 95 93.2 92.5 92.3 91.3 92.1 92.1 95.5 97 98.6 100.5 103 106.3 110.2 118.3 135 147.4 152.7 159.1 163.5 165.8 167.5 168.8 169.2 169.9 170.5 170.4 170.6 169.8 168.4 168.5 169 169.9 169.9 168.8 166.9 165.5 162.6 159.4 154.8 147 151.5 159.2 163.4 167.8 171.2 174.6 176.4 179.9 182.9 184.9 186.3 187 188.3 188.8 189.2 189.6 189.7 190.1 190.1 190.4 189.9 190.2 190.4 189.9 189.6 189.7 189.5 190 190.6 190.9 191.5 192.6 194.1 195.5 196.5 197.3 197.8 198 197.6 197.2 196.4 194.3 191.8 188.6 185.2 182.5 180.8 178 175.5 173.9 177.8 179.2 179.7 179.6 179 178 175.5 175.1 178.3 179.7 180.6 181.1 181.1 180.9 180.4 179.8 178.8 177.3 175 172.6 168.5 163.3 161.7 169 171.1 170.6 169.6 167.4 163.7 166.1 168.4 171 173.9 176.2 178.7 180.8 183.1 185.2 187.5 188.6 189.5
140.4 151.3 163.9 173.1 178.1 180.6 181.3 181.5 180.4 178 175 171.2 164.9 159.9 155 147.5 143 139.7 137 134.6 132.1 129.1 126.9 124.7 124.1 125.2 126.2 124.4 121 118.5 116.8 116.8 117 116.4 115.9 115.3 115.1 114.6 114.8 114.6 114 112.6 111.6 109.9 109.4 108 106.9 106.1 104.3 103.3 102.6 101.5 100.8 100.2 99.7 99.4 99.2 98.8 98.6 98.2 98.4 98.5 98.7 99.2 99.5 98.5 97.6 96.8 95.5 93.3 92.8 92.2 91.6 90.6 93.1 95.5 98 100.5 103.4 107.6 112.5 121.6 137.7 145.6 151.8 156.5 161.1 163.7 165.9 167.1 167.6 168 168.6 167.8 167.3 166.8 165.9 164.7 163.7 166.3 167.2 166.4 165 163.7 160.8 157.7 151.3 144.2 150.5 158 163.3 166.8 170 174.3 178 181.9 183.6 185.3 185.8 187.2 188.2 188.8 189.3 189.4 189.8 190.4 190.8 191.3 190.9 190.4 190.3 190 190.2 189.8 189.8 189.2 189.2 189.7 189.6 190.3 191.9 193.6 195.1 196 196.9 197.2 197.4 197 196.9 195.8 194.9 193.5 190.9 188.1 185.2 182.5 179.9 177.1 172.9 175 177.5 178 178.1 177.3 175.9 172.7 174.6 177.7 179.5 179.2 179.4 179.5 179.8 179.3 178.7 177.8 176.8 174.1 171 167.4 162.7 159.9 166.5 168.8 168.3 166.2 162.8 164.7 167.2 169.4 170.9 173.5 176.2 179.7 182 184.1 186.5 188.9 189.5 189.7
152.1 159 168.6 175.2 180.7 181.9 182.2 181.4 179.8 177.3 173.7 169.5 164.2 156.6 150.5 145.9 141.6 137.5 134.6 132.1 129.9 127 124.6 124.3 128.4 132 131.1 129.1 124 120.1 116.9 115 114 113.6 113.1 112.8 111.9 111.9 112.1 112.1 112.2 110.9 109.6 108.4 107.8 106.6 105.4 104.6 103.8 102.8 102.2 101.6 100.6 100.3 100.1 99.9 101 100.1 100.2 100.7 101.1 102.3 102.9 102.7 102.1 100.6 100 96.9 94.5 93 92 92 91.4 90.7 93.3 96.5 100 100.4 107.6 119.4 130.2 136 144.1 150.9 155.5 158.6 161.2 163.5 165.1 165.6 165.6 166.1 166 164.6 164.2 162.7 161.4 160 160.9 164.3 164.4 163.3 161 158.6 156.1 152.2 141.1 154.1 156.8 161.7 166 170.1 174 177.1 180.5 183.1 184.4 185.6 186.3 187.2 187.5 188.6 189.1 189.4 189.8 190.3 190.7 190.6 190.4 190.3 190 189.4 188.8 188.1 187.5 187.4 187.9 187.8 187.7 188.1 190.6 192.7 194.3 195.3 196.2 196.3 196.5 196.7 196 195.4 194.9 193.5 191.9 189.1 186.8 182.7 179.5 176.9 173.9 171.3 175.2 176.4 176.6 175.7 173.4 171 173.9 175.9 176.9 177 177.3 177.5 177.6 177.9 177.7 177.2 176.1 174.2 171.9 168.2 163.2 159.1 162.8 166.1 165.3 161.8 162.5 164.6 167.4 169.9 172.1 174.1 177.3 180.2 182.4 184.9 187.4 189.3 189.8 189.9
163.2 166.9 173.9 179.4 182.4 182.8 182.1 181.2 178.7 176.2 172.1 167.3 161.1 155.4 149.3 144.6 140.2 136.2 132.6 129.6 127.6 125.6 126.2 129.8 133.9 134.5 132.3 128.9 124 119.6 117.5 115.4 114.4 113.6 113 112.6 111.3 110.5 110.9 110.5 111 109.8 108.1 107.1 106.5 105.7 104.5 103.4 103.3 102.6 101.9 101.6 101.7 101.4 101.2 100.9 101 102 102.6 103.5 104.5 106 106.6 105.6 104.3 98.8 97.1 94.4 93.2 93.5 91.7 91.6 91.6 91.2 92.9 98 102.9 113.5 119 126.3 133.9 140.8 148.6 154.3 157.7 158.6 160.3 161.9 162.9 163.2 163.4 162.6 162 161.2 159.5 158.5 157.2 155.3 158.5 161.5 161.8 159.9 157.5 154.8 150.7 141.6 143.5 152.9 157.7 163.3 168.4 172 176 179.2 181.7 183.6 184.8 185.5 186.3 187 186.9 188.1 188.1 188.4 189.1 189.6 189.7 189.6 189.4 188.8 188.2 187.3 186.3 185.6 184.7 184.5 184.4 184.3 183.7 186.3 189.8 192.3 193.7 194.5 195.1 195.3 196 195.3 195.2 195.5 194.7 194.1 192.4 189.8 186.1 182.1 178.9 175.5 172.3 170 172.4 174.5 174.5 173.4 171 169.6 173.3 174.8 174.5 174.8 175.1 174.7 174.5 175.4 175.7 175.8 175.2 173.8 172.3 169.2 164.6 159.8 158.4 161.7 160.7 160.1 164 166.2 168.3 170.5 172.7 175.4 178.8 181.7 183.4 186.1 187.8 189 189.7 189
173.7 175.2 179.2 182.4 183.7 183.6 182.2 180.8 178.7 174.6 170.7 166.1 160.6 154.5 149.4 144.1 139.4 135 130.9 128.7 129.3 130.6 135 139.3 138 135.3 130.7 125.5 121.5 119.2 119 118.5 117.7 117.7 117.8 115.6 113 111.9 111.9 109.4 108.4 108 107 106 105.4 104.9 104.1 103.2 103.1 103.3 102.7 102.7 102.8 102.6 102.2 101.7 101.9 103.6 104.5 107.1 108.1 108.4 108 107.2 105.9 103.5 100.7 97.7 96 93.7 91.9 92 91.8 90.8 93.1 98.8 106.4 114.6 121.6 129.3 137.3 145.2 151.4 155.4 157.1 157.8 158.5 159 159.6 160.2 159.5 158.2 157.2 155.4 156.6 154.9 151.6 149.8 156.7 158 157.8 156.7 154.7 150 145.7 134.8 147 152.7 158 163.4 169.7 172.4 177 180.1 182.4 183.5 184.7 185.2 185.2 186.2 183.8 186.7 187.3 187.3 188 187.9 187.8 187.6 187.4 186.7 185.8 185.7 183.6 182.7 181.8 181 181.1 180.7 183.8 186 188.7 190.8 192.2 193.7 194.7 194.8 194.4 194.4 194.3 194.7 194.1 194 193 190.3 188.8 183.6 179.2 176.2 172.3 168.9 170.1 172.1 172.1 171.7 169 168.3 171.7 173.1 172.5 173.3 173.4 172.8 172.9 173.1 174.2 174.3 173.7 173 171.9 170 167.6 163.1 158.4 157.4 158.1 160.9 164.1 166.3 168.9 172.1 174.2 177 180 183.5 185.5 186.8 188.2 188.2 188.5 187.9
181.6 181.5 183.1 185.1 184.3 183.3 181.9 180.1 175.9 172.3 168.2 163.4 158.2 153.5 148.7 143.2 137.6 132.7 131.7 134.9 141.1 147.7 149.6 145.7 141.4 134.1 128.6 125.7 125 126 127.5 126.5 125.3 124.7 123.4 119.6 115.6 112.4 110.9 108.5 107.5 107.4 106.4 105.6 105.6 105.4 104.7 104.7 105.8 105.2 105 104.5 105.2 104.5 103.5 102.8 102.8 104.1 106.5 108.6 109.7 109.3 108.8 107.8 106.2 103.1 100.9 98 95.6 92.3 92.9 91.9 91.6 89.5 92.7 98.7 108.2 115.5 122.8 130.9 138.2 145.3 151.6 155.2 156.5 156.9 157.5 157.5 156.9 156.4 155.4 153.8 151.7 150.5 148.4 146.9 146.3 149.8 155.2 155.7 155.2 155.1 152.3 147.7 136.8 136.8 147.7 153 157.6 162.6 168.7 173 178.1 179.9 182.1 183.5 184.3 185.1 184.2 184.2 183.6 185.6 185.5 185.9 186.2 186.5 186.2 186 185.9 184.1 183 181.9 180.1 178.5 177.7 177.2 176.6 180 182.8 185.2 187.2 189.2 190.7 192.8 194 193.2 193.2 192.7 192.8 193.4 194.3 193.9 193.6 192.2 190.1 186.5 181.9 178 174.9 171.4 167.9 167 168.4 168.9 166.3 167.4 169.6 170.4 170.3 169.8 170.6 170.2 170 171.6 172.8 172.7 172.2 171.6 171 169.7 168.3 165.6 162.1 156.9 156.4 159.2 163.3 166.5 169.1 172.6 175.7 179.2 182.1 185.1 186.5 187.6 187.3 187 187.6 186.7
186.6 186.7 186.8 186.6 185.6 183.7 181.9 177.7 173.5 168.9 163.6 159 153.7 149.1 144.1 138.8 134.8 135.2 139.3 151.9 160.3 159.3 156.7 151.7 144 142.2 140.9 142.4 143.2 141.1 137.9 134.2 131.5 129.1 125.1 120.8 115.7 112.3 110.4 109 107.3 107 106.7 107.1 106.9 106.4 106.8 107.4 108.5 108.5 108.9 108 107.3 106.3 105.6 104.6 103.8 104.2 106 108.9 109.5 108.8 108.5 107.1 105.3 102.5 100.5 96.3 93.8 92.1 92.9 92 91.4 91.2 91.9 98.4 107.1 115.4 122.4 130.1 137 143.8 150 153.5 155.3 155.5 155.7 154.2 152.9 151.4 149 146.3 144 142.1 141.1 141.6 140.8 148.7 153.5 153.9 154.1 152.9 149.8 144.9 130.8 143.4 148.8 153.2 157.5 162.8 168.7 174 178.2 180.8 182.2 183.1 183.5 183.7 183.7 183.8 184.3 184.7 184.1 184.4 184.9 184.9 184.5 183.7 182.8 181.6 180.4 179.2 177 174.7 173.2 173 176.4 179.2 181.1 183.3 185.9 188.3 189.7 191.1 191.9 191.2 190.9 190.6 190.3 193.3 193.4 194.1 193.8 193 191.6 189.4 185.6 182.1 178.5 174.6 171.1 168.3 165.9 164.5 163.6 164.2 166.3 166.6 166.9 166.5 167.2 167.4 168.7 170.1 171.1 171 170.6 170 169.5 168.7 167.5 165.5 163 158.6 155.8 159.6 163.9 167.4 170.9 174 178.4 181.1 183.8 186.2 187.5 187.3 186.8 186.9 186.4 185.3
189.3 188.5 188.5 187.8 186 184.8 180.3 175.2 168.9 162.4 155.8 150.8 146.8 143.6 139.7 138.6 141.3 148.9 159.1 164.8 167.3 165.8 163.3 159.1 154 155.4 153.5 152.1 150.2 146.9 143.2 138.2 133.6 130.1 124.7 119.1 113.9 111.9 110.2 109.7 108.7 108.8 108.9 108.7 108.9 109 110.1 112.2 113.8 114.9 114.9 114.3 112 109.9 107.7 106.2 105.1 105.4 106.2 107.7 106.8 106.7 106.6 106.3 104.4 101.5 99.6 96.8 93.4 92 91.8 91.2 91.1 91.8 92.7 98.3 105.5 114 121 128.8 135.9 142 147.9 151.3 152.3 153.6 150.6 148.8 145.2 143.2 141.7 138.9 137.1 135.8 134.9 135.1 138.3 146.5 150.2 150.9 150.3 148.5 145.1 142 128.3 143.3 148.8 154.1 160 165.8 169.9 174.4 177.3 180.2 181.4 182.8 183.2 183 182.7 182.4 181.3 181.3 182.4 183.1 183.2 182.9 182.5 181.7 180.6 178.9 177.8 176.5 173.7 171.5 170.1 173.7 176 177.6 179.4 181.8 184.7 187.1 188.7 189.6 189.8 189.2 188.3 186.6 189.6 191.9 193.5 194.1 193.9 193.5 192.4 190.4 188.5 185.9 183.1 178.9 175.8 172.6 169.8 168 165.5 163.1 162.3 162 162.8 162.9 164.5 164.4 166.2 168.7 169.4 169.3 169 168.5 167.5 166.8 165.8 164.1 161.6 158.1 154.9 159.6 164.4 168.8 172.8 176.8 180.4 183.2 185.1 186.9 187 186.9 186.5 185.8 184.4 183.3
190.5 190.2 189.5 188.6 186.8 184.8 179.8 173.3 164.8 160.8 158.3 153.9 149.6 147.6 151 155.4 160.6 165.4 169 171 171.8 171.2 168.8 166 163.8 163.2 161.6 158.7 155.4 149.8 145.1 140.4 134.1 129 122 115.6 112.4 111.4 110.9 111.6 111.1 111 110.9 111.1 111.8 112.9 114.5 120.2 121.5 121.1 120.9 120.4 118.3 114.2 110.8 107.7 106.6 107.6 109.2 110.4 106.6 105 103.8 101.6 100.4 99.8 96.9 95.5 94.2 93.6 92.5 91.6 91.5 92.1 92.6 98.3 104 113.2 120.5 127.3 135.1 140.2 143.3 145.3 145.3 144.6 142.6 139.9 138 135.9 133.7 132.8 131.3 130.2 129.5 129.6 136.5 141.6 144.4 144.9 144.2 142.5 139.8 137.9 126.3 140.7 146.6 155 161.1 167.4 171.2 175.1 178.3 179.9 180.9 181.9 181.9 181.6 180.7 179.7 179.1 179.4 181 181.1 181.3 181.1 180.5 179.7 178.1 175.5 174.6 174 171.6 167.2 171.8 174.3 175.5 175.8 177.4 180.1 183.2 186.2 187.6 188.1 187.7 186.7 185.6 185.1 188.8 190.6 193.1 193.4 193.7 193.2 192.1 190.7 189.3 187.3 185.9 183.1 180.4 177.9 174.9 172.4 169.8 167.2 164.1 161.5 159.8 159 160.3 161.1 164.5 166.7 167.7 167.3 167.2 167.2 166.3 164.2 163.1 161.6 159.1 155.8 154.4 161.1 165.7 170.7 174.7 178.5 181.6 184 185.4 186.3 186.7 185.7 184.9 183.2 182.3 181.3
191.5 190.7 190.1 189.3 187.6 185.5 181.2 174.5 169.6 169.9 166 161.6 159.5 160.8 163.5 166.4 170.6 172.6 174.2 175.1 175.1 174.1 172.4 170.4 168.7 168.1 166.5 162.9 158.2 153 146.8 139.9 132.8 125.1 117.4 113.8 113.8 114.6 114.9 114.2 114.4 114.7 114.2 114.8 116 118 125.5 128.2 128 126.1 125 123.4 120.7 117.9 113.1 109.2 109.6 112.1 115.1 113.8 109.3 106 103.7 100.9 99 97.5 96.1 94.8 94.1 93.1 92 91.8 91.4 91.2 93.9 98.2 104.2 113.9 120.9 127.6 133.2 137.9 140.3 140.2 139.3 137.8 135.7 134 131.9 130.5 128.8 127.8 126.5 125.3 124.9 127.4 133.1 136.2 137.3 137.8 137.5 136.5 134.9 131.3 127.8 139.8 150.5 157.8 162.6 168.7 171.4 176.2 177.8 179.7 180.4 180.9 180.9 180.5 179.9 178.2 176.7 178.3 179.7 179.8 179.4 178.9 178.7 177.8 176.2 173.3 170.8 171.4 169 165.5 171.3 173.2 173.2 173.3 175.5 179.2 182.7 184.8 186 186.4 186 184.2 181.4 184.8 188.3 190.4 191.9 192.1 192.4 191.9 190.9 189.9 188.7 187.4 186.1 184.9 183.3 181.1 179 176.8 174.3 171.7 168.7 166.2 163.9 160.9 158.3 157.8 161.7 164.5 165.5 165.3 164.9 164.6 163 162 159.6 158.5 156.2 153.4 158.2 162.8 168 172.8 176.7 179.8 182.2 183.8 184.9 185 184.9 183.8 182.2 180.8 179.8 179.6
