ncols 200
nrows 82
xllcorner 320000
yllcorner 774750
cellsize 50
895.5 890.8 885.1 882.2 879.3 882.3 887.8 891 896.9 900.5 901 899.9 893.8 890 896 896.4 898.4 899.6 902.1 904.9 908 910.4 914.9 920.9 931.7 942.5 951.3 954.9 953.2 950.8 942.3 930.4 911.3 892.9 878.4 870.4 862.1 853.9 847.4 840.9 833.3 817.9 807.9 797.5 790.1 786.7 783.8 780.1 778.1 783.5 794.5 805 815.6 827.8 838.6 845.6 850 857.1 862.5 861.1 854.1 842.1 834.6 824.5 818.1 814.9 814.5 813.6 811.3 808.3 813.6 816.4 817.2 820.6 824.4 826.8 830.5 835.1 838.2 841.4 836.9 822.5 800.9 780.3 755.7 731.5 720 704.4 697.2 692.1 688.6 686.2 681.3 677.8 681.2 682.2 683.6 684.6 680.9 688.9 698 701.9 709.6 717.3 724.3 732.6 742.9 730.9 695.5 663.1 637.3 619.7 604.6 594.1 585.5 580.1 581.9 576.1 564.1 553.9 538.8 526.9 509.4 498.3 488.4 483.4 477.7 473.9 470.8 474.7 476 482.2 492.6 504.3 510.6 521.8 532.2 533 520.9 522.6 522.6 527.2 518 533.3 530.1 503.5 480.7 454.8 428.3 374.3 336.5 307.3 299.2 291.9 287.7 286.4 289.2 295.3 304.1 316.6 338.2 360.7 385.8 408.5 441.1 477.2 496.6 512.9 532.1 552.7 577.1 602.1 625.7 639 634.7 626.4 612.6 596.5 576 549.7 573.5 595.2 626.5 653.5 678.3 691.1 698.2 705.6 709.8 713.8 719.6 725.5 730.5 734.6 738 742.1 745.7 744.9 745.2 740.7
896.1 890.8 884.5 879.4 879.2 882.1 885.6 889.9 900 901.6 898.1 899.3 893.6 889.7 894.4 897.9 900.4 901.8 903 907 910 915.6 919.8 925.1 931.2 944.1 954.3 957.3 955.9 952.6 944.5 931.1 912 894.5 880.6 872.3 864.3 858.4 855.2 852.7 845.6 829.6 809.8 800.9 794.7 790.2 785 781.6 773.4 778.7 789.3 798.4 809.8 823.9 833.7 841.3 845.7 853.3 857.9 856.4 846.3 838.2 833.5 825.1 820.3 818 819.4 817.8 819 817.5 820.5 825.3 826.8 829.3 833.6 836.1 840.5 845.5 846.8 849 844.2 830 802.7 775.4 757.4 728.7 717.4 703.6 698.4 691.8 687.8 685.9 685.1 682.2 678.8 681.7 686 688.8 689 695.8 705.2 711.7 719.3 724 732.8 746.2 757.3 751.6 707 677.2 658.5 637.2 617.6 609.1 600.4 596.6 596.6 592.7 581.8 564.9 551.9 540.1 530 519.8 511 504.8 499.6 501.1 503 502.5 505.8 511.7 524.6 534.1 542 556.4 563.6 574.1 572 568.3 564.2 574.4 557.5 561.2 550.1 527 509.4 469.2 400.8 344.3 321.6 305.7 294.7 289.3 286.2 281.9 285.1 288.4 296 306.3 323.6 342.8 373.2 395.8 424.1 456.1 483.4 497.9 517.3 537.1 560.5 586.6 602.6 618.5 616.1 601 582.3 560 551.4 559.2 586.6 613 640.6 664.8 687.5 694.3 700.2 705.9 709.6 714.9 720.5 726.4 732.6 736.8 739.2 740.2 742.1 743.3 738.4 731.8
893.6 892.2 883 877.8 876.8 879.1 881.1 888.2 893.3 894.7 890 891.5 890.5 887.6 889.8 896 897.7 898.1 903.1 907.3 912.3 918.7 921.9 927.1 932.8 942.8 953.2 956.1 955.4 952.3 944.8 932.3 912.8 896.6 884.1 874.5 868.2 866.2 865 863.2 856.3 834.6 814 808.5 803.2 795.3 788.7 785.6 782.1 771.5 782.6 790.7 801.4 812.7 827.3 836.2 841.5 845.8 850.5 853.4 841.9 836 833.1 827.2 823.2 820.5 821.7 823.9 824.9 824 825.7 830.1 832.9 837.4 843.8 846.4 846.9 846.5 848.8 850 841.3 823.3 796.5 768.7 746.1 727.9 716.9 703.9 696.4 690.2 686.7 683.9 681.1 681.7 681.3 685.3 691.4 697 694.7 705.5 713.5 722 729.4 738 743.8 757.2 767.3 757.2 724.6 705.6 684.3 640.6 624.3 615.8 609.2 608.5 609.6 606 594 578.3 557.1 546.7 535.2 530.8 526.7 523.2 519.3 524 528.4 527.1 531.2 534.8 546.9 555.5 563.6 572.4 587.7 599.4 599.4 600.7 601.2 591.7 586.1 586.3 554.5 526.8 501 465.2 390.5 337 310.1 301.1 295.4 286.2 283.8 281.9 283.1 285.1 289.7 297.2 311.2 333.8 354.3 376.6 406 433.3 456.2 478.5 503.4 524.5 542.2 560.8 578.9 596.2 596.4 577.1 560.8 537 551.1 576.5 604.6 632.7 657.5 686.2 691.1 694.8 698.9 703 708.4 714.4 721 725.6 732.2 734.7 736 735.3 737 738.2 731.1 720.4
886.7 888.5 880.4 875.7 871.8 874.3 878.6 883.3 883.5 886.9 889.9 886.4 886.1 882.6 882.3 891.4 894.8 895.3 900.4 906.4 912.9 919.6 923 928.1 933.8 941.9 950.9 953 952.2 950.5 944.3 933.4 914.9 898.4 889.2 880.2 875.3 874.7 873.6 873.2 866.6 839.9 823.2 818 813.9 805.3 795 788.4 783.1 776.3 771.2 782.9 791.5 804.9 818.7 828.2 836.2 839.2 842.9 843.6 838.6 835.8 833.5 829.3 826.7 825.5 826.7 828.5 828.9 828.2 829.8 832.8 838.2 841.1 847.9 850.6 848.7 845.2 844.2 837.4 823.9 799.7 776.4 754.3 734.9 722.8 714 705.3 695.3 690.6 685.1 682.3 682.9 685 683.4 691.4 699 705.2 701.7 710.6 719.4 729 740.8 749.6 760.8 766.8 775.4 775.1 762.3 748.2 721.7 667 641.6 628.6 622.9 624.1 625.2 622.7 606.1 584.7 558.9 550.1 544.1 535.4 533.4 531.7 533.7 537.5 541.5 545.9 550.7 555.6 561.7 571.3 577.6 587.2 598.6 608.6 612.6 608.2 607.9 603.8 598.5 593 569.7 525.1 473.9 419.2 368.3 332.1 307.4 296.9 289.1 284.6 282.2 281.2 279.7 282.1 284.5 291.9 299.9 320.5 338.7 358.6 394 414.9 435.6 461.8 489.3 510.3 528.6 545.4 562.1 578.1 577.9 558.8 527.9 534.3 562.9 590.4 622.6 653.1 678.7 692.9 693 692.4 693.9 700.7 707.6 714.7 720.2 726 729 732 732 731.3 734.2 731.3 725.6 713.5
876.5 878.3 877 871.2 863.3 870.6 875.1 876.4 877 879.4 885.6 879.4 879.9 872.3 873.6 891.3 894 893.4 896.4 905.5 912.8 918.7 921.9 927.5 934.1 940.7 946 947.8 947.4 946.7 941.9 934.2 919.9 902.7 892.4 887 882.3 882.7 882.4 883 875 851.6 836.2 828.7 822.4 812.5 802.6 792.4 784.8 779.9 773.8 771.9 784.8 797.5 808.4 819.7 826.4 832.8 837 839.5 837.5 835.8 835.2 832.7 829.9 829.7 829.9 832.1 834.4 829.9 828.2 830.6 836 838.5 845.2 849.2 845 841 830.4 819.4 800.3 782.9 764.1 744.8 728.1 715.6 710.6 702.2 696.2 690.2 684.6 683.1 684.6 685.8 692.4 701.1 706.1 710.3 713.1 712.2 723 736.9 748 759.7 771.2 778.8 785.1 793.7 795.5 784.9 752 696.3 664.4 644.5 639.3 635 637.7 642.4 613.4 592.3 577.6 555.4 545.5 540.4 538.2 537.3 537.4 541.2 549.3 554 561.3 566.7 579.6 587 596.1 606.8 615.1 618 622.1 626.2 625.8 615.3 603.2 592.9 588.8 541 445.9 400.3 363.9 335.1 308.8 294.7 289.6 284.8 281.6 280.3 278.5 279.9 280.8 283.7 290.3 309.7 325.3 344.5 366.2 390.9 415.7 444.6 472 495.4 516.1 533 549 563.7 560.4 539.2 512.6 544.2 573.8 608.2 642.4 667.7 684.1 691.2 690.7 687.1 689.5 697.6 705.2 713.4 719.9 724.6 726.3 729 729.8 729.5 731.7 724.7 715.7 704.9
867.4 867.9 871.9 870.9 859.9 866 869.2 872.7 869.1 870.3 874.7 875.3 874.4 868.1 868.6 883.5 887.7 889.4 894.1 902.9 911.3 917 920.3 926.7 933.5 938.7 940.8 942.1 942.1 942.3 938.9 933.1 923.2 909 896.9 892.3 889.5 890 889.5 888.7 882.1 862.3 853.2 843 830.2 818.8 808.3 797.3 788.6 780.3 774.7 767.9 778 789.6 799.9 808.5 817.5 826.1 830 834.3 834.1 834.4 835.4 836.1 834.3 832.7 832.5 834 835.1 829.6 825.7 824.3 827.6 830.5 837.8 839.9 835.1 827 817.9 802.3 787.8 772.1 754.1 737.7 722.8 713.4 706.9 699.3 697.1 695.2 690.3 687.4 690.8 695 704.7 709.7 713.5 720.3 723.2 718.8 728.2 741.6 754.9 768.5 780.9 787.1 794.9 800 805.9 809.1 780.9 736.8 704.4 669.2 660.8 653 651.8 646 632.6 614.9 597.9 564.7 550.4 548.3 545.6 543 543.7 550.7 555.9 563.3 573.3 584.6 598.2 608.1 618 630.6 637.7 641.2 647.8 647.5 629.2 616.4 608 586.2 571.2 517.7 442 406.2 375.1 341.7 314.8 299.7 291 283.6 281 279.7 279.1 279.6 279.4 280.2 283.5 299.1 313.4 328.4 350.2 373.2 399.2 427.4 455.2 478.8 500.4 518.7 533.7 546.1 539.5 512.2 517.8 545 576.6 611 649.8 670.3 679.7 685.1 684.1 680.1 684.8 693.1 702.1 712 718 721.4 724.3 726.3 725.5 729.9 724.9 715.3 707.7 692.4
858.6 859.7 862.6 862.3 856 859.8 860.2 864.1 863.1 862.9 864.5 868.2 866.7 862.7 863.7 869.1 874 877.3 890.1 898.6 908 914.4 918 924.7 930.8 935 936.3 935.6 936.2 936 934.6 929.3 921.5 911.4 901.6 898.6 895.8 894.9 894.1 893 885.4 873.5 866.4 855.3 840.9 826 813.8 803.2 790.1 779.5 774.1 769.7 771.7 778.9 790 799.1 807.5 817.6 824.5 829.2 830.9 833.1 835.8 837.6 839.3 836.8 834.7 835.1 834.8 829.4 822.8 819 818.3 819.9 823.5 827.9 823 815.2 803.2 789.9 775.5 760.2 745.4 730.5 716.7 707.8 704.2 700.2 694.4 692.4 696.5 699.4 705.1 707.5 716.9 719.9 723.4 730 733.5 732 730.8 746 759.7 773.9 785.8 793.8 801.6 807.1 810.3 812.6 803.5 774.9 733.6 699.1 685.1 681.9 674.6 663.9 655 637.9 615.6 595.3 565 557.1 553.8 551.7 552.3 558.8 566.7 574.4 587.5 604.7 616.7 630.2 640.5 651.2 656.1 652.2 648.7 636.7 629.4 614.6 591.7 578.2 539.8 491.5 447 408.6 368.3 339.5 321.7 303.7 293.3 285.8 281.2 278.5 276.8 279.7 279 277.8 279.4 289.5 303 316.8 335 357.3 384.3 409.7 437.3 462.6 484.8 502.2 517.2 527.2 517.3 489 507.9 544.9 579.3 615.5 649.5 669.6 676.2 676.6 673.5 667.9 677.4 688.5 699.6 707.4 714 719.7 720.6 720.5 720.8 716.3 707.3 699.6 692 673.5
853.2 853.6 853.2 854.1 851.4 851.6 851.9 855.7 857 857 860.8 864.1 864.8 864 859.4 860.4 863.7 869.4 888 894.2 904.5 911.5 915 919.9 925.5 928.5 931.4 931.3 929.7 929.7 929 925.9 917.8 909 904.3 900.9 898.5 897.5 895.9 893.7 887.4 880.3 873.9 864.9 850.2 833.8 817.2 806.9 792.7 780.2 772.6 768.2 764.2 771.1 776.8 788.3 800.7 810.2 818.4 824.7 828.4 832.4 836.4 838.9 841 841.9 837.3 835.1 831.3 829.7 820 812.4 808.4 809.4 809.8 811.7 809.6 800.8 791.1 778.3 764.8 750.9 738.1 725.6 713.7 706.9 701.9 696.9 697.3 703.8 709.9 711.9 718.4 724.9 732.2 735.5 736.2 741.3 740.8 737.4 737.3 748 760.8 775 787 796.4 805.3 811.5 814.5 815.8 816.9 807.3 774.4 732.3 711.6 708.6 704.7 693.1 685.3 673.4 646.1 611.9 590.4 573.9 563.5 562.7 565.1 569.1 578 588 605.4 622.6 639.5 654.8 659.6 665.4 672.9 665.9 653.8 644 627 601.9 573.4 549.9 517.4 479 443.5 403.7 372.9 357 332.2 317.8 300.2 292 285 278.3 276.5 276.2 276.3 276.5 277.5 282.8 293.6 307.5 322.3 340.2 367.2 395.1 419.6 444.9 468.6 486.4 500.4 508.1 482 474.1 515.9 547.6 580 611.4 641.1 658.1 665.7 663.9 659.3 652.5 669.3 683.6 695.9 705.6 711.7 716.4 712.9 709.1 695.7 690 683.7 674.1 667.6 667.2
847.5 845.4 844.1 845 845.2 840.9 842.2 844.1 847.9 850.6 858.5 861.4 862.4 856.6 855.1 853.6 853.5 866.3 884 890.4 900.7 904.9 910.6 915.5 920.1 924.4 926.9 926.3 923.8 923.6 923.7 920.6 914.4 907.7 904.9 901 899.2 898.3 896.6 895 888.1 882.4 874.1 868.6 855.8 837.2 824.3 811.2 796.4 783.2 772.4 766.8 761.5 765.5 771.1 779.1 788.3 797.3 808.4 815.6 822.3 829 835.7 840.4 843.1 845.9 840.8 835.8 830.2 822.7 816.1 804.7 797.1 800.6 799.6 799.1 795.6 790.2 781.5 770.3 757.7 744.3 731 719.6 711.8 706.4 702.8 704.3 711 717.5 721.4 724.9 732 739.7 747.7 751.5 752.6 748.6 746.7 744.8 741.4 750.6 759.3 774 785.5 794.8 804.1 811.2 815.1 817.4 818 817.1 808.8 764 751.6 746 740.4 736.9 719 704.4 679 652.5 614.2 590.2 580.6 577.9 577.9 578.7 589 600.9 623.9 645.5 658.9 667.2 672.3 676.3 674.5 672.7 663.2 644.4 609.6 578.7 558.5 536.5 504.6 482 449.7 419.9 394.7 374 353.9 330.7 314.4 298.6 288.2 281.9 279 276.4 276.3 274.6 275.7 277.8 285.2 297.4 310.5 327.6 350.2 376.9 404 429.8 452.7 468.4 486.8 477.1 455.4 487.4 517.6 546.3 572.1 602.1 626.9 639.1 648.3 646.8 639 639.8 655.6 675.3 689.9 700 705 704 692.3 681.2 673.9 666.2 656.6 651.9 650.1 667.8
842.3 839.3 839.3 835.8 834.1 835.7 838.2 841.2 843.3 847.1 855.3 858.1 861.5 855.9 851.7 852.2 854.7 870.6 880.9 886.7 894.8 899.5 906.2 910.4 915.1 919.6 921.2 920.8 919.2 917.8 918.3 914.6 907.6 904.6 902.1 899 898.4 897.6 896.4 894.3 887.8 881.6 872.5 867.4 859.5 840.7 824.1 814.1 797.4 784.5 773.6 766.4 762.1 759.5 764 768.3 773.5 781.4 792.9 806.8 815 823.1 831.8 839.3 844 846.5 845.6 835.3 828.3 816.7 809.3 795.5 789.2 787.8 788.2 787.7 783.9 780.9 773.3 762.6 750.6 737.2 725.3 717 713 712.1 714.5 719.3 725.7 731 732.9 738 745 753.3 761 762.5 761.9 762.9 755.7 750 745 747.2 759.4 771.1 783.3 792.4 801.4 808.5 812.6 814.4 814.1 812.1 808.6 802.3 792.6 786.6 777.7 776.8 768.3 743.8 713.8 690.1 652.2 617.8 600.7 594.1 589.3 591.9 601.9 618.9 646.1 670.5 684.9 685.1 684.1 685 674.6 672 663.4 639.6 607.4 583.2 555.1 533.5 508.2 487.4 464.2 436.6 413.4 389.9 364.6 348.1 330.7 308.1 296.9 287.2 281.6 277.1 275.7 274 274.9 275.6 278 287.1 299 315.1 339.1 361.9 389.2 411.8 433.9 450.8 454.9 429.8 446.2 489.3 516.2 535.7 561.7 586.3 602.6 617.6 627 626.2 614.1 622.3 640.6 657 674.1 680 679.6 676.9 667.7 658.8 648.1 639.1 628.2 637.8 651.7 674.1
839.8 833.2 834.3 829.6 829.1 830.5 832.8 837.7 838.9 845.1 851.7 857.5 860.7 854 849.2 855.6 858.5 872.3 877.9 882.5 887.8 893.4 902 905.1 910.2 915 915.6 915.7 915 914.2 912.9 908.6 902.8 899.7 897.6 896.5 896.7 896 895.2 891.8 886.7 880.1 872.8 867.5 859.8 843.6 826 812.5 797.3 783.3 775.2 766.4 762.5 759.1 759.1 761.8 767.5 772.8 783.1 796.7 806.8 817.1 830 839.8 846.4 848.6 849.2 839 824.2 814.7 797.3 789.9 774.7 778.4 777.8 777.4 775.3 770.8 764.5 756.6 745.7 733.9 726 720.6 722.5 727.2 730.8 733.6 739.1 744.1 749 752.7 758.4 766.6 770.6 772.4 768.2 769 766.3 759 755.2 756.4 755.3 767.7 780.1 789.1 796.8 804 808.5 810.5 809.5 807.7 805.6 804.8 803 803.4 802 802.3 796.8 783.1 752.5 716.1 674.3 643.6 618.8 609.8 603.5 607.8 619.9 640.9 662 693.2 697.7 695.2 696 688.3 682.3 680 672.3 651.3 614.6 588.3 572.2 556.2 512 497.7 479.3 456.2 433.6 408.8 384.5 364.5 343.8 320.1 305.4 290.9 282.7 278.4 275.5 273.4 274.4 274.9 274.9 279.3 288.9 306.5 326.4 348.5 374.8 396.2 416.7 433.1 401.8 435.4 467.5 489.9 507.9 529.2 548.3 569.8 587.6 596.6 604 606.7 595.7 610.4 621 635.7 650.1 655.2 652.6 649.1 643.2 633.6 626.2 611.6 630.8 651.5 670 687.3
835.6 830.2 826.3 826 827.7 828.5 829.1 830.3 834.5 844.3 848 854.6 858.6 855.1 848.9 857.7 862.6 872 875.1 878.5 884.4 889.3 896 899.3 904.4 909.7 911.1 912 911.5 909.9 906.5 902 898 895.4 893.9 893.2 893.6 893.6 893.2 890.6 885.5 877.1 871 866.2 859.9 846.7 832.2 816.3 801.2 784 773 766.4 761.4 758.1 752.3 758.2 761.9 767 774.3 784.5 797.9 812.5 830.5 843.7 850.9 852.1 851.4 846.1 821.5 807.4 789.9 783.7 765.9 768.2 769.6 768.3 761.8 760.9 756.8 752.9 746.1 737.1 732.5 733.4 737.4 740.2 744.2 751.4 754.7 760.4 761.5 766 770.3 774.5 776.2 776.9 777.6 775.2 773.5 766 759.1 760.5 764 765 777.1 785.4 792.8 800.5 804.3 805.6 803.6 800.5 799.8 802.2 801.7 802.2 801.8 800.4 797.9 791.2 776.9 738.6 696.9 663.2 647.3 628.6 627.1 631.5 647.8 681.2 699.9 705.8 707.7 707.8 706.7 701.5 693 688.4 684.3 671.3 643.3 622.6 602.8 588.5 532.4 511.6 497.7 480.9 453 425.7 404.8 379.5 356.8 336.4 316.1 296.5 284.1 277.3 275.8 274.9 273.3 272.8 274 275.4 281.3 298 317.4 339.6 362.6 383.3 397.8 393.8 397 437.3 463.1 479.9 502.9 520.5 539.4 556.8 573.5 576.8 583.5 584.1 581.5 593.6 603.4 611.7 621 626.5 626.7 623.1 617.5 611.6 608.9 617.3 642 664.5 685.1 702.3
829.6 825 824.3 825.2 825.2 826.1 824.9 826 830.5 836 842.1 848.8 855.7 854.6 843.5 855 862.2 869.8 871.9 874.7 880.2 884.1 890 894 899.1 904.1 905.8 908.1 907.2 905.4 901.3 896.5 893.8 892.1 891.2 889.3 890.2 891.2 891.7 889 883.4 876 868.6 862.4 855 845 832.5 818.2 804.3 790.3 776 766 759.9 757.2 753.3 754.5 757.9 760.6 768.5 775.5 787.2 805 825.9 842.8 857.7 854.5 850.5 845.4 837.1 806.1 783.5 777.6 761.4 763.1 762.3 759.2 755 751.5 750.9 749.1 743.9 737.3 740.2 747.3 750.6 763.2 759.1 768 769.5 771.2 772.2 771.7 775.7 781.2 785.1 786.1 785.6 780.7 780.3 776.6 770.2 767.7 768.3 769.6 775.6 783.3 791.3 796.4 798.9 799.3 798.6 799.3 798.6 798.8 799.5 800 799.3 796.3 792.5 785.7 768 750.8 723.5 694.3 672.7 666.8 659 666.9 682.1 714.6 705.3 712.9 717.6 719.5 721.1 715.5 707.9 703.7 701.1 692.4 679.4 675.4 645.5 612.2 557.7 533.1 519.5 501.7 480.7 451.7 423.8 398.4 370.2 355 329.7 306.7 284.6 276.8 274.7 274.4 274 272.6 273.1 273.6 279.1 293 310 330 349.3 368 374.5 371.5 404.6 434.3 456 476.1 493.4 513.4 530.3 544.3 555.5 561.3 563.8 564.8 566.5 574.4 582.3 587.8 591.9 597.2 599.8 597.8 592.4 590.7 608.9 634.6 658.2 682.9 702 714.2
828.3 824.4 824.8 822.4 823.2 822.5 822.2 822.7 825.1 826.3 835.4 841.1 850 851.9 833.1 851.1 858.7 865.7 869.4 870.1 875.7 880 884.7 891.3 894.3 898.2 900.8 902.7 903.3 900.3 895.1 892 890.5 889.3 887.9 884.8 886.9 886.2 888 884.9 879.4 870.5 863.7 858.3 849.7 839 828.5 815.1 804.8 793.3 779.7 770.2 761.1 755.2 753.1 749.4 752.3 753.2 761.3 766.5 778.8 795.6 813.5 838.5 849.6 858.5 856.4 843.1 830.1 811.9 783.9 770.8 759.9 758 754.8 751.8 748 744.9 747.2 745.8 736.2 750.8 761 771.5 775.2 776.5 777.2 779.5 779.8 783.7 781.7 784.2 785.6 789.3 793.3 794.5 794 789.9 785.9 783.2 780.6 779.8 778.6 778.2 776.6 781 786.3 791.9 794.6 795.2 797.3 797.9 797.9 797.5 797.3 796.1 794.4 789.6 781.6 781.8 784.1 776.1 759.6 726.2 710.1 706.9 705 706.5 723.8 716.7 718 723.5 731.5 737.9 740.9 735.9 730.5 721.6 717.4 715.1 712.6 704.2 679.2 645 602.8 570.2 545.3 522 502.7 482.8 443.4 417.2 395.4 369.9 345 316.5 294.1 279.3 274.8 274.4 273.9 273.1 272.9 271.8 275.3 287.7 303.3 316.9 337.6 355.1 356.2 368.4 403.9 426.7 449.1 467 484.3 500.7 518.7 529.5 542.3 546.6 547.3 544.2 555 559.8 563.9 567.6 569.1 571.4 575.7 574.3 588.7 603.7 621.8 649.1 674.2 695.7 710.1 721.5
826.7 825 823.2 821.3 821.1 820.3 819.6 820 817.5 818.6 826.2 829.7 845.7 843.4 828.4 844.5 851.5 861 865.9 866.6 870.7 875 878.7 887.3 891 893.5 897.8 898.1 899.1 897.5 891.2 886.5 885.4 884.8 883.6 882.1 883.4 881.6 883.8 880.2 873.7 866.6 859.5 854 847 838.9 829.7 820.9 808.4 796.9 785.1 773.6 764.4 754.3 750.9 748.6 748.6 750.5 756.3 759.9 768.3 783.3 800.4 826.9 838.6 852.2 844.1 837.3 822.1 808.9 786.7 770.1 758.6 751.4 747.2 744.4 741.7 740.7 737.7 733.8 750 764.8 779.3 792.9 793.3 794.4 796.9 796.8 796.1 796.8 797.6 794.3 796.5 797.3 798.6 801.3 799.9 796.7 791.8 789.5 787.7 785.5 784.7 783.2 783.5 784.5 785.7 787.5 789 791.9 795.8 796.4 797.9 797.2 794.7 793.1 792.3 792.9 795 795.3 794.6 792.8 785.7 762.7 754 754.8 746.1 741.5 738.7 728.8 728 735.1 740.8 748.9 754.6 757.7 754.9 748.5 742.1 737.8 735.8 727.4 705.6 671.9 621.5 599.7 577 553.6 524.7 498.9 479 437.3 410.5 385.7 361.4 328.1 299.2 277.2 274.4 274 273.3 272.2 272 272.4 274.6 283.7 295.8 307.4 326.6 341.3 347 371.2 399.8 424.7 444.5 458.2 476.9 491.4 506.8 516.7 526.9 530.9 531.6 530.1 540.2 543.6 542.7 536.9 540.2 543.6 569.2 590.9 609.6 626.1 643.3 663.1 686.6 705.9 720.6 732.2
826.8 825.1 822.7 819.8 817.7 819.6 818.9 816.2 813.4 813.4 814.5 818.2 837.3 836.1 825.3 836.5 843.5 854.3 861.8 862.1 867.9 870.5 874.3 878.6 885 890.4 892.5 894 894.8 891.4 884.9 880.2 880.6 880.8 879 879 880.7 877.9 879.9 875.3 871 863.4 857.9 852.7 847.5 844.4 840.5 830.9 815.5 800.5 787.4 777.6 768.1 759.2 751.1 743.1 745.2 745.3 751.1 754.6 758.5 768.9 784.9 809.9 824.7 834 833.4 824.9 810.9 790.8 785.3 763.6 755 745.9 741.1 740.1 738.6 737.4 730.4 745 760 773.9 793.7 813.2 818.7 814.6 806.9 807.1 805.8 806 806.5 807.4 806.5 809.5 808.3 809.4 806.5 804.3 799 795.9 794.2 792.9 791.5 788.9 789.8 788.7 788.5 789 789 792.2 796.3 797.5 798.2 797.3 796.8 797.1 798.4 800 801.5 803.2 800.8 798.9 796.1 789.6 782 771 760.3 753.2 744.5 740.3 740 743.9 749.6 756.2 764.1 768.7 770.1 769.8 769.2 767.3 765.6 753.2 715.1 680.4 660.2 630.7 603.6 575.3 541.7 520.2 495.7 453 424 395.3 374.4 340.6 307.3 280.1 273.6 273.4 273.2 272.5 272.3 272.9 275.9 280.2 289.6 303.5 319.3 332.4 337.7 374.5 399.8 421.8 440 454.9 469.1 484.4 495.3 507.6 512.8 517 517.2 518.6 520.8 522.1 507.7 528.3 545.1 572.6 588.5 610.7 631.5 643.1 659.5 682.1 700.4 717.7 731.4 743.6
828.7 826.9 823.2 821.3 819.4 817.6 817.7 816 812.3 811.1 811.7 811.7 824.3 824 820.3 828.9 834.1 846 855.8 854.6 859.5 863.5 868.1 870.2 879.2 884.6 887.4 891.5 890.3 887.4 880.2 876 876.5 876.4 876.2 876.1 876.7 875.1 875.1 872.1 868.8 863.1 856.9 856 856.2 857.1 854.2 843.7 828.8 812.5 794.4 783.8 772.8 761.7 753.4 746.6 740.7 742.6 747.6 752.4 753.9 756.3 768.4 788.7 812.9 826.6 821.1 809.3 786 776.4 771.2 758.9 741.7 737.6 736.7 734.1 734.5 730 735.4 749.7 764 781.7 802.3 823.4 828 824.9 819.7 817.1 819.8 817.2 817.1 816.1 818.1 818 817.1 817.1 816.6 814 809 806.1 802.2 800.5 801.3 799.1 797.8 793.4 793.3 791.7 792.9 794.6 797.7 798.9 799.4 799.6 800.3 800.3 803.5 805.4 807.3 808 806.8 804.2 801.3 796.6 789.2 779.1 769.3 757.8 748.3 749 750.3 752.1 759.7 766.2 771.4 777.3 780.8 783.2 789 793.8 798.8 780 761.9 725.6 691.7 657.9 625.8 593.8 563.2 543.8 506 463.1 440 414.3 386.6 349.5 316.8 292.6 274.5 273.2 272.1 272.3 272.6 275.2 276.8 278.9 288.1 299.8 314.8 323.5 348.2 368.7 392.3 413.3 434.8 445.4 463 476 485 496 501.5 503.7 502.1 497 486.8 497.4 523.9 544.3 560.9 585.1 606.9 631.3 645.8 670.8 680.4 698.1 716.6 732.5 752.4 767.3
831.2 827 823.4 822.5 820.8 817.2 817.4 814.5 812.5 812.2 810.9 811.1 813.9 815.4 817.9 822.8 826.5 837.9 848.4 848.4 853 858 860.6 865 874.5 878.3 883.7 886.3 885.5 881.5 876.8 873.5 872.1 873.4 874 873.4 873.9 872.7 871.6 868.1 867.1 863.5 863 864.7 869.7 870.5 865.6 858.4 848.9 828.6 805.8 792.2 781.6 767.6 755.7 747.5 741.8 739.4 743.9 748.8 750.2 749.2 753.5 770.5 790 809.9 800.9 784.4 773.3 766.4 760.8 751.9 733.2 728.2 729.5 728.6 725 727.5 739 746.8 762.4 783.6 807.7 821.3 832.4 829.1 826.6 824.2 826.6 827.9 827.3 825.9 826.3 825.4 824.5 824.7 824.8 823.5 821.1 817.6 813.7 808 808 807.1 805 799.1 796.5 795.6 795.9 798.3 800.4 801 801.5 803.2 804.8 807.2 808.3 810.6 812.8 813.9 813.2 811 806.3 802.3 795.2 787 776.2 763.1 757.7 758 760 762.7 768.2 774.9 779.4 785.3 791.8 799 804.2 810.7 816.7 813 795.1 759.2 720.9 679.6 642.6 608.4 581.1 547.9 519.6 491.9 458.5 424.1 394.6 362.5 320.6 303.2 280.9 272.6 272.5 271.5 273 274.9 277.5 280.7 285 295.4 308.3 314.3 342.7 365 385.9 404.6 425.7 439.4 457.2 466.6 478.3 484.8 488.4 487.4 478.2 487.8 508.5 526.5 543.7 563.4 582 601.4 622.4 644.1 658.3 684.8 699.4 723.5 736.6 754.9 768.9 774.5
833 828.4 826.3 823.1 820.3 817.1 813.6 813.9 812.6 813.1 812.6 811.1 812.3 812.5 816 819.3 820.1 832.3 840.4 840.5 843.6 852.3 854.4 859 866.6 874.7 879.5 882 879.6 874 871.9 869.8 866.6 866.9 868.5 872.3 872.4 871.9 868.7 867.8 867.3 868.7 870.3 873.6 877.2 877.8 875.3 870.5 862 847.9 826.2 802.3 788.6 777.4 760.6 748.7 741.9 737.9 738.6 742.2 746.7 748.3 741.5 748.2 764.4 776.1 773.7 766.5 757.1 754.3 745 742.9 724.6 716.9 722.4 724 726.4 723.4 736.1 743.7 759.6 787.2 803.5 816 830.9 834.8 829.5 827.3 829.1 830.3 831 831.8 832.3 832.7 831.3 831.1 831.3 830.7 829.9 826.8 824 820.6 814 812.5 810.5 807.3 802.6 800.4 799.9 801.3 801.8 802.8 805 806.6 810.1 812.1 814.8 817 818.6 820.5 819.7 816.9 813.8 808.6 801.7 791 781.1 769.8 768.7 767.6 770 773 777.4 784.6 789.4 795.1 803.9 809.5 815.5 822.6 828.5 831.6 815.9 778.9 728.9 689.5 655.5 625.2 594.6 571.6 543.3 513.4 470 435.3 406.3 378.3 335.2 312.3 288.6 273 271.6 271.2 271.6 275.8 278.1 281.7 286.7 292.3 301.3 315.5 338.2 363.1 385.1 403.4 421.4 434.6 447.1 458.5 468.5 474.7 468.7 461 480.9 498.9 520.7 537.7 552.4 572.4 591.8 613.9 638 655.5 674.3 691 708.8 728.5 745.2 761.8 771.6 776.6
834.3 830.4 827.2 824.2 820.9 817.9 814.6 811.5 811.3 814 812.8 812.1 810.3 810.5 814.5 816.9 815.3 821 825 828.2 835.8 844.3 849.4 852.1 858.2 868.2 875.2 875.4 869.1 869.6 866.5 864.2 860.6 861.9 865.2 869.2 871.1 869.4 867.1 868.5 870.7 872.4 874.1 877.8 880.1 880.1 878.5 875.9 873.1 862.9 840.6 821.3 794.8 783.5 761.8 752.7 745.9 740.8 734 735.2 742.3 746.3 742.7 731.3 735.3 741 757.7 765.8 744.2 729.1 719 710.5 711.1 703.8 714.8 719.1 722 721.1 732.2 736.9 752.7 774.3 798.6 803.8 816.3 830.6 826.4 826.2 828.8 829.7 833.6 835.5 835.2 836.2 836.2 835.5 836.2 836.8 836.4 833 830.3 828.2 823.9 818.2 815 811.7 807 804.1 803.4 803.4 804.1 806 808.7 812.3 813.9 817 820.6 822.9 825.5 826.5 825.5 824 819.5 815 807.4 797.9 788.5 780.7 782.7 780.5 780.9 784.9 788.6 792.9 798.2 803.8 810.3 816.7 823.4 830.7 837.4 840.9 829.8 778 747 704.8 671.9 642.6 615.2 595.1 564.5 527.3 482 446.2 412.3 378.1 348.2 322.7 297 278.3 271.7 270.3 273.8 275.7 278 281.1 284.3 287.7 300.3 309.9 333 357.8 384.3 399.9 418.1 428.3 439.5 448.9 456.8 451.5 456.6 479 493.7 510.2 527.4 541.1 556.9 576.7 598.7 627.7 647.4 670 685.7 704.5 721.1 733.6 749.6 761.4 770.1 777.5
834 831.9 828.7 825.8 823.3 820.9 817.8 815.8 814 814.3 810.5 810 809.3 809.8 811.6 812.9 811.3 814.5 814.1 821.3 827.7 836 842.9 844.2 853.8 859.7 865.5 862.8 861.7 861.7 858.9 857.2 854 856.1 862.6 864.7 868.2 864.4 867.6 870.4 872.2 873.6 875.7 877.9 879.5 879.2 879 878.3 878.6 871.3 857.2 838.9 810.8 795.6 770.3 752.4 746.8 743.3 736.1 729.6 734.3 739.5 745.8 734.9 719.5 723.5 727.3 732.7 740.5 713.4 699.2 691.2 699.1 700 706.8 710.4 715.7 718 724.7 730.6 743.5 757.7 781.9 788 793.4 806.8 816 822.9 827.1 829.3 831.8 834.7 835 836 837.1 839.1 839.6 840.2 839.5 837.5 836.1 833.8 828.8 823.8 817.8 814.8 809.8 806.4 805.6 806.3 808.8 810.1 812.6 815.6 818.9 822.7 825.7 829.9 832.6 833.7 833.3 830.5 826.2 822.3 816.9 806.3 797.6 794.5 794.4 790.4 791 796.1 797.5 798.8 804 808 815.6 822.2 829.1 836.6 843.7 847.1 836.2 789.8 751.2 719.8 690.1 665.2 638.4 613.7 578.9 539.6 502.5 455.7 421.4 391.1 361.7 332.7 304.6 280.8 270.9 271.5 272.9 274.6 276.9 278.6 279.3 283.1 292.1 305.9 328.5 350.2 378.3 395.8 406.4 419.8 431 436.9 430.8 447.6 469.8 485.1 500.4 514.9 527.9 542.3 560.7 581.4 602 626.3 652.9 674.7 693.4 717.5 732.1 744.9 753.6 761.3 770.8 778.2
833.8 832 830.9 827.2 825.3 824.2 820.8 818.1 817 814.9 807.8 807.5 807.4 807.3 808.6 809.7 807.7 805.9 810.9 813.8 818.5 826.9 835.4 839.8 849.5 854.6 849.5 855 856.6 854.5 854.2 851.6 850.4 849.9 856.6 861 864.1 861.8 868.8 870.3 871.6 872.9 874.1 874.5 875.5 875.1 876.1 877.5 879.4 874.8 863.4 852.9 827.7 803 784.8 758.4 749.4 741.2 735.6 733 727.8 734.6 743.1 735.6 716.6 716.4 709.6 709.9 711.7 699.3 682.4 682 687.2 693.2 693.5 700.3 706.4 712.8 717.1 720.3 732 741.2 755 765 779.1 793.1 807.8 817 822.3 828.2 829.9 832.6 834.6 836.3 838.7 841.3 842.1 842.1 841.9 840.9 839.5 836.2 831.2 824.8 820 815.8 810.6 807.4 806.6 809 809.6 811.7 814.4 818.9 822.2 827.4 830.7 834 837.9 839.9 839.8 837.6 832.8 829.4 824 816.1 809.6 808 803.5 799.6 798.7 803.1 806.2 806.5 810.9 815.4 820.3 826.1 833.6 840.3 847 851.1 846 807.9 777.1 738.2 719.5 687.4 660.2 636.3 603.6 557.1 520.1 471.9 438.9 408.2 377.9 348 317.5 288.2 275.7 270.7 271.9 273.7 275.9 276.5 278.7 280.3 289.9 305.5 321.1 344.1 373.2 388.1 400.8 412.1 411.2 414.3 426.6 455.3 472.3 487.3 502 515.2 528.6 544.1 561.4 581.2 600.9 623.1 649.8 674.5 698.9 719.3 736.5 748.3 756 761.8 769.6 776.2
837 834.3 831.7 828.9 827 824.6 823.5 819.3 818.3 812.7 807.8 805.7 803.5 804.2 806.4 807.3 806.3 804 804 808.5 812.6 823.9 831.1 836.2 847.4 849.3 844.3 849.9 849.3 848 847.6 846.4 846 846.4 850 858 857.2 866 869.7 868.6 869.6 870.5 870.9 870.9 869.6 870.4 870.4 875.9 878.5 877 872 859.9 846 812.8 793.6 764.9 754.6 745.2 737.8 734.6 726.5 722.8 732.2 723.9 724.9 718.9 707.3 700.9 705.9 714.2 687.3 669.5 674.8 681 685.3 690.8 696.9 706.3 711.2 713.7 720.2 727.3 737.2 747.4 763.1 778.7 793.9 806.9 816.8 823.6 828 831 833.1 835.7 839.3 843.6 844.9 843.8 843 842.1 840.5 836.3 830.8 824.1 819.2 814.2 811.1 809.6 808.2 809.7 811.4 813.3 816 821.2 825.2 828.7 833.9 837.8 841.8 844.4 845 844.2 839.2 835.6 832.2 825.8 822 821.3 818 809 810.1 811.6 812.9 813.6 815.4 819.2 824.4 830.7 836.4 841.4 846 850.1 848.4 827.3 790.9 773 745.6 713.7 687.2 653.3 621.3 577.9 532.2 490.6 456.4 422.6 388.8 356.9 326.8 300 282.2 269.5 271.6 273 274.1 275.4 276.7 278.3 287.4 302.9 319.6 340.7 370.4 380.2 394.1 383.4 402.6 421.9 439.7 456.7 473.8 488.1 502.4 512.8 525.1 540.7 560 579.8 599.1 617.6 644 670.8 695.4 717 735.7 746.9 755.8 762.7 768.4 772.1
839.4 837.1 834.9 832.9 829.6 826.6 825.1 822.8 820.6 814.7 808.4 806.4 802.7 802.1 802.2 803.2 805 800.5 798.4 797.8 807.4 818.6 824.6 831 844.1 842.6 842.7 843.3 841.3 840.9 840.8 842.4 840.8 843.2 846.3 853.1 859.3 868.2 870.2 865.3 866.2 865.2 865.5 866.5 865.3 863.9 867.4 872.6 875.9 875.1 874 868.6 857.1 838.6 797.2 778.3 760.9 746.6 740.6 735.4 727.6 723.1 720.9 725.8 724.7 728.1 710.5 685.6 695 699.3 683.1 669.7 667.4 677.3 682.8 687.3 687.3 699.1 702.5 703.8 710.6 713 727.2 735.6 752.9 767.7 780.4 796.3 812.5 819.9 825.8 829.1 830.7 834.1 837 840.7 842.1 843.3 842.1 840.8 838.8 834.8 829.1 821.4 817.2 812.8 811.7 811.1 810.6 811.3 812.9 816 819.1 822.5 826 830.2 835.3 840.7 844.7 848.4 849.5 848.8 846.3 843.4 841.4 838.6 835.4 834.2 831.2 824.7 819.6 819.4 819.7 819.4 820.8 823.7 827.7 832.3 836 840.2 844.6 846.5 844.9 843 822.2 798.6 767.5 733.2 698.4 687.4 628.2 575.9 542 500.9 465.3 431.6 397.9 364.6 334.2 306.3 281.3 272.2 269.8 271.9 273.3 274.3 274.9 278.1 288.7 301.8 317.3 335.6 360.1 367.1 380.9 391 415.1 430.2 445.2 460.9 476.4 489.3 499.8 509.6 521.5 538.4 560.3 575.3 594.8 612.9 637.4 663.1 687 708.8 728.3 743.8 752.9 760.7 764 766.6
842.4 839.5 838.4 837.8 832.4 829.7 829.2 825.3 822 813.9 809.7 806.7 801.4 799.8 801.1 801.3 803.3 801.8 793.7 795.4 811.4 813.7 817.2 821.9 833.2 840.4 841.2 837.3 834.8 834.4 835.3 838.2 837.7 841 849.6 857.1 863.1 870.3 867.6 863.5 862.2 861.8 861.1 861.6 859.8 858.5 862.8 868.5 872.4 874.2 874.8 875.2 870.2 854.7 812.9 788.4 771.4 754.7 742.7 741.5 733.7 725 719.4 714.2 720.5 726.3 701.3 683.3 680.3 679.2 666.5 656.5 663.1 671.3 676.1 676.3 671.8 681 692.8 697.2 698.4 705.4 717.4 728 741.5 755.5 768 786.7 804.1 810.8 818.9 825.1 826.8 831.2 833.6 835.3 838 839.1 839.5 838.3 836 832.3 826.1 820.5 815.1 812.8 812.4 812.2 812.4 813 814.8 817.2 819.3 822.6 826.4 831.9 836.1 841.4 847.2 850.8 852.4 852.5 851.2 850.3 849.2 848.5 846.3 843.4 839.6 832.7 830.4 828.7 825.2 822.6 824.4 825.3 826.8 829.5 832.9 837.3 841 841.8 838.8 833.9 822.8 795.9 762.1 731.9 715.5 696.9 658.2 596.6 560.3 517.8 478.3 445.3 412.4 377.2 343.6 313.1 284.6 271.2 269.7 271.7 273 274.3 274.9 279.9 286.9 299.4 311.5 329.8 346.7 358.1 370.2 398.4 420 432 446.9 462.2 476.2 486.6 497.3 511.1 523.6 536.3 556.8 570.5 589.3 608.4 630.4 654.4 677.5 697.1 717.5 733.9 745 753 755.7 758.2
845.1 841.2 841.4 841.5 836.5 834 832.9 828.3 822 814.1 808.7 808.7 805.8 800.9 799.3 800 801.6 803.1 792.3 793.3 807.1 810.8 812.1 814.1 820.3 830.9 832.1 831.4 830.2 828.8 831.6 833 836.6 843.7 852.9 862.4 864.8 869.2 865.1 861.7 858.8 857.5 855.5 854.7 854 853.7 856.1 862 869.1 872.3 875.5 878 876.9 865.9 840.2 800.1 775.1 752.5 741.1 740.4 735.7 732.3 720.4 718.7 715.9 703.4 692.6 682.4 664.8 684 679.6 670.7 658.2 652.2 653.2 665 647.3 651.3 665.5 674.1 685.6 694.7 701 713.1 730.4 745.5 757.9 775.7 787.6 795.5 806.4 814 821.1 826.4 829.6 830.1 832 834.4 836.9 834.9 832.5 829.5 825.2 818 813.4 812.5 813.6 813.4 814.1 815.7 816.7 818.6 820 823.2 826.8 831.2 835.6 841.2 848.1 852.5 854.4 855.5 855.6 855.7 855.8 856 855.5 852.1 846.9 843.2 840.4 834.4 829.3 825.5 825 824.4 825.4 826.6 826.6 829.8 830 827.6 827.2 824 807.1 784.7 754.7 730.5 725.4 705.2 677.8 614.1 565.7 526 489.1 454.1 418.4 383.6 350.6 318.9 289.7 274.7 271.5 273.6 274.9 275.7 276 279.9 286.2 297.4 307.3 322.7 334.2 353.2 378.9 399.9 417.9 430.1 445.6 460.6 474.8 484.7 497.8 513 521.6 532 550.8 565.7 582.7 601.4 621.8 642.8 668 690.2 711.3 726.8 737 746 749.4 750.9
851.3 844 846.2 845.3 841.4 839 838.9 832.3 823.4 814.6 811.1 809.3 808.1 798.3 795.8 800.7 799.4 801.6 791.6 793.1 800 806.4 810.2 806.8 811.4 818.8 821.9 824.9 826.6 826.4 828.1 830.9 837.5 844.9 857.2 867.7 867.3 865.2 863.2 860.5 857.5 853.2 850.3 846.7 849.3 850.1 852.9 856.3 865.7 872.1 877.1 880 879.4 874.3 859 822.4 789.3 760.2 749.3 743.7 739.9 731.7 732.3 720.8 718.6 711.9 703.8 690.9 686.7 650.8 673.9 685.7 677.1 658.6 636 629 630.1 620.5 630.2 647.6 645.6 671.1 669.8 693.8 716.2 733.5 748.8 762.1 773.2 782.7 794.6 806.2 811.3 817.6 823.1 823.9 825.5 828.4 830.6 831.3 828.6 826.2 821.7 814.3 812.1 811.9 812.3 814.1 815.6 817.4 819 819 821 823.6 826.3 831.1 834.7 839.9 844.9 849.5 854 855.9 858 859.8 861.2 861.5 859.8 856.8 850.2 844.9 842.7 835.7 827 825.5 823.7 821.6 820.3 816.6 817.5 818.1 818.7 817.3 814.2 810.5 793.2 770.1 749.8 731.2 723.1 702.6 680.2 647.2 609.5 539.2 502 463.6 428.5 391.3 354.5 322.3 296.7 276.6 271.1 274.4 274.9 275.7 276.3 280.7 285.3 295.1 307.6 320.4 339.2 363.7 381.6 401 416.5 429.9 444 459.5 473.4 483.6 497.5 509.9 519.4 529.1 543.2 558.1 571.4 589.7 610.5 631.9 658 680.2 702.2 719.7 733.2 741.1 744 744.9
858.3 851.7 851.6 850.9 847 842.8 840.9 837.2 827.4 817.9 813.6 808.6 806.1 796.9 794.8 799.1 794.3 784.5 779.7 786.6 794.8 803.7 802 804.1 806.3 808.5 814.3 820 820.9 823.4 826.7 831.4 836.9 847.3 859.8 869.3 871 868 865.7 862 858.5 852.3 845.3 842.1 842.6 845.7 848.7 855.4 863.5 871.3 878.4 881.3 881.4 876.8 866.2 843 806.3 769.2 761.4 751.7 746.1 736 738.1 725.1 715.3 716.6 714.4 705.4 693.5 678.7 638.8 660.3 667.4 649.2 639.5 629.8 610.7 590.4 583.6 582.5 600.9 613.7 630.5 658.1 686.8 722.1 730.7 748.7 761.3 769.6 782.8 793.6 800.6 806.5 811.6 814.1 818 823.1 824.3 825.5 823.1 820.9 816.2 809.8 809.6 810.5 812.2 816 818.1 819.6 820.1 821.3 822.1 824.2 826.2 829 832.9 837.6 842.5 847.2 851.9 855.4 859.1 862.4 863.9 863.3 861.3 857.1 850.9 846.3 842.3 835.3 826.9 826.7 823.1 817.2 811.3 803.8 796 787.1 782.5 790.2 788.8 778.1 760.6 751.1 743.9 720.7 709.2 697.7 677.7 649.9 598.1 554.1 513 473.2 434.8 395 360.5 329.4 303.5 277.2 270.2 272.9 274.1 276 277.2 277.9 282.9 292.5 301.4 316 340.1 363.9 381.1 400.1 416 428.5 442.7 459.4 472 480.4 495.6 507.6 516.8 524.9 538.4 550.2 565 581.6 600.9 622.6 645.1 670.8 693.1 711.1 730.4 742.2 741.5 736
860.5 854.5 855.4 853.7 849.9 844.3 841.6 839.4 826.2 817.2 813.7 809.4 803.6 790 797.2 799.4 788.7 766.1 759.4 778.9 788.7 802.6 799.6 796.5 800 809.4 813.4 815.7 818.9 820.7 826 830.3 837.2 848.7 861.4 872.1 872.1 869.4 867.1 864.7 861.4 854.2 845.3 840.5 839.2 841.9 846.8 852.6 860.7 870.8 878 881.6 881.1 878.3 867.7 854.3 819.3 783.9 773 762 753.7 746.3 742 735 726.4 721.5 715.8 712.8 706.2 689.7 668.7 627.5 637.7 637.2 640.6 636.1 615.4 578.3 555.6 550.9 561.3 580 601.4 628.7 656.4 673.5 691 704.6 727.4 743.1 772.6 779.1 786.5 794.4 799.1 804.4 808.8 814.9 818.6 820 819.3 817.6 810.5 805.1 804.4 808.6 811.8 817 821.7 822.9 822.6 823.6 823.2 824 825.8 828.9 831.3 835.4 839 845 850.3 854.9 859 862.7 865.1 865.6 863.8 859.7 853.2 848 842.5 836.1 828.4 822.8 814.4 802.5 794.3 784.4 776.6 758.3 758.3 752.8 752 743.6 732.6 730.4 730 716.8 710.6 687.1 671.1 643.2 600.4 564.1 521.9 479.4 437.5 399.1 366.5 336.5 311.5 285 268.6 270.4 273.8 275.5 276 276.4 281.4 290.5 298.8 315.8 339.5 361.4 379.8 399.2 413.7 427.2 442.1 457.5 467.6 475.1 492.2 505.1 513.3 521.1 532.9 543.4 558 573.6 591.9 612.7 634.2 659.9 683.7 704.1 723.1 732.5 733.6 717.4
860.3 855.2 858 854.1 849.8 842.3 839.5 836.3 823 818.7 816.2 811.3 802.4 775.1 798.5 794 755.8 739.5 739.3 760 769.2 786.1 789.5 794.7 805.9 807.4 811.5 815.1 817.6 820 824.8 828.9 837.3 850.2 863.1 872.8 872.6 870.1 868.3 867.1 864 857.2 844.4 839.1 837.6 839.3 844.6 850.5 859.1 869.6 877.7 879.7 879.8 875.7 864.7 854.6 833.4 797.3 785.6 770.6 762.3 756.6 753.2 750.6 731.8 725.6 721.8 720.4 714.1 695.2 676.8 649.6 598.1 620.2 634.4 640 609.8 578.6 533.8 528.4 541.5 555.9 574.1 599.2 629.7 637.7 645.4 669.9 691.7 722.7 749.8 765.6 773.2 785.1 790.9 795.5 801 804.4 810.3 812.7 813.5 812.6 802.1 800.3 799.2 804.2 808.9 816.6 820.8 822.6 823.5 824.6 824.4 823.2 824.6 826.2 828.2 833.7 836.7 841.9 846.5 852.6 857.1 861.1 864.6 865.8 865.1 861.5 855.2 848.8 842.4 833 825 812.7 800.5 795 783.4 768.9 749.1 738.7 729.8 719.8 722.1 714.4 707.4 709 708.9 704.1 690.1 677 653 633.9 603.1 566.1 522.4 477.5 440.1 403.6 372.5 342.8 315.3 293.3 272.7 272.4 272.5 273.9 275.1 274.8 280.7 286 300.5 318.6 340.9 359.5 377.7 395.4 408.9 425.9 439.6 453.8 464.2 472.9 488.4 501.6 510.4 517.6 528.3 540.3 551.3 565.6 584.2 602.8 623.9 648.3 673.8 692.4 709.6 716.9 712.7 699.5
860.8 855.3 858 853.7 848.1 841.8 838.1 831 824.8 821.5 817.2 808.2 791.9 777.6 798.2 778.7 729 710.4 720 718.8 745.3 767 767.7 790.1 799.6 806.8 810.3 811.9 814.9 820.7 824.4 828.3 837.3 850.7 863.7 873.4 872.7 870.8 869.7 868.9 865.6 857.9 846.1 838.7 835.5 836.4 841.2 848.2 858.3 868.7 876 878.1 877.6 873.8 865.6 853.5 839.8 813.6 798.7 781.8 773.1 765.6 762.9 761 751.2 736.5 727.2 723.1 722.4 704.6 688 669.1 636.3 583.3 615.1 629.2 586.4 556.1 529.1 516.1 522.4 530.5 547.3 566.7 583.9 600.5 615.3 633.5 661.9 687.7 712.9 729.2 760.4 778.3 783.7 784.2 788.7 766 762.1 759 770.7 777.4 772.5 769.8 771.5 791.8 805.6 813.8 818 820.7 822.2 823.8 823.6 821.3 821.6 824 826.5 829.1 834.2 838.3 844 849.6 854.8 858.7 862 864.7 864.3 861.5 854.7 847.8 838.7 826.6 815.8 805.6 793.7 782 769.4 754.8 733.8 722 710.4 701.5 699.9 692.3 687.4 691.4 690.8 684.2 676.2 662.8 649.2 625.2 595.1 558 531 487.6 444.4 410.4 377 347.7 319.7 295.8 277.4 273 275 273.6 273.6 272.7 275.8 286.3 300.9 319.9 341.1 357 372.9 389.5 405 422.3 436.9 450.2 460.5 469.6 484.4 496.9 506.9 514.5 524.4 537.8 548.6 560.4 578.9 593.6 613.1 632.9 655.2 672.3 683.3 687.7 684.3 672.1
862.6 855.3 858 852 846.5 839 835.7 822.9 822.6 817.5 813.5 806.9 787.2 787.5 793.1 742.3 698 688.5 697.6 698.9 719.6 736.6 752.8 760.1 774.8 799.5 803.1 809.5 813.8 818.7 823.1 828.4 838.3 848.7 864.9 873.4 872.7 871.8 871.8 870.9 867 860.5 847.3 838.5 834.5 834.6 838.3 846.5 857.7 866.7 873.4 876 875.3 871.4 866.2 853.5 839 827.3 811.6 797.2 780.2 776 770.6 765.2 757.1 744.3 739.5 738 731.7 720 705.5 684.5 646 605.5 565.9 563.6 569.2 534 519.2 507.1 507.4 510.9 517.6 536.9 555.8 568.4 584.3 604.6 629.5 651.3 676 703.6 704.4 729.1 739.6 745.5 739.6 722.8 718 724.3 726.3 735.2 739.4 732.5 753.6 782.1 794.3 803.6 812.9 817 819 820.5 820.1 818.3 818.2 821.4 823.3 825.7 829.3 833.9 839.3 845.8 851.2 855.8 859.4 862.3 862.2 858 852.4 846.3 835.6 822.9 808.2 797.6 782.1 769 753.7 740.1 722.5 711.2 690.7 689.9 684.1 678 679.1 678.4 675.1 669.5 663.4 653 641 620.5 582.3 554.5 525.7 485.5 447.9 414.1 378.3 351 324.7 304 281.4 267.2 276.6 274.8 273.5 273.6 276.3 285.8 299.6 318.2 335.3 346 368.2 382.9 397 411.7 424.9 441 455.3 463.8 477.2 491.4 502.7 512.1 522.6 534.9 544.5 555.8 571.4 586.9 602.3 619.3 637.5 652.7 662.1 660.7 658.1 656.5
857.7 855.4 857.6 851.5 843.3 837.7 835.2 817.8 816.3 814.4 809 800.2 756 795.4 751.6 711.2 665.7 670.6 669.1 670.4 691.1 710.7 723.5 749.4 765 784.7 802 808 813 817.7 823 831 837.7 848.8 863.2 871.8 871.4 872.3 873.7 872.5 869 862.7 848.4 840.6 835.1 830.6 834 842.1 852.5 863.1 870.7 874.1 872.8 869.1 863 854.6 843.4 832.4 819.6 804.5 792.3 781.8 776.7 770.5 762.8 750.7 749.3 745.4 735.3 739.6 729.9 703.3 668.7 651.3 586.2 555.8 536.1 522 512.3 505 498.1 494 495.4 515.2 535.3 544.5 558.7 578.9 599.1 619.6 636.5 650.3 674.1 691.2 695.4 696.9 683.1 682 683.1 689.6 694.8 698.6 697.5 698.2 727.6 754.9 759.7 764.9 779 793.1 810.7 815.4 814.1 813.1 813.9 817.1 819.8 823.1 823.9 827.3 833.7 841 846.2 851.7 855.9 859.7 860.1 857.8 851.2 843.2 831.8 819.2 807.7 788.7 771.7 750.5 736.3 723.3 705.3 699.4 685 680 671.5 664.7 664.6 663 662.1 658.6 651.7 643.2 630.8 608.5 576.6 551.1 524 493.4 448.3 414.5 380.4 348.7 329.9 309.5 287.7 266.8 272.7 272.6 272.8 273.3 276.9 286.2 298.4 312.5 313.6 329.4 355.1 375.2 394.6 411.1 425.5 438.9 452.1 463.9 472.7 487.2 499.8 509.4 519.4 530.9 539.7 549.5 562.9 579.1 595 609.3 623.7 634.9 637.2 636.4 635.7 651.8
855.3 856.1 856.3 850.4 840.8 835.8 829.3 820 813.9 807.5 805.5 753.7 737.4 777.2 703.9 656.4 627 641.8 647.8 652.9 671.8 691 711.1 737.4 748 789 803.1 807.4 813.4 817.3 823.4 831.3 837.4 849.1 860.4 867.5 871.4 873.7 875 873.8 870.7 866 857.1 845.1 836.8 832 830.6 836.7 846.8 857.2 865.6 870.2 870.3 864.8 859.5 853.4 844.3 836.1 824.8 813 802.1 787 776.1 772.9 769.2 757.9 754.9 752.4 748.1 752.3 741.1 726.7 703.9 697.5 640.2 567.8 546.7 526.4 511.6 498.8 498.6 492.3 488.3 499.7 519.7 530.8 536.5 553.5 570.9 590.6 607.7 607.1 632.7 653.4 641.7 643.8 645.8 645.2 641.7 653 661.1 666.7 669.8 677.2 719.2 720.9 721.9 731.6 746 760.6 776.5 790.4 796.6 806.2 809.8 814.2 817.7 819.6 819.4 821.7 828.7 834.2 839.3 846.7 852.3 856.5 858.2 857 851.7 844.5 834.1 817.8 800.4 782 771.4 754.1 726.6 708 692.7 685.1 672.9 662.5 657.8 658.7 656.6 649.3 650.9 645.6 638.3 631.1 614 595 567.1 545 522.8 491.4 448.5 414.3 380.6 350.5 333.3 314.7 292 267.4 266.3 273.1 273.2 274.6 276.7 284.1 292.9 302.5 324.5 344.7 366.8 382.7 402.3 416.2 428.6 442.8 456.1 465.6 476.7 492.5 502.3 509.7 520 528.1 534.1 545.5 554.7 563.8 579.5 592.7 605.3 609.6 611.6 625.9 646.7 668.5
855.3 856.6 853.4 847.8 837.4 835.3 825.3 818.9 811.2 804.3 793.7 727.5 697.6 707 656.1 622.7 606 612 627.6 634.6 664.2 688.3 700.6 713.5 750.1 784.4 795.4 810.2 812.8 817 821.9 829.9 837.6 848.8 860.4 868.3 871.9 874.5 874.8 873.3 870.9 867.6 862.4 849.6 840.4 832.4 827.7 831 841.1 850.2 860.5 866 865.5 861.4 857.2 851.2 841.6 833.6 823.4 811.7 806.9 793.3 777.4 775.3 770.6 763 760.1 757.5 756.3 764.9 749.1 742.8 747 722.8 667.9 596.6 576.6 545.7 524.8 508.4 498.3 490.6 484.1 482.6 501.6 513 518 527 537.8 552.9 566.5 568.3 568.1 553.6 562.5 583.1 592 601.5 601.1 608.6 624.4 640.7 629.1 668.2 690.4 687.9 692 703.3 713.2 727.3 738.1 748.2 768.2 779.7 791.6 810.9 813.4 814 812.2 815.3 821.5 827 834 842 848 852.8 855.4 856.2 853.1 846.5 833 815.5 787.5 775.2 761.4 742.1 719.5 701.2 689.1 674.7 673.1 650.5 642.9 640.6 637.1 633.6 632.6 633 626.6 613.4 599 581.4 561.3 527.9 517.3 493.1 452.4 415.7 382.2 352.8 336.3 317.8 295.8 272.4 271.9 272.3 271 274.9 279.7 284.2 290.1 304.8 325.4 346.6 370.8 389.9 406.9 418.9 431.1 446 459.7 469.9 484.3 495.8 504.5 512.3 521.5 533.9 545.7 555.4 565.7 581 588.8 584 601.7 620.9 636.8 653.8 669.4 691.6
857.1 858.6 854.7 844.9 834.7 830.3 820.8 815.5 808.2 798.9 709.1 682.7 691.3 667.3 631.2 601.9 587.7 595.3 607.1 611 649.9 666.6 683.4 709.8 747.9 769.7 794.5 807.8 812.3 814.9 821.5 828.1 837.3 848.2 860.2 867.9 872.4 875.5 875.3 874 870.7 868.7 866.2 858.8 850.3 837.4 827 825.6 834 845 856.8 860.5 859.8 856.9 852.6 846.1 837.5 826.7 816.4 806.8 802.8 797.4 780.7 778.5 773.3 769.8 764.4 761.8 754.1 763.8 758.5 758.8 765 742.7 671.1 629.6 592.8 568.2 546.8 530.6 515.2 502.3 488.7 478.9 479.7 495.1 504.6 506.5 513 521.5 530.1 531.8 532.8 521.7 526.4 534 541.3 559.8 566.2 578.9 591.2 603.3 615.6 637.7 652.8 655.4 663.8 677.5 684.5 693.2 706.4 718.3 738 739.2 763.8 795.4 784.7 789.2 790.5 805.7 813.2 821.4 829.4 836.5 844.1 848.7 852.6 854 854.2 849.2 833.6 812.6 785 766.2 747.6 729.9 708 691.4 680.4 671.3 651 638.9 628.4 621.1 619.2 617.1 617.3 618.9 611.9 600.8 588 574.1 551.3 525.4 513.5 500.9 460.7 416.5 380.9 354.4 341.1 320.3 298.8 277.1 267 272.8 273 274.3 277.2 281.5 289.3 305 330.9 351.1 369.2 387.9 405.6 421.4 434.8 450.4 462.9 475.3 487.6 498.1 508.1 517 525.5 536.5 551.7 564.1 576.8 590.3 603.9 611 611 630 649 668.9 687.5 707.8
859.6 860 856.5 842.1 835 823.8 817.3 812.7 805.2 757.1 700.4 642 656.4 640.6 613.9 588.2 572.3 573.2 587.2 593 632.6 656.6 681.9 705.6 737.7 761 794.2 809.9 811.7 814.3 818.3 826.4 836 849.5 860.3 866.2 872.7 875.2 875.3 873.6 871.3 869.5 867.7 863.3 856.7 843.5 831.8 819.6 824.7 839.1 849.7 854.7 853.5 850.9 845.6 839.4 827.9 819.6 809.1 802 798 791.3 784.4 781.6 775.6 771.9 768.3 757.8 766.3 769.9 768.6 772 778.5 730.2 691 680 637.9 593.8 575.6 556 533 511.6 492.8 483.7 476.4 469.4 482.3 496.7 488 499.8 499.8 499.6 503.4 500.3 497.2 507.8 518.5 526.6 538.4 551.5 565 569.6 584.2 600.4 613.1 629.3 634 647.2 656.8 665.2 675.4 687 698.9 713.3 734.7 740 747.4 754.2 776 793.8 804.7 813.8 821.7 831.4 838.8 845.9 849.5 852.8 855.7 851.7 836 813 784 762 740.3 719.1 698.6 680.9 673.9 656.7 637.5 624 613.4 608.4 607.2 604.6 601.6 602.6 597.2 590.2 576 561.6 538.7 518 510.8 499.7 463.4 414.6 381.2 356.6 341.7 321.5 302 282.2 266.2 272.2 272.5 274.9 275.5 280.2 285.9 306.8 338.3 351.2 362.9 388.6 405.4 422.9 438.5 452.4 465.1 477.7 489.6 500.1 512 519.7 528.1 538.9 553.8 571.7 584.6 600.3 615 626.8 635.1 637.4 652.9 673.3 695.9 715
861 858.7 851.9 840 834.7 820.7 815.7 809.1 796.4 728.3 685.5 648.5 610.6 608.6 591.6 574.1 565.9 567.4 573.5 599.9 627.7 653.7 675.7 703.3 738.4 770.5 802.1 809.2 809.7 812.2 817.2 826.9 836.3 848.2 858.2 864.3 870.5 873.5 875 873.7 871.4 870.5 869.4 866.1 860.3 846.4 830.9 821.2 819.5 830.9 842.2 847.4 846.6 844.1 838.8 831.1 822.2 812.6 806.1 796.7 792.1 786.8 784 781.4 775.8 771.8 769.8 761.1 771.8 779.5 777.6 779 775 778.9 722.9 733 682.4 629.5 606.5 580.7 552.4 523.7 497.8 488 479.2 472.5 458.3 472.8 471.8 472.4 473.9 473.8 471.2 473.4 472.3 483.8 498.7 504.3 516.5 528.1 541.7 555 560.8 571.9 585.5 595.5 607.5 619.5 630.3 640.1 647.5 659.8 666.4 681.5 694.1 703.7 719.6 735.4 751.4 774.7 790.2 803.1 813.8 825.9 836.2 839.8 845.6 851 855.9 856 841.6 814.8 785 763.3 735.2 713 689 670.9 655.1 627.8 616.9 606.2 599.4 592 591.2 589 587 585.8 579.3 572.6 562.4 548.1 527.3 508.9 507.9 494.6 461.7 414.9 380.1 356.3 337.8 323.4 305.6 287.2 272.5 269.9 272.3 274.6 277 280 284.2 304.6 332.9 346.5 365.8 392.8 410 430.2 446.2 454.7 467.8 478.5 490.9 502.6 513.6 522 532 550.3 568.1 586.3 603.6 617.5 630.4 640.9 648.9 657.2 666.3 672.6 693.9 715
860.8 855.4 846.5 839.2 833 820.9 811.8 808.5 766.1 691 661.8 632.2 601.1 590.6 577.1 566.4 560.9 564.9 576.4 598.2 625.4 651.2 675.7 715.3 746.7 778.6 803.6 806.8 807.3 809 816.1 824.8 836.4 846.8 856.1 860.8 868.9 873.1 874.6 873.3 871.8 870.9 869.7 868.1 863.1 853 834.5 822.9 811.2 819.7 831.4 839.3 837.2 836.9 832.5 825.2 815.4 807.6 799.9 793 785.8 784.8 782.7 780.4 774.8 773.6 769.5 771.7 776.6 783.8 785 785 791.5 790.9 784.4 763.6 713.1 659.4 629.4 597.7 567.1 535.7 507.9 489.2 480 468.7 460.7 448.5 451 451.2 450.5 449.7 448.8 449.9 453.6 463.6 475.6 484.2 493.2 511.8 522.7 534.7 538.8 546.9 559.2 569.6 580.5 591.6 603.9 612.1 623.7 631.7 641.3 655.4 665.1 678.3 691.2 712.5 726.9 755.9 773.7 788.7 803.3 815.9 824.2 831 838.1 845 850.4 852.6 846 823 784.5 756.5 730.1 704.3 673.2 652.6 625 606.9 599.3 587.6 583.9 576.9 576.6 574.7 570.5 567.7 563.8 556.8 545.5 531.8 512.8 502.8 491.1 483.5 452 411.9 377.3 355 341.7 325.6 309.6 292.8 277.5 267.4 271.9 272.4 276.4 277.8 283.5 304.9 330.2 350.6 369.9 396.6 419 438.3 448.3 454.5 468.7 479.6 491.7 503.6 515.8 523.7 535.7 553.6 576.8 603.9 627.6 645.1 655.4 665.5 672.6 680.6 686.5 691.7 697.9 714.9
858.5 846.6 838.4 835.6 827.9 821.3 816.2 743.9 702.2 665 632.7 613 589.3 578.6 573.5 565 559.7 563.9 578.7 598.5 624.6 650.4 673.2 704.3 754.5 791.3 800.7 803.2 805.3 807.3 814.2 821.5 833.5 842.8 850.2 860.6 868.5 872 872.6 872.4 871.8 870.4 868.9 866.6 863.2 855 840.6 824.6 813 810.5 818.8 827.7 828.6 827.8 825.8 820.5 811.2 801.3 795.2 789.4 783 781.8 780.8 778.7 775.6 770.3 773.7 776.4 779.8 787.2 788.2 789.5 794.4 793.3 792 787.6 715.9 679.9 646.4 619.3 572.9 540.1 512 492.8 476.5 464.6 456.5 451.6 444.1 435.6 436.4 437.6 436.5 435.6 439.4 443.4 455.6 468.6 479.9 492.2 507.8 518.3 521.8 527.7 537.8 547.8 557.2 568.3 579.5 588.4 601 607.2 616.3 627 638.7 652.7 672.8 677.9 708.1 732.1 749.5 765.7 779.1 782 788.2 799.9 818.6 835.8 842.4 843.7 840.3 824.3 790.7 740.8 707.8 680.5 650.5 624.3 604 592.1 577.3 570.7 564.2 561.2 559.6 558.4 556.9 550.8 547.3 540.9 528.8 513.9 502.2 493.9 486.9 469.3 443.5 410.2 379.2 353 343 327.5 311.2 296.1 281.8 272.5 264.3 270.8 272.9 275.4 281.8 309.1 332.1 348.4 374 402.9 430.2 445.7 449.5 454.5 468.3 482.4 493.4 508.4 518.8 525.6 540.6 562.2 588.8 615.9 642 667.8 685.4 693.3 702.6 706.6 710.5 712.3 716.6 724.7
854.5 839.4 832.9 829.8 825.5 797.2 753.9 716.4 667.8 643.1 611.8 591.5 574.9 571.1 564.8 560.1 557 567.3 582.7 601.4 624.7 653.1 678.9 706 745 787.8 794.8 798.4 802.1 804.5 811.1 817 827.7 839.2 847 857.4 865.2 869.9 870.1 870.8 871.4 870.2 867.4 864.5 861.1 855.1 843 825.6 809.7 802.2 808.6 814.2 817.9 819.3 819.4 814.1 807.6 800.5 791.2 783.8 781.8 778.3 777.8 777.2 775 775.4 776 778.4 782.9 787.9 789.2 792.4 798.6 801 800.2 797.1 766.6 712 691.6 660 622.7 546.3 520.2 506 486.8 467.6 454.6 447.4 442.4 438.2 435.7 428.9 428.1 427.6 426.7 433.4 434.9 448.1 463.4 481 492.1 504.9 506.8 510 517.9 523.8 534.2 543.5 553.8 566.7 574.7 583.7 593.9 603.6 617.2 632.1 646.1 660.2 691.8 707.6 723.9 733 739.6 747.8 749.7 764.9 789.5 811.8 824 827.5 826.6 819.7 789.4 748.6 699.6 666.8 639 615.4 593 575.3 560.7 550.1 546.6 546.1 544.8 542.6 538.4 531.6 527.7 522.9 513.9 502.3 492.8 485.9 472.4 455.9 436.3 407.1 377 358.1 346.4 330.4 312.6 298.5 285.3 276.4 267.7 264.8 272.9 276.6 283.3 311.5 332.1 347.2 372.1 412 440.6 446.8 455 461.6 471.8 486.7 498.9 511.8 516.9 526.1 544.8 567.2 593.5 620.3 649.3 677.3 698.1 711.7 724.2 728.5 731.8 733.7 735.9 744.1
844.7 825.1 825 826.6 802.4 741.1 707.2 678.8 641 620.2 594.2 571.1 563.8 560 557.1 556.4 558.9 567.1 581.7 608.1 634.2 660.3 685.4 709.5 744.3 778.4 790.2 795.9 798.8 803.2 809.2 814.6 824 833.9 843 851.7 860.1 865.7 867.3 868.2 869.6 869.1 866.5 862.1 858.2 853.5 843.3 824 808.7 799.1 800.7 803.8 806.7 808 809.9 805.9 800.2 795.8 789.6 782.6 778.6 779 778 777.7 776.6 776.9 777.9 782.1 785.8 788.9 791.9 794.7 801.1 801.5 801.8 803 783.7 785.2 734.4 693.7 645.3 565.3 536.7 519.3 502.3 483.5 461.4 454.3 443.5 437.6 434.7 430.6 425.6 423.8 423.5 427.3 429.4 438 448.1 462.5 474.2 487.8 494.9 497 499.9 503.1 512 520.1 531.7 543.3 550.4 559.3 571.1 584.4 593 609.7 618.9 642.1 666.6 673.3 689.7 698.9 704.4 712.1 720.6 744.8 771.5 789.9 804.3 812.3 814.9 813.6 795.7 758.7 711.2 676.5 646.1 617.3 591.7 569.1 550.1 538 532.7 526.3 520.2 517.7 516.5 510.7 508.7 505.6 499.6 485 477.4 468.2 455.9 446.1 426.6 400.6 371.8 357.8 348.8 331.9 314.1 300.8 289 278.8 270.6 263.1 271.5 273.7 282 309 331.3 347.5 369.3 400.6 431.9 448.3 455.9 465.7 478.2 489.7 500.3 508.6 518.7 530.2 544.2 568.2 595.2 622.3 648.9 673.9 699.7 716.2 728.8 736.8 743.5 751.4 758.3 765.6
816.7 812.5 817.4 808.8 743.9 713.4 683.5 654.5 624.3 595.1 578 559.6 555.2 553.2 551.2 550.5 559.1 570.1 587.7 610.6 637.5 658.7 677.1 722.9 755.4 776.9 787.4 792.8 796.8 801.5 806 811.8 820.5 830 838 845.7 853.1 859.9 864 865.5 867 866.9 864 858.7 854.4 850.2 842.3 824 808.4 799.8 794.3 796.1 798.8 797.9 798.2 796.9 793.9 790.4 787.1 782.1 779.4 779.5 779.6 780.9 779.8 779.6 781.4 784 786.2 788.7 793.5 796.2 799 800.8 802.8 808 809.6 809.9 747.9 675.4 643.3 587.5 559.3 530.3 509.7 491.2 476.4 461.7 448.5 440.8 437 433.5 429.8 425.7 422.3 417.9 419.8 427.3 435.1 442.8 454.2 464 472.5 482.3 485.4 488 493.3 502.6 511.8 519 528.1 538.2 548 557.2 573 586.9 596.4 617.1 632.6 643.7 656.7 665 674 683.9 697.8 722 745.8 767.4 787.8 799.8 806.3 809.4 802.7 774 731.3 703.9 669 636.1 595 566.2 542.8 523.5 508.3 502.4 495.5 490.1 488.1 483.3 478.1 474.4 463.2 454.3 450.6 448 443 437.2 415.8 391.7 367 354.2 346.2 334.1 319.3 304.3 291.9 282.5 273 264.5 263.3 270 277.2 308.4 331.6 350.5 372.8 401 424.2 445.5 455.4 466.3 480.1 489.3 501.2 512.1 521 530.4 546.1 566.8 590.9 617.7 641.3 668.1 695.7 715.1 728.5 739.5 751.2 760.1 770 779.7
757 785.6 750.7 764.9 708.8 677.1 654.6 630.7 606.1 579.9 560.7 552.6 550.2 548.9 548.2 550 564.1 577.8 599.5 623.9 654.6 684.9 712.1 733 747.3 773.2 780.9 789.4 795 798.7 803.2 809 815.5 825.3 832.8 841.3 847.7 854.1 860.8 862.7 864.3 863.8 860.8 855.3 850.2 844.5 834.3 822.2 808.7 799.5 793.8 790.7 792.9 792.1 790.8 789.4 788.8 785.2 784 781.3 781.9 783 784 784.5 783.6 782.1 783.9 786.2 787.6 790.4 795.1 798 797.2 798 796.9 794.6 793.2 774.6 736.5 704.3 635.6 601.4 565.8 539.3 518.7 503.1 485.6 471.2 459.1 447.6 446.1 440.9 432.2 430.7 424.7 420.8 417.8 418.5 422.9 427.6 436.8 441.5 447.8 458.8 468 473.6 477.3 484.6 491.2 495.8 509.3 518.9 527.8 536.3 551.6 556 573.1 587.3 600.4 613.8 626.7 636.2 649.9 661 681.2 702.8 726 746.8 768.4 783.9 794.7 803.4 801.3 777.3 752.3 728.2 683 647.3 599.6 555.6 531.1 509.1 491.6 478.5 469.5 459.2 456.8 457.4 453.9 449 438.5 428.8 426.7 424.9 420.8 415.3 400.6 380.8 357.9 346.9 341.5 332.2 323 307 294.2 284.1 274.5 264.7 260.8 267.6 272.4 309.5 332.3 354.3 377.3 399 421 442 454.6 463.8 479.1 489.4 500.8 512.3 520.7 529.8 542.3 563.8 585.2 605 637.2 657.5 684.2 704.7 724.5 737.9 752.4 764.6 775.2 786.5
726.5 695.2 689.6 671.2 661.7 645.9 624.6 601.8 583.5 563.9 548.9 547.6 547 546.1 547.5 552.3 571 594.3 619.8 647.5 676.1 706.2 737.2 763.6 776.3 782.6 786.9 788.2 794.5 796.7 801 805.5 813.3 821.8 827.9 836.2 842.2 848.8 855.9 857.8 860.7 860.9 856.9 851.5 845.7 839.9 831.4 817.2 805.8 799.8 794.2 791.3 788.4 787.1 785.6 785.7 783.8 783.2 784.2 784.8 788.3 788.2 788.9 787 786.1 785.6 786.1 788.3 790.4 791.5 795.6 797.5 798.2 796 795 796.2 794 794.8 776.8 717.5 652.9 621.6 592.1 556.4 533.4 516.7 498.3 481.1 467.8 459.4 455.8 450 435.1 427.3 427.7 424.4 419.4 413.5 416.9 418.7 421.6 426.6 431.9 438.5 448.2 456.1 461.2 465.8 471.1 480.1 491 500.2 507.2 518.1 528 539.8 551.4 563.6 576.4 589.3 603.2 613.1 625.2 639.6 661.2 680.8 703.3 722.7 745.3 758.7 767 779.5 772.1 759.9 736.6 721 695.8 640.8 596.1 547.2 510.2 489.2 474.5 456.4 443.3 431.5 430.3 432.4 430.8 422.8 414.2 408.7 407 403.1 398.3 391 380.7 363.1 352.1 344.6 337.2 331.2 324.6 308.6 296.1 285.8 275 265 260.6 266.6 271.7 294.9 322.9 348.7 372.7 394.4 417.8 438.5 450 463.5 478.8 489.7 500.4 511.1 519 528 540.9 559.7 581.4 599.4 624.8 647.1 669.7 691 714.1 733 748.9 764.6 778 791
669.1 654.8 645 624.6 622.1 610.8 596.6 577.1 558.8 549.4 545.6 546.4 544.5 542.3 548.4 568.4 588.9 612.4 642.7 670.4 700.1 733.1 761.5 785.1 791.4 790.9 794.7 796.6 797.7 799.1 802.4 805.9 810.8 816 821.1 830.4 836.6 844 848.3 852.2 855.6 855.6 851.4 846 840.7 833.6 824.3 814.5 803.1 798.2 794.1 790.6 791 792.4 791.8 790.3 791.7 791.9 792.1 793 793 792.8 792.9 790 788.1 787.1 788 789.9 791.8 794.9 796.1 798.4 800.1 795.9 795.5 795.5 792.4 789.6 785 734.3 671 635.9 604.1 573.4 560.2 538.5 520.1 502.4 494.7 481.6 469.1 459.7 447.2 432.6 436.2 431 422.1 416.6 412.8 408.3 407.7 413.5 417.4 424.2 431.6 436.1 443 449.4 455.8 463.7 474.2 481.8 485.2 500.2 507.1 521.1 531.7 542 554.7 567.8 580.4 590.8 603.4 621.1 644.7 663.9 682.4 703 719.2 730.9 726 740.2 728.1 718 701.9 684.6 667.9 630.4 593.6 530.5 495.7 466.6 452.1 439.4 416 412 409.8 407.8 405 396.1 387.9 382.8 386.6 379.9 371.6 362 353.7 348.3 342.3 339.2 334.9 331.2 324.4 308.6 297.2 287.2 276 263.8 261 266 271.5 298.9 315 344.9 368.6 391.6 412.5 432.5 448.2 464.8 478.2 488.6 500.5 510.2 519.6 526 541.8 559.4 577 595.6 615.6 634.8 657.1 679.3 701.8 725 745 761.5 779.5 793.3
639.8 625.2 612.4 599.3 589.3 579 570.1 552.1 542.7 543.6 542.4 542.4 542.3 550.1 567.2 585 607.4 634.3 668.9 694.3 730.7 756.3 779.8 793.2 797.4 799.9 802.4 803.3 803.9 804.2 804.7 807.1 810.1 812.7 818.1 825 833.4 840 843 847.1 848.2 848.3 844 839 832.3 824.1 814.9 808.2 800.4 796.5 793.1 792.2 794.9 797.5 800.4 801.4 802 801.6 801.6 802.4 802.6 800.4 797.3 794.1 790.7 789.5 788.4 791.1 793.7 796 799.1 799.2 802.8 806.1 803.8 804 797.2 782.5 779.3 749.7 693.2 654.7 626.5 604.8 581.7 562.8 546.8 526.4 507.1 491.3 479.9 468.1 465.7 454.5 440.5 439.9 431.1 421.6 417.8 409.9 407.8 403.5 405.9 416.7 419.9 422.6 429.5 435.5 441.2 447.8 457.3 464.7 474.5 481.8 491.7 501.5 509.9 523.4 535.1 547.8 560 570 587.8 604.6 626.2 647.1 658.5 680.2 696.9 688.5 704.9 692.8 680.9 671.3 660.6 642.9 631.1 612.7 592.2 533.3 478.3 448.9 431.3 416.3 400.7 388.7 386.3 380.8 376.9 369.5 366.2 362.2 359.3 353.6 346.9 339.5 333.8 335.9 334.5 334.1 333.5 331.4 322.2 307 296.2 287.4 275.7 264 259.7 264 269 304.6 328 344.7 361.1 399.4 421.2 435.5 447.8 463.6 476.7 487 499.3 506.3 518.1 524.9 541.9 558.6 574.9 591.7 611.6 630.3 650.4 672 693.1 716.2 738.8 759.5 780.2 795.5
614.3 603.6 587.5 578 565.4 554.9 549.3 543.1 538.4 541.4 540 537.9 548 566.5 582.9 603.4 629.1 656.9 697.1 734.3 758.3 780.9 794.7 798.9 802.3 804.6 807.1 808.3 808.3 807.3 807.6 807.3 809.5 812.2 815.7 820.2 825.4 834.4 838.8 841.9 842.4 839.8 837 829.7 821.1 813.7 805.1 800.6 796.2 793.6 796.3 800.1 804.2 808.4 809.9 810 809.3 810 812.6 813 811 808.3 803.3 797.1 794.2 791.9 790.9 791.1 794.2 796.9 799.9 801.9 803 801 800.4 801.9 790.4 775 765.6 751.9 714.9 683.9 654.2 628 598.4 594.1 577.3 553 529.8 512.7 500.3 490.7 482 466.5 459.6 451.8 441.6 431.7 427 423.6 413.8 405.8 404.8 405 414.5 416.6 419.1 423.6 431.1 435.8 442.3 448.8 458.1 464.4 474 483 493.9 502.7 517 529.2 539.3 551 571.3 584.1 601.6 620.8 631.8 642 655 654.1 660.1 649.8 640.1 626.4 613.8 607.7 598.1 584.7 556.1 519.1 450.5 425.9 404.9 389.3 382.5 366.2 364.2 359.8 358.4 354.7 352.7 346.1 336.8 332.7 330.3 325.1 320.8 317 317.4 325.9 328.2 327.7 314.4 303.1 293.7 286.3 274.8 264 261.4 261.6 274.9 297.6 324.3 350.6 370.8 388.2 420.6 432.2 445.3 461.3 472.1 485.3 496 501.7 514.4 525.6 542.2 558.4 575.6 589.3 608.5 626.1 644.4 666.3 686.3 709.8 734.1 755 777.5 795.7
593.9 584.5 576.1 564.8 549.6 547.1 540.7 538.8 537.7 535.7 535.5 547 562.8 581.7 601.4 624.1 648.2 683.4 726.6 754.5 785.5 798.4 803.5 805.1 806.7 810.3 811.7 812.5 811 811 810.2 809.4 809.1 811.5 815.3 819.9 824.4 829.4 833 835.9 835.1 832.8 826.6 819.2 811 805.4 800.4 797.2 796.4 797.4 802.8 808.7 813.8 816.8 817.3 817.9 817.8 819 823 822.8 819.7 815.6 807.9 801.5 795.6 794.6 792.7 792.5 793.5 797.4 800 802.9 804.4 801.7 794 787 783.8 775 759.9 753.2 748.4 719.1 688.5 662 637.3 620.3 599.1 578.7 555 534.7 518.4 507.7 496.4 479.1 470.1 457.7 451.4 442.7 434.1 426.4 419.2 412.2 403.5 399.5 405.4 409.7 412.3 414.8 421.6 425.2 430.5 437.2 440 447.4 455.2 464.8 474.9 484.6 497.8 508.9 516.1 533.8 550.1 564.3 577 590 601.1 607.4 603.2 609.5 608 603.9 598.3 586.4 574.1 568.2 557.1 539.8 507 457.7 429 398.9 385.4 371.5 359.5 348.5 346.6 347.5 345.1 338.3 331.5 324.6 318.5 315.4 312.6 308.3 303.4 299.3 298.3 307.2 315.4 313.8 306.4 298.6 290.6 283.1 273.3 264.2 259.9 260.2 283.3 313 324.4 346.6 374.2 385.3 402.5 425 439.4 455.8 467.8 482.4 492.2 499 511.3 524.5 541.1 559.2 574.7 588.1 606.7 625.9 643.7 661.6 682.1 706.2 728.3 752.5 770.3 789.3
583.6 572.4 564.2 548.1 544.3 542.3 538.2 534.6 531.3 532.8 538.7 558.8 579.1 598.6 621.3 644.1 671.1 709.5 752 782.8 801.1 805.2 808.3 810.8 812.9 815.8 816.1 815.1 814.7 814 812.4 811.4 811.5 811.9 814.3 818.6 822.8 827 829.2 831.4 829.3 823.4 817.7 810 804.4 802.6 801.6 799.8 800.2 802.3 808.8 814.6 821 823.4 825.7 827.8 826.7 828.2 829.8 829.4 825.8 820 810.6 804.2 799.1 795.8 794.1 792.9 793.2 796.7 800 802 802.2 802.5 794.9 783.5 782.6 770.3 762.5 764.9 768.8 755.3 736.1 693 670.7 651.8 624.4 606.2 582.9 561.9 546.4 529.8 510.4 495.1 481.8 468.3 464.7 453.5 444.1 435.3 426.4 417.2 409.3 400.3 399.6 402.5 405.6 409.6 410.4 414.7 419.5 425.1 425.6 430 436.6 444.4 454.4 465 475.3 485.6 495.8 512.1 522.7 541.6 556.2 559.2 572.6 576.2 574.3 564 562.6 560.8 561.5 546.7 538.2 540.9 521.8 493.2 455 425.2 399.6 379.5 369.7 356.1 345.2 336.7 328.3 330.9 327.6 319.6 316.3 309.8 300.1 295.1 296.6 293.8 289.8 287.1 289.3 295.5 305.4 305.2 299.8 294.3 288.3 280.2 272.6 259.8 258.6 259.7 289.6 312.6 320.9 334.7 357.1 372.7 391.2 410.2 429.9 451.2 463.5 477.8 486.5 492 506.1 522.7 540.6 558.3 575.7 588 606.4 626 645.5 662.2 678.1 703 725.2 747 765.1 781.2
580.1 565.4 554.6 546.8 541.6 539.7 525.9 527.1 532.5 542.5 558.9 578.5 597.5 621.1 641.2 665.1 693.6 733.1 767.6 800.1 807.3 808.5 812 815 817 819.5 820.1 819.3 818.5 816.4 815.3 813.7 812.3 811.8 813.3 816.2 822.2 825.4 825.4 825.3 822.3 817.5 811.8 806.9 806.2 806.5 805.5 804.3 805.9 809.5 815.4 822.4 827.3 831.5 833.4 834.3 833.5 833.6 834.4 833.6 829.8 822.3 813.4 806.5 801.4 796.8 796 795 794.7 795.7 798.6 799.5 797.6 792.8 786.5 780.5 775.4 770 763.8 762.9 766.4 756 744.6 726.1 705.2 681.5 656.3 638.7 612.7 591.6 570.1 560.6 537.8 518.4 505 492.4 478.8 465.4 454.3 444 433.8 424.2 415 400.4 394.5 398 401 405.8 406.5 405.8 409.5 414.5 414.2 410.6 420.5 426.7 436.2 444 453.8 462.1 478.7 488 499.3 512.4 518.9 531.1 538.7 544.2 548.6 532.2 517.3 521.1 529.7 505.6 497.6 501.2 483.2 439.3 417.2 393.8 371.8 360.6 349.9 340.3 327.1 319.4 312.6 312 313 307.7 300.2 294 289.6 287.1 286.4 283 278.5 276.9 279.4 287.2 296.6 297.8 294 289.6 283.6 275.7 269.2 266.3 257.5 258.4 275.9 298.4 318.9 335.2 352.2 366.7 380.5 402.2 423.3 440.2 456 473.5 481 489 504.3 519.8 540.1 558.9 580 594.5 608.9 625.5 646 665.3 683.8 703.7 723.9 742.8 759.7 771.2
571.6 558.1 547.2 545.4 539.1 524.8 525.7 536.9 544.8 556.9 575.9 598.7 623.6 644.9 665.7 687.8 716.9 750.9 784.4 805.8 809.8 812.5 815.3 818 820.6 822.5 823.2 823.2 821.4 820.3 817.5 816.1 814.9 812.6 813.1 814.8 819.2 820.9 820.9 820.3 816.2 811 806.9 808.1 810.3 812.8 813.4 811.8 812.6 817.9 822.2 827.7 831.5 834.9 837.7 838.6 838.3 837.1 836.8 835.6 831.6 824.2 815.7 808.7 803.4 799 795.8 795.1 795.6 794.4 795 795.2 794.6 787.9 782.5 780.4 775.9 769.8 766 761.7 759.2 755 752 750.3 744.9 719.5 692.2 674.2 645.8 621.6 604.1 593.4 564.9 546.5 528.7 513.7 497.1 480.8 467.9 455.9 445 435.5 420.9 410.5 393.2 395.4 395.3 397 400.2 399.4 401.7 405.5 409.1 405.7 399.1 411.1 419.2 426.6 433.3 444.3 457.2 465.9 473.4 479 488.2 498.1 506.1 514.3 500.7 494.1 478.7 477.8 485.5 468.2 462.1 448.4 425 406.6 388.7 374.1 357.4 344.3 333.2 321.5 310.7 303.2 304.1 301 296.7 290.3 287.8 286.3 285.2 281.3 275.9 270.8 266.5 269.2 266.2 272.4 283 287.9 285.5 282.5 275 269.6 264 261.4 256.5 258 269.3 290.2 314.7 331.7 348.5 360.6 381.6 400.2 418.1 437.2 457.9 472.4 478.3 487.5 504.6 521.2 541.4 562.8 583.2 600.1 616.3 631.6 644.7 665.5 685 705.3 723.1 738 751.5 762.5
561 545.3 542.5 538.1 521.7 522.6 527.4 541.5 557 572 590.8 621.9 651.7 672.4 692.6 713.4 738 770.3 799.3 809.2 812.1 815 817.7 819.8 822.4 824.1 825.2 826 825.8 823.6 820.5 817.2 815.4 814.2 814.8 814.7 815.5 816.6 816.3 815.5 810.9 808.5 808.8 810.9 814.8 819 820.2 816.6 818.1 822.8 826.3 830.8 833.2 837.5 841.8 842.1 841.5 840.3 837.8 835.8 831.1 824.9 818.1 810.1 804.3 799.7 796 796.5 795.8 794.5 793.4 793.7 791.6 787.3 782.4 778.3 775.3 773.1 776.6 762.7 756.1 756.1 759.7 765.4 769.6 766.1 737.9 715.1 681 655.4 643.1 634.2 604 581.1 557.7 537.2 518.5 500.6 483.8 470.5 463.1 450 433.8 417.1 404.4 389.7 387.4 388.9 389.7 393 396.9 400.1 403.2 402.3 397.7 392.7 402 409 414.1 425.6 434.2 442.7 450.5 456.9 462.4 468 472.4 475.3 467.8 457.2 445.7 441.3 435.9 428.6 420.3 403.1 390.8 378.3 366.9 354.2 341.8 327.5 316.8 312.1 298.8 292.5 290.9 289.6 287.8 282.8 278.5 274.9 274.2 272.1 265.7 263.7 262.7 261.8 260.3 259.8 262.7 265.2 267.6 275.2 269 262.9 260.4 260.3 253.8 255.9 263.5 278.4 304.4 324.3 344.4 357.4 377.3 399.4 412.9 436 453.5 469.2 481.2 485.8 503.1 524.4 542.5 568.8 590.4 606.6 620.8 637.3 651.6 664.3 684.8 703.2 712.2 727.4 745.5 755.7
545.1 532.5 532.7 518.5 527 539.8 548.8 558.1 571 584.5 610.6 657.6 673.9 702.5 721.5 743.1 766.7 797 806.8 811.3 813.9 815.6 818 820.1 823 824.7 826 827 827.3 826 823 819.3 816.4 815.8 814.7 814.8 815.1 815.1 814.3 812.1 809.9 809.6 812.5 815.6 820.6 824.3 824.8 823.9 823.2 826.9 829.2 833.2 835.4 841.9 844.6 844.7 843.3 841.7 839.5 834.6 828.9 824.1 818.8 809.7 804.8 801.5 798.2 796.9 796 793.8 792.4 792.5 791.7 790.1 784.3 778 778.8 779.1 774.4 769.8 760.6 760.5 769.7 778 789 790.2 784.2 754.2 727.9 684.1 686.7 685.6 645.3 614.5 590.3 562.9 541.8 521.9 502.9 488.2 477.5 465.6 448.5 432.1 416.1 402.2 391.7 386.3 379.8 383.8 386 394.2 396.5 396.8 392.7 385.5 387.2 394.4 398.4 406.8 412.4 416.7 424.2 432.1 437.8 440.5 442.5 445 441 429.5 418.4 410.3 401.8 393.4 388.9 370.3 360.9 352.3 342.4 331.4 320.8 309.5 301.9 297.6 289.6 284.3 284.7 282.8 279 275.8 266.5 270.7 269 267.3 267 264 263.2 262.1 260.7 255.5 258.4 260.3 263 263.8 263.4 260.4 259.4 258 253.8 255.5 261.7 275.9 288.5 313.7 332.5 346.3 368.9 388.5 409.5 430.5 449 464.4 478.8 485.1 502.6 522.6 544.6 565.5 596.5 612.1 624.9 639.4 650 656.8 669 684.5 697 709.3 730.7 745.3
529.8 522.8 516.2 518.4 534.2 542 556.4 569.9 582.6 599.9 632.6 672.2 689.4 718.1 743.1 778.5 797 804.2 808.4 812.5 814.8 816 817.6 819 821.2 824.3 825.4 826.6 827 827.1 823.4 821.3 819.5 818 817 816.2 816 815.8 816.9 814 814.6 816 818.6 822.3 826.3 829.9 831.1 828.3 828.5 831 833.2 836.3 838.8 844.7 846.7 846.9 844.2 842.8 838.1 833.3 828 823.4 817 810.1 803.6 801.3 799.5 797.2 795.8 794 792.7 789.7 789.5 788.6 788.1 788.9 786.6 783.2 779.2 775.4 774.3 779.9 786.7 794.9 803.4 805.3 802.6 793.2 748.1 732.7 737.5 718.5 691 651.4 637.1 598.2 566.6 552.1 527.3 512.7 491.6 473.9 461 442.3 430.1 413.2 401.1 388.9 382.5 378 379.2 381.6 390.1 390 385.6 380.4 380.2 384.5 387.6 388.5 391 394.6 397.8 405.5 411.6 416.1 420.5 424.7 420.1 407.5 393.6 384.5 374.1 365.9 363.9 347.9 336.4 329.7 319.2 312.3 306.5 300.3 294.3 287.3 284.9 283 280.1 278.7 271.8 280.1 279.9 274.5 271.3 269.5 267.2 266.2 264.1 265 265.3 262.4 256.4 256.9 256.6 257.1 258.5 256.8 257.8 257.7 253.8 254.2 259.8 272.4 283.4 302.8 323 334.3 349.8 381.5 397.9 418.3 440.5 453.9 469.7 480.4 510 525.3 545.1 564.7 588.7 609.9 623 639.1 644 653.1 661.4 673.1 675.8 689.3 712.4 736.5
516.3 509.4 511.8 525.4 539 553.9 565.1 578.5 593.3 620.1 662.7 681.5 713.7 740.1 762.9 789.3 805.8 807.4 810.2 812.2 813.1 812.8 813.4 815.2 817.4 820.8 823.9 825.7 827 827.1 826.9 823.9 823 823.5 823.1 823.3 822.6 822 823.8 824.8 827.5 828.1 828.5 830 834.3 835.4 835.3 833.1 833.6 835.5 836.7 839.4 843.9 848.6 849.1 848.2 845.5 841.4 836.9 833 827.2 821.4 815.2 810.2 804.4 801.7 799.9 799 796.4 795.8 793.5 790.9 788.6 787.3 788 790.8 790.2 789.5 786.9 788.8 793.4 796 800.9 808.4 811.3 811 807.2 800.6 783.5 777.1 774.8 750.8 723.8 702.9 683.6 633 611.4 598.4 560.3 536.2 514.1 493.4 478.5 461.6 443.8 424.4 409.7 397.6 385.3 378.9 376.8 373.6 378.4 377.1 370.6 371.9 375.3 376.2 374.9 372.1 372 372.1 376.1 378.9 384.9 392.3 396.9 401.2 397 387 374.6 366.1 355.2 347.4 345.3 332.1 322.2 314.4 307.9 302.3 298.7 292.4 286.6 284.4 281.9 278 275.1 276.3 287.9 288.1 286.5 285 284.6 284.3 281 276 270.4 263.2 263.8 260.8 255.2 256 255.4 254.7 254.1 255.5 256.5 256.8 252.5 252.5 255.3 265.1 279.8 295.4 312.8 326.9 339.6 362.1 391 405.8 419.6 435.4 446.9 474.3 501.1 529.6 557.7 577.2 595.3 609.7 623.8 637.2 644.4 648.7 659.4 662.5 664.7 672.9 693.3 718.2
493.4 509.7 521.7 529.6 548 561.7 574.2 587.6 607.1 639 671 687.8 714.8 750.4 770 797.4 803.4 805.9 807.4 809.4 808 805.6 805.9 808.5 813.2 817.9 822.3 825.4 827.6 828.5 829.4 827.9 827.5 827.8 829.4 830.6 830.8 828.5 829.6 835.4 838.1 840.4 840.8 840.1 841.3 841.1 842 838.3 841.1 842.5 844 846.6 849.1 850.9 850.6 849.5 844.1 839.7 833.8 829.3 821.7 816.3 810.5 808.1 808.7 806.2 803.2 802.4 798.1 796.6 795 792.6 791.9 792.1 789.9 791.8 794.3 793.3 795.8 799.9 804.4 809.3 813.9 817.5 816.9 814.1 808.2 802.9 799.6 799.1 800 787.4 760.6 738.2 714.5 656.9 649.4 649.1 597.3 569 542 518.4 502.9 482.1 462.2 438.6 422.7 406.1 392.2 382.9 376.8 374.9 368.7 365.5 364.7 359.8 359.9 369.9 367.8 360.9 358 359.8 361.8 362.8 362.5 367.4 372.6 371.6 368.2 361.4 354.6 348.1 341.3 336.8 329 320.7 313.5 308.6 301.8 296.9 289.3 286.9 282 282.5 283.9 285.5 291.5 295.2 300.1 300.7 299.1 296.9 299.1 300.8 296.3 288.1 280.3 270.8 260.7 258.9 253.8 255.1 254.5 253.8 253.2 254.3 255.2 254.5 253.8 252.9 249.9 257.1 270.3 296.4 303.2 313.9 327.3 345.2 374.2 405.7 415 417.2 433.7 469 493 528.4 556.6 584.9 609.6 626.1 638.6 650.5 649.3 646.8 658.5 658 656.3 660.6 672.3 685.2
506.9 515.6 525.3 540.2 555.4 569.2 581.6 598.1 625 660.7 678.2 696 725 748.7 763.9 781.5 790 795.6 800 800.1 793.7 793.4 796.1 800.5 807.4 816.4 823.4 827 829.5 831.1 831 831.3 830.4 833.1 836.6 839.8 839.8 835.7 836.6 842.6 848.3 852.6 852.4 850.6 849.8 847.6 848.5 846.5 849.4 849.1 850.4 851.8 853.6 853.6 850.6 848.7 842.5 837.5 833.5 828.2 818.2 819.1 818.1 816.3 815.7 812.9 810.5 808.1 803.7 800.7 798.5 796 794.3 793.8 793.4 794.6 797.7 799.4 804.9 811 817.3 819.9 822.5 823.2 822.4 816.6 806.9 802.6 797.5 796.5 794.6 791.2 785.7 769.6 743.4 701.5 684.5 686.5 645.6 603.3 584 550 529.2 505.4 484.4 462.2 436 418.2 405.5 399.7 396.2 391.7 384.5 378.9 374.4 371.8 359.2 357 358 354.6 349.6 350.3 350 348.3 347.6 350.8 350 347.6 345.8 341.4 335.8 331.8 326.9 322 319 312.1 309 303.6 297.3 290.1 291.4 292.2 292.6 293.5 297.2 300.1 304.8 311.1 312.8 313.4 314.3 313.4 312.9 309.9 304.9 294.6 284.3 275 262 258.5 254.8 253.7 252.3 252.8 252.5 252 251.8 252.1 252.6 252 249.4 252 258.3 275.6 288.3 295.3 305.5 324.8 355.6 404.8 411.7 403.4 418.5 453.7 475.4 514.3 537.4 565.3 591.9 620.3 645.3 650.2 647.8 647 639.5 638.1 638.3 644.7 652.7 660
505.7 521.1 533.6 548 560.9 574.9 589.5 615.8 655 669.4 684.4 707 730.1 744.6 756.1 763.6 769.9 780.4 782.5 777.6 775 776.4 793.4 806.1 815.4 822.8 827.4 829.3 831.4 832.8 833.9 834.2 837.7 842.2 844.6 845.6 846.6 843.7 843.8 850.9 858.4 862.4 861.5 859.5 858.3 856.7 857.3 855.9 857.5 855.6 855.1 855.5 856.3 853.8 849.9 844 837.3 832.8 829.9 828.4 826.1 827.9 827.4 823.4 820.9 820.2 819.5 816.6 814 806.6 804.5 802.1 799.3 799.6 800 801.3 803.7 807.5 815.2 820.8 824.8 827.1 829.5 829.1 826.5 819.4 805.1 801.1 796.6 793.6 792.3 788.4 784.2 779.2 770.2 742.2 721 708.8 690.7 657.1 620.4 586.8 571.4 531.6 507.8 474 453.3 430.7 420.4 413.2 405.8 397.5 392.3 387.4 383.9 380.3 374.1 367.3 350.1 351.6 348.6 342.7 342.3 343.1 339.3 338 334.2 333.8 331.5 329.9 326.4 322.1 317.2 314.4 311 307 303.9 295.1 294.1 299.7 298.3 298.8 300.4 303.5 307.1 311.5 317 321.6 325 325.4 324.9 326.1 325.8 324.7 305.3 293.8 280.5 271.8 257.6 257.1 256.2 253.5 252.4 251.9 251.8 251.4 251.2 251 251.3 250.9 249.4 249.9 250.6 263.1 282.7 287.2 289.4 306.2 334.1 384.9 410 380.7 392.6 419.6 456.1 496.4 522.1 546.5 580.8 612.9 623.8 624.2 631.2 639.1 634.6 622.7 622.4 629.6 635 645.8
508.9 522.5 537.9 553.2 565.4 583.7 600.7 628.1 656.4 673.4 689.6 710.1 728.2 738.4 742.4 745.7 752.9 765.5 759.4 756.8 763.9 783.3 801 813.2 823.6 828.7 831.4 833.6 834.4 835.3 837.1 839.6 842.6 848.1 851.4 851.9 852.7 851.3 850.6 857.5 863.5 867.4 867.1 866 865.6 865.2 866.1 865.3 863.9 862.3 860.1 860.3 858.4 855 846.6 842.1 838.4 836.9 839.2 836.5 833.4 832.7 833.3 831.3 828.1 827.8 827.6 826.1 824.4 818.6 811.5 809.1 807.8 806.4 808.2 810.3 813 817.7 821.6 827.1 830.1 832.9 834.5 832.9 828.9 818.9 806.1 797.9 798.4 793.8 791.3 786.4 782 776.9 770.7 761.7 749 742.1 737.9 700.9 652.1 621.6 625.6 561.8 531 492.9 458.8 450.4 439.8 429 420.2 405.5 398 395.5 393.8 389.1 381.5 372.3 364.9 361.2 355.7 350.7 340.7 336.6 334 331.6 329.3 326.9 322.7 323.4 320.7 319.1 315.5 312.5 310.6 306.6 303 304.3 306.3 308 306.7 307.9 310.4 313.8 317.1 321.9 325.1 330.6 332.7 334.4 337.8 339.3 344.6 335.1 305.5 287.7 275.5 261.9 256.7 255.4 255.1 254.5 252.5 251.6 251 249.5 250.1 249.7 249.7 249.7 248.3 249.4 249.2 254.9 270.2 282.8 285.1 290.2 305.9 323.5 349.2 353.2 371.7 397.6 441 471.2 502.2 537.3 572.5 590.9 584.5 590.8 602.1 618.5 622.4 619.1 608.6 614.5 620.3 626.2
510.6 526.3 543.4 556.6 571.8 589.3 615.2 638.4 656.9 672.3 690.9 712.4 721 725.4 731.4 734.8 737.7 739.7 742.1 754.5 771.7 789 807.2 821.3 828.3 833 835.8 837.3 838 838.9 841 844.2 848.4 853.4 856.5 858.4 859.3 858.9 859.2 862.5 867.2 870.5 871.3 871.3 871.6 871.8 872.7 871.6 869.9 868 865.2 862.9 859.2 854.2 850.8 849.9 849.1 847.1 846.7 844.7 842 839 839.9 840 838.1 837.6 836.1 835.2 833.1 833.2 823.9 816.4 814.7 814.3 817.3 818.9 823.4 825.5 828.6 831.7 833.9 836.4 836.7 835.8 832.2 822.2 810.3 804.4 801.1 796.5 793.3 788.6 782.8 778.1 775.3 770.1 763.6 758.2 749.7 716.8 714 674.2 666.8 613.1 557.9 510.9 476.4 455.9 449.6 445.8 432.9 415.5 405.1 400.8 397 390.5 382.8 375.6 370.3 364.6 360 355.7 353 350.1 348 343.4 340.3 329.7 329.4 322.4 315.6 316.3 314.1 311.6 310 305.8 310.1 309.6 310.4 311.9 314.7 317.9 320.2 322.7 327.3 332.8 336.5 339.2 343 347.1 348.7 352.9 353.1 335.5 309.5 288.4 274.1 263.2 255.8 254.3 253.9 253.7 253.1 250.8 250 249.3 249 248.9 248.5 247.1 246.1 245.6 246.8 251.4 271 286.9 287.1 281.2 283.4 291.6 312.6 335.8 353.6 379.6 415.7 448.2 487.3 516.1 545.8 551.2 552.1 555.6 570.8 585.9 598.9 605.5 604.3 611.5 614.1 609.4
515.3 530.5 547.3 561.4 578.2 595.9 617.5 646.1 657.7 672.4 689 701.8 708.5 714.1 718.9 722.8 724.5 734.7 745.7 761.7 776.7 802 817.9 827.5 833.8 838.3 840.4 840.8 842.3 843.5 845.1 848.7 853.3 858 861 863.3 864.9 866.1 866.7 868.3 870.7 872.6 873.8 874.5 876 876.6 876.6 875.7 874 871.2 867.8 862.8 859.4 857.6 857.8 856.6 856.4 853.9 853.1 850.8 849.2 847.1 847.5 846.5 845.7 845.9 844.7 842.4 840.1 840.1 837.9 831.6 830.2 826.8 827.9 828.9 829.5 831.6 832.7 834.3 835.5 837.5 838.3 837.3 834.2 827.5 817.9 811 807.4 802.7 796 791.2 786.4 782.7 777.5 772.1 766.9 760.3 751 747 727.9 721.1 700.7 633.4 574.9 519.1 490.6 470.6 462.7 461.2 452.9 428.1 410.7 406.8 401.8 395.1 386.5 381.2 375.2 369.5 367.5 363.2 359.3 355.6 350.4 342 337.8 333.2 332.2 328 322.8 313.2 311.6 312.2 308.2 311.4 313.1 313.2 315.9 318.4 321.3 325.4 327.2 332 336.4 338.8 345 349.3 353.1 355.9 364.1 370.6 369.7 343.2 323.5 302.5 283.8 271.1 259.4 255.7 252.4 252.7 252.4 251.3 249.4 248.5 248.6 248.1 247.3 247.8 246.4 245.4 245.8 248 268 287.3 293.2 274.8 273 279.6 292.1 311.6 332.6 356.1 391.8 433.5 464.8 484.8 509.2 515.7 517.6 513.5 541.2 553.4 574.2 591 600.9 603.9 600.6 597.4
511.2 524.2 550 567.2 583.7 603.5 630.3 647.4 661.3 676 686.4 692.6 698.6 701.9 711.4 719.9 729.9 740.8 753.1 770 788.6 814.5 826.9 834.5 840.3 844.9 848.5 849 849.4 848.5 849.6 853.3 857.8 862.3 865.8 867.6 870 871.8 873.3 873.3 873.5 874.2 875.6 876.9 879 879.7 879.3 878.6 876.9 873.9 870.3 864.8 864.4 863.9 864.3 862.2 862.2 862.1 859.9 856.6 854.6 853.5 853 851.8 850.6 849.9 848.9 848 846.7 844.6 842.8 839.7 837.8 835.7 835.4 836.5 835.7 835 835.1 835.8 836.1 837.1 838.1 837.3 834.2 828.9 822.9 819.1 816.6 808.3 801.2 796.2 792 787.2 780.1 772.4 759.2 739.1 730.1 739.7 745.2 732.1 689.5 617.3 564 531.7 492 477.3 476.9 474.4 458.3 443.6 420.4 409.8 404.8 397.5 391 385.3 381.2 375.3 372.5 368.3 364.7 358.8 351.1 344.1 341.6 337.2 333.4 332.6 330.1 320.2 314.6 315.7 314.2 314.4 317.3 320.9 325.2 326.8 328.5 333 335 339.6 345.3 351.3 355.9 359.9 363.4 370.7 383.8 396 406.8 367.5 347.4 328.1 308.4 288.6 272.3 254.9 251.7 251.5 251.4 251.2 250.1 248.2 248.3 246.7 246.2 246.7 246.7 246.1 245.1 247.1 257 271.3 248.2 256.3 260 267.3 277.2 292.2 311.3 332.4 373.9 397 435.7 462.5 483.6 486.6 494.9 479.8 500.8 527.8 552.2 569.9 584.4 589 590.6 581.9
519.2 535.8 554.5 568.7 590.1 615.4 626.6 643.9 655.9 672.3 682.7 694 703.8 713.4 721.4 729.9 738.3 751.1 763.5 781.1 800.9 820.9 832.9 840.2 845.3 850.9 856.6 856.7 855.7 855.3 855.4 858.1 861.1 866.1 869.6 872.1 875.2 877.3 879.4 878.8 877.1 876.7 877.6 879.6 881.2 881.5 881.3 880.8 878.8 876.1 872.8 870.8 869.4 867.9 867 866.4 867.4 868.2 866.8 863.7 861.6 859.4 857.8 856.6 855.6 853.6 852.6 850.8 849.2 848.2 847.2 844.9 842.6 840.5 840.4 839.8 839.4 838.2 837.5 836.5 835.8 835.9 836.5 835.1 832.9 829.2 825.8 823.4 822.5 816.2 806.2 801.9 796.9 790.1 782 756 723.3 697.3 692.3 718.2 716.8 679.3 594.4 564.6 535 510.6 497.1 487.6 484.8 480.9 466.4 452.3 430 414.7 408.3 401.6 394.9 389.7 386.2 378.5 376 371 365.8 357.4 346.1 345.8 341.6 338.5 337.3 337.4 332.5 326.5 325.5 321.5 321.1 321.9 324.7 330 334.7 336.9 338.7 342.8 347.6 350.9 356.1 362.5 364.9 369.5 375.4 389.1 401.8 413.7 421.4 397 378.6 357.3 337.7 316 291 261.7 251.1 250.7 250.6 250.3 250.1 248.9 248 247.3 245.9 245.2 244.9 245.1 244.6 245.7 246.8 248.9 245.3 246.3 247.4 255.6 263.5 275.4 290.2 306.7 334.8 362 411.7 418 459.8 458.8 438.3 447.7 471.1 503.5 511.7 528.5 551.9 580.8 586.9 572.4
527.5 544.1 564 580.4 603.1 622.4 641.2 656.5 671.4 682.5 692.5 703.6 717.1 727.8 736.7 746 752 769.4 787 800.3 810.9 829.4 838.5 844.6 849.6 855.3 860.2 863.1 862.4 861.9 861.4 862 865.8 869.8 874.4 877.7 880.3 882.5 884.3 883.4 881 879.3 880.2 880.9 881.8 882.3 881.7 881.6 879.7 878.1 876 875.6 875.4 873.9 871.3 870.9 872.2 872.8 870.7 867.8 865 862.3 860 857.9 856.8 855.7 854.3 852.5 851.5 850.3 848.9 846.6 845.9 844.5 843.1 841.7 841.8 840.6 838.5 836.7 835 833.9 833.6 831.6 829.8 828.2 826.6 824.8 823.8 818.9 812 806.9 802 792.1 778.6 732.5 698.4 648.5 644.9 674.5 659.7 599.5 563.4 537 514.4 505.3 497.4 485.7 477.5 467.5 456.3 446.2 429.6 419.3 412.5 404.3 397 391.6 389.4 381.2 377.4 372.2 365.5 355.1 353.2 350 345.6 342.8 342.1 338.5 333.5 334 335.5 333.5 332.7 332.6 330.9 337.8 342.4 344.9 349.2 356.3 357.5 361.9 366.8 371.4 375.7 379.7 391.9 407.7 420.8 426.6 435.2 436.2 415.4 390.3 366.7 332.3 299.8 270 250.8 250.2 249.8 249.8 249.7 249.2 248.5 247.7 246.5 245.4 244.4 244.4 244.1 243.8 243.8 244 245.2 245.1 244.6 244.6 248.2 256.7 272.9 286.4 307.6 324.8 361.2 390.2 415.7 431.1 400.3 419.9 447.5 461.8 493.6 499.7 521 539.2 555.5 535.3
533.2 556 573.1 592.6 615.5 635.8 653.2 668.8 682.5 694.3 704.3 719.1 731.4 745.3 762.3 769 779.9 790.2 806.9 820.5 828.4 836.8 844.2 849.7 854 859 864.7 868.7 869.3 867.9 866.1 866.8 868.8 872.9 878.2 882.2 885.1 886.3 886.9 886.2 883.8 881.9 882.4 883 883.3 883 882.4 881.1 879.6 878.2 878.5 879.2 879.5 877.8 875.8 874.1 875 875.3 873.2 870.3 866.7 863.1 860.5 858.3 856.8 855.4 854.3 853.1 851.9 851 849.9 848.1 847.1 847 845.1 843.7 842.9 842.5 839.8 837.7 835.2 831.8 829 826.7 826.5 825.4 824.3 823.9 822.4 819.5 814.1 807.1 801.5 792 765.7 709.7 669.7 629 617.7 606.8 591.4 558.8 533.1 513 503.5 496.2 488.1 480.4 473.1 463 456.3 442.5 429.8 421.4 412.9 404.7 397.8 393 389.4 383.8 378.3 371.9 365.7 362.8 359.2 354.2 349 345.4 343.7 339.5 338.8 340.3 342.4 341.7 341.8 339.5 336.7 344.4 349.2 355.2 359.2 363.7 368.7 374.1 379.1 382.9 388.1 394.4 414.5 426.4 434.3 440.1 450.3 456 450.5 431.5 378.6 339.5 305 274.3 253.9 249 249 248.9 249 248.7 248.3 247.4 246 245.4 245.2 244.4 243.4 243.4 243.5 243.2 243.4 243.6 243.2 242.8 241.9 246.3 259.6 267.6 277.2 287.7 308.6 329.5 344.8 356.9 370.3 388 410.6 438.8 454.7 474.9 481.9 504.3 514.4 495.9
541.6 564.2 584.6 608 634.4 655.9 673.4 687.6 704 710.3 723.1 732 751.1 766.5 777.9 791.6 804.5 810.9 824.4 832.7 839.9 845.7 850.3 855 858.9 863.5 869.1 872.2 872.9 871.8 870 869.4 871.4 875.3 880.7 884.8 888.1 888.5 887.9 886.9 885.1 884.1 883.8 884.3 884.3 883.7 882.2 880.4 878.9 879 880.1 880.9 880.6 878.8 876.7 875.4 876.3 876 874.5 871.1 867 863.1 859.8 858.3 856.4 855.1 853.1 852 850.6 850 849.8 848.7 847.8 847.3 847 845.3 844.5 843.9 842.3 840.1 834.6 827.3 821.7 820.1 820.7 820 819.6 820.3 818.4 815.5 812.1 807.2 799.6 785 723 707.6 666 609.1 570.7 564.8 545.7 522 512 501.3 494.6 486.7 479.1 471.9 463.8 453.1 444.7 436.6 426.7 417.2 409.8 403.5 397.9 393 385.6 379.9 373.9 370.7 369.4 365.7 363 356.9 351.1 346.5 345 343.3 344.2 346.7 349.4 351.9 354.9 351.1 347 352.1 358 365 368.4 373 378 383.6 389.8 398.1 405.1 415.4 432.9 438.7 448.7 454.8 459.4 469.7 466.6 450.5 390 337.4 304.3 282.6 261.7 250.4 248.8 248.4 248.1 247.9 247.8 247.4 246.3 244.9 244.6 243.8 243.3 242.9 243.3 243.3 242.8 242.2 242.2 242.2 241 240.4 246.4 248.3 258 264.4 280.1 296.5 311.6 327.5 344.1 364.3 388.6 404.4 421.2 437.7 453.4 465.6 478.8 462.5
553.2 574.2 603.3 632.2 657.4 676.1 694.2 707.2 723.4 736.8 743.9 754 764.1 784.2 798.9 819 828.1 830.5 834.7 842.1 848.7 854.2 857.1 860.8 865 868.5 872.7 875.3 875.7 873.8 872.7 871.9 873 876.9 880.4 884.3 887.6 888.5 887.4 886.2 885 884.4 884.5 884.5 884.2 883.2 881.1 879 878.4 878.5 879.9 879.8 878.9 877.4 875.6 874.4 875.3 875.2 873.6 869.6 865.8 861.7 858.1 856.2 854 851.7 850.2 849.2 849 849.2 848.6 847.6 847.4 847.4 846.8 846.5 846.1 845.4 843.9 841.2 833.9 824.1 812.5 812 813.4 811.4 812.7 815.2 812.9 810.1 807.9 805.5 781.9 737.2 665.7 629.9 610.9 553.4 542.9 528.7 518.4 504.3 492 484.2 479.9 474.6 467.5 455.7 447.2 441.3 433.4 427.3 417.9 410.1 402.3 399.8 394.8 393.2 387.3 385.6 380.9 378.5 377.3 375.2 373.3 369.5 362.6 351.1 348.5 350.9 353.4 355.7 357.5 359 360.7 362.6 360.4 364.1 368.7 372.9 378.2 384.6 391.5 398.3 407.5 413.9 422.7 437.4 450.4 456.9 462.4 473.5 473.4 482 479.9 456.6 382.6 341.5 313.5 291.3 274.5 262.3 251.5 248.2 247.9 247.1 247.1 246.6 246 245.5 245.2 243.3 243 242.5 243.2 243.1 242.7 242.1 241.7 241.2 240.4 240.2 239.7 239.5 246.4 251.1 259.2 270.4 284.9 304.2 320 341.5 361.9 378.8 393.5 408.7 426.4 439.7 448.4 433.4
562.7 584.3 614.8 640.7 666.2 692.7 707.5 716.9 741.9 750.8 759.5 777.7 788.2 801.9 819.3 835.2 837.7 839.6 843.8 849.7 855.7 860.9 863.6 866.8 870 872.5 876.5 877.7 877.3 875.9 874.8 873.3 874.2 876.1 879.2 882.7 885.3 886.3 886.6 885.6 884.6 884.5 883.7 884.2 883.5 882.4 880.4 877.3 874.8 875.8 876.6 876.4 875.5 874.9 873.5 872.9 872.7 872.5 870.1 866.2 862.5 859.3 855.9 853.2 849.7 848.1 847.9 846.3 845.8 846.1 845.5 845.1 846.9 847.3 847.2 846.8 845.7 845.3 844.2 840.5 829.9 819.5 809.6 807.5 804.9 803.9 804.2 806.3 805.8 802.7 799.6 774.4 727.4 666.9 631 578.1 546.1 526.3 515 504 495.2 484.4 473.3 470.4 465 454.8 444.1 437.6 436.8 433.2 426 423.6 418.1 412 403.5 399 393.6 393.6 393.2 393.6 392.2 393.3 391.9 391.4 388.2 385.8 370.6 359.9 359.1 358.2 360.8 364.4 367.3 369.8 371.4 372.7 370.4 373.6 377.7 383.4 390.5 398.2 406.5 415.1 419.2 432 446 459.5 474 490.9 489.9 491.4 490.8 498.6 493.3 457.7 390 358.5 329.4 307.5 292.2 274 262.4 251.4 248.3 247.1 246.6 246 245.6 245.3 244.8 243.9 242.9 241.7 243.1 242.8 242.4 241.9 241.2 240.6 240.4 240.2 239.2 239 238.9 242.5 246 252.7 267.3 283.4 298.5 312.9 337.4 351.8 363.6 375.8 393.9 411.7 413 402.6
570.7 592.8 619.6 648.2 677.3 698.3 714.7 726.9 747.6 761.1 773.1 799.3 813 816.3 834.8 843.9 847.1 848.5 851.9 856.6 861.2 866 869.5 872.3 875.9 878.8 880.8 881 879.4 877.1 875.4 873.9 873.2 875.1 877.4 880.7 883 883.8 884.2 884.1 883.9 883.1 881.5 882.4 882 880.9 878.9 875.4 872.7 871.6 872.6 872.8 871.2 870.9 870.2 871 870.5 868.6 865.7 862.8 858.1 856.4 852.4 848.7 843.2 842.5 844 843 841.7 842.7 842 842.4 844.7 846.1 847 846.5 844.4 844.3 842.7 839.4 831.7 815.8 809.8 805.8 797.1 794.4 796.2 797 797.1 786.2 742 690.3 636.4 626.3 561.9 545.8 526.5 503.8 486.2 482.4 474.8 469.1 466.8 459.3 453.4 441 435.4 435.7 433.4 430.2 425.9 416.4 412.7 412.2 400.1 401.1 400.7 398.9 400.3 404.1 407.6 407.9 403.8 406.9 406.7 391.2 384.3 374.6 373.7 371.5 372.7 376.5 379.6 382.2 381.8 380.4 377.8 380.4 386.9 395.5 407.1 415.8 430.2 432.2 441.8 455.1 469.7 486.5 496.2 506.6 511.3 509.6 514.7 523.6 521.2 487.8 407.1 374.2 351 329.5 308.7 285.7 277.9 263.6 255.2 249.3 246.2 245.7 245.2 244.9 245 244 243.3 242.2 242.2 242.1 242 241.8 240.9 240.3 240.1 239.7 239.4 239.1 238.9 238.6 238.3 240.3 251.5 263.2 280 293.1 312.3 327.3 339.1 347.6 361.8 379.3 379.3 379.3
576.4 598.7 622.7 652.3 677.9 698 717.6 738.6 754.5 774.4 793.6 816.3 832.6 835.3 848.2 854.5 857.8 860.6 862 863.9 868.1 871.3 874.9 878.3 882.5 885.9 886.5 884.6 881.9 879.2 875.8 873.3 871.2 872.8 874.7 877.3 880 881.8 883.2 883.1 883.8 881.6 880.7 879.9 879.6 878.6 876.5 873.4 869.2 868.5 869.7 868.4 866.9 866.1 865.9 866.5 865.7 863.9 861.3 857 853.2 850.8 849.6 846 840.9 839.8 840.5 838 835.8 837.1 837.7 838.9 841 842.6 844.7 843.7 842.5 843.1 840.5 837.8 826.8 813.5 806 803.1 790.7 784.3 786.3 782.6 781.2 731.3 657.7 607.7 590 561.1 522.1 513.5 500.4 484.8 476.1 461.7 459.1 455.5 456.2 446.4 438.8 436.3 438.2 438.9 435.1 433.4 430.9 425.4 417.8 411.6 408.6 408.9 407.2 406.5 413.4 417.7 422.1 418.5 419.7 415.9 410.5 404.9 401.4 400 391.6 388.2 388.8 393.1 399.4 401.9 402.4 398.2 391.5 395.9 401.2 412.2 426.8 437.2 442.9 451.8 465.1 480.9 495.9 512.8 523.5 533.4 537 537.5 540.7 548.9 553.9 507.8 431.2 402.1 376.1 353.6 330.6 304.1 293.4 279.8 268.5 257.7 249.1 245.9 245.2 244.5 244.7 244.4 243.7 242.7 241.7 241.3 241.5 241.3 240.9 240.1 239.7 239.2 239.4 238.9 238.9 238.7 238.1 237.5 238.4 241.4 257.2 273.2 290 304.3 313.6 324.2 339.3 356.2 364.5 367.6
589.9 614.3 630.2 653.2 680.8 706 730 750.6 769.4 793.2 820.2 834.1 843 850.9 859.4 864.7 867.7 870.2 871.1 872.5 873.8 876.6 880.5 885.1 889 891 891.2 888.9 885 881.4 876.7 871.7 868.6 869.2 869.9 871.7 875.7 880.3 882 882.5 882.5 879.5 877.4 876.8 875.9 874.6 873.2 869.4 867.5 865.1 864.7 863.5 862.5 860.3 861.3 861.6 860.7 859.1 856.1 851.9 849 847.1 844.6 842.7 839 836.2 835.5 833.7 832.1 833.2 834.2 835.6 837 839.2 840.2 839.9 840.2 839 836.2 833.6 820 807.5 802 784 779.1 771.3 769.9 728.1 702.5 638.1 600.9 574.2 554.1 522.1 502.3 484.9 477.8 460.8 457.9 452.8 452.6 450.7 450.3 440.2 437.9 436.7 438.4 443 437.8 435.3 432.1 427.4 423.1 422.3 417.6 416.3 417.5 421.8 427 431.4 436.9 435.9 432.1 430.1 423.2 419.8 417.9 418.3 414.8 408.3 409.5 413.6 416.9 420 421.5 418.3 415.6 410.8 422.2 433.4 445.7 455.3 463.8 476.1 489 506.6 523 538.7 553 564.6 573.5 572.8 572 577.5 577.8 527.2 487.6 437 405.3 379.7 354.3 330.2 312.9 294.8 274.4 263.6 254.3 247.4 245.1 244.3 243.9 243.5 243.2 242.7 241.6 240.9 240.7 240.9 240.6 239.9 239.4 239.4 239.1 238.8 238.8 238.4 237.7 237.2 236.7 236.3 238 254.9 274.8 285.4 298.4 319.9 334.1 349.8 364.3 361.8
602.5 624.7 647.9 671.9 693.6 717.3 741.4 768.8 790.9 813.7 834.7 843.3 850.8 859.7 867.1 871.1 874.3 875.8 877.2 877.8 879.4 882.1 886.8 891.2 894.6 895.6 895.6 893.3 888.2 882.7 876.6 868.7 863.8 860.7 861.7 867.2 875.2 878.2 879.9 880.6 880.1 877.4 874.8 873.5 871.5 870.8 868.7 866.6 863.7 861.9 860.5 859.8 857.4 854 854.6 855.1 854.8 854 850.8 847.6 843.6 839.6 839 839.3 837.9 835.4 832.6 830.3 829.6 829.4 831.1 832 832.9 836.3 836.1 834.4 834.2 832 829.2 826.5 812.6 804.9 795.6 766.2 753.1 753.5 747.8 700.3 623.1 594.8 563.6 545.7 524.7 503.6 485.1 468.9 452.5 445.4 444.2 443.2 446.1 445.1 439.3 440.1 443.2 442 438.3 441.3 442 440.2 439.9 436.8 435.2 429.8 427.8 427.8 432.6 439.2 445.9 449.9 453.2 448.4 449.4 447.6 441.9 442 437.8 432.3 430.8 429.3 430.1 434 436.2 439.2 438.6 435.3 434.6 428.9 445 455.4 462.9 474.5 487.5 498.2 516 534.6 547.7 563.2 577.4 596.8 611.1 607.3 608.1 614.4 610.7 545.9 508.2 465.8 439.5 403.6 375.9 351.6 327.3 301.6 282.1 271.7 266.8 256.2 247.5 245.6 245.4 244.8 243.2 242.6 241.2 240.8 240.9 240.6 240.3 239.9 239.4 239.1 239 238.8 238.7 238.2 237.6 237 236.6 236.2 236.1 238.6 261.2 269.6 295.6 306.6 317.3 336.5 349.5 349.4
620.6 643 662.7 692.7 709 728 751.2 779.6 798.9 819 840.4 848.7 857.3 864.7 871.1 875 876.9 879.3 880.6 881.8 883.7 887.4 892.1 896 899 900 899.4 897 891.7 882.2 871.7 862.7 856 852.5 855.2 864.4 872.5 875.7 878.1 878.9 878.3 876.7 873.9 871.2 869.7 867.5 865.3 863.5 861.7 854.7 855.1 854.4 852.4 851.1 849 850.9 850.4 848.8 846.7 844 839.5 835.1 834.6 834.5 834.9 834.8 832.1 830.8 827.9 825.4 827.9 827.6 827.2 829.2 827.7 826.5 826.3 822 819.9 813.2 797.4 794.8 779.6 755.9 736.3 733.8 717.3 648.6 598.4 572.7 544.9 526.5 500.1 483.6 468.9 450.8 446.9 445.8 442.9 443 441.1 441.8 440.6 446.5 439.3 444.9 446.7 448.4 447.8 447 445.6 445.6 444 442.4 442.3 445.5 452 458 462.3 464.6 465.9 465.4 465.7 462.5 460.2 456.5 458.4 457.1 454.1 457 459.2 459.7 459.8 461.1 460.9 461 456.9 449.1 461 473.3 481.6 493.2 504.5 521.8 542.9 561.2 576.7 591.4 607.4 624.6 644.7 647.6 641.1 648.9 648.5 590.7 535.6 508.2 470.7 425.4 395.2 366.2 335.8 312.4 295.9 284.5 270.7 262.5 255.8 251 249 246.8 244 242.2 241.3 240 240.6 240 239.7 239.7 239.2 239.1 238.8 238.5 238.3 238 237.4 236.8 236.4 236.1 236.1 236 244.3 257.8 274.6 285.1 296.3 313.1 331.4 338.2
628.3 643 674.2 693.3 720.9 744.9 766.5 784.2 807.5 820 836.5 853.8 861.7 868.8 873.5 877.1 878.8 881 883.2 885.1 887.7 891.7 895.7 899.5 902.2 902.8 901 898.2 890.1 876.5 864.1 854.2 848.8 844.3 849 858.9 868.3 872.6 876 877.9 877.9 875.5 872.7 870.1 868.1 865.2 863.1 861.4 859.8 856.9 851 849.2 848.4 846.2 844.7 846.1 847.2 845.2 844 842 838.7 833.9 828.5 831.7 831.5 831.4 831.4 830.6 827.5 822.6 821 820.8 820.2 820.4 819.9 817.1 813.9 810.3 803.6 788.7 778.3 774.2 762.3 741 716.2 710 673.4 634.8 582.9 550.3 524 505.2 485.4 472.1 458.4 450.5 447.5 444.4 443.6 442.3 443.1 449 439.9 441.5 439.9 445.8 449.9 451.4 448.6 450.2 451.6 453 453.4 455.7 458.2 461.7 468.7 472.9 476.4 477.9 479.4 479.2 476.7 475.9 473.2 476.3 473.7 477.6 477.5 477.3 481.5 482.9 483.8 484.3 483.9 484 478 469.5 485 487.4 493.2 506 518.6 541.3 564.6 597.3 611 630.5 646.1 659.5 672.8 679.4 675.3 677.9 663.8 605.1 561.2 529.4 480.5 451.6 419.8 383.5 350.2 326 311.3 297.4 283.2 273 266.8 259.2 253.9 249.3 244.9 243.5 242.5 238.9 240.3 239.6 239.5 239.3 239.1 238.8 238.5 238.2 238.1 237.6 237.2 236.6 236.3 236.4 236.6 236.5 235.4 241 246.1 261.9 285.4 297.7 314.4 325.1
637.6 661 686 705.7 733.4 756.8 772.5 793 810.6 822.4 849.6 857.5 865.9 871.6 876 879.5 881.9 884.3 886.3 888.2 891.5 895.4 898.9 901.7 904.1 903.4 899 888.8 868.6 851.4 840.4 828.1 826.1 827.5 839.3 852.4 862.7 869.5 874.1 877 877.2 874.8 872.1 869.4 867.6 864.2 861.7 860.1 857.8 855.1 847.3 843.7 843.3 840.7 839.7 840.8 843.6 843.3 841.8 840.2 835 830.9 826.6 828.3 828.7 828 829.8 829.2 827.2 825.7 819.3 816.9 816.6 814.1 812.6 807.3 796.5 793.3 780.9 757 756 752.3 741.9 710.9 707.7 695.7 651.8 617 582.7 531.6 513.4 496.5 480.7 468.3 456.7 451.7 448.2 445.8 444.8 444.5 446.7 448.2 439.9 445.7 445.3 446.4 461.9 454.7 455.6 460.1 460.7 464.2 468.5 471.8 475.5 479 483.2 487.5 491.8 493 497.4 491.8 491.9 494.2 494.9 497.8 502 508.1 510.5 510.4 509.9 510 510.1 506.2 508 505 498.4 488.1 493.3 497 505.9 514.7 533.4 563.8 596.5 619.9 644.1 667.3 688.5 694.5 711.1 715.5 709.6 707.3 661.6 616.1 575.4 545.9 512.4 491.7 438.7 399.6 368.3 342 327.2 311.2 299 285.9 274.8 264.9 259.4 254.7 250.5 246.8 244.7 244.2 239.1 238.4 239.1 237.2 238.4 238.6 238.3 237.8 238.2 237.4 237 236.5 236.4 236.5 236.6 236.1 235.2 235.3 235.1 243.1 272.9 288.3 304.1 315.4
646.3 673 691 715.8 735.4 764.3 777.1 792.3 814.1 835.8 856.5 864.1 870.4 874.9 878.2 882.2 885 887.6 889 891.2 894.5 898.3 901 902.7 902.7 900.3 881.2 853.6 835.4 818.7 810.1 803.4 807.6 811.3 820.6 838.1 853.8 863.9 871.5 874.6 874.8 873.9 872.1 869.1 866.6 862.3 860.5 859.2 857.2 852.6 851 843.1 838.6 838.3 836.2 838.4 839.8 840.7 840.1 838.1 833.7 829.7 822.6 821.8 823.2 823.3 827.6 827.9 826.8 824.8 822.1 816.3 812.9 808 803.2 793.9 780.9 772.9 757.2 740.9 742.7 735.1 724.9 696.7 700.9 690.2 648.2 612.7 576.7 529.7 514 494.2 485.5 472 463.2 457.4 454.9 448.4 445.4 447 441.6 441.9 446.7 455.1 451.5 460.7 463.9 461.3 464.5 467 471.4 476.1 481.4 486.9 490.3 493 497.3 501.6 506.2 508.1 508.8 508.8 511.3 513.3 514.7 522.1 531.9 537 532.2 529.1 530.7 532.5 531.1 529 523 518.6 509.4 499.3 501.1 507.2 512.3 530.2 557.7 590.5 621.8 647.1 667.6 698.5 720.5 734.7 748.9 744.5 746.8 746.4 716.3 642.8 600 571.1 568.6 531.2 463.6 418 386.2 357.8 340.7 325.8 311.9 297.6 285.2 274 265.3 261.4 255.5 253.8 252.9 252.5 254.5 248.4 240.5 240 237 238.5 238 237.6 237.8 237.4 236.8 236.4 236.5 236.4 236.6 235.9 235.5 235.1 234.9 236.2 253.7 275 297.2 302.9
654 676.5 697.8 717.3 743.7 771.1 784.5 802.6 830 862.2 868.5 871.8 875 877.8 882.5 886 888.7 891 892.1 893.8 897.3 900.9 902 901.5 899 869.7 844.7 819.3 806.3 796.8 796.1 790.1 790.4 790.6 796.5 811.3 835.4 857.9 866 871.2 873 873.3 871.7 867.7 863.3 860 860.4 859.7 858.6 856.6 852.5 848.4 842.9 838.1 831.3 833.3 835.5 836 836.2 833.1 831.6 828.5 822.5 818 819.8 820.5 825.2 825.1 824.4 823 822.5 819 813.9 806.3 798.7 786 771.1 762.6 742 736.2 720.4 712.8 706.9 686.8 693.1 683.5 630.6 597.4 561 525.4 515.1 512 504.3 486.7 477.2 472.3 461.9 449.6 447.5 443.2 442.1 441.9 450.1 454 451.7 470.1 463.6 469.4 474.5 478.1 482.9 489.9 494.4 499.9 504.8 509.8 513.7 517.1 520.2 522.6 526.5 526.1 527.7 530 535.5 542.6 555.6 564.5 557 557.6 561.2 554.3 549.5 545.7 537.9 526 519 503.5 510.1 518 527.8 543.7 579.3 613.2 649.7 679 696.1 715.6 740.9 755.3 762.7 761.7 765.8 758.4 721.7 674.5 623.8 630.5 616.8 564.8 495.1 437.6 405.7 380 357.8 338.4 323.1 308.9 296.6 283.4 274.8 271.3 266.5 261.5 258.4 256 256.8 251.6 246.7 241 237.7 237.7 237.7 237.4 237.4 237 236.6 236.3 236.2 236.7 236 235.3 235.2 235.1 235.1 235.2 240.8 265.8 282.9 278.9
656.2 682 707.7 731.6 755.5 786.4 812.2 828.1 860.7 872.3 876.8 878.1 880.2 883.1 886.7 890.5 892.7 893.8 894.7 896.4 899.8 901.4 901.4 899.7 870.9 840 816.2 796.2 787.2 788 786.4 779.1 777.6 775.1 777.7 790.3 816.6 849.2 860.2 866.2 871.5 872.8 869.5 865.1 860.2 858.3 859.4 860 858.8 857.6 854.4 850.4 846.8 840.7 833.5 827.6 830.9 830.9 831.6 831.2 826.9 824.5 821.5 817.7 815.2 818.4 820.8 822.1 822 821.9 820.6 819 816.5 809.8 799.3 788 774.1 759.8 742.7 736.8 713.5 698.3 693.8 682 679.5 649.4 621.4 574.1 554.1 541 536.7 539.7 544.3 527.2 497.6 493 476.7 448.9 448.3 445.5 446.4 445.7 449.6 460.6 468.5 481.4 475.3 481.1 485.3 489.8 495.9 505 511.1 517.1 523.5 527.8 531.1 533.6 536.9 542.6 546.3 548.6 553.4 556.3 564.4 570 581.5 585.8 585.4 586.8 573.8 566.4 558.8 553.7 544.7 532.9 522.3 517.7 519.3 525.7 544.1 561.4 598.9 640.1 674.1 701.5 721.5 735.7 753.2 767.6 772.2 771.3 759.1 724.7 690.2 672.5 655.1 631.8 599.9 553 501.1 456.5 423.9 399.1 374.4 350.7 336.6 322.7 309.1 296.5 286.5 282.4 278.4 273.7 267.2 259.8 255.6 250.7 245.3 241.6 237.6 236.3 237.9 237.2 236.9 236.5 236.4 236.2 236.1 235.8 235.8 235.3 235.4 235.2 235 234.7 234.4 252.2 271.6 263.4
672.8 697.4 726.7 748.6 781.6 812 833 854.9 872.9 879.8 883 884.1 885.3 888.3 890.5 893.7 894.5 894.8 895.7 899 901.1 901 900.3 895.6 864.2 825.8 798.7 783.8 776.1 775.6 771.3 766.4 763.3 763.6 765.5 777.2 800.6 836.3 853.5 864.5 871.7 871.2 867.4 861.4 857.8 857.8 859.3 859.6 859.1 857.3 854.7 852.5 848.1 843.2 838.3 832.7 824.3 825.8 827.3 827.7 828.1 819 817.6 813.6 812.4 817.1 818.2 818.6 817.6 817.6 817.5 817.3 813.6 807.6 795.9 794.1 786.1 767 749.8 739.8 711.3 701.1 690.9 681.5 667.3 656.1 638.1 594 569.4 558.1 558.3 571 580.6 576 536.5 522.4 515.3 471.8 456.8 456.9 459.3 460.7 467.1 471.4 477.2 475.4 485.3 493.7 498.8 505.1 513.1 520.4 524.9 534.6 541.1 545.8 550.6 555.1 562.6 568.1 571.2 575.8 582.4 591 597.3 601.2 606.5 614.2 616.4 597.8 584.9 574 565.4 557 547.8 536.3 521.2 526.4 524.6 535.2 552.7 577.2 617 653.3 694 716.6 733.3 749.1 763.9 772.1 779.8 775.3 744.6 705.4 652.4 638.8 625.8 603.6 577.3 542.6 502.8 470.1 443.1 415.2 383 372.4 355.6 340.3 325.8 309.8 300 299.6 288.1 277.8 271.8 265.1 258.1 252.2 246.4 242.4 238.9 235 237.5 237.4 236.9 236.5 236.3 236.1 235.9 236 236.2 235.4 235.5 235.3 235 234.8 234.6 234.7 246.9 247.4
685.2 712.3 735.4 762.8 796.4 821.5 844.2 867.5 880.7 886.8 888.8 889.1 889.9 893.1 894.4 896 895.8 895.8 898.3 900.2 900.6 899.5 896.6 879.5 843.9 803.6 781.6 777.7 770.9 765.7 760.3 754.5 751.3 752.7 758.2 773.3 791.2 819.4 846.3 861.8 869.5 868.7 864.2 858.1 854.1 858.6 860.9 860.9 859.3 859.3 856.2 852.8 850.5 845.6 840.6 835.6 830.3 821.1 821.3 821.9 821.1 816.5 814 812 810.7 813.5 814.2 815.1 813.8 813.4 813.2 813.2 810.9 803.4 798.6 797.3 789.7 772.6 750.8 730.4 718.7 723 690.5 682.8 664.7 666.7 661.9 622.9 593.7 585.3 588.4 593.3 603 626.1 568.8 582.6 585.6 501.1 480.1 479.9 478.1 478 483.7 487.8 489.9 485.7 498 505.2 513.4 520.8 527.9 533.9 540.4 549.1 558 570.5 574.5 582.1 589.7 599.3 601.4 607.7 615.6 623.2 631 633.5 635.1 640.6 622.7 600.6 587.6 577.7 569.2 560.1 548.2 537.5 536.6 532.6 536.9 547.8 573.7 602.7 620.8 664 705.6 729.4 747.5 761.7 770.9 778.1 775.6 748.6 705.4 661.6 626.1 607.3 594 575.6 554.1 524 502.5 479 451.9 424 409.9 395.1 376.4 357.2 341.8 324 311.5 298.3 291.3 286 283.2 272.8 264.1 255.8 249.8 244.8 241.4 239 235.5 236 236.7 236.6 236.3 236.2 236 235.8 235.5 235.3 235.3 235.2 234.9 234.6 234.4 234.2 234 233.6
695.3 721.3 748.1 776.7 809.8 831.2 852.1 873.6 885 891.3 892.8 892.9 893.4 895.9 897.2 897.3 896.7 896.3 898 898 897.6 895.5 890.3 865.8 831.7 793.9 777.7 774.1 765.8 755.4 747.4 742.7 740.9 742.6 748.4 756.1 780.9 804.1 836.2 856.9 865 865.1 860.2 851.7 852.9 859.1 860.3 860.3 860.2 858.6 856.1 853.1 850.5 847.3 843.1 838.6 833.3 826.4 821.8 817.7 816.5 813.9 813.1 811.6 814.6 811.7 806.3 807.5 806.9 806.6 806.7 807.1 805.4 800.4 796 795 787.6 766.3 747 730.9 722.2 722.1 690 681.6 685.9 680 680.1 643.8 627.1 636.1 618.8 623.1 629.6 628.6 614.2 654.9 637.3 563.1 509.8 507.8 499.8 503 504.1 509.5 507.5 506.2 512.5 518.3 525.3 532.8 539.4 544.5 553.9 563.3 577.5 592.4 604.7 611.3 624 630.9 634.4 637.9 650.8 661.7 668.7 668.9 665.3 643 618.4 598.6 589.4 577.4 569.1 561 549.4 541.7 543.8 543.3 550.7 564.9 600.3 628.9 664.8 669.4 713.2 741 760.3 772.5 781.2 784.1 759.7 722.6 677.2 645.2 608.9 584.2 569.6 550.1 531.2 509.1 489.9 469.9 454.1 441.1 433 419.8 400.6 382.7 366.1 347.2 331.1 317.9 304.8 296.8 286.3 280.2 269.7 260.7 255.9 250 244.1 243.5 241 237.1 235.8 236.4 235.8 236.1 235.9 235.7 235.3 235.1 235.1 235.1 234.6 234.4 234.3 234.2 234.1 233.6
