ncols 200
nrows 83
xllcorner 460000
yllcorner 232600
cellsize 50
128 127.7 127.7 127.8 128.1 128 128 128.1 128.6 128.3 128.8 128.2 128.4 128.6 128.6 129 128.7 128.9 128.8 128.4 127.6 127.7 127 125.4 122.6 121.8 121.9 119.7 118.4 116.6 115.3 113.6 112.9 115.7 119.1 121.3 121.7 121.2 119.7 119.6 121.5 122 121.8 121.9 121 120.8 121.1 121.6 121.3 121.1 120.9 120.5 120.1 119 118.4 119.5 120.6 121 120.7 119.9 119 117.8 116.4 116.1 117.4 116.4 116.5 118.7 121.2 122.9 123.8 124.4 124.6 124.4 123 121.4 121.5 119.3 117.2 114.2 112.1 110.9 110 108.8 107.2 108 110 108.8 107.4 106.3 105.7 105.7 105.4 104.7 104.5 104.3 106.4 107.8 108.5 108.1 106.8 105.3 105.3 107.5 112.6 114.7 116 115.6 114.7 114.1 114.8 117.3 118.2 119.1 119 118.4 117.1 114.8 112.6 110.6 106.6 105.3 107.1 111.1 113 117.2 118.8 118.7 117.5 115.8 113.5 110.5 106.2 103.4 99.4 101.5 107 113.6 114.1 111.7 109.5 106.4 104.8 102.3 100.9 100.1 100.6 104.6 105.6 108.8 109.9 111.3 111.9 112.9 113.7 114.2 114.1 114 113.7 113.9 115.3 114.9 115.9 117.6 118.9 121.1 123.3 125.3 126.5 126.8 125.9 125.5 125.8 125.3 124.2 121.1 118.8 118.1 117.8 120.9 120 117.6 115.6 114.3 115.4 115.5 116.3 116.7 119.6 120.4 122 121.7 121.5 121.1 123.3 124.4 124.7 123.1 121.2 119.5
128.6 128.4 128.5 127.8 128.3 128.6 128.1 127.7 127.4 127.9 127.8 127.8 127.6 128.4 128.2 128.1 128.4 128.4 128.7 128.3 128.5 128.7 127.8 126.7 124.3 124.9 124.8 124.1 122.4 120.6 119.6 117.7 113.6 113 118 120 120.3 119.8 117.9 118.9 120.3 121.1 121.1 121.1 120.8 120.5 120.7 120.5 119.8 119.4 119.6 119 117.8 117.6 117.5 118.3 119.6 119.9 119 117.2 116.6 115.4 114.5 114.3 115 115.4 117.3 119.4 120.7 122.1 123 123.8 124.4 124.6 124.4 124 123.1 121.9 120.6 117 115.1 114.2 113.3 113.8 110.3 109.8 113 112.3 111.8 109.5 109.3 107.8 107.3 106.5 105.4 104.1 103.7 105.2 106.3 107 106.1 104.9 104.4 107.2 111.7 113.8 114.2 113.3 112.6 113.4 114.4 116.5 117.9 118.8 118.5 118.1 115.5 112.8 110 106.8 105.4 103.7 103 105.5 111.3 114.4 116.2 117.5 116.8 114.7 112.9 109.7 107.2 103.6 99.4 100.3 105.5 113.3 113.4 111.9 109.1 105.5 102.9 100.6 100.4 98.1 101.1 104.4 107.7 111 112 112.7 111.8 112.4 113.4 113.9 113.7 112.3 111.8 112.1 113.4 114.6 116.9 119.8 121.1 122.8 125 126.8 126.9 125.9 124.1 123.9 123.6 123.7 122.8 120.1 118 115.4 117.1 120.2 119.9 117.3 115 113.5 113.2 113.1 113.2 113.9 116.2 117.3 119.6 119.4 118.2 120.2 123 124.2 124.4 124.2 122.4 120.1
128.1 128 127.8 127.6 128.1 128 127.3 126.5 126.9 127.3 126.9 126.4 126.9 127.3 127.5 128.2 128.2 128.1 127.7 127.2 128.2 128.2 128.3 126.3 126.3 127 126.9 126 124.5 123.4 121.2 118.4 114.6 111.1 115.2 117.4 117.6 117.3 115.4 116.5 117.8 119.1 120.3 120.3 120.6 120.4 120.2 119.9 119.1 119.1 120.7 119.4 119.7 118.2 117.1 117.5 118 117.4 116.1 115.1 114.8 113.9 113.8 113.2 113.6 115.4 117.9 118.9 119.9 120.7 121.1 121.9 123.3 124.7 124.8 124.5 124.4 123.5 122.3 120.2 119.2 118.8 118 117.8 112.6 112.1 114.8 116.6 115.8 113.7 112.8 112 111 108.8 106.2 104.7 103.8 103.8 104 104.3 104.5 103.7 104.6 107.5 110.4 112.2 112.2 111 111.5 113.2 114.7 116.6 118.7 119.1 118.5 117.2 114.7 111.2 110.4 110.8 109.4 105.2 102.3 102.8 106.9 109.9 113.9 116.7 114.4 113.9 111.4 108.5 106.4 103.3 99.5 100.1 106.2 112.1 112.4 110.9 107.8 104.6 102 99.7 99.2 98.8 102 105.3 110.2 112.9 112.3 111.6 110.7 111.2 112.5 113 112.2 110.9 111.4 111.7 112.7 115.1 119.1 121.8 123.2 124.7 126.5 126.1 126.9 126 124.1 122 120.4 120.7 119.8 117.9 115 113.5 115.2 118.6 119.2 117 114.7 113.2 111.6 111.7 110.9 111.2 112.1 114.1 116.9 116.5 115.6 119.2 122.1 123.2 124.2 124.1 123 121.8
127.5 127.1 126.8 127.2 127.6 127.2 126.6 125.2 126 126.1 126 125.8 126.4 126.9 127.4 127.8 128.1 128.5 128.5 127.8 127.9 128 128.3 128.2 128.2 128.1 127.5 126.9 126 123.9 121.1 118.6 115.8 111.7 111.2 112.2 112.6 112.6 112.1 113.4 114 115.7 117 119.1 120 120.3 120 120.5 120.6 120.9 121.1 122 120.1 118.6 117 116.2 116.1 115.8 115.3 115 114.5 114.3 113.6 113.6 112.7 114.6 116.9 117.6 118 118 118.2 120 122.5 123.9 124.8 124.3 124.7 124 123.7 122.7 121.9 121 120.5 118.7 113.6 115.5 117.5 118.4 117.3 117.2 115.9 114.9 112.4 109.3 107.8 107.2 106.4 104.9 104.1 102.9 102.1 103 104.7 107 108.9 109.4 108.7 109.9 111.6 113.9 115.9 117.8 118.8 119.1 117.5 116.3 113.6 112.4 113.1 113.1 111.3 107.5 103.7 101.5 103.3 108.7 114.5 115.6 112.9 112.6 111 108.1 104.7 102.1 97.5 100.4 107 110.9 111 109.5 106.7 103.9 101.3 99.1 98.1 99.1 101.9 106 112 113.4 112.1 111 109.7 110 110.8 110.9 110.9 110.8 111.6 112.4 113.4 116.3 120 122.5 124.4 125.7 125.7 126.6 126.3 125.9 123.8 121.4 118.6 116.6 115.4 113.7 112.1 112.7 115.3 118.7 118 115.9 114.2 113.5 112.9 111.1 110.3 109.2 110 112.1 113.9 113.5 116.3 118.8 120.8 122.5 123.4 123.5 122.9 122.5
126.4 126 125.4 125.6 125.7 125.7 125.4 123.7 124.2 124.1 125.7 126.9 127.4 127.8 128.1 127.8 128.1 128.1 128.5 128.7 128.8 128.4 128.5 128.6 128.6 128.4 128.1 127.5 126.8 124.5 122 120.1 118 115.1 113 110.9 109.4 108.9 108.8 108.5 108.9 110.5 114.2 117 118.4 119.3 120.1 121.1 120.7 121.4 121.6 121.5 120.8 121.7 119 117.2 116.6 116.5 116.2 116.1 116.4 116.3 116 115.5 114.4 112.8 114.4 115.4 115.7 115.5 116.5 118.8 121.1 123.4 124.4 125 125 124.7 124.1 123.2 123 121.8 120.8 117.8 117.6 118.9 119.3 119.4 118.9 118.2 117.1 116 112.5 111.1 110.9 110.6 109.4 107.2 105.8 103.7 102.5 101.8 103.5 105.4 106.2 107.3 107.7 109.9 112.9 114.7 116.6 118.6 119.1 118.7 118.1 116.5 114.8 115.3 115.3 113.6 111.8 109.1 104.6 101.4 101.3 106 111.5 113.8 112.4 111.6 109.4 105.9 103 99.7 96.7 103.6 108.9 110 109.4 107.8 105.3 103.2 100.4 98.5 98.1 99.3 101.6 104.6 110.1 113.3 111.2 109.3 108.1 108.1 108.3 109.6 110.4 111 112.3 113.6 114.7 115.9 119.3 122.1 126.3 125.1 125.4 125.6 126.3 125 123.6 120.6 117.7 114.3 112.4 111.3 110.4 112 116.3 118.8 117.1 115.3 114.2 114.2 113.2 112.3 110.6 108.9 108.7 110 110.9 112 114.8 117.2 119.3 121 122.5 123.2 123.1 123.1
124.5 123.6 123.5 122.5 122.4 122 121.3 121.8 122.9 125.3 126.8 127.5 128.1 128.2 128.2 128.7 128.8 128.7 129.1 129.3 129.3 129.4 128.8 128.7 128.5 128.5 128.3 127.7 126.7 126.3 124.6 123.2 121.3 119.1 117.2 115.5 113.4 111.4 109.6 108.5 107.3 107 109.4 113.5 115.9 117.6 119 119.8 120 121.4 121.3 121.9 121.7 120.7 120.8 119.6 119 118.8 118.8 119 119.6 119.3 118.9 118.4 116.3 113.8 111.9 112.4 113.3 113.5 115.4 117.5 119.9 122.3 123.9 124.9 124.9 124.8 124.1 123 123.3 122.5 121.1 119.4 120.2 120.4 119.8 119.2 119.1 118.5 117.8 115.8 114.4 114.2 114.4 112.8 110.5 108.2 105.9 103.5 101.8 101.6 102.4 103.2 104 105.1 108 111 113.6 115.4 117.5 119.3 120.3 120.1 119.5 118.2 117.4 117.1 115.9 113.6 111.1 107.1 104.2 102 101 101.4 104.9 108.7 110.7 109.5 107.2 104 100.5 96.2 100.9 106.3 108.7 108.9 108 105.4 103.2 101.8 99.5 98.8 98.6 98.4 99.5 101.9 104.9 108.8 107.8 105.2 106 107.5 109.9 111.1 111.5 112 114.1 116.1 116.5 117.1 119.6 122.9 124.4 123.2 125.7 125.7 125.1 123.7 121.7 118.9 115.6 113.5 111 109.5 108.9 111.6 115.1 117.6 116.2 115.2 114.5 113.2 112.1 111.2 109.7 108 107.5 108.5 108.9 110.5 112.5 114.8 117 119.3 120.7 122.3 123 123.5
122.8 120.9 120.7 118.7 117.7 117.9 119.9 122.6 125.5 126.3 127 127.6 127.6 128.2 128.7 128.9 129.2 129.1 129.3 129 129.6 129.6 129 128.5 128.2 128.2 128.2 127.8 126.8 126.6 125.9 124.9 123.7 122.5 120.8 119.2 117.1 115.7 115 113.6 112.5 109.2 106.2 109.3 112.3 115.2 116.7 117.8 118.5 119.8 120.6 121.2 121.8 121.5 122 121.4 121.4 121.5 121.5 121.6 121.7 121.6 120.8 119.9 118.3 116.3 114.2 111.1 110.6 112.3 114.5 116.2 118.2 120.6 123.3 124.4 124.5 124.6 124.2 123.6 122.3 121.9 121.5 120.4 120.6 120.2 119.3 118.6 118.3 118.4 117.9 116.8 116 115.6 114.7 113.5 110.7 108.2 105.7 103.2 101.2 101.6 102.5 103.8 104.4 106.3 109.2 112.6 114.5 117.5 119.2 120.3 120.8 120.9 120.3 119.7 119.2 117.6 116.1 113.5 111.6 106.9 106.6 104.6 101.5 100.2 100.2 101.5 104.3 105.4 103.2 102.7 99.8 96.2 100.8 105.3 107.5 106.8 105.1 102.7 101.3 99.5 97.2 95.8 98.9 99.5 99.9 100.3 101.3 102.7 104.8 106.8 109.1 109 110.4 112.6 113.3 113.4 115.3 117.5 118.5 118.8 121.5 123.5 124.1 122.7 125.5 124.7 123.5 121.5 118.8 116.6 113.8 111.3 109.4 108.2 108 110.1 112.1 114.4 114.9 114.3 112.8 110.7 109.5 109.1 107.9 106.8 106 106.9 108.3 109.5 111.6 113.3 115.2 116.8 118.8 121.3 122.5 122.9
118.8 116.5 115.9 115.4 118.6 121.5 123.4 124.6 125.4 126.2 126.4 127.2 127.8 127.8 128.3 128.6 128.8 129 129.3 129.1 129.6 129.1 128.6 128.5 128.2 128 127.7 127.4 127 126.4 125.9 125.4 125.1 124.1 123.2 122.3 121 120.1 119.2 117.5 115.9 113.4 108.5 105.6 109.2 111.3 113.4 114.6 115.9 118.3 119.4 120 121 122.2 122.5 122.7 122.9 123 123.1 123.4 123.2 123.3 122.4 121.4 119.9 118.2 116 113.6 109.3 111 113.4 115.2 116.9 119.2 122.3 123.9 124 124 123.5 122.5 121.6 119.8 120.8 119.3 119.8 119.1 118.5 116.5 115.9 116.4 116.8 116.8 116.3 115.3 114.3 112.2 109.2 106.6 104.2 102.1 101.1 101.9 104 105 106.1 108.2 111.9 114.1 116.9 118.7 120.2 120.7 121.2 121.3 120.8 120.1 119.7 118.9 116.5 113.3 111.8 111.1 111.2 109.3 104.3 103.1 101.2 99.5 99.1 98.6 99.9 101.1 98.4 96.8 101.5 104.8 106.4 105.4 101.9 100.6 99.3 97.7 95.5 97.6 100.7 103.5 104.4 104.5 104.9 107.8 108.5 109 110.3 110.2 111 113.5 115.2 115.4 116.8 119 119.6 119.7 121.4 123.1 122.6 123.8 124 123.1 121.4 118.9 116.4 114.1 111.4 109.4 108.4 107.5 106.5 107.5 108.7 110 110.5 110.3 109 106.6 106.3 105.7 105.4 105 105.6 106.5 107.6 108.7 109.8 111.2 112.9 114.7 117.4 120 121.8 122.4
116.7 112.4 112.8 119.4 121.6 122.4 123.4 124.3 124.6 124.9 125.4 126 126.7 127.3 127.6 128 128.3 128.4 128.7 128.4 128.6 128.3 128 127.8 127.4 127 126.7 127 126.2 125.8 125.4 125.2 125.1 124.6 124.6 124 123.2 122.5 122 120.5 118.6 115.7 112.5 107.8 104.2 106.7 109 110.3 113.8 117.1 117.5 117.3 119.9 121.8 123 123.6 123.8 124.1 123.5 123.7 123.9 123.8 123.3 122.5 121 119.2 116.7 114.7 111.1 109.1 111.5 113.5 116 118.8 121.5 123.4 123.4 123.5 122.9 121.4 119.6 117.6 119.3 119.8 119.6 118.5 116.5 114.5 114.2 114 114.6 115.1 114.8 113.6 111.3 109.4 107 104.6 102.5 100.7 101 103.7 106 107.5 108.6 110.7 114.2 116.8 119.2 120.7 120.7 121.2 121.6 121.6 121.1 120.5 120 119.3 117.8 116.4 114.8 114.3 113.3 111.4 110.1 108.6 106.2 104 100.3 99.3 98.4 96.2 97.5 95.7 99.9 102.6 103.7 103.8 101.3 99.1 97 98.1 96.6 100 104.9 108.3 109.5 109.5 109.7 111.3 111.2 111.1 112.6 113 113 114.4 116.9 118.3 119.1 119.9 120.3 120.8 122.1 122.3 121.9 121.6 121 120.6 119.1 117 114.3 112.3 110.1 108.7 107.1 105.8 105.1 105.1 106.2 106 106.2 105.6 105.1 102.9 103.5 104.6 104.8 105.1 106.1 107.7 108.4 108.7 109.2 110.3 111.3 113.4 116 118 120.2 121.9
113.2 110.1 113.8 120.3 121 121.1 122.1 123.1 123.5 123.8 122.7 122.8 125.3 126.4 126.4 126.9 127.2 127.4 127.6 127.5 127.2 127.2 127 126.9 126.6 126.3 125.2 125.1 125.8 125.5 125.7 124.7 124.5 124.4 124.4 124.1 124.1 123.9 122.9 122.2 120.7 117.6 115.2 111.9 107.6 104.5 104.5 107.3 111.5 114.3 113.9 114.7 118.8 121 123 123.9 124.2 123.9 123.7 123.8 124 124 123.2 122.4 120.5 118.8 116.4 114.7 111.8 108.4 109.6 112.7 115.5 118.4 121.2 122.7 123.1 122.8 121.8 119.8 117.6 116.1 118 119.1 118.8 117.3 115.5 113.9 111.9 111.5 112.3 113.2 112.6 111.5 109.4 107.1 104.6 102.3 100.8 101.8 103.6 105.6 108.2 110.4 112.5 114.4 116.5 119.2 120.9 121.5 121.2 121.5 121.7 121.5 121.4 120.8 120.2 119.5 118.6 117 115.6 115.8 115.3 114.2 113.5 113.2 110.5 108.2 103.4 101.3 99 96.7 95.7 95.4 97.1 99.8 100.8 99.9 98.5 97.5 96.2 95.5 97.9 103 109.1 111.5 111.9 112.5 113.3 114.2 114.2 114.9 115.5 116.4 116.2 116.4 118.2 119.7 120 119.7 119.9 120.8 120.8 120.9 119.9 119.1 118.1 116.7 115.9 114 112.2 110.8 109.3 108.5 106.9 105.3 104.3 103.8 102.9 102.9 102.2 102 101.7 103.2 104.9 106 106.3 106.8 106.9 108.4 110.2 110.7 110.6 110.9 110.9 112.4 114.2 116.4 119.1 121.2
109.6 109.7 117 118.5 118.6 118.7 119.4 120.8 121.5 120.6 119.2 120.6 124.3 125.1 125.2 125.4 125.6 125.8 125.5 124.9 124 124.3 123.7 123.9 124.1 124 122.8 122.4 123.6 124.1 123.6 123.1 124 124 124 123.9 123.8 123.7 123.6 123.1 121.6 119.7 117.6 115 111.9 107.7 104.6 104 107.8 110.2 111.4 115.5 119.1 121.4 122.9 123.9 124.2 124.1 123.9 124 124.1 124.1 123.2 121.9 119.7 117.9 116 114.8 113.1 109 109.5 112.3 115.1 117.8 120.4 122.2 122.4 121.8 120.7 118.1 115.6 114.7 116.5 118.3 117.8 116.5 114.2 111.9 109.9 109.4 109.9 110.6 109.5 108.9 107.9 105.2 102.7 100.7 101.2 103.8 105.5 107.5 111 114.2 115.6 117.3 119.6 120.8 121.7 121.8 121.4 121.8 121.6 121.1 120.9 120.5 119.7 118.8 117.9 117.4 116.7 116.2 115.4 115.1 114.9 114.9 113.1 110.9 108.8 105.1 100.6 98.2 96.4 95.1 95.2 96.6 98.3 98 97.6 96.7 95.6 95.7 100 106.1 110.8 112.7 113.6 114.1 115.2 116.1 116.8 117 117.8 118.1 118 118.4 119 120 120.3 119.8 120.5 120.3 120 118.8 117.8 116 114.7 113.7 112.8 111.7 110.4 109.7 109 108.2 106.5 105.8 104.6 103.5 102.5 101.3 101.3 101.1 103.5 106 109.1 109.4 108.3 108.6 107.9 108.6 110.5 112.2 111.9 111.6 111.7 112.1 113.8 115.2 117.7 120.5
107.2 110.5 115.7 114.9 114 114.5 115.8 117.9 117.8 117.3 116.2 119.6 122.4 122.4 123.4 123 123.9 122.9 121.4 120.6 119.7 119.7 119.8 119.5 120.2 119.8 119.4 118.6 119.5 121.4 122.8 122.4 121.9 122.3 122.2 122.1 124 122.9 122.9 122.8 121.7 120.6 119.1 117.4 115.1 112.5 108.2 103.1 104.5 107.2 111.8 116.1 119.1 121.3 122.5 123.6 123.9 124 124.1 124.1 123.9 123.6 122.1 120.6 118.4 116.8 115.4 114.1 112.4 109.8 108.4 111.6 113.7 116.5 119.3 121.2 121.5 120.8 119.2 116.5 114.1 112.9 114.9 117.3 117.2 116.5 113.7 111.3 108.9 107.8 108 108.2 107.3 106.7 106.1 103.8 101.6 100.1 102.4 104.8 106.9 110.3 113.6 116.7 118.2 119.8 120.5 121.4 122.2 121.1 121.3 121.7 121.2 120.9 120.8 120.2 119.1 118.1 117.1 116.2 115.5 115.1 115.2 114.6 114.4 114.3 113.4 111.7 109.6 105.6 102.6 102.1 98.9 95.6 94.3 94.3 95 96.6 96.7 95.8 95.5 97.7 104.3 107.5 111.1 112.3 113.7 114.6 116.4 117.2 117.8 117.9 118.2 118.5 118.6 118.5 119 119.5 120.1 120.5 119.9 119 117.5 115.6 114.2 113.7 112.7 111.6 110.8 110.1 109.4 108.8 108.5 107.4 106.5 105.7 104.6 104.1 103.3 101.8 100.5 101.2 105.6 108.7 110.8 111.8 111 110.1 110.5 111 111.7 113 113.7 113.2 112.8 112.8 113.6 115 116.5 119.1
105.7 110.2 111.1 111.9 113 111 112.2 114 114.4 113.7 113.8 117.4 117.8 120.5 120.6 120.7 121.2 119.2 117.6 117.2 116.7 116.6 116.4 116.6 117.1 117.1 116.5 115.8 116.4 118.4 119.8 119.4 119 119.1 120.2 120.6 120.8 121.4 122.5 122.6 121.4 120.6 119.4 117.8 115.9 113.6 110 104.6 102.1 106.2 111.3 115.6 118.5 120.6 122.5 123.3 123.7 123.9 123.9 123.7 123.1 122.6 121.8 119.5 117.6 116.3 114 112.2 110.3 108.4 107.9 111.1 113.5 115.6 117.6 119.5 121.1 120.3 118.1 114.9 112.6 111.4 114.3 116.2 116.5 115.7 113.5 111 108.6 106.5 106.3 106.5 105.6 105 104.1 102.5 100.1 100.2 102.9 105.7 108.8 111.9 114.9 118.3 120 120.6 120.9 121.7 122.1 121 121 121 120.9 120.7 120.5 119.2 117.3 116.1 115.3 114.3 113.3 113.2 113.5 113.3 113.3 113.4 113.4 111.6 109.4 106.8 107.8 106.3 102.3 99.2 95.8 94.7 94.4 95.6 96.3 94.8 94.9 101.3 106.1 108.8 110.1 111.6 112.6 114.6 116.4 116.5 116.3 117.4 116.9 117.7 117.9 118.5 119.1 119.4 119.4 118.9 117.7 116.4 114.2 112.8 111.4 111.4 111 110 109.6 109 108.7 108.2 107.8 106.5 106 105.4 105.5 104.7 103.8 102.6 100.6 101.7 105.2 108.2 110.3 112.1 113.1 112.4 113.4 114.3 114.9 114.9 115.5 114.9 114.2 113.5 113.6 115.2 117.5 119.6
105.4 107.7 107.8 107.4 107.8 108.6 110 111.9 111.7 111.3 112.3 113.9 114.1 116.7 117.1 118.1 118 116.1 114.3 114.1 113.5 113.5 114.2 114.4 114.2 114.3 114.1 113.3 114.6 116.6 117.5 117.1 116.7 116.5 117.2 118.2 118.9 119.2 120.7 121.3 121.2 120.5 119.3 117.6 115.8 113.8 110.2 106.3 103 104.9 110.4 114.6 117.6 120 121.9 122.8 123.1 123.7 123.7 123.3 122.7 122.4 121.3 119 117.2 115.6 113.9 111.5 109.5 107.6 107.2 109.7 111.7 113.9 116.2 118.3 120 119.2 116.9 113.4 111.4 110.2 112.6 114.8 115.3 114.1 112.8 110.5 108.3 105.8 104.8 105.2 104.3 103.3 102.6 99.9 99.2 101.1 104 106.3 109 112.6 115.7 119.1 120.5 121.4 121.8 121.5 121.8 120.9 120.5 120.3 120.2 120 119.7 118.9 116.8 114.9 114 113 111.8 110.6 110.8 111.2 112.3 112.4 112 110 109.2 109.9 110.2 108.7 105.4 101.7 98 95.3 93.8 93.5 95 93.6 95.4 101.1 105.9 107.4 109.2 110.5 111.4 113.1 114.7 115.3 116.1 115.7 116.1 116.7 116.8 117.7 118.1 118.3 117.4 116.1 115.1 113.7 111.4 110.8 109.3 109.1 109 108.5 108.4 108.3 108.3 107.8 106.7 106.4 106.2 105.6 105.5 104.7 103.6 102.2 100.3 100.6 102.5 106.3 108.8 110.5 112.1 113.5 114.9 116.1 117.1 118.3 117.4 116.3 115.3 114.7 114.5 116.1 118 120.1
104.5 107.1 107.3 107.7 106 106.8 108.7 109.8 109.1 108.8 110.7 111.8 112.7 114.2 115.2 115.7 115.5 113.7 112.2 110.8 110.1 109.9 111.7 112.2 110.9 111.5 111.3 111.3 113.7 115.5 115.6 115.3 114.8 114.5 114.8 115.5 116.1 117 118.8 119.3 119.5 119.3 118 116.4 115.1 112 108.5 105.9 102 105 109.9 112.2 115.7 118.1 120.6 121.7 122.3 123 123 123 122.1 121.6 121.1 119.9 118.8 117.2 115.6 113.1 111.2 108.6 106.3 108.2 110.5 112.2 114.4 117 118.9 118.6 115.9 112.6 109.8 108.8 110.7 113.3 114.1 113 112.1 110.4 108.5 106.1 104 102 101.7 100.3 99.7 99 100.6 102.3 104.5 107.2 110.2 113.4 117 119.6 120.7 121.6 121.9 121.3 121.3 120.8 120.2 119.6 119.6 119.9 119.3 117.6 116.2 114.6 113.5 112.7 110.5 109.2 108.4 109 110.2 111 110.7 109.2 110.1 111.4 111.2 109.7 106.2 102.7 100.4 97.6 95.1 93.2 93 93.7 93.6 99.8 102 105.6 107.4 109.2 110.2 111.4 113 113.2 114.3 113.8 114.8 114.3 115.3 116.2 116.7 116 115 113.2 111.8 110.6 108.8 108.7 108.3 108.2 107.9 107.4 107.8 107.5 107.3 107.2 107 106.8 106.4 106 104.9 104.2 103.6 101.8 100 99 100.9 104.1 105.8 107.5 109.3 112 114.2 117 117.6 119.1 119 117.1 116.1 115.9 115.9 116.7 118.6 120.7
102 104 104.9 104.8 103.4 105.4 111.8 107.1 106.4 108.2 109.4 110.5 110.7 111.6 112.4 113 112.8 112.2 109.8 107.7 106.7 106.4 108 108.2 107.4 107.9 108.1 109.3 112.7 114.4 114.5 114.1 113.7 113 112.5 113.5 113.7 114.5 116.2 117.7 117.9 118 117.2 116.5 112.9 110.7 107.5 104.3 101.1 105.6 110.2 113.4 115.4 116.2 118.4 119.9 121.4 122.2 122.2 122.2 121.9 121.4 120.9 120.3 119.2 117.9 115.7 113.4 111.3 108.5 105.8 106.6 108.9 110 113.3 116.3 118.2 117.8 114.9 112.2 109.9 108.8 109.5 111 112 111.4 110.7 109.6 107.9 106.6 103.6 102.4 100.4 99.3 98.8 100.7 101.8 103.9 105.9 108.2 110.9 114.5 118 119.9 121 121.6 121.6 121.4 120.7 120.1 119.5 118.9 118.8 118.7 118.1 117 116 115.1 114.1 113.1 111.7 109.8 108.2 107 107.4 109.2 109 110 111 111.9 111.8 110.3 108.3 105.8 101.6 98.4 96 93.8 92.4 92.4 93.7 96.5 97.9 101.7 105.2 108.9 109.6 110.4 110.4 111.2 111.5 112.8 113.5 113.1 114.4 114.5 114.7 113.6 112.8 111.2 109.7 108.7 108.8 107.5 106.4 106.5 106.1 105.6 106.1 106.6 105.5 105.9 106 105.9 105.6 105 104.3 103.8 103 101.8 99.8 99.6 101.7 102.3 103.3 104.9 106.6 109 111.8 115 116.3 118.1 119 118.1 117.4 117.4 117.5 118 118.9 120
99.1 100.6 101.5 101.9 100.9 103.4 103.7 104.1 104.5 106 107.7 107.8 108.3 109.6 109.9 109.8 109.4 108.8 107.5 104.1 103.3 103.1 103.7 103.7 103.3 103.8 104.3 107.2 111.5 113.3 114.1 113.1 112.2 110.5 110.5 110.2 110.5 112.6 114.2 115.3 115.1 115.4 115.4 114.6 112.6 110.3 107.5 103.1 101 105.9 109.3 111.7 113.8 115.1 116.6 118 119.5 121.6 121.7 121.7 121.1 120.7 120.5 119.9 118.9 117.5 115.4 112.5 111.2 108.9 106.2 104.8 108 109.9 113 115.8 117.6 117.1 114.3 111.7 108.9 107.5 108.6 109.7 110.1 109.5 108.9 108.3 107.2 105.5 103.4 102.1 99.7 98.2 100.7 102.5 104.1 105.7 107.3 109 111.8 114.5 118.6 120.3 121.4 120.9 121.2 121 120 119.4 118.8 118.3 118.2 118.1 118.1 117.3 116.5 115.7 114.6 113.2 112.1 110.4 108.2 106.4 105.5 106.2 107.7 110.1 112 113.3 112.2 111.9 109.9 107.5 103.2 100.1 97.6 94.5 93.3 92.6 92.2 93.3 95.5 100 105.7 108.6 108.9 109.4 108.7 109.1 110.1 111 111.7 111.9 112.1 112.7 112.6 111.8 110.5 109.2 107.8 107 106.7 105.5 105.1 104.7 104.3 103.8 105.6 105.8 105.7 104.7 104.9 104.7 104.2 103.9 103.8 103.3 102 100.8 99.2 98.8 101.2 101.3 102 103.2 104.7 106.3 109 110.9 113.5 115.9 118.3 118.2 118.3 118.2 118 118.2 118.6 119.7
98.9 98.9 98.5 99.6 98 99.4 100 107.6 101.4 103.3 103.9 104.9 105.7 107.5 106.7 105.9 104.6 103.9 102.8 101.8 101 100.7 100.7 100.7 101.1 101.4 102.4 105.3 109.8 111.9 113 112.1 111.9 110.8 110.3 109.4 108.8 109.7 110.3 111.1 110.9 112.1 112.6 112.7 112 110.6 107.9 103.1 100.5 105.1 108.4 110.4 112.4 113.9 114.6 116.2 118.2 120.6 121.4 121.5 120.5 120.1 119.8 119.2 118.2 116.6 114.4 112.5 110.9 108.7 106.3 103.5 106.7 109.7 112.9 115.7 116.9 115.8 113.4 110.7 108.2 106.6 107.2 107.9 108.2 107.5 107.6 107.3 106.2 104.1 103 101.7 99.4 98.7 101.2 103 104.9 106.6 108.3 111.4 113.9 117.4 119.8 121.4 120.6 121.3 120.4 120.6 119.5 118.7 118.2 117.7 117.6 118 117.7 117.4 116.8 115.9 114.6 113.2 111.7 109.6 108.6 106.8 105 104.8 107.4 110 112.3 113.7 113.1 112.2 110.1 108 105.2 102.3 99.2 98.3 95.3 92.4 91.3 92.6 94.6 97.4 103.1 105.9 107.7 107.4 107.3 108.6 109.1 109.8 110.4 110.5 111.4 111.3 111 110.5 109.5 107.6 106.7 105.9 105.4 104.7 103.7 103.5 103.2 102.5 104.1 105.2 104.8 104.2 102.8 102.6 103.4 102.9 103.4 102.6 101.2 99.6 98.1 97.3 99.7 101.3 102.1 103.1 104.1 105.8 107.4 109.5 112.5 116.4 118.4 118.6 118.2 118.6 118.2 117.9 118 118.5
98.1 99.8 98.9 98.7 98.8 98 98.1 98.7 110 100.1 100.8 101.5 102.7 103 102.4 101.6 100.7 100.6 99.9 99.5 99.1 99 99 99 99.1 99.5 100.4 103 106.2 109.9 111.4 111.6 111.1 109.4 108.9 107 106.1 107.6 107.6 108 107.6 107.1 109.5 108.9 110.1 110.6 108.3 102.4 100.8 104 105.3 107.9 109.2 111.1 112.8 114.9 117 119.8 121 121.1 120 119.6 118.2 118 117.4 115.7 113.5 111.5 110.1 107.8 105.1 103.7 106.6 109.8 113 115.3 115.7 115.7 113.1 110.8 108 105.5 105.5 106.6 106.8 106.6 106.4 106.1 104.4 102.6 101.8 100.6 98.3 99.4 101.4 102.9 105.5 107.1 110.9 113.4 116.2 118.6 120.4 121 120.6 120.4 120.2 119.5 118.5 117.8 117 116.4 116.6 116.6 117.2 117 116.4 115.3 113.8 112.1 110.4 108.3 106.8 105.2 103.9 104.1 107.1 110.6 112.5 114.1 112.6 111.6 110.2 108.1 105.2 102.2 100.2 99.4 97 93 91.2 93.4 99.7 100.9 98.7 101.1 103.6 105.3 106.6 107.8 109 109.4 110 110.4 110.7 110.4 110.1 109.3 108.3 107.5 106.1 105.8 104.5 103.6 102.8 102 101.7 101.7 103.5 103.4 103.7 102.7 102 102.8 103.1 103 102.7 101.9 100.8 99.3 97.7 98.3 100.8 101.8 102.6 103.1 103.5 105.5 108.5 111 113.7 116.2 118.1 119.2 118.6 118.7 117.8 117.2 117.1 117.3
98.9 98.5 99.1 99.9 98.3 98.7 98 98.3 99.2 102.5 98.4 99.1 99.2 99.3 99.2 98.8 99.1 98.5 98.7 98.2 97.4 97.3 97.4 97.4 97.5 97.9 98.7 100.3 102.9 106.4 109 109.7 108.9 107.1 106.5 105.2 104 104.9 105 105.4 104.5 105.5 106.1 105.4 107.5 108.8 106.8 102.7 98.8 99.6 101.8 104.5 105.9 108 111.9 114.4 117.4 119.5 120.4 120.6 119.8 118.9 117.4 116.7 116.3 114.5 112.4 110.6 109.2 106.1 103.4 104.3 107.5 109.8 112.9 114.4 114.6 113.8 112.5 110.6 107.8 105.2 103.6 104.7 104.4 104.9 104.1 103.5 103 102.5 101.1 99 97.4 98.8 101.5 103.4 106 109.4 112.6 115.5 118.1 119.7 120.4 120.7 120.5 120.1 119.8 118.8 117.8 116.2 115.4 115.3 114.9 116.3 116.5 116.7 115.8 113.7 112.3 110.5 107.7 107.3 105.7 103.8 102.9 103 106.5 110 112.9 114.2 113.2 112.1 109.6 105.1 102.1 100.2 99.4 98.6 95.8 92.7 90.9 96.4 102.3 106.9 105.1 102.1 106.1 107.8 108 108.4 109.2 109.6 110.1 109.9 110 109.6 109.2 108.5 107.9 106.6 105.8 105.5 104.9 103.3 102.3 101.6 100.7 100.7 101.1 101.7 101.8 101.7 101.4 102.1 101.9 102.1 101.9 100.8 99.9 98.7 97.4 98.7 101.1 101.8 101.9 102.4 103.6 105.4 108.7 113.3 115.3 115.3 116.9 118.2 118 117.8 116.9 115.6 115.6 116.3
98.7 98.9 98.6 98.7 98.3 99.9 98.6 98.2 97.9 105.6 98.4 97.5 97.7 97.3 97.2 96.9 96.4 96.3 96.1 96.3 96.5 96.5 96.4 96.5 96.5 96.5 96.8 98 100 102.5 104.2 105 104.5 103.9 103.2 102.2 101.2 101.9 102.5 101.9 101.3 101.6 101.5 104.3 106.1 109 106.5 104.2 99.6 97.6 99 101.8 104.2 108 111.1 113.7 116.2 119 119.8 120 119.5 118.3 116.6 115.3 115.3 113.8 111.8 110 107.9 104.8 102.5 105.3 108.2 110.4 112 113.2 113.3 112.5 111.1 109.4 107.5 104.4 102.2 103.4 103.2 102.9 103 102.6 102.3 101.8 100.4 97.5 97.3 99 101.2 103.9 106.8 111.1 113.8 116.9 119.1 120 120.1 120.2 119.8 119.7 119.4 118.3 117.2 115.2 114.2 113.5 114.2 115.2 115.5 115.5 114.9 112.8 111 109.3 107.8 107.1 106.4 105 103.8 102.2 104.6 108.6 113.2 113.5 112.4 110.3 107.8 103.6 100 98.6 97.1 95.2 93 91.5 93.5 100.3 108.1 109.9 108.4 105.3 106.9 108.4 109.3 109.4 109.6 110 109.8 109.4 109.4 109.2 108.7 107.7 107.3 106.7 106 105.2 104.4 104 103.1 102.3 101.6 100.4 100.2 101.4 100.9 101.4 100.4 101 101.2 101.3 100.5 99.6 98.2 96.9 98.1 98.8 100.2 101.1 101.1 101.7 103 105.6 109.4 114.1 116.2 115.7 115.7 116.9 116.8 116.4 116.1 114.8 115 115.4
100.7 100.2 99.5 98.5 98.9 98.4 98.3 97.9 97.9 97.6 108.8 97 97.4 97.1 97 96.9 97.2 97.2 97.6 96.5 96.2 96.3 96.1 96.4 96.3 96.2 96.1 96.6 98.4 100.2 101.8 102.8 101.7 101.2 100.4 99.4 98.9 98.5 98.5 99.5 98.8 97.1 100.4 100.8 103.8 106.5 105.4 103.5 101.4 97.6 97.3 99.5 103.7 107.6 110.5 113.3 116.3 118.5 119.8 119.6 118.7 117.9 116.1 114.7 114.2 113.5 111.4 109.5 107.2 103.8 101.6 105.2 107.6 109.5 110.9 111.9 112 111.2 109.7 108.2 106.6 104.2 100.9 101.6 102 101.2 100.2 100 100 98.9 97.5 96.8 98 99.9 102.4 105.1 108.8 112.6 115.1 118 119.1 119.7 120 119.5 119.2 119.2 118.7 118.2 117 115.4 114.3 113.3 113 114.4 115.2 115.2 114.7 113.9 112.2 111.1 109.7 109.1 108.3 106.4 103.7 101.2 102.6 108.4 111.2 112 110.5 106.6 103.5 100.3 97.7 96.1 94.1 91.5 90.6 93.1 99.6 104.3 109.5 110.3 109.5 106.8 107.6 108.5 108.9 109.1 109.3 109.9 109.4 108.9 108.8 109 108.8 107.8 107.1 106.2 105.6 105 105 104.7 104.1 103.5 102.4 100.9 99.4 99.9 101 100.9 99.6 99.9 100.1 99.8 98.5 97.6 96 97.3 99.8 100.6 100.2 101.3 101.6 102.9 103.9 105.6 108.9 114.1 116.6 115.8 114.8 115.3 115.1 114.7 114.3 114.6 115.9 115.6
101.5 100.3 99.7 99.8 100.2 99.2 98.4 97.8 99.2 97.9 98.5 102.3 97.1 97.3 97.3 97 97.1 97.6 96.8 96.7 97.1 96.2 96 96.1 96.2 96.1 96.2 96.4 99.6 102 102.7 102.4 101.6 100.7 99.2 97.9 97.3 96.5 95.8 95 95.3 96.5 97 98.6 100.9 102.3 102.9 102.4 100.7 97.8 97.7 99.2 103.9 108.1 111.1 113.8 116.4 118.5 119.6 119.2 118.4 117.4 115.5 114.2 113.5 112.3 110.6 108.9 107.2 103.8 101.3 104 106.4 108.6 109.9 110.9 110.6 109.4 108.4 108 105.6 103.6 100.7 98.5 99.1 97.3 97.2 95.8 96.3 96.6 97.2 98.3 99.7 101.9 104.3 107 111.5 114.2 116.9 118.6 118.9 119.2 118.9 118.7 118.9 118.6 118.1 117.7 117.2 116 115.2 113.5 113.1 112.5 116.6 113.4 114 115 113.3 113 111.6 111.2 109.9 106.6 104 102.3 101.1 105.4 108.7 110.5 109.2 103.3 100.8 97.3 94.2 92 90.4 90.6 92.8 98 104 108.3 110.1 111.2 109.3 108.8 108.9 108.7 109.5 109.8 109.8 109.9 108.9 108.4 108.3 108.8 108.4 107.9 107.1 106.1 105.5 105.4 105.4 105 104.4 103.8 102.7 100.8 98.9 99.1 100.3 100.9 99.7 98.7 98.9 98.1 97.2 95.3 95.3 97.6 99.9 100.6 100.9 102 102.7 103.6 104.8 106.5 108.4 112.5 115.1 114.9 112.9 112.9 113.2 112.8 112.8 114.7 116.7 116.8
102.6 100.9 100.6 101 101.3 101 100.3 99.1 98.4 97.7 98.4 106 99 96.8 96.9 97.4 98 98.6 97.9 97.9 97.2 96.8 96.9 96.8 95.5 96.1 96 95.8 98.9 100.7 101.6 102.4 101.5 100.8 99.4 97.8 96.3 96.5 94.7 94.6 94.7 95.1 95 95.9 97.3 100.3 100.6 99.6 98.6 96.7 96 99.8 104.7 108.6 111.4 113.7 116.2 118.5 118.7 118.8 117.9 116.6 114.7 113 112.2 112 110.7 108.9 107.4 105.1 101.7 101.7 104.8 107.2 108.8 109.7 109.3 108.2 107.7 107.4 104.7 102.8 100.2 97.1 96.5 95.3 96.5 98.7 99.6 100.6 100.4 101.4 102.5 104.6 106.7 110.3 113.1 116.1 117.9 118.5 118.2 117.9 117.6 117.3 117.6 118.2 117.8 117.9 117.4 116.6 115.8 114.3 112.6 112.9 112.4 112.8 113.6 114 114.9 114.2 113.6 111.8 109.9 108.8 107.4 104 100.4 101.5 105.9 108.8 108.2 103.5 99.6 95.4 91.6 89.5 90.6 93.7 97.2 100.2 106.3 109.5 110.8 111.3 109.1 109.5 109.2 110.3 111.1 111.3 110.2 109.9 108.6 107.9 107.9 108.1 107.7 108 107.1 106.1 105.9 105.7 105.6 105.3 104.7 103.8 102.4 100.7 98.1 98.7 100.4 99.8 99.6 98 96.1 96.2 95.2 95.2 96.1 96.4 98.1 100.3 101.5 102 102.5 103.3 104.2 105.4 107.5 110 111.8 111.4 110.4 110.7 111.7 111.6 112.4 114.1 116.1 117
103.2 102.7 101.9 102.9 102.6 102.5 102.4 100.9 100.5 101.2 99.8 101.5 109 99 99.9 98.9 100.2 101.3 101.3 99.6 99.7 99.4 98.2 97 96.6 96.9 95.8 96 96.6 98.1 99.7 100.8 100.8 100.8 99.9 97.9 96.1 94.9 95 94.3 93.6 94.3 94 94.8 95.9 96 97.6 97.1 96.7 95.6 97.3 101.1 105.3 108.6 111.3 113.8 116.5 117.8 118.5 118.3 117.3 115.5 113.9 112.4 111.5 111.2 110.5 109.4 108 106.5 103.8 100.9 102 105.2 107 108.5 108 107.3 107 106 103.4 102.1 99.6 96.9 95.3 96 100.4 102.7 103.8 104.4 104.4 104.8 106.2 107.9 111.9 113.7 115.6 117.2 117.8 117.7 117.4 117 115.8 115.9 116.8 117.7 118.3 118 117.5 116.8 116 114.9 113.1 111.8 111.6 111 112.2 114.5 115.5 115.6 114.4 113 112.1 111 109.2 105.2 100.9 98.5 102.8 107.3 106.7 102.9 99.2 94.5 90.9 90.8 93.7 96.9 100.4 105.3 108.5 110.2 111.1 111.4 111.1 110.6 111 111.2 112.2 111.9 110.9 109.5 108.4 107.4 107.1 107.4 107 107.3 107 105.3 105.9 105.8 105.9 105.5 104.4 103.6 102.3 100.6 98.1 97.9 99.9 99.9 98.9 97 94.8 94.6 96.3 98.3 98.6 97.8 97.6 99.5 100.9 101.6 103.2 103.7 104.1 104.7 106.3 107.4 108.1 110.2 110.9 111 111.4 112.1 113.3 114.7 116.3 116.8
105.1 104.6 104.2 105.2 105.6 105.3 104.4 102.7 103.2 103.7 102.8 100.1 101.1 102.6 101.7 100.6 101.2 102.4 103.5 103.5 101.8 100 99 98.8 98.3 96.7 95.9 96.4 95.7 96.1 97.7 98.7 98.6 98.6 98.5 97.3 95.7 94.8 94.7 94.7 93.5 94.7 94.1 93.7 94.7 94.8 95.4 95.1 95.2 96.8 99.6 103.1 107.3 110 112 114.3 116.4 117.5 118.6 118.2 117 115.3 113.6 112.1 110.9 109.9 109.6 109.4 108.6 107.4 105 102.6 99.6 103.2 105.8 106.7 106.7 106.8 105.5 104.6 102.4 100.8 98 95.9 94.9 98.5 102.1 104.3 106.2 107.4 107.9 107.9 110.6 112.9 114.2 115.8 117 117.5 117.6 117 117.1 115 114.4 114.8 116.8 117.6 117.8 117.5 117.4 117.2 116.1 115 113.6 111.5 111.1 111 111.4 114.9 115.8 115.7 115 113.5 111.8 110.6 109.8 105.9 102.3 98.4 99.4 104.9 105.2 103.2 100.1 94.7 90.2 91.2 95.9 100.2 104.2 107.6 109.9 110.8 112.3 112 111.7 110.8 111 111.8 113.2 112.2 110.9 109.6 108.5 107.8 106.1 106.8 106.1 106.7 106.4 105.6 105.8 105.7 105.8 104.9 103.8 102.9 102.2 100.6 98.2 96.9 98.4 98.7 97.4 94.8 94.1 95.9 99.2 100.7 100.5 99 97.9 98.8 100 102.7 104.3 104.9 105 104.2 105.2 106 109 112.1 113.7 113.4 113.4 114 115.2 116.1 116.3 116.8
107.6 107 106.6 107.3 108.6 107.7 105.6 104 104.3 105.1 103.1 102.2 103.9 106.1 103.9 102.8 101.8 103.5 103.4 102.6 103.4 104.6 104.1 102.7 99.2 98.6 97.4 95.6 94.7 95.5 96.1 96.8 97.3 97.4 97.5 96.5 95 94.7 92.7 94.7 96.8 95.6 94.5 92.7 93.6 94.3 95.2 95.4 95.6 98.2 101.5 105.5 108.5 111.2 113 115.4 117.8 118.5 118.6 118.4 117 115.5 114.1 112.6 111 109.9 108.5 108.8 108.6 107.5 106.3 103.7 99.6 101.5 104.6 106.3 106.1 106 104.9 102.9 101.3 98.9 96 94.1 95.9 100.6 103.6 105.8 107.5 109.9 110.8 111.5 112.6 113.7 115.2 116.1 116.8 117 116.7 116.4 115.1 113.7 113.7 115.2 116.9 117.5 117.5 117.4 117.5 116.4 115.8 114.7 112.9 111.6 108.6 109.1 112 115.7 116.5 116.5 115.3 113.3 111.1 110.8 110.1 106.6 102.6 98.4 96.8 102 102.7 101.7 99.8 95.4 90.2 90.6 95.9 99.2 106.2 108.8 110.1 110.3 111.7 112.3 111.6 111.6 111.9 113 113.5 112.3 111.1 110.1 108.9 108.1 106.3 105.4 105.3 105.5 105.9 105.6 105.6 105.5 104.8 104 103 102.3 101.7 100.5 97.9 96 95.8 96.3 95.2 93.6 95.6 98.6 100.5 101.3 100.9 99.6 99.3 99.1 100.2 102 103 104.3 103.6 103.8 104.4 106.1 108.7 111.8 113.7 115.1 115.6 116.1 116.5 116.5 116.5 116.6
110.4 109.7 109 109.9 111.2 109.4 106.9 105.4 105.5 104.5 103.2 104.7 106.7 106.9 106.3 104.6 103.3 105 102.6 103.7 103.2 103.3 104 104.3 101.5 100.1 99.5 97.5 94.5 94.1 94.7 95 95.8 97.3 96.9 95.9 94.5 94.4 94.6 98 98.9 97.6 95.6 93.7 92.8 93.9 94.4 95.4 97.6 100.4 103.5 107.3 110.4 112.3 113.9 116.3 118 118.2 118.8 117.6 116.9 115.7 114.5 113.2 111.5 109.8 108.2 107.4 107.9 107.1 106 104.2 99.9 99 102.2 104.8 105.5 105.3 104.2 102.4 100.4 97.8 94.7 94.6 98.3 101.9 104.7 106.9 108.3 109.8 110.6 112.2 112.8 114 114.4 115.6 116.1 116.2 115.6 114.4 113.1 112.2 113.1 115.4 116.6 117.4 117.3 117.1 116.9 115.9 114.9 114.2 112.4 110.3 107.7 108.7 112.4 115.9 116.6 116.8 115.3 114 112.4 109.5 108.2 104.5 101.9 98.7 96.2 97.8 99.3 99.1 97.9 94.9 91.1 90.3 94.6 99.7 106.9 109.1 109.5 109.2 111.1 112.1 112.4 112.6 113.1 113.3 113.4 112.5 111.7 110.6 109.4 108.2 106.7 104.3 103.8 104 104.7 105 104.9 104.3 103.9 103.1 102.2 101.7 101.4 100.1 97.8 96.6 96.3 95.3 94.4 93.5 95.6 97.9 99.2 100.2 100.5 99.6 100.4 100.4 101.1 101.2 101.8 101.9 102.4 103.7 104.7 106.8 109.4 112.6 114.1 114.7 116 115.6 115.8 116.1 115.6 115.7
114.3 113.2 112.3 112.8 113.4 111.3 108.7 107.5 107 105.9 105 107.1 109 108.5 107.8 106.5 105.6 106.6 106.4 106.6 105 103 103.1 103.3 103.6 102.7 101.5 98.6 97.3 96.2 95.6 94 94.7 95.1 95.2 95.1 94.6 94.7 97.9 100 100 98.5 95.7 94 92.9 93.9 94.3 96 98.9 101.8 105.4 108.4 111.2 113 114.3 116.4 117.7 118.2 118.3 117.4 116.7 115.5 114.2 112.9 111.6 110.1 108.3 106.3 105.7 105.8 105.2 103.8 100.6 97.3 99.9 102.7 104.2 104.1 103.3 101.9 100 97.4 93.8 95.4 99.3 102.6 104.5 106.4 107.7 108.6 109 111.1 112 112.5 112.7 113.2 114.3 114.7 113.7 112.6 110.3 111 113.1 115.3 116.1 116.9 116.9 116.6 116.1 115.2 114.2 113.3 111.7 109.2 106.8 108.1 112.6 114.5 115.1 115.9 115.1 113.7 112.1 109.3 104.5 102.5 99.2 97 95.6 94.4 96.2 95.9 94.9 92.9 89.9 89.4 95 101.2 106.6 108.9 108.8 109.5 111.3 113.2 114.6 114.2 113.8 114.3 114.6 113.4 112 110.4 109.5 108.5 107.2 105.7 103.7 102.7 103.2 103.9 103.4 103 102.6 102.3 101.7 101.2 100.7 99.6 98.6 98.6 99.1 97.7 95.9 93.2 93.6 95.4 96.8 98.3 99.4 99.8 100.5 101 101.5 102.6 103.1 102.7 103 104 105.6 108 111.2 114.2 115.4 115.7 116.2 115.6 115.2 115.6 115.1 114.5
117.3 117.1 116.2 115.8 115.7 113.5 111.6 110.1 108.9 108.3 107.4 108.8 111.1 111.1 110 109.9 107.8 108.5 108.9 108.7 108 107.2 106 105.6 105.6 102.8 101.8 101 98.6 98.7 96.9 95.6 95.2 95.3 93.9 94.1 93.6 94.5 100.3 101.2 100.3 98.3 95.8 94.4 94.1 93.3 94 95.7 99.1 102.8 106.3 109.1 111.7 113.2 114.2 115.9 116.8 117.2 117.1 116.8 115.6 114.7 113.8 112.6 111.4 110 108.2 106.1 104.3 103 103 102.4 100.5 97.4 98 101 102.3 102.8 102.1 100.9 99.4 96.3 92.8 95.9 99.6 102.5 104 105.1 106.1 106.9 108.1 109.9 110 109.3 109.9 110.6 112.5 113.6 112.4 110.2 109 111.7 113.3 114.2 115.6 116.3 116.1 115.8 114.8 113.9 112.9 111.7 110.4 107.8 106.8 108.4 110.7 113.9 115.1 115.7 114.6 113.2 111.6 109 105.5 104.7 103.2 100.7 96.8 94.4 92.9 92 91.4 89.6 88.9 89.2 96.3 102.5 106.5 108 107.7 110 111.7 113.9 115.5 115.1 114.6 115.2 115.1 114.1 112.4 110.8 109.4 108.8 107.7 106 104.4 102.7 100.9 102.4 102.9 102.9 102.7 102.5 101.7 100.9 100.6 99.6 99.3 99.6 99.4 97.5 95.7 93.3 92.5 94.8 98 99.5 99.6 100.4 101.2 102.1 102.6 103.4 104.2 103.7 104.2 106.1 108.1 111.1 113.8 114.6 115.6 115.7 115.7 115.5 114.9 114.9 113.8 113.1
121 120.1 119.8 119.5 118.1 116.6 115.2 113.9 112.1 111.2 110.2 110.1 112.8 112.9 112.7 112.1 109.9 110.2 110.7 110.7 110 109.2 108.1 108.3 107.6 106.1 104.6 101.8 100.2 100.8 99.6 99.3 96.4 95.1 94.9 94.9 95.8 99.3 101.9 102.6 101.4 99 95.6 93.9 93.7 94.1 93.8 95.2 98.5 102.2 105.8 108.4 111.5 113.5 113.8 114.6 115.6 116 116 115.4 114.1 113.1 112 111.5 111.1 109.8 108 106.4 104.8 102.8 100.6 100.2 99.6 97.5 96.2 98.9 100.6 101.5 100.8 99.7 97.5 94.5 93.5 96.9 99.5 101.4 102.4 103.3 104 104.3 105 105.7 105.7 106.1 106.8 109.8 112.5 112.4 110.6 107.8 107.5 110.4 112.3 113 114.7 115.5 115.2 114.5 113.3 112.4 111.4 110 108.1 106.1 106 107.4 110.7 113.3 114.9 115.2 114.2 113.1 111.5 109.4 107.7 106.9 106 102.3 98.6 96.4 93.8 92.3 92.5 90.6 88.7 91 98.7 102.1 105.7 106 105.3 110 112.3 114.5 116.1 116.1 115.5 116.6 115.5 114.3 113.1 111.5 109.8 108.2 107 105.6 104.2 102.4 99.7 100.3 101.4 102.4 102.6 102.5 101.9 101.3 100.9 100.6 100.2 100 98.7 97.8 95.8 93.5 92.2 94.3 97.4 99.6 100.7 101.2 102.5 103.8 104.4 105.1 105.2 105.2 106 107.8 111.1 112.8 113.9 114.5 115.1 115.2 115.1 115.1 114.8 113.9 112.7 112.1
124.1 123.6 123.1 122.5 121.1 120.1 118.9 116.9 115.9 114.6 113.2 112.6 113.7 114.7 114.6 114.7 112.8 112.1 112.8 112.8 111.9 111 110.7 110.2 109.4 107.9 105.9 104 103.5 103.5 101.6 99.6 98.7 97.7 97.5 98.7 99.9 102.1 103.7 103.9 101.9 99.2 95.9 94.5 93.2 93.7 93.4 94.1 96.9 100.2 103.8 106.9 110.5 112.8 113.9 114.6 114.8 114.6 114.4 113.2 112.6 111.2 110.1 109.6 109.5 109.1 107.5 106.4 105.4 104.4 102.4 100.8 99 97 95.4 97 99.2 99.8 99.6 98 95.1 92.6 94.3 98 98.8 99.6 100.3 101.2 101.8 102.2 102.3 102.7 103.3 104.1 106.1 108.4 109.4 110 109.4 107.2 106.5 109.1 110.5 111.7 113.3 114.6 114.4 113.6 112.1 110.3 109.2 108.2 106 104.4 105.7 108.8 112 114.1 115.2 114.5 113.9 113.2 111.7 110.7 111.3 110.2 107.8 104 100.3 98.8 97.8 96 94.1 90.7 87.5 92.5 100.2 103.7 104.2 103.4 106.3 110.4 112.9 115.2 116.9 116.3 116.1 116.5 115.3 114.1 113.4 111.7 110.2 108.2 106 104.3 102.8 101.1 99.3 99.5 100.4 101.7 102 102.3 102.1 101.6 101 100.6 100.4 99.8 98.5 97.3 94.8 92.6 91.9 94.5 97.1 99.8 101.6 103.1 104.7 106.2 107.1 107.8 108.2 108.3 108.7 110.3 112 112.7 113.1 113.4 113.4 113.2 113.5 113.8 113.9 112.9 112.5 111.8
126.2 125.7 125.1 124.4 123.5 123 121.5 119.8 118.2 116.5 114.5 114.9 117 117.2 117.1 116.1 115.1 112.7 115.3 114.8 113.9 113.2 112.7 112.1 111.2 109.3 107 104.8 106.4 105.8 104.1 102.2 101.3 100.1 100.6 101.2 103.5 103.5 99.7 103.9 102.6 99.4 97.8 96 94 93.6 93.7 93.4 94.6 97.6 101.2 105.4 108.8 111.5 113.1 113.7 113.9 113.6 113.1 112.1 111 109.5 108.3 107.1 106.1 105.9 105.9 105 105.8 105.4 104.3 102.8 101.7 99.7 96.3 95.1 97.9 98.8 98.8 97.5 94.5 91.5 94.9 97.7 98.6 99 99.6 99.8 99.8 100.3 100.4 100.3 101.3 102.6 104.3 105.9 107.1 107.9 107.1 105.9 105 106.9 108.1 110.3 112.3 113.4 113.1 112.7 111.1 108.6 106.8 105.9 105.1 104 105.4 109.5 112.4 114.2 114.3 113.9 113.3 112.8 112.5 112.2 111.5 110.5 108 106.2 103.6 101.8 99.5 97 93.9 90.1 88.5 94.5 100.9 103.6 101.7 102 106.4 110.3 113 115.4 117.2 116.4 116.1 116.3 114.9 112.8 109.6 109 109.4 107.9 106 104.7 102.5 100 98.3 98.4 99.5 100.7 101.7 102.3 102.4 101.9 101.4 100.7 99.8 99 97.8 96.2 93.1 91.6 93 96.3 98.2 100.1 102.3 104.3 105.9 109.2 110.5 111.1 111.3 111.9 112.7 113.4 113.6 112.8 112 111.9 111.7 111.5 111.5 111.8 112 112.3 111.5 110.4
127.3 127 126.4 125.8 125.4 124.7 123.3 121.7 119.9 118.6 117.1 117.7 118.8 118.9 119 118.1 117.2 116.5 114.1 116.6 116.2 114.9 114.4 113.8 112.2 110 107.5 107.7 108.9 107.9 106.5 104.8 104.5 103.7 104.3 104.2 105.8 106.3 106.4 105.2 102.5 100.1 99.7 96.6 94.8 93.7 91.7 91.8 92.7 95.2 99.1 103.1 106.2 109.5 110.9 111.4 112 111.9 111.2 110.1 109 107.9 105.6 103.6 101.9 101.5 101 101.9 103.8 105.6 104.8 104.1 102.7 100.9 97.6 94.6 96 97.8 97.7 96.5 93.3 92.6 95.7 97.7 98.4 98.5 98.6 98.9 98.8 98.4 98 97.9 99.7 100.8 102.2 103.5 104.8 105.9 105.3 104.4 103.5 104.8 106.5 108.5 109.9 111.9 112.1 111.9 110.5 107.7 105.6 103.9 104.2 102.4 103.9 107.8 111.7 113.5 113.4 113.2 112.7 112.6 112.7 112.6 111.9 110.7 109.1 107.5 104.7 102.6 99.6 96.9 94.3 90.3 88.1 96.6 100.5 100.7 98.4 101.6 107.5 109.2 112.3 115.2 116.8 116.6 116.4 115.5 113.9 112.2 109.2 107.7 106.4 105.6 104.9 103.7 102.1 99.8 96.5 97.5 98.1 99.3 101.1 102.2 102.3 102.2 101.6 100.5 99.9 97.2 95.9 94 91.7 91.4 93.5 97.7 100.2 101.8 103.3 104.3 106.8 109.4 111.5 112.4 113.1 114.5 114.4 114.1 113.5 112.7 111.3 110.3 109.8 108.7 109 109.5 109.9 110.4 109.8 108.8
128.3 127.9 127.8 127 126.2 125.4 124.4 123 121.2 120.7 119.4 119.5 120.2 120.5 120.1 119.4 118.6 118.2 118.7 117.7 117.1 116.6 115.9 114.9 113.6 110.9 109 110.1 110.6 109.5 108.4 107.6 106.8 107.2 107.2 107.3 108 108.4 107.6 107.1 105.3 103.9 101.7 97.7 96.1 95.1 94 93.4 93.3 91.9 96.1 99.2 102.3 106 107.2 107.4 108.6 109 108.2 106.9 105.6 104.5 103.2 101 98.4 97.1 96.8 97.8 100.9 104 105.2 104.4 103.3 101.3 97.9 94.3 94.5 96.3 96.4 94.7 91.6 93.6 96.7 97.4 97.6 96.9 96.5 96.6 96.3 95.2 94.9 97.2 97.9 98.6 99.7 100.8 102.5 103.7 104.3 103.2 101.8 103.6 104.9 106.1 107.4 109.9 111.3 111.1 109.4 107.3 105.2 103.7 101.9 101.5 104.4 108.4 111.4 112.9 112.3 112.1 112.2 112.6 112.3 112.1 111.5 110.1 108.8 107.1 104.7 102.4 98.4 96 93.4 89.7 88.1 96.3 97.1 95.6 99.7 104.3 108.6 110 112.5 113.9 115.1 115.3 115.2 114.3 112 111.1 109.1 105.4 104 103.4 103.1 102.8 101.1 99 96 95.8 97.6 99 100.3 101.8 102.4 102.2 101.2 100.2 98.9 97.3 93.1 91.7 90.4 92.1 93.6 96.4 99.7 102.1 103.8 104.8 106.5 108.7 111.1 112.6 114 114.2 114.5 113.3 113 111.9 110.4 108.5 108 107.3 107.5 108 108.7 108.1 107.9 107.2
128.8 128.3 127.7 127.1 126.5 125.4 124.6 123.8 122.9 122.2 121.1 121.1 121.5 121.5 121.5 120.7 120 119.2 118.8 115.1 118.1 117.3 116.7 115.7 114.1 111.9 112.1 112.4 111.9 111.4 110.7 110.2 110.2 109.3 109.4 109.6 110 109.8 109.3 108.4 107 105 102.8 100.8 98.7 97.1 95.9 94.1 93.4 91.8 93.6 96.5 99.1 101.1 101.9 102.6 104.9 105.4 104.6 102.9 101.7 100.6 99.3 97.9 95.7 94.9 93.3 94 96.5 100.1 103.3 104.9 103.5 101.5 98.4 94.6 93.5 94.8 94.9 93 91.7 94.1 96.2 96.6 96.2 94.8 93.6 93.6 93.1 91.8 91.9 93.1 93.7 95 96.9 98.9 100 101.2 102.1 101.6 100.3 101.6 103.1 104.6 106.6 108.9 109.7 110.1 109 106.8 104.9 102.2 100.3 101.2 105.2 109.2 111 111.8 110.9 109.6 110.9 111.7 111.2 111 110.7 109.4 108.1 106.2 103 100.4 97 95.4 92.5 88.6 88.5 92.7 93.3 97.3 102.4 105.6 108.8 111.1 113.7 115.3 114.1 114.5 113.9 113 110.8 109.6 107.5 105.7 103.8 100.9 100.2 100.7 99.7 97.7 94.5 96.5 98.8 99.5 100.6 101.8 102.4 102 100.8 99.4 97.2 95.1 92 89.8 92.4 95.1 97.3 97.8 99.4 101.5 103.5 105.2 107.3 109.8 111.2 112.7 113.5 113.7 113.4 113 110.9 110.2 109.2 107.6 105.8 105.6 106.6 106.9 107.1 106.5 105.8 105.9
128.4 128 127.6 127.1 126.5 125.9 124.8 124.1 123.4 122.9 122.5 122.5 122.4 122.3 122.3 122.2 121.7 120.9 120.1 119.5 114.1 117.9 117.7 116.2 114.5 112.7 114.2 114.4 113.9 113.4 112.8 112.3 112 111.5 111.4 111.6 111.2 111 110.7 108.9 107.6 105.6 103.6 101.6 99.3 97 95.5 95 93.5 93.5 91.7 94 96.3 97.5 98.8 99.6 100.8 101.7 100.8 99.8 98.6 97.5 95.8 94.7 93.8 93.1 91.9 92.2 92.5 95.5 100 103.3 103.9 102.1 99.8 95.8 92.9 92.7 93 91.7 91.4 93.7 95.1 94.6 94.1 92.6 91.2 90.5 90.3 89.8 89.9 89.5 89.6 90.8 93.2 95.3 98.4 99.1 99.9 100.3 100 100.3 102 103.9 106.1 107.9 109.2 109.2 107.8 105.7 103.9 101.7 99.7 100.3 105.6 108.7 110.3 110.1 109.5 105.2 108.6 109 109 107.8 108.1 107.7 106.1 103.8 100.5 98 95.4 94 91.5 88 87.5 91.4 95.5 99.6 102.4 105.9 108.5 111 113.4 114.7 115.2 114.5 113.4 112.4 111 109.1 105.5 104.1 103.6 101.3 99 97.3 97.2 94.8 94.6 98.1 99.6 100.4 101.2 101.4 101.4 100.8 99.9 98.4 95.4 92.3 89.2 92.5 97.1 98.6 100.6 101.8 102.5 103.6 105.1 107.5 109.6 110.6 111.8 112.1 111.8 112.4 112.3 111.3 109.5 108.3 108.1 106.1 104.6 104.5 106.1 106 105.4 105.3 104.3 104.7
127.7 127.4 127 127.2 126.3 125.7 124.8 124.2 123.5 123.3 122.9 122.7 122.6 122.6 122.6 122.4 122.5 122 121.5 121 120.2 118.3 118.1 117 115.5 114.6 115.6 116 115.9 115.4 114.8 114.3 114.1 113.7 113.2 112.8 112.4 111.9 110.9 109.6 108 106.1 103.9 101.7 99.6 97.4 94.9 94.9 95.2 93.3 92.5 93.3 94.4 95.5 96.7 98.4 99.7 100.7 99.4 97.9 96.1 94.7 94.3 92.9 92.3 91.6 91.2 91.4 91.6 91.4 95.8 101.2 103.4 102.6 100.7 97.6 93.9 91.6 90.5 90.4 90.6 92.2 92.3 91.7 90.9 90.1 89.8 89.6 88.9 90.1 88.6 89.1 88.9 89.5 89.6 93.1 96.3 97.9 98.7 98.3 98.5 98.8 100.9 102.9 104.5 106.5 108.2 108.3 107.1 104.5 103.2 100.9 99 100.2 105 107.9 108.7 108.4 106.3 100.5 104.7 104.9 104.6 102 101.7 101.7 101.7 101.1 99.6 97.4 95.2 93.9 91.2 87.3 87.3 93.7 96.1 98.6 100.3 105.4 108.4 110.6 112.6 114 113.9 113 112.1 111.9 110.8 107.9 105.8 103.5 100.6 99.5 97 95 93.8 93.1 94.6 98.8 99.9 100.6 101.6 101.2 101.3 100.2 98.2 97.3 94.8 90.4 91.4 96.7 101.1 102.8 104.2 105.4 106.4 106.3 106.9 108.1 110.5 111 111.6 111 110.2 111.2 110.6 109.5 107.3 105.4 105.2 104.8 103.1 103.7 105 105.1 103.8 103.5 103.5 104.2
126 126.5 126.3 127 126.7 125.7 124.9 124 123.2 122.8 122.9 122.9 122.7 123 122.9 122.6 122.9 122.4 121.9 121.3 120.5 118.1 118.8 118 116.5 116 116.7 117 116.8 116.7 116.7 116.2 115.2 114.3 113.6 113 112.3 111.5 110.5 109.4 108.1 106 103.8 101.5 99.7 97.5 94.6 94.5 94.8 94.6 95.8 92.1 94.9 95.5 96.4 97.3 98.4 99.4 99.4 97.2 95.1 93.9 92.9 92.4 91.2 91.1 91 90.8 90.6 90.8 91.3 98.4 102.5 102 100.3 97.4 94.3 91.9 89.9 90.1 90.6 89.9 89.8 89.9 89.9 89.9 90.1 89.9 90.5 91.7 92.1 91.7 90.3 88.6 89.7 89.9 93.2 97 98.4 98.4 98.3 98.6 100.2 102.1 103.9 105.6 107.6 108.1 106.4 105 102.5 99.4 97.8 100 103.2 106.3 105.2 105.8 103 96.4 98.8 96.5 98.1 96.1 95.6 95.9 96.7 97.5 96.8 96.3 94.6 93.4 90.7 87 87.9 93.4 94.3 95.7 99.5 105.4 108.2 111.1 112.3 113.1 113.1 112.4 110.6 110.8 111 110.1 106.8 104.9 103.2 100.4 98.6 97.3 94.3 91.2 94 98.1 99.3 99.9 100.6 100.9 100.5 98.7 96.7 94.1 92 89 91.9 98 104 106.1 106.2 107.1 107.6 107.9 108.6 109.2 110.4 110.6 110.8 110.3 110 109.5 108.6 107.4 104.3 103 102.4 102.2 101.8 102.9 103.5 103.7 103.2 102.5 103 104.6
125.4 125.3 125 125.3 125.7 125 124.4 123.7 122.9 122 122 122.3 122.6 122.9 122.8 122.6 123 122.7 122.2 121.6 120.6 120.1 114 118.7 117.3 117.3 117.8 117.6 117.4 117.1 117.2 116.4 115.7 114.7 113.4 112.6 111.7 110.8 109.9 108.8 107.1 105.6 103.3 100 97.7 95 95.1 95.7 95.9 95.4 93.7 93.6 95.4 95.3 96.1 97.1 98.5 98.7 97.7 96.2 94.6 93.1 92.2 91.3 91.4 92.5 92.6 93.1 92.4 91.4 90.8 93.8 99.8 100.7 98.9 96 93.3 90.8 90.1 89.7 90.2 90 90.7 90.7 90.5 90.4 90.9 92.1 93.2 93.5 93.6 92.9 91.8 90.1 88.9 89.6 92.4 96.6 98.1 98.3 96.9 97.9 100 101.6 103.6 105.7 107.8 107.7 106.3 104.7 101.5 98.6 97.8 101.9 104.9 105.1 103.6 102.3 97.9 92.7 92.4 91 90.1 89.7 89.7 90.5 93.2 94.5 94.4 94 94.3 93 90.3 87.2 87.5 91.3 92.5 95.4 99.4 105.3 108.3 110.2 111.8 112.1 112.2 110.6 109.1 109.2 110.4 110.5 107.4 105.7 103.2 101.5 99.8 98 94.9 91 92.4 96.8 97.7 98.9 100.8 100.8 99.8 97.7 94.8 91.4 89.3 88.2 94 100.3 104.6 105.8 106.1 107.1 108.5 108.5 108.7 109.3 109.7 109.7 109.3 108.7 107.9 106.3 106.1 105.1 103.2 100.6 100.5 100.1 101 101.5 101.8 102.2 101.7 101.7 103.6 104.8
124.2 123.9 124.1 124.3 124.9 124.3 123.6 123 122.3 121.6 121.9 121.9 122 122.2 122.4 122.6 122.3 122.5 122.5 121.8 121.1 120.7 120 116.6 118.3 117.9 118.2 117.9 117.9 117.8 117.1 116.5 115.7 114.4 113 111.3 110.6 109.7 108.7 107.4 105.7 102.7 100 97.1 95.9 96.9 97.1 97.7 96.9 95.2 93.3 92.5 93.1 95.4 96.2 96.3 97.2 96.9 96 95.3 93.3 92.5 91.6 91.1 96.1 98.3 96.7 95 93.2 91.7 91.1 91 95.2 97.4 95.4 93.2 91.2 90.7 90.2 90.7 91.7 91.5 91.4 91.8 92.1 92.8 93.4 94.2 94.8 94.6 94.1 93.1 92.1 90.6 89.1 89.1 91.5 96.8 98 96.9 96.4 98.1 100.4 102.2 104.7 106.7 108.4 107.2 106.1 103.4 100.5 97.2 97.8 102.4 104 102.6 101.1 97.9 93.1 85.6 86.6 85.7 85.7 85.6 85.5 86.6 88.9 92.1 92.5 93.5 93.6 93.6 91.7 88.6 87.1 89.2 93.3 96.7 101.3 104.6 107.1 108.5 109 108.9 108.5 108.3 106.1 106.6 108.8 108.6 107.3 106.1 105.1 101.8 98.9 96.1 92.8 89.3 91.7 94.4 95 98 100.7 99.9 99.5 96.2 92.7 89.4 87.8 91.2 97.4 102.4 104.1 104.5 105.6 106.3 107.1 107.5 107.2 108.5 109.3 109.1 108 106.5 106.2 104.4 103.8 103 101 99.1 98.6 98.1 98.3 100.1 100.2 100.5 101.4 102.2 103.9 104.8
124 123.1 123 123.7 123.9 123.6 123 122.4 121.8 121.2 121 121.3 121.6 121.7 122 122.5 122.7 122.5 122.4 121.9 121.4 120.8 120.1 119.2 119.3 118.7 118.4 117.9 118.1 117.7 117 116.3 114.9 113.5 111.6 109.7 108.5 107.9 106.8 104.4 100.9 97.6 97.4 96.6 97.3 100.1 100.2 99.7 98.6 97 93.5 93.2 93.2 93.7 93.6 95.1 95.5 95.1 94.3 93 92.3 92.4 90.8 94.2 97.5 99.2 97.4 95.7 93.6 92.3 91.1 91.1 91.9 92.7 91.6 90.7 90.1 90.3 91.5 93.5 94.4 94.4 94.4 94.2 94.2 94.9 95.5 96 95.8 95.2 94 93.1 91.9 90.4 88.3 89.2 91 95.7 96.2 94.9 96.2 99.2 101.3 103.3 105.7 106.6 108.1 108 106.4 103.8 101.3 97 96.2 100.7 102.5 100.5 96.5 92.2 87.7 86.6 86.3 86.3 86.2 86.5 86.5 86.3 85.7 88.8 92 92.7 93.5 93.3 92.3 88.7 87 90.9 95.7 98.8 102.4 104.8 106.5 107.3 107.6 107.6 106.8 107.7 105.3 104.4 107.1 108 107.4 106.9 105.5 101.5 99.4 95.1 92.3 89.9 88.8 90.3 94 98.2 100.3 100.4 99.1 96 91.5 88.6 88.7 95.1 99.8 102.2 102.8 102.9 104.2 105 105.6 106.3 104.6 105.6 106.4 107.2 106.5 105.6 101.3 101.7 101.9 100.1 98.4 96.7 97.6 98.1 99.5 99.5 99.6 100.5 101.7 103.6 104.9 106.5
124.6 124 122.9 122.9 123.2 123.1 122.6 122 121.4 121 120.4 120.3 120.6 121 121.1 121.5 121.9 122.2 122.2 121.6 120.9 120.5 120.1 119.7 118.6 119.2 118.5 117.9 117.7 117.4 116.6 115.2 113.9 112.8 110.6 108.5 106.7 105.3 103.4 100.2 98.3 100.4 101.1 97.9 99.3 101.8 102 102.1 101.3 99.5 96.7 92.3 91.6 92.1 92.6 92.8 92.9 92.9 93.2 91 92.3 92.6 94.6 97.3 98.2 98.2 97.7 95.4 93 92.1 91.2 90.9 90.5 90.3 90.3 90.4 90.8 92.5 95 96.4 96.9 97.4 97.3 97.1 96.3 96.7 96.6 97.1 96.7 95.1 93.8 92.9 91.1 89.7 88.5 89 90.3 93 92.5 93.1 97 99.1 101.1 103.4 106.5 108 107.6 108.3 107.6 104.7 101.1 96.3 94.9 98.5 100.2 98 94.2 89.6 86.8 86.4 86.4 86.6 87.9 88.5 87 86.2 85.9 86.1 91.6 92.8 92.8 92.7 91.4 88.7 87.5 92.4 97.2 100 102 103.9 105 105.3 105.4 105.1 104.8 105.2 103.7 103.8 106.9 108 107.9 107.1 105.7 102.7 99.9 96.7 96.9 93.7 88 88.8 92.2 96.3 99.4 100.1 98.6 95.8 91.3 86.6 91.4 95.8 99.1 100.4 100.2 101 102.3 103 103.4 102.8 101.5 102.5 103.8 104.5 103.9 102.6 101.2 99.8 99.4 98.1 96.3 95.5 98 99.5 101.3 102 102.2 103.1 103 104.4 105.2 106.2
124.1 123.3 123 122.8 122.6 122.5 122 121.6 121.1 120.9 119.7 119.3 119.5 119.6 119.3 120.3 120.9 121.4 121.4 121.2 120.4 120.1 119.3 118.8 118.6 118.4 118.3 117.2 116.1 115.2 115.1 114.1 112.6 110.8 108.5 107 105.3 102.2 100.1 99.8 102 103.6 102.4 98.8 100.5 103.4 103.7 103.8 103.7 101.6 99.3 95.3 93.2 92.7 92.5 92.6 91.9 92.4 92 94.5 95.1 96.9 98.9 99.2 97.5 98.6 98.3 95.9 93.2 92 91.4 91 90.7 90.8 90.7 90.7 92.6 94.9 98.3 99.5 99.6 100 100.3 99.6 98.6 98.5 98.4 98.4 97.5 96 94 92.7 91 89 89.2 89 89.9 90.9 91.3 93.5 96.1 99 101 103.8 106.7 107.4 108.2 107.4 107.3 105.1 101.5 97 93.7 95.9 97.8 96.2 92.4 88.1 87.1 86.5 86.9 88.4 89.1 88.8 87.4 86.2 86 85.5 90.8 92.1 92.1 91.6 89.5 87.5 87 93.5 97.6 99.1 100.1 101.7 102.8 102.1 102.9 102.8 102.1 102.1 100.3 102.7 107 108.4 108.6 107.7 106.1 103.5 101 100.8 100.2 96.7 90.9 85.8 88.9 92.3 96.7 98.7 98.1 95.6 91 86.6 90.4 95.1 97.5 98.2 98.1 99.1 100.4 100.9 100.8 100.1 98.5 100.2 101.6 101.9 101.2 100 98.7 97.1 96.7 96.1 95.1 96.6 99 101.8 102.5 103.3 103.7 103.5 103 103.5 104 105.3
122.9 123.3 123 122.8 122.1 121.9 121.4 121 120.6 120.5 119 117.9 117.4 117.4 117.5 118.6 120.1 120.5 120.3 119.6 119.4 118.8 118.2 117.4 117.2 117.2 117.1 116.2 114.6 112.7 112.9 112.5 110.8 108.9 106.8 104 101.8 100.5 101.8 103.6 105.1 105 103.2 99.9 101.8 104.5 105.3 105.4 105.2 104.2 101.8 98.8 96.5 93.1 94.3 95.9 94.7 95 95.5 98.3 99.8 101.1 101.8 101.9 101.6 100.5 99 96.5 94.3 97.6 93.8 91.8 91.8 91.6 91.2 91.9 93.6 95.3 99.5 100.8 101.7 102.6 102.7 101.8 101.3 101.3 101.4 100.7 98.6 97.1 95.5 93.7 91.9 89 88.6 89.2 89.3 90.4 91.3 94.1 95.7 97.9 99.8 103.1 103.4 105.6 106.8 106.5 106.4 105.2 102.8 98.6 93.6 93.5 95 94.4 91.8 88.4 86.6 85.8 88.7 90.1 90.2 89.6 86.8 86.1 86 86 90 91.6 90.9 90.3 87.8 86.3 89.2 94.1 95.9 95.7 97 99.2 99.8 98.5 100.4 99.7 98.1 97.5 97.4 102.8 107.4 108.5 108.9 107.9 106.6 105.1 103.6 103.1 101.8 99 94.5 88.6 84.3 87.5 92.6 95.5 96.3 94.8 90.2 86.9 88.6 92.6 95.5 95.6 97.2 97.9 98.6 98.6 98.5 97.7 97 98.5 99.6 100.1 99.3 98.1 96.3 95.1 94 95.3 96.7 99.3 101.5 104.2 104.7 105.1 103.5 102.7 101.1 99.8 101 102.8
122.8 122.7 122.5 122.4 122.1 121.4 121 120.6 120.2 119.9 119.3 118.7 117.6 116.3 115.8 117 118.7 119.4 117.9 116.1 116 116 115.4 113.9 114.8 115.5 114.9 115.2 112.7 109.4 107.3 107.6 106.4 105.2 105 104.7 103.2 102.3 105.3 106.3 106.9 106.6 104.4 102 101 104.3 106.4 106.6 106.5 105.1 103.9 102.4 100.5 98.4 98.7 99.1 98.4 98.5 98.3 101.2 103.3 103.8 103.8 103.9 103.2 102.1 101 98.7 96 94.3 92.8 92.4 92.9 97 96.4 92.5 94.5 95.8 98.6 100.3 101.8 103.6 104.9 104.2 104 103.4 103.1 102.7 100.7 99.2 97.8 95.8 92.8 89.2 88.7 89.7 89.5 90.3 91.5 92.8 94.6 96.1 98.5 100.9 102.4 104.7 105 104.7 104.9 104.9 103 99.2 94.5 91.8 92.4 93.2 90.9 88.2 86.7 87.5 90.4 91.7 91 89.3 86.8 86 85.6 85.4 89.4 90.7 90.2 88.3 85.5 85.5 89.2 92.9 93.3 92.6 93.4 95.8 96.7 96.1 97.3 96.2 94.1 93.8 96.9 102.2 106.6 108.3 107.7 107.7 106.6 105.4 104.2 102.7 100.3 97.8 94.2 88.2 83.4 83.4 86.1 89 93.2 91.9 89.2 86.6 87.8 91.6 93.7 94 96.8 97.4 97.6 97.9 97.4 96.2 94.7 96.3 97.6 97.9 97.1 95.8 94.2 93.5 93 95.1 98.6 101.4 104.7 105.5 106.1 105.2 101.2 99.1 97.9 97 97.9 95.2
122.2 121.9 121.8 121.7 121.8 121.2 120.7 120.3 120.2 120.1 120.4 119.5 118.9 117.8 115.2 115.3 117.4 117.3 115.6 112.2 110.9 110.4 109.8 109 110 113 112.1 116 109.2 107.7 107.4 106.5 106 107.6 108.1 106.7 104.3 104.3 106.5 108.1 108.7 108.3 106.3 103.8 103.2 102.9 106.3 107.9 108.1 107.1 106.4 105.2 102.7 101 102.9 102.7 102.3 102.4 101.2 103.7 105.3 105.8 105.7 105.7 104.9 103.8 102.7 100.2 97.5 95.2 94.4 93.6 93.4 93.7 94.5 96.8 97.3 97.2 99 99.9 101.8 104.4 106.3 106.7 106.1 105.2 104.9 104.1 103.1 101.5 99.8 97.4 94.4 89.7 89.3 88.9 89.4 89.5 90.1 91.1 92.5 94.8 97.1 99.3 101.5 101.3 102.3 102 101.3 101 100.1 98.8 95 91.9 90.3 91.2 90.9 87.9 86.7 87.1 91.2 91.5 90.8 88.9 86.7 85.7 85.9 86 88.6 90 89.3 87.7 85.4 84.9 88.2 89.8 90.5 89.3 91.3 92.1 92.1 92.2 93.7 92.9 91.1 92.7 96.3 101.3 104.4 105.9 106.1 106.3 105.9 104.3 102.7 100.6 97.4 93.3 88.5 84.4 82.1 80.8 81.3 80.5 87.6 89.4 88 86.1 87 91.3 91.2 93 95.2 95 96.6 96.8 95.8 93.9 92.2 94.1 95.8 95.8 94.7 93.2 92.8 93.2 94.2 96.8 100.2 103.7 104.8 105.9 105.6 103.3 99.1 95 92.7 92.7 89.5 88.5
120.4 120.6 120.7 121.2 121.3 121 120.4 120.3 119.7 119.9 119.5 119.1 118.1 117.8 115.5 114.4 115.3 113.2 111 109.6 110.1 110 109.8 109.6 107.9 107.6 107.5 107.8 115.7 112.8 110.8 109.6 108.5 110 109.6 107.5 107.2 106 106.2 107.6 108.6 109 106.6 107.4 106.6 104.7 105.5 108 109.5 109.5 108.8 107.7 105.5 105.3 105.5 106.1 106.1 105.6 104 106 107 107.8 107.8 107.2 106.5 105.5 104.3 102.3 100 96.6 95.7 94.9 95.1 96.3 98 100.2 99.1 99.9 100.9 102.7 104.9 104.6 102.1 100.3 101.7 104 105.7 104.9 103.8 102.3 100.4 96.7 95.6 90.9 89.2 88.7 89 89.2 89.3 89.7 90.8 94.9 96.3 99.2 100.2 97.8 95.4 94.4 93.8 93.4 91.9 93.1 94.4 92.4 90.3 89.1 88.9 87.8 86.1 87.9 91.8 92.4 91.3 88.8 86.5 86 86.5 85.6 88.9 89.6 89.3 87.7 86.1 85.6 84.8 85.1 84.2 84.6 86.3 89.3 89.9 89 90.3 89.2 89 90.3 94.1 97.4 99.9 102.9 103.7 103.8 103.7 102.1 100 97.2 93 87.8 84 82.6 81.2 81.5 81.6 81.4 81.5 86.7 88.7 86 85.5 89.6 89 90.8 92.8 94.9 95.5 94.8 93.7 91.9 90.9 92.6 93.3 93 92.3 91.8 93.2 95.1 97.4 99.7 101.7 104.2 105.4 103.6 103 99.3 95.9 90.4 91.5 89.9 86.1 82.4
118.6 118.3 118.7 119.9 120.8 120.6 120.5 120 118.6 117.9 118.5 118.4 117.9 117.4 115.1 112 112.2 112.1 112.8 116 116.5 116.4 114.9 112.1 109.1 109.9 111.1 112.4 112.9 113.5 113.6 112.6 111.5 112 110.7 109.5 109.6 108.4 108.3 109.2 110.1 109.6 108.9 109.1 109.6 108.1 106.3 107.3 110.6 111.2 111 109.9 108.3 108.3 108.1 108 108.8 107.7 106.7 108.5 109.3 110.3 110.5 109.5 108.4 107.1 105.8 104.2 102.5 98.5 97.9 96.8 97.9 100.1 101.5 103.3 101.6 102.1 103.3 104.5 107 108.8 110 109.5 108.9 106.5 103.1 100.1 99.4 100.7 98.8 96.5 94.4 93 90.4 88.4 88.8 88.9 88.8 88.7 89.4 92.3 96.4 98.9 97.3 94.4 91 89.3 88.2 86.5 87 86.6 88.1 91.9 90.8 88.4 87.7 87.2 86.7 90.3 93.5 92.7 90.8 87.5 86.4 86 85.9 85.8 88.3 89.8 89.7 88.2 85.5 84.7 83.4 84 84.1 84.6 83.9 84.5 85 86.1 87.7 86.8 85.9 87.6 89.7 91.3 94.6 99.2 101.3 101.2 101.3 99.9 96.7 93 88.4 85.3 82.9 81.7 80.7 81 81.5 81.3 81.1 82.6 90.5 87 84.9 85.2 86.9 89.7 93 94.1 93.4 92.3 90.3 89.2 88.4 89.3 90 90.4 91.3 93.1 95.8 98.4 100.1 102.3 103.9 103.7 102.5 100.5 94.8 95.4 92 87.5 86.2 86.5 83.6 81.9
118.2 118.5 117.6 118.1 118.6 119.1 119.4 119.1 117.8 116 115.6 115.6 115.1 114.5 113.3 111.6 111.7 114.9 117.4 118.1 118.5 118.1 115.8 111.5 111.8 114.8 115 114.8 115.1 117 115.7 114.8 114.6 113.8 112.4 112.1 111.9 111.2 110.5 111.4 111.7 111 110.7 111.2 111.8 111.1 109.4 107.6 110.2 112.6 112.5 111.4 111.6 111.4 110.7 110 110.1 110.6 109.5 110.9 111 112.3 112.8 112.1 111.2 109.3 107.2 105.5 103.3 100.9 101.5 99.6 100.6 103.5 105.8 106.3 104 104.2 105.5 107.6 109.1 110.8 110.9 110.8 109.4 107.8 106.5 104.2 102.8 101.1 98.7 99 97.8 96.7 94.8 91.9 88.7 88.9 88.8 88.1 88.3 89.5 94.5 96.5 95.9 92.2 89.8 87.5 86.8 87.5 88.7 87 87.2 87.3 88.1 87.6 87.3 87.1 86 92.8 94.8 92.5 91.7 88.6 86.5 86.4 85.3 85.6 89.4 90.3 89.4 86.9 85.1 84.9 84.7 87.1 87.2 86.2 85 84.2 84.4 84.2 84 83.1 84.7 84.5 84.9 86.6 89.8 93.5 98.7 98.6 97.3 95.3 92.1 89.1 86.3 83.8 82.1 80.6 81.8 81.8 81.7 81.6 81 81.8 90.2 89.9 85.6 84.2 85.3 88.3 91.4 91.8 90 86 87.2 86.4 88 89.4 89.6 91 93.2 94.8 98 99.4 102.1 103.4 104.6 102.4 101 89.8 90.3 90.2 89.1 85.4 85 79.9 78.4 78.1
119.2 119.2 117.7 116.4 117.1 117.1 117.4 116.9 116.8 114.6 113.9 113.8 113.4 112.9 111.9 111.9 114.3 116.8 118.9 119.3 119.6 118.4 115.9 112.1 116.1 117 117.2 117.4 117.4 116.6 117.9 117.2 116.1 115.8 114.8 114.5 114.7 114 113.3 113.6 113.4 112.6 111.9 113.1 114 113.4 112.3 109.8 109.3 112.7 113.2 112.8 112.9 112.5 112.8 112.2 111.6 111.5 111.8 112.7 113.6 114.9 114.7 114.1 113.2 111.4 110.1 107.6 104.4 104.3 104.1 102.5 103 106.4 109.1 108.7 106.1 106.9 108.2 110.1 111.4 112 111.8 111.6 110.1 107.8 105.9 103.8 103.2 103.6 104.3 103.7 102.8 100.8 98.2 97.3 95.3 95.3 89.8 88.2 87.8 87.4 90.1 93.4 94.3 90.8 88.2 87.9 88 90.6 89.5 87.9 87.4 86.9 87.5 87.4 87.6 86.3 92.7 92.4 94.9 96.1 94 90.3 87.1 86.5 85.6 86.7 89.9 89.1 87.1 85.2 84.2 83.8 88.7 90.7 91.4 90.4 89.4 87.7 85.6 83.5 83.3 82.8 83.1 84.2 83 82.8 85.1 88.3 95.9 96.4 96.1 92.6 89.6 87.2 85.1 83 81.8 80.6 82.5 83.5 83.7 81.8 81 80.5 87.6 90.4 88.8 85.5 83.6 87.1 89.5 88.5 86 85.4 85.4 87.8 89.6 91.9 92.8 93.4 95.3 97 98.7 99.8 100.9 103.7 102.1 100.1 95.8 90.2 90.3 88 86 81.5 79.4 78.3 77.9 78.4
119.7 119.7 118.4 117.7 117 116.2 115.7 115.5 114.9 115.1 115.2 115.5 115.1 114.7 113.3 112.9 115 118.2 119.6 120.1 120.3 119.8 116.7 113.3 117.6 118.9 118.8 119.1 119.3 119 120.4 118.9 118.4 118 116.9 117.3 117.4 116.7 116.1 115.8 115.1 114.6 114 115.3 115.5 114.9 114.5 112.3 110.3 112.1 113.9 114.3 113.9 114.3 114.3 114.6 114.7 114 113.8 114.4 115.2 116.6 116.4 115.9 115.1 114.1 111.5 108.5 106.4 106.8 106.5 103.5 105 108.7 110.6 110.2 109 109.6 111.2 112.3 113.1 112.9 112.6 112.3 110.8 108.5 106.3 105.1 105.7 106 106.8 106.6 105.7 103.4 100.7 98.7 95.5 94 92.3 90.1 89.4 94 93.9 92.4 92.4 89.3 87.9 86.9 90.2 91.3 91 89.9 88.7 88.1 86.6 88.7 92.7 93 96.3 100.4 100.7 99.2 96.2 92.4 88.3 85.3 84.8 85.2 87.7 87.8 85.5 84.8 84.3 88.8 92 94 94.7 94.2 93.3 92.2 90.4 87.9 87.2 87.3 86.6 86 84.8 83.2 83.6 84.9 92.7 95.6 95.3 91.9 88.8 86.3 84.1 82.9 81.8 80.9 85.4 86.1 84.4 82.2 81 80.8 85.6 89 89 86.3 83.5 85.4 88.3 87.2 84.4 84.1 86.7 88.8 89.8 90.8 92.5 92.9 95.1 95.6 97.9 97 99.7 99.9 101 99.8 96.3 91.5 87.8 85.9 81.3 79.5 78.5 77.8 78.3 77.3
121 120.1 119.4 119.2 117.3 117.2 116.9 116.7 116.4 116.8 117.2 117.5 116.3 115.4 113.3 113.7 116.6 118.8 119.7 121.6 121.7 120 117.7 113.9 117.9 119.5 119.9 120.5 120.7 120.8 121.5 120.8 120.3 119.9 119.1 119.5 119.8 119.6 118.9 118 116.7 116.5 116.2 116.6 116.7 116.4 116.1 114.4 112.5 111.9 114.3 115.4 115.2 116.4 117.2 117.9 117.6 117.1 116.3 117.1 117.5 118.1 117.7 117.1 116 113.8 111.3 108.8 109.9 109.9 107.4 104.7 106.6 110.1 111.9 112.1 111.5 112.3 113.4 114.1 114.5 114.3 113.8 113 111.8 109.6 107.7 106.6 107.4 108.2 108.3 107.4 106.5 103.9 101.3 98.2 95.6 93.5 92.1 90.7 89.5 88.2 88.1 88.9 88.6 88.5 90.4 92.8 94.1 94.1 93.8 93.7 92.6 91.8 92.4 92.6 95.1 96.9 100 103 103.2 102 98.6 94.3 90 86 85.3 85.1 85.5 85.1 84.8 83.9 88.6 93.3 96 97 97.8 97.5 96 94 91.5 89 89.7 89.4 88.6 86.8 85.3 83.6 82.9 82.9 89.5 93.9 93.1 91.6 89.8 86.3 83.6 82.4 81.8 81.4 88.7 88.7 86.9 83.3 81.2 80.7 84.3 88.1 88.7 86.5 83.5 83.7 86.2 86 83.1 85.3 87.7 87 87.7 87.9 89.1 90.8 93 93.2 93.1 92.6 94.4 95.8 97.4 97.4 95.7 91.2 85.4 82.3 80.1 79.6 78.4 76.6 77.2 78.1
122.2 121.1 120.2 119.6 118.5 118.1 118.2 118.8 118.7 118.7 118.2 118 116.3 115.3 113.4 114.8 117.5 119.9 119.3 121.7 121.9 119.9 118.5 114.7 118.2 119.9 120.7 121.1 121.2 121.3 121.9 121.5 121.4 121.4 121.5 121.7 121.8 121.5 120.6 119.3 117.8 117.7 117.5 117.7 117.8 117.3 116.9 116.3 114.6 112.7 114.2 116.6 116.6 118 118.9 119 118.8 118.6 118.7 119 119.2 118.8 118.4 117.6 116.6 114.5 111.2 112.2 113.3 112 108.4 105.8 108.1 111.5 113.2 113.9 114 114.5 115.2 115.6 115.8 115.4 114.7 113.7 112.7 111.1 109.6 108.8 109.6 109.6 109.3 108 105.8 102 99 96.5 94.8 94.1 92.8 90.6 89.7 88.6 88.2 88.8 87.1 87.7 87.6 92.2 96.6 98.7 97.8 97.9 97.6 95.7 97.3 97.4 99.2 101.6 103.1 104.5 105 103.1 99.5 96.1 92.4 88.4 84.3 85 85.4 84.6 85.3 88.4 93.5 97.6 99.2 100.2 99.8 99.1 97.1 94.6 93 91.2 91.2 90.5 88.9 87.2 85.6 83.7 82.8 82.9 87.5 92.4 92.1 90.4 88.5 86 84 88.6 82.5 84.2 90.3 90.7 88.5 84 80.8 80.4 82.5 86.7 87.6 87.2 83.6 82.7 84.1 83.8 82.6 84.3 83.7 83.8 82.7 83.9 86.7 87.4 90.1 90 89 88.9 87.3 90.1 91.9 92.4 92.4 89.9 85.8 81.3 79.7 78.7 78.6 77.9 77.9 79.8
123.4 122.3 121.3 120.3 119.9 119.5 119.5 119.9 119.9 119.2 118.5 117.8 116.3 113.7 115.3 117.5 118.6 119.8 120 120.4 121.6 119.4 118.8 115.7 117.4 120.1 121.1 121.6 122.4 122.7 122.4 122.3 122.2 122.4 122.4 122.6 122.8 122.6 121.7 119.9 119.3 119.4 119 118.9 118.8 118.5 118.1 117 115.8 113.5 114.8 117.3 118.2 119.4 120.1 120.3 120.2 120 119.8 119.8 119.8 119.6 118.9 118 117.1 113.5 113.6 114.6 114.6 112.2 108.7 107.6 109.7 112.4 113.9 115.2 115.9 116.4 116.6 116.7 116.8 116.4 115.4 114.3 113.3 112.6 111.3 110.9 111.1 110.8 109.5 107.4 103.3 100.2 98 97.4 97.4 96.8 94.8 92.3 90.5 89.1 88.4 88.6 88.4 87.7 89.8 94.4 98.8 101.7 102.9 102.3 102.5 100 102 101.8 103.4 104.3 105.5 105.1 105.8 104.4 101.2 97.7 95.6 92 89.2 84 84.4 86.5 93.4 95.6 96.1 99.8 101.7 101.8 100.6 99.2 97.5 97.4 96.6 94.5 92.7 91.3 89.8 88.5 85.6 83.6 83 82.8 87.9 91.5 91.7 89.6 88.3 85.9 83.3 82.1 80.9 88 89.8 92.1 90.9 85.6 81 80.9 81.9 85.5 87.3 87 84.9 82.2 81.4 82.2 81.8 81.3 80.5 80.3 80.7 80.7 80.5 82.1 84.5 85.2 84.8 83.9 83.3 84.9 86.2 86.6 89.1 88.5 84.2 81.1 79.3 78.8 78.2 76.8 79 82.9
124.6 123.5 122.3 121.5 121.3 120.7 121 120.5 120.1 119.7 119 117.7 115.5 115.6 118 119.1 119.8 119.9 120.4 120.9 120.6 120.6 118 116.2 118.3 120.7 121.6 122.1 122.2 122.4 123 123.1 123 123.5 123.6 123.3 123.5 123.2 122.1 120.7 121.3 121 120.7 120.2 120.2 120.8 119.4 118.2 116.4 114.3 115.7 117.7 119.3 120.2 121.1 120.9 121.3 121.1 120.7 120.4 120.5 120.3 119.2 118.3 116.7 114.5 115.4 115.7 114.9 111.7 109.6 109.6 111 113.6 115.1 116.3 117.1 117.5 117.7 117.7 117.1 116.4 115.8 114.8 113.8 113 111.6 111.5 111.4 110.5 108.1 105.3 101.8 100.4 100.2 100.5 100.7 100.8 97.9 94.3 92.4 90.8 89.2 89.1 88.5 90.7 94 96.2 101 103.6 104.8 105.2 104.7 103.7 104.2 105.1 105.5 106.1 106.4 106.2 106.7 105.5 103.2 101.4 98.9 97.8 95.8 92.5 88.2 91.2 97.8 99.9 100.4 102.5 103.3 102.8 101.5 99.8 99.7 100 99.3 97.8 95.4 93.1 90 87.8 85.8 83.5 83.4 83 88.2 89.6 89.7 89.1 87.7 85.7 82.7 81 82.4 91.1 95 96.2 93.9 89.9 87.4 81.5 80.4 82.3 84.2 85.2 84 82 81.5 81.1 80.7 80.2 79.6 80.5 80.8 80.4 80.6 80.4 79.5 80.6 80.7 80.9 80.9 81.9 83.9 86.8 87.5 86 83.2 80.9 79.2 78.2 77.5 79.4 83.3 84.2
125.5 124.3 123.4 122.7 122 121.6 121.3 120.9 120.5 120.1 119.2 117.7 115.4 118.2 119.6 120.3 120.7 120.5 121.3 121.3 121.1 120.2 119 116.5 117.7 120.3 121.8 122.2 122.8 122.6 123.6 123.3 123.7 123.7 123.8 123.6 123.9 123.8 122.6 122.2 122.4 122.4 122.1 121.7 121.7 121.5 119.7 118.5 116.4 115.5 116.8 118.4 120.1 120.9 121.6 121.4 121.5 121.6 121.6 121 120.7 120.3 119.6 118.7 117 117.6 117 116.5 114.6 112.1 112.7 112.8 112.6 114.5 116.3 117.4 118.1 118.3 118.4 118.1 117.4 116.7 115.9 115 114 112.9 112 111.6 110.1 107.5 104.4 103.3 102.4 103.6 105.1 105.3 104.9 103.7 100.6 97.4 94.8 92.2 91.1 89.7 89.7 94 97.2 99.4 101.1 104.5 106.2 107.5 107.5 105.6 105.9 106.5 107 107.2 107.2 107.2 106.9 106.1 105.2 104.2 102.5 101.7 99.3 95.5 90.4 92.7 100.2 102.8 103.4 104.9 104.5 103.1 102.5 102.1 101.8 101.8 100.8 99.5 97.2 93.9 90 87.4 84.7 83.7 82.9 82.7 88.1 89.7 89.2 88.3 87.1 83.5 81 81.9 86.4 93.6 98.2 99.4 97.8 94.1 88.6 83.6 84.2 88.6 85.2 79.5 81.8 81.3 81.3 80.7 80 79.9 81.3 85.6 84.1 83 82 81.1 80.5 80.4 81 81.1 81.1 79.2 82.7 89.5 88 86.2 81.1 79.7 79.4 76.9 76.6 82.8 84.5 84.4
126.4 125.3 124.1 122.8 122.1 121.7 121.6 121.3 120.6 120 118.9 117 116.7 119 120.3 121 120.7 121.5 121.3 121.5 121.2 120.4 119.8 117.9 117.3 118.9 121.4 122.1 122.5 122.8 123.1 123.2 123.7 123.6 123.7 123.4 124 123.7 123.4 123.5 123.5 123.4 123.2 122.9 122.4 121.1 119.8 117.6 116.3 116.9 118.1 119.3 120.8 121.2 121.9 121.7 121.6 121.6 121.4 121.2 120.8 120.3 119.7 118.8 118.3 118.4 117.8 116.2 114.3 114.3 114.7 114.5 114.4 115.5 117.1 118.4 118.8 118.8 118.7 118.3 117.6 116.8 116 114.8 113.3 111.8 111.2 109 107.7 107.3 106.9 107.4 108.3 109.6 109.8 108.8 108.3 106.9 104.3 101.3 97.9 95.5 93.9 90.3 90.9 95.5 99.1 102.2 104.4 105.1 107.1 107.7 107.5 106.7 106.3 106.8 107.5 108 108 108.2 107.8 107.2 106.4 105.4 103.7 102.4 99.5 94.3 91.3 93.1 98.7 102.5 105.2 105.9 105.1 104.2 103.4 103.5 103.4 103.3 102.3 100.6 98.1 94.9 91.8 88.6 85.6 83.6 82.8 83.7 89.4 89.3 89.2 87.6 83.1 81.3 83.3 84.6 91.2 97.2 100.7 101 99.6 95.3 90.3 89.8 84.7 81.6 82.2 84.1 88.5 81.2 80 79.7 82 86.9 86.1 86.1 85.3 82.8 82.3 82.4 82.7 82.9 81.6 81.2 81.4 79.2 81.7 85.4 87.4 86.1 79.3 79.5 76.7 77.9 79.8 82.5 84.2 85
126.1 125.2 124.2 122.9 122.2 121.3 121 120 118.7 118.2 116.9 115.8 117.8 120.3 121.6 121.9 121.7 121.5 121.8 122.4 121.1 120.7 120.8 119.3 117.9 119.3 121 121.8 122.7 123 122.9 123 123.5 123.6 123.7 123.4 123.3 123.4 123.7 123.7 123.6 123.7 123.4 123.1 121.2 119.7 118.2 118.6 118.3 118.9 119.3 120.6 121.3 121.6 122.2 122 121.7 121.5 121.2 121 120.7 120.2 119.7 119.2 118.8 118.7 117.2 116.2 116.2 116.3 116.2 116.2 116.6 117.3 118.3 119 119 118.9 118.8 118.3 117.6 116.9 115.8 114.6 113.3 112.5 112 111.3 111.2 111.3 111.5 111.9 111.6 111.7 111.6 111.1 109.7 108.1 106 103.4 99.8 96.5 93.7 90.5 93.6 98.5 102.7 105.1 106.7 107.1 108.5 108.6 108.3 107.5 107 107.3 107.9 108.4 108.5 108.5 107.7 107.6 107.4 105.9 104.2 101.2 96.4 93 92.6 94.5 98.4 102.1 105.6 106.5 105.8 105.4 105.5 105 104.5 103.8 102.5 101.5 98.7 95.2 91.7 88.1 85.5 83.1 83.7 84.3 87.8 87.4 86 83.4 82.2 82.2 86.1 90.4 94.9 100.3 102.8 103.4 100.8 97.2 94.7 95 92.8 87.1 84.6 83.2 83.1 83.4 88.3 88 88.6 88.5 88.6 87.7 85.6 84.9 82.5 83.3 83.4 83.4 82.2 81.6 81.8 78.6 81.1 89.3 88.9 80.7 78.9 78.2 77.9 80.5 83.6 83.6 83.3 84.6
125.7 124.9 124 122.7 121.8 119.8 119.1 118.4 118.2 117.5 117.5 116.8 118.7 120.5 121.8 121.4 121.5 121.9 121.7 121.8 121.3 121 120.4 119.9 118.6 119.1 120.9 121.9 122.5 122.7 122.7 122.7 123 123.6 123.3 123.3 121.5 123.2 123.4 123.7 123.8 123.5 123.2 121.6 119.9 119.3 119.6 118.9 119.6 120.4 120.4 120.9 121.8 122.3 122.3 122 121.4 121.1 120.8 120.6 120.3 120.1 120 119.7 119.1 118.4 117.5 117.4 117.5 117.7 117.8 118 118.1 118.3 118.8 119.3 119 119 118.7 118.1 117.5 116.9 115.8 114.6 114.3 113.9 114 113.5 113.5 113.8 114.3 113.8 113.7 113.1 112.6 111.6 110.1 107.9 104.9 102 98.1 93.3 91.8 92.1 96.9 102.3 105.6 107.1 108.9 109.3 109.8 109.6 108.9 108.2 107.7 107.5 107.6 107.6 107.8 107 107.1 107.3 107 105.4 102.1 97.5 94.8 95 95.8 97.3 98.9 102.6 105.3 106.1 107.1 106.4 106.3 105.8 105.4 104.3 102.6 101.3 98.6 94.6 91.8 90 86.5 85.3 83.2 82.4 86 86.5 82.7 82.3 82.3 86.1 90.9 95.4 100.9 102.9 105.9 106 103.5 100.8 97.4 97.7 95.4 92.7 90.8 91.9 92.6 94 93.5 90.6 88.7 88.8 88.6 88.7 87.3 87.1 87.4 85.7 84.1 82.8 81.5 80.7 78.7 80.2 81.7 90.9 87.7 79.3 77.7 78.5 79.5 82.7 85.6 84.6 85 82.6
124.2 123.3 123.2 121.8 120.3 120.1 119.8 119.4 119.4 118.7 118.4 118 119.4 120.9 121.9 121.6 122.8 122.1 121.8 121.5 120.9 120.7 120.4 120 119.9 119.4 119.7 120.6 121.8 122.1 122.2 122.4 123 123 123.3 123.3 123 123 123 123 123.3 123.1 121.7 121.1 121.9 121.3 121 120.2 120.5 120.4 121 121.2 122.2 122.5 122.2 122.1 121.2 121 120.5 120.2 120.2 120.3 120.3 120 119.4 118.7 118.7 118.7 118.8 118.9 119 118.9 118.9 119.1 119.4 119.3 118.9 118.6 117.9 117.4 116.9 116.9 116.6 115.6 115.2 115 115.1 114.5 115.1 115.4 115.5 115.5 114.8 113.7 112.7 111.4 109.2 106.1 102.7 98.6 93.1 93.2 94.6 96.5 100 103.8 107.5 109 110.3 110.5 110.7 109.6 109.1 108.8 108.7 107.4 106.4 105.7 105.5 104.4 104.4 105 105.5 103.9 99.5 96.4 98.6 100.5 99.3 99.8 101.3 102.7 104.7 106.4 107.5 106.6 106.5 106.1 105.5 104.2 102.6 100.8 98.5 94.9 92.8 92.8 90.2 85.7 81.8 82.3 82.8 83.4 83 82.1 85.9 88.1 90.6 96.2 102 104.5 106.8 107.4 106 102.5 100.6 101.6 100 99.2 97.8 98.9 98.6 98.6 96.8 91.8 90.5 89.2 89.5 92.9 88.2 88.6 89 87.6 84.9 83.2 81.3 80.8 80 80.5 83.5 87.6 80.5 78.8 78.8 78.7 79.4 84 87.8 86.6 86.6 85.8
122.6 121.6 121.9 121.5 121.9 121.7 121.4 121.3 120.2 119.8 119.7 119.6 121.6 121 121 122 122.9 122.6 121.9 121.3 121.4 121.5 120.9 120.4 120.8 120.7 119.9 120.1 120.5 121.5 122 122.5 122.8 123 123.4 123.6 123.6 123.3 123.4 122.8 123 121.6 122.4 122.9 122.7 122.7 121.5 121.3 121.7 121 122 121.9 122.4 122.4 121.9 121.5 121.2 121.2 120.6 120.3 120.1 120.2 120.2 119.1 118.8 118.9 119.1 119.1 119.2 119.3 119.3 119.3 119.2 119 119.1 119 118.5 118 117.4 116.8 116.4 116.8 116.8 116.5 116.7 116.7 115.8 115.6 115.8 114.6 114.8 115 114.5 113.3 111.4 108.3 105.9 102.4 96.9 93.2 96.7 99.2 97.2 98.5 103.7 107 108.8 109.8 110.4 110.7 109.4 109.1 109.4 109.9 108.9 107.1 107.1 107 106.3 104.9 102.2 102.1 101.7 100 97.9 99.4 103.2 103.2 101.5 101.1 103.6 105.1 105.5 106.5 107.9 107.8 107.2 106.4 105.3 103.2 101.7 99.8 96.9 95.6 95.7 93.5 89.6 83.3 84.3 83.4 81.8 82.6 85.5 87.4 91.1 92.7 94.3 94.3 100.6 104.5 107 107.2 106.8 104.3 103.7 104.6 103.6 103.6 102.3 101.1 100.2 99.3 98 93.1 90.6 92.6 91.1 89.2 92.1 92.7 91.6 89 84.8 81 80.5 78.6 80.5 81.3 85.3 83.1 78.9 77.3 78.8 78.8 80.3 84.1 87.2 89.2 89.3 87.1
122.5 122.7 123 123.8 123.3 122.8 122.3 122.1 121.3 120.7 119.8 121 121.8 122.7 122.9 122.6 122.1 122.8 122.1 122 122.1 122 121.4 120.9 121.3 121.8 121.4 120.9 120.2 122 122.3 123.3 122.9 123.2 123.6 123.4 123.2 123.5 121.4 123.2 123 122.8 122.4 123.1 123.3 122.8 122.4 121.8 122.8 123 122.5 122.4 122.2 122.2 121.6 120.9 121 121 120.4 119.9 119.4 119.2 119.3 118.6 118.3 118.7 119.2 119.2 119.2 119.3 119.5 119.3 119.1 118.9 118.9 118.6 118 117.5 117 116.3 116.3 116.5 116.7 117.5 117.5 117.4 116.9 116 115.5 114.5 114 114.1 113.1 110.8 107.4 104.1 100.2 95.9 95.3 100.4 103.3 104.1 103.9 100.2 104.4 108.8 110 110.7 110.1 109.7 109.5 109.1 109 108.9 108.2 107.8 108.8 108.7 108.2 107.2 105.9 103.5 100.7 100.5 101.3 104 105.4 105.1 104.1 103.8 104.8 107.2 107.8 108.9 109.6 108.8 108.1 105.6 104 102.5 100.1 98.2 96.3 96.1 95.7 92.7 86.9 85.8 89.9 90.1 90.2 89.5 88.9 91.3 93.9 97.8 99.3 99.1 99.5 104 107.6 108 107.2 106.2 105.9 105.2 104.3 103.7 102.7 101.2 99.9 97 95 93.3 91.9 92.8 95.5 95.5 90.5 95.1 92.9 89.7 84.2 81.4 79.8 80 81.7 84.8 83.6 81.5 77.3 77.6 78.1 78.7 80.7 83.9 88.9 90.1 90.6 89.3
123.9 124.3 124.7 124.6 124.2 123.7 123.2 122.2 122.2 121.3 121.7 122.2 122.9 123 123 122.6 122.7 122.3 122.1 121.9 121.8 121.7 121.5 121.1 121.6 122.3 122.2 121.8 121.3 121.6 123.1 122.8 123.3 123.4 123.4 123.3 123.7 123.8 123.7 123.6 123.4 123.3 123.4 123.9 123.8 123.6 123.1 122.7 122.8 122.5 122.2 121.9 121.7 121.2 121.4 120.7 120.7 120.7 120.1 120 119.6 119 118.4 118.3 118.3 118.6 118.9 119.2 119.3 119.4 119.5 119.5 119.2 118.9 118.7 118.2 117.7 117.3 116.9 116.3 116.3 116.6 117.2 117.5 117.6 117.2 115.8 114.3 114.3 114.4 112.9 112 110.6 106.7 103.3 99.2 96.1 96.7 99.4 103.4 107.4 108.6 108.2 104.4 103.8 109.5 109.9 110.6 110.2 110 109.6 109.5 109 108.3 108.2 108.6 109.4 109.3 109 107.7 106.2 102.9 101.5 103 104.4 106 107.3 106.4 105.3 106 107.6 108.7 109.5 109.9 109.8 108.8 107.4 104.7 102.7 100 98.9 97.7 96.5 93.7 92.4 89.1 83.2 88.4 92.6 93.8 94.9 93.8 92.5 95.4 96.8 101 103.4 103.6 101.8 104.9 107.3 108.4 108.1 107.2 106.7 105.5 104.2 103.3 100.1 98.8 97.1 96.7 96.1 97.5 95.7 95.3 98.7 98.7 98.4 93.8 90.4 88.8 83.1 79.7 78.8 80.7 81.8 84 81.1 79.1 77.4 78 78.5 80.1 82.7 85.5 90.5 92.7 92.6 90.4
125.4 125.7 125.7 125.5 125 124.4 123.7 122.7 122.9 122.1 122.4 123 123 122.9 122.9 123 122.9 122.6 122.2 122.1 122 122.1 121.8 121.3 122.1 122.7 122.7 122.6 121.7 121.6 122.3 122.7 123.3 123.3 123.3 123.3 123.5 123.5 123.6 121.9 123.3 123.2 123.8 124 124.2 124.2 123.8 123.3 123.3 122.7 122.2 121.8 121.4 121 120.1 119.4 120.2 120.5 120.3 120.2 119.8 119.2 118.6 118 118.3 118.3 118.4 118.9 119.3 119.4 119.5 119.5 119.4 119.3 119 118.5 118 117.5 116.8 116.4 115.4 116.2 117.1 117.1 116.8 116.1 115 112.6 110.5 111.2 110 109.6 106.9 103.1 98.6 97.2 100.5 101.1 100.3 105.4 109.5 111 110.5 108 108.3 109.6 109.9 110.6 110.4 110.9 110 109.7 108.8 108.5 108.8 109.1 109.5 109.4 109.1 107.6 105.6 103.7 104.5 105.4 106.8 108.3 108.8 108.4 107.7 108.3 110 110.3 110.8 110.5 109.3 106.9 105.2 102.8 100.4 98.2 97.3 96 93.3 88.6 84.3 84.2 85.5 91.6 96.5 97.3 97.9 98.5 97.8 99.7 101.4 104.1 106.5 105.7 105 106.6 107.6 109.1 108.7 107.7 106.8 104.8 103.5 102 99.5 99 100 99.9 100.9 100.7 98.2 95.1 99.1 99.9 99.3 97.3 94.2 89.7 82.4 79.3 79.6 80.9 80.7 80.8 79.3 77.9 78.7 78.3 79.1 82.1 85.1 87.9 90.4 94.1 93 91.5
126.8 126.7 126.4 126.3 125.6 124.8 124.2 123.3 123.4 122.7 123.1 123.3 123.4 123 123 122.8 122.7 122.6 122.4 122.3 122.4 121.7 121.1 121.9 122.2 122.2 122.7 122.4 122.4 122.9 123 123.1 123 123.1 123.1 123.2 123.2 123.2 123.3 123.6 122.2 123.5 123.9 124.2 124.5 124.4 124.3 123.9 123.5 122.8 122.4 122 121.4 120.7 120.3 119.9 119.9 119.9 120.5 120.3 119.9 119.3 118.7 117.8 118 118 118.1 118.4 119 119.4 119.5 119.4 119.4 118.7 118.5 118.8 118.1 117.8 117.2 116.7 114.8 115 116 116.1 115.9 114.5 113.2 110 106.7 106 105.1 104.9 103.4 99.1 98.3 101.7 105.6 106.1 102.5 106.9 111.6 112.5 111.9 110.4 110.3 110.7 110.6 111.1 110.9 110.7 110.6 109.9 109.6 109.3 109.7 110 109.5 109.5 108.6 108.2 106.2 107.3 107.5 108.2 109.2 110.4 110.2 110.1 110.6 110.8 111.2 111.6 112.1 110.6 107.5 103.9 102 100.2 98.7 95.8 93 89.8 85.8 84.9 87.5 87.6 89 94.2 98.2 100.7 102 102.5 102.8 104.7 106.1 107 108.3 107.4 108 109.3 109.6 109.2 108.8 107.3 105.5 105 104.7 103.4 102.3 102.2 103.4 103.2 103.4 102.8 100.8 98.7 100.7 101.8 101 99 96.3 89.3 82.4 88.6 81.2 79.5 80 80.4 79.7 77.9 78.4 79.7 83.6 85.6 88.4 91 93.2 94.7 93 92.4
127.7 127.3 127.1 127 126 125.3 124.6 123.9 124.2 123.4 123.1 123 122.9 122.9 122.7 122.6 122.5 122.4 122.2 122.2 122 122 122.2 122.4 122.4 122.5 122.8 122.8 122.9 122.7 122.9 123.2 122.7 122.7 123 123.3 123.2 123.2 123.2 123.5 122.6 123.8 124.1 124.3 124.5 124.4 124.2 124 123.6 123 122.5 121.8 121.2 120.5 120.1 119.8 119.9 120.4 120.6 120.5 120.1 119.5 118.9 117.8 117.4 117.6 117.7 117.9 118.5 119.2 119 118.7 118.1 118.5 118.9 118.5 118.2 117.9 117.6 116.9 115.7 113.8 113.6 113.5 112.8 111.3 108.5 106.4 104.5 103.8 102.4 100.8 99.6 99.2 103.9 107.3 110.1 110.1 104.1 107.1 111.5 112.8 113.1 112.4 111.5 111.2 111.3 111.8 111.4 111.3 111.1 110.9 110.8 110.9 110.9 110.7 109.7 109.3 109.1 109.6 109.7 110.2 110.6 111 111.6 111.7 111.5 111.6 112.2 112.4 112.4 112.8 113.1 110.6 107.1 102.3 100.3 98.2 96.5 94.5 87.4 87.1 90.8 90.4 90.8 92.1 93.8 95.7 98.1 101 103 104.5 105.5 106.9 108.3 109 109.1 109 109.7 109.9 109.8 109.4 108.6 106.9 105.7 106.1 105.2 103.7 102.7 103.3 103.4 104.5 104.6 104 102.1 101.3 103.5 104 102.9 99.5 95.4 88.8 84.1 81.3 87.4 82.3 78.6 79.2 79.1 76.9 79.8 84.4 87.3 88.3 91.9 92.6 95.3 94.7 93.4 91.6
128.2 128.2 127.9 127.6 126.7 125.7 125.1 124.8 124.6 123.7 123.2 122.9 123.1 122.6 122.5 122.3 122.3 122.2 122.1 122 121.9 121.9 122.1 122.2 122.4 122.6 122.8 122.5 122.7 122.8 122.9 123 123.1 122.9 123.2 123.4 123.2 123.2 123.7 123.3 123.9 123.5 123.8 124 124.1 124.3 124 123.7 123.4 122.9 122.3 121.6 120.9 120.3 120.1 120 120.4 120.6 120.4 120.2 119.7 119.3 118.9 118.5 117.5 117.2 117.6 117.8 117.9 118.3 118.5 118.7 119.4 119.8 119.3 118.9 118.4 118 117.4 116.7 115.6 114 112 111 110 109.2 108.1 108 107.4 106.6 106.1 102.4 99.9 102.2 107.9 111.7 113.7 111.9 107.3 108.9 112 113.3 113.7 113.6 112.7 112.3 111.9 112.4 112 112.1 112.3 112.1 112.1 112.2 112.1 111.2 110.2 109.3 110.1 110.9 111.7 112.3 112.7 112.9 112.9 112.9 112.7 113.3 114.2 114.2 114.6 115.1 114.9 111.4 107.4 101.2 100.3 96.4 92.5 90.1 89.3 90.6 96.9 98.9 96.5 92.3 90.8 93.9 99.5 103.3 105.4 106.4 107.3 108.5 109.2 109.6 110.4 110.6 110.5 110.8 111.1 110.3 109.4 108.6 107.1 107.9 106.8 105.5 103.8 104 105.2 106.3 104.6 104.7 103.1 102.4 104.5 105 102.6 100.1 97.5 90.1 89.1 87.1 81.9 81.7 81.4 79 79.3 81.9 85 88.3 89.8 93.5 95.3 95.8 95.5 94.3 92.8 90.5
128.8 128.4 128.1 127.8 127.5 127.1 126.4 125.8 124.9 124 123.4 122.9 122.2 122.5 122.4 122.1 122.1 121.9 122.1 121.9 121.8 121.8 121.9 122.1 122.2 122.4 122.7 123 122.9 122.8 122.8 122.9 123 123.3 123.5 123.5 123.3 123.1 123.3 123.7 123.8 123.1 123.5 123.6 124 123.8 123.5 123.3 123 122.6 122.1 121.4 120.9 120.7 120.5 120.5 120.7 120.5 120.1 119.9 119.3 118.8 118.6 118.5 118 116.3 117.5 117.7 118.2 118.6 118.6 119.1 119.7 119.6 119.2 118.7 118.4 118.1 117 116.2 115.6 114.7 114.8 115 114.1 114 114.2 113.2 112.7 110.7 107.5 102.9 100 104.5 110.8 114.1 114.2 112.2 108.8 109.9 113.2 114.4 114.7 114.7 114.1 112.8 112.6 113.4 113.4 113.3 113.4 112.6 112.5 113 112.7 112 111.3 110.6 112 112.7 113.4 114 114.6 114.7 114.5 114 114.3 114.7 114.4 113.6 113.9 114.1 114.1 112.2 109.7 105.1 100.4 96.2 92.3 88.4 88.5 98.6 101.5 102.7 101.3 97.5 93.6 93.5 97.8 101.2 103.3 105 106.5 108.6 108.3 108.7 110.5 110.6 111 111.9 111.6 110.8 110.3 110.4 109.1 109.5 108.4 107.2 105.2 105 105.7 106.6 106.9 106.7 105.4 103.9 105.9 105.7 104.4 101.8 97 93.3 92.2 91.2 85.9 81.9 84.5 87.4 86.6 87.2 88.4 91.6 94.6 97.6 97.8 96.6 95.7 93.2 92.5 89.7
129.3 128.9 128.5 128.1 127.6 127.2 126.7 125.9 124.9 124.1 123.3 123.7 122.9 122.4 122.3 121.9 121.8 121.8 122 121.9 121.8 121.8 121.8 121.9 122.1 122.4 123 122.9 122.9 122.7 123 122.9 122.8 123.1 123.6 123.8 123.7 122.9 122.8 123.3 123.7 123.9 123.3 123.7 123.8 123.4 123.1 122.8 122.5 122.7 122 121.9 121.4 121.2 121 120.8 120.7 120.4 120.1 119.8 119.2 118.6 118.4 117.7 117.5 116.3 117.4 118.1 118.6 119 119.3 119.5 119.3 119.3 118.9 118.6 118.4 118.1 117.9 117.6 117.1 116.8 117.1 116.7 117.1 117.2 116.8 115.9 114.5 111.1 106.5 102.4 101.2 108.6 113.8 115.2 115.1 114 112.2 111.4 114 115.2 115.3 114.7 114.7 114 113.8 114.2 114.5 114.5 114.1 113.7 113.9 113.1 112.4 112.7 112.6 112.3 111.9 112.6 113.5 114.4 115 115 114.7 113.7 113.5 112.9 112.5 112.9 111.7 111.4 111.2 110.8 108.6 105.8 101.5 94.9 93.6 87.8 90.4 98.3 104.2 105.6 104.6 101.1 97.9 96.9 97.3 98.2 99.8 102 103 108.6 106.4 108.1 109.1 110.4 111.5 112.3 112.3 112.4 112.1 111.6 111.1 111.1 110.1 108.4 106.6 107.1 107.2 107.4 108.1 108.6 108.3 106 106.9 107.4 105.4 104.5 97.9 100.2 93.4 92.2 88.8 85.8 85.1 87.5 89.5 89.9 92.9 94.4 98.6 99.9 99.5 97.6 95.8 92.3 91.5 88.5
129.2 129 128.7 128.1 127.8 127.3 126.9 126.1 124.8 124.1 123.3 123.1 122.3 122 121.8 121.6 121.6 121.7 121.7 121.8 121.7 121.8 121.8 121.9 122.3 122.4 122.9 122.8 122.8 122.6 123.1 122.9 122.9 123 123.3 123.5 123.7 123.2 122.8 122.9 123.5 123 123.1 123.5 123.6 123.2 122.9 122.6 122.5 122.7 122.8 122.7 121.7 121.7 121.5 120.6 120.5 120.4 120.1 119.8 119.3 118.7 118 117.4 116.3 115.5 117.1 118.6 119 119.3 118.8 119.1 118.5 118.8 118.8 118.9 118.7 118.6 118.7 118.5 118.6 118.7 118.6 118.4 118.2 117.8 117.7 116.7 114 109.7 105.3 101.4 103.5 110.9 115 116.1 115.9 115.4 113.8 112.3 114.9 115.7 116.3 116 115.7 114.8 115 115.7 115.2 114.9 114.7 114.5 114.4 113.9 113.6 113.6 113.2 112.7 111.9 113.3 113.9 114.4 115.1 115.1 114.4 112.8 110.8 109.9 111.1 111.8 109.4 107.3 107.3 107.2 105.3 102.6 96.2 98 93.2 87.3 91.7 98.9 105.2 106.9 106.3 104 101.8 101.1 100.4 101.7 101.5 102.6 103.7 103.8 107.5 109.7 109.6 110.7 111.7 112.3 112.5 112.6 113.5 113.8 113.5 112.4 111.5 109.5 108.4 109 109.2 109.4 109.8 109.6 109.5 108.3 108.4 106.4 106.2 104.2 100.1 100.5 98.8 96.9 95.1 91.7 89.6 88.1 91.1 91.5 90.5 98.6 101.2 100.6 99.4 97.5 94.7 92.5 87.8 87.9
128.9 128.8 128.7 128.1 127.4 127.1 126.9 125.7 124.8 124.1 123.3 122.9 122 121.7 121.5 121.4 121.5 121.6 121.7 121.7 121.6 121.6 121.4 122.1 122.2 122.4 122.8 122.8 122.8 122.8 123.1 122.9 122.5 123 123.4 123.4 123 122.9 122.7 122.7 123 123 122.8 122.9 123.3 123 123 122.7 122.9 122.5 122.5 122.5 122.2 121.9 121.3 120.5 120.7 120.7 120.1 119.8 119.3 119.1 118.2 118 116.1 114.6 116.7 118 117.6 117.6 118.2 118.3 118 119 118.8 118.8 119.1 119.2 119.5 119.3 119.3 119.1 119 118.8 118.5 118.3 117.5 115.6 112.5 107.2 103.4 101.6 106.4 111.3 115.4 116.2 116.6 116.3 115.2 113.8 116 117.4 116.9 117 116.5 116.2 116.3 116.7 116.2 115.6 115.4 115.3 115.1 114.7 114.5 113.8 113.6 113.1 113.1 113.4 114.5 115.5 115.6 115.5 115.2 113.6 111 108.3 108.3 109.1 106.4 102.9 103 102.3 101.2 97.5 99.7 96.6 91.3 88.2 94 100.5 105.3 107.2 107.4 107.1 105 103.1 102.9 106 106.2 107.4 107.5 106 107.2 109.7 110.7 111.2 112.4 112.7 113.4 113.9 115.3 115.3 114.4 113.9 112.4 111 111.1 110.6 110.9 110.6 111 110.8 110.5 109.9 109.9 109 105.3 105 102.9 102.5 100.2 99.4 98.2 96.9 94.6 92.7 96.6 97 93.2 92.2 100.5 101.3 98.3 97 93.2 91.6 90.8 88.1
128.7 128.7 128.4 127.8 127.3 126.7 126.6 125.6 124.7 123.9 123.1 123.2 122 121.6 121.3 121.3 121.4 121.5 121.6 121.6 121.5 121.5 121.3 121.8 121.9 122 122.1 122.5 122.7 122.4 122.8 122.9 123.3 123 122.8 123.7 122.8 122.7 122.5 122.9 122.5 122.9 122.6 122.2 123 122.7 122.4 122.8 122.3 122.1 122.2 122.1 122.3 122 121.5 121.2 120.9 120.8 120.7 120.2 119.6 119.6 118.9 118.5 117.2 113.6 113.7 114.3 114.2 113.5 114.7 116.2 118.2 119.3 119.2 119 119.4 119.3 119.4 119 118.6 118.4 118.1 117.9 117.7 117 116.2 113.1 108.8 103.8 101.9 103 107.6 112.3 115.6 116.2 117.2 117 116.4 115.8 117 117.7 117.5 117.2 117.4 117.4 117.1 117.4 116.7 116.1 115.4 115.7 115.7 115.4 114.8 114.4 113.8 113.9 114 114.3 115.1 115.4 115.4 114.7 114 113.5 111.5 108.4 103.2 103.7 102.3 99.9 97.4 96 97.4 96 95.4 93.5 88.9 90.9 96.6 100.3 104.6 106.6 108.2 108.3 106.3 105.2 104.4 107.3 109.3 109.2 109.4 108.6 107.4 109.4 111.1 112 112.4 113.7 114.7 115.6 116 116.2 116 115.2 113.5 112.6 112.6 112.4 112.1 112 112 111.6 111.2 110.3 110.2 109.7 109 106 104 105.4 104.2 103 100.9 101.5 100.4 100.7 97.8 98.5 97.3 94.5 92.1 99.9 98.3 96.4 93.4 92.1 91.1 87.4
128.6 128.6 128.2 127.6 127 126.5 126.2 125.3 124.3 123.7 122.9 123.1 121.7 121.4 121.2 121.3 121.5 121.6 121.6 121.5 121.4 121.4 121.4 121.6 121.8 122 122.1 122.1 122.2 122.6 122.7 122.8 123.1 123.9 122.9 123.8 122.5 122.9 122.5 122.9 122.7 122.9 123.1 123.1 122.8 122.5 122.8 122.2 122.5 122.3 122.4 122.7 122.6 122.1 121.7 121.4 121 120.9 120.8 120.5 120.1 119.5 119.6 118.9 118.2 116.3 114.4 112.9 112.3 111.8 110.4 112.2 115.1 118.4 119.6 119.6 119.4 119.1 118.5 118 117.5 117.1 116.6 116.5 116.1 115 110.8 107.3 104 102.7 105 108.5 110.5 111.6 114.2 117.2 117.8 117.6 117.9 118.1 118.2 118.9 118.7 118.6 118.2 117.9 117.6 117.5 116.7 116 115.6 115.7 115.7 114.8 114.3 114.9 114 114 114.4 114.8 115.1 114.8 114.2 113.5 110.4 109.2 107.9 105.7 101 97.5 97.7 94.7 94.3 95.1 92.7 91.1 91.2 89.2 90.5 97.6 101.4 103.3 104.8 106.7 108.7 108.8 107.8 107.8 106.9 107.8 109.8 110.1 110 109.6 109.1 110 110.9 112.5 113 113.6 115 116.2 116.8 117.3 117.2 116.6 114.8 114.8 114.2 113.5 112.9 112.7 112.5 112 111.5 111 110.6 109.8 109.4 108.3 108.2 104.5 105.5 105 104.5 103.8 103.9 103.9 103.3 104.1 98.4 104.1 101.7 91.7 98.3 97 94.3 91.8 91.2 87.4
128.2 128.4 127.9 127.4 126.9 126.6 125.7 124.9 124 123.1 122.3 121.8 121.5 121.2 121.4 121.1 121.3 121.7 121.6 121.5 121.3 121.2 121.4 121.5 121.7 121.9 122.1 122.1 122 122.5 122.9 123.1 123.5 123.1 123 124 122.7 122.3 122.9 122.7 122.6 122.9 123.5 123.9 123.4 123 122.7 122.5 122.6 122.5 122.4 122.3 122.4 122 121.8 121.6 121.2 121.1 120.7 120.3 120.4 119.8 119.4 119.4 118.8 117.8 114.8 113.6 114.8 115.6 113.1 110.7 112.2 117.4 119.1 118.7 118.1 116.9 116.8 117.1 116.7 115.4 113.3 113.2 112.6 109.2 105.5 103.8 104.1 105.6 109.4 113.6 115.3 115.9 115.4 116.6 117.8 117.9 118.1 118.6 119.3 119.3 119.6 118.9 118.6 118.5 117.2 116.5 115.8 115.5 114.5 114.4 115.1 114.9 114 113.1 112.6 113.6 112.6 113.2 114.6 113.5 111.7 108 103.8 101.7 101 99.2 96.4 94.1 93.1 95.8 95.9 91.5 91.4 91.8 89.2 89.1 94.2 101.1 102.4 103.8 105.7 107.2 108.3 109.5 109.4 109 108.5 109.2 110.2 110.4 110.3 109.9 109.9 111.2 111.9 112.6 113.9 114.4 115.2 116.2 116.8 117.5 118.1 117.5 116.3 116.1 114.9 114.3 113.8 113.4 112.8 112.3 111.8 111.4 110.8 109.8 108.7 108.9 108.3 107.7 104.8 105.2 105.7 105 105 105.6 105.6 105.2 104.8 104.1 102.3 101 91.2 96.5 92.3 91.3 89.6 87.2
127.7 127.7 127.6 127.2 126.8 126.1 125.2 124.3 123.5 123 122.9 121.9 121.2 121.7 121.5 121.3 121 121.4 121.4 121.2 121.1 121 121.3 121.5 121.7 121.9 122.1 122.1 122.2 122.4 122.8 122.4 122.8 123 122.5 123.5 122.8 122.9 122.9 122.8 122.7 122.7 122.5 122.5 124.6 124.4 122.9 122.5 122.2 122.4 122 121.9 122.2 121.8 121.6 121.4 121.2 120.9 120.6 120.3 120.2 120.2 119.5 119.1 118.1 115.8 113.6 115.6 117.5 117.7 116.1 111 110.9 115.1 116.7 116.2 114.8 112.8 111.7 113.4 115.1 114.9 112.7 109.4 106.6 104.8 104.6 105.6 108.4 110.7 111.5 115.7 117.5 118.1 117.6 117 117.4 118 118.3 118.7 119.1 119.2 118.7 118.5 117.4 113.5 115.3 115 114.3 113.9 112.5 111.4 111.8 112.8 111.9 110.2 110.5 110.4 107.4 109.9 111.6 110.3 107.4 103 98.5 97.5 95.8 95.6 95.3 97 98.3 95.4 99.7 97.9 93 91.7 90 89.6 93.5 100.5 102.4 103 104.3 105.8 107.9 109.7 110.4 109.4 109.9 110 110.9 110.9 110.8 110.5 111 111.8 112.6 113.3 113.9 114.6 115.7 115.9 116.7 118.1 118.3 118.5 117.9 116.5 115.6 114.8 114.3 113.7 113.2 112.6 112 111.4 110.5 109.6 108.3 108.3 108.2 107.5 106.5 106.1 104.6 105.6 105.6 106.2 106 105.8 105.2 103.7 102.7 100.3 98.3 90.6 92.2 91 90 85.8
127.2 127 127 126.7 126.1 125.4 124.7 123.9 123.5 123.2 122 121.9 121.7 121.6 121.1 121.4 121.5 121 121 121 120.8 120.7 121.3 121.5 121.7 121.8 122 122.2 122.4 122.6 122.5 122.4 122.8 123 122.8 123.1 122.5 122.9 122.8 122.8 122.7 122.7 122.8 122.7 122.3 121.3 121.4 121.6 121.4 121.8 121.5 121.3 121.9 121.6 121.3 120.9 120.8 120.8 120.5 120.5 120.1 119.9 118.5 116.5 115.6 115.6 117 118.2 118.5 118.6 117.3 113.1 110.7 110.6 110.4 110.9 108.7 107.4 107.6 107.1 109 111.2 108.7 106.1 105.3 106.1 108.1 109.6 113.1 115 115.4 116.6 118.8 119.4 118.9 118.7 118.6 118.3 118.8 118.9 119 118.9 117.5 116.2 114.7 109.7 109.8 110.9 111.3 112 111.9 110.5 108.5 108.6 107.1 106.8 105.6 102.6 102 104.8 105.8 104.8 101.1 98.2 98.6 98.7 99.3 100.2 102.6 97.5 100.5 103.4 101.7 97.3 94.4 95.1 92.9 89.4 92.9 100.4 101.8 102.3 103.1 104.9 108.3 110 110.2 110.1 110.3 110.3 110.3 110.8 111 110.9 112 112.6 112.9 113.6 114.3 114.5 115.8 115.6 118.1 118.1 118.2 118.4 118.4 117.2 116.4 115.3 114.7 114.1 113.4 112.7 112 111.3 110.5 108.9 107.7 107.5 107.5 106.7 105.9 105.6 106 104.6 105.6 105.6 105.7 105.7 104.9 103.6 103.2 100.8 99.5 97.3 91 90.7 86.3 86.2
126.8 126.6 126.4 126.2 125.6 124.8 124.1 123.6 123.5 122.5 121.8 121.6 121.5 121.6 121.6 121.1 121.3 121.3 121.1 120.8 120.6 120.5 121.3 121.4 121.6 121.7 121.8 122 122.3 122.6 122.7 122.2 122.5 122.6 122 121.7 122.9 122.8 122.7 122.7 122.6 122.7 123 122.6 122.3 122.5 121.7 121.1 121.2 120.4 120.2 119 119.7 120 120.7 121 120.8 120.6 120.4 120.3 119.1 118.2 116.1 115.5 117.1 117.6 118.4 119 119.3 119.7 118.8 116.4 113.1 111.2 110.4 110.3 110.9 111.4 110.8 108.9 107.1 106 106.5 106.2 110.1 111.3 112.9 114.5 116.3 117.4 118.1 119.3 119.8 119.6 119.1 118.9 118.4 117.8 117.6 117.6 117 115.8 113.5 110.3 108.6 106.7 105.7 105.8 105.4 106.1 105.4 104.7 103.4 102.7 101.9 100.8 101.1 101.6 101 100.6 99.8 99.3 99.2 100.7 102.9 105 106.7 106.9 98.6 106.7 106.6 104 99.8 97.6 98.4 96.9 95.1 89.9 91.9 98.9 101.6 102.8 103.7 104.2 108.2 109.4 109.9 110 109.9 109.8 111.1 111.1 111.3 111.7 112.5 112.8 113.4 114.5 114.6 114.8 115.5 115.1 117.7 118.3 118.5 118.3 118 117.6 116.5 115.5 114.8 114.3 113.5 112.4 112.1 111.6 110.7 109.7 108.3 107 105.7 104.9 104 103.7 104.9 105.2 104.4 103.8 104.7 104.8 104.5 103.6 102.6 101.3 99 97.2 94.6 88.8 87.5 88.9
126.5 126.2 125.9 125.7 125.1 124.4 123.7 123.1 122.7 121.9 121.7 121.5 121.3 121.5 121.5 121.2 121 120.9 121 120.8 120.5 120.2 121.2 121.3 121.4 121.5 121.5 121.7 122.1 122.5 122.6 122.9 122.4 122.2 121.9 122.7 122.8 122.7 122.7 122.6 122.6 122.6 122.7 122.6 122.2 121.6 121.3 121.1 121.1 120.7 120 119.4 119.2 119.2 119.2 119.2 118.8 118.6 118.2 116.9 116.2 116.6 119.6 118.9 118.5 119 119.5 120 120.2 119.5 119.9 117.6 115.9 114.2 114.5 114.1 115.5 116.1 114.9 112.3 109.3 109 110.8 113 114.4 115.5 115.3 116.8 118.1 119.3 119.9 119.8 119.6 119.7 119.4 118.6 117.3 116.6 115.3 114.8 113.6 110 107.8 106.7 106 107.9 107.5 108.3 106.3 105.6 105.2 104.5 104 103.9 103.6 104.6 105.8 106.8 105.2 104.9 101.4 102.3 102.1 104.1 107.2 108.9 103.5 99.8 109.7 108.3 105.7 101.6 99.1 100.7 101.6 100.2 95.9 91.3 89.5 95.6 101.1 102.1 103.9 105.7 108.7 109.6 109.7 109.6 108.7 108.5 110.2 111 110.5 111.2 111.5 112.5 113.2 114.5 114.8 114.8 115.2 114.9 116.3 117.8 117.9 117.7 117.6 117.5 116.6 115.8 115.1 114.4 113.4 112.2 111.7 111.2 110.8 109 107.6 105.8 104.9 104.5 103.9 102.2 102.9 102.3 102.4 102.8 103.5 103.4 102.1 102.6 101.9 100.2 98.7 95.3 93 88.8 91.2 94.6
126.2 125.9 125.5 125.1 124.4 123.8 123.2 122.7 122.1 121.8 121.5 121.3 121.2 121.4 121.5 121.1 120.9 120.8 120.7 120.6 120.6 120.9 121 121.1 121.2 121.2 121.3 121.4 121.8 122.3 122.7 123.3 122.5 122 122.4 123.1 122.7 122.6 122.6 122.6 122.5 122.5 122.5 122.4 122.2 122 121.3 121.4 121.7 121.4 120.8 120.2 119.9 119.1 118.9 118.8 118.1 117.6 117.2 117.2 117.8 118.9 119.5 119.6 119.2 119.5 120.1 119.8 120 119.7 119.2 118.4 116.9 117.9 116.9 116.8 117.7 117.4 115.9 113.5 113.2 114.7 116 116.9 117.2 117.6 118 118.6 119.2 119.6 119.7 119.7 119.2 118.5 117.8 116.8 115.8 114.1 112.3 110.4 109.8 109.8 110.7 110.9 112.1 112.8 109.7 111.7 108.3 108.9 109.6 108.9 108.7 108.5 107 109.9 110 110.5 106.4 106.1 107.3 105.2 104.4 104.2 108 101.4 105.4 110.4 109 106.7 104.4 101.8 102.5 104.1 103.1 100.9 97.2 93.1 91.2 91.9 96.9 99.6 100.4 104.9 108.3 109.2 109.1 108.8 107.4 107.1 109 109.4 107.2 108.8 110.7 112 112.9 114.1 114.3 114.7 114.5 114.5 117.2 117.4 117.4 117.3 117.2 117.1 116.8 116 115.2 114.3 113.6 112.5 111.2 110.7 109.1 107.9 106.2 105.6 105.6 105.3 105.4 102.6 101.3 101.3 101.2 101.8 101.6 101.3 101.8 100.3 99 97.9 96.1 94.6 90.7 90.8 92.2 97.1
125.5 125.3 124.9 124.3 123.8 123.3 122.9 122.5 121.9 121.5 121.2 121.1 121 121.3 121.5 121.1 120.9 120.8 120.7 120.5 120.8 120.6 120.7 120.9 121 121.1 121.2 121.5 122.4 122.9 122.6 123.2 123 122.3 122.1 121.5 122.8 122.8 122.6 122.5 122.5 122.5 122.7 122.5 122.4 121.9 122 122.2 122.3 122 121.4 120.9 120.3 120 119.8 119.5 119.1 119.1 119.3 119.5 120.2 120.4 120.9 120.7 120.6 120.2 119.6 120.5 120.4 119.7 119.1 118.8 118.8 118.8 118.4 118.3 118.7 117.8 117.3 115.5 116.7 117.7 118.3 119 118.6 118.8 118.9 118.9 119 118.9 118.7 118.3 117.6 116.3 115.4 114.3 112.3 111.3 111.9 111.8 113 114.5 115.5 115.2 114.5 114.5 113 110.7 110.4 113 113.2 113.4 112.9 113 111.3 111.9 113.5 111.4 109.9 109.5 110.3 108.2 106.1 107.6 102.6 111.2 111.5 110.7 109.6 107.7 104.3 105.2 105.9 105.7 103.9 101.3 98.2 96.5 94 90 92.4 97.9 103.4 107 108.6 108.8 107.6 107.3 106.1 105.1 106.7 107.2 108 107.3 108.9 110.1 112.1 113 113.5 114.4 114.2 114.4 114.5 116.2 116.9 116.8 116.7 116.8 116.3 115.4 114.3 113.8 113.3 112.6 111.2 110 108 107.5 106.6 105.7 106.9 106.8 106.3 104.5 102.2 100.8 99 99.3 101 100.5 99.8 99.5 97.2 96.7 91.2 91.1 91.3 92.9 93.3 99.7
124.3 124.5 123.5 123.6 123.4 122.8 122.6 121.7 121.5 121.2 121 120.9 120.9 120.9 121.2 120.4 120.8 120.7 120.5 120.4 120.9 120.3 120.4 120.6 120.7 120.9 121 121.2 121.6 122.1 121.8 121.6 122.9 122.6 122 121.3 122.8 122.9 122.7 122.5 122.3 122.4 122.4 122.7 122.6 121.9 121.6 124.1 129.3 127.1 124.2 121.8 120.9 121.6 121.9 122.7 123.8 126.4 126.8 124.6 120.3 119.3 120.3 121.2 120.5 120.1 119.8 118.8 120.6 119.5 119.1 119 118.8 118.8 118.4 119.3 119.4 119.1 118.9 118.1 118.3 118.4 118.4 118.4 118.5 118.2 118.3 118.2 116.9 116.8 115.4 115 114.2 112.8 112.5 112.6 112.9 113.7 114.5 115 115.8 116.2 116.9 116.2 115.5 114.8 112.6 111.7 112.5 114.9 114.7 116.3 115.7 115.5 113.8 114.1 114.8 113.4 113.5 114 111.4 109.3 106.7 104 110.6 112 112.6 111.7 110.1 108 105.8 108.8 107.9 106.1 103.8 101.6 100 98 94.4 91.1 92.6 99.1 105 107.7 108.4 107.8 106.1 104.1 103.7 103.8 104.3 106.5 107.4 108.6 109.5 109.5 110.1 111.3 112.4 112.9 113.7 114.3 114.9 115.1 116.4 116.4 116.5 116.5 115.8 115.2 115 114 113.7 112.7 111.7 109.3 109.3 108.4 107 106.9 107.7 107.5 106.6 104.8 103.1 100.7 99.4 98.3 98 97.5 97.7 95.8 94.6 92.1 92.4 94.2 94.5 93.6 100.3 101.8
122.2 122.6 122.6 122.2 122.9 122.6 121.4 121.3 121.1 120.8 120.5 121 121.2 121.5 121.2 120.8 120.7 120.5 120.4 120.6 120 120.4 120.2 120.3 120.5 120.7 120.9 121 121.2 121.4 121.1 121.6 122.2 121.6 122.4 122 122 122.6 122.5 121.1 121.2 121.4 122.2 122.4 122.5 122 122 122.2 132.5 134.3 133.4 117.2 118.8 124.6 127.2 129.4 132.6 135.6 135.5 133.5 128.8 121.7 119.5 120.7 120.4 120.1 119.4 119.4 119.3 118.2 119.5 119 118.9 118.9 119.2 119.5 119.4 119.2 119.4 119.1 118.4 118.5 118.4 117.8 117.2 116.5 116.2 115.6 115.4 113.1 113.9 113.8 113.8 114.3 114.7 114.2 114.3 115.3 116.1 116.8 117.2 117.7 117.5 117.1 115.7 113.2 112.1 112.2 114.1 116 116.4 117 116.2 116.8 116.8 115.9 116.5 115.7 115.6 115.7 114.5 106 110.7 113.9 113.2 113.8 113.6 112.2 110.2 107.1 108.6 109.2 108 105.6 103.2 101.1 99.9 97.1 93.9 91.2 92.7 99.8 104.6 106.7 107.2 106.8 105.4 102.3 102 103.2 104.8 107.4 109.5 110.8 110.1 111.6 112.5 113.1 112.5 112.7 113.4 114.1 114.9 115.6 116.8 117 116.6 116 115.4 114.8 114.7 114.1 113.2 112.3 111.7 110.5 109.4 107.9 108 108.8 109.1 108.4 106.9 104.7 102.4 100.4 98.2 97.1 97.2 96.8 95.3 96.2 98.9 95.4 95.9 95.4 96.8 100.1 102.9 103.6
