ncols 200
nrows 82
xllcorner 370000
yllcorner 410550
cellsize 50
180 177.4 174.7 172.2 168.4 166.1 167.7 165.1 165.5 167.9 161.7 155.4 154.9 167.2 164.2 171.5 178.7 178.8 174.7 173.9 177.6 180.8 185.4 191 193.2 194.4 197.6 201.8 210.1 213.4 215.6 218.2 219.7 221.6 221.5 219.6 219.7 220.3 220.9 222.3 222.8 222.5 223.3 225.6 228.8 225.9 218.1 200.4 214.2 220.9 216.3 208.3 198.5 182.1 173.7 182.8 188.4 185.7 181.3 168.4 164.8 154.2 149.3 143.8 140.4 138.1 131.5 131.5 131.5 131.5 131.5 131.5 134 144.6 158.4 161.2 162.2 163.6 165.1 164.8 164.9 166.9 168.7 170.8 172.2 172.6 170.1 174.7 174.1 181.7 186.3 190.1 193.3 196.9 200.7 203.6 207.8 212.4 217.1 221.1 225.7 228.8 231.3 232.6 233.3 232.4 231 230.3 228.3 226.6 224.3 220.4 215.3 209.8 203.5 195.5 184.7 172.2 167.1 162.7 162.8 159.3 160.4 161.6 161.7 160.2 159.2 156.1 156.4 157 157.3 158.4 164.5 171.4 172.5 173.6 173.8 174.1 174.9 172.2 168.3 167.1 164.6 163.9 162.4 159.5 151 163.1 163.4 163.7 163.5 160.9 159.8 158.4 158.5 157.3 155.5 151.9 147 144.8 143.4 142.4 141.6 140.6 140.5 140.4 140 139.4 137.8 136.9 135.4 134.6 131.3 128.9 125.8 128.4 124.2 116.8 118.8 107 103 99.3 99.8 100.2 98.7 98.4 99.1 111.2 109.7 129.5 132.3 135.2 139.2 143.5 144.9 146.9 149.3 152.4 153.5 155.3
182.8 181.9 181.5 179.3 177.4 176.8 176.8 176.3 175.9 175.3 172 164.5 154.7 158.3 159.3 165.2 173.2 177.6 174.3 172.4 175.5 177.2 180.4 182.9 185.7 188.9 191.5 194.8 203.6 212.4 213.2 214.8 210.8 211.1 210.2 220 219.2 219.4 220.4 222.1 223.7 227.8 234.5 237.7 235.9 233.1 230.4 213.4 197.4 197.3 194.2 192.5 185.6 179.4 183.3 190.6 188 185.8 181 173.7 164.6 164.8 152.7 145 139.6 136.9 135.5 131.5 131.5 131.5 131.5 132.4 134.3 146.7 160.4 161.5 162.1 162.3 162.9 162.2 162.2 163.7 165.1 166.6 167 165.4 170.7 173.8 175.8 174.8 181.4 187.1 192.4 196.2 200.6 204.1 208.5 212.4 216.4 220.2 225.2 228.2 231.2 233.2 233 233.8 232.6 231.4 229.3 226.7 224.4 219.3 214.8 209.3 203.5 193.1 193.1 183.1 168.9 163.5 162.4 159.5 158.8 157 155.6 156 155.1 154.1 153.7 153.6 153.3 152.9 156.7 164.3 167.9 170.9 171.7 171.9 173.3 171.3 168 167 163.1 161.8 159.3 156 148.9 161.1 161.3 162 162.2 160.8 159.7 158.6 157.6 156.2 154.4 151.9 146 144 142.5 141 140.3 139.4 138.7 138.7 138.4 137.5 136.6 136 135.9 135.3 135.1 134.3 131.9 130.2 127 116.3 114 108.3 103.1 102.8 102.8 102.2 102.3 102.3 102 98.2 109.4 128.5 131.3 134.3 137.8 140.7 142.9 144.7 147.5 150.2 151.2 153.5
184.7 185.4 185.2 182.6 182.8 182.3 181.7 181.4 180 181.2 177.4 172.1 157.9 152.6 156.6 155.7 167.8 170.8 173.2 170.2 172.6 173.9 175.7 177.1 180.9 183.4 185.3 190.6 195.9 206.6 210.4 212.2 213.6 210.4 195.5 194.5 209.5 214.2 220.2 221.5 223.4 226.2 229.9 232.5 231.6 229.7 227.8 225.3 215.8 199.4 206 204.9 201.1 198.1 195.7 190.8 187.3 182.8 178.7 172.7 169.5 161.7 153.7 145.9 138.5 134.4 131.5 131.5 131.5 131.5 131.5 131.5 136.3 149.6 159.4 161 161.1 161.2 160 157.9 158.9 160.1 159.3 161.3 160.8 167.9 173.1 175.5 179.3 182.3 181.9 189.5 192.7 197.4 202.4 205.8 208.6 212.4 216.3 220.3 224 227.4 231.3 234.5 236.2 236.2 235.3 233.7 230.9 227.3 224.8 220.2 216.7 210.5 206 203.6 199 185.1 182 169.8 169 163.6 162.9 160.1 155.4 154.4 153.6 152.7 152.5 152 151.5 151.6 152.2 157.7 165.2 172.1 170.5 172.1 172.9 170.3 168.2 166.5 163.4 157.1 157.4 155.3 150 159.9 160.2 159.7 160.2 160.4 160.4 159.4 156.5 155.1 154 152.2 145.8 143 141.3 139.9 139.4 138.6 138.3 137.2 136.1 136 135.7 136 136.1 136.3 135.9 135.5 133.9 131.5 128.4 125.7 120.5 112.3 103.3 102.8 102 101.5 101.5 101.2 100.8 97.3 108.9 126.7 130 132.1 135.3 138.4 140.6 142.1 143.7 146.6 148.4 150.9
186.2 186.9 186.8 186.5 187.4 188.1 188.2 187.5 185.8 181.6 180.8 174.4 164.4 152.5 151.7 152.4 165.8 172 176.2 170.7 166.9 172 171.9 174.3 173.2 175.9 180.3 185.1 189 195.3 206.6 199.6 211.7 214.6 194.7 196.1 191.8 192.5 217.3 219.3 221.8 223.3 225.4 226.6 226.2 225 223.7 221.9 217.2 208.3 208.9 206.9 203.2 199.7 194 189.6 186.7 185.1 182.8 177.3 169.1 162.8 151 143.8 137.4 132.2 131.5 131.5 131.5 131.5 131.5 131.5 138.1 150.5 157.6 160.1 160.5 160.3 157.8 154 153 155.2 157 163.7 167 168.8 173.5 177.1 181.6 184.7 188 191 194.9 198.7 203.3 206.7 209.8 212.8 216.2 220.6 223.9 227.9 231.9 235.4 238.5 238.6 237.1 235.7 232 227.9 225.1 220 216.9 212.6 210.3 207.3 202.3 198.8 192.7 184.6 179 172 169.9 166.4 164.6 161.3 158 155.5 150.9 150.8 150.4 150.6 151.1 153.2 160.3 167.1 171.1 173.1 169.8 167.6 166.9 164.3 160.4 158.9 156.3 153.4 146.1 155.6 157.4 156.1 157.7 158.6 159 158.1 156.1 153.6 152.5 149.8 146.9 143.3 140.6 139.5 139.1 137.4 136.1 135.9 135.1 134.7 135.2 135.4 135.5 136 136.3 136.1 135 132.4 130.3 126.9 121.4 117.7 108.2 105.4 101.9 101.5 100.7 104.3 100.7 104.2 107.7 120.4 127.5 130.3 133.4 136.7 137.4 139.3 140.5 142.6 145.9 149.3
187 187.1 186.2 186.6 187.9 189.4 190.6 188.8 186.7 183 179.2 173.7 163.9 152.7 150.7 151 163.8 170.1 178.6 175 169.1 166.3 168.7 170.1 169.8 171.7 174.9 178.6 182.8 188.2 192.9 199.1 207.7 210.5 201.4 197.1 191 190.8 206.6 217.1 219.4 221.6 221.4 220.9 220.6 220.3 219.3 217.5 213.3 208.3 209.8 206.8 202.7 197 193.5 190.2 189.7 187.2 183.9 179.7 170.9 162.8 152.9 144.6 137.7 131.8 131.5 131.5 131.5 131.5 131.5 132.3 139.1 151.7 154.7 154.6 153.6 151.9 150.2 148.6 158.3 161.5 164.7 168.1 170.4 172.3 175.4 180 183.7 186.8 190.3 194 197.4 201 203.3 205.4 210.8 213.8 216.6 220.5 224.7 228.7 233.3 237.6 241 241.2 239.4 237.3 234 230 226.1 221.3 218.1 215.7 213.5 210.4 205.4 203.8 200.4 196.1 195.7 188.5 181.3 176.6 172.9 168 162.6 160.4 158.1 153.1 149.6 149.9 150.3 151.3 158.7 169 172.2 172.7 169.4 168.8 167.6 163 158.5 156.9 157.3 157.2 156.7 146.5 152.1 152.2 155.1 156.2 155.6 155.7 155 152.3 150.6 149.1 146.6 141.1 140.2 140.6 140 137.6 135.9 135.3 134.4 133.6 134 135.1 135.1 135.6 136 136.1 135.7 131.7 129.1 126.3 122.2 118.6 117.9 115.5 111.7 107.6 104.7 109.4 110.7 101.3 104.8 110.6 125.5 128.5 130.9 133 134.6 135.2 135.6 140.9 144.3 147.5
186.1 185.7 185.5 186.1 187.5 189.8 189.6 186.8 185.6 181.8 181.8 172.4 169.4 156.6 149.4 150.9 154 166.8 178.5 177.3 170.9 165.6 166.8 166.7 165.7 168.1 170 172.9 176.6 181.7 185.7 188.6 199.4 203.1 198.2 194.9 190.8 196 212.4 215.6 216.3 218.1 218 217.3 216.7 216 215.2 212.8 208.9 209.9 209.7 205.6 201.1 200.6 197.6 194.4 191.7 188.4 185 179.8 177.3 170.7 161.6 149.8 141.8 131.9 131.5 131.5 131.5 131.5 131.5 131.5 137.6 144 144.7 141.9 141.9 142.4 153.1 157.6 160.8 164.6 167.3 170.5 174 177.4 176.4 182 186.1 188.8 192 195.2 199.2 201.1 206.7 209.6 212.3 215.6 218.6 222.4 226.7 230.3 234.7 239.6 243 243.6 241.8 240.2 236.2 231.8 227 222.4 220 218 215.5 211.5 210.3 208.1 205.6 203.3 200.8 195.9 194.2 188.6 187.9 179.4 172.9 168.7 161.6 153.3 148.8 149.2 149.9 152.8 159.7 168.3 171.4 170.6 169.4 169.8 167.8 163.7 159.6 157.8 154.8 155.4 154.7 152.3 145.3 147.8 150.8 153.3 155.2 152.6 152.6 150.9 149.9 148.1 143.2 140.6 141.1 140.8 139.8 138.2 135.9 135.3 134.5 132.8 133.6 134.3 134.8 135.2 135.5 135.2 133.7 132.1 130.1 128.2 122.9 118.5 118.6 120.9 122.9 117.8 113.3 114.2 112.5 108 99.8 103.2 115.1 125.8 127.9 130.4 130.9 134.3 136.5 138.8 142.6 146.2
183.6 184.4 184.1 184.1 186.8 189.1 188.2 186 183.8 180.4 176.5 175 171.8 159.3 150.3 144 147.4 147 170.9 175.3 172 169.3 163.1 163.9 165.6 165.2 166.7 167.6 169.7 172.5 175.3 179.2 187.6 194.7 196.2 186.6 188.6 207.2 208.2 211.4 214.5 215.3 214.4 213.7 212.8 212.1 211.6 209.1 208.4 209.7 208.7 207 205.1 202.5 199 196.1 192.6 189.5 186.1 182.9 180.6 177.6 162.9 156.7 143.8 131.9 131.5 131.5 131.5 131.5 131.5 131.5 133.8 133.4 131.2 141 151 154.4 157.6 160.2 162.9 166.7 170.4 174.6 177.9 181.6 183.7 182.1 187.2 190.8 193.8 197.9 202.4 206.1 209.9 212.7 215.3 219 222.2 225.9 229.8 233.4 236.8 242.3 245.1 245.8 244.7 243.7 240.3 234.1 229.5 225.8 222.8 218.4 218.2 215.4 211.8 212.5 210.8 208.8 206.6 201.9 198.7 197.1 191.3 181 171.7 165.6 157.4 148.5 148.3 148.8 150.5 158 168.7 172.2 171.6 171.3 170.1 168.3 165.8 162.4 161.9 158.3 152.6 153 152.2 149.9 143.8 145.1 149.6 150.7 150.5 151.2 150.9 150.5 148.4 146.4 141.7 142.4 141.8 140.6 139.4 137.8 136.6 135.8 135 134 133.1 133.2 134.2 135 135.4 135.2 134.3 132.1 130.4 127.9 124.5 119.2 115.7 119.3 121.4 123.5 121.3 114.8 110.7 108.4 106.7 102.7 105.2 121.5 124.7 126.4 130.7 134.3 137.2 140.2 143.3 145.7
178.3 179.7 181.1 183 185.7 187.7 187.3 186.6 185.4 180.8 175.7 172.8 173 168.5 158.3 143.5 147.9 141.2 163.5 171.3 175.1 168.3 163.3 161.1 161.6 162.8 164.1 164.2 164.6 166.3 169.7 171 172.4 183 190.8 196.1 200.2 201.1 203.3 207.5 209.8 212.2 211.9 211.8 210.9 210.1 209.4 209 210.5 212.2 211.4 210.4 207.4 203.4 200.3 197.2 193.6 190 187.4 185.4 185.2 178.7 168.9 160.6 146.1 133.5 131.5 131.5 131.5 131.5 131.5 131.5 131.5 134.2 140.8 149.6 153.6 157.4 160.3 161.9 164.7 168.9 173.3 176.9 180.4 184.5 186.8 187.7 188.6 191.4 194.7 199.6 204.1 208 211.9 215.1 218.6 222.6 226.9 230.8 234 236.9 240.8 244.9 247.4 248.4 247.8 246.7 244 237.8 230.4 226.8 225.4 222.9 220.6 218.9 217.3 215.5 215.3 214.6 210.8 207.1 204.8 200.1 193.8 186.8 167.3 155 150.9 147.6 147.5 152.5 158.1 167.3 175.8 176.1 175.1 172.6 169.3 167 164.9 161 157.7 156.7 153 151.3 148 146.2 144.1 139.6 148.2 148.1 148.7 149.1 148.6 149.3 147.8 144.9 141.7 141.5 141.4 140.4 139.6 138.9 138.5 137.1 135.8 134.4 132.8 132.7 132.8 134.6 135.3 134.9 133.5 132.1 130.5 128.8 126.2 122.8 116.8 114.1 117.4 120.4 120.7 112.7 110 108 107.5 105.3 95.6 111.6 120.7 126.6 129.9 133.7 138.8 139.1 142.1 146.1
171.1 171.7 178 180.8 185 186.4 185.3 186.5 187.3 180.8 174.2 171.5 171.4 169.8 164.8 159.7 147.7 143.8 159.9 167.6 172.3 171 163.1 161.7 156.3 159.3 160.4 160 159.8 164.2 166.2 168.2 170 174.1 180.5 186.5 191.8 191.8 199.2 202.4 206.9 208.8 209.8 209.8 209.7 208.8 208.3 209.8 212.9 214.4 213.3 210.9 207.8 204.4 201.1 198 194.5 191.1 188.1 184.2 180.9 177.4 171.2 159.3 150.7 137.3 133.9 131.5 131.5 131.5 131.5 131.5 131.5 136.3 145.3 150.9 155.2 159.2 162.2 164.3 167.3 171.7 176.1 179.7 183.3 186.4 188.7 190 191.6 193.9 197.1 201.6 206.5 210.2 214.1 218.2 222.7 226.9 231 235.1 238 240.9 244.4 247.6 249.8 250.3 249.5 247.9 245.9 241.9 238.7 232.9 228.7 226.1 223.1 222 220 218.5 218.4 217.2 214.8 211.8 208.1 203.3 197 190 172.7 160.1 151.3 147.3 150.9 162.9 166.7 175.8 178.3 177.8 175.2 172.9 169.1 166.2 163.9 161.7 156.6 153.2 149.8 148.1 145.1 146.5 145.8 140.8 145.5 144.6 145.6 147.3 147.9 146.4 143.2 143.9 141.7 141.5 141.3 140.8 141.2 140.6 140 138.6 137.4 134.3 132.8 131.1 132.9 133.7 135.1 135 134 132.5 130.5 129.4 127.9 126.6 123.2 117.5 112.9 111.8 118.2 112.9 108.7 107.7 107 105.3 96.2 107.6 116.8 123 127.2 132.2 136.5 138.2 141.8 145.7
174.3 169.8 171.1 178.4 183.2 185 185.6 185.5 187 179.3 173.8 170.3 167 166.4 165 159.6 147.7 141.6 153.2 163.1 170.3 167.6 165 161.2 157.9 156.7 156.4 154.9 157.1 162 164 165.2 167 168.8 171.6 181.5 190.5 191.2 194.8 197.9 202.6 205.9 207.2 208 209.3 208.8 207.6 211 213.9 213.6 212.7 209.5 206.7 203.7 201.4 198.1 195 191.6 188.5 182.2 177.8 175.6 172.5 162.5 158.1 142.1 137.7 131.5 131.5 131.5 131.5 131.5 131.5 136.3 147.4 153.7 158.9 162 164.3 166.7 170.6 174.4 178.1 181 184.5 187.6 189.8 191.5 193.8 196 199.4 204 208.6 212.4 216.7 221.1 225.6 229.9 233.6 237.3 240.9 244.3 246.8 248.8 250.8 251 249.4 248.3 247.4 244.6 239.3 236.5 233.4 230.1 227.4 225.8 224.6 221 220.3 219.4 217.5 214.3 210.5 204.9 200.6 195.1 187.4 171.5 152.1 146.8 152.8 165 176.4 178.5 177.4 175.9 174.2 171.5 168.1 166.8 164.7 159.2 156.2 152.8 147.1 143.8 140.8 143.3 143.1 137.7 143.2 142.3 144.7 147 146.7 144.5 142.5 143.2 141.7 141.7 141.5 141.5 141.7 141.6 140.6 138.9 135.8 135 133.5 131 132.6 133.5 134.7 134.9 133.8 132.4 130.6 130.1 129.1 127.8 125.7 122.7 119.7 110.5 109.9 110.3 109.8 106.7 107.3 105.4 98.4 105.9 113 119.9 125.7 130.6 133.1 135 140.4 144.7
175.1 172.3 163 174.4 177.7 180.7 184.3 182.9 182.7 177.9 173.2 169.6 166.6 162.4 160.7 158.9 148.8 135 147.9 158 166.6 165.1 163.5 161.9 160.2 155 154.4 152.9 159.5 160.5 161.7 162.5 164.2 166.1 169.2 172.8 183.3 184.4 190.2 194.4 199 202.4 204.3 205.1 206.7 204.7 204.3 209.8 210.4 211.4 210.7 207.6 205.4 202.8 199.8 196.8 194 189.9 186.9 180.7 159.3 160.3 167.5 167.1 162.1 146.7 137.9 131.5 131.5 131.5 131.5 131.5 131.5 142.2 151.4 157.5 162.1 166.2 166.4 168.2 171.1 174.5 177.9 181.4 184.6 187.9 190.7 192.7 195.1 196.8 200.6 205.6 210.4 214.4 219 223.2 227.4 231.6 235.7 239.3 242.7 245.9 249 251.1 252.5 252.9 251.3 250.4 249.2 246.7 243.5 240.2 236.5 234.5 231.8 230.3 227.1 225.7 223.9 222.8 220.3 216.6 212.5 209.2 206.7 201.1 193.3 178.9 159.3 147.3 146.4 163.1 174.6 170.5 167.8 165.4 164.5 162.7 161 160.9 161.2 157.8 155.8 152.3 149 142.6 138.8 138.9 137.6 140.4 141 142.4 144.9 146.5 144.7 143 141.9 141.7 141.6 142.5 142.1 141.7 141.6 141.8 139.9 138.5 135.9 134.4 132.4 130.6 133.1 132.8 133.1 133.8 133.1 131.5 131.8 131.1 129.7 128.4 126.1 124.8 122.6 118.7 112.4 107.5 106.6 107.2 107.6 103.8 98 105.5 113.4 113 120.1 129.2 132.4 135.7 138.6 141.8
175.2 171.8 169.8 167.1 171.3 172.8 174.7 176.3 182.3 178.2 172.4 169.1 165.7 161.1 157.4 154 147.4 138.6 142.1 149.9 153 159.1 161.7 160.7 159.7 156.5 152.8 152.2 157.6 158.9 159.7 160.5 161.5 163 166 169.5 175.6 180.2 185.3 190.3 195 198.1 199.8 200.8 201.6 199.3 202.2 207.3 206.9 208.6 207.9 206.4 204 200.5 195.8 191.5 189.3 187.1 184.6 182.4 166.6 160.7 160.3 159.6 157.8 141.1 136.7 131.5 131.5 131.5 131.5 131.5 135.6 147.2 152.9 158.7 165.4 167.1 168 169.5 171.4 174.2 177.1 180.7 184.6 188.2 191.6 194 196.7 199.1 202.7 207.1 212.2 217.5 221.2 225.2 229.3 234 238.2 242 245.5 249.4 253 256.1 256.8 256.5 254.8 253.5 252.2 250.2 247.2 243.5 240.8 239.4 237 235.6 233 230.1 228 225.6 222.5 218.9 214.1 212.7 209.6 205 197.7 188.1 171.1 150.7 146.4 160.9 164.1 162.5 159.9 157.2 154.9 153.4 152.7 152.7 152.3 151 151.4 148.3 146 142.5 137.4 137.6 137.3 138.8 139 141.1 143.2 143.3 141.5 141.7 141.5 142.4 142 141.6 141.6 141.8 141.4 139.7 137.9 135.2 134 132.8 130.4 131.4 132.3 133 132 131.8 132.3 132.6 132.4 131.2 129.9 128.6 128.2 126.8 124.5 120.5 116.1 111.7 108.7 104.3 103.2 102.2 97.9 105.1 108.8 113 125.1 129 131.6 134 135.5 136.6
176.5 173.5 169.7 162.7 161.3 165.9 167 170 172.1 175.3 172.5 169.2 165.5 161 156.4 150.6 143.1 137.3 134 140.1 146.3 152.9 159.3 159.1 158.1 154.1 151.9 145.8 152.4 157.7 158.2 159 159.8 161.6 164.1 167.4 171.6 175.7 181.7 184.4 189.4 193.6 194.6 196 196.5 197.1 199.3 202.3 204.4 204.7 204.6 203.2 201.4 196.9 193.6 191.3 190.4 188.4 186.2 182.5 177.8 172.2 164.4 159.9 157.5 151.8 138.5 135.4 131.5 131.5 131.5 131.5 142.8 148.4 154.2 160.8 164.6 168.7 169.5 169.9 171.6 173.6 176.6 180.4 184.5 188.5 191.9 194.4 197.5 200.9 204.9 209 213.4 217.8 222.5 226.5 231.1 236.9 243.1 247.1 251.6 256.6 259.5 262.2 264.7 263.5 262.9 260.9 258.5 255.4 251.9 248.6 245.8 243.2 241.7 237.6 237.5 235.6 232.8 229.6 225.8 221.9 219.2 217 213 207.6 201.6 193 177.3 165.4 146.9 145.1 150.6 153.4 151.8 150.2 147.4 144.9 142.6 141.4 142.3 144.1 143.4 142.5 141.4 138.1 137 136.7 135.4 137.7 139 140.7 141.7 141.8 141.9 141 140.4 141.6 141.1 140.5 140.9 139.3 138.2 135.4 134.3 133 132 131.8 130.9 130.8 132.2 131.6 131.2 131.2 132.5 132.7 132.2 132 132 130.3 129.6 128.3 126 122.6 118.8 113.3 105.1 102.7 102.7 101.8 96.9 104.4 106.1 113.7 122.5 126.5 129.7 131.5 132.6 132.8
178.1 176.1 175 177.9 169.7 162.6 155.2 162.2 166 170.1 171.6 168.7 165.5 161.6 156.6 144.8 139.8 136 127.7 134.4 137.5 144 154.7 157.6 155.6 150.2 145.7 147.6 154.5 155 157.1 157.8 158.4 160.4 162.7 165.5 169.3 176 177.8 179 182 187 189.7 190.9 192 194.3 197.2 200.1 200.8 201.6 201.3 200.6 200.5 200.9 196.9 194.2 192 188.2 184.9 181.9 176.5 171.5 166.6 160.6 156.4 151.1 146.4 134.3 131.5 131.5 131.5 135.8 143.3 148.8 155 161.9 166.3 167.7 168.8 169.6 170.8 173.1 176.1 180.3 184.8 188.9 192.1 194.5 197.9 201.4 205.5 209.1 214 219.2 223.9 228.7 234.7 241.1 247 251.4 255.4 258.7 261.2 264.4 267.6 268.8 268.2 267.4 265.4 262.3 258.7 254.4 252 249.5 246.3 244.3 241.7 239.2 236.5 232.8 228.6 225.3 223 220 216.6 210.8 204.4 199.9 192.1 180.6 165 146.9 142.4 142.1 141.1 140.7 140 139.2 138.4 137.9 136.9 136.5 136.9 137.2 137.4 136.1 136.1 135.9 134.7 137 138.8 140.3 140.9 140.9 141 140.9 139.3 138 138.7 137.4 137.4 136.7 136.7 136.6 135.3 132.2 130.8 130.8 129.2 129.6 131 131 131.2 131.5 132.8 132.9 132.9 133.2 133.2 133.7 132.9 130.9 129.5 125.8 122.5 109.8 102 102.3 102.1 98.4 94.6 103.9 105.8 114.6 116.7 124.1 127.4 129.2 130 130.2
180.1 179.4 180.2 179 174 169.2 165.9 156.7 158.5 163.2 165.2 165.7 165.4 162.7 156.2 141.3 137.2 132.1 127 130.6 134.2 138.9 143.1 155.2 152.9 146.9 141.5 151.4 153.5 154.8 155.9 156.8 158.3 159.4 161.6 164 167.3 169.3 173.8 176 177.7 180.4 181.3 184.8 189.2 191.7 194.3 195.8 198.6 199.2 200 200.4 200.4 198.8 197.3 194.8 191.3 187 184.6 180 176.5 171.5 166.3 162.7 155.6 149.7 145.2 134 131.5 131.5 131.5 137.7 143.9 148.6 154.5 158.9 162.9 165.8 166.3 168.1 170.1 172.5 176.3 180.5 185.2 187.4 191.5 194.3 197.7 202.1 205.7 210.3 215.3 220.6 225.1 230.9 237.4 241.8 244.8 250.5 255.2 258.3 260.7 263.2 265.2 266.6 267.7 267.6 267.3 265.9 262.9 261.4 258.7 256.2 252.7 250.3 247.3 244.4 240.7 236.1 231.6 229.2 226.9 223.8 219.2 215.3 208.6 203.1 196.7 190.3 178.4 170.1 160.5 151.3 144.9 141.4 141.7 141 140.3 139.1 137.4 136.3 135.1 135.1 135 134.4 134.4 134.4 133.2 135.6 136.3 138.8 140.1 140 140.1 140.5 139 138.2 137.7 137.4 137.1 136.2 135.8 135.3 134.6 133.5 131.8 130.8 129.9 130.2 130.8 130.9 131.1 131.3 132.8 133.3 133.4 134.6 135.6 135.7 134.4 132.8 130.8 128.1 117.3 106.5 102 101.9 98.7 96.9 102.8 103.1 105.2 110.1 113.1 120.7 125 126.5 127.2 127.8
179.8 180.3 179.8 181 180.7 171.9 168.7 163.2 152.8 153.8 158.5 162.9 164.7 163.6 162.5 141.9 135.4 130.9 127.2 128.7 132.2 137 144.7 151.6 145.9 138.4 148.9 154.1 154.7 155.1 155.7 156.7 158 158.9 159.9 162.4 163.5 166.6 169.9 172 174.2 176.4 181.6 182 186.5 188.3 191.3 193.7 195.9 197.3 197.6 198.9 199 197.4 195.8 193.7 189.8 185.7 183.2 178.2 174.3 169.5 163.6 160.6 152.5 148.2 145.1 141.2 131.5 131.5 133.4 134.6 141.4 147.9 151.9 154.9 157.7 160.6 163 166 169.2 172.8 176.2 180 181 185.2 191.8 194.8 198.3 202.3 206.7 211.5 216.1 222 226.8 232.3 235 238.8 244.8 249.1 252.3 255.1 258.1 260.7 263 265.1 266.1 267.1 266.8 266.3 265.5 264.9 264.4 259.9 259.1 256.6 254.8 251.4 246.4 241.1 236.7 233.2 230.6 227.7 222.5 219.6 214.5 208.1 202.3 195.4 190.3 182.8 175.8 170.8 163.7 157.6 151.3 149.1 146.1 144.6 142.6 140.5 138.9 137.7 134.5 133.7 133.7 133.3 132.8 134.1 134.3 136.7 138.6 139.6 139.9 139.2 138.4 138 138.3 137.3 136.4 135.8 136.9 135.8 134.7 134.1 134.1 132.6 131.6 130.8 131.8 131.9 132 132.3 133.2 133.6 134.2 136 137 137.1 135.5 133.5 131.5 121.2 110 100.8 101.3 99.1 97 94.6 100.5 101.7 104.7 108.1 111.4 111.4 121.5 123.5 124.4 124.6
178.3 177.9 177.1 176.9 180.7 178.7 173.8 166.6 163.1 153.9 145.2 156.4 163.9 162.9 160.8 149.2 139.5 131.5 128.1 127.8 131.3 136.7 144.6 143.9 140 144.4 154.1 154.8 154.8 154.7 154.8 156.6 157.5 158.3 158.7 161 162.4 164.6 167.6 169.9 174 176.8 179.2 180.7 182.6 183.2 186.3 188.7 190.7 193 193.4 196 196.3 194.6 192.6 190.9 186.9 183.5 178.9 175.2 170.5 168.1 162.2 158.9 150.6 147.6 144.8 139.7 131.9 121.2 118.3 125 139 144.9 149.2 151.4 153.2 157.5 161.5 165.5 169.9 172 176.2 180.1 183.1 188.9 192.3 195.7 199.2 203.3 208.1 212.8 217.3 223.1 226.1 227.5 233.6 238.4 236.5 243.9 249.3 254.1 257.8 261 264.3 266.5 268 267.9 268 267.6 266.5 266.2 265.3 265.1 263.8 261.7 258.8 256.7 253.4 247.7 242.8 238.5 234 231 221.6 223 221.7 217.6 209.6 203.1 198.3 193.2 187 180 174.4 167.9 160.1 157 152.6 149.8 146.3 144.5 142.7 138.7 134.9 133.5 133.5 132.7 132.8 134.1 132.8 133.3 136.3 138.4 139.1 138.8 138.7 138.3 137.6 135.7 135 135.6 136.2 135.5 134.9 134.2 134.6 132.8 132 131.5 132.4 133 132.8 133.3 133.8 134.1 135 136.6 138 137.6 135.9 132.6 126.7 111.5 102.4 100.4 96.2 96.7 95 98.6 98.8 99.1 104.4 104.1 106.7 109 116 116.4 116.5 118.3
178.5 175.6 175.2 176.7 177.2 176.9 171.8 169.6 165.7 160.6 153.2 144.7 154 160.8 160.4 152.6 139.7 130 128 126.4 129.2 135.4 140.4 140.5 143.5 150.1 153.7 155.1 155.1 154.8 154.2 155.6 156.2 156.7 156.9 158.9 160.5 162.3 165.6 169.5 172.2 174.2 175.6 175.7 175.6 177.4 178.3 180 182.1 185.4 189.2 190.8 191.5 190.5 188 187.5 184.1 180 175.4 171.7 166.7 164.7 160 155.2 150.2 146.8 143.8 139.9 134 117.3 115.4 120.9 135.8 141.1 143.9 146.1 152.7 157.5 161.7 165.6 170.1 173.9 177.7 181.1 185 189.9 193.8 196.5 200.1 204.1 209 213.6 217.7 221.9 224 224.4 226 233.8 240.6 245.1 249.4 254.6 259.2 262.6 266.3 269.4 270.9 270.6 270.4 270.1 268.5 267 265.8 264.9 264.3 263.2 261.2 259.2 257.3 253.9 248.4 241.7 238.7 236.4 234.8 232.9 228.4 218.1 219.8 212.7 205.5 200.2 195.8 190.8 184.4 177.1 171.3 165.8 162.6 158.6 152.7 150.9 148.8 146.1 143.5 142.4 140.7 140.1 142.3 137.8 132.5 132.1 131.8 131.5 137.6 137.9 137.2 137 136.5 135.6 132.4 134.9 134.7 134.5 134 133.8 132 129.7 131.4 132.4 133.4 133.4 133.6 133.9 134.6 134.9 135.7 137.4 138.4 137.5 135.7 133.4 119.9 106.6 100.9 99.4 96.6 93.5 97.2 98.3 98.5 99 104 102.6 104.6 106.8 107.6 107.4 108.8 119.1
179.3 176.5 172.8 175.8 173.5 172.2 169.7 167.9 165.2 162.1 157.9 153 139.7 148.6 157.2 153.2 139.1 130 128.8 125.7 128.3 129.5 133.1 142.1 145.5 149.8 152.4 154.1 154.8 154.9 154.4 152.6 154.1 154.9 155.3 155.1 157.9 160.3 163.8 166.4 168.7 167.9 169.1 168.3 169.5 169 173.6 172 174 177.9 180.2 183.5 183.1 183.9 183.5 182.6 177.9 175.9 171.4 167.6 164.4 161.3 157.5 153.6 150.1 145.7 142.8 139.3 130.2 118.4 108.9 118.6 121.7 137.8 142.3 147.3 152.4 157.3 161.9 166.8 172.3 176.1 179.1 182.2 186.2 190.9 194.6 197.4 201.1 204.2 207.6 212.7 215.9 216.6 217.2 222.8 228.2 234 239.3 243.8 248.8 253.5 257.8 261.6 265.8 269.4 271.2 271.9 272.8 272.3 270.7 268.3 266.1 265.1 264.8 264.3 263 261.6 259.5 255.5 251.9 247.8 246 244.4 242.7 239.9 236.4 224.8 221.6 223.6 216 210.1 203.9 196.3 191.5 185.9 178.5 174.8 172.4 167.2 159.3 157.3 155.8 153.5 151.8 150.6 150.5 148.8 146.7 142.3 142 131.6 131.4 130.7 136.5 136 136.2 134.4 134.5 134.2 128.9 128.1 131.6 133.3 133.7 134.1 132.6 126.2 130.5 133.1 133.9 134.6 134.7 134.4 134.8 135.7 136.8 138.4 137.8 136.8 134.4 128.9 118.3 107.1 100.7 95.7 93.2 96.4 96.9 98 97.9 99 100.5 103.1 102.7 106.7 118.2 119.3 122.6 118.7
180.9 177.9 175.8 171.8 171.8 170.6 168.1 166 165.7 164.2 161.4 156.3 148.5 136.3 147.6 155.5 138.2 128.5 128.2 122.7 126.8 127.6 133.7 141.2 144.2 147 149.1 150.9 152.9 153.9 153.9 153 150.9 152.4 153.3 152.6 155 156.1 159.1 161.7 161.1 160.9 161 161.3 162.1 163.7 165.1 166.8 168 169.3 170.2 173.5 176.6 178.3 177.4 175.7 172.6 170.6 167.6 163.4 160.1 156.9 155.3 151.8 147.7 145.2 139.5 136.7 124.3 115.3 107.8 117.7 133.4 137.4 143.5 147 153.5 158.4 162.8 168.6 173.4 176.4 179.9 183.7 187.6 190.9 193.7 197.2 199.8 202.9 203.9 203.7 211.2 218.7 220.6 223.7 228.3 233.1 238.2 242.4 246.6 251.5 256.8 261 264.6 268.2 271.2 272.7 273.7 273.2 271.7 269.6 266.8 265.3 264.9 264.4 263.8 263.1 260.9 257.5 254.5 253.5 252.7 250.9 249.9 246.8 242.4 236.8 232.4 223.5 221.8 217.3 210.8 205.3 193.1 190.6 187.9 181.8 177.8 172.3 166.5 163.9 163.4 161.7 158.7 154.7 152.9 151.6 148.5 146.4 143.4 139.8 129.4 130.9 130.7 132.6 129.9 129.3 130.2 130.1 124.5 122.1 123.8 131.6 132.3 132.4 132.2 125.8 130.4 133.9 134.9 135.6 136 135.5 135.5 136.6 139.1 138.9 137.4 135.9 134.3 132.9 121 108.9 102.3 96.3 94.5 96 96 98.1 97.5 97.6 98 103.3 103.4 108.7 118.3 121.3 122.8 122.7
182.5 180.1 177.2 174 170 168.6 167.4 166.5 164.2 163.6 160.8 160.8 158.8 145.8 136.1 143 144.4 133.4 128.7 122.3 125.3 128 129.5 138.6 140 141.9 144.4 149 150.5 151.6 152.6 152.4 150.9 150 150.9 150.5 150.3 152.1 154.2 154.9 154.6 156.4 156.2 156 156.5 159.1 161.5 163.3 164.4 165.8 167.8 168.3 171.1 171.1 171.3 171.8 169.1 166 162.5 160.4 157.2 154.6 152.7 148.6 145.8 142.1 138.7 129.6 120.7 115.3 112.4 114.1 131.2 138.2 143.1 147.1 152 157.2 162.7 168.3 172.5 175.9 179.2 182.7 186.1 189.3 192.3 194.8 198.4 196.6 203.4 210.5 214.7 217.4 220.3 223.5 227.5 232 236.8 240.7 244.7 250.9 255.8 259.9 262.7 267.3 270.7 271.6 272.3 272.7 270.4 269.9 267.5 265.7 265 264.3 263.6 262.1 260.7 258.1 256.9 255.9 255.5 255 253.7 251.3 248.1 242.8 237.6 232.8 225.7 219.9 216.7 209.8 204.5 197.6 192.8 188.2 183.7 180 175.1 173.1 169.5 165.1 161.7 157.9 153.7 150.7 149.6 147.5 143.5 140.1 136.9 134.1 130 131.7 127.2 129.1 129.1 129.1 128.1 126 120.3 127.9 129.4 129.6 129.8 124.4 132.1 134.7 136.3 137 137.4 137.2 138.1 139.5 140 139.3 137.6 135.2 133.8 132.2 125 115.8 111.1 105.2 96.1 92.8 99.6 93.3 95.6 95 103.1 103.7 102.6 104.4 122.2 121.8 122.1 121.6
185 182 179 175.8 172.5 164.7 163.7 165.1 162.5 160.4 157.8 159.1 159.7 154.7 144.3 138.5 132.8 137.7 128.2 124.5 124.2 125.2 126.4 138.5 137.1 136.9 139.3 142.4 147.7 149 150.8 151.5 150.4 143.9 148.2 148.1 147.8 148.3 149.3 148.3 149 149.6 150.9 152 154.3 156.3 158.7 160 160.9 162.4 164.3 165.7 162.8 163.4 166.6 162.4 164.8 162.5 160.4 157.2 154.9 153.1 150 145.9 143.4 141.3 138.2 127.2 120.2 115.3 112.2 109.4 126.8 138 142.9 146.7 150.7 155.5 161.1 165.8 170 173.5 176.6 179.6 182.2 184.9 188.8 190.5 191.9 201.2 205.8 210.8 215.4 218.7 220.1 224 227.2 230.6 234.6 238.5 243.3 249.2 254.4 258.7 261.9 264.9 268.1 269 269.2 269.8 268.9 268.7 267.9 266.5 265.7 265 263.8 261.9 260.1 258.9 258 256.8 256 255.5 254.1 252.7 250.3 246.9 241.9 237 231.8 225.9 220.1 214.4 208.2 200.8 196.9 190.1 187.6 184.2 179.1 175.7 171.2 167.3 162.7 158.7 154 150.3 149.4 147.4 143.3 139.4 136.1 134.1 131.4 129.9 126.3 133.8 132.4 129.1 127 130.8 122.9 119.7 127.1 127.9 126.9 123.5 132.8 135.6 136.6 137.4 138.3 139 139.9 140.1 140.1 138.7 137 134.6 133.1 132.2 130.3 127 121.6 113.7 109.1 110.9 112.4 104.9 99.6 92.8 102.1 103.1 102.1 105.1 122.2 123.1 123.7 123.8
187.4 183.9 180 175.7 172.1 167.9 162.5 159.8 157.6 157 156.9 158.7 158.9 155.2 153.5 145.8 137.3 130.6 131.6 127.2 124.1 122 125.5 132.8 135 134.8 135.5 136.9 141.4 145.4 148 149.8 149 146.8 139.4 144.7 145.5 144.9 145.4 143.6 143.5 146.6 148.7 149.3 151.6 154.1 156.1 157.3 157.9 159.3 160.1 161.7 162.5 163.2 162.2 162.7 162.7 160.6 159.3 155.8 154 150 144.2 141 139.2 139.4 131.3 125.3 119.8 116.6 112.2 110.9 127.9 138 143.1 146.7 150.8 153.9 157.4 161.9 166.2 169.5 172.3 174.8 178.3 180.9 183.7 184.8 195.8 201.7 206.1 210.7 215.4 217.7 219 222.1 226.2 229.3 232.7 237.3 241.8 248.1 253.4 257.2 260.1 263 264.6 264.8 265.2 266.1 266.6 267.7 267.4 266.8 266.2 265.6 263.9 262.1 260.5 259.2 258.2 257 255.9 254.8 253.5 252.1 250.8 248.1 244.6 239.8 234.5 229.3 223.7 217.1 211.3 204.8 198.9 195.2 189.9 184.7 180.2 176.1 172.3 167.2 163.2 158 153.4 149.2 148.1 148.1 145.3 138.8 135.3 134.1 133.1 133.1 135.9 134.2 133.8 134.5 132.8 132.2 125 121.1 116.3 127.1 122.1 127 132 135.1 136.5 137.7 138.6 139.3 139.8 139.9 139.1 137.9 133.1 133.6 132.2 131.3 130.2 129 126.5 126 122.5 118.5 113.8 108.7 104.7 96.2 94.3 103.2 103.6 113.1 121.2 122.6 123.3 123.4
189.6 185.3 180.8 176.1 172.8 169.5 165.4 162.6 159.6 156.7 154.6 156.9 156.9 154.7 149.2 140.1 135.6 137.3 135.3 127.1 126.5 124.9 125.5 129.1 129.5 132.9 133.9 133.7 129 135.9 142.5 145.7 146.4 145.4 140.3 142.2 143.3 143.6 143.7 142 140.9 144.3 145.4 147.7 150.1 152.6 153.6 155 156.5 157.6 158.4 160.1 161.5 162.1 161.8 160.2 155.3 157.8 156.4 155 152.2 149.3 142.4 139.1 132.8 132.4 127.9 122.5 118.3 116.5 108.5 118.4 135.4 140 142.6 141.9 150.2 150.2 154.8 158.4 163.7 166.8 169.1 171.7 173.9 176 183.3 191.1 196.9 202.5 207 210.4 212.7 215.5 219.5 222 225.1 229.5 233.2 238.4 242.7 248 253.2 255.4 258.2 260.2 262 263.8 264.2 264.9 265.8 266.8 267 267 266.5 265.7 264.1 262.3 260.7 259.2 256.9 255.8 254.8 253.8 252.9 251.6 249.9 247.9 244 241.3 236 230.8 225.2 218.7 212.7 206.7 200.4 195.6 190.3 185.7 181.4 176.9 173.4 169.2 164.5 160.5 155.6 149.6 143.6 146.4 143.9 136.9 134.1 133.1 136 136.5 136.9 135.4 134.4 134.7 134 132.3 131.6 123.1 120.2 115.9 116.1 125.6 130.5 134.5 135.8 136.8 137.3 138.3 138.9 138.9 138 136.3 133.5 132.5 131.3 130.5 129.6 128.2 125.8 123.2 120.5 117.2 111.2 107.8 106.5 95 97.6 102.3 102.3 114.4 119.4 120.6 121.7 122.3
193 187.6 182.5 178.2 174.3 170.6 166.6 164.5 161.6 158.7 154.3 154 154.4 154 154 150.5 150.7 148.2 144.6 137.2 129.1 125.2 124.2 123.3 123.6 129.3 129.1 121.7 120.9 126.7 136.5 139.5 142.4 141.7 137.7 134.6 139.5 141.9 143.1 141.3 138.8 140.8 143.4 146.5 148.7 150.5 152.1 153.6 155.1 156.5 157 157.9 158.7 159 158.7 156.8 156.4 155.3 154.1 153.4 151.6 148.9 143.4 140.3 133.2 127.4 123.4 120.8 117.7 112 109.6 123.5 134.6 141.1 140 141.8 146.8 149 152.2 156 161.3 164.8 166.7 168.7 175.7 179.8 184.1 191.2 197.5 201.7 204 207.5 211.1 215.4 219.5 221.6 225.1 229.2 234.3 238.7 243.3 247.6 250.7 252.2 253.3 258.2 261.7 264.6 264.3 265.5 265.8 265.2 264.4 266 265.9 265 263.4 262.1 260.7 258.4 255.7 254.5 253.5 252.4 251.4 250.3 248.7 246.4 244.3 241.2 236.9 231.2 225.6 220.7 214.8 207.6 201.8 196.7 191.7 186.9 181.8 178.3 173.6 169.5 165 160.3 153.6 150.9 145.7 139.6 139.6 136.8 136 137 137.8 138.1 137.4 138.1 136.3 135.7 133.9 132.4 131.1 130.5 121.6 113.6 114.8 124 128 132.5 133.7 134.5 135.9 137.2 137.7 137.6 136.4 134.2 132.1 131 130.2 129.8 129.1 127.5 125.7 123.7 119.8 115.2 109.2 107.5 106.4 97.3 99.7 101.9 101.9 111.9 117.4 118.5 119.8 120.8
202.6 196.1 187.7 182.4 177.4 173.3 170.1 168.3 164.2 160.4 158.3 154.5 154.4 154 155.1 159.9 161.3 160.9 159.4 149.6 135.6 131.2 126.5 125.4 122.9 122.2 121.6 120.9 120.3 119.8 127.8 133.3 134 135.1 134.3 130.6 134.1 137 140.3 139.6 135 138.2 142.1 144.3 146.7 149 151.7 153 153.8 155.3 155.6 155.8 156 156.1 155.3 154.7 153.8 151.4 151 151 147.5 146.7 144.5 141.1 131.9 125.5 121.5 118.6 111.8 104.6 113.2 122.6 131.5 138.1 140 142.9 145.3 147.5 150 154.9 159.5 162.7 165.7 173.6 174.6 179.8 184.2 188.9 194.5 197.9 202 207.4 211.2 215.6 218.7 221.4 224.6 230.3 233.8 237.1 241.9 244.4 246.8 248.3 252.5 257.4 260.3 261.6 264.3 265.5 265.4 264.6 263.8 263.1 263.4 263.4 262.4 261.1 259.8 257.5 255.3 253.5 252.4 250.9 249.4 248 246.1 244.3 241.9 239.4 235.9 231.2 226.1 220.9 215.1 209 202.5 197.4 193.3 187.7 182.2 177.8 173.7 169.9 165.2 160.6 157.3 151.5 145.2 140.4 140.5 138.5 138.2 138.4 139.3 138.6 139 139.4 138.3 136.5 134.2 132.3 129.8 127.8 124.2 114 112.1 120.3 125.8 129.1 130.2 132.1 133.4 135.8 136.5 135.9 134.7 132.4 131.5 130.7 129.5 129.5 129 127.7 126.2 124.1 121.7 117.6 109.9 107.2 106 103.1 93.2 101.4 102.7 108.4 114.8 117 118.3 119.1
218.7 207.8 198.7 190.1 182.9 177.6 173.7 171 167.5 163.5 162.1 159.1 158.1 158.7 159.2 162.1 162.9 162.6 160.4 158 148.2 141.6 130.6 125.5 125.2 121.2 121.4 120.7 120.2 119.6 118.3 122.4 128.4 128.2 127.8 124.9 129.5 132.4 136.8 136.6 131.1 137.3 141.1 142.7 145.7 148.5 151.2 151.9 153 154.1 154.2 154.4 154 153.7 153.7 153.1 151.2 149.4 148.6 147.7 147.2 145.5 142.1 136.8 129.5 124 120.9 115 104.6 112.2 114.5 123 133.7 137.1 140 141.8 143.3 144.7 146.7 152.3 156.5 160.3 166.4 169.2 174.6 178.6 182.3 186.9 193.2 199 203.3 207.1 210.6 214.4 217.8 221.4 224.2 226.7 230.5 232.9 237 240.5 245.2 247 251.2 255.5 258.2 260.3 262.1 263.3 263.8 263.4 262.4 262 262.1 262 261.4 260.1 258.6 257.4 254.8 252.4 251.3 249.7 247.8 246 244.4 241.9 239.4 236.7 233.9 230.6 225.8 220.4 214.9 209.4 204.6 199.5 195.1 189.7 184.6 179.4 175.6 171.1 167.1 161.3 156.7 151.5 146.8 142.2 146 142.4 140.3 140.1 139.7 138.9 139.3 139.6 138.7 136.8 134.9 131.9 128.6 124.9 122.5 115.9 110.8 123.2 124.1 125.4 127.2 129.9 131.2 134.2 135 134 132.4 130.4 129.3 128.7 128.3 128.2 128.7 127.6 125.8 124.1 121.5 117.7 109.6 106.7 105.2 100.7 92.4 101.4 102.5 107.5 112.7 114.5 115.7 117.5
210.6 213.2 208.5 206.9 197.3 191.7 182.2 177.8 174.7 169.8 167.2 162.4 163.4 163.6 163.7 165.7 165.2 163.8 162.1 159.5 148.1 143 140 131.9 123.4 121.1 118.3 121.2 120.1 119.2 118.5 119.3 118.4 115.6 121.7 122.4 124.5 130 132.5 132.2 127.8 130.1 139.3 143.2 146.5 148.4 150.8 151.9 152.6 152.8 152.7 152.5 151.7 151.3 150.1 150.4 148.4 148.2 147.2 146.3 145.5 143.5 139.1 132.5 125.3 121.4 118.2 104.6 112.8 114.3 114.5 123.3 135.5 138 138.3 141 139.8 140.1 143.6 146.9 151 157.5 162.2 170 174.6 178.3 183.6 188.2 192.6 197.1 201.7 204.5 207.4 211 215 218.1 221.3 223.9 227.1 223.9 234.8 239.9 244.3 246.1 249 251.9 255.1 257.5 259.3 260.8 262 262.2 261.1 260.7 261 260.8 259.6 258.9 257 255.7 253.8 251.2 250 248.4 246.4 244 242.2 240.7 237.4 234.4 231.6 228.5 225 219.7 213.7 209.9 204 199.5 195.8 190.5 186 182.5 177 173.3 167.4 160.1 157.3 152 146.4 145.1 149.5 147.6 141 140.8 139.2 138.9 141 139.6 138.4 137 133.3 132.1 126.7 123.6 118.1 114.1 114.8 122.7 123.8 126 126.1 126.7 130.8 132.8 133.7 132 130.4 129 128.2 127.7 127.3 127.3 127.3 127.6 125.6 123.8 121.5 117.8 110.2 106.2 100.1 100.2 100.2 99.3 100.8 105.2 113.9 114.7 114.9 116.3
229 208.7 204.3 201.3 199.4 197.7 197.4 193.9 186.9 180 175 172 170.3 170.6 170.8 170 164.8 163.2 161.1 159.4 151.5 148.2 148.9 141.4 137.7 126.7 120.9 117 116.6 116.7 117 120 117.6 117.2 117.6 119.3 120.4 122.9 124.7 127.3 124 135.2 138.8 140.6 145.5 148.1 149.8 151 152 152.1 151.8 151.3 150.7 150.2 146.7 147.1 146.2 145.4 145.4 145 143.4 139.3 135 128.3 124 119.4 114 105.5 110.7 113.9 114.5 119.5 133.2 138 137.7 137.6 136.6 141 145.4 150.3 156.3 159.3 163.1 167.2 171.7 176.3 180.6 184.6 187.9 192.1 196.2 199.7 202.2 206.1 210 214 217.7 217.6 219.7 229.9 233.3 239.1 243.9 244.9 247 250.4 252.5 253.9 256.5 259.1 260.8 261 260 258.7 258.9 259.3 258.1 256.8 255.7 253.8 251.8 249.7 247.9 246.2 244.6 242.2 239.1 237 234.6 232.5 229.3 227.1 223.2 219.8 214.6 209.8 205.1 199.8 196.9 191.9 187.8 181.7 178.1 173.5 166.7 161.6 158 152.5 148.2 150.1 151.6 149.9 142.3 140.2 140.1 141.7 138.2 139.5 137.9 136 133.4 130.8 127.1 121.3 119.2 109.6 119.1 122.2 124.3 127.2 126.4 127.4 130.6 132.1 132.6 130.9 129.2 127.6 126.9 125.8 125.4 125.7 126 126.2 125.2 123 120.9 118 109.9 105.7 99.9 100 99.7 92.4 101.5 100.3 112 114.1 113.7 115.3
231.1 228.1 223.4 219.9 213 196.7 206.2 201.5 194.2 187.3 183.6 179.7 178.2 177.1 176.4 173.1 169.8 164.8 161.8 158.5 155.1 153.7 151.7 150.2 150.2 136.5 128.2 118.4 118.8 118.8 117.3 118.5 117.8 115.1 117.1 116.5 116.6 115.4 118.6 119 120.6 127.2 135.1 143.7 144.6 146.3 148.6 149.8 150.7 150.1 149.9 149.6 148.2 146.5 145.5 144.7 143.8 143.6 143.9 142.6 141.2 136.7 132.4 128.5 121.5 118.7 106.7 108.7 109.8 114.8 114.5 120.9 133.1 137.7 137.4 134.8 137.9 141.1 146 150.9 155.5 158.8 162.6 166.5 170.8 174.2 177.1 179.6 183 185.4 190.6 194.2 196.7 200.6 203.8 206.8 209.7 219.1 222.8 227.7 231.6 237.3 241 244 246.5 247.7 249.1 251 253.7 257.1 258.2 258.2 257.6 257.5 257.5 257 256.6 254.8 253.7 251.3 249.8 248.1 245.9 243.6 242.6 240.4 237.5 234.3 231.8 230.2 227.4 223.7 220.8 217.4 213.3 209.2 203.9 199.8 195.8 192.2 188.6 183.8 179.8 174.5 167.5 161.6 154.8 150.7 150.5 154.8 151.9 150.5 141.8 140.3 138.1 136 136.9 137.8 137.8 135.4 133.7 130.8 126.3 121.3 117.7 112.5 120.1 120.6 123.3 125.6 125.5 128.3 129.9 130.9 131.5 130.4 128.6 127.2 125.5 124.6 123.3 122.8 122.9 123.6 123.3 122 120.9 118.3 112.9 103.9 99.5 99.6 99 92.4 101.2 105.5 108.3 113.3 112.3 114.5
233.2 229.2 224.5 220.6 216.5 211.6 206.9 202.6 197.1 190.5 186.8 184.2 181.6 180.4 179.4 176.6 175.3 174.8 166.9 162.8 158.3 154.3 153.1 150.6 150.9 149.9 137.8 131.6 124.9 121.7 118.7 118.9 117.8 117 116.5 117.3 114.5 113.1 115.8 115.6 119 118.3 123.8 129.2 141 144.1 146.9 148.1 148.8 149.6 148.7 147.6 146.2 144.7 142.9 142.3 141.9 142.2 144.2 140.2 136.1 135.1 131 127.3 119.8 112.2 105.9 109.9 111.8 113.8 113.8 119.8 127.7 135.7 136.9 131.7 135.5 141 145 150.1 154.9 158.5 162.5 166.6 170.2 173 174.9 176.7 178.5 182 185.2 188 190.6 192.9 200.8 206.5 213.4 216.7 218.6 224.2 227.9 234.2 240.4 242.9 243.6 243.3 244.6 247.1 250.5 253.1 253.9 254.6 255.4 256 256.1 255.8 255.9 254.7 252.7 250.8 248.7 246.6 244.4 241.8 240.7 238.1 235.5 232.9 229.8 226.4 224.2 221.4 218.4 213.7 210.3 206.7 202.1 197.7 194.6 190.1 188.3 182.9 178.6 171.4 164.6 160.1 155.4 158.2 157.1 153.7 150.5 148.6 143.9 141.5 139.2 136.1 136.2 137.1 136.5 134.2 132.9 130.5 123.7 121.3 114.9 115.1 114.7 119.6 120.7 121.3 122 128.9 130.4 130.6 130.2 129.6 127.6 125 124.4 124.3 123 122.8 122.8 121.6 121.6 121.3 121.3 119.1 105.2 100.5 99.3 99.1 98.4 92.4 103.1 107.7 99.5 109.9 109.4 111.2
233.9 230.8 227 222.6 218.1 211.7 208.5 203.2 197.7 193.6 188.7 185.8 183 182.4 181.2 179.4 176.4 175.1 170.5 164.7 159.2 155 152.9 150.6 150.2 150.7 143 139.4 136 131.2 124 127.1 127 119.1 116.9 119.4 125.4 123.2 118.2 113.6 114.4 114 113.5 118.8 135 140 145 147.1 148 148.2 147 145.8 144.5 143.7 142.4 140.8 140.9 140.5 140.3 139.6 138 132.4 129 124.3 121.5 103.7 109.1 110.4 110.1 113.9 113.9 118.6 123.8 132.6 134 129.2 136.4 140 143.9 148.9 153.6 158.2 162.1 165.7 168.2 170.5 172.3 173.2 174.1 176.6 177.7 182.7 189.1 193.5 198.2 203.5 210.3 212.4 216.7 219.3 226.4 234 238.3 238.9 238.7 238.6 241.6 244.4 247.3 248.6 250.2 251.2 252.3 253.4 254.5 254.5 254.3 254.4 252.4 250.6 247.8 245.1 242.2 239 237 235.4 234.1 231.6 228.9 225 221.7 215.1 214.4 210.7 206 202.3 199.1 196.4 192.9 188.8 184.9 180.3 171 168.8 162.4 164.3 161.5 158.9 155.8 153 149.5 146.9 144.7 141 138.8 136.8 135.4 135.3 134.9 133.6 131.2 128.5 126 122.8 115.1 107.5 114.4 119.5 120.7 120.7 124.4 129.3 130.7 130.5 129.3 127.1 124.7 123.3 123.7 124.6 123.8 123.6 122.1 121.2 121.3 121.5 121.5 118.4 102 98.8 98.6 98.2 94.4 92.4 110 110 105.9 106.3 105.8 106.2
231.2 229.9 226.7 223.1 218.6 213.7 209.4 205.4 200.4 195.5 191.1 187.2 184.3 183.2 182.4 180.8 178.2 175.4 171.4 165.4 162.9 157.1 153.2 149.6 148.6 146.9 145.1 144.5 141.1 138.2 141.8 140.8 145.9 136.7 134.2 133.7 135.3 138.1 131.3 125.8 111.9 113.2 112.9 113.4 124.4 126.2 144.1 146.4 146.5 146.4 145.3 144.1 142.9 142.3 140.9 139.8 138.9 139.4 137 138 137 135.3 129.5 124.4 118.2 104 109.9 108.6 110.1 114.2 119.3 118.6 119.5 126.3 130.6 128.3 134.6 137.6 141.1 145.3 151.2 155.4 159.5 162.8 165.3 167.4 168.3 169.2 170 171.4 177.5 183.5 185 187.9 191.8 198.4 202.9 204.5 209.3 214.5 220.9 229.9 233.9 233.6 233.5 232.9 238.1 240.8 243.1 242.8 246.5 247.9 248 251.4 252.8 253.8 253.3 253.8 252.2 250.3 247.8 245.6 243.9 241.3 238.1 235.6 230.3 230.6 227.8 225.1 222.4 218.9 215.7 212.2 209.5 206.1 202.5 197.8 193.5 190.1 187.7 181.9 176.7 171.8 167.3 164.1 161.4 158.2 152.8 150 148.1 145.5 144.6 140.3 138.1 136.5 135.9 134.4 134.2 132.6 130.6 129.1 128.1 125.5 117.7 107.1 106.9 115 119 121.4 124.3 127.8 128.2 128.6 128.4 125.5 123.1 122.4 123 123.7 124 123.8 123.3 120.8 120 120.8 121.7 117.9 107.1 97.7 98.4 88 92.3 112.2 112 110.1 108.2 98.8 102.7 102.3
225.3 224.3 222.5 221.1 218.3 215.3 211.1 207.1 202.5 197.5 191.7 189.8 184.8 184.3 183.3 181.7 180.1 178.3 174.2 169.7 165.1 160 155.2 152.1 148.1 147.8 150.2 150.7 148.8 143.4 143.9 145.8 148.7 149.2 148.6 144.6 145.8 145.1 143.8 140 140 131.2 124.6 111.2 113.8 117.3 142.1 144.2 144.9 144.7 143.9 142.6 139.4 141 140.1 139.1 137.6 140.6 134.4 135.6 136.1 133.9 129.3 125.6 120.6 106 108.7 109.3 109.7 112.8 116.5 119.8 123.7 125.9 126.2 128.8 132.9 135.1 138.7 142.8 147.9 151.8 156.6 159.1 161.3 161.9 163.5 164.6 164.2 170.1 175.1 179.3 179.8 180.9 184.1 190.8 193.5 196.8 202.9 209.1 213.8 219.5 224 225.3 226.3 229.2 234.4 237.6 239.1 239.8 241.7 241.1 246 247.6 249.9 251.6 251.6 251.8 251.8 250.9 249.4 247.7 244.5 242.7 239.3 236.5 233.4 226.3 225.1 223.7 221.6 220.9 217.5 214.5 211.5 208 203.8 198.3 193.9 189.7 183.4 178.3 173.8 171.5 168.3 158.8 153.3 153.4 148.8 146.8 145.3 144.3 142.7 139.3 137.7 136.1 135.3 134.2 133.6 133.1 130.6 129.9 129.9 128.9 124.4 112.4 107.5 111.1 113.2 120.9 123.4 125.6 127.4 127 125.9 123.9 121.8 120.8 122.3 123.4 123.8 122.9 122.2 119.9 119.3 120 120.7 117.4 112.3 97.3 87.3 92 104 113.5 111.7 109.5 105.4 96 94.7 94
221.8 220.9 220.3 219.4 217.7 215.4 212.2 207.9 203 197.7 191.6 189.8 188.4 186.3 184.6 182.3 181.7 180 177 172.3 167.4 163.9 157.8 153.5 148.8 151.1 153.9 152.8 150.5 148.9 144.7 147.5 148.2 148.7 147.8 147.9 145.5 143.8 143.9 142.6 141.8 141.1 140.2 137.7 118 109.3 136.4 140.7 142.8 143.1 142.4 139.7 139.6 139.7 139.6 138.5 136.1 133.8 133.4 135.7 134.6 133.2 132.6 126 114.6 109.9 108.3 109 111 111.8 113.8 118.9 121.2 119.8 126.6 129.3 131.6 133.3 134.6 139.1 143.2 148 151.4 155 156.5 157.1 157.6 153.2 162.8 165.9 170 173.4 174 174.9 177.7 178.7 183 189.7 197.3 203.1 207 209.1 211.1 215.8 220 225.4 230.2 232.5 233 233.2 234.6 238.9 241.8 242.3 245.2 246.9 248.5 249.5 250.3 251.2 250.9 249.5 247.9 244.8 241.2 237.4 233.6 229.3 225.8 223.1 221.5 218 214.5 212.7 209.4 208.5 203.3 194.9 189 188 185.6 182.5 178.7 174 169.4 164.8 160.1 155.6 150.6 146.1 143.3 143.4 142.2 139.8 137.3 136.6 135.2 134.1 132.4 131.5 131 130.5 130 129.5 128.5 120.3 109.3 109.6 112.3 121.4 123 125 125.7 126.3 126 123.9 122 118.9 121.4 122.4 122.8 122.2 121.6 120.3 118.9 119.4 120 116.8 110.8 100 87.7 96 97.7 109.9 100 92.2 92.6 92.6 92.4 92.3
217.6 216.9 216 216.5 216.5 214.9 212.1 208.3 202.9 196.7 193.7 191.5 190.2 188.1 185.5 183.1 183.6 181.6 178.1 174.2 170.7 168.1 161.1 157.1 156.6 157.6 152.3 150.7 148.7 145.8 144.1 146.3 148.3 148.8 148.3 147.7 145 143.2 142.7 141.4 140.2 140 140 138 125.7 116.6 110 131.8 136.9 138.1 141.1 141.1 139.9 139.5 139.2 138.1 136.5 135.2 132.7 131.8 131.8 130.7 130.2 123.3 109.8 109.4 107.8 107.1 110.6 112 113.5 116.1 117.9 121.9 126.2 128.6 129.8 131.2 132.2 133.9 138.2 141.8 144.9 147.7 151.1 152 148.7 154.6 157.9 160.8 164.1 166.7 165.3 166.9 169.8 173.6 178.8 187.1 192.7 197.1 199.9 200.1 202.5 207.1 214.5 219.9 223.9 224.3 226.1 227.8 230.7 233.4 235 236.5 238.7 240.1 242.7 245.3 248 249.4 251.7 250.9 248.9 246.3 242.5 238.5 233.9 229.7 227 224.3 222.4 218.5 217.4 214.8 209.8 205 203.6 200 196.5 194.1 190 183.9 179.5 174.3 167.7 163.5 160.3 156 152.8 148.8 143.6 140.9 140.4 138.8 136.8 135.9 134.7 133.8 132.2 131.4 130.7 130.4 129.8 129.7 129.1 124.7 110.8 109.6 111 120.5 121.5 122.9 124.2 125.6 126 123.8 122.1 119.4 119.7 120.7 121.5 121.8 120.7 119.3 118.4 118.5 119.7 116.7 110.6 103.9 87.9 96.7 96.8 93.2 91.9 91.2 93.4 93.6 94.5 97.3
213.6 212.6 212.9 213.3 214 213.2 210.7 207.5 203.2 198.3 195.7 193.8 192 188.8 185.1 184.3 184.2 182.1 178.4 176 173.3 169.1 167.3 159.1 155.5 152.5 149.6 146.4 144.8 144.4 142.5 145.7 148 148.3 147 148 147.4 145.1 142.2 141 139.9 138.4 138.4 137.8 130.8 115.3 111.5 113.7 122.5 128.3 140.4 140.5 138.3 138.8 138.5 138.1 136.9 135 133 129.5 126.8 128.6 127.6 121 110.8 104.2 106.2 105.9 109.5 111.6 110.9 115 117.4 123.4 125.7 127.1 128.2 129.1 130.4 131.8 134.9 137.2 138.3 141 143.8 145.7 144.4 150 152.7 155.3 157.2 157.3 158 159.8 160.9 164.2 169.6 179.1 186.7 191.5 193.1 189.9 198.9 206.8 207.9 214.2 216.4 217.4 218.7 222.8 227.3 228.1 228.3 230.8 233.5 235.7 238.2 241.1 243.5 246.6 248.5 249.8 249.4 247.5 244.2 240.9 236.1 231.5 227.7 225.3 223.1 219.8 217.4 215.3 212.7 209.4 206.3 202.5 198.7 195.7 191.7 187 181.2 177.3 170.3 164.9 161 156.8 153.4 148.5 142.2 138.5 137.6 137 135.9 135.1 133.3 131.1 129.6 131.3 130.5 130.1 129 129.6 128.2 125.4 112.4 108.1 109 118.3 121.5 119.3 122.3 123.9 123.8 123.9 122.7 119.9 117.9 118.4 119.3 120.6 120.2 118.9 117.3 117.7 118.8 117.2 112.8 104.2 87.3 94.8 96.1 94.4 93.2 92.1 92.7 93.1 94.1 94.2
209.7 208.5 207.9 209.4 210.2 209.8 208.3 205.3 202.5 199.4 197 194.8 191.9 188.7 185.9 185.3 184 181.4 177.7 175.1 172 169.4 165.8 160.3 155.1 151.2 148.2 146.1 145.2 146.5 141.7 142.4 145 143.2 146.7 147.1 147.4 145.3 143.3 140 139.6 138.1 137.1 137 136.6 125.5 113.8 111.8 115.6 123.3 129.3 133 136.6 137.9 137.7 137.4 136.4 134.9 133.1 130.8 128.4 122 123.3 120.4 103.6 105.6 105.8 105.7 106.8 110.9 110.4 114.2 121 123.8 125.3 126.5 127 128.1 129.2 130.7 131.9 134.9 136.9 136.7 137.4 139.1 141.2 143.8 146.7 148.9 150.8 151.7 159.4 166.8 171.4 174.8 179 181.6 184.8 189.1 192.9 197.7 201.6 205.4 210.2 215.8 216.4 219.3 222.9 224.8 227.7 230.5 231.9 234.6 234.3 235.6 236.8 238.9 241.5 243.6 245 247.2 247.7 247 245.2 241.8 238 233.8 229.3 224.5 222.5 220.1 217.1 214.5 212.5 209.5 207 203.4 200.3 197 192.1 187.9 182.9 177.5 172.4 167.1 163 159.5 154.1 147.9 144.7 139.7 137.4 136 135 133.4 128.2 128.2 127.5 129.3 129.3 129.1 128.7 128.6 125.7 121.7 115.9 107.3 108.2 113.1 118.7 116.5 119.3 122.2 124 123.8 122.5 118.1 115.9 117.2 117.6 116.9 119 118.3 117 117.3 118.6 119.4 115.3 108.4 87.2 93 94.9 95.2 95.1 93.4 92.2 92.8 93.1 93.8
205.7 204.3 204.1 205.2 206.1 205.9 204.5 202.9 201.6 199.2 196.3 193.8 190.3 186.7 185.2 184.5 183.8 181 176.5 175.1 175.3 169.5 165.9 161.8 156.7 152.1 148.3 144.9 142.3 141.5 140.3 140 140.4 142.1 143.9 144.3 143.5 142.4 142.1 140.1 140.3 139.4 137.3 137.1 131.9 127.5 120 106.6 113.4 117 118.1 121.2 127.5 136.9 137.1 136.1 135.9 133.6 131.9 130 128.3 127.1 124.7 111.1 103.2 103.4 105.2 103.3 103.7 106.9 111.4 113.6 121.3 123 125.5 125.4 126.1 127.1 128.3 129.2 130.7 132.1 133 133.4 133.5 135.7 143.9 145.6 148.6 147.7 153.8 159.2 164.8 171.5 177.2 181.5 186.7 189.2 193 196.6 200.6 204.2 207.8 213.5 217.1 219.5 221 223.8 227 230 232 234.5 236.9 239.7 239.8 239.6 239.9 240 240.7 242.3 244.1 244.1 244.7 244.8 243.8 241.5 238.9 235.5 230.4 225.2 221.6 219.8 215.4 213.3 211 208.5 205.9 203.5 199.7 197 192.6 188.8 185 180 173.8 168.7 164.8 161.2 156.3 149.6 145.2 142 139.1 136.8 135.7 134.5 133 130.2 127.1 125.6 126.9 126.4 126.7 122.2 112.4 111.3 111.8 104.3 107.2 108 114.8 117.2 116.2 116.6 116 118.4 119.1 115.1 115.4 116.3 116.5 115.7 115.6 117.3 116.8 117.6 118.8 119.6 118.7 115.9 87.7 90.6 91.1 94.5 94.4 94 93.6 93.1 92.8 92.8
201.5 199.7 199.7 200.4 201.2 201 200.8 201.7 200.2 196.9 193.4 190.9 188.3 185.7 185.8 184.9 182.2 180.4 175.7 174.4 174.7 170.9 167.2 163.4 159 154.2 149.6 146 141.3 138.1 138 138.3 136.7 137.3 138 139 138.7 138.6 138.2 139.5 140.4 140.2 138.3 136.6 136.1 135.8 124.2 116.4 105.8 107 110.2 114.1 126.8 136.3 136.3 136 133.9 132.3 130.5 128.8 127.8 127.1 125.3 123.5 118.9 101.8 101.5 102.6 103.8 110 112.3 114.6 121.1 124.2 125.4 124.1 124.3 125.8 127.1 127.8 129 129.6 129.4 134.4 136.6 140.1 144.6 148.2 151.1 154.6 158.9 163.2 171.9 180.6 186.4 191.5 195.7 200 202.5 204.4 207.8 215.4 221.5 222.4 223.8 224.5 225.1 229.2 231.5 234.6 241.8 244.3 244.4 243.4 243.9 244.1 242.2 242.7 242.6 243 243.5 243.7 242.5 241.3 240.7 240.2 238.3 234.8 230.4 224 219.5 216.8 213 210.4 208.2 205.9 204 200.9 199.1 195.2 191.2 187.4 184.7 179 174 169.1 164.7 160.8 156.6 152 147.4 142.7 140.3 138.2 136.9 133.7 133 132.5 129.4 123.1 128.1 119.7 123.9 121.4 125.2 127.3 126.6 110.9 104.5 106.6 113.6 115.7 116.5 117 116.7 114.5 112.4 112.1 113.6 115 115.3 114.8 114.7 116.2 116.9 118.2 118.9 118.6 118.2 117.2 110.9 86.4 90.3 92.1 93.4 91.7 91.7 90.4 89.5 88.5
197.5 195.5 195.8 195.8 195.5 195.5 196.6 198.4 198 192.5 190.3 188.6 186.9 186.5 186.9 185.3 180.9 177.5 175 174 174.2 172.4 168.4 164.6 159.6 154.6 150.5 147.5 144.3 141.3 138.1 137.1 135.2 134.1 134.8 134.8 134 135.1 136.1 137.2 138.2 139.9 138.8 136.9 135.9 135.9 135.1 126 129.6 118.4 106.4 111.1 133.9 135 136.2 135.3 132.7 130.6 129 128.2 126.9 126.6 125.7 124.5 122.4 109.9 102.4 100.9 103.1 104.7 112.1 114.2 122.8 123.4 124.1 123.3 124.1 125 125.6 123.8 125.8 128.7 131.5 134.6 138.9 140.6 145.3 149.8 152.7 156.9 161.6 170.4 180.6 188.4 193.5 198.9 204.7 207.5 207.9 212.2 219.7 226.6 229.7 228.8 227.8 229 231.8 231 234.1 239.5 244.4 245.3 244.6 246.2 247.4 249 249.2 248.5 246.8 245.9 245.4 244.2 241.7 237.5 237.6 237.5 236 232.5 228.6 221.3 217.6 213.9 210.4 207 204.9 202.8 199.7 197.5 194.6 192.4 189.8 185.8 181.3 177.9 173.1 169 165.2 160.5 156.8 152.2 148.2 143.7 141.5 139.7 137 133.6 132.5 131.8 131.3 130.5 130.4 127.6 126.5 126.9 127.1 125.1 127.5 125.9 106.9 104.3 103.2 108.4 111.6 117 117.1 114.3 111.4 110.8 110.3 111.6 114 113.6 113.8 115.4 116.1 117 117.7 118.7 117.8 117.4 113.5 94.6 86.4 89.3 90 92.5 90.1 90.2 89.6 84.6
192.1 192.6 192.5 192.4 192.4 192.6 193.5 194.6 193.8 191.3 190.5 189.1 185.8 187.4 187.1 185.2 178.7 175.2 173.1 174 173.7 171.6 168.8 165.4 160.5 156.1 153.5 149.2 146 141.8 138.3 137.6 136.6 131.4 133 132.9 132 133.1 134.2 135.1 135.7 137.1 137.4 136.3 135.6 135.4 134.6 134.1 131 129.2 108.8 105.8 133.5 134.6 134.8 133.7 131.7 130 128.3 126.6 125.8 125.4 125.1 123.3 121.2 117.3 104.4 100.7 100.9 102.6 108 113.1 123 123.4 123.4 122.5 123.1 123.4 123.2 125 127.1 129.1 132.2 135.3 138.4 142 145.6 149.7 154.3 162.6 171 181.4 188 193.9 197.5 202.9 207 209.4 212.1 216.8 222.4 227.7 230.9 229.9 228.9 229.8 230.8 231.7 234.2 235.8 238.3 239.9 242.1 245 247.7 250.4 252.3 253.5 251.4 250.7 249.2 243.4 241.5 236.5 233.1 234.1 230.9 228.8 224 219.9 215.6 211.6 207.8 204.5 201.2 198.6 195.7 193.1 190.4 189.1 186.6 183.3 179.4 175.1 171.4 167.6 164.3 160.8 156.9 152 147.3 143.8 141.5 138.8 135.9 133.4 132.3 131.5 130.8 130.5 129.5 127.2 127 126.9 126.2 126.2 127 126 125.5 108 103.3 101.1 105.3 110.1 116.9 114.6 112.8 110.9 109.5 109.1 110.6 112.4 114 114.5 114.9 114.8 117.4 118.3 118.9 118.2 115.8 113.8 105.5 86.3 86.8 88.1 90.3 89.5 85 89.9
188.2 188.9 189.5 189.9 190 190.7 192.1 192.5 191.9 191.8 190.5 188.3 185.7 183.3 182 176.8 173.8 169.9 168.6 168 169.6 167.1 165.5 163.8 159.7 156.2 154 151 148.1 144.3 141 139.2 136.8 129.4 130.5 130.2 129.5 130.3 131 131.9 134.2 135.3 135.5 133.5 134.6 134.5 133.5 132.5 131.3 129.5 116.9 105.9 130 133 133.4 133.3 130.9 129.1 128.1 126.8 125.3 124.5 123.7 122.1 119.7 114.5 106.8 101.5 100.9 102.5 104.4 113.2 120.6 123 121.1 121.2 121.7 121.2 121.5 124.4 126.6 128.6 132.1 135.4 138.9 142.7 146.2 156.4 166.1 175.1 184.8 182.4 168.1 177.7 196.8 198.8 201.6 204.1 208.7 214.3 219.6 222.9 225.4 225.8 224.8 225.6 227.2 230.3 232.6 233.8 234.6 235.3 238 242.2 246.1 247.3 249.2 250.9 250.4 250.3 249.2 244 238.1 234.6 231.5 229.9 227.8 224.9 221.2 217.5 214 209.4 204.6 202.5 198 195.2 192.2 189.6 187.8 186.1 182.5 180.1 176.3 172.8 169.2 166.1 163.3 160.4 156.4 152.3 147 144.2 140.6 138.8 137.1 132.9 132 131.3 130.3 130 128.9 128.4 127.8 126.3 125.5 125.3 126 126.5 121.4 125.9 112.4 106.3 101.9 101.2 115.9 115.5 114.6 112.5 110.7 108.7 109.7 111.5 113.4 113.7 113.8 113.9 115.5 117.1 118.6 118.5 116.9 114.1 112.1 110.6 95.9 90.4 86.2 91.4 90.7 90.7
185 186.6 185.7 186.6 188 189.5 189.4 189.3 190.1 190.4 187.7 185.7 181.6 179.4 176.1 173.4 169.3 167.3 165.1 162.1 163.4 161.1 160.5 160.4 157.9 154.8 151 150.3 147.2 143.2 138.5 136.4 132.8 128.5 127.9 128.3 128.6 129.1 129.6 130.2 132.8 132.9 132.2 132.1 132.9 133.6 132.1 130.5 129.6 129.1 115.5 104.4 122 130.8 130.8 129.8 130.3 128.9 128.4 127 125.3 123.9 123.1 121.1 113.3 106.9 103.3 100.2 101.2 101.5 105.6 111.9 116.4 118.1 119.2 119.5 119.6 117.2 122 123.6 126.1 128.2 131.4 134 139.1 142.3 148.7 167.5 178.4 183.9 190.1 183.9 173.7 160.3 173.1 192.9 193.5 196.9 204.1 209.4 211.9 213.9 217.1 218.5 219.1 221.1 224.6 227.9 228.5 228.8 229.8 231.8 235.9 240.8 242.1 244.9 246.1 246.9 245.8 246.2 246.5 243.1 236.5 232.5 229.3 223.9 223.9 221.6 218.5 216 213 209.7 204.3 198.3 195.7 194.3 190.3 185.8 181.4 182 178.1 176 173.6 171.2 167.2 164.5 161.7 158.4 155.3 151.2 147.1 143.7 140.6 137 135.6 133.4 132 129.5 127.8 127.7 127.8 128 126.8 125.1 123.4 122.7 123.4 124.5 124.3 125.1 121.1 115.2 102.4 99.7 103.2 111.4 113.4 112.7 110.8 108.6 108.6 110 111.3 112.3 112.7 113.1 113.7 115.9 117 117.6 115.9 112.8 110.9 110.1 110.4 107.3 105.2 104.7 95 91.1
182 182 182.5 183.1 184.6 186.9 185.9 183.7 184 184.2 182.2 180.8 177.1 173.8 171.9 169.1 164.5 162.6 158.6 159.1 157.7 158.5 156 155 154 150.9 147.2 145.5 140.9 138.9 135.3 133.5 132.8 128.6 125.9 127.6 128 127.4 129.5 129.6 132.1 132.8 131.3 132.1 133.4 132.9 131.3 130 127.3 127.3 118.8 103.7 112 124.8 128.5 127.8 129.4 129.3 128.4 127.3 125.9 124.7 123.7 121.8 118.4 101.5 100.6 100.2 101 102.9 111.4 111.6 112.2 117.2 117.5 118.6 115.3 117.3 121.7 123.1 124.9 127.3 129.6 133.5 138.9 142.8 146.3 164.8 179 176.9 187.8 191.1 179.8 168.3 154.9 182.8 186.7 191.5 197.3 202 202.5 205.2 206.5 210.6 213.2 215.7 221.6 223.5 224.8 224.7 226.9 231.7 234.9 237.6 241.3 243.4 243 242.9 240.3 241.2 240.9 239 235.4 231.9 228 223.6 219.8 219.3 215.2 214.7 212.5 209.9 205.4 201.7 194.2 190.6 188 184 180.8 181.2 177.6 174.2 170.4 168.4 164.9 161.3 157.6 154.8 153.2 149.4 145.4 142 139.3 136.8 134 133.5 131.4 129.2 127.6 127 126.4 125.8 125.3 125.1 123.7 121.1 120.8 122 119.6 116.7 111.2 109.2 111 97 99.5 94.6 99 105.4 109 110 106.9 108.7 110.8 112.7 112.9 112.6 113.4 115.1 116.7 117 113.9 111.6 110.3 108.3 108.9 107.5 105.7 104.2 96.2 94.2
178.2 178 177.2 176.7 179.1 181.9 179.1 177.5 177.2 177.1 176.4 174.2 171.1 167.6 165.9 162.1 160.4 158.2 157 155.6 155.1 153.8 154.1 153.4 151.3 148.4 146.1 142.3 138.8 135.5 133.2 132.3 129.9 128.8 124.6 123.6 124.3 125.5 130.3 132.4 132.3 132.5 131 132 132.4 131.8 130.4 129 124.9 122.8 112.2 104.8 111.6 125.3 128 129.5 129.6 129.7 129.2 128.9 126.9 125.3 124 121.9 113.1 101 100.2 100.2 100.9 102.4 110.3 110.8 112.7 115.7 115.7 116 114.9 119.5 121.1 122.3 124.1 126.5 129.8 133.2 136.5 139.2 144.4 148.9 164.1 171.8 171.8 183.5 180.7 170.3 154.2 170.5 177 182.7 187.7 192.1 193.9 197.1 199.2 202.6 210.1 214.8 217.4 217.9 219.4 220 225.7 231.1 234.3 238.6 242.4 242.7 240.6 239.3 239.4 238.6 238.1 237.4 236.7 230.9 227.6 224.4 219.5 215.6 214.2 213.2 211.3 210.4 208.6 204.3 200 195.4 189.8 187.6 185.4 183 180 176.4 172.2 168.7 166.8 162.2 159.1 153.8 151.7 148.2 145 142.1 139.5 137.3 135.6 132.6 131.3 129.5 127.8 126.9 126.5 125.7 126 125.9 124.7 123.2 119.1 117.1 118.2 120.1 120.7 120.5 119.9 113.5 107.1 101.9 96.2 98.4 105.6 107 106.6 106 111.3 112.8 112.6 112.7 113.4 114.9 116 115.6 113.7 110.3 107.8 106.6 106.9 106.7 105.5 103 97.4 94.5
172.2 173.4 172.7 172 173.3 172.9 171.7 172.1 171.9 170.1 170.3 169.3 165.5 163.4 160.9 158.4 156.1 155.8 154.4 153.5 151.5 151.8 151.7 150.9 149.2 146.6 144.6 142.3 137.9 135.5 132.6 131.3 126.4 127.6 123.5 122.9 123 126.2 128.1 131 132.1 130.2 129 130.3 130.9 130.5 130.1 129.5 123.9 113.9 109.2 108.4 109.4 125.9 129 130.6 131.5 130.3 129.5 128.9 126.8 125 123 120.5 109.8 99.9 100 99.3 100.4 100.7 106.8 110.7 112.8 114.8 110 112.2 117.4 119.2 120.6 121.7 123.5 125.8 129.5 132.3 135.6 137.7 140 143.2 145.4 149.2 163.3 165.8 175.5 158.3 147.7 166.2 168.5 171.8 176.9 180.4 183.2 189 183.9 198.7 203.8 209.3 211.9 212.4 208.6 218.2 224.3 229.1 235.5 240.7 242.5 240.4 238.3 236.2 236.4 236.1 235.6 236.1 237.2 233.1 229 225 221.1 216.1 212.6 209.8 210.4 210.1 208 205.4 201.5 196 191.8 188.6 186.5 183.8 181.1 176.7 172.9 170 165.9 163.3 160.2 156.6 153 149.5 146.9 143.6 140.6 138.5 136.6 133.5 131.9 129.4 127 126 125.1 125.7 126.6 126.6 125.3 123.4 122.1 120.4 121.5 121.6 122 121.3 120.6 120.2 114.7 116.6 102.6 96.8 93.3 99.3 105 104.2 109.8 112.3 112.2 112.4 113.1 114.6 115.8 116.2 113.4 110.1 107.7 106.6 106.8 105.6 105.2 103.4 97.1 95.4
164.8 168 167.6 165.3 167.1 167.2 166.7 166.2 165.9 165.7 163.8 162.7 160.9 159 157.5 155.1 153.5 151.8 150.7 147.6 149 149.5 149.2 148.6 146.8 145.1 143.3 139.7 136.6 134.2 132.2 128.2 126.6 126.4 124.1 122.7 122.9 126.1 126.6 127 129.1 127.9 126 128.5 128.4 128.9 129.1 127.5 120 109.6 106.9 108.7 108.7 126.8 130.4 132.1 132.8 130.4 129 128.7 125.8 124.1 121.4 119.1 112 100.3 99.7 99.1 99.7 100.4 106 109.8 111.7 110.5 113.2 116 117.3 118.5 119.5 121.2 122.6 124.2 127.2 130.7 133.7 135 136.5 138.6 141 143.3 146.6 148.5 157.3 150.7 146 153.9 158.9 161.6 165 172.3 173.6 174.7 185.2 190.8 195.5 202.6 205.2 205.2 211.1 217.5 222.6 230.2 234.2 236.5 236.9 235.8 234.7 232 230.5 231.4 231.4 233.8 236.1 234.5 231.6 227.3 221.7 217.7 214.9 212.2 208.9 208.4 206 203.4 201.3 197.7 194.7 191.2 187.9 184.3 181.9 178.4 175.4 172.3 168.6 165.4 161.3 157.7 153.3 150.3 147.2 144.5 141.4 139.2 137.1 134.8 132.3 130 126.2 124.9 123.7 124.9 126.6 126.5 123.4 121.7 119.5 120.5 121.7 121.5 122.2 121 120.1 120.1 118.3 116.1 112.5 105.8 97.4 96.5 99 104.2 109.1 111.6 112.2 112.2 112.8 115 116.1 116 115 112 108 106.9 107 105.6 104.6 103.2 101.8 96.2
155.7 163.8 163.6 162.6 162.8 162.6 161.9 160.4 159.8 161.2 160 157.3 156.3 154.7 153.9 151.7 149.3 148 146.6 146.3 144.7 145.3 144.6 146.2 144.7 143.1 141 138.9 135.1 133.7 130.2 127.7 126.8 124.2 123.5 122.7 121.7 122.8 123.5 124.4 126.5 125.4 123.5 126.4 126.3 126.7 126.4 109 107.9 107.9 106.3 107.2 126.4 129.3 131.8 132.8 132.3 131.7 130.1 127.7 125.3 123.4 121.1 118.4 112.6 99.2 99.1 99.6 99.8 105.2 108.3 109.1 107.5 109.8 113.8 115.5 116.5 117.7 119 120.1 121.7 122.9 124.8 127.3 129.5 131.1 133.5 134.6 137.6 139.1 142.2 144 145.6 154.4 154.4 146 148.8 152.5 156.8 161.3 167.1 175.5 184 186.5 189.5 192.4 198.1 201.2 208.9 215 222.2 228.2 228.6 228.5 228.9 229.2 229.1 227.2 226.7 224.3 228.1 231.4 233.4 233.4 232.6 229.8 224.2 220.6 217.2 214.2 210.4 205.9 202 200.8 199.6 197 195.2 191.6 188.4 185.8 183.1 180.4 177.3 173.5 170.2 166.7 162.7 158.3 154.5 151 147.6 144.6 141.9 139.1 136.6 133.8 132.2 130.7 129.4 123.8 122.3 122.9 123 123.2 121.9 120 119.9 121.4 121.6 121.6 121.8 120.7 120.1 119.4 118.7 118.2 116.3 111.9 103.6 92.4 96.4 100.5 109.3 110.9 112.2 112.9 114 115.4 115.8 115.6 115.1 112.1 108.9 107.5 106.8 104.9 103.8 102.8 101.2 96.4
155.7 160 159.5 158.8 156.5 157.9 157.4 156.6 155.2 153.6 152.3 152.6 152.3 151.1 150.7 148.4 146.8 143.8 142.7 142.3 142.8 142.8 142.8 143.6 142.7 141.1 139.5 138.6 136.1 133 129.1 127.4 126 123.9 123.1 121.8 121 121.2 122 121.8 123.2 121.7 120.7 122.9 123.7 123.5 121.5 106.7 102.8 102.9 103 115.6 128.8 131.3 132.7 133.3 131.9 131.1 129.6 126.6 124.2 122.5 120.7 117.4 115.2 98.4 102.4 103.9 105.2 105 108.8 105.1 105.1 111.4 111.9 113.7 115.9 117.2 118.7 120.4 120.5 120.8 121.4 123.5 125.6 127.3 128.7 130.7 132.7 135.1 138.2 139 140.4 142.3 139.7 147.7 150.8 154.9 159.5 163.9 168.3 171.9 179.5 181.1 185.4 189.3 193.7 201.7 209 214.4 222.7 225.1 224.4 224.8 224.3 223.5 222.6 221.7 220.4 218.8 223.7 226.2 227.5 229.7 231.3 231.3 228.9 225.8 223.1 217.4 212.1 206.2 200.8 194.8 195.3 195 194 191.1 187.8 184.2 182.2 180.3 178.4 175.1 172.2 167.8 163.5 158.6 154.8 151.6 148.2 145.4 142.7 139.2 136.7 134 132.3 130.5 127.9 125.3 123.6 122.9 121 120.5 119.9 119.5 120.3 123.1 123.7 123.1 122.3 120.8 120.8 119.7 118.5 117.4 114.8 111.8 110.3 100.7 95.4 98 109.9 111.2 112.8 113.7 114.6 115.1 114.4 114.5 113.5 111.3 108.5 107.8 106.5 104.1 103.2 101.4 98.8 94.5
154.3 154.9 156.6 153.9 153.9 156.4 154.4 152.9 151.9 150.8 150.3 149.3 148.3 147.3 146 143.9 141.3 141.8 140.7 139.8 140.3 141.2 141.4 141.1 140.4 139.3 138.2 137.8 135.5 131.5 128.6 126.6 125 123.5 122.2 120.8 120.7 120.4 120.1 120.3 120.4 120.5 119.3 119.5 120.3 117.6 115.8 110.7 102.5 103.7 104.3 126.8 131 133.3 134.1 133.6 130.2 129.5 128.1 125.5 123.2 121.4 119.7 117.2 110.3 96.5 99 103.2 103.6 102.9 105.1 106.2 109.7 111.7 112.5 113.2 114.2 116.4 118.2 119.5 119.6 119.3 120.2 122.1 123.6 124.7 124.9 126 127.8 130 131.7 134.4 135.1 136.4 143.7 148.3 152.6 157.5 161.5 166.9 171.9 176.1 179.4 183 186.9 193 198.6 204.5 210 215.4 218.6 218.3 219 220.4 220.4 219.1 216.6 216 214.7 213.8 217.5 219.5 220.6 223.7 226.4 229.2 229.5 229.2 226.6 220.5 213.5 206.2 198.3 195.2 187.6 188.9 190.1 189.8 186.7 183.6 182.1 179.5 177.9 174.8 171.8 167.3 164 159.6 155.6 152.1 148.7 146 143.2 140.8 138 134.8 132.7 128.8 127 126.4 124.3 123 122.5 122 122.3 121.5 121.2 122.5 123.8 123.5 122.7 120.7 120 119.6 117.7 116.5 113.7 110.7 108.3 102.4 94.5 98.4 110.5 111.6 112 113.2 112.7 112.9 112.8 113.7 112.6 110.7 108.3 106.8 105.4 104.1 103.3 99.8 95.3 93.1
147.9 146.4 151.3 151.9 154.6 155.9 154.3 152.1 148.5 146.7 146.9 145.5 146.5 143.5 142.4 141.8 139.1 138.6 138.4 137.7 138.2 139.4 139.8 138.9 138.3 137.4 136.3 135.5 133.5 129.7 128 125.9 123.9 122.1 121 117.4 120.2 120.1 119.4 118.8 119.1 119 117.8 118.3 115.3 110.7 112.5 108 102.6 98.8 116.8 128.1 131 134.1 134.3 133.3 129.4 128.4 126.7 124.9 122.3 121 119.4 116.9 114.1 104.6 96.2 97.4 97.4 97.5 105.1 108.2 109.3 111.3 111.4 112.5 114.8 115.3 115.4 118.3 117.4 118.4 119.5 120.8 122.3 122.5 122.6 123.2 124.3 126 129.3 130.7 131.5 135 140.2 146.7 153.2 159.4 163.6 168.6 173.5 177.5 181.3 185.7 190.1 193.2 197.6 202.2 206.5 209 209.7 210.2 211 213.3 214.6 214.4 214 210.9 209.4 209.8 210.8 211.7 212.7 215.8 219.6 223.1 224.8 225.8 225.7 222.6 217.3 208.6 201.5 195.3 190 183.4 183.3 184.7 183.9 182.2 179.4 178.6 176.6 173.7 171.1 167.7 163 159.2 156.1 152.4 149.8 147.1 143.6 141.1 138.6 134.1 132.4 130.2 125.9 125.3 123.5 124.3 125.6 123.7 121.7 122.3 119.5 121.4 122.9 123.2 122.4 121.8 120 119 116 114 110.6 109 104.2 103.2 91.6 98.8 109.8 110.2 109.4 110.7 110.4 110.7 111.2 112.4 112.9 111.3 109.4 108 106.7 104.2 102.4 98.3 93.6 92.8
159.9 150.6 148.1 148.6 152.9 154.9 153.8 152.2 151.3 147.9 145.1 142.5 141.9 141.1 140.2 138.2 136.7 135.8 136 135.9 136.6 137.4 137.4 137.1 136.6 135.6 135.1 133 131.4 128.6 127.1 125.1 122.9 120.8 120.3 116.1 118.6 118.9 119.3 118.7 117.8 116.5 115.6 115.3 100.1 101.3 105 101.9 101.7 105.2 125.2 128.2 131.6 133.8 134 132.6 128.9 127.5 125.3 123.2 121.6 120.3 119 117.6 113.6 106.1 102.2 100.5 98.9 95.8 97 106.9 109.5 110.6 111.1 111.6 114.8 114.5 115.2 117.1 116.5 116.8 117.6 119.3 119.9 120.3 120.7 121.5 122.3 123 126.4 127.8 129.6 132.5 137.3 145.1 151.9 158.8 164.1 168.6 173.2 177.7 181.3 185.7 188.5 190.5 193.2 196.9 197.6 198.8 199.1 200.3 204.2 206.1 209.2 210.6 208.5 206.5 201.5 201.2 204.5 205.2 208.1 213.1 216.5 219.7 221.1 221.8 223.2 222.2 219.7 214.2 206.4 198.8 194.5 191.5 186.2 176.7 177.9 179.4 179.1 177.4 175.4 172.9 170.2 166.7 164.2 159.9 155.8 153.2 150.3 147.3 143.7 140.7 138.1 135.6 131 127.7 126.3 123 122.9 123.5 124.9 124.3 122.6 121.9 118.9 120.6 121.5 122.3 122 121.1 118.6 115.1 113.3 111.4 108.6 108.1 97.1 91 100.3 107.8 109.4 109.3 109.7 110.4 110.4 111.1 111.9 112.8 113 111.9 110.2 109.1 107.5 104.9 102.1 94.3 92.7 92.1
153.6 150.3 146.1 142.9 152 154.3 152 150.3 148.3 145.9 144.6 143.1 140.6 139.4 138 136 133.9 132.6 132.8 133.1 134.1 134.5 135.2 135 135.6 133.3 133.6 132.3 129.9 127.2 125.8 124.1 121.7 119.8 119.2 119.1 110 115.5 119 119 119.1 116.3 114.9 109.1 99.9 99.6 100.7 103.2 104.9 117 125.3 128.1 131.1 133.1 133.3 131.6 128.3 127.1 124.6 122.8 120.8 120 118.8 117.8 113.4 108.5 101.1 100 98.5 98.2 97.8 95.4 103.1 110.7 111.2 111.6 112.2 114 115.4 115.7 115.7 116 116.8 118.1 119 118.9 119.4 119.6 121.2 122.4 123.9 123 127.5 129.6 133.8 141.1 148.7 155.9 161.3 165.7 169.6 173.4 177 180.4 183.5 186 187.4 188.3 188.6 189.2 191.1 192.8 196.4 199.2 202.7 203.9 203.1 202.4 200.6 192.8 197.7 200.3 206.8 211.4 216 218.2 219 219.7 220.4 218.5 216.6 214.3 210.4 203.1 198 194.1 189.4 184.2 179.8 172.8 170 172.6 171.4 170.7 168.5 166.4 162.9 159.5 156.3 152.2 149.9 147.5 143 139.9 136.1 134.7 131 126 125.7 122 121 120.9 121.1 121 121.4 121.4 119.3 118.7 120.9 121.3 121.2 119.6 115.3 113.2 112.4 110.7 108.4 107.3 96.5 89.9 97.7 105.7 109.1 109.5 110 109.4 109.7 109.6 113 114.5 113.1 112 108.4 108.9 108.3 106.3 97.1 92.8 91.9 91.7
150.9 147.2 140.7 137 143.1 150.1 148.6 148.3 145.4 144.7 144 141.1 140 138.4 136.9 137.1 136.9 131.9 131.2 128.6 131.6 132.1 131.4 131.3 131.2 130.4 131.4 130.5 128.1 125.1 123.7 122.2 120.4 118.7 116.9 118.5 118.2 108.7 117.3 117.6 117.5 116.7 115.9 105 98.9 98.7 99.3 102.1 107.1 121.8 125.5 126.8 130.1 132 133.4 131.3 128.1 126.6 124.4 122.4 120.6 119.5 117.9 114.8 111.9 106.9 101.3 99.6 98.6 97.9 97.8 93.9 99.4 109.6 110.5 111.6 113 112.8 113.7 114.6 115 115.4 116.5 116.8 117.4 117.9 118.2 118.8 119.4 121.1 122.2 121.3 124.3 126.8 129.6 134.1 143.3 149.1 154.5 159.7 163.7 166.8 170.7 173.6 176.5 178.1 179.9 179.6 180.6 180.9 182.9 185.7 188.7 191.9 194.4 196.4 197.1 194.8 192.6 192.3 194.4 201.1 206.6 211.5 214.3 216 217.3 218.2 218.7 216.9 213.4 210.4 207.5 204.4 199.5 193.4 188 183.4 179.8 176.3 172.4 162.9 166.4 166.5 165.8 164.1 161.7 158.2 154.8 150.4 149.2 145.9 142.4 138.9 136.2 132.6 128.6 124.2 123 121.5 120.2 120 121 120.4 120.6 120.6 118 117.4 120 120.4 120.4 118.8 113.1 112.5 111.5 111.1 110.3 107.8 96.3 90.6 91.5 101.9 106.7 108.3 108.9 109 109.6 109.7 109.7 110.5 110.2 108.6 108.8 109.1 108.6 107.4 93.9 90.8 91.5 91.4
156.7 156.4 154 143.8 135.7 142 146.6 146.2 144.9 143.9 142.9 140.2 138.9 137.5 137.5 137.6 136.5 131.7 130.7 129.3 127.5 129.8 129.2 128.2 127 126.8 128.7 129.2 126.4 124.2 122.9 120.9 119.5 117.9 114.9 113.3 113 108.3 114.5 116.5 116.7 117.2 116.4 103.3 98.5 98.2 97.8 100.7 112.2 121.2 125.8 127 130.5 131.4 131.7 130.7 128.7 124.6 124.5 121.5 120.3 118.2 116.7 113.4 111.3 104.6 101.7 99.6 92.5 94 92.7 94.7 100.7 108.4 110 111.6 113.6 113.5 113.1 113.5 114.3 115.1 115.3 115.5 116.1 116.7 116.6 117.6 118.7 119.4 119.9 120.5 122.3 124.6 127.4 130.9 136.9 142.5 147.3 151.7 156.1 160.2 164.3 167.4 169.1 170.6 171.9 173 174.8 174.6 175.7 177.7 180.8 184 185.8 188 189.1 186.3 185 188.6 195 201.1 203.7 207.1 208.8 211.2 214.6 215.7 216.5 215.2 211.3 209 206.2 202.5 198.6 193.3 188.1 183.5 178.2 174.2 169 163.1 155.7 162 162.2 160.9 158.9 156.5 153.8 149.7 146.6 144.9 142.5 139.6 134.4 129.6 132.5 128.4 125.5 121.4 119.7 118.4 118.9 120.3 119.6 118.4 116.6 117 119.4 119.4 119.6 118.8 112.7 111.6 110.9 110.5 110.5 110.1 102.6 95.5 92.8 95.2 101.8 104.2 107.1 107.1 108.6 107.4 107.4 107.7 108.9 108.9 108.4 108.8 108.8 99 93.3 90.7 91.1 91.1
155 155.8 152.8 148.3 135.4 136.4 144.1 144.1 143.4 142.3 139.9 139 137.4 137.8 137.4 137.6 134.4 131.3 130.5 125.9 123.8 126.3 125.7 125.9 125.3 125.5 125.7 125.9 125.8 123.4 122.4 120.6 118.7 118.4 118.4 115.6 116.7 109.2 104.5 115.5 116.7 116.6 113.2 107.1 98.5 98 97.7 98.4 114.8 121.8 125.7 127.2 130.6 131.4 131.5 130.6 128.4 124.9 123.3 121.5 119 117.8 115.4 113.2 105.1 103.8 101 99.5 104.3 106.3 106.1 97.3 106.6 107.3 109.2 110.8 112.1 112.1 112.2 113.3 113.7 114.3 114.5 114.8 115 115.2 115.6 116 117.1 117.9 118.2 118.8 121.1 123.6 125.5 129 132.4 136.4 140.8 145.3 148.7 153.1 157.1 159.7 161.5 163.6 165 166.5 167.6 167.2 168 171 174.7 176.5 178.9 180.5 179.8 180.4 181.2 185.6 189.7 193.9 196.2 198.4 199.7 201.7 205.9 209.6 211.4 210.8 209.4 208.6 206.7 203 198.7 195.3 193.2 187.5 181.4 175.9 170.2 165.1 160.8 155.3 157.4 157.1 155.3 153.5 151.2 148.4 145.5 142.9 140.9 134.8 131.5 134 134.8 132.6 127.5 124.5 120.1 118.7 118.3 120.2 121.5 118.4 116.4 117 117.9 118.2 117.3 118.3 115.5 112 110.5 109.9 109.8 109.3 108.6 95.6 92.6 90.4 93.9 101.5 103.7 105.6 106.7 106.4 106.5 106.6 107 107.7 108.6 109.3 109.3 100.2 91.2 90.7 90.4 90.6
151.2 149.5 147 145.7 143.4 132.7 137.5 141.5 141.2 139.5 138.7 137.2 137.2 137.5 136.6 134.6 132.8 130.2 127.6 126.1 124.3 122.8 122.7 123 123.3 124.3 124.9 124.4 122.3 121.4 121.1 119 117.6 117.8 115.3 116.1 116.9 112.4 106.5 107.6 116.4 114.3 104.2 99.9 96.7 97 97.6 97.9 102.9 122.4 125.2 128.2 130.7 131.6 130.6 128.9 126.7 124.5 122.7 120.9 118.4 116.3 114.4 111.4 104.8 101.3 100.5 93.7 102.8 108.8 108.5 107.2 104.3 105.3 105.5 109.9 111 111.3 111.8 113 113.5 113.4 113.7 113.9 114.4 114.6 114.9 115 114.3 115.8 115.3 118.1 120.1 122.1 123.8 126.7 129.6 132.9 136.1 140 141.8 145.6 148.5 151.3 154 157.1 158.6 159.9 159.7 161.6 163.8 166.4 168.7 171.2 172 173.4 174.7 174.2 179.8 182.7 185.8 188.3 191.5 191.5 192.5 194 198.1 202 205.1 204.8 205.5 205.9 205 202.7 199.3 195.4 193 188.8 182.5 177.2 172.2 165.6 162.3 157.6 151.6 149.3 151.1 149.9 148 146.5 144.1 142.4 138.2 136.2 134.9 136.4 135.4 132.2 128.3 123.6 122 120.2 114.8 114.8 114.8 114.8 115.7 115.5 116.1 116.2 114.9 116 117.1 114.7 109.2 108.3 108.9 108.5 108.5 107.8 98.8 91.7 90.4 92.2 97.1 97 101.4 104.1 105.7 105.6 105.6 107 108.3 109 109.7 99.5 91 90.4 90.4 89.5
149.7 149.2 146.1 145.1 144 137.5 129.8 136.8 139 136.9 135.7 135 136.6 135.8 134.9 132.7 129.5 127.4 125.7 124.8 123.7 122 121.8 121.2 122.1 122.2 123.1 121.9 120 119.7 119.3 118.9 116.8 116.3 117 117.7 118.3 118 108.7 103.5 107.6 93.5 93.6 94.7 95.6 96.1 97.3 97.1 103.5 120.9 125.3 128.3 130.7 131.1 130.2 128.6 126.2 123.4 121.6 120.2 117.3 116.3 113 106.7 104.2 96.3 92.5 104 104.1 109.4 110.3 109.9 109.2 108.9 109.2 109.2 109.3 109.9 111.6 112.6 113.2 113.4 112.4 112.5 113.5 113.3 113.9 112.8 112.9 113.9 118.2 120.8 120.6 122.3 124.8 125.5 128.1 130.4 133.2 135.9 138.9 142.1 144.4 146.5 148.8 151.2 153.7 155.2 155.8 158.4 160.5 164.3 167 169 169.5 171.5 171.8 172.8 175.3 177.1 179.8 181.7 182.7 183.8 186.2 189.4 193.3 196.6 199.3 199.9 201.6 202 201.8 200.8 198.6 196.1 193.2 188.5 182.7 176.7 173.1 166.4 161.6 157.3 153.6 148.6 145.7 144.1 143.4 142.7 142 141.1 137.7 139.3 139.5 137.5 134.9 132.7 129.6 126.8 124.7 123.2 120.7 116.6 114.8 114.8 114.8 116.2 115.5 112.4 112 112 114.8 112.2 108.7 108.2 107.6 107.7 107.5 107.1 106.5 100.1 95.7 89.3 91.1 91.4 92 94.3 96 102 102.9 104.1 104.8 103.8 102.4 95.9 92.5 90.2 89.5 89.8
149 148.4 145.1 144.1 140.8 136.3 127.9 131.3 135.9 135.6 134.2 136.4 137.5 135.7 134.1 130.3 127.2 125.5 124.1 123 122.3 121.3 120.2 119.4 121.2 121.6 121.8 120.8 119.2 118.3 117.4 116.8 116.3 116.6 115.9 116.3 117.4 116.8 115.8 102.4 91.5 94.3 93.9 97 98.3 97.3 99 96.2 115.8 119.5 124 127.5 129.2 129.8 128.7 128 125.2 122.8 120.5 117.8 115.2 113.4 101.1 96.6 93.4 99.1 100.8 101.6 105.5 109.5 111.9 114 111.3 110.3 110.7 111.7 110.1 110.3 111.3 112.2 112.7 112.6 112.5 111.2 112.5 112.4 110.6 111.9 115.6 118 120.2 122.1 125.4 126 127.9 128.3 129.5 130.5 132.1 134.9 135.6 138.3 138.6 142.3 144.7 146.7 149.5 152 154.8 156 160.2 164.2 166.8 167.5 168.7 168.9 167.1 170.1 171.5 172.9 173.7 175.2 177.4 179.3 181.9 184.8 188.6 192.1 195.3 197.8 199.5 199.9 199.3 199.3 198.1 195.7 192.4 188.3 183 178.7 174.3 169.9 163.7 159.3 156.2 153.7 151.1 149.3 146 145.3 143 141.4 139.1 141.1 141.2 137.4 135.1 132.8 130.2 127.7 125.8 124.6 123.3 121.8 119.4 115.4 116.3 114.6 114.3 113.5 110.9 110.1 110.3 109.8 108.8 107.5 106.6 105.9 105.5 105.2 105.3 105.1 102.3 101.1 92.6 88.5 86.2 89.4 91.5 92.4 101.3 101.4 105.1 104.4 100 90.9 89.8 89.2 88.8 89.2
145.9 145.1 141.9 140.6 140.2 139.5 135.1 125.8 123.6 129.8 135.2 137.7 136.9 135.1 130.6 127.2 125.8 124.3 123.5 122.7 122 120 118.8 117.7 118.3 119.8 120.2 115.8 115.8 115.8 115.2 115.1 114.7 114.9 115.4 113.7 113.9 114.2 112.1 105.4 92.8 94 92.8 92.9 95.7 103.3 107.5 111.1 115.4 118.9 122.7 125.1 128 127 127 126.6 124.8 122.3 119.8 116.6 114.6 111.5 99.4 90.3 96.5 98.7 99.2 101.4 105.5 110.3 114.3 115.5 115.4 114.5 113 112.9 111 111.3 111.6 111.4 111.2 111.1 110.2 106.9 105.2 113.7 114 115.2 116.8 119.6 122 124.2 126.2 127.2 129.2 132 132.7 132.8 134.7 136.2 136.6 141.3 143 145.7 149 150.1 153.5 154.9 155 154.7 159.3 165.1 165.8 165.6 164.8 165.4 163.2 167.3 168.4 168.8 169.5 170.7 173.7 175.5 177.8 180.3 183.6 186.8 190.1 193.2 195.1 195.5 197.2 198.9 196.9 194.5 191.8 189.1 186.5 182.7 177.7 171.5 165.7 161.2 158.4 156.1 153.6 149.9 147.3 146.2 144.8 143.8 143 143.1 141.3 138.7 135.6 134 130.6 128.3 126.6 125.4 124.2 123.1 120.6 117.3 115.3 113.6 113.5 115.7 112.6 110.7 110 108.5 107 105.7 105.5 104.9 104.5 104.3 103.9 104.4 104.1 103.7 102.5 101.9 94.1 88.1 85.8 91.1 94.4 99.6 100.4 98.1 93.3 90.1 89.5 89.1 88.6 87.3
144.4 140.9 140.3 140.2 139.7 138.8 136.1 134.9 118.6 126.7 135.8 135.3 133.8 130.6 127.7 126.1 125.3 124.5 123.7 122.9 121.9 121 119.2 117.8 114.2 113.8 117.2 115.6 115 114.2 114.1 114.2 114 114.2 113.6 112.6 111 110.2 110.2 110.8 96.8 93.7 93.2 93.1 93 103.1 107.4 111.1 114.5 118 121 123 125.2 124.9 124.9 124 122.3 120.7 118.5 116 114.1 109.8 93.6 93.5 97.4 98 98.5 100.2 106.3 112 116.8 119.7 116.1 116 112.2 111.8 111.6 112.3 111.7 111.4 109.1 108.9 101.4 109.5 113.2 114.7 115.6 117.3 119.4 121.3 123 126.1 127.8 129.2 131.7 133.3 135.4 136.3 137 139.2 141.6 143.6 145.2 149 151.4 154.2 158 159.8 161.5 161.6 157 161.2 161.2 161.3 162.2 162.3 159.7 163.2 164.5 165.5 165.7 167.5 169.1 171.5 174.3 176.7 180.1 183.7 187.3 190.6 195.5 193.8 193.6 194 194 193.3 192.6 189.8 188 184.9 180.8 174.5 168.6 164.4 161.8 158.3 154.5 151.2 148.9 147.5 146.1 146.2 145.3 144.6 142.3 138.5 136 133.2 130.8 128.6 127.3 126.1 124.9 123.4 121.5 117 115.4 114.1 113.5 114.7 113.6 112.9 111.9 109.6 108.8 106.7 105.6 104.8 104.6 104.2 103.5 103.5 104 103.5 102.8 102.5 102.6 101.9 85.4 87.4 90.3 96.7 97.1 91.5 90.9 89.5 88.9 88.3 88.8 85.6
140.9 138.6 138.1 136.9 134.3 134.3 135.3 132.1 125.9 120.2 132.5 131.5 129.9 127.6 126.5 125.4 125.2 124.2 123.3 122.9 122.5 122 120.9 119.6 117.8 115 114.9 114.8 113.4 112.8 113.6 114.4 114.5 114.3 113.6 112 110.5 109.3 109.5 110 110.7 102 92.3 92.3 90.8 101.1 107.6 110.6 113.7 116.2 118.9 120.4 121.9 122.9 122.8 121.3 119.7 118.1 116.5 115.7 114.1 105.4 87.8 94.7 97.3 97.5 98 99.6 108 113.1 117.2 119.9 117.7 116.6 116.5 115.4 114.3 112.5 111.3 110.8 109 106.8 104 112.9 114.1 115.3 116.2 118.7 120.8 123.2 125.2 127.4 129.5 130.4 133.1 135.9 137.3 138.9 139.4 142.3 144.9 146.6 149 152.5 155.8 158.5 161.2 162.8 161.5 160.8 157.2 156.1 157.9 158.2 158.4 156.3 159 160.1 161.5 162.5 162.7 165.3 166.2 168.9 170.6 174.5 178 182.3 185.6 188.6 189.2 187.8 187.8 188.3 188.8 189.6 192.9 190.4 188.8 186.4 179.5 175.3 170.9 167 162.9 158.4 154.5 151.7 149.9 148.8 147.6 147.9 146.9 144.8 140.8 138.2 135.4 132.7 130.4 128.9 127.6 125.9 125.1 121.7 121.3 119.5 115.3 114.4 114.2 115.3 115.9 116 114.6 112.1 109.3 106.8 105.4 105 104.2 103 103.5 103.1 103.8 103.6 103.1 102.7 103 102.6 84.1 86.9 88.1 91.1 93 91.9 90 88.8 88.3 87.6 87.3 84.6
137.1 136.7 136.7 136 135.5 134.5 130.9 130.5 124.1 119.6 125.8 127.6 125.2 124 124.5 124.3 124.4 123.9 123.1 123.1 123.3 122.9 121.1 120.6 118.8 115 113.6 113.1 111.2 111 113.9 115 114.5 113.9 113.4 112.4 111.3 109.2 108.2 109.1 108.8 92.8 91.8 95.6 89.3 104.4 106.8 109.9 111.8 114.6 117.1 118.4 119.2 119.4 119.2 120.5 117.3 116.3 114.8 114.9 113.8 104.2 89.6 94.2 96.9 96.6 97.3 98.5 109.7 113.8 116.5 117 115.6 117.5 115.4 114.9 113.7 112.7 111.3 107.7 99.4 101.6 111.7 113.4 115.1 115.4 117.4 119.4 121.9 124.4 126.6 128.7 131.1 133 136.1 138.3 140.2 141.8 144.5 145.5 147.4 150.3 153.4 156.6 158.4 160.2 161.2 161.3 159.8 157.6 156.9 152.7 155.7 155.3 154.8 155.9 156.5 158.3 158.4 159.4 160.5 161.5 163.2 164.7 168.1 172 176.2 179.9 182.2 183.7 184 183.4 181 181 181.1 181.6 183.5 183.4 184 182.3 179.9 175.5 169.7 166.6 162.2 157.7 155.1 152.3 150.9 149.8 149 149.2 147.4 144 140.1 137.3 134.5 132.1 129.5 128.1 127.6 126.1 124.4 122.8 121.1 118.8 114.3 114.1 113.9 114.9 117 117 116.4 113.9 109.4 106.2 105.2 104.5 103.6 102.1 102.2 102.8 102.7 103.3 102.9 102.5 102.4 102.4 100.8 84.3 88.2 85.6 85.4 91.6 89.1 88.2 88.1 88.1 87.5 85.2
136 136 136 129 122 119.4 121.5 118.8 118.6 117.9 114.1 120 120.6 117.9 118.4 120.4 120.4 120.5 121.1 122.7 122.8 121.6 121.7 120.7 117.2 114.7 113.5 112.5 109 108.9 114.1 114.1 113.5 113.1 113.4 112 110.4 108.3 106.9 106.5 106.4 94.7 99.6 91.3 89.3 104.1 104.8 108.3 110.9 113.3 114.7 115.8 116.8 116.8 116.8 119.3 115.9 114.4 113.9 114.2 113.2 102.6 90.1 92.5 96.2 95.9 96.2 97.8 110.6 113.4 114.2 114.7 114 115.2 114.1 114.1 112.7 111.9 110.1 99.6 101.7 110.3 111.8 113.5 115 116.4 118.6 120.2 122.5 125.2 127.3 129.6 132.4 134.9 138.5 140.8 143.4 146 147.9 149.1 151.3 154.7 157 158.6 160 160.3 158.7 157.3 156.9 155.5 153.2 151.9 151.9 152.5 153 153.7 154.4 153.9 155.2 156.8 157.4 159.1 159.9 162.2 164.9 167.1 171 173.9 175.5 176.3 176.2 176.1 172.9 173.5 173.4 173.8 174.7 175.7 175.7 175.3 174.7 172.9 169.6 164.7 160.7 157.4 155.1 152.9 151.7 150.6 149.6 148.9 147.2 142.8 138.9 136 133.1 130.5 127.7 126.9 125.9 124.4 122.6 120.5 119.3 114.3 113.6 113.6 113.7 113.7 114.7 115.4 115.9 114.3 111.1 106.2 104.8 103.5 102.5 102.1 101.3 101.7 102.2 102.5 102.5 102.3 102 101.9 100.3 98.4 91.7 91 83.1 90.3 87.8 87.3 87.5 87.4 87 84.4
133.4 128.5 127.7 124.8 123.2 121.6 120.6 119.1 118.8 120.6 117.2 112.7 113.8 114.4 114.8 113.2 110 112.2 110.7 117.4 121.3 120.8 120.3 117.2 115.3 114.1 113.5 112 109.7 107.6 108.8 109.5 110.4 111.8 111.1 109.9 109.1 107.8 106.6 101.6 100.7 96.3 99.3 99.7 89.3 100.6 104.2 106.6 110 110.8 112.4 114 114.9 114.6 114.8 115.7 113.1 112.8 113.3 112.8 111.8 103.9 89.3 90.3 94.4 95.6 96.1 96.5 108.1 111.6 111.4 111.8 111.7 112.6 110.9 111.5 110.4 108.9 104.5 101.5 108.4 110.6 112.5 113.7 115.8 117.3 119.3 121.1 123.4 125.6 127.4 129.6 132 136.4 140.2 143.8 146.7 148.9 151.4 152.2 154.9 156.3 158.4 159.4 160.1 160.9 159.4 156.9 153.2 153 151.4 150.6 150.2 150.9 151.8 151.7 152.1 152 152.1 153 153.9 155.7 156.1 157.8 159.1 160 162.5 164.6 166.5 166.7 165.8 167.6 165.8 166.9 167.5 167.7 168.4 169.2 169.3 169 168.9 168.4 166.2 162.9 159.4 157.3 155 153.1 152.4 151.4 150 148.2 144.9 140.9 137.4 134.4 131.7 128.4 125.1 123.9 123.5 121.8 117.8 116.8 114.3 114 114 114.2 113.9 114.1 115.1 114.3 114.1 113.7 110.2 106.7 104.9 102.7 102.6 101.9 101.2 100.6 101.4 101.9 101.8 102 101.9 101.4 99.8 98.5 91.6 90.8 88.7 81.9 85 86.1 86.9 86.8 86.4 83.9
130 128.2 127.1 124.9 124.4 126.2 122.6 121.9 124.2 129.7 124.6 116.9 117.2 117.2 113 112.2 111.7 109.9 109.9 104.7 117 117.6 116.7 115.7 114.8 113.6 113.1 112 109.7 107.8 107.9 107.9 109 109.4 109 100.9 105.1 105.6 106.7 106.6 91.5 90.7 91.1 91 91.4 102 103.1 104.6 105.9 108 109 109.4 109.7 112.3 112.5 112.1 111.3 112.1 112.6 111.7 110.4 109.6 96.7 86.1 91.5 94.6 95.7 98.1 101.5 110.9 109.6 108.4 110.8 109.1 108.1 107.3 107.1 98.5 95.3 103.7 108.4 110.7 113 114.2 116.4 117.9 119.9 122 123.4 126 127.8 130 133 136.2 141.9 145.8 149.2 151.4 153.2 154.2 156 157.6 158.9 161.4 162.2 161.4 159.6 156.8 154 152.6 150.4 149.8 149 149.5 149.9 150.1 150.6 150.4 150.4 150.9 151.9 151.9 152.2 152.7 153.7 154.6 153.8 155.6 156.5 157.7 158.5 161 158.3 159.7 160.5 159.5 161.1 163.9 164 165.2 164.1 162.7 161.4 160.2 158.6 156.4 155 153.4 152 150.6 148.2 145.5 143.1 139 135.6 132.6 129.7 124.4 121.9 120.1 119.5 118.4 116.1 115.5 114.5 115.3 115.6 115.9 114.7 111.7 112.5 112.2 110.7 109.3 108.3 105.6 104.5 102.4 102.3 101.4 100.6 99.9 101 101.4 101.6 101.7 101.7 101.3 99.7 97.8 91.1 90.9 88.7 87.5 82 85.1 85.8 86.2 86.4 84.6
130.3 131.1 130.3 129.5 129.9 131.8 129.3 134.6 141.9 135.4 135.8 135.6 119.7 117.2 115.4 113 113.3 114.2 115.7 104.3 108.7 105.8 105.8 112.2 114.4 112.9 112.2 110.6 105.7 105.4 106.7 106.4 105.2 105.2 100.9 100.6 102.6 104.1 104.4 104.6 91.1 90.8 90.3 90.9 93.3 102.3 103.3 104.4 107.8 107.5 109.8 109.4 110.1 110.1 110.5 110.2 111.2 112 112.8 111.2 110.4 111.4 106 90.8 89.5 85.7 94.4 95.3 102.2 109.3 109.1 110.2 109.9 108.1 106.1 105.3 95.7 93.2 108.1 110.3 108 111.3 112.8 114.6 116.7 118.8 120.8 123.1 124.7 126.3 128.6 130.8 134 137.2 143.7 147.7 150.9 153.5 154.8 156 156.9 158.3 160 161.9 162.5 161.7 159.7 157.1 154.7 152.6 150.5 149 148.1 148.2 148.8 149 149.1 149.1 148.8 149.2 149.4 150 150.9 150.6 150.2 149.4 149.5 148.9 148.1 148.7 149.4 147.3 148.4 149.6 149.9 148.8 152.4 159.5 162.3 161.9 161 159.7 158.1 157.4 156.4 154.8 153.9 152.5 150.8 149 145.9 143.3 138.9 136 133.3 130.7 126 122.1 119 117.3 116.6 115.9 114.9 114.5 115.6 116.2 116.3 115.9 113.6 111.3 110.5 110.1 109.6 107.4 106.9 104.6 103.8 102.4 101.7 101 100.2 99.1 100.6 100.9 100.9 101 101.2 100.5 99.7 99.2 95.5 91 88.8 86.7 85.2 82.4 82.5 82.5 81.6 78.3
135.8 137.7 135.4 135.1 134.8 135.6 135.1 134.9 139.1 134.6 135 135.7 131.1 128.8 125.4 124.3 119.8 119.8 119.7 109.4 106.4 104.8 104 104.9 104.4 108.6 109.6 105.6 105.1 104.7 98 100.5 98.2 96.5 88.7 90.8 89.4 91.3 91.1 91.7 91.5 91.1 89.9 90.2 89.6 90.1 96.9 104.6 107.4 107.7 108.8 109.4 109.4 109.7 110.3 110.8 111.7 112.7 112.4 111.6 110.7 109.8 108.9 96.4 89.5 90.4 92.1 92.4 100.5 107.9 109.4 109.8 109.3 108.1 105.3 97.4 98 107.9 109.8 111.1 110.5 111.5 113.2 115.7 117.2 119.6 121.6 123.9 125.8 127.5 130.4 131.8 134.8 140.1 144.3 149.9 153.4 154.9 155.9 156.7 157.5 158.2 159.5 161.4 162.3 161.6 159.8 157.4 154.9 152.9 150.8 148.5 147.5 147 147.7 147.7 147.8 147.7 149.2 150.5 151.4 153.8 155 156.6 156.9 154.8 153.5 153.3 152.9 153 150.4 149 148.7 148.7 148.7 148.7 148.7 149.9 158 158.7 157.9 156.8 155.4 154.1 153 152 150.7 149.8 148.6 146.9 143.2 139 135 133.3 130.8 127.1 122.8 119.8 117.5 115.6 114.8 114.2 113.8 113.8 115.4 117 116.6 114.7 111.8 110.7 110.1 109.8 109.5 107.9 105.8 104.6 103.3 103 100.2 99.8 99.9 98.9 100 100.4 100.3 100.5 100.5 99.6 101.3 100 96.4 92.3 89.3 86.8 84.8 80.6 80.9 81.7 79 77.8
149.1 146.3 143 139.6 137.9 137 135.5 135.3 138.2 137.8 134.1 132.6 129.4 127.6 124 123.3 119.7 119.4 119.5 110.5 102.1 102.5 103.9 101 104.8 106.4 107 100.9 92.3 105.2 99.9 97.8 97.5 95.1 93.9 92.7 91.4 90.5 87 90.6 90.8 89.9 89.8 90.1 90.7 90.6 88.8 105.5 107.2 107.2 107.8 108.3 108.8 109.5 110.1 111 112.1 112.9 112.2 111.4 110.4 110.6 109.4 98.9 89.5 93.1 87.4 90.4 91.9 93.4 99.3 109.4 105.9 105.9 100 92.1 107.1 109.4 110.6 111.3 111.2 112.5 113.9 116.7 118.3 119.9 122.3 125.2 127 129.4 131.8 134 140.2 144.8 149.3 152.6 154.6 155.5 156.2 156.4 156.8 157.5 159.2 160.7 161.5 160.9 159.4 157.1 155.6 153.4 150.9 148.8 147.5 146.5 146.3 146.5 147.2 150.1 152 153.8 155 157.3 160.9 163.2 165.3 166.3 167.3 167.3 166.3 165.8 164.5 161.6 152.6 149.5 148.7 148.7 148.7 148.7 152.1 153.8 154 152.9 151.4 150.2 149.3 148.2 147.3 147.1 144.9 139.8 135.7 132.7 130.7 128.7 127.8 125.2 122 118.6 116.3 114.2 113.2 112.2 111.8 112.9 114.5 116.1 116.7 113.8 112.1 110.4 109.7 109.3 109 108 106.3 104.9 103.9 102.2 100.9 99.6 99.6 100.2 100.5 100.4 99.8 99.9 99.7 100.9 100.7 98.9 95.7 89.6 87 85.7 83.9 81.8 77.4 79.4 77.7 79.4
154.3 143.4 144.7 143.7 141.2 138.7 136.6 135.2 134.8 134.6 133.4 131.4 128.6 126.1 123.9 122.9 119.2 119 118.2 114.2 115.8 117 116.5 105.6 95.1 96.8 102.1 106.4 106.6 106.2 105.8 101.4 101.3 101.2 101.2 101.6 93.5 91 89.6 88.6 88.5 89.2 89.5 89.9 90.7 90.5 86.4 105.7 106.6 106.5 107 108 109.1 109.8 115.4 112.1 111.8 112.6 112.1 111.3 109.6 110.3 107.4 102.7 92.4 95.9 92.9 84.2 86.6 86.9 87.4 97.5 99.9 99 87.6 93.8 105.1 109.6 110.6 111.4 112.1 113.3 114.3 116.1 118.8 121.1 123.6 126.8 129.3 131.2 133.2 138.7 143.5 148.5 153.5 153.2 154.7 155 155.2 155.2 154.9 156.8 157.7 158.6 159.1 158.9 157.8 156.9 155.3 153.2 150 147.5 147.2 146.2 145.2 146.3 149.3 152.2 154.2 156.1 159.2 162.3 166.7 168.5 170.4 170.1 169.6 168.7 168.9 168.5 167.9 165.7 159 154 151.5 148.7 148.3 141.9 139.8 146 148.7 148.4 148 146.7 146 144 143.8 142.7 140.5 134.5 132.5 128.8 126.9 124.4 122.9 121.9 121.4 116.9 115 113 111.5 110.3 109.2 110 111.4 114.9 115.4 114.2 112.1 110.1 109.2 108.8 108.7 108.2 107.2 105.8 104.3 102.3 100.6 99.9 99.4 99.9 99.7 99.8 99.3 99.1 98.9 98.3 99.1 97.7 88.3 85.6 85.5 84.8 81.7 81.7 76.9 77.8 80.2 79
157.8 154.4 149.3 147.3 142.8 141 138.1 137.1 133.8 132.5 130.9 128.7 126.9 125.1 124.7 120.2 119.1 118.7 117.8 116.3 116.5 117 117.7 114.2 113.2 107.8 107.8 107.3 109.2 109.5 107.5 108.3 108.4 108.8 108.3 105.1 104.7 104.3 89.9 86.8 89.1 88.6 88.2 88.5 90.8 87.8 98.3 106 106.4 106.4 107 108 109.4 110.7 113.7 111.7 111.7 111.4 111 110.1 108.3 109 107.6 105.4 99.4 96.4 91.6 89.3 86.8 84.1 83.8 83.9 85.9 85.7 95.1 98.4 105.9 109.4 109.7 111.2 112 113.4 114.2 116.5 119.4 122.1 125.2 127.9 131 133.1 138 142.2 146.4 150.5 153 154.2 153 153 152.2 152.9 153.1 152.6 154.1 154.9 155.3 155.3 154.5 154.6 153 151.8 149.3 146.2 145.7 144.7 145.7 148.8 151.6 154.2 156.3 159.8 163.9 169.9 172.6 172.1 169.7 168.4 167.7 168.1 169 170 169.4 166.2 162.2 157.6 148.9 146.9 141.9 137.8 138.2 138.2 138.3 142 143.4 144.1 142.2 139.9 138.1 137.6 135.4 133.4 126.3 123.7 120.8 119.4 119.3 119.7 120.2 120.4 112.3 111.5 109 109.1 108.9 107.9 108.4 110.2 111.8 111.2 109.6 108.6 108.5 108.8 108.7 108.2 107.5 106 103.8 101.9 101.2 100.7 98.8 99.3 99.1 99.5 99.1 98.7 97.6 97.5 96.7 86.5 85.5 85.1 84.3 83 82.3 81.4 76.6 80.4 78.5 80
159.2 154.1 151.3 148.3 145.7 142.4 140.1 137.9 135.4 132.9 130.6 128.9 127.6 125.5 124.7 121.9 120.4 118.8 117.9 116.9 116.7 116.9 117.1 114.7 113.8 112.9 112 111.7 111.6 110.3 108.4 108.8 109.1 109.4 109.3 109.2 106.5 104 93.5 86.7 85.1 88.7 88.2 89.1 89.1 100.9 104.7 106.3 106.8 107.2 107.7 109 109.5 110 110.3 109.7 109.9 110 108.7 107.1 107.1 106.4 105.7 103.1 99 96.5 89.3 88.8 87.9 87.4 87.1 86.9 85.6 85.3 82.3 104.8 107 109.1 110.2 111.7 112.5 113.9 114.7 117.2 119.4 122.9 126.4 129.1 131.3 134.9 138.6 144.3 148.6 151.3 152.2 152.6 151.8 151.1 150.7 150 150.2 150.5 151 151.5 151.6 151.8 151.7 150.2 148.5 148.3 147.4 144.9 143.5 145.2 148.5 151 153.9 156.7 160.4 165.2 170.8 172.8 172.1 170.5 167.3 165.9 165.2 166.3 168.9 168 166.2 164.9 163.2 160.6 156.9 153.3 149.8 144.5 142.5 138.8 138.2 138.2 139.5 141.4 139.2 135.8 132.6 130.3 127.6 124.2 120.1 119.5 119.7 119.7 119.2 118.9 119.6 120.4 113.3 112 112.1 111 109 109 109 107.7 108.5 109 109 109 109 109 106.5 107.8 106.8 105 102.4 100.7 99.4 97.5 99.2 98.5 97.7 96.9 98.5 98.5 97.1 94.5 90.3 86.4 85 84.5 83.6 82.6 81.2 78.9 77.1 77.9 79.6 81.6
160.4 157.2 153.1 150.7 147.1 144.3 141.9 138 135.9 133.6 131.2 129.3 128.4 127.1 125.7 123.6 121.4 119.6 117.8 117.1 116.6 116.7 117.5 115.9 115 114.6 114.4 113.8 112.4 110.8 109.4 109.8 110.1 109.9 109 107.9 107.3 104.7 102.5 88.4 87 87.7 87.2 90.2 100 103.6 104.4 106.5 106.8 107.3 107.9 108 108.4 108.8 109.6 109.3 109.2 108.8 106.5 105 103.7 105 103.5 101.2 98.1 89.7 89.4 89.1 87.6 87.4 87.4 85.8 85 84.8 84 107.8 109 109.7 109.9 111.1 112.6 114.4 114.8 118 121.2 124 126.4 129.1 132.3 135 139.2 144.9 148.6 149.8 150.5 150.6 149.2 148.7 148 147.3 146.5 146.7 147.7 147.9 148.5 147.8 147 145.8 145.2 145.4 142 143.3 147.2 149.3 151.6 154 157.1 159.9 164.5 168.8 172.3 171.9 169.5 166.5 164.2 162.5 162.3 163.3 164.9 164.9 164.1 163.8 163.4 161.8 159.6 157.2 155.1 152.4 148.1 143.6 138.2 138.2 138.2 137.3 134.6 131 128 126 124.5 124.4 123.2 120.2 120.2 120 121 119.6 119.2 120.5 117.6 116.1 114 112.6 111.4 111 110 108.2 109 108.8 108.2 108.9 109 109 105.2 104.1 103.3 98.1 95.4 97.7 97.6 97.6 98.2 97.5 97.5 96.6 95.9 96.1 96 96.3 93.3 87.7 84.6 83.4 83.4 82.4 79.8 79.2 82.5 83.4 81.6 81.9
162.2 158.4 155.4 151.7 148.6 147.3 143.2 140.3 137.1 134.9 132.2 130.3 129.7 129.3 127.4 125.9 123.8 121.2 118.9 118.3 117.2 115.9 115.6 115 115.2 115.1 115.1 114.1 112.9 111.8 110.6 111 110.2 109.7 108.5 107.7 107.3 104.4 103.2 102.8 86.7 86.8 89.2 101.6 101.1 103.9 106 106.7 106.9 107.4 107.8 107.9 108.2 113.4 109.8 109.4 109 108 105.7 104.3 102.3 103.2 101.1 99.4 97.3 88.9 89.1 87.5 86.7 86.9 85.2 84.4 84.2 83.5 93.9 108.6 108.4 108.9 109.3 111.2 112.2 113.7 116 118.1 121.2 123.5 126 129.8 132.8 135.2 138.8 142.4 146.3 147.8 148.1 147.6 146.9 146.4 145.2 143.4 141.8 143.3 143.4 144.4 144.2 144.3 143.1 142.9 141.5 141.5 143.6 146.7 149.5 151.6 153.9 157.2 159.7 163.3 167.7 170.9 172.5 170.8 167.4 164.3 161.4 159.5 159.6 160.1 160.5 160.7 159.9 161.3 160.2 159.3 157.8 155.7 153.6 150.3 147.2 143.3 138.2 138.2 138.2 131.5 129.4 127.3 125.1 124.4 124.4 125 131 125.7 129.7 129.1 128.9 128.8 126.7 123.6 121.8 121.9 116.6 117.2 115.3 112.3 110.8 110.2 110.4 111.3 111.5 111.7 109.4 108.8 106.3 103.7 102.5 104.8 102.7 102.7 100.8 100.4 97.9 97.5 97.8 96.5 94.8 94.6 94.2 94.9 93.7 86.4 84.5 83.2 82.7 82.7 78.4 81.5 82.9 84.5 86.6 88.5
162.8 159.6 157.2 154 151.1 148.5 146.2 142.5 139.4 137.7 133.8 132 131.7 130.5 128.6 127 124 123.2 121.1 119.8 118.6 117.4 114.7 114.2 114.1 114.2 114.1 113.7 112.5 111.7 111.6 111.6 109.9 109.4 108.9 107.9 107 104.5 103.5 94.1 87 84.4 97.6 101 100.9 102.5 105.5 106.2 106.9 107.4 107.7 107.9 108.7 110.7 110.3 110 108.5 107.4 105.9 103.9 102.5 101.8 101 99.5 96.6 89 86.6 86.9 85.9 86.1 85.5 84.1 83.9 80.4 95.5 108 107.5 104.9 109.5 111.4 112.5 114.1 116.3 118 120.1 123.6 126.5 132.6 134.1 136 140 144.1 147.9 149.3 147.6 146.7 146.3 149.1 147.8 145 141.3 139.7 139.7 139.6 139.9 139.6 139.6 138 144.8 145.9 147.6 149.5 151.5 153.4 156 158.9 161.4 165.5 169.3 172.2 172.8 170.1 166.3 162.9 160.2 158.8 157.9 157.3 157.6 157.8 157.8 157.6 156.9 155.8 154.8 153.2 151.5 147.3 144 139.1 138.2 138.2 127.5 126.2 126.5 125.1 124.4 124.4 125.6 131.3 133.8 134.1 134.1 132.2 132 131.1 129.6 127.7 126 121.8 121.9 120.4 117.2 115.2 115.6 115.4 115.1 114.8 113.3 112.1 111.4 109 107 106.7 106.8 106 103.5 102.5 101.8 100.9 98.1 97 98.1 97.8 97.1 96.1 93.4 92.8 90.5 83.3 83.3 82.8 82.7 79 79 82.4 84 84.6 87.1 89.2
162.6 160.4 157.7 155.9 153.3 151.1 148.7 145.8 143.6 142.1 141 134.9 133.3 132 129.8 127.6 126 123.7 122.2 121.5 120.2 118.5 116.5 114.8 113.8 113.1 112.7 112.7 111.7 111.9 111.9 110.9 110.2 109.2 108.7 108 106.9 105.5 95.8 86.2 85.8 83.4 101.3 101.1 99.9 101.4 104.5 106.6 107 107.3 107.5 108.1 109.6 110.2 110.6 109.4 107.8 107.5 106 104 102.7 101.3 100.4 99.2 96.5 89.4 86.9 86 85.1 85.3 85 83.9 83.7 83.5 99.9 100.3 98 108.2 110.1 111.5 112.7 114.6 116.7 119 121.1 124.8 126.8 132.8 134.3 139.3 143.1 147.3 150.4 151 150.6 147.7 147.8 149.9 148 144.1 140.7 139 136.8 135.6 138.5 141.5 141.7 144.4 146.2 147.4 148.7 150.8 152.7 154.4 157.1 159.7 162.4 166.5 169.9 172.4 173.1 170.2 167.6 164.7 161.7 159.8 158.2 157.5 156.7 155.3 155 154.8 153.8 152.2 151.3 149.5 147.6 147.5 138.1 140.2 138.9 133.3 128.6 127.5 127.1 126.2 124.9 126.9 131.2 135.3 137.2 136 135.7 134.2 132.9 131.4 129.7 128.4 127.4 124.6 123.7 121.2 118 119 117.8 116.8 116 115.4 113.5 112 111.1 109.9 107.7 106.7 106.4 104.9 103.2 101.9 101.8 101.1 98.4 97.3 98 98.3 97.2 96.6 93.9 91 89.3 83.9 82.7 82.5 82.7 77 76.7 83.4 84.3 85.2 87.9 89.2
162.4 161.2 158.7 156.5 154.5 153.2 150.7 148 145.4 143.4 142.1 136.3 134.4 132.7 130.7 128.6 127.4 126.1 123.9 122.9 121.8 120.5 119 117.1 116.5 112.9 111.4 112.1 110.1 110.7 110.9 110.8 110.5 109.2 108.9 108.8 107.8 105 103 86 85.6 84.4 89.4 94.3 95.7 100.4 106.4 106.2 107 107.1 107.3 108.2 111.2 109 109.1 108.5 107.1 107.2 106.6 104.6 103.1 101.8 99.3 98.6 96.3 90.3 85.8 85.5 85 84.6 84.6 83.7 79.6 95.1 95.2 105.7 107.4 106.6 108.2 111 113.4 115.5 117.6 120.8 124.7 127.2 130 133.6 137.1 142.5 147.2 152 151.7 150.8 148.7 146.8 147 148.4 145.6 142.7 139.2 137.6 134.7 138.9 141.9 143.3 144.1 145.2 145.9 147.4 149.3 150.7 152.7 154.7 157.2 159.7 162.8 166 170.4 173.5 174 172.1 169.4 166.6 163.6 161.5 160.2 158.6 157.2 155.6 152.4 151.8 150.9 150.2 148.5 147.3 143.1 143.9 142.4 138.7 133.3 134.2 132.6 131 129.9 130.5 131.6 133.7 135.6 138 138.2 137.1 136 134.7 133.3 131.7 130.3 129.7 128.8 126.8 124 121.3 119.9 120.7 119.4 117.7 116.5 115.4 113.7 112.6 111.3 109.7 108.3 106.3 105.4 104.7 104.5 104.6 101.8 99.9 98 97.4 97.2 96.8 96.8 96.5 96.3 93.5 83.6 83.4 82.2 81.4 82 76.8 76.9 83.7 84.7 84.8 88.2 89.3
161.1 160.3 158.8 156.8 154.8 152.8 151.4 149 146.4 144 142.7 137.4 135 133.8 131.9 130.6 128.9 128.1 126.7 125 124.2 122.2 121.2 119.2 116.8 114.3 111.9 111.2 110.6 109.8 110 110.2 110 109 109 108.4 105.9 105.5 101.3 87.3 85.7 86.1 89 92.6 95.4 99.8 106.5 106.5 107.7 108.6 109 109.6 110.7 108.5 107.3 107 107.4 106.4 105.6 104.1 103 101.9 99.5 99.1 97.9 89.8 85 84.8 84.2 84.1 83.7 83.3 83.1 90.9 103.2 106.6 107.7 109 110.7 111.9 114.3 116.3 119.2 120.7 127.2 129.4 133.3 137.6 142.1 154.2 152.7 152.6 151.9 150.8 149.8 148.1 147.9 147 143.1 142.4 142.3 140.8 135.3 136.9 141.6 142.6 142.9 144 145 146 148.4 150.7 153 154.8 157.3 159.8 162.7 165.4 170.1 174.7 176.3 174.5 172 169.1 166 163.4 161.4 159.4 157 154.7 152.5 148.8 147.5 146.5 145.6 147.6 146.2 143.6 141.6 141.9 143.3 142.7 142.4 140.9 137.9 137.8 137.9 138.7 140.3 140.6 139.2 137.9 136.3 134.5 133.2 131.9 131.1 130 129.4 127.3 124.9 122.9 121.6 121.1 119.8 118 116.9 114.8 113.4 112.5 111.3 110 108.3 106.2 104.8 104 103.8 103.2 100.7 99.4 98 97.2 97 96.7 96.5 95.5 94.5 91.1 87.1 84 81.5 80.8 82 76.3 77.1 84.3 85.7 86.2 88.9 90.3
158.8 158 157.5 156.2 154.3 152.5 150.4 148 146 144.3 141.2 138.3 136.3 135.1 133.3 131.8 130.6 129.7 128.2 126.8 125.7 124 121.1 119.4 117.6 115.3 113.4 111.4 110.4 109.6 109.4 108.9 108.6 108.6 108.7 108.3 106.2 106.2 100.8 92.6 86.2 83.4 89.5 90.8 94.5 100.7 101.6 105.6 108.1 109.1 109.3 109.8 109.9 108.2 107.1 107.5 107.4 105.4 104.6 103 102.2 101 100 99.8 98.7 93.6 84.8 84.2 83.6 83.4 83.1 79.8 82.3 89.3 106.3 106.8 107.7 108.5 111.2 113.5 115.9 117.7 120 124 131.9 133.1 134 141.6 152 154.8 155 153.6 152.7 151.7 150.7 149.6 148.3 147 144.6 145.1 144.4 143.1 137.8 131.8 138.8 140 141 142.4 144 144.8 147 149.2 151.4 154.2 157.1 159.7 162.2 165.4 168.4 172.4 176.7 177.7 175.4 171.9 167.2 164.5 161.6 159.5 157 154.8 153.6 152.2 150.4 148.2 149.7 148.7 147.2 141.8 146.2 146.9 146.8 147 147.3 146.3 145.2 143.8 143.8 145.1 144.5 142.4 140.6 138.5 136.8 135 133.6 132.8 132.1 131.1 129.5 127.9 127 124.8 120.9 120.2 119.3 117.8 116.5 114 113.5 112.6 111.6 109.7 108.2 106.6 105.2 103.7 103 100.2 99.4 98.4 98 97.2 97.1 96.6 96.1 95.6 95 87.9 86.4 82.6 81.8 81.4 81.7 77.6 74.8 85.1 87.2 88.1 89.1 90.4
156 155.7 155.2 154.3 152.8 151.4 146 144.7 144.7 143 141.2 139.3 137.5 136.4 134.3 132.7 131.4 130.5 129.1 126.9 125.8 123.8 120.6 119.7 117.1 115.3 113.7 111.7 110.7 109.3 108.3 107.5 107.7 107.8 107.7 107.9 107.3 106.6 100.6 95.6 89.8 83.3 90.1 90.3 92 92.9 101.3 103.3 103.4 107.6 109.7 108.9 108.3 107.1 106.8 106.9 105 104.3 102.5 100.6 101 101 100.1 99.6 98.4 95.3 93.5 83.8 83.3 82.9 82.6 80.6 82.5 85.4 102 107 107.9 109 111.7 114.1 116.5 118.9 122.4 128 131.9 134 142.7 151 153.1 154.6 156.9 155.1 153.5 153.4 152.4 151.3 150.5 149.7 148.8 147.9 146.1 143.2 138.1 133 131.9 136.5 138.2 140.3 141.7 143.3 145.9 148.6 151.3 153.8 156 158.8 161.9 164.7 167.3 170.4 173.3 175 175.3 172.3 168.5 165.5 162.8 160.9 158 156.2 154.9 153.5 152.7 152.3 151.4 150.2 148.3 148.1 148.9 149.4 150 150.6 151.4 151.3 151 150.6 149.3 147.9 147 144.2 141.8 139.5 137.4 135.7 134.5 133.4 132.6 131.6 130.2 129.6 128.3 126.4 121.8 119.3 118 116.8 115.7 115.2 113.8 112.7 111.6 110.3 110.4 106.1 105 103.9 102.8 100.8 99.3 97.8 98.1 97.5 96.9 96.5 95.9 95.1 93.6 88.5 83.3 81.8 81.3 80.1 81.7 76.7 80.7 85.5 86.4 87 89.2 90.9
153 152.7 152.7 151.4 150 148.9 143.6 143 142.2 141.5 140 139.1 137.3 136.2 134.3 132.6 130.7 129 127.9 126 124.4 122.1 120.3 118.6 115.7 114.4 113.4 111.9 110.5 107.9 107.7 106.8 106.8 107 106.7 107.2 106.8 99.5 98.7 94 89 81.4 88 89.3 91.6 92.7 104 103.5 103.3 103.7 103.5 107.3 107.2 106.9 106.7 106.8 105.5 103.6 101.7 100.6 100.8 100.7 100.2 99.6 98 95.2 86.5 84.8 83 82.6 81.5 79.5 81.9 86.1 104.1 106.7 108.2 109.5 112.3 115.2 117.5 122.1 123.1 130.8 138 144.7 153.1 155.1 155.4 156.2 156.8 156.1 155.6 155.3 154 153.6 152.3 151.3 150.1 149 146.5 142.4 136.1 133.5 130.5 133.1 136.6 138.9 137.6 142.5 145.5 147.4 151.2 153.8 155.9 157.9 161.9 163.4 167.1 169.7 172 173.5 173.5 171.7 169.8 167.4 165.3 163.2 160.9 159 156.7 155.1 154.4 154 152.2 151.6 148.2 150.6 151.6 152.3 152.9 153.6 154.4 155 155.3 155.2 153.7 151.6 148.8 145.2 142.2 140.9 137.8 136.4 135.3 134.2 133.3 132.6 132 130.8 128.8 125.7 122.1 119.9 118 116.3 115.1 114 113 112.1 111.5 110.2 108.3 105.5 103.9 103 102.8 101.7 99.9 98.8 98.1 97.4 96.7 96.3 95.3 93.1 91.2 85.8 82 80.9 80.9 81.4 78.1 73.5 83.6 83.6 85.8 86.4 88.9 88.8
