ncols 200
nrows 83
xllcorner 430000
yllcorner 165000
cellsize 50
156.4 155.6 154.4 153.3 156.4 159.8 165.1 165.3 165.4 165.7 165.7 167.6 167.6 167 165 163.7 162.8 160.7 158.9 156.9 155.3 153.5 153.1 153.2 153 152.5 152.7 152.4 152.5 152.6 152.3 151.4 150.3 149.3 148.8 147.1 145.5 144.3 143.6 142.3 141.4 140.4 138.9 137.1 136 135 133.2 131 129.9 129.6 129.5 129.4 129.6 130 130 129.7 129.5 130.1 131 131.6 131.9 131.3 130.6 128.4 125.4 120 112.3 106.9 102.6 99.8 98 97.4 97.6 97.9 96.8 96.7 96.8 96.8 96.6 96.8 94.9 94.5 95.2 96.2 98.7 99.6 103.1 103.5 108.6 112.2 115.6 118.8 121 122.2 122.8 122.8 121.1 117 115.2 120.4 123.4 125.7 126.9 127.4 128 128.5 129 129.6 130.3 130.6 130.1 130.2 130.2 130.1 129.4 128.9 127.7 126.4 122.6 118.5 119.8 122.8 123.2 124 127.8 129.9 131 130.9 130.8 130.8 130.8 130.7 130.5 130.3 130.8 129.7 129.4 129.5 129.4 129.3 128.8 127.9 127.8 127.3 126.3 126.2 126.5 126.1 124.8 123.3 122.2 120.4 118.2 115.4 112.3 108.8 105.2 102.3 99.6 97.2 95.7 94.8 95.1 95.7 100.6 109.9 115.3 117.7 117.9 117.3 116.6 116 114.3 112.9 110.1 105.3 101.7 103.3 107.5 110.5 114.3 116.5 117.1 117 117.4 117.6 117.8 116.4 114.1 112 114 116.6 116.8 117.9 116.8 116.4 117.6 117 117.4 118.3
154.1 153 150.3 153.5 157.9 162.2 165.1 165.1 165 165 165 165.6 166.7 166.4 165.6 163.8 163 160.6 159.5 157.4 154.4 152.6 150.7 151.3 151.2 150.6 150.4 150.8 151.2 151.4 151 150.2 149.3 148.2 147 145.5 143.7 142 141.2 140.4 139.1 137.8 136.3 134.6 133.4 132.1 130.1 128.2 126.4 125.9 125.8 125.9 126.1 126.3 126.5 125.9 125.1 125.9 126.9 127 127.3 127.7 126.6 125.5 123.8 120 115.3 109.3 104.3 100.2 98.4 97.5 97 97.3 96.7 97.1 96.6 96.7 96.5 96.9 96.2 94.7 95 94.6 96 97.1 98.8 99.9 103.8 107.1 110.2 114.2 116.9 118.3 119.5 119.2 118.3 113.2 114.7 120.3 123.4 125.4 126.5 127 127.4 127.1 127.1 127.8 129.3 129.2 129.1 129.1 129.2 129.3 128.4 128.3 127.5 126.7 124.1 120.3 116.1 116.5 119.4 122.4 126.3 128.9 130 130 129.9 129.9 129.8 129.8 129.6 129.7 129.6 128.5 128.3 128.6 128.9 128.4 128.1 127.7 126.9 126.3 125.9 125.6 125.4 125.7 124.4 123.6 122.6 121.5 119.6 117.3 115.5 112.8 109.3 105.6 102.8 100.5 98.2 95 94.6 93.9 96.8 103.8 112.7 115.4 115.8 115.1 114.5 114.1 112.8 111.3 109.2 104.5 101.3 102.8 106.7 111.5 114.6 115.6 115.7 116 116 116.2 116.7 116.1 114 111 111.3 114.2 115 116.1 116.3 116.3 115.8 114.9 115.1 115.8
151.6 149.3 149.9 153.6 157.8 162 164.6 164.9 164.9 164.9 165 164.7 165.6 166.1 164.5 163.8 162.5 160.6 159.5 157.7 153.4 151 149.1 149.2 149.3 148.6 148.8 149.5 149.9 150.2 149.7 148.9 147.9 146.6 145.4 143.7 142 140.2 138 137 135.9 134.6 133.3 131.3 130.2 128.9 126.9 125 123.1 122.4 122.3 122.3 122.4 122.6 122.6 122.1 121.1 121.6 122.8 122.5 122.7 122.6 121.3 120.9 119 117.5 114.3 109.6 104.9 100.7 98.7 97.9 97 96.6 96.7 96.7 97 96.8 96.3 96.8 96.8 96.3 96.3 94.5 96.1 96.7 96.8 97.7 100.1 101.5 104.7 107.5 110.2 113.4 115.6 116.1 110.7 111 116.4 121.3 124.1 125.3 125.7 126.1 126.1 126.4 126.5 126.4 127.4 127.9 128.4 128.5 128.7 128.7 129.1 128.7 128.2 127.2 125.8 122.6 119.2 114.3 114.3 119.3 123.9 127 129.1 129.3 129 128.9 128.9 128.8 128.9 129 129.1 127.5 127.3 127.8 128.2 128.1 127.4 126.1 125.7 125.6 125 124.7 124.5 124.4 124 123.1 122.1 120.9 119.5 117.9 116.2 114.5 112.2 109.3 106.1 103.5 100.6 97.4 94.2 93.6 94.6 99.3 108.4 113.3 113.9 113 112.3 112.6 111.1 109.4 106.9 102.4 100.8 104 108.2 112.7 113.9 114.6 114.7 114.8 114.6 115.1 115.6 115.4 113.7 109.9 110.3 113.4 113.8 114.3 114.5 114.6 115 113.7 112.9 113.8
149.2 147.3 151.1 154.6 158.9 162.6 163.8 164.1 164.2 164.2 164 164.1 164.8 164.9 164.5 162.9 161.8 160.2 158.8 157.1 153.2 151.1 149.1 148.9 147.6 145.8 146.6 148.2 148.5 148.9 148.5 148.5 146.2 144.8 143.2 141.4 139.3 137.1 134.4 133.7 132.6 131.3 130 128.1 126.8 125.5 124 121.9 119.9 119 118.5 118.3 118.6 118.8 118.8 118.5 117.7 118.4 118.3 118 118.6 118 115.7 113 109.3 107.4 105.7 103.1 101.4 99.5 98.2 97.5 97.3 96.9 96.8 96.9 96.9 96.6 96.4 96.3 96.3 95.9 96.2 95.3 94.6 96.7 96.3 96.7 97 98.5 100.3 102.6 105.1 107.3 109.1 109.2 107.4 109.9 116.4 120.1 122.2 123.6 124.1 124.7 125.1 125.1 124.9 125.8 126.5 126.8 127.8 128 128.3 128.1 129.2 128.9 128.5 127.7 126.5 124.4 122.3 118.6 113.1 114.5 120.4 124.8 127.5 128.7 128.2 127.9 127.9 128 128 127.7 127.6 127.1 126.7 127 126.8 126.8 126.1 125.2 124.9 124.6 124.1 123.8 123.6 123.4 122.7 121.6 121.1 119.9 118.5 116.9 116 114.9 114.1 111.4 108.6 105.5 101.9 98.5 95.4 93.6 94 96.6 105.1 111 112.4 111.5 110.6 110.1 108.5 107 104.2 100.7 101.4 106.5 110.1 112.2 113.5 113.8 113.2 112.9 113.2 114.2 114.5 114.3 112.6 109 109.1 112.6 113.3 113.6 113.9 113.7 113.5 113 111.6 112.2
145.4 146.4 150.5 156.1 160.2 161.9 162.9 163.4 163.2 162.3 162.2 163.1 163.9 163.4 163.2 161.8 160.1 158.4 157.7 156.2 152.9 150.8 148.8 146.4 145.1 144.2 144.9 146.7 147.1 147.4 147.5 146.6 144.6 142.4 140.7 138.8 136.5 134.3 131.3 130 129.3 127.9 126.6 124.7 122.9 121.7 120.1 118.8 116.9 115.7 115 115.1 114.9 115 115.3 114.5 113.7 113.7 113.1 113.3 112.7 111.4 110 107.6 105.1 101.4 99.8 96.8 97.4 97.4 97.1 97.5 96.9 96.8 97 97 96.5 96.4 96.2 96.1 96 95.9 95.8 94.9 94.5 95.4 95.8 96.5 96.2 96.2 96.5 98.3 100.3 102.1 103.8 103.9 104.4 108.3 113.1 116.8 119.3 120.2 120.8 121.6 122.5 122.5 123.2 123.9 124.5 125.4 126.2 127 127.2 127.6 128.4 128.1 127.5 126.4 126.6 125.7 123.7 121 115.2 110.1 115.3 122.2 126 128.4 127.9 127.4 126.3 126.1 126.7 126.5 126.6 126.5 126.2 125.4 125 125.2 124.1 124.3 124.1 124 123.6 122.9 122.7 122.2 121.7 120.3 118.9 118.5 117.1 116.6 115.7 114 113.5 111.7 109.4 106.7 103.2 99.7 96.8 94.5 93.7 95.2 99.7 108.5 110.2 110.4 109.6 109.2 106.6 104.5 101.4 100.3 103.5 108.1 110.9 112.6 113.3 112.7 111.8 111.1 111.3 113 113.2 112.9 110.5 107 108.6 112.1 112.6 112.9 112.9 112.8 112.9 111.6 109.7 110.7
143.4 147.5 151.9 156.2 159.2 160.4 161.2 161.5 160.8 159.3 160.1 161.1 162.2 162.4 161.6 160.3 158.7 156.9 156.1 154.3 151.6 148.8 146.7 144.9 142.8 141.1 143.2 145 145.5 145.7 145.4 144.7 143 140.3 138.4 136.1 133.7 131.4 128.1 125.8 125 124.1 123 121.1 119.2 117.8 116.6 115.7 113.9 113 112.4 112.1 112 111.7 110.9 110.7 109.7 110.3 109.6 108.9 107.7 105.9 104.1 101.5 99.2 98 97.3 97.9 97.2 96.7 97.2 97.3 96.9 96.5 96.6 95.9 96.1 96.2 96.2 96.3 96 95.8 95.3 94.5 94.7 94.8 95.1 95.1 95.4 96 95.5 95.8 96.6 98.4 100.5 101.4 101.9 104.1 107.7 111.5 113.6 115.4 116.2 117.9 118.8 118.7 119.6 120.5 121.7 123.2 125.1 125.7 126.1 126.4 126.9 127.3 126.6 126.5 126.6 126 124.8 122.5 117.2 109.5 112 118.2 124.7 128.3 127.6 126.8 125.3 124 124.9 125.4 125.6 125.6 125.2 124.1 122.8 123 123 123.3 123.2 123 122.4 121.8 121.4 121 120.6 119 118.4 117 115.6 114.7 114.7 113.1 111.3 110.2 109.2 107.3 104.2 101 98.1 95.8 93.6 93.7 98.9 107.3 109.9 109.6 109.4 108.5 105.4 102.8 100.3 99.7 104.4 108.6 110 110.6 110.7 111.3 110.2 109.2 109.8 110.9 111.6 110.8 108.4 105.8 108.3 111.6 112 112 111.6 110.7 111 110.3 108.4 109.8
145 149.3 152.7 155.5 158 158.9 159.6 159.2 157.8 156.3 156.4 157.8 159.6 159.9 159.4 158.3 156.9 155.1 154 153.3 150.7 148.1 145.5 143.6 140.9 139.3 140.8 143.4 143.9 143.5 143.1 142.6 141.5 139.2 136.1 133.3 130.9 128.2 124.9 121.7 121 120.4 119.2 117.7 116 114.4 113.2 112.2 111.1 110.2 109.7 109.7 109.4 108.2 107.3 106.8 106.3 106.1 105.4 103.7 102.6 99.5 98.3 98.2 98.1 97.8 97.3 97.5 96.6 96.9 97.1 97.1 97 96.3 96.9 96.9 97 96 95.8 95.9 95.7 95.6 95.2 95.7 94.5 94.8 95 95 95 94.9 95.7 95.6 96.6 96.5 98 99 99.6 100.2 101.8 104.6 106.9 108.8 111.3 113.3 113.7 114.3 115.5 116.6 118.6 121.3 122.5 123.3 123.9 125 125.5 125.6 125.8 125.9 125.5 124.9 123.7 120.9 116.9 110.4 110.4 117.8 123.6 127 126.6 126 124.5 122.5 122.6 123.9 124.5 124.4 124.2 122.9 121.1 120.5 121.2 122.2 122.2 121.8 121.1 120.3 119.6 119 118.4 117.5 116.4 115.1 114 112.4 111.3 110.2 109.4 108.6 108 105.6 104.2 101.7 99.5 97.4 93.8 93.2 97.6 107 108.8 109.3 108.9 107.7 104.8 101.7 99.5 100.1 104.8 107.6 107.9 108.3 108.7 109 108.1 107.4 108 109 109.5 108.2 106 104.7 106.6 110.6 111.5 111.5 110.3 108.9 109 108.6 106.8 107.9
146.8 150.2 152.3 154.7 156.4 156.9 157.3 157 155.6 154.1 154.9 156.5 157.1 157.2 157.2 156.4 155 153.6 152.4 151.6 150.1 147.5 145.1 142.6 138.9 136.6 137.4 140.1 141.4 140.9 140.4 140.4 138.9 136.8 133.7 130.5 127 124.4 121.4 119.1 117.3 117 115.4 114.3 113 111.6 110.2 109.2 108.6 106.4 106 105.3 105.4 103.2 103.5 103 102.3 101.4 99.7 98 96.8 96.8 97.3 95.8 97.3 97.6 97.2 97.2 97.2 97.1 97.1 96.9 97.4 96.6 97.7 97.3 97 96.4 96.4 96.2 96.1 95.9 95.7 95.2 94.5 95.3 94.9 95.2 94.9 95.1 94.9 94.8 95.2 94.9 96.5 97.3 97 97.6 98.6 99.1 100.7 102.8 105 107.4 109.2 109.7 110.6 112.5 116 118.4 119.3 119.1 120.6 122.2 123 123.5 123.7 123.7 123.3 122.7 122.2 119.3 115.9 109.1 107.5 115.5 122 125.4 124.2 124 122.5 120 119.8 121.6 122.8 122.8 122.6 121.3 119.4 118.6 119.1 120.7 120.9 120.4 119 117.5 117.1 116.9 116.1 114.5 114.3 112.9 111.3 109.6 108.7 108 107.9 107.5 107.2 106.1 105 103 100.9 97.3 93.5 93.2 96.9 105.3 108.5 109.1 108.1 106.7 104.4 101.4 99 99.8 104 106.7 107.1 107.1 107.2 107.5 107 105.6 106.1 107.3 107.6 106.6 104.7 104.4 106.5 108.7 109.7 109.5 108.1 106.7 106.8 105.3 105.4 107
148.5 150.3 151.5 152.9 154.1 155.2 155 155 153.4 152.9 153.5 155.5 155.9 155.5 154.9 154.1 153.5 152.1 150.8 149.7 148.4 147.6 145.9 143.4 139.9 136 133.8 137.3 139.1 138.1 137.7 137.8 135.7 134.4 132.2 127.9 124.2 120.7 119.1 116.4 113.7 113.2 112.3 110.6 109.4 108 106.7 106.4 104.4 104.1 102.1 100.5 101 100.9 100 98.5 98 96.8 97.6 97.6 97.5 97.3 97.3 97.2 97.1 97 97.4 97.1 97.4 97.6 97.8 98.6 98.6 97.5 97.2 96.8 97.3 95.2 95.9 96.5 96.4 96.2 95.9 95 94.5 95.1 94.9 95.5 95.3 95.3 95.2 94.8 94.5 94.5 95.2 95.8 96.1 96 96.3 96.2 96.8 98.2 99.6 101.8 104.3 105 106.5 109.2 112.4 114.2 115 115.2 116.6 118.7 119.6 120.2 120.3 121 121 120.7 119.9 118.6 115 108.5 104.4 111.1 118 121.7 121.9 121.9 120.8 118.2 117.5 119.1 120.5 120.6 120.2 119.4 118.2 116.6 116.8 118.5 118.6 118.5 117.2 115.7 115 114.5 114.1 113.5 112.1 110.5 108.9 108 107.2 106.7 106.5 106.7 106.5 105.4 104.1 102 99.3 96.2 93.3 93.1 96.1 104.4 107.5 107.9 107.2 106.2 103.6 100.3 98.2 100.3 104 105.7 105.8 105.8 105.8 106.2 105.4 104.4 104.7 105 105.4 104.8 103.5 102.8 105.2 107.3 107.5 107.3 106 105 103.6 102.6 103.8 105.2
148.3 149.6 150.4 151 152 152.6 152.1 151.7 150.4 151 152.8 154.1 154 153.8 153.1 152.5 151.2 150.3 149.3 148.7 147.9 145.9 145.8 143.9 140.8 136.6 131.9 133.8 136.6 136 134.8 134.6 132.8 131.8 128.7 125.2 121.8 118.7 115.4 112.9 110.5 109.8 108.6 107.5 105.9 105 104.2 102.6 101.6 99 97.3 98.3 98 98.2 97.5 98.2 97.7 98.1 97.9 97.3 97.4 96.9 97.5 97.1 97.4 97.1 98.8 98.6 98.6 98.6 98.9 99.2 98.2 99.4 99 98.7 97.3 97.6 96.7 96.1 95.2 96.4 96.2 95.1 94.6 94.5 95.4 95.1 94.6 94.8 94.7 94.8 94.6 94.6 95.1 95.2 96 96 96 96 95.6 96.4 96.9 98.3 99.5 101.2 102.7 105.4 107.4 109.3 109.9 110.5 112.1 114.2 114.9 116 116.6 117.2 117.6 118 117.4 116 113.5 106.9 103 108 114.2 118.1 118.9 119.1 118.3 116.4 114.4 116.2 117.9 117.9 117.8 117.2 116.2 114.9 114.2 116.2 116.5 116.3 115.3 113.7 112.6 112.5 112.1 111.1 109.9 108.5 107.2 106.6 105.6 105.3 105.1 105.4 105.4 104 101.6 99.9 98 96.1 92.8 93.2 96.7 104.2 106.4 106.6 106.2 105.2 102.7 99.8 97.7 99.7 103.4 104.5 104.1 104.2 104 104.4 102.9 102.8 102.6 102.7 103.1 102.6 101.4 101.7 103.5 104.8 104.7 104.5 103.9 102.6 102.8 102.2 101.8 103.3
147 147.8 148.6 148.6 148.5 149.4 148.4 146.6 147.2 148.1 150.1 151.5 151.3 150.7 150.5 149.2 147.5 147.2 147 147.5 145.8 145.4 143.7 142.5 140.7 136.9 131.9 129.6 133 133.6 131.8 131.3 130.3 128.2 125.6 122.4 119.5 116.2 112.8 110.6 108.4 106.7 104.9 104 103.6 99.9 100 99.4 98.3 99 98.8 98.7 98.9 98.9 98 97.1 97.8 97.9 98.4 97.9 96.4 97.4 97.4 97.1 97.1 98.3 99.2 99 99 100.6 101.2 100.2 100.9 101.2 100.6 100 98.7 99.1 98.9 97.7 97.5 95.7 95.2 95.1 95 94.8 94.5 94.5 94.8 94.9 94.6 94.9 94.3 94.6 94.6 94.1 96 96 95.9 95.7 94.5 94.6 95.3 95.9 96.7 97.9 99.6 100.5 102 103.6 104.6 105.1 106 107.8 108.3 109.7 110.6 112.1 113.6 114.2 114 113.2 111.3 105.8 102 105.5 112.3 115.7 116.5 116.2 115.4 113.6 111.9 113.6 115.1 115 114.9 114.8 113.9 112.5 111.9 113.4 114.4 114 113.2 111.6 110.5 110 109.9 109.2 108 107.1 106 104.6 104.8 104.3 104 104.3 104.3 102.7 100.7 99.2 97.5 95.5 93.3 92.7 96.8 103.8 105.3 105.4 104.9 104 101.6 99 97.4 98.2 101.4 103.2 102.5 101.9 102.2 102.1 101.8 101 101.1 100.3 100.9 100.7 100.5 100.9 101.5 102.1 102.1 101.5 100.6 100.5 100.7 101 100.7 101
144.9 145.7 145.5 145.5 145.2 145.6 145.3 144.7 145 147.1 149.5 149.7 149.7 148.9 147.7 146.3 145.3 143.6 143.4 143.7 142.5 143.2 141 139.7 140 137.2 132.5 127.3 128 130.6 129.1 127.6 126.2 125.1 122.8 119.8 116.2 112.9 109.7 107.8 105.9 103.6 102.6 101.7 99.2 98.7 98.5 97.6 97.9 98.6 99.2 99 98.7 98.7 98.4 98.2 98.5 98.8 98.9 98.1 97.1 97.1 99.4 98.4 98.3 98.6 100.5 101 102.3 104.2 105.5 102.8 103 102.7 101.6 100.4 102.8 104.5 101.9 101.8 103.3 97.1 96.1 95.2 95.6 95.2 95.1 94.8 94.6 94.5 94.5 94.9 94.3 94.8 94.4 94.3 94.6 96 95.8 95.6 95.3 94.9 94.1 94.5 94.8 96.2 95.6 96.6 97.5 98.1 99 100.1 100.1 99.9 101.4 102.5 103.8 104.2 105.5 107 108.7 108.9 107.3 103 98.3 102.2 109.2 112.2 112.9 113.2 112.4 110.6 109.7 110.5 111.9 112.2 112 112.1 111.5 110.7 109.7 111.3 111.9 111.9 111.3 109.5 108.5 107.7 107.3 106.9 106.1 105.4 105.1 104.2 103.7 103.2 102.9 103.2 103 102.2 100.3 98.6 97 95 92.4 93.5 96.2 103.2 104.2 104 103.4 102.5 100.4 98.3 96.8 97.3 100 101.6 101.5 100.8 100.5 100.3 100.1 99.9 100 99.4 99.8 99.6 99.9 99.6 99.4 99.4 99.1 98.6 98.7 98.8 99.1 98.9 99.6 99.5
141.9 142.5 142.4 141.7 141.4 141.4 141.3 142.5 145.1 146.9 148.4 148.5 148.3 147.1 145.5 143.9 142.6 140.8 138.8 138.8 139.1 139.4 137.9 137.7 137.6 135.1 133 128.3 124.3 125.6 126.3 124.4 123.1 122 119.9 116.7 113.6 109.2 106.3 103.9 102.5 101.6 100.1 99.4 99.5 99.5 99.4 99.2 99.9 100 100.2 100.2 99.1 99.4 99.4 99.1 99.5 99.9 100.6 100.9 99.9 99.6 98.8 97.9 97.9 99.7 102.6 103.8 103.9 105.5 105.2 105 105.1 104.8 102.7 101.4 102.7 104 105.6 104.7 104.7 103.1 102.7 97.7 96.2 95.2 95.3 95.3 95.3 95.3 95.2 94.5 94.7 94.1 94.5 94.4 94.7 94.9 95.9 96 93.9 93.9 93.7 93.8 93.9 94.2 94.1 94.5 94.5 94.7 94.3 94.4 94 94.2 95.2 95.9 96.4 97.5 99.2 99.1 100.4 102.3 101.6 99 97.5 100.6 107.4 109 109.4 110.3 109.5 108.3 107.3 108.2 108.8 109.4 108.2 109.4 109 108.1 107.7 108.8 108.6 108.7 108.8 107.6 106.3 105.6 104.8 104.2 104 103.8 103.6 102.7 102.5 102.1 101.8 101.5 101.6 101.5 100.1 98.4 96.5 94.5 92.7 93.8 98 102.4 102.7 102.3 101.6 101.2 99.3 97.4 96.3 96.8 99.9 100.9 100 99.6 99.7 99.5 99.3 99.2 99.6 98.3 98.6 98.9 99.1 99.1 98.6 98 97.1 97.1 97 97.1 97.4 97.7 97.6 97.3
138 139 139 137.4 137.2 137.2 140.3 143.6 145.5 146 146.9 146.8 146.3 145 143.3 141.6 139.8 137.7 135.6 134.5 135.2 135.6 135.6 135.7 135.2 134.2 132.3 129.2 124.1 121.9 122.1 121.1 120.2 118.9 116.8 114 110.7 106.9 105.2 103.3 102 99.4 99.3 99.8 100.3 101.2 101.6 101.8 101.6 101.5 101.4 101.2 100.9 101 100.5 101.5 102.2 101.8 101.6 101.5 100.5 100.2 99.2 101.9 105.9 102.3 102.8 104.4 108.4 109.2 110.1 109.6 109.3 108.3 105.2 103.4 104.4 107.4 109.7 109.5 106.6 107.4 104 103 102.3 97.6 95.6 95.2 95.2 95.2 95.2 95 94.8 94.7 94.4 94.3 94.7 93.5 94.5 94.4 93.7 93.6 93.5 93.7 94.1 93.9 93.8 93.9 93.4 93.1 93.3 93.3 93 93.1 93.6 93.2 93.1 92.9 93 93.6 93.9 95 96.2 97.4 98.9 102.7 104.4 104.6 105.4 104.4 104.3 104.8 105.8 106.5 106.5 106.7 105.6 105.6 105.6 105.6 105.6 106.7 106.8 106.5 105.8 105.2 104.4 103.7 103.1 102.6 102.5 102.2 101.4 101.5 100.7 100.5 100.3 100.4 100.9 100.5 99.8 98 96 94 92.8 93.7 97 101.2 101.3 101.1 100.8 99.8 98.8 98.6 98.6 98 98.4 99.6 99.3 99 98.8 98.7 98.4 98 97.7 97.5 97.8 98.2 98.3 98.4 97.8 97.3 97 96.7 96.4 96.2 96.2 96.4 95.7 95.9
134 135.3 134.2 131.8 133 137 141.4 143.6 144.7 144.8 145.1 144.8 143.9 142.7 141.2 139.1 136.7 134.7 132.6 130.1 131.1 131.9 132.1 132.2 132.2 132 130.6 128.6 124.9 120.7 119.2 117.6 116.7 116.3 115.1 111.2 107.7 105.3 103.4 102 101.1 102.4 101.9 102.6 103.9 104.8 105 105.1 105.3 105.1 104.9 105 105 105 105.5 105.2 106.7 105.3 102.9 102.4 106.1 103.3 100.3 100.5 101.1 101.1 106.2 108.1 110.6 112.5 114 114.2 113.4 112 107.1 104.9 108.2 112.8 113.5 114.3 112.2 110.6 108.4 105.4 103.1 102.8 99.7 96.9 95.2 95.2 95.2 94.8 94.9 94.9 94.9 94.9 95 93.8 93.6 93.3 93.3 93.1 93.4 93.9 94.6 94.6 94.3 94.3 93.9 93 93.5 93.1 93 93.2 93 92.6 93.2 92.9 92.3 92.4 92.7 92.6 93 92.8 95.5 98.7 100.1 100.7 100.9 101.7 102.4 102.3 102.4 103.9 103.3 103.7 104.1 103.4 103.2 103.9 103.8 104 103.9 103.9 103.9 103.6 102.9 102.5 101.9 101.8 101.1 100.9 100.8 100.4 99.9 99.6 99.6 100.3 100.8 100.8 100.1 97.9 95.5 94.4 93.6 96.9 98.9 99.3 99.9 100.2 99.7 99.1 98.6 98.2 95.9 97 98.9 99.1 98.7 98.3 98 97.8 97.5 97.5 97 96.8 97.2 97.6 97.8 97.6 96.5 96 95.6 95.1 94.6 94.8 95.1 95.4 95.7 94.9
129.7 130 128.4 129.8 134.9 138.9 141.5 142.6 143.4 143.3 143.1 142.4 141.4 140.4 138.8 136.8 133.6 131.5 129.3 126.4 127.3 128.1 128.3 128.3 128.6 128.7 128.2 127.3 124.8 121.2 117.8 116.5 115.4 113.3 112.5 110.2 105.2 104.1 103.6 101.9 100.6 99.4 104.1 106.2 107.7 108.9 109.3 110.2 109.7 106.3 106.3 108.1 109.6 110.1 110.7 110.7 110.6 106.8 105.1 103.4 100.5 98.9 100.3 100.6 102.1 107.2 109.1 113.3 114.8 117.7 118.9 118.3 117.1 114.1 109.8 107 111.3 116.3 119 119.3 116.9 116 113.5 112.9 110.2 106.8 103.9 102.4 97.8 96 95.2 95.2 94.1 94.1 94.3 94.6 94.6 94.4 93.3 93.6 93.8 92.9 93.1 93.5 94 94.3 94.6 94.6 94.6 94 93.5 93.4 93.2 93.3 93.4 92.4 93.2 92.9 91.9 91.8 92.8 92.8 92.8 91.9 92.3 92.7 93.2 94.8 95.4 97.1 98.7 98.8 101.2 102.1 101.1 101.6 101.8 101.6 101.5 101.9 102.2 102.4 102.2 102 101.9 101.9 101.8 101.3 101 101.2 100.9 100.6 100.2 100.5 100.3 98.6 99.5 100.1 100.8 100.9 99.6 98 97.5 96.8 94.2 94.7 98 100 100.8 100.8 100.1 99 97.9 97.4 95.3 96.8 98.7 98.6 98.2 97.8 97.3 97.1 97 97 96.5 96.2 96.4 96.7 97.2 97 96.1 95.3 94.9 94.3 93.6 93.7 94.1 94.5 94.3 94.5
124 124.1 125.8 131.7 136.5 138.6 140.1 141 141.2 141.3 140.8 139.9 139 137.8 136.2 134.3 131.1 128 125.9 123.1 122.8 123.7 123.9 123.8 124.3 124.6 124.8 124.8 123.6 121.4 118.3 114.5 112.6 110.8 110 108.5 105.3 102.4 101.4 100.3 99.7 103.6 106.8 109.3 109.1 106.8 116.3 116.8 117.5 117.8 117.7 117.6 120.7 119.4 118.5 117.5 115.6 111.6 107.9 103.4 100.8 99.7 100.1 102 106.1 110.5 115.3 118.6 123 123.3 121.8 121.4 118.9 114.7 108.8 110.5 115.6 120.6 123.1 123.1 120.9 119.6 117.1 114.2 112.7 110.9 109.3 105.7 101.9 101.9 97.2 95.2 94.4 94.5 94.4 94.4 93.5 94.2 93.7 92.9 93.2 93 93.2 92.5 93.5 94.3 94.4 94.3 94.2 93.7 92.8 93 93.3 93.3 93.1 93.1 93.3 92.5 92.4 91.8 92.4 92 92.6 91.8 92 92 92.3 92.9 92.8 93.3 94.1 95.2 99.1 99.8 99.9 99.7 99.6 99.8 100.3 101 101.3 101 101 101.1 101 101 100.9 100.5 100.4 100.3 100.1 99.8 99.5 99.5 99 99.1 100 101.2 100.8 101.3 100.5 99.4 96.9 94.7 93.1 93.7 97.4 99.7 100.6 100.8 100.3 99.1 97.2 96.4 94.8 97.6 98 98.1 97.9 97.6 97.2 96.5 96.4 96.5 96.1 95.4 95.3 95.9 96.6 96.3 95.6 94.7 94 93.5 93.1 93.5 93.9 94.1 93.7 93.3
119 122.3 127.5 132.7 134.9 136.6 137.7 137.8 138.5 138.7 138.1 137.4 136.3 135 133.7 131.1 128.1 125.3 122.4 119.9 118.8 119.5 119.6 119.3 119.6 120.2 121 118.2 116.4 119.1 118.2 115.8 112.4 109.2 107.8 106.2 104.5 102.7 100.2 99.8 102.8 106.7 106.1 113.9 117.4 121.1 123.5 124.3 126.2 126.4 126 125.4 125.1 124 122.9 120.9 117 113.2 109.4 103.6 101 100.5 101.3 104.2 111.6 116.7 123.7 126.4 126.3 125.8 125.5 122.3 119.1 113.2 109.5 113.2 119.1 123.1 125 124.8 123.3 122.4 120.6 115.8 115.7 114.6 113.9 110.5 106.4 105 102.7 101.9 98.4 95.2 95.1 94.1 94.8 93.8 94.3 93.2 92.7 92.7 92.6 92.2 93.6 93.7 93.5 93.9 93.7 93.6 92.9 92.9 93.1 93.1 93.4 92.9 92.2 92.3 92.7 92.9 92.1 92.5 92.3 92.7 92.6 90.2 92.7 92.5 92.2 92.2 92.2 92.5 94.6 96.4 97.8 98.5 98.3 98.7 101.1 100.9 100.4 100.8 100.4 100 100.1 100.2 100.1 99.9 99.7 99.5 99.3 99 98.5 98.3 98 98 99.2 100.8 103.4 103.2 102.5 102.4 99.5 95.8 92.9 93.1 96.2 98.4 99.9 100.2 99.9 98.6 97.1 95 94.3 97.3 97.8 97.5 97.2 97 96.7 96.3 95.6 95.7 95.4 94.8 95 95.5 95.7 95.5 95 94.1 92.9 92.5 92.9 93.5 93.7 93.4 93.1 93
117.8 122.7 127.6 130.7 132.4 133.5 134.1 134.4 135.4 135.6 135.3 134.7 133.5 132.1 130.8 127.8 125.5 122.7 119.8 117 114.8 115.7 115.1 113.5 114.7 115 115.1 115.8 116.8 117.5 116.8 115.7 112.6 108.9 106.5 104.8 102.2 101 100.7 101.6 106.5 111.2 115.8 120.8 123.3 125.6 127.2 128 128.8 129.1 128.8 128.3 127.7 125.3 122.6 120.7 117.3 113.3 107.4 102.8 100.5 100.3 104.9 109.6 115.9 123.3 127.9 129.1 129 127.1 125.7 122.3 118.2 112.2 113.6 116.7 122.1 124.5 126.8 126.5 124.9 123.2 121.4 120.1 118.9 118.4 116.9 112.9 110.7 111.9 110.6 107.8 105.8 102.4 101 99.4 97.4 95.6 95.1 95.1 95.2 94.3 93.4 92.2 92.5 93.2 93.1 93.1 93.1 92.9 92.6 92.9 91.4 92.9 92.7 92 93 91.7 92.6 92.7 92.5 92.1 92 92.3 92.3 92.7 91.4 93.4 92 92.5 92.3 92 91.8 92.1 93.6 95.4 96.4 98.7 100.3 99.7 99.6 99.4 99.6 99.1 98.9 99.1 98.8 98.7 98.6 98.5 98.3 98 97 96.5 96.8 97.1 97.8 100.3 103 103.9 104.1 95.7 94.7 94.6 94.6 94.1 94.3 96.7 97.4 97.1 97.3 98.1 96.6 94.2 94 95.9 96.9 96.6 96.3 96.1 95.9 95.2 95.1 95 94.4 94 94.9 95.1 95.1 94 94.4 93.8 92.5 91.4 91.5 91.5 93.2 92.9 92.9 93
117 121.3 124.5 126.5 127.5 128.5 129.1 130 131.7 132.5 132.4 131.7 130.5 129 127 124.9 122.8 120.1 117.3 114.6 112.1 112.3 112.1 111.6 110.6 109.9 109.9 110.4 112 113.9 113.3 112.5 110.3 108.2 106.1 104 102.4 106.2 103.3 104.6 110.1 116.3 121.2 125.3 127.3 128.9 129.8 130.4 130.8 130.7 130.1 128.9 128.3 126.1 123.7 120.3 115.9 111.3 104.8 101.1 100.5 102.7 107 112.8 122.6 128.2 130.3 131.6 130.4 128.1 125.8 122.3 117.4 111.5 116.7 120.3 124.1 126.6 127.8 128.6 127.5 124.6 123.1 121.7 120.6 119.9 118 115.8 115.4 115.9 114.9 111.7 111.5 109.9 107.1 107.2 103.1 99.8 99.9 100 100.1 96.5 96 98.4 98 97.9 97.2 96.6 95.9 93 94.3 94.2 93 93 93 93 93 94.2 92.4 93 92.5 90.5 92.8 92.4 93.1 92.7 92.1 92.2 91.8 92 92.8 92.1 90.4 90.6 91.2 92.2 93.5 95.5 97.2 97.5 98.6 98.8 98.3 98.1 97.8 97.7 97.5 97.5 97.5 97.4 97.3 96.7 95.8 95.8 96 96.2 96.8 98.3 100.9 103 103.5 94.8 93.3 93.8 93.9 91.9 91.9 96.6 98.3 99.2 99.6 99 96.7 93.1 93.6 94.5 94.3 94.4 94.4 94.4 94.6 94.6 94.1 93.6 93 93.2 94 94.4 94.2 93.7 93.4 92.9 91.7 91.1 90 90.6 93.4 92.5 92.8 92.5
113 116.8 118.3 119.3 120.3 121.3 122.8 124.7 126.5 127.7 129.7 128.1 127.4 125.7 123.7 121.3 119.3 117.2 114.1 112.1 110.5 109.6 108.5 107.4 107.4 104.4 104.4 104.3 104.4 105.5 106.7 106.5 107.6 107.2 105 101.9 101.7 101.4 101.2 107.7 114.1 120.5 125.8 128.3 130.3 131.1 131.6 131.8 132 131.7 131.2 130 128 125.4 122 117.6 113.2 108.6 103.2 100.9 101.1 105.3 110.1 118.1 125.3 129.9 132.5 131.7 130.9 128.2 125 121.2 116.1 114.7 118.6 122.9 125 126.3 127.5 128.3 128.2 127.6 124.7 123.1 121.7 121.1 120.3 118 118.9 118.9 116.7 115.1 115.1 114 112.6 112.2 111.4 110 107.7 107 107.4 103.2 99 99.2 99.3 98.8 98.8 98.6 98.4 98.4 98.2 98.2 99.7 99.4 95.9 96.5 96.5 96.9 96.5 94.6 93 93.6 93.1 92.7 92.6 92.1 92.4 92.1 91.8 90.5 91.4 90.2 91.4 91.7 90 90 92.4 92.6 94.9 96.3 97.1 97.8 97.9 97.3 96.4 96.6 97 96.9 96.7 96.5 96.4 95.8 95.2 95.1 95.3 95.6 96.2 96.8 97 100.9 102.5 95.2 93.5 94.2 94.5 92.6 89.5 94.2 96.8 98.2 98.7 97.7 95.8 92.6 92.9 93.4 93.3 93.3 93.2 93.1 93.1 93 92.6 92 91.7 91.9 92.6 92.7 92.5 92.3 92.4 92.1 91.1 90.7 91.1 92 92.6 92.5 92.6 92.2
109.3 111.9 111.6 112.2 113.3 113.6 114.7 117.2 120.3 122.8 124.3 124.5 123.9 122.6 120.6 118 115.8 114.7 110.6 108.2 107.5 107 104.4 105 103.9 103 104.1 104.2 103.4 103.8 104 101.9 105 104.9 102.1 102.8 102.4 101.2 104.4 111.2 118.2 124.2 128.4 130.7 132 132.4 132.8 132.9 132.9 132.2 131.2 129.3 126.5 123.2 119.2 114.6 110 105.9 102.4 101.6 104.2 108.4 114.3 122.7 128.5 132 132.7 132.9 130.8 128.2 123.4 119.1 116.1 115.6 119.8 123.6 125.1 126.6 127.4 128.1 128.4 127.8 126.2 124.5 123 122.3 121.5 120.3 120.9 120.5 119.1 118.3 117.1 116.3 115.5 115.6 114.1 113.3 110.8 109.6 108.6 104.2 101.3 104.2 106 105.7 104.5 103 102.7 102.1 101.4 101.6 100.4 98.5 97.2 96.6 96.6 97.7 97.5 97.5 97.4 96.8 96.5 94.5 93 93.4 92.4 92.3 91.5 90.9 90.7 90 90.5 90.2 91.4 92 91.5 91.4 90 93.5 94.9 96.7 96.3 96.1 95.7 95.9 96.4 96.6 96.4 96.2 96 95.7 95 94.4 94.7 95.1 95.7 95.7 95.8 97.5 98.9 97.3 95.1 95.7 94.5 92.9 89.9 91.3 94.9 95.8 95.8 95 94.3 92.3 92.2 92.3 92.2 92.2 92.1 92 92 91.5 90.6 90.6 90.8 90.6 90.8 91.3 91.2 91.1 90.6 90.6 90 89.7 91 90.6 91.8 92.1 92.2 92
108.1 107.8 107.4 107 106.7 107.2 108.2 109.8 112.8 117.1 120.7 121.2 120.5 119.3 117.4 114.8 112 109.2 107.3 104.4 105.2 104.8 104.7 102.9 103.3 103.3 102.8 102.8 102.3 102.2 102.7 102.3 102.2 102.5 102.4 102.7 102.4 100.7 107.1 114.3 121.4 126.4 129.8 132.1 133.3 133.5 133.7 133.8 133.7 132.7 130.8 128.1 124.5 120.3 115.9 111.4 106.8 103.4 102.7 102.8 106.3 109.6 117 124.8 130.2 133.4 134.4 133.3 131.5 128.8 124.8 119.6 117.6 117.2 120 123.8 125 125.5 127.1 127.6 128.4 127.8 126.8 125.6 123.9 123.1 122.5 121.8 121.6 120.9 121.1 120.1 118.7 118.3 117.1 116.9 115 113.6 113.7 112.1 107.7 103.2 105.3 108.5 108.8 108.1 106.8 105.2 104.7 103.6 102.6 102.6 101 99.2 97.5 98.5 99.5 99.4 98.8 98.8 98.4 97.7 98.1 97.3 95 93.5 92.5 92.5 91.1 92 91.5 90.3 90 90 90.5 91.4 91.3 91.2 91.3 91.1 91.7 93.1 94.3 94.1 94.2 95.3 95.6 96.3 96.1 95.9 95.6 95.4 95 94.2 94.3 94.6 94.7 94.6 94.7 94.9 95.4 95.2 95.1 95 94.2 92.8 90.5 89.4 92.3 94 94 93.9 93 92.2 91.6 90.9 91.3 90.9 91 90.5 90.2 90.2 89.9 89.4 90.1 90.2 90.4 90.5 90.1 89.4 89.4 89.2 88.8 88.7 88.8 89 90.4 91 91.1 91
107.2 107.2 107 107 107.2 106.6 106.1 106.5 106.9 111.5 115.4 117.9 117.6 116 113.2 110.7 107.9 104.5 104.5 104.5 103.9 103.5 103.6 103.3 103.4 103.4 103.1 103.2 102.8 102.2 102.5 102.7 102.4 101.7 102.1 102.4 102.6 104 110.4 116.7 124 128.5 131.1 132.9 133.9 134.3 134.6 134.6 134.1 132.9 130.6 126.7 121.7 116.9 112.6 108.3 104.5 102.4 102.6 106.8 110.1 115.1 120.5 126.7 130.7 133.9 135.4 134.2 132 129.1 124.2 122.8 119.1 117.1 120.6 123.3 124.7 125.1 126.4 126.7 128 127.5 126.7 125.9 124.8 124 123.3 122.7 122.3 121.8 121.4 121 120.7 119.7 119.1 118.1 116.6 115.9 114.7 111.6 106.1 105.2 109.6 111.8 111.1 110 108.4 107.3 106 105.1 103.8 102.3 101.6 101.9 101.9 100.9 100 99.9 100 99.3 98.3 97.8 97 95.3 93 93.2 92.5 95.6 97.1 92.8 92.7 91.1 91.7 90.6 90.3 91.1 91.2 91.2 91.4 90.9 91.8 90.8 91.5 92.3 92.9 94.5 94.7 95.7 95.7 95.5 95.1 94.6 94 93.5 93.5 93.5 93.5 93.5 93.7 93.8 93.6 93.6 93.4 93.2 92.6 91.8 90.5 89.4 89.9 92 92.8 92 91.7 91.3 90.8 91 90.8 90.6 90.4 89.9 90.3 90 89.5 89.6 89.7 89.5 90 89.4 89.2 89.2 89.4 89.1 88.4 88.4 88.3 88.3 89.2 88.6 89.1 89.6
108.7 108.1 107.8 107.3 106.9 106.7 106.3 106.4 107.2 108.2 110.5 112.3 113.1 111.4 109.4 104.4 104.8 104.8 104.6 104.1 103.9 104 104.6 105.4 105.4 106.4 105.8 104.8 104.1 102.5 102.5 102.5 102.5 101.6 101.8 102.4 101.4 111.3 117.5 118.8 124.6 129.7 132.3 133.8 134.7 134.8 135.4 135.3 134.5 133.3 130.4 125.6 119.9 114.6 109.8 105.5 103.3 102.3 106.2 111.9 117.3 121.1 123.8 128.1 131.3 134.1 135.5 133.3 130.7 128.3 126.6 123.3 119.9 118.2 119.2 122.1 123.7 124.2 125 126.1 127 127.3 127.3 126.6 125.7 124.7 123.6 123.4 123 122.6 122.2 121.7 120.8 120.2 119.7 118.7 117.8 116.7 113.9 109.1 106.3 110.1 113.3 113.5 112.9 111.9 111.2 109.9 108.1 107.2 105.3 103 103.2 103 102.3 101.2 100.6 100.3 100.3 99.4 98 96.9 95.3 93.5 92.9 92.7 94.2 94.2 93.9 93.5 92.6 96.8 94.2 91.7 91.6 90.1 89.5 90.7 91.3 91.4 91.6 91.2 91.5 90.8 91.5 92.2 92.5 93.7 94.5 94.6 94.3 93.5 92.9 92.5 92.3 92.3 92.4 92.5 92.6 92.6 92.5 92.7 92.5 92.6 92.4 92 90.5 89.4 89.4 90.6 91.2 91.4 91.1 90.9 90.5 90.4 90.2 90 90.1 89.7 90.3 89.8 89.4 89.5 89.4 89.1 89.2 89.6 89.4 89.3 88.7 88.8 88.5 88.7 88.9 89 88.5 88.4 88.6 88.4
115.9 112.2 110.5 109.5 108.6 107.9 107.4 106.2 106.3 106.9 108.6 110.3 109.3 107.5 104.4 104.6 104.3 104.2 104.1 105.3 106.4 107.5 109.1 110.9 111.1 110.2 108.7 106.2 104.8 104.7 105.2 104.5 102.9 101.5 101.7 106.6 111.7 117.2 123.9 124.2 125.1 129.1 132.6 134.1 135.1 136 136.2 136.1 135.1 133.5 130.8 125 118.3 112.6 107.9 103.7 102.6 104.7 111.2 117.2 122.2 126.9 129.6 130.6 133.2 134 134.3 132.5 131 129 127.3 125 122 119.7 119.2 120.9 122.2 123.2 124.1 125.2 126.4 127.1 126.9 125.9 126 124.9 124.1 124 123.5 122.9 122.2 121.8 121.2 120.2 119.7 119.4 119.1 116.8 111.9 109.1 111.1 114.3 115.5 115.2 114.9 114.3 113.2 111.9 110 107.6 106.4 105.5 105.2 106.2 104.3 102.9 101.6 100.7 100.2 99.2 98 95.9 93.6 92.9 93.3 94.4 95.1 94.8 94.3 93.8 93.4 93 93 92.5 96.1 90.7 89.9 90.4 91.5 90.9 91.5 91.4 91.4 90.4 91.2 91.6 91.4 92 93 93 92.7 92.3 91.4 91 91.7 91.6 91.6 91.6 91.7 92.4 92.7 92.7 92.8 92.7 92.2 91.8 91.4 90.9 90.2 90.4 90.7 91 90.6 90.4 90.8 89.9 89.1 89 89 89.4 89.4 89.7 89.1 89.6 89.6 89.1 88.9 89.8 89.1 89.1 88.8 87.9 88.2 88.4 88.4 88.6 88.7 85.1 87.6 86.3
123.7 119.3 116.6 115 111.9 108.8 107.6 106.4 106.3 105.7 107 106.9 104.3 105.3 104.7 104.6 104.7 105.4 107.8 109.9 113.3 116.1 117.8 118 116.3 113.4 110.3 107.7 106.3 107.9 109.5 109.1 108.5 108.6 110 115.6 121.6 125.1 128.6 128.6 126.8 129.8 132.9 134.7 135.7 136.8 137.2 137 136 133.9 130.4 124.1 117.1 111.5 106.7 102.9 102.8 108.3 114.7 121.3 126.2 129.6 131.2 132.3 133 133.1 133.1 131.5 130.7 129.3 127.5 125.2 123.3 121.4 120.8 121.3 122 123 123.7 124.5 125.7 126.1 124.9 124.7 126.4 125.1 124.3 123.8 123.5 122.8 122 121.9 121.5 120.5 120.5 120.2 118.7 113.5 110.1 112.6 115.7 117.5 117.1 116.8 116.9 116.2 114.6 113 110.3 107.8 106.2 108 109.6 109.6 108.6 106 103.7 102.2 100.8 98.7 97 93.8 93.2 93.8 95 96 95.7 95.1 94.5 93.9 93.3 93.1 92.6 92.4 91.4 91.1 95.6 90 90.6 91.4 91.3 91.3 91 90.6 90.7 91.1 90.8 91.3 91.6 91.5 91.5 91.5 91.2 91.5 91.3 90.8 90.7 90.7 91.6 91.9 92.5 92.3 92.5 92.2 91.7 91.7 91.7 91 90.1 90.4 90.8 91.1 90.6 90.9 90 88.9 89 88.4 88.8 88.7 88.8 88.9 88.9 89 88.4 88.9 88.6 87.9 87.5 87 87.4 87 86.9 85.6 85.1 85.1 85.1 84.9 85.4 85.3
129.6 125.9 121.8 118.3 112.7 109.1 107.4 106.9 107.6 104.8 104.4 106.4 104.6 104.5 104.2 104.9 107.3 110.1 114.2 119.3 121.7 122.6 123.9 123 119.9 116 112.2 108.7 108.4 111.9 113.6 113.4 113.9 116.2 118.3 122.1 126.6 130 131.3 131.8 130.2 130.9 133.3 135.2 136.5 137.6 137.9 137.8 136.1 134 129.4 123.8 116.4 111 105.9 102.8 103.9 110 117.5 122.9 127.2 129.4 130.6 131.3 132 131.8 131.8 130.9 130.1 129.2 127.6 125.9 124.1 122.4 121.7 122.2 122.4 123.3 123.8 124.3 124.8 125.3 126.4 126.3 126.7 125.2 124.4 123.6 123.4 122.6 122.1 121.9 121.6 121.5 121 118.5 115 112 115.1 117.5 118.8 118.8 118.6 118.8 119.2 117.4 115.8 113.7 110.6 108 109 110.6 111.6 111.7 110.7 107.7 103.9 101.1 99.4 97.3 95.5 93.8 94.7 96.6 97.3 97.2 96.8 95.6 94.7 94.1 93.4 92.9 92.5 92.3 92.2 92 91.1 91.2 95.2 90.6 91.2 91.2 91.3 91.4 91.3 88.9 90.4 90.6 90.9 91 91.1 91 91.3 91.2 91.1 90.7 89.8 90 91.1 91.4 91.8 92.6 92.6 91.6 91.4 91.3 91.2 90.8 89.8 90.2 89.9 90.4 91 90.2 88.6 88.8 88.6 88.9 89.2 89.1 88.3 87.7 87.7 88.4 87.8 87.1 85.7 85.1 85.8 86.5 85.1 85.1 86.6 85.6 85.2 85.6 84.7 84.9 85.1 84.7
130.3 127.2 123.6 118.3 112.3 109.1 107.5 104.6 104.3 104.2 103.7 103.9 104.5 105 106.9 109.6 112.9 117 122.7 126.4 127.8 127.7 127.7 125.3 122.5 118.1 113.6 109.7 111.4 115.5 117.7 118 118.3 121.1 123 126.3 130.1 132.5 133.8 134.1 133.6 132.8 134.5 136.6 137.5 138.3 138.6 138.4 136.5 133.5 129.6 124.3 116.6 110.9 105.7 102.8 104.6 111.2 118.3 123.1 126.5 128.2 129.4 130.3 131.2 131.2 130.9 130.7 130.3 129.1 127.6 126 124.3 122.7 122.8 122.9 123.1 123.5 123.9 124.3 124.7 125.5 126.5 126.6 126.7 125.5 124.6 123.7 123 122.4 122 121.5 121.1 120.9 118.6 114.8 114.3 117.4 118.8 119.2 119.8 119.5 119.3 119.4 119 118.1 116.5 113.9 109.9 110.4 112.1 113.3 113.9 113.7 112.8 109.9 105.3 100.7 97.7 95.5 95.5 96.1 96.1 97.6 98.8 98.6 98 96.5 95.4 94.3 93.6 92.9 92.5 92.2 92 91.8 91.3 91.1 91.3 91.6 91.2 91.2 91.4 91.3 91.4 91.3 90.7 90.7 90.8 90.6 90.6 91 90.5 90.5 90.5 90 89.3 89.8 90.6 90.8 91.5 92.5 92.3 91.9 91.5 90.7 91.1 90 89.4 89.6 89.7 89.2 88.8 89.7 89.7 89.4 89.2 89.1 88.7 88.2 88.2 87.7 87 86.8 85.2 85.3 86.9 87.5 87.5 86.6 86.7 86.4 87.5 86.4 86.4 86.2 85.4 84.9 85.8 85
129.6 125.6 121.2 115.2 109.9 107.7 105.7 106.1 106.6 105.3 105.7 105.5 105.9 109.8 113.7 118 120.8 124.7 127.6 130.7 131.2 131 128.7 126.3 123.4 119.4 115 110.8 113.4 118.1 121.4 122.1 122.9 124.3 126.2 129.4 132.6 134.7 135.4 136.1 136.1 135.4 136.7 137.5 138.3 138.2 138.3 137.9 135.8 133.1 129.4 123.8 116.8 110.5 105.8 102.9 104.2 110.8 117.5 121.9 124.9 126.9 128.1 129.2 130.3 130.6 130.6 130.6 130.1 128.9 127.6 126.3 124.7 124.1 124.1 124.2 124.4 124.4 124.4 124.4 124.9 125.9 126.4 126.9 126.6 125.7 124.7 123.6 122.8 121.9 120.2 119.7 118.9 116.8 115.8 116.9 118.7 119.7 120.5 121.5 120.7 120.1 119.9 119.6 118.7 118 115.8 112.8 111.1 113.6 114.8 116 116.2 115.5 114 111.2 104.8 100 96.1 95.3 95.6 98.5 101.8 101.5 100.6 99.8 99.2 97.5 95.7 94.6 94 93.6 92.9 92.4 92.5 92.3 91.9 91.4 91.1 91 90.8 93 91.3 91.2 91.3 91.5 91.3 88.9 91.1 90.7 90.6 90.1 89.7 89.4 89.7 89.9 89.3 90.6 90.7 90.8 91.3 91.3 91.1 90.9 91 90.5 90.7 89.5 89.4 89.2 89.7 89.5 89.6 89.4 89.2 89.1 88.3 88.8 88 88.2 87 87.4 87.9 87.8 87.5 86.3 87.4 87.6 87.5 86.6 86.1 87.2 87.2 87.2 87.5 86.9 85.9 85.1 85.6 85.4
127.6 123.1 117.9 112 108.3 106.7 106.3 107 106.7 107.7 106.7 104.9 108.7 116.5 122.5 126.2 128.2 129.2 131.2 133.2 132.9 132.3 129.6 127 124 119.6 114.5 111.7 115.6 120.3 123.7 125.3 126.7 127.7 129.2 131.2 134.2 135.4 136.2 136.8 136.9 136.4 136.8 137.5 137.4 137.4 137.2 136.2 134.8 132 128.3 123.2 116.4 110.5 105.4 103 104.1 110 115.9 120.5 123 124.8 126.4 128.3 129.5 130.2 130.6 130.5 130.1 129.2 127.8 126.5 125.2 125 125.2 125.4 125.5 125.4 124.8 124.9 125.2 126.1 126.2 126.3 125.7 125 124.1 123.2 122 121.2 119.8 118.4 117.4 117.9 118.4 119.7 120.2 121 121.6 121 120.3 119.9 119.9 119.5 118.7 117 115 113 114.9 116.8 117.6 117.7 117.4 116 113 110.1 103.3 98.9 95.4 96.3 97.8 102.9 106.2 106.8 104.2 101.3 100.7 99.1 97.3 95.8 95 94.4 93.8 93.2 92.8 92.4 92.2 91.9 91.6 91.2 90.7 91.7 93.6 91 91.6 91.6 91.2 91.2 91.3 90.7 90.9 90.1 90.1 89.6 89.4 89.6 89.5 90.3 90.3 90.2 89.9 90 89.5 89.1 90.2 90.3 90.1 89 88.6 88.5 88.6 89.3 89.5 89.3 89.2 89.2 88.4 88.2 87 87.5 88.5 88.2 88.2 87.6 87.7 87.2 87.4 87.7 87.4 86.6 87.2 87.3 86.7 86.7 87.1 86.9 86.7 85.9 85.4 85.4
125.5 120.8 115 108.4 106.9 107.3 107.3 112.7 115 112.3 107.5 106.3 112.8 120.4 127.1 130.2 131.8 132.7 133.6 134.2 133.9 133.1 130.2 127.7 124.5 119.7 114.5 113.4 118 122.3 125.5 127.3 128.9 130.9 132.4 134 134.9 135.3 135.8 136.1 136.3 136.7 136.1 135.4 135.1 135 134.5 133.7 132.4 129.9 127.6 122.3 115.9 110.7 105.7 103.7 104.4 109 113.9 118.5 120.7 123.4 125.8 127.5 129.2 130 130.5 130.5 130.2 129.7 128.3 127 126.1 125.6 125.8 126.2 126.5 126.3 126 126 126.4 126.5 126.4 126.3 124.1 124.2 123.5 122.3 121.1 120.1 118.9 118.6 118.3 119.2 120.6 120.8 120.5 121.3 121.2 120.7 120.1 119.7 119.5 118.3 117.2 115.2 114.4 115.4 118.2 118.3 118.2 118.1 117.2 115.1 112.3 108.3 102.8 97.7 95.6 97.8 100.6 106 109.1 108.4 106.1 104.2 103.7 103.5 101.6 99.4 97.9 96.8 95.5 94.7 93.4 92.8 92 91.7 91.5 91.9 91.3 91.6 91.4 90.4 90.8 91.2 91.3 91.5 91.8 91.3 89.5 90.6 90.3 89.8 89.8 89 89.7 89.7 89.8 89.3 88.7 89.4 89.5 88.8 89 89 89 88.9 88.9 88.8 88.8 89.1 89.1 89.1 88.9 88.8 88.8 88.1 88.1 88.5 88.3 88.1 88.2 88.1 87.9 87.7 87.5 87.5 87.3 86.9 87.5 87.1 87.1 87 87 86.8 86.6 85.6 87.5 87.2
122.8 117.7 109.2 106.4 106.7 107 112.8 117.8 119.8 113.9 108.2 109.3 115.4 122.4 129.3 132.5 134 134.5 135.1 135.1 134.4 132.9 131 128.2 124.7 119.5 114.6 115.9 120.5 124.3 126.4 128.5 130.3 131.9 133.2 134.2 135 135 135.2 135 134.8 134.6 133.9 133 132.2 131.7 131.4 130.8 129.8 128.2 126.4 123 115.7 109.9 105.7 104.2 104.7 108.2 112.6 117.5 119.8 122.9 125.4 127.8 128.7 129.6 130.2 130.4 130.2 129.9 128.8 127.8 127 126.8 126.9 127.1 127.4 127.5 127.4 127.4 127.5 127 126.7 125.8 124.7 123.6 122.9 121.5 120.9 120.4 119.3 119.6 119.9 121.1 120.2 121 121.7 122.7 122.3 120.9 120.5 119.9 119 118.4 116.7 116 116.4 118.1 119.2 118.9 118.9 117.1 115.5 114 111 106.8 101.7 96.7 96.3 99.9 103 109.5 111 110.3 107.3 105.4 107.1 107.4 106.6 103.4 100.8 99.2 97.4 96.3 95.2 93.7 92.1 91.5 91.8 91.8 91.8 91.7 90.9 90.6 89.8 92.7 91.5 91.1 90.9 91 91 91.2 90.5 90 90.3 89.3 89.2 89.4 88.7 89.5 89.1 89.2 89.5 88.7 89 89.2 89.2 89.2 89.1 89.1 89.1 88.7 89.2 88.8 89 88.6 88.5 88.4 88.2 88.6 88.4 88.1 88.4 87.7 87.6 87.5 87.5 87.4 86.8 87.4 87.7 87.5 87.4 87.3 87.1 86.5 85.6 85.4 87.2 87.2
119.9 111.8 108.1 107 107.3 112.6 119.6 123.7 121.5 113.6 108.3 111 118.9 125.5 130.7 133.4 134.9 135.4 135.7 135.5 134.3 132.6 130.7 128.2 124.5 119.3 114.8 117.7 122.6 125.2 127.2 129.4 131.2 132.6 133.7 134.5 135.1 135.2 134.4 134.1 133.9 132.8 131.6 130.4 129.6 128.8 128.3 128.2 127.2 125.6 123.1 120.4 117.2 110.8 105.6 104.4 105.6 109.7 114.9 117.9 120.9 123.7 126.1 127.6 128.4 128.9 129.7 129.9 130 129.6 129 128.4 127.7 127.9 128 128.1 128.2 128.2 128.6 128.7 127.8 127.1 126.6 126.3 125.2 123.5 122.3 121.5 120.5 120.9 119.9 120.1 121.3 121 121.2 121.8 122.7 123.1 123.5 122.1 121.1 120.6 119.4 118.9 117.4 117.8 118.4 119.7 120 119.3 118.6 116.4 115.7 112.5 109.5 105.1 99.1 95.6 98.6 102.2 106.8 112.8 114.1 111.5 108.5 107.9 109.3 110.2 110.1 107.9 105.3 102.8 99.8 98 96.8 95 93.6 92.1 92 91.5 90.7 90.6 90.5 90.3 90.3 90.9 90.4 90.9 90.5 89.9 90.2 90.9 91.3 88.9 90.6 89.5 88.7 89.6 89.2 89.4 89 89.1 89.7 88.6 88.8 89.1 89.4 89.4 89.3 89.1 88.9 88.9 89.3 88.9 89 88.4 88 87.9 88.5 88.7 88.4 88.2 88.1 87.9 87.4 87.3 87.2 87.6 87.3 87.8 87.2 87.7 87.7 87.4 87.2 85.9 85.5 85.7 86.8 86.7
114.5 110 108.7 106.7 109.3 119.2 124.4 125.6 121.2 111.1 107.8 114.1 120.9 126.3 130.9 133.8 135.3 135.9 135.6 135.2 134 132.1 130.3 127.7 124.1 118.9 116.2 118.2 122.7 125.4 128 129.9 131.5 133 133.9 134.8 135.5 134.7 133.8 133.3 133.1 130.9 129.4 128.2 126.9 125.9 125.2 125 124.5 122.8 120.7 117.7 113.9 109 105.2 104.5 107.1 112.4 117.5 119.9 122.7 124.7 126.4 127.3 127.8 128.2 128.8 129 129.2 129.2 128.6 128.2 127.6 127.7 127.8 128.4 128.9 129.1 128.9 129.1 129 128.2 126.3 126.4 124.9 123.3 122.1 121.4 120.6 120.5 120.6 121.3 121.7 122.2 122.9 123.1 123.7 122.8 121.2 120.9 121.3 121.3 120.3 119.7 119.2 120.1 120.7 121 121.2 120.8 119.2 115.4 113.5 110.6 106.4 101 96.8 94.7 98.6 104 109 114.3 115 112.6 109.9 109.3 110.4 112.6 113.8 112 109.8 106.4 103.2 100.2 98.2 96.4 94.8 93.1 92.2 91.5 91.1 91.6 91.1 90.9 90.8 90.8 91 89.2 91.5 90.7 89.8 90.8 91.2 91.3 89.4 90.1 89 88.9 88.9 89.4 88.9 89.8 89.7 89.2 88.9 89.2 89.5 89.4 89.4 89 88.9 89.1 88.4 88.8 88.6 88 87.9 87.8 88 88.5 88.4 88.3 88.7 88 87.1 87.7 87 87.2 86.9 86.4 86.7 87.4 87.5 86.9 87.2 87.1 86.5 86.4 87.5 86.2
111.3 108.5 107.7 108.6 116.2 123.1 126.6 125.1 116.7 109.6 111 117.9 123.7 127.2 130.8 134 135.4 136 136.2 135.1 133.3 131.4 129.6 126.6 122.8 118.8 117.1 117.8 121.9 124.2 126.8 129 130.9 132.5 133.4 134.5 135 134.4 133.4 131.8 131.3 129.5 127.2 125.9 124.5 123.2 122.2 121.7 121.2 119.8 117.6 114.8 111.1 107.3 105.4 104.8 107.4 113.4 118 120.5 123.6 124.8 125.9 126.9 126.8 127.5 127.9 128.2 128.3 128.2 128 127.7 127.5 127.5 127.8 128.8 129.4 129.2 129.6 129.6 129.6 128.5 127.1 125.5 124.2 123.4 121.9 121.6 120.9 120.4 121.1 121.8 122.1 122.7 123.6 123.9 123.4 122 121.2 120.7 122 122 121.7 121.3 121 122.2 123.7 124 124.2 122.1 118.9 114.8 110.8 107.7 102.7 98.9 96.3 95 100.2 105.7 110.9 115.3 115.2 113.2 111.5 110.5 111.5 114 114.7 114.5 113.4 110.4 106.9 103.3 100.5 98.3 96.3 94.4 92.9 91.9 92 91.9 91.4 91.2 91.1 91 91.4 91.4 91.6 91.5 91.2 90.2 90.6 91 90.9 91.1 89.2 89 89.6 89.8 89.6 89.7 89.5 89.3 89.1 89.6 88.6 89.1 89.3 88.8 88.4 87.8 88.7 88.3 88.9 88 87.8 88.4 88.5 88.2 88.2 87.8 88.9 88.1 86.9 86.8 86.9 87.5 86.3 87.5 86.8 86.8 86.9 86.9 86.9 86.9 87.7 88.3 87.9 87.8
108.6 108.1 108.6 114.4 122.3 126.7 126.5 123.1 112.9 108.9 114.7 120.8 125.5 129 131.6 133.9 135.2 135.8 135.7 134.8 132.7 130.7 129 125.6 121.8 119.1 117.2 119.2 121.5 124.1 126.2 127.9 129.6 131.7 132.9 133.9 134.1 134.1 132.8 131.5 129.2 128.1 125.9 124.3 122.7 121.3 120.1 119.5 118.9 116.6 113.7 111.6 109.1 106.8 105.4 105.1 107.5 113.5 118.3 121.2 123.5 124.8 125.4 125.9 126.1 126.9 127.1 127.3 127.3 127.2 127.1 126.8 126.7 126.7 128 128.6 129 129.5 129.9 130.2 129.9 128.6 127 125.5 124.4 123.7 122.7 121.8 121.1 121.2 122.1 122.2 122.4 123 123.6 123.1 122.8 122.6 122.3 121.3 121.7 121.6 121.9 122.2 122.6 125 125.6 125.8 125.2 123.6 119.3 115.1 110.8 106.1 101.1 98.4 96.2 96.4 100.9 106.7 112.1 115.6 116.3 114.4 113.1 112.2 113 115.1 115.7 116.2 116 114.4 111 107.8 104.4 101.4 98.7 96.9 95 93.3 92.3 92.6 91.5 91.4 91.3 91.3 91.3 91.4 91.8 90.8 91.1 91.5 91 90.5 90.9 91 90.6 89.2 89.1 89 88.8 89.6 89.3 89.4 89.2 88.6 87.9 87.8 87.7 89.3 89.2 89.6 88.9 88.9 88.8 88.5 88.2 88.5 88.5 88.4 88 88.1 88.8 88.2 87.3 87.4 87.2 87.9 87.5 88.1 87.9 88.1 87.3 86.8 86.9 86.9 88.7 89.2 87.9 86.3
109.2 109.2 114.2 122.9 126.7 127.3 124.7 116.7 110.8 111.7 117.2 122.4 126.2 129.2 131.3 133.4 134.8 135.1 135.2 134.4 132.4 130.4 127.9 124.9 122 119.7 118.7 118.8 122.8 125.5 127.7 129.3 130.6 131.9 132.8 134.1 134.5 134.2 132.9 131.3 129.9 128.6 126.8 125.7 123.9 122.1 120.1 118.4 116.9 114.6 113.2 111.8 110.1 107.4 105.4 105.3 107.2 113.1 118.4 120.8 123.2 124.2 124.9 125.3 125.7 125.9 126.2 126.4 126.4 126.2 126.1 125.9 126 126.4 127 128.5 128.4 128.7 130.1 130.3 130.2 128.6 127 125.7 124.7 123.8 122.7 121.6 122 122.4 122.8 122.9 122.7 122.9 123.4 123.6 123.2 122.8 122.1 121.8 121.3 121.3 121.3 121 121.8 124.9 127.2 126 126.2 124.8 121.7 117.1 112.2 106.8 101.4 98.2 96.4 97.4 102.1 107.4 112.4 115.6 116.7 115.9 114.7 114.1 115.1 115.4 116.4 117 117.7 117 114.8 111.9 108.2 104.8 101.9 99.3 96.6 94.6 93.6 92.1 91.7 91.7 91.7 91.2 90.7 91.2 92 91.7 90.9 89.4 91.5 91.5 90.9 90.9 91 91.1 90.9 90.4 90.4 88.3 89 87.7 88.6 87.8 89.4 89.2 89.4 89.2 89 88.9 89 89 88.7 88.7 88.5 88.5 88.4 88.3 88 88.1 88.6 88.1 88.1 88.3 87.5 88.5 87.5 88.4 88.6 88.7 88.4 88.5 88.3 88.2 87.9 87.9 87.5 87.3
108.7 116.1 123.6 127.5 127.6 125.3 120.1 112.4 111.3 112.9 117.6 122.3 125.6 128 130.6 132.9 134.4 135 135.2 134.4 132.4 130.1 126.9 125.6 123 121.1 120.2 121.1 123.9 126.1 128.6 130.7 132.1 133.4 134.3 134.6 134.9 134.5 133.2 132.3 130.9 129.7 128.3 127.5 126 124 121.9 119.8 117.9 116.4 114.7 113.2 111.7 108 105.4 105.3 107.3 112.8 118.2 120.5 122.9 123.6 124.4 125.2 124.8 125.1 125.4 125.5 125.5 125.1 125.2 125.7 125.6 126.3 127 127.7 128.2 129.4 130.1 130.1 129.9 127.9 126.3 125.6 124.6 123.5 122.4 122.2 122.1 122.6 122.4 122.6 122.8 123 123.1 123 122.8 122.4 122.1 121.3 121.5 121.3 120.6 120.3 121.6 122.9 125.5 126.3 126.2 123.5 120 115.4 111.2 105.4 101.7 98.6 96.9 97.4 101 105.4 109.6 113.6 115.9 115.8 116.1 115.3 116 116.4 116.7 117 117.4 118 115.8 112.7 109.2 105.9 102.8 99.8 96.8 94.7 94 92.6 91.9 92 91.4 90.8 90.8 91.5 92.4 92.1 91.5 90.8 90.6 90.6 91.6 91.5 91.5 90.5 91.3 89 89.5 89.4 89.5 89.5 89.3 89.7 89.2 89.8 89.4 89.4 89.3 89.2 89.3 89 89.4 89.8 89.9 89.9 89.8 89.5 88.8 88.9 88.7 89.2 88.1 88.4 88.7 87.2 87.7 87.1 88.3 87.2 87.2 87.2 87.1 87.1 87.5 87.6 87.5 87
116 123.2 127.9 130.3 127.4 122.4 115.2 110.3 114.2 116.3 118.4 120.3 124.5 126.8 129.8 132.7 134 135 135.1 134.2 132.4 130.6 129.5 128.5 126 122.5 121.3 122.6 126.6 128.4 129.9 132 133.4 134.9 135.9 136.4 135.6 135 134.4 133.3 131.9 130.7 129.6 128.5 127.2 125.8 123.8 121.7 120.2 118.4 116.8 114.6 112.6 108 105.1 105.6 107.9 113 117.5 120.4 122.1 122.7 123.6 124.3 124.2 124.4 124.6 124.5 124.5 124.3 124.6 125.1 125.3 126.1 126.9 127.6 128.4 129.2 130 129.9 129.6 127.6 125.8 124.9 123.8 122.7 121.7 122 122 121.2 121.6 122 121.8 121.9 122.3 121.8 121.5 121.6 121.5 121.3 120.7 120.1 119 118.7 119.3 120.2 121.3 123.4 123.2 120.3 117.9 114.8 111.2 107.4 102.1 98.8 97 97.1 98.6 102.9 107.1 111.1 113.7 115.2 115.6 115.1 116.6 116 116 115.9 115.9 115.6 113.2 110.5 107.7 104.6 101.7 98.9 95.9 93.8 92.6 92.9 92.3 93 92.7 92.5 91.3 90.9 91.8 91.8 91.3 90.8 90.7 91.2 91.5 91.2 89.4 91.6 91.2 90.9 89.1 90 89.7 89.2 90 90.3 90.2 90.1 89.8 89.9 90.2 90.4 89.5 89.3 88.3 88.2 89.7 89.9 89.5 89.6 89.5 89.5 88.2 88.2 90.1 91.4 92.5 92.2 88.2 88 88.2 88.5 87.8 88 88 88.4 90.5 89.3 88.2 88.2
121.7 127.2 131.2 130.4 127.3 119 112 115.3 118.7 120.5 120.8 122.1 124.2 128.5 130.8 132.8 133.6 134.7 134.7 133.9 132.8 132.2 131.6 130.2 127.8 122.7 121.4 125.7 129.2 130.9 132.4 134.1 135.9 137.1 138 138.3 137.4 136.3 135.3 134 132.8 131.1 129.3 128.8 127.9 126.8 125.6 124 122.4 120.6 118.8 115.7 112.3 107 105.4 105.8 107.6 111.8 116 119 120.6 121.2 122.2 123.2 123.7 123.6 123.4 123.6 123.6 123.6 124.1 124.8 125.1 125.8 126.7 127.7 128.4 129.1 129.9 129.9 128.8 126.9 125.2 123.9 123 121.7 120.8 120.6 120.9 120.4 121 120.8 120.6 120.8 120.9 120.6 120.4 120.1 119.8 119.8 119.4 118.7 117.9 117 117.3 118.2 117.3 117.8 118 117.8 115.9 114.8 111.5 106.8 102.6 99.3 97.3 97.6 97.8 100.7 104.7 108.2 111.6 113.7 115.1 115.2 116 115.4 115.2 115.1 113.9 112.5 110.3 107.9 105.8 102.8 100.1 97.5 95 93.6 92.3 92.6 93.3 94 94.4 94.7 94 93 92.1 91.4 91.6 91.8 91.4 91.3 91.1 92 92.3 92.3 92.3 89.4 90.7 90 91.1 91.1 91.2 88.6 88.3 88.3 91 91.1 89 89 90.8 88.8 88.4 88.7 88.8 89.5 89.3 89.4 92.8 94.5 95.5 95.9 96.6 96.4 96.3 94.8 92.6 90.9 89.6 89.4 89.6 89.4 89 91 92.8 93 92.3 92.4
128.2 130.4 131.7 128.7 122.5 115.1 113.8 119.3 123 124.3 124.6 125.1 126.6 129.1 131.8 133.7 134.7 135.2 135.2 134.3 133.4 132.9 132.5 130.7 128.1 123.1 122.6 127.5 130.2 132.9 134.9 136.6 137.8 139 139.7 139.1 137.8 137 136.2 134.6 133 131.3 129.9 129.2 127.7 127 126.2 124.8 124 122.2 119.5 116.1 111.7 106.6 105.6 106.6 108 110 113.2 115.9 118.6 120 121.3 122.1 122.9 122.6 122.2 121.6 121.8 122.9 123.4 124.1 124.8 125.8 126.9 128 128.6 129.2 130.3 130.3 128.5 126.4 124.6 122.9 122.1 120.7 119.9 119.6 119.4 119.1 119.5 119.6 119.4 119.5 119.4 119.1 118.7 118.4 118.1 118.1 117.8 116.7 116.1 115.4 115.2 114.9 114.8 115 114.2 114.1 113.7 112.9 110.4 107.2 103.7 100.2 98.4 98.2 98 99.5 102.5 106.5 109.6 112.7 114.7 116.1 115.4 114.6 114.4 113.2 111.6 109.9 107.8 105.7 103.7 101.1 98.4 96 94.8 94 93.1 93.4 94.3 95.5 96.2 97.2 96.8 95.8 95.3 94.2 93.4 92.6 92.3 91.7 92.1 94.5 95.9 96.1 95.8 95.1 92.7 92.3 92.4 91.8 93.2 94.1 94.4 92.8 92.4 92.4 92.2 90.5 90.6 89.1 89 89.8 91 91.8 94.3 96.7 98.7 99.8 99.3 99.6 100.1 99.8 98.2 96.1 94 92 91.7 91 90.3 90 91.1 95.1 98.9 100.9 100.4 103.7
132 133.5 130.9 125.8 118.1 112.8 118 123.2 126.3 128 128.5 128.5 128.3 129.1 132.5 134.8 135.9 136.4 135.9 135 134.2 133.5 133 131.4 128.1 124.2 124.7 128.2 131.3 133.7 136 137.2 137.8 138.7 140 139.4 138 137.3 135.9 134.5 132.9 131.6 130.1 128.6 127.2 125.8 124.8 124.3 123.6 121.7 118.8 114.8 111.3 106.3 106.1 108.3 110 111.2 112.3 113.2 116 117.7 119.6 120.4 120.8 120.7 120.1 120.6 121.7 122.5 123.5 124.6 125.2 126.1 127.2 128.2 129.7 130.9 131.7 131.4 129 125.9 123.8 122.4 120.9 119.7 119 118.6 118.1 117.5 117.8 117.9 118.2 118 117.8 117.4 117 116.7 116.5 116.2 116 115.4 114.9 113.8 113 112.6 112.5 112.4 112.4 112.2 111.8 111.1 109.4 106.3 102.9 99.8 98.4 98.8 99.3 99.2 102.1 105.6 108.8 112 114.3 115.2 114.9 113.8 112.6 111 109.5 107.6 105.7 103.7 101.6 99.4 97 96 95.2 94.4 93.5 94.8 96.4 97.5 98.7 99.1 98.8 98 96.8 95.8 94.9 94.1 92.9 92.1 93.1 96.5 99.2 99.2 98.8 98.5 97.9 98.1 99.6 100.3 99.9 99.3 99.2 96.8 93.5 98.2 95.3 93.6 92.3 91.2 91.7 92 92.6 96.7 98.4 99.8 102.1 103.1 103 102.8 102.8 102 100 97.1 96 96.1 94.6 93.1 92.1 90.6 91.7 94.4 100.8 106.1 108.8 110.9
134.7 134 129.1 121.8 113.4 115.3 121.2 126.3 129.2 131.6 132.2 132 129.6 130.3 132.6 135.5 137.2 137.1 136.5 135.5 134.3 133.3 132.7 129.5 126.2 125.2 125.8 127.6 130.7 133.3 135.5 137.3 138.8 140.3 140.2 139.8 138.9 136.5 135.4 134 132.5 131 129.5 127.7 126.2 124.8 123.6 122.9 122.6 120.8 117.9 114.5 108.7 106.2 107 110.7 114.4 115 113.8 114.3 114.1 115.5 116.9 118.1 118.8 118.9 119.4 120.6 121.7 122.6 123.6 124.6 125.4 126.2 127.1 128.6 131.2 133.5 134 131.3 129.3 125.7 123.4 121.9 120.4 118.9 117.8 117.2 116.7 116 116.3 116.4 116.4 116 115.9 115.5 115.1 114.7 114.6 114.5 114.3 114.1 113.5 112.4 111.2 110.5 110.2 110.8 110.7 110.1 110.1 109.7 108.8 105.4 102.7 99.8 98.2 98.6 99 99.7 102.1 105.1 108.3 111.2 113.6 114.6 114.1 112.8 110.8 108.9 107.3 105.4 103.8 101.8 99.8 98 97.2 96.4 95.7 94.9 94.2 95.9 98 99.6 100.4 100.8 100.5 99.6 98.5 97.3 96.5 95.1 93.3 93.1 93.4 97.7 100.8 102.1 102.2 102 102.1 102.6 104.1 104.5 103.7 103 102.6 100.1 99.7 98 94.5 93.8 94.1 94.3 94.7 96.7 98.9 101 102.9 103.9 104.7 105.2 105.4 104.9 104.4 102.6 100 98.2 99.2 99.7 97.5 95.7 93.9 92.1 92.1 95.2 100.6 106.1 111.8 118.4
135.8 132.9 127.1 120.1 114.2 117.7 123.6 128.2 131.2 133.9 133.9 134 132.2 130.8 133.3 135.7 137.7 137.6 136.8 135.6 134.3 133.1 131.6 128.2 127 127.6 128 128.9 130.4 132.8 135.6 137.9 139.7 140.5 140 139 136.4 135.1 134.2 133.1 131.5 130.2 128.9 127.6 125.1 123.7 122.6 121.7 121.1 119.6 116.5 112.9 107.7 106.7 108.8 113.6 118 118.4 117.1 116.1 116.3 116 117.5 117.6 117.5 118.4 119.4 120.5 121.7 122.7 123.7 124.7 125.4 126 126.4 127.9 132.9 136 135 130.6 127.5 125.1 123 121.4 119.8 118.4 117.3 116.3 115.3 115 114.8 115.1 114.5 113.8 113.9 113.3 112.9 112.5 112.7 112.6 112.5 112.4 111.9 111.1 109.8 108.6 108 108.9 108.8 108 107.9 107.3 105.7 103.7 101.5 99.3 98 98.3 98.8 100.1 102.3 104.9 107.8 110.5 112.8 113.9 113 111.8 109.7 107.7 105.7 104.1 102.5 100.7 99.4 98.4 98.1 97.1 96.1 95.4 94.9 96.5 99.5 101.3 102.1 102.5 102.2 101.3 100.2 99 97.6 95.8 94.1 92.9 94 97.2 101 103.3 104.4 104.6 105.1 106 106.3 106.3 104.9 104.6 102.2 101.9 100 97.5 95.3 95.4 96 96.9 98.1 100.9 103.5 105.3 106.3 106.7 106.6 106.5 106.5 105.8 104.4 102.2 100.7 101.4 102.5 102.3 100 97.5 95.9 94.3 92.6 94.4 99.1 105.3 112.3 118.4
134.8 130.5 124 117.1 114.8 119.3 124.6 128.2 131.2 133.1 134.4 135 134.6 133.3 135.3 136.3 137.9 138 137 135.8 133.3 131.6 129.5 127.6 129.2 130.7 130 130.5 132.1 133.7 137 140.1 140.5 140 139.3 137.7 135 132.9 132 131.3 130.4 129.1 127.8 125.9 124.4 122.9 121.3 120 119.3 117.5 114.8 111 107.4 106.9 110.5 115.8 119.3 120.6 119.9 119.2 118.6 118.3 118.2 118.4 118.3 118.8 119.7 120.6 121.7 122.7 123.8 124.6 125.1 126.3 127.1 129.3 132.1 136.2 132.9 129.2 126.9 124.9 122.9 120.9 119.4 118.2 116.9 116 115.4 114.2 113.2 113.7 112.5 112.1 112 111.3 110.9 110.5 110.5 110.3 110 109.8 109.5 109.2 107.9 106.5 106.1 105.9 106.3 106.5 106 104.6 103.4 101.9 100.1 98.2 98.5 99 99.5 100.5 102.6 105.2 107.7 110.2 112.4 113.3 112.1 110.9 108.7 106.6 104.6 103 101.5 100.4 99.9 99.9 99.7 98.3 97.2 95.9 95.6 97.7 100.4 102.5 103.2 104 103 102.6 101.7 100.1 98.9 96.9 95.4 93.4 94 96.8 102.8 103.2 105.1 105.7 106.3 107.2 107.3 106.7 106.9 105.2 103.2 102.8 98.6 97.9 96.7 97.4 97.2 99.7 102.7 105.4 107.6 108.2 108.2 107.9 107.6 107.4 107.2 105.9 104.1 103 102.7 103.6 104.5 103.4 101.1 99.7 98.9 96.6 93.5 93.9 97.8 104 110.4 115.7
134.2 130.3 122.6 114.9 115.6 120 124.6 127.5 130.1 132.5 134.6 135.4 136.1 135.9 137.5 138.7 138.2 137.7 137 136.4 133.6 131 130.2 129.5 131.4 132.8 132.2 132.4 133.4 135.8 138.6 140.2 140.7 140.2 138.3 136.8 134.6 131.6 130 129.2 128.5 127.5 127.4 125.3 124.2 122.7 121.2 119.4 117.1 115.1 113 109.5 107.1 107.4 111.5 116.7 119.6 121.3 121.9 121.5 120.8 120.7 119.2 120.2 120.2 120 121.1 121.8 122.2 123.2 124.2 124.3 125.4 126.7 128.3 130.6 133.4 135.1 131.1 127.4 126.4 125.1 123.2 121.3 119.8 118.6 117.3 115.7 114.7 114 113.5 112.8 111.7 111.2 110.4 110 109.3 108.3 107.6 107.6 107.5 107.2 106.9 106.5 105.7 104.4 103.8 103.5 103 103.1 102.7 102.4 101.4 99.9 98.5 99 99.5 99.7 99.8 100.9 103 105.5 108 110.3 111.9 112.7 111.8 110.4 107.8 105.6 103.9 102.5 101.2 101.1 101.6 101.9 101.1 99.5 97.8 96 95.8 98.4 101 103.4 104.1 104.3 104.2 104 102.9 101.3 99.1 97.7 96.9 94.8 93.8 96 100.3 103.6 104.7 105.9 106.6 107.9 108 107.8 106.2 104.8 103.3 103 102.8 100.2 98.1 98.4 99.3 101.2 106.1 108.2 109.9 109.6 109.3 108.9 108.7 108.4 107.5 106.1 104.7 104.4 104.3 105.3 105.8 104.3 102.2 101.9 101.6 99 95.2 94.4 98.6 103.1 107.3 111.9
132.7 129.1 122.2 113.7 115.9 119.6 123.4 126.3 129.1 131.9 134.6 135.8 139.1 140.3 142 142.3 140.1 138.5 137.3 135.6 132.4 133 132.5 131.5 132.4 134.4 134.2 134.3 134.9 137.3 139.3 140.7 140.7 139.9 138.2 135.7 133.7 131.1 128.4 127.4 126.7 126.1 125 123.9 123 122 121 118.9 116.3 113.5 110.9 108.4 107.3 108 112.3 117.2 120 121.4 122.4 123 123 122.8 122.3 121.3 120.6 120.3 120.9 122.4 122.9 123.8 124.3 125.3 126.4 127.9 129.3 129.8 131.5 130.7 128.7 126.5 125.3 124.2 123 121.7 120.2 118.8 117.7 115.9 115 114.3 113.8 112.9 112.4 111.2 110.4 109.6 108.8 108.1 107.1 106.1 105.5 104.9 104.3 103.8 103.4 103.1 102.5 101.9 101.5 101.7 101.5 100.8 99.6 99 99.4 100 100.5 100.7 100.8 101.2 103.4 105.9 108.2 110 111.6 112.2 111.3 110 107.3 105.3 103.9 102.8 102 102.6 103.2 103.4 102.7 100.9 98.7 96.8 96.3 98.6 101.4 103.7 104.8 105.3 105.2 105 103.6 102 100.2 99.1 97.9 96.2 94.3 94.6 96.5 100 102.1 103.9 105.4 106.5 107.6 108.1 108 107.9 107.2 106.2 103.9 101.5 100.8 100.4 104.6 106.7 109.8 110.7 109.9 110.8 110.6 110 109.7 108.8 107.5 106.2 105.9 106.1 106.2 106.5 106.6 104.8 103.9 104 103.4 100.7 96.4 95.1 99.6 103.2 106.1 109.5
132.1 127.1 120.2 115 117.4 121.2 124.3 126.7 129.5 132.4 135.1 136.8 141.1 143.7 145.5 145 142.6 140.3 138.2 136.2 134.8 135.3 134.8 133.8 133 134.7 135.3 136 137 138.9 138.6 139 138.3 138.3 137.4 134.9 133 130.2 127.4 125.5 124.6 123.9 123.3 122.2 121.4 120.2 119.6 117.4 115 112.5 110.3 108.7 107.8 108.4 111.6 116.9 119.7 121.1 122.3 123.5 124 123.7 123.8 122.3 121.6 120.8 120.8 122.2 123.5 124.4 124.9 126.2 127.7 129.2 129.6 129.8 128.2 127.5 126.2 124.8 123.9 123.5 122.4 121.3 120.1 118.5 117.7 116.9 115.6 114.7 114.2 113.2 112.7 111.8 111 110.3 109.5 108.8 107.2 106.2 105.4 104.7 104.2 103.7 103.4 103.2 102.7 102 101.6 101.2 100.7 100.2 99.8 99.6 100.2 100.7 101.3 101.7 101.9 102 103.3 105.7 107.9 109.8 111.1 112 110.9 109.5 107.3 105.8 104.4 103.3 103.5 104.4 104.8 104.8 103.7 101.5 99.2 97.5 96.5 98.3 101.3 104.4 105.5 105.8 105.8 105.5 104.2 102.6 101.4 100.2 99 97.4 95.5 94.9 94.9 95.5 97.2 99.1 101.5 104.6 106.2 107.5 108 108.6 107.4 106.7 104.8 102.7 102 103.3 107.2 110 111.3 112.3 112.9 112 111.2 110.5 109.8 109.5 108 107.8 107.8 107.9 108 107.3 106.8 106 105.9 105 103.8 101 96.9 95.8 98.3 102.8 106.7 109.2
130.4 124.7 118 115.7 119.2 123.1 126.2 128.5 130.8 133.4 136 139.4 142.9 146.1 146.6 146.8 145.5 143.9 141.4 139.2 137.4 137.2 136.7 135.8 134.5 135.3 136.3 137.4 138.4 138.7 138.6 138.2 137.4 137.6 135.7 133.4 131 128.8 126.3 124.1 122.2 121.7 121.1 120.4 118.9 117.6 117.1 114.6 112.6 111.2 109.9 109.4 108.7 108.1 110.8 116.3 119 120.5 121.6 122.9 124 123.9 123.7 123.2 122.6 121.8 121.4 122.4 123.4 124.3 124.8 127.1 128.9 129.7 129.7 127.3 125.2 124 124 123 122.3 122.2 121.7 121.1 120 118.5 117.7 117.3 116.7 115.6 115.1 113.6 113.2 112.6 111.9 111.5 110.8 110.1 109 108.4 107 106 105.2 104.5 103.6 103.3 102.8 102.3 101.9 101.8 100.7 100.2 100.4 100.2 100.9 101.5 102.2 102.8 102.9 102.9 103.1 105.3 107.4 109.6 111 111.8 111.5 110.8 109 106.7 105.6 105.3 105.3 106.6 106.5 105.5 104.2 101.9 99.9 98.4 97.5 97.8 100.7 104.1 105.8 106.3 106.5 105.9 104.8 103.4 102.3 101.1 99.9 98.3 97 96.2 96.5 96 96.5 97 97.8 100.6 104.7 107.3 108.5 108.6 108.3 107.3 106.4 104.5 103.7 106.1 109 111.5 113.7 114.4 113.7 113.3 112.2 111.1 109.8 109.3 109 108.7 108.5 108.9 108.2 107.9 107.3 106.7 106.1 105 103 99.9 96.8 96.6 99.6 104.8 108.5 110.8
129.8 121.6 116.7 116.5 120.1 124.9 128.1 130.4 132.6 135.1 138.2 141.5 145.8 149.1 151.2 150.4 148.4 146.5 144.6 142.6 140.6 139.1 138.6 137.8 137.1 136.6 137.6 138 138 138.3 138.1 137.6 136.3 135.4 133.4 131.5 129.3 127.1 125.4 122.8 120.6 119.4 118.8 117.9 116.9 114.8 114 112.8 112.1 111.7 111.2 110 109 108.2 110.2 115.2 118.2 119.5 120.4 122.2 122.9 124.2 123.9 123.6 123.3 122.7 122.2 122.5 123.4 124.3 125.9 128 129.4 129.4 128.3 125.4 123.8 123.2 122 121.1 120.9 120.8 120.8 120.5 119.9 118.5 117.8 117.4 116.9 116.5 115.9 114.7 114.4 114.2 113.7 113 112.3 111.5 110.8 109.8 108.8 107.5 106.5 105.2 104.4 103.8 103.6 102.7 101.8 101.1 100.7 100.5 100.2 100.9 101.4 102.3 103 103.9 103.7 103.7 103.7 105.1 107.2 109.2 111.4 112.8 112.7 111.2 109.4 106.3 106.1 106.9 107.8 107.5 107.3 106.1 104.8 103.3 101.4 99.9 98.7 97.9 99.8 103.6 106 106.8 107.1 106.4 105.5 104.3 103.1 101.9 100.7 99.1 98.1 98.4 99.7 99.5 99.5 98.3 96.8 98.6 103.8 106.3 108.7 108.9 108.8 108 106.8 105.1 104.9 108.7 109.5 111.3 113.5 113.8 113.9 113.6 112.9 111.9 110.6 109.9 109.1 109.1 108.6 108.8 108.1 107.4 107 106.9 105.9 103.4 100.6 97.6 97.1 97.8 100.1 103.3 107 109
126.1 120.1 116.6 117.1 120.8 125.3 128.9 131.5 133.2 135.3 137.6 142.3 147.8 152.9 157 156.5 151 149 147.2 146 144.5 143.1 141.2 139.5 139.2 139.2 139.1 138.8 138.6 138.2 137.6 135.4 133.3 132.2 131.2 129.7 127.6 125.5 124.3 122.5 119.4 118 116.9 116 115.9 114.4 114.1 113.8 113.6 113.7 113.1 111.5 109.3 108.3 109.8 113.4 116.6 118.2 119.3 121.6 122.5 123.2 124 124 123.9 123.4 123 123 123.9 125.1 126.8 127.8 127.9 127.7 126.5 124.6 123.1 121.7 120.4 119.8 119.5 119.4 119.6 119.5 118.8 118.4 117.8 117.5 117.4 117.2 116.7 115.9 115.6 115.4 115 114.2 113.5 112.8 111.9 111 110 108.9 107.6 106.2 105.4 103.5 102.4 102.4 101.2 100.6 100.8 100.8 100.3 100.8 101.8 102.9 103.7 104.8 104.7 104.6 104.6 104.8 106.6 108.6 110.9 112.9 113.9 112.6 110.4 106.3 106.3 108.5 109.4 108.9 108 107 106.2 104.9 103.1 101.3 100.2 99 99.8 102.8 105.6 107.1 107.6 107.3 106.4 105.4 103.9 102.8 101.5 99.8 98.4 100 102.2 103 102.5 100.9 99 98.2 102.1 106.3 108.8 109 109.4 108.7 107.7 106.2 106.1 108.6 109.7 111.7 113.2 113.6 113.6 113.4 113.2 112.8 111.8 110.3 109.5 108.8 108.3 107.8 107.3 107 106.7 105.5 103.2 100.8 98.3 98.2 99.3 100.6 102.3 104.7 105.8 107.7
127.5 120.3 117.2 118.2 120 125.3 128.1 130.1 131.9 134 135.9 140 145.9 153 158.7 159.8 157.1 153.5 150.3 148.9 147.4 145 143 141.5 140.7 140.6 140.5 140.4 139.6 138.6 137 133.9 131.7 129.6 128.4 126.8 125.1 123.5 122.1 120.5 118.2 117.6 117 116.8 116.6 115.5 115.8 115.1 115.8 115.2 113.7 111.6 109.6 108.1 110.6 113.1 115.6 117.4 119 120.1 121.7 122.8 123.6 124.3 125.1 124.6 124 123.8 124.5 125.6 126.5 126.4 126.5 125.9 124.9 123.5 122.4 121 119.5 118.5 118.1 118.1 118.4 118.2 117.6 117.1 117.6 117.5 117.3 116.8 116.7 116.3 115.8 115.2 115 114.6 114 113.2 112.4 111.7 110.6 109.6 108.1 106.1 104.3 102.5 101.4 101.4 101.8 101.2 100.9 100.8 101.1 101.5 102.4 103.4 104.4 105.7 105.6 106.2 105.7 105.8 106.4 108 110 112.3 113.6 113 111.4 108.9 108.7 110.2 111.5 110.3 109.1 108.4 107.6 106.6 104.7 102 99.8 99 99.3 102.3 105.3 107.4 108.1 108.5 107.6 106.6 105.7 104.1 102.3 101.2 100.1 100.5 103.2 104.7 105.3 103.4 100.4 97.9 101.9 106.6 108.8 109.7 109.8 108.9 108.6 107.3 107.4 109.5 110.9 112.1 113.1 113.6 113.1 112.7 112.6 112.9 112 110.1 109 107.6 106.8 105.9 105.1 105 104.3 103.1 101 99 99 100.4 101.9 102.9 104.4 106.1 106.7 107.2
127 121.9 119.4 117.4 120.7 123.9 126.2 128.2 129.9 132.1 134.4 136.5 142.6 149.9 157.8 161.1 161 157.3 153.1 150.4 148.6 146.6 144.9 143.3 142 141.2 140.6 140.3 139.4 139 138.1 135.6 131.8 129.1 126.6 124.6 122.9 121.6 120.3 119.9 118.6 118.6 118.4 118.3 118.3 117.3 117.3 116.7 116.8 115.7 114.1 111.6 108.7 108.7 111.4 114 116.5 118.1 119.5 119.9 121.4 122.7 123.8 125.2 126.5 126.6 125.3 124.7 124.9 125.4 125.6 125.1 125 124.3 123.5 122.6 121.6 120.5 119 117.6 116.7 116.8 117 116.8 116.5 116.3 116.4 116.8 116.5 116.4 116.6 115.7 115.3 114.7 114.6 114 113 112.5 112.1 111.8 110.1 108.7 106.5 104 102.5 101.6 101.6 101.9 102.5 102 101.7 101.3 101.8 102.2 103.3 104.3 105.6 106.7 107.8 107.3 106.9 106.7 106.8 107.5 109.5 112.4 114.8 113.6 111.6 109.3 109.6 111.1 111.7 110.4 109.4 108.8 108.4 106.6 104.5 101.4 99.6 99.8 99.7 101.7 105.3 107.3 108.5 109.1 109.1 108.3 107.2 104.6 102.5 101.3 100.4 101.4 104 106 106.5 105.1 101.5 98.4 101.5 107 109.1 110.3 110.7 109.9 109.3 108.5 109.1 110.5 112.1 113.3 113.6 113.3 112.7 112.5 112.2 111.8 110.5 109.4 107.7 106.3 106.1 104.8 103.7 103 102.2 101.1 99.8 100 102 103.3 104.9 105.4 105.3 105.8 106.1 106.2
127.9 123.9 119.9 117.7 119.1 121.7 123.9 126.1 127.9 129.8 132.3 135.2 139.1 146.2 154.8 160.2 160.9 158.7 155.1 151.4 149.2 146.5 144.8 143.6 142.4 140.4 139 139.8 138.9 139 137.9 135.1 131.7 129.1 126.7 123.8 122 120.8 120.4 120.6 120.3 120.1 119.9 119.7 120 119.4 118.9 118.9 117.5 115.8 114 110.6 109.1 109.4 111.9 115.1 117.3 118.8 120 121 121.6 123 124.4 125.7 127.1 128.2 127.1 126.2 126 125.3 124.5 123.8 123.4 122.8 122.2 121.5 120.5 119.6 118.5 117 115.6 115.4 115.6 115.4 115.2 114.9 115.1 115.3 115.5 115.7 115.8 115 114.6 114 113.8 113.1 112.2 111.3 109.3 108.4 107.6 106 104 102.7 102.1 102.3 103.2 103.7 103.5 102.8 102.3 101.9 101.5 102.5 104.6 105.5 106.3 107.6 108.4 108.3 108.3 107.6 107.7 108.6 110 112.2 114.7 114.3 112.6 110.9 110.5 111.1 111.6 110.2 108.4 107.3 106.6 104.7 102.5 101.5 101.4 101.1 100.7 102 104.6 107.4 108.9 109.5 109.8 109.4 108.2 105.6 102.8 101.4 101.5 102.6 104.6 106.8 107.4 106.2 102.8 99.9 101 106.7 109.2 110.9 112 112 110 109.2 109.9 112.5 114.3 115 114.9 114.1 113.8 113 110.8 111.6 110.6 109.6 108.3 107.2 106.5 105.6 104.6 102.7 102.5 101.3 100.9 102.5 104.4 105.7 106 105.9 105.6 105.6 105.5 105
128.2 124.4 120.7 118.7 118.2 119.4 121.5 123.8 125.8 127.9 130.6 133.5 137.5 144.2 151.9 159.4 160.2 158.5 157.4 152.3 149.3 144.8 144.2 143.2 141.7 139.5 138 137.7 138.4 137.9 137.7 134.2 130.9 128.8 125.9 123.2 122 121.8 121.8 122.5 122.1 121.6 121.4 121.3 121.4 121.1 120.3 119.5 117.5 115.9 113.1 109.9 109.3 109.8 113.1 116.1 117.7 119.4 120.6 121.2 123 124 125 126.3 127.9 129.4 129.6 128 126.7 125.3 123.8 122.4 121.9 121.2 120.6 120.2 119.2 118.2 117.3 116.3 114.9 113.8 113.6 113.4 113.2 113.4 114 114.2 114.4 114.7 114.9 114.2 113.5 113.1 112.5 112.1 110.1 108.7 107.1 104.7 104.1 103.2 102.6 103.1 103.9 104.5 105.2 105 104.3 103.2 102.6 102.1 102.1 103.1 104.3 106.1 106.8 108 108.9 108.8 109.7 109.2 109.4 110.2 111.3 113.1 115.2 115.5 114.1 112.1 111.7 112 111.4 109.6 107.5 105.8 104.4 103.7 103.1 103.9 103.9 102.5 101.5 101.5 104.3 107 109 109.6 110 109.8 108.5 105.9 103.5 102.2 102.6 103.9 105.5 107.7 108.7 106.2 103.8 101 101.1 105.9 108.8 111 113 113.2 110.9 110.4 111.1 114.2 116.1 117.1 116.8 115.2 114.5 114.5 112.3 112.9 110.8 110.4 110.2 108.8 107.3 106.4 105.3 103.4 102.5 102 102.3 104.5 105.8 106.3 106.3 106 105.7 105.2 104.5 104.2
129.3 124.7 121.9 120.6 118.8 118.7 120 122 124.3 126.7 129.2 132.3 136.7 143.7 152.3 157.4 157.3 158.3 156.9 153.2 147.9 143.7 140.9 139.6 138.2 136.6 134.1 134.8 134.2 134.2 133.3 132.3 130 127.6 125 123 122.3 122.8 124.7 124.3 124.3 123.9 123.5 123.4 122.7 122.5 121.2 119.5 116.8 115.1 112.3 110.5 110.7 111.4 114.4 116.8 118.9 120.3 120.8 122.2 123.9 125.2 126.5 127.8 129.4 130.9 131.1 129.7 128.3 125.1 122.6 121 120.5 120.1 119.1 118.4 117.9 116.7 115.9 115.5 114.3 112.9 112.1 111.5 111.5 112.1 112.5 112.9 113.6 114.1 113.8 113.3 112.7 111.8 110.9 110.4 108.4 106.5 104.4 103.4 103.3 103.2 103.6 104.8 105.5 105.6 105.9 105.7 104.7 103.7 102.8 101.8 103.1 104 104.8 105.9 107.1 108.7 109.5 111 111.6 111.6 111.8 112.1 113.2 114.5 116.2 116.7 115.2 113.2 112.8 111.8 110.5 108.7 106.8 105.6 104.6 104.7 106.5 107.2 106.1 103.8 102.6 101.9 103.8 106.1 107.8 108.9 109.8 110.1 108.8 106.1 104 103.2 103.9 105.4 106.9 108.9 109.8 106.1 105.6 102.5 101.1 105.5 108.8 111.3 112.6 112.5 111.3 111.7 114.4 115.5 117 117.6 117.4 116.8 116.8 116.6 114.7 115.7 115.8 115.1 113.8 110.5 108.8 107.7 106.9 105.2 103.4 103.2 104 106 106.5 106.7 106.1 105.9 105.3 104.8 103.9 103.6
128.7 125.4 123.2 121.9 120.3 119.1 119.7 121.9 124.3 127.5 130.1 132.7 137.4 143.4 150.7 155.5 152.9 155.9 156.7 154.2 150.4 144.4 140.4 136.8 131.6 132 131.5 130.8 130.9 130.3 130.7 129.7 128 126.1 124.1 122.8 123.5 125.9 126.8 126.2 125.8 125.4 125.1 124.4 123.3 122 120.6 118.6 117.2 114.6 111.7 110.4 110 111.6 114.6 116.8 119.4 120.7 121.7 122.8 124.5 125.9 127.4 129.5 131.5 132.3 132 131.6 128.1 124.3 121.5 119.8 118.6 117.8 117 116.4 116 115.2 114.4 113.9 113.3 111.9 111.3 110.8 109.9 110 110.2 111.4 112.9 113.2 112.8 112.2 111.7 110.9 109.2 107 105.7 104.3 103.7 103.6 104 104.6 105.4 106.1 106.6 106.6 106.9 106 105.1 103.7 102.9 103.1 104.2 105.4 105.4 106.2 107.5 109 110.7 112.7 113.5 114.2 114.5 115.1 116.4 117.8 118.4 117.9 115.9 114 113.4 112.4 110.8 108.7 106.9 105.7 105.8 107.3 109.2 109.7 107.7 105.2 103.8 102.9 103.2 105 106.7 108.4 109.3 109.4 109 105.8 104.7 104.6 106.1 107.2 108.8 110.5 111.1 110 107.2 104.1 102 104.5 107.9 110.6 111.5 111.9 112.2 113.5 115.8 117.1 117.7 118.8 119.1 118.3 117 117.4 116.9 117 117.3 118.2 116.8 114.9 111.6 109.6 108 105.8 104.4 104.7 106.5 107.4 107.9 106.8 106.2 105.6 105.1 104.3 103.3 102.8
129.2 127.5 125.1 123 121.4 120 119.5 121.6 125.1 128.6 131.2 134.4 137.7 142.5 147.2 150.9 151.2 153.6 156.6 155.7 151 145.7 142.1 138.4 135.5 133.5 131.7 130 129.4 129 128.1 127.1 126.3 125 123.9 123.9 126.1 127 126.9 126.5 126.4 125.8 124.8 123.9 122.1 120.7 118.5 118 116.7 113.4 111.5 110.3 110.1 111.1 114.7 117.4 119.3 120.9 122.1 123.3 125.3 127 129.5 131.7 132 131.7 131.6 129.8 125.8 122.9 120.7 119 117.6 116.4 115.9 115.3 114.8 114.1 113.3 112.8 112.3 111.9 111.5 111.1 110.1 109.2 108.8 110 111.3 111.8 111.8 111.4 110.3 108.7 107 105.4 104.3 104 104.1 104.4 105.3 105.9 106.8 107.3 107.8 107.4 107.4 106.7 105.2 103.8 102.7 103.9 106.1 106.4 106.4 106.8 108.1 109.7 111.6 114.3 116 118.5 119.3 120.3 121.8 121.2 120.4 118.9 117.4 115.8 115 112.8 111 108.6 107.1 106.2 107.2 108.6 110.6 111.1 109 106.8 104.9 104 103.6 104.5 106.2 108 108.5 108.6 108.4 105.9 105.4 105.9 107.6 109.4 110.4 111 111.8 111.8 108.8 105.6 103.1 103.5 105.9 109.2 111.6 112.8 113.7 115.2 117.8 119.9 120.9 121.6 121.1 121 118.3 118.7 118.7 118.8 119.4 120.9 119.2 117 113.2 110.8 108.5 106.2 105.1 107.6 108.6 108.3 107.9 106.5 106 105.3 104.2 103.4 102.8 101.6
131 130.1 127.8 124.9 122.9 121.1 120.2 122.4 126 129.6 132.6 134.6 137 139.7 142.1 145.4 147.8 152.5 154.6 156.4 153.1 147.5 144.4 141.8 138.2 136.1 133.8 131.4 130.6 129.5 127.3 126.1 125.2 124.4 125.1 126.1 126.6 126.2 126.2 126.2 125.6 124.6 123.4 121.5 118.9 118.5 116.8 115.5 113.9 112.7 111.4 110.5 110.4 110.6 113.6 116.7 119.2 120.7 122 123.5 125.8 128.6 131.4 131.6 131.1 130.5 129.4 125.2 123.9 121.6 120 118.2 116.9 115.9 115.3 114.8 114.3 113.8 113.2 112.9 112.6 112.2 111.8 111.4 111 109.7 108.5 108.6 108.9 109.5 109.6 109.5 108 106.4 104.9 104.5 104.6 104.8 104.8 105.8 106.7 107.2 108.1 108.5 108.9 107.8 107.5 107.2 105.4 104.2 102.5 104.4 107.6 107.7 107.6 107.2 108.7 110.5 113.5 115.9 119.2 123.4 124.5 125.4 125.5 123.5 121.8 120.1 118.8 117.4 115.4 113 110.1 108.4 107.6 106.9 107.3 110 110.8 111 110.3 107.7 105.7 104.2 104.1 105.1 107 107.9 108.4 108.6 107.9 106.7 106.7 107.3 109.6 110.5 110.3 110.1 110.3 111.9 110.5 107.6 104 103.1 106.2 109.7 111.2 112.4 114.4 116.4 118.9 122.1 124.6 123.9 123.6 123.3 122.7 122.7 121.9 122.5 122.4 123.6 120.4 116.9 113.9 111.1 108.9 106.9 109.8 111 108.7 108.5 107.7 106.5 105.6 104.9 104.3 103.5 103.4 102.8
132.9 132 129.4 126.6 124.3 122 119.9 122.4 126.8 130.6 132.1 132.9 134.1 135.9 139.8 142.7 145 148.6 152.2 155.7 156.2 151.6 148.3 144 140.4 137.5 134.9 132.8 130.8 129.3 127.4 126.7 126 126.3 126.6 126.4 126.3 125.5 125.4 124.8 123.8 122.3 120.8 119.4 117.3 116.1 115 114.7 114.1 113.6 112.5 110.8 110.7 111.1 112.3 115.5 118.8 120.1 122.5 124 126.5 129.7 130.8 128.6 129.6 127 126.7 124.4 122.7 120.5 118.9 117.7 117.2 116.4 115.8 115.3 114.8 114.2 113.4 113.1 112.8 112.7 112.6 112.4 111.6 110.3 108.9 107.9 107.3 107.2 107 107.1 105.9 105.4 104.9 104.5 105.4 106.1 106.3 107.3 108 108.6 109.6 110.7 110.4 109.2 108.4 107.5 105.8 104.2 103.7 106 108.6 109.4 108.6 108.2 109.3 111.2 114.4 117.1 120.6 125.7 127.6 128.8 127.9 124.7 123 121.4 119.2 117.1 115.4 112.6 108.4 108.2 108.7 109.1 108.5 110.1 110.6 111 110.5 108.8 106.5 104.6 104.6 106 107.5 108.4 109.5 109.5 107.6 107.2 107.8 108.9 110.4 110.6 110.2 110.2 109.9 110.5 110.3 108 104.5 103.9 104.3 106.9 108.7 112.5 113.8 115.7 118.6 122.6 124.4 129.3 126.8 125.4 124.5 125.1 124.7 125.9 126.5 124.4 121.6 119 115.7 111.6 108.9 109 111.7 111.7 108.9 108.4 107 106 105.7 105 104.7 104.1 103.8 103.8
134 132.4 130.7 128.2 124.9 122.1 119.9 122.2 126.3 129.9 130.1 131.6 132.9 134.6 138.1 140.6 141.9 144.8 150.9 154.7 155.7 153.4 150.9 147.2 142.4 137.8 135.3 133.5 130.8 128.8 128.2 127.6 127 127.5 127.2 126.8 125.9 125.1 123.8 122.9 121.6 120.3 118.9 118 117.6 116.9 116.7 116.2 115.8 114.7 113.4 111.4 110.7 111 112 114.9 117.8 119.5 121.6 123.1 126 128.1 127.3 126.2 126 125.5 123.8 122.8 121.2 119.6 118.4 118 117.5 116.5 116.4 115.8 115.3 114.8 114.1 114 113.8 113.7 113.2 112.6 111.8 111 109.5 108.1 107.2 106.8 106.5 106.2 105.7 105.4 105.6 106.2 106.7 107.2 107.7 108.4 109.2 110.4 111.8 112 111.4 110.2 108.8 107.5 106.3 103.3 104.6 106.6 109.2 110.2 109.5 109.7 111.9 112.2 113.3 117.3 121.6 127.5 131.5 131.1 129 126 123.7 121.4 119 116.6 113.1 110.5 109.1 108.8 110.2 111 110.2 110.2 110.4 110.9 110.6 107.9 105.4 105.6 106 107.3 108.6 109.1 110.4 109.9 106.7 108.2 109.5 111.4 111.3 110.4 110.2 110.2 111 109.2 108.2 107 105.6 105.1 104.7 105.3 105.5 110.8 111.6 114.6 118.4 124.9 130.2 133.3 135.3 136.8 138.1 135.2 133.6 132.3 130.8 126.8 124.7 120.6 116.4 113.2 108.4 109.8 111.3 111.2 108.9 107.6 106.6 106.2 105.6 105.2 105.2 105.7 105.2 104.8
134.5 132.7 131.1 129.2 126.2 123.1 120.1 121.8 126 128 128.9 130.5 131.7 132.9 136 137.7 139.6 142.4 147.5 152.9 155.2 154.4 152 148.2 143.3 137.5 135.9 134.3 131.2 129.3 129.6 129 128.5 128.5 127.6 126.5 125.6 124.3 122.7 121.4 120.2 119.5 118.6 118.1 118.6 118.1 117.7 117.7 116.7 115.8 114.3 112.1 110.9 111 111.7 114.5 117.2 119.2 121.2 122.3 123.9 125 124.7 124.8 124.2 122.8 122.7 121.9 120.5 119.3 118.6 118.2 117.9 117 117 116.7 116.2 115.7 115.5 114.6 113.7 113.1 112.4 111.9 111.4 110.3 109.1 108 107.8 107.4 107.2 106.9 106.4 106.1 106.8 107.6 107.7 108.1 108.8 109.4 111.2 112.8 113.6 113.2 111.6 110.2 108.7 107.4 105.9 104 105.5 107.9 109.4 111.3 110.9 111.5 115 115.6 116.3 119.4 123.5 130 131.7 131.2 129.1 126.2 123.5 121.3 118.9 115.6 113 111.3 109.8 111 111.7 111.2 111.5 110.3 109.3 108 107.3 106.4 106.5 106.2 106.4 108.9 110.6 110.8 112.7 111.5 109.6 111.5 113.3 113.6 113.1 112.2 111.5 111.6 109.8 105.3 106.2 108 108 107.2 106.6 105.5 106.4 107.2 111.6 115.4 119 126.2 131.6 135.8 140.1 144.5 147.4 144.6 140.4 137 133.6 129.4 125.1 120.5 115.9 113.1 110.2 111.1 111 109.9 108.2 107.2 107.2 106.8 106.6 106.5 106.6 105.8 105.6 104
134.5 132.3 130.4 128.8 126.3 123.6 120.8 121.6 125.9 126.6 128 129.4 130.6 131.7 134.3 135.8 136.8 139.7 143.2 149.9 153.8 154.1 152.7 148.8 144.5 137.9 136.1 135 132.4 131.2 131.2 130.2 129.6 128.9 127.5 124.6 125.1 123.5 121.9 121.3 120.6 119.9 119.1 120.4 119.8 119.2 118.8 118.6 117.7 116.7 115.1 112.6 111.1 111.1 111.7 114.3 116.4 118.6 120.2 121.4 123 123.6 123.4 123.7 123.1 122.3 121.4 120.9 120.7 120 119.2 118.6 117.9 118 117.9 118.1 117.6 116.7 115.5 114.1 112.8 112.3 111.7 110.9 110.3 109.5 109 108.9 108.6 108.4 108 107.3 107.2 107.6 108.4 108.7 108.9 109.2 109.8 110.5 112.9 113.9 114.4 113.6 111.8 110.2 108.8 107.2 105.6 105.1 105.2 110.7 111.4 112.6 113.6 113 114.4 115.6 117.7 122.4 128 131.9 131.3 130.7 129.4 126.4 123.4 121.3 119.9 117.8 115.7 113.6 110.2 113.8 113.4 112.6 112.3 110.4 109 107.8 107.3 108.1 108.6 107.1 107.4 110.3 113.5 114.8 114.7 113.7 111.9 113.3 116.7 117.5 116.1 114.5 113.9 112.6 110.8 110.4 110.2 110.3 109.5 109.4 108.6 106.8 106.6 111.7 113.2 115.3 119.4 126.7 134.1 138.8 143.3 150.6 151.2 147.9 143.2 136.9 133.4 128.2 123.5 119.1 115.2 114.1 111.4 111.4 111.3 109.2 107.2 106 105.6 106.9 106.8 106.8 106.8 105.6 103.2 101
134.2 132.1 129.7 127.7 125.9 123.6 122.2 121.2 123.8 126.6 127.3 128.2 129.3 130.3 131.5 132.7 134.3 136.6 140.6 148.1 152.4 153.5 153 149.9 146.3 141.1 138.1 136.3 133.9 132.4 132.4 132 130.7 129 126.9 126.2 124.6 123.2 122.8 122.3 121.7 120.7 120 121.5 121.5 121.8 120.9 120.2 119 117.2 115.7 113.2 111.8 111.4 111.8 114.5 116.8 118.1 119.2 120.9 122.7 122.7 123.3 123.6 123.1 122.1 121.2 121 120.8 120.3 119.9 118.8 118.7 118.7 118.9 118.8 117.6 116.2 114.8 113.5 112.5 112.1 111.8 111.1 110.5 110.2 110.1 109.8 109.2 108.7 108.1 107.7 107.7 108.8 109.8 110.1 110.6 111.2 111.8 111.6 112.7 113.6 114.8 113.8 112 110.2 108.7 107.1 105 105.7 110 113.2 114 114.4 116.3 115.6 115.2 115.9 120.5 125.8 130.1 131.6 131.3 131 129.7 127.3 125.2 123.1 121.4 119.5 117.4 115.3 114.3 116.2 116.3 115.2 112.9 110.4 110.1 109.5 109.6 111.6 111.1 108.2 109.1 112 115.5 116 116 113.8 114.4 117.7 120.1 120.2 118.6 116.2 115.5 113.7 112 111.9 112.4 112.8 112 111.9 109.9 107.6 106.4 113.6 116.8 118.8 122.3 129.2 136.9 144.4 150 151.4 152.5 149 143.6 134.9 129.3 124.7 122.2 119.6 117.6 116.3 113.4 111.5 111.2 109.1 107.9 105.9 105.5 105.2 104.6 106.2 105.5 103.3 101.2 100.4
132.6 131.1 128.9 127.3 125.8 125 122.9 120.9 121.8 125.6 126.8 127.3 128.3 128.9 129.6 130 129.8 136.8 140.1 146.9 152.2 153.4 152.3 151.2 150.3 145.8 141.5 138.6 136.1 133.4 133.4 132.8 132.1 129.6 127.4 125.8 124.1 124.2 124 123.5 122.6 121.5 121.1 122.3 123.6 123.4 122.5 120.7 119.1 117.3 116 113.1 112.2 111.6 111.9 114.8 117.4 118.7 119.9 121.4 122 122.5 123.2 123.5 123.5 121.7 121.1 121.1 121.2 121.2 120.3 120 120.1 120.2 120.2 118.8 117.3 115.7 114.6 113.5 112.5 112.1 112.1 112 111.5 111.4 111.1 110.5 109.6 108.7 108.3 108.2 108.6 109.7 111 112 112.5 113.1 113 113.1 113 113.5 115 114.1 111.5 110.4 108.7 106.9 104.7 107.5 111.5 114.6 116.5 117.4 118 118.4 118.2 119.9 123.2 127.8 131 131.5 131.3 131.1 130.6 129.3 127.3 125.3 123.1 120.7 118.4 115.8 116.9 117.6 117 116.4 112.6 111.8 111.2 110.7 113.1 113.6 112.5 108.6 109.4 113.1 115.8 117.2 117.3 116.6 117.1 119.4 121.3 121.7 120.7 118.6 116.6 114.9 113.7 113.8 114.3 114.8 114.5 113.7 111.6 107.4 107.9 115.5 118.9 122.6 127.3 133.8 138.4 149.5 151.1 151.6 151.5 149 144.7 138 130.7 125.6 123.2 122.6 121.9 119.2 113.9 112.2 111.1 109.7 107.8 107.3 106.2 103.2 103 103.2 102.8 101.9 101.1 100.2
132.3 131.1 129.4 128.5 127.6 126.6 124.4 122.7 121.9 122.7 125 125.8 126.7 127.6 128.8 131.3 134.6 137.6 140.7 146.2 151.2 153.6 153.2 151.9 151.7 148.5 144.1 140.4 137.6 135.6 133.2 131.9 130.2 129.1 126.2 125.1 124.7 125.1 125.3 123.9 123.3 122.5 121.7 123 124.4 123.4 122.1 120.6 118.8 117.1 115.7 113.7 112.9 111.9 112.1 114.2 117.2 119.3 121.4 122.2 122.9 123.4 123 123.5 123.6 122.6 120.5 122.4 122.9 122.9 122.5 121.5 121 121.2 120.6 119 117.4 115.8 114.3 113.8 113 113 112.9 112.9 112.7 112.4 112 111.1 110.2 109.4 108.9 109.3 109.6 110.3 111.7 113.1 113.8 113.9 113.8 113.6 113 113.5 115.3 114.4 111.8 110.3 108.5 106.2 106.3 108.8 112.5 114.9 118 119.9 121.6 122 122 123.3 125.6 128.5 131.4 131.6 131.5 131.2 130.9 130.3 128.8 126.4 123.7 120.9 118.5 117.3 119.2 119.3 117.8 112.9 113.7 114.7 113.7 114 114.8 115 113.8 111.9 110.6 114.2 115.8 118 117.3 116.9 119 121.6 123.4 124.3 123.3 121.3 118.6 116.6 116 116.2 116.4 116.5 115.7 114.6 111.9 109.2 110.5 115 120.2 126.7 131.4 136.9 141.4 150.4 150.7 150.7 150.3 148.1 143.2 137.8 130.6 128.2 126.9 124.7 123.2 119.5 115.4 113.9 112.1 110.4 109.4 108 106.8 101.9 102.6 102.9 102.6 102.1 101 100.5
133.2 132 131.3 130.4 128.7 127.2 125.4 124.9 123.4 122.3 122.4 123.9 126.1 128 129.9 132.4 136.1 137.8 141.8 147.4 150.5 153.3 153 152.2 150.1 148.8 143.8 143 140 137.2 133.8 133.2 130.8 128.7 127.3 125.8 125.7 126.4 125.4 124.2 124 122.8 121.9 122.6 122.8 121.8 120.8 120 118.5 116.9 115.4 113.7 112.7 112.9 112.4 114.1 116.3 119.6 121.1 122.3 123.1 123.6 124 124.2 123.9 123.7 123.5 124.3 125 124.9 124.1 122.8 123.2 122.3 120.8 119.1 117.4 115.9 114.4 114 113.7 114 114 114.4 114 113.4 112.7 111.4 110.3 109.7 109.5 110.5 110.8 111.1 112.2 113.5 114.3 114.7 114.8 114.2 112.7 114.1 115.9 114.6 112.1 110.3 108.6 106.1 107.2 109.9 112.7 116.5 119.2 121.3 123.7 124.2 124.5 124.3 127.2 129.9 131.1 131.5 131.7 131.8 131.5 130.9 129.4 126.6 123.8 121.2 119.3 119 119.6 119.2 115.1 111.5 116.2 115.9 114.5 115.8 117.1 116.7 115.2 114 112.4 114.6 115.9 118.3 117.8 119.1 121.2 123.1 126.4 127.4 125.8 124 121.2 118.6 117.8 118 117.6 116.5 116.1 114.9 111.3 109.6 113 118.9 123.5 128 134.7 142.2 147.3 150.5 150.3 149.4 148.9 146.3 141.1 135.8 134.5 131.2 128.4 124.7 122.5 119.5 116.5 114.5 112.2 111.3 109.8 108.2 106.6 103.5 103.6 103.3 103.3 102.5 101.8 103.5
134.7 133.7 133 131.4 129.6 127.4 126.7 127.5 126.2 123.9 122.2 123.3 126.9 129 131 131.8 135.7 136.4 144.3 149.3 152.5 152.8 152.6 152.2 151.5 149 147.7 145.5 142.6 139.6 136.5 134.4 132.1 130.1 128.9 127.4 126.5 126.1 125.1 124.8 124.1 123.8 123.4 123.3 122 121.1 120.6 119.8 118.6 117 115.5 114.1 113 112.5 112.4 113.1 115.7 118.9 120.7 122 122.9 123.3 123.7 123.9 123.7 123.7 124.3 125 125.8 125.9 124.9 123.9 124.8 123 120.9 119.4 117.5 116.2 115 114.5 115 115.4 115.8 116.3 115.5 114.5 112.9 111.4 110.3 110.3 110.6 111 110.7 110.7 111.9 112.4 114.2 115.7 116.1 115.4 114.5 114.8 116.1 114.2 112.4 110.6 108.1 107 108.3 112.8 115.6 118.1 120.4 123.6 126.4 127.1 127.1 128 128.8 130.3 130.9 131.3 131.5 131.7 132 131.5 129.8 127 124.3 122.2 120.4 119.5 118.8 117 115.6 117.3 118.6 117.4 116.1 119.4 119.4 118.2 115.8 114.7 113 114.9 116.9 118.9 119.4 121.5 123.5 125.7 129.2 130.2 128.7 125.3 123 120.4 119.4 119.1 117.3 116.4 116.5 114.2 110.3 112.7 116.5 123 127.7 133.4 141.8 145.7 148.4 149.7 149.4 149.3 147.3 144.9 143.1 140.7 137.1 132.3 128.1 124.8 121.3 118.3 115.4 114.6 112 111.2 110.1 108.4 105.7 106.4 106 104.7 103.6 102.5 103.6 104.5
137.8 135.5 133.5 131.6 130 128.7 128.6 129.1 127.9 126 123.8 122.6 124.6 127.4 129.6 131.4 134 136.1 141.6 149.8 152.7 152.4 151.5 150.7 152.1 152.4 150.2 147.8 145.1 143.3 140 137.5 133.9 131.8 130 128.8 127.8 127.3 125.6 125.1 124.5 124.2 124.2 123.7 122.6 121.5 120.5 120.1 119 117.8 116.1 114.6 113.6 112.7 112.4 113.1 115 118.1 120 121.6 121.9 122.5 123.1 123 123.4 123.6 125.1 126 126.5 126.4 126.1 125.5 125.7 124.8 122.8 121 117.2 116 115.3 115.8 116.8 117.6 118.1 117 116.1 113.7 112.4 111.1 111.1 111.2 111.8 112.1 111.2 111.2 111.8 112.8 115.2 116.9 117.2 116.4 115.3 115.6 116.3 114.1 112.3 110.5 107.8 107.2 109.9 113.8 116.9 119.6 121.7 125 128.7 129.8 129.5 129.7 129.1 130 130.4 130.9 131.3 132.3 132.9 132 130 127.6 124.8 123.1 121.5 120.1 118.1 116.9 118.2 118.6 120.5 118.5 117.4 120.4 121.4 119.8 117.5 115.7 115.1 115.6 118 119.8 120.7 122.6 124.3 127.4 129.7 129.8 129.1 126.1 123.7 122.7 119.9 118.7 117 115.7 113.9 112.3 112 115.7 119.9 126.2 131.3 138 143.5 146.4 148.9 149.1 150 147.3 145.3 143.7 142.3 140.6 137 132.3 128.6 124.5 120.6 118.3 116 114.2 112.3 111.1 110.6 108.5 107.1 107.9 106.5 105.7 103.8 102.5 104.6 105.1
140.6 136.8 133.3 132.4 131.1 131.1 130.6 129.7 128.4 126.4 124.9 123.1 123.1 126.3 129.1 131 131 133.6 138.1 146.5 151.4 149.5 148.4 149.2 151.6 152.2 151.5 149.1 146.8 148.4 147 140.5 136.2 132.6 131.3 130.2 128.6 126.5 126.3 125.7 125.1 124.5 124 123.7 123.5 122.5 121.7 121.2 119.5 118.5 116.8 115.1 114 112.2 112.3 113.2 115 117.5 119.5 120.8 121 121.4 122 122.6 122.7 123.5 125.4 126.8 126.7 126.5 126.2 125.9 125.1 125.4 123.4 121.7 119.8 116.2 117 118.2 119.1 120 118.7 116.7 112.2 112.7 111.9 112 112.4 112.3 113.1 113 112.3 112.1 113 114.4 116.2 117.9 118.3 117.5 116.1 116.5 116.7 114.6 111.3 109.2 108.4 106.8 109 114.2 115.9 119.2 121.8 125.7 128.7 129.6 129.7 129.6 129.5 129.6 129.9 130.5 131.6 132.6 133.1 132.6 130.3 127.9 125.3 123.5 121.8 120.7 119.6 118.5 119.9 122.4 123 120.9 119.6 121.4 122.1 120.6 118.6 117.4 116.8 117.9 120.5 122.7 123.7 125.1 126.4 128.9 129.9 129.1 128.9 127.6 124.5 122.9 119.9 117.3 115.2 114.4 113.8 114.4 113.7 116.6 123.2 128.8 133 139 143.6 146.6 148.2 147.9 146.5 145.1 144.1 142.3 140.3 138.6 135.3 129.5 127.1 124.7 121.6 118.9 116.6 114.6 113 110.7 110.3 109.8 110 108.7 106.5 104.9 102.8 103.9 105.4 105.8
142.2 137 134.7 132.7 131.7 131.3 131.2 130.5 129.3 127.7 126.8 125.2 123.4 125 127.7 129 128.5 130.5 135.6 140 145.1 144.9 144.9 149.5 150.6 151.1 151.8 150.7 149.9 150.7 149.7 145.7 139.2 134.9 132.5 130.6 129.3 127.8 128.4 126.9 126.1 125.3 125 124.1 123.5 123.4 123.4 122.7 121.2 119.4 117.8 116 114.2 112.8 112.5 113.3 115.6 117 118.1 119.9 119.8 120.4 121.1 121.4 122.6 123.9 126 126.3 126.6 126.5 125.9 125.8 125.1 124.7 122 120.2 117.1 117.3 118.3 120.2 121.8 121.6 119.7 117.1 109.9 112.3 112.2 113.2 113.8 113.9 114.2 113.4 113.3 113.1 114.3 116.1 117.6 118.6 119.4 117.7 115.9 115.7 115.7 113.5 109.2 109.1 110.8 108.3 108.4 111.8 114.9 117.1 120 123.5 128 128.5 128.5 128 127.2 127.2 128.6 130.5 131.8 133.1 133.2 132 130.4 128 126.3 124.8 123 121.7 120.5 119.8 122.5 125.1 125.3 123.3 121.7 122.6 122.7 121.6 119.9 119.2 118.5 120.8 123.3 125.4 127.5 127.9 128.6 130.2 130.4 129.8 129.4 127 122.6 120.2 118.2 116.5 115.6 116.2 117.1 117.9 115.9 118.4 124.9 129.9 136.5 139.9 144.3 147.3 147.1 147.3 147.4 143.5 141.9 139.6 137.9 137.2 134.5 130.7 126 123.4 121.9 119.1 118.2 116.7 114.3 112.2 112.3 112.4 111.5 109.3 106.7 104.2 103.7 103.5 105.7 106.4
143.3 139.3 137.4 135.4 133.9 132.5 131.6 130.3 129.5 128.7 127.3 125.7 124.4 123.7 124.7 126.4 127.5 126.6 131.4 135.1 137.3 139 145 147.6 149.2 150.6 151.9 153.2 152.1 150.2 148.5 144 139.1 135.6 134.4 131.5 130.8 131 131.3 129.6 127.8 126.4 125.8 124.8 123.7 123.3 123.5 122.9 121.7 119.8 117.9 116.1 114.2 113.2 113.3 114 114.7 115.5 116.7 118.2 118.5 119.4 120.2 121.8 122.7 124.9 126.2 126.1 125.8 126.3 125.8 125.9 124.8 123.5 120.3 118.1 118 120.6 121.9 122.5 122 120.4 119.6 117.3 115 112.6 112.5 114.7 114.5 114.5 114.4 114.4 114.6 114.6 115.9 117.8 119.7 121.1 121.3 119.7 117.2 114.8 113.3 110.9 109.3 112 112.4 110.1 108.2 108.5 110.9 113.8 117.7 120.4 123.2 125.4 124.8 123.9 125.8 129.2 131 132.2 132.8 133.3 133.2 131.7 130 129.2 128 126.5 123.9 122.3 121.3 122.1 125.9 128.4 127.3 124.5 122.7 123.5 123.5 122.4 121.3 120 120.2 123.2 125.3 128.8 131.4 132.4 131.7 130.5 127.3 125.7 123.7 121.4 119.4 118.8 119.4 118.7 118 119.5 121.2 122.2 119.3 118.9 126.7 133.8 140.1 142.5 143.7 145.8 145.1 146.2 143.5 141 139.4 138 136.8 134.9 134.3 131.7 126.8 124.6 123.6 122.1 121 119.4 116.6 115 114 113.5 112 109.7 107.3 103.5 106.2 105.8 107 106.7
144.7 140.9 139.3 138 137.4 135.6 133.7 131.4 129.5 128.8 128.2 128 126.1 124.4 123.7 125.3 127.6 131.2 131.5 133.8 138.3 138.3 142 145.9 149.4 150.2 150.9 151.8 150.8 149 145.9 141.3 138.5 137.8 136.4 135.5 134.4 135.3 134.8 131.8 128.9 126.4 124.8 123.9 122.3 122.7 122.4 122.2 122.2 120.1 118 115.4 113.5 113.6 113.9 114.9 115.3 114.6 115.3 115.9 117.4 118.3 119.2 121.6 123 125.2 125.5 125.4 125.4 127.3 126.7 126 125.5 124.4 119.8 119.7 121.3 123.8 124.4 124.3 123.5 122 121 117.4 114.9 113 113.4 115.8 115.5 115.4 115.7 116.2 117 116.6 117.5 119.6 121.1 122.1 122.1 121 118.8 116.8 113 108.7 109.9 114.9 114.5 112.4 110.4 109 108.7 109.4 113.4 117.5 118.8 119.2 120.9 123.9 127.3 129.5 131.2 132.8 133.3 133.1 133.2 132 131.6 131.3 130 128.2 126.8 125.3 122.8 124.3 129.1 131.2 128.2 125.2 123.4 123.4 124.1 124.6 124 121.9 123 125.8 128.8 131.9 135 135.3 133.4 128.9 124.3 123.2 122.8 122.6 120.7 120.5 121.4 120.9 120.9 122.8 125.3 125.8 124.7 122.1 126.5 135.9 141.8 143.3 143.9 143.6 142.5 141.6 140.3 139.2 137.7 136.5 133.8 132.2 129.8 126.1 125.9 124.9 126.2 125.8 124.4 121.8 118.7 118.3 117.3 115.9 112.8 110.9 108.6 104.1 107.1 107.9 108.5 109.7
147 144 142.6 142.5 141.3 140 137.4 134.5 132.5 131.5 129.7 129.7 129 127 123.9 124.8 128.3 131.9 133.8 136.4 139.7 143.5 145.3 145.9 148.1 149.5 150.5 150.8 149.8 148.4 144.7 142.7 143.4 141.2 139.2 138.2 138.5 139.9 137 133.3 130.1 126.4 125.2 123.7 123 121.4 120.9 121.3 121.6 119.4 116.2 114.3 113.8 113.9 115.3 115.2 116 115.4 115.9 116.5 117.1 117.9 118.5 119.8 122 124.7 124.3 124.1 124.5 126.1 128.8 126.9 125.7 126.4 123 123.6 125.2 126 125.7 126 124.9 123.1 120.2 117.9 116 113.3 113.5 116.1 116.7 116.2 116.9 118.3 119.4 119.4 120.2 122.3 123.6 123.8 123 121.6 120.2 118.2 114.7 109.3 112.6 118.1 117.8 115.3 112.7 111.8 110.8 109.4 110.6 113.7 116.2 119.9 123.2 125.8 127.5 128.8 130.7 132.3 133 132.8 133.3 132.6 132.8 133 132 130.1 130.4 127.8 126.1 127.9 133.2 131.6 127.9 125.9 124.5 125.5 125.8 126.4 125.5 122.9 124.1 129.3 131.5 135.9 139.2 136.8 132.4 126 127 127.4 127 125 122.1 123.9 123.8 123.3 121.6 123 126.2 129.2 130.1 126.5 125.8 134.6 141.9 143.3 142.8 142.1 141 140 138.8 138.8 135.9 133.3 132.3 131.9 131.8 130.8 129.6 130.3 130.2 129.6 125.7 122.2 122 121.1 119.4 116.1 113.6 110.6 109.1 104.8 108.4 109.5 110.4 113.7
149.6 148.7 147.4 146.7 145.9 144.7 141.2 139.2 136.7 135.1 133.8 132.2 130.2 127.6 125.8 124.4 125.8 130 134 137.2 142.3 146.9 148.5 148.6 148.8 150.3 151.9 151.8 150.2 148.6 147.1 147 148 145.3 143.4 143.7 143.5 142.6 141.9 136.8 131 128.8 128.2 126 123.4 121.6 120 119.2 119.1 117.7 114.9 113.8 114.2 115.7 116.8 116.9 116.8 116.6 116.7 117 117.3 118.3 118.7 119.7 120.5 121.1 122.5 123.3 123.9 127.2 128.7 127.8 128.2 128.2 127.8 127.1 127.5 128.3 127.4 126 124.5 122.1 120.5 118.2 114.5 114.5 115 115.5 117.3 117.3 119.4 120.8 121.6 122.3 124.1 126.2 126.3 125.7 124.1 122.4 121.5 119.4 116.3 109.8 114.1 119.8 121.3 118.9 115.2 114.3 113.5 111.9 110.1 111.8 115.2 118.5 122.7 126.1 126.6 128.1 129.4 131.8 132.4 133.1 133.2 133.5 134.1 135 135.8 134.6 135.1 131.2 130.1 132.4 134.2 131.8 128.9 127.9 127.3 127.7 128.1 127.1 126.7 127.4 125.2 130.7 134.1 139.4 140 134.8 128.9 129 130.9 131.3 130.3 126.3 124.5 126.8 125.5 124.4 123.5 124.6 127.8 133.8 137.3 131 124.6 133.3 141 141.4 140.9 140.7 139.6 138.9 138 136.8 136.6 136.2 135.8 135.3 134.6 133.8 132.3 132.4 131.6 130.1 127.1 124.7 123.7 121.7 119.1 115.1 114.9 113.5 110.8 106.5 109.6 111 113.3 116.2
152.5 152.1 150.7 150.2 148.9 147.4 145.1 142.5 140.3 138.3 135.2 131.1 129.5 128 125.3 124.4 125.9 128.6 132.7 137.4 142.6 146.7 148.1 148.8 149.7 151.9 153 155.1 154.3 152.7 150.1 149.7 150.2 146.6 147.5 148.9 148.1 147.3 143.5 138.5 133.6 131.6 130.8 128.7 125.1 123 120.9 118.8 116.4 115.2 114.2 114.2 114.6 116 117.6 118.2 117.9 118.4 118.4 119.2 118.2 118.6 119 119 118.6 119.3 120.8 122.5 125.7 128.2 130.3 129.3 129.7 129.4 130.5 130.2 129.7 129.3 127.3 124.4 123.7 121.5 119.3 115.5 115.7 116 117.2 115.7 118.2 119.8 121.7 122.8 124.3 126.2 129.1 129.9 128.8 127.7 125.8 124.1 122.3 120.2 116.8 113.9 114.7 120.6 122.9 122.5 119.4 119 116.3 113.9 112 110.6 114.2 118.8 121.3 124.2 125.2 127.1 128.9 131.1 131.6 132.5 133.3 133.9 136.2 138.3 139.5 140.9 141.6 138.6 136.1 137.4 134.7 133.5 131.5 129.8 129.9 130.4 130.7 130.9 130.3 130.6 128.6 134.4 139.5 140.3 137.5 130.8 131.5 133.9 134.7 135.3 132.7 126.8 127.6 129 126.7 127 125.9 126.4 130.1 135.7 137.4 133.6 128.9 131.7 133.9 136.9 138.1 140 139.8 139.5 139.2 139.1 138.5 138 137.6 137.1 136.5 135.5 134.6 133.5 132.1 130.4 128.5 125.7 123.4 121.1 118.9 115.8 114.8 112.7 110.2 106.4 110.6 114 117 118
153.5 153.3 152.6 152 151.5 149.4 146.5 142.8 140.7 137.6 133.7 129.8 128.9 127.7 125.6 125.3 126.7 130.1 132.8 136.1 140.5 143.9 145.7 147.5 149.4 152 155.8 159 158.3 155.5 152.8 151.1 151.2 150 149.9 149.5 149.5 147.7 144 139 134.7 131.9 130.4 129.6 127.3 125.3 123.1 119.7 115.6 114.7 114.9 115.5 116 117 118.1 118.7 119.2 120 120.5 120.2 120.9 120.4 119.8 121.1 121 120.4 119.7 123 126.8 129.5 131.4 131.1 131.1 132.8 132.9 132 132.3 129.8 127.3 124.4 123.8 121.1 118 116.9 118.2 119.4 118.7 116 120 121.8 123.8 125.6 128.7 132.2 133.8 133 130.7 128.5 126.3 124.6 122.3 119.2 116.7 113.1 115 122 124.4 125.8 123.6 120.6 118.6 116.8 114.7 112.6 111.7 114.2 117.8 121.1 123.4 124.8 127.6 129.4 131 131.7 132.7 134.5 138.5 141.5 143.2 146.3 147.4 145.5 142.8 140.2 137.6 135.1 134.8 131.7 132 132.7 133.8 134.2 134.4 133.5 133.5 138.9 142.3 139.5 132.7 134.1 137.2 138.2 137.5 136.8 132.6 127.8 132.1 132 129.8 129.1 128.4 128.6 133.2 136.5 136 134.5 132.8 136.4 138.4 139.3 139.8 140.4 140.9 141.1 141 140.7 140.3 139.8 139.3 138.8 138 136.7 135.9 134.7 132.8 131 130.3 127.6 123.9 119.6 116.7 113 110.6 109.3 106 109.9 114 118.1 121.2 121.4
153.5 153 152.6 152.3 151.5 149.4 145.8 142.7 138.8 135.5 131.2 128.9 127.5 127 125 127.1 129.5 131.6 134.8 138.1 139.8 141.7 143.6 145.3 147.9 151.9 156.6 159.7 158.9 155.7 154.3 153.4 152.1 150.3 149.3 149 149.1 148 144.3 139.2 133.3 128.2 127.5 127.8 125.9 121.6 121 118.1 115.1 114.8 114.7 116 117.3 118.2 118.8 118.9 119 119.5 120.4 121.8 122.8 122 122.5 123.2 122.8 122.2 121.6 123.9 127.5 130.3 133.6 134.4 133.6 134.8 134.3 132.6 132.2 130.2 129.5 127.2 125 120.5 118.7 119.4 121.2 120.3 121 116.3 122.1 124.3 126.6 129.8 133.4 135.9 135.7 133 130.7 128.6 126.5 123.7 121.5 117.4 114.3 115.7 118.6 123 126.2 127.1 124.7 121.6 120.2 118.3 116.4 114.8 113.2 112.8 116.1 117.7 118.5 121.7 124.9 126.9 130.4 130.5 132.2 135 136.9 140.8 145.6 148.3 149.5 148.6 144.8 141.6 139.9 138.7 136 133.4 135.1 134.7 136.6 137.9 138.4 134.8 138.3 142.6 141.1 135.7 135 139.3 138.9 140.7 141 138.8 131.9 131.3 135 134 133.3 132.1 132.5 132.7 134.5 138.2 139.7 139.8 136.5 140.1 140.3 142 142.3 142.6 142.3 142.1 141.7 141.2 140.7 140.3 140.5 139.4 138.7 137.5 136.2 135.7 133.7 131.6 129.2 123.7 120 114.4 110.9 108.7 110.2 109.9 110.7 113.5 117.6 121.6 124.9 122.8
152.3 152 152.1 150.7 149.6 147.2 143.5 139.4 135.6 132.1 129 127.9 127.6 126.8 125.5 131.4 134.2 136.5 138 140.3 141.9 143.6 144.5 146.3 148.9 153.2 157.5 158.7 157.4 155.3 154.1 152.6 151 148.8 148.7 148.5 148.8 148.3 143.2 137.1 131.4 125.2 124.3 124.4 123 119.5 116.6 115.4 114.9 114.5 115.5 116.8 118.1 118.2 119.1 119.6 120.7 121.3 122.6 123.2 123.4 124.2 124.4 124.4 124.2 123.7 124 125.5 128.5 132 135.9 137.1 136 134.7 133.9 132.9 131.4 131.2 129.9 128 123.8 122.7 121.7 122.5 122.9 123.1 121.5 118.3 122.7 125.6 129.5 133.9 136.1 136.3 135.1 131.9 129.3 127.6 125.9 123.9 121.4 117.7 115.7 119.1 120.2 122.9 126.7 127.6 126.1 124.8 122.8 120.5 118.5 117 115.4 112 116.6 119.2 121.1 122.6 123.5 123.1 124.9 127.4 130.5 133.9 136.4 140 144.7 147.1 150.1 149.9 147.2 144.3 143.1 141 135.9 138.9 138.2 137.1 139.4 141 141.6 139.7 143.1 143.2 138.5 136.3 139.1 141.1 142.5 143 143.3 138.1 131 134.4 137.6 137.7 137.4 135.9 137 136.6 138.8 141.7 144.8 142.1 142.2 144 143.5 144 144.3 143.1 143.1 142.3 141.2 141.5 140.1 137.6 132.4 133.3 130.3 133.2 133.7 133.7 130 126.2 122.3 118.7 114.5 111.8 114.9 113.6 114.2 114.5 114.7 117.2 119.8 124.3 125.4 125
149.7 148.1 149.3 148.2 146.8 143.8 139.8 135.9 132.3 129.2 129.6 130.3 129.7 126.4 127.2 132.9 137.1 139.2 142.1 143.3 144.6 145.5 146.3 147.1 149.2 152.6 156.3 156.5 155.3 154.1 152.5 151.2 150.1 148.6 148.4 147.6 147.7 146.7 141.9 135.9 129.1 122.9 121.8 120.9 119.8 115.4 114.5 114.9 114.2 115 116.3 117.5 118.9 119.4 120.4 121.4 122.5 123.5 123.1 123.4 124.4 125.3 125.8 125.6 125.5 125.8 127.5 129.5 131.5 134.7 138.5 139 137 135.1 134.5 134.1 132.9 131.7 130.4 128.3 125.6 125 124.7 125.5 126.2 125.6 123.7 120.5 123.3 127.5 132.6 135.5 136.4 135.2 133.6 130.8 128.1 125.7 124.1 122.6 120.6 117.6 119.8 122.4 123.2 124.6 127.3 128.1 127.7 127 125.3 123.2 120.9 119.3 117.1 113.2 116.3 120.4 124.3 126.3 126.9 127.5 128.7 129.1 130.5 133.6 137 141.3 145.1 146.6 149.6 150.5 149 147.7 145.9 141.7 140 142 142.3 142.1 142.6 143.9 144.8 144.9 145.6 141.8 138.6 140.7 143.8 144.3 147 147 145.8 138.4 134.4 138 140.5 140.9 140.6 139.1 141.5 140.9 145 145.8 146.5 144.6 146.3 145.9 145.6 145.2 145 144.2 142.6 140.8 134.3 131.2 130.6 127.5 127.6 126.7 126 126.1 127 125.9 124.7 120.7 116.8 114.1 116.3 118.7 121.4 119.5 119.1 118.8 119.3 121.8 123.6 125.8 126.1 124.4
150 148.2 144.5 143.8 142.8 141 137 132.5 129.2 130.8 131.2 131.7 130.4 126 127.2 134.4 139.7 142.6 145 146 147 147.5 147.1 147.6 148.7 151.1 153.2 153.3 153 151.7 150.8 149.5 148.6 146.2 147.3 146.6 142.4 141.2 138.1 131.6 126.6 122.6 121.4 119.8 116.9 115.8 115.4 115.5 115.2 114.7 115.7 117.7 118.5 119.6 121.5 123.6 124.2 124 123.8 124.4 125.2 126.4 127.2 127 127.2 128.1 130.3 131.9 133.8 137 139.5 139.9 137.8 136.5 137 136.1 133.6 132.1 130.6 127.3 126.7 126.5 128.1 128.6 129.4 128.3 124.8 121.9 125.6 130.5 134.3 136.1 136.3 135.1 133 130.5 127.2 124.6 122.6 120.3 119.5 118.2 120.8 123.5 125.4 126.3 128.3 129.3 129.3 128.4 126.9 125.4 123.5 121.8 118.9 115.2 115 120.5 123.9 127.7 129.6 130.7 131.2 132 133.7 136.1 139.7 143 146.1 148.5 150 149.9 149.5 148.9 145.8 142.6 144.9 146.5 147.4 147.5 147.7 147.7 147.6 148 146.3 141.5 142.3 143.7 146.7 147.8 149.5 149.1 146.9 136.6 138.4 142.6 146.2 146.4 144.9 144.3 146.9 146.2 147.9 147.2 147.5 147.5 147.3 147 146.5 145.9 143.9 140.3 134.4 130.2 126.1 123.3 123.3 123.3 120.6 120.6 120.6 120.2 120.1 120.2 118.2 116 116.9 119.1 123.1 126.2 126.5 124.7 123.9 123.8 123.7 122.9 123.3 124.5 125.5 125.3
151.8 150.9 147.2 143.4 141 139.2 136.8 132.7 131.4 132.1 133.2 133.8 130.7 127.5 129.1 135.5 141.7 145.4 146.8 147.4 147.4 147.6 147.8 148.6 148.7 149.4 150.9 151.3 150.5 149 147.9 148 146.1 144.4 144.5 146.1 144.7 140.8 136.1 130.9 125.2 124.2 121.5 119.1 116.5 116.2 115.8 115.8 115.7 115.2 115.4 117.2 118.6 120 122.1 124.3 124.4 124.4 124.3 125.6 126.2 127.7 129.1 128.7 128.9 130.2 131.6 132.7 134.4 137.8 140.1 139.9 139.3 138.5 137.7 136.5 133.7 131.5 130.3 128.3 126.3 128 129.9 131 130.8 129.5 126.6 125.5 128.8 133 135.3 136.1 135.9 134.9 133.2 130.7 126.9 124.3 122.2 121.1 120.7 120 122 124.6 126.1 127.7 129.1 130.9 131 129.9 128.2 126.4 124.5 122.6 120.9 117.5 115.8 119.1 124.1 128.2 130.4 132 133.8 134.8 136.4 139 142.8 146.7 148.5 149.4 149.2 149 149 148.5 148.9 150.4 151.7 152.7 154.7 154.2 152.1 151.5 150.8 148.4 143.8 145.5 146.2 147.9 149.2 150.5 151.2 150.3 146.8 139.3 143.6 148.1 149.4 149.6 148.4 148.6 149 148.8 148.7 148.5 148 147.6 147.5 146.5 145.5 140.2 136.3 131 126.6 126.4 127.4 128.5 127.8 128 128.6 127.1 125.7 123.3 118.6 120.4 121.2 121.3 124.8 126.6 128 128.2 127.8 126 125.9 126.2 124.9 125.2 125.1 125.2 125.2 125.2
