ncols 200
nrows 90
xllcorner 140000
yllcorner 671550
cellsize 50
173.1 175.9 182.3 184.4 185.7 190.3 194.3 189 182.8 179.5 181.7 183 182.1 187.7 198.3 203.4 209.7 215.3 217.5 218.4 210.7 211.6 207.7 203.5 191.8 177.6 173.1 166.4 159.1 161.3 153.8 158.3 151.2 138.2 119.7 111.9 93.5 77.7 65.7 57.7 47 38.2 29.5 19.7 -0.6 -0.6 -0.6 -0.6 -0.6 -0.6 -0.6 -0.6 -0.6 -0.6 -0.6 -0.6 -0.6 -0.6 -0.6 -0.6 -0.6 -0.6 -0.6 -0.6 -0.6 -0.6 -0.6 -0.6 -0.6 -0.6 -0.6 -0.6 -0.6 -0.6 -0.6 -0.6 -0.6 -0.6 -0.6 -0.6 -0.6 -0.6 -0.6 -0.6 -0.6 -0.6 -0.6 -0.6 -0.6 -0.6 -0.6 -0.6 -0.6 -0.6 -0.6 -0.6 -0.6 -0.6 -0.6 -0.6 -0.6 -0.6 -0.6 -0.6 -0.6 -0.6 -0.6 -0.6 -0.6 -0.6 -0.6 0.8 6.2 21.4 33.4 39.2 40.2 40.5 43.2 43 45.2 49.1 51.1 53.8 54.8 56.7 62.7 68.6 73.2 83.9 91.9 94.4 96.8 97.5 105.5 112.8 116.7 122.2 130.1 134.3 136 141.9 148.3 158.9 168 174.9 181.6 190.7 202.6 212.4 225.1 236.8 247.8 258.8 271.4 288.9 300.4 312 321.1 326 328.1 343.4 349.2 354.8 348.3 342.3 341.1 334 328.6 325.7 328.5 332 337.4 340.6 342.6 348.1 351.3 355.5 361.2 364.9 367.8 370 375.1 378.1 381.4 385.7 391.6 397.8 400.6 400.9 401.5 403.1 403.9 407.7 416.5 426.3 438.2 447.9 452.4 458.8
170.6 171.8 179 185 186 183.4 185.3 183.1 175.9 171 173.3 177.4 179.2 185.6 194.5 200.3 203.5 208.9 214.4 212.4 212.7 213.5 209.3 199.1 188.3 180.7 177 174.3 162 155.6 152.4 149 141.8 126.1 114.9 108.6 87.6 74.4 64.4 58 47.7 37.5 29.3 21.1 -0.6 -0.6 -0.6 -0.6 -0.6 -0.6 -0.6 -0.6 -0.6 -0.6 -0.6 -0.6 -0.6 -0.6 -0.6 -0.6 -0.6 -0.6 -0.6 -0.6 -0.6 -0.6 -0.6 -0.6 -0.6 -0.6 -0.6 -0.6 -0.6 -0.6 -0.6 -0.6 -0.6 -0.6 -0.6 -0.6 -0.6 -0.6 -0.6 -0.6 -0.6 -0.6 -0.6 -0.6 -0.6 -0.6 -0.6 -0.6 -0.6 -0.6 -0.6 -0.6 -0.6 -0.6 -0.6 -0.6 -0.6 -0.6 -0.6 -0.6 -0.6 -0.6 -0.6 -0.6 -0.6 -0.6 -0.6 0.8 11.2 28.8 34 39.9 41 41.6 44.4 48.5 39 48.4 52.2 54.7 57.2 58.8 66.3 68.5 73.8 83.5 91.8 96.1 98.6 103.5 105.8 115.4 120.7 124.4 130.7 136.3 134.9 138.5 150.9 160.3 168.9 174.9 178.8 190.2 202.4 214.9 228.3 240.6 252.1 263.5 275.6 287.4 299.2 311.8 322.2 327.7 326.9 338.3 348.3 356.6 348.1 342.4 340.2 335.4 331.8 328.3 329.9 334.5 339.8 341.8 346.6 352.3 357.4 362.5 365.6 368.9 373.2 377 380.9 385.3 387.7 388.4 390.4 394.8 395.8 394.6 397.8 398.1 401.7 406.8 414.8 424.8 438.2 449.4 452.9 461.1
170 170.2 172.8 181.1 188.2 182.1 176.1 175.2 170.2 167.8 170 174.5 179.1 184.7 189.3 194.4 197.8 202.2 203.8 205 209.4 205.9 205.3 197.7 188.5 183.7 177.3 178.6 165.3 155.7 152.9 147.1 134.9 121.7 110 101.4 89.3 73.3 64.6 55.7 45.3 37.6 27.5 19.6 4.6 -0.6 -0.6 -0.6 -0.6 -0.6 -0.6 -0.6 -0.6 -0.6 -0.6 -0.6 -0.6 -0.6 -0.6 -0.6 -0.6 -0.6 -0.6 -0.6 -0.6 -0.6 -0.6 -0.6 -0.6 -0.6 -0.6 -0.6 -0.6 -0.6 -0.6 -0.6 -0.6 -0.6 -0.6 -0.6 -0.6 -0.6 -0.6 -0.6 -0.6 -0.6 -0.6 -0.6 -0.6 -0.6 -0.6 -0.6 -0.6 -0.6 -0.6 -0.6 -0.6 -0.6 -0.6 -0.6 -0.6 -0.6 -0.6 -0.6 -0.6 -0.6 -0.6 -0.6 -0.6 -0.6 -0.6 3.9 18.8 29.2 35.4 38.2 42.4 43.8 46.8 51 50.5 49 53.3 56.4 58.2 60.7 66.3 70.2 76.2 84 91.2 96.8 100.9 104.6 110 118.4 122.3 126.2 131.1 136.1 135.5 138.7 145.9 161.2 165.3 175.6 185.7 193.4 204.1 217.5 232.5 246.4 259.6 271.2 281.6 288.3 296.5 307.2 319 328 330 338 350.5 354.8 349.2 344.5 341 337.3 335.3 330.2 332.7 336.9 340.1 341.5 348.7 355.2 362.1 365.8 369.7 372.6 377 382 388.4 391.8 393.2 393.7 395 395.7 394.4 394.4 394.4 394.4 397.5 406.9 417.7 425.2 435.9 447.3 450.6 458.6
170.4 169.8 169.1 173.2 180.8 176.1 171.1 168.8 165.5 163.9 165.7 170.7 174.2 181.1 185.4 189.6 192.5 195.9 198.7 200.9 199.7 202.4 192.7 190.4 185.7 182.1 175 178.5 168 153.8 149.1 142.7 134.4 121.7 109.4 96.9 85.5 75.8 63.3 54.8 42.2 38.2 29.2 20.5 10.1 -0.6 -0.6 -0.6 -0.6 -0.6 -0.6 -0.6 -0.6 -0.6 -0.6 -0.6 -0.6 -0.6 -0.6 -0.6 -0.6 -0.6 -0.6 -0.6 -0.6 -0.6 -0.6 -0.6 -0.6 -0.6 -0.6 -0.6 -0.6 -0.6 -0.6 -0.6 -0.6 -0.6 -0.6 -0.6 -0.6 -0.6 -0.6 -0.6 -0.6 -0.6 -0.6 -0.6 -0.6 -0.6 -0.6 -0.6 -0.6 -0.6 -0.6 -0.6 -0.6 -0.6 -0.6 -0.6 -0.6 -0.6 -0.6 -0.6 -0.6 -0.6 -0.6 -0.6 -0.6 -0.6 -0.6 5.9 26.2 29.9 37.6 39.4 42.2 46.3 47.8 51.8 52.2 47.9 52.3 57.3 59.9 62.8 65.9 70 76.4 84.3 91.1 96.3 101.8 106.6 112.4 120 123.7 129.5 130.1 132.4 143 148.2 153.7 160 170.3 180.9 188.1 198.2 205.4 219 233.8 251.4 265.2 276.3 284.7 289.7 295.5 299.7 310.4 324.7 332 340.7 353.3 353.2 349 346.7 343.2 338.3 334.5 331.7 334.6 339.3 338.9 344.7 350.7 358 364.1 368.5 373.2 376.6 381.3 386.7 391.9 395.7 397.9 397.4 398.7 399.5 394.4 394.4 394.4 394.4 397.8 408.3 415.3 422.4 434.6 444.9 449.1 455.7
167.7 169 168 169.2 170.9 167.8 167.1 166.6 163.7 161.1 159.8 162.8 166.7 171.1 177.5 183.3 186.6 191 195.2 199.1 194.7 194.1 186.2 183.5 182.9 180.7 173.3 174.6 169.3 155.1 149.9 139 131.7 121.9 106.6 96.7 80.8 73.4 63.7 54.6 42.8 37 27.7 21.7 7.7 -0.6 -0.6 -0.6 -0.6 -0.6 -0.6 -0.6 -0.6 -0.6 -0.6 -0.6 -0.6 -0.6 -0.6 -0.6 -0.6 -0.6 -0.6 -0.6 -0.6 -0.6 -0.6 -0.6 -0.6 -0.6 -0.6 -0.6 -0.6 -0.6 -0.6 -0.6 -0.6 -0.6 -0.6 -0.6 -0.6 -0.6 -0.6 -0.6 -0.6 -0.6 -0.6 -0.6 -0.6 -0.6 -0.6 -0.6 -0.6 -0.6 -0.6 -0.6 -0.6 -0.6 -0.6 -0.6 -0.6 -0.6 -0.6 -0.6 -0.6 -0.6 -0.6 -0.6 -0.6 -0.6 -0.6 16.9 29.7 34.6 39.8 41.2 44.1 47.8 50.1 52.2 53.2 54.4 50.5 57.9 60.8 64.5 67.3 71 77.4 85.9 91.9 97.1 103.1 108.8 114.2 121.4 124.7 126.4 132.5 136.7 144.8 150.3 155.5 163.6 174.2 182.7 190.3 200.6 205.3 220.6 235.4 253 268 279.1 287.8 291 297.3 297.4 307.4 321.8 334.6 343.6 353.3 351.8 347.8 346.3 340.8 335.9 332.4 331.8 334.3 335.7 340.3 346 354.2 361.7 366.9 372.7 377.2 381.2 386.5 391.9 396.8 398.9 401.4 401.1 401 402.1 395.7 394.4 394.4 394.4 397.4 407.4 414.3 423.2 432.8 443.3 448.2 454.7
171.9 170.1 168.4 166.3 165.6 161.1 161 160.1 161.4 161 154.7 152.8 159.8 162.6 167.2 173.9 176 184.5 187.5 190.9 190.1 185 179.7 175.4 178.7 175.1 167.8 167.6 169.7 155.8 147.4 134.4 129.3 123.8 105.9 94.1 83.3 75.5 61.9 51 42.5 38.5 33.3 21.3 3.5 -0.6 -0.6 -0.6 -0.6 -0.6 -0.6 -0.6 -0.6 -0.6 -0.6 -0.6 -0.6 -0.6 -0.6 -0.6 -0.6 -0.6 -0.6 -0.6 -0.6 -0.6 -0.6 -0.6 -0.6 -0.6 -0.6 -0.6 -0.6 -0.6 -0.6 -0.6 -0.6 -0.6 -0.6 -0.6 -0.6 -0.6 -0.6 -0.6 -0.6 -0.6 -0.6 -0.6 -0.6 -0.6 -0.6 -0.6 -0.6 -0.6 -0.6 -0.6 -0.6 -0.6 -0.6 -0.6 -0.6 -0.6 -0.6 -0.6 -0.6 -0.6 -0.6 -0.6 -0.6 1.1 3.9 23 29.2 37.3 41.1 43.7 46.6 48.4 50.4 52.3 54.1 55.5 55.7 54.3 61.5 65.6 69.5 72.3 78 86.7 93.7 98.4 105.4 111.4 115.3 119.2 121.2 130.2 136.5 142.5 147.9 152.5 158.2 166.9 174.2 183.9 193.1 201.8 211.1 221.7 234.7 252.8 269.4 279.8 288.2 292.2 302.2 296.8 305.5 318.9 335 343.9 351.2 347.4 346 341.6 336.7 332 327.6 329.6 332.3 335.3 340.9 345.8 357 365.3 369.8 376.1 382 385.8 391.5 396.2 400.5 402.3 403.7 405.3 403.4 403 395.7 394.4 394.4 394.4 399 408 414.9 425.4 433.6 441.9 448.3 454.7
180.6 176.2 173.9 167.6 164.6 162.8 157.8 153.7 154.1 153 146.8 145.1 148.6 155.4 159.4 162.9 165.5 170.2 180.9 182.7 184.3 181.4 173.9 170.7 167.2 167.1 164.4 159.3 166.1 155 139.6 131.3 126.5 118.7 103.4 91.1 85.6 75.5 61.6 52.2 43.8 41.2 34.3 21.8 -0.6 -0.6 -0.6 -0.6 -0.6 -0.6 -0.6 -0.6 -0.6 -0.6 -0.6 -0.6 -0.6 -0.6 -0.6 -0.6 -0.6 -0.6 -0.6 -0.6 -0.6 -0.6 -0.6 -0.6 -0.6 -0.6 -0.6 -0.6 -0.6 -0.6 -0.6 -0.6 -0.6 -0.6 -0.6 -0.6 -0.6 -0.6 -0.6 -0.6 -0.6 -0.6 -0.6 -0.6 -0.6 -0.6 -0.6 -0.6 -0.6 -0.6 -0.6 -0.6 -0.6 -0.6 -0.6 -0.6 -0.6 -0.6 -0.6 -0.6 -0.6 -0.6 -0.6 -0.6 -0.6 -0.6 7 23.3 29.7 37 41.5 44.7 47.4 49.1 50.6 52.5 54.3 56.2 61.1 58.1 56.6 65.7 70.5 73.2 77 88.2 95.2 99.9 107.5 113.2 117.8 121.5 125.9 127.7 137.5 146.1 150 150 160 168 175.6 183.1 193.8 203.7 212.8 225.8 236.9 250.5 269.4 278.4 286.8 290.6 298.7 297.2 306.3 315.8 331.9 341.8 343.3 339 341.7 336.6 332.6 328 324.4 325.1 331.5 335.3 340.9 347.3 357.7 366.6 373 379.5 386 390.5 395.5 399.9 402.7 404.3 406 406.6 407.5 403.1 395.9 394.4 394.4 397 400.6 406.5 415.3 425.7 432.9 440 448.3 454.9
184.4 184.4 175.6 171.3 167.2 166.3 162.1 155.9 149.8 144.5 140.6 136.9 139.4 144.7 149.5 154.9 155.8 158 162.2 170.4 175.6 173.7 170.4 167.1 165.1 159.8 162.6 155.2 153.3 145.7 131.2 126.9 121.1 115.3 99.6 91.9 85.8 75.9 61.1 51.8 45.1 42.1 33.4 20.2 -0.6 -0.6 -0.6 -0.6 -0.6 -0.6 -0.6 -0.6 -0.6 -0.6 -0.6 -0.6 -0.6 -0.6 -0.6 -0.6 -0.6 -0.6 -0.6 -0.6 -0.6 -0.6 -0.6 -0.6 -0.6 -0.6 -0.6 -0.6 -0.6 -0.6 -0.6 -0.6 -0.6 -0.6 -0.6 -0.6 -0.6 -0.6 -0.6 -0.6 -0.6 -0.6 -0.6 -0.6 -0.6 -0.6 -0.6 -0.6 -0.6 -0.6 -0.6 -0.6 -0.6 -0.6 -0.6 -0.6 -0.6 -0.6 -0.6 -0.6 -0.6 -0.6 -0.6 -0.6 -0.6 -0.6 9 23.6 28 37.7 41.3 44.6 47.5 49.8 50.8 53.6 54.9 58 63.2 61.2 56.3 63.8 68.7 74.1 78.4 84.5 95.1 101.4 108.3 115.9 119.3 123.4 127.7 130.4 138.1 147 151.9 152.1 160.3 168.9 176 183.3 193.8 205.6 215.5 229.3 238 246.1 268.5 277.1 279.8 284.5 292.8 293.4 303.5 313 324.8 334.8 337.4 332.6 334.8 330.9 329 324.7 322.8 325 331.3 336.5 341.9 348.9 358.6 366.5 374.5 383.9 390.2 396.2 399 402.9 406.9 407.2 408.1 408.4 408 402.5 397.7 394.4 399.2 402.2 408.7 408.6 416.7 426.5 437 446.9 451.4 462.9
188.1 188.1 187.1 174 170.2 169.1 165.2 160.2 149.3 143.1 136.9 133.6 131.2 133.4 141.8 144.1 147.3 149.6 153.1 154.7 162.1 159.5 159.2 159.3 159.5 155.8 158.7 153.3 147.6 142.2 126.2 113.8 113.4 105.8 94 91 82.7 71.3 59.4 53.9 46.5 41.4 33.5 11.2 -0.6 -0.6 -0.6 -0.6 -0.6 -0.6 -0.6 -0.6 -0.6 -0.6 -0.6 -0.6 -0.6 -0.6 -0.6 -0.6 -0.6 -0.6 -0.6 -0.6 -0.6 -0.6 -0.6 -0.6 -0.6 -0.6 -0.6 -0.6 -0.6 -0.6 -0.6 -0.6 -0.6 -0.6 -0.6 -0.6 -0.6 -0.6 -0.6 -0.6 -0.6 -0.6 -0.6 -0.6 -0.6 -0.6 -0.6 -0.6 -0.6 -0.6 -0.6 -0.6 -0.6 -0.6 -0.6 -0.6 -0.6 -0.6 -0.6 -0.6 -0.6 -0.6 -0.6 -0.6 -0.6 -0.6 8.4 25.9 29.2 39.6 41.3 44.5 48.4 50.5 51.1 54.6 56.7 59.9 64.1 67.2 66.3 62.9 69.4 74 78 85.4 95.2 103.5 105.3 114.8 120 124.3 128.8 131.9 141.4 147.9 154.1 155.5 161.2 168.8 175.1 185.1 195.7 206.6 218.3 228.3 237.9 245.7 259.4 273.8 276.3 278.5 285.7 287.2 295 308.1 318.2 324.9 330.1 325.1 324.2 323.3 317.1 321.5 321.3 324.5 331.8 337.1 342.7 350.3 358.6 366.9 376.5 385.8 395.2 401.8 404.4 408.3 412.3 412.7 411.9 411.6 408.3 403.8 402 403.3 409 414 412.7 417.1 419.8 430.1 441 452.5 457.6 468.9
199.8 189.7 191.8 185.2 167.8 164.3 164.7 158.3 151.3 145.9 141 134.3 130.5 125.9 128.9 133 136.7 142.2 145.9 148 145.8 143.9 142.6 143.4 150.3 150.8 147.6 143.1 139.7 135.4 129 106.5 100.9 96.8 92.5 88.7 80.7 66.2 59.7 54.5 51.1 42.4 29.6 5.2 -0.6 -0.6 -0.6 -0.6 -0.6 -0.6 -0.6 -0.6 -0.6 -0.6 -0.6 -0.6 -0.6 -0.6 -0.6 -0.6 -0.6 -0.6 -0.6 -0.6 -0.6 -0.6 -0.6 -0.6 -0.6 -0.6 -0.6 -0.6 -0.6 -0.6 -0.6 -0.6 -0.6 -0.6 -0.6 -0.6 -0.6 -0.6 -0.6 -0.6 -0.6 -0.6 -0.6 -0.6 -0.6 -0.6 -0.6 -0.6 -0.6 -0.6 -0.6 -0.6 -0.6 -0.6 -0.6 -0.6 -0.6 -0.6 -0.6 -0.6 -0.6 -0.6 -0.6 -0.6 -0.6 2.3 13.6 26.5 34.5 41.8 43.5 45.4 48.7 50.8 52.1 56.2 59.8 63.2 67 69.9 70.8 70.9 71.1 69.9 77.1 83.1 93.8 100.8 105.8 112.7 117 121.9 130.8 134.9 141.3 146.4 152.9 156.9 159.1 170.4 177.5 186.9 197.6 208.3 216.4 227.1 236.9 243.4 252.4 266 271.9 271.6 276.5 279.9 285.7 300.9 313.1 319.3 320.7 314.5 315 313.5 312 314.1 320.6 325.1 332.9 337.7 343.6 350.9 359.5 367.3 376.5 386.6 397.3 405.4 409.2 413.2 416.9 418.2 416.4 413.2 412.3 409.2 409.2 415.9 421.5 426.5 427.3 426.7 430.3 439.9 447.1 459.2 465.6 479.1
212.6 202.5 191.7 186.9 173.2 157.8 160.6 159.6 152.4 144.1 140.7 137.3 133.4 129 125.4 124.6 127.6 130.8 136.1 139.3 138.3 135.8 132.4 131.7 138.6 140.9 139.8 138.4 132.6 123.8 121.6 101.7 93.4 91.8 89.1 85.7 75.4 66.8 61.3 59.5 51.1 40.9 29 -0.6 -0.6 -0.6 -0.6 -0.6 -0.6 -0.6 -0.6 -0.6 -0.6 -0.6 -0.6 -0.6 -0.6 -0.6 -0.6 -0.6 -0.6 -0.6 -0.6 -0.6 -0.6 -0.6 -0.6 -0.6 -0.6 -0.6 -0.6 -0.6 -0.6 -0.6 -0.6 -0.6 -0.6 -0.6 -0.6 -0.6 -0.6 -0.6 -0.6 -0.6 -0.6 -0.6 -0.6 -0.6 -0.6 -0.6 -0.6 -0.6 -0.6 -0.6 -0.6 -0.6 -0.6 -0.6 -0.6 -0.6 -0.6 -0.6 -0.6 -0.6 -0.6 -0.6 -0.6 -0.6 0.9 6.3 17.6 26.5 38.9 43 44.7 46.9 50.5 52.1 54.8 58.8 61.7 65 71.6 73.9 75.1 69.1 75.9 76.6 80.5 87.7 92.1 104.2 111.9 115.9 116.9 119.3 129 138.1 141.6 144.4 151.2 156.3 159.7 168.5 177.4 187.5 197.9 208.6 214.8 225.8 236.4 241.1 247.2 257 265.8 265.4 269.2 274 279.1 295.1 305.7 312.8 311.9 308.3 307 308.3 311.1 310.8 317.6 326.2 333.3 338.5 346.3 351.2 358.6 367.9 376.3 386.3 397.5 406.4 412.6 416.6 419.9 421.7 421.3 418.3 414.7 415.9 419.5 424.6 436.8 442.3 445.2 448.4 447.9 452.2 460.9 471.7 483.9 498.9
218.6 214.7 200.4 189.4 178.3 163.5 151.4 150.1 147.3 144.6 140.9 140.5 137.4 132.5 128.2 120.9 120.8 123.1 125.2 126.8 127.2 129.7 126.3 124.2 123 127.5 126.4 131.4 127.4 119.6 116 99.2 89.7 86.4 85.5 81.5 74.3 68.2 64.2 60.5 51.6 43.8 28.1 -0.6 -0.6 -0.6 -0.6 -0.6 -0.6 -0.6 -0.6 -0.6 -0.6 -0.6 -0.6 -0.6 -0.6 -0.6 -0.6 -0.6 -0.6 -0.6 -0.6 -0.6 -0.6 -0.6 -0.6 -0.6 -0.6 -0.6 -0.6 -0.6 -0.6 -0.6 -0.6 -0.6 -0.6 -0.6 -0.6 -0.6 -0.6 -0.6 -0.6 -0.6 -0.6 -0.6 -0.6 -0.6 -0.6 -0.6 -0.6 -0.6 -0.6 -0.6 -0.6 -0.6 -0.6 -0.6 -0.6 -0.6 -0.6 -0.6 -0.6 -0.6 -0.6 -0.6 0.4 1 2.4 10.2 26.7 28.4 37.3 40.6 44.1 46.6 50.4 53.6 56 59.4 62.4 67.4 73.2 76.4 78.3 74 77.5 79.8 82.3 88.7 97 106.9 113.2 118.7 122.8 125.8 125.1 130.3 140.8 144.6 149.9 156.7 159.9 166.3 176.4 187.4 198.3 207.4 214.6 222.1 234.2 240.2 244.5 252.6 259.6 263 262.4 271.9 275.8 287.3 298.4 306.5 305.3 303.8 301.7 301.9 306.9 310 315.6 324.7 331.6 339.1 343.7 354.5 360.2 368.5 377.9 386 396.9 404.5 413.1 419.1 422.3 424.3 425.4 424.2 422.1 425.3 429.9 439 453.5 466.1 471.5 474.7 479 481.9 490.5 498 515.6 524.4
221.1 218 206 193.1 180.3 169.6 157.1 151.1 148.4 146.8 144.2 145 141.8 137.8 132.1 125.6 118.4 115.1 117.3 119.4 119.3 118.3 122.7 118.8 116.9 114.5 117.1 122.2 121.3 116 108.9 96.2 86.6 83.2 79.6 78.4 72.6 69.2 65.3 60 52.7 42.9 26.7 -0.6 -0.6 -0.6 -0.6 -0.6 -0.6 -0.6 -0.6 -0.6 -0.6 -0.6 -0.6 -0.6 -0.6 -0.6 -0.6 -0.6 -0.6 -0.6 -0.6 -0.6 -0.6 -0.6 -0.6 -0.6 -0.6 -0.6 -0.6 -0.6 -0.6 -0.6 -0.6 -0.6 -0.6 -0.6 -0.6 -0.6 -0.6 -0.6 -0.6 -0.6 -0.6 -0.6 -0.6 -0.6 -0.6 -0.6 -0.6 -0.6 -0.6 -0.6 -0.6 -0.6 -0.6 -0.6 -0.6 -0.6 -0.6 -0.6 -0.6 -0.6 5.4 2.2 5 9 10 21.4 27.8 32.8 40.8 41.6 44.6 46.9 51.7 56.3 58.6 60.7 64.3 69.2 73.9 78.8 79.8 78.8 76.5 81.1 84.7 88.3 98.5 109.1 114.8 121 126.7 131.8 136.3 139.5 140.9 136.9 150.1 156.4 157.5 165.1 173.4 185.8 196.6 205.6 212.8 220.6 230.3 237.4 243 249 255.9 259.9 257.4 266.7 271.9 281.7 291.6 298.4 301.4 297.2 294.9 302 307.7 307.1 313.4 323.8 333 340.9 341.9 353 361.7 370.6 379.1 385.7 394.4 401.9 413.1 420.3 424.8 427.4 430 430.1 432.5 435.6 445.3 459.5 473.8 486.6 500.1 509 517.5 522 524.8 538.7 549.2 564.5
223.6 222 206.6 194.2 179.1 172 165.3 156.1 150.8 148.3 148.1 147.9 146.4 142.7 138.9 132.6 124.5 116.6 110.8 112.3 112.6 111.8 114.5 112.9 109.7 108.7 109.5 111.7 114.4 111.6 102.8 93.4 85.4 79.4 76.8 75.9 72 68 64.4 61.1 54.1 42.3 20.7 -0.6 -0.6 -0.6 -0.6 -0.6 -0.6 -0.6 -0.6 -0.6 -0.6 -0.6 -0.6 -0.6 -0.6 -0.6 -0.6 -0.6 -0.6 -0.6 -0.6 -0.6 -0.6 -0.6 -0.6 -0.6 -0.6 -0.6 -0.6 -0.6 -0.6 -0.6 -0.6 -0.6 -0.6 -0.6 -0.6 -0.6 -0.6 -0.6 -0.6 -0.6 -0.6 -0.6 -0.6 -0.6 -0.6 -0.6 -0.6 -0.6 -0.6 -0.6 -0.6 -0.6 -0.6 -0.6 -0.6 -0.6 -0.6 -0.6 -0.6 -0.6 1.1 8.9 11.7 19.6 24.5 19.5 24.4 31.6 42.3 43.6 46.2 50.1 53.2 55.5 58.7 61.6 65.3 71.3 75.5 80.6 81.8 81 77.4 83.5 89.7 92.5 101.9 111.3 116.9 123.2 128.9 136.2 141.8 144.4 146 146.3 145.3 145 156.7 163.1 169.9 182.1 195.4 203.8 211.4 219.6 227.2 234.3 240.3 246.5 249.8 253.2 256.1 260.7 270 276.5 285.5 293 293.5 290.9 290.4 297.4 305.6 306.5 314.7 323.1 328.6 338.3 340.8 352.7 360.2 368.2 378.2 384.6 393.3 401.2 413.6 424.3 427 430.1 433.9 437.9 443.4 447.3 464.9 483.4 498.9 514.2 526.7 539.3 548.5 557.1 565.4 576.8 591.6 597
226 218.4 209.5 198.1 184.9 178.9 171.7 167.3 156.4 150.8 151.2 152.3 152.2 148.8 143.6 136.6 131.4 125.2 116.8 110.9 101.9 106.1 103.8 107.8 103.8 102.8 104.1 105.4 104.5 107 101.5 92.2 84.1 74.6 73.9 73.2 71.1 67.6 63.2 62.6 54.4 35 7.5 -0.6 -0.6 -0.6 -0.6 -0.6 -0.6 -0.6 -0.6 -0.6 -0.6 -0.6 -0.6 -0.6 -0.6 -0.6 -0.6 -0.6 -0.6 -0.6 -0.6 -0.6 -0.6 -0.6 -0.6 -0.6 -0.6 -0.6 -0.6 -0.6 -0.6 -0.6 -0.6 -0.6 -0.6 -0.6 -0.6 -0.6 -0.6 -0.6 -0.6 -0.6 -0.6 -0.6 -0.6 -0.6 -0.6 -0.6 -0.6 -0.6 -0.6 -0.6 -0.6 -0.6 -0.6 -0.6 -0.6 -0.6 -0.6 -0.6 -0.6 1.1 4.6 20.9 26.2 26.5 27.9 28.7 28.2 27.7 40.5 43.8 48.7 52 55.2 58.1 61.1 62.8 66 73.3 78 82.8 85.3 85.1 80.9 85.8 92.9 97.4 101.2 110.3 117.7 124.8 132.1 140.3 145.3 148.4 150 150.7 152 148 154 158.4 165.9 178.8 193.5 202.6 207.9 216.6 222.3 229.3 238.1 242.3 250.5 254.7 253.4 256.6 267.5 275.4 280.1 284.2 283.1 281.3 284.7 293.4 300.9 308.4 313 319.8 327.9 334.1 341.5 351.3 357.1 366.2 375.1 384.1 394.1 403.5 413.1 425.8 429 432.8 440.4 447.1 455.1 463.3 484 503.3 525 541.7 552.4 563.8 578.3 590.9 611.8 616.6 623.8 632.4
227.7 215.1 205.9 199.3 192 186.4 177.8 172.1 165.4 159.1 154.5 156.7 156.1 154.5 147.6 145.2 137.9 131.2 123.8 112.1 104.5 99.3 98.3 97.4 96.7 99.8 98.9 99.7 98.4 101.1 93.9 89.9 84.2 73.8 69.6 71 69 64.3 59.4 58.7 45.7 27.2 -0.6 -0.6 -0.6 -0.6 -0.6 -0.6 -0.6 -0.6 -0.6 -0.6 -0.6 -0.6 -0.6 -0.6 -0.6 -0.6 -0.6 -0.6 -0.6 -0.6 -0.6 -0.6 -0.6 -0.6 -0.6 -0.6 -0.6 -0.6 -0.6 -0.6 -0.6 -0.6 -0.6 -0.6 -0.6 -0.6 -0.6 -0.6 -0.6 -0.6 -0.6 -0.6 -0.6 -0.6 -0.6 -0.6 -0.6 -0.6 -0.6 -0.6 -0.6 -0.6 -0.6 -0.6 -0.6 -0.6 -0.6 -0.6 -0.6 -0.6 -0.6 2.5 12.3 24.2 27.3 27.7 29.4 31.4 32.1 33.4 32.4 44.5 49 52.5 55.4 58.8 63.1 67.4 70.4 75.3 79.1 83.3 86.1 87.3 89.1 86.9 94.8 100 104.1 108.8 115.3 126.5 134.9 143 148.7 150.9 153 154.3 155.5 154.6 153 162.4 168 181.8 193.1 200.4 201.1 211.7 216.1 224.5 230.7 241.2 247.3 250.8 252.6 253.9 260 272.1 278.6 275.7 271.8 275.4 285.5 291.8 301 308.5 313.2 317.5 325.5 334.2 339.9 346.4 353.4 363 374.1 383.1 394.2 405.7 414.5 422.5 433.1 438.9 448 455.5 464 479.8 505.8 527.6 547.5 564.6 580.2 593.3 605.8 628.4 655.8 665.1 675.8 685.2
219.6 205.2 201.6 200.1 197.5 196.5 188.8 174.4 172.5 171.1 164.6 158.8 159.9 157 153.1 150.7 141.9 135.8 127.3 117.6 108.9 103.1 97.8 90.2 89 91.3 95.6 91.7 90.8 93.5 88.6 85.4 83.7 75.3 68.1 67.7 66.4 60.3 55.5 50.4 36.9 22.3 -0.6 -0.6 -0.6 -0.6 -0.6 -0.6 -0.6 -0.6 -0.6 -0.6 -0.6 -0.6 -0.6 -0.6 -0.6 -0.6 -0.6 -0.6 -0.6 -0.6 -0.6 -0.6 -0.6 -0.6 -0.6 -0.6 -0.6 -0.6 -0.6 -0.6 -0.6 -0.6 -0.6 -0.6 -0.6 -0.6 -0.6 -0.6 -0.6 -0.6 -0.6 -0.6 -0.6 -0.6 -0.6 -0.6 -0.6 -0.6 -0.6 -0.6 -0.6 -0.6 -0.6 -0.6 -0.6 -0.6 -0.6 0.1 -0.6 -0.6 -0.6 2.1 14.8 28.1 29.4 30.4 31.4 33.8 39.1 40.7 35 43.2 48.8 52.8 55.3 60 64.2 68.2 72.8 77.6 82.5 83.3 87.5 90.4 92.6 87.9 96.7 102.5 107.2 110.2 115.2 126.6 137 144.3 150 154.5 157.1 157.7 158.2 157.7 156.7 163.8 170.9 182.1 191.8 197.6 200.8 208.9 216.8 227.5 235.3 238.8 242.9 250.3 253.3 253.8 257.7 268.4 275.1 272.2 268.1 270.3 277.8 287.6 295.1 308.3 316.4 319.4 327.8 333.5 339.4 347 351.8 365 374 382.1 393.2 405.4 415.2 421.1 433.8 445.6 455 461.1 470.8 491.1 523.9 553.4 575.2 584.4 603.3 620.1 645.2 659 678 709.4 726.1 724.2
208.5 203.6 201.5 203.5 201.6 200.1 193 184.2 178.7 178.2 176.1 166.9 164 162.7 158.3 153.8 144.1 138.7 127.5 118.4 111.6 105 99.1 89.9 84.3 84.6 90.6 86.3 83.6 87.2 83.9 82.3 81.1 77.3 66 63.3 61.9 56.3 52 45.9 33.3 -0.6 -0.6 -0.6 -0.6 -0.6 -0.6 -0.6 -0.6 -0.6 -0.6 -0.6 -0.6 -0.6 -0.6 -0.6 -0.6 -0.6 -0.6 -0.6 -0.6 -0.6 -0.6 -0.6 -0.6 -0.6 -0.6 -0.6 -0.6 -0.6 -0.6 -0.6 -0.6 -0.6 -0.6 -0.6 -0.6 -0.6 -0.6 -0.6 -0.6 -0.6 -0.6 -0.6 -0.6 -0.6 -0.6 -0.6 -0.6 -0.6 -0.6 -0.6 -0.6 -0.6 -0.6 -0.6 -0.6 -0.6 0.4 0.8 1.1 2.3 3.6 8.3 28.8 29.7 31.6 31.9 32.2 38 41.1 42.8 44.7 43.8 46 53.8 58.2 61.6 65.6 71.4 75.4 80.7 85.2 87.7 89 91.4 94.3 95.4 95.7 105.9 109.4 113.6 117.5 127.1 138.3 145.7 152.3 157.4 159.8 161 162.2 162.8 162.3 163.3 174.4 180.3 188.6 194.8 199.5 201 214.8 223.7 230.3 236 242 247.6 248.9 253.8 256.6 263.2 269.8 267.1 265.8 269.4 274.6 283.6 292.6 306.2 318.3 321.4 329.1 331.7 340.5 345.4 353.7 363.2 372.6 380.3 390.8 401.3 407.6 420.8 432.7 446.6 462.6 468.5 481.5 504.5 535.2 571.4 595.8 611.6 627 643 667.1 689.3 702.9 728.9 758 762.6
198.5 197.9 198 199.6 204.2 203.2 198.9 194.7 191.8 188.2 181.1 176.6 170.5 168 164.1 156.4 147.4 135.4 126.3 118.6 112.6 105.6 97.7 89.1 83.2 76 84.3 80.6 77.6 80.8 77.6 78.3 75.8 76.7 65.4 55.9 54.3 50 47.9 41.1 28.3 -0.6 -0.6 -0.6 -0.6 -0.6 -0.6 -0.6 -0.6 -0.6 -0.6 -0.6 -0.6 -0.6 -0.6 -0.6 -0.6 -0.6 -0.6 -0.6 -0.6 -0.6 -0.6 -0.6 -0.6 -0.6 -0.6 -0.6 -0.6 -0.6 -0.6 -0.6 -0.6 -0.6 -0.6 -0.6 -0.6 -0.6 -0.6 -0.6 -0.6 -0.6 -0.6 -0.6 -0.6 -0.6 -0.6 -0.6 -0.6 -0.6 -0.6 -0.6 -0.6 -0.6 0.9 4.2 7.3 4.1 1.1 3.3 7.5 7.5 14.4 23.1 28.2 31 32.2 31.9 33.1 37.9 41.9 45.5 47.5 40.5 45.6 53.3 61.8 64.2 67.5 71.9 77.9 83.7 88 90.2 91.5 93 96.3 100.5 100.3 104.9 112.5 117.6 122.7 129.1 138.8 147.3 154.5 159.5 162 163.5 165.7 166.6 169.1 163.7 165.4 170.1 183.6 183.3 193.1 199.7 210.1 218.6 219 230.1 239.2 245.5 252.2 254.9 255 257.9 260.8 264.1 264.6 269.7 275.7 285.3 293.8 305.5 319.4 323.1 324.8 329.8 340.5 347.8 353.1 362.2 368.7 375.7 383.6 398.3 404.1 416.5 430.6 447.3 465.1 478.5 489.2 513.7 549.4 587.8 614.4 635.4 654 678 700 712.9 726.4 741.3 759.4 760.7
189.8 192 193.8 196.2 197.7 203.4 198.3 201.3 201.5 198.4 190.9 184.7 179.7 172.8 163 158.1 151.3 138.5 129.4 120 112.3 104.2 97 91 86 80.2 74 74.5 73.2 75.7 75.1 73.1 71 74.6 63.2 52.8 44.9 41.4 41.3 36.1 24.5 -0.6 -0.6 -0.6 -0.6 -0.6 -0.6 -0.6 -0.6 -0.6 -0.6 -0.6 -0.6 -0.6 -0.6 -0.6 -0.6 -0.6 -0.6 -0.6 -0.6 -0.6 -0.6 -0.6 -0.6 -0.6 -0.6 -0.6 -0.6 -0.6 -0.6 -0.6 -0.6 -0.6 -0.6 -0.6 -0.6 -0.6 -0.6 -0.6 -0.6 -0.6 -0.6 -0.6 -0.6 -0.6 -0.6 -0.6 -0.6 -0.6 -0.6 -0.6 -0.6 -0.6 -0.6 14.7 14.1 8.9 12.4 23.3 22.8 21.5 25.6 27.9 28 30.2 32.2 31.9 33.1 38.3 43.9 47 47.8 43.5 46.1 51.3 60.1 67.7 71.9 75.5 78.3 87.4 90.8 93.2 94.3 96.1 98.8 103.6 107.3 97.5 112.7 117.3 124 132.1 138.3 147.8 156.1 160.5 164.2 166.8 168.8 169.8 172.4 175.7 179.9 180.5 185.8 186.8 195.9 195.7 206.3 210.8 219.3 227 235.1 242 250.8 254.8 256.1 256.5 259.2 261.9 263.9 267.3 275.8 285.8 295.5 304.8 314.5 317.6 321.9 328.5 339.9 346 350.8 357.9 361.4 371.6 376.9 386.6 401.6 410.9 424.9 445.8 462.8 477.9 491.9 521.2 556.2 594.3 628.6 655.8 680.6 701.8 723.5 737.4 752.1 761.1 758.2 744.5
187.5 183.6 192.6 195.5 195.7 196.1 198.3 203.8 208.6 208 201.9 193.1 186.2 177.5 165.7 156 151 143.3 133.6 119.7 112.3 104.5 98.6 92.1 85 78 72.5 70.7 69.9 71.4 73.4 67.1 65.3 67.7 55.8 44.8 39.9 38.3 35.4 31 1.5 -0.6 -0.6 -0.6 -0.6 -0.6 -0.6 -0.6 -0.6 -0.6 -0.6 -0.6 -0.6 -0.6 -0.6 -0.6 -0.6 -0.6 -0.6 -0.6 -0.6 -0.6 -0.6 -0.6 -0.6 -0.6 -0.6 -0.6 -0.6 -0.6 -0.6 -0.6 -0.6 -0.6 -0.6 -0.6 -0.6 -0.6 -0.6 -0.6 -0.6 -0.6 -0.6 -0.6 -0.6 -0.6 -0.6 -0.6 -0.6 -0.6 -0.6 -0.6 -0.6 -0.6 0.7 6.2 23 23.6 24.2 23.7 23.6 22.6 25.8 28.2 30 30.6 31.7 32 35 38.5 45.9 48.6 48.8 42.8 46.1 49.9 63.4 69.9 74.4 79.7 84.8 89 92.6 95.5 97.8 100 101.8 106.3 110.6 113.5 109.3 116 124.7 133.1 140.3 145.7 154 160.6 166.3 168.7 171.7 173 176.6 179.4 184.6 189.1 192.8 195.6 199.7 204.5 208.7 214.7 221.3 224.7 234.3 241.3 246.7 252.5 256.1 256.2 255.9 259.2 262.9 267.5 281.2 286.5 299.9 304.1 307.7 316.2 319.8 331.9 337.1 346.3 347.2 349.1 352.6 362.3 372.6 381.9 394.7 404.4 417.3 436.8 450.5 469.8 492.3 521.7 558.4 599.9 634 670.6 702.1 723.8 742.7 759.1 768.6 772.2 748.5 725.4
184.6 172.5 183.3 192 196 197 199.2 205.5 211.2 215.2 208.9 204.5 194.5 181.7 173.3 163.6 152.8 140 133.6 125.3 114.1 104 98 91.8 84.4 78.7 74 68.1 64.9 67 70.6 64.4 62 60.9 50.8 41.7 38.6 35.5 30.4 26.2 -0.6 -0.6 -0.6 -0.6 -0.6 -0.6 -0.6 -0.6 -0.6 -0.6 -0.6 -0.6 -0.6 -0.6 -0.6 -0.6 -0.6 -0.6 -0.6 -0.6 -0.6 -0.6 -0.6 -0.6 -0.6 -0.6 -0.6 -0.6 -0.6 -0.6 -0.6 -0.6 -0.6 -0.6 -0.6 -0.6 -0.6 -0.6 -0.6 -0.6 -0.6 -0.6 -0.6 -0.6 -0.6 -0.6 -0.6 -0.6 -0.6 -0.6 -0.6 -0.6 0.2 0.7 4.5 8.9 24.3 24.5 24.3 24.6 24.3 24.7 27 28.8 30.5 31.2 31.5 32.9 37.8 41.9 46.9 49.2 48.8 44 47.1 51.7 59.5 70.7 75.2 81.3 87.2 91.3 93.7 98.3 101.1 102.1 104.9 107.7 113.1 117.5 120.6 120.1 114.4 135.9 137.1 145 148 161.4 166.7 168.5 171.8 174.6 179.8 184.2 188.8 193 196.1 201.3 204.5 209.1 213.8 217.1 221.2 229.1 238.3 244.8 246.9 250.8 253.6 254.4 255.1 258.4 259.4 267.2 278.3 290 297.9 302.9 306.7 314.2 318.2 329.9 332.1 336.4 338.7 341.4 345.3 349.7 370.9 379.6 387.1 397 405.9 424.5 438.3 465.8 487.7 517 551.2 588 622 655.1 697.8 726.8 751.8 777.1 780.6 759 731.2 705.5
173.8 166.3 177.4 182.5 191.5 198.3 201.7 206.3 210.3 216.1 218.9 215.1 203.3 190 178.5 170.7 161.1 143.4 130.5 125.5 113.7 104.4 95.2 88.5 84 78 72.7 68.7 64.9 61.9 65.4 60.5 57.4 56.6 45.5 38.7 36.7 33.8 26.6 18.2 5.1 -0.6 -0.6 -0.6 -0.6 -0.6 -0.6 -0.6 -0.6 -0.6 -0.6 -0.6 -0.6 -0.6 -0.6 -0.6 -0.6 -0.6 -0.6 -0.6 -0.6 -0.6 -0.6 -0.6 -0.6 -0.6 -0.6 -0.6 -0.6 -0.6 -0.6 -0.6 -0.6 -0.6 -0.6 -0.6 -0.6 -0.6 -0.6 -0.6 -0.6 -0.6 -0.6 -0.6 -0.6 -0.6 -0.6 -0.6 -0.6 -0.6 -0.6 -0.6 2.2 5.5 13.1 24.1 25.4 25.1 24.8 25.3 25.9 25.7 26.2 28.9 30.5 31.8 31.5 34.6 40.1 42.4 47.8 52.2 50.4 45.7 47.3 52 59.9 67.4 75.8 82.5 88.7 91.7 93.1 102.5 107.1 107.8 109 112.5 114.6 119.8 124.9 129.2 129.1 124.2 138.7 144.2 151.7 159.2 165.3 167.7 171.1 176.8 181.3 186.2 190.5 195.9 200 203.1 207.6 212.6 218 220.8 224.7 232.2 241.2 247.3 247.4 249.4 253.7 257.6 258.6 259 259.9 266.4 277.7 290.9 298.7 304.1 307.1 312 313.4 323.7 323.5 327.3 332.1 338.3 341.1 352.6 365.9 373.8 381.9 388.7 401 409.1 428.5 456.2 478.3 505 535.8 567.4 601.6 637.1 679.2 688.6 733.9 775.1 773.7 743.3 715.2 687.3
163.9 161.8 173.5 178.9 182.7 193.6 200.8 206.9 209.4 215 224.3 219.6 211.8 199.4 186.1 174.9 164.1 150.9 133.6 122.5 111.3 104.4 95.3 86.3 81.6 76.8 71.7 67.8 63.4 60.6 59.5 56.6 53.8 50.3 41.5 37.2 33.8 30.5 24.5 11.6 1 -0.6 -0.6 -0.6 -0.6 -0.6 -0.6 -0.6 -0.6 -0.6 -0.6 -0.6 -0.6 -0.6 -0.6 -0.6 -0.6 -0.6 -0.6 -0.6 -0.6 -0.6 -0.6 -0.6 -0.6 -0.6 -0.6 -0.6 -0.6 -0.6 -0.6 -0.6 -0.6 -0.6 -0.6 -0.6 -0.6 -0.6 -0.6 -0.6 -0.6 -0.6 -0.6 -0.6 -0.6 -0.6 -0.6 -0.6 -0.6 -0.6 -0.6 -0.6 1.1 10 24.5 24.6 25.2 25.7 26.2 26.3 27 28 28.7 29.4 31 32.4 34.2 36.2 41.7 45 49 54.6 51.7 46.5 48.8 51.5 60.2 67.2 76.7 84.3 89.8 95.1 95.6 102.9 111.3 113.7 115.3 116.9 117.7 123 128.4 134.4 138.1 140.9 138.9 142.4 150 156.7 158.9 163.4 170.4 177.2 183.5 188.5 192.8 197.1 202 205.4 210.5 216.7 222.2 224.7 228.3 235.6 243.4 250.7 249.6 250.8 254.3 257.5 258.9 258.4 259.5 265.1 278.6 289.8 301.9 306.7 308.3 309.3 316.5 316 316.5 317.9 323.9 327.1 340.3 348.3 358.9 369.5 372.8 382.2 390.8 400.9 413.1 442.3 465 488.1 514.9 544.4 575.7 609.4 652.2 673.6 730 731.4 761.2 730.4 700 672
161.2 162.3 168.7 175.4 182.4 185.5 197.1 206.3 208.3 215.1 219.3 217.7 211.1 199.5 190.9 177.7 163.9 148 137.9 121.4 108.5 99.2 91.4 81.9 81.8 77.4 70.7 65.6 63.2 60 58.1 53.7 50.8 48.1 39.5 34.9 32.2 23.2 19.3 7.5 3.4 -0.6 -0.6 -0.6 -0.6 -0.6 -0.6 -0.6 -0.6 -0.6 -0.6 -0.6 -0.6 -0.6 -0.6 -0.6 -0.6 -0.6 -0.6 -0.6 -0.6 -0.6 -0.6 -0.6 -0.6 -0.6 -0.6 -0.6 -0.6 -0.6 -0.6 -0.6 -0.6 -0.6 -0.6 -0.6 -0.6 -0.6 -0.6 -0.6 -0.6 -0.6 -0.6 -0.6 -0.6 -0.6 -0.6 -0.6 -0.6 -0.6 -0.6 -0.6 2.8 25 25.9 26 26.4 27.5 27.8 27.8 28.2 28.9 29.7 30.5 31.4 34.4 38.4 41.2 47.3 49.5 51.7 55 52.9 48.2 50.2 52.6 61.4 67.9 76.9 85.9 91.8 94.6 97 108.5 116.5 120.5 119.7 120.7 122.1 125.7 131.9 137.1 140.9 143.9 144.4 140.3 148.2 153.6 154.8 160.5 168.3 176.7 183.8 189.7 196.3 198.2 203.6 208 213.2 220.3 225.8 229.1 233.1 237.5 244.4 250.5 252.2 251 252.8 257.7 259.7 258.3 259.4 265.1 275.7 292 305.1 307.6 309.8 310 312.3 310.1 304.4 309.1 315.6 325.2 337.8 349 353.7 363.8 369.5 371.1 379.2 390.8 399.4 421.8 446.6 470.5 492.8 521.8 548.9 579.2 610.7 660.3 674.6 734.5 751.4 717.2 685 653.9
162.1 166.2 168 172.3 178 186.6 190.7 200.8 205.4 213 217.4 214.5 204.2 196.4 189.7 175.8 159.9 145.7 138.2 121.4 102.4 98.1 81 81.8 78.7 76.2 71.6 67.3 62.9 58.7 55.5 53.6 50.2 43.9 37.1 32.5 27.7 17.6 3.3 1.9 0.6 0.9 -0.6 -0.6 -0.6 -0.6 -0.6 -0.6 -0.6 -0.6 -0.6 -0.6 -0.6 -0.6 -0.6 -0.6 -0.6 -0.6 -0.6 -0.6 -0.6 -0.6 -0.6 -0.6 -0.6 -0.6 -0.6 -0.6 -0.6 -0.6 -0.6 -0.6 -0.6 -0.6 -0.6 -0.6 -0.6 -0.6 -0.6 -0.6 -0.6 -0.6 -0.6 -0.6 -0.6 -0.6 -0.6 -0.6 -0.6 -0.6 -0.6 -0.6 3.8 26.8 27.1 27.2 27.5 27.6 28.1 28.2 28.6 29.4 30.3 30.9 33.6 37.3 39.9 42.6 51.8 53 54.4 56 55.4 49 50.2 52.9 61.5 69.3 77.9 86.9 93.3 95.3 97.6 106 120.3 126.9 126.9 127.2 127.6 129.7 135.5 138.7 142.6 146 146.6 144 146.1 150.8 152.7 158.3 166.1 173.7 181.8 189.6 196.5 200.1 202.8 209.7 215.4 221.8 228.5 232.3 235.8 241.1 246.2 251.2 253.9 253.5 252.7 257.2 259.8 258.1 259 265.2 272.6 289.4 296.8 303.4 307.9 308.5 312.5 304.3 304.3 307.4 329.1 333.1 336.1 343.2 350.5 355.6 365.1 363 365.9 376.8 386.5 406.2 428.7 448.2 473.1 499.5 530.9 558.6 591.8 635.9 695.5 727.8 739.5 705.1 673.7 643.2
162 166.5 169.3 171.4 175.5 182.9 191.4 196.2 201 207.2 213.1 213.2 204.4 191.4 183.1 171.6 157.2 141 130.4 116 103.3 85 82.5 82.1 80.8 76.6 71.5 66.6 63.6 59.3 56.4 53.7 48.7 42.8 37.8 31.9 20.5 2.9 -0.6 -0.6 -0.6 -0.6 -0.6 -0.6 -0.6 -0.6 -0.6 -0.6 -0.6 -0.6 -0.6 -0.6 -0.6 -0.6 -0.6 -0.6 -0.6 -0.6 -0.6 -0.6 -0.6 -0.6 -0.6 -0.6 -0.6 -0.6 -0.6 -0.6 -0.6 -0.6 -0.6 -0.6 -0.6 -0.6 -0.6 -0.6 -0.6 -0.6 -0.6 -0.6 -0.6 -0.6 -0.6 -0.6 -0.6 -0.6 -0.6 -0.6 -0.6 -0.6 -0.6 -0.6 23.4 26.3 26.9 27 26.6 26.7 27.6 28.5 29.1 29.4 30.3 31.9 36.1 38.6 40.3 43.6 54.7 56.3 56.5 57.7 57.8 49.6 51.2 53.8 56.9 66.1 78.9 87.4 94.9 97 99.1 106.1 125.1 132.2 134.6 134.7 133.9 133.7 139 142.9 144.9 149.2 148.7 145.1 145 150.1 152 159.2 165.6 173.6 181.2 188.5 194.1 198.4 201.6 205.6 213.3 221.4 228.5 233.9 237.7 241.7 248.3 251.7 254.4 255.4 255.9 257.4 259.6 258 258.9 263.4 271.6 288.9 291.2 299.2 303.6 310.3 310.1 304.3 304.3 324.2 330.1 338 343.3 340.8 346.1 347 351.2 355.9 357.4 360.5 374.3 393.9 412.9 435 457.7 484.6 513.5 544.1 576 642.4 673 702.4 725.2 693.1 661.4 629.3
160.6 166.1 168.6 169 171.7 179.9 188.2 195.2 198 198.9 203.8 208.8 199.8 184.8 175.4 164.7 152.2 133.2 117.9 109.6 98.1 86 83 82.1 80.7 77.3 72.1 67.7 63.3 59.7 55.2 53.9 49.4 42.1 35.4 32.4 12.1 -0.6 -0.6 -0.6 -0.6 -0.6 -0.6 -0.6 -0.6 -0.6 -0.6 -0.6 -0.6 -0.6 -0.6 -0.6 -0.6 -0.6 -0.6 -0.6 -0.6 -0.6 -0.6 -0.6 -0.6 -0.6 -0.6 -0.6 -0.6 -0.6 -0.6 -0.6 -0.6 -0.6 -0.6 -0.6 -0.6 -0.6 -0.6 -0.6 -0.6 -0.6 -0.6 -0.6 -0.6 -0.6 -0.6 -0.6 -0.6 -0.6 -0.6 -0.6 -0.6 -0.6 -0.6 1 25.4 26.8 26.5 25.9 25.9 25.9 26.8 27.1 27.2 28.8 29.8 32.3 37.8 39.3 40.6 45.9 55.7 59.2 58.6 59.5 62.3 53.7 52.2 56 60.2 67.3 79 90 95.6 98.5 100.9 110.2 129.9 135.8 139.2 139.8 141.1 139 142.6 146.5 149.9 152.2 151.7 149.6 145 146.9 151.4 155.4 158.9 171.4 180.6 185.7 191.7 197.1 200.8 205.7 209 216.8 223.4 230.8 235.5 240.4 245.9 248.5 250.7 252 254.2 256.4 258.1 257.6 259.2 263 270.4 283.6 288.7 294.6 301.3 305.4 305.7 304.4 308.4 320.8 330.4 337.1 341.6 341.3 336.6 336.6 337.9 341.7 350.9 354.5 367.9 392.3 411.3 429.8 450.3 471.7 497.1 522 556 600 651.1 686.6 706.2 683.1 650.4 618.8
159.8 162.7 166 167 170.2 177.1 184.8 193.8 198.3 198.1 195.2 200.2 191.9 177.1 161.4 152.5 148.9 130.9 113.5 101.6 90.8 84.9 83.2 82.3 80.2 77.9 73.9 68.7 61.8 57.1 54.4 53.1 46.8 38.5 33.6 29.1 -0.6 -0.6 -0.6 -0.6 -0.6 -0.6 -0.6 -0.6 -0.6 -0.6 -0.6 -0.6 -0.6 -0.6 -0.6 -0.6 -0.6 -0.6 -0.6 -0.6 -0.6 -0.6 -0.6 -0.6 -0.6 -0.6 -0.6 -0.6 -0.6 -0.6 -0.6 -0.6 -0.6 -0.6 -0.6 -0.6 -0.6 -0.6 -0.6 -0.6 -0.6 -0.6 -0.6 -0.6 -0.6 -0.6 -0.6 -0.6 -0.6 -0.6 -0.6 -0.6 -0.6 -0.6 0.8 20.6 25 26.1 25.6 25.5 25.2 25.2 25.1 24.9 25.7 27.4 29.2 31.8 37.8 39.2 41.5 48.9 57.6 60.9 60.9 60.2 61.9 55.3 52.9 57 61.9 68.9 77.1 90.3 96.6 99.7 102.6 113.4 130.9 138.8 142.4 144.4 145.7 146.6 149.4 152 156.1 157.5 156.3 151.8 149.2 149.9 149.7 152.4 161 165.6 177.5 182.7 189.7 194.7 198.6 204 207.8 211.9 217.7 223.3 229.4 235.1 239.6 243.2 244.9 247.9 251.6 254.8 253.4 254.7 257.6 264.5 269.7 277.8 286.1 290.1 294.8 297.8 301.5 303.4 302.9 311.9 321.6 329.3 326.8 334.3 333.3 333.3 334.9 335.8 343.2 352.8 368.8 384.7 406 420 434.7 456.7 478.4 506.6 536.8 605 636.6 662.1 679.2 673 642.6 609.7
158.9 162.9 164.4 165 167.7 173.4 181.7 188 194.9 197.8 193.2 184.3 181 170.3 156 146.7 139.3 128.3 108.4 93.9 89.2 85.3 82.6 82 79.9 77.9 74.4 69.4 62.8 57.8 53.4 49.7 42.6 36.6 32 21.3 -0.6 -0.6 -0.6 -0.6 -0.6 -0.6 -0.6 -0.6 -0.6 -0.6 -0.6 -0.6 -0.6 -0.6 -0.6 -0.6 -0.6 -0.6 -0.6 -0.6 -0.6 -0.6 -0.6 -0.6 -0.6 -0.6 -0.6 -0.6 -0.6 -0.6 -0.6 -0.6 -0.6 -0.6 -0.6 -0.6 -0.6 -0.6 -0.6 -0.6 -0.6 -0.6 -0.6 -0.6 -0.6 -0.6 -0.6 -0.6 -0.6 -0.6 -0.6 -0.6 -0.6 -0.6 5.9 20.9 24.2 24.8 25.8 25.8 25.5 23.3 22 23.9 24.7 26.8 28.5 32.3 35.8 37.6 43.5 53.3 59.1 62.2 63.2 62.5 60.2 56.3 54 58.2 63.4 70.7 78.5 87.5 95.6 101.8 107.1 115.3 131.6 141 144.1 148 149.8 151.5 154.3 157.3 160.7 161.9 160.3 155.5 152.6 152.7 155.4 158.1 164.5 172.2 177.2 179.8 187 191.8 195.3 200.3 205.7 209.3 213.3 216.9 221.9 228.2 231.7 234.4 240.4 242.7 245.1 248.4 247.5 250.7 252.9 261.5 269.5 275.1 280.9 280.8 283.2 288.3 295.2 288.8 303 312.1 311.9 321.4 327.3 347.3 348.9 342.6 335.1 335.1 340.2 352.2 359.7 374.9 392.4 407.1 427.1 436.1 458.4 487 521.6 608.2 640.5 635.1 644.9 651.8 634.6 600.3
157.2 159.6 163.1 164.8 165.7 170.5 175.8 183.1 189 195.3 189.7 180.1 169.6 157.7 144.6 139.7 130.6 114.3 100.6 91.9 86.6 83.9 82.1 82 80.2 78.6 74.8 70.3 63.4 57.8 53.8 46.3 40.1 33.1 30.2 20.5 -0.6 -0.6 -0.6 -0.6 -0.6 -0.6 -0.6 -0.6 -0.6 -0.6 -0.6 -0.6 -0.6 -0.6 -0.6 -0.6 -0.6 -0.6 -0.6 -0.6 -0.6 -0.6 -0.6 -0.6 -0.6 -0.6 -0.6 -0.6 -0.6 -0.6 -0.6 -0.6 -0.6 -0.6 -0.6 -0.6 -0.6 -0.6 -0.6 -0.6 -0.6 -0.6 -0.6 -0.6 -0.6 -0.6 -0.6 -0.6 -0.6 -0.6 -0.6 -0.6 -0.6 -0.6 1 17.6 23.8 26.1 26.1 25.6 25.3 24.9 23.4 23 24.1 26 29.9 32.3 34.7 38 44.2 54.2 61.4 63.7 64.5 66.1 61.8 58 55.8 59.2 62.4 70 80.1 88.1 97.6 104.8 110.1 117.9 136 141.5 145.3 148.7 152.2 155.1 157.6 162 164.7 164.9 163.1 159.5 154.7 154.9 156.1 156 162.6 173 180.9 180.6 175 178 183.6 188.5 200.4 208.6 210.8 212.8 216.2 220.8 224.5 228.8 234.8 237 237.8 240.3 241.7 243.8 248.5 258.6 265.9 269.4 270.1 274.4 280.6 283.3 280.2 293.1 301.1 309.7 319.6 322.7 339.8 341.3 348.2 343.5 335.1 335.1 335.1 344.6 348.5 361.4 382.4 399.3 415.5 426 441.8 476 516.1 597 631.7 618.2 608.1 610.9 616.7 588.2
152.2 155.7 159.8 163.6 165.3 167.7 172.5 174.6 181 186.7 179.9 174.3 159.3 146.7 137.6 129.4 116.5 103 93 87.7 85.7 84 81.2 81 80.6 78.9 74.5 69.2 62 55.3 52.3 44.9 38.7 29 27.5 -0.6 -0.6 -0.6 -0.6 -0.6 -0.6 -0.6 -0.6 -0.6 -0.6 -0.6 -0.6 -0.6 -0.6 -0.6 -0.6 -0.6 -0.6 -0.6 -0.6 -0.6 -0.6 -0.6 -0.6 -0.6 -0.6 -0.6 -0.6 -0.6 -0.6 -0.6 -0.6 -0.6 -0.6 -0.6 -0.6 -0.6 -0.6 -0.6 -0.6 -0.6 -0.6 -0.6 -0.6 -0.6 -0.6 -0.6 -0.6 -0.6 -0.6 -0.6 -0.6 -0.6 -0.6 -0.6 3.7 16.4 25.3 27.2 26.7 25.5 25.2 24.9 23.2 20.7 23.3 27.6 31.3 33.5 35.7 40.3 47.7 58.7 66.2 66.2 66.5 67.9 64.3 58.8 56.6 59.5 62.3 68.2 79.8 89.2 98.5 106.5 111.8 117.5 131.1 138.1 142.4 148.6 153 157.9 160.2 166.1 168.1 168.3 167.6 163.7 158.7 159 159.5 157.6 163.4 173.3 182.3 185.4 188.5 190.9 194.2 199.8 203.2 201.6 203 204 207.8 211.1 215.9 223.6 229.3 232.3 233.2 234.8 235.8 238.2 241.7 250.9 259.7 263.1 261.3 268 269.3 282.7 287.8 289.3 294.1 306.1 317.2 332.6 344.5 346.2 344.7 342.3 337.7 335.1 335.1 338.4 341.9 356.4 376.3 391.2 404.5 418.1 434.6 462.7 527.3 557.8 588.7 589.9 574.1 575.9 575.1 570.1
140.8 145.3 147 156.6 165.8 163.4 166.1 167.5 168.6 177.2 167.7 159.2 149.3 137.3 126.8 113.4 103.3 92.8 88.4 84.5 84.6 82.7 81.1 79.8 79.9 77.3 73.7 67.8 60.5 52.8 47.6 41.9 36 27.2 22.2 -0.6 -0.6 -0.6 -0.6 -0.6 -0.6 -0.6 -0.6 -0.6 -0.6 -0.6 -0.6 -0.6 -0.6 -0.6 -0.6 -0.6 -0.6 -0.6 -0.6 -0.6 -0.6 -0.6 -0.6 -0.6 -0.6 -0.6 -0.6 -0.6 -0.6 -0.6 -0.6 -0.6 -0.6 -0.6 -0.6 -0.6 -0.6 -0.6 -0.6 -0.6 -0.6 -0.6 -0.6 -0.6 -0.6 -0.6 -0.6 -0.6 -0.6 -0.6 -0.6 -0.6 -0.6 4.2 9.9 21.9 26.5 27.6 27.2 26.6 25.3 24.5 23 21.5 22.4 27.7 32.8 34.9 37 43.3 49.6 58.7 68.9 70.1 68.7 70.3 67.3 60.9 58.1 60.8 65.9 68.8 77.8 90.9 99.5 108.2 113.3 118 125.4 134.6 140.9 146.9 154.2 158.6 162.5 167.3 171.4 171.5 171.4 168.2 163 162.7 162.7 159.1 166.7 176.6 184.4 187.6 189.5 192.9 195.3 200.5 204.9 209.8 208.8 208.7 212.7 216.2 220 223.5 228.5 224.8 227.5 233.8 235.3 236.5 241.3 245.5 249.6 252.2 252.3 260.9 270.6 280.4 287.5 292.1 298.9 309.5 314.8 337.5 345.2 359 346.3 340.6 337.6 335.1 335.1 335.1 337.3 353.5 367.5 381.3 388.8 410.3 425.3 455.5 494.7 557.2 563.3 565.8 553.2 542.3 535.9 538.6
134 135 136.9 142.7 152.1 156 159.5 158 157.7 156.4 153.7 144.3 134 127.9 118.3 102.6 89.7 86.9 84.4 82.1 83.8 82 80.5 78.5 76.9 74.8 73.3 69.8 59.2 48.9 43 37.6 33.2 24.8 19.8 -0.6 -0.6 -0.6 -0.6 -0.6 -0.6 -0.6 -0.6 -0.6 -0.6 -0.6 -0.6 -0.6 -0.6 -0.6 -0.6 -0.6 -0.6 -0.6 -0.6 -0.6 -0.6 -0.6 -0.6 -0.6 -0.6 -0.6 -0.6 -0.6 -0.6 -0.6 -0.6 -0.6 -0.6 -0.6 -0.6 -0.6 -0.6 -0.6 -0.6 -0.6 -0.6 -0.6 -0.6 -0.6 -0.6 -0.6 -0.6 -0.6 -0.6 -0.6 -0.6 -0.6 0.8 16.6 21.7 24.6 26.3 27.8 27.5 26.9 26.3 25.3 22.2 20.6 21.8 26.9 34.1 36.2 37.9 45.2 52.2 61.3 71.2 72.5 71.9 72.1 70.5 62.5 59.3 62.3 68.7 71.8 78 91.8 98.2 109.3 114 118.7 125.3 132.3 138.8 145.4 153.7 159 164.9 169.7 175.5 175 174.9 172 168.3 167.2 166 162 168.7 176.3 186.4 191.1 194.3 196.6 198.8 201.3 208.4 209.6 213 214.4 218.1 222.9 227.1 230.1 231.1 232.4 232 229.9 235 236.7 238.8 241.4 243.2 245.3 251.3 255.7 264 277.9 285.9 296.5 310.4 320.3 324.3 335.4 348.9 352.9 351.1 344.8 337.7 335.1 335.1 335.1 341.1 351.5 356.4 369.9 383.7 398.2 414 441.6 476 531.2 545.3 543.5 536.7 524.5 500.9 500.7
132.8 129.4 129.8 130 136.6 144.7 149.5 150 145.4 140.3 135.4 129.6 123.1 118.9 106.8 90.4 85.5 84.7 81.7 80.4 81.7 81.3 78.7 75.8 74.3 75.5 72.9 67.7 55 44.6 38.1 32 27.3 21.4 17 -0.6 -0.6 -0.6 -0.6 -0.6 -0.6 -0.6 -0.6 -0.6 -0.6 -0.6 -0.6 -0.6 -0.6 -0.6 -0.6 -0.6 -0.6 -0.6 -0.6 -0.6 -0.6 -0.6 -0.6 -0.6 -0.6 -0.6 -0.6 -0.6 -0.6 -0.6 -0.6 -0.6 -0.6 -0.6 -0.6 -0.6 -0.6 -0.6 -0.6 -0.6 -0.6 -0.6 -0.6 -0.6 -0.6 -0.6 -0.6 -0.6 -0.6 -0.6 -0.6 0.9 15.2 20.5 23.7 25.6 26.6 27.7 27.8 27.2 26.6 25.3 21.8 19.9 21.2 26.3 33.5 37.3 38.7 47 55 63.3 71.9 74.3 75.5 74.8 72.9 64 60.8 63.4 70.4 74.8 83.5 93.6 102.4 112.2 115.2 119.7 124.5 131.1 137.7 144.8 152.4 160.7 170.4 173.6 175.4 180.7 182 179.5 174.2 170.7 169 166.2 171.2 177.7 187.1 193.7 196 197.9 202.5 205.2 207.6 213.6 215.3 217.5 221.7 227.4 231.9 234.6 235.9 235.9 234.7 234 233 236 238.7 239.4 241.8 244.6 247.7 253.4 265 277.2 288.8 301.5 320.3 331.2 342.4 346.7 349.1 353.9 350.5 354.8 345.1 336.1 336 335.2 339.8 346.3 349.1 363.3 371.7 387.7 400.3 423 458.7 503.3 526.9 525.8 520.8 511.6 488.4 471.3
124 126.1 116.8 123.8 126 128.9 134.2 138 132.8 123.8 119.3 117.2 111.9 104.8 93.9 86.3 83 81 79.5 77.5 76.2 79.1 76.9 72.6 70.9 73.7 72.4 65.8 53.1 40.8 33.9 28.7 24.2 20.3 -0.6 -0.6 -0.6 -0.6 -0.6 -0.6 -0.6 -0.6 -0.6 -0.6 -0.6 -0.6 -0.6 -0.6 -0.6 -0.6 -0.6 -0.6 -0.6 -0.6 -0.6 -0.6 -0.6 -0.6 -0.6 -0.6 -0.6 -0.6 -0.6 -0.6 -0.6 -0.6 -0.6 -0.6 -0.6 -0.6 -0.6 -0.6 -0.6 -0.6 -0.6 -0.6 -0.6 -0.6 -0.6 -0.6 -0.6 -0.6 -0.6 -0.6 -0.6 -0.6 0.6 15.4 19.1 22.5 24.9 26.4 27.4 28.1 27.8 27.2 26.6 24.5 22.1 20.4 21.4 25.3 31.2 36.2 38.3 45.9 54.7 63.7 72.8 75.7 77.7 76.2 73.9 67.4 61.9 65.1 68.6 78.3 85.9 94.6 103.4 113.4 116.9 119.6 123.9 128.8 133.8 143.5 150.5 162 168.4 173.4 177 185.2 188.8 182.6 177.3 175.3 173.4 170.7 174.3 179.6 186.6 194.2 197.4 199.9 204.1 207.4 208.7 214 217.1 220.7 224.1 227.7 233.5 236.7 239.1 238.5 237.8 237.2 236.3 237.5 238.5 239.5 240.7 242.1 244.3 250.8 262.3 274.5 288.5 308.5 326.9 334.8 345.5 351.5 358.9 355.9 353.7 352.1 347.4 350.2 343.8 337.6 340.3 347.8 349.6 360.6 363.4 371.5 386.6 412.3 444.2 474.1 502.9 503.5 501 498.1 478.4 454.3
129.4 115.8 114.5 109.5 114.1 115 120.6 118.3 119.9 110.6 101.6 97.2 97.2 91.7 86.7 83.1 79 75.5 74.6 73.2 71 74 72.7 68.4 65.7 70.7 72.7 62 48.5 38 31.1 25.6 21.9 18.9 11.1 -0.6 -0.6 -0.6 -0.6 -0.6 -0.6 -0.6 -0.6 -0.6 -0.6 -0.6 -0.6 -0.6 -0.6 -0.6 -0.6 -0.6 -0.6 -0.6 -0.6 -0.6 -0.6 -0.6 -0.6 -0.6 -0.6 -0.6 -0.6 -0.6 -0.6 -0.6 -0.6 -0.6 -0.6 -0.6 -0.6 -0.6 -0.6 -0.6 -0.6 -0.6 -0.6 -0.6 -0.6 -0.6 -0.6 -0.6 -0.6 -0.6 -0.6 -0.6 4.4 20.7 21.5 22.6 25.9 27 27.7 28 28.3 27 24.8 23.3 21.2 19.7 22.2 25.3 29.7 33.5 38.3 46.2 58.8 66.2 72.8 76.4 78.3 77.4 76.9 72.3 63.6 67.5 74.5 78.5 85 95.3 105 112 116.8 120.1 123.5 127.3 131.9 141.1 149.9 159.4 164 172.9 179.1 188.1 194.2 185.7 179.5 178.8 177 175.8 175.4 179.8 186.2 193.5 199.1 202.2 204.1 207.3 207.4 211 219.7 224.8 227 231.2 233.6 237.4 239.7 240 240.3 242.1 243 242.5 240.1 239.5 239.3 239.9 245.6 250.8 257.8 274.2 298.7 320.9 331.4 338.5 347.4 357.3 365.5 365 358.4 352 349.9 353.1 351.1 341.6 354.2 355.3 354.6 356.4 356.4 363.4 372.3 403.5 429.9 443.6 466.6 469.8 463.6 467.4 458.5 437.6
127.2 119.3 105.7 103.4 104.4 106.3 109.3 106.9 99.8 97.3 93.1 87.5 84.9 82 80.1 79.5 76.1 70.5 67.7 67.7 67.6 65.3 65.7 63.2 62.4 65.5 66.8 53.8 41.1 32.8 27.3 23.9 21.2 18 9.4 -0.6 -0.6 -0.6 -0.6 -0.6 -0.6 -0.6 -0.6 -0.6 -0.6 -0.6 -0.6 -0.6 -0.6 -0.6 -0.6 -0.6 -0.6 -0.6 -0.6 -0.6 -0.6 -0.6 -0.6 -0.6 -0.6 -0.6 -0.6 -0.6 -0.6 -0.6 -0.6 -0.6 -0.6 -0.6 -0.6 -0.6 -0.6 -0.6 -0.6 -0.6 -0.6 -0.6 -0.6 -0.6 -0.6 -0.6 -0.6 -0.6 0.4 1 17 20.8 22.2 23.4 25.5 27.1 27.5 27.9 28.2 27 24.5 22 19.9 20.8 23.4 26.4 29.2 33 39 47.7 59.7 67.7 72.3 75.4 78.1 79 79.7 76.3 69.9 68.1 75.1 78.5 88.2 96.7 105.6 112.3 116.6 120.3 124.1 129.7 132.9 136.8 147.1 156.1 161.6 171.7 180.9 191 195.9 187.1 181.7 181.3 182.2 180.4 178.1 180.5 186.2 195 200.1 202.2 204.9 210.4 210.4 209.5 219.9 226.9 230.9 234.6 236.6 238.2 239.5 240.4 243 245.4 247.3 249.2 247.8 245.4 243.9 246.5 248.7 255.5 264.8 282 312.8 327.3 338.3 349 356.3 372.7 371.9 368.3 365.9 359.4 355.2 352.6 357.3 351.1 359.8 364.7 361.8 358.2 356.5 356.5 363 406 422.3 432.6 437.6 446.9 431.7 426.2 427.3 413.3
123.5 117.7 109.8 97.5 98 97.5 103.6 100.5 92.7 91.4 89.5 85.8 82.2 77.8 74.4 74.4 73.7 67.7 61 60.5 65.6 64.3 61.9 60.7 59.3 61.2 59 46.7 36.5 28.9 25.7 22.8 19.8 14.8 5.6 -0.6 -0.6 -0.6 -0.6 -0.6 -0.6 -0.6 -0.6 -0.6 -0.6 -0.6 -0.6 -0.6 -0.6 -0.6 -0.6 -0.6 -0.6 -0.6 -0.6 -0.6 -0.6 -0.6 -0.6 -0.6 -0.6 -0.6 -0.6 -0.6 -0.6 -0.6 -0.6 -0.6 -0.6 -0.6 -0.6 -0.6 -0.6 -0.6 -0.6 -0.6 -0.6 -0.6 -0.6 -0.6 -0.6 -0.6 -0.6 -0.6 1.4 8.4 17.1 20.3 22.3 23.7 24.7 26.8 27.4 27.7 28.1 28.2 24.4 21.2 19.6 20.6 23.9 27.2 29.1 33.6 41.1 49.5 60.2 68.4 71.6 75.1 78.6 79.8 81 78.4 73.3 68.6 71.5 77.7 86 95.5 105 112.5 117.3 121.1 124.6 128.9 132.7 135.3 141.2 152.1 161.3 170.5 181.3 188.8 192.6 187.7 183.5 183.2 185.4 185.2 182.9 186 189.6 196.7 200.2 202.8 207.1 209.5 211.5 212.1 221.2 229 234.7 238.4 241.1 242.5 242.4 242.5 245.6 248.7 251.5 254.2 255.4 253.7 248.4 249.7 253.9 262.1 275.3 287.3 309.2 327.6 349.9 369.1 376.7 383.8 373.3 370 370.8 366.8 361.2 359.6 363.9 370.8 372.8 368.9 365.9 364 357 356.5 360.6 389.6 407 418 423.5 409.9 396 395.9 383.2 380.1
120 113.7 107 102.2 93.1 90.6 94.9 94.8 88.3 85.8 82.1 85 82.5 77.3 73.9 69.6 70 66.4 58.8 55.8 59 59.3 58.3 58.3 57.1 57.2 53.7 41.5 31.4 27.1 23.9 21 17.5 12.9 2.3 -0.6 -0.6 -0.6 -0.6 -0.6 -0.6 -0.6 -0.6 -0.6 -0.6 -0.6 -0.6 -0.6 -0.6 -0.6 -0.6 -0.6 -0.6 -0.6 -0.6 -0.6 -0.6 -0.6 -0.6 -0.6 -0.6 -0.6 -0.6 -0.6 -0.6 -0.6 -0.6 -0.6 -0.6 -0.6 -0.6 -0.6 -0.6 -0.6 -0.6 -0.6 -0.6 -0.6 -0.6 -0.6 -0.6 -0.6 -0.6 -0.6 6.9 16.6 18.3 21.7 23.4 24.1 24.5 26.2 26.3 27.1 27.4 26.7 24.5 20.5 16.9 18.9 22.2 27.3 29.4 34.4 40 49.3 60.6 69 72.2 74.5 77.9 81 82 80.1 73.7 70.4 74.5 81.9 88.7 98.2 101.5 113.5 118.3 121.3 124.1 126.2 131 132 136.5 147.4 159.7 167.9 176.8 181.6 189.4 184.9 184.7 185.4 186.7 187.2 187 186.1 192.3 196.3 199.7 204.2 209.4 211.8 215.1 214.2 220.5 229.2 236.2 241 245.9 246.6 245.9 246.8 249.7 252.9 257 260 261 259.5 256.6 258.3 264.3 271.9 287.5 299 319.8 339.1 374.9 394.9 394.5 384.2 379.6 379.1 377.5 375 373.6 369.3 374.9 376 382.3 378.2 372.1 373.5 362.9 358.4 366.8 384.7 392.1 379 393.8 375.3 364.6 359.6 355.9 344.6
117.5 111.4 105.9 102.1 96.4 90.7 87 89.5 86.3 83 78.7 79.7 81.8 79.7 72.2 67.5 66.1 64 60.4 55.8 55 55.1 54.4 54.2 53.9 51.1 45.1 37.1 29.5 25.9 23.2 20.7 17.1 9.1 -0.6 -0.6 -0.6 -0.6 -0.6 -0.6 -0.6 -0.6 -0.6 -0.6 -0.6 -0.6 -0.6 -0.6 -0.6 -0.6 -0.6 -0.6 -0.6 -0.6 -0.6 -0.6 -0.6 -0.6 -0.6 -0.6 -0.6 -0.6 -0.6 -0.6 -0.6 -0.6 -0.6 -0.6 -0.6 -0.6 -0.6 -0.6 -0.6 -0.6 -0.6 -0.6 -0.6 -0.6 -0.6 -0.6 -0.6 -0.6 -0.6 0.6 15.7 18.2 20.5 23.1 23.4 24.4 23.5 24.8 25.6 26.2 26.9 26.7 24.3 20.5 15.7 17.2 20.2 25.4 28.6 31.6 35.6 53.2 61.7 68.4 71.4 74.3 79.4 82 82.2 80.4 74.2 69.9 75.3 81.7 90.1 98.2 108.5 111.7 117.8 120.3 122.1 124.6 127.2 130.3 136.2 145.3 157.2 166.3 172.7 176.2 182.9 185.5 186.3 186.6 185.8 186.4 186.8 189.1 191.6 195.4 201.5 204.6 207.2 212.6 216.7 217.6 222 229.2 239.4 244.4 249.4 249 249.8 253.2 257.1 258.6 262.5 266.2 267.2 264.7 267.5 271.9 276.3 290.8 316.6 323.8 337.5 361.4 398.5 412.7 403 399.3 394.9 395.6 392.6 390.4 385.4 384.1 388.9 385 380.7 381.4 381.1 376.6 369.7 366.6 374.9 370.5 368.2 362 366.5 353.1 334.8 330.4 323.1 310.7
115.2 109.6 103.6 99.9 94.5 89.7 84 82.4 83.9 82.7 77.7 74.4 74 77.9 72.4 66.5 60 63.1 62.2 55.9 50.4 50.7 49.8 50.7 52 50.2 40.8 32.8 28.1 25.8 23.5 21 17.2 8.1 -0.6 -0.6 -0.6 -0.6 -0.6 -0.6 -0.6 -0.6 -0.6 -0.6 -0.6 -0.6 -0.6 -0.6 -0.6 -0.6 -0.6 -0.6 -0.6 -0.6 -0.6 -0.6 -0.6 -0.6 -0.6 -0.6 -0.6 -0.6 -0.6 -0.6 -0.6 -0.6 -0.6 -0.6 -0.6 -0.6 -0.6 -0.6 -0.6 -0.6 -0.6 -0.6 -0.6 -0.6 -0.6 -0.6 -0.6 -0.6 -0.6 2.1 8.9 20.4 20.9 22.1 22.1 21.9 23.2 23 23.9 24.6 24.7 23.6 21.4 17.9 14.6 15.9 17.9 23.2 27 29.9 36.3 56.2 63 69.1 72 74.6 79.8 81.9 81.6 79.7 75.4 72.8 76.1 84 90.9 97.8 109.2 116.1 117.6 118 119.4 121.2 125.8 130 137.1 142.2 151.8 160.9 166.6 171.3 176.3 182.4 183.5 185.8 185.8 185.8 187 187.9 190 195.1 200.8 204.4 208.2 212.8 216.7 219.6 224.8 229.1 236 241.8 246.3 252.4 256.8 260 262.6 267.1 270.9 274.7 277.7 278.5 283.7 289.3 295.6 317.1 342.1 353.4 376.6 398.7 421.4 419.3 426.7 420 414.5 412.4 413.3 406.5 397.4 395.1 402 395.8 386.7 385.4 390 383.8 376.7 380.1 376 362.5 351.5 343.6 336.3 331 309.2 303.7 292 284.7
112.9 107.8 102.7 99.4 95.7 91.8 87.1 80.2 77.3 80 77.4 73.9 71.6 72 72.1 66.1 60.3 58.5 55.9 52.4 48.1 46.6 47.4 48.2 48.7 47.4 39.3 29.5 27.8 26 23.8 21.3 16.1 12.8 5.1 -0.6 -0.6 -0.6 -0.6 -0.6 -0.6 -0.6 -0.6 -0.6 -0.6 -0.6 -0.6 -0.6 -0.6 -0.6 -0.6 -0.6 -0.6 -0.6 -0.6 -0.6 -0.6 -0.6 -0.6 -0.6 -0.6 -0.6 -0.6 -0.6 -0.6 -0.6 -0.6 -0.6 -0.6 -0.6 -0.6 -0.6 -0.6 -0.6 -0.6 -0.6 -0.6 -0.6 -0.6 -0.6 -0.6 -0.6 -0.6 -0.6 17.3 20.4 20 20.6 19.8 19.3 19.7 19.3 20.6 20.9 19.8 17 15.3 15 13.2 13.1 16.5 20.3 26.5 29.8 38.8 56.8 64.3 70.1 72.3 74.4 79.2 82.3 81.9 80.2 73.4 74.2 76.5 85.8 89.7 96.8 108.7 117.9 119.8 120.8 122 122.5 126.2 131.6 135.7 140.2 149.4 158.4 162.9 168.2 171.6 176.6 182.1 185.5 185.8 185.8 185.8 189.4 188.2 194.6 200.9 205.9 210.1 215 220.3 222.6 226.2 231.8 239.2 242.8 246.2 250.1 259.8 267 270.6 277.3 281.9 285.7 288.7 293.6 302 308.6 316.2 342.7 366.6 386.4 413.7 426.1 444.7 456.1 449.5 441.2 439.2 434.9 431 419.6 412.7 405.2 411.3 406.1 399.3 393.2 392.9 389.4 385 384.9 371.8 360.2 344.6 331.2 312.8 307.8 292 280.4 270.2 271.3
112.2 106.7 102.6 99.1 95.4 91.6 88 83.6 82.1 78.9 73.5 71.2 66.9 65.6 65.7 63.4 60.6 57.5 53.5 50.9 47.3 45.3 45.1 43.6 43 42.4 33.6 28.8 27.2 26 23.8 21.9 18.5 15.9 8.8 -0.6 -0.6 -0.6 -0.6 -0.6 -0.6 -0.6 -0.6 -0.6 -0.6 -0.6 -0.6 -0.6 -0.6 -0.6 -0.6 -0.6 -0.6 -0.6 -0.6 -0.6 -0.6 -0.6 -0.6 -0.6 -0.6 -0.6 -0.6 -0.6 -0.6 -0.6 -0.6 -0.6 -0.6 -0.6 -0.6 -0.6 -0.6 -0.6 -0.6 -0.6 -0.6 -0.6 -0.6 -0.6 -0.6 -0.6 -0.6 -0.6 10.7 19 19.4 19.9 18.6 16.5 16 15.6 15 13.4 12.3 10.7 10.7 10.7 10.7 10.7 14.2 18.5 25.3 31.1 38.7 51.9 64.7 71.1 72.3 73.6 77.6 81.7 83.3 79.4 75.6 75.7 79.1 84.5 90.9 95 107.1 117.7 120.1 121.8 122.2 122.9 125.7 130.4 133.1 137.8 145 154.5 159 165.3 168.4 174.2 178.9 184.3 184.7 185.8 186.5 188.3 188.5 193.5 201.1 207.2 211 216.7 218.9 223.1 227.7 232.5 237.9 243.4 246.6 253 262.8 273.1 282 288.4 293.7 298.8 304.4 312.7 323.1 331.3 354.7 369.7 392.2 412 431.3 453.5 472.1 471.3 472.8 472.4 470.7 461.8 454.9 442.4 431.3 421.5 420.8 413.8 409.6 406.4 404.1 397 390.8 388.6 376.8 359.8 341.9 319.2 298.9 284.5 271 261.2 254.9 255.2
113.1 107.3 102.8 98.7 94.8 91.7 88 84.1 80.8 77.9 77.3 75 71.7 68.9 62.1 59.1 55.1 50.3 49.1 49.7 47.6 45.1 42.6 40.4 39.6 36.4 29.8 28.8 26 26.8 22.9 22.4 19.6 16.8 14.4 8.7 -0.6 -0.6 -0.6 -0.6 -0.6 -0.6 -0.6 -0.6 -0.6 -0.6 -0.6 -0.6 -0.6 -0.6 -0.6 -0.6 -0.6 -0.6 -0.6 -0.6 -0.6 -0.6 -0.6 -0.6 -0.6 -0.6 -0.6 -0.6 -0.6 -0.6 -0.6 -0.6 -0.6 -0.6 -0.6 -0.6 -0.6 -0.6 -0.6 -0.6 -0.6 -0.6 -0.6 -0.6 -0.6 -0.6 -0.6 0.5 16.8 18.5 18.6 17.3 13.8 10.7 10.7 10.7 10.7 10.7 10.7 10.7 10.7 10.7 10.7 10.7 12.9 20.1 25.8 32.9 43.7 54.9 64 71.3 73.4 74.9 76.8 80.9 82.7 80.6 77.2 76.9 80 85.4 91.1 96.3 103.2 116.6 119.7 121.4 124.7 123.9 127.1 129.9 131.5 139.8 142.7 147.3 155 160.9 166.8 171.7 176.7 182.3 183.4 184.4 187 188.2 188.4 194.4 201.8 207.2 211.8 214.6 217.6 223.4 230.8 231.4 236.9 240.7 246.9 255.7 265.9 276.3 287.1 297.3 305.1 311 316.1 326.8 338.2 350.2 370.1 389.8 402.1 424.8 461.3 492 506.4 505.5 509.6 508.1 504.8 494.6 485.8 469.6 452.3 438.1 436.6 430.4 422.1 416.3 412.8 406 397.9 393.7 381 363.4 341.2 321.5 295.8 276.2 266.9 259.9 255.1 249
113.5 107.7 103.3 98.7 94.4 92.3 88.8 84.8 82.5 79.7 78.6 80.2 74.5 69.3 65.9 61.9 57 53 47.2 44.8 46.6 44.2 40.6 37.2 35.6 31.9 28.7 27.6 25.3 25.6 21.9 22.6 21 18 16.3 14.8 -0.6 -0.6 -0.6 -0.6 -0.6 -0.6 -0.6 -0.6 -0.6 -0.6 -0.6 -0.6 -0.6 -0.6 -0.6 -0.6 -0.6 -0.6 -0.6 -0.6 -0.6 -0.6 -0.6 -0.6 -0.6 -0.6 -0.6 -0.6 -0.6 -0.6 -0.6 -0.6 -0.6 -0.6 -0.6 -0.6 -0.6 -0.6 -0.6 -0.6 -0.6 -0.6 -0.6 -0.6 -0.6 -0.6 -0.6 1 11.2 17.9 17.3 16.2 10.7 10.7 10.7 10.7 10.7 10.7 10.7 10.7 10.7 10.7 10.7 10.7 14 22.8 28.1 38.9 47.4 57.9 63.8 72.1 73.3 74.8 77.2 81.4 82.6 82.6 79.1 78.8 80.6 87.3 92.7 97.7 103.1 111.7 117.3 119.1 125 125.9 127.1 129.3 131.3 141.5 147.9 147.8 149.9 154.9 161.9 168.3 173.7 180.9 181.9 183.1 185 187 189.9 194.4 198.2 205.7 212.7 215.8 218.4 225.2 231.6 231.4 236.7 243.3 250.9 258.9 269.4 280.7 295.9 308.6 315.9 322.2 330.9 339.2 351.8 365.7 384.3 400.9 421.9 443.3 477.3 509.4 546.3 562.2 564 545 537.6 527.6 516.5 499.3 480 462.8 451.5 447.4 439.9 431 420.3 415.3 406.8 399 384 362.1 338.8 318.9 298.3 285.8 274.7 263.2 261.1 248
113.9 108.1 103.8 100.6 98.2 95.9 92.2 88.1 84.3 80.6 78.1 75.9 72.9 69.2 65.4 62.8 59.4 53.7 49 42.7 40.8 42.6 39.3 37.8 34.6 29.7 25.6 26.8 24.6 22.1 22.5 23 22.1 19.7 18 16.1 8.1 -0.6 -0.6 -0.6 -0.6 -0.6 -0.6 -0.6 -0.6 -0.6 -0.6 -0.6 -0.6 -0.6 -0.6 -0.6 -0.6 -0.6 -0.6 -0.6 -0.6 -0.6 -0.6 -0.6 -0.6 -0.6 -0.6 -0.6 -0.6 -0.6 -0.6 -0.6 -0.6 -0.6 -0.6 -0.6 -0.6 -0.6 -0.6 -0.6 -0.6 -0.6 -0.6 -0.6 -0.6 -0.6 -0.6 0.8 10.5 18.3 17.4 14.2 10.7 10.7 10.7 10.7 10.7 10.7 10.7 10.7 10.7 10.7 10.7 10.7 16.8 24.6 29.8 40.1 50.3 60.6 69.1 73.5 75.2 77.1 79.7 82.5 84.4 83.2 80.6 81.9 86.1 89.9 95.7 98.6 104.2 110.5 115 116.6 122 126.9 127.3 129.8 131.2 138.8 146.6 150.9 154.8 153.9 157.3 161.9 167.8 177.7 180.7 181.8 182.9 186.6 190.2 193.3 196.6 200.3 206.6 213.1 219.4 227.8 230.6 233.1 237.3 245.2 253.3 263 272.3 287.6 303.2 318 325.1 335.2 344.5 352.1 361.8 380 396.3 418.6 440.4 458.9 489.3 528 565.7 596.2 601.2 580.9 574.2 563.1 546.4 530.3 507.7 494.6 474.5 473.6 462.5 447.5 434.1 423.5 413.3 399.9 383.1 365.9 347.7 327.7 306.1 292.2 279.3 271.9 260.8 252.6
114.4 108.6 108.2 105.6 102.6 100.2 96.1 91.9 87.3 82.6 78.2 76.1 74.1 69.7 65.3 60.9 58.7 52.2 48 43.9 40 35.8 33.9 33.2 32.3 28.2 23.4 19 18.4 19 17 15.2 20.2 21.1 19.1 17 12.3 -0.6 -0.6 -0.6 -0.6 -0.6 -0.6 -0.6 -0.6 -0.6 -0.6 -0.6 -0.6 -0.6 -0.6 -0.6 -0.6 -0.6 -0.6 -0.6 -0.6 -0.6 -0.6 -0.6 -0.6 -0.6 -0.6 -0.6 -0.6 -0.6 -0.6 -0.6 -0.6 -0.6 -0.6 -0.6 -0.6 -0.6 -0.6 -0.6 -0.6 -0.6 -0.6 -0.6 -0.6 -0.6 -0.6 1 9.5 19.3 17.5 12.2 10.7 10.7 10.7 10.7 10.7 10.7 10.7 10.7 10.7 10.7 10.7 10.7 19.7 26.3 35.2 43.7 52.7 63 72.6 76.4 77.8 78.7 80.8 84.6 87.3 84.5 82.2 83 87.9 91.1 94.2 94.6 100.6 109.9 114.6 117.5 119.6 126 128.8 130.1 131.5 137.2 145 151.4 158.2 160.1 160.7 162.9 168.4 174.6 180.2 182.6 183.7 185.3 189.3 192.2 198.6 198.9 208.6 215 221.8 230.8 235.4 237.6 239 245.8 253.7 264.4 276.9 293.6 308.3 322.4 335.1 343.6 353 363.2 374.5 391.8 409.8 432.2 456.2 481.1 508.2 551.2 580.5 623.3 633.1 617.2 610 597.8 583 571.8 542.3 523.3 508.5 495.2 484.1 470.7 454.8 433.8 419.2 405.1 394.1 376.1 355.4 332.2 312.2 300.3 288.8 278.9 267.6 257.7
115.2 113.8 111.9 110.1 107.1 104 99.6 95 90.3 85.5 79.4 76.4 74.6 71.4 67.6 61.2 58 53.2 49.7 47.8 42 39.4 37.4 34 31.7 27.7 27.9 20.8 23.4 5.9 8.8 7.5 2.4 10.7 11.7 17.3 8.1 -0.6 -0.6 -0.6 -0.6 -0.6 -0.6 -0.6 -0.6 -0.6 -0.6 -0.6 -0.6 -0.6 -0.6 -0.6 -0.6 -0.6 -0.6 -0.6 -0.6 -0.6 -0.6 -0.6 -0.6 -0.6 -0.6 -0.6 -0.6 -0.6 -0.6 -0.6 -0.6 -0.6 -0.6 -0.6 -0.6 -0.6 -0.6 -0.6 -0.6 -0.6 -0.6 -0.6 -0.6 -0.6 -0.6 0.8 8.4 19.2 16.7 10.7 10.7 10.7 10.7 10.7 10.7 10.7 10.7 10.7 10.7 10.7 10.7 16.8 23.3 28.2 40.6 48 54.7 65.6 74.6 79 79.6 80.6 82.1 85.5 87.7 85.6 83.2 84.6 87.4 93 92 99 107.9 113.7 113.4 114.7 119.1 122.7 128.3 129.9 132.2 136.4 144 151.6 158.3 161.9 160.7 162.8 167.7 172.8 179.4 181.6 182.3 184.9 188.3 192.9 195.4 200.6 205.2 213 224.4 231 236.1 235.8 238 247.6 257.4 268.4 283.4 299.4 313.5 328.6 340.8 352.4 363.8 374 386.4 402.2 422.5 445.2 471.5 500.9 532.4 574.7 611.4 636.2 653.4 659.6 647 631.7 631.8 604.8 573.9 556.2 541.2 521.9 502.1 489.6 469.5 446.8 423.3 414.4 397.4 384.7 360.4 338.7 321.7 314.3 298 283.3 272.6 263.2
118.6 119.5 116.4 114.4 111.5 107.6 102.9 98.2 93.4 88.5 83.2 77.9 74.6 72 67.8 63.1 59.9 56.1 53.8 44.9 42.7 40.6 38.8 35.2 32.5 30.2 26.9 23 15.4 12.3 15.6 13.5 13 6.5 3 4.1 -0.6 -0.6 -0.6 -0.6 -0.6 -0.6 -0.6 -0.6 -0.6 -0.6 -0.6 -0.6 -0.6 -0.6 -0.6 -0.6 -0.6 -0.6 -0.6 -0.6 -0.6 -0.6 -0.6 -0.6 -0.6 -0.6 -0.6 -0.6 -0.6 -0.6 -0.6 -0.6 -0.6 -0.6 -0.6 -0.6 -0.6 -0.6 -0.6 -0.6 -0.6 -0.6 -0.6 -0.6 -0.6 -0.6 -0.6 -0.6 8.8 18.5 15.9 10.7 10.7 10.7 10.7 10.7 10.7 10.7 10.7 10.7 10.7 10.7 11.8 21.1 26 32.3 43.7 50.3 55.3 66.9 76.2 80.8 81.9 82.2 84.1 87 88.9 86.1 83.7 86.3 90.5 94.1 96.1 99.9 108.8 116.2 119.4 112 117.4 121.9 127 130.6 132 137 141.2 150.7 157.6 159.5 161 162.6 167.8 170.7 177.2 179.3 183.1 187.5 189.4 191.5 194.8 200.7 206.1 215.7 223.2 229.6 236.5 238.1 240.2 248.6 262.7 270.9 283.6 301.4 317.1 333.2 347.1 360.6 372.3 384.3 395.8 409.7 428.2 453.1 484.7 520.5 559.3 592.2 623.2 652.9 670 678.8 678.1 664.6 668.9 645.4 627.7 595.5 572.5 550.4 533.3 515.9 488.8 460.7 433.9 421.4 403.8 381.9 362.6 348.4 335.6 325.1 308.1 293.9 281.4 268.6
122 121.5 119.5 117.6 114.9 111.3 107.2 102.4 97.5 91.6 84.8 79.5 74.4 71.7 65.9 62.8 58.8 56.5 49.6 45 44.9 42 39.8 37.1 33.3 30.9 29.6 22.4 9.2 25 23.7 18.1 17.9 15.2 11.8 8.9 -0.6 -0.6 -0.6 -0.6 -0.6 -0.6 -0.6 -0.6 -0.6 -0.6 -0.6 -0.6 -0.6 -0.6 -0.6 -0.6 -0.6 -0.6 -0.6 -0.6 -0.6 -0.6 -0.6 -0.6 -0.6 -0.6 -0.6 -0.6 -0.6 -0.6 -0.6 -0.6 -0.6 -0.6 -0.6 -0.6 -0.6 -0.6 -0.6 -0.6 -0.6 -0.6 -0.6 -0.6 -0.6 -0.6 -0.6 -0.6 14 20.2 16.1 10.7 10.7 10.7 10.7 10.7 10.7 10.7 10.7 10.7 10.7 12.6 19.2 24.7 28 34.1 47.3 52.7 55.1 67.9 75.8 81.2 84.7 84.6 84.7 87.9 89.1 86.5 84.5 87.3 92.3 97.6 98.8 99.4 108.1 116 122 121.6 114.9 122.4 124.6 128.8 132.4 135.3 140.4 151.9 157.4 158.8 160.8 162.8 166.5 169.8 174.6 178.8 184 186.9 189.5 192.4 194.1 199 205.5 216.5 222.1 227.7 236.6 237.6 241.3 250.8 263 274.2 287 303.3 322.1 340.7 354.2 366.8 379.6 390.6 404.9 421.1 436.8 463.6 498.1 534.7 573.9 607.1 638.2 666.4 687.4 695.6 698.6 701.9 704.6 680.6 656.2 625.6 602.3 583.9 570.7 533.6 508.1 477.1 442 421.3 404.3 386.7 373.2 364.1 352.8 331.2 315.9 305.5 289.9 276.6
124.6 123 120.4 118.6 116.7 114.2 110.4 106.4 101.5 95.5 88.3 81.2 75 71.7 69.1 65 59.3 56.5 53.8 48.9 45.8 43.6 41.6 38.7 35.2 32.8 29.8 20.7 14.7 27 27.7 27.4 26.1 22.7 22.1 20.9 18.1 16 -0.6 -0.6 -0.6 -0.6 -0.6 -0.6 -0.6 -0.6 -0.6 -0.6 -0.6 -0.6 -0.6 -0.6 -0.6 -0.6 -0.6 -0.6 -0.6 -0.6 -0.6 -0.6 -0.6 -0.6 -0.6 -0.6 -0.6 -0.6 -0.6 -0.6 -0.6 -0.6 -0.6 -0.6 -0.6 -0.6 -0.6 -0.6 -0.6 -0.6 -0.6 -0.6 -0.6 -0.6 -0.6 0.8 14.2 20.5 16.5 10.7 10.7 10.7 10.7 10.7 10.7 10.7 10.7 10.7 11.6 16.3 22.3 25.8 28 38.1 46.7 54.8 57.2 68.5 77.6 80 83.6 86.4 85.8 87.3 87.3 85.5 85.1 87.2 95.1 98.7 99.7 101 107.3 115.3 121.4 124.4 123.9 120.2 126.1 130.5 130.9 135.1 141.3 152 158.7 157.8 160.2 163.8 165.2 167.5 173.1 177.9 181.6 186 189.2 192.5 195.6 197.3 208.2 214.4 222.1 229.4 236.1 240 241.5 252.1 267.5 280.4 292.6 305.7 323.2 343.5 359.5 372.4 385.2 396 410.4 428.1 447.3 477.2 508.5 541.3 581 616.5 652.8 683.1 703.2 713.3 719.2 725.1 727.1 700.9 675 649.9 629.5 604.6 573 542.3 512.6 480.3 445.4 430.5 414.9 393 376 368.4 357.6 343.2 330.9 317.6 304 290.1
128.7 125.4 121.4 119.6 117.7 115.6 112.8 110.1 105.4 99.5 92.3 85 76.8 72.4 69.8 65.5 62 58.3 55.4 50.3 47.7 46 43.7 39.4 36.1 35.1 29.5 22.5 15.9 27.8 28.6 27.8 28 27.9 25.6 23 21.6 17.9 -0.6 -0.6 -0.6 -0.6 -0.6 -0.6 -0.6 -0.6 -0.6 -0.6 -0.6 -0.6 -0.6 -0.6 -0.6 -0.6 -0.6 -0.6 -0.6 -0.6 -0.6 -0.6 -0.6 -0.6 -0.6 -0.6 -0.6 -0.6 -0.6 -0.6 -0.6 -0.6 -0.6 -0.6 -0.6 -0.6 -0.6 -0.6 -0.6 -0.6 -0.6 -0.6 -0.6 -0.6 -0.6 1.1 20.7 20.9 17.7 10.8 10.7 10.7 10.7 10.7 10.7 10.7 10.7 10.7 13.2 15.7 16.7 19.8 25 40.1 41.6 52.9 58.2 68.3 78.7 81.8 83.2 86 87.4 88 87.5 86 85.6 86.8 92.5 97.5 100.6 101.9 104.7 112.1 121.1 126.8 127.8 126.8 124.6 129.5 130.9 135.3 138.4 151.5 159.9 157.5 158 161 164 167.4 172.9 175.8 180.8 186 187.7 191.4 196.5 198.4 207.3 214.4 220.1 229.3 233.9 239.6 243 254.3 272 287.4 302.1 311 326 345.2 361.9 375.8 388 398.4 412.7 429.3 451.9 482.8 515.6 550.4 586.9 627.9 663.2 693.1 717 725.6 728 730.6 698.3 679 665 649.8 627 601.8 572.6 542 512.9 481.1 454 431.5 409.3 389.2 382.4 377.5 364.3 359.3 351.2 336.3 323.6 308.4
131.7 127.8 123.4 120.7 118.3 116.6 114.4 112.1 108.3 103.2 95.5 87.1 79 73.1 69.2 66.5 62.9 58.6 54.3 51.9 49.9 48.1 44.3 39.3 35.6 33 29.4 26.1 21.9 27.1 28.8 29.1 29.1 28.4 27.9 26.9 24.9 21.1 11.4 -0.6 -0.6 -0.6 -0.6 -0.6 -0.6 -0.6 -0.6 -0.6 -0.6 -0.6 -0.6 -0.6 -0.6 -0.6 -0.6 -0.6 -0.6 -0.6 -0.6 -0.6 -0.6 -0.6 -0.6 -0.6 -0.6 -0.6 -0.6 -0.6 -0.6 -0.6 -0.6 -0.6 -0.6 -0.6 -0.6 -0.6 -0.6 -0.6 -0.6 -0.6 -0.6 -0.6 -0.6 2.8 20.6 21.1 18.7 12.4 10.7 10.7 10.7 10.7 10.7 10.9 10.8 11 13.9 15.7 17.2 24.9 32.6 40.5 41.8 50 58.8 66.5 78.8 81.5 82.3 83.1 84.7 87 89.8 87.2 86.1 86.3 92 96.6 100.5 102.7 105 111.9 120.2 127.9 129.9 129.3 129.1 128.6 131.6 135.5 142.4 148.7 160 157.4 158.4 163 163.2 167.2 170.6 174.1 179.2 183.6 186.9 194.2 200.1 201.1 207.6 214.3 219.1 227.1 232.5 236.8 242.5 257.3 274.5 294.9 305.3 317.7 334.2 350.6 368.3 380.2 390.1 399.6 415.8 432.7 455.1 486.4 523.6 558 593.9 633.6 670.7 704.3 724.7 727.6 728.5 711.4 684.3 675.1 650 629.5 613.3 589.3 554.5 525.2 503.4 481 454.5 429.7 411.9 397 390.8 379.4 376.8 373.1 364 353.5 339.7 324.2
139.5 127.7 122.4 116.6 114.5 112.8 111.3 109.9 107.9 103.3 97.2 88.6 81.1 74.9 69.4 66.6 61.7 58.4 55.8 53.8 52.9 50.6 47.2 40.4 37.3 34.3 31.2 28.6 23.1 28.3 28.5 29.3 30.9 30.8 30.7 30.1 28.3 22.7 17.2 6.9 -0.6 -0.6 -0.6 -0.6 -0.6 -0.6 -0.6 -0.6 -0.6 -0.6 -0.6 -0.6 -0.6 -0.6 -0.6 -0.6 -0.6 -0.6 -0.6 -0.6 -0.6 -0.6 -0.6 -0.6 -0.6 -0.6 -0.6 -0.6 -0.6 -0.6 -0.6 -0.6 -0.6 -0.6 -0.6 -0.6 -0.6 -0.6 -0.6 -0.6 -0.6 -0.6 -0.6 11.2 20.6 21.3 19.1 12.9 10.7 10.7 10.7 11 11.1 11.6 12.5 14.1 16.4 19.9 23 25.7 34.5 43 43.8 47.8 55.9 65 77 80.2 80.8 81.5 82 87.1 90.7 89 86.9 87.4 90.7 97.3 101 102.4 103.4 112.1 120.7 128.2 132.1 132 131.2 131.2 132.9 136 142.8 148.5 155.7 156.6 158.4 161.5 163 165.8 168.9 173.1 174.9 184.8 192.5 198.2 202.7 204.2 207.4 218 222.2 226.8 231.4 238.7 246.9 262.5 276.4 296.4 310.7 322.6 337.5 355.1 372.8 382.7 394.1 402 415.5 436.8 464.3 494.2 528 563.4 600.8 643.7 680.2 712.8 724.2 724.8 717.8 691.1 662.7 652 628 606.6 588.4 564.3 535.2 508.5 491.6 465.8 443.8 423.2 408.4 401.3 389.6 388.4 389.3 383.4 375.6 365.7 351.7 341.4
144.7 130.5 119.4 113.7 110.4 108.8 107.6 106.3 104.7 101.3 96.7 88.8 82 75.9 71.2 67.6 63.4 60.9 59.6 57.8 54.9 52.1 47.3 42.4 40.2 36.4 33.5 31 24.5 28.8 29.7 30.4 31.5 31 31.8 33 31.9 25.4 20.1 7.2 5.9 -0.6 -0.6 -0.6 -0.6 -0.6 -0.6 -0.6 -0.6 -0.6 -0.6 -0.6 -0.6 -0.6 -0.6 -0.6 -0.6 -0.6 -0.6 -0.6 -0.6 -0.6 -0.6 -0.6 -0.6 -0.6 -0.6 -0.6 -0.6 -0.6 -0.6 -0.6 -0.6 -0.6 -0.6 -0.6 -0.6 -0.6 -0.6 -0.6 -0.6 -0.6 -0.6 18.7 20.7 21.5 21 15.7 10.7 11.2 11.7 12.2 12.3 12.5 12.9 13.6 19.1 22.7 26.1 27.2 36.1 46 47 44.9 53.6 62.3 72.1 77.6 80.2 80.8 81.5 85.9 89.7 88.4 86.4 87.2 87.7 93.8 100.5 100.8 101.8 110.9 120.8 128.2 131.8 132.7 132.5 133.1 133.6 134.8 139.1 146.8 153.6 158.3 160 160.8 162.8 164.9 167.7 168.3 172.1 187.9 196.6 198.7 201.5 204.5 208.9 217.4 223.6 226.4 233.7 240.6 250.5 265.3 281.3 303.4 316 329.3 342.2 358.7 379.3 390.9 400.2 407.8 424.2 445.6 469.9 508.9 538.4 569.8 601.2 643.1 686.3 707.8 707.6 697.9 688.5 672.2 641.7 624.2 603.1 578.9 555.9 538.2 515.7 487.5 466.2 439.2 429 412.8 407.7 396 393 393.9 390.7 388.3 381.1 372.3 367.3 354.6
147.4 130 117.6 110.5 106.3 105.1 103.9 102.7 100.9 97.3 92.8 87.3 81.6 76.2 73.6 70.4 68.2 64.7 62 59.6 55.7 51.9 47.6 45.4 43.2 37.9 36 33.7 30.2 30.2 32.7 32.7 32.5 32.4 33.3 34.2 33.9 29.5 22.8 19.3 7.2 6.1 -0.6 -0.6 -0.6 -0.6 3.6 -0.6 -0.6 -0.6 -0.6 -0.6 -0.6 -0.6 -0.6 -0.6 -0.6 -0.6 -0.6 -0.6 -0.6 -0.6 -0.6 -0.6 -0.6 -0.6 -0.6 -0.6 -0.6 -0.6 -0.6 -0.6 -0.6 -0.6 -0.6 -0.6 -0.6 -0.6 -0.6 -0.6 -0.6 -0.6 2.2 21.2 20.8 21.2 21.2 16.3 11.1 12 12.6 13.1 13.6 12.4 12.6 15.5 21.7 25.5 28 28.6 35.6 47.3 50.8 47 49.5 58.2 66.3 74.9 78.6 80.2 82.1 84.6 87.1 86.1 86 87 87.8 90.2 95.5 98.5 100.6 107.7 117 124.1 128.2 134 133.9 134.3 136.7 135.9 139.7 147.3 152.1 157.8 158.3 159.6 162.1 163.1 165.4 168.3 177.2 187.1 198.9 200.7 201.7 203.7 209.5 217.9 221.4 225.5 233.7 242.1 255.5 267.9 291.7 307.6 320.7 333.6 349.1 365 389.6 406.6 414.8 422.1 435.8 455.5 487.1 519 552 587.3 619.8 649.8 683.4 699.8 692.5 682.7 672.9 650.3 632.3 604.2 579.1 554.2 529.8 508.7 486.8 466.5 441.1 420.8 411.4 406.6 399.8 394.2 402.2 408.5 398.7 399.2 395.1 391.9 378.7 364.5
146.7 130.3 113.1 106.7 102.3 101.3 100.2 99.2 97.4 93.6 88.9 83.5 80.2 76.6 74.7 72.3 71.4 67.5 62.7 59 55.5 51.8 50.3 46.7 42.9 39.5 39 37 33.7 26.8 35.1 37.2 35.5 34.8 35 36.6 37.6 33.5 27.7 25.1 21.5 9.3 6.6 5.3 -0.6 18.6 27.2 9.7 -0.6 -0.6 -0.6 -0.6 -0.6 -0.6 -0.6 -0.6 -0.6 -0.6 -0.6 -0.6 -0.6 -0.6 -0.6 -0.6 -0.6 -0.6 -0.6 -0.6 -0.6 -0.6 -0.6 -0.6 -0.6 -0.6 -0.6 -0.6 -0.6 -0.6 -0.6 -0.6 -0.6 -0.6 20.6 21.7 22 21.6 21.2 16.2 11.2 12.3 12.7 13.1 13.4 13.8 13.6 17.6 22.3 27 27.7 30.1 36.8 44.7 51.2 51.5 49.4 51.1 61.7 69.5 76.8 79.7 81.3 82.7 84.6 85.3 85.4 87 88 89.6 94.7 96.4 100 107.5 115.7 121.7 124.8 128.9 133.5 134.6 136.6 138.2 141.9 153 156.3 159.5 161.1 161.5 162.9 163.3 168 170.7 175.4 185.9 196.2 200.9 203.3 203.2 207.6 214.7 220.5 225.1 236.3 244 255.1 275 292.7 310.2 327 338.9 358 373.3 401.5 431 440.2 439 453.2 476.9 498.1 535.2 576.7 608.3 650.2 678.2 678 675.2 660.4 652.5 639.3 629.5 610.5 590.1 561.4 531.4 501.6 480.1 458.9 443.6 426.4 409.8 404.5 399.3 396.9 410 425.2 423.4 418.4 417.8 417.1 403.4 386.1 376.5
137.9 119 105.2 101.9 98.7 98.4 97.3 96.9 95.3 91.8 86.5 82.1 79.3 77.3 75.3 73.3 72.1 68.5 62.6 59 56.7 55.4 52.7 49.1 46.6 44.4 43.1 37.7 33.3 23.7 34.7 36.6 37.5 36.5 35.3 36.8 40.6 37.8 33.2 29.2 25.9 23.5 17.1 15.6 18.6 40.7 40.1 29.9 1 -0.6 -0.6 -0.6 -0.6 -0.6 -0.6 -0.6 -0.6 -0.6 -0.6 -0.6 -0.6 -0.6 -0.6 -0.6 -0.6 -0.6 -0.6 -0.6 -0.6 -0.6 -0.6 -0.6 -0.6 -0.6 -0.6 -0.6 -0.6 -0.6 -0.6 -0.6 -0.6 -0.6 20.4 21.3 22.8 22.7 22.7 17.2 12 12 12.5 12.9 13.2 13 14.2 15.7 16.1 21.3 33.2 30.4 35 45.6 52.8 54.5 53.8 57.8 57.9 63.5 71.8 77.1 80.4 83.8 83.8 83.7 84.5 85.6 87.9 89.2 92.7 95.9 100 108.1 114.5 119.4 123.2 126 130.7 134.2 136.4 139 142.8 152 161.7 165.8 163.7 166.1 164.9 169 171.2 172.7 174.7 183.5 192.7 196.5 200.6 201.7 206.9 213.3 218.8 224.5 237.6 245.1 254.8 279.3 296.1 315 332.5 346.6 367.9 384.8 411.7 450.1 462.5 468.9 488 510.1 527.6 566.6 597.6 631.7 659.6 669.4 663.9 651.9 636.9 629.6 615.2 605.5 586.3 562.3 540.3 514.7 482.9 455.7 442.2 434.2 414.1 400.4 397.3 396.1 404.6 425.5 440.7 446.3 450.1 442.1 428.6 414 396.3 387.6
123.6 106.3 98.5 96.3 94.4 93.8 94.5 95 93.9 92 88.1 82.9 79.9 76.8 74.6 73.6 71.4 66.6 61.4 59.2 58.4 57.2 54.7 52.5 50.9 48.9 44.5 38.8 35.1 28.2 36.3 36.4 38 39.7 42.8 41.6 46.1 41.3 36.5 32.1 30.4 28.9 27.4 27.8 34.6 47.1 50.9 41.9 -0.6 -0.6 -0.6 -0.6 -0.6 -0.6 -0.6 -0.6 -0.6 -0.6 -0.6 -0.6 -0.6 -0.6 -0.6 -0.6 -0.6 -0.6 -0.6 -0.6 -0.6 -0.6 -0.6 -0.6 -0.6 -0.6 -0.6 -0.6 -0.6 -0.6 -0.6 -0.6 -0.6 -0.6 18.1 23 23.3 23.3 22.1 16.8 11.2 11.4 12.2 12.7 13.3 14.2 15.1 15.2 16.7 17.6 19.1 30.1 43.7 50.6 54 55.6 56.8 61.5 65.2 65.4 66.3 71.6 80 82.8 83.1 83.2 83.9 84.6 87.5 89.3 92.9 95.3 98.8 107.3 113.1 118.5 122.6 125.2 127.9 132.1 136.4 140.8 145.1 150.7 161.4 167.4 167.1 168.6 168.9 169.5 172.8 174.7 178.2 185.6 195 194.7 195.4 196.3 203.1 210.4 216.4 224.5 236.4 246.4 258.9 283.1 301.8 320.7 337.7 355.5 377.9 397.8 415.7 455.9 475.4 492.6 513.2 535.7 556.8 578.2 606.7 629.4 647.4 655.7 644.6 627.6 613.2 605.8 602.5 584.6 561.3 539.6 514.4 489 461 436.3 433.7 422 408.9 398.3 388.8 398 411.8 435.8 460.5 474.5 469.3 468.2 449.7 430.1 408.1 407.5
110 102.8 98.3 93.7 90.5 89.3 89 92.4 93.7 91.7 88.1 83.6 80.6 77.5 74.4 72.4 69 65.7 62.9 61.4 61.2 58.7 57.8 55.7 51.7 50.8 47.4 41.5 30.5 33.4 38.8 39.3 43.2 43.3 45.5 50.2 49.5 45.2 39.1 34.6 33.3 33 31.3 35.6 42.7 49.9 54 43.2 -0.6 -0.6 -0.6 -0.6 -0.6 -0.6 -0.6 -0.6 -0.6 -0.6 -0.6 -0.6 -0.6 -0.6 -0.6 -0.6 -0.6 -0.6 -0.6 -0.6 -0.6 -0.6 -0.6 -0.6 -0.6 -0.6 -0.6 -0.6 -0.6 -0.6 -0.6 -0.6 -0.6 -0.6 3.9 21.8 22.6 22.6 20.3 18.5 12.2 11.7 12.3 12.5 13.7 14.6 15.5 16.4 17.3 19.1 19.3 20.5 32.6 47.4 56.1 59.1 61.2 63.4 66.1 67.5 72.4 74.6 74.9 82.3 83.3 83.8 84 84.6 87.3 90.3 93.2 95.7 96.8 105.4 113.2 118.2 121.9 124.5 127.2 130.3 136.1 142.5 147.4 152.7 158.4 165.5 168.4 169.2 171.2 170.7 171.5 174.9 178.3 186.2 196.6 194.8 192.9 194 198.4 207.9 216 223.7 234.4 244.2 262.1 287.7 305.4 321.7 341.1 361.1 384.7 406.6 419.1 454.7 471 491.8 519.3 536.6 558.2 584.3 597 617.9 632.1 638.5 624.3 608.5 586.1 575.8 569 557.5 536.7 512.9 489.2 460.6 437.1 414 414.6 406.6 398.5 386.6 383.9 397.3 416.6 447 472.9 484.3 486.4 479.7 462.4 437.8 423.4 420
109.2 104.8 100.1 95.1 90 85.5 85.1 86.2 89.7 89.9 86.7 83.5 80.4 77 73.5 70.3 68.1 66.2 63.8 62.7 62.6 62.1 60.7 57.9 52.4 51.6 49.1 42.3 29.9 39.4 43 42.8 46.2 47.9 47.5 53.9 52.9 48.9 44.7 39.3 37 37.9 37.1 42.9 49.1 51 49.2 38.4 5.7 -0.6 -0.6 -0.6 -0.6 -0.6 -0.6 -0.6 -0.6 -0.6 -0.6 -0.6 -0.6 -0.6 -0.6 -0.6 -0.6 -0.6 -0.6 -0.6 -0.6 -0.6 -0.6 -0.6 -0.6 -0.6 -0.6 -0.6 -0.6 -0.6 -0.6 -0.6 -0.6 -0.6 2.8 21 22.8 23.5 21.4 18.9 13.1 11 12.3 12.3 13.2 14.5 15.7 16.9 18.6 23.5 26.5 31.1 27.3 39.2 49.3 60.6 66.4 68.3 69.9 69.8 73 75.7 79.1 83.2 84.5 84.6 83.8 84.6 86.8 90.2 93.4 95.1 96.2 100 110.7 118.9 121.3 123.9 126.9 130.7 133.3 139.5 147 150.7 159.3 164.7 167.6 168.9 171.9 174.3 174.9 175 177.8 186.1 193.8 192.8 192.1 193.1 195.7 202.8 213.9 224 231.7 243.2 265.7 290.5 308.9 322.2 341.7 363.3 390 414.8 428.5 445 468.9 491.7 517.8 531.9 553.5 572 585.2 599.9 611.7 606.2 592.9 577.3 562.3 543.5 537.3 527.9 509.3 491.2 471.6 440.1 410.5 394.4 391.8 386.1 378.4 378.4 382.6 398.2 417.5 439.8 477.3 494.9 498.1 485.6 472.8 450.1 438.4 435
109.2 106.1 100.8 94.8 89 83.7 82 84.1 87.6 87.2 85.4 82.3 79.4 76 72.5 70 68.5 66.4 65 64.8 64.7 63.1 61.7 58.1 53.8 50.8 45 40.5 38 34.1 45 49.6 53.1 51.8 55.2 57.2 56 51.9 48.6 44.4 43.2 41.5 44.3 52.4 52.9 55.5 54.5 44.5 19.6 -0.6 -0.6 -0.6 -0.6 -0.6 -0.6 -0.6 -0.6 -0.6 -0.6 -0.6 -0.6 -0.6 -0.6 -0.6 -0.6 -0.6 -0.6 -0.6 -0.6 -0.6 -0.6 -0.6 -0.6 -0.6 -0.6 -0.6 -0.6 -0.6 -0.6 -0.6 -0.6 -0.6 -0.6 19.5 22 23.2 22.5 19.7 16 10.3 11.5 12.2 12.7 13.8 14.6 16.7 20.7 24.2 27.5 36.6 35.5 31.4 40.2 45.6 58.8 66.8 71.5 72.4 74.6 77.2 80.4 83.9 86 85.6 85.2 85.3 86 88.7 92.2 94.2 96.1 98.6 107.3 117.2 120.8 123.3 126.8 130.8 134 139.8 145.7 152.6 157.2 163.8 167.7 169.9 172.4 176.4 177.3 176.4 178 182.9 192.8 191.2 191.3 192.3 195.8 205.5 215.3 227.4 233 243.4 266.9 294 310.4 321.5 338.5 361.4 386.2 410.6 430.9 444.7 465.9 482.8 497.1 515.8 531.8 544.8 558.1 571.8 576.9 571.5 560.1 546.9 533.1 520.6 503.3 494.8 481 464.9 443.5 424.3 405 390.4 379.8 372.1 368.7 375.1 379.6 397.5 416.6 432.6 469.7 501.2 498.8 480.8 469 451.5 441 449.2
108.7 107 100.6 94.5 89.1 82.8 80.4 82.5 83.8 83.6 81.9 80 77.2 74.1 72 70.4 69.1 68.1 68 67.2 66.1 65.3 63.8 60.9 55.9 45.7 47.2 46.6 40.2 34 43.3 52.2 56.9 54.5 58.7 60.3 60 54.3 52 49 47.3 47 54.3 61.2 58.6 58.6 58.9 54 10.2 -0.6 -0.6 -0.6 -0.6 -0.6 -0.6 -0.6 -0.6 -0.6 -0.6 -0.6 -0.6 -0.6 -0.6 -0.6 -0.6 -0.6 -0.6 -0.6 -0.6 -0.6 -0.6 -0.6 -0.6 -0.6 -0.6 -0.6 -0.6 -0.6 -0.6 -0.6 -0.6 -0.6 -0.6 1.4 20.8 23.1 23.4 20.6 16.7 11.3 10.3 11.7 12.6 12.8 13.6 14.6 19.9 23.8 27.8 36.9 39.4 28.6 34.2 41.5 49.1 60.1 66.3 71.5 75.4 79.1 81.8 84.2 86.2 86.9 86.6 86.8 87.1 88 92.7 93.9 98.4 101.1 105.6 113.8 119.2 123 127.1 131.2 133.6 137.4 146 152.1 158.3 164.3 166.1 169.5 173.3 177.7 179.2 177.8 178.5 183.6 188.9 191 190.6 192.9 198.2 205.7 216.9 225.4 234.5 245 268.8 291.2 307.6 317 332.7 350.8 375.1 403 420.9 436 456.1 471.3 485.9 491.4 501.6 515.3 527.4 538.4 540.6 536.8 526.8 514.7 504.2 500.8 483.5 466.8 451.8 435.7 414.2 398.5 386.6 378.3 367.2 358.1 363.4 368.7 376.6 393 420.9 429.4 468.1 497.4 496.7 478.4 459.8 450.6 450.8 453
109.4 106.9 101.2 96.9 90.3 83.7 79.8 80.9 80.3 79.3 77.3 76.3 75 73.6 71.5 70.3 69.3 69.4 69.6 69.1 68.1 66.8 64.3 61.3 56 47 49.8 46.3 41.2 35.1 41.3 48.2 56.9 56.7 60.4 63.4 63.6 59.8 56.1 53.3 50.8 49.5 58.2 67.6 67.2 63.1 62.8 56.9 21.5 -0.6 -0.6 -0.6 -0.6 -0.6 -0.6 -0.6 -0.6 -0.6 -0.6 -0.6 -0.6 -0.6 -0.6 -0.6 -0.6 -0.6 -0.6 -0.6 -0.6 -0.6 -0.6 -0.6 -0.6 -0.6 -0.6 -0.6 -0.6 -0.6 -0.6 -0.6 -0.6 -0.6 -0.6 1.6 19 23.2 23.9 21.4 16.5 10.9 11.1 11.9 12.7 12.9 13.9 14.9 16 22.4 28.4 36 40.2 37.7 26.2 41.1 45.7 53.4 62.5 69.2 73.5 77.5 80.6 82.1 84.6 87.2 88 88.3 88.6 88.9 91.7 94.8 98.7 103.5 108.5 112 117.7 122.1 127.6 131.2 133.5 137.9 144.7 153.8 159.7 163.6 165.1 167 173 180.1 182.8 180 180.2 184.7 190.2 190.7 192.2 194.4 198.9 204.8 214.4 227.8 235.9 243.5 268.5 286.8 301.1 310.8 324.7 338.9 364 392.8 411.9 423.7 435.2 450.9 462.9 475 486 506.3 520.5 515.5 507.6 502.8 496.3 490.4 481 470.8 457.8 437.4 421.1 410.5 391.2 373.9 369.9 358.8 352.6 349.4 359 363.3 373.8 385.8 413 427.5 464.3 480.6 480.2 474.1 456.7 448.5 456.3 457.4
109.3 107 103.2 96.5 90.5 84.4 79.5 79.2 78.9 76.9 75.3 74.6 74 73.3 71.1 70.4 70 69.8 70.6 70.1 70 68.7 65.6 58.2 50.1 49.6 48.9 44.9 37 40.3 42.2 46.1 52.5 59.4 59.5 61.6 66.4 62 57.9 55.7 54 56.1 74 79.2 78.8 72.3 67 58.3 20.7 -0.6 -0.6 -0.6 -0.6 -0.6 -0.6 -0.6 -0.6 -0.6 -0.6 -0.6 -0.6 -0.6 -0.6 -0.6 -0.6 -0.6 -0.6 -0.6 -0.6 -0.6 -0.6 -0.6 -0.6 -0.6 -0.6 -0.6 -0.6 -0.6 -0.6 -0.6 -0.6 -0.6 -0.6 4.7 18.4 21.6 24.7 22.7 18.4 11.2 10.3 11.8 12.6 13.8 14.8 15.6 16.8 23.8 29.8 35 39.3 41.5 40.7 37.6 45 51.4 59.1 66.2 71.3 74.9 77.5 79 82.2 88.3 89.8 88.9 89.3 89.3 92.1 94.9 98.7 104.4 109.5 113.1 115.6 120.4 125 130.1 133.7 137.2 144.2 151.3 157.6 162.3 164.4 164.7 172.5 183.2 182.4 179.5 179.6 183.7 189.6 191.2 193.4 195.7 198.1 204.7 214.6 226.4 235.7 242.4 267.5 283.6 298.7 304.2 312.6 325.8 346.3 371.9 393.3 405.1 425.6 439.9 448.5 450 460.8 474.4 485.7 487.8 480.8 473.2 472.3 468.5 457.3 439.2 425.5 414.3 400 394.2 377.3 363.1 349.5 343.7 338.2 343.9 354.6 361.2 367.4 378.2 402.5 422.9 453.3 472.2 468.6 461.5 452.7 449.4 459.3 449.9
109.7 106.6 102.6 96.8 90.6 84.2 79 77.3 77.4 75 73 72.4 72.1 71.8 70.9 71 70.6 70.2 71.2 70.8 71.4 68.5 64.1 52.5 50.2 47.4 39 41 44.6 43.8 43.1 47.2 54.7 59.5 59.4 60.7 67.9 63.4 60.1 60.5 61 68.9 85 90.8 85.5 70.1 65.9 55.8 36.9 -0.6 -0.6 -0.6 -0.6 -0.6 -0.6 -0.6 -0.6 -0.6 -0.6 -0.6 -0.6 -0.6 -0.6 -0.6 -0.6 -0.6 -0.6 -0.6 -0.6 -0.6 -0.6 -0.6 -0.6 -0.6 -0.6 -0.6 -0.6 -0.6 -0.6 -0.6 -0.6 -0.6 -0.6 10.1 16.1 20.3 24.9 24.7 20.1 11.5 11.7 11.3 13.3 16.2 15.9 15.2 19.3 26.1 33.6 37.9 40.5 43.4 45.4 31.6 45 49.4 52.7 61.3 68.2 72.7 75.7 78.5 80.1 81.8 89.7 89.1 88.2 89.3 93.4 95.7 99.6 103.1 109.2 113.2 116.9 119.5 123.6 127.9 132.7 138.1 142.7 149.3 157 162.2 164.2 164.8 169.8 179.4 181.4 178.5 174 182.8 188.1 189.9 191.8 194.3 198.2 204.5 211.3 223 230.8 242.2 265.7 284.6 291.2 299.4 302.8 310.6 322.9 344.8 367 386.3 402.2 420 435.2 442.7 445.8 445.5 448.2 450.3 445.4 438 435.9 434.4 423.1 409.9 399.3 393.9 382.5 370.9 368.8 348.4 337.5 331.1 330.6 336 343.1 350.5 362.8 375.2 394.4 418.8 443.9 462.1 465.4 454.5 446.2 448 451.1 443.4
109.5 106 101.7 96.9 91.5 85.2 79.7 76.4 75.2 72.9 71 71.1 71.2 70.9 70.3 69.7 69.8 69.4 71.2 72.9 72.5 71 63.7 52.7 51.5 40.3 46.2 47.7 48.9 49.2 50.7 47 48.5 52 58.4 64 69.3 63.1 60.3 61.1 66.9 77.6 92.2 92 79.9 72.7 65.9 58.4 42.4 8.9 -0.6 -0.6 -0.6 -0.6 -0.6 -0.6 -0.6 -0.6 -0.6 -0.6 -0.6 -0.6 -0.6 -0.6 -0.6 -0.6 -0.6 -0.6 -0.6 -0.6 -0.6 -0.6 -0.6 -0.6 -0.6 -0.6 -0.6 -0.6 -0.6 -0.6 -0.6 -0.6 -0.6 0.9 10.5 19 23.3 25.4 20.2 12.7 9.8 11.6 14 17.3 17.6 16.1 20.8 27 36.1 42.8 43.6 45.2 48.7 47.1 44.5 50.4 53.4 57 64.3 70.8 74.1 77.2 79.2 80.3 81.6 86 87.3 90.4 94.5 97.7 101.3 104.2 108.4 114.5 117.4 120.7 124.2 127.6 132.9 138 143.1 150 157.3 162.9 164 164.4 164.9 173.2 178.1 174.9 170.7 183.9 187.2 188.9 190 191.6 198.1 205.4 209.3 217.3 225.1 242 268.6 282.6 286 292 292.4 297.8 306.4 316.4 335.5 360.8 382.8 394.4 409 418.4 428.6 432.7 423 415.9 411.1 404.1 401.4 394.1 390 383.5 376.6 370 365.3 352.4 346.8 331.7 326.9 326.4 323.3 327.9 337.8 350.6 359.8 372.5 393.9 418.8 444.5 453.4 446.5 443 442 455.8 450.6 443.8
104.4 101.9 101.1 95.8 90.6 85.2 80.6 77.2 74.7 71.8 69.3 70.2 70.3 69.8 69.2 68.3 67.1 67.7 70.1 69.7 74.6 69.6 54.3 56.1 54.8 40.3 51.8 49.8 53.3 55 53.4 49.7 49.3 49.7 51.4 63.4 65.8 61 60.9 62.1 74.3 86.4 97.1 90.9 80.8 73.8 70.1 60 46.9 22.2 -0.6 -0.6 -0.6 -0.6 -0.6 -0.6 -0.6 -0.6 -0.6 -0.6 -0.6 -0.6 -0.6 -0.6 -0.6 -0.6 -0.6 -0.6 -0.6 -0.6 -0.6 -0.6 -0.6 -0.6 -0.6 -0.6 -0.6 -0.6 -0.6 -0.6 -0.6 -0.6 -0.6 0.7 8 17 21.3 23.5 20 13.6 9.5 11.8 16.7 18.2 18.3 17.9 22 29.8 37.9 45.6 47.1 48.4 49.9 50.5 35.2 49.4 52.7 55.4 61.4 66.7 70.8 73 74 76.3 79.5 81.9 84.7 90.2 94.1 97.7 101.3 105.3 106.6 110.7 116.7 121.7 123.5 127.2 132 136.8 142.1 149.3 157.7 164.1 164.6 164.6 164.3 166.2 174.1 173.8 166 176.9 186 186.3 187 185.8 194.3 200 205.6 211.9 221.3 240 264.8 276.5 283.2 278.4 278.1 283.6 295.2 302.4 311.5 330.9 352.1 365.8 376.8 388.7 398.6 401.5 400 393.1 384.5 379.6 375.3 370.3 364.3 358.9 353.7 345.7 342.4 336 325 319 320.7 322.8 318.5 330.1 334.5 350 364.1 373 389.8 421.4 444.3 446.2 439.7 437.2 442.3 448.9 447.9 439.2
97.7 95.1 95.2 94.5 89.4 84.5 81 77.8 74.2 70.9 67.7 69.2 68.5 67.4 66.4 65.6 64.7 64.9 65.5 67.6 70.2 63 60.5 57.9 52.5 42.2 53.2 53.9 57 57.9 57.5 54.1 50.2 50.6 50.9 57.5 57.9 60.6 66 72.7 85.7 96.7 97 94.9 86.7 84.1 78.9 66.1 54.1 44 12.6 -0.6 -0.6 -0.6 -0.6 -0.6 -0.6 -0.6 -0.6 -0.6 -0.6 -0.6 -0.6 -0.6 -0.6 -0.6 -0.6 -0.6 -0.6 -0.6 -0.6 -0.6 -0.6 -0.6 -0.6 -0.6 -0.6 -0.6 -0.6 -0.6 -0.6 -0.6 -0.6 1.1 8.1 15.6 19.7 22.2 20.5 14.3 8.4 11.3 16.7 17.7 18.3 18.7 23.8 31.9 39.7 45.2 47.5 49.7 53.2 53.5 45 50.3 52.4 54.9 59.6 65.4 68 68.2 73.9 78.4 81.9 84.1 84.9 87.6 93.1 96.3 100.4 105.2 106.3 108.3 114.5 119.8 121.9 127.9 131.2 134.8 138.9 148.1 155.2 163.7 163.1 162.6 162.2 163.9 166.7 169.3 166 169.4 179 182.6 184.4 185.2 189.9 194.3 199.6 205 214 237.7 252.5 267.7 262.2 264.3 265.8 270.2 275.4 282.1 291.3 304.8 324.3 340.5 350 360.7 364.7 367.9 368.7 369.8 367.8 365.1 361.1 351.7 344.2 336.5 333.1 328.5 325.6 318.2 306 308.1 310.4 314.7 320.1 319.1 326.2 351.4 366 376.4 393.5 421.4 437.7 439.6 431.4 435 443.7 449.7 445.4 430.3
105.7 99.5 97.7 91.6 88.2 84.3 80.5 77.4 74 70.4 66 67.9 66.9 65.8 64.8 63.7 62.5 62.9 62.8 66 65 61.2 58.6 56.4 50 42.1 52.1 56.6 58 60.6 56.2 52.8 51.7 51.1 51.7 54.2 59.2 66.9 73.9 81.6 96.1 108 103.2 93.6 93.7 95.3 79.5 72.3 60.7 53.9 18.8 -0.6 -0.6 -0.6 -0.6 -0.6 -0.6 -0.6 -0.6 -0.6 -0.6 -0.6 -0.6 -0.6 -0.6 -0.6 -0.6 -0.6 -0.6 -0.6 -0.6 -0.6 -0.6 -0.6 -0.6 -0.6 -0.6 -0.6 -0.6 -0.6 -0.6 -0.6 0.7 3.7 5.7 14.3 18.8 20.8 21.3 14.8 8.9 10.6 15.9 15.5 16.1 19.8 24.4 34.4 43.1 47.5 49.8 51.6 54.1 58 55.5 39.5 51.8 53.7 54.9 62.3 65.8 68.3 72.4 76 80.5 85.3 87.4 88 89.7 93.7 98.7 102.7 104.9 106.7 109.7 116.7 121.9 127.5 130.2 132.9 137 142.5 149.8 159 159 158.5 160.8 162.7 164.8 163.5 162 165.6 170.4 175.2 178.3 178.9 183.1 190 195.9 203.2 210 222.4 237.6 244.9 249.3 253.1 258 260.7 262.6 270.2 274.8 280.5 295.5 313.5 323.3 330.3 335.6 341.2 344.8 341.6 335.1 331.1 328.4 325.2 320.7 321.5 316.7 311.1 309.5 312.2 303.1 304.3 308.1 320.8 316.1 315.4 327 347 371.8 383.2 412.9 421.9 432.6 433.2 429.5 429.5 434.6 444.1 436 424.9
114.7 104.9 102.9 91.8 82 77.8 74.1 72.9 71.8 68.6 63.6 66.3 65.2 64.1 63 61.9 59.9 59.4 58.8 60.7 59.6 55.8 53.7 52.5 48.3 47.2 49.9 55.7 56.5 57.2 53 52.9 53.4 53.3 54.1 57.7 63.4 72.1 80.4 91.4 98.4 100.5 98.1 95.7 94.6 91.5 83.7 76.8 69.5 62.9 28.1 -0.6 -0.6 -0.6 -0.6 -0.6 -0.6 -0.6 -0.6 -0.6 -0.6 -0.6 -0.6 -0.6 -0.6 -0.6 -0.6 -0.6 -0.6 -0.6 -0.6 -0.6 -0.6 -0.6 -0.6 -0.6 -0.6 -0.6 -0.6 -0.6 1.2 0.9 3.6 4.6 5.3 9.3 17.7 19.6 20.6 16.6 7.8 10 12.9 12.5 15.7 20.1 24.6 35.6 45.8 50.7 52.5 52.8 53.2 58.5 57.8 44.3 49.9 47.6 54 56.2 64.7 68.7 72.7 75.5 79.4 84.4 89.7 90.3 91 93.8 98.2 100.8 102.7 105.3 107.5 112.8 121 125.5 128.5 132 136 140.4 146.4 150.2 154.8 157.3 159.4 160.9 160.8 158.1 155 161.6 162.3 167.8 170 173 176.5 185.7 195.1 204.1 210.1 214.3 221.3 235.4 240.8 245.5 246.4 248 250.7 257.3 260.5 264.7 265.2 271.5 280.2 288.8 301 300.8 298.7 299 296.9 295.6 294.7 297.1 303.2 300.8 295.9 292.1 293.2 303.4 295.3 302.4 304.1 314.6 316.2 317.6 339.9 348 377.2 391.2 416.9 423.2 436.1 432.5 429.5 429.5 429.5 435.6 429.1 418.7
113.2 107.4 102.6 95.6 88.2 81.8 74.4 67.9 67.3 65.4 61.9 62.1 63.4 62.4 61.3 59.8 57.4 56.6 56.4 55.2 55.7 53.5 52.1 50.8 44.4 51.6 51.5 54.3 55.1 55 54.6 54.7 57.4 56.9 59.1 62 68.4 76.9 88.3 98.6 100.5 107.7 111.6 104.8 106.3 95.1 83.8 80.8 72.9 67.7 29.4 -0.6 -0.6 -0.6 -0.6 -0.6 -0.6 -0.6 -0.6 -0.6 -0.6 -0.6 -0.6 -0.6 -0.6 -0.6 -0.6 -0.6 -0.6 -0.6 -0.6 -0.6 -0.6 -0.6 -0.6 -0.6 -0.6 -0.6 -0.6 -0.6 1 5.3 4.4 4.9 5.4 7.5 16.5 19 20.4 16 8.2 9.6 10.7 12.5 14.6 20.1 25.2 34.9 47.5 52.5 54.5 55 55.4 57.2 58.4 54.9 40.7 41.6 52 54.9 61.4 63.8 70.5 76.4 80.2 83.7 88.8 90.9 91.5 95.1 97.9 100.2 102.8 106 108.4 109.6 115.8 122.7 125.7 129.2 133.9 138.9 144.1 147.1 150.9 153.6 156.1 157 156.5 155.6 150.7 155.4 156.4 163.9 168.2 171.6 175.7 182.1 192.6 201.8 206.5 209.6 211.2 220.6 236.8 236.5 241.8 241 242 246.6 249.2 251.7 242.4 238.3 246.7 254.6 260.7 263 262.9 262.8 262.6 264.7 268.7 272.6 281.1 289.2 289 283.4 289.4 288.4 288.3 294.6 310.3 315.7 320 326.5 351.1 360.3 380.5 394.4 421.2 427.1 433.6 434.1 431.6 429.5 429.5 425.7 420.7 413.5
116.1 109.9 104.5 97.3 91.2 84 77.4 71.2 68 62.8 61.1 59.9 62.4 60.9 59.9 57.2 55.1 54.7 55.2 54.1 52.3 48.9 47.3 47.8 48.5 51.2 54.3 56.4 56.6 57.1 57.1 58.5 62.6 63.6 65.1 67 74.6 81.7 92.3 98 98.7 106.5 105.7 106.6 108.8 92.9 85 77.9 70.1 69.6 36.7 -0.6 -0.6 -0.6 -0.6 -0.6 -0.6 -0.6 -0.6 -0.6 -0.6 -0.6 -0.6 -0.6 -0.6 -0.6 -0.6 -0.6 -0.6 -0.6 -0.6 -0.6 -0.6 -0.6 -0.6 -0.6 -0.6 -0.6 -0.6 -0.6 2.9 5.6 5.3 5.8 6.3 6.9 14.7 18.4 20.5 15.9 9.4 9 10.3 12.2 13.6 21 26 34.5 47.7 53.4 56 56.9 57.4 57.8 58.7 57 52.7 42.3 41.7 51.9 56.7 61.9 66.7 75.5 79 82 87.2 89.7 91.2 93.8 98 102.5 104.3 106.7 109.2 110.2 110.6 115.9 123 126.3 131 136.5 141.9 145.7 148.4 149 152.6 155.5 155 152 148.6 153.1 151.8 159.2 168.8 175 175.5 177.9 184.9 193.1 203 207.5 207.7 210.4 217.7 224.8 234.5 235.9 237.1 239.3 240.9 237.9 232.1 224.2 222.2 223 225.3 227.5 226.8 230.6 235.3 243.7 249.9 253.8 266.1 274.1 275.7 277.1 280.6 284.9 290.8 302.7 312.7 325.4 330 334.4 353 374.4 395 404.8 424.9 431.1 432.6 434.6 443.9 444.2 435.7 427.1 416.3 414.5
118.7 111 104.4 99.2 93 86.7 80.4 74.8 68.6 66.2 63.7 61 58.3 60.3 58.4 54.5 52.9 51.6 52.8 52.3 50.2 49 50.3 51.4 51.6 53.9 55 59.1 59.5 59.5 61.3 61.9 66.9 68.4 70.8 73 82.3 83.7 91.7 96.7 98.2 99.3 106.4 101.2 99.8 90.1 83.5 77.5 74.7 58.8 43.2 4.9 -0.6 -0.6 -0.6 -0.6 -0.6 -0.6 -0.6 -0.6 -0.6 -0.6 -0.6 -0.6 -0.6 -0.6 -0.6 -0.6 -0.6 -0.6 -0.6 -0.6 -0.6 -0.6 -0.6 -0.6 -0.6 -0.6 -0.6 -0.6 3.5 6.6 6.1 6.7 7.2 8 9.6 17.1 20.3 17.8 15.6 11.3 8 9.8 10.8 19.2 25.6 36.2 47.7 54 56.9 57.9 59 59.3 58.5 58.1 56.6 47.3 43.2 45.3 53.8 58.9 65.8 72.7 76.7 80.8 84.8 88.4 90.1 93.1 96.8 101.6 105 107.3 109 109.3 109.4 113.5 116 122 126.4 131.9 137.5 142.4 144.9 145.1 149.3 153.8 152.4 149.8 147.4 147.3 149.5 155.6 163.4 168.2 169.9 174.5 180.2 184 194.4 205.9 204.8 204.6 207.1 211.7 222.8 225.6 227.7 230.2 231.3 230.3 224.5 218.3 217.5 215.6 214.1 213.1 222.5 226.1 222 225.7 229.7 233.7 250.3 255.2 259 267.2 276.4 279.7 294.8 321.3 334.5 343.8 343.8 347.6 362.1 393.6 411.3 418.6 429.3 430.9 424.1 442.8 455.5 453.8 441.4 428.5 418 415.6
120 112.2 105.8 101.1 95.6 90 83.7 77 69.7 69.5 66.9 63.1 59.6 57.4 54.6 52.6 51.1 50.6 50.1 49.1 48.5 54.2 54.7 53.3 53.7 56.7 58.2 61.7 61.6 63 67.1 68 70.8 72.9 74.7 81.3 85.5 87.2 95.3 98.4 98.8 98.2 98.1 94.8 93.2 88.2 83.2 71.5 66.1 56.3 40 4 -0.6 -0.6 -0.6 -0.6 -0.6 -0.6 -0.6 -0.6 -0.6 -0.6 -0.6 -0.6 -0.6 -0.6 -0.6 -0.6 -0.6 -0.6 -0.6 -0.6 -0.6 -0.6 -0.6 -0.6 -0.6 -0.6 -0.6 -0.6 1.8 7.7 7.1 7.5 8.3 9.1 11.2 14.6 18.7 19.3 17.3 14.5 9 8.4 10.8 18.7 24.8 34.7 48.7 54.4 57.1 58.7 59.6 59.2 57.4 58.4 56.3 52 44.3 45.2 52.2 60.4 66 69.8 76.9 80 82.6 87.8 87.2 82.7 78.5 97 102.5 105.4 106.5 106.8 107.8 113.3 116 118.4 123.2 128 131.7 138.5 140.9 141.2 146.3 151.8 148.3 145.2 145.1 142.9 146.2 151.3 157.7 160.7 163.6 170.3 179 181 182.4 193 198.2 198.7 199.7 205.4 209.8 215.2 215.6 221.5 223.3 222.5 219.1 217 212.7 210.1 208.2 208.9 214.5 220.4 218 217.5 221 222.4 235.2 246.6 254.3 259.8 268.6 281.5 298.6 327.4 354.1 361 351.3 360 374.1 407.8 420.8 420.9 424.1 419.5 423.4 456.7 463.1 450.3 442.2 428.6 418.7 415.2
121.2 113.7 107.5 102.7 97.2 92.6 87.8 78 71 70.2 67.1 63.7 60.3 57.5 53.5 52.4 50.9 53.2 53 50.2 49.2 54.7 57.5 56.2 53.9 55.3 58.4 60.5 61.7 67.9 74.6 74.9 74.1 74.6 76.9 85.1 85.2 93.8 97.5 100.9 100.5 98 97.4 95.5 89.3 82.5 73.7 64 62.7 52 36.4 -0.6 -0.6 -0.6 -0.6 -0.6 -0.6 -0.6 -0.6 -0.6 -0.6 -0.6 -0.6 -0.6 -0.6 -0.6 -0.6 -0.6 -0.6 -0.6 -0.6 -0.6 -0.6 -0.6 -0.6 -0.6 -0.6 -0.6 -0.6 -0.6 3.8 8.2 8.1 8.3 9.1 10.9 11.3 14.1 17.3 18.8 18.2 12.7 7.1 8.2 9.2 18 22.9 33.9 48.7 54.6 57.1 58.3 59.6 60.1 59 58.6 57.3 54.8 48.1 46.8 46.5 48.6 60.3 70.1 75.2 79.9 82.8 80 66.5 86.2 95 88.9 85.4 101.1 98.3 101.3 103.9 106.5 111.7 114.1 119.2 122.2 126.6 131.7 135.5 138.5 140.7 146.5 145.3 142.5 139.3 139.4 140.3 146.6 152.1 156 160 162.5 167.7 173.2 174.5 176.5 182.2 184 194.5 201.6 206.1 202.7 204.3 205.2 210.2 216.1 214.3 205.8 206.7 205.2 203.6 207.8 212.7 212.7 215.9 217.9 216.6 219 225.8 237.3 243.5 251.6 266.7 286.9 302.2 323.9 359.5 368.7 357 358.4 374 395.3 410.3 413.8 414.6 409.3 421.3 433.9 441.7 449.5 443.6 428.9 413.2 402.8
123.3 116.8 109.5 104.8 100.5 96 91.5 79.1 70.7 68.6 66.2 63.5 61 57.3 53.7 51.7 50.6 54.7 54.1 50.6 49.8 51.3 54 54.9 53.6 55.9 57.5 57.6 59.8 65.2 69 71.9 75.3 77.6 78.7 83.7 86.5 96.9 99.7 100 101.4 97.3 96.1 95.4 88.7 75.9 65.6 54.9 50.2 40.7 35.8 -0.6 -0.6 -0.6 -0.6 -0.6 -0.6 -0.6 -0.6 -0.6 -0.6 -0.6 -0.6 -0.6 -0.6 -0.6 -0.6 -0.6 -0.6 -0.6 -0.6 -0.6 -0.6 -0.6 -0.6 -0.6 -0.6 -0.6 -0.6 -0.6 6.7 9.8 10.6 10.4 11.1 10.1 10.2 12.7 15.5 17.6 15.9 7.1 8.4 10.7 12.9 18 23.2 32.9 45 53.2 56.1 57.4 59.6 60.6 60 58.6 57.1 55.5 51 48.6 50.7 52.4 51.1 56.4 71.2 78.3 73.4 62.4 77.9 89.3 93.1 97.7 101.8 104.4 107.2 106.4 107.3 108.5 107.8 106.2 114 120.9 123.9 126.4 130.1 134.7 137.8 139.8 139.1 138 136.9 134 137.2 137.2 140 146.6 151.2 156.9 159.1 163.1 165.7 168.4 169.8 173.9 180 188.4 191.5 188.1 186.8 186.9 190.6 194.3 194.3 194.7 193.3 192.5 192.9 198.3 205.2 208.9 213.9 214.1 213.2 214.3 216.8 224.6 237.9 256.1 267.7 280.1 297.1 311.6 337.8 354.2 354.9 356.3 371.9 385 393.2 401.6 403 399.9 412.3 422.8 437.2 444.2 440.1 423.7 402.5 389.8
126.5 120 112.8 106.4 103.5 99 91.3 79.6 71.1 67 64.8 62.1 59.4 56.5 55 53.3 51.7 54.3 54.3 51 50.7 50.2 52.2 52.7 54.5 57.2 56.9 57.1 59 65.4 70 71.2 71.9 76.5 80.2 83.8 89.2 95.9 99.3 98.7 100.5 95.9 95.7 96.4 80.6 70.2 59.2 53.4 45.9 34.3 27.6 10.2 -0.6 -0.6 -0.6 -0.6 -0.6 -0.6 -0.6 -0.6 -0.6 -0.6 -0.6 -0.6 -0.6 -0.6 -0.6 -0.6 -0.6 -0.6 -0.6 -0.6 -0.6 -0.6 -0.6 -0.6 -0.6 -0.6 -0.6 -0.6 6.9 10.5 11.6 10.6 8.9 8.3 8.5 7.9 11.9 9.3 8.4 10.1 10.7 10.4 12.7 18.1 23.6 30.6 42.9 49.7 53.6 55.7 57.6 59.1 59.6 58.2 57.1 55.1 54.2 53.3 54.2 56.3 58.2 57.5 60 57.2 66.5 81.5 85.9 88.4 91.5 97.4 101.2 103.9 106.5 108.8 110.4 113 114.9 117 118.8 115.4 115.6 114.5 124.9 129.9 135.1 137.1 137.1 136.5 135.5 132 132 132 132 136.7 138 143.8 150.7 154.4 156.5 158.3 163.1 166.9 169.8 171.9 176 176.3 175.5 175.5 177.3 180.7 182.4 184.7 184.1 181.1 186.1 191.8 195.7 200.1 206.5 204.4 203.7 202.9 207.3 214.3 221 236.9 256.6 272.6 285.4 305.6 331.6 355.7 352.8 350.1 358.3 370.8 375.3 377.5 375.8 379.4 383.7 398.7 418.3 426.4 424.3 409.9 391.4 377.9
127 123.5 117.1 110.5 106.5 101.2 89.8 78.7 70.6 65.2 63.1 60.9 59.6 59.8 57.8 55.7 52.2 53.4 53.9 52.8 52 51.7 52.7 52 54.2 55.5 55.2 55.5 56.9 66 71 71.4 72.3 77.2 81.2 85.9 90.4 93.3 98.3 96.9 96.3 95.6 91.7 84.7 74.3 64.5 56 51.6 45.5 36.1 26.8 8.8 -0.6 -0.6 -0.6 -0.6 -0.6 -0.6 -0.6 -0.6 -0.6 -0.6 -0.6 -0.6 -0.6 -0.6 -0.6 -0.6 -0.6 -0.6 -0.6 -0.6 -0.6 -0.6 -0.6 -0.6 -0.6 -0.6 -0.6 -0.6 12.1 11.8 10.8 9.2 8.5 8.2 7.8 7.9 7.7 7.7 8.8 12.8 14.3 13.7 13.1 19.5 25.1 30.5 41.8 46.7 51.4 52.8 57 58.3 59.5 59 57.2 56.5 55.9 53.8 54.3 56.6 60.2 65.5 71.6 76.6 81 83.7 86.9 89.2 92.3 98.1 102.2 104.6 109.7 111.4 113.4 114 116.1 120 122.5 124.4 126 128.9 127.7 122.6 132.5 133.4 135.9 136.7 135.6 132 132 132 132 132 133.1 136.8 139.7 144 148.8 151.9 154.1 161.9 164.9 164.3 165.4 166.2 162.5 159.5 161 163.9 167.1 168.9 171.1 170 171.5 177.5 182.7 189.2 190.8 195.6 193.6 199.2 203.1 215.1 215.1 217 226.9 251.2 262.5 287.9 304.9 322.4 325.1 320.8 327.2 337.7 344 349.8 352 355.5 356.9 373 389.8 411.8 408.3 392.7 374.7 373.5
126.8 124.1 119.8 115.6 112 102.7 90.1 78.3 69.3 63.9 61.1 61.3 61.6 60.9 60.2 57.7 52.7 54.3 55.7 54.4 52.7 53.4 54 53.4 52.3 53.7 54.5 54.9 55.5 61.1 68.2 69.8 69.4 73.6 79.8 88.1 93.2 95.3 97.8 97.6 94.7 92.1 84.8 75.5 66.1 59.4 53.7 51.3 45.8 39.9 27.4 7.2 -0.6 -0.6 -0.6 -0.6 -0.6 -0.6 -0.6 -0.6 -0.6 -0.6 -0.6 -0.6 -0.6 -0.6 -0.6 -0.6 -0.6 -0.6 -0.6 -0.6 -0.6 -0.6 -0.6 -0.6 -0.6 -0.6 -0.6 7.5 14.6 11.8 10.8 9.1 8.1 7.8 7.5 7.9 7.2 9.6 12.4 15.9 17.7 17.1 17 20.3 25.3 32.4 41 46 49.4 51.7 55.4 59.8 60.6 59.9 58.3 58.2 57.3 55.8 55.7 56.2 58.4 65.3 69.9 75.7 80.8 82.2 87.8 89 90.8 96.1 102.8 107.3 110.2 113.4 115.1 115.2 117.7 122.3 125.9 129.9 133.8 135.9 138.1 136.6 134.6 132 136.1 132 132 132 132 132 132 132 132 132 136.4 140.1 144.5 144.9 147 148.4 153 155.6 158.8 160 158.1 156.6 155.6 155.6 156.2 158.4 161.6 164.7 164.7 168 171.8 178.4 180.1 185.9 184.3 190 197.2 205 207.6 209.7 215.3 223.3 231.4 243.3 270.5 289.6 292.1 283.8 289.3 302.1 311.7 323.7 328.9 339.2 347.7 362.8 373.4 383 387.5 373.3 374.2 381.8
128.9 124.3 120.9 117.5 114.5 102.7 88.9 77.9 68.5 64.4 61.8 62.3 61.9 61.8 60.2 56.1 51.9 55.2 57.5 55.2 54 54.2 54.9 54.7 53.2 53.5 54.3 55.5 55 56.4 60.2 62 65.4 72.8 78.2 89.3 95.8 96.5 97.6 97.5 88.5 82.7 80.1 74.3 64 55.2 53.2 51.4 47.7 46.5 33.8 17.8 -0.6 -0.6 -0.6 -0.6 -0.6 -0.6 -0.6 -0.6 -0.6 -0.6 -0.6 -0.6 -0.6 -0.6 -0.6 -0.6 -0.6 -0.6 -0.6 -0.6 -0.6 -0.6 -0.6 -0.6 -0.6 -0.6 -0.6 7.1 14.9 14 11.9 10.6 7.9 7.2 6.9 8.1 8.3 10.4 14.6 17.5 19.9 20.4 21 22.3 26.1 31.9 39.2 44.8 49.1 51.4 54.1 58.4 60.7 60.5 59.3 58.1 57.1 57.1 56.6 57 58.9 62.5 69.1 72.4 78.7 82 84.3 87.6 91.7 96.1 104.1 106.2 109.3 114.5 116.3 117.7 121.6 124 127.9 133.9 140.4 143.3 146.5 145.1 140.2 136 134.4 133 135.2 135.5 132 132 132 132 135.5 135.7 135.6 137.9 140 141.3 139.5 140.3 141.2 145.4 148.6 153.6 155.2 154.3 152.2 153.3 159.3 164.1 164.9 166.4 165.2 165.4 167 171.5 172.5 176.7 178 180.3 188 196.7 200.9 202.5 205.7 211.8 217.5 225.2 235.3 243.5 248.9 255.4 265.3 280.1 293.3 309.4 323.1 327.5 334.4 353.4 359.6 365.2 368 374.4 364.9 372.3
128.8 123.9 119.5 115.8 112.6 103.9 90.6 79.8 67.6 66 62.9 60.3 59.6 59.3 60 56.5 51.6 55.9 57.9 56.3 55.3 55.2 58.4 56.1 54.7 55.8 59.4 60 58.8 55 56.6 58.3 61 69 78.4 92.4 98.3 97.3 96.1 94.3 86.3 80.4 75.4 70.6 65 57.2 53.7 52.6 50.8 50.7 36.1 24.5 -0.6 -0.6 -0.6 -0.6 -0.6 -0.6 -0.6 -0.6 -0.6 -0.6 -0.6 -0.6 -0.6 -0.6 -0.6 -0.6 -0.6 -0.6 -0.6 -0.6 -0.6 -0.6 -0.6 -0.6 -0.6 -0.6 5.4 13.5 16.3 16.6 13.5 11.5 9.4 7 8 8.3 9 10.9 16 18.9 21.5 23.3 24.5 25.7 26.8 30.6 38.5 44.4 48.7 51.1 53.9 57.6 60.5 60.5 59.7 58.3 57.3 57.8 59.4 59.9 60.3 62.8 67.4 73.4 75.6 79.7 82.1 84 90.9 96.5 99.2 105.7 112.2 119.4 122.7 123.8 126.1 127.7 131 138.7 144.1 148.5 152.5 153.1 148.6 141.8 140.9 137.7 136.4 137.9 132 132 132 132 132 135.8 137.9 138.8 141.1 140.4 135 137.5 139.1 141.4 144 144.2 144.3 147.2 146.3 151.3 158.6 163.5 165.7 167.4 165.5 166.8 167.3 169.3 170.5 172.9 173 172.1 177 185.4 190.9 191.9 194 200.1 204.3 212.1 222.8 229.2 234.5 241.5 255.1 260.5 270.9 285.2 301.6 315.3 323.3 336.3 355.2 370 371.2 360.8 357.7 356.9
128.8 124 119.6 115.2 110.8 101.5 91 80 69.7 67.2 64.3 60.3 57.1 57.5 58.8 54.7 53.6 57.1 57.5 56.5 56.4 57.2 60.3 56.5 56.5 60.5 62.5 63.7 60.2 57.1 56.1 57.5 62.5 66.5 75.8 87 94.7 96.1 93.4 89.9 85.1 82.6 81.8 74.7 65.9 56.9 54.8 54.1 59.1 54.5 43.3 32.3 22 -0.6 -0.6 -0.6 -0.6 -0.6 -0.6 -0.6 -0.6 -0.6 -0.6 -0.6 -0.6 -0.6 -0.6 -0.6 -0.6 -0.6 -0.6 -0.6 -0.6 -0.6 -0.6 -0.6 -0.6 6.9 13.4 15.1 17.5 18.6 16.2 14.3 11.7 8.2 6.9 9.2 9.6 11 16.2 21.3 23.9 25.7 27.1 27.1 27.6 31.6 37.8 44 48.3 51.1 54.1 57.8 60.8 60.8 60.3 59.7 57.8 57.9 60.5 61.3 62.9 64 68.1 72.4 79.2 84.1 86.6 86.7 88.7 93.9 101.2 110.2 113.6 121.7 125.3 127.7 128.1 131.6 136.1 140 147.9 155.9 156 157.8 154.2 148.4 146.3 143.6 143.9 142 139.6 137.2 132 132 132 132 138.1 138.2 139.2 137.4 132 132 133 135.6 140.2 138.4 132 135.8 138.8 142.2 146.3 154.1 159.1 160.9 161.6 164.3 166.5 166.8 170 168.7 171.1 169.7 172.6 175.7 177.8 180.1 179.9 183.7 189.8 198.1 205.7 211.2 212.8 219.3 227.6 234.8 248.4 261.5 277.8 294.2 304.3 322.5 345 361.3 364.9 354.8 355.2 363.7
128.9 124.1 119.7 116 110.1 100.2 92.6 83.1 73 67.6 64 59.8 55.6 55 55.1 53.8 54.9 58.3 59.9 59.5 58.2 59.4 59.2 58.6 59.7 66.2 66.3 64.1 64.7 60.3 55.9 57.7 63.8 67.7 77.9 82.1 85.2 87.4 83.8 78.7 73.6 78.5 84.4 79.1 68.2 58.1 54.1 51.9 55.9 57 52.3 41.1 36 21.5 -0.6 -0.6 -0.6 -0.6 -0.6 -0.6 -0.6 -0.6 -0.6 -0.6 -0.6 -0.6 -0.6 -0.6 -0.6 -0.6 -0.6 -0.6 -0.6 -0.6 -0.6 -0.6 -0.6 -0.6 12.5 14.2 17.5 19.3 18.6 15.5 13.8 9.7 7.9 9.2 9.7 9.6 16.2 22 26.2 26.8 27.8 27.8 29.4 34 38.8 44.2 48.4 51.4 54.4 57.3 59.9 61.2 60.6 60.1 59.8 58.4 60.9 62.8 64.7 66 68.7 72.6 78.3 84.4 87.5 90.8 93.4 94.5 102.9 109.9 115 123.1 126.9 129.1 133.1 137.9 140.8 141.9 149.6 157.1 159.5 160.1 158.3 155.1 151.8 150.6 153.3 148.9 147.3 140 136.3 132 132 135.1 132 132 132 132 132 132 132 132 132 132 132 132 135.6 136.1 135.1 137.9 145.7 150.8 150.6 154 157.3 159.7 162.4 161.3 163.4 166.8 166.4 170.6 173.2 176.4 177.1 179.3 182.9 186.3 190.2 196.8 197.6 200 209.3 222.3 235 249.7 267.3 279.1 288.9 314.6 339.1 347.1 340.3 343.6 344.2 348.6
128.5 124.9 121.2 115.9 109.5 102.4 95.5 85.8 75.1 67.4 63.5 59.3 55.2 54 53.4 52.5 52.8 57.7 60.8 60.1 59.5 61.7 61.5 60.7 61 65.1 67.3 64.6 66.2 58.9 56.6 58.1 62.2 67.2 72 70.5 75.9 73.6 69.7 66.1 65 64 64.7 71.3 78.2 66.8 60.1 55 49.7 47.8 45.9 45.7 43.8 36.1 -0.6 -0.6 -0.6 -0.6 -0.6 -0.6 -0.6 -0.6 -0.6 -0.6 -0.6 -0.6 -0.6 -0.6 -0.6 -0.6 -0.6 -0.6 -0.6 -0.6 -0.6 -0.6 -0.6 -0.6 7.4 15.3 16.1 17 19.3 17.3 15.1 11 7.7 9.5 9.1 9.7 18.6 24.4 26.6 26.5 27.7 28.2 29.2 32.4 37.7 43.6 47.7 51.4 54.9 56.8 58.8 61 60.8 60.8 60.6 59.5 61.9 64.2 65.3 66.2 69.1 74.2 78.1 84.1 87.7 91.1 94.6 98 100.4 109.4 116.2 121.8 128.1 130.8 134.7 141.5 146.5 150.3 153 158.7 163.9 164.8 165.3 162.7 158.1 157.7 160.5 159.4 153.1 148.6 141.7 137.9 135.4 136.6 136.1 132 132 132 132 132 132 132 132 132 132 132 132 135.5 135.5 136.7 135.8 138.8 144.2 146.1 149.8 152.3 155.3 154.8 154.1 157.6 158.9 161.5 166 169.5 173.9 180.5 183 182.4 183.7 188.6 192.8 194.1 198.6 207.2 220.1 234.9 256.9 267.6 273.6 298.2 316.1 334.9 330 334.2 330.5 327.9
127.9 125 122.4 117.1 111.3 105 97.7 87.9 77 67.4 63.2 59.2 56.3 55.5 56.7 56.8 54 55.5 60.6 61.8 64.7 64.4 64.3 62.3 62.2 66.2 64.1 62.4 61.6 59.8 58.2 60.5 63.4 65.7 64.9 64.6 65 64.2 63 63.3 60.9 57.9 57.9 57.9 59.4 66.7 70.6 62 57.8 54.3 50 47.9 43.9 38.2 23.1 -0.6 -0.6 -0.6 -0.6 -0.6 -0.6 -0.6 -0.6 -0.6 -0.6 -0.6 -0.6 -0.6 -0.6 -0.6 -0.6 -0.6 -0.6 -0.6 -0.6 -0.6 -0.6 -0.6 7.1 13.7 14.4 16 20.9 18.9 17 13.7 8.3 8.7 8.6 9.5 15.9 20.3 22.2 15.1 24.6 28.7 29.7 31.6 37.2 43.8 48.8 51.6 54.2 56.5 59.5 61.5 62.4 62.2 61.8 60.7 63 64.5 65.5 66.7 69.6 74 78.8 83.4 87.8 90.8 94.4 98 101.3 108.1 117.3 121.6 127.1 130.5 135.1 143.2 150.5 154.9 158.8 162.9 167.5 168.8 169.4 168.7 165.6 164.6 164.6 165.5 159.6 155.6 153.4 147.4 140.2 137.4 135.5 136.3 136.5 132 132 132 132 132 132 132 132 132 132 135.5 136.6 138.7 139.9 143.7 143.6 140.8 142.7 142.6 145.5 148.9 150.2 152.1 151.8 154.8 161.4 164 165.4 169.4 171.9 173.9 174.9 176 180.8 189.6 198.1 211.7 212.9 218.7 233.2 245.3 262.1 284.3 305.2 321.8 325.3 311.2 313.6 307.8
127.6 123.5 119.6 116.9 113.3 107.4 97 91.2 80.4 68.5 64.3 59.9 57.1 57 59 59.4 55 53.2 57.2 60.9 65.6 67.6 68.9 67 70.5 67.7 64.2 62.1 61.1 61 60.6 62.5 64 65.1 65.2 64.5 63.4 60.4 58.6 62.4 57.9 57.9 57.9 57.9 57.9 57.9 61 70.1 67.8 57.3 54.6 50 50.1 42.1 25.3 -0.6 -0.6 -0.6 -0.6 -0.6 -0.6 -0.6 -0.6 -0.6 -0.6 -0.6 -0.6 -0.6 -0.6 -0.6 -0.6 -0.6 -0.6 -0.6 -0.6 -0.6 -0.6 -0.6 13.3 13.8 12.3 13.9 17.7 19 18.7 13.9 6.5 7.4 7.5 9.2 11.1 19.4 13.1 27.2 27.2 18.9 23.1 30.9 37.2 43.8 49.5 52.1 54.1 56.7 58.9 62.2 63.5 63.8 63 61.9 63.7 64.9 65.7 67.6 70.3 74.1 80.1 83.6 87.5 90.5 93.9 98.2 100.9 106.1 113.9 121.8 126.6 131.8 137.4 142.1 151.1 157.8 163.1 166.8 169.1 174.2 175 176.3 175.4 173.4 171.3 168.4 165 161.1 161.4 159.6 150.5 144.1 140 140.7 142.8 139.9 137 135.5 132 132 132 132 132 132 132 133.8 140.2 140.2 142.9 150.5 146 144.4 149.4 153.4 152.7 145.3 149.2 148.2 148.5 150.5 150.9 155.9 156.7 158.8 159.7 160.6 163.6 171.2 175.6 177.7 183.3 192.1 201.9 205.3 212.3 228.7 244.5 260.5 285.1 299 308.6 299.3 290.7 294
126.2 122 118.4 116.7 115.5 109.5 99.5 94.2 83.1 71.3 66 60.8 57 59 61.8 60.9 55.1 53.5 56.4 59.7 66 70.8 72.3 70.7 73.3 71.8 67.8 63.7 65.2 66.5 63.5 63.7 64 64.9 66.2 66.6 62.5 57.9 58.4 57.9 57.9 57.9 57.9 57.9 57.9 57.9 57.9 66.5 63.8 71.2 58.4 55.2 56.8 45 25.5 -0.6 -0.6 -0.6 -0.6 -0.6 -0.6 -0.6 -0.6 -0.6 -0.6 -0.6 -0.6 -0.6 -0.6 -0.6 -0.6 -0.6 -0.6 -0.6 -0.6 -0.6 -0.6 -0.6 5.4 10.5 10.4 12.6 15 16.5 13.4 9.4 6.4 6.5 8.3 9.2 10.8 11.4 24.1 30.3 30.4 28.6 28.3 18.8 35.4 43.3 48.4 52.3 54 55.7 57.8 60.9 63.9 64 63.5 62.9 63.5 65 66.6 68.5 70.5 75.7 82.2 86.7 89.1 91.2 94.5 99 102.3 105 110.6 118.6 127.4 131.7 134.7 142.2 151.3 159 164.9 172.4 175.8 182 183.6 182 181.1 180.6 179 176.5 171.1 165.4 167.3 170.9 163.6 154.6 150.9 147.9 147.2 147.7 145.2 144.7 137.3 132 132 132 132 132 132 135.6 135.2 140.1 143.7 149.1 144 143.7 146.2 146.8 149 154.2 156 156.3 154.3 151.3 153.1 155.5 157.3 160.5 159.3 159.4 159.9 160.2 160.5 164.5 170.4 181.1 189.9 198.6 209.1 221.6 224.2 236.7 250.4 264.2 269.2 270.4 270.2 273.8
124.9 120.7 117.6 117.1 116.5 111.8 102.2 93.2 84.7 76.1 67.3 61.4 57.3 60.2 61.7 59 54.6 51.7 54.9 58.7 68.2 77.2 77.2 73.9 73 76.3 70.5 65.7 71.5 66.2 65.6 65.6 65.6 66.8 70.8 66 57.9 57.9 57.9 57.9 57.9 57.9 57.9 57.9 57.9 57.9 60.7 63.3 60.2 62.6 65 63.8 60.9 44.7 31.1 -0.6 -0.6 -0.6 -0.6 -0.6 -0.6 -0.6 -0.6 -0.6 -0.6 -0.6 -0.6 -0.6 -0.6 -0.6 -0.6 -0.6 -0.6 -0.6 -0.6 -0.6 -0.6 -0.6 -0.6 6.8 9 9.9 11.8 14.7 13.3 5.5 6.4 5.9 7.2 8.5 9.6 22.5 28.3 32.2 32.8 32.9 33 28.6 30.7 37.4 46 51.6 54.1 56 58.1 62.3 64.1 64.4 63.9 63.8 63.9 65.3 67.1 68.9 70.8 75.9 82.1 89.7 91.7 93.6 95.3 98.8 102.6 107.3 111.4 116.5 124.4 131.2 134.3 140.2 148 157.7 163.4 174.6 178.4 185.8 188.3 186.6 185.9 185.2 185.4 182.1 175.3 172.6 173.2 174.8 174.4 169 163.2 157.8 155.2 153.4 154.3 150.3 139.8 132 132 132 133.1 138.2 138.4 142.8 147.5 145.4 151 149.7 147.5 146.8 146.5 145.6 145.2 145.3 146.4 148.4 155.8 152 154.6 155.6 162.2 164 158.4 161.5 162.9 165.7 160.6 160.6 166.1 174.2 181.9 189.4 195.6 204.6 215.3 218.3 233.7 245.5 254.3 253.9 253.7 256.9
