ncols 200
nrows 91
xllcorner 290000
yllcorner 74000
cellsize 50
226.3 228 229.2 229.7 230.2 229.8 229.1 227.1 224.8 220.9 215.7 211 210.4 210.3 210.1 209.4 205.7 202.9 198.2 190.4 183 174.3 165.4 157.5 151.3 149.4 147.4 146.3 148.1 149.8 153.2 157.2 160.7 162.5 162.4 161.4 158.6 154.4 149.1 142.4 134.9 126.9 117 103 90.4 81.1 89.3 96.6 100.9 109.2 118.3 126.5 134.3 138.3 138 134.3 130.8 127.7 124.7 122.5 122.9 125 131.5 134.3 131.8 126.5 118.3 112.7 109.4 108.7 110.9 113.6 115 110.9 105.3 101.6 92.3 85.3 79.4 72 65.6 60.4 56.3 50.9 46.8 45.4 48 59.7 70.7 79.5 93 108.3 111.8 103.2 89.8 76.1 66.3 58 51.4 46.6 43.6 40.8 46.1 45.5 42.7 40 35.4 35.3 33.9 33 30.2 28.4 30.2 26.4 21.5 17.6 15 13.7 12.1 9.7 9.9 8.5 5.4 6.2 5.1 4.1 3.7 3.7 3.7 3.5 2.7 2.8 3.5 4.1 4.3 5.2 5.8 6.3 6.5 6.8 7.5 10 15.8 17.9 13.2 11.9 14 16 11.4 7.9 10 14.7 21.2 20.8 15.7 9.3 4.6 2.4 3.5 2.5 2.2 2.4 5 1.3 0.8 0.1 -1.1 -1.1 -1.1 -1.1 -1.1 -1.1 -1.1 -1.1 -1.1 -1.1 -1.1 -1.1 -1.1 -1.1 -1.1 -1.1 -1.1 -1.1 -1.1 -1.1 -1.1 -1.1 -1.1 -1.1 -1.1 -1.1 -1.1 -1.1 -1.1 -1.1 -1.1 -1.1 -1.1 -1.1
222.7 225.5 228.1 228.7 229.2 229.2 228.7 226.7 223.4 218.4 212.1 206.9 202.8 201.9 201.3 200.8 198.5 197.1 194.3 189.3 182.4 173.6 162.4 157.3 153.2 145.8 141.1 138.2 138.3 138.3 139.4 142 146.7 151.6 155.4 156.1 155.6 152.4 147.4 139.3 131 119.1 107.6 95.6 83.9 86.7 91.5 100.9 107.9 112.2 117.1 125.2 134.3 140.7 143.3 141.6 138.5 135.1 131.8 129.9 129.2 131.7 135.7 137.2 133.6 126.7 121.8 118.8 117.1 118.7 122.7 122.5 119.2 113 106.8 100.7 94.9 87.7 83.2 75.8 70.2 64.3 58.7 52.3 48.7 45 43.6 51.3 62.2 72.7 84.8 100.2 111.7 106.8 95.6 81.8 70.6 62.4 55.8 54.1 49.8 48 50.2 51.1 48.3 44.8 41.5 38.8 37 34.4 32.1 30.2 29.7 29.5 26.7 22 21.7 21.7 18 14.9 12.6 9.8 7 4.8 6.4 4.7 4.4 6.8 6.8 5.6 4.7 3.6 3.7 5 4.6 5.1 6.1 6.5 6.8 5.6 8.2 11.7 16 19.8 16.4 16 22.6 20.3 12.6 11.3 16 20.9 25.6 27 22.5 12.4 3.6 2.4 5.1 3 2.9 5.2 1.2 0.6 0.2 -0.4 -1.1 -1.1 -1.1 -1.1 -1.1 -1.1 -1.1 -1.1 -1.1 -1.1 -1.1 -1.1 -1.1 -1.1 -1.1 -1.1 -1.1 -1.1 -1.1 -1.1 -1.1 -1.1 -1.1 -1.1 -1.1 -1.1 -1.1 -1.1 -1.1 -1.1 -1.1 -1.1 -1.1 -1.1
220.5 223.7 226.9 228 228.4 228.2 227.6 225.2 221.3 215.7 209 202.9 198.5 195.4 195.2 194.8 193.6 191.6 188.9 188 183.4 176.1 169.8 162.7 158.4 151.9 143.8 137.9 133.1 129.6 130 131.7 133.4 136.3 142.7 146.6 148.9 148.1 143.2 134.4 121.1 108.6 98.4 88.5 88.9 93.6 95.4 101.7 109 115.3 120.6 124.9 132.9 140.7 143 146.8 144.8 141.3 137.9 136.4 135.1 137.5 140.7 140.1 136.4 131.4 128.4 125.1 124.5 128.1 129.7 127 122 116.3 110.2 104 98.5 93.3 86.2 81.1 76.8 70.8 63.6 57.6 51.4 45.5 43.2 46.4 57.1 67.9 78.8 92.5 108.8 109.4 101 89.5 76.3 67.8 64.1 58.8 55.3 52.3 49.6 47.9 46.8 44.6 41.7 39 36.9 34.6 32.7 30.8 29.1 29.2 28.9 26.1 23 20.6 18.1 15 11.4 8.8 6.1 9.5 9 5.9 8.7 12.5 13.3 9 6.4 5.1 6.5 5.1 5.4 5.8 5.9 7.3 8.7 8.5 12.3 15.6 18.4 22.1 19.4 21.9 24.9 19 16.9 18.1 20.1 28.7 29.3 27.7 24.6 19.1 3.9 2.8 5.4 4.1 4.1 1 0.4 -0.1 -1.1 -1.1 -1.1 -1.1 -1.1 -1.1 -1.1 -1.1 -1.1 -1.1 -1.1 -1.1 -1.1 -1.1 -1.1 -1.1 -1.1 -1.1 -1.1 -1.1 -1.1 -1.1 -1.1 -1.1 -1.1 -1.1 -1.1 -1.1 -1.1 -1.1 -1.1 -1.1 -1.1 -1.1 -1.1 -1.1
216.4 220.8 225.3 226.8 227.2 226.9 226 223.2 219 214.3 205.2 197.7 195.1 192.4 189.1 188.7 187.5 186.7 185.5 184.7 184 178.7 174.4 168.6 162.7 156.3 150.4 143.3 135.8 131.3 126 123.8 124 126.3 132.3 137.2 141.1 143 138.6 127.9 112.8 101.2 91.9 88.7 97.5 101.3 102.1 101.7 107.2 117.2 123.7 127.8 132.9 139.8 144.4 148.9 149.8 148 144.7 143.8 143.4 142.6 144.8 144.2 141.8 139.2 135.1 131 133.8 135.4 134.3 131.4 125.8 119.2 113.3 107.2 101.1 95.4 91.5 86.8 81.8 75.7 69.4 61.4 52.7 47.9 43.4 42.5 52.3 63.4 74.1 86.8 102.7 110.5 105.4 95.7 83.8 74.3 67.5 60.9 55.4 50.1 46 43.6 42.7 41.7 39.7 36.1 34.7 32.6 31.1 29.5 28.9 28.9 27.4 24.5 21.3 18.1 15.1 12.2 9.6 7.2 9 12.4 9.7 7 9.3 14.3 16.9 13.6 9.4 7.8 9.1 7.9 6.4 6.3 6.2 6.6 8.9 12.2 14.3 20.8 23.8 27.7 29.8 29.6 29.7 24.8 25.1 25.2 27.2 28.3 29.6 26.8 24.2 20.9 5.4 3.2 3.9 4.6 1.1 0.2 -1.1 -1.1 -1.1 -1.1 -1.1 -1.1 -1.1 -1.1 -1.1 -1.1 -1.1 -1.1 -1.1 -1.1 -1.1 -1.1 -1.1 -1.1 -1.1 -1.1 -1.1 -1.1 -1.1 -1.1 -1.1 -1.1 -1.1 -1.1 -1.1 -1.1 -1.1 -1.1 -1.1 -1.1 -1.1 -1.1 -1.1 -1.1
213.5 218 222.5 224.8 225.5 225.1 223.7 220.9 216.9 212.3 203.7 197 191.3 187 184.2 182.5 181.1 180.7 181.4 181.4 181.5 180.2 177.6 171.9 166.1 160.1 155.1 146.9 140.4 137.1 131.2 125.7 118.4 119.7 125.3 130.5 135 137.7 135.1 121.6 105.6 94.7 90 96.5 104.5 107.3 110.1 109.1 109.3 114.3 124.2 131.2 136.2 142.1 146.5 150.7 154.6 154.6 152 150.3 149.2 149.5 149.8 148 146.4 143.8 140.7 139.8 141.1 139.4 137.7 132.4 127.1 121.8 115.6 109.8 103.9 98.7 94.2 89.2 83.4 77.2 71.1 64.5 56.6 49 43 42.6 47.5 58.8 69.5 80.8 94.7 109.8 108.6 100.9 89.4 77.9 68.8 61.3 53.4 47.8 43.7 40.7 37 36.3 35.5 32 30 28.6 28 27.2 26.4 26.8 24.5 21.3 18.4 15.6 12.2 10.7 11.9 12 14.1 13.4 10.5 7.5 10.6 14.8 17.5 17.7 13 10.2 9.9 9.9 7.8 7.2 7.5 6.8 9.1 13 16.1 21.1 25.2 29.6 36 37.1 37.2 33.2 33.7 30.9 31.6 29.1 26.3 24.9 23.2 22.3 19.3 4 4.2 1.2 0.2 -1.1 -1.1 -1.1 -1.1 -1.1 -1.1 -1.1 -1.1 -1.1 -1.1 -1.1 -1.1 -1.1 -1.1 -1.1 -1.1 -1.1 -1.1 -1.1 -1.1 -1.1 -1.1 -1.1 -1.1 -1.1 -1.1 -1.1 -1.1 -1.1 -1.1 -1.1 -1.1 -1.1 -1.1 -1.1 -1.1 -1.1 -1.1 -1.1
210.2 214.7 219.4 222.2 223 222 220 217.4 213.8 209.4 202.8 197.3 192.1 186 181 176.6 175 174 174.5 177.5 177.9 179.3 178.8 174.7 169.3 162.9 159.7 152.5 146.3 141.4 134.8 129.4 122.6 114.3 118.1 125.3 129.3 131.1 128.3 114 100.4 90.9 98.3 107.1 112.1 116.2 120.5 120.6 118.8 117.2 122.7 131.6 139.1 144.6 149 153.1 157.3 158.9 158.1 155.4 154.5 154.4 154.9 153.1 151 149.3 147.5 147 145.5 142.7 138.3 132.3 127.2 122.3 117.2 111.8 105.2 99.3 92.9 86.5 80 75.5 69.2 61.8 55.3 47.6 43.2 41.7 45.6 56.4 65.4 75.4 87.2 103.2 109.4 106 98 82.7 69.3 60.7 53.3 46.7 41.6 38.2 33.6 32.6 30.1 28.6 26.3 23.1 23.6 22.1 21.2 21.1 20.2 18.2 15.5 13.4 13.6 15.4 18.6 19.2 17.1 14.5 10.8 8 9.7 13.7 18.5 19 14.7 12 11.5 10.3 9.5 9.4 8.9 7.9 7.7 13.7 18.7 20 22.7 30 35.7 39.3 38.9 37 35.4 33.6 31.7 28.2 25.7 24.2 22.8 20.6 15.2 4.3 4.4 0.6 -1.1 -1.1 -1.1 -1.1 -1.1 -1.1 -1.1 -1.1 -1.1 -1.1 -1.1 -1.1 -1.1 -1.1 -1.1 -1.1 -1.1 -1.1 -1.1 -1.1 -1.1 -1.1 -1.1 -1.1 -1.1 -1.1 -1.1 -1.1 -1.1 -1.1 -1.1 -1.1 -1.1 -1.1 -1.1 -1.1 -1.1 -1.1 -1.1 -1.1
203.5 211.6 215.8 218.5 218.9 218.5 216.4 214 210 203.9 198 195.4 191.2 186.7 182 177.8 171.9 168.9 167.7 170.9 173.9 177 177.8 176.4 172.1 166.9 162.1 156 148.2 143 137.3 129.2 122.8 117.1 111.3 117.9 122.9 125 121.9 109.2 97.1 94.5 105 113.5 121.8 126.3 130.2 129.8 127.5 125.2 126.7 133.7 141.4 147.1 151.5 155.3 161.3 166.4 163.9 161.6 162.4 161.8 159.9 159.1 157.6 155.9 153.7 150.4 146.9 142.4 138.1 132.2 127.1 122.2 117.3 112.5 105.3 99 93.1 85.7 77.7 70 63.2 58.4 52.6 47 43.1 41.7 43.6 54 62 70.2 81.8 94.9 107.1 110.3 104.1 90.1 73.3 61.8 58.3 48.3 42.4 37.7 33.1 29.8 27.6 25 24.1 22.7 23 22.1 20.6 20.2 17.3 16 17 17.9 17.7 20 22.6 19.2 16.4 13.8 10.5 8.5 10.1 12.7 18.1 20.1 17.8 15 12.7 11.8 11 10.4 10.2 8.6 8.4 12.3 21.1 22.2 26.5 31.2 35.6 36.7 37.4 35.8 34.2 31.8 30.6 26.9 24.6 23.1 21.8 19.2 15.9 4.3 5.6 -1.1 -1.1 -1.1 -1.1 -1.1 -1.1 -1.1 -1.1 -1.1 -1.1 -1.1 -1.1 -1.1 -1.1 -1.1 -1.1 -1.1 -1.1 -1.1 -1.1 -1.1 -1.1 -1.1 -1.1 -1.1 -1.1 -1.1 -1.1 -1.1 -1.1 -1.1 -1.1 -1.1 -1.1 -1.1 -1.1 -1.1 -1.1 -1.1 -1.1 -1.1
195 208.9 212.7 214.9 215.3 214.6 212.4 209 201.6 196.5 194.4 192.8 190 185.6 183.3 180.5 175.5 169.2 162.7 164.4 166.4 171 175.3 177.2 174.4 170.3 165 158.8 151.1 144.4 138.2 125.6 118.8 115.4 112.5 109.7 112.9 117.2 115.5 104.3 94.6 102.4 111.8 121.1 130.3 136.3 139.7 138.4 135.7 133.6 134.1 139.7 145.6 150.4 156.6 162.6 171.3 177.2 176.9 173.7 173.1 171.9 167.6 163.8 161.2 157.9 153.1 149.2 145.9 141.7 137.6 132.2 126.9 122 117.6 112.8 106 100.5 94.1 86.1 79.6 73.7 67.8 61 54.5 48 43.1 41.2 41.9 50.9 59.7 67.3 76.4 89.3 104.8 112.9 110.6 99.1 83 70.4 60.2 50.9 45 41.1 36.8 33.5 29.1 30.6 30.7 30.9 28.2 25.9 24.9 24.9 21.8 21.8 21.7 24.9 23.2 25 22.8 19 16.1 13.1 10.2 9.9 12.3 15.4 16.6 18.7 18.6 16.2 13.5 12.6 12.7 12.6 12.6 9.8 8.9 11.1 18.9 27.4 29.5 34.6 35.7 36.1 35 33.8 32.4 30 28.8 25.5 23.3 21.8 18.6 14.8 11.4 4.3 5.6 -1.1 -1.1 -1.1 -1.1 -1.1 -1.1 -1.1 -1.1 -1.1 -1.1 -1.1 -1.1 -1.1 -1.1 -1.1 -1.1 -1.1 -1.1 -1.1 -1.1 -1.1 -1.1 -1.1 -1.1 -1.1 -1.1 -1.1 -1.1 -1.1 -1.1 -1.1 -1.1 -1.1 -1.1 -1.1 -1.1 -1.1 -1.1 -1.1 -1.1 -1.1
193.9 203.7 209.9 212.2 212.4 211.1 206.4 199.2 194.3 192 189.9 188.5 187 185.1 184 181.5 177.8 172.3 165.5 156.9 160 164.7 170 175.6 175.5 172.5 167.5 161.4 154.1 146.8 140.2 132.1 126.8 122.9 115.9 109.2 104.1 104.2 103.1 98.7 98.1 107.6 116.3 125.4 135.1 142.4 146.3 146.7 143.6 142.2 144.6 146.6 151.8 157.2 162.9 168.5 178.3 186.2 188.2 186.5 183.9 179.3 172.9 167.5 162.2 157 152.3 148.1 144.7 140.2 135.8 131.2 126.8 123.2 119.6 115.1 108.4 102.9 97.3 91.7 85.6 79 72.9 65.3 57.6 49.9 44 40.4 41 48.5 56.9 65.1 73.6 84.6 98.7 113.4 115 106.5 92.2 72.5 62.3 56.8 51 45.9 41.6 36.5 31.2 34.2 36.3 34.3 30.3 26.3 29.4 29.6 27.9 29.1 28.8 29.3 29.6 26.6 23.1 19.3 15.9 12.9 10.4 13.1 16.1 17.3 17.7 18.9 18.6 17.3 15.5 15.1 14.2 14.4 13.3 11.3 10.3 11.5 20.4 30.1 34.2 35.4 35.7 33.9 31.9 30.9 29 27.4 26.1 24.1 20.8 18.6 16.1 14.5 12.5 4.3 -1.1 -1.1 -1.1 -1.1 -1.1 -1.1 -1.1 -1.1 -1.1 -1.1 -1.1 -1.1 -1.1 -1.1 -1.1 -1.1 -1.1 -1.1 -1.1 -1.1 -1.1 -1.1 -1.1 -1.1 -1.1 -1.1 -1.1 -1.1 -1.1 -1.1 -1.1 -1.1 -1.1 -1.1 -1.1 -1.1 -1.1 -1.1 -1.1 -1.1 -1.1 -1.1
191.1 196.8 203.9 208.8 208.2 204.3 198.4 193.4 190.2 187.6 185.7 184.4 183.2 182.5 181.7 180.9 178.3 173.6 167.9 160.5 155.1 159.2 164.6 170.6 175.7 174.3 169 163.4 157.7 152 146.2 139.7 132.9 127 119.5 113.5 110.2 108.5 106.7 102.8 101.8 107.7 115.6 124.3 134 142.5 148.8 152 152.3 151 151.4 153.9 158 162 165.6 169.8 179 191.4 195.1 194 189.7 183.9 176.8 168.1 161 156 151.3 146.6 142.7 138.4 134 129.5 126.2 122.9 118.8 114.4 110 105.7 101.3 97.5 90.6 84.3 77.3 70 62.6 52.3 44.6 40.7 40 46.3 54.1 63.6 72.5 81.8 93.6 109.8 116.3 110.9 99.1 79.8 68.2 62.3 55.1 51.3 45.2 39 34.5 38.2 40 35.9 31.4 27.1 29.2 33.6 35 33.5 36.3 34.9 30.8 26.2 23.4 19.7 16.7 12.8 11 16.2 20.5 21.9 20.2 21.1 21.2 19.2 19.1 17.4 17 16.3 16.1 15.7 12.8 12.9 17.1 22 30.2 35.7 33.8 33.8 32.4 28.6 27.3 24.2 24 20.9 20.1 20.4 20.6 19.7 19.6 13.4 -1.1 -1.1 -1.1 -1.1 -1.1 -1.1 -1.1 -1.1 -1.1 -1.1 -1.1 -1.1 -1.1 -1.1 -1.1 -1.1 -1.1 -1.1 -1.1 -1.1 -1.1 -1.1 -1.1 -1.1 -1.1 -1.1 -1.1 -1.1 -1.1 -1.1 -1.1 -1.1 -1.1 -1.1 -1.1 -1.1 -1.1 -1.1 -1.1 -1.1 -1.1 -1.1
188.4 193.9 198.4 200.3 201.1 198.7 194.7 191 186.5 183.5 181.4 180 178.5 179 178.8 178.8 177 174.3 169.1 162.3 153.8 154.8 160.1 168.1 173.5 175.4 171 166.8 164.8 159.3 154.2 147.6 137.9 131.1 124.9 119.4 120.3 120.2 117.5 107.3 101.5 111.2 116.3 122.8 131.4 139.8 148 152.3 156.7 158 158.2 159.3 163.5 167.6 171.2 176.7 184.6 193.8 199.3 198.2 191.3 184.7 177.2 167.9 161.3 155.6 150.9 146.2 141.7 136.9 132.1 127.8 122.8 119.1 116.4 113.6 110.4 107.3 103.5 98.9 93.9 87.7 79.7 70.3 62.9 54.8 47.8 42 39.1 42.5 53.6 63 71.9 80.2 90.3 103.6 116.1 114.6 102.8 86.2 74.4 64.9 58.3 52.2 45.9 40.5 39.7 42.8 41.8 36.9 31.9 29.3 34.4 38.9 41.6 40.3 37.9 35.7 30.5 25.8 23 20.1 16.6 13.1 12.2 17.7 22.7 23.5 24.8 24.5 25.1 23.4 22.8 19.8 20.5 20.1 18.9 17 14.3 12.9 18.5 23.3 29.8 35.2 35.1 34.4 32.9 31.3 28.8 26.7 24.2 23.3 23.4 23.4 23.3 22.9 22.2 5.4 1.3 -1.1 -1.1 -1.1 -1.1 -1.1 -1.1 -1.1 -1.1 -1.1 -1.1 -1.1 -1.1 -1.1 -1.1 -1.1 -1.1 -1.1 -1.1 -1.1 -1.1 -1.1 -1.1 -1.1 -1.1 -1.1 -1.1 -1.1 -1.1 -1.1 -1.1 -1.1 -1.1 -1.1 -1.1 -1.1 -1.1 -1.1 -1.1 -1.1 -1.1 -1.1
186 191.2 194.7 196.2 195.5 194.5 191.1 187.3 183.2 179.3 176.6 174.5 173.9 174.3 175.3 175.3 175 172.7 169.4 163.2 154.9 149 155.4 164.1 170.1 174.4 175 171.8 170.2 166.3 160.3 154.4 146.6 137.8 132.6 128.8 126.9 126.3 120.9 110.4 105.7 118.1 119.5 124.8 131.3 137.5 146.6 153.6 160.3 164.6 166 167.4 169.1 173.3 178 183.3 188.3 196 202.7 200.8 192.1 183.8 176.9 169.1 162.6 156.3 151.2 146.5 142.4 137.9 132.9 127.9 121.5 114.5 111.4 109 107.6 104 102.6 99 95.1 89.3 82.7 73.1 64.1 55.7 48.6 41.9 39 41.2 51.8 61.1 70.8 78.6 88.2 100.5 112 116.1 107 91.8 78 69.5 61.6 53 47.4 44.2 45.4 44.9 42 37.4 32.6 32.6 34.9 40.9 44.3 42.2 39.1 35.5 30.5 25.5 22.5 20 16 14.4 14.4 16.7 22.5 24.3 25.1 26.7 29 31.4 30.3 27.2 24.1 22.1 20.3 17.6 14.8 15.7 20.8 30.4 36.3 37.4 36.4 34.9 33.5 32.1 30.7 29.2 27.5 25.8 25.9 24.6 24.2 23.7 9.3 12.9 -1.1 -1.1 -1.1 -1.1 -1.1 -1.1 -1.1 -1.1 -1.1 -1.1 -1.1 -1.1 -1.1 -1.1 -1.1 -1.1 -1.1 -1.1 -1.1 -1.1 -1.1 -1.1 -1.1 -1.1 -1.1 -1.1 -1.1 -1.1 -1.1 -1.1 -1.1 -1.1 -1.1 -1.1 -1.1 -1.1 -1.1 -1.1 -1.1 -1.1 -1.1 -1.1
183.2 187.8 191 192.2 191.9 190.3 187 182.4 179.2 175.2 171.7 168.8 166.9 168.5 169.2 170.9 171.3 170.8 168.6 163.9 156.2 147.5 149.5 157.6 165.2 170.4 174.7 175.6 174.3 171.5 166.1 160.3 153.6 145.8 141.2 136.7 132.4 126.9 122 113.3 109.9 123.5 128.9 127.8 132.3 138.4 146.4 154.4 162.1 166.8 171.2 172.6 175.3 179 182.8 187.5 192.5 200.2 206.1 198.6 186.6 179.4 174.4 169.5 163.4 157 151.6 147.1 142.9 138.4 133.3 128.2 122 114.9 109.5 100.2 100.6 99.9 99.2 97.8 94.1 90.2 84.3 76.6 68.3 59.2 51.1 43.4 38.4 38.4 48 59.5 69.1 77.9 87.9 98.4 108.6 117 113.2 100.9 85.3 74.9 64.8 57.8 53.4 51.2 49.4 46.5 40.6 38.5 37.4 37.5 37.7 43.1 45.2 42.8 39.6 35 30.1 25.6 22.9 18.6 16.3 15.6 16.8 17.4 20.7 25.2 27.2 29.3 30.7 33.8 37.4 35.1 30.3 24.6 20.7 18.7 18.3 18.8 23.3 31.9 38.4 37.7 36.1 35 33.1 31.5 29.9 29.9 29.1 28.3 26.7 25.1 24.6 15.2 3.3 1.5 -1.1 -1.1 -1.1 -1.1 -1.1 -1.1 -1.1 -1.1 -1.1 -1.1 -1.1 -1.1 -1.1 -1.1 -1.1 -1.1 -1.1 -1.1 -1.1 -1.1 -1.1 -1.1 -1.1 -1.1 -1.1 -1.1 -1.1 -1.1 -1.1 -1.1 -1.1 -1.1 -1.1 -1.1 -1.1 -1.1 -1.1 -1.1 -1.1 -1.1 -1.1 -1.1
179.6 184.1 187.4 188 187.7 186.2 182.8 177.9 174.3 170.5 167.1 163.3 161.1 162.1 163.1 165.2 167 167.1 166 163.2 156.2 147.6 144 152.9 158.9 164.9 170.8 174.6 175.8 174.4 170.4 165.2 158.8 153.2 146.9 141.9 135.1 129.9 122.7 116 110.5 124.1 132.4 135.3 134.6 139.3 146.1 154.7 162.8 169 173.6 177.7 181.2 183.9 188.1 192.2 203.3 211.5 206.5 193.5 182.6 176 170.7 166.9 163 157.8 151.9 147.6 143.5 138.9 133.8 128.6 122.6 117.5 112.3 106.3 97.9 89 91.2 92.2 90.6 88.4 83.8 77.6 69.2 60.8 52.9 44.8 37.7 37.4 47.4 57.8 67.2 76.4 88 98.1 107.8 117.2 118.4 110.1 93.7 80.1 69.6 64.7 62.5 57.4 52.8 47.5 43.7 43.5 44.6 42.7 42.7 46.5 45.3 42.5 38.7 34.3 30 25.9 21.4 18 16.6 17.1 20.7 22.4 20.6 23.4 25.9 29 30.9 33.5 35.4 34.3 30 24.8 22.4 22 21.2 20.7 24.8 33.3 38.2 37.1 36.2 34.3 32.3 30.5 28.9 29.2 28.8 27.9 26.9 25.5 9.6 1.3 -1.1 -1.1 -1.1 -1.1 -1.1 -1.1 -1.1 -1.1 -1.1 -1.1 -1.1 -1.1 -1.1 -1.1 -1.1 -1.1 -1.1 -1.1 -1.1 -1.1 -1.1 -1.1 -1.1 -1.1 -1.1 -1.1 -1.1 -1.1 -1.1 -1.1 -1.1 -1.1 -1.1 -1.1 -1.1 -1.1 -1.1 -1.1 -1.1 -1.1 -1.1 -1.1 -1.1 -1.1
176 180.7 183.9 184.1 184.1 181.5 178.6 173.5 169.5 165.6 162.3 159.9 154.3 155.9 157 158.1 160.2 162.1 162.1 160.1 156.3 147.4 140.4 147.5 153.7 159.7 165.7 170.8 174.1 175.2 173.3 169.7 163.7 157.6 152.7 146.2 138.4 132.3 125.2 119.2 113.4 119.7 129.7 139.2 140.1 142.5 149.4 156.5 163.1 170.1 176 180.8 184.8 188.3 200.3 211 214.4 213.1 202.2 186.5 179.1 173.3 167.8 163.7 159.9 156.1 152.3 148.1 144.1 139.8 135 130.1 124.9 119.7 114.1 108.3 100.3 93 86 83.6 84.9 83.7 81.2 77 70.7 62.5 53.6 45.2 38.2 36.3 46.2 55.6 64.5 75 86.3 95.9 105.7 116.1 122.4 116.2 102.5 88.5 79.3 74.1 67.9 62.7 61 56.6 52.6 52.2 53 48.3 47.4 46.7 44.3 40.3 35.6 32 27.9 23.1 20.2 18.4 17.5 19.5 23.4 26.7 24.3 24.3 25 28.1 30.3 33.2 34.5 31.8 29.1 30.2 27.8 24 22.1 22.7 25.8 32.4 38.3 37.4 35.7 33.6 31.5 29.7 27.9 27.7 27.8 27.5 27.1 5.5 -1.1 -1.1 -1.1 -1.1 -1.1 -1.1 -1.1 -1.1 -1.1 -1.1 -1.1 -1.1 -1.1 -1.1 -1.1 -1.1 -1.1 -1.1 -1.1 -1.1 -1.1 -1.1 -1.1 -1.1 -1.1 -1.1 -1.1 -1.1 -1.1 -1.1 -1.1 -1.1 -1.1 -1.1 -1.1 -1.1 -1.1 -1.1 -1.1 -1.1 -1.1 -1.1 -1.1 -1.1 -1.1 -1.1
172 177.3 179 180.6 179.3 177.3 174 169.2 164.1 160.1 156.8 154.4 150.2 150.1 151 151.9 153.1 155.3 157.2 155.5 153.4 146.6 136.4 142.4 149 154.9 161 167 171.7 174.1 174.7 172.5 167.6 163 156.4 149.3 142.8 135.3 128.8 122.9 117.8 120.1 127.3 136.2 144.5 146.2 152.9 159.1 164.6 170.7 176.9 183.1 187.9 198.3 210.3 217.1 218 212.7 196.4 183.4 177.2 171 165.8 161.9 158.1 154.3 151.4 148.4 144.9 141.2 137.1 132.2 127 121.6 115.4 109.1 101.7 94.4 88 82.7 77 77.2 76.3 73.1 69.4 63 54.6 45.5 38.8 37.9 43.4 52.3 61.5 72.9 84 93.7 103.8 114.4 122.6 121.2 108.5 95.2 85.6 78.4 73.6 71 68.5 64.6 60.5 57.2 55.1 51.5 48.3 44.4 41.3 36.6 32.5 29.2 24.1 22.3 21.2 19.9 20 20.3 24.5 28.2 29.3 28.9 28.4 29.4 32.7 35.1 38.7 35.4 32.9 34.3 30.2 26.9 25.8 25.4 28.4 31.9 37.5 37.1 35 32.9 30.9 29 27.2 26.1 26.4 8.2 1.4 -1.1 -1.1 -1.1 -1.1 -1.1 -1.1 -1.1 -1.1 -1.1 -1.1 -1.1 -1.1 -1.1 -1.1 -1.1 -1.1 -1.1 -1.1 -1.1 -1.1 -1.1 -1.1 -1.1 -1.1 -1.1 -1.1 -1.1 -1.1 -1.1 -1.1 -1.1 -1.1 -1.1 -1.1 -1.1 -1.1 -1.1 -1.1 -1.1 -1.1 -1.1 -1.1 -1.1 -1.1 -1.1 -1.1 -1.1
168.2 173.7 175.1 176.7 175.6 173.4 169.2 165 159.9 154.8 151.2 148.7 145 144 144.9 145.9 146.5 149 151.1 150.7 147.9 140.6 135.4 138.2 142.9 149.1 155.9 162.5 168 172.3 174.4 174.9 169.8 165.1 159.4 152.7 146.3 139.4 132.3 126.7 122.5 125.5 130.1 134.2 141.5 149.8 154.7 160.9 166.9 172.7 178.5 184.6 190.9 204.9 214.7 218.6 217.2 208.1 194.3 180.6 174.9 168.7 164.1 160.2 156.4 153.5 150.7 147.6 144.5 141.2 137.3 132.9 128 123.4 117.4 111.7 104.2 96.6 90 83.4 76.6 69.8 67.5 65.9 62.9 57.5 50.8 44.1 39.5 37.1 42 50.6 59.2 69.9 80.7 90.2 99.9 110.7 119.1 120.7 114.2 101 90.4 80.7 76.3 73.6 70.4 66.4 62.5 58.2 52.1 49.5 46.5 41.5 35.4 31.5 28.7 26.9 24.7 24.8 24.7 23.7 20.9 21.1 24.3 30.9 34.9 37 36.3 35.6 36.8 44.5 47.3 45.4 38.5 37.2 32 27.3 28.8 28.3 30.8 41.7 37.7 36.5 34.4 32.2 30.2 28.2 26.6 24.6 3.9 -1.1 -1.1 -1.1 -1.1 -1.1 -1.1 -1.1 -1.1 -1.1 -1.1 -1.1 -1.1 -1.1 -1.1 -1.1 -1.1 -1.1 -1.1 -1.1 -1.1 -1.1 -1.1 -1.1 -1.1 -1.1 -1.1 -1.1 -1.1 -1.1 -1.1 -1.1 -1.1 -1.1 -1.1 -1.1 -1.1 -1.1 -1.1 -1.1 -1.1 -1.1 -1.1 -1.1 -1.1 -1.1 -1.1 -1.1 -1.1 -1.1
165.2 170.7 172.1 173.2 172.2 169 165.4 160.6 155.3 150.2 145.4 143.3 139.4 138.2 139.3 140.7 142.1 143.2 142.5 139.4 136.2 133.8 132.9 135.8 136.1 142.6 149.3 156.5 162.7 169.1 173.6 175.5 173.8 168.6 162.6 156.3 150.4 144.3 136.4 130.4 127.2 132.4 137.3 141.5 143.6 149.8 159 165.9 170.4 175.4 181.2 187 199.6 210.9 215.6 218.2 214.1 203.7 188.5 178.2 172.2 166.4 162.4 158.2 155 152.2 149.3 146 142.8 139.4 136.2 132 128.5 124.1 118.9 113.6 108.1 101.2 94.1 87.7 80.8 74 66.1 60.5 53.5 50.2 45.5 42.2 39.8 37.1 38.7 47.9 56.3 66.2 76.8 85.4 93.5 101.6 110.1 117.7 112.4 102.6 88.5 76.3 69.2 67.3 67.1 65 61.5 56.7 49.2 41.9 36.8 33.5 32 30.5 31.7 31.6 31.7 31.4 31.3 28.2 24.5 23.6 24.6 30.5 33.2 36 38.3 39.7 42.3 48.4 47.1 46.2 44 40.4 36.2 31.7 29.8 31 31 40.3 36.5 36.1 34 31.8 29.7 27.1 9.4 1.4 -1.1 -1.1 -1.1 -1.1 -1.1 -1.1 -1.1 -1.1 -1.1 -1.1 -1.1 -1.1 -1.1 -1.1 -1.1 -1.1 -1.1 -1.1 -1.1 -1.1 -1.1 -1.1 -1.1 -1.1 -1.1 -1.1 -1.1 -1.1 -1.1 -1.1 -1.1 -1.1 -1.1 -1.1 -1.1 -1.1 -1.1 -1.1 -1.1 -1.1 -1.1 -1.1 -1.1 -1.1 -1.1 -1.1 -1.1 -1.1 -1.1 -1.1
165.6 167.4 168.1 168.8 168.5 165.2 161.2 155.4 150 144.5 139.4 136.7 132.5 130.6 131.2 133.5 134.7 133.8 132 129.8 129.9 135.4 141.2 143.7 145.1 142.1 144.1 152.9 159.1 165.8 171.9 175.6 176.1 173.5 169.3 163.6 156.1 149.3 141.8 134.2 133 137.7 142.2 147.1 152.7 153.6 159.7 169.9 174.2 179.5 184.5 190.8 208.3 214.4 217.2 217.6 210.9 200.3 184.2 176.1 169.9 163 159.7 156.6 153.1 150 146.8 143.4 140.2 136.8 133.2 130.1 126.7 122.5 119 114.1 109.2 104 98.3 92.7 86.6 80 73.6 67.4 60.7 56.3 51.7 46.2 41.1 37.4 35.4 44.4 52.2 62.2 72.6 80.4 87.1 93.1 102 111.1 109.9 98.5 86.6 74.7 66.3 59.5 57.3 55.6 52.3 50.6 44.2 37.7 37.7 39.3 41.8 39.6 44.7 44.8 41.6 37.7 36 31.3 26.9 24.7 25.1 28.3 30.8 33.7 37 40.2 42.7 43.4 40 41 42.6 43.6 42.7 40 34 32.9 31.4 32.7 35.7 35.5 33.4 31.4 27.9 5.5 -1.1 -1.1 -1.1 -1.1 -1.1 -1.1 -1.1 -1.1 -1.1 -1.1 -1.1 -1.1 -1.1 -1.1 -1.1 -1.1 -1.1 -1.1 -1.1 -1.1 -1.1 -1.1 -1.1 -1.1 -1.1 -1.1 -1.1 -1.1 -1.1 -1.1 -1.1 -1.1 -1.1 -1.1 -1.1 -1.1 -1.1 -1.1 -1.1 -1.1 -1.1 -1.1 -1.1 -1.1 -1.1 -1.1 -1.1 -1.1 -1.1 -1.1 -1.1 -1.1
163.4 164.8 164.8 164.8 164.9 161.6 156.7 150.1 144.3 138.5 132.6 128.5 127.3 123.9 124.3 124.9 125.2 124.8 125.6 131 136.1 142.2 147.6 151.3 151.2 149.3 145.5 149.3 156.6 162.9 169.6 175.6 177.6 177.6 175.1 170.9 163.8 156.1 146.3 137.1 138.5 146.5 150.9 153.9 160.5 164.9 163.9 170.1 177.1 183.2 188.1 202.8 213.4 215.8 217.1 215.1 209.2 195.6 181.7 174.3 167.7 161.8 157.9 155.2 151.4 147.8 144.4 141 137.6 134.3 131.2 127.5 123.8 119.4 116.5 112.4 108.1 103.9 99 94 89 84.1 78.9 73.7 68.3 63.2 57.2 50.3 42.7 36.7 35.1 39.9 48.1 58.2 67.1 74.2 82.2 87.9 94.6 103.2 105.4 95 84 75.3 67.9 58.8 52.6 49.4 45.7 42.9 41.9 43.7 51 51.5 55.5 51 54.7 53.8 48.9 43.4 36.4 32.9 30 26.7 25.7 27.9 31.2 33.2 35.8 37.4 39.1 37.1 36.9 37.8 38.3 42.3 41.9 39.5 36.1 33.6 29.5 33 35.9 34.9 32.7 28.1 6 -1.1 -1.1 -1.1 -1.1 -1.1 -1.1 -1.1 -1.1 -1.1 -1.1 -1.1 -1.1 -1.1 -1.1 -1.1 -1.1 -1.1 -1.1 -1.1 -1.1 -1.1 -1.1 -1.1 -1.1 -1.1 -1.1 -1.1 -1.1 -1.1 -1.1 -1.1 -1.1 -1.1 -1.1 -1.1 -1.1 -1.1 -1.1 -1.1 -1.1 -1.1 -1.1 -1.1 -1.1 -1.1 -1.1 -1.1 -1.1 -1.1 -1.1 -1.1 -1.1 -1.1
160.4 160.4 160.6 160.7 160.4 157.8 152.5 144.9 137.6 132.5 126 121.5 119.4 116.3 116.9 118.2 121.3 127 131.8 137 142.4 147.5 151.7 155.3 156.5 152.7 150.3 149.2 154.5 161.3 168.5 175.2 179.8 181 178.8 175.9 170.5 161.8 150.8 142.6 147.7 155.7 161.5 164.5 169.4 175 175.3 175.6 180.8 186.9 195.5 208.4 216.2 217.5 218.1 214.5 208.9 190.5 180.9 173 165.6 159.8 156.5 153.6 149.9 146.3 142.5 138.7 134.9 131.8 128.3 123.9 120.4 116.7 113.7 109.9 105.9 101.8 98 93.4 89.3 84.3 79.8 74.9 70.1 65.9 60 52.7 44.6 38 34.4 36.1 46.5 56.1 61.7 71.3 78.4 84.1 90.7 97.4 104.3 101.4 89.8 80 70 61.4 57.1 57 50.3 48.5 48.5 52.9 59.6 64.1 66.9 64.2 62.3 56.9 50.2 43.5 39.4 36 31.9 29.4 28.7 32.4 33.7 33.5 33.9 35 36 35.7 34.4 32.2 32.6 36.2 38.2 38.1 35.7 31.5 27.6 30.2 35 34.2 22.4 2.3 -1.1 -1.1 -1.1 -1.1 -1.1 -1.1 -1.1 -1.1 -1.1 -1.1 -1.1 -1.1 -1.1 -1.1 -1.1 -1.1 -1.1 -1.1 -1.1 -1.1 -1.1 -1.1 -1.1 -1.1 -1.1 -1.1 -1.1 -1.1 -1.1 -1.1 -1.1 -1.1 -1.1 -1.1 -1.1 -1.1 -1.1 -1.1 -1.1 -1.1 -1.1 -1.1 -1.1 -1.1 -1.1 -1.1 -1.1 -1.1 -1.1 -1.1 -1.1 -1.1 -1.1 -1.1
153.7 153 153.4 154.3 154.5 152.4 147 138.8 130.6 123 117.4 114.4 112.6 112.8 119.3 123.2 127.7 133.2 138.3 143.1 147.9 152.2 156.1 159 161 159.6 155.2 151.6 153.8 160.8 168.2 174.4 180.4 183.2 182.8 181.1 175.5 165.8 154.6 147.4 157.2 165.1 171.3 176.9 181.3 185.9 186.5 187 190.1 195.9 203.8 213.2 218 218.1 217.2 212.8 204 187.1 179.5 171.2 163.7 158.5 154.6 151.5 147.4 143.3 139.4 135.6 132 128.5 125.4 120 115.4 111.9 108.4 106 101.9 98.1 94.8 91.6 86.8 81.5 77 71.8 69.3 65.3 60 52.4 44.8 39.7 34 34.3 43.6 50.6 59.4 67 72.9 80.2 86.8 93.6 101.5 103.3 92.7 81.8 73.1 66.1 61.6 60.2 56.2 57 53.7 60.6 68.2 76.4 77.2 73.2 67.1 60.5 55.1 49.8 43.5 38.4 33.6 31.7 31.9 33.4 34.9 34.3 34.2 32.6 31.9 30.9 30.9 29 29 30.2 34.2 34.2 33.5 30.5 25.4 24 29.2 19.7 -1.1 -1.1 -1.1 -1.1 -1.1 -1.1 -1.1 -1.1 -1.1 -1.1 -1.1 -1.1 -1.1 -1.1 -1.1 -1.1 -1.1 -1.1 -1.1 -1.1 -1.1 -1.1 -1.1 -1.1 -1.1 -1.1 -1.1 -1.1 -1.1 -1.1 -1.1 -1.1 -1.1 -1.1 -1.1 -1.1 -1.1 -1.1 -1.1 -1.1 -1.1 -1.1 -1.1 -1.1 -1.1 -1.1 -1.1 -1.1 -1.1 -1.1 -1.1 -1.1 -1.1 -1.1 -1.1 -1.1
146.6 143.2 144.8 149 148.6 145.5 140 131.6 122.8 115 109.5 109.9 114.6 120 125.1 129.3 132.5 137.4 142.6 147.4 152.3 157 160.4 163.5 165.9 165.6 160.7 156 155.5 160.8 167.5 173.5 180.1 185.7 185.9 185.3 180 170.7 159.5 153.6 165 173.9 181.2 187.5 193.3 196.5 198.3 199.4 201.4 205.3 211.1 216.2 219.4 219 216 211.3 200.9 184.9 177.6 170 162.5 157.8 152.4 148.9 145.4 141.3 136.9 133 129.7 126 122.9 118.8 113.2 108.4 103.1 100.7 96.4 93.4 89.6 86.5 82.5 77.4 70.7 66.4 64.1 62.4 58 52.5 45.3 38.6 34.6 33.1 37.7 45 53.4 62.4 68.7 75.9 82.4 91.6 99.9 104.7 98.2 87.3 78.5 71.4 66.8 64.3 66.8 67 60.3 69.2 78.5 83.7 83.1 77 71.5 65.4 59.4 52.2 45.4 38.9 36.4 36.4 35.9 34.3 35.1 35 34 32.4 29.8 28.2 27 26.6 26.3 26.3 27.8 29.9 29.4 28.4 25.9 21.4 14.9 -1.1 -1.1 -1.1 -1.1 -1.1 -1.1 -1.1 -1.1 -1.1 -1.1 -1.1 -1.1 -1.1 -1.1 -1.1 -1.1 -1.1 -1.1 -1.1 -1.1 -1.1 -1.1 -1.1 -1.1 -1.1 -1.1 -1.1 -1.1 -1.1 -1.1 -1.1 -1.1 -1.1 -1.1 -1.1 -1.1 -1.1 -1.1 -1.1 -1.1 -1.1 -1.1 -1.1 -1.1 -1.1 -1.1 -1.1 -1.1 -1.1 -1.1 -1.1 -1.1 -1.1 -1.1 -1.1 -1.1 -1.1
142.1 133.9 138.2 142.8 142.7 138.4 130.5 121.5 114.7 107.7 106.6 113.7 119.7 125 129 134.3 138.1 142.5 147 151.7 156.6 161.7 165.3 168.1 170.7 171 167.3 161.8 158.2 162 169.5 176.5 182.7 188.6 190.8 189.7 186 178.6 167 160.3 171.3 181.3 188.8 198.1 203.1 206.4 207.8 207.7 208.5 211.8 215.4 218.6 220.1 220.1 217.1 211.2 199.8 185 176.8 169.4 161.9 155.5 150.2 146.6 142.9 139.2 135.7 131.4 127.2 123.3 118.1 114.7 110.8 105.3 98.6 93.4 89.1 86.5 84.2 80.1 74.7 69.9 63.5 59.6 55.9 52.3 49.5 44.7 41.5 39.4 36.9 34.5 33.1 39 49.2 58.5 65.9 72.7 79.7 91.5 101.1 107.1 102.4 93 85.4 78 71.1 74 78.8 76.8 68.8 77 87.6 89.3 85.9 80.2 73.4 67.4 57.8 52 44.4 42.1 42.4 39.9 37.4 34.9 34.2 33.8 33.1 31.2 30.1 27.1 25.2 24.6 23.9 22.8 24.4 25.7 26.9 25 24 5.9 -1.1 -1.1 -1.1 -1.1 -1.1 -1.1 -1.1 -1.1 -1.1 -1.1 -1.1 -1.1 -1.1 -1.1 -1.1 -1.1 -1.1 -1.1 -1.1 -1.1 -1.1 -1.1 -1.1 -1.1 -1.1 -1.1 -1.1 -1.1 -1.1 -1.1 -1.1 -1.1 -1.1 -1.1 -1.1 -1.1 -1.1 -1.1 -1.1 -1.1 -1.1 -1.1 -1.1 -1.1 -1.1 -1.1 -1.1 -1.1 -1.1 -1.1 -1.1 -1.1 -1.1 -1.1 -1.1 -1.1 -1.1 -1.1
139.9 130.2 128.4 134.2 135.6 131 121.8 113.4 106.7 104.9 110.5 119.6 124.8 130.6 136.5 141.4 146.6 150.7 152.8 156.5 161.8 166.7 170.1 172.8 175.5 176.3 174.1 168.4 163.2 164.8 171.6 179.3 185.4 193.1 197 197.2 195.6 188.9 179.6 171.7 176.9 187 196 204.5 209.9 213.6 214.1 213.7 214.4 216.1 218.3 219.3 220.6 220.7 217.2 210.8 199.6 184.4 177.2 169.4 160.7 153.8 147.6 143.5 139.8 136.1 132.5 128.9 125.7 123.2 117.7 111.9 105.1 101 96 89.8 82.4 78.7 75.5 70.1 64.4 60.9 56.5 52.4 49.1 49.1 46.2 42.5 40.7 40.3 38.6 34.6 32.2 35.4 44.3 55.4 62.6 69.9 77 88.9 102.9 108.8 105.1 98.2 90.4 82.3 78.5 83.7 88.2 88.3 80.6 87 94.5 93.1 87.5 77.3 68.1 60.9 55.3 51.6 51 47 44.7 40.4 37.7 35.2 33 32.6 31.5 29.7 29 28.2 25.5 23.5 22.8 21.4 20.9 23.5 22.8 23.9 -1.1 -1.1 -1.1 -1.1 -1.1 -1.1 -1.1 -1.1 -1.1 -1.1 -1.1 -1.1 -1.1 -1.1 -1.1 -1.1 -1.1 -1.1 -1.1 -1.1 -1.1 -1.1 -1.1 -1.1 -1.1 -1.1 -1.1 -1.1 -1.1 -1.1 -1.1 -1.1 -1.1 -1.1 -1.1 -1.1 -1.1 -1.1 -1.1 -1.1 -1.1 -1.1 -1.1 -1.1 -1.1 -1.1 -1.1 -1.1 -1.1 -1.1 -1.1 -1.1 -1.1 -1.1 -1.1 -1.1 -1.1 -1.1 -1.1 -1.1
137.7 127.8 117.7 122.9 126.1 120.9 110.3 103.7 103.2 107.9 117.8 127.9 135.1 141.6 145.6 150.1 155.1 159.6 162.7 165 167.4 171.8 175.6 177.6 180.1 180.4 178.8 173.9 167.8 168.7 174 180.9 189.1 200.5 203.5 204.2 203.7 200.2 190.6 186.2 183.7 190.8 199.9 208.7 215 218.9 219.1 218.6 220 219.8 220.4 220.5 221.4 220.5 216.6 208.1 193.1 182.4 172.6 163.7 155.8 149.7 145.4 140.2 137 132.1 127 128 124.7 121.8 117.9 113.1 106.8 99.7 90.2 85.5 77.9 71.5 67.1 68.2 67.3 66.1 64.6 64 60.9 58.4 56 51.9 48.2 44.4 41.8 36.6 31.7 32.4 40.2 51.1 59 66.2 75 87.5 100.6 106.8 105.1 100.1 94.5 88.8 88.2 89.1 91.3 92.8 93.1 97.7 99.6 96.3 89.3 81.6 74.1 68.1 64.9 60.6 55.3 50.3 45.1 41.8 38.4 35 32.2 30.6 29 28.1 27.7 26.6 24.3 24.2 21.2 20 19.9 20.2 21.7 4.1 -1.1 -1.1 -1.1 -1.1 -1.1 -1.1 -1.1 -1.1 -1.1 -1.1 -1.1 -1.1 -1.1 -1.1 -1.1 -1.1 -1.1 -1.1 -1.1 -1.1 -1.1 -1.1 -1.1 -1.1 -1.1 -1.1 -1.1 -1.1 -1.1 -1.1 -1.1 -1.1 -1.1 -1.1 -1.1 -1.1 -1.1 -1.1 -1.1 -1.1 -1.1 -1.1 -1.1 -1.1 -1.1 -1.1 -1.1 -1.1 -1.1 -1.1 -1.1 -1.1 -1.1 -1.1 -1.1 -1.1 -1.1 -1.1 -1.1 -1.1
134.8 129.2 115 110.7 115.7 108.2 101.1 100.8 106.3 119.2 130.1 137.8 144.7 149.7 153.4 157.4 162 166 169.5 172 174.9 178.6 181.6 183.8 184.2 184 181.9 177.1 170.9 173 178.2 184 193.7 205 208.3 209.8 209.9 209.8 205.2 200.7 197.1 198.4 204.3 213.5 219.1 222.3 222.3 222.2 222.2 222 222.3 222 221.5 220.7 217.8 211.3 196.5 184.6 169.2 159.8 150 145 141.7 136.9 133.8 128.2 122.1 124.4 122.5 120.1 114.9 110.5 106 99.2 92.2 84.4 73.4 71.7 78.3 79.4 79.2 77.4 76.3 74.3 71.8 67.6 64.1 59.4 56.4 50.4 43.9 38.5 33.3 31.5 37 48.1 55.2 62.3 72.7 84.9 96.2 100.8 100.9 98.2 95.1 91 88.7 85.7 86.4 89 92.6 96.5 99.2 97 92.7 87.7 81.7 76.4 70.9 64.8 60.4 54.1 48.8 44.9 39.7 36.5 32.8 29.3 27.1 26.6 24.9 24.9 24.3 22.8 21.7 19 18.1 15.4 3.2 -1.1 -1.1 -1.1 -1.1 -1.1 -1.1 -1.1 -1.1 -1.1 -1.1 -1.1 -1.1 -1.1 -1.1 -1.1 -1.1 -1.1 -1.1 -1.1 -1.1 -1.1 -1.1 -1.1 -1.1 -1.1 -1.1 -1.1 -1.1 -1.1 -1.1 -1.1 -1.1 -1.1 -1.1 -1.1 -1.1 -1.1 -1.1 -1.1 -1.1 -1.1 -1.1 -1.1 -1.1 -1.1 -1.1 -1.1 -1.1 -1.1 -1.1 -1.1 -1.1 -1.1 -1.1 -1.1 -1.1 -1.1 -1.1 -1.1 -1.1 -1.1
129.7 127.2 118.8 107.6 102.2 99.6 99 102 114.6 129.8 136.1 141.5 146.7 152.9 157.8 162.1 165.5 168.9 172.6 176.6 180.2 182.9 186 188.4 188.7 188 184.7 180 175 178.5 183.3 192 201.9 207.6 210.8 214 215.5 216.1 213.9 212.9 210.7 210.8 214.3 218.6 222.6 223.7 223.9 223.7 223.8 223.7 223.1 222.3 221.4 220.5 219.2 213.8 201.3 181.5 175.8 171.1 164.8 153.8 139.6 130 127.4 125.8 112 120.4 118.6 117.1 112.6 107.4 102 95 87.4 78.7 78.8 88 92.3 88.9 88 86.5 84.5 82 78.5 74.4 70.3 64.8 58.5 53.6 45.4 40.6 35.9 28.4 33.3 43.8 51.1 58.8 68.4 79.7 89.2 91.9 93.8 92.1 89.6 86.8 81.8 76.8 77.8 79.4 84.8 89.8 92.6 91.8 89.3 87.1 84.3 79.2 74.9 69.9 64.1 59.4 53.7 45.8 43.3 39.2 35.5 30.2 27.5 26.1 24.3 24.9 22.8 21.1 20.5 17.7 11.3 -1.1 -1.1 -1.1 -1.1 -1.1 -1.1 -1.1 -1.1 -1.1 -1.1 -1.1 -1.1 -1.1 -1.1 -1.1 -1.1 -1.1 -1.1 -1.1 -1.1 -1.1 -1.1 -1.1 -1.1 -1.1 -1.1 -1.1 -1.1 -1.1 -1.1 -1.1 -1.1 -1.1 -1.1 -1.1 -1.1 -1.1 -1.1 -1.1 -1.1 -1.1 -1.1 -1.1 -1.1 -1.1 -1.1 -1.1 -1.1 -1.1 -1.1 -1.1 -1.1 -1.1 -1.1 -1.1 -1.1 -1.1 -1.1 -1.1 -1.1 -1.1 -1.1 -1.1
124.3 121.7 116.4 110.6 100 97.5 98 108.9 119.9 128.1 134.8 139.1 145.2 150.9 156.5 161.5 164.8 168.5 173.1 176.3 182.3 186.9 190 192.6 194.2 191.3 186.8 182.3 179.5 183.8 192.5 200.2 206.3 211.9 216.5 217.9 219.2 220.5 221.2 220.1 218.7 219.5 219.9 222.8 224.4 224.7 224.4 224.2 224 223.4 222.5 221.6 220.7 219.4 217.8 213.3 206.7 195.1 186.2 176.5 165.3 156.8 142.5 130.1 123.6 116.8 109.3 109.5 109.5 109.6 107.4 104.2 99.2 92.3 84 79.6 92.7 100.2 100.7 98.2 95.8 94 91.3 88.1 83.5 78.5 73.2 68 61.5 55.9 47.9 41.9 37.9 30.8 31.9 38.4 45.7 53.7 62.5 73.2 80.4 82.3 82.6 82.2 79.2 78 75.7 66.4 66.2 69.7 73.7 76.9 81.4 82.1 74.9 78.7 80.3 78.9 76.3 72.7 68 63.9 58.8 52.6 46.2 40.8 36.4 32.9 30.2 27.1 26.9 25 22.2 20.8 19.8 10.6 2.5 -1.1 -1.1 -1.1 -1.1 -1.1 -1.1 -1.1 -1.1 -1.1 -1.1 -1.1 -1.1 -1.1 -1.1 -1.1 -1.1 -1.1 -1.1 -1.1 -1.1 -1.1 -1.1 -1.1 -1.1 -1.1 -1.1 -1.1 -1.1 -1.1 -1.1 -1.1 -1.1 -1.1 -1.1 -1.1 -1.1 -1.1 -1.1 -1.1 -1.1 -1.1 -1.1 -1.1 -1.1 -1.1 -1.1 -1.1 -1.1 -1.1 -1.1 -1.1 -1.1 -1.1 -1.1 -1.1 -1.1 -1.1 -1.1 -1.1 -1.1 -1.1 -1.1 -1.1
118.8 116 110.6 104.6 97.1 96 99.3 109.5 116.2 122.1 130.2 135.3 141.8 147.4 152.6 157.6 161.4 166.6 171.9 176.9 182.9 188.4 191.6 195.1 197 195.3 190.9 185.6 184.6 192.2 199.7 205.2 210.7 216.2 220 221.6 222.8 223.9 223.9 223.8 223.5 223.8 224.9 224.9 225.1 225.2 225 224.5 223.8 222.8 221.8 220.9 219.5 217.9 216.3 213 210.1 198.3 183.2 170.6 159.5 146.7 143.8 142.3 136.9 123.5 122.3 112.6 100.8 97.5 95 93.3 90.1 85.8 82.6 95.7 104 112.5 110.6 105.8 101.4 99.3 95.7 91 86.3 81.1 75.9 70.6 64.8 58.3 51.7 44.3 38.4 33.7 26.2 32 40.5 47.2 56 65.1 69.2 71.1 71.7 72.6 69.6 66.9 65.3 57.4 55.1 58.9 59.9 62.3 67 69.3 61.6 66 70.8 72.2 71.1 69.5 69.4 65.9 62.3 57.9 51.6 44.6 40.3 37.2 33.2 30.4 28.7 26.2 25.2 23.6 16.6 2.9 -1.1 -1.1 -1.1 -1.1 -1.1 -1.1 -1.1 -1.1 -1.1 -1.1 -1.1 -1.1 -1.1 -1.1 -1.1 -1.1 -1.1 -1.1 -1.1 -1.1 -1.1 -1.1 -1.1 -1.1 -1.1 -1.1 -1.1 -1.1 -1.1 -1.1 -1.1 -1.1 -1.1 -1.1 -1.1 -1.1 -1.1 -1.1 -1.1 -1.1 -1.1 -1.1 -1.1 -1.1 -1.1 -1.1 -1.1 -1.1 -1.1 -1.1 -1.1 -1.1 -1.1 -1.1 -1.1 -1.1 -1.1 -1.1 -1.1 -1.1 -1.1 -1.1 -1.1 -1.1
109.3 106.2 102.5 95.2 95 95.1 99.9 106.7 111.7 117.7 125.2 131.5 137.8 143.5 148.6 154.2 159.1 164.6 170.6 176.5 182.4 188.2 192.7 197.2 200.8 201.4 196 190.8 190.7 199 203.8 209.3 214.9 219.3 222.7 224.8 226.4 226.6 226.5 226.2 225.9 225.1 225.2 224.2 224 224.4 224.2 223.5 222.8 222.1 221.1 219 217.8 215.8 213.9 213 210.2 204.5 188.5 175.1 167.4 162.5 162.8 156.6 140.5 136.5 133.8 125.1 113 108.2 105.6 101.9 97.8 100.1 104.2 108.4 120.1 118.1 115.6 112.3 107.5 101.6 96.9 92.5 87.1 82.2 77 72.4 66.4 61.7 54.2 47 41 34.9 29.9 26.2 32.6 40.5 47.1 54.1 59.3 61.6 63.3 63.3 60.9 57.7 53.3 46.6 46.6 49.7 50 49.9 52.9 54.1 49.8 51 54.1 56 59.1 61.1 65.2 64 62.6 59.4 54.6 48.4 43.6 39.3 36.6 32.8 29.6 27.5 26.5 20.7 3.8 -1.1 -1.1 -1.1 -1.1 -1.1 -1.1 -1.1 -1.1 -1.1 -1.1 -1.1 -1.1 -1.1 -1.1 -1.1 -1.1 -1.1 -1.1 -1.1 -1.1 -1.1 -1.1 -1.1 -1.1 -1.1 -1.1 -1.1 -1.1 -1.1 -1.1 -1.1 -1.1 -1.1 -1.1 -1.1 -1.1 -1.1 -1.1 -1.1 -1.1 -1.1 -1.1 -1.1 -1.1 -1.1 -1.1 -1.1 -1.1 -1.1 -1.1 -1.1 -1.1 -1.1 -1.1 -1.1 -1.1 -1.1 -1.1 -1.1 -1.1 -1.1 -1.1 -1.1 -1.1 -1.1
98 94.2 92.9 92.3 93.5 97.2 100 105 109.3 114.9 120.5 128.4 134.8 139.7 146 151.2 157.5 163.4 169.4 175.4 181.4 187.7 192.6 198.6 205.8 206.4 201.3 196.1 194.8 203.5 207.8 213.4 217.9 222.2 224.8 227 228.5 228.4 228.1 227.9 227.5 226.6 224.8 223.5 223.3 223.2 222.7 222.2 221.5 221 219.3 217.2 213.6 211.4 211 211.1 209.1 205.5 201 191.8 186.3 179.9 172.9 160.3 147.3 149.5 141.7 128.5 127.6 119.7 120.3 118.2 114.6 117.5 125 127.4 125.5 122 117.1 112.5 108.3 103.5 98.6 93 87 82.4 77.5 73.2 68.5 63 56.8 49.7 43.7 37.6 31.4 27.6 26.1 32 41.2 44.9 50.1 51.7 54.5 53.9 53.4 49.8 40.5 37.6 40.6 40.3 41.1 41.5 39.7 39.4 37.5 36.8 39.7 42.5 43.1 48.5 53.2 55.6 56.1 52.7 52.1 47.3 42.9 36.3 32.8 33 28.4 24.7 24.5 5.8 -1.1 -1.1 -1.1 -1.1 -1.1 -1.1 -1.1 -1.1 -1.1 -1.1 -1.1 -1.1 -1.1 -1.1 -1.1 -1.1 -1.1 -1.1 -1.1 -1.1 -1.1 -1.1 -1.1 -1.1 -1.1 -1.1 -1.1 -1.1 -1.1 -1.1 -1.1 -1.1 -1.1 -1.1 -1.1 -1.1 -1.1 -1.1 -1.1 -1.1 -1.1 -1.1 -1.1 -1.1 -1.1 -1.1 -1.1 -1.1 -1.1 -1.1 -1.1 -1.1 -1.1 -1.1 -1.1 -1.1 -1.1 -1.1 -1.1 -1.1 -1.1 -1.1 -1.1 -1.1 -1.1 -1.1
90.1 87.9 90.3 91.4 94.6 97 99.9 104.5 108.9 114.3 120 127.5 132.7 138.2 144.5 149.6 156.6 163 168.6 174.6 180.5 187.1 192.6 198.2 206.2 207.9 207.2 202.8 200.1 206.7 211.9 216.3 220.7 224.5 226.4 228.3 229.9 230 229.8 229.5 228.5 226.3 224.3 222.7 221.3 221.1 221 220.6 220.1 218.8 216.1 212.4 207.9 203.2 204.1 206 205.5 203.4 202.2 198.3 192.4 188.3 183.1 169.3 161.9 161.5 147.9 137.6 133.3 132 131.6 129.6 130.1 132.8 132.1 129.9 125.2 119.7 114.7 111.6 106.8 102.1 97.1 91.8 86.1 78.5 73.8 69.4 65.2 61.8 56.4 52.4 46.2 39.8 33.4 29.4 25.1 27.6 33.2 38 40 42.9 45.8 44.2 44.1 41.1 34.2 30.4 33.3 32.3 33.4 33.6 32.7 28.6 27.3 27.2 27.7 30.1 29.7 33.8 36 38.9 40.4 43.5 40.8 36.7 41.8 36.1 28.5 28 27.5 26 10.5 -1.1 -1.1 -1.1 -1.1 -1.1 -1.1 -1.1 -1.1 -1.1 -1.1 -1.1 -1.1 -1.1 -1.1 -1.1 -1.1 -1.1 -1.1 -1.1 -1.1 -1.1 -1.1 -1.1 -1.1 -1.1 -1.1 -1.1 -1.1 -1.1 -1.1 -1.1 -1.1 -1.1 -1.1 -1.1 -1.1 -1.1 -1.1 -1.1 -1.1 -1.1 -1.1 -1.1 -1.1 -1.1 -1.1 -1.1 -1.1 -1.1 -1.1 -1.1 -1.1 -1.1 -1.1 -1.1 -1.1 -1.1 -1.1 -1.1 -1.1 -1.1 -1.1 -1.1 -1.1 -1.1 -1.1 -1.1
87.4 89.5 91.4 92.6 95.4 97.2 101.6 105.2 108.6 114.2 120.2 126.1 131 136.1 141.8 148.2 155 160.6 166.8 173.3 178.9 184.8 190.7 198.1 206.1 209.1 209.6 207.6 205.9 209.8 214.7 218.7 222.5 225.4 227.5 229.5 231.3 231.6 231.4 230.3 227.9 225.5 222.8 219.8 217 215.3 216.1 217.1 217 216.4 213.7 208.6 200.5 189.6 190.4 193.5 195.1 194.8 194.2 195 192 190.5 190 182.8 180.3 174.4 163.4 154 150.1 148.3 147.3 144.6 140.6 136 131.7 126 121.1 115.1 109.5 104.8 100.6 96.2 91.8 83 74.7 67.7 60.3 54.8 51.5 48.8 48.9 48.6 47.3 40.8 34.4 29.4 25.9 25.6 27.5 27.1 30.8 33.4 34 31.9 31.1 27.8 26.7 25.7 23.5 23.5 25 23.1 21.2 20.5 20.8 21.2 22 20.7 22.3 22.4 23.3 26 25.7 28.4 28.8 25.7 31.2 30.1 27.4 23.1 22.9 14.3 0.9 -1.1 -1.1 -1.1 -1.1 -1.1 -1.1 -1.1 -1.1 -1.1 -1.1 -1.1 -1.1 -1.1 -1.1 -1.1 -1.1 -1.1 -1.1 -1.1 -1.1 -1.1 -1.1 -1.1 -1.1 -1.1 -1.1 -1.1 -1.1 -1.1 -1.1 -1.1 -1.1 -1.1 -1.1 -1.1 -1.1 -1.1 -1.1 -1.1 -1.1 -1.1 -1.1 -1.1 -1.1 -1.1 -1.1 -1.1 -1.1 -1.1 -1.1 -1.1 -1.1 -1.1 -1.1 -1.1 -1.1 -1.1 -1.1 -1.1 -1.1 -1.1 -1.1 -1.1 -1.1 -1.1 -1.1 -1.1
89.2 92 94.4 95.7 94.7 99 103.4 107.7 111.1 115.6 119.2 125.7 129.5 133.9 139.1 144.9 151.4 159.1 166.1 172.1 177.5 183.5 189.5 196.5 207 210.9 213 213.2 211.7 212.4 216.8 221.4 225.4 227.7 229.6 231.3 232.2 232.5 231.7 230.4 227.8 224.7 221.7 214.8 205.3 204 206.8 210.5 212 212.3 211.1 206.8 198.5 184.2 175.6 179.7 182.5 179.8 177.2 183.8 188.7 189.3 192.8 194.7 190.6 184.2 173.8 164 158.6 152.9 149.6 144 137.6 133.3 125.7 119.5 112.5 104.4 96.5 91.8 89 85.2 79.8 70.8 63.8 54.4 52.9 49.7 46.8 44.2 41.9 40.1 38.5 38.6 33.6 30.5 28.3 24.2 24.2 25.2 25.9 25.5 24.8 24.7 24.1 21.8 21.6 19.5 19.3 17.7 17.6 18.3 16.7 18.3 18.7 18.8 18.1 17.4 16.8 16.8 16.3 16.5 16.8 16.3 17 16.9 15.5 15.3 15.8 16.8 6.7 1 -1.1 -1.1 -1.1 -1.1 -1.1 -1.1 -1.1 -1.1 -1.1 -1.1 -1.1 -1.1 -1.1 -1.1 -1.1 -1.1 -1.1 -1.1 -1.1 -1.1 -1.1 -1.1 -1.1 -1.1 -1.1 -1.1 -1.1 -1.1 -1.1 -1.1 -1.1 -1.1 -1.1 -1.1 -1.1 -1.1 -1.1 -1.1 -1.1 -1.1 -1.1 -1.1 -1.1 -1.1 -1.1 -1.1 -1.1 -1.1 -1.1 -1.1 -1.1 -1.1 -1.1 -1.1 -1.1 -1.1 -1.1 -1.1 -1.1 -1.1 -1.1 -1.1 -1.1 -1.1 -1.1 -1.1 -1.1 -1.1
90.3 95.2 99.1 98.6 96.3 98 105.1 108.6 112.3 116.1 119.2 122.9 127.1 131.4 136.6 142.8 148.6 156.5 163.1 170.5 176.4 182.2 188 194.4 206.7 212 215.3 216 216.6 216.9 219.5 223.2 226.8 229.2 231.3 231.9 232.6 232.5 231.7 230.4 227.7 224.3 219.5 210.1 194.8 188.9 193.1 199 202.1 205.6 206.3 204.5 198.1 187.6 168.6 165.3 165.9 161.9 162.9 170.3 178.7 185.5 189.8 194.9 195.5 191.6 184.7 173.9 168.4 155.5 145.7 137.1 130 122.5 115.4 105.1 97.8 90.3 83.4 78.8 76 72.7 67.8 61.9 57.1 54.6 55.6 57.4 55.8 50.7 45.2 40.8 37.1 35.3 33.4 31.8 31.5 27 22.4 22.4 24 24.5 24 22.8 18.2 18 17.2 16.2 17.9 16.7 13.5 12.8 14.6 16.1 17.5 17.7 17.4 14.6 13.6 15.1 13.4 13 13.7 14.3 12.8 11 13.5 13.4 13 9.6 1.2 -1.1 -1.1 -1.1 -1.1 -1.1 -1.1 -1.1 -1.1 -1.1 -1.1 -1.1 -1.1 -1.1 -1.1 -1.1 -1.1 -1.1 -1.1 -1.1 -1.1 -1.1 -1.1 -1.1 -1.1 -1.1 -1.1 -1.1 -1.1 -1.1 -1.1 -1.1 -1.1 -1.1 -1.1 -1.1 -1.1 -1.1 -1.1 -1.1 -1.1 -1.1 -1.1 -1.1 -1.1 -1.1 -1.1 -1.1 -1.1 -1.1 -1.1 -1.1 -1.1 -1.1 -1.1 -1.1 -1.1 -1.1 -1.1 -1.1 -1.1 -1.1 -1.1 -1.1 -1.1 -1.1 -1.1 -1.1 -1.1 -1.1
94.1 101.4 103.6 102.7 98.6 98.1 102.6 107.4 110.9 114.4 116.4 119.7 124 128.9 134.3 140.1 146.5 152.7 160.2 168.8 174 179.5 185.4 193.3 206.4 212.3 216.9 218.8 219.5 221.5 223.8 225.4 227.5 229.8 232.2 232.7 233.3 233 231.4 229.6 226.8 222.7 217.8 206.5 187.8 175.7 179.8 187.1 193.2 196.2 198.7 197.2 193.8 187.9 170.9 156.9 152.6 149.1 150.7 157 165.7 176.2 184.6 192.1 195.2 193.5 188.5 177.1 163.4 148.3 135 123.5 115.7 108.7 102.8 95.4 87.7 83.1 80.2 75.2 71.3 67.4 65.4 66.6 66.1 67 70.5 70 68.5 63.3 55.7 47.3 41.5 40.5 39.8 40 36.4 32.9 28.8 26.2 24 23.3 21.7 20.2 19.3 20.9 21.2 20.4 20.1 19.3 16.8 14.7 12.8 10.4 11.5 11.4 11.5 10.6 9.7 10.7 8.3 7.4 6.5 5.8 5.6 4.9 7.9 7.8 6.2 2.5 -1.1 -1.1 -1.1 -1.1 -1.1 -1.1 -1.1 -1.1 -1.1 -1.1 -1.1 -1.1 -1.1 -1.1 -1.1 -1.1 -1.1 -1.1 -1.1 -1.1 -1.1 -1.1 -1.1 -1.1 -1.1 -1.1 -1.1 -1.1 -1.1 -1.1 -1.1 -1.1 -1.1 -1.1 -1.1 -1.1 -1.1 -1.1 -1.1 -1.1 -1.1 -1.1 -1.1 -1.1 -1.1 -1.1 -1.1 -1.1 -1.1 -1.1 -1.1 -1.1 -1.1 -1.1 -1.1 -1.1 -1.1 -1.1 -1.1 -1.1 -1.1 -1.1 -1.1 -1.1 -1.1 -1.1 -1.1 -1.1 -1.1 -1.1
96.8 103.5 107.4 107.4 104.2 100.5 101.1 105 109.3 111.6 114.1 119.4 123.5 127.9 131.8 138.1 144.4 150.4 157.8 165.9 172.3 178 184.2 191.3 203.8 211.5 217.7 220.8 222.3 224.5 225.7 226.8 229 231.4 233.3 233.5 234 233.9 232.3 228.3 225.8 222 216.8 203.9 188.6 172.8 167.7 172.3 177.9 180.9 184.8 189.5 189.6 183.4 171.6 157.5 147.5 138.6 139.8 147 156 166.5 177.4 187 192.7 192.8 188.6 174.4 157.5 143.4 133 125.3 117.8 108 103.7 100.9 98.2 96 92.7 84.9 80.2 77 75.9 78.4 78 81.5 85.6 82.9 78.4 71.2 59.5 49.4 48.1 51.6 51.8 46.6 41.6 38.1 35 30.5 26 24.4 23.2 22.4 22.3 23.6 23.6 22.9 22.7 22 20.1 18 20.1 18.5 15.3 10.5 11.1 7.5 7 6.7 5.2 4.9 4.7 5 3.8 4.3 4 4.2 3.8 -1.1 -1.1 -1.1 -1.1 -1.1 -1.1 -1.1 -1.1 -1.1 -1.1 -1.1 -1.1 -1.1 -1.1 -1.1 -1.1 -1.1 -1.1 -1.1 -1.1 -1.1 -1.1 -1.1 -1.1 -1.1 -1.1 -1.1 -1.1 -1.1 -1.1 -1.1 -1.1 -1.1 -1.1 -1.1 -1.1 -1.1 -1.1 -1.1 -1.1 -1.1 -1.1 -1.1 -1.1 -1.1 -1.1 -1.1 -1.1 -1.1 -1.1 -1.1 -1.1 -1.1 -1.1 -1.1 -1.1 -1.1 -1.1 -1.1 -1.1 -1.1 -1.1 -1.1 -1.1 -1.1 -1.1 -1.1 -1.1 -1.1 -1.1 -1.1
97.7 103.3 107.9 114.9 115.8 109.1 104.7 101.9 105.5 110.7 115.3 118.8 124.4 128.5 133.5 139.5 143.4 149.6 156.3 164.5 171.3 177.1 183.2 190 200.9 211.4 217.8 221.7 224.4 226 227.1 228.3 230.5 232.8 234 234.5 234.3 234.2 232.2 229.5 224.8 219.7 210.2 196.8 183.5 171.5 158.3 160.8 163.6 165.2 168.2 170.8 174.8 171.9 166.2 159.3 149.8 135.1 130.6 138.4 148.2 158.7 169.8 180.9 186.3 187.8 185.7 179.4 168.3 158.4 149.6 136 125.7 118.9 114.4 115.3 111.8 108.8 97.1 93.7 92.2 87.5 86.6 88.9 91 96 96.6 92.3 80.6 68.8 60.4 57.8 61.1 62.9 59.1 52.2 49.4 46.9 43.4 39.6 32.8 27.7 24.9 25 24.7 24.2 24 23.3 23.2 22.8 22.3 21.8 21.5 20.4 19.8 18.9 17.4 14.8 13.7 12.3 11.1 14.8 14.6 14.1 13.5 5.2 3.6 2.8 1 -1.1 -1.1 -1.1 -1.1 -1.1 -1.1 -1.1 -1.1 -1.1 -1.1 -1.1 -1.1 -1.1 -1.1 -1.1 -1.1 -1.1 -1.1 -1.1 -1.1 -1.1 -1.1 -1.1 -1.1 -1.1 -1.1 -1.1 -1.1 -1.1 -1.1 -1.1 -1.1 -1.1 -1.1 -1.1 -1.1 -1.1 -1.1 -1.1 -1.1 -1.1 -1.1 -1.1 -1.1 -1.1 -1.1 -1.1 -1.1 -1.1 -1.1 -1.1 -1.1 -1.1 -1.1 -1.1 -1.1 -1.1 -1.1 -1.1 -1.1 -1.1 -1.1 -1.1 -1.1 -1.1 -1.1 -1.1 -1.1 -1.1 -1.1 -1.1
99.2 104.4 108.6 116.5 126 124.7 119.2 116 109.7 106.5 111.2 115.2 120.7 125.5 129.3 135.7 143 151 157.5 164.2 171.2 177.9 183.5 189.1 200.9 210.4 217.5 222.6 224.6 226.8 228.4 229.8 231.9 234 234.7 235.4 234.5 234.7 232.2 229.4 224.1 215.8 203.2 187.4 173.2 165.1 156.9 148.7 149.5 150.5 153.2 155.4 157.5 160.4 158.4 154.4 143.6 130.2 121.3 131.1 141.3 153.1 165.8 175 180.9 183.2 180.8 177.4 173.2 167.5 161.1 149.6 140.7 133.4 127.8 132.8 129.3 120.4 105.8 102.3 100.1 99.7 101.4 101.8 105.6 107.1 103.5 91.5 79.1 73.8 72.8 68.7 73.9 71.7 65.4 61.6 59.5 57.2 53.3 44.9 31.6 27.5 26.2 25.7 25.4 24.8 24.7 25 25 24.9 24.7 26.6 27 27.4 24.6 24.6 21.7 19.7 19 16.6 16.6 15.9 15.8 15.1 14.2 8.6 5.3 1.5 -1.1 -1.1 -1.1 -1.1 -1.1 -1.1 -1.1 -1.1 -1.1 -1.1 -1.1 -1.1 -1.1 -1.1 -1.1 -1.1 -1.1 -1.1 -1.1 -1.1 -1.1 -1.1 -1.1 -1.1 -1.1 -1.1 -1.1 -1.1 -1.1 -1.1 -1.1 -1.1 -1.1 -1.1 -1.1 -1.1 -1.1 -1.1 -1.1 -1.1 -1.1 -1.1 -1.1 -1.1 -1.1 -1.1 -1.1 -1.1 -1.1 -1.1 -1.1 -1.1 -1.1 -1.1 -1.1 -1.1 -1.1 -1.1 -1.1 -1.1 -1.1 -1.1 -1.1 -1.1 -1.1 -1.1 -1.1 -1.1 -1.1 -1.1 -1.1 -1.1
101.8 106.8 112.1 119.4 130.5 141 135.1 129.7 122.8 117 107.6 109.5 116.6 123.4 130 135.5 143.1 151.2 157 164.5 172.3 178.3 183.7 188.9 199.6 209.7 215.7 221.5 225.5 227.3 229.6 231 233.1 234.7 235.5 235.4 234.7 233.2 231.9 228 221.1 208.4 192.2 179.3 169 160.6 152.8 143.6 140 139.1 138.5 140 141.5 147.3 148.9 147.4 136.5 121.3 117.2 128 137.9 147.9 159.8 168.5 175.1 180.4 176.4 172.4 168.1 166.5 162.5 157.6 151.8 147.1 142.1 143 138.2 129.3 121.8 122.5 119.8 117.9 119.8 120.5 119.3 115.6 109.5 100.2 93.5 89.6 87.3 82.5 83.7 78.9 73.7 70.5 67.2 63.5 57.3 41 30.3 28.3 27.5 26.5 26 26.5 27.5 29.5 28.5 28.1 27.3 29.2 32.7 36.3 32.6 32 28.5 28.2 26.1 21.2 19.6 18.4 17.2 16.2 13.5 5.2 1.4 -1.1 -1.1 -1.1 -1.1 -1.1 -1.1 -1.1 -1.1 -1.1 -1.1 -1.1 -1.1 -1.1 -1.1 -1.1 -1.1 -1.1 -1.1 -1.1 -1.1 -1.1 -1.1 -1.1 -1.1 -1.1 -1.1 -1.1 -1.1 -1.1 -1.1 -1.1 -1.1 -1.1 -1.1 -1.1 -1.1 -1.1 -1.1 -1.1 -1.1 -1.1 -1.1 -1.1 -1.1 -1.1 -1.1 -1.1 -1.1 -1.1 -1.1 -1.1 -1.1 -1.1 -1.1 -1.1 -1.1 -1.1 -1.1 -1.1 -1.1 -1.1 -1.1 -1.1 -1.1 -1.1 -1.1 -1.1 -1.1 -1.1 -1.1 -1.1 -1.1 -1.1
104.8 110.8 116.6 125.1 139.8 151.8 153.8 146.8 137 130.6 125.7 121.8 114.8 122.8 129.8 135.9 143.8 150.8 157.2 164.6 172.3 177.7 182.9 188.2 197.3 207.9 215.7 221.4 224.7 227.7 230.1 231.6 233.1 234.5 235.3 236.3 235.4 233.9 232 228.9 219.2 201.3 189.1 185 178 169.4 158.9 150.5 141.6 133.6 128.1 127.6 129.1 133 136.3 137.2 129.7 114.9 114.4 123.2 133.2 141.7 151.1 160.1 166.7 170.3 168.1 164.5 161.1 160 157.8 156.1 153.9 152.4 150.3 148.4 145.4 141.8 137.7 135 131.8 129.7 128.7 126.7 123.4 119.4 114.7 109.9 105.3 100.5 96.2 92.3 87.5 82.8 76.5 71.5 66 60.6 49.3 33.8 29.6 28.8 28.1 27.3 28.8 30.6 30.4 32.5 33.2 32.3 31.3 31.6 35.7 42.1 40.2 39.2 33.8 34.4 31.5 28.1 23.3 21 19.8 18.6 5.6 6.4 0.1 -1.1 -1.1 -1.1 -1.1 -1.1 -1.1 -1.1 -1.1 -1.1 -1.1 -1.1 -1.1 -1.1 -1.1 -1.1 -1.1 -1.1 -1.1 -1.1 -1.1 -1.1 -1.1 -1.1 -1.1 -1.1 -1.1 -1.1 -1.1 -1.1 -1.1 -1.1 -1.1 -1.1 -1.1 -1.1 -1.1 -1.1 -1.1 -1.1 -1.1 -1.1 -1.1 -1.1 -1.1 -1.1 -1.1 -1.1 -1.1 -1.1 -1.1 -1.1 -1.1 -1.1 -1.1 -1.1 -1.1 -1.1 -1.1 -1.1 -1.1 -1.1 -1.1 -1.1 -1.1 -1.1 -1.1 -1.1 -1.1 -1.1 -1.1 -1.1 -1.1 -1.1
113.8 121 126 136.2 148.1 157 161.8 160.8 154.1 145.4 138.3 132.7 124.2 121.6 129.6 135.5 142.4 150.3 157.8 164.7 171.3 176.8 182 187.2 193.6 205.3 212.7 218.9 223.3 226.4 229.7 231.5 233.3 234.6 236 236.8 236 234.5 232.7 229.7 222.7 211.6 205.2 199.4 191 181 169.3 157.9 148.6 139.5 130.6 121.2 117.4 119.7 121.8 122.8 120.9 109.1 110 117.2 124.8 132.9 141.5 149.6 156.3 157.5 157.3 154.1 151.1 149.7 149.5 148.5 149 148.7 147.7 146 144.2 142.4 140.7 138.1 135.3 132.4 128.6 125.1 121.7 118 115 111.2 107.4 102.2 97.2 91.6 84.3 79.1 73 64.2 54.8 49.6 35.9 31.4 30.2 29.3 29.2 30.7 32.4 34.2 33.8 34.2 37.1 38.2 37.3 36.2 35.1 42.9 49 48.2 41.3 40.7 35.5 31 26.9 24 22.7 21.3 5.1 0.7 -1.1 -1.1 -1.1 -1.1 -1.1 -1.1 -1.1 -1.1 -1.1 -1.1 -1.1 -1.1 -1.1 -1.1 -1.1 -1.1 -1.1 -1.1 -1.1 -1.1 -1.1 -1.1 -1.1 -1.1 -1.1 -1.1 -1.1 -1.1 -1.1 -1.1 -1.1 -1.1 -1.1 -1.1 -1.1 -1.1 -1.1 -1.1 -1.1 -1.1 -1.1 -1.1 -1.1 -1.1 -1.1 -1.1 -1.1 -1.1 -1.1 -1.1 -1.1 -1.1 -1.1 -1.1 -1.1 -1.1 -1.1 -1.1 -1.1 -1.1 -1.1 -1.1 -1.1 -1.1 -1.1 -1.1 -1.1 -1.1 -1.1 -1.1 -1.1 -1.1 -1.1 -1.1
124.1 129.9 136.4 139.5 148.1 156.6 163.7 167.6 165.3 159.6 152.9 143.5 132.1 120.1 132.3 137.7 143.3 150.8 158.6 164.1 170.3 175.9 181 185.8 190.1 199.5 208.2 214.6 220.8 225.2 228.5 231.4 233.6 235.1 236.5 237.4 236.8 235.7 233.1 230.9 227.5 221.4 213.5 207.1 201.2 192.5 179.9 166.7 157.2 148 138.4 128.6 120.4 113.9 109.4 108 107.1 103.5 102.7 107.8 114.1 121.9 129.8 137.6 143.8 145.6 145 143.4 142.3 141.5 141.1 140.7 141.4 142.3 141 140.9 139.4 138.5 136.8 134.2 131.2 127.8 124.1 120.3 116.9 113.7 110.5 106.8 102.7 98.6 92.9 83.9 74.5 67.2 62.3 54.3 45.2 35.5 32.6 31.8 30.7 31.1 32.8 34.2 40.4 41.5 38.3 36.6 40.2 42.3 43.3 39.5 37.8 43.8 54.8 55.7 52.2 47.2 41.5 36.7 31.9 28.9 26.3 5.4 1.2 -1.1 -1.1 -1.1 -1.1 -1.1 -1.1 -1.1 -1.1 -1.1 -1.1 -1.1 -1.1 -1.1 -1.1 -1.1 -1.1 -1.1 -1.1 -1.1 -1.1 -1.1 -1.1 -1.1 -1.1 -1.1 -1.1 -1.1 -1.1 -1.1 -1.1 -1.1 -1.1 -1.1 -1.1 -1.1 -1.1 -1.1 -1.1 -1.1 -1.1 -1.1 -1.1 -1.1 -1.1 -1.1 -1.1 -1.1 -1.1 -1.1 -1.1 -1.1 -1.1 -1.1 -1.1 -1.1 -1.1 -1.1 -1.1 -1.1 -1.1 -1.1 -1.1 -1.1 -1.1 -1.1 -1.1 -1.1 -1.1 -1.1 -1.1 -1.1 -1.1 -1.1 -1.1 -1.1
126.1 130.9 137.2 139.9 144.9 152.1 160.1 167.1 171.2 170 163.8 153.3 139.2 126.2 132.5 140.4 146.4 152.4 159.7 164.5 169.6 174.9 179.6 184.2 188.7 193.4 204.3 211.4 216.7 222.6 227.2 230.1 232.9 234.8 236.3 237.2 237 235.6 234 231.9 228.9 224.6 219.6 213.1 204.9 199 189.8 176 168.3 159.3 149.6 139.7 130.2 123.5 117.2 109.7 104.3 99.1 96.7 96.8 103.1 109.2 115.9 124.9 131.5 134.5 134.1 133.7 133.4 133 132.5 131.7 131.1 131.5 133.2 132.9 132.1 131.1 129.3 127.6 125.7 121.9 117 113.4 108.8 106.4 103.1 99.5 92.5 87.8 83.1 71.3 64 57.4 49.2 40.1 35.5 34.3 32.6 32 32.7 36.7 38.5 40.5 43.7 43.6 44.7 42.3 42.2 46.3 45.7 41.9 40.3 45.8 55.9 58.1 56.1 52.8 46 39.6 35.2 34.8 31.3 6.1 -1.1 -1.1 -1.1 -1.1 -1.1 -1.1 -1.1 -1.1 -1.1 -1.1 -1.1 -1.1 -1.1 -1.1 -1.1 -1.1 -1.1 -1.1 -1.1 -1.1 -1.1 -1.1 -1.1 -1.1 -1.1 -1.1 -1.1 -1.1 -1.1 -1.1 -1.1 -1.1 -1.1 -1.1 -1.1 -1.1 -1.1 -1.1 -1.1 -1.1 -1.1 -1.1 -1.1 -1.1 -1.1 -1.1 -1.1 -1.1 -1.1 -1.1 -1.1 -1.1 -1.1 -1.1 -1.1 -1.1 -1.1 -1.1 -1.1 -1.1 -1.1 -1.1 -1.1 -1.1 -1.1 -1.1 -1.1 -1.1 -1.1 -1.1 -1.1 -1.1 -1.1 -1.1 -1.1 -1.1
122 126.5 132.6 136.2 140.2 145.7 154.5 163.6 170.4 174.2 172.2 162.4 147.6 132.2 130.8 141.5 147.5 154.3 159.8 164.7 169.4 172.8 177.1 182 187.1 191.5 197.4 207.2 214 219.3 223.1 227.9 231.9 234 235.9 236.7 237.8 236.4 234.6 232.9 229.5 225.3 220.4 213.8 205.8 199.9 192.9 180.6 172.2 165.1 158.7 151.8 143.3 136.1 128.8 122.5 115.6 107.8 100.8 94.3 91.5 96.4 103.3 111 119 123.9 123.8 123.4 123.1 123.2 121.8 118.1 119 121.7 123.9 123.8 122.1 120.7 119.3 117.6 115.8 111.9 106.8 98.9 91.4 90.9 88.8 86.3 79.5 73.4 68.6 60.9 51.7 44.1 38.3 36.4 35.3 34.3 36 36.3 38.9 43.2 46.5 46.8 47.3 51.3 49.8 46.7 45 48.1 48.3 44.1 43 48.3 57.2 59.1 57.7 54.8 49.3 44.8 39.3 39.7 36.5 5.3 -1.1 -1.1 -1.1 -1.1 -1.1 -1.1 -1.1 -1.1 -1.1 -1.1 -1.1 -1.1 -1.1 -1.1 -1.1 -1.1 -1.1 -1.1 -1.1 -1.1 -1.1 -1.1 -1.1 -1.1 -1.1 -1.1 -1.1 -1.1 -1.1 -1.1 -1.1 -1.1 -1.1 -1.1 -1.1 -1.1 -1.1 -1.1 -1.1 -1.1 -1.1 -1.1 -1.1 -1.1 -1.1 -1.1 -1.1 -1.1 -1.1 -1.1 -1.1 -1.1 -1.1 -1.1 -1.1 -1.1 -1.1 -1.1 -1.1 -1.1 -1.1 -1.1 -1.1 -1.1 -1.1 -1.1 -1.1 -1.1 -1.1 -1.1 -1.1 -1.1 -1.1 -1.1 -1.1 -1.1
117.5 122.1 126.7 130.8 135.2 140.2 149.1 158.8 166.9 172.9 175.6 171.3 158.1 141.2 130.9 140.3 148.6 154.2 159.6 164.5 167.7 171 175.2 179.5 184.7 189.9 192.8 200.2 209.2 214.6 219.2 225.4 231.1 234 236.6 236.7 237.8 236.4 235 233.6 230 225.4 220.4 213 204.9 198.4 187.8 177 169.2 162.5 157.5 154.7 152.1 147.5 142.7 136.6 128.8 119.1 110.2 101.8 91.2 86.9 91.6 99.2 106.8 113.4 114.9 115.4 115.4 115 114.8 109.8 105.3 110.9 113.1 111.9 109 106.8 105.4 104.8 103.2 97.8 93.9 89.1 81.3 72.6 73.8 71.2 66.3 59 54.6 45.9 41 38 37.5 36.9 37 39.2 41.2 42.9 44.7 48.2 53.7 54.4 53.3 54.5 54.8 51.4 50.4 52.2 52 46.4 48.1 50.2 58.1 59.5 58.5 56.7 53.4 47.8 44.3 44.3 37.6 31.3 -1.1 -1.1 -1.1 -1.1 -1.1 -1.1 -1.1 -1.1 -1.1 -1.1 -1.1 -1.1 -1.1 -1.1 -1.1 -1.1 -1.1 -1.1 -1.1 -1.1 -1.1 -1.1 -1.1 -1.1 -1.1 -1.1 -1.1 -1.1 -1.1 -1.1 -1.1 -1.1 -1.1 -1.1 -1.1 -1.1 -1.1 -1.1 -1.1 -1.1 -1.1 -1.1 -1.1 -1.1 -1.1 -1.1 -1.1 -1.1 -1.1 -1.1 -1.1 -1.1 -1.1 -1.1 -1.1 -1.1 -1.1 -1.1 -1.1 -1.1 -1.1 -1.1 -1.1 -1.1 -1.1 -1.1 -1.1 -1.1 -1.1 -1.1 -1.1 -1.1 -1.1 -1.1 -1.1 -1.1
113.4 118.4 122.9 127.3 131.9 137.2 144.4 153 162.4 169.8 175.1 175.6 168.5 152.3 136.5 137.9 148.2 153.5 158.7 162.7 166 169.3 173.4 177.6 182.4 186.4 191.3 196.7 203.4 210.7 217.8 223.6 229.2 233.3 235.3 236.6 237.7 236.3 234.8 233.3 230 225.2 218.7 210.3 201.4 189.4 178.4 169.8 161.8 156.5 151.1 150.6 150.4 149.5 145.9 141.5 135.5 128.6 120.1 110.9 99.4 87.3 83.6 88.4 95.7 102 105.7 106.1 107.9 107.4 107.4 104.2 95.4 98 102.1 102.6 98.8 95.5 93.8 92.2 90.6 85.2 79.5 78.2 70.9 64.7 61.7 58.5 54.1 47.6 43.1 40.1 39.7 40.5 40.9 42.7 45.4 48.2 47.6 48.1 49.3 54.9 60.2 61.6 60.6 60 61.2 58.1 58.1 59.1 57 51 52.6 58.4 60.4 60.1 58.4 56.8 54.5 52.4 49.2 47.4 45.1 10.7 -1.1 -1.1 -1.1 -1.1 -1.1 -1.1 -1.1 -1.1 -1.1 -1.1 -1.1 -1.1 -1.1 -1.1 -1.1 -1.1 -1.1 -1.1 -1.1 -1.1 -1.1 -1.1 -1.1 -1.1 -1.1 -1.1 -1.1 -1.1 -1.1 -1.1 -1.1 -1.1 -1.1 -1.1 -1.1 -1.1 -1.1 -1.1 -1.1 -1.1 -1.1 -1.1 -1.1 -1.1 -1.1 -1.1 -1.1 -1.1 -1.1 -1.1 -1.1 -1.1 -1.1 -1.1 -1.1 -1.1 -1.1 -1.1 -1.1 -1.1 -1.1 -1.1 -1.1 -1.1 -1.1 -1.1 -1.1 -1.1 -1.1 -1.1 -1.1 -1.1 -1.1 -1.1 -1.1 -1.1
110.8 114.7 119.2 123.7 128.6 134 140.5 148.7 158.1 167 172.6 175.9 173.9 164 148.3 136.5 144.4 151.6 156.7 160.8 164.3 167.6 171.5 176 180 184.8 189.2 194.6 200.4 208.4 216 222.6 228.4 232.9 234.5 236.4 237.8 236.4 235.1 233.4 230.5 226 218.3 209.1 199.6 184.2 172.4 163.1 155.2 148.7 143 141.2 141.7 142.6 142.2 139 134.5 127.5 120.9 112.1 99.7 89.5 82.5 80.8 86.5 92.7 95.6 96.6 98.2 99.8 100.4 99 91.4 85.3 91.5 93.3 88.9 85.4 84.7 82.8 80 75.1 67 63.4 58.4 53.6 50.1 46.8 43.8 42.4 42.2 44.5 46.6 47.2 47.3 51.9 55.8 57.7 55.6 53 55.4 61.8 67.2 69.2 68.2 66 65 64.3 63.7 64.5 61.9 57.3 57.7 61.5 60.9 59.5 59 56.1 54.9 52.8 49.6 42.1 47.3 1.5 -1.1 -1.1 -1.1 -1.1 -1.1 -1.1 -1.1 -1.1 -1.1 -1.1 -1.1 -1.1 -1.1 -1.1 -1.1 -1.1 -1.1 -1.1 -1.1 -1.1 -1.1 -1.1 -1.1 -1.1 -1.1 -1.1 -1.1 -1.1 -1.1 -1.1 -1.1 -1.1 -1.1 -1.1 -1.1 -1.1 -1.1 -1.1 -1.1 -1.1 -1.1 -1.1 -1.1 -1.1 -1.1 -1.1 -1.1 -1.1 -1.1 -1.1 -1.1 -1.1 -1.1 -1.1 -1.1 -1.1 -1.1 -1.1 -1.1 -1.1 -1.1 -1.1 -1.1 -1.1 -1.1 -1.1 -1.1 -1.1 -1.1 -1.1 -1.1 -1.1 -1.1 -1.1 -1.1 -1.1
112.3 114 116.7 120.8 125.8 131.1 137 144.4 154.3 161.8 169.2 174.2 176.6 175.4 163.7 149.9 142.6 148 153.3 158.5 162.2 165.9 169.7 174 178.6 183.7 187.9 193.2 198.7 205.4 215.2 222.7 229.3 233.1 235.1 237 237.3 237 236 234.1 231 226 218.7 209.8 201.1 189.9 175.5 164.6 154 145.1 135 131.7 131.8 132.4 133.1 130.6 125.1 117.3 108.2 97.9 89.4 83.8 81.5 79.1 78.2 81.6 84.6 87.3 89.2 90.7 91 91.3 87.8 77.9 81.5 83.7 80.9 75.2 73.8 72.6 69.7 65.5 57.5 52.6 49.2 47.1 44.8 45.4 46.4 48.9 51.3 54.7 58.7 60.8 56.9 59 65.7 66.2 64.4 61.8 60.5 68 73.9 75.5 73.6 71.8 69.7 68.2 66.7 65.6 64.3 61.1 59.4 59.4 57.1 57.6 56.7 54.4 52.2 48 47.2 31.2 2 -1.1 -1.1 -1.1 -1.1 -1.1 -1.1 -1.1 -1.1 -1.1 -1.1 -1.1 -1.1 -1.1 -1.1 -1.1 -1.1 -1.1 -1.1 -1.1 -1.1 -1.1 -1.1 -1.1 -1.1 -1.1 -1.1 -1.1 -1.1 -1.1 -1.1 -1.1 -1.1 -1.1 -1.1 -1.1 -1.1 -1.1 -1.1 -1.1 -1.1 -1.1 -1.1 -1.1 -1.1 -1.1 -1.1 -1.1 -1.1 -1.1 -1.1 -1.1 -1.1 -1.1 -1.1 -1.1 -1.1 -1.1 -1.1 -1.1 -1.1 -1.1 -1.1 -1.1 -1.1 -1.1 -1.1 -1.1 -1.1 -1.1 -1.1 -1.1 -1.1 -1.1 -1.1 -1.1 -1.1 -1.1
116.9 117.1 116.4 118.9 123.3 128.1 134.1 140.6 149.2 156.9 164 170.9 175.8 178.3 177.6 167.6 155.6 148.2 150.1 154.1 158.6 162.2 167.6 172.4 177.6 182.8 187.9 193 198.7 205.4 216.2 223.5 230 233.5 235.6 237.2 238.4 237.2 236.2 234 229.8 224.8 216.1 208.3 196.7 184.1 172.4 161.5 152 144.3 136.3 126.4 122.9 122.6 122.2 119.2 112.3 103.3 96.1 88.7 86.5 84.8 83.4 81.3 77.9 74.3 73.9 76.5 78.8 79.7 80.7 80.9 81.1 74.1 70.2 74 70.9 65.2 64.4 61.1 57.5 53 50.2 48.4 49.2 51.6 53 54.8 55.1 57.3 61.3 66.3 71.6 74.7 67.8 67.3 74.6 74.8 72.9 70.3 67.7 72.1 78.8 79.4 75.8 73 68.4 65.7 62.9 62.3 61.6 58.6 56.4 52.7 50.7 52.1 51.1 48.6 44.5 41.9 41.5 6.5 -1.1 -1.1 -1.1 -1.1 -1.1 -1.1 -1.1 -1.1 -1.1 -1.1 -1.1 -1.1 -1.1 -1.1 -1.1 -1.1 -1.1 -1.1 -1.1 -1.1 -1.1 -1.1 -1.1 -1.1 -1.1 -1.1 -1.1 -1.1 -1.1 -1.1 -1.1 -1.1 -1.1 -1.1 -1.1 -1.1 -1.1 -1.1 -1.1 -1.1 -1.1 -1.1 -1.1 -1.1 -1.1 -1.1 -1.1 -1.1 -1.1 -1.1 -1.1 -1.1 -1.1 -1.1 -1.1 -1.1 -1.1 -1.1 -1.1 -1.1 -1.1 -1.1 -1.1 -1.1 -1.1 -1.1 -1.1 -1.1 -1.1 -1.1 -1.1 -1.1 -1.1 -1.1 -1.1 -1.1 -1.1 -1.1
121.1 121.8 121.2 118.7 122.1 126.2 130.5 138.5 146.2 151.7 158.4 165.2 172 177.1 179.3 179.5 174.9 164.3 158.6 156.5 156.7 159.3 167.8 173.3 177.9 182.4 187.1 193.1 198.7 206.6 217.7 223.8 230.1 234.4 236.8 239.3 238.6 237.4 236 233.8 229.9 222.9 213.6 204.3 190.1 176 165 156.1 148.5 141.2 134.1 124.8 117.3 113.1 110.7 106.3 99.5 95.3 94.2 95 93.6 93 92.8 89.3 84.9 79.6 74 71.3 70.6 69.5 71 70.9 68.3 64 60.8 62.6 60.4 58 55.7 54.3 53.6 52.9 52.9 55.9 58.7 60.8 61.4 66.5 66.9 66.9 72.5 79.5 86.7 86.7 77.6 74.9 82.3 84.9 83.4 79.6 75.7 77.8 81.2 79.6 76.4 72.3 68.7 66.4 61.6 57.4 54.9 53.8 51.4 48.1 45.7 45.1 45.9 46.3 39.7 35.9 11.9 1.2 -1.1 -1.1 -1.1 -1.1 -1.1 -1.1 -1.1 -1.1 -1.1 -1.1 -1.1 -1.1 -1.1 -1.1 -1.1 -1.1 -1.1 -1.1 -1.1 -1.1 -1.1 -1.1 -1.1 -1.1 -1.1 -1.1 -1.1 -1.1 -1.1 -1.1 -1.1 -1.1 -1.1 -1.1 -1.1 -1.1 -1.1 -1.1 -1.1 -1.1 -1.1 -1.1 -1.1 -1.1 -1.1 -1.1 -1.1 -1.1 -1.1 -1.1 -1.1 -1.1 -1.1 -1.1 -1.1 -1.1 -1.1 -1.1 -1.1 -1.1 -1.1 -1.1 -1.1 -1.1 -1.1 -1.1 -1.1 -1.1 -1.1 -1.1 -1.1 -1.1 -1.1 -1.1 -1.1 -1.1 -1.1 -1.1
123.1 124.5 124.4 123.5 124.1 126.2 129.8 134.9 142.1 147.8 153.5 159.9 166.9 173.8 178.5 180.9 181.9 176.5 172.4 168.4 164.2 161.1 163.9 171.9 177.5 182.5 187.4 193.3 198.6 206.7 218.3 225.1 230.2 235.3 237.6 239 238.4 237.6 235.8 232.5 225.8 218.3 208.9 192 180.7 170.3 158.5 150.7 144.2 137.1 129 121.2 115.5 108.1 102.9 101.9 99 101.7 102.5 102.5 101.7 102.7 101.7 99.8 95.3 87.6 80.1 75.7 71.1 68.1 66.1 64.5 63 60.1 59.6 59.4 58.4 59.4 58.5 57.8 60.8 62 63.3 66.9 68.4 71.1 71 76.6 78.1 76.6 81.3 92.1 99.6 97.7 88.4 84.8 91.1 93.3 91.9 89.2 84.5 83.2 84.2 84.4 80.7 76.3 72.3 70.5 67.4 62.9 58 53.1 49.1 46.9 43.7 42.3 46.3 41.8 35.9 33.6 25.9 -1.1 -1.1 -1.1 -1.1 -1.1 -1.1 -1.1 -1.1 -1.1 -1.1 -1.1 -1.1 -1.1 -1.1 -1.1 -1.1 -1.1 -1.1 -1.1 -1.1 -1.1 -1.1 -1.1 -1.1 -1.1 -1.1 -1.1 -1.1 -1.1 -1.1 -1.1 -1.1 -1.1 -1.1 -1.1 -1.1 -1.1 -1.1 -1.1 -1.1 -1.1 -1.1 -1.1 -1.1 -1.1 -1.1 -1.1 -1.1 -1.1 -1.1 -1.1 -1.1 -1.1 -1.1 -1.1 -1.1 -1.1 -1.1 -1.1 -1.1 -1.1 -1.1 -1.1 -1.1 -1.1 -1.1 -1.1 -1.1 -1.1 -1.1 -1.1 -1.1 -1.1 -1.1 -1.1 -1.1 -1.1 -1.1 -1.1
124.2 124.6 126.7 126.3 126.9 127.9 130.1 132.9 138 143.1 148 155.2 162.1 168.8 175.1 180.3 182.8 182.8 180.7 178.5 174 170.1 168.6 169.6 177 182.6 187.5 192.3 199.7 206.2 217.9 226 232.4 236.6 238.8 239.6 239 238.8 235 230.7 223.3 213.1 197.6 184.1 172.9 162.4 152.8 145.4 138.1 130.4 122.1 115.9 110.4 109.3 110.3 108.3 108.6 109.1 109.5 109.5 111.9 115.1 114.4 113.1 106.6 98 89.2 82.8 76.6 72.1 70.7 70.7 68.5 68.3 68.5 70.1 66.4 68.1 70.2 71.5 74.8 72.5 74 77.2 79.2 81.8 81.8 87.2 89.8 88.7 91.3 101.4 109.6 108.2 100.7 98.6 101.2 99.6 97.6 94.7 91.3 89.6 87.9 87 84.6 81.4 78.2 75 72.5 68.5 64.6 59.1 55.8 55 52.1 51.1 51.1 51.5 42.3 37.9 36.7 -1.1 -1.1 -1.1 -1.1 -1.1 -1.1 -1.1 -1.1 -1.1 -1.1 -1.1 -1.1 -1.1 -1.1 -1.1 -1.1 -1.1 -1.1 -1.1 -1.1 -1.1 -1.1 -1.1 -1.1 -1.1 -1.1 -1.1 -1.1 -1.1 -1.1 -1.1 -1.1 -1.1 -1.1 -1.1 -1.1 -1.1 -1.1 -1.1 -1.1 -1.1 -1.1 -1.1 -1.1 -1.1 -1.1 -1.1 -1.1 -1.1 -1.1 -1.1 -1.1 -1.1 -1.1 -1.1 -1.1 -1.1 -1.1 -1.1 -1.1 -1.1 -1.1 -1.1 -1.1 -1.1 -1.1 -1.1 -1.1 -1.1 -1.1 -1.1 -1.1 -1.1 -1.1 -1.1 -1.1 -1.1 -1.1 -1.1
122.3 124.4 126.2 128.4 129.2 130.2 131.7 135 139.1 143.4 146.1 148.3 153.2 159.9 166.7 175.4 180.9 184 184.8 184.5 181.3 178.3 176.6 176 176.3 182.1 186.9 192.8 199.5 206.9 219.2 226.7 233.7 237.9 239.8 240.2 239.4 238.2 234.1 228.7 221.1 205.8 192.4 179.2 165.7 156.8 149 141.6 133.2 123.1 122.4 121.8 121 120.1 118.2 116.3 117.2 117.2 118 119.7 123.7 128 126 120.1 112 104 96.1 85.7 78.1 79.2 85.2 80.5 76.4 75.4 81.4 82.6 75.3 75.1 80.5 84.8 88 82.1 83.8 90 91.8 96.5 93.4 97.1 102.6 102.9 106.6 112.2 117.2 114.7 111.3 108.8 106.3 103.3 100.7 98.9 95.1 92.6 89.9 88.3 85.9 83.6 81.3 78.9 75.8 72.1 69 65.3 61.8 60.7 58.6 57.1 50.1 53.4 51.8 45.8 46.6 38.4 -1.1 -1.1 -1.1 -1.1 -1.1 -1.1 -1.1 -1.1 -1.1 -1.1 -1.1 -1.1 -1.1 -1.1 -1.1 -1.1 -1.1 -1.1 -1.1 -1.1 -1.1 -1.1 -1.1 -1.1 -1.1 -1.1 -1.1 -1.1 -1.1 -1.1 -1.1 -1.1 -1.1 -1.1 -1.1 -1.1 -1.1 -1.1 -1.1 -1.1 -1.1 -1.1 -1.1 -1.1 -1.1 -1.1 -1.1 -1.1 -1.1 -1.1 -1.1 -1.1 -1.1 -1.1 -1.1 -1.1 -1.1 -1.1 -1.1 -1.1 -1.1 -1.1 -1.1 -1.1 -1.1 -1.1 -1.1 -1.1 -1.1 -1.1 -1.1 -1.1 -1.1 -1.1 -1.1 -1.1 -1.1 -1.1
120.3 122.7 125.1 129.8 131.5 132.9 135.3 137.6 142.5 147.6 152 154.1 155.8 159 168.1 175.1 181.2 185.3 187 187.1 187.2 185.2 184.3 183 181.6 181.7 187.4 193.5 199.9 207.4 220.1 227.5 234.4 238.4 239.8 240.2 239.7 237.7 233.7 227.7 219.1 204.6 191 179.1 167.8 159.1 150 140.2 133.6 131.3 130.6 130.7 130.3 129 124.8 124 125.7 126.6 128.3 131.2 136.1 137.6 132.9 124.2 115.2 105.1 93.1 86.3 87.4 95.3 97.5 90.6 83.1 83.7 95.4 94.9 81.3 84.3 90.6 98.4 100.5 92.4 94.7 102.3 104.6 109.7 108.7 108 115.7 120.1 121.3 121.9 120.4 117.9 114.8 111.6 108 104.4 101.3 99.3 96.7 94.6 91.9 89.7 87.3 84.3 81.6 80.3 77.1 73.8 69.7 66 63.4 61 59.1 57.1 52.8 52.9 51.7 50 49 47.3 -1.1 -1.1 -1.1 -1.1 -1.1 -1.1 -1.1 -1.1 -1.1 -1.1 -1.1 -1.1 -1.1 -1.1 -1.1 -1.1 -1.1 -1.1 -1.1 -1.1 -1.1 -1.1 -1.1 -1.1 -1.1 -1.1 -1.1 -1.1 -1.1 -1.1 -1.1 -1.1 -1.1 -1.1 -1.1 -1.1 -1.1 -1.1 -1.1 -1.1 -1.1 -1.1 -1.1 -1.1 -1.1 -1.1 -1.1 -1.1 -1.1 -1.1 -1.1 -1.1 -1.1 -1.1 -1.1 -1.1 -1.1 -1.1 -1.1 -1.1 -1.1 -1.1 -1.1 -1.1 -1.1 -1.1 -1.1 -1.1 -1.1 -1.1 -1.1 -1.1 -1.1 -1.1 -1.1 -1.1 -1.1 -1.1
117.5 120.1 123.5 130.1 133.3 135.5 138.1 141.1 144.9 149.8 156.3 162.9 164.8 166.1 170.9 180 184.7 188.9 191.6 191.8 192.1 191.7 191.3 189.9 188.5 186.9 186.9 193.7 201.7 209.5 220.7 228.2 235 238.8 240.3 240.2 239.9 237.2 234 227.7 218 202.7 189.8 178.7 167.9 158.2 148.9 142.9 141.3 140.1 138.9 138.4 138.4 136.2 133.4 132.4 134.2 135.9 140.4 143.8 147.1 145.2 137.7 126.4 112.2 100.1 96 92.9 96.8 108 107.2 98.4 89.6 90.4 104.1 101.7 89.3 97 103.9 109.4 110.9 105 106 112.1 118.1 123.8 122.4 122.8 124.4 124.3 124.2 122.2 119.9 117.1 112.7 109.2 106 102.6 99.1 97.7 95 92.6 91.1 89.1 87.5 84.8 82.2 79.8 76.9 73.2 69.1 65.5 62.8 60.1 56.8 52.8 51.5 51.9 50 47.5 8.2 3.7 -1.1 -1.1 -1.1 -1.1 -1.1 -1.1 -1.1 -1.1 -1.1 -1.1 -1.1 -1.1 -1.1 -1.1 -1.1 -1.1 -1.1 -1.1 -1.1 -1.1 -1.1 -1.1 -1.1 -1.1 -1.1 -1.1 -1.1 -1.1 -1.1 -1.1 -1.1 -1.1 -1.1 -1.1 -1.1 -1.1 -1.1 -1.1 -1.1 -1.1 -1.1 -1.1 -1.1 -1.1 -1.1 -1.1 -1.1 -1.1 -1.1 -1.1 -1.1 -1.1 -1.1 -1.1 -1.1 -1.1 -1.1 -1.1 -1.1 -1.1 -1.1 -1.1 -1.1 -1.1 -1.1 -1.1 -1.1 -1.1 -1.1 -1.1 -1.1 -1.1 -1.1 -1.1 -1.1 -1.1 -1.1 -1.1
113.9 117.6 123.6 130.6 135.3 138.6 142.3 145.3 149.1 154.7 165.4 173.3 176.6 175.4 175.5 182.5 188.2 192.8 196.4 196.8 197 196.6 196.6 195.9 195.4 194 193.1 195.7 202.6 211.7 221.8 228.9 235 238.2 240.3 240.9 241.1 238.2 234.5 227.6 219.2 205.7 192.5 180.9 171.6 162 153.8 150.4 149.6 148.8 148.3 148.2 147.9 145.9 142.8 141.3 142.9 145.5 153.3 156.1 155.3 148.7 131.4 115 106 107.6 112.4 104.8 101.7 116.3 114.2 107.4 95.1 99.1 111.4 108.7 99.1 108.8 118.4 123.4 122.9 117.2 117.1 123.7 130.3 132 130.2 128.3 126.1 124.1 120.9 119.1 116.8 113.9 110.3 106.8 103 98.8 94.9 91.8 90.1 89.5 86.9 85.6 84.7 83.5 81.6 79 76.4 72.8 68.8 64.3 61.2 56.9 53 51.9 51.4 50.7 47.5 43.4 6.2 2.4 -1.1 -1.1 -1.1 -1.1 -1.1 -1.1 -1.1 -1.1 -1.1 -1.1 -1.1 -1.1 -1.1 -1.1 -1.1 -1.1 -1.1 -1.1 -1.1 -1.1 -1.1 -1.1 -1.1 -1.1 -1.1 -1.1 -1.1 -1.1 -1.1 -1.1 -1.1 -1.1 -1.1 -1.1 -1.1 -1.1 -1.1 -1.1 -1.1 -1.1 -1.1 -1.1 -1.1 -1.1 -1.1 -1.1 -1.1 -1.1 -1.1 -1.1 -1.1 -1.1 -1.1 -1.1 -1.1 -1.1 -1.1 -1.1 -1.1 -1.1 -1.1 -1.1 -1.1 -1.1 -1.1 -1.1 -1.1 -1.1 -1.1 -1.1 -1.1 -1.1 -1.1 -1.1 -1.1 -1.1 -1.1 -1.1
112.3 116.3 122.3 131.2 138.6 143.7 147.1 150.8 154.5 162.4 172.1 179.2 182.4 183.2 183.2 185.1 191.1 195.8 200.3 201.2 201.7 201.3 201.5 202.2 201.5 200.6 200.5 199.2 204.1 214 222.5 229.8 235.2 238.4 240.3 241.5 240.7 239.2 235.6 229.4 220.1 208.4 196 184.6 175.7 168.1 161.7 159.4 159.8 160.6 160.9 162.6 162.8 159.1 156.4 153.2 153.6 156.6 164.1 164.7 160.3 140.6 124.9 116.7 122.5 124.7 122 110.9 109.5 123.5 123.7 115.2 99.6 108.2 120.5 116.3 111 119.4 131.4 137.4 136 133.2 132.9 135.9 135.7 135.4 131.8 126.4 122.8 118.9 116.5 114.7 112.3 109.8 106.5 102.6 98.9 93.9 85.8 84.5 84 83.6 82.1 80.8 79.6 78.7 77.6 76.2 74.7 71.7 68.5 65.3 61.3 57 52.5 49 49.5 49 45.8 42.1 9 -1.1 -1.1 -1.1 -1.1 -1.1 -1.1 -1.1 -1.1 -1.1 -1.1 -1.1 -1.1 -1.1 -1.1 -1.1 -1.1 -1.1 -1.1 -1.1 -1.1 -1.1 -1.1 -1.1 -1.1 -1.1 -1.1 -1.1 -1.1 -1.1 -1.1 -1.1 -1.1 -1.1 -1.1 -1.1 -1.1 -1.1 -1.1 -1.1 -1.1 -1.1 -1.1 -1.1 -1.1 -1.1 -1.1 -1.1 -1.1 -1.1 -1.1 -1.1 -1.1 -1.1 -1.1 -1.1 -1.1 -1.1 -1.1 -1.1 -1.1 -1.1 -1.1 -1.1 -1.1 -1.1 -1.1 -1.1 -1.1 -1.1 -1.1 -1.1 -1.1 -1.1 -1.1 -1.1 -1.1 -1.1 -1.1 -1.1
111.5 115.5 121.5 131 141.5 147.7 152.6 156.5 162.4 168.6 176.3 182.4 185.7 187.4 189 191.1 194.1 198.2 202.4 205.7 206.1 208.4 208 207.7 207.4 206.6 206.9 205.5 206.6 215.4 223.7 230 235.5 238.9 240.8 241.9 241.5 238.7 234.3 231.7 222.3 212.7 200 190.6 185.4 179.5 171.7 171.4 173.5 174.1 174.9 177 177 174.9 171.9 169.8 168.8 170.8 173.9 173 156.9 137.1 126.8 132.9 139.5 136.2 127.7 115.6 122.5 134.7 132.2 117.5 105.4 116.9 129.3 124.5 122.9 131.6 144.2 147.7 146.6 144.9 143.9 142 140.1 136.1 130.9 125.2 119.1 113.7 110.4 108.6 105.3 103.6 101.4 97.5 92 86.4 79.1 74.5 76.1 73.9 73.7 70.6 71 72.1 71.9 71.6 70.7 69.8 66.4 63.6 60.9 58 53.9 46.3 41.1 42 44 41.4 6.1 -1.1 -1.1 -1.1 -1.1 -1.1 -1.1 -1.1 -1.1 -1.1 -1.1 -1.1 -1.1 -1.1 -1.1 -1.1 -1.1 -1.1 -1.1 -1.1 -1.1 -1.1 -1.1 -1.1 -1.1 -1.1 -1.1 -1.1 -1.1 -1.1 -1.1 -1.1 -1.1 -1.1 -1.1 -1.1 -1.1 -1.1 -1.1 -1.1 -1.1 -1.1 -1.1 -1.1 -1.1 -1.1 -1.1 -1.1 -1.1 -1.1 -1.1 -1.1 -1.1 -1.1 -1.1 -1.1 -1.1 -1.1 -1.1 -1.1 -1.1 -1.1 -1.1 -1.1 -1.1 -1.1 -1.1 -1.1 -1.1 -1.1 -1.1 -1.1 -1.1 -1.1 -1.1 -1.1 -1.1 -1.1 -1.1 -1.1
110.7 114.5 123.8 133.5 141.9 148.4 153.2 159.2 163.8 168.4 176 182 186.2 188.6 191 194 197 200.6 204.5 208.3 211.6 213.9 214.8 218.1 218 215.4 214.4 212.5 212.9 215.5 223.4 229.6 235.2 239 241 242.2 242.3 240.9 238.4 233.9 227.6 218.2 209.5 204.5 198.9 190.3 183.3 182.9 184.3 185.6 186.7 187.6 187.9 186.9 185.4 184.9 185.4 186.3 183.6 173.1 153.8 139.8 143 150.7 153 143.7 130.3 123.7 135.7 145.3 139.4 123.1 111.9 125.4 139.5 134.5 137.4 146.8 154.5 154.6 152.7 150.1 147.5 143.9 139.9 134.8 129.6 124 117.5 110.5 101.8 100.3 96.8 96.4 94.7 91.7 83.8 77.7 74.7 67.2 68 63 62.9 58.2 57.6 57 58.7 61.2 65.9 66.1 64.5 61.8 59.2 56.7 52.5 49 43.4 36.8 37.2 39.7 23.8 -1.1 -1.1 -1.1 -1.1 -1.1 -1.1 -1.1 -1.1 -1.1 -1.1 -1.1 -1.1 -1.1 -1.1 -1.1 -1.1 -1.1 -1.1 -1.1 -1.1 -1.1 -1.1 -1.1 -1.1 -1.1 -1.1 -1.1 -1.1 -1.1 -1.1 -1.1 -1.1 -1.1 -1.1 -1.1 -1.1 -1.1 -1.1 -1.1 -1.1 -1.1 -1.1 -1.1 -1.1 -1.1 -1.1 -1.1 -1.1 -1.1 -1.1 -1.1 -1.1 -1.1 -1.1 -1.1 -1.1 -1.1 -1.1 -1.1 -1.1 -1.1 -1.1 -1.1 -1.1 -1.1 -1.1 -1.1 -1.1 -1.1 -1.1 -1.1 -1.1 -1.1 -1.1 -1.1 -1.1 -1.1 -1.1 -1.1
111.1 115.6 122.9 130.9 139 146.7 151.6 157.8 163.8 169.8 175.7 179.9 184.1 188.5 193.3 196.2 200.5 203.3 207.4 211.4 216.6 220.9 222.1 223.7 223.9 224.1 223.5 223.2 223.1 224.4 226.7 230.9 235.2 239.3 241.9 243.1 243 242.1 240.2 233.7 230.7 223.7 216.4 210.6 207 200.7 194.9 194.3 195 194.7 195.7 197.1 198.8 198.6 198.3 198.9 200.7 199 188.9 174.9 163.3 150.5 157.2 166.6 163.3 149.7 139.4 134.1 149.1 154.7 145.6 128.7 119.3 130.8 148.8 147.5 152.8 157.6 158.5 156.2 153 149.9 146.2 142.4 137.5 132.3 127.2 122.2 115.7 108.2 101.7 92.7 86.7 88 88.3 84.9 78.1 69.2 66.7 60.5 56.9 52.6 49.2 46.8 46.8 44.6 44.3 46.6 52.7 59.6 61.2 59.2 56.6 53.9 49.8 46.6 44.2 38.8 31.4 34.5 7.6 0 -1.1 -1.1 -1.1 -1.1 -1.1 -1.1 -1.1 -1.1 -1.1 -1.1 -1.1 -1.1 -1.1 -1.1 -1.1 -1.1 -1.1 -1.1 -1.1 -1.1 -1.1 -1.1 -1.1 -1.1 -1.1 -1.1 -1.1 -1.1 -1.1 -1.1 -1.1 -1.1 -1.1 -1.1 -1.1 -1.1 -1.1 -1.1 -1.1 -1.1 -1.1 -1.1 -1.1 -1.1 -1.1 -1.1 -1.1 -1.1 -1.1 -1.1 -1.1 -1.1 -1.1 -1.1 -1.1 -1.1 -1.1 -1.1 -1.1 -1.1 -1.1 -1.1 -1.1 -1.1 -1.1 -1.1 -1.1 -1.1 -1.1 -1.1 -1.1 -1.1 -1.1 -1.1 -1.1 -1.1 -1.1 -1.1
109.5 116.3 122.1 128.1 136 142.2 148.5 155.1 161.6 167.7 173.7 178.1 181.8 186.3 191.1 197.3 203.2 207.4 210 213.4 219.2 224.1 226.9 228.1 229.6 230 228.8 229.4 229.4 230.3 232.3 235.7 238.5 241.3 243.4 243.3 243.1 242.9 241.9 238.3 234.2 228.2 222.1 216.1 213.7 210.7 207.4 205.5 205.1 205.2 205.6 204.4 204.4 204.3 205.1 206.7 209.5 205.6 197.6 186.7 177.9 167.3 170.9 180.1 175 159.4 150.6 144 158.3 163.4 151.6 134.5 127.4 141.5 157.7 163.3 163.6 161.4 157.3 152.7 149.1 145 141.8 137.7 133.2 129 123 116.6 110.7 105.7 99.2 92.7 82.4 77.5 80.9 74.8 66.8 59.9 57.3 53.7 53.7 54.3 54.6 52.8 53.1 50.7 44.9 38.9 38.8 44.2 52.9 55.6 53.7 49 45.8 43.1 41.6 39.3 33 26.6 5.2 -1.1 -1.1 -1.1 -1.1 -1.1 -1.1 -1.1 -1.1 -1.1 -1.1 -1.1 -1.1 -1.1 -1.1 -1.1 -1.1 -1.1 -1.1 -1.1 -1.1 -1.1 -1.1 -1.1 -1.1 -1.1 -1.1 -1.1 -1.1 -1.1 -1.1 -1.1 -1.1 -1.1 -1.1 -1.1 -1.1 -1.1 -1.1 -1.1 -1.1 -1.1 -1.1 -1.1 -1.1 -1.1 -1.1 -1.1 -1.1 -1.1 -1.1 -1.1 -1.1 -1.1 -1.1 -1.1 -1.1 -1.1 -1.1 -1.1 -1.1 -1.1 -1.1 -1.1 -1.1 -1.1 -1.1 -1.1 -1.1 -1.1 -1.1 -1.1 -1.1 -1.1 -1.1 -1.1 -1.1 -1.1 -1.1 -1.1
109.3 115.9 121.9 126.9 133.4 140.9 148 154 160 166 171 175.7 179.6 184 190 197.1 201 205.1 209 213.5 219.5 224.8 229.1 231.5 233 234.4 235.5 236.6 236 237.1 238.2 240 241.4 243.5 244.2 243.6 243.3 243 242.7 239.4 235.9 231.8 225.1 220.6 217.8 212.7 209.9 207.5 203.2 199.8 195.9 195.5 198.6 200.9 200.8 201.4 203.4 202.8 199.5 195.5 189.8 188 187.5 191 186.8 177.7 168.2 157.9 166.1 171.6 157.6 143.9 136.4 151.3 165.3 170.8 166.8 160.9 154.4 148.4 144.4 139.9 135.4 131.4 126.8 121.4 114.5 108.1 104.2 100.4 94.7 85.2 76.8 71.1 68.6 63.5 62.4 62.1 65.2 69 70.5 66.2 69.2 70.4 67.9 63.2 56.9 49.2 41.5 36 36.5 45.5 47.9 43.7 39.1 35.3 35 31.6 28.1 24 13.6 -1.1 -1.1 -1.1 -1.1 -1.1 -1.1 -1.1 -1.1 -1.1 -1.1 -1.1 -1.1 -1.1 -1.1 -1.1 -1.1 -1.1 -1.1 -1.1 -1.1 -1.1 -1.1 -1.1 -1.1 -1.1 -1.1 -1.1 -1.1 -1.1 -1.1 -1.1 -1.1 -1.1 -1.1 -1.1 -1.1 -1.1 -1.1 -1.1 -1.1 -1.1 -1.1 -1.1 -1.1 -1.1 -1.1 -1.1 -1.1 -1.1 -1.1 -1.1 -1.1 -1.1 -1.1 -1.1 -1.1 -1.1 -1.1 -1.1 -1.1 -1.1 -1.1 -1.1 -1.1 -1.1 -1.1 -1.1 -1.1 -1.1 -1.1 -1.1 -1.1 -1.1 -1.1 -1.1 -1.1 -1.1 -1.1 -1.1
108.7 114.3 121.4 127.6 133.7 139.3 147 154 159.5 164.6 170 175 179.9 183.6 187 191.9 197.6 200.6 205.4 210.9 217.8 223.9 228.3 233 235.4 236.1 237.2 239.1 240.7 240.6 241.7 243 244.3 246 245.3 244.8 244.1 243.5 242.4 239.5 234.1 230.8 226 221.1 213.2 204.9 199.6 193.3 189.7 187 185.4 184.1 183 185.9 187.4 188.1 188.8 190 192.6 194.3 195.5 196.4 196.8 198.7 196.1 192 182.7 174.9 178.3 176.5 159.8 153.6 147.3 159.9 174.7 172.9 166.4 157.9 150.6 143.3 136.4 131.4 125.5 120.7 116.6 110.5 103.9 97.3 94.4 89.6 82.9 75.2 73 73.5 73.7 73.6 76.2 77.4 77.8 80.3 80.5 80.2 80.3 77.9 74.1 69.9 63.8 58.4 51.4 43.3 36.4 33.3 39 33.1 31 26.5 24.6 21.7 20.8 18.7 14.5 -1.1 -1.1 -1.1 -1.1 -1.1 -1.1 -1.1 -1.1 -1.1 -1.1 -1.1 -1.1 -1.1 -1.1 -1.1 -1.1 -1.1 -1.1 -1.1 -1.1 -1.1 -1.1 -1.1 -1.1 -1.1 -1.1 -1.1 -1.1 -1.1 -1.1 -1.1 -1.1 -1.1 -1.1 -1.1 -1.1 -1.1 -1.1 -1.1 -1.1 -1.1 -1.1 -1.1 -1.1 -1.1 -1.1 -1.1 -1.1 -1.1 -1.1 -1.1 -1.1 -1.1 -1.1 -1.1 -1.1 -1.1 -1.1 -1.1 -1.1 -1.1 -1.1 -1.1 -1.1 -1.1 -1.1 -1.1 -1.1 -1.1 -1.1 -1.1 -1.1 -1.1 -1.1 -1.1 -1.1 -1.1 -1.1 -1.1
111.7 112 119 125.4 133.1 137.5 146.3 154 158.5 164.6 171 175.7 179.4 182.5 185 189.9 194.7 197.3 201.7 206.5 215.5 222.7 227.5 232 236.2 237.8 239.4 240.8 242.2 243.3 244 245.3 246.4 246.9 246.4 245.9 245.2 244.2 241.6 238.5 233.3 230.1 223.6 214.3 204.1 197.1 191.7 186.3 182.3 179.6 177.9 175.6 174 174.7 175.5 175.6 175.7 177.6 180.6 184.1 187.2 189.7 192.6 195.8 198.5 197.7 195.6 190.4 190.1 183.7 173.6 167.6 158.1 168 179.8 174 165.8 155.7 146.5 138.6 129.2 121.9 119.4 112.8 106.1 100.3 94.4 88.7 83.6 80.8 80.9 81.7 85.5 88 89.2 88.1 92 93 90.4 90.9 90.1 88 85.5 81.7 77.6 72.7 68.1 62.9 57.5 49.1 45.6 40.3 34.7 29.9 31.1 33.4 35.8 35.4 33.5 35.5 30.3 -1.1 -1.1 -1.1 -1.1 -1.1 -1.1 -1.1 -1.1 -1.1 -1.1 -1.1 -1.1 -1.1 -1.1 -1.1 -1.1 -1.1 -1.1 -1.1 -1.1 -1.1 -1.1 -1.1 -1.1 -1.1 -1.1 -1.1 -1.1 -1.1 -1.1 -1.1 -1.1 -1.1 -1.1 -1.1 -1.1 -1.1 -1.1 -1.1 -1.1 -1.1 -1.1 -1.1 -1.1 -1.1 -1.1 -1.1 -1.1 -1.1 -1.1 -1.1 -1.1 -1.1 -1.1 -1.1 -1.1 -1.1 -1.1 -1.1 -1.1 -1.1 -1.1 -1.1 -1.1 -1.1 -1.1 -1.1 -1.1 -1.1 -1.1 -1.1 -1.1 -1.1 -1.1 -1.1 -1.1 -1.1 -1.1 -1.1
117 113.8 117.6 125.3 133 138.2 143.9 150.1 155.7 161.9 168.4 171.7 176 180.4 184.1 188.6 192.6 196.1 200.1 204.7 213.2 220 226 230.5 234.6 238.3 239.6 241.1 242.7 243.8 244.9 246 246.8 246.9 246.5 246.4 245.4 244 241.4 238.2 233.8 226.4 218.7 207.7 198.3 192.5 186.4 180.4 176.2 172.8 170.2 167.8 166.9 166.2 165.6 164.9 164.9 166.1 168.4 171.6 176.1 179.7 181.6 185.3 189.8 195.9 198.1 201.8 199.9 196.1 191.4 185.3 178.7 186.3 181.4 173.1 159.2 150.1 142.2 135.1 126.9 119.1 110.1 104.1 99.1 95.5 92.8 92.6 93.1 93 94.5 95.8 100.2 103.5 104.9 104.3 105.6 103.4 100.7 98.1 95.3 91.8 87.2 83.2 78.7 74.4 69.3 64.5 60.3 56 55.6 48.1 43.5 42.6 46.9 49 50.3 50.5 47.5 47.6 44.4 -1.1 -1.1 -1.1 -1.1 -1.1 -1.1 -1.1 -1.1 -1.1 -1.1 -1.1 -1.1 -1.1 -1.1 -1.1 -1.1 -1.1 -1.1 -1.1 -1.1 -1.1 -1.1 -1.1 -1.1 -1.1 -1.1 -1.1 -1.1 -1.1 -1.1 -1.1 -1.1 -1.1 -1.1 -1.1 -1.1 -1.1 -1.1 -1.1 -1.1 -1.1 -1.1 -1.1 -1.1 -1.1 -1.1 -1.1 -1.1 -1.1 -1.1 -1.1 -1.1 -1.1 -1.1 -1.1 -1.1 -1.1 -1.1 -1.1 -1.1 -1.1 -1.1 -1.1 -1.1 -1.1 -1.1 -1.1 -1.1 -1.1 -1.1 -1.1 -1.1 -1.1 -1.1 -1.1 -1.1 -1.1 -1.1 -1.1
120.4 117.8 117.6 123.5 129.8 135.9 141.3 147.1 152 158 164.3 168.6 172.5 176.8 181.8 186.2 190.3 194.2 198.3 203.2 210.3 217.2 224.1 228.8 232.8 237 238.9 241 243.1 244 244.4 245.5 246.1 246.3 246.1 245.7 244.8 243.4 241.7 237.3 232.3 225 215.3 201.9 194.7 187.9 181.9 175.7 172.4 168.2 164.2 161.8 160.2 159.5 159.3 157 156.6 157.9 158.4 161.1 164 167.7 171 174.3 179.5 185.3 192.4 199.4 205.7 206 207.2 203.5 200.7 193.9 184.2 170.8 157.5 146.9 136.1 128.6 122.7 115 110.3 107 107.9 109 108.5 106.5 108.2 107.6 108.9 111.1 114.7 114.9 113.5 112 110 107.2 103.6 100.2 96.6 91.5 87.4 83.4 78.3 74.2 69.6 65.4 62.7 59.5 56.5 49.7 53.4 52.6 58.1 62.3 64 64.8 61 59.2 55.1 -1.1 -1.1 -1.1 -1.1 -1.1 -1.1 -1.1 -1.1 -1.1 -1.1 -1.1 -1.1 -1.1 -1.1 -1.1 -1.1 -1.1 -1.1 -1.1 -1.1 -1.1 -1.1 -1.1 -1.1 -1.1 -1.1 -1.1 -1.1 -1.1 -1.1 -1.1 -1.1 -1.1 -1.1 -1.1 -1.1 -1.1 -1.1 -1.1 -1.1 -1.1 -1.1 -1.1 -1.1 -1.1 -1.1 -1.1 -1.1 -1.1 -1.1 -1.1 -1.1 -1.1 -1.1 -1.1 -1.1 -1.1 -1.1 -1.1 -1.1 -1.1 -1.1 -1.1 -1.1 -1.1 -1.1 -1.1 -1.1 -1.1 -1.1 -1.1 -1.1 -1.1 -1.1 -1.1 -1.1 -1.1 -1.1 -1.1
123.3 123.1 124 125.3 126.8 132.5 138.5 144.3 148.6 155.1 161.8 166.7 170.6 174.5 178.9 184.1 188.2 192.3 196.9 202.1 207.1 214.1 221.1 227.5 231.7 235.6 237.6 239.6 241.1 241.8 243 243.7 243.6 244.2 243.8 243.9 243.2 241.8 240.3 236.5 230.4 223.7 211 200.2 192.2 184.4 177.6 171.7 167.8 163.6 159.4 155.8 155.2 153.8 152.1 151.3 151.5 150.4 150.8 151.1 153.8 158.3 160.9 164.5 168.3 175.2 182.5 187.7 194.2 202.8 206.6 208 206.1 198.7 189.3 177.2 161.2 148.4 137.5 131.6 126.8 125.6 123.1 120.5 122.4 125.6 124.6 124.9 125.1 123.9 124 122.2 120.3 118 115.6 112.7 110.2 107.1 103.6 99.2 94.6 90.1 85.3 81.4 76.2 73 69.1 66.5 62.4 59.2 57.2 55.2 58.5 61.6 64.5 69 73.4 75.7 73.3 65.3 55.9 -1.1 -1.1 -1.1 -1.1 -1.1 -1.1 -1.1 -1.1 -1.1 -1.1 -1.1 -1.1 -1.1 -1.1 -1.1 -1.1 -1.1 -1.1 -1.1 -1.1 -1.1 -1.1 -1.1 -1.1 -1.1 -1.1 -1.1 -1.1 -1.1 -1.1 -1.1 -1.1 -1.1 -1.1 -1.1 -1.1 -1.1 -1.1 -1.1 -1.1 -1.1 -1.1 -1.1 -1.1 -1.1 -1.1 -1.1 -1.1 -1.1 -1.1 -1.1 -1.1 -1.1 -1.1 -1.1 -1.1 -1.1 -1.1 -1.1 -1.1 -1.1 -1.1 -1.1 -1.1 -1.1 -1.1 -1.1 -1.1 -1.1 -1.1 -1.1 -1.1 -1.1 -1.1 -1.1 -1.1 -1.1 -1.1 -1.1
127 128.6 128 132.3 133.2 133.3 134.8 140.9 147.2 153 158.8 163.6 166.9 172.4 176.5 183.2 187.6 191.7 195.7 200.6 204.5 211.3 220.1 227 230.9 234.2 236.6 238.2 238.7 239 238.3 238.1 237.9 238.1 238.2 237.9 240.2 239.7 237.4 235.8 228.8 222.7 210 199 191.1 183.3 174.9 168 160.4 154.2 150.8 147.2 147.8 147.2 145 144.9 144.8 143.8 142.6 143 146 148.2 151.7 154.2 158.2 164.7 171.6 177.4 184.2 190.3 197 203.8 203.7 199.4 192.3 184.2 169.7 155.4 150.7 140.3 139.5 140 139.2 135.8 139.5 142.7 140.2 138.1 134.7 130.8 127.3 123.9 120.5 117.1 113.5 109.7 106.1 102.8 98.9 94.7 89.5 84.6 79.9 76.8 73.7 70.5 67.2 63.9 61.1 58 54.2 57.1 60.4 63.8 68.5 73 77.7 80.3 78.3 70.9 59.6 -1.1 -1.1 -1.1 -1.1 -1.1 -1.1 -1.1 -1.1 -1.1 -1.1 -1.1 -1.1 -1.1 -1.1 -1.1 -1.1 -1.1 -1.1 -1.1 -1.1 -1.1 -1.1 -1.1 -1.1 -1.1 -1.1 -1.1 -1.1 -1.1 -1.1 -1.1 -1.1 -1.1 -1.1 -1.1 -1.1 -1.1 -1.1 -1.1 -1.1 -1.1 -1.1 -1.1 -1.1 -1.1 -1.1 -1.1 -1.1 -1.1 -1.1 -1.1 -1.1 -1.1 -1.1 -1.1 -1.1 -1.1 -1.1 -1.1 -1.1 -1.1 -1.1 -1.1 -1.1 -1.1 -1.1 -1.1 -1.1 -1.1 -1.1 -1.1 -1.1 -1.1 -1.1 -1.1 -1.1 -1.1 -1.1 -1.1
129.6 132.5 134 136.3 138.7 142.1 140.7 138.4 144.4 150 154.8 160 163.5 171 177.5 181.9 187 191 195 200.1 205.5 210.4 217.8 225.5 229.6 232.7 235 235.3 234.3 233.5 232.6 232 231.7 228.4 230.8 229.7 229 231.3 230.7 230.7 227.4 222.2 212.4 200.7 191.3 184.4 174.4 165.9 158.7 151.2 139.5 136.6 137.9 139.7 139.2 138.6 138 137.3 136 136.2 139.1 140.8 142.2 146.3 149.9 155.4 161.2 167.1 174.8 181 187.3 191.7 193.6 194.7 192.8 186.9 177.6 170.1 163.7 156.8 154.4 156.3 156.7 156 152.6 150 145.1 140.9 136.1 130.2 126.2 121.3 116.8 112.4 108.4 104.4 101.5 97.2 93.2 87.4 82.2 77.4 72.5 70.5 68 65.6 64.5 62.1 58.4 54.5 51.9 54.4 59.5 64 68.9 73.9 78.9 81.9 79.1 72.4 35.7 -1.1 -1.1 -1.1 -1.1 -1.1 -1.1 -1.1 -1.1 -1.1 -1.1 -1.1 -1.1 -1.1 -1.1 -1.1 -1.1 -1.1 -1.1 -1.1 -1.1 -1.1 -1.1 -1.1 -1.1 -1.1 -1.1 -1.1 -1.1 -1.1 -1.1 -1.1 -1.1 -1.1 -1.1 -1.1 -1.1 -1.1 -1.1 -1.1 -1.1 -1.1 -1.1 -1.1 -1.1 -1.1 -1.1 -1.1 -1.1 -1.1 -1.1 -1.1 -1.1 -1.1 -1.1 -1.1 -1.1 -1.1 -1.1 -1.1 -1.1 -1.1 -1.1 -1.1 -1.1 -1.1 -1.1 -1.1 -1.1 -1.1 -1.1 -1.1 -1.1 -1.1 -1.1 -1.1 -1.1 -1.1 -1.1 -1.1
131.6 134.6 138.7 140 143.2 145.4 148.9 148 144.8 147.1 150.8 158.1 165.2 172.8 180.1 183 187.2 192.7 197.6 202.4 207.2 212 217 222 228.1 229.7 230.2 230.2 225.4 222.3 217.2 215.3 215.3 213.7 213.3 212.6 212.4 214.4 218.1 221.5 222.5 219.1 209.8 202 194.7 185.3 175.7 167.5 159.3 152.1 144.3 131.2 126.2 129.5 130.2 131.6 130.6 128.2 128.8 130.5 131.2 135.1 136.6 139.3 142.1 148.6 152.9 157.9 164.2 171 177.2 181.6 185.2 187.5 187.8 187 183.8 179.8 175.6 170.8 169 167.7 165.2 161.3 155.1 150.3 144.7 139.3 132.9 127.5 121 115.4 110.2 104 100 95.7 93.1 89.7 86.1 80.5 72.2 67.5 64.1 62.2 60.3 58.8 58.9 56.5 55.4 53.7 46.5 51.8 57.2 62.4 67.3 72.7 78.1 79.6 76.7 71.2 32.9 -1.1 -1.1 -1.1 -1.1 -1.1 -1.1 -1.1 -1.1 -1.1 -1.1 -1.1 -1.1 -1.1 -1.1 -1.1 -1.1 -1.1 -1.1 -1.1 -1.1 -1.1 -1.1 -1.1 -1.1 -1.1 -1.1 -1.1 -1.1 -1.1 -1.1 -1.1 -1.1 -1.1 -1.1 -1.1 -1.1 -1.1 -1.1 -1.1 -1.1 -1.1 -1.1 -1.1 -1.1 -1.1 -1.1 -1.1 -1.1 -1.1 -1.1 -1.1 -1.1 -1.1 -1.1 -1.1 -1.1 -1.1 -1.1 -1.1 -1.1 -1.1 -1.1 -1.1 -1.1 -1.1 -1.1 -1.1 -1.1 -1.1 -1.1 -1.1 -1.1 -1.1 -1.1 -1.1 -1.1 -1.1 -1.1 -1.1
136.5 139.9 143.7 144.2 145.6 147.9 151.3 155.7 155.3 156.7 157.7 161.2 167.8 175.5 182.4 186.2 190.8 195.3 199.8 204.6 209.2 214.1 218.8 218.6 218.9 221.6 221.2 219.3 214.1 209.7 207.4 204.6 203.8 202.9 202.4 202 203.2 202.7 202.8 204.5 208.3 208 204.6 201 195.9 189.1 180.7 171.4 162.3 152.8 142.3 132.6 121.6 119.3 121.5 124 122.6 121.9 122.7 121.8 124.9 128.2 129 131.3 135.8 141.1 146.6 151.1 156.5 161 167.1 172.7 176.7 178.7 180.8 181.3 181.4 179.3 178.3 175.5 174 172 167.8 161.7 155.3 147.4 141.4 134.8 128.7 121.9 114.6 108 100.9 94.9 89.6 84.7 81.1 79.4 77.3 69.5 63.4 59.6 56.5 52.9 51.3 51.3 52.6 51.4 50.4 49.2 42.7 47.8 52.9 58.2 64.4 70.3 74.4 76.4 72.7 66.3 9.4 -1.1 -1.1 -1.1 -1.1 -1.1 -1.1 -1.1 -1.1 -1.1 -1.1 -1.1 -1.1 -1.1 -1.1 -1.1 -1.1 -1.1 -1.1 -1.1 -1.1 -1.1 -1.1 -1.1 -1.1 -1.1 -1.1 -1.1 -1.1 -1.1 -1.1 -1.1 -1.1 -1.1 -1.1 -1.1 -1.1 -1.1 -1.1 -1.1 -1.1 -1.1 -1.1 -1.1 -1.1 -1.1 -1.1 -1.1 -1.1 -1.1 -1.1 -1.1 -1.1 -1.1 -1.1 -1.1 -1.1 -1.1 -1.1 -1.1 -1.1 -1.1 -1.1 -1.1 -1.1 -1.1 -1.1 -1.1 -1.1 -1.1 -1.1 -1.1 -1.1 -1.1 -1.1 -1.1 -1.1 -1.1 -1.1 -1.1
141.7 147.6 149.8 150.8 150.6 151.6 155.6 159.5 163.9 166.6 167.5 172.8 176 179.3 186.7 190.1 193.7 197.7 202 206.7 211.3 215.4 218.6 216.4 213.1 211.8 209.8 207.9 204.4 200.6 196.6 194.4 193 192.1 191.6 191.4 193.2 192.8 193.4 194.3 195.6 196.6 197.2 195.1 191.5 186.9 181.7 173.9 164.5 156 146.6 135.2 122.6 110.8 110.8 113.6 112.9 114.2 113.7 112.6 115.5 119.2 118.7 123.5 130.1 134.7 140.3 143.8 147.8 153.4 159.1 163.8 167.1 169.2 171.4 172.3 173.5 174.5 173.9 173.6 172.8 170.6 166.3 160.5 152.4 144.2 135.8 128.2 122.8 116.2 108.4 98.3 92 88.1 79.8 76.4 70.7 67.2 63.8 60.9 58.7 53.5 49.3 47.9 44.6 44.6 44 43 42.4 43.4 38.9 39.7 48.6 54.3 59.3 66.5 70 71.9 66.5 55.1 1.3 -1.1 -1.1 -1.1 -1.1 -1.1 -1.1 -1.1 -1.1 -1.1 -1.1 -1.1 -1.1 -1.1 -1.1 -1.1 -1.1 -1.1 -1.1 -1.1 -1.1 -1.1 -1.1 -1.1 -1.1 -1.1 -1.1 -1.1 -1.1 -1.1 -1.1 -1.1 -1.1 -1.1 -1.1 -1.1 -1.1 -1.1 -1.1 -1.1 -1.1 -1.1 -1.1 -1.1 -1.1 -1.1 -1.1 -1.1 -1.1 -1.1 -1.1 -1.1 -1.1 -1.1 -1.1 -1.1 -1.1 -1.1 -1.1 -1.1 -1.1 -1.1 -1.1 -1.1 -1.1 -1.1 -1.1 -1.1 -1.1 -1.1 -1.1 -1.1 -1.1 -1.1 -1.1 -1.1 -1.1 -1.1 -1.1 -1.1
147.3 154.3 155.8 156.2 155.1 154.5 157.9 162.4 166.5 170.4 173.6 179 183.9 186.8 190.9 194 197.4 201.7 205.6 209.7 214.1 216.7 215 210.1 206.3 202.7 199 195.5 194.5 191.6 187.9 185.8 184.4 183.7 183.4 183.7 183.9 184 184.6 186 186.9 186.8 186.8 186.7 184.8 182.7 179.5 173.9 166.4 158.3 151 141.5 129.4 117.2 104.7 101.6 102.2 105.1 105 102.9 106.3 109.1 110.6 118.3 124.4 127.9 133.5 137.2 141.9 143 149.5 154.7 157.3 159.9 161.9 162 163.6 165 165.6 165.6 165.6 163.7 161.9 158 150.3 138.2 127.6 119 113.8 109.5 102.4 92.3 83.6 77.9 73.2 68.8 65.1 61.6 57.3 53.9 51.2 48 46 42.1 40.1 36.5 35.7 35 35.6 35.7 34.1 34.3 39.6 47.2 53.5 59.7 64.2 62.7 56.5 44.5 1.2 -1.1 -1.1 -1.1 -1.1 -1.1 -1.1 -1.1 -1.1 -1.1 -1.1 -1.1 -1.1 -1.1 -1.1 -1.1 -1.1 -1.1 -1.1 -1.1 -1.1 -1.1 -1.1 -1.1 -1.1 -1.1 -1.1 -1.1 -1.1 -1.1 -1.1 -1.1 -1.1 -1.1 -1.1 -1.1 -1.1 -1.1 -1.1 -1.1 -1.1 -1.1 -1.1 -1.1 -1.1 -1.1 -1.1 -1.1 -1.1 -1.1 -1.1 -1.1 -1.1 -1.1 -1.1 -1.1 -1.1 -1.1 -1.1 -1.1 -1.1 -1.1 -1.1 -1.1 -1.1 -1.1 -1.1 -1.1 -1.1 -1.1 -1.1 -1.1 -1.1 -1.1 -1.1 -1.1 -1.1 -1.1 -1.1 -1.1
148.7 156.7 161.7 162.7 160.6 158.7 160.3 164.4 167.9 171.5 177.5 182.6 186.2 189.8 193.9 198.2 202.3 205.9 209.9 214 215.5 212.4 208.7 204.4 198.7 193.7 190 186.4 183.9 181.7 180.1 178.7 178.4 176.4 176.3 176.2 176.4 176.8 178 179.5 179.6 179 179.1 179.1 176.9 176.3 177.3 173.4 167.6 160.8 152.7 144.4 135.4 122.6 110.9 97.5 92.6 95.1 93.5 93 99.8 100.8 104.5 112.1 116.6 120.9 126 130.2 135.3 139.7 143.8 148.3 149.3 151.2 152.3 152.3 152.7 153.1 152.7 153.6 155.7 156.5 155.4 153.9 149.7 139.1 126.4 117.8 108.4 105.2 98.9 88.9 86.2 83.1 81.1 78.9 72.4 66.5 70 67.7 61.5 55.6 51.8 51.2 45.3 41.5 37.7 34.8 34.5 35.8 27.6 27.7 33.1 39.3 44.7 50.7 56.6 59.1 54.1 47.3 39.9 -1.1 -1.1 -1.1 -1.1 -1.1 -1.1 -1.1 -1.1 -1.1 -1.1 -1.1 -1.1 -1.1 -1.1 -1.1 -1.1 -1.1 -1.1 -1.1 -1.1 -1.1 -1.1 -1.1 -1.1 -1.1 -1.1 -1.1 -1.1 -1.1 -1.1 -1.1 -1.1 -1.1 -1.1 -1.1 -1.1 -1.1 -1.1 -1.1 -1.1 -1.1 -1.1 -1.1 -1.1 -1.1 -1.1 -1.1 -1.1 -1.1 -1.1 -1.1 -1.1 -1.1 -1.1 -1.1 -1.1 -1.1 -1.1 -1.1 -1.1 -1.1 -1.1 -1.1 -1.1 -1.1 -1.1 -1.1 -1.1 -1.1 -1.1 -1.1 -1.1 -1.1 -1.1 -1.1 -1.1 -1.1 -1.1 -1.1
150.5 158.6 166.4 168.2 166 164.3 163.1 166.1 170.6 175 179.6 183.9 187.5 193.5 198.8 207 211.6 210.6 213.5 214.1 213.6 209.4 204.1 198.6 192.8 187.1 182.4 178.3 174.8 171.8 170.9 172.1 171.7 169.8 169.2 169.6 169.1 170.4 171.5 172.5 172.5 171.6 171.2 171.6 170.5 171 172 171.2 167.2 161.5 154.1 145.8 137.7 126.3 115.4 103.6 91.1 84.9 85 84.4 89.7 89.9 99.6 103.5 108.7 114 118.7 124.7 130 134.1 137.7 142.1 143.6 144.2 144.5 145.6 145.9 145.5 144.7 144.1 145.2 144.6 147.3 147 147.4 142.7 135.4 124.9 116.9 107.9 101.6 99 99 94.5 90.6 86.9 79.7 77.6 83.1 81.6 74.7 65.4 63.4 61.5 57.7 51.9 46.5 40.7 37.8 38.1 29.8 23.7 23.5 28.6 34.9 40.7 48.9 58.5 58.8 53.9 -1.1 -1.1 -1.1 -1.1 -1.1 -1.1 -1.1 -1.1 -1.1 -1.1 -1.1 -1.1 -1.1 -1.1 -1.1 -1.1 -1.1 -1.1 -1.1 -1.1 -1.1 -1.1 -1.1 -1.1 -1.1 -1.1 -1.1 -1.1 -1.1 -1.1 -1.1 -1.1 -1.1 -1.1 -1.1 -1.1 -1.1 -1.1 -1.1 -1.1 -1.1 -1.1 -1.1 -1.1 -1.1 -1.1 -1.1 -1.1 -1.1 -1.1 -1.1 -1.1 -1.1 -1.1 -1.1 -1.1 -1.1 -1.1 -1.1 -1.1 -1.1 -1.1 -1.1 -1.1 -1.1 -1.1 -1.1 -1.1 -1.1 -1.1 -1.1 -1.1 -1.1 -1.1 -1.1 -1.1 -1.1 -1.1 -1.1 -1.1
149.9 159.7 167.8 171.2 171.1 169.5 167 168.2 171.8 176 180.3 184.7 189.1 196.3 205.6 215.2 219.4 216.3 213 212.7 208.6 203 197.4 191.8 186.3 179.7 174.5 171.7 168.1 165.2 160.7 163.2 164.3 163.3 163.4 163 162.7 164.4 164.8 165.2 164.5 164.9 163.5 163.4 163.7 163.6 165.7 167.2 165.4 160.5 154.3 147.3 139.3 129.7 119.6 108.6 96.2 85.6 77.8 76.6 80.2 87.1 93.5 98 102.8 107.4 113.4 121.2 126.5 129.1 134.2 136.1 137.8 139 138.5 138.9 139 138.9 138 137.9 138.1 138.2 138.5 140 140.6 142.1 139.1 135.7 129.4 121.8 113.3 111.9 112.3 106.8 100 93.4 87.9 88.9 95.1 92.3 85.6 77.6 75.4 72 68.6 64.8 59.4 53.7 51 42 39.9 30.8 19.8 10.8 6.6 37 50.4 59.3 59.2 -1.1 -1.1 -1.1 -1.1 -1.1 -1.1 -1.1 -1.1 -1.1 -1.1 -1.1 -1.1 -1.1 -1.1 -1.1 -1.1 -1.1 -1.1 -1.1 -1.1 -1.1 -1.1 -1.1 -1.1 -1.1 -1.1 -1.1 -1.1 -1.1 -1.1 -1.1 -1.1 -1.1 -1.1 -1.1 -1.1 -1.1 -1.1 -1.1 -1.1 -1.1 -1.1 -1.1 -1.1 -1.1 -1.1 -1.1 -1.1 -1.1 -1.1 -1.1 -1.1 -1.1 -1.1 -1.1 -1.1 -1.1 -1.1 -1.1 -1.1 -1.1 -1.1 -1.1 -1.1 -1.1 -1.1 -1.1 -1.1 -1.1 -1.1 -1.1 -1.1 -1.1 -1.1 -1.1 -1.1 -1.1 -1.1 -1.1 -1.1 -1.1
149.7 159.3 167.4 171.2 173 173.6 171.6 171.1 173.3 177 181.4 185.5 191 198.5 208.6 217.8 221.6 217.6 213.3 208.9 204 197.2 190.7 185.1 179 171.5 164.3 162.3 161.3 158 151.2 154.2 155.5 156.7 157.9 155.9 155.9 156.9 159 157.5 156.3 157.2 156.7 156.1 156.1 156.8 157.3 160.4 161.2 158.5 153.8 147.5 140 131.4 121.3 111.1 101.1 90.4 80.5 72.5 73.4 80.8 85 90.5 93.4 102.6 111 117.3 121.8 126.2 131.2 133.9 135.2 132.2 131.8 133.1 131.8 133.1 132.9 132.8 132.9 133.1 132.5 133.2 133.6 137 139.7 139 135.8 132.2 127.4 124.5 120.5 114.7 107.7 103.1 99.7 100.7 103.2 99.7 95 89.8 85.3 80.3 75.8 71.4 66.4 61.2 56.6 49.6 45.7 36.7 -1.1 -1.1 -1.1 -1.1 9.2 3.3 -1.1 -1.1 -1.1 -1.1 -1.1 -1.1 -1.1 -1.1 -1.1 -1.1 -1.1 -1.1 -1.1 -1.1 -1.1 -1.1 -1.1 -1.1 -1.1 -1.1 -1.1 -1.1 -1.1 -1.1 -1.1 -1.1 -1.1 -1.1 -1.1 -1.1 -1.1 -1.1 -1.1 -1.1 -1.1 -1.1 -1.1 -1.1 -1.1 -1.1 -1.1 -1.1 -1.1 -1.1 -1.1 -1.1 -1.1 -1.1 -1.1 -1.1 -1.1 -1.1 -1.1 -1.1 -1.1 -1.1 -1.1 -1.1 -1.1 -1.1 -1.1 -1.1 -1.1 -1.1 -1.1 -1.1 -1.1 -1.1 -1.1 -1.1 -1.1 -1.1 -1.1 -1.1 -1.1 -1.1 -1.1 -1.1 -1.1 -1.1 -1.1 -1.1
149.7 158.1 164.8 168.6 170.8 173.9 173.6 173.4 175.2 178.2 181.7 187.2 192.6 198.9 208.7 216.1 218.3 214 209.7 205.4 199.6 192.6 185.2 176 167.9 159.5 152.8 147.6 149.2 142.7 140 142.5 146 147.8 147.1 146 146.5 149.6 151.5 149.9 149.4 149.3 149.5 149.1 149.5 149.2 149.4 151 151.8 152.2 151.8 146.5 139.8 131.6 121.6 110.5 100.4 90.9 81.8 73.6 67.2 74.3 77.5 84 92.6 100.5 108.5 113.8 118.1 123.6 127.5 130.2 130.1 130.1 129.7 130 129.2 128.4 127.9 129.3 127.6 127.7 128.7 128 130.3 132 135.6 137.2 136.5 136.4 133.7 130.2 125.9 120.4 115.9 112.7 109.9 109.1 107.5 104.1 99.2 94.7 89 82.6 77.5 72.5 67.1 62.2 58.3 53.5 42.9 -1.1 -1.1 -1.1 -1.1 -1.1 -1.1 -1.1 -1.1 -1.1 -1.1 -1.1 -1.1 -1.1 -1.1 -1.1 -1.1 -1.1 -1.1 -1.1 -1.1 -1.1 -1.1 -1.1 -1.1 -1.1 -1.1 -1.1 -1.1 -1.1 -1.1 -1.1 -1.1 -1.1 -1.1 -1.1 -1.1 -1.1 -1.1 -1.1 -1.1 -1.1 -1.1 -1.1 -1.1 -1.1 -1.1 -1.1 -1.1 -1.1 -1.1 -1.1 -1.1 -1.1 -1.1 -1.1 -1.1 -1.1 -1.1 -1.1 -1.1 -1.1 -1.1 -1.1 -1.1 -1.1 -1.1 -1.1 -1.1 -1.1 -1.1 -1.1 -1.1 -1.1 -1.1 -1.1 -1.1 -1.1 -1.1 -1.1 -1.1 -1.1 -1.1 -1.1 -1.1 -1.1 -1.1 -1.1 -1.1 -1.1
148.6 155.6 162 165.8 169.5 172.1 174 174.7 176.6 179.8 184.4 189.3 193.4 199.1 203.9 207 209 208.2 203.9 202 196.9 188.6 176.2 161.1 150 143.1 137.3 132.6 134.2 129.4 130.8 127.8 131.9 133.2 135.4 133.4 134.3 140.6 142.5 142.4 141.9 141.4 142 142.1 141.4 140.4 141.5 142.4 143.6 146.7 147.3 144 137.9 129.4 121.6 110.3 101.1 91.3 82.7 72.8 64 67.8 75.3 83.5 90.8 95.8 102 108.7 114.2 122.1 125.3 130.2 127.9 123.9 124.3 124 123 123.5 121.8 122.9 122.4 122.7 122.8 123.4 124.1 126 129.3 132.4 136.3 137.4 135.5 132.1 128.1 123.9 119.7 116.4 113.2 110.8 106.3 103.8 100.2 94.8 88.6 82 75.1 70.2 65.8 61.1 57.3 39.7 2.6 -1.1 -1.1 -1.1 -1.1 -1.1 -1.1 -1.1 -1.1 -1.1 -1.1 -1.1 -1.1 -1.1 -1.1 -1.1 -1.1 -1.1 -1.1 -1.1 -1.1 -1.1 -1.1 -1.1 -1.1 -1.1 -1.1 -1.1 -1.1 -1.1 -1.1 -1.1 -1.1 -1.1 -1.1 -1.1 -1.1 -1.1 -1.1 -1.1 -1.1 -1.1 -1.1 -1.1 -1.1 -1.1 -1.1 -1.1 -1.1 -1.1 -1.1 -1.1 -1.1 -1.1 -1.1 -1.1 -1.1 -1.1 -1.1 -1.1 -1.1 -1.1 -1.1 -1.1 -1.1 -1.1 -1.1 -1.1 -1.1 -1.1 -1.1 -1.1 -1.1 -1.1 -1.1 -1.1 -1.1 -1.1 -1.1 -1.1 -1.1 -1.1 -1.1 -1.1 -1.1 -1.1 -1.1 -1.1 -1.1 -1.1
147.4 154.9 159.7 162.9 166.6 169.7 171.4 174 176.8 180.1 184.9 188.9 192.4 195.2 199.1 200.2 200.5 199.9 196.1 195.3 193.3 186.3 174.4 161.9 147.8 133.9 125 120 118.4 118.5 119.1 115.9 117 124.6 124.4 121.2 126.8 132.2 133.3 133.6 133.7 132.2 133 132.4 131.8 132.8 134 134.9 136.4 139.5 141.5 139.5 134.4 127.1 120 110.9 100.3 93.6 83.9 73.7 62.6 63.5 72.7 77.9 85.7 90.9 96.5 104.1 110.9 118.6 122.3 122.3 119.8 118.3 116.8 117.6 116.3 115.8 115.9 118.1 116.9 116.6 116.7 117.4 119.1 121.1 123.8 125 129.1 133.6 132.2 128.8 125.5 121.7 119.2 116.1 112.4 108.9 103.8 99.6 96.1 91.6 84.6 78.9 71.2 65.9 61.8 59 31.6 1.8 -1.1 -1.1 -1.1 -1.1 -1.1 -1.1 -1.1 -1.1 -1.1 -1.1 -1.1 -1.1 -1.1 -1.1 -1.1 -1.1 -1.1 -1.1 -1.1 -1.1 -1.1 -1.1 -1.1 -1.1 -1.1 -1.1 -1.1 -1.1 -1.1 -1.1 -1.1 -1.1 -1.1 -1.1 -1.1 -1.1 -1.1 -1.1 -1.1 -1.1 -1.1 -1.1 -1.1 -1.1 -1.1 -1.1 -1.1 -1.1 -1.1 -1.1 -1.1 -1.1 -1.1 -1.1 -1.1 -1.1 -1.1 -1.1 -1.1 -1.1 -1.1 -1.1 -1.1 -1.1 -1.1 -1.1 -1.1 -1.1 -1.1 -1.1 -1.1 -1.1 -1.1 -1.1 -1.1 -1.1 -1.1 -1.1 -1.1 -1.1 -1.1 -1.1 -1.1 -1.1 -1.1 -1.1 -1.1 -1.1 -1.1 -1.1
148.5 153.5 157.5 160.6 163.5 166.2 168.3 172.7 176.4 180.1 183.5 187.1 189.7 191.5 194.2 194.7 194.9 191.6 184 184.9 184.9 187.9 184.5 173.9 163.7 151.4 132.1 115.3 108.1 106.7 108.2 106.5 110.3 119.6 113.4 110.2 118.1 122.3 124.7 120.9 123.4 122.8 123.3 123.7 123.4 124.4 126.9 127.9 128.6 130.9 133.6 132.9 128.2 123.2 117.2 107.6 99.3 94.8 85 70.9 59.2 57.2 69.3 74.5 79.3 86.8 95.2 101.6 109.5 116.5 118.8 117 114.8 112.7 111.8 111 110.8 110.6 110.3 108.1 110.1 111.2 112.9 111.5 113.3 116.2 117.9 119.8 124.2 125.4 123.2 122.2 119.7 117.7 113.9 110.7 107.5 102.7 96.4 92.9 88.6 85.6 79.1 72.3 67.4 61.1 56.7 33.1 -1.1 -1.1 -1.1 -1.1 -1.1 -1.1 -1.1 -1.1 -1.1 -1.1 -1.1 -1.1 -1.1 -1.1 -1.1 -1.1 -1.1 -1.1 -1.1 -1.1 -1.1 -1.1 -1.1 -1.1 -1.1 -1.1 -1.1 -1.1 -1.1 -1.1 -1.1 -1.1 -1.1 -1.1 -1.1 -1.1 -1.1 -1.1 -1.1 -1.1 -1.1 -1.1 -1.1 -1.1 -1.1 -1.1 -1.1 -1.1 -1.1 -1.1 -1.1 -1.1 -1.1 -1.1 -1.1 -1.1 -1.1 -1.1 -1.1 -1.1 -1.1 -1.1 -1.1 -1.1 -1.1 -1.1 -1.1 -1.1 -1.1 -1.1 -1.1 -1.1 -1.1 -1.1 -1.1 -1.1 -1.1 -1.1 -1.1 -1.1 -1.1 -1.1 -1.1 -1.1 -1.1 -1.1 -1.1 -1.1 -1.1 -1.1 -1.1 -1.1
148.1 150.6 153.9 156.6 158.6 161.3 164.4 170.7 176.2 179.4 182 183 184.4 185.3 186.8 187.9 187.9 183.6 173.3 164.1 167.1 180.1 183.4 172.4 159.9 147.5 136.4 124 108.6 98.1 97.5 99 113.8 115.3 105.4 100.1 107.2 112.6 115 111.1 114.7 115.3 113 114.8 113.3 114.9 120 121.1 121.3 123.3 125.7 125.8 122.2 117.3 112.6 105 98.8 91.7 80.3 66.2 56.1 51.7 63.7 68.3 78.6 85.6 93.3 99.8 106.6 113.9 114.3 112.8 110.7 108.1 105.5 104.9 104.3 103.7 105.5 100.9 105.2 104.8 106.8 106.5 109.2 110.4 113.6 115.3 118 119.1 118.4 116.4 114.4 112.1 109.8 103.7 99.8 95.6 90.3 83.8 80.7 78 74.7 68.1 62.6 57.3 31.3 5.4 -1.1 -1.1 -1.1 -1.1 -1.1 -1.1 -1.1 -1.1 -1.1 -1.1 -1.1 -1.1 -1.1 -1.1 -1.1 -1.1 -1.1 -1.1 -1.1 -1.1 -1.1 -1.1 -1.1 -1.1 -1.1 -1.1 -1.1 -1.1 -1.1 -1.1 -1.1 -1.1 -1.1 -1.1 -1.1 -1.1 -1.1 -1.1 -1.1 -1.1 -1.1 -1.1 -1.1 -1.1 -1.1 -1.1 -1.1 -1.1 -1.1 -1.1 -1.1 -1.1 -1.1 -1.1 -1.1 -1.1 -1.1 -1.1 -1.1 -1.1 -1.1 -1.1 -1.1 -1.1 -1.1 -1.1 -1.1 -1.1 -1.1 -1.1 -1.1 -1.1 -1.1 -1.1 -1.1 -1.1 -1.1 -1.1 -1.1 -1.1 -1.1 -1.1 -1.1 -1.1 -1.1 -1.1 -1.1 -1.1 -1.1 -1.1 -1.1 -1.1
145.9 147.8 149.9 151.2 152.5 155.1 159.2 165.8 172.1 176.9 178.2 179.1 178 177.9 177.1 178.8 178.8 174.8 162.5 150.1 152 165.3 175.2 171.3 158.7 142.8 126.5 112.9 105.5 94.8 91.9 99.7 111 110.1 100 93.3 97.7 104 106.9 100 104.1 106.3 102.2 105.9 101.6 109.2 114 114.7 114.8 116.5 119.5 120.9 115.8 110.8 105.9 101.6 96 87.8 78.4 65.6 53.4 52.3 61 65.5 76 82.6 89.3 99 105.5 112.9 110.5 107.9 106.3 104.4 101 99.4 97.3 97.5 97.7 95.2 95.8 97.2 100.5 101 103.2 105 108.6 111.7 112.7 115.4 113.6 111.3 110.5 108 104.9 99.4 95.9 89.4 85.2 79 74.6 71.9 68.4 58.7 51.1 30.6 5.1 -1.1 -1.1 -1.1 -1.1 -1.1 -1.1 -1.1 -1.1 -1.1 -1.1 -1.1 -1.1 -1.1 -1.1 -1.1 -1.1 -1.1 -1.1 -1.1 -1.1 -1.1 -1.1 -1.1 -1.1 -1.1 -1.1 -1.1 -1.1 -1.1 -1.1 -1.1 -1.1 -1.1 -1.1 -1.1 -1.1 -1.1 -1.1 -1.1 -1.1 -1.1 -1.1 -1.1 -1.1 -1.1 -1.1 -1.1 -1.1 -1.1 -1.1 -1.1 -1.1 -1.1 -1.1 -1.1 -1.1 -1.1 -1.1 -1.1 -1.1 -1.1 -1.1 -1.1 -1.1 -1.1 -1.1 -1.1 -1.1 -1.1 -1.1 -1.1 -1.1 -1.1 -1.1 -1.1 -1.1 -1.1 -1.1 -1.1 -1.1 -1.1 -1.1 -1.1 -1.1 -1.1 -1.1 -1.1 -1.1 -1.1 -1.1 -1.1 -1.1 -1.1
140.8 142.2 142.9 144.5 146.3 147.5 153.7 159.3 164.4 168.7 172.7 172.4 169.3 170 168.9 167.8 168.8 165 157.6 141.6 136.3 145.3 153.8 160.3 157.8 144 128.6 112.2 97.7 87.5 85.7 98.3 104.8 104 93.9 85.6 89.2 94.9 97.3 90.1 92.6 96 94.3 91.7 89.9 96.3 104.2 106.8 108.5 110.2 113.5 115.1 110.9 106.1 100.6 93.8 90.4 82.5 77.4 65.1 49.4 50.1 57.3 65.6 72.8 78.9 88.1 96.5 105.1 110.3 107.5 104.2 102.7 100.5 97 93.1 92.6 90.1 92.2 89.8 85.5 87.5 91.5 94.5 96.9 100.9 104.3 108.3 109.9 111 109.2 107.8 107.3 105.6 102 96.2 92.1 84.6 79.2 72.8 67.2 62.1 56.1 53.5 38.8 10.5 -1.1 -1.1 -1.1 -1.1 -1.1 -1.1 -1.1 -1.1 -1.1 -1.1 -1.1 -1.1 -1.1 -1.1 -1.1 -1.1 -1.1 -1.1 -1.1 -1.1 -1.1 -1.1 -1.1 -1.1 -1.1 -1.1 -1.1 -1.1 -1.1 -1.1 -1.1 -1.1 -1.1 -1.1 -1.1 -1.1 -1.1 -1.1 -1.1 -1.1 -1.1 -1.1 -1.1 -1.1 -1.1 -1.1 -1.1 -1.1 -1.1 -1.1 -1.1 -1.1 -1.1 -1.1 -1.1 -1.1 -1.1 -1.1 -1.1 -1.1 -1.1 -1.1 -1.1 -1.1 -1.1 -1.1 -1.1 -1.1 -1.1 -1.1 -1.1 -1.1 -1.1 -1.1 -1.1 -1.1 -1.1 -1.1 -1.1 -1.1 -1.1 -1.1 -1.1 -1.1 -1.1 -1.1 -1.1 -1.1 -1.1 -1.1 -1.1 -1.1 -1.1 -1.1
136 135 135.5 136.9 137 139.6 145.1 150.4 154.9 159.2 163.2 163.9 161.3 158.1 158.2 157.6 158.6 154.7 149.1 139 126.8 123.7 130.7 137.6 146.4 142.6 130.1 111 92.3 81.4 81.2 90.7 96.1 97.3 90.3 79.6 80.8 85.3 84.7 82.1 82.4 86.7 84.3 82.5 79.3 85.7 91.6 92.5 98.2 101.8 108.4 109.9 105.8 100.2 94.3 88.7 83.9 78.6 73.8 60.6 46.9 47.3 53.2 62.7 68.5 76.5 85.3 93.4 104.3 108.3 104.5 101.1 97.8 95.8 93.6 88.4 88.1 83.2 86.4 85.8 79.6 80.9 86.2 89.7 92.2 98 101.2 104.3 107.4 107.7 106.4 104.3 103.8 103.2 100.4 95 89.8 85.4 79.3 75.7 69.3 61.7 54 38.9 19.3 -1.1 -1.1 -1.1 -1.1 -1.1 -1.1 -1.1 -1.1 -1.1 -1.1 -1.1 -1.1 -1.1 -1.1 -1.1 -1.1 -1.1 -1.1 -1.1 -1.1 -1.1 -1.1 -1.1 -1.1 -1.1 -1.1 -1.1 -1.1 -1.1 -1.1 -1.1 -1.1 -1.1 -1.1 -1.1 -1.1 -1.1 -1.1 -1.1 -1.1 -1.1 -1.1 -1.1 -1.1 -1.1 -1.1 -1.1 -1.1 -1.1 -1.1 -1.1 -1.1 -1.1 -1.1 -1.1 -1.1 -1.1 -1.1 -1.1 -1.1 -1.1 -1.1 -1.1 -1.1 -1.1 -1.1 -1.1 -1.1 -1.1 -1.1 -1.1 -1.1 -1.1 -1.1 -1.1 -1.1 -1.1 -1.1 -1.1 -1.1 -1.1 -1.1 -1.1 -1.1 -1.1 -1.1 -1.1 -1.1 -1.1 -1.1 -1.1 -1.1 -1.1 -1.1 -1.1
129.3 127.2 127.1 127.8 129.2 133 138.3 141 144.6 148.9 152.4 153 149.2 147.3 146.2 145.9 144.7 141.2 135.5 129.4 122.6 116 113.2 119.4 126.4 127.8 121.2 106.2 87.1 79.2 77.9 83.1 87.5 88.5 87.8 77.1 70.7 69.8 71.2 70.2 73 79.3 75.5 70.9 69.5 77.2 80.5 81.1 85.6 92.1 102.5 105.9 103.1 97 90 84.8 81.8 75.1 70.7 59.5 48 42.9 47.4 56.3 64 73.3 81.4 91.7 100.6 104.9 101.8 97.3 93.6 91 89.3 84.3 82.5 78 79.3 77.2 75.1 78.6 82.3 83.5 88.3 92.9 96 99.9 104.4 104.4 103.5 101.2 101.3 101.1 99.4 96.8 90.5 84.9 79.3 72.9 66.7 60.4 51.4 42.5 5.7 -1.1 -1.1 -1.1 -1.1 -1.1 -1.1 -1.1 -1.1 -1.1 -1.1 -1.1 -1.1 -1.1 -1.1 -1.1 -1.1 -1.1 -1.1 -1.1 -1.1 -1.1 -1.1 -1.1 -1.1 -1.1 -1.1 -1.1 -1.1 -1.1 -1.1 -1.1 -1.1 -1.1 -1.1 -1.1 -1.1 -1.1 -1.1 -1.1 -1.1 -1.1 -1.1 -1.1 -1.1 -1.1 -1.1 -1.1 -1.1 -1.1 -1.1 -1.1 -1.1 -1.1 -1.1 -1.1 -1.1 -1.1 -1.1 -1.1 -1.1 -1.1 -1.1 -1.1 -1.1 -1.1 -1.1 -1.1 -1.1 -1.1 -1.1 -1.1 -1.1 -1.1 -1.1 -1.1 -1.1 -1.1 -1.1 -1.1 -1.1 -1.1 -1.1 -1.1 -1.1 -1.1 -1.1 -1.1 -1.1 -1.1 -1.1 -1.1 -1.1 -1.1 -1.1 -1.1
119.5 117.9 117.3 117.6 119.8 125.7 130.9 133.3 134.8 138.2 140.9 141.7 137.7 136.7 135.8 134.4 131.4 129.8 125.6 123 117.8 110.6 106.6 106.8 111 111.5 107 97.8 83.9 75.9 74 77.4 77.6 79.5 80.2 76.8 70.8 63.6 62 62.3 65 69.5 68.2 64 62.6 68.3 68.8 70.3 73.8 86 98.2 100.8 97.6 90.7 84.8 77.5 73.6 69.7 62.9 58.6 48.6 40.7 42.7 52.6 61.3 69.1 77.9 89.5 98.1 102.1 98.8 94 89.8 87.5 84.9 79.6 78.8 76.1 72 68.8 69 76.1 75.9 79.7 84.3 89.2 91.3 93.3 97.1 98.3 98.2 98.2 97.7 95.9 98.1 97.6 93.6 87.2 80 73.5 61.2 48 20.6 10.9 -1.1 -1.1 -1.1 -1.1 -1.1 -1.1 -1.1 -1.1 -1.1 -1.1 -1.1 -1.1 -1.1 -1.1 -1.1 -1.1 -1.1 -1.1 -1.1 -1.1 -1.1 -1.1 -1.1 -1.1 -1.1 -1.1 -1.1 -1.1 -1.1 -1.1 -1.1 -1.1 -1.1 -1.1 -1.1 -1.1 -1.1 -1.1 -1.1 -1.1 -1.1 -1.1 -1.1 -1.1 -1.1 -1.1 -1.1 -1.1 -1.1 -1.1 -1.1 -1.1 -1.1 -1.1 -1.1 -1.1 -1.1 -1.1 -1.1 -1.1 -1.1 -1.1 -1.1 -1.1 -1.1 -1.1 -1.1 -1.1 -1.1 -1.1 -1.1 -1.1 -1.1 -1.1 -1.1 -1.1 -1.1 -1.1 -1.1 -1.1 -1.1 -1.1 -1.1 -1.1 -1.1 -1.1 -1.1 -1.1 -1.1 -1.1 -1.1 -1.1 -1.1 -1.1 -1.1 -1.1
112 110.7 109.8 109.8 111.7 118.2 124.2 123.6 124.7 127.9 129.3 129.2 127.1 126.3 125.2 123.8 121.1 119.4 118.2 115.3 111.3 104.4 98.9 96.6 98.5 101.5 99.9 93.7 82.8 75.8 70.6 71 73 71.1 70.5 70.1 67.1 61.1 56.1 57.4 58.5 63.7 61.8 57 55.4 56.6 56.5 59.8 62.6 80 91.5 95.1 93 88.9 82.8 73.6 69.3 64.6 60.3 54.1 48.5 39.3 37.9 48 56.1 65.1 76 85.1 93.7 97.7 95.6 91 85.4 82.9 81.1 77.9 72.6 72.6 66.4 63.2 67 69.2 70 76.3 81.3 84.1 85.1 88.2 88.9 90.8 90.9 90.5 89.2 92 95 96.2 97.6 91.6 86 75.7 59.2 43.8 20.9 -1.1 -1.1 -1.1 -1.1 -1.1 -1.1 -1.1 -1.1 -1.1 -1.1 -1.1 -1.1 -1.1 -1.1 -1.1 -1.1 -1.1 -1.1 -1.1 -1.1 -1.1 -1.1 -1.1 -1.1 -1.1 -1.1 -1.1 -1.1 -1.1 -1.1 -1.1 -1.1 -1.1 -1.1 -1.1 -1.1 -1.1 -1.1 -1.1 -1.1 -1.1 -1.1 -1.1 -1.1 -1.1 -1.1 -1.1 -1.1 -1.1 -1.1 -1.1 -1.1 -1.1 -1.1 -1.1 -1.1 -1.1 -1.1 -1.1 -1.1 -1.1 -1.1 -1.1 -1.1 -1.1 -1.1 -1.1 -1.1 -1.1 -1.1 -1.1 -1.1 -1.1 -1.1 -1.1 -1.1 -1.1 -1.1 -1.1 -1.1 -1.1 -1.1 -1.1 -1.1 -1.1 -1.1 -1.1 -1.1 -1.1 -1.1 -1.1 -1.1 -1.1 -1.1 -1.1 -1.1 -1.1
103.8 102.1 100.9 102.9 105.2 110.9 115 114.6 113.1 116.5 117.5 117 116.3 114.9 114.8 113.8 111.5 110.8 111.3 108.9 105.5 98.2 93.7 90.2 91 94.2 90.9 89.8 83 77.9 72.8 65.5 65.5 63.1 61.7 60.8 57.7 55.1 51.3 50.6 51.4 57 54.6 50.3 50.2 50 48.7 50.2 58.2 70.6 77.7 80.7 86.4 87.2 82.6 75 65.9 60.4 56.6 50.4 47.6 39 34.2 41.4 49 59.8 73.4 79.4 88.5 94 92.1 88.1 83.3 78.9 76.3 73 68.1 67.3 62.7 58.5 62.3 61.5 66.5 73.1 75.9 78.6 80.5 82.8 84.7 84.5 84.6 84.4 85.9 86.6 88.9 92.9 94.4 93.6 90.6 81.7 72.2 46.9 6.1 -1.1 -1.1 -1.1 -1.1 -1.1 -1.1 -1.1 -1.1 -1.1 -1.1 -1.1 -1.1 -1.1 -1.1 -1.1 -1.1 -1.1 -1.1 -1.1 -1.1 -1.1 -1.1 -1.1 -1.1 -1.1 -1.1 -1.1 -1.1 -1.1 -1.1 -1.1 -1.1 -1.1 -1.1 -1.1 -1.1 -1.1 -1.1 -1.1 -1.1 -1.1 -1.1 -1.1 -1.1 -1.1 -1.1 -1.1 -1.1 -1.1 -1.1 -1.1 -1.1 -1.1 -1.1 -1.1 -1.1 -1.1 -1.1 -1.1 -1.1 -1.1 -1.1 -1.1 -1.1 -1.1 -1.1 -1.1 -1.1 -1.1 -1.1 -1.1 -1.1 -1.1 -1.1 -1.1 -1.1 -1.1 -1.1 -1.1 -1.1 -1.1 -1.1 -1.1 -1.1 -1.1 -1.1 -1.1 -1.1 -1.1 -1.1 -1.1 -1.1 -1.1 -1.1 -1.1 -1.1 -1.1
