ncols 200
nrows 96
xllcorner 160000
yllcorner 783900
cellsize 50
-1.7 -1.7 -1.7 -1.7 -1.7 -1.7 -1.7 -1.7 -1.7 -1.7 -1.7 -1.7 -1.7 -1.7 -1.7 -1.7 -1.7 -1.7 -1.7 -1.7 -1.7 -1.7 -1.7 -1.7 -1.7 -1.7 -1.7 -1.7 -1.7 -1.7 -1.7 -1.7 -1.7 -1.7 -1.7 -1.7 -1.7 -1.7 -1.7 -1.7 -1.7 -1.7 -1.7 -1.7 -1.7 -1.7 -1.7 -1.7 -1.7 -1.7 -1.7 -1.7 -1.7 -1.7 -1.7 -1.7 -1.7 -1.7 -1.7 -1.7 -1.7 -1.7 -1.7 -1.7 -1.7 -1.7 -1.7 -1.7 -1.7 -1.7 -1.7 -1.7 -1.7 -1.7 -1.7 -1.7 -1.7 -1.7 -1.7 -1.7 -1.7 -1.7 -1.7 -1.7 -1.7 -1.7 -1.7 -1.7 -1.7 -0.7 -1.1 -1.7 -1.7 -1 0 1 2 3.1 4.8 5.5 5.1 3.9 4.6 6.2 7.9 10 10.5 11.7 11.7 7.4 5.1 3.9 3.8 2.5 3.3 4.1 4.6 7.6 4.1 4 5.1 4.4 6 6 6.1 5.9 4.4 5.5 5.5 5.6 5.5 5.3 6.2 6.3 6 6.8 6.9 6.3 7.6 7.8 7.9 7.6 7.4 7.9 9.8 10.5 8.4 8.6 9.2 9.4 9.8 10.1 11 20.1 49.1 72.3 100.9 135.8 188.1 226 252.5 295.3 331.2 341 333.3 325.4 315.3 312.5 303.7 301.1 296 296.9 302.9 330.3 337.2 346.9 363.9 376.7 387.5 388.9 392.2 415.1 431.2 435.5 437.2 434 434.8 443.3 442.3 433.7 432 435.3 426.3 417.5 405 405 414 403.2 411.1 430.9
-1.7 -1.7 -1.7 -1.7 -1.7 -1.7 -1.7 -1.7 -1.7 -1.7 -1.7 -1.7 -1.7 -1.7 -1.7 -1.7 -1.7 -1.7 -1.7 -1.7 -1.7 -1.7 -1.7 -1.7 -1.7 -1.7 -1.7 -1.7 -1.7 -1.7 -1.7 -1.7 -1.7 -1.7 -1.7 -1.7 -1.7 -1.7 -1.7 -1.7 -1.7 -1.7 -1.7 -1.7 -1.7 -1.7 -1.7 -1.7 -1.7 -1.7 -1.7 -1.7 -1.7 -1.7 -1.7 -1.7 -1.7 -1.7 -1.7 -1.7 -1.7 -1.7 -1.7 -1.7 -1.7 -1.7 -1.7 -1.7 -1.7 -1.7 -1.7 -1.7 -1.7 -1.7 -1.7 -1.7 -1.7 -1.7 -1.7 -1.7 -1.7 -1.7 -1.7 -1.7 -1.7 -1.7 -1.7 -1.7 -0.7 0.6 0.7 0 -1.7 -1.5 -0.6 0.2 1.1 2.4 4.1 4.3 6.1 3.9 4.7 5.6 8.7 10 10.9 10.6 7.7 6.7 1.5 3.4 4.6 5.1 5.5 5.3 5.9 8.5 5.1 5.5 4.2 4.7 6.7 6.7 6.7 6.7 6.8 6.2 6.9 6.9 6.6 6 6.3 6.7 7.3 7.4 7.7 8.2 8.4 8.6 8.7 8.6 8.4 9.6 10.8 10.6 9.9 9.3 9.3 9.4 10 10.7 12 27.8 55.4 82.2 122.1 150.2 186.8 230.6 269.4 322.1 335.7 331.9 332.4 327.2 319 315.8 306.9 300.9 299.4 305.6 315.9 343.6 334.1 349.8 377.6 384.4 388.2 387.6 400 428.8 441.7 442 439.1 437.5 437.6 442.8 448.7 437.4 437.3 435.6 427.9 426.3 405 405 411.1 410 418 427.8
-1.7 -1.7 -1.7 -1.7 -1.7 -1.7 -1.7 -1.7 -1.7 -1.7 -1.7 -1.7 -1.7 -1.7 -1.7 -1.7 -1.7 -1.7 -1.7 -1.7 -1.7 -1.7 -1.7 -1.7 -1.7 -1.7 -1.7 -1.7 -1.7 -1.7 -1.7 -1.7 -1.7 -1.7 -1.7 -1.7 -1.7 -1.7 -1.7 -1.7 -1.7 -1.7 -1.7 -1.7 -1.7 -1.7 -1.7 -1.7 -1.7 -1.7 -1.7 -1.7 -1.7 -1.7 -1.7 -1.7 -1.7 -1.7 -1.7 -1.7 -1.7 -1.7 -1.7 -1.7 -1.7 -1.7 -1.7 -1.7 -1.7 -1.7 -1.7 -1.7 -1.7 -1.7 -1.7 -1.7 -1.7 -1.7 -1.7 -1.7 -1.7 -1.7 -1.7 -1.7 -1.7 -1.7 -1.7 -1.7 0 1.7 2.3 0.4 -1.7 -1.7 -1.6 -0.7 0.4 2.1 2.7 4.6 5.4 3.2 3.7 7.9 9.5 8.4 9.1 7.8 6.1 4.2 2.6 3.6 4.5 4.8 5.1 5.8 6.2 9 5.4 5.8 3.7 6.8 6.9 7.1 7.1 7 6.8 7.1 5.9 7.2 7.4 6.9 6.9 7.5 7.6 8.1 8.6 8.7 8.7 8.7 8.9 9.1 9.3 10.2 11.1 10.3 9.5 9.4 9.4 9.6 10.2 11.4 15.1 34.2 59.2 85.1 124.2 155.3 201.9 237.7 282.8 319.5 348 343.2 332.5 330.7 320.9 314.7 308.8 301.5 308.3 325 338.1 341.9 335.6 352.6 372.4 384.2 392.4 389.7 403.9 424.7 436.6 442.1 442.4 439.9 443.1 443.2 442.4 435.1 437.9 435.7 433.8 425.5 407.9 405 405 421.3 428.1 437.5
-1.7 -1.7 -1.7 -1.7 -1.7 -1.7 -1.7 -1.7 -1.7 -1.7 -1.7 -1.7 -1.7 -1.7 -1.7 -1.7 -1.7 -1.7 -1.7 -1.7 -1.7 -1.7 -1.7 -1.7 -1.7 -1.7 -1.7 -1.7 -1.7 -1.7 -1.7 -1.7 -1.7 -1.7 -1.7 -1.7 -1.7 -1.7 -1.7 -1.7 -1.7 -1.7 -1.7 -1.7 -1.7 -1.7 -1.7 -1.7 -1.7 -1.7 -1.7 -1.7 -1.7 -1.7 -1.7 -1.7 -1.7 -1.7 -1.7 -1.7 -1.7 -1.7 -1.7 -1.7 -1.7 -1.7 -1.7 -1.7 -1.7 -1.7 -1.7 -1.7 -1.7 -1.7 -1.7 -1.7 -1.7 -1.7 -1.7 -1.7 -1.7 -1.7 -1.7 -1.7 -1.7 -1.7 -1.7 -1.7 0.1 1.7 2.7 1.1 -1.7 -1.7 -1.7 -1.7 -1.7 -1.7 -1.7 -1.7 -0.5 -1.7 -1.7 6 5.5 4.9 5.2 4.9 5 4.8 3.9 0.8 4.2 4.6 4.9 5.4 6.8 9 6.5 6.9 7.2 6.8 7.1 7.2 7.2 7.1 7 7 6.8 7 7.3 7.3 7.3 7.5 7.5 8 8.6 8.8 8.8 8.8 9 9.3 9.5 10.8 10.7 9.9 9.4 9.5 9.7 9.9 10.7 13.3 22.4 44.9 67.2 94.6 134.4 163.6 205.2 254 300.6 322.3 326.1 326 328.4 331.1 322.1 315.8 308.4 303.8 312.4 316.9 341.2 342 333.6 347.6 369.9 385.8 389.1 393.7 410.5 424.4 434.2 442.3 444.6 441.7 444 443.3 434.3 427.7 437.1 438.4 434.4 418 405 405 407.4 418.6 429.5 444.1
-1.7 -1.7 -1.7 -1.7 -1.7 -1.7 -1.7 -1.7 -1.7 -1.7 -1.7 -1.7 -1.7 -1.7 -1.7 -1.7 -1.7 -1.7 -1.7 -1.7 -1.7 -1.7 -1.7 -1.7 -1.7 -1.7 -1.7 -1.7 -1.7 -1.7 -1.7 -1.7 -1.7 -1.7 -1.7 -1.7 -1.7 -1.7 -1.7 -1.7 -1.7 -1.7 -1.7 -1.7 -1.7 -1.7 -1.7 -1.7 -1.7 -1.7 -1.7 -1.7 -1.7 -1.7 -1.7 -1.7 -1.7 -1.7 -1.7 -1.7 -1.7 -1.7 -1.7 -1.7 -1.7 -1.7 -1.7 -1.7 -1.7 -1.7 -1.7 -1.7 -1.7 -1.7 -1.7 -1.7 -1.7 -1.7 -1.7 -1.7 -1.7 -1.7 -1.7 -1.7 -1.7 -1.7 -1.7 0.8 1.5 2.2 3.9 2.9 1.4 0.2 -1.7 -1.7 -0.4 -1.7 -1.7 -1.7 1.1 1.9 -1.7 -1.7 3.3 3.8 4.5 4.5 5 5.3 4.1 2.2 3.7 4 4.4 5 8.2 8.6 7.6 7.3 6.9 7.2 7.2 7.2 7.2 7.2 7.1 7 7 7.2 7.2 7.4 7.4 7.7 7.7 7.9 8.6 8.8 8.9 8.9 9.1 9.4 9.7 10.1 10.2 9.8 9.5 9.8 10 10.4 12.1 17.5 31.6 56 81.6 111 144.2 176.5 222.7 275.6 302.4 314.1 320.3 329.8 330 330 320 317.5 312.8 309 320.4 323.7 333.3 329.9 328.7 343.5 364.9 379.3 382.2 392.5 410.6 426.3 430.1 438.1 444.1 444.2 440.8 438.1 425.6 419.1 430.3 428 425.5 419.8 408.6 405.7 411.5 415.1 428.8 439.5
-1.7 -1.7 -1.7 -1.7 -1.7 -1.7 -1.7 -1.7 -1.7 -1.7 -1.7 -1.7 -1.7 -1.7 -1.7 -1.7 -1.7 -1.7 -1.7 -1.7 -1.7 -1.7 -1.7 -1.7 -1.7 -1.7 -1.7 -1.7 -1.7 -1.7 -1.7 -1.7 -1.7 -1.7 -1.7 -1.7 -1.7 -1.7 -1.7 -1.7 -1.7 -1.7 -1.7 -1.7 -1.7 -1.7 -1.7 -1.7 -1.7 -1.7 -1.7 -1.7 -1.7 -1.7 -1.7 -1.7 -1.7 -1.7 -1.7 -1.7 -1.7 -1.7 -1.7 -1.7 -1.7 -1.7 -1.7 -1.7 -1.7 -1.7 -1.7 -1.7 -1.7 -1.7 -1.7 -1.7 -1.7 -1.7 -1.7 -1.7 -1.7 -1.7 -1.7 -1.7 -1.7 -1.7 0.9 2.4 2.4 2.4 3 2.9 2.4 2.4 1.7 1.4 2.1 2.1 0.5 1 2.1 3.4 -1.7 -1.7 2.5 3.7 3.9 4.4 4.8 3.9 3.8 3.6 2.3 3.5 3.9 4.4 9.1 8.8 8 7.2 7.1 7.2 7.2 7.2 7.2 7.2 7.1 7.3 7.5 7.4 7.5 7.6 7.7 7.9 7.8 7.9 8.4 8.6 8.8 9 9.2 9.5 10.3 10.9 11 10.4 9.8 10.7 16.4 15.7 16.6 25.4 50.5 69.9 101.3 125.7 163.7 198.4 232.2 271.1 293.4 316.5 320.7 323.2 328.7 326.9 324.7 319.3 325.6 317.1 335.1 330.3 328.7 328.7 328.7 339.5 361.7 369.2 375.6 382.1 408.8 423.5 424.5 434.6 442.2 442.2 439.2 433.7 415.2 416 407.5 411.7 422.9 427 430.9 420.7 420.4 421.8 426.7 436.9
-1.7 -1.7 -1.7 -1.7 -1.7 -1.7 -1.7 -1.7 -1.7 -1.7 -1.7 -1.7 -1.7 -1.7 -1.7 -1.7 -1.7 -1.7 -1.7 -1.7 -1.7 -1.7 -1.7 -1.7 -1.7 -1.7 -1.7 -1.7 -1.7 -1.7 -1.7 -1.7 -1.7 -1.7 -1.7 -1.7 -1.7 -1.7 -1.7 -1.7 -1.7 -1.7 -1.7 -1.7 -1.7 -1.7 -1.7 -1.7 -1.7 -1.7 -1.7 -1.7 -1.7 -1.7 -1.7 -1.7 -1.7 -1.7 -1.7 -1.7 -1.7 -1.7 -1.7 -1.7 -1.7 -1.7 2.3 -1.7 -1.7 2.4 2.7 -1.7 -1.7 -1.7 -1.7 -1.7 -1.7 -1.7 -1.7 -1.7 -1.7 -1.7 -1.7 -1.7 -1.7 -1.7 -1.7 2.4 2.4 3.1 4.1 2.4 2.4 2.4 3.7 2.4 2.6 1.8 2.4 2.4 2.8 5.8 4.7 -1.7 -1.7 -1.7 2.4 -1.7 -1.7 -1.7 0.7 2.8 2.6 2.6 3.4 4.1 9.8 8.8 7.9 7.2 7.3 7.5 7.4 7.4 7.3 7.2 7.2 7.8 7.6 7.7 7.7 7.7 7.8 8.2 8.2 7.9 8.1 8.5 8.8 9.1 9.3 9.6 11 10.9 10.9 10.7 10.4 18.6 23.2 27.5 28.7 35.6 68.5 89.5 117.5 147.3 174.4 213.1 250.8 270.8 295.6 307 314.7 316.4 327.6 329.3 324.1 321.1 326.6 322.5 337 331.1 329 328.7 328.7 338.6 360.3 362.3 376.6 381.7 400.7 414 418.9 424.8 431.3 432.7 430.8 425.7 411.5 412.6 400.5 392.5 416.8 427.3 433.7 432.7 432.4 438.1 435.4 441
-1.7 -1.7 -1.7 -1.7 -1.7 -1.7 -1.7 -1.7 -1.7 -1.7 -1.7 -1.7 -1.7 -1.7 -1.7 -1.7 -1.7 -1.7 -1.7 -1.7 -1.7 -1.7 -1.7 -1.7 -1.7 -1.7 -1.7 -1.7 -1.7 -1.7 -1.7 -1.7 -1.7 -1.7 -1.7 -1.7 -1.7 -1.7 -1.7 -1.7 -1.7 -1.7 -1.7 -1.7 -1.7 -1.7 -1.7 -1.7 -1.7 -1.7 -1.7 -1.7 -1.7 -1.7 -1.7 -1.7 -1.7 -1.7 -1.7 -1.7 -1.7 -1.7 -1.7 -1.7 -1.7 -1.7 4.2 -1.7 -1.7 3.9 4.8 -1.7 -1.7 -1.7 -1.7 -1.7 -1.7 -1.7 -1.7 -1.7 -1.7 -1.7 -1.7 -1.7 -1.7 -1.7 -1.7 1.7 2.4 2.7 3.5 3.1 2.4 2.4 5 3.6 3.5 3.1 2.1 2.4 2.6 5.5 4.3 3.1 -1.7 -1.7 2.4 -1.7 -1.7 2.6 0.4 2.6 3.1 2.2 2.8 3.8 10.4 8.8 7.8 7.2 7.6 7.8 7.7 7.6 7.5 7.5 7.3 7.8 7.9 7.9 7.9 7.9 8 8.4 8.5 8.6 8.2 8.7 9.1 9.2 9.2 10.1 11.2 10.9 10.3 11.1 14.7 25.4 30.5 37.7 40.2 51.3 85.8 108.7 132.4 165.5 191.9 233.4 262.1 291.9 316.2 316.7 314.6 320.7 328 323.6 322.7 321.3 324 329.9 336.4 328.5 336.5 335.9 333.4 351.4 355.4 371.7 378.9 377.6 399.9 412.1 411.4 417.5 416.9 418.7 419.6 417.9 406.8 402.6 392.5 392.5 416 437.1 445.6 446 441 440.2 434.8 437.7
-1.7 -1.7 -1.7 -1.7 -1.7 -1.7 -1.7 -1.7 -1.7 -1.7 -1.7 -1.7 -1.7 -1.7 -1.7 -1.7 -1.7 -1.7 -1.7 -1.7 -1.7 -1.7 -1.7 -1.7 -1.7 -1.7 -1.7 -1.7 -1.7 -1.7 -1.7 -1.7 -1.7 -1.7 -1.7 -1.7 -1.7 -1.7 -1.7 -1.7 -1.7 -1.7 -1.7 -1.7 -1.7 -1.7 -1.7 -1.7 -1.7 -1.7 -1.7 -1.7 -1.7 -1.7 -1.7 -1.7 -1.7 -1.7 -1.7 -1.7 -1.7 -1.7 -1.7 -1.7 -1.7 -1.7 4 2.4 2.4 5.2 4.5 1.1 -1.7 -1.7 -1.7 -1.7 -1.7 -1.7 -1.7 -1.7 -1.7 -1.7 -1.7 -1.7 -1.7 -1.7 -1.7 1 2.4 2.4 2.4 3.5 3.8 4 4.5 3.2 3.6 2.8 2.6 2.6 2.7 3.8 4.4 3.5 3.4 2.5 3.3 4.5 4.4 3.8 3.1 1.8 2.2 2.4 3.3 6.1 10.8 8.9 7.9 6.6 8.1 8.1 7.9 7.8 7.7 7.6 7.5 6.3 8 8 8 8.1 8.4 8.3 8.3 8.3 7.9 8.4 8.8 9.3 9.2 9.7 10.1 10.5 10.7 12.1 21.2 31.6 38.9 51.5 58.6 68.3 97.7 130.7 155 182.3 211.7 241.9 276 289.5 316.8 317.8 318 320.1 324.6 321.7 319 322.2 328.1 335.8 334.4 330.3 347.2 357.6 350.3 360.2 361.9 368.8 376.2 371.9 393.8 398 400.1 405.4 411.8 409.5 409.5 404.8 398.8 392.5 392.5 392.5 413.5 443.5 445.4 441.4 442.5 442.7 445.8 441.3
-1.7 -1.7 -1.7 -1.7 -1.7 -1.7 -1.7 -1.7 -1.7 -1.7 -1.7 -1.7 -1.7 -1.7 -1.7 -1.7 -1.7 -1.7 -1.7 -1.7 -1.7 -1.7 -1.7 -1.7 -1.7 -1.7 -1.7 -1.7 -1.7 -1.7 -1.7 -1.7 -1.7 -1.7 -1.7 -1.7 -1.7 -1.7 -1.7 -1.7 -1.7 -1.7 -1.7 -1.7 -1.7 -1.7 -1.7 -1.7 -1.7 -1.7 -1.7 -1.7 -1.7 -1.7 -1.7 -1.7 -1.7 -1.7 -1.7 -1.7 -1 0.3 1.8 -1.7 0.3 2.6 5.4 2.6 3.1 6.9 7.2 1.9 0.2 0.4 -1.7 -1.7 0 -1.7 -1.7 -1.7 -1.7 -1.7 -1.7 2.3 -1.7 -1.7 -1.7 1.3 4.3 2.4 2.2 6.1 6.1 4.6 4.4 5 6.3 4.6 3.9 3.1 3.1 3.5 4.7 4.1 3.7 3.3 4.1 4.9 5.6 5.7 5.5 5.5 5.3 5.6 6 9.6 11.7 9.7 8 8.3 8.7 8.5 8.2 8 8 7.9 7.8 7.8 7.7 7.9 8 7.8 8 8.2 8.4 8.6 8.9 8.9 9.2 9.7 9.5 10.1 10.5 11 11.2 20.7 34 44 61.4 78 76.9 83.2 109 143.4 173.7 202 245.7 266 292.5 305.4 316.6 322.1 320.8 325.2 328.3 320.7 317 320.7 321.8 333.7 325.3 343.5 375.7 390.2 354.2 355.6 367.7 367.8 371.9 366.9 385.8 384.2 386.8 390.4 396.8 404.5 403.2 401.4 402.4 397.2 394.4 396.4 428.8 452.6 453.7 447 446 448.6 450.9 447.9
-1.7 -1.7 -1.7 -1.7 -1.7 -1.7 -1.7 -1.7 -1.7 -1.7 -1.7 -1.7 -1.7 -1.7 -1.7 -1.7 -1.7 -1.7 -1.7 -1.7 -1.7 -1.7 -1.7 -1.7 -1.7 -1.7 -1.7 -1.7 -1.7 -1.7 -1.7 -1.7 -1.7 -1.7 -1.7 -1.7 -1.7 -1.7 -1.7 -1.7 -1.7 -1.7 -1.7 -1.7 -1.7 -1.7 -1.7 -1.7 -1.7 -1.7 -1.7 -1.7 -1.7 -1.7 -1.7 -1.7 -1.7 -1.7 -1.7 -1 0.1 1.7 2.4 1.4 2.4 2.4 9.4 2.3 7.1 6.8 6.4 2.6 2.4 2.4 -1.7 -1.7 3 -1.7 -1.7 -1.7 -1.7 -1.7 -1.7 -1.7 -1.7 2.4 4.1 2.4 4.5 2.4 3.4 7.5 7.3 6 5.6 6.7 7.5 6.6 6.8 5.6 4.1 4.5 5.3 5.5 5 4.3 5.2 6.2 6.6 6.7 7.8 7.7 6.8 5.8 5.1 8.6 12.3 8.7 8.7 8.5 8.9 8.8 8.5 8.1 8.1 8.1 8 7.2 8.1 8.2 8.4 8.4 8.4 8.5 8.5 8.9 9.4 9.6 9.9 10.1 10.2 10.8 11.9 13.3 23.4 34 49.9 61.2 73.2 88.4 93 98.1 120.1 153.2 193.3 217.1 254.8 280.1 298.9 318.7 337.1 337.2 338.3 336.2 335 325.5 314.5 314.7 318.9 331.9 328.5 355.3 379.1 361.1 345.4 350.8 362.5 373.1 364.6 357.5 369.2 375.3 381.6 390.8 397.4 401.5 396.9 406.2 407.5 396 391.6 398.7 434.3 445.8 442.6 439.3 437.4 442.2 449.7 448.8
-1.7 -1.7 -1.7 -1.7 -1.7 -1.7 -1.7 -1.7 -1.7 -1.7 -1.7 -1.7 -1.7 -1.7 -1.7 -1.7 -1.7 -1.7 -1.7 -1.7 -1.7 -1.7 -1.7 -1.7 -1.7 -1.7 -1.7 -1.7 -1.7 -1.7 -1.7 -1.7 -1.7 -1.7 -1.7 -1.7 -1.7 -1.7 -1.7 -1.7 -1.7 -1.7 -1.7 -1.7 -1.7 -1.7 -1.7 -1.7 -1.7 -1.7 -1.7 -1.7 -1.7 -1.7 -1.7 -1.7 -1.7 -1.7 -1.7 0.4 1.6 2.4 2.3 2.4 2.4 2.4 5.8 5.6 9.3 6.3 5.3 2.4 2.4 2.1 3.9 2.4 2.4 -1.7 -1.7 -1.7 -1.7 -1.6 -0.5 -1.7 -1.7 4.6 5.7 2.4 2.9 3.9 4.2 2.2 5.5 5.5 5.4 6.7 8.3 7.8 8.1 7.8 5.7 5.6 5.6 5.4 5.1 5.9 7.6 10.9 10.2 8.5 8 7.8 7.8 8 4.5 9.4 12.1 8.7 8.7 8.9 9.2 9.2 9.3 8.9 8.4 8.3 8.3 8.4 8.1 8.4 8.6 8.6 8.7 8.7 8.1 9.9 11.1 11.3 11.1 12.4 11.2 12.4 14 16.8 32.2 47.7 60.3 75.6 91.5 110.3 112.4 116.6 141.2 167 202.5 231.2 259.2 290.8 310.9 326.3 330.9 334.5 336.5 335.9 330.4 316.3 313.7 313.5 316.8 323.7 326.9 345.7 352.4 338.3 340.3 348.7 360.1 361.2 361.1 355.6 364.4 368.4 376.3 384.5 391.5 392.4 390 397.5 395.2 387.8 380.5 395.4 417.1 430.9 433.5 431.8 430.7 435.3 445.2 442.3
-1.7 -1.7 -1.7 -1.7 -1.7 -1.7 -1.7 -1.7 -1.7 -1.7 -1.7 -1.7 -1.7 -1.7 -1.7 -1.7 -1.7 -1.7 -1.7 -1.7 -1.7 -1.7 -1.7 -1.7 -1.7 -1.7 -1.7 -1.7 -1.7 -1.7 -1.7 -1.7 -1.7 -1.7 -1.7 -1.7 -1.7 -1.7 -1.7 -1.7 -1.7 -1.7 -1.7 -1.7 -1.7 -1.7 -1.7 -1.7 -1.7 -1.7 -1.7 -1.7 -1.7 -1.7 -1.7 -1.7 -1.7 -1.7 0.3 1.8 2.4 2.3 4 4.5 2.4 2.4 5.7 6.8 7.8 6.1 5.3 2.6 3.2 3.7 2.4 2.4 2.4 0.3 -1.7 -1.7 -1.7 -0.1 1.1 1.9 3.3 3.1 3 2.7 4.9 4.7 5.3 5.7 5 6.3 7.6 7.6 8.5 9 9.1 10.2 8.9 6.9 5.8 5 6.1 7.4 11.5 11.1 9.3 8.8 8.1 7.9 8.6 8.9 9.1 8.1 8.2 9.1 9.8 9.6 9.4 9.1 9.1 9 8.4 8.6 8.1 8.7 8.9 9.3 9.1 9 9.5 9.9 9.9 13.1 19.9 23.5 18.5 20.8 22.7 15.6 21.5 21.2 35.1 55.9 72.3 92.9 119 126.5 136.4 149.4 176.4 196.5 229.8 265.3 290.4 301.3 317.5 332.8 329.9 331.8 329 326.5 317.1 316.3 312.2 319.8 322.4 325.2 333.4 348.4 332.1 335.4 348.1 345.7 357.7 356.1 355.9 353.1 354.5 356.4 362.8 373.1 378.7 377.2 380.2 383.6 383.8 381.4 381.3 389.2 404 412.7 409.5 421.1 424.3 429 434.2 426.8
-1.7 -1.7 -1.7 -1.7 -1.7 -1.7 -1.7 -1.7 -1.7 -1.7 -1.7 -1.7 -1.7 -1.7 -1.7 -1.7 -1.7 -1.7 -1.7 -1.7 -1.7 -1.7 -1.7 -1.7 -1.7 -1.7 -1.7 -1.7 -1.7 -1.7 -1.7 -1.7 -1.7 -1.7 -1.7 -1.7 -1.7 -1.7 -1.7 -1.7 -1.7 -1.7 -1.7 -1.7 -1.7 -1.7 -1.7 -1.7 -1.7 -1.7 -1.7 -1.7 -1.7 -1.7 -0.8 0.4 -1.7 -0.9 2.1 2.3 4.6 4.6 5.8 6.2 2.4 2.4 6.6 7.1 7.7 6 5.1 5.3 2.4 2.4 2.4 2.4 2.4 1.3 0.7 0.6 1.3 2 2.4 3.7 6.5 6.4 4.9 5.1 6.8 8.7 6.6 6 7.1 9.1 10.8 10.3 10.1 10.1 10.3 11.3 9.6 8 7.4 7 8.1 10.3 17 15.8 14.6 13.8 14.5 10.9 10.6 9.4 9.1 8.8 10.9 9.7 11.6 12.9 9.8 9.5 9 9 9.3 9.1 9.4 9 9.7 13.1 10.4 10.4 10.6 11.7 14.7 21.1 32.2 39.7 33.8 27.7 34.6 30.2 27.3 29 45.3 68.3 92.8 111.2 139.5 154.1 158.5 185.2 214 224.3 247.8 288.5 305.9 320.5 325.3 326.7 327.8 327.6 325.7 321.2 309.4 310.3 312.6 327.1 320.7 327.9 345 337 326 323 333.5 336.4 346.1 353.1 353.5 359.2 364.4 359 356.6 360.6 363.1 363 373.5 380.5 379.9 381.6 384.5 389.9 393.3 392.1 392.6 405.7 407.6 415 414.3 410.1
-1.7 -1.7 -1.7 -1.7 -1.7 -1.7 -1.7 -1.7 -1.7 -1.7 -1.7 -1.7 -1.7 -1.7 -1.7 -1.7 -1.7 -1.7 -1.7 -1.7 -1.7 -1.7 -1.7 -1.7 -1.7 -1.7 -1.7 -1.7 -1.7 -1.7 -1.7 -1.7 -1.7 -1.7 -1.7 -1.7 -1.7 -1.7 -1.7 -1.7 -1.7 -1.7 -1.7 -1.7 -1.7 -1.7 -1.7 -1.7 -1.7 -1.7 -1.7 -1.7 -1.7 -1.7 1.3 3.4 2.5 1 2.5 7.4 6.4 8 9 7.4 5.6 2.4 5.5 5.3 6.9 7.2 5.4 6.4 2.4 2.4 2.4 2.4 2.4 2.7 2.4 2.3 3.1 2.4 2.4 5.3 13.5 10.2 8.7 9.1 13.1 14 14.7 12.4 10.1 13.3 11.7 12.6 11.9 15 13.6 14.3 13.4 10.1 9 9.5 12.1 14.5 19.9 21.6 20.7 20.3 20.5 18.3 12.4 10.5 9.5 9.9 13.2 10.6 11.7 11.6 10.1 10.1 12.1 15.4 17 10.9 10.7 10.2 11.2 16.6 12.4 11.8 14.3 19.2 21.6 30.6 41.4 49 42.6 37.3 44.1 45.9 46 41.8 49.9 77.5 105.9 131.7 149.3 168.3 180.9 205.4 240.2 248.5 265.2 291.2 309.4 330.8 336.6 328.3 327 321.2 319.6 309.7 303.1 306.1 315.7 317.9 313.9 328.3 327.4 320.5 325.8 319.2 323.3 331.8 342.1 354.2 356.9 352.5 364 361.5 353.5 351.3 355.8 365.8 371.2 372.3 375.6 387 386 385.6 385.3 386.5 389.4 412.1 411.1 404.7 400.2 392
-1.7 -1.7 -1.7 -1.7 -1.7 -1.7 -1.7 -1.7 -1.7 -1.7 -1.7 -1.7 -1.7 -1.7 -1.7 -1.7 -1.7 -1.7 -1.7 -1.7 -1.7 -1.7 -1.7 -1.7 -1.7 -1.7 -1.7 -1.7 -1.7 -1.7 -1.7 -1.7 -1.7 -1.7 -1.7 -1.7 -1.7 -1.7 -1.7 -1.7 -1.7 -1.7 -1.7 -1.7 -1.7 -1.7 -1.7 -1.7 -1.7 -1.7 -1.7 -1.7 -1.7 -1.7 3.3 5.5 5.4 3.9 4.4 13.9 14.8 15.7 14.6 7 4.2 4.3 6 5 6.8 5.6 5.1 6.4 2.4 2.4 2.4 2.4 3.8 6.4 2.4 2.7 4.4 2.4 2.4 6.3 14.6 12.6 10.9 11.6 12.6 12.9 13.2 11.2 10.6 11.2 14.5 15.3 18.1 25.5 25.9 18.7 16.6 13.6 14.9 13.7 19 19.7 23.4 24.4 24 24.4 25.4 19.4 13.9 12.6 12.1 10.2 15.6 10.8 14.1 16.5 11.2 14.3 21.2 22.6 22 11.1 11.5 11 14.9 19.7 16.2 16.3 24 26 33.4 35.5 48.4 56.5 57.9 54.4 50 61.9 68.4 57.9 60.8 81.7 112.9 140.3 156.8 180.4 197.4 229.8 257.3 266.8 274.5 302.1 316.5 337.3 340.8 325.7 313.9 310.2 305.2 297.5 301.5 313 311.6 306.9 313.1 321.1 314.6 324.8 328.7 317.9 328 334.9 342.8 353.8 351.8 345.7 356.3 355.3 351.3 343 355.6 368.2 369.4 370.1 385 394.3 393.4 380 382.2 377 381 398.9 403.1 397.2 392.8 388.4
-1.7 -1.7 -1.7 -1.7 -1.7 -1.7 -1.7 -1.7 -1.7 -1.7 -1.7 -1.7 -1.7 -1.7 -1.7 -1.7 -1.7 -1.7 -1.7 -1.7 -1.7 -1.7 -1.7 -1.7 -1.7 -1.7 -1.7 -1.7 -1.7 -1.7 -1.7 -1.7 -1.7 -1.7 -1.7 -1.7 -1.7 -1.7 -1.7 -1.7 -1.7 -1.7 -1.7 -1.7 -1.7 -1.7 -1.7 -1.7 -1.7 -1.7 -1.7 -1.7 -1.7 -0.2 2 6.9 7.5 6.6 7.9 13.6 17.1 18.6 15.9 11.7 6.6 8.6 10.9 3.1 6.5 2.8 4.8 6.6 2.4 2.4 2.4 2.4 5.6 5 4.5 6.6 7.9 2.4 2.4 8 12.3 11.5 11.3 12.7 16.4 17.8 16.9 15.9 18.9 16.3 20.8 24.1 29.2 35.3 35.2 30.6 27.4 24.7 22.1 23.7 22.9 25.2 27.1 28.4 30.4 31.4 29.5 20.4 16.5 16 17.6 16.7 17 12.2 13.3 14.9 15.7 25.3 24.5 28 27.2 17 14.7 16.3 22.4 27.8 23.2 21.7 29.9 33 45.3 45.5 55.4 64.6 69.6 60.2 61.7 79.4 75.6 73.4 70.9 89.9 119.6 144.6 165 192.2 223.4 256.7 261.9 265.1 277.9 296.3 318.6 337.7 329.1 316.5 305.1 299.7 293.4 292.1 299.3 304 302.8 303.4 315.2 311 312.9 329.7 327.9 317.1 331.5 339.1 339.9 341.4 336.1 336.6 342.1 343.2 337.4 347.9 357 359.8 359.2 369.6 381.1 386.7 380.5 371.1 370.4 369.3 372.3 381.6 389.1 387.7 384.2 392.8
-1.7 -1.7 -1.7 -1.7 -1.7 -1.7 -1.7 -1.7 -1.7 -1.7 -1.7 -1.7 -1.7 -1.7 -1.7 -1.7 -1.7 -1.7 -1.7 -1.7 -1.7 -1.7 -1.7 -1.7 -1.7 -1.7 -1.7 -1.7 -1.7 -1.7 -1.7 -1.7 -1.7 -1.7 -1.7 -1.7 -1.7 -1.7 -1.7 -1.7 -1.7 -1.7 -1.7 -1.7 -1.7 -1.7 -1.7 -1.7 -1.7 -1.7 -1.7 -1.7 -1.7 0.3 2.6 5.9 6.3 6.3 11.8 6.8 15.3 14.1 12.8 11.7 6.6 4.2 5.9 2.4 2.4 2.4 3.9 5.5 3.4 2.4 2.4 2.4 4.9 4.8 6.4 7.7 8.2 3.4 2.5 7.1 13.6 13.4 15.6 19.8 20.4 24 22.4 22.1 25.4 24.2 30.5 31.7 37 44.5 42 39.4 42 35.1 33.4 31.7 28.5 29.2 35.1 34.2 34.1 35.1 31.6 27.5 22.2 31.7 23.6 27.8 21.1 17.7 13.6 17 19.8 23.9 30.6 33.5 28.1 23.6 23.6 24.9 30.9 39.4 36.2 32.5 36.2 39 48.2 52.5 65.1 75.6 79.1 66.6 72.7 82 78.9 81.3 82.9 102.7 130.6 160.4 182.3 210.2 238.6 253.8 252.4 254 266.7 294.7 314.7 322.4 309.6 302 297.4 293.3 286.4 287 303.1 300.1 297.3 306.4 310 310.7 314.3 321.5 320.6 313.4 325.8 329.1 331.4 334.8 329.9 325.1 330.4 334 342.1 344.6 347.4 349.2 355.8 363.3 372.1 370.7 370.2 364 363.8 365.1 363.8 369.6 388.1 379.5 380.2 393.8
-1.7 -1.7 -1.7 -1.7 -1.7 -1.7 -1.7 -1.7 -1.7 -1.7 -1.7 -1.7 -1.7 -1.7 -1.7 -1.7 -1.7 -1.7 -1.7 -1.7 -1.7 -1.7 -1.7 -1.7 -1.7 -1.7 -1.7 -1.7 -1.7 -1.7 -1.7 -1.7 -1.7 -1.7 -1.7 -1.7 -1.7 -1.7 -1.7 -1.7 -1.7 -1.7 -1.7 -1.7 -1.7 -1.7 -1.7 -1.7 -1.7 -1.7 -1.7 -1.7 -1.7 -1.7 2.4 4.6 2.4 2.4 2.8 2.4 10 10.7 10.7 9.4 4.2 2.4 4.8 2.4 2.4 2.4 2.4 3.7 2.4 2.4 2.4 2.4 2.4 4.5 7.8 8.9 9.3 9 8.4 11.6 15.8 18.7 19.7 23.4 28.6 31.9 33.4 29.5 28.9 30.7 38.7 40.9 40.7 45.4 46.1 45.7 47.5 43.6 38.3 34.7 35.4 38.9 45.7 46.1 45.6 38.9 35.2 33.8 34.7 36.4 33.6 33.2 26.8 22.2 19.2 21.4 24.5 28 32.4 41.7 39.3 30.6 30.7 33.6 40 49.9 50 51.1 46.2 49.9 53.5 61.1 69.1 79.3 82.1 74.4 79.1 85.7 88.9 95.2 99.3 119.4 148.4 173.7 200.8 224.6 238.7 246.3 244.8 250.4 268 294.2 313.6 308.2 302.7 292.5 286.2 282.2 276 289.2 293.1 289.8 295.5 303.1 308.3 310.8 316.6 316.3 306.2 310.5 317.4 318.9 322.1 320.5 324.1 312.4 318.8 325.6 335.6 339.9 336.2 345.9 349.3 352.6 358.6 362.1 365.6 361.1 359.2 359.8 359.9 358.5 365.5 359.6 376.1 381.2
-1.7 -1.7 -1.7 -1.7 -1.7 -1.7 -1.7 -1.7 -1.7 -1.7 -1.7 -1.7 -1.7 -1.7 -1.7 -1.7 -1.7 -1.7 -1.7 -1.7 -1.7 -1.7 -1.7 -1.7 -1.7 -1.7 -1.7 -1.7 -1.7 -1.7 -1.7 -1.7 -1.7 -1.7 -1.7 -1.7 -1.7 -1.7 -1.7 -1.7 -1.7 -1.7 -1.7 -1.7 -1.7 -1.7 -1.7 -1.7 -1.7 -1.7 -1.7 -1.7 -1.7 -1.7 2.4 4.5 2.4 2.2 2.4 2.4 6.1 7.2 7.7 6.7 2.5 2.4 4.5 2.4 2.4 2.4 2.4 2.4 2.4 2.4 2.4 2.4 3.3 4.7 6.7 9.4 11.1 10.6 10.6 17.5 22.2 22.3 24.8 29.4 35.7 39.7 39.2 38.4 36.6 38.3 40.8 42.9 42.8 45.2 47.6 45.5 47 45.9 44.4 41 41 46.4 49.5 48.4 45 41.4 38.4 36.4 37 41.3 39.2 38.5 33.6 27 24.9 26.4 28.9 35.2 37.6 43.8 48.3 48.6 38.5 42 44.7 55.5 59.4 56.3 58.4 59.4 68.8 68.7 79.8 90.9 87.5 82.6 95.8 113.2 123.8 124.2 120.7 149.7 162.3 185.3 214.8 234.4 236.8 238.3 243.6 250.2 277.1 293.7 305.8 297.2 290.7 282 274.8 269.7 271.2 290.5 284.2 282.9 295.1 300.1 307.9 314.2 317 308.3 297.2 302.2 305.1 305.4 308.6 307.3 307.3 307.4 309.7 319 328.4 324.8 329.9 333 343.9 350.2 357.3 354.2 356.7 353.1 358.5 358.2 356 353.2 347.1 351.2 360 368.2
-1.7 -1.7 -1.7 -1.7 -1.7 -1.7 -1.7 -1.7 -1.7 -1.7 -1.7 -1.7 -1.7 -1.7 -1.7 -1.7 -1.7 -1.7 -1.7 -1.7 -1.7 -1.7 -1.7 -1.7 -1.7 -1.7 -1.7 -1.7 -1.7 -1.7 -1.7 -1.7 -1.7 -1.7 -1.7 -1.7 -1.7 -1.7 -1.7 -1.7 -1.7 -1.7 -1.7 -1.7 -1.7 -1.7 -1.7 -1.7 -1.7 -1.7 -1.7 -1.7 -1.7 -1.7 0.3 1.4 0.8 0.7 1.5 2.2 4.4 5.2 4.8 4 2.4 2.4 2.3 2.4 2.4 2.4 2.4 2.4 2.4 2.4 2.4 3.9 10.6 5.9 12.1 13 12 10.5 11.1 18.8 23.1 26.3 29.9 32.4 39.1 40.5 42.5 42.4 42.6 42.5 45.5 48.4 47.1 47.4 47.9 49.3 48.4 47.9 47.5 42.8 42 44.5 47.9 47 43.4 42.5 40.2 37.9 38.3 41.6 45.2 48 37.3 32.3 28.5 30.7 35.8 41.8 42.1 48.2 56.7 57.5 48.2 48.9 54.3 61.1 66.8 61.1 61.7 68.1 75.8 82.6 87.8 101.6 94 89.5 107.6 136.9 145.2 138.9 140.1 161.2 172.8 196.9 225.3 238 232.9 236.4 250.9 262.4 290.1 297.1 291 285.5 277.2 272.9 263.7 264.2 273.5 276.9 274.5 287.8 297.9 307.2 310.4 315.9 305.6 287.6 289.1 294.3 295.3 295 298.8 297.6 298.1 300.2 299.6 306.2 316.4 321.7 325.2 325.2 335.5 341.4 347.7 347.7 347 343.4 350.8 352.7 355.4 345.8 334.7 344.1 352.6 360.9
-1.7 -1.7 -1.7 -1.7 -1.7 -1.7 -1.7 -1.7 -1.7 -1.7 -1.7 -1.7 -1.7 -1.7 -1.7 -1.7 -1.7 -1.7 -1.7 -1.7 -1.7 -1.7 -1.7 -1.7 -1.7 -1.7 -1.7 -1.7 -1.7 -1.7 -1.7 -1.7 -1.7 -1.7 -1.7 -1.7 -1.7 -1.7 -1.7 -1.7 -1.7 -1.7 -1.7 -1.7 -1.7 -1.7 -1.7 -1.7 -1.7 -1.7 -1.7 -1.7 -1.7 -1.7 -1.7 -1.7 -1.7 -0.3 0.4 1.4 2.4 4.7 2.9 2.5 2.1 1.8 1.6 2.3 2.4 2.4 2.4 2.4 2.4 2.4 2.9 2.4 2.2 6.2 11.7 12.3 11.3 10.9 13.7 22.2 27.3 31.8 33.9 35.1 41.4 42.8 46 47.3 45.3 46.3 47.6 49.9 53.1 49.6 50.9 52.7 53.3 52.7 51.4 49.1 52.1 43.6 45.6 49 50.5 47.2 45.9 40.4 43.3 42.9 47.2 52.1 49.8 36.7 35.2 35.2 43.7 52.1 53.8 50.6 59.4 66.2 59.4 58.7 62.7 63 73.3 75 70 87.8 90.1 91.3 92 105.8 105.6 98.9 123.7 144 152.6 149.6 151 155.4 171.8 203.8 225.1 227.4 230.6 244.3 257.6 268.7 287.6 288.8 278.2 274.2 266.2 263 254.8 259.7 266.6 265 269.4 288.5 299.1 302.8 303.3 305.6 287.5 276.8 284.9 285.4 286.9 288.7 287.7 287.4 287.6 293.3 295.1 304 311.2 318.3 321.2 318.4 329 333.3 332.6 334.7 335.8 339 345.5 348.6 347.6 333.8 330.7 340.8 346.1 350
-1.7 -1.7 -1.7 -1.7 -1.7 -1.7 -1.7 -1.7 -1.7 -1.7 -1.7 -1.7 -1.7 -1.7 -1.7 -1.7 -1.7 -1.7 -1.7 -1.7 -1.7 -1.7 -1.7 -1.7 -1.7 -1.7 -1.7 -1.7 -1.7 -1.7 -1.7 -1.7 -1.7 -1.7 -1.7 -1.7 -1.7 -1.7 -1.7 -1.7 -1.7 -1.7 -1.7 -1.7 -1.7 -1.7 -1.7 -1.7 -1.7 -1.7 -1.7 -1.7 -1.7 -1.7 -1.7 -1.7 -1.7 -1.7 -0.3 0.8 1.7 2.9 2.1 1.7 1.4 1.1 0.9 1.5 2.3 2.4 3.6 4.4 2.4 2.4 2.4 2.4 2.5 6.8 11.9 13 11.4 11 13.6 22 28.6 32.6 36.4 39.6 45.2 47.1 49.8 49.8 49.9 48.4 49.3 53.5 55.1 56.9 57.8 57.3 56.4 55.2 55.7 53.2 50.3 47.1 48.4 53.2 55.9 56.5 47.9 42.5 44.1 45.2 46 53 56.6 39.5 44.9 38.7 44.7 57.6 56.6 52.4 64.7 76.3 69.2 70.5 72.2 75.7 78.5 81.6 72.1 88.4 97.5 98.1 96.8 111 124.8 124 129 138.3 158.2 162.3 162.1 157.6 181.5 204.5 215.3 225.8 235.5 243.3 254.4 266.2 287.2 274.8 270.4 261 257.9 251.2 245.8 250.2 254.9 254 270.8 280.7 290.1 290.1 289.5 283.3 267.5 270.8 282.3 282.8 276.2 273.2 280.9 285.3 288.5 296.6 295.8 299.4 309 313.7 318.2 313.9 318.5 320.5 320.9 326.1 331.1 333.8 341.2 346.2 344 330.2 330.3 334.1 342.5 343.2
-1.7 -1.7 -1.7 -1.7 -1.7 -1.7 -1.7 -1.7 -1.7 -1.7 -1.7 -1.7 -1.7 -1.7 -1.7 -1.7 -1.7 -1.7 -1.7 -1.7 -1.7 -1.7 -1.7 -1.7 -1.7 -1.7 -1.7 -1.7 -1.7 -1.7 -1.7 -1.7 -1.7 -1.7 -1.7 -1.7 -1.7 -1.7 -1.7 -1.7 -1.7 -1.7 -1.7 -1.7 -1.7 -1.7 -1.7 -1.7 -1.7 -1.7 -1.7 -1.7 -1.7 -1.7 -1.7 -1.7 -1.7 -1.7 -1.7 -1 -0.2 0.3 0.5 0.6 0.8 0.4 0.2 0.8 1.6 2.3 2.8 2.4 2.4 2.4 2.4 2.4 5.1 7.4 11.7 14 12.3 11.5 14.4 23.2 30.1 34.9 38.7 43.4 48.7 50.5 53.4 52.7 53.7 54.7 57.2 57.9 60.9 58.9 60.8 58.6 56.8 59.3 60.7 58.7 54.5 52.9 52.1 54.8 57.3 57.5 47.7 43.8 45.5 47.3 45.7 54.6 61.5 51.2 47.3 42 47.7 60.5 60.2 55.2 63.9 73.6 78 78.3 85.6 88.4 85.2 84.8 75.3 91.1 98.9 104.9 106.9 115.6 134 134.6 135 140.2 165.6 169.5 170.3 166.6 189.2 207.1 210.3 223.6 232 236.2 245.8 263.3 278.8 262.5 256.9 247.3 242.9 238.5 241 249.6 249 258.4 280.3 285.5 286.6 282.7 275.8 265.5 260.7 272.4 270.4 266.8 263.5 271.9 275.6 277.7 282.7 291.5 293.4 292.8 301.1 307.6 313.2 311.8 311.1 314.2 320.8 323.9 330 335.1 348.5 343.2 334.3 329.1 338.3 328.8 326.3 329.9
-1.7 -1.7 -1.7 -1.7 -1.7 -1.7 -1.7 -1.7 -1.7 -1.7 -1.7 -1.7 -1.7 -1.7 -1.7 -1.7 -1.7 -1.7 -1.7 -1.7 -1.7 -1.7 -1.7 -1.7 -1.7 -1.7 -1.7 -1.7 -1.7 -1.7 -1.7 -1.7 -1.7 -1.7 -1.7 -1.7 -1.7 -0.6 -1.7 -1.7 -1.7 -1.7 -1.7 -1.7 -1.7 -1.7 -1.7 -1.7 -1.7 -1.7 -1.7 -1.7 -1.7 -1.7 -1.7 -1.7 -1.7 -1.7 -1.7 -1.7 -1.7 -1.7 -1.7 -0.5 -0.3 -0.3 -0.6 0.1 0.8 1.8 2.4 2.4 2.4 2.4 2.4 3.2 6.6 8.3 9.6 11.4 11.9 13.5 16.8 23.4 32.6 39.9 44.9 50.4 54.3 55.3 56.9 57.1 54.6 59.2 63.4 67.1 65.9 63.7 65.4 61 61.9 65.1 65 61 57.3 60.2 58.6 57 58 57.3 50.7 45.8 47.6 45.9 46.1 52 57 58.1 55.1 52.3 48.5 61 62.3 59.9 64.1 73 84.5 83.9 85.3 92.2 92.6 91.5 82.1 86.8 100 106 113.8 115.5 135.4 143.1 144 155.1 158.4 163.9 169.7 185.6 204.2 209.5 207.8 217.4 222.8 228.8 234.1 242 239.3 239.8 236.9 236.8 240.1 234.6 241.3 244.3 246.3 270.6 275.1 284.6 282.7 269 264.6 258.8 255.2 259.6 259.3 259.4 258.4 260.5 266.6 272.6 276.3 280.9 284.5 287.2 293.4 300.9 309.7 307.7 306 306.5 314.3 320.6 326.1 330.4 334.9 334.8 328.2 327.2 332.8 323.6 319.4 320.2
-1.7 -1.7 -1.7 -1.7 -1.7 -1.7 -1.7 -1.7 -1.7 -1.7 -1.7 -1.7 -1.7 -1.7 -1.7 -1.7 -1.7 -1.7 -1.7 -1.7 -1.7 -1.7 -1.7 -1.7 -1.7 -1.7 -1.7 -1.7 -1.7 -1.7 -0.6 -1.7 -1.7 -1.7 -1.7 -1.7 1 1.7 -1.7 -1.7 -1.7 1.3 2 -1.7 -1.7 -1.7 -1.7 -1.7 -1.7 -1.7 -1.7 -1.7 -1.7 -1.7 -1.7 -1.7 -1.7 -1.7 -1.7 -1.7 -1.7 -1.7 -1.7 -1.7 -1.4 -1.3 -1.3 -0.6 0.4 1.5 2.4 2.4 2.4 2.4 2.4 2.7 6.7 7.3 8.1 11.3 12.8 15.9 20.9 25 35.4 42 46.7 53.5 57.4 61.3 60.6 60.3 58.9 61.6 64.2 69.7 68.3 66.8 66.8 63.8 66.2 66 65.4 62.8 60.1 60.9 59.1 60.3 62 58.9 46.8 47.6 52.3 48.7 45.8 47.5 49.6 60.5 53 59.1 51.3 60 61.6 63.5 70.4 79 81.8 84.8 86.2 90.7 95.9 93.9 88.1 92.4 102.4 108 115.7 119.7 139.5 145.7 147 154.7 154.7 156.3 181.5 193.8 196.9 198.9 203.9 211.9 220.8 226.2 229.9 231.6 234.6 232.6 229.9 231.5 233.1 229.9 237.5 233.8 245.9 261.2 263.7 267 261.2 258.2 250.2 247.5 240.9 250.6 252.6 254.8 250.7 253.2 257.1 264.2 267.6 271.7 277.1 281 286.5 292.9 301.9 298.4 296.8 305.6 312.7 314.5 318.4 324.3 325.4 325.5 320.5 324 324.7 320.2 316.4 311.3
-1.7 -1.7 -1.7 -1.7 -1.7 -1.7 -1.7 -1.7 -1.7 -1.7 -1.7 -1.7 -1.7 -1.7 -1.7 -1.7 -1.7 -1.7 -1.7 -1.7 -1.7 -1.7 -1.7 -1.7 -1.7 -1.7 -1.7 -1.7 -1.7 -0.7 1 2.5 -1.7 -1.7 1.6 3.3 2.6 2.4 2.4 2.9 2.4 2.5 2.4 0.6 -1.7 -1.7 -1.7 -1.7 -1.7 -1.7 -1.7 -1.7 -1.7 -1.7 -1.7 -1.7 -1.7 -1.7 -1.7 -1.7 -1.7 -1.7 -1.7 -1.7 -1.7 -1.7 -1.7 -0.9 0.2 1.2 2.3 2.4 2.3 2.3 2.2 2.4 3.9 6 8 11.3 13.9 17.9 24.1 31.3 38 43.6 49.3 55.8 59.8 66.1 64.7 62.2 64 65.8 64.8 67.1 68.3 70.1 68.9 67.7 66.9 66.1 65.1 64.3 65.8 66.4 65.6 61.3 57.3 56.8 46 45.4 51 49.7 45 46 44.9 57.2 49.5 54.3 55.8 55 60.1 67 72.1 81 80.9 82 87.9 90.1 91 97.2 90.5 90.8 98 106.2 111.6 127.3 136 148.3 148.1 153.3 155.7 168.6 187.4 189.3 185.6 189.4 203.6 209.3 218.2 222.6 225 223.3 227.8 226.2 222.2 225.4 225.8 224.8 225.8 228.5 247.3 249.1 250 248.7 245.4 247.2 240.9 233.4 235.9 242.4 246.9 247.4 246.7 248.3 250.5 256.5 260.7 265.6 271.3 276.1 279.8 286.4 290.6 293.8 292.2 297 302.5 307.3 312.9 316.6 314.9 313.6 311.9 311.8 313.4 311.5 307.4 304.1
-1.7 -1.7 -1.7 -1.7 -1.7 -1.7 -1.7 -1.7 -1.7 -1.7 -1.7 -1.7 -1.7 -1.7 -1.7 -1.7 -1.7 -1.7 -1.7 -1.7 -1.7 -1.7 -1.7 -1.7 -1.7 -1.7 -1.7 -1.7 -1.7 0.1 1.8 2.4 2.4 -1.7 2.1 4 4.5 2.4 4.8 8.1 6.4 5.5 4.4 2.8 -1.7 -1.7 -1.7 -1.7 -1.7 -1.7 -1.7 -1.7 -1.7 -1.7 -1.7 -1.7 -1.7 -1.7 -1.7 -1.7 -1.7 -1.7 -1.7 -1.7 -1.7 -1.7 -1.7 -1.6 -0.8 0.1 0.8 0.9 0.7 0.7 1.6 2.4 2.4 5.8 7.8 14.3 16.4 15.2 22.7 30.9 36.6 41.4 47.2 54.3 59.3 67.1 65.4 63.7 67.8 67.7 65.7 66 72.1 70.9 71.5 69.2 68.6 66.1 64.8 65.7 67.1 67.6 65.4 58 55.7 53.7 48 45 42.8 44.6 44.3 43.6 43.1 55.3 52 53.6 57.1 54.1 63.1 67.4 67.9 76.5 80.4 81.8 85.6 89.8 89.7 90.6 91.1 92.7 97.2 105.1 115.3 129.4 133.5 140.7 146.5 150.6 156.6 175.5 174 179.7 175.1 176.1 187 200.2 210.8 214.6 212.5 211.3 215.5 212 211.6 216.7 213.6 215.6 213.4 230.4 233.9 238.4 241.1 235.7 240 230.5 226.4 225 226.4 238.2 244.2 246.5 245.3 241.7 243.9 253 256.6 260.5 266.8 271.5 274.7 283.6 286.9 289.3 286.6 291.3 294.9 296.5 299.4 298.6 298.1 298 298.7 301.2 302.9 303.2 302.2 301.9
-1.7 -1.7 -1.7 -1.7 -1.7 -1.7 -1.7 -1.7 -1.7 -1.7 -1.7 -1.7 -1.7 -1.7 -1.7 -1.7 -1.7 -1.7 -1.7 -1.7 -1.7 -1.7 -1.7 -1.7 -1.7 -1.7 -1.7 -1.7 -1.7 -0.1 1.5 3.6 3.3 1.5 5.3 2.5 4.4 2.5 7.3 10.7 5 5.3 5.6 2.4 -1.7 -1.7 -1.7 -1.7 -1.7 -1.7 -1.7 -1.7 -1.7 -1.7 -1.7 -1.7 -1.7 -1.7 -1.7 -1.7 -1.7 -1.7 -1.7 -1.7 -1.7 -1.7 -1.7 -1.7 -1.7 -1.7 -1.7 -1.7 -0.8 -0.1 1.2 2.4 3.8 4.4 5.8 8.1 12.3 14.3 21 28 34.3 39.1 44.5 48.4 51.1 61.2 62.5 64.3 66.7 67.6 68.8 68.7 73.6 74.3 75.8 71 71.2 69.9 61.8 64.9 64.5 62.1 58.6 54.6 55 52.2 52.3 48.4 41.8 43.2 45.6 43.3 42 47.3 53.6 59.3 54 54.4 63.3 64.3 65.7 71.1 74.8 81 85.3 86.4 86.2 81.5 85.4 88.9 100 107.3 115.5 125.8 131.8 137.1 141.5 146.7 160.9 162.5 164.1 165.4 166.5 172.4 182 199.1 203.8 204.4 200.9 202.8 199.9 200.9 202.8 200.6 204.3 207.8 211.9 223.4 226.2 229.2 229.4 220.7 225.3 217.9 217.4 220.6 226.7 239.2 245.4 247.4 242.7 236.9 241.5 248.3 250.9 254.5 262.2 266.5 269.2 278.9 284 284.3 278.1 283.2 282.9 284.5 286.9 287.6 289 293.8 294.9 298.8 301.2 297.9 300.6 303.1
-1.7 -1.7 -1.7 -1.7 -1.7 -1.7 -1.7 -1.7 -1.7 -1.7 -1.7 -1.7 -1.7 -1.7 -1.7 -1.7 -1.7 -1.7 -1.7 -1.7 -1.7 -1.7 -1.7 -1.7 -1.7 -1.7 -1.7 -1.7 -1.7 -0.5 1.3 3 3.1 4.9 2.4 2.4 2.4 2.4 4.4 4.7 3.2 4 3.2 0.7 -1.7 -1.7 -1.7 -1.7 0 1 -1.7 -0.4 -1.7 -1.7 -1.7 -1.7 -1.7 -1.7 -1.7 -1.7 -1.7 -1.7 -1.7 -1.7 -1.7 -1.7 -1.7 -1.7 -1.7 -1.7 -1.7 -1.7 -1.7 -1.7 0.5 2.2 4.5 2.4 3.4 4.8 6.7 9.1 20.2 25.8 31.7 36.9 41.1 44.1 48.7 55.7 60.9 62.5 65.2 68.1 67.8 68.1 71.1 71.5 71.4 70.4 67.5 63 60.4 61.5 60.4 56.7 53.7 50.3 49.9 50.3 49.8 43.8 39 37.2 46.4 42.8 42.2 52.7 55.2 57.3 55.3 50.6 59.7 61.7 63.2 64.8 71.8 72.9 76.2 78.8 79.3 77.6 79 84 97.1 102.1 110.7 117.9 127.7 134.8 136.8 135.1 144.5 145.6 143.4 149.8 156.2 163.1 176.2 191.5 197.2 193 189.7 188.6 186.3 184.8 184.5 185.5 189.3 203.4 214.1 215.6 218.1 220.9 220 216.4 223.6 219.1 215.2 220.1 232.8 239.3 245 247.2 238.1 236.2 241.8 242.9 244.2 247.5 251.2 256.2 260.6 268.9 271.5 274 274.2 276.1 277.8 282.3 285.3 284.3 292.2 294.9 297.8 303.9 305.8 301.3 299 300.4
-1.7 -1.7 -1.7 -1.7 -1.7 -1.7 -1.7 -1.7 -1.7 -1.7 -1.7 -1.7 -1.7 -1.7 -1.7 -1.7 -1.7 -1.7 -1.7 -1.7 -1.7 -1.7 -1.7 -1.7 -1.7 -1.7 -1.7 -1.7 -1.7 -1.7 0.3 1.4 2.1 2.3 0.9 0.6 1.3 2.1 2.4 3.5 2.4 2.3 1.5 0.3 -1.7 -1.7 -1.7 -1.7 1.2 2.4 2.3 1.9 0.3 -1.7 -1.7 -1.7 -1.7 -1.7 -1.7 -1.7 -1.7 -1.7 -1.7 -1.7 -1.7 -1.7 -1.7 -1.7 -1.7 -1.7 -1.7 -1.7 -1.7 -1.7 -0.2 1.7 3.8 2.4 3.5 3.2 3.9 4.1 16 22.5 28.5 33.4 37.6 40.5 42 47.5 52.8 57.4 61.5 63.5 62.9 64.8 65.2 67 66.5 65.3 62.3 58.3 56.8 57.3 55.7 54.4 51.5 45 45.1 47.3 47.8 46.4 38.2 33.3 37.5 39.5 40.9 53.2 52.8 56.2 54.1 48.2 60.6 60 63.6 62.5 67.8 73.8 73 80.7 78.8 77.4 75.3 78.5 85.1 96.4 103.2 114.4 119.3 122.8 128.7 136.4 141.2 141.6 140.4 137.3 139.4 159 173.6 173.5 176.1 177.7 178.9 176.8 179.6 177 173.8 189.1 188.2 200.2 206.1 210.2 216.3 215.6 213.9 209.6 218.9 210.6 218.6 224.8 231.2 239.7 244.4 237.5 231.4 238 238.2 244.5 243.7 235.1 238.6 245.7 255.4 259.4 266.8 267.8 270.7 272.4 275.8 283.2 283.4 288.5 298.6 299.3 300.3 307 310.4 309.3 303.4 302.4
-1.7 -1.7 -1.7 -1.7 -1.7 -1.7 -1.7 -1.7 -1.7 -1.7 -1.7 -1.7 -1.7 -1.7 -1.7 -1.7 -1.7 -1.7 -1.7 -1.7 -1.7 -1.7 -1.7 -1.7 -1.7 -1.7 -1.7 -1.7 -1.7 -1.7 -0.7 0.1 0.1 0.1 -1.7 -1.7 -0.4 0.6 1.4 1.5 1.4 1.3 0.6 -0.6 -1.7 -1.7 -1.7 -0.5 1.5 2.4 2.4 2.4 0.5 -1.7 -1.7 -1.7 -1.7 -1.7 -1.7 -1.7 -1.7 -1.7 -1.7 -1.7 -1.7 -1.7 -1.7 -1.7 -1.7 -1.7 -1.7 -1.7 -1.7 -1.7 -1.7 0.6 1.6 1.3 -1.7 1.6 1.3 2.3 14.5 21.2 26.7 29.9 33.8 36.2 39.3 46.9 52.9 57.6 60.9 60.2 60.3 58.1 58.8 59.7 63.4 64.4 61.4 58.1 56.9 53.8 53.7 54.9 47 44.6 41.4 44.3 45.5 38.8 34.7 28.6 27.4 35.8 40 47.9 47.7 50.8 51.3 46.5 58.2 61 62.5 60.5 60.1 63.9 71.5 75.3 77.8 75.6 72.9 79 83.8 96.8 102.8 105.4 109.7 113.2 124.9 129.6 137.8 129.1 136.1 131.2 139.9 160.9 167.9 164.4 163.5 169.4 166 167.6 172.5 169.7 170.9 176.3 180 195.1 198 203.6 210.6 207.8 202.7 206.9 209 196.6 212.3 221.8 228.5 234.9 235 230.1 224.4 228.7 231.9 234.1 230.7 235.5 239.7 244.9 245.2 254.7 262.6 268.7 272.2 272.2 277.3 281.7 284.6 289.7 297.3 304.2 306.1 311.7 318.8 319.6 312.3 312.2
-1.7 -1.7 -1.7 -1.7 -1.7 -1.7 -1.7 -1.7 -1.7 -1.7 -1.7 -1.7 -1.7 -1.7 -1.7 -1.7 -1.7 -1.7 -1.7 -1.7 -1.7 -1.7 -1.7 -1.7 -1.7 -1.7 -1.7 -1.7 -1.7 -1.7 -1.7 -1.7 -1.7 -1.7 -1.7 -1.7 -1.7 -1.7 0 0.1 0.3 0.3 -0.4 -1.7 -1.7 -1.7 -1.7 -0.5 1.7 4.2 5 2.4 0.7 -0.9 -1.7 -1.7 -1.7 -1.7 -1.7 -1.7 -1.7 -1.7 -1.7 -1.7 -1.7 -1.7 -1.7 -1.7 -1.7 -1.7 -1.7 -1.7 -1.7 -1.7 -1.7 -1 -1.7 -1.7 -1.7 -1.7 -1.7 1.8 8.8 15.8 21.1 24.9 30 32.1 36.4 44.7 48.3 55.4 54.3 54.4 56.6 56 60.8 59.6 62.2 64 62.5 58.1 52 51.2 49.4 47.6 43.4 41.2 42.2 37.3 38.8 33.1 29.5 24.3 20.7 30 37.5 36.1 47.6 50.9 49.7 45.6 58.9 63.1 61.4 59.4 59.6 59.8 64.7 70.2 71 73.1 71.2 75.3 82 98 101.1 100 96.1 101 116.1 123.7 123.7 120.9 127.1 126.7 137.6 160.6 158.3 152.9 152.9 156.6 154.5 157.2 160.9 162.7 163.8 165.2 176.8 186.9 188.5 195.7 200.2 196.4 197.5 198.5 189.7 190.8 204 216.2 223.4 225.4 223.2 217.6 220.2 223 227 225.5 230.3 235.2 240.2 245.5 253.9 255.7 262.4 269.7 276.9 278.3 282.2 288.7 293.4 297.8 306.7 306.8 307.2 312.5 317.4 322 322.2 317.9
-1.7 -1.7 -1.7 -1.7 -1.7 -1.7 -1.7 -1.7 -1.7 -1.7 -1.7 -1.7 -1.7 -1.7 -1.7 -1.7 -1.7 -1.7 -1.7 -1.7 -1.7 -1.7 -1.7 -1.7 -1.7 -1.7 -1.7 -1.7 -1.7 -1.7 -1.7 -1.7 -1.7 -1.7 -1.7 -1.7 -1.7 -1.7 -1.4 -1.2 -0.9 -0.8 -1.4 -1.7 -1.7 -1.7 -1.7 -0.4 1.5 2.7 2.4 1.8 0.7 -0.4 -1.7 -1.7 -1.7 -1.7 -1.7 -1.7 -1.7 -1.7 -1.7 -1.7 -1.7 -1.7 -1.7 -1.7 -1.7 -1.7 -1.7 -1.7 -1.7 -1.7 -1.7 -1.7 -1.7 -1.7 -1.7 -1.7 -1.7 1.7 3.1 16 15.9 22.4 26 28.2 34.3 39.6 46.4 51.3 52.5 51.5 52.5 56 61.2 62.1 62 61.9 62.8 58.9 54.8 46.9 44.2 48.1 39 36.1 32.2 28.6 34.9 28.9 28 19.2 16.1 24.3 37.5 31.7 45.2 49 45.6 44.2 51.4 57.6 59 59 62 58.8 63.6 68 70.9 69.7 71.4 73.6 80.6 86.2 93.2 95.3 90.4 98.5 109.2 115.2 112.7 115.4 121.5 122.1 131.4 143.9 147.6 141.1 141.4 141 142.3 140.6 145.4 146 141.4 156.2 170.7 174.9 181.8 188.7 186.9 180.7 188.3 187.9 179.9 189.5 201.6 208.5 210.5 209.7 207.6 220.1 219.3 225.4 225 226.9 229.3 233.4 238.9 249.7 260 264.5 265.1 275.7 277.5 289.5 297.3 304 308.3 306.6 310.6 309.9 309.8 314.9 318.5 320.6 323.3 322.3
-1.7 -1.7 -1.7 -1.7 -1.7 -1.7 -1.7 -1.7 -1.7 -1.7 -1.7 -1.7 -1.7 -1.7 -1.7 -1.7 -1.7 -1.7 -1.7 -1.7 -1.7 -1.7 -1.7 -1.7 -1.7 -1.7 -1.7 -1.7 -1.7 -1.7 -1.7 -1.7 -1.7 -1.7 -1.7 -1.7 -1.7 -1.7 -1.7 -1.7 -1.7 -1.7 -1.7 -1.7 -1.7 -1.7 -1.7 -1.7 1.2 1.5 1.8 0.6 -0.6 -1.7 -1.7 -1.7 -1.7 -1.7 -1.7 -1.7 -1.7 -1.7 -1.7 -1.7 -1.7 -1.7 -1.7 -1.7 -1.7 -1.7 -1.7 -1.7 -1.7 -1.7 -1.7 -1.7 -1.7 -1.7 -1.7 -1.7 -1.7 1.5 2.2 2.5 5.2 15.2 20.1 26.5 29.5 35.4 37.7 45.1 48.1 49.5 54.3 57.7 61.8 62.1 61.8 60.6 57.5 52.1 51.8 43.3 40.2 42.2 32 34.1 28.4 24.2 26.4 31.8 23.6 13.9 12 16.6 26.8 27.3 37.9 46.3 46.6 43.7 52.7 57.1 59 58.6 62.4 57.4 66.6 66.1 69.4 69.6 73.3 68.9 77.1 83.3 87.1 89.7 89.9 96.8 98.6 103 105.8 107.4 108.3 118.8 123.5 127.5 128.9 124.1 127.7 127.8 131.1 124.5 131.9 134.9 138.5 147.5 161.4 166.7 172.4 173.9 169.2 171.6 180 178.5 177 186.9 190.3 193.3 197 203.9 212.4 219.7 223.4 223.4 224.5 228.1 237.2 243.4 243.8 249.1 260.1 264.2 268.6 271.5 280.5 291.4 298.9 315.4 310.1 309.9 316.5 315.7 317.1 324.9 327.1 328.5 330.8 329
-1.7 -1.7 -1.7 -1.7 -1.7 -1.7 -1.7 -1.7 -1.7 -1.7 -1.7 -1.7 -1.7 -1.7 -1.7 -1.7 -1.7 -1.7 -1.7 -1.7 -1.7 -1.7 -1.7 -1.7 -1.7 -1.7 -1.7 -1.7 -1.7 -1.7 -1.7 -1.7 -1.7 -1.7 -1.7 -1.7 -1.7 -1.7 -1.7 -1.7 -1.7 -1.7 -1.7 -1.7 -1.7 -1.7 -1.7 -0.6 0.2 1.4 0.3 -0.9 -1.7 -1.7 -1.7 -1.7 -1.7 -1.7 -1.7 -1.7 -1.7 -1.7 -1.7 -1.7 -1.7 -1.7 -1.7 -1.7 -1.7 -1.7 -1.7 -1.7 -1.7 -1.7 -1.7 -1.7 -1.7 -1.7 -1.7 -1.7 -0.8 0.7 1 2 2.4 5.4 12.6 19.3 26.9 34.3 36 44.1 47.4 51.2 50.6 55.9 60.9 56.8 56.9 60.4 54.4 51.6 45.6 41.8 39.2 38.3 29.6 34.4 25.6 22.5 23.7 29.3 19.3 9.1 8.8 11.1 13 24.6 28.7 45.3 46.3 44.5 47.8 54.4 55.7 55.5 56.6 58 62.6 59.3 60.9 69.4 67.2 64.8 72.5 76.9 82.6 85.9 87.6 89.7 92.4 93.8 95 94.5 94.5 104.6 113.7 108.2 108 109.2 111.8 118.6 122 120.7 120.3 128.6 136.7 148 155 158.7 161.3 156.9 154.6 167.8 175.8 171.6 174.1 176.8 180.2 190.7 199.6 207.8 220.4 225.4 226.2 227.3 227.6 230 239 246.9 254.5 254.5 259 267 268.8 270.2 280.1 292.9 299.6 307.8 310.5 308.3 316.2 317 323.8 329.9 332.6 332.7 332.3 331.3
-1.7 -1.7 -1.7 -1.7 -1.7 -1.7 -1.7 -1.7 -1.7 -1.7 -1.7 -1.7 -1.7 -1.7 -1.7 -1.7 -1.7 -1.7 -1.7 -1.7 -1.7 -1.7 -1.7 -1.7 -1.7 -1.7 -1.7 -1.7 -1.7 -1.7 -1.7 -1.7 -1.7 -1.7 -1.7 -1.7 -1.7 -1.7 -1.7 -1.7 -1.7 -1.7 -1.7 -1.7 -1.7 -1.7 -1.7 -1 0.3 0 -1.2 -1.7 -1.7 -1.7 -1.7 -1.7 -1.7 -1.7 -1.7 -1.7 -1.7 -1.7 -1.7 -1.7 -1.7 -1.7 -1.7 -1.7 -1.7 -1.7 -1.7 -1.7 -1.7 -1.7 -1.7 -1.7 -1.7 -1.7 -1.7 -1.7 -1.7 -0.3 0.7 1.7 2.4 2.6 7.2 12.7 20.8 26.8 30.3 33.8 39.1 44.6 42.4 50.6 52.6 50.5 49.2 50.8 48.2 42.7 44.1 39.4 37.6 29.5 26.6 29.7 31.2 21.5 21.8 26.1 15.4 5.2 4.7 6.8 9.3 14.6 24.2 38.1 41.5 43 44.9 53.2 55.8 53.6 54.7 55.6 56.4 54.6 55.9 64.1 62.9 61.8 66.3 71.1 74.3 82.9 84.5 85.7 84.2 89.1 85.2 81.6 85.8 103.1 107.8 99.5 99.8 99.3 101 109.8 111.6 111.1 107.8 123.4 127.3 142.3 142.9 145.6 144.5 140.1 152.2 167.1 167.7 172.6 173.4 170.7 177.6 193.3 203.4 216.4 223.4 232.9 241 238.8 232 232.3 245.7 249.6 262.1 262.1 270.3 268.7 271.6 272.7 285.8 290.3 298.8 304.1 308.9 309.5 309.2 315.7 327.1 333.1 335.2 338 337.2 333.8
-1.7 -1.7 -1.7 -1.7 -1.7 -1.7 -1.7 -1.7 -1.7 -1.7 -1.7 -1.7 -1.7 -1.7 -1.7 -1.7 -1.7 -1.7 -1.7 -1.7 -1.7 -1.7 -1.7 -1.7 -1.7 -1.7 -1.7 -1.7 -1.7 -1.7 -1.7 -1.7 -1.7 -1.7 -1.7 -1.7 -1.7 -1.7 -1.7 -1.7 -1.7 -1.7 -1.7 -1.7 -1.7 -1.7 -1.7 -0.7 -0.3 -1.5 -1.7 -1.7 -1.7 -1.7 -1.7 -1.7 -1.7 -1.7 -1.7 -1.7 -1.7 -1.7 -1.7 -1.7 -1.7 -1.7 -1.7 -1.7 -1.7 -1.7 -1.7 -1.7 -1.7 -1.7 -1.7 -1.7 -1.7 -1.7 -1.7 -1.7 -1.7 -0.6 0.4 1.3 2.3 2.8 4.7 10.3 14.7 14.7 21.3 26.2 31.8 34.6 34 38.3 40.2 39.5 38.5 37.6 37.3 35.4 38.5 34.1 31.4 22.2 21.1 24.8 23.8 17.8 15.8 15.2 15.8 4.2 2.8 4.8 6.6 9.6 21.4 38.1 42.2 42.5 45.4 52.2 54 50.3 53.9 54.9 52.9 52.5 54.9 56.9 59.6 60.3 55.8 63.5 68.5 76.7 78.7 76.2 76 77.3 76.8 67.4 83.5 91.7 97.2 87 86.5 82.5 90.1 98.2 98.3 100.3 93.7 106.3 117.3 128.6 132.9 135.4 133.9 136.3 147 160.8 169 175.2 168.2 172 184.1 196.7 211.9 228 238.3 244.5 247.6 246.1 244.1 247.9 254.8 260 270.2 267.4 277.1 278.7 277.3 283.3 283.4 292.9 297.1 303.2 309 303.8 301.9 308.4 311.1 313.7 319.2 326.7 329.4 329.6
-1.7 -1.7 -1.7 -1.7 -1.7 -1.7 -1.7 -1.7 -1.7 -1.7 -1.7 -1.7 -1.7 -1.7 -1.7 -1.7 -1.7 -1.7 -1.7 -1.7 -1.7 -1.7 -1.7 -1.7 -1.7 -1.7 -1.7 -1.7 -1.7 -1.7 -1.7 -1.7 -1.7 -1.7 -1.7 -1.7 -1.7 -1.7 -1.7 -1.7 -1.7 -1.7 -1.7 -1.7 -1.7 -1.7 -1.7 -0.6 -1.7 -1.7 -1.7 -1.7 -1.7 -1.7 -1.7 -1.7 -1.7 -1.7 -1.7 -1.7 -1.7 -1.7 -1.7 -1.7 -1.7 -1.7 -1.7 -1.7 -1.7 -1.7 -1.7 -1.7 -1.7 -1.7 -1.7 -1.7 -1.7 -1.7 -1.7 -1.7 -1.7 -1.7 0 1.1 2.3 5.7 6.6 10.1 12.6 14.6 19.2 23.4 29.2 30.9 31.2 31.5 32 31.1 30.5 32.9 31.7 28.7 29.6 25.7 24.1 19 15.8 17.1 11.1 10.5 8.7 8.5 3.7 2.4 2.4 3.1 5 7.4 21.8 35.8 34.4 39.4 42.1 43.3 44.6 47.1 47.4 51.1 48.1 48.8 47.5 52.6 54.7 57.2 51.1 61.4 60.4 65.6 67.3 67.5 70 64.6 63.2 58.6 69.3 81.6 72.2 69.9 69.8 70.4 84 84.3 82.6 86.7 85.2 98.2 109.1 116.5 125.6 133.1 134.9 137.8 151.1 161.5 167 176.3 162.6 171.4 183 193.6 213.4 238.6 256 256.7 255 255.5 253.1 255.7 261.8 267.8 270.5 272.4 278.7 283 283.6 283.6 289.5 290.2 299.1 307.7 309.4 302.1 296.7 302.7 309.6 319.9 323.2 327.9 325.6 315.2
-1.7 -1.7 -1.7 -1.7 -1.7 -1.7 -1.7 -1.7 -1.7 -1.7 -1.7 -1.7 -1.7 -1.7 -1.7 -1.7 -1.7 -1.7 -1.7 -1.7 -1.7 -1.7 -1.7 -1.7 -1.7 -1.7 -1.7 -1.7 -1.7 -1.7 -1.7 -1.7 -1.7 -1.7 -1.7 -1.7 -1.7 -1.7 -1.7 -1.7 -1.7 -1.7 -1.7 -1.7 -1.7 -1.7 -1.7 -1.7 -1.7 -1.7 -1.7 -1.7 -1.7 -1.7 -1.7 -1.7 -1.7 -1.7 -1.7 -1.7 -1.7 -1.7 -1.7 -1.7 -1.7 -1.7 -1.7 -1.7 -1.7 -1.7 -1.7 -1.7 -1.7 -1.7 -1.7 -1.7 -1.7 -1.7 -1.7 -1.7 -1.7 -1.7 -0.2 0.8 1.5 3.4 4.9 8.1 17.3 20.3 21.9 20.7 19.7 22.7 25.7 27.1 27.9 27.9 27.9 26.3 26.8 24 20.4 17.4 17.9 16.7 12.9 10 5.2 3.7 5.6 6.4 2.4 2.4 3.2 5.1 6.3 11.8 19.8 28.1 30.4 37.4 36.3 37.8 35.7 38.9 39.5 43.5 44.4 44.9 44.3 48.3 44.1 49.9 45.6 54.3 57.2 58 55.7 58.7 59.1 52.3 51.6 53.7 55.9 62.5 55.4 49.5 53.8 62.2 70.7 69.4 65.9 77.9 81.5 94.9 111.8 121.7 132.1 138.5 149.4 144.8 150.9 159.5 172.1 175.5 158.2 165.4 180.5 201.4 223.2 240.2 256.3 256.3 256.3 256.9 256.2 259 270.7 275.9 277.2 273.2 277.1 282.2 283.9 289.5 294 292 306.3 310.4 314 302 289.3 292.7 306.9 312.6 326.3 336.7 331.3 321.2
-1.7 -1.7 -1.7 -1.7 -1.7 -1.7 -1.7 -1.7 -1.7 -1.7 -1.7 -1.7 -1.7 -1.7 -1.7 -1.7 -1.7 -1.7 -1.7 -1.7 -1.7 -1.7 -1.7 -1.7 -1.7 -1.7 -1.7 -1.7 -1.7 -1.7 -1.7 -1.7 -1.7 -1.7 -1.7 -1.7 -1.7 -1.7 -1.7 -1.7 -1.7 -1.7 -1.7 -1.7 -1.7 -1.7 -1.7 -1.7 -1.7 -1.7 -1.7 -1.7 -1.7 -1.7 -1.7 -1.7 -1.7 -1.7 -1.7 -1.7 -1.7 -1.7 -1.7 -1.7 -1.7 -1.7 -1.7 -1.7 -1.7 -1.7 -1.7 -1.7 -1.7 -1.7 -1.7 -1.7 -1.7 -1.7 -1.7 -1.7 -1.7 -1.6 -0.6 0 0.2 2.4 2.4 6.6 18 19.2 21.4 18.7 20 21.7 22.8 22.9 23.5 24.9 21.6 18.8 17.8 16.9 13.6 11.7 12 14.1 12.1 9 2.4 2.4 3.6 5.6 2.4 2.4 3.7 13.2 11.6 12.7 20 25.9 29.3 30 35.1 37.5 32.3 36.8 28.1 38 32.4 34.5 35.8 36.5 36.9 42.2 39.6 44.8 45.4 45.2 45 46.7 44.6 40.5 40.2 45 39.2 38.6 38.1 37.6 44.4 56.6 53.3 46 67.9 77.6 89.7 100.2 113.9 121.2 131 146.9 153.3 153.9 154.5 159.8 169.8 161.7 157.7 165 182.2 202.8 223.2 243.8 248.3 255.7 254.5 251.6 254.4 264.9 275.4 275.7 276.8 280.3 276.9 281.3 286.1 292.8 298.8 302 317.5 317 307.9 292.9 289.3 294.7 307.9 318.5 325.6 329.9 328.6 326.5
-1.7 -1.7 -1.7 -1.7 -1.7 -1.7 -1.7 -1.7 -1.7 -1.7 -1.7 -1.7 -1.7 -1.7 -1.7 -1.7 -1.7 -1.7 -1.7 -1.7 -1.7 -1.7 -1.7 -1.7 -1.7 -1.7 -1.7 -1.7 -1.7 -1.7 -1.7 -1.7 -1.7 -1.7 -1.7 -1.7 -1.7 -1.7 -1.7 -1.7 -1.7 -1.7 -1.7 -1.7 -1.7 -1.4 -1.7 -1.7 -1.7 -1.7 -1.7 -1.7 -1.7 -1.7 -1.7 -1.7 -1.7 -1.7 -1.7 -1.7 -1.7 -1.7 -1.7 -1.7 -1.7 -1.7 -1.7 -1.7 -1.7 -1.7 -1.7 -1.7 -1.7 -1.7 -1.7 -1.7 -1.7 -1.7 -1.7 -1.7 -1.7 -1.7 -1.7 -1.2 -1.7 1.2 2.4 6.3 16.6 15.4 18.1 16.9 16.7 18.4 19.3 20.8 19.4 20.9 17.5 13.6 11.6 8.9 5.6 4.7 4.7 5.9 7.3 6.4 2.4 2.4 2.4 2.4 2.4 2.4 3.6 8.4 13.5 14.3 17.7 21.2 22.2 26.1 28.1 30.1 28.8 27.3 24.7 27.6 26.3 28.6 27.4 28.1 29.1 34 31 33.2 35.8 39.3 43.1 40.3 37.6 37.8 37.8 38.8 30.4 31.1 24.9 30.1 36.1 34.2 42.9 57.2 72.3 80.8 92.4 106 115.2 124.4 143 149.5 153.1 155.7 156.2 160.7 167.8 158.3 156 163.4 184.4 202.7 217.7 235 246 250.9 251 249.9 258.9 265.9 269.6 274.5 277.7 280.4 279.5 294 298.7 307.1 303.2 307 308.5 309.3 302.1 289.3 289.3 294.8 303.1 313.4 322 325.1 333.2 335.1
-1.7 -1.7 -1.7 -1.7 -1.7 -1.7 -1.7 -1.7 -1.7 -1.7 -1.7 -1.7 -1.7 -1.7 -1.7 -1.7 -1.7 -1.7 -1.7 -1.7 -1.7 -1.7 -1.7 -1.7 -1.7 -1.7 -1.7 -1.7 -1.7 -1.7 -1.7 -1.7 -1.7 -1.7 -1.7 -1.7 -1.7 -1.7 -1.7 -1.7 -1.7 -1.7 -1.7 -1.4 -1 -0.9 -1.7 -1.7 -1.7 -1.7 -1.7 -1.7 -1.7 -1.7 -1.7 -1.7 -1.7 -1.7 -1.7 -1.7 -1.7 -1.7 -1.7 -1.7 -1.7 -1.7 -1.7 -1.7 -1.7 -1.7 -1.7 -1.7 -1.7 -1.7 -1.7 -1.7 -1.7 -1.7 -1.7 -1.7 -1.7 -1.7 -1.7 -1.7 -1.7 -1.7 1.9 6.4 10.1 12.1 12.2 8.1 9.1 13 15.7 16.7 13.5 14.7 14.9 11.5 9 5 2.5 2.4 2 1.8 2.7 4.3 3.5 2.4 1.9 1.7 2.4 2.4 2.1 5.6 8.2 13 18 20.3 20.9 23.2 25.5 26 26.6 21.5 21.6 21.5 21.6 22.7 23.4 24 24.2 28.3 24.6 27.2 27 30.1 33.5 33.9 34.5 30.5 29.1 26.7 22.3 17.2 17.2 20 30.8 45.1 45.5 58.9 74.1 83.8 93.1 105.8 121.4 135.9 153.6 157.6 156.8 156.5 157.2 162.5 173.7 158.9 154 164 178.8 192.4 214.1 228.6 239.3 241.3 240.9 247.5 254.3 254.4 264.6 276.3 277.1 282.8 284.9 299.7 304.3 299.1 303.2 309.4 305.1 298.9 291.9 289.3 289.3 297.1 302.4 320.8 318.9 320.8 330.7 329.5
-1.7 -1.7 -1.7 -1.7 -1.7 -1.7 -1.7 -1.7 -1.7 -1.7 -1.7 -1.7 -1.7 -1.7 -1.7 -1.7 -1.7 -1.7 -1.7 -1.7 -1.7 -1.7 -1.7 -1.7 -1.7 -1.7 -1.7 -1.7 -1.7 -1.7 -1.7 -1.7 -1.7 -1.7 -1.7 -1.7 -1.7 -1.7 -1.7 -1.7 -1.7 -1.7 -1 -0.6 -0.3 -0.6 -1.6 -1.7 -1.7 -1.7 -1.7 -1.7 -1.7 -1.7 -1.7 -1.7 -1.7 -1.7 -1.7 -1.7 -1.7 -1.7 -1.7 -1.7 -1.7 -1.7 -1.7 -1.7 -1.7 -1.7 -1.7 -1.7 -1.7 -1.7 -1.7 -1.7 -1.7 -1.7 -1.7 -1.7 -1.7 -1.7 -1.7 -1.7 -1.7 -1.7 -1.7 2.4 3.2 5.3 3.7 2.1 2.9 6.6 8.4 11 6.3 8.2 8.7 7.7 4.1 4.6 2.4 1.6 0.6 0.2 1.2 2.4 3.4 2 0.8 0.9 1.9 2.4 2.4 2.5 5.1 8.8 17.7 17.6 20.5 21.9 22.9 23.4 23.6 20.8 18 17.5 14.8 18.4 20.9 22.8 22.8 23 25.4 22.1 23.5 26.1 27.6 23.4 22.4 21.8 18 15.2 14.5 13.3 15 22.2 38 48.3 50.3 67.7 80.5 89.8 103.1 111.8 128 147.4 158.5 159.4 163.3 157.9 159.8 177.1 161 152.1 158.2 164.3 172.9 184.2 197.7 209.7 219.7 224.2 236.4 242.6 246 251.1 257.7 270.6 284.3 288.2 286.1 293.8 292.1 296.7 300.2 303.7 306.4 303.7 294.6 294.5 289.3 289.3 298.6 302.6 306.4 312.5 320 318.8
-1.7 -1.7 -1.7 -1.7 -1.7 -1.7 -1.7 -1.7 -1.7 -1.7 -1.7 -1.7 -1.7 -1.7 -1.7 -1.7 -1.7 -1.7 -1.7 -1.7 -1.7 -1.7 -1.7 -1.7 -1.7 -1.7 -1.7 -1.7 -1.7 -1.7 -1.7 -1.7 -1.7 -1.7 -1.7 -1.7 -1.7 -1.7 -1.7 -1.7 -1.7 -0.9 -0.3 0.1 0.4 -0.3 -1.3 -1.7 -1.7 -1.7 -1.7 -1.7 -1.7 -1.7 -1.7 -1.7 -1.7 -1.7 -1.7 -1.7 -1.7 -1.7 -1.7 -1.7 -1.7 -1.7 -1.7 -1.7 -1.7 -1.7 -1.7 -1.7 -1.7 -1.7 -1.7 -1.7 -1.7 -1.7 -1.7 -1.7 -1.7 -1.7 -1.7 -1.7 -1.7 -1.7 -1.7 0.3 0.6 -1.7 -1.7 -1.7 -1.7 1.7 2.4 3.7 2.9 2.7 4 4.1 2.4 3.1 2 0.2 -1.7 -1.7 -1.7 1.1 2.5 0.7 -0.3 0 1.1 2.1 3.4 3.3 2.6 12.4 15.8 15.4 19.7 20.7 20.4 20.1 19.4 17.7 16.6 14 9.4 9.3 12.2 20.2 19.3 21.4 22.6 17.5 16.5 17 15.8 15 14.7 18.4 13.8 12.2 12.3 12.7 13.9 27 37.9 47.4 51.4 70.4 85.5 91.4 106.4 115.8 129.4 145.8 165.3 174.8 177.6 169.7 158.5 159.2 152.4 144.5 155.4 159.1 173.4 181.4 198 213.1 222.8 231.4 245.9 254.3 253.6 256.8 268.6 275.3 286.4 289.2 286.6 284.4 285.3 290.6 294.7 298 298.7 296.4 293.1 289.3 289.3 289.3 300.9 306.3 301 304.3 303.8 301.8
-1.7 -1.7 -1.7 -1.7 -1.7 -1.7 -1.7 -1.7 -1.7 -1.7 -1.7 -1.7 -1.7 -1.7 -1.7 -1.7 -1.7 -1.7 -1.7 -1.7 -1.7 -1.7 -1.7 -1.7 -1.7 -1.7 -1.7 -1.7 -1.7 -1.7 -1.7 -1.7 -1.7 -1.7 -1.7 -1.7 -1.7 -1.7 -1.7 -1.7 -1.7 -0.1 0.4 0.8 0.9 -0.1 -1 -1.7 -1.7 -1.7 -1.7 -1.7 -1.7 -1.7 -1.7 -1.7 -1.7 -1.7 -1.7 -1.7 -1.7 -1.7 -1.7 -1.7 -1.7 -1.7 -1.7 -1.7 -1.7 -1.7 -1.7 -1.7 -1.7 -1.7 -1.7 -1.7 -1.7 -1.7 -1.7 -1.7 -1.7 -1.7 -1.7 -1.7 -1.7 -1.7 -1.7 -1.7 -1.7 -1.7 -1.7 -1.7 -1.7 -1.7 2.2 3.1 2.4 1.7 2.4 2.4 2.3 0.2 -1.7 -1.7 -1.7 -1.7 -1.7 -1.7 -1.7 -1.7 -1.7 -0.8 0.5 2.4 2.5 4.7 2.4 5.2 8.1 13.1 15.6 16.3 15.1 16.7 15.5 13.8 8.4 11.7 7.5 6.9 10.7 17.9 18.3 19.7 18.5 13.5 9.7 9 7.8 8.6 11.6 18.3 12.4 10.3 11.2 11.8 15.1 31 36.4 52.9 55.5 72.2 82.9 91.6 104.2 116.3 123.9 145.8 172.3 169.7 163.3 159.7 152.8 144 142.5 143.7 150.3 161.9 183.2 186.9 214.8 228 229.8 240.9 247.4 251.3 255.3 255.6 261.4 267.6 285.2 292.2 281.9 278.7 289.7 283.5 283.7 280.5 283.3 292 290.7 291.9 289.3 289.9 297.2 298 297.6 290.9 283.5 283.3
-1.7 -1.7 -1.7 -1.7 -1.7 -1.7 -1.7 -1.7 -1.7 -1.7 -1.7 -1.7 -1.7 -1.7 -1.7 -1.7 -1.7 -1.7 -1.7 -1.7 -1.7 -1.7 -1.7 -1.7 -1.7 -1.7 -1.7 -1.7 -1.7 -1.7 -1.7 -1.7 -1.7 -1.7 -1.7 -1.7 -1.7 -1.7 -1.7 -0.9 -0.2 0.6 1.2 1.5 1.2 0.2 -0.7 -1.7 -1.7 -1.7 -1.7 -1.7 -1.7 -1.7 -1.7 -1.7 -1.7 -1.7 -1.7 -1.7 -1.7 -1.7 -1.7 -1.7 -1.7 -1.7 -1.7 -1.7 -1.7 -1.7 -1.7 -1.7 -1.7 -1.7 -1.7 -1.7 -1.7 -1.7 -1.7 -1.7 -1.7 -1.7 -1.7 -1.7 -1.7 -1.7 -1.7 -1.7 -1.7 -1.7 -1.7 -1.7 -1.7 -1.7 1.2 2.7 0.7 -0.1 1.4 2.1 -1.7 -1.7 -1.7 -1.7 -1.7 -1.7 -1.7 -1.7 -1.7 -1.7 -1.7 -1.7 1.2 2.3 2.4 2.3 2.4 2.4 3.6 4.8 6.5 8.7 10.2 12.9 12.8 9.6 6.3 5.6 5.7 6.2 7 13.5 17.5 18.2 16 7.3 6.4 6.6 7.1 7.4 8.8 13.1 9.5 9.3 9.4 11.2 19.2 36.1 46 64.7 64.5 73.2 84.9 95.1 101.3 111.3 128.4 140.8 159.4 156.2 152.8 148 143.1 137.2 132 133.7 145.5 160.5 182.9 196.6 214.8 225.7 234 243 247.6 249.6 256.9 249.2 254.5 266.1 271.9 271.5 271.5 279.3 275.4 277.8 276 270 278.5 283.4 282.2 287.8 300.8 304 300.2 298.4 293.3 294.2 273 271.4
-1.7 -1.7 -1.7 -1.7 -1.7 -1.7 -1.7 -1.7 -1.7 -1.7 -1.7 -1.7 -1.7 -1.7 -1.7 -1.7 -1.7 -1.7 -1.7 -1.7 -1.7 -1.7 -1.7 -1.7 -1.7 -1.7 -1.7 -1.7 -1.7 -1.7 -1.7 -1.7 -1.7 -1.7 -1.7 -1.7 -1.7 -1.7 -0.9 0 0.7 1.5 2.2 2.2 1.5 0.5 -0.5 -1.4 -1.7 -1.7 -1.7 -1.7 -1.7 -1.7 -1.7 -1.7 -1.7 -1.7 -1.7 -1.7 -1.7 -1.7 -1.7 -1.7 -1.7 -1.7 -1.7 -1.7 -1.7 -1.7 -1.7 -1.7 -1.7 -1.7 -1.7 -1.7 -1.7 -1.7 -1.7 -1.7 -1.7 -1.7 -1.7 -1.7 -1.7 -1.7 -1.7 -1.7 -1.7 -1.7 -1.7 -1.7 -1.7 -1.7 0.3 1.6 -1.7 -1.7 -1.7 -1.7 -1.7 -1.7 -1.7 -1.7 -1.7 -1.7 -1.7 -1.7 -1.7 -1.7 -1.7 -1.7 -1.7 1.8 1.7 1.5 1.8 2 2.2 2.4 4.2 4.1 8.3 8.5 6.9 7.1 6.4 5.9 5.5 5.7 6.4 11.7 15.8 12.8 10.1 6.1 5.9 5.3 5.8 6.4 7.1 12.1 9 8.3 8.7 12 23 37.9 53.3 67.8 76 76.4 97.3 104.7 109.6 112.8 118.1 118.6 125.5 141.8 139 132 126.7 135.9 128 130.8 147.6 165.6 183 201.8 210.3 228.1 244.5 253.5 244.4 250 254 244.1 242.1 238.6 244 247.8 251.5 258.1 264.7 271.2 264.6 264.1 272.5 274.6 276.2 281.2 294.4 302.6 304.6 305.6 294 287.6 276.1 271.4
-1.7 -1.7 -1.7 -1.7 -1.7 -1.7 -1.7 -1.7 -1.7 -1.7 -1.7 -1.7 -1.7 -1.7 -1.7 -1.7 -1.7 -1.7 -1.7 -1.7 -1.7 -1.7 -1.7 -1.7 -1.7 -1.7 -1.7 -1.7 -1.7 -1.7 -1.7 -1.7 -1.7 -1.7 -1.7 -1.7 -1.5 -1 -0.3 0.5 1.2 2 2.4 2.4 1.6 0.8 -0.2 -1.1 -1.7 -1.7 -1.7 -1.7 -1.7 -1.7 -1.7 -1.7 -1.7 -1.7 -1.7 -1.7 -1.7 -1.7 -1.7 -1.7 -1.7 -1.7 -1.7 -1.7 -1.7 -1.7 -1.7 -1.7 -1.7 -1.7 -1.7 -1.7 -1.7 -1.7 -1.7 -1.7 -1.7 -1.7 -1.7 -1.7 -1.7 -1.7 -1.7 -1.7 -1.7 -1.7 -1.7 -1.7 -1.7 -1.7 -1.7 -1.7 -1.7 -1.7 -1.7 -1.7 -1.7 -1.7 -1.7 -1.7 -1.7 -1.7 -1.7 -1.7 -1.7 -1.7 -1.7 -1.7 -1.7 0.5 0.8 0.8 0.9 1.2 1.3 2.3 2.8 2.9 4.6 4.2 4.6 5 4.9 5.1 5.6 5.6 5.5 6.2 6.8 11 7.2 5.2 4.8 4.9 5.4 6 6.6 7.6 7.6 7.9 9.2 14.5 25.8 41.2 57.3 71.4 78 79.8 94.5 105.7 117.3 109.8 98.8 94.6 103.8 113 111.3 117.3 122.5 136.8 122 130 153.4 174.7 187.6 201.6 206.4 224.3 241.9 245.7 234.2 239.7 240.1 232.3 223 221.3 232.6 240.2 249.2 254.9 257.1 252.8 256.6 264.2 275 270.6 268.6 276.1 292.1 297.6 298.3 303.6 299.5 291.7 277.6 271.4
-1.7 -1.7 -1.7 -1.7 -1.7 -1.7 -1.7 -1.7 -1.7 -1.7 -1.7 -1.7 -1.7 -1.7 -1.7 -1.7 -1.7 -1.7 -1.7 -1.7 -1.7 -1.7 0.1 -1.7 -1.7 -1.7 -1.7 -1.7 -1.7 -1.7 -1.7 -1.7 -1.7 -1.7 -1.7 -1.6 -1 -0.5 0.2 1 1.8 2.4 2.4 2.3 1.6 0.6 -0.1 -0.9 -1.7 -1.7 -1.7 -1.7 -1.7 -1.7 -1.7 -1.7 -1.7 -1.7 -1.7 -1.7 -1.7 -1.7 -1.7 -1.7 -1.7 -1.7 -1.7 -1.7 -1.7 -1.7 -1.7 -1.7 -1.7 -1.7 -1.7 -1.7 -1.7 -1.7 -1.7 -1.7 -1.7 -1.7 -1.7 -1.7 -1.7 -1.7 -1.7 -1.7 -1.7 -1.7 -1.7 -1.7 -1.7 -1.7 -1.7 -1.7 -1.7 -1.7 -1.7 -1.7 -1.7 -1.7 -1.7 -1.7 -1.7 -1.7 -1.7 -1.7 -1.7 -1.7 -1.7 -1.7 -1.7 -0.6 -0.1 0.2 0.1 0.3 0.3 1.5 2.4 3.2 4 3.5 4 3 5.8 6.2 5.6 5.5 5.3 5.1 6.1 13.2 6.6 4.7 4.5 4.6 5.1 5.3 5.4 8.1 7.3 7.6 10.2 22.4 31.9 43.1 55.7 75.8 76.9 76.3 87.2 102.6 112 95.4 81.2 83.4 79.3 89.8 95.1 111.4 116.5 124.9 117.9 130.8 154.7 176.8 183.8 189.8 200.7 206.7 212.9 211 214.9 216.4 222.6 217.8 209.2 206.7 213.7 228.3 239 247.8 256.3 255.6 257.9 269.5 272 268.7 265.5 277.2 289.9 287.7 283.2 292.3 298.7 291.2 274.7 279
-1.7 -1.7 -1.7 -1.7 -1.7 -1.7 -1.7 -1.7 -1.7 -1.7 -1.7 -1.7 -1.7 -1.7 -1.7 -1.7 -1.7 -1.7 -1.7 -1.7 2.6 2.4 4 2.6 -1.7 -1.7 -1.7 -1.7 -1.7 -1.7 -1.6 -1.7 -1.7 -1.7 -1.6 -1 -0.4 0.1 0.8 1.5 2.3 2.4 1.7 1.2 0.9 0.2 -0.6 -1.7 -1.7 -1.7 -1.7 -1.7 -1.7 -1.7 -1.7 -1.7 -1.7 -1.7 -1.7 -1.7 -1.7 -1.7 -1.7 -1.7 -1.7 -1.7 -1.7 -1.7 -1.7 -1.7 -1.7 -1.7 -1.7 -1.7 -1.7 -1.7 -1.7 -1.7 -1.7 -1.7 -1.7 -1.7 -1.7 -1.7 -1.7 -1.7 -1.7 -1.7 -1.7 -1.7 -1.7 -1.7 -1.7 -1.7 -1.7 -1.7 -1.7 -1.7 -1.7 -1.7 -1.7 -1.7 -1.7 -1.7 -1.7 -1.7 -1.7 -1.7 -1.7 -1.7 -1.7 -1.7 -1.7 -1.7 -1 -0.6 -0.7 -0.5 -0.6 0.1 -1.7 2.4 1 3.3 4.4 4.7 7.4 11 10.7 10.7 10.6 8.7 4.9 5.9 6.3 4.6 3.9 4.3 4.1 3.6 7.5 10.3 7.2 7.6 10.9 26.9 36 44.6 55.4 66.2 66.2 71.2 82.9 91.6 82.8 78.4 72 68.1 65.4 76.9 93.6 107.6 115.3 103.8 130.5 134.2 158.1 169.4 169.4 175.5 187.6 184.6 193.9 195.6 201.5 203.4 202.8 200.8 192.5 195.8 202.1 214 222 238.5 243.2 245.6 255.9 272 262.9 256.4 262.3 262.7 273 277.9 277.7 286.2 290 279.6 269.3 280.2
-1.7 -1.7 -1.7 -1.7 -1.7 -1.7 -1.7 -1.7 -1.7 -1.7 -1.7 -1.7 -1.7 0.4 -1.7 -1.7 2.1 10.6 2.4 8.5 4.6 2.4 9.7 3.5 2.5 -1.7 -1.7 -1.7 -1.7 -1.1 -0.6 -0.3 -0.7 -1.7 -1.1 -0.5 0.1 0.7 1.3 2.1 2.4 1.7 0.8 0.3 0 -0.4 -1.2 -1.7 -1.7 -1.7 -1.7 -1.7 -1.7 -1.7 -1.7 -1.7 -1.7 -1.7 -1.7 -1.7 -1.7 -1.7 -1.7 -1.7 -1.7 -1.7 -1.7 -1.7 -1.7 -1.7 -1.7 -1.7 -1.7 -1.7 -1.7 -1.7 -1.7 -1.7 -1.7 -1.7 -1.7 -1.7 -1.7 -1.7 -1.7 -1.7 -1.7 -1.7 -1.7 -1.7 -1.7 -1.7 -1.7 -1.7 -1.7 -1.7 -1.7 -1.7 -1.7 -1.7 -1.7 -1.7 -1.7 -1.7 -1.7 -1.7 -1.7 -1.7 -1.7 -1.7 -1.7 -1.7 -1.7 -1.7 -1.7 -1.5 -1.7 -1.7 -1.7 -1.7 -1.7 2.1 2.8 4.6 8.1 7.9 14.4 18.9 19.5 18.1 15.7 10.1 6.2 2.3 5.6 3.9 3.8 4 3.8 5.2 11.7 11.2 9.7 8.4 14.3 30 41 44 50.7 55.1 55.5 62.6 78.1 73.2 71.1 71.1 67.5 59.3 60.2 74.4 90.3 95.5 103.4 114.5 126.1 134.8 148.9 156.9 163 168.3 175.9 173.6 178 181.6 186.1 186.4 181.3 180.5 179.3 188.3 197.6 215 222.1 232.3 235.1 236.7 262.9 269.2 251.4 245.6 253.9 257.6 263.6 254.4 265.1 275.7 271.5 261 254.1 259
-1.7 -1.7 -1.7 -1.7 -1.7 -1.7 -1.7 -1.7 -1.7 -1.7 -1.7 -1.7 2 2.4 2.4 -1.7 2.7 11.8 6.2 7.7 9.6 6.5 11.5 7.4 4.1 2.7 -1.7 0.5 -1.7 -0.3 0.3 0.7 0.4 -0.1 0 0.1 0.6 1.2 1.8 2.4 1.7 0.8 -0.1 -0.5 -1 -1.4 -1.7 -1.7 -1.7 -1.7 -1.7 -1.7 -1.7 -1.7 -1.7 -1.7 -1.7 -1.7 -1.7 -1.7 -1.7 -0.4 0.3 0.1 1.1 1.4 0.5 -0.1 0 -1.7 -1.7 -1.7 -1.7 -1.7 -1.7 -1.7 -1.7 -1.7 -1.7 -1.7 -1.7 -1.7 -1.7 -1.7 -1.7 -1.7 -1.7 -1.7 -1.7 -1.7 -1.7 -1.7 -1.7 -1.7 -1.7 -1.7 -1.7 -1.7 -1.7 -1.7 -1.7 -1.7 -1.7 -1.7 -1.7 -1.7 -1.7 -1.7 -1.7 -1.7 -1.7 -1.7 -1.7 -1.7 -1.7 -1.7 -1.7 0.3 2.1 2.2 2.4 3.2 3.7 8.7 15.9 19.6 25.3 28.5 25.9 21.7 15.3 10.3 6.5 5 3.9 2.1 3.5 3.3 3.6 6.7 13.2 8.5 7.5 9.5 22.9 37.8 49.2 51.5 47.4 52.2 53.4 56.5 60.6 67.9 76 70.2 62.6 56.5 59.2 68.4 83 81.8 88.2 114.8 121 132.1 144.6 155.3 164.2 158.9 161.2 161.7 161.6 172.2 175.9 171 168.9 164.1 175.5 184.1 192.3 212.1 216.9 224.4 230.7 230 245.3 242.2 237.8 230.6 232.3 236.5 241.5 246.4 258.3 265.6 254.7 247.5 243.6 236.2
-1.7 -1.7 -1.7 -1.7 -1.7 -1.7 -1.7 -1.7 -1.7 -1.7 -1.7 -1.7 6.2 3.9 3.9 2.4 5.6 9.3 10.7 13.3 13.5 9.6 9.3 8.3 5.3 5.2 4.7 1.1 -1.2 -0.9 0.7 1.6 1.6 1.1 1.2 1.3 1.3 1.8 2.4 1.6 0.8 -0.1 -0.9 -1.7 -1.7 -1.7 -1.7 -1.7 -1.7 -1.7 -1.7 -1.7 -1.7 -1.7 -1.7 -1.7 -1.7 -1.7 -1.7 -1.7 -0.1 0.8 1.7 1.7 2.4 4.2 2.4 3.3 3.2 2.4 2.9 -1.7 -1.7 -1.7 -1.7 -1.7 -1.7 -1.7 -1.7 -1.7 -1.7 -1.7 -1.7 -1.7 -1.7 -1.7 -1.7 -1.7 -1.7 -1.7 -1.7 -1.7 -1.7 -1.7 -1.7 -1.7 -1.7 -1.7 -1.7 -1.7 -1.7 -1.7 -1.7 -1.7 -1.7 -1.7 -1.7 -1.7 -1.7 -1.7 -1.7 -1.7 -1.7 -1.7 -1.7 -1.3 -0.4 0.5 2.3 2.4 2.4 6.8 11.4 21.4 23.9 24.9 28.8 30.8 31.2 21.7 14.3 9.3 6.3 5.3 2.1 2.1 2.1 3.1 3.8 4.6 7.3 9.1 7.9 10.5 21.8 39.5 48.4 61 63.2 61.4 62 57 56.8 61.1 70.7 80.9 61.5 54.8 60.2 63.8 70.5 74.7 87.5 107.1 115.1 127.6 144.1 153.7 154.4 152.8 155 147.8 146.5 153.3 155.7 160.4 161.7 163 175.2 182.6 189 195.9 202.8 211.8 215.7 224.3 227.5 216.2 221.7 217.1 215.7 224.1 230.1 234.1 239.4 237.4 235.3 241.4 237.5 226.9
-1.7 -1.7 -1.7 -1.7 -1.7 -1.7 -1.7 -1.7 -1.7 -1.7 -1.7 5.1 7.7 7.2 7.7 5.7 9.7 12.2 11.5 12 12.9 7 7.2 8.6 2.4 1.5 1.1 0.6 -0.6 -1.5 0.1 1.7 2.2 2.2 2.3 2.4 2.4 2.4 2.3 1.1 0.1 -1 -1.7 -1.7 -1.7 -1.7 -1.7 -1.7 -1.7 -1.7 -1.7 -1.7 -1.7 -1.7 -1.7 -1.7 -1.7 -1.7 -1.7 -0.5 2.3 5.4 5.5 9.3 6.4 8.8 8 11.2 12.2 6.6 4.3 1.6 -1.7 -1.7 -1.7 -1.7 -1.7 -1.7 -1.7 -1.7 -1.7 -1.7 -1.7 -1.7 -1.7 -1.7 -1.7 -1.7 -1.7 -1.7 -1.7 -1.7 -1.7 -1.7 -1.7 -1.7 -1.7 -1.7 -1.7 -1.7 -1.7 -1.7 -1.7 -1.7 -1.7 -1.7 -1.7 -1.7 -1.7 -1.7 -1.7 -1.7 -1.7 -1.7 -1.7 -0.2 0.7 1.4 2.4 2.4 7.6 16.6 19.1 25.2 27.6 30.8 32.6 33.3 32.1 18.1 10.9 6.9 4.6 3.4 2.1 2.1 2.1 2.1 4.2 5 6.1 9.9 9.3 14.1 23.7 39.2 49.2 62.5 67.7 61.5 64.6 68.9 57.8 56.4 59.9 67.6 53.7 54.5 54.4 61.1 64 66.7 81.6 100.7 110.2 119.3 132.5 144.9 146.5 145.3 142.6 139.2 136.4 141 142.6 148.1 146.7 161.6 183.7 179.4 180.9 181.4 189 197.4 193.9 196.4 211.2 196.5 202.1 200.2 199.6 209.3 218 217.5 210.9 224.9 226.6 234.7 228.7 210.2
-1.7 -1.7 -1.7 -1.7 -1.7 -1.7 -1.7 -1.7 -1.7 -1.7 -1.7 3.8 9.2 12.3 12 10.6 12.5 14.1 9.9 8.7 10.2 3.1 3 4.5 -1.7 -1.7 -1.7 -1.7 -1.7 -1.7 -1.7 1.3 2.3 2.2 2.1 2 2 1.9 1.8 0.8 -0.4 -1.7 -1.7 -1.7 -1.7 -1.7 -1.7 -1.7 -1.7 -1.7 -1.7 -1.7 -1.7 -1.7 -1.7 -1.7 -1.7 -1.7 -1.7 2.4 6 13.2 13.1 15.1 20.5 22.2 16.5 17 15.2 13 12.4 6.4 -1.7 -1.7 -1.7 -1.7 -1.7 -1.7 -1.7 -1.7 -1.7 -1.7 -1.7 -1.7 -1.7 -1.7 -1.7 -1.7 -1.7 -1.7 -1.7 -1.7 -1.7 -1.7 -1.7 -1.7 -1.7 -1.7 -1.7 -1.7 -1.7 -1.7 -1.7 -1.7 -1.7 -1.7 -1.7 -1.7 -1.7 -1.7 -1.7 -1.7 -1.7 -1.7 -1.7 0.8 1.9 2.7 7.4 9.6 16.2 21.5 24 29 34.8 34.5 36.7 34.8 32.7 21.1 5.9 4.8 3.5 2.1 2.1 2.1 2.1 2.3 3.3 5.8 11.4 14.8 11.7 20.5 25.3 36.4 48.5 58.5 64.3 70.8 70.8 63.5 73.9 59.4 53.2 54.7 53.4 59.3 54.8 56.6 60.8 64.3 80.9 91.1 100 110.9 124.5 131.1 134.7 128.1 123.2 126.1 128.1 127.4 129.3 135 135.9 159.5 167.2 168.7 167.1 169.7 177.6 179.7 169.4 183.6 186.3 182.1 189.8 185 188.1 202.5 211.8 206.5 212.7 209 207.3 213.6 194.1 181.8
-1.7 -1.7 -1.7 -1.7 -1.7 -1.7 -1.7 -1.7 -1.7 -1.7 -1.7 4.3 8.4 11.6 9.8 11.4 13.3 14.6 5.5 5.7 6 -1.7 -1.7 -1.7 -1.7 -1.7 -1.7 -1.7 -1.7 -1.7 -1.7 0.2 1.6 1.6 1.5 1.5 1.4 1.3 1 0.4 -0.7 -1.7 -1.7 -1.7 -1.7 -1.7 -1.7 -1.7 -1.7 -1.7 -1.7 -1.7 -1.7 -1.7 -1.7 -1.7 -1.7 -1.7 4.1 4.8 13.4 15.5 22.7 30.4 36.1 36.4 27.8 30.2 30.1 19.2 17.9 13 9.6 -1.7 -1.7 -1.7 -1.7 -1.7 -1.7 -1.7 -1.7 -1.7 -1.7 -1.7 -1.7 -1.7 -1.7 -1.7 -1.7 -1.7 -1.7 -1.7 -1.7 -1.7 -1.7 -1.7 -1.7 -1.7 -1.7 -1.7 -1.7 -1.7 -1.7 -1.7 -1.7 -1.7 -1.7 -1.7 -1.7 -1.7 -1.7 -1.7 -1.7 -1.7 0.3 1.9 4.3 7.2 12.8 16.4 19.6 24 27.2 30.4 35.1 36 36.6 36.2 32.5 20.9 5.7 4.6 3.9 3.2 2.2 2.1 3.2 2.6 3.3 10.2 18.4 22.6 21.6 26.5 28.2 37.9 48.4 54.7 66.2 71.5 78.3 75.2 59.5 65.3 56 53.2 55 58.2 55.9 56.7 58.2 63.8 74.2 86 89.6 104.6 115 118.2 118.2 111.9 112.6 121.3 119.2 118.7 125.5 120.7 142.2 150 153.7 156.4 160.1 162.2 171.6 167.7 159.5 166 162.2 174.4 172 177.6 182.6 197.5 199.4 199.8 193.8 192.4 188.7 188.1 169.1 149
-1.7 -1.7 -1.7 -1.7 -1.7 -1.7 -1.7 -1.7 -1.7 -1.7 -1.7 -1.7 5.8 5.2 9.2 10 6.6 5.9 1.8 2.4 4.2 -1.7 -1.7 -1.7 -1.7 -1.7 -1.7 -1.7 -1.7 -1.7 -1.7 -0.4 0.9 1 0.9 0.9 0.8 0.6 0.4 -0.1 -1.1 -1.7 -1.7 -1.7 -1.7 -1.7 -1.7 -1.7 -1.7 -1.7 -1.7 -1.7 -1.7 -1.7 -1.7 -1.7 -1.7 -1.7 8 11.2 22.4 27 34 43.5 52.8 52.1 44.2 42.2 35.1 29.7 23.5 17.2 9.8 5.1 -1.7 -1.7 -1.7 -1.7 -1.7 -1.7 -1.7 -1.7 -1.7 -1.7 -1.7 -1.7 -1.7 -1.7 -1.7 -1.7 -1.7 -1.7 -1.7 -1.7 -1.7 -1.7 -1.7 -1.7 -1.7 -1.7 -1.7 -1.7 -1.7 -1.7 -1.7 -1.7 -1.7 -1.7 -1.7 -1.7 -1.7 -1.7 -1.7 -1.7 1.8 5.4 11 15 16.3 20.2 23.4 28.5 30 33.1 35.3 36.1 35.3 32.7 30.2 21 7.6 4.6 4.2 3.8 3 2.7 2.7 3.3 3.5 7.7 15.6 24.2 29.2 29.6 30.9 42.4 51.7 52.6 59.6 71.4 75.2 68 59.7 61.1 50.1 65.1 61.6 58.3 58 55.7 56.5 61.5 72.2 80.4 85.3 92.7 107.5 106.8 105.8 103.5 105.8 109.1 113.6 113 116 126.1 136.7 140.7 150.5 157.3 154.3 153.9 155.2 154.4 139.8 142.9 156 166 162.3 164.5 167.7 178.6 178.3 176.5 169.7 164.8 170.6 159.8 140.8 128.5
-1.7 -1.7 -1.7 -1.7 -1.7 -1.7 -1.7 -1.7 -1.7 -1.7 -1.7 -1.7 1.8 1.9 2.5 3.1 2.4 3.1 -1.7 -1.7 3 -1.7 -1.7 -1.7 -1.7 -1.7 -1.7 -1.7 -1.7 -1.7 -1.7 -1 0.2 0.4 0.4 0.3 0.2 -0.1 -0.3 -0.6 -1.7 -1.7 -1.7 -1.7 -1.7 -1.7 -1.7 -1.7 -1.7 -1.7 -1.7 -1.7 -1.7 -1.7 -0.1 -0.4 0.3 2.4 20.8 19.8 32.7 38.6 40.8 47.8 63.3 65 58.7 52.9 39.6 38 26.3 25 20.4 13 -1.7 -1.7 -1.7 -1.7 -1.7 -1.7 -1.7 -1.7 -1.7 -1.7 -1.7 -1.7 -1.7 -1.7 -1.7 -1.7 -1.7 -1.7 -1.7 -1.7 -1.7 -1.7 -1.7 -1.7 -1.7 -1.7 -1.7 -1.7 -1.7 -1.7 -1.7 -1.7 -1.7 -1.7 -1.7 -1.7 2 2.3 2.5 2.4 5.8 12.7 17 19 23.7 26.9 27.7 38.3 38.1 35.1 35.8 37.8 36.6 29.3 27 20.7 6.2 5.2 4.6 4.1 3.8 3.5 3.4 3.3 2.6 7 14.9 27.6 30.6 31.5 35.4 46.6 53.5 63.3 73.6 66.9 66.8 56.1 49.1 50.2 62.2 63.6 64.3 57.9 55.8 56.4 55.9 58.2 63.2 72.7 82.1 86.2 93.5 97.1 98.8 100.9 104.3 105.7 108.9 112.3 125.4 128.6 131.4 132.6 140.9 147.9 145.8 142.2 137.7 130.8 126.7 125.3 142.9 151 144.2 149.1 150.7 150.7 147.2 145.9 144.5 142.3 144.8 136.8 118.7 119.2
-1.7 -1.7 -1.7 -1.7 -1.7 -1.7 -1.7 -1.7 -1.7 -1.7 -1.7 -1.7 -1.7 -1.7 -1.7 -1.7 -1.7 -1.7 -1.7 -1.7 -1.7 -1.7 -1.7 -1.7 -1.7 -1.7 -1.7 -1.7 -1.7 -1.7 -1.7 -1.6 -0.5 -0.2 -0.2 -0.3 -0.5 -0.7 -1 -1.7 -1.7 -1.7 -1.7 -1.7 -1.7 -1.7 -1.7 -1.7 -1.7 -1.7 -1.7 -1.7 -1.7 0.6 2.1 2 2.4 5.7 13.8 27.4 35.7 45.1 43.5 56.8 68.1 70.5 66 62.1 50.7 44.7 38.2 29.6 24 19.6 -1.7 -1.7 -1.7 -1.7 -1.7 -1.7 -1.7 -1.7 -1.7 -1.7 -1.7 -1.7 -1.7 -1.7 -1.7 -1.7 -1.7 -1.7 -1.7 -1.7 -1.7 -1.7 -1.7 -1.7 -1.7 -1.7 -1.7 -1.7 -1.7 -1.7 -1.7 -1.7 -1.7 -1.7 -1.7 -1.7 4.6 8.9 12.7 7.7 14 19.9 23.8 23.9 28.2 32.7 32.2 40.4 40 38.1 37.6 38 38 28.3 23.7 16.2 6.4 5.3 4.8 4.5 4.1 4.2 3.5 2.4 3.5 4.5 14.9 27.2 31.7 33.3 42.7 55.8 64.3 64.6 70.9 68 64.4 51.5 47.7 47 50.3 59 60.6 58.8 56.5 56.1 57.5 64.1 60.1 62.7 74.7 81.6 90 94.9 102.4 95.3 96.9 100 105 115.9 121.2 125.4 126.9 129.1 130.3 132.1 131.8 132.8 120.3 123.4 120.8 120.6 131 131 126.4 125.7 123.9 125.3 129.7 130.3 127.6 127.6 117.2 106.9 100.5 117
-1.7 -1.7 -1.7 -1.7 -1.7 -1.7 -1.7 -1.7 -1.7 -1.7 -1.7 -1.7 -1.7 -1.7 -1.7 -1.7 -1.7 -1.7 -1.7 -1.7 -1.7 -1.7 -1.7 -1.7 -1.7 -1.7 -1.7 -1.7 -1.7 -1.7 -1.7 -1.7 -1.7 -0.7 -0.8 -1 -1.2 -1.4 -1.6 -1.7 -1.7 -1.7 -1.7 -1.7 -1.7 -1.7 -1.7 -1.7 -1.7 -1.7 -1.7 -1.7 -1.7 1.5 5.6 6.6 3.8 11.2 17.9 36.3 37.2 41.2 53.2 61.2 73.7 79.7 76 69.7 68.4 48.5 42.4 33.5 30.4 24.6 -1.7 -1.7 -1.7 -1.7 -1.7 -1.7 -1.7 -1.7 -1.7 -1.7 -1.7 -1.7 -1.7 -1.7 -1.7 -1.7 -1.7 -1.7 -1.7 -1.7 -1.7 -1.7 -1.7 -1.7 -1.7 -1.7 -1.7 -1.7 -1.7 -1.7 -1.7 -1.7 -1.7 -1.7 2.3 6.8 14.7 13.6 12.9 15.3 21.5 27.9 32.4 33 32.8 40.9 43.1 40.4 41.6 39.7 38.3 38.1 36.9 29.7 22.2 18 6.3 5.3 4.9 4.7 4.4 4.9 3.7 2.4 3.6 4.7 16.5 25.6 31.7 34.2 45.7 50.5 55.1 56.7 56.5 57.1 56.5 51.2 48.4 48.3 50.2 57.7 70.9 62.5 59.6 57.2 57.3 62.7 75.9 65.9 65.5 75.5 84.9 90.6 98.9 88.3 94.1 98.3 100.2 110.7 116.7 127.6 129.5 126.4 125.9 129.8 129.5 124.1 110.7 111 111.1 110.3 117.2 127.5 118.9 113.1 112.8 114.9 117.5 113.6 111.1 101.8 93.7 87.3 96.1 110.4
-1.7 -1.7 -1.7 -1.7 -1.7 -1.7 -1.7 -1.7 -1.7 -1.7 -1.7 -1.7 -1.7 -1.7 -1.7 -1.7 -1.7 -1.7 -1.7 -1.7 -1.7 -1.7 -1.7 -1.7 -1.7 -1.7 -1.1 -0.1 -0.7 -1.7 -1.7 -1.7 -1.7 -1.4 -1.4 -1.6 -1.7 -1.7 -1.7 -1.7 -1.7 -1.7 -1.7 -1.7 -1.7 -1.7 -1.7 -1.7 -1.7 -1.7 -1.7 -1.7 0.1 2.5 5.6 12.6 10.8 14.9 22 24.8 24.1 27.2 34.6 50.4 62.8 65.7 70.7 65.9 71 52.7 50.1 39.4 30.8 25.9 13.2 -1.7 -1.7 -1.7 -1.7 -1.7 -1.7 -1.7 -1.7 -1.7 -1.7 -1.7 -1.7 -1.7 -1.7 -1.7 -1.7 -1.7 -1.7 -1.7 -1.7 -1.7 -1.7 -1.7 -1.7 -1.7 -1.7 -1.7 -1.7 -1.7 -1.7 -1.7 -1.7 -1.7 3.5 7.7 15.3 13.2 12.7 17.2 24.2 30.4 36.1 38.8 37.1 41.7 47.6 45.4 42.7 39.8 38 39.4 33.9 28.6 20.8 14.7 6.1 5.2 4.9 4.8 4.6 5 4.2 2.6 3.8 5.8 20.9 29.5 34.5 41.1 45.4 49.6 51.4 50.7 51.7 54.3 54.3 51 48.3 48.1 49.9 59.1 68.6 65.4 65.7 64.6 60.4 62.2 83.5 85.8 79.8 73.1 68 80.6 84.7 84.1 93.3 95.8 98.9 103.3 109.9 122.2 124.5 119.2 121.4 122.5 119.8 116.4 102.4 104.4 101.1 104.8 108.5 106.5 105.2 105 106.2 107.8 108.1 102.6 97.4 84.7 60.1 82 90.2 97.1
-1.7 -1.7 -1.7 -1.7 -1.7 -1.7 -1.7 -1.7 -1.7 -1.7 -1.7 -1.7 -1.7 -1.7 -1.7 -1.7 -1.7 -1.7 -1.7 -1.7 -1.7 -1.7 -1.7 -1.7 -1.7 -1.7 0.1 1.2 1.5 -0.2 -1.7 -1.7 -1.7 -1.7 -1.7 -1.7 -1.7 -1.7 -1.7 -1.7 -1.7 -1.7 -1.7 -1.7 -1.7 -1.7 -1.7 -1.7 -1.7 -1.7 -1.7 -1.7 -1.7 2.6 6.8 14.7 14.2 13.2 17.2 17.9 18.2 20.5 25.1 30 38 39.5 48.6 60.5 68.7 56.2 50.7 47.2 32.7 27.5 4.1 -1.7 -1.7 -1.7 -1.7 -1.7 -1.7 -1.7 -1.7 -1.7 -1.7 -1.7 -1.7 -1.7 -1.7 -1.7 -1.7 -1.7 -1.7 -1.7 -1.7 -1.7 -1.7 -1.7 -1.7 -1.7 -1.7 -1.7 -1.7 -1.7 -1.7 -1.7 -1.7 -1.7 3.5 7.9 13 11.8 8.5 13.1 17.6 26.9 27.7 32.9 34.8 34 42.3 42.2 38.6 35.8 36.7 39.3 32.6 21.5 16.2 14.7 6 5.2 4.9 4.7 5.3 8.8 5.6 2.1 4.8 11.5 27.5 37 45.6 52.4 54.1 52.6 51.1 49 49.4 54.3 48.5 50.6 48.5 47.6 50 61.1 73.5 75.4 76.8 63 65.1 65.9 82.1 86 85.9 91.5 81.6 73.7 73.1 71.8 77.3 81.8 91 94.7 95.3 108.7 113.5 112.7 118.4 115.9 110.9 100.7 95.9 96.2 95.5 97.6 96 92.2 97.2 98.6 101.4 95.8 94.9 82.6 76.8 56.1 71.5 85.9 85.3 89
-1.7 -1.7 -1.7 -1.7 -1.7 -1.7 -1.7 -1.7 -1.7 -1.7 -1.7 -1.7 -1.7 -1.7 -1.7 -1.7 -1.7 -1.7 -1.7 -1.7 -1.7 -1.7 -1.7 -1.7 -1.7 -1.7 -0.1 2 3.1 3.1 0.2 -1.7 -1.7 -1.7 -1.7 -1.7 -1.7 -1.7 -1.7 -1.7 -1.7 -1.7 -1.7 -1.7 -1.7 -1.7 -1.7 -1.7 -1.7 -1.7 -1.7 -1.7 -1.7 -1.7 5.9 9.8 12.3 7.7 12.2 11.6 12.7 15.1 15.8 22.5 37.8 44.5 50.1 56.8 63.4 55.1 58.3 48.8 36.3 30.3 6.3 -1.7 -1.7 -1.7 -1.7 -1.7 -1.7 -1.7 -1.7 -1.7 -1.7 -1.7 -1.7 -1.7 -1.7 -1.7 -1.7 -1.7 -1.7 -1.7 -1.7 -1.7 -1.7 -1.7 -1.7 -1.7 -1.7 -1.7 -1.7 -1.7 -1.7 -1.7 -1.7 -1.7 -1.7 3.1 7.9 5.1 2.4 4.9 8.6 16.1 20.2 20.7 24.1 26.5 31.8 33.9 33.8 30 30.9 34.5 34.8 23.9 14.2 13.6 7.1 5.2 4.9 5.2 5.8 6.4 5.9 5.6 10.2 26.7 42.5 51 57 62.7 64.5 68.4 65.2 49.5 47.3 48.6 46.9 48.2 48.7 47.6 49.8 61.1 82.4 79.9 80.2 66 66.1 68.4 73.5 86.3 91.2 89.4 88.6 81.4 80.8 79 76.4 76.6 80.3 88.9 93.8 100.3 102.5 106.5 109.4 109.7 98.7 89.8 89 81.9 83.6 87.4 91 89.8 89.1 92.1 93.6 88.7 76.3 70.6 70 49.5 87.6 91.2 87.6 89.2
-1.7 -1.7 -1.7 -1.7 -1.7 -1.7 -1.7 -1.7 -1.7 -1.7 -1.7 -1.7 -1.7 -1.7 -1.7 -1.7 -1.7 -1.7 -1.7 -1.7 -1.7 -1.7 -1.7 -1.7 -1.7 -1.7 -1.7 2.6 3.5 3.4 -0.1 -1.7 -1.7 -1.7 -1.7 -1.7 -1.7 -1.7 -1.7 -1.7 -1.7 -1.7 -1.7 -1.7 -1.7 -1.7 -1.7 -1.7 -1.7 -1.7 -1.7 -1.7 -1.7 -1.7 -1.7 6.6 6.9 1.3 8.5 7.2 12.2 14.3 12.2 12.4 19.4 33.2 39.6 41.3 53.5 50.5 47 42.8 36.2 29.1 20.5 3.9 -1.7 -1.7 -1.7 -1.7 -1.7 -1.7 -1.7 -1.7 -1.7 -1.7 -1.7 -1.7 -1.7 -1.7 -1.7 -1.7 -1.7 -1.7 -1.7 -1.7 -1.7 -1.7 -1.7 -1.7 -1.7 -1.7 -1.7 -1.7 -1.7 -1.7 -1.7 -1.7 -1.7 -1.7 -1.7 2.3 0.9 2.4 4.7 12 16 17.3 19.2 20.8 21.7 23.6 25.1 23.6 24.6 26.7 28.7 25.6 14.1 13.3 6.2 5.2 5.5 5.9 6.1 6.2 5.6 18.7 37.3 36.9 51.3 57.4 64.6 66.5 71.7 73.7 69.6 57.6 46.6 47.9 47.3 48.6 49.1 48.8 50.5 65.9 75.5 79.3 80.2 70.9 62.8 62.1 71.7 73.9 97.1 87.6 84.7 86.4 85.9 80.6 87.6 86.3 84 77.3 83.2 94.9 101.1 103 102.8 98.7 88.1 84.8 80.3 81.4 80.2 85.3 85.2 81.4 83.1 85.2 75.2 68.8 63.3 56.6 47 67.9 91.6 92.8 89.1 87.7
-1.7 -1.7 -1.7 -1.7 -1.7 -1.7 -1.7 -1.7 -1.7 -1.7 -1.7 -1.7 -1.7 -1.7 -1.7 -1.7 -1.7 -1.7 -1.7 -1.7 -1.7 -1.7 -1.7 -1.7 -1.7 -1.7 -1.7 1.6 2.3 -1.7 -1.7 -1.7 -1.7 -1.7 -1.7 -1.7 -1.7 -1.7 -1.7 -1.7 -1.7 -1.7 -1.7 -1.7 -1.7 -1.7 -1.7 -1.7 -1.7 -1.7 -1.7 -1.7 -1.7 -1.7 -1.7 0 -1.7 -1.7 2.4 3.9 7.6 14.5 11.8 8.9 8 14.2 18.9 19.7 31.1 45 41 42 31.9 23.2 17 5 -1.7 -1.7 -1.7 -1.7 -1.7 -1.7 -1.7 -1.7 -1.7 -1.7 -1.7 -1.7 -1.7 -1.7 -1.7 -1.7 -1.7 -1.7 -1.7 -1.7 -1.7 -1.7 -1.7 -1.7 -1.7 -1.7 -1.7 -1.7 -1.7 -1.7 -1.7 -1.7 -1.7 -1.7 -1.7 -1.7 -0.4 1.8 4 11.2 15.3 16 15.7 16.1 12.1 10.7 11.3 12.7 17.8 18.1 21.8 21.3 12.4 10.6 6.6 6.1 6 6.2 6.2 5.2 9.1 21.8 39.3 51.9 59.4 61.2 68.1 71.6 75.6 75.6 67.4 57.5 47.8 45.4 50.4 49.5 53.1 51 57.6 66.9 73.6 80.4 76.8 60.7 59 57.6 60.4 79 76.2 83 84.8 84.9 82.9 83.4 93.3 89.7 86.1 84.1 85.7 78.7 92.6 97 94 90.6 85.1 80.3 75.4 72 74.5 80.7 84.7 78.1 78.9 66.3 65 55.6 52.6 51.1 53.9 78.1 93.4 92 90.7 87
-1.7 -1.7 -1.7 -1.7 -1.7 -1.7 -1.7 -1.7 -1.7 -1.7 -1.7 -1.7 -1.7 -1.7 -1.7 -1.7 -1.7 -1.7 -1.7 -1.7 -1.7 -1.7 -1.7 -1.7 -1.7 -1.7 -1.7 1 0.6 -1.7 -1.7 -1.7 -1.7 -1.7 -1.7 -1.7 -1.7 -1.7 -1.7 -1.7 -1.7 -1.7 -1.7 -1.7 -1.7 -1.7 -1.7 -1.7 -1.7 -1.7 -1.7 -1.7 -1.7 -1.7 -1.7 -0.7 -1.7 -1.7 6.7 7 7.6 9.5 6 5.7 5.6 5.5 5.8 5 7.9 11.2 19.5 14.3 15.5 12.8 11.7 9.6 -1.7 -1.7 -1.7 -1.7 -1.7 -1.7 -1.7 -1.7 -1.7 -1.7 1.9 2.8 -1.7 -1.7 -1.7 -1.7 -1.7 -1.7 -1.7 -1.7 -1.7 -1.7 -1.7 -1.7 -1.7 -1.7 -1.7 -1.7 -1.7 -1.7 -1.7 -1.7 -1.7 -1.7 -1.7 -1.7 -0.3 2.8 9.3 15.1 16.4 16.6 15.6 14.1 9.9 8.9 8.7 8.3 8.6 8.7 10.1 11.8 10.4 7 6.5 6.5 6.4 6.7 6.9 11.2 14.4 24.2 39.2 46.2 51.6 60.1 67.8 70.8 76.6 73.6 65.7 55.8 51.3 48.6 58.2 50.4 49.5 55.7 56.7 67.1 76.7 74.5 68.6 56.1 55.2 55.9 57.7 74.2 77.1 83.6 82.8 90.1 82 85.6 89.3 91.1 88.6 88.4 89.3 95.4 92.9 89.3 88.7 82.9 79.9 72.1 68.1 72.3 79.2 81 81.1 74.2 68.6 60 47.9 43.3 51.6 52.2 56.7 78.4 86.2 89.4 88.6 87.5
-1.7 -1.7 -1.7 -1.7 -1.7 -1.7 -1.7 -1.7 -1.7 -1.7 -1.7 -1.7 -1.7 -1.7 -1.7 -1.7 -1.7 -1.7 -1.7 -1.7 -1.7 -1.7 -1.7 -1.7 -1.7 -1.7 -1.7 -1.7 -1.7 -1.7 -1.7 -1.7 -1.7 -1.7 -1.7 -1.7 -1.7 -1.7 -1.7 -1.7 -1.7 -1.7 -1.7 -1.7 -1.7 -1.7 -1.7 -1.7 -1.7 -1.7 -1.7 -1.7 -1.7 -1.7 -1.7 0 2 5.7 10.4 14 19.7 16.2 22.6 10.1 5.4 4.7 5.1 5.2 5.6 6.2 14.6 13.1 18.4 20.1 18.2 10.7 2 0.2 0.8 3.4 3.8 3.4 3.9 5.3 3.2 3.6 4.8 4.9 4.2 -1.7 -1.7 -1.7 1.5 4.3 -1.7 -1.7 -1.7 -1.7 -1.7 -1.7 -1.7 -1.7 -1.7 -1.7 -1.7 -1.7 -1.7 -1.7 -1.7 -1.7 -1.7 -1.7 0.4 7.6 16 20 22.1 20.5 19 17.1 11.6 8.7 8 7.9 7.7 7.6 7.8 7.7 7 6.4 6.6 7.1 6.9 7.2 7.9 14.9 15.7 21 31.8 41.5 45.5 54.2 60.7 68.1 64.5 61 62.5 56.9 45.9 53 57.7 40.4 50.1 56.2 57.8 63.1 60.5 61.9 56.7 55 54.6 58.4 58.7 68 69.8 74.6 80.6 83 87.5 92.8 93.6 90.2 91 106.4 104.3 101.3 109.7 104.8 81.5 79.2 74.7 70.8 69.4 71.7 75.9 74.8 74.3 62.5 52.6 56.3 39.1 41.2 40.8 53.4 65.4 84.6 94.7 94.7 92.2 94.3
-1.7 -1.7 -1.7 -1.7 -1.7 -1.7 -1.7 -1.7 -1.7 -1.7 -1.7 -1.7 -1.7 -1.7 -1.7 -1.7 -1.7 -1.7 -1.7 -1.7 -1.7 -1.7 -1.7 -1.7 -1.7 -1.7 -1.7 -1.7 -1.7 -1.7 -1.7 -1.7 -1.7 -1.7 -1.7 -1.7 -1.7 -1.7 -1.7 -1.7 -1.7 -1.7 -1.7 -1.7 -1.7 -1.7 -1.7 -1.7 -1.7 -1.7 -1.7 -1.7 -1.7 -1.7 -0.8 1.5 2.4 5.6 13.1 16.3 21.5 26.6 26.4 13.1 6.2 5.8 5.1 5.2 5.5 6.2 19.1 20.3 18.9 23.6 18.5 10.7 6.9 2.4 5.2 9.2 15.2 15.4 11 10.8 15.6 11.4 13.9 12.7 7.6 3 1.9 4.6 5 5.1 -1.7 -1.7 -1.7 -1.7 2.5 -1.7 -1.7 -1.7 -1.7 -1.7 -1.7 -1.7 -1.7 -1.7 -1.7 -1.7 -1.7 -1.7 1.9 13.2 22.3 26.3 30.4 29.7 29.9 32.3 23.9 13.9 8.6 8.1 7.7 7.5 7.5 6.9 9.9 7.8 8.2 10.8 9.8 7.2 8.7 9.4 9.4 12 19.7 26.2 30.6 35.3 38.3 52.1 51.3 50.4 51.8 48.4 44.1 51.9 48.7 30.2 41.6 57 55 58.1 52.6 58.7 59.7 54.8 54.9 59.4 57 59.8 63.4 61.8 69.1 80.3 87.7 93.6 94.1 89.4 100.1 109.7 119.8 111.7 106.4 108.3 88.3 78.3 67.3 65.8 71.4 69.1 67.1 68.9 65.8 57.3 50.6 39.9 38.7 42.1 46 51.5 75.5 90.2 94.8 95.5 102.8 94.7
-1.7 -1.7 -1.7 -1.7 -1.7 -1.7 -1.7 -1.7 -1.7 -1.7 -1.7 -1.7 -1.7 -1.7 -1.7 -1.7 -1.7 -1.7 -1.7 -1.7 -1.7 -1.7 -1.7 -1.7 -1.7 -1.7 -1.7 -1.7 -1.7 -1.7 -1.7 -1.7 -1.7 -1.7 -1.7 -1.7 -1.7 -1.7 -1.7 -1.7 -1.7 -1.7 -1.7 -1.7 -1.7 -1.7 -1.7 -1.7 -1.7 -1.7 -1.7 -1.7 -1.7 -1.7 0.3 2.3 2.4 2.6 7.4 19 24 31.7 31 27.9 17.2 7.9 6.1 6.2 9.3 10.6 16.6 14.4 17.6 21.9 13.6 12.3 17.3 5.5 17.2 18.4 23.3 21.1 17.9 22.4 29.8 19.8 21.3 15.6 13.6 8.4 11.3 13.6 10.9 1.7 -1.7 -1.7 -1.7 3.1 2.6 -1.7 -1.7 -1.7 -1.7 -1.1 -1.3 -1.7 -1.7 -1.7 -1.7 -1.7 -1.7 1.2 5.2 14.8 30.1 31.2 38 43.2 43.1 39.1 45.3 35.3 23 18.7 9.7 8.7 7.5 8.3 11.7 13.4 9.4 14.2 13.4 16.4 20.8 25.2 28.6 34.9 30.8 25.5 20.2 17.2 19 26 30.1 32.4 31.8 32.6 31.8 39.3 27.7 26.6 33 52.2 50.3 51.9 50.2 51.8 59.5 51.1 60 59.1 57.8 49.8 53.8 51.5 53.7 80.7 89.4 86.9 88.5 89.5 90.3 96.8 104.2 101 102.2 99.1 92.1 86 64.3 62.5 64.1 65.8 61.9 63 63.8 55.9 38.7 38.6 31.2 42.2 46.2 62.6 73.8 81.4 84.8 84.9 88.2 85
-1.7 -1.7 -1.7 -1.7 -1.7 -1.7 -1.7 -1.7 -1.7 -1.7 -1.7 -1.7 -1.7 -1.7 -1.7 -1.7 -1.7 -1.7 -1.7 -1.7 -1.7 -1.7 -1.7 -1.7 -1.7 -1.7 -1.7 -1.7 -1.7 -1.7 -1.7 -1.7 -1.7 -1.7 -1.7 -1.7 -1.7 -1.7 -1.7 -1.7 -1.7 -1.7 -1.7 -1.7 -1.7 -1.7 -1.7 -1.7 -1.7 -1.7 -1.7 -1.7 -1.7 -1.7 1.7 5.6 5.7 13.3 22.3 29.6 37.9 45.2 46.1 40.7 30.8 19.3 11.5 10.4 16 17.1 16.3 14.7 16.9 19.8 12.6 14.4 19.9 9.8 19 25.7 24.7 23.8 28.6 43.1 45.4 34.1 34.6 20.4 17.5 15.5 21.4 21.3 9.6 0.6 -1.7 -1.7 1.9 10.1 4.5 1.7 -1.7 -1.7 0 0.3 0.2 -0.6 -1.7 1.2 13 7.1 4.1 5.9 12.5 21.6 36.4 46.2 51.3 63.1 68.4 69.4 62.4 51.6 47.4 37.9 29.2 16.4 9.9 9.7 14.3 14.3 10 18.9 22.2 28.2 32.6 34 35.9 37.9 37.4 32.5 39.6 43.8 42.8 26.2 23.3 22.2 28.8 27.3 22.8 22.9 23.3 24.9 35 43.6 41 46.1 45 55.1 51.5 55.4 52.3 54.1 56.1 43 50.4 47.6 59.6 66.6 75.7 79.6 87.1 82.1 81.5 84.6 90.9 100.3 96.1 92.9 85.1 86.2 63.3 62.5 62.2 60.6 57.6 51.5 51.5 37.1 35.5 36.3 25 41 46.1 60.7 66.3 66.4 68.3 71.4 69.4 73.6
-1.7 -1.7 -1.7 -1.7 -1.7 -1.7 -1.7 -1.7 -1.7 -1.7 -1.7 -1.7 -1.7 -1.7 -1.7 -1.7 -1.7 -1.7 -1.7 -1.7 -1.7 -1.7 -1.7 -1.7 -1.7 -1.7 -1.7 -1.7 -1.7 -1.7 -1.7 -1.7 -1.7 -1.7 -1.7 -1.7 -1.7 -1.7 -1.7 -1.7 -1.7 -1.7 -1.7 -1.7 -1.7 -1.7 -1.7 -1.7 -1.7 -1.7 -1.7 -1.7 -1.7 1.9 6.2 15.9 18.3 27 33.1 34 45.9 50.7 58 54.8 44.2 26.6 23.9 22.2 25.9 26.6 19.6 18.1 20.2 23.4 18.9 14.5 23.4 12.6 13.9 22.4 25.5 25.7 33.1 42.3 47.5 46.1 41.6 24.2 22.6 22.3 25.2 25.4 4.1 1.2 0 1.5 10.7 11.8 4.7 2.4 1.8 0.7 1.8 1.7 1.2 0.8 0.6 1.9 11.6 11.7 15.4 22.1 24.8 31.9 39.8 60.1 72.1 78.5 83.8 83.1 75.2 66.7 67.8 60.3 45.7 33.4 26.1 12.9 16.2 16.5 14.6 15.5 27.7 38.8 39.5 43.4 49.6 47.9 44.8 38.4 36.6 34.3 46 36.2 30 21.1 23.8 20.5 24.1 27.5 24.3 26.4 26.8 26.7 27.9 27.3 29 31.3 33.2 40.9 39.5 44.1 38.5 35.6 39.7 44.4 51.6 57.2 69.5 75.7 75.1 74.5 80.9 86 89.1 89.4 82.4 75.7 77.4 77.8 66.4 63.4 65.5 66.8 54.8 40.1 35.3 31.6 28.2 27.9 32 38.9 53 54.7 58 54.9 61.3 58.2 55.9 57.5
-1.7 -1.7 -1.7 -1.7 -1.7 -1.7 -1.7 -1.7 -1.7 -1.7 -1.7 -1.7 -1.7 -1.7 -1.7 -1.7 -1.7 -1.7 -1.7 -1.7 -1.7 -1.7 -1.7 -1.7 -1.7 -1.7 -1.7 -1.7 -1.7 -1.7 -1.7 -1.7 -1.7 -1.7 -1.7 -1.7 -1.7 -1.7 -1.7 -1.7 -1.7 -1.7 -1.7 -1.7 -1.7 -1.7 -1.7 -1.7 -1.7 -1.7 -1.7 -0.1 0.7 2.3 16.5 26.8 22.5 32.6 38.7 37.6 43.4 55.6 66.1 73.3 64.3 38.6 33.8 34.8 35.4 32.5 26.6 24.9 24.4 28.1 23.6 17.7 22 17.2 21 22.5 25.7 26.7 35.2 36.6 39.8 43.1 40.1 34.4 26.3 26.5 32.8 19.6 3.2 2.1 2.4 7.5 15.7 14.8 3.4 2.4 2.4 2.4 4.6 2.4 2.4 2.1 2.1 3.9 13.3 14.9 19.7 32.1 38 41.4 53.6 63.6 74.5 87.1 93.6 93.8 83.5 80.7 80.3 79.2 58.9 50 49.1 27.7 20.5 19 15.7 26.1 36.4 43.1 49.3 50 53.1 52.9 42.5 38.6 35.8 34.3 31.6 32.6 25.6 21.1 22 22.3 27.2 37.1 48.1 44.2 52.8 45.8 43.4 33.6 27.2 28.3 37.2 41.7 35.9 33.9 33.5 33.9 35.6 40.9 55.5 65.6 72 75.2 71.5 73.6 76.9 78.6 76 74.9 69.4 72.4 75.4 74.3 68.5 70.6 66.2 61.7 46.2 40.8 26 22.6 19.1 16.6 30.4 26.8 43.9 43.3 42.1 40.1 43.9 48.3 50 49.1
-1.7 -1.7 -1.7 -1.7 -1.7 -1.7 -1.7 -1.7 -1.7 -1.7 -1.7 -1.7 -1.7 -1.7 -1.7 -1.7 -1.7 -1.7 -1.7 -1.7 -1.7 -1.7 -1.7 -1.7 -1.7 -1.7 -1.7 -1.7 -1.7 -1.7 -1.7 -1.7 -1.7 -1.7 -1.7 -1.7 -1.7 -1.7 -1.7 -1.7 -1.7 -1.7 -1.7 -1.7 -1.7 -1.7 -1.7 -1.7 -1.7 0.8 1.6 2.4 2.9 6.6 22.4 35.1 34 37.3 44.8 43.1 44.1 51.7 67.7 79.6 67.5 46.8 43.4 42.3 36.9 36.4 33.5 27.9 32.3 32.3 23.6 18.5 21.6 24.2 24.4 28.6 27.2 28.8 34.5 36.5 38.7 39 39.7 40.6 32.1 27.7 26.4 11.6 5.8 3.7 2.4 6.1 13.8 11.9 2.4 2.4 2.4 2.6 5.1 2.4 2.4 2.6 10.6 13.3 18.2 21.5 30.7 33.9 47.4 50.4 59.3 68.7 75.8 80.7 94.4 98.7 91 85.8 86.8 90.9 78 62.2 61.7 50.4 34.6 25.3 19.3 28.4 38.7 49.6 54.2 57.2 59.3 55.6 46.5 41.7 38.7 27.2 24 24.7 20.7 20.7 20.5 29.9 37.2 54.7 57.7 56.6 81.9 77.2 73.8 69.9 38.5 32.4 32.5 31.8 32.9 34.3 34.4 33.2 34.7 46.4 54.6 60.7 71.1 66.2 66.6 68.9 67.6 63.5 62.5 62.6 68.2 67.6 65 62.2 58.4 56 53.8 47.4 37 28.6 20.8 18.8 14.6 19.8 26.1 31.1 26.2 32.8 32.5 35.3 35.2 38.3 41.5 36
-1.7 -1.7 -1.7 -1.7 -1.7 -1.7 -1.7 -1.7 -1.7 -1.7 -1.7 -1.7 -1.7 -1.7 -1.7 -1.7 -1.7 -1.7 -1.7 -1.7 -1.7 -1.7 -1.7 -1.7 -1.7 -1.7 -1.7 -1.7 -1.7 -1.7 -1.7 -1.7 -1.7 -1.7 -1.7 -1.7 -1.7 -1.7 -1.7 -1.7 -1.7 -1.7 -1.7 -1.7 -1.7 -1.7 -1.7 1.3 6.7 3.9 5.1 2.4 12.7 11.4 22.3 36.4 36.4 41.8 43.9 43.5 43.6 47.5 62.4 79.3 68.5 52.4 49.5 47.2 46.7 42.1 37.4 31.1 31.1 31.8 27.8 20.3 18.8 33.4 29.9 32.7 29.2 48.8 49.2 41.1 41.6 39.3 33.1 37.9 31.1 25.6 18.8 10.1 14.4 13.8 10.9 9.7 10 10.2 2.4 2.4 2.4 3.3 4.6 5.1 5.9 9 17.1 17.3 23.6 28 37.2 42.8 52.3 55.9 64.8 75.5 79.1 81.4 90 98.3 97 89.2 99.8 105.1 97.7 76.1 68.8 68.1 54.1 36.4 28.1 36.9 46.6 55.2 60.3 58.8 53.2 51.3 52.3 44.8 31.3 25.9 22.6 21.9 20.5 20.5 22.1 51 63.3 63.7 58 58.2 89.7 92.4 84.6 85.7 65.3 51.9 50.9 53.6 43.8 40.2 47.3 34 43.8 54.4 63.7 58 59.7 60.9 65.8 65.3 65.1 58 55.4 55.6 62.3 61.5 63 55.9 47.3 44.2 42.3 37.5 31.7 23.1 17.3 15.7 13.3 18.3 22 25.3 23.8 24 24.1 25.4 26.9 27.8 26.7 29.6
-1.7 -1.7 -1.7 -1.7 -1.7 -1.7 -1.7 -1.7 -1.7 -1.7 -1.7 -1.7 -1.7 -1.7 -1.7 -1.7 -1.7 -1.7 -1.7 -1.7 -1.7 -1.7 -1.7 -1.7 -1.7 -1.7 -1.7 -1.7 -1.7 -1.7 -1.7 -1.7 -1.7 -1.7 -1.7 -1.7 -1.7 -1.7 -1.7 -1.7 -1.7 -1.7 -1.7 -1.7 -1.7 2.5 2.1 7.2 13.3 7.5 6.4 7 10.8 14.5 19.4 34.8 37.2 44.6 43.4 44.3 45.3 48.7 64.5 75.7 59.2 55.8 54.1 47 61.1 44.8 41.9 32 37.1 32.3 29.6 22 22.9 40.5 35.6 34.2 32.2 57.2 56.4 51.7 49.2 42.2 31.4 29.2 24.9 20.4 13.9 17.6 18.1 21.4 14 8.6 5.6 2.4 2.4 2.4 3.8 8.7 11.8 17.6 15.8 18.6 21.9 23.1 29.9 40.1 42.1 45.4 48.3 57.2 66.7 76.2 80.2 82.7 90.3 100.3 99.9 102.3 108.9 114.5 108 90.6 77.7 70.6 64.6 45.8 46.5 47.8 53.2 61.9 65.2 60 52.9 52.1 55.4 52.6 38.3 26.1 22.1 20.5 20.5 20.5 32.6 57.9 71 65.3 59.4 70 103.1 102.5 96.6 100.7 72.4 63.2 57 53.9 50.8 47.1 50.1 55.1 59.6 63.5 68.9 74.5 65.8 66.8 76.9 74.8 67.6 60.5 55.7 50.5 52.1 52.6 54.5 49.1 41 44.4 44.6 34 17.1 14.6 13.5 14.2 11.8 15.6 18.3 17.4 19.2 20 24.7 27.6 26 29.7 36.2 43.7
-1.7 -1.7 -1.7 -1.7 -1.7 -1.7 -1.7 -1.7 -1.7 -1.7 -1.7 -1.7 -1.7 -1.7 -1.7 -1.7 -1.7 -1.7 -1.7 -1.7 -1.7 -1.7 -1.7 -1.7 -1.7 -1.7 -1.7 -1.7 -1.7 -1.7 -1.7 -1.7 -1.7 -1.7 -1.7 -1.7 -1.7 -1.7 -1.7 2 1.6 1.7 4.3 1.8 2.4 2.4 2.5 10.3 17 13.3 11.7 13 14.5 28.2 33.3 48.3 53.6 54.5 49.8 48.2 49.1 49.5 57.2 65.2 60.1 58.4 58.6 54.9 64.7 49.2 41.4 39.5 49.2 36.7 32.1 28.2 29.6 41.5 45.3 47 43.3 59.4 53.7 54.1 44.8 35.9 37.3 30.5 18.4 15.4 25.8 25.5 23.4 24.4 15.5 10.2 2.4 2.4 2.4 2.4 7.6 15.8 21 30.8 23.1 24.7 28.3 28.7 27.4 42.6 45 46.8 48.5 55 66.5 77.2 83.7 84.1 90.1 99.8 105.3 106.7 108.2 117.7 114.9 95.8 82.3 72.9 70.9 48.8 53.7 54.8 62 67.6 73.9 73.8 56.2 59.4 60.1 53.6 41.7 27.4 22.2 20.5 20.5 20.5 41.3 54.1 63 62 59.3 81.9 103.8 105.7 101.2 86.5 71.7 68.1 64.5 62.5 56.9 55.5 64.1 69.7 65.5 65.8 72.1 75.6 70.6 67.4 72.5 67.8 57.9 57.7 52.8 44.1 39.7 39.9 39.7 37.7 40.6 38.3 30.7 27.6 14.7 12.1 12.3 12.6 14.2 17.2 22.4 50.4 61 68.7 68.5 67.7 49.9 39.4 57.6 66.8
-1.7 -1.7 -1.7 -1.7 -1.7 -1.7 -1.7 -1.7 -1.7 -1.7 -1.7 -1.7 -1.7 -1.7 -1.7 -1.7 -1.7 -1.7 -1.7 -1.7 -1.7 -1.7 -1.7 -1.7 -1.7 -1.7 -1.7 0.6 2.1 1.8 0.9 -1.7 -1.7 0.7 -1.7 -1.7 -1.7 3.4 4.2 3.1 4.5 9.7 7.2 4.9 2.4 6 4.6 13.7 16.1 15.5 14.6 18 22.2 35.6 45 61.3 65.2 66 55.2 50.5 52.9 51.9 55.6 65 61.8 64.6 66.6 67.8 72 60.4 57.4 63.6 55.8 47.6 35.6 31 36.4 42.2 48.2 53.2 62.3 58.7 51.6 48.7 38.5 41.4 33.8 26.1 16 15.2 22 28.4 28 26.3 6.4 3.2 2.4 2.4 2.4 2.4 7.7 24.1 32 36.7 29.4 30.7 35.7 38.8 30.7 36 45.5 48.6 47.5 52 58.9 69.3 79.5 83.1 90.8 97.3 109.2 116.3 113.5 113.3 109.7 94.2 84.6 76.9 71.8 55.4 57.5 63.3 76.1 81.9 88.8 85.3 75.2 66.6 61.1 47 40.9 28.5 22.8 20.5 20.5 25.1 41.3 50.9 60.3 59.9 70.3 104.7 122.3 111.2 99.7 78.6 72.1 73.9 68.8 64 60.3 69.5 70.4 68.4 63.5 59.6 70.2 69.4 64.1 66.9 65 54.8 55.1 51.2 41.6 38.6 31.9 29.6 29.7 32.4 33.9 30.2 26.8 19.1 11.5 11.3 11.5 13.8 17.1 30.9 56.1 68.4 68.8 63.8 63.2 56.8 47.4 41.7 61 88.3
-1.7 -1.7 -1.7 -1.7 -1.7 -1.7 -1.7 -1.7 -1.7 -1.7 -1.7 -1.7 -1.7 -1.7 -1.7 -1.7 -1.7 -1.7 -1.7 -1.7 -1.7 -1.7 -1.7 -1.7 -1.7 -1.7 -1.7 -1.7 4.4 2.3 4.9 4.8 2.9 5.1 -1.7 -1.7 15.3 13.9 7.7 14.5 18.4 17.1 18.9 15.5 8.4 14.6 11.4 16.2 17 18.5 21 26.6 31.4 44.1 49.2 56 68.4 73.5 58.1 52.4 57 51.6 55.9 61.9 63.1 70.1 72 72.1 77.8 90.6 94.7 79.6 63.5 51.8 43.2 39 41.8 47.5 54.2 57.9 58.4 52.4 51.1 44.5 38.2 41.4 30.8 18.9 15.3 15.2 16.9 28.3 35.9 20.6 10.2 2.6 2.4 2.4 2.4 3.5 16.6 23.2 35.4 43 40.7 40.2 41.6 46.5 36.2 29 44.4 47.7 45.8 45.7 56.7 69.6 78.6 83 94.6 99.4 109.3 114 117 111 105.1 92.7 85.5 78 76.6 58.8 65.8 75.9 82 84.1 89.7 98.5 85.4 71.2 61.8 45.5 39.6 31.2 24.6 21.7 21.9 31.4 41.6 52.5 58.8 58.5 87.5 117.5 128.8 120.2 101.1 75.8 75.2 76.5 63.6 62.1 62.2 80.4 85.5 74.3 61.3 58 62.3 61.3 60.5 61.9 64.8 52.5 48.3 47.8 35.9 32.1 26.7 25.4 26.1 37.6 38.7 26.8 22.1 11.5 10.5 10.8 9.3 23 34.8 36.5 55.3 69.4 64.9 58.1 59.4 49.2 44.4 41.2 77.5 85.7
-1.7 -1.7 -1.7 -1.7 -1.7 -1.7 -1.7 -1.7 -1.7 -1.7 -1.7 -1.7 -1.7 -1.7 -1.7 -1.7 -1.7 -1.7 -1.7 -1.7 -1.7 -1.7 1.2 2.4 4.6 3.5 2.4 2.6 9.1 7.1 7.2 6.2 4.7 2.4 2.6 14.8 10.2 17.2 27.1 20.9 25.8 21.4 17.7 15.9 12.9 12.9 17.1 19.1 17.6 19.4 21.8 23.9 34.9 34.5 49.7 51.9 62.6 70 57.9 53.3 54.6 51.4 56.8 65.1 65.2 69.7 73.3 73.7 86.3 101.2 97.1 74.2 66.4 56.5 51.9 45.6 42.6 41.9 54 53.2 51.2 50.3 49.2 42.5 37.2 31.9 20.2 15.2 15.2 15.2 20.2 34.4 47.5 35.2 13.1 2.9 3.5 2.4 2.4 7.4 24.7 28.1 43.1 46.2 48.6 49.5 48 48.9 49 31 37.2 47 44.9 40.7 57.3 67.5 77.2 84.3 100.2 102.1 107.1 111.7 112.8 114.3 103.5 88.4 85.9 91.5 80.1 78.5 78.4 80.4 83.6 85.3 91.8 99.8 88.7 70.5 60.1 41.5 38.2 35.6 29.9 24.4 28.9 36.8 44.9 52.8 54.7 67.3 96.5 124.1 132.6 129.5 105.9 83.7 82.4 78.4 62.3 61.9 62.9 81.4 90 83.8 65.8 55.5 58.5 59.1 59.7 60.5 63 49 46.2 37.5 32.8 29 28.3 23.8 25.8 33.9 34.7 20.7 17.8 10.8 10 9.8 13.7 27.3 35.5 43 56.7 70.8 59.5 60.1 59.1 49.3 39.5 44.1 61 73.1
-1.7 -1.7 -1.7 -1.7 -1.7 -1.7 -1.7 -1.7 -1.7 -1.7 -1.7 -1.7 -1.7 -1.7 -1.7 -1.7 -1.7 -1.7 -1.7 -1.7 -1.7 -1.7 1.9 4.1 11.9 14.3 6.8 7.3 18.9 16.1 11.9 8.9 8.3 7.4 9.4 18.5 17.9 25.7 29.2 31.9 30.3 21.1 16.8 16.5 17.1 14.2 24.5 27.8 19.2 21.2 26.2 33.4 38.3 35.3 48.1 52 61.8 67 59.3 56.4 53.1 52.3 55.8 68.2 66.6 70.5 72.4 74.2 92.7 98.2 89.2 74.5 70.5 59.1 55.7 52.3 43.2 43 53.1 53.1 50.8 46.4 41.2 38.5 32.8 21.5 16.3 15.2 15.2 18.2 31 33.9 47 37 14 8.7 3 2.7 4 16.1 29.4 33 41.7 49 49.9 53.1 55.5 54.6 55.1 48.6 44.7 45.8 39.7 40.1 52.7 64.3 75.1 89.3 98.2 101.4 106.5 109.3 111.5 110.6 110.3 98.8 88.1 93.7 79.9 81.3 87.7 87.2 84.3 88.1 94.1 94.6 88.3 69.4 54.5 39.8 39 42.1 38.5 46.7 47 46.8 46.7 51.8 57.2 86.9 111.5 130.6 137.4 131.4 105.2 90.5 84.7 81.7 62.2 61.9 71.9 91.3 97 90.7 70.7 57.2 56.9 58.6 58.7 57.8 52.6 44.3 44.7 31.8 27.8 30 23.8 25.6 26.1 27.5 26.4 19.4 10.9 9 8.8 9.1 17.8 31.6 40.3 46.5 62.8 65.1 64 66.7 55.6 50.4 34 37.9 46.4 52.7
-1.7 -1.7 -1.7 -1.7 -1.7 -1.7 -1.7 -1.7 -1.7 -1.7 -1.7 -1.7 -1.7 -1.7 -1.7 -1.7 -1.7 -1.7 -1.7 -1.7 -1.7 -1.7 3.8 11.5 19.1 22.8 24.7 12.7 22.1 23.2 14.4 14.8 14.7 20 18.1 21.2 25.7 28.5 33.5 32.9 32 24.5 18 17.1 18.4 15.6 27.4 30.7 23.7 23.3 29.3 34.8 36.3 37.1 48.3 56.8 65 73.5 66.6 64.5 61 52.9 57.2 64.3 66.4 70.5 71.7 73.6 84.5 84.6 79.9 75.6 67.4 67.2 58.2 62.2 60.1 59.3 62.7 60.4 56.4 46.8 35.7 30.6 23.9 18.3 16.1 15.2 15.2 30.6 38.3 34.4 34.6 41.1 16.7 13 7.2 5.8 13 22.4 26.9 37.6 38.1 51.3 48.1 48.4 57.3 60.5 56.6 49.3 36.9 39.9 39.2 39.3 50 61.1 82.6 91.9 99 101.3 106 108 117.4 118.4 113.4 103.3 89.9 93.5 83 85.5 97.8 101 94 93.7 93 89.1 81.9 64.5 47.9 40.7 40 46.5 54.3 61.3 60.4 56.1 52 54 70.8 96.9 128.1 135.3 140.2 120.7 96.8 83.1 77.7 68.3 60.3 61.1 79.6 98.7 97.3 90.2 76.8 60.9 56.5 58.7 58.2 54.3 47.5 39.9 34.2 22.7 23.2 22.7 20.4 21.5 20.9 21.2 24.3 19.3 10.6 8.7 7.8 8.2 13.7 28 38.4 43.2 53.1 63.8 73.5 67.1 44.8 33 29.2 38.4 36.6 39.9
-1.7 -1.7 -1.7 -1.7 -1.7 -1.7 -1.7 -1.7 -1.7 -1.7 -1.7 -1.7 -1.7 -1.7 -1.7 -1.7 -1.7 -1.7 -1.7 -1.7 -1.7 -1.7 3.9 12.7 10.5 19.6 21.4 20.1 21.4 24.7 20.2 23.1 22.8 32.2 34.1 27.3 37.5 36.8 32.6 33.4 35.2 23.8 20.8 18.4 18 17.8 29.4 28.5 26.1 25.8 30.9 34 35 39.4 47.1 56.8 65.3 71.9 67.9 66.3 62.2 54.1 56.5 64.1 68.4 73.4 76.2 76.5 77.5 79 81.5 78.3 70.7 72 69 79.9 76.6 69 73.7 68.4 55.1 45.3 32.7 20.5 18.8 19.6 16.8 16.7 25 33.8 42.5 34.7 33.6 35.5 21.4 12.1 9.7 11.5 14.4 22.4 32.5 37.5 39.9 52.2 48.2 49.4 58.8 65.2 62.6 55.4 35.2 37.9 39.3 44.2 47.4 60.5 74 87.1 92.1 99.7 107.3 110.5 118 122 116.3 102 94.6 90.1 86.4 92.9 102.4 104.6 99.8 101.1 95.5 86.5 74.5 62.9 51.1 43.3 42.4 58.3 71.3 74 67.6 56.3 54.2 69 97.7 103.6 127.6 137.8 134.1 108.7 95 79.7 71.2 63 58 67.2 72.8 88.3 95.9 89.6 76.9 63.8 55.6 57.9 56.6 54.5 45.1 31.8 21.3 19.8 18.4 11.6 19.2 19 19.7 17.7 17.9 19.7 10.4 8.6 7 7.4 22 38.8 41.7 44.1 56.3 58.1 61.3 56.9 31.2 25.3 25.8 32.8 32.6 39.4
-1.7 -1.7 -1.7 -1.7 -1.7 -1.7 -1.7 -1.7 -1.7 -1.7 -1.7 -1.7 -1.7 -1.7 -1.7 -1.7 -1.7 -1.7 -1.7 -1.7 -1.7 -1.7 1.7 3.1 6 17.2 24 20.5 28.1 26.2 27.1 23.7 27.1 36.7 35.7 29.4 32.2 34.4 33.5 54.8 41.5 31.2 31.4 21.6 18.9 21.3 34.2 35.2 29.7 25.4 25.9 33.9 35.4 39.8 46.8 56.6 61.4 69.6 66.4 64.3 61.5 55.6 60.8 62.8 67.5 77.8 85.6 80.4 79.4 78.4 80.6 77.4 73.5 81.5 77.7 86.7 84.5 72.9 78 73.6 60.8 43.9 29.7 19 18.6 19.1 16.6 17.3 27.1 34.5 40.3 36.5 33.8 29.1 21.6 13.2 11.6 15.9 18.4 24.1 30.2 40.5 46 51.4 47.8 46.9 55.1 58.5 59.5 56 37 36.6 38 41.9 47.4 61.8 69.8 87.7 100.9 106.6 105.9 110.5 118 118.8 113.2 102.8 96.2 92.6 96.1 100.9 102.8 100.5 99.1 95 93.2 84.4 74.9 58.9 54.5 49.9 52.4 72.6 77.8 76.2 62.6 53.9 70 82.8 101.5 119.7 131.9 134.9 127.6 99.8 89.6 80.7 65.4 56.8 57.8 69.2 78.9 82.1 93.1 89.3 78 60.2 54.5 57.2 52.4 50.8 33.1 24.7 14.1 10.7 8.2 13.3 16.3 18.2 18.6 16.6 18.5 20.3 10 7.9 6.5 6.7 14.2 35.8 39.7 51.5 64.2 62.7 52.7 38.1 29.6 24.6 26.7 30.7 29.1 33.5
-1.7 -1.7 -1.7 -1.7 -1.7 -1.7 -1.7 -1.7 -1.7 -1.7 -1.7 -1.7 -1.7 -1.7 -1.7 -1.7 -1.7 -1.7 -1.7 -1.7 -1.7 -1.7 0 2.2 5.6 11 19.2 18.9 24.4 27.1 26.5 26.8 28 33.8 30.8 27.6 32.8 33.2 34.9 54.2 45.6 45.3 35.7 25.5 19.6 28.3 33.1 34 28.9 27.7 26.3 26.6 30.1 39.4 42.3 53.7 57 65.8 66.7 63.8 62 56.8 55.3 62.4 72.6 85 93.8 86.3 84.8 78 86 78 74.4 84.5 84 86.4 78.9 74.5 75.9 73 59.9 49.1 33.3 22.3 21.6 18.4 22.6 30.8 35.1 38.6 39.8 38.1 32.7 28.6 25.2 15.7 14 17.5 21.2 25.2 31 41 43 49.1 46.5 46.1 49.2 50.5 55.1 54.1 40.8 36.9 38.2 43.9 45.7 62 75.2 88.3 105.9 110.6 105 110 117.8 115.9 111.2 106.2 97.7 95.5 99.5 101.4 102.2 100.6 95.8 93.8 97.2 81 72.5 62.6 58.3 53.9 61.6 80.2 80.3 71.6 52.1 53.2 72.3 82.8 110.3 144.8 142.7 135.4 113 95.6 83.7 78.9 61 55.4 61 72.6 70.8 76.3 87.2 86.5 75.3 62.6 52.1 56.9 44.4 34.1 22.3 16.4 5.8 3.3 5.8 11.7 15.8 15.9 14.4 15.5 19.8 26.7 8.6 6.7 6 6.2 22.6 33.7 37 43.6 51.8 48.9 51.8 36 31.6 23.5 41.1 27.6 21.2 20.7
-1.7 -1.7 -1.7 -1.7 -1.7 -1.7 -1.7 -1.7 -1.7 -1.7 -1.7 -1.7 -1.7 -1.7 -1.7 -1.7 -1.7 -1.7 -1.7 -1.7 -1.7 -1.7 -0.3 2.2 4.6 8.2 12.5 15 23.7 27 26.1 34.9 31.8 36.3 29.4 24.4 30.8 31.7 33.4 39.5 40.2 45.7 34.7 28.3 21.9 30.3 34.7 34.4 32 30.9 28.1 28.1 27.4 33.2 36.7 42.8 48.7 60.9 65.6 65 62.3 57 54 60.6 72.2 82.4 94.3 92.9 90.1 76.9 85.4 79.2 75.9 80.5 77.9 80.7 76.3 70.4 66.9 66 56.3 41.6 34.2 27 22.6 25.1 43.1 48.9 46 40.7 42.9 37.1 29.9 29.4 27.4 21.1 20.7 19.3 20.1 25.4 41.1 39.3 42.6 48.2 51.2 44.8 45.9 52.8 49.7 48.7 39.5 37.1 41.3 48.5 48.2 60.6 73 93.7 100.1 108.3 107.9 108.6 110.7 115.6 114.3 103.5 99.4 97.5 99.5 103.6 103.1 103.7 91.5 93.8 94.6 79.4 75.6 68.8 57.7 57.2 69 70 78.3 57.2 48.6 58.7 81.1 90.5 123.9 151.2 146.1 130.9 98.5 90 78.5 71.2 54.3 55.1 67.5 71.3 71.4 69 84.8 78.6 82 65.1 47.3 45.2 38.1 24.7 13.5 4.8 2.4 2.5 9.6 12 15 11.7 10.4 14.4 16.3 7.9 7.4 6.3 4.9 5.3 18 29 33.3 42.4 53.5 54.2 42 31.8 24.7 19.3 24.1 21.3 9.9 8.4
-1.7 -1.7 -1.7 -1.7 -1.7 -1.7 -1.7 -1.7 -1.7 -1.7 -1.7 -1.7 -1.7 -1.7 -1.7 -1.7 -1.7 -1.7 -1.7 -1.7 -1.7 -1.7 -1.7 1.4 4.4 8.5 12.2 14.2 21.5 24.9 32.2 37.8 34.3 34.9 26.8 23.9 26.3 31.7 33.3 37.7 39.9 44.4 37.8 26.7 23.5 25.3 39.3 37.3 35.8 34 29.2 29 27.4 32.6 37.6 44.8 50.6 59.8 66.1 65.9 66.8 60.5 54.8 60.9 70.1 73.9 82.7 87.9 83.6 72.2 81.3 79.6 77.6 76.2 72.2 76.8 71.8 66 58.6 58.5 52.1 36.3 35.7 38.8 23.2 37.1 45.3 51.6 49.2 45.5 47.1 41.9 29.8 28.8 28.7 24.7 24 22 22.8 32.9 37.2 37.5 40.4 47.5 45.6 44 44.5 51.8 46.9 45.7 38.3 39.2 51 62.8 64.2 66.9 78.5 90.3 102.8 114.1 113.2 110.3 112.2 119.9 113 104.8 105.3 100.7 101.6 103.5 103.9 104.4 91.6 93.2 87.1 76.5 71.7 60.8 60.2 60.3 62 57 51.9 47.8 49.2 60.4 89.2 102.9 131 148.2 140.5 119.2 95.2 86.2 70.4 62.8 54.6 57.9 65.2 77.7 73.3 66.6 69.9 67.9 75.1 59.4 33.6 29.3 22.3 9.1 2.6 2.4 2.4 5.6 6.7 7.6 10.1 5.9 7.8 21 11.1 6.5 6.9 5.3 4.3 2.8 23.9 40.5 40.6 46 52.4 49.9 37.4 26.3 19.6 11 8.7 5.4 3.1 -1.7
-1.7 -1.7 -1.7 -1.7 -1.7 -1.7 -1.7 -1.7 -1.7 -1.7 -1.7 -1.7 -1.7 -1.7 -1.7 -1.7 -1.7 -1.7 -1.7 -1.7 -1.7 -1.7 -1.7 0.9 2.9 11.2 14.4 14.3 21.2 18.8 32.3 34.4 32.5 29.5 27.1 22.6 29.6 32.2 33.8 44.7 52.2 53.1 41.2 26.9 24.5 26.7 45.3 49.7 37.8 37.9 28.9 28.1 28.5 34.9 38.9 47.2 49.5 64.7 69.9 74.7 72.8 69.3 55.7 62.3 70.9 78.1 78.6 81.5 75.2 70.4 73.5 77.7 76.9 71.7 68.4 69.8 64.5 57.6 56.1 52.1 49.5 41.1 37 34 28.4 45 51 45.2 45.2 51.3 52.9 43.1 30.1 30.3 27.9 22.8 22 19.3 25.6 33.8 38.2 44.9 41.4 40.8 41.8 43.2 46 54.3 49.6 47.9 40.3 41.2 52.5 62.3 69.5 68.1 81.9 90.9 102.2 110.4 112.7 113.1 116.6 119.8 105.6 105.7 109.3 100.2 102.2 103.3 100 98.1 92.6 80.3 67.6 75.3 62.4 54.6 58.9 52.7 52.3 41.9 37.8 43.5 59.5 72.4 96 108.6 138 142.8 128.8 105.2 91.5 77.4 62 49.7 55.9 63 68.6 78.7 72.7 61.2 57.4 60.7 53.2 42.6 25.1 18 14.6 2.4 2.4 2.4 2.4 4.5 6.8 6 10.4 4.4 16.6 25.8 6.2 6.4 6.6 4.8 4 14.4 19 28.3 46.8 51.9 57.4 43.3 25.7 11.5 8.9 4.3 4.6 -1.7 -1.7 -1.7
-1.7 -1.7 -1.7 -1.7 -1.7 -1.7 -1.7 -1.7 -1.7 -1.7 -1.7 -1.7 -1.7 -1.7 -1.7 -1.7 -1.7 -1.7 -1.7 -1.7 -1.7 -1.7 -1.7 -1.7 4.3 10.2 13.6 10.5 10.4 13 31.6 33.4 31.2 26.8 26.4 22.5 24.5 26.2 32.7 45.5 55.8 55 47.8 27.9 24.4 30.9 44.7 49.1 34.7 30 29.1 28.6 32.9 35.2 37.3 49.4 55 67.9 76.9 76.2 78.6 79.5 59.2 65.4 71 78.9 75.7 79.3 75.3 66.9 66.6 69.7 72.7 62 64.2 63.2 59.7 56.3 53 49.3 49.3 45.8 40.7 32.5 42.3 52.9 55.3 49 45.9 42.5 43.5 36.6 34.1 27.4 23.6 26 20.7 21.8 26.2 29.9 47.3 51.5 44 40.3 45.3 53 51.9 57.4 56.8 50.4 40.2 58.4 52.4 62.3 76 72.6 80.7 90.7 99.8 110.7 112.7 113.6 117.1 114.7 104.1 106.2 106.9 101.1 103.5 101.8 99.6 95 88.6 69.9 56.8 66.2 60.8 50.9 54 44.9 38.5 35 34.8 47.7 57.6 80.3 99.2 112.6 130.8 131.7 115.9 92.1 79.9 66.6 53 45 57.4 57.6 63.3 79.9 73.2 55.7 51.1 50.7 32.8 27.3 18.5 9.5 2.4 2.4 2.4 2.4 2.4 5.5 9.3 3.1 2.4 4.4 14.9 12.8 4.1 5.5 5.8 5.6 1.8 8.1 13.2 25.1 42.1 52.1 37.8 24 13.2 4.5 -1.7 1.6 -1.7 -1.7 -1.7 -1.7
-1.7 -1.7 -1.7 -1.7 -1.7 -1.7 -1.7 -1.7 -1.7 -1.7 -1.7 -1.7 -1.7 -1.7 -1.7 -1.7 -1.7 -1.7 -1.7 -1.7 -1.7 -1.7 -1.7 -1.7 2.3 5.8 11.2 7.8 5.6 8.3 30.8 30.9 25.9 23.3 20.9 20.3 22 21.8 28.7 47.3 48.6 44 30.5 27.9 26.4 32.3 39 39 32.7 30.3 38.8 39.3 43.1 44.8 45.9 61.1 71.6 73.7 83.5 87.9 91.3 80.9 63 62.1 65 77.3 74.6 73.2 78 66.5 61.3 61.8 61 56.3 57.1 56.5 55.1 52.6 50.9 48.3 50.9 43.4 42.2 44.3 56.8 65.6 57 48.6 46.4 41.1 38.1 38.8 30.7 24.9 23.6 23.6 25.1 27.4 25 36.5 51.3 53.6 46.6 42.4 54.5 57.4 61.8 64 61.1 51.7 40.7 54.2 50 63.4 79.2 75.8 79.5 90.2 100.3 109.3 115.6 114.5 114.5 109.7 102.7 102.8 101.7 103 102.8 103.7 95.7 85.3 80 57.8 51.1 62 60.9 49.5 44.7 41.4 30.9 31.3 32.6 42 66.6 85.4 97.9 104.9 108.9 112.5 95 79.6 71.4 56.4 44.7 42.6 50.3 53.7 64.9 69.9 65.5 46 36.4 28 16 16.5 11.6 14.6 2.4 2.4 2.4 7.5 7.3 13.6 8 2.4 2.4 8.4 6.9 1.1 0.6 2 4.9 5 -1.7 4.7 9.2 21.4 29.7 24.2 19.4 15.7 5 -1.7 -1.7 -1.7 -1.7 -1.7 -1.7 -1.7
-1.7 -1.7 -1.7 -1.7 -1.7 -1.7 -1.7 -1.7 -1.7 -1.7 -1.7 -1.7 -1.7 -1.7 -1.7 -1.7 -1.7 -1.7 -1.7 -1.7 -1.7 -1.7 -1.7 -1.7 2.4 3 5.3 2.4 3.2 15.3 22.2 24.8 19.3 16.7 17.4 18.7 17.4 21.5 27.2 37.2 39.6 38.3 28.2 28 27.8 39 40.3 43 35.1 37.8 38.3 44.5 51.4 52.1 54.7 62.4 71.3 82.1 86.8 90.7 89 83.8 62 58 60.7 72.4 72.6 68.2 72.3 65.7 57.3 53.6 52.1 53.3 51.2 50.5 51.1 50.1 49.5 52.7 54 47 45.8 63.2 73.5 67 62.2 50.9 43.6 39.7 46.3 39.1 27.4 24.9 23.6 25.7 29.7 28.4 39.1 52.7 59.3 52.4 50.9 46.3 56.2 60.6 64.7 67.7 64.4 55.3 45.3 46.3 50.5 66 80.7 81.9 81.1 91.1 91.9 105 107 112.1 107.8 103.1 102 102.6 100.1 98.3 101.6 94.4 79.5 79 71.1 48.8 49 43.9 43 45.1 36.2 37.7 25.6 26.7 28.9 43.7 74 81.7 91.3 98.4 97.6 93.1 73.3 65.7 56.5 47.6 38.3 38.4 45.8 54.2 65.1 63.5 53.5 29.9 22.7 15.9 7.5 5.7 6.1 8.2 2.4 2.4 2.9 10.3 12.5 5.4 4.5 -1.7 1.5 11.3 -1.7 -1.7 -1.7 -0.4 -1.7 -1.7 -1.7 3.7 7.9 8.2 15 7.6 7 15.8 -1.7 -1.7 -1.7 -1.7 -1.7 -1.7 -1.7 -1.7
-1.7 -1.7 -1.7 -1.7 -1.7 -1.7 -1.7 -1.7 -1.7 -1.7 -1.7 -1.7 -1.7 -1.7 -1.7 -1.7 -1.7 -1.7 -1.7 -1.7 -1.7 -1.7 -1.7 -1.7 0.2 1.5 2.9 2.4 2.4 20.3 26 21 13.7 13.4 13.6 19.4 16.5 18.9 31.9 42.4 40.9 35.2 26.9 27.7 44.5 46.4 44.2 43.7 38.5 43.3 41.3 40.9 46.8 46 54.2 64.6 73.9 86.7 93.2 96.9 92.9 81.7 62 59.7 60.7 67.9 73.8 65.7 64.1 60.1 56.9 51.6 49.3 50 49.6 48.3 48.3 50.5 55 57.6 55 55.6 65.2 74.2 78.7 67.5 61.6 54.5 40.6 41 48.8 35.3 26.8 25.4 24.8 26.1 36.7 37.1 44.5 57 57.7 55.8 57.4 53.3 57.4 60.9 62.6 67.8 66.4 56.4 61.3 50.4 53.4 68.7 83.9 87.7 85.3 87 88.2 94 98.9 104.6 102.3 100.9 103 104.8 98.8 92.8 96.8 85.8 69.2 66.8 55.5 41.8 40.5 37.5 37.7 38 24.3 22 19.7 21.4 24 46.5 66.8 69.1 80.6 91.1 87.1 70 65.3 56.8 47.1 39.3 32.6 36.3 42 51.2 59 46.7 33.4 22.1 16.9 9.5 5.7 2.6 2.2 1.4 2.4 2.4 6.2 3.4 -1.7 -1.7 -1.7 -1.7 -0.9 -1.7 -1.7 -1.7 -1.7 -1.7 -1.6 1.5 4.6 5.6 6.7 2 -1.7 2.3 -1.7 -1.7 -1.7 -1.7 -1.7 -1.7 -1.7 -1.7 -1.7 -1.7
-1.7 -1.7 -1.7 -1.7 -1.7 -1.7 -1.7 -1.7 -1.7 -1.7 -1.7 -1.7 -1.7 -1.7 -1.7 -1.7 -1.7 -1.7 -1.7 -1.7 -1.7 -1.7 -1.7 -1.7 -1.7 -1.7 -1.7 -1.7 1.6 6.3 9.8 12.5 12.4 12.6 13.2 15.2 16.5 25.9 36.4 43.1 34.9 26.5 26.6 28.8 50.4 48.1 43.9 45.2 39.2 40 36.7 36.8 43.1 47.1 50.4 69.9 77.8 83.3 92.7 96 93.1 83.6 63.6 61.7 71.3 71.8 76 66.4 64 56.5 54.4 50.8 48.3 48.3 48.3 48.3 50.1 50.8 50.9 59.8 59.8 61.8 77.6 83.1 90.7 76.1 62.9 57.2 39.7 40.2 37.6 28.7 29.1 27 27.4 29.5 43.3 48.1 54 56.1 61.3 68.4 60.8 60.6 59 59.3 65.3 70.6 65.9 60.7 66.1 59.1 59 68.2 85.2 88.9 86.5 86 86.3 95.3 95 99.2 107.5 96.8 101.3 104 94.9 86.2 85.2 74.2 54.3 50.3 53.1 37.1 34.2 29.1 28.4 25.4 17.5 13.3 14 15.9 31.8 46.9 58 57 75.4 88.6 64.8 62.2 58 48.3 34.1 30.5 32.2 37.1 42.3 42.6 39.1 26.2 19.5 17.3 12.7 6.4 3.6 1.2 -1.7 -1.7 1.1 4.8 11.8 -1.7 -1.7 -1.7 -1.7 -1.7 -1.7 -1.7 -1.7 -1.7 -1.7 -1.7 -1.7 -1.7 9.1 5.4 -1.7 -1.7 -1.7 -1.7 -1.7 -1.7 -1.7 -1.7 -1.7 -1.7 -1.7 -1.7 -1.7 -1.7
-1.7 -1.7 -1.7 -1.7 -1.7 -1.7 -1.7 -1.7 -1.7 -1.7 -1.7 -1.7 -1.7 -1.7 -1.7 -1.7 -1.7 -1.7 -1.7 -1.7 -1.7 -1.7 -1.7 -1.7 -1.7 -1.7 -1.7 -1.7 2.2 5.2 8.7 13.1 13.3 13.3 14.1 15.7 21.2 40.4 42.7 48.1 32.6 24.8 24.8 34.5 44.6 40.1 40.3 40.6 47.3 40.3 36.5 36.9 38 42.7 58.4 73.8 84.1 91.6 92.2 90.6 89.3 81.7 63.5 63.2 72.2 72.6 76.9 67 64.2 57.1 57.8 51.7 48.3 48.3 50.5 51.5 54.1 50 46.9 55.7 60.7 62.7 80.5 80.2 87 75.7 66.4 50.6 42.1 36.7 35.8 31.3 29.4 29.8 31.4 39.1 46.8 54.4 54.8 57.8 60 63.4 68 62.2 61.4 61.2 66.3 67.4 65.9 65.1 64.7 59.8 63.4 63.6 77 85.1 83.6 82.3 85 90 98.5 102 109 95.3 98.4 97.4 91.6 83.3 77.5 66.8 53.1 43.8 40.8 31.6 25 21.6 16.3 7.6 4.1 4.4 8.3 12.4 24.8 39.8 42 67.2 80.8 68.3 55.7 52.6 52.5 41.7 32.1 25.8 35 46 34.6 33.4 32.3 19.6 11.7 9.2 4.9 2.2 0.6 -1.7 -1.7 -1.7 4.3 13.5 -1.7 -1.7 -1.7 -1.7 -1.7 -1.7 -1.7 -1.7 -1.7 -1.7 -1.7 -1.7 -1.7 -1.7 0.8 6.3 -1.7 -1.7 -1.7 -1.7 -1.7 -1.7 -1.7 -1.7 -1.7 -1.7 -1.7 -1.7 -1.7 -1.7
-1.7 -1.7 -1.7 -1.7 -1.7 -1.7 -1.7 -1.7 -1.7 -1.7 -1.7 -1.7 -1.7 -1.7 -1.7 -1.7 -1.7 -1.7 -1.7 -1.7 -1.7 -1.7 -1.7 -1.7 -1.6 -1.4 -1.7 -1.7 9 11.2 15.8 18.5 26.3 24.8 22 35.1 35.7 47.4 47.9 52.4 22.2 21 19.8 40.9 41 38.3 39.6 39.5 40.6 35.7 36.2 36 36.7 39 63.7 78.7 90.5 100 97.6 86.1 88.9 82.7 64.7 63.9 73.5 76.7 81.3 82.5 69.1 62.3 63.3 61.7 51.4 51.6 61 52.9 47.6 40.6 55.6 57.6 62.2 64 76.5 78.1 74.8 70.5 61.6 55.4 43.5 38 38.7 32.9 30.8 34.5 34.7 42.2 48.1 49.9 52.6 59.2 57.3 59.4 64.9 63.4 62.2 64 66.1 67.8 65.9 66 62.5 59.3 63 64.7 69.3 75.3 79.8 85 87.8 89.2 91 95.2 104.2 94.4 91.7 95.1 89.4 78 67.6 64 42.5 29.6 25.8 17 14.6 8.4 4.1 -1.7 -1.7 -1.7 1.3 14.1 12.5 19.9 53 68.9 76.4 51.7 51.1 41.2 43.6 35.9 23.3 23 36.9 42.4 27.6 20.5 17.2 16.4 5.6 4.6 1.4 -1.7 -1.7 -1.7 -1.7 -1.7 10.9 10.1 -1.7 -1.7 -1.7 -1.7 -1.7 -1.7 -1.7 -1.7 -1.7 -1.7 -1.7 -1.7 -1.7 -1.7 0.1 -1.7 -1.7 -1.7 -1.7 -1.7 -1.7 -1.7 -1.7 -1.7 -1.7 -1.7 -1.7 -1.7 -1.7 -1.7
-1.7 -1.7 -1.7 -1.7 -1.7 -1.7 -1.7 -1.7 -1.7 -1.7 -1.7 -1.7 -1.7 -1.7 -1.7 -1.7 -1.7 -1.7 -1.7 -1.7 -1.7 -1.7 -1.7 -1.7 0.4 0.7 -1.7 1.8 3.9 14.1 22.5 26.4 30.4 30.7 46.4 54 43 53 50 39.3 16 15.6 16.9 38.8 38 36.2 38.9 38.3 36.5 35.8 35.1 35.2 35 36.7 47.4 69.1 84.2 95.3 90.2 82.9 83.6 79.8 65.3 65.6 72.5 77.4 83.3 86.1 73.7 65.4 65.6 73.9 60.8 55 53.8 46.6 39.8 33 43.5 50.5 58.4 65.9 74.5 73 69.3 64.3 56.4 51.4 43.1 47 47.8 34.7 33.3 33.7 39.1 41.8 53.3 51.2 53.2 51.4 58 53.4 59.6 61.9 65.4 64.5 64.8 73.2 67.6 60.7 56.8 56.5 55.6 54.5 64.2 72.4 76.7 87.7 84.6 84.8 91.3 98.6 99.5 91.1 85 89.8 78.3 64.4 63.4 56.7 32.4 9.9 5.4 3.7 5.7 3.3 -1.7 -1.7 -1.7 -1.7 -1.7 2.3 5 34.3 54.1 58.9 49 40.9 43.1 35.8 28.3 23.8 19.4 22.6 27.9 33.1 14.6 8.8 7.9 5.9 3 4.9 1.3 -1.7 -1.7 -1.7 -1.7 6.2 7.5 -1.7 -1.7 -1.7 -1.7 -1.7 -1.7 -1.7 -1.7 -1.7 -1.7 -1.7 -1.7 -1.7 -1.7 -1.7 -1.7 -1.7 -1.7 -1.7 -1.7 -1.7 -1.7 -1.7 -1.7 -1.7 -1.7 -1.7 -1.7 -1.7 -1.7 -1.7
