ncols 200
nrows 86
xllcorner 220000
yllcorner 690700
cellsize 50
-1.3 -1.3 -1.3 -1.3 -1.3 -1.3 -1.3 -1.3 -1.3 -1.3 33.2 65.7 96 123.2 147.2 165.9 194.9 229 269.1 314.8 344.5 368.4 377.8 403.6 392.3 386.1 383.7 390.6 378.2 321.7 299.1 308.3 279.8 268.8 281 270.9 262.3 258.7 245.1 233.7 218.6 212.4 207.1 198.8 187.5 175.1 159.3 150.2 131.8 110.8 86.6 64.6 56.7 41.6 25.5 20.2 6.3 -1.3 -1.3 -1.3 -1.3 -1.3 -1.3 -1.3 -1.3 -1.3 -1.3 -1.3 -1.3 -1.3 -1.3 -1.3 -1.3 -1.3 -1.3 1.9 5.5 10.2 12.4 14.2 18 18.9 28.2 37.3 48.7 55.6 60.5 67.6 84.5 102.7 116.2 129.6 143.6 157.7 149.3 151 157 174.8 187.1 192.8 201.3 218 237.6 260.1 266.1 273.9 282.9 294 311.8 330.4 346.6 345.1 355.4 372 379.8 387.3 392.7 399.4 409.2 436.5 440.1 445.6 456.3 461.1 467.5 478.4 486.6 490.5 495.8 498 505.6 522.5 542.2 557.9 572.2 591.2 623 646.4 647.7 636.8 618.4 603.7 592.8 580.8 559 533.7 519.6 505.2 488.5 476.3 462.1 447.3 438.4 428.3 426.9 430 427.9 421.3 398.3 376.2 353.3 340.3 324.9 307.2 289.7 277.4 261.7 243.2 229.4 220.4 216.4 212.8 209.3 208.7 208.5 211.6 215.3 218.2 225.4 235.6 248.6 263.6 285.3 310.5 336.5 367.1 400 424.1 450.5 484.9 515.9 545.1 572.2 596.1 612.2 622.2 637.2 646.3 639 610.9
-1.3 -1.3 -1.3 -1.3 -1.3 -1.3 -1.3 -1.3 -1.3 -1.3 28.6 77.3 95.3 116.6 140.7 165.5 186.6 219.9 266.9 313.4 342.9 377.1 372.4 381.8 379.9 374.2 369 367.2 346.3 309.9 288.6 289.2 269.9 265.9 279.9 268.7 259.6 255.8 246.8 235.6 223.2 215.6 208.4 199.4 188.1 165 149 143.4 126.7 99.6 75.1 63.3 55.2 37.6 24.5 8.4 -1.3 -1.3 -1.3 -1.3 -1.3 -1.3 -1.3 -1.3 -1.3 -1.3 -1.3 -1.3 -1.3 -1.3 -1.3 -1.3 -1.3 -1.3 -1.3 6.7 11.6 17.4 17.6 13.2 23.9 27.6 32.4 42.8 54.9 60.3 60.7 71.7 86.6 107.5 120.3 132 144.4 151.4 148.1 153.4 164.2 177.6 189.2 198.9 213.2 228.3 245 268.3 271.3 278 289.3 303.3 323.4 342.5 350.4 354.1 367.5 383.4 386.9 390 393.8 407.6 420.1 437.7 442.8 444.3 457.4 460.3 466.3 476.1 484.5 494.5 503.9 513.1 517.9 530.8 550.5 570.7 591.7 617.4 648.9 669.1 669.8 657 651.1 638.8 618.4 594.7 577 562 548.7 530.5 509.6 494 485.1 469.6 453.4 452.1 450.1 444.3 442.4 428.4 412.1 390.8 368.1 347.9 334.7 313.1 297.5 280.8 264.9 246.9 232.8 222.8 216 212.2 208.8 207.9 205.9 209.1 212.8 215.1 220.2 229.4 239.9 255.5 275.2 297.7 324.4 352.4 381 407.9 434.7 468.4 499.4 524.6 550.6 573.6 595.7 607.5 626.8 646 659 643.5
-1.3 -1.3 -1.3 -1.3 -1.3 -1.3 -1.3 -1.3 -1.3 -1.3 23.1 68.4 87.8 109.3 136 164.8 183.2 208.9 253.2 298.1 331.2 376 374.3 362.4 365.1 367.2 349.6 337.6 313.2 283.4 271.3 268 266.2 260.9 274.6 272.8 263.9 252.8 247.4 235.6 229.3 217.7 208.2 203 190.2 170.2 147.7 138.6 110.9 86.9 69.7 60.3 49.7 26.2 7.9 -1.3 -1.3 -1.3 -1.3 -1.3 -1.3 -1.3 -1.3 -1.3 -1.3 -1.3 -1.3 -1.3 -1.3 -1.3 -1.3 -1.3 -1.3 6.2 6.6 19.6 17.7 27.7 24.6 23.9 25.5 33.4 38.9 49.2 58.1 61.3 64.8 74.2 89.1 113.8 123.1 132.3 143.5 146.9 147.6 155.3 173.6 187.4 194.3 207.5 226.4 243.4 254.5 266.5 273 280.1 296.5 309.7 333.3 350.5 355.5 358.2 368.9 387.2 386.7 386.3 393.2 408.2 422 438.3 444.4 447.9 451.6 458.2 467.7 486.6 490.1 498.7 516.3 527 531.1 545.4 567.9 589.1 615.5 641.5 671 686.1 685.3 668.5 654.2 640.6 625.1 605.2 585.3 576.8 561.5 540.5 522.8 507.5 484.2 477 473.1 472.3 468.8 463.2 457.8 439.7 427.7 403.7 381.9 360.1 343.1 328.6 304.5 283.4 267.6 250 237 225.2 215.6 211.7 208.2 206.2 203.7 206.4 210.1 210.8 215.6 222.2 232.5 245.8 264.7 284.5 308.7 335.9 362 389.8 417.5 450 477.6 503.2 527.7 551.8 574.5 588.3 611.1 633.8 656.6 668.8
-1.3 -1.3 -1.3 -1.3 -1.3 -1.3 -1.3 -1.3 -1.3 -1.3 -1.3 53.9 80.7 102 131.6 162.7 177.8 204 249.1 288.7 322.3 356.2 361 364 346.7 350.1 351.8 327.8 305.9 267.9 261.1 261.2 256.4 255 267.8 269.9 264.7 250.4 242.2 240.6 232.6 219.1 213.5 210.1 194.5 165.1 143 124.5 103.8 87.4 69.1 48.8 39.2 12.9 -1.3 -1.3 -1.3 -1.3 -1.3 -1.3 -1.3 -1.3 -1.3 -1.3 -1.3 -1.3 -1.3 -1.3 -1.3 -1.3 -1.3 -1.3 5.8 6.9 17.9 13.5 24.5 29.4 29.4 33.1 28.5 36.4 43.4 53.6 60 60.8 68.8 80.8 94.5 115.9 124.4 129.8 135.5 141.7 152.4 167.7 186 195.9 201.3 216.3 246.7 251.1 261.8 269.2 274.5 284.8 299.7 313.5 344.3 356.6 358.5 359.6 366.7 382 381 386.2 394 407.5 426.7 438.5 448.5 449 451.2 456.9 473.2 495 496.1 505.3 526.5 537.5 544.7 561.3 584.7 616.6 632.2 661.6 685.1 694.3 694.4 678.8 662.8 639.7 623.1 602.2 582 569.5 561.1 547.4 520.7 504.6 495 486.8 485.5 479 478.3 471.9 462.7 444.1 423.9 402.8 385.6 365.4 349 337.7 318.2 287 267.2 251.2 239.7 227.3 218 212.1 208.6 205.1 202.8 202.6 206.5 208.4 212 217.9 225.8 237.4 253.2 271.1 296.3 318.7 344.5 368.7 401.6 431.7 455.9 481.7 506.2 529.7 551.2 566.6 591.3 618.3 646.9 663.6
-1.3 -1.3 -1.3 -1.3 -1.3 -1.3 -1.3 -1.3 -1.3 -1.3 -1.3 38.6 67.7 96.4 126.5 157.2 174.8 201.4 247.1 279.5 307.5 330.2 343.1 340.3 331.3 339 343.8 325.5 288.4 264.9 254 258.6 260.7 249.5 262.9 264.2 258.7 249.9 244.2 241.1 233.8 221.4 214 207.3 193 161.9 141.3 120 98 80.9 58.5 42.3 33.3 -1.3 -1.3 -1.3 -1.3 -1.3 -1.3 -1.3 -1.3 -1.3 -1.3 -1.3 -1.3 -1.3 -1.3 -1.3 -1.3 -1.3 -1.3 -1.3 6.9 17.9 13.5 22.3 32.8 29.9 29.3 32.1 36.9 35.3 48.4 58 60.4 65.6 73.1 79.9 95.1 114.7 122.5 128 135 143 155.6 175.7 187.3 195.3 206.7 227.6 251 254.3 270.5 271.6 276.7 286 296.7 318 350.3 351.4 362.2 359.3 366.2 381.5 378.9 395.1 400.6 407.7 429.6 450.4 459.1 453.2 451.6 453.4 472.3 495.7 498.4 511.5 533 543 552.2 566.3 599.3 631.2 642.9 664.2 691.6 699.9 698.5 686.5 669.2 649.4 635.3 616.8 592.8 571.1 551.4 531.4 518.5 508.5 500.1 493.7 491 486.4 481.5 477 465.3 444.6 417.7 402.4 389.8 370.9 351.5 332 316.1 291.5 271.1 254.8 239.4 227.6 219.5 213.6 209.9 206 202.6 199.4 203.5 205.1 207.5 212.8 218.9 229.5 245.3 259.5 279.6 302.2 325.3 349.4 380.4 410.2 434.2 459.3 482.3 504.2 524.6 547 575.5 604.9 623.8 639
-1.3 -1.3 -1.3 -1.3 -1.3 -1.3 -1.3 -1.3 -1.3 -1.3 -1.3 27.4 59.3 87.9 116.2 145.2 169.4 185.9 241.8 266.5 287.8 305.2 323.2 327.2 333.6 326.8 327.4 323.5 303.7 259.4 247.2 250.8 251 238.3 248 253.9 253.4 251.4 242.5 235.3 227.9 216.3 206 197.3 176.2 156.9 135.3 116 91.9 75.8 54.8 38.9 22.4 -1.3 -1.3 -1.3 -1.3 -1.3 -1.3 -1.3 -1.3 -1.3 -1.3 -1.3 -1.3 -1.3 -1.3 -1.3 -1.3 -1.3 -1.3 6.3 19.4 13.5 29.4 32 31.7 29.5 30 39.3 42.8 45 50.5 62 62.9 68.5 78 86.2 97.9 113.1 119.9 124.3 133.2 142.9 158 176.3 186.5 199.8 221 233.4 243.9 254.8 268.3 273 273.8 282.9 294 321.8 344.9 349.1 360.9 358.2 368.3 376.3 375.8 400.5 410 411.3 426.5 457.6 467.3 461.2 454.5 456.6 466.2 484.7 495.5 513.5 534.5 544.1 553.2 571.4 609.7 634.7 647.8 669.9 697.5 704.3 701.6 691.5 678.1 656.3 642.2 623.1 601 574.8 553.9 542.5 526.2 515 512.3 509 500.1 490.5 480.6 473.6 457.6 436 414 397.9 384.1 367.9 349.6 331.7 315.5 295.4 278.4 261.9 243.2 228.8 220.7 215 211 206.7 204.7 203 201.3 202 204.2 206.8 212.8 222.7 235.6 250.4 265.5 286.3 310.8 333.6 360 388.9 413 435.6 463.3 483.1 507.1 532.8 563 589 594.1 609.6
-1.3 -1.3 -1.3 -1.3 -1.3 -1.3 -1.3 -1.3 -1.3 -1.3 -1.3 17.2 50.3 77.2 103.5 129.6 153.5 176.8 211.1 250.8 274 290.1 304.8 322.1 317 321.4 312.8 316.3 304.4 256 243.7 233.9 234.5 229.2 245.4 251.2 252.7 249.4 237.4 230.4 230.2 216.7 196.3 182.7 171.2 158.4 136.7 112.5 87.4 67.7 45.2 32.4 -1.3 -1.3 -1.3 -1.3 -1.3 -1.3 -1.3 -1.3 -1.3 -1.3 -1.3 -1.3 -1.3 -1.3 -1.3 -1.3 -1.3 -1.3 -1.3 11.3 13.6 30.4 35.8 31.5 40.4 39 43.7 45.4 49.7 56.8 61.5 63.6 69.6 79.6 78.9 89 97.8 106.6 112.2 122 131.9 143.9 158.8 173.3 187.7 205.8 230.6 239.5 241 249.7 263.7 269.4 271.7 279.3 294.7 316.4 337.2 350.5 360.7 350.5 359 368 374 398.5 410.1 410.7 431.3 448.9 463.9 461.2 454.1 458.5 467 478.9 498.3 518.8 541.4 546.7 560.6 577.2 617.7 641.1 656.4 675.3 697.2 702.6 703.5 695.1 679.5 662.7 640.1 635.1 612.9 585.6 568.3 539.2 527.3 521.3 519.5 513.6 504.3 489.3 470.8 462.7 456.8 443.6 423.6 396.1 375.5 361.5 345.2 329.3 317.1 303.2 278 263.9 247.1 228.4 220.9 215.8 211.5 206.9 202.9 201.1 199.3 199.5 201.6 203.9 208.8 217 229.1 243.7 257.3 274.3 296.5 317.1 344.1 366.7 394.1 414.9 437 467.4 493.7 520.3 547 566.2 568.6 590.5
-1.3 -1.3 -1.3 -1.3 -1.3 -1.3 -1.3 -1.3 -1.3 -1.3 -1.3 -1.3 41.8 68.5 91.8 117 143.5 171.2 200.8 239.2 257 269.3 287.9 300.3 301.2 307.8 313.1 296.8 290.8 261.8 235.5 226.7 224.1 218.8 244.7 255.5 259.3 255.3 243.2 231.5 222.8 212.7 206.7 196.2 173 153.2 137.1 118.2 89.5 69 44.7 17 -1.3 -1.3 -1.3 -1.3 -1.3 -1.3 -1.3 -1.3 -1.3 -1.3 -1.3 -1.3 -1.3 -1.3 -1.3 -1.3 -1.3 -1.3 -1.3 20.1 30.4 40.1 32 32.6 40.7 55.1 55.9 55.7 58.9 64.2 69.7 60.6 76.1 81.1 84.3 85.8 94.7 103.4 112.1 121.2 133 147 160.2 173.9 191.8 206.4 236 249.1 242.5 246.5 256.5 263.3 266.2 279.6 293.3 310.2 331.9 345.9 353.9 348.5 352.7 363.2 368.6 388 398.4 410.6 428.6 441.1 455.6 456.8 452.2 461.3 469 478.1 503.1 521.6 541.7 546.9 564.2 585.5 616.6 641.6 656.9 669.7 687.4 699.9 701.5 694.3 673.6 655.9 636.1 631.9 614.2 589.1 564 539 530.5 522.8 520.4 512.3 499.3 482 462.2 454.1 451 439.6 427.7 396.8 371.9 356.1 340.4 325.4 317.6 299.2 275.6 258.6 245.4 230.4 220.8 215.5 211.4 205.9 204.3 201.2 198.4 199.6 198.8 201.3 207.1 214 223.9 234.3 244.1 263.5 280.7 301.4 320.6 349.5 367.4 395 423.5 453.7 480.1 504 521.6 543.1 548.8 563.1
-1.3 -1.3 -1.3 -1.3 -1.3 -1.3 -1.3 -1.3 -1.3 -1.3 -1.3 -1.3 35.8 59.4 83 106.2 138.1 166.3 196.9 228.6 245.8 261.2 272.9 285.5 289 289.4 287.8 284.4 267.5 244.3 225.2 217.9 211.8 210.6 233.8 253 260.3 259.9 244.3 229.2 218.9 220.2 219.8 202.5 182.8 161.7 136.9 121.5 104.1 85.9 55 29.4 -1.3 -1.3 -1.3 -1.3 -1.3 -1.3 -1.3 -1.3 -1.3 -1.3 -1.3 -1.3 -1.3 -1.3 -1.3 -1.3 -1.3 -1.3 5.4 13.7 19.7 38.8 32.6 43.7 58.1 61.2 61.1 62.4 69.1 73.9 73.5 61.9 77.2 71.1 76.2 81.3 95.8 103.5 112.5 121.9 137.3 152.5 162.8 175.1 190.3 211.8 237.3 244.4 238.4 240.5 249.6 256.6 263.7 278.9 288.3 300.6 324.6 343.9 351.4 343.2 348.1 358.1 365.5 385.6 393.6 406.8 424.3 435.9 447.6 447.9 451 464.2 471.1 480.7 507 523 538.2 548.8 568 591.1 618.2 640.7 659.3 668.9 682.4 691.2 691.1 678.3 660.4 645.6 630.7 617.5 604.1 583.2 556.9 540.2 527.5 516.8 516 507.4 491.9 467.4 449.4 445.1 442.9 433 419.5 401.2 371.3 349.7 334.7 319.7 310.4 288.5 270 254.5 242.2 231.4 222.2 216.7 212.5 206.2 203.4 198.5 197.4 198.1 198.4 198.6 203.4 209.1 215 224.8 235.9 252.6 268.2 284 305.7 325.3 355.9 383.7 409.3 439.5 463 486 500.5 512.7 523.3 529.3
-1.3 -1.3 -1.3 -1.3 -1.3 -1.3 -1.3 -1.3 -1.3 -1.3 -1.3 -1.3 29.1 52.6 75.8 100.9 135.1 164.3 186.9 228.4 252.8 267.2 276.4 277 276 280.6 266.8 255.2 237.7 229.7 215.1 211.4 204.3 204.3 221 242.2 243 243.5 228.5 229.1 229.5 225.4 208 185.6 170.7 153.6 136.3 121.8 104.6 88.4 53.6 21.8 -1.3 -1.3 -1.3 -1.3 -1.3 -1.3 -1.3 -1.3 -1.3 -1.3 -1.3 -1.3 -1.3 -1.3 -1.3 -1.3 -1.3 -1.3 7 13.7 21.1 36.2 44.9 65 67.3 72.1 69.3 71 79.3 83.3 76.2 69.6 72.7 77.7 83.4 89.6 89 103 114.7 124.2 138.2 154 164 177.8 193.5 217.8 231.6 240.8 236.6 237.3 243.5 247.8 261.4 273.6 287.2 299.7 313.8 335.8 344.6 337.7 341.6 353.3 361.4 389.1 391.5 399.1 417.7 430 437.3 441.5 450.3 463.7 470.6 483.1 503.8 520.2 534.5 555.7 572.7 594.6 619.7 639.6 663 669 677.6 678.4 673.4 662.6 650 637.9 627.7 603.4 590.9 571.7 550.3 537.2 520.8 505.7 504.5 496.8 474.7 454 437.5 432.7 431.2 417.8 402.1 392.2 376.3 346.7 327.6 315.1 300.1 281.3 264 250.3 239.6 231.8 224.1 218.1 213.5 209 205.6 201.5 196.2 194.5 195.4 195.7 198.9 202.4 209.1 218.9 227.5 240.2 255.3 270.3 289 312.6 338.5 369.1 398.9 424 444.1 462.3 477.1 491 499.5 513.8
-1.3 -1.3 -1.3 -1.3 -1.3 -1.3 -1.3 -1.3 -1.3 -1.3 -1.3 -1.3 26.1 43.2 71 97.8 131.7 163.2 178.3 213.2 248.5 267.3 273.8 243.2 237.7 237.7 236.3 223.8 224.1 216 204.2 202.2 199.3 200.7 209.4 218.6 223.5 228 228.7 229.1 227 228.2 203.3 194.7 177.6 155.2 133.9 118.2 98.4 78.2 41.1 -1.3 -1.3 -1.3 -1.3 -1.3 -1.3 -1.3 -1.3 -1.3 -1.3 -1.3 -1.3 -1.3 -1.3 -1.3 -1.3 -1.3 -1.3 -1.3 8 13.6 26.8 46.6 54.8 67.6 73.7 77.6 73.3 76.3 85.1 85.6 82.7 71.5 77.1 83.5 93 102.9 103.5 103.5 120.9 128.1 136 149.9 159.8 177.1 191 213.9 232.1 237.7 232.9 233.1 237.4 245.8 258.5 271.4 284.7 297.5 310.5 322.3 334.5 330.5 340.6 349.1 358.7 382.6 384.9 397.5 421.5 431.3 435.4 439.7 448.6 459.4 468.9 484.2 502.2 517.7 534.1 555.9 577.5 599.1 627 649.2 671.3 677.6 679.6 675.6 656.3 647.3 636.2 623.2 611.1 593.8 579.8 568.1 546.4 534.2 515.3 492.8 488.6 476.7 457.6 441 429.3 419.2 412.2 400.9 386.3 375.1 366.9 344 322.5 306.6 291.6 276 261 247.7 239 232.4 225.9 219.9 215 210.4 207.6 204.8 197.6 194.1 194.4 193.6 194.9 199.3 204.6 211.8 218.8 227.8 243.1 258.7 276.4 297.5 320.8 353.8 380.4 404.3 422.1 438.2 455.4 471.2 477.9 498.4
-1.3 -1.3 -1.3 -1.3 -1.3 -1.3 -1.3 -1.3 -1.3 -1.3 -1.3 -1.3 9.4 35.8 64.7 93.5 132 172.6 180.5 194.8 240.4 253 249.6 214.9 208.3 208.7 211.2 212.2 205.9 199.4 192.5 192.7 193.7 196.7 202.2 208.1 218.6 228.2 229.3 224.7 218.5 218.8 220.3 204.2 184.5 147.6 128.7 106.8 88.4 59.4 25.4 -1.3 -1.3 -1.3 -1.3 -1.3 -1.3 -1.3 -1.3 -1.3 -1.3 -1.3 -1.3 -1.3 -1.3 -1.3 -1.3 -1.3 -1.3 -1.3 8.6 21 35.9 56.6 60.1 68.6 74.3 73.7 72.5 78.6 84.3 84 82.5 82.1 86.9 93 101.4 109.5 115 110.9 119.6 129.9 139.6 150.8 161 181.1 190.4 204.7 229.3 229.7 228.9 230.6 237.8 250 261.5 270 281.4 293.6 309.4 317.4 322.1 321.6 335.5 344.1 349.8 370 377.7 390.3 416.5 438.7 439.1 438.8 446.7 456.3 466.9 482.9 501.1 514.6 532.9 561.3 588.4 602.4 631.1 653 680.2 683.9 681 669.1 646.8 633 621 606.4 592.1 581 572.2 566.6 538 523.2 503 480.1 469.6 457.5 446.9 431.4 419.1 404.4 393.7 382.3 371 361.3 351.3 333.1 317.5 299.6 287.1 272 259.6 249.4 240.3 233.5 227.2 219.8 216.3 210.4 208.8 204.8 200.1 197.8 193 190.6 190.4 200.2 200.8 204.4 210.2 222.8 233.9 247.8 264.8 280.2 303.4 334 361.3 386 406.1 419.3 431.8 449.1 457.6 475.6
-1.3 -1.3 -1.3 -1.3 -1.3 -1.3 -1.3 -1.3 -1.3 -1.3 -1.3 -1.3 -1.3 28.6 57.6 87.4 125.9 166.8 180.8 181.3 198.4 230 216 196.9 195.8 192.1 195.2 195.4 186.8 181.3 175.5 178.7 186.1 189 191.7 202.5 217.1 221.7 218.5 220.7 216.3 213 210.1 203.8 180.2 147.8 120.9 96.1 72.3 47.8 -1.3 -1.3 -1.3 -1.3 -1.3 -1.3 -1.3 -1.3 -1.3 -1.3 -1.3 -1.3 -1.3 -1.3 -1.3 -1.3 -1.3 -1.3 -1.3 4.7 12.4 26.3 41.5 51.6 62.3 70.4 73.5 75.5 72.6 79 84.3 85.2 81.5 93.2 99.4 104.5 112.3 119.8 125.9 126.9 113.2 130.9 141.1 150.8 165.3 186.5 191.8 197.1 217.4 221.5 224.2 225.5 238.9 252.5 269.7 274.2 278.5 289.9 299.8 309.1 307.7 323.1 328.8 338.8 345.8 361.8 375.3 387.5 413.4 436 436.4 434.2 440.4 454.7 466.6 481.9 498.5 514.1 541.9 570.4 589.6 602.9 630.8 657.3 679.7 689 681 662 633 616.8 606.7 597.8 585.9 573.1 561.7 556 527 509 493.4 468.4 454.5 443.4 434.6 420.9 406.7 393.8 382.4 371.5 359.9 349.4 339.3 327.2 312.7 296.8 283.1 270.1 260.3 250.7 240.7 229.8 223.4 215 209.1 213.9 210.7 204.4 198 196.1 195.2 192 188.8 191.8 191.2 196.1 206.2 215.8 223.6 237.5 252.1 268.1 287.7 313.3 345 363.6 376.3 396.2 410 429.6 442.4 453.2
-1.3 -1.3 -1.3 -1.3 -1.3 -1.3 -1.3 -1.3 -1.3 -1.3 -1.3 -1.3 -1.3 17.1 50.2 78.1 119.7 163.8 180 182 177.4 168.9 178 174.9 167.8 164.1 168.6 168.2 171.3 166.9 158.9 166.1 178.1 179.5 186.2 197.2 207.3 211.1 209.3 216.9 215.6 204 193.4 181.2 153.9 126.9 102.4 88.3 55.3 35.6 -1.3 -1.3 -1.3 -1.3 -1.3 -1.3 -1.3 -1.3 -1.3 -1.3 -1.3 -1.3 -1.3 -1.3 -1.3 -1.3 -1.3 -1.3 -1.3 8.4 18.5 30.1 41.7 51 64.2 71.6 72.2 73.2 74.7 90.4 97.6 96.8 93.7 102 109.6 117 127.5 133.6 137.9 140.1 133.8 124.4 139.6 148.7 167.9 184.9 191.8 197 213.9 218.6 220.4 221.6 239.4 255.5 271 277.6 279.6 290.4 294.4 293.4 307 317.1 326.8 343.7 349.4 357.5 369.1 383.8 404.8 426 426.2 429.1 438.5 456.4 471.8 483.4 496.8 517.1 544.4 569.5 588.7 604.5 627.4 657.8 683.2 689.7 681 662.8 636.1 613.4 600.2 592.5 582.9 569.9 547.6 540.5 518 501.1 487.1 459.9 448 434.1 422.8 412.1 400.5 388.1 374.6 362.5 351.5 340.9 330.9 321.4 309.2 295.8 282.8 271.7 261.9 250.9 239.7 230.6 221.3 212 217.3 207.6 204.1 204 198.4 195.5 194.4 193.2 189.8 188.2 188.5 191.6 201.4 208.9 216.4 226.7 240.9 257.7 274.7 297.2 319.1 342.4 357.1 370.4 390 405.7 416.4 430
-1.3 -1.3 -1.3 -1.3 -1.3 -1.3 -1.3 -1.3 -1.3 -1.3 -1.3 -1.3 -1.3 -1.3 40.3 69.3 109.1 166.7 175.7 179.8 181.4 174.5 146.3 141.6 139.4 136.1 137.4 137.7 145.6 152.5 141.9 146.3 163.7 171.5 183.2 196.3 203.3 207.5 209.2 212.4 206.6 194.7 174.3 154.4 135.6 115.5 89.6 61.9 37.2 23.8 -1.3 -1.3 -1.3 -1.3 -1.3 -1.3 -1.3 -1.3 -1.3 -1.3 -1.3 -1.3 -1.3 -1.3 -1.3 -1.3 -1.3 -1.3 -1.3 11.5 21.1 32.5 42.1 51.3 70.8 66.4 66.8 69.1 84.2 98.7 109.8 107.8 105.1 112.6 120.7 135.3 147.7 156.1 152.6 150.8 153.5 144.1 130 145.3 162.7 177.9 188.5 194.5 203.2 211.1 211.4 223.4 237.4 254.8 269 278.5 279.6 284.3 281 284.8 300.7 313.3 325.3 347.6 350.3 357 366.6 380.6 397.2 413.7 419 426.2 437 454.3 472.2 484.6 498.8 524.8 548.1 570 583.7 599.7 618.8 658.1 678.7 685.4 680.8 664.7 635.4 609.3 592.1 582.2 576.7 553.7 534.5 518.9 505 490.7 473.1 451.6 437.8 425.2 418 406.7 395.1 383.2 368.1 354.4 343.9 332.5 322.2 315.3 305.2 294.7 282.4 270.3 260.9 250.1 236.5 223.2 227.5 230 225.1 218.5 211.3 208.3 203.7 196.8 191.5 189.8 188.5 188.1 188.1 189 196.8 204.4 210.9 217.5 230.5 248.2 265.7 279.8 300.3 320.7 334.4 350.2 361.1 380.6 400.8 414.5
-1.3 -1.3 -1.3 -1.3 -1.3 -1.3 -1.3 -1.3 -1.3 -1.3 -1.3 -1.3 -1.3 -1.3 34.3 60.6 100.3 155.4 168.1 181.3 181.5 166.1 139.5 115.4 110.8 108.7 112.1 112.9 123.9 133.9 128 128.9 140.6 166.4 180 189.9 198.3 200.5 207.7 204.8 185.9 176.6 151.4 135.3 128.2 111.5 93.3 65.9 34.6 20.9 -1.3 -1.3 -1.3 -1.3 -1.3 -1.3 -1.3 -1.3 -1.3 -1.3 -1.3 -1.3 -1.3 -1.3 -1.3 -1.3 -1.3 -1.3 5.9 15.5 28.3 36.9 46.1 53.4 61.9 60.5 68.2 78.2 91.7 104.8 114.7 114.5 113.9 120.8 136.7 149.7 159.2 166.5 166.3 162.5 161.9 162.6 151.9 142.6 158.6 172.9 186.6 193 197.4 202.5 203.9 224.1 236.9 251.7 265.9 271.9 271.6 274.7 274.9 286.9 299.9 312.1 324.2 337.2 344.5 353.1 362.9 375.6 391.9 405 409.2 424.3 442.2 454.2 472.1 484.3 500 531 550.2 569.9 582.7 594.1 616.3 653.5 672.5 681.5 681.2 659.6 632.5 604.4 586.6 573.3 566.6 543.9 525.6 512.2 496.1 480 463.5 444.3 426.2 418 413.2 403.3 391.1 377.4 363 349.7 338.1 327.7 315.1 305 298.4 288.4 278.8 267 259.8 252 237.1 238.5 245.4 246 236.7 229.4 220.2 211.3 205.9 200.4 195.9 191.1 188.9 188.1 188.4 188.4 190 196.7 203.3 211 219.1 234.2 252.7 267.8 286.4 304 307.7 329 356 377.4 389.8 399.6
-1.3 -1.3 -1.3 -1.3 -1.3 -1.3 -1.3 -1.3 -1.3 -1.3 -1.3 -1.3 -1.3 -1.3 25.7 53.5 80.2 114.1 134.6 163 177.1 141.1 120.8 99 92.1 90.7 93.2 94.2 101.4 109.9 109.9 116.4 130.2 154.6 178.6 185.9 194.5 197.7 199.4 195.3 191 165.8 149.2 138.4 124.4 100.4 80.4 53.2 28.8 -1.3 -1.3 -1.3 -1.3 -1.3 -1.3 -1.3 -1.3 -1.3 -1.3 -1.3 -1.3 -1.3 -1.3 -1.3 -1.3 -1.3 -1.3 -1.3 11 18.8 27.7 38.8 44.1 50.3 51.6 62.5 72.2 83.8 99.3 113.1 117.7 117.6 124.6 134.4 150 160.4 160.6 169.1 172.3 169.7 167.3 167.3 161.3 150.7 158.3 167.8 178.5 188.2 195.7 194.8 204.1 225.3 236.7 247.4 258.4 262.8 261.5 266.4 274.5 286.4 299.4 316.6 320.9 330.8 333.8 338.9 353.1 370.9 383.7 396.2 406.3 428.2 442.5 456.3 471 484.7 501.5 531.1 548.7 565.5 579.4 600.3 614.6 646.7 663.4 674.7 676.8 655.7 629.2 607.1 584.5 567.8 552.5 539 518.7 495.2 485.5 472.1 456.3 432.4 418.3 412.6 408.3 397.4 386 372.5 358.4 349.2 338.9 327.3 314.1 304.5 289.4 281.7 268.7 258.4 250 242 241.8 256.7 261.6 257.5 251.7 243 231 220 210.8 204.7 199.6 194.5 190.7 188.2 188 187.8 187.7 190.1 195.8 203.3 210.8 222.9 239.9 256.6 272.8 286.5 300.2 324 351.3 365.3 366.5 383
-1.3 -1.3 -1.3 -1.3 -1.3 -1.3 -1.3 -1.3 -1.3 -1.3 -1.3 -1.3 -1.3 -1.3 -1.3 45.2 69.7 89.8 108.8 114.4 129.2 103 100.3 87.8 75.6 70.8 68.1 68.5 73.3 84.8 85.7 104.8 122.2 136 160.9 174.4 190.7 192.3 193.5 192.8 180 174.2 161.3 146.5 118.2 88.2 61.8 38.3 18.9 -1.3 -1.3 -1.3 -1.3 -1.3 -1.3 -1.3 -1.3 -1.3 -1.3 -1.3 -1.3 -1.3 -1.3 -1.3 -1.3 -1.3 -1.3 -1.3 15.2 22.5 31.4 39.5 39.4 51 61 69.8 78 93 104.3 112.8 117.3 121.7 137.1 149.4 163.3 171.8 163.2 168.2 176.6 171.2 169.4 168.3 166 160.4 157.3 163 176.2 189.3 190.8 190 209 227.6 238 244.5 251.3 247.6 250.9 262.2 273.1 279.3 292.1 304.7 319 339 345.6 353.5 361.8 374.2 379.7 396.8 408.1 425.3 443.1 456.5 470.3 485.4 504.1 529.8 547.5 563.9 582.9 604.8 613 640.2 657.5 666.9 671.2 657.7 631.8 609.1 586.6 566.8 554.3 538.1 519.1 495.9 471.2 466.9 449.2 427.7 412.2 403 396.6 387.3 375.8 363.6 352.2 343.9 335.8 325.5 315.5 305.9 295.5 284 269 254.7 256 261 268.6 274.7 279 275.4 270.2 260.4 244 232.2 223 212.3 204.1 199.2 194.4 188.8 188.2 187.7 187.7 188 188.7 195.5 203.1 214.4 226.3 244.8 255.7 270.2 289.5 311.9 330.8 350.7 349 359.2
-1.3 -1.3 -1.3 -1.3 -1.3 -1.3 -1.3 -1.3 -1.3 -1.3 -1.3 -1.3 -1.3 -1.3 -1.3 29.9 57.8 73.9 79.6 81.4 82.6 81.2 78.6 65.8 55.7 43.8 45.8 46.7 60.6 61.8 67.9 85.3 108.1 126.3 144.1 163.8 177.1 186.8 185 176.5 166.5 158.5 145.6 130.5 99.2 71.3 46.6 31.3 17.8 -1.3 -1.3 -1.3 -1.3 -1.3 -1.3 -1.3 -1.3 -1.3 -1.3 -1.3 -1.3 -1.3 -1.3 -1.3 -1.3 -1.3 -1.3 2.7 14.1 22.7 28.2 34 49.8 60.5 69 77.4 83.4 99.1 110.3 113.6 118.3 129.4 152.2 166.2 173.7 171.5 166.2 168.2 175.2 173.5 181.2 177.6 170.6 169.3 164.8 157.7 174.5 182.4 186.6 190.8 210.1 229.3 238.5 239.1 240.1 246 258.6 270.8 280.5 298.6 308.1 323.9 343.7 358.5 354 360.1 370.1 383.2 392.6 401.6 411.4 430.9 446.3 460.9 474.3 489.1 510 530.7 547.8 564.3 582.2 602 611.2 630.2 650.1 658.2 670 660.4 633.6 609.7 590.1 567.7 548.4 533.9 510.7 489 466.6 457.1 436.9 416.6 404 390.9 382.6 374.6 365.2 354.6 345.7 338.4 331.1 322 313.9 306 297.8 286.1 270.3 262.2 275.4 284.6 289.9 294.3 296.4 294.7 289.9 275.5 259.1 245.2 233.8 223.1 211.3 206.3 201.3 195.6 189.2 187.8 187.2 187.2 187.3 190.4 196.4 207.5 218.2 228.6 249.6 261.9 277.3 297.9 314.5 326.9 331.2 350.7
-1.3 -1.3 -1.3 -1.3 -1.3 -1.3 -1.3 -1.3 -1.3 -1.3 -1.3 -1.3 -1.3 -1.3 -1.3 18.3 44.8 60.1 64.7 67.3 55.4 54.9 58.6 47.9 36.9 26.5 24.8 31.8 38.9 41.5 57.8 76.9 89.2 113.6 141 155.5 167.2 178.5 179.1 171.2 159.6 142.2 123.4 95.9 80.4 61.8 47.6 31.4 12.7 -1.3 -1.3 -1.3 -1.3 -1.3 -1.3 -1.3 -1.3 -1.3 -1.3 -1.3 -1.3 -1.3 -1.3 -1.3 -1.3 -1.3 -1.3 2.1 12.8 20 34.8 49.7 59.5 67.1 74.7 86.6 89.7 103.6 109.8 112.3 120.7 146.9 167.5 180.4 183.5 177 169.9 170.5 172 174.8 180.8 188.1 186 176.2 170.1 162.8 166.2 173.4 179.9 193 210.6 225.2 230.8 230.1 234.4 248.7 261.3 274.6 290.2 300.6 314.8 328.8 347 360.7 360 370.2 383.4 397.1 405.1 411 425.8 438.7 450.6 463.5 477.7 492 512.2 535.3 551.4 566 580.9 598.1 605.8 621.2 637.8 647.4 667.6 662.7 635.9 605.7 585.8 565.8 544.2 527.2 500.8 475.1 454.4 440.5 422.6 405.9 393.8 381.1 369.1 363 354.7 346.2 341.5 336 327 318 310.4 303.9 295.7 281.4 269.5 274.6 294.3 299.5 307.5 313.2 317.4 320 309.1 290.9 277.2 262.1 249.9 236.2 219.6 213.1 207.7 201.3 190.6 188.2 186.3 186 186.3 187.2 191 201.5 211.4 221.7 235.2 252.5 263.5 279.8 302 307.6 318.9 338
-1.3 -1.3 -1.3 -1.3 -1.3 -1.3 -1.3 -1.3 -1.3 -1.3 -1.3 -1.3 -1.3 -1.3 -1.3 -1.3 30.8 38.3 41.4 38.3 28 26.6 27.7 25.9 17.6 9.9 10.5 15.1 18.4 23.8 42.6 58.1 72.3 91.7 116.4 146.5 164.1 179.2 179.9 165.1 159.7 136.7 115.8 88.9 75.7 64.7 53 34 -1.3 -1.3 -1.3 -1.3 -1.3 -1.3 -1.3 -1.3 -1.3 -1.3 -1.3 -1.3 -1.3 -1.3 -1.3 -1.3 -1.3 -1.3 -1.3 6.5 13.1 26.4 43.2 54.7 66.2 73 80.4 93.1 94.9 103 107.9 115.5 132.3 157.4 171.4 183.7 188.9 181.4 171.2 169.9 170.7 174.9 181.9 188.9 191 189.8 176.6 168.1 165.5 168.9 175.8 188.9 198.2 219.5 224.1 229.3 236.8 249.9 262.8 276.6 291.1 310.2 326.4 336.4 353 362.8 366.2 378 394.5 406.2 417.5 432.5 444.5 453.3 461.1 462.2 483.4 498.7 515.1 536.1 552.3 562.5 577 592 603 612 624.3 635.8 659.3 661.6 639.9 607.6 581.4 559.4 538.3 516.3 489.2 466.6 441.8 422 408.9 395.4 382.6 369.7 358.7 352.5 346.1 340.9 336.4 330 322 313.4 306.5 299.7 287.4 287.9 284.2 297.1 309.4 318 325.5 332.7 339.5 342.6 335.6 316.6 293.6 277.7 263.2 250.3 233.4 219.2 212.8 206.4 199.3 189.6 186.7 184.9 185.3 185.4 186.5 194.7 203.5 212.8 224.2 237.2 253.2 264.3 272.7 289.2 304.3 318
-1.3 -1.3 -1.3 -1.3 -1.3 -1.3 -1.3 -1.3 -1.3 -1.3 -1.3 -1.3 -1.3 -1.3 -1.3 -1.3 4.2 10.4 13.7 9.2 6.9 5.5 4.4 2.5 1.5 -1.3 -1.3 -1.3 3.3 9.1 21.4 34 52.4 72.7 92.7 120.5 149 168.1 168.4 157.6 139.9 128.8 114.7 100.3 86.4 62.2 38.8 16.4 -1.3 -1.3 -1.3 -1.3 -1.3 -1.3 -1.3 -1.3 -1.3 -1.3 -1.3 -1.3 -1.3 -1.3 -1.3 -1.3 -1.3 -1.3 2.5 9.3 13.4 32.1 48.8 59.6 70.5 74.6 82.4 97.2 91.7 100.8 111.3 122 143.2 160.7 172.5 182.1 186.6 178.8 166.3 170 167.3 169.9 178.9 185.1 193.6 193.6 177.3 174.6 171.3 169.8 178.2 194.3 207.7 220.5 220.5 227.8 237.8 251.4 265.1 279.7 293.4 312.3 336.4 337.7 348.1 358.9 367.5 385.3 398.7 414.4 431.9 446.2 461.2 469 474.1 468.6 489.2 503.3 517.2 536.5 551.4 562 572.7 586.7 595.4 604.5 614.1 627.7 654.5 660.3 641.9 612.1 578.8 545.4 525.6 504.3 478.7 457.2 427.8 413.7 399.8 386 371.5 361 352.2 345 339 334.5 330.8 323.8 318 312.7 305.7 303.1 301.6 306.1 307.5 319.3 328.1 337.1 345.4 353.5 360.3 366.2 358 338.5 313.3 292.4 277 261.8 243.9 228.4 219.1 211.5 203.2 194.8 190.1 187.6 183.7 183 182.3 187 193.6 204.3 214.2 225.6 235.9 247 259 272.8 287.6 299.7
-1.3 -1.3 -1.3 -1.3 -1.3 -1.3 -1.3 -1.3 -1.3 -1.3 -1.3 -1.3 -1.3 -1.3 -1.3 -1.3 -1.3 -0.7 -1.3 -1.3 -1.3 -1.3 -1.3 -1.3 -1.3 -1.3 -1.3 -1.3 -1.3 -1.3 -1.3 15.4 29.6 48.9 69.4 101.1 132.7 146.1 146.7 141.1 131.9 130.5 126.6 106.9 90.5 68.7 37 -1.3 -1.3 -1.3 -1.3 -1.3 -1.3 -1.3 -1.3 -1.3 -1.3 -1.3 -1.3 -1.3 -1.3 -1.3 -1.3 -1.3 -1.3 1.5 7.9 11.3 20.8 37.7 52.4 62.6 72.3 76 82.3 87.9 94.6 106.8 119.6 131.9 153.9 158.9 169.9 178.2 181.8 172.3 161.9 162 166.7 171.1 171.2 180.7 192.8 190 178.4 178.7 178.7 171.8 180.4 192.9 207 214.7 219.5 225.8 240.3 256.4 267.9 281 293.9 310.9 340 339.5 347.5 357.3 371.2 392.1 409.3 428.6 446 457 470.8 481.6 489.3 490.6 494.7 505.8 519 535.9 549.4 561.2 568.9 582.4 593.1 598.7 608.2 626.4 654.2 656.2 634.7 607.3 572.4 540.3 511.3 490.3 468.7 444.7 421.1 405.1 391.3 375.4 362.9 353.5 348 341.6 335.4 330.6 329.1 321.9 322.6 320.2 317.7 319.4 318.7 322.3 329.4 338.2 347.1 356.2 368.6 375.9 390.2 395.5 380.6 356.5 330.8 307.9 287.4 270 252.9 236.6 226.6 216.6 207.4 199.9 195.1 190.6 185.5 185.2 182.6 182 186.9 195.5 203.3 213.4 224.7 236.5 248.1 259.9 272.1 281.9
-1.3 -1.3 -1.3 -1.3 -1.3 -1.3 -1.3 -1.3 -1.3 -1.3 -1.3 -1.3 -1.3 -1.3 -1.3 -1.3 -1.3 -1.3 -1.3 -1.3 -1.3 -1.3 -1.3 -1.3 -1.3 -1.3 -1.3 -1.3 -1.3 -1.3 -1.3 -1.3 6.7 23.9 46.3 84.6 116.1 130.3 128.6 128.5 130.9 134.1 119.5 107 92.2 74 35.3 -1.3 -1.3 -1.3 -1.3 -1.3 -1.3 -1.3 -1.3 -1.3 -1.3 -1.3 -1.3 -1.3 -1.3 -1.3 -1.3 -1.3 -1.3 4.4 10.9 16.2 25 38.8 55.2 64.7 71.5 71.1 79.3 88.7 106.6 121.9 128.5 145.5 155.5 158.7 167.9 173.5 174.1 160.1 157.3 161.3 171.3 170.9 168.2 173 180.6 183.1 178 178.7 179.8 170.4 178.2 191.4 203.2 207.2 212.1 232.2 248.6 258.2 268 281.1 296.5 317.9 335.8 339 347.7 359.4 378.4 398.5 418.9 444.4 459.4 471.1 482.4 492.3 500.7 500.2 504.2 502.5 521.7 534.7 548.1 559.5 567.4 578.3 591.2 596.3 603.7 624.9 647.4 645.9 619.8 591.6 558 528.4 502.5 476.8 457 431.3 411.7 396.9 383.1 367.2 355.3 348.3 343.9 340.2 336.3 333 333.7 333.1 332.3 330.1 330.9 333.1 334.5 340 344 358.3 369 382.4 393.9 407.3 422.9 421.7 406.2 379.6 352.2 327 301.7 281 263.5 247.6 233.2 223.2 216.4 208.5 199.1 193.4 188.9 187 182.8 181.9 181.8 190 196.7 204.5 214.8 226.2 236.6 247.2 257.9 268
-1.3 -1.3 1.7 -1.3 -1.3 -1.3 -1.3 -1.3 -1.3 -1.3 -1.3 -1.3 -1.3 -1.3 -1.3 -1.3 -1.3 -1.3 -1.3 -1.3 -1.3 -1.3 -1.3 -1.3 -1.3 -1.3 -1.3 -1.3 -1.3 -1.3 -1.3 -1.3 -1.3 -1.3 23.1 62.1 93.5 118.8 123.5 122.5 123.3 116.5 106.4 86.7 74.4 55.7 -1.3 -1.3 -1.3 -1.3 -1.3 -1.3 -1.3 -1.3 -1.3 -1.3 -1.3 -1.3 -1.3 -1.3 -1.3 -1.3 -1.3 -1.3 -1.3 8.2 15 21.1 28.2 41 57.2 68 70.5 68.2 82 100.6 123.7 136.2 136.2 154.4 160.7 160 166.6 170.7 163.5 157.5 156.1 158.9 169.5 169.7 163.7 165.5 170.6 175.2 178.8 177.3 178 169 171.7 185.7 192.7 206.3 217.1 236.3 250.9 259.4 268.3 278.1 294 320 333.5 340.8 349.9 368.1 384.3 405.5 433.2 455.1 466.4 475 486 501.4 514.3 505.4 509.3 517.6 521.6 534.7 545.6 556.5 568.2 577.4 588.7 595.9 602.9 621.8 639.7 633.6 604 574.3 540.1 514.5 490.4 466.4 440.5 420 403.2 389.8 375.7 361.7 350.8 345.5 342.5 340.7 339.7 341.2 341.3 342.4 344.5 342.4 345 348.4 352.4 359.7 363.8 379.7 395.2 408.7 423.7 440.5 451.8 443.2 423.7 402.9 373.5 348.1 320.2 294.1 274.8 258.9 243.4 233 223 212.1 206.3 198.1 193.4 187.9 183 181.9 179.9 182.7 189.8 197.6 205.8 215.8 225.9 236.5 246.8 255.6
6.7 6.8 6 -1.3 -1.3 -1.3 -1.3 -1.3 -1.3 -1.3 -1.3 -1.3 -1.3 -1.3 -1.3 -1.3 -1.3 -1.3 -1.3 -1.3 -1.3 -1.3 -1.3 -1.3 -1.3 -1.3 -1.3 -1.3 -1.3 -1.3 -1.3 -1.3 -1.3 -1.3 -1.3 33.7 65.7 103.8 118.1 109.7 102.5 109.9 81.3 58.7 38.6 19.7 -1.3 -1.3 -1.3 -1.3 -1.3 -1.3 -1.3 -1.3 -1.3 -1.3 -1.3 -1.3 -1.3 -1.3 -1.3 -1.3 -1.3 -1.3 1.9 11.2 19.9 25.1 30.5 44.7 56.9 71.2 62.7 74.6 91.2 110.2 129.7 134.9 143.4 157.3 162.6 163.6 162.2 164.1 159.4 157.5 157.5 155.6 157.5 160.4 158.9 160.8 164.9 171.8 180 174.6 168.9 170.5 182.9 182.1 194.5 200.6 216.2 235.5 257.9 262.5 269.7 280.7 293.8 318.3 330.4 340.7 352.8 377 392.4 408.2 437.5 455 471.7 477.3 489.2 503.1 517.7 514 516.4 523.7 528.9 537.6 545.4 556.5 568 579.3 587.8 594.6 603.5 623.3 631.5 619.4 597.8 564.2 527.2 502.2 479.1 456.4 430 412.1 396.1 383 370 357.8 349.6 344.5 342.4 342.2 345.9 348.1 350.3 351.8 353.8 355.7 359.6 366.2 373.5 383.1 389.1 406 420.8 433 456.2 467.8 471.1 458.5 438.4 416.1 390.9 366.2 342.2 313.5 288.8 268.7 253.5 239.6 228.7 217.3 211.2 203.9 197.7 191.8 185.4 181 178.4 179.5 184.5 191.8 198.2 207 215.4 225.8 235.6 245.6
11.2 9.1 4.8 -1.3 -1.3 -1.3 -1.3 -1.3 -1.3 -1.3 -1.3 -1.3 -1.3 -1.3 -1.3 -1.3 -1.3 -1.3 -1.3 -1.3 -1.3 -1.3 -1.3 -1.3 -1.3 -1.3 -1.3 -1.3 -1.3 -1.3 -1.3 -1.3 -1.3 -1.3 -1.3 -1.3 46.1 83.5 99.5 94.1 100.1 89.2 65.9 39.4 24.7 -1.3 -1.3 -1.3 -1.3 -1.3 -1.3 -1.3 -1.3 -1.3 -1.3 -1.3 -1.3 -1.3 -1.3 -1.3 -1.3 -1.3 -1.3 -1.3 7.5 21.2 25 29.8 33.9 47.1 58.1 60.7 68.6 82.7 100.6 113.4 126.4 138 148.2 160.3 164.9 166.2 167.5 163.5 163.9 160.8 164.8 167.8 150 150.3 154.1 156.8 161.1 170.4 178.5 169.3 169.4 179.2 187.4 191.4 200.7 212.7 221.2 236.9 258.6 261 269.2 279.7 292.7 310.4 324.3 338.9 357.3 384.5 397.9 410.8 434.2 455.2 466.7 478.3 489.6 504.2 515.7 516.2 515.3 528.9 536.9 542.3 551.1 558.6 568.8 578.2 587 594 601.1 615 619.5 598.8 577.8 549.3 517.3 492.2 469.1 442.8 421.3 405 389.4 376.1 364 354.4 348.5 346.4 344.7 347.5 351.9 355.3 358 360.9 364 370.9 378.4 389.1 404.1 410.8 416.5 427.8 443.8 467 486.3 493.1 488.1 474.2 451 427 401.9 374.2 353.9 330.4 308.3 285.1 265.3 251.2 236.5 227 219.8 211.3 202.7 196 189.6 183.8 180.4 177.6 181.1 183.9 191.8 198.8 206.2 215.4 224.1 233.4
12.7 9.8 4.8 -1.3 -1.3 -1.3 -1.3 -1.3 -1.3 -1.3 -1.3 -1.3 -1.3 -1.3 -1.3 -1.3 -1.3 -1.3 -1.3 -1.3 -1.3 -1.3 -1.3 -1.3 -1.3 -1.3 -1.3 -1.3 -1.3 -1.3 -1.3 -1.3 -1.3 -1.3 -1.3 -1.3 22.3 61.7 80.4 77.7 82.9 70.9 47.3 25.8 11.4 -1.3 -1.3 -1.3 -1.3 -1.3 -1.3 -1.3 -1.3 -1.3 -1.3 -1.3 -1.3 -1.3 -1.3 -1.3 -1.3 -1.3 -1.3 -1.3 14 31.1 32.8 33.2 35.6 48.4 51.2 66.3 78.3 87.1 99.8 111.1 127.4 140.7 151.8 161.5 167.4 170.3 183.3 178.3 178.6 164.3 169.7 169.8 151 150 152.1 154.2 158.5 166.4 169.4 158.1 170.7 182.5 189.9 199.1 206 219.6 235.1 250.4 252.8 263.4 275.6 286 292.3 305.7 318.4 334.1 364.4 380.4 396.3 414.3 438.7 451.4 461.2 470.4 486.3 496.7 509.6 508.1 511.2 533.5 545.3 552.1 558.4 570.8 577.4 580 589.6 592.2 598.5 605.4 605.5 581.5 552.8 530.1 503.8 479.3 460.2 429.6 416 401.4 386.2 370.5 359.7 352.6 349.3 348.3 348.1 351.7 357.4 360.9 366.2 370.9 381.3 389.7 398.7 415.3 431.6 439.2 447.6 455.1 476.8 495.8 508.6 509.5 501.8 483.6 462.3 437.4 412.5 382.9 357.8 336.8 311.2 294.8 281.9 262.4 252 240.2 229.6 218.6 209.9 202.6 197.1 191.6 184.5 179.5 178.5 179 181.6 188.1 198.2 205.6 213.4 220.8
23.4 9.5 3.9 -1.3 -1.3 -1.3 -1.3 -1.3 -1.3 -1.3 -1.3 -1.3 -1.3 -1.3 -1.3 -1.3 -1.3 -1.3 -1.3 -1.3 -1.3 -1.3 -1.3 -1.3 -1.3 -1.3 -1.3 -1.3 -1.3 -1.3 -1.3 -1.3 -1.3 -1.3 -1.3 -1.3 -1.3 40.5 62.3 59.9 61.2 50.2 30.7 15.3 -1.3 -1.3 -1.3 -1.3 -1.3 -1.3 -1.3 -1.3 -1.3 -1.3 -1.3 -1.3 -1.3 -1.3 -1.3 -1.3 -1.3 -1.3 -1.3 3.3 21.5 34.2 38.9 36.6 39.8 44.5 56.9 70.7 81 86.9 97.8 114.8 134.5 144.5 156.4 166.5 175.4 170.8 180.1 174.2 167.3 158.2 157.5 159.4 150 153.9 155.6 151.9 155.1 163.5 167.4 165.3 175.3 185.6 194 203.3 211.3 225.6 239.6 250.9 259.7 265.2 281.7 287.2 296 304.4 314.3 335.7 365.4 382.3 394.7 413 440.2 452.1 455.9 462.3 480.1 487 497.2 498.7 507 526.7 541.5 559.3 570.1 579.9 585.4 586.2 589 589.9 594.2 595.5 589.5 564 533.9 507.7 487.4 465 448.3 421.6 409.5 395.6 380.9 366.2 355.7 351.7 351.2 350 352.7 357.6 362.4 366.5 374.6 384.4 399.4 410.5 421 439.2 450.6 464 468.7 481.5 499.1 515.9 528 523.5 511.7 493.2 472.1 448.9 424.2 399.4 365.6 338.8 330.4 315.5 294.8 279.2 265.2 253.4 240.4 229.3 219.2 210.5 204.2 200.9 193 183.9 179.7 179.4 178.5 179.6 186.6 196.4 202 208.9
44.8 26.7 12.4 -1.3 -1.3 -1.3 -1.3 -1.3 -1.3 -1.3 -1.3 -1.3 -1.3 -1.3 -1.3 -1.3 -1.3 -1.3 -1.3 -1.3 -1.3 -1.3 -1.3 -1.3 -1.3 -1.3 -1.3 -1.3 -1.3 -1.3 -1.3 -1.3 -1.3 -1.3 -1.3 -1.3 -1.3 19.5 43.2 41.6 46.1 36.5 16.9 -1.3 -1.3 -1.3 -1.3 -1.3 -1.3 -1.3 -1.3 -1.3 -1.3 -1.3 -1.3 -1.3 -1.3 -1.3 -1.3 -1.3 -1.3 -1.3 -1.3 6.1 26.2 36.2 44.7 43 39.1 48.6 59.6 74.2 81.7 88.8 102 118.8 135.4 148.3 161.8 170.3 168.5 166.5 170.9 169.3 162.1 155.1 152.1 152.9 151.6 150.8 152.6 152.6 151.3 152.7 159.1 172.3 180.9 191.4 200.7 206.3 215.8 228.8 241.7 250.7 260.9 276.5 282.5 290.4 297.7 304.5 312.8 342.7 367.1 381.7 394 416.2 439.6 450.8 452.8 455.8 466.9 476.1 485.2 494.1 503.6 519.4 539.6 565.4 579.2 580.6 590.1 589.7 588.9 586.9 581.8 582.6 573.6 551.1 516.1 494.2 475 457.4 438.7 414.6 402.9 389.4 375.1 362.7 354.5 351.1 351.6 351.9 356.9 361.9 368.2 375.1 386.2 396.1 412.5 426.2 443.3 456.5 471.2 482.3 491.2 507.7 522.2 541.4 547.2 537.5 520.5 501.1 475.4 453.8 431.1 396.9 384.5 369.9 351.1 329.8 314.1 296.1 280.8 265.9 252 242.1 229.2 217.5 209.7 203.9 199.9 189.5 186.2 180.6 179 177.6 180 186.5 193.2 198.9
70.9 46 30.6 9.9 -1.3 -1.3 -1.3 -1.3 -1.3 -1.3 -1.3 -1.3 -1.3 -1.3 -1.3 -1.3 -1.3 -1.3 -1.3 -1.3 -1.3 -1.3 -1.3 -1.3 -1.3 -1.3 -1.3 -1.3 -1.3 -1.3 -1.3 -1.3 -1.3 -1.3 -1.3 -1.3 -1.3 -1.3 22.1 15.9 30.1 15 -1.3 -1.3 -1.3 -1.3 -1.3 -1.3 -1.3 -1.3 -1.3 -1.3 -1.3 -1.3 -1.3 -1.3 -1.3 -1.3 -1.3 -1.3 -1.3 -1.3 -1.3 12 25.7 37.7 45.6 43.9 45.9 56.4 65.3 73.8 81.6 91.9 111 123.2 136 144.9 154 159.5 161.7 164.7 174.1 174.3 164.4 152.9 148.2 147.9 145.4 148.1 148.6 149 150 160.7 166.2 176.2 184.8 196.7 203.7 209.5 222.2 238.7 243.9 252.3 266.6 281.7 295.4 300.7 299.8 303.4 315.9 338.5 361.1 378.9 386.1 415.3 432.7 450.7 448.1 450.5 460.2 469.4 479.3 490.3 500.3 516.8 545.4 573.5 588.5 589.3 589.6 590.2 583.6 578 571.8 565.2 557 531 503 482.3 466.3 444.8 421.3 407.9 397.5 382.9 370 360.2 352.8 350.5 351.7 355.3 360.2 366.1 375.5 383.4 393.2 407.4 426.6 437.7 454 468.8 483.5 498 512.6 529.3 547.6 562.8 563.3 551.4 528.1 506.7 480.2 464.2 447.7 429.3 410.6 391.5 370.8 352.2 335.3 314.8 296.5 281.3 266.6 252.2 239 227.1 215.7 207.7 200.3 200.2 194.6 186.2 180.6 178.8 181.7 182.4 185 190.1
91.9 63.9 46.4 30.2 8.5 -1.3 -1.3 -1.3 -1.3 -1.3 -1.3 -1.3 -1.3 -1.3 -1.3 -1.3 -1.3 -1.3 -1.3 -1.3 -1.3 -1.3 -1.3 -1.3 -1.3 -1.3 -1.3 -1.3 -1.3 -1.3 -1.3 -1.3 -1.3 -1.3 -1.3 -1.3 -1.3 -1.3 -1.3 -1.3 -1.3 2.8 -1.3 -1.3 -1.3 -1.3 -1.3 -1.3 -1.3 -1.3 -1.3 -1.3 -1.3 -1.3 -1.3 -1.3 -1.3 -1.3 -1.3 -1.3 -1.3 -1.3 1.8 15.5 29.1 37.4 42.9 44.8 50.6 59.4 60.7 73.1 82.5 96.4 109.9 123.4 132.4 147.5 147.2 152.4 160 168.8 170.8 169.5 160 151.3 147.2 144.7 143.9 145.4 148.6 147.3 159 167.9 171.8 175.7 187 201 207.6 211.9 225 243.6 247.7 256.7 267.4 280.8 295.1 301.4 304.8 308.7 321.3 339.8 356.1 365.5 381.8 406 422.1 438.2 438 447.1 460.4 469 476.7 482.5 493.2 512.2 540.6 571.4 588.6 590 586.9 586.6 580.5 573.2 557.5 544.2 531.6 509.5 487.9 474.6 457.6 433.2 413.4 400.7 389.9 376.8 367.8 359.4 351.4 349.3 351.2 356.5 363.2 371.3 383.4 389.8 404.5 416.2 436.2 445.2 467.6 483.7 498.8 516.3 534.4 552 566.6 578.8 578.7 564 538.1 513.5 491.4 476.9 462.8 445.1 426.5 410.8 394 375 354.4 333.4 315 299.7 282.1 268.1 251.7 238 226.3 212.9 206.1 202.4 199 191.4 183 180.8 180.1 179.3 180 183.5
91.5 77.2 51.7 36.8 24.1 6.8 1.9 1.9 1.8 -1.3 -1.3 -1.3 -1.3 -1.3 -1.3 -1.3 -1.3 -1.3 -1.3 -1.3 -1.3 -1.3 -1.3 -1.3 -1.3 -1.3 -1.3 -1.3 -1.3 -1.3 -1.3 -1.3 -1.3 -1.3 -1.3 -1.3 -1.3 -1.3 -1.3 -1.3 -1.3 -1.3 -1.3 -1.3 -1.3 -1.3 -1.3 -1.3 -1.3 -1.3 -1.3 -1.3 -1.3 -1.3 -1.3 -1.3 -1.3 -1.3 -1.3 -1.3 -1.3 -1.3 2.5 18.3 31.9 36.5 41.7 49.7 45.7 57.8 66.4 74.4 84.8 99.5 109.3 123.4 132.1 142.9 148.5 155.2 162.7 168.4 174.1 180.3 172.2 158.2 146.8 142.9 142.1 142.8 149.3 157.7 166 172.8 177.8 184.1 191.2 206.1 213.9 217.8 226.8 242.3 248.3 255.9 266.3 278 290.5 301.1 307.1 310.9 320.7 332.3 346 361.7 386.6 407 417.5 426.4 436.5 447.3 459.3 469.4 472.1 478.1 486.8 504 531 559.4 580.6 588.7 580.9 579.3 577.2 572.3 549.2 527.8 510.1 493.3 482.8 473.6 455 429.9 407.5 392.8 382.1 371.7 363 355.6 350 348.9 352.1 358.9 365.7 375.7 386.8 396.4 409.9 423.6 444.5 455.5 477 490.9 513.5 531.8 553.6 565.9 578.4 590.3 596.1 577.3 548.8 520.8 501.5 488.2 474.4 459.5 440.3 426.3 413.7 392.4 369 348.1 331.4 314.5 300.4 281.3 269.1 249.7 235.4 223.6 213.7 207.5 202.4 195.6 185.8 180.4 180.3 180.2 179.5 179.3
99.7 83.7 61.1 44.9 25.3 10.3 3.1 2.1 -1.3 -1.3 -1.3 -1.3 -1.3 -1.3 -1.3 -1.3 -1.3 -1.3 -1.3 -1.3 -1.3 -1.3 -1.3 -1.3 -1.3 -1.3 -1.3 -1.3 -1.3 -1.3 -1.3 -1.3 -1.3 -1.3 -1.3 -1.3 -1.3 -1.3 -1.3 -1.3 -1.3 -1.3 -1.3 -1.3 -1.3 -1.3 -1.3 -1.3 -1.3 -1.3 -1.3 -1.3 -1.3 -1.3 -1.3 -1.3 -1.3 -1.3 -1.3 -1.3 -1.3 -1.3 -1.3 21.1 29.5 33.6 37.2 40.2 47.9 59.8 67.8 77.8 94.2 100.1 108.3 122.5 135.7 144.8 155.6 160 161 164.4 170.9 183.4 175.1 160.6 148.1 140.7 139.7 148.5 156 162 170.7 176.4 182.7 189.7 189.2 207.3 218.8 220.4 226.3 238.5 247.4 255.4 267.2 280.4 296.1 301.7 307.1 311.3 323 335.9 344.4 362.8 389.5 407.7 420.8 425.8 434.5 445.1 454.2 462.1 466.5 473.5 482.3 496.9 517.2 545.1 568.1 578.5 578.4 574.8 577.4 573.4 551.1 518.2 499.8 487.3 478.8 464.1 442.2 418.4 399.9 387.1 377.1 366.9 358.5 351.4 345.6 345.3 353.1 359.7 366.2 375.7 386.4 403.3 418.1 433.3 451.7 464.9 478.2 500.5 524.6 542.1 563.2 576.9 592.4 610.3 608.1 587.4 557.5 528.6 510.6 497.7 484.4 468.7 453.1 439.9 426.4 407 387 363.7 343.3 327.4 313.3 294.9 277.3 260.7 245.9 233 221.4 210 201.2 198.3 191.5 188.9 184 181 180 179.5
115.3 98.5 83.7 64.2 41 24.2 8.9 1.7 -1.3 -1.3 -1.3 -1.3 -1.3 -1.3 -1.3 -1.3 -1.3 -1.3 -1.3 -1.3 -1.3 -1.3 -1.3 -1.3 -1.3 -1.3 -1.3 -1.3 -1.3 -1.3 -1.3 -1.3 -1.3 -1.3 -1.3 -1.3 -1.3 -1.3 -1.3 -1.3 -1.3 -1.3 -1.3 -1.3 -1.3 -1.3 -1.3 -1.3 -1.3 -1.3 -1.3 -1.3 -1.3 -1.3 -1.3 -1.3 -1.3 -1.3 -1.3 -1.3 3 8 -1.3 17.6 23.5 32.2 40.5 53.8 56 63.9 73 84.4 99.6 103.1 107.9 115.7 135.1 147.8 159.6 164.6 159.8 160.4 161.8 178.3 168.6 155.7 145.5 138.9 140.8 151.9 161.9 166.9 172.7 177.9 183.5 193.3 201.1 207.3 219.9 223.6 228.3 236.6 243.7 255.9 273 284.1 297.6 304.3 305.3 308.3 320.8 332.8 343.1 364.5 388.4 406.2 418.6 426.3 431.5 442.2 450 457.2 463.1 470.2 477.2 493.1 507.2 531.2 553.5 564.3 566.6 570.7 575.1 571.7 550.8 514.7 492.2 483.2 476.4 456.9 431.5 408.6 393.8 384.4 373.6 362.6 353.4 347.8 342.1 341.7 350.8 359.3 367 378.1 391.6 407.7 423.9 440.5 458.1 472.3 486.5 513.9 538.1 553.2 569.1 586.3 609.4 624.6 617.5 592 564.6 537.2 521 508.4 497 481.1 466.9 454.1 439.6 420.4 399.3 375 354.9 336.8 321.8 305 292 274.1 258.3 243.3 229.6 214.9 206 202.2 199.1 194.8 189.7 184.1 180 179.4
130.5 120.3 102.3 86.9 76 71.4 41.5 12.7 -1.3 -1.3 -1.3 -1.3 -1.3 -1.3 -1.3 -1.3 -1.3 -1.3 -1.3 -1.3 -1.3 -1.3 -1.3 -1.3 -1.3 -1.3 -1.3 -1.3 -1.3 -1.3 -1.3 -1.3 -1.3 -1.3 -1.3 -1.3 -1.3 -1.3 -1.3 -1.3 -1.3 -1.3 -1.3 -1.3 -1.3 -1.3 -1.3 -1.3 -1.3 -1.3 -1.3 -1.3 -1.3 -1.3 -1.3 -1.3 -1.3 -1.3 -1.3 6.6 11 22.8 19.7 24 29.2 36.9 47.7 55.2 60.8 68.1 76.1 90.2 102.7 107.2 107.2 117.1 141.9 153.7 160.1 160.2 155.7 153.7 156.3 167.8 161.5 152.3 141.6 140.7 144.3 155.4 163.9 168.5 173.6 179 185.2 194.8 206.4 208.9 215.6 220.3 228.8 236.8 245.4 260 278 288.9 298.2 305 304.4 307.9 316.6 332.3 346.2 360.1 381.1 399.2 412.6 422.2 425.9 439.3 447.8 454.8 461.7 467.8 474.9 491.8 505.2 520.7 540.3 548.9 555 562.8 570.1 568.3 550.8 517 484.9 477.2 466.7 445.6 422 402.2 389.1 378.3 370.7 359.2 350.6 345.1 339.6 341.6 349.7 358.3 369.6 381.6 396 409.1 426.1 445.6 466.5 478.5 499.2 522.4 546 562 581.6 606.8 627.7 635.9 624.7 596.3 568.8 543.1 529.7 519.8 508.3 494 479.6 466.6 451.7 434.1 415.2 389.5 369.4 347 338 324.4 313.4 292.8 277.4 261.8 246.3 230.8 222.1 212.3 205.9 201.9 196.1 189.4 185.2 182.2
145.1 139.8 134.9 120.5 95.6 79 61.1 37.8 11.1 6.7 5.7 1.3 -1.3 -1.3 -1.3 -1.3 -1.3 -1.3 -1.3 -1.3 -1.3 -1.3 -1.3 -1.3 -1.3 -1.3 -1.3 -1.3 -1.3 -1.3 -1.3 -1.3 -1.3 -1.3 -1.3 -1.3 -1.3 -1.3 -1.3 -1.3 -1.3 -1.3 -1.3 -1.3 -1.3 -1.3 -1.3 -1.3 -1.3 -1.3 -1.3 -1.3 -1.3 -1.3 -1.3 -1.3 -1.3 3.5 7.3 16.3 26.9 30.3 29.2 29.2 35.2 42.4 49.6 56.9 62.5 68.9 81 91.7 102 105.4 107.7 115.8 141.9 154.3 157.6 157.3 149.1 143.8 146.6 154.9 154.4 148.4 143.8 139.1 146.4 161.7 164.2 168.4 173.9 180.4 187.8 201.3 209.9 216.3 219.1 222.9 229.3 238 247.1 262.3 278 287.7 297.5 305.8 303.3 310.5 315 332 344.9 353.8 373.7 395.6 402.2 414.1 416.3 429.6 447.5 455.7 460.2 468.3 475.7 487.6 503 512 527.2 537.9 547.8 557.3 563.2 564.2 548.6 514.4 481 465.6 457 437.1 416.7 401.9 386.5 376.1 367.9 358.3 351.7 343.7 337.2 340.5 348.9 358.4 368.3 379.8 393.9 407.8 424.5 453.9 472.8 489 508.1 528.2 556.6 570.5 594.7 623.9 639.9 644.4 631.4 602.8 574 551.6 539.7 529.1 517.8 507.4 493.6 476.4 458.3 438.6 422.5 397.9 379.4 367.9 350.5 335 323.9 310.4 293.6 275.9 263.7 249 235.7 225.8 218 212.8 206.1 198.3 192.1 188.7
155.1 160.5 165.2 141.6 116 78.4 58 43.1 24.8 13.5 9.4 2.7 -1.3 -1.3 -1.3 -1.3 -1.3 -1.3 -1.3 -1.3 -1.3 -1.3 -1.3 -1.3 -1.3 -1.3 -1.3 -1.3 -1.3 -1.3 -1.3 -1.3 -1.3 -1.3 -1.3 -1.3 -1.3 -1.3 -1.3 -1.3 -1.3 -1.3 -1.3 -1.3 -1.3 -1.3 -1.3 -1.3 -1.3 -1.3 -1.3 -1.3 -1.3 -1.3 -1.3 -1.3 -1.3 9.8 14 19.9 32.6 37.3 32.5 38.2 40.4 44.6 50.2 58.1 64.2 73.2 85.9 95.4 102.4 102.5 108.7 118.4 132 151.4 151.4 149.1 143.1 136.8 140 142.1 143.1 142.9 142.3 138.3 156.2 166.7 167.7 168.2 173 180.6 192.3 204.6 214.6 223.9 223.2 226.7 233.1 238.4 245.9 257.2 273.3 283.4 291.9 301.8 299.5 310.7 317.1 331 342.9 351.9 368.6 383.2 394.2 403.7 405.9 422.5 443.2 450.4 454.5 463.3 471.4 482.5 498.6 507 518.9 528.8 536.9 552.6 557.8 558.8 545.1 508.9 478.1 459.4 448.3 431 413.1 398.3 386.7 375.5 364.5 353.8 345.7 340.6 333.4 339.8 348 355 365.2 378.4 394.4 408.8 425.5 458 476.2 490.4 514.9 541.3 561.2 585 612.2 638.2 649.2 649.4 636.9 607.9 579.4 562.7 551.1 539.5 532.1 522.1 504.9 487.1 464.8 441.4 422.5 408.2 393 374.6 358.7 344.2 331.9 317.4 300.7 290.5 278 266.8 251.6 242.2 236.2 230.1 221.1 210.4 200.4 195.3
155.8 154.5 146.1 126.2 96 73.3 55.5 37.7 26.8 17.6 10.4 5.1 1 -1.3 -1.3 -1.3 -1.3 -1.3 -1.3 -1.3 -1.3 -1.3 -1.3 -1.3 -1.3 -1.3 -1.3 -1.3 -1.3 -1.3 -1.3 -1.3 -1.3 -1.3 -1.3 -1.3 -1.3 -1.3 -1.3 -1.3 -1.3 -1.3 -1.3 -1.3 -1.3 -1.3 -1.3 -1.3 -1.3 -1.3 -1.3 -1.3 -1.3 -1.3 -1.3 -1.3 8 19 20.5 24.9 35.6 38.7 44.6 48 45.9 48.1 51 60.7 66.5 80.4 89.9 93.6 99.2 100.4 107.5 116.3 123 140.7 142.9 141.5 138.7 131.7 134.9 137.3 137.2 139.7 141.2 133.9 161.2 166.5 168 167.4 173.9 182.7 193.7 202.8 215 227 231.7 231.5 236.5 244.7 244.8 254.8 269.6 282.6 292.1 295.2 299.5 305.8 317.8 330.2 338.4 347.1 355 370.8 382.2 390.8 399.3 412.6 433.2 441.8 448 457.8 465.7 474.6 494.5 505.1 512.4 519.9 530.7 542 548.8 552.3 541.4 508.7 473.7 455.3 442.2 427.6 409.6 396.2 387 375.9 365.1 353.5 340.8 335.1 329.8 335.6 343.4 353 363.4 375.5 391.1 412.6 426.8 452.5 478.5 498.3 522.3 546.8 573.7 598.2 622.8 643.8 655.2 656.5 643.2 616.5 588.3 571.3 561.3 551 542.6 530.5 514.2 495.4 474.6 446.6 438.3 420.3 402.8 386.8 370.3 353.1 341.8 330.5 321.4 311.3 299.5 290.2 273 263.9 256.3 247.2 237.6 227.5 216.8 208.3
159 138.7 118.1 108 89.5 69.6 54.6 43.5 35.4 27.2 21.2 13.7 1.8 -1.3 -1.3 -1.3 -1.3 -1.3 -1.3 -1.3 -1.3 -1.3 -1.3 -1.3 -1.3 -1.3 -1.3 -1.3 -1.3 -1.3 -1.3 -1.3 -1.3 -1.3 -1.3 -1.3 -1.3 -1.3 -1.3 -1.3 -1.3 -1.3 -1.3 -1.3 -1.3 -1.3 -1.3 -1.3 -1.3 -1.3 -1.3 -1.3 -1.3 -1.3 -1.3 -1.3 18.2 22.8 25 30.9 39.6 47.8 55.7 55.8 52.7 53.4 55.7 57.5 74.1 88 89.7 93.3 98.2 102.9 109 109.2 117.3 130.6 136.5 133.5 130.6 129.9 129.9 131.8 134.7 136 135.7 142.4 156.7 163.2 164.9 174.5 177.6 181.9 191.2 201.9 216 227.6 232.6 235.5 237.3 244.7 252.1 249.8 264.7 280.2 290.2 290.4 299.2 303.1 319 333.1 337.6 344.4 348.5 359.6 369.5 384.2 392.9 402.5 417.6 433.7 438.8 452 457.4 466.8 489.6 499.5 504.8 511.5 525.2 535.1 549.8 549.5 538.7 509.5 474.9 453.9 438.8 423.8 409.3 396.6 384.7 373.2 363.1 357.5 344.4 333.1 326 334.7 341.4 350.9 360.4 371.2 389.2 407.8 426.7 455.9 481.1 503.3 526.9 555.9 583.4 608.9 628.5 649.9 661.5 666 651.3 625.4 602 583.9 572.8 562.3 553.3 540.2 522.9 495.2 473.8 460.5 444.4 428.3 411 397 386.6 371.2 358.5 348.2 341.4 332.8 318.6 306.1 292 281.7 276.4 266.9 254.6 244.5 235.4 226.6
185.9 176 159.9 139 120.6 96 76.7 65.5 54.7 41.1 31.1 28.5 16.4 8.7 -1.3 -1.3 -1.3 -1.3 -1.3 -1.3 -1.3 -1.3 -1.3 -1.3 -1.3 -1.3 -1.3 -1.3 -1.3 -1.3 -1.3 -1.3 -1.3 -1.3 -1.3 -1.3 -1.3 -1.3 -1.3 -1.3 -1.3 -1.3 -1.3 -1.3 -1.3 -1.3 -1.3 -1.3 -1.3 -1.3 -1.3 -1.3 -1.3 -1.3 -1.3 8.9 22.6 28.3 28.5 35 46.5 55.7 64.9 66.1 62.2 58.9 56.9 65 82.8 93.5 90 95.4 100.4 104.8 110 108.8 114.4 121.3 127 126.6 124.9 125.8 127.9 129.9 132 131.6 127.4 146.1 156.7 160.3 163.3 179.4 179.9 181.8 188.3 200.9 216.2 226.1 230.9 233.6 239.1 243.8 251.5 258.2 259.7 272.8 285.7 288.6 295.6 302.3 320.7 329.3 335 339.2 342.8 349.4 361.5 370.8 383.9 391.3 406.8 421 428.8 440.6 450.5 461.2 476.8 491 500.1 507.7 518.6 529 547.6 549.9 538.1 513 484.8 455.2 437.6 420.8 408.9 394.9 382.2 368.9 355.5 351.9 346.8 335.7 322.4 332.4 339 345.7 356 368.9 385 403.6 430.8 458.8 477 502.1 527.7 560.8 591.4 617.5 633.9 654.9 666.2 666.8 658.5 637.1 616.8 599.4 586.8 574 561.2 544 523.8 507.1 490.7 486.5 470.8 450.1 437.5 420.8 405.9 391.8 382.7 372.9 367.7 359.9 342.8 326.5 321.4 309.1 299.8 290.4 276.2 262.3 251.8 241.6
200 188.4 179 159.2 127.8 111 101.7 98.9 84.4 58.4 50.2 49.8 48.5 44.9 29.1 -1.3 -1.3 -1.3 -1.3 -1.3 -1.3 -1.3 -1.3 -1.3 -1.3 -1.3 -1.3 -1.3 -1.3 -1.3 -1.3 -1.3 -1.3 -1.3 -1.3 -1.3 -1.3 -1.3 -1.3 -1.3 -1.3 -1.3 -1.3 -1.3 -1.3 -1.3 -1.3 -1.3 -1.3 -1.3 -1.3 -1.3 -1.3 -1.3 -1.3 9.9 24.2 27.5 32.2 40.2 51.5 63.2 74.6 76.6 68.8 61.7 58.9 70.5 87.7 94.1 90.6 99.9 104 104.9 110.9 111.1 110.7 115.5 120.8 121.9 120.2 121.6 127 130.1 131 123.1 133.3 147.3 156 159.6 166.3 181.2 180.7 182.6 187.2 201 219.5 225.6 228.5 234.2 239.7 242.3 249.2 258.7 257.4 265.9 275.6 280.3 289.3 301 318.8 327 330.3 334 340.3 344.2 350.1 358.1 373.6 382.8 395.5 412.2 417.4 430.7 442.6 453.5 464 484.2 495.6 502.9 510.3 527.6 541.9 545.5 538.5 517 489.8 458.4 435.9 419.7 405.3 393.2 379.5 366.6 354.9 348.3 343.8 334.9 318.5 326.6 334.8 339.9 352.9 365.8 380.9 405.3 428 455.1 472.2 498.1 530.3 563.4 594.1 619.1 636.1 654.9 665.9 665.9 661.2 647.6 628.3 614.6 602.6 585.8 568.5 554.3 536.3 523.2 508 503.1 487 469.7 459.5 442.7 427.7 414.9 405.6 396.7 390.5 379.5 364 356 345.7 336.3 326.9 314.4 299.6 281.5 268 258.6
210.6 194.8 181.3 158.8 140.9 136.4 130.2 112.1 98.6 75.2 68 77.7 68.4 62.8 50.1 32.8 18 3.9 -1.3 -1.3 -1.3 -1.3 -1.3 -1.3 -1.3 -1.3 -1.3 -1.3 -1.3 -1.3 -1.3 -1.3 -1.3 -1.3 -1.3 -1.3 -1.3 -1.3 -1.3 -1.3 -1.3 -1.3 -1.3 -1.3 -1.3 -1.3 -1.3 -1.3 -1.3 -1.3 -1.3 -1.3 -1.3 -1.3 -1.3 12.1 24.7 34.6 41.3 49.9 58.6 70.5 80.1 81.1 76.2 69.2 63.5 67.8 84.3 92.5 91.6 100.5 106.3 104.9 110.4 114.5 113.8 110.4 120 113.9 120.1 121.2 123.2 129.4 131.6 118.6 139.1 149.4 155.9 160 165 176.5 178.1 178.8 186.5 200.5 218.6 223.1 226.1 232.4 237.3 243.2 253.4 259.2 261.7 264.2 268.6 272.5 284.3 295.3 313.6 324.7 326.2 327.9 335.2 339.7 343.2 349.2 361.2 374 386.6 398.4 410.3 422 433.6 444.7 451.8 475.8 493.5 499.8 509.3 522.3 533.8 538.8 539.8 522.9 492 459.7 437 421.2 402.5 390 377.3 365.5 353.1 343.9 339.2 332.5 316.2 319 327.4 336.5 349.4 362.4 377.7 403.3 426.1 450.9 464.3 493.9 527.8 559.4 587.3 612.3 634.9 650.8 661.4 661.8 660.8 655.4 643.5 632.1 625.4 612.6 590.2 570.2 552.4 534.8 530.4 514.3 498.4 485.1 473.4 459.4 447.9 434.8 426.6 418.6 409.2 402.2 392.3 382.3 370.4 362.3 349.6 335.7 319.8 301.7 284.2 275
221 218.1 196.2 178.9 169.3 162.6 139.8 120.8 106.3 91.7 88.9 101.7 86.1 70.2 56.2 40.3 32 17.2 5.2 4.6 -1.3 -1.3 -1.3 -1.3 -1.3 -1.3 -1.3 -1.3 -1.3 -1.3 -1.3 -1.3 -1.3 -1.3 -1.3 -1.3 -1.3 -1.3 -1.3 -1.3 -1.3 -1.3 -1.3 -1.3 -1.3 -1.3 -1.3 -1.3 -1.3 -1.3 -1.3 -1.3 -1.3 -1.3 1.9 13.7 26 41.7 51.1 70 75.1 76.8 81.2 81.7 79.6 77.9 75.2 68.7 78.7 87.6 93.3 101.5 107.1 105.6 110.3 115.3 113 107.6 109 109.2 116 121.1 120.4 126.7 130.7 124.2 142.5 151.4 155.3 160 163.7 171.1 174.1 176 185.6 197.4 211.2 220 223.8 229.7 241.7 258.3 267.7 274.5 269.9 269.5 268.1 271.8 281.2 289.8 306.1 322.6 320.9 322.9 329.6 334.4 337.5 341.4 351.4 363.7 378.9 390.7 405.3 412.6 421.4 429.1 445.4 467.4 489.1 496.5 504.5 514.9 525.1 537.9 543.3 529.2 496.2 463.3 440.1 422.5 404.3 390.5 379.2 366 352.7 343.4 333.4 324.4 314.5 314.8 325.2 333.6 346.2 359.3 376.3 395.2 416.9 438.4 455.9 489 519.8 549.7 574.5 600.9 623.7 639 651.5 657.8 659.3 660.1 653.4 651.5 648.5 636.6 614.6 589.8 572.3 561.5 555.9 537.1 523 507.1 501.1 485.5 468.7 455.4 449.1 438.4 428.2 430.1 421.5 412.7 403.1 393.3 378.7 356.6 335.5 316.1 300.3 291.2
224.5 215 208.5 198.7 196.9 182.1 164.6 135.9 109.8 98.6 106.6 102.2 88.1 72 58.9 46 36.4 28.1 19.9 15.4 7.7 2.2 -1.3 -1.3 -1.3 -1.3 -1.3 -1.3 -1.3 -1.3 -1.3 -1.3 -1.3 -1.3 -1.3 -1.3 -1.3 -1.3 -1.3 -1.3 -1.3 -1.3 -1.3 -1.3 -1.3 -1.3 -1.3 -1.3 -1.3 -1.3 -1.3 -1.3 -1.3 -1.3 2.6 21.2 44.8 55.6 76.7 91.1 89 83.1 83 83.1 83.1 80.7 76.9 70.7 73.6 83.2 88.8 98.1 102.7 106.3 109.2 112.3 110.2 107.8 107.8 107.9 109.5 113.1 115.2 119.4 115.6 128.3 143.5 152.5 156.2 159.6 162.5 165.5 168.2 178.3 185.1 193 206.9 215.9 221.9 232.1 252.5 266.3 276.4 281.5 282.3 280.7 278.4 274.9 279.5 289.3 302.4 314.8 320.2 316.5 321.2 327.2 332.3 335.5 342.4 353.9 372.2 382.8 394.3 402.8 408.7 421.3 439.2 456.6 481.1 491.9 499.4 510.1 521.5 538.7 545.7 534.2 503.3 468.7 443.2 423.7 405.9 391.8 379.3 365.9 353.8 342.8 329.3 317.9 315.5 314.3 322 329.4 340.4 353.9 369.6 387.4 409.3 429.8 450.2 481.4 507.7 533.3 557.6 581.4 602.2 620.5 636.3 650.1 654.9 657.5 653.8 661.1 663.6 655.1 637.9 609.5 592.5 589.7 580.7 565.1 547.2 531 515.9 500.8 496.8 494.8 482.8 463 457.1 457.1 450.2 444.3 436.4 424.6 409.7 383.3 360.4 334.1 317.9 305.2
237 231.6 214.3 209 204.2 181.2 162.5 136.8 118.8 104.8 110.9 103.9 96.3 89.4 67.7 59.4 46.8 38.8 29.4 23.7 20.7 18.6 18.1 5.1 -1.3 -1.3 -1.3 -1.3 -1.3 -1.3 -1.3 -1.3 -1.3 -1.3 -1.3 -1.3 -1.3 -1.3 -1.3 -1.3 -1.3 -1.3 -1.3 -1.3 -1.3 -1.3 -1.3 -1.3 -1.3 -1.3 -1.3 -1.3 -1.3 -1.3 12.6 42.8 63 79 80.6 89.2 86.7 86.5 87.9 88.5 87.9 89.6 85.2 79.4 72.5 80.2 85.7 95.5 98.7 107.3 107.4 110.4 108.9 108 108.9 110.3 107.8 110.5 107.8 113.5 109.3 126.9 141.8 149.2 153.8 157.8 160.7 163.8 168 174.7 181.6 191.6 202.7 213.5 220.1 235.3 253.7 264.5 272.6 282.4 289.1 289.4 288.3 279.8 279.6 287 300.1 310.3 313.7 311.5 312.7 320.2 330.5 333 336.3 345.8 361.3 372 383 394.1 395.5 411.1 434.1 447.6 470.8 484.8 493.7 504 519.3 533.5 543.1 533.9 505.9 473.2 447 428.7 408.1 392.2 377.9 367.6 357.3 344.8 331.5 322.3 312.3 312.6 318.1 324.5 334.9 347.6 361.2 379.3 399.8 417.2 442.6 471.2 496.4 515.6 536.9 559.1 576.4 596.6 624.8 638.6 647.4 653.5 658.4 666.6 674.9 679.4 661.5 640.5 624.6 627.1 611.4 594.1 576.6 562.4 547.2 542.5 538.4 523 505.8 487.8 490.8 490.6 484.1 478.9 468.1 455.2 435.9 406.7 379.2 354.8 338 323.8
259.3 241.7 226.6 209.9 196.7 187.1 156.4 136.4 127 110.9 118 116.9 107.3 96.8 77.2 68.1 55.4 48.8 41.9 33.8 38.3 32.6 20.2 6.1 -1.3 -1.3 -1.3 -1.3 -1.3 -1.3 -1.3 -1.3 -1.3 -1.3 -1.3 -1.3 -1.3 -1.3 -1.3 -1.3 -1.3 -1.3 -1.3 -1.3 -1.3 -1.3 -1.3 -1.3 -1.3 -1.3 -1.3 -1.3 -1.3 -1.3 30.6 54.7 81.7 90.1 85.7 87 94 95.1 97.7 93.8 94.4 93.2 85.2 79.6 78.3 79.2 86 92.1 100.1 107.5 106.1 107.7 109.5 109 108.8 110.4 105.2 102.5 103.9 105.2 110 126.6 139.1 146.3 151.3 155.8 158.8 162 164.8 169.6 177.5 188.8 199.6 209 217.4 241.1 255 263.4 269.9 282.6 289.3 288.5 290 289.4 284.5 287.8 295.3 302.6 306.4 307.9 311.3 320.4 329 329.7 332.8 340.8 350.9 362.1 373 382.3 380.1 401.8 424.5 437.4 461.5 477.4 483.8 498.3 513 528.5 538.6 533.1 506.5 478.4 452.4 432.9 409.6 391.9 379.8 367.8 356.8 342.6 330.4 318.9 307.5 311.7 315.1 320.6 330.2 341.4 355.4 372.5 390.7 408.6 432.5 458.1 474.4 494.2 514.9 537.2 554.3 582.9 605.5 625.5 643.4 650.9 656.2 665.3 679 691.7 690.7 672.9 658.4 651.5 638.5 622.7 603.6 591.7 581.9 570.8 559.8 541.8 523.1 510.2 508.1 502.6 497.4 492.1 484.7 473.1 457.3 432.1 406.7 382.2 363.6 348.2
259.8 254.5 240.9 213.6 198.7 180.1 156.6 139 127.5 124.4 130.5 124.9 113.8 100.6 82.8 79.4 75.6 68 60.3 51.3 48.2 41.5 19.6 8.8 -1.3 -1.3 -1.3 -1.3 -1.3 -1.3 -1.3 -1.3 -1.3 -1.3 -1.3 -1.3 -1.3 -1.3 -1.3 -1.3 -1.3 -1.3 -1.3 -1.3 -1.3 -1.3 -1.3 -1.3 -1.3 -1.3 -1.3 -1.3 -1.3 13 39.3 59.4 83.4 85.8 89.8 91.8 95.9 102.2 101.8 100.4 98.3 92.2 84.7 82.3 82.6 83.6 83.1 91.7 94.4 103.4 102.7 104.8 109.9 114.9 106.5 108.8 104.1 98.1 101.3 95.1 112.1 122.8 136 141.8 148.7 152.9 156.3 159.4 162 165.7 175.3 188.1 195.5 206 218.5 240.4 254.8 262.4 265.6 276.8 283.6 286.1 288.8 290.3 289.6 290.4 296.1 298.8 300.4 299.9 305.3 315.3 319.7 324.4 328.1 334.2 341.7 352.2 362.9 368.7 370.3 390.6 412.3 429 448.6 466.1 475.1 494 508.4 522.9 534 528.2 506.1 482.5 455 434.7 411.4 393.5 381.1 368 353.7 341.5 330.6 319.6 304.9 306 312.1 315.1 325.7 336.2 349.9 364.9 381.8 400.3 424.3 431.5 454.6 472.7 489.9 520.3 543.6 572.5 601.5 621 637.9 644.9 651.8 663.3 680.5 695.8 698.9 687.2 673.1 662 651.2 629.2 610.9 592.3 579.7 565.7 559.7 546 529.2 512.7 509.8 504.5 494 489.4 480.6 471.4 459.8 442.5 424.5 404.9 385.5 364.7
260.4 262.2 231.1 213.9 198.1 176.5 154.8 140.2 132.3 136.8 134.7 125.3 112.8 99.5 95.4 96.8 92.2 86.2 75.1 58.8 59.2 44.4 27.2 17 -1.3 -1.3 -1.3 -1.3 -1.3 -1.3 -1.3 -1.3 -1.3 -1.3 -1.3 -1.3 -1.3 -1.3 -1.3 -1.3 -1.3 -1.3 -1.3 -1.3 -1.3 -1.3 -1.3 -1.3 -1.3 -1.3 -1.3 -1.3 -1.3 23.1 48.5 65 81 92.2 97.7 98.3 108.1 115 111.7 106.7 96.8 90.2 86.4 85.7 86.6 87.6 90.2 92.3 92.8 92.8 93.8 97 101.7 105.2 104.4 99.7 99.1 93.4 91.8 99 114.9 120.3 130.8 141 149.6 152.8 156.6 158.3 159.8 161.8 172.9 188.5 193.6 198.8 221 245.8 255 260 260.4 267.8 272.6 279.8 284.9 288.9 293.2 298.6 301.4 301.9 299.4 298.3 297.7 302.1 311 319 320.6 325 331.8 340.7 350 353.2 366.8 381 400.5 421 436.3 455 466.1 489 505.2 519.1 528.3 525.1 509.2 486.8 457.1 438.5 414.2 396.3 381 367.2 353.7 340.7 330 319.1 307 297.9 302 309.2 318.4 330.2 343.3 357.4 371.8 390.6 403.1 430.9 452 475.6 496.4 518.1 545.6 574.1 596.8 617.7 629.8 637.7 646 661.1 677.6 697.8 705.1 702.1 682.2 663.2 651.3 628 607 583.4 565.9 547.2 537.2 530 516.5 504.5 495.6 490 479.6 471.2 466.7 456.3 445.9 433.7 420.5 405.4 391 373.8
258.5 250.4 235.3 217.5 196.2 184.3 160.5 147.3 143 143.8 143.8 138.1 128.6 115.5 110.1 111.1 100.9 95.2 86.5 73.8 59.8 52.2 39.1 19.6 -1.3 -1.3 -1.3 -1.3 -1.3 -1.3 -1.3 -1.3 -1.3 -1.3 -1.3 -1.3 -1.3 -1.3 -1.3 -1.3 -1.3 -1.3 -1.3 -1.3 -1.3 -1.3 -1.3 -1.3 -1.3 -1.3 -1.3 -1.3 17.5 34.8 50.9 68.5 79 89.6 93.4 95.1 109.3 112.4 110.6 107.3 101.1 91.8 87.9 88.4 90 91.2 90.8 87.3 90.8 90.4 91.1 90.9 98.5 104.9 93.3 92.6 92.4 88.6 87.4 101.7 114.5 120.1 129 137.2 148.8 153.5 155.5 157.2 158.3 155.8 172.9 188.8 189.4 192.9 218.7 240.7 251 253 253.6 259.6 270.7 277.8 282.7 288 291 300.7 306.6 308.2 301.4 292.2 290 294 300.9 307.8 313.2 315.1 320.9 327 336.4 339.2 355.1 371.5 389.7 410.8 428.1 444 457.1 482.6 499.5 514.5 522.3 522.8 510.5 490.3 461.5 442.1 418.9 398.5 382 367.6 354 340.4 328.1 317.9 307.9 299.1 294.3 303.7 312.9 323.7 336.2 348 359.4 381.8 404.7 431.3 458.1 469.4 490.8 508.3 541 569.2 590.8 609.8 621 630.5 639.6 659.6 677 700.2 710.6 704 685.8 662.3 635.7 611 593.8 577.5 560.8 540.9 527 517.3 507.1 489.8 480.6 471.2 461.3 452 444.5 436.6 428.9 416.6 403.7 395 384.3 374.6
262.3 257.8 245.1 234.6 226.1 212.6 174 158.4 155.8 160.8 161 152.7 145.6 134 125.8 125.7 121.1 106.5 91.8 79.4 65.4 61.7 47.9 25.7 -1.3 -1.3 -1.3 -1.3 -1.3 -1.3 -1.3 -1.3 -1.3 -1.3 -1.3 -1.3 -1.3 -1.3 -1.3 -1.3 -1.3 -1.3 -1.3 -1.3 -1.3 -1.3 -1.3 -1.3 -1.3 -1.3 -1.3 -1.3 27.7 43.3 54.9 69.2 81.9 90.5 90 100 109.8 113.5 113.8 116.8 107.6 97.6 89.9 90.3 92.4 92.6 91.9 87.7 86.9 86.7 85.6 85.5 94.9 102.2 99.2 90.6 86.9 86.9 91.3 101.8 113.7 122.5 126.5 134.5 145.3 152.2 155.5 156.4 156.3 153.8 166.9 179.7 187 190.6 212 230.3 240.1 244.9 248.7 257.4 269.1 277.7 285.4 289.8 290.5 298.2 306.2 311.8 311.1 293.8 288.3 287.8 292.9 299.6 304.2 307.6 312.5 317.5 326.2 334 347.8 361.3 378.3 401.7 420.2 433.3 448.6 474.8 494.4 509.1 518.4 519.8 511.1 495 470 443.7 421.5 402.4 382.6 367.9 354.3 341.1 328.2 316.1 308.1 300.9 288.7 298.6 308.3 318.1 327.6 340.3 356.8 374.3 397.1 420.1 444.3 467.5 482.3 502.8 535.3 560.4 581.4 601 611.8 623.3 634.5 658.8 679.3 701 710.5 703 681.6 657.3 629.3 610 593.2 576.2 557.6 540.9 528.5 514.1 499.8 480.4 463 458.4 447.7 437.8 428.9 420 411.8 399.4 388.7 379.5 370.6 360.6
268.7 264.9 256 241.3 233.5 225.2 189 173.3 174 177.1 176.7 183.8 174.1 153.5 135.9 139.2 127.9 113.3 100.6 81.9 76.9 76.6 54.6 28.6 10.9 -1.3 -1.3 -1.3 -1.3 -1.3 -1.3 -1.3 -1.3 -1.3 -1.3 -1.3 -1.3 -1.3 -1.3 -1.3 -1.3 -1.3 -1.3 -1.3 -1.3 -1.3 -1.3 -1.3 -1.3 -1.3 -1.3 5.3 26.9 44.4 62.4 77.3 89.7 85.6 94.1 108.2 112.4 111.6 116.2 120.9 106.3 94.5 89.8 92.9 94.8 94.4 92.2 86.5 81.8 81.3 79.9 80.6 89.5 96.2 96.7 87.7 82.9 76.7 89.9 98.8 110 123.1 126.9 134.7 142.5 149.4 153.9 153.1 152.1 151.3 158.7 170.6 178.8 190.4 206.4 221.7 233 239 241.4 254 269.2 277.8 286.7 290.5 288.9 295 304.9 308.2 308.9 296 286.1 281.8 285.3 289.5 294.6 298.1 302.2 307.7 313.2 325.7 337 351.1 368.5 390.6 410.9 425.4 440.6 465.9 488.3 503.8 515.4 517.7 512.5 498.3 474.4 446.4 425.1 405.6 386.1 369.9 355.5 342.5 329.2 316.8 307.2 299.5 289.2 292.5 301.8 311.5 321.5 334.7 348.9 366.1 388 410.1 433 457.3 474.2 499.3 525.1 549 570.7 590.8 602.5 612.8 634.3 658.7 677.5 696.1 711.4 705.4 682.4 654.7 628.3 610.6 591.4 574.3 559.6 542.1 526.4 511.6 492.2 472 457.4 446.5 434.7 421.9 411.6 401.9 392.5 384.2 374 364.1 353.5 343.2
279 273.7 251.7 236 226.6 215.1 200.7 194 193.8 191.9 202.6 194.4 186 171.7 145.7 135.9 121.2 104.9 98.3 91.9 80 78.1 59.5 35.2 8.3 -1.3 -1.3 -1.3 -1.3 -1.3 -1.3 -1.3 -1.3 -1.3 -1.3 -1.3 -1.3 -1.3 -1.3 -1.3 -1.3 -1.3 -1.3 -1.3 -1.3 -1.3 -1.3 -1.3 -1.3 -1.3 -1.3 19 38.9 54.1 72.3 80.9 83.6 85 96.9 106.1 106.6 107.1 110.9 115.9 105.1 91.3 91.7 94.1 96.4 96.3 92 86 81.1 76.1 76.1 76.4 81 90.3 90.1 84.9 79.7 66.9 83.1 94.2 107.2 121.4 129.2 132.6 139.2 145.4 150.9 150.7 150.4 150 151.6 160.1 170.4 186.7 201.2 213.7 225.7 233.3 241.1 255.1 266.8 273 281.4 286.5 285.6 291.2 297 303.4 305.8 302.3 283.1 279.1 280.4 282.7 286.1 290.9 291.9 297.3 304.2 316.5 326.8 341 359.1 379.4 399.8 416.4 433.6 456.6 480 497.7 511.3 517.2 513.2 502 479.5 451.5 427.1 409.4 389.6 372.8 356.6 343.2 329.8 318.4 308 298.2 286.3 286.7 295.2 304.4 315.3 327 342.2 358.6 378.3 400.5 423.1 445.5 465.1 488.9 513.8 537.8 559.4 580.5 592.2 607.5 633.8 658.6 675.1 694.3 711.2 708.6 686.1 660 633.2 611.7 590 573.2 557.4 541.1 524.9 509.1 488.7 467.8 453.1 436.4 419.5 403.9 393.5 382.4 373.8 365.6 356.2 345 334 324.3
285.3 275.7 255.8 242.3 236.8 225.7 216.5 213.6 215.7 216.5 207.4 193.9 182.7 167.1 148.2 134.5 121.1 111.1 104.4 92.3 84.5 75.2 53.5 31.8 11.1 -1.3 -1.3 -1.3 -1.3 -1.3 -1.3 -1.3 -1.3 -1.3 -1.3 -1.3 -1.3 -1.3 -1.3 -1.3 -1.3 -1.3 -1.3 -1.3 -1.3 -1.3 -1.3 -1.3 -1.3 -1.3 -1.3 27.1 42.3 64.1 76.3 78 80.5 96.1 97.4 100.6 103.6 102.9 102.3 101.4 97.1 90 93.5 92.7 94.3 94.1 89.6 86 80.9 73.7 69.5 73.3 69.8 85.7 86.2 82 75.3 63.9 83.1 92.9 103 118.8 129.8 129.7 135.8 142 148.2 148.7 149.1 147.8 148.2 157.4 170.4 184 196.8 210.6 219.9 227.9 242.4 251.2 260.9 270.1 275.2 280.9 288.4 289.7 293 298.8 301.7 299.9 284.5 281.4 277.5 277.8 279.7 282.7 283.2 288 298.8 309.9 319.1 331.2 350.5 370.2 389.1 406.7 426.7 447.9 472.4 490.8 507.2 514.6 516.2 503 484 455.6 429.5 412.5 392.5 374.4 357.5 343.2 331.3 319.8 308.6 298.5 287.9 282.5 290.6 297.6 308.8 320.2 334.7 350.4 369 389.3 409.9 434.2 457.3 479.4 504.7 525.3 545.7 561.2 578.8 605.4 633.1 659.2 680.4 701.2 711.5 707.9 689.7 664.6 639.9 617.1 593.6 571.2 552.2 537.7 521.7 503.9 487.7 462.9 439.3 427.3 405.6 386 370.5 361.2 353.9 346.2 336.6 326.9 317.1 307.5
283.1 268.2 259.3 254.4 255.6 238.2 227.9 230.6 229.1 229.5 213.8 202.9 183.7 166.1 146.2 134 126.3 114.6 107.5 95.7 89.9 80.4 69.7 47.1 24.4 -1.3 -1.3 -1.3 -1.3 -1.3 -1.3 -1.3 -1.3 -1.3 -1.3 -1.3 -1.3 -1.3 -1.3 -1.3 -1.3 -1.3 -1.3 -1.3 -1.3 -1.3 -1.3 -1.3 -1.3 -1.3 7.4 29.5 52.9 75.2 84.6 85.5 94.5 99.8 99.9 100.9 103.4 101.2 98.1 94.5 89.7 92.7 93.6 91.3 90.6 91.1 88.7 85.8 80.7 70.3 61 62.5 69.4 81.6 82.6 80.1 71.1 62.9 88.3 93.4 96.7 114 125.4 128.2 132 138 143.9 145.9 146.9 143.6 144 153.8 166.4 179.5 192.6 206.3 216 226.4 237.1 244.6 262.5 274.5 278.4 270.7 279.5 284.7 288.9 295.1 297.5 295 285.6 280.7 275.9 274.1 273.4 272.7 274.9 285.5 293.7 301.4 310.2 322 342 362 379.4 394 416.4 434.7 465.3 487.4 504.3 510.7 513.2 504.1 485.3 461.1 434.6 414.4 396.2 376.9 359.2 343.9 332.4 320.9 308.7 297.8 288.2 276.4 285.8 290.8 301.4 314.1 327 342.7 359 380.5 402.6 424.2 447 469.8 491.5 511.7 526.8 547.9 576.2 605.6 633.2 657.6 679.3 695.3 706.5 705.6 693 665.3 641.2 621.4 599.9 574.9 554.6 538.6 521.7 505.1 484.2 454.3 432.7 414.7 398.5 375.9 352.8 340.5 335.7 327.8 319.7 310.8 300.8 290.2
287.1 279.6 272.6 268.3 265.4 253.2 235.6 238.6 235.7 225 212.3 195.6 175.1 161.5 159.1 140.8 125.8 105.5 96.1 94 91 85.2 75.8 55.2 29.9 -1.3 -1.3 -1.3 -1.3 -1.3 -1.3 -1.3 -1.3 -1.3 -1.3 -1.3 -1.3 -1.3 -1.3 -1.3 -1.3 -1.3 -1.3 -1.3 -1.3 -1.3 -1.3 -1.3 -1.3 -1.3 10.5 45.5 65 86.2 95.4 97.6 101.6 102 102.4 101.9 100.7 103.1 95.8 89.7 87.6 94.6 91.8 90.2 90.1 90.9 86.8 83 79.7 69 53.2 58.5 59 71.1 77.6 72.8 65.8 65.8 83.4 92.1 99.5 106 119.5 125.2 129.4 134.6 141.2 145.3 145.1 140.3 141.7 152 163.7 176.9 189.3 203.4 212.8 221.5 227.9 242.6 258.2 267.1 274.4 266.5 270 278.7 284.4 292 292 290 283.5 278.7 274.4 264.4 267.2 267.7 273.4 279.9 286.1 293.8 301.3 314.5 335.5 355.6 376.3 396.3 415.7 437.3 460.8 483.4 501 511 511.2 503.8 487.2 463.9 440.6 418.6 398.3 378.3 360.3 344.8 331.3 319.9 308.3 295.2 287.4 277.5 277.6 283.7 293.3 305.3 319.7 334.9 350.6 371.9 392.9 415 435.8 456.7 477.4 491.8 513 545.6 573.6 602.2 627.7 653.1 673 685.8 696 697.7 688.8 663.2 636.8 619.4 602.1 580.2 556.8 535.8 516.5 497.5 473.6 449.6 433.2 420.7 400.3 376.5 353.2 333.2 320 309.9 300.7 289 281.3 279.6
303.9 290.3 282.4 267.5 262.1 251.2 241 240.5 241.2 225 206.8 191.1 169.5 161.8 156.3 138.9 115.5 100.3 93 91 90.4 83.5 67.7 47.7 27.1 -1.3 -1.3 -1.3 -1.3 -1.3 -1.3 -1.3 -1.3 -1.3 -1.3 -1.3 -1.3 -1.3 -1.3 -1.3 -1.3 -1.3 -1.3 -1.3 -1.3 -1.3 -1.3 -1.3 -1.3 1.7 32.5 61.1 75.4 93.8 105 109.4 105.2 104.1 102.8 102 99.5 98.2 96.5 92.6 87 87.5 89.4 90.2 89.3 93.6 88.1 80 78.3 75.4 59.9 48 48.8 57.2 68.9 70.3 60.8 70.1 81.1 90.3 97.8 99.1 111.4 120.5 125.3 128.2 137.5 142.3 140 137.9 141.7 151.8 162.6 175.6 186.7 200.3 209.5 214.7 222 235 247.7 256.2 263.1 260.8 264.1 273.5 282.5 287.4 286.2 285 281.2 276.6 272.4 267.2 259.9 263.7 272.1 275.3 280.7 285.8 295.6 308.9 332.5 351.4 371.5 392.1 410.9 433.3 456.2 479 496.9 509.7 510.7 504.1 489.9 466.3 442.2 417.4 398.9 380.1 360.8 344.9 330.2 318.9 306.5 292.8 284.6 276.3 270.5 277.5 285.1 298 312.3 327.4 344.7 363.9 383.5 404.7 422.8 442.1 457.2 481.8 511.2 537.9 566.1 595.1 623 645.4 663.2 676.8 686.6 688.8 682 661.4 631.9 612.3 594 573.6 555.2 535.8 519.2 496.5 476.3 449.5 440.9 424 403.7 379 353.2 335.2 324.2 313.9 303.4 293.3 282.8 275.6
304.3 288 266.5 257 247.9 236.6 227.8 241.4 246.9 219.1 202.7 186 183.2 159.6 145.4 124.4 119.1 102.5 85.7 84.9 88.1 74.1 58.6 45.1 22.1 -1.3 -1.3 -1.3 -1.3 -1.3 -1.3 -1.3 -1.3 -1.3 -1.3 -1.3 -1.3 -1.3 -1.3 -1.3 -1.3 -1.3 -1.3 -1.3 -1.3 -1.3 -1.3 -1.3 -1.3 7.8 41.1 54.4 78.3 96.1 107.6 136.9 128.8 108.5 104 102 100.5 98.2 100.3 98.9 86.3 85.8 87.9 89.5 88.8 89.3 84.4 74.6 71.6 71.5 61.8 47.4 40.2 49.4 60.5 61.3 48.4 71.2 77.5 87.3 96.2 99.3 108.7 116.3 121 124 132.9 136.3 130.1 135.6 146.7 156.1 164.1 173.5 184.2 197.6 206.5 209.5 215.8 227.6 242.1 245.9 249.7 255.4 258.8 267.5 276.6 281.4 280.8 279.6 277.6 275.1 270.9 265.6 257.1 261.1 266.5 270.9 271.1 280.3 292.5 303.3 324.7 346.7 368 388.1 406.7 428.3 451.3 473.3 491 507.5 512.4 505.7 491.9 472.4 447 420.3 400 381 362 345.3 331.3 317.9 304.5 292.1 282.6 275.8 265.6 275.5 280.4 290.7 304.8 319.9 337.1 354.4 373.6 392.9 407.3 428.4 455.4 479.4 502.8 529.3 559.3 588.5 617 636.2 653 666 673.4 673.4 668.5 658.8 626.8 601.5 584.4 566.6 548.1 530.5 515.1 495.1 476.1 457.4 443 425.7 408 386.2 369.7 354.4 340.3 332.8 318.8 306.9 294.9 284.3
288.2 269.7 251.6 249.7 242.5 229.1 224.7 234.8 241.3 217.4 202.6 200.5 183.1 156.6 141.8 127.8 117.2 87.7 70.1 73.6 77.5 66.8 51.8 32.3 10.9 -1.3 -1.3 -1.3 -1.3 -1.3 -1.3 -1.3 -1.3 -1.3 -1.3 -1.3 -1.3 -1.3 -1.3 -1.3 -1.3 -1.3 -1.3 -1.3 -1.3 -1.3 -1.3 -1.3 4.7 37.3 68.7 87.6 94.8 102.3 130.9 143.8 136.6 131.5 110.5 105.9 103.6 101.3 98.6 92.2 86.3 83.7 81.3 81.2 82.5 83 77.6 69.3 66 63.8 55.7 47.5 42 41.6 48.8 42.9 58.1 69.8 74.6 83.3 92.8 99.5 100.1 112.2 116.2 119.8 124.7 127.8 126.8 138.3 148.5 159.7 167.2 173.4 182.5 194.2 205.8 205.8 209 217 230.2 237 244.8 251.2 254.2 260.9 269.5 275 275.3 273.8 273.3 272.2 269.4 262.3 254.4 258.8 262.6 266.6 267.5 274.5 286.6 298.9 323.3 343.7 364.6 384.1 402.8 423.3 445.6 467.9 486.6 502.3 508.2 507.8 495.5 471.4 447.5 422.4 401.5 382.8 363 347.2 332.3 317.8 302.8 292.1 281.8 275 265.7 268.5 275.3 284.2 298.2 312.9 329 345.9 362.8 383.8 404.5 426.4 451.7 474.6 497.1 525.2 552 580.2 608.2 623.7 638.5 650.8 653.8 656.3 656 649 626.7 591.6 575.9 562.3 548.2 528.6 512.4 497.7 478.7 460.4 439.7 421.1 414.9 406.6 393.5 385.1 374 362.4 350 337.3 323.8 306.2
279.8 247.2 244 242.1 234.6 221.5 226.3 217 233.1 225.6 208.5 196.8 187.4 168.9 141.1 123.8 107.3 87.1 63.1 66.4 69.6 65.2 50.6 29.2 10.2 -1.3 -1.3 -1.3 -1.3 -1.3 -1.3 -1.3 -1.3 -1.3 -1.3 -1.3 -1.3 -1.3 -1.3 -1.3 -1.3 -1.3 -1.3 -1.3 -1.3 -1.3 -1.3 -1.3 29.1 63 90.9 102.5 109.2 114.8 138.1 143.1 142.8 134.4 126.7 122.6 110.6 100.1 95.6 90.2 86.7 85 79.7 77.1 75.7 72 67.6 64.2 60.1 57 51 44.4 36.1 33.8 34.5 49.8 57.1 64.2 71.9 77.1 86.7 95.5 96.6 107.3 111.7 113.7 115.3 110.4 129.7 139 148.7 157.5 166.2 172.9 180.5 188.3 200.2 199 203.3 211 220.3 230.8 239.1 245.2 248.4 256.6 263 267.1 268.6 269.6 270 269.9 268.6 260.1 252 254.4 258.4 259.2 262 269.2 281.6 296.1 320 341.7 361.3 378.8 398.6 416.3 438.2 460.6 479.2 493.7 502.4 505.7 498.2 475.6 446.7 423.3 403.6 383.7 363.8 347.8 333.1 318.2 303.2 292.2 282 273.5 260.9 261.9 269.5 278.2 291.8 305.9 321.4 338.9 356.3 376.6 397.3 420 444.3 469.5 495.1 520.2 544.7 568.3 591.7 607.7 623 634 638.3 642 644 639.7 618 592.5 567.3 556.8 543.5 527.3 514.4 498.3 478.1 459.3 445.7 442.2 437.7 432.2 425.4 408.4 396.3 391.5 380.4 370.4 353.6 334.6
253.9 245.3 233.3 225.8 221.4 204.8 206 191.5 223.6 227 216.1 205.1 185.2 167 140.2 124.7 107.9 89.1 63.4 43.8 52.8 57.7 43.6 24.1 6.2 -1.3 -1.3 -1.3 -1.3 -1.3 -1.3 -1.3 -1.3 -1.3 -1.3 -1.3 -1.3 -1.3 -1.3 -1.3 -1.3 -1.3 -1.3 -1.3 -1.3 -1.3 -1.3 22.1 48.7 74.6 99 109.3 116.3 126.5 143.8 143.5 139.9 134.6 130.5 130.8 123.5 108.6 93.4 90.2 88.7 85 79.3 71.1 69 64 61.1 57.7 52.6 49 45.6 39.5 31.9 30.5 34.1 49.8 56.3 63.1 68.1 74.5 84 89.4 93.2 98.8 106.7 108.3 102 120.9 128.9 139.2 150.4 158.7 167.5 176.8 180.2 185.2 192.2 197.4 198.4 205.1 215 226.2 231.3 236.2 243.5 255.5 262 266.3 268.3 269.1 268.7 270.2 266.9 261.4 252.9 250.6 254.7 255 258 264.5 276.3 291.7 314 334.7 355.2 371.8 392.2 409.6 431.3 452.2 472.2 485.9 499.7 504.4 499.3 480.7 451.4 423.6 403.6 384.1 364.5 348 333.2 318.6 303.8 292 281.8 270.9 257.9 258.6 267.4 274.3 286.1 299 315.2 332.2 350.3 369.5 390.7 413.5 437.2 463.2 488.9 513.8 535.9 557.7 575.1 589.9 604.5 614.4 622.2 627.5 632 637 626.3 593.5 564 553.1 541.3 527.5 512.9 497.5 481.1 470.9 466.6 464.1 463.7 455.8 443.8 431.8 419.3 413.9 404.2 393.6 375.3 354.4
257.3 251.6 225.9 205 196.4 184.2 183.4 178.9 209.3 219.3 212 194.4 176.2 163.8 149 137.2 113.4 89.3 58.9 31.1 36.5 51.1 37.8 28.5 8.1 -1.3 -1.3 -1.3 -1.3 -1.3 -1.3 -1.3 -1.3 -1.3 -1.3 -1.3 -1.3 -1.3 -1.3 -1.3 -1.3 -1.3 -1.3 -1.3 -1.3 -1.3 14.2 33 63.8 87.6 98 110.7 115.3 142.3 153.1 145.3 137.1 132.2 133.8 135.4 129.4 114.5 103 91.4 88.6 85.4 79.6 69.6 67.5 58.3 53.2 49.2 43.4 38.9 36 33.3 28.1 32.3 38 50 57 63.4 67.5 72.2 84.3 87.7 90.1 92.6 100 101 103.7 117 131.6 137.6 146.6 156 167.2 178.4 182.3 184.4 188.4 192.2 194.2 199.6 209.8 221 225.5 231.6 241.1 253.5 260.7 266.6 267.8 267.9 268 269.1 266.3 260.4 253.6 249.7 250.4 251.7 254.7 260.8 273.3 288.2 309.8 329.6 347.4 364.6 383.7 403 423.5 444.3 463.5 478.9 492.5 501.1 498.2 482.2 457 423.5 403 383.7 363.6 347.7 333 317.9 303.7 290.7 280.1 269.3 257.2 248.2 260.5 271 282.6 294.7 308.6 325.1 343.9 362.7 386.1 406.8 429.8 456.1 479.8 501.6 524.3 543.6 560 574.9 586 594.1 601.9 611.6 619.9 629.4 628.2 611.1 581.6 556.4 541.6 528.2 511.5 495.8 487.8 484.1 476.3 485.4 484.7 472 463.5 450.2 440.2 434.8 426.4 413.5 390.4 366.9
259.5 228.7 205.6 187.8 177.1 170.2 164 167.6 193 195 199.5 187.2 174.5 162.6 156.8 137.2 113.6 81.1 55 24.5 22.6 38 37.6 33.8 16.8 -1.3 -1.3 -1.3 -1.3 -1.3 -1.3 -1.3 -1.3 -1.3 -1.3 -1.3 -1.3 -1.3 -1.3 -1.3 -1.3 -1.3 -1.3 -1.3 -1.3 -1.3 37.9 65.3 79.8 90.2 103.6 111.7 120.5 140.1 148.2 140.6 135.4 129.9 137.9 134.8 127.3 118.1 102.6 92.9 85.7 83.2 77.2 69.6 66.2 55.7 45.7 41.2 37.1 31.1 28.9 28.4 29.4 32.3 37.3 47.8 58.1 64.5 69.2 66.9 80.7 85.2 87.8 90.1 91.3 95.8 103.6 114.4 132 138 144.4 153.9 165.4 174.9 184 185.4 186.5 188.5 190.2 195.4 204 214.1 222.3 228.4 241.9 253.9 259.7 264.2 266.5 265.3 264.4 266.9 263 259.1 253.5 247.5 246.6 248.8 253 257.6 271 285.6 304.6 324.2 340.7 358.2 375.2 395.6 416.2 435.8 455.3 473.7 486.5 493.8 492.8 480.6 456.6 425.4 400.3 381.7 362 346.1 331.4 316.3 302.6 289.5 277.7 267.7 257.4 241.5 260.3 267.5 277.3 289.4 303.5 319.1 337.8 356.6 378.4 398.9 421.2 447.1 470.6 492.2 511.7 529.1 545.1 556.5 565.9 573.5 582.9 595.4 608.2 621 627 622.8 611.4 579.8 551 538.2 521.6 511.2 507.4 492.6 487.4 504.5 518.1 500.2 483.1 466.3 456.5 446.2 439 427.8 398.1 400.2
236 208.3 186.1 178.7 169.9 157.6 153 152.6 167.3 178 187.1 182.8 172.5 161.6 149.5 137 110.8 68.8 42 19.9 18.2 34.8 45 32.6 -1.3 -1.3 -1.3 -1.3 -1.3 -1.3 -1.3 -1.3 -1.3 -1.3 -1.3 -1.3 -1.3 -1.3 -1.3 -1.3 -1.3 -1.3 -1.3 -1.3 -1.3 34 59.9 88.3 93.7 97.9 101.1 110 135.5 136.7 137.5 135.2 126.6 124.5 134.3 129.6 125.8 120.3 103.6 99 85.4 77.9 73.1 70.5 63.4 50.1 40.3 33.9 29.2 25 23 26.8 27.9 28.5 36.4 47.3 59.1 68.2 71 71.2 73.4 81.1 85.7 87.3 88.2 94 102.2 110.3 129.8 134.6 141.7 153.4 162.4 171.7 181.2 186.7 184.7 185.7 186.7 191.6 198.3 211 218.3 226.4 236.7 250.2 257.8 261.8 264.4 264.5 263.8 262.4 260.2 257.9 251.8 244.5 240.9 244.7 250 256.3 269.3 282.7 299.2 317.9 334.9 350.7 366.6 388.2 408.1 427.3 446.2 464.4 478.7 488.8 489.5 477.7 454.9 423.6 397.2 378.6 359.7 343.8 328.6 314.5 301.3 288.2 275.4 265.3 255.2 244.5 252.2 262.8 272.2 283.6 298 313.2 332 350.8 369.9 391.6 413.3 436.2 459.3 479.1 497.9 513.7 528.7 539.4 547.9 555.8 567.6 580.4 596.6 612 620 623 623.3 605.7 574.6 555.2 538.8 530 534.5 530.9 516.8 518 534.3 518.2 495.4 489.3 469.6 467 456.4 435.1 431.9 431.3
219.9 196.9 180.8 169.3 159.6 146.8 143.2 143.4 151.2 171.7 180.9 178.5 171.4 158.4 142.5 130.3 95.4 67.2 42.1 21.4 11.3 40.1 47.9 32.7 -1.3 -1.3 -1.3 -1.3 -1.3 -1.3 -1.3 -1.3 -1.3 -1.3 -1.3 -1.3 -1.3 -1.3 -1.3 -1.3 -1.3 -1.3 -1.3 -1.3 14.1 38.8 80 99.1 100.2 98.4 98.9 107.9 138.2 141.8 132.6 129 118.9 118.8 127.5 126.1 121.1 116.6 99.9 101.4 94.8 78.1 70.2 68.6 57.2 43.8 33 27.3 23.8 20.3 16.6 23.8 23.3 22 37.1 51.1 61.2 67.9 70 69.1 64.8 74.7 81.7 85.2 82.6 90.4 99.4 108.4 122.7 134.1 139.7 155.5 161 168.5 179.4 186.1 183.7 183 184.6 188.4 193.6 204 213.9 224 238.8 248.4 252.4 258.1 262.9 262.4 261.7 261.7 260.8 257.9 252.5 244.1 240.7 241.7 247.4 255.4 269 280.6 295.4 312.7 327.8 342.9 358.2 379.5 399.3 418.5 436.6 454.3 468.3 480.8 484 475.3 451.3 424 396.9 375.4 357.3 340.5 325.9 312.3 298.9 285 273.5 263.1 254.2 243.8 241.3 258.4 267.4 278.2 291.5 307 326.2 344.5 361.9 384.3 405.6 425.1 448 467.9 483.5 498.6 509.8 519.3 528.8 540.7 555.3 568.4 586.9 604.8 617.5 622.3 625 626.1 597.9 570.9 554.2 558.1 582.4 576.5 562 556.9 557.7 537.6 513.3 495.6 490.2 482.9 468.3 467.9 465.9 468.8
205.3 188.7 171 157.7 146.4 142.4 140.1 138.4 139.8 160.6 167.8 173.8 171.5 146.2 125.4 106.4 80.8 65.1 52.4 27.3 8.1 43.1 40.3 -1.3 -1.3 -1.3 -1.3 -1.3 -1.3 -1.3 -1.3 -1.3 -1.3 -1.3 -1.3 -1.3 -1.3 -1.3 -1.3 -1.3 -1.3 -1.3 -1.3 -1.3 16.5 56.6 83.9 92.7 99.8 100.2 99.3 113.7 139.6 141.5 138 126.7 120.4 117.6 117.9 117.9 115 108.4 105.7 100.7 96 88.9 75.1 64.5 49.6 37.6 28 22.2 18 16 14.1 16.7 16.4 21.2 35.4 49.6 60.1 66.5 67.1 65.6 65 69.8 80.1 80.8 76.3 86.6 95.8 104.7 119.5 131.1 138.9 155.1 158 163.4 174.7 183 182.5 180.8 184 186.8 188.3 197.6 207.5 217.6 229.5 239.5 245.6 253.6 260.7 260.2 259.9 260.2 260.7 258.4 251.4 242.8 239.5 240.9 245.4 254.3 267.3 280.2 292.4 306.6 320.2 334.6 349.7 368.3 386.9 406.8 425.2 442.8 458.3 470.9 477.4 469.6 445 418.5 393.8 371.8 354.2 336.4 323 309.1 295.4 281.4 270.6 259.8 251.4 242 241.3 254.7 263.5 272.7 284.7 300.8 320.3 337.7 355.1 375.8 394.7 413.5 434.2 453.8 469.6 480.2 491.7 496.7 511 525.6 543.2 559.6 579.2 599.3 614.9 626.5 633.1 637.3 623.7 590.4 596.6 605.9 606.4 599.2 589.2 580.7 568.5 540 519.2 510.1 501.8 491.1 494.3 503 505.4 512.9
213.3 187.6 172 157.2 141.1 135.1 141.2 132.1 132.3 148.4 165.6 172 163.5 134.3 107.2 90.7 78.7 67.8 43.7 18.3 1.8 28.2 12.7 -1.3 -1.3 -1.3 -1.3 -1.3 -1.3 -1.3 -1.3 -1.3 -1.3 -1.3 -1.3 -1.3 -1.3 -1.3 -1.3 -1.3 -1.3 -1.3 -1.3 -1.3 32.5 58.1 89.5 98.7 109.2 104.5 104.8 118.5 136.9 142.4 135.6 122.5 118.2 115.8 116.6 108.3 105.6 110.9 103.3 96 92.2 88.8 84.1 77.8 61.3 44.5 26.2 19.3 15.7 13.4 13.3 13 12.1 20.5 32.7 48.2 57.2 63.2 64.2 63.8 62.7 62.6 73.5 77.7 73.8 81.9 92.1 101.4 114.2 130.4 136.9 147.3 155.1 163.4 177.2 181.9 182.8 179.8 179.1 184.1 186.1 190.2 200.2 211.2 220.8 229.7 239.4 250.2 261.8 260.1 259.3 259.8 260.3 259 250.8 243 238.3 237 242.4 251.7 263.4 273.2 284.7 299.5 313.2 326.4 341.3 357.5 374.8 391.8 413.2 431.5 446.7 460.5 469.2 462.3 441.8 418.7 390.2 368.8 349.1 331.6 318.2 304.9 290.2 277.7 266.7 256.2 247.5 241.3 241.3 247.7 259.6 268.5 279.2 294.1 313.1 329.9 347.3 366.6 385.3 402.5 420.1 438.8 452.3 460.8 469.5 481 492.3 514.6 534.7 557.8 578.9 599.5 617.5 628.7 637.5 643.7 638.4 633.4 624.4 615.5 610 603.3 592.3 583.3 576.3 567.5 538.6 524.3 515.4 520.7 522.9 535.7 546 548.4
207.3 190.2 176.8 153.6 134.6 130.3 131.8 121 123.9 136.7 156.5 158.9 142 129 107.4 96.8 74.5 47 24.2 -1.3 -1.3 -1.3 -1.3 -1.3 -1.3 -1.3 -1.3 -1.3 -1.3 -1.3 -1.3 -1.3 -1.3 -1.3 -1.3 -1.3 -1.3 -1.3 -1.3 -1.3 -1.3 -1.3 -1.3 2.4 35.1 74.2 97.5 104.6 109.5 108.6 111.8 125.4 130.2 139.6 130.8 122.5 123.2 120.9 118.6 111 104.4 98.4 98.2 93.7 91.7 89.6 94.3 86.6 71.8 50.9 30 17.7 14.1 11.9 11.5 11.1 14.1 19.7 26.9 38.7 52.8 59.9 62 61.3 60.9 61 68.3 73 72.1 78.3 89.4 98.5 108.7 123.6 134.3 144.1 150.5 161.6 173.8 179.4 182.5 178 175.8 178.5 181.2 185.6 194.7 205.5 214 224 234.8 248.4 261.4 260.3 259.1 259.8 260.4 258.5 251.2 242.9 235.3 233.6 240 247.8 257.4 267.1 277.3 292.3 305.9 317.7 332.2 347.7 364.2 379.4 399.9 418.7 433.7 448.2 460.1 453.8 437.5 416.6 387.9 366.2 343.7 326.8 313.6 299.6 285.6 274 262.5 252.4 244.4 241.3 241.3 241.8 253.1 264.2 274.5 289.6 306 323.1 340.7 359.9 378.5 391.2 407.4 425.5 435.3 440.2 451.7 460.3 485 511.5 536 561.1 582.7 602.4 619.2 632.5 644 650.9 649.2 638 623.4 612 603.1 596.2 585.5 578.2 577.3 578 561.8 538.1 530.4 540.3 552.5 570 580.5 591.4
205 183.3 168.6 148.2 124.3 119.7 118.6 110.3 112.3 124.3 150.8 148.4 147.6 137 109.6 88.8 65.8 41.8 17.2 -1.3 -1.3 -1.3 -1.3 -1.3 -1.3 -1.3 -1.3 -1.3 -1.3 -1.3 -1.3 -1.3 -1.3 -1.3 -1.3 -1.3 -1.3 -1.3 -1.3 -1.3 -1.3 -1.3 -1.3 9.1 39.6 87 99.8 109.3 109.4 108.2 119.2 127.3 137.3 134.9 128.5 123.9 124.3 120.9 116.8 110.9 97.3 91.7 90.6 92.7 89.9 89.6 92.6 89.5 80.9 62.6 36.4 14.7 12 9.7 9.4 9.7 12.9 19.6 24.4 35 50.2 56.5 61.6 59.4 58.3 57.8 61 67.5 68.9 74.2 86.4 94.8 102.7 118.5 130.4 140.7 148.4 156.5 167.5 175.3 180.8 179.6 173.9 175.5 179.7 184.4 191.2 200.7 212.2 219.9 231.3 244.5 257.5 260.3 259.5 259.6 258.9 256.5 251.8 243.3 234.9 230.5 234.6 243 251.2 260.8 271 283.4 298.3 309.6 323.4 338.4 353 368.2 385.9 405.2 421.6 435.9 449.7 445.8 432.3 411.5 382.6 360.8 338.4 322.8 308.3 293.4 281.4 269.8 258.3 248.5 241.3 241.3 241.3 241.3 248.8 260.6 271.6 284.1 301.2 318.7 335 353.9 369.5 379.5 392.6 407.8 416.7 423.9 431 458.8 484.7 510.4 535.6 560.5 582.7 603.3 620.1 634.8 648 654.7 653.8 644.5 629.8 608 592.4 582.6 576 575 577.1 580 578.1 578.2 562.3 574.3 595.5 608 612.2 627.7
203.2 183.2 171.2 152 132.5 119.4 110.7 105 104.4 114.6 133.9 149.1 152.6 133.2 102.2 78.9 63.1 39.2 14.7 -1.3 -1.3 -1.3 -1.3 -1.3 -1.3 -1.3 -1.3 -1.3 -1.3 -1.3 -1.3 -1.3 -1.3 -1.3 -1.3 -1.3 -1.3 -1.3 -1.3 -1.3 -1.3 -1.3 3 23.9 44.8 79.1 99.2 109.2 106.6 118.8 124 125.6 131.7 135.9 133.3 128 122.3 119.6 115.6 110.9 102.2 95.2 84.4 86.9 85.8 86.4 87.9 85.4 78.2 65.9 41.1 14.7 9.8 8.6 8.7 10.3 12.6 18.6 22.1 30.2 46.5 50.1 57.2 55.1 53.5 52.8 56.4 61 62.5 69.3 82.1 93.5 102.7 113.4 126 135.2 143.3 152.4 166.9 174.9 179.9 179 172.3 174.3 178.9 186.1 192.8 201.8 210.7 217.3 226.7 239.9 250.6 256.7 256.8 255.4 254.3 252.6 249.2 243.1 236.8 230.8 231.4 238.9 246.2 254.6 263.8 273.2 287.9 301.8 315.4 330.1 343.4 356.6 373 390.3 408.2 426 438 437.8 424.6 404.5 379 354.5 332.7 316.5 301.5 287.3 276.5 264.9 254.7 245.4 243.2 241.3 241.3 241.3 243.2 257.9 269.5 282.2 296.4 314.2 329.6 347.5 361.5 374 382 391.9 402.6 403 428.9 455 481 505.7 531.1 559.7 583.6 602.2 617.8 633.2 645.4 651.8 652.1 644.1 632.6 615.8 597.9 580.9 573.1 570.7 573.8 578.1 581.4 587.4 596.8 605.8 618.6 632.7 642.6 656.2
207.2 187.3 171.4 154 139 124.1 114.2 106.8 99 112.2 140.1 141.8 130.8 118.6 98.5 80.4 55.4 31.5 13.6 -1.3 -1.3 -1.3 -1.3 -1.3 -1.3 -1.3 -1.3 -1.3 -1.3 -1.3 -1.3 -1.3 -1.3 -1.3 -1.3 -1.3 -1.3 -1.3 -1.3 -1.3 -1.3 -1.3 12.6 32.7 50.6 80.4 96.1 99.3 101.9 123.5 126.3 128.4 129.1 132.1 137.1 131 124.9 119.4 116.1 108.1 100.7 100.7 82.3 83.3 81.5 79.2 78.2 79.6 72.4 62.7 44.8 18.5 8.4 8 8.7 10.2 12.1 15.9 20.4 25 29.4 41 46.2 49.1 49.9 49.5 50.9 55.8 57 63.6 77.5 90.8 100.7 111.4 120.8 131.1 140.2 150.2 160.5 173.2 176.8 176.9 171.3 174.3 179.8 190.3 197.7 203.3 208.7 214.4 222 236.2 246.9 253 253.9 251.8 250.1 248.1 246.1 242.5 237.1 229.1 229.3 234.9 240 247.8 256.3 265.2 276.9 291.4 307.4 321.2 334.5 348 362.5 378.4 396 413.7 422.5 426.6 416.4 397.2 372.2 347.8 326.8 310.9 295.2 282.9 271.6 261.8 252.2 242.6 233.2 233 243.5 241.3 243.1 255.4 268.1 279.9 292.3 310.3 324 339.3 352 362.2 367.5 383.4 379.1 394.4 421.3 440 471.5 501.3 533.9 560.1 582.6 599 614.6 630.2 639.2 646.2 647.8 641 629.7 616.3 599.8 585.7 574.3 568.8 567.8 572.3 578.9 585.4 595.1 605.1 616.9 631.4 644.5 657.3
210.8 197.3 175.3 158.7 138.8 123.7 115.2 101.8 97.6 111 150.8 137.1 119.1 103.3 88.7 75.4 49.6 33.7 22 -1.3 -1.3 -1.3 -1.3 -1.3 -1.3 -1.3 -1.3 -1.3 -1.3 -1.3 -1.3 -1.3 -1.3 -1.3 -1.3 -1.3 -1.3 -1.3 -1.3 -1.3 -1.3 -1.3 25.6 42.6 57.3 81.1 88.9 89.5 110.3 122.3 128.4 132.3 131.9 136.2 139.7 130.2 126 123.1 114.2 104.8 97.1 96.7 86.4 80.4 75.3 72.5 68 69.5 62.2 56.5 44.8 24.2 7 6.8 8.1 9.7 13.4 18.2 18.3 20.6 26.4 38.5 43.7 45.5 45.3 46.9 43.8 57.1 57.8 59.8 74 87.5 97.4 106.2 115.2 125.6 136.2 144.8 153.5 167.1 170.8 172.5 172 174.6 180.3 191.7 201.1 207.1 212.2 216.7 221.4 232.7 244.9 250.4 251.8 250.9 248.5 245.9 243.9 241.4 237.1 230.3 220.1 228.5 234 240.5 249.1 258.4 269.7 282.3 298.2 312 325.6 339.3 353.1 367.9 384.5 400.9 410.2 415.2 408 389.5 366.6 342.1 321.3 305.5 289.7 278.2 265.7 253.6 244.5 237.7 229.2 220.3 233.4 239.3 245.6 254.3 266.1 277 289.9 303.8 317.5 331 339.5 347.3 360 364.9 383.7 400.9 420.1 447.4 478.8 506.4 532 557.5 578.5 595.5 610.9 623.3 632.9 640.7 640.4 632 622.1 610.8 598.5 586.5 574.4 562.8 560.6 566.6 572.1 578.6 587.9 597.3 609 622.8 636.1 650.5
221.4 197 176.9 158.3 142.2 125.6 115.9 97.9 92.5 107.2 144.4 137.1 118.5 100.6 88.6 72.4 47.1 31.5 17.4 -1.3 -1.3 -1.3 -1.3 -1.3 -1.3 -1.3 -1.3 -1.3 -1.3 -1.3 -1.3 -1.3 -1.3 -1.3 -1.3 -1.3 -1.3 -1.3 -1.3 -1.3 -1.3 -1.3 34.7 52.2 67.9 87.5 89.3 95.1 117.6 126.3 130.7 134.4 140.5 139.7 138.5 135 132.3 121.8 111.9 101.6 96.7 90.1 92.5 83.7 69.7 64.6 57.6 57.9 53.3 47.9 37.9 25 12.5 7.5 7.4 8.5 19 20.5 16.1 18.9 23.5 33.6 39.3 41 40.5 41.6 43.8 54.9 61 68.1 72.5 84.4 95 101.9 110.5 123 132.1 139 148 158.6 168.4 172.1 169.4 174.6 180.8 190.2 200.5 207.9 214.2 219.3 223 231.4 241.4 245 248.5 248.6 245.5 243.5 241.8 239.8 235.5 228.3 220.9 221.2 227.3 233.4 242.5 251.7 263.4 274.3 288.7 302 315.6 329.3 343.2 357.1 372.3 387.4 397.3 400.7 396.9 380.4 359.2 336.4 315.7 300.1 285 272.5 259.9 248.2 239.1 232.4 222.3 221 231.8 235.6 243.8 254.6 264.4 275.5 287.7 300 308.2 319 326 330.4 354.4 372.2 386.3 400.1 417.9 445.6 475.6 504 529.7 555.1 575.9 592.7 604.9 616.1 625.6 630.9 630.9 620.3 611.7 603.6 592.3 580.4 568 556 551 557.6 562.3 569.5 577.8 587.5 598.9 612.5 624.7 637.3
219.4 202.6 183.4 163.2 146 125 110.3 95 87.9 101.8 139.4 131.2 110.2 94.3 83.7 72.2 52.4 17.7 6.5 -1.3 -1.3 -1.3 -1.3 -1.3 -1.3 -1.3 -1.3 -1.3 -1.3 -1.3 -1.3 -1.3 -1.3 -1.3 -1.3 -1.3 -1.3 -1.3 -1.3 -1.3 -1.3 11 46.5 62.2 76.9 99 102.3 115.2 131.5 139.5 138 139.6 149.3 149.8 145.8 135.7 132 122.3 116.7 103.9 98.1 96.8 93.3 79.7 63.9 53.3 47.5 48 44 37.7 30.4 23.2 12.7 6.4 5.8 7.1 18.8 19.7 15.2 15.3 19.6 27.9 35.2 37.3 37.8 41.2 44.9 55.4 65 69.6 75 85.5 92.7 100.3 107.5 116.5 126.7 136 144.3 158 166.8 169.3 164.6 171.8 181.7 189.3 199.8 206.9 212.9 219.9 223.9 228.2 235.3 241.6 243.9 244.8 243.1 241.4 239.6 237 233 226.6 221.5 216 221.6 228.7 237.3 244.8 255.5 266.2 279.1 292.4 305.6 319.4 332.9 346.4 360.7 372.9 383.3 387.7 385 370.4 352.9 331 310.4 294.5 277.9 266 253.5 240.5 230.2 223.2 208.9 215.7 226 228.2 234.4 253.5 262.5 259.7 269.1 281.2 290.3 304 314.2 330.9 352.2 365.8 381.3 394.6 412.7 439.5 470.7 500.2 527.2 551.7 569.9 586.3 597.4 608.4 614.7 618.5 614.5 607.6 602.8 593.8 581.4 572.5 558.3 545.3 540.9 544.5 548.8 555.2 564.3 575.4 587.9 599.7 609.8 621.4
223.7 199.1 183.2 162.3 143.5 128.6 113.9 96.3 80.6 100.3 119.9 129.6 114.2 88.4 67.8 62.3 41.6 13.3 -1.3 -1.3 -1.3 -1.3 -1.3 -1.3 -1.3 -1.3 -1.3 -1.3 -1.3 -1.3 -1.3 -1.3 -1.3 -1.3 -1.3 -1.3 -1.3 -1.3 -1.3 -1.3 -1.3 21.4 54.6 70 82.5 110.5 113.5 129.8 138.7 144.3 144.8 148 152 149.9 146.4 137.4 130.6 121.1 113.4 105.3 98.7 96.3 87.8 74.6 60.1 49.9 40.6 38.2 34.4 28.1 22.4 18.8 10.8 5.1 4.3 5.8 10.8 14.7 13.8 14.1 15.4 20.3 29.8 33.9 37.3 42.3 48.9 59.9 70.7 77 78.6 85 91.5 98.3 105.3 113.3 123.4 133.4 142.9 156.4 164.2 168.9 164.9 170.9 183.4 191.7 200.3 205.3 211.3 217.6 221.7 225.9 232.6 237.5 239.3 242.3 240.2 239.1 236.6 234 230.7 225.4 220 212.2 216.5 224.1 230.5 236.9 247.4 258.9 270.5 283.2 295.9 308.8 322.1 335.6 349.4 360.6 369.6 375.2 373.3 363.5 345.5 326.1 306.2 287.6 271.3 259.3 247 231.6 205.3 199.5 202.7 211.7 219 224.9 239.3 249.6 254.2 272.3 286.4 296 307.6 318.6 326.1 336.7 355.5 370.8 385.7 399.2 420.4 437.7 468.6 498.5 525.4 545.6 564.2 578.2 590.5 600.8 605.4 602.9 600.8 594.6 587.5 576.3 565.5 556 548.3 534.6 529.2 531.5 533.7 541.3 550.6 560.7 572 582.2 593.3 605.2
221.6 199.8 180.2 162.6 149.8 135.4 114.8 93.8 77.4 78.4 111.3 125.7 108.9 87.5 66.8 51.2 30.5 -1.3 -1.3 -1.3 -1.3 -1.3 -1.3 -1.3 -1.3 -1.3 -1.3 -1.3 -1.3 -1.3 -1.3 -1.3 -1.3 -1.3 -1.3 -1.3 -1.3 -1.3 -1.3 -1.3 3.8 30.6 52.2 81.8 94.1 111.7 117.2 141 140.2 148.4 152.8 155 159.7 154.9 147.4 139.6 132.2 119.1 108.7 100.2 97.7 94.2 80.5 69.6 61.6 50.5 41.5 31 25.9 20.7 14 10.2 8.6 5.1 3.4 4.9 8.5 10.6 11.7 12.3 13.3 14.7 22.7 30.8 39 47.7 53.9 62.8 75.1 87.4 88.5 87.3 91.5 96.8 103.9 111.4 120.3 130.3 140.2 153.1 160.5 163 155.7 171.5 186.4 192.1 203.1 204.4 210.4 215.4 219.6 223.7 228 232.2 236.4 239.3 239.8 236.2 233.4 230.7 227.5 222.4 217.5 207.8 212.4 218.2 224.6 229.6 239.5 250 261.8 274.2 286.3 298.6 311.2 324.9 337.4 348.6 358.6 364.4 362.1 354.3 340.1 318.5 299.8 281.8 266 254.4 242.9 229.2 203.6 207.2 211.9 219.2 225.4 235 244.8 254.5 264 276.8 289.6 301.6 313.2 321.5 331.7 351 368.4 384.8 402.5 418.4 429.7 445.8 472.1 499.3 522.6 545.6 561.6 574.1 584.7 592.6 595.6 593.4 588.8 581.2 573.2 562.8 553 546.3 537.7 522.9 515.4 517.1 521.5 526.8 534.6 543.8 555.6 565.9 576 586
226.1 206.8 181.9 175.1 156.1 137 115.3 90.8 72.6 66.4 101.9 115.2 101.2 85.1 47.1 39.4 13.2 -1.3 -1.3 -1.3 -1.3 -1.3 -1.3 -1.3 -1.3 -1.3 -1.3 -1.3 -1.3 -1.3 -1.3 -1.3 -1.3 -1.3 -1.3 -1.3 -1.3 -1.3 -1.3 -1.3 12.6 43.6 70.3 90.5 108.2 121.2 123.3 141.5 151.1 156.8 162.8 163.7 158.8 153.5 146.6 139.2 133.3 125 117.1 101.3 93.4 90.4 81.3 75 67.3 52.2 36.4 26.8 17.9 12.3 9.2 6.8 -1.3 2 2.7 4.6 6.3 7.4 8.9 11.8 13.2 10.6 18.6 27.8 38.6 49.5 54.7 64.5 77.9 91.8 90.1 88.2 91.8 95.3 102.5 109.7 117.2 125.6 134.2 147.3 156.5 156.9 154.5 169.2 182.6 189 199.1 202.2 208.9 211.3 215 218.9 223 227.3 231.8 235.9 235.3 233.3 230.5 227.6 224.1 220.3 215.6 210.4 208.2 213.7 218.1 222.5 231.5 241.7 252.6 264.6 276.8 289 301.3 313.9 326.2 337.2 346.3 352.5 349.6 344.8 334.3 312.2 294.7 276.6 261.6 250.1 238.6 227.1 209.3 200.3 215.4 223.4 228.2 235.9 244.7 255.2 266 279.7 296.3 306.8 315.7 324.5 342.6 365.9 383.2 400.3 417.9 434.6 448.3 458.9 479.1 501.3 523.6 544.4 559 570.3 579.7 585.2 586.8 582.9 572.3 565.4 555.3 544.1 537.9 533.6 523.2 508.5 504.7 502.8 507 512.5 519 529.6 539.6 549.9 559.6 569
233.9 207.7 192.2 172.1 154.1 134.5 117.1 90.2 69.2 57.3 103.4 106 91.9 63 31.4 14.4 -1.3 -1.3 -1.3 -1.3 -1.3 -1.3 -1.3 -1.3 -1.3 -1.3 -1.3 -1.3 -1.3 -1.3 -1.3 -1.3 -1.3 -1.3 -1.3 -1.3 -1.3 -1.3 -1.3 11.8 39.9 60.9 85.9 100.2 119.5 132.4 131.6 149.6 157.1 172 171.2 170.7 161.8 156.3 146.1 140 137.8 136 125.5 101.9 89.2 87.9 80.2 77.1 66.3 50.9 35.4 24.8 14.3 7.3 6.3 -1.3 -1.3 3.3 2 3.5 4.4 5.3 6.1 9.2 9.6 9.6 15.4 28.4 39.8 52.8 58.8 68.1 78.4 89.7 91.5 89.9 92.9 94.6 100.5 107.6 112.8 120.5 130 141.9 152.6 151.6 147.9 164.8 176.6 185.3 192.3 196 203 206.3 209.8 214 218.1 222.3 227.3 232.1 231.7 230.5 227.7 224.9 221.9 218 213.6 208.8 201.9 207.4 211.3 215.6 223.9 234.5 244.7 255 267.3 279.7 292.1 303.5 313.8 324.8 334.5 340.9 340.9 336 324 306.7 287.8 271.5 257.4 245.8 234.2 222.2 199.3 199.7 210.8 218.2 226.7 235.3 244.9 255.9 266.4 281.9 298.7 311 321.7 333.7 353.5 374.8 393.5 414.4 432.6 450.2 468.9 478.5 488.6 506.7 525.3 544.2 557 566.4 574.8 577.4 575.6 568.1 554.3 546.2 537.3 523.7 522.2 515.5 507.2 496 492 487 492.1 497.8 504.2 514.1 523.9 533.6 543.2 552.5
228.8 212.9 192.1 170.9 151.6 131.5 109.6 87.3 66.9 50.7 90.7 94.8 72.7 40.9 14.2 -1.3 -1.3 -1.3 -1.3 -1.3 -1.3 -1.3 -1.3 -1.3 -1.3 -1.3 -1.3 -1.3 -1.3 -1.3 -1.3 -1.3 -1.3 -1.3 -1.3 -1.3 -1.3 -1.3 9.8 42.3 57.8 77.4 99.5 116.1 131.5 142 137.7 158.3 169.5 175.4 174.9 172 161.1 156.5 149.7 140.4 139 131.4 120.9 102.7 89.3 84.6 79.1 74.7 64.4 49.3 35.5 23.1 14.2 5.5 4 -1.3 -1.3 1.2 1.2 1.6 1.8 1.8 3.1 5.2 5.1 9.1 14.8 28.7 42.5 52.2 62 70.6 80.4 87.3 91 90.6 95 94.8 99 105.6 111.5 117.9 126.6 134.5 145.6 144.8 150.6 160.1 171.1 180.5 188 194.6 199.7 203.7 206.4 209.5 213.2 217.7 222.3 227.7 229.8 228.6 225.8 223 220 215.5 211.2 206.2 201.9 198.9 204.9 210.3 216.8 227.2 237.2 247.1 257.7 269.8 282.2 293.2 302.4 312.4 323.1 329.1 330.7 326.1 314.9 299 280.5 264.9 253 241.3 228.9 216.8 198.8 193.9 205.1 214.7 224.2 233.9 244.9 256.1 271.2 286.2 301.9 313.9 327 344.3 364.8 383.5 405.4 426.9 447.4 466.1 482.4 490.9 501.2 515.3 528.8 543 553.2 561.5 567 566.2 560.2 551.5 536.6 527.4 520.1 512.7 505.7 498.5 490.8 483.2 477 473.8 476.5 481.8 489.3 499.5 510.2 520.2 529.9 538.3
227.9 206.3 188.2 168.1 146 128.2 105.5 80.5 58.7 40.2 75.4 76.1 62.2 29.4 6.1 -1.3 -1.3 -1.3 -1.3 -1.3 -1.3 -1.3 -1.3 -1.3 -1.3 -1.3 -1.3 -1.3 -1.3 -1.3 -1.3 -1.3 -1.3 -1.3 -1.3 -1.3 -1.3 -1.3 26.7 53 66 85.9 107.8 123.6 145.8 159 145 158.3 176.6 176.1 171.8 170.2 161.3 155.3 148.9 140.6 133.5 124.9 114.9 98.4 92.1 86.6 81.8 75.6 66.9 50.2 35.1 24.6 7.6 2.6 0.5 -1.3 -1.3 -0.6 0.2 0.8 1 1.2 1.7 3.7 -1.3 7.9 15.3 30.6 44.2 55.1 66.8 75 84.2 87.5 90.2 91.7 94.4 96 97 100.8 109.8 115.5 123.2 131.3 139.7 132.8 147.7 154.9 166.4 175.9 183.5 191.3 196.8 200.4 203.2 206 209.4 215 220.5 226.3 227.3 226.8 224.6 222.4 218.5 213.8 208.5 203.2 199.3 192.6 200.3 204.5 209.7 219.1 228.6 239.4 250.1 260.5 272.3 282.8 292 301.2 310.9 317.1 319.7 315.9 305.3 291.4 274.7 260.5 247.9 236.6 226.1 214.2 200 189 205.8 217.4 223.8 233.7 245.2 258.5 273.7 289.1 304.7 317.3 331.9 350 370.1 393.2 417.2 439.7 459.7 479.3 492.1 505.5 518 522.7 532.2 541.7 549.1 554.6 556.6 550.3 539.7 528.1 516.5 504.7 502.4 497.4 491.1 484.5 477 469 463.4 459.8 459.7 467.2 475.3 485.7 495.2 507.4 516.8 524.9
218.7 200.6 180.5 158.9 137.9 123.2 103.4 78.2 53.5 39 60.7 51.5 35.2 22.2 -1.3 -1.3 -1.3 -1.3 -1.3 -1.3 -1.3 -1.3 -1.3 -1.3 -1.3 -1.3 -1.3 -1.3 -1.3 -1.3 -1.3 -1.3 -1.3 -1.3 -1.3 -1.3 -1.3 18.5 54.1 65 83.2 91.2 109.1 130.4 147.2 164 151.2 159.4 180.2 178.5 169.1 169.1 161.5 155.6 150.8 143.8 133 120.7 108.6 97.2 93.2 87.4 81.9 77 66 48.4 34.9 21.2 7.5 1 -0.1 -1.2 -1.3 -1.3 -0.7 0 0.1 0.2 0.7 1.3 -1.3 5.9 13 28.8 43.4 59.1 69.9 79.3 86.3 88.3 89.9 91.7 94.1 96.6 96.2 100.4 105.8 112 120.3 126.1 129.2 135.9 142.9 149.2 161.6 170.5 178.8 186.5 192.8 196.5 200.2 203.3 205.9 212 218 222.6 224.5 224 224.9 220.1 216.2 206.4 202.9 199.9 195.9 189.6 194.2 198.5 203.8 211.9 220.6 231.8 242.5 252.8 263.2 271.9 280.3 288.8 297.4 304.5 308.3 304.4 293.8 282.5 268.5 253.8 241.7 231.3 220.9 210.9 196.6 189.7 206.2 216.3 222.6 233.7 245.6 260.1 275.4 291 306.8 321 336.2 357.6 381.2 403.4 429.6 451.1 471.1 491.3 503.2 520.1 524.6 528.6 534.3 540.9 545.8 542 539.8 528.8 512.4 504 495.5 483.8 484.8 478.3 475 470.7 463.2 453.6 448.9 440.8 442.6 452.7 462.3 471.7 480.8 492 505.1 511.5
206.7 188.5 167.5 151.9 137.1 119.6 99.9 74.2 47.3 28.8 43.3 41.3 36.3 19.6 -1.3 -1.3 -1.3 -1.3 -1.3 -1.3 -1.3 -1.3 -1.3 -1.3 -1.3 -1.3 -1.3 -1.3 -1.3 -1.3 -1.3 -1.3 -1.3 -1.3 -1.3 -1.3 -1.3 36.3 59.7 76.1 91.7 98.8 115.9 135.9 149.2 159 152.1 160.5 175.5 171.3 169.7 166.4 160.8 156.5 152.5 147.4 135.4 121.4 110 100.8 96.9 88.1 79.1 72.3 61 47.7 32.2 17.2 4.5 1.1 0 -1.2 -1.3 -1.3 -1.3 -0.7 -1.3 -1.3 -0.2 -1 0.9 4.4 11.7 28.5 42.9 59.3 71.8 80.6 87 89 89.9 91.6 94 94.1 94.8 98.1 103.3 110.1 115.6 121.3 121.4 133.4 139 145.4 156.5 167.6 174.7 182.1 189 193.6 197.1 200.8 203.6 207.4 214.9 221.6 221.1 220.4 222.8 218.4 213.8 208.1 203.4 199.7 194.7 186.5 186.4 192.9 198.6 206.5 214.5 223 233.9 244.1 252.9 261.5 269.9 278.2 285.7 293 296.3 292.3 284.1 274.4 263.4 249 236.6 226.5 216.4 206.3 191 189.8 204.4 213.9 221.6 233.2 246.1 260.9 276.9 293 309 324.8 339.9 364.1 388.8 414.2 439.6 461.1 484.2 504.3 514.4 523 529.4 534 538.6 540.9 539.3 528.3 517.2 506.3 492.7 483 475.9 464.7 460.4 460.5 456.3 453.3 447.7 437.3 430.4 425.1 431.2 441.2 451.5 459.8 468.8 479.7 491.1 496.3
192.4 175.5 165.4 147.8 133.9 118.8 95.8 71.7 44 24.6 37.4 30.5 18.7 4.6 -1.3 -1.3 -1.3 -1.3 -1.3 -1.3 -1.3 -1.3 -1.3 -1.3 -1.3 -1.3 -1.3 -1.3 -1.3 -1.3 -1.3 -1.3 -1.3 -1.3 -1.3 -1.3 -1.3 54.6 69.8 92.1 104.4 114.1 130.2 139.3 146.5 151.8 154.6 165.4 178.7 175.9 169.5 168.2 164.5 159.8 155.1 149.1 139.7 128.9 118.9 108.4 97.5 85.8 73.6 66.5 54.9 41.9 26.8 12.4 5.3 1 0 -1.1 -1.3 -1.3 -1.3 -1.3 -1.3 -1.3 -1.3 -1.3 0.1 1.8 10.5 29.2 44.5 61 75.9 83.1 88.5 89.5 90.5 92 93.1 93.9 93.7 97.3 100.8 106.5 110.7 113.7 119.5 129 135.1 140.2 151.3 162 177.1 182.7 185.2 189.9 193.6 197 199.5 203.6 210.3 218 216.6 218.2 220.3 219.9 213.8 209.1 203.5 198.9 191.2 187.9 178.1 184.5 192 198.7 207.6 216 224.8 233.6 242.4 251.1 258.7 266.4 274 281.2 283.5 282.3 274.2 266.2 257.4 242.6 232.4 222.3 211.3 201.2 186.8 192.9 205.7 213.1 221.4 231.6 245.3 263.1 278.4 294.6 310.7 326.8 347.8 372.1 396.1 423.3 446.7 470.5 495 513.1 524.7 530.6 534.1 537.1 540.7 535.5 530 512.8 493.3 483 474 462 453.5 443.7 435.6 436.4 437.8 434.2 428.8 422.3 418 410.1 420.8 429.8 439.3 449.7 458.5 469.1 472.9 485
184.4 169.9 158.2 144.7 129.7 117.2 88.8 66.3 37.3 18.9 32.4 26.2 11 4.1 -1.3 -1.3 -1.3 -1.3 -1.3 -1.3 -1.3 -1.3 -1.3 -1.3 -1.3 -1.3 -1.3 -1.3 -1.3 -1.3 -1.3 -1.3 -1.3 -1.3 -1.3 -1.3 19.9 58.4 80.2 101.5 113.6 124.6 145.4 147.2 150.3 155.6 159.6 173.5 181.3 177.5 172 169.4 167 159.7 156.6 156 145.7 133.5 122.5 115.1 101.4 81.9 67.7 59.5 47.9 35.5 22.3 12.4 6.5 0.6 -1.3 -1.3 -1.3 -1.3 -1.3 -1.3 -1.3 -1.3 -1.3 -1.3 -1.3 1.4 8.3 26.9 47 62.5 77 85.3 89 90.5 91.6 94 94.7 94.6 91.9 95.4 99.3 102.9 106.3 111.3 115.6 123.1 129.4 136.2 144.7 156.7 173.3 178.7 180.3 184.6 189.3 192.8 196.5 200.9 205.6 212.6 215.6 216.4 217.5 217.6 214 207.7 202.3 196.1 189.7 183.1 180.7 175.6 187.7 194 200.9 208.8 217.1 225.7 234.3 242 248.3 255.1 262.7 268.6 272.4 270.8 264.9 257.8 250.6 236.4 227 217.5 208 196.8 181.6 196.7 206.5 212.6 219.7 231.9 246.1 264 280.3 296.2 315.6 334.2 355.9 377.2 401.2 427.4 451.4 476.3 501.3 523 532.9 538.3 537.7 538.1 540.8 534.9 526.8 498.5 478 469.3 458.4 443.9 434.6 426.3 422.9 420.1 416.3 413.7 413.1 409 405.4 401.9 404.1 412.1 424.4 435.1 442.7 454.5 459.7 472
167.9 160.9 146.2 135.9 119.8 99.7 82.5 57.6 32.7 13.4 14.2 14.1 10.6 -1.3 -1.3 -1.3 -1.3 -1.3 -1.3 -1.3 -1.3 -1.3 -1.3 -1.3 -1.3 -1.3 -1.3 -1.3 -1.3 -1.3 -1.3 -1.3 -1.3 -1.3 -1.3 -1.3 34.5 58.6 81.2 107.4 123.4 134.3 152.9 152.4 159.4 166.1 167.9 180.7 185.9 184.8 176.2 170.5 166.7 159.8 156.8 155.8 146.5 136.5 125.3 120.4 106.9 86.9 70 57 42.8 32.4 22.4 13.9 7.3 0.3 -1.3 -1.3 -1.3 -1.3 -1.3 -1.3 -1.3 -1.3 -1.3 -1.3 -1.3 1.2 8.3 27.5 49.1 63.8 75.9 85.6 89.1 91.5 92.9 95.9 96.2 93.7 89.4 92.7 95.8 98 101.4 104.2 105.9 115.7 124.9 132.8 138.2 152.3 167.3 173.9 176.1 180 184.9 189.5 193.7 198.1 202.9 211.5 212.1 214.1 216.4 215.2 211.7 206 199.6 193.4 189.3 184.1 176.4 174.9 182 187.7 193.5 200.9 209.3 218 225.7 233.5 240.1 246.4 252.5 257.2 260.8 259.4 255.7 249 241.1 229.7 220 210.6 201.6 194.7 181.3 190.2 202.7 211 221.5 233.5 247.4 264.2 281.1 298.2 317.7 337.6 359.2 381.9 405.8 432.1 456.2 481 507.3 526.5 539.3 541.3 540.2 540 540.2 535.1 517.3 485 467.8 457.5 444.5 432.9 423.1 414.2 409.3 405.7 402.1 401.2 399.3 399 394.3 397.6 412 427.5 438.2 444.9 450.3 460.6 472.9 490.5
151.5 142.9 132.3 120 106.8 98.9 74.7 50.4 27.6 12.7 7.2 9 11.4 -1.3 -1.3 -1.3 -1.3 -1.3 -1.3 -1.3 -1.3 -1.3 -1.3 -1.3 -1.3 -1.3 -1.3 -1.3 -1.3 -1.3 -1.3 -1.3 -1.3 -1.3 -1.3 7.1 35.6 62.1 89.7 118.2 134.8 140.9 158.1 158.9 170.5 172.7 174.1 190.4 196.2 192.3 183.2 173.4 165.7 158.4 156.2 152.9 144.2 135.6 127.4 121.9 108.8 89.3 73 56.1 41.9 36.3 27.1 15.5 8.1 0.3 -1.3 -1.3 -1.3 -1.3 -1.3 -1.3 -1.3 -1.3 -1.3 -1.3 -1.3 1.2 7.4 29.2 52.7 64.7 77.4 85.4 90.7 92.4 94.6 103.2 96.1 93.9 87 88.6 91.4 93 96.4 99.9 100.6 110.8 118.9 127.4 133.9 147.6 162.1 170.9 171.9 176.7 181.5 186 190.7 195.3 200.8 206.1 211.4 210.9 214 214.4 210.7 204.1 200.3 192.7 185.5 180.1 174.7 170.4 176.2 181.7 187.3 193.4 201.5 210 216.6 224.9 232 237.9 243.7 247.7 249.8 248.8 245.4 241.2 233.3 223 213.1 204.4 197.6 190.7 181.4 180 200 209.8 220.3 232.1 246 265.8 282.8 299.7 318.5 340.3 362.2 384.1 408.7 435.9 460.5 485.5 509.7 527.3 539.2 542.7 543.8 542.5 536.6 529.3 508.8 474.4 456.8 445.2 431.5 421.2 412.1 403.3 397 393.7 388.4 389.4 388 382.5 389.9 406 421.9 436.8 449.4 458.3 469.3 480 492.7 505.2
