ncols 200
nrows 83
xllcorner 260000
yllcorner 580250
cellsize 50
83.8 86.9 86.4 85.8 83.4 82 80.7 78.2 80 81.5 80.9 78.8 80.9 82.9 86.9 91.1 91.6 91.6 91.3 101.2 104.6 103.4 99.4 96.2 94.4 103.4 108.8 112.8 115.1 118.5 124.4 131 136.1 142.6 148.4 151.2 149.8 147 144.2 144.6 143.8 141.3 141.5 145.5 145.6 148.9 149 150.6 151.3 151.8 153.1 154.7 153.1 153.1 151.5 147.3 149.3 154.5 154.4 154.1 155.3 159 158.7 158.9 162.1 158.6 170.7 177.8 176.8 173.2 173.3 172.5 173.4 174.5 177.2 179.1 178.9 180.4 189.1 199 203.6 200.9 198.7 205.1 210.7 213.6 214.6 217.3 219.6 221.8 227.9 229 238.5 244.7 251.2 258.3 261.6 257.9 254.2 251.3 248 246.6 245.5 241 238.3 234.8 229.8 229 227.2 227.8 227.6 225.4 224.4 224.2 223.5 220.6 218.2 218.5 214.6 216.3 215.6 220.2 225.9 232.3 236.5 241 243.7 251 257 262.7 268.9 266.3 270.6 274.8 279.9 287.7 291.3 289 283.8 285.2 286.4 284 282.1 278.4 273.9 269.3 265.5 259.7 249.4 240.7 232.6 226 225.3 228.7 239 248 254.9 260.6 264.2 269.8 274.3 273.4 271.8 270.4 268 261.9 256.8 252.1 247.2 241.1 238.5 236.1 233.7 234.3 238.7 243.7 245.2 245.7 243.6 240.6 239.4 237.7 238.5 240.1 243.5 243.3 238 229.6 219.6 220 222.3 226.1 229 229.1 228.7 228.4 226.3 225.1 223 224.9
92.3 92.4 95.6 91.5 86.9 83 82.2 80.3 78.2 78.1 76.2 75.6 80.4 82.4 83.5 84.3 89.1 89.5 89.8 90.2 95.7 101.3 99.6 95.1 94.5 102.5 106.3 114.3 116.9 117.4 121.4 127.3 133.4 139 145.5 147 145.8 144.8 143.8 142.9 142.1 141.1 139.4 137.9 141.9 143.5 144.7 150.2 148.7 150.8 150.8 151.9 150.8 148.7 145.8 153.2 157 159.3 163.8 165.3 165.4 167.3 170.4 171.6 167 167.2 168.6 173.4 176.9 173.7 173.2 173.2 173.6 174.7 176.9 178.5 178.4 178.1 183.1 192.4 198.5 198.2 196.3 202.7 208.9 212.7 214.4 216.9 221.1 222.4 228.8 234.8 240.2 247.7 253.1 260 264.2 256.9 257.6 256.3 252.2 250.7 251.3 246.4 243.8 237.6 232.6 230.9 227.7 225.8 224.2 223.3 223.1 223 221.8 219.9 218.7 216.5 215 213.3 219.6 226.3 231.7 235.3 239.8 242 244.3 250.1 256.3 261.5 267.4 266.2 268.1 271.8 278.2 284.5 289.9 289.1 288.8 289.2 288.9 287.4 285.4 281.7 277.3 271.9 266.7 261 256.1 248.9 236 227.9 225.6 230.1 240.7 248.9 253.6 258.8 264 270.4 278.6 278.2 275.9 273.5 267.9 262.9 258.1 254.6 248.8 242.1 240.3 237.6 233.9 231.5 232.9 237.3 239.3 238.5 237.1 236.1 235.8 236.9 236.9 239.4 241.7 239.9 234.9 227.4 220.2 222.2 229.7 228.6 229.5 231 230.8 228.7 225.7 224.2 225.3 228
99.2 97.5 94.5 89.4 88.3 81.6 84.7 84.2 83 81.6 81.5 80.7 76.5 79.8 80.4 80.7 82.2 85.4 88.1 87.7 88.8 92 95.2 93.4 93.8 99.5 101.6 107.4 114.4 116.7 119.3 124.6 129.8 135.3 139.3 142.4 146.3 147.5 145.7 141.6 137.6 139.6 138.8 137 138 140.6 145.7 145.4 145.8 148.5 149 149.4 146.1 143.5 151.5 156 160.8 167.5 171.3 172.7 175.1 175.3 178.3 181.1 179.5 175.2 171.1 170.8 171.4 172.1 172.8 173.6 173.3 175.2 179 178.4 176.1 176.9 179 184 191.8 193.1 190.8 198 204.6 209.8 213.9 217.9 221.4 224.4 229.9 235.8 240.6 245.8 254.5 259.1 261.7 259.6 262.1 258.8 255.4 253.3 252.2 249.2 245.1 239.3 235.7 232.9 228.4 225.9 224.8 224.1 222.9 221.4 220.8 217.7 217.1 215.3 213 216.8 225.5 232.7 236.1 239.3 242.5 245.5 246.5 248 253 258.8 263.5 264.7 266.3 271.2 277.5 282.5 289.8 292 291.4 293.2 292.7 290.9 287.5 283.1 279.2 273.8 269.4 268.3 262.6 252.7 241.3 232.3 225.9 233.2 240.9 247.7 252.4 256.4 261.6 267.3 276 276.1 274.5 270.9 267.7 263.7 258.7 253.8 248 243.8 244 239.5 233 229.3 229.9 230.3 231.3 232.3 233.6 235 235.9 236.4 236.4 237.7 238.5 235.2 229.2 224.9 224.2 231.5 230.8 230.4 230.4 231.8 233.3 229.2 225.9 226.1 227.8 229.5
110.4 103.3 95.1 88.7 88 86.4 88.5 89.4 88.9 87.3 89.4 83.7 79.2 75.1 80.7 80.2 80.5 82.7 85.5 88.6 88.5 88.6 91.3 94.1 93.2 99.7 100.6 103.7 111.7 114.1 116.5 121.3 126.6 128.8 134.4 139.2 146 144.2 144.6 142.4 138.5 136 136.4 135.5 136.4 135.4 139 141.4 144.3 147.4 147.1 147.3 142.8 153.5 154.8 160.6 166.7 174.1 177.1 180.1 183.5 183.9 183.3 188.2 190.4 181.5 174.7 173.6 173.5 173.4 172.5 173.1 173.8 176.7 178.1 177.1 176.7 176.9 178.6 180.9 184.2 187.7 187.8 190.1 198.6 206.9 213.2 219.3 223.7 226.5 231 236.4 242.3 246.3 253.9 256.5 260.3 260.2 262.1 258.8 255.3 254.8 250.5 250.3 248.5 242.9 237.5 233 229.6 227.6 226.3 224.2 222.4 221.3 220 219.9 216.6 212.8 214.1 220.3 227.8 233.4 238.7 241.4 245 246.5 248.7 251.2 253.1 256 259.1 264.4 270.4 275.6 282 289 296.5 298 296.4 297.9 295.7 292.3 289.1 284.3 279 274.5 274.6 273.4 269.1 259.7 250.2 235.6 227.5 234.6 238.5 245.2 247.9 252.9 257.9 266.9 272.2 271.2 270.9 267.1 265.6 263.8 260.1 255.4 251.7 252.9 250.5 244 234 228.7 228.7 228 227.4 229.5 234.2 235.1 236.9 237.2 237.2 235.8 235.7 231.1 227.6 226.6 230.5 231.9 235.4 232.5 233.5 232.9 230.2 226.6 228.5 230.4 229.5 231.6
116.5 112.1 98.9 93.8 93.3 95.8 95.8 94.5 92.2 92.9 88.1 86.8 82.6 74.1 80.1 80.3 80 88.6 85.6 86.9 88.9 88.9 90.2 94.4 92.6 95 95.8 98.1 102.4 107.5 111.3 116.3 122.3 128.8 133.7 136.7 141 142.4 142 142.1 141.6 134.8 134.8 134.9 136.4 134 136.3 139.7 141 143.3 142.4 140.5 149.6 154.5 161.4 167.3 171.9 176.7 181.7 185.4 190.3 192.5 198.7 197.8 195.3 187.5 181.1 179.5 176.8 175.7 172.2 173.1 172.9 176.5 178.3 178 177.8 178.3 179.3 180.6 187.3 189.8 188.6 190.5 193 205.9 210 217.7 221.8 225.6 230.3 235.8 241.6 248.5 252.7 256 258 260.1 259.5 258.7 256.5 252.7 253.2 251 248.1 243.8 239.1 234.4 230.8 229.3 227.9 225.6 223.8 221.8 220.2 218 214.9 212.9 219.4 222.6 227.6 235.7 239.8 243.1 245.5 247.7 248.7 253.4 256.5 256.7 260.5 269 274.9 282.6 287.7 296.1 299.4 302.7 299.8 299 297 294.2 289.7 285.5 280 277.7 279.4 278.3 273.6 265.2 253.8 241 227.7 223.2 232.6 239.4 243.7 248.4 253.2 262.2 262.4 267.1 267.9 263.9 267.4 264.5 260.8 256.9 252.6 249.4 248 241.4 231.5 225.9 226.7 224.8 224.8 225 227.2 235.4 236.7 237.4 235.6 236.9 238.9 232.6 229.1 229.1 230.6 232.1 233.7 232.8 232.4 227.7 227.6 230.6 231.6 232.3 233 232.6
123.8 119.8 107.5 101.1 99.3 97 97.7 98.1 97.6 91.5 88.7 86 83.3 78.8 74.1 78 82.3 87.3 87.4 88.1 87.6 88.4 89.9 94.7 91.6 90.7 91.7 95.4 99 104.3 108.7 115.8 121.5 124.8 128.8 133.2 136.4 138.1 139.4 140.3 139.4 135.6 135.8 135 134.4 134.2 133.1 134.3 141.1 137.2 140.5 148.3 152.8 158.7 164.7 169.7 175.8 179.8 186.5 189.7 196 202.5 205.4 207.4 200.6 191.8 186 184 182.1 177.9 175.2 170.9 170.4 174.7 178.1 178.7 178.8 180.4 181 189.2 196.3 199.7 200.7 197.8 195.7 197.2 204 213.5 219.2 226.7 230 234.7 241.1 246.8 251.7 254 256 257.7 258.1 256.3 256.1 255.5 252.9 250.5 246.7 241.9 237.9 234.4 232.9 229.6 228.2 226 223.9 221 217.4 216.1 210.7 219.4 224.4 227.3 229.8 231.7 238.4 242.9 246.4 248.4 249.1 251.6 256.3 257.8 260.9 270.6 278.8 285.4 292.4 296.1 301.5 303.3 301.5 298.1 295.6 293.1 289.6 287.3 281.7 279.8 280.3 279.5 274.4 266.4 255.4 247.6 240.2 232 223.6 231.1 237.7 243.7 247.1 251 253.9 261.7 263.8 260.2 264.9 266.5 262.4 256.9 250.6 247.6 245.4 238.7 232.3 226 224.5 221.8 222.2 222.3 223.3 234.2 236.3 236.4 234.4 234 231.6 230.9 230.4 230.9 230.2 232.9 231.4 230.3 227.5 227.9 232.4 233.5 233.6 233.5 233.1 233.5
132.5 122.1 114 103.1 99.1 98 98.8 99.4 98.7 93.8 89.4 88.1 84.6 81.3 78.7 74.1 77.1 80.3 83 85.2 86 86.4 87.2 88.9 90.8 90.5 90.5 96.2 99.5 104 107.8 114.3 119.2 120.7 125.1 128.4 132 135.4 137.5 136.5 136.9 135.4 136.8 134.5 133.1 133.8 133.6 133.4 134.8 138.3 142.3 147.4 152.2 159.5 165.3 170.5 178.7 182.6 186.7 192.3 199.2 206.4 212.1 212.3 204.1 193 191.1 188 187.2 181.5 178.8 175.3 169.7 169.8 173.7 176.3 179.6 182.4 183.9 192.9 197.7 207.9 209.6 207 201.2 202.5 205.6 208 216.2 223.7 229.7 235.6 238.5 242.8 248 251.6 252.9 254.6 255.3 254.5 254.6 253.8 250.7 247.7 244.2 242.2 239.9 236.7 233.1 231.3 228.2 225.1 223.5 219.1 218.6 215.1 209.6 219 226.8 231.8 234.6 234.5 236.2 241 245.9 248.4 248.9 250.3 255.4 259 262.1 268.2 277.8 284.3 291.4 296.2 300.7 301.1 300.4 298.1 295.7 294.8 293.6 290.4 283.8 279.7 280.3 277.9 272.3 263.7 255.4 250.3 244.6 236.1 221.5 229.4 234.5 239.4 241.8 244.5 249.6 256.6 257.6 255.8 258.2 261.1 258.8 253.9 251 246.3 239.3 232.5 229.4 228.2 227.7 222.4 220.1 220.7 221.2 227.2 234.7 237.1 234.9 232.5 231.5 231.1 232.2 230.4 229.9 229.2 228.5 227.4 228.5 231 232.5 233.3 234 234 234.6 234.3
135.7 127 121.4 111.3 106.3 104.5 105.7 104.4 102.7 94.4 90.6 89.2 86.1 82.7 80.6 77.4 75.1 74.1 78.4 82.7 83.9 87 86.8 85.2 85 89 90.1 94.7 96.5 100.7 103.6 107.6 113.4 118.2 121.6 124.8 127.4 132.2 133.5 133.7 133.7 133.7 132.5 131.3 131.8 131.1 133.6 132.9 132.6 137 142.5 145.3 152.3 156.8 163.8 169.4 175.9 182.5 192 195.2 200.5 206.9 213.1 216.1 208.5 196.9 193.9 191 187.1 185.2 187.4 182 173.7 168.2 169.7 172.1 176.3 185.8 189.7 192.1 198.9 206.5 213 211.6 207.9 208.7 207.7 213.7 215 224.6 229.7 234.4 237.9 239.8 242.9 246.8 249.7 250.8 252 251.7 250.6 250.8 248.7 246 244.4 241.3 238.7 235.2 232.3 228.7 227 223.2 221.5 217.5 216 212.2 210 216.8 225.1 231.9 236.2 236.5 236.3 242.4 245.4 247.5 247.7 250.8 253 257.8 261.6 264.2 268.8 281.2 287.2 293.5 295.8 297.1 297.7 296.4 294.9 294.4 294.8 292.6 287.4 277.2 279.5 277.4 271.6 262.5 258.5 256.5 250.8 239.1 227.1 220 227.2 231.1 235.1 239.4 244.2 248.1 250.2 248.8 249.8 257 259.3 254.9 253 248.7 246.3 236.6 229.9 227.8 226.7 223.3 220.6 220.7 220.3 223.9 233.3 235.4 233.1 231.6 231.1 230.1 229.8 228.6 229 229.2 227.4 228.4 229.9 230.8 232.5 234.1 234.2 234.9 239.6 242.5
138.7 131.7 122.9 115.9 108 114 114.6 114.4 107.7 98.9 92.4 89.8 88.6 85.2 83.5 80.1 76.7 75 75.8 77 81.4 84.5 84 82.5 84.5 85.9 90.1 93.9 95.6 101.1 102.4 102.8 106.7 112.5 117.3 121.2 123.9 127.6 129.2 130.9 132.8 131.8 130.6 128.7 128.9 133.7 132.9 131.5 131.7 132.5 139 145 149.3 155 160.8 168.5 177 185.9 192.2 197.8 200.5 205.9 209.1 212.4 211.7 203 197.8 191.7 187.4 184.3 189.4 186 175 168.4 167.9 177.6 185.3 182.2 189.7 192.4 196.7 203.2 210.3 208.3 206.9 209.6 210.9 211.9 215.1 219.8 227.2 232.6 236.2 238.5 241.2 242.6 245.1 248 248.4 247.7 247.1 246.4 245.2 243.6 241.1 239.4 235.5 233.1 229.9 227.7 224.7 221.2 216.8 217.7 217.1 213.2 208.7 214.3 220.6 228 233.6 232.8 234.1 239.7 242.8 245.8 245.1 252.4 255.6 259.9 262.8 265.7 266.7 272.5 280.6 289.2 292.1 293 294.3 294.8 295.1 293.8 292.8 291.5 287.7 280.2 271 266.8 264.2 258.5 254.4 250.8 248.2 242.1 232.7 220.2 218 219.9 226.5 234.1 238.1 240 243.8 242.8 244.7 250.8 253.4 255.1 252.6 248 242.9 231.9 225.4 224.7 223.1 221.6 220.7 220.6 221.6 222.9 230.8 233.5 233.4 231.8 231.3 230.2 229 228.5 228.4 228.4 228.6 229.1 230.4 231.2 232.8 233.3 235.8 236.3 242.4 249.4
141.2 130.3 123.3 119.9 112.5 118 116.4 116.8 113.6 103.4 94.9 92.5 87.6 86.7 83.7 81.5 78.2 75.7 74.2 74.8 79.1 79.9 80.8 82.3 82.8 85.3 92.8 97.1 94.3 95.5 97 100.5 101.5 106.7 112.3 115.3 117.9 120.3 125.2 133.6 134.2 132.4 129.5 127.5 127.2 128.7 132.4 130.2 130.5 129.6 132.2 141.1 148 153.2 159.5 167.7 177.1 187.1 192.9 200.5 203.1 203.8 209.1 213.9 208.1 203.9 200.1 192.6 189.1 183.8 185.3 185.8 177 169 170.8 180.8 185 187.6 189.8 191 193 195.7 202.7 204.8 207.8 209.4 211.3 211.7 215.9 221.9 228.2 231.5 232.4 236.7 240.5 242.2 241.1 242.4 242.9 243 242.4 241.3 240.4 238.6 236.4 233.3 231.2 230.8 227.2 224 221.9 218.9 214.9 215.2 213.8 212.9 208.8 211.5 216.3 223 227.4 226.2 229.9 233.5 238.8 240.5 249 254.7 261.2 265.8 270 271 271.1 274.5 279.3 284.3 286.3 290 293.1 295.1 295.6 293.4 291.9 289.4 285.5 278 268.3 262.6 257.5 254.3 249 244.8 241.2 236.7 230.3 225.9 222.6 219.8 214.7 226.1 235.2 235.9 237.9 236.6 238.4 244.2 245.3 247.8 248 243 236 226.6 222.5 223.2 220.9 220.1 219.5 219.6 222.7 227.3 232.1 234.3 234 232.5 231.8 230.4 229.8 229.3 228.2 228 228.5 228.8 230.3 231.7 232.3 234.3 237 237.3 243.6 247.3
147.7 136.8 131.4 126.3 117.8 120 120 120.6 119.7 108.4 99.9 95.1 91.9 86.6 82.8 81.4 78.6 74.4 74.2 74.2 74.2 76.6 83.2 82.5 83.1 89 95.3 96.5 93.9 92.6 94.3 94.7 100 101.4 107 112.5 115 122 127.1 128.7 130.2 131 130.4 127 126.7 127.2 128.1 129.7 128.9 129.1 137.2 140.3 146.4 154.1 159.8 167.4 176.2 186.1 191 197.4 203.3 207.7 203.9 207.6 206.4 202.3 199.7 194.5 187.9 182.6 180.2 183.1 174.4 164.9 174.2 181.2 185.1 188.2 191.5 191.6 194.7 194.7 197.3 203.1 210.2 212.6 214.8 213.8 219.9 225.4 231.5 240.7 242 241.3 241.3 241 239.3 238.6 237.7 237.4 236.3 235.5 235.1 232.4 233.2 229.2 227.7 226.1 224.1 221.1 220.1 215.5 210.8 211.6 212.8 209 209.7 210.6 212.1 216.8 222.2 219.6 223.6 228.5 233.7 242.7 250.2 255.3 264.5 271.6 276.4 276.9 275 271.9 273.4 281.3 284.6 288.9 293.6 298.1 299.5 297.2 295.5 295.2 290.3 280.9 275.5 271.5 263.5 258.6 254.9 253.4 246.4 236.3 228.5 225.7 225.4 223.6 214.5 220.7 229.3 232.8 235.1 233.4 231.8 234.9 236.3 240.2 240.4 236 230.8 224.3 221.6 223.3 220.4 219.5 218.5 220.6 226.3 232 235.3 239.9 237.7 234.5 233.7 232.2 231.8 229.7 228.8 229.1 229.2 229.5 230.9 231.5 232.8 235.9 238.4 243.9 245.8 245.8
151 144.5 138.4 126.4 124.3 121.6 120 119.1 111.1 112.9 106.3 99.4 93 90 84.4 81 77.9 74.2 74.2 74.2 74.2 78.9 77.9 81.4 83 91 92.2 92.1 91.3 89.6 90.5 96.1 97.9 100.7 104 108.2 115.1 120.7 122.9 124.4 125.6 128.5 127.7 125.9 127.5 127.2 127.7 128.7 126.6 130.5 137.5 141.2 149.2 154.7 160.4 165.5 173 182.7 190 194.7 200.3 204.1 202.8 203.1 201.4 199.9 196.7 193.6 187.7 179.9 179.1 178.1 173.4 164.6 173.2 178.6 182.8 188.2 189.3 190.3 199 200.1 206.8 207.3 209.7 213.1 213.8 214.2 220.7 227.8 235.3 243.6 244.8 244.5 242 238.4 235.1 235.6 232.9 232.4 232.6 232.1 230.9 229 228.3 225.4 224.8 222.2 219 217.7 214.6 211.6 209.1 210.7 209.2 208.9 205.5 205.8 209.6 209.7 212.7 218.9 224.9 229.1 237.9 245.4 249.7 255.6 264.8 271.4 277.9 275.5 270.6 268.9 274.9 283.6 289 292.3 294.2 301.9 306.1 303.3 303.8 302.4 298.2 290.6 293.3 287 276.8 266.4 255.5 254.5 253.1 246.8 237.4 226.8 227.3 228.3 219.2 214.4 222.6 225.2 228 230.3 230.7 230.7 228.6 231.3 232 228.5 224.6 221.5 219.4 219 217.2 217.8 219.2 226.6 232.6 237.4 242.2 244.7 241.4 238.4 236.8 233.8 234.7 233.3 230.2 229.3 229.9 231 231.2 232.2 233.6 239.8 245.7 247 246.7 246.1
153.1 147.2 139.7 131.4 132.9 123.9 117.9 117.9 116.3 113.4 106.6 99.8 96.4 91.9 86.7 79.8 75.9 74.2 74.2 74.2 74.2 77.1 77.5 81.1 82.2 85.6 90.6 88.4 89.2 90.3 92.3 92.7 102.4 104.3 106 111.4 117 118.9 119.2 123.3 125.8 126.5 123.2 127.5 129.6 128.4 127.9 126.4 129.8 131.8 136.1 141.1 148.1 153.2 157.3 163.5 172.9 179.8 185.1 192.5 192.3 200.8 198.7 197.5 195.8 194 193.8 190.2 186.3 181.5 179.1 176.1 166.7 164.5 172.4 178.5 182.7 187.5 189.8 194.3 198.9 204.4 207 209.4 208.8 211.5 215.3 215.7 220.7 226.7 232.4 241.3 242.8 241.1 238.7 233.6 230.7 233.1 231.2 233.5 234.5 234.5 234.1 232.7 228.5 225.1 223.7 222.8 221.3 215.9 212.4 209.3 208.1 208.1 208.3 211 212.4 205.9 204.1 213.3 218.7 220.4 226 232.2 233.6 244.9 251.2 257.3 264 270.7 275.5 270 263.8 266.7 272.6 281.6 288.5 293.6 296.8 302 307.6 309.9 307.7 307 302.5 308.7 308.2 302.8 289.3 277.3 263.6 252.2 249.9 245.8 238 228.5 223.5 221.6 222.5 211 213.7 217.6 220.9 225.1 227.5 228.3 229.4 224.2 224.7 221.2 219.1 218.4 218.2 217.3 217.3 218.7 226.8 233.1 239.2 243.8 245.3 246.2 243.8 243.9 240 238.8 240.2 237.3 233.3 232.1 232.4 233.2 232.2 233 234.9 243.8 246.4 246.7 245.9 244.1
152 148.4 140.8 135.2 129.1 124.4 119.4 115.7 114.7 111.5 107.6 102.8 96.8 91.4 84.7 81.5 74.2 74.2 74.2 74.2 74.2 74.6 75.7 79.8 80.4 80.6 82.7 86.4 89.3 91.4 92.6 96.9 104.7 104.2 105.7 109 114 116.6 117.3 121.5 122.2 121.6 122.7 124.8 129.3 128.8 126.6 126.5 127.2 131.9 138.3 139.1 145.5 151.2 154.6 159.8 164.7 181.8 183.1 183.9 189.5 190 196.2 193.7 192.3 189.5 188.4 187.9 184.2 182.3 175.3 172.2 165.3 165.5 172.4 178.6 185.6 189.2 191.2 197.1 203.1 204.9 208.2 208.4 210.5 213.9 216.6 215.6 218.9 223.2 229 237.4 238.8 236.5 231.8 228.2 228.1 229.1 232.9 238.4 239.4 241.4 239.8 236.6 233.4 228.4 224.3 223.1 222.4 219.9 215.2 210.5 204.5 210 211.4 212.6 212.1 205.9 204.5 214.3 223.9 224.7 230 234 238.2 244.2 247.9 254.6 263.2 271.7 271.6 263.5 263.5 265.7 274.8 279.6 287.4 294.8 298 302.9 308.1 314.5 313.2 311.9 307.7 311.9 314.9 308.5 298.7 286.3 274 260.9 249.5 244.7 237.2 228.4 221.3 217.3 214.9 214.6 209.9 209.9 214.6 220.1 223.2 224.4 224.5 221.5 219.4 216.6 214.8 213.3 216 217 218.6 227.2 230.5 240.6 245.9 250.8 251 250.6 250.9 248.3 246.5 245 244.2 244.2 240.4 237.1 237.4 238.5 235.3 234.8 234.5 240.7 245.4 245.4 243.7 240.4
152.4 146.3 140.8 135 130.4 125.8 119.3 115.8 112.2 111.3 106.7 102.5 97 91 85.6 78.6 77.2 74.2 74.2 74.2 74.2 74.2 74.4 76.1 76.7 77.1 79.6 84.6 87.3 91.3 90.8 95.6 102.7 102.9 103.3 105.5 106.3 110.9 113.9 115.5 116.6 116.9 119.5 122.5 125.6 129.5 127.6 126.9 126.5 127.3 135.4 138.3 140.2 148.2 152.3 156.2 159.9 164.1 175.5 179.2 182.6 186.7 186.1 189.2 186.3 185.5 185.4 184.2 180.9 178.3 172.3 166.2 160.3 165.5 173.7 181.4 189.6 192.5 192.4 197.7 205.1 205.8 207 209.1 211.7 215.9 215.4 215.8 215.6 217.8 222.3 231.3 232.9 231.6 227.7 226.4 227.6 232.7 235.9 241 245.6 248.5 246.8 242.8 237.6 231.8 226.4 222.3 222 221.7 218.7 210 207.8 212.2 213.6 211.7 206.4 200 205.3 215.6 224.5 231.6 239.6 244.4 241.7 251 255.1 260 265.4 266.2 264 263.5 263.5 272.7 278.1 284.7 292.9 298 300.1 303.7 313.2 318 317.2 314.1 309 309.1 313.4 308.6 300.7 289.5 277.7 269 255.7 251.2 245.7 237.6 228.2 218.7 213.6 210.2 208.4 207.1 211.7 215.9 218.3 218.4 219 219.1 217 212.9 213.6 223.8 225.7 221.7 228.3 230.6 234.3 242.4 244.9 255.4 254.5 259.4 256.1 252.4 252.7 250.1 249 249.1 248.4 247.2 244.7 243.6 239 236.7 236.4 238 240 241.1 239.3 234.5
148.4 146.9 141.3 134.7 131.4 125.3 121 118.2 112.6 108.8 105.5 100.5 92.8 88.4 85.3 84.7 81.8 77.7 74.2 74.2 74.2 74.2 74.2 74.3 78.1 76.8 79.8 84.9 86.9 93.1 90.2 90.2 96.4 101.7 103.5 103.6 102.6 103.9 112.4 112.6 115.9 116.6 118 119.5 119.9 127 127.1 125.3 125.4 125.4 136.5 138.5 138 141.1 149.1 151.8 155.9 157.8 160.2 170.9 174.3 179.2 179.7 179.6 182 181.5 180.4 179.9 176.2 174.6 166.6 154.9 159.4 162.8 172.4 180.8 190.7 196.4 195.5 199.5 201.4 206.9 209.5 212.2 213.5 215.7 215.8 214.6 215 215.7 216.7 223.7 228.5 227.2 225.5 226 227.9 230.4 238.2 243.7 245.8 250.3 248.5 244.6 239.3 233.2 228.9 222.3 218.6 218.8 218.2 210.6 200.6 210.3 212.9 205.4 198.3 202.7 206.7 216.6 226.9 235.2 245.5 250 248.4 253.4 259.5 263.8 270.7 273 263.5 263.5 264.3 276.2 280.5 287.5 294.3 297.8 303.1 303.9 314.5 318.6 318.3 313.9 306.9 305.9 306.9 308.9 301.2 290.8 281.1 271.1 260.4 249.7 242.4 235.6 226.7 219.8 211.8 208.2 207.7 207 209.5 212.4 215.8 215.9 216.1 216.5 216.3 210.1 220.3 228.6 230.9 230.7 230.9 230.6 237.8 239.7 246.9 256 256.7 258.2 256.1 254.8 252.8 253 252.7 254.1 255.8 255.6 251.4 246.8 242.4 236.4 235.3 235.4 235.5 234.5 232.9 231.4
143.9 144.4 139.9 135.2 131.7 125.1 120.1 115.3 111.9 107.2 101.8 97 92.8 89.3 89.2 89.8 84.6 82.8 76.4 74.2 74.2 74.2 74.2 74.2 75.1 76.7 81.8 85.3 87 87.4 92.7 89.9 89.4 93.6 96.4 101.8 101.5 103.7 105.4 111.2 113.9 116.2 116.6 117.4 116.7 119.5 124.1 126.1 120.9 128.4 128.2 135.6 135 137.1 142.8 147.1 150.8 152 153.6 158.6 164.4 167 169.9 173.6 175.9 177.8 177.8 176.1 172.8 170.7 151.5 165.4 163.7 168 170.5 180.5 188.9 195.1 200 197.4 204.1 207.8 210.5 213.2 213.1 213.4 213.8 215.1 216.7 214.9 215.9 217 222.7 226.1 224.8 225.2 227.6 232.2 238.6 245.3 245 251.4 249.7 245.8 240.5 234.4 230 223.8 216.4 213.5 214.1 210.2 199.2 200.5 206.5 199.2 196.7 201.5 206.3 218.4 229.8 242.6 251 255.3 254.8 256.7 264.3 267.8 275.4 273.7 264 264.4 274.1 277.1 281.4 287 292.5 301.7 305.2 301.1 309.9 322.7 321 314 307.2 304.7 304.7 302.2 298.3 289.6 280.2 271.1 262.5 254.3 241.4 232.4 221.7 217.1 209.8 207.8 204.9 208 210.8 212.7 213.6 213.5 213.5 214.5 211.5 209 218.9 227.1 229.5 230 231.5 231.9 235.2 238.5 242.4 247.9 248.9 249.6 251.1 250 250.5 251.1 252.2 254.4 257.7 258.3 254.3 247.3 243.6 237.7 232.7 231.9 231.4 231.4 231.4 231.4
139.4 136.4 136.6 134.8 135.7 126.6 121.1 115.9 112 102.9 100 96 92.5 93.9 99.2 90.6 93.7 84.6 83.8 81.2 74.2 74.2 74.2 74.2 74.2 74.2 81.4 84.2 85.5 84.9 86.8 87 87.9 87.9 93.2 97.4 99 99 102.4 103.7 111 113.2 117.3 116.7 115.1 114.8 120.9 123.4 119.3 122.1 125.6 129.2 133.8 138.5 135.4 142.9 145.2 145.6 144.9 150.9 153.6 157.9 163.1 166.1 171.9 171.9 171.7 172.2 168.9 151.7 158.5 164.3 171.2 174.9 170.3 179 185 191.4 199.7 198.9 203.7 207.3 209.5 210.2 211.2 213.9 214.8 214.9 215.1 214 219.8 217.6 219 224.9 225.1 225.9 227.8 232.4 239.3 245.6 248.3 247.6 249.8 246 240.2 235 231.6 223.8 217.2 210.3 208.2 204.3 197.1 197.4 196.3 194.8 197 200.9 209.2 224.3 234.2 247.9 253.4 258.7 261.2 260.7 268.4 273.5 277.8 274.6 266.7 269.3 274.5 279.1 281.7 292.5 297.9 304.3 303 298.3 302.1 311.4 315.3 312 305 302.3 299.6 294.6 290.3 284.6 276.4 271.3 263.5 254.3 243.8 235.5 230.1 220.3 208.4 205.6 203.8 207.1 211.3 211.8 210.5 210.3 211.1 206.4 211.4 210.6 217.7 223.5 228.4 230.7 230.9 228.2 228.3 234.4 238.7 238.9 244.4 244.5 245.8 246.5 247.6 247.9 248.6 251.5 253.9 249.7 245.8 241 235.3 233.3 231.4 231.4 231.4 231.4 231.4 231.4
133.1 134.6 134.3 134.6 130.8 127.3 117.8 109.9 110.1 109.3 103.9 97.4 97.6 100.5 95.4 96.3 97.5 87.5 86.5 84.6 74.2 74.2 74.2 74.2 74.2 77.7 81.4 82.7 84.5 84.8 87.9 88.2 84.1 87.7 90.1 93.2 97 99.9 100.7 100.8 108.6 113.1 116.5 114.6 113.3 113.5 117.2 119.3 119.3 119.8 121.4 125.1 128.4 132.3 136.1 134.3 138.4 139.4 138.1 143.9 145 146.4 152 157.6 162 164.6 165.6 167.2 165.3 147 158.6 167.3 177.3 176.3 174.4 174.5 180.7 188.4 195.4 199.4 200.9 203.6 207.5 209.5 212 212.5 212.2 212.3 213.4 214.2 218.7 220.2 219.7 224.1 227.4 227.1 229.1 233.6 239.5 245 248 245.2 248 245.3 240.2 233.4 229.9 223.7 215.6 208.3 202.6 199.8 197.9 196.5 194.1 193.9 196.2 203.9 214.9 224.9 236.8 247.4 254.3 260.7 264.1 265.8 271.3 275.1 278.6 276 271.5 274.3 277.2 281.3 286.5 295.5 297.3 299.5 297.9 296.1 297.7 299.3 304.3 306.8 303.6 297.4 293.3 286.9 283.1 276.9 270.7 269.2 262 254.5 245.5 234.8 230.6 225.8 215 203.3 204.9 207.9 211.7 210.6 209 207 206.4 205.8 213.3 218.7 219.9 222.3 224.8 228.8 228.1 224 226.6 231.4 234.6 237.7 239.5 240.7 242.5 243.9 245.3 244.9 244.6 245.2 243.3 233.1 231.4 231.4 231.4 231.4 231.4 231.4 231.4 231.4 231.4 231.4
131.7 129.9 130.5 130.1 126.3 123.9 122.3 118.9 114.6 109.6 105 100.3 99.5 100.3 97.1 95.2 93.1 86.9 90.1 77.5 74.2 74.2 74.2 74.9 74.2 82.1 82.6 83.8 84.6 84.1 82.3 83.7 82.2 89.1 90.5 92.9 95.9 96.5 98.7 100.5 102.7 108.5 109.7 112.2 113.5 111.6 112.9 112.2 117.1 122.9 118.9 126 133.5 128.9 131.4 133.2 131.4 134.3 131.9 133.7 134 138.5 145.2 149.1 154.4 158.5 161.8 161 162 145.9 163.4 172.2 175.6 176.3 176.4 174 174.8 181.3 188.3 196.5 198.5 201.9 205.6 207.8 210 210.8 211.2 213.4 211.1 214.8 220.1 224 224.5 224.4 229.2 230.6 232.5 235.2 236 243.2 245.5 245.1 245.1 242.6 238.7 232.7 228.5 222.7 214.5 207 199.3 195.4 195.2 194.5 192.2 191.6 199.1 206.2 215.8 227.7 239.8 249.9 256.1 260.6 265.1 268.4 268.9 273.1 279.4 277.8 277.5 277 280.8 282.8 284.6 289.6 293.3 291.9 292.3 293 292.5 292.5 297.1 298.2 296.8 292.4 287.5 282.9 278.5 271.2 264.3 262.7 259.4 254.8 245.7 235.3 227.9 223.5 214.7 202.3 207.3 210.6 212.5 210.1 206.6 204.5 205.6 207.1 214.6 221.4 221.7 223.1 224.3 224.9 223.5 220.8 222.9 225.4 227.7 230 232.9 238.6 240 241.5 242.5 242.8 241.7 240.4 231.4 231.4 231.4 231.4 231.4 231.4 231.4 231.4 231.4 234.3 233.5 234.3
131.3 127.4 125.5 122.8 122.2 121.9 125.4 122.4 120.1 112.6 106.3 102.2 98.6 98.6 95.9 95.1 89.6 86.1 80.8 74.2 74.2 74.2 74.2 74.2 74.2 76.3 80.7 85.9 85.3 77 77.7 81.5 84.7 87.6 89.9 91.8 94.7 94.6 94.4 99.2 96.3 102.5 107.9 111.6 113.2 115.9 109.9 111 116.6 120.8 120.2 120.8 128.1 128 128.4 126.9 128.7 128.3 127.8 128.6 135.1 137.9 137.2 141.9 156 158.1 155.1 155.8 153.4 144.9 155.9 165 171 175.6 175.8 174.2 175.8 178.2 183.9 190.2 194.8 199 202.7 205 208.3 208.4 206.7 211 214 215.6 220.2 227.4 230.3 229.2 232 234.3 237 239.1 236.3 238.5 244.2 240.7 240.4 240.1 236.6 232 227.8 220.4 212.9 205.1 197.8 194.7 192.4 191.8 191.3 190.9 195.2 206.2 216.8 227.1 240.7 250.6 255.9 260.2 264.2 268.2 271.7 277.7 283.5 282.9 285.5 283.4 282.6 280.7 279.3 281.9 283.4 285.8 284.1 285.8 285.5 288.1 289.9 289.1 288.9 286.6 281 275.5 273.9 268.7 261.4 252.6 250.9 247 241.4 234.3 227.7 221.8 213.8 201.6 208.5 212.2 213.1 211.4 206 203.2 205.7 207.6 212 216.7 220.7 222.6 230.8 231 226.8 218.3 215.8 216.5 219.4 224.8 231.7 239.1 238.8 239.1 240 241.3 240.6 231.4 231.4 231.4 231.4 231.4 231.4 231.4 234.3 237.4 238 240 240 240.8
127.3 123.9 123.4 123.1 122.8 125.5 122.1 121.7 120.2 118.2 113.1 104.2 101.2 98.7 96.5 92.9 89.6 85.7 76.8 74.2 74.2 74.2 74.2 74.2 74.2 74.2 74.2 78.7 80 75.7 79.9 81.5 84.1 85.7 87.7 90.3 86.7 91.5 90.5 95.7 101.2 97.5 107.4 110.3 110.7 111.7 112.1 109 113.5 119.2 119.4 118.6 117.8 123.4 124.9 124.8 123.9 127.1 127 130.3 139 140.9 137.8 136.1 148.3 152.7 151.8 145.7 144.2 143.8 162.8 165.7 170.3 174.5 174.5 174.4 174.3 175.8 178.5 185.7 190.9 197.1 199.1 202.6 204.2 205.2 209.8 211.8 213.6 216.2 220.3 227.3 233.9 237 236.7 238.5 239.4 239.3 237.1 240.5 240.6 238.9 237.6 236.6 233.5 230 223.8 218.9 212.7 204.6 196.3 193.2 190.9 191.7 190.6 191.2 193.5 204.9 214.4 224 234.5 246.9 253.8 258.6 262.8 266.8 273.9 280.8 287.3 290.4 290.5 287 281.3 277.9 275.2 274.3 273.8 275.4 275.5 274.9 278.6 282.9 284.2 282 279.5 278.3 273.7 268.5 262.9 262.2 258.3 250.8 243.5 241.8 236.8 231.7 225.4 219.5 210.9 200.6 203.1 209 213.9 210.7 205.9 203.1 208.6 210.4 210.1 210 216.5 226.1 232.1 231.1 224.9 218 213.5 211.8 215.9 222.5 232.1 238.1 239.4 239.5 239.4 239.9 235.2 231.4 231.4 231.4 231.4 233.7 240 243.2 246.8 249.2 247.9 246.9 245.9 248.8
125.4 128.2 126.6 124.5 123.4 123.1 122.2 121.5 121.8 117.1 114.4 110.6 103.5 101.1 96.3 92.5 91.2 82.4 75.7 74.2 74.2 74.2 74.2 74.2 74.2 74.2 74.2 74.2 74.9 77.9 79.1 79.3 82.1 79.7 80.6 84.8 90.8 94.8 96.1 98.9 101.2 97.6 102.7 106.5 107.4 110.1 109.1 107.3 110.8 121.7 114.6 116.4 116.8 118 124.1 123 122.4 131.9 137.7 137.4 139.2 141.5 139.5 133.4 141.7 143.8 144.9 147.2 146.7 144.2 156.5 163.6 166 169.3 174.8 173.5 174.1 177.4 179.2 181.8 187.2 190.7 196.8 199.1 198.7 205.8 208.3 209.7 214.1 215.7 221.6 227.4 233.9 240.4 240.3 241.3 241.5 240.7 240.2 239.5 240.8 238 235.9 232.1 230.3 225.6 221.5 216.2 211.8 205.4 197.2 192.1 190.6 190.8 190.1 187.5 193.9 202.3 208.5 217.8 229.4 240.9 249.2 253.6 260.2 264.4 271.2 278.2 286.3 291.1 291.4 286.7 280.7 275.6 274.8 279.2 276.6 271.8 268.4 270.3 272.9 274.6 274.4 273.4 272 268.7 265.8 261.5 256.3 252.4 253.1 248.9 241 234.3 234.1 231.5 228.5 221.6 209.8 199.4 202.7 209.7 209.4 204.6 200.7 203.6 206.3 208.3 208.3 209.3 212.8 220.5 227 225.7 221 215 211.8 211.6 214.3 224.3 231.6 238 240.1 240 239.5 238.1 231.4 231.4 231.4 231.4 234.6 245.1 252 256.9 260.1 260.4 257.9 256.5 255.4 255.9
128 127.5 131.4 127.8 123.1 126 125.1 124.9 121.9 117.8 114.8 111.3 109.3 102.7 95.8 91.9 89.1 81.4 79.3 74.2 74.2 74.2 74.2 74.2 74.2 74.2 74.2 74.2 74.2 74.2 74.1 74.1 77.2 79.7 83.6 87.1 89.8 94.5 96.8 105.8 103.2 101.6 102.1 103.3 106.1 105.8 104.6 104.6 106.1 110.4 120.5 119.3 117.1 117 117 119.5 122 123.4 134.8 140.3 140.6 139.3 137.1 129.1 134.9 131.8 137.1 144.4 142.7 143 153.2 162.6 164.9 168.8 172.6 171.2 172 176.9 183.4 186.3 187.6 189.8 193.2 196 200 203.5 206.3 209.8 213.4 216.6 222.8 227.7 234.6 242.3 244.4 243.2 242.1 241.1 241 239.7 240.2 237.1 231.9 229.9 227.2 222.4 217.5 214.9 217.6 211.1 198.9 190.3 189.4 188.7 188.6 186.7 192.3 198.1 204.6 215.4 224.9 235.1 242.8 248.8 253.4 260.6 268.2 276.5 284.5 287.9 289.9 286.2 280.4 273.1 272.4 276.9 279.3 277 271.5 266.4 265.8 264.8 264.2 263.4 262.6 260.2 257.7 253.6 249.8 246.8 249.9 247.4 241.3 231.5 222.4 224.7 221.3 214.6 205.4 198.5 202.5 200.3 202.8 200.6 201.5 204.2 205.8 207 208.6 209.1 210.1 212 212.3 215 215.9 213.5 210.1 212.1 215.7 226.1 234.1 242.3 241.9 240.3 239.3 231.4 231.4 231.4 231.4 235.6 245.9 254.5 262.6 268.2 269.7 269.3 268.3 266.9 263.6 264.2
130.4 129.6 129.5 130.3 123.6 127 125.9 122.2 122 117 114.9 114.1 107.9 105.6 96.9 92.4 86.8 80.9 79.1 74.2 74.2 74.2 74.2 74.2 74.2 74.2 74.2 74.2 74.2 74.2 75.9 79.1 78.3 83.3 86.2 87.9 88.9 94.7 100.5 103.8 105.1 105.2 99.4 101.6 102.6 101.6 109.1 107.3 107 110.9 118.9 121.2 119.4 119.1 117.3 118.1 120.7 122.7 124.3 127.7 137.7 134.2 127 125.5 126.5 134 134.9 142.8 143.9 140.8 148.4 161.4 163.8 166 169.8 169.3 170 177.7 185.4 189.1 190.7 190.6 191.4 193.6 198.3 202.1 205.1 210.3 214.4 219.9 224.8 229.8 237.5 247.6 249.6 246 242.1 240.9 239.5 238.3 237.6 234 229 227.2 223.5 217.2 214.9 214.4 218.1 214.8 203 190.9 189.1 189.5 186.5 186.8 188.4 191.9 201.4 212.1 221.8 229 238.7 243.5 249.3 256.5 262 271 276.7 281 281.8 282.3 279.7 271.9 269.2 273.6 272.3 269.2 266.8 264.2 264.1 263.1 264 266.2 262.5 255.3 247.9 244.9 244.1 243.5 249.6 250.1 244.4 233.7 219.9 216.7 217.3 211.9 204.9 197.6 198 201.4 202.6 202.5 207.4 211.6 213.3 210.6 209.9 209.1 208.5 207.6 206.7 209.4 213.5 212 210.3 212.4 216.5 225.9 235.4 242.6 241.4 240.6 231.8 231.4 231.4 231.4 235.1 245.6 256.8 266.3 272.7 277 279.2 279.1 278.7 276.7 273.4 271.4
132.1 130.5 128.6 128.5 126.5 125.2 122.8 121.7 118 119.3 115.3 113.9 109.4 105.2 100.2 93.6 87.9 81.4 78.8 76.3 74.2 74.2 74.2 74.2 74.2 74.2 74.2 74.2 74.2 74.2 77.7 81.8 82.7 83.6 90.3 93.5 94.6 98.8 103 102.3 111.4 108.6 103.5 102.8 102.6 104.4 109.3 110.5 107 114.3 114.2 118.1 120 125 118.1 119.8 119.1 121.5 123.8 124.4 126.1 127.3 123.9 124.2 125.1 128.9 131.3 145.2 144.7 137.3 142.2 153 158.1 164.3 163.5 165.5 168.4 174.6 182.3 187.9 190.1 190.1 190.6 193.7 196.7 198.8 204.3 211.3 217 222.4 228.1 233.7 243.8 250.4 251.8 249.7 245 243.1 237.6 235.6 233.4 230.6 227 224.5 218.7 213.6 210.6 210.7 217.5 214.9 206.1 196.2 188.9 187.3 185.9 185.3 186.4 191.5 200.8 207.7 216.8 224.3 233.8 238.6 244.1 253 258.7 264.1 269.3 272.5 275.1 274.9 274.3 270.8 265.1 269.3 266.8 263.6 259.9 254.3 254.6 254.8 255.4 254.8 255.1 259.5 254.7 242.7 239.4 241.6 245.8 246.8 242.2 233.4 224.1 214.6 216.1 213.7 207 197.3 202.5 208.7 211 211.8 210.9 218.3 219.7 219.3 218.1 215.2 211.2 206.6 205.4 205.6 208 210.1 211.4 214.3 217.2 224.5 232.8 239.8 240.2 238.6 231.4 231.4 231.4 234.2 243.3 253.9 263.9 274.1 279.9 285.1 287.9 290.6 281.4 288.3 285.1 280.5
137.1 131.8 129.3 126.9 124.5 122.3 121.4 118.5 117.2 117.5 117.5 115.4 111.4 106.5 101.7 94.1 87 82.9 81.9 75 74.2 74.2 74.2 74.2 74.2 74.2 74.2 74.2 74.2 75.1 82.8 81.2 82.5 84.4 86.6 95.9 98.2 98.9 100.2 101.1 110.4 111.7 107.6 105.3 108.5 106.1 111.4 113.9 109.4 113.6 116.3 122.2 125 121.4 122.9 122.9 121.5 121.8 126.6 126.2 125.7 125.6 124.4 123.9 125.3 131.9 130.3 142.9 147.5 134 137.9 144.4 148.7 155.6 160.3 160.6 166.8 169.7 176.9 183.5 186.2 187 185.2 193.1 195.9 198.6 205.3 212.2 219.7 224.1 231.3 238.9 246.1 249.5 251.7 251.2 248.2 242.3 237.2 233.7 230.2 227.4 224.4 220.5 216.6 211.6 206.9 208.8 216.9 209.2 205.3 197.4 187.6 185.3 184.8 184.2 185 191.5 198.3 206.3 211.7 219 227.8 234.8 240.4 247.1 253.3 259.3 263 265.2 267.5 268.1 268.8 267.4 264.8 264 262.1 257.5 252.7 247.9 246.3 247.2 245.7 245.1 246.3 251.9 248.6 247.7 239.4 242.2 242.1 241.6 237.1 230 223.2 216.9 211.4 213.7 211 202.3 199.4 209 213.3 214.5 210.7 212.2 216.3 215.3 213.8 212.5 211.5 207.2 204.8 205.1 212.2 219.2 220.4 218.8 217 221.2 226.9 235.3 237.9 234.9 231.4 231.4 236.3 242.3 254.3 263.4 272.5 281.3 288.4 292.9 297.5 303.9 304 300.2 295.3 292.1
138.3 137.7 132.2 126.8 123 120.9 121.8 118.6 115.2 114.9 112.9 112.6 110 107.2 102.3 96.2 91 87.8 82.7 77.4 74.2 74.2 74.2 74.2 74.2 74.2 74.2 74.2 74.2 76.1 80.8 80.2 81.8 83.6 87 92.2 95.5 96.9 100 101.5 105.5 111 113.9 109.9 107.9 107.5 112.5 112.6 112.5 109.8 115.3 120.1 123.6 123.1 123.6 122.6 122.6 127.2 128.7 127 129.3 129.6 124.6 124.6 125.5 135.5 142.7 139.7 144.6 133.6 134.8 136 141.8 152.6 155.6 156.6 162.8 166.3 170.5 176.3 180.2 182.1 180.5 187.5 194.1 196.5 205.7 212.2 218.1 225.1 230.1 240.6 246.5 249 249.2 250.3 248.8 244.7 237.7 231.2 227.4 223.8 220.3 217.4 214.1 209 204.9 202.8 208.7 208 201.3 189.5 186.9 184.5 184.6 182.8 184.7 191.4 197.2 203.5 208.8 215.1 222.4 232 236.5 240.4 247.1 253.4 258.7 259.9 260.7 261 262.8 262.1 261 258.6 255.1 249.5 244.1 238.7 237.1 236.4 235.8 236.8 237.3 240.5 237.7 240.4 238.3 227.7 234.3 233.3 226.9 225.5 223.2 218.5 214.4 207.1 204 195.6 200.8 206.7 212.7 213 210.8 208.7 208.3 207.2 205.1 203.6 203.5 203.7 204.2 208.6 217.2 224.9 225.5 220.3 217.9 218.5 224 233.4 238.3 234.7 232.7 237.2 246.6 255.1 263.7 272.7 281.7 290.5 297.2 303.6 309.9 314.4 312.2 309.2 304.6 298.6
139.2 139.6 133.7 129.9 127.7 121.3 119.7 118.2 115.7 115.3 114.2 112.8 109.2 107.5 104.9 101.3 98.3 93.2 87.2 82.5 74.9 74.2 74.2 74.2 74.2 74.2 74.2 74.2 74.2 74.2 74.2 80.2 80.5 86.2 85.6 89.3 92.7 100.3 99.7 105.4 108.2 108.6 114.8 116.7 108.1 108.1 110.7 112.9 112.3 111.8 112.2 114.6 120.1 123 123.7 124.5 125.7 129.2 128.2 127.6 129 135.7 131 125.2 125.8 131.9 142.1 143.1 137.6 131.8 129.5 132.5 137.2 143.2 144.3 154.1 160.6 163 168.7 173.6 175.8 175.3 176.1 179.6 189.1 194.5 204.4 210.4 219 225.1 231.7 240.2 243.6 246.6 247.3 247 246.4 243.5 237.6 230.8 224.5 222.2 218.1 214.2 210 206.5 201.3 199.1 205.7 204.5 197.8 187.5 185 183.9 183.3 182.1 183.4 187.2 193.6 200.9 205.5 211 217.8 225.4 232.3 235.7 240.5 246.8 252.4 255.9 255.2 255.8 254.6 256 254.5 252.5 247.6 243 237.2 232.5 230.4 226.7 227.8 226.5 228.9 228 230.3 229.6 229.2 226.2 222.8 221.9 218.3 226.2 229.9 227.2 220.5 209.4 200.6 198 203.8 202.3 208.2 209.4 205.8 205.3 204.8 202.6 202.6 203.1 203.9 204.5 206.7 210.9 218.4 223.7 223.7 218.6 217.1 218.5 224.5 234.1 238.9 237 240 247.6 256.7 264.5 273.2 282 290.8 299.4 307.3 315.5 320.9 321.1 319.8 320.2 316 310.1
141.2 138.6 136.2 132.6 127.4 123.8 122 118.8 116.9 119.9 121.8 120 118.5 119.9 109.5 104.5 101.5 98.1 92.4 86.8 81.1 74.2 74.2 74.2 74.2 74.2 74.2 74.2 74.2 74.2 74.2 74.2 79.8 88.6 89 89.1 94.8 96.3 98.7 106 108.1 109.2 112.5 116.4 113.4 110 111.5 112 113 111.7 111.6 113.6 117.9 124.6 124.1 124 126.2 127.9 130.7 130.8 128.6 137.2 138.9 131.3 127.2 127.4 134.1 138.5 137 128.2 127.4 128.3 129.1 134.3 133.6 149.8 157.6 161.9 165.9 171.8 175.6 174.5 174.4 177.3 188.1 193.7 201.4 209.3 217.9 224.6 230.4 235.9 239.5 243.8 245.5 245.1 242.8 239.6 235.3 228.1 221.1 219.7 216 210.8 206.5 203.3 199.6 197.1 200.9 199.2 193.8 188.3 185.8 184.1 183.9 183.8 178.9 184.5 190.9 194.3 203.1 209.7 214.5 219.6 224.9 230.4 234.5 241.3 245.7 251.3 252.1 248.9 249 248.9 248.6 245.7 242.4 237.8 232.1 225.4 219.6 219.5 220.8 217.6 216.5 219.1 222.3 220.7 218.8 217.5 211.9 212.2 214.5 218.6 222.2 222.8 215.7 208.3 201 195.7 202.2 201.1 203 202.8 204 204.8 205 204.8 204.7 204.8 205.7 208 209.9 212.3 218.4 220.6 220 217.4 217.1 218.9 226.1 235.4 241.8 246.4 247.9 255.4 267.4 274.8 282.5 291.4 300 308.3 317.6 326 328.1 325.4 327.4 330.2 326.3 319
140.2 137.8 137.6 133.5 133.2 128.3 124.2 122.4 119.1 121.3 125.8 126.1 121.8 122 115.8 112.9 104.5 101 97.7 91 86.8 77.6 74.2 74.2 74.2 74.2 74.2 74.2 74.2 74.2 74.2 74.2 79.1 83.1 90.6 93.2 94.6 96 101.6 106.8 108.4 111 112.7 114.7 113.9 117.8 114.9 112 113.3 112.3 112.9 115.3 123.7 122.2 127.8 126.9 130.8 127.3 129.1 130.1 131 131 139 138.4 132.3 130.9 128.7 129.2 129.2 126.4 121.2 124 128.6 129 132.9 148.7 159.1 165.3 167.2 168.1 173 174.8 173.2 174.6 185.4 193.1 199.9 209.1 216.5 225 225.3 231.3 236.8 242.1 242 242.3 239.5 236.2 231.5 225.5 220.3 215.6 213.5 210.4 205.4 199.5 196.7 196.3 197.6 194.9 189.8 189.3 185.7 184 181.6 181.1 177.5 182.9 188.3 197.4 204.4 213.2 219.4 220.2 222.4 224.2 229.4 235.9 240 244.5 247.9 245.3 242.5 243.1 241.8 241.5 237.5 232.1 228.4 223.7 215.4 212 214.5 207.4 205.8 207.8 210 212.7 210.2 207.4 207 205.8 208.3 213.1 214 213.4 208.6 204.2 193.3 194.6 197.4 197.2 201.9 201.1 206.7 208.5 209.3 211.9 211.5 209.4 210.9 214.5 216.8 217.2 217.8 217.5 216.7 216.6 221.3 225.6 231 234.5 246.2 253.6 260.1 267.8 276.7 284.9 292.1 300.7 309.1 317.8 325.6 330.8 333.1 334.4 336.5 338.5 334.4 330.7
141.7 139.5 136.7 135.3 132.9 130.4 127.7 124.4 125.5 125.2 127.3 128.8 128.6 127.8 125.1 116.4 114.7 103.6 101.9 95.8 91.4 80.8 74.2 74.2 74.2 74.2 74.2 74.2 74.2 74.2 74.2 74.2 80.4 82.7 85.8 91.3 94.8 95.8 103.8 106.3 109.3 112 117.3 119.8 114.4 118.8 119.4 117.2 114.1 113 113.4 116.9 121.9 124.8 126.6 127.3 129.3 129.2 129.9 133.4 132.4 132.6 133 140 135.9 132.5 130.5 124.1 121.4 120.3 121.2 121.2 127 126.1 134.8 144.5 151.9 161 168.8 165.4 167.7 171.1 170.6 176.1 186.2 192.5 199 207.6 214.4 226 222.6 228.2 236.5 240.7 241.2 238.2 235.8 233.5 228.2 224.2 220.4 217.4 212.1 207 204.3 198.4 197.2 201.9 198.7 194.4 189.7 188.6 186.8 182.6 182.8 180.5 181.4 183.9 191 200.4 207.1 214.5 223 224.8 223.1 221.9 223.3 228.4 233.3 237 239 242 237.5 236.7 235 235.1 232.9 230.3 234.3 232.2 225.8 218.2 211.9 206 204.6 202.6 204.3 207 207.7 205.9 204.9 204.9 208 212 212.7 208 201.5 197.5 197.5 192.4 187.7 191.9 197 202.4 210.5 212.2 213.5 215.7 216 214.1 215.5 218.7 220.7 219.8 218 216.1 216.6 221.7 229.9 234.2 236.1 247.7 256.1 264.2 271.9 277.7 284.7 292.3 298.9 306.2 316 324.4 330.1 335.5 340.3 344.6 345.8 346.2 346.9 347.1
142.6 138.7 136.3 134.9 134.3 132.5 132.8 126.6 130.8 130.3 134.1 131.5 132.5 132 129.9 125 118.7 118.6 117.8 112 102 87.3 76.9 74.2 74.2 74.2 74.2 74.2 74.2 74.2 74.2 74.2 79.4 82.1 85.3 87.8 92.1 93.6 102.1 105.6 108.7 111.6 114.8 117.2 116.3 119.1 121.3 121.7 118.1 115.8 113.2 116.8 119.5 126.2 127.6 134.1 135.8 135.4 134.6 138.2 138.6 138.8 134.9 135.6 136.2 133.7 130.1 125.1 124.7 121.2 119.8 121.1 124.8 125 132.1 138.1 146.1 158.3 164.5 160 160.7 165 170.7 176.8 183.9 191.5 197.9 204.2 213.2 223.9 219.7 227 236 238.8 240 236.3 233 231.4 228.6 223.4 224.2 220.3 214.3 205.3 200.3 194 194.3 204 203.3 196.2 188 189.5 185.5 180.7 178.7 183 182.1 185.3 194.3 202.2 210.1 216.9 219.9 222.6 222.1 219.6 219.9 220.7 225 230.7 233.4 236.3 235.7 230.1 230.7 230 228.9 226.9 231.7 237.4 235.2 228.3 221.3 215.4 207.3 204.4 202.4 210.2 215.6 215.6 210.2 203.5 212.9 218.2 216.9 208 196.9 193.4 196.3 191.5 189.1 190.9 197.7 203.8 208.9 215.5 216.7 219.5 214.4 214 216 217.8 218 217.5 215.5 215.8 220.8 228 233.7 239.1 249.5 257.5 266.2 274.3 282.7 287.6 292.9 298 305.5 313.2 321.5 329.7 335.4 341.1 347.8 353.3 354.3 354.3 358.7 361.1
141.8 140.3 137.9 135.9 135.7 133.8 132.8 133.1 136.4 135.7 135.8 134.3 133.8 132.4 130.4 129.6 123.8 120.8 120 115.8 107.6 93.6 86.8 76 74.2 74.2 74.2 74.2 74.2 74.2 74.2 74.2 78.4 85.7 86.6 87.3 88.5 94.2 101.8 104.9 112.1 112.4 114.2 116.5 117.3 117.2 121 121.2 120.2 119.2 114.3 115.8 121.3 125.3 130.3 132.6 137.7 138.3 138.6 141 142.6 142 138.2 138.6 138.4 136 130.8 127.4 128.7 125.6 119 119 119.3 119.3 124 135 141 149.9 155.8 154.9 163.5 163.9 171.3 174.6 182.7 188.8 193.9 203.4 210.6 219.2 215.3 226.7 233.6 234.7 234.6 233.6 231 227.5 225.9 222.3 222.3 221.2 214.6 204.8 195.5 192.5 192.2 200.2 205.4 196.1 186.9 188.7 183.6 180.3 181.9 183.2 181.4 182.1 193 198.8 205.9 214.8 213.8 213.2 212.4 212.8 215.5 217 218.3 222.6 226.5 228.8 231.3 228.3 226.3 225 224.4 224.7 229.1 232.7 231 223.2 217.1 211.3 204.5 194.3 198.9 206.7 212.6 219.4 217 210.4 201.9 213 212.1 202.9 193.5 189.3 191.6 187.6 188.5 189.2 190.7 194.7 195.6 197.7 200.3 202.8 207.8 209.3 207.2 208.8 212.3 213.6 214.2 219.5 227.2 236.3 243.2 258.3 254.2 267.5 275.9 286.2 290.2 294.1 300.4 305.4 312.2 319.3 327.1 335.3 343.8 349.7 353.5 358.5 361 362.9 369.9 369.7
138.6 139.5 137 136.4 137.2 134.8 134.5 131.8 135.5 139 138.8 137.2 137.5 140.3 135.9 134.4 128.8 128.8 120.6 116.9 107.6 99.8 91 76.7 74.2 74.2 74.2 74.2 74.2 74.2 74.2 74.2 82.7 89.1 87.9 87.2 88.6 97.4 101.7 106.1 115.6 113 113.5 117.3 117.1 117.1 116.9 119.9 123 123.1 119 116.6 125 124.6 129.5 132.2 136.1 139.8 141 144 146.6 144.5 141.9 140.3 140.7 138.3 132.4 130 130.7 126.1 121.2 118.1 118 118.8 119.7 123.7 134.4 141.3 151.1 152.3 159.9 162.1 165.8 171.7 179.3 184.7 190.9 200.2 208.2 214.6 213.8 224.8 231.4 233.1 233.6 230.4 227 224.4 220.5 219.2 216.7 215.3 213 202.1 193.1 189.1 188.3 195.6 199.3 191.6 186.3 183.7 181.8 179.1 183.4 181.8 181.2 180.6 189.9 194.8 201 208.7 207.1 202.3 198.6 197 205.1 212 215.3 218.5 222.2 223.7 224.9 223 220.5 220.6 218.8 221 222.9 223.2 224.4 218.5 211.1 205.3 198.4 190.3 193.6 200.6 206 214 214.6 212 207.1 196.2 200.9 195.4 189.9 189.8 185.8 187.9 191.3 195.6 202.2 202.3 206.7 212.2 214.8 216 217.6 218.7 219.4 216.5 210.8 213.8 218 223.6 232.4 241.8 249.2 257.8 266.8 277 285.8 289.8 295.4 300.8 306.5 313.2 319.9 325.3 334.3 345.6 350.7 355.7 360.2 366.4 369.8 370.6 374.7 374.6
140.9 137.8 137.5 136.6 137.1 135.9 134.7 134.6 137.6 137.9 138.5 138.8 141.9 145 145.9 143.4 134.5 129.6 123.5 117.9 112.5 103.7 90.2 75.4 74.2 74.2 74.2 74.2 74.2 74.2 74.2 78.4 85.5 89.4 89 89 90.7 96.2 103 109.6 111.3 114.2 114.4 116.3 118.2 119.1 118.2 120.3 124.9 126.9 126.2 118.3 123.6 127 128.7 134.4 136.6 140.5 144.1 146.3 147.9 146.7 146.3 142.5 142.2 141.3 135.1 131.1 129.9 127.4 122.7 118.8 117.7 118.1 118.7 121.5 125.2 136.6 143.9 151.6 155.3 158.4 161.1 167.3 171.8 177.4 188.8 201.6 211.7 217 214.8 223.1 230 231.8 230.7 226.5 223 219.9 216.6 211.5 210.9 209.5 206.6 199.8 191.5 183.1 186.1 191.9 192.2 186.7 182.7 181.2 174.4 179.2 180.3 180.7 178.6 180.2 185 189.3 194.5 202.2 198.7 193.2 186.7 188.7 200.1 207 210.8 214.9 217.8 219.9 219.5 219.2 219.6 216 218.3 217 215.5 217.1 214.5 210.8 206.1 198 192.6 186.2 186.6 194 198.9 203.7 203.2 204 199.9 197.4 188.1 187.5 187.7 186.1 186.7 188 196 201.4 205.1 207.9 211.8 214.9 217.5 219.2 220.4 221.1 221.8 220.4 220.2 214.1 219.7 230.2 240.4 248.6 255.5 264.2 274.5 283.5 288.7 294.7 300.5 306 311.5 320.7 328.1 333.3 339.6 345.8 353.8 361.9 363.4 366.1 372.7 376.8 381.8 380.1
139.4 140.1 140.2 137 138.3 138.7 137.1 137.7 139.2 141.5 140.3 141.3 144.9 147.3 146.4 144.3 139.9 130.6 127.4 130.2 111.3 98.8 87.6 82.3 74.2 74.2 74.2 74.2 74.2 74.2 74.2 82 87.5 87.2 88.4 89.8 93.1 96.8 102.6 106.2 110.7 114.4 116 117.2 118.7 122 122.1 127.1 126.7 131.2 130.2 123.1 121.6 124.6 131.4 133.9 138.9 142.9 144 147.5 150.5 149.8 150.7 150.1 145.3 141.8 138.4 133.3 131 128.8 125 121.1 118.3 117 118.1 121.1 124.3 128.2 140.9 146.8 150.9 153.3 156 163.8 170.2 176.7 188.3 205.6 218.4 222.1 216.5 223.5 224.9 229.6 226.3 223.7 219.5 215.1 211.7 207.7 203.7 204.6 200.9 194.6 188 178.4 182.4 186.7 187.9 183.5 180.2 180.6 171.5 177.8 180 179.4 179.6 177.7 177.7 182.4 187.3 196.3 194.5 188.1 185.1 189.7 201.9 204.8 210.4 217.7 219 218.1 218.4 218.7 216.1 213.4 215.5 214.5 212.5 208.7 208.3 206.7 201.6 195.8 188.2 183.1 183.5 187.9 184 186.5 187.1 192.9 192.8 190.7 188 185.3 184.6 185.9 186.7 193.2 198.2 202.3 205.6 209.6 214.8 217.9 220.4 221.8 222.6 223.2 223.8 222.5 220 216.1 224 232.7 243.1 252.8 262.1 270.8 279.7 285.4 291 296.5 302.9 307.9 315.7 325.3 334.9 337.8 345.2 346.5 358.4 362 365.5 368.1 376.4 382.5 386.7 392.2
136.9 136.8 138 137.6 137.8 138.4 138.5 139.9 142 143.2 142.2 145.2 149.3 147.2 146.7 144.9 148.9 141.3 131.4 119.5 108.4 99.7 89.8 86.2 80.3 74.7 74.2 74.2 74.2 74.2 74.2 84.4 87 87.1 88.4 93.8 94.4 97.7 104.8 109.8 111.9 114.1 115.2 120.1 123.9 125.8 126.6 130.1 131.4 136.9 139.5 129.4 129.6 126.6 128.9 134.3 139.7 144 146 148.1 149.9 152 155.1 153.6 149.8 141.6 138.2 134.5 131.2 128.4 124.1 121.5 118.5 114.9 119.8 120.6 120.7 124.8 128 144.1 147.4 150.1 152.8 160.4 169.3 175.5 191.6 209.9 225.4 227.1 222.6 222.9 220.4 221.8 223.1 219.9 215.4 211.5 206.5 203.5 200.2 197.4 197.1 190.4 182.1 174.3 177.6 180 179.6 178.4 176 174.7 170.1 178.8 179 178.9 178.5 174.4 171.8 177.3 181.5 190.1 192 183.9 184.1 193.2 197.3 203.8 207.9 213.2 219.4 224.1 220.8 219 216 211.6 212.9 211.9 209.1 206.3 210.2 215.3 207 197.3 184.8 181.1 179.9 179.4 179.6 180.3 180.5 187 191.9 182.3 183.5 184.2 184.8 186.6 193.4 196.6 199.3 203.1 206.3 212.1 217.3 220.2 222.7 224.4 225.1 225.4 225.6 224.4 220.3 219.5 223.2 235.2 245.5 255.4 265.2 273.9 282.9 285.7 291.5 297.9 303.3 309.8 318.5 326.7 336 342 348 355.6 358 369.7 370.9 374.3 381.1 388.7 392.7 396.4
131.1 132 134.9 135.7 138.8 138.1 139.8 143.2 147.3 148 145.8 149.7 150.6 149.2 148.5 149.4 148.1 138.9 127 122.1 115.8 106.6 101.4 90.8 81.8 77.3 74.2 74.2 74.2 74.2 78.9 83.2 82.6 85.4 92.7 100.6 94.2 95.8 102.3 110.7 113.6 115.7 117.5 120.9 125.1 129.4 130.7 130 134.2 147.2 140.9 134.3 131.6 132 134.2 134.9 137.3 142.9 147.2 149.4 151.3 152.9 153.4 153.7 151 146.5 141 135.8 132.4 128.4 124.7 122.1 118.7 117.5 116 118.4 118.2 118.8 126.9 131.9 142.2 145.3 144.7 157.1 166.5 179.8 195.9 211.8 222.9 227.4 224.2 218.3 217 217.7 215.9 212.6 210.6 204.7 202.4 198.8 196.6 194.1 190 187.1 178.7 170.4 167.2 171.3 170.9 168.6 169.6 171.3 165.6 176.4 176.5 176.2 174.4 173.5 169.6 170.4 174.4 184.5 188.6 182.9 184.9 190 195.9 201.3 204.7 210.1 213.6 219.3 224.8 220.3 213.8 205.5 208.8 207.8 206.6 204.3 206.4 213.5 212.8 204.3 191.1 180.1 179.4 179.6 179.7 180.4 180.9 181.8 181.7 183.1 185.3 186 191.5 193.2 193.1 195.3 199.1 203.5 207.8 214.6 220 222.9 225.3 226.8 227.7 228.4 227.9 226 223.9 222.3 226 233 243.3 253.9 265.1 273.4 280.6 284.5 290.2 298.2 303.5 310.9 319.1 327.2 332.8 342.2 350.7 359.2 365 367.5 373.2 377.3 385.1 388.4 397 401.3
127.4 129.4 133.9 135.3 136.3 139.7 143.3 147.9 155 150.7 153 155.9 154.2 153.3 153.2 152 149.6 141.6 137.9 129.5 120.1 108.5 104.6 95.7 83 78.8 74.2 74.2 59.5 63.6 88.1 87.9 86.4 86 85.9 91.9 95.6 95.3 99.9 112.5 117.2 117 123.4 121.2 126.3 137.3 139.6 133.4 138.2 149.5 145.9 140.2 137.2 136.7 141.8 143.3 139.3 140.7 146.1 149.5 151.4 154.3 154.1 151.9 150.6 148 143.2 137.2 134 129.4 125.6 123.3 119 116.4 112.9 115.3 114.7 116.8 118.6 126.6 136.8 137.2 149 157.9 170.3 184.4 198 207.5 218.5 224.4 223.5 218.4 212.9 210.7 208.2 206.6 205.1 199.9 197.3 194.5 195.3 197 192.1 184.7 176.8 171.1 168.1 163.4 162.1 161.1 163 166.6 170 169.5 174.9 174.7 170.8 169.2 168.3 167.7 173.6 179 183.7 184.3 183 187.9 189.9 196.2 199.5 206.1 210.4 213.3 219.2 218.1 210.3 201.5 203 204.1 203.5 202.9 202.5 209 209.5 202.6 191.3 181.7 178.9 179.4 180.3 180.6 179.9 180.6 182.1 184 189.6 194.1 197.3 196.4 193.5 198 201.7 205.6 209.2 218.1 222.8 225.4 228.3 229.6 230.3 231.3 230.5 229.6 227.7 227.3 227.9 232.4 238.9 251.5 261.7 270.9 278.5 282.4 288.9 297 304.4 311.3 319.7 326.7 332.1 342.8 353.1 357.4 361.1 366.2 371.4 374.9 385.6 391.6 397.4 401.4
122.1 128.2 132.9 134 139.6 141.9 146 153.8 158.2 158.1 157.6 158.6 156.8 156.2 155.4 155.1 151.7 146.3 139.9 130.3 117.1 109.1 105.8 100.1 92.6 82.6 75.2 74.2 56.7 69.5 87 85.9 85.9 85.8 84.4 87.2 91.3 96.2 97.5 103.4 110.3 113.7 119.1 124 131.6 143.3 142.8 138.3 135.1 140.3 147.3 142.5 140.1 140.8 148.6 154.1 150.8 143 144.3 148.8 151.2 153.3 154.8 153.7 150.3 149 143.7 139.5 134.6 132.2 126 122.6 118.8 117.8 115.5 111.9 114.6 114.6 115.8 118.1 125.5 137.2 145.1 156.8 170.1 184 197 201.2 210.2 216.5 220 217.2 210.5 204.2 199.7 201.7 198.9 195.3 191.1 189.6 190.2 193.6 195.1 191.5 182.7 169.3 167.5 164.5 160 161.4 161.6 162.5 164.7 166.4 171.1 172.3 169.5 167.3 166.4 167 170.2 174.3 176.4 180.8 181.9 185.5 185.8 191.9 195.2 201.4 206.1 209 211.6 211.2 206.8 200.8 198.2 197.5 199.2 202.2 202.7 208.7 207.3 199.4 187 180.2 179 178.9 179.4 180.3 186.9 194.9 198.9 194 193 200.8 202.6 196 198.3 202.7 206.6 209.5 215.6 221.3 225.3 228 230.4 231.6 232.8 233.4 233.9 233.4 232.5 231.5 230 242.5 246.2 253 259.8 271.2 277.5 281.9 289.4 297.2 303.6 310.7 319.1 327.5 329.5 334 341.2 348.3 355.1 363.2 370.6 375.2 383.1 389.6 397.4 404.8
115.1 122.5 127.3 134.1 140.2 145 149 153.8 161.1 162.9 162.8 162.4 159.5 157.6 156.8 156.2 153.7 149.9 139 127.9 116.7 113 116.5 120.5 119.7 87.4 82.4 71.8 59.7 61.9 75.5 83.6 81.4 83.1 85.4 86.3 86.5 90 94.1 102.1 106.2 110.6 114.2 119.9 135.4 140.7 143.7 140.3 137.2 139.8 140.1 143.7 143.4 140.5 147.5 156.6 157.6 151.2 146.2 146.4 150.5 152.2 154 154.2 152.6 147.4 143.9 142.4 135.8 132.5 130.5 122.8 120.6 119.4 118.1 110.4 112.4 114 114 115.5 116.5 130.5 138.6 153.1 168.1 182.3 193.2 194.3 201.1 211.3 215 214 208.2 201.6 192.4 194 188.9 184.1 183.8 186.3 183.4 185.1 187.1 189.9 183.9 172.8 169 167.5 166.2 160 158.9 159.7 161.6 164 167.7 168.9 168 168.6 166.3 167.3 169.9 177.7 180.7 181 181 181.6 185.9 186.7 192.6 195.8 197.4 202.6 201.5 204.7 202.5 199.1 198.1 193.2 193.4 200.7 209.4 212.7 208.2 199.1 185.4 179.3 178.8 179.1 179.1 180 186.3 194.2 201.7 199.9 189.1 200.6 200.8 197 202 207.2 210.1 213.7 218.5 223.6 228.1 230.2 232.3 234.5 236.3 238 238.5 237.6 236.6 235.8 237.6 247.2 251.2 261 266.8 272.4 278.3 283.9 288.8 295.3 301 307.7 314.7 323.1 325.6 328.2 332.1 338.7 346.4 360.5 372.2 375.7 381.4 390.2 398.1 401.6
110.1 120.5 124.4 131.8 138.9 145.1 149.5 154 158.5 162.7 166 167.9 165.1 161.8 157.3 152.4 155.6 147.9 141.7 133.1 127.3 123.5 124.2 127.8 113.8 100.5 85.7 74.8 67.2 55.9 59 72.1 79.1 81.3 83.4 84.1 85.3 86.1 95.3 106.3 108.9 106.7 110.2 114 126.6 136.7 139.9 140.4 139.7 141.7 138.4 138.4 142.4 141.1 146 154.1 158.5 155.3 148.8 147.6 148.2 150.8 152.7 153.9 153.1 149.3 144.4 141.3 137.4 133.4 129 127.4 118.7 117.9 114.2 115.3 110.2 111.2 111.9 114.8 115.3 125.6 132.8 145 160.8 175.3 184.9 189.9 194.1 201.4 203.6 204 203.7 196.5 189.2 185.4 180.9 178.5 178.2 177.7 177.1 173.3 177 181.9 182.9 178 172.7 168.2 169 167.2 156.8 159 165.3 166.5 167.4 166.9 166.2 168.1 167.2 167.2 175.4 183.5 190.2 188.1 181.1 181.1 182.9 186.3 191.3 192.2 193.7 197.9 198.1 197.8 195.4 195.1 193.1 192.6 190.6 196.7 200.8 208 206.5 196.7 184.3 179.1 178.5 179.3 179 179.5 186.5 193.5 202 203.9 200.3 195.3 195.9 198.8 203.5 209.2 212.9 216.4 221.2 225.9 231.2 234.9 237.1 238.8 239.7 241.4 243.1 241.8 240.9 240.5 241.4 252 256.7 263.4 271.3 277.8 280.9 285.3 288.2 293.9 298.6 304.7 310.7 315.1 318.4 319.1 325.4 333.9 344.3 356.5 369.2 381 380.8 387.7 394.3 394.1
108.4 116.9 121 131 140.2 145.1 150.3 157.8 157.8 159.3 164.5 164.9 165.4 163.6 156.2 153 150.1 145.1 149.3 138.8 131.8 125.1 123.5 119.4 105.2 97.3 79.8 73.6 68.1 63.1 53.3 60.6 71 76.5 78.6 80.1 83.1 85.3 93.8 108 110 108.2 107.2 107.3 116 125.9 134.2 137.7 138.6 140.6 139 138.4 138.9 141.1 142 150.2 155.6 152.7 146.9 146.9 149.4 149.2 150.7 153.5 151.5 149.3 144.7 143.2 139.8 133.3 129.6 127.8 119.8 120.4 114.5 112.6 109 109.7 111.4 111.8 112 120.5 128.2 133.4 152.1 164.3 172.1 182.8 186.5 188.9 193.9 194.6 193.5 191.3 184.9 178.7 176.5 173.7 172.6 173 172.1 171.6 170.5 171.3 174.1 173.3 170.8 168.8 165.8 162.3 157.8 165.5 168.2 171.1 168.7 167.2 168.5 167.8 167.3 166.7 176.5 186.2 192.7 191 182.2 184.8 183.5 185.1 185.3 189.7 194.1 195.3 196.6 197.1 195.3 192.7 191.6 192.1 189.3 190 194.7 197.1 200.9 191.3 184.2 177.6 178.2 178.6 178.3 181.1 186.9 189.9 198.9 205.7 204.6 199 197.9 199.6 204 209.8 215 219.1 223.7 229.1 235 237.5 240.8 241.6 241 240.1 240.1 245.7 246.6 247.1 249.3 255.8 260.7 266.9 273.8 281.9 286.4 289.9 287.4 291.6 296 301.6 306.4 309.4 312.1 313.6 319.8 331 342.1 352.3 364.4 372.3 374.9 381.2 386.4 394.9
104.8 108.8 118 125.4 139 143.3 146.6 152 157.3 158.1 159 160.4 160.9 161.9 158.2 157.2 154.5 150.4 154.9 145.4 131.7 126.2 120.2 111.1 101.9 89.8 83.1 76.9 66 63.4 55.7 54.7 62.9 72.3 75.1 78.8 81 87.6 90 91.3 103 105.8 103.7 105.4 108.1 116.4 122.7 130.8 134 138.8 138.2 137.3 137.3 137.9 142.7 146.4 150.3 149.4 147.1 146.7 148.4 151.3 150.1 149.9 150.6 148.1 144.8 144.1 141.3 134.3 129.5 124.2 120.1 116.4 114.3 112.1 108.9 110 109.7 110.2 110.2 116.5 119.7 126.5 134.4 151.3 158.7 166.7 175.2 180 180.5 181.1 181.7 183.8 182.8 180.1 174 172.6 172.4 176.5 183.5 180.3 176.4 170 166.4 166.9 165.3 163 160.4 157.1 160.4 170.1 171.5 171.4 169.2 173.7 172.4 169.5 166.6 165.7 176.3 186.3 192.5 190.1 183.1 181.6 183.3 186.6 187.2 187.1 188.9 189.9 193.8 193.8 197.7 198 193.9 189.8 188.2 185.3 184.3 184.8 191.9 187.4 178.3 177.9 178.3 177.5 179.2 181.9 182.7 186.8 194.9 203 204.2 199.3 200.3 202.9 206.5 211.2 213.6 221.5 229.3 236.9 238.9 240.7 241.9 240.1 240.1 240.1 244.5 248.2 251.3 253.2 254.3 253.8 263.8 269.3 275.9 285.5 289.5 287 285.5 287.8 292.9 297.2 299.9 303.1 305.9 312.7 317.9 328.5 336 349.4 361.3 365.5 371.3 382.2 387.2 394.5
106.2 105.6 111 119.5 128.5 138.7 144.2 147.4 153.9 157.4 156.5 157 158.6 162.2 163.6 161 164.2 163.9 157 145.6 130.1 119.1 112.6 105.9 97.6 89.6 82.7 75.9 65.5 61.5 53.2 56.8 63.8 67.4 76.1 75.1 85.6 86 86.7 87.2 92 96 103.2 106.4 106.4 113.1 117 122.8 129.1 134.8 137.5 136.3 136.5 134.6 140.4 142.5 145.5 145.5 144.9 146 148.1 150.7 149.4 148.2 148.3 147 142.1 142.2 141.3 138.6 133.3 125.2 120 117.5 116.8 110.4 109.6 108.7 110.7 108.4 108.2 114.4 116.7 116.3 126 133.8 145.4 152 161 167 169.3 171.6 176.2 180 178.3 177.7 174 172.5 173.1 178.3 184.4 187.3 188.4 178.1 168 168.9 164.7 159.2 156.8 156.1 155.6 166.9 170.2 168.4 169.1 174.5 173.1 170.9 165.7 165.3 176.3 185.2 190.9 186.7 177.4 177 181.5 183.9 185.8 185.5 184.8 186.4 188 192.5 193.8 200.7 201.7 194.8 186.1 181.5 177.3 176 180.4 182 176.5 177.8 177.2 177.5 178 181.2 183.8 185.4 194.6 201.4 201.8 202.3 204 208.2 212.4 217.9 221.1 216.8 236.1 240.5 241.7 242.5 240.1 240.1 240.1 240.1 245.6 251 255.8 258.9 261.6 261.9 265 272.4 278.9 284.6 286.5 283.2 284.1 285.7 288.2 291.9 296.1 306.6 306.3 311 318.6 325.9 339 355.1 364.5 372.8 376.6 383.2 390.1 395.5
99 104.4 109.3 115.3 124.9 133.9 138.4 146.9 151 153.2 155.4 157 159.6 159.4 163.1 166.2 169.3 166.6 151 141.6 130.9 117.9 109.3 101.5 95.4 85.8 77.7 71.9 66.4 61.6 55.3 59 63.9 66.9 70.5 74.7 80.6 82.6 83.6 84.8 90.4 91.3 97.4 101 105.2 107.4 112.4 118.8 124.2 133.1 134.6 133.7 135 133.7 137.9 141.6 144.3 143.5 144.2 145.9 147.6 151.6 149.7 148.2 145.7 144.3 140.4 140.4 140.4 138.3 137.6 131.9 121.8 119.1 112.7 111.2 112.4 108.8 108.5 107.3 107.1 109.4 115.2 113.3 123 131.5 140.9 142.4 148.7 155.7 157.8 164 169.6 173.7 175 175.5 174.3 174.2 175.7 185.1 189.4 189.6 189.5 185.1 173.9 174.9 174.4 163.3 155.8 155.7 154.8 154.6 163.1 165.3 170.4 172.5 170.7 169.2 164.6 169.6 177.5 184.3 189.7 184.3 172.8 176.6 179.1 179.7 180.9 181.3 181.1 186.3 189.2 190.1 191.2 191.2 198.6 197.3 190.5 178.8 174.6 175.1 177.1 177.5 176.8 177 177 177.7 183.4 187.4 186.8 190 197.4 202.2 203 206.3 209 213.1 218.6 224.2 229.1 233.2 228.2 236.1 242.5 242.5 240.1 240.1 240.1 243 251.9 256.5 261.4 264 267.8 270.2 272.2 271.2 281.4 285.6 285.3 282.1 283.4 285.3 289.2 297.3 302.6 308.5 313.4 317.9 320.9 328.5 343 357.2 367.7 377.5 378.7 383.1 393.5 395.2
90.9 100.3 103.6 108.3 119.1 131.6 139.2 152.8 152.4 151.1 154.1 161.6 154.6 160.3 165.9 166.5 165.6 159.7 151.1 145.6 129.4 118.6 108 102.2 89.7 80.4 74.1 69.4 67.6 59 56.7 57.1 60.3 63.1 67.3 77.7 80 80.4 82.6 84.2 89.3 87.6 89.7 94 106.5 108.3 111.2 114.1 118 122.8 129 131.6 133 132.2 136.5 141.6 143.7 145.3 147.4 149.1 155.3 148.8 146.3 148.5 145.5 142.2 139.2 135.5 138.9 136.6 137.2 132.6 125.1 118.7 112.2 109.4 115.7 112.5 108.2 106.8 106.3 107.9 112.1 113.8 129.4 139.3 144.7 146.4 141 145.3 150.9 157.9 164.5 167.7 170 175.3 179.4 179 178.4 183.5 187.4 191.4 188 184.7 180.9 176.7 175 171.3 158 154.9 154.4 154.4 155.5 164.3 168.7 170.1 170 165.7 166.4 173.9 178.2 184.2 188.1 181.5 170.9 173.9 176.3 174.7 173.5 178.6 184.9 185.8 184.8 188 187.3 185.2 185 190.7 186 178.8 174.3 176.6 177.5 175.8 177 176.7 177.8 178.6 181.6 183.8 187.4 193.7 200.2 204.2 205.3 209.5 213.1 218.1 224.5 231.1 235.5 239.4 235.9 240.5 241.9 241.4 240.1 240.1 243.1 249.5 258.7 261.7 266.3 272.1 274.9 276.5 276.3 283.1 278.4 279.3 281.4 283.3 287 292.2 298.4 304.8 307.8 314.6 319.5 321.3 326.4 334 349.4 359.9 367.9 374.7 383 386.2 392 385.2
82.5 96 99.6 103.5 113.4 124.7 131.8 140.7 151.6 151.5 149.6 155.2 150.6 160 161.5 155.8 153.4 150.4 144.1 134.6 124.1 115.9 108.8 102.3 89.8 81.8 74.1 68.2 64.7 54.2 56.8 57.4 57.8 62.6 71.1 77.8 78.4 79.2 81.7 82.2 86.7 88.9 93.6 94.6 97 104.1 106.5 109.5 112.3 115.7 119.5 123.5 133.6 134.5 135.5 140.9 145.7 146.9 146.8 145.6 152 149.5 145.4 145.6 147.4 144.4 139.7 133.1 132.2 133.1 131.1 127.9 125.2 118.2 110.8 108.6 111.4 114.4 109.1 106.4 106.5 107.4 110.2 118.4 130.4 141.6 143 140.9 136.9 135.2 143.6 152 155.9 160.9 168.9 176 183.8 187.7 183.7 188.2 189.3 193.3 194.9 190.7 187 181.6 172.7 168.1 160.3 153 153.6 153.8 155.5 162.1 167.8 166.7 163.8 164.6 180.5 182 182.6 182.8 185.4 179.5 169.3 168.8 169.2 170.2 174.9 181.5 180.7 182 181.4 182.1 181.9 180.8 180 182.9 182.4 174.2 174.7 179.1 183.1 187.9 191.9 187.8 182 180.1 180.6 181.9 187.7 195.7 200.6 204.7 208.2 212 217.3 225.4 232.2 235.3 237.5 238.4 235.4 241.3 241.7 242.5 243.4 243.6 246.3 255.2 259.6 265.9 270.8 279.2 282.4 284 282.5 284.6 285.1 288.3 288.2 292.2 298.7 302.2 307.8 314.9 314.2 324 329.5 331.9 330.9 345.9 353.8 362.6 368 379 384.5 387.5 376.8 373
78.6 87.9 91.2 94.9 105.6 113.5 123.5 131 138 145.5 147.2 142.4 146 145.9 153.9 148.7 145.4 139.8 134.3 128.4 122.8 117 103.8 96.3 87.1 77.6 72.1 68.7 60.3 52.1 55.8 57 58.5 69 70.7 74.8 74.7 75.4 77.8 79.2 83.7 86.1 89.6 93.7 94.4 99 104.3 105.1 107.4 111.6 113.9 123 128.5 133.1 132.8 137.8 142.8 147.6 145.8 145.1 143.4 144.8 148.8 144 145.4 145.7 141.7 134.6 131.6 128.4 126.8 130.2 125.7 124.8 110.8 107.7 106.6 108.4 109 106.8 108.8 109.4 108.9 119 128.9 139.1 139.4 131.9 124.8 127.2 137.6 150.1 158.4 162.2 168.1 175 181.3 187.5 187.7 187.4 187.4 191.2 194.4 193 189.5 181.5 170 160 154.6 154 153.3 154 154.9 160.7 166.8 165.3 161.9 161.3 173.9 180.8 182.8 180.1 177 171.9 167.8 167.3 169.2 169.5 174.1 176.5 177.9 180.9 176 171.5 171.7 171.7 171.1 172.1 173.9 175.3 175.1 178.8 182.9 193.4 198.9 198.4 190.6 181.2 182.6 185.9 190.8 196.9 202.3 207 210.7 214.5 221.8 230.6 236.9 238.3 238.3 238.2 235.6 239.3 241.4 244.1 245.8 247 249.9 258.7 261.4 269.2 276.6 289.2 289.1 288.8 288.5 289.8 290 292 295.2 304.2 308.3 308.3 317.3 322.5 327.8 325 331.5 338.8 338.2 345.7 355.2 361.9 372.2 381.5 387.4 385.3 373 360.7
76.6 80.7 90.5 88.6 101.8 111.4 119.4 126.3 134.2 135.1 137.6 142.1 147.9 142.6 136.8 137.4 136 131.7 130 123.3 115.6 111.7 102.1 93.5 86.6 76.5 71.4 65.3 58.4 52.1 55.1 56.2 58.7 68.2 70.8 71.3 73.7 73.8 77.4 84.5 82.2 82.3 87.5 94.5 97.3 101.7 100 103.8 106.6 108.9 114.5 118.5 120.5 123.6 128.9 132.3 135.2 143.8 141.4 145.6 142.1 141.5 143.8 145.8 141.6 145 141.8 133.5 129.2 126.9 123.6 126.9 123.6 120.6 116.5 107.6 109.3 106.3 108.8 109.7 106 111.9 110.2 116.5 126.9 135.2 133 123.8 122.4 128.8 141.1 153 162.9 171.6 172.3 172.7 177.5 180.6 183.7 183.2 184 184.7 188.9 192.8 191 181.1 166.4 154.3 153.4 153.4 153.3 154.3 155 157.4 162.1 161.8 159.6 160.1 164.9 167.5 171.8 168.2 169.5 167 168 172.3 172.1 173.9 176.9 174.9 174.4 171.6 170.7 172.4 172.1 177.2 178.2 181.5 176.4 172.4 175.5 178.2 185.9 196.6 202.6 202.7 197.1 185.9 185.2 190.2 196.7 199.8 205 209.3 213.2 217.8 228.9 233.6 237.7 238.5 238.3 237.8 238.4 238.6 240.4 243.4 247.2 247.7 251.4 256.7 265 269 283.5 294.3 294.8 295.5 295.2 295.4 300.7 300.7 314.1 316.5 315.8 314.3 325.9 334.3 336.8 335.6 335.8 337.3 346.4 355.5 358.7 367.6 375.1 384.2 387.5 382.1 372.3 353.8
75.2 77.9 84.3 87.4 97.3 102.5 115 123.6 128.4 131.4 134.6 135.6 137.4 133.1 130.8 127 127.9 127.8 124.4 126.4 120.6 108.5 98.8 90.5 82.1 73.4 68 61 52.9 52.8 57.1 57.8 59.6 69.8 70.1 68.8 69.4 75.2 79.2 83.1 79.4 81 95.5 100.5 99.4 100.2 103.2 101.4 101.8 105.5 112.6 115.8 117 116.9 118.9 122.9 126.6 132.8 139.5 139.2 141.2 139.3 137.7 138.5 138.9 142.2 140 130.9 132.2 133.7 125.3 123.5 123 118 116.6 110.1 105.5 105 104.5 105.2 103.2 112 115.3 113.3 119.9 128.8 128 118.5 123.6 129.9 140.4 151.6 158.4 170 174.4 172.4 170.9 173.1 174.4 173.8 176.6 181.5 184.3 189.3 186.9 178.5 166.5 155.6 154 153.5 153 152.1 156.2 157.7 154.6 157.5 156.5 166.4 174.8 175.9 170.4 170.1 166.8 166.5 169.4 169.4 171.1 173.3 173.6 172.4 168.4 170.2 178.7 185.9 187.8 187.2 185.2 185.9 185.6 183.6 184.2 189.8 197.5 202.4 202.5 202.2 196 189.5 188.4 193 197 201.5 206.6 211.7 216.1 224.5 231.9 237.1 238.2 239.1 239 238.7 237.9 237.8 241 243.4 245.2 247.1 251.9 259.4 266.8 274.1 287.4 296.4 301.2 298.7 301 302.9 310.3 315.2 318.8 320.5 324.9 323.2 330 339.7 346.8 343.9 344.2 344.5 348.5 355.3 366.6 369.9 378.5 384 382.2 374.5 361.7 341.9
82 75 77.8 85.8 92.8 98.9 108 115.6 122.4 125.1 129 127.1 130.8 128.9 124.8 123.3 119.1 116.8 117.5 115.9 117.1 109.6 97.7 88.2 81.1 72.4 66.3 59.2 52.1 55.8 55.8 58.9 64.1 65.9 68.1 67.1 67.4 73.8 76.9 77.4 77.3 81.9 94.3 96.9 100.5 99.3 99 99.9 97.9 99.9 103.9 107.5 110.1 112.7 119.6 125.4 131.2 127.9 133.4 137.3 136.3 135.8 137 133.3 135.8 134.8 135.8 130.1 135.9 137.2 133.4 126.8 120.2 113 111.3 109.7 105.2 104.3 104.5 104.3 104 107.1 114.4 115.7 113.9 118.2 120.5 117.5 120.7 129.6 136.9 147.2 154.2 164.2 169.9 167.6 161 165.9 168.8 171 173.6 176.4 181.8 185 183.2 178.9 169.8 162.7 164.6 163.4 156.5 155.9 151.2 155.9 154.2 151.4 156.8 167.5 178 182.5 177.7 168 166.9 165.6 166.6 168.2 169.4 166.4 166.6 168.9 169.6 176.6 181.7 187.2 195.1 197.8 194.8 189.8 188.6 187.5 191.5 196.3 200.9 202.3 199.4 195.3 192.3 191.3 189.3 193.3 197.2 202.3 208 213.9 220.3 230.3 236.2 237.8 238.8 239.6 239.8 240 239 237.3 239.8 243.1 244.8 246.5 251.5 256.2 266.6 281.1 289.8 296.8 300.8 303.5 306 311.9 324.4 324.5 321 323.4 334.9 334.6 339.7 346 349.7 355.6 360.7 353.5 353.7 360.4 374.4 375.4 379.7 374 372.3 367.1 347.5 339
81.2 75.9 74.3 78.9 87.6 95.2 104.1 112.1 116.8 120.5 123.5 124 124.6 127 121.4 118.7 115.5 111.7 108.9 110.2 104.6 101 94.9 86.3 78.3 70.5 61.6 57.7 52.1 55.3 55.3 56.6 59.2 61.7 64.1 66.3 65.4 67.8 73.2 75.4 76.3 78.2 92.7 92.2 95 97.8 96.1 96.8 95.8 97.4 98.7 107.5 111.6 118.5 124.6 123.5 123.7 127.8 127.1 132.4 134.6 132.4 136.1 132.6 129.2 127.8 129.3 131.6 129.8 137.1 134.9 128.6 119.2 108.1 107 103.6 107.2 107 104.6 103.5 103.6 106.9 107.2 114.4 115.3 110.9 111.6 113.6 116.6 124.4 132.2 140.2 150.1 156.1 162.7 156.4 157.8 168.8 175.2 176.1 175 173.5 177.9 180.5 179.2 175.5 170.7 172.2 169.2 166 157.8 156.3 153.4 147.1 151.2 151.2 160.3 172.1 180.1 181.8 178.6 172.5 171.3 171.4 167.4 166.3 166.1 174 181.3 179.5 169.7 173.7 179.8 185.8 192.4 198.2 201.1 197.2 190.9 188.9 193.4 195.1 197.2 197.8 194.6 188.7 190.9 193.4 191.9 192.6 196.6 202 209.6 217.4 225.2 234.5 237.3 238.5 239.3 240.1 240.7 240.9 239.5 238.5 240.1 243.5 244.3 248.5 251.4 256 272.6 283.7 291.8 299 302.8 306.2 308.9 319.1 330.7 331 323.7 328.8 343.6 345.7 351 351.7 357.2 363.4 370.8 362 359.8 363.9 372.8 381.9 369.8 365.8 365.9 350.4 341.9 339.8
78.7 74.7 80.2 79.8 85.1 91.7 101 110.5 116.7 119.2 120.7 122.7 123.9 123.1 124.4 117.6 113 111.6 109.3 106.4 103.7 100.2 92.4 85.1 75.9 65.7 60.9 56.9 52.1 54.9 55.4 55.2 58.5 58.6 59.9 63.2 65.8 69.5 71.1 75 80 82.8 86 90.4 92.3 92.9 93.7 92.6 95.2 97.9 101.4 110 113.4 119.9 121.5 124.8 123.2 125.2 127.1 126.5 128.2 130.1 131.9 126 125.3 127.7 134.4 130.6 124.9 129.1 131.5 125.8 117 105.3 103.3 104.7 109.7 112.2 107.6 104.2 103 103.7 103 107.4 110.9 109.9 107.8 113.5 115.3 118.2 129 135.8 142.6 150.1 155.5 146.7 153.5 166.4 173.5 177 175.1 174.1 171.5 173.8 174.6 174.3 176.7 172.2 167.3 165.7 159.3 159.5 156.6 150.6 146 149 158.9 170.5 178.4 179.1 177.5 173.2 170.6 172.9 177.3 168.1 161.4 171.4 179.7 182 179.4 174 176.9 182.5 189.1 196.3 199.8 199.4 193.4 187.2 187 188.1 189.1 190.1 189.7 190.7 193.7 195.1 194 193.7 194.3 202.3 210.8 219.9 228.4 236.3 237.9 239.4 240.8 241.5 242.3 241.6 240.8 242.4 243.6 245.8 247.2 248 251.5 259.1 274.5 283.7 289.5 295.6 301.9 307.4 312.5 320.3 332.3 338.9 335 335.8 345.6 352 355.7 354.9 358.8 368.6 363 358.6 362.2 367.3 374.5 375 367.4 362.7 349.5 347.3 347.8 342.3
74 73.5 75.7 75.6 84.7 90.7 100.1 108.7 116.3 119.4 119.1 121.6 123.7 122.1 120.2 119.9 117.5 116.4 110.9 105.3 103 97.7 90.8 82.6 71.7 66.6 58.2 56.2 53.7 52.6 54.3 54.7 54.8 59.1 58.4 62.6 62.9 67.7 70.2 75.4 78.8 81.3 81.9 85.4 89.1 93.1 91.7 92.1 95 97.1 102.7 106.8 111.1 118.1 119.3 121.4 122.1 122.7 123.8 124.4 124.7 125.5 124.9 124.5 122.7 123.5 127.5 131.6 126.4 119.6 121 120.9 111.7 106.7 103.7 106 105.8 110.1 106.1 103.4 103.1 103.4 103.3 103.1 104.2 107.6 105.2 112.7 115.3 114.2 121.6 130.3 134.9 144.8 149.8 141.1 144.9 156.3 166.2 172.6 175.6 170.5 167.6 169 171.1 174 173.7 172.3 167.9 161.4 159.7 157.5 153.9 149.9 143.3 145.6 157.5 169.5 176.7 175.7 173.3 167.7 165.6 166.9 171.8 174.8 163.4 164.5 174 174.6 172 167.8 170.2 179.1 183.9 190.9 195.4 193 185 183.8 181.7 181.1 181.8 184.9 189 192.2 195.5 196 195.9 196.8 198.2 198.8 210.8 220.7 229.5 236 238.1 240.4 242 244.2 243.4 244.8 245.3 249.3 250.2 251.2 253.1 253.6 257 265.6 277.6 281.7 287.9 295 302.8 311.8 320.5 329.4 336.4 344.6 342.5 340.7 346.3 349.3 353.3 354.1 349.5 351.1 353.6 353.9 359.3 363.7 356.1 359 362.4 352.4 342.1 349 339.2 334.6
73.2 74.3 72.6 72.3 76.7 88.2 98 109.1 114.2 118.2 120.8 121.6 122.9 123.6 123.2 122.5 121.9 124.9 119.8 107.5 103.3 95.3 86 75.6 70.2 64.6 58.4 57.5 55.8 52.1 52 52 52 54.5 54.9 60.1 60.7 60.5 70.5 77.5 77.7 78.8 81.1 82.7 84.6 88.2 87.2 92.5 97 98.7 103.3 105.9 108.5 114.7 119 122.5 122.6 120.7 123.3 123.4 123.1 122.7 122.7 122.7 122.7 122.7 122.7 122.7 127.6 119.8 115.2 112.7 107.5 107.7 101.7 104.4 103.7 102 104.9 103.8 103.5 103.3 102.6 104.8 103.9 104.3 104.4 106.2 115.7 115 114.8 121.9 129.7 137 144.7 138.8 143 147.2 159.1 163.9 167.7 169.4 167.9 163.5 165 168.6 170.1 170 166.3 162.2 159.3 157.8 151.9 147.6 144.8 144.2 155.2 168.8 172.9 171.8 167.3 161.3 159.2 160.5 162.9 166.8 163.8 158.2 165.5 166.7 163 167.4 177.4 185.2 189 184.5 187.9 185.5 180 178.5 178 179.3 181.1 186.3 190.8 193.9 196.2 197.4 199 200.6 202.2 204.8 207.9 220.7 228.3 233.5 238.2 241 243.2 245.1 246.6 250.8 253.2 255.6 257.7 260.4 257.7 258.9 264.1 270.3 276.6 283.7 288.1 299 310.8 320.6 331.3 336 345.1 350.3 346.9 349.4 337.5 339.9 342.5 340.8 335 343.8 343.9 348.5 355.4 352.8 347.2 346.7 339.7 339.8 337.4 330.5 335.2 326
77.2 74.9 71.7 70.1 74.8 84.5 93.9 108 117.3 126.3 125.7 127.6 131.9 128.5 127 131.8 122.5 117.6 115 106.6 99.7 93.8 83.7 74.4 68.8 62.7 59.4 56.4 55.7 56.2 55.6 55.9 53.1 52 52.8 59.7 57.1 59.1 67.4 76.6 78.7 77.2 79.4 82.5 81.8 83.4 87.7 94.6 97.9 99.5 102.2 105.9 110.4 113.3 113.7 118.1 120.3 120.1 122 124.5 123.7 123.4 122.7 122.7 122.7 122.7 126.8 129.8 125.7 119.7 114.3 114.7 108 103.1 103.7 101.5 101.6 101.3 102 108.6 107.8 105.4 102.8 103 108.6 106.5 103.4 103.6 108.2 115.3 111.4 118 122.6 133.5 139.7 136.6 144 150.1 151.5 154.2 159.3 168.3 167.8 163.3 162.3 165.2 166.1 166.2 163.9 160.8 156.5 153 148.8 147 146.5 143.6 150.7 165.1 169.3 167.1 159.9 152.6 150.4 151.8 154 159.1 158.1 153 153.8 159.1 164 172.3 181.2 190.5 194 190.6 181.1 178.7 178 178 178 179.3 182.1 188.8 194.4 197.3 198.3 199.2 201.6 204.2 205.9 208.7 214.3 220 227 234.1 239.6 243.8 243 244.5 249 254 256.7 259.5 263 269.4 269.2 264.7 265.4 273.5 283.8 291.3 293.6 298.4 313.3 326.1 336.5 346 349.8 349.1 351.2 345.3 337.6 330.2 335.5 329.3 325.2 328.1 336.1 336.5 341.9 341.8 336 327.6 333.2 337.1 331.9 324.8 318.4 314.9
79.5 76.7 70.8 72 73.1 77.6 88 96 110.8 122.6 128.9 129.9 128.1 129.1 126.8 124.8 123.7 115.3 112.1 106 103.5 94.9 82.7 75.1 67.9 62.2 58.8 56 55.3 55.8 55.8 55.5 55.8 54.7 51.6 54 55.4 59.7 65.5 72.9 76.5 76.8 77.8 80.5 82.3 83.1 85.8 92.1 94.9 98.9 100.5 105.1 109.8 112.1 111.4 115 119.6 118.4 118.4 120.6 123.8 125.6 124.7 124.3 124.2 127.8 132.5 138.5 132.6 130.9 118.1 109.3 109.9 103.5 101.5 100.8 108.8 104.5 101.2 108.9 110.9 107.5 106.3 102 104.5 109.9 104 103 103.6 106.7 111.2 115.5 119.4 131 135.4 135.2 139.4 144.4 145.2 145.5 156.8 163 164 164.9 162.9 160.5 161.6 160.8 160.9 160.5 162.3 156.6 154.7 152.1 150.3 145.9 144.1 160.7 165.7 160.9 148.2 144.2 143.7 144.6 143.9 147.8 149.6 150.1 153.9 156 163.4 174.4 182.3 190.7 196.1 192.1 186 178.1 178 178 178 179.3 182.5 191.8 198.9 204.9 201.5 201 203.3 205.5 208.6 211.4 216.5 222 228.2 235 243.1 250.9 250.9 247.4 253.4 257.3 261.7 266.7 271.8 276.6 276.9 274.9 269.9 279 287 291.2 294.7 306 324.4 334.2 345 346.9 347.8 351.4 345.7 338.6 331.3 322.8 323.4 316 316.3 320.3 325.1 331.4 328.4 328.6 319.7 321.4 322.9 328 321.6 315.2 307.2 298.4
85.1 79 69.3 68.9 68.8 78.8 81 87.4 101.5 108.7 115.7 119.3 121.2 118.5 124.6 123.4 120.5 114 110.7 103.1 95.6 91 84.3 74.9 66.8 62.1 56.4 56.3 55.1 55.5 55.2 55.1 55.5 55.5 54.7 51.1 53.3 57.3 63.4 72.6 75.9 75.3 82.6 81 82.7 88.2 88.9 88.2 93.5 100.3 100.4 103.8 108.6 110.4 110.3 113.3 114.9 116.1 115.8 118.8 124.9 127.3 129.5 126.6 131.2 131.6 131.7 133.1 133.6 130 127.2 116.8 111 107.3 102.7 100.6 101.5 108.8 101.6 104.3 113.6 111 110.6 103.6 102.1 106.3 108.6 103.1 103.2 103.5 107.2 107.4 117.4 131.6 131 135.6 135.7 137.1 137.4 151.4 150.6 153.2 161 164.6 162.3 156.9 156 158.4 156.2 158.8 164.3 166.1 159.3 153.2 149 144.4 142.2 157 162 156.9 144.2 143.7 146 147.5 147.9 150.1 152.1 161.4 164 163.5 166.6 173.9 182.2 190.7 195.8 190.6 183.6 178 178 178 178 185 186.4 188.6 197.2 203.8 203.1 201.9 204.4 206.6 209.2 211.8 217.4 223.6 229.8 236.8 242.7 251.6 253.8 256.5 261.4 263.6 267.3 272.7 278.2 283.5 284.1 286 281 283.4 288.7 290.6 302.1 313.9 325.4 334.6 342.2 348.4 348.1 352.9 344 336.6 328.9 316.7 310.4 308.4 308.9 308.9 311.9 314.3 315.2 311 311.7 306.7 311.9 315.2 312.9 305.9 296.5 283.3
85.8 76.2 73.1 68.8 66.5 82.6 88.9 84.4 86.9 101.7 107.7 110.5 112.6 115 113.5 117.6 116.8 110.4 104.5 97.2 92.7 89.3 82.8 75.1 66.3 60.2 55.9 55.2 54.8 55.2 55.1 55.1 55.1 55 55.1 54 51.1 60.7 65 69.9 70.3 74.9 82.9 83.8 87.5 88.9 88.5 91.6 92.6 97.1 99.2 101.4 103.7 108 110 113.3 112.7 117.2 118.7 122.7 128.1 131.1 129.4 131.4 133.1 132.6 130 130 130.2 130 128.2 122.2 120.3 123.3 112.5 101.1 100.4 103.7 106.3 101.9 111.1 109.8 112.8 109.5 102.7 102 104.9 105.6 102.5 102.9 104.3 107.9 111 123.9 128.7 133.6 135.6 135.5 136.4 147.9 146.9 150 154.8 159.2 159.7 156.3 155.2 154.4 155.6 161.9 164 166.2 164.4 157.3 150 143 140.5 152.2 160.9 157.3 144.1 141.7 147.8 153.7 156.9 155.4 156.9 163.3 171.3 170.3 166.1 174.8 182.5 191.9 193.5 186 178 178 178 178 181.3 186.2 188.1 187.1 192.9 198.8 200.8 200.4 204.5 205.3 209.1 212.2 217.6 223.8 230 236.4 244.5 251.4 256.4 260.9 265 269.1 272.5 276.8 281.7 289 289.9 292.7 289.3 282.4 285.3 293.1 305.1 315.6 325.2 335.2 344.7 348.7 348.4 345.8 341.4 331.3 322 311.5 304.1 303.5 302.6 296.9 300.9 301.6 303.4 301.4 302.8 299 298.2 301.3 303.6 296 285.5 274.8
87.5 77.4 70.8 66.5 61.8 75.7 82.1 86.8 78.7 91.8 100.8 97.5 102.4 111.3 107.4 105.6 110.7 106.1 97.5 94.5 93.6 86.1 80.3 75.4 67.2 59.6 56.2 54.7 54.4 54.7 55.2 54.5 54.9 54.8 54.9 54.8 51.1 55.9 64 70.7 77.5 75.5 78.5 81.5 88.3 88.5 90.5 91.6 93.4 95.7 97.6 101.3 102.9 103.2 104.4 110.2 118.4 125.7 127.4 128.6 136.5 137.5 132.1 132.2 131.4 132.7 131.6 133.5 130 131.7 128.1 130.5 129.7 122 121.1 108.1 102 101.1 103.8 102 107.1 111.6 111 110.8 103 102.2 101.2 102.3 101.9 102.5 103.1 106.7 111.5 113.5 123.5 128.9 135.5 135.4 138 140.3 144.2 145.2 148.9 152.8 151.2 153.4 152.6 152.4 151.6 159.4 163.2 164.4 163.4 159 154 145 136.4 146.7 153.7 158.8 149.7 140.3 147.8 157.9 164.6 166.6 163.4 161.7 171.1 177.9 176.3 175.1 183.7 191.5 192.1 181.9 178 178 178 180.6 188.8 185.1 186.7 189.4 189.8 193.2 195.7 201.1 202.2 204.6 209 212.5 217.7 223.9 229.9 236.7 243.6 251.6 258.5 263.3 267.7 272 276.2 279.6 281.6 283.8 287.9 289.3 289 285.6 283.6 295.6 302 315.7 323.4 335 341.6 348.7 345.8 337.8 334 325 315.1 305.4 297.1 294.9 294.4 293.7 292.5 291.5 290.3 290.1 293.4 289.7 285.8 295.3 290.7 285.5 276.8 268
86.9 74.9 68 63.8 60.9 62.4 65.7 77.8 70.5 75.7 87.2 92.5 99 105.1 101.8 98.9 98.5 101.4 93.7 91.7 87.8 84.5 81.9 73.8 65.7 59.1 55.6 54.1 55 54.5 55.1 53.6 54.3 53.5 52.5 54 51.1 66.1 66.9 72 75.2 75.1 79.8 81.1 82.9 87 91.2 96 92.8 94.8 95.8 96.2 100 100.7 103.9 113.9 118.9 126 130.8 132.3 135 141.1 137.6 133.9 134.3 131.7 131.5 136.7 137.1 132.2 129.8 125.7 125.8 123.9 118.4 116.3 111.8 103.4 100.6 105.4 102.6 108.1 109.4 108.2 105 102.7 101.7 101.5 103 102.8 103.7 105.2 109.2 113.5 117.9 123.9 132.1 135.2 137.5 137.2 140.2 145.8 144.1 143.8 148.6 151.4 153.2 152.5 148.4 153.7 158.8 161.6 160.4 156.8 153 148.3 134.3 137.8 140.4 145.1 148.4 140.7 154.3 160.2 166.1 175.4 174.3 169.4 167.1 176.9 181.3 176.9 183 189.3 192.7 178 178 178 179.4 182.4 184.4 190 189.2 188.1 190.3 194.2 198 201.6 202 203.5 206.4 214.5 217 222.5 228.9 236.1 244.2 252.2 259.6 265.5 270.4 274.9 272.6 273.7 278.5 280.6 282.9 282.6 284 282.3 280.9 293 298.3 305.4 316.3 326.1 335.2 339.3 336.6 328.5 320.9 314.7 307.4 298.4 290.6 283 283.4 283.6 281.8 282.7 279.1 278.6 285.1 280.6 277.5 278.8 276.8 273.3 270.6 264.3
83 73.3 66.8 62.4 62.8 57.6 59.1 62.4 61.8 60 70.8 87.9 94.9 100.5 96 94.4 92.1 92.3 90.5 87.2 85.6 81.7 79.9 71 66.6 60.8 55.3 54.6 54.9 53.4 53.5 53.3 51.9 52.6 52.5 51.1 55.7 67.6 68.7 68.4 72.3 75.3 78.9 81.3 82.6 83.4 89.2 93.9 97.2 97.3 94.9 96.8 98 101.3 108 114.1 120.1 124.5 129.7 135.6 139.3 145 141.3 139.6 133.3 132.8 131.3 132.6 136.6 134.7 128.9 125.1 122.2 120.8 120.2 116.1 114.4 106.7 101.5 100.4 101 105.8 107.1 107.8 106.4 103.3 103.3 101.6 103.4 104 106.6 110.1 107.3 110.1 116.7 122.6 128.8 133.5 134.9 137.7 136.7 139.4 141 141.1 145 147.4 148.7 149 147.3 147.2 152.6 155.9 156.4 152 149.1 136 136.7 145.3 145.8 142.6 139.1 140.5 152.8 160.6 168 176.5 179.6 177.6 174.7 171.6 180.7 179.7 178.7 187 190.6 178.6 178 180.9 182.4 183 186.7 191.6 189.3 191.8 191.5 193.9 199.7 200.8 202.1 203.8 205.3 213.3 215.8 222.3 229.7 237.4 246.7 251.9 258.7 266.2 272.1 276.2 272.2 273 276.2 279 279.7 279.8 278.2 277.6 278 282 290.8 295.6 304.2 314.7 321.1 325.2 320.9 317.2 310.8 302.9 296.8 291.3 285.6 280.6 274.6 275.5 273 272.4 270.5 269.5 269.1 269.8 266.1 269.9 266.3 263 262.8 260.3
80.8 73.3 66.2 62.4 57.9 57.8 56.9 60 62.9 59.4 71.3 77.8 92.3 95.8 91.7 89 89 88.2 86.8 84 88.4 80.4 74.3 71.4 67.7 61.3 55 54.2 53.1 53.8 53.2 51.1 51.1 51.1 51.1 53.1 54.6 62.1 67.9 67.1 68.4 68.9 75 78.8 80.8 82.1 89.2 92.5 95.5 96.8 95.6 100 106 109.5 115 118.4 121.5 128.7 130.3 134.4 144.2 146.7 144.9 142.3 139.7 131.9 132 128.9 130.9 133.3 129.7 122.6 120.2 118.8 118.4 120.5 113.7 109.3 107.4 103.7 100.1 102.1 104.3 105.8 106 105.3 102.2 102.4 103.5 108.6 109.7 120.1 115.8 109.6 119.8 124 126 128.9 132.4 134.5 135.6 136.1 141.4 142.3 140.5 142.9 142.1 143.8 144.6 146.6 145.8 148.7 147.1 140.7 140.3 135.4 137.1 140.3 152.1 154.1 145.3 142.7 150.3 160.4 169 176.4 180 178.9 177.4 176.8 175.6 176.6 177.8 180.8 184.7 179.6 178.6 185.8 188.7 185.7 188.1 190.4 191.3 191.5 192.6 198 197.6 200.3 202.9 204.2 206.1 210.7 215.6 223.5 231.3 240.2 248.6 253.7 258.5 264.6 269.7 272.1 268.6 273.1 274.8 273.3 272.9 272.3 271.2 269.9 271.1 275.7 275.6 287.2 296.4 306.3 312.5 311.8 306.8 300.9 298.3 296.5 288.9 283.8 279.3 274.8 272.4 271.1 267.8 265.4 261.4 260.2 257.7 259.2 263.6 259.6 258.9 253.7 252.6 250.9
76.9 72.5 66.8 63.6 59.5 56.6 67.7 68.5 61.2 59.9 61.9 75 85.6 88.3 87.4 87.3 85.3 87.8 82.3 81.2 81.4 78 72.6 70 66.7 61.1 55.7 53.8 52.8 51.1 51.1 54.1 54.8 55.5 53.7 53 54.5 58.2 62.5 66.3 65.8 70.4 76.7 78.3 81.8 83.2 86.4 88.5 90.7 92.9 97.1 109.5 115.4 116.2 120.9 122.2 126.7 133.8 139.2 137.2 139.1 146 147.3 144.7 144.4 136.5 130.6 127.6 127.4 127.5 127 122.5 116.4 116.7 118.4 118.1 116.4 110.3 108.9 104.9 105 102.5 100.2 107 109.8 105.6 102 100.6 102 110.3 110 119.7 124.2 113.2 110.3 121.4 123.8 124.2 132.5 132.7 132.7 135.7 137.2 138.9 138.8 138.7 138.1 143.1 139.8 144.3 143.2 141.7 138.8 136.4 137.7 141.7 138.1 139.5 149.6 157.3 153.7 145.7 149.9 157.8 168.6 172.3 178.4 177.6 175.4 177.9 178.6 181.9 177.7 177.9 179.2 178.2 183.3 185.1 188.6 188.6 190.2 189.8 191.3 192.6 198 199.2 200.2 202.4 205.6 204.4 212.2 218.2 222.8 229 236.2 247 249.1 254.7 260.2 262.2 265.5 266.8 265 268.5 268.8 266.6 266.1 265.2 264 264.9 265.8 266.3 268.9 274.8 282.4 290.1 294 295.9 295.4 290.4 289.9 289.6 283.3 276 273.1 270.4 268.9 267 264.8 259.6 256.6 253.8 251.3 250.5 252.6 253.3 249.8 246.9 245.2 243.3
73.7 70.7 67.5 64.4 61.1 56.8 61.3 68.7 63.8 55.5 55.5 65.4 75.7 79.1 79.4 83.9 83.7 80.4 83.7 79.5 78.9 76 69.8 67.1 67.5 59.5 54.8 52.5 53.4 51.1 53.5 52.7 53.4 53.3 53.7 52.5 54.7 56.6 60.1 60.8 68.3 76.6 75.9 76.2 82.5 81.8 81.5 86 90.4 96.8 106 114.3 122.1 121.2 122 126.4 129.2 133 140.1 141.3 147.2 149.1 146.5 145.7 143.3 140.1 133.2 127.9 127 124.6 124.2 120.7 114.2 114.3 113.4 114.1 113.9 111.4 108.5 106 104 103.8 99.7 106.4 113.6 112.3 105.9 106.7 100.8 108.4 107.7 117 123.5 121 111.4 113.8 120.8 124.8 133 133.8 131.2 133.6 134.6 135.3 135 136.9 135.3 136.7 139.4 141.6 143.4 138.3 135.3 133.4 134.3 151.4 151 145 145.1 155.8 157.5 154.4 147.8 153.3 161.2 167.7 171.6 175.4 174 173.7 175.2 181.8 187.3 180.3 178 179.4 182.6 184.6 187.4 190.9 189.5 190.6 193.6 195.4 204.4 205.1 201 203.9 205.5 210.3 217.2 221.4 227.5 234.9 243.3 246.1 250.9 253.7 254.6 256.6 259.4 259.8 258.6 260.7 260.4 260 259.2 258.5 259.4 259.6 260.9 261.8 263.8 270 271.8 271.2 278.2 281.1 282.9 281.4 281.1 279.7 274.3 273.6 276.2 271 266.2 261.7 259.8 257.6 253.5 250.7 246.4 244 245.6 243.5 241.4 240.2 238.1 239.2
68.5 66.1 65.3 65.1 62 58.6 55.5 56.4 57.1 55.5 55.4 55.2 63.8 71.3 74.9 78.4 78.5 78.2 81.2 77.1 74 72.8 70.7 69.4 66.3 58.8 54.6 53.2 52.5 51.1 52.5 52.7 52.5 52.9 53.2 53.1 54.1 54 56 61.1 69.8 74 75.1 75.5 76.9 77.7 80.9 88.9 96.6 102.4 108.7 115.2 120.3 125.5 126 129.8 133.3 133.2 138.8 142.5 144 147.8 147.9 145.2 143.4 140.2 136 131.9 126.5 122.4 119.7 117.7 113.3 113.5 115.1 111.8 111.1 112.2 109.9 106.4 104.3 102.1 100.5 101.4 111.6 115.7 111.3 109.1 109.3 98.1 107 108.9 115.7 116.5 116 113.5 115.1 126.5 137.5 136 133.6 130.8 132.1 132.5 133.3 135.6 135 130.7 130.5 139.4 142.8 139.9 133 132.1 131.8 148.2 157.1 156.6 151.4 151.9 154.4 149.7 145.9 152.7 155.3 158 167.4 170.6 173.2 172.1 173.7 179.7 187.2 189.2 184.1 181.7 188.8 192 188.6 189.3 192.1 191.9 196.3 196.2 204.6 209.5 206 205 207 210.9 218.9 225.4 232.2 240.6 247.9 248.6 249.3 253.2 253.6 251.2 252.3 252.7 252.6 252.6 252.3 254.2 255 254.8 260.5 263.6 265.4 264.2 264.4 264 264.2 267.9 266 270.1 272.5 270.3 270.4 270.5 269.7 272.4 273.1 273 268.7 261.6 252.9 250.8 246.8 246.3 243.1 238.1 242.5 239.3 239.7 239.5 236.6 236.2
65.8 71 67.2 64.9 61.1 58.9 56.5 55.5 55.1 55.1 54.8 54.6 54.7 62.8 66.5 69.6 72.1 74.8 77 72.9 72.5 70.9 69.8 67.4 64.3 59.1 53.9 53.5 51 53.7 52.5 52.2 52.8 53.5 53.3 53.1 53.3 53.2 54.6 59.5 60.8 67.5 70.7 72.4 72.3 75.9 86.4 91.7 96.3 104 108.9 112.5 116.7 122 129.2 132.6 140.4 141 140.1 142.4 144.6 147.3 148.2 147.2 144.3 140.1 136.7 133.7 126.4 122.5 123.6 118.6 113.6 109.8 112.7 111.6 109 108.9 109 106.8 104.4 102.5 102.9 98 105.5 111.9 114.9 109.9 109.9 107.8 97.3 103.3 97.4 98.2 100.6 103.2 112 123.7 131.5 142.8 135.2 130.1 129.9 129.5 130.4 132.4 132.4 129 126.6 136.6 139.4 141.2 133.2 130.9 134.6 143.8 152.5 159.9 156.7 151.1 147.1 143.7 145 149.6 153.5 154.9 161.9 167.6 171 171.8 173.4 179.4 183.7 186.1 182.4 185.6 192.2 200.7 200.5 191.4 191.4 193.7 196.3 196.6 200.9 206.5 207.4 207.6 209.8 212.5 220.5 230.1 236.7 241.1 245.2 247.9 251.9 250.4 252 251.4 246.4 247.2 246.6 248.4 248.5 249.3 249.7 249.3 253 258 261.2 260.3 256.5 256.9 258 257.7 259.3 258.7 262.5 262.3 260.3 265.4 268.2 270.8 270.1 268.1 266.7 262.3 253.8 245.2 243.8 243.9 242.4 238.7 234.8 238.2 239.7 237.8 233.7 233.1
75.8 73 70.4 69 63.6 59.7 56.8 54.8 55 55.2 55.1 54.7 54.3 52.6 56.8 63.1 64 68.5 73.1 74.3 73.4 67.6 63.2 60.8 59.5 54.3 52.2 51 53.5 52.5 52.7 52.9 52.9 53 53 53.1 52.8 52.6 52.6 52.5 54.1 58.7 62.4 69.6 69.3 79.5 83.3 89.6 94.5 100.5 108.1 111.1 114.8 118.5 127.9 133.7 139.4 143.7 145.4 143.4 144.8 147.9 154.9 155.8 149.3 147 140 134.9 131.8 127 124.1 119.3 114.8 111.1 108.6 108.8 107 106.6 105.5 105.2 104.8 101.8 99.3 102.3 98.4 104.6 109.2 105.4 101.1 98.9 94.7 94.6 99.9 101.4 95.4 97.9 105.4 114.7 123.5 138.3 139 128.3 127.2 127.4 128.3 129.7 130 128.1 124.3 129.1 134.1 137.1 134.4 130.7 135.7 138.9 148.9 157.6 156.7 148.5 141.7 141.6 146.3 150.2 152.7 154.2 156.4 162.8 171.5 174 174.7 176.8 178.7 179.2 180.4 188.1 196.5 204.1 207.8 198.6 192.8 194.4 195.7 198.1 198.9 200.7 205.5 208.3 213.1 219 224.3 226.9 233.4 236.6 239.7 242.3 245.2 249.3 249.1 248.8 245.8 241.1 241.6 243.1 243.5 245 244.9 244.3 245.3 249.6 253.3 254.9 252.5 249.6 248.2 251.1 251.6 252.2 254.9 253.1 253.6 256.5 263.3 266.1 267.3 267.4 264.2 260.4 250.8 244.5 240.2 242.5 239.8 234.5 231.9 229.5 234.5 234.1 230.2 227.2
77.5 75.2 73.4 73.5 68.8 63.3 58.4 54.8 54.3 54.5 54.3 54.3 53.4 52.8 53.5 59.4 55.8 60 64.4 65 63.5 61 58 57 53.5 53.4 51 53.5 54.1 52.7 52.5 52.7 52.7 53.1 52.9 52.6 52.6 52.2 52.6 52.8 55.2 58 60.9 65.6 70.3 77.9 82 89 94.3 98 105.1 108.4 111.2 118 124.1 134.1 136.4 142.1 145 149.2 152.7 152.8 157 158.8 157 149 144.3 134.9 135.3 129.5 126.6 120.7 115.2 112.3 108.6 106.6 104.6 103 102.5 103.7 103.1 99.4 98 98.3 95.8 94.4 92.8 92.6 93.3 93.8 94.8 97.9 102.1 107.4 112.4 96.4 100.2 106.6 118.8 132.5 134.5 130.4 125.2 124.9 125.6 128.1 128.6 127.9 123.5 120.2 121.2 121.8 122.9 128.3 134.2 135.2 139.9 148.8 151.9 145 140.5 141.7 144.4 148.8 150.4 152.3 160.7 161.2 170.7 179.1 184.7 184.2 179.2 179.9 180.9 191.1 196.3 204.4 207.1 199 194.4 196.1 197.1 199.1 200.4 203 206.2 213.2 217.5 223.2 226.6 228.9 237.5 244.6 243.7 242.7 242 241.3 244.2 243.5 241.2 239.7 237 236.3 237.7 238.8 238.7 238.3 239.7 241.4 243.9 246.7 246.7 243.9 241.6 242.5 244.6 245 247.3 247 247.4 251.9 261.8 266.7 266.5 264.8 261.9 257.3 251.7 247.5 241.4 234.6 234.2 231.7 229.8 227 226.2 226.5 225.1 226.8
78.8 77.7 75.5 73.2 73.1 66 63.6 57 53.7 53.8 53.4 53.3 53.1 53.3 53 52.9 52.2 54.2 52.7 51.6 55.1 58.5 53.2 52.5 52.9 52.9 50.4 52.5 52.2 52.6 52.7 52.5 52.8 52.7 52.6 52.3 52.3 52.2 51.6 52.9 54.2 56.3 59.3 62.7 72.4 76.3 82 88.1 94 96.8 100.6 104.9 111.8 117.7 122.5 129.7 136 138.8 146.8 153.4 160.1 161.4 160.3 162.2 162.6 157.2 150.2 138.3 134.5 129.7 124.2 120.3 115.4 113.4 111.9 108 103.2 102 99.9 99.5 97.6 97.5 97.8 98.9 95.1 88.3 91.1 89.9 93.5 100.6 102.1 102.8 100.2 106.5 118.4 115 101.5 97.3 106.6 119 127.3 125.8 123.6 122.4 123.7 124.5 124.9 127.2 123.2 115.1 118.2 124.8 133.1 132.8 132.9 133.3 134.2 137.3 144.3 141.4 139.7 141 145.2 147.1 148.2 149.9 157.1 165.9 170.9 178.3 186.2 193.1 191 189.7 190.1 194.5 196.9 197.1 201.3 196.9 195.4 198.9 198.7 201.4 202.1 206.1 209.4 214.2 222.2 225.6 229.8 231.2 237.4 244.6 246 241.9 238.5 237.9 237 237.1 238 237.3 234.2 231.1 229.8 227.7 232.3 233.3 234.4 235.3 235.9 237.3 239.6 238.5 237.4 235.9 237 240.8 242.5 245.2 245.4 252.4 257.5 266.6 266.6 262.8 259.5 255.4 250.4 247.1 243.1 233.4 231.1 230.4 229 227.8 224.5 224.6 223.4 223
78.4 77.3 75.7 73.4 69.8 68.7 64.6 61.4 54.1 53.6 53.2 53 52.9 52.8 53.1 52.8 52.3 52.2 51.9 52.2 52.9 53.5 52.1 52.3 52.6 52.3 50.4 53.6 52.5 52.6 52.1 52.9 52.4 52.2 52.2 52 51.9 51.5 51.9 52.4 53.5 57.6 62.2 61.6 67.2 72.7 82.6 85.1 92.2 95.7 99.3 103.5 112.1 117.6 124.4 126.4 133.3 139.3 144.8 149.7 156.2 160.1 163.1 167.2 168.6 166.8 154.4 143.1 133 126.8 126 122.1 119.5 119.2 114.6 110.9 104.1 100.2 97 97.6 102.2 100.7 101.7 98.8 96.8 94.3 91.2 97.3 101.9 104 107.4 101.1 100.4 107 115.7 124.2 117.2 102.1 101.4 106 122.8 121 120.2 122.3 120.8 120.5 123.5 126.6 123.7 114 116.4 123.9 133.6 133.9 133.7 134 133.7 134.9 136.1 138.3 139 141.1 143.2 145.5 146.2 153.2 157.1 162.6 169.5 176.7 183.2 191.3 198.4 193.8 192.8 192.8 196.1 190.5 191.3 193.6 196.9 202.4 202.2 203.8 205.5 208.7 210.8 217 226.9 227.5 234.8 233.7 233.9 236 242 242 236.9 233.2 232.7 231.5 229.8 231.7 230.3 227.5 223.6 221.9 223.2 223.8 225.8 227.8 231.1 230.1 228.6 233 232.1 231.5 234.4 237.6 241.7 243.7 243.2 250.3 254.9 259.8 264.2 260 254.7 251.9 248.5 244.2 240.6 233.7 229.4 228.8 228 226.4 226 221.7 224.4 220.5
75.3 74.2 75.1 74 71.9 69.4 60.9 59.7 57.6 55.4 52.8 52.8 52.6 52.5 52.4 52 52.3 51.8 51.6 51.8 51.9 52.7 52.1 52.5 53.1 53.2 51.3 52.5 52.6 52.6 52.6 52.7 52.2 52.3 52.5 52.1 52 52 51.5 51.5 52.5 55.4 63 63.6 63.2 77 79.5 83 89.6 95.2 96.8 104.5 111.2 121.1 125.4 125.8 128.3 134.6 143.5 146.6 155.3 165.1 168.6 165.2 168.1 163.7 154.9 148.5 133.8 129.1 127.9 125.6 124.5 120.2 115.9 110.9 104.1 99 97 96.9 98.5 104.3 102.1 99.8 99.8 91.5 95.3 113.6 117.4 113.4 113.8 111.7 101 102.4 112.1 122 120 106.6 106.8 103.6 108.4 118.6 117.7 120.9 118.9 113.1 109.7 114.7 111.9 112.1 115.4 119.2 128.8 134.6 135.9 135.1 134.6 136.1 138.5 137.6 138.3 140.8 141 142.4 147.6 157.7 158.7 163.6 167.3 172.8 177.9 187.1 194.3 197.6 195.7 192.6 186 184.2 189.8 194.4 201.5 204.4 204.2 205.6 210.7 213.5 216.6 223.7 228.8 230.2 233 237.2 234.3 233.9 238.1 237.2 236 230.3 228.6 226.5 222.6 222.7 223.7 221 220 210 218.6 224.3 227.1 226.8 225.5 226.8 223 225.7 228.2 226.4 228.8 235.3 239.3 241.7 241.3 246.8 250.9 254.9 258.2 257.2 249.9 246.6 244.3 241.7 238.9 239.2 231.4 227.3 226.9 223.6 225.8 221.1 218.8 218.1
76.8 76.6 80.2 78.1 73.7 69.5 71 69.4 69.4 64.6 55.5 52.4 52.4 52.1 52.1 51.2 51.7 51.5 51.7 51.5 52 52.2 52 52.1 52.4 50.3 52.6 52.6 52.5 52.5 52 52.1 52 52.3 51.9 52 51.9 51.7 51.6 51.3 51.2 51.3 55.8 62.5 64.2 64.2 76 81.7 92.3 94 97 105.1 111.3 119.8 124 126.2 129.8 134.5 140 144.9 153.7 163.9 169.3 168 161.3 160.2 155.3 144.5 141.3 133.5 129.1 127.2 127 121.9 115.6 112.3 105.6 100.2 98.5 95.5 94.9 101.2 105.8 102.5 98.7 90.6 103.6 115.9 120.3 118.8 114.1 112.6 105.7 99.8 101.1 115 120.6 111.2 104.5 110.5 100.2 106.4 108.2 108 105.6 109.2 113.9 117.5 114.5 111.8 114.4 116 120.2 128.8 136 137.8 136.7 133.3 134.6 136.4 138.6 140.6 141.1 141.4 151.1 162.3 167.5 167.3 163.7 165.4 170.5 180.9 186.9 192.2 194.9 190.9 181.1 184.6 189 196.4 204.9 206.8 209.2 209.1 216.2 220.3 223.6 224 229.3 232.8 234.7 234.5 237.8 236.7 234.1 237 232 228.7 221.6 222.5 219.8 215.1 211.1 213.8 215.2 206.5 219.4 222 223.4 226.2 226.7 221.4 217.7 216.4 218.9 217.1 222.1 229.1 234.7 237.6 240.3 242 247.2 250.1 251.9 254 249.6 243.7 240.5 237.7 236.4 235.4 231.6 227.1 222.9 222.4 220.2 217.9 214.6 213.3
81.8 79.2 78.1 77.3 75.4 76.7 77.1 75.3 75.8 69.8 60.2 54.5 52.8 52.7 52.1 52.3 50.4 52.2 51.1 51.1 51.6 51.9 51.8 51.8 53.1 50.2 52.6 52.4 52.5 52.1 51.7 51.5 51.8 51.8 51.6 51.5 51.5 51.3 51.4 51.8 51.4 51.6 51.1 57.5 66.4 68.2 72.6 77.8 86.5 92.4 95.5 106.8 110.6 117.8 122.9 128.1 131.4 135.5 138 145.1 152.2 157.9 165.3 164.7 158.8 154.6 152.3 147.3 141.2 139.3 132.6 125.7 123.5 121.9 116.2 111.3 106.7 101.7 97.3 95.1 92.2 93.3 102.8 103.9 97.9 93.3 97.7 113.5 117.3 115.9 110.7 104.8 103.2 100.1 100.3 105.8 108.5 110.5 105.4 105 106.5 112.1 112.1 113.3 119.1 123 122.5 125.2 121.7 112.2 114.1 115.4 115.1 117.4 125.1 137 137.3 133.1 132.9 139.7 140.8 143 141.1 140.7 146.6 161 167.1 173.6 167.4 163.7 166.4 176.8 183.9 185.4 187.9 185.6 180.1 184.1 192.7 203.8 215.1 216.1 215.4 222 222.3 226.2 241.1 245.5 234.8 239.5 241 240.3 241.5 243.1 230 233.9 232.2 226 220.5 215.5 214.1 209.4 206 209.2 207 204.8 211.4 215.7 216.6 217.5 220.7 219.8 216.1 215.5 213.2 212.5 218.6 224.5 229.8 233.4 236.5 237 240.5 245 246.4 247.3 244.9 240.7 238 234.4 233.9 230.8 227 223.9 224 218.3 217.7 215 212.3 210.5
84.7 82.4 83.4 79.9 79.7 80.2 77.7 75.8 82.8 71.1 67.9 60.9 51.7 52.2 51.5 52 50.6 50.1 50.6 50.7 51.4 51.7 51.5 51.8 52.7 49.9 53.2 52.1 52.1 51.9 51.8 51.7 51.6 51.3 51.5 51.4 51.3 51.2 51.6 51.2 51 51.4 51.5 51.7 63.7 66.8 70.1 70.8 75.2 87.9 94.7 104.7 112.2 119 125.3 132.3 133.9 134.7 134.8 138.2 142.2 147 148.4 154.4 156.1 153.6 148.1 148.5 142 139.2 132.2 127.3 125.5 119.9 115.9 112.6 105.7 102.9 97.2 93.1 90.6 91.3 94.1 100.2 101.1 92.5 95.7 109.1 112.8 108.3 100.1 93.4 92.6 93.3 101.3 101.1 107.4 110.6 110.4 112.1 109.4 108 118.6 119.5 120.9 125.9 123.8 128.5 126.4 118.5 115 115.2 119.1 120.9 126.7 133.9 134.1 132.3 136 138.7 140.2 141.3 140.2 140.9 146 156.5 166.6 173.8 173 165.6 168.4 174.3 184.3 188 180.5 179.9 179 185 199.6 212 227.9 228.5 227.3 231.5 230 233.3 241.1 250.5 243.1 246.3 245.2 242.1 242 239 232.5 227.1 230.1 226.3 218.6 211.6 206.2 202.1 204.2 209.3 208.8 200.5 202.6 205.2 208.2 208.5 207.9 214.8 215.5 217.9 213.4 211.4 215 223.5 227.9 229.7 234 236.6 235.7 237.6 240.1 239.6 237.2 233.3 232.8 230.1 227.8 225.8 224.4 221.7 221.2 217.9 215.2 212.8 211.7 211.1
96.6 92.6 89.6 84.4 82.6 78.8 77.5 75.4 74.8 75.1 71.5 60.3 56.3 53.8 53.2 52.6 52.4 51.9 50.1 51.2 52.2 51.2 51.1 52.5 51.9 49.5 53.2 52.2 52 51.9 51.9 51.6 51.5 51.5 51.3 51.3 51.2 51.2 51.6 51.2 51 51 51.3 50.8 58.6 62.3 65.5 66.3 69.2 84.2 92.2 107.7 114.1 121.1 123.6 126.1 130.5 131.3 132.5 136.2 144.2 147.2 144.8 147.4 146.6 148.6 147.4 145.1 141.1 135.5 133.9 127.7 123.4 119.9 115 113.1 106.6 104.7 104.5 93.3 89.7 89.4 90.4 91.2 99.3 99.5 80.2 102.5 106.8 103.6 93.1 90.2 91.6 94.2 99.8 101.1 106.4 112.1 111.1 115.3 113.2 109.8 115.2 123.5 122.9 121.9 124.3 130.4 129.8 123.5 121.7 125.2 125.8 132.7 130.9 130.7 131.7 132.7 134.6 136.3 136.5 140.2 140.5 144.4 143.9 149.7 160 165.1 169.4 170.4 168.9 173.7 180 187.4 184.9 177.2 180.3 187.6 205.1 218 234.1 238.9 239.1 240.2 235.2 241.6 244.6 243.5 245.8 249.8 246.4 241.6 233.6 229.6 228.3 223 223.5 222 217.8 208.7 200.6 195.4 200.1 203.8 203.6 200.6 191.7 193.4 197.7 202.2 205.9 211.8 215.6 219 216.4 211.8 215.4 222.4 228.6 227.7 231.8 232.4 230.5 233 231.8 227.4 227.4 226.7 226.4 228.5 226 225.3 219.6 220.1 216.5 215.7 214.6 211.3 210.7 211.4
108.4 105.8 99.5 95.1 92.5 86.6 79.3 77.3 76.3 73.5 71.4 65.3 58.2 56.7 54.2 52.6 52.3 51.9 51.2 51 50.1 49.1 51 52.5 51.8 49.3 51.9 52 52 51.9 51.7 51.4 51.3 51.6 51.5 51.1 51.1 51.1 51.2 50.8 51.1 51.3 50.8 51.1 54.7 57 62.3 62.3 70.6 77.3 86.6 102.6 116.2 122.3 121.7 121.6 124 129.3 139.6 144.2 140.5 136.3 135.7 137.7 141.6 142.8 141.6 140.6 138.6 134.2 134 129.3 123.7 121 119 114.3 108.7 105 98.5 96 91.5 89 89.3 88.9 94 98.6 87.7 94.9 98.6 98.5 89.3 89.2 89.8 97.7 100 110.3 112.6 111.7 113.9 115.2 114.2 112.4 112.1 118.2 120 123.6 124.9 130.8 128.4 126 125.6 135.2 130.8 131.7 132 131.3 131.6 131.8 132.6 133.6 135.5 136.2 141.5 144.2 144.5 144.4 148.1 157.7 164 170.1 170.1 174 175.9 182.2 185.1 176.9 177.5 187.8 206.4 215.6 231.3 238.9 243.4 241.9 238.4 243.4 249.5 242.5 243.4 251 246.8 241 235.4 227.5 222 221.1 222.9 217.6 213.2 207.4 197.2 187.4 193.6 199 195.9 190.2 182.7 184.2 192.7 195.5 199 206.2 211.8 216.4 215.9 209.1 210.9 219.4 222.5 224.3 227.5 227.1 225.7 225.7 222 220.3 221.3 225.4 224.2 224.6 223.1 222 218.2 215.1 214.2 213 214.1 211.2 209.8 208.9
127.2 124 117.6 110.6 104.7 97.3 88.3 79.3 76.8 74.3 70.9 66.6 61.6 61.3 57.7 54 52.8 52.2 52 51.9 50.6 50 51.4 52.6 53.5 49.3 52.4 52 51.8 51.6 51.4 51.9 51.6 51.2 51.4 51 51 51 51 50.7 50.2 50.5 50.6 50.8 54.2 57.4 62.9 63.3 68.3 75.4 91.2 103.4 112.3 113.8 113.5 115 126.8 131 130.9 129.1 132.8 133.3 133.2 134.1 134.4 135.2 137.2 136.2 135.1 133.1 135.4 133.1 125.7 120.9 117.4 114.6 106.7 101.1 99 95.2 96.4 91 88.8 88.5 88.2 89.2 86.5 92.8 95.1 94.3 89.3 91.3 90.2 99.2 104.6 113.7 122.8 116.6 113.1 114.6 116.8 116 112.5 114.5 122.5 121.7 124.3 130.1 128 131.1 135.5 134.4 133.3 131.4 132.6 131.6 132.8 131.2 132.2 132.6 134.6 139 138.3 144.3 143.5 142.8 146 154.1 162.7 168.9 172 175 176.4 179.5 182.2 179.5 176.6 184 196.8 214.8 227.2 236.4 240.7 242.3 232.7 246 255.4 241.5 245.2 248.5 247.9 237.3 237.5 226.9 220.5 223.4 223.9 220.5 210.6 202.6 193.8 184.8 184.8 192 189.6 179.6 180.1 180.8 191.4 195.3 199.4 203.8 205.2 209.3 212.2 208.3 211.4 217.5 219.1 218.5 221.9 221 220.4 220.5 218.1 219.1 218.9 222.1 220.3 220.2 218.9 219.1 217.2 213.7 212.7 211.7 212 212.2 209.6 209
146.3 141.6 140.7 133.3 115 107.3 100.5 89.4 78.9 75.4 72 69.1 65.8 67.3 61.6 63.5 57.4 52.6 51.5 52.1 51.6 51.6 51 53.4 52 49.7 52.6 51.7 51.5 51.3 51.9 51.7 51.6 51.2 51.1 51 50.9 50.8 50.7 50.6 50.5 50.4 51 49.9 54.7 58 59.6 62.6 61.9 72.8 81.1 85.9 95.3 102.8 107.3 114.5 121.2 117 116.7 125.7 128.1 128.9 127.4 124.7 125.1 127.3 131.6 130.3 131.9 131.5 131.6 132.3 127.9 121.5 115.9 113 108.7 101.1 101.4 98.7 95.5 93.5 90.4 88.2 88.1 87.8 80.3 91.5 102.7 102 88.8 90.2 89.3 97 105.3 116.3 123.8 124.8 119.3 114.9 115.3 118 113.3 115.9 117.5 121.2 124 128.6 134.6 135.5 135.7 133.1 133.6 135.8 134.9 133.1 132.8 131.4 131.6 132 132.9 133 135.9 135.5 140.8 143.2 146.2 156.1 163.7 172.7 173.7 175.5 179.9 184.4 181.4 178.3 175.7 176.8 186.3 208.1 221.8 227.2 230.8 231.2 230.5 242.5 248.2 241.3 244.8 240.6 240.1 235.3 228.7 222.8 219.6 226.5 229 221.6 213.2 202.5 188.5 178.7 178.6 183.3 183.8 177 177.4 185.4 193.2 192.5 197.8 202.1 208.4 211.2 214.2 211 207.6 216.1 217.5 216.1 217.5 216.1 217.6 216.5 214.1 215.8 218.7 218.4 216.4 215.2 213.6 213.3 215.9 211.4 210.8 210.2 208.5 209.7 210 206.3
161.7 163.8 158.3 150.7 134.9 122 111.7 100.4 88.6 78.9 74.1 70.5 69.2 66.1 63.7 62.9 61.5 57 54 52.7 53.3 53.3 52.8 50 50.7 51.4 50.4 51.8 51.6 51.6 51.5 51.3 51.5 51.3 50.8 50.8 51.5 50.7 50.4 50.4 50.3 50.1 50.1 50.6 50.8 53.8 55.6 59 59.5 61.1 65.8 76.1 90.3 95.2 100.3 104 103.8 105 112.4 115.1 112.4 113.1 118.9 120.6 119.8 121.5 121.8 126.5 125.8 126.7 125.8 125.3 121.1 115.6 113.2 114.1 108.8 106.7 98.6 96.6 95.1 92.2 94.9 89.3 89.3 87.3 85 85.9 104.5 110 95.8 88.9 95.4 94.1 103.5 114.6 118.9 120.3 120.3 115.7 116 116.1 118 118.2 116.6 120.4 124.7 131.1 136.6 141 136.1 135.6 140.4 139.3 136.4 134.4 133.1 132.7 132.2 131.6 131.9 132.6 133.1 134.4 139.3 142.8 149 160.2 167.2 173.9 178.3 178.8 180.9 182.5 182.6 178.5 176.6 174.3 180.6 190.5 203.1 211.5 220.3 223.3 228.3 227.7 234.1 240.3 235.9 234.1 231.6 229.8 223.1 217.9 214.9 220.5 224.2 216.3 206.7 199.1 188.5 177.9 175.8 174.6 178.7 175.4 177.3 188.3 194.4 193.5 196.2 201.6 203.5 208 208.9 209 206.9 210.6 213.8 213.7 212.2 213.7 214.3 212.8 210.3 217.4 222 225.1 221.8 217.2 212.3 209.8 210.8 209.3 209.4 209.6 209.3 205.1 204.1 205.9
180.2 176 171.8 162.6 150.7 139.3 124.8 111 100.4 88.7 78.2 72.3 70.2 68.1 65.8 66.7 68.8 61.9 57.2 56.3 55.4 55.2 55.3 53.2 52 50.2 48.5 52.6 52.6 51.6 51.2 51.2 50.9 50.9 50.6 50.6 50.9 50.7 50.6 50.2 50.1 50.1 50.3 50.5 50.4 50.2 53.2 58.2 58 58.5 64.8 72.1 80.7 87.6 90.7 86.1 90.6 93.8 100.2 99.1 102.2 106.8 107.2 109.1 112.1 115.5 115.6 115.6 118.5 120 121.2 118.7 114.9 111.4 112.8 108.6 109.4 102.5 98.2 96.1 93.9 91.4 94.2 90.7 88.2 85.1 89 87.1 101.9 112.1 104.3 89.5 92.2 90.5 100.7 109.9 111.5 111.6 115.2 116.9 115.2 116.4 122.8 119.3 117.8 118.5 123.4 129.3 131.9 141.6 140.6 135.6 137.8 138.5 137 137.4 134.7 134.4 133 132.6 132.2 132.6 132.7 133.9 138.3 139.4 151.8 160.1 167.2 172.3 182.2 182.4 183.1 182 181.8 180 181.4 175.1 182.4 183.6 186.4 200.7 208 214.9 216.6 220.5 224.6 222.9 224.2 224.6 221.6 220.1 218.1 215.2 209.4 214.2 215.3 211.2 204 195.8 186.5 176.5 173.5 172.3 172.9 173.8 176.4 187.9 193.1 195.9 197.7 198.7 201 204.3 206.8 206.1 207.6 207.5 210.3 208.9 208.5 208.8 208.4 208.5 206.2 210.6 214.4 217.7 220.6 222.8 217.6 209.4 208.5 207.9 206.3 207.9 207.1 203.7 203.2 202.9
