ncols 200
nrows 82
xllcorner 360000
yllcorner 453900
cellsize 50
476.2 477.1 475.8 474.5 472.3 470.4 469.9 467.2 465.9 467.3 466.1 464.3 463.4 463.3 462.1 462.4 462.2 461.1 461.2 462.2 462 462.5 461.9 458.7 456.3 456.5 456.8 458.1 460.7 460 460.8 462.8 467.7 472.9 478.4 481.8 483.8 486.3 486.1 486.4 488 490.7 493.8 494.4 494 494 494.8 494.6 494.2 493.8 494.8 493.9 494.1 493.9 494.5 494 494.7 499.6 499.2 499.3 501.4 501.5 502.6 503.8 504.8 505.3 507 506.4 504.5 501.3 499.9 498.5 495.6 487.3 480.2 475.9 472.3 471.1 466.5 465.8 463.6 463.4 460 461.1 462 463.1 463.6 463.9 464.6 463.7 464.5 464.6 462.8 461.2 458.4 454.9 446.5 438.6 434.3 430.8 426.4 420.8 417.4 414.4 407.6 403.9 393.2 383.4 374.5 357.6 341.2 325.3 323.7 330.8 349.9 361.2 368.8 380.4 386.5 394.3 402.9 409.7 420 430.9 439.1 449 458.2 466.1 470.1 474.5 477.9 481.5 484.1 486.6 488.6 491 493.8 494.9 496.6 497.2 497.6 496.6 495.7 496.6 498.9 500 499.4 498.4 497 494.8 493 490.6 492 493.4 493.6 491.9 490.4 489.3 487.7 485.4 482.7 481.1 477.9 475.9 474.8 472.7 471.1 467.9 467.5 463 460.1 457.5 455 451.6 447.2 444.2 441.4 438.4 436.9 433 424.5 409.2 405.3 395.3 392.1 388.4 382.2 377.9 377.1 380.6 388.4 398.9 409.1 418.9 419.2 417.8 418.8 412.1 408.3 408.1
474.1 473.8 471.3 471.3 471.8 469.2 466.6 466.3 464.8 463.3 463.5 460.4 458.7 459.6 459.1 459.4 459.9 460.1 458.8 459.5 460.2 461.2 459.1 457.4 454.8 454.8 455.8 457 457.7 461.6 463.6 465.7 468.2 475.2 477.6 481.3 483.6 484.4 486.6 484.9 486.9 488.4 491.4 492.2 493.2 494 495.3 495.8 497.1 498.3 498.8 497.7 498 499.6 498 498.1 500.6 507.4 509.4 510.4 512.2 511.9 511.7 513.4 514.4 515.2 516.2 515.1 513.3 511.8 508.2 505.3 501.5 497.2 492.9 486.1 479.1 478 474.3 473.1 471.7 470.2 467 465.4 465.1 465.7 467.4 468.1 467 467.2 465 465.4 464.6 463.3 461.7 456.8 448.6 439.8 435.5 431.4 426.5 421.9 419.1 418.4 414.5 407.9 397.3 388 376.7 361.6 342.4 325.3 321.6 331.6 337.8 349.8 361.8 373.3 380.1 388.4 394.9 401.7 410.4 420.6 433 442 451 457.5 462.9 469.4 473.8 478.6 480.1 482.9 484.3 486.2 487.1 486.1 485.5 485.3 484.6 483.7 483 483.5 484.7 487.2 488.7 489.9 489.5 488.1 486.5 485.5 483.9 487.9 488.8 487.2 485.1 482 480.7 480.1 475.1 472.6 469.1 467 465.6 465.3 466.3 463.5 462.1 460.5 458.5 456.6 453.2 450.4 447.7 444.7 443 441.2 439.1 434.2 430.4 421.4 413.1 406.3 401.5 395 390.1 389.3 390.3 394.4 407.3 418.5 425.3 425.4 423.3 423.5 423.5 417.6 416.9 413.6
478.4 471.6 471.1 470 469 466.9 465.6 464.5 465.5 464 460.8 462.9 460.4 455.8 455.9 456.4 456.6 455.8 456.2 456.1 458.7 459.7 456.9 455.5 450.8 453.7 454 455.4 458.1 462.1 463.6 465.6 468.2 472.9 478.5 480.3 482.7 483.7 483.3 483.8 484.3 487.1 488.5 490.1 493.4 493.1 494.1 496.1 498.3 499.8 501.5 501.9 502.3 502.7 503.1 503.6 512.6 516.9 518.2 520.5 519.8 517.5 518.6 521.5 524.8 525.8 526.5 526.3 524.3 522.3 516.6 510.2 504.3 500.2 497.5 494.3 490.7 486 482.1 479.7 478.4 475.8 473.1 472.5 472 470.7 471.6 472.5 473 472 469.5 465.5 464.1 465.3 463.3 459.3 450.7 440.1 436.1 432.2 429.3 424.1 422.2 419.9 414.8 407.6 399.6 390.4 377.5 363.9 349.6 330.9 314.2 318.6 331.9 344.3 357.2 365.4 373 382.2 387.2 393.1 400.2 409 420.4 429.8 440.8 452 457.7 461.8 465.2 469.2 473.3 476.9 479.6 482.1 482.5 482.9 480.3 479.3 478 478.3 476.1 476.1 477.2 477.8 477.2 476.6 475 474 472.4 471.2 470.5 468.9 467.9 467.9 468.4 464.3 460 457.7 455.8 455.2 454 454.9 456.5 457.9 459.9 459.7 459 458.5 455.7 454.7 454.6 452.7 450.9 447.8 445.4 443.5 441.1 438.4 434.1 429.2 423.3 417.6 416.1 413.3 408.1 406 411.1 416.6 422.5 429.4 432.1 428.3 428.6 430.2 426.1 423.8 423.3 416.2
479.8 475.5 471.6 471.1 471.5 468.8 466.8 466 467.3 465.5 464.8 465.2 463.4 459.8 454.1 451.7 453.6 449.4 446.3 454.1 455.7 455.7 454 452.5 450.6 448.9 453.9 454.8 459.8 462.6 465.9 468.1 468.8 472.7 476.4 480 479.4 481.1 483 483.3 483.4 484.8 486.1 490.8 490.7 491.1 491 494 495.8 499.5 501.9 502.9 505.2 506.6 507.1 510.3 515.6 518.9 521.7 523.5 521.3 518.2 518.8 521.3 523.6 524.7 525 524.6 524.5 523.7 516.5 507.2 502.4 499.6 497 495 492.3 489.1 486.2 484.7 482.6 479.4 478 477.2 476.1 475.7 475.6 475.8 475.5 475.7 474.9 467.2 463.8 464 462.9 458.4 450.8 442.3 436.1 433.2 432.1 428.9 424.5 422 415.8 408.4 401.1 390.5 377.7 364.7 351.6 335.5 318.1 307.7 315.6 333.6 343.4 358.2 366.6 374.9 381.6 388.6 393.7 400 407.6 417.5 427.9 436.5 442.9 451.7 459.2 465.7 468 471.5 472.3 473.6 473.9 472.9 472.2 472.6 471.4 467.9 467.3 467.2 468.3 469.9 470.3 470.2 471.4 469 467 462.7 459.3 453.5 450.1 450.6 448.8 445.5 441.5 438.6 440.4 440.8 442.7 446.1 448.1 451.2 451.9 451.3 451 451.7 451.9 452.1 452.6 452.1 451.4 449.3 447 444.8 442.8 439.9 437.9 431.9 431 426.9 427.9 427.3 426.1 426.7 426.9 428.9 434 437.2 435.9 432.2 435 433.6 430 429.6 426.4 418.5
478.9 476.2 474.4 473.4 472.5 472.7 470 467.9 468 468.7 466.7 467.3 465.8 461.7 457.8 453.8 450.2 453.1 450.4 443 447.6 450.8 450.3 449.1 446.9 449.9 453.9 455.9 459.3 462.6 466.2 468.8 470.3 472.3 475.9 478.5 478.1 479 481.8 482.3 483.3 483.9 486.1 487.7 488.2 487.4 487.7 488.4 491.2 494.6 498.5 501.6 504.7 508.2 508.5 509.2 512.1 515.6 520.9 522.7 517.3 515 514.7 515.7 516.4 517 517.6 516.7 515.3 512.7 508.2 502.7 498.9 495.3 493.4 492.4 491.4 490.6 489.4 487.2 486.2 485.1 482.9 483.4 483.1 481.2 479.9 478.6 477 475.6 475.1 470.3 466.1 462.1 461.8 458 449.3 442.5 436.9 435.2 435 432.6 428 423.5 414.7 407.4 399.5 389.4 374.7 362.7 350.3 337.2 321.6 312.1 305.4 322.4 342.6 355.2 360.7 368.6 377.8 384 389.4 395.7 402.8 409.5 417.2 423.8 429.9 437.3 446.2 449.7 453 455.9 461.8 466.5 467.9 467 464.3 461.7 460.1 458.1 459.2 461.7 463.5 464.5 465.7 464.7 463.7 461.6 457.8 453.7 450 445.1 436.2 434.8 432.7 431.1 428.4 425.5 425.4 428.1 430.9 433.4 437.3 439.2 441.5 444.2 445 446.6 447.8 448.5 449 449.5 450.4 449.1 446.7 445.1 443.1 441.2 439.3 435.7 434.1 434 434.1 434.6 434.5 435.7 436.3 436.3 438.6 441.5 437.9 437.2 438.4 436.8 434.6 432 426.6 420.4
477.9 477 477 474 473.7 473.6 472.5 470.6 470.5 469.6 467.8 469.5 466.9 462.8 458.8 457.8 455.1 457.2 453.9 452.6 447.5 439.2 443.5 443.3 445.6 450.9 453 455.7 459.8 462.5 464 468.4 469.9 472.7 475.5 476.6 478 478.8 479.6 480.5 482.9 485.3 484.7 486.3 485.1 485.8 486.2 486.6 487.4 490.8 493 494.7 500 501.3 502.6 506 507.9 508.4 509.7 510.8 510 508.6 509.1 509.5 510.1 510.9 510.4 509 506.8 504 500.2 496.7 493.7 489.9 488 487.4 488.9 488.6 489.4 488.5 489.5 488 487.2 487.9 486.8 485.1 482.2 480.2 479.2 475.3 473 470.1 466.1 462.6 462.1 458.5 455.9 449.4 444.4 441.8 439.4 437.4 432.5 426.9 415.1 403.9 394 387.1 376.9 363.9 348.9 338.5 323.9 308.8 302.4 318.8 336.1 348.9 354.6 361.8 373.1 380.1 384.5 389.1 396.8 403.9 409.4 415.2 420.4 425.4 430.8 435.7 439.9 443.5 447 449.6 450.8 452.1 451.6 452.5 451.5 449.2 449.5 451.1 452.6 457.3 458.9 459.8 457.8 457.8 453.5 448.4 443.1 438 430.5 418.8 418.7 416.3 414.3 414.6 415.4 416.9 421.6 425.6 428.1 431.3 435.3 437.9 438.8 441.4 444 445.7 447 448 448.4 448.5 446.7 445 442.7 441.7 438.7 438.6 438 439 439.9 439.3 440.3 442.1 443.2 443.5 441.8 445.4 440.7 440.7 441.3 437.9 434.9 432.4 426.7 420.6
476.7 476.4 477.4 475.3 475.7 476.4 474.5 472.7 471.6 470.1 468.5 469.2 468 464.7 462.4 459.8 459.5 457.1 456.3 456.2 454.4 450.5 438.2 437.3 442.8 450.3 454.5 457.3 459.8 461.8 464.4 467 468.2 469.2 473.3 474.2 477.9 478.1 478.8 481.4 482.6 483.5 482.7 483.9 483.4 482.9 483.1 484.6 485.5 486.8 488.3 490.6 491.7 494 494.8 497.2 498.6 500.7 502.6 503.5 503.3 503.5 502.1 503.3 503.5 505.3 504.7 503.2 501.4 499.2 495.9 493.3 489.9 487.4 485.6 485.2 484.7 486.1 487.7 489.4 490.2 488.6 488.6 487.1 486 484.6 484.2 481.2 479.7 475.7 472.1 470.1 468 467.6 463.8 463.6 460.8 455.4 451.9 450.5 447.3 444.3 438.2 430.5 420.3 404.4 392.9 381.8 372.6 361.4 346.5 338.2 325.7 309.1 301.5 312.6 330.6 341.1 349.1 356.5 367.7 374.7 380.5 385.2 390.2 398.6 404.7 410.2 414.6 417.1 424 427 430 433.3 436 436.7 440.2 441.2 442.4 443.2 443 441 440.3 441.4 441.4 441.4 441.2 438.1 435.3 431.9 429.5 426.5 422.2 416.3 412.6 407.1 404.4 401.6 401.8 404 405.7 409.4 413 418.1 421.9 425.5 430 433.1 435.6 440.2 441.9 443.9 444.6 446.7 447.3 446.6 445.1 442.9 441.6 440.3 439.4 440.6 441.9 444.1 445.2 444.7 445.3 444.8 443.9 443.5 444.8 445.5 441.9 442 441 437.6 435.4 431.4 426.2 419.5
475 476.1 477.5 476.1 476.9 478.4 477.4 475 472 469.5 471.5 470.3 468.3 465.9 465.2 462.6 460.7 457.5 458.2 456.9 456.5 453.5 447.4 437.8 439.4 447.7 451.4 454.9 457.8 460.6 462.5 463.4 468 470 472.1 471.8 475.2 475.6 479.9 481.6 482 482.6 481.2 481 480.5 480.6 481.3 482.6 483.9 486.5 487.4 488.6 489 489.4 492.5 494 494.1 495.4 496.7 498.3 499.5 499.4 498.4 500.1 499.3 500.3 499.6 498 496.9 494.2 492.4 489.6 486.4 483.4 481.8 481.2 481.1 481.6 483.6 485.9 488.6 488.9 487.6 485.6 483.6 482.6 481.1 480.5 478.6 477.4 475.1 473.6 474 472.1 467.6 465.2 464.3 462.4 460.4 458.3 454.2 451.4 445.9 438.2 427 408.9 393 382.4 372 362.6 353 341.2 328.2 311.3 298.9 307.4 323.2 336.2 344.2 352.7 361.6 371.3 375.9 381.3 385.9 392.3 400 405.1 410.5 413.1 416.6 420.3 423.2 426.9 430.1 430.9 432.6 433.3 433.6 432.8 432 432.5 431.7 431.6 430.1 427.7 425.8 422.6 417.1 414.4 410.3 409.9 403.3 396.6 396.2 392.6 391.5 391 391.1 393 395.7 399 407.7 412.8 417.8 422.9 426.3 431 435.9 439.2 441 440.7 444.5 445.1 444.5 444.2 441.9 439.1 438.2 437.8 441.2 442.9 445.2 446.8 446.5 446.5 445.3 441.4 440.9 442.4 445.2 447.4 440.7 439.7 439.1 437.5 435.1 430.4 426.4 418.8
475.4 477.7 479.4 477 478.2 479.5 479.1 476.2 473.8 473.3 473.4 471.6 468.1 465.9 466.3 463 459.6 460.2 457.1 456.5 456.3 454.2 447.1 438.7 435.8 445.6 449.9 452.2 455.1 459 462 464.1 465.2 468.1 469 472 474 476.1 478 477.2 480.7 481 480.8 478.4 478.1 479.4 479.5 480.6 483.5 483.9 483.2 485.5 485.9 488 490.3 490.6 492 492.7 493.5 495.6 496.2 495.5 495.4 495.9 495.3 493.9 494.3 493.3 490.7 488 486.5 484.2 482.2 480 478 477.8 478.5 478.6 481.3 481.4 484.6 484.9 484.8 482 479.6 479.1 480.3 480 479.5 477.7 479.3 476.9 475.2 475.6 472.3 469.9 467.5 467.6 467.4 463 461.7 457.6 452.8 445.5 433.7 415.5 396.3 381.4 371.6 361.5 353.6 341.2 329.6 315.2 298.4 301.8 317 329.6 338.4 350 357.2 365.7 371.9 377 382 386.8 393.5 398.3 402.4 406.3 412.8 415.6 418.7 421.2 423.1 426.1 427.6 427.1 425.8 425.9 423.7 421.9 416.3 420 419.2 420.2 414.8 410.6 402.8 401 398 393.3 389.5 386.9 383.6 382.7 380.3 381.1 381.5 383.7 384.5 388 393.6 401.5 408.4 418.3 424.2 429.3 434.4 438.6 442.3 443.6 444.4 444.4 442 439.4 435.8 433.1 429.9 436.2 442.4 446.3 446.2 445.4 443.5 443.3 440.3 440.5 442.3 447 448.8 446.4 435.2 434.8 436.6 436.6 434.8 431.2 424.8 417.3
476.7 479.1 479.4 478 480.3 480.9 480.3 477.3 474.6 475.9 475.9 472.3 468.6 466.5 466.9 463.6 461.5 460.5 457.6 458.4 454.7 451.8 442.9 430 441.5 450.2 451.7 453.5 457.3 460.4 463.2 465.6 465.9 466.4 468.1 470.1 471.1 474.1 475.3 476.8 477.5 477.7 475.3 477.1 476.1 476.7 479.9 479.8 480.5 480 481.4 483.2 484 485.8 486.3 488 490.4 491.7 491.1 493.2 493.9 492 492.1 489.5 490.9 489.8 489 487.4 484.6 482.8 481.4 478.7 478.3 475.6 475 474.6 475.8 477.3 478.8 478.8 479.7 480.3 481 479 479.3 480.1 480.2 480.1 480.6 480.8 480.9 480.8 477.5 476.8 473.3 473.7 471.6 469.8 468 467.2 466.3 462 457 447.8 438.6 421.9 401.5 383 370.3 362 353.6 340 329.6 318.7 303 294.5 308.8 322.4 332.7 344 352.6 360.6 367.8 373.6 377.6 384.7 389.5 395.3 400.2 402.9 407 411.7 414.1 415.9 417.2 421.5 422.5 422 420.9 416 414.7 406.1 409.1 410.6 408.5 406.4 402.1 398.6 394.4 384.5 383.5 378.7 377.9 376.6 373.8 373.8 370.1 371.9 371.9 371 373.5 374.4 382.9 391.2 400.5 411.4 418.6 423.2 430.1 436.6 441.4 441.2 440.4 438 434.7 431.8 428.5 425.7 424.8 435 441.1 443.8 442.3 441.3 440.8 439.5 439.9 442.1 445.3 445.6 442.5 437.7 430.1 430.9 433 434.8 434.2 431.3 423.6 417.9
476.4 477.2 479.5 479.2 480.5 481.7 481.7 479.2 478 478.4 477 474.2 469.8 467.8 465 463.4 461.9 459.3 457 454.7 452.7 447.5 429 426.3 446.3 451.2 454.4 456.4 457.2 461.5 462.2 464.3 466.3 467 468.4 468.6 472.2 470.5 471.3 474 474.2 475.4 475.1 474.8 474.4 475.2 476 479.4 477.6 480 478.3 480.4 483.8 485.2 486.9 488.5 487.3 489.1 490.8 492 492.1 490.4 486.3 487.7 487.6 486.5 484.6 482.9 478.1 478.2 476 474.6 473.3 470.8 471 471.8 472.2 473.8 475.9 476.3 478.9 478.3 478.9 478.5 477 478.2 480.8 481 482.7 483.1 483 480.9 478.8 477.1 475 474.1 472.4 470 468.3 468.9 467.3 463.2 456.9 449.7 440.1 426.6 406.4 386.3 372.4 364.1 350.4 338.9 329.2 319.7 304.9 293 302.9 316.3 328.1 337.3 348.7 355.4 361.9 368.6 374 381.2 388.3 392.7 397.9 402.3 405.7 408.3 411.3 412.8 414.8 418.3 418.1 417.8 415.5 408.9 402.8 395.6 399.5 400.9 397.2 396 392.8 388.6 384.8 379 371 369.9 367.2 367.2 365.8 366.3 366.4 366.2 364.4 361.8 358.3 361.4 366.6 379.8 392.4 396.5 398.6 404 409.1 414.6 426.7 435.8 435.7 434.8 430.6 424.7 420.6 417.8 422.9 431.1 437.2 436.5 436.7 436.6 437.7 437.4 438 437.4 437.2 431.5 426.4 424.6 424.6 427.1 430.6 433.3 434.2 431.4 424.6 418
479.2 480.3 480.6 482.8 481.8 483.4 483.7 482 481 479.2 478.3 477.9 470.3 467.7 464.9 461.7 460.2 458.3 456.6 453.4 450.4 433.7 414.2 431.6 447.2 451.9 454.5 457.6 458.6 460.4 461.6 463.3 466.4 467.7 467 467.6 468.2 470.9 470 471.7 470.4 470.9 472 473.8 473.9 473.6 477.3 475.7 476.5 477.5 480.6 482.5 481.6 484.1 484.2 485.1 489 487.9 488.2 489.8 490.4 489.3 486.6 482.4 484 481.7 479.3 477.7 475.3 472.8 470 468.7 467.6 466.4 468.9 468.5 471.4 472.1 473 476.1 477 477.6 476.5 475.6 475.3 477.1 479.5 481.3 484.3 482.6 479.8 479.1 478 476 474.8 472.6 470 468.8 469.2 467.4 464.1 460.8 456.8 449.6 440.5 428.4 408.8 391.3 374.2 361.9 349.6 338 328.3 319.5 308 290.9 299.2 312.2 323.4 334 342.3 344.8 347.2 360.4 369.9 376.8 383.8 391.2 396.2 400.1 403.6 406.9 409.2 412.1 414.3 415.3 415.8 411.2 410.1 406.3 401.6 396.6 390 392.1 390.8 389.1 386.1 377.4 375.2 371.3 362.3 362.6 358.3 357.4 354.7 357 361.4 361.9 360.4 354.9 346.6 345.4 346.7 359.5 367.1 371 375.1 380 382.8 389.1 400.4 413.8 420.9 424.6 419.4 413.6 414.3 412.7 418.7 428.4 430.8 429.3 429.6 428.9 428 424.3 421.9 417.9 416.1 415.7 416.3 418.7 421.5 425.4 428.1 432 433.3 431.5 425.5 418.6
477.9 479.6 481.1 484.1 483.4 485.1 485 484.3 482.2 480.4 479.3 474.2 470.3 466.1 463 460.8 460.6 458.1 456.3 453.1 439.8 425.2 408.5 433 447.3 451.5 454.7 455.4 458.4 461.1 463.5 464 465.7 465.7 465.8 467.5 466.8 468.6 467.4 470.3 470.3 469.5 470.7 472.2 472.9 472.4 475.8 474.9 475.8 477 478.4 479.7 481 482.5 483.9 485.5 486.6 487.4 487.6 487.2 488.7 487.1 485.1 479.3 479.5 477.3 474.6 471.9 467.6 466.7 466.3 465.1 464.2 463.5 465.9 467.1 469.9 470.5 473.5 474.4 474.2 478.7 477.6 475.2 474.6 476.8 477.1 478.8 478.2 478.6 478.2 478 476.3 472.5 471.2 470.4 468.4 467.9 465.8 464.3 461.9 459.1 455.6 448.3 438.4 426.3 409.4 394.2 376 362 349 337.3 326.4 317.4 304.5 289.8 296.7 310.2 320.7 331.8 339.4 341.8 345.8 354.4 370.7 379.6 388.6 391.1 396.6 399.2 400.8 405.7 408.3 410.8 413.1 414 412.5 408.8 404.5 400.1 393.6 386.5 380.7 383.9 382.9 381.6 378.4 374.1 366.3 362.5 357 353 348.1 345.3 345.6 354.3 358 359.3 359 355.6 344.4 327.3 336.6 344.2 350.8 355.9 361.5 362.5 364.6 369.7 378.7 387 395.3 404.8 407.9 408.8 409 410 412 417.9 419.5 422 421.3 415.4 410.5 407.5 406.4 405.4 406.8 408.2 411.3 416 420.3 423.9 427 430.8 432.5 431.2 425.2 418.3
479 480.5 482.6 483.3 484.2 486.5 486.6 484.8 483.6 481.6 478.1 473.8 469.9 465.4 462.4 460.2 458.3 456.8 455.2 450.1 432.6 416.5 411.2 432.7 447.6 451.7 454.4 456.6 458.1 460.1 461.4 463 465.5 464.2 464.6 464.9 466.1 467 467.8 467.7 467.3 469.8 469.6 471.1 469.2 471.5 473.3 473 476.4 477.7 479.4 480 481.2 482.6 483.4 486.9 486.5 486.8 487.2 486.7 485.4 483.9 482.1 476.7 474.5 472.8 468.9 466.6 462.8 463.1 461.3 458.8 457.9 459.3 462.2 465.1 466.9 468.3 470.4 473.1 475.6 475.7 476.3 475 473.2 471.8 473.3 475.2 475.2 475.5 476.4 475.6 474.1 471.9 470 467.7 465.6 463.8 461.7 460 457.6 454.2 449 439.4 429 418.3 405.4 392 375.1 359.1 348.5 335.3 323.5 313.5 301.2 287.4 293.4 304.1 309.7 324.9 337.9 342.7 345.8 350.6 369.6 381.7 389.7 393.8 396.8 399.4 402.2 405.7 408.4 410.6 412.6 413.4 413.2 411.5 407.2 404.3 398.2 391.1 380.2 367.9 374.6 373.9 371.5 368.2 360.7 351.4 348.2 344 340.8 335.4 338.5 348.1 353.7 355.3 353.9 349.1 339.5 323.6 319.8 333.7 342.3 348.3 352.4 352.2 354.4 357 360.6 368 375.6 384.5 395.4 399.2 401.4 404.1 407.5 409.3 411.6 413.1 410.7 403 398.6 398.1 397.9 400.2 403.9 405.5 410.5 417.3 422.2 425 426.7 429.9 431.4 429.8 424.7 417.5
478.3 480.3 482 482.5 483.2 484.5 485.7 484.7 483.2 480.7 476.1 471.6 467.8 464.2 461.9 459.5 457.5 455.3 450.7 437.6 423.1 405.8 410 432.5 447.8 451.2 453.8 456.1 457.6 461.3 463.6 463.5 463.6 463.2 464.8 465.2 466.1 466.2 464.2 466.3 465.7 466.1 467.8 467.7 467.7 469.5 470.9 469.9 473.3 472.8 475.5 478.1 479.5 480.8 482.4 485.8 485 486.7 486.9 484.5 482.7 480.5 478.1 475.4 467.6 467.2 461.7 460.8 459.2 458.7 454.9 451.1 442.9 447.6 456.2 457.7 462.7 466.3 469 471.2 473.8 475 475.2 474.2 473 469.1 469.7 472.2 472.3 472.3 472.8 471.3 469.8 468.4 466.1 463.3 458.8 458.2 455.8 454.7 450.4 443.7 435 427.7 419.8 410 398.8 384.9 371.4 356.5 343.1 331.3 318.2 309.1 295.2 286.5 296.4 306.1 316.8 325.8 334.9 342.9 347 351.5 368.4 381.4 388.9 394.6 399.4 400.7 403.4 405.2 408.6 410.9 412.5 411.3 412.4 412 409.9 406.5 399.8 393.4 384.8 370.4 358.8 355 362.9 360.5 354.2 346.9 336.9 337.2 333.1 325 332.2 336.1 339.6 338.9 338.2 336.4 330.7 321.1 309.3 323.5 330 335.2 339.5 344 344.9 347.3 349.6 353.5 359.6 368.1 374.4 382.2 386.9 391.8 393.6 395.6 398.1 395.4 394.1 391.9 391.6 392.5 393.7 397.6 400.9 402.8 411.8 418.9 421.1 423.3 425.9 428.2 430.2 428.5 424.8 416.8
475.8 478.2 480.6 481.1 481 483.2 483.8 482.8 482.1 478.2 475.6 471.4 466.9 462.8 460 456.9 455.9 453.2 438 427.5 412.4 390.9 410 432.4 445.1 449.6 452.5 454.7 457.5 459.5 460.9 463.6 461.8 464 461.4 463.8 464.1 464.3 464 462.8 464.9 466.2 467 464.8 466.3 467.9 468.3 466.4 469.4 471.1 471.6 471.7 475.1 476.9 479.6 480.4 481.2 481.7 480.5 480.2 479.5 478.1 475.9 470.2 465.1 457.8 456.6 456.9 454 454.4 449 438.4 433.5 443.7 452.7 454 459.3 462.8 466.3 468.7 470.3 471.6 473.2 473 470.3 464.8 466.5 467.5 467.8 465.8 465.9 466.9 464.8 464.1 460.2 457 453.8 452.7 450.8 444.5 440.8 431.4 424.4 418.5 411.8 400.3 388.8 377.8 364.2 349.5 337 324.8 313.9 303.3 290.1 284.6 297.1 303.2 314.8 324.8 332.2 341.2 348.3 353.4 364.8 379.8 387.8 395.4 399.3 402.2 404.9 408 410.3 412.2 413.4 411.4 412 411 408.7 406.9 403.3 395.8 387.4 374.1 361.5 348.8 348 349.3 345.1 339.6 334.8 324 323.4 318.5 323.1 325.8 327.7 327.8 326.3 323.6 320.6 313 297.9 305.7 315.5 321.9 327.9 333 336.9 339.7 340 341.7 346 352.7 358.6 366.3 371.9 379 384.8 384.6 382.5 382.7 383.5 383.7 385.6 388 391.2 394.7 397.6 409 414.4 416.8 418.2 420 423 426.4 428.4 428.5 425.3 416.7
469.5 473.9 474.6 475.8 476.8 477.1 479.4 477 479.4 471.4 468.5 470.9 464 460 456.7 454.8 452.3 443.8 428.2 419.3 401.9 384.8 408.6 421.7 440.2 446.3 450.4 453.6 456 457.7 460.5 461.5 462.1 460.7 461.1 462.7 462.9 461.5 462.4 461.7 462.6 462.4 462.8 463.6 466.3 467 465.8 465 466.5 468.5 468.6 470.9 473.1 474.3 475.9 478.2 479.2 478.8 478.6 476.7 476.5 474.7 469.4 464.3 456.7 450.5 451.5 452.6 453.2 452.5 444.4 432.3 426.9 442 449.4 454.3 460.6 462.4 465.6 467 467.1 469.3 468.3 467.8 465.1 459.1 461.3 463 463.8 462.7 464.3 462.3 460.2 461.1 455.9 452.4 448.9 446.4 441.9 435.2 427.5 421.2 415.8 410.7 400.1 390.5 381.1 368.1 355.2 342.8 330.8 320.1 309.4 298.7 283 284.8 294.8 305 317.4 323.4 331.4 340.3 348.3 353.6 359.1 375.1 386.6 394.6 398.5 403 407.3 410.5 413.7 414.6 414.8 414.2 412.5 412 410.3 406.7 400.9 396.3 388.4 375.8 363.5 349.2 338.5 334.4 337.6 336.4 332.8 316 311.5 311 311.9 316 316.3 316.2 314.6 314.1 312.3 306.5 299.1 289 297.7 305.1 312.9 319.8 326.4 329.1 332.3 332.1 334.8 339.8 346.5 356.3 360.7 361.6 366.1 369.2 369.2 372.8 374.9 377.5 381 385.1 389.6 393.3 401.4 408.3 412.3 412.7 413.8 416.6 419.8 423.8 426.7 428 424 417.5
454.2 460.6 460.6 461 466.4 470.2 467.1 464.3 461.2 456.8 455.8 459.4 454.7 454 451.7 445.3 434.9 427 421.2 408.8 387.5 386.3 402 409.4 423.6 434.3 443.1 450.3 453.7 455.7 457 459.5 460.1 459.6 459.2 459.7 459.5 459 459.7 459.1 459.1 461 461.9 463.6 463.9 465 464.4 465.6 465.2 466.3 466.7 468.6 469.5 471.3 473.4 475.5 477 477.9 476.2 475.3 472.4 469.8 463.4 459.2 453.1 448.2 445.1 448.3 450.4 451.4 448.7 432.3 421.7 440.5 451.1 456.8 459.7 460.9 464.4 464.1 462.4 461.2 459.8 458.1 456.1 453 455.6 458.2 458.9 458.3 460 459.8 458.5 453.5 451.3 446.9 442.8 438.8 432.4 424.7 419.8 414.9 408.6 397.9 389.1 379.6 368.3 358.2 345 336.6 326.1 313.6 303.6 290.3 281.2 291.3 297.8 304.5 316.7 324 331.5 339.8 346.9 351.6 357.4 369.5 384.5 393.7 399.6 405.2 411.3 415 417.4 416.9 415.2 415.2 414.1 413.1 412.4 411.3 406.6 399 387 375.8 366.9 358.5 349.4 340.3 332.2 326 323.4 322.4 321.2 319.2 313.4 309.3 300.4 298 296.2 293.5 297.9 298.3 297 286.9 279.8 288.2 298.3 307.4 311.6 317.8 322.5 323.6 327.5 331.3 336.8 345 350.8 354.3 356.1 359.5 362.6 366.3 368.3 374.4 378.5 383.1 389.6 394.1 401.4 406.3 407.5 407.8 409.9 413.4 417.9 421.5 425.6 426.1 423 416.6
421.8 431.2 442.4 443.5 447.8 450.6 449.4 448.9 448.1 444.3 440.2 438.2 437.9 435.9 432.6 426.4 421.4 418 412.3 399.9 379.3 375.3 384.8 397.2 404.8 413.5 423.3 435.1 444.6 448.4 453.1 455.6 457 456.6 457.6 457.9 457.9 457.1 457 457.5 460.5 459.8 461.5 463.1 463.8 462.5 463.3 464.8 464.9 465.8 467 468.2 468.7 471.4 472.9 477 477.7 476.4 474.4 469.7 468.3 465.7 458.8 453.3 450 446.7 433.6 440.3 445.3 447 443.8 423.3 418.3 440.7 451.3 456 458.4 459.1 459.2 457.5 456.7 453.8 451.3 450.3 449.2 447.8 451.9 452.8 453.1 454 454.7 453.6 453.8 448 446.7 441 437.1 431.1 425.6 418.8 414.9 404.6 394.7 385.4 374.9 365.9 357.5 347 337.4 330.4 319 305.5 292.9 281 283.1 289.9 301.1 307.5 318.8 326 332.3 340.1 347 350.9 357.3 368.6 377.9 390 398.6 407 412.3 416.9 419.8 421.7 420.8 419.6 420 419.6 417.2 413.8 407.8 397.3 386.9 377.1 369.3 361.2 355.7 348.8 344.4 339.3 334.9 332 330.3 328 329.3 324.2 314.9 311.5 303.1 293.4 285.5 280.4 279.3 279.7 274.2 275.1 283.7 294.4 303.2 308.3 311.4 316.8 319.1 323.8 329.1 335.4 342.2 346.3 349.9 348.2 356 362.8 367.6 372.5 379.4 386.2 391.2 395.3 399 402.1 403.2 403.8 406.8 411.5 415.3 420.6 425.4 424.5 420.3 416.1
408 410.3 412.3 421 432.5 432.5 431.5 429.1 428.5 427.3 425.9 423.3 422.1 420.6 417.9 412.6 410 407.9 404 393.3 370.6 375.1 378.3 386.1 392.1 398.7 404.6 413.7 420.6 428.7 441.1 448.7 452.4 455.3 455.9 456 453.2 454.2 455.6 457.5 458.4 461.8 462.8 462.2 462.6 463.5 463.4 463.8 465.4 465.5 465.2 467.6 471.1 472.3 473.3 474.8 476.5 476.8 473.1 469.7 461.9 459.7 453.2 449 445.4 443.5 435.8 426.7 436.2 436.4 430.8 408.9 418.5 439.2 447.4 451.8 453.9 454 452.5 448.8 447.3 444.9 445.3 445.5 445 441.7 447.2 449.4 449.5 450.6 451.1 450.1 449.5 445.7 441.1 435.2 429.9 426.6 422.6 412.2 402.8 393.9 381.8 370.1 361.7 355.3 348.2 342.3 333.4 324.3 310.3 297.8 284.2 278.4 289.4 296.4 297.7 310.3 318.4 325.5 333.3 338.9 344.4 349.8 356.7 371.4 379.5 387.6 399.2 406.1 411.2 414.6 417.2 419.8 422.6 425 424.4 423.8 420 415.9 407.2 395.6 385.7 377.3 370.9 367.7 362.6 355.6 355.2 352.2 347.7 342.8 340.6 338.3 336 333.4 330.4 325.1 321.2 313.4 306.9 302 282.4 278.1 271.1 268.7 268.1 280.5 291.5 297.5 302 305.3 311.1 314 321 329.4 336.2 339.7 340.8 346.7 351.6 358.2 364.1 369.6 376.2 381.4 386.8 391.5 395.7 397.7 397.8 398.6 405.1 410.1 413.5 420.5 423.6 422.8 417.9 415.3
394.3 394.3 396.5 398.3 402.4 412.5 415.6 415.2 414.9 413.9 411.5 410.7 410 408.9 405.2 402 399.8 396.9 393.2 383.6 373 356.9 373.2 379 384.5 390.1 394.1 401 407.3 413 418.7 428.3 440.9 447.3 451.6 450 448.2 453.7 459.4 459.4 460.6 461.7 461.2 462 461 459.6 460.7 463.4 464 464.5 467.2 468.6 470.8 472.6 473.7 475.9 476.6 476.7 472.3 464.6 459.5 453.7 447.7 444 440.7 438.3 432.8 410.3 423.5 424 416.8 399.6 418.5 434.7 439.4 446.7 448.5 446 442.6 441.1 439.3 440.7 439 440.1 439.8 440.2 443.8 445.9 447.5 448.2 447.7 445.4 444.9 441.5 435.7 429.8 427.7 424.1 413 403.5 392.4 375.8 363.9 356.6 351.2 347 342.8 337.8 328.9 319.3 304 290.6 277 279.3 293.6 299.4 307.4 314.5 310 325.6 333 336.9 342.5 348.3 358.4 374.9 382.5 387.9 396.6 404.9 410.5 413.2 414.6 416.6 420.3 423.9 426.7 427.1 424.4 416.8 406.9 395.6 387.5 380.3 375.9 372.3 368.8 367.7 364.3 361.3 357.4 354.8 353 350.1 347.9 340.8 334.6 331 331.2 330.8 314.5 298.7 291 297.3 285.3 277 265.6 265.5 278.8 286.5 291.9 295.1 298.6 305 311.1 315.8 324.5 331.6 335.9 339.6 344.2 350.7 357.6 364.7 368.3 372.5 376.4 382.9 389 392.2 391 397.4 403.1 408.1 413.2 419.8 421.4 419.7 416.4 415.1
383.5 387 387.3 386.8 384.2 395.6 400.3 403.5 404 403.5 402.3 400.1 398.1 397.1 394.8 393.1 391 387.9 384.6 371.4 361.1 351.4 369.8 374.2 377 381 383.7 388.2 394.2 400.9 406.7 413 423.2 433.1 438.5 441.7 449.9 454.1 459.8 461.2 464.5 462.4 462.9 461.6 459.8 459.3 459.3 460.6 462.6 465.7 467.6 470.1 471.9 473.6 474.5 474.9 476.1 476 465.6 459.4 452.7 446.6 444.6 439.7 435.3 429.8 423.6 411.4 407.3 409.6 403.6 395.8 417.3 426.7 431.1 433.4 435.5 434.2 434 435.4 433.9 435.7 436.1 435.2 435.5 440.5 443.3 443.9 444.6 443.8 443.8 441.7 439.1 436 433 425.7 422.7 412.6 403 394.6 377.2 361.4 354 348.6 344.8 342.5 338.8 332.9 325.1 313.8 295.9 282.4 275 284.1 296.8 305.7 314.6 324.4 327 329.1 323.4 336.1 343.2 348.8 359.6 375.4 383.4 388.6 393.4 399.7 406.4 410.9 415.1 416.8 422.1 425.2 427.2 430.1 426.8 419.3 410.7 399.6 393.1 387.6 382.9 378.9 376.1 374 372.8 371.1 368.7 365.9 364.9 361 356.5 347.4 339.9 333.6 331.8 328.7 325.9 307 303.8 305.4 297.9 291.3 281.2 265.1 262.2 271.8 278.7 283 287 293.7 301.4 304.2 307.2 314.6 322.3 327.5 331.8 339.9 349.3 355.7 362.1 365.4 366.9 371.6 374.4 381.4 386.1 392.1 403.3 407.9 413.5 418.7 418.6 417.8 414.9 413.2
369 375.1 380.4 378.8 376.5 381 386.5 391.2 393.7 393.3 392.5 391.5 390.3 388.5 385.8 383.7 381.5 379.8 375.8 364.4 344.2 360.2 365.6 368.4 368.9 371.2 374.5 376.2 382.5 389 396.9 405.7 415.4 421.5 422.8 440.3 446.3 454 458.3 461.6 463.8 465.4 465 463.4 460 458 459.9 460.3 462.7 466.3 468.6 470.8 472 473.2 473.9 474.4 474.4 466.1 456.8 450.5 446.4 443.3 441.2 435.9 426.4 419.2 413.7 406.5 399.3 396.6 389.8 402.3 415.1 419.5 423.9 427.1 426.8 427.6 429.8 431 431 430.3 431.4 433 437.2 438.4 441.6 441.9 444.7 441.5 439.7 437.7 436.6 431.3 427.5 422.1 411.1 402.3 390.7 379.6 365 354.4 349 344.2 340.4 338.2 334.7 328.7 320.5 307.1 290.2 272.5 275.4 292.4 302.5 314.4 325.1 331.7 335.3 336.8 341.1 342.9 338.1 350.3 361.1 375.5 383.8 387.3 392.4 396.6 404.5 407 409.6 412.8 418.8 426.4 430.2 431.5 430.6 426.4 419 408.4 398.1 393.4 389.9 388.2 387.7 386.4 383.6 381.5 379 377.6 375.4 366.1 364.1 358 349.6 340.1 337.5 333.8 326.3 317.6 315.6 314.1 310.2 303.9 295.7 283.5 266.9 258.6 266.7 274 278.2 284.4 291.9 294.4 298.9 304.4 312.5 318.5 322.5 326.7 337.5 347 348.1 350.8 358.1 361.6 367.7 374.7 377.4 389 401.8 407.4 413.1 416.1 414.9 414.3 411.5 410.5
354.2 360.7 366.9 367 361.4 364.4 367.7 369.1 368.1 370.6 374.8 378.2 378.7 378.4 376.9 375.9 374.4 372.5 368.4 354.3 337.6 358.1 361.9 362.8 363.8 363.7 365.3 370.2 372.5 379.8 387 394.7 399.4 418.3 431.5 439.6 446.1 451.2 457.6 461.8 465.2 466.7 467.2 465 462.5 455.5 458.1 459.3 461.1 465 469.3 471.4 472.2 473.1 472.6 470.3 458.6 451.7 444.8 442.7 441.3 439.1 437 430.4 421.7 411.8 403.9 399.8 394.8 384.8 388.8 402.3 409.7 414.8 418.3 420.6 422.5 424.4 425.9 427.3 424.6 424.7 430.3 432.7 435.4 437.9 439.5 440.3 440.5 439.1 437.8 432.9 432 427.4 422.4 416.3 404.6 388.2 377.2 368.1 359.3 352.6 345.9 341.2 335.9 332.9 329.3 323.3 314.8 300.3 284.3 270.5 286.5 297.6 308.9 319.4 328 335.4 339.1 341.7 347 351.4 352.7 352.9 364.7 376 383.6 389.1 390.5 391.7 396.4 400.8 403.8 409 415.5 421.3 429.1 433.1 433 432 427.2 419.9 409.5 404.8 401 400.3 398.6 395.9 393.3 390.3 388.2 385.7 382.5 376.1 367.5 366.6 354.1 346.8 342 336.4 330.4 329.2 326.3 320.9 317 311.3 305.9 296.7 284.4 266.4 255.6 260 264.6 272.9 283.7 286.2 290.8 296.4 302.3 307.6 310.9 320.9 326.4 333.8 341.7 348.3 359.3 364.3 362.7 358.9 370 383.3 397.8 405.9 409 411.8 409.2 409 407.9 406.6
345.3 348.8 353.1 355.4 353.7 352.9 353.8 352.4 356.4 356.9 358.5 360.3 360.8 362.5 364.1 365.9 365.9 363.5 363.7 346.7 334.6 349 350.7 355.4 358 358.7 361.1 363.2 367.2 370.4 373.8 389.5 414.1 423.8 433.2 439.2 444 450.8 456.8 462.2 465.2 466.4 467.2 466.4 464.1 460.5 456.3 456.3 458.3 460 467.8 470.8 470 462.8 456.5 449.5 444.6 440.1 437 435.8 436.5 435.3 431.8 425.2 416.3 408.6 401.3 393.8 388.3 381.2 387.8 398.5 405.4 409.9 413.7 416.8 418.9 419.7 422.2 418.9 421.9 426.5 428.5 432.9 434.8 436 437.7 438.5 440 436.9 434.5 429.2 426.6 422.2 416.6 409 398.6 382.8 371.2 362.1 355.2 349.8 344.3 342.5 339 334.3 325.8 304 299.9 290.5 275.1 270 287.7 301.3 312.8 320.3 330.2 336.8 341.5 343.9 349.4 358.8 362.1 357.4 362.6 374.7 379.9 385 387 389 391.4 394.4 398.2 402.6 410.5 417.9 424.7 430.1 433.9 434.3 432.5 428 423.3 418.3 414.4 411.2 409.2 406.9 404.4 402.4 397.9 393.3 388.5 380.5 375.8 366.4 357 350.5 345.3 345 342 337.9 335.7 331.1 323.7 318.5 313.7 307.2 297 278.8 258.3 254.1 254.6 260.3 271.4 277.3 285.5 287 292.4 297.4 302.9 312.5 319.3 325.2 329.3 335.8 340.7 346.7 346.1 345.2 365.2 376.6 392.6 401.6 404.9 405.2 403.9 403.6 404.3 403.9
335.9 339.4 343.4 346.6 343.8 342.6 340.2 340.5 342.2 344.9 347.2 349.7 351.9 354.8 357.5 357.4 355.3 352.1 352.3 341.3 324.9 340.4 342.7 345.2 348.8 352.6 355 356.4 360.5 370.5 381.1 397.3 415.7 424.9 433.3 440 445.1 450.1 455.4 460.1 463.7 465.2 466.4 466.7 464.3 461.3 456.4 453 454.1 457 459 459.9 459.1 454.6 448.2 441.8 437.2 433.7 432.2 429.7 431 430.4 424.3 416.4 411.4 405.4 397.8 389.2 381 379.3 386.7 395.4 401.5 405.9 409.6 412.6 415.5 416.9 414.7 416.8 420.1 424 429.3 431.9 432.4 434.8 438.8 437.4 435.9 434.6 431.7 426.4 421.5 416.4 409.7 402.4 392.6 378.4 367.1 360 353.8 351.1 349.4 346.1 341.2 336 328 318.3 302.4 280.5 270.1 283.1 293.1 299.2 309.8 323.4 331.1 335.7 340.9 345.2 350.2 357.5 363.5 369.2 367.8 365.2 376.3 381 383.6 386.8 389 391.4 395.1 399.1 406.2 413.5 420.8 425.7 429.6 433 434.8 434.1 431.2 428.9 426.5 423.5 421.1 417.8 417.2 414.1 409 402.6 396.5 388.1 376.3 369.3 364 357.3 354.1 349 344.4 344.4 341.2 337.5 331 327.7 325.2 318.3 307.2 288.8 270 255.2 250.9 251.1 259.9 263.9 270.9 277.4 282.8 287.5 294 307.3 311.2 321 325.4 333 338.1 339 341.4 338.5 355.2 368.9 385.6 395.2 400.4 399.1 399.5 399.5 400.7 400.7
330.1 332.1 337.1 337.5 334.9 331.6 332.1 330.4 332.9 336.4 338.8 343.3 343.7 345.6 348.4 347 344.2 341.5 339.5 331.4 319.2 332.6 336.9 339.6 343.4 346.5 347.1 353.8 363.8 374.3 384.3 402.2 416.9 423.6 431.5 439.9 445.1 450.8 456.1 459.7 462.4 464.3 466.4 467.6 465.5 461 456 449.1 449.4 452.4 456.3 458.4 456.8 449 440.7 434.2 430.2 429.2 426 422 424.1 421.9 416.7 410.7 406 401.3 394.7 385.2 378.7 376.8 385.4 393.1 397.5 401.3 404.9 407.7 412.7 413.1 406.4 412 419.1 424.9 427.3 429.4 433.1 436.5 438.6 437.5 436.4 432.1 427.5 423.3 417.3 410.9 405.3 394.7 385.4 374.8 365 358.5 356.4 355.8 353.9 350.2 344.2 337.1 326.6 314.4 296.7 279.5 268.1 288.1 298.9 307.5 317 324 330.2 335.5 341.6 347 351.9 357.8 363.1 369.9 373 371.5 367.9 370.3 377.2 382.9 387.2 390.3 394.3 398 402.7 410.4 417.3 422.7 428.1 432.2 435.5 438.6 439.3 437.6 434.4 432.4 430 428 426.5 423.4 420.6 414.5 406 390.3 381.1 376.2 373.3 368.2 360.6 354.6 351.6 349.1 346.5 343.8 341.9 341 336.5 328.8 314.4 296.5 276.4 263.3 252.1 249.2 251.5 254.2 262.7 269.1 275.3 279.6 289 297.2 307.6 314.9 319 327.5 335.5 336.8 333 332.2 346.5 361.8 376.9 387.4 391.5 391.7 395.2 395.4 397.1 396.2
324.4 323.4 324.7 324.9 324.7 323.1 321 321.3 324.6 326.7 329.4 329.7 333.5 336.1 338.9 335.7 333.2 331 328.5 324.3 312.9 325.9 330.7 329.4 331.7 337.4 352 359.8 370.4 382.5 396.9 408.1 415.7 424.3 431.9 438.1 446.3 451.8 456.4 460.4 464.3 465.6 466.2 467.2 465.7 461.7 456.7 444 445.7 449.2 452.8 455.2 454.4 441 432.9 428.6 425.7 423.4 420.6 416.3 416.1 414.6 410.2 406.1 402.2 396.2 392.6 384.1 375.8 375.6 384 390.2 394.2 396.8 401.2 405.7 408.5 409.5 405.6 413.5 420.4 423.3 425.8 427.3 431.3 435.7 438.8 437.3 434.5 429.2 424.7 418.5 413.2 406.7 399.5 387.3 377.5 369.4 364.6 360.2 359.5 359 356.5 352.8 345.5 337 324.2 310 292.6 270.3 275 292.8 304.4 312.9 320.5 326.7 332.4 337.8 343.1 348.4 354 359.7 364.6 371.2 375.4 377.5 380 381.9 383.5 384.2 385 385.3 389.4 397.3 402.6 408.4 414.6 420.8 425.5 431.7 435.6 439 443.4 442.6 440.7 438.1 437.5 435.7 433.4 430 428.8 424.5 413.7 395.4 386.2 385.7 380.4 373.8 366.4 361.6 359.1 356 355.9 355.4 351.3 349.6 341.8 330.2 316.1 303.6 288.3 267.9 256.5 248.3 247.8 251.8 253.1 262.7 268.3 271.5 284 289.4 298 306.2 313.6 316.3 322.2 323.4 324.5 327.7 340.7 353.9 368.2 377.9 383 386.6 391.4 390.6 392.7 391.9
318.1 317.5 317.9 317.8 315.8 314.9 313.3 313.7 317 316.4 318.4 321.3 324.3 327.1 327.7 323.9 322.2 321.4 318.9 318 307.4 313.1 320.6 330.9 339.5 350.3 359.1 365.4 377.8 386.3 396.2 408.1 417.3 423.6 430.8 436.9 443.7 450.7 455.9 461.4 465.8 467.8 468.3 468.9 466.2 462.1 456.2 440.8 439.7 446.7 449 443.3 440.2 432.7 426.7 424.5 420.4 418.6 415.2 413.1 410.3 408.2 405.2 400.9 397.8 393.3 387.3 381.2 374 373.2 381.5 384.7 390.8 394.8 397.8 402.8 405.1 403.2 404.3 413.2 418.8 421.2 421.4 426 431.1 436.3 438.8 437 431.3 427.6 420.9 415 409.1 402.4 395 385.5 375.5 369.5 365.9 363.5 361.5 361.5 358.5 353.7 346.3 336.9 323.2 303.7 285.3 265.1 277.9 289.1 304.9 313.8 321.8 326.9 332.5 337.6 342.8 348.1 354.4 361.3 366.9 371.1 376 379.8 383.8 386.1 386.7 388.6 391.1 397 399.4 400 399.2 408.9 414.7 418.6 424 429.4 434.4 439.1 442.6 443 443.4 442.3 441.2 439.8 437.7 435.9 434.7 429.7 420.6 408.3 398.4 393.6 386.6 378.4 372.2 366.3 366 363.9 361.8 361 356 344.3 335.7 326.7 313.2 303.9 296.8 274.7 261.3 250.3 245.2 250.8 251.5 254 262.6 265.9 279.4 284 289.9 301.3 307.3 307.8 313.6 313.2 310 324.4 333.9 344.7 358.6 368.5 376.4 380.4 387.5 387.8 387.4 384.5
309.7 310 309.7 307.9 307.2 306.3 306.7 307 308 309.1 309.4 311 314.4 316.6 314.4 312.3 311.8 309.3 310.3 306.9 295.7 308.8 323.1 338.5 345.9 352.4 363.2 370.1 379.6 387.5 395.3 404.4 414.3 421.6 429.9 436.8 441.7 447.6 455.7 461.2 466.8 469.8 468.9 466.6 464.8 462.1 457.4 445.4 427.5 443 440.6 436.1 431.3 425.5 421.8 419.1 417.3 413.6 410.7 409.4 405.9 403.2 399.7 396.8 393.8 390.1 384.5 375.5 367.8 371 379 385.2 389.7 392.9 396.5 399.5 399.6 395.1 407.9 412.8 416.2 418.1 419.2 423.7 429.2 435.7 437.6 434.7 429 422.4 417.5 411.6 404.7 396.4 391.3 380 373.4 369.3 366.1 364.8 363.2 363.6 358.3 353.4 346 336.2 321.3 299.8 276.7 265.2 278.3 294.2 302.1 313.3 321.1 326 332.1 337.6 342.7 348.3 353 358.8 365.5 370.1 374.8 378.1 386.2 389.9 394.6 396.2 400.1 406.5 409.3 411.8 412.9 413.4 414.9 420.8 422.6 429.5 432.9 437.5 442.4 445.1 445.9 445.2 444.9 443.9 441.5 440.3 438.1 433.9 427 420.2 411.2 400.8 392.2 384.5 376.6 374.8 372.6 370.8 369.7 365.7 350.6 338 327.6 318.8 308.1 303.6 299 278.9 264.1 254.2 246 243.7 250.4 251.7 256.2 258.6 268.6 279.2 283 291.3 299.7 299.7 297.8 295.2 307.8 315.9 324.7 334.8 348.7 361 370.3 375.5 382.3 383.6 383 376.6
303.1 302 300.3 299.1 299.2 298.8 300.1 299.3 300.7 301.1 301.2 304.5 306.4 305.4 302 299.7 300.3 301.4 299.1 289.7 298.7 313.8 327.8 349.2 358.9 360.8 365.5 375.6 381.4 387.5 394 402.2 410.2 418.1 428.4 434.2 440.7 446.2 456.5 464.5 470.3 470.2 469.6 468.6 465.3 464.1 459.3 451.6 435.1 423.2 431.7 427.4 423.5 419.2 417.7 414.6 412.5 409.7 406.9 405.5 402.8 398.2 396.7 393.5 390.8 386.2 379.9 371.4 365.5 371.7 379.3 384.3 387.9 390.8 392.3 392.8 390.1 399.1 406.2 411.3 413.4 416.1 418.9 423.9 429.1 432.6 434.6 433.3 425.7 420 413.3 407.2 400.9 394.6 387.8 379.2 370.3 366.7 365.1 364.5 364 362.9 356.6 351.7 344 334.2 316.8 299.2 277 266.5 286.9 299.3 310.9 316.8 321 326.6 333.3 338.6 344.2 350.5 356.5 360.9 367 371.6 376.2 382.1 389.7 394.8 405.2 409.5 412.7 417.8 421.8 423.3 423.5 423.4 423.2 423.5 428.9 430.3 435.3 440.7 445.7 447.8 449.2 449.6 450.5 449.8 447.9 447.3 445.4 440.5 434.8 426.9 417.1 404.3 394.3 387.2 383.9 382.8 382.1 380.6 367.9 356.5 343.5 327 316.3 310.8 304.7 301.8 298 285.2 264.9 255.9 247.4 242.5 244.4 249.9 250.9 253.2 258.4 275.9 276 283 289.1 290.1 289.9 291.4 301.5 307.9 316.2 324.6 336.8 351.8 362.9 370.3 376.3 378.1 376.5 371.9
297 295 292.3 290.4 290.4 291.2 292.5 292.3 294.2 293.9 294.8 295.5 295.1 292.7 291.5 292 291.3 286.4 284.7 293.4 306.2 328.3 340.9 354.7 361.7 368.1 372.8 378.5 384 389.9 395.3 402.5 408.7 415.3 424 432.6 440.9 446.9 456.5 467.2 472.2 472.9 471 468.4 466.1 463.9 459.4 450.9 440 418.9 413.7 417.8 416.5 413.5 412.5 410.4 407.9 405.8 403.9 402.2 399.8 397.6 394.2 391.5 389.2 382.9 376.1 367.4 363.3 371.7 377.6 381 383.5 385 383.3 390.3 395.8 400.3 405.4 408.2 409.5 412.7 417.8 422.6 427.9 430.8 432.8 427.3 422.3 414.8 410.3 404.4 397.6 390.5 384.8 374.3 367.4 364.3 363.2 362.6 360.4 355.5 353 347.6 341.1 329.1 311.3 292.6 272.3 269.3 290.5 301 308.6 316.5 322.4 328.2 334 340 345.9 353.2 360.7 365.1 368.1 373 379.4 385.7 393.6 402.8 412.2 418.4 423.1 426.8 432.4 435.2 435.3 434.6 432 431.9 433 435 438.7 444.3 449.9 452.3 454 454.9 455.8 455 453.5 452.5 449.9 444.6 436.1 427.2 418.4 407.8 397.1 389 388.7 389.4 384.3 377.7 344.7 335.9 332.6 315.4 307.8 302.7 300.5 299 295.6 283.3 270.6 260 251.7 242.5 240.9 241.9 246.1 248.5 252.7 268.8 271.7 276.4 282.3 281.6 279.4 285.7 294.2 300.3 310.1 318.9 330.9 343.7 355.2 365.2 368.9 371.9 367.5 363
291.9 288.8 285.4 282.6 282.3 283.6 283.9 284.5 287.3 286.6 286.2 285.1 285.9 284.4 283.7 279.8 277.1 287.5 296.1 307.3 324.5 336.7 348.7 357.7 363.6 370.1 376.1 381.7 386.9 392.2 397.6 403.6 408.2 414 420.8 430 439.4 451.3 462.7 470.4 473.8 473.6 471.9 467 462.7 460.2 456.4 444.7 434.3 425.9 407 409 409.7 409.2 408 406.7 404.5 402.7 401.2 399.8 397.8 395.9 393.2 389.3 385.4 382.7 375.2 364 363.4 370 374.1 375.6 377.5 376.4 385 392.8 396.8 399 401.3 406.1 407.7 413 416.2 420.4 424.6 428 428.6 424.2 418.3 412.1 405.9 401.1 394.6 386.4 376.9 368.5 362.1 361.7 360.8 356 352.1 349.4 348 344.2 336.7 320.4 305.9 287.1 266 276.4 288.8 302.7 310.5 317.4 324.1 330.8 337.8 344.5 350.7 356.9 362.9 367.8 371.4 378.5 386 394.5 404 410.9 418.7 425 429.3 435.1 440.9 443 443.3 443.4 441.4 438.6 436.8 439.5 442.6 444.3 449.2 454.8 457.8 459.8 460.1 459.4 457.1 455.6 451.6 446 437.9 427.7 420.4 412.2 400.3 394 390.3 384 377.5 368.2 347.4 340.4 328.5 309.5 303.8 300.5 298.5 295.8 292.4 283 271.3 263.5 255.9 246 240.9 238.3 240.1 244.2 247.4 260.9 266.7 270.7 273.6 272.9 273.4 280.5 286.7 294 304.2 311.8 325.2 338.1 349 359.9 360 360.6 358.4 354.1
289.4 285.9 281.2 277.1 275.9 276.9 277.2 278.4 278.9 279.6 279.7 279.4 277.2 276.5 272.1 270 282.2 297.6 308.7 318.2 326.5 338.6 350.2 359.8 365.4 372.2 378 383.2 389 393.7 398.2 404 408.4 413.9 421.3 429.2 440.4 454 469.9 472.7 474.9 474.1 469.5 464.4 458.9 452.7 449 438.1 430.4 421.2 409.3 401.7 404.5 405.2 401.8 403 401.2 399.9 398.1 397.1 395.6 394.2 392.1 387.5 384.1 378.9 371.9 362.2 361.8 366.5 369.1 370.5 371.9 377.1 386.1 390.8 394.5 399 401.5 404.4 408.6 411.3 414.6 418.2 421.9 422.6 423.2 420.4 414.2 409.4 405.1 399.1 392.2 381.2 372 365.1 358.7 357.4 356.2 349.2 345.8 344.9 343.4 339.3 327.6 314 298.8 275.5 258.9 275.9 296.3 305.5 312.2 318.9 326.8 335.5 345.8 351.5 357.6 363 367 373.8 380.4 386.9 395.9 404.3 413 418.8 426.8 432.2 437 442.4 447 448.6 450.2 448 446.1 442.7 440.3 441.7 444.9 447.8 452.2 456.4 459.9 461.4 462.3 461.8 459.3 456.5 452.1 443.9 436 427.1 421.4 414.4 405.5 393.6 384.2 375.2 367 359.4 353.3 330.7 326.8 307.7 301.6 298.5 296.3 295.3 292.2 284 274.9 265.4 259.3 250 245.8 239.1 235.4 238.6 242.2 250.8 259.7 265.2 267.1 268.3 269 276.6 280.3 286.9 298.6 305.8 318.3 333.9 345.8 351.4 349.4 348 348.5 343.3
286.3 280.9 274.9 272.3 270.3 270.7 271.1 270.6 271.4 272.4 272.4 271 269.1 269.5 266.7 282.4 292.6 300.3 309 318 326.1 336.8 350.8 360.5 366.2 372.7 378.7 384.3 390.2 394.6 400.1 405.5 409.9 414.6 421.6 430.4 441.5 451.9 462.7 472.1 474.3 469.5 465.5 461 454.4 447.7 439.2 434.2 425.7 416.8 410.2 405.7 396.2 399.4 397 398.3 398.1 397.3 396.6 395.2 394.2 391.5 389.8 386.4 381.3 374.7 366.9 359.7 360.1 364.4 365.7 366.7 373.9 381.8 388.4 392.9 397.2 400.6 402.8 405.3 408.1 410.5 412.8 415.3 418.2 419.7 418.9 415.6 411.2 407.3 402.4 397.3 390.1 377.6 370.1 362.9 356.9 347.3 346.6 342 339 339.6 338.4 327.4 314.6 306.5 292.1 272.6 262.1 281.3 297.1 306.3 315.7 323.7 332.9 343 349.8 355 361.3 368.5 374.9 382 388.5 396.8 404.6 409.7 416 423.1 431 436.7 442 446.2 449 451.8 452.4 451.4 447.1 444.3 445.9 446.8 447.6 450.5 454.1 458.8 462.2 463 462.8 462.3 459.3 455 448.4 440.4 433.7 426.1 419.5 412.8 404.7 386.7 385.4 375.8 366.7 349.8 335 319.1 309.2 304.6 299.9 297.7 295.1 293.9 291.9 285.9 276.5 268.4 261.8 254.7 249.9 244.4 236.9 233.4 235.1 241.8 248.1 255.9 260.4 260 266.3 270.2 274.6 282.2 293.5 301.5 313.4 329.7 338.7 338.1 337.6 335.4 336.1 334.6
279.3 273.7 268.4 263.7 263.5 263.2 263.4 263.6 264.4 265.1 264.7 256.1 259.4 264.3 274.6 281.9 292.9 301.6 310.3 318.9 329 341.8 352.9 360.9 368.6 377.3 382.6 386.4 390.5 396 399.7 406.5 410 416.5 423 430.1 440.5 449.6 455.8 461.4 464.1 464.3 460.9 456 449.8 442.2 437.3 432.2 424.6 415.1 409.5 405.7 401.3 390.8 393 394.6 395.1 394.5 394.8 395.6 394 392.4 389.6 385.2 377.9 369.2 362.1 357.4 359.2 361.3 362.8 368.6 375.4 384.4 390.5 395.6 399.3 401.3 403.3 405.9 407.4 409.2 410.6 412.2 414.3 414.6 411.8 411.6 408.4 405.7 400.5 396.2 386 376.8 370.3 364.4 357.8 350.8 338.5 336.3 331.4 331 327.7 315.9 307.7 298.6 284.9 263.5 269.5 280.5 293.3 306.6 320.7 334.2 344.2 352.4 357.9 362.8 366.2 372 378.8 386.5 393.1 400.2 406.9 411.9 419.6 426.5 431.2 437.4 442.4 447.3 450.5 454.9 455.3 453.1 450.9 450.1 450.8 451 452.1 453.8 456.7 460.5 465 465.5 462.9 460.9 457.5 451.6 445.6 439.7 432.8 425 419 408.8 407.3 404 399.3 391 371.2 346 323.9 315.2 306.4 301.8 297.3 294.9 293.8 291.6 290.4 284.7 277 269.9 263.3 255.8 251.1 245.8 242.2 235.6 231.9 239.4 243.6 249.1 253.4 254.6 261.2 265 269.8 277.9 286.7 296.9 309 321.4 327.7 326.5 323.2 320.6 323.7 323.8
267.5 262.1 258.6 256.5 256.4 255.4 254.6 254.8 258.1 259.3 256.3 259.2 269.9 278.7 283.7 289.3 296.4 302.3 309.3 319.9 330.7 341.9 352.6 362.7 372.1 379.2 383.8 386.9 390.7 397.1 402.1 408.9 414.2 418 424.7 430.2 437.9 445.6 450.9 456.3 458.5 457.6 454.8 449.3 443.4 437.5 433.5 429.4 421.9 412.9 407.9 404.5 400.9 396.8 385.6 389.6 391.8 391.2 394 394.5 393.6 391.4 390.2 384 375.3 364.1 356.9 352.3 357.2 357.8 363.9 370.5 377.5 387 392.8 397.1 400.1 402.5 403.8 405.1 406.3 406.8 408 408.8 409.4 408.1 408.4 407.1 405.5 402.5 399.1 393.7 384.2 377.2 370.6 366.1 361.2 356.1 341.6 334.4 324.2 314.3 309.8 308 301.5 288.2 278.2 258 268.5 280.5 290.3 301.2 318.2 334 344.9 352.5 363.5 369.2 371.9 376.9 384 390.1 395.7 399.7 407.1 415.1 421.9 428.1 436.9 442.7 444.9 448.4 452 453.1 453.1 451.7 451.4 453.2 455.5 457 457.3 459.4 460.6 463.2 465.8 464.5 462.5 458.9 453.3 448.9 444 438.8 431.8 426.1 420.2 418.5 417.6 414.1 402.2 383.7 358.8 334.8 316 308 302.4 298.9 296 293.4 286.3 287.8 286.3 283 277.2 271 262.2 256.9 251.4 245.8 241.2 238 231.8 230.6 240.6 243.8 246.8 250.6 256 259.4 264.5 272 281.3 291.4 302.4 309.6 310.4 311.1 310.1 308.4 311.4 311.6
258.3 253.8 251.4 245.9 244.8 243.4 239.1 241.6 248.3 247.8 252.2 260.1 273.8 279.4 285.1 291.2 297 303.8 312.6 318.6 331.1 342.5 352.9 362.3 370.9 377.2 381.9 386.1 390.1 397.2 404.1 411 416.2 421.1 426.4 431.2 436.5 441.8 447.1 450.8 451.5 449.1 446.3 442.7 437.5 434.4 429.4 425.3 417.5 408.8 405.5 402 398.1 395 389.2 384.8 388.1 391.4 392.8 393.3 393.1 392.7 390.5 386 376.7 363 354.4 352.5 353 358.3 365.2 371.2 379.8 387.7 392.9 396.9 398.8 402.1 402.6 404 404.7 405 405 405.1 405.6 406.8 406.9 405.7 403.9 402.3 397.9 393.6 385.7 380.2 374.5 370.7 370.4 366.5 356.7 344.1 332 321.8 309.3 291.2 282.4 273.8 266.8 253 269.6 276.2 285.7 292.3 305.7 320.6 333.9 345.5 357.9 366.4 372.7 380.3 386.7 392.5 397.2 404.7 413.5 420.7 427.6 434.1 440.8 445.3 449.2 448.4 450.2 451.6 453 450.5 453.4 454.4 456.7 459.5 461.9 463.4 463.8 464.4 466.1 464.5 462.2 458.4 453.2 447.8 443.9 437 428.9 430.2 427.3 426.6 422.5 410.1 390.7 367.2 342.9 325.6 314.7 307.2 302.6 299.3 295 291.3 287 280.3 281.7 279.1 275.7 271.1 264.5 257.1 252.7 247.3 240.6 238.1 234.9 228.9 234.5 234.2 242.4 246.7 250.6 254.7 259.6 267.1 276.5 283.5 291.5 296.2 297.8 296.8 298.8 299.3 301.4 298.8
248.1 243.4 235.5 229.6 234.8 243.3 250.3 253.6 255.2 258.2 266.1 270.1 275.5 280.6 285.7 291.5 297.6 305.2 314.8 326.2 336.6 343.8 349.8 355.1 363.9 372.4 379.5 386.1 390.4 396 403 410.2 419.2 422.4 427.7 430.7 436.3 440.2 444.3 446.3 445.6 444.5 441.8 437.8 433.7 428.7 426.8 422.7 415.9 408.5 400.8 399.2 394.9 391.2 388.7 378.5 387.1 389 389.9 391.6 392 391.8 390.3 385.5 375 363.3 353.2 348.4 352.8 361 367.1 373.2 381.5 388.1 393.3 396.3 398 400.6 401.6 403.2 402.9 402.4 402.2 400.5 402.3 403.4 403.4 402.4 401.7 400.6 399.3 394.4 386.5 382.2 378.9 376.6 376.2 371.9 366.4 357.6 351.6 330.4 318.7 304.7 286.4 269.6 251.6 256.8 267.1 272.9 280.3 283.9 295.2 306.2 317.9 332.4 345.2 356.7 366.6 376.1 384.6 392.5 399.4 406.5 414.3 422.2 429 436.3 441.8 446.4 448.1 446.2 447.1 447.7 449 449.8 451.1 452.8 455.3 457.9 460.6 464.1 466.5 466.6 466.9 465.4 463.1 459.8 456.2 451.5 446.1 440.6 436.3 434.4 433.3 427.7 416.7 398.2 374.3 352.5 333 323.2 315.8 308.4 303.9 300 296.5 291.4 286.7 277.7 270.2 270.4 271.3 269.2 264.8 257.2 251.9 247.9 240.4 237.6 233.5 227 227 228.9 235.2 240.7 245.8 250.2 255.2 261.8 267.8 272.5 278.4 282.2 283.1 286 290.2 290.2 291 288
233.7 230.3 227.9 235.7 241.9 247.7 251.9 256.6 260.3 263.6 266.5 271.4 277.8 282.2 287.9 294.2 300.9 310.1 321.3 331.5 340.8 348.4 356.4 362.3 369 371.9 379.7 385.6 390.7 395.9 401.8 408 414.6 422.4 429.6 435.8 438.3 440.6 442.8 443.5 442.8 441.2 438.5 435.6 431.2 425.1 423.2 420.3 413.5 406.7 399.6 395.5 391.1 388.1 385 379.8 373 384.5 387.9 389.4 389.8 389.3 384.6 377 369.8 361.8 350.9 349 352.9 362.5 370.1 376.3 381.1 385.7 390.9 395.6 398.8 400.4 401.4 401.2 400.4 398 399.4 399.7 399.6 399.3 399.5 399.8 399.4 397.7 398.2 394.1 388.3 384.7 384.4 382.6 381 377.4 373.4 368.9 362.5 345 332.4 314.1 285.9 268.8 255 252.1 264.3 268.2 270.9 275.9 285.5 294.4 304.9 317.8 331.5 344.2 354.6 365.4 376.9 385.5 393.4 402.9 413.5 422.7 430.8 436.9 442 445.6 446.2 444.2 444.2 444.5 443.8 447.4 449.4 451.4 453.5 456.3 458.5 462.1 465 466.7 467.1 464.8 463.6 460.7 459.3 454.2 450.4 444.1 440.5 437.7 432.6 423 408 385.7 364.7 345.8 331.7 322.4 315.6 311.2 305.3 299.6 294 290 285.3 274.7 269.9 269.4 263.3 259.1 260.5 256.8 252 247.2 241.2 236.6 234.1 231.8 228.3 222.5 227 232.3 240.6 245.4 248.6 251.3 254.8 258.1 265.7 268 270.6 278.2 280.3 280.6 281.4 280.3
219.8 221.6 233 241.1 248 251.8 254 258.7 263 268.9 273.6 279.6 287.2 292.3 296.6 302 311.5 319.7 329.2 338.2 344.4 351.8 358.1 364.7 371.2 377.3 382.1 387.1 392.4 397.6 402.3 407.3 412.4 419.1 427.3 434.4 439.1 441.3 442.3 442.1 440.9 438.3 437.2 433.8 429.7 424.1 416.7 415.8 411 404.1 397.4 393.2 388 384.6 380.6 375.1 362.9 381.2 384.7 386.6 385.2 378.7 371.1 366.4 359.7 353.2 343.8 352.1 359.2 366.4 372.4 377.7 381.8 385.9 391 395.3 398.1 398.9 398.9 400.6 400.8 397.8 394.2 395.1 395.1 394.3 395 395.7 396.4 395 394.8 393.6 391.9 391.3 389.2 388.3 386.3 383.5 381.1 377.4 366.6 354.5 341.2 320.3 289.6 270.5 251.6 251.1 259.4 263.2 260.9 269.3 276 283 290.4 301.6 313.5 330.5 343.7 352.9 362.1 372 381.9 394.3 408.4 421.2 429.9 436.4 441.3 443.5 443.8 443.5 441.4 442.4 443.2 444 446.8 449.2 450.8 453.1 456.3 459.4 461.5 464.3 466.5 464.9 462 461.4 460.2 456.8 453 445.9 442.1 438 429.5 417.6 394.9 376.2 357.2 340.9 329 320.9 315.5 311.6 305.7 291.8 290.5 290.5 285.9 284.1 280.4 276.3 273.8 268.6 260.1 252.8 247.9 241.5 237.8 235.5 232.2 229.5 228 221.4 221.3 222.5 234 237.6 240.9 241.2 242.8 248.3 255.6 259.1 261.5 267.1 271 270.6 269.7 270.7
222.6 230.7 241.4 246.2 250.3 254.7 258 262.3 269.8 273.6 281.2 289.2 293.3 304.6 308.5 312.4 320.5 328.1 339.2 345.9 350.3 355.5 361.2 368.6 374.7 379.9 384.2 388.5 393.4 400 403.5 407.1 412.1 417 423.5 429.5 434.4 438.2 440.1 440.4 438.8 436.8 434.4 431.8 427.1 422.2 416.6 411.9 406.5 401.4 396.6 391.7 386.5 380.3 376.5 369.2 369.1 375.4 379.6 381.2 377.1 369.3 360.4 355 350.7 341 343.8 350.3 358.8 366.7 373.5 378 383.4 388.8 392.9 395.8 397.7 399.4 399.4 398.9 397.8 394.1 390.4 390.6 390.1 388.5 391.3 392.2 393.2 394 394.3 396.1 393.9 396.1 395.2 393.8 390.6 390.5 386.9 382.7 370.6 361.9 350.1 324.4 299.5 269.4 248.3 252 252.8 253.5 256.9 261.3 267.3 272.3 278.2 286.5 299.8 311.5 323.4 333.9 343.7 353.3 363.6 374.4 389.9 409.4 423.7 435.2 437.2 441 441.5 441.1 438.1 440.1 440.5 439.6 442 445.5 447.3 448.9 451.6 453.7 455.3 459.4 463.4 463.7 462.7 461 460.4 456.6 451.8 443.7 439.5 436.1 424.7 405 383.9 365.7 350 334 323.8 317.6 315.9 311.5 298.4 302.6 298.2 294.5 290.2 285.6 282.4 279.9 277.3 272.9 264.7 260.2 253.5 251 243.8 239 237 232.3 225.2 225.7 223.5 219.2 226.5 230.1 229.7 230.3 231.8 239.2 246.9 251 254.5 258.7 262.2 261.5 261.4 263.6
224.7 236.5 242.5 246.7 251.3 256.3 260 265.6 273.2 282 293.2 302.2 310 313.4 314.6 321.4 328.1 334.1 339.7 349.8 356 361.1 365.7 371.1 376.6 381.2 385.3 390 394.5 398.7 403.9 407.9 411.9 417.8 419.7 422.9 426 428 430.1 432.3 433.3 433.7 431.2 428.1 422.2 417.4 413.1 408.7 405 400.9 396.2 390.1 383.2 375.9 369.7 364.7 364.7 365.4 370.8 371.4 366.8 358.7 350.8 347.4 343.6 338.2 343.6 348.5 357.5 364.1 371.4 377.6 383.9 387.8 391.5 395.2 397.8 397.3 398.3 397.1 391 388.5 385.7 384.1 384.5 384.1 386.8 388.1 391.1 392.9 395.9 397.6 398.5 401 400.5 398.8 397.9 394.9 393 383.5 374.2 367.3 356.8 332.9 310.9 279.5 254.7 241.3 241 251.2 253.4 256.7 260.9 264.6 269.3 276.1 286.9 297.5 305.5 314.9 320.7 333.6 342.4 352 371.7 386.2 403.2 426.8 433.4 437.2 438.1 438 437 436.3 435.6 438.3 437.5 440.7 443.7 446 447.4 449.4 450.2 455.2 459.2 460.5 459.2 458.5 455.5 451.8 448.5 444.6 439.4 433.4 417.8 391 371.5 353 338.6 326.8 319.3 313.1 308 310.3 316.8 317.5 309.4 300 293.5 288.3 285.5 283.5 281.2 276.4 271.6 267.8 261.1 254.5 248.3 244 241.4 236.7 232.6 227.3 223.2 219.3 218.7 220 218.7 224.2 226.7 233 241.5 245 245.8 250.3 253.9 254.8 255.2 257
233.9 239.8 243.6 247.4 251.8 257.2 261.8 267.7 274.5 282.9 293.7 305.9 314 321.6 326.5 331 335 341.5 350.5 354 357.7 361.7 365.4 368.9 373.8 378 381.4 386.9 392.4 397.6 402.5 406.6 413.3 415.3 413.9 417.1 421.8 424.3 425.9 426.4 426.2 424.7 423 421.7 418.1 413.8 409.5 406.4 403 398.7 395.1 390.1 382.4 371.3 364.8 359.4 349.9 352.7 355.9 354.9 352.9 347.1 344.2 339.2 336.5 336.1 343.8 345.8 352.4 361.2 368.4 375.7 381.2 386.3 390.8 393 396.5 396.5 394.3 388.3 385.2 382.2 382.1 379.7 379.4 380 381.9 385.3 390.7 394.4 396.9 400.2 401.1 402.9 404.4 403.2 402.8 399.5 393.4 385.4 380.3 373.2 362.1 337 314.9 289.2 266.8 247.8 236.2 235.3 245.7 253.2 255.2 257.9 261.6 266.6 279 287.9 295.6 301.8 309 317.9 329 342.5 355.5 365.5 390.8 421.5 430.6 432.7 434.2 433.7 433.5 432 430.7 432.1 435.8 437.1 437.9 441.1 444.2 445.3 446.1 450.6 455.2 457.6 456.4 453.8 451.4 448.3 448.2 444.1 439.2 431.3 417.9 387.8 360.1 343.4 330.8 325.1 318.4 315.5 319.7 325.2 334.4 332.3 324.8 310.2 300.1 292.7 289.3 287.3 284.9 281.6 277.6 273.9 269.5 262.6 254.6 248.6 245.5 242.6 238.2 231.4 227.1 222.3 217.7 214.6 214 214 219.3 228.2 230.8 237.1 239.2 243.3 246.7 249 249.6 251.4
234 238 241.2 245.1 250 257.1 263.1 266.8 275.2 283.7 291.4 299.3 308.5 318.7 326.9 330.1 336.2 345.3 347.9 352.5 352.7 352.9 357.3 360.5 365.2 369.6 374.9 380 385.5 391.7 396.9 400.9 403.9 405.3 409 413.9 418 422.2 423.1 422.6 422 420.4 418.4 417.2 414.9 411.1 407.5 404.7 401 397.2 392.9 387.1 379.8 369 362.6 355 352.4 347.5 346.9 346.6 342.8 339.8 335.3 332 340.6 343.9 347.7 351.3 350.5 354.6 365.4 372.8 379.5 384.2 388.4 392.3 393.4 393.9 389.2 384.4 381.5 378.2 376.6 373.4 374.8 375.2 381.9 388.7 393 396.2 400.4 403.2 405.3 406.1 406.4 407.5 405 401.7 395.7 389.9 384.7 377.5 363.8 338 312.9 292.9 274.5 260.5 246.8 235.1 234.9 247.8 250.1 252.5 255.8 260.8 269.4 280.8 289.2 296.9 303.6 312.1 321.8 332 342.5 360.2 386.5 416.5 426.3 429.8 431 432.2 431.6 430.9 428.4 428.6 429.5 432.3 433.5 437.5 439.1 439.4 441.5 446.4 450.3 453.8 453 450.2 446.8 449.6 446.6 442.5 436.3 427.3 415.6 388.5 357.1 338.7 328.9 325.2 318.8 324.5 328 334.6 337.7 334.9 329.2 319.6 308.3 297.3 293 290.7 288.8 287.6 286.9 284.2 276.2 272.1 264.4 256.4 251.6 249.2 245.2 237.1 233.3 229.5 225.2 221.9 218.6 211.8 211.2 216 222.5 227.5 233.5 237.6 242.3 243.3 244.3 245.9
228.9 232.1 235.6 242.1 248.9 255.7 261.1 268.4 275.5 282.7 290.9 300.8 309.5 317.5 324.7 320.1 325.7 334 336.1 332.1 334.1 336.1 342.4 348 356 364.6 370.7 375.1 380.6 384.8 389.3 394.7 397.8 400.6 404.2 410.7 415 418.2 420.1 419.2 417.7 416 415 413 411.6 409.2 406.2 403.1 399.4 393.7 389.1 384.4 377.6 369.1 361.9 355.7 353.1 349.5 342.7 335.7 329.9 327.1 339.6 342.3 345.8 355.6 354.9 354.6 351.8 351.7 361.5 370.5 375.7 381 386.8 389.7 392.8 391 388.9 383.2 378 374.1 370.4 368.9 369.7 376.7 384.3 389.3 394.7 399.1 402.4 405.1 405.3 406.2 406.7 406.3 405.9 402.7 397.6 393 387.7 381.2 366.5 336.8 313.5 294.9 278.1 265.4 253.9 238 230.7 238 244.5 247.6 251.3 254.7 262.4 272.3 282.7 292.1 297.7 307.9 317.1 326.7 337.4 363.4 390.2 413 421.6 424.8 429 429.7 431.8 429.1 419.8 423.8 425.1 427 428.9 433.1 434.9 433.2 436.1 440.4 446.5 449.7 448 444.8 446.1 446.9 445 440.3 432.6 422.9 407.3 389.7 361.9 334.8 327.4 326.9 321.6 330 335.3 339.7 339.7 337 333.1 326.3 316.3 304.9 298.4 294.7 294.2 293.3 293.9 294.3 289.5 284.5 277.6 270.9 263.6 259.6 256.4 245.1 239.3 235.2 229.7 225.5 222 217.3 212.1 208.2 214.6 219.7 229.2 233.9 235.2 236.3 237.3 239.4
223.5 226.7 233.1 239.9 244.8 248 257.5 264.8 271.7 277 283.7 292.3 300.4 299.9 294.8 301.5 308.6 312 319.5 309.2 322.4 332.4 340.7 347.5 348.3 359.9 365.7 371.9 376.1 381.4 384.9 388.7 392.9 397 401.1 405 408.9 413.3 416.4 412.1 412.6 411.1 410.5 409.5 408.2 406.3 403.6 400.6 396.2 391.6 386.6 383.1 377 370.6 364.4 360 356.4 351.1 345.1 340 323.4 333 344.9 348.3 352.3 357.4 359.4 359 354.8 350.1 359 368.4 373.9 379.9 384 388.1 389 386.8 384.1 378.4 373.6 367.7 362.6 363.1 372.2 380.2 385.2 390.1 394.6 399.5 401.2 401.7 402.9 403.5 404.7 405.6 405.6 402.9 400 395.9 389 382.4 370.1 338.3 318.1 297.2 280.1 267.4 256.8 246.4 229.9 227.8 236.7 243.6 246.8 250.1 258.7 267.4 274.5 285.2 296.2 304.3 312.2 322.9 336.4 360.1 390 406.3 416.6 421.3 425.7 430 429.2 425.4 418 416.2 420.7 422 424.9 428.7 430 428.5 431.5 437 441.6 444.6 443.1 441.2 444.1 446.1 442.4 436.2 427.1 412.8 397.4 386.4 372.7 344.6 331.1 329.4 329.7 337.6 341.1 343.3 342.6 339.9 336.4 331.3 325.1 312.2 305 300.7 298.9 300.2 300.8 300.7 299.4 294.5 290.7 281.7 275.4 273.3 269.2 256.3 247.3 239.6 235 229.7 223.6 220.2 214.9 208.8 208 212.7 226.8 230.5 230 230.5 231.3 234
220 223.6 228 233.2 238 243.7 248.7 254.6 261.4 267.8 272.7 281.5 272.1 273.8 283 285.3 291.2 297.5 305.1 320.1 329.5 337 343.9 350.3 355.9 362.2 367.8 372.8 377 382 386.2 389.9 393.4 396.3 399.7 401.6 405.7 409.7 410.7 406.6 405.6 404.8 404.7 404.6 404.8 403.8 401.6 398 393.5 389.7 386.1 382.6 377.8 373.5 368.2 362.6 358.7 352.3 345.4 340.5 311.3 319 333.2 341.5 347.3 352 356.9 356.5 355.4 349.2 358.4 366.4 370.7 375.2 381 383.6 382.9 381.4 376.2 370.7 367 360.8 357.1 366 374.7 381.4 388.1 392.1 394.8 396.5 398.2 398.2 399.4 399.7 401.9 404 403.2 402.6 401.3 396.3 392 387.2 373.9 341.4 319.6 300.2 281.7 270.1 259.5 249.1 237.1 228.2 229.8 239 240.8 243.7 253.8 255.9 270.6 283 292.1 299.9 307.1 320.3 335.3 351.3 366.3 396.7 414 421.9 425.4 427.1 426.7 422.9 415.8 412.6 415.9 418 420.3 424 425.1 423.3 426.7 432 437.2 439.7 439.3 440.2 443.5 442.3 438.4 430.2 420.9 404.7 393.4 383.1 372.6 357 337.1 330.9 336.8 344.6 346.5 347.2 347.7 345 340.9 337.2 330.7 319.8 311.4 306.1 304 305 306.1 307.4 306.8 304.5 299.7 292.3 284.4 281.8 278.1 269.3 258.3 247.5 241.8 237.4 230.2 224.2 219.8 216.9 207.2 207 227.7 224.4 226.1 226.6 227.2 230.2
217.4 220.9 224 228.5 234.4 240.1 244 247.4 253.3 259 265 262.2 275.2 281 286.8 293.3 303.1 310.6 318.1 325.2 332 338.3 344.4 349.6 355.9 360.5 366.6 372.6 377 381.2 385.5 389.4 392.5 394.1 398.3 402.4 405.5 406.7 402.7 399.9 398.9 399.6 400.1 401.9 403.7 402.2 400.2 397.4 392.9 389.6 386.5 382.2 378.4 373.3 367.5 363 359.3 354.4 350.7 343.5 312.1 300.2 316.7 333.2 342.5 349.2 352.8 353.4 351.1 348.3 357.6 364.2 367.9 370.2 373.7 375 374.6 374.6 367 361.8 357.8 352.2 357.8 368.9 377.1 383.7 389.7 391.1 391.8 392.4 393.6 393.8 393.6 395.6 399.7 401.2 402.3 402.2 400.5 397.6 395.3 389.3 377.8 345.8 322 304.4 288.6 272.9 262.9 251.7 241.9 229.5 226.2 230 236.2 237.3 244.4 252.8 264.3 274.5 289.2 298.6 307.9 318.9 331.7 355.2 379.8 401 411.3 418 421.6 422.8 422.3 419.6 411.2 407.1 409.1 413.1 414.4 417.4 419.5 418.3 423.2 429 434.2 435.9 435.6 439 440.2 438.4 434.3 425.7 413.6 401.3 390.1 378.9 369 357 350.9 335.7 341 350.9 352.4 351.8 353.9 350.4 347.4 343.7 336.6 325.2 316.9 310.7 308.2 309.4 311.1 313.2 312.3 312.5 306.8 298.6 292.7 289.5 284.8 277.4 268.3 255.6 247.4 241.9 238.7 230.9 227.8 221.6 206.6 204.1 219.3 222.8 220.2 220.9 224.7 225.7
215.2 219.2 222.7 226.6 231.1 234.9 241.4 246.9 250.5 252.8 258 267.7 277.2 285.5 291.8 297.9 306 313.8 321.3 328.3 334.4 339.9 345.9 351.2 356.5 362.4 368.5 373.5 378.6 382.9 386.9 390.6 393.2 394.3 396.4 399.4 396.9 397.9 395.7 395.7 395.8 395.9 396.2 398.7 402.4 403.2 399.5 397.2 395.5 390.8 386.3 382 377.5 373.1 365.9 360.6 356.2 353.6 350.2 345.4 318.1 294.2 301.8 326.1 337.1 342.1 346.7 346.1 344.7 347.1 355.2 360.4 364 366.4 365.4 365.9 363.3 362.4 353.2 350.3 344.9 352.9 362.1 371.4 379.2 384.2 385.9 386.2 387.4 387.2 388.2 387.7 391.8 394.1 396.7 399.7 401.4 401.2 401 400.9 396.5 391.9 381.5 350.9 325.2 306.7 290.9 276.4 265.3 256.8 248.7 238.3 224.1 224.7 228.4 233.3 237.4 248.2 265 277.7 290.1 298.6 306.7 317.9 331 354.1 375.8 396.3 406.6 412.6 414.2 417 417.1 413.9 407.4 395.9 402.4 405.1 406.8 412 412.8 415.8 418.8 425.7 430.8 431.1 432.8 436.7 437.6 435.3 429.6 420.9 408.1 397.2 388.7 378.5 369.2 363.4 355.6 340.6 348.1 354.3 357.8 356.3 359.9 358.1 353.6 351.2 344 331.3 320.3 314.1 313.7 315 316.9 317.9 318.8 319.5 314.2 305.3 298.8 297.2 291.9 285.5 276 265.4 257.2 248.8 243.5 239.2 231.1 224.9 213.2 201.3 208.2 216.8 215.3 217.9 217.5 219.2
213.9 217.4 221 224.8 227.6 234 240.6 245.2 250.3 255.7 261.7 268.2 275.1 282.4 289.3 298.1 306.6 314.4 322.2 329.2 335.6 341.3 346.7 351.8 356.5 361.8 367.8 373.4 377.8 382.5 386.8 390.2 392.9 393.8 395.8 394.3 391.9 392.2 392.1 392.5 393.1 393.2 394.6 396.1 400.6 401.9 400.2 396.5 393.9 391.8 388.1 381.6 376.4 371.1 360.2 355.2 353.6 349.8 343.6 334 312.4 287.6 295 316.1 330.3 335.8 338 338 341.6 349.5 355.8 357.6 359.2 361.7 359.6 356 353.4 349.2 344.8 338.6 343.6 354.1 366 374 378.4 380.1 380.5 381.5 381.9 383.5 385.1 385.6 389.3 393.9 398.1 400 400.8 401 400.2 400.5 394.8 390.6 381.1 352.7 328.1 307.7 292.6 279.6 269.6 261 254.3 246.6 233.5 226.2 223.4 229.8 238.9 250.8 264 276.2 288.8 298.3 305.4 314.6 329.7 350.7 369.7 387.2 398.3 405.5 407.5 410 410.1 408.6 400.6 387 395 397.1 400.9 406.5 407.5 408.8 414.8 422.8 426.7 427.8 431.2 435 435.1 432 425.7 417.1 405.6 397 388.5 381.4 372.3 365.5 359 356.2 359.8 360.9 363.2 362.1 365.4 364.8 360.5 357.7 350.2 337.3 323.7 317.8 318.3 320.6 322.2 323.9 324.8 324.2 319.8 311.4 305.4 303.8 300.5 292.9 282.7 272.5 265.4 258.3 250.3 245.6 239.5 229.3 223.7 207.7 202.9 205.4 209 211.4 211.5 216.2
208 213.5 215.9 219.5 228 232.6 238.8 242.3 247.6 253.2 256.9 266.6 274.1 275.7 286 296.7 306.6 315.1 323.1 332.1 337.2 341.6 347.1 351.4 356.6 361.2 367 372.1 376.9 381.3 385.6 387.5 389.9 389.2 388 387.7 388.4 389.9 390.2 390.7 390.9 390.7 390.7 393.2 396.1 397.2 397 395.7 392.9 390.2 386.3 381 375.4 370.9 358 351.3 347.7 344.6 337.8 329.3 308.8 287.2 284.8 306.5 318 324.2 330.1 336.9 346.2 351.6 354.5 354.6 355.9 355.7 352.1 348.8 344.7 340 326.8 347.3 358.5 363.8 368.3 371.8 373.4 374.1 376.1 377.7 377.7 380.6 382.4 384.9 387.4 392.2 395.6 396.7 396.8 398.3 400.4 398.6 394.4 387.9 378.3 352.4 328.1 308.6 293.6 282.9 274.9 264.9 257.8 251.8 244.2 234.2 222 223.1 235.4 248.4 261.7 275.4 288.1 296.6 303.1 310.4 324.4 345.2 362.4 378.1 389.9 397.1 400 401 402.6 399.6 393 370.9 385.2 390.1 392.7 399.2 403.7 406.5 411.9 420.7 424.1 424 429.4 432.6 433.7 428.4 423.5 415.2 405.9 397.5 391.5 383.9 374.9 367.6 354.7 365.7 370.5 372 370.1 369.7 371.3 370.5 365.9 363.4 356.7 340.7 329.9 324 322.6 325.5 328.7 329.8 330.7 330.2 323.4 315.4 310.3 309.1 307.8 300.3 288.9 280.5 274.4 267.2 259.8 251.7 244.5 238.2 231.3 223.1 205.8 198.6 200.9 204.6 207.6 214.7
215.5 223.3 227.8 229.7 231.3 233.4 236.5 239.3 247.1 256 259.1 269.2 277.3 282.8 287.7 288.3 301.9 310.6 320.9 328.8 334.7 338.9 345.7 350.2 353.9 360.8 366 370.6 375.7 380.1 383 383.4 383.2 383.3 383.9 384.9 386.4 387.8 388.3 388.9 387.9 389.3 390.3 392.7 394.7 394.5 393 392.4 390.7 388 383.5 379 373.7 367.3 357.5 348 342.4 339.5 333.7 327.5 312.6 290.9 270.2 288.8 304.5 321.7 332.5 342.8 349 351.6 350.5 350.6 351.3 348.5 345 339.7 335 326.3 338.1 353.2 357.9 361.1 363.1 365.2 366.9 369.2 371.7 373.3 376.6 376.7 377.7 381.7 385.6 388.2 392.6 393.2 396.7 399.4 397.8 396.6 392.2 383.4 371.6 348.5 326.3 307.5 295.8 286 277.4 268.3 261 255.2 247.5 236.1 220.3 220.1 234.7 246.2 258.1 273.1 285.2 293.7 299.5 303.3 318.3 337.3 354.1 369.9 381.5 388.9 390.8 392.9 394.3 391.4 382.5 365.5 374.4 379 382.4 388 398.9 402.3 409.4 418.5 422.5 423.3 427.6 430.9 431.4 428.2 422.1 415.3 404.5 400.1 394.3 389 380.5 371.5 367.3 371.8 378.5 378.6 376.4 375.8 377.4 375.8 371.3 367.9 361.8 345.8 335.3 330.2 327.7 332.2 335.3 336.8 335.8 333.4 326.4 319.9 316.8 316.9 313.4 307.1 293.1 286.8 280.4 275.5 267.9 260.9 252.6 243.5 234.9 227.4 214.5 204.9 198.8 201.6 206 211.8
224 228.2 235 241 244.8 247 252.5 258 263.3 262.3 270.4 276.4 281.5 286.1 291.1 295.7 299.5 304.4 314.2 321.5 328.3 334.9 341.1 347.2 351.5 357.7 363 367.3 371.4 375.1 377 377.4 378.4 379.9 381.4 384.1 384.6 386.1 386.2 386.7 387.8 386 388.1 390.6 391.7 391 390.4 389 388.1 386.4 382.9 377.5 372.5 365.1 352.6 342.7 340 335.6 330.9 325.3 313.5 290.8 266.3 291.3 316.5 330.7 340.4 346.1 348.7 347.5 346.2 347.4 343.6 339.3 337 330.5 317.8 324.3 343.3 349.9 354.1 355.4 355.5 357.7 360.9 363.9 368 371.2 371.8 372.7 374.7 377.7 380.2 384.3 391.1 391.7 396.4 396.9 395.1 393.1 387.8 375.7 357.1 338.8 322.2 308.6 299.8 291.5 281.1 272.8 264 258.2 250.7 241.3 223.4 218.9 232.4 242.3 254.4 270.7 282.5 289.5 293.7 292.9 310.4 330.7 345.4 359.7 365.5 378.5 380.3 381.3 382.7 379.5 370.5 353.8 357.7 355.6 370.9 387.1 395.7 400.3 410.4 417 418.9 422.6 426.8 430.7 431 426.9 422.6 415.4 407.5 402.8 397.1 391 386.1 381.1 369.6 379.9 384.9 385.9 384.4 380.8 382.3 381.1 375.4 372.3 366.6 353.9 342.5 336.7 335.5 339.5 340.4 342 342.2 338 330.4 324.1 321.7 322.2 317.3 311 299.7 294.7 289.4 281.2 274.2 267.1 258.1 247.8 238.4 230.8 223.9 215 209.8 194.6 200.8 210.9
227.2 233.8 241.2 249 252.3 256.4 260.9 263.6 272.1 279.8 277.6 276.4 285.3 291.7 293.2 299.4 303.1 307.5 312.1 317.5 324.3 331.5 338.3 343 349.2 354.1 358 362.4 366.1 369.5 371.6 375 377.1 378.6 381.1 382.7 383.4 384.2 382.9 385.8 386.7 384.4 385 387.1 389.7 389.7 389.8 389.1 388.3 385.2 380.8 376.7 370.5 361.9 349.1 343.4 339.1 335.7 332.5 325.5 295.3 278.7 264.9 291.1 321.5 332.9 339.8 341.6 342.2 343.8 342.5 339.4 336.1 330.5 326.3 313.8 313.2 330.5 343.2 346.5 345.8 346.7 349.6 352 357.9 361.7 364.4 364.7 364.6 366.4 370.3 373.7 381.1 386.5 389.3 392.9 396.1 395.4 394.6 392.6 386.4 373 350 332.7 320.8 311.4 303.8 295.8 288.4 279 270.9 262.7 255.8 243.2 228.8 217.8 228.7 237.6 251.3 267.4 277.9 282.5 285.3 285.7 301.4 321 337 344.9 354.1 363.1 366.5 367.8 368.6 363.4 354.2 338.9 340.2 362.3 378.6 389.4 394.4 402.3 411.2 417 420 422.4 426.4 431.1 430.9 428.4 423.5 416.3 410.2 404.9 399.5 394.6 390.8 387 381.5 387.2 390 390.8 389 386.7 386.2 385.4 380.5 377.3 370.1 356.6 347 343.6 341.3 345.1 346.7 347 347.7 339.9 332.7 328.1 326.2 325 319.9 312.1 305.2 299.5 292.9 283.7 276.8 269.3 259.4 248.4 240.1 232.8 225.2 219 213.2 197.1 196.3 205.5
230.4 240.2 245.9 250.9 255.5 259.9 264.5 270.8 282.4 287.1 289.8 286.3 285.5 294.4 298.3 301.7 306 310.6 315.8 320.3 325.8 332.1 337.9 342.4 347 352.2 356.4 359.8 363.4 367.2 370.3 372.6 374.2 377.1 379.5 381.4 382.3 382.5 382.4 383.9 386.6 380.7 385.4 385.2 384.8 386.4 387.5 386.6 385.4 382.6 379.1 373.8 368 359.3 345.5 339.6 333.3 328.2 325.5 319.1 294.1 265.7 256.2 294.6 311.1 323.9 329.8 333.3 336.9 337.1 332.5 331.8 329.9 323.6 310.9 300 319.8 335.7 339.6 339.5 338.2 341.6 343.7 352.1 355.4 357.2 357.3 358.6 356.1 363.5 366.2 374.3 380.4 386.5 390.2 394 395.3 396 394.2 389.2 383 364.8 345.2 329.9 320.3 312.3 305.2 298.5 292 284.5 275.7 267 261.1 251.1 234.4 214.9 217.1 232.4 246.6 261.4 267.6 272.6 272 276.3 292.5 307.1 321 329.2 328.9 343.3 346.5 346.2 345.2 345.4 338.1 320.9 347.7 368.3 381.8 389.8 395.5 404.3 411.2 415.4 416.6 420.9 427.6 431.1 431.8 427 423 417.1 410.8 407.8 403 399.3 395.2 389.2 391.2 393.9 395.1 395.9 394 392.5 393.7 390.8 385.1 383.3 375.1 359.6 349.7 348.2 347.6 350.9 352 349.7 348.8 339.3 332 329.1 328.4 324.1 319.1 311.9 307.7 300.3 292.5 283.8 275.6 267.2 260.2 250 239 231.2 224.1 219.4 214.2 201.5 192.9 200.4
232.6 244.6 252.6 254.3 260.3 265.3 274.7 281.7 287.1 292.1 293.9 293.6 293.5 295.9 300.3 304.3 308.2 313.2 317.4 322.4 326.7 331.7 337.8 342.3 346.7 349.9 353.1 359 362.5 366.7 369.1 369.8 373.5 377.6 379.2 380.4 380.1 380.6 380.4 382.7 382.2 379.5 380.5 382.5 382.7 382.5 382.7 383.1 382.3 379.4 375.4 371.7 365.4 355.7 342.3 334.6 322.5 306 301.8 289.8 273.2 253.7 269.7 281.8 294.9 312.2 323.6 330.9 330 329.4 328 325.4 326.1 319 297.8 310.5 326.1 329.8 329.5 328.7 331.7 336.9 344.5 349.9 350 351.7 350.3 349.1 350.7 357.4 364.2 371.8 376.6 383.4 387.6 388.1 390.3 389.7 381.4 367.2 355.2 343.4 331.5 325.1 319.9 313.5 305.4 299.9 293.6 286.6 279.6 276.8 271.1 260.2 243.7 222.6 215.7 219 238.1 249.2 254 261.1 259.3 266.8 280.2 288.7 297.1 303.5 302.9 322.4 325.3 325.1 324.8 327 324.3 314.7 346.3 367.5 381.7 389.9 396.3 403.9 410.2 413.4 416.8 421.1 429.3 433.3 432.4 428.4 422.9 418.2 413.2 409.4 405.6 400.1 400 397.3 397.7 399 400.1 401.3 399.1 400.5 399.7 397.6 392.5 387.9 379.1 361.5 353 350.8 352.7 355.7 353.9 351 346.4 337.1 330.9 327.6 326.3 323 315.8 310.3 305.6 298.3 290.7 282.3 272 265.2 257 247.6 237.2 229.3 223.1 218.9 215 200.7 194.8 199.7
235.1 246.6 254.7 264.2 271.2 276.7 281.6 287.4 291.1 294.3 295.5 295.7 296.8 299.2 301.6 305.3 310.5 314.7 317.7 322.4 326.9 331.2 336 340.1 344.6 348.7 351.1 357.3 361.8 364.8 365.7 369.7 374.3 376.2 378.5 379.6 376.4 378.3 379.7 381 380.1 378.3 379.1 380.4 381.2 379.4 380.5 379.2 377.8 375.2 371.8 370 364.9 356.5 344.3 341.4 332.8 304.2 276.9 265.1 250.6 256.1 265.6 276.2 290.3 308.8 319.6 322.7 322.6 322.3 319.3 318.4 322.8 313.7 289.6 295 319.6 321.1 316.7 319.3 331.5 340.9 345.8 346.5 345.8 344.6 341.8 341 342.2 354.7 361.7 367.9 372.4 376.6 380.4 382.8 379.4 364.1 354.2 343.9 335.1 327.2 323.2 319.6 317.1 311.2 304.5 301.3 294.9 290.5 286.2 287.2 283.9 271.4 256.1 241.2 218.6 212.8 214.7 231.2 240.8 248 249 257 263.3 264.5 270.9 283.4 287.8 303.4 304.1 299.4 298.5 299.5 298.8 312.4 332.7 365.2 375.2 389.7 398.7 403.5 408.7 413.4 417.6 423 430.6 432.8 430.6 428.8 424.1 420.4 416 410.3 406.7 405 406.4 403.7 404.5 406.4 405.7 405.1 403.5 405.2 404.2 401.7 395.5 392 381 362.5 356.4 353.6 356.4 358.2 354.2 349.4 340.9 333.4 327.8 325.6 323.1 317.1 310.8 308.4 301.9 294.3 287.4 276.9 267.3 261.9 254 243.6 234.4 228 222.8 220 214.8 199.2 192.8 207.9
238.4 245.5 255.5 264.5 272.1 277 281.8 284.3 286.6 288.6 291.1 294.4 297.4 300.6 303.8 309.3 313.8 317.8 321.6 324.1 328.4 332.3 336.1 339.5 343 347.7 350.5 355 360.1 363.4 363.5 367 370.6 374.3 376.7 376.4 376.3 375.5 377.7 376.5 376.2 374.7 377.3 377.4 378.9 378.2 376.6 375.7 373.7 371.4 368 367.3 364.4 359.3 350.4 344 314.4 292.7 278.5 270.7 248.8 252.5 260.7 269.1 281 302.5 313.3 318.5 319.1 317.3 312 308.1 304.1 301.8 277.5 294.7 311 309.5 312.5 325 333.5 338.1 340.5 340.1 337.5 336.5 332.6 327.1 342.7 352.4 358.5 363.1 368 371.5 374.1 364.4 350.3 340.2 334 326.5 319.3 314.9 314.3 312.9 310.7 306.7 302 299.5 296.2 293.5 294.3 294.9 291.9 281.2 273.5 262.8 248 230.3 215.1 213 228.5 233.5 236.4 242.6 242.1 247 256.8 270.9 276.9 277.7 274 277.4 286.1 294.7 312.3 331 349.6 370.5 385.9 394.2 400 403.1 406.9 411.4 416.9 424.2 430.8 434.2 432.9 430.7 426.3 422.1 417.9 413.7 409.5 408.1 409.2 408.4 409.2 410.5 408.1 409.8 408.7 410.2 408.4 404.1 395.8 390.1 380 362.7 358 357.2 357.5 357.4 352 346.4 336.1 329.3 325.4 322.5 319 312.1 306.6 303.5 296.9 289.1 281.8 267.4 264.3 258.6 250.5 239.4 232.6 226.8 222.7 220.6 218.2 207.2 191.5 202.4
237.5 244.7 253.8 260.6 267.4 271.7 275 276.3 278.2 281.1 285.5 290 294.8 300.1 304.4 310.2 314.5 317.6 321 324.9 327.9 332.3 335.8 338.1 341.5 345.8 349 350.8 356 359 361.4 364.5 368.3 371.6 374.4 375.6 372.6 370.5 371.2 372.4 372.2 369.2 374.2 375.2 376.2 374.9 372.5 371.3 369.1 367.2 366.1 365.4 365.3 360.8 354.9 342.1 305.7 289.9 279 269.4 248.3 249.3 255.1 262.6 275.4 296.4 308.6 313.1 315.8 314.6 309.4 304.5 297 282.7 270.3 297.3 307.1 304.4 299.3 319.6 329.3 333.4 334.4 333.4 330.1 326 313.3 327.3 341.1 347 351.7 358.2 361.5 364.4 354.3 339.1 329.9 323.6 317.3 310 306.3 306.3 305.7 305.1 303.5 300.4 297.5 297.7 297.4 297.5 300.5 300.9 296.7 288.4 286.4 274.5 255.9 243.2 224.5 211.5 218 220.5 223 227.3 234.4 243.7 257.1 266.6 263.4 265.4 278.5 292.8 306.3 322.7 336.3 349.1 362.5 378.7 388.5 395.7 401.1 405.6 408.8 413.7 418 425.7 433.3 435.4 433.9 431.1 428 425.5 420.9 417 414.8 411.2 412.5 410.2 413.1 413.6 411.1 412 412.2 412 409.8 402.8 392.3 385.1 379.1 363.4 359.2 358.1 356.7 353.7 348.9 340.1 331.7 324.9 322.3 319.1 314.3 306.8 301.4 297.2 289.7 281.9 268.2 265.1 260.2 254 243.2 236.1 231.9 226.9 223.5 221.9 219.4 217.1 211.9 193.1
233.4 242.3 250.1 255.9 261 264.6 267.4 270.9 274.6 278.8 283.2 288.9 293.4 297.8 303.9 310 313.9 316.9 319.7 323.8 327.1 331 333.8 336.8 341.6 344.2 347 347.5 352.6 355.5 357.8 361.6 366.5 369.7 370.2 368.1 366 363.4 366.7 368.6 368.5 365 368.6 372.6 374.8 373.4 369 364.8 364.1 362.7 363.3 363.8 365.1 363.2 354.1 330 303.1 289.7 276.1 270.2 251.3 245.1 252.6 258.8 273.9 290.5 302.5 312 317.5 319.3 317.9 317.9 303.2 281.8 262.5 278.2 287.7 288.3 289.1 312.6 325.2 329.4 329.7 326.3 321.8 305.8 303.6 325.7 335.5 340.6 346.7 354.1 351.9 341.4 329.8 319.8 311 306.8 300.7 297.7 298.1 298.8 298.9 298.9 298.4 294.8 297 298.8 299.7 302.6 306.7 304.2 299.6 294.8 293.2 279.5 259.8 244.6 226.7 210.6 213.7 218.4 221.6 228.8 230.8 240.2 247.2 264.2 277.7 292.9 307.7 321.5 331.4 344.6 356.6 365.6 376.1 382.7 391.3 397.1 403.2 404.7 409.1 415.8 421.9 430.1 433.8 435.9 435.5 434.3 431.2 425.6 422.1 419.7 416.1 415.8 414.6 414.5 415.4 415.5 412.7 413.5 413.8 412.7 407.7 399.1 390 384.2 377.8 367.1 360.5 357.7 354.3 348.3 343.3 334.2 327 321.4 317.7 313.9 308.4 299.9 295 289 282.1 272 262.9 262 255 246.8 238.7 234.2 229.9 226.8 223.9 222.9 221.3 218.7 212.2 195.1
236.2 238.2 246.3 252.3 257.7 260.2 265 269.5 273.6 278.5 282.5 288 292.6 298 303.1 308 313.2 315.5 318.2 322 325.7 329.2 334.2 337.7 340.5 343.3 345.2 346.9 349 351.5 354.3 355.4 361.7 359.5 356.7 354.8 353.9 352.6 354.1 353.6 356.5 355.8 360.1 361.5 363.9 364.7 361.7 361 360.7 360.5 361 362.8 363.4 361.9 351.4 322.9 301.2 290.9 280.4 271.8 257.5 243.6 246.8 254.3 268.9 294.6 308.7 316.6 322 324.2 326.2 323.6 309 282.6 263.5 261.6 269.2 267.7 291.8 307.8 318.7 323.5 325.4 320.3 302.7 286.1 297.8 316.3 325.2 333 338.5 338.2 327.8 318.5 309.4 302.8 295.4 290.6 289.6 288.7 290.2 292.3 293.6 294.8 295.2 295.1 297.5 300.4 301.9 308.9 311 305.9 302.7 300.4 296.9 283.6 263.5 244.7 221 209.9 213.2 218.2 222 231.4 247.1 263.1 281.3 295.9 307.6 320.2 332.1 343.5 351.9 359.5 366.9 372.4 378.5 385.2 393.2 399.1 402.9 406.9 412.3 418.3 424.1 429.3 433.7 436 436.6 435.8 432.3 428.5 422.8 421.2 418.6 415.5 416.9 417.4 418.1 417 416.3 416.6 414.5 413.3 408.4 396.3 391.7 386.8 380.1 369.6 361.5 357 352.4 346.4 337 329.5 322.1 314.3 311.1 307 300 291.5 286.1 279.6 273.4 260.7 260.5 257.4 252.2 242.8 235.4 232.4 229.2 226.6 224 222.9 221.6 218.2 211.9 198.3
247.4 250.1 250.8 251 254.2 258.1 264.7 269.1 273 277.3 281.4 287.6 292.4 297.6 302.9 307.2 311.5 314.9 318.4 321.2 325.1 330.2 333 337.4 338.6 341 344.4 345.3 343.6 346.1 346.5 343.3 346.7 345.6 345.3 345.3 344.8 342.8 343.3 343.9 344.1 346 348.1 350 352.3 354.1 355 357 355.6 357.5 357.7 360.3 362 360 347.7 320.2 304.6 295.7 284.5 274.2 258.7 240.5 241.3 250.6 265.2 285.3 302.3 312.9 320.5 326.6 328.9 326.2 316.2 294.5 275.3 258 251.1 263.6 284.1 304.5 314.5 318.5 321.2 315.3 296 269 283.1 299.5 312.6 317.7 316.5 312.4 307 301.5 291.2 284.8 282.1 281.5 280.9 282.2 282.5 286.5 289.5 291.4 293.2 297.5 300.4 302.1 305 309.2 312.1 309.3 307 303.4 295.8 285.7 267.5 246.3 229.1 207.2 208.8 215.2 219.6 237.3 255.9 275.5 293.3 308.5 321.4 330.7 340.3 349.3 357.8 363.4 369.7 375.9 383.5 388.9 394.8 402.2 406.5 411.9 416.7 419.6 422.5 426.8 431.7 435.6 436.1 435.9 433.1 429.5 425.8 422.8 420.9 417.8 419.7 420.1 419.8 418.3 417.4 417.4 416.3 413.4 408.5 396.9 393.3 390 383.2 371 363.9 357.2 349.3 342.5 331.1 321.2 314.4 308.3 303 296.9 290.4 283.7 278.5 271 263.1 257.7 257.1 253.2 246.7 240.8 234.1 230.8 229.6 226.5 223.4 222.4 221 216.2 212.1 206.5
256.4 257.2 258.6 261.8 263.7 266.3 262.6 270 274.3 278.5 283.8 287.6 292.4 298.1 302.2 305.4 310.7 315 316.5 321.2 325 329.8 333.8 336.8 339.5 342.1 342.3 343.1 342.9 337.4 339.1 335.8 334.1 334.2 335.2 335.9 336.5 334.9 335.3 335.9 336.4 338.4 341.6 342.6 344.3 347.2 348.9 351.7 350.3 353.4 354.8 355.4 358.4 360.2 350.5 323.8 311.4 305.1 283.9 275.2 262 233.9 239.9 247.8 262.5 277.6 295.7 311.2 321.5 327.1 330.1 327.3 321.3 310.5 296.4 274.8 246.2 247.6 264.8 282.9 302.1 310.1 314 308.6 291.5 270.7 269.7 276.1 290.2 293.8 294.4 295 291.1 282.3 278.9 276.7 274.9 273.2 273.5 275.5 276.6 279.6 288.2 292.9 296.6 301.2 303.8 307.3 308.5 312.3 314.5 314.9 312.7 308.4 303.2 283.3 265.2 245.7 229.2 211.9 207.5 213.4 220.6 238.3 257 279.8 300.8 317.6 326.9 335 344.7 353.8 360.8 366.2 371.3 378.3 385.6 392.5 399.1 408.7 413.6 415.8 419.1 421.7 426 428.6 432.6 433.8 434.1 434.6 432.6 428.9 426 423.9 422.5 418.7 420.6 421.4 421.2 418.2 417.9 418.4 415.4 411.6 406.9 397.2 392.8 388.6 382.9 372.9 363.6 355.6 346.6 336.9 326.6 314.2 305.8 299.6 291.7 286.1 280.8 274 267.1 263.6 256.8 254.4 252.1 249.3 243 237.9 232 229.6 229 225.6 221.4 221.3 219.5 215 212.7 212.1
263.8 266.4 266.1 268.5 271.6 273.8 274.2 271.3 274.6 277.8 282.5 286.7 290.6 296.9 300.6 303 306.9 311.9 314.4 320 323.3 328.5 332.9 336.8 339.1 341 341.2 339.4 336.6 334.3 329 327.6 325 326.4 326.7 328.4 328.9 325.6 328.8 330.1 330.9 333.9 335.3 336.8 339.9 342.7 345.7 347.1 348.7 348.7 352.5 355.4 358.2 359.3 355.6 324.5 319.4 302.8 283.6 270.2 260.3 235.5 234.5 243.6 257.9 272.7 290.9 301.5 318.4 324.8 327.5 327.6 324.4 318.6 315.6 289.5 267.8 246.8 243.2 262.7 284.2 298.8 307.1 302.8 286.1 269.5 259.5 264.1 274.6 276.2 279.2 277.9 274.6 271.8 269.5 268.2 265.7 267 268.4 270 274.4 283.4 291.3 295.9 300.5 304.7 308.5 312.7 313.4 317 319.6 320.4 322.2 319.8 304.3 277.7 260.9 248.7 228.9 209.3 205.3 206.5 220.7 239.1 258.3 284.2 308.5 321.4 329.9 340.5 348.9 355.8 361.5 367.3 371.8 380.7 388.3 393.9 403.6 414.1 418.3 418.8 421.1 425 428 429.8 431.2 432.6 431.7 431.2 430.2 427.1 425.4 424.5 423.3 422.6 421.5 421.8 419.9 417.5 417 417.6 415.9 410.8 405.1 395.2 391.3 386.4 379.3 370.1 359.8 350.9 341.2 331.3 320.9 305.1 295.6 287.5 280.6 275.8 271.1 262.1 258.7 257.5 254.3 249.8 248.7 245.9 240.6 234.4 229.8 228.7 228.2 224.6 219.5 219.2 218 213.8 211.8 212.5
267.4 271.6 273.1 274.5 276.4 279.1 279.6 278.5 273.1 280 283.9 288.4 291.8 294.8 298.1 301.9 306.3 309.2 314.3 316.9 322.1 326.6 330.2 334.2 336.7 339.7 339.7 336.5 329.8 325.2 319 319.6 318.4 319.9 320.8 322.1 322.4 321 322.8 324.4 326.2 326.5 331.1 333.6 336 338.7 341.3 342.5 346.3 347.8 352.7 356.1 358.1 357.9 354 332.4 316.7 303.1 281.4 270.2 259 246.7 232 235.3 251.9 266.8 281.7 295.9 309.5 319.8 322.6 322.1 323 322.4 317.7 300.2 278.7 258 235.1 242.3 260.2 277.2 289.1 287.3 277.7 266.1 249.5 253.6 260.9 264.1 265.6 266.5 264.3 263 261.3 261.2 259.2 259.8 265.6 270.3 277.2 287.1 292.7 298.7 304.1 309 312.8 318.5 320.3 324.5 328.6 334 336.8 333.5 307.1 287.7 265.2 246.3 229.6 210.3 206.2 205.9 222.4 239 263 290.6 313.3 321.7 333.8 342.5 351.8 357.8 362 367.5 373.2 379.3 386.5 395.4 407.6 414.9 420.1 422.6 423.7 426.3 428.5 431 430 430.3 428.5 429.1 427.4 426.3 425.2 424.7 424.4 423.4 421.3 420.1 419.9 418.8 416.9 416.6 414.3 408.9 400.6 394.4 390.3 384.7 374.3 365.7 355.3 345.3 335 326.6 313.3 298 285.1 278.7 272 268.4 263.3 255.3 257.3 255.1 250.4 247.3 244.1 241.9 236.1 231.4 228.6 228.8 228 223.5 217.8 215.4 214.7 210.3 211.1 214.3
269.8 273.7 276.4 278.1 279.9 281.2 281.2 280.3 278.9 280.3 283.2 286.5 290.4 292.6 296.9 300.6 301.8 306.2 310 314.7 319.5 324.9 328.4 331.7 334.8 337.1 337 330.8 321.2 316.7 311.9 311.1 311.3 312.4 314.4 316.9 316.1 316.4 317.5 318.9 321.9 324.6 327.3 330.2 332.5 334.5 335.4 339.9 340.4 346.3 351 355.3 357.1 355 348.5 337.7 325.6 302.3 280.5 268.3 257.8 248 231.7 232 243.3 254.4 270.9 289.4 300.9 310.4 311.5 315.5 318 315.5 307.7 299.7 290.5 270.5 246.1 228.3 240.8 257.5 266.9 269.6 268.7 260.8 252.2 244 251.9 255.6 256 257.5 254.3 254.7 254.5 254.4 258.7 264.3 268.3 273.3 281.3 288.2 294.7 301.9 307.2 313.9 317.8 324.1 330.7 336.7 347.8 352 348.4 335.3 300.4 282.2 268.9 245.5 230.8 216.7 205.4 206.3 225.4 243.4 269 296.7 312.9 323.5 337.1 347.6 355.1 359.2 363.3 367.1 373.1 380.4 390.5 400.5 410.8 417.5 420.6 420.2 423.4 425.9 429.8 432.6 433.5 432.8 431 427.7 425.6 425.6 424.8 424.5 424.4 423.8 422.6 420.1 420 419.5 417.9 415.6 412.1 404.9 395.9 392.3 388.2 379.2 368.1 357.8 347.8 336.1 324.8 315.3 300.1 288 275.5 270.2 266.1 261.3 254.8 254.7 254.6 251.1 247.1 243.7 241.7 236.2 233.5 227.7 227.7 228.3 226.4 222.5 215.4 212.7 211.7 208.4 210.4 214.6
271.4 274.8 277.7 279.5 280.9 281.2 279.8 279.6 279.8 281 282 284.6 289.2 291.2 295.4 297.5 299.4 303.9 306.4 311.5 317.9 325.4 326.6 326.1 326.5 324.9 321.2 315.7 312.2 308 304.7 305.4 305.3 305.1 307.6 310.2 310.4 310.9 312.8 315.2 316.5 320.3 323.6 324.1 329.1 332.5 335.6 336.1 340.7 342.9 348 352.3 350.8 348 343 326.7 306.8 299.4 269.1 271.5 261.2 251.2 240.9 230.5 235.5 245.8 258.9 278 285.4 297.3 292.9 294.1 296.1 296.1 294.4 287.9 282.6 275 257.6 233 226.9 239.9 254.1 255.9 257.1 254.8 245 232.4 242.8 246.3 247.8 248.1 246.7 246.4 247.7 254.6 260.9 266.7 271.1 276.2 284.4 291 297.4 304.3 312.7 319 326.4 334.4 343.8 359.8 370.1 372.8 339.1 319.2 305.2 289.5 267.5 250.2 235.6 218.9 211.2 204.7 226.8 248 276.9 301.1 313.9 327.8 342.1 349.5 354.5 358.2 362.1 367.8 376.6 385.5 397.8 405.3 408.9 413.3 417.9 419.1 422.8 426.2 429.7 433.6 434 433.1 430.5 426.6 425.3 424 422.4 423.4 421.9 421.7 421.1 420.8 420 419.8 418.8 414.2 409.7 401.2 392.1 389.7 383.8 372.1 361.6 349.9 337.4 323.2 307.2 292.8 282.2 273.2 264.3 261.6 257.4 253.1 251.4 251.2 250.5 245.6 241.7 240.2 238.8 235.7 228.8 226.1 226.2 226.6 224.9 221.6 213.1 210.5 208.9 206.5 209.7 212.4
274.2 276 277.5 279.3 279.2 277.6 276.4 276.8 278.4 280.6 282.1 284.2 288.5 290.3 292.7 296.2 298.8 301.5 303.6 308.7 316 316.7 313.2 311.2 310 309.8 309 307 302.9 301 297.8 299 299 298.9 300.9 302.2 303.1 304.4 305.5 310 313 315.8 318.7 322.9 325.3 328.5 333.7 336.2 339.7 340.9 337.4 337.3 337.3 337.6 333.4 327.3 314.8 298.8 285.4 285.4 275.3 264.4 250.3 233.4 227.8 238.4 247.5 261 270.3 269.1 269.2 272.4 277.3 274.1 270.6 266 260.9 255.6 251 238.4 216.6 235.1 243.8 248.3 246.6 245.6 240.4 229.4 234.1 238.3 240.7 240.5 234.4 244.6 249.9 252.9 258.1 268.5 273.5 278.8 285.7 291.9 300 309.3 318.6 330.6 340.5 350.3 364.8 380.1 386.6 372 364.4 332.2 303.7 289.4 272.9 254.1 237.7 218.5 210.9 205.3 231.1 254.9 280.7 302.1 314.4 330.9 340.7 346.6 348.9 353.7 360.9 371.6 380.9 391.4 398.6 403 407.6 410.9 414.5 417.9 422.4 426.1 429.9 431.5 432.5 430.9 429.2 425.5 424.6 423.6 419.3 418.4 419.5 420.9 421.6 422.2 420.1 419.1 416.4 412.1 406.2 394.4 389.4 385.2 376.2 363.9 352.9 339.4 322.3 302.4 285.7 275.2 268.3 258.6 255.1 253.2 250.1 245.9 246.2 247.7 245.9 240.1 238.1 236.9 235.4 231.8 227.3 222.6 224.4 224.7 223.5 219.9 212.3 209.1 206.8 205 208.6 209.4
274.3 275.3 277.2 277.4 274.6 272.4 271.2 272.2 276.5 278.9 281.3 284.1 287 291.3 295.6 297.9 297.8 298.5 300.7 301.8 304.9 305.5 305.1 304.2 303.7 303.1 301.6 299 296.1 294.5 291.4 292.3 292.9 291.8 293.9 294.4 295.6 296.3 300.3 305.5 308.3 312.4 316 321.5 324.8 328.1 333.8 338.1 340.4 344.5 350.4 349.8 350.8 351.3 347.2 341.2 328.6 315.8 305.9 299.1 289.2 278.8 260.7 249.4 229.3 225 234.8 243.8 249.2 248 248.6 249 248.9 246.6 243.9 239.6 237.3 235 231 226.7 211.8 223.5 233 238.2 238.6 235.6 233.2 228.5 227.4 230.6 233.3 229.6 238.4 244.4 250 257.3 263.6 268.4 273.8 279.8 286.3 294.5 303.8 316.3 330.8 347.5 360.5 374.9 387.3 391.2 384.7 373.6 359.8 347.2 324.5 292.3 268 244 228.8 212.8 203.7 211.3 235.1 256.4 283 300.9 314.9 330 338 341.3 343.7 350 361.3 374.8 383.6 390.6 396.9 401.4 406.6 412.4 416.6 420.4 423.3 425.9 429.1 431.2 429.9 428.6 425.6 423.2 423.7 421 418 417.2 418.7 420.3 419.9 420.6 420.1 418.3 414.6 409.3 400.7 392 386.2 380.8 368.4 352.8 336.6 323.5 304.7 285 273 266.1 260.7 253.8 250.3 247.4 243.7 241.6 238 242.4 240.5 236.5 234.7 233.2 231.1 227.3 223.2 220 222.5 221.8 221.5 218.1 211 207.6 204.2 202 205.4 204.8
271.5 273.3 275.1 273 269.6 267 265.7 268.2 272.2 275.8 278.6 282.5 285.5 289.8 296.6 296.3 293.1 293 295.2 297.7 299.3 300.8 301 299.6 299.5 298.1 296.4 293.1 290.5 288.5 285.3 285.8 283.5 283.3 283.8 284.2 288.1 292.1 294.2 300.3 306.4 311.4 316 319.3 324.8 329.5 334 339.2 344 348.5 352.8 356.4 356.5 356.4 353.3 345.8 335.6 323.6 317.8 309.5 299.6 293.9 272.7 256.8 243.2 230.8 225.3 224 223.6 220.6 217.8 218.5 217.4 214.7 214.1 214.3 213.7 213.5 212.4 207.9 211.3 213.3 221.9 226.5 226.2 226 224.5 221.1 220.3 224.3 226.6 225.2 234.8 243 251.8 254.3 259.8 266.4 272.3 279.7 287.3 296.7 310.8 328.2 345.2 365.3 379.8 388.3 393.4 384.6 373.3 364.1 355.2 338.9 326.4 303.7 275.8 245.7 220.7 202.8 201 213.2 236 262.3 282.8 298.9 312.6 323.7 329.5 333.2 339.2 350.2 361.4 372 377.2 389.4 398 403.2 407.2 412.2 416.2 419.5 423 429.3 429.6 428.5 426.7 426.3 424.4 421.2 419.7 418.4 417.2 416.3 415.3 416.2 418 418.2 417 416.1 411.1 405.2 393.3 387.4 382.4 374.5 358.1 331.5 321.9 304.3 286.5 273.2 265.3 258.9 252.6 248.1 244.9 240.9 240 234.8 234.4 237.8 236.4 233.2 232.6 230.2 226.6 223.6 221.6 215.2 218.9 219.1 218.1 214.1 209.4 207 203 197.1 201.2 200.5
267.7 269.8 270.2 267.9 263.7 260.2 260.2 263 265.8 270.1 272 275.5 282.1 286.8 288.4 288.4 288.2 288.7 289.9 293.7 295.1 296.1 296.6 295.7 294.7 294.2 292.2 287.8 284.5 281.4 279.3 275.8 273.8 274.4 274.5 278.2 281.4 284.3 293.1 303.1 309.8 314.9 318.9 322.7 325.8 331.3 336.1 341.6 346.7 353.7 358.7 361.9 363.4 363.4 357.2 348.3 337.7 331 328.9 321.9 310.4 301.5 288.4 269.9 255.9 248.3 239.1 227.3 227.8 228.7 227.6 221.1 220.8 222.3 223.7 215.5 210.5 210 207.5 207.3 204.2 209.2 208.6 209.3 211.3 213.3 216.1 212.8 213.9 217.9 211.7 226.4 236.6 246.3 252.6 257.3 261.6 266.6 272.4 280.3 289.7 303.1 322.4 340.9 361.3 376.6 384.4 393.1 389.9 375 363.4 349 342.1 334.6 317.6 298.6 273.7 251 223.8 200.7 205.3 218 235.4 256.5 275.5 289.2 304 309.4 310.3 327.7 339.4 352 363.3 374.9 382.2 390.9 398.6 403.7 408.3 412.1 417 420.9 424.4 427 427.2 424 423.6 422.2 421.4 420.6 418.8 417.8 417.2 416.2 413.9 413.6 415 415.3 413.6 410.1 406.8 395.6 387.3 382.3 375.7 365.1 345.9 320.9 303.3 289.1 277.4 270.1 261.7 257.8 256.4 252.7 249.1 243.8 240.1 234.7 229.9 230 232.2 231 229.1 224.9 222.1 220.2 218.8 216.1 214.6 214.9 211.4 208.6 208.8 205.5 205.3 195.7 194.1 196
262.9 264.9 264.7 259.8 255.9 254.4 254.6 257.6 259.1 264.1 265.7 268.9 273.9 279.9 278.9 279.9 281.3 283.2 285.1 287.9 289.3 290.4 290.3 291.6 291.3 289.3 285.2 281.1 278.2 274.6 269.9 267.5 267.1 267 267.4 268.7 273.6 287.5 299 306.1 311.5 317.3 321.8 325.4 329 333.5 338.8 345.6 353.3 360.6 364 367.4 369.5 368.2 360.8 350.7 340.7 337.1 336 329.4 317.8 309.1 299.8 281 269.9 256.2 258.7 251.2 245.5 244.6 240.7 246.4 248.5 247.9 243.7 239.4 227.3 218 215.6 209 206.2 202.4 201 201.1 202.2 203.1 201.9 201.4 202.7 211.3 212.9 221.9 231 242.3 249.5 257.4 261 266.3 271.5 280.2 292.1 313.3 331.3 351.8 370.2 379.2 387.6 391.7 381.6 366.7 350.9 345.8 333.8 325.9 313.8 295.6 267.3 247.4 223.8 198.5 206.3 218.8 236 248 251.2 272.5 283.3 296.2 315.2 329.6 342.9 355.9 365.4 375.6 385.9 391 397.4 401.6 406.4 413 418.4 420.5 421.8 422.9 423.3 423.4 420.2 419 418.7 417.6 417.7 416.9 415.5 414.5 412.7 412.3 412.2 412.9 411.6 405.7 401 390.5 383.5 378.1 369 355.2 333.3 312.2 296.7 284.9 271.8 265.3 270.1 273.6 270.6 264.5 255.8 250.1 243.4 236.7 230.9 222.6 227.7 228 225.6 220.6 218.6 215.6 214 211.9 206.4 209.1 207.3 206.2 205.4 205.5 206.7 196.2 188.5 191
254.6 256.5 255.4 253.4 249.9 247.2 251.2 253.5 258 260.8 262.7 265.8 269.1 271.9 274.1 274.7 275.9 277.9 280.1 281.4 283.5 285.5 285.8 286.8 288.1 287 280.6 273.6 268.8 264.4 262.9 261.5 259.7 259.5 257.2 263.8 277.7 287.6 298 305.5 312 319.2 325.5 330.5 334.5 338.9 346 352.5 359.9 366.4 371 374.4 374.7 369.9 362.9 355.1 350 343.1 341.9 334.2 325.1 318.9 310.2 295.2 289.4 271.5 279.9 274.5 268.7 263.6 261.2 269.4 274.6 273.6 266 259 242.5 242.4 229.1 219.3 214.9 212.2 207.2 209.3 202.8 200.6 199.3 198.9 196.8 198.8 204.5 208.6 218.4 233.8 245.9 255.9 259.5 264.7 268.2 274.9 292.3 315.6 334.3 358 372.6 380.5 387.7 392.8 392.4 369.1 349.5 340.6 326.6 315 303.1 287.8 261.5 240.7 220.1 199.7 200.6 225.1 244.9 265.1 281.1 286 293 305.2 321.6 336.8 346.8 357.8 367.9 377.1 385.4 392 397.2 403.3 409.4 413.8 415 413.9 414.7 416.1 418.1 419.7 419.4 418.3 415.7 416.1 414.8 416.4 414.6 412.7 411.8 409.7 409.7 409.8 407.7 401.5 395.6 385.5 379.3 373.4 361.1 337.8 318.5 302.9 289.9 275.6 272.6 283.4 291.1 297 296 287.2 275.1 263.6 249.7 239.1 233.4 227.9 218.2 222.8 221.6 217.4 216.4 212.1 210.2 208.6 206 204.6 203 202.8 201.3 203.1 198.4 191 188.1 187.5
248.4 250.6 250.6 248.7 245.7 242.9 243.7 246.8 254.6 258.7 261.7 264 266.9 268.5 270 271.6 272.8 274.3 276.5 277 276.8 277.2 279.6 280.8 278.8 270.5 263.6 261.9 258.9 256.2 255.4 254.8 253 251.8 256.9 267.2 275 283.2 291.9 300.7 310.7 318.1 326.6 334.8 341 347.2 353.1 361 366.2 372.4 375.4 376.1 373.4 369 364 360.2 355.3 348.6 348.1 340.2 333.9 329.1 319.1 310.9 307.3 291.4 300.1 299.4 288.3 276.5 291.9 294.3 301.2 301 290.4 280.4 263.8 258.1 249.3 233.6 226 217.2 217.1 215.1 209.1 205.9 206.4 210.7 205.9 199.9 194.1 198.7 208.5 219.7 235.2 251.3 255.3 258.1 259.4 267.7 286.7 309.6 331.1 355.2 373.1 380.3 387.4 391.9 390.6 380.4 364.5 332.1 322.4 307 289.8 276.1 257.5 244.6 228.5 202.4 203 227.8 249.4 274.5 294.2 302.4 308.8 319.2 331 340.4 348.3 357.3 369.6 377.6 384.1 390.7 400.2 405 407.1 407.9 408.3 407.3 408.4 409.8 412.1 414.3 416.2 416.3 415.5 414.3 413.4 413.9 414.1 411.1 409.3 407.9 406.2 405.5 402.6 394.1 386.6 377.8 373.6 365.3 347 324 306.4 293.3 283.4 284.1 289.6 303.7 312.8 311.4 300.9 290.6 279.4 264.8 247.3 237.4 233.3 229.6 222.8 213.9 214 212.9 212.6 210.2 207.6 206.2 202.3 198.1 193.2 196.1 198.6 196.8 192.8 188.3 186.1 185.1
244.7 247.2 247.6 246 242.4 238 237.3 237.5 240.4 245.4 250.1 252.6 254.1 256.5 262.6 262.4 263.5 262.6 263.4 261.7 260.2 259.8 259 259.6 257.5 254.2 252 250.7 250.1 248.8 249.1 249.1 247.5 245.3 257.9 263.3 270.1 277.7 287 297.3 305.1 316 327.9 337.8 347.2 353.9 358.8 364 370.5 374.7 373.2 371.2 368.7 368 366.3 363.3 360 357.4 351.7 344.6 342.3 336.5 328.3 323.2 317 311.2 315.2 316.3 302.5 283.8 310.4 315.1 323.2 323.4 317.2 303.7 281.1 279.1 268.8 255.7 244.2 233.9 228.9 221.5 211 215.6 219.2 222.2 218.7 209.3 200.9 194.1 196.3 212.2 226.6 242.8 246.6 248.2 252.4 260.3 277.9 299.1 321.2 343.3 368.8 378 385.5 388.5 382 371.6 355 340.5 319.5 301.9 288.1 268.9 258.9 250.1 232.6 200.6 199.9 231.4 252.6 281 300.1 310.7 318.2 327.9 337.1 344.2 350.9 362.7 370.2 377.1 385.9 393.5 399.2 402.1 403.3 404.2 405.1 406 406.5 405.5 408.1 409.4 411.4 413.5 414 414.1 413 412.7 412.3 410.7 405.9 403.7 397.9 397.5 392.8 383.8 375.6 370.5 364.4 348.3 329.4 312.2 297.8 296.9 301.6 304.9 305.3 319.4 320 309.6 297.6 287.6 274.5 259 245.8 237.9 232.6 229.2 226.7 222.8 216.4 207.1 208.6 207.3 206.2 203.8 202.8 205.9 203.8 189.9 192.3 190.7 188.1 185.3 184.8 184.3
241.7 244.6 245.8 244.7 240.9 233.2 229 229.2 229.1 229.5 231.1 233.4 236.7 239.5 243 244.7 245.8 246.4 245.6 245.4 245.4 244.3 246 243.9 244.8 244.2 244.3 243.7 243.8 244.1 243.4 243.3 242.1 251.6 255.8 259.6 266.7 274.1 282.6 291.8 302.2 313 326.1 339.5 350.2 357.4 361.9 366.4 369.7 368.9 364.1 363.6 365 365.6 365.2 364.6 362.9 361.9 356.4 353 348.4 343.4 338.9 332.3 323.1 327.3 328 326 309.3 304.6 324.6 331.7 336.3 337.9 336 325.5 304.3 299.4 287.3 275.1 260.8 247.5 236.9 226.3 220.9 224.5 226.7 225.7 220.6 212 201.8 195.5 191.5 207.9 217.2 230.2 235.6 235.8 242.2 250.4 263.2 280.4 292.6 324.1 361.2 374.6 382.5 381.5 375.1 361.5 344.2 327.4 312.3 292.9 276.2 264.8 251.7 242.1 235.7 197.5 204.8 233.7 258.4 287.2 305.5 315.5 326.1 335.1 342.2 346.7 354.9 364.7 371.8 380.1 387.2 392.9 396.7 400.4 401.2 401.8 402.9 404 403.7 401.9 405.7 407.9 409.3 410.6 412.1 412.9 413.2 412.7 411.7 409.8 403.9 398 388.1 377.5 378.1 369.5 364.3 360 346.1 329.1 312.7 300.9 304.7 312.1 320 328 324.2 323.8 315.7 304.3 291.7 280 266 252.4 243.4 236.2 232 227.4 225.7 221.9 216.1 210.8 203 205.3 204.7 205.2 208.5 209.4 202.3 193.9 187.9 186.4 184.8 184 184.8 185
237.4 241.3 242.5 240.3 230.7 225.5 222.3 222.3 221.7 222.4 223.2 224.2 226.1 227.8 230.7 232.7 233.9 235.4 235.7 235.7 235.6 235.3 236.8 236.6 237.9 238.4 239.2 239.2 238.8 239.8 238.8 236.4 243.8 249.2 253 257.2 262.4 269.5 278.1 287.2 297.4 308.9 320 336 349 356.5 360.7 362.7 361.7 357.5 357.5 358.1 360.6 362 363.2 364.6 364.7 364.9 359.9 359 355.4 350.5 345.9 338.7 335.6 336.5 334.8 330.9 310.5 326 339.3 343 345.9 347.1 344.5 338.4 326.7 313.3 299.2 282.1 263.7 251.7 236.9 223.1 230.9 234.8 232.1 228 219.9 210.1 203.3 193.9 190.7 200.8 205.6 215.5 225.6 227 229.1 237.5 246.1 270.4 290 320.4 357.4 369.4 376.5 372.6 361.6 346.9 330.8 314.6 299.1 283.3 270.1 261.4 245.7 240.7 225.8 194.2 222.7 249.5 273.8 296.8 313.8 320.7 330.5 338.7 343.4 348.2 359 366.6 376.7 380.4 384.6 388.6 392.8 396.4 399 400 400.8 401.8 397.5 403 406.2 406.4 408.9 409.6 411.1 413.3 414.5 413.5 412.7 410.6 407.3 400.2 384.8 369.5 359.3 351.2 343.2 335.6 326.4 314.4 315.7 317.5 317.4 330.8 339.6 340.8 333.1 322.9 311.1 296 282 270.2 257.1 247.2 239.8 233.7 230 226.3 223.8 220.4 214.8 210.4 201.9 203 201.3 205.9 209.7 207.1 198.1 193.7 188.1 184.9 183.9 183.5 184.4 185.2
230.4 231.3 231.2 226.5 221.8 219.4 216.6 217.8 216.5 217.3 218.3 218.8 219.9 221.4 223.1 225.4 227.5 229.7 230 230 230.3 229.5 231.1 231.9 233.3 234 234.3 234.5 234.8 235.2 231.7 233.4 243.1 247 251.6 255.8 260.5 266.9 272.8 282.8 293.7 303 312.9 323.6 337.1 351.1 354.4 351.2 347.5 347.7 349.1 351.9 356.1 359.3 361.6 364.7 367.3 368.2 366.3 363.5 360.5 356.5 351.4 350.9 346.7 344.1 339.6 334.2 324.4 337.3 347.1 351.9 352.3 353.3 349.1 341.6 327.6 314.8 300.1 277 263.7 253.3 240.1 234.9 243.1 245.3 238.4 230.3 220.7 208.9 202.2 197.2 191.1 192.4 197.1 204.3 215.8 216.7 218.7 226.3 240.7 261 285.7 313.5 347.8 363.9 367.5 360.4 347.4 330.6 313.8 298.1 284.4 271.2 261.4 251.6 235.5 221 201.5 212.6 240.1 267.4 286.8 307.4 317.1 321.7 331.2 337.7 343.9 353.7 363.2 369 374.5 376.8 379.3 384.8 388.9 393 395.5 395.7 396.9 393.9 397.9 402.6 405.9 407.4 407.9 408.2 410.8 412.3 416.1 418 418.4 417.3 413.5 407.4 399.6 386.3 360 355.6 347.9 338 333.1 332.9 331 327.5 334.1 350.7 355.3 344.5 331.4 318.7 305.9 289.7 269.1 257.8 248 241.2 238 234.5 228 225.3 223.8 221.3 219.9 214.5 210.3 198.9 198.1 201.6 207.2 202.3 196.4 191.5 186.7 184.5 182.9 181.5 182.6 183.9
224.9 222.9 219.6 218.1 216.1 214.6 213.3 212.1 212.1 212.6 213.8 215.1 215.7 217.5 219 221.5 223.4 224.9 225.2 225.4 225.9 226.7 227.4 227.6 229.1 229.7 230.4 231.3 230.9 229.2 228.9 236.7 241.1 244.7 249.2 253.5 258.6 264.8 270.4 277.6 285.8 294.5 304.1 313.3 322.4 330.3 334.6 337 338.1 340.3 342.5 345.5 347 355.7 359.6 366.5 370.2 370.9 370.5 368.6 363.7 361 360.9 360.2 354.9 354.1 348.7 341.9 336.9 347 354.2 358.7 361.8 360.2 354.5 341 326.1 308.5 291 277.3 268.2 256.2 250.9 250 255.5 253.8 243.2 233.6 221.7 211.6 202.3 197.7 190.9 189.8 191 194.9 203 206 208.9 218.2 234.4 247.3 273.2 297.4 331.6 352.8 356.1 352.6 340.4 318.5 301.4 288.5 275 263.3 253.2 238.6 222.5 198.6 193.8 223.7 250.2 276.6 297.8 310.7 316 323.2 329.8 336.2 347.5 357.6 363.9 370.1 371.1 372.7 374.9 381.9 387.4 390 386.3 383.9 388 389 396.6 398.2 402.2 407.6 409.7 409.5 412.7 413.8 417 419.4 420.9 422.1 419.1 413.9 405 387 368.8 359.7 350.8 347.4 344.2 343.6 344.8 343.9 351.8 364.7 358.3 344.7 326.5 312.2 297.5 278.5 262.9 252.1 243.4 240.1 237 231.7 226.7 224.6 224.5 225.1 223.3 220.8 216.6 207.5 199.2 195 200.7 199.6 192.8 186.4 185.3 184.2 182.7 180.9 179.5 181
218.6 216.6 213.9 212.9 212.5 211.2 210.1 206.5 207.8 208.9 210 211.2 212.1 213.8 214.8 217.4 219.9 221.7 221.2 221.1 222.4 223.5 224.3 225.3 225.2 225.4 227 225.5 224.2 230.7 236 235.5 238.8 246.2 250.4 254.5 261.1 265.8 270.2 276 282 289.1 295.4 303.5 311.6 318.6 324.9 328 329.5 332.7 331.7 342.3 349.1 354.2 361.3 367.2 370.8 372.5 373.4 372.3 369.2 368.8 369.3 365.9 364.8 365.8 360.7 350.5 347.6 354.7 362.3 366.2 367.5 365.9 358.9 348.6 334.6 315.2 291.8 280 264.5 254.5 250.1 260.1 265.2 259.6 252 244.9 232.3 220.1 206.8 201.8 191.1 188.5 188.8 188 189.1 192 199.1 205.3 218.2 235.9 257.1 281.5 312.5 331.7 343.4 339.7 327.3 310.8 291.9 278.5 266.8 256.1 245.6 230 209.5 191.7 205.9 229.8 258.7 279.7 303.1 307.6 314.8 321 326.6 336.1 348.5 353.6 363.3 364.1 365.6 367.5 371.9 375.6 378.7 377.8 374.7 378.3 382.7 384.8 390.8 398.9 404.7 408.6 410.9 412.9 412.1 414 416.4 418.6 421.9 423.9 421.1 415.7 405.7 396.5 388.7 367.4 359.2 365.2 358.8 360.2 361.9 361.4 369.2 368 354.2 342.2 319 300.7 286.1 267.4 258 246.7 238.5 236.6 234.3 229.4 225.3 225.7 227.3 226.9 226.5 224.9 219.8 210.1 201 194.9 194.9 192.9 188.6 197.3 193.4 187.2 182.7 180 178.8 178.4
212.8 211 210 209.5 209 207 206.3 199.7 203.3 205 205.9 207.2 208.6 209.4 212 213.8 215.4 216.9 217.5 216.6 217.9 219.7 220.5 222.3 221.6 222.3 219.7 224.6 230.1 234.4 238.6 242.1 245.5 248.8 250.4 254.1 260.4 266.1 270.6 275.1 280.9 285.4 292.1 297.1 302.8 308.8 314.7 320 323.5 326.8 334.7 341.6 349.4 355 358.1 365.3 370.5 373.9 376.1 375.6 373.5 377.2 374.8 374.3 374.7 375.3 372 360.1 357.5 362 368.9 372.9 373.1 371.3 366.1 351.2 330.4 309.7 295.4 278.1 267.5 261.2 256 273.3 273.7 265.8 259 251.1 244.4 232.6 215.3 207.3 196.8 188.2 185.5 186.9 186.4 186.1 190.3 195 205.8 219.4 240 263.6 291.4 309.7 329.1 327.6 314.8 295.3 279.6 270.5 260.5 249.9 238.5 220.5 193.6 192.2 208.4 233.1 256.2 282.1 297.3 303.5 311.8 315.9 321.6 331.9 341.9 349.1 357 359 362.3 365.1 366.9 368.4 370.8 366.9 370.2 376.8 384.8 400.3 394.8 397.6 401.3 406.5 409.7 413.7 415.3 416.1 417.5 419.2 422.8 424.3 420.7 415.1 407.2 398.8 395.8 377.8 372.1 378.1 375.6 375.3 375.1 374 374.3 363.2 349.5 331 306.6 287 270.3 259.1 252.6 244.8 233.5 233 230.8 227 222.4 226 226.7 229.4 228.2 226.9 220.9 210.6 204.9 200.3 197.1 196.4 200.2 200.5 196.3 189.6 182.4 179.1 178.4 177.1
