ncols 200
nrows 81
xllcorner 240000
yllcorner 595350
cellsize 50
265.1 270.6 276.5 281.8 284.6 287 292 297.8 302.8 305.7 309 311.4 313.3 316.9 321 325.1 329.8 334.2 341 348.8 351.7 353.9 353.7 353.6 357.7 364 370.7 371.2 363.8 358.6 356.6 349.2 342.6 339.3 332.7 318.8 308.7 300.7 293.6 295.2 292.1 293.9 296.5 298.4 303.9 300.1 303.1 306.9 311 314.9 320.4 326.4 328.9 330.2 329.1 327.7 325.6 321 311.1 307.2 293.8 289.8 284.6 278 273.6 268.7 262 248.7 236.4 244.1 246.7 246.6 245.1 247.3 247.4 253.7 258.9 260.6 261.7 266.4 269.4 273.9 276.1 277.7 279.2 280.5 280.1 278.2 275.6 272.2 270.9 269.7 268.3 267.2 265.5 263.7 263.2 262.8 262.6 264.5 260.2 255 259.5 262.4 264 267 271.4 270.2 268.7 267.5 267.8 268.3 271.2 277.4 282 285.7 291.7 292 292.6 295.1 299.1 301.9 303.6 306.2 305.4 301.4 299 295.8 293.1 291 287.8 286.1 283.9 280.2 280 277.2 277.8 274.5 271 270.1 266.2 263.2 259.8 258 255.8 253.3 248.9 242.7 237.1 232.5 230.3 227.4 224.9 223.2 219.2 215.2 214 212.7 208.1 213.8 214 212.5 210.8 207.5 207.5 207.5 207.5 207.5 207.5 207.5 207.5 207.5 207.5 207.5 207.5 207.5 207.5 207.5 207.5 207.5 207.5 207.5 207.5 207.5 207.5 207.5 207.5 207.5 207.5 207.5 207.5 207.5 207.5 207.5 207.5 207.5 207.5 207.5 207.5 207.5
265.8 270.8 277.9 283.6 284.8 288.5 291.6 296.3 302.3 305.7 309.1 312.9 316.2 320 324.3 329 333.4 336.7 341.4 353.5 364.6 363.4 356.8 358.1 365.8 367.7 373.4 374.9 372.4 364.6 358.5 354.8 339.9 334.1 323.6 314.1 304.9 297.3 297.1 297.9 302.4 303.4 305.1 307.1 306.9 305.1 306.2 309.4 316.2 322.7 325.9 334.2 338.7 338.6 343.2 341.3 337.3 323.9 313.4 305.6 296.7 290.4 283.1 278.2 273.9 268.8 260.1 243.6 244.3 245.9 246.3 246.6 247.2 246.6 252.1 254.1 254.5 255.7 256.3 260.8 265.8 267.1 270.1 273 274.4 274.2 274.2 271.1 270.4 270.7 270.4 268.6 267.7 264.9 264.1 262.9 262.6 262.3 260.8 260.8 259.2 258.2 254.9 259 262.4 265.8 267.3 267.7 266.2 266.2 266.9 267.8 269.9 274.3 282.9 285.5 291.6 297.6 293.9 295.7 300 302.6 304 306.9 308.1 307.8 305.4 299.8 298.3 295.4 292.2 291.3 290.2 285.9 280.4 280.1 278.1 277.8 274.9 273.2 266.6 263.4 261.4 259.5 257.3 255.1 249.3 241.6 235.7 231.6 229.7 228.6 227.1 226.3 224 222.4 219.5 216.6 215.9 215.4 215.8 215.7 215.9 214 207.5 207.5 207.5 207.5 207.5 207.5 207.5 207.5 207.5 207.5 207.5 207.5 207.5 207.5 207.5 207.5 207.5 207.5 207.5 207.5 207.5 207.5 207.5 207.5 207.5 207.5 207.5 207.5 207.5 207.5 207.5 207.5 207.5 207.5 207.5 207.5
264.7 271.4 277.7 283 286.9 291.5 292.5 298 302.4 305.3 310.7 314.5 318.6 322.7 326.9 332.1 337 340.5 344.3 354.1 364.9 359.7 360.8 370.6 377.9 378.7 380.6 379.9 374.3 367.5 355 342.6 336.8 330.2 321.2 312.6 304.4 301.3 306.2 307.9 310.5 313.6 310.6 311.5 312.4 313.1 313 313.9 320.2 331.6 335.6 340.4 351.5 340.3 340.2 334.4 329.6 322.7 314.7 304.7 297.5 291.5 285.6 278.5 272.9 265.9 254.4 241.5 249.3 252.1 246.3 249.3 249.3 253.6 257 258.7 255.1 254.6 255.3 256.5 260.5 261.9 259.6 260.4 263.4 262.7 264.6 269.6 267.6 269.9 267.5 265.8 265.4 264.6 263.8 262.6 261.9 261.1 260.9 258.6 258.3 255.8 254.4 258.9 262 264.1 265.8 266.5 265.3 265.5 266.1 267 269.4 272 276.5 282.4 286.8 302.6 295.7 296.6 296.9 301.1 304.1 303.6 305.2 306.8 304.6 303 301.9 300.4 296.4 295 294.6 289.1 283.7 281.3 280.9 278.4 275.3 275 272.9 267.5 265.7 263.1 259 256.3 256.4 246.2 242.1 233.4 231.7 229.8 229.1 228.8 228.1 225.8 223.4 221.1 220.4 216.9 216.7 216.5 217.3 215.6 207.5 207.5 207.5 207.5 207.5 207.5 207.5 207.5 207.5 207.5 207.5 207.5 207.5 207.5 207.5 207.5 207.5 207.5 207.5 207.5 207.5 207.5 207.5 207.5 207.5 207.5 207.5 207.5 207.5 207.5 207.5 207.5 207.5 207.5 207.5 207.5
264.9 272.3 282.3 283.3 287 291.5 294.4 299 304.5 308.2 312.1 316.2 320.1 324.9 329.7 334.3 337.7 342.8 348 353.8 359.5 363.9 369.8 381.1 388.8 383.2 379.4 374.4 368.1 360.2 350.3 342 337.9 331.6 323.2 315.6 310.7 308.9 315.7 317.3 317.9 314.6 316 318 318.9 321.6 323.2 324.6 325.3 337.9 349.3 339.9 339.6 339.4 337.8 333.8 331.7 324.5 317.7 311.6 299.1 292.4 286.4 279.2 272.6 265.2 253.1 247 253 260 260.5 258.8 259.9 259.8 260.5 262.1 258.8 255.8 257.1 257.7 259.5 258.4 255.7 259.6 261 261.5 265.4 262.3 262.9 264.9 264.8 265.1 264.1 263.7 262.9 261.9 259.8 258.8 258.3 257.9 257.8 256.8 254.4 257.1 261 262.6 264.6 264.2 264 264.9 265 266.4 268.3 272.3 276.7 280.6 282.1 286.6 289.8 291.5 294.5 298.9 301.1 303.6 306.2 307.1 309.5 309.9 305.4 303.6 298.1 296.7 292.5 288.4 285.9 284.2 282 281.7 280.9 278.1 276.2 271.3 268.1 265.9 262.6 257.5 252.1 247.8 240.4 233.7 232.4 231.2 230.3 230.6 231 225.9 223.7 224.3 223.7 220.3 217.6 217.5 217.9 218.5 207.5 207.5 207.5 207.5 207.5 207.5 207.5 207.5 207.5 207.5 207.5 207.5 207.5 207.5 207.5 207.5 207.5 207.5 207.5 207.5 207.5 207.5 207.5 207.5 207.5 207.5 207.5 207.5 207.5 207.5 207.5 207.5 207.5 207.5 207.5 207.5
266.3 273.3 280.7 283 289.2 293.2 296.8 302.6 305.6 309.7 313.4 317.1 323.2 327.7 332.6 336.2 341 345.6 351.9 358.2 363.5 376.1 379.7 384.7 387.3 383 375.7 367.4 354.6 351.7 343.9 340.3 337.9 331.8 321.8 318.4 322.6 321.1 323.2 322.3 323.7 321.1 320.8 324.3 325.9 332.6 336.5 336.9 330 331.4 339.4 338.4 343 339.4 342.6 346.1 340.1 330.2 321.6 313 301.7 293.4 286.9 280.1 272.7 264.9 252.1 251.6 257.5 265.7 268.6 271 268.5 266.9 265 262.2 257.7 257.7 263.8 261 259.2 254.4 254.4 254.4 258.2 257.9 262 260.3 260 261 261.8 261.9 262.7 263.5 261.5 259.6 258.8 258.2 257.9 257.8 258 257.4 254.3 254.4 256.7 258.7 264.3 264.1 261.1 263.7 264.4 265.5 267.1 270.5 271.8 273.3 277.9 282.1 285.1 289.9 294.6 299.7 301.9 304.8 306.1 307.1 309.1 308.5 305.4 303.5 300.1 298.4 292.8 293.6 291.8 288.5 286 284.3 282 281.1 278.5 274.8 271.5 268.4 264.3 259.5 253.5 248.3 242.3 235.3 232.4 231.8 231 230.3 228.8 225.9 227 226.4 225.8 225 220.5 219.3 216.2 216.5 207.5 207.5 207.5 207.5 207.5 207.5 207.5 207.5 207.5 207.5 207.5 207.5 207.5 207.5 207.5 207.5 207.5 207.5 207.5 207.5 207.5 207.5 207.5 207.5 207.5 207.5 207.5 207.5 207.5 207.5 207.5 207.5 207.5 207.5 207.5 207.5
265.7 275.5 280.2 285.4 291.6 295 301.1 303.3 308.1 312.3 316.9 322.2 324.7 331.8 336.1 339.3 341.6 345.5 352.9 361.5 374.7 380.9 386 386 381.5 374.4 364.3 355.5 345.9 344.4 340.2 337.7 335 330.4 328.4 326.7 328 324.8 325.7 328.1 328.9 332 336.1 336.3 340.8 346.1 352.5 344.9 333.4 334.9 336 338.7 340.4 341.6 347.8 349.1 342 332.8 321.3 310 300.3 293.1 285.8 280.8 272 260.6 249.8 257 262.2 270.3 280 285 280.7 274 272.2 267.7 265.3 266.3 268 263.4 254.4 254.4 254.4 254.4 254.4 254.4 254.4 257.1 259.7 260.5 260.5 260.2 259.8 260.2 260.3 259.6 258.1 257.8 257.5 257.2 256.2 256.6 254.4 254.4 254.4 256 262 260 259.1 262.2 263.3 264.1 265.7 268.3 269.2 271.8 275.4 279.6 283.1 286.9 293.1 299.3 301.6 306.8 307.1 306.9 306.7 305.6 304.7 303.7 301.5 299.3 300.2 299.1 297.8 291.7 289 286.3 285.1 282.8 281.6 281.2 276.3 269.7 264.3 258.9 253.7 249 240.5 235.8 232.2 230.7 230 229.2 228.1 228 228.3 228 227.6 225.3 221.1 217.5 216.3 207.5 207.5 207.5 207.5 207.5 207.5 207.5 207.5 207.5 207.5 207.5 207.5 207.5 207.5 207.5 207.5 207.5 207.5 207.5 207.5 207.5 207.5 207.5 207.5 207.5 207.5 207.5 207.5 207.5 207.5 207.5 207.5 207.5 207.5 207.5 207.5 207.5
268.6 272.6 278.9 286.4 290.7 294.6 297.8 301.8 309 314.7 321.2 327.2 332.1 338.1 342.2 351.6 355.3 363 358.4 361.7 367.5 375.7 385.6 384.3 372.1 361.5 354.3 345.1 340.8 339.4 338.5 335.3 334.6 332.6 331.5 331 329.2 326.8 329.4 329.8 335.2 341.2 349.9 354.6 358.1 357.3 351.3 347.8 336.8 335.6 341.9 342.1 353.5 345.8 345.1 348.6 339.6 331.9 321.2 310.6 299.5 293.4 285.9 279.9 273.1 259.6 251 259.3 262.6 276 288.8 305.2 300.3 288.1 282.6 280.6 272.5 272.1 273.1 267.2 256.6 254.4 254.4 254.4 254.4 254.4 254.4 254.4 254.4 259.8 260 259.9 259.6 259.7 259 258.2 258.3 257.9 257.2 255.6 255 254.8 254.4 254.4 254.4 254.7 257.3 256.7 256.9 260.3 261.7 263.8 265.8 266.9 269.8 270.9 272.2 274 280.2 285.4 291.9 299.4 300.2 301.5 305 305.5 306.7 306.5 307.4 307.1 305.1 303.5 303.7 301.6 299.2 292.7 289.8 287.3 286.1 284.7 284.9 281.6 280 273.9 265.1 257.1 253.8 248.3 237.9 235.3 232.9 230.9 230.4 229.9 230.1 229.7 229.4 228.9 227.4 227.7 224.7 220.1 217.2 208.5 207.5 207.5 207.5 207.5 207.5 207.5 207.5 207.5 207.5 207.5 207.5 207.5 207.5 207.5 207.5 207.5 207.5 207.5 207.5 207.5 207.5 207.5 207.5 207.5 207.5 207.5 207.5 207.5 207.5 207.5 207.5 207.5 207.5 207.5 207.5 207.5
270.1 272.9 279.1 286.4 289.4 292.9 296.2 299.3 307.7 319.2 325.8 329.9 335.3 346.1 352.3 360.4 363.6 364.1 366.9 373.9 370.6 371.6 373.5 372.1 362.3 355.5 348.8 340.9 338.5 337.8 337.2 336.3 335.8 334.6 333.6 331.9 330.3 331.4 339 346.7 351.9 355.7 359.3 362.8 360.7 361.8 359.7 356 340.7 339.2 357.1 348.2 357 350.9 345.5 348.5 343.7 334.8 321.2 314.5 302.8 293.9 286.5 279.1 271.4 255.6 256.6 261.3 270.4 284.9 296.5 323.1 322.5 310.8 297.9 289 284.6 283 277 264.8 257.6 254.4 254.4 254.4 254.4 254.4 254.4 254.4 254.4 259.6 258.7 258.9 258.9 259.4 258.5 258.6 259.2 258.5 257.1 256.6 254.3 254.4 254.4 254.4 254.4 254.4 255.6 255.9 255.7 259.2 261 262.5 264.6 267.4 268.4 268.7 270.6 272.4 274.5 278.9 282.8 286.7 292.6 297.5 301.5 307.6 310 308.5 308.8 310.5 308.6 306.9 304.8 303.6 301.6 293.7 290.4 287.2 285.9 286.1 284 283.4 278 272.5 265.1 258.6 253.7 244.2 241.2 238.1 235.6 233.1 232.2 234.1 231.5 230.6 230.6 229.9 229.5 227.2 225.4 220.9 217.4 215.1 207.5 207.5 207.5 207.5 207.5 207.5 207.5 207.5 207.5 207.5 207.5 207.5 207.5 207.5 207.5 207.5 207.5 207.5 207.5 207.5 207.5 207.5 207.5 207.5 207.5 207.5 207.5 207.5 207.5 207.5 207.5 207.5 207.5 207.5 207.5 207.5
270.6 274.1 278.1 284.8 290.7 292.9 294.4 300.5 308.9 317.4 323.1 333.4 339.1 348.8 354.1 362.2 366.2 371.1 376.5 373.6 371.7 370.4 371.1 362.5 355.4 350.9 342 339.3 338.4 338.8 339.6 339.4 337.2 336.2 335.2 333.3 334.8 338.8 345.5 355.1 358.7 359.5 363.5 363.1 365.5 367.6 367 359.9 345.5 353 358.8 355.8 364.9 358.5 349.6 349.7 344 334.8 324.1 315.2 304.7 296.7 286.9 278.5 271.6 254.4 261.8 267.3 276.7 289.6 306 332.9 338.9 328.5 315.5 303.7 293.8 289.7 282.3 270.8 267.4 259.9 254.4 254.4 254.4 254.4 254.4 254.4 254.4 254.4 254.6 257.7 256.8 258.8 259 257.2 258.7 258.4 257.9 256.1 255.4 254.4 254.4 254.4 254.4 254.4 254.4 254.4 254.8 255.2 257.3 261.8 264.2 266.2 266.8 267.1 268.6 269.6 272.4 275.1 281.4 287.9 294.7 299.1 303.5 309.6 312.5 310.9 308.9 307.9 309.5 309.1 307.6 304 303.5 295.5 291.7 286.6 282.3 282 279.8 275.1 271.4 268.3 263.5 257.5 251.6 247.2 243.5 240.8 237 234.3 233.2 232.6 231.9 231.8 234.2 231 230.3 225.5 223.5 219.3 216.8 216.2 207.5 207.5 207.5 207.5 207.5 207.5 207.5 207.5 207.5 207.5 207.5 207.5 207.5 207.5 207.5 207.5 207.5 207.5 207.5 207.5 207.5 207.5 207.5 207.5 207.5 207.5 207.5 207.5 207.5 207.5 207.5 207.5 207.5 207.5 207.5 207.5
270.9 274.1 274.8 279.8 288.5 291.7 294.6 300.5 304.8 311.8 327.3 337.1 345.2 353.3 360.1 366.1 369.7 371.8 374.2 373 372.5 368.5 363.4 356.2 351.6 345.6 339.8 340.2 340.6 341.5 341.6 340.3 339.7 339.1 340.8 339.3 341.1 345.4 347.4 351.3 355.3 358.8 361.7 368.3 371.1 370 371.5 364.2 351.3 353.3 363.9 359 367.4 363 353 351.7 343.7 335.9 324.6 320.4 308.1 298.1 288.1 279.5 272.5 255.9 269 272.3 282.9 293.9 312.9 342.9 351.5 351 329.5 317.4 302.9 294.7 288.6 280.8 272.3 263.7 257.9 258.2 258.7 257.7 254.4 254.4 254.4 254.4 254.4 254.4 254.4 258.4 259 257.7 255.3 257.8 259.3 254.8 254.4 254.4 254.4 254.4 254.4 254.4 254.4 254.4 254.4 254.4 256 258.8 260.9 261.8 262.8 265.5 269 268.5 269.6 270.8 276.3 282.7 290 295.8 303 309.1 313 312.5 306.8 308.3 305.5 304.8 305 300.8 302 294.8 289.3 284.5 280.3 277.6 275.2 272.4 268.9 265.4 263 260.7 254.9 248.8 244.9 241.7 238.8 236 233.9 232.6 231.5 231.6 233.5 228.4 226.8 225 221.2 219.5 216.4 214.3 212.4 207.5 207.5 207.5 207.5 207.5 207.5 207.5 207.5 207.5 207.5 207.5 207.5 207.5 207.5 207.5 207.5 207.5 207.5 207.5 207.5 207.5 207.5 207.5 207.5 207.5 207.5 207.5 207.5 207.5 207.5 207.5 207.5 207.5 207.5 207.5
271.7 274.6 275.3 275.6 280.5 290.2 290.9 295.7 300.8 311.4 328 334.9 345 357.5 372.1 377.1 375.7 373.4 373.1 370.7 369.6 362.5 355.4 348.7 346.6 342.6 342.3 344.3 343.4 346.9 346.5 346.2 347.7 348.6 349.2 345.9 345 346.2 348.7 353.9 354.9 360.9 362.6 367.2 366.3 364.3 365.7 360.3 356.6 361.1 368.8 360.3 374.5 368.5 353.7 349.3 342.1 332.9 328.1 326.7 311.8 300.1 290.8 279.9 273 259.9 271.1 275.1 284.3 303.8 324.5 351.6 361.9 361.1 350.1 332.3 308.6 309.9 301.8 284.9 277.4 271.2 262.8 263.9 261.5 260.3 254.4 254.4 254.4 254.4 254.4 254.4 254.4 256.9 258.4 257.5 254.4 257.8 254.1 254.6 254.4 254.4 254.4 254.4 254.4 254.4 254.4 254.4 254.4 254.4 254.4 254.4 256.8 258 260.5 262.1 264.9 265.8 268.3 269.4 273.8 281.5 290.4 297.6 303.8 310 308.9 305.1 305.4 305.3 304.9 298.8 296.4 294.4 291.6 289.5 287 283.4 280.3 276.8 273.9 269.3 267.7 264.1 262.6 260.6 255.6 251.7 246.9 242.2 239.4 236.8 234.9 232 231.1 229.2 228.4 227.7 225.8 223 220.2 218.1 216.5 215.1 207.5 207.5 207.5 207.5 207.5 207.5 207.5 207.5 207.5 207.5 207.5 207.5 207.5 207.5 207.5 207.5 207.5 207.5 207.5 207.5 207.5 207.5 207.5 207.5 207.5 207.5 207.5 207.5 207.5 207.5 207.5 207.5 207.5 207.5 207.5 207.5
273.6 280.4 275.4 275.6 278.8 284.1 289.3 293.8 303.2 316.5 325.8 339.5 351.8 361.1 368.9 381.1 379.3 374.6 364.7 360.1 357.9 353.2 348.3 346.2 344.2 343.2 345.5 348.5 349.1 352.2 351.7 353.7 355.4 357.2 357.6 356.3 351.1 352.5 351.5 355.4 356.8 361.7 363.1 362.5 359.5 360.1 358.3 354.8 354.5 362.8 360.7 359.7 369.7 363.9 353.1 345.2 338.4 335.6 328.6 326.8 312.2 302.9 292.8 281 271.8 261 273.8 279.4 288.5 302 335.6 359.1 372.1 369.8 371.1 356.5 319.3 316.2 302 295.8 287.5 277.2 271.6 267.7 263.9 261.7 260.8 254.4 254.4 254.4 254.4 254.4 254.4 254.4 254.4 254.4 254.4 254.4 255.7 254.4 254.4 254.4 254.4 254.4 254.4 254.4 254.4 254.4 254.4 254.4 254.4 255 256 256.5 259.2 260.8 262.5 265.7 267.5 269.5 272.3 279.1 288 297 302.5 302.9 302.7 301.3 302.2 302.7 299 299.2 293.6 290.4 288.5 286 283.4 279.8 277.6 275.2 271.3 268.7 265.4 261.9 262.9 258.7 253.1 251 248.5 244.7 239.8 236.8 232.7 229.9 228.1 228.3 228 227.7 226.2 223.3 219.6 218.1 215.7 207.5 207.5 207.5 207.5 207.5 207.5 207.5 207.5 207.5 207.5 207.5 207.5 207.5 207.5 207.5 207.5 207.5 207.5 207.5 207.5 207.5 207.5 207.5 207.5 207.5 207.5 207.5 207.5 207.5 207.5 207.5 207.5 207.5 207.5 207.5 207.5 207.5
273.3 275.7 273.2 274.1 277.8 286.1 293 299.5 311.6 320.3 331.4 340.4 348.9 352.3 358.3 365.6 366.6 365.5 357.3 355.5 353.4 350.3 348.7 348.1 347.2 346.5 349.2 350.1 352.9 353.6 355.8 360.2 361.9 365.6 364.4 363.7 360.1 358.8 355.1 355.1 356.2 356.8 356.4 355.8 356 356 353.9 352.6 351.3 352.7 353.5 355.3 359.6 356.3 350 339.5 337.4 334.3 327.2 320.6 312.5 302.1 292.1 282.5 271 261.8 276.1 281.2 290.2 301.7 330.5 360.7 369.8 372.4 373.4 359.9 330.2 318.2 308.9 303.2 289.8 284.1 278.4 273.1 270.1 267.6 263.9 260.2 259 255.1 254.4 254.4 254.4 254.4 257 256.2 254.4 256.5 256.1 254.9 255.3 254.4 254.4 254.4 254.4 254.4 254.4 254.4 254.4 254.4 254.4 255 256.7 256.8 259.4 260.6 261.9 263.3 264.8 267.2 269.9 274.9 285.4 295.6 301 297.6 298.2 299.5 300.9 300.8 297.3 295.5 291.5 289.3 285.3 282.9 280.9 277.1 275.7 273.7 271.2 268.5 264.4 261.2 257.4 255.4 252.9 248.9 244.6 242.2 238.4 235.8 232.1 228.6 226.7 226.8 227.6 227 223.1 222.6 216.4 215.2 213.8 207.5 207.5 207.5 207.5 207.5 207.5 207.5 207.5 207.5 207.5 207.5 207.5 207.5 207.5 207.5 207.5 207.5 207.5 207.5 207.5 207.5 207.5 207.5 207.5 207.5 207.5 207.5 207.5 207.5 207.5 207.5 207.5 207.5 207.5 207.5 207.5 207.5
266.4 267.5 271.6 276.5 282.7 289.7 299.8 295.7 307.6 312.7 322.2 333.4 337.8 343.8 348.8 350.5 353.4 351.6 351 351.4 351.3 353 353.1 353.1 350.9 351.2 352.9 355.9 356 358 359 367.6 368.6 368.8 368.1 369 369.9 359.4 357.3 355.2 354 352.3 351.4 350.7 350.2 350.4 350.4 350.3 350.1 349.7 349.7 349.4 351.6 349.3 348.1 340.5 339.6 335.9 327.1 319.1 312 301.6 291.2 283 270.5 263.5 277 284.1 290.7 303.6 324 350.5 366.1 364.1 365.1 352.4 332.8 321.2 312.7 303.6 300 290.7 283.4 280.7 277.9 272.8 267.9 263.1 262.6 258.9 258.2 258.6 257.3 258.4 257.4 257.4 257.6 256.9 255.8 255.6 255.6 255.3 255 254.3 254.4 254.4 254.4 254.4 254.4 254.4 254.4 255.8 257.1 257.1 257.8 258.1 259.4 261.4 261.7 262.8 264.7 272.3 279.2 286.4 289.6 293.4 295.2 298.6 300.4 299.5 295.6 292.6 289.9 287.3 285.3 281.2 280.3 277 275.4 274.3 268.6 265.2 260.8 261.2 258 253.6 251.3 248.9 242.4 239.5 236.1 228.5 226.9 227.3 224.7 224.5 224.8 222.3 220.6 221.2 219.7 218.1 215.3 213.6 207.5 207.5 207.5 207.5 209.3 212.3 207.5 207.5 207.5 207.5 207.5 207.5 207.5 207.5 207.5 207.5 207.5 207.5 207.5 207.5 207.5 207.5 207.5 207.5 207.5 207.5 207.5 207.5 207.5 207.5 207.5 207.5 207.5 207.5 207.5 207.5
267.6 270.5 273.4 277.6 284.1 288.4 293.9 295.4 302.1 308.1 312.4 322.5 329.3 335.7 338.9 342.2 346.7 347.8 347.9 349.7 355.9 362.9 361.7 357.8 356.7 355.9 358.5 362 364.4 366.1 369.3 369.4 372.7 372.7 370.7 369.4 364.9 361.5 358.2 354.6 356.5 350.6 349.2 349.2 347.1 349.4 348.9 349.6 348.7 348.3 348.4 347.6 346.8 346.7 350.2 346.3 344.3 333.5 332.4 329.8 319.6 306.4 298.5 286.3 276.2 266.3 279 283.5 292.8 301.9 318.6 337.6 350.2 354.5 354.2 342.7 334.7 326 317.8 309.8 305.4 295 290 285.4 281.8 276.8 273.4 269.5 266.7 265.5 264.6 260 259 259 258.9 258.9 258.8 256.9 256.6 256.7 257.5 258.4 254.4 255.2 254.4 254.4 254.4 254.4 254.4 254.4 254.4 254.7 256.9 256.5 256.8 256.3 257.5 258.6 259.8 260.9 263.8 270.8 276.3 285.6 287.3 289.3 292.9 296.5 300.2 297.3 295.2 290.6 289.7 286.9 282.8 281.8 280.7 277.4 273.8 270.6 264.3 262.5 259.1 259.6 258.7 252.4 247.8 240.7 238.8 237.2 233.1 230.8 228 228.6 227.3 226.1 225.5 225.8 225 222.9 221.2 219.8 215.6 213.9 207.5 207.5 207.5 207.5 210.2 207.5 207.5 207.5 207.5 207.5 207.5 207.5 207.5 207.5 207.5 207.5 207.5 207.5 207.5 207.5 207.5 207.5 207.5 207.5 207.5 207.5 207.5 207.5 207.5 207.5 207.5 207.5 207.5 207.5 207.5 207.5
269 273.2 276.5 278.5 283.1 286.4 291.3 294.5 299.3 304.8 308.9 318.3 328.8 330.2 331.8 336.1 339 342.5 344.4 353.5 362.1 362.4 365 359.5 359.3 359.7 363.2 366.7 372.2 373.8 375.7 370 374.9 384.3 374.6 371.4 366.1 361.8 357.8 354.4 350.7 349 346.7 346.7 346.7 349.4 347.2 348.5 349.3 348.7 348.5 347.9 347.5 346.7 346.2 347.2 341.3 334 338.8 338.9 325.1 310.5 301.7 288.9 280.3 267.5 278.8 284.3 293.7 300.9 309.3 323.8 332.9 343.4 343.5 342.6 340.8 334.9 323.6 318 310.3 300.7 295.3 291.8 286.5 284.7 278.6 273.7 271.7 270.2 267.7 264 260.9 260.1 259.9 259.2 258.5 259 257.6 256.6 257.4 255.1 254.4 254.4 254.4 254.4 254.4 254.4 254.4 254.4 254.4 254.4 254.4 256.8 256.3 254.3 256.5 256.1 258.3 259.7 262.9 268.8 273.1 278.1 283.7 287.9 288.6 293 297 296.6 292.8 288.5 287 284.1 281.7 279.1 276.5 273.7 270.9 269.5 262.7 261.1 259.6 256.2 253.7 250.9 247.1 239.1 235.9 234.6 234.7 233.3 231.5 230 229 226.4 225 223.6 222.9 221.9 219 217.1 216.7 214.8 209.1 207.5 207.5 207.5 207.5 207.5 207.5 207.5 207.5 207.5 207.5 207.5 207.5 207.5 207.5 207.5 207.5 207.5 207.5 207.5 207.5 207.5 207.5 207.5 207.5 207.5 207.5 207.5 207.5 207.5 207.5 207.5 207.5 207.5 207.5 207.5
269.4 274 278.8 281.1 281.3 285 289.1 291.8 297.7 303.4 308.5 316.9 321.4 325.3 330.6 330.3 331.2 335.2 343.7 351.9 356.8 359.4 361.8 363.3 364.4 363.4 367.6 374.8 378.7 384.6 376.8 376.8 374.8 372.5 371.1 366.3 362.8 360.9 356.9 350.8 347.8 346.6 346.7 346.7 347.5 346.7 347.7 349.2 350.1 350.1 350.7 352.9 356.4 352.4 348.2 350.1 343.7 339.5 345.8 343.8 331.2 313.5 302.9 291.7 279.1 269.4 279.8 285.6 293.7 299.4 305.5 316 328.4 336.3 338.3 342.1 342.1 337.7 329.2 321.8 313.3 304.7 300.9 297.4 294.5 290.1 283.3 277.1 274.7 274.1 272.1 269.5 266.2 263 260.8 260.7 261.9 259.6 259.1 257 256.2 256.3 255.9 254.4 254.4 254.4 254.4 254.4 254.4 254.4 254.4 254.4 254.4 258.5 255.2 254.4 254.4 255.5 256.7 258.6 262.1 266.4 273.3 276.3 282 284.8 286.7 289 291 291.6 292 287 283.7 280.8 279.5 276.9 275.3 271.5 270.7 269 262.4 259.3 257.5 253.5 252.6 244.6 241.3 240.9 238.9 236.3 235.7 232.7 231.7 229.6 228.2 224.9 224.3 222.3 220 221.3 216.6 214.7 211.6 211.3 210.8 207.5 207.5 211 211.8 214.1 210.7 207.5 207.5 207.5 207.5 207.5 207.5 207.5 207.5 207.5 207.5 207.5 207.5 207.5 207.5 207.5 207.5 207.5 207.5 207.5 207.5 207.5 207.5 207.5 207.5 207.5 207.5 207.5 207.5 207.5
269.9 274.7 277.7 279.4 282.6 286.7 290 293.7 297.8 302.5 305.7 309.5 313.6 319.1 322.1 319.4 330.6 336.5 345.1 350.8 353.9 356 361.4 365.1 368.4 369.6 373.2 378.2 379.2 378.1 374.8 379.2 376.4 370.3 367.1 363.4 360.7 359.1 355.7 351.5 347 343 347.5 349.7 348.2 348.1 349.9 351.2 352.3 357.1 359.2 360.4 362.5 359.7 359.4 361.6 361.8 352.8 351.7 344.1 331.8 315.1 306.4 292.6 281.2 271.6 281.2 286.7 292.9 302.2 306.7 313.1 323.1 330.4 339 340.7 335.9 335.6 330 328.4 315.7 308.1 304.7 303.9 301.2 294.8 287.3 282.1 277.7 278.3 277.9 275.4 270.8 268.4 267.1 264.6 262.1 261 259.7 257.9 257.2 255.5 254.8 254.4 254.4 254.4 254.4 254.4 254.4 254.4 254.4 254.4 254.4 254.9 254.4 254.4 254.4 256.7 256.9 259.1 262 265.6 269.8 272.3 279.7 283.9 281.7 282.3 285.1 286.8 289.5 286.3 280.9 278.1 277.4 274.7 273.3 270.2 267.8 265 257.5 255.8 254.6 251.6 248.6 245.2 243.2 241.8 239.1 236.5 233.9 231.4 229.6 227.3 224.5 224.2 224.1 223.1 220 216.7 216.1 216.6 214.1 213.6 214.2 216.6 214.8 215.5 215.1 215.6 214.7 207.5 207.5 207.5 207.5 207.5 207.5 207.5 211.5 207.5 207.5 207.5 207.5 207.5 207.5 207.5 207.5 207.5 207.5 207.5 207.5 207.5 207.5 207.5 207.5 207.5 207.5 207.5 207.5 207.5
270.3 273.3 275.6 276.4 282.3 288.7 292.2 293.7 296.4 300.4 302.4 304.3 305.1 308.8 315.5 326.5 335.4 342 346.7 350.3 355.7 356.5 361.7 366.5 375.5 378.8 375 375.6 376 374.1 372.8 373.7 372.8 368.8 366.3 364.1 359.3 358.1 360.1 351.3 344.5 342.6 344.4 353.7 353.7 348.2 354 351.3 356.6 360.1 362.4 362.6 365.9 366.7 367.8 367.7 368.1 364.1 352 342.4 333.4 318.4 309.2 296.9 285.4 274.9 282.5 286.5 294.7 300.2 309.1 313.3 322.2 329.2 334.3 334.8 334.5 334 329.4 324.9 315.9 312.6 308.6 306.3 301.4 295 289.6 285.7 282.2 281.7 283.8 279.6 279 276.2 270.7 267.3 265.5 263.3 261.4 259.7 257.9 254.7 255.6 254.4 254.4 254.4 254.4 254.4 254.4 254.4 254.4 255.8 254.4 254.4 254.4 254.4 254.4 255.1 256.7 258 260.3 263.9 265.8 268.6 271.4 274 277.3 280 280.6 282.9 283.8 281.2 278.9 276.5 274.5 272.9 271.6 269.2 267.4 261.7 255.8 254.6 253.4 251.2 249.3 246.1 243.5 241.1 239.1 237.5 234.2 231.2 229.5 228.2 224.2 221.8 219.5 219.9 213.8 213.1 213.5 213.3 212.2 214 214.8 217.3 218.3 216.6 217.1 216.5 216.8 216.2 207.5 207.5 207.5 207.5 207.5 212.8 212.4 207.5 207.5 207.5 207.5 207.5 207.5 207.5 207.5 207.5 207.5 207.5 207.5 207.5 207.5 207.5 207.5 207.5 207.5 207.5 207.5 207.5
273.8 275.1 275.2 276 279.6 286.2 290.4 292.4 294.2 296.5 298.6 301.1 306.6 313.4 322.9 333.3 339.6 345.3 351.1 355 357.6 361.7 363.4 370.3 378.8 379.3 375.2 375 371.7 370.4 368.6 368.5 367.8 367.7 366.3 359.8 357.9 355.4 354.1 350.4 345.5 343 342.2 354.9 349.4 347.7 349 352.8 361 364.7 363.1 367 368.7 372.2 375.3 378.2 373.4 373 361.7 344.4 332.4 319.5 309.6 298.2 288.8 274.3 284.3 288.7 294.5 302.3 307.9 315.6 321.2 323.8 328.5 330.9 333 338.1 333.2 325.4 323 319.3 312.8 306.2 301.6 299.4 295.5 288.4 284.6 285.4 284.5 286.3 285.4 281.8 275.5 273.5 270.6 270.6 268.7 261.9 258.5 258.8 256.7 256.5 254.4 254.4 254.3 255.1 254.3 254.4 254.4 254.4 254.4 254.4 254.4 254.4 254.4 255.4 257.4 258 259.5 263.9 265.4 266.7 270.5 271.9 276.1 278.7 279.8 280.2 281.3 281.3 276.5 274.3 272.9 271.8 270.7 269.9 265.2 257.9 256.3 253.9 251.6 249.9 247.7 245.2 242.1 240.6 238.3 236.9 234.5 230.7 228.1 224.1 223.6 221.7 216 213.6 212.7 212.3 212.6 213 213.5 214.6 215.8 217.3 217.1 218.1 218.3 218.1 218.4 215.8 214.1 213.9 211.3 212.9 213.1 213.3 213.4 211 207.5 207.5 207.5 207.5 207.5 207.5 207.5 207.5 207.5 207.5 207.5 207.5 207.5 207.5 207.5 207.5 207.5 207.5 207.5 207.5
271.1 273 274 275.9 278 281.6 284.4 288.2 290.5 292.6 298.6 304.4 312.6 323.5 331.3 339.3 344.5 350 357.8 362.1 365.6 365.3 366.6 370.7 372.4 372.8 372.2 370.2 366 364.1 365.4 364.5 365.2 361.6 361.5 358.5 356.9 354.9 351.4 349.2 347.3 345.4 342.4 341.9 345.1 347.6 346.6 358.3 364.6 368.1 370.1 375.3 382 379.5 382.9 386.7 380.5 377.2 367.2 348.9 333 322.2 312.3 300.6 292.3 274.8 283.3 290.5 296.1 302 310.5 316.6 319.2 323.4 329 331.1 337.2 341.8 336.9 329.5 324.3 319.8 314.1 308.5 306.2 301.8 296.8 292.9 290.3 293.3 292.8 293.7 293.2 290.6 288.6 280.1 279.3 274.5 269.1 265.2 264.6 261.1 259.2 258.2 254.4 254.4 255 256.2 255.6 255.7 255.7 257 258.2 257.7 254.4 254.4 254.4 256 257.9 258.2 258.5 261.5 264.1 265.3 267.4 271.1 275.6 277.2 276.8 276.8 275.3 274.7 273.1 273.5 272.5 271.3 269.1 266.1 260.2 257 254.7 252.9 249.7 247.4 246.8 245.4 241.9 241 238.5 234.9 232.5 227.5 223.5 221.6 221.8 217.2 215.3 213.2 213.8 212.8 213.4 213.3 214.2 215 216.2 218.3 218.5 219.7 219.3 218.9 219.8 218.8 216.2 214.1 213.7 213.4 213.6 213.9 214 213.3 213.1 207.5 207.5 207.5 207.5 207.5 207.5 207.5 207.5 207.5 207.5 207.5 207.5 207.5 207.5 207.5 207.5 207.5 207.5 207.5
265.7 268.3 272.7 274.7 276 277.7 279.2 281.5 283 292.6 299.8 309.6 319.5 328.7 335.6 344.5 350.6 356.1 362.5 369.9 374 371.2 368.8 367.5 365.1 365.1 369.2 363.5 358.5 360.7 358.2 357 359.7 358.5 356.4 355.4 355.5 355.2 353 350.3 348.3 346.9 343 340.6 340.6 340.8 347.7 359.3 366.3 377.1 376.8 385.8 388.5 389.2 393.2 394 390 381.7 368.6 350.1 334.8 323.1 312.6 301.7 294.3 278.3 284 292.8 297.9 304 310.5 318.3 320 324.3 327.5 332 343.7 344.6 336.6 332.5 327.3 323.4 318.7 312.1 308.2 304.8 298.1 296.8 299.5 301.4 300 299.8 299.8 300.3 299 290.1 284.7 279.6 275.1 272.3 268 264.3 259.7 256.7 255.4 255.1 255.5 256.6 257.3 256.7 257.3 258 258.6 259.1 254.4 254.4 254.4 254.4 255.7 256.4 257.6 258.7 261.2 262.3 266.1 269.6 274 275.1 273.6 272.3 271.1 271 271 271.7 273.2 268.8 266.5 262.3 259.2 255.9 253.7 252.3 248.1 246.2 246.1 243.2 242 241.2 239 236.9 231.9 226.1 224.7 223.3 220.8 220.5 218.5 215.3 215.2 214 214 213.7 213.7 215.7 217.8 219.2 220 220.9 221.2 220.8 219.8 220.4 218.1 215.7 214.6 214.1 214.7 214.8 214.4 213.9 213.5 207.5 207.5 207.5 207.5 207.5 207.5 207.5 207.5 207.5 207.5 207.5 207.5 207.5 207.5 207.5 207.5 207.5 207.5 207.5
265.7 267.6 270.8 272.9 273.9 271.4 273.4 274.4 278.1 292.4 303.3 313.7 323.9 332.3 341.3 349.9 355.1 359.7 364.2 370 373.5 373.9 368.6 364.8 361.3 358.7 359.7 357.1 355.6 353.4 353.4 353.9 353.8 353.3 354.2 352.9 352.9 355.8 352.9 352.5 347.9 346.8 344.1 338.5 337.6 338.7 347.1 358.4 368.8 381.6 388.3 397.3 399.5 400.2 397.9 399.3 387.7 378.9 367.3 349.2 335.8 323.1 312.9 301.8 294.9 280.9 284.3 293.4 299.2 305.2 309.8 314.5 319.6 323.8 332.4 339.2 340.1 340.8 336.5 333.6 328.8 325 321.2 316.9 312.8 310.6 311.1 311.3 310.9 309.3 308.4 306.4 307.6 306.2 303.2 297 292.8 288.5 282.8 276.2 271 266.2 262.7 259 258.1 257.6 256.6 257.1 257.9 258.1 257 256.6 256.2 254.5 254.4 254.4 254.4 254.4 254.4 254.4 254.4 256.3 258.1 259.7 264.1 267.1 270 270.7 271.5 270.9 269.6 269.5 269.9 268.6 268.3 267.5 265.7 263.3 258.7 255.7 252.6 248.7 247.4 242.9 240.8 241.9 240.8 239.9 239.2 237.3 235.4 233 226.8 224.5 223.4 223.4 218.8 217.5 215.7 215.2 215.7 216.5 218 218.9 221.4 221.7 221.5 221.6 222.7 222.9 222.9 221.1 220.7 217.3 215.6 215.2 215.7 216 216.5 214.8 214.2 212.1 207.5 207.5 207.5 207.5 207.5 207.5 207.5 207.5 207.5 207.5 207.5 207.5 207.5 207.5 207.5 207.5 207.5 207.5
268.6 268 267.9 267.9 269.1 268.7 270.8 271.5 278.5 293.4 305.5 316.1 324.8 336.3 345.3 351.8 358.1 362.5 365.1 367.2 372.6 372.5 365.1 358.3 354.9 354.7 353.2 352.9 351.3 349.1 349.9 350 350.9 350.7 351.5 348.5 348.3 346.8 347.4 346.5 343.5 341 338.9 337.7 336.2 338.5 345.2 359.4 367.8 380.7 396.9 411.1 406.4 405.5 401.5 395.7 387 376.4 363.5 348.5 334.7 324.1 312.2 305.2 299.6 285 283.5 293.3 299.7 304.7 308.7 313.9 319.2 326.3 334.9 335 337.9 338.9 336.5 335.2 333.4 331.7 328.7 323.5 323 321.4 321 319.1 320 319.4 316.1 316.7 315 313.9 313.7 310.2 302.1 295.1 288.3 280.3 276.1 266.7 261.7 258.6 258.8 257.9 257.7 257.8 257.2 257.1 255.7 254.4 254.8 254.2 254.4 254.3 254.1 254.4 254.4 254.4 254.4 254.4 257.7 258.5 261.5 264.9 265.8 266.2 266.9 266.9 267.6 267.2 267 266.4 266.9 266.3 265.8 262.8 259.6 255.9 251.1 246.8 241.9 240.8 240.3 239.5 238.9 240.5 239.5 236.6 236.5 231.8 225.8 224.9 224.2 220.4 221.6 221.9 219.7 217.9 219.9 221 220.8 221.2 224.6 224 222.4 222.4 222.5 222.9 221 223.1 220 219 217.1 216.7 216.7 217.3 217.2 216.2 215.1 214.3 209.7 207.5 207.5 207.5 207.5 207.5 207.5 207.5 207.5 207.5 207.5 207.5 207.5 207.5 207.5 207.5 207.5 207.5
265.8 265.6 265 267.3 267.4 268.6 271.3 272.6 281.1 291.6 302 314.1 324.7 336.1 346.1 354.3 359.1 363.4 366.1 364.4 364 360.5 356.5 353.2 349.8 350 348.2 347.2 347.5 346.9 345.7 347.7 348.5 347.3 349.7 346.9 343.3 343 341.5 339.7 337.4 337.3 336.9 334.1 335.3 336.6 341.6 352.6 363.7 382.4 394.5 406.4 405.8 405.3 399.9 397.5 386 374.7 358.3 344.6 333.1 323.9 315.3 310.9 300.6 291.7 283.6 295.3 299.4 304.6 309.3 313.9 318.3 331.4 331.4 333.4 337.3 338.5 340.2 340 336.9 335.3 333.7 335.9 332.5 328.3 330.1 328.9 328.9 327.7 324.2 325.6 322.3 318.5 316.5 313.1 307.8 300 291.1 283 278.9 271.8 266 260.4 259.9 259.7 259.3 258.1 257.1 255.7 254.4 254.4 254.4 254.4 254.4 254.7 254.4 254.4 254.4 254.4 254.4 254.4 254.4 257.8 260.5 262.6 263.6 263.8 265.1 265.9 264.8 263.9 261.2 263.5 265.2 266.1 261.9 258.6 254.9 254.3 252.4 250.5 245.8 241.8 242.1 241.3 239.9 237.7 235.7 235.7 234.2 231.8 227.2 224.7 222.7 224.8 224.6 223.7 222.1 222.4 222.3 222.5 222.2 224.1 226.4 228.6 226.7 225.8 226.8 226.3 226.9 226.1 226.5 223.7 220.9 217.7 218.5 220.5 219.3 218 216.3 215.1 214.4 207.5 207.5 207.5 207.5 207.5 207.5 207.5 207.5 207.5 207.5 207.5 207.5 207.5 207.5 207.5 207.5 207.5
264.8 265.5 266.5 267.2 269.9 275.1 281.1 282.7 281.3 286.8 296 309.4 318.3 329.9 342.7 349.2 355.8 357.3 359.9 361.8 358.5 353.7 351.7 348.2 346 344.8 344 344.1 343.1 343 340 341.3 340.2 338.5 337.5 337.6 337 337.6 338.2 336.8 335.2 335.1 333.3 332.2 332.5 334.9 337.6 344.2 359.6 372 379.6 389.2 400.6 402.5 397.6 389.2 379.1 370.7 354 341.8 332.7 324.1 317.6 312.4 305.8 295.4 284.8 292.2 298.9 303.1 308 306 316.4 325.4 328.7 331 336 339.6 344.1 343.1 338.9 338.7 342.9 339.4 338.2 335.3 335.3 334.2 338.1 334.1 332.4 331.1 327.5 321.9 318 314.1 311.8 304.5 295.5 289.6 281.2 272.4 265.8 262.3 261.5 261.9 260.1 258.6 256.8 254.9 254.4 254.4 254.4 254.3 255.3 256 254.5 254.4 254.4 254.4 254.4 254.4 254.4 254.4 260 260.9 261.1 263.1 263 262.5 262.4 261.1 259.2 260.4 263.1 262.3 261 258.6 254.1 254.2 253.7 253 250.7 244.8 243.3 242.2 240.7 238.1 236.6 236.9 236.5 234.3 231.3 226.3 228.3 227.4 225.4 224.8 224.4 225.8 226.2 226.5 226.2 227.7 230.5 233 232.9 232.5 232.9 233 231 230.3 226.3 223.8 222.7 221.1 221.3 222.6 223.7 219.7 217.5 216.1 215.1 208 207.5 207.5 207.5 207.5 207.5 207.5 207.5 207.5 207.5 207.5 207.5 207.5 207.5 207.5 207.5 207.5
265.3 266.5 267.8 271.3 277.4 281.5 286.8 290.5 288.2 284.8 290.9 307.4 311.5 322.3 336.1 344.7 350.1 353.3 353.3 357.5 350.7 347.2 347.3 344.5 342.6 340.9 340.1 339.8 337.8 336.3 334.2 333.1 332.5 333.7 333.8 332.9 334.3 334.1 337.1 335.2 334 334.3 332.6 331.7 329.8 333.1 335.1 343.7 353.2 368.1 381 382.7 391.7 395.2 390.6 384.5 371.5 359.9 348.8 340.8 332.1 326.3 319.7 312 306.2 299.5 291.2 293.1 298.5 296.2 296.2 296.2 312.3 321.4 325.5 329.5 332.2 331.9 337.5 343.8 338.9 343.3 345.3 345.4 343.6 340.2 341.2 341.8 344.3 342.4 343.2 336.2 334.5 334.9 325.9 320.3 314.9 308.2 298.2 290.9 283.4 275.1 269.1 264.5 264.5 262.4 259.6 258.2 257.1 257 255.4 254.6 254.4 254.8 256 256.3 255.9 257 256.9 254.4 254.4 254.4 254.4 254.4 254.4 257.3 259.2 260.2 262.3 260.7 259.5 256.3 256.4 261.7 259.9 260.5 260.2 256.2 255.7 255.4 255.1 252.6 251.6 247.8 245 241.7 240.9 238.8 238 239.4 238.9 235 232 229.9 229.6 229.2 229.2 228.5 228.7 229.2 230.3 230.4 230.5 231.5 234.7 238.6 237.8 237.5 237.3 235.8 234.8 233.4 230.7 231.1 227.8 226.7 224.7 228.5 228.8 224.8 218.8 217.2 215.3 212.8 213.1 207.5 207.5 207.5 207.5 207.5 207.5 207.5 207.5 207.5 207.5 207.5 207.5 207.5 207.5 207.5
268.5 271 275.2 283.3 284.6 286.8 290.8 294.7 294.5 293.5 291.3 298.5 304.8 310.9 329.4 335.1 339.7 345.2 346.7 345.3 344.7 344.6 343.6 342.2 339.6 338.9 336.8 335.8 333.2 328.6 326.9 328.3 329.3 330.6 329.6 329.2 329.5 330.4 333.2 335.1 335.4 333.1 332.2 331.2 329 329.8 332.8 340.7 349.8 360.3 368.1 375.5 385.8 384.5 379 370.6 361.8 353.6 345.5 338.3 332.9 327.5 320 307.4 296.2 296.2 296.2 296.2 296.2 296.2 296.2 296.2 313.5 317.3 323.3 325.6 326.3 329.6 336.2 337 342.3 346.9 350.8 351.5 352.8 348.3 351.1 354.6 352.3 346.3 344.6 345.4 346.2 339.8 333.9 326.2 318.9 312.6 304.5 299.4 289.1 281.7 274 269.8 264.8 261 258.7 258.4 260.3 258.5 255.6 254.7 254.4 254.6 255.4 257.6 259.4 259.3 257.6 255.1 256.1 256.9 254.4 254.4 254.4 254.4 258.9 260.5 259.9 260 259.4 255.8 254.4 259.2 258.7 259.7 258.3 257 257.9 256.4 256.1 253.5 250.6 247.3 243 239.5 239.3 240.1 240.6 239.7 241.7 235.6 233.8 233 231.6 231.2 230.9 231.2 232.1 232.3 233.9 234.3 235.6 236.4 239.6 240.7 243.2 244.4 244.2 243.3 243.9 242.5 239.1 237.5 235.2 232.6 229.6 229.6 231.6 227.4 221.1 219.8 219.4 215.7 214.5 207.5 207.5 207.5 207.5 207.5 207.5 207.5 207.5 207.5 207.5 207.5 207.5 207.5 207.5 207.5
275.6 282.9 288.3 290 292.3 293.1 296.4 298.5 299.4 300.9 300.7 299.7 305.2 306.6 315.3 322 330.1 335.5 335.6 340 340.8 341.6 339 338.2 335.4 333.7 332.3 330.8 327.7 324.7 322.9 325.4 325.7 324.7 324.5 327 326 326.8 327.8 328.9 336.2 330.4 330.2 327.2 328.3 329 331.9 337.2 345.1 355.8 364.4 367 371.2 371.8 367.3 361.8 354.7 347.9 343.9 338.2 333.2 328 321.8 314.9 296.2 296.2 296.2 296.2 296.2 296.2 296.2 296.2 296.2 306.4 317.4 318.9 325.6 329.4 332.4 339.8 346.5 351.7 356.7 358 358.8 357.6 358.1 355.1 356.2 358.7 357.2 355.1 353 346.4 340.2 334.3 327.9 318.1 308.2 301.2 292.4 283.9 277.3 269.9 263.1 263.7 260.7 259.5 260.2 256.8 255.7 254.8 254.4 255.8 256.9 259.3 259.2 258.8 258.1 257.1 256.6 256.3 255.4 254.4 254.4 254.4 254.4 254.7 258.5 259.8 258.8 254.4 254.4 255.9 259.2 259.6 260.4 254.8 255.8 258.9 254 251.7 247.2 244.6 240.1 238.9 239 239.1 238.4 238.5 238.4 238.2 237.2 236.2 233.1 233.6 233.8 234.8 234.4 234.4 236.3 237.9 241 242.4 244.4 247.1 249.3 250.7 252.1 251.3 251.1 251.6 249.3 246.5 244.1 240.4 236.4 231.6 231.5 226.9 224.2 223.3 220.1 220.5 214.8 207.5 207.5 207.5 207.5 207.5 207.5 207.5 207.5 207.5 207.5 207.5 207.5 207.5 207.5 207.5
289 292.2 293.1 296.8 299.3 299.7 300.3 300.9 304 309.3 313.5 315.3 308.7 307.6 310 314.5 318.8 324.1 327.6 332.6 334.1 333.4 333.8 332 329.8 327.3 326.9 325.6 323.5 322.1 319.2 319.6 322.5 321.1 320.5 320.8 323.2 322.9 325.6 325.7 327.6 328.8 327.8 322.4 325.3 327 331.2 335 339.4 350.5 356.8 359.2 360.6 359.7 358.7 354.8 349 345.1 341 337.8 332 328 322.4 316.2 296.2 296.2 296.2 296.2 296.2 296.2 296.2 296.2 296.2 296.2 313.9 318.3 323 326.7 337.1 346.4 353.4 357 360.4 361.4 361.3 360.5 362.6 365.5 366.4 369.7 367.9 361.9 360.5 357.5 350.5 343.6 335.1 324.7 312.2 304.7 295.4 285.3 276.6 271 265.9 265.9 262 260.3 257.7 256.5 255.7 254.5 255.8 258.3 258.9 259.9 259.3 259.3 258.2 257.4 256.7 256.1 254.7 254.2 254.4 254.4 254.4 254.4 256.3 259.8 254.5 254.4 254.4 255.9 255.2 254.3 254.4 254.4 256.5 251.2 249.2 245.4 242.5 244.6 241.6 239.7 240 239.7 239.3 239.1 239.4 240.6 239.4 238.2 237 237.4 236.9 237.5 238.3 238.3 239.9 243.2 247.2 248.7 250.6 252.8 255.3 257 258 258.7 256.7 257.8 257.6 254.6 252.1 249.5 243.4 239.7 235.5 231 228.5 226.9 224.5 222.7 217.7 214.9 207.5 207.5 207.5 207.5 207.5 207.5 207.5 207.5 207.5 207.5 207.5 207.5 207.5 207.5
296 299.1 302.4 304 304.3 304.8 305.7 307 309.7 315.5 318.8 321.3 320.4 296.2 296.2 296.2 296.2 296.2 320.7 326.2 325.9 328.8 329.4 328.2 327.7 324.9 323 322.2 319.1 318.9 317.5 317.2 319.1 318.6 317.8 319.1 321.6 321.6 321.8 321.5 321.3 322.3 320 322.3 324.8 325.5 326.4 332 335.7 339.2 350.7 352.7 352.4 352.8 350.4 348.2 344.4 342.4 339.1 336.7 331 326.5 321.8 316.5 296.2 296.2 296.2 296.2 296.2 296.2 296.2 296.2 296.2 296.2 296.2 317.1 324.3 329.1 339.6 346.6 353.6 358.6 363.1 364.8 365.9 362.7 368.3 373.2 377.2 376.4 372 368.4 367.1 363.2 352.7 341.5 331.6 324 314.1 304 296.2 288.4 280 275.6 267.4 264.7 262.7 259.8 258.5 258.6 255.8 255.5 256.6 258.4 259.6 260.4 260.6 259.7 259.6 257.7 257.1 256.6 255.9 255.8 256.1 255.1 254.4 254.4 254.4 254.4 254.6 254.4 254.4 254.4 254.4 254.4 254.4 254.6 250.8 250.7 248.6 247.2 246.9 246.3 241.9 240.8 241.5 240.8 239.1 239.5 240.1 240.5 240 240.1 239.7 239.6 239.2 239.5 239.6 239.5 242.4 244.3 251.7 251.8 253 256.3 260.4 264.2 267.3 265.2 264 264.3 266.9 264.5 260.6 257.1 252.5 247.1 241.2 235.8 233.9 230.9 228.2 226.3 222.1 217.3 214.5 207.5 207.5 207.5 207.5 207.5 207.5 207.5 207.5 207.5 207.5 207.5 207.5 207.5
303.1 306.9 309.5 309.9 309.2 309.5 312.4 315.1 316.7 317.8 321.4 325.4 324.6 315.9 296.2 296.2 296.2 296.2 315.9 316.8 322.1 325 324.9 324.2 323.8 317.8 317.7 315.2 315 314.3 315 315.8 317.3 317.4 315.3 316.4 317.9 316.4 316 315.5 316.3 316.6 316.1 319 322.8 324.4 325.4 329.8 333.7 336.6 338.1 344.4 345.1 345.8 344.1 343.3 340.9 338.8 336.6 332.8 329.4 325.4 320.6 316.7 296.2 296.2 296.2 296.2 296.2 296.2 296.2 296.2 296.2 296.2 296.2 306.7 321.4 331.9 341.9 348.8 353.6 359 361.9 363.6 364.6 366.1 371.4 374.7 376.1 379.3 374.9 371.6 365.2 358.4 348.1 339.1 330.1 321.7 316.2 308.5 300.7 292 282.7 276.5 271.6 265.6 262.8 262.4 260.4 260 257.5 257.5 257.4 259.1 260.8 261.5 261.4 260.8 260.3 259.3 257.9 257.6 257.7 256.9 258.4 258.2 257.8 254.4 254.4 254.4 254.4 254.4 254.4 254.4 254.4 254.4 254.4 254.4 256 257.6 255.3 252.4 247.8 245.9 242 241.5 241.8 240.7 239.8 240.5 241.7 242.2 242.7 243.1 242.1 241.8 241 242.3 242 244.4 246 246.4 250.2 252.1 255.4 260.8 266.6 271.4 274.2 275.8 274.8 273.1 273.2 271.4 269.2 263.8 258.2 254.2 249.3 242.4 238.8 235.9 231.7 228.7 223.9 218.8 210.6 207.5 207.5 207.5 207.5 207.5 207.5 207.5 207.5 207.5 207.5 207.5 207.5 207.5
309.9 312.2 316.9 317.5 316.8 316.3 319.7 323 324.8 326.3 324.8 325.8 324.8 318.5 309.3 296.2 296.2 296.2 296.2 296.2 319.7 320.4 318.4 317.3 316.6 317 316.1 314.1 314 314.1 296.2 296.2 314.8 314.5 312.8 296.2 296.2 296.2 296.2 298.3 305.3 314.4 315.5 318.3 321.6 322.6 323.4 325.9 333.1 336.1 334.4 334.4 337.5 336.9 337.4 338.3 337.3 335.1 332.6 329.6 326.7 323.6 319.5 315.6 296.2 296.2 296.2 296.2 296.2 296.2 296.2 296.2 296.2 296.2 296.2 296.2 321.3 332.9 341.6 348 355 359.1 368.9 369 370.2 369.9 371.8 376.6 382.1 377.4 371.3 365.9 360.4 352.3 347.1 340.7 333.5 327.6 319.2 311.7 301.2 290.7 282.5 280.3 275.9 266 265.8 265 262.5 261.7 262.4 259.7 258.4 259.8 260.8 261.5 261.4 261 260.6 260 258.8 258.2 258.5 258.8 259.1 258.9 260.2 258.9 254.4 254.4 254.4 254.4 254.4 254.4 254.4 254.4 254.4 254.4 257.1 258.6 256.8 250.2 247.9 246.1 243.8 244.2 242.8 242.8 242.1 243.1 243.5 244.1 245 245.5 244.1 243.7 244.3 245.9 246 247.5 248.9 247.8 252.6 257.2 261.5 266.3 271.8 278.3 282.6 285.2 284.9 281.1 279.7 278.3 272.9 267.5 265.2 263.1 256.5 248.9 243.6 240.5 236.1 230 225.3 219.3 207.6 207.5 207.5 207.5 207.5 207.5 207.5 207.5 207.5 207.5 207.5 207.5 207.5 207.5
315.7 320.3 324.4 324 324.5 323 326 330.2 331.6 330.9 327.5 325.3 323.6 323.5 321.3 296.2 296.2 296.2 296.2 296.2 296.2 298 296.2 304 316.3 315.5 314.6 313.9 296.2 296.2 296.2 296.2 296.2 296.2 296.2 296.2 296.2 296.2 296.2 296.2 296.2 311.8 316.4 317 318.1 320.9 322.9 325.1 327.4 330 329.3 330.4 329.5 330.8 332.2 333.3 333.1 331 328.6 326.2 323.9 320.3 317.7 314.9 296.2 296.2 296.2 296.2 296.2 296.2 296.2 296.2 296.2 296.2 296.2 314.4 320.9 327.1 342.9 351.8 354 362.2 371.4 375.3 371.9 372.9 371.6 374.8 374.3 370.1 364.5 360.1 356.8 351.6 345.9 338.9 334.9 328 319.2 310.7 301.9 293.1 285 280.4 277.9 269.4 269.6 267.5 265.1 264.8 264.9 262.9 260.5 259.1 260 260.7 260.1 260 260.1 260.6 260.2 258.8 259.5 258.9 259.2 258.2 257.4 257.7 254.4 254.4 254.4 254.4 254.4 254.4 254.4 254.4 254.4 254.4 254.4 254.6 253.4 251.5 249.5 247.9 246.7 245.4 245.5 247.4 245.7 244.6 245.7 246.1 247.3 247.2 247.3 246.4 248.3 248.4 247.8 248.4 250.3 252.1 259 263.1 265.3 271.1 279.1 287.5 291.1 291.2 291.7 288.2 285.4 283.1 279.3 275 272.8 271.1 265.6 254 249.2 244.9 241.1 232.7 226.1 219.8 214.2 207.5 207.5 207.5 207.5 207.5 207.5 207.5 207.5 207.5 207.5 207.5 207.5 207.5
324.4 328.9 331.2 332.4 331.9 330.9 332.3 336.4 336.3 333 332.8 333.3 328.6 326.2 320.8 296.2 296.2 296.2 296.2 296.2 296.2 296.2 296.2 296.2 296.2 296.2 296.2 296.2 296.2 296.2 296.2 296.2 296.2 296.2 296.2 296.2 296.2 296.2 296.2 296.2 296.2 296.2 314.9 317.4 317.1 317.4 319.1 321 322.9 323.7 325.3 326.5 325.3 324.3 325.1 328.3 329.9 328.4 325.9 323.2 319.8 317.4 315.3 296.2 296.2 296.2 296.2 296.2 296.2 296.2 296.2 296.2 296.2 296.2 296.2 318.1 324.4 332.2 344.8 347.9 355.3 364.6 368.7 370.2 371.1 369.2 371.1 370.1 366.9 365.7 360.2 358 354.5 350.2 345.4 338.9 335.1 325.5 317.9 308.5 303.4 294.5 283.6 278.7 275.5 274.2 272.1 270.5 268.7 268.4 268.5 267.9 263.9 261.5 261 260.9 260.6 260.1 259.8 259.9 259.7 259 258.2 257.9 258.1 257 255.3 254.4 254.4 254.4 254.4 254.4 254.4 254.4 254.4 254.4 254.4 254.4 254.4 254.5 254.8 255.1 253.5 250.5 248.7 247.6 247.4 247.4 246.6 245.3 246.3 247 249.2 248.6 249.2 249.3 248.4 248.3 249.1 251.5 253.5 258.9 265.1 269.2 273.9 279.2 283.8 287.5 292.2 294.2 298.8 295.5 289.6 287.5 288.7 282.6 280.1 277.1 273.9 261.1 251.2 246.3 239.1 231.9 226.1 219.8 213.2 207.5 207.5 207.5 207.5 207.5 207.5 207.5 207.5 207.5 207.5 207.5 207.5 207.5
332.4 334.2 337.9 336.5 336.4 334.7 341.1 343.7 344.6 344.3 345.6 337.5 333.5 330.2 324.7 315.2 296.2 296.2 296.2 296.2 296.2 296.2 296.2 296.2 296.2 296.2 296.2 296.2 296.2 296.2 296.2 296.2 296.2 296.2 296.2 296.2 296.2 296.2 296.2 296.2 296.2 296.2 296.2 314.4 315.9 317 317.5 319.7 320.6 320.3 321.3 323.5 321.7 321 321.5 320.5 322.4 322.2 322.2 319.7 316.3 313.8 296.2 296.2 296.2 296.2 296.2 296.2 296.2 296.2 296.2 296.2 296.2 296.2 296.2 321.7 327.1 331.9 342.2 347.2 354.9 363.1 368.4 368.3 369.4 364.7 364.2 363.8 360.8 359.8 356.2 355.2 352.5 350.8 344.7 336.3 330.4 324.1 319 310.1 302 292.4 283.5 280.1 279.8 277.4 275.5 274.1 271.5 272.3 273.8 272.3 269.2 267.5 263 261.6 261.2 260.1 259.9 260.1 259.7 259.2 257.9 257 256.7 256.1 254.9 254.4 254.4 254.4 254.4 254.4 254.4 254.4 254.4 254.4 254.4 254.4 254.4 254.4 254.6 254.9 254.2 252.7 250.9 250.4 249.6 249.5 248.3 247.5 249.7 249.4 251.3 251.2 252.6 251.5 251.2 252 252.2 253 257.1 265.1 270 274 279.7 282.4 285.6 290.8 296.9 300.8 304.1 303.2 298.5 294.2 293.5 289.2 283.7 279.6 272.2 260.7 252.6 244.4 237.5 230 224.6 218.8 210.2 207.5 207.5 207.5 207.5 207.5 207.5 207.5 207.5 207.5 207.5 207.5 207.5 207.5
339.7 343 342.7 340.4 338.1 340 343.3 353.1 353.5 356.5 350.1 343.9 336.8 333.1 329.7 323 296.2 296.2 296.2 296.2 296.2 296.2 296.2 296.2 296.2 296.2 296.2 296.2 296.2 296.2 296.2 296.2 296.2 296.2 296.2 296.2 296.2 296.2 296.2 296.2 296.2 296.2 296.2 313.6 315 314.7 308.2 303.5 315.1 316.8 317.1 318.3 319.4 319.4 318.6 315.6 315 310.7 305.8 310.4 296.2 296.2 296.2 296.2 296.2 296.2 296.2 296.2 296.2 296.2 296.2 296.2 296.2 296.2 315.8 321.1 328.9 333.7 339.5 343.7 354 359.2 365.1 367.4 364.8 361.7 359.7 358.4 356.5 356 353.3 352.1 348 344.5 339 334.4 331.6 326.5 318.4 308.3 302.1 292.7 285.1 282.7 281.6 281 279.9 278.9 273.8 277.3 277.8 278.8 276.3 268.9 265.8 264.3 264.2 262.6 261.6 262.5 262 259.6 258.1 256.1 256.5 256.7 254.4 254.4 254.4 254.4 254.3 254.4 254.4 254.4 254.4 254.4 254.4 254.4 254.4 254.4 255 257 257 253.9 255.1 253.5 252.4 251.7 250.1 250.2 250.8 251.7 253.5 253.3 253.9 253.6 254.4 254.5 255.7 258.2 262.3 267.7 271.9 277.3 282.5 285.6 287.9 293.1 297.6 300.6 301.5 300.6 301.8 296.7 292.5 285.7 280.3 272.2 265.1 255.9 249.8 242.4 235.2 228.9 223.6 217.8 207.5 207.5 207.5 207.5 207.5 207.5 207.5 207.5 207.5 207.5 207.5 207.5 207.5 207.5
345.2 347.7 348.1 347.9 346 344.6 348.2 354.2 359.6 357.7 356.7 350.3 343.3 335.2 333.5 327.4 317.3 296.2 296.2 296.2 296.2 296.2 296.2 296.2 296.2 296.2 296.2 296.2 296.2 296.2 296.2 296.2 296.2 296.2 296.2 296.2 296.2 296.2 296.2 296.2 296.2 296.2 301.2 296.2 299.4 296.2 296.2 296.2 314.4 314.5 315 315.7 316.5 316.6 296.2 303 301.7 296.2 296.2 296.2 296.2 296.2 296.2 296.2 296.2 296.2 296.2 296.2 296.2 296.2 296.2 296.2 296.2 296.2 316.9 321.5 328.8 332.4 336.9 344.6 350.5 359.3 361.9 360.6 360.3 358.2 356.1 354.3 353 350.7 348.3 346.7 343.6 340.7 337.3 332.8 328.5 321.3 313.8 308.5 301.8 292.2 290.7 288.7 286.1 286 286.3 283.8 280.9 284 284 283.7 279.4 274.6 271.3 270.6 271.9 264.9 264.2 263.9 265.2 265.3 257.1 257 256.3 255.8 255.2 255.4 255.2 255.4 255.1 254.4 254.4 254.4 254.4 254.4 254.4 254.4 254.4 254.4 256.1 259.1 259.6 257.6 255.7 256 256.1 256.5 254.8 253.4 253.3 254 257.3 256.5 257.2 257.5 258.5 260.5 260.3 260.9 266 269.1 275.3 280.6 287.1 291 292.5 295 297.7 303 304.5 302.2 300.3 297.6 292.1 284.5 274.9 266.9 258.9 254.6 248.1 241.2 233.4 227.2 220.3 217.4 207.5 207.5 207.5 207.5 207.5 207.5 207.5 207.5 207.5 207.5 207.5 207.5 207.5 207.5
347.3 353.6 353.5 354 356.2 358.2 353.5 357.2 359.7 365.1 364.2 357.6 347.1 342.3 336.7 324.9 322 312.6 296.2 296.2 296.2 296.2 296.2 296.2 296.2 296.2 296.2 296.2 296.2 296.2 296.2 296.2 296.2 296.2 296.2 296.2 296.2 296.2 296.2 296.2 296.2 296.2 296.2 296.2 296.2 296.2 316.6 314.5 313.9 296.2 296.2 296.7 309.9 296.2 296.2 300.1 296.2 296.2 296.2 296.2 296.2 296.2 296.2 296.2 296.2 296.2 296.2 296.2 296.2 296.2 296.2 296.2 296.2 316.5 319.1 326.6 332.8 335.6 340 346.8 351.9 354 357.4 358 357.1 355.3 352.4 349.1 347.6 346 343.9 342.3 341.2 340.5 335.7 333.5 328.8 320.3 314.5 308.7 304.3 297.5 296.7 295.9 293.6 290.6 291.1 288 288.4 288.9 289.6 285.5 283.2 280.9 278.4 273 269.8 268.3 266.7 266.7 266.8 265.8 259 259.2 258.5 257.1 256.5 257.7 256.9 256.6 257.7 255.7 254.4 254.4 254.4 254.4 254.4 254.4 254.4 254.1 256.1 262.2 264.3 264 260.4 259.6 258.7 258.2 257.4 256 255.2 255.7 257.6 259.5 261.1 262.5 263 263.8 262.7 262.8 266.8 270.2 276.9 283.9 288.5 294.8 297.4 297.7 302.5 304.3 304.8 299.2 295.9 294.3 289.4 279.3 270.5 262.7 257.3 251 244.9 238.7 231.9 225.8 220.6 217 207.5 207.5 207.5 207.5 207.5 207.5 207.5 207.5 207.5 207.5 207.5 207.5 207.5 207.5
351.6 355.9 360.1 360.5 362.5 361.2 361.2 362.9 362.6 366.9 365 359.7 349.8 343 339 336.8 325.8 321.1 296.2 296.2 296.2 296.2 296.2 296.2 296.2 296.2 296.2 296.2 296.2 296.2 296.2 296.2 296.2 296.2 296.2 296.2 296.2 296.2 296.2 296.2 296.2 296.2 296.2 296.2 296.2 296.2 296.2 296.2 296.2 296.2 296.2 296.2 296.2 296.2 303.7 296.2 296.2 296.2 296.2 296.2 296.2 296.2 296.2 296.2 296.2 296.2 296.2 296.2 296.2 296.2 296.2 296.2 296.2 318.3 322.9 326.9 335.8 337 343.6 347.3 351.6 355.8 359.7 362.5 357.3 354.3 350.1 347.3 346.2 344.4 341 340.8 337.8 337 331.9 328.8 326.5 321 314.1 310.4 303.4 303.7 303.2 302.2 300.7 296.3 294.5 295.3 295.9 293.4 295.2 292.5 290.9 289.2 283.6 279.1 275.6 272.1 270.7 268.9 266.9 264.5 260.1 260.4 259.5 259.9 258.9 258.6 258.4 258.5 259.7 260 258.6 256.2 257.2 254.4 254.4 254.4 256.9 260.8 262 265.2 267.4 269.4 267.8 263.9 260.9 259.7 258.8 257.4 256.1 256.6 258.7 262.6 263.1 262.5 264.4 264.2 264.5 264.9 266.8 270.3 276.4 285.5 289.3 296.1 301.5 299.5 302.4 301.7 298.3 294.9 291.9 289.8 284.6 274.8 265.1 258.2 252.5 248.1 242.2 238.1 232.4 227.1 221.7 217.8 207.5 207.5 207.5 207.5 207.5 207.5 207.5 207.5 207.5 207.5 207.5 207.5 207.5 207.5
352.2 359.3 364 364.2 364.8 364.2 365.5 367.1 367.8 367.8 368.1 362.5 354.6 350.5 342.2 338 330.1 324.7 304.5 296.2 296.2 296.2 296.2 296.2 296.2 296.2 296.2 296.2 296.2 296.2 296.2 296.2 296.2 296.2 296.2 296.2 296.2 296.2 296.2 296.2 296.2 296.2 296.2 296.2 296.2 296.2 296.2 296.2 296.2 296.2 296.2 296.2 296.2 296.2 296.2 296.2 296.2 296.2 296.2 296.2 296.2 296.2 296.2 296.2 296.2 296.2 296.2 296.2 296.2 296.2 296.2 296.2 296.2 319.1 324.5 329 333 336.7 345.5 348.8 356.3 362 362 359.6 357.2 352.6 349.2 346 345.8 346.6 341 336.6 334 332.4 331.3 326.2 324.4 320 316.2 313.9 311.5 310.3 309.6 307.8 303 302.2 301.6 302.5 302.6 299 298.5 298.5 296.1 292.2 288.4 283.9 280.8 277 273.9 272.2 268.6 264.9 261.9 261.1 261.2 262.1 262.3 262.9 263 261 263 264.9 261.5 259.6 259.2 259.3 259.3 259.3 262.6 265.7 265.4 267.1 273.4 270.9 269.5 269.9 267.5 263.2 259.9 257 256.6 257.1 259.7 260 263 264.4 264.8 264.7 265 265.5 267.7 271.4 275.2 281.7 287.3 293 296 296.9 296.8 294.5 293.5 292.9 290 285.2 277.3 267.3 260.3 255.5 250.3 246.8 240.3 235.2 230.3 225.9 219.8 207.5 207.5 207.5 207.5 207.5 207.5 207.5 207.5 207.5 207.5 207.5 207.5 207.5 207.5 207.5
353.7 362.1 367.2 367.1 368.3 367.6 369 372.1 370.4 368.1 367.3 369.2 359.9 349.9 342 338.1 331.1 321.7 306.8 296.2 296.2 296.2 296.2 296.2 296.2 296.2 296.2 296.2 296.2 296.2 296.2 296.2 296.2 296.2 296.2 296.2 296.2 296.2 296.2 296.2 296.2 296.2 296.2 296.2 296.2 296.2 296.2 296.2 296.2 296.2 296.2 296.2 296.2 296.2 296.2 296.2 296.2 296.2 296.2 296.2 296.2 296.2 296.2 296.2 296.2 296.2 296.2 296.2 296.2 296.2 296.2 296.2 313.9 319.5 324.5 333.7 335.9 337.9 343.6 352 362.7 362 360.2 358.4 354.6 349.6 346.9 345.5 343.7 342.8 341.9 340.1 334.2 328.6 327.3 324.9 321.5 321.7 320.8 318.1 316.8 315.6 316.6 312.4 307.1 307.4 304.9 308.9 307.8 302.3 303.7 306 303.8 297.4 294.3 291.8 285.6 284 277 272.6 268.7 265.5 266.5 262.6 263.5 265.6 265.6 266.5 266.4 267 266.7 266.4 265.2 263.4 261.5 260.9 261.9 261.1 261.9 263.8 267.5 270.6 274.8 278.6 281.3 276.4 272.6 270.3 268.7 261.3 260.1 260.9 261 259.5 259.3 263.6 262.3 264.9 264.5 265.2 267.1 272.6 274 280.5 286.1 291.5 292.1 293 289.5 286.2 281.8 289.3 283 273.7 267.5 261.1 257 251.9 248.7 244.1 237.2 234.3 230.5 226 217.8 207.5 207.5 207.5 207.5 207.5 207.5 207.5 207.5 207.5 207.5 207.5 207.5 207.5 207.5 207.5
355.6 364.4 370 369.8 371.2 373.5 370 371 370.2 367.5 365.3 364.1 356 351.2 342.3 337.1 329.1 321.9 309.4 296.2 296.2 296.2 296.2 296.2 296.2 296.2 296.2 296.2 296.2 296.2 296.2 296.2 296.2 296.2 296.2 296.2 296.2 296.2 296.2 296.2 296.2 296.2 296.2 296.2 296.2 296.2 296.2 296.2 296.2 296.2 296.2 296.2 296.2 296.2 296.2 296.2 296.2 296.2 296.2 296.2 296.2 296.2 296.2 296.2 296.2 296.2 296.2 296.2 296.2 296.2 296.2 296.2 315.6 322.7 326.9 337.9 336.9 340.8 349.1 357.9 357.5 359 359.3 356.1 351 348.8 344.9 344 343.5 342.3 343.1 339 336.5 329.1 325.1 325.1 327.5 328.2 326.3 325.6 323.2 322.6 325 317.3 312.8 307.3 311.5 315.9 315.3 309.3 305 307.2 308.1 303.8 300 293.4 286.9 282.1 276.5 273.9 274.5 269.5 268.8 267.2 268.7 269.7 269 270.9 270.4 271.7 270.7 271.3 271.6 268.1 267.7 264.6 266.9 266.9 263.9 267.5 270.4 275.6 279.8 283.2 284.4 284 279.9 273.5 270.8 269.9 266.7 265.2 266.1 265.8 266.2 266.6 264.2 263.7 264.9 266.1 267.4 269.3 274.6 277.3 282.3 285.8 289.4 288.1 286 283.1 280.1 277.3 270.7 264.8 261.2 258.1 252.5 247.3 245.5 241.5 236.1 232.7 228.2 218.6 218.3 215.3 207.5 207.5 207.5 207.5 207.5 207.5 207.5 207.5 207.5 207.5 207.5 207.5 207.5 207.5
357.6 364.4 373 374.3 371.7 371 369.1 368.8 367.8 367.6 364.8 359.9 353.6 347 340.8 335.4 328.5 321.3 314.9 296.2 296.2 296.2 296.2 296.2 296.2 307.5 316 318.9 324.1 324.3 323.6 322.3 319 310.2 296.2 296.2 296.2 296.2 296.2 296.2 296.2 296.2 296.2 296.2 296.2 296.2 296.2 296.2 296.2 296.2 296.2 296.2 296.2 296.2 296.2 296.2 296.2 296.2 296.2 296.2 296.2 296.2 296.2 296.2 296.2 296.2 296.2 296.2 296.2 296.2 296.2 305.8 319.7 325.5 329 332.9 339.7 344.5 353.7 356.2 357.2 358.8 362.1 353.6 348.8 345.1 342.4 345 344.3 341.5 342.7 339.9 334.9 328.1 329 330.9 332.6 333 330.5 330.3 327.7 324.8 321.9 316.7 316.1 309.4 316.9 320.5 317.4 314.1 311.1 308.3 306.9 303.1 298.1 291.3 287.4 286.3 282.5 277.7 272.7 273.1 273.7 270.6 270.1 272.7 273.7 274.3 275.2 279.6 277.1 275.7 277.9 274.6 271.7 269.5 271.1 271.2 269.9 272.3 275.3 277.3 283.7 290 293 289.3 284.7 281.8 280.2 277.2 272.9 270.3 269.1 267.3 269.7 271.3 269.1 267.2 266.1 265.8 267.4 270.1 274.5 279.3 283.1 285.9 288.9 287.3 284.8 281.9 276.5 271.8 267.8 260.8 257.9 251.8 248 246.5 243.8 238.9 236 230.4 226.7 223 218.7 207.5 207.5 207.5 207.5 207.5 207.5 207.5 207.5 207.5 207.5 207.5 207.5 207.5 207.5 207.5
359.2 365.8 372.4 376.1 372.1 369.6 367.2 365.6 363.8 364.1 362.6 356.1 350.7 344.3 337.7 333.1 329.5 322.6 316.6 296.2 296.2 296.2 296.2 296.2 304.2 318.8 317.3 323.5 328.1 338 336.3 334.3 331.1 325.4 310.2 296.2 296.2 296.2 296.2 296.2 296.2 296.2 296.2 296.2 296.2 296.2 296.2 296.2 296.2 296.2 296.2 296.2 296.2 296.2 296.2 296.2 296.2 296.2 296.2 296.2 296.2 296.2 296.2 296.2 296.2 296.2 296.2 296.2 296.2 296.2 319.3 315 322 327.2 334.4 338.8 344.8 349 356.2 356.5 362.2 359.7 360.1 352.9 346.9 341.9 340.2 341.8 341.4 339.3 338.3 335.4 332.9 333 333.2 334.9 334.5 334.7 334.5 332.7 332.3 326 324.6 319.1 317.2 315.4 319.8 321.4 322.9 320.3 313.1 308.8 305.6 301.6 297.9 293.8 293.5 290.3 285.2 281.8 278.1 276.9 276.2 275.4 276 276.9 279.1 280.6 281.6 281.9 282.9 281.3 282.5 278 278.8 273.7 274.7 276 277 279.8 280.7 284.2 291.4 295 298.5 297.9 292.8 291.2 288.6 288 282.8 274.7 273.8 272.5 273.5 273.9 273.1 272.3 270 267.6 269.6 272.4 277.1 283.1 285.7 289.4 292.3 295 282.7 277.6 270.4 267.6 263.7 253.6 247.5 243.6 244.5 243.8 240.5 237.6 232.4 231.3 229 223.3 220 213.6 207.5 207.5 207.5 207.5 207.5 207.5 207.5 207.5 207.5 207.5 207.5 207.5 207.5 207.5
359.9 366.9 372 374.9 369.7 367.8 364.3 361.8 359.4 356.5 355 352 346.7 342.6 337.3 332.9 329.1 324 318.9 316.2 307.9 296.2 296.2 296.2 298 296.2 316 322 327.5 334.6 343 350.2 344.9 342.2 343.5 335.7 325.3 321.4 314.8 296.2 296.2 296.2 296.2 296.2 296.2 296.2 296.2 296.2 296.2 296.2 296.2 296.2 296.2 296.2 296.2 296.2 296.2 296.2 296.2 296.2 296.2 296.2 296.2 296.2 296.2 296.2 296.2 296.2 296.2 298.4 315.7 316.6 324.5 331.7 343.2 345.7 346.9 352.4 360.3 362.1 363.5 360.9 360.2 359.3 347.7 342.1 339.2 338.4 338.8 340.1 337.6 335.4 335.5 337 336.7 338 338.5 338.6 340.6 336.1 332.7 332.3 324.7 321 319.6 320.9 322.2 322.4 321.6 320.4 312.6 308.7 304.8 302.4 302.2 297.2 295.6 293.2 287.4 285.1 284.9 285.4 285 283.7 283.1 284 284.5 284.9 284.7 283.3 283.2 282.8 283.1 285.7 283.5 280.7 280.8 283.2 284 285.6 287.7 289.6 293.5 299.1 304.8 306.5 303.3 300.4 295.6 289.2 284.3 276.9 273.3 272.8 276.1 276.6 280.2 276.5 275.5 273.9 269 273 276.6 281.8 287.8 291.3 289.7 288.1 283.6 278.1 268.6 259.8 253.2 247.9 244 242.8 241.1 240.8 240.4 237.5 234.3 231.1 227 222.7 220 211.5 207.5 207.5 207.5 207.5 207.5 207.5 207.5 207.5 207.5 207.5 207.5 207.5 207.5 207.5
362.6 367 371 368.1 366.2 364.4 360.3 356.9 354.9 352.7 350.1 347.9 343 340.5 337 332.6 328 324.1 320 317.3 316.6 296.2 296.2 296.2 310.5 316.3 321.7 329.1 339.6 344.6 355.6 360.4 358.4 358.5 352 351 342.9 333.8 327.4 319.8 296.2 296.2 296.2 296.2 296.2 296.2 296.2 296.2 296.2 296.2 296.2 296.2 296.2 296.2 296.2 296.2 296.2 296.2 296.2 296.2 296.2 296.2 296.2 296.2 296.2 296.2 296.2 296.2 296.2 314.8 320.9 318.2 325.9 338 345 346.8 348.5 356.5 364.1 365 362.1 363.5 362 355.6 345.9 340.1 339 338.4 337.1 336.5 336.1 336.1 338.1 337.6 338.5 341.7 341.5 341.9 341.6 339.4 336.7 334.8 328.1 323.3 324.4 323.5 323.2 322.9 326.3 320.8 315 311.1 308.6 303.4 302.3 299.7 296.9 296.7 292.8 288.3 289.6 291.7 292.3 291.3 289.8 289.7 289.7 289.1 287.2 287.2 286.8 287 289.2 288 286.6 287.5 287.6 291.1 290.7 292.5 294.3 296.8 298.4 306.2 314.1 317.7 312.9 309.1 303.4 291.9 282.2 280.1 277.2 275.2 276.6 278.4 278.9 278.9 277.1 276.2 271.3 277.4 278 281.2 289.4 288.4 288.8 284.8 276.7 269.1 260.7 255.4 251.8 246.7 244.6 243.4 242.5 242.3 240.8 238 235.6 230.3 226.7 222.4 217.8 207.5 207.5 207.5 207.5 207.5 207.5 207.5 207.5 207.5 207.5 207.5 207.5 207.5 207.5 207.5
363.7 367 368.2 365.3 362 360 355.6 353.7 352.1 350.1 348 344.6 340.8 339 336.9 332.7 327.9 324 321.4 319 318.5 296.2 320.6 317.1 319.6 324.6 330.6 337.4 344.8 353.5 357.7 365.4 373.4 365.7 361.2 356.3 350.5 347.8 335.7 325.8 319.5 296.2 296.2 296.2 296.2 296.2 296.2 296.2 296.2 296.2 296.2 296.2 296.2 296.2 296.2 296.2 296.2 296.2 296.2 296.2 296.2 296.2 296.2 296.2 296.2 296.2 296.2 296.2 296.2 317.6 319.9 321.7 330.5 339.8 346.5 349.6 350.6 359.8 363.8 362.5 364.3 366.1 359.1 351.6 347.1 342.3 340.2 340.7 339.9 340 339.7 338.7 338.7 341 341.3 345.3 343.8 345 344.2 343.3 341.9 337.5 332.5 326.4 331.4 324.5 323.2 327.2 323.1 319.8 317.2 311.1 308.4 306 302.2 300.4 300.9 298.4 292.9 290.1 292.4 296.9 299.4 297.5 295.9 295.1 294.8 294.2 297.6 295.4 297.6 295.5 298.6 295.5 295.4 296.8 295.1 297.3 298.3 299.4 301.8 302.5 303.6 308.3 316.9 321.9 319.4 312.2 303.5 296.5 287 286.7 279.6 277.4 278 282.3 281.3 283.6 281.1 280.4 277.1 282.1 281.6 282.4 285.2 284.9 289 285.8 271.3 263.1 256.8 253 252.1 249 246.5 245.5 243.4 242.7 240.1 237.5 234.9 230.1 226.3 221.6 216.8 207.5 207.5 207.5 207.5 207.5 207.5 207.5 207.5 207.5 207.5 207.5 207.5 207.5 207.5 207.5
362.6 363.4 364.9 362.8 359.9 356.2 354 352.2 348.7 346.3 344.1 340.9 339.9 337.8 335.2 333.8 329.6 324.3 322.6 320 318.6 321.2 323.9 325.9 325.9 331.6 338.5 341.2 345 352.2 362.5 370.5 375.3 365.2 362.2 361.1 359.7 353.4 343.9 336.3 327.5 314.9 312.7 296.2 296.2 296.2 296.2 296.2 296.2 296.2 296.2 296.2 296.2 296.2 296.2 296.2 296.2 296.2 296.2 296.2 296.2 296.2 296.2 296.2 296.2 296.2 314.4 315.9 302.9 318.7 323.9 327 334.8 344.7 347.2 351.3 355.9 360.4 361.6 368.7 365.3 357.8 353.8 350.4 347.2 350.2 348.5 347.1 347.4 346.8 346.8 342.7 341.5 342.2 346 349.9 348.3 349 349.5 350.6 348.7 339.8 329.8 326.1 325.4 327.4 326.8 323.6 323.1 318 313.4 313.8 308.2 308.9 303.7 300.8 299 296.8 293.3 293.3 295.6 304.1 307.5 304.9 301.8 301.2 299.9 303.9 308 307.4 306.9 306.1 306.4 303.7 304.7 304.9 304.4 301.8 305.4 307.3 308 309.9 310.6 308.6 319.5 325.6 325.1 316.3 308 298.1 293.9 292.5 284.9 283 286.6 293 293.6 288 285.2 284.5 280.5 280.8 284.3 284.7 284.3 284.1 280.7 278.1 270.8 259.6 255.7 254 254.2 250.6 249.9 245.4 244.1 242.6 240.2 236.1 233.6 229.9 226.1 221.3 216.8 207.5 207.5 207.5 207.5 207.5 207.5 207.5 207.5 207.5 207.5 207.5 207.5 207.5 207.5 207.5
358.8 360.2 359.9 359.8 357.2 355.5 353.4 351 348.3 344.8 341.4 339.9 339.2 339.1 335.2 333.4 328.9 325 323.7 322 321.6 325.1 326 330 333.3 336.3 343.4 348 352 358.4 364.9 371.5 371.1 368 367.4 365.9 359.5 349.7 339.4 334.7 332 323.2 296.2 296.2 296.2 296.2 296.2 296.2 296.2 296.2 296.2 296.2 296.2 296.2 296.2 296.2 296.2 296.2 296.2 296.2 296.2 296.2 296.2 296.2 296.2 296.2 316.4 319 319.8 321.4 325.7 329.4 337.2 344.5 349.2 356.7 356.4 358.1 362.5 360 357.2 355.4 353.6 354.1 355.5 358.5 355.2 355.6 356.7 355.7 348.4 349.4 346.9 348.9 350.5 352.7 353.2 355.1 356 354.2 345.7 336.6 327.2 326.3 327.7 327.9 329.1 325 319.8 316.3 312.8 311 310.2 308.9 304.1 301.2 300.1 296.9 295 295.2 299.9 312.6 318.6 312.3 309 305.6 310.4 315.4 318.7 320.5 316.6 317.9 318.1 315.3 315.2 315.9 313 310.1 312.4 316.2 313.5 318.4 317.8 314 318.6 327.1 333 327.8 320.7 307.6 303.3 299.7 299.1 295.7 297.8 298.1 297 292.8 290.8 293 284.8 281.9 285.2 286.1 284.5 282.9 278.3 273.3 264 259.4 256.4 254 253.7 251.9 250.4 246.7 244.7 241 238.4 236.7 233.5 229.9 226 222.5 218.7 207.5 207.5 207.5 207.5 207.5 207.5 207.5 207.5 207.5 207.5 207.5 207.5 207.5 207.5 207.5
353.5 357.4 358.1 356.7 356 355.2 352.9 350.8 347.6 345.6 341.2 338.9 337.1 337.4 336.2 329.9 326.5 324.7 324.9 323.4 327.1 327.7 332.3 330.3 334.7 342.2 349.1 355.1 361.2 364.1 369.4 374.9 369.9 369.5 367.1 360 349.8 344 338.2 333.4 326.3 318.3 296.2 296.2 296.2 296.2 296.2 296.2 296.2 296.2 296.2 296.2 296.2 296.2 296.2 296.2 296.2 296.2 296.2 296.2 296.2 296.2 296.2 296.2 296.2 312.6 319.7 324.8 325.6 323.5 325.7 335.8 341.7 345.5 351.8 353.9 353.9 355.2 357.4 358.4 359.9 358 360.2 360.6 361.5 361.9 364.5 364.3 361.7 356.6 355.9 358 354.8 354.8 358.5 356.8 357.3 360.7 356 350.9 343.3 335.6 331.4 335.2 336.2 330.7 327.3 325.8 323.3 320.1 319.1 312.2 310.7 310.3 311 305.1 301.9 300.8 301.8 297.1 299.8 309.8 312.6 311.1 309.6 312.2 321.1 325.5 327.6 328.8 330.9 332.3 331.1 328.4 328.6 326.5 319.8 319.3 317.9 317.6 317 318.3 320 316.8 316.7 321.2 327.4 329.2 323.9 316.6 316.9 313.5 313.6 306.4 305.9 307.8 307.8 300.7 299.2 298.9 289.5 286.9 291.1 291.3 287.3 282.4 276.5 268.6 261.5 261.1 257.1 255.2 254.2 254.7 253.7 251.5 248.6 245.6 240.1 236.3 233.4 230.6 225.1 222.5 219 213.4 207.5 207.5 207.5 207.5 207.5 207.5 207.5 207.5 207.5 207.5 207.5 207.5 207.5 216.1
351.4 354.4 358.7 356.2 355.7 354.8 352.6 350.6 347.3 344.2 341 338.5 336.6 332.9 330.9 327.5 325.6 325.1 322.6 326.3 329.3 328.5 332.2 337.6 344.8 352.2 356.7 360.1 364.5 370.3 374 376.8 367.3 361.9 358.9 354.4 348.4 342.8 336.9 331.8 327.4 317.8 296.2 296.2 296.2 296.2 296.2 296.2 296.2 296.2 296.2 296.2 296.2 296.2 296.2 296.2 296.2 296.2 296.2 296.2 296.2 296.2 296.2 296.2 306.2 319.7 325.4 328 328 326.3 327.4 337 344.7 347.3 351.2 352.1 353.3 355.3 358.7 361.1 365.2 372.6 373.3 368.3 369.1 369.2 368.1 366.3 364.4 362.1 359.8 364.1 363 363.6 363.6 365 358.8 357.3 355 352.4 342.9 336.9 335.3 341.4 338.8 334 332.3 326.6 324.8 330.9 326.3 320.2 313.6 313 313.3 307.3 305.7 303.4 300.5 300.1 300.3 305.4 310.8 311.8 313.9 319.7 324.1 331.4 341.9 341.7 346.9 346.7 344 342.3 339.5 337.2 326.4 326.7 323.9 322 322.3 321.8 320.1 318.1 318.6 321.1 328.6 329.2 327 332.6 334.4 324.9 324.3 321.4 315.8 325.8 318.5 313.3 307.1 303.4 294.3 293.2 297.9 295.6 294.9 288.8 276 266.4 263.9 261.2 258.2 257.4 257.5 259.3 257.5 254.9 248.1 245.3 242.8 238.8 236.1 230.9 225.6 222.6 218.7 210.7 207.5 207.5 207.5 207.5 207.5 207.5 207.5 207.5 207.5 207.5 207.5 207.5 207.5 218
350.3 352.5 356 354.6 354.7 353.6 352.1 351.1 346.8 343.7 340.2 336.3 332.4 328.2 325.3 325.4 323.2 323.4 323.5 324 327.3 332.3 334.7 341.3 351.5 358.1 364.3 369.9 371.3 374.8 375.4 368.4 362.2 359.1 354.3 349.9 342.5 335 330.3 328.1 324.4 314.1 296.2 296.2 296.2 296.2 296.2 296.2 300.4 315.9 318.1 320.8 320.8 319.6 318.6 317.4 296.2 296.2 296.2 301.2 318.1 316.8 316 315.6 320.4 329.3 332.4 335.4 333.5 333.6 330.4 339 347.2 353.1 351.1 351.9 352.9 360.4 367.9 375.7 381 383.7 383 379.2 379.1 370.1 368.3 368.2 367.1 371.3 365.5 371.5 373.1 371.9 370.6 368.1 359.6 357.1 353.9 351.2 349.6 343.5 340.1 345.9 345.6 342.4 342.1 334.2 329.6 332.7 328.6 325.8 321.4 319.9 316.5 308.4 306.2 302.5 301 302.6 306.1 310.5 314.8 317.3 320 325.6 336.7 347.5 353.3 355.9 354.9 361.6 358.5 353.1 346.4 339.2 333.2 333.7 328.9 327.5 330.4 325.8 323 322.2 322.2 324.3 330.3 334.5 337.2 341.6 344.2 332.4 337.8 342.4 328.4 330.9 330.1 322.1 317.7 308.8 300.5 298.4 296.6 298.5 294.9 286.8 282.2 276.1 268 264 262.8 262.7 261 259.8 255.6 251.4 247.7 245.3 243.9 241.8 237 232.2 226.2 222.3 218.9 215.3 207.5 207.5 207.5 207.5 207.5 207.5 207.5 207.5 207.5 207.5 207.5 207.5 207.5 221.3
349.2 351.5 351.5 352.3 352.8 353.8 351.6 349.6 346.7 342.9 338.5 333.6 332.1 328.1 323.4 323.6 324.8 325.4 325.4 326.3 329.2 332.9 335.8 344.1 355.6 363.4 369.5 373.5 377.4 379.4 373.2 363.5 359.4 355.5 349.8 343.6 336.8 336.1 329.2 327.8 324.4 317 296.2 296.2 296.2 296.2 296.2 317.3 319.1 324.3 326.5 329 330.5 324.7 322.5 318.2 316.5 315.1 316.1 316.1 319.3 323.9 324.9 324.5 330.4 338 340 341.3 339.3 339.7 333.9 340.3 346.5 351.9 351.3 353.1 361.6 372.7 383.3 388.3 388.5 395.4 391.3 385.9 378.9 378.3 380.2 376.2 376.8 374.8 370.4 375.4 378.3 378.4 378.8 372.9 362.5 360.2 355 354 354.9 351.9 349.5 360.3 351.6 347 343.5 338.4 334.9 334.4 339.6 336.5 328.9 320.3 313.3 308.1 305 303.7 303.3 305.4 315.1 317.4 321.3 324.2 337.2 342.5 348.6 354.9 367.7 373 369.2 369.1 366.5 356.6 348.1 342.1 341 337.7 335.2 336.2 345.5 343 340.6 340 339.3 332.8 334.4 339.1 344.2 347.2 346.8 349 355.6 357.6 343.1 348.3 344.8 338.7 334.8 323.4 311.2 306 303.8 302.8 296.9 294.1 291.4 288.3 282.8 272.6 266.9 269.2 263.7 257.6 252.2 248.9 247.5 247.2 246.9 241.4 234.7 231.2 226.1 221.1 219 207.5 207.5 207.5 207.5 207.5 207.5 207.5 207.5 207.5 207.5 207.5 207.5 207.5 207.5 223.9
346.7 351.7 350 351 353.3 353.7 352.7 350.1 347.4 343.6 339 335.3 328 324.7 323.1 325 327.9 326 327.4 328.4 330.4 334.1 340.9 348.9 357 364.5 368.4 372.3 375.6 371.6 367.9 361.9 358 354.5 349.4 345.2 338.5 333.4 330.5 327.1 321 296.2 296.2 296.2 296.2 296.2 296.2 320.6 325.3 330.2 332.4 333.7 336.6 335.1 331.1 328.8 325.1 321.1 320 319.4 327.1 333.7 334.2 334.7 340.2 343 343.2 344 344 341.8 337.5 341.8 348.3 352.3 353.6 363.5 371.4 383.2 391.2 393.3 392 391.6 389.4 389.5 391.1 390.3 390.8 383.3 380.1 377.1 382.7 382.2 384.9 386.9 384.9 377.2 372.5 367.8 360.7 359.7 361.4 359.8 355.6 362.9 356.1 350.5 348.9 347.7 349.1 347 347.9 341.9 333.7 319.3 313.5 310.2 308.2 307.6 308.1 310.3 316.9 321.1 327.8 332.2 344.4 355 366.8 376.3 393.4 393.2 383.8 377.7 370.9 361.1 354.4 348.3 345.7 343.8 345.8 349.6 358.3 359.4 359 358 360.2 353.3 346 347.3 352.7 354.1 370.5 368.6 368.5 367.5 361.1 365.4 357.2 355.4 343.9 337.5 322.7 315.6 310.8 301.2 300 296.8 298.5 299.2 295.1 281.4 279 276.4 269.5 264.2 254.6 252.6 250.3 249.3 247.4 240.5 234.9 229.5 224.2 221.3 218.2 207.5 207.5 207.5 207.5 207.5 207.5 207.5 207.5 207.5 207.5 207.5 207.5 207.5 207.5 225.8
345.4 346.5 348.4 351.5 353.2 353.6 353 350.4 347.4 344.3 337.1 328.6 326.9 323.9 323.8 324.9 328.2 327.1 327 330.1 333.1 340.2 345.5 352.3 358.8 364.4 370.5 373.3 374 369.9 365.8 361.2 357.5 353.7 348.8 343.1 338.8 336.3 331.4 326.2 318.2 296.2 296.2 296.2 296.2 296.2 316.5 326.2 333.4 338.8 342.8 344 345 338.6 334.9 334.6 332.7 326.6 324.4 323.8 329.8 338.4 343.1 341.8 349 350.1 348.9 349.3 349.8 343.4 342.5 347.8 353.8 356.6 363.4 375 382.8 385.6 391.3 393 392.9 396.4 397.2 404.1 403.6 397.6 389.4 386.7 389.5 387.4 389.4 384.2 391.8 388.9 388.7 384.3 381.7 375.5 372.7 367.3 368.5 367.2 362.8 363.5 362 360.9 366.6 366 366.8 361.2 357.8 353.9 343 321.1 313.8 312.2 311.5 312.3 316.3 320 324.1 332.7 340.8 344.9 354.8 369.4 382.6 393.5 403 398.8 390.2 386.3 380 368 362 357 358 353.1 357.4 366.9 368.5 375.3 375.3 376.2 373.9 371.2 364.5 361.9 368.8 381.9 393.6 384.8 386.9 386.4 378.8 382.5 380.4 372 364.5 354.2 334.6 321.9 316.6 306.8 302.6 306.8 309.9 305 297.4 290.8 291.6 281.4 275.3 268.1 264 259.3 253.6 252.7 249.2 244.7 237.2 231.3 225.6 222.5 219 207.5 207.5 207.5 207.5 207.5 207.5 207.5 207.5 207.5 207.5 207.5 207.5 207.5 207.5 226.4
344.1 344.3 348.3 352 354.7 354.4 352.8 351 348.1 343.7 335.8 332.1 328.7 327 325.1 323.3 324.9 325.7 327.6 332.8 338.3 340.8 346.3 355.3 362 369.5 372.6 370.8 370.2 367.1 364.5 359.8 355.6 352.3 349.6 347.5 340.6 330 330.8 325.1 315.7 296.2 296.2 296.2 296.2 311.5 326.5 334.1 343.4 354.2 356.7 353.1 351.1 348 342 342.2 338 336.4 332.6 326.4 334.7 341.1 347.9 348.3 354 357.9 355.8 353.7 351.7 346.7 344.7 351.7 361.4 362.3 371.6 379.4 382.3 385.5 389.8 394.9 396.8 403.8 411 416.8 413.3 403.8 399.1 397.4 394.9 389.1 388.6 390.1 398.4 395.7 391.5 391.1 392.2 378.1 379.3 370.9 369.8 370.3 369.5 371 371.6 378.4 391.2 383.4 376.6 372.1 368.6 354.9 335.3 322.9 316.1 321 322.7 326.3 334.5 335.1 338.2 342.7 349.5 357.3 370.8 385 406.5 415.5 408.1 401.3 395.5 386.6 380.2 376.8 373.4 370.1 370.4 368.9 372 380.6 385.7 398.8 394.7 392.8 400.4 396.9 391.2 387.2 391.9 403.4 397.2 394.3 393.8 397 394.9 397.3 386.5 383.9 378.8 365.8 340 331.5 321.7 315.1 316 319 322.1 318.7 315 308.1 302.3 292.8 280 277.2 271.1 262.4 257.9 257 253.6 247 239.6 232.6 226.7 222.9 218.6 207.5 207.5 207.5 207.5 207.5 207.5 207.5 207.5 207.5 207.5 207.5 207.5 207.5 207.5 223.4
342.8 342.9 348.1 354.4 355.5 355.2 353.3 351.1 347.1 344.8 345.3 336.2 334.2 331.9 333.3 323.3 324.2 325.6 330.4 333.8 340.1 345.9 347.9 355.2 363.2 366.5 368.1 369.4 368.2 365.1 362.1 359.7 355.9 353.9 351.6 347.2 339.7 334 328.1 322.7 314.8 296.2 296.2 296.2 298.2 320.8 333.1 349.3 355.5 364.8 360.9 361.1 363.1 360.6 354.5 351.1 348.4 344.6 341.5 334.6 339 344.6 347.8 349.8 357.3 364.2 360.6 354.2 352 348.4 350.3 361.2 371.5 371.9 373.6 377.2 384.6 389.7 399.1 403.4 403.6 415 416.7 423.3 419.9 414.5 408.6 407.4 396.1 395.1 401.6 402.9 408.7 414.5 410.2 402.4 394.8 383.4 379 376.2 379.6 385.2 388.6 393.9 393.7 396.4 401.2 398.8 387.7 374.3 361.4 347.9 333.4 324.8 327.1 334.2 340.3 342.3 351.1 352.1 350.3 355.3 362.8 375.6 399.1 422.6 422.6 414.1 407.8 400.4 395.6 389.9 389.6 396.4 401 402.8 407.8 403.9 395.9 403.6 411.4 409.4 414.2 421.1 421.9 419.2 419.8 412.5 425.8 416.6 404.3 399.8 401.4 403.6 400.5 403.6 397.9 389.2 379.8 364.5 343.7 334.3 328.1 328.1 331.4 332.1 337.1 343.2 340.9 327.8 321.4 307.1 291.6 286.5 278.6 265.6 261.5 259.2 254.2 248.7 241.9 233.9 228.8 225 218.4 207.5 207.5 207.5 207.5 207.5 207.5 207.5 207.5 207.5 207.5 207.5 207.5 207.5 207.5 219.3
338.7 343.9 349 354.2 354.5 354.8 354.3 351 347.9 349.2 348.2 340.4 336.7 336.6 332.1 325.5 325.7 327.5 329.9 332.4 339.3 343.2 347.8 352.8 362.3 365 368.7 368.1 364.7 362.4 361.4 359.4 358.3 355.4 350.9 344.9 337.6 328.6 322.7 319.6 315.7 308.3 296.2 296.2 312.3 325.5 343.3 359.3 365.7 371.4 372.7 371.4 370.6 364.8 363.7 358.2 352.6 350.5 347.2 337.9 340.8 344.6 351.2 352 359.1 361.6 358.6 358.2 355.7 352.2 358.4 367.7 376 384.1 383.8 388.6 395.1 403.1 410.3 416 411.7 419.4 424.8 426.9 424.2 417.6 412.4 403.7 403.6 412.5 420.9 423.5 429 431.9 429.8 414.5 393.4 391.6 386.3 386.6 394.4 392.9 410.3 410.7 411.5 402.4 405.1 399.5 383.5 367.3 352 340.7 332.6 328.6 338 348.5 357.1 356.3 361.7 364.2 375.2 383.4 392.2 407.9 416.4 429.2 424.1 417.1 407.3 403.7 400.5 401.4 408.6 415 421.1 423.2 425.9 423.1 422.2 425.7 423.7 429.9 440.5 444.4 451.9 447.6 441 441.8 437.4 429.9 419.9 412.2 408.5 400.9 402.5 399.3 391.4 380.7 369.7 356.6 345.2 343.1 339.8 341.2 341.2 344.7 348.1 354.8 347 336.1 326.3 318.8 297.4 287.9 281.5 270.8 263.4 259 255.2 250.9 243.8 236.8 229.9 224.7 218.3 207.5 207.5 207.5 207.5 207.5 207.5 207.5 207.5 207.5 207.5 207.5 207.5 207.5 207.5 220.8
338.3 345.5 348.6 353.5 354.3 353.4 354 353.2 350.3 351 350.2 348.5 341 337.7 338 329.4 328.3 329.3 330.2 331.5 337.1 342.8 350.6 356.2 360.2 356.6 367.9 364.8 363 360.8 361.9 361.6 358.2 355.6 350.7 342.3 332.8 326.7 321.9 319.4 314.2 299.7 296.2 296.2 317.9 336.8 348.6 364.9 375 380.4 385.2 382.7 379 370.5 367.3 362 357.6 354.6 350.3 343.8 347.9 347.7 352 357.2 363.4 366.4 360.3 361.2 359.7 362.1 367.3 372.8 382.1 394.7 400.1 398.8 408.3 414.4 416.3 420.2 421 427.1 427.2 431.2 429.2 421.1 416.2 420.8 425.6 429.4 433.7 437.8 439.7 440.1 436.2 415.2 404.4 401.3 400.3 396.4 400.7 400.2 414.1 421 414.3 404.8 403.2 398.4 382.4 368.2 353.2 342.4 341.4 336.3 339.4 365.3 373 369.9 387.9 392.5 402.2 412.9 423.3 422.1 420.7 423.7 420.2 417.3 414 410.6 408.3 413 420.2 424.1 434.1 435.9 438.9 446.8 445.9 454.7 460.7 458.7 460.2 468.6 467 462 450.3 460.4 457.9 442.8 435.6 423.1 415.7 404.5 399.2 395.5 392.2 379 371.9 357.1 349.6 346.9 351.6 351.5 348.5 365.4 362.4 351.7 346.4 339.5 335.7 325.3 307.1 295.2 287.8 277.9 269.6 264.1 256.5 252.1 244.5 237.9 232.3 227.1 219.4 207.5 207.5 207.5 207.5 207.5 207.5 207.5 207.5 207.5 207.5 207.5 207.5 207.5 207.5 221
336.3 344.8 350.1 353.3 353.3 354.3 357.3 356.5 353.1 351.9 351.4 349 343.8 340.2 340.6 334.6 336.5 328.7 328.5 331.3 337.2 343 349 355.2 357.1 355.5 351.2 359.6 358.4 359.8 358.6 359 356.8 352 345.5 340.4 331.8 325.5 320.7 318.4 313.8 305.3 296.2 296.2 323.3 337 350.6 370.9 384.3 390.7 396 388.7 382.5 375.6 370.5 366.5 361.7 360.8 359 350.1 352.5 353.2 354.1 360.3 365.7 362.7 361.2 362.5 362.7 362 364.5 371.7 392.2 398.7 405.5 404.9 409.7 417.1 423.3 425.4 429.3 433.3 435.8 434.2 426.6 421.8 429.4 430.3 436.5 442.1 449.5 447.9 447.7 439.7 430.7 414.9 420.3 416.3 415.5 410.3 409.3 401.7 413.4 419.3 418 409.8 404.3 391.7 388.3 374.3 350.8 349.6 339.3 337.7 350.1 377.6 381.5 386.8 397.7 406.9 418.2 425.7 419.2 417.1 418.3 419.5 426.7 422.2 412.9 411.6 421.1 421 427 436.5 446.4 456.2 463.3 472.4 479.3 488.2 487.1 482.8 482.3 486.2 474.8 476.3 469.1 475.4 466.2 458.4 445.7 444.6 438.5 422.5 418.2 409.9 392.5 373.1 363.8 354.1 351.2 357.5 363.5 361.2 360.5 368.1 365.8 356.1 344.1 341.6 332.4 325.8 316.2 306.3 295 286.3 278.7 273.1 260.7 254 247.1 240.5 233.9 227 219.5 207.5 207.5 207.5 207.5 207.5 207.5 207.5 207.5 207.5 207.5 207.5 207.5 207.5 207.5 220.6
343 341.9 351.3 352.8 354.2 357.1 359 359 356.9 353.3 352.2 349.7 347 348.6 339.9 336.1 332.6 330 331.4 334.1 337.3 339.9 342.9 346.3 346.9 343.4 352.6 354.6 357.6 358.1 356.4 354 353.4 347.5 345.1 339.4 334.2 327.7 321.9 316.3 313.6 296.2 296.2 296.2 323.4 346.8 361.6 381.2 387.4 391.3 387.4 387.7 385.6 377.4 372.9 369.5 363.9 362.3 361.1 356.9 360.7 357.1 357.2 359.3 363.1 361.3 361.2 363.5 360.5 366.2 373 378.9 389.1 395.3 406.7 411.4 415.8 424.4 430.9 434.8 435.6 440.8 440.5 443.4 436.6 429.5 431.8 436.4 439 448.1 459.9 452.9 451.6 439.5 429 434.2 438.6 430.2 428.1 414.1 407.8 403 410.6 420.9 418.1 415.8 407.3 396.1 388.5 362.5 344.3 340 338.8 341 362.5 379.5 390 402.6 409.8 409.5 407.3 412 413.2 416.3 415.6 417.9 415.7 415.4 417.6 417.7 422.4 426.5 435.2 452.2 466.5 479.9 483.7 493.1 502.7 506.4 507.6 505 499.1 497.3 494.3 484.2 487.6 491 485.7 474.4 466.7 460.2 445.4 430.8 421 405.6 388.9 373.6 361 354.2 355.2 375.6 382 375.2 375.2 379 370.9 365.6 354 337.7 333.3 323.3 318.2 318.7 302.7 297.7 286.6 278.3 269.3 261.4 255.4 243.6 236.9 228.7 217.5 215 207.5 207.5 207.5 207.5 207.5 207.5 207.5 207.5 207.5 207.5 207.5 207.5 207.5 219.1
347.4 345.2 348 354.3 356.3 357.3 359.6 361 360.5 354.6 354.7 355.7 350.1 347.3 341.9 336.7 336.7 334.2 332.7 334 331.9 336 338.8 339.6 341.9 341.3 344.6 349 350.3 351.6 350.5 349.7 347.5 346.2 341.5 339.1 334.6 328.4 320.7 316.2 314.3 296.2 296.2 296.2 326.5 342.8 357.4 372 380.6 380.8 385.7 387.7 385.7 384.3 377.8 377.9 370.6 366.6 365.8 361.9 369.8 363.1 358.1 359.5 360 360 358.2 359 360.3 368.9 370.7 374.2 390.5 402.9 416.5 415.3 422.9 431.1 439.3 441.5 442.3 447.8 448.3 447 437.1 438.1 437 438.5 441.1 447.7 456.9 457.1 449.3 444 447.9 449.3 443.3 434 421.9 411.4 412.9 405.2 416.6 418.4 415.9 407.4 401.9 396.4 377.2 355.6 346.3 340.8 340 344.6 362.8 383 387.1 393.3 397.1 398.1 397.4 400.7 407.4 407.5 407.8 406.5 409.6 422.8 423.4 424.6 434.4 448 452.5 462.3 472.1 485.6 499.6 508.5 510.5 514.2 515.4 519.2 509.9 505.6 505.9 506.7 507.3 501.9 495.2 483 476.8 460.2 446.4 428.6 411.1 397.3 388 374.2 362.1 359.3 362.2 374.6 389.6 383.9 381.1 386.1 384.3 366.6 355.1 345.1 335.5 326.2 324.5 317.8 311.7 305.5 295 286.5 276.5 269.6 258.1 249.7 240.5 232.4 217.3 207.5 207.5 207.5 207.5 207.5 207.5 207.5 207.5 207.5 207.5 207.5 207.5 207.5 207.5 219
351.5 347.1 347.8 355.5 357 359.2 360.4 361.1 362.8 360.5 361.5 360.2 351.6 349.1 344 343.6 340.4 333.6 331.9 331.9 331.9 331.9 331.9 331.9 331.9 337 341.9 343 343.7 343.8 345.3 344.8 344.1 340.9 338.8 335.9 333.5 329.4 322.5 319 316.4 296.2 296.2 317.9 326 337.7 351.8 362.1 375.4 378.8 384.8 385.7 387.4 386.2 384.5 381.4 376.4 377.9 371.7 368.4 370.1 367.8 359.9 358.2 358.2 358.2 358.2 359.5 361.6 362.2 363.3 377.1 395.1 405 413.4 427.3 432.1 435.9 441.7 449.2 452.1 449.5 454.2 449.4 441.1 443 438 441.6 444.1 455.5 462 461.1 452.2 442.2 451.6 448.1 439.7 438.4 431.7 424 406.7 408.2 420.6 418.5 415.5 411.3 400.6 388.1 368 355.6 352.9 341.7 341.2 342.2 349.1 367.9 375.6 390.5 393.3 389.1 391.2 392.5 394.8 397.2 397.5 399.4 413.7 420.8 422.6 428.1 439.7 453.4 465.6 472.8 475 484.7 493 495.4 502.9 510.5 514.1 518 513.7 513.3 514.1 512 514.8 510.6 498.5 484.7 471.3 456 437.2 423 410.6 395.8 386.5 372.9 370 365.9 362.8 384.8 397.9 395.3 397.4 395 384.4 368.3 360.8 354.6 346.3 333.7 322.5 316.4 315.3 315.8 307.4 297.4 289.7 279.6 268.9 255.3 242.5 228.7 219 213.8 207.5 207.5 207.5 207.5 207.5 207.5 207.5 207.5 207.5 207.5 207.5 207.5 207.5 219.1
356.5 350.6 350.4 355.3 359 359.8 363.9 365.4 366.9 365.4 364.9 360.3 357.2 349.3 346.7 342.5 336.2 331.9 331.9 331.9 331.9 331.9 331.9 332.2 335.3 337.5 338.8 339.1 339.4 340.1 341.9 341.6 339.4 337.4 335.9 334 330.9 327 323.2 318 315.1 296.2 296.9 320.6 332 339.9 348 371 374.4 388.4 384.8 385.6 385.8 385.9 384.1 381.3 385.3 387.2 379.7 373.7 370.8 371.2 358.2 358.2 358.2 360.2 364.8 364.7 369.3 362.8 370.8 389.9 404.7 411.1 423.9 429.1 445.3 449.6 458.4 461.4 458.3 450.6 448.2 445.8 442.3 441.4 448.3 456.3 455.7 455.4 461.3 458.7 445.5 445.6 453.1 448.8 444 441.1 433.5 422.4 409.6 407.5 422.8 420.2 410.9 404.3 392.2 374.2 360.3 365.5 355.5 339.9 339.2 341.4 344.8 356.3 365.6 373.6 378.6 381.9 382.7 381.9 383.5 390.3 400.7 406 412.7 414 419.4 428 437.6 445.7 453.9 456.3 462.9 471.7 479.1 490.8 495.3 495.6 497.9 500 502.9 504.6 507 511.8 510.4 499.7 486.7 476.9 468 454.2 436.6 424.3 411.2 396.3 384.1 375.2 382.4 374.5 370.2 390.5 401.7 398.1 408 403.1 389.1 371.5 365.7 360.4 352 347.5 335.4 326.8 318.1 323 315 304.6 295 284.9 271.2 257.3 243.6 232 221.1 209.6 207.5 207.5 207.5 207.5 207.5 207.5 207.5 207.5 207.5 207.5 207.5 207.5 210.6 220.7
361.9 359.1 355.5 354.8 362.5 365.6 367.9 369.6 369.3 369.5 365.9 364 359.3 350.4 346.9 340.1 332.1 331.9 331.9 331.9 331.9 331.5 335 335 336.1 335.5 335.9 339.1 336.3 337.1 337.3 337.2 336.3 335.3 333.5 332 328.5 328.9 323.9 319 315.5 296.2 316.3 323.5 332.7 336.1 350.7 360.4 373.4 384.1 394.6 391.4 389.2 387.9 388.3 392.6 393.9 392.1 386.2 380.1 370.6 368.7 358.2 358.2 358.2 358.2 360.5 360.5 362.3 366.8 381.4 400.7 408.6 412.9 431.2 447 451.7 468.8 470 466.4 459.5 452.2 450.9 450.6 447.8 450.7 464.3 463.4 464.1 461.4 464.9 452.2 443.2 455.6 458.7 449.7 440.4 436.1 425.7 415.6 407.6 405.3 414.1 408.6 400.6 391.4 376.3 364.9 358.7 357.6 346.5 340.4 339.2 341.6 345.1 352 362.6 364.3 363.6 368.4 367.6 367.9 376.5 381.6 400.7 402.2 409.6 419.5 428.8 434.7 440.1 444.8 448.2 452.7 457.2 460.8 462.7 473.4 477.9 479.5 479.5 483.3 485.4 487 491.8 496.4 505 498.1 484.6 470.3 460 443.5 429.6 418.4 404.1 389.7 377.1 379.9 381.2 376.4 376.1 389 402.4 410.7 418.6 405.6 390.2 376.4 373.3 370.3 361.8 354.9 348.8 338.5 327.9 315.5 313.4 305.1 296.8 283.3 272.6 259.6 249.2 232.9 224.8 213.1 207.5 207.5 207.5 207.5 207.5 207.5 207.5 207.5 207.5 207.5 207.5 207.5 216 224.2
369.2 367.9 361.3 357.4 359.7 371.3 372.2 373.3 373.4 370 367.6 363.7 358.5 351.3 344.1 339 333.2 331.9 331.9 331.9 331.9 334.5 334.8 337.7 336.7 336.5 335.1 334.9 335.5 335.6 337.5 337.6 336.7 335 333.3 331.8 330.2 329.5 325.8 322.3 316.2 316.9 320.4 323.9 330.8 333.1 346 361.5 373.8 383.4 389.4 394.6 394.5 397.2 397.7 393.9 396 397.4 387.7 378.1 371.4 368.2 358.2 358.2 358.2 358.2 358.2 358.2 358.2 372.3 390.4 403.9 410.9 423.4 442.7 459.4 460.2 466 466 463 461.8 456.7 451.5 448.7 458.9 469.3 471.6 471.6 469.2 461.5 451.1 444 447.4 459.3 456.4 445.9 433.7 425.6 416.5 409 404.4 403.4 407.2 400.1 393.9 386.6 365.9 357.7 356.7 358.5 347.9 339.2 338.3 341.2 338.7 338.1 343.1 344.8 347.5 353.2 354.1 354.7 364.4 368.8 381.7 386.3 404.9 416.3 430.7 444.7 451.2 451.3 465.5 461.4 459.4 459.9 455.9 466.1 462.4 465 461.3 463 468.9 473.9 475 485.7 490.1 482.7 472.2 462.8 450.3 437.5 423.7 413.3 393.4 381.8 375.1 375 376.3 379.8 379.2 391.2 401.1 409.6 414.6 408.7 390.9 389.8 384.2 376.1 368.4 363.7 357.9 345.6 327.1 314.4 302.6 299.5 292 284.9 280.2 259.1 251 235.2 221.3 213.9 207.5 207.5 207.5 207.5 207.5 207.5 207.5 207.5 207.5 207.5 207.5 207.5 218.1 225.5
372.7 372.8 366.7 360.3 359.2 368.2 375 375.8 373.9 370.3 365.7 361.5 362.1 349.3 340.6 335 332.1 333 331.9 332.2 331.9 331.9 334.8 339.2 339 335.8 335.1 334.4 335.2 337.5 335 340.9 341.3 337.9 332.7 330.8 330 327.5 324.4 324.5 317.9 320.5 322.3 325.5 330.4 337.1 346 355.3 371 381.1 388.4 397.5 402.7 404 407.3 401.3 396.5 395 387.4 381.6 371.2 365 358.5 358.2 358.2 358.2 358.2 358.2 365.7 376 387.4 401.4 420.9 436.1 461 461.4 460.4 461.7 465.9 462.9 463.5 456.4 452.1 449.8 453.7 462.1 462 460.4 458.2 449.1 438.8 438.7 457 457.5 450.9 441.7 435 426.5 421 414.4 401.9 405.4 403.6 400.9 392.2 382.6 356.6 356.8 350 343.8 337.4 329.8 330.2 335.4 336.9 331.5 326.2 326.8 328.5 333.2 333 341.2 348.6 357 363.5 370.1 383.4 399.3 411.8 423.6 435.3 450.2 458.4 454.3 452.6 450.4 451 460 455.7 449.7 447.5 449.9 453.2 454.1 462.2 469.1 469.4 468 457.2 447.1 432.9 423.9 414.6 401.1 385.7 375.1 373.1 374.7 378.4 378.9 379.7 393.3 400.2 411.7 416 418.3 410.1 402 391.3 384.1 381.4 370.1 361.5 346 335.8 322.3 311.1 302.2 294.4 290.3 275.7 259.5 247.6 231.6 218 207.5 207.5 207.5 207.5 207.5 207.5 207.5 207.5 207.5 207.5 207.5 207.5 209.1 219.9 227.8
374.7 374 372.3 367.5 362.9 362.5 371.4 373.3 371.8 364.8 364.4 365.1 363 351.6 337.7 333.5 331.7 334.3 334 333.2 333.8 333.1 336.5 340.2 338.5 335 334.1 334.8 334.7 333.6 333.5 337.6 340.9 333.1 331.8 329.6 329.4 330.9 328 327.1 320.5 323.4 324.8 329.1 336.1 343.1 350 358.5 369.6 382 388.2 403.5 410.3 408.6 407.5 401.7 403.1 403.6 390.1 383.7 372.4 363 358.2 358.2 358.2 358.2 358.2 358.2 363.7 374.6 391.3 413.1 428.7 446.7 455.7 466.5 465.5 467.9 463 457.9 456 447.5 440.6 442.9 446.3 449.8 449 446 442.9 434.3 430.3 439 442.7 448.5 445.2 441.5 436.5 435.3 430.1 420 402.5 407.2 399.9 395 385.7 368.2 350.5 343.7 339.1 333 327.5 327.6 325.4 334.7 331.3 322 318.9 322.3 319.6 318.9 320.7 326.1 330.5 343.8 346.4 356.6 368.8 384.5 400.6 409.2 419.6 435.2 437.6 435.4 437.3 427.4 434.1 440.6 440.6 443.2 438.2 437.3 439 441.9 451.8 452.6 456.9 452.8 446 433 422 413.6 401.4 392.5 382.2 375.5 373.3 380 376.3 376.3 373.1 376.3 395.2 412.3 422.4 427.6 422.2 407.6 396.5 390.8 381.9 382.2 370.4 351 342.3 331.2 317 310.7 294.8 281.7 265.8 256.8 239.6 227.4 209.9 207.5 207.5 207.5 207.5 207.5 207.5 207.5 207.5 207.5 207.5 207.5 207.5 217 225.6 231.1
376.3 378.5 376.9 371.9 368.3 361 364.4 371.2 365.6 364.3 365.5 364.8 357.1 350.5 337.5 334 332.8 333.9 333.7 333.8 334 333.7 334.4 335.5 334.9 333.6 333.3 333.2 333.3 333.6 334 333.6 333.2 336 335.7 333.7 332.4 330.9 330.7 324 322.7 326.7 326.5 332.8 341.8 347.4 356.7 363.4 369.9 383.9 386.2 395.6 402 412.5 415.8 418.6 413.9 406.9 397.2 386.7 377.1 364.9 359.9 358.2 358.2 358.2 358.2 370.2 384 404.4 410.4 415.3 424.1 435.9 447.4 457.1 457.7 457.1 454.5 446.9 440.5 436.6 431.9 429.9 428.4 430.6 431.9 430.1 425.3 423.4 421.8 431.2 443.1 447.6 438.4 437.4 445.4 442.5 435.6 420.7 396.8 392.4 389.9 377.9 365.6 356.1 342.1 334.2 325.5 324.3 319.1 323 320.1 321.1 318.9 307.3 308 311.5 314.2 313.7 313.1 316.1 320.9 329.9 333 343.9 355.6 367.1 393 400 407.5 415.8 423.7 416 413.3 412.3 415.5 419.8 424.9 427.6 429.2 428.9 427.6 430.2 437.4 441.3 440 440.9 435.3 429.9 414.7 402.2 393.6 386.9 377.6 373.4 376.5 376.8 372.2 370.8 365.3 363.5 383.4 402.3 416.7 421.4 418.3 409.8 405.1 402.3 394 384.9 376 359.3 343.4 325 314.1 302.8 286.9 270.2 259.5 250.7 237.1 227.2 207.5 207.5 207.5 207.5 207.5 207.5 207.5 207.5 207.5 207.5 207.5 207.5 215.2 219.4 226.6 236.6
379 378.8 379.4 375 369.3 364.4 357.7 363.3 362.1 363.1 363.1 358 349 341 336.5 334.2 336.5 336 334.5 333.7 333.7 334.1 334.7 334 334.7 333.3 333.5 333.4 332.4 333.2 333 332.7 336 340.8 341.1 338 335.5 331 326 322.8 325 327.4 327.8 335 345.2 349.7 366.2 369.3 372.5 381.1 387 397.4 406.3 416.8 427.8 421.6 411.2 408.1 404.3 388.8 378.2 367.5 366 358.2 358.2 361.1 374.2 398 409 421.4 429.1 429 439.3 457.1 453.2 453.5 453.4 461.7 450.3 436.5 425.4 421.5 421.2 418 415.7 418 414.7 418.5 414.2 414 422.6 428.3 437.6 436.7 440.6 443.2 445.1 434.9 424.1 409.9 384.6 379.3 376.7 364.6 354.9 342.7 341.3 332.4 321.3 322.5 319.1 321.4 317.2 322.7 312.4 305 304.3 307.3 311.4 308.5 312.2 315.1 317.8 319.7 321.6 330.4 343.1 355.4 369.8 378 390.3 404.8 401.3 401.8 404.1 407.8 409.3 413.3 419.9 419.3 417.7 416.8 416.1 418.5 420.1 425.5 429.8 431.5 422.5 415.2 408.1 397.6 390.4 387.1 379.5 372.5 382.7 380.5 370.8 363.7 357.6 356.3 365.5 388.9 411.1 420.7 420.6 416.7 416.4 409.4 395.3 381.7 367.8 353 335.7 322.7 308.3 291.7 278 267.3 254.9 243.5 230 217.7 207.5 207.5 207.5 207.5 207.5 207.5 207.5 207.5 207.5 207.5 207.5 211.5 218.8 222.6 230.8 238.6
379.4 379.8 379.4 375.8 370.7 365.6 356 353.3 358.4 358 354.6 350.2 341.3 335.6 336 336.2 337.7 337.6 335.7 334.4 333.9 333.6 335 335.3 334.8 334.2 335.9 333.9 333.8 332.6 332.9 335.1 340.9 343.7 346.1 341.7 338 331.8 324.8 322 321.1 324.4 327.7 336 346.4 365.1 365.8 377.7 381.5 385.9 390 402.7 417.2 426.1 426.6 420.2 413.6 415.6 406.7 392.3 384.2 372.1 368.1 359 364.3 363.6 383.3 396.5 409.3 424.6 435.9 439.7 439.1 445.5 453.9 462.7 464.8 465.7 450.6 441.4 431.1 410.9 407.4 410.2 409.3 405.6 401.4 404.1 401.1 412.4 420.4 422.5 431.6 436.2 437.4 433.1 425.6 417.4 405 393 371 364.7 359.1 351.2 344.4 340.3 344 333.6 320.1 316.5 318.9 321.5 316.5 312.5 306.8 303.8 301.4 303.2 308.1 308.9 308.8 315.8 316.4 317.5 320.6 324.6 331.3 344.8 355 363.2 380.7 388.1 392.9 395.6 402.3 402 398.6 404.5 407.2 404.3 408.3 409.1 408.8 404.1 405.7 414 416.7 413.9 410.3 404.5 395.8 388.6 386.2 380.4 374.2 372.5 378.6 382.3 369.6 362 354.7 351 358 369.6 397.4 410.7 413.4 415.9 408.4 394.7 379.6 368.2 360.8 342.6 329.5 321.6 300.8 286.8 273.3 264.7 250.9 237.6 219 207.5 207.5 207.5 207.5 207.5 207.5 207.5 207.5 207.5 207.5 207.5 207.5 215.1 220.5 229.7 236.8 244.9
377.7 379.2 379.6 376.6 369.6 364.5 356.2 348.5 351 348.3 343.1 337.8 335 335.6 335.9 336.9 337 337.1 336.7 336 335.1 334.9 334.9 335.2 334.7 334.5 335.5 335.1 333.4 333 333.5 338.2 342 348.7 348.6 345.5 340.1 332.9 321.4 317.1 317.2 317.8 321.3 330.6 339.7 356.9 364 375.2 384 390 397.4 410.3 419.8 436.4 434.8 430 422.2 421.8 407.7 394.7 389 373.4 367.7 360.2 371.1 365.8 367.8 379.1 389 409.8 426 437.3 450.4 462 465.4 456.5 455 452.5 445 425.3 413.6 405.7 401.2 402.8 402.5 398.8 390.1 387.5 393.5 402.7 415 414.6 421.5 431.3 424.2 416.7 413.5 401.2 388.9 377.3 362.2 356.4 347.9 341.2 334.3 338.4 335.4 326.4 318.7 316.5 315 325 310.6 307.6 305.5 302.8 300.3 301.6 304.6 303.1 307.8 316.3 317.6 320.5 322.2 322.1 323.6 330.5 342.7 354 367 374 384 391.2 397.6 394.7 388.2 403 397.2 399.7 393.8 393.3 393.2 400.1 397.3 399.7 405.8 402 394.8 389.4 378.3 377 375.9 372.1 368.6 372.6 377.9 379.2 367.1 361.1 354.3 347.4 353.7 362 374.2 390.3 399 401.2 400.7 384.7 368.7 357.8 348.9 339.3 323.3 312 293.7 276.8 269.2 257.7 243.3 226.4 211.1 207.5 207.5 207.5 207.5 207.5 207.5 207.5 207.5 207.5 207.5 207.5 207.5 216.3 222.9 231.1 240.7 249
378.3 380.7 377.5 374.6 368.7 360.8 354.7 350 345.8 343.9 339.8 336.1 335.7 335.9 337.9 338.9 337.3 337 336.6 335.2 335 335.8 335.1 335 334.3 337.1 339.2 336.8 336.1 334.6 337.8 341.7 346.8 349.6 349 348 341 334.6 317.5 310.1 305.8 307.4 311.1 319.4 331.4 345 358.1 365.5 380.4 388.4 401.6 411 422.3 431.3 435.8 430.9 430.5 430.7 422.8 404.8 390.4 377.7 368 362.6 360.4 365 368.2 384.7 402.9 419.4 436.5 446.7 459.7 461.6 461.8 449.7 444.5 440.3 436 425.1 412.9 405.3 393.3 388.7 387.8 387.9 377.1 382.2 392.4 399.3 399.3 402.7 415.4 414.8 412.5 403 399.1 386.8 377.9 366.7 351.9 348.6 340.1 330.9 328.7 327.1 326.2 322 317.2 313 310.5 311.1 307.3 304.8 304.8 302.5 300.5 299.4 299.6 306 311.7 321.9 321.5 325.5 325.6 329.2 328.4 330.2 331.7 344.3 356.5 362.1 368.7 375.1 386.5 381.1 382.2 388.9 388.2 392.8 388.8 389.6 388.7 386.6 388.3 392.2 392.9 386.3 378.8 370.5 367.4 367.6 366.4 364.2 366 375.1 379.7 385.8 368.2 361.2 356.1 345.6 348.1 355.6 369.6 374.8 377.1 383.8 390.4 376 361.1 346.6 337.2 325.3 316.9 299.3 282 269.6 258.3 247.1 236.8 219.2 207.5 207.5 207.5 207.5 207.5 207.5 207.5 207.5 207.5 207.5 207.5 207.5 207.5 217.6 226.2 235.3 244 255.3
371.9 371.8 371.4 369.2 366.9 359.5 354.5 352.9 345.9 345 341.6 337.2 340.7 337.1 339.7 343.1 342.9 338.3 337.4 336.7 335.9 336.4 336.1 335.2 335.5 336.5 340.2 342.8 340.9 341.7 341.5 346.7 354.1 357.8 355.6 349.7 342.3 327.8 317.4 308.6 304.1 301.4 305.1 307.3 318.7 327.5 336.6 345.5 361.7 380.7 399.5 413 421.3 432.2 440.5 434.8 435.9 438.5 428 403.5 390.6 382.9 371.9 366.6 368.8 370.4 370.4 389.2 402 417.6 435.2 445.6 451.2 451.5 449.2 440.9 432.7 426.4 422.5 415.5 406.2 398.5 386.7 375.4 371.8 373.3 371.2 385 390.2 388 393.3 389.9 397.7 402.6 392.7 383.1 379 370 360.6 350.1 342.3 339.2 330.1 326.5 329.9 332.4 329.8 325.6 320.3 314.7 309 306.4 302.9 304.3 304.6 305.4 299.2 299.7 302.7 308.4 313.2 322.2 323.1 326.5 328.2 331.8 338.2 343.4 342.4 346.9 349.3 355 358.9 363 368.1 370.2 372 375.1 378.2 382.1 385.1 383.7 380 380.8 382.8 377 374.2 373 363.4 358.2 357.8 356.1 361.1 354.5 366.3 375.6 378.6 379 365.3 365.1 357.6 338.5 341.2 346.2 351.5 358.7 361.4 366.5 375.3 369.5 357.4 341.7 329.4 314.2 303.1 289.5 277.1 263 251.7 237 222.2 207.5 207.5 207.5 207.5 207.5 207.5 207.5 207.5 207.5 207.5 207.5 207.5 207.5 207.5 219.9 230.1 239.3 248.1 258.3
369.9 370.7 373 369.1 366.5 361.8 357.4 352.3 346.6 342.3 340.8 338.1 340.2 339.5 341.4 342.8 341.7 342.7 342.5 339.6 336.4 335.9 336.7 335.5 334.9 336 340.2 342.7 345.2 345.7 347.1 355.9 358.6 362.7 364.6 355.2 344.3 326.1 313.3 305.7 305.4 299.9 299.9 303 304.9 311.1 320.9 328.8 345.3 357.8 386.2 405 422.3 428.9 433 432.9 440.5 439.8 429.8 406.5 399.2 395.1 379.4 368.1 366.2 367.4 372.4 393.4 410.5 422.8 435.9 442.6 446.7 439.3 435.5 430.4 422.7 413.2 410.4 400.1 394.2 389.7 377.6 370.1 363 361.5 372.8 382.4 389.8 379.9 382 380.4 383.8 382.5 377.4 372.1 367.4 359.5 350 339.9 334.5 330.4 322.9 327.9 331.2 334.8 330.3 328.2 323.5 322.4 316.1 311.5 304.4 301.2 303.1 299.5 298.6 300.5 304.9 308.6 313.9 321.6 324.6 329 332.2 338.1 346 347.7 353 359.6 361.6 359.3 361.3 363.6 365.4 363.5 364.2 366.5 372.4 378.4 380.1 378.8 376.6 376.1 372.1 368.6 360.8 356.8 348.8 346.1 344.1 343.9 346.6 343.2 363.2 371.1 373.5 367.6 358.7 350.1 342.7 330.1 330.5 337.2 339.3 345.5 352.4 360.8 356.4 361.8 351 330.3 324.3 305.2 293.1 287.9 271.6 256.7 238.7 224.7 207.5 207.5 207.5 207.5 207.5 207.5 207.5 207.5 207.5 207.5 207.5 207.5 207.5 207.5 213.8 223 231.9 242.9 253.5 265.2
369.8 371.1 372.3 367.9 366.1 363.6 358.1 356.5 352.9 343.2 339.2 340.9 342 341.8 342.8 344.2 345.7 345.6 347.9 344.3 337.9 336.7 336.5 335.9 335.7 336.7 338.6 342.4 350.6 357.2 363 365.6 361.1 367.2 368.5 360.3 348.5 321.5 308.4 303.8 301.2 300.7 298.3 300.3 301 303.7 303.7 311.8 323.6 350.5 372.5 397.2 412.1 421.3 427.6 430.6 443.9 436.2 422.9 413 412.1 400 386.5 369.6 367.9 373.1 377.9 396.6 412 427.9 437.8 442.6 439.7 433.4 428.4 420.4 411.5 403.1 396.9 388.6 383.4 377.5 368.9 360.9 360 355.3 365.7 374.8 382.5 371.4 372.5 374.2 373.6 366.6 364.9 363.1 357.5 351.6 342 332 326.1 320.9 318 324.3 324 327 327.7 332.6 322 321.8 317.6 317.4 307.4 301.3 300.1 297.8 299.2 301.1 303.4 306.6 318.3 323.3 325.8 333.4 342.1 345.3 350.9 351.8 353.6 361.1 359.2 361.9 363.4 364.1 362.7 364.5 365.6 369.9 377.3 384.5 384 374.3 370.1 370.6 362.9 358.4 351.5 343.9 339.1 335.3 333.4 332.3 333.2 334 342.6 348.8 355 355.8 348 334.8 331.7 321.6 323.7 327 331.4 336.9 344.5 354.3 350.4 343.4 337.6 321.1 308.5 290.8 285.6 275.1 260.5 243.2 227.2 207.5 207.5 207.5 207.5 207.5 207.5 207.5 207.5 207.5 207.5 207.5 207.5 207.5 207.5 207.5 215.5 223 233.6 245 256.8 271.2
369.2 369.1 370.4 368.4 365.1 361.4 361.5 361.3 355.9 345.8 339 342.4 341.5 343.6 346.3 347.9 348.6 349.5 351.4 348.6 345.9 341.6 340.1 339.9 337.5 338.5 343.9 351.3 359.8 372 376.9 375.5 366.6 373 379 363.7 344.4 317.8 305.4 302.5 300.2 298.8 297.7 299 298 299.1 301.2 303.7 312.3 331 348.5 384.7 398.2 407.8 425.2 425.1 434.6 429.7 422.3 423.7 422 409.2 386.1 376.6 369 379.6 381.1 389.7 409.8 424.8 434.7 441.5 436.2 429.6 417.7 407.6 397.5 386.1 377.8 376.2 371.7 361.1 355.4 350.7 347.6 355.5 361 369.8 378.2 364.4 364.8 363.9 362.5 359.4 358.9 354 349.3 343.1 335.3 324.1 319.6 311.6 315.7 320.1 321.2 321.1 322.7 322 320 319 318.7 319.5 313.9 302.2 297.6 298.1 299.3 301.4 303.7 305.2 317 322.1 328.8 336.7 342.9 349.9 358 353 352.9 355.8 352.1 356.9 357.9 358 361.9 365 366.4 370.6 374.9 376.2 373.9 374.4 366.5 359.7 354.5 346.7 338.6 332.8 331.1 328 322.9 320.7 322.1 321 327.1 331.7 333.3 332.9 331.8 323.4 319.2 313.8 313.1 315.4 324 325.9 339.3 347 339.9 331.1 321.5 304.7 290.4 283.6 273.5 262.6 245.7 232 212 207.5 207.5 207.5 207.5 207.5 207.5 207.5 207.5 207.5 207.5 207.5 207.5 207.5 207.5 207.5 220 227.8 235.3 247.4 260.8 274.8
368.9 369.6 369.6 370.8 364.7 366.6 364.9 362.6 358.6 350.8 343.4 340.2 341.8 345.4 347.9 352.7 353.6 354.3 355.8 356.6 356 352 346.9 342.7 344.5 345 351.8 360.1 368.6 376.9 384.2 375.8 371 374.2 368.8 357.3 341.2 315 309.4 305.6 302.4 299.8 297.9 297.2 297.6 297.6 297.6 302.5 309.6 320.6 331.6 352 379.5 400.4 414.8 419.2 432.2 431.8 428.4 424.6 419.7 408.2 381.9 375.9 377.3 372.9 383 391.9 403.7 419.7 428.8 429.4 428.8 422.3 410.5 396 386.2 374 367.9 368.3 355.3 351.7 345.1 344.9 343 355.3 353.7 362.8 366.7 360.9 353.9 355.3 356.1 352.1 351.1 345.5 342 336.5 332.9 312.5 309.1 308.5 313.8 316.3 321 319.7 321.2 321.3 318.8 317.4 317.6 315.2 308.1 299.7 297.1 297 298.1 300.5 302.2 304.5 316.4 321.8 331.4 334.1 342 350.7 355.8 355.3 352.3 349.2 345.4 349.8 351 351.1 355 361.4 363 368.6 377.5 369.6 367.6 368.6 365.1 353.6 342.9 337.7 328.4 327.9 327.2 321.5 316.9 314.7 311.8 308.5 311.5 315.5 316.2 318.7 316.8 311.6 306.7 305.4 302.6 306.3 309 311.9 323.9 332.8 331.4 318.8 310.4 291.3 282.4 272.1 260.5 249.7 235.3 218.5 207.5 207.5 207.5 207.5 207.5 207.5 207.5 207.5 207.5 207.5 207.5 207.5 207.5 207.5 207.5 214.5 223.5 230.8 242.4 250.6 264.6 277.7
368.8 371 371.2 369.8 366.1 369.3 371.3 366.9 362.3 357.7 350.7 341.7 342 346.6 348.6 352.1 357.4 359.6 359.1 364.1 366.3 361.5 358.5 352.9 354.2 352.7 362.4 368.4 375 383.5 384.8 379.1 374.9 368.5 361.4 350.9 333.6 314 310.2 306.2 305.5 300.5 297.9 297.2 297.2 296.7 296.8 297.8 302.5 315.8 325.4 346.1 368.5 382.4 398.4 406.2 416.5 424.5 426.5 419.1 411.9 398.9 377.1 373.9 374.2 376.3 392 404 411 423 431.5 430.5 428.2 417.2 405.9 396.2 384.1 367.6 360.7 359.8 347 346.2 340 338.7 341.8 348.8 350.1 353.7 352.9 349.2 344.8 347.3 347.2 340 340.6 337.2 330.5 328.9 321.3 311.2 307.8 309.6 313 315.5 320.9 320.6 319.5 319.7 317 316.2 314.1 310.6 303.8 298.6 297.3 296.2 296.8 299.9 301.1 303.3 309.9 314 327.6 329.6 342.4 349.6 356.9 355.7 349.9 343.5 341.2 345.9 348.6 348.4 353.8 357.2 361.5 361.6 362.4 362.8 363.9 364.1 360.7 344.6 336.3 328.2 321 318.6 319.1 310.8 312.8 309.9 307.3 302.7 306.3 304.9 305.4 304 303.5 301.2 300.3 297.1 296.1 293.6 294 296.6 301.4 303 299.6 295.4 288 280.6 275 266.2 250.1 235.9 222.2 210.3 207.5 207.5 207.5 207.5 207.5 207.5 207.5 207.5 207.5 207.5 207.5 207.5 207.5 207.5 207.5 208.8 222.7 234.7 245.6 255.4 267.7 281.5
369.2 369.8 370.5 371.7 368.1 373.5 372.9 367.2 364.5 360 347.8 343.2 342.1 348.6 353.9 356.7 360.5 365.3 369 370.2 374.7 376.5 379.8 375.7 369.3 367.7 370.6 373.8 376.5 391.9 400.9 407.4 390.2 374.7 358.5 350.3 325.6 311.2 306.7 304.6 302.8 298.7 297.9 297.2 296.8 297.1 296.9 296.8 300.9 312.1 332.1 354.7 370.5 376.1 388 394.6 403.7 418.5 422.6 413.2 405.7 391.2 374 372.6 375.7 378.4 395 409.4 415.8 421 425.8 426.2 420.6 411.9 399.5 388 376.7 359.2 355.4 354.5 342 341 338.2 336.8 340.3 344.1 346.7 340.4 335.9 336.1 339.4 337.1 336.5 333.9 332.3 329.6 324.5 322.8 315.6 307.6 306.3 309.6 311.5 315.3 321.3 320.3 318.8 318.7 318 316.3 310 304.4 300.1 299.1 298.6 295.4 296.2 303.1 302.6 303.7 309.4 310.6 319.5 321.9 340.7 345.5 351.8 351.4 345.1 338 337.2 339.5 336.8 343.6 353.2 355.5 360 360.6 361.1 359.5 356.1 356.5 346.2 338.1 326 321.2 320.5 314.3 310.2 304.8 300.3 299.5 302.6 298.4 298.2 298.7 298.1 294.4 296.1 295.2 292.5 292.1 292 286 285 285.1 288.6 289.3 286.3 280.6 273.6 272.2 268 260.5 244.7 230.1 221.1 207.5 207.5 207.5 207.5 207.5 207.5 207.5 207.5 207.5 207.5 207.5 207.5 207.5 207.5 207.5 207.5 215.7 226.5 237 248.7 260.2 269.8 282.4
