ncols 200
nrows 82
xllcorner 260000
yllcorner 61200
cellsize 50
454.5 457.1 458.1 458.9 458.6 457.9 458.3 461.2 463.2 467 469.4 471.8 474.2 475.9 477.5 478.4 479.5 480.7 480.8 480.2 479 476.8 475.6 474.6 474.1 472.5 470.9 467.4 464.1 461.6 462.5 464.5 466.1 466.3 465.5 464.6 463.7 463.3 462.7 462.1 462.6 462.9 461.9 460.6 459.2 457.8 456.4 454.7 452.8 451.3 449.9 448 445.6 443.6 441.7 439.8 438.1 435.2 431.8 428.5 425.3 421.4 417.3 412.9 407.4 403.3 399.8 396.7 395.9 394.7 393.2 391.8 389.6 387.2 385.1 383.8 381.5 375.6 364.5 374.7 382.2 388.4 392.1 395.5 398.4 399.9 401.4 403 404.9 405.6 407.6 409.7 410.5 412.2 414.3 417.9 421.3 425.4 429.8 434.5 440.3 445 449.8 455.4 459.1 462.9 467.2 470.4 473.3 475.9 476.5 475.4 473.7 471.8 469.8 467.4 465.5 464.2 463.3 462.2 461.2 461 461.8 462.9 464 465.5 466.6 467 466.7 465.7 464.1 461.4 458.9 454.8 452 448.3 444.5 440.3 434.8 428.8 420.4 410.3 398.6 393.2 388.3 385.3 382 378.3 373.7 367.8 362.6 353.7 342.5 342.5 342.5 342.5 342.5 342.5 342.5 342.6 350.6 358.2 364.6 368.5 373.4 376.5 379.1 380.8 381.4 381.4 382.1 381.7 380.5 379.3 376.4 373.8 371.4 369.6 369.3 370.4 371.7 372.8 373.3 372.7 370.5 368.3 365.2 361.6 358.4 357.6 356.2 355.2 353.6 351.5 348.6 346 342.9 339.6 335.9 332.1
457.4 460.2 461.7 462.5 462.9 462.6 461.2 462.5 465 468 470.3 472.6 475.2 477.6 479.6 481 481.6 482.4 482.7 481.8 479.3 476.1 474.2 472.5 471.7 470.1 467.7 464.2 460.9 458.5 459.9 462.1 463.8 464.6 464.6 463.9 462.5 461.8 461.2 460.9 461.2 461.6 460.8 459.9 458.4 456.8 454.6 452.4 448.9 448.8 447.3 444.8 442.3 440.5 438.8 438.2 436.8 434.5 432 429.6 426.6 423.4 419.5 414.7 409.5 405.3 401.8 397.4 391.4 390.2 389.2 387.4 384.8 383.4 381.9 380.2 375 363.1 364.9 370.1 377.4 383.8 387 389.9 393 394.8 395.6 397.1 398.9 401 403.3 405.1 406.9 408.2 410.2 413.8 417.5 421.7 425.6 430.4 435.3 439.6 444.8 450.2 454.7 459.2 464.1 468.2 471.9 474.6 475.8 475.7 474.6 472.6 471.4 470.1 468.5 467.2 466.6 466 465.3 464.9 465.5 466.4 466.7 468.6 470.5 470.2 471.4 469.8 468.7 467.4 464.9 462.4 458.1 453.9 450 445.7 441 435.6 428.2 419.9 409.6 402.5 397.9 393.9 390.8 386.3 381.4 375.4 369.1 362.5 347.8 342.5 342.5 342.5 342.5 342.5 342.5 337 344.3 353.5 360.6 365.2 369.3 372 373.8 374.8 375.6 375.9 375.9 376 375.6 373.7 371.4 368.8 367.3 366.2 368.3 369 370.7 372.5 372.7 371.9 369.2 366.2 362.6 357.9 355.1 354.3 353.6 353 351.6 350 348 345.5 342.9 340.2 337.7 335.2
459.3 462.2 464.8 466 466.4 466.5 465.9 465.3 465.9 468.4 470.9 474.2 477.4 479.7 481.9 483.4 484.1 484.7 483.8 482.6 479.9 476.1 472.9 469.4 468.2 467 465.2 462.5 459.1 455.8 456 459.3 461.6 462.9 463.5 463 461.6 460 459.5 459.3 459.5 460.2 459.1 458.7 457.2 455.4 452.7 450.9 448.5 444.3 442.5 440.8 437.9 436.4 435.5 436.1 435.4 433.4 431 428.5 425.6 423.5 420.2 415.9 411.1 406.2 402.5 398.1 394 389.4 381.3 381.8 379.3 378.4 377.3 375 363.1 360.1 361.5 366.8 373.4 378.9 381.9 385.2 387.6 389.7 390.9 392.4 395 397.1 399.1 400.6 402.6 405.1 407.9 411.5 414.9 418.6 422.5 427.5 432.3 436 440.9 445.8 451.4 456.3 460.9 465.3 469.2 472.3 474.1 474.4 474.1 473.2 471.8 470.6 469.5 468.5 467.7 467.7 466.7 466.9 466.6 468 468.8 470.5 471.6 472 473 472.8 471.8 470.3 468.2 465.2 461.3 456.9 452.8 448.5 443.6 438.9 432.5 425.1 417.6 411.7 406.7 402.5 398.7 394.2 389.8 384.3 378.8 371.5 362 348.7 342.5 342.5 342.5 329.8 312.4 323.8 338.8 348.5 356.3 361.6 364.5 367.2 368.8 369.2 369.4 369.7 369.6 370.1 368.9 367.5 366.1 364.3 363.7 364 365.7 367.5 369.8 371.6 372.5 370.8 368.6 364.9 360.9 356.8 353.4 351.2 350.4 349.7 348.6 347.5 346 344 341.8 339.7 338.1 336.3
460.7 464.1 466.8 468.8 469.9 470.1 469.5 469.5 469.1 470.9 473.5 475.7 478.8 480.9 483.1 485 485.8 485.8 484.7 482.6 479.7 476.4 472.4 467.3 464.5 463.2 461.6 459.2 456 451.4 453.1 456.1 459.1 460.7 461.6 461.6 459.7 458.4 457.5 457.2 457.9 458 457.4 457.1 455.4 453.3 451.4 449.6 446.3 443.7 440 436 433.4 431.6 431.9 433.3 433 431.6 429.2 426.9 424 422.2 419.3 415.6 410.9 406.4 402.4 398.1 394.6 391.3 386.3 379.7 371.2 371.8 371.6 368.5 358.5 357.9 360.1 365 369.9 374.5 377.7 380.2 382.5 385 387.1 388.8 391.6 393.8 396.1 397.9 400 402.7 405.8 408.7 412.2 416.2 419.9 424.4 428.7 432.4 436.9 442.6 448.1 453.2 457.6 462.3 466 469.3 471 471.8 472 471.1 470.1 469.1 468.3 468.1 467.8 466.9 466 466.1 466.5 467.4 468.5 469.4 470.3 470.8 471 471.3 470.5 469 467.3 464.5 461.1 456.6 452.7 448.5 444.4 440.1 434.8 429.4 423 418.3 413.8 408.9 405.3 401.4 397.1 392.4 387.2 381 373.5 365.1 356.7 347 340.8 328.3 315.7 316 333 342.7 351.8 356.8 360 361.7 362.1 362.8 363.7 363.9 364.1 364 362.7 362.3 361 359.1 361.1 361.2 363.8 367.2 369.6 370.8 372.2 370 368.1 363.7 359.9 355.5 351.4 348.2 345.6 345.4 345.2 344.1 343 340.8 338.6 337.6 337.2 336.1
462.8 466.1 468.9 470.9 472 473.1 472.8 472.2 471.7 473.1 474.6 477 479.8 481.8 483.6 485.1 486.4 485.8 484.7 482 479 476 472.3 467.3 460.7 458.3 456.4 454.2 450.8 446.7 449 452.7 455.9 457.9 459 458.5 457.5 457 455.7 455.4 455.9 456.5 455.7 454.6 453.4 451.2 449.8 447.9 445.2 441.2 437.4 433 429.4 427.6 427.7 429.9 429.6 428.7 426.4 423.6 420.8 419.4 417.1 413.9 410.4 405.6 401.2 397.2 394.2 390.8 387.5 382.2 374.8 363.6 362.4 357.7 356.6 357.4 359 361.9 363.7 366.6 370.4 375.1 378.4 380.7 382.7 385.8 388.1 390.9 393.5 395.6 397.6 400.1 403.4 406.4 410.2 413.9 417.9 421.8 425.8 429.8 434 438.6 444.7 450.1 454.5 459.2 463 465.9 467.5 468.8 468.7 468.2 467.4 466.6 465.9 465.7 465.2 465.4 464.9 464.8 464.6 465.1 465.8 466.7 467.1 467.5 467.7 467.4 466.4 465.7 463.3 460.7 457.3 453.9 450.7 447.1 443.5 439.3 435.3 430.6 426.4 422.2 417.6 413.5 409.7 406.4 402.5 397.6 392.5 387.1 380.8 372.6 364.3 354.9 344.6 331.6 315.1 310 327.8 338.1 345.9 351.1 354.5 356.2 356.4 358.2 357.4 357.8 356.9 357 356.8 355.9 355.7 356 357.8 359.9 363.7 367.2 369.6 371.4 372.4 371 367.8 364.2 360 355.7 350.7 345.7 342.2 340.6 340.4 339.5 338 336.1 333.8 335 336.1 335.5
464.6 467.5 470.7 473.3 475.1 475.9 475.5 475 474.7 475.1 476.8 478.7 480.3 482.2 483.7 485.3 485.5 485 483.7 480.7 477.4 474.4 470.8 465.9 460.6 453.3 450.5 448 445.2 441.2 445.2 448 452.2 454.5 455.9 456.3 455.3 454.9 453.4 453.4 455.2 455 454.5 453.4 451.4 449.8 447.3 445.4 443.4 440.2 436.1 432.3 428.3 423.7 422.6 426 426.3 425.5 423.1 420.1 417.5 416.2 414.2 412 408.3 403.2 398.9 394.6 392.2 389.6 385.9 381.3 373.1 365.5 358.2 355.7 354.7 357.5 362.9 362.9 363.8 365.5 368.5 369.7 373 376.2 380.1 383.3 386.3 388.8 391.8 393 395.4 397.8 400.4 402.8 408.8 412.1 415.8 420 423.5 424.2 431.4 436.3 441.9 447.2 452.1 456.4 459.4 462.1 464.3 465.1 464.4 464.2 463.4 462.9 462.3 462.4 462 462 461.8 461.3 460.9 461.1 461.7 462 462.4 463 463 462.3 461.1 459.2 457.6 455 452.2 449.1 446.7 444.4 441 437.8 434.3 431.5 427.9 424.5 420.4 415.9 411.7 408 405.3 401.1 396 390.5 384.3 376.7 368.7 358.8 346.3 328.3 315.1 309.2 323.7 332.6 338.7 343.8 348.2 350.2 351.9 351.5 351.8 351.3 350.6 350.3 349.6 350.4 351.7 353.7 356.1 359.7 364 367.8 369.8 371.8 372.6 370.2 367.2 363.4 359 354.3 349.4 344.1 338.9 335.2 333.8 333 330.7 329.9 329.2 331.7 333.9 335.3
466.1 469.2 472.6 475.2 477.2 478.2 478.1 477.5 476.5 476.3 477.5 480 480.9 482.5 483.8 484.7 484.5 483.3 481.9 479.2 475.4 472.4 468.5 464.1 459.1 453.3 444.7 442.6 440.2 436.3 440.2 443.3 447.3 450.6 452.3 452.9 453.1 452.6 450.7 452.8 453.9 454.4 453.8 452.3 450.6 448.1 445.4 443.1 440.5 437.4 432.9 428.9 424.5 420 417.7 421.4 422.6 422.3 419.7 417.8 414.7 412.7 411.1 408.9 405.3 400.2 394.9 391.3 389.1 386.6 383.5 378.6 370.2 358.5 354.6 352.8 356.3 361.3 364.3 367.9 368.7 368 369.7 371.1 372.5 374.7 376.3 378.3 381.3 385.3 387.7 391.3 393.7 397.2 399.6 402.3 404.6 407 410.3 413.7 417.5 424.4 428.9 435.1 440 444.9 449.8 453.4 456.9 459.2 460.4 461.4 461.4 460.7 459.5 459.2 458.2 457.5 457.7 458.2 457.8 457.4 457.2 457.6 458.2 458 457.6 457.8 457.6 457 455.8 454.1 452.3 450.3 447.5 444.5 442.1 440.6 438.2 435.6 432.9 430.5 427.9 424.8 421.1 417.7 413.4 409.5 406.1 402.4 397.4 391.5 385.5 378.2 370.5 360.1 344.4 324 312.7 308.7 317.8 328.5 334.8 338.6 341 344.1 345.3 344.5 344.9 344.7 343.2 343.3 344.1 346 348.4 352.4 356.2 360.5 364.3 367.2 369.4 370.9 370.1 368.3 364.8 360.5 356.1 351.2 346.2 341 336.1 330.7 326.6 324.4 322.3 322.4 325.2 329.1 332.2 333.8
468.5 472.1 474.6 477.2 479.2 480.3 480.1 479.4 478.1 477.8 479.4 480.3 482 483.1 483.6 483.9 483.4 482.1 479.4 476.3 473.1 469.3 466.1 462.1 457.2 451 443.8 438.7 434.6 433 435.1 438.9 442.5 446.3 448.7 449.4 450 449.7 447.8 451.2 452.8 453.8 453.6 452.3 450.5 447.2 443 440.3 437.5 433.8 428.5 423.1 418.2 414 410.1 416.3 418.5 418.8 417.8 415.8 413.9 411.1 408.3 405.6 401.9 397.3 391.6 387.2 383.7 381.6 379.7 374.4 364.8 353.3 353.1 353.7 358.8 364.2 368.6 371.2 373.2 374.5 375.5 376.4 377.1 377.8 377.8 380 383.1 385.9 388.8 391.7 394.2 397.8 401.2 403.8 407.4 411 414.8 418.3 422.3 426.5 430.4 434.8 438.3 442.7 447.1 450.8 454.4 457.1 459.2 459.6 459.3 459 457.3 456.2 455.9 455.1 454.8 454.5 454.7 454.3 453.9 454.2 454.4 453.8 453 452.2 451.7 451.2 450.3 449.2 447.7 445.5 442.8 440.2 437.6 435.8 434.1 432.2 430.6 429.3 427 424.1 420.6 416.7 413 409.2 405.4 401.9 396.9 391.1 384.4 377.4 369.3 359.2 340.5 326.6 312.2 306.8 314 322.6 327.3 330.4 334.3 336.5 338.6 337.8 337.7 336.4 333.9 334.6 338.4 344 348.6 352.5 355.9 359.9 362.2 364.4 366.6 368 366 364 361 356.7 351.2 346.9 341.7 336.4 330.4 324.9 319.3 314.2 314.4 317 321.4 326.7 329.8 331.7
472.2 475.8 479.1 481.5 482.8 483 482.4 481.1 480.1 479.6 480.3 481.5 482.2 482.8 483.7 483.3 482.4 480.1 477.6 474.6 472 468.7 465.3 460.9 456.5 450.2 445.3 439.7 434.8 427.3 429.4 433.4 437.7 442 444.3 445 445.9 446.4 446 449.5 451.7 453.3 453.1 452.4 449.9 446.6 442.8 438.6 433.6 428.7 424 417.5 411.8 407.2 406 411.6 414.3 415.3 414.7 413.6 412.2 409.8 406.5 402.2 398.3 393.8 388.8 383.9 379.9 376.8 374.5 370 362.9 352.4 351.8 355.4 362.5 367.1 370.3 373.2 375.3 377.4 379.7 380.7 381.4 382.2 384.6 386.5 389 390.6 390.9 393.1 395.3 399.5 401.9 405.3 408.6 411.8 414.8 419.5 423.8 426.9 430.6 434.4 438.3 442.7 446.4 450 453.4 456.2 458.5 459.3 458.6 457.8 454.4 454.1 453.3 453.3 452.7 451.8 451.7 451.1 450.7 450.3 450.3 449.5 447.9 446.3 445.4 444.6 444 443.6 442.5 440.8 438.9 436.4 433.9 432.6 431.4 430.1 429 426.8 424.6 422.5 419.4 415.8 412.2 408.4 404.4 399.8 394.4 388.4 381.7 374.1 365.4 354.4 336.9 323.3 310.6 304.1 310.7 306.4 320.7 319.7 323.6 329.6 332 331.9 330.6 325.6 325.4 330.1 337.5 343.4 348.3 352 354 357.4 359.1 360.8 361.6 361.8 360.6 358.3 354.5 350 346.3 341.4 335.2 328.4 321.6 316.2 310.2 306 308.5 313.4 319.5 323.9 326.5 327.9
475.3 479.2 482.5 484.8 485.7 485.9 486 484.8 482.4 482 482 482.6 482.9 483.2 483.1 482.9 481.3 479.9 477.5 475 472.7 468.8 466.5 463.3 459.4 453.5 447.4 441.3 435.4 427 423.4 427.5 432.9 437.2 439.8 440.5 442.5 441.8 445.1 448.1 450.4 451.7 452 451 448.5 445.6 441 436.2 430.5 424.9 419.4 412.8 407.8 403.4 402 406.3 409.7 411.2 411.5 410.7 409.6 407.6 404.3 400.6 396.8 392.5 387.7 382.5 377.8 373.9 370.1 366.6 361 349.9 350.8 356.9 364.4 367.7 370.9 374.5 377.2 379.9 382.8 384.3 385 386.8 389 390.8 392.6 394.4 395.3 396.2 399 400.7 404.8 407.7 410.9 414.5 418 422.5 426.4 429.9 433.5 436.3 440.2 443.6 447.6 452 455.1 457.7 460 460.3 459.6 457.8 455 451.5 449.9 448.1 449.9 448.8 448.3 447.8 446.6 446.8 446 444.7 442.7 441.2 440.2 439.1 438.1 437.6 437.1 436.5 435.2 432.7 430.4 429.3 428.7 428 426.9 424.8 422.7 420.2 416.7 413.5 410 405.7 401.6 397.2 391.1 383.3 375.5 366.2 353.9 344.6 331.1 318 307.7 301.7 309.4 303.2 315.1 314.5 314.7 319.8 324 324.2 322.3 316.9 322.6 332 338 343.1 347.3 350 350.9 352.2 353.4 354.4 355.1 354.9 353.3 350.5 346.9 342.6 338.2 333.1 324.8 318.7 310.2 304.6 299.3 297.3 305.2 312.5 317 320.8 322.8 323.5
476.4 481 484.5 487.2 488.1 488.3 488.6 487 485.2 483.7 483.5 482.5 482.7 482.8 482.5 482.2 480.8 479.7 478.3 476.4 473.2 471 468.8 465.7 462.2 457.8 451.1 444.9 437.9 429 420.8 420.8 426.6 431.7 434.2 436.3 438.4 439.9 443 445.6 448.9 450.1 450.3 449.1 446.7 443 438.6 433.8 427.5 421.9 415.8 409.9 405.7 399.9 399.6 402.2 405.4 407.4 407.8 407.2 406.5 404.9 401.6 398.7 395.3 391.1 386.3 381.9 377.4 371.6 366 362.7 357.3 348.6 350.5 358.2 364.4 368 371.3 375.6 379.5 382.7 385.2 386.6 389 391.2 393.3 395.1 396.8 398.4 398.7 399 402.5 402.9 405.7 408.9 413.2 416.6 420.3 423.9 427.7 431.8 435.6 438.5 441.4 445.3 449.7 453.5 456.5 459.2 461.2 461.8 461.3 459.6 456 454.3 451.2 446.3 442.7 441.7 442.6 442.4 443 442.4 440.9 439.7 438.2 436.9 435.9 434.8 433.8 432.8 431.8 431 430.5 429.2 426.8 425.9 425.8 425.5 424.6 423.2 421.2 418.5 415.1 411.2 407 402.9 398.9 394.2 384.5 370.3 360.6 351 345.4 336.9 329.2 318.5 307.8 300.8 303.1 304.4 308.6 308.3 309.6 312 315.7 317 313.6 314.5 324.5 332.1 337.2 341.5 345.2 347.1 346.8 346.5 346 346 346.3 345 344.1 340.9 337.1 332.5 327.9 323.3 316.8 309.7 302.8 295 291.3 295.5 303.8 310.5 314.5 316.8 317.3 317.1
477.3 481.5 485.3 488 489 489.5 490 489 486.6 484.9 483.5 482.1 481.9 482.2 481.9 481.5 480 479.3 478.3 476.4 474.7 472.9 470.8 468.1 465 460.6 455.7 449.3 440.9 429.8 415.3 416.3 421.6 426.6 430 430.8 434.6 439.7 441.6 443.9 447 448.5 448.6 447.5 445.3 441.5 437 431 425.8 419.8 414.2 408.9 403.2 397.6 395.4 398.6 401.2 402.2 402.5 402.8 402.3 400.6 398.2 395.6 392.6 388.4 384.8 380.4 375.6 369.9 365.8 360.5 354.8 348.6 348.9 355.4 363 366.3 370.9 375.2 379.8 384.4 387.3 389.5 392.1 394.8 397.2 399.2 401.1 401.7 402.9 403.9 405.1 407.6 405.7 410.5 415.2 418.6 421.6 425 429 433.7 437.2 440.9 444.2 447.5 451.3 454.6 457.5 459.5 461.4 462.2 461.8 460.6 458.9 456.2 454.2 451.9 450.4 447.8 444.5 442.1 439.3 437.8 432.7 434.5 432.5 432.3 430.7 429.1 428.8 428.3 427.7 426.6 425.8 425.2 423.3 422.9 422.8 422.6 422 421 419.3 416.7 412.9 409.4 405.9 402.6 399 394.1 388.5 382.7 377 369.8 362.4 351.5 338 324.4 311.2 300.4 299.4 300.6 302.2 302.5 305.1 306.5 305.9 305.9 306.6 316.9 326.1 332.3 336.5 340.3 342.9 343.9 342.8 340.3 339.4 339.7 338.5 337.1 334.7 331 327.6 324.5 320.7 315.1 308.6 302.3 294.8 288 287.8 294.6 302.4 308 310.4 311.7 311.8 311.2
479.5 483.2 486 488.7 490.3 491.3 491.3 489.9 487.3 485.5 483.4 481.8 480.7 480.6 480.4 480.7 479.7 479.2 477.7 476.4 474.9 473.3 471.1 469 466.6 462.9 458.5 452.5 444 432.5 415.9 412.9 417.7 422.2 426.4 430.8 435.6 438.8 440.7 443.1 445.5 446.6 446.7 445.8 444.1 441.2 436.3 430.8 425.6 419.6 414 407.9 401.4 396.8 392.6 394.4 396.3 397.2 398.3 398.3 398.2 397.4 395.4 392.8 390.2 386.2 383.4 380.1 376.1 370.7 366.3 361.1 354.4 348.1 348 353.1 359 364.2 369.4 375.6 380.5 385.3 390 392.4 395.1 398.3 400.9 402.9 404.9 405.9 406.5 407.1 407.8 410.3 410.9 412.3 416.1 419.1 422.6 426 429.8 434.3 438.2 441.9 445.2 448.5 451.2 454.6 457.6 459.4 460.7 461.5 461.6 461 459.5 457.3 455.4 453.4 451.5 449 446.4 444.1 441.2 437.2 431.5 428.6 426.2 425.2 425.8 424.8 424.1 423.7 423.2 422.7 421.6 421.1 419.8 419.4 419.2 419.2 418.9 418 416.3 413.6 410.5 407.1 404.6 402.3 400 396.8 393.7 389.3 383.7 378.7 371.4 361.7 347.5 334.2 322.4 311.1 302.4 296.4 294.7 296 297.5 299.4 299.1 302.4 311.5 321.4 328.7 334.7 338.2 339.8 340.8 340.3 338.1 335.5 334.8 333.6 332.1 330.6 328.1 325.1 322.1 318.2 313.2 309.6 301.2 294.4 288.1 282.2 287.1 294.2 300.1 303.7 304.8 305.4 306 306.1
479.7 483.8 486.7 489.3 491.6 492.5 492.2 490.5 488 484.8 482.6 480.7 479.2 479.1 479.2 479.7 479.2 478.1 477.5 476.4 475.1 473.6 471.8 470 467.3 462.8 458.5 452.6 443.8 431.6 417.8 409.9 414.8 422.8 427.4 430.7 434.6 437.9 440 442.4 444 445.5 445.5 445 443 440.9 437 432.6 427.3 421.3 414.8 408.3 402.2 397 391.1 389.4 391.2 392.4 393.6 394.1 394.3 393.8 392.4 390 387.4 384.8 382.5 380.2 376.5 373.1 368.4 364.8 358.7 349.7 346 349.1 354.3 361.6 369.2 375.8 381.4 386.3 391.3 395.1 398 401.1 403.7 406 408.3 409.4 410 410.5 410.8 412.8 414.1 414.6 416.9 419.6 424 427.7 431.1 434.4 438.4 441.8 445.4 448.4 451.4 454.2 456.6 458.5 459.7 460.2 460.5 460.4 459.5 457.4 455.4 453.3 451.4 449.8 447.3 444.9 442.3 439.7 434.8 431.4 425.3 422.5 419.6 420.1 419 419.5 418.8 418.4 417.6 416.5 416 415.7 415.7 415.9 415.5 414.7 413.4 410.5 407.1 404.6 402.6 401.7 400.2 398.7 396.2 393.1 389.5 384.3 378.2 369.1 359.5 348 337.6 329.9 320.3 313.2 306.9 294.1 292.3 294.1 296.2 304.8 314.6 323.2 330.4 336.6 339.5 340.7 340.4 337.6 333.9 331 329.8 328.5 326.5 325 322.3 319.4 315.1 311.1 306.2 300.7 294.7 288.7 281.8 279.1 286.3 292.7 296.9 298.9 299.1 299.1 300.3 300.8
480.5 483.8 487 489.9 491.6 492.7 492.2 491.1 487.9 484.1 480.9 478.8 477.5 477.1 477.2 478.6 478.4 477.3 476.7 475.9 474.8 473.6 471.9 469.5 466.2 462.9 458.4 451.6 443.7 430.3 415.2 405.6 416.7 423.8 427.7 430.7 433.2 436.2 437.7 440.8 442.8 444.3 444.6 443.8 442 440 437 433.4 428.4 422.7 416.6 410.3 404 397.5 391.4 386.6 386.8 387.6 388.8 389.8 389.9 389.5 388.6 386.7 383.9 382.4 381 379.2 377.1 374.5 371.3 367.9 363.6 357.8 346.2 346.5 352.1 361.2 369.1 375.5 381.8 387.2 392.2 397 400.6 403.7 406.4 409.1 411.4 412.7 413.4 413.7 414.1 415.9 416.9 419 418.1 422 424.3 427.1 431.4 434.5 438.5 441.8 445.3 448.1 450.9 453.4 455.4 456.8 457.8 459 459.1 459.5 458.6 457.3 455 452.8 451.3 449.9 447.9 445.3 442.7 439.9 436.7 433.1 428.4 423.2 416.9 415.4 415.2 415.2 414.6 414.1 413.4 411.8 410.5 411 411.8 412.1 412 411.3 410 406.7 404.3 401.9 400.8 399.4 399.6 399 397.7 395.5 392.2 388.1 382.1 375.4 367.2 359.4 350.5 343.6 338.3 331.8 320.9 303.7 289.7 291.7 295.4 307.7 316.1 323 329.7 335.9 339.3 340.1 339.5 336.7 333 329.6 326.3 323.5 321.5 319.4 316.6 313.5 308.6 304.1 300.2 294.2 287.9 283.1 276.1 277.7 284.5 289.6 293.3 294.1 294.7 295.2 295.1 296
480.3 483.5 486.9 489.5 491.3 492.5 491.8 490.5 487.4 483.6 479.7 476.7 475.3 475 475.9 476.8 476.7 476.1 475.5 474.3 473.6 472.6 470.6 468.4 464.9 461.3 456 449.9 441.9 428.3 408.8 402.6 413.3 422.7 427 430 432 433.7 435.8 438.6 440.8 442.5 442.8 442.5 440.9 438.7 435.8 432.4 427.8 422.4 416.3 409.9 404 397.9 391.3 383.8 382 382.9 384.4 384.8 385.1 384.8 384.2 382.7 380.2 378.7 377.7 377.3 376.5 375.4 373.2 371.1 367.8 363.4 353.8 343.9 350.1 359.7 368.6 375.1 381.7 387.5 392.9 398 402.9 406.2 409.2 412 413.9 415.2 416.5 416.9 417.6 418.7 420 421.7 423 424.9 427.3 429.3 432.8 434.2 437.7 441.6 444.1 446.5 449.8 451.9 453.8 456.2 457.1 457.8 457.9 459.2 458.5 457 454.5 452.4 451.1 449.9 448.2 445.7 443.1 439.7 436.2 432.8 428.7 423.9 418.1 411.6 410.6 411.3 411.4 410.5 409 407.7 406.3 406.2 406.9 407.9 407.8 407.4 406.5 404.1 401.7 399.3 397.9 398.2 398.1 398 397.3 395.3 392.6 389.2 383.9 378.6 370.8 363.1 356.4 348.4 342.3 335.9 326 305.8 288.7 289.7 293.6 307.8 316.5 324.6 330.6 335.1 339 339.7 339.2 337.3 334.5 330.5 324.7 319 316.1 314 311.5 306.9 302.3 297.5 292.8 287.1 283.3 276.9 273.7 277 283.2 286.3 288.6 289.3 289.6 289.8 289.9 290.6
479.7 483.1 486.2 488.8 490.4 491.3 490.7 489.6 486.8 481.8 478.2 474.1 472.6 472.7 473.9 474.4 474.5 474.3 473.8 472.6 472 470.8 469.2 466.6 463 458.7 452.9 445.7 437.2 423.1 405.4 399 410.3 419.7 424.4 427.2 428.7 430.2 432.8 435.7 438.3 440 440.7 440.3 438.6 436.8 434 430.1 425.7 421.1 415.2 409.2 402.8 396.3 389.9 383.4 379.8 379.5 380.3 379.9 380.3 379.6 379 377.8 375.7 374.7 374.1 374.7 374.6 374.3 373.7 372 369.7 365.7 356.8 343.7 350.7 363.1 370.2 376.3 382.7 388.7 394.3 399.6 404.8 408.4 412 414.4 416.1 417.8 419.8 420.4 421.4 422.4 423.2 425.2 426.6 428 429.1 431.8 435.1 437.7 439.5 442.3 444 446.3 448.9 451.7 454 456 457.8 457.2 457.2 458.7 458.6 457.5 455.7 454 452 449.8 448.2 445.2 442.5 438.9 435.7 431.7 427.2 422.1 417.3 410.7 403.7 407 407.3 406.8 404.8 403.1 402.4 401.6 402.3 403.2 403.5 403.2 402.6 401.3 399.3 396.7 395.3 395.2 395.2 395.2 395 393.8 391.5 387.7 383.1 377.9 371.5 363 357 349.9 343.6 335.6 324.4 306.5 287.1 288.4 292 307.2 318 325.8 331.7 336.5 340 341.1 339.9 338.7 335.7 330.1 323.8 318.6 312 306.4 303 299.8 295 291.8 287.8 283 279.2 272.7 271.2 275.3 279.4 281.2 283.6 283.2 283.3 283.5 283.8 286.1
478.9 481.8 485 487.1 489 489.5 489.4 487.9 485.4 480.4 475.7 472 469.8 469.5 471.2 471.6 472 471 471.5 470.3 469.8 468.6 466.9 464.1 460.5 455.7 448.7 440.3 430.1 414.3 399.3 396.1 406.3 415.3 420.1 423.1 425.1 426.5 428.7 432.5 434.8 437.2 438.3 437.6 435.7 433.5 430.8 427.9 423.8 419.4 413.3 406.7 400.4 393.9 388.5 383.4 378.1 375.2 376.3 375.1 375.2 374.4 373.8 372.6 371.2 370.6 371.5 372.3 372.7 372.7 372.1 371.3 369.3 365.7 356.6 342.2 349.2 364.5 372.1 378.7 384.7 390.2 395.8 401.2 406.6 410.6 414.5 417.4 419.5 421.8 423 424.3 425.2 426.3 427.7 429 430.7 431 432 433.4 437.2 439.5 442.2 444.7 447 449.3 451.4 453.1 455.7 456.3 457.2 457.5 457.7 458.5 458.5 457.8 456.7 454.8 452.8 450.8 448.3 445.5 442.5 438.4 433.6 429.2 424.5 419.9 415.2 409 398.7 402.3 401.8 400.9 400.4 398.7 396.8 397 397.1 398.4 398.9 398.9 398.3 397 395.9 393.9 392.1 392.2 392.1 391.7 391 390.3 388.4 384.6 379.8 374.8 368.6 361.3 353.7 346.7 339.4 330.5 315.3 297.1 284.4 287 295.9 310.1 320.8 327.3 333.3 338.6 341.8 342.9 342 339.9 336.5 332.3 325.2 318.5 312.4 300.6 295.4 291.7 290.3 286.1 281.1 277.4 274 269.3 269.4 271.7 275.7 277.5 278 277.6 277.3 277.3 278.2 280.9
477.4 480.5 483.5 485.5 486.8 487.6 487.3 485.9 483 479.3 474 470 466.8 466.5 467.5 467.8 468.9 468.4 468.9 467.7 467.3 466.1 464.2 461.1 457.6 452.1 444.3 435.8 419 405.5 394 390.8 401.7 409.7 414.5 417.8 419.8 421.4 424.3 428.7 431.8 434.3 435.3 434.4 432.8 430.2 427.6 425.1 421.5 417.1 411.6 405.1 398.7 392.3 387.1 382.2 378.2 373 372.6 370.3 369.7 368.6 368 367.8 367.1 366.8 367.8 368.8 369.5 369.9 369.8 369 367.2 363.4 355.2 341.5 350.1 365.1 373.1 381 386.5 391.9 397.4 403.4 408 413 416.9 420.6 423.3 425.7 426.2 427.9 429.1 430.6 432 433.6 434 434.7 435.6 437.7 439 441.9 444.8 447.3 449.6 451.9 453.1 454.9 456.8 457.3 457.8 458.4 457.6 458.2 458.4 457.9 457 455.4 453.4 451.4 449.4 446.6 443.1 439.2 433.9 428.9 422.8 416.2 411.1 404 394.3 397.7 397.3 396.5 395.1 394.2 392.2 392.2 392.5 393.6 394.1 394.6 394.1 392.9 392.7 391.2 389 388.4 388.5 387.8 387.1 385.7 383.3 379.5 374.7 369.6 363.5 356.1 350 341.4 332.7 317.6 300.8 286.3 285.1 290.3 303.3 317.9 326.3 332.4 338 341.6 343.9 344.8 343.6 340.5 337 332.4 326.8 319.3 312.4 304.3 295.4 289.5 285.5 281.7 276.4 271.7 270.2 267.9 266.3 268.1 270.7 271.5 271.4 271.1 271.1 271.1 273.1 276.1
476.2 479.4 481.5 483.2 484.4 485.2 484.6 483.2 480.8 477.3 472.2 467.3 463.9 463.2 463.9 464.2 465.4 465.8 466.1 465.1 464.4 462.8 461.4 458.5 454 449.2 440.2 430.6 411.1 399.1 388.3 387.1 395.7 403.1 408.1 411.5 414.2 416.1 419.7 424.4 428.1 430.6 431.8 431.1 428.7 426.2 423.6 421.5 419 414.7 409.4 403.5 397.1 391.4 386 381.7 378.1 373.6 368.3 363.1 364.3 362.8 362.5 363.4 363.2 363 364.4 365.5 365.7 365.9 366.1 365.5 363.7 358.2 346.2 339.6 353.9 367.3 375.3 382.7 389 394.9 399.6 405.2 410.1 415.1 419.4 423.1 426.4 428.6 429.8 431.6 433.2 434.8 436 437.5 438.1 437.8 439.1 439.3 441.5 443.5 446.5 449.4 451.3 453.3 455.4 457 457.8 458.2 458.1 458.4 456.5 457.2 457.5 457.4 457.4 456.3 454 452.1 450.2 447.7 443.8 439.9 434.6 428.1 420.4 413.2 406.8 399.8 388.8 392.6 392.4 391.1 389.7 388.5 387.5 387.5 387.7 388 389.3 389.8 390 389.5 388.4 387.6 386 384.6 384.7 383.9 382.5 380.4 377.6 373.9 369 364.2 357.7 351.1 343.6 334.2 321.3 302.8 289.9 283 284.4 298.4 313.1 323 330.5 336.4 341.5 344.8 346.5 345.9 344.5 340.9 337.3 332.4 327.3 320.6 313.8 307.6 299.1 292.1 286 281.4 276.7 272.3 269.2 265.8 264.1 263.7 262.9 262.2 262.9 263.6 264.4 265.5 268.8 271.8
475.3 477.9 479.9 481.1 482.1 482.2 481.8 480 477.9 474.7 469.5 464.6 461.2 460 460.1 461.4 462.2 463.5 463.4 462.5 461.7 460.3 458.3 455.1 451.6 446.1 436 423.4 404.9 393.8 382.7 381.8 388.4 395.3 400 403.4 407.1 409.9 415 419.9 423.9 427 427.6 427.4 424.4 421.5 419.8 418.2 415.9 412.3 408.4 402.3 396.4 391.4 387.4 383.6 379.5 375.4 370.8 365.5 358.3 356.9 358.8 359.4 360.6 360.7 361.2 361.7 361.8 361.7 360.7 360.1 355.1 344.7 337.5 343.5 359.2 368.3 376.5 383.6 390.7 396.7 402.3 406.5 411.9 417.2 421.7 425.7 428.8 431 432.4 433.7 435.3 436 438 439.4 440.4 441.3 442.1 443 444.7 446 448 450.5 452.5 454.4 456.5 457.6 458 457.8 457.1 456.4 455.3 455.8 455.9 456.1 456 455.6 454.3 452.5 450.6 448.1 444.4 440.5 434.9 428.4 419.7 411.2 403.9 396.8 383 387.5 386.5 385.5 384.1 383 382.7 381.8 383 384.2 385.3 385.7 386.2 385.5 384.3 383.9 382.7 380.7 381 379.9 378.2 375.3 371.9 368.4 363.8 358.1 351.9 346 336.1 325.1 308.5 291.9 280.5 282.4 293.6 308 318.4 326.4 333.4 339.8 344.1 346.4 347.7 346.9 344.6 341.1 337.5 332.6 327.9 322.2 315.5 309.5 302.2 296.1 290.3 284 279 274 269.2 267.6 264.3 263 261.5 260.5 259.9 259 260.1 262 264.9 268.1
473.7 476 477.7 478.7 478.7 478.6 477.8 476.3 474.2 471 466.4 461.7 458.1 456.7 457.1 458.3 460.1 461.3 461.2 460.3 458.9 457.3 455.5 452.3 448.7 443 434.4 423.6 404 390.4 379.6 373.9 379.9 386.2 392 395.3 398.7 403.7 410.4 415.5 419.6 422.5 423.5 423.2 420.2 417.9 416.6 415.4 412.9 409.5 406.9 402.5 396.4 392.4 388.9 385.3 381.5 376.9 371.6 365.7 359.1 353.6 355.1 356.7 358 358.4 358.8 358.7 357.7 356.1 353.8 349.2 340.2 335.1 340.5 352.1 361.5 369.4 377.2 384.5 391.9 398.3 404.5 409.5 414.3 419.1 424 427.5 430.4 432.6 434 435.3 436.3 436.9 438.5 440 441.2 442.6 443.8 445.2 446.9 448.1 449.5 451.4 453.2 455 456.3 457.1 457.6 457.2 455.6 453.8 453 453 453.8 453.7 453.7 453.7 453.2 451.9 449.7 447.5 444.3 440.6 434.6 428.1 420.4 410.7 401.9 394.3 380.9 382.2 380.4 379.9 378.8 378 377.9 377.6 377.2 379.5 380.9 382.1 383.1 382.7 381.8 381 380.2 378.5 375.4 375.9 374.1 370.9 367.8 363.8 358.3 353.1 347.3 339.7 329.9 316.5 298 283 280.8 289.6 303.1 312 321.8 329.5 336.7 342 346.4 348.2 348.4 347.3 344.6 341.1 337.4 332.9 328.7 324 318 311.3 305.2 299.3 293.7 287.7 281.5 274.8 270.5 268.8 266.6 264.3 262.4 260.5 259.6 258.3 256.9 258.8 262 266.1
472.9 473.7 475.3 475.2 474.5 474.4 473.5 472.2 470 467 462.3 457.5 455 453.9 454.5 455.8 457.5 459.1 459 458 456.5 453.7 451.9 449.3 444.8 439.2 432.3 421.8 403.8 387.9 377 370.5 373.8 377.2 381.8 386.6 390.9 397.2 404 410.8 415.2 418.1 419.6 418.8 416.5 414.5 412.9 412.6 410.4 408.1 405.6 401.9 396.8 393.4 389.8 386.9 382.8 377.6 371.9 365.7 358.7 351.8 351.3 354.2 355.6 356 356.4 355.7 354.8 350.7 343.6 333.9 333.8 336.8 346.3 355 362.9 370.6 378 385.4 393.1 400.1 406.4 412.3 416.5 420.6 424.4 428.3 431.1 432.7 434.1 435 435.7 436.9 437.7 439.4 441.4 443 444.4 445.6 447.3 449.1 450.7 452.1 453.5 454.9 455.2 455.9 455.8 455 452.8 451 449.9 450 450.4 451 451 451.2 450.6 449.5 447.6 445.6 442.9 439.6 434.5 427.6 419.9 410.5 400.6 392.7 379.6 374.4 373.2 372.7 371.8 372.3 371.9 371.4 371.9 374.3 376.5 378.1 379.5 380.2 380 379.4 378.5 377.3 375.2 372.7 370.1 367.5 365 360.9 356 348.5 339.1 331 321.6 308.1 290.8 278.5 281.2 298 307.3 317.6 325.9 333.4 338.6 344.7 348.1 349.6 349.2 347.7 344.9 341.6 337.9 333.8 329.7 325.9 321.2 315.3 309.3 302.8 296.6 290.3 282.6 275.7 273.5 271.3 269.3 268.2 266.7 263.9 261.4 257.9 256.2 255.7 258.8 264.3
471.2 472 472.1 471.1 470.2 469.6 469.1 467.3 465.3 462.2 458.1 454.2 452 450 451.9 453.7 455.6 456.7 456.6 455.7 453.7 450.6 448 444.7 440.8 435.1 428.6 418 403.2 384.8 375.2 368.8 368.4 370.4 372.3 377 383.6 392 399.6 406.3 411.1 414.2 415.6 414.9 412.5 410.7 409.2 409 408.3 406.6 403.9 400.1 396.2 393.3 390.3 387.1 383.2 377.9 371.4 364.2 357.2 352.2 350 352 352.6 353.5 353.6 353.1 351.9 347.6 332.9 332.3 333.6 340.8 349.7 357.3 364.4 371.1 378.5 386.6 394.8 401.9 408.4 413.7 417.9 421.7 425.4 428.8 430.9 432.5 433 433.8 434.6 435.5 436.4 439 441 442.8 444.4 445.4 446.4 448.2 449.3 451.1 452.3 453.3 453.7 454 453.7 452.6 450.5 447.7 446.3 445.6 446.5 447.3 448.1 448.1 447.2 446.2 444.8 443.1 440.7 437.4 432.8 426.5 418.2 409.2 399 390 378.8 370.3 367.2 366.4 365.6 366 365.7 365.4 366.2 368.4 371.6 374 376.3 377.8 379 379.2 378.6 377.4 376.6 375.5 373.4 370.9 367.8 363.9 357.4 349.6 340.1 326.2 312.8 298.1 286.1 277.2 289.1 302.2 310.5 320.7 328.5 335.5 340.6 345.9 348.6 349.6 349.9 348.5 345.4 342.2 338.8 335.1 331.3 327.5 322.6 317.3 311 304.8 298.4 290.3 283.2 278.9 277.1 274.6 275.2 274.3 271.8 268.7 264.6 258.5 256.1 254.1 257.7 261.5
470.4 470.4 469.7 468.8 466.8 464.5 463.8 462.1 459.6 456.5 452.4 448.9 446.8 445.3 447.8 450.4 452.8 454.1 454 453.5 450.3 447.6 444 440.1 436.1 430.5 423.6 414.3 401 384.2 374.1 366.7 363.8 366.4 368.5 371.9 379 386.8 394.7 402.2 407.2 410.6 411.2 410.8 408.4 406.4 404.9 405.2 405 403.6 400.9 397.1 394.1 391.8 389.6 386.7 382.5 376.6 369.2 361.9 353.8 349.5 347.6 349.7 349.8 350.2 350.3 350.3 348.8 345.9 332.9 331 336.7 345.6 352.6 358.6 364.6 372 379.8 387.5 395.3 402.7 409.4 414.1 418.1 422 425.5 428.7 430.8 431.5 431.6 431.7 432.2 433.5 435.5 438 440.1 441.6 443.7 444.5 445.3 446.8 447.8 449.1 450.2 451 451.6 451.1 450.2 448.8 446.9 444.3 441.6 441.7 442.6 443.5 444.3 444.6 443.8 442.8 441.3 439.6 437.4 434.2 429.9 423.8 415.9 407.7 397.3 387.7 375.3 365.2 363 361.7 360.7 359.2 358.9 359.9 362.1 364.2 367.3 370.3 374.5 376.2 378.7 380.3 380.7 379.5 379.1 377.7 375.9 373.6 370.1 365.3 358.6 349.1 338.4 320.6 306.1 293.1 280.4 276.9 292.3 303.8 312.1 322.5 329.7 335.6 341.5 345 347.8 350.1 350 348.4 346.2 342.8 339 335.8 332.1 328.3 323.2 317 310.7 304.3 297.7 291.1 286.5 283.3 282 282.2 281.5 279.7 276.7 271.7 266.8 259.6 255.1 253.2 254.5 258
470.4 468.6 467.3 465.4 462.8 460.2 458.7 456.1 453.2 449.8 446.1 444.7 442.9 441.5 444.5 446.6 449.3 451 451.6 450.9 448.7 445.3 441.2 436.1 431.2 425.9 419.2 409.3 396.4 381.2 373 366.7 363.3 359.6 363.1 368.3 374.2 382.3 390.5 398.7 402.6 406.4 407.2 406.3 404.1 401.9 400.8 401.3 401.1 400.5 397.9 394.9 392.1 389.8 387.6 384.5 380.5 374.3 367.2 357.7 351 348.1 346.1 346.2 347.7 347.4 346.9 346.9 345.4 343 334.8 329.5 340.9 348 354.3 360.2 366.1 373.2 380.3 387.5 395.1 401.8 408.4 413.4 417.8 421.2 424.3 427.2 429.1 429.3 428.7 428.9 429.9 432.2 434.1 436.7 439.3 440.9 442.5 443.4 444.3 445.4 446 447.1 448.2 448.8 448.5 447.9 446.4 444.7 442.5 440.1 437.7 437.6 438.3 439 439.8 440.2 439.5 438 436.6 435 432.8 430 426 420.5 413.4 405.4 396.3 385.7 376.7 370.5 364.9 358.3 356.2 354.5 353.7 355.6 357.8 360.3 363 367.3 372 374.8 378.5 380.4 381.7 381.5 380.7 379.3 377.3 374.6 370.7 365.3 357.8 347.1 329.7 310.2 297.9 285.8 275.4 276.9 295.2 303.2 310.9 320.6 328.5 334.5 339 343.2 346.7 348.5 349 347.9 346.1 342.6 338.9 336.4 332.8 328.4 322.4 317.3 311.5 305.1 298.7 294 290.7 287.5 288.2 288.6 288.3 285.4 280.2 273.6 268.3 260.7 254.7 252.2 249.6 253.1
469.3 467.1 464.7 461.4 458.6 456 452.5 449.3 446.8 442.9 440.4 438.9 437.3 437.1 440.8 442.9 445.6 447.5 448.2 447.6 445.7 442.7 438.4 433.1 426.7 420.4 413.6 404.2 392.4 378.8 372.2 367.3 361.9 357.8 359 364.7 371.6 379.2 387.4 395 399.5 402.8 403 401.2 399 397.4 395.9 397 397 396.5 395.3 392.7 389.9 386.8 384.6 382 377.9 372.2 365.4 356.1 348.9 346.8 345 344.3 345.3 345 344 343.2 341.9 338.6 327.9 330.4 343.8 350.3 355.8 361 366.9 373.7 380.3 387 394.9 400.9 407 411.8 416 419.5 422.2 424.4 426.1 426.4 426.4 426.7 427.4 430.1 433.1 435.7 438.2 440.1 441.3 442.2 443.2 443.8 444.5 445.3 445.8 445.5 445.1 443.9 441.9 439.7 437.6 435.4 433 431.7 432.5 433.4 434.6 435.1 435.3 433.5 431.9 430.4 428.4 425.4 421.5 416.6 409.8 403.2 395.3 385.8 377.6 371.6 366.1 361.6 354.4 349.6 348.9 349.4 353.3 355.8 359 364.5 369.1 373.7 377.7 380 381.6 382.1 381.5 380.1 377.5 374.8 370.1 364 355.7 343.4 319.6 303.9 290.4 276.6 275.1 283.4 295.4 302.5 311.2 318.1 325 331 335.8 340 343.9 346.1 347.6 346.8 345.2 341.9 339.5 336.7 333.1 328.7 324.3 319 313.8 307.4 301.4 297.7 294 292.7 293.6 294.9 293.7 290.2 283.7 277.7 270.6 264 256.1 253 250.7 249
470.3 467.2 463.1 458.7 454.9 451.6 448 443.5 439.9 437.4 435.5 434 429.2 433.9 436.7 438.6 441.1 443.1 444.3 443.8 442.2 439 434.8 429.9 423.6 416.2 408 399.8 388.7 378.7 373.1 368.6 363.5 357.3 354.6 361.1 368.5 376.7 385.5 391.9 396.2 398.9 398.8 396.5 393.9 391.9 391 392.2 392.7 392.2 390.9 388.6 385.7 383.2 381.1 378.5 375.3 370.8 363.9 356.4 347.5 346.5 343.7 342.1 342.5 342.1 340.8 338.7 337.2 331.4 325.8 336.1 344.1 349.5 354.9 360.6 366.3 372.1 379.8 386.2 392.4 398.8 404.5 409.2 413.3 416.3 419 421.2 422.2 422.7 422.8 423.7 426.6 429.6 432.7 435.1 437.2 439.2 440.1 441.1 441.7 442.3 443.1 443.9 443.1 442.1 440.5 439.1 436.1 431.5 428.8 427.1 426.7 424.6 426.6 428.1 428.9 429.5 429.7 428.7 427.1 424.9 422.5 420.1 416.5 412 406.1 400.2 392.9 384.4 377.4 371.2 365.5 360.5 354.6 347.7 340.1 343.4 347.4 351.2 355.1 360.6 366.2 371.5 375.6 378.8 380.8 381.8 381.5 380.3 377.7 374 368.6 361.5 352.3 337.6 314.2 296.3 280.3 272.9 279.4 291.5 298.9 301.1 307.7 315.1 321.6 327.3 331.2 335.8 340.2 343.1 345.5 345.5 344.4 342.2 341 338.4 334.5 330.8 327.1 322.6 316.7 311.6 307.2 302.7 298.5 298.3 298.5 298.7 296.9 294.1 288.5 281.8 274.7 268.5 262.2 254.4 250 247.3
469.9 466.5 462.6 458.1 452.6 448.1 443.8 439.7 437 434.2 432.3 430.5 427.6 431.3 432.8 434.4 436.3 438.2 440 439.6 437.7 434.6 430.6 425.3 419.8 412 403.5 395.9 386.4 378.7 373.8 368.5 362.8 357 351.1 356.9 363.5 372.5 382.7 388.3 393.1 394.8 394.3 392 387.9 386.2 385.9 386.9 387.9 387.6 386.9 384.6 382 379 376.8 374.2 371.7 368.5 362.4 355.4 348.7 347.2 344.3 343 341.6 338.6 335.2 333.8 331.1 326.5 328.2 336.2 341.5 346.8 352.3 358.2 364.1 370.3 377.4 384.3 390 395.2 400.3 405.3 409.5 412.4 414.6 416.6 417.6 418 418.8 422.7 426.2 429.4 432.5 435 436.3 438 439 439.9 440.7 441.5 442.7 442.8 441.5 440 437.3 434.8 432.4 429 424.1 423.1 421.3 420.3 421 421.9 423.4 423.8 423.9 423.3 421.6 419.6 417 414.5 411.1 406.9 401.9 396.3 389.7 382.7 376.6 370.4 364.6 359 351.6 343.8 333.1 337.2 340.7 344.7 350.1 356.6 363.2 369.1 373.6 377.6 379.7 380.6 380.7 379.3 376.1 372 365.9 358.8 349 333.7 308.2 289.1 273.2 271.8 282.6 290 296.1 295.2 297.7 309.4 315.1 320.4 325.8 330.7 336.2 340.9 343.2 345.2 345.5 344.7 343.1 340.3 336.7 333.1 329.4 325.2 320.4 315.5 311.7 307.1 303.8 301.2 300.3 300.1 298.1 294.8 290 284.2 278.2 272.1 266 257.5 249.6 246.9
468.9 465.3 461.5 456 450.5 445.6 440.7 436.8 433.6 431.4 430.2 428.7 425.2 428.9 430 430.6 432.2 433.8 435.4 434.6 433.4 429.6 425.9 420.3 415.2 407.9 399.6 391.8 383.9 377.2 371.2 367.2 360.7 354.7 351.5 353.5 359.9 368.1 377.8 384.1 387.7 389.7 389.3 386.5 382.1 380.3 380 380.8 382.5 383 382.4 380.5 376.8 373.6 372.3 369.8 367.3 365.2 361.6 355.1 350.4 346.3 345.7 345.8 344.7 342.5 338.6 332.7 326.7 323.7 327.1 332.5 335.9 340.8 347.4 354.1 360.4 368.1 375.2 381.1 386.4 391.1 396 400.9 404.9 407.6 409.8 411.8 412.8 413.3 418.1 422.3 425.6 428.7 431.7 434 435.5 436.7 437.1 437.9 439.1 440.1 441.6 441.8 441.2 438.4 435.1 431.8 428.7 425.5 421.9 419.2 416.4 414.4 415.9 416.2 417.1 417.5 417.1 416.6 416 414.5 411.7 408.9 405.4 401.9 397.1 391.8 385.9 379.8 373.8 367.8 362.3 356.5 349.1 338.1 327.8 331.5 333.7 339 345.8 353.6 360.8 366.5 371.8 375.9 378 378.5 378.6 377.2 373.8 369.3 363.3 355.5 346 332 307.1 286 270.1 271.2 277.6 284.2 289.4 288.6 291.1 298.4 306.4 313 319.2 325.9 332.1 337.3 341.4 345.5 346.8 346.8 346 343.7 340.3 336.8 333.1 329 323.5 318.3 313.2 309.1 305.7 302.7 300.9 299.3 297.1 293.2 288.7 283.4 276.6 271.2 263.8 253.6 247.7 245.1
467.4 463.4 459.6 454.2 448.8 443.6 437.8 433.8 430.4 428.5 427.2 426 423.6 426.3 427 427.6 428.6 429.6 430.5 430.1 428.7 425.2 420.4 414.6 408.2 401.8 394 387.8 380.9 374.1 368 363.8 356.6 352.2 347.1 349.4 354.8 363.9 372.4 378.5 381.8 383.2 381.6 379.1 375.6 374.3 373.9 374.8 376.9 377.4 377.1 375.1 372.6 369.7 367.7 365.2 363.5 362.2 359.4 355.1 351.1 347.4 348.6 348.9 347.1 345.7 341.8 336.2 330.2 321.7 321.9 326 329.1 333.6 339.7 347.6 355.8 362.3 371.2 376.5 381.7 386.8 391.5 396.2 400.2 402.8 405.2 407 409.1 413.2 417.3 421 424.3 427.4 430.3 432.7 433.9 434.3 434.8 435.9 437.1 438.8 440.2 441.1 440.6 437.4 434.3 430.2 426.8 423.4 419.9 416 412.4 407.8 410.3 410.2 410.5 410.6 410.3 410.5 409.9 408.3 405.8 402.6 399.1 396.3 391.7 386.6 381.5 376.5 371.4 365.8 360.1 353.8 346.8 337.1 323.1 325.2 327.9 334.3 341.9 349.7 358.2 364.2 369.4 373.3 375.7 376.3 376.2 374.4 371.2 366.6 360.1 352 342.6 328.9 308.9 288.4 272 269.5 271.6 276.3 278.1 276.6 280.1 287 295.8 303.9 312.2 320.9 329.3 335.7 341.7 346 348 348.6 348.2 346.3 343.9 340.7 336.9 332.6 326.7 321.4 315.9 311.2 304.9 301.1 299.3 297.2 294.9 290.9 286.3 280.9 274.5 267.1 257 250.2 247.7 246.1
464.8 461.1 457.6 452.3 447.2 442.4 436.2 431.5 428.1 426.2 424.5 423.1 421.5 423.1 423.3 423.9 424.5 425.4 425.6 425.2 424 420.7 416.2 409.8 402.5 397 391 384.9 378.2 371.4 365.2 359.6 352.9 347.7 342.5 344.9 349.9 359.4 367 371.1 375.1 376.5 375.3 372.5 369.9 368.1 367.9 368.2 370.3 371.2 370.6 368.8 367.7 365.3 363 361.9 360.6 360.6 359.2 354.9 352.5 348.1 351.4 351.2 350.4 348.5 345.2 340.3 333 323.2 319.1 317.4 319.9 321.4 330.3 340.2 349.8 357.2 364.8 370.8 375.5 381.2 386.6 391.3 395.7 397.9 399 402.6 407.7 411.8 415.7 419.3 422.7 425.8 428.6 431 431.5 431.9 432.6 433.5 435.3 437.4 438.8 439.9 439.8 437.1 434.8 430.7 427.4 424.1 421.6 417.7 414.6 409.2 400.1 400.7 404.3 404.3 404.3 403.8 403.1 401.4 399.2 396 393.2 390.3 386 380.7 376.4 371.9 366.9 361.6 356.8 350.6 343.9 334.3 318.7 319.3 322.4 331 339 346.9 355 361.3 366.3 370.5 372.8 373.9 373.4 371.4 368.1 363.5 356.4 348.1 340.4 328 311.7 294.2 278.9 267.6 267.4 267.9 266.9 266.3 267.1 274.1 282.8 293.3 306.3 317.4 326.5 334 340.5 345.7 348.7 350.2 349.3 347.8 346.1 343.6 339.6 335.4 331.2 325.3 319 311.3 303.2 297.8 294.7 293.1 290.7 287.5 283.1 277.3 270.5 262.8 255 250.6 248.5 247.3
461.1 458.8 455.4 451.1 446.3 441.5 436.1 431.2 426.7 423.5 422.2 420.8 418.9 419.6 419.2 419.5 419.9 420.3 420.5 420.4 419.5 416.8 411.6 405.6 398.6 392.3 387.3 381.3 374.6 368.3 362.4 355.8 348.3 341.5 334.1 334.2 343.5 353.7 360.7 364.5 368.2 369.8 368.6 365.9 363.6 362.5 361.2 360.9 362.4 362.5 362.1 362.1 362.3 360.6 358.4 357.8 357.1 358.1 358.4 356 353.1 349.9 352.6 353.8 352.9 351 348.3 343.7 336.2 326.6 319.9 319.2 317.3 314.6 313.5 329.6 341.9 350.6 357.1 363.9 369.4 375.2 380.9 386.5 391 393.7 396.5 401.4 405 408.6 412.5 416.7 420.2 421.4 426.5 428.4 429.4 429.3 429.2 430.4 432.2 435 436.5 438.1 438.6 437.8 435.8 432.1 429.9 427.7 425 421.3 417 412 406.8 396.6 393.4 397.2 396.7 396.1 395.5 393.6 391.8 389.3 386.4 383.3 379.7 374.8 370.9 366.3 361.5 357.1 352 346.2 339.1 326.7 312.6 312.9 318.4 327.9 336.2 344.7 352.4 358 362.7 366.4 369.2 370.3 370 367.6 363.9 358.5 352.6 345.5 338 327 314.7 302.8 292.4 281.2 273.1 271.1 270.7 267.6 260.9 260.8 273.9 284 297.7 310.8 322.9 331.9 338.6 344.7 348.2 350.3 349.6 348.6 346.9 344.1 341.3 337.8 333.6 328.2 320.3 310.7 300.9 293.1 289.1 287.3 284.9 282.2 278.3 273 265.8 259.1 255.5 251.8 250.6 249.9
457.4 455.6 452.4 449 445 440.5 435.8 431.1 426.8 422.8 420.6 418.6 416.3 416.2 415.7 414.9 414.2 414.4 415 414.9 413.8 411.7 407.3 400.6 393.2 385.8 381.6 376.3 370.8 366.1 360.4 354 345.2 336.8 321.9 325.3 337.2 347.5 354.8 358.6 361.2 362 361.8 359 358.1 357.3 353.2 355.3 354.8 355.1 355.2 356.4 356.9 356.1 354.3 354.2 354.4 355.9 357.8 356.2 352.8 350.5 354.4 355.5 355.1 353 349.9 344.8 338.2 330.5 330.2 328.7 325.4 315.6 313.9 319 334.4 342.5 350.3 356.1 362.4 369.6 374.9 381 385.7 389.3 393.5 398 401.9 405.5 409.3 413.2 417.1 420.2 423 425.4 426.3 426.5 426.6 427.5 430.1 432.3 434.4 436.6 437.2 437.1 435.5 434.2 432.7 430.7 428.5 424.7 420.5 416.5 411.2 403.8 391.5 382.4 389.2 388.2 387.3 384.9 383 379.4 377.5 374.8 372 368.3 364.6 359.8 355.6 351.4 345.8 340.2 333.1 314.6 308.2 310.1 316.1 324.5 332.8 341.6 349.2 354.6 359.3 362.8 365.4 366.6 366.2 363.6 359.1 353.8 347.9 342.4 335.6 325.9 317.6 311.6 305.2 298.7 292.1 287.7 284.3 280.7 270.8 258.2 259.4 277.1 289.8 303.8 316.7 328.1 336.5 342.9 347.1 349.2 347.7 345.9 344.2 342.6 339.5 336.5 332.4 326.8 319.1 307.6 297.3 290 284.2 280.9 277 276.3 271.6 266.6 260.7 256.6 255.3 255.6 254.8 252
454.1 452.3 449.5 446.3 442.5 439.4 435.1 431 426.9 422.6 420 417.5 415.1 411.9 410.7 410.3 408.9 407.7 408.6 408.9 407.8 404.5 400 394.3 387.1 380.7 376.5 371 366.8 362.8 357.7 351.6 343.4 332.5 318.6 314.1 329.3 340.3 348 352.2 354.3 355.1 355.2 352.7 352.8 351.9 350 349.3 348.9 349.6 350.6 352.6 352.6 352.1 351.6 352.1 352.8 354.1 356.8 356 353.8 352.2 354.7 356.4 355.9 353.6 350.5 346 341.1 338.6 337.2 335.5 332.5 323.1 311.4 312.4 327.9 335.9 343.5 349.2 355.6 362.2 368.8 374.7 379 384.9 389.3 393.8 397.7 401.9 405.4 409.4 413.9 417 418.7 422 423.1 423.4 423.9 425.3 427.7 430.7 433.1 434.6 435.4 435.4 435.3 434.8 434.1 432.1 429.7 427.5 424.4 420.1 414.9 408.9 400.5 387.7 376.5 376.7 371 370 369.7 369 369.5 367.9 365.3 361.3 358.1 354.4 350.1 345.6 339.1 333.6 326.2 305.7 304 307.9 314.1 321.7 329.3 338.3 345.7 351.3 355.7 358.7 361.6 362.2 361.6 358.7 354.4 349.4 344.5 339.6 334 327.4 320.8 316.9 314.3 309.9 306.2 302 295.4 289.8 280.2 260.3 253.6 271 284 297 309.6 322 332.3 340.6 345.3 346.8 344.2 342.5 340.4 338 336 333.5 328.9 323 313.4 302.6 292.9 285.4 279 275.9 274.2 271.3 267.3 262.7 260.1 260.7 261 261.4 260.3 257
450.6 449 446.7 443.6 440.1 437.2 434.7 431.1 427.1 423 419.6 416 413 408.8 406.7 405.7 403.8 401.9 401.6 401.3 399.8 397.2 392.8 386.1 379.4 374.2 369.8 365.8 362.4 359.3 354.2 348.4 339.8 330 313.2 305.3 320.1 332 339.7 345.2 347.9 348.2 347.2 346.9 347 346.8 344.9 345.4 345.8 346.8 347.1 349.4 348.6 348.5 349.6 350.9 351.6 352.8 355 355 355 352.3 355.9 356.6 356.3 353.8 350.9 347.7 344.6 344.3 343.1 341.1 338.1 331.2 313.5 309.4 320.3 328.6 334.7 341.4 347.7 353.9 360.3 364 375.3 381 386 388.8 393.1 397 403 405.4 408.9 413 416.1 418.4 419.4 421.2 421.7 423.6 426.2 429.3 431.7 432.9 433.5 434 434.2 433.8 433.7 432.7 430.8 428.9 426 422.8 418.3 412.5 405.8 396.6 384.1 373.9 368 364.5 362 357.3 357.5 359 356.9 355 352.6 349 345 339.5 333.6 326.4 313.3 301.9 299.9 302.8 311.6 318.4 325 333.3 341.2 346.8 351.4 355.2 357 357 356.4 353.8 350.1 345.2 341.8 337.2 332.8 328.3 324.8 321.8 320.2 318.6 316.6 316 307.4 297.8 287.1 268.6 251.2 262.3 277.3 290.7 303.7 316.3 327.8 336.9 342.3 342.7 339.2 335.9 334.5 331.8 330.4 327.2 322.9 315.7 305.4 294.4 286.5 279.6 274.8 272.7 270.8 268.8 265.7 265 264.9 265.4 267 267.1 265.9 262.3
446.3 445.2 443.3 440.2 437.1 434.9 432.7 430.1 427.2 423.2 419.6 416.1 412.5 408.7 403.5 399.7 399 396.4 394.7 393.4 391.6 388.8 383.8 378 371.4 367.1 362.8 359.8 358.3 355.6 351 345.2 336.8 326.2 309.2 301.1 310.5 323.7 331.8 336.6 339.5 341.3 342.4 342.9 342.7 342.5 341.2 342.3 343.4 344.1 345.1 347.4 345 346.6 347.9 350.3 351.7 353.1 353.4 354.6 353.6 353.6 356.6 356.8 356.3 353.8 351.4 349.4 348.3 348.5 347.9 345.8 342.6 337.7 322.1 308.3 309.6 319.8 325.3 331.5 337.4 343.6 349.3 359.7 368.3 374.9 379.3 387.8 394.9 399.2 404.8 408.9 409.8 410.9 408 411.8 417.3 419.5 419.6 421.8 424.9 428.1 430.1 430.7 431.3 431.5 432.3 432.5 431.9 431.6 430.3 428.4 426.1 423.1 419.6 414.8 408.7 401.5 392.4 383.7 378.6 374.6 368.4 362.9 355.7 345.9 345.7 346.1 344.8 342.6 339.2 334.6 328.9 321.5 312.1 301.3 295.5 298.5 305.8 312.3 318.7 327 335 342.3 346.7 349.9 352.3 352.2 351.2 348.8 345.2 341.7 338.7 335.1 332.4 329.1 327.3 325.4 323.5 322.4 321.4 319.4 306.9 297.8 289.7 277.4 255.2 249.9 271.2 285 299.5 311.8 322.5 332.5 338 336.1 332 328.5 326 323.9 322.1 319 314.3 305.7 294.9 285.2 279.8 275.5 272.6 271 269.9 268 267.9 268.5 269 270.1 272.3 272.9 272.4 270.7
442.3 441.2 439.4 436.7 433.8 431.6 429.5 427.8 425.2 422.1 418.1 414.5 411.7 408.1 402.6 395.4 390.5 390 387.4 385.8 383.9 380.7 377.4 370.5 365.1 360.6 355.1 354.4 353.2 351.2 347.1 341.3 333.6 324.2 309.2 297.8 303.2 316.4 324.2 329.9 333.2 335.9 337.5 337.8 338.4 338.6 337.5 339.8 341 341.9 342.2 344.2 342.5 343.4 346.1 352.6 355.5 353.5 354.3 355.2 356 355.7 356.8 356.8 354.9 352.7 352.9 351.9 351.5 352.2 351.9 350.1 347.2 342.8 331.9 313.3 306.2 305.9 312.1 319.9 325.4 328.8 342.4 351 360 372.4 381.5 390.8 396.6 401.7 405.7 408.8 410.4 410.5 407.5 407.5 415.8 417.2 418.3 420.7 424.2 426.8 428.8 428.9 429 427.9 428.8 429.8 429.5 428.9 428.2 426.5 424.6 422.2 419.3 415.7 410.5 404 396.5 389.6 386.2 383 377.5 369.8 362.8 355.1 341.1 338 338.1 336.9 333.8 329.5 324 317.8 312.2 304.2 291.1 293.5 299 306 312.6 321.7 329.3 337.2 342.4 345.8 347.4 347.6 346.1 343 339.8 336.8 334.2 332.5 330.6 329 327.8 326 323.5 321.3 317 311.9 300.9 293.2 285.9 277.6 261.8 246.8 267.5 281.6 297.6 308.6 318.7 327.3 330.5 326.7 322.8 320.7 317.8 315.7 313.9 310.1 303.1 293.9 285.7 278.7 274.8 272.7 271.3 270.2 269.8 269.9 270.7 272.1 272.8 274.5 276.6 277.9 278 277.2
438 437.4 435.3 432.6 429.8 427.8 426.1 424 421.4 418.6 415.4 412.7 410.1 406.6 401.7 395.6 389.7 381.2 381.2 378.1 375.5 373 368.5 361.8 355.9 349.9 347 346.7 347.3 346.9 343.2 337.8 331.1 322 309.4 292.3 298.3 310.4 317.9 324.1 327.8 331.3 332.8 333.2 333.7 333.4 336.4 337.6 338.8 339.7 340 340.2 341.6 343.1 346.1 352.8 355.3 356.5 356.1 356.7 357.2 358 357.2 356.2 355 355.2 354.3 353.8 354.8 354.9 354.5 352.7 350.2 345.8 337.6 325.7 314.4 306.7 302.8 304.6 313.4 319.3 331.6 346.3 361.5 372.8 382.4 392.3 399.7 405.1 408.8 411.7 413.1 413.9 413.8 411 413.4 417.5 419.8 421.3 423.2 425.5 427.6 428.1 427.2 425.2 426.3 426.3 426.3 425.7 424.8 423.6 421.8 419.6 417.7 414.9 410.8 405.7 399.6 395.9 392.3 388.9 384.2 377.9 369.3 361.3 350.5 335.9 330.1 331.1 328.1 323.3 317.8 313.9 309.1 303.3 292.7 286.1 291.3 298.7 306.9 315.9 324 331.9 337.9 341.1 342.7 342.5 341 337.5 334.3 331.6 329.5 328.3 327.8 326.4 325.7 323.3 320.4 315.3 310.7 303.1 293.8 285.1 276.3 266.3 254 243.4 267.4 281.8 295 307.7 317.5 323 323.3 318.3 314.2 311.5 308.4 305.5 302.6 298.6 291.5 283.1 277 272.6 271 270.5 271.2 272 272.5 273.3 274.1 275.6 277.2 278.9 280.7 282 282.3 281.2
434.3 433.5 431.1 428.2 425.4 422.7 421.5 419.5 417.4 414.7 412.4 410.7 408.2 404.6 400.1 393.5 383.9 381.2 371.5 369.8 367.9 365.1 360.8 355.2 347.3 343.2 340.4 341.4 343 343.4 340.4 334.9 328.3 318.6 307.8 292.2 292.1 301.9 310.8 317.1 321.6 324.2 324.1 327.7 330.5 330.4 332.7 335.4 336.9 337.4 339.4 341 343.1 344.1 347.3 353 357.8 358.3 357.4 357.9 358.4 359.5 358.5 357.7 357.4 357.7 356.8 356.2 357 357 356.5 354.8 351.3 347.2 341.7 334.1 327.9 322.4 311.2 302.4 305.7 317.6 336 350.5 361.7 374.2 384.8 393.4 401.5 406.2 409.7 413.3 414.6 417.3 415.8 416.5 417.3 416 420 421.5 423.4 425.1 426.3 427.4 425.4 423.4 422.4 422.3 422 421.2 420.2 419.2 418 417 415.3 413.4 410.5 406.5 402.9 400.6 397.6 395.4 390.4 384.1 376.2 366.6 357.1 344.7 331.2 322.1 321.5 316.3 311.8 308.3 302.4 296.4 288.1 281.9 284.4 292.1 301.3 310 318.6 326.3 332.8 335.8 337.3 337.3 335.3 332.3 329 326.2 324.3 323.7 323.4 323.1 321.9 319.1 314.9 309.8 301.7 292.1 281.9 273.1 262.8 250.5 240.6 251.5 268.1 281.5 296.8 308.7 316.5 318.5 314.9 309.6 304.8 301 298.7 296.1 293.3 288.5 281.6 275.1 271.6 269.9 268.9 270.6 271.5 274 275.7 277.1 278.7 280.5 282.6 284.7 286.7 286.9 287.1 285.5
431.1 429.6 427.3 424.1 420.7 418.3 416.7 414.6 412.5 410.6 408.8 407 405.5 402.5 397.8 390.6 383.8 375.4 367.6 360.8 359.6 356.4 353.3 346.7 340.3 336.7 335.8 336.5 338.9 339.1 336.7 330.8 325 316.1 305.8 289.8 286.7 289.5 292.8 300.2 311.2 309.9 322.2 328.6 332.3 333.1 334.6 335.5 338.1 339.3 339.8 342.1 344.2 346.4 349.4 354.8 359.5 361.3 360.8 360 360.1 360.7 359.6 359.1 359.5 360.1 359.4 358.6 358 358.1 356.9 354.6 351.1 347.1 341.9 336.5 331.2 326.4 318.4 301.2 300.6 320.1 336.7 351.2 363.1 374.7 385.5 394.4 400.8 406.2 409.9 413 415.6 417.2 417.9 418.1 418.7 418.8 418.7 421.9 424.1 425.7 426.8 426.9 425.2 421.4 419.3 417.6 416.9 416 414.3 413.7 412.8 412.8 411.9 410.6 408.5 407.3 405.9 404.2 402.3 399.9 395.8 389.4 381.4 372.8 362.5 352 339.1 325.8 317.3 315.7 311 304.5 294.2 289.2 283.2 277 278.6 284.3 294 305.3 313.9 320.7 326.9 329.9 331.7 331.4 329.4 326.2 322.5 319.6 317.9 318.2 318.3 318.3 317.1 313.8 308.9 301.5 291.6 281 268.5 256.2 243.4 237 246.5 259.8 273.3 286.9 298.4 307.7 312.7 310.4 305.9 299.3 294.6 293 290.2 286.5 283.7 278.4 273.5 269.4 267.8 267.5 268.7 270.6 272.3 276.5 279.2 282.8 285.9 288.1 290.2 292.2 293 292.4 292 291.1
427.4 425.9 423.5 420.2 416.9 413.8 412 409.7 407.6 405 403.8 403.5 402.5 399.7 395.4 388.3 381 374 366 359.3 352.4 349.2 344.3 339.6 333.2 329.6 327.8 329.3 333.5 334 331.6 327.8 321.3 314.3 302.7 286.2 284.7 288.3 293 302.6 311.5 319.9 328.4 332.8 335.9 338.1 339.3 338.7 339.9 340.6 341.9 343.8 345.9 348.9 354.6 358.1 361.1 363 363 362.6 362.8 362.6 361.4 361.9 362.4 362.4 360.8 359.4 359.1 357.8 355.9 353.3 350.4 346.7 341.8 337.2 332.7 327.4 319.3 299.7 298.4 317 336.5 350.8 364.2 376 384.9 393 400.1 405.2 409 411.7 414.3 416.4 417.6 418.6 419.8 420.1 421.3 421.7 425.3 426.8 427.9 427.2 425.6 421.5 416.7 413.8 412.3 409 409 408.1 407.8 408 407.9 407.3 406.6 406.5 406.1 405.8 404.1 403.1 399.7 393.5 385.7 377.2 367.6 357 347 334.4 326.1 321.6 316.4 309.3 300.9 292.3 284.8 276.9 270.4 278.5 287.8 299.5 308.9 315.2 320.4 323.5 325 325.3 323.6 320 315.9 313.9 311.6 312.1 312.4 312 310.8 307.4 301.4 291.4 281.4 265 250.4 239.3 234.7 243 254.6 267.1 278.9 290.5 299.4 304.5 305.1 301.1 296.2 289.9 287.5 285 281.8 278.7 274.4 270.3 268.6 265.9 265.8 266.4 268 270.6 274.8 279 283.1 288.8 292.9 295.7 297.5 298.2 297.8 297.6 296.6 295.3
425.2 423.1 419.9 416.7 413.5 409.2 406.8 403.9 400.7 399.5 398.3 399.2 399.3 396.7 392.7 386.3 378.9 371.9 365.1 356.9 348.8 340.3 337.4 332.6 324.9 321.4 320.8 323.3 327.9 329.3 328.2 324.7 319 311.2 300.8 285.1 284.2 292.3 303.2 313.2 320.7 327.5 333.7 338 340.9 342.4 343.5 341.8 342 342.4 344 346 350.2 355.3 360.3 363.8 365.9 367 366.7 365.6 365.6 364.9 364.2 365.2 365.3 364.9 363.4 361.2 359.3 356 353.4 351 347.4 344.6 339.8 336.5 331.8 327.5 315.5 297.9 298.5 314.7 334.3 350.3 362.3 374 383.5 393 398.4 403.2 406.9 410 412.7 414.5 416.7 418.2 419.3 420.3 422.9 425.1 427.2 427.9 428.4 428.3 425.5 421 416.1 412.1 408.8 406.5 404.7 403.6 403.4 403.3 403.9 403.9 403.6 404.9 405 405.3 404.7 403.8 401.6 396.1 388.8 380.9 372.2 361.6 353.2 343.6 335.6 329.1 321.1 313.6 305.9 297.7 289.4 276.2 267.9 273.2 281.5 291.5 301.4 308.7 313.5 316.5 317.8 317.4 315.9 312.8 308.9 306.7 305.6 304.5 304.6 304.5 302.3 298.8 292.8 282 271 250.3 234.3 229.8 240.1 250.3 261.8 272.4 283.4 292.2 299.5 296.8 295.5 291 286.3 281.4 279.3 276.3 274.4 269.4 267.3 266.1 265 264.4 264.9 265.8 268.3 272.8 277.1 282 287.9 292.8 296.4 299.1 300.4 300.8 300.7 300.1 298.3 296.1
423.7 421.7 418 414.2 410.5 406.8 402.8 399.3 396.7 395.2 393.1 394.4 395.3 393.6 390.2 384.3 378.2 371.5 363.7 355.8 347.8 340.4 330.1 322 317.2 313.7 313.3 319.3 324 325.3 326 322.5 317.4 308.5 297.6 282.1 285.5 297.5 308.3 317.5 324.6 331.6 337 341.6 344.6 346.2 346.6 345 344.8 344.8 346.7 349.3 354.2 359.1 364 367 369.2 370.8 370.5 369.4 368.6 367.1 367.2 367.2 367.7 367 365.1 363 359.3 354.4 349.5 345.6 343 339.7 336.6 333.9 330.9 326.5 312.3 296.7 294.8 314.5 334.4 348.9 359.3 372.2 382.6 391 396.4 400.9 404.5 407.5 409.4 411.7 414.9 416.6 418.2 420.9 424 427 429.3 430.7 430.2 428.9 425.6 420.8 416.5 412.4 408.6 404.9 400 398.2 398.7 399.2 399.9 400.7 400.8 402.4 403.1 403.2 402.6 401.5 399.5 395.8 390.3 382.9 375.3 366.6 358 351.8 344.7 338.4 328.8 320.1 310.8 300.9 292.3 280.1 262.8 268.7 275.1 282.7 292.7 300 305.5 308.8 310.3 310.5 308.9 306 301.7 299.8 298.3 297.1 296.3 295.4 293.5 289.5 283.4 274.3 262.4 241.1 229.7 233.2 242.6 253.5 264.7 274.1 281.8 287.2 286.2 285 282.6 277.7 273.2 270.7 269.3 267 265 264.7 264.7 264.2 263.5 263.8 264.3 266.5 270.6 275 279.4 285.1 289.9 294.2 297.3 299.3 300.2 300.3 300 298.5 296.1 293.4
423.3 421.5 417.8 414.1 409.1 404.4 399.6 395.4 392.3 389.4 388.8 389.3 390.7 390 387.4 383 377.4 371.8 364.7 356.8 348.4 338.8 326.9 316.4 308.8 305.7 307.6 313.9 319.3 322.7 323.3 320.9 315.7 308.2 294.5 278.9 287.4 301.3 312 320.3 328 334.3 340 344.3 347.7 349.4 350.2 350 347.4 348.3 351.1 354.4 358.2 362.5 367 370.3 372.8 374.2 374.7 374.3 372.5 370.7 369.9 369.9 369.4 368 366.2 363 359 353 347 340 336.5 333.7 332.3 330.4 328.5 324.4 311.7 295.1 297.1 315.3 333.1 346.4 357 370.1 379.6 387.9 394.1 398.1 401.3 404 405.9 408.8 411.5 414 416.6 421.3 424.4 427.8 431.3 432.9 432.9 430.7 426.7 421.9 417.3 413.1 409.6 403.8 400 399.7 395.5 395.3 396.6 397.2 398.2 399.3 400.2 400.2 399.7 398.5 396.6 393.1 389.4 383.9 378.2 371.6 365.2 359.8 353.6 346.4 338 327.1 316.4 305.3 294.4 278.3 264.7 262.7 268.4 274.7 280.8 286.9 294.5 299.6 301.9 302.3 301.2 299.3 295.3 293.1 289.8 288.5 288.1 286.6 283.5 279.8 274.3 266.7 256 235.9 227.7 233.1 239.1 249.6 260 267 272.3 273.5 274.1 273.4 269.5 265.2 263.9 262.1 261.5 260.8 261 261.8 262.2 263 263.5 263.4 265.3 268.2 272.6 276.9 281 285.6 289.7 293.5 295.9 297.3 297.6 297.5 295.9 294 291.7 290.5
423.5 421.8 418.3 414.4 409.5 403.2 397.7 391.9 387.2 383.8 383.4 384.3 385.4 385.4 383.9 380.6 376.3 371.5 365.6 359.2 351.4 341.6 328.2 315.8 304.5 300.9 303.5 308.6 315.1 320 320.9 318.9 314.9 307.1 294.1 276.9 286.6 303.6 313.8 322.3 330.7 337.5 343.2 346.8 349 350.8 351.8 352.1 351.2 351.4 353.7 357.8 361.9 365.4 368.8 372.7 375.5 377.2 378.3 378.1 376.5 373.4 372.9 371.9 370.8 368.8 366.2 363 357.6 352.5 343.6 336.6 332.4 330 328.3 327 324.8 321.8 312.3 293.8 294.5 314.4 330.1 343.6 355.1 365.6 374.9 383.3 390.1 394.6 397.4 399.4 402.1 404.9 407.9 411.4 415 420.4 425.3 429.3 433.6 435.8 435.8 433.8 429.1 424 419.6 415.3 411.3 408.2 405 397.4 394.7 392.1 392.8 393.4 394.1 396 397.3 396.8 396.3 395 393.4 390.1 386.9 383.5 379.4 374.7 370.6 366.9 362.1 354.7 345.5 335.5 324.2 311.6 298.7 284.7 268.3 258 261.7 264.3 269.2 273.5 279.7 286.5 291.5 293.9 292.9 291.4 289.8 286.3 282.6 280.4 278.6 276.5 273.8 270.1 264.4 258.6 249.6 230.8 227.1 228.9 235.9 245 251.4 256.8 258.6 260 261.9 261.6 259.4 258 257.1 256.8 257.4 258 258.9 260.1 260.2 261.1 262.4 263.7 265.6 269 273.3 277.3 280.8 284.4 287.5 290.8 293.1 294.2 294.3 292.9 290.9 288.7 286.9 287.1
423.5 422 418.7 414.3 409.4 403.3 396.4 389.7 382.9 378.4 377.2 377.9 379 379.3 378.3 376.4 373.1 369.9 365.4 359.7 353.8 343.9 331 315.8 303.9 296.5 298.1 305.3 312.4 317.5 318.7 316.9 312.7 304.5 292.4 273.2 286 303.4 315 323.8 332.5 339.3 345.5 348.2 350.1 351.7 352 351.8 351.8 353.6 356.3 359.4 362.6 365.8 370.7 374.8 378 380.2 381.4 381.4 379.7 377.2 375.4 374.2 372.9 370.2 366.3 363.1 358.2 351.7 344.3 337.2 333 329.1 324.7 323.5 321 317.8 310.7 293.5 291.4 310.6 325.9 339 350.7 360.7 368.5 377.1 382.7 389.8 393 393.8 397.2 399.3 402.5 407.7 413.2 419.4 425.2 430.7 435.8 438.5 439.2 436.8 431.9 427.6 422.8 418.9 415.2 411.3 407.7 403 396.8 391.8 389.2 389.3 390.3 392.5 393.1 393.2 392.4 391.2 389.4 387.5 384.3 381.7 379 376.4 373.9 371 366.7 361.5 353 343.5 332 319.3 305.6 291.3 275.5 264.5 254.7 256.6 258.4 262.1 266.6 272.7 278.1 282.3 284.6 284.3 282.8 279.2 275.9 272.8 266.9 266.7 264.3 260.2 255.5 251.1 242.7 226 225.5 225.8 231.8 238.2 244.2 247.2 249.1 250.8 252.1 252.5 253 252.6 254 254.9 255.9 255.7 257 259 260.4 261.7 262.9 263.9 266.5 269.5 273.3 276.6 280.2 282.9 285.2 288 290.9 291.6 291.2 288.3 285.6 283.4 282 281.3
422 420.4 417 412.8 408.4 402.3 394.4 386.2 380.3 373.7 371.2 371.7 371.9 372 372.4 371.4 369.3 366.9 363.4 359.7 353.7 345.2 332.2 317.2 301.1 294.8 294.8 301.1 309 315.2 316.2 314 309.4 301.7 290.2 268.3 285.1 302.3 314.1 323.1 332.1 339.1 345.2 348.6 350.9 351.3 351.2 350.2 350.6 352.7 355.6 359.7 362.9 366.1 371.3 376.3 379.5 382 383.6 384.2 383.4 382.2 379.7 377.7 375.9 373.1 368.9 364.5 359.8 353 346 339.8 334 330.4 326.3 322.5 317.8 312.4 301.9 293.9 289.4 304.2 321.1 333.4 344.8 355.1 362.5 370.9 376.5 382.6 385.3 387.1 390.3 394.8 398.9 404.3 410.4 417.9 424.7 431.8 437.8 441.7 443 440.7 436.7 432.1 427.5 423.2 419.7 415.6 410.7 405.9 399.9 394 389.8 387 386.8 388.7 389.3 388.9 388 386.8 384.9 382.5 379.8 378.4 376.8 376.1 374.4 372.1 368.8 364.2 357.8 349.5 339.1 326.7 312.9 296.3 281.3 270.3 258.8 253.7 248.1 246 254.4 258.1 264.3 270.9 274.9 275.6 274.6 272.2 269 264.6 259.5 257 256.2 253 250 245 233 221.8 222.7 223.6 228.8 234 238.4 240.1 242.3 244 245.6 246.9 248.5 249.5 251 251.7 252.5 254.1 256.3 259.4 261.2 262.5 263.3 265 267.1 269.8 273.1 276.9 279.9 282.4 284.6 286.6 289.4 290.1 287.5 283.9 280.6 278.4 276.3 275.8
417.4 415.5 413.3 409.5 405.5 399.7 391.1 382.7 376.4 370.2 365.8 364.6 364.2 365.7 365.3 365 364.5 362.7 360.3 356.1 350.5 341.8 330.9 316.4 301.1 288.4 290.8 296.6 305.7 312.7 313.2 310.7 305.2 298.4 286.3 266.6 281.1 299.3 311.4 321.1 330.2 337.8 343.5 346.7 348.6 349.5 349.4 347.9 348.4 351.1 354.4 358.9 363.2 366.4 371.8 376 379.7 382.4 384.8 386.6 386.9 386.6 384.2 381.8 378.8 375.8 372.1 367.5 362.1 355.3 349.1 343 338 334.4 330.2 326.3 321.9 316 308.5 298.8 289.8 295.6 314.3 325.3 337 346.5 354.8 361.7 368.4 373.2 376.8 379.1 382.2 388.3 393.5 401.1 407.6 416 423.9 431.6 439.2 443.8 446.5 446.4 443.2 438 433.3 428.5 424.1 419.6 414.2 408.8 402.9 396.8 390.8 387.1 385.5 385.6 385.8 385.5 383.3 381.4 379.7 377.5 375.4 374.4 374 373.8 373.1 371.6 368.6 364.7 358.6 352.1 343.3 332.4 319.4 304.1 287.4 270 264.8 260.5 258.2 253.4 241.6 244.1 252.1 261 261.3 266.1 266 267 261.3 257.2 254.1 252.2 248.9 246.5 243.6 236.7 222.1 219.3 219.7 221.5 226.4 230 233 235.9 238.4 239.8 241.5 243.8 245.2 246.9 249.4 251.8 252.5 254.5 257.8 260 261.5 263.8 263.8 266.3 268.4 271.1 274.7 278.2 280.2 283.1 285.5 287.5 288.8 289 285.5 281 276.1 273.5 272.6 271.4
411 409.4 407.4 404.3 401.3 396.8 389.1 379.6 372.6 365.7 360.4 357.7 357.8 359 359.5 359.7 359.2 357.4 355.2 351.2 345.1 337.2 325.2 311.8 298.3 283.9 286.7 293.5 303.2 310 309.8 307.3 301.7 294 282.2 267.7 272.4 294.7 307.6 318.2 327.2 335.5 340.6 343.8 345.6 346.6 346.2 345.4 345.6 347.7 352.1 357.3 362 366.7 370.9 375 378.3 381.5 384.8 387.8 390.4 390.7 388.5 385.5 382.4 379.5 376 370.2 364.4 358.4 352.9 347.3 343.5 339.7 334.7 330.7 326.5 321.2 314.4 305.1 289.1 287.5 306.5 317.9 326.6 335.5 343.7 350.2 355.2 361.7 366.4 369.3 374.1 380.8 388.6 396.3 404.1 412.7 422.3 430.5 439.2 444.1 449.5 451.1 449 445.7 439.2 434.4 429.4 423.3 417.8 412.1 405.3 398.8 393.5 388 385 383.4 382.4 381.6 379.1 375.2 373.1 372.6 371.4 371.1 371.1 371.9 371.6 370.4 367.8 364 358.9 352.6 344.9 335.1 323.2 309.7 291.1 275.7 271.7 269.3 265.4 259.4 253.6 248 236 246.2 252.6 257.6 256.2 256.1 254.3 252.2 249.4 247.1 245 241.4 236 226.5 219.3 216.7 216.8 220.4 223.2 225.5 228.7 231.8 234.7 236.4 239.7 243 245.8 248.5 251.6 254.2 255.9 257.5 260 262.7 265.8 267.7 266.5 267.8 270.1 272.8 275.8 278.6 281 283.8 286.4 288.7 289 287.1 283.5 278.7 273.1 269.7 267.8 266.9
404.5 403.5 402.8 400.3 397.2 393.1 386.5 377.8 369.5 361.6 354.7 350.1 349.9 351.7 352.6 353.4 353.2 351.9 349.7 344.8 337.5 329.2 318.2 304.7 291.3 280.6 283.9 290.8 301 307.3 307.7 303.8 297.9 289.7 279.2 269.9 269.3 290.4 303.5 313.9 323.9 330.7 336.1 339.5 341.3 341.7 341.8 341.2 341.4 344.1 349.2 354.8 359.8 364.3 368.9 373.3 376.7 380.3 385.2 389.3 392.2 394.4 393.6 390.7 387.3 384.6 380.3 374.7 368.6 362.8 357.4 353.3 349.5 345.5 341.9 336.9 332.3 327 320.6 311.3 298.2 285.6 295.7 307.7 315.1 322.5 328.7 336.5 343.1 348.6 354.3 360.1 366.3 373.1 380.8 390.2 400 408.6 419.7 429.1 436.7 444.1 452 454.7 454.2 451.7 447.1 440.6 434.7 428.8 422.1 416 409.1 402.5 396 389.8 384.9 382.4 381.2 378.8 376.8 373.6 370.9 368.3 368.3 367.9 367.6 368.3 369.2 368.3 365.7 362.5 357.8 352.4 345.6 337 325.3 314.7 295.1 282.9 277.3 277.2 273.8 267.9 261.1 254.3 244.5 231.6 237.1 242 243.7 245.8 246.1 245.6 245.9 243.2 240.6 236.5 230.5 217.6 215.8 213.5 214.5 219.2 223 228.2 232.2 236 239.4 243 245.9 249.5 252.1 254.6 256.6 257.9 258.8 260.2 262.2 264.9 267.7 269.5 269.8 271.9 273.2 275.8 277.9 280.1 282.4 284.3 286 288.1 287.5 284.4 279.6 274.5 269.3 265.2 262.9 262.6
398.7 397.7 397.1 396.1 393.2 389 383.5 375.1 365.4 357.3 349.8 344.3 341.3 345.5 346.3 347 346.7 344.3 340.5 336.2 328.7 322 309.7 296.1 285.1 276.9 281.1 288.1 299.4 304.9 305.1 301.4 296 290.3 281.3 270.7 256.7 284.8 298.4 309 318.6 326 330.2 333.6 335.6 335.9 335.4 336.4 338.3 341 345.5 351.5 357.1 361.8 366.4 371.6 375.5 380.4 385.8 390.8 394.3 397.6 398.4 396.6 393.4 390.2 385.5 379.6 373.6 367.8 363.2 359.8 356.6 352.9 349.3 344.8 339.9 333.9 327.3 318.7 307.9 288.4 283 293.9 300.9 309.2 316.6 322.9 329 336 343.3 350.9 357.3 366.2 373.7 383.5 393.3 403.9 413.6 424.9 434 441.5 451.9 457 457.6 455.9 453.5 447.3 442.2 435.7 427.9 420.7 413.2 406.4 399.8 393.5 386.9 384.7 383.2 381.1 378.2 375.1 371.2 368.3 365.3 364.1 364.1 365.4 365.9 365.1 363.4 360.2 356.3 351.5 345.1 338.4 329.2 318.9 299.2 289.9 286.7 286.1 282.6 275.7 268 260 253.4 245.8 233.4 230 231.4 231.6 237.2 239.8 241.1 240.3 236.8 231.6 225 215.5 213.5 210.9 214.4 221.2 228.8 233.9 237.9 240.9 244.2 247.3 250.9 252.6 254.9 256.4 257.3 258 258.7 260.1 261.6 263.8 266.4 268.8 270.9 273.4 276.2 278 278.9 280.2 282 283.1 284.3 285.4 285.2 280.2 274.6 269.7 265.5 261.6 259.2 258.3
391.4 391.2 391.3 391.2 388.6 384.1 378.7 369.9 362 353.5 346.1 338.7 334.8 338 339.5 340.4 339 336.3 333.3 328.8 320.9 313 302.4 288.4 275.9 271.6 277.3 288.1 298 302.3 302.2 299.6 295.3 290 282.9 272.2 255 276.7 292.7 303.3 312.2 319.1 322.9 325.9 327.8 328.9 329.3 332 334.7 337.7 342.5 348 354.4 358.9 364.4 369.9 375.4 381.2 387.4 392.9 397.3 400.9 402.2 401.1 399 396.2 391.5 385.9 379.9 374.7 370.2 366.1 363.1 360.3 357 353.2 349.3 343.6 334.7 326.9 317.6 303.8 290.6 281 284.8 293.4 299.3 305.6 313 320.4 326 337.7 346.2 355.5 367 375.9 386 398 408.5 418.9 429.2 437.1 448.8 458.1 460.3 460 458.1 453.1 448.2 441.9 435.1 425.7 418.2 410.5 403.7 397.1 390.4 386.9 384.1 381.6 378.5 375.2 370.7 369 366.5 363.4 361.2 362 362.1 361.7 359.9 357.1 353.9 349.9 345 339.2 330.9 316.6 301.5 300.2 298.4 296.3 291.1 284.5 277.4 270.5 264.2 255.9 248.3 240.5 231.6 223.1 224.9 231 235.5 237.2 235.5 230.5 224 212.8 210.9 205.4 217.4 225.7 233.1 238.2 241.7 244.9 248.9 251.8 252.9 253.6 253.8 254.1 254.7 255.1 255.3 256.5 258.8 260.8 263.2 266.1 268.5 273.1 276.3 277.3 278.2 278.7 279.8 280.6 281.2 281.3 279.1 273.5 269.5 264.7 261.2 257.8 256 254.4
383.1 383.6 384.1 383 381 377.7 373.5 366.8 359.1 350 342 334.6 330.6 331.1 333.3 333.9 332.9 329.9 326.6 322.1 314 306.3 294.3 280.4 268.8 267.2 275.5 288.3 295.9 298.8 299.5 298 294.6 289.2 282.8 272.9 258.4 267.5 286 298.4 305.8 312.3 316.6 318.5 319.2 321.3 324.2 327 329.7 334.3 338 345 351.3 357.5 363.2 369.9 376 382.2 388 394.1 399.9 403.2 404.5 403.7 402.5 400.7 397.4 391.9 387.7 383.5 378.7 374.3 370.9 368.9 366.3 362 358.9 356.1 348.5 340.5 330.5 318.1 308 298 285.7 278.2 279.6 290.8 300.1 303.6 312.5 323.8 336 346.6 358.4 369.3 380 390.3 403.4 413.6 423.7 433 443.7 455.5 460.1 461.2 460.5 457.2 452.7 447.3 439.8 431.1 423 414.8 407.2 399.8 392.8 388.1 385 381.9 379.1 375.1 371.8 369.8 367.7 364.3 361.8 358.3 358.4 357.4 355.8 352.9 350.5 347 343 337.2 327.2 312.3 313.8 313.4 309.4 305.1 300.8 294.6 288.3 281.8 275.1 268.2 260.2 251.8 244.6 234 217.9 220.1 227.3 232.1 232.4 227.2 221.6 210.1 207.5 205.4 218 227.5 234.3 239.8 244.9 248.3 250.5 251.5 250.8 250.2 249.5 249.6 250.3 250.8 251.2 251.9 253.1 255.6 258.4 259.3 264.9 271.1 274.6 275.7 276.1 276.5 276.6 276.7 277 275.5 272.5 268.2 263.6 260.3 256.8 253.9 252.8 251.6
376.4 377.3 377.7 376.1 374.7 371.7 367.4 361.8 355.2 346.2 337.7 330.8 325.7 325.1 326.3 326.7 326.7 323.7 319.4 314.6 307 298 285.8 271.6 258.6 263.6 273.9 287 293.2 295.8 296.4 294.9 292.8 289.5 283.1 272.8 257.3 257.6 278.2 291.7 299.3 305 308.2 311 311.9 314 317.8 321.2 324.7 329.4 335.1 342.5 349.9 356.2 364.1 371 377.5 383.4 388.9 394.1 399.8 403.6 405.5 405.9 405.7 404.5 402.1 398.6 394.4 391.3 387.4 383.8 381 378.7 375.7 372.6 369.9 367.3 361 354.5 347.4 335.4 322.2 312.1 301.5 290.2 280.5 275.9 283 289.3 297.6 310.5 326.6 338.4 349.6 362.4 374.6 386 397.2 407.9 419.2 429.3 439.2 450 457.1 459.8 460.6 458.2 454.4 449 442.4 433.9 425.8 417.9 409.7 402 394.5 388.7 385.1 382.3 379.5 376 373.9 371.8 368.7 365.7 363.2 360.1 355.7 353.4 351.5 348.8 345.2 342 337.6 331.8 321.1 322.6 322.4 323 319 314.2 308.9 303.6 298 292.5 286 278.8 270.4 262 253.2 243.4 231.9 213.3 215.6 222.8 226.2 223.9 218.2 206.8 201.1 204.8 215.2 226.5 233.7 239.5 245 248.1 249.8 249.1 246.5 245.1 244.3 243.6 243.8 243.6 242.6 244.4 246.9 249.5 252.1 254.9 260.9 266.9 271.1 272.9 273.4 273.1 272.7 271.3 269.9 268.6 265 262.2 258.9 255.7 252.8 250.5 249.1 248.2
370.5 371.8 371.8 371 369.1 366.4 362.3 357.6 350.6 342.5 332.8 325.8 321.3 319.3 320 320.2 320.2 316.8 312.6 307.4 299.5 290.6 279.2 261.7 252.8 260.3 272.7 283.4 289.2 291.4 292.5 291.9 289.9 289 285.7 276 258.2 241 269.5 285.5 293 297.7 300.6 303.6 305.6 308.2 311.6 315.2 320.5 326.4 332.4 339.9 348.3 357 364.7 371.5 377.5 383.4 388.5 393.7 398.8 403 405.8 407.4 407.9 407.5 405.9 403.9 401.1 398.6 395.6 393.5 391.1 389.9 386.5 385.9 382.4 379.4 374 366.7 361.2 350.6 337.8 326.6 314.6 304 293.9 280.4 274.7 279.1 282.5 295.7 315.8 331.9 344.3 355.9 368.3 381.2 392.8 402.5 415.2 424.2 435.7 444.7 452.3 456.8 458.5 456.7 453.4 448.2 442.6 434.5 427.3 419.3 411.8 403.8 396.4 390 385.3 382.9 380.3 378.8 376.3 373.8 371.5 368.2 365.4 361.7 357.5 353.6 350.3 347.9 345.1 338.3 333.6 329.9 328.3 328.4 330.3 330.6 327.3 322.5 318 313 307.1 301.8 295.6 288.1 278.6 269.9 261.3 250.6 239.1 226.5 213.5 209.6 215.3 217.2 212.2 204.8 201.2 203.1 212.5 224.9 232.6 239.3 244.2 246.5 246.5 244.1 241.1 239.1 237 236.3 236.3 235.1 236.3 239.1 242.6 245.7 248.4 252.8 258.1 263.6 267.6 270.5 270.2 269 267.7 265.8 262.8 261.6 258.8 257 254.2 251.1 248.4 247.2 246.1 245.4
364.5 365.7 365.7 365.6 363.9 360.8 356.5 351.3 345.1 337.1 327.8 320.9 316.1 312.4 312.8 313.7 314.2 312.5 308.4 302.6 294.5 283 269.8 252.4 244 257.7 269.3 279.6 284 286.8 288 287.8 287.3 286.4 283.8 275.8 260.1 235.9 260.8 278.2 286 290.9 293.8 296.5 299.1 302.7 306.8 311 316.6 324.3 329.8 337.4 347.8 357.2 364.5 370.7 376.5 381.9 387.3 392.4 397.4 401.9 405.2 407.4 408.5 408.9 408.3 407.1 405.9 404.1 401.9 400.5 399.6 398.8 398.4 396.9 394.8 393.8 388.2 381.6 374.5 364.7 352.5 338.8 325.7 314.4 303.9 290.5 276.6 274.1 275.4 288.8 305.6 324.8 339.5 352.3 363.7 375.2 388.3 397.8 410.2 420.2 430.4 438.9 447.3 452.2 454.3 453.5 450.9 446.5 440.1 433.2 425.1 419.3 412.2 404.2 398.2 391.9 387.3 384.2 382.8 382.1 380.5 377.8 375.4 371.8 368.4 364.9 361 357 353.6 350.3 346.7 341.3 337 333.5 332.5 334.7 336 335.4 333.2 329.2 325.7 321.1 315.8 310.4 304.4 296.6 287 277.3 266.6 255.6 245.5 234.9 223.5 212.1 207.6 207 204.2 203 201.5 201.3 211.7 222.7 231 237.8 242 243.5 241.9 238.8 234.4 231.4 229.9 228.8 228.3 229.3 233 236.4 241.1 245.8 250.2 255.3 260.8 264.6 267.5 269.7 267.7 265.3 261.8 259.3 256.6 254.8 252.9 251.1 249.6 247.7 246 244.3 243 241.8
357.6 359.6 360 359.5 358.5 355 350 344.6 337.8 330.3 324 316.4 310.8 309.5 308.8 309.7 309.6 307.6 303.5 297.3 290.1 276.7 260.5 243.2 239.3 254.3 268.6 275.8 279.1 281.4 282.9 283 282.3 282.8 281 274.3 258.1 234.5 251.5 270 279.3 284.3 287.1 289.7 291.6 295.6 301.7 308.5 314.2 321.2 327.9 335.5 346.2 356.2 362.9 368.8 374.6 380 385.2 390.5 395.4 399.3 402.5 405.3 406.8 407.8 408.6 409.1 408.6 407.1 406.6 406.5 406.8 406.3 405.6 404.2 402.5 402.8 399.9 394.2 386.8 376.3 363.6 348.9 334.7 321.9 309 296.1 282.1 271.6 273.6 287.6 302.5 319 336.5 349.9 361.5 373 384.7 394.8 406.6 416.6 425 434.6 441.4 446.4 448.8 448.2 445.9 441.2 435.3 430.3 423.4 417.7 411.6 405.3 399.4 394.3 389.9 388.2 387.5 387.2 385.1 382.2 379.3 376.1 372.6 368.4 364.2 360.4 356.8 353.3 349.8 346.1 342.5 338.4 336.1 337.4 339 338.9 336.8 334.2 331 327.2 322.6 317.8 311.7 304.2 294.1 282.6 271 258.4 248.1 238.5 229 218.6 208.4 203.9 199.5 200.5 199.6 199.8 211.1 219 228.4 235.1 238.3 239.1 237.5 233.6 228.4 224.9 223.5 222.1 222.4 226.2 232.4 239.5 245.3 250.9 256 260.4 264.9 267.6 269 269 265.7 261.7 257.4 254 251.3 249.7 247.3 247.2 245.4 243.9 241.7 240.1 239.4 238.3
350.2 353.4 354.4 353.8 353 349.8 344.2 339.2 333.1 326.5 320.9 313.5 308.2 305.3 304.6 304 304 303.1 299.2 292.6 284.6 272.5 254.5 236 233.3 252.4 265.3 272 274.6 276.3 277.3 276.7 276.2 276.4 274.3 269.2 254.7 236.1 241.1 264.9 273.7 278.3 280.8 284 286.5 293.6 299.4 305.2 311.6 318.8 325.8 334.5 343.5 353.4 360.1 365.9 371.9 377.5 382.5 387.5 391.7 395.6 398.9 401.5 403.9 405.9 407.9 409.3 410.1 410.6 410.6 410.8 411.4 410.9 410 408.8 406.8 406.5 403.8 399.2 393.1 382.6 369.7 354.8 337.4 322.7 306.7 292.8 279.4 271.4 271.9 286.5 303.7 318.8 334 348.9 361.1 371.8 383 392.9 402.2 413.2 421.3 429.3 435.4 439 441.1 440.4 437 434 430.7 425.1 420.7 415.7 410.2 404.6 400.5 396.2 392.7 392.3 391.8 392.4 392.1 388.5 384.4 381.4 377.1 372.4 368 364.2 360.5 357 353.4 348.2 344.1 340.8 339.8 340.4 341.5 341 339.3 337.3 333.8 331.1 327.3 322.5 316.8 309.5 299.2 286.1 274.2 262 250.4 240.4 230.6 219.8 209.5 205.3 202.3 196.6 196.6 196.8 206.1 215.2 224.2 229.3 232.6 233.6 232 228.1 222.2 217.5 216.3 217 221.2 229.2 236.3 243.3 249.9 256.2 261.6 265.2 267.9 269.1 269.9 268.2 264.1 259.4 254.4 250.5 247.7 246.3 243.7 243.3 241.7 239.6 237.2 235.7 235.1 235.5
344.8 345 347.6 348.7 347.9 346.2 342.1 336 329.9 324.7 317.2 310.1 303.8 301 298.8 298.5 298.5 297.4 294.5 289.5 281.4 269 250.2 229.9 230.6 250.1 263.1 268 270.1 271.2 271.2 270.2 269 269.2 266.8 260.7 246.2 231.5 230 259 267.8 272.2 275 278.1 284.2 290.7 297.9 303.5 308.4 317.1 324.9 332.9 342 349.5 356.8 362.7 368.7 373.4 378.5 383.2 387.4 391 394.6 397.3 399.6 402.8 405.5 407.8 409.4 411 412 413.1 413.1 412.6 411.7 410.3 409.7 408.8 405.9 401.1 393.1 380.6 362.3 346.1 329 313.2 298.2 282.7 273.8 268.9 275.6 294 309.4 323.2 335.8 349 360.8 372 382.6 392.5 401.3 409.6 417.5 424 430.3 432.6 433.2 431.8 430.6 428.1 423.9 420 415.8 412 408.2 403.2 399.5 396.5 394.9 394.5 395.3 396 397.6 395.8 391.1 386.9 382.3 377.6 373.5 368.8 364.4 360.9 356.4 351.1 345.4 343.5 342.9 342.8 343.4 342.4 340.2 338.2 336 332.8 329.4 324.9 319.5 312.5 302.7 289 277.5 264.3 251.3 240.2 230.9 224.5 217.6 209.7 203.6 200.7 197 190.5 200.7 211.2 217.6 221.8 224.8 225.6 225.2 221.9 215 210.6 211 215.5 224.7 232.5 240.1 247.5 254.4 259.6 263.6 267 269.7 270.4 269.2 266.5 262.3 258.3 253.1 249.3 244.8 242.7 240.7 239 236.8 234.6 233.1 231.4 231.1 232.4
341.1 341.1 343 343.7 343.4 341.6 338.2 333.8 328.2 320.7 314.2 307.8 302.5 298.8 293.1 293.6 293.8 293.1 289.7 284.6 276.7 265.4 245 224.8 226.6 246.4 259.1 263.8 265.5 265.5 264.5 263.5 261.8 258.9 256.4 247.8 234.5 220.3 224.8 253.9 262.7 263.5 269.4 276.3 282.8 289.5 296.4 302.8 308.5 316.2 323.9 331.8 338.4 345.7 352.5 358.5 363.8 368.8 373.7 378.2 382.5 386.1 389.5 392.7 395.8 399.1 402.5 404.6 407.4 409.8 411.5 413.1 413.5 412.7 411.1 409.5 409.2 408.8 405.6 399.4 388.8 371.9 350.9 333.8 317.9 301.5 287.2 276.5 266.4 267.3 285.1 303.1 316.2 330.1 341 352.7 362.6 373.5 383.8 393.7 402.3 409.3 415.7 421 424.8 426.6 427 426 423.8 420.9 417.6 414.2 411.3 408.2 404.3 400.3 397.4 394.4 393.7 395.2 396.7 398.4 399.8 399.1 395.8 391.7 387.7 383 378.5 373.4 368.4 364.1 359.3 354.2 348.5 346 345.7 345.2 344.6 342.9 340 338 335.8 333.3 329.7 325.7 320 313 303.7 290.9 279.4 266.8 252.4 243.4 236.6 231.1 224.6 218.2 212.9 207 198 194.1 195 199.9 205 210 214.2 217.3 216.5 213.9 207.7 204.9 209.3 218.4 227.3 235.1 243 251.1 257.5 261.5 265.4 268.1 270.6 270.1 268 264.9 261 256.3 250.6 246 241.4 238.1 236.1 234.2 231.4 229.6 228.2 227.1 227.6 230.2
335.6 337.2 338.5 338.1 337.9 336.2 333.5 330.1 324.2 318.1 312 306.3 300.5 295.9 290.2 288.7 288.1 287.8 284.6 280.4 272.6 260.9 240.6 219.3 223.3 242.9 255.4 259.2 260.8 261.2 259.1 257.2 253.3 249.7 241 231.5 220 209 232.1 250.8 254.8 260.2 267.5 275.8 282.4 289.1 295.7 302.3 308.9 316.1 323 329.5 335.9 342.3 348.2 353.7 358.9 363.9 368.4 372.9 377.1 380.5 383.9 387 390.3 393.7 397.2 401.5 404.8 407.8 409.5 410.8 411.3 411.2 409.5 407.7 406.6 405.6 402.3 394.5 380.9 360.7 339.9 323.3 306.8 290.9 281.6 269.5 264.8 272.8 291.1 308.2 323.7 337.2 347.9 357 366.3 376.8 386.5 395.5 403.3 409.7 415.1 418.8 422 422 421.3 418.9 416.4 414.5 411.2 408 405.3 402.4 400 396.3 392.7 390.2 391.3 394.2 396.3 399.1 401 401.7 399.3 396.4 392.5 388.3 383.1 377.6 372.4 366.1 361.3 357 352.2 349.7 348.4 347.7 345.8 343.3 340.2 337.7 334.6 331.5 328.2 324.5 319.4 312.7 304.5 292.5 281.7 269.9 258.8 249.9 243.1 237 231.3 225.7 219.9 213.3 203.2 194.3 188.3 190.2 189.4 191.5 199.2 206.2 206.6 202.4 200.4 203.8 212.2 221.3 229.6 237.3 245 252.1 258.2 262.5 267.4 270.5 272 269.7 267.1 263.6 259.2 254.1 248.3 242.7 238 233.7 231.5 229.5 226.9 225.1 223.9 222.9 223.9 227.2
330.5 331.8 334.1 333.5 331.7 330.2 328.5 325.5 321.6 316.2 309.9 304.1 299.1 294.3 287.4 282.1 280.6 279.6 278.2 273.8 267.3 256.4 238 214.7 215.7 234.4 249.1 253.8 256 254.7 252.4 247.9 242.9 232.1 223.2 214.5 205.7 204.5 233.7 240.7 240.7 258.5 267.8 276.1 283 289.9 296.3 302.8 309.4 315.3 321.5 327.5 332.9 338.4 344 349 353.6 357.7 362.3 366.8 370.5 374.2 377.8 381.6 385.5 389.1 392.6 397.5 401.6 404.8 406.8 408 408.7 408.4 406.8 404.4 402.1 400.7 395.9 389.9 374.3 350.6 331.6 313 297.9 285.6 275.7 262 267.8 274.4 291.2 313.6 330.9 343.3 353.6 362.4 371 380.6 390 397.9 404.9 411.1 414.9 418 419.6 418.9 416.9 413.3 410.4 408.3 405 401.8 398.9 396.4 393.8 391.2 388.9 386.3 388.3 391.6 394.7 397.8 401.3 403.7 402.9 401.5 398.4 394.4 388.5 381.8 375.9 369.8 364.1 359.7 356.1 353.9 352.3 351 348.1 344.9 341.2 337.1 332.9 329.7 326.5 322 317.4 311.6 303.7 293.7 284.3 274.1 264.6 256.8 250.6 244.5 239.1 232.5 225.9 219.1 210.5 199.4 189.2 186.5 185.6 184 185.5 194.7 193.5 194.3 198 206.8 215.8 223.9 231 238.7 243.8 250.7 259.5 264.7 269.2 270.7 271.2 269 266.1 261.7 257.3 252.3 246.1 239.6 234.6 230.2 226.8 223.7 222.2 220.8 219.5 218.8 220.4 223.8
326.7 328.6 329.8 329.1 327.3 324.2 322.4 320.7 317.6 312.5 307.4 302.3 298 292.5 286.9 280.2 273.9 271.3 267.9 263.6 259.9 251.9 237.2 217.8 207.8 218.7 237.5 247.7 250 249.1 245.9 238.6 223.3 214 205.7 199.1 198.9 212.9 222.9 236.6 249.2 259.4 268.5 276.8 283.8 290.7 297 303.2 309 313.7 318.1 323 328.9 334.1 339.3 343.5 347.4 351.5 356.1 360.8 364.5 368 371.5 375.4 378.8 383.7 387.8 392.9 398 402 404.1 405.2 406.1 405.5 402.8 400.1 397.4 395 391.5 384.2 369.2 344.9 323.2 306.2 291.1 279.2 268.9 262.7 269.2 281.4 299.7 323.5 337.6 349.2 360.3 368.2 376.8 384.7 393.6 401.2 407.8 412 415.3 417.4 417.2 415.8 413.5 409.9 405.5 402.7 399.2 395.9 393.2 390.5 388.1 385.5 383.3 382.3 384.9 388.5 392.7 395.9 400.2 402.9 404.9 404.6 404.1 399.9 394.3 387 380.1 373 367 363 360.3 358.1 356.2 353.7 350.6 346.4 342.3 338 333.4 328.8 324 319.2 314.3 309 302.2 293.9 285.6 277.1 269.4 263.5 257.8 252.1 247.3 241.9 234.9 227.5 218.9 208.1 194.1 186.2 184.6 183.5 182.4 184.1 187.5 192.6 199.3 208.6 216.8 222.7 231.1 237.4 243.2 252.3 260.7 265.8 268.6 269.7 269.5 267.2 264 259.8 255.3 249.8 243.4 236.5 231.3 226.4 221.7 218.8 215.7 214.4 214.5 214.5 216.9 222.1
321.3 323.8 325 324.7 323.1 321.4 319.5 315.8 313 307.9 302.6 299.7 296.5 292.6 287.5 279.2 272.1 264.5 260.7 257.9 252.9 247 237.6 222.5 205.4 204.1 221.2 240.4 245.3 243.5 237 221.4 205.3 196 189.4 196.7 217.5 232.7 236.3 240.6 249 259 268.8 276.8 284.1 291 296.7 302 306.2 310.2 314.2 318.9 324 329.3 334 338 341.7 345.4 349.8 354.5 358.5 361.9 365.3 368.4 371.8 377 382.7 389 394.2 398.8 401.4 402.5 403.5 402.4 399.1 395.3 392 389.7 385.1 378 364.3 340.9 318.4 300.9 286.8 274.7 260.7 264.5 274.8 288.3 309.9 326.7 343.8 355.8 366 373.8 381.5 389.5 398.4 405.3 409.8 412.9 415.5 416.7 415.7 413.8 410.4 406.2 402 397.6 393.8 390.5 387.6 384.8 382.3 380 378.4 377.7 380.9 384.9 388.7 392.8 395.8 401.1 403.1 405.1 406.3 404.9 400 392 384.1 377.3 370.7 366.6 364.4 362.3 360.1 356.7 352.1 347.9 343.2 337.6 332 327.3 321.6 316.4 310.6 305.5 299.7 293 285.6 279 273.1 267.8 262.5 257.4 252.4 247.1 240.6 233.3 224.9 215.6 204.1 190.7 186.1 184.7 181.5 180 181.7 185.8 196.7 206.1 214.8 221.8 230 236.2 242.6 252 259.6 264.3 266.3 267 266.8 264.4 261.1 256.9 252.6 246.5 239.2 232.4 227.1 221.5 215.8 211.8 210.9 210.3 210.4 211.7 216 221.6
316.2 318.5 319.5 318.9 317.6 316.7 315.2 312.5 307.7 304.2 300 297.9 294.3 291.7 287.1 279.1 269.3 262 252.7 248.7 246.2 241.3 234.4 225 209.1 195.7 210.9 229.9 236.9 235.6 224.6 206.6 191.9 180.8 190.5 213.6 230.5 233.6 233.2 239.2 247.7 256.5 267.8 275.6 283 289.5 294.4 298.5 302.1 305.1 308.3 313.1 319 323.8 328.3 332 335.6 339.3 344 348.3 352.5 355.9 359.3 362.6 366.6 371.4 377.6 385.2 390.6 395.4 398.8 400 400.8 399 395.5 390.5 386.5 382.6 378.5 371.1 360 339.5 316.3 296.5 282.3 271 260.5 267.4 278.9 296 315.3 329.3 348.9 360.3 371.9 383.1 391.8 400.5 407 411 414.1 415.1 415.7 415.8 414.5 412 407.5 403.3 398.7 393.8 390.3 386.5 381.7 377.7 375.4 374.9 373.8 374.1 376.7 379.2 382.6 386.5 391.2 396.7 401.1 402.9 405.7 404.7 400.7 393.8 386 380.2 374.3 370.9 369.3 367.5 364.2 359.7 354.1 349.5 344.4 339 333.4 326.7 320.1 313.4 307.6 302.1 296.1 291.1 285.2 279.6 274.4 269.2 264.1 258.9 253.4 247.8 242.3 236.1 228.4 219.2 208.5 196.4 190.3 187.3 185.4 183 177 178.2 188 198.2 208.9 218.7 227.2 235.1 242.3 250.1 256 260.9 262.9 262.4 261.8 259.9 256.8 252.6 247.6 241.9 235.6 228.4 222.8 216.1 210.4 206.5 205.5 205.9 207.9 211.9 218.2 224.4
310.7 313.1 314 313.6 312.6 311.8 310.8 308.8 305.4 301.4 298 294.8 292.3 288.3 282.5 275.9 265.9 258.2 249.3 238.5 236.9 234.1 229.7 222.4 206.6 193.6 200.4 220.2 225.9 225.3 212.4 194.8 179.1 184.2 207.4 225 230.1 227.7 229.7 237.4 246.1 255.9 265.5 273.7 281.1 286.9 290.5 293.1 296.2 299.5 302.9 307.2 312.9 317.8 321.9 325.5 329.1 333.5 338.4 342.4 346.3 349.9 353.4 357.7 362.1 367 373 380.6 386.9 392.5 396.1 397.9 398.2 396.2 391.8 385.9 379.8 374.6 371.1 365.1 355.8 338.8 315.6 294.1 280.1 265.7 259.3 266.9 280.4 301 315 332.2 348.9 362 375.3 388 397.9 406.8 412.5 417.3 417 417.2 415.9 415.2 412.9 410.1 405.8 400.7 395.6 390.8 387.1 383.2 379.5 377 374 372.2 370.9 370.5 371.3 374 376.8 380.5 384.5 388.7 394.7 397.3 399.4 399.2 397.4 391.8 387 381.7 378.1 375.2 374 372.3 368.8 363.3 356.5 351.2 346.1 340.7 334.3 327 319.7 311.7 304.5 297.5 292.7 288.4 283.5 279.4 274.1 268.9 264 258.3 252.4 246.6 241 235.4 228.4 219.7 208.9 199.8 193.1 193.2 192.1 189.2 179.7 175.1 173.5 186.7 197.4 210.9 222.7 232 239.4 245.7 251.6 255.1 257 257.4 255.9 254.7 250.9 246.4 241.8 236.1 230.5 225 218.9 210.3 204.2 201.4 202.3 201.5 206.3 213.1 220.1 227.4
305 307.3 308.6 308.1 308.2 307.3 307.1 305.6 303.5 300.3 296.4 293.1 290.3 285.8 278.5 272.4 265 253.7 243.7 231.9 222.8 223.1 220.6 216.2 204.6 189.6 191 208.6 214.4 212.7 200.7 181.8 174 193.3 210.9 220.1 220 217.9 226.4 235.4 245.1 255.2 264 271.6 278.6 282.9 286.2 288.8 291.2 294.2 297.7 301.7 306.3 310.8 315.3 318.9 322.8 327.5 331.9 336.1 340 343.8 348.3 353.4 358.2 363.3 369.4 376.4 382.8 389.4 393.2 395.3 395.4 393.2 389 381.9 375.1 368.3 364.1 358.8 349.7 336.9 315.9 295.3 278.2 260.6 257.2 264.3 278.8 299.7 312.9 330.4 344.3 358.5 374.8 388.2 399 408.8 415.4 419.5 419.3 417.7 416.1 414.4 411.9 408.1 403.9 398.2 392.7 388 384.7 381.2 377.8 375.2 372.2 370.4 368.9 367.7 367.9 370.1 371.9 374.6 378.5 383.1 387.8 391.3 393.6 394.5 392.7 389.5 384.6 380.9 378.5 377.7 377.4 375.9 371.6 365.3 357.1 351.8 347.1 341.3 334.4 327.1 318 308.9 301 293.5 287.7 283.5 280.6 276 271.9 268.1 262.6 256.4 250.4 244.1 237.8 231.6 224.8 217.1 208.3 200.5 199.2 198.4 196.8 193.7 185.2 170.7 173 171.7 186.8 198.7 210.5 222.8 232.2 238.7 244.8 248.3 248.8 248.7 248.1 246.5 244 239.6 235.7 231 226.3 221.2 214 204.4 198 195.7 196.4 202 209.1 215.6 223.2 230
298.1 301.4 304 304 304.7 304.3 303.9 303.2 301.2 298.2 294.8 291.4 287.9 283.2 277.2 269.8 262.9 250.8 238.6 225.3 217.4 210.8 200.5 199.8 195.6 188.7 182.1 193 194.2 192.6 186.4 170.8 167.1 191.8 204.5 207.7 206.5 212.1 223.7 233.1 244.4 253.9 262.1 269.6 275.2 278.9 281.6 283.7 285.2 288.1 292.3 296.1 301 304.7 309.6 313.1 317.4 322 326.4 330 334.7 338.7 344.1 349.2 354.3 359.5 366.2 373 379.5 386.1 390.2 392.2 392.4 390.2 384.8 377.8 369.8 361.4 356 350.9 343.6 332.9 317.6 299.6 280 265.9 254.6 261.4 274.5 293.9 310.2 326.5 340.5 354.5 372 383.8 395.9 408.4 415.2 419.3 419.8 418.4 416.3 413.8 410.1 406.1 401.6 396.7 390.8 386.7 383 380 377.1 374.4 372.4 369.4 367.3 365.5 364.9 366.1 367.1 368.8 372.8 376.8 381 384.7 387.9 388.2 386.7 383.6 379.8 376.6 375.5 376.6 377.2 376.1 370.2 363.2 356.9 351.4 346.1 340.3 333 326.2 317.2 308 298.4 289.2 281.9 277.4 275 272.4 268.6 264.7 260 254.2 247.7 241.4 234.7 226.4 219.5 211.9 206 202.2 201.9 201.4 200.2 197.2 191.8 179.4 170 170.3 172.8 182.2 195.8 209.2 222.3 232.1 238.1 239.6 240.1 240.6 240.9 239.7 237.7 234.6 231 227.1 222.5 216.8 207.4 197.2 192.9 191.8 197 202.4 210 217.9 225.1 231.5
293.3 296.6 299.8 301.3 301.9 301.4 301 300.5 298.3 295.4 292.1 288.3 285.2 279.4 274.8 266.5 259.5 250 237 224.6 215 207.3 200.5 194.9 191 186.2 183.5 174.3 174.5 173.4 170.8 166.8 165 183.8 193.8 195.4 199.4 209.9 223.1 233.9 245.1 253.2 260.6 266.8 271.3 273.8 276 277.6 278.9 280.9 286.6 291.1 295.8 299.6 303.3 307.1 311.3 315.5 319.6 324.7 329.4 333.8 339.6 345.1 350.1 356.5 363.2 370 377 383 386.8 388.8 389.4 386.6 380.7 373.1 364.7 355 348.4 342.1 334.9 324.8 314.2 301.1 285.1 267.8 251.8 259 271.4 288.5 304.4 320.4 335.1 349.3 364.7 378.9 392.5 405 414.6 418.6 419.6 418.1 415.3 412 408.6 404.6 400.1 394.6 389.5 385.5 381.9 379 377.4 375.3 372.7 369.7 366.8 364.2 362.6 362.6 362.7 363.8 365.2 368.7 372.5 375.6 377.4 378.3 377.4 375.3 372.9 371.3 370.6 372.4 373 371.5 366.6 359.8 354.8 349.7 343.9 337.6 330.7 323.4 314.6 304.5 295.4 284.8 275.2 270.2 268.8 266.6 264.1 260.7 256.5 251.5 245.3 239 230.1 221.5 213.6 208 202.9 200.9 200.1 200.6 199.7 196.4 193.5 186.2 171.4 167.9 167.9 166 178.4 192.7 208.4 222.2 230.5 232.6 233.7 234.3 235.3 235.3 234 230.9 227.6 223.2 219 212.3 202 192.8 188.4 189.8 196 202.4 209.3 218.4 225.8 232.6
289.6 293 296.6 298.5 299.3 299.2 298.7 297.8 295.5 292.5 289.1 285.1 281.3 275.6 270.4 264.7 257.4 249.9 238.9 226.7 217.4 209.7 201.7 196.1 191.6 187.5 184.2 179.3 175.2 170.2 163.7 162.2 163.3 169.5 181 188.5 197.9 211.8 224.2 234.6 244 251.5 257.9 263.2 267.3 269.8 270.7 271.6 273.6 276.2 280.4 285.4 289.8 294 297.2 301 304.9 309.6 314.4 319.6 324.5 330 336 341.5 347.6 354.3 361.4 368.3 373.9 379.5 383.2 385.3 385.4 382.2 375.4 368 358.5 348.7 340.5 332 325.2 316.8 308.5 299.3 286.4 272.4 254 252.8 267.2 284.5 299.5 316.4 330.6 344 359.2 372.3 388.5 404 414.6 418.7 418.8 416.6 413.6 410.2 406.9 403.1 399 393.7 388.7 384.8 381 379 377.3 375 372.8 370.2 368 365.5 361.2 360.3 359.5 359.7 359.7 360 362.1 364.7 365.7 366.5 366.4 364.6 363.9 364.3 364.5 366.1 367.3 365.1 361.7 356.7 351.6 346.1 339.8 333.2 326 318 309.9 300.3 291.4 280.9 270.1 263.4 262 260.1 258 255 251.5 247.1 240.5 234.1 226.6 218 210.7 204.4 199.8 196.4 196.1 196.8 195.9 193.4 188.8 177.3 171.3 170.7 165.3 165.6 164 175.2 192.9 209.2 221.7 226.3 227.7 229 230.4 230.6 229.3 227.2 223.6 219.9 215.7 208.2 198.2 189.5 185.6 189.4 196.2 202.3 209.9 218.5 225.7 232.8
285.1 288.9 292.5 295.2 296.5 296.6 296 295.1 293.1 290.1 286 282.5 277.3 273.1 268 261.8 256.7 249.5 241 232.1 223.9 215.8 210 205.7 202.7 197.6 190.6 185 175 170.1 167.2 159 159.8 159 174.4 187 200.6 214.2 226.5 234 242.3 248.9 254.9 260.1 263.2 265 265.7 266.1 268.9 271.7 274.4 279.5 283.5 287.3 290.8 295.1 299 305 310 315.3 320.9 327.1 333.7 339.4 346.2 352.8 359.8 366.4 371.7 375.8 379 380.3 380 375.3 368.9 361.6 353.3 342.1 332.4 322.4 313.8 308.1 302.4 294.8 284.5 271.7 256.9 250.9 265 281 296.1 311 325.6 339.6 353 365 382.4 401.4 412.6 416.2 416.5 413.8 410.9 408.5 405.1 402 398.5 393 388.7 383.6 380.2 377.9 375.3 373.5 371.8 370.1 368 365.8 363.5 359.8 357.3 355.8 354.6 354.9 355 354.6 355.1 355 355.1 354.3 355 356.6 359 360.5 361.4 359.2 357.1 352.6 348 340.5 334.6 327.9 320.4 312.4 304.3 295.7 285.4 276.2 267.4 259.3 254.8 252.6 251.4 248 243.7 239.9 234.5 229.1 222.2 215.5 208.4 201.4 195.3 191.5 189.1 189.2 188.7 185.5 177 176.7 177.2 177.3 176.7 169.6 163.8 162.1 178.7 194.6 207.2 216.7 220.7 223.5 225.2 225.6 225 222.8 220.4 216.8 212.3 204 194 183.9 183.1 188.9 195.8 201.7 210.7 218.1 224.9 232.3
279.2 284.4 288.4 291.8 293.3 293.2 292.2 290.5 287.9 285.2 280.6 276.7 272.3 268.1 264.2 258.9 253.5 248.2 241.6 236.4 230.4 224.1 218.5 212.3 207.5 202.4 194.1 187.6 178.1 168.6 164.4 161.6 157.1 155.3 171.5 188.8 202.5 214.6 225.7 232.4 239 244.9 251 255.6 258 258.4 257.9 259.9 263.1 266.7 269.6 273.8 277.6 281.3 284.8 288.6 294 299.5 305.5 312.6 319.2 325.9 331.7 338.8 345.2 351.8 358.9 364.7 368.2 371.8 373.9 373.6 371.4 367.9 362.5 356.9 347.4 335.9 324.4 312.4 304 297.8 293 287.3 279 270.4 256.5 249.6 262.4 279.2 292.4 306.3 321.2 333.8 347 357.6 372.9 394.8 407.1 409.4 410.7 409.2 407.4 405.4 403.5 401.6 398.1 393.5 388.8 384.2 380.8 377.4 374.5 371.2 369.3 368.6 366.5 364.4 363.3 361.8 360 356 352.2 351 347 348 346.4 345.6 345.4 346.5 348.2 350.8 353.3 355 355.6 354.7 352.2 347.4 342.5 335 329.2 323 315 306.8 297.9 288.1 278.7 269.7 262.8 255.6 249.6 246.1 244.4 240.1 235.5 231.5 226.8 221.9 215.1 208.4 202.2 195.5 191.2 188.5 185.9 183.9 181.4 180.8 181.4 186.3 190.4 192.2 190 180.1 168.2 161.3 166.8 180.4 193.2 204.3 212.2 216.3 219.5 220.5 220.1 218.3 216 213.1 207.5 198.3 188.3 179 181.7 188.7 195.4 203.1 211.1 217.3 224.8 232.2
271.1 278.8 284 288.6 289 288.5 287 284.7 281.9 279.6 275 270.4 265.5 261.4 258.4 254.1 251.2 247.1 243 238.6 233.4 227.8 222.5 217.7 211.1 203.9 196.3 189 181.1 171.2 161.7 159.4 156.8 154 175.8 192.5 203.6 215.2 223.4 229.8 236.9 242 244.9 249.6 251.3 251.1 252.3 254.3 256.8 260.5 263.5 267.6 271.5 275.2 279.4 283.4 289.3 296.3 303.7 311.6 318.8 324.7 332.1 338.8 345.4 351.5 358.1 362.3 364.9 367.2 368 366.7 364.6 361 356.4 349.6 339.5 329.7 316.9 304.1 294.7 289.5 283.5 278.4 272.8 264.9 254.4 247.7 261 277 289.3 303.3 316.8 329.2 341.2 352.1 364.6 383 395.2 400 402.8 403.6 402.9 402.6 401.4 400.5 398.5 395.2 390.8 385.9 381.9 378.5 375.5 372.5 370 366.8 364.3 362.8 361.6 361 360.1 358 355.4 350 344.9 340.6 339.2 339.1 339.7 339.3 341.8 344.6 347.1 349.5 350.2 349.5 346.8 343.2 336.7 330.3 323.9 317.8 309.3 300.7 291 282 271.5 263.5 256.8 250.6 244.8 240.6 236.1 232.5 226.9 222.7 218.5 213.2 207.5 202.2 197.7 194.2 190.7 189.4 187.8 186.9 187.1 189.2 193 196.6 199.4 201.1 200.2 191.7 176 162.2 159.1 168.1 181.9 194.1 204 209.5 212.9 214.9 214.4 213.4 211.4 207.3 200.3 189.9 178.1 175.2 180.6 189.6 196.4 203.4 210.2 217.1 223.7 231.4
264.1 271.6 279.1 284.2 285.2 283.9 281.2 278.4 276.3 272.5 268.5 262.6 258 255.3 251.7 249.2 246.2 243.2 241.4 237.5 233.1 228.3 223 218 211.6 203.5 197.1 189.9 181.8 172.7 160.4 157.2 154.6 150.9 180.1 195.4 205.3 213.6 222.1 228.2 234.8 238.2 240 242.1 244.8 245.2 246.9 249 251.1 253.9 257.2 260.7 264.5 267.6 272.4 278 286.1 294.2 301.6 310.7 317.6 324.1 331.8 338.7 344.9 350.7 356 359.3 360.7 362.2 361.8 360.1 357.3 354.1 348.8 342.1 333.2 322.2 309.2 297.6 287.6 281.3 277 270.5 265.7 259.6 248.9 246.9 257.2 273.8 286.3 300.1 312.8 324.1 336.5 346.5 358.4 373.6 385.3 392.5 395.7 397.1 398.2 399.1 399.5 399.7 398.7 397.2 392.6 388 384.1 381.1 378.1 375.1 372.1 368.3 365 359.9 359.2 358.6 358 357.1 355.5 352.6 347.8 340 333.3 332.1 331.9 333.3 335.8 338.4 340.6 343 344.3 343.9 341.5 337.3 332.3 326.4 320.5 312.1 304 295.6 285.7 276.7 264.3 259 254.1 249.7 243.5 236.1 231 225.6 222.5 218.3 214.5 208.6 204.4 201.2 198.4 195.6 195.5 195.9 196.4 197.9 199.5 200.9 203.2 205.7 207.6 208.2 205.9 199.3 184.1 166.7 158.9 158.4 170.1 184.2 195.8 202.6 206.6 208.4 208.5 207.7 204.8 198.4 189.4 176.6 170.7 173.3 182.5 190.7 196.9 203.3 210 217.3 224.1 231.1
257.6 263.2 272.7 279.8 280.8 278.7 276.2 273.6 270.1 266.3 262.3 256 251.8 249.3 246.8 244.3 242.2 240.3 238.4 235.1 231.6 227 222.5 216.6 210.1 203 196.6 189.3 181.3 168.7 157.6 154.2 152.3 152.8 181.5 196.2 205.8 213.4 220.9 226.6 232.5 235.3 236.2 237.3 239 240.1 241.2 243.4 245.8 248.4 250.5 255.1 259.4 261.5 266.7 276 285 292.6 300.3 308.7 316.6 323 330.2 335.7 341.4 347.2 353.2 354.9 355.3 355.6 354.7 352.1 349.4 345.4 340.3 334 325.8 315.8 302.9 291.4 282.2 273.8 268.5 262.8 257.5 249.8 245.3 245.9 260.7 271.1 282.8 296.5 308.6 319.2 331.5 341.3 351.6 364.4 375.6 384.1 388.5 390 392.6 394.7 397 398.7 398.9 397.5 395.1 390.5 387.6 384.8 381.6 378.4 374.5 370.9 366 361.1 355.1 355.4 354.4 354.2 353.5 351.9 348.8 343.4 334.3 326.8 326.6 327.6 329.2 331.8 334.3 336.1 337.8 337.7 335.3 332 327.9 322.1 315.4 307 299.3 291.1 282.1 272.6 265.2 260.5 256.5 252.4 247.5 240.3 234.8 229 223.1 217.8 214.2 209.3 207.7 203.2 199.6 203.4 205.5 206 207.5 209.2 211.3 212.1 212.4 213.9 214.6 214.1 210.7 202.6 189.1 175.6 165 155.1 160.2 173.5 183.7 193 198.1 200.3 200.9 200 195.2 187.9 175.5 166.5 167.4 175.8 184.5 190.6 197.3 203.7 210 217.1 224.5 231.3
249.9 255.4 265.8 272.2 274.6 273.9 271.8 268.1 264.3 260.2 256.4 252 247.2 245.1 242.1 240.1 238.2 236.7 234.6 231.9 229.3 225 219.9 214.9 209.5 202.6 196.2 189.2 179 165.9 156.2 152.1 149.7 157.1 180.3 195.7 205.7 212.8 219.8 225.5 230 232.5 233.2 234.4 235.4 235.1 236.6 237.3 241.2 243.4 245.9 249.1 254.1 259.1 267.7 275.7 284.1 291.2 298.9 306.2 313.3 320.1 327.5 332.9 337.1 341.3 346.3 347.9 348.1 347.4 345.3 342.9 339.5 336.2 330.8 325 317.1 308.1 297.3 287.4 277.9 269 261.9 253.1 245.3 243.7 242.9 250.9 261.1 270.2 280.4 292.9 303.8 314 326.5 335.6 345.3 355.2 367.2 375.1 381.3 384.3 387.3 390.5 393.8 397.1 399 399.1 397.6 394.1 391.7 388.8 386.2 382.5 378.6 373.4 367 361 353.9 351.3 349.5 349.4 350.2 349.8 348 344.1 338.4 329.8 321.5 322.5 323.3 325.8 328.1 329.6 330.6 330.7 330.2 327.1 323.1 317.6 311.9 304.2 297 290.5 283.3 274.7 270.3 266 262.1 257.8 253.6 246.2 239.8 233.3 227.6 222.3 219.8 216 211.9 206.9 205.1 210.4 215.1 219.2 222.4 223.1 223.5 222.4 221.4 220.6 219.2 217.1 212.2 204.1 193.7 187 175.3 164.5 152.1 160.9 170 177.8 187.9 190.3 190.2 189.1 185.5 174.1 162.7 163.6 169.8 178.4 184.8 190.9 197.2 202.9 209.3 216.8 224.7 232.4
241.2 246.8 255.8 263 267.5 266.8 263 258.6 254.9 250.7 248.4 245.5 243.2 241.1 238.5 236.6 234.5 231.7 230.6 228.6 225.5 220.9 215.9 211.1 205.4 199.9 193.7 187.9 180.8 166.8 155.9 149.2 147.6 161.3 185.2 196.2 205.7 212.3 218.3 223.3 227.1 229.5 230.5 231.2 230.7 229.9 230.4 233 235 237.9 241.2 244.4 251.6 258.7 267 274.9 282.3 289.1 296.8 303.6 309.7 316.2 322.8 327.7 331 333.7 335.9 337.8 336.8 334.8 332.1 331.6 328.6 325.2 320.4 314.5 308.5 301.3 292.2 282.6 275.4 265.5 256 243.9 241.5 240.2 243.3 252 260.5 268.7 279.2 290.7 301 310.9 320.6 329.7 339 347.8 358.5 367.4 373.8 378.7 382 386 390.8 395.3 398.3 399.8 398.5 396.5 394.1 391.9 389.4 385.8 381.9 375.5 368.3 361.6 355.2 346.9 346.1 344.6 345.9 346.4 345.8 343.5 339.1 333.6 326.1 318.1 318.3 318.8 320.8 322.3 323.4 324.8 324.3 322.1 318.8 314.3 308.3 302.7 296.9 291.1 285.2 281.5 277.5 273.6 270 266.3 260.5 254.5 246.4 239 234.5 230.4 226.9 222.8 217.8 211.3 212.3 218.6 224 229.9 234.2 235.5 234.9 232.2 228.7 225.5 222.2 217.7 211.7 205.3 199.6 194 186.5 175.3 158.5 152 152.8 159.5 168.7 176.7 178.5 177.8 171.9 161.6 160 164.2 171.8 178.7 184.9 190.2 196.3 202.4 209.5 216.9 224.7 231.5
227.7 234.1 242.9 249.6 253.9 253.6 251.5 248.7 245.9 243 241.9 241 238.9 237.4 235.7 233.1 230.5 228.2 223.6 224.5 220.8 215.7 210.6 205.2 199.4 193.9 189.1 185.1 180 169.4 155.7 146.2 146.8 157.9 183.1 196.5 204 210.1 214.9 219.8 223.2 225.5 226.9 227 224.9 222.7 224.8 226.7 229.3 232.3 236.5 243.9 250.8 258.2 265.4 272.9 280 286.5 293.5 299.8 305.7 310.5 315.4 319.7 323.3 323 323.9 324 325.2 323.9 322.8 321.1 319 316.2 311.7 306.1 300.8 294.9 287.1 279.1 271.6 262.4 250 239 239.6 240.5 242.6 251.6 259.4 267.5 277.5 288.2 297.7 306.9 317.3 325.4 333.2 341.6 349.9 358.8 365.4 370.9 376.5 382.4 388.3 393.3 396.6 398.8 398.6 396.7 394.9 393 390.2 386.4 381.6 375.6 368.5 362.1 355.6 349.4 343.1 339.4 340.8 342 342 340.9 338.5 335 331.1 325.3 315 314.5 314.1 315.7 316.4 317.7 318.1 317.8 316.3 311.7 307.7 303.2 298.5 295 291.9 288.8 286 281.7 278.2 274.6 268.9 260.7 252.4 244 240.2 237.4 234.1 229.3 221.9 215.4 218.8 225.2 231.6 237.5 242.4 243.7 242.4 238.7 233.3 228.2 223.8 219.5 213.9 209.5 205.5 201.9 197.6 186.6 174.6 163.4 153.5 147 148.7 154.5 161.1 164.8 162.6 155.5 160.3 165.5 172 177.5 183.2 189.4 195.7 201.9 209.8 216.5 224.4 231.4
212.5 218.4 228 236.4 239.1 239.1 237.4 237.9 238.3 237 236.8 236.4 235 233.8 232.5 230.5 227.1 224.5 218.6 219.2 214.5 209.6 202.9 197 192.3 186.5 183.4 180.4 177.9 169.9 153.6 146.1 142.7 147.9 177.9 193.8 200.1 205.5 210 214.5 217 219 221.4 222.7 220.3 215.3 219.3 220.5 224.9 231.2 238.4 244.1 249.8 256.3 263 269.4 275.4 280.9 288.1 294.1 299.4 305.2 309.3 310.7 312 314.2 315 315.8 315.8 315.6 314.7 313 310.7 308.1 303.7 297.7 292.9 287 280.4 273.4 266.9 257.7 244.9 237 237.4 239.1 246.4 251.4 258.5 266.5 275 285.7 295 303.5 311.6 321.3 329 336.4 343.8 351.3 358.3 365.2 371.8 379.1 385.7 390.7 394.4 397 397.1 395.7 394.2 391.9 388.9 384.9 379 373.2 366.9 361 354.7 348.9 342.8 338 335.6 337.1 337.6 337.5 336.2 335.1 332.1 328.6 322.8 315.1 310.4 309.2 310.6 311.8 312.8 314 313.6 310.9 308 305.2 302.8 301.1 298.6 295.6 293.5 290.7 288 283 276.1 268 259 251.9 247.1 241.6 237.7 233.4 225.2 219.6 226 232.3 238.8 244.3 248.6 251 248.9 243.5 237.5 232.6 227.5 222.8 217.2 213.7 210.9 208.6 204.7 198.1 188.8 179.4 169.7 160.8 152 148.7 143.8 146.1 153.4 155.6 160 164.8 170.5 175.9 181.8 189 195.3 202.2 209.2 215.9 222.6 229.8
202.5 208.4 215.4 224.6 227.4 229.3 229.4 230.2 230.8 231.4 231.7 231.3 230.8 230.1 228.6 227.7 224.9 221.3 212.6 213 207.8 201 194.4 188.2 182.8 178.5 177.4 175.5 173.7 165.5 148.2 143.6 141.9 145.8 176.7 189.9 195.9 199.6 201.9 204.3 205.6 206.5 210.3 213.8 214.2 210.8 213.2 216.1 224.4 231.9 238.1 243.5 250.1 254.9 259.9 264.8 270.8 280.5 282.6 289.1 294.2 298.3 302.7 304.2 305.6 306.2 307 307.3 306.9 306.2 304.9 304.3 302.2 299.7 295.6 290.2 285.1 279.4 273.1 268 261 250.2 236.4 235.2 236.2 243.4 248.3 252.1 258.5 266 273.6 283.2 292.1 302.2 308.1 317.3 325.7 333.8 339.4 347.2 354.9 361.8 368.2 375.1 381.8 387.5 391.5 394.2 394.3 394.1 392.1 389.6 386 381.4 374.9 369.3 363.9 358.2 351.8 345.9 340.8 336.1 331.1 332.5 333 333.5 333.5 332.9 331.1 328.4 324.6 320 314.1 306.3 299.7 305.2 307.5 309.9 311 312.2 309.3 309 308 306.5 304.8 302.4 300 298.6 295.9 291.4 284.5 275.1 267.3 260.3 254.5 248.8 242.8 236.8 226.6 224.2 231.8 239.2 245.9 251.5 255.7 257.2 254.8 249.9 243.5 237.7 232 225.7 220.6 217.3 215.6 214 211.3 206.1 199.1 190.3 181.9 174.4 168 161.9 151.2 142.2 146.6 154.2 159.6 165 169.9 174.5 180.5 187.1 195 200.2 207.3 214.3 221 227.5
196.5 202.1 208 215.2 218.9 221.9 223 224.9 226.2 226.2 226.1 225.8 225.1 225 224.8 225 223.7 219.7 213.6 205.8 198.4 192.9 186.2 179.6 175.5 172.4 170.6 170.4 168.6 163.4 145.6 140.4 140.9 152.8 176.8 185.5 190.9 193.2 192.6 187.4 185.9 188.8 188.9 195.7 199 204.5 209.3 217.1 224.3 231.7 237.3 242.9 247.8 252.7 257.6 262.5 266.1 273 278.6 281.5 287.8 292.3 294.4 295.6 297.3 299.2 300.5 300 299.6 299.2 298.2 296.5 293.8 290.6 286.5 282.1 277.5 272.3 266.5 259.8 251.9 241.7 234.1 234.9 235.6 244 248.6 252.5 258.5 264.4 273 280.2 290.4 299.5 308.2 315.3 324.4 331.3 338.5 345.5 354.1 360.1 366.8 372.9 379.2 384.4 388.9 391.5 392.5 391.9 389.8 386.6 382.9 378.1 371.8 364.7 360.8 355.1 348.4 342.5 337.9 333.2 330.3 328.6 327.5 328.9 330.1 329.6 329 326.4 323.1 318.6 313.4 308.5 297.6 298.9 303.7 308.3 311.3 313.8 314.4 313.8 312.9 312 310 307.7 305.2 303 300.2 296 290 282.2 274.8 266.9 261 255.8 248.3 240 228.1 230.2 238.8 245.7 251.9 257.8 262 263.2 260.9 256.2 250.2 243.5 236.9 230.2 224.9 221.8 220.1 218.3 215.3 211.7 206.1 199.3 192.7 185.5 178.3 172 165.4 153.5 141.6 152 161.8 165.4 170.1 175.1 180.7 185.4 190.9 198.5 205.7 212.3 218.1 224.6
