ncols 200
nrows 83
xllcorner 230000
yllcorner 934200
cellsize 50
136.8 123.8 117.8 107.1 99.6 96.8 86.5 77.8 71.1 67.5 57.4 50.8 48.7 42.2 38.1 38.1 38.1 38.1 38.1 38.1 38.1 38.1 38.1 38.1 38.1 38.1 38.1 38.1 38.1 38.1 38.1 38.1 38.1 38.8 53.4 64.4 76.3 87.2 101 114.6 142.4 146.6 147.4 151.9 155.7 158 161.3 159.2 160.4 168.1 175 181.1 179.1 179 189.9 210.5 213.9 209.4 202.2 172.9 164.9 182.6 188.6 189.5 198.5 203.3 220.5 232.6 246.7 256.8 269.3 273.2 278 278.7 269 279.4 283.3 285.3 288.5 294.1 292.2 289.8 288.6 296.4 298.9 306.1 308.3 309.5 321.4 326.8 333.5 346.7 354.9 365.4 373.3 382.2 398.4 416.8 435.7 447 455.7 459.7 464.6 471.1 485.2 500 514.5 528.2 540.8 550.9 553.7 553.4 556.7 560.7 563 563.7 573.7 579.4 577.8 574.5 571.1 564.6 558.2 544.1 533.4 528.6 523.6 532.4 524.6 530.4 532.8 540.1 551.8 560.4 575.4 584.2 599 612.1 617.3 621.4 635.3 649.1 649.2 617.9 578.9 543.3 521.9 502.2 495.2 491.3 491.3 490 483 478 471.5 462.5 453.9 454.4 452 449.4 448 452 465.7 464 461.2 457.2 456.2 455.9 454.9 472.7 484.5 501.9 523.3 549.3 579.8 613 644.2 666.8 683.4 698.7 708 714.4 717.7 698.1 666.2 635 620 596.5 567.8 539.5 528 515.8 504.5 496.9 502.2 505.4 509.7 524 531.5 544.9
149.5 139.1 131.4 121.9 112.7 109 98.7 91 81.4 78.8 69.8 61.7 56.2 51.9 45.3 38.7 38.1 38.1 38.1 38.1 38.1 38.1 38.1 38.1 38.1 38.1 38.1 38.1 38.1 38.1 38.1 38.1 38.1 38.1 38.1 38.1 48.1 60.1 74.5 90.3 107 118.7 122.1 128.4 133.7 140.3 142.9 151.2 154.4 154.5 162.7 167.4 175.3 174.3 178.3 197.7 216.7 219.6 211.5 190.6 175.1 175.1 193.2 188.5 194.6 197.1 217.4 237.8 243 262.8 273.6 293.5 314.8 310.8 298.3 285 277.2 280.3 286.4 291.3 293.3 293.2 287.7 290.2 301.8 302 306 312.5 318.9 324.7 332.3 343.1 352.2 362.2 369.5 375.4 389 405.4 425.3 439.3 446.6 457.4 464.2 470.1 479.2 485.4 501.9 512.9 524.2 541.3 548.4 547 544.6 545.7 548 550.9 567.8 570.7 563.9 559.4 554.5 552.9 547.1 536.3 528.4 518.2 512.6 515.7 513.3 520.9 524.4 525.9 528.3 536.5 549.2 556.2 578.2 589.6 601.9 613.5 627.2 640.3 637.2 601.7 567.9 535.6 510.9 490.7 483.4 480.5 478.7 479.4 473.9 463.9 455 441.1 432.5 430.3 433.2 430.8 427.4 430.6 443.7 439.2 442.5 440.6 441.9 443.4 459.4 475.3 487.4 510.9 533.3 560.1 594.1 627.2 656.4 677.1 694.5 705.7 714.6 718.8 718.8 692.6 657.8 629.6 602.6 583.3 556.3 529.9 507.5 499.7 496.9 495.4 500.4 504.1 514.7 527.6 538.9 551.4
167 155.7 147 139.4 128.1 117.7 110.6 100.2 99 89.1 77.8 72.2 64.4 58.7 48.6 44 40 38.1 38.1 38.1 38.1 38.1 38.1 38.1 38.1 38.1 38.1 38.1 38.1 38.1 38.1 38.1 38.1 38.1 38.1 38.1 38.1 38.1 47.2 65.1 81 89.5 99.1 104.5 112.7 121.3 126.4 136.4 145.5 147.3 146.1 156.8 160.7 168 170.4 181.1 194.7 212.8 214 199.3 178.2 174.8 187.6 193 192.6 195.4 221.8 250.1 255 263.3 281.7 301.6 321.7 320.3 311.6 302 282.5 278.4 281.7 285.7 293.4 290.4 288.2 290.6 297.7 306 307.8 312.6 316.4 319 329 341.1 351.3 361.3 372.2 375.4 387.5 403.9 422 436.7 445.3 454.5 466.5 472.5 474.3 480.1 485.6 493.8 510.8 529.4 536.1 538.3 532.5 533.2 534 538.5 554.5 553.6 552.3 548.8 546.1 541.7 532.7 528.3 521.1 509.8 504.5 500.3 502 510.6 512.8 508.2 511.7 520.1 529.4 537.2 557.5 572.9 592.5 604.1 614.6 624.7 624.4 586.1 552.1 522.3 501.5 482.2 475.7 469.9 468.4 466.1 462.8 452.4 436.1 425.1 417.7 414.8 410.7 413.1 409.4 420.2 421.1 422.5 427.7 428 428.7 444 462.5 481.7 499.5 521 546.1 575.6 609.4 642.3 668.9 689.5 703.1 713.5 721 723.2 712.5 681.1 643 622.9 594.7 564 547.7 521.8 499.4 485.8 484.8 489 496.5 504.8 519.5 533 546.8 557.8
190.8 173.5 158.9 154.5 147.2 132.8 118.3 118.7 116.8 98.9 90.6 82.9 73.8 64.7 56.9 52 45.8 43 41.2 38.1 38.1 38.1 38.1 38.1 38.1 38.1 38.1 38.1 38.1 38.1 38.1 38.1 38.1 38.1 38.1 38.1 38.1 38.1 38.1 38.1 53.1 60.9 74.5 82 90.4 99.9 110.1 118.4 137.2 141.6 143.1 146.5 152.6 158 169.5 177.6 190.7 203 203.9 195.4 182.4 175.9 176.7 181.4 196.5 197 221.5 255.9 267.1 272.3 287.9 304.2 324.7 319.7 315.5 308.2 296.1 280.5 277.7 280.5 283.3 289.7 285.9 295.6 300.8 308.9 312.8 310.8 312.7 315.5 327.4 340.7 353.1 361.9 373.4 380.1 386.4 400.4 416.1 429.9 444.4 456.3 465.4 475.2 472.7 477.7 482.6 491.9 500.6 522.4 522.1 525 524.9 527.1 525.2 525.7 536.3 538.8 540.9 538.1 537.6 531.7 524.2 520.4 512.4 506.2 496.9 492.2 493.7 490.2 494.5 492.1 501.9 507.7 512.3 524.9 545.3 567.5 580.2 585.2 598.3 607 604 574.3 531 506.3 483.9 473.1 465.9 461.7 460.2 452.6 450.5 436.1 422.7 416.4 404.8 401.6 397 401.2 401.4 407.4 405.7 412.8 417.9 416.7 424.7 447.2 464.8 485.7 508.5 533.7 558.9 595.5 625.8 655.4 680.7 700.2 712 722.2 726.6 725.7 696.1 671.3 641 619.2 587.3 556.5 530.2 511.6 485.2 475 475.9 480.7 496.4 510.6 525.1 538.9 550.6 565.5
204.4 186.7 170.7 168.9 162.3 148.4 150.2 141.9 124.4 109.9 100.8 91.5 84.8 76.4 69.2 61.6 56 52.4 44.1 43 38.1 38.1 38.1 38.1 38.1 38.1 38.1 38.1 38.1 38.1 38.1 38.1 38.1 38.1 38.1 38.1 38.1 38.1 38.1 38.1 38.1 38.1 47.6 59.9 67.6 76.2 88.1 100.6 110.1 131.9 136 139.3 140.3 149.3 152.2 169.8 191.7 200.7 198.5 190.6 185.9 179.3 177.9 178 181.9 196.7 219.1 249.5 265.8 281 292.8 298.9 325 324.6 320.8 318 313.4 299.3 285.7 280.1 276.7 280.7 279.9 296.2 303.7 310.4 313.7 314.3 313.9 316.6 328.5 341.7 355 361.3 375.3 380.6 389.6 403 409.3 425.9 441.2 455.3 463.5 472.5 474.1 474.1 480 478.2 492.8 507.4 515.1 511.7 511.4 512.4 512 511.9 517.2 527.8 528 527 526.5 521.2 513.5 508.1 506.9 501.3 492.4 489.6 485.9 483.5 482.8 484.3 486.8 500.4 501.5 513.6 535.9 554.2 569.2 568 575 578.6 582.4 565.6 526 495.7 475.6 465.9 457.5 453.1 450.2 444 431.8 421.3 410.9 405.1 391.3 386.8 386.7 389.8 394 395.2 396.4 404.3 404.5 404.4 424.5 450.6 471 491.5 515.5 544.2 578.6 610.8 641.7 670.8 691.9 708.6 720.5 728.1 731.4 724.4 685 659.7 640.4 618.2 584.7 551.4 520.1 495.8 474.1 462.4 466.5 475.8 491.2 511.2 529.3 543.5 556.1 567.9
233.4 214.7 200.9 187.4 176.7 175.5 160.6 146.5 135.1 130.8 120.3 108.5 98.9 89.3 80.7 74.3 66.9 57.6 53.8 54.4 47.4 41.7 38.1 38.1 38.1 38.1 38.1 38.1 38.1 38.1 38.1 38.1 38.1 38.1 38.1 38.1 38.1 38.1 38.1 38.1 38.1 38.1 38.1 38.1 41.6 50.9 64.8 80.7 92.7 108.8 122.5 126.9 129 140.5 145.7 152.3 184.3 194.3 201.8 199.9 190.3 188.6 188 185.4 180.9 185.6 201.6 230.6 255.3 275.5 298.4 295.7 297.3 314.6 320.2 321.6 316.7 307.7 293.2 283.8 280.7 277.8 280.7 287.5 304.4 315.1 317.9 319.2 320.2 325.7 328.3 340.9 356.4 364.8 376.8 385.6 388.6 410 412.9 423.9 437.4 449.5 463.7 468 474.4 476 475.9 474.2 480 497.9 496.5 494.4 496.1 489.1 495.5 493.8 503.7 512.5 516.7 512.3 515.6 512.4 506.8 498.6 497.1 494.8 486.8 483.3 485.3 481.7 477.3 479.5 482.4 488.6 500.2 506.2 528.2 541.2 557.8 557 561.4 565.9 567.9 554.7 525.4 490.8 474.1 462.6 454.1 443.5 439.7 433.6 418.3 411.1 402.3 393.8 383.6 376.8 379.4 380.9 386.3 384.5 390.2 392.9 394.1 402.7 421.4 448.6 475.3 498.1 528.2 559.6 593.2 626.5 658 683.5 701.1 716.2 726.7 733.2 735.8 730.1 693.9 661.8 619.1 605.4 573.9 545.5 513.6 483.6 463.5 452.9 459.5 470.5 486.2 505.8 529.2 545.3 559 570
250.7 235.9 221.6 208.1 209.4 203.1 192 176 172.7 161.9 145.7 129.8 117.3 102.5 98 85.4 78.5 68.7 64.7 65.7 61.8 49.8 46.4 42 38.1 38.1 38.1 38.1 38.1 38.1 38.1 38.1 38.1 38.1 38.1 38.1 38.1 38.1 38.1 38.1 38.1 38.1 38.1 38.1 38.1 38.1 40.5 55.4 71.3 89.5 106.5 113 117.6 125.9 133.5 137.7 155.3 188.8 192.7 193.6 188.2 185.6 192 191.2 189 191.3 193.6 200.7 228 255.4 283.8 288.5 290.9 296.9 315 314.2 317.7 310 302.8 286.4 287.9 280.6 278.3 280.1 289.4 314 319.7 326.1 329.6 329.5 333.3 339.9 355 364.4 372.2 384.6 387 406.3 419.1 430 438.6 448.9 457 465.2 475.6 476.2 474 471.6 471.9 476.6 479.9 477.7 476.7 471 472.9 483.1 488.9 499.5 505 499.1 500.8 501.2 493.9 488.8 486.7 485.3 478.2 476.8 478.1 477.3 472.2 475.8 483.5 487.4 493.8 503.9 517.1 535.5 540.3 545.4 554.6 557.2 555.3 542.7 511.8 487.8 466.7 454.8 441.8 435.7 428.2 418.8 411.6 400.5 392 385.6 377 372 372 373.2 376.7 374.6 383.3 387.6 383.7 400.5 419.6 448.4 479.1 508.8 542.6 573.3 609.5 640 669.3 690.5 707.6 721.6 731.1 738.1 740.5 736.8 700.7 663.4 631.6 587.3 563.6 537.2 502.5 470.8 451.1 443.8 452.2 464.8 479.7 502.4 527.4 543.9 558.5 572.3
296.7 281.2 266.8 252.6 236.5 226.1 217.7 202.9 192.6 179.1 164.1 148.2 134.9 123.8 113.8 101.6 89.8 81.8 76.3 72.8 68.9 62.1 53.1 49 45.8 41 38.1 38.1 38.1 38.1 38.1 38.1 38.1 38.1 38.1 38.1 38.1 38.1 38.1 38.1 38.1 38.1 38.1 38.1 38.1 38.1 38.1 38.1 47.6 65.7 83.3 99.3 107 114.7 120.1 128 134.8 153.3 175.9 180.9 181.7 182.1 195.5 199.2 195 193.4 196 195.6 196.8 223.2 256.2 270.1 277.8 282 300.6 305.9 310.4 309.8 306.5 289.6 295.8 288.2 280.4 278.2 278.5 304.4 314.4 324 332.5 338.1 334.4 338 352.4 362 369.6 379 384.9 402.1 417.7 431.7 442 447.7 456.8 458.9 470.4 473.9 474.7 472.4 468.5 466.4 463.3 463.3 459.4 458.6 459.9 461.6 471.1 481.7 489.1 483.1 484 485 483.8 478.9 480.6 475.2 470.9 470.1 470.5 469.6 467.8 475.1 491.2 492.3 495.5 497.3 511.9 526.5 530.9 539.5 544.4 547.1 548.1 537.4 505.7 478.8 458.5 446.6 429.1 428.9 422.5 406.8 398.2 389.7 382.7 378 370 363.2 365.1 368.5 367.9 373.8 379.6 377.5 383.2 401.2 421.1 450.3 489.2 519.7 555.9 588.4 620.5 650.2 674.7 695.4 712 725.4 734.7 740.7 744.2 742.3 704.4 664.5 630.4 589.2 552.1 523.4 492.2 462.4 444.2 438.3 446 458 472.8 498.9 523.2 540.8 555.8 570.6
310.5 301.2 290.6 278.6 263.7 244.1 233.3 217 207.4 195.1 180.3 166 151.4 139.7 131.3 120.2 108.4 95.8 91 84.8 78.2 71 64 57 50.9 46.4 43.8 38.1 38.1 38.1 38.1 38.1 38.1 38.1 38.1 38.1 38.1 38.1 38.1 38.1 38.1 38.1 38.1 38.1 38.1 38.1 38.1 38.1 38.1 41.6 65.5 78.8 89.9 101.2 108.4 114.2 116.6 128.3 151.5 159.6 161.7 175.9 201.9 210.9 214.1 201.4 198.7 198.6 199.2 203.6 231.3 252.6 262.3 273.7 289.2 294.4 299 300.6 301 295.5 289 290.8 280.3 278 280.2 286.4 302.6 317.4 330.6 341.4 340.4 338.3 351.4 361.7 367 374 382 401.3 409.7 428.7 437.9 445.1 452 456.6 464.3 469.1 470.7 472.1 467.6 461.4 459.2 456.4 449.7 448.5 450.2 450.9 458.8 457.9 468 469.6 465.5 465.2 470.8 469.3 464.9 465.8 464.7 463.7 466.7 466.3 467.9 476 494.3 497.3 498.6 501.8 513.9 526.6 530.9 536.4 538.2 540.4 543.1 525.4 501.6 474.4 448.1 433.2 421.8 426.8 412.6 400.5 391.4 384.5 374.7 371.4 364.7 363.2 363.2 363.2 363.2 370.9 374.6 373.5 381.7 398.4 421 453.9 495 531.7 562.3 595.1 626.2 654.8 677.2 698 715.2 727.9 736.7 742.3 746.4 746.2 710 672 634.3 596.1 568.1 532.2 477 454.4 435.8 435.5 441.9 455.7 469.9 493.7 518.4 536.7 549.6 565.7
323.5 311.5 302.9 293.7 283.2 265.4 250 239.2 227.8 211.5 200.1 187.2 167 152.8 147 135 121.2 116.2 113.3 98.3 93.1 83.6 77.4 71.2 67.5 59.9 52.2 48.3 42.4 38.1 38.1 38.1 38.1 38.1 38.1 38.1 38.1 38.1 38.1 38.1 38.1 38.1 38.1 38.1 38.1 38.1 38.1 38.1 38.1 38.1 48.6 56.4 65.1 79.3 93.4 99.8 103.7 112.5 126.8 136 148.6 159.3 193.6 215.2 221.7 221.7 211.9 209.6 207.9 205.9 224.4 245.7 252.7 262.9 276.3 286.4 295.1 299.6 298.2 297.5 288.4 284.3 282.4 279.4 280.3 291.9 305.7 318.5 324.3 330.7 336.7 338.8 347.6 368.8 367.4 370.7 375.2 391.6 408.4 420.7 432.3 440.3 446.6 451.9 460 464.4 466.1 466.9 462.1 458.2 452 448.8 446.6 445 441.8 442.8 446.1 449.2 452.7 453.3 452.8 449.7 453.9 453.6 457 457.2 461.1 460.1 461.6 461.4 462.3 475.9 494.1 498.2 503.6 514.2 524.2 539.1 540.9 535.7 538.3 545 535.9 513.6 493.3 472.2 441.8 425.1 416.5 411.4 401.8 390.1 383.4 377.9 369.4 363.2 363.2 363.2 363.2 363.2 363.2 366.5 368.5 374.6 385 401.4 424.5 453.9 504.7 539.1 569.5 600.3 629 654.4 676.6 700.1 717.5 729.2 737.8 743.6 747.2 748.6 715.7 677.4 639.5 599.7 569.7 531 490.7 452.3 436.7 432.2 438 448.3 466.3 488.2 513.2 530.3 542.9 557.5
328.2 318.5 312.5 303.3 290.3 274.7 264.3 254.8 242.5 229.5 217.6 200.4 185.2 173.2 163.1 146.1 145.5 133.1 128.4 121.5 108.9 98.6 92.4 84.3 77.4 72 65.4 59.6 51 47.8 42 38.1 38.1 38.1 38.1 38.1 38.1 38.1 38.1 38.1 38.1 38.1 38.1 38.1 38.1 38.1 38.1 38.1 38.1 38.1 38.1 38.1 41.5 57.3 74.1 86.1 91.8 100.4 110.6 118.9 128.8 138.6 159.1 185.4 211.6 224.9 228.2 218.9 218.9 212.3 218.7 238.1 254.5 254.2 261.3 277.3 291 297.8 303.7 309.7 296.3 288.3 281.6 281.9 279.7 287.9 308.8 324.9 329.2 333.3 335.3 337.4 344.8 371.3 380.7 375.2 374.5 392 402.2 415.3 425.3 435.6 446.2 451.6 455.7 460.8 463 460.1 452.7 451.3 447.3 444.1 439.3 436.8 435.3 436.2 435 435.5 437.3 438.5 441.8 441.3 442.6 440.9 448.2 448.4 454.6 453 458.4 462.7 463.2 469.7 481.1 493 508.9 521.7 531.6 539.2 543.6 546.4 547.5 544.8 536.7 507.2 483.2 457.9 435.5 421.5 409.3 397.3 387.1 382.2 378.4 372.4 363.2 363.2 363.2 363.2 363.2 363.2 363.2 365.6 368.2 374 383.5 406.1 434.2 468.3 507.4 542 578.1 607.7 631.3 655.6 678.6 700.7 718.6 730.2 737.5 743.1 746.9 749.9 727.6 680.6 645.8 609.4 568.1 526.9 487.6 450.3 434 430.9 433.6 448.5 464.6 490.8 506.7 521.1 536.9 549
328.7 319.5 316.4 311.3 306.1 293.8 283.8 270.9 262.9 256.4 234.4 215.1 200.3 181.9 178.9 169.5 162.9 151.8 143.7 136.1 127.1 113.3 105.6 95.8 86.3 82.7 76.7 68.1 58.3 57.7 53.8 48.4 42.6 38.1 38.1 38.1 38.1 38.1 38.1 38.1 38.1 38.1 38.1 38.1 38.1 38.1 38.1 38.1 38.1 38.1 38.1 38.1 38.1 38.1 49.9 66.4 76.5 86.3 95.8 102.2 111.1 121 132.1 159 177.9 197 220 222.5 218.9 217.2 215.4 223.4 244.5 253.1 252.4 265.4 279.5 289.9 305.4 314.9 307.5 299.2 287.1 284 282.2 284.1 306.5 320.1 335.8 342.7 344.2 339.8 344.4 368 383.6 381.7 374.5 389 399.3 407.2 417 431.3 443.2 448.7 452.3 454.6 457.5 453.9 448.3 447 444 440.8 436.5 433.7 429.3 432.8 427.6 429.1 430.3 432.8 434.2 436.7 435.8 437.3 440.1 443 448.1 446.8 459.3 462.2 464.3 471.4 485.4 498.2 515.7 529.8 536.9 543.6 550.8 555.9 553.3 551.5 528 497.4 475.9 443.3 430 420.6 402.6 387.7 376.6 375.9 372.6 368.5 363.2 363.2 363.2 363.2 363.2 363.2 363.2 363.2 363.2 372.5 385.1 408.3 449.1 478.4 528.7 564.5 593.2 619.6 641.1 660.5 682.3 703.8 717.4 729.4 736.3 740.9 744.8 747 739.1 679.6 641 606 564 520.9 487.2 446.8 432.5 430.3 433.9 445.5 463.3 486.2 500.9 515.1 528.6 541.8
328.5 322.7 318.9 314.2 309.6 299.7 290.6 281 272.5 262.3 247.4 228.5 209.2 196.8 185.5 180.7 174.2 167.1 156.8 147.2 137.7 129 120.2 110 96.2 93.4 86.6 78.2 69.6 68.8 64.4 58.3 53.3 47.3 38.4 38.1 38.1 38.1 38.1 38.1 38.1 38.1 38.1 38.1 38.1 38.1 38.1 38.1 38.1 38.1 38.1 38.1 38.1 38.1 38.1 38.1 53.8 68.4 79.9 87.6 95.5 105.4 116.1 132.8 148.6 171.8 183.1 197.3 214.4 215.3 213.5 212.3 220.9 240.3 247.9 249 270.8 277.8 295.3 308.6 310.9 308 302.7 288.2 285.9 283.4 297.7 316.2 328.9 340.6 347.9 345.5 348.2 354.1 377.9 378.1 375.6 379.8 395.4 400 409 421.1 437.3 443.7 450.7 450.5 449.2 447.7 445.8 442.2 442.6 439 435.7 432.8 426 424.5 422.8 422.6 424.1 425.8 427.6 429.3 430.3 434.2 439.2 439.1 440.7 443.3 456 464.2 467.3 475.3 486.1 499.5 520.6 543.1 547.7 548.5 558.4 563.3 559.1 548.6 523.9 489.9 463.2 441.3 428.8 415.3 400.4 383.7 374.7 371.6 370 366.8 363.2 363.2 363.2 363.2 363.2 363.2 363.2 363.2 363.2 373.9 390 412.7 447.2 493.1 543 585.1 611.5 633 652.7 673.1 692.8 708.1 718.7 727.6 733.2 737.8 740.6 741.2 739.4 681 642.2 606.7 562.8 519.6 480.6 446.1 434.2 429.3 431.2 443.5 458.9 479.7 496 508.2 521.7 536.5
327.6 324.7 321.2 317.3 311.1 303.6 292 284.4 278.1 268.7 254.1 232.5 228.6 220.5 211.2 198.6 187.3 173.1 163.9 154.3 147.9 139.3 131 119.8 109.6 103.6 99.5 87.9 83 79.6 74.9 69.1 60.9 54.5 48.1 39 38.1 38.1 38.1 38.1 38.1 38.1 38.1 38.1 38.1 38.1 38.1 38.1 38.1 38.1 38.1 38.1 38.1 38.1 38.1 38.1 38.1 42.1 57.6 71.8 80.7 91.2 100.7 110.3 123.1 139.3 150.7 167.2 187.8 206.7 205.3 203.4 202.4 219.9 242 246.3 252.6 266.5 283.1 301.4 311.8 314.3 310.6 298.6 291.5 285.2 287.3 305.1 319.9 335.4 346.9 349.3 357.3 365.9 367.3 371.4 374.3 379.1 388.7 394.7 401.3 413.8 426.5 436.9 441.9 445.1 442.6 441.1 440.1 439.2 438.1 435.5 435.3 434.8 424.4 420.5 421 422.9 420.3 418.8 421.7 425.2 422.7 428.7 435.9 440.6 441.3 445.2 456.7 469.6 471.7 483.2 491.1 503.9 526.5 548.5 550.9 553 559.7 557.5 552.2 545.3 519.7 488.8 462.3 442.9 429 412.3 397.3 382.7 374 368.8 369 366 363.2 363.2 363.2 363.2 363.2 363.2 363.2 363.2 367.3 376.9 390.9 416.5 450.2 491.7 538.3 587.8 622.2 647.1 668.6 686.5 699.1 712 719.1 726 729.9 733.5 735.1 734.8 731 680.1 640.9 600.4 559.4 520.4 473.8 450.6 433.7 426.4 429 440.5 455.5 472.8 489.9 501.9 513.1 528.2
329.3 325.8 322.4 318.8 313.3 303.1 295.7 288 279.5 270.1 260 250.8 239.5 230.8 229.2 220.3 203.7 188.7 180.2 174.1 163.6 155.6 144.4 133.3 118.3 112.3 104.5 97.6 91.2 88.3 82.6 78.4 71.9 63.3 58.8 48.6 42 38.1 38.1 38.1 38.1 38.1 38.1 38.1 38.1 38.1 38.1 38.1 38.1 38.1 38.1 38.1 38.1 38.1 38.1 38.1 38.1 38.1 38.1 48 63.4 74.7 82.6 92.1 102.4 115.1 127.3 141 164 177.6 193.5 190.1 194.1 201.9 221.3 229.3 234.4 246.9 278.7 295.3 310.7 314.7 312.4 309 300.2 289.4 285.3 294.4 306.4 325 341.9 346.8 357.5 372.8 377.5 375.2 374 376.7 384.5 390.6 396.3 402.3 416.3 424.7 434.6 438.4 435.6 438.2 437.8 436.9 431 431.3 430.4 430.8 425.8 417.2 417.5 418.8 418.2 416.1 415.4 421.5 421.2 425.6 428.2 443.2 445.8 454.1 463.6 475.8 483.3 482 489.7 504.5 521.7 541.8 550.3 559.1 562.8 556.6 548.2 535.4 513.6 486.8 464.3 440 423.9 408.7 394.9 381.2 373.8 369.1 369.3 366.5 363.2 363.2 363.2 363.2 363.2 363.2 363.2 363.2 368 378.8 390.2 418.4 452.1 492.3 547.7 604.1 628.2 663 683.3 696.7 707.1 715 720.5 724.1 726.7 728 728.7 727.5 718.6 676.6 636.8 594.7 550 513.2 477.7 451.7 429.5 425 426.2 434.2 448.2 466.5 482.6 494.1 506.4 519.9
334.7 326.6 324.7 321.4 315 306.7 299.2 292.4 283.6 274.9 266.4 256.5 249.4 241.1 238.8 230.1 221.6 208.6 196.9 187.3 179.1 166.9 157.7 151 135 125.9 119 113.3 101.8 96.1 90.2 85 78.5 72.2 64.5 55.8 51 43.3 38.1 38.1 38.1 38.1 38.1 38.1 38.1 38.1 38.1 38.1 38.1 38.1 38.1 38.1 38.1 38.1 38.1 38.1 38.1 38.1 38.1 38.1 38.1 53.4 67.9 78.8 85.7 91.3 106.4 119.4 132.9 152.7 163.4 169.8 182.9 191.6 204.5 213.1 220 230.6 251.8 284.4 298.7 309.4 310.5 309.1 304.3 295 289.3 288.2 294.9 308.5 333.6 346.6 356.1 373.4 389.4 385.1 379.7 380.8 381.9 388.5 392.3 396.2 404.8 418 421.5 426.5 426.3 430.2 432.2 433 431.8 428.1 426.2 427.2 422.8 417.8 414.4 416.1 418.9 414.8 413.7 419.8 423.3 424.7 430.9 453.2 469.5 479.5 489.3 495.4 499 494.5 496.5 509.6 518.8 538 549.9 559.5 563.1 553.7 543.8 533.1 513.1 486.8 460.9 438.9 419.1 401.4 394.7 383.2 376.2 370.6 371 369.7 368.6 363.2 363.2 363.2 363.2 363.2 363.2 363.2 368.4 375.5 392.9 420.3 456 492.6 546.3 622.3 658.9 678.6 692.7 702.8 710.8 715.2 719.4 721.1 722.2 722.3 721.6 720 712.5 671.6 637.1 588.8 544.6 506.7 476.1 440.1 421 414.8 421 431 444 458.5 475.4 487.3 498.2 511.2
330.6 326.3 322.5 320.3 316 309 303 295.2 289.4 278.1 273.6 264.9 260.5 253.9 247.3 240.4 229.1 219.5 210.8 196.6 184.5 175.8 168.6 160.7 150.6 140.3 132.8 126.3 117 106.8 96.6 90.9 86.7 80 71.1 65.2 58.1 51.8 42.3 39.6 38.1 38.1 38.1 38.1 38.1 38.1 38.1 38.1 38.1 38.1 38.1 38.1 38.1 38.1 38.1 38.1 38.1 38.1 38.1 38.1 38.1 38.1 45.6 61.2 75.1 83.4 90 100 112 125.8 140.4 153.9 170.4 179.6 190.6 198.1 204.8 213.8 234.8 249.1 283.1 298.4 306.3 306.2 305.3 301.2 293.3 287.2 285.3 291.2 320.3 343 354.9 365.3 392.7 402.4 400.8 396.2 387.2 393 393.1 394.9 397.8 409.2 410.7 416.8 420.1 425.9 429.7 431.8 432 427.8 427.6 423.3 421.8 419.1 413.9 414.1 417.9 416.7 409.9 415.2 421.5 425.5 438 467.2 479.6 489.1 497.9 500.4 507.6 511.9 512.5 515.6 519.3 532.9 545.1 555.9 557.7 552.4 542.5 530.2 510.3 484.8 461.7 442.2 421.3 401.9 390.3 388.1 381.6 376.4 374.9 372.7 368.9 363.2 363.2 363.2 363.2 363.2 363.2 363.2 367.2 376.1 393.9 423.8 460.8 496.8 545.9 619.4 662.6 686.3 698.2 705.1 710.5 712.6 714 715.3 716.2 715.8 714.9 713.4 709 674.4 633.3 580.5 537.5 500.2 464.3 431.1 415.9 413.7 414 427.2 438.3 449.7 467.7 480.5 492.8 504
328.2 324.9 320.8 318.6 313.1 309.5 305.3 300.3 292.3 282.9 279 272.9 266 262.9 254.9 248.4 237.5 229.7 217.7 206.9 197.4 185.5 175.7 171 161 148.8 144.6 141.6 132.8 120.4 108.4 100.5 95.1 86.6 78.6 69.8 64.6 55.6 48.6 43.6 42.9 38.1 38.1 38.1 38.1 38.1 38.1 38.1 38.1 38.1 38.1 38.1 38.1 38.1 38.1 38.1 38.1 38.1 38.1 38.1 38.1 38.1 38.1 38.4 52.5 65.9 77.2 86.8 98.8 108.6 118.9 132.9 147.4 159.8 173.7 186.2 188 201.4 223.8 241.7 249.5 274.4 297 300.5 301.5 303.8 296 287.6 285.2 286.4 301.2 332.1 349.7 357.1 384.4 406.9 412 410.6 398.6 399.4 404.8 405.3 406.9 404.7 406.8 410.7 418 425.4 427.8 428.2 429.8 429.9 428.4 425.2 420.5 416.4 415.1 412.5 415.8 414.3 411.7 408.6 417.9 428.9 442.6 461.5 477.9 486.7 492.2 498 511.8 518.2 519.4 523.6 533.7 540 546.5 554.3 552.8 550.4 539.8 527.5 507.1 485.6 460.8 442.7 423.3 406.7 391.5 387.7 385.4 390.3 387.4 381.9 371.3 365.3 363.2 363.2 363.2 363.2 365.9 366.7 368 373.9 392.9 424.5 453.8 512.1 563.4 621.8 665.7 690.9 699.7 704.2 705.5 706.6 707.1 707.9 707.6 707.6 708 707.1 704.7 671.6 629 580.7 529.3 492.9 447.6 420.9 410.1 406.2 413.4 420.6 434.3 446.5 463.7 475.4 488.1 500.3
327.5 324 319.8 315.9 311.5 307.7 302.7 301.7 297.4 290.4 282.9 279.2 273.1 269.9 262.4 254 248.5 240.9 227.9 213.8 203.5 191.1 184.4 175.3 166.6 159.7 154.2 152 144.4 131.8 120 110.8 104 98 87.4 77.6 69.7 63.4 58.9 52.1 54.9 45.8 38.1 38.1 38.1 38.1 38.1 38.1 38.1 38.1 38.1 38.1 38.1 38.1 38.1 38.1 38.1 38.1 38.1 38.1 38.1 38.1 38.1 38.1 38.1 45.2 57.8 69.8 82.1 94.7 105.3 116.4 128.5 140.9 152.6 161.3 173.7 184 208.1 222.7 238.3 248.3 268.4 291.1 288.3 292.4 293.9 286.6 285.4 286.4 296.1 324.9 343.6 353.2 373.5 398.3 410.2 412.3 404.8 405.5 412.3 419.1 419.2 421.7 421.7 417 421.7 424.8 426.2 426.4 428.7 428.9 431.5 426.6 422.5 419.7 414.9 412.1 414.2 413.2 408.2 404.9 412.5 424.5 433.7 451.8 466.6 481.2 484.6 494.6 510.3 519 526.5 527.5 542.4 549.2 558.2 559.3 552.8 544.3 535.6 524.8 505.1 486.5 463.9 442.1 423.6 406.9 395.4 393.2 391.3 398.6 397.2 390.1 374.4 363.8 363.2 363.2 363.2 365.2 364.7 366.2 368 375.8 392.1 422.4 454.7 513.8 559.3 597.1 652.1 690.2 697.5 699.1 697.7 696.5 694.8 692.2 695.6 699.6 701 703 700.7 672.6 614.6 575.7 526.2 488.5 431.8 407.3 403.3 401.7 408.4 418.9 431.7 445.9 460.1 470.7 482.2 497.3
327.1 323.5 319.1 315.7 311.5 306.5 303.6 301.8 297.8 291.4 288.4 282.8 280.2 275.4 266.2 260.8 257.1 250.7 241.4 224.2 218.9 203.4 197 185.8 182.2 172.9 162.9 157.9 152.1 142.1 132.5 120.7 113.2 105.9 96.8 90 79.9 71.8 64.1 63.6 59.5 55.6 47 39.3 38.1 38.1 38.1 38.1 38.1 38.1 38.1 38.1 38.1 38.1 38.1 38.1 38.1 38.1 38.1 38.1 38.1 38.1 38.1 38.1 38.1 38.1 38.4 51.4 66.7 79.6 90 100.1 113.4 124.6 136.4 144.2 152.1 166.2 182.6 205.3 219.1 233.9 249.3 268.1 280 282.1 285.9 285.3 283.6 286.7 297.7 318.4 341.3 350.8 361 391.4 401 413.9 408.1 403.9 418.3 424.3 434.6 436.4 444.1 440.4 436 432.2 426.9 426.7 426.2 425.7 426.7 429.3 424.7 419.8 417.4 413.7 412.1 410.1 406.5 402.6 406.9 419.2 425.8 440 454.9 471.4 479.8 493.7 506.8 521.5 533.7 536.2 542.3 551.9 563.7 560 551.4 541.6 528.2 513.2 499.4 485.2 465.7 447.7 420.3 406.7 402.6 395.2 394.2 400.5 400.7 391.6 379.1 374.4 372.3 370 365.1 365.8 365.9 365.5 367.3 374 391.9 423.4 456.3 506.9 556.8 600.8 647.8 686.1 691 689.7 682.9 675.9 673.2 677.6 684.8 690.6 695.4 698.7 698.7 673.3 614.9 557.4 523.4 483.1 423.4 411.4 398.8 396.6 408.5 412.8 425.5 441.7 457.1 467.9 481.7 493.8
328.3 322.2 317 313.9 309.7 306.4 302.4 300.4 295.9 296.1 292.7 290.2 286.5 281.7 276 270.8 269.8 259.3 253.4 244.5 234.5 225.5 219.9 205.6 199.1 194.3 185.7 174.5 166.8 155.7 144.4 134.4 125.5 117.4 108.6 99.8 91 83.5 73.5 70.5 66.1 65.6 57.4 47.2 40.8 38.1 38.1 38.1 38.1 38.1 38.1 38.1 38.1 38.1 38.1 38.1 38.1 38.1 38.1 38.1 38.1 38.1 38.1 38.1 38.1 38.1 38.1 38.1 48.6 63 77.2 89.5 97.9 109.4 119.1 129.6 139.7 149.7 165.9 181.9 206.4 216 228.9 243 258.6 271.7 278.1 283 280.8 283.5 294.8 308 329.3 350.4 355.8 376.8 394.1 412 411.9 405 413.4 428.6 442.2 447.5 450.1 451.8 447.1 445.6 435.9 428.8 427.4 428.4 427.2 426.5 423.2 424.9 419.4 415.9 412.1 410.5 406.7 401.4 401.1 411.3 423.9 429.3 447.3 459.7 470.4 488.6 505 518 527.8 532.9 542.6 553.2 560.1 555.4 547.2 537.9 524.9 507 494.9 482 465.7 440.9 419.5 412.1 406.4 403.1 395.8 395.7 394.6 395 386.1 381.6 378.8 375 372.5 369.1 366.5 365 366.5 371.7 383.2 421.9 459.9 506.3 576.2 623.5 651.2 679.8 680.8 671.3 663.2 657.5 656 661.6 673.5 683 689.8 693.9 694.3 680.5 619.1 556.1 497.4 462.1 428.6 409.1 395.9 393.8 404.2 411.9 423.2 438.4 449.1 462 475.5 488.2
326.9 321.3 316 314 310.5 308.7 304.3 302.9 300.3 297.9 297.4 294.7 290.4 286.7 282.3 277.9 274.9 269.8 262.2 257.5 248.7 237.3 236.2 225.7 215.4 206.9 199.3 192.7 183.1 176.7 165.9 153.1 142.6 132.2 120.5 109.5 102.2 94.2 87.1 77.7 74.7 75.4 67.3 60.5 49.8 47.2 46.1 38.1 38.1 38.1 38.1 38.1 38.1 38.1 38.1 38.1 38.1 38.1 38.1 38.1 38.1 38.1 38.1 38.1 38.1 38.1 38.1 38.1 38.1 42.5 60.1 75.1 85.5 94.3 101.8 112.3 123 134.2 151.6 162.2 183.2 197.3 211.9 229.9 241.2 255.4 271.9 281.2 276.6 281.3 288.7 300.7 313.8 333.5 351.4 369.3 387.8 398 412 409.5 410.8 426.8 440.1 449.2 451.6 454 450.3 448.8 440.1 433.2 429.2 430.7 428.5 426.6 423 420.6 418.9 418.4 412.4 410.4 406 405 399.7 403.4 417.3 421.4 438.3 451.9 459.6 481.9 493.4 507.9 520.9 529.5 538.8 554.6 550.9 544.7 537.6 531.8 521.7 506.8 487.5 472.1 466.6 439.5 423.4 416.7 410.8 406.6 404.7 401.4 395.9 393.6 390 386.4 383 378.2 372.8 371.4 367.2 365.7 365.8 370.6 379.6 410.3 455.4 504 568.8 625.6 661.7 671.5 666.7 654.8 645 639.6 641.6 652 665.7 675.1 683.8 689.7 692.8 673.6 617.9 554.7 501.6 459 431 409.6 396.1 391.6 399.8 409 417 430.7 442.7 456.7 469.2 482
327.4 321.2 315.6 313.5 311.6 308.2 305.7 304.4 303.7 300.6 298.1 295.8 292.9 290.5 287.2 283.9 282.5 279.7 268.8 267.3 258.5 250.9 244.7 239.3 229 220.8 211.3 202.3 195.5 186.4 182 175.6 161.1 146.8 135.8 127.2 116.4 109 99.6 90 86.5 80.2 76.1 70.1 65 59.4 53.1 47.2 40.6 38.1 38.1 38.1 38.1 38.1 38.1 38.1 38.1 38.1 38.1 38.1 38.1 38.1 38.1 38.1 38.1 38.1 38.1 38.1 38.1 38.1 38.1 53.7 69.2 82.5 91.9 98.2 108.3 118.6 130.4 151.1 160.7 173.3 194 212 223.1 235.4 255.8 263.4 268.8 273.9 284.4 295.4 310 322.3 339.5 362.3 387.6 396.9 407.7 409.7 408 425.7 439.2 452.2 455.2 454 453.2 447.8 441.9 436.7 434.9 432.2 432.5 428.8 424.8 422 419.3 416.7 414.1 409.3 408.3 404.4 398.4 401.6 407.2 414.7 425.9 442.8 454.5 470.4 485.2 499.6 509.8 518.5 530.4 542 542.4 534.7 525.5 521.3 515.1 500.2 484.2 466.4 453.7 438.1 431.9 425.6 416.7 409.9 410.2 405.7 400.7 397.5 394.1 389.2 387 380 372.4 370.5 364.6 364.8 365.7 368.9 373.9 398.2 448.7 496.9 541.2 620.1 645.6 659.9 652.3 639.8 628.7 625.9 632.7 645.6 658.7 670.4 678.9 685.2 690.6 681.7 627.2 573.5 532.4 475.5 429.8 405.5 392.5 391 396.1 406.7 414.4 427.9 437.6 450.2 461.9 474.9
325.8 322 319 316.1 313.4 309.1 306.4 304.7 303 301.1 299.1 296 294.9 295.4 292.4 289.7 287.5 282.9 278.3 274.5 268.9 267.1 253.9 248.5 248 238.9 228.8 218.6 213.9 204.1 193.8 186.1 176.9 169.4 159.5 146.5 132 123.6 114.6 104.9 99.2 92.7 85.1 80.2 74.2 68.3 62.5 56.1 47.3 38.4 38.1 38.1 38.1 38.1 38.1 38.1 38.1 38.1 38.1 38.1 38.1 38.1 38.1 38.1 38.1 38.1 38.1 38.1 38.1 38.1 38.1 38.1 49.1 65.4 79.4 88.8 95.7 105.5 117 129.3 142.9 156.4 173.3 188.9 200.1 214.4 239.9 240.1 242.8 263 275.4 288.4 304.4 319.3 326.3 346.8 377.7 390.9 407.7 408.9 407.4 421.8 434.3 445 453.3 454.3 452.3 446.9 441.1 435.6 433.8 432.8 431 428 425.6 423.6 423.9 414.1 412.8 408.7 404.1 396.7 399.2 403.1 409.9 416.2 418.2 429.6 446.8 461.4 471.3 490.7 504.6 515.6 520.8 531.6 528 526 520.1 510.6 507.6 489.8 483.8 469.6 452.9 444.9 440 431.1 420.8 414.1 411.8 404.8 402.4 398.2 394.4 392.6 387.1 378 370.4 369.5 366.1 366.5 367 368 371.9 397 431.6 478.8 548.8 618.6 638.7 646.7 636.6 622.8 613.5 614.9 626.1 640.2 653.2 664.5 673.9 680.3 685.2 686.9 669.8 602.9 544 491.5 434.8 406.4 393.3 391.7 393.5 403.3 411 424.5 433.8 446.3 457.1 467.7
332.3 326.7 322.2 318.3 313.3 308.6 306.2 304.9 302.1 300.3 298.8 297.9 300.3 299.2 298.3 295.9 292.9 288.4 284.2 281.8 277.5 276.7 267.4 263.5 263.8 257 245.9 243.9 234.5 225.6 218.5 211 201 188.4 177.8 164.5 149 136 125.7 118.2 111.4 109.3 99.9 91.1 84.2 79.1 74.5 69.2 57.9 51.1 42.2 38.1 38.1 38.1 38.1 38.1 38.1 38.1 38.1 38.1 38.1 38.1 38.1 38.1 38.1 38.1 38.1 38.1 38.1 38.1 38.1 38.1 38.1 45.2 62.3 73.7 85.5 95.7 105.6 116.3 125.1 138.2 147.9 160.5 171.7 186.8 208.5 220 224.7 244.1 267.3 278.7 293.8 316 320.9 330.8 355.3 381.4 393.3 407.6 406.7 411.2 429.5 437.1 449.5 452.7 450.6 442.8 437.6 438.9 435.3 433.7 431.5 430.9 429.7 424.6 418.8 415.9 410.3 404.8 402.1 397.6 394.2 402.5 410.8 422 427.9 435.7 437.2 456.8 468.8 484.8 494.9 509.9 515.3 521 519.6 516.7 511.4 502.8 495.5 482.4 476.5 466.9 453.7 449.9 441 431.9 422.7 416.7 411.3 405.2 400.5 397.4 393.8 392.4 383.4 373.7 371 369.4 366.2 367.2 367.1 366.1 372.4 385.6 410.2 457.3 528.5 571.3 605.7 631.2 621.2 606.4 600.1 609 620.4 633.1 645.8 657 665.6 673 678.4 682.4 680.7 622.3 554.1 496.7 439 410.4 394.3 389.1 393.4 400.5 408.3 417.7 429.5 440.2 452.8 463.5
333.2 332.3 329.7 321.4 316.4 308.7 304.3 303.6 302.3 300.2 298.7 299.1 302.1 302.6 302.7 300.9 298.8 292.7 291.1 289.6 284 284.2 277.1 277.2 275.1 268.3 260 253.4 247.9 241.9 234.5 227.2 220 214.3 207.7 188.2 170.7 155.5 141.3 133.6 125.7 119.2 113.5 103.8 93.3 91.5 85.2 77.4 72.6 64.5 55 48.4 45.7 38.1 38.1 38.1 38.1 38.1 38.1 38.1 38.1 38.1 38.1 38.1 38.1 38.1 38.1 38.1 38.1 38.1 38.1 38.1 38.1 38.1 41.6 58.6 70.7 81.9 91.2 104.2 114.1 123 131.1 142.6 153 168 183 189.9 213.5 234.8 254.5 272.1 282.5 297.8 318.7 323.3 344.8 374 381.7 393 404.1 404.6 413.3 426 436.2 447.1 448.4 441.6 433.7 438.3 436.3 432.8 430.6 430.4 427.1 422.8 417.6 413.6 407.1 399.4 396.4 393.1 388.3 400.9 412 427.9 433.8 440.6 446.5 450.4 462.2 477.8 487 499.1 508.1 514.2 514.5 504 501.6 497.5 486.9 477 467 459.2 454.8 448.3 439.1 432.6 423.7 417.7 411.3 405.8 401.2 394.5 393.1 389.8 380.9 372.4 369.4 368.6 366.5 368.4 367.9 365.8 370.9 379.2 385 440.5 494.8 540.5 602.4 614.8 605.1 591 588.5 599.9 612.9 625 636.1 647.9 657 664 670.7 675.2 676.7 629.7 555.6 492.9 443.6 414.2 396.2 388.2 391.1 397.4 407.1 414.5 426.2 434.1 447.3 457.1
331.8 334.8 332.9 325.3 316.8 309.8 304.8 301.6 300.4 299.7 298.4 297.1 305 304.2 308.5 309.6 306.8 301.4 299.4 295.5 290.5 289.3 282.1 288.9 289.5 283 278.2 273.6 264.7 254.4 244.3 241.9 234.7 222.5 215.6 204.7 194.4 179.6 163.2 153.1 143.4 131.4 127.9 123 112.9 105.5 99.4 93.6 84.7 79.2 69 59.9 51.8 45.2 42.5 38.1 38.1 38.1 38.1 38.1 38.1 38.1 38.1 38.1 38.1 38.1 38.1 38.1 38.1 38.1 38.1 38.1 38.1 38.1 38.1 38.9 48 63.9 77.4 92.2 100.8 109.6 118.6 129.8 140.5 150.1 173.9 188.5 214.7 237.7 249.1 265.1 275.4 285.8 302.2 315.3 330.8 360.2 370.3 377.5 391.5 395.9 403.1 416.4 427.3 437.6 437.6 431.4 427.7 428.5 430 430.8 430.2 426.9 425.2 416.6 409.5 404.1 397.6 391.8 392.2 391.5 386.9 396.4 409.9 421.7 433 438.9 448 458.1 466.1 471.4 475.9 483.5 500.9 509.8 510.5 500.8 491.1 486 479.1 470.9 465.5 454.9 450.3 442.3 436.5 430.5 423.6 416.4 409.3 405 400.5 393.9 391 385.5 379.1 372.5 369.3 367.2 365.7 367.7 368.4 366.2 368.7 375.6 381.8 414.1 479.2 522.1 564.2 603.8 590.8 576.4 578.6 590.5 603 614.4 625.6 636.6 646.7 654.2 659.6 664.5 668.6 638.2 558.5 493.4 447.8 411.8 400.6 389.2 391.5 395.2 403.6 410 416.6 429.5 442 453.8
328.6 333 333.1 324.7 313.2 307.8 303.7 300.5 298 297.8 297.9 297.8 302.7 307.1 310.7 310.9 311.4 308.8 306.8 302.9 299.2 295.1 288.3 294.1 295 293.9 288.8 288.4 282.9 274.7 262.5 253.6 248.3 239.3 230.6 218.5 212.1 197.7 187.3 174 161.9 154.7 149.2 142.3 136.5 129.4 118.9 108 96.2 89.7 79.3 70.5 62.3 54.3 49.8 43.2 39.6 38.1 38.1 38.1 38.1 38.1 38.1 38.1 38.1 38.1 38.1 38.1 38.1 38.1 38.1 38.1 38.1 38.1 38.1 38.1 38.1 44.3 64.5 77.6 88.6 97.8 105.1 116 128 144.8 164.3 181.7 203.2 223 235.4 254 269.1 279.1 292.5 312.3 319.5 344.6 361.6 368.2 377.3 384.8 387.3 400.6 416.4 425.2 422.2 416 415.1 419 419.8 421 421.3 419.3 415.7 406.6 395.9 389.7 385 385.4 388 381.9 390.7 406.1 407.5 416.2 423.5 438 445.5 461.2 473 472.2 477.3 481.3 491.6 505.9 503.2 497.2 487.6 478.9 473.1 468.5 462.5 450.6 444.7 436.3 433.8 428.7 422.1 412.9 407 401.8 398.3 393.3 388.8 382.9 377.4 370.4 365.8 365.4 364.9 368.2 367.7 366.6 369.5 372.1 378.5 403.6 462 497.8 549.3 592.8 579.3 564.3 568.1 579.1 589.1 601.4 612.5 622.6 631.6 640.2 647.2 652.6 658.9 646.5 568.7 497.8 452.4 418.4 398.1 387.9 391.1 391.9 399.5 407.2 415.1 426.2 436.6 448
321.7 323.3 322.3 315.7 310.1 307.7 304.9 299.6 298.2 295.8 295.2 295.3 301.8 307.8 313.1 314.3 314.8 313.4 312.4 311.4 307.7 303.5 297.4 295.8 298 295.9 289.6 292.9 291.9 287.9 281.4 271.9 259.9 252.5 249.3 243.3 227.8 214.8 205.2 190 189.9 183.4 180.3 173.4 184.3 198.2 153.1 142.1 127.9 115.1 100.9 90.8 79.9 73.8 67.1 58.7 50.4 43.6 38.1 38.1 38.1 38.1 38.1 38.1 38.1 38.1 38.1 38.1 38.1 38.1 38.1 38.1 38.1 38.1 38.1 38.1 38.1 38.1 49.8 63.7 76 86.7 90.4 107.1 120.3 133.9 151.9 164.8 180.8 199.3 219.6 235.1 250.4 268.4 279.9 296.5 311.3 322.5 341.6 354.6 366.9 374.8 375.8 384 396.8 407 403.2 403.7 407.5 410.8 413 407.9 407.1 403.6 394.1 381.5 377.5 376.2 373.3 380.1 381.6 382.2 396.6 413.1 427.3 428.7 435.7 447.4 451.2 459 471 479.4 484.8 492.4 492.5 500.2 493.9 491.1 484.4 475.6 468.5 466.4 456.7 443.8 439.1 433.4 428.8 426.1 417.9 409.8 405.6 399.5 395.3 391.9 386.9 381.2 374.3 369.8 364.8 363.1 359.4 364.7 367.1 368.8 368.9 369.8 375.1 394.8 448.3 497.9 556.2 581.7 569.5 553 557.7 565.4 576.4 586 595.9 603.6 614.1 622.9 632.3 639.9 647.6 641 577.1 506 460.8 422.6 397 389.8 385.9 391.6 397.9 404.1 411.9 421.2 431.8 444.9
311.8 315.2 311.3 307.2 306.3 303.9 303.5 301.3 300.8 296.7 296.4 295.6 299.6 305.3 313.2 315.4 316 315.2 315.1 314.4 310.5 306.8 303.8 302.3 298.5 297.7 291 291.8 294 291.6 292.5 288.5 280.9 268.7 257.8 256.9 255.5 237.7 226.1 211.8 207.1 207.2 201.7 210.1 218 225.1 214.4 191.6 159.3 138.7 124.5 111 102.4 96.3 87.3 77.2 63.9 56.2 43.4 38.1 38.1 38.1 38.1 38.1 38.1 38.1 38.1 38.1 38.1 38.1 38.1 38.1 38.1 38.1 38.1 38.1 38.1 38.1 38.1 49.7 63.3 74.2 85.2 98.3 109.5 120.9 135.3 152 164.6 176.3 195.1 211.8 227.5 248 262.2 273.7 289.2 303.9 321.8 328.2 343.5 361.6 366.9 373.8 378.4 384.7 387.7 391.8 396 398.3 397.1 394.4 386.7 379.9 367.3 358.7 359.4 359.1 367 364.4 367.8 381.7 403.6 424.4 441.3 450.7 453.8 457.1 466.2 477.1 489.9 492.1 503.9 506.9 503.1 502.3 498 487.2 481.4 470.2 460.8 461.8 453 439.8 436.1 430.9 427 421.8 413.9 408.3 405.3 399.7 393.5 389.9 384.7 379 373.1 367.7 364.2 361.4 353 361.3 363.3 369.2 366.6 368.5 375.1 391.1 439.3 474.1 524.1 567.7 560 545.4 547.2 553.4 561.2 568.6 577.6 587.3 597.3 608.4 617.2 627.4 637.3 638.2 579.1 515.8 459.3 420.9 395.7 389.1 385.6 389.8 395.7 398.1 406.7 417.5 427.9 438.8
310.8 311.7 305.3 302.5 302.1 300.5 299.6 298.6 297 295.4 294.2 295.5 299.3 305.4 309.1 312.4 314.5 315.9 316.9 315.3 311.2 307.4 304 301.9 299.4 297.7 293 290.7 290.8 291.6 292.3 290.2 286.6 283 277.3 268.2 259.2 259.4 255.2 243.6 232 224 216.8 220.1 223.7 230.1 223.1 217.8 203.6 169.7 148.3 137.7 130.2 121.7 106.5 99.7 86.2 72.2 61.5 49.6 38.7 38.1 38.1 38.1 38.1 38.1 38.1 38.1 38.1 38.1 38.1 38.1 38.1 38.1 38.1 38.1 38.1 38.1 38.1 38.1 48.8 60.5 75.4 88 98.4 111.3 120.4 133.6 147.6 161.1 174.5 192.3 207.7 222 239.6 251.2 265.2 275.1 292.8 303.1 314.3 333.5 345.7 348 358.2 366.4 363.7 368.4 375.1 381 376.7 367.4 357.2 339.7 334.4 340.3 344 345.9 353.8 365.4 375.7 380.1 400.5 428 453.2 464.4 462.6 463 470.2 481.3 492.6 505.9 516.6 521.5 517.3 511.6 501.4 492.8 482.3 471.8 461.1 456.7 449 438.5 435.7 430.4 427.4 422 413.4 408.4 403.9 397.3 394.1 388.3 382.8 376.6 370.5 365.3 360.7 357.7 352.3 357.5 357.6 366.2 364.9 366.2 372.5 385.4 421.2 465.2 506.6 542.2 550.7 536.8 537 542.4 546.4 554.4 564.3 574.5 583.7 594.7 606.2 617.7 628.6 637.2 581.3 518.2 465.6 420.7 395.9 386.1 382.1 386.3 389.8 394.1 402.4 411.7 423.6 432.7
293.3 305.1 298.4 297.9 297.2 296.1 295.9 296.5 296.7 292.9 292.1 293.6 295.4 299.9 307 309.7 310 312.7 312.9 312.4 310.7 306.2 301.7 300.4 298.8 296.1 292.6 289 286 283 284.5 285.1 283.2 284.1 284.9 280.5 273.4 266.2 258.9 256.4 252 244.7 231.7 237.1 235.1 245.4 241.5 232.6 214.3 204.5 192.4 175.1 160.1 145.8 129.5 110.3 102 91.7 77.6 63.5 53.5 39.3 38.1 38.1 38.1 38.1 38.1 38.1 38.1 38.1 38.1 38.1 38.1 38.1 38.1 38.1 38.1 38.1 38.1 38.1 42.3 51 64.4 75.9 89.4 96.3 106.5 118.1 131.5 145.6 158.6 170.7 184.6 202.3 216.9 233.6 244.8 254.9 267.9 284.2 296.4 315.7 326.2 331.4 333.9 340.1 342 342.7 346.6 348.7 342.2 327.7 317.5 308.8 318.2 332.3 340.4 350.1 360.1 368.9 375.1 382.9 409 429.8 455.8 467.9 468.4 468.9 472.6 479.2 495.6 506.7 522.4 524.5 518.4 520.1 511.5 500.1 487.7 475.6 466.2 456.9 445.3 439.7 436 433.2 427.5 421 416.3 408.6 404.6 398.3 392.5 386.6 377.1 368.6 367.1 361.3 357.1 354.2 344.3 353.1 353.6 361.7 360.9 361.8 369.4 377.1 417.8 456.2 495 523.5 535.3 527 523.2 527.1 531.6 541.1 550.1 560.7 572.4 585.9 599.8 610.7 621.9 633.1 584.5 522.1 469.7 429.6 395.3 387 383.1 382.6 387.1 389.6 396.8 406.2 417.4 428.1
263.3 273.2 280.2 290 291 291 292.8 292.6 293.3 292.2 289.9 290.2 292.3 291 297.8 304.3 305.2 306.5 306.9 305.7 303.4 299.6 297.6 293.6 292.1 292 288.5 284.7 281.2 277.5 277 274.1 274.5 278.2 278.8 282.7 281.9 275.3 268.7 265.2 260.4 260.2 263.6 262.3 262.1 251.8 258.2 249.5 245.9 227 216.8 208.9 193.8 175.2 149.9 129.3 115.9 104.5 91.9 78.3 66.9 55.2 43.4 38.1 38.1 38.1 38.1 38.1 38.1 38.1 38.1 38.1 38.1 38.1 38.1 38.1 38.1 38.1 38.1 38.1 38.1 38.1 45.7 60.5 72.8 83.4 92.9 106.1 119.3 129.7 144.6 158.9 168.1 181 199.3 213.4 227.1 237.9 245.7 261.6 281.6 292.9 303.8 318.9 317.6 318.6 323.5 325.5 327.5 323.9 305.6 290 290 318.9 348.5 356 359.4 361.5 362.4 368.4 372.6 388.2 412.6 439.1 456.6 468.1 473 474.6 478.9 492.1 500.3 508.7 517 521 517.7 519.5 514.3 504.4 493.7 481.8 467.7 460.3 452.3 437.9 434.9 433.6 426.9 422 415.7 409.4 404.4 398.7 392.9 387.4 380.2 372.7 365.3 356.3 351.6 347.7 339.9 348.3 348.9 356 357.7 358.9 363.6 366.5 377.7 423.9 467.6 495.9 512.4 511.9 506 511.7 519.2 528.2 538.6 552.4 565.6 580.7 595 605.9 619.5 627.3 571.8 520 470 428.7 396.7 385.1 379.3 380.2 382.3 385.1 391.3 399.4 411.3 422.8
245.7 253.7 266.3 280.6 284.5 286.4 287 288.5 288.2 288.7 288.4 291.7 297.4 299.7 300.5 300.8 301.7 301.1 299.3 297.8 296.8 292.9 290.8 286.3 281.4 281.2 284 280 275.4 274.1 271 267.6 267.4 270.1 273.5 273.2 276 274.7 272.3 270.7 270.3 268.8 280.2 294.1 298.2 288.7 273.5 263.6 258 249.2 244.8 231.8 215.4 205.7 186.5 158.7 130.9 115.3 102 91.4 79 71.4 58.3 45.7 38.1 38.1 38.1 38.1 38.1 38.1 38.1 38.1 38.1 38.1 38.1 38.1 38.1 38.1 38.1 38.1 38.1 38.1 38.1 48.2 59.9 71.3 82.3 92.7 106.3 117.8 130.3 142.8 154.8 166.9 183.3 195.2 207.8 219.6 225.8 238.2 257.2 272.9 283.8 286.9 290.4 292.6 298.9 303.9 306.5 297.8 276.2 285.5 312.2 337.6 354.2 357.2 363.9 364.8 363.9 370.9 373.6 396.9 419.8 443.9 463 472.6 473.2 472.2 483.5 494.7 501.2 510.6 520.3 518.3 516.2 515 512.4 504.9 493.5 482.9 470.1 461.5 452.6 440.5 432.2 429.2 426 423.2 417.1 409.6 404.8 399.7 392.6 384.3 377.3 368.7 361.1 352.3 347.7 343.4 338.7 340.9 345.6 348.5 354.8 354.6 356.3 363.5 368.4 389 413.6 446.3 470.5 493.7 489 497.9 503.6 513.3 529.3 543.7 560.8 577.3 592.1 603.9 616 614 564.8 516.3 471.8 434.8 396.6 381.6 377.6 379.9 379.9 380.7 384.5 394.5 404.9 415.8
232.1 234.5 260.1 281.1 278.3 283.3 288 288.9 287.2 287.4 285.8 287.7 293.4 303 306 306.2 305.9 300.7 298.5 296.6 293.5 288.8 286.3 283.3 278.6 278.1 282.1 278.1 273 273.6 269.4 267.6 264.8 263.6 261.9 264.5 266.2 267.9 267.1 268.7 271.1 274.3 282.6 302.8 319.9 324.2 310.8 299.8 272.8 262 257.9 247.4 236 221.6 206.7 188.2 174.3 136.8 116.4 106 92.1 83.2 73.3 58.7 49.2 38.1 38.1 38.1 38.1 38.1 38.1 38.1 38.1 38.1 38.1 38.1 38.1 38.1 38.1 38.1 38.1 38.1 38.1 38.1 46.5 56 69.2 80.2 92.6 104.1 115.2 125.2 137.3 149.8 163.6 176.7 185.6 198.9 207.8 220.1 229.1 242.9 249.8 255.8 258.7 260.6 263.1 271.7 273.3 265.1 263.7 297.5 329.9 349.2 354.4 359.1 364.8 364.5 371.1 375.9 385.8 405.5 428 451.6 464 481.1 476 473.2 487.1 493.9 500.5 504.5 516.5 516.9 512.9 508.7 504.9 506.1 496.9 485 474 463.8 454.4 449.2 433 428.6 426.9 423 420.2 410.8 404.4 399.3 392.8 386.9 376.9 370.2 361 350.3 341.5 339.2 334.8 338.8 341.8 342.9 349.9 351.2 350.9 361.7 371.6 376.9 398.5 421.6 447.5 467.8 470.7 486.6 492.1 504.3 520.8 538.3 556.5 574.6 590.8 602.5 614.2 602.4 559.5 511.6 472 429.7 392.9 377.5 373.5 377.1 376.1 375.8 379.9 389.2 399.1 410.6
218.9 219.2 245.6 263.9 270.8 272.5 281.7 285.1 285.6 287.6 287.7 285.4 285.1 291 298.6 304 305.4 305 302.1 297.5 291.1 285.1 282.2 280.5 276.9 276.5 279.5 277.4 274.3 272.3 268.4 266.5 264.1 261.3 258.2 258.8 261.2 265.4 263.8 265.7 272.1 278.4 287 297.4 328.8 352.2 345.4 335 318.3 309 291.5 279.8 259.9 246.7 235.9 213.3 186.9 167.6 154.9 117.7 104.4 92.2 81.7 74.1 61.8 49.2 38.1 38.1 38.1 38.1 38.1 38.1 38.1 38.1 38.1 38.1 38.1 38.1 38.1 38.1 38.1 38.1 38.1 38.1 38.1 45.4 55.5 66.4 80.9 92.5 102.5 113.1 121.3 131 144.7 159 169.8 179.8 191.4 200.1 207.8 217.2 218.5 222 224.3 227.5 227.4 238.2 240.4 244.2 273.7 312 338 348 349.7 359.9 364.9 365.6 376.3 394.1 408.5 433.3 446.2 459.9 468.2 476.4 479.6 478.1 489.1 494 500.8 501.3 508.8 509.9 502.6 501.4 498.2 499.2 493.4 481.1 472.1 459.1 457.9 450.1 443.2 432.1 429.2 425 419.8 412.2 404.5 398.5 391.2 385.5 376.6 368.9 359.2 349.3 340.5 333.6 337.4 338.5 335.6 343.3 347.4 349.3 348.2 353.3 362.8 366.5 377.8 402.3 417.7 442.5 459.7 474.4 487.5 500.5 515.3 531.8 551.3 571.6 587.7 600.3 607.3 594.2 549.4 505.3 469.5 431.5 393.8 375.5 370.7 374.7 371 370.9 374.1 381.8 392.6 403.8
202.1 209.4 230.5 261.1 263.6 264.4 273.7 281 286.4 288.2 288.1 285.5 281.7 282.8 285.2 290.6 292.9 293.2 292.9 292.1 287 280.7 277 273.7 270.7 272.7 274.5 274.5 271.4 269.9 267.2 265.6 261.6 259.6 257.8 257.7 259 261.1 265.4 266.5 269.1 282.4 293 305.1 313.5 344.4 356.6 352.4 344.3 332 317.4 306.2 285.3 268.4 249.3 236.6 214.3 192.8 164.7 147.8 122 106.8 93.1 83.8 75.6 61.8 50 38.1 38.1 38.1 38.1 38.1 38.1 38.1 38.1 38.1 38.1 38.1 38.1 38.1 38.1 38.1 38.1 38.1 38.1 38.1 46.4 57.2 69.3 81.1 89.7 99.8 109.8 118.3 128.9 140.8 151.4 163.2 173.1 181.6 192 194.4 193.7 194.9 195.9 192.6 187.5 199.4 231.6 261.7 297.9 323.4 336.1 343.2 350.4 356.6 361.9 367.3 388 407.5 437 466.3 486.5 493.8 487.7 483.7 484.9 482.4 486.9 494 494.1 496.1 503 500.9 494.1 489.3 489.2 489.1 484.2 472.7 459.7 451.2 453.3 452.8 449.8 440.5 433.2 427.1 416.4 411.4 402.7 396.3 392.2 383.9 376.8 367.2 357.5 347 337.2 332.2 334.9 335.2 334.3 344.1 342.9 346.9 348 349.9 361.7 362.3 371.5 381.7 408.6 429.8 450.7 467.8 481.7 496 508.3 525.8 546.3 568.3 584.1 595.2 599.8 577.7 537.6 493.9 462.5 421.5 391.3 377.7 369.6 370.9 368.7 367.8 370.5 377.7 387.3 395.4
195 200.9 220 235.9 244.2 256.6 266.4 274.6 279.8 284.4 288.2 287.9 282.5 277.3 277.2 275.5 274.4 275 275.6 274.2 272.8 271.5 270 268.2 265.2 264.6 266.5 265.9 264.1 264.2 263.4 262.3 260.3 258.7 257.1 255.7 255.4 261.4 266.2 270.8 271.5 276.5 289.7 306.7 313.3 329.2 344.4 361.7 359.2 350.3 333 319.1 304.1 292 276 251.5 237.7 222.9 204.6 175.5 151.7 128.1 108.7 95.5 84.4 70.7 61.5 49.1 47.5 38.1 38.1 38.1 38.1 38.1 38.1 38.1 38.1 38.1 38.1 38.1 38.1 38.1 38.1 38.1 38.1 38.1 38.1 43.2 52.4 65.5 79.4 87.2 98 106.8 115 124.3 135.8 148.1 156.2 162.9 171.8 169.8 159.3 161.4 165.1 182.4 211.2 226.3 258.1 281.1 303.4 325.1 335.6 340.6 348 355 359.6 370.7 397.7 419.4 456.9 488.1 504.2 506.9 501.9 497 492.9 487.9 484.1 485.1 486.4 490 492.6 489.5 482.8 481.3 480.4 479.9 473.2 462 449.6 442.5 446 446.2 448.9 445.3 440.6 429 417.4 411.2 404.1 396.1 392 383.4 375.3 366.4 355.8 344.6 335.4 330.1 325.4 328.2 332.4 338.7 342 347.7 347.7 349.1 352.8 364 375.8 385.2 394.9 419.6 444.8 464.4 476.8 490.5 504.1 520 541.2 564 581.8 591.3 596.7 575.7 530.4 489.2 453.1 416.7 387.6 367.2 366.5 363.5 361.4 361.8 366.3 372.5 380.8 389.2
192.5 197.4 208.8 217.6 219.5 231.7 237.4 257.2 265.2 266.8 275.5 276.5 278.3 274 264.4 260.7 258.8 258.8 257.2 256.8 255.6 255.7 254.2 254.8 253.6 257.1 257.1 256.2 256.7 257 256.8 256.3 256.4 255.7 251.4 253.4 256.5 259.2 263.5 270 273.8 277.4 283.8 299.7 309.6 337.3 349.7 353 365.8 360.7 349 336.7 317 304.2 292.3 279.7 259.5 236.3 217.3 204.1 187.4 157.8 138 114.2 98.2 88.5 74.4 62.2 53.5 46.4 38.1 38.1 38.1 38.1 38.1 38.1 38.1 38.1 38.1 38.1 38.1 38.1 38.1 38.1 38.1 38.1 38.1 38.1 38.8 49 64.2 75.8 86.2 95.6 103 113.4 124.7 131.5 140.6 147.9 142 146.1 152.9 166.7 183.1 204.4 223.3 244.4 268.3 285.2 304 321.4 333.2 337 345.5 356.8 355.7 373.6 406.2 434 466.6 493.6 512 511 504.9 503.9 500.8 496.7 491.1 484 481.7 477.8 481 475.6 467.9 468.7 466.8 464.2 457.5 450 442 438.6 436.6 438.1 442.4 443 438.6 426.3 414.9 409.9 406.7 401.9 392.2 383.4 374 363.4 353.1 342.6 333.6 327 319.6 327.8 338.3 334.3 336.8 346.8 346.5 349.8 355.1 361.6 376.1 388.6 409.3 428.5 442.5 460.9 474 487.8 502.5 517.6 537.2 563.2 579.2 591 593.4 574.5 528.3 490 458.7 416.5 385.1 365.1 357.5 358 359.2 354.6 360.3 366.7 374.8 385.3
190.3 193.3 199 202.3 207.3 214.6 216.9 225.6 236.8 241 244.3 248.3 248.8 246.9 248.2 246.2 243.4 243.1 242.7 241.3 241.8 242.5 242.5 242.9 244.4 244.5 245.4 245.9 248.7 249.8 250.4 250.7 251.3 249.6 245.4 252.8 255.2 257.4 259.2 269.3 276.8 277.5 282.2 292 304.9 327.3 346.1 355.4 359.8 358.8 359.9 353.2 344.1 326.1 310.4 292 272.9 252.1 230.8 215.3 203.9 188.7 160.3 141.7 116.6 98.8 88.3 71.8 63.8 54 46.6 41.7 38.1 38.1 38.1 38.1 38.1 38.1 38.1 38.1 38.1 38.1 38.1 38.1 38.1 38.1 38.1 38.1 38.1 38.1 51.6 63.8 75.2 81.3 93.1 102.1 111.1 117.8 123 125.5 132.3 138 162.8 177.5 195.2 206.8 223.8 246.1 268.1 279.3 299.2 315.1 325.7 334.7 338.4 351.2 354.4 373.3 404.7 438 473.3 496.9 515.7 510.4 506.5 506.5 501.7 498 497.5 492 482 474.7 471.2 466.1 458.9 454.7 452.6 451.3 445 445.7 435.3 427.6 423.9 428.6 436.7 437.2 432.4 418.6 413.8 412.6 414.8 406.3 392.2 382.1 372.7 361.6 351.1 341.3 332.8 326.3 318.2 320.2 332.7 325.5 331.3 339.3 348 349.2 356.7 363.6 364.2 383.9 413.2 426.5 439.8 457.3 471.3 485.6 500.8 517.5 537 560.4 578.2 590.9 589.9 575.2 532.2 492.2 453.5 412.5 387 358.7 359.4 352.2 349.9 350.9 354.6 359.9 367.4 379.5
189.1 191.7 194.5 196.3 200.5 201 205 209.9 214.8 219 223.6 226.6 228.6 231.5 231.8 233.4 233 233.5 232.1 231 231.3 232 233.9 235 236 237.2 237 239.4 238.9 242.8 243.2 242.9 243.8 243.6 243.4 246.7 250.7 255.7 257.9 264.2 273.2 279.5 283.1 294.6 303.4 325.7 341.2 350.7 361.7 365.3 358.6 358.8 357.9 345.9 335.9 313.4 293.5 270.2 249 228.1 216.8 198.8 182.8 161.6 143.5 117.9 99.6 83.8 71 65.2 56.9 47 40.7 38.1 38.1 38.1 38.1 38.1 38.1 38.1 38.1 38.1 38.1 38.1 38.1 38.1 38.1 38.1 38.1 38.1 38.5 53.5 64.7 71.4 84.2 92.5 96.7 100.8 108.8 115.2 128.4 152 169.3 185.8 190.7 201.4 217.7 239.2 259.5 272.7 289.5 309.1 322.9 331.7 342 350.3 354.8 366.5 399.7 429.5 469.6 499.9 512.1 508.1 507.6 505.7 502.5 497.1 494.6 493.6 488.9 478.4 468.6 459.6 453.9 446.4 441.7 438.6 434.1 431.3 424.7 415.4 417.3 416 418.9 429.7 422.8 409.1 404.9 407.5 412.2 407 392.8 382 370.8 359.6 349 340.4 331.8 323.4 319.5 314.6 317.3 314.7 316.3 333.8 346 341.3 354.5 356.2 364.8 374.9 394.7 420.6 436.3 453.8 469.7 485.7 501.5 518.1 537.6 556.6 575.7 586.6 587.6 577.1 536.2 495.6 454.3 408.2 378.5 355.7 353.3 344.6 343 350.9 350.2 356 361.9 371.8
188.8 188.2 193.4 195 193.6 194.9 198.8 204 206.4 211 215.2 217.8 218.7 220.2 221.8 224.1 226.3 226.3 225.7 224.8 225.7 227.9 227.6 228.3 229.6 230.7 230.2 230.2 229.2 231.9 232.2 233.1 234 230.3 232.4 236.8 246.3 251.8 257.9 259.6 269 277.6 284.3 290.8 304.9 320.1 337.7 355.2 371.1 371.1 367.4 365.2 352.9 352.1 347 331.7 313.2 287.7 266.2 245.1 226.6 210.8 192.2 174.6 153.9 136.6 114.9 98.9 85.3 74.8 67.7 52.3 47.2 38.1 38.1 38.1 38.1 38.1 38.1 38.1 38.1 38.1 38.1 38.1 38.1 38.1 38.1 38.1 38.1 38.1 38.1 45 54.4 68.7 75.8 80.8 89.3 96.6 94.3 115.3 128.6 145.6 163.2 182.7 193.5 200.3 211 229 247.9 260.2 276.7 298 316.9 332.6 344.9 344.9 352.8 366 390.5 424.2 458.3 493.7 506.1 510.6 506.9 504.9 500.6 494.9 492 490.9 486.7 480.9 470.6 459.7 450.1 440.1 435.2 431.7 426.3 422.9 417 408.2 408.4 403.9 409.6 409.7 410.4 400.9 391 402.3 401.2 399.2 392.7 382.3 368.1 355.2 345.8 338.6 332.1 323.8 318.9 313.8 313.4 313.9 316.3 329.5 337.1 340.6 347.4 348 356.5 374 389.3 412.1 431.8 451 469.6 485.6 502 518.9 536.4 554.2 570.1 583.4 586.2 580.9 545.7 503.3 454.2 413.5 376.6 355.9 349.2 336.2 341.5 342.3 346.2 350.1 356 364.7
185.3 187.4 189.6 190.1 191.6 192.7 196.1 199.2 201 206.2 208.2 212.4 213 213.6 215 217.6 219.3 220.5 219.9 220.2 222 223.1 224 225.1 225.8 226.4 226 226 225.2 226.2 226.6 226.1 225.7 226.1 225.7 232.5 237.3 246.2 253.5 258.9 263.4 276.6 284.2 291.6 301.4 327 339.1 352.4 369.6 377.6 379 371 365.7 357.9 346.5 340.4 329.5 311.9 289.1 272.8 247.3 224.9 202.7 182 165.2 147.4 129.5 113.6 97 83.9 74.8 66.5 57 46.6 38.1 38.1 38.1 38.1 38.1 38.1 38.1 38.1 38.1 38.1 38.1 38.1 38.1 38.1 38.1 38.1 38.1 45.4 50.1 56.8 66.9 77.8 83.9 95.3 102 111 124.5 137.1 150.5 166.9 181.6 192.6 203.7 219.7 239.1 246.1 267 289.1 310.3 324.7 337.8 345.7 352.2 360.8 387.5 414.5 448.8 473.4 494.6 510 509.5 503.1 497.1 490.9 487.9 485.7 480.2 475.2 468.5 457.1 444.4 435.2 429.4 426.1 421.5 414.4 408 401.3 397.2 398.2 394.8 399.6 404.4 393.7 385.3 386.5 394.5 397.8 388.6 380.9 368.4 352.3 342.6 334.7 329.1 323.7 318.8 312.6 311.5 313.1 316.6 331.3 330.7 336.5 334.9 342.8 356 372.7 386.4 410.8 425.6 445.2 465.6 482.9 500.3 514.4 529.2 549.9 566.9 579.2 580.2 577.5 550.5 512.1 450.8 407.7 372.1 355.4 342.6 333.9 336.3 338.4 340.4 345.7 349.3 359.6
184.7 186.2 187.7 188.8 190.2 191 191 194.9 197.2 201.2 204.7 208.8 208.8 205.5 209.3 212.6 212.9 213.9 214.9 214.7 218.6 221.5 222.8 223.3 223.6 223.3 221.8 222.6 220 220.6 220.7 220.6 221.9 222.1 223.5 227.5 231.3 237.4 243.8 250.9 257.7 267.8 274.6 285.6 298 314.1 337 359.8 371.2 375.7 380 380.7 376.5 364.7 361.3 351.4 330.2 323.9 307.3 291.4 272.3 242.4 220.2 195.4 177.1 161.3 141.5 123 108.9 95.8 83.7 74.9 65.1 58 47.5 41 38.1 38.1 38.1 38.1 38.1 38.1 38.1 38.1 38.1 38.1 38.1 38.1 38.1 38.1 38.1 44.8 49.9 54.1 60.3 69 80.5 88.7 96.5 105.3 116.1 130.6 141 152.8 172.4 187.1 201.5 215.2 231.7 249.6 266.8 286.4 306.5 319 330.9 342.4 348.9 359.7 380.1 407.1 433.3 465.8 485.6 502.1 504.8 500.4 492.4 484.4 480.9 477.1 470.8 464.7 459.9 449.1 437 428.7 422.6 417.9 412.9 407.5 400.8 394.5 388.3 384.3 388.2 395.8 399.5 389.8 381.7 379.6 383.2 391.5 383 373.8 366.2 350.9 340.7 336.1 330.5 323.3 316.6 311.2 310.1 312.2 316.7 325.1 329.5 330.3 331.6 339.3 352.5 371.8 384.9 401 415.8 440.7 460.9 480.4 495.2 508.8 524.9 540.6 559 573.4 576.5 572.7 545.8 501.5 441.1 402.3 372.9 352.4 344.1 336 331.5 332.1 331.2 341.8 343.6 352.8
188.2 186.3 186 187.3 186.9 188 190.1 191.8 194.2 196.2 197.8 199.1 200.8 202.1 203.6 206 208.2 210 212.2 215.5 218.6 220.4 223.5 221.2 221.5 220.5 220.2 219.4 217.5 216.9 217 217.4 219.1 217.7 219.8 222.5 227.8 230.7 235.4 241.2 252.6 260.9 268.4 278.9 289.2 304.9 320.2 342.4 370.5 376.2 382.1 387.6 383.6 375.3 366.5 359.9 349.2 331.9 321.1 309.5 288.5 263.5 232 209.6 189.7 171.7 153 135 119.2 107.1 94.7 82.9 73.4 65.8 53.8 50.2 45.4 38.1 38.1 38.1 38.1 38.1 38.1 38.1 38.1 38.1 38.1 38.1 38.1 38.1 38.1 42.9 47.6 52.6 59.1 70.4 79 85.8 91.6 98.9 108.9 123.5 139.3 147.8 159.2 172.3 189.6 210.8 226.1 242.7 262.9 282.5 305.3 321.2 332.3 343.5 352 363.6 379.4 402.3 427.8 454.8 477.9 490.8 498.3 494.5 488.7 480.7 472.3 467.3 460.5 454.4 447.5 438.4 428.5 421.1 416.6 413.5 404.2 403.6 397.4 391.2 381.1 376.7 377.7 388.1 394.4 385.1 375.1 375.4 380.6 382.4 374.2 367.7 358.6 346.8 335.5 329.7 327.5 320.8 313.4 307.4 312.3 313.5 311.2 314.8 325.5 324.8 329.5 338.3 348.9 363.1 378.2 393.5 411.5 434.6 459.1 477.1 490.1 505.1 517.5 530.9 546.1 562.5 571.9 567.7 534.6 485.5 440.4 395.8 369.6 351.4 341.9 330.4 320.1 325.7 332.2 334.5 340.8 347.7
193.5 189.5 188.3 187.7 188.3 188.7 190.1 190.4 193 196.6 194.1 196.8 198.6 199.7 201.9 209.1 211.8 214.4 214.7 216.2 217.1 218.6 219.6 219.4 219 216.7 216.2 216.7 215.1 215.4 217.6 218.3 218.3 219.3 222 221.9 223.2 228.9 233.4 239.6 245.7 252.5 261.1 275.8 287.3 298.5 314.2 331.5 348.7 364.9 374.5 383.3 389.4 381.8 375.2 370.6 364.4 358.8 342.6 318.6 306 283.7 258.3 220.2 198.6 180.1 165.5 147.2 127 114.5 103.9 92.7 81.1 74.3 61.5 55.4 50 42.3 38.1 38.1 38.1 38.1 38.1 38.1 38.1 38.1 38.1 38.1 38.1 38.1 38.1 41.8 46.2 49.8 53.3 58.7 69.4 77.9 84.1 95.8 106.5 117.1 127 138.5 151.5 163.7 179.5 198.6 216.9 236 255.1 278.6 300.8 316.8 331.1 347.1 351.9 366.2 381.1 402.5 430.5 468.9 481.9 488.8 492.7 490.4 484.4 477.8 469.3 461.4 452.9 445.4 438.6 430.8 422.8 415.1 412.3 410.5 398.8 396.4 394.5 390.6 377.8 373.7 372.2 375.8 380.5 374.9 370.2 368.1 370 371 362.7 356.5 350.2 342.2 331.4 324.5 323.2 317.3 307 311.8 312.2 311.7 311.2 312.7 320.6 322.9 327.7 338.8 349 362 377.5 386 411 432.4 455.3 475.2 488.5 501.1 514.9 526.6 538 551.1 563.2 561.8 537.6 470 427 391.2 364 348.3 332.9 324 316.7 319.9 326.9 331.3 334.7 341.4
199.3 194 192.1 190.1 188.9 188.6 189.4 190.5 191 192 193.5 194.9 197.7 200.3 202.6 207.9 210.7 214.8 215.1 214.4 214.2 215.3 217.6 217.7 214.9 215 214.5 214.9 215.7 216.9 217.4 219.4 220.5 222.1 223.6 224.4 225.7 227 228 240.4 247.9 260.1 265.7 276.8 288.7 301.5 310.3 331.7 347.3 361.8 376 383.6 387.3 389.2 380.8 376.9 379.1 373.4 357.2 339.3 319.8 293.1 253.9 231 207 189.2 173.9 155.6 139.6 126.3 117.1 105.8 91 79 72 62.8 55 50.2 43.5 38.1 38.1 38.1 38.1 38.1 38.1 38.1 38.1 38.1 38.1 38.1 38.1 39.2 42.7 44.7 49.4 54.2 57.4 70.4 75.2 85.7 96.3 111.1 123.8 136.8 148.3 157.9 174.4 189.2 209.5 227.7 248.3 270.6 291 310.6 320.1 346.1 352.1 361.6 378.6 399.4 428.9 471.6 504.1 507.7 495.4 488 478.6 470.2 462.3 454 444.9 439.1 433.3 425.2 417.8 409.2 410.3 402.5 397.5 393 388.7 382.4 374.3 370.1 365.7 368.1 365.6 368.7 368.5 364.3 357.8 362.5 356 344.9 339.2 337.5 326.4 320 320.8 314 306.2 311.4 315.4 311.3 311.9 313.4 321.1 323.1 332.3 338 350.8 363.6 371.8 388 409.4 427.4 453 472.1 488.9 499.9 511 522.2 532.5 538.4 548.3 551.3 529.4 476.9 420.9 389.3 362.9 343.8 325.9 319.6 318.2 315.4 319.9 324.6 329.2 333.8
200.7 200.3 195.6 192.5 191.7 190.4 189.1 191.1 192.2 194.4 195.9 196.4 197 197.9 202.3 204.9 209.8 211.5 212.5 212.1 213.6 213.8 214.8 214.7 214.2 214.9 216.1 216.2 217.7 218.7 219.6 222 225.4 226.6 226.9 227.9 231 232.9 230.1 234.8 252.1 260.9 269.5 282.2 291.3 302.2 314.4 325.2 348.3 365.2 384.3 395.9 398.5 398.2 394.4 388.4 383.1 375 360.1 344.1 330.4 306.7 270.8 239.7 219.9 198.7 183.1 171.3 151 135.4 125.8 114.6 101.9 88.4 77.6 70.5 61.9 56.3 51.9 44 38.1 38.1 38.1 38.1 38.1 38.1 38.1 38.1 38.1 38.1 38.1 38.1 38.1 41.8 42.7 46.8 51.2 57.7 65.8 77 87.6 102.3 116.9 129.6 143.9 155 166.4 179.5 202.7 226.4 247.7 263.8 284.4 301.4 318.9 341.3 352.7 361.8 372.5 397.3 423.9 461.5 496.3 509.7 501.6 491 476.5 465.2 456.6 447.6 439.5 433.1 427.9 420.6 411.4 405.8 400.8 396.7 393.7 390.6 383.9 381 374.7 366.4 363 359.8 362.8 360.5 358 361.4 356.3 348.5 344.9 337.2 329 327.4 323.8 316.5 312.6 308.5 301 308.2 309 309.6 314.4 317.6 323.9 329.9 337.5 344.6 350.1 361 376.1 387.4 407.4 431.2 451.6 471.2 488 498.2 506 516.1 523.7 528.9 532.1 535.2 516 469.1 427.9 389.3 355.5 330.1 315.9 315.1 316.5 307.8 311.8 313.9 322.2 327.8
209.4 204.7 200 195.8 194.1 191.7 190.4 192 193.4 195.3 194.2 197 199.9 200.7 200.8 202.4 210 211.3 209 210.4 214 213.2 214.1 213.9 213.9 216.1 217 218 220.1 222.7 228.7 233.5 234.6 232.3 237.9 241.4 242.3 242.6 238.6 236.4 245.6 269.9 280.8 288.1 298.2 305.3 315.4 327.6 347.5 371.2 392.6 409.5 412.4 413.8 410.8 405 402.6 393.5 383.1 362 332.3 307.2 276.3 252.8 230.7 209.5 193.1 177.1 164.2 142.8 131.8 122 110 99 88.8 76.5 70.2 63.7 56.5 52.9 45.4 41.8 38.1 38.1 38.1 38.1 38.1 38.1 38.1 38.1 38.1 38.1 38.1 38.1 40.3 43.1 46.3 51.7 59.2 70.9 80 94 107.6 119.9 134.7 147.6 157.2 173 201 212.7 243.2 263.1 274 293.5 313.5 330.7 347.5 357.5 369.2 391 415.4 443.1 470.6 494.9 497.5 490.3 477.8 465.8 454.1 443.7 434.2 427.3 419.3 413.6 407.3 398.6 395.2 386.1 387.3 385.1 379.7 375.5 374.2 365.2 358.4 356.3 356.7 360 349.9 339.8 347.8 338.3 337.2 335 330.3 326 317.3 310.7 307.6 300.8 300.7 298.8 304.9 307.9 313.4 319.5 327.9 334.6 343.7 349 354.2 362.6 379.1 397.1 411.6 428.2 451.6 469.4 485.8 495.5 502.2 509.9 516.4 519.8 522.5 522 511.8 470.5 422.2 391.7 350.1 320.9 309.3 307.4 309.7 303.3 301.1 306.7 310.9 314.7
216.3 210.5 203.8 202.6 200.1 194.4 192.3 194.3 196.4 195.4 196.8 201.1 202.6 204.9 207.1 208.1 206.2 206.6 211.3 213.2 216.7 218 219.1 217.3 216.5 218.7 219.9 227.5 230.1 235.8 242.2 245.8 248 244.3 239.9 249.7 251.1 253 250.1 247.6 261.7 276.9 284.7 292.5 298.4 306 319.2 327.9 351.3 376.5 399.8 413.5 421.6 427.7 426.2 419.9 420 415.2 406 381.4 349.1 317.6 287.6 264.9 241.1 221.5 202.9 185.8 171 153.6 141.6 133.7 121 107.6 97.8 88.7 76.9 70.8 63.6 57 50.5 47.2 40.3 38.1 38.1 38.1 38.1 38.1 38.1 38.1 38.1 38.1 38.1 38.1 38.1 40.2 43.4 46.5 51.6 62.2 71.5 82.2 94.8 107.2 121 135.2 151.7 167.5 189.6 214 239.2 272.5 285.9 290.2 302.4 321 335.5 348.2 363.1 384.5 406.6 430.5 455.9 476.3 482.4 481.8 473 463.3 451.3 439.7 431.1 424.1 415.6 406 399.8 392.8 387.6 378.2 380.4 378.7 373.7 367.7 367.4 367.4 361.6 353.1 352.1 350.6 344 337.9 333.3 331.1 331.9 331.6 326.4 320.6 310.8 304.8 300.8 292 295.4 300.8 303.6 308.2 312.8 323.3 331.9 335.8 344.9 350.4 348.6 364.9 387 402 413.4 429 451 469.9 483.2 491.8 498.4 504.6 508.2 511.1 512.6 509.5 501.1 463 418.1 393.9 352.5 312.4 302.4 304.3 304.2 297 288.4 294.7 297.6 304.9
226.2 215 209.2 206.5 206.7 200.5 196.5 196.6 198.7 197.5 197.1 203.8 207.5 209.3 211.6 211.7 212 214 213.6 212 214.3 221.8 227.4 229.7 231.6 234.3 236.3 238.9 244.2 250.1 257.2 265.9 266.1 259.2 253.8 258.1 263.6 260.8 262.3 259.6 266.5 274.1 286.6 298.7 303.4 306.5 317.8 329.4 361.6 385 398.7 411.9 424.7 434.9 434.6 431.6 433.4 431.8 422.7 408.5 379.6 346.1 310.5 281 256.7 227.9 210.3 193.7 178.2 169.6 149.7 143.9 131 122.3 109.2 98.1 86.3 79.7 69.6 62.7 56.5 52.8 45.9 38.1 38.1 38.1 38.1 38.1 38.1 38.1 38.1 38.1 38.1 38.1 38.1 38.1 42.2 43.6 47.9 52 64.1 77 85.5 96.8 110.3 127.8 143 159.1 178.7 204.6 229.6 266.7 289.8 305.2 310.5 309.1 327.6 343.4 354.6 372.6 395.9 417.6 438.3 451.2 464.5 464.2 459.7 451.7 443.1 433.3 426.6 419.9 414.4 402.3 394.2 388.2 381.1 377.4 373.1 374.6 370.2 363.5 361.3 360.3 357.9 356.6 351 345 340.5 336 331.7 325.7 329.9 328.4 323.3 316.8 305.4 301.7 294.3 295 300.7 300.8 301.9 307.1 315.4 320.7 332.3 338.2 338.3 344.3 349.1 361.9 382 398 414.8 432.4 453.3 470.8 480.9 486.8 492.3 497.2 501.5 503.8 502.7 499.5 489.5 459.2 417.7 386.8 346.3 306.8 297.7 297 295.4 292 287.5 282.8 287 289.6
238.9 227.1 217.3 214.8 211.7 207.5 203.7 200.9 203.2 201.5 199.7 204.8 209.9 213.9 217.6 217.1 218.3 217.1 217.5 219.1 224.3 229.9 233.5 232.3 242.3 245.9 249.2 252.8 268.2 277.3 276.5 273.6 269.9 269.7 261.6 270.1 274.5 279.9 287.1 279.9 266.4 284.8 289.4 302.5 313.3 315.5 320.6 331.7 370.5 390.4 408.7 416.7 427.3 435.4 440.5 438.8 442.8 442.3 434.6 420.4 402.2 374 339.8 300 268.3 241.1 216.3 201.6 186.4 174.7 160 148.4 139.9 127.8 118.1 110.1 102.2 90.1 80.8 72.8 64.7 56.7 51 43.1 38.1 38.1 38.1 38.1 38.1 38.1 38.1 38.1 38.1 38.1 38.1 38.1 39.4 41.8 43.3 47.9 56.2 63.8 75.6 88 102.4 117.4 136.3 150.2 170.4 197.9 223.9 260.4 290.6 317.6 326 329.9 329.9 338.9 351.4 364.8 381.7 402.7 418.4 433 442.9 444.8 442.2 437.5 430 423.5 417.5 412.6 407.4 397.5 391.7 385.2 378.7 371.7 368.3 368.6 363.5 360.3 359.1 355.4 350.9 349.6 342.4 339.9 336.8 330.9 326.2 317.4 318.7 324.3 316.3 310.9 303.3 295.4 288.8 290.5 297.5 299.2 299.9 305.2 311.1 318.7 335 338.4 338.9 341.8 348.5 361.7 374.4 395.1 414.6 430.9 451.8 470 477.4 481.5 487.6 489.6 491 492.6 491.1 487.8 472 451.4 419.9 377.5 329.5 307.6 291.6 290.5 288.6 287 283.2 274.6 279.8 278.7
263.3 245.5 229.9 219.5 220.6 214.1 211.4 208.3 207.5 208.5 211.2 213.8 214.8 218.8 221.6 221.7 224.1 222.5 221.1 223.9 234.4 245.6 238.1 233 239.2 248.1 254.5 264 272.8 278.8 280.9 284.2 279.6 272.6 268.4 275.6 281.5 289 296.7 296.4 287.8 289.9 297.9 308.3 314.5 318.3 323.2 332.7 351.4 376.8 404 419 427 434 438.2 441.5 447.7 450.6 440.6 425.5 409.4 392.2 362.6 321.7 289.9 260.1 230.8 212 195.4 180.3 167.5 159.3 143.8 131.9 126.3 118.6 108.8 98.3 88.7 81.1 72.4 66.9 57.3 49.4 39.4 38.1 38.1 38.1 38.1 38.1 38.1 38.1 38.1 38.1 38.1 38.1 38.1 40.6 42.5 45.2 50.4 57.9 68.4 82.9 96.4 109.6 127.1 143.4 162.7 184.6 214.2 247.9 286.2 318.5 338.5 342.1 344.7 347.1 346.9 356.9 369.6 385.3 400.2 408.6 417.8 424.9 423.8 419 413.5 411.3 405.8 401.5 396.7 389.9 383.1 380.7 378.4 367.6 365.4 364.4 357.1 355 349.6 346.8 345.2 343.4 334.9 337.5 333.1 322.6 316.8 307.3 309.3 312.5 306 301.9 295 290.9 288.3 285.6 293.7 297.2 299.7 299.5 300.7 317.7 330.8 333.1 335.1 345.3 351.5 359.5 377.3 393.8 411.3 429.7 447.1 462.3 471.5 476.1 479.1 482.1 483.9 483.1 477.6 467.8 447.7 423.1 404.3 365.4 321.6 297 287.9 287 283.4 280.2 275.8 268.6 272 273.1
280.4 267.1 249.3 235.6 228.1 225.7 222.3 218.5 218.8 219.2 220.9 221.9 222.8 225.7 229 228.8 228.9 226.2 226.7 234.7 251.1 249.2 240.1 240.1 252.2 256.3 263.6 269.3 271.9 282.7 285.4 288.1 286.2 279.6 280.2 282.7 288.4 292.3 299.8 300.2 297.3 292.9 294.7 303.4 315.3 319 323.8 331.8 341.5 362.1 393.3 412.2 425.5 433.2 437.6 441.4 447.5 450.7 447.1 433 417.2 402.9 387.6 347.7 311.6 278.4 251.4 224.4 198.8 184.2 175.8 161.2 152.9 139.1 134.8 123.8 116.7 110.6 99.8 88 81.4 77.4 65.8 53.9 46.2 38.1 38.1 38.1 38.1 38.1 38.1 38.1 38.1 38.1 38.1 38.1 38.1 38.1 41.3 44.3 48 53.3 62.3 74.2 86.9 100.7 116.4 134.8 153.6 171.9 199.3 233.6 276.3 306.9 335.6 354 358.9 362.7 362.7 359.5 360.6 369.7 384.6 389.1 393.3 398 399.8 399.2 395.6 394.7 394.9 387.3 384 375.6 373 377.3 372.9 365.5 362.1 359.7 352.2 351.1 344.3 341.4 335.4 331.9 328.6 327.9 324.5 317.7 310 307 304.7 306.5 295.8 289.8 285.6 288.3 286.6 285.5 289.7 291 295 294.5 300.3 313.2 325.3 323.5 329.7 347.1 350.5 357.2 372.7 384.9 401.4 422.4 441.6 455.2 462.5 466.9 470 472.3 472.6 471.3 464.9 447.3 424.8 402.7 377.6 343.5 313.5 294.4 283.4 282.5 280.9 277.7 273.3 266.7 266.5 268.7
297 282.8 266.8 252 241.9 238.1 232.8 232.4 227.7 225.6 227.9 231.5 235.9 236.3 236.2 235.8 232.9 234 236.8 246.7 256.6 255 244 248.9 267 273.9 279.2 281 284.2 287.4 293.5 293.9 294.8 302.5 296.1 297 299 304.8 307.1 305 304 300.6 302.2 298.6 312.3 318.4 324.2 334.2 344.6 354.2 377 403.3 424.5 432.4 439.6 439.6 445.2 448.9 447.5 438.7 426.4 413.3 400.7 383.2 338.6 302.8 270.4 249.8 216.3 192.9 182.8 171 156.6 144.4 138.6 129.3 123.2 116.4 108 98.1 86.2 83.4 72.9 61.3 49.7 43 38.1 38.1 38.1 38.1 38.1 38.1 38.1 38.1 38.1 38.1 38.1 38.1 40.9 42.6 45 49 55.6 65.9 76.3 92 108.9 125.4 144.9 160.1 183.4 218.9 264.5 290 322.4 350.9 364.9 374.3 375 373 368.5 362.2 368 378.1 379.7 381.1 382.3 385.2 383.9 381.4 377.8 375.9 373.5 365.9 365.7 364.9 361.9 361.7 353.8 354.2 351 339.9 337.5 334 330.4 324.8 322.3 322.8 316.5 312.9 306.3 299.9 301.2 298.9 294 288.2 279.7 283.8 283.4 282 286.5 287.2 290.6 292.2 298.4 308.1 317.2 318.6 324.7 339.8 351.2 361.8 375.8 377.7 396.4 418.3 435.8 447.1 450.8 455.4 459.4 461.1 460 455.4 446.2 428.8 403.8 379.5 360.8 341 309.8 293.4 282.2 279.8 278.5 274.3 269.8 264.1 262.4 265
308.9 297.1 282.5 267.3 252.7 247 243.9 244.5 239.9 233.2 235.7 239.8 245.2 249.7 246.6 244.3 241.6 245.9 247.7 253 262 255.4 253.6 268.2 287.7 285.9 291.3 293.4 308.7 317.2 314.3 311 314 310.1 306.4 310.1 310.7 317.8 317.7 314.7 309.3 308.1 305.6 302.1 305 315.7 324.9 335.3 343.7 348.9 369.7 389.9 418 430.8 437.2 440.2 440.3 447.3 445.8 440.7 432.1 425.2 412.6 397 360.3 326.7 292 266.5 245.2 211.7 195.7 180.2 161.8 155.6 143.9 135.3 131.3 122.3 114 104.5 94.1 90 79.4 70.5 57.9 46.5 39.1 38.1 38.1 38.1 38.1 38.1 38.1 38.1 38.1 38.1 38.1 38.1 38.1 41.6 43.2 46.1 52.7 59.1 69.8 80.8 96.5 114.4 132.4 150.1 166.8 195.2 228.8 261.5 298.5 334.8 363.7 374.3 380.7 380.5 378.3 374.8 372.3 371 372.4 374.2 373.6 376.5 374.3 370.2 367.1 367.8 363 356.8 353.8 349.5 348.2 349.6 349.7 348 337.8 336.3 328.2 326.4 321 314 316.1 316.6 307.1 306.3 303.7 297.7 294.2 287.2 283.1 285.8 277.2 279.3 284.9 283.3 287.6 289 290.1 290.6 295 302.4 314.2 316.5 324.9 337.2 344.9 361.2 371 381.8 393.6 410 426.7 435.9 440.9 444.8 449.1 448.9 446.3 440 422.4 401.8 384.9 367.8 352.2 333.1 301.7 286.9 274.2 275.1 272.9 270.3 266.5 259.8 259.6 263.8
313.9 305.5 290.3 273.5 263.7 256.9 255.2 253.2 248.6 245.9 245.1 249.1 252.4 256.4 254.6 252.1 250.8 256.7 258.5 271.6 270.9 266.5 276.4 291.8 300.9 304.3 310.5 310.8 332.1 338.5 325.9 317.5 319.8 313.7 319.1 319.5 328 329.8 328.3 320 315.2 316.3 321.7 308.4 306.4 311.2 326 334.6 345.3 352.5 363.4 379.2 407.5 427.7 434.5 440.4 441.3 441.7 443.9 441.7 434.9 429.6 420.8 407.2 379.3 352.2 318 288.7 261.8 242.9 225 205.3 181.9 166.9 157 144.3 135.6 127.1 121.4 111.5 103.5 94 85.9 77.7 66 53 41.7 38.1 38.1 38.1 38.1 38.1 38.1 38.1 38.1 38.1 38.1 38.1 38.1 39.7 41.7 43.5 47.7 53.6 61.7 76.4 89.4 100.4 119.6 138.3 156.2 180.7 209.5 240.4 272 307.7 351.9 373.2 381.6 384 383 384.7 380 373.8 369.3 369.7 368.5 370.1 368.7 365.1 364.4 364.5 355.3 348.5 345.3 339.8 335.5 336.1 342 343 328.2 327.2 321.8 315.8 312.6 309 309.1 306.6 304.3 299.1 300.7 291 293.8 286.7 282.7 277.5 276.3 280.6 285.5 282.8 287.6 291 289.1 286.8 298.7 306.3 312.6 317 320.5 332.8 337.9 353.1 369.4 378 392.9 405.4 416.7 424.9 431.5 434.5 436.5 435.7 431.9 420.8 399.2 385.7 369 357.7 342 312.8 294.8 279.9 270.1 268.5 268.8 266.1 262 256.1 261 261.5
321.6 313.6 297.6 286.2 271.6 267 266.3 267.6 261.5 253.4 252.5 261.1 259.9 259.9 261.5 258.4 270 267.2 274.8 286.6 284.2 291.7 317.9 323.7 318.9 318.8 323.9 325.7 340.2 345.4 337.9 334.4 334.2 322 321.5 340.3 339.4 336.3 333.2 325.2 322.4 327 327.2 324.5 324 319 327.5 343.4 347.8 353.3 358.3 372.4 387.7 414.5 433.3 438.4 446.2 444.9 447.2 445.3 437.8 430.7 422.7 412.8 401.1 375.3 348.2 316.4 287.7 277.5 263.1 244.5 211.4 193.9 176.4 161.2 147.4 132.7 124 118.4 109.8 98.6 93.8 83 75.7 64.2 50 40.4 38.1 38.1 38.1 38.1 38.1 38.1 38.1 38.1 38.1 38.1 38.1 38.1 39.6 41.4 46 52.1 56.6 68 79.5 92.4 111.7 126.4 145.4 166.8 194.3 225.2 252.4 279.9 323.5 360.6 378.6 384.7 385 385.8 386.6 380.6 372.3 368.6 367.1 364.6 360.2 359.6 358.4 356.5 350.7 348.5 343.4 335.7 330 326 330 330.5 320.5 317.2 312.5 308.2 304.7 293.4 295.9 296.1 294.3 292 295.5 290.2 294.2 285.4 283.9 278.7 275.9 274.8 279.8 284.5 286.9 291.2 286.3 285.8 298.3 305.5 308.6 314.8 321.3 331.5 341.2 353.3 362.7 373.5 393.3 404.5 411.2 418.8 423.1 423.8 423 416.6 412.5 403 380.5 368.5 353.7 339.4 323.2 299.6 284.2 275.5 264.6 264.8 261.8 261 257 257.9 260.7 260.4
326.7 319 309.7 292.4 278.3 272.7 270 271.9 269.3 261.4 265.1 268 273.1 269.5 269.6 273.1 277.5 278.3 295.7 299.4 315.4 330.9 335.9 342.4 340.9 338.5 337.3 342.8 356.4 361.7 356.1 358.3 352.4 331.8 327.3 343.9 344.4 340.4 332.5 329.3 333.3 328.9 326.5 327 326 327.7 334.3 335.6 342.1 350.9 354.9 363.3 376.2 394.5 418.5 430.8 437.6 444.7 449.8 449.4 443.2 434.9 425.7 416.3 405 391.9 373.2 346.5 327.8 311.8 297 285.7 256 222.2 206.8 175.3 159.6 147.3 131 123.5 112.7 105.2 93.4 90.2 84 74.4 60.5 46.9 39.6 38.1 38.1 38.1 38.1 38.1 38.1 38.1 38.1 38.1 38.1 38.1 38.1 39.1 42 48.9 54.1 64.1 75 85.8 100.8 118.7 135 152.7 175 207.3 232.8 260.2 293.7 341.6 364.2 380.3 384.5 385.3 385.5 380.5 370.8 364.7 363.8 363 358.8 348.1 348.6 350.3 349 347.3 341.2 333.3 329 322.9 317.4 318.5 312.3 310.5 307.3 302.4 300 292.6 288.9 287.2 288 284.3 283.6 284 290.9 285.5 279.5 280.5 277.6 275.9 275.4 284.2 285.1 285 283.4 287 293.7 299.8 302.8 316.1 322.7 325.6 338.3 351 356.7 370.8 384.6 398.1 406.2 410.6 411.7 409.6 406.7 403.7 394.7 378.7 364.7 352.7 333.1 321.5 304.1 289.7 276.5 266.9 262 257.6 258.3 258.1 249.3 256.3 257.4 255.9
334 328.6 317.9 302 293.8 284.6 277.8 276.4 275.2 273.1 274.8 280 286.1 285.2 278.5 286.2 289.8 304.4 315 335.2 341.5 349.7 360.9 360 362.2 360.7 358.9 361.8 364.3 363.7 358.5 355.8 351.8 344.9 337.1 342.8 344.9 341.8 333.1 342.2 336.7 329.7 326.5 326.5 328 331 335.6 342.6 340.9 347 354.7 359.1 368.1 377.8 393.4 411.2 427.7 438.9 445 445.7 442.9 437.8 430.9 419.3 408.9 392.4 382 363.5 347.6 330.9 313.2 294 276 250.8 233 208.9 178.2 157.3 142.1 130 118.7 112.4 102.2 99.9 91.7 82.1 70.1 57.5 45.4 38.1 38.1 38.1 38.1 38.1 38.1 38.1 38.1 38.1 38.1 38.1 38.1 38.1 40 44.1 50.4 56.6 65.4 77.5 94.1 107.8 122.9 140.1 160.4 183.9 212.7 238 269.5 311.8 342.9 362.9 375.8 379.1 381 379.8 366 359.2 358.5 358.4 353.3 349.3 343.1 340.9 341.3 339.4 334.4 327.3 324.3 316.2 309.9 311.6 307.1 306.2 299 295.4 291.2 289.4 281.8 279.4 280.6 281.9 277.5 282.8 291.8 285.5 277.6 279 277.4 272.5 278.4 277.4 279.7 279.7 276.9 286.6 290.5 294.5 302 310 316.3 330.7 336.4 350.5 352.3 364.9 380 390.6 398.9 402.9 401.5 397.2 394.9 388.6 373.1 360.3 349.7 334.2 322.8 309.6 299.2 280.4 271.2 260.4 253.8 253.2 252.9 252.3 246.9 251 251.2 256.4
347.8 337.4 327.4 317.7 305.1 298.8 288.3 283.6 280.6 287.2 285.7 289.5 297.5 292.8 299.3 310.4 320.1 337.1 352.2 361.7 376.4 379 375.6 378.2 380.9 388.5 377.7 376.9 371.1 364.9 359.7 356.5 351.8 350.9 344.8 340.5 348.9 344.9 346.9 345.2 342.6 333.9 327.7 327.6 329.7 326.5 328 340.5 344.6 349.1 354.5 357.1 365 370.5 380.6 395.2 414.9 439.3 448.2 447.6 446 440.5 433.2 423.7 412 402.4 389.5 378.7 357.6 342.5 326 305.1 286.3 266.8 249.7 226.7 195.1 168.1 150.2 138.3 125.4 123.7 111.7 104.7 94.6 86 77.7 67.8 57.1 44.2 38.1 38.1 38.1 38.1 38.1 38.1 38.1 38.1 38.1 38.1 38.1 38.1 41.1 42.9 47.7 53 57.9 70.2 87.7 101.8 113 128 145.7 167.2 192.6 218.3 243.3 274.1 312.5 331.7 351.1 370.7 377.3 374.6 368.7 359.4 353.8 353.5 351.6 349.9 346 341.5 334 332.6 330.7 319.4 314.8 317.5 303.2 302.1 304 299.1 289.7 285.3 285.7 277.4 277.8 273.2 273.8 274 269.8 270.2 272.8 277.7 276 275.3 270 276.2 280 283.6 277.2 273.2 274.9 280.5 286.1 290.6 298.2 308.5 312.1 324.3 335.7 339 350.2 357.4 368.9 377.2 385.6 389 387.7 383.9 380 371.3 358.6 346.8 334.6 322.3 310 302.1 287.7 276.2 269.3 256.4 247.7 244.7 246.4 245.2 242.6 244.6 251.1 262.2
360.7 350.7 342.4 333 319.2 314.8 308.9 296 292.5 295.5 300.2 304.9 306.3 311.6 324.3 338.9 365.9 374.3 387.1 398.8 406.4 396.5 390.1 394.2 396.4 402.9 395.2 389.5 376.9 369.5 367.5 362.7 354.9 352.5 349.6 343.4 348.5 356 356.2 352.9 344.4 334.9 328.9 329.4 326.9 326.5 326.5 328.2 347 348.6 354.6 354.7 360.6 364.7 368.1 379.4 409.3 438.4 447.7 453.3 453.5 447.1 438.9 427 416.1 406.4 397.4 385.5 370.8 362.1 346.8 327.4 304.9 283.5 261 234.8 203.8 175.6 155.8 140.4 134.1 128.7 116.8 107.5 97.6 90.6 82.5 71.9 63.5 56.3 43.4 38.1 38.1 38.1 38.1 38.1 38.1 38.1 38.1 38.1 38.1 38.1 41.9 42.8 46 49.8 53.9 61.9 75.9 91.7 105.5 118.1 133.5 152.1 173.2 192.9 217.2 243.7 272.1 293.9 316.4 340.8 359 368 363.6 357.7 351.7 345.9 346.4 345 344 341.9 336.1 329.3 323.8 317.3 307.6 304.8 305.9 295.6 296.7 292.1 284.9 277.9 273.6 272.8 271.1 270.7 272.4 275.3 264.7 261.7 265.3 271.3 271.8 271.4 272.2 279.9 280 283.1 275.5 269.5 271 276.1 279.8 281 288.7 299.9 308.3 322.5 325.9 327.9 338.2 346.2 355.4 360.2 367.4 371.5 373.3 370.5 362 355.2 345.7 333.7 321.9 309.2 300.8 295.7 282.4 268.6 254.1 246.9 238.2 234.6 238.3 236.6 238.6 248 262.2 273.5
380.7 376.2 369.8 353.6 334.5 328.8 317.1 308.1 302.2 303.9 307.3 315.1 324.7 336.4 355.6 369.2 382.9 391.1 409.6 418.6 416.4 408.9 407.7 410.7 410.3 409 404.7 399.7 384.4 378 378.8 371.1 364.9 353.2 354.5 347.2 353.8 361.1 361 355.5 346.1 336.1 328.5 326.5 326.5 326.5 326.5 326.5 347.8 345 349.1 351.7 355.8 363.4 368.1 375.1 400.4 433.9 446.7 457.7 458.8 452.9 445.1 432 421.8 410.9 399.7 393.8 376.4 370.8 362.6 342.6 319.9 299.7 274.9 241 210.6 183.5 161.8 146.8 138.6 131.6 122.4 111 99.4 89.8 80.9 83.2 75 65.5 47.3 38.1 38.1 38.1 38.1 38.1 38.1 38.1 38.1 38.1 38.1 39.3 41.8 42 43.1 49.1 53.3 57.1 65.5 78.2 94.8 109.6 122.5 139.3 157.2 177.2 194.7 213.5 235.7 257.2 282.3 304 329 344.2 351.2 353.3 349.6 341 343.7 339.7 337.3 333.7 330.6 329.6 320.6 310.8 303.1 296.1 302.1 290.6 290.7 288.1 281.9 273.9 270.7 267.3 265.9 269.8 269.9 270.9 265.9 260.8 262.6 264.6 268.6 264.6 269.6 275.9 277 278.6 270.2 266.4 267.5 270.2 271 275.8 282.6 296.3 303.1 314.6 318.4 321 325.3 334.3 340.8 346.7 351 354.1 354.4 349.8 347.9 341.7 332.6 322.1 309.3 301.5 293.7 284.2 269.1 256.1 247.1 240.8 233.6 231.8 232.6 235 245.8 259.9 277 292.2
409.4 401.2 387.9 379 356.1 340.7 328.1 316.9 312.6 313.5 321.2 329 342.9 371.8 385.3 397.3 401.8 411.9 431.8 436 434.7 429.4 432.9 434.9 426.3 416.2 409.1 404 394.6 388.3 392.5 381.8 369.9 361.7 350.7 350.6 348.7 361.7 365.9 359.6 346.7 338.3 332.2 326.5 326.5 326.5 326.5 327.9 338.4 341.7 342.8 347.5 354.9 361.3 363.9 371.9 389.6 426.1 442.8 460.5 463.1 459.6 449.2 438.2 425.6 416.6 401.4 398.5 386.5 376 369.8 352.3 328.3 310.5 286.7 254.1 222.6 193.6 169.1 153.9 142 133.1 124.1 114.3 101.1 100.5 91.9 87.9 79.2 69.3 51.5 38.1 38.1 38.1 38.1 38.1 38.1 38.1 38.1 38.1 38.1 41.5 41.5 41.5 41.6 43.7 51.4 54.3 61.7 71.2 83.8 100.9 116 126.1 146.1 161.6 180.8 197 212.9 232.8 254.3 277.9 309 325.6 332 338.6 340.1 338.7 334.9 332.7 330.9 330.1 326.5 325 322.4 313.8 302.2 287.8 289.1 284 285.9 281.7 277.4 270.6 262.6 262.8 263.7 263.8 266.8 269.4 266.4 260.6 258.9 259.3 261.5 253.6 263.5 269.4 266.7 266 263.4 262.8 263.3 266 265.3 266.7 274 286.8 294.4 299.3 303.8 308 314.1 321.5 327.3 334.8 336.6 337.7 337.4 336.1 330.5 326.5 320 309 299.3 291.9 279.1 267.3 255.2 245 238.6 232.7 229.3 229.5 231.5 241.4 257.2 275.8 287.4 303.9
430.4 422.2 409.8 396.8 382.8 358.6 343.8 327.4 321.4 323 329.2 345 364.6 393.2 406.5 418.7 419.4 429 444.8 449.4 456.9 459.6 465.2 457.7 439.3 423.7 416.2 409.1 398.2 394.7 407.5 397.7 386.2 365.1 356.3 357.1 357.7 354.1 363.6 364.8 347.5 337.5 333 326.5 326.5 326.5 326.5 331.2 337.9 339.6 341.4 345.8 351.2 359.2 362.6 367.8 382.1 416 439.4 458.6 466.1 462.8 455.1 441.4 428.9 420.6 407.8 403.2 395.5 383.4 376.5 363.2 342.8 319.6 291.2 260.9 237.6 208.4 180.8 164.5 149.1 142.7 126.4 117.4 107.2 103.1 96.2 89.3 81.1 73.9 62.6 49.4 38.1 38.1 38.1 38.1 38.1 38.1 38.1 38.1 39.6 41 40.8 41.3 43.2 43.7 47.7 53.7 58.2 64.5 73 88.7 105.5 113.6 133.2 145.6 163.8 179 198.1 212.1 231.4 256.3 290.6 309.6 321.4 331.7 339.6 337.7 333.1 328.9 324.8 324.1 321.1 320.2 320.1 310.4 299.6 297.8 278.2 274.2 277.2 277.8 270.8 265.6 262.6 262.6 262.6 262.6 267.9 270.6 264.5 261.3 256.8 256.3 255.5 249.7 252.4 259.2 262 262.5 261.8 259.8 260.5 262.8 260.3 263.3 269 274.5 283.7 288.6 290.2 295.9 305.3 310.4 316.7 319.8 320.7 322.7 322.7 321.9 317.7 313.8 307.6 300.3 290.5 284.9 274.6 257.6 244.6 237.4 231.3 226.6 227 231.2 238.1 256.4 264.9 284.5 301.6 317
450 446.2 430.2 414 396.9 371.9 353.8 335.8 331 329.1 337.8 354.3 377.7 400.1 415.9 424.1 432.9 441.4 455 454.9 461.2 470 481.2 470.9 458.1 442 422.5 409.9 403.4 407.7 411.2 403.1 392 373.3 358.7 364 371.9 368.5 360.5 362.5 354.1 341.5 335.9 329.4 326 326.7 330.9 339 338.6 338.5 339.4 342 348.5 364 365.7 368.7 376.7 396 435.1 447.1 467.9 467.5 460.4 449.5 434.8 421.5 414.8 409.3 399.8 388.9 381.4 371.6 356.5 334 298.4 270.6 245 225.4 197.2 178.6 167.8 158.2 141.8 125 112.9 110.4 103.3 92.4 85.6 77.4 67.8 59.6 40.2 38.1 38.1 38.1 38.1 38.1 38.1 38.1 38.1 39.9 40.1 41 42.5 44.9 46.4 52.3 55.5 61.7 68 77 91.5 104 121 131.7 148.3 161.4 178.6 195.5 211.2 236.8 259 283.4 305.5 319.1 330.4 334.4 332 330.3 326.2 319.9 318 317.9 314.9 308.9 300.6 294.9 284 270.2 270 265.5 262.6 262.6 262.6 265.3 266 265.3 265.9 266.4 266.8 260.8 258.2 260 251.1 247.2 249.6 249.7 257.5 259.2 260.7 261.1 259.1 259 256.3 261.3 266.7 272.5 280.1 277.8 281.2 289.8 296.7 300.6 302.7 306.3 305.9 306.7 307.1 309.3 308.4 302.9 299.2 289.2 284.3 277 261.4 245.5 229.1 227.7 223 224.7 228.9 237.7 248.3 264.7 282.1 295.4 310.9 326.5
462.4 456.8 445.2 428.2 408.7 388.1 368.6 348.2 341.1 341 344.9 361.1 381.8 400.3 418.4 427.4 433.7 447.2 454.2 459.2 466.7 483.6 495.2 485.6 471.7 450.9 429.4 414.5 407.9 413.8 408.6 404.5 393.6 382.2 364.7 362.4 365.9 375.4 366.2 358.6 354.7 346.1 339.5 337.3 337.4 334.9 342.1 340.9 338.1 340.5 339.6 339.3 348.2 367.9 365.7 370.3 375.9 389.2 414.3 436.7 463.4 467.6 462.4 453.7 441.9 429.6 422.2 415.4 407.6 395.1 388.1 378.3 365.8 344.4 321.9 285.6 255.2 232.4 210.5 189.7 175.3 164.5 156.6 137.5 120.2 118.9 109.3 98.9 92.1 82.3 70.7 61.7 52.6 40.3 38.1 38.3 38.1 38.1 38.1 38.1 38.1 39.6 40.1 41.1 41.8 44 47.5 50.4 54.2 57.8 63.9 71.6 84 96.6 108.3 117.7 134.5 145.3 160.2 173.6 191.6 211.6 234.2 256.8 283.3 303.3 313.9 320.3 327.2 329 324.6 320.1 317.7 310.5 307.7 307.7 301.1 294.6 282.9 277 265.7 262.6 262.6 262.6 262.6 266.2 265.8 263.6 263.6 269.4 268.2 263.1 261.1 265.5 257.5 250.8 243.7 244.5 247.2 253.3 259.9 258.5 257.1 255.5 252.8 259.7 266.5 268.8 272.2 273.4 278.6 284.8 290.5 294.6 297.1 296.6 297.6 297.7 297.7 297.4 295.8 291.9 285.4 279.3 271.5 258.8 241.1 225.7 220.4 221.8 223.7 229.9 236.7 249 261.4 278.1 292.9 305.3 320.3 336
471.6 462.6 454.5 453.6 437.1 422.7 401.4 382 370.2 361.9 360.6 366.3 382.5 399.9 416.6 428.8 438.3 447.5 451.4 457.5 474.7 498.1 497.7 485.3 473.2 457.5 440.6 424.9 416.8 412.6 410.2 405.5 390.9 382.4 372.8 364.4 364.8 372.5 368.7 357.1 353.1 351 350.2 346.2 343.6 342.5 346.2 349.8 348.7 345.9 346.4 342.3 342.7 363.2 366.5 369.5 374.5 385.5 397.1 412.9 437.9 460.5 461.8 455.4 446.5 436.5 430.3 420.6 412.4 407.3 400 392.9 374.5 353.5 337 301.5 270.2 242.5 222.2 201.6 185.8 180.6 173.4 155 125.2 124.7 117.9 105 96.8 86 72.4 64.3 61.7 44.7 41 40.9 39.1 39.3 38.1 38.1 38.1 40.8 40 41.1 41.9 42.5 45.1 49.6 52.9 57.8 61.3 68.7 79.3 87.8 98.9 105.5 122.9 133.7 143.7 158 172.9 191.3 208.8 225.7 247.7 272.7 291.1 305.5 309.3 315.2 317.5 316 315.4 309.8 306.4 299.8 296.3 291.9 284.7 278.5 263 262.6 262.6 262.6 262.6 264.6 266.5 268.5 268 267.8 273.9 268.1 262.2 267.5 261.4 251.9 246.2 240.4 239.9 248.8 250.7 248.3 249.9 252.9 254.4 257.7 263.3 263.8 266.6 275.3 281.4 278.9 279.8 282.4 284.6 287.3 288.2 288.8 291.3 291.1 286.2 282.9 275 264.8 253.7 242.4 228.9 221.5 218.7 224.2 226 233.5 247.7 259.3 271.9 284.7 300.1 314.6 327.9 342.8
477.7 475.3 485.3 478 464.1 451 434.4 421 410.9 405.3 389.8 381.5 385.6 399.5 412.2 430.5 439.8 445.6 452.8 459.9 478.6 501.4 501.1 490.3 479.7 466.9 450.7 436.2 425.8 417.5 413.6 412.6 401.5 389.5 382.3 377.4 371.9 373.2 374.6 356.2 355.9 359.1 356 356.5 355.8 352.7 354.7 352.1 351.8 351 347.2 341.8 343.2 356.6 365.9 362.8 364.8 376.6 388.7 398.7 411.5 433.7 453.3 454 447.9 440.5 436.2 426.9 421 416.8 412.3 406.2 388.3 366.2 346.5 319.9 284.7 253 233.4 211.2 195.1 187.7 174.9 162.2 139.5 132.4 121.9 108.6 95.9 83.7 78.5 71.9 64.5 50.1 43.9 40.7 41.3 41.6 41.5 40.1 38.1 40.7 39.8 40.4 41.3 42.3 43.6 48.9 52 56.3 60.4 66 71.5 78.3 88.2 99.3 108 119.5 131 143.2 157.3 171.4 188.1 204 219.6 235.6 252.7 271.1 287.9 295.7 304.2 305.7 305.6 303.4 301.5 296.6 295.7 284.3 283 269.4 262.6 262.6 262.6 262.6 262.6 262.6 264.6 269.2 275.9 276.9 275.5 275.5 267.8 268.1 264.4 254.4 246.9 244 239.7 239.1 242.1 243.9 240 245.7 248.2 253.3 259.1 259.8 263.5 267.8 270.6 268.1 268.8 275.5 277.2 278.8 276.4 278.7 278.5 276.3 272.8 266.9 259.1 251.6 238.9 233.8 227.2 216 220.5 224.2 229.6 234 250.7 270.1 281.4 293.6 307.2 320.3 332.1 350.9
502.3 500 500.4 498.3 492.9 485.9 488.5 474.7 450.4 439.7 432.7 414.3 393.8 399.6 414 427.8 439.8 447.3 456.6 471.7 482.1 512.4 506.9 499.7 490.4 477.7 464 450.3 438.2 431.2 419.5 416.6 409.7 406.7 396.5 390.2 388.6 384.4 382.8 365.5 357.9 359.1 364.6 366.2 365.1 359.5 357.5 354.8 354.1 354.1 348.6 343.1 345.6 352.4 357.6 360 362.2 371.5 382.5 390.3 397.7 409.4 434 446.4 444.9 445.4 440.8 437.2 432.1 429.3 421.3 416.8 400.5 383.4 359.3 328.4 300.2 265.5 244.1 214.5 197.5 184.6 176.2 157.8 143 139.7 126.5 110.6 95.2 83.3 76.8 72.7 64 53.5 45.2 42 41.8 42.5 42.9 42.5 42.2 41.6 40.4 41 41.6 42.4 43.7 44.8 47.4 55.4 61.3 63.9 68.9 75 84.8 90.7 100.6 111.1 119.8 132.4 143 155.9 169.2 180.2 192.2 211.3 220.7 234.9 253.7 272.4 279.7 287 293.2 293.6 293.5 292.2 288.4 281 271 262.6 262.6 267 265 262.6 263.2 262.6 262.6 271.1 279.3 284.5 281.7 278 272.1 280.4 270.4 258.1 245.6 243.2 242.7 237.6 231.5 239.1 234.8 237 239 242.2 245.2 246.2 250.2 256 258.2 261 264.4 266.2 268.6 268.1 270.3 266.8 268.2 266.4 258.9 252.6 248.7 239.7 231.4 223.3 216.8 219.3 220.5 226 234 242 260.1 274 287.1 301.3 314.1 326.1 339.4 358.6
523.9 524.8 532.8 533 527.8 517.9 517.9 506 477.8 471 465.6 439.8 411.8 410.3 419.7 427.1 440.6 447 459.5 473.3 486.8 510.1 510.2 509.6 503.5 496.5 486.7 470.5 452.7 446.3 444 438.6 429 419.8 414.4 408.5 398.6 397.2 392.9 374.9 364.8 359.5 369.4 372.3 371.5 362.7 359.8 357.1 354.9 350.3 348 349.4 348.6 352 353.3 354.5 359.9 368.6 378 385.2 393.7 402.7 417.9 436 440.6 445.8 445.5 447 444.9 439.5 434 428.9 416.2 397.3 374.1 338.6 312 276.9 254.1 224 205.9 184.6 171.1 159.2 150.4 142.8 137.2 120.8 101.8 87.1 77 69.4 62.1 51.6 43 43.6 42.6 43.8 43.5 43.6 44.8 46.1 45.9 42.6 44.4 44.8 45.2 45.6 46.9 52 57.4 61.5 67.7 73 78.7 82.8 91.3 103.4 110.2 117.6 128.4 139.4 150.7 162.9 174.3 183.8 197.4 207.3 220.7 237.4 253.9 273.5 275.8 280.6 285.2 284.1 279 271.7 268.5 266.2 266 269.3 267.2 262.6 262.6 269.5 268.8 271.7 278.3 286.5 285.9 280.6 278.8 278.2 276.4 266.4 248.4 243 240.6 237 230.8 231.5 231.6 231.5 233.5 234.4 235.5 238.2 247.5 246.5 248.2 257.2 258.6 258.1 255.2 255 254 255.1 253.9 249.9 245.7 241 237.1 224.4 216.3 214.6 208.7 213 218 221.7 233 250 266 279.7 290.5 308.1 318.6 331.7 345.4 367.8
537.7 534.2 542.2 541.7 535.1 526.3 521.7 516.5 507.7 497.1 481.2 459.5 436.6 427.1 429.5 433.5 442.5 450.4 456 470 486.1 502.7 506.2 509.1 510.1 509.9 505.7 494 472.2 458.9 460.1 450.7 440.7 430.2 422.9 416.6 407 402.8 398.4 385.6 371.4 368.7 366 376.5 369.4 363.6 359.3 355.5 351.9 349.3 349.6 350.6 352.4 351 349.8 354.4 351.3 362.9 370.6 380.4 388.2 397 406.8 423.8 429 453.7 453 459.4 458 449.8 446.9 438.2 428 413.6 393.6 345.5 322.2 288.8 262.1 234.8 209.6 189.1 174.6 166.1 155.6 144.7 142 128.8 110.3 93.9 80.8 69.7 59.5 51.3 46.7 44.1 44.3 44.7 45.6 46.4 48 50.2 49.8 48.8 50.2 49.5 49.6 49.3 48.3 53.7 57.1 60.5 65.1 68.5 72.9 78.2 86.5 96.8 101.8 113.8 120.1 126.9 133.9 141.6 151 161.8 174 184.9 198.3 207.7 223.9 236.9 255.4 271.2 270 270.5 272.1 263.5 260.5 267.4 272.4 274 269.4 268.5 270.1 274.7 273.1 277.4 278.9 283.5 284.1 283 285.6 283.6 280.8 272 254.6 244.1 234.2 232.1 226.2 226.2 226.7 228.7 227.1 230.2 230.8 233.9 237.4 237.8 238.8 242.9 242.4 244.4 244.2 246.5 247.4 244.3 243.7 240.5 235.3 229 221.9 214.8 209.2 208.5 206.4 213.6 217.2 222 238.4 255.1 269.6 284.6 296.9 312.1 324.9 338.6 352.2 376.3
533.2 537.6 537.1 530.7 522.4 518.3 523.9 530.6 525.1 513.3 494.2 479.4 456.4 443.9 439.6 443.2 444.8 452.3 458.5 463.7 484.3 495.5 501.6 504.7 505.4 507.2 506.6 500.2 496 482 464.5 457.7 448.3 441.4 434.2 426.1 416 410 401.5 398.7 379.4 374.9 367.2 373.7 369.1 362.6 358.3 353.3 350.5 350.6 352.8 350.8 351.9 348.8 349.7 348.8 348.8 359.8 366.5 374.7 383.7 390.9 396.8 406.5 417.2 458.1 459.2 469.3 468.4 460.8 466.7 457.3 442 422 405.3 365.1 331.3 300.5 274 245.5 218 198.8 186 177.6 163.5 154.9 146.3 129.7 111.7 99.2 85.4 70.6 59.5 52.7 47.7 45 45.5 46.4 46.5 50 51.3 56.9 57.2 58.4 58.2 54.9 54.8 56 52.7 51.9 54.1 58.6 65.8 66.6 69.1 73.9 80.2 86.3 96 102.1 109.8 117.3 121.5 128.6 134.6 143.4 152.3 157.5 171.9 186.8 198.2 210.2 229.9 250.2 256.1 257.6 255.6 256.1 265.8 272.8 277.8 282.3 276.9 275 279 283.8 287.5 288.6 288.6 287.3 287.5 290 290.9 292.1 283.5 273.7 261.8 244 232.1 226.6 227.2 218.1 223.6 224.8 224.1 227 226.7 230 230.6 229.7 228.7 230 228.1 231.9 233.7 231.3 237.1 237.9 234.2 234.3 226.6 217.2 208.6 207.7 205.4 204.4 208.1 213.5 222.6 229.3 243.2 258.9 271.9 286.3 303.4 315.3 329.1 339 358.9 381.7
519 521.8 519.2 513.3 510.5 515.1 530 525.8 521.1 511.6 500.8 487.3 473.1 457.6 450.4 451.3 454.6 459.1 460.9 462.3 475.5 483.9 492.1 498.8 499.7 501.9 502.5 496.9 493.2 487.9 476.6 464.4 453.4 446.7 441 433.8 425.6 414.2 402.2 399.8 385.7 382.3 377 375 368 358.3 355.1 354.1 351.4 354.4 354.2 354.7 350.8 351.4 348.8 348.8 348.8 355 362.6 366.2 375.2 383.4 387.8 397 410 445.8 458.5 472.4 473 467.1 478.3 470.6 456.5 433.4 415.3 380.9 350.2 320.7 294 257.4 229.6 212.3 192 181.2 171.5 162.7 148.3 132.8 117.7 101.7 85.4 70.9 61.3 54.4 49.3 45.8 46.6 50.2 51.8 52.2 56.1 62.4 66.2 66.7 67.4 66.5 64.2 63.9 59.5 57.4 62.5 59.9 59.2 63.3 67.4 68.6 72 77.6 87 95.1 96.2 103.1 110.2 115.3 118 124.9 122 150.9 169.1 178.7 185.2 196.5 213.1 229.4 236.8 240.5 247.2 259.1 273.5 278.6 282.9 291.7 287.3 290 294.1 297 300.9 303.4 304.9 306.2 305 300.2 299.3 298.6 292.5 279 267.9 255 240.7 225 221 213.8 223.2 222.2 218.1 221.3 221.9 218.7 220 220.6 222 223 220.7 225.3 221.7 221.7 224.2 221.1 221.3 218.2 212 207 202.7 201.3 200.7 197.8 204.1 209.4 221.3 229.9 249.2 263.3 273.3 287.3 304.4 315.6 325.4 345.3 362.4 384.2
505.9 509.5 502 499.7 501.5 509.3 525.7 516.7 510.7 507.3 501.9 495.3 485.9 474.5 467.1 463 460.6 462.4 465.2 460.9 466.6 473.8 481.3 487.4 492.2 494.7 496.2 492.9 487.9 485 477.6 465.1 455.3 448.6 443.1 437.9 430.7 419.2 408.1 404.5 390.7 386.2 385.2 379.7 370.8 366.4 362.7 357.4 357.7 355.4 352.9 353 353.1 348.8 348.8 348.8 348.8 353.4 360.5 356.9 366.9 375.1 384.5 391.1 402.4 432.7 451.1 471.7 471.7 475.7 482 477 465.8 444.4 426 404.4 369.7 336.5 303.1 275.6 242.8 220.4 199.3 186.5 175.9 161.6 149.9 135 117.1 101 87 72.6 60.2 56.2 48.2 47.5 47.6 53.1 55.2 57.9 61.6 69.5 72 78.4 76.4 76.8 74.5 74.2 69.2 68 68.7 67.7 70.6 73.3 70.2 77.9 78.6 83.2 87.1 89.4 95.9 99.9 106.1 111.6 125.9 129 135.3 153.7 173.2 183.5 196.6 210.7 214.9 218.6 236.6 247.3 253.3 262.9 273.7 282.2 290.8 300.9 305.2 315.3 313.8 319.4 334.7 330.4 324.5 324.5 322.1 317 311.9 309.9 302.1 291.8 281.7 271.1 258.5 242.3 223.4 213.8 214.1 214.5 217.5 216.8 216.4 213 216.1 216.4 218.8 215.4 212.8 215.5 216.8 215.1 211.3 209 209.7 207.9 204.8 201.9 199.8 197.9 196.9 193.4 199.4 212.1 219.7 232.8 247.2 262.8 277.3 291.6 305.4 316.5 327.6 342.5 364.5 384.8
489.8 490.1 489.6 486.9 491.6 501 517 507 503.9 504.5 499.1 498.5 493.4 491.9 488.9 486.2 471.2 464.7 462.3 462 460 467.3 471.7 476.8 481.8 487.4 490.3 488.8 483.7 478.6 475.6 466.7 457.2 450.7 446.1 443.6 434.7 424.3 414.2 406.7 396.6 394.1 393.2 388.2 374.2 373.6 370.8 364.8 359.6 357.1 354.4 351.6 350.4 348.8 348.8 348.8 348.8 353.4 355.7 355.4 359.5 365.9 376.1 382 392.5 420.9 438.4 463.1 470.6 473.4 482.6 479 469.7 454 439.7 426.8 396.8 353.5 319.7 288.1 259 232.6 213.8 198.2 182.5 168.8 151.6 138.1 118.8 106.2 90.3 75 59.6 54.5 49.5 49.2 49 54.6 57.3 60.3 66.4 76.8 84.2 91.2 90.4 88.7 89.1 82.5 81 78.5 75 74.1 75.9 78.2 74.8 80.6 85.5 89.1 91.9 99.1 103.9 108.6 119.5 128.9 135.1 144.7 151 159.6 180 191.5 202.6 210.5 223.1 230.7 239.3 249.9 259.6 268.9 277.9 283.1 296.1 311.7 321.9 328.6 328.7 340.4 346.4 350.3 344.7 339.2 331.6 326.7 322.9 321.1 313.3 303.2 292.9 285.3 274.2 260 242.5 223.8 207.5 206.3 212.6 215.2 214.2 211.2 212.8 212.4 213.2 211 207.8 207.8 207.5 207.6 202.5 201.7 199.2 200.3 197.1 195.1 194.7 195.4 194 196 200.5 207.5 223.5 234.4 247.7 263.3 278.3 292.6 306.7 315.5 332 348.5 365.2 383.2
478.6 476.3 477.4 475.7 480.3 488.1 499.9 495.6 496.2 498 496.6 492 492 494.2 494.1 497 487.6 472.2 465.9 460.7 458.9 459.5 463.1 467.3 473.9 476.9 480.3 480.5 476.9 472.3 471.1 465.5 457.7 453.6 448.3 444.4 437.2 428.7 419.2 415.9 405.2 402.4 401 393.2 382.3 379.4 374 369.9 363.1 356.7 353.7 353.4 353.5 353.4 352.4 348.8 348.8 353 355 350.5 350.6 358.2 371.4 376.4 384.9 407.8 431.1 442.9 465.9 470.4 477.9 477.1 469.4 458.1 447.4 434.5 414.6 380.3 344.5 304.1 275.3 248.7 221.8 205.5 189.1 172.7 159 140.7 122.3 107.1 93.4 78.9 63.3 55.7 51.1 49.6 53.4 56.2 59 63.4 73.3 87.9 97.1 101.5 101.5 100.7 100.1 99.8 98.7 95.9 90.1 85 85.8 83.1 82.9 85.3 88.8 92.5 95.6 104.4 111.6 118 123.1 137.4 151.1 156 162.1 172.9 177.3 181.2 204.4 213.6 231.1 239.2 245.8 254.1 263.4 275.3 276.4 285 301.3 315.1 332.1 335.5 337.6 351.9 350.4 355.1 353 349.4 346.2 342.7 333.7 325.8 321.9 310.6 304.4 296.3 284.6 273.1 256.2 239.8 223.4 210.5 201.6 207.1 207.4 207.3 209.6 206.9 206.8 205.8 204.1 203.2 200.4 198 196.2 196.5 195 193.4 192.1 189.5 190.4 191.9 189.8 193.1 204.3 212.2 222.5 233.8 248 259.7 276.4 291.6 304.5 321 333.1 346.4 365.7 380.6
468 462.7 466.6 466.8 467.5 476.4 484.9 479.5 477.9 483.3 482.7 482.5 486.2 491.4 491.5 496 490.4 476.6 466.1 460.1 455.3 452 455.1 457.1 463.3 465.2 468.2 470.4 470.6 468.1 467.8 464.2 463.5 457.8 450.9 445.2 442.1 435 430.4 424 415.4 409.2 404.7 395.1 390.6 385.9 377.4 371.3 364.4 360.3 358.1 358.2 356.2 356 352.8 348.8 348.8 353.7 349 349 349 354.9 365.9 370.8 378.6 398.8 422.4 436.5 450.9 466 470.5 471.9 467.3 459.5 449.6 440 427 406 377.5 337.4 297.3 261.7 233.5 215.6 197.4 179.9 163.4 145 127.8 112.7 96.6 80.1 66.3 57.6 53 51.6 56.8 59.4 60.8 66.4 75.8 92.8 105.2 116.7 116.3 115.1 121 117 111.4 107.4 103 102.6 95.4 90.8 90.3 86.8 90.1 94.8 101.8 110.9 114.4 121 134.1 147.2 155.6 161.8 172.8 180.4 193.8 195.5 192.3 214.9 233.7 244.6 253.3 258.9 269.3 278.1 279.9 284.9 298.9 316 336.7 339.6 341.9 352.5 350.6 359 360.2 358.6 356.8 351.6 344.3 341.6 328.7 318.2 309.3 305.3 297.3 285.4 271 253.5 238.9 226.9 213.2 199.4 199.8 201.1 202.7 201.8 200.1 197.6 195.3 196.4 194.8 193 192.7 190.6 190 190.2 188.4 188.1 186.1 186 187.3 194.3 202.2 214.4 226.5 236.9 251.2 261 276.4 290 303.9 320.9 337.2 346.1 363.7 378
444.1 449.4 452.3 456.4 456.1 463.7 469.3 469.9 467 471.6 466 470 481.5 484.1 485.8 492.1 488.1 475.9 464.8 459.4 453.5 449.5 445.1 450.9 454.2 458.4 458.7 461 461.1 462.3 463 461.1 458.5 458.4 454.1 451.6 447.8 440.7 437.1 433.4 425.4 422.3 413.3 410.1 398.7 389.9 382.3 375.8 369.5 367.2 363.2 360.7 359 355.2 352.4 350.7 350.5 353.3 349 349 349 349 363.9 368.7 375.3 392.1 420.8 430.7 446.6 459.5 465.2 466.2 463.3 458.5 451.6 443.6 433 421.3 400.3 362.4 328.4 285.2 251.1 221.9 202.3 183.6 166.8 149.5 133 119.4 102.3 82.9 70 61.4 54.8 52.9 58.4 62 64 71.1 80 93.2 114.2 132.2 137.3 138.5 140.3 139.8 129.9 121.2 116.8 117 108.6 106.9 108.2 100.9 92.7 99 107.4 115 121.8 126.6 134.1 141.3 157.1 165.8 180 191.9 204.6 209.5 214.8 214.8 219.3 241.6 251 258.4 271.9 275.7 280.1 283.1 296 314.3 339.5 343.8 347.8 352.3 352.6 364 364.3 364 362.1 359.2 355.2 347.9 339.5 327.6 319.4 315.2 307 296 282.9 268.1 255.3 242.4 227.3 211.5 197.6 193.9 195.2 192.6 193.8 194.4 189.8 190 191.3 189.2 187.2 186.5 183.9 185.6 186.2 185.8 185.3 185 191.4 192.7 199.6 214.3 219.4 234.8 247.4 260.1 279.5 291.2 309.3 319.4 332.7 349.1 359.7 373.9
431.6 430.3 440.6 441.3 443.1 446.2 456.1 459.2 456 459.5 453.6 458 466.7 468.2 476.6 479.4 476.5 468.7 463.2 455.2 450.4 446.4 445.3 442.8 445 447.5 450.2 455.6 456.6 457.1 457.3 456.4 456.5 459.9 461.3 455.7 450.7 445.7 442.9 441.1 438 430 419.3 412.8 404 394.2 386 379.1 370.3 368 363.8 362.5 359.9 359 356.8 355.8 353.6 349 349 349 349 350.4 360.8 362.8 371.9 388.5 417.6 430 454.1 462.6 465 459.8 457.3 454.5 450.1 445.2 435.9 425.5 412.7 383.3 345.1 311.2 267.4 238.7 208.4 187.5 172.3 153.8 138.8 123.4 104.7 86.2 70.3 61.7 55.4 56.1 58.6 63.5 67.6 75.1 82.6 95.4 126.8 159.3 176.3 169.9 160.9 151.5 142.3 134.4 133 128.9 128 118.5 119 115.3 110.3 103.5 111.7 123.2 125.5 131.8 137.6 148.5 158.2 171.3 185.8 200.6 210.6 219.8 226.8 230.3 233 226.5 247.5 256.2 274.9 279 281.4 285.8 290 309.5 331.7 342.2 343.5 346.8 352.3 364.3 363.7 363.8 368.9 366 360.8 357.7 348.9 337.6 326.8 324 319 303.6 290.2 280.3 269.1 255.3 240.6 224.7 212.8 201.5 192.2 187.1 188.1 186.7 184.1 184.8 187.3 182.3 183.1 184.1 183.8 182.1 183.4 181.7 181.8 184 190.2 192.6 197.2 208.7 218.6 231.9 245.6 258.5 276.4 292.2 309.4 319.6 331.7 345.5 356.3 368.7
427.5 427.5 431.6 434.7 430.9 432.8 443.2 443 441.5 442.8 440.8 447.1 455.7 458.3 459.9 463.6 463.2 458.2 450.9 449.5 448.3 444 441.4 441.1 438.6 438.9 443.5 445.8 451.1 454.6 454.5 453.8 454.7 456.7 456.3 454.2 451.3 449.5 447.6 447 447.3 439.9 431 420.5 409.3 401.2 391.3 383.1 372.1 370.5 366.2 364.8 362.7 360.9 357.8 356.8 354.9 349 349 349 349 353 358.5 362.6 373.4 393.9 415.9 424.2 447.4 458.6 465.2 460.8 454 450.2 446 443 434.2 425.1 412.7 396.6 362.5 327.8 280.7 253.6 222.1 195.2 177 162.3 142.1 130.2 107.9 88.1 72.5 62.6 56.7 57.1 63 65.9 70.6 77.5 87.5 103.7 133.6 191.3 205.4 196 183.2 168.8 158 152.3 148.2 151.5 144.6 138.6 130.5 128.2 125.7 121.4 125.7 121.9 134.7 139 142.4 154.3 164.3 174.8 201 217.7 221.7 228.8 236.5 238 245 249.7 254.9 257.5 276.1 282 284.1 289.6 293.9 309.7 318.9 329.1 333.5 338.5 349.6 349.8 356.3 362 371.9 369.3 364.7 359.6 355.3 344.2 337.2 331.1 325.3 315.1 301.6 291 278.8 266.3 251.8 237.4 223.9 214.1 206.1 196.5 188 182.1 180.3 181.5 180.2 177.3 178.5 178.1 182.3 182.2 181 185.2 184 184.9 189.2 191.8 197.2 207.7 220.2 228.4 244.6 257.1 272.4 293.2 308.4 317.4 330 340.9 353 363.8
427.5 429 426.9 426.1 431 427 431.1 425.4 420.1 418.2 430.7 437.9 444.1 449.3 450.9 450 449.7 446.1 438.8 443 447.8 443.5 438.8 434.8 437.1 433.8 432.1 440.1 444.5 449.2 451 450.5 449.6 451.3 451.6 451.8 452.3 452 448.7 450 448.1 441.9 435 426.3 416 403.3 393.5 384.9 377.7 372 370.9 367.8 364.7 361.9 359.4 355 352.1 351.8 349 349 349 351.4 358.4 365.7 378.5 398.1 417.1 426.6 438.5 452.4 458.7 457.7 455 448.3 441.8 437.7 431.2 423.5 413.7 401.3 384.6 345.6 311 267.1 234.9 205.9 181.4 164.2 147.3 137.8 114.1 91.8 74.6 65.2 59.9 57.6 63.2 68.4 73.8 83.7 92.8 113.3 152.9 202.9 221.1 216.4 201.2 189.3 180.7 177.6 168.4 162.8 157.7 151.6 144.5 145.6 144.7 141.6 142.5 138.7 143.1 146.7 150 157.8 170.8 180 200.9 227.9 236.6 237.5 244.6 248.9 252.3 263.6 274.2 272.3 267.4 282.2 287.9 298.9 296.5 306 313.2 320.5 328.2 332.8 343.2 344.6 348 357.5 368.1 365.9 365 362 358.4 352.2 345.6 336.8 329.6 322.2 313.7 301 286 272.6 260.9 246.6 233.7 223.3 214.5 204.1 194.4 185.6 181.3 178 177.3 176.4 175.5 176.1 176.3 174.9 179 180 182.8 187.1 192.3 195.5 196.2 206.3 219.9 229.4 244.4 259.5 270.6 289.8 299.2 316.4 327 333.5 345 354.8
427.7 431.9 429.7 420 424.8 421.8 420.3 417.9 406.6 409.9 421.9 430.5 434.9 436.5 440.2 439.7 437.1 434.3 430.3 436.6 441.9 440.2 435.8 431.3 427.4 431.7 429.4 427.5 437.6 443.3 443 443.3 443.9 443.6 447.4 450 451 452.1 452.1 447.2 444.8 437.2 433.7 427.4 417.4 406.7 398 390.3 383.1 377.4 373 368.7 364.6 361.6 357.5 354.3 351.8 351.9 350.8 349 349 353.7 359 367.8 373.4 399.3 409.2 420.6 438.8 443.8 450.2 453 452.1 446.5 438.3 432.1 425.7 419.2 412.8 402.6 392.2 377 336.8 289.3 244.1 214.3 189.7 170.2 152.5 139.6 119.8 94.5 78.4 68.8 62.7 59.2 66.7 72.1 81 88.4 102.9 169.7 196.3 204.7 225 227.3 227.1 212.8 198.5 193.2 188.1 179.1 171.7 164.4 161.5 163.3 157 156.5 158 156.5 153.4 152 160.7 171.7 177.2 185.7 206.8 234.3 243.4 244.8 249.1 255.7 263.2 271.9 280.9 281.9 280.2 279.9 288.2 300.3 299.7 304 306.4 311.9 316.7 327 336.3 335.8 344.4 354.5 360.4 368.4 367.1 367.4 359.4 355.1 349.4 345.8 338.7 326.5 318.7 310 296.9 278.6 267.4 255.2 242.3 231.2 220.9 209.5 198.6 189.3 181.5 178.3 176.5 175.2 173.5 174.9 176.3 173.2 177.4 177.3 182.3 186.7 189.8 196.1 198.4 204.3 217.4 226.2 236.8 249.2 263.9 284.8 296.4 311.2 318.3 324.9 334.4 343
