ncols 200
nrows 99
xllcorner 290000
yllcorner 553100
cellsize 50
104.6 109.5 117.4 125.1 128.2 133.3 137.8 143.5 149.9 156.6 163.9 170.5 177.4 180 174.5 162.7 148 135.9 126.8 113.8 105.9 99.6 94.3 88.6 81 73.5 67.7 62.3 57.4 53.1 50.3 48.5 47.3 46.4 46.3 46.5 49 49.7 48.1 48.4 49.2 51 55 62.6 67.9 72.3 74.3 67.4 55.3 42.8 30.6 27.2 24.7 22.4 25.7 32.7 42.9 53.5 63.6 79.9 100 114.1 102.1 86.7 82.4 80.7 77.6 70.8 55.6 40.9 45.6 56.1 77.2 98.1 115.5 136.6 157.5 178.5 189.7 190.6 179.9 176.2 175.1 171.9 170.2 165.2 152.8 140.2 133.7 131.1 134.9 142.5 147.8 148.4 148.2 148.9 149 147.7 145.5 144.2 142.6 140.7 138.4 135.7 134.4 133.5 132.3 131.1 128.7 126.8 124.6 121.8 118.1 114 110.3 107.6 105.5 103.3 101.4 98.8 96.9 94.3 91.2 87.7 84.8 82.6 74.2 78.4 77.9 74.1 71.2 70.7 69.6 67.5 64.9 61.1 57.1 52.6 48.1 44.3 41.9 42.3 39.5 37.1 34.2 30.9 27.7 23.5 19.6 18.2 17.2 17.4 17.5 16.4 15.7 14.5 14.6 15.1 15.6 16.9 18.6 21.5 24.6 27.2 31.5 35.5 38 38.3 37.6 37.3 37.2 37.3 36.3 36.2 36.4 34.8 33.1 31.6 29.9 28.5 25.4 22.2 20 18.8 17.7 17.5 18.6 19.8 20.7 22.5 21.7 22.3 25 27.4 25.6 22 17 5.5 2.2 -0.9
102.5 105.2 113 120.2 125.4 130.5 136.7 142 147.8 155.4 162.6 170.5 177.2 180.6 181.7 174.1 160.3 146.5 134.7 122.7 114.5 104.9 98.3 91.9 87.1 79.5 72.3 66.6 61.5 56.8 53 49.5 47.8 47 46 46.4 45.7 48.6 48.7 47.3 45.9 47.9 52.2 62 69.1 72.8 77.6 75.2 62.8 49.9 37.9 27.5 24.3 23.8 20.6 29.8 38 48.6 59.3 68.8 86.9 100.5 102.6 84.7 77.7 76 74.9 70.4 58.6 43.1 40.1 48.8 63.5 84 104.9 129.6 146.7 161.7 171.6 170 163.6 162 161.8 160.5 158.5 153 138.5 130.4 127.7 128.5 137.1 142.6 144.3 143.8 142.6 141.4 141.2 139.7 138.5 137.3 136 134.7 133 131.7 130.8 130 128.9 128.4 126.1 124.1 121.5 119.1 115.1 110.7 106.5 104.3 102.2 100.3 97.9 95.3 93.2 90.5 87.4 84.8 82.6 80.7 80.1 74.4 68.9 69.8 69.1 68.7 66.7 64.5 61.1 57.4 53.5 49.5 43.7 39.2 38.9 39.9 37.4 33 30.6 27.2 24.6 21.7 20.1 18.6 18.5 19.8 17 17.4 17.1 15.2 16 16.8 16.9 18.4 20.1 22.7 26.3 30.3 35 38.2 40.2 39.2 37.2 37.3 37.5 37 37.1 37.8 37.6 35.1 32.9 32.6 33 30.2 27.1 23.7 21.2 19.3 17.9 18.2 19.1 20.5 23.4 25.6 24 25.3 28 28.2 25.9 22.4 16.4 4.5 2.2 -0.9
101.8 103.2 108.4 116.9 122.5 126.8 132.3 139.4 144.5 151.6 159.5 167.6 175.6 179.3 178.5 175.7 164.8 152.2 143.9 129.8 121.2 113.2 103 95 90.6 85.6 78.1 71.1 66.3 62.1 56.9 52.7 48.9 47.7 47.5 46.9 45.1 46 47 45.6 44.2 43.7 47.4 56.3 69.4 73.7 79.1 78 68.9 56.2 43.3 32.4 24 23.5 20.2 25.3 33.2 43.9 55.1 63.7 73.6 86.4 96.3 84.1 74.5 72.2 72 66.7 57.5 45.1 38.3 41 56.7 73.1 93.6 113.9 134.5 145.4 153.9 150.4 149.1 148.3 148.8 148.8 146.3 137.2 126.5 124 125.7 129 136.7 138.7 138.2 137.1 135.7 134.3 133.3 132.2 131.5 130.9 130.3 130.1 128.7 128.9 128.7 128.3 127.6 126.7 124.8 122.1 119.3 116.8 111.9 106.7 103.1 100.8 99.1 97.2 94.4 91.3 89 86.7 83.6 82.1 80.1 78.4 75.5 72.5 68.1 65.9 67.4 65 62.3 60 56.7 52.9 49.5 44.9 41 37.8 36.5 35.4 33 31 28.2 25 22.5 20.8 20.2 21.3 19.6 17.6 17.3 17.3 19.1 18.1 19.3 18.3 18.9 20.6 22.8 25 28.9 33.6 38 39.5 40.6 39 37.8 37.6 37.8 37.6 37.8 38.9 38.6 36.2 33.6 33.9 34.5 32.4 28.9 25.4 21.2 20.1 19 18.7 20.2 22.9 28.6 27.9 26 27.4 29.4 28.4 25.4 22 13.7 4.2 2.2 -0.9
101.1 102.6 104 111.2 116.9 121.6 127.9 134.5 140.7 146.6 154.4 163.9 174.3 179.8 175.6 168.2 160.6 150.7 140.6 130.6 123.7 119.3 109.7 99.5 92.6 88.8 85 78.6 73 68.9 63.6 58.6 53.9 50.8 48.1 46.8 45.9 45.5 45.7 46.1 46 42.9 42.8 47.8 65.3 76.8 79.4 82.2 75.7 62.4 48.8 36.5 27.5 23.1 20.4 22.8 28.7 38.4 46.8 57.9 65.5 76.1 83.5 80.2 71.2 66.8 66.3 61.9 54.9 44.6 37.8 37.5 50.3 66.1 84.1 101.5 115.7 126.6 129.7 132.7 134.7 135.1 137.6 139.6 134.8 125.9 121.1 123.6 128.9 133.2 135.3 133.2 131.8 130 128.6 127.2 126 125.5 125.3 125.1 125.6 126.4 126.5 127.1 127.8 128.4 127.6 126 123.9 121 117.5 112.3 107.5 102.6 99.7 97.1 95.8 93.9 89.7 87 84.8 82.2 80.2 78.8 76.7 73.7 70.8 68.7 66.3 63.7 63.5 61.3 58.7 55.5 51.8 47.9 44.8 41 38.7 36.1 34.5 32.9 31.2 30 26.8 24.1 21.9 21.1 25.5 20.5 19.7 19.4 18.4 17.5 18.8 20.5 21 20 21.1 23.4 25.9 28.1 32.3 36.9 40.4 41.3 40.4 39.1 37.9 38.1 38.7 38.7 39.1 39.9 39.2 36.8 35.9 35.5 35.8 33.8 30 26.1 22.1 20.4 19 19.8 22.6 27.6 31.2 28.6 27.3 29.6 30.1 27.8 24.8 16.1 4.7 4 2.2 -0.9
100.2 102.4 102.7 105.2 110.8 115.4 123.7 129 135.8 142.3 148.7 158 167.3 180.5 180.4 175 159.4 147.3 137.4 128.9 123.4 119.2 114.5 105.1 95.6 90.8 88.6 85.3 80.9 76.5 71.4 65.3 61.9 56 52.7 49.2 47.6 46.7 46.5 48.6 48.2 45 41.7 43.3 54.1 73.1 79.8 86.7 83 68.8 54.3 40.1 30.4 25.5 20.7 19.4 26 32.1 40.4 51.3 59.4 66.8 70.2 71.3 67.4 61.1 59.8 57.9 51.7 44.4 36 35.6 45.1 58.9 73 90.6 103.6 112.7 116.5 115.9 118 121.6 127.2 129 123.9 119.2 120.6 125.4 129.4 131.1 130 127.7 124.8 122.7 121.5 120.1 119.3 119.2 119.2 120.2 120.9 123.3 124.2 126 127.5 128.1 128.1 126.5 123.9 119.3 114 108.1 102.9 99.5 96.3 93.4 91.7 88.5 83.9 81.8 79.5 78.1 76.1 74.3 71.9 69 66.5 65.1 63.2 58.1 59.3 56.9 53.6 50.3 46.8 43 40.1 37.5 35.7 32 32.2 30.9 30.6 28.4 25.5 22.4 21.2 21.8 21.9 21.9 21.1 20.5 19.2 18.4 19.1 20.5 21.4 22.2 23.6 25.9 28.6 31.4 35.5 39.4 41.7 40.8 40 39.1 38.3 38.8 39.9 39.8 40.4 40.7 39.8 38.2 38 37.4 36.3 33.1 29.4 25.7 22.2 20.6 19.2 21.6 26.6 31 31.3 28.1 28.7 30 29.6 27.8 23.1 4.7 4.2 3.8 2.2 -0.9
100.6 99.5 100.1 102.2 104.9 110 117 123.2 128.8 137.9 144 151.5 161.8 171.2 183.9 181.5 171.3 153.1 144.5 129.3 121.5 117.2 114.8 108.5 99.3 93.2 91.8 91.3 88.7 83.5 79.3 73.8 67.9 63 58.6 54.3 50.8 49.9 49.2 49.7 50 46.7 43.2 40.9 45.7 61.2 75.7 83.8 88.8 74.8 59.4 44.9 32.3 27.8 21.3 17.9 22.3 28.8 35.6 46.1 52.1 58.5 62.6 63.8 63.1 57.5 53.9 52.8 49 42.5 35.6 33.1 40 52.4 64.8 78.4 89.5 99 105.6 105.4 105.9 111 116.6 116.2 113.3 118.1 124.1 127 127.4 125.7 123.4 120.4 117.4 115.7 114.3 113.2 113 112.9 113.4 115.4 117.5 120.2 122.5 124.8 127.3 128.2 128.4 126.8 122.2 116.6 110.7 104 99.1 95.5 91.7 89.2 85.9 82.2 78.7 76.3 74.2 72.8 71.2 69 66.5 64.5 62.6 60.8 58.7 56.2 53.8 51.8 48.7 45.1 41.7 38.1 36.1 34.8 32.2 30.7 28.9 27.9 26.9 24.4 23.2 21.9 23.7 26 26 24.6 23 21.3 20.4 20.4 21.1 21.9 23.6 24.7 26.6 28.5 31.2 34.4 38.1 41.5 42.2 41.2 40.1 39 38.9 40.2 41 40.9 41.3 41.5 41.4 40.5 39.4 38.5 36 32.3 29.1 25.4 21.6 19.7 21.5 25.5 30.5 32.3 30.8 28.9 29.7 29.5 29.1 27 5.5 4.2 3.9 3.5 2.2 -0.9
105.8 100.8 97.9 100.2 99.9 103.4 107.8 114.8 120.8 130.8 136.8 144.9 155 162.8 175.3 182.3 175.2 163.1 148.4 135.2 124.4 115.3 112 109.1 102.2 96.4 95.4 94.6 94.4 92.1 87.5 82.9 75.9 67.9 63.2 59.4 56.6 55.2 53.5 52 51.5 49.7 47 42.7 40.5 48.5 64.8 76.9 90 82.9 64.4 49.3 35.1 28.4 23.1 17.4 17.6 25.4 30.6 40.5 47.1 51.3 56 57.3 56.6 54.4 48.9 46.7 45 40.4 32.8 31.3 35.2 46.2 58 69.7 77.8 87.8 95.5 96.1 97.7 101.1 105.4 104.2 112.4 119.8 122.6 123.7 122 119.2 116 113 110.7 108.9 107.8 107.1 106.8 106.7 107.8 111 114.2 117.6 120.9 123.8 126.3 127.6 127.8 124.3 118.6 112.4 106.5 99.8 95.2 91.6 87.2 84.3 80.7 77 73.7 70.9 69.6 67.9 65.9 64 61.4 60.2 58.7 56.5 54.3 51.9 48.5 46.7 43.9 40.3 37.1 35.3 34.5 32.4 30.1 29.8 28 29.2 25 24.5 24.6 24.7 26.1 27.8 27.5 26 24.4 22.8 22.7 23.6 23.8 24.7 26.2 27 29.4 31.4 33.8 37 39.9 42.8 42.8 41.8 41.1 40.6 40.5 41.8 41.8 42 42.3 42.6 43 41.7 40.6 39.4 36.3 32 28.8 24.2 20.7 19.8 23.6 28.1 31.7 31.8 29.7 29.3 29.2 28.9 28.5 11.7 4.4 3.9 3.6 3.2 2.2 -0.9
119.2 108.8 95.6 95.7 96.5 97.5 101.6 106.3 113.1 124.7 129.5 137.7 148 156.7 169.6 173.6 177.1 164.4 147 145 130.3 117.8 110.6 106.8 104 99.8 98.3 97.9 97.6 98 95.8 91.5 84.8 76.9 69.2 65 62.7 59.7 57.3 55.5 53.9 50.7 49.3 44.9 40.2 43.6 55.9 67.4 78.8 85.4 68.9 53 38.6 28.8 24.2 19.3 16.6 18.9 25.7 32.3 41.5 45 49.3 50.7 50.3 49.3 46.2 42.2 40.3 37.2 31.4 29.2 30.6 40.9 52.6 64.5 72.3 78.7 85.9 90.4 90 90.2 94.5 104.1 113.3 117.7 119.2 117.9 115.3 112.3 108.9 106 104 102 101.2 100.8 101.2 101.5 103.5 107.2 110.6 115.2 118.8 122.3 125.2 125.9 124 119.4 113.7 107.9 102.3 96.6 92 87.6 82.7 79.5 76.3 72.4 68.7 67.1 65.7 63.7 61.3 58.9 57.6 56.4 55.2 52.6 50.6 48.6 44.6 43.4 40.5 37.4 34.9 33.8 32.5 31 29.7 30.1 28.4 27.5 25 26.6 26.7 27.7 29.8 30.2 28.9 27.3 25.2 24.9 24.8 26.1 26.8 26.9 28.6 29.9 31.1 34 36.4 38.9 41.4 42.5 42.8 42.9 42.4 42.1 42.4 42.2 42.1 42.9 43.4 44.2 43.7 42.3 41.1 38.6 35.3 31.4 27.5 22.8 19.7 20.9 24.4 28.8 32.2 31.2 29.4 29.9 28.2 28.1 16 5.1 4.1 3.6 3.3 2.9 2.2 -0.9
135.9 124.9 108.3 94.2 92.3 92.8 96.1 99.6 107.9 118.4 123.4 131.4 141.1 149.6 158.7 167.8 166.6 171.4 151.5 136.2 133.8 118 115.9 106.8 105 102.5 100.6 99.9 99.4 101.4 103.2 100.5 96.3 87.4 77.7 71.1 67.8 64.6 62.1 59.2 56.5 51.6 49.3 44 39.2 43.9 51.2 61.5 65.3 72.6 71.5 57 41.3 29.2 24.9 20.9 17.5 15 21.4 25.6 34.7 40.3 44.3 45.8 45.1 44 42.3 38.9 35.4 33.4 29.7 27 29.1 36.2 47.8 59.6 67.8 72.4 78.1 83.5 82.2 87 97 105.4 111 113.2 113.5 111 108.2 104.2 101.4 99.2 97 96 94.9 94.7 95.9 96.3 99.7 103.4 107.3 111.1 115.6 118.7 120.8 120.7 118.1 114 108.5 103.9 98.7 93 88 83.8 79.1 75.2 71.9 67.8 64.2 62.4 60.7 59 56.8 55 53.5 52.3 50.8 48.3 46.8 44 40.9 36.6 37 34.3 33.1 32.2 31.4 30.4 30 28.5 27.9 26.2 27.8 27.9 31.2 31.4 32.2 31.9 30.4 28.3 27.3 27.1 26.9 28.2 29.4 29.5 30.3 31.6 32.8 35.5 38.1 40.3 41.8 42.5 42.8 43.2 43.1 43.5 44.1 43.3 43.1 43.8 45 45.9 43.6 42.4 40.6 37.3 34.1 30.8 26.1 21.5 20.1 21.9 25.4 28.7 30.3 29.5 28.7 27.9 27.7 15.3 5.9 4.3 3.8 3.4 3 2.6 1.9 -0.9
153 142.4 127.1 106.1 90.5 90.2 90.3 93.3 98.4 107.7 116.1 125.7 134.4 143.3 148.3 154.5 155.5 155.9 155.8 133.8 127.9 116.8 116.6 110.8 107.7 104.8 102.1 101 101.1 102.9 106.1 109.3 106.3 97.3 87.7 77.5 73.6 69.8 66.7 63.8 59.3 54.3 50.5 46.8 41.2 39.9 45.5 56.3 58.8 58.4 60.9 58.9 43.2 29.6 25.3 20.7 17.4 14.4 17.5 22.6 27.6 35.9 40 40.4 39.5 38.3 37.1 33.9 30.8 29.1 27.7 25.6 26.5 31.4 43.6 54.7 62.6 68.2 72.1 75.1 78.7 87.3 95.6 102.1 106 107.6 106 103.5 100 96.8 94.6 92.4 90.3 89.9 89 88.8 90.3 92.5 95.2 98.5 101.8 105 108.3 110.7 112.6 113.1 111.2 107.8 103.5 99.4 95.2 89.3 83.9 79.9 76 71.1 67.8 63.3 59.9 57.4 55.7 54.1 52.8 51.3 49.7 48.2 46.3 44.7 42.5 40.4 38.7 37.1 35.1 34.6 33.2 31.9 31.5 30 29.6 29.7 28.5 28.6 28.8 29.2 32.1 31.9 32.8 32.9 31.8 29.9 29.8 30.3 29.9 29.9 31.2 33 32.1 33 34.4 36.8 39.1 40.8 42.1 43.1 43.3 43.6 44 44.8 44.7 44.1 44 44.5 46.3 45.8 43.3 41.2 39.4 36.3 33.1 29.2 25.9 21.9 20.9 23 26 26.7 26.7 26.2 25.5 24.9 8.9 4.5 4.2 4 3.5 3.1 2.6 2.3 1.7 -0.9
173.2 157.3 146.4 122.2 102.9 89.7 88.3 88.7 90.2 98.5 107.9 118.3 126.8 136.3 144.8 148.8 147.3 141.1 140.8 133.8 121.9 115.6 108.7 108.9 109.7 106.6 103.6 102 103 104.5 108.9 114 113.7 109 101.8 86.9 79.4 75.1 71.5 68.3 63.5 58 53.5 50.1 45.8 37.2 40.4 47.8 52 52.2 50.6 51.1 41.7 29.5 24.4 20.2 16.5 13.9 13.8 21.2 23.7 27.9 33.2 33.6 33.9 32.7 31.2 29.6 27.2 25.4 25.2 24.6 25.3 29.1 41.1 50.1 56.9 62.6 66.7 66.5 72.8 81.3 90.3 96.4 100.5 100.4 98.3 95.2 92.1 89.9 87.7 85.6 84.3 83.7 83.1 84.3 85.9 87.7 89.3 91.4 93.9 96.4 99.7 103.1 104.9 105.4 103.9 100.8 98.4 95.2 90.5 84.9 80.6 76 72.2 67.6 63.6 59.2 56.5 53.1 51.6 50.8 49.7 48.2 46.7 45.3 43.4 41.6 40 38.2 36.5 34.9 34.5 34.4 33.5 32.4 31 29.7 29.3 30.4 29.4 29 29.4 31.4 32.5 34.2 35.5 34.9 33.2 32.5 33.4 34.2 32.5 30.5 32.2 34.7 34.7 34.8 35.9 37.6 40.4 42 42.4 43.3 43.9 44.4 44.9 45.5 45.2 44.3 44.9 46.1 46.7 45.3 42.8 40.6 38.1 35 31.7 27.4 25.6 22.1 20.8 22.6 24.3 23.7 22.6 22.5 16.9 7.2 4.5 4.2 3.9 3.6 3.3 2.8 2.4 2 1.5 -0.9
190.2 174.4 148.1 131.7 112.8 96 89 87.8 89.3 92.1 100.1 110.5 119.6 128.3 139.5 159.8 153.5 138.6 131.4 130 121.6 112.3 106.7 104.2 104.5 104.7 103.4 102.4 103.8 105.5 108.9 116 119.8 116.2 113.1 100.3 87.2 81.3 76.6 73.6 68.5 62.8 57.8 52.7 48 39.4 35.4 40.9 46.7 48.4 48.3 43.4 38.7 29.2 24 20.2 16.4 13.9 13.1 20.4 20.1 22 25.8 27.7 28.3 27.1 25.8 24.6 24 22.4 22.5 23.1 24 27.5 37.2 45.7 53.4 57.6 60.3 61.2 64.9 73.9 83.5 90.1 94.4 93.2 90.3 87.8 85.2 83 81 79.6 78.7 78.4 78.8 80.6 82.2 83.3 84.3 85.2 85.6 87.5 91 95.2 97 98.1 96.5 95.4 93.4 89.7 85.4 81.1 77.9 73.2 68.4 64.6 60.3 55.5 53.1 50.7 48.9 47.9 47 45.4 43.8 42.3 40.7 39.1 37.6 36 34.8 34.2 33.9 33.9 33.3 32.3 30.9 30.3 30.2 29.4 29.5 31.3 31.2 32.3 33.9 35.5 36.2 36.3 35.1 35.9 38 37.5 34.1 31.6 33.3 35.3 35.1 35.1 36.2 38.2 41.2 42.8 42.7 43.4 44.1 45 45.5 45.5 45.1 45.3 46.2 46.6 45.6 44.3 42.6 39.7 36.6 33.3 29.8 27.4 26.1 22.5 19.8 20.3 21.4 20.3 20.1 13.9 6.8 4.5 4.3 3.9 3.5 3.2 2.9 2.5 2.1 1.7 1.3 -0.9
195.2 184 162 140 125.8 104.1 90.8 88.5 87.9 89.6 94.6 102.9 111.6 119.6 132.7 151.2 160.2 143.6 132.4 126.4 118.1 112.1 106.2 103.9 103.7 103.6 103.4 102.9 104.4 106.5 109.2 115.4 121.3 121.3 115.6 109.3 93.9 85.9 82.4 78.9 72.9 67.1 61.9 56.7 51.1 44.1 37.8 34 40.5 45.2 46 42.9 36.1 28.7 23 20.3 16.4 13.5 11 14.9 20.1 20.9 21 22.3 22.7 23 21 20.5 20.5 20 19.4 20.8 22.6 23.6 32.1 41.2 48.9 52.5 53.2 55.2 60.1 67.7 76.2 81.8 87 85.8 82.8 79.6 77.9 76.4 74.8 74.3 74.4 74.5 75.6 77.1 78.1 78.9 79.3 78.7 78.8 80.3 84 87.6 89.9 90.2 89.5 89.5 88.3 84 80.5 76.9 73.9 70.6 66.4 61.9 57.7 51.3 49.5 48.1 46.3 45.1 44.2 42.6 41.1 39.7 38.4 36.8 35.1 34.6 34.3 34 33.4 33.3 32.8 32.1 31.6 31.5 30.2 29.6 29.7 31.2 31.6 33 34.5 35.5 36.5 37 37.9 38.9 40.2 37.9 34.4 31.6 34.3 35.3 34.6 35 36.6 38.9 41.5 42.4 42.3 42.8 43.4 44.5 45.6 45.3 44.6 45.4 46.4 46.4 44.3 42.5 40.8 38.9 34.9 31 28.8 28.1 25.8 22.5 20 17.7 16.8 16.9 16.9 8.2 4.5 4.5 4.1 3.6 3.2 2.8 2.6 2.3 1.8 1.4 1 -0.9
211.6 197 175.1 149.1 131.5 112.6 96.4 88.5 87.7 89.2 94.3 99.8 106.3 112.9 118.6 136.9 156.2 149.8 139.4 128.8 121 111.6 108.1 103.6 103.5 103.4 103.4 103.6 104.8 107.4 110.3 115 121.7 123.4 118.5 113.5 100.3 90 87.2 82.2 76.6 71.4 66.2 60.4 54.7 49.3 42.6 34.4 35.6 40.9 43.9 41.4 35.3 28.7 23.1 20.6 15.5 11.8 11.5 11 19.8 20.4 20.8 20.3 20.3 19.6 18.6 16.8 16.1 15.8 15.8 18.2 20.8 22 27.7 35.9 43.1 48.2 49.8 49.4 55.8 63.5 70.1 73.6 77.6 77.5 75.4 72.9 71.3 69.9 70.1 70.1 70.2 71.2 72.9 73.7 74.2 75 74.9 73.5 72.7 75.2 78.8 81.5 82.8 83.5 83.6 83.6 81.8 79 75.9 73.1 70.7 67.7 63.8 59.9 54.2 49.4 46.8 45.3 43.8 42.5 41.4 40.1 38.7 37.4 36.8 36 34.8 33.8 33.5 33.3 33 32.7 32.2 32.7 33.2 31.9 30 29.8 30.4 31.3 32.2 33.7 34.9 36.3 37.5 38.8 40.1 40.2 39.6 37.5 34.7 30.8 34.1 34.2 33.3 34.4 36.4 39 41 41.1 41.5 42.2 42.7 43.8 44.4 44.3 43.9 44.8 46.4 45.4 43.2 41.1 38.6 36.1 33.2 30.7 29 28 25 23 21.4 18.6 17.1 17 13.7 4.5 4.5 4.2 3.8 3.4 3 2.5 2.2 1.9 1.5 1.1 0.7 -0.9
220.2 205.9 187.1 160.8 139.4 119.3 102.2 90.4 88.3 87.8 91.3 100.4 104.8 109.2 113.5 123 141.8 151.4 144.2 138.6 128.4 119.2 109.7 103.4 103.3 103.2 103.2 103.8 104.9 106.8 109.6 114.8 120 123.9 121 117.1 109.1 94.6 90.1 85.7 80.9 75.7 69.8 64 58.3 52.9 45.7 39 30.9 32.2 37.2 40.2 35.2 28.3 23 19.3 13.5 10.3 9.6 9.6 19.3 20 20.7 20.8 20.7 18.4 15.7 13.7 11.9 12.1 13.4 15.1 18.3 20.8 24 30.4 35.7 41.9 45.8 45.4 51.2 59.1 65.7 66.9 66.1 66.5 67.2 66 65.2 64.4 64.3 65.1 66.7 68.7 69.7 70 70.4 70.6 70.5 69.4 69.2 70.7 73.5 75.4 77.1 77.6 77.9 77.8 75.6 74.1 71.5 69.7 67.9 64.8 60.8 57.4 51.4 49 46.8 43.8 42.4 41.1 39.7 38.2 37 36.6 36.9 36 34.9 34.1 33.7 33.6 33.3 32.4 32.1 32.7 32.2 30.9 29.8 30.3 31.1 31.5 32.1 34.2 35.2 36.6 38 39.3 40.6 38.5 37.5 36.3 34.2 30.7 32.7 32.9 32.8 34.3 36.6 38.4 40.2 40.3 40.7 41.4 42.1 42.9 42.3 42.3 43.7 45.2 45 43.6 41.7 39.7 36.7 34 32 30.5 28.8 27 24.1 22.5 21.2 20.2 19.1 18.1 11.6 4.5 4.4 4 3.6 3.1 2.7 2.3 1.8 1.6 1.2 0.8 0.4 -0.9
224.8 211.7 195.7 173.9 153.7 131.1 107.7 94.1 88.6 87.8 89.5 98.5 101.9 104.9 109 118 124.9 155.4 160.8 149.2 141.8 126 118.3 107.1 103.5 103.1 103.2 103.9 105 106.1 109.4 113.1 116 121 123.1 119.6 113.4 99.3 93.7 89.1 83.5 78.6 74.5 67.6 62 55.8 49.1 42.7 35 26.6 29.3 34.4 33.6 26.4 22 17.7 9.1 10 11.5 11.6 19 20.3 20.5 20.7 20.6 18.7 15.4 13.6 11.5 11.5 11.5 12 14 18.9 21.8 26.2 31.3 36.7 39.7 42.1 47.4 55 62.8 65.6 62.9 59.2 58.4 58.9 59.5 59.7 60.3 61.1 64.2 65.6 66.1 66.1 66.1 66.2 66.2 66.2 66 66 67.4 69.4 71.4 71.8 72.2 71.1 70 69.3 67.5 65.9 64 60.9 54.7 53.5 48.8 50.4 47.6 42.7 41.3 39.9 38.9 37.7 36.8 37.5 37.5 36.6 36 34.7 34.1 33.9 33.1 32.1 32 31.6 31 29.9 31.1 30.6 30.4 31 31.8 33.3 35.3 36.7 38 39.2 38.8 35.8 34.9 34.2 32.8 27.8 31.5 32 32.5 34.6 37.4 38.4 39.2 39.6 39.9 40.5 41.4 40.3 40 41.2 42.7 44.1 42.8 41.4 39.6 37.3 34.6 32.6 31.2 29.9 28.4 26 23.6 22.6 21.4 20.3 18.1 15.5 11.2 5.2 4.2 3.7 3.3 2.9 2.4 2 1.6 1.2 0.9 0.5 0.1 -0.9
224.8 213.2 200.1 185.8 166.6 147.5 122.3 101.6 89 89.5 89.4 96.8 98.5 101.7 107 115.2 119.4 141.5 176.5 168.5 151 140.9 122.2 114.4 106.4 103.8 103.2 104 105.1 106.2 109.4 114.7 114.8 119.5 120.6 119.1 114.5 110 95.5 94 89 83.2 79.9 74.2 67.6 60.6 53.1 47 39.4 30.6 23.5 28.3 28.5 25.2 20.9 14.6 9.9 12.5 14.5 15 15.1 18.2 20.8 20 20 20.4 19.8 19.8 18.4 16.6 12.4 11.5 11.7 15.6 18.3 24.4 28.8 32.8 37.2 41.5 45.7 51.2 58.4 61.2 61.7 59.7 52.2 51.6 53.7 55.9 56.4 58.7 61.1 62 62.2 61.5 61.4 61.3 61.2 60.9 60.8 61.4 62.1 63.5 65.3 66.3 66.4 65.8 65 64.5 64 62.3 59.6 57.4 53.8 51.6 47.8 48.9 44.1 41.5 40.5 39.9 39.2 38.8 38.2 38.8 38.2 37.8 37.2 35.9 34.7 34 32.8 31.6 31.4 30.7 29.9 29.6 30.7 30.7 30.1 30.7 31.5 33.5 35.5 36.4 37.6 38 37 33.8 32.8 31.9 30.6 25.5 29.4 31.3 31.6 34.2 37.1 37.4 37.5 38.3 39.1 39.5 39.5 38.1 38.7 40.2 41.7 42.7 41 39.2 37.6 35 33.6 32 30.6 29.2 27.7 25.4 23.2 22 20.9 18.5 16 13.7 9.5 4.5 4 3.5 3 2.6 2.2 1.7 1.3 0.9 0.5 0.2 -0.2 -0.9
219.3 207 196.2 186.6 170.9 160.2 133.6 114.2 96.6 88.7 88.9 96.1 97.2 98.5 104.2 113.5 119.3 129.7 167.2 176.3 164.6 150.8 138.7 120.3 114.1 106.7 103.5 103.4 104.4 106.1 110.2 111.4 118.7 113.7 114.7 115.3 114 112.8 102.3 97.5 96.2 91.7 89.2 82.3 73.2 65.2 59.1 50.9 42.3 35.5 26.3 21.7 23.2 23 18.4 11.8 9.4 10.7 11.5 10 10 11.9 17 17.9 12.7 10.7 7.8 13.6 20.5 20.2 19 16.7 10.1 13.7 18.5 23.1 26.1 30 33.7 37.6 41.8 47.5 53.6 56.3 55.8 53.7 49.6 47.6 47.5 49.9 51.7 55.5 57.4 58.1 58.2 57.1 56.5 56.2 56 55.7 56 56.7 57.3 58 59.2 60.6 61.1 61.4 59.9 60 60.4 58.1 55.2 54.2 53.2 48.4 44.9 42.8 41 40.5 39.9 39.5 40 39.7 39.6 39.5 39.3 38.9 38.4 37 34.9 33.6 32.4 31.2 30.8 30 29.7 29.6 29.8 30.3 30.3 30.4 31.8 34 35.7 36.1 36 35.2 33.9 31.7 30.7 29.2 27.1 25.3 27.9 29.6 31.6 34.2 34.7 35.3 35.9 36.6 37.5 37.8 37.3 35.8 37.4 39 40.3 41 39.2 37.4 35.5 33.5 32.5 31.6 30 28.5 26.9 25 22.9 21.3 19.7 17 14.5 11.9 8.7 4.4 3.9 3.4 2.9 2.4 1.9 1.5 1.1 0.6 0.2 -0.1 -0.5 -1
209 199.2 191.7 184 169.4 158.9 138.2 118.2 103.9 88 86.9 92.4 95.2 96.7 99.2 110.3 119.8 122.7 143.8 177.1 175.5 162.7 149.4 128.7 115.3 115.9 106 102.2 103.8 105.9 112.8 112.5 114 113.7 110 109.7 108.9 109.1 107.1 99.2 100.6 97.9 93.7 90.1 79.6 67.6 59.6 52.8 44.2 36.8 27.4 21 16.2 17.8 15.8 11 8.4 10.1 10.7 10.6 10.5 10 9.1 9.1 9.3 9.8 9.2 8.4 11.6 20.2 19.8 16.8 10.4 11.3 16.8 20.5 23.3 26.2 30 33.2 37.6 43.6 48.7 51 50.2 48.2 46 45.6 45.3 45.8 47 52.3 53.8 54.4 53.9 52.8 52.2 51.6 51 50.6 51.3 52 51.9 52.6 54.5 55.4 56.7 56.1 56 56.8 55.7 53.5 51.6 51.2 50.1 45.1 41.8 40.7 40.3 40 39.4 40.4 40.9 40.9 40.8 40.2 40.3 40 39.1 37 34.4 32.5 31.2 31.3 30.1 29.9 29.8 29.7 29.9 30.8 31.2 30.3 31.8 33.8 34.9 34.7 33.5 32.2 30.8 29.5 28.7 27 24.7 24.8 27.1 29 31.6 33.4 33.4 34.1 34.8 35.5 36.1 35.5 35 34.6 36.2 37.6 39.1 39 37.3 35.1 33.2 32.2 31.8 30.4 29.2 27.7 25.6 23.8 22.4 20.9 17.9 14.5 12.6 10 6.8 4.2 3.8 3.3 2.8 2.3 1.7 1.2 0.8 0.4 -0.1 -0.5 -0.8 -1.2
219.4 199.7 184.3 178.4 167.3 162.3 140.8 118.5 102.9 88.8 85.7 88.8 92.4 94.7 96.6 103.4 115.4 121 127.3 158 178.6 171.5 151.7 136 120.5 115.5 117.8 110.7 102.7 106 112.1 112.2 112.6 111.5 104.9 102.4 102.9 103.3 104.1 102.1 104.4 99.4 94.5 89.7 78.6 67.1 55.9 49.8 40.6 32.9 24.7 19.5 12.5 10.6 10.7 9 8.6 8.2 8.3 8.5 9.5 8.9 9.4 9.1 9.2 9.2 9.2 8.7 7.7 14.8 19.6 20.7 15.5 9.7 12.9 17.1 19.8 23.1 26.4 29.4 33.8 38.9 44 46.4 45.7 43.9 42.6 42.9 43.3 45.1 42.1 45.4 50 50.7 49.6 48.6 47.8 47.3 46.9 45.9 46.6 47.1 47.1 48.6 50.8 51.6 52.1 51.7 52.5 51.8 49.5 49.4 48.3 49.5 45 40.7 40 39.2 39.1 39.7 40.5 41 41.3 41.8 41.4 40.8 40.9 39.8 38.3 36.5 33.6 31.4 31.5 31.3 30.7 30.5 30.2 30 30.3 31.1 31.7 29.7 30.5 32.8 33 32.7 31.4 30.4 29.3 28 26.5 24.8 22.9 25.6 27.6 29.6 31.6 31.9 32.2 32.9 33.7 34.4 34 33.3 32.7 33.5 34.8 36.2 37.2 36.8 35 32.9 32 31.7 31 29.2 27.6 26.2 24.2 22.5 21.7 20.8 15.9 12.8 10.7 8.1 4.5 4 3.5 3.1 2.6 2.1 1.7 1.1 0.6 0.1 -0.3 -0.7 -1.1 -1.5
224.1 207.2 189.2 174.4 161.3 150.5 141.3 120.9 98.6 88.4 84.1 85.2 89.8 91.6 95.2 100.9 109.4 116.2 118.7 140 166.6 177.1 158 141.6 127.5 115.2 122.2 123.3 109 105 109.3 112.5 113.3 112.9 107.2 97.1 96 98.9 101.3 104 108.9 99 94.6 85.8 76.1 62.4 48.6 41 33.7 27.1 21.4 9.8 7.3 7.5 7.1 7.9 7.6 7.3 7.5 7.5 7.6 7.8 8 8 8.6 8.8 8.9 8.9 8.3 7.6 12.2 17.5 19.8 8.2 9.4 12.9 16.6 20 22.8 26.6 30.6 34.9 38.7 39.8 41 39.7 38.2 40.5 41.7 44.2 42.9 41.6 46.6 46.9 46.1 44.7 43.6 43.3 42.9 41.3 42 42.5 43.3 44.6 46.7 47.1 47.1 46.7 46.5 46 45.6 45 43.2 42.3 40.2 38.3 38 37.5 38.4 39.5 39.4 39.8 41.1 41.3 41.2 41 40.7 39 36.5 35.1 32 31 31.8 31.6 31.2 30.8 30.4 30 30.6 31.1 31.7 29.7 29.5 31.5 31.1 30.5 29.1 27.9 26.4 26.1 24.5 21.9 23.6 26.9 28.5 29.7 30.7 30.6 31 31.7 32.4 32.2 31.7 31.1 30.3 32.4 34.5 35.6 35.1 34.2 32.7 32.3 31.8 30.7 29.7 27.6 25.7 23.9 22.6 21.4 20.3 18.8 15.2 12.2 9.5 5.4 4.3 3.8 3.3 2.8 2.4 2 1.5 1 0.5 0 -0.5 -1 -1.4 -1.8
228.7 211 196.8 181.9 164.9 142.8 128.4 114.3 96.4 87.5 83.1 83.8 86.8 88.5 92.7 99.8 105.9 110.2 113.2 125.1 159.4 164.1 159.5 140.2 128.2 121.6 120.2 131.7 119.5 105.1 106.2 111.4 113.6 114.1 113.6 108.2 94.8 93.2 96.4 107 116.9 98.6 92.6 81.7 66.8 51.4 38.7 29.5 23.4 16.1 9 6.4 7.1 7.6 7.3 7 6.7 6.5 6.6 6.7 6.8 7.2 7.9 7.9 8.1 8.5 8.7 8.2 7.5 6.9 7.9 8.3 10.8 8.5 9.2 10.3 15.4 18.6 20.9 23.5 26.8 30.9 34 34.7 35.7 35.3 34.3 35.8 40.1 42.3 45 37.4 41 43 42.3 40.6 40.1 39.6 38.8 37 37.3 38.3 40 41.2 42.3 42.8 42.2 41.8 41.6 42.9 44.7 43.3 39.2 40.2 39 36.2 35.8 37.5 38.3 39.1 38.2 37.6 40.3 40.3 40.3 39.9 38.8 37.1 34.3 33.8 31.1 31 30.8 29.7 30.8 30.8 30.4 30.1 30.4 30.8 31.5 29.7 28.6 30.6 29.1 28.3 28.5 27.2 25.2 24.1 22.1 21.2 24.6 26.5 28.4 29.5 29.7 29.4 29.7 30.4 31 30 29.4 28.8 28.9 31.1 33.4 33.3 32.9 32.4 31.7 31.7 31 29.4 27.7 25.9 23.9 22 21.1 20 18.9 17.6 15.8 12.3 8.5 4.5 4.1 3.6 3.1 2.7 2.2 1.7 1.3 0.8 0.3 -0.2 -0.7 -1.1 -1.7 -2.1
233.6 212.3 200.8 188.1 171 148.1 122.4 107.3 96.7 88.2 83.4 83 84.5 86 92.8 99.8 104.9 107 108.4 116.4 145.1 162 153 132.2 114 110 112.5 132.1 129.5 110.7 105.5 110.6 113.7 114.8 115.6 116.2 105.5 91.7 89.5 100.2 113.8 94.4 84.1 71.3 55.1 39.5 25.7 11.5 8.9 7.5 6.1 6.4 5.4 6 6.4 6.1 5.8 5.8 5.9 6 6.1 6.1 6 6.2 6.4 7.3 7.8 6.5 6.4 6.7 6.6 7 7.7 7.8 9.2 10.3 12.6 13.8 19.7 21 23.4 26.7 29.9 30.5 31.2 31.6 31.7 32.3 35.6 39.7 43.3 39.1 36.4 39 38.7 36.7 35.9 35.2 34.5 33.3 33.4 34.9 37.2 38.1 40 39.9 39.3 38.6 38.4 40.7 41.4 39.2 36.1 37.2 36 33.7 35.8 36.4 37.4 38.2 38.5 35.9 38.6 39 38.9 38.1 37 34.6 32.3 32.2 30.8 29.9 30.1 29.3 29.5 30.2 30.4 30.3 30.2 30.5 31.2 29.8 26.2 29.5 29.5 28.4 28.5 28.3 27 23 21.1 22.2 24.6 26.7 28.8 29.1 28.3 28.4 28.7 29.2 28.6 27.9 27.2 26.8 28.1 30.1 31.4 31.6 31.1 30.5 30.8 30.8 29.3 27.2 25.4 23.5 21.4 20.3 19.5 18.5 18 17.5 16.8 16.8 10.7 4.4 4 3.5 3 2.5 2 1.5 1 0.6 0.1 -0.3 -0.8 -1.3 -1.8 -2.5
228.9 218.1 204.7 193.3 175.1 156.3 132.6 104 96.3 88.5 83.6 81.5 83 84.4 92.6 99 102.3 105.2 105 109.1 123.3 150.4 145.4 127 107.6 98.5 104.2 118 137.3 112.2 102.7 109.2 112.1 112.4 114.6 116.1 112.6 95.9 83.8 88.6 96.2 88 72.9 59.1 41.8 24.7 9.5 6.6 6.2 6.4 6.2 6.6 5.8 5.2 5.4 5.4 5.3 5.4 5.5 5.7 5.8 5.8 5.8 6 6.2 6.4 6.6 6.3 6.1 6.6 6.6 6.6 6.7 7.1 8.1 9.7 10.6 18.7 19.1 20.1 21.2 23.5 25.8 26.4 27 27.6 28.8 30.3 32.9 36.5 38.1 36.5 33.3 33.8 34.6 33.7 31.5 30.7 30.1 29.6 29.9 31.4 33.7 34.4 36.6 36.9 35.7 35.6 36.7 37.5 38.7 35.9 34.3 34.6 32.7 32.9 35.6 35.9 35.4 36.1 35.7 34.5 36 36.8 37.5 36.4 35.3 33.1 30.8 30.8 30.9 30.4 30 29.1 29 29.3 29.9 30 29.9 29.9 30.7 28.9 25.9 26.4 29 27.3 28.2 27.6 26.6 20.7 20.1 22.8 25.7 27.6 28.7 27.7 27.1 27.3 27.6 27.6 26.4 25.8 25.3 25.7 27.8 29.2 29.4 29.5 29.4 29.3 29.3 28.9 26.5 24.5 22.6 20.8 19.3 18.7 18.2 18 17.7 17.2 16.6 16.2 13.9 4.3 3.8 3.3 2.8 2.3 1.8 1.3 0.9 0.4 -0.1 -0.6 -1 -1.5 -2 -2.5
233.5 222 213.3 193.4 181 163.2 138.7 108.2 93.9 87.9 83.2 81.3 81.5 83 88.3 97.6 99.4 103.8 102.1 102.7 108.2 126.1 135.9 126.2 105.4 95.7 95.8 99.5 125.3 118.3 98.7 105.9 106.2 104.5 107.9 110.3 108.3 96.4 81.3 76.4 79.8 77 55.3 45.9 28.7 8.2 5.7 5.8 6.2 6.5 6.5 5.8 5.7 4.6 4.7 4.6 4.9 5.1 5.2 5.4 5.5 5.5 5.6 5.8 5.9 6.2 6.6 6.5 6 6.6 7.2 8.2 7.7 8.1 8.8 9.5 10.3 11 18.2 19.3 20.3 21.2 23.1 23.8 24.1 24.4 26.1 28.7 31.3 33.4 34.1 33.8 31.8 30.1 31 32.4 30.5 26.9 26.3 26.7 27.1 28.5 30.4 31.5 33.1 33.2 31 32.7 34.2 33.9 34.3 34.8 32.7 33.5 31.2 33.3 35.3 35.4 35.1 36.4 34.5 33.5 35.8 36.1 35.9 34.5 33.9 32.1 30.8 31.1 31 30.3 29.9 29.1 28.7 29.2 30.2 30 29.8 29.5 29.7 29.7 28.3 24.2 25.4 25.8 27.9 27.3 22.1 20.3 20.7 23.5 26.7 27.4 26.2 25.6 25.9 26.1 26.1 25.2 24.5 24.2 24.1 24.8 26.6 27.3 27.5 27.6 27.6 28.1 27.2 25.6 23.9 21.9 20 18.7 18.4 17.8 17.6 17.4 17.3 16.9 17.1 16.8 6.6 4.1 3.6 3.1 2.6 2.2 1.6 1.2 0.7 0.2 -0.3 -0.8 -1.2 -1.7 -2.2 -2.5
232.4 222.5 213.7 196.3 185.1 168.3 143.2 111 94.7 87.9 82.9 79.9 80.2 81.6 84.6 94.4 97.2 101.4 101.1 97.2 97.7 105.6 115.7 110.6 101.3 92 92.7 92.2 102.2 116.9 93.9 101.1 101.2 97.1 95.5 96.6 95 84.5 74.7 67.3 64.1 63.5 38.9 33.9 11.1 5.9 5.8 5.9 6.3 6.5 5.6 5.3 5.3 4.9 4.9 4.9 4.9 4.9 4.9 5.1 5.2 5.2 5.4 5.5 5.7 6 6.4 6.5 6.6 6.6 7.6 8.5 8.4 8.4 8.7 9.5 10.1 10.5 13 18.5 19.3 20.1 20.6 20.9 20.7 21.9 24.2 26.2 28.8 31.2 31.4 30.5 29.7 28.5 27.8 29.4 28.5 23.8 23.1 24.3 24.8 26.1 27.1 28.1 29.3 28.7 28.7 31.3 31.5 30.7 30.7 31 31.8 30.2 29.9 33.2 34.8 33.3 34.1 34.8 34.1 32.8 34.7 35.4 33.8 33.1 32.4 31.7 31.6 31.4 31.3 30.6 29.8 29 28.5 29.5 30.2 29.9 29.6 28.9 28.8 28.9 28.3 25.1 23.3 24 24.9 26.7 20.2 19.5 21.1 24.4 26.5 26.1 24.4 24.8 25.1 25.2 24.3 23.4 23 22.9 23.3 23.9 25.2 25.8 25.7 25.7 26.7 26.3 25.2 22.7 21.1 19.3 18.4 17.9 17.4 17.2 17 16.9 16.7 16.7 17.6 12.6 4.4 3.9 3.5 3 2.5 2 1.5 1 0.5 0 -0.5 -1 -1.4 -1.9 -2.5 -2.5
229.6 225.4 214 201.1 189.4 167 144.4 116 96.2 89.4 84.1 80.1 79.4 80.2 82.5 89.5 93.3 95.2 97.2 91.5 89.6 89.9 96.9 94.9 89.8 85 88 89.1 92.2 102.2 95.7 94.3 95.3 92.1 85.5 84.3 83 75.1 64.1 56.5 52.7 48.4 38.2 16.2 6 6 6 5.9 5.4 5.5 5.7 5.4 -2.5 4.9 4.9 4.8 4.9 4.9 4.9 4.9 4.9 5 5.1 5.3 5.5 5.8 6 6 6.1 6.5 6.8 8.1 8.7 8.5 8.7 9.3 9.8 10.1 10.5 13.6 17.9 18.8 19.5 19.1 18.3 20.6 22.4 24.3 26.1 28.2 27.7 26.9 26.3 25.9 24.2 25.5 22.8 22.2 20.8 22.4 23.1 23.5 24.7 26.4 26 26.1 26.7 28.8 28 28.2 28.5 30.4 30.3 28.7 29.5 31.8 32.2 33.7 33.8 34.2 34.6 34 34 33.7 32.1 31.7 32.1 32.5 31.9 32.4 32.2 31.6 30.9 29.1 28.4 30 30.1 29.4 28.6 28.6 28.4 27.8 26.7 25.7 22.4 22.5 22.6 22.9 19.6 19.4 21.9 24.8 25.4 24.4 23.8 24.2 24.3 23.4 22.7 22 21.9 21.9 22.3 23.2 22.8 23.4 23.5 24.8 25.2 24.4 22.8 19.8 18.6 17.5 17 16.9 16.7 16.7 16.5 16.3 16.2 16.2 16.2 6 4.2 3.8 3.3 2.8 2.3 1.8 1.3 0.9 0.4 -0.1 -0.6 -1.1 -1.6 -2.1 -2.5 -2.5
212.5 215.9 210 207.8 187.8 164.1 143.2 119.3 99.3 91.9 85.2 79.7 78.2 78.3 80.2 85.3 89.1 88.5 88.1 86 80.7 79.1 80.4 80.3 80 79.8 80.9 83.2 87.9 89.9 91.4 81.8 92.7 92.7 77.6 72.6 71.3 65.4 53.7 48.8 42.5 27.7 11.8 8.1 5.3 5.7 6 6.1 5.5 5.3 5.6 5.8 -2.5 5 5.1 4.9 4.9 4.9 4.9 4.9 4.9 4.9 4.9 5 5.3 5.4 5.5 5.5 6 6.2 6.4 6.8 7.9 8.4 8.5 9 9.4 9.8 9.8 10.8 14.1 17.8 18.2 18.2 15.8 19.6 20.7 22.5 24.3 25.2 24.8 24.3 23.6 22.2 20.1 21.3 20.9 20.8 19.6 20.8 21.4 22.3 23.5 23.9 23.7 24.2 25.1 25.5 25.3 26.9 27.9 27.8 27.7 28.4 29.3 30.8 32.4 33.2 33.3 33.2 32.5 31.9 31.7 31.4 30.8 31.7 31.9 32.9 33.2 32.9 33.1 32.5 30.9 29.4 28.8 30 29.1 28.3 27.8 28.2 28 27.6 25.9 25.9 22.8 21.7 21 20.4 19.3 19.5 22.1 23 22.8 22.2 22.8 23.3 22.8 22.5 21.8 21.4 21.3 21.8 22.3 22.2 21.7 21.6 22.2 23.3 23.5 22.7 20.6 17.8 16.9 16.7 16.3 16.1 15.7 15.8 15.8 15.8 15.6 15.6 7.2 4.5 4 3.6 3.1 2.6 2.2 1.7 1.2 0.7 0.2 -0.3 -0.8 -1.3 -1.8 -2.5 -2.5 -2.5
188.7 199.6 205.5 207.9 188.9 165 140.7 122.8 101.7 93.9 87.6 79.8 76.5 76.3 77.8 82 86.1 84.4 82 79.5 76 70.9 71.9 70.8 70.1 74.4 73.4 77.8 83 88.5 83.4 76.2 89.3 92.1 75.1 64 57.9 52.7 45.1 40.3 25.9 9.1 6 5.8 -2.5 5 5.4 5.9 4.9 5.1 5.4 5.9 -2.5 5.3 5.9 5.6 5 4.9 4.9 4.9 4.9 4.9 4.9 4.9 4.3 5 5.3 5.8 5.8 5.7 5.7 5.9 7 7.7 7.4 7.8 8.3 9.5 9.1 9.5 10.5 13.6 16.5 17.5 15.3 18.8 20 20.9 21.6 22.5 22.3 22.4 21.9 20.6 19.5 18.1 19.3 19.1 18.9 20.2 20.2 20.8 21.2 21.1 22 22.8 23.4 23.8 25.6 25.7 25.4 25.5 26.9 29.3 28.9 30 31.1 31.7 31.2 30.8 31.4 30.6 29.6 29.8 30.5 31.5 32.2 33.4 34.3 34 33.8 33.1 30.6 29.7 28.2 28.7 28.3 27.3 27.7 28.6 27.4 26.2 25.1 25.3 22.5 22.1 21.8 20.9 19.6 19.3 21.5 22 21.2 21.3 21.8 21.9 21.7 21.4 21.2 21.1 21.1 21.9 21.6 21 20.3 20.7 21.7 22.2 21.2 19.9 18.5 16.5 16.4 16.2 15.6 15.2 14.6 14.9 15 15 15 13.9 5.6 4.2 3.8 3.4 2.9 2.5 2 1.5 1 0.5 0 -0.5 -1 -1.4 -1.9 -2.5 -2.5 -2.5
176.3 183.7 192.2 207.2 195 167.5 142 121.7 104 97.4 88.4 80.9 75.6 74.7 75.1 78 82.3 80.6 78.3 75.3 72.1 67.4 66.8 64.6 62.3 64.1 67.8 73.6 75.8 83.4 77 69.9 80.4 82.9 72.8 57.9 49.1 43.8 36.9 23.1 6.8 5.8 5.4 -2.5 -2.5 -2.5 5.2 5.7 5.8 4.5 -2.5 5.9 -2.5 4.5 5.6 5.5 5.5 5.6 5.1 4.9 4.9 4.9 4.9 4.9 5 5 5 5.8 5.7 5.7 5.7 5.6 6.3 7.4 8.1 8 8.2 7.8 9 8.9 8.7 9.8 11.1 11.5 15.9 17.9 18.9 19.8 20.2 19.7 20.3 19.8 22.1 20.9 21 17.9 18.2 15.7 20.6 21.8 20.5 20.6 21.3 20.9 20.9 22.2 23.7 24.3 23 23.8 23.7 24.3 26 26.1 27.7 28.8 29.5 29.8 29.4 29.5 30.1 29.6 28.8 30.1 30.7 31.1 32.3 33.8 34 33.8 33.2 32.4 30.1 27.8 27.1 27.4 27.8 26.9 27.3 27.9 26.6 25.2 24.8 24.3 23 22.4 21.7 20.9 19.3 18.9 20.1 20.6 20.5 20.8 21.4 22.2 21.9 21.6 21.3 21.1 21.3 21.3 21.1 20 20.3 20.8 20.7 19.5 18.3 17 16.4 15.5 15.6 15.7 14.9 14.2 13.6 13.9 14.1 14.4 13.2 9.6 4.8 4.1 3.6 3.2 2.7 2.2 1.8 1.3 0.9 0.4 -0.1 -0.6 -1.1 -1.6 -2.1 -2.5 -2.5 -2.5
164.6 170.1 178.6 188.9 191.8 173 147.5 124.3 106.5 100.8 91.1 81.7 75.8 73 72.1 75.2 79.1 78.6 76.2 74 69.3 64.2 62.6 61.1 57.5 58.7 60.6 65.9 69.3 72.1 74.8 63.8 69.3 73 65.2 51.6 44.7 37.2 23.2 6.8 5.4 5.1 -2.5 -2.5 4.8 -2.5 -2.5 5.4 5.4 5.4 -2.5 -2.5 -2.5 5.2 5.5 5.6 5.7 5.8 5.6 5.5 4.3 4.9 4.9 4.9 5.1 5.2 5.5 5.5 5.7 5.7 5.6 5.6 5.7 6.4 7.7 8.5 8.7 7.8 7.6 8.9 8.9 8.8 9.5 10.3 11 13.9 17.7 18.7 19.3 17.9 17.1 19.3 22.2 23.2 23.9 18.3 15.7 17.5 22.7 22.9 20.9 20.7 21.4 21.5 20.8 22.2 22.2 21.3 21 22.3 22.9 23.5 24.7 25.3 26.3 26.8 27.9 27.8 27.5 27.8 28.2 28 28.8 29.3 30 30.8 31.7 32.8 32.4 31.8 30.5 28.6 27.4 27 26.7 26.8 26.9 26.6 26 25.9 25.3 24.7 24.3 23.6 22.3 21.7 20.9 20.1 19.1 18.7 19.3 19.7 20.2 20.4 21.1 22 22.1 21.7 21.4 21.1 21 20 20.7 20 20 20.3 18.8 17.5 16.2 15.4 15 14.8 15 15 14.3 14 13.5 13.2 13.6 13.9 10.2 4.7 4.2 3.9 3.5 3 2.5 2.1 1.6 1.2 0.7 0.2 -0.2 -0.7 -1.2 -1.7 -2.2 -2.5 -2.5 -2.5
149.2 157.2 170.3 179 179.4 172.3 148.8 126.2 107.9 101.6 92.9 83.3 75.7 73 70.2 72 76.9 80 78.4 77.4 70.3 63.5 58.2 55.2 52.8 54.2 54.6 56.7 61.5 65.4 68.8 61.2 61.5 67.6 60.8 46.4 39.1 23 7.8 5.7 5.4 5 -2.5 -2.5 -2.5 -2.5 -2.5 -2.5 -2.5 5.1 -2.5 -2.5 -2.5 5.5 5.5 5.6 5.7 5.7 5.6 5.6 5.9 5.7 4.9 5.1 5.3 5.4 5.5 5.5 5.6 5.6 5.6 5.6 5.7 6 6.3 8.5 8.6 7.9 7.6 7.8 8.1 9.5 8.7 8.9 9.5 11.2 13.5 14.9 17.5 15.8 17.9 20 21.5 21.2 20.3 19.8 19.5 17.7 23.5 23.5 20.9 22.5 23.5 21.6 19.9 19.8 19.6 20 20.5 21.2 21.9 22.9 24.7 24.6 24.5 25.2 26.2 25.9 26.6 26.8 27 27.3 28 28.7 29.5 30.3 30.9 30.9 30.9 29.8 28 26.8 26.9 26.6 26.3 26.3 26 26.1 25.2 25.1 25.2 24.5 23.2 22 20.6 20 19.5 19.8 19.2 17 18.4 19 19.4 20.1 21.2 22.1 22 21.7 21.4 21.1 20.3 19.3 19 20.4 19.4 19 17.3 15.8 15.4 15.2 14.7 14.5 14.5 14.1 13.7 13 11.9 11.7 11.3 10.5 7.3 4.3 3.9 3.5 3.2 2.8 2.4 2 1.5 1 0.6 0.1 -0.4 -0.9 -1.3 -1.8 -2.5 -2.5 -2.5 -2.5
136.7 144.1 156.9 172.7 172.7 165.3 148.4 127.4 109.6 102.1 95.2 83.8 76.7 72.2 69.4 68.5 74.4 82.2 82.8 78.6 72.4 64.6 60.7 50.8 48.3 49 51.3 49.3 54.9 60.4 60 57.5 54.6 58.9 55.5 40.6 26.5 8 -2.5 -2.5 4.6 4.7 4.7 4.5 -2.5 -2.5 4.9 -2.5 -2.5 -2.5 -2.5 -2.5 5.1 5.3 5.5 5.5 5.6 5.6 5.5 5.9 6.3 5.6 6.1 5.6 4.9 5.3 5.5 5.5 5.6 5.6 5.6 5.5 5.8 6 6.1 6.7 8.4 8.1 7.9 7.7 7.7 7.7 10 9.5 8.9 9.3 10.9 11.6 13.3 13.7 14.3 18.7 21.5 21.4 20.5 19.2 17.8 14.4 20.4 20.1 19.9 23.3 22.1 20.5 19.1 18.3 19 20.1 20.5 20.4 20.9 21.5 22 22.4 22.8 23.7 24.5 24.9 25.4 25.8 26 26.2 27.2 27.7 28.4 29 29.3 29.2 29.1 28 26.3 26.8 26.8 26.2 26.1 25.6 24.9 24.1 23.6 25.1 25 23.3 21.7 21 19.7 19.3 20 21.4 19.8 17.7 18 18.4 18.9 20 21.4 22.1 21.9 21.7 21.4 20.2 19.5 18.6 19.9 21 19.6 17.6 15.8 14.7 14.8 14.9 13.3 13.8 11.9 12 11.8 10.7 9.9 9.4 8.5 6.7 4.4 4.1 3.7 3.2 2.9 2.5 2.2 1.8 1.4 1 0.5 0 -0.5 -0.9 -1.4 -1.9 -2.5 -2.5 -2.5 -2.5
130.2 135 143.9 159.1 165 160.6 143.9 125.5 113.1 103.2 94.2 85.3 78.6 72.5 69.6 66.2 70.9 80.6 88.4 83.1 73.5 66.6 61.4 51.2 43.9 43 46.8 42.4 46.3 50.6 57.4 50.7 47.2 46.8 43.2 24.9 9.5 5.2 -2.5 -2.5 4.5 4.6 4.5 -2.5 -2.5 4.6 4.9 -2.5 -2.5 -2.5 5.8 5.9 5.5 5.4 5.6 4.8 5.5 5.5 5.5 6.2 5.6 6.4 5.9 6 5.7 5.3 5.5 5.5 5.5 5.5 5.5 5.6 5.7 5.9 6.1 6.1 7.1 8.7 8.2 8 7.8 7.7 7.8 8.8 8.4 9 9.1 9.2 10.1 12.2 12 11.9 11.5 14.5 18.6 19.8 12.9 19.4 19.7 19.6 19.4 20.3 20.5 20.1 19.5 17.9 19.3 20.4 20.3 20.1 20.4 21 21.4 21.7 22.3 23 23.2 23.6 24 25.3 25.2 25.6 25.9 26.5 27 27.6 27.7 27.5 26.3 25.8 26.2 26.7 26.2 25.8 26 26.1 25.3 24.4 23.7 23.6 24.3 22.1 21 20.5 19.9 20 20.5 21.4 19.8 18.1 17.7 18 18.6 19.6 20.6 21.8 21.8 21.6 20.7 19.3 18.4 19.7 20.9 20.7 18.6 16 14.1 13.5 12.8 11.9 11.3 11.4 11.1 10.7 9.7 9.5 8.5 8 5.5 4.3 4.1 3.8 3.5 3.2 2.8 2.4 1.9 1.5 1.1 0.8 0.4 0 -0.5 -1 -1.5 -2 -2.5 -2.5 -2.5 -2.5
130.1 129.8 136.2 145.9 154.4 155.6 139.9 122.3 111.9 103.6 94.6 88.2 80.9 74.7 69.6 66.2 66.7 78.9 84.4 81.5 74.2 69.3 62.4 50.7 42.1 40.3 40 36.4 40.9 43.3 48.3 44.3 43.4 25.6 9 5.7 5.6 -2.5 4.4 -2.5 -2.5 -2.5 4.4 -2.5 4.6 4.8 4.9 -2.5 -2.5 5.5 6.4 6.2 6.1 5.9 5.7 5.6 5.5 5.5 5.9 6.3 5.6 6.4 5.6 6.2 6 5.8 5.7 4.7 5.5 5.5 5.5 5.6 5.8 5.9 6 5.9 6 7.4 8.5 8.2 8.2 7.9 7.8 7.8 8.5 8.5 8.6 8.8 9 10.5 11.1 12.4 12.1 12.3 12.5 12.1 13.3 16.9 19.5 19.6 19.2 20.1 19.5 19.1 18.8 17.7 19.4 19.7 20 19.8 20 20.7 21 21.2 21.9 22.3 22.4 22.6 23.3 24.3 24.8 25.3 25.2 25.2 25.7 26.2 26 25.5 25.2 25.1 25.2 25.5 25.8 25.4 25.7 25.4 25.4 24.8 24 22.9 22.7 21.4 21.6 21.8 21.1 21.6 21.1 20.9 20.3 19.4 17.5 17.4 17.7 18 19.1 20.9 21.3 21 20 18.4 19 20.5 22 21.1 17 14.3 12.5 11.8 10.7 10.7 11.7 12.5 10.1 8.9 8.5 7.7 5.5 4.5 4.3 4.1 3.8 3.6 3.3 3 2.6 2.2 1.9 1.5 1.1 0.6 0.2 -0.2 -0.6 -1 -1.5 -2 -2.5 -2.5 -2.5 -2.5
115.4 124.2 130.4 136.6 143.4 148.1 138.2 124.9 112.9 103.6 96.6 91.3 83.8 75.2 68.1 64.6 63.4 75.9 82.8 78.7 73.8 67.9 62.9 51.6 41.7 36.9 34.5 29 32.8 35.6 39.1 28.7 15.7 7.1 5.6 4.9 -2.5 -2.5 4.5 4.6 4.4 -2.5 4.9 -2.5 4.7 4.9 5.1 4.8 5.3 6 6.5 6.3 6.1 5.9 5.7 5.6 5.5 5.6 5.9 6.2 6.1 6.3 5.6 5.6 6.2 6.1 5.9 5.8 5.8 5.5 5.5 5.6 5.8 5.9 5.8 5.8 5.9 6 7.4 8.3 8.6 8.2 7.9 7.7 7.8 7.9 8.2 8.5 8.8 8.9 9.6 11.1 11.1 11.7 11.7 11.8 12.5 14.1 18.6 20.3 19.4 19.2 19.8 18.5 17.6 17.8 18.7 18.8 19.6 19.5 20 20.3 20.5 20.7 21.3 21.5 21.7 22.3 22.6 23 23.8 23.8 23.9 24.1 24.3 24.4 24.4 24.6 24.9 24.7 24.4 25 25.2 25.1 24.1 23.5 23.6 23.6 24.1 22.4 21.9 21.1 22.1 22.2 21 21.3 20.7 20.5 20.4 20.7 18.2 16.9 17 17.3 18.4 19.9 20.3 20.5 19.4 16.9 19.9 21.5 22.8 20.3 14.5 12.9 12.6 14 11.4 10.1 10.3 10.2 8.9 8.1 6 4.5 4.3 4.1 4 3.8 3.5 3.3 3 2.8 2.5 2.1 1.7 1.3 1 0.6 0.2 -0.2 -0.7 -1.1 -1.6 -2 -2.5 -2.5 -2.5 -2.5
105.9 111 119.9 134 138.8 144.4 140.2 130.8 118.2 104.9 96.6 92.4 87 77.3 68 62.9 60.8 69.8 80.5 76.9 71.4 66.9 62 52.7 39.9 34.4 32.4 26.9 23.6 22.3 10.5 6.3 5.7 5.2 4.9 -2.5 -2.5 4.5 4.5 4.5 4.3 -2.5 -2.5 -2.5 4.7 5.1 5 4.9 5.1 5.4 6.2 6.2 6 5.8 5.6 5.5 5.7 6.1 5.8 6 6 6.3 5.6 6.4 5.6 6.3 6.2 6.2 6.3 6 5.6 5 5.7 5.7 5.7 5.6 5.8 5.9 6 7.1 9.3 8.9 8.2 7.7 7.6 7.8 8 8.3 8.6 9.2 9.5 9.9 9.9 10.3 11.6 11.4 11.5 12.3 12.4 19.5 20.2 18.6 18.3 18.9 15.8 18 17.9 17.8 19.2 19.4 19.5 19.6 19.8 20.2 20.6 21 21.6 22 22.3 22.7 22.8 22.8 23.1 23.4 23.7 23.8 23.9 24.1 24.4 24.7 24.5 24.9 25.2 23.5 22.7 23 23.3 23.7 22.3 21.9 21.9 21.7 21.4 20.6 19.7 19.1 19.4 20.5 20.5 19.4 17.5 16.9 16.3 16.4 17.8 18.4 19 19.5 18.1 18.5 21.1 23.1 21.8 16.8 12.2 11.3 12.3 11.5 10.4 9.6 8.9 8 6.2 4.7 4.4 4.2 4 3.8 3.6 3.5 3.2 3 2.8 2.5 2.2 2 1.6 1.2 0.8 0.4 0.1 -0.3 -0.7 -1.1 -1.5 -2 -2.5 -2.5 -2.5 -2.5
100.1 108.6 108.7 117.2 128.9 139 137.2 132.9 121.9 108.3 97 91.1 88.7 79.6 68.3 60.8 58.8 63.5 72.2 75.7 69.2 64.9 60.4 52.2 38.3 32.7 30.8 27.5 18.8 5.8 5.4 4.9 4.8 4.5 4.6 -2.5 -2.5 -2.5 -2.5 -2.5 -2.5 -2.5 -2.5 4.6 4.5 4.5 4.9 5 5.1 4.6 6 6.2 5.9 5.7 5.5 5.6 5.8 6.1 5.6 6.2 6.3 6.4 5.6 6.4 6.4 6.4 6.4 6.4 6.4 6.1 5.8 5.7 5.6 5.5 5.5 5.6 5.7 5.8 5.9 6.4 7.4 8.7 9.7 8.5 7.9 8 8.2 8.2 8.6 9.6 8.8 9.7 10.3 10.2 10.7 10.2 10.4 12.2 11.7 12.9 19 19 17.5 18.1 15.4 15.1 16.6 18.7 19.1 19.2 19.2 18.8 18.7 19.8 20.4 21 21.6 21.8 22 22.1 22.7 22.9 23 23.2 23.4 23.5 23.4 23.5 23.9 24.2 24.5 24.7 24.1 22.7 22.7 23.1 22.9 22.4 21.7 21.5 21.4 20.1 19.8 19 18.7 18.3 19.1 19.9 19.7 17.6 16.5 17.3 16.5 16.1 16.1 16.3 16.6 16.5 17.7 20.5 22.8 23.3 19.7 12.7 11.2 11.4 11.4 9.8 9.2 8.3 6.8 5 4.4 4.2 4 3.9 3.7 3.5 3.3 3.1 2.9 2.7 2.5 2.2 2 1.7 1.4 1.1 0.7 0.3 -0.1 -0.5 -0.9 -1.2 -1.6 -2 -2.5 -2.5 -2.5 -2.5
90.7 95 102.1 109.6 117.9 124.8 128.8 129.1 120.4 106.8 98.1 90.9 87.3 80 69.3 58.6 56 58.3 65.7 70 68.6 61.9 58.5 48.9 34.9 32.6 28.4 15 5 -2.5 -2.5 -2.5 4.5 4.5 4.6 4.6 4.4 -2.5 4.3 4.4 -2.5 -2.5 -2.5 5.1 5.1 5.1 5.1 5.1 5.1 5.1 5.7 6.4 6 5.6 5.6 5.8 5.7 5.8 6 6.2 5.1 6.4 6.4 6.4 6.4 5.6 6.4 6.3 6.4 6.3 6 5.9 5.8 5.8 5.6 5.5 5.5 5.6 6 6.1 6.5 6.9 8.3 8.8 8.6 8.5 8.1 8.1 8.7 8.5 9.2 10.8 10.3 10.2 10.2 9.8 9.7 11.2 11.2 11.8 12.1 14.2 14.8 16.2 18.6 15.7 16 19.3 19.4 19.5 18.7 17.4 19.3 19.8 20.4 20.9 21.3 21.5 21.7 22.5 22.5 22.6 22.6 22.4 22.7 23.3 23 23 23.4 23.7 24.2 23.7 22.6 21 22.1 21.9 21.1 20.5 19.7 19.7 19.4 19 18.7 18.8 18.4 18.3 18.2 18.2 18 16.7 16.5 17.4 17.7 17.6 17.3 16.1 14.4 14.8 18.3 20.9 22.7 22.7 14.9 11.1 11.7 11 8.4 8.5 7.2 5.3 4.5 4.3 4.1 3.9 3.7 3.6 3.4 3.2 3 2.8 2.6 2.4 2.2 2 1.7 1.5 1.2 0.9 0.5 0.2 -0.2 -0.6 -1 -1.4 -1.8 -2.1 -2.5 -2.5 -2.5 -2.5
82.1 86.3 95.7 104.4 111.8 113.7 114 115.2 115.2 106.8 98 90.8 85.2 78.3 69.4 58.7 51 52.7 58 64.6 64.6 58.5 54.3 47 34.3 29.8 19.5 5.2 -2.5 -2.5 4.2 -2.5 -2.5 4.4 -2.5 -2.5 4.7 4.4 -2.5 -2.5 -2.5 4.7 5 5.2 5.4 5.3 5.2 5.1 5.1 5.1 5.5 6.5 6.5 6.2 5.8 5.8 5.8 5.7 5.7 5.9 5.9 5.2 6.4 6.4 6.4 6.4 5.6 6.4 6.4 6.4 6.2 6.1 6.2 6.3 5.8 5.7 5 5.5 5.6 5.7 5.8 6.4 7.6 9.1 9.5 8.7 7.6 8 8.2 8.3 8.6 8.8 11.3 10.3 9.7 9.5 9.9 10.2 10.2 10.3 11.4 12.4 12.3 13.4 14.1 14.3 13.8 18.3 19.3 18.8 16.4 18.8 19.3 19.8 20.4 20.8 21 21.2 21.7 22.1 22.2 22.3 22.3 22.1 21.9 21.8 22.4 22.9 23.3 23.8 23.6 22.9 22.3 21.3 22.4 22.1 20.2 18.5 18.4 17.7 17.7 18.4 18.3 18.4 18.2 17.7 17.1 16.9 16.8 16.7 16.6 16.8 17.4 17.5 17.3 16.1 15.1 13.2 15.8 20.5 21.2 17.3 11.8 11.4 9.7 8.8 8.5 6.4 4.7 4.4 4.2 4 3.8 3.6 3.4 3.3 3.1 2.9 2.7 2.5 2.3 2.1 1.9 1.7 1.5 1.2 0.9 0.7 0.4 0 -0.4 -0.7 -1.1 -1.5 -1.9 -2.3 -2.5 -2.5 -2.5 -2.5
76.1 78.8 86.2 98.3 106.7 110 106.1 101 103 102.8 98 89.5 82.5 76.4 69.1 59.8 49 47.4 50.9 57.3 60.2 55.2 49.8 40.6 29.2 14 4.8 -2.5 -2.5 4.6 4.5 -2.5 -2.5 4.6 -2.5 -2.5 -2.5 -2.5 -2.5 4.4 4.6 4.8 5 5.1 5.2 5.2 5.1 5.1 5.1 5.1 5.2 5.7 6.2 6.5 5.8 5.8 5.7 5.7 5.7 5.6 5.6 5.8 6.1 6.3 6.4 5.6 6.3 5.6 6.4 6.4 6.4 6.5 6.6 6.7 5.8 5.7 5.7 5.7 6.4 6.5 6.5 7.1 7.3 7.4 7.6 7.6 8.6 8.7 8.5 8.4 8.8 8.6 8.5 8.5 10.1 9.7 10.3 10.3 10.2 10.3 10.3 12.9 12.2 11.5 11.3 11.8 11.9 15.7 18.5 16.4 15.3 18 19.3 19.8 20.3 20.5 20.7 20.9 21.4 21.7 21.8 21.9 21.9 21.7 21.7 21.9 22.7 23 23.1 22.9 22.7 23.2 23.7 21 20.1 20.1 18.8 18.3 18.1 17.3 17 18.3 18.8 18 17.5 17 16.4 15.9 16.2 16.1 16.1 16.4 17 17 16.9 16.3 16.6 16.7 12.6 16.3 16.5 12.1 10.7 9.7 8.9 7.4 5.7 3.6 3.9 4.1 3.9 3.7 3.5 3.4 3.1 3 2.8 2.6 2.4 2.2 2 1.8 1.6 1.4 1.2 0.9 0.7 0.4 0.1 -0.1 -0.5 -0.9 -1.3 -1.7 -2 -2.4 -2.5 -2.5 -2.5 -2.5
75.7 73.8 82.4 88.8 99.2 99.4 99.8 92.6 89.7 93 92.3 87.6 80.4 74.1 67.4 60.1 50 39.6 40.5 50.9 53.1 50.8 45.2 33.1 12.8 5.4 2 -2.5 3.6 4.7 4.3 4.4 -2.5 4.5 -2.5 4.2 3.9 4.3 4.5 4.5 4.7 4.9 5.1 5.1 5.1 5.1 5.1 5.1 4.3 5.1 5.2 5.6 6.1 6.5 5.7 5.7 5.7 5.6 5.6 5.6 5.6 5.7 5.8 6.1 6.2 6.3 5.6 5.6 5.7 6.4 6.3 6.2 6.4 6.7 5.8 5.7 5.7 5.7 6.1 6.8 6.9 6.7 6.6 6.8 7.3 7.7 8.1 8.8 8.8 8.6 8.7 8.8 8.7 8.4 8.7 9.6 10.5 10.7 10.3 10.4 10.5 11.7 11.8 11.5 10.8 10.6 11.4 12.1 12.8 12 15.9 18.9 18.8 19.7 20 20.2 20.4 20.6 20.8 21.2 21.4 21.6 21.6 21.8 21.7 22.1 21.8 22.1 22.1 21.8 22 22 20 20.9 19.8 18.1 16.9 17 17.1 16.3 17.4 17.9 17.6 17 16.6 16.3 15.7 15 15.7 15.8 15.8 16.2 16.4 16.3 16.2 16.3 17.2 17.3 16.9 11.3 10.7 9.4 8.2 7.9 6.1 4 2.4 2.4 3 3.6 3.6 3.5 3.3 3.1 2.9 2.7 2.5 2.3 2.1 2 1.7 1.5 1.3 1.1 0.9 0.6 0.4 0.1 -0.1 -0.4 -0.7 -1 -1.4 -1.8 -2.2 -2.5 -2.5 -2.5 -2.5 -2.5
76.5 73.8 73.8 76.1 80.8 84.2 84.8 84.4 80 81.5 81.7 79.3 74.9 71.1 65 57.7 49.1 38.6 32.6 43 46.3 41.5 25.9 5.4 5.1 2.3 -2.5 -2.5 4.5 4.2 4.4 4.5 -2.5 -2.5 -2.5 4.3 4.3 4.1 4.4 4.6 4.9 5.1 5.2 5.1 5.1 5.1 5.1 5.1 5.2 5.1 5.2 5.6 6 6.4 6.4 5.6 5.6 5.6 5.6 5.6 5.6 5.6 5.8 5.9 6 6.2 6.2 6.3 5.6 6.4 6.7 6.7 6.5 6.5 6.1 5.9 5.8 5.8 6.1 6.1 6.3 6.5 6.6 6.7 6.8 7.1 7.5 8 8 8.6 9 8.9 8.6 8.4 8.8 9.9 9.4 11.7 10.9 10.8 10.8 10.5 10.8 11.1 11.1 10.7 11.1 11.9 11.9 11.8 11 11.9 15 18.8 19.7 19.9 20.1 20.4 20 20.8 21 21.2 21.7 21.6 21.5 21.2 20.8 19.7 18.7 19.1 19.1 18.3 18.7 20.7 19.6 17.6 15.6 15.6 15.7 15.8 17 17.4 16.1 16 15.7 15.6 14.5 15.2 15.4 15.5 15.5 16 15.7 15.6 16 17.2 18.1 17.5 14.5 11.2 9.1 7.8 6.9 5 3 1.2 1 1.6 2.2 2.8 3.4 3.2 3 2.8 2.6 2.4 2.2 2 1.8 1.6 1.5 1.2 1 0.8 0.6 0.4 0.1 -0.1 -0.4 -0.7 -0.9 -1.2 -1.5 -1.9 -2.3 -2.5 -2.5 -2.5 -2.5 -2.5
66.7 73.6 74.4 75 70.3 70.7 70.7 71.2 69.2 70.2 70.8 68.9 66.8 63.7 60.4 54.8 46.2 35.7 28.4 36.2 32.6 7.6 4.7 3.9 2.1 -2.5 -2.5 3.3 4.5 4.3 4.5 4.5 4.7 -2.5 4.7 4.7 4.7 4.6 4.8 4.8 5 5.2 5.3 5.2 5.3 5.1 5.1 5.2 5.2 5.1 5.2 5.5 5.8 6.1 6.3 5.6 5.6 5.6 5.6 5.6 5.6 5.4 5.6 5.8 5.9 6 6 6.1 6 6.4 6.4 6.4 6.5 6.3 6.2 6 6 6 6.1 6.2 6.3 6.4 6.6 6.7 6.7 6.8 6.9 7.5 8 8.5 8.6 8.9 8.6 8.4 8.4 8.9 9.7 9.9 10.4 10.8 10.8 10.6 11.2 11.3 10.8 10.3 10.9 11.2 11.2 11.1 11.2 11.4 11.6 14 16.6 18.1 19.8 19.3 19.2 20 20.4 20.3 20 19.4 19.2 18.8 19.5 18.7 17.2 16.9 17.1 16.8 16.9 18.3 17.4 16.1 15.1 14.3 14.3 15.6 16.4 16.5 15 14.9 14.9 14.7 15.1 15.4 15.7 15.2 15.3 15.3 15 15.7 17 18.2 17.7 14.2 11.7 8.9 7.9 5.3 -2.5 1.5 0.1 -0.4 0.2 0.8 1.4 2 2.6 2.9 2.7 2.5 2.3 2.1 1.9 1.7 1.5 1.4 1.2 1 0.8 0.5 0.3 0.1 -0.2 -0.4 -0.6 -0.9 -1.2 -1.5 -1.7 -2.1 -2.5 -2.5 -2.5 -2.5 -2.5 -2.5
59.9 63.5 66.6 73.8 69.5 63.2 60.6 60 59.4 60.1 61.4 59.4 57.7 57.3 56 49.3 40.9 31.6 -2.5 10.7 5.9 4 2.7 1.2 -0.2 -2.5 -2.5 2.6 4.5 4.5 4.5 4.6 4.7 4.5 4.8 5 5.2 5.1 5.4 5.2 5.2 5.4 5.4 5.5 5.7 5.4 5.1 5.1 5.1 5.1 5.1 5.1 5.4 5.9 5.6 5.6 5.6 5.6 5.6 5.6 5.6 5.6 5.6 5.7 5.8 5.9 5.9 5.9 6 6.2 6.3 6.5 6.6 6.5 6.3 6.2 6.2 6.1 6.1 6.2 6.3 6.4 6.5 6.6 6.7 6.8 6.9 7.2 8 8.5 8.6 8.7 8.8 8.6 8.8 9.3 9.8 9.9 10.6 10.6 10.6 10.7 11.8 11.3 10.7 10.1 10.4 10.7 10.7 10.9 10.8 11.3 11.8 12.5 13 13.8 15.2 15.4 18.6 19.3 18.4 17.4 17.3 17.6 17.5 17.2 17.4 18.4 15.8 15.4 15.4 15.2 15.4 15.9 15.7 17.6 16 13.8 14.5 14.3 14.2 14.9 14.5 13.8 14.7 15.2 15.6 15.9 15.7 15.1 14.9 15 15 16.1 17.4 17.3 13.9 11.4 8.8 7.8 6 -2.5 -2.5 -1.9 -1.9 -1.3 -0.7 -0.1 0.5 1.1 1.7 2.3 2.5 2.3 2.1 1.9 1.7 1.4 1.3 1.1 0.9 0.7 0.5 0.2 0 -0.2 -0.4 -0.7 -0.9 -1.2 -1.4 -1.7 -2 -2.3 -2.5 -2.5 -2.5 -2.5 -2.5 -2.5
49.1 52.9 55.9 61.9 60.6 58.5 54.3 54.4 52.4 51.7 52.4 51.5 50.5 49.4 45.9 41.1 35.2 30 -2.5 3.3 3.4 1.9 0.5 -2.5 -2.5 -2.5 -2.5 0.3 3.4 4.5 4.5 4.5 4.7 4.6 4.8 4.9 5.2 4.7 4.7 4.7 5.4 5.4 5.5 5.5 5.5 5.3 5.1 5.1 5.1 5.1 5.1 5.1 5.2 5.6 5.6 5.6 5.6 5.7 5.6 5.6 5.6 5.6 5.6 5.7 5.7 5.8 5.9 5.9 6.1 6.3 6.5 6.6 6.7 6.7 6.5 6.4 6.3 6.3 6.3 6.3 6.3 6.4 6.5 6.6 6.7 6.8 6.9 7 7.5 8.1 8.4 8.9 9 8.8 9.1 9.6 9.7 9.8 9.9 10.4 10.5 11 11.5 11.2 10.6 10.1 10.2 10.3 10.3 10.1 10.9 11.4 12 12 12.1 12.4 12.9 13.5 13.8 15.3 15.9 15.6 16 16.2 16.4 15.9 16.1 16.6 14.8 14.1 14.1 14 13.9 13.9 13.7 14.8 13.7 15.2 16.5 15.8 15.1 14.7 14.7 15.2 15.6 15.8 15.9 15.8 14.9 14.2 13.8 14.3 15.3 17 17.3 14.4 10.8 8.6 6.4 6 2.8 0.8 -1.1 -2.5 -2.5 -2.1 -1.5 -0.9 -0.3 0.3 0.9 1.5 2.1 2 1.8 1.6 1.4 1.2 1 0.8 0.6 0.4 0.2 0 -0.3 -0.5 -0.7 -1 -1.2 -1.4 -1.7 -2 -2.5 -2.5 -2.5 -2.5 -2.5 -2.5 -2.5 -2.5
47.8 43.1 44.6 49.6 51.4 48.6 47.8 46.3 45.9 45.9 45.7 44 43.7 42 41.6 24.3 -2.5 -2.5 -2.5 -2.5 -0.4 0.3 -2.5 -2.5 -2.5 -2.5 -2.5 -2.5 -2.5 -2.5 4.5 4.8 4.8 4.7 4.5 4.5 4.7 5.1 5.3 5.1 5.6 5.4 5.4 5.4 5.4 5.2 5.6 5.3 5.1 5.1 5.1 5.1 4.6 4.8 5.5 5.5 5.5 5.5 5.5 5.7 4.8 5.6 5.7 5.7 5.8 5.8 5.9 6 6.2 6.5 6.6 6.7 6.8 6.8 6.8 6.5 6.4 6.5 6.6 6.5 6.4 6.4 6.5 6.6 6.7 6.8 6.9 7 7.1 7.2 7.6 8.5 9.1 8.8 9 9.6 9.7 9.7 9.9 10.4 10.9 11.2 10.8 10.8 9.7 10.2 10.4 10.5 10.7 10.5 11.1 11.6 11.9 11.9 11.8 11.9 12.2 12.4 12.6 12.9 13.6 14.2 14.7 14.9 15.5 15.9 16.1 15.6 13.9 13.2 13.7 14.2 14.1 13.9 13.8 14.3 14.8 16.2 16.4 15.7 15.2 15.1 14.9 15.2 15.6 15.8 15.7 15.5 14.1 13.7 14 14.4 15.7 16.9 15 10.4 8.1 6.3 5.9 3.6 1.2 -2.1 -2.5 -2.5 -2.5 -2.5 -2.4 -1.8 -1.2 -0.6 0 0.6 1.2 1.7 1.6 1.4 1.1 0.9 0.7 0.5 0.3 0.1 -0.1 -0.3 -0.5 -0.8 -1 -1.2 -1.5 -1.7 -2 -2.2 -2.5 -2.5 -2.5 -2.5 -2.5 -2.5 -2.5 -2.5
45 39.8 38.1 40.5 41.4 39.2 37.8 38.2 38.5 38.8 38.9 37.8 28.1 14.7 -2.5 -2.5 -2.5 -2.5 -2.5 -2.5 -2.5 -2.5 -2.5 -2.5 -2.5 -2.5 -2.2 -1.5 -0.8 -0.1 -0.3 4.5 4.5 4.5 4.6 4.7 4.5 4.8 5 5.3 5.8 5.7 5.6 5.4 5.4 5.4 5.6 5.2 5.1 5.2 5.2 5.2 5.1 5.1 5.3 5.3 5.4 5.4 5.5 5.9 5.8 5.7 5.7 5.8 5.8 5.9 5.9 6.1 6.4 6.6 6.8 6.8 6.8 6.7 6 6.5 6.4 6.6 6.7 6.7 6.7 6.6 6.5 6.6 6.7 6.8 6.9 7 7.2 7.3 7.3 7.3 8.5 8.4 9 9.2 9.1 9.1 9.2 9.3 9.4 9.5 9.1 9.4 10.2 10.5 10.6 10.6 10.7 10.7 11.2 11.7 11.8 11.7 11.6 11.5 11.8 12 12.2 12.4 12.6 13 13.5 13.8 15.2 15.6 15.1 14.6 13 14.2 14.7 14.7 14.8 14.4 14.3 15.2 16.1 16.1 16 15.8 15.6 15.4 15.3 15.2 15.5 15.5 15.3 15.1 13 13.5 14.3 15.2 16.1 15.4 12.9 9.5 6.3 5.5 3.4 0.2 -2.5 -2.5 -2.5 -2.5 -2.5 -2.5 -2.5 -2.5 -2 -1.4 -0.8 -0.2 0.4 1 1.3 1.1 0.9 0.7 0.5 0.3 0 -0.2 -0.4 -0.6 -0.8 -1 -1.3 -1.5 -1.8 -2 -2.2 -2.5 -2.5 -2.5 -2.5 -2.5 -2.5 -2.5 -2.5 -2.5
42.1 37.3 34.3 33 32.4 30.6 29.1 30.1 31.6 31.5 30.5 26.7 4.5 -2.5 -2.5 -2.5 -2.5 -2.5 -2.5 -2.5 -2.5 -2.5 -2.5 -2.5 -2.2 -1.5 -0.8 -0.1 0.7 1.4 2.1 2.9 4.5 4.5 4.7 5.4 5 4.6 4.8 5.3 5.7 5.9 5.7 4.7 4.7 5.4 5.3 5.3 5.2 5.3 5.3 5.3 5.2 5.1 5.1 5.2 5.3 5.4 5.8 6.1 6 6 6 6.1 5.9 5.9 6.1 6.3 6.5 6.7 6.8 6.7 6.6 6.5 6.5 6.5 6.5 6.7 6.6 6.6 6.6 6.6 6.7 6.7 6.7 6.8 7 7.2 7.3 7.4 7.4 7.5 7.9 8.4 9 9.3 9.4 9.4 9.4 9.4 9.6 9.7 9.8 9.8 9.7 10.3 10.3 10.4 10.5 10.6 11.2 11.8 11.6 11.4 11.3 11.2 11.4 11.6 11.8 12 12.2 12.2 12.5 12.4 12.8 14.2 14 13.4 13.3 14.7 14.7 14.7 15.1 14.8 14.9 15.9 16.1 16.2 16.1 16.1 15.9 15.8 15.6 15.5 15.3 15.1 14.9 13.9 12.9 14.1 14.9 15.8 14.8 13.2 10 6.5 5.6 2.7 -0.8 -2.5 -2.5 -2.5 -2.5 -2.5 -2.5 -2.5 -2.5 -2.5 -2.5 -2.3 -1.7 -1.1 -0.5 0.1 0.7 0.8 0.7 0.4 0.2 0 -0.2 -0.5 -0.6 -0.9 -1.1 -1.3 -1.6 -1.8 -2 -2.3 -2.5 -2.5 -2.5 -2.5 -2.5 -2.5 -2.5 -2.5 -2.5 -2.5
38.7 34 30.1 27.4 26.3 23.6 20.3 21.9 23.8 15.8 5.1 1.8 -2.5 -2.5 -2.5 -2.5 -2.5 -2.5 -2.5 -2.5 -2.5 -2.5 -2.5 -1.6 -1 -0.3 0.4 1.1 1.7 2.4 3.1 3.7 4.4 4.5 4.5 4.5 5.7 4.7 4.8 5.2 5.6 5.8 5.8 5.7 4.7 4.7 5.5 4.8 5.3 5.3 5.3 5.3 5.2 5.1 5.1 5.1 5.2 5.6 6 6.4 6.3 6.2 6.1 6.2 6.4 6.3 6.2 6.5 6.6 6.7 6.7 6.7 6.6 6.5 6.6 6.6 6.8 7 7.1 7.1 7.1 7 7 6.9 6.8 6.9 7.1 7.4 7.5 7.5 7.6 7.7 7.9 8.5 9.7 9.6 9.6 9.6 9.7 9.7 9.7 9.9 9.8 9.7 9.9 10.1 10.2 10.4 10.6 10.6 11 11.6 11.5 11.4 11.3 11.1 11.1 11.3 11.5 11.7 11.8 11.9 11.5 11.2 11.1 11.9 12.5 12.9 13.2 14.1 14.5 14.7 15.1 15.3 15.7 15.9 16.1 16.3 16 16.3 16.2 16.1 15.9 15.5 15.1 14.7 13.6 12.7 12.9 14.3 15.5 14.7 13.7 10.2 9.1 6.3 2.8 -1.7 -2.5 -2.5 -2.5 -2.5 -2.5 -2.5 -2.5 -2.5 -2.5 -2.5 -2.5 -2.5 -2.5 -1.9 -1.3 -0.7 -0.1 0.5 0.4 0.2 0 -0.3 -0.5 -0.7 -0.9 -1.1 -1.4 -1.6 -1.8 -2.1 -2.5 -2.5 -2.5 -2.5 -2.5 -2.5 -2.5 -2.5 -2.5 -2.5 -2.5 -2.5
34.7 30.7 26.9 23.4 21 15.9 9 -2.5 -2.5 1.7 -2.5 -2.5 -2.5 -2.5 -2.5 -2.5 -2.5 -2.5 -2.4 -2.3 -2.5 -2.5 -2 -1.6 -1.1 -0.4 0.2 0.9 1.6 2.2 2.9 3.6 4.2 4.5 4.5 4.5 4.7 4.6 4.5 5.1 5.5 5.7 5.9 5.8 5.7 5.7 5.9 5.5 5.5 4.9 5.3 5.3 5.2 5.2 5.1 4.9 5.5 5.9 6.2 6.6 6.5 6.4 6.3 6.3 6.5 6.5 6.5 6.6 6.6 6.6 6.6 6.6 6.5 6.6 6.7 6.9 7.1 7.2 7.4 7.4 7.3 7.3 7.2 7.1 6.9 7.1 7.3 7.5 7.6 7.6 7.8 7.8 8 8.4 9 9.5 9.6 9.7 9.8 9.9 9.9 9.9 9.7 9.6 9.9 10 10.1 10.3 10.5 10.6 10.8 11.5 11.5 11.3 11.2 11 10.9 11.1 11.3 11.4 11.4 11.4 11.1 10.4 12 12.1 12.7 13 13.4 13.9 14.4 14.7 15 15.3 15.6 15.7 15.9 16.4 16.3 16.3 16.5 16.2 15.8 15.4 15.3 13.9 12.9 12.3 12.7 15 14.5 13.7 11.5 9.1 6.6 -2.5 -2.5 -2.5 -2.5 -2.5 -2.5 -2.5 -2.5 -2.5 -2.5 -2.5 -2.5 -2.5 -2.5 -2.5 -2.5 -2.5 -2.2 -1.6 -1 -0.4 0.1 -0.1 -0.3 -0.5 -0.7 -0.9 -1.2 -1.4 -1.6 -1.8 -2.1 -2.5 -2.5 -2.5 -2.5 -2.5 -2.5 -2.5 -2.5 -2.5 -2.5 -2.5 -2.5 -2.5
31.6 29 26.9 22 15.5 7.1 -2.5 -2.5 -2.5 -2.5 -2.5 -2.4 -2.3 -2.2 -2.1 -2 -1.9 -1.8 -1.6 -1.5 -1.4 -1.3 -1.2 -1.1 -0.9 -0.5 0.1 0.7 1.4 2.1 2.7 3.4 4.1 4.5 4.5 4.5 4.6 4.9 4.7 4.9 5.4 5.6 5.8 5.7 5.5 5.3 5.6 6 5.4 5.5 6 5.3 5.3 5.2 5.2 5.1 5.1 5.5 5.9 6.7 6.7 6.6 6.5 6.4 6.4 6.4 6.5 6.6 6.5 6.5 6.5 6.5 6.6 6.7 6.8 7 7.1 7.3 7.5 7.6 7.5 7.4 7.3 7.2 7.1 7.2 7.5 7.7 7.7 7.8 7.8 7.9 8.2 8.5 8.8 9.2 9.3 9.4 9.5 9.6 9.7 9.7 9.6 9.5 9.7 9.9 10.1 10.2 10.4 10.6 10.7 11.3 11.7 11.3 11.1 11 10.9 10.9 11 10.9 11.1 11.3 10.5 11 11.4 12.1 12.7 13.1 13.3 13.8 14.1 14.2 14.5 14.8 15.1 15.3 16.5 16.4 16.3 16.3 16.4 16 15.6 15.4 14.9 13.2 12.4 12.7 14.3 14.6 13.2 11.2 9.2 7 6.3 -2.5 -0.8 -2.5 -2.5 -2.5 -2.5 -2.5 -2.5 -2.5 -2.5 -2.5 -2.5 -2.5 -2.5 -2.5 -2.5 -2.5 -2.5 -2.4 -1.8 -1.2 -0.6 -0.3 -0.5 -0.7 -1 -1.2 -1.4 -1.7 -1.9 -2.1 -2.5 -2.5 -2.5 -2.5 -2.5 -2.5 -2.5 -2.5 -2.5 -2.5 -2.5 -2.5 -2.5 -2.5
32.1 28.3 26.2 -2.5 -2.5 -2.5 -2.5 -2.5 -2.5 -2.3 -2.1 -1.9 -1.7 -1.5 -1.3 -1.2 -1.1 -1 -0.9 -0.8 -0.7 -0.6 -0.5 -0.3 -0.2 0 0.2 0.7 1.2 1.9 2.6 3.2 3.9 4.5 4.5 4.6 5.4 5.3 4.9 4.9 5.1 5.4 5.6 5.6 5.4 5.3 5.8 6 6.1 6.2 5.3 4.9 5.1 5.3 5.3 5.2 5.1 5.2 5.8 6.4 6.5 6.6 6.5 5.7 6.4 6.4 6.5 6 6.5 6.5 6.5 6.5 6.6 6.7 6.8 7 7.2 7.4 7.6 7.7 7.6 7.5 7.4 7.3 7.2 7.3 7.6 7.8 7.9 7.9 7.9 8.1 8.4 8.4 8.5 9 9.1 9.2 9.3 9.4 9.4 9.4 9.4 9.5 9.7 9.8 10 10.2 10.3 10.5 10.7 11.2 12 11.2 11.1 10.9 10.8 10.9 10.6 10.5 10.8 10.8 10.6 11.2 11.6 12.2 12.7 13.1 13.4 13.7 13.9 14 14.1 14.3 14.6 15.7 16.1 16.1 16 16 16.2 15.7 15.3 14.9 14 12.6 12.2 13.8 15.7 14.3 11.9 9.7 7.8 6.3 3.9 3.4 1.6 -0.1 -1.9 -2.5 -2.5 -2.5 -2.5 -2.5 -2.5 -2.5 -2.5 -2.5 -2.5 -2.5 -2.5 -2.5 -2.5 -2.5 -2.5 -2.1 -1.5 -0.9 -0.8 -1 -1.2 -1.4 -1.7 -1.9 -2.2 -2.5 -2.5 -2.5 -2.5 -2.5 -2.5 -2.5 -2.5 -2.5 -2.5 -2.5 -2.5 -2.5 -2.5 -2.5
29.9 27.7 -2.5 -2.5 -2.5 -2.5 -2.5 -2.3 -2.1 -1.9 -1.7 -1.5 -1.3 -1.1 -0.9 -0.7 -0.5 -0.3 -0.1 0 0.1 0.2 0.3 0.4 0.5 0.6 0.7 1 1.3 1.8 2.4 3.1 3.7 4.4 4.5 4.6 5.5 5.6 4.9 5 5 5 5 5.3 4.8 5.5 5.8 5.9 6.1 6.3 6.2 6.4 5.4 5.5 5.2 5.3 5.2 5.2 5.9 6.2 6.3 6.4 6.5 6.5 6.5 6.5 6.5 6.6 6.6 6.6 6.6 6.6 6.6 6.7 6.8 7 7.2 7.4 7.6 7.7 7.6 7.5 7.5 7.4 7.3 7.4 7.8 7.9 7.9 7.9 7.9 8.2 8.3 8.4 8.4 8.8 8.9 9 9.1 9.1 9.1 9.1 9.3 9.3 9.3 9.5 9.7 9.8 10 10.2 10.3 10.3 10.9 10.9 12.8 10.7 12.2 11 11.4 11.4 10.8 10.4 11 12.2 12.2 12.1 12.6 13 13.3 13.6 13.7 13.8 13.9 13.9 14.7 15.8 15.9 15.9 15.9 15.8 15.9 15.5 14.9 14.2 13 12 12.4 14.5 15.4 12.7 10.4 8.3 6.8 5.2 4 4.4 4 2.2 0.5 -1.2 -2.5 -2.5 -2.5 -2.5 -2.5 -2.5 -2.5 -2.5 -2.5 -2.5 -2.5 -2.5 -2.5 -2.5 -2.5 -2.5 -2.3 -1.7 -1.1 -1.2 -1.4 -1.7 -1.9 -2.1 -2.5 -2.5 -2.5 -2.5 -2.5 -2.5 -2.5 -2.5 -2.5 -2.5 -2.5 -2.5 -2.5 -2.5 -2.5 -2.5
24.7 -2.5 -2.5 -2.5 -2.5 -2.5 -2.1 -1.9 -1.7 -1.5 -1.3 -1.1 -0.9 -0.8 -0.6 -0.4 -0.2 0 0.2 0.4 0.6 0.8 1 1.2 1.3 1.4 1.5 1.6 1.7 2 2.4 3 3.6 4.2 4.5 4.7 7.1 6.3 5.2 4.9 6.2 5.6 5.1 4.9 5.4 5.9 5.8 5.9 6.2 6.7 6.2 6.2 6.3 6.7 5.6 5.3 4.7 5.7 6.4 6.3 6.2 6.4 6.5 6.5 6.5 6.5 6.6 6.6 6.7 6.7 6.7 6.7 6.7 6.8 6.9 7 7.2 7.3 7.8 7.6 7.6 7.5 7.4 7.5 7.4 7.5 7.9 7.9 7.9 7.9 8.1 8.2 8.2 8.3 8.4 8.6 8.7 8.8 8.8 8.8 9 9.2 9.3 9.2 9.1 9.1 9.3 9.5 9.6 9.7 9.8 9.9 10.1 10 10.2 11.4 10.5 10.9 10.6 9.8 10.2 10.3 10.4 11.4 12 12 12.5 12.8 13.1 13.4 13.6 13.8 13.9 13.9 13.8 15 16 16 15.8 15.6 15.4 15 14.4 13.6 12.6 11.6 12.9 14.4 13.3 9.9 8.7 7.4 6.4 4.4 4.4 4.3 3.9 3.6 2.9 1.1 -0.6 -2.4 -2.5 -2.5 -2.5 -2.5 -2.5 -2.5 -2.5 -2.5 -2.5 -2.5 -2.5 -2.5 -2.5 -2.5 -2.5 -2.5 -1.9 -1.5 -1.7 -1.9 -2.1 -2.5 -2.5 -2.5 -2.5 -2.5 -2.5 -2.5 -2.5 -2.5 -2.5 -2.5 -2.5 -2.5 -2.5 -2.5 -2.5 -2.5
-2.5 -2.5 -2.5 -2.5 -2.5 -2.5 -2.2 -2 -1.8 -1.5 -1.3 -1 -0.8 -0.5 -0.3 0 0.2 0.4 0.6 0.8 1 1.2 1.4 1.6 1.8 2 2.2 2.4 2.5 2.6 2.7 2.9 3.5 4.1 4.7 5.2 6.4 6.9 5.7 5.5 6.5 6.4 5.6 6.1 6.5 6.8 6.6 6.4 6.7 7 6.4 6.7 6.7 6.6 6.7 7 5.9 6.3 6.8 6.7 6.2 6.4 6.1 6.5 6.5 6.5 6.9 6.7 6.7 6.8 7 6.9 6.9 6.8 6.9 7.1 7.1 7.5 7.8 7.8 7.6 7.5 7.4 7.4 7.4 8 7.5 7.6 7.8 8 8.1 8.1 8.2 8.3 8.3 8.4 8.4 8.5 8.6 8.8 9 9.2 9.2 9.1 9 8.9 9 9.1 9.2 9.3 9.4 9.5 9.6 9.8 9.7 9.5 10.1 10.2 9.7 9.2 9.7 10.4 11.1 11.8 11.7 11.9 12.3 12.6 12.9 13.2 13.5 13.6 13.8 13.9 13.9 14 14.9 15.9 15.5 15.3 14.9 14.4 13.8 13 12.2 11.6 12.6 14 11.6 9 7.7 6.8 6 3.9 4.5 4.4 3.9 3.5 3.2 2.9 1.8 0 -1.7 -2.5 -2.5 -2.5 -2.5 -2.5 -2.5 -2.5 -2.5 -2.5 -2.5 -2.5 -2.5 -2.5 -2.5 -2.5 -2.5 -2.2 -1.9 -2.2 -2.5 -2.5 -2.5 -2.5 -2.5 -2.5 -2.5 -2.5 -2.5 -2.5 -2.5 -2.5 -2.5 -2.5 -2.5 -2.5 -2.5 -2.5
-2.5 -2.5 -2.5 -2.5 -2.5 -2.5 -2.4 -2.1 -1.9 -1.6 -1.4 -1.1 -0.9 -0.6 -0.4 -0.2 0.1 0.3 0.6 0.8 1.1 1.3 1.6 1.8 2.1 2.3 2.5 2.8 3 3.2 3.4 3.6 3.7 3.9 5.4 5.5 5.5 5.4 5.4 5.3 5.2 5.3 5.3 5.3 5.2 5.1 4.9 5.1 5.1 5.1 5 5 5 5 5 5.1 5.1 5.1 5.2 5.4 6.4 7.1 7.8 6.7 7.3 7.5 7.9 7.5 7.7 7.2 7.3 7.1 7 6.9 6.9 6.8 7.1 7.9 7.8 7.8 7.5 7.5 7.4 7.4 7.8 8.5 8 7.9 8.3 8.2 8.1 8.1 8.2 8.3 8.3 8.3 8.3 8.5 8.7 8.9 9 9.2 9.1 9 8.9 8.8 8.8 8.7 8.8 8.9 9.1 9.2 9.3 9.4 9.6 9.6 9.8 9.6 9.3 9.6 10.1 10.8 11.5 11.3 11.4 11.7 12.1 12.4 12.7 13 13.3 13.5 13.5 13.7 13.9 14 13.8 14.5 15 14.7 14.3 13.9 14.3 13.5 12.7 12.6 12.2 9.8 8.9 8.1 7.2 6.5 5.8 4.1 4.5 4.4 4 3.6 3.2 2.7 2.4 2.2 0.6 -1.1 -2.5 -2.5 -2.5 -2.5 -2.5 -2.5 -2.5 -2.5 -2.5 -2.5 -2.5 -2.5 -2.5 -2.5 -2.5 -2.5 -2.4 -2.5 -2.5 -2.5 -2.5 -2.5 -2.5 -2.5 -2.5 -2.5 -2.5 -2.5 -2.5 -2.5 -2.5 -2.5 -2.5 -2.5 -2.5 -2.5
-2.5 -2.5 -2.5 -2.5 -2.5 -2.5 -2.5 -2.2 -2 -1.8 -1.5 -1.3 -1 -0.8 -0.5 -0.3 0 0.2 0.5 0.7 0.9 1.2 1.4 1.7 1.9 2.2 2.4 2.7 2.9 3.2 3.4 3.6 3.9 4.1 4.4 4.6 4.6 4.6 4.5 4.5 4.5 4.6 4.7 4.8 4.8 4.8 4.7 4.7 4.6 4.5 4.5 4.5 4.5 4.5 4.5 4.5 4.5 4.5 4.6 4.6 4.6 4.6 4.7 4.8 4.8 5 5.6 6.1 6.3 6.7 6.5 6.8 8 9.9 11.7 11.7 10.4 7.6 7.7 8.1 8.6 9.4 10.6 10.8 10.6 8.6 9.7 8.8 8.2 8.5 8.6 8.2 8.2 8 8.2 8.1 8.3 8.5 8.7 8.9 9.1 9.2 9 8.9 8.8 8.9 9 8.4 8.5 8.6 8.7 8.8 9 9 9.1 9.2 9.9 9.7 9.3 8.7 10.3 11.1 11.1 10.8 11.3 11.6 11.8 12.2 12.5 12.8 13.1 13.3 13.6 13.7 13.9 14 13.6 13.7 14.2 14.3 13.9 15 15.6 15.8 14.6 14.3 14 10.7 10.7 8.4 7 6.6 5.7 4.2 4.5 4.4 4 3.6 3.2 2.8 2.4 2 1.7 1.3 -0.5 -2.2 -2.5 -2.5 -2.5 -2.5 -2.5 -2.5 -2.5 -2.5 -2.5 -2.5 -2.5 -2.5 -2.5 -2.5 -2.5 -2.5 -2.5 -2.5 -2.5 -2.5 -2.5 -2.5 -2.5 -2.5 -2.5 -2.5 -2.5 -2.5 -2.5 -2.5 -2.5 -2.5 -2.5 -2.5
-2.5 -2.5 -2.5 -2.5 -2.5 -2.5 -2.5 -2.4 -2.1 -1.9 -1.6 -1.4 -1.1 -0.9 -0.6 -0.4 -0.2 0.1 0.3 0.6 0.8 1.1 1.3 1.6 1.8 2.1 2.3 2.5 2.8 3 3.3 3.5 3.8 4 4.3 4.4 4.3 4.4 4.4 4.4 4.4 4.4 4.4 4.4 4.5 4.5 4.4 4.4 4.4 4.4 4.4 4.4 4.3 4.3 4.3 4.3 4.3 4.4 4.4 4.4 4.3 4.4 4.4 4.4 4.4 4.4 4.4 4.4 4.4 4.4 4.4 4.5 4.5 4.5 4.5 4.5 4.5 4.6 4.7 4.7 4.9 5 5.1 5.3 5.4 5.8 6.4 6.8 7.1 7.1 10.4 10.8 9.3 6.9 8.3 7.8 8.4 8.5 8.7 8.9 9.1 9 8.9 8.8 9.1 8.6 9 8.2 8.3 8.3 8.4 8.6 8.5 8.4 8.5 8.6 8.8 9.1 9 9.5 10.3 10.7 11 10.7 11.2 11.3 11.5 11.8 12.1 12.4 12.7 13.3 13.3 13.5 13.7 13.9 13.4 13.3 13.5 13.9 14.5 15 15.5 15.8 15.8 15.6 13.4 10.6 9.8 8.5 7.9 6.9 6 4.3 4.5 4.4 4 3.6 3.2 2.8 2.4 2 1.6 1.3 1 0.1 -1.6 -2.5 -2.5 -2.5 -2.5 -2.5 -2.5 -2.5 -2.5 -2.5 -2.5 -2.5 -2.5 -2.5 -2.5 -2.5 -2.5 -2.5 -2.5 -2.5 -2.5 -2.5 -2.5 -2.5 -2.5 -2.5 -2.5 -2.5 -2.5 -2.5 -2.5 -2.5 -2.5 -2.5
-2.5 -2.5 -2.5 -2.5 -2.5 -2.5 -2.5 -2.5 -2.2 -2 -1.7 -1.5 -1.3 -1 -0.8 -0.5 -0.3 0 0.2 0.5 0.7 1 1.2 1.4 1.7 1.9 2.2 2.4 2.7 2.9 3.2 3.4 3.6 3.9 4.1 4.2 4.2 4.2 4.2 4.2 4.2 4.2 4.2 4.3 4.3 4.3 4.3 4.3 4.2 4.2 4.2 4.2 4.2 4.2 4.2 4.2 4.2 4.2 4.2 4.2 4.2 4.1 4.2 4.2 4.2 4.2 4.2 4.2 4.2 4.2 4.2 4.3 4.3 4.3 4.3 4.3 4.3 4.3 4.3 4.3 4.3 4.4 4.4 4.4 4.4 4.4 3.4 2.6 2.9 4.5 5.1 5.4 6.2 6.9 7.4 7.6 8.4 8.6 8.8 8.9 9.1 8.9 8.8 9.1 9.1 8.2 8.8 8.4 8 8.1 8.2 8.3 8.4 8.2 8 8 7.8 8.1 8.7 9.7 9.9 9.7 10 10.7 10.8 11 11.2 11.5 11.8 12.1 12.5 13.1 13.4 13.7 13.7 13.6 13.4 13.3 13.1 13.5 14.1 14.6 15.2 15.7 15.7 14.3 11.6 10 9.9 8.7 7.8 6.9 6 4.1 4.5 4.4 4 3.6 3.2 2.8 2.4 2 1.6 1.2 0.8 0.5 0.3 -1 -2.5 -2.5 -2.5 -2.5 -2.5 -2.5 -2.5 -2.5 -2.5 -2.5 -2.5 -2.5 -2.5 -2.5 -2.5 -2.5 -2.5 -2.5 -2.5 -2.5 -2.5 -2.5 -2.5 -2.5 -2.5 -2.5 -2.5 -2.5 -2.5 -2.5 -2.5 -2.5
-2.4 -2.5 -2.5 -2.5 -2.5 -2.5 -2.5 -2.5 -2.4 -2.1 -1.9 -1.6 -1.4 -1.1 -0.9 -0.6 -0.4 -0.2 0.1 0.3 0.6 0.8 1.1 1.3 1.6 1.8 2.1 2.3 2.5 2.8 3 3.3 3.5 3.8 4 4 4 4 4 4 4 4.1 4.1 4.1 4.1 4.1 4.1 4.1 4.1 4.1 4 4 4 4 4 4 4 4 4 4 4 3.9 4 4 4 4 4 4 4 4 4 4.1 4.1 4.1 4.1 4.1 4.1 4.1 4.1 4.1 4.1 4.2 4.2 4.2 4.2 4.2 3.2 2.2 1.2 0.2 -0.8 -1.3 4.7 5 4.8 4.9 5.2 5.4 5.6 6.5 9.5 8.8 9.1 9.1 8.9 8 8.6 8.6 7.7 7.8 7.9 8 8.1 8.1 7.9 7.7 7.6 8.5 9.7 9.4 9.4 9.3 9.8 10.3 10.5 10.7 10.9 11.2 11.5 11.8 12.3 12.9 13.1 13 13 13.2 13.3 13.2 13 13.1 13.6 14.1 14.9 15.3 15.3 11.4 11.2 10.3 9.8 8.7 7.7 6.7 5.8 3.8 4.5 4.4 4 3.6 3.2 2.8 2.4 2 1.6 1.2 0.8 0.4 0.1 -0.2 -0.4 -2.1 -2.5 -2.5 -2.5 -2.5 -2.5 -2.5 -2.5 -2.5 -2.5 -2.5 -2.5 -2.5 -2.5 -2.5 -2.5 -2.5 -2.5 -2.5 -2.5 -2.5 -2.5 -2.5 -2.5 -2.5 -2.5 -2.5 -2.5 -2.5 -2.5 -2.5
-2.2 -2.5 -2.5 -2.5 -2.5 -2.5 -2.5 -2.5 -2.5 -2.2 -2 -1.7 -1.5 -1.3 -1 -0.8 -0.5 -0.3 0 0.2 0.5 0.7 1 1.2 1.4 1.7 1.9 2.2 2.4 2.7 2.9 3.2 3.4 3.7 3.8 3.8 3.8 3.8 3.8 3.9 3.9 3.9 3.9 3.9 4 4 4 3.9 3.9 3.9 3.9 3.9 3.9 3.9 3.9 3.9 3.9 3.9 3.9 3.9 3.8 3.8 3.8 3.8 3.8 3.8 3.8 3.8 3.8 3.8 3.8 3.9 3.9 3.9 3.9 3.9 3.9 3.9 3.9 3.9 3.9 4 4 4 4 4 3 2 1 0 -1 -2 1.4 4.4 4.4 4.4 4.4 4.4 4.4 4.5 4.5 4.8 5.4 6 8.3 7.8 8.4 8.8 7.7 7.6 7.7 7.8 7.9 7.9 7.9 7.6 7.4 8.3 9 9.2 9 8.9 9.8 10 10.2 10.4 10.6 10.8 11.2 11.5 12 12.2 12.5 12.6 12.8 13 13.1 13.1 13 13 12.6 13.1 14.3 14.6 14.6 14.9 10.7 10.8 10 8.9 7.8 6.9 6.9 6.6 4.2 4.4 4 3.6 3.2 2.8 2.4 2 1.6 1.2 0.8 0.4 0 -0.4 -0.7 -0.9 -1.5 -2.5 -2.5 -2.5 -2.5 -2.5 -2.5 -2.5 -2.5 -2.5 -2.5 -2.5 -2.5 -2.5 -2.5 -2.5 -2.5 -2.5 -2.5 -2.5 -2.5 -2.5 -2.5 -2.5 -2.5 -2.5 -2.5 -2.5 -2.5 -2.5
-2 -2.5 -2.5 -2.5 -2.5 -2.5 -2.5 -2.5 -2.5 -2.4 -2.1 -1.9 -1.6 -1.4 -1.1 -0.9 -0.6 -0.4 -0.1 0.1 0.3 0.6 0.8 1.1 1.3 1.6 1.8 2.1 2.3 2.5 2.8 3 3.3 3.5 3.6 3.6 3.6 3.7 3.7 3.7 3.7 3.7 3.7 3.8 3.8 3.8 3.8 3.8 3.8 3.7 3.7 3.7 3.7 3.7 3.7 3.7 3.7 3.7 3.7 3.7 3.6 3.6 3.6 3.6 3.6 3.6 3.6 3.6 3.6 3.6 3.6 3.7 3.7 3.7 3.7 3.7 3.7 3.7 3.7 3.7 3.7 3.8 3.8 3.8 3.8 3.7 2.8 1.8 0.8 -0.2 -1.2 -2.2 3.2 4.2 4.2 4.2 4.2 4.2 4.2 4.2 4.3 4.3 4.4 4.5 4.5 5 5.6 6.1 9.2 8 8 8.1 7.8 7.9 7.3 6.2 7.4 8.2 8.8 8.7 8.6 8.8 9.5 9.6 9.8 10 10.3 10.7 11 11.2 11.5 11.9 12.3 12.3 12.6 12.7 12.9 13 12.8 12.3 11.9 12 12.9 13.9 13.9 14.6 10.8 10.9 10 9 8 7.4 6.9 6.5 7.5 4.5 4 3.6 3.2 2.8 2.4 2 1.6 1.2 0.8 0.4 0 -0.4 -0.8 -1.1 -1.4 -1.6 -2.5 -2.5 -2.5 -2.5 -2.5 -2.5 -2.5 -2.5 -2.5 -2.5 -2.5 -2.5 -2.5 -2.5 -2.5 -2.5 -2.5 -2.5 -2.5 -2.5 -2.5 -2.5 -2.5 -2.5 -2.5 -2.5 -2.5 -2.5
-1.8 -2.5 -2.5 -2.5 -2.5 -2.5 -2.5 -2.5 -2.5 -2.5 -2.2 -2 -1.7 -1.5 -1.3 -1 -0.8 -0.5 -0.3 0 0.2 0.5 0.7 1 1.2 1.4 1.7 1.9 2.2 2.4 2.7 2.9 3.2 3.4 3.5 3.5 3.5 3.5 3.5 3.5 3.5 3.5 3.6 3.6 3.6 3.7 3.6 3.6 3.6 3.6 3.6 3.6 3.5 3.6 3.6 3.6 3.6 3.6 3.6 3.5 3.5 3.4 3.4 3.4 3.4 3.4 3.4 3.4 3.4 3.4 3.4 3.5 3.5 3.5 3.5 3.5 3.5 3.5 3.5 3.5 3.5 3.6 3.6 3.6 3.6 3.5 2.5 1.6 0.6 -0.4 -1.4 -2.4 3.9 4 4 4 4 4 4 4.1 4.1 4.2 4.2 4.3 4.3 4.4 4.5 4.7 5 5.2 5.5 8.6 8.1 8 6.8 7.3 7.3 7.9 7.9 8.2 8.3 8.8 9.1 9.3 9.4 9.6 10.1 10.6 11 11.1 11.3 11.8 12.4 11.9 12.1 12.4 12.5 12.6 12.3 11.7 11.3 11.3 11.5 12.8 13.8 14.7 12.5 11.1 10.3 9.4 8.5 8 7.6 7.4 7.1 4.4 4.1 3.5 3.1 2.7 2.3 1.9 1.6 1.2 0.8 0.4 0 -0.4 -0.8 -1.2 -1.6 -1.8 -2.1 -2.3 -2.5 -2.5 -2.5 -2.5 -2.5 -2.5 -2.5 -2.5 -2.5 -2.5 -2.5 -2.5 -2.5 -2.5 -2.5 -2.5 -2.5 -2.5 -2.5 -2.5 -2.5 -2.5 -2.5 -2.5 -2.5 -2.5
-1.6 -2.5 -2.5 -2.5 -2.5 -2.5 -2.5 -2.5 -2.5 -2.5 -2.4 -2.1 -1.9 -1.6 -1.4 -1.1 -0.9 -0.6 -0.4 -0.1 0.1 0.3 0.6 0.8 1.1 1.3 1.6 1.8 2.1 2.3 2.6 2.8 3 3.2 3.3 3.3 3.3 3.3 3.3 3.3 3.3 3.4 3.4 3.4 3.5 3.5 3.5 3.5 3.4 3.4 3.4 3.4 3.4 3.4 3.4 3.4 3.4 3.4 3.4 3.4 3.3 3.3 3.2 3.2 3.2 3.2 3.2 3.2 3.2 3.2 3.2 3.2 3.3 3.3 3.3 3.3 3.3 3.3 3.3 3.3 3.3 3.4 3.4 3.4 3.4 3.3 2.3 1.3 0.4 -0.6 -1.6 -2.5 3.7 3.8 3.8 3.8 3.8 3.8 3.8 3.9 3.9 4 4 4.1 4.1 4.2 4.3 4.4 4.4 4.5 4.9 5.2 5.5 6.3 6.5 7.9 7.6 7.4 7.6 8.1 8.5 8.8 8.7 8.9 9.1 9.5 9.9 10.3 10.4 11.1 11.3 11.2 12 11.5 11.5 11.8 11.8 11.9 12 11.4 10.8 11.2 11.2 12 13 13.4 13.9 11.5 10.6 9.8 9.3 8.8 8.5 8.2 8 5.1 4.2 3.6 3.1 2.6 2.1 1.7 1.3 1 0.6 0.2 -0.1 -0.5 -0.8 -1.2 -1.6 -2 -2.3 -2.5 -2.5 -2.5 -2.5 -2.5 -2.5 -2.5 -2.5 -2.5 -2.5 -2.5 -2.5 -2.5 -2.5 -2.5 -2.5 -2.5 -2.5 -2.5 -2.5 -2.5 -2.5 -2.5 -2.5 -2.5 -2.5 -2.5
-1.4 -2.5 -2.5 -2.5 -2.5 -2.5 -2.5 -2.5 -2.5 -2.5 -2.5 -2.2 -2 -1.7 -1.5 -1.2 -1 -0.8 -0.5 -0.3 0 0.2 0.5 0.7 1 1.2 1.4 1.7 1.9 2.2 2.4 2.7 2.9 3.1 3.1 3.1 3.1 3.1 3.1 3.2 3.2 3.2 3.2 3.3 3.3 3.3 3.3 3.3 3.3 3.3 3.2 3.2 3.2 3.2 3.2 3.2 3.2 3.2 3.2 3.2 3.1 3.1 3 3 3 3 3 3 3 3 3 3 3.1 3.1 3.1 3.1 3.1 3.1 3.1 3.1 3.1 3.1 3.2 3.2 3.2 3.1 2.1 1.1 0.1 -0.8 -1.8 -2.1 3.5 3.5 3.6 3.6 3.6 3.6 3.6 3.7 3.7 3.8 3.8 3.9 4 4 4.1 4.2 4.3 4.4 4.4 4.6 4.9 5 4.6 6.1 8.2 10.6 9.4 8.6 8.6 8.8 8.4 8.6 9.3 9.1 9.4 9.7 9.8 10.4 10.8 10.8 11.2 11.2 10.9 11.1 11.1 11.2 11.7 10.9 10.9 11.2 10.9 11.3 12.2 12.2 13 13.7 10.9 10.2 9.9 9.6 9.2 9 8.1 6.5 4.3 3.7 3.1 2.7 2.2 1.7 1.1 0.6 0.3 -0.1 -0.4 -0.8 -1.1 -1.5 -1.8 -2.2 -2.5 -2.5 -2.5 -2.5 -2.5 -2.5 -2.5 -2.5 -2.5 -2.5 -2.5 -2.5 -2.5 -2.5 -2.5 -2.5 -2.5 -2.5 -2.5 -2.5 -2.5 -2.5 -2.5 -2.5 -2.5 -2.5 -2.5 -2.5
-1.2 -2.4 -2.5 -2.5 -2.5 -2.5 -2.5 -2.5 -2.5 -2.5 -2.5 -2.4 -2.1 -1.9 -1.6 -1.4 -1.1 -0.9 -0.6 -0.4 -0.1 0.1 0.3 0.6 0.8 1.1 1.3 1.6 1.8 2.1 2.3 2.6 2.8 2.9 2.9 2.9 2.9 3 3 3 3 3 3.1 3.1 3.1 3.2 3.2 3.1 3.1 3.1 3.1 3.1 3.1 3.1 3.1 3.1 3.1 3.1 3.1 3 3 2.9 2.9 2.8 2.8 2.8 2.8 2.8 2.8 2.8 2.8 2.8 2.9 2.9 2.9 2.9 2.9 2.9 2.9 2.9 2.9 2.9 3 3 3 2.9 1.9 0.9 -0.1 -1.1 -2 -0.3 3.3 3.3 3.3 3.3 3.4 3.4 3.4 3.5 3.5 3.6 3.6 3.7 3.8 3.8 3.9 4 4.1 4.2 4.3 4.4 4.4 4.5 4.6 4.9 5.8 6.4 7.6 6.6 7.8 7.3 7.5 8.1 9.2 10.6 9.4 9 9.1 9.6 9.9 10.3 10.9 11.1 10.7 10.5 10.5 10.5 11.1 11.2 10.9 10.8 10.6 10.6 11.3 11.4 11.5 12.5 11.1 10.8 10.4 10.1 10 9.5 8.7 6.7 4.4 3.8 3.2 2.6 2 1.6 1.1 0.7 0.2 -0.3 -0.8 -1.1 -1.5 -1.8 -2.2 -2.5 -2.5 -2.5 -2.5 -2.5 -2.5 -2.5 -2.5 -2.5 -2.5 -2.5 -2.5 -2.5 -2.5 -2.5 -2.5 -2.5 -2.5 -2.5 -2.5 -2.5 -2.5 -2.5 -2.5 -2.5 -2.5 -2.5 -2.5 -2.5
-1.1 -2.2 -2.5 -2.5 -2.5 -2.5 -2.5 -2.5 -2.5 -2.5 -2.5 -2.5 -2.2 -2 -1.7 -1.5 -1.2 -1 -0.8 -0.5 -0.3 0 0.2 0.5 0.7 1 1.2 1.5 1.7 1.9 2.2 2.4 2.7 2.7 2.8 2.8 2.8 2.8 2.8 2.8 2.8 2.9 2.9 2.9 3 3 3 3 3 2.9 2.9 2.9 2.9 2.9 2.9 2.9 2.9 2.9 2.9 2.8 2.8 2.7 2.7 2.6 2.6 2.6 2.6 2.6 2.6 2.6 2.6 2.6 2.7 2.7 2.7 2.7 2.7 2.7 2.7 2.7 2.7 2.7 2.8 2.8 2.8 2.7 1.7 0.7 -0.3 -1.3 -2.2 1.5 3.1 3.1 3.1 3.1 3.2 3.2 3.2 3.3 3.3 3.4 3.4 3.5 3.6 3.7 3.7 3.8 3.9 4 4.1 4.2 4.2 4.3 4.4 4.4 4.4 4.4 4.5 4.5 4.5 4.5 4.3 5 5.3 5.7 6.1 6.5 6.7 7.4 8.6 9 9.6 9.7 10.1 9.5 8.8 9 10 10.5 10.6 10.6 10.5 10.9 11.5 11.6 11.7 11.8 11.8 11.4 11 11.2 10.7 9.6 8.5 7.1 4.5 3.9 3.3 2.7 2.2 1.6 1 0.4 -0.1 -0.5 -0.9 -1.3 -1.8 -2.5 -2.5 -2.5 -2.5 -2.5 -2.5 -2.5 -2.5 -2.5 -2.5 -2.5 -2.5 -2.5 -2.5 -2.5 -2.5 -2.5 -2.5 -2.5 -2.5 -2.5 -2.5 -2.5 -2.5 -2.5 -2.5 -2.5 -2.5 -2.5 -2.5 -2.5
-0.9 -2 -2.5 -2.5 -2.5 -2.5 -2.5 -2.5 -2.5 -2.5 -2.5 -2.5 -2.3 -2.1 -1.9 -1.6 -1.4 -1.1 -0.9 -0.6 -0.4 -0.1 0.1 0.3 0.6 0.8 1.1 1.3 1.6 1.8 2.1 2.3 2.5 2.6 2.6 2.6 2.6 2.6 2.6 2.6 2.7 2.7 2.7 2.8 2.8 2.8 2.8 2.8 2.8 2.8 2.8 2.8 2.8 2.8 2.8 2.8 2.8 2.8 2.7 2.7 2.6 2.6 2.5 2.5 2.4 2.4 2.4 2.4 2.4 2.4 2.4 2.4 2.5 2.5 2.5 2.5 2.5 2.5 2.5 2.5 2.5 2.5 2.6 2.6 2.6 2.5 1.5 0.5 -0.5 -1.5 -2.5 2.9 2.9 2.9 2.9 2.9 3 3 3 3.1 3.1 3.2 3.3 3.3 3.4 3.5 3.6 3.7 3.7 3.8 3.9 4 4.1 4.1 4.2 4.2 4.2 4.2 4.3 4.3 4.3 4.3 4.4 4.5 4.5 4.5 4.5 4.6 5 5.5 5.9 6.5 8.1 8.1 8.4 8.2 8.7 8.7 8.3 9.1 9.8 10.3 10.9 11.2 11.7 11.8 11.7 11.7 11.8 11.7 11.3 11 11.6 10.2 8.9 8.4 4.7 4.1 3.4 2.8 2.2 1.7 1.1 0.5 -0.1 -0.7 -1.3 -1.7 -2.1 -2.5 -2.5 -2.5 -2.5 -2.5 -2.5 -2.5 -2.5 -2.5 -2.5 -2.5 -2.5 -2.5 -2.5 -2.5 -2.5 -2.5 -2.5 -2.5 -2.5 -2.5 -2.5 -2.5 -2.5 -2.5 -2.5 -2.5 -2.5 -2.5 -2.5 -2.5
-0.7 -1.8 -2.5 -2.5 -2.5 -2.5 -2.5 -2.5 -2.5 -2.5 -2.5 -2.5 -2.5 -2.2 -2 -1.7 -1.5 -1.2 -1 -0.8 -0.5 -0.3 0 0.2 0.5 0.7 1 1.2 1.5 1.7 1.9 2.2 2.4 2.4 2.4 2.4 2.4 2.4 2.4 2.5 2.5 2.5 2.6 2.6 2.6 2.7 2.7 2.7 2.6 2.6 2.6 2.6 2.6 2.6 2.6 2.6 2.6 2.6 2.5 2.5 2.4 2.4 2.3 2.3 2.2 2.2 2.2 2.2 2.2 2.2 2.2 2.2 2.3 2.3 2.3 2.3 2.3 2.3 2.3 2.3 2.3 2.3 2.4 2.4 2.4 2.2 1.3 0.3 -0.7 -1.7 -2.5 2.7 2.7 2.7 2.7 2.7 2.8 2.8 2.8 2.9 2.9 3 3.1 3.1 3.2 3.3 3.4 3.5 3.6 3.7 3.8 3.8 3.9 3.9 4 4 4 4.1 4.1 4.1 4.1 4.1 4.1 4.3 4.4 4.5 4.5 4.5 4.5 4.5 4.5 4.5 4.9 5.2 5.8 7 8 8.3 8.1 8.4 8.9 10.6 11.5 11.1 11.5 11.5 11.6 11.6 11.7 11.7 11.4 11.1 11.3 10.7 9.6 8.4 4.5 3.8 3.2 2.6 2 1.4 0.8 0.3 -0.3 -0.8 -1.4 -1.9 -2.5 -2.5 -2.5 -2.5 -2.5 -2.5 -2.5 -2.5 -2.5 -2.5 -2.5 -2.5 -2.5 -2.5 -2.5 -2.5 -2.5 -2.5 -2.5 -2.5 -2.5 -2.5 -2.5 -2.5 -2.5 -2.5 -2.5 -2.5 -2.5 -2.5 -2.5 -2.5
-0.5 -1.6 -2.5 -2.5 -2.5 -2.5 -2.5 -2.5 -2.5 -2.5 -2.5 -2.5 -2.5 -2.3 -2.1 -1.9 -1.6 -1.4 -1.1 -0.9 -0.6 -0.4 -0.1 0.1 0.4 0.6 0.8 1.1 1.3 1.6 1.8 2.1 2.2 2.2 2.2 2.2 2.2 2.3 2.3 2.3 2.3 2.4 2.4 2.4 2.5 2.5 2.5 2.5 2.5 2.5 2.4 2.4 2.4 2.4 2.4 2.4 2.4 2.4 2.4 2.3 2.3 2.2 2.2 2.1 2.1 2 2 2 2 2 2 2 2.1 2.1 2.1 2.1 2.1 2.1 2.1 2.1 2.1 2.1 2.2 2.2 2.2 2 1 0.1 -0.9 -1.9 -2.5 2.5 2.5 2.5 2.5 2.5 2.6 2.6 2.6 2.7 2.8 2.8 2.9 3 3 3.1 3.2 3.3 3.4 3.5 3.6 3.6 3.7 3.8 3.8 3.8 3.9 3.9 3.9 3.9 3.9 3.9 3.9 4 4.2 4.3 4.5 4.5 4.5 4.5 4.5 4.5 4.5 4.5 4.5 4.5 5.6 7.6 7.9 7.9 8.7 9.8 10.3 10.8 11.1 11.2 11.2 11.3 11.4 11.4 11.2 11.1 11 10.6 8.8 8.6 4.4 3.6 2.8 2.2 1.6 1 0.5 -0.1 -0.7 -1.2 -1.8 -2.5 -2.5 -2.5 -2.5 -2.5 -2.5 -2.5 -2.5 -2.5 -2.5 -2.5 -2.5 -2.5 -2.5 -2.5 -2.5 -2.5 -2.5 -2.5 -2.5 -2.5 -2.5 -2.5 -2.5 -2.5 -2.5 -2.5 -2.5 -2.5 -2.5 -2.5 -2.5 -2.5
-0.3 -1.4 -2.5 -2.5 -2.5 -2.5 -2.5 -2.5 -2.5 -2.5 -2.5 -2.5 -2.5 -2.5 -2.2 -2 -1.7 -1.5 -1.2 -1 -0.8 -0.5 -0.3 0 0.2 0.5 0.7 1 1.2 1.5 1.7 1.9 2 2 2.1 2.1 2.1 2.1 2.1 2.1 2.2 2.2 2.2 2.3 2.3 2.3 2.4 2.3 2.3 2.3 2.3 2.3 2.3 2.3 2.3 2.3 2.3 2.3 2.2 2.1 2.1 2 2 1.9 1.9 1.8 1.8 1.8 1.8 1.8 1.8 1.8 1.9 1.9 1.9 1.9 1.9 1.9 1.9 1.9 1.9 1.9 2 2 2 1.8 0.8 -0.1 -1.1 -2.1 -1.9 2.3 2.3 2.3 2.3 2.3 2.3 2.4 2.4 2.5 2.6 2.6 2.7 2.8 2.9 2.9 3 3.1 3.2 3.3 3.4 3.5 3.5 3.6 3.6 3.6 3.7 3.7 3.7 3.7 3.7 3.7 3.8 3.8 3.9 4.1 4.2 4.4 4.5 4.5 4.5 4.5 4.5 4.5 4.5 4.5 4.5 4.7 7 7.8 8.7 9.6 10.1 10.5 10.8 10.8 10.8 10.9 10.9 10.9 10.8 10.7 10.6 9.8 8.5 8.4 4.3 3.5 2.7 2 1.2 0.7 0 -0.5 -1.1 -1.6 -2.2 -2.5 -2.5 -2.5 -2.5 -2.5 -2.5 -2.5 -2.5 -2.5 -2.5 -2.5 -2.5 -2.5 -2.5 -2.5 -2.5 -2.5 -2.5 -2.5 -2.5 -2.5 -2.5 -2.5 -2.5 -2.5 -2.5 -2.5 -2.5 -2.5 -2.5 -2.5 -2.5 -2.5
-0.1 -1.2 -2.3 -2.5 -2.5 -2.5 -2.5 -2.5 -2.5 -2.5 -2.5 -2.5 -2.5 -2.5 -2.3 -2.1 -1.9 -1.6 -1.4 -1.1 -0.9 -0.6 -0.4 -0.1 0.1 0.4 0.6 0.8 1.1 1.3 1.6 1.8 1.9 1.9 1.9 1.9 1.9 1.9 1.9 2 2 2 2.1 2.1 2.1 2.2 2.2 2.2 2.2 2.1 2.1 2.1 2.1 2.1 2.1 2.1 2.1 2.1 2 2 1.9 1.9 1.8 1.8 1.7 1.7 1.6 1.6 1.6 1.6 1.6 1.6 1.7 1.7 1.7 1.7 1.7 1.7 1.7 1.7 1.7 1.7 1.8 1.8 1.8 1.6 0.6 -0.4 -1.3 -2.3 -0.2 2 2.1 2.1 2.1 2.1 2.1 2.2 2.3 2.3 2.4 2.4 2.5 2.6 2.7 2.8 2.9 2.9 3.1 3.2 3.2 3.3 3.4 3.4 3.4 3.5 3.5 3.5 3.5 3.5 3.5 3.5 3.6 3.6 3.7 3.8 4 4.1 4.3 4.4 4.5 4.5 4.5 4.5 4.5 4.5 4.5 4.5 4.5 7.3 8.3 9.1 9.9 10.2 10.4 10.4 10.5 10.5 10.5 10.5 10.4 10 9.7 9.3 8.8 7.1 4.2 3.4 2.7 1.9 1.1 0.3 -0.3 -0.9 -1.5 -2.1 -2.5 -2.5 -2.5 -2.5 -2.5 -2.5 -2.5 -2.5 -2.5 -2.5 -2.5 -2.5 -2.5 -2.5 -2.5 -2.5 -2.5 -2.5 -2.5 -2.5 -2.5 -2.5 -2.5 -2.5 -2.5 -2.5 -2.5 -2.5 -2.5 -2.5 -2.5 -2.5 -2.5 -2.5
0.1 -1 -2.1 -2.5 -2.5 -2.5 -2.5 -2.5 -2.5 -2.5 -2.5 -2.5 -2.5 -2.5 -2.5 -2.2 -2 -1.7 -1.5 -1.2 -1 -0.7 -0.5 -0.3 0 0.2 0.5 0.7 1 1.2 1.5 1.6 1.7 1.7 1.7 1.7 1.7 1.7 1.8 1.8 1.8 1.9 1.9 1.9 2 2 2 2 2 2 2 2 2 2 2 2 2 1.9 1.9 1.8 1.8 1.7 1.7 1.6 1.6 1.5 1.5 1.4 1.4 1.4 1.4 1.4 1.5 1.5 1.5 1.5 1.5 1.5 1.5 1.5 1.5 1.5 1.6 1.6 1.6 1.4 0.4 -0.6 -1.6 -2.5 1.6 1.8 1.9 1.9 1.9 1.9 1.9 2 2.1 2.1 2.2 2.3 2.3 2.4 2.5 2.6 2.7 2.8 2.9 3 3 3.1 3.2 3.2 3.2 3.3 3.3 3.3 3.3 3.3 3.3 3.4 3.4 3.4 3.5 3.6 3.7 3.9 4 4.2 4.3 4.5 4.5 4.5 4.5 4.5 4.5 4.5 4.5 7.2 8.7 9.6 9.7 9.8 9.9 10 10.1 10.1 10 9.8 9.5 9.1 8.8 8.4 8.3 4.5 3.7 3 2.3 1.5 0.8 0.2 -0.6 -1.4 -1.9 -2.5 -2.5 -2.5 -2.5 -2.5 -2.5 -2.5 -2.5 -2.5 -2.5 -2.5 -2.5 -2.5 -2.5 -2.5 -2.5 -2.5 -2.5 -2.5 -2.5 -2.5 -2.5 -2.5 -2.5 -2.5 -2.5 -2.5 -2.5 -2.5 -2.5 -2.5 -2.5 -2.5 -2.5 -2.5
0.3 -0.8 -2 -2.5 -2.5 -2.5 -2.5 -2.5 -2.5 -2.5 -2.5 -2.5 -2.5 -2.5 -2.5 -2.3 -2.1 -1.9 -1.6 -1.4 -1.1 -0.9 -0.6 -0.4 -0.1 0.1 0.4 0.6 0.8 1.1 1.3 1.5 1.5 1.5 1.5 1.5 1.6 1.6 1.6 1.6 1.7 1.7 1.7 1.8 1.8 1.8 1.9 1.9 1.8 1.8 1.8 1.8 1.8 1.8 1.8 1.8 1.8 1.7 1.7 1.6 1.6 1.5 1.5 1.4 1.4 1.3 1.3 1.2 1.2 1.2 1.2 1.2 1.3 1.3 1.3 1.3 1.3 1.3 1.3 1.3 1.3 1.3 1.4 1.4 1.4 1.2 0.2 -0.8 -1.8 -2.5 1.6 1.6 1.7 1.7 1.7 1.7 1.8 1.8 1.9 1.9 2 2.1 2.2 2.2 2.3 2.4 2.5 2.7 2.8 2.8 2.9 2.9 3 3 3.1 3.1 3.1 3.1 3.1 3.1 3.2 3.2 3.2 3.2 3.2 3.4 3.5 3.6 3.8 3.9 4.1 4.2 4.4 4.5 4.5 4.5 4.5 4.5 4.5 6.9 8.6 9.4 9.3 9.3 9.3 9.5 9.4 9.3 9.3 9.3 8.9 8.5 8.2 7.8 8 4.3 3.4 2.6 1.8 1.1 0.4 -0.3 -1 -1.7 -2.5 -2.5 -2.5 -2.5 -2.5 -2.5 -2.5 -2.5 -2.5 -2.5 -2.5 -2.5 -2.5 -2.5 -2.5 -2.5 -2.5 -2.5 -2.5 -2.5 -2.5 -2.5 -2.5 -2.5 -2.5 -2.5 -2.5 -2.5 -2.5 -2.5 -2.5 -2.5 -2.5 -2.5 -2.5 -2.5
0.5 -0.6 -1.8 -2.5 -2.5 -2.5 -2.5 -2.5 -2.5 -2.5 -2.5 -2.5 -2.5 -2.5 -2.5 -2.5 -2.2 -2 -1.7 -1.5 -1.2 -1 -0.7 -0.5 -0.3 0 0.2 0.5 0.7 1 1.2 1.3 1.3 1.3 1.4 1.4 1.4 1.4 1.4 1.5 1.5 1.5 1.6 1.6 1.6 1.7 1.7 1.7 1.7 1.7 1.6 1.6 1.6 1.6 1.6 1.6 1.6 1.6 1.5 1.5 1.4 1.4 1.3 1.3 1.2 1.2 1.1 1.1 1 1 1 1 1 1.1 1.1 1.1 1.1 1.1 1.1 1.1 1.1 1.1 1.2 1.2 1.2 1 0 -1 -2 -2.5 1.4 1.4 1.5 1.5 1.5 1.5 1.6 1.6 1.7 1.7 1.8 1.9 2 2.1 2.2 2.2 2.4 2.5 2.6 2.6 2.7 2.7 2.8 2.9 2.9 2.9 2.9 2.9 2.9 3 3 3 3 3 3 3.1 3.3 3.4 3.5 3.7 3.8 4 4.1 4.3 4.4 4.5 4.5 4.5 4.5 5.5 7.7 9.1 8.9 8.9 8.9 8.7 8.5 8.6 8.7 8.6 8.5 7.9 7.8 6.4 5 4 3.2 2.3 1.5 0.6 -0.1 -0.8 -1.5 -2.5 -2.5 -2.5 -2.5 -2.5 -2.5 -2.5 -2.5 -2.5 -2.5 -2.5 -2.5 -2.5 -2.5 -2.5 -2.5 -2.5 -2.5 -2.5 -2.5 -2.5 -2.5 -2.5 -2.5 -2.5 -2.5 -2.5 -2.5 -2.5 -2.5 -2.5 -2.5 -2.5 -2.5 -2.5 -2.5 -2.5
0.7 -0.5 -1.6 -2.5 -2.5 -2.5 -2.5 -2.5 -2.5 -2.5 -2.5 -2.5 -2.5 -2.5 -2.5 -2.5 -2.3 -2.1 -1.8 -1.6 -1.4 -1.1 -0.9 -0.6 -0.4 -0.1 0.1 0.4 0.6 0.9 1.1 1.1 1.2 1.2 1.2 1.2 1.2 1.2 1.3 1.3 1.3 1.4 1.4 1.4 1.5 1.5 1.5 1.5 1.5 1.5 1.5 1.5 1.5 1.5 1.5 1.5 1.4 1.4 1.3 1.3 1.2 1.2 1.1 1.1 1 1 0.9 0.9 0.8 0.8 0.8 0.8 0.8 0.9 0.9 0.9 0.9 0.9 0.9 0.9 0.9 0.9 1 1 1 0.8 -0.2 -1.2 -2.2 -2.5 1.2 1.2 1.2 1.2 1.3 1.3 1.4 1.4 1.5 1.6 1.6 1.7 1.8 1.9 2 2.1 2.2 2.3 2.4 2.5 2.5 2.6 2.6 2.7 2.7 2.7 2.7 2.7 2.8 2.8 2.8 2.8 2.8 2.8 2.8 2.9 3 3.2 3.3 3.4 3.6 3.7 3.9 4 4.2 4.3 4.4 4.5 4.5 5.1 5.4 5.8 10 8.6 8.5 8.4 7.9 7.5 6.6 5.8 6.1 5.2 4.6 4.3 3.8 3.3 2.6 1.8 1.1 0.3 -0.5 -1.3 -2.5 -2.5 -2.5 -2.5 -2.5 -2.5 -2.5 -2.5 -2.5 -2.5 -2.5 -2.5 -2.5 -2.5 -2.5 -2.5 -2.5 -2.5 -2.5 -2.5 -2.5 -2.5 -2.5 -2.5 -2.5 -2.5 -2.5 -2.5 -2.5 -2.5 -2.5 -2.5 -2.5 -2.5 -2.5 -2.5 -2.5 -2.5
0.8 -0.3 -1.4 -2.5 -2.5 -2.5 -2.5 -2.5 -2.5 -2.5 -2.5 -2.5 -2.5 -2.5 -2.5 -2.5 -2.5 -2.2 -2 -1.7 -1.5 -1.2 -1 -0.7 -0.5 -0.3 0 0.2 0.5 0.7 0.9 1 1 1 1 1 1 1.1 1.1 1.1 1.2 1.2 1.2 1.3 1.3 1.3 1.4 1.4 1.4 1.3 1.3 1.3 1.3 1.3 1.3 1.3 1.3 1.2 1.2 1.1 1.1 1 1 0.9 0.9 0.8 0.8 0.7 0.7 0.6 0.6 0.6 0.6 0.7 0.7 0.7 0.7 0.7 0.7 0.7 0.7 0.7 0.8 0.8 0.8 0.5 -0.4 -1.4 -2.4 -1.8 1 1 1 1 1.1 1.1 1.2 1.2 1.3 1.4 1.5 1.5 1.6 1.7 1.8 2 2.1 2.1 2.2 2.3 2.3 2.4 2.5 2.5 2.5 2.5 2.5 2.6 2.6 2.6 2.6 2.6 2.6 2.6 2.6 2.7 2.8 2.9 3 3.2 3.3 3.5 3.6 3.8 3.9 4.1 4.2 4.3 4.5 4.5 4.5 4.5 4.5 4.5 4.5 4.4 4.4 4.4 4.4 4.4 4.4 4.3 3.9 3.5 3 2.4 1.8 1.1 0.3 -0.4 -1.1 -1.9 -2.5 -2.5 -2.5 -2.5 -2.5 -2.5 -2.5 -2.5 -2.5 -2.5 -2.5 -2.5 -2.5 -2.5 -2.5 -2.5 -2.5 -2.5 -2.5 -2.5 -2.5 -2.5 -2.5 -2.5 -2.5 -2.5 -2.5 -2.5 -2.5 -2.5 -2.5 -2.5 -2.5 -2.5 -2.5 -2.5 -2.5 -2.5
1 -0.1 -1.2 -2.3 -2.5 -2.5 -2.5 -2.5 -2.5 -2.5 -2.5 -2.5 -2.5 -2.5 -2.5 -2.5 -2.5 -2.3 -2.1 -1.8 -1.6 -1.4 -1.1 -0.9 -0.6 -0.4 -0.1 0.1 0.4 0.6 0.8 0.8 0.8 0.8 0.8 0.8 0.9 0.9 0.9 1 1 1 1.1 1.1 1.1 1.2 1.2 1.2 1.2 1.2 1.2 1.2 1.2 1.2 1.2 1.1 1.1 1 1 0.9 0.9 0.8 0.8 0.7 0.7 0.6 0.6 0.5 0.5 0.4 0.4 0.4 0.4 0.5 0.5 0.5 0.5 0.5 0.5 0.5 0.5 0.5 0.6 0.6 0.5 0.3 -0.7 -1.6 -2.5 0 0.8 0.8 0.8 0.9 0.9 0.9 1 1.1 1.1 1.2 1.3 1.4 1.5 1.5 1.7 1.8 1.9 2 2.1 2.1 2.2 2.2 2.3 2.3 2.3 2.3 2.4 2.4 2.4 2.4 2.4 2.4 2.4 2.4 2.5 2.5 2.5 2.7 2.8 2.9 3.1 3.2 3.4 3.5 3.7 3.8 4 4.1 4.2 4.2 4.1 4.1 4.1 4 4 3.9 3.8 3.8 3.8 3.8 3.8 3.6 3.1 2.7 2.4 1.6 1 0.4 -0.4 -1.1 -1.9 -2.5 -2.5 -2.5 -2.5 -2.5 -2.5 -2.5 -2.5 -2.5 -2.5 -2.5 -2.5 -2.5 -2.5 -2.5 -2.5 -2.5 -2.5 -2.5 -2.5 -2.5 -2.5 -2.5 -2.5 -2.5 -2.5 -2.5 -2.5 -2.5 -2.5 -2.5 -2.5 -2.5 -2.5 -2.5 -2.5 -2.5 -2.5 -2.5
1.1 0.1 -1 -2.1 -2.5 -2.5 -2.5 -2.5 -2.5 -2.5 -2.5 -2.5 -2.5 -2.5 -2.5 -2.5 -2.5 -2.5 -2.2 -2 -1.7 -1.5 -1.2 -1 -0.7 -0.5 -0.2 0 0.2 0.5 0.6 0.6 0.6 0.6 0.7 0.7 0.7 0.7 0.8 0.8 0.8 0.9 0.9 0.9 1 1 1 1.1 1 1 1 1 1 1 1 1 0.9 0.9 0.8 0.8 0.7 0.7 0.6 0.6 0.5 0.5 0.4 0.4 0.3 0.3 0.2 0.2 0.2 0.3 0.3 0.3 0.3 0.3 0.3 0.3 0.3 0.3 0.3 0.4 0.3 0.1 -0.9 -1.9 -2.5 0.5 0.6 0.6 0.6 0.7 0.7 0.7 0.8 0.9 0.9 1 1.1 1.2 1.3 1.4 1.5 1.7 1.7 1.8 1.9 1.9 2 2.1 2.1 2.1 2.1 2.2 2.2 2.2 2.2 2.2 2.2 2.2 2.2 2.3 2.3 2.3 2.3 2.4 2.6 2.7 2.8 3 3.1 3.3 3.4 3.6 3.7 3.8 4 3.9 3.7 3.7 3.7 3.6 3.6 3.5 3.4 3.2 3.2 3.1 3.1 3 2.6 2 1.6 1.1 0.3 -0.4 -1.1 -1.9 -2.5 -2.5 -2.5 -2.5 -2.5 -2.5 -2.5 -2.5 -2.5 -2.5 -2.5 -2.5 -2.5 -2.5 -2.5 -2.5 -2.5 -2.5 -2.5 -2.5 -2.5 -2.5 -2.5 -2.5 -2.5 -2.5 -2.5 -2.5 -2.5 -2.5 -2.5 -2.5 -2.5 -2.5 -2.5 -2.5 -2.5 -2.5 -2.5 -2.5
0.9 0.3 -0.8 -1.9 -2.5 -2.5 -2.5 -2.5 -2.5 -2.5 -2.5 -2.5 -2.5 -2.5 -2.5 -2.5 -2.5 -2.5 -2.3 -2.1 -1.8 -1.6 -1.4 -1.1 -0.9 -0.6 -0.4 -0.1 0.1 0.4 0.4 0.4 0.5 0.5 0.5 0.5 0.5 0.6 0.6 0.6 0.7 0.7 0.7 0.8 0.8 0.8 0.9 0.9 0.9 0.9 0.8 0.8 0.8 0.8 0.8 0.8 0.8 0.7 0.7 0.6 0.6 0.5 0.5 0.4 0.4 0.3 0.3 0.2 0.2 0.1 0.1 0 0 0.1 0.1 0.1 0.1 0.1 0.1 0.1 0.1 0.1 0.1 0.1 0.1 -0.1 -1.1 -2.1 -2.5 0.3 0.4 0.4 0.4 0.4 0.5 0.5 0.6 0.7 0.8 0.8 0.9 1 1.1 1.3 1.4 1.5 1.6 1.6 1.7 1.8 1.8 1.9 1.9 1.9 2 2 2 2 2 2 2 2 2.1 2.1 2.1 2.1 2.1 2.2 2.3 2.5 2.6 2.7 2.9 3 3.2 3.3 3.5 3.6 3.7 3.6 3.4 3.3 3.3 3.2 3.1 3 2.9 2.7 2.6 2.6 2.5 2.4 2 1.5 0.8 0.4 -0.2 -1.1 -1.8 -2.5 -2.5 -2.5 -2.5 -2.5 -2.5 -2.5 -2.5 -2.5 -2.5 -2.5 -2.5 -2.5 -2.5 -2.5 -2.5 -2.5 -2.5 -2.5 -2.5 -2.5 -2.5 -2.5 -2.5 -2.5 -2.5 -2.5 -2.5 -2.5 -2.5 -2.5 -2.5 -2.5 -2.5 -2.5 -2.5 -2.5 -2.5 -2.5 -2.5 -2.5
0.7 0.5 -0.6 -1.7 -2.5 -2.5 -2.5 -2.5 -2.5 -2.5 -2.5 -2.5 -2.5 -2.5 -2.5 -2.5 -2.5 -2.5 -2.5 -2.2 -2 -1.7 -1.5 -1.2 -1 -0.7 -0.5 -0.2 0 0.2 0.3 0.3 0.3 0.3 0.3 0.3 0.4 0.4 0.4 0.5 0.5 0.5 0.6 0.6 0.6 0.7 0.7 0.7 0.7 0.7 0.7 0.7 0.7 0.7 0.7 0.6 0.6 0.5 0.5 0.4 0.4 0.3 0.3 0.2 0.2 0.1 0.1 0 0 -0.1 -0.1 -0.2 -0.2 -0.1 -0.1 -0.1 -0.1 -0.1 -0.1 -0.1 -0.1 -0.1 -0.1 -0.1 -0.1 -0.3 -1.3 -2.3 -2.5 0.1 0.2 0.2 0.2 0.2 0.3 0.4 0.4 0.5 0.6 0.7 0.8 0.8 1 1.1 1.2 1.3 1.4 1.5 1.5 1.6 1.7 1.7 1.7 1.8 1.8 1.8 1.8 1.8 1.8 1.8 1.8 1.9 1.9 1.9 1.9 1.9 1.9 1.9 2.1 2.2 2.4 2.5 2.6 2.8 2.9 3.1 3.2 3.4 3.5 3.3 3.1 2.9 2.8 2.8 2.7 2.6 2.5 2.3 2 2 1.8 1.8 1.5 1 0.3 -0.3 -0.7 -1.6 -2.5 -2.5 -2.5 -2.5 -2.5 -2.5 -2.5 -2.5 -2.5 -2.5 -2.5 -2.5 -2.5 -2.5 -2.5 -2.5 -2.5 -2.5 -2.5 -2.5 -2.5 -2.5 -2.5 -2.5 -2.5 -2.5 -2.5 -2.5 -2.5 -2.5 -2.5 -2.5 -2.5 -2.5 -2.5 -2.5 -2.5 -2.5 -2.5 -2.5 -2.5 -2.5
0.5 0.7 -0.4 -1.5 -2.5 -2.5 -2.5 -2.5 -2.5 -2.5 -2.5 -2.5 -2.5 -2.5 -2.5 -2.5 -2.5 -2.5 -2.5 -2.3 -2.1 -1.8 -1.6 -1.3 -1.1 -0.9 -0.6 -0.4 -0.1 0.1 0.1 0.1 0.1 0.1 0.2 0.2 0.2 0.2 0.3 0.3 0.3 0.4 0.4 0.4 0.5 0.5 0.5 0.6 0.6 0.5 0.5 0.5 0.5 0.5 0.5 0.5 0.4 0.4 0.3 0.3 0.2 0.2 0.1 0.1 0 0 -0.1 -0.1 -0.2 -0.2 -0.3 -0.3 -0.4 -0.3 -0.3 -0.3 -0.3 -0.3 -0.3 -0.3 -0.3 -0.3 -0.3 -0.3 -0.3 -0.5 -1.5 -2.5 -2.5 -0.1 0 0 0 0 0.1 0.2 0.2 0.3 0.4 0.5 0.6 0.7 0.8 1 1.1 1.1 1.2 1.3 1.4 1.5 1.5 1.5 1.6 1.6 1.6 1.6 1.6 1.6 1.6 1.6 1.7 1.7 1.7 1.7 1.7 1.7 1.7 1.7 1.8 2 2.1 2.3 2.4 2.5 2.7 2.8 3 3.1 3.2 3 2.8 2.6 2.4 2.4 2.3 2.2 2 1.8 1.6 1.4 1.4 1.2 1 0.5 -0.1 -0.8 -1.5 -2.5 -2.5 -2.5 -2.5 -2.5 -2.5 -2.5 -2.5 -2.5 -2.5 -2.5 -2.5 -2.5 -2.5 -2.5 -2.5 -2.5 -2.5 -2.5 -2.5 -2.5 -2.5 -2.5 -2.5 -2.5 -2.5 -2.5 -2.5 -2.5 -2.5 -2.5 -2.5 -2.5 -2.5 -2.5 -2.5 -2.5 -2.5 -2.5 -2.5 -2.5 -2.5 -2.5
0.3 0.5 -0.2 -1.4 -2.5 -2.5 -2.5 -2.5 -2.5 -2.5 -2.5 -2.5 -2.5 -2.5 -2.5 -2.5 -2.5 -2.5 -2.5 -2.5 -2.2 -2 -1.7 -1.5 -1.2 -1 -0.7 -0.5 -0.2 -0.1 -0.1 -0.1 -0.1 0 0 0 0 0.1 0.1 0.1 0.2 0.2 0.2 0.3 0.3 0.3 0.4 0.4 0.4 0.4 0.4 0.4 0.4 0.4 0.3 0.3 0.2 0.2 0.1 0.1 0 0 -0.1 -0.1 -0.2 -0.2 -0.3 -0.3 -0.4 -0.4 -0.5 -0.5 -0.6 -0.5 -0.5 -0.5 -0.5 -0.5 -0.5 -0.5 -0.5 -0.5 -0.5 -0.5 -0.5 -0.7 -1.7 -2.5 -1.7 -0.3 -0.2 -0.2 -0.2 -0.2 -0.1 0 0 0.1 0.2 0.3 0.4 0.6 0.7 0.8 0.9 1 1.1 1.1 1.2 1.3 1.3 1.4 1.4 1.4 1.4 1.4 1.4 1.4 1.4 1.5 1.5 1.5 1.5 1.5 1.5 1.5 1.5 1.6 1.6 1.7 1.9 2 2.2 2.3 2.4 2.6 2.7 2.9 3 2.8 2.6 2.3 2.1 2 2 1.8 1.7 1.5 1.2 0.9 0.8 0.6 0.5 0 -0.5 -1.2 -1.9 -2.5 -2.5 -2.5 -2.5 -2.5 -2.5 -2.5 -2.5 -2.5 -2.5 -2.5 -2.5 -2.5 -2.5 -2.5 -2.5 -2.5 -2.5 -2.5 -2.5 -2.5 -2.5 -2.5 -2.5 -2.5 -2.5 -2.5 -2.5 -2.5 -2.5 -2.5 -2.5 -2.5 -2.5 -2.5 -2.5 -2.5 -2.5 -2.5 -2.5 -2.5 -2.5 -2.5
0.2 0.3 -0.1 -1.2 -2.3 -2.5 -2.5 -2.5 -2.5 -2.5 -2.5 -2.5 -2.5 -2.5 -2.5 -2.5 -2.5 -2.5 -2.5 -2.5 -2.3 -2.1 -1.8 -1.6 -1.3 -1.1 -0.9 -0.6 -0.4 -0.3 -0.3 -0.3 -0.2 -0.2 -0.2 -0.1 -0.1 -0.1 -0.1 0 0 0 0.1 0.1 0.1 0.2 0.2 0.2 0.2 0.2 0.2 0.2 0.2 0.2 0.2 0.1 0.1 0 0 -0.1 -0.1 -0.2 -0.2 -0.3 -0.3 -0.4 -0.4 -0.5 -0.5 -0.6 -0.6 -0.7 -0.7 -0.8 -0.7 -0.7 -0.7 -0.7 -0.7 -0.7 -0.7 -0.7 -0.7 -0.7 -0.7 -1 -1.9 -2.5 -0.6 -0.5 -0.4 -0.4 -0.4 -0.3 -0.3 -0.2 -0.1 0 0.1 0.1 0.3 0.4 0.6 0.7 0.7 0.8 0.9 1 1.1 1.1 1.2 1.2 1.2 1.2 1.2 1.2 1.2 1.2 1.3 1.3 1.3 1.3 1.3 1.3 1.3 1.3 1.4 1.4 1.4 1.5 1.6 1.8 1.9 2.1 2.2 2.3 2.5 2.6 2.7 2.5 2.3 2 1.8 1.6 1.5 1.4 1.3 1 0.8 0.5 0.2 0.1 -0.1 -0.5 -1 -1.6 -2.5 -2.5 -2.5 -2.5 -2.5 -2.5 -2.5 -2.5 -2.5 -2.5 -2.5 -2.5 -2.5 -2.5 -2.5 -2.5 -2.5 -2.5 -2.5 -2.5 -2.5 -2.5 -2.5 -2.5 -2.5 -2.5 -2.5 -2.5 -2.5 -2.5 -2.5 -2.5 -2.5 -2.5 -2.5 -2.5 -2.5 -2.5 -2.5 -2.5 -2.5 -2.5 -2.5 -2.5
0.1 0.1 0.1 -1 -2.1 -2.5 -2.5 -2.5 -2.5 -2.5 -2.5 -2.5 -2.5 -2.5 -2.5 -2.5 -2.5 -2.5 -2.5 -2.5 -2.4 -2.2 -2 -1.7 -1.5 -1.2 -1 -0.7 -0.5 -0.5 -0.4 -0.4 -0.4 -0.4 -0.3 -0.3 -0.3 -0.3 -0.2 -0.2 -0.2 -0.1 -0.1 -0.1 0 0 0 0.1 0.1 0.1 0 0 0 0 0 -0.1 -0.1 -0.2 -0.2 -0.3 -0.3 -0.4 -0.4 -0.5 -0.5 -0.6 -0.6 -0.7 -0.7 -0.8 -0.8 -0.9 -0.9 -1 -0.9 -0.9 -0.9 -0.9 -0.9 -0.9 -0.9 -0.9 -0.9 -0.9 -0.9 -1.2 -2.1 -2.5 -0.8 -0.7 -0.6 -0.6 -0.6 -0.5 -0.5 -0.4 -0.3 -0.2 -0.1 0 0.1 0.3 0.4 0.5 0.6 0.7 0.8 0.8 0.9 1 1 1 1 1 1 1 1 1.1 1.1 1.1 1.1 1.1 1.1 1.1 1.1 1.2 1.2 1.2 1.2 1.2 1.4 1.5 1.7 1.8 2 2.1 2.2 2.4 2.4 2.2 2 1.8 1.5 1.3 1.1 1.1 0.9 0.7 0.5 0.1 -0.2 -0.4 -0.7 -1 -1.5 -2.1 -2.5 -2.5 -2.5 -2.5 -2.5 -2.5 -2.5 -2.5 -2.5 -2.5 -2.5 -2.5 -2.5 -2.5 -2.5 -2.5 -2.5 -2.5 -2.5 -2.5 -2.5 -2.5 -2.5 -2.5 -2.5 -2.5 -2.5 -2.5 -2.5 -2.5 -2.5 -2.5 -2.5 -2.5 -2.5 -2.5 -2.5 -2.5 -2.5 -2.5 -2.5 -2.5 -2.5 -2.5
0 -0.1 0.1 -0.8 -1.9 -2.5 -2.5 -2.5 -2.5 -2.5 -2.5 -2.5 -2.5 -2.5 -2.5 -2.5 -2.5 -2.5 -2.5 -2.5 -2.5 -2.3 -2.1 -1.8 -1.6 -1.3 -1.1 -0.9 -0.7 -0.6 -0.6 -0.6 -0.6 -0.5 -0.5 -0.5 -0.5 -0.4 -0.4 -0.4 -0.3 -0.3 -0.3 -0.2 -0.2 -0.2 -0.1 -0.1 -0.1 -0.1 -0.1 -0.1 -0.1 -0.1 -0.2 -0.2 -0.3 -0.3 -0.4 -0.4 -0.5 -0.5 -0.6 -0.6 -0.7 -0.7 -0.8 -0.8 -0.9 -0.9 -1 -1 -1.1 -1.1 -1.1 -1.1 -1.1 -1.1 -1.1 -1.1 -1.1 -1.1 -1.1 -1.1 -1.1 -1.4 -2.4 -2.5 -1 -0.9 -0.9 -0.8 -0.8 -0.7 -0.6 -0.6 -0.5 -0.4 -0.3 -0.1 0 0.1 0.2 0.3 0.4 0.5 0.6 0.7 0.8 0.8 0.8 0.8 0.8 0.8 0.8 0.8 0.9 0.9 0.9 0.9 0.9 0.9 0.9 0.9 1 1 1 1 1 1 1.1 1.3 1.4 1.6 1.7 1.9 2 2.1 2.2 1.9 1.7 1.5 1.2 1 0.7 0.7 0.5 0.4 0 -0.2 -0.5 -1 -1.2 -1.5 -2 -2.5 -2.5 -2.5 -2.5 -2.5 -2.5 -2.5 -2.5 -2.5 -2.5 -2.5 -2.5 -2.5 -2.5 -2.5 -2.5 -2.5 -2.5 -2.5 -2.5 -2.5 -2.5 -2.5 -2.5 -2.5 -2.5 -2.5 -2.5 -2.5 -2.5 -2.5 -2.5 -2.5 -2.5 -2.5 -2.5 -2.5 -2.5 -2.5 -2.5 -2.5 -2.5 -2.5 -2.5 -2.5
-0.1 -0.2 -0.1 -0.6 -1.7 -2.5 -2.5 -2.5 -2.5 -2.5 -2.5 -2.5 -2.5 -2.5 -2.5 -2.5 -2.5 -2.5 -2.5 -2.5 -2.5 -2.4 -2.2 -2 -1.7 -1.5 -1.2 -1 -0.8 -0.8 -0.8 -0.8 -0.7 -0.7 -0.7 -0.6 -0.6 -0.6 -0.6 -0.5 -0.5 -0.5 -0.4 -0.4 -0.4 -0.3 -0.3 -0.3 -0.2 -0.3 -0.3 -0.3 -0.3 -0.3 -0.3 -0.4 -0.4 -0.5 -0.5 -0.6 -0.6 -0.7 -0.7 -0.8 -0.8 -0.9 -0.9 -1 -1 -1.1 -1.1 -1.2 -1.3 -1.3 -1.3 -1.3 -1.3 -1.3 -1.3 -1.3 -1.3 -1.3 -1.3 -1.3 -1.3 -1.6 -2.5 -2.5 -1.2 -1.1 -1.1 -1 -1 -0.9 -0.8 -0.7 -0.6 -0.6 -0.4 -0.3 -0.1 0 0.1 0.2 0.3 0.4 0.5 0.6 0.6 0.6 0.6 0.6 0.6 0.6 0.6 0.7 0.7 0.7 0.7 0.7 0.7 0.7 0.7 0.8 0.8 0.8 0.8 0.8 0.8 0.8 0.9 1 1.2 1.3 1.5 1.6 1.8 1.9 1.9 1.7 1.4 1.2 1 0.7 0.5 0.3 0.2 -0.1 -0.3 -0.5 -0.9 -1.3 -1.6 -2 -2.5 -2.5 -2.5 -2.5 -2.5 -2.5 -2.5 -2.5 -2.5 -2.5 -2.5 -2.5 -2.5 -2.5 -2.5 -2.5 -2.5 -2.5 -2.5 -2.5 -2.5 -2.5 -2.5 -2.5 -2.5 -2.5 -2.5 -2.5 -2.5 -2.5 -2.5 -2.5 -2.5 -2.5 -2.5 -2.5 -2.5 -2.5 -2.5 -2.5 -2.5 -2.5 -2.5 -2.5 -2.5 -2.5
-0.2 -0.3 -0.3 -0.4 -1.5 -2.5 -2.5 -2.5 -2.5 -2.5 -2.5 -2.5 -2.5 -2.5 -2.5 -2.5 -2.5 -2.5 -2.5 -2.5 -2.5 -2.5 -2.3 -2.1 -1.8 -1.6 -1.3 -1.1 -1 -1 -1 -0.9 -0.9 -0.9 -0.8 -0.8 -0.8 -0.8 -0.7 -0.7 -0.7 -0.6 -0.6 -0.6 -0.5 -0.5 -0.5 -0.4 -0.4 -0.4 -0.4 -0.4 -0.4 -0.5 -0.5 -0.6 -0.6 -0.7 -0.7 -0.8 -0.8 -0.9 -0.9 -1 -1 -1.1 -1.1 -1.2 -1.2 -1.3 -1.3 -1.4 -1.4 -1.5 -1.5 -1.5 -1.5 -1.5 -1.5 -1.5 -1.5 -1.5 -1.5 -1.5 -1.5 -1.8 -2.5 -2.5 -1.4 -1.3 -1.3 -1.2 -1.2 -1.1 -1 -0.9 -0.8 -0.7 -0.6 -0.4 -0.3 -0.2 -0.1 0 0.1 0.2 0.4 0.4 0.4 0.4 0.4 0.4 0.4 0.4 0.5 0.5 0.5 0.5 0.5 0.5 0.5 0.5 0.6 0.6 0.6 0.6 0.6 0.6 0.6 0.6 0.7 0.8 0.9 1.1 1.2 1.4 1.5 1.7 1.6 1.4 1.2 1 0.7 0.5 0.2 -0.1 -0.2 -0.4 -0.6 -1 -1.3 -1.6 -2 -2.5 -2.5 -2.5 -2.5 -2.5 -2.5 -2.5 -2.5 -2.5 -2.5 -2.5 -2.5 -2.5 -2.5 -2.5 -2.5 -2.5 -2.5 -2.5 -2.5 -2.5 -2.5 -2.5 -2.5 -2.5 -2.5 -2.5 -2.5 -2.5 -2.5 -2.5 -2.5 -2.5 -2.5 -2.5 -2.5 -2.5 -2.5 -2.5 -2.5 -2.5 -2.5 -2.5 -2.5 -2.5 -2.5 -2.5
-0.2 -0.4 -0.5 -0.3 -1.3 -2.4 -2.5 -2.5 -2.5 -2.5 -2.5 -2.5 -2.5 -2.5 -2.5 -2.5 -2.5 -2.5 -2.5 -2.5 -2.5 -2.5 -2.4 -2.2 -2 -1.7 -1.5 -1.2 -1.2 -1.2 -1.1 -1.1 -1.1 -1 -1 -1 -0.9 -0.9 -0.9 -0.9 -0.8 -0.8 -0.8 -0.7 -0.7 -0.7 -0.6 -0.6 -0.6 -0.6 -0.6 -0.6 -0.6 -0.6 -0.7 -0.7 -0.8 -0.8 -0.9 -0.9 -1 -1 -1.1 -1.1 -1.2 -1.2 -1.3 -1.3 -1.4 -1.4 -1.5 -1.5 -1.6 -1.6 -1.7 -1.7 -1.7 -1.7 -1.7 -1.7 -1.7 -1.7 -1.7 -1.7 -1.7 -2 -2.5 -1.6 -1.6 -1.5 -1.5 -1.4 -1.4 -1.3 -1.2 -1.1 -1 -0.8 -0.7 -0.6 -0.4 -0.3 -0.2 -0.2 0 0.1 0.2 0.2 0.2 0.2 0.2 0.2 0.2 0.3 0.3 0.3 0.3 0.3 0.3 0.3 0.3 0.4 0.4 0.4 0.4 0.4 0.4 0.4 0.4 0.5 0.5 0.6 0.7 0.8 1 1.1 1.3 1.4 1.4 1.1 0.9 0.7 0.4 0.2 -0.1 -0.4 -0.6 -0.7 -1 -1.3 -1.6 -2 -2.5 -2.5 -2.5 -2.5 -2.5 -2.5 -2.5 -2.5 -2.5 -2.5 -2.5 -2.5 -2.5 -2.5 -2.5 -2.5 -2.5 -2.5 -2.5 -2.5 -2.5 -2.5 -2.5 -2.5 -2.5 -2.5 -2.5 -2.5 -2.5 -2.5 -2.5 -2.5 -2.5 -2.5 -2.5 -2.5 -2.5 -2.5 -2.5 -2.5 -2.5 -2.5 -2.5 -2.5 -2.5 -2.5 -2.5 -2.5
-0.3 -0.5 -0.6 -0.5 -1.1 -2.3 -2.5 -2.5 -2.5 -2.5 -2.5 -2.5 -2.5 -2.5 -2.5 -2.5 -2.5 -2.5 -2.5 -2.5 -2.5 -2.5 -2.5 -2.3 -2.1 -1.8 -1.6 -1.4 -1.4 -1.3 -1.3 -1.3 -1.2 -1.2 -1.2 -1.1 -1.1 -1.1 -1.1 -1 -1 -1 -0.9 -0.9 -0.9 -0.8 -0.8 -0.8 -0.7 -0.7 -0.8 -0.8 -0.8 -0.8 -0.9 -0.9 -1 -1 -1.1 -1.1 -1.2 -1.2 -1.3 -1.3 -1.4 -1.4 -1.5 -1.5 -1.6 -1.6 -1.7 -1.7 -1.8 -1.8 -1.9 -1.9 -1.9 -1.9 -1.9 -1.9 -1.9 -1.9 -1.9 -1.9 -1.9 -2.2 -2.5 -1.8 -1.8 -1.7 -1.7 -1.6 -1.5 -1.4 -1.4 -1.3 -1.1 -1 -0.8 -0.7 -0.6 -0.5 -0.4 -0.3 -0.2 0 0 0 0 0 0 0 0.1 0.1 0.1 0.1 0.1 0.1 0.1 0.1 0.2 0.2 0.2 0.2 0.2 0.2 0.2 0.2 0.3 0.3 0.3 0.3 0.5 0.6 0.7 0.9 1 1.2 1.1 0.8 0.6 0.4 0.2 -0.1 -0.3 -0.6 -0.9 -1 -1.3 -1.6 -1.9 -2.5 -2.5 -2.5 -2.5 -2.5 -2.5 -2.5 -2.5 -2.5 -2.5 -2.5 -2.5 -2.5 -2.5 -2.5 -2.5 -2.5 -2.5 -2.5 -2.5 -2.5 -2.5 -2.5 -2.5 -2.5 -2.5 -2.5 -2.5 -2.5 -2.5 -2.5 -2.5 -2.5 -2.5 -2.5 -2.5 -2.5 -2.5 -2.5 -2.5 -2.5 -2.5 -2.5 -2.5 -2.5 -2.5 -2.5 -2.5 -2.5
-0.4 -0.5 -0.7 -0.7 -0.9 -2.1 -2.5 -2.5 -2.5 -2.5 -2.5 -2.5 -2.5 -2.5 -2.5 -2.5 -2.5 -2.5 -2.5 -2.5 -2.5 -2.5 -2.5 -2.4 -2.2 -1.9 -1.7 -1.5 -1.5 -1.5 -1.5 -1.4 -1.4 -1.4 -1.3 -1.3 -1.3 -1.2 -1.2 -1.2 -1.2 -1.1 -1.1 -1.1 -1 -1 -1 -0.9 -0.9 -0.9 -0.9 -0.9 -0.9 -1 -1 -1.1 -1.1 -1.2 -1.2 -1.3 -1.3 -1.4 -1.4 -1.5 -1.5 -1.6 -1.6 -1.7 -1.7 -1.8 -1.8 -1.9 -1.9 -2 -2 -2.1 -2.1 -2.1 -2.1 -2.1 -2.1 -2.1 -2.1 -2.1 -2.1 -2.4 -2.5 -2 -2 -1.9 -1.9 -1.8 -1.7 -1.6 -1.5 -1.4 -1.3 -1.1 -1 -0.8 -0.7 -0.6 -0.5 -0.4 -0.3 -0.2 -0.2 -0.2 -0.2 -0.2 -0.2 -0.2 -0.1 -0.1 -0.1 -0.1 -0.1 -0.1 -0.1 0 0 0 0 0 0 0 0 0.1 0.1 0.1 0.1 0.1 0.2 0.4 0.5 0.6 0.8 0.9 0.8 0.6 0.4 0.1 -0.1 -0.4 -0.6 -0.9 -1.2 -1.4 -1.6 -1.9 -2.5 -2.5 -2.5 -2.5 -2.5 -2.5 -2.5 -2.5 -2.5 -2.5 -2.5 -2.5 -2.5 -2.5 -2.5 -2.5 -2.5 -2.5 -2.5 -2.5 -2.5 -2.5 -2.5 -2.5 -2.5 -2.5 -2.5 -2.5 -2.5 -2.5 -2.5 -2.5 -2.5 -2.5 -2.5 -2.5 -2.5 -2.5 -2.5 -2.5 -2.5 -2.5 -2.5 -2.5 -2.5 -2.5 -2.5 -2.5 -2.5 -2.5
-0.5 -0.6 -0.8 -0.9 -0.8 -1.9 -2.5 -2.5 -2.5 -2.5 -2.5 -2.5 -2.5 -2.5 -2.5 -2.5 -2.5 -2.5 -2.5 -2.5 -2.5 -2.5 -2.5 -2.5 -2.3 -2.1 -1.8 -1.7 -1.7 -1.7 -1.6 -1.6 -1.6 -1.5 -1.5 -1.5 -1.4 -1.4 -1.4 -1.4 -1.3 -1.3 -1.3 -1.2 -1.2 -1.2 -1.1 -1.1 -1.1 -1.1 -1.1 -1.1 -1.1 -1.2 -1.2 -1.3 -1.3 -1.4 -1.4 -1.5 -1.5 -1.6 -1.6 -1.7 -1.7 -1.8 -1.8 -1.9 -1.9 -2 -2 -2.1 -2.1 -2.2 -2.2 -2.3 -2.3 -2.3 -2.3 -2.3 -2.3 -2.3 -2.3 -2.3 -2.3 -2.5 -2.5 -2.2 -2.2 -2.1 -2.1 -2 -1.9 -1.8 -1.7 -1.5 -1.4 -1.2 -1.1 -1 -0.9 -0.8 -0.7 -0.6 -0.4 -0.4 -0.4 -0.4 -0.4 -0.4 -0.4 -0.3 -0.3 -0.3 -0.3 -0.3 -0.3 -0.3 -0.2 -0.2 -0.2 -0.2 -0.2 -0.2 -0.2 -0.2 -0.1 -0.1 -0.1 -0.1 -0.1 -0.1 0 0.1 0.3 0.4 0.5 0.7 0.6 0.3 0.1 -0.2 -0.4 -0.6 -0.9 -1.1 -1.4 -1.7 -1.9 -2.5 -2.5 -2.5 -2.5 -2.5 -2.5 -2.5 -2.5 -2.5 -2.5 -2.5 -2.5 -2.5 -2.5 -2.5 -2.5 -2.5 -2.5 -2.5 -2.5 -2.5 -2.5 -2.5 -2.5 -2.5 -2.5 -2.5 -2.5 -2.5 -2.5 -2.5 -2.5 -2.5 -2.5 -2.5 -2.5 -2.5 -2.5 -2.5 -2.5 -2.5 -2.5 -2.5 -2.5 -2.5 -2.5 -2.5 -2.5 -2.5 -2.5 -2.5
-0.6 -0.7 -0.8 -1 -0.9 -1.7 -2.5 -2.5 -2.5 -2.5 -2.5 -2.5 -2.5 -2.5 -2.5 -2.5 -2.5 -2.5 -2.5 -2.5 -2.5 -2.5 -2.5 -2.5 -2.4 -2.2 -1.9 -1.9 -1.9 -1.8 -1.8 -1.8 -1.7 -1.7 -1.7 -1.6 -1.6 -1.6 -1.5 -1.5 -1.5 -1.5 -1.4 -1.4 -1.4 -1.3 -1.3 -1.3 -1.2 -1.2 -1.2 -1.2 -1.3 -1.3 -1.4 -1.4 -1.5 -1.5 -1.6 -1.6 -1.7 -1.7 -1.8 -1.8 -1.9 -1.9 -2 -2 -2.1 -2.1 -2.2 -2.2 -2.3 -2.3 -2.4 -2.4 -2.5 -2.5 -2.5 -2.5 -2.5 -2.5 -2.5 -2.5 -2.5 -2.5 -2.5 -2.5 -2.4 -2.3 -2.2 -2.2 -2.1 -2 -1.8 -1.7 -1.5 -1.4 -1.3 -1.2 -1 -0.9 -0.8 -0.7 -0.6 -0.6 -0.6 -0.6 -0.6 -0.6 -0.5 -0.5 -0.5 -0.5 -0.5 -0.5 -0.5 -0.5 -0.4 -0.4 -0.4 -0.4 -0.4 -0.4 -0.4 -0.3 -0.3 -0.3 -0.3 -0.3 -0.3 -0.3 -0.3 -0.1 0 0.2 0.3 0.4 0.3 0 -0.2 -0.4 -0.7 -0.9 -1.2 -1.4 -1.7 -2 -2.3 -2.5 -2.5 -2.5 -2.5 -2.5 -2.5 -2.5 -2.5 -2.5 -2.5 -2.5 -2.5 -2.5 -2.5 -2.5 -2.5 -2.5 -2.5 -2.5 -2.5 -2.5 -2.5 -2.5 -2.5 -2.5 -2.5 -2.5 -2.5 -2.5 -2.5 -2.5 -2.5 -2.5 -2.5 -2.5 -2.5 -2.5 -2.5 -2.5 -2.5 -2.5 -2.5 -2.5 -2.5 -2.5 -2.5 -2.5 -2.5 -2.5 -2.5 -2.5
0.9 -0.8 -0.9 -1.1 -1.1 -1.5 -2.5 -2.5 -2.5 -2.5 -2.5 -2.5 -2.5 -2.5 -2.5 -2.5 -2.5 -2.5 -2.5 -2.5 -2.5 -2.5 -2.5 -2.5 -2.5 -2.3 -2.1 -2.1 -2 -2 -2 -1.9 -1.9 -1.9 -1.8 -1.8 -1.8 -1.7 -1.7 -1.7 -1.7 -1.6 -1.6 -1.6 -1.5 -1.5 -1.5 -1.4 -1.4 -1.4 -1.4 -1.4 -1.4 -1.5 -1.5 -1.6 -1.6 -1.7 -1.7 -1.8 -1.8 -1.9 -1.9 -2 -2.1 -2.1 -2.2 -2.2 -2.3 -2.3 -2.4 -2.4 -2.5 -2.5 -2.5 -2.5 -2.5 -2.5 -2.5 -2.5 -2.5 -2.5 -2.5 -2.5 -2.5 -2.5 -2.5 -2.5 -2.5 -2.5 -2.5 -2.3 -2.2 -2.1 -2 -1.8 -1.7 -1.5 -1.4 -1.3 -1.2 -1.1 -0.9 -0.8 -0.8 -0.8 -0.8 -0.8 -0.8 -0.7 -0.7 -0.7 -0.7 -0.7 -0.7 -0.7 -0.7 -0.6 -0.6 -0.6 -0.6 -0.6 -0.6 -0.6 -0.5 -0.5 -0.5 -0.5 -0.5 -0.5 -0.5 -0.5 -0.5 -0.4 -0.2 -0.1 0.1 0.2 0 -0.2 -0.5 -0.7 -0.9 -1.2 -1.4 -1.7 -1.9 -2.2 -2.5 -2.5 -2.5 -2.5 -2.5 -2.5 -2.5 -2.5 -2.5 -2.5 -2.5 -2.5 -2.5 -2.5 -2.5 -2.5 -2.5 -2.5 -2.5 -2.5 -2.5 -2.5 -2.5 -2.5 -2.5 -2.5 -2.5 -2.5 -2.5 -2.5 -2.5 -2.5 -2.5 -2.5 -2.5 -2.5 -2.5 -2.5 -2.5 -2.5 -2.5 -2.5 -2.5 -2.5 -2.5 -2.5 -2.5 -2.5 -2.5 -2.5 -2.5 -2.5
2.4 -0.9 -1 -1.1 -1.3 -1.3 -2.4 -2.5 -2.5 -2.5 -2.5 -2.5 -2.5 -2.5 -2.5 -2.5 -2.5 -2.5 -2.5 -2.5 -2.5 -2.5 -2.5 -2.5 -2.5 -2.4 -2.3 -2.2 -2.2 -2.2 -2.1 -2.1 -2.1 -2 -2 -2 -1.9 -1.9 -1.9 -1.9 -1.8 -1.8 -1.8 -1.7 -1.7 -1.7 -1.6 -1.6 -1.6 -1.5 -1.6 -1.6 -1.6 -1.7 -1.7 -1.8 -1.8 -1.9 -1.9 -2 -2 -2.1 -2.1 -2.2 -2.2 -2.3 -2.3 -2.4 -2.4 -2.5 -2.5 -2.5 -2.5 -2.5 -2.5 -2.5 -2.5 -2.5 -2.5 -2.5 -2.5 -2.5 -2.5 -2.5 -2.5 -2.5 -2.5 -2.5 -2.5 -2.5 -2.5 -2.5 -2.4 -2.2 -2.1 -1.9 -1.8 -1.7 -1.6 -1.4 -1.3 -1.2 -1 -1 -1 -1 -1 -1 -0.9 -0.9 -0.9 -0.9 -0.9 -0.9 -0.9 -0.9 -0.8 -0.8 -0.8 -0.8 -0.8 -0.8 -0.8 -0.8 -0.7 -0.7 -0.7 -0.7 -0.7 -0.7 -0.7 -0.6 -0.6 -0.6 -0.5 -0.3 -0.2 0 -0.2 -0.5 -0.7 -1 -1.2 -1.4 -1.7 -1.9 -2.2 -2.5 -2.5 -2.5 -2.5 -2.5 -2.5 -2.5 -2.5 -2.5 -2.5 -2.5 -2.5 -2.5 -2.5 -2.5 -2.5 -2.5 -2.5 -2.5 -2.5 -2.5 -2.5 -2.5 -2.5 -2.5 -2.5 -2.5 -2.5 -2.5 -2.5 -2.5 -2.5 -2.5 -2.5 -2.5 -2.5 -2.5 -2.5 -2.5 -2.5 -2.5 -2.5 -2.5 -2.5 -2.5 -2.5 -2.5 -2.5 -2.5 -2.5 -2.5 -2.5 -2.5
2.2 -0.9 -1.1 -1.2 -1.3 -1.3 -2.2 -2.5 -2.5 -2.5 -2.5 -2.5 -2.5 -2.5 -2.5 -2.5 -2.5 -2.5 -2.5 -2.5 -2.5 -2.5 -2.5 -2.5 -2.5 -2.5 -2.5 -2.4 -2.4 -2.3 -2.3 -2.3 -2.2 -2.2 -2.2 -2.1 -2.1 -2.1 -2 -2 -2 -2 -1.9 -1.9 -1.9 -1.8 -1.8 -1.8 -1.7 -1.7 -1.7 -1.7 -1.8 -1.8 -1.9 -1.9 -2 -2 -2.1 -2.1 -2.2 -2.2 -2.3 -2.3 -2.4 -2.4 -2.5 -2.5 -2.5 -2.5 -2.5 -2.5 -2.5 -2.5 -2.5 -2.5 -2.5 -2.5 -2.5 -2.5 -2.5 -2.5 -2.5 -2.5 -2.5 -2.5 -2.5 -2.5 -2.5 -2.5 -2.5 -2.5 -2.5 -2.4 -2.2 -2.1 -1.9 -1.8 -1.7 -1.6 -1.4 -1.3 -1.2 -1.2 -1.2 -1.2 -1.2 -1.1 -1.1 -1.1 -1.1 -1.1 -1.1 -1.1 -1.1 -1 -1 -1 -1 -1 -1 -1 -1 -0.9 -0.9 -0.9 -0.9 -0.9 -0.9 -0.9 -0.8 -0.8 -0.8 -0.8 -0.7 -0.6 -0.4 -0.3 -0.5 -0.8 -1 -1.2 -1.5 -1.7 -2 -2.2 -2.5 -2.5 -2.5 -2.5 -2.5 -2.5 -2.5 -2.5 -2.5 -2.5 -2.5 -2.5 -2.5 -2.5 -2.5 -2.5 -2.5 -2.5 -2.5 -2.5 -2.5 -2.5 -2.5 -2.5 -2.5 -2.5 -2.5 -2.5 -2.5 -2.5 -2.5 -2.5 -2.5 -2.5 -2.5 -2.5 -2.5 -2.5 -2.5 -2.5 -2.5 -2.5 -2.5 -2.5 -2.5 -2.5 -2.5 -2.5 -2.5 -2.5 -2.5 -2.5 -2.5 -2.5
2 -1 -1.2 -1.3 -1.4 -1.5 -2 -2.5 -2.5 -2.5 -2.5 -2.5 -2.5 -2.5 -2.5 -2.5 -2.5 -2.5 -2.5 -2.5 -2.5 -2.5 -2.5 -2.5 -2.5 -2.5 -2.5 -2.5 -2.5 -2.5 -2.5 -2.4 -2.4 -2.4 -2.3 -2.3 -2.3 -2.2 -2.2 -2.2 -2.2 -2.1 -2.1 -2.1 -2 -2 -2 -1.9 -1.9 -1.9 -1.9 -1.9 -2 -2 -2.1 -2.1 -2.2 -2.2 -2.3 -2.3 -2.4 -2.4 -2.5 -2.5 -2.5 -2.5 -2.5 -2.5 -2.5 -2.5 -2.5 -2.5 -2.5 -2.5 -2.5 -2.5 -2.5 -2.5 -2.5 -2.5 -2.5 -2.5 -2.5 -2.5 -2.5 -2.5 -2.5 -2.5 -2.5 -2.5 -2.5 -2.5 -2.5 -2.5 -2.4 -2.2 -2.1 -2 -1.8 -1.7 -1.6 -1.4 -1.4 -1.4 -1.4 -1.4 -1.3 -1.3 -1.3 -1.3 -1.3 -1.3 -1.3 -1.3 -1.2 -1.2 -1.2 -1.2 -1.2 -1.2 -1.2 -1.2 -1.1 -1.1 -1.1 -1.1 -1.1 -1.1 -1.1 -1.1 -1 -1 -1 -1 -1 -0.8 -0.7 -0.5 -0.8 -1 -1.3 -1.5 -1.7 -2 -2.2 -2.5 -2.5 -2.5 -2.5 -2.5 -2.5 -2.5 -2.5 -2.5 -2.5 -2.5 -2.5 -2.5 -2.5 -2.5 -2.5 -2.5 -2.5 -2.5 -2.5 -2.5 -2.5 -2.5 -2.5 -2.5 -2.5 -2.5 -2.5 -2.5 -2.5 -2.5 -2.5 -2.5 -2.5 -2.5 -2.5 -2.5 -2.5 -2.5 -2.5 -2.5 -2.5 -2.5 -2.5 -2.5 -2.5 -2.5 -2.5 -2.5 -2.5 -2.5 -2.5 -2.5 -2.5 -2.5
1.8 0.6 -1.2 -1.4 -1.5 -1.6 -1.8 -2.5 -2.5 -2.5 -2.5 -2.5 -2.5 -2.5 -2.5 -2.5 -2.5 -2.5 -2.5 -2.5 -2.5 -2.5 -2.5 -2.5 -2.5 -2.5 -2.5 -2.5 -2.5 -2.5 -2.5 -2.5 -2.5 -2.5 -2.5 -2.5 -2.4 -2.4 -2.4 -2.3 -2.3 -2.3 -2.3 -2.2 -2.2 -2.2 -2.1 -2.1 -2.1 -2 -2 -2.1 -2.1 -2.2 -2.2 -2.3 -2.3 -2.4 -2.4 -2.5 -2.5 -2.5 -2.5 -2.5 -2.5 -2.5 -2.5 -2.5 -2.5 -2.5 -2.5 -2.5 -2.5 -2.5 -2.5 -2.5 -2.5 -2.5 -2.5 -2.5 -2.5 -2.5 -2.5 -2.5 -2.5 -2.5 -2.5 -2.5 -2.5 -2.5 -2.5 -2.5 -2.5 -2.5 -2.5 -2.4 -2.2 -2.1 -2 -1.8 -1.7 -1.6 -1.6 -1.6 -1.6 -1.5 -1.5 -1.5 -1.5 -1.5 -1.5 -1.5 -1.5 -1.4 -1.4 -1.4 -1.4 -1.4 -1.4 -1.4 -1.4 -1.3 -1.3 -1.3 -1.3 -1.3 -1.3 -1.3 -1.3 -1.2 -1.2 -1.2 -1.2 -1.2 -1.2 -1.1 -0.9 -0.8 -1 -1.3 -1.6 -1.8 -2 -2.3 -2.5 -2.5 -2.5 -2.5 -2.5 -2.5 -2.5 -2.5 -2.5 -2.5 -2.5 -2.5 -2.5 -2.5 -2.5 -2.5 -2.5 -2.5 -2.5 -2.5 -2.5 -2.5 -2.5 -2.5 -2.5 -2.5 -2.5 -2.5 -2.5 -2.5 -2.5 -2.5 -2.5 -2.5 -2.5 -2.5 -2.5 -2.5 -2.5 -2.5 -2.5 -2.5 -2.5 -2.5 -2.5 -2.5 -2.5 -2.5 -2.5 -2.5 -2.5 -2.5 -2.5 -2.5 -2.5 -2.5
