ncols 200
nrows 83
xllcorner 300000
yllcorner 133900
cellsize 50
216.2 203 203.4 206.3 211.1 214.9 216.1 211.7 209 208.1 204.2 204.8 205.5 204.2 203.6 204.4 201.9 203.4 211.2 218 220.1 219.2 217.6 214 213.1 216 213.9 207.9 201.2 194 186.3 181.2 178.8 175.4 166.7 156.2 145.5 149.1 154.8 157.4 157.2 155.1 153.5 149.1 144.3 138.7 131.3 123.2 120.7 116.4 105.8 93.3 85.8 80.5 78.3 76.9 82.4 86.3 91.8 95.5 81.5 75.3 87.6 102 114.3 121.8 119.2 116 124.8 136 143.9 146.4 156 164.2 171.5 185.1 200.2 200.2 195.6 191 187.7 186.5 188.5 194.5 200.2 205.2 205.5 205.7 201.5 192.8 182.9 170.1 156.8 144.5 135.4 136.9 145.4 156.6 165.9 168.2 167.2 165.1 162.2 160.1 157.8 152.9 147.5 139.9 132.2 124.5 118.1 113.5 110.4 109.5 107.5 104.3 93.4 80.2 81.9 90.3 98.9 104.8 108.5 107.7 102.8 96 89.3 81.9 82.9 88.7 95.4 95.1 84.4 73.4 74.6 76.5 79.4 91.5 104.2 117.2 127.5 130.9 129.4 128.3 125.8 118.9 114.4 111.2 107.9 111.3 116.4 120 120.8 122.2 121.4 119.3 117.1 113.7 109.5 105.6 102.4 100.3 98.8 95.5 92.7 91.4 91.4 91.4 91.4 86.7 84.2 82.4 82.1 82.5 80.9 78.6 75.6 72.8 69.4 69.4 70.8 70.7 68.2 65.4 63.6 61.6 61.1 60.8 61.7 66.9 71.5 76.6 80.6 76.9 73 64 57.1 58.7 71.2 88.5
208.3 196.7 186 190.8 196.6 201.6 205.2 204.9 201.2 197.7 195.5 192.5 193.2 193.6 191.4 188.4 187.3 189 197.9 205.4 207.1 208 209.7 206.8 203 202 200.8 199.7 193.5 185 177.8 172.1 166.7 161.6 156.7 150.8 142.5 137 145.6 149.4 149 146.2 145.1 142.7 136.5 132 127.4 111.6 101.8 92 83 81.2 80 79.8 85.3 87.4 93.1 96 100.1 98.1 77.5 76.2 93.3 108.6 121.1 132.5 137.1 134.3 131.4 134.8 143.2 147.1 157.3 164.9 172 185 203.7 205.2 200.9 196.6 196.5 196.7 200.9 208.3 214.4 213.6 211.2 205 196 186 174.9 164 157.8 156.7 150.5 143.3 151.9 162.3 172.1 175.2 173.4 170.3 167.5 164.6 161.6 155.8 148.3 141 131.7 125 117.2 110.4 105.5 101.2 99.1 96.1 86.2 81.9 90.5 98.4 105.3 110 112.5 109.3 103.5 96.7 90.3 84.6 84.7 89.2 97.5 101.3 98.2 86.1 73.6 74.4 76.1 78.5 90.1 103.3 112.1 121.7 120.7 121 118.6 113.7 109.1 105.1 104.3 109.4 114.2 115.8 120.7 122.2 120.9 117.8 115.6 112.4 109 105.8 104 101.6 100.5 98.7 95.4 91.5 91.4 91.4 91.4 89.6 86.3 85.3 82.5 78.1 77.8 76.7 77.2 77.7 77.4 77.1 76 74.2 70.7 67.4 64.1 64.4 64.9 64.3 65.2 69.9 74.9 80.5 83.9 81 77.4 70.3 57.5 59.8 69 84.8
200 189.3 182.3 173.7 180.8 189.5 189 190.3 188.5 182.3 184.2 178.3 177.3 176.5 175.4 175.7 176.3 178.7 178.8 184.1 191.7 196.2 196.9 193.6 190 189 187.5 183.1 178.6 172.1 165.4 161.2 154 146.8 142.5 140.5 137.9 125.6 135.2 140.7 140.6 137.8 134.6 131 125.5 120.2 108.6 94.5 82.8 81.8 81.7 83.3 88.4 91 95.7 97.4 100 103.7 106.5 97 76.3 79.1 97.6 113.6 126.5 139.2 144 141.3 139.1 139 144.8 148.3 156.3 165.1 171 184.1 204.1 207.9 204.6 202.7 205.6 210.1 218.6 223.1 224 221.5 216.1 208 196.2 187.7 182 178.6 177.6 175.1 160.4 150.3 161.7 174.8 182.9 185.6 182.3 176.7 172.3 168.5 163.6 156.6 149.4 141.3 133.1 125.6 119 113.5 107.4 100.6 95.6 89.4 83 88.8 97 103.5 111.1 115.2 114.3 109.9 103.7 96.4 90.1 88.5 88.2 90.7 98.6 105.3 104.1 99.2 92.7 82.5 76.8 76.5 79.4 91.6 102.1 106 110.8 113.2 113.5 108.5 104.2 101.1 102.2 107.7 108.4 117.4 119.1 120.8 119.5 116.9 115.1 112.3 110.6 109 106.2 104.4 103.3 101.8 98.5 96.1 94.9 94.6 93.5 90.8 88.6 86.3 83.6 83.7 84.6 83.8 82.8 82.6 82.1 80.2 78.2 76.3 74 66.5 65.1 70.4 69.8 68.1 67.1 70.8 75.6 82.8 84.4 81.3 75.7 69 58.5 61.5 72.4 87.8
191.5 184.3 177.9 164.2 166.1 172.9 172.1 169.9 165.5 164.6 160.4 156.4 157.4 158 158.2 159.8 162.1 162.1 161.5 168.8 175.5 180.6 181.4 180 176.3 172.2 170 168.4 162.8 157.8 153.6 148.8 143.9 136.4 130.8 129 128.2 120.7 121 129.6 127.2 122.6 118 111.9 105 96.4 87.5 83.1 84.2 87 94.5 98.9 100.2 100.7 101.8 104.6 107.3 109.8 110.4 96.6 77 80.3 98.5 118.3 131.4 142.6 150.3 147.5 145.4 145 146.9 150.3 155.6 163.3 169.3 181.2 202.5 208.5 207.1 209.4 214.9 225.6 232.3 235.1 235.4 230.5 220.9 213 208.8 205.9 202.7 199.4 195.4 187.9 171.7 157.5 169.2 183.2 191.3 192.6 189.6 184.8 179.4 172.7 167.4 159.8 150.1 141.1 134.4 127.5 119.9 114.5 108.3 101 95.9 85.5 85.7 94.1 102.4 109.5 116.1 118.6 115.8 110.7 103.9 96.6 92.5 93.5 93.2 92.6 98.1 104.1 105.6 103.5 100.7 96 80.5 76.7 77.4 79.7 92.3 94.1 100 105.4 105.5 101.4 97.6 95.9 102 104.9 112.5 116.1 118.5 120 119.9 118.1 116 114.3 113 111.4 108.5 108 106.7 104.6 100.8 100.7 100.7 98.8 96.6 93.5 91.3 87.1 83.6 86.8 87.4 86.9 86.2 85.8 83.8 81.9 80.4 77.8 72.8 67.4 72.4 76.3 74.6 70.7 69.1 72.7 77 82.3 81.7 78.2 73.6 67.7 60.3 65.3 69.9 79.9
184.4 177.9 171.6 159.7 150.1 154.9 154.9 154.8 153 148.3 141.1 136.7 133.4 133.4 135.9 138.3 141.7 143.6 141.6 150.1 154.2 161.4 164.9 163.4 161.6 157.6 155.2 151.5 151.3 149.5 144.2 136.9 130 125.1 120.6 115.2 114.3 108.4 104.2 106 100.7 92.5 90.4 89.3 86.4 85.8 85.5 92.4 99.5 106.2 109.6 110.5 108.8 109.1 106.3 110.6 112.3 113.5 111.3 96.5 77.6 79.4 96 116.7 132.3 144.4 154.3 151.8 149.3 149.7 150.5 152.8 156.3 162.9 169.4 177.5 195.9 203.9 209 215 222.7 234.7 239.9 243.2 242.7 235.8 227.7 223.1 221.5 219.6 215.7 211.7 205.8 197.3 181 165.8 178 191.1 199.4 198.7 194.5 189.5 183.5 176.3 168.2 160.5 151.3 141 132.1 124.4 117.3 111 105.5 99.2 93.5 84.5 94.2 100.2 106.8 115.2 120.2 120.6 116.6 110.4 103.1 96.1 96.5 98.2 97.5 96 99.7 105.8 108.2 105.3 100 87.4 84.9 86.7 77.3 78.2 79.9 81 88.7 96.6 97.7 94.9 92.8 97.1 101.5 107.4 112.6 115.3 119 121.3 120.3 118.6 116.8 116.1 115.8 114.3 112.4 111.9 109.8 107.9 105.9 105.8 104.6 101.4 99 95.9 92.9 88.3 88.5 90.8 91.8 91 89.8 88.6 85.5 82.5 80.1 76 71.8 71.1 78.8 81.9 77.9 73.6 72.9 75.6 80.1 81.5 79 75.2 71.5 65.7 61.2 67.9 71.1 74
176.8 168.8 160.8 152.4 140.7 139.1 138.1 137.3 131.4 126.7 120.5 119.2 117.5 115.1 114 115.6 120 124.2 124.7 131.5 137.1 142.7 150 152 150.2 147.7 149.7 147.6 146.4 139.8 133.8 125.2 116.3 106.3 98.9 97.9 94.9 94 93.1 91.9 90.4 89.3 88.9 88.7 91.3 95 102 109.1 116.8 117.7 117.2 116.8 115.8 114.9 114.4 115.7 117.2 116.1 112.3 97.3 79.3 79.4 94.7 115.2 131.9 143.6 154.5 155.3 152.6 153.4 154.6 155.3 157.6 162.6 169.3 179.2 190.7 203 210.9 220.4 229.6 239.3 244.1 248.8 246.1 240 234.2 232.1 231 229.5 226.2 221.7 215.5 205.2 190.6 176.3 187.3 198.2 203.2 201.4 197.2 191.4 185.2 177 168.8 160.7 152.3 144.2 136 126.2 116 105.3 97.5 93.4 88.1 89.3 99.9 105.6 111.4 120.1 123.9 122.1 116.2 109.9 103.3 100.1 101.8 103.2 102 100.7 103.9 109.9 111.5 105.1 94.2 84 93.4 96.2 89.8 77.2 79 80.6 81.6 84.8 85 89.3 89.7 94.6 101.9 107.1 109.1 113.4 117.1 119 120 119.1 118.4 118.6 118.5 117.9 117.1 116.2 114 111.8 109.5 110.4 108.2 103.9 101.3 97.9 94.2 90.3 90.5 94.2 95.8 95.1 92.9 90.6 87.4 84.2 80.7 75.2 70.5 75 80.1 81.7 78.9 76.8 78.4 80.7 83.1 81.8 78.1 73.1 70.2 66.2 61.5 65.9 82.6 85.3
165.3 157.3 148.2 140 131.5 128.1 123.2 120.9 119.5 118.8 118.4 122.5 121.1 121.5 123.8 122.1 116.4 111.9 109.9 112.4 117.9 131.7 139 140.7 135.4 129.3 131.6 133.9 132 125.7 119.3 112.1 102.8 98.1 95.5 99.3 100.7 101.4 99.5 98.7 94.6 97.5 103 105.5 108.7 113.2 119.2 124.6 125.7 124.9 124 122.5 121.3 120.1 120.3 121.5 121.3 117.6 112.9 98.9 82 78.8 94.3 113.4 130.2 142.5 152.8 156.2 153.6 155.4 157.2 157.2 158.1 162.3 169.3 178.8 193.4 204.2 215.9 230 238.8 246.6 250.9 252.5 248.6 243.3 240 239.1 238.4 237.5 234.4 229.1 222.5 213.4 202.1 191.5 199.1 206.3 208.2 205.4 200.2 193.9 185.2 178.1 169.6 160 150.8 144.2 137.9 128 114.7 98.6 93.6 91.9 88.8 96.4 105.2 111.1 116.8 124.7 127.1 122.3 117.3 110.5 104.5 103.6 106.2 107.4 105.2 105 106.6 110.7 109.1 102.1 88.4 92.7 100.2 100.8 97.2 89 78.1 79.7 80.9 82 83.4 89.2 90 97.3 100.8 104 107.9 112.1 114.7 118 119.7 120.4 121 121.2 121.2 121.1 120.9 120.6 117.7 116.2 115.4 114.4 112 108.1 104.1 100.3 96.5 94.5 94.8 96.8 98.1 96.9 95 91.9 87.8 83.7 78.1 73.3 74.1 79.7 83.3 85.3 84.1 82.5 84 85.8 85.3 82.7 79.1 75.6 71 67.1 63.1 76.5 93.1 98.1
152 143.1 134.1 129 125.8 124.6 123.8 127.4 131.3 133.9 138.4 143.5 143.6 142.9 140.3 136.6 131.4 124.7 116.3 110 108.5 115.2 123.6 127 120.2 115.4 116 111.9 109 106.5 107.1 103 102 104.8 108.8 111 112.3 113.7 114 111.6 104.3 112.1 115 119.7 124.6 131.3 136.4 136.8 134 134.3 130.8 129.1 128.2 126.6 126.6 126.3 123.3 119 113.2 99.6 84.4 79.3 92.7 110.9 129 140.3 151.1 154 154 156.9 157.8 156.9 157.1 161.2 169.1 179.5 194.8 206.1 218.6 232.9 244.5 250.2 255.7 252.9 249.7 247.2 247 246 246 245 242.9 237.2 231.2 224 215.5 210 211.6 213.7 213.1 209 203.1 196.2 188.9 177.5 169.2 157 146.7 137.6 132.2 121 106.3 95.5 93.8 91.6 94.2 101.5 110.2 116.5 124 131.5 130.1 125.5 117.4 110.2 106.6 108.3 110.6 112 109 108.7 108.7 109.8 107 98.3 90.8 103 107.2 105.3 100 92 88.9 80.5 80.7 81.7 83.1 84.5 91.4 99.5 104.1 108.5 111.6 113.2 115.6 118.7 120.6 121.9 123.6 124.7 125.5 124.8 124.6 124.1 122.4 121.3 119.6 117.6 115.2 111.7 107.3 103.3 100.7 99.3 99.4 100.2 99.9 97.9 94.9 91.2 86.8 81.7 76.6 76.2 81.5 85.4 88.9 91 90.6 90.1 89.8 90.1 87.8 83.8 80.1 76.1 72.2 66.1 64.4 76.3 95.6 107.8
135.4 131.2 136.9 143.2 142 142.1 146.6 152.8 154.4 157.8 162.3 164.7 163.1 160 156.9 150.9 145.6 140.7 131.6 120.9 113 107.3 108.2 110.1 106 105 102.5 104.6 107.4 109.3 111.8 113.5 115 116.8 120 122.3 123.4 124.4 123 115.9 117.8 124 127 132.5 136.9 143.8 145.2 143.9 141.6 139.6 138.1 135.6 133.5 130.8 130.4 127.3 123.7 118.5 111.7 100 88 80.8 92.5 108.7 125.5 137 147.8 149.7 153.2 157.5 157.7 155.4 155.8 160.2 166.1 178.9 195.2 207.4 218.7 229.4 238.9 247.4 254.8 252.2 249.8 250.1 250.5 250.8 251.2 250.7 248.5 244.7 240.7 234.4 228.5 223.4 222.5 221.1 219 212.6 205.7 198.5 189.4 177.7 166.9 155.8 144 129.7 119.3 110.5 98.8 96.9 95.8 92.4 98 105.1 115.3 121.6 130.1 135.4 132.4 126.3 119.3 113.1 111.7 113.5 114.8 115.1 111.9 111 109.7 106.8 103.2 93.5 97.4 109.4 113 108.3 100.5 94.2 97.4 94.6 91.1 80.8 82.9 84.8 87.4 96.5 101.8 107.5 111.6 113.8 116.7 120.4 122.1 123.7 126 128.5 129.2 128.7 128.8 128.8 128 126.9 125.5 121.6 119.7 115.6 110.9 107.4 105.2 104.1 104 104.5 102.8 100 96.5 92 87.6 80.1 77.9 85.6 89.9 92.5 95.7 96.1 95.5 94.9 94 92.9 90.1 85.3 80.7 75.8 65.1 63.8 70.6 79.1 95.6 107.9
130.1 144.8 155.8 163.4 167.3 172.5 176.2 178.8 184.9 187.6 189.3 189.9 187 180 174.1 168.8 162.4 156.1 148.2 138.7 129.7 120.9 115 112 113.7 116 119.1 119.9 121.9 122.6 124.2 125.6 127 127.8 130.5 132 132 132.4 127.4 115.7 128.4 135.5 139.2 141.5 143.9 148.9 151 149.3 146.9 145.3 143.2 139.8 135.2 131.6 130.3 126.1 120.8 115.3 105.5 94.3 84.7 80.8 91.7 106.5 121.8 132.4 140.3 145.1 151 156.5 156.5 153.8 153.9 159.6 166.9 177.4 195.6 208.3 217.3 224.9 233.2 242.3 249 250.3 250.9 253.6 256.8 256.7 256.4 255.8 253.7 251.1 248 243.5 238 234.4 230.8 226.7 221.6 214.6 206.7 198.4 188.6 175.8 165.3 152.2 139.4 125.4 110.7 102 101.9 103 95.6 94.9 100.9 107.5 115.1 123.8 133.9 137.8 134 127.8 121.3 117.6 116.2 118.2 120.1 117.9 114.7 111.9 108.6 104.2 99.8 92.7 104 112.7 114.8 108.7 101.5 99.1 103.1 101.2 96.4 91.3 83.7 83.2 84.8 91.4 101.5 107.4 110.6 113.4 116 120.2 121.8 124.7 129.1 131.8 132.4 133.2 133.6 133.9 133.6 132.8 131.3 129.4 126.3 122.6 119.9 116.7 114.2 112.5 111.2 109.3 106.4 101.5 96.7 90 85.2 80.2 85.1 92.9 96.2 97.6 98.8 98.4 97.9 97.2 95.4 94.2 91.5 85.6 80 74.2 65 65.3 72.8 82.8 97.5 107.6
154.3 165.5 173.7 182.5 189.1 194.6 199.7 203.5 205.5 205 205.5 203.7 198.8 188.1 187 182.2 178 172.6 165 158.6 149 142.1 136.5 132.5 132.6 134 135.2 136.1 137.2 137.7 137.9 138.6 138.4 138.6 140.5 141.6 140.7 135.6 126.2 124.6 135.8 143.3 146.6 147.2 150.7 154.6 155.9 154.4 151.8 149.5 146.1 141 137.7 133.5 128.1 122.4 115.1 101.7 93.7 95 90.5 82.9 90.9 105.6 119.5 128.3 137.1 141 146.3 154.7 155 151.6 150.7 156.1 163.3 173.8 191.2 207.6 215.3 219.1 226.7 235.4 242.1 246.2 252.5 257.1 261 262.5 262.5 262.1 260.8 258.2 255.4 251 246.5 242.6 237.1 231.1 224.5 217.5 208.1 199.9 189.4 174 162 147.9 133.8 119.8 105.5 110.9 111.6 105.1 95.8 100.9 106.2 109.5 115 125.7 136.2 141 135.7 130.2 124.9 123.5 121.8 123.6 122.7 120.3 116.8 113.1 108.6 103.1 97.2 98.2 109.5 116.9 115.4 108.4 102.7 103.3 106.9 103.6 100 94.6 85.7 83.8 82.8 86.8 96 103.4 106 109.3 112.7 116.8 120.7 124.4 129.9 133.2 135 137.3 139.9 138.5 138.6 138.2 137.5 135.4 133.2 129.7 127.2 124.7 121.2 118.6 115.6 111.3 108.3 101.8 96.4 85.3 82.4 83.6 89 96.1 99.9 100.9 100.3 100 98.6 96.7 93.2 91.4 88.3 83.3 77.8 68.7 68.5 69.2 71.7 78.8 88 102.8
178 187.4 197.6 204.7 208.6 212.1 213.9 215.4 217.3 218.2 217.8 215 212.8 207.3 200.5 193.8 189.8 184.5 179.4 174.6 167.6 162.4 156.5 152.5 150.3 149.9 150.2 149.8 151.5 152.1 152.5 152.6 151.9 152.5 152 149 141.7 132.3 122.5 133.3 143.1 148.4 152.2 152.6 156.9 160.8 159.9 158.5 156 152.8 148.6 143.2 139.1 133.3 126.9 120.6 105.2 110 109.9 106 90.8 83.3 92 106.8 116.7 128.8 134.1 136.5 143.1 150.9 153.2 148.5 145.2 149.6 158 167.6 183.2 199 206.3 209.6 214 221.9 232.7 241.5 248.8 255 262.6 267.3 268.3 268.7 267.3 264.4 261.3 257.5 252.4 247.4 241.8 234.9 227.4 219.3 208.4 198.9 187.8 172 157.4 142.9 128.9 115.3 111 118.4 114.6 105.1 96.9 104.4 112.8 114 117 128.3 139.3 142.3 138.2 133.1 129.7 128.4 128 127.2 125.5 122.5 119.1 113.8 107.8 100.2 97.8 105.3 116.4 120.6 116.9 109.8 104.6 106.3 107.1 104.5 102 98.4 91.2 87.7 84.3 84.5 87.3 95.6 100 104.1 108.7 112.1 117.2 123.1 129.3 134.1 138.1 142.3 144.2 144 143.1 143.5 142.7 140.9 137.1 134.4 132.1 128.5 126.1 122.9 118.7 113.8 107.9 100.6 88.9 87.7 87.9 88.8 91.1 96.9 101.6 102.2 99.3 97.4 96.6 94.1 91.5 87.8 83.3 79.4 74.4 66.6 75 76.9 73.3 74.6 81.7 95.5
203.4 208.5 212.7 215.7 218.7 221.6 224.4 227.4 229.1 229.2 227.5 224.5 221.8 218 213.4 208.5 203.8 197.5 191.7 186.1 181.9 176.7 172.3 167.2 164.8 163.4 161.5 161.5 163 163.8 164.8 165 163.5 161.4 156.7 148.1 137 127.7 129.2 141.8 151.2 152.7 156.6 157.9 161.5 164.7 163.5 162.5 159.6 156.2 148.4 145.2 139.5 132.8 126.2 114.3 112.4 116.8 114.4 108.9 92 83.7 91.2 102.4 107 118.9 127.6 131.6 139.2 147.6 149.8 146.6 139.6 141.4 149.6 158.1 169.6 183.1 193.7 195.9 197.8 206.7 222.9 236.1 246.8 256.4 263.7 270.7 273.2 274.2 273.4 271.1 267.5 263.8 257.3 251.3 243.7 236.1 226.7 218.4 208.6 197.7 184.7 169.9 155 139.8 125.4 111.8 118.7 122.1 118.5 108.7 98.4 108.8 119.3 120.5 120.4 130.7 141 144.6 141.1 137.6 135.8 133.8 132.7 130.6 126.9 122.3 116.3 110.3 103.6 100.7 102.8 111.5 120.7 124.1 117.9 110.7 108.2 108.6 107.7 105.7 103.4 98.3 93.3 89.8 87.6 85.7 86 91.5 102.5 106.2 109.1 112.7 117.5 124.4 130.6 136.3 141.5 145.7 148.2 149 149.3 148.9 147.1 146.4 144.5 140.7 137.6 134.5 130.7 126.3 121.1 114.5 104.5 93 93.1 97 97.2 92.9 95.9 97.7 101.2 100.9 97.3 94.5 91.8 89.1 88.6 85.1 79.2 74.3 69.1 73.3 78.1 81.9 81.9 78.4 78.3 85.5
217.3 219.9 222.4 225.2 228 230.6 233.1 235.3 236.6 236.5 235.3 232.9 231.2 228.6 224.4 219 214.5 209.3 204.2 197.7 191.1 185.5 180.5 177 174.6 172.7 171.9 172.5 171.8 171 170.5 166.9 163.9 161 153.5 143 130.8 127.9 134.3 148.1 155.5 158.6 160.7 163.4 165.5 166.6 166.4 166.4 164 158.6 152.5 146.9 140.5 133.3 123 116.4 120.5 119.1 115.7 110.4 99.3 85 85.4 88.9 94.2 101.3 115.8 124.8 132.1 142.2 142.9 141.2 133.9 133.5 136.5 144.5 154.7 165.4 174 178.8 184.7 197.9 217.5 235.7 247.5 258.1 265.5 272.4 277.1 280.1 278.1 276 272.9 268.2 259.2 252.8 244.9 236.8 226.4 217.1 206.5 195.7 183.2 168.3 153.7 137.8 122.5 114.5 123.4 126.7 121.6 112.1 101.7 112.4 125.2 128.2 125.3 130.3 139.2 144 143.2 142.3 140.9 139.3 136 132.4 127.2 119.6 111.9 106.4 106.4 108 110.4 114.9 121.6 123 118.5 112.6 112.9 114.3 112.9 109.1 103.3 99 96.3 92.7 88.6 87.4 87.3 90.3 103.1 106 110.1 114.2 119.3 125.3 132.6 139 144.4 148.7 152 153.7 154.5 155.1 153.3 150 147.8 144.6 141.1 137.8 133.7 128.8 121.5 109.3 96.6 99 107.7 108.8 104.3 100.8 102.4 101.5 102.1 99.4 95.8 92.2 88.3 85.6 83.1 78.7 74.8 71.1 70.2 76.2 80.1 84.5 85 83.5 80.1 81.7
227.8 229.8 230.4 232 234.9 237 240.3 242.8 243.5 244 241.2 239.4 236.8 234.3 231.3 225.8 221.4 216.4 210.6 204 197.6 191.5 187 185.2 182.7 179.3 178 177.1 173.9 169.5 166.1 163.2 159.7 155.7 147.2 136 130 135.6 140.6 151.1 156.9 163.8 166.5 168.2 169.5 169.1 168.9 170.6 166.1 159.4 153.5 146.9 139.2 130.5 123.2 126.4 125.3 120.9 118.6 114.6 107.3 89.1 85.4 94.8 106.2 105 104.4 111.2 117.3 130.9 132.5 131.2 129.5 134.8 144.5 147.9 144.6 151.4 160.1 168.7 178.8 192.9 213 233.1 249.2 258.6 267.3 274.2 279.6 283.5 281.9 279.9 275.8 270.1 261.9 254 245.4 236.2 225.5 214.8 204.5 192.3 180.3 168.2 153.2 136.1 120.5 121.9 128.3 130.9 125.8 114.7 104.1 115.4 128.2 132.9 130.7 130 135.9 141.1 145.1 145.5 144.4 141.8 138.4 134.1 126.3 116.5 112.4 110.2 112.6 114.5 118.1 121.4 123.5 124.7 120.7 117.2 117.9 118.9 116.6 112.4 106.1 103.5 102 99.3 91.8 89.7 88.7 88.1 93.2 102.4 108.7 114.7 120.5 127 135 141.4 147.1 152 155.8 158.2 159.2 158.8 156.6 153.1 150 146.5 143 139.7 135.4 129.3 116.9 101.7 102.1 114.7 117.1 113.5 109.6 108.8 108.5 106.3 105.9 102.1 98.6 93.4 88.2 83.1 79.6 78.2 75 70 73.5 77.9 81.1 85.7 86.9 87.5 85.5 82
235.4 236.8 238.3 240.7 242.3 244.8 247.1 248.6 249.2 248.5 247.7 245.6 243.7 240.8 237 233 228 222.6 216.3 209.4 201.8 195.2 190.6 184 178.8 176.3 173.3 170.9 165 161.6 158.7 156.6 153.2 149.2 139.9 130.1 139.8 143.7 149.5 158.4 162.1 167.6 170.8 172.4 172.7 172.7 171.8 169.5 165.5 158.8 152.6 145 135 130.5 133.2 133.5 129.4 124.5 123.1 119 110.5 95.8 85.1 89.5 107.8 113.1 114 116.6 117.3 118.4 124.3 132 141.4 151.5 156.5 158.4 161 158.2 160.2 167.7 180.1 195.6 215.7 236 250.2 261.3 269.9 276.4 281.9 285.9 284.7 281.6 276.8 270.2 262 252.9 243.8 234.1 223 211.6 200.2 187.4 175.5 164.8 151 134.1 121.7 129.4 133.5 135.3 129.4 118.6 105.9 116.1 129.6 136.6 133.3 132.9 136.6 142.8 145.6 146.6 146.4 144 140.1 134 123.6 115.2 111.9 115.2 119 121.9 126 129.1 129.6 128 124.1 121.9 121.8 121.6 118.7 113.9 108.8 106.5 104.5 99.8 93.6 91.3 90.8 89.8 90.4 103.6 108.6 114.4 120.5 128.9 137.1 144 150.7 155.1 159.9 162 159.4 159.6 157.5 154.1 151.1 147.4 144 140.9 136.5 123.2 107.2 106 116.9 124 122.8 119 114.8 114.1 113.7 111.8 107.8 104.8 101.7 93 91.6 83 84.2 82.9 78.3 73.9 72.8 76.8 77.8 87.1 89 86.3 84.4 82.2
243.9 245.7 247.4 249.6 252.9 254.7 255.5 256.4 256.8 255.9 254.8 253.4 251.1 246.9 242.3 237.1 232.2 224.6 212.2 199 187.1 179 176.4 169.4 164.7 159.1 153.5 152.4 151.2 150.6 149 148.1 145.2 139.8 132.7 136.1 142.9 150.4 160 163.4 167.6 172.6 177.2 178 178.5 178.2 175.6 170.8 164.5 158.5 152.6 144.9 136.2 139.7 138.8 136.5 132.6 128.6 127.1 122.2 113.3 100.5 85.9 87.8 104.5 113.4 120.1 125.3 129.3 133.7 136.9 143.7 149.4 157 163.2 169.2 173.3 177.8 180.4 183.2 190.3 208.5 227 240.8 253.2 264.4 271.7 278.9 284.5 287.8 287.1 281.8 276.6 269.2 260.9 251.5 241.9 231.2 219.5 206.4 195 182 168.9 157.4 143.8 128.6 126.7 136 138.1 138.1 132.9 121.8 108.6 116.7 131.8 137.7 136.1 137.4 140.6 145.6 148.8 150.8 147.3 144.5 139 129.6 121.6 117.6 117.8 120.9 126 128.8 131.9 135.2 135.4 132.9 129.2 127.1 126.5 125.5 121.6 116.1 112.3 110.4 107.2 102.5 97.6 92.8 91.7 90.2 89.3 103.5 110.8 116.8 123.9 130.3 139.7 146.1 152.5 157.8 160.9 161.2 157.8 158.1 155.3 152.2 149.5 146.8 143.7 140.1 130.2 114 107.4 119.1 131.1 129.9 127.3 123.8 120.7 119.5 118.5 115.9 111.2 106.6 102 95.8 90.5 87 87.1 84.4 82 76.9 73.2 74.6 78.1 84.6 90.9 87.8 84.8 83.5
253.2 255.3 257.2 259.4 263 264.8 265.9 265.3 264.3 263 261.9 260.3 256.6 252.2 246.5 239.4 231.1 216 199.5 186.8 176 175.5 174.5 168.2 162.3 154.4 149.8 147.3 146.5 146 145.7 145.6 145.1 143.7 143 139.9 143.7 160.7 169.1 170.8 173.8 177.7 181.1 183.4 184.3 184.8 177.8 170.2 165.4 157.7 150.1 143.4 144.5 146.1 143 139.2 135.5 131.7 129.1 124.4 118.1 109.3 92.6 86.6 97.8 110.5 120.2 127.1 130.5 134.6 141.4 148.5 153.9 160.5 168.3 175 182 188.8 195.4 201.2 208.6 221.8 236.2 248 260.5 268.5 276.1 281.9 287.3 287.3 284.7 280.2 275.1 268.2 258.7 250.5 239.4 227.8 215.9 203.1 190.4 176.1 161.2 148.7 135.7 127.9 137.2 142.8 142.6 140.6 134.9 124.8 111.4 118 131.2 138.4 138.5 142.1 147.1 151.7 153.8 153.1 147.8 143.3 134.2 124.6 124.6 125.5 121.8 123.6 130.7 135.5 138.4 142.6 144.6 142.7 138.7 135.4 133.6 130 125.2 120.5 118.1 115.5 110.8 106.4 102 94.9 92.7 91.6 90.2 93.1 109.3 118.8 127.5 135 141.1 146.8 153 157.9 159.3 158.2 154.2 152.7 149 145.8 142.5 143.5 140.4 133 121.9 110.6 123 133.1 137.2 136.2 132.3 128.7 125.7 124.5 122.3 120 114.2 107.8 102.3 97.4 93.7 93 92 89 84.5 80.5 75.5 74.9 77.6 88.6 92.8 91.9 90.6 87.7
260 263.6 268.3 272.7 276 276.7 274.9 272.7 271.7 271.4 269.9 266.3 261.2 255.7 249.2 241 227.1 208.7 193.5 190.5 192.8 192.3 189.9 183.5 174.2 160.6 155.3 154.7 154.9 154.1 155.4 156.8 155 153.8 152.7 150.1 146.3 156 166.5 174.9 179.5 182.6 184.4 186.3 186.7 183.8 179 172.4 165.3 157.5 150 149 150.8 149.8 147.4 143.7 137.9 133.1 129.7 126.6 121.8 113.1 100.2 86.9 93.1 105.7 117 123.4 128.4 134.9 141.6 148.5 156.6 164.2 172.5 182.4 191.6 199.1 206.4 214.8 222.7 233.3 243.9 254.4 265.7 274.1 280.8 285.8 287.7 285.2 282 278.1 272.8 266 256.2 247.6 235.3 224.3 212.6 197.9 185.1 169.1 152.8 139.3 130.9 138.9 146.6 148.2 146.7 143.4 136.5 126.6 112.2 118.8 129.3 136.4 141.4 147.6 153.4 158.2 160.5 156.9 147.9 139 130.2 129.7 131.3 129.6 130 128.1 135.4 142.2 148.4 154.9 156.4 153.4 149.6 145.5 141.8 136.9 131.3 126.7 124.1 120.9 116.1 112.7 107.7 100.9 95.6 93.5 92.3 93.4 104.5 116.6 127.4 135.4 140.8 145.6 152.2 156.6 157.1 153.9 149.2 144.3 137 131.4 127.9 126.4 127.2 127.7 116 121.1 136.4 141.7 143.1 142 138.4 134.5 131.2 129 126.9 124.2 117.3 110.3 106.9 103.2 100.7 99 96.3 93.7 89.1 85.6 80.5 75.7 76.1 84.4 99.1 101 94.7 92.1
266.2 271 277.7 281 280.5 282.3 281.1 279.4 278.6 278.7 275.4 271.7 265.4 258.3 250.3 238.1 221.1 204.2 199.9 207.1 209.7 207.4 202 193.1 178.3 161.7 165.8 167.6 167.5 168.4 170 170 168.8 167 163.1 160.6 156.7 157.1 167.1 175.5 183.6 189.2 190.8 192 189.7 183.6 179.9 174.5 167.2 158.7 153.5 155.6 156.4 152.8 148.7 144.4 141 135.5 130.3 128.6 123.5 115.6 104.4 90.1 89.3 99.8 111.4 120.7 129.1 135.1 142 149.6 158.8 168.1 177.6 190.1 200.4 207.9 216.4 227.1 234.7 243.8 252.7 262.4 271.4 279.3 283.9 286.6 286.5 282.4 279.3 274 268.4 262.1 253.1 241.7 231.6 220.4 206 192.6 179.1 162.4 144.6 135.3 143.5 151.5 153.7 151.6 150 144.3 135.2 125.3 114.1 120 129.9 137.2 144.7 153.1 159.8 163.2 164.6 155.9 143.6 136.3 135.2 137.6 139.6 139.6 137.6 132.7 141.2 150.3 161.6 169.3 168.3 165.8 163 158.8 153.5 145.2 139.8 136.5 131.3 127.3 123 118.6 112.4 106.5 100.1 95.3 93 93.4 101.2 113.2 124.6 133.6 139.6 144.9 150.7 154.3 154.4 150.6 145.2 141 141 140.8 135.5 133.3 128.5 122.9 118.6 125.8 140.6 146.6 147.6 146.4 143.7 140.1 136.9 133.5 130.9 126.4 119.7 116.5 112.3 108.9 105.2 103.5 101.9 95.3 91.4 89.8 85.5 78.8 77.3 81.3 95 104.3 100.7 100.7
267.6 270.8 272 273.6 275.3 277.9 280.4 284.8 286.1 284.8 280.4 274.1 266.9 258.9 249.7 235.7 217.7 208.1 215.4 220.4 220 217.3 212.3 202.5 186.7 178.4 188.3 190.2 186.4 186.9 186.8 185.6 183.4 179.4 174.6 170.6 167.4 164.2 171.3 182.2 191.4 197.6 199.7 198.8 194.6 189.2 182.4 176.1 168.2 162.9 159 157.9 156 151.6 145.9 142.4 140.6 136.7 131.3 128 124.2 116.1 105 94.4 88.3 97.5 111.6 121.8 129 135.4 143.2 151.5 160.9 171.1 181.2 195.8 206 216.1 225.8 235.2 244.5 252.2 259 267.8 277 282.4 284.3 283.4 281.9 278.3 274 268.8 263.4 257.5 248.9 239.3 228.4 215.8 201.2 187.1 172.2 155.8 137.7 147.6 155.8 158.6 157.5 154.3 151.3 141 130.3 119.3 117.2 120.5 130.4 139.4 147.1 157.2 164.2 167.2 162.1 151 144.7 142.5 144.4 148.7 149.2 148.7 144.7 138.5 148.1 163.8 176.4 180.3 180.3 178.2 174.2 170.7 164.9 158 150.7 145.8 140.7 135.9 130.1 124.7 119.2 110.8 104.2 95.9 94.6 93.4 99.8 111.2 121.7 131.1 138.9 144.2 149 151.4 150.5 146.9 144.4 143.8 146.4 145.2 142.8 140.7 138.6 135.4 127.6 127.8 140.3 148.2 150.5 149.6 148.1 144.6 141.3 137.1 133.8 130.2 125.7 122.4 119.2 115.6 112.3 108.2 104.1 100.8 96.7 92.9 89.9 85.8 77.7 79 93.7 103.6 107.6 104.8
260.3 261.2 263.5 266.3 269 272 277.2 284.1 292.3 290.1 284.7 275.6 267.9 258.7 247.6 232.2 219.1 223.2 230.4 230.5 229.3 226.4 221.4 213 193.2 205.5 219.6 210.3 203.1 202 201.8 200.4 198.2 195.8 191.1 184.8 178.6 175.2 177.9 189.5 200.8 206.1 208.1 205.3 196.8 192 185.1 179.3 172 167.6 163.2 159.2 154.2 149.9 146.4 142.5 137.8 132.8 129.8 123.8 118.6 110.7 101.5 99.3 91.2 94.8 111.8 121.2 129.4 136.9 144.9 153.7 162.8 173 185.2 199.1 210.9 222.3 232.9 241.9 251 258.8 265.5 272.5 279.5 280.2 279.6 278.1 275 272 267.5 263 257.2 250.8 242.4 234.6 225 210.1 195.4 181.5 167.2 149.2 148.2 159.6 163.3 163.6 158.7 154.8 150.9 137.3 123.3 124.3 123.1 122 130.4 141.3 151.2 160.2 166.3 164.8 159.5 153.5 150.4 150.5 154.6 159.4 161.7 159.6 154.1 146.1 156.3 175.7 186.6 190 190.2 188.6 186.4 181.2 177 169.4 162.5 156.8 151.8 146.3 140.8 131.7 123.5 115.5 107.7 100.4 94.5 94.7 100.7 113.2 123.2 129.8 137.7 143.6 148 150.8 150.1 146.4 146.3 147 149.3 149 148.4 147.4 145.5 140.1 134.7 133.5 141.8 150.5 154 154.2 152.7 150.4 147.1 143.8 139.4 135 131.7 129.1 125.9 121.9 117.5 112.6 108.6 104.3 100.3 95.7 90.7 86 80.7 78.4 91.5 107.2 110.6 109.4
251 252.9 255.6 261.2 265.5 270 278.5 286.3 287.8 288.1 283.6 276.2 266.9 257.4 246 233.7 231.3 237.6 239.2 238.5 236.6 234.1 229.4 222.7 205.7 216.4 226.5 218.9 214.7 213 215.6 214.3 212.5 209.7 205.3 199.8 192.7 184.1 183.6 199.1 208.5 211.6 211.2 206.8 202.4 196 189.7 183.7 176.4 171.8 167.6 162.4 157.1 152.5 148.6 143.5 137.8 132 125.8 121.1 117.9 113.4 106.7 95.5 93.5 90.4 101.4 115.1 126.5 135.5 145.1 156.3 165.2 173.8 187.2 202.7 214.9 227 237.3 245.6 255.7 266.4 271.5 273.7 275 274 272.9 269.7 266.6 263.2 259.3 254.5 249.9 244.6 237.7 228.7 217.7 204.8 186.1 175.9 162.2 147.5 158.2 167.2 169.7 164 156.3 150.1 144.9 133.9 125 132.1 129 125.7 131.1 144.6 155.4 162.4 166.5 164.6 161.1 158.1 158 161.9 170.2 177.6 179.4 173.6 160.8 156.3 169.8 188 197 200.2 199.8 199.1 196.1 192.6 188.1 181.6 175 168.1 164.2 157.2 149.7 139.8 129.2 118.7 110.7 103.5 95.1 96.4 105.9 116.3 127.1 133.1 139.9 145.7 150.7 152.3 149.1 148.7 149.9 151.2 153.3 153.8 155 153.8 150.8 147.3 142.5 142.7 149.9 156.7 158.9 158.7 157.7 155 152.3 149.5 144.9 141.3 138.3 134.4 131 127.1 122 117.1 112.2 107.3 102.7 97.2 90.7 86 82.5 79.1 89.8 103.8 111.4 109.9
240.6 246.7 252.2 256 265 271.3 278.5 285.3 287.5 285.1 280.5 273.9 265.5 254.9 246.4 241.7 245.7 247.3 247.6 246.3 244.5 242.2 237.9 230.5 215.3 196.5 221.2 227.8 225.6 227.7 228.5 228.2 226.3 223.5 218.5 212.8 206.8 202.1 200.4 204.9 213.9 216.6 216 213.2 207.8 201.3 194.9 188.3 180.4 174.6 170.4 165.8 162 156.4 149.8 144 138.6 134.8 131.3 127.5 124 118.2 102.1 97.4 101.8 93.9 92.2 103.6 116.5 129.2 142.5 157.7 166 174.8 188.9 204.8 218.9 231.4 240 248.9 258.3 269.8 269.8 268.9 267.9 266.3 263.5 260 256.3 252.4 250.1 246.7 244.1 237.9 230.3 221.8 211.5 198.6 185 172.4 160.8 152.6 166.5 173.4 169.3 161.2 155.2 147.9 142.2 131.6 130.1 137.2 134.5 131.2 132.2 144.6 158.1 165.6 169.3 168.5 167.3 166 168.1 177.3 187.2 191.7 191.1 183.5 167.9 174.8 185.1 199.9 206.8 213.3 212.4 211.3 208.5 204.6 199.3 195.8 190.1 183.9 175.6 166.8 157.3 145.3 133 120.7 113 105.9 96.3 97.5 102.3 113.4 121.8 132 140.6 147.4 153.3 153.8 150.8 151.7 153.6 155.8 158 161.1 162.3 161.5 160.6 157.4 154.5 154.6 160.6 163.9 165.1 164.2 162.5 160.4 158.5 155.3 150.3 147.6 143.3 138.8 135.4 130.6 126.7 121.8 117.2 110.6 104.7 97.6 90.9 87.8 84.2 81.6 83.9 102.2 113.6 112.9
239.7 245.3 253.5 260.8 270.1 276.5 281.5 286.6 287.3 284.5 280.3 273.5 267 262.5 257.4 257.2 257.9 257.4 256.7 254.9 253 249.9 245.4 237.8 226.3 210.8 213.9 229.3 235.5 242.1 243.6 243.3 240.8 238.1 232.5 226.1 220.2 217.5 218.7 221.7 223.2 224 221.5 218.5 214 207.5 199.8 192.9 186.1 179.1 174 169.5 164.5 158.9 153.4 148.8 145.3 140.4 136.5 130.8 126.5 115.9 98.3 106 110.4 98.7 93.5 95.8 109.2 123.9 138.9 156.4 166.5 175.2 187.1 207.4 221 233.4 242.6 251.6 258.6 263.4 262.5 260.7 259.4 256.6 252.9 249.3 244.3 241.4 240.6 239.7 239.9 232.4 224.1 216 205.8 194 180.9 169.3 159.6 158.5 171.4 174.6 168.5 162.9 159.5 155.3 149.5 134.3 133.5 142.1 140.2 137.8 136.8 143.1 158 170.3 175.8 177.2 176.4 176.1 181.4 192.7 200.1 202.4 199.9 192.6 187.6 194.3 202.5 213.7 221 225.3 224.8 223.7 219.8 216.8 212.3 206.7 201.3 193.3 184.1 175.3 166.2 153 138.6 123 115.3 108 97.2 98.1 100.8 108.1 117.6 129.1 140.7 149.7 156 155.6 154.6 156.3 158.7 161.2 165.7 168.9 167.2 171.7 171.6 168 166.5 169.6 171.3 171.3 170.7 169.4 167.6 165.4 162.8 159.5 155.8 152.1 148.2 143.7 139.3 133.8 129.3 124 118 111 103 96.3 94 92.6 87 83.2 83.4 94.5 113 117.6
239.5 249.1 256.4 264.1 269.9 275.3 281.2 288.2 289 286.7 282.4 278.7 275.7 273 271.5 270.2 268.8 267.9 267.1 266.1 263.7 260.5 255.3 246.1 239.7 229.4 229.2 242.1 251.8 257.8 258.5 256.4 255.6 254.5 248.8 241.7 241.9 240.9 240.3 238.4 235.7 234.6 229.6 225.4 218.3 211.5 204 197.1 190.3 184.3 178.3 172.4 167.3 162 157.8 154.7 150.3 146.3 140.9 136.2 127.6 110.4 105.4 117.4 118.7 109 94.2 95.5 105.4 120.4 135.9 152.3 165.6 174.3 185.8 203.4 220.7 232.4 242 250 254.3 256.1 254.5 251.4 248.4 245.7 241.1 235.3 231.4 228.7 231.1 232.8 236.1 230.1 221 211.9 202.3 191.1 177.8 166.9 159.1 166.4 179 175.9 170.1 166.1 163.2 158.9 151.9 136 135.1 147.7 145.9 145.4 142.5 145.4 158.6 175.7 183.2 187 184.7 188.7 198.2 206.1 210.6 211.9 210.7 208.4 209.2 214.6 219.7 227.1 232.4 235.5 234.3 232 227.9 225 221.3 216.9 209.7 201.9 193.2 183.7 173.2 161.1 145.7 125.3 116.1 109.7 98.4 98.6 100.1 110.4 120.3 130.2 142.3 151.2 158.3 158.6 159.3 160.9 164.9 168.9 173.3 175.8 179.3 181.6 179.4 179.4 178.2 178.9 179.6 179.3 178.1 176.5 174.5 172.2 168.3 164.3 160 155.8 151.9 147.5 141.2 138 131.3 125.8 118.8 107.7 105.4 105.4 103.4 98.4 92.8 85.6 82.6 87.7 103.5 115.6
246.3 256 266.5 273.3 280.3 286 289.5 295.4 294.6 291.6 289.6 286.2 282.9 281.4 280.5 280.3 279.5 278.4 277.3 276.3 274.3 270.6 264.2 253.2 235.8 232.9 245.2 256.4 263.6 262.7 259.5 258.8 275.9 275.6 272.4 266.1 262.1 261.9 259 256 253.6 249 239.5 230.2 222.8 215 205.9 198.2 192.4 185.9 181.1 175.9 170.4 165.9 164 163.7 157.5 149.8 145.5 141.6 126.1 108.4 114.9 129.8 129.2 121.6 100.6 96.2 99.2 114.4 133.5 150.4 163.1 170.9 182.6 200 217.5 230.5 239.4 246.4 247.1 247.8 244.4 240.6 236.5 232.6 227.4 222.9 217.9 216.5 221.7 225.8 231.5 224.9 216.4 208 198.6 186.9 175.9 166.7 160.3 173.7 182 177 172.6 170.9 169.1 162.8 150.4 136.4 139.1 149.5 153.2 153.9 149.6 152.1 169.6 185 193.4 195.5 200 206.3 213.2 217.2 220.7 224.3 224.7 222.8 225.7 229.4 233.4 237.8 242 243.2 240.5 238 235.8 233.6 228.6 223 217.6 210.2 201.1 190 178.7 167.1 150.9 130.6 117.7 110.6 99.7 99.5 100 114 126.7 136.4 146.4 154.1 161 162.4 163.9 166.3 170.3 176.3 181.1 184.4 187.6 188.4 189 188.4 188.4 187.3 186.6 186.1 184.5 182.4 180 177.2 173.3 168.8 164 159.9 155.8 150.5 145.8 140.6 133.6 127.1 116.2 113.4 110.8 109.7 108.1 103.4 94.7 86.9 85.8 84.4 91.6 105.7
257.1 266.1 275.9 285.5 294.4 296.6 300.1 298.4 298.1 297.4 296.3 295.7 295.5 294.7 294.2 293.6 292 291.4 291 289.9 287.6 283.6 267.7 240.7 242.2 242.8 257.9 267 275.8 279.5 283.5 289.4 291.3 289.6 285.8 279.8 274.3 274.5 274.3 273.1 270 263.2 251.1 237.8 226.5 216.2 207.1 199.1 192.2 187.3 182.2 176.3 171.3 167.2 162.9 160.6 157.9 148.1 139.5 135.1 119.1 119.1 129.7 135.2 134.1 128.7 113.8 95 97.7 109.4 128 147.4 156.8 165.4 177.9 195.4 211.9 224.8 232.1 237.7 238.4 237.9 234 229.8 224.3 218.9 213.9 209.6 205.2 204.2 211.5 221.2 227.4 219.5 211.3 204 195.2 184.4 173.7 166.1 167 177.8 181.9 178.6 178.7 178.3 176.1 163.1 146.5 139 144.3 154.3 164.5 163.7 157.7 161 179.7 197.1 204 206.5 215.2 223.6 229 230.5 234.7 238.2 238.2 236.5 239.1 241.6 244.1 248 250.6 250.5 248.2 245.8 243.3 240.1 238.2 231.4 223.9 216.2 207.5 197.4 185.9 171.7 153 134.6 121.3 112.2 100.1 100.1 101.2 121.1 133.7 145 155 160.2 164 166.2 168.3 171.5 176.1 182.3 187.6 192.3 195.2 195.8 195.2 194.6 194.4 193.8 193.1 191.5 189.8 187.7 184.5 180.8 176.8 172.9 168.3 163.7 159.5 154.6 149.4 143.3 136.8 127.2 122 120.5 117.6 113.3 109.4 103.3 91.2 94 90.7 86.5 87.1 97
261.8 271.7 280.6 290.6 296.8 301.1 302.2 303.6 305.2 305.5 305.9 306.1 306.6 306.2 305.6 304.8 304.4 304.5 305.3 303.4 298.9 295 288.1 276.7 256 255.7 269.6 276.8 284.4 291.1 297.6 303.9 302.5 299.2 294.9 289.9 285.1 282.7 281.6 278.8 273.8 266.5 258.1 248.1 233.2 220.8 208.1 199.7 193.3 188.1 180.6 176.7 170.5 164.9 157.4 151.7 141.8 132.2 125.4 126 129.7 137.4 142.6 141.6 138.6 134.4 123.9 104.4 95.5 102 117.7 133.4 148.2 159.1 172.2 188.5 204.6 217.6 227.6 230.1 230.2 227.5 223.8 218.5 212.5 206.3 202.7 198 192.1 194.3 203.6 214.1 220.4 212.6 206.2 199.9 191.4 180.8 171.3 166.8 171.6 179.1 183 184.2 186.8 187.4 183.7 164.1 149.3 145.2 154.3 166.2 175.8 176.7 171.3 174.4 189 207.7 216.1 223.2 232.9 240.6 245.1 247 248.7 249.7 249.9 249.2 249.1 250.8 253.7 257.3 258 257.5 256 253.3 249.9 247.8 244.1 237.2 229.6 221 212 202.9 191.9 176.9 157.2 139.7 125.3 114.1 101.8 101.7 116.2 133.3 144.2 154.3 161.4 165.7 169.2 171.5 173.5 176.6 182.4 187.7 193.4 198.6 201.5 202.9 202.1 201.3 200.6 198.3 198.3 196.7 194.5 191.9 188.5 184.8 180.8 176.8 172.3 167.9 163.1 158.6 152.4 146.6 140.3 133.4 129.7 125.6 120.2 114.5 109 97.6 96.8 99.1 95 90.1 87.6 92.7
263.8 277.4 286.4 297.6 305.5 308.1 309.4 310.7 312.6 314.9 316 316.7 316.3 315.1 315 315.4 316.1 318.6 318.6 317.3 311.6 305 297.6 286.8 271.9 269.9 278.6 286.1 291.9 297.6 304.9 309.6 308.5 305.6 301.2 296.5 291.9 289.5 285.6 280 273.2 266.2 257.4 247.9 236.6 223.1 209.2 197.4 190.7 180.3 176.2 171.7 165.9 158.9 150.1 137 135.5 141.2 142.4 145.7 147.9 148.3 148.6 148.5 142.3 138.5 133.7 118.6 104.3 96.2 100.9 109.1 127.2 145.9 163.3 178.5 195.2 211 219.8 222 220.7 215.9 210.5 204.9 199.4 194.4 189.6 185.6 182.5 185.5 196.7 206.7 212.5 207.2 202.7 196.2 188.3 177.4 172.6 172.9 177.3 183.3 190.4 194.4 196.1 197 189.5 166.4 153.5 154.9 166.7 182 190 189.3 182.6 183.9 200.7 219.2 229.1 237 248.8 256.1 259.8 262.2 262.3 261.8 261.5 260.2 258.4 260.6 263.1 264.8 265.3 264.5 262.3 258.4 256.5 253 247.4 240.4 232.6 224.8 215.9 207.9 196.6 181.8 163.3 144.7 127.8 115.2 103.4 105.8 132.7 148.2 156.9 163.1 167.4 172 175.6 177.8 180.4 183.4 188 193.8 199.6 204.4 207.2 207.4 207.8 207 205.9 205.1 201.8 200.6 198.1 195.2 192.1 188.6 184.8 180.6 175.4 170.7 165.8 161 155.7 149.5 144 138.1 133.1 129 123.1 116.3 105.2 100.6 104 103.7 98.9 95.2 89.7 90.1
260.8 278.7 293.6 303.1 308.6 314.4 315.1 316.2 318.2 322.8 325.3 325.1 324.1 323.4 323.2 322.4 326.7 331.3 330.5 326.5 320.2 313 302.7 294.8 286.2 282.7 288.6 293.8 297.5 301.1 304.4 307 307.9 305.9 302.9 299.5 296.3 292.1 287.6 282.4 275.4 267.5 258.1 248.6 237.3 224.4 210.6 197.1 187.1 177.9 170.2 162.6 158 151.2 141.1 145.9 151.2 154.7 155.2 155.9 155.8 154.7 153.8 150.9 148.8 144.8 138.4 132.7 117.4 107.9 102.4 99.5 101.6 125.3 146.8 168.2 183.8 199.6 211 210.7 207 201.6 195.9 191.6 186.4 181.9 178.5 175.4 173.9 181.5 192.4 200.4 204.1 201.6 199.9 190.4 183.8 179.6 177.7 180.2 186 193.2 200.3 206.4 210 208 198.8 175.4 160.3 165.4 180.7 199.4 206.5 202.6 193.6 194.6 213.7 232.7 242.1 251.7 260.5 266.5 269.6 270.9 271.3 271.7 272.2 269.9 267.5 268.4 269.9 269.8 269.5 268.1 266.3 263.5 260.3 255.9 250.8 244.3 235.4 227.1 219.6 210.5 199 186.5 168.6 148.1 129.6 116.2 105.7 112.8 141.6 158.6 167.4 173 177.3 180.8 182.3 185 187.8 191.7 196 201.9 206.9 210.4 212.3 213 213.3 212.8 211.2 209.9 207.9 203.9 202.3 198.4 195.2 191.9 188 183.5 178.7 173.4 169 164.5 159.1 153.2 146.8 142 135.5 129.5 121.1 112.6 108.2 110.4 110.1 107.3 104.3 100.6 96 89.1
254.1 273.7 287 296.2 302.6 307.7 311.6 313.5 315.6 319.8 325 326.2 326.1 325.8 326 326.4 327.1 328 327.1 323.9 318.5 312 305.5 299.1 293.4 292.4 295.7 298.8 300.9 303.6 306.3 307.7 306.8 307.1 304.2 302.2 300.2 296.4 291.7 286.9 279.4 271.2 261.5 251.4 239.5 226.9 215 201.6 189.7 178.4 170.5 161.9 154.5 147 148.6 156.3 159.6 162.2 163.4 163.7 163.3 162.1 159.4 156.8 152.3 149.2 144.1 139.5 133.3 119.9 111.4 105.7 101.6 103.2 129.3 152.9 170.6 185.2 196.7 196.1 191.5 185.3 180.7 176.4 171.6 168 164.8 165.7 170.7 186.1 195.8 199.6 198.9 196.5 191.9 187.1 185.2 182.8 185.8 189.8 197.5 206.1 215.2 220.6 221 218.4 211.3 189.8 175.5 185 200.8 218.4 221.3 217.5 205.9 212.9 226.7 242.6 254.6 263.5 269.7 273.5 275.7 278.3 280.4 281.1 279.8 275.7 273.5 272.7 272.7 270.3 270 267 264.9 263.1 260.4 256.7 251.5 245.8 237.4 228.9 221.1 211.6 201.5 187.8 171.5 151.1 128.4 115.8 106.8 110.8 141.1 156.3 166.8 176.7 186.9 190 189.8 191.9 195.1 200.1 205.9 209.6 213.3 216 218.1 218.6 218.6 217.9 216.1 214.2 211.9 207.6 205.3 202.2 198.5 194.6 190.6 186.2 181.7 176.6 171.6 167.4 162.2 156.4 150.4 144.6 137.5 127.4 113.1 115.4 116.6 116.9 114.8 110.4 108.1 105.6 100.6 92.8
245.2 259.9 272.8 281.3 287.2 293.4 300.2 304.4 309.6 312.6 316.8 319.2 320.2 320.4 320.8 320.5 319.6 318 318 317.2 313.1 309.1 304.6 301.1 298.6 298.5 300 303.6 306.1 309.3 311.6 312.5 311.7 310.8 309.2 307 305.2 301.8 297.3 292.1 285.3 277.5 267.9 257.3 245.7 231.9 220.2 205.1 193.3 184 172.5 162.7 155.6 147.2 158.3 163.1 166 168.9 170.2 170.3 169.7 168.3 166 162.5 160.6 156.4 152.5 147.4 139.1 129.5 121.6 109.8 109.6 105.5 106.2 134.5 155.1 171.1 178.1 178.8 174.5 169.2 164.9 158.7 154.8 153.1 154.4 159.6 176.5 191.1 199.3 201.1 199.9 195.5 192.4 190.4 188.3 188.8 197 203.9 211.6 221.2 229.9 232.8 233.1 229.9 226.4 211.7 198.2 208.9 220.2 233.2 235 232.3 226.7 232.9 242 256.3 267 274.2 278.2 281.7 285.8 286.8 284.7 282.1 278.7 274.1 271.3 267.1 264.9 264.4 265.2 262.1 260.4 260.4 258 254.6 248.9 243.4 236.6 228.4 221.8 211.8 200.6 185.5 168 149.3 129.4 115.4 107.1 109.4 137.4 152.6 161.5 175 185.8 194.7 195 197.9 202.2 208.7 213.3 216 219.1 221.7 223.8 224.2 223.3 222.4 220.5 218.9 216.5 210.9 208.6 205.6 202.1 198.5 193.1 188.7 183.8 179.8 174.8 169.5 164.3 158.8 153 146.2 137.1 122.7 124.4 125.6 123.5 121 117.7 114.2 111 107.2 102.1 94.3
236.2 247.6 254.9 263.7 272.2 280 289.3 297.2 303.5 307.5 309.9 312.3 313.4 313.8 314.6 313.4 312.4 310.3 308.8 305.3 303.4 303.8 304.2 304.9 305.3 305.2 308.3 309.3 312.9 315.9 317.3 317.9 318.5 319.1 317.9 315.9 313.3 308.2 304 298.4 291.2 283.6 274.8 264.5 252.7 238.5 225.4 212.7 200.5 190.2 176.4 164.4 156.5 154.4 163.7 168.8 172.6 175.8 177.7 177.6 176.8 174.5 172.1 168.9 165.4 163.1 159.1 153.3 145.3 135.1 123.9 115.3 119.2 115.3 106 114.4 135.7 153.5 161.4 162.1 156.5 151.3 146 141.9 140.6 144.3 149.5 158 176.2 192.3 197.3 199.9 200 198 196.9 198.5 199.8 204.1 210.8 218.9 227.9 237.8 244.2 247.3 246.4 245 240.6 231.9 225.7 230 237.1 243.2 245.6 243.3 241.6 247 261 272.3 277.9 279.8 283.9 288.6 288.1 283.2 277.3 275.3 271.1 265.5 260.5 256.4 253.7 252.7 253.9 252.8 250.9 251.9 250.9 248.5 244.7 239.5 233.4 227.1 218.5 209.6 196.7 180.2 163.1 145 126.9 111.3 107.4 109.3 136.4 151.4 164.5 173 180.8 191 197.1 201.2 205.7 213.5 218.9 221.7 225 227.2 228.5 229.1 227.9 226.9 224.9 222.3 219.4 215.8 211.7 208.9 204.9 200.6 196.3 191.3 187 182.7 177.9 172.7 166.1 159.6 152 141 129 132.4 134.4 131.5 127.7 123.7 120.1 116.4 110.9 106.5 98.3 95.9
228 236.3 247.8 256.2 264.8 273.6 280.5 289.8 296.9 301.7 305 306.5 306.4 306.3 305.1 305.3 304.2 303.2 301.5 299.9 301.1 302.8 306.6 311.7 312.8 314.2 315 316.2 318.4 320 322.9 324 325.8 326.6 326.1 324.2 320.9 316.3 310.9 304.6 297 289.4 281 270.3 259.3 245.9 232.2 219.2 207.4 196.9 180.8 166.6 159.1 160.1 168 176.3 183.3 186.2 186.3 185.2 183.9 181.8 178.3 174.5 171.2 167.8 163.8 157.6 148.7 135 123.2 127.5 129.4 125.6 112.7 107.7 118.5 137 143.7 142.7 137.3 133.3 133.1 136.1 145.9 155.8 160.5 157.2 165.5 182.5 191.1 196.6 199.6 203.2 207 210.2 212.7 218.5 226.6 235.9 246.3 255 259.2 261.5 261.5 259.8 256.8 246.8 242.4 245.7 252.4 256.9 258.6 256.9 251.9 263 275.5 283.1 284.3 285.7 285.6 283 279.1 273.6 268.7 263.9 259.7 255.5 249.2 242.7 240 239.1 240.9 240.1 239.3 239.7 240.1 239.5 236.5 232.4 228 222.5 214.1 204.3 189.7 174.4 158.1 138.5 118.7 110 109.1 107.4 132.3 150.3 162.6 170.5 176.3 186.5 195 199.7 205.7 216 222.6 227.5 230.7 234.4 234.2 232.6 231.3 229.9 227.7 224.5 221.8 218.7 214.6 211.3 206.6 201.8 197.6 193.4 190 185.3 179.7 174.1 166.6 159.3 146.2 138.9 142.6 142.2 139.7 135.5 130.3 126 121.9 117.2 111.5 102.7 104.4 100.5
224.5 241.6 253.6 261 269.5 275.3 281 286.4 293 297.7 300.1 301.9 301.3 301 299 297.8 295.3 294.1 293.2 293.2 294.3 300.6 307.3 313.6 317 318.6 319.4 321.6 324.2 326.4 328.7 331.2 334 335.7 334.3 332.7 328.2 323.3 316.6 310.4 302.6 294.6 285.2 275.4 265.5 253.5 240.1 227.6 214.6 202 185 173 164.4 167 177.6 186.1 192.1 194.6 195.2 194.1 191.9 189.8 184.6 180.5 178.7 174.7 169.6 161.3 149.7 133.5 133.9 136.9 135.6 131.4 116.3 106.6 111.9 119.9 124.5 124.8 124.2 129.7 136.7 145.8 158 170.8 174.6 174.1 172 174.4 187.7 193.9 200.7 208.6 215.4 220.4 227 236 246.7 256.4 266.4 271.4 274.6 275.1 275.5 274.8 270.9 264.5 260.6 261.2 266.6 269.5 269.4 267.9 264.5 273.9 283.3 291.4 289 285.6 279.2 275.1 267.9 260.9 255 249.3 244.9 242.2 238 229.2 224.7 226.3 228.6 228.4 226.2 226.1 226 224.2 221.7 219.8 217 213 205.6 194.4 182.3 168.6 151.3 130.1 113.8 114.1 111.3 109.5 123.6 143.6 156 165.9 173.7 184.2 191.3 196.5 205.6 218 225.1 230.3 235.3 237.9 236.9 234.6 232.5 231.6 227 225.7 221.2 220.2 215.4 211.3 205.5 200.3 195.8 193.2 190.7 186.3 181 173.3 164.1 150.7 149.6 151.5 149.4 146.3 141.7 136.8 131.1 127 122.7 118.5 109.7 109.5 110.2 105.8
221.5 240.8 256.1 267 275.5 282.3 288.4 291.5 294.3 297.3 297.5 297.4 296.6 295.6 293.1 290.5 288.2 286.9 285.8 287.5 292.1 299.8 307.6 312.6 318.6 321.1 324 326.8 329 331.6 335.1 339 342.4 343.5 339.9 336.8 331.2 326 319.7 313.9 307.6 298.8 289.9 279.5 269.5 259.2 248.2 236.8 223 208.1 190.9 179 172.9 174 185.9 198.3 202.9 204.9 204.9 201.7 199 194.8 191.3 187.6 186.9 181.1 174.8 162.8 146.4 136.9 143.4 145.7 144.6 139.9 122.5 108 117.3 119.3 122 126 133.9 142.3 153.5 166.4 176.7 181.2 184.1 186.4 186.7 186.2 185.9 196.1 204 213.7 223.8 233.5 245.2 256.4 266 274.9 283.4 287.5 289.6 289.9 290 288.9 283.5 276.1 273.4 274.5 280.9 280.1 275.5 275.2 275.1 280.9 286.1 288.1 284.2 278.7 270.8 262.6 255.7 248.4 241.2 234.7 230.3 230 224.5 215.9 206.9 209.5 211.9 211.2 208.3 206.2 204.8 203.7 204.8 204.9 203.7 200.7 194.2 183.4 172.1 160.3 141 121.2 114.9 127 115.1 110.7 117.7 134.6 146.1 155.1 166.4 178.6 190.5 194.3 202.9 215.3 222.9 229.2 233.5 234.9 234.9 233.7 232.3 230.1 227 225.7 221.7 218.5 213 207.9 202.2 195.2 191.3 186.7 185.9 182.4 176.6 169.7 157.1 155.8 157 154.2 149.7 145.6 140.8 136 130.8 125.9 120.5 114.4 111.6 114.7 112.9 109.2
221.6 238.5 255.7 269.1 280.4 288.1 294.7 299.7 300.8 301 299.3 295.8 293.4 290.7 285.6 284.6 281.6 279 278.7 286.9 297 303.9 309.7 315.9 321.6 325.9 329 331 333.8 336.3 338.8 340.5 341.6 341.1 338.9 336.5 332.4 327.2 320.1 313.6 306.3 299.2 291.1 283.2 274 264.3 254.2 243.2 231 215.1 198.3 184.5 179.6 183.9 196.9 208.7 213.8 215 213.1 209.5 205.5 201.1 196.8 192.5 188.2 180 171.4 158.4 148.3 153.9 157.2 156.2 153.9 143.6 127.3 109.1 123.8 134.3 137.5 146.2 154.9 164.3 173.7 177.9 184 188.8 192.7 195.7 196.8 194.7 195.5 204.6 216.7 226.4 238.4 251.6 264 274.5 284.8 293.8 297.9 299.7 302.1 302.1 304.1 302.6 296.2 289.1 284.1 283.3 284.9 284.1 282.1 282.2 278.6 282.4 282.5 281.9 278.2 272.8 262.4 252.5 241.4 232.9 225.7 220.1 211.4 209.9 208.3 200.3 193.1 191.2 193.1 193.5 185.2 185.5 184.1 185.6 187.2 187.8 186.9 184.2 178.9 171.7 161.8 148.8 132.9 115.3 127.3 145.1 120 112.9 114.4 126.3 136.4 145.3 159.7 172.5 182.7 184.8 197.4 211.2 220.7 228.4 232.7 234.9 234 234.4 234.2 231.7 228.3 224.7 220.4 214.8 209.1 203.2 197.7 192.3 187.4 182.4 174.7 174.6 168.5 162.1 159.5 161.4 159.3 155 149.7 143.8 138.2 132.8 128 121.6 116.1 118.7 119.8 118.7 115.8 112.4
222.4 232 246.9 261.2 272.3 282.6 287.8 291.3 292.2 291.8 291.2 289.8 288.5 286.6 283.2 280.4 272.9 274 278.6 288.1 297.2 305.3 312.6 320.5 326.3 330.4 332.9 334.5 335.2 334.7 332.8 331.5 330.7 329.8 328.9 328.7 325.8 320.8 315.9 311.1 305.2 299.6 292 285 276.3 267.4 257.7 247.4 234.8 221.5 206.3 192.5 187.8 194.7 207.8 218.3 223.2 223.2 219.1 214.4 209.5 204.8 199.5 193.9 186.9 176.5 164.5 160.5 162.9 168.2 171.4 175.5 165.3 146.8 125.3 108.6 129 151.1 154.4 156.4 167.6 175.3 180.3 186.8 192.1 197.4 201.6 206.1 210.5 209.9 209.9 218 228.4 243 256.7 270.4 283.2 295.8 306.1 309.2 308.7 309.7 311.2 312 312.1 306.5 299.4 292.9 288.1 286.2 284.3 281.9 279.8 279.7 276.1 276.3 274.5 271.3 268.8 263.7 252.7 240.8 227.1 215.4 210.4 203.6 190.4 184.9 183.8 180.4 173.8 166.8 166.7 165.4 161.8 161.1 163.6 165.7 166.6 168.9 168.4 166.8 163.4 156.8 151 138.2 125.3 116.2 139.2 147.7 134.6 115.7 114.5 117.6 130.5 140.1 153.1 165.4 171.4 175.3 191.1 211 223.6 231.3 234.9 237.4 238.2 238.5 236.6 234.5 231.4 226.8 222.7 217.7 211.1 205.3 199.2 194.4 189.5 184.4 176.2 172 168.9 165.9 164.5 162.9 156.8 152.6 147.2 140.1 133.3 127.9 123.8 125.8 125.4 124.9 124 121.2 118.1 113.9
226.2 227 239.2 250 257.2 266.1 272.2 276.4 278 278.8 279.6 278.8 278.4 277.5 273.2 270.6 268.1 273.5 282.8 289 296.8 307.2 317.5 326.4 331.3 334 334.2 335.1 332.8 330.3 326.8 323.3 318.7 315.5 312.8 313 315.9 312.7 310.1 306 300.9 297.1 292 285.8 278.1 268.4 258.2 248.2 238.4 226.3 212.4 199 196.8 204.8 216.1 225.8 232.3 229.4 223.7 217.3 211.1 205.8 198.8 191.6 182.3 171.7 166 170.6 174.7 177.9 182.4 184.3 169.7 146 121.2 111.5 133.8 152.3 161.8 163.1 171.5 180 187.4 193.6 199 203.7 209.9 218.5 223.4 225.8 230.4 234.2 242.4 259.7 274.6 289.3 302.6 311.1 315.8 316.8 316.6 315.7 314.4 311.5 307.1 302.1 295.1 287.9 284.9 281.8 279 275.7 273.2 271.3 269 265.3 264.4 260.7 257.4 252.2 242 231.2 214.4 200.1 191 184.7 168.9 162.8 161 155.6 154.7 150.7 150.7 144.8 141.4 138.1 139.2 142.6 145.2 144.6 143.5 143.5 143.5 143.8 137.8 127.7 118 128.4 150.6 160.5 154.7 133.6 118.3 115.9 123.1 131.3 143.3 153.8 159.1 167.3 185.5 211.4 223.9 234 238.3 240.8 241 241 238.7 237 233.8 229.6 224.3 220.3 213.6 208.5 202.5 196.9 191.5 186.7 181.8 176.1 171.2 166.4 161.7 157.5 153.7 149.9 142.8 135.4 129.5 131.7 131.5 130.9 129.6 128.1 126.2 122.6 119 112.6
242.3 238.3 229.3 235.9 242.3 248.9 255.2 260.1 262 264 265.3 265.1 265.3 264.5 263.2 265.1 267.2 280 291.6 295.1 297.7 306.3 313.4 320.6 326.5 330.6 332.8 331.9 330.4 328.2 323.5 318.4 311.8 305.6 294.9 297.3 298.5 297 295.9 294.3 292 288.4 283.8 277.9 271.6 264.2 255.4 247.5 241.7 232.3 220.4 206.4 206.1 213.2 222.8 231.4 234.5 230 225 218.1 210.8 203.1 195.4 187.2 178.1 172.2 175.8 179.4 182 185.1 187.9 181.9 163.4 140.1 116.1 116.8 141.7 160.7 167.5 169.6 174.7 184 192.3 199 203.9 212 221.8 231 238.2 242.6 250.3 254.2 263.6 276.3 290.7 305 312.3 318.5 320.6 321.8 320.3 317.6 313.9 309 303.5 296.3 287.5 281.4 275.8 272.1 269.8 266.2 262.4 261.4 260 255.6 251.4 248 244.8 237.7 230.8 218.5 204 188.4 176.7 167.4 160.4 168.6 172.9 171.9 171 169.3 167.1 166.1 164.6 161.7 154.3 147.8 138.8 129.7 126 125.1 125 123.8 122.5 123.8 131.1 144.9 165.1 169.3 165.5 155.8 138.2 122.4 120 119.5 124 141.1 147.5 160.9 186.3 211.5 225.8 236.7 241 242.7 243.4 242.6 240.6 238.3 235 231 226.2 221.4 214.7 211.5 205.9 200.4 194.5 189.3 184 178.2 172.6 166.7 161.2 155.5 148 143.3 139.3 139.1 138.6 137.7 136.1 134.7 132.9 130.4 127.4 124.3 119.9 111.3
255.7 260.2 249.2 241 235.2 234.1 241.8 245 247.4 250 251.8 252.1 252.9 254.8 257.9 262.6 269.8 283 298.1 303 304.6 307.6 311.6 317.7 324.1 328 330.6 331.8 330.2 326.9 322.4 316.2 308.2 293.5 279.4 277 279.9 279 277.4 277 275.3 274.2 271.1 267.8 263.2 257.4 251.4 244.4 237.5 228.9 219.8 212.4 215.1 222.2 228.6 233.2 234.9 230.1 223.7 216.8 209.5 200.4 192 183.5 178.3 179.7 183.2 185.4 188.1 191.3 187.4 171.1 152.3 129.6 115.4 132.3 151.4 163.1 168.1 174.2 180.9 188 195.3 202.2 210.9 222.2 233.2 242.8 252.3 259.3 266.4 273.2 280.2 290.9 304.4 314.2 319.2 323.2 324.1 323.9 321.4 317.3 312.6 307.5 301.6 292.2 285.4 278.4 270.6 263 258.8 255.7 249.7 249.9 248.1 243.2 236.9 232.5 230.8 227.1 217.7 205.2 190.6 175.7 166.5 164.6 182.8 189.5 192.5 196.2 196.7 195 192.5 190.6 188.8 184.9 178 169.4 161.2 153.8 148.9 142.4 130.5 131.7 136.3 142.7 151 165.5 174.4 175.3 170.6 167.1 159.2 145.8 136.9 129.1 125.4 126.7 138.2 154.7 184.8 209 224.9 233.6 238.1 239.7 240.6 239.9 239 237.2 234.5 231.4 227.5 222.7 217 213.5 208.7 203.1 197.6 192 186 179 173.1 167 159.6 152.1 149.1 147.7 146.6 144.6 143.3 141.7 140.2 139 136.5 132.5 129.1 125.7 120.5 115.3
268.9 276.1 277.5 268.5 253.4 243.9 241.1 246 248.9 250.9 251.9 256.2 260.2 263.9 267.5 262.3 271.3 284.4 296.5 304.9 310.2 316.4 319.2 322.9 326.5 329.5 331.2 331.7 329.7 326.7 321.5 315 306.8 286.6 263.3 257.1 259.3 257.3 256.4 256.5 257.9 259.8 261.2 260.5 257.5 254.6 248.9 242.9 236.5 231 223.5 219.6 222.2 227.8 231.3 233.8 232 227.6 221.3 213.9 205 196.5 189 183.8 183.4 187.4 189.7 191.6 192.3 185.4 173.2 155.7 131.9 114.8 119.6 136 155.2 162.7 167.3 176 184.9 192.3 200 208.9 221.6 232.8 242.7 254.2 265.3 274.4 281.4 287.7 294.2 302.3 312.9 318.3 323.5 326.4 327.1 326.6 323.3 318 312.8 307.2 300.2 293.5 286.1 279.7 270.9 260.9 252.7 246.3 239.9 236 233.5 227.7 220.8 218.9 214.5 215.7 206.2 191.6 177.3 168.3 179.3 189.1 203.4 211.1 217.4 220.6 220.3 217.7 215.2 213.1 209.5 205 198.7 190.6 184 177.6 166.5 156.1 136.8 149.6 159.7 163.8 169.4 175.7 181.5 179.1 175.5 171.2 167 160.2 155.5 139.3 127.2 125.1 135 153.9 181.4 204.1 219.5 227.9 233.5 235.6 235.8 235 234.5 233.4 231.9 229.9 226.5 223.6 218.1 213.8 209.1 204.1 198.5 192.9 186.7 180.2 172.6 164.1 161.7 159.1 156.1 152.8 149.5 146.1 143.6 141.6 141.7 140.3 137.8 133.5 128.9 124.8 119.8 117.4
286.6 294.1 297.1 282.8 261.8 249.5 256.1 260.7 265.1 266.7 268.2 270.4 274.5 280.3 283.6 278.5 264.9 272.4 291.8 304.5 311.6 316.7 321.8 325.9 329.5 331.9 333.4 333.2 330.7 326.2 320.6 314.1 302.9 291.1 269.3 246.7 240.5 235.4 234.6 236.5 238.2 242.8 250.7 252.7 252.3 251.7 248.1 244.5 239.3 234.1 229.4 226.3 228.6 231.1 233.5 233.7 230.4 225.6 218.7 210.8 201.6 194.1 189.9 187.7 190.4 192.4 195.3 195.6 183.4 169.4 154.8 134 118.4 129.2 127.7 128.5 145.3 152.1 163.4 176.8 186.7 197.7 207.9 216.9 227.9 239.9 251.1 265.3 276.5 288.2 296.1 301.5 306.6 311.2 316.7 322.1 327.2 330.1 332.3 328.1 322.4 317 311.3 304.9 298.5 291.8 285.1 276.9 269.5 261.6 250.9 240.3 232.9 226.7 221.5 214.8 208.6 204.6 204.2 202.2 196.7 180.5 167.3 181 197.6 211.9 222.4 230.4 236.9 239.6 237.2 233.8 229.7 225.3 221.3 215.8 207 198.9 190.2 182.8 172.5 154.8 150.9 165.6 176.1 179 181.1 182.7 183.6 181 177.6 172.5 167.2 160.1 147.7 133.7 130.5 126.6 132.4 152.3 176.6 197 211.9 222.3 227.8 229.1 228.5 228 228.8 230.2 230.5 229.2 226.5 223.6 218.5 214 208.7 203.2 199.2 193.3 186.5 179.6 175.2 171.6 168 163.1 159 154.4 150.8 147.1 143.2 139 137.9 136.2 134.7 132.2 127.8 123.6 118.3 118.3
313.2 318 309.1 286.3 260.8 257.6 268.1 280.4 291.3 298.8 301.2 304.4 307.7 314.8 311.9 300.8 280.2 270.6 284.9 296.4 304.6 310.5 316.4 323.4 330.3 335.1 337 336.5 332.6 327.6 320.5 315.1 310.4 302.6 283.7 256.3 242.4 231.8 220.8 218.7 217.3 223.1 233.3 240.6 244 246 246.1 245.6 242.1 235.7 233.9 230.9 233.7 235.9 236.5 234.7 231 226.3 218.5 210 202.9 195.9 192.7 193.5 196.2 195.4 192.1 181.9 166.9 149.6 132.9 118.9 128.8 142.4 144.4 132.2 130.6 140.3 155.4 172.2 187.8 203 208.6 217.3 230.6 245.6 259.6 273.2 287.3 298.2 305.8 311 312.5 315.7 319.1 323.4 327.9 331.5 332.4 327.1 320.4 313.7 308 303.1 296.6 289.6 282.1 276.1 270.8 264.1 256.2 249.5 242 233.8 227.1 227.7 221.1 202.5 190.9 190 180.8 170.8 177.1 197.8 216.8 229.1 237.4 246.3 249.4 249.1 246 242.9 239.1 235.2 229.1 218 205.7 195.4 186 175.1 162.9 161.7 166.6 178 186 188.4 190.3 189.3 186.5 182.5 176.8 169.5 154.2 144.1 135.4 136.2 144.1 131.1 129.1 147.5 170.3 187.5 200.8 212.7 218.6 220.7 221.1 221.4 224.3 228.7 230.2 229.6 227.3 223.7 218 212.8 208.8 204.5 199.4 194.5 189.8 185.1 180.1 174.9 170 165.2 160.7 155.6 150.6 146.5 141.6 136.4 134.1 131.5 128.7 125.4 123.6 121.1 120.7 120
333.7 330.9 317.5 291.9 267.6 270.9 285.9 305 319.9 328 330.7 331.1 330.5 328.5 324.8 317 295.5 275.7 281.4 288.8 297 303.2 311.4 322.1 331.7 337 339.4 339.2 335.9 331.5 326.4 321.5 315.3 308.5 297.6 279.1 266.2 251.8 239.2 223.9 206.6 205.8 216 223 228.6 236.3 238.5 242.6 241 238.3 236 237.3 239.6 241 240.6 237.5 232.5 226.3 220.6 214.8 206.3 200.1 198.4 199.7 199.7 192.2 179.4 163.9 147.9 132 119.2 129.5 140.5 146.6 150.5 146 140.8 133.9 149.9 168.9 181.7 188.3 193.5 206 225.1 241.2 260.7 277.7 293.1 305.1 312 313.8 317 320.3 324.1 326 327.9 330.1 327.9 323 317.5 310.8 305.7 299.4 294.1 286.3 280.6 276.2 271.3 267.2 262.8 257.9 254.3 249.5 244.6 237.1 227.2 214.9 197.3 180.5 173.7 174.2 192.4 214.7 230.9 244.1 252.7 258.6 262.1 258.4 255.2 251.1 244.1 234.9 224.2 212.9 201.6 191.2 180.6 172.2 176.8 181.8 186.4 192.3 195.5 198.8 200.8 197.7 193.3 185 175.5 159.6 143.6 142.6 146.8 151.5 150.8 140 129.9 139.3 159.9 173.8 188.9 201.2 208.8 210.4 210.1 211.2 218.2 225.5 230.9 231 228.3 224 218.8 214.2 210.5 206.2 201.7 197.2 192.3 187.3 182.1 175.9 170.6 165.3 160.6 155.3 149.4 145.2 142.1 140.7 137.9 133 130.5 129.1 127.2 125.4 123.3 124
343.4 339.7 327.5 300.3 272.4 284.9 303.2 324.1 336.7 339.7 341.3 341.1 339.5 336.6 332.1 319.7 296.2 283 292.7 303.4 313 320.4 327.7 333.7 338.7 341.7 341.9 340.8 339.1 335.9 332.5 327.7 322.5 315.4 307.7 299.5 281.1 261.6 248.8 236.4 220 200.2 195.7 204 209.2 212.1 214.6 216.2 227 235.9 242.3 245.2 250.1 247.5 244.4 241.3 234.1 228.3 222.5 215.8 208.5 203.8 203.9 202.4 196.4 183.8 166.5 149.4 130.3 119.9 130.9 141.7 148.1 152.9 156.6 158.3 156.9 147.1 143.6 157.2 166.3 171.4 183.4 203.2 219.4 237.1 256.2 276.7 294.3 306.4 312.2 317.4 321.7 325.1 327.7 329.6 329.1 328.7 326 321.1 316.4 312.6 303.9 293.3 283 274.4 269.6 267.8 269.6 267.8 264.9 259.4 255.3 249.5 239.8 228.2 216.3 203.6 195.4 180.6 174.5 185.7 206.7 224 240.2 250.4 261.9 266.3 268.6 263.9 258.5 250 240.3 232.7 222.2 213.2 204.2 193.3 185.2 185.9 195.2 200 204.9 209.1 212.4 213 212.1 208.8 199.9 190.2 176.2 155.4 147.4 155.7 161.5 162 157.3 146.5 134.9 133.4 141.6 158.2 175.5 187.6 194.4 191.5 191.9 201.9 214.9 227.7 233.9 232.5 229.5 225.1 221.1 216.9 212.8 208.8 204 199 194 188.5 182.8 176.1 170.9 164.3 158.7 154.5 151.9 149.5 147.1 144.9 141.5 138 133.5 133.2 131.8 129 127.2 126.6
352.5 348.4 338.6 307.6 279.9 301.7 324.2 341.7 348.1 350.2 350.4 349.3 347.2 343.5 337.6 317 290.9 294.6 308.9 323 331.7 336 339.5 342.9 345.5 346.7 346.9 347.1 344 341.4 337.8 333.3 327.7 320.6 311.2 291.2 268.9 250.3 237.3 228.1 217.8 207.8 196.1 184 189.1 189.5 188.2 191.1 200.4 221.8 234.7 242.4 247 248.6 245.8 242.6 236.8 229.7 223.3 217 211.4 208.3 206.8 201.9 193.2 176.2 156.2 136.4 120.9 135.5 144.7 150.6 156.3 158.6 161.6 165.8 172.6 171.6 161.1 154.5 156 168.7 186.6 211.6 229 246.1 264.5 279.7 292.7 306.4 315.5 322.2 326.8 329.6 331.8 332.9 331.6 330 327.5 324.1 320.3 315.3 308.8 300.4 287.3 270.5 255.5 252.2 259 259.3 257.6 254.9 249.6 241.4 230.5 216 199.6 182.3 178.3 179.7 183.1 201.2 216.4 227.4 235.6 246.2 255.5 260.7 262.5 261.5 256.5 248 241 236.4 230.5 222.5 212.1 202.4 197 201.9 211.3 217.7 223.3 227.6 231 231.3 227.3 220.3 208.1 194.2 177 157.4 158.5 170.3 175.2 173.1 167.7 158.8 149.9 144.1 135.9 143.8 157.6 170.1 174.3 173.9 189.5 202.1 217.5 231.7 236.9 233.8 230.8 227 223.2 219.1 215.3 211 206.1 200.7 195.1 188.7 183 177.3 171.2 166.6 162.6 159.6 156.7 153.1 150.4 147.8 145.2 141.2 139.7 135.1 134.2 131.4 128.9 127.9
359.7 355.5 346.2 317.2 304.3 330.1 348.2 355.9 358.3 359 359.2 357.3 354.7 351.1 336.9 309.7 296.4 312.1 328.3 338.9 344.2 347.8 350.3 352 352.9 353.8 353.7 352.7 350.1 347 343.6 338.3 332 323 306.1 278.7 256.8 236.8 221.3 210.9 202.9 195.4 185.1 176.3 173.9 171.8 168.9 166.7 177.5 194.6 212.6 222 233.9 242.6 245.5 243.6 238.6 231.2 224.6 219.4 215.2 212.4 208.4 199.7 185 168.7 148.6 129.7 128.7 142.6 150.1 155.8 161.3 164.7 169.6 175.7 183 189.5 188.2 177.3 168.2 166.9 188.5 212.7 232.5 252.6 271.1 286.7 301.3 314.2 323.4 328.9 332.4 335.2 337.1 337.8 336.2 334.6 332.4 328.8 322.8 317.1 309.8 301.7 291.5 275.9 255.3 239.5 247.6 249.9 246.1 243.9 240 232.9 218.2 199.2 184.1 186.4 193.4 195.8 183.3 198 206.4 212.2 225.7 236.9 244.9 251 257.5 257.7 256.7 252.7 249.9 246 240.5 233.5 223.5 216.7 216.6 219.9 227 235.4 241.9 248.1 252 251 242.1 230.3 216.7 199.3 179.9 160.5 169.9 185.5 188.3 185.1 182.1 176.4 169.5 160.5 153.8 142.4 141.2 149.2 158.2 177.8 187.2 202.3 221.6 230.9 235 234.4 232.2 228.9 225.6 222.2 217.9 212.8 208.2 202.8 197 190.4 185.1 180.3 175.3 170 165.9 162.6 159.4 155.3 152.7 150.3 146.7 143.8 140.1 137 136.5 133.3 129.8 127.2
366.5 362.5 352.8 322.5 330.9 352.9 361.5 365.8 366.8 367.3 366.6 364.7 361.6 357 334.2 305.9 312.1 331.4 347.9 353.9 357.6 359.8 361.1 361.1 362.4 361.3 359.8 358.2 355.9 351.1 347.4 341.7 331.9 320.5 301.7 273.7 245.1 226.9 209 198.5 193.1 187.7 178.5 185.5 187.3 185.6 183.9 177 160.5 175.4 187 203.9 218 229.5 236.3 238.6 234.5 231.2 228.7 224.7 218.8 213.2 204.5 193.9 176.5 159.6 138.5 125 133.3 140.2 155.2 161.1 165.6 171.4 180.4 188.2 195.9 204.9 210.3 206.6 188.3 178.9 185.6 207.2 229.5 252.5 273.2 294.6 312.6 322.6 330.6 334.9 338.4 340.9 342.5 343.3 341.6 340.3 336.7 330.8 325 317.8 309.5 300.4 288.5 271.8 254.6 236.6 238.6 238.9 235.6 229.4 224.5 217.1 207.4 187.7 192.5 205.3 210.9 214.7 205 197.8 193.5 198.8 212.7 222 227 238.6 249.3 256.3 260.6 263 260.3 255.9 249.4 244.4 238.8 237.6 240.7 245.2 251.7 258.3 264.9 269.8 268.6 262.7 254.6 242.6 228.2 206.1 185.1 168.3 178.9 199.5 200.8 198.7 195.1 192.5 188.4 181.3 175.8 165.1 149 142.4 153.1 171.9 184.9 202.9 218.3 226.7 233.5 236.3 234.7 230.8 227.4 224.3 220.2 215.5 210.1 205.4 200 193.9 187.7 183.2 179.4 174.4 169.3 166 162.6 158 155.4 152.8 149.9 146.9 144.2 141 137.2 134 130.8 127.5
372.8 368.8 359.9 343.6 353.8 366.3 371.7 374.2 375.2 374.6 373.6 371.2 368 359.7 333.7 336.5 346.5 347.4 360.2 363.7 367.2 369 368.8 369.6 369.3 370.7 367.7 364.6 361.4 356.9 351.9 345 322.8 294.9 277.2 258.3 234.3 214 201.7 193.7 186.7 183.2 187.3 192.3 197.5 196.7 193.1 185.7 173.8 160.8 166.7 182.3 195.1 209 212.5 218.3 218.5 219.2 224.7 226.9 221.4 212.5 198.1 183.7 166.5 149.5 133.9 131.9 144.7 146.3 151.6 164 170.9 180.2 190.3 197.6 208.9 220.5 227.3 226.7 212.1 197 186.6 204.9 228.9 255.8 280.6 306 321 328.7 336.5 340.7 343.8 345.8 347.1 346.7 345.8 343.1 338.2 332.5 325.3 315.6 306.1 291.9 275.7 260.2 244.6 229.9 225 223.1 217 210 208.7 199.8 192 193.1 206.4 216.6 224.2 229.1 226 219.4 213.7 202 204.5 209.1 214.2 223.7 240.5 254.1 269.1 273 271.8 267.6 267.3 264.1 261.9 263.5 265.5 269.3 274.5 279.8 286.9 287.6 284.8 277.8 267 255.7 237.1 214.8 193.4 177.5 184.6 207.3 212 211.1 208 206.2 202.5 197 190.8 184.9 174.5 146.8 151.9 164.5 184.4 202 216.4 225.7 231.6 234 234.2 231.8 229.5 226.6 222.7 217.9 213.7 207.8 202.4 196.8 190.7 186.5 182.2 177.8 173 169.1 165.5 161.7 158.3 154.9 151.6 148.1 145.1 142 138.4 134.8 131.6 128.1
378.6 375.4 367.4 363.4 372.3 376.3 380 381.5 381.9 381.7 380.6 378 375.5 365.2 347.7 360 366.1 369 370.4 372.9 374.1 376 377.6 378 373.3 373.4 374.2 371.7 368.8 364.6 358.5 347.7 319.3 281.4 256.1 237.2 218.6 205.1 194.6 188.9 190.4 193.6 199.2 209.2 212.5 210.2 204.2 194.8 185.5 172.8 161.1 155.1 167.5 179.4 187.9 194.3 197.8 198.1 204.1 209.9 208.3 200.7 188.3 172.6 158.1 140.7 129.1 143 152.2 156.7 158.7 163.7 179.2 187.2 196.9 208 221.8 235.3 244.3 247.3 235.4 218.1 205.7 209 235.3 264.5 289.3 312.4 328 334.8 340 343.6 347.4 349.2 349.6 349 347.7 343.7 338.6 331.6 321.9 311.2 296.7 280.6 263.2 249 234.1 221.6 212.7 207.9 205 205.7 205.7 203.8 196 201.9 216 226.9 235.9 242.4 246.3 245 236.1 223.5 219.7 221.1 223 219.1 228.4 255.2 273.7 281.1 283.9 282.8 281.4 281.8 284.1 285.5 286.9 290.7 294.8 300.3 301.1 300.5 296.6 289 279.7 266.3 247.2 225.2 204.7 187.5 188.2 211.7 223 224.4 221.2 216.4 211.6 204.7 198.8 190.6 182.6 163.1 147.3 164.8 184.4 201.1 213.9 223 229.3 232.6 235.3 235.1 232.3 229.3 225.6 220.6 215.7 210.3 204.6 199.2 194.3 189.2 185.1 180.6 176.1 172 167.8 164.5 160.3 156.5 152.7 149.2 145.7 142.5 139.1 135.2 131.5 128.4
383.5 381.4 377.4 377.8 381.9 384.9 386.7 387.6 388.3 388 386.8 384.9 381.2 372.4 370.1 375.3 376.4 377.9 379.1 380.4 381.4 382.2 382.6 382 381.4 380.4 379.8 377.1 372.7 368.2 362 351.8 316.4 277 245.4 223.8 209.2 200.4 205.6 202.5 205.5 212.6 223.4 230.6 231.4 228.1 222.3 211.2 200 188.1 174.4 161.9 151.3 156.7 163.7 170.3 175.6 179.3 181.5 186.8 188.5 182.4 173.2 161.1 146.2 130.7 139.8 149.6 157.9 165.7 170.3 170.8 175.5 193.4 203.8 218.8 235.9 248.9 259.6 265.1 260.1 243.4 230 219 243.2 271.6 294.6 317.3 332.8 338.7 341.9 345.2 349 350.6 350.2 349.6 346.6 342.2 336.3 328.3 318.2 305.4 286.8 268.2 252.7 239.6 224.9 216.7 217 219.5 221.2 224.2 225.5 211.3 196.4 210.4 226.7 238.1 248.6 255.8 261.8 265.8 262.8 241.7 245.1 244.8 247.2 244.1 231.5 258.5 278.7 291 293.6 294.3 297.5 298.1 299 300.6 302.6 306.4 310.7 312.7 311.9 309 304 297.1 289.4 278.9 258.3 235.1 214.7 196 193.1 217.2 231.6 233.3 229.4 222.9 216.6 209.2 201.1 192.4 182.5 170.4 147.4 164.1 183.8 198 210 221.1 228 232.6 237.4 238.3 236.4 233 228.7 223.4 218.2 213.2 207.4 202.1 197.2 192.6 187.7 183 178 173.9 169.8 165.9 161.6 157.5 153.5 149.5 145.9 142.3 139.3 135.8 132.3 128.6
388.2 387.1 386.1 387 389.5 391.3 393 393.8 394 393.6 392.4 390.6 388.1 384.2 383.6 383.8 384.2 384.9 385.6 385.9 386.4 386.2 386.8 386.2 385.5 384.8 382.5 379.9 376 371.1 364.9 356.7 334.2 282.4 246.1 220.2 204.5 211.1 214 219.3 228.2 237.2 245 249.6 250.9 248.1 241.1 228.9 215.5 198.8 186.4 175.2 164.6 154.5 148.1 149 151 157.3 158 158.7 163.6 159.8 156.2 145.3 134.4 134.5 145 154.3 164.1 172.8 179.9 182.7 181.3 194.7 212.7 231.8 247.7 260.2 274.7 282.4 281.2 274.7 258 246.1 255.7 280.2 302.8 321.8 335.7 340.9 344 347.8 350.3 351.2 350.4 348 344.1 338.5 332 322.6 313.1 296.6 275.9 258.3 242 230.1 225.6 232.1 237.5 239.1 243.7 247.5 232.9 213.8 199.4 217.7 236.9 253.2 263.8 274.1 280.4 282.2 279.3 264.9 271.9 272.1 273.7 268.8 250.3 258.9 288.3 298.8 305 307 308.1 310 311.3 312.3 314.8 317.5 319.1 318.5 317 313.9 309 303 295.4 286.2 269.5 245.7 224.1 204.6 199 221.8 237.6 240.9 234.4 227.1 218.6 209.9 200.9 192.1 181.7 168.8 151 166.2 184.3 199.2 209.9 218.8 225.8 232.6 241 244 240.9 236.3 231.9 226.6 219.9 215 209 204.7 199.1 193.7 188.7 184 179.4 175.4 171.1 166.9 162.6 157 152.9 149.2 145.5 142.4 139.4 136.5 133.3 130.2
391.7 391.6 391.9 393.2 395.2 396.8 398.3 399 399 398.4 397.4 395.9 394 392 390.6 390.1 390 390.3 391.2 390.8 391.1 390.7 390.2 389.3 388.2 386.9 384.3 382 378.6 373.9 367.6 358.9 343.2 301.9 259.2 225.2 221.6 234.7 244.1 253.4 266 272.3 280.1 283.5 280.5 271.4 261.8 247.6 231 213.9 198.3 185.4 176.2 169 159.6 152.3 147.4 141.7 141.3 139.8 140.9 139.6 137.2 135.7 137.5 143 144.7 158.8 172.1 181.9 191 197.6 198.8 198 220.7 240.5 256.5 274.5 287.8 297.8 300.5 297.6 291.8 283.8 272.9 292 312.2 326 337.6 342.5 345.8 349.5 351.3 351.2 349.2 345.1 340.3 334.4 327.3 318.6 304.9 285.5 264.4 241.1 237.5 239.5 245 253.9 261.7 265.8 271.1 254.9 233.7 211.7 208.2 227 248.8 267.8 281.6 291.3 298.2 297.8 295.1 287 292.5 298.1 298.6 288.4 267 263.9 293.3 307.3 315.7 319.1 319.9 321.1 323.1 324.4 325.6 325.6 326.6 324.6 322.3 319.4 314.5 308.9 302.1 292.7 281.7 256.6 231.4 213.5 204.9 225.9 241.9 244.9 237.5 229.1 219.2 208.8 198.4 190.2 179.3 164.7 151.9 167.1 186 198.8 208 214.1 222.1 231.1 240.3 245.2 242.2 237.9 232.7 227.9 221.5 216.9 211.9 205.5 199.6 194.3 188.8 183.3 178.8 174.2 169 164.2 159.8 155.4 151.4 147.7 144.2 141.6 139.1 136.3 133.5 130.8
394.7 395.7 395.8 397.3 399.3 401 402.2 403.1 402.9 402.8 401.8 400.2 398.9 397.4 396.5 395.5 394.9 394.8 395 395 394.8 393.6 392.8 391.8 390.2 388.4 385.5 382 378.7 373.3 367.5 358.6 344.6 314.1 269.7 238.2 259.9 286.1 295.7 298 301.4 306.5 309 307.4 303.7 293.8 282 267.8 251.3 233.6 213.2 196 185.5 175.4 166 159.2 153.9 147.5 143 145.1 142.1 139.5 139.8 138.8 146.3 153.6 146 164.4 178.4 190.7 201.6 210 217.6 210.8 228.2 247.4 269.5 286.7 300 308.5 313.5 314.9 312.8 309.6 301.4 306.5 321.2 331.2 339.7 343.9 347 350 350.8 349.5 346.9 342.3 336.7 330.1 322.6 313.5 296.8 277.7 248.1 247 254.6 262.1 270.6 281.9 286.5 288 279.6 259.7 233.7 213.2 215.4 236.7 262.1 280.5 298 309 312.6 311.8 309.3 306.6 307.3 311.4 311.9 307.6 288.3 268.5 297 313.5 322.2 328.8 331.9 333 335.1 335.7 336 334.8 334.7 332.5 328.8 325.9 321.4 316 308.9 299.5 287.3 265.5 241.9 222 215.8 229.9 246.7 247.7 239.5 230.3 219.1 207.9 195.3 188.2 177.4 161.5 158.6 163.4 178.2 191.4 201 209 217.6 227.1 235.4 239.4 238.7 235.7 233.3 227.9 222.4 217.2 211.9 204.8 198.8 192.4 187.2 182.2 176.9 171.3 166.1 161.4 156.8 152.7 148.5 145.1 141.7 138.8 136.7 135.1 133.5 131.9
396.7 397.6 398.6 400.1 401.9 403.4 404.9 405.8 406.2 406.2 405.9 404.5 403.2 402.2 401.4 400.3 399 398.5 397.5 397.3 397.2 395.1 393.7 391.8 390 387.7 384.8 381.5 376.8 372.2 366 356.5 344.3 313.3 277 275.3 303.5 320.5 322.1 323.9 326.1 327.5 326.6 323.7 318 310.9 302.5 286.5 271.8 253.3 231.8 211.8 196.6 184.9 170 155.8 150.4 152.2 155.5 153.3 152.8 151.6 151.7 147.1 153.9 163.8 154.6 167.9 184.4 198.2 210.6 224.8 230.3 233 231.6 255.5 278.1 295.5 308.5 317.2 322.8 324.4 325.8 324.8 319.4 320.1 329.9 337.3 341.6 345.1 347.8 349.6 349.4 347.2 343.4 339.1 333.3 327.3 319.2 307.2 284.7 261.8 258.3 270.2 284.7 291.1 299.5 302.7 305.5 299.4 283.9 262.3 236.8 211.6 224.3 248.3 273 293.8 311.4 320.8 320.4 319.6 320.9 322.1 323.2 323.3 322.9 320.9 312.4 289.4 296.9 316 325.8 335.6 339.2 341.4 344.4 345.5 345.6 345.2 342.8 339 335.4 331.2 327.2 321.7 313.6 303.6 291.4 272.3 249.8 228.2 223.3 238.4 252.7 250.1 241.8 232.5 221.3 209 198.4 189.2 176.3 159.3 168.8 171 168.6 184 195.8 205.1 213.8 221.4 228.6 231.4 232 231.2 229.9 225.4 219.9 215.3 209.7 202.6 197.3 191 185.5 180.2 174.9 169.6 164 159 153.2 148.1 144.2 140.4 137.5 135.2 132.9 132 130.6 130.4
398.8 399 400.3 402 403.5 405.2 407.5 408 408.8 409.3 409.2 408.6 407.6 406.4 405.2 403.7 402.2 400.6 399.8 398.3 396.3 394.4 392.6 390.3 388 385.5 382.9 379.1 374.2 369.9 363.3 353.2 338.4 310.5 297.9 320 332.8 339.1 339.6 341 341.1 340 338.5 335.6 331.2 325.2 316.4 306.2 289.5 268.9 246.1 224 208.4 192.4 170.3 166.6 173 170.7 167.1 166 164.8 163.5 166.5 158.9 163.1 174.6 165.1 175.8 194.6 208.3 220.8 235.4 245.2 254.2 250.5 261.6 284.6 301.7 313.6 320.9 327 329.5 331.4 332.8 332.6 328.3 336.9 340.4 343.5 346.2 348.7 349 347.7 344.7 341.1 336.3 330.8 323.9 313.6 298.6 274.8 269.3 286.8 296.7 306.4 313 316.5 315.8 310.6 301.3 282.5 258.5 232 216.3 233.2 257.3 279.4 300.8 314.8 319.9 324.3 328.7 331.1 332.7 333.8 334.6 333.2 332.1 326.7 313.8 310.8 320.7 331.3 340.5 346.2 350.5 352.4 353.3 353.3 352.3 349.5 345.3 339.1 332.6 325.5 318.5 311 302.2 287.4 271.2 251.2 229.5 234.6 249.3 258.5 253.4 244.3 234.6 223.5 209.9 199.2 189.3 173.3 162.2 179.3 179.7 169.5 179.4 191.4 202 210.7 216.5 221.6 224.5 225.4 225 224.2 221.7 217.4 212.6 207.2 200.6 194.9 189.1 184 178.6 173.4 165.5 161.9 155.7 149.7 144.9 137.8 135.5 133.6 131.4 130.6 128.6 124.5 125.7
398.6 399.6 400.9 402 404.2 405.9 407.3 408.9 409.9 410.8 411 410.5 409.7 408.8 407.6 405.9 403.7 402 400.2 397.5 395.3 392.4 390.2 387.7 385.5 382.7 379.2 375.3 371.2 366.7 361.6 350.9 335.7 312.1 329 339.6 346.4 348.2 349.9 350.2 349.1 347.9 346 342.9 339 333.8 326.7 317.8 307 285.7 258.8 235.3 218 189.4 175.8 182.2 185.9 183.7 183.4 180.6 180.6 180.8 183.6 172.7 163.1 181.3 175.4 175.3 199.7 218.7 231.4 245.4 259.5 271.3 277.4 280.1 289.8 306 316.5 322.2 329.1 332.3 335.6 338 337.6 336.4 338.1 342.4 345.6 347.7 348.4 347.7 346.6 342.7 339 333.6 327.3 319.2 309.5 292.8 272.1 292.8 303 310.6 316.5 321.1 323.8 317.7 309.4 296 275.9 253.4 228.1 227.1 237.1 260 284.3 302.8 312.4 320.9 328.6 335.3 338 339.8 341.7 342.9 343.4 342.3 340.5 336.4 337.6 335.2 340.7 347 352.9 356.8 358.9 359.5 359.2 357 352.7 347 339.8 330.4 320.2 308.9 299 290.6 277.7 262.6 246 234.3 246.6 261.9 262.2 254.8 245.5 235.9 225.9 213 201.6 188.1 169.4 172.4 187.5 184.6 175.2 176.9 190 199.4 206 211.9 215.7 218.2 220.2 221.5 221 220.1 217.4 212.7 207 200 193.5 186.5 180.8 174.8 168.8 164.9 160.4 155.5 150 145 140 138.6 137.7 136.6 133.5 130.6 127.8 123.4
397.2 399.3 400.9 401.8 403.5 405.6 406.8 408.4 409.7 410.7 411.2 411.1 410.9 409.8 408.6 406.3 404.3 402.2 399.4 396.3 393.1 390 387.3 384.1 381.2 378.3 376 371.9 368.7 364.7 359.5 345.7 335.4 336.4 345.6 351.6 354 355.8 356.2 355.9 355.7 354.1 351.5 349 345.3 340.9 333.6 326.6 315.9 299.3 274.1 246.3 219.6 190.2 194.8 199.4 202.7 200.6 199 198.4 197.9 198.3 197.8 182 165.9 181 187.8 179.3 205 226.8 242.4 258.2 271.6 284.2 291.1 295.9 299.4 307.9 317.6 324.3 331.8 336.5 340 341.5 341.2 340.2 340.8 343 346.2 348.9 349 347.1 345.7 341.8 337.8 330.9 323.3 313.7 302.9 281.6 290 301.9 308.9 314.5 321 325.2 323.9 316.5 305.7 284.8 262.8 243.3 254.3 252.7 244.5 256.6 280 293.2 305.1 321.3 332 339.4 342.9 344.8 347.3 348.7 349.7 350.5 349.9 349.9 349.9 348.2 350.2 355.1 359.3 361.7 363.6 364.2 363.1 358.7 353.2 344.5 335.4 325.4 313.9 297.9 282.6 272.9 265.1 252 242.8 248.5 261.8 269.2 264.3 256.8 246.9 238.6 228.7 215.2 201.2 183.3 166.2 179.5 193.3 190.3 183.9 178.5 186.9 194 200.8 204.9 208.7 212.8 216.9 218.8 220 220.2 218.1 212.4 209.2 204.4 197.4 192 186.5 180.9 175.1 169.6 163.4 157.4 151.6 146 143.1 143 141.8 138.7 135.4 132 128.2 124.6
396.5 398.1 399.4 401.1 402.7 404.2 405.7 407 408.4 409.6 410.9 411.2 410.8 409.9 408.5 406.2 403.7 401 397.6 393.7 390 386.7 382.4 378.9 375.4 372.9 370.1 366.9 363.6 358.8 353.9 340.6 339.4 349.8 355.3 358.3 359.8 360.7 361.4 361 360.5 359.1 356.9 354.5 351 346.9 341.4 335 325.2 312 287.6 256.3 222 198.1 217 221.6 223 221.8 220 219.6 221.1 219.8 212.9 192.4 178 194.5 200.5 193.2 212.8 235.5 253.6 269.6 283.6 294.6 301.1 306.7 311 314.9 321.1 327.2 333 338.2 342 344 344.2 343.6 343 344.6 348.1 349.7 349 347.5 345.4 342.2 338.4 331.7 323.8 314.5 303.5 290.6 293.3 303.7 311.8 319.6 323 325.9 325.2 318.2 301 276.3 261.8 275.4 280.5 279.5 269.8 265.7 271.2 281.9 298.2 320.4 333.1 340.8 346 349.7 352.5 354.4 355.7 357 357.2 357.1 357 357.6 357.9 362.2 365.6 366.7 367.4 366.3 363.1 357.8 349.5 340.1 331.6 317.6 301.2 286.2 271.3 263.7 253.6 255 258.4 267.9 274.2 272 266.2 258.3 249.8 240.3 230.5 217.1 197 178.1 171.2 190.8 198.4 192.6 189.8 183.2 182.8 185.7 195.3 199.8 203.2 209.1 213.7 217.2 219.6 220.6 219.2 216.3 211.6 207.1 200.8 195.4 189.9 183.9 177.5 170.6 164.5 158.3 153 149.4 147.7 146.1 143.3 140.5 137.3 133.8 132.5 129.6
394.9 396 398.2 399.3 400.1 401.4 403.4 404.9 406.5 408.1 409.8 410.4 409.9 409.4 408.1 406 403.1 400 396.1 390.6 385.6 381.8 377.1 371.7 368.6 363.6 362 360.9 358.1 356.3 347.1 344.9 353 358.3 361.5 364 365.5 366.5 366 365.5 364.7 363.2 360.9 358.3 355.1 351.8 346.4 339.9 332.6 319.5 291.5 259.5 228.3 230.5 253.6 250.6 250.5 249.2 248.4 247.9 244.2 241.1 229.9 206.5 190.5 211.2 219 210.8 221.2 247.1 264.4 280.7 295 305.2 311.2 315.6 318.4 321.9 325.7 330.6 336.1 340.9 345 347.3 347.7 347.6 346.9 347.9 349.4 350.7 350.3 348.7 347 343.9 339.7 335.5 330 324.7 318.3 307.5 287.9 306.6 318.1 323.2 325.2 326 325.1 317.5 299.8 275.2 275.8 289.6 295.7 298.8 291.9 293.3 289.6 296.6 307 322.1 332.9 342.1 348.7 353.9 357.4 359.8 361.8 362.6 363.4 363.4 363.8 363.5 365.5 367.8 369.7 370.3 370.1 368.1 363.8 357.9 349.2 336.9 322.1 304.6 290.3 286.6 284.6 280.5 275.8 277.4 281.9 284 281.7 276.1 268.9 260.3 251 240.9 229.9 212.1 192.3 173 183.9 198.4 202.1 198.8 192.4 188.6 187.3 186.3 190.4 194.6 199.1 204.9 210 214.5 219.1 220.2 219.6 218.4 215.4 210.9 204.1 198 191.8 185.1 179.3 172.4 165.5 161.2 158 154.2 151.4 148.3 145.4 142.2 137.4 131.5 135.1 134.1
394.8 396.3 396.6 397.8 398.3 399.2 400.8 402.9 405.1 407 408.6 409.6 409.3 409.2 408.2 406.3 403.8 400.1 396.6 394 391.4 389 386.4 383.6 380.4 376.5 373.4 370 367.5 363.3 357.7 349.2 359.1 363.9 366.4 368.4 369.6 370.2 370.3 368.9 367.7 365.7 363.3 360.5 357.5 354.1 350.5 345.7 338.2 323.9 295.9 265 235.5 255.7 272.5 279.6 276.7 274.5 274.6 273.1 269.3 261.3 245.3 220.8 198.3 222.4 233.2 231.8 230.2 254 273.8 293.6 309.4 316.6 319.1 322.6 325.8 328.6 331.5 334.9 340.3 345.1 348.1 350.5 350.7 350.2 350.1 350.5 351.2 351.8 351.8 350 348.4 345.6 343.2 339.6 335.2 330.5 324.5 317.3 292.1 311.7 321.8 326.2 327.8 327.3 325 317.3 299.1 275.3 284.7 301.9 307.6 308.1 307.4 310.6 314.1 322 327.5 332.5 336.4 345.8 351.8 357.5 361.1 364.4 366.6 367.7 368.4 368.7 369 370 370.9 372.3 373.3 373.3 372.6 370.3 365.9 359.2 353.3 343 317.7 301.1 309.7 312.8 312.4 303.8 298.3 297.5 298.1 295.2 288.6 279.3 269.7 260.2 250.5 238.4 223.5 205.2 185.8 178.1 193.7 204 208.7 202 198.3 191.3 191.5 191.3 189.7 191.5 196.9 201.4 206.6 212.4 217.9 220.8 221.4 221.4 216.8 211.8 204.8 199.8 193.6 187 180.7 175.2 169.9 164.8 161.2 158.4 154.4 150 145.8 140.7 135.8 138.3 139.4 138.1
394.5 395.3 395.7 395.8 396.5 396.9 398.6 401.1 403.5 405.6 407.7 409.7 409.4 408.7 408 406.7 404.7 402 399.5 397.3 395.6 392.6 390.2 388 384.4 381.9 380.1 377.8 375.3 372.6 368.2 353.2 364.4 368.3 370.9 372.4 373.2 373.2 372.9 371.8 370.4 368.2 365.1 362.4 358.4 355.2 351.4 347.4 340.6 326 301.4 270.8 262 284.3 297.2 300.1 301.8 300.1 298.4 295.5 290.2 279.9 263.1 236.6 216 232.9 248.8 254.9 243.2 255.8 282.8 304.9 319.8 326.9 328.6 331.5 333.6 336 338.1 341.6 345.4 348.7 351.4 352.9 352.9 352.6 352.3 352.5 353 353.4 353.2 351.6 350.3 348.3 346 342.8 338.9 334.1 327.7 318.9 303.3 320.7 328 330 331.3 329.4 326.2 325.4 298.1 278.4 295.5 309.8 315.7 316.2 316.4 318.9 326.1 331.5 336.5 341.3 345.1 350.8 356.3 360.9 364.8 368.3 369.7 371.4 372.7 373.6 374.3 375 375.7 376.7 376.8 376.3 374.6 372.5 369.4 364.8 359.2 352.1 328.2 323.3 329.7 327.4 323.9 315.7 311.9 310.6 308.4 301.7 292.6 282.5 272 259.6 245.6 230.7 214.3 196.6 179.7 191.2 202.6 212.7 217.4 212.6 205.1 199.9 196.1 193.8 194.2 192.7 195.8 200.4 205.5 211.8 217 221.2 222.9 221.1 217.8 213.9 207 202.3 195.9 189.7 183.6 178 172.6 167.6 164.3 161.1 156.3 150.5 144.8 142.7 143.7 144.9 144.5 142.3
394.5 394.7 392.8 393.3 393.1 393.8 396.3 399.1 401.5 403.7 405.9 406.9 407.7 407.7 407.1 406.9 405.3 403.7 402.1 401.2 399.5 397.5 394.8 393.2 391 388.2 385.3 383.1 380.2 377.1 373 358.1 368.2 372 374.9 376.5 377.1 377.1 376.3 374.8 372.5 369.9 366.8 362.3 358.6 355.1 350.8 346.4 341.4 328 305.3 278 282.5 303.3 314.6 317.5 315.6 314.6 313.9 311.8 305.4 295.1 280.5 257.8 231.8 248.9 265.9 272.9 271.6 267.8 286.1 310.5 327.4 334.2 337 338.4 340.1 341.9 344.4 347.4 349.7 351.9 354.3 355.4 355.3 354.9 354.4 354.2 354.7 354.9 354.6 353.7 352.1 350.2 347.9 344.7 340.8 336.1 329.8 316.4 316.6 326.5 332.4 334.6 334.6 332.6 327.4 320.6 296.8 288.9 300.3 317.1 322.7 324.4 325.6 330.5 335.3 340 343.6 348.3 352.1 356.1 360.2 364.7 368.2 370.8 372.7 374.4 376.3 377.7 378.7 379.2 380 380.7 380.3 379.2 377.5 375.5 372.3 368.1 363.2 356.4 343.9 335.4 339.3 333.7 330 326.1 320.2 317.2 312.9 305.2 294.5 284.8 271.8 258 242.7 223.3 207 190.5 185.4 200.9 213.6 222.8 224.2 220.3 212.6 204.9 200.8 198.3 196.5 196 196.7 200.3 204.7 210.1 215.5 222.4 225 222.9 219.6 216.2 211.9 205.4 199.6 193.3 187.3 181.5 176.2 171.4 167.1 162.8 157.8 150.5 149.3 149.4 150 150.6 148.5 147.2
393.5 393.4 393 391 389.4 394.5 393.9 397.5 399.7 402.1 403.7 404.8 405.5 405 405 405.1 404.8 404.2 404.4 404.3 403.4 401.6 399.9 397.8 395.4 393.2 390.4 387.7 384.4 381 376.2 362.9 372.3 375.9 378.4 379.9 380.6 380.1 378.9 377.2 374.8 371.6 368.7 364.7 359.9 354.5 348.2 343.1 338.4 327.5 311 286.7 303.5 316.8 325.2 328.6 329.4 328.1 326.8 323 315.9 309.5 300.6 272.7 244.4 265.9 284.4 293.1 297.4 303.2 311.6 310.9 327.9 338.4 341.4 343.4 345.6 347.8 350 351.8 354.6 356.2 357.4 357.9 357.5 356.5 355.9 355.4 355.6 355.5 355.1 354.4 353.2 351.4 348.8 345.7 342.6 337.9 331.2 311.5 325.6 333.6 337.4 339.3 338.7 336.1 329 318.7 296.1 295.3 309.4 322.6 328.8 331.2 334.8 338.2 342.5 345.4 348.4 352.8 357.4 360.9 363.7 367.1 370.1 372.6 374.9 377 379.2 381.1 382.6 383.6 384 384.1 383.2 381.9 380.4 377.9 375.4 372.2 366.6 359.9 353.7 349.1 344.5 340.2 336.8 332.6 326.9 321.1 314.7 304.5 296.2 284.7 269.8 253.2 235.2 216.9 200.9 187 193.6 209.9 224.4 231.2 229.6 225.3 218.3 210.2 204.4 201.7 199.9 198.4 198.8 201.2 204 209.1 213.9 219.9 221.9 221.1 220 216.8 214.8 210 204.1 197.9 191.7 185.6 180.1 174.4 169 165.9 160.4 155.2 155.1 155 155.3 154.5 152.8 152.1
392.2 391.9 391 389.2 385.8 387.7 392 395.3 395.3 400 401.5 401.9 402.2 401.9 402.2 402.5 403.4 403.6 404.4 404.7 404.2 404.3 403.6 401.9 399.3 396.9 394.7 391.9 388.2 384.1 380 372.3 375.9 379.8 381.6 383.3 383.4 382.9 381.5 379.6 377 373.9 370.6 367 361.8 356.4 350.1 338.3 329 317.5 308.6 315.8 310 324.2 330.9 333.9 335.3 335.6 334.2 331.1 326.4 321 311.5 288.6 261 288.9 300.1 311.6 317.7 323 326.9 330.3 328.2 339.6 344.4 347.5 350 352.4 354.6 355.9 357.5 358.8 359.5 359.5 358.8 357.9 356.7 355.8 355.8 355.7 355.6 355 354 352.1 350 347.1 344.8 340.4 331.2 323.8 334 339.6 342.5 343.2 342.5 339.4 332.4 320.1 300.5 297.8 315.1 327.5 334.5 339 342 344.4 348.3 350.3 353.3 357.4 361.4 364.4 366.6 368.8 371.8 374.3 376.8 379.1 382.2 384.4 385.7 386.4 386.6 386.2 385.7 384.5 382.8 381 377.8 374 369.2 365.3 360.5 354.7 350.4 346.5 341.6 336.3 329.9 322.2 313.6 304.5 292 273.5 254 238.3 223.5 212.6 198.6 190.1 203.3 222.2 233.8 236.3 233.8 229 222.8 214.2 206.9 204 201.7 200.4 201 201.5 204.3 208.4 213.2 217.5 221.3 223.8 224.5 222 219.2 213 208.4 202.5 196.3 190.6 185.1 178 171.6 166.7 163.2 160.7 160.3 160 159.8 158.8 157.4 156
390.4 389.6 388.6 386.7 383.1 386.8 390.1 392.2 394.7 396.7 397.5 397.2 398.6 398.6 399 400.3 401.6 403.1 404.8 405.7 406.4 406.1 405.3 404 402.3 400.2 398.9 395.9 391.3 387.5 382.5 378.9 379.9 383.8 385.3 386.3 386.4 385.6 384.1 382 379.7 376.8 373.4 369.6 365 359.4 352.8 337.6 329.6 324.8 331.2 332 325.4 326.3 335.3 338.5 340 340 338.9 337.2 335.5 329.9 322.9 299.7 280.4 297.6 314.4 323.1 328.9 332.9 336.2 338.1 339.2 336.2 346.8 350.5 352.7 355.1 356.5 357.9 359 359.8 360 359.7 359.3 357.9 356.5 355.6 355.4 355.5 355.5 355.4 354.1 352 349.9 347.5 344.6 339.8 325.9 333 341.2 344.4 346.7 347.8 346.7 342.3 335.3 323 307 301 319.9 332.4 339.4 344.2 346.3 348.9 352.7 355.3 358.2 362.3 365.2 367.9 369.7 371.1 372.7 374.9 377.3 380.3 383.6 386 387.4 387.6 387.6 387.9 387.5 386.2 384.7 382.6 379.4 376.2 372.9 368.8 364.7 359.2 354.8 350.4 344.5 337.6 330 322.1 315.2 308.4 299.5 288.3 267.8 242.1 224.2 212.6 197.2 197.7 215.5 231.8 241.6 241.2 237.3 232.1 225.5 217.7 209.8 205.1 203.3 198 197.3 199.3 201.9 206.4 213.2 219.3 224.2 227.5 228.5 226.3 222.6 217.5 213.2 207 201.2 195.4 189.5 182.6 174.4 171.4 167.4 166.6 165.4 164.6 163.6 162.1 160.8 159.6
388 387.1 385.6 383.5 381.5 385 387.4 388.7 390.1 392.3 393.7 394.2 393.5 394.5 396.7 397.7 399.7 402.5 404.5 406.4 407.9 407.7 407.1 405.7 404.4 403.2 401.3 398.9 394 390.2 386.3 384.2 385.6 387.5 387.8 388.2 388.1 387.2 385.8 383.6 381.2 378.8 375.7 372 368.1 363.8 357.5 349.2 346.5 343.8 342.9 341.2 336.2 331.9 338.8 342.8 344.3 344.4 343.8 342.9 341.1 337.3 330 320.2 305.1 313.2 322.4 331.9 336 339.2 341.7 343.6 345.2 343.1 347.3 351.4 353.4 355.3 357 358.6 359.3 359.8 359.8 359.5 358.7 357.1 355.4 354.3 354.6 354.8 355.6 355.4 354.1 351.1 348.4 345 340.9 336.3 334.8 341.4 346.3 348.5 349.5 350.3 349.7 346.5 338.7 326.2 312 305.5 320.8 332.5 342.3 347.4 349.8 352.7 355.5 358.6 362.7 366.1 368.8 370.6 371.5 371.7 372.6 374.8 377.4 380.8 383.8 386 386.8 387.3 387.4 388 388 386.8 385.1 383.6 382.1 378.9 375.8 372.3 368.4 363.8 357.9 351.6 345.5 340 334.4 327.2 320.7 312.1 302.7 286.7 265 241.5 223.4 212.3 200.5 206.9 225 241.6 248.4 246.1 241.1 234.8 226.7 219.7 211.5 206.1 201.9 199 196.7 195.2 199.6 205 212.1 221.1 228.6 231.9 233.5 229.6 224.8 220.5 216.1 210.9 205.6 199.7 194 188 181.9 177.6 174.2 172.3 171 169.3 168.2 166.4 165 163.8
385.1 383.6 381.8 377.4 380.8 382.6 383.2 384.3 386.4 388.4 389.4 390 390.2 390.6 392.7 395.7 399.3 400.8 403.5 405.7 407.4 407.9 407.9 406.8 405.8 404.8 403.3 399.3 397.4 393 391.3 390.4 390.2 390.6 390.7 390.1 389.6 388.7 387.3 385.3 383.6 380.8 377.9 374.7 371.5 367.9 363 358.8 355.9 353.1 350.4 347.4 344.5 340.1 343.7 347.4 348.7 349.6 348.9 347.1 346.1 343.5 339.7 334.1 328.9 329.4 330.9 337 341.5 344.3 346 348.5 349.2 348.1 346 350.9 352.2 353.5 356.1 358.4 359 359.6 359.7 359.4 358.2 356.8 355.1 353.8 354 355 355.8 355.2 353.5 350.5 347 344.1 340.6 339.2 341.3 346.5 349.6 351 351.7 352.3 350.8 347.7 342.1 330.6 317.3 309.4 320.7 330.8 343.4 348.4 351.4 354.6 357.7 361.4 365.5 368.6 370.3 371.6 371.3 371.3 371.6 373.6 376.5 379.4 382.2 384.2 385 385.7 386.1 387.3 388 386.8 386.4 385.5 384.5 381.9 379 375.6 371.1 366.1 360.7 355.2 350.2 344 337.5 330.7 322 311.9 296.2 275 255.6 236.9 221.6 210.4 202 217.4 234.7 249.2 253.4 249.7 243.9 236.8 228.4 220.9 212.7 205.5 201.5 197.5 194.3 193.2 195.6 200 209.3 219.8 227.3 232 232.5 230.7 227.9 225 221 216.7 209.7 204 198.8 193.8 188.6 183.3 181 178.8 177.5 174.6 172.7 171.2 169.6 167.8
382 379.8 375.9 374.9 379.7 380.1 379.3 380 381.9 383.6 384.7 385.7 385.9 387 390.5 393.4 396.4 398.7 401.5 403.4 406.5 407.4 407.7 407.5 407 405.7 403.9 402.1 400.4 398 395.4 394.7 394 393.6 393.2 392.6 391.4 390.2 388.9 387.9 386 383.6 380.7 378 374.8 371.3 368.5 370.3 362.4 359.5 356.6 354 352 349.5 351 351.9 353.5 353.4 354.4 353.5 352.7 350.4 348 344.5 341 340.5 340.3 342 345.8 348.1 349.8 351.8 352.4 352 350.1 349.8 351.2 352.8 356 358 358.6 359.3 360.1 359.5 358.2 357.2 356.2 355.1 353.8 354.9 356.2 355.4 353.8 352.2 349.2 346.6 344.6 344.3 346.8 349.8 351.9 352.7 353.4 353.7 352.2 348.7 343.4 335.1 324.6 315.3 320.4 329.7 340.8 347.1 351.8 355.6 359 363.1 366.7 369.3 371.1 371.7 371.1 370.4 370.2 371.8 374.6 377.4 380.1 381.8 382.9 383.8 385.2 386.4 387.6 387.8 387.7 387.3 386.6 384.4 381.1 377.2 373.2 368.3 364 359.1 353.5 346.7 338.9 331 322 312.2 300.6 274.8 250.9 236.3 220.6 210.5 212.5 229.3 245.3 258 258 252.3 246.2 238.5 229.5 222.2 214.6 205.9 201.3 197 193.2 190.2 191.8 194.5 204.5 215.9 224.6 229 231.7 232.5 232.2 229.3 225 219.8 214.8 208.9 204.1 198.6 193.5 188.9 186.8 184.6 182.8 180.4 177.4 175.4 174 171.9
378.4 375.9 369.2 373.5 375.7 376.4 375 375.9 377.8 379.5 380.5 381.3 382 384.3 387.6 391 393.9 397.1 399.7 401.6 403.8 406 405.9 407.6 407.2 406.5 405.1 403.6 402.1 400.7 398.3 396.9 395.8 395.2 394.8 394.4 393.5 392.5 391.4 390.1 388.2 386.2 383.9 381.1 377.7 375.8 378.6 370.9 368.5 365.6 363.1 360.5 358.7 357.7 357.8 357.8 358.9 359.1 358.6 358 356.5 355 353.2 351.7 349.3 349.4 348.6 349.7 349.9 351.8 353.3 354.6 355.2 354.6 353.5 352.5 352.7 354.4 356.9 357.8 358.4 358.8 359.2 358.8 358.8 357.9 356.1 355 352.5 354.7 355.6 355.6 354.4 352.9 351.1 349.1 347.2 347.8 349.9 352 354 355.1 355.4 355.2 353.6 350.3 345.5 339.2 330.1 322.5 321.9 328.8 338.6 345.5 351.6 355.9 359.4 362.5 365.6 368.2 369.8 370.4 370.5 369.2 367.4 368.9 371.3 374.2 377 378.9 380.8 383 385.3 386.5 387.8 388.4 388.3 388 386.8 385.1 382 378.2 375.3 371.6 367 361.3 356 349.8 342.5 333.4 321.5 306.9 288.8 267.4 246.8 230.7 215.6 213.6 225.6 241.7 257.6 263.6 260.8 255.3 248.3 240.3 233.1 224.1 215.1 206.6 200.6 196.6 191.9 189.8 188.3 190.3 199.7 212.2 221.8 228.5 233.3 236.4 236.1 232 227.5 223.2 219.3 215.4 210.3 204.8 199.3 195.6 192.6 190.1 187.3 184.3 181.5 178.9 176.9 175.6
374.9 372.2 363.3 368.7 370.7 371.3 370.4 373 375.8 377.6 377.9 377.8 379.2 382 385 388.9 391.6 394.7 397.8 400.6 403.1 405.7 407 407.6 407.5 406.3 405.4 404.8 403 402.1 400.6 398.3 396.6 395.9 395.2 395 394.4 394.3 393.4 392 390.5 388.4 385.4 383.5 381.6 378.6 376.5 375 373.3 371.1 368.6 366.8 365.3 364.3 363.6 363.6 364.1 363.9 363.3 362.2 361 359.9 358.8 357.6 356.1 355.4 354.4 354 353.7 354.8 356 357.4 358.2 357.3 357 356.3 355.9 357.2 357.3 357.8 357.5 357.5 357.5 357.6 357.3 356.2 354.1 353 351.7 352.6 354.7 354.7 353.7 352.4 351.2 349.9 349.1 349.8 351.5 353.3 355.1 356.5 357 356.5 355 352.1 347.6 342.6 335.3 328.1 327.1 329.7 336.9 344.7 350.3 354.6 357.4 360.6 363.9 366.7 368.3 368.7 368.3 366.4 364.8 366.7 369.1 371.1 374.4 377.5 379.8 382.3 384.6 386.3 387.3 387.9 387.9 387.4 386.3 384.3 382.7 380.4 377.3 374.1 369.6 365.3 360.4 354.3 345.6 334.2 316.7 301.2 281.7 252.9 237.2 223.7 220.7 227.5 243.4 256.7 268 268.1 264 258.5 252.6 245.5 236.4 227 216.6 209.1 202.3 195.9 192.6 189.2 183.3 185.7 195.2 208.5 221.4 229 234.6 237.4 236.8 233.2 230.7 228.4 224.9 220.7 214.7 210.7 207.6 204 200.8 196 191.4 188.2 186.2 183.3 180.8 178.6
371.5 368.1 358.6 363.6 366 365.6 365.6 368.7 372 374.8 375.8 374.3 376.7 380.2 382.7 386.7 390.1 393.8 397.1 400.3 402.8 405.2 406.5 407.7 408 407.3 406.3 405.3 403.7 399.2 400.8 398.7 397 395.3 394.7 394.5 394.8 394.7 394.5 393.7 392.1 390.1 387.9 385.6 384.2 383.8 380.7 379.2 378.3 376.6 374.1 372.8 372.3 370.3 370 369.7 369.4 368.7 367.6 366.6 365.6 364.2 363.3 362.4 361.7 360.6 359.8 359.5 358.6 359.2 361 361.1 362.1 361.5 359.9 359 358.9 358.7 358.1 357.7 356.9 355.6 355.5 354.8 354.2 353.7 352.7 350.6 346.5 351.3 352.6 352.5 351.6 350.8 349.9 348.9 349.1 350.3 352 354.1 356 357.4 358.1 357.7 356.2 353.6 349.2 344.4 339.7 334 334.2 335.3 338.4 342.8 347.9 352.4 355.4 358.8 362.4 365.1 366.4 366.2 365.3 363.9 363 366.4 369 372.2 374.9 377.3 379.9 381.9 384.2 385.2 386.5 386.8 387 387.2 386.4 385.7 384.1 382.3 379.3 376.8 373.6 370.4 366.1 359.3 349.8 333.8 314 292 264.6 242.6 230.3 230.2 231.6 240.6 254.8 270.8 274.6 273.8 269.2 263.6 257.3 250.7 241.6 234 222.6 213.7 205.5 198.9 193.9 189.8 184 182.3 190.6 204.2 217.5 225.9 229.8 233.3 235.9 236.5 234.6 233.6 229.7 225.5 221.9 218.5 213.9 209.9 206 201.2 195.6 192 189 185.9 183 180
367.1 364.3 354.7 360.4 361.1 360.1 360.4 364.5 368.7 371.7 372.8 371.1 373.6 375.9 379.6 383.6 388.1 392.6 395.9 399.6 402.1 404.2 405.6 406.6 407.1 406.7 405.7 404.5 403.6 400.6 398.7 397.1 395.1 394.4 393.2 392.8 393.3 393.9 394.2 393.9 392.5 390.4 388.5 386.7 384.5 385.1 383.5 382.7 382.1 381.2 379.9 378.8 377.5 376.7 375.1 375.1 374.3 373.6 372.3 371.2 369.5 368 367.9 366.3 366.2 364.8 364.2 364.2 363.7 364.3 364.2 365.2 365.3 364.5 363.7 362.2 361.4 360.5 358.9 357.6 356.2 355.1 353.6 351.1 350.5 347.7 347 346.1 342 346.5 348.7 349.5 349.2 348.7 348.1 346.6 347 348.5 351 353.1 355.3 356.9 357.8 357.8 356.9 354.7 351.4 348.2 344.1 341.4 339.6 341 342.4 344.9 347.9 351.5 355.1 358.7 361.2 363.5 364.2 363.3 362.8 360.8 364.1 367.1 370.7 373.9 376.3 379.2 381.8 383.5 384.9 385.1 386.1 387.3 387.6 388.4 388.2 388.1 387.2 385.3 382.8 380.4 377.7 374.2 369.4 362.9 349.8 330.8 308.4 278.1 254.6 243.4 243 244.9 249.8 257.4 269.8 279 280.7 279.2 274.6 267.6 261.6 255.8 249.1 240.5 230.9 218.4 209.4 201.7 195.5 190.5 185.3 179.3 186.2 198.8 211.7 219.7 226.3 233.5 238.3 240.4 240.6 238.9 234.8 231.8 228 223.6 219.3 214.5 210.6 205.9 200.9 195.6 191 187.2 182.9 180.1
363.4 359.3 350.1 355.9 357 355 357.7 363.4 367.3 369.7 369.7 368.3 370.7 373.2 376.7 380.7 385.3 390.4 394.5 398.5 400.9 403 404.2 405.1 405.5 405.1 403.8 402.4 399.7 398.2 395.9 394.2 392.7 391 390 391 391.8 392 392.3 392.3 390.6 388.4 388 384.9 386.1 386.4 385.6 385.4 385.3 385 384.9 384.1 382.7 380.9 379.3 379.6 378.4 377.7 376.8 375.9 374 373.1 371.2 371.3 370.2 369.4 368.1 367.4 367.4 367.2 367.5 368 367.8 366.7 366.1 364.4 363.3 362 360.7 358.7 356.8 355.1 355.1 354.6 353.6 351.7 349.6 346.9 342.1 338.4 341.2 344.8 345.8 345.2 344.3 343.4 343.2 345.7 349.5 351.9 354.4 356.3 357.4 358.1 358.1 356.6 354.2 351.9 349.4 347.6 346.4 346.5 346.7 348.4 349.8 352.8 355.9 357.9 360.1 361.3 361.3 360.2 358.9 361.5 365.7 369.2 372.1 375.1 378 380.9 383.1 384.7 385.2 386.1 387.5 387.9 389.1 390 390.3 389.7 388.6 386.4 384.1 382.5 379.9 376.7 371.9 361.2 346.5 324 294.4 273.8 269.4 254.8 260.8 269.4 276.7 282.5 283.9 286.6 286.1 283.2 279 273.9 267.3 261.6 254.6 245.6 235.2 222.9 212.3 203.3 196.3 190.5 184.2 176.9 182.9 194.3 208.1 219 227.6 236.5 242.1 246 245.9 244 240.6 237.6 233.3 228.5 223.4 218.5 215.1 210.1 205.1 199.6 193.8 188.2 183.3 179.8
358 351.8 346.5 351 351.5 350.8 357.7 362.3 366.4 368.5 367.7 364.7 367.1 370.4 374.9 379.3 383.9 389.2 393.7 397.4 399.8 401.8 403 403.4 403.7 403 401.6 399.2 397.4 395.2 392.8 390.4 388.9 387 386 386.9 387.9 388.2 389.4 389.7 389.6 389.1 386.9 383.5 386.3 386.5 386.5 386.8 386.8 387.1 387.5 386.9 385.6 384.6 383.9 383 382.2 381.4 379.9 379.1 377.9 376.6 375.2 374.4 373.7 372.5 371.2 370.9 370.1 369.8 369.7 369.2 369.2 368.2 367 366 364.4 362.7 360.9 359.6 357.2 357.3 356.7 356 355 353.4 353.3 352.2 350.1 344.4 337.9 332.1 337.5 339.6 338 338.1 341.2 345.4 348.9 351.8 354.4 356.4 357.9 359.8 359.6 359 357.5 355.2 353.4 351.7 350.8 350.6 351.1 351.5 351.8 354.3 355.9 358 358.2 358.7 357.2 354.1 360 363.3 366.9 370.1 373 375.6 378.1 380.4 381.9 382.8 383.8 384.9 386.4 387.4 388.6 389.1 389.3 389.1 388.4 386.4 384.2 381.5 379 375.6 370.8 360.9 340.9 314.7 305.5 303.4 292.5 276.1 283.6 292.2 295 294.9 293.2 293.2 291.6 288.5 284 278.8 272.3 265.9 257.4 249.9 239.6 227.1 214.7 204.5 196 188.6 182 175.1 181.4 193.4 207.3 218.9 230.5 240.4 246.8 253.4 250.4 248.9 246 241.8 237.1 232.2 226.9 222 217.2 211 206.1 201.3 196.5 189.8 185.2 180.5
351.2 343.3 340.9 345 342.7 350.3 356.2 359.8 363.4 363.6 360.5 364 368.6 371.5 376.2 380.2 384.9 389 393.5 396.8 399 400.5 401.3 401.6 401.6 401 399.1 396.6 395.2 392.6 390.1 387.8 386.2 383.9 382.3 382.4 383 384 385.1 385.8 386.3 385 384.7 384 384.9 385.6 385.7 385.8 386.5 386.3 386.8 384.2 385.3 385.5 385 384.5 383.9 382.7 382.6 381.7 380.5 379.1 377.6 376.8 375.9 375.1 374.2 372.9 371.5 371.1 370.2 369.5 369.6 368.8 367.7 366.3 364.9 363.5 362.3 361.1 360 358.4 357.9 357 356.1 355.2 355.2 354.1 352.5 349.6 346 337.8 328.1 332.2 329.4 336.9 342.9 346 349.1 351.5 354 356.3 358.4 359.6 360.3 359.6 358.7 356.9 355.9 354.9 354.1 353.7 353.4 353.1 353.8 354.2 355.2 356.8 357 357 354.2 356 359.9 362.6 365.6 368.3 371 373.6 376 377.8 378.7 379.9 381.3 382.7 383.8 385.6 387 387.9 388.2 388 387.1 385.5 383.5 381.1 378.5 374.6 369.6 361.9 354.8 340.9 333.6 326 296.4 303.4 303.5 306.1 306.7 303.5 299.8 298.5 296.1 292.7 288.3 282.6 275.6 268.9 261.1 253 242.8 229.4 217.1 206.2 195.7 187.5 179.9 173.7 179.8 192.5 206.7 220.1 232.2 240.7 252.1 254.7 254.6 252.9 250.6 246.9 242.1 236.7 231 225.7 219.9 213.9 207.2 202.2 197 192.2 187.1 180.7
342.7 335.4 338.6 338.1 340.8 347.4 352.8 357.4 360.1 356.8 360.8 369.5 373.5 377.2 380 384.2 387.8 391.2 394.5 396.2 398.3 399.2 399.6 399.8 399.6 399.1 397.2 395.2 393 390.2 387.7 385.5 383.3 380.3 379.2 379.2 380.2 381.5 382.1 382.7 382.5 381.9 381.1 380.4 381.1 382.4 383.7 384.2 384.8 385.2 385.1 385.2 384.9 385.3 385 384.6 384.3 383.9 383.1 382.1 381.1 380 378.9 377.8 377 376.3 375.4 374.2 372.3 371.9 370.8 369.9 369.8 369.2 368.3 366.9 365.5 365.5 363.6 362.2 360.8 359.5 358.3 357.2 356.1 355.2 355.4 355 353.6 351.6 348.8 344.8 335.5 323.5 328.2 338.3 342.7 345.8 348.2 350.8 353.4 355.6 357.9 359.2 360.3 359.8 359.6 358.9 357.9 356.4 355.3 354.4 354.8 354.2 353.5 353.8 355.3 355.6 355.6 355.3 350.9 353.4 357.2 360.1 363 365.2 367.9 370.8 372.8 374.7 375.6 377.2 378.8 380.2 381.6 383.5 385.1 386 387 386.9 386.8 385.3 384.1 381.9 379.3 376.1 372.2 367.1 360.4 352.9 344.6 326.5 321.9 325.5 323 319.1 313.8 309.4 306.4 303.1 299.7 295.9 291.2 285.4 278.5 272 263.4 254.4 245.4 232.2 218.8 206.5 194.8 185 176.8 171.3 180.2 192.5 206.6 220.2 231.4 242.7 250.7 256.1 258.4 257.8 256.1 252 247 241.4 234.4 227.6 220.3 213.4 203 199.6 195.2 191 186.2 180.6
326.8 331.7 330.9 333 337.6 341.4 345 349 351.8 356.6 365.2 372.3 376.9 380.6 383.8 387.2 390 393.4 395.5 396.2 397.6 397.9 397.8 397.9 397.5 397.1 395.8 393.6 391.2 387.7 384.3 381.6 379.4 377.5 376.4 376.4 376.9 378.4 378.7 379 379.6 379.2 378.5 377.5 377.9 378.5 379.9 381.5 381.7 382.2 382.5 383.1 383.7 384.1 384.1 384.2 383.6 383.1 382.7 381.8 380.7 379.8 378.9 378.2 377.5 376.9 376 375 373.7 372.9 372.1 371 370 369.3 368.7 367.9 367 365.8 364.3 362.6 361.2 359.1 357.5 356 355.3 354.8 354.8 354.5 353.2 351.6 349.3 345.9 341.4 330.3 324 335.9 340.4 343.5 346.4 349.7 353 355.4 357.6 358.7 359.6 360.8 360.2 359.8 359.2 357.3 355.7 354.8 354.2 353.8 353 352.6 353.9 354.1 354 353.1 347.8 350.7 353.9 356.2 359.2 361.7 364 367.3 369.4 371.2 372.7 373.9 375.8 377.2 379.1 381.3 383.1 384.7 385.9 386.6 387.3 386.5 385.8 383.3 380.9 378.3 374.9 370.7 364.3 356.5 349.8 342.8 337.1 334.6 329.6 324.1 320.4 314.2 310 306.7 302.5 298.4 294.8 288.5 281.3 273.4 265.2 255 246.4 234 219 205.9 192.6 181.9 174.3 168.8 178.9 192 205.8 220 231.7 245.1 254.1 259 262.7 263.9 262.5 256.7 250.4 242.8 234 225.4 215.9 207.3 200.1 195.1 189.8 184.4 180.9 177.6
318.6 326.7 336.9 346.5 349 349.8 350.3 351.6 356.2 362.1 368.2 374.5 379.9 382.2 385.4 388.5 391.6 394 395.3 396.2 396.9 396.6 396.2 395.9 395.6 395.6 394.6 392.9 391.5 389.3 386.5 384.5 381.4 378.6 375.7 373.9 373.3 374.3 375.7 376.1 376.4 375.8 374.8 374.3 374.5 374.9 376.5 377.4 377.1 378.2 378.8 379.4 380.2 379.8 380.6 381.1 381.4 380 380.8 379.9 379.3 377.8 378 377.5 377.2 376.4 375.5 375 374.2 373.2 372.2 371.1 370 369 367.9 367.6 366 364.6 363.4 361.8 360.1 357.1 355.6 353.9 352.5 352 351.8 352 351.2 350.1 348.1 345.4 341.6 332.2 317.8 330.6 336.8 343.4 346.8 349.8 352.7 355.6 357.2 357.5 358 359.6 359.7 359.4 358.5 357 355.5 354.3 353.5 352.4 351.3 350.5 351.1 351.5 351.3 350.4 347.1 346.5 349.3 351.8 355.1 357.7 360.4 363.3 365.5 367.1 369.2 370.1 372.1 375.4 378.9 381.8 384 385.3 386.6 387.2 388.3 388.2 387.4 385.6 383.6 381.6 378.2 374 368.2 361.7 356 350.2 344.9 339.6 334.6 328.1 323.6 318.4 313.3 309 304.8 300.4 296 289.9 282.7 274.2 266.1 256.4 247 234.8 220.5 205.1 191.9 180.1 173.6 168 176.2 190.7 202.2 215.8 230.1 243.2 255.1 261.8 265.6 268.7 262.7 256.2 248.5 239.7 229.7 219.4 210.7 204.4 199.2 195.8 187.8 181.4 176.5 171.5
333.1 342.3 350 354.5 356.9 359 361.4 363.8 366.7 368.9 372.8 377.9 380.9 384.3 386.8 389.6 391.9 393.4 394.6 395.2 395.3 395.1 394.7 394.6 394.8 395.3 395 394.2 392.4 390.3 389 385.9 382.4 379.8 376.7 374.2 373.3 370.9 369.9 371.4 371.7 371.5 370.1 368.6 370.7 371.3 372.6 373.1 373.7 374.3 375.2 375.7 376.2 376.6 376.9 377.4 377.8 375.3 375.2 376.4 375.9 374.5 375.3 375.6 375.5 375.5 374.6 374.5 373.4 372.7 371.7 370.6 369 367.6 366.5 365.6 364.4 362.8 361.4 359.9 358.1 355.7 352.4 349.9 347.3 345.7 346.4 347.2 347.4 347.1 345.5 343.2 339.5 328.6 315.3 327.6 337.7 343.7 347.7 351.2 353.5 355.1 356.3 356.8 356.6 356.9 357.3 357.6 356.5 355.1 353.5 352.2 350.9 349.6 348.3 346.3 346.9 347.5 347.1 346.1 344.1 344.3 346.1 348.2 350.9 353.6 356.2 357.5 361.4 363.2 366.4 369.2 373.7 377 380.3 383 385.2 386.6 387.7 388.7 390.2 390.3 389.1 387.4 385.7 383 379.4 375.5 370.7 365.9 360.5 354.7 349.1 343.6 337.7 331.9 324.5 320 314.7 310 305.2 300.8 296.2 289.9 283.1 274.7 267 257.6 246.9 233.9 219.8 205.6 190.3 181.2 174 167 172 184.5 196.9 209.3 224.3 238.7 250.9 259.1 262.2 259.8 255.8 250.2 242.1 231.8 221.9 215.6 210.4 205.2 200.4 196 190.8 185.4 180.3 176.3
338.5 347.2 352.1 355.9 357.9 360 362.9 365.7 368.6 372.5 377 380.6 383.2 384.7 386.8 388.8 390.9 391.9 392.9 393.8 393.7 393.6 393 393.2 393.8 394.8 395.9 395.4 393.9 392.3 390.6 388.1 385.5 382.4 379.3 376.4 374.8 372 369.4 366.9 364.4 364.9 364.2 362.8 364.5 366.7 368 369.4 370.1 370.5 371.2 371.8 372.4 373.5 373.8 374.3 374 373.5 373.2 373 372.7 372.5 373 373.2 373.3 373.5 373.7 373.4 372.8 372.1 370.9 369.5 367.9 366.3 364.3 363.2 361.8 360.5 358.2 356.4 354.6 352.2 349.1 346 340.4 338.2 338.3 339.8 341.3 341.5 341.4 339.5 336.3 322 314.9 328.7 338 344.1 348 351.1 353 354.2 354.8 354.5 354.3 353.9 354.7 354.7 353.9 352.3 350.6 348.9 347.8 346.3 343 341.7 342.2 342.8 342 341.7 340.5 342.1 344 346.1 348.4 351.8 355.2 357.3 360.5 363.5 367.7 372 375.5 378.5 381.7 384 386.6 388.3 389.2 389.9 391.6 391 390.4 388.7 387.1 383.7 380.4 376.4 372.6 367.5 362.8 356.6 351 346 339.4 332.3 324.8 320.1 314.9 309.8 304.9 299.8 295.3 289.1 282.8 275 267.5 258.4 248.5 237.4 221.5 206.3 192.6 181.5 174.3 167.5 166.5 177.7 189.2 202.3 217 230.5 243 251.3 253.2 250.6 246.2 240 231.4 225 220.2 215.3 211.6 207.7 204.3 199.8 195.8 191.7 188.2 184.5
