ncols 200
nrows 82
xllcorner 320000
yllcorner 330550
cellsize 50
282.5 306.5 328.6 350.3 371.5 390.9 402.2 404.2 399 397.2 399.9 402.3 398.9 402.5 410.8 421 422.5 423.5 423.8 423.1 422.7 424.3 426 427.7 429.2 430.5 430.9 430.4 430.3 430.7 431.3 431.4 431.6 431.8 432 431.6 430.7 430.4 429.6 428.3 427.1 426.2 425 423.9 422.6 421 420 419.2 417.6 418.8 419.7 420.7 421.1 421 420.8 421.1 422.6 424 424.7 424.9 425.1 424.9 425.3 424.8 424.5 424.5 423.7 422.6 420.3 417.1 415.3 412.6 409.3 405.9 402.4 398.2 393.2 386.3 381.8 379.2 377.1 374.6 360.8 354.1 360 363.6 359.1 345.7 329.9 337.5 341 329.3 329 346.2 344.8 341 336.7 324.7 330.7 326.2 319.9 327.3 333.9 336.1 338.6 343.9 346 351.5 351.1 346.4 342.1 340.5 338.4 328.4 321.2 313.2 304.4 292.4 281 268 256 239.4 225.4 218.3 222.5 229.4 236.6 243.4 246 244.9 242.6 241.3 234.4 229.7 226.6 222 216.5 212.2 208.7 205 202 198.3 193.9 189 184.8 180.3 180.3 178.1 175.8 173.8 170.7 167.2 164.5 161.2 159.7 157.9 153.2 150.4 148.7 149.6 149.2 148.4 147.9 147.9 146.6 145.5 144.4 142.5 140.7 140.1 138.7 135.8 132.9 129.8 125 123.4 122.7 122.1 121.7 121.5 122.4 122.3 121.9 122.6 122.3 120.5 118.7 116.3 113.7 114 114.1 114.2 112.5 112.1 111 110.6 110.5 109.2 105.7 110.4
272.7 292.5 310.7 328.7 343.7 359.5 368.5 374.2 375.9 374.6 374.9 376.3 377.1 378.8 389.6 401.5 411.4 416.9 415.7 417.9 419.8 418.7 419.6 422.7 424.3 425.9 427.4 428.5 428.9 429.3 430 430.7 430.8 431 430.9 429.7 429 428.3 427.3 426 425 424 423 422 421.2 419.7 418.5 416.6 414.5 414.8 417.4 417.9 418.4 418.6 418.4 419.2 420.6 422.2 424.3 425.5 425.6 426.5 427.2 427.4 427.9 427.8 427.6 426.5 423.7 421.9 420.1 417.5 414.4 410.9 407.3 401.8 396.7 392.4 389.1 387.3 384.4 380.8 377 372.2 363.9 356.4 345.8 345.7 352 353.3 350.4 327.6 345.8 348.6 346 341.5 336.1 334.7 337.1 332.6 328.1 335.3 339.4 342.6 343.7 348.7 355 359 356 350.8 345.8 344 338.3 328.8 321 314.1 305.3 293.7 282.3 270.8 260.7 246.5 230.6 219.6 214.5 216.1 222.1 231.6 234.9 233.9 232.7 232.2 230.5 226.8 224.3 221.1 215.7 212.3 209.1 207.3 202.3 199.2 196 188.7 182.8 180.3 179.4 177.4 175.4 172.6 168.3 164.7 162.2 159.6 158.8 155.2 153.1 152 149.9 150.7 150.3 149.4 149 148.8 147.7 146.6 145.6 144 142.4 140.5 139.2 136.8 132.9 130.1 128.9 125.2 123.1 122.3 122.4 122.6 122.4 122.9 123.1 123.5 122.5 121.2 119.4 116.8 115.2 113.5 113 112.6 113.3 112 110.9 110.7 110.9 110.7 106.1 110.8
270.1 278.6 289.5 303.7 319.3 329.4 335.3 342.3 345.9 347.4 350.2 353.5 356.2 360.6 368.9 376.6 383.8 392.1 401.9 408.4 410.7 412.3 415.5 418.3 420.1 422.3 424.5 426.1 427.4 427.8 428.4 429.2 429.9 429.7 429.4 428.1 427 426.1 424.9 423.5 422.6 421.7 420.8 420 419.2 418.1 416.4 414 411.5 413.4 414.7 415.4 415.9 415.9 416 417.3 420.1 422.8 425.2 427 427.1 428.2 429.1 429.5 430.1 430.6 430.8 430.2 428.4 426.6 424.8 422.4 419.4 415.8 411.6 406.2 401.7 400 398.4 395.6 392.6 389.6 385.8 381.8 377.8 372.2 369.8 366.6 363.3 358.4 355.3 336 346.1 347.3 344.1 341.3 340 341.8 343.1 341.5 334.4 341 345.7 347 350.7 355.2 362.8 364.4 358.8 354.5 350.6 346.4 339.4 329.3 323.6 314.5 305.9 294.4 283.2 275.6 267.2 258.5 243.1 230.1 216.3 214.9 211.8 215 219.6 218.6 219.2 217.8 216.4 213.9 210.9 209.1 207 205.6 202.5 200.1 196 195.8 194.4 189.6 186.1 183.4 179.7 174.9 173 169.2 166.5 162.5 159 157.1 156.7 152.5 152.1 151.8 151 151.6 151.5 150.4 150 149.2 148.2 147.4 146.3 145 143.3 140.2 139.8 137.3 134.2 130.9 130 126.9 124.6 123.1 122.2 121.5 122.2 123.9 123.2 123.9 122.1 122 119.7 117.8 116.2 114.6 112.8 112.1 112.3 111.9 110.7 111.1 111.7 111.1 107 113.4
275.5 276.5 279.5 287.1 297.7 305.6 314.4 320.5 326.4 330.1 335.8 340.9 344.8 349.6 356 362.1 366.3 371.1 377.9 389.6 397.2 405.5 411.1 414.9 417.2 419.4 421.4 423 424.7 426.3 426.8 427.6 428.7 428.4 428 426.4 425.2 423.1 421.7 420.6 419.7 418.8 418 417.2 415.7 414.4 413.3 411.9 409.4 409.8 411.6 412.7 413.4 413.6 415.3 417.9 420.8 423.5 425.9 428.1 428.7 429.7 430.8 431.6 432.4 432.8 433 433.8 432.7 430.9 429.2 426.5 423.2 419.9 416.9 413 409.2 407.3 405.5 402.8 399.6 395.6 392 388.3 383.8 379.4 375.4 371.5 366.3 362.2 358.9 341.4 348.4 348.9 347.6 346.1 346.7 347.7 349.9 348.6 342.8 347.9 352.5 352.9 357.7 361.6 371.5 369.2 363.9 358.1 354.8 348.2 340 330.9 324.4 315.3 306.6 298.9 290.2 282.7 274.9 265.3 256.3 244 229.1 217.3 211.7 206.2 205.4 203 202.2 202.5 198 194.3 191.9 188.4 193.8 195.1 194.9 192.3 190.7 192.4 191 187.6 183.8 179.3 177 172.5 171.5 167.9 165.3 160.7 158.5 156.2 153.9 153.5 152.9 152.4 153 152.7 151.5 150.9 150.1 148.9 148.2 147.5 146.2 145.1 144.2 141.8 140.6 138.2 134.2 132.3 131.5 129.7 127.2 124 122.5 120.9 120.9 122 121.6 124 122.1 121.9 120.4 118.8 116.8 114.7 113.8 111.5 111.1 111 110.4 111 112.1 112.8 108.4 114.2
283.9 284 285.1 285.2 291.1 296.2 301.1 307.9 314.7 318.6 323.7 328.7 333.7 342.1 346.9 356.5 373.6 389.4 398.2 402.7 404.8 406.1 408.1 411.4 414.1 416.6 418.3 420 421.6 423.2 424.9 426.3 427.4 427 426.4 424 421.9 420 418.5 417.6 416.8 416 415 413.3 411.8 410.7 409.6 408.6 407.3 408.2 408.9 409.8 410.5 408.2 416.5 418.9 421.5 424.1 426.5 428.9 430.2 431.3 432.7 433.9 434.6 435 435.5 436.2 436.8 435.1 433 430.1 426.8 423.1 420.3 417.5 414.7 412.5 410.3 407.5 404.3 401 396.3 392.1 387.9 383.3 378.6 373.9 369 363.8 359.6 342.3 352.8 353.3 352.4 352.3 352.9 353.8 356.4 356.5 350.3 355.1 358.4 361.9 364.7 370 376.6 372.1 366.7 361.7 356.9 349.3 342.4 333.3 325.8 318.9 313 308.3 300.4 291.1 284 274.3 264.2 259.4 246.1 230.5 213.6 207.2 204.2 202.2 200.4 198.2 199 201.6 198.4 191.6 188 184.6 182.7 181.9 180.5 178.2 177.1 174.1 171.1 170 168.5 167.5 166.5 164.1 162.3 159.8 158.1 156.3 155.3 154.7 154.8 155.3 155.4 154 151.2 150.1 148.8 148.7 148.2 147.6 146.8 146.1 145.2 143.6 141.8 139.4 137.1 133.2 132.7 131.9 129.7 126.2 121.9 120.8 120.8 120.1 120 121.3 122.3 121.8 120.9 119 116.9 115.2 114.1 112.9 111.7 110.4 110.1 110.9 112 111.4 110.5 113.2
298 295.4 295.2 297.5 297.2 295 304.9 307.8 313.4 320.4 327.3 339.1 348.9 358.9 366.4 372.7 389.6 408 413.7 415.4 414.6 413.7 413.4 411.2 412.3 414.4 416 417.5 419.2 420.8 422.8 423.3 424.6 425.1 425.2 422.4 418.7 416.9 415.5 414.8 414.1 413.1 412.1 409.5 408.1 407 406 405.6 405.4 405.2 406.8 407.4 407.6 408.4 416.1 419 422 424.6 427.1 429.5 431.8 433.1 434.6 435.9 436.8 437.2 437.9 438.7 439.5 439 436.7 433.7 430.1 426.4 423.7 420.9 418.4 416.2 414.1 411.4 408.1 403.5 398.8 394.4 390 385 380.3 374.9 369 365.5 351.4 356.9 357.2 357.1 359 358.5 359.1 360.3 361.8 358.8 357.5 361 365 371.1 371.4 376.5 378.4 374.9 369.3 365.2 359.1 351.4 343.9 337.9 333.6 327.1 323.7 320 314.3 302 294.2 282 274.6 267.4 257 243.2 227.4 215.8 206.2 205.1 203.7 205 206.9 207.6 195.2 191.5 198 196.4 190.5 187.1 185.5 182.3 177.3 177.9 175.3 171.8 169.4 166.7 166.2 163.4 162 161 159.6 158.1 156.9 158.3 158.7 157.3 157.3 154.7 151.4 149 147.8 147.8 147.6 147.3 147.5 147.1 145 142.5 141.2 139.5 137.2 134.9 132.6 132 131 128.4 124 120.9 120.9 120.6 119 118.7 120.6 121.8 120.3 118.1 116.4 115.4 114 112.7 111.4 110.3 110.6 110.5 111.1 111.4 111 111.1
316.6 314.9 316.5 314 308.5 309.7 313.9 318.7 324.7 335 340.1 348 369.1 379.6 386.5 390.5 409.6 416.8 420.4 421.4 421.9 421.1 419.8 417.2 415.4 413.9 414.4 415.7 417 418.1 420 420.2 421.1 421.6 421 419.2 417.8 415 412.9 412 411 410 409 406.5 404.4 403.4 403.4 403.3 403.1 401.3 404.2 404.4 400.1 410 415.1 418.7 421.8 424.5 427 429.3 431.7 434.4 436.2 437.9 439.1 439.7 440.4 441.1 440.9 440.4 439.5 437.1 433.2 429.8 427.2 424.5 422 419.8 416.6 413.6 410 405.9 401.4 396.3 391.1 385.7 379.3 373.7 369.6 361.5 362.2 363 360.7 360.7 363.9 364.5 365 365.4 364.7 361.7 361.7 366.4 372.3 377.4 378.5 382.9 380.6 376.6 371.9 367.3 361.2 354 348.1 344.2 341.1 341.2 336.7 329.5 322.1 312.2 300.9 289.8 281.1 271.3 263 253.8 241.7 229.1 210.6 211.9 213.2 216.3 217.6 204.9 195.2 207.6 207.4 203.6 199.6 195.8 190.8 185.4 181.2 180 176.1 174.4 172.7 169 168.4 167.1 165.1 164.5 163.5 161.3 160.3 161.8 161.4 158.9 157.1 154.3 151.4 149 147.8 147.5 147.1 147.4 147.7 147.2 145.3 142.4 140.9 140.2 138.5 135.9 132.6 132 131.1 129.2 125.9 124 121.2 121.4 121 118.7 119.2 120 119.3 117.7 115.4 114.8 113.9 112.5 111.2 110.2 109.6 108.7 110.3 111.3 111.6 110.1
337.9 337 335.8 333.3 327.8 325.8 330.7 334.5 343.8 354.3 360.9 365.6 378.9 398.5 404.5 407.8 415.7 420.6 423.6 424.3 425.4 426.3 426.5 425 422.4 420 417.8 416.8 415 415 416.9 417 417.8 417.6 417.2 416.3 415.6 414.2 412.1 409.8 408.1 406.9 405.9 403.9 401.4 400.4 400.6 400.7 400.7 398.4 401.3 398.5 402.3 409.5 413.6 417.5 421 424 426.2 428.5 431.4 434.5 436.9 438.6 439.9 440.8 441.5 441.3 441.2 440.3 439.8 439.3 435.5 432.1 429.4 426.6 423.8 421.1 418.3 414.8 410.6 406.3 401.3 396.5 391.2 384.5 378.4 375.2 360.9 362.4 368 366.7 363.8 364.3 366.6 367.9 368.4 368.9 366.4 364.9 370.1 372.5 376.6 378.6 379.5 383.5 382.7 377 373.8 368.9 364.3 360 355.8 352.5 350.2 346.9 339.5 330.8 320.8 311.8 304.2 295.2 284.7 272.9 266.3 259 247.7 228.8 222.5 229.8 233.9 231.2 222.6 202.8 208.5 216.3 217.8 212.6 207.1 202.2 195.8 189.3 184.8 182.6 181.9 179.9 178 174.6 171.3 171.3 171 169.4 167 165.1 164 163.5 162.6 160.9 157.2 154.4 152.2 150.2 148.2 148.5 148.2 147.9 147.5 147.2 145.7 143.2 140.7 140.7 139 136.8 134 131.7 130.8 129.3 126.5 125.1 122 121.9 121.7 119.6 118 117.5 117.6 117 114.9 113.8 113 112.1 111 110.2 109.6 110.8 109 110.7 109.4 107.3
360.8 355.9 354.8 351.7 347.9 347.9 351.2 355.1 363.1 372 378.4 385.2 394.5 406.4 414.9 419.5 422 424.2 426.1 427.1 427.9 428.8 429.4 430 429.3 428.6 426.3 422.8 419.9 416.1 415.6 414.3 413.9 414.1 413.7 412.7 412.7 413 410.9 408.6 406.3 404.7 403.3 401.4 398.8 397.5 397.7 397.9 397.6 397.2 398.3 395.8 403.9 408.4 412.4 416.2 419.2 422.3 425.4 427.8 431 434.1 437.1 438.6 440 440.5 441.1 440.6 440.4 439.2 438 437.3 435.4 431.9 428.5 425.9 423.3 420.5 417.9 414.6 410.2 405.3 400.3 395.5 389.5 382.9 377.7 367.2 371.5 369.6 370 368.3 366.7 369.1 371.3 371.8 372.2 371 367.3 370.2 374.9 377.7 378.3 378.3 378 379.6 379.1 378.2 374.9 371.6 369.1 367.2 363.8 355.8 353.3 345.3 337.9 328 321.1 313.2 305.8 298.3 288.3 277.9 268.9 260.1 247.6 226.6 238.2 241.1 237.8 227.2 213.4 206.3 218.4 223.3 225.2 221.3 213.3 205.7 199.3 192.1 190.4 188.6 187.7 187 184.5 179.9 175.9 177.3 174.2 171.1 170.3 168.7 167.1 165.2 163.1 160.9 157.3 154.7 153.3 151 149.8 149.2 148.5 147.1 147.1 147.1 146 143.6 140.9 139.7 138.9 137.1 134.8 131.4 130.5 129.1 126 125.3 123.6 122.7 121.7 119.7 118.7 117.8 115.8 115.8 115.6 114.3 113.5 112.7 111.6 110.4 109.8 109.1 108.4 111.8 107.2 105.2
376 372.2 371 369.9 367.1 367.2 370.7 375.6 379.4 390.8 399.4 405.4 412.3 416.7 420.1 423.4 425.7 427.4 428.7 429.5 430.3 430.9 431.5 432.2 431.5 431.2 429.8 427.4 424.9 421.7 419.6 419.1 415.1 412.8 411.2 408.7 408.8 408.9 409.2 407.4 405.1 402.9 400.4 397.8 396.2 395 394.5 394.5 393.8 393.5 389.5 399.2 402.1 406.2 410.5 414.3 417.2 420.3 423.7 426.9 429.9 432.9 435.9 437.9 439.5 440.2 440.5 439.7 437.9 437.1 437.2 435.7 434.2 431 427.5 424.9 422.5 419.9 416.9 412.8 409 404.1 399.1 393.3 387.1 379.6 379.6 378.4 374.9 373.4 372.5 370.9 371.3 372.8 375.1 375.5 375.6 373.4 369.4 373.7 376.8 377.6 376.9 375.7 372.9 372.2 374.1 376.5 373.8 371.8 371.5 371.6 366.8 358.3 353.4 345.2 338.7 327.7 322.6 314.8 307.3 298.7 289.5 280.1 270.9 257.8 246.8 233.1 243 239.5 232.6 220.9 204.7 218.5 227.1 229.8 228.4 225.6 218.6 210.8 199.1 197.1 196.8 194.3 193.6 191.2 187.4 181.5 178.8 179.9 177.7 174.8 173.4 172.6 169.1 166.6 165 162.2 158.5 156.3 153.8 151.6 150.8 149.7 147.2 146 145.5 145.3 145 143.7 141 138.9 138.1 136.9 135 132.1 130.1 128.1 125.8 126 125 124.2 123.1 121.2 120 118.9 117.8 118.2 117.6 116.2 114.7 113.4 113.1 111 110.3 109.6 108.8 112.8 107.1 107
389 386.3 387.9 388.8 386.3 386.7 389.2 394.4 399.8 408.5 417.5 420.8 423 424.6 426.5 427 429.2 430.3 431 431.7 432.3 432.9 433.6 434.2 433.8 433.2 431.3 429 426.7 425.2 424.8 424.3 421.6 419.1 415.5 414 411 405.8 404.2 402.5 400.9 398.2 396.7 394.5 393.2 391.4 390.1 391.7 390.5 386 389.4 399.5 402.3 405 408.2 412 415.3 418.4 422 425.1 428.1 431.2 433.8 435.7 437.4 438.1 438.4 438.4 437.8 436.3 436 434.6 433.2 431 427.6 424 421.4 417.3 412.9 408.8 407.1 402.4 396 387.7 387 386.8 384 381 378.2 376.3 374.6 373.8 374.3 375.4 377.3 377.9 376.6 373.1 368.7 372.5 374.2 375.6 371.1 369.7 369.7 366.1 370.3 373.3 372.4 372.5 372.9 372.1 367 357.9 352 346.1 337.2 329.8 324.5 316.7 307.9 299.4 290.8 281.5 270.9 261 246.3 233.9 241.6 233.8 227.2 213.5 205 224.4 227.9 229 227.9 226 221.8 209.6 206.5 203.7 201.3 200.3 197.7 194.1 190.7 185.8 181.5 180.9 178.7 179.3 177.7 175.6 172.3 169.2 167.3 163.6 160 157.5 155 152.4 150.8 148.5 146.7 145.9 145.2 143.9 142.8 142.2 141.1 139.1 136.7 135.2 133.8 130.6 129.6 128.3 127.6 127.3 126.4 125.2 123.4 121.9 119.6 119.4 119.7 118.8 117.7 116.2 114.3 113.6 113.8 112.2 111 109.9 109.3 110.1 109.2 107.5
403.3 402.7 404.8 407 408.4 409.8 412 415.6 417.7 420.3 427.3 428.8 429.5 430.3 430.2 430.6 431.7 432.2 432.9 433.4 433.7 434.2 434.8 435.5 435.5 434.7 432.5 430.2 428.6 428.4 428.4 428 426 424.2 420.6 417.1 415.5 412.3 407.8 403.8 396.1 392.5 390.6 390.5 388.6 386.9 386.2 387 385.2 381.1 390.4 397.6 401.5 404.4 405.9 409.3 412.8 417.1 420.2 423.2 426.3 429.3 431.6 433.4 435.1 436 436.6 436.7 436.1 435.8 434.9 433.8 432.2 430 427.7 425.1 422.7 419.9 416.7 412.7 407.1 401.4 397.3 396 392.8 389.7 386.3 382.8 379.9 377.7 376.4 375.4 375.8 377.6 379.7 379.6 376.5 372 367.9 367.3 370 371.3 369.9 364.9 363.1 360.7 363.3 368.3 370 370.2 371.8 370.2 365 354.2 350.3 346 338.7 331.5 325.7 318.3 309.3 301.2 293.4 282.6 272.3 260.5 247.6 237 237 230.8 220.1 210.4 223.3 228.2 227.5 227.9 224.2 221.4 217 216.4 219.1 212.5 208.7 205.4 200.3 195.8 192 188.5 185.1 183.3 180.1 179.3 177.8 176.8 174.3 172.6 169.1 165 161.4 158.5 155.6 153.4 151 148.1 147.1 145.9 144.6 143.4 142.8 141.5 140.5 139.5 135.9 134.6 133.3 132.5 130.7 130.3 128.9 127.9 126.7 124.6 122.9 121.6 120 122.1 122.7 120.5 118.2 115.9 114.4 114.8 115.4 115.9 112.7 110.3 109.9 116.4 110.4 108.9
414.1 415.3 418 422.1 426.8 429.2 430.6 429 428.3 429 432 434 434.6 433.9 433 433 434.1 434.1 434.7 435.1 435.5 435.8 436.1 436.8 436.9 435.7 434.1 432.5 431 430.5 430.7 431.6 430.2 427.9 423.5 420.7 418.4 413.3 410.4 407.6 404.8 401.9 396.9 390.1 384.9 383.7 382.9 381.3 382.3 379.4 386.4 392.9 397.4 399.1 402.1 405.6 409.9 414.8 418.2 421.4 424.4 427.3 429.2 431.1 432.9 434 434.8 435 434.6 434.2 433.9 433.1 431.2 429.1 427.3 425.5 423.5 420.7 417.6 413.9 410.2 406.6 403 399 395.6 391.4 387 383.1 380.1 377.9 376.5 376.1 376.7 378.3 381.4 379.8 375.2 371.2 367.7 364.1 364.7 367.3 364.4 361.6 357.8 356.5 356.6 358.7 364.1 365.9 368.1 366.1 361 351.3 347.5 345.3 338.5 330.6 325.8 318.8 310.6 302.5 294.8 286.1 276 261.8 250.5 239.1 235.3 228.4 216 221.5 230.6 230.3 231.4 231.9 229.2 228 225.8 224.9 225 219.8 216 210.1 203.8 198.1 194.4 190.8 189 187.3 186.3 183.4 179.6 177.4 173.8 173.1 172.1 167.9 163.6 159 155.4 153.5 152.7 149.1 148.2 146.3 144.6 144.8 142.9 141.6 140.6 139.3 136.9 134.9 133.8 133 132.7 131.3 128.9 128.2 126.9 125.1 123.6 121.9 121.6 124.8 126.1 124.3 120.4 117.7 116.9 117.4 117.7 117.4 114.9 112.2 110.5 116.4 109.9 110.4
419.8 423.5 428.2 431.6 435.6 438.2 438 434.9 432.5 432 433.6 436.1 436.5 435.5 434.7 435.6 436 436 436.5 436.8 437.2 437.5 437.9 438.2 438.1 437 436.4 434.8 433.4 433 432.5 433 433.5 430.6 426.6 424.1 421.7 417.9 414.5 411.8 408.8 405.2 401.3 396.8 392.5 388.6 383.1 375.8 380.5 379.6 379.7 387.3 391.7 395 398.3 402 406.9 411.5 415.8 419.1 422.2 425.3 427.5 429.6 431.1 432.2 432.9 433.3 433 432.7 432.4 431.9 430.9 429.1 427.2 425.4 423.6 421.1 418.4 414.7 411 407.6 404.1 400 395.8 391.6 387.3 383.5 380.3 378.2 376.5 375.5 375.1 376.7 377.6 373 371.3 369.2 367 363.8 362.8 362.1 359.8 355.6 352.9 352 353.8 355 356.8 362.8 363.7 360.9 355 348.7 343.3 338.9 334.2 327.9 323.4 317.5 309.3 302.8 295.2 288.1 278.4 265.9 255.1 244.7 239 228.4 214.3 225.5 231.2 235.9 236.6 236.9 232.6 230.8 230.3 227.4 226 221.8 217.4 212.3 206.6 201.4 197 194.3 192.8 191 189.5 186.2 181.5 178.4 174.9 173.2 172.5 170 165.8 160.7 156.7 154.6 153.5 148.8 148.9 147.3 144.9 144.4 142.6 141 140.1 139.1 137.4 135.6 135.4 134.3 133.4 132.1 129.1 128.1 126.6 125.4 123.1 122.1 123.4 126.3 127.8 126.3 123.6 121.3 119.5 120.1 119.5 118.4 115.8 113.6 111.2 115.5 109.6 109.7
422.9 428.5 433.4 436.2 436.7 437.2 436.7 436.2 434.4 433.8 433.7 435.1 436.2 436.8 436.8 436.9 437.3 437.9 438.2 438.6 438.9 439.1 439.3 439.6 439.3 438.7 437.8 437 435.9 435.5 435 434.1 433.7 432.5 429.4 426.7 424.2 420.9 417.7 414.4 411.2 407 403 398.6 394.1 389.6 384.5 378.5 376.6 374.3 381.2 380 387.6 390.9 394.6 399 403.6 408.3 413.1 415.9 418.8 421.8 426.1 428 429.4 430.4 431.1 431.2 431.4 430.8 429.9 429.7 429 428.1 426.9 424.7 422.4 420 417.5 415.5 411.6 407.5 403.4 399.5 395.8 391.6 386.7 382.7 379.7 377.1 375.1 372.6 371.8 373.3 372.9 370.5 367.2 365.3 363.8 362.9 361 359.2 356.3 350 347.7 349 351.8 351.6 352.6 358.4 358.9 355.6 351.8 345.4 340.1 334.7 332 325.8 320.6 315.1 309.2 302.7 295.6 288.6 280 267.9 258.2 249.7 235.7 227.3 218.7 232.6 236.6 246.5 245.4 242 241.3 237.2 230.8 228.6 225.5 221.2 216.6 211.7 206.1 201 198.3 196 195.1 192.9 190.6 186.8 182.5 179.3 176.2 174.4 172.3 171 167.7 163.2 158.9 155.3 152.4 149.9 149.3 148.8 146.4 144.3 142 140.5 139.4 138.4 137.5 137 136.6 135.5 133 131.7 129.9 127.3 125.3 124 124.1 124 125.5 128.4 127.8 125.8 123.6 122.9 122.6 122 121.3 119.5 117.5 115.5 112.5 114.3 110.5 109.8
423.9 428.4 432.9 435.3 435.5 434.6 433.7 434.3 434.2 434.5 433.4 434.2 435.5 436.7 437.3 437.9 438.3 438.8 439.6 439.9 440.1 440.4 440.6 440.9 440.3 440.1 439.3 439.3 438.4 437.6 436.2 434.9 434.7 433.5 430.7 428.4 426 422.3 419.1 414.7 410.7 406.9 402.5 397.6 392.9 390.6 388.5 384.8 380 372.7 366.7 367.3 377.8 385.4 390.6 396 401 405.9 410.1 412.9 415.6 418.4 422.1 426.9 427.6 428.7 429 428.9 428.6 428.1 427.3 427.5 427 426.1 425.2 423.4 421.2 418.8 416.4 414.2 410.6 406.8 402.7 398.6 394.5 389.6 384.9 381.2 377.5 374.6 372.3 369.7 367.5 367.8 366.7 365.7 363.9 361.3 361.5 362.5 360.1 354.6 353.3 351 343.2 345.6 345.7 346.8 348.5 353.1 354.3 352.4 348 342.7 337.1 332.9 329.2 324.5 319.3 313.8 307.9 302 296.5 289.6 282.6 274.1 264.6 247.1 230 221.7 227.2 236 244.3 251.8 252.3 253.1 250.8 245.5 237.9 229.5 226.9 223.8 218.8 211.3 205.7 201.6 199.6 197.4 195.8 192 189.2 186.6 183.7 180.1 176.3 172.4 172 171.1 168.2 162.9 158.1 155.9 153.1 149.1 148.9 148.5 146.1 144.5 142 141.2 140.7 139.9 139 138.2 137.5 136.4 134 131.1 128.3 125.6 125 125.8 125.9 125.8 127.4 129 127.1 125.3 124.5 123.7 124.1 123.7 122.5 120.9 118.8 116.9 112.8 112.9 110.6 109.5
414.9 425.4 428.8 431.4 433 432 431.4 432.3 432.7 433.1 433.3 433.3 434.9 436.4 437.5 437.7 438.5 438.8 440.2 441 441.4 441.7 441.9 441.8 441.2 440.8 440.9 440.7 439.8 438.5 437.3 436 435.9 434.6 432 429.7 426.6 423 417.9 414.4 410.8 407.6 404.2 400 396.7 395.2 392.7 389.2 385.1 380.7 378.8 366.4 367.3 379.9 387.2 393.4 398.6 403.2 407 409.6 412.1 415 417.7 420.2 422.6 424.6 425.3 425.7 425.6 425.3 425.1 425.3 425 424.3 423.6 421.9 419.8 417.6 415.2 412.4 409.1 405.5 401.8 397.1 392.2 387.2 382 378.3 374.5 371.2 369.2 366.7 364.1 361.9 360.9 359.9 358.3 356.8 358.1 359.6 356.5 351.4 350.4 349 343.8 339.5 339.5 341.7 344.4 349 350 347.3 343.2 337.7 333.3 330.9 327 321.8 318.6 314.4 308.5 303.1 298 292.4 284.2 273.6 258.7 240.6 229.8 228 234.7 242 250.2 256.6 258.3 258.2 255.6 250.2 243.6 233.4 228.6 226.6 221 214.6 208.1 204.9 202.3 199.9 197.2 192.8 189.4 186.6 183.7 179.8 175.4 173.2 171.5 170.1 168.2 164.6 158.6 155.3 151.6 149.8 149.8 149.1 146.9 144.7 142.7 142.3 141.8 141.3 140.4 139.6 138 137 135.5 131.3 128.3 125.7 125.4 126.1 127.2 126.9 128.6 129.7 128.4 127.2 126.3 126.2 125.8 125 122.6 122.1 119.7 118.2 113.4 112.3 110.6 109.8
403.8 416.3 424.3 427.6 429.6 430 430.4 431 431 430.9 431 431.9 433.4 434.7 435.4 435.2 437 438.9 440.2 441.7 442.3 442.9 443.2 442.8 442.2 441.6 441.3 441.2 440.4 439.4 438.4 437.1 436.3 434.8 432.8 430.3 427.2 423.7 420.5 417.9 413 411.1 407.3 403.3 401.4 399.3 396 391.9 386.5 381.3 375.5 370.7 359.9 375.6 383.7 390.5 396.1 400.8 404.2 406.7 409.3 411.2 413.4 415.3 417.1 418.9 420.4 421 421.6 422.2 422.9 423.2 423.3 422.9 422.3 420.1 417.9 415.8 413 409.7 406.5 403.1 398.8 394.4 389.6 384.3 379 373.8 370.1 367.7 364.2 363.3 360.7 357.4 355 354 352.3 351.7 352.6 351.4 350.2 348.6 346 345 342.6 336.8 334.7 334.4 339.8 344.7 345.6 342 335.1 330.9 328.9 327.1 323.9 319.7 318.1 315.4 309.8 305.1 300.6 294.7 287.2 274 257.5 241 229.3 236.8 243.4 248.8 256 260 260.2 258.8 256.1 251.5 244.8 235.7 231 229.5 225.1 219.6 213.8 210 207.8 204.1 200.6 194 190.4 186.6 184.1 180.9 176.7 173.8 171.6 170.2 169.2 165.6 161.6 158.3 153.6 152.3 151.6 150.4 148.6 145.9 143.6 143.3 142.8 142.4 141.8 140.6 138.5 137 135.6 131.7 129.1 125.9 126.8 127.2 128.2 127.9 129.3 130.5 129.8 128.5 128.4 128 127 125 123.5 122.1 120.3 118 114.2 112.6 110.7 109.9
412.1 413.7 418.9 424.6 429.1 430.5 430.8 430.9 430.9 430.8 430.5 429.9 431 431.2 432.1 433.3 434.9 436.6 439.4 441.1 442.2 442.8 443.4 443.5 443 441.7 441.1 441.2 440.4 439.5 438.6 437.6 436.1 434.5 432.1 429.4 426.9 424.3 421.7 419.2 416.6 413.6 409.6 407 405 402.1 397.4 393.8 389.3 384.3 379.7 373.3 356.5 370.7 382.9 389.1 394.7 399.3 402.3 404.8 406 407.8 409.6 411.5 413.3 415.1 416.6 417.6 418.4 419.5 420.5 421.7 422 421.8 420.7 418.6 416.1 412.6 409.9 406.9 403.9 399.8 395.6 391.4 386.8 381.3 375.9 370.8 365.7 363.4 358.5 356.1 355.8 352.8 350.5 348.1 346.8 346.2 346.3 345.3 343.4 341.5 341 339.8 337.9 333.1 330.4 329.4 334.9 339.9 341.5 334.8 329.5 325.4 324.2 322.3 319.3 315 316.7 314.6 310.7 307.1 303 297 287.8 274.8 257.4 241.3 233.6 245 253 259.1 261.6 264 261.9 257.9 255 250.2 246.1 240.7 235.4 232.9 230.8 225.7 219.2 215.2 212.7 208.3 203.4 200.7 190.4 186.3 183.5 180.6 177.1 175.4 173.7 172.5 170.7 166.3 163.4 158.5 154.9 155.6 153.2 151.4 149.5 147.3 144.7 143.8 143.4 143 142.4 141.5 139.6 137.8 135.5 131.6 129.8 126.9 128.3 129.2 128.7 128.9 129.6 130.7 131.2 130.5 129.6 128.2 126.4 124.4 124.4 123.2 120.9 118.9 116.3 113.4 111.2 110
423.9 425.4 426.8 428.3 430.7 431.3 431.4 431.4 431.4 431 430.3 429.6 429.3 429.1 429.7 430.8 431.7 433.9 437.6 439.4 440.9 441.5 442 441.9 441.1 440.3 439.9 440.5 439.2 438.3 437.5 436.6 435.2 433.1 431.1 428.6 426 423.5 420.9 418.4 416.6 414.3 410.9 409.2 406.3 402.4 400.7 397.6 393.8 389.7 384.8 377.2 357.9 364.4 380 389.4 394.6 398.8 401.7 403 404.1 404.5 405.8 407.7 409.5 411.2 412.7 414 415.7 417.4 419.3 420 420.6 420.8 419 417 412.1 406.5 406.4 404.4 400.7 396.6 392.4 387.9 382.3 376.7 372.3 368.9 364.5 357.4 354.9 352.6 349.7 345 343.9 342.6 340.4 339.7 340 339.2 337.7 336.1 335.8 335.5 332.4 328.2 326.1 326.1 329.4 331.7 334.4 329 322.5 317.4 314.5 314.4 314.5 310 311.4 312.3 310.8 308.1 303.9 294.5 285.6 272 257 244.4 239.9 254.4 260.7 266.8 269.4 267.4 265.1 260.2 255.9 251.4 247.8 244 238.2 237.6 235.2 229.9 224.9 220.2 215.2 209.9 206.2 201.1 191.5 187 183.8 181 178.7 176.7 175.4 172.7 170.5 166.9 164.2 162 159.5 158.1 155.2 152.5 150.5 148.4 146.4 144.3 143.9 143.2 142.6 142 140.1 138.3 136.4 133.5 131.5 128 129.3 129 128.9 129.2 129.8 130.9 132 130.9 129.3 127.7 125.8 124.1 123.9 124.4 121.9 120.6 117 114.3 111.5 109.2
428.9 429.3 429.9 430.3 431.8 431.9 431.8 431.8 431.5 431 430.1 429.4 428.6 427.3 427.8 428.4 429.2 430.3 434.3 437 437.7 438.2 438.2 438 438.4 438.2 438.9 439.2 437.9 437.1 436.3 435.3 433.8 431.8 429.7 427.6 425.2 422.7 420.1 418.3 416.6 415 412.1 409.2 406.8 405.5 403.6 400.8 397.2 393.2 385.1 371.4 358 356.1 373.1 382.7 389.5 397.4 403.1 403.3 403 402.1 403.2 404.4 405.8 407.5 409.3 411 412.8 415.5 417.7 418.6 419.5 420.4 418.7 416.8 413.9 410.6 403.1 397 395.9 393.1 388.2 383.2 376.9 370.5 365.9 363 358 363.7 362.1 359.7 356.5 352.5 347.7 343.1 340.3 337.5 334.1 334.8 332.8 332.6 332.5 333.2 331.4 326.5 325.2 325 322 322.1 323.4 321.8 318.5 314 308.4 307.7 307.7 306.9 305.1 307.6 308.7 307.5 302.5 293 282.5 272.2 263.8 246.2 248.1 260 269.5 273 271.6 271 267.5 262.9 258.5 255.6 250.1 243.6 241.7 238.7 235.5 231.7 227.5 222.9 215.8 210.4 206.9 201.7 193.4 188.2 185.2 183.6 181.2 178.3 175.7 172.9 169.3 169.1 166.6 164 161.4 159.6 157.1 154.2 150.9 148.9 146.9 145.1 144 143.4 142.8 142.4 140.5 138 136.3 135.4 133.1 129 130.1 129.5 129.7 129.7 130.3 131 132.2 131.5 129.8 128.2 126 123.8 123.2 123.3 123.3 121.2 117.2 113.3 111.7 109.2
432.9 432.4 432.7 432.8 432.2 432.1 432.1 431.8 431.5 431 430.2 429.3 427.9 426.6 425.3 425.5 426.8 426.9 429.7 432.8 434.4 434.8 434.3 433.8 434.2 434.7 436.4 437.4 436.7 435.5 434.3 433.4 431.2 430.2 428.8 426.6 424.4 421.9 419.9 418.3 416.7 414.9 412 410.3 408.6 407.2 405.3 403.5 399.9 395.8 387.5 365.6 362.1 352.2 365 375 383.9 391.8 401.7 403.5 402.1 400.7 400.7 401.4 402.4 404.5 406.4 408.1 411.1 414.4 417.7 419.6 420.2 420.9 420 418.5 415.2 411.9 407 400.7 392.6 383.7 378.6 373.2 370.4 366.3 365.5 368.8 369.6 368.1 365.7 362.1 358.4 354.4 350.3 346.5 343.3 340.3 336.3 333.2 331.9 329.4 330.4 334.4 334.7 332.5 328.2 326.5 325.3 319.7 314.2 312.6 309.5 305.8 302 302 301.9 302.1 301.6 301.4 303.6 304 297.1 290.6 282.5 273.2 264.8 246.7 255.2 269.6 280.7 280.3 274.8 272.6 270.6 266.4 262.4 257.5 251.9 246.4 245.1 242.3 238.8 235.5 230.8 225.1 218 210.9 206.7 201.4 194 189.9 186.6 185.1 184.1 181.7 177.8 171.9 170.2 170.5 168.2 165.9 163.3 161.2 158.5 154.9 151.5 149.3 147.7 146.3 144.7 143.9 143.3 142.5 140.4 137.9 135.9 135.1 133 130.2 131.3 131.1 131.4 130.3 130.8 131.4 131.4 131.6 130.3 128.8 126 123.8 123.3 122.6 122.1 120.8 117.2 113.2 111.2 110.3
436.1 435.3 434.2 434.1 432.7 432.3 432.1 431.8 431.4 431.1 430.2 428.9 427.4 425.8 424 422.4 423.9 423.7 425.8 427.9 429.5 431.1 430.4 429.8 430 430.7 431.3 431.6 432 432.1 431.8 430.9 428.7 427.6 426.5 425 423.1 421.6 420.1 418.5 417 415.6 414 412.4 410.1 408.6 406.8 404.3 401.3 397.4 390.1 364.3 357.4 346.4 357 369.6 381.3 391 398.4 401.2 399.1 396.9 395.8 397.8 399.1 400.6 404.8 407.5 411 413.9 417 420.1 421.5 422.3 421.8 420 416.6 412.8 408.1 402.4 396 390.2 384.3 378.8 374.8 368.8 370.1 374.2 373.3 370.5 367.3 364 360.3 356.2 352 347.9 344.4 341.1 338.1 334.9 332.9 331.2 328 329.8 332.2 330.7 327.9 325.5 325 320.7 317.8 313.4 312.1 309.5 301.4 296.8 293.6 294.4 295.8 294.1 296.1 294.8 288.7 281.1 274.9 274.2 266.7 244.7 259 273.2 284.5 283.5 278.1 274.3 272.1 269.7 265.5 262.1 258.8 257.2 251.9 246.6 241.7 238.4 233.3 226.1 221 212.9 206.4 200.7 195.1 191.3 188.4 186.9 185.3 182.1 179.5 174.7 172.8 171.8 169.5 167.2 164.9 162.4 158.8 154.9 151.8 150.3 148.9 147.6 145.4 144.6 143.4 141.7 140.1 138.1 135.7 134.3 131 130 131.6 133.4 133.4 131.7 130.7 130.8 130.6 130.4 129.7 129.1 128.3 126.2 123 122.3 121.1 120 116.8 113.8 111.2 110.6
439.1 437.7 435.7 434.7 433.3 432.4 432.1 431.7 431.4 431.1 429.9 428.5 427 425.6 423.8 420.2 419.7 420.1 421.2 422.6 424.1 425.6 427.1 425.9 425.9 425.4 425.7 425.9 426.7 427.4 427.5 426.9 425.8 424.9 423.8 422.4 422 421.8 420.9 419.7 418.4 417.4 416.2 414.6 412.1 410.1 407.8 405 401.2 396 388.6 366 351.9 340.3 349.1 363.6 377.3 388.2 395.2 397.6 395.2 391.1 390.4 393.7 396 400.5 404.2 407.3 410.9 414 416.9 419.8 422.3 423.3 422.8 420.9 417.7 413.6 408.6 402.1 395.5 390 385 380.2 373.1 373.1 375.1 375.7 374.4 372 368.9 365.8 362.1 357.8 353 348.3 345 341.8 339.4 337 335.6 334.7 334.7 332.9 324.2 326.5 324.8 322.3 320.3 316.8 314.8 313.2 312.3 306.3 298.6 297.3 293.2 286.3 282 281.7 287 286.3 282.2 281.6 279.3 270 252.8 254.1 266.4 276 284.4 283.9 280.6 275.6 272.5 272.7 267.8 264.5 262.9 260.6 256.7 251.8 245.4 240.2 235.3 228.4 222.2 215.4 207.3 201.7 196 190.4 189 188.6 185.7 183 180 175 172.9 171.7 169.2 166.8 164.6 162.3 158.8 154.1 151.7 151 150 148.7 146.3 144.3 142.5 140.9 139.3 137.7 135.9 135.3 133.4 131.1 133.5 133 132.2 130.5 130.3 130.3 130.3 130.4 130.3 129.8 129.5 127.2 124.5 122.1 120.3 118.8 116.7 114.3 111.7 110.6
438.8 437.5 435.6 433.1 432.6 432 431.7 431.4 431 430.2 429.3 428 426.7 425.3 423.9 421.3 417.1 416.5 417.6 418.8 420.3 421.7 422.7 421 420.4 420.2 420.1 420.7 421.5 422.3 421.9 421 420.9 420.4 419.9 420.6 421.8 422.2 421.7 421.1 419.8 418.9 418 416.7 414.2 411.4 408.2 405.4 400.4 395 387.9 373.4 352.3 344 339.8 351.5 371.1 382.5 389.6 391.7 389.2 385 390.9 395.1 397.5 399.9 403.7 407.1 410.7 414 417 420.1 423 424 423.6 421.4 418.1 413.4 407.7 401.4 394.9 389.8 384.9 379 377.8 377.9 378.9 379.4 377.4 374.4 371.2 368.1 363.7 358.7 353.6 349.5 346.6 343.7 341.2 339.5 338.8 338.2 337.5 333.2 327.7 322.4 320.9 316.2 314.5 315.6 314.4 310.2 304 308.2 308.3 306.6 304.3 297.7 291.3 279.4 282.8 285 281.8 275.7 265.1 254.1 258.6 266.2 275.6 278.7 284 283.7 281.5 277.7 274.4 273 270.8 266.1 265.7 265.5 261.2 256.1 245.7 239.9 236.1 229.9 223.1 217.9 210.4 202.6 197.3 192.4 190.4 189.7 185.5 183.4 180.7 175.3 173.2 171.3 170.1 167.9 165.8 163.6 158.8 154 152.2 151.2 150.2 148.1 145.4 143.2 141.6 140.1 138.5 137.1 137.6 135.5 132.6 132.8 135 133.8 132.5 132.1 130.9 130.7 130.4 130.4 130.5 130.3 129.5 128.1 124.8 122.6 120.2 118.4 116.7 115 112.4 110.7
427.3 427.3 427.8 430.7 432.6 431.9 431.2 430.5 429.6 428.9 428.4 427.3 426 424.6 422.8 420.3 417.2 415.3 413.9 415 416.4 417.3 418.5 417 416.1 415.4 414.6 414.9 415.4 415 415.5 416.2 416 416.3 416.3 417 418.2 419.7 421.4 421 421 421.2 420.5 419.4 416.9 413.2 408.8 405.6 401.1 395.3 387.9 377.1 355 344.8 338.3 343.6 361.4 372.4 380.6 382.9 375.1 385.8 391.8 397.3 400 402 403.8 406.9 410.5 414.1 417 420.9 423.6 425.1 423.9 420.9 416.5 411.9 407 401.1 394.6 389.4 384.6 383.5 383.4 383.4 383.3 382.8 379.7 376.7 373.6 370 364.7 359.8 354.7 351.8 348.8 345.9 343.8 342.5 341.9 341.1 339.4 336 331.1 327.8 325.2 323.6 319.1 315.3 314.8 313.6 315.7 313.9 311.3 306.4 301.2 294.6 288.2 284.8 269.5 264 261.4 261.1 263.2 268.6 274 278.1 280.7 280.2 282.3 281.9 280.8 279.7 276.4 272.6 269.8 269.9 268.4 268.6 266 257.9 246.8 239.5 235.8 230 223.1 217.2 212.2 203.1 197.3 194.5 192.2 189.9 186.9 184.7 180.6 176.3 173.5 172.9 171 168.1 165.5 163.1 159.6 155.9 153.3 151.5 150.2 149.5 145.8 143.4 140.9 139.4 138 138.4 138 135.8 132.6 133.7 135.8 134.8 133.4 134.1 131.8 131.5 131.5 131.5 131.7 131.4 130.5 128.4 124.7 121.6 119.9 118.2 116.5 114.8 112.8 110.9
404.5 407 413.9 418.7 424.4 426.3 427 427 427.2 426.2 426.8 426.2 424.8 423.4 421.4 419 417 414.7 411.6 411.2 412.4 413.5 414.3 414.8 411.1 411.1 410.4 409.7 409.1 409.2 409.1 410.1 411.6 412.1 412.7 413.8 415.2 416.8 418.3 419.9 420.2 422.8 424.1 422.6 419.3 415 410.5 406.1 401 391.3 376.7 373 362.3 344.2 338.6 331.5 347.2 358.1 367.5 364.2 374.5 381.9 389.4 397 401.2 403.3 405.4 407.9 411 413.9 417.5 421.7 423.9 424 422.9 420 415.6 410.9 405.9 400.8 394.6 390 388.8 389.3 388.7 388.2 387.7 385.8 382.5 379.2 375.9 371 365.8 360.8 356.7 354 351.1 348.5 346.8 345 343.9 342.8 341.4 337.1 333.1 329.7 326.8 324.1 321.7 319.5 319.5 317.2 316.2 314.5 311.4 308 301.5 293.5 288.7 284.8 284.3 281 280.7 279.8 281.6 284.4 284.4 283.7 283.7 282.3 282 281.7 281.4 279.7 277 273.6 269 267.4 270.3 269.5 262.9 256.3 245.4 239 234.9 229.1 221.5 214.9 206.8 200.1 196.7 194.3 191.9 189.6 188 185.5 181 177.7 175.9 174.1 171.5 168.5 165.3 162.7 160 157.4 155 153 150.8 149.6 145.9 143.9 141.6 138.8 138.8 137.8 137 135.8 132.8 133.7 136.1 134.8 134.1 133.7 132.6 133 133.3 132.4 132.8 132.5 130.4 128.3 124.8 121.5 119.7 118 116.3 114.5 112.4 110.4
379.3 382.3 391.6 402.9 413.6 416.6 417.9 420.5 422.1 426.1 425.9 424.7 423.4 422.1 419.6 417.2 415.2 413.3 410.9 407.2 408.6 409.6 410.1 411.1 410 406.9 405.9 404.9 403.9 403.6 403.8 405.2 406.7 407.7 409.4 411.5 413 414.5 416.1 418.1 420 424 424.7 422.3 419.8 416.4 411.7 406.4 400.1 394.9 389.9 383.6 365.7 350.4 337.2 333.6 335.5 345 352.9 354.8 368.4 376.2 384.4 392.1 397.2 400.7 403.6 406.3 409.8 413.4 418.2 421.3 423.7 422.9 421.2 418.5 414.7 410 405.3 400.8 395.9 392.4 392.5 392.8 391.9 391.4 391 389 386.1 382.6 377.5 372.3 367.3 362.8 359.1 356.2 353.4 351.4 348.2 346.8 345.6 344.1 341.8 339.9 336.5 332.5 328.7 326.1 324.3 322.9 321.8 320.5 318.3 316.3 312.1 307.6 298.9 293.8 292.8 292.6 294.1 293.1 292.8 290.8 289.3 288.7 289.4 288.9 286.9 283.8 283.2 283 279.4 277 275.1 273.3 269.5 267.4 268.2 267.6 261 253.4 241.8 236.8 234.4 229.2 220.7 216 206.5 202.8 196.8 194.2 191.7 189.2 188.2 185.7 182.2 178.6 176.5 173.6 170.3 168.9 167.1 165.3 161.5 158.2 156.4 154.4 152.6 149.5 146.1 144.3 143.9 139.4 137.7 136.5 135.8 134 133.8 134.3 135.9 135.5 135.3 134.1 133.6 134.3 134 133 133.6 132.5 130.2 128.1 125.1 122.8 121 119.1 116.8 114.8 112.8 110.9
355.3 362.2 372.3 388.3 391.8 395.9 401.6 402.3 420.4 423.8 422.8 422.1 421.4 420.2 417.8 415.5 413.5 412.6 410.3 406.8 404.8 405.7 406.6 407.4 406.2 405.5 401 400.1 398.8 398.5 399 400.5 401.9 404.6 407.2 409.3 410.8 412.7 415.1 417.6 420.8 424.5 425.3 425.9 423 419.3 415.3 410.3 405.3 400.5 395.4 387.8 379.9 365.1 342.2 331.4 325.7 334.4 337.1 353.4 363.3 370.1 376.7 383.5 388.5 393.2 397.1 400.9 404.5 409.7 416.9 420.7 422.6 421.5 420.1 418.1 414.4 409.6 405 401.2 397.5 396.1 395.9 396 395.6 394.7 393 391.2 388.4 383.8 378.7 373.9 369.7 365.3 362 358.8 355.4 352.3 349.6 347.8 345.9 344 342.9 341.4 338.2 335 331.1 328.7 326.9 325.3 322.6 320 319 316 312.2 304.3 300.6 299.9 299 302.5 303.3 302 296.5 293.3 290.9 293.2 295.7 294.4 290.2 287.2 283.4 280.1 277.1 274.8 272.8 272.7 268.6 264.9 263.8 263.1 258 251.1 242.2 233.7 232.7 227.6 221.6 216.1 209.9 204 197.4 195.4 192.8 189.7 187.9 185.4 181.8 178.6 176.3 173.4 172.7 171.3 169.7 166.8 163 159.1 156.6 155.8 154.3 152.7 148.8 146.3 146.1 144 140.9 137.1 135.1 134.6 136.1 136 136.6 135.4 136.7 135.9 134.7 134.7 134.4 133.5 133.5 133 130.7 128.9 127.1 124.8 121.6 119.5 117.1 115.1 113.2 111.3
341.3 348.8 356.5 365.6 370.7 375.5 379.8 401.7 416 420.5 421.2 420.6 419.6 418.3 416.1 413.8 412.6 411.8 409.7 406.7 404.7 401.9 403.2 403.2 401.8 401 399.8 396.9 394.3 393.9 395.2 396.8 400.3 403.6 405.9 406.1 409.3 411.6 413.9 417.6 420.3 423.1 427.1 427.6 423.7 421.2 418.3 413.7 409.4 404.9 400.4 394.1 386 376.1 356.9 334.6 324.7 325.7 328.1 344.1 356.4 363.4 370.4 374.6 379 383.4 387.8 391.8 396.8 403.1 409.9 416 418.7 420.9 420.6 418.3 414.2 409.4 405 402.1 400.3 399.5 399.3 399.3 398.8 398.3 395.9 393.4 389.1 384.7 380.1 375.6 370.8 366.5 363.2 359.8 355.5 351.7 349.4 348 346.6 345 343.3 341.5 338.4 336.3 333.8 330.8 329.7 328.1 325.7 323.7 320 318.1 313.3 312.2 312 307.2 308.5 310.3 306 302.4 301.2 301.8 297.7 300.8 303.5 301.5 296.5 287.3 283.6 279.4 275.3 273.1 271.1 271 266.3 262.4 260.1 257.8 255.1 248.1 235.4 230.3 226.8 222.6 218.6 214.3 203.3 201.6 198.7 196.6 194.4 190.7 188.5 185.9 180.9 178.5 177 176.5 175 172.6 170.2 167.3 163.9 160.5 157.5 155.8 155.5 154.1 150.5 146.8 146.5 145.4 142.2 138.4 135.5 135.3 137.4 137.6 136.9 136 134.3 135.1 134.4 135 135.1 133.9 133.8 133.5 132.5 130.8 128.9 125.2 121.9 119.6 117.5 115.4 113.7 111.9
342.2 346.9 350.5 354.5 360.7 368.9 384.2 403.4 414.8 418.7 419.8 418.8 417.8 416.4 414.1 412.7 411.9 410.8 408.9 407.1 405.3 403.8 401.2 399.7 399 398.5 397.9 396.4 393 390.6 391.9 394.2 397.6 401 403.2 403.5 407.5 410.3 412.8 414.9 417.6 418.4 420 419.1 417.3 417.6 418.4 416.9 413.2 409.6 405.7 400.4 392.4 384 371.9 354.5 342.1 326.5 320.5 328.3 345.4 357 365.4 367.8 369.7 373.1 377.7 382.2 388.3 395.1 402.5 408.7 414.8 418.7 419.9 418.2 414 409.3 405.2 403.2 401.6 401.5 401.8 401.6 400.1 399.2 396.8 393.8 389.6 384.6 379.5 375.9 371.3 367.2 363.5 359.1 354.4 350.3 348.6 347.3 346.1 344.1 342.1 341.7 339.7 337.6 335.5 333.6 331.6 333 329.6 325.6 323.6 323.3 323.1 321 319 314.6 312.2 310.5 310.3 305.5 305.1 307.4 308.5 307.8 306.5 302.6 296.7 292.5 284.8 279.1 275.2 271.7 270 269.5 264.3 260.3 256.9 254.5 252.1 243.3 229 226.1 221.7 218 214.7 212.2 201.7 200 198.6 197.5 195.9 191.8 187.9 184.3 180.9 179.2 179 178.1 174.9 172.9 170.9 167.5 164 160.6 158.2 156.8 155.8 154.4 152.9 151 148.9 146 143.1 140 136.2 136.1 137.3 139.2 138.5 136.6 135.4 133.3 133.5 135.3 134.8 134.3 134.1 133.8 133.5 132.6 130 125.5 122.2 120 117.7 115.8 114.1 112.6
346.5 355.9 360.9 364.4 371.4 380.3 394.2 407.5 416.2 419.2 419 418.2 416.7 414.1 411.4 408.4 408.4 409 408.2 407.1 406.3 404.3 401.9 400.4 398 396.8 396.3 396.3 397.1 394.6 390.2 391.4 394.4 398.6 398.8 399.3 402.8 405.5 407.9 410 411.7 412.6 414.3 413.1 413.9 414.3 414.8 416.5 415.3 413.5 411.3 405.2 397.5 389.3 380.3 368.9 352.3 335.9 323.1 316.5 325.4 337.9 352.8 361.6 362.6 361.8 362.9 368.8 379.7 387.2 394.7 402.3 409.3 414.1 417.9 417.5 413.6 408.5 405 403.2 402.4 402.1 401.8 401.1 400.1 398.5 396.6 393.4 387.7 382.5 377.8 373.6 369.4 363.5 358.7 355.4 351.8 349 347.6 346.4 345.2 344 342.8 341.6 340.4 338.6 336.1 333.5 332 331.8 333 330.4 327.8 326 323.7 320.8 321.3 316.5 315.1 311.7 308.9 307.4 307.8 310.1 311.4 308.8 306.3 301.7 297.6 293.7 285.4 279.4 274.7 270.2 268.6 266.7 262.7 259.3 253.2 247.2 243.8 239.3 227.4 221.5 218.4 215 212.9 207.7 202 199.4 199.3 198.6 196.2 191.8 186.1 184 182.3 180.5 180.3 180.4 177 173.7 170.5 168.1 164.1 161.3 158.7 158.2 157.5 155.4 153.2 151.3 149.2 146.3 143.6 141.9 139 138.8 138.2 140.1 141.4 138.5 135.9 135.8 137.2 134.3 133.2 132.9 132.9 132.9 133 133.2 130.2 125.8 122.6 120.4 118.2 116.2 114.5 112.5
359.3 365.1 372.9 379 388.4 395.2 401.4 410.3 417.3 419.7 418.6 417.9 414.7 411.6 408.6 405.6 402.3 404.2 405.9 404.9 404.1 403.1 402 401 398.9 396.1 395.6 395.6 395.2 394 392.1 388.1 390.6 393.8 396.1 393.9 395.8 398.9 400.7 402.7 405 406.9 408.5 409.4 410.9 411.4 411.9 412.6 413.9 413.3 410.7 406.2 402.4 396.8 387.6 377.6 362.4 349 334.8 319.4 314.2 317.6 326.7 334.9 345.7 352.5 350.3 358.3 369.6 379 387.1 394.8 402.4 409.2 413.8 414.9 411.8 406.9 403.6 401.7 401.5 401.2 400.2 399.4 397.8 395.8 393.9 390.2 384.1 378.7 373 367 361.4 356.6 354.2 351.5 349.4 347.7 346.7 345.5 344.2 343 342.6 341.6 340.3 339 336.7 334 331.6 331.1 331.6 330.7 328.6 325.7 322.4 320.7 320 315.8 312.7 309.9 305.7 303.6 305.8 307.2 306 305.5 305.1 302.4 298.5 294.5 286.2 277.7 272.9 271.4 268.3 263.9 260.5 256.7 252.3 244.6 241.3 236 224.5 219.9 218.2 213.5 210.2 207 203.6 200.1 199.6 198.3 196.4 191.9 186.9 182.9 182.6 181.3 180.5 180.9 179.2 175.7 171.3 166.2 163.7 161.2 158.6 158.6 157.7 155.9 153.2 150.8 149.1 146.7 144.1 142.8 142.2 141.7 140.2 140.7 142.9 140.5 138.3 139.9 139.7 137.5 134.8 132.2 131.6 132.1 132.6 132.3 129.6 125.8 123 120.8 118.6 116.7 114.4 112.3
377.2 382.9 388.1 392.8 398 403.8 409 413.6 417.7 419.2 419.3 417.9 413.2 409.6 404.4 401.3 398.6 389.2 398 399.3 400.2 400.3 400 399.8 398.5 395.4 393.4 392.5 392.5 392.3 391.4 386.2 389.7 391.4 393.3 391.4 388.6 391.6 394.4 396.1 398.7 400.9 403.1 405.3 407.4 408.5 409.1 409.7 410 408.1 406.6 403.7 400.9 398 393.1 385.4 375.7 363.7 349.3 332.1 318.2 312 310.6 318.7 321 331.8 334.5 345.8 356.7 366.3 375.3 385.1 394 402.5 409 411.5 409.4 405.4 402 399.7 399.4 398.4 397.2 395.8 394.4 392.3 389 384.6 379.2 373.6 367 362.7 358 354.4 352.1 349.5 347.4 346 345.7 344.4 343.2 342.4 342.1 341.1 339.6 338.3 336.1 333.3 331.4 328.9 328.8 327.2 325.4 320.5 317 316.3 315.8 313.6 309.2 305.8 302.3 299.8 299.4 299.3 299.5 299.6 300.5 300.6 297.1 294.1 284.6 276.5 269.7 267.3 267.6 263 258.1 254 246.9 241.9 238.8 231 222.2 219.3 217.2 214.2 209.6 208.5 204.9 201.5 199.9 199.7 198.7 193.5 186 182.1 182.4 180.3 180.7 181.1 177.7 175.4 171.2 167 162.9 160.5 158.4 157.5 156.9 155.4 152.3 150 148.3 146.5 145.2 144.4 144 142.5 141.6 139.7 143.4 142.6 141.2 141.7 141 137.8 135.2 133.2 131.9 131.8 131.9 131.6 128.1 125.4 123.7 121.3 119 116.8 115 115
398.7 402.3 406.3 408.6 409.7 412.3 415 415.9 414.9 415.2 416.8 415.8 409.1 403.7 398.3 393.6 388.9 378.1 378.8 387.6 392.8 393.8 396.7 398.1 398 395.6 393.1 389.6 388.1 388.6 389 385.7 386.9 387.2 387.9 388.6 387.7 383.4 387.6 390.2 391.9 394.8 397.6 399.4 402.3 404.8 406.2 407 407.2 406.6 404.6 400.9 398.2 395.9 392.7 387.2 380.6 370.3 358.2 346.6 332.5 318.7 311.5 308.1 307.7 314.1 320.3 329 337.7 346.6 356.6 368.3 381.8 393.9 403.4 407.6 405.1 401.7 398.1 396.7 396.1 395.1 393.6 392 390.7 388.2 384.4 379.5 374.4 368.1 363.1 358.9 354.6 352.2 350 347.4 345.5 344.3 344.3 343.4 342.2 341.9 341.5 340.5 338.8 337.5 335.3 332.8 329.6 325.9 324.5 322.5 320.4 314.5 312.9 314.6 314.3 310.2 307 301.5 297.1 295.2 294.2 293.6 293.8 294.7 295.6 295.7 294.9 291.4 281.1 273.1 267.6 264.2 264.6 258.7 255.8 251.4 245.8 240.8 236.6 228.5 222.8 219.6 217.7 213.9 210.4 209.4 206.2 202.8 201.4 199.3 198.3 192.3 184.2 182.1 181.2 180.1 181.7 181.6 177.5 174.3 170.5 166.3 162.7 159.7 157.2 156 156.2 153.9 150.9 149.6 148.5 148.5 147.6 145.1 143.6 142.1 140.8 140.5 141.8 144 142.7 141.7 140.9 137.8 135.4 133.4 133.4 131.4 131.4 129.9 127.5 125 124.2 122.3 119.7 117.4 115 113.4
418.9 420 418.8 420.1 418.1 414.1 411.5 408.6 406.3 403.5 402.5 403.1 398.9 395.3 390.9 376.5 370.7 359.9 362.6 372.3 368.1 371.8 381.6 387.4 393.7 395 392.6 389.5 385.5 384 384.1 380.3 381.2 379.7 379.3 382.3 382 381.3 379.7 382.3 384.6 387.7 390.8 395.2 398.3 400.7 403.7 404.7 405.1 405.2 402.7 398.4 395.6 392.7 389.9 387.1 382.1 373.8 367.1 357.7 341.2 328.6 318.2 312.4 309.5 305.2 305.5 310.8 316.9 324.1 334.4 348.4 364.2 380 393.1 400.3 400.3 396.4 393.5 391 389.8 389.2 389 387.4 386.5 384.8 381 377 371 365.1 360.8 356.4 352.2 350.1 347.9 345.1 343.5 342.6 342.6 342.3 341.7 341.3 340.8 339.3 337.4 336 333.4 330.4 327.4 322.1 319.4 316.8 314.8 311.1 307.8 309.1 311.7 307.5 303.6 297.8 291.6 287.6 286.4 288.1 288.7 289.5 290 287.2 287.1 286.1 278.6 271.7 267.2 265.3 263.7 260.3 255.4 250.9 247.2 241.1 238.7 234.9 222.8 219.4 217.2 214.1 211.5 210.1 206.8 205.1 203.5 201.2 198.2 191.6 183.7 182.1 180.4 178.4 180.7 180.9 176.6 172.4 168.9 166.3 163.4 159.7 156.1 155.6 155.3 152.1 150.5 148.8 147.4 146.9 147 145.8 144.3 142.3 141.2 142.2 143.4 144.7 142.6 142.8 141.7 139 137.1 134.6 134.4 132.8 131.8 127.5 126.1 125 124.4 122.6 120.3 118.1 115.7 114.1
436.9 434.3 430.9 426.7 420.9 414.5 407.6 403.3 398.7 387.4 380.1 378.3 375.2 373.6 369.3 363.8 350.6 345.4 353.4 348.5 354.1 359.1 365.2 369.1 374.7 384.6 386.1 387.7 388.4 387.3 383.4 378.3 376.9 373.6 373.3 375.7 375.6 376.1 369.6 373.1 377 380.7 382.6 387.9 394.8 399.3 402.7 401.8 400.9 400 398.9 394.9 392.5 389.7 386.9 384.1 379.8 375.3 369.8 360.9 351.1 341.9 330.4 323.6 317.9 311.2 304 301.2 300.7 304.5 313.5 327.8 344 361.6 377.5 388.1 389 386.8 384.7 381.5 383 382.5 382.5 382.5 382.3 381.1 377.8 372.9 367.4 362.6 358.3 354.1 350.1 348.2 344.7 341.5 340.1 340.8 340.8 340.7 340.3 340.1 339.6 337.8 336.7 333.6 331.2 328.2 324.9 319.5 315.5 310.7 308.7 307.8 304.9 305 305.6 302.4 298.5 292.9 284.5 280.4 280.2 280.9 281.4 281.9 282.3 280.7 278.6 278.4 276.5 272.6 268.9 267.3 263.4 259.3 254.8 250.3 245.6 243.7 237.1 231.1 227.1 219.5 217.4 216.7 211.7 210.8 209.6 207.3 204.2 201.3 198.3 192.2 186.2 183.2 179.9 177.6 178.2 179.2 173.4 166.5 164 162.9 161.1 157.2 156.1 155.6 154.5 152 149.4 148.3 147.9 148.9 148.6 147.5 145.3 143.6 142.4 142 145.1 145.4 144.8 144.6 142.9 141.6 140 137.7 135.8 134 131.9 128.4 126.9 126 124.5 122.8 119.8 118.1 116.6 115.7
449.1 445.3 443.7 434.1 423.8 415 406 399.6 391.4 381.2 358.2 351.4 349.2 348.9 346.8 343.1 334.5 335.9 341 349 368.9 375.6 384.8 388 389.8 386.4 394.3 393.8 393.8 392.6 390.5 388.1 384.2 381.2 376.4 369.3 368.6 369.9 366.7 363.2 366.7 370.6 373.9 382.2 390.3 396.4 399.3 398.8 397.9 396.3 393.9 391.8 389.8 386.8 383.9 381.1 377.3 373.4 368 362.2 356.7 349.1 341.4 338.3 329.1 325.7 319.7 309.4 300.5 298.4 296.4 306.2 321.8 338 354.9 371.9 375.1 373.8 371.4 370.2 372.2 375.1 375.7 375.4 375.9 375.7 373.1 367.7 363.3 360.2 355.7 351.4 348.9 345.1 339.4 332 334 338.3 338.8 338.8 338.3 337 336.8 336.4 334.3 331.3 328.9 325.8 321.7 317 312.7 306 303.4 303.9 302.8 302.2 302.8 299.7 293.6 289.6 278.2 276 274.6 274.1 273.6 273.4 273.1 274.1 274.2 273.9 273.2 274.2 272.6 265.8 261.3 258.1 254.7 249.8 245.5 242.1 235.3 233.3 229.3 219.7 215.6 216.8 212.3 210 209.1 207.5 204.1 201.1 196 191.6 187.1 183.5 180.1 175.4 175.4 174.8 169.9 163.9 160.3 159.1 158.1 157.6 156.7 156.2 154.9 151.9 149.4 147.5 148.5 150.5 149.2 147.3 146 144.1 142.7 142.6 146.2 146.3 145.9 145.3 142.9 141.2 140.3 139.2 137.5 135.5 132.4 128.6 127.5 126.4 124.5 122.6 119.7 117.9 117.7 116.2
453.6 451.5 448.2 435.6 424.5 413.6 402.9 393.3 382.4 369.9 344.9 325.7 323.9 326 325.7 324.7 333 341.4 352.5 364.3 378.4 390.2 399.6 403.3 404.6 404 402.9 400.2 398 396.7 393.9 391.4 388.4 384.3 378.2 375.1 371.4 360.6 362.2 358.2 356.7 358.6 366.6 373.3 381 388.6 393.7 395.8 394.3 393 391.2 388.9 386.8 384.2 381.2 378.2 375.1 371.5 366.2 361.8 357.9 352.1 346.8 343.9 341.4 337.1 333.5 328.1 307.3 302.1 297.8 294.7 302.1 315.2 331.7 345.9 352.1 356.9 358.5 356.5 359.7 362 363.8 367.3 367.9 368.8 367.2 362.5 359.4 357 353.1 349.9 346.5 342.4 336.3 322.1 327.1 335.2 336.9 338.2 337.8 336.9 334.3 330.2 330.1 326.5 326.2 323.8 319.6 315.1 309.2 302 299.3 299.4 302.1 304 300 294.4 290 285.2 277.9 277.3 275 272.3 270.2 268.6 268.4 267.7 267.2 267.9 271.3 270.4 269.8 266.4 261 256.7 252.4 248.3 243.3 236.9 234 231.1 225.9 218 215.7 213.3 211.4 208.4 206.2 203.9 201 197.7 194.8 190.2 187.8 185.3 183 179.6 175.9 171.4 165.8 162.3 160.5 158.8 156.6 156.4 155.9 154.3 152.6 150.9 149 147 148.5 148.3 146.8 144.7 144.2 143.6 142.3 142.7 145.7 145.8 145.5 144.5 142.6 139.7 139.5 139.4 138.5 136.1 132.6 129.3 127.6 125.9 124 122.3 119.7 118.7 118.5 116.6
425.4 434.3 436.8 432.8 421.1 409.3 396.9 384.1 373.5 357.2 337.2 317.3 311.4 320.7 327.1 339.2 350.5 358.5 367.4 380.2 391.1 400.8 407.2 409.9 409.2 408.1 407.1 405.1 403.2 401.6 397.8 394.2 391.1 387.3 384.4 381.6 378.3 371.3 354.8 357.9 354.4 352.4 358.5 365.3 370.3 375.5 384 388.4 388.5 387.5 387.3 385.8 383.8 381.5 378.6 375.9 373 369.5 365.8 362 358.1 352.8 349 345.8 343 339.9 335.2 328.8 322.5 305 300.8 296.9 292.9 297.2 311 325.9 333.5 339.3 338.7 337.5 344 346.8 347.5 354.7 360.2 361.6 360.8 358.5 355.4 353 350.6 347.2 343.8 338.7 329.9 311.1 319.2 332.5 336.4 337.8 337.3 336.8 335.4 334.4 332.4 329.7 324.5 322.4 317.5 311.2 306.9 301.1 299.4 297.4 295.6 296.8 293.4 287.2 284.7 282.9 288.3 290 285 279.3 275.1 271.1 267.5 264.8 263.2 264.2 266.2 267.7 267.4 265.9 262.9 257.1 250.3 245.5 241.3 236.1 233.5 228.5 222.3 214.8 213.2 211.4 208.4 205.7 202.9 200.8 198.6 194.5 193 192.9 189.6 186.8 184.7 181.5 176.7 171.4 166.7 162.4 161.1 158.9 156.5 154.8 154.7 153.2 151.3 149.9 148.7 147.4 146.4 146.3 145 144 143.5 143.3 142.7 143.4 144.9 144.5 143.8 142.9 141.6 139.6 139.2 138.3 138.1 136.1 133.3 129.9 128.1 125.2 122 121.9 120.5 119.8 119.5 117.5
402.1 422.2 434.8 430.6 418.7 404.9 390.2 376.7 366.7 347.6 322.4 304.2 317.9 337.1 352.6 365.2 375.2 377.1 385.7 395.3 405 411.4 414.2 414.7 414.3 413.9 413.4 412.1 410.3 408.4 403.8 400.1 397 392.7 389.7 386.2 382 375.7 366.4 349.1 348.4 348.3 355.4 360.9 364.9 368 374.2 377.3 381.5 383.4 383.6 382.4 380.7 379.2 376.1 373.4 370.9 367.2 364.1 360.8 356.4 351.7 348 343.6 333.6 326.5 321.1 316.2 314.1 304.7 301.3 298.1 294.1 290 295.6 305.7 316.1 321.5 320.1 320.2 327.6 331.3 332.2 339.7 347 349.2 349.9 350.1 349.9 350 346.9 343.4 339.7 334 315.9 297.5 318.3 333.7 337.1 336.6 336.2 335.8 334.6 332.9 331.5 328.8 326.5 323.6 319.6 314.1 303.8 308.5 312.1 306.2 299.3 295.4 294.2 292.3 291.2 293.2 298.6 297.2 291.9 286.4 282.7 278.8 273.7 268.3 264.3 261.5 262.5 263.9 264.8 265.2 262.5 257.7 251.3 247.4 242.6 235.7 232.8 227.5 219 212.6 210.3 208.1 207.9 207.9 205.5 202.3 199.6 193.7 192.8 192.3 190.3 187.7 184.9 181.2 176.1 171.4 166.5 162.9 161.7 159.9 156.8 154.8 152.4 152.3 150.6 149.4 148.3 147.2 146.3 145.9 145 144.7 143.4 143.3 144.8 145.2 144.9 143.9 143 141.7 141.2 140.4 138.9 137.4 137.6 136.1 133.4 130.5 126.7 125.4 124.2 122.8 122.5 121.1 120.4 117.9
404.7 430.8 436.2 432.5 419.7 405.7 385.3 362 348.1 329.7 309.8 298 315.5 344.9 377.4 394.8 399.5 399.9 405.8 413.3 417.6 419.2 419.6 420.9 420.8 420.4 419.8 418.9 416.6 414.4 410.2 407.2 403.6 401 397.5 394 389.1 381.3 365.7 349.7 343.1 351.2 358 364.6 369.6 371.3 373.9 376.7 379.9 380.3 380.5 380.7 379.2 377.4 373.7 370.7 368.5 364.9 362.4 351.7 342.7 335.1 332.3 330.1 325.8 329.6 329.9 328 315.1 308 301.6 298.1 294.6 290.5 288.8 290.9 300.9 306.1 306.4 306.3 310.5 313.9 312.6 319.7 324.4 328.1 330.3 332.1 335.4 335.4 339.2 338.4 334.3 327.1 302 295.5 318.6 333.1 335.6 335.3 334.5 333.4 331.9 330.2 328.4 324.3 319.1 317.8 315.7 311.7 305.3 314.3 322.4 321.6 316.9 309.7 306.6 307.5 308.6 308.3 307.2 303.7 298.1 293.9 289.6 285.3 280 274.2 268.1 261.8 259.7 259.9 266.1 269.5 266.9 260.4 254.6 249.8 243.7 239.2 230.8 224.3 215.1 211.5 209.2 208.1 208 208 206.9 204.1 200.8 196.2 192 190.3 188.2 185.6 182.3 179.4 175.1 171.2 165.8 162.1 160.9 158.8 155.4 153.4 152.4 152.1 150.4 149.3 148.1 147.1 146.2 145.5 145.1 144.8 144.8 145 146.9 146.2 144.9 143.1 141.5 141.8 142.1 141.1 139.2 137.3 137.1 135.6 133.8 131.9 128.8 126 124.7 124.3 124.4 123 120.7 117.7
403.6 433.7 441.8 436.8 422.4 405.5 374.3 344.5 322 310.4 298.7 294 315.9 347.2 381.2 412.9 418.3 418.4 421.8 423.8 424.4 424.7 426 427.7 427.3 426.9 426.2 425.4 423.3 420.3 417.9 415.8 413.3 410.6 407.2 403.3 396.8 380.3 354.2 343.5 345.5 363.1 374.6 378 379.9 381 380.2 381.1 381.9 381.2 380.3 379.2 375.7 374.2 371 368.8 365.9 359.4 349.4 348.3 343.1 347.4 346.6 344.4 345.4 343.3 342.3 337.6 328.8 322.2 313.8 307.6 301.1 296.3 289.9 286.2 284.9 293 294.2 295.3 298.6 299.1 299.6 302.8 304.5 305.5 306.9 307.9 311 312.8 316.1 320.4 322.7 314.5 293.9 298.2 318.1 329.9 332.7 333.2 332.1 331 329.4 326.7 322.4 316.4 313.1 313.2 312.6 309.4 310.1 314.9 327.4 328.3 326.7 321.5 319.3 318.5 317.5 315.5 312.1 308 303.1 299.1 295.3 291.4 286.5 281.4 274.7 266 258.2 259 265.7 278.2 275.4 262.9 256.3 250.4 245.1 240.6 230.8 219.9 215.3 213.6 211.3 209.9 209.6 209.7 207 203.8 201.3 197.9 195.2 190.9 184.2 181.6 178.1 175.9 173 167.9 161.6 158.7 156.6 157 155.9 154.5 153.3 151.8 151.4 150.2 148.6 146.9 147 147.2 145.3 144.7 144.5 145.2 146 145.1 143.4 141.3 141.1 140.6 141.5 140.5 139.3 136.4 136.9 134.6 135.1 133.8 131.6 129.1 127.2 126.1 125.4 123.8 120.8 116.7
387.6 412 432.6 433.2 418.5 392 360.7 332.7 312.7 301.3 292.6 291.7 315.8 349.5 383.3 419.6 428 427.2 427.3 427.7 429.2 431.1 433 434.2 434.5 434.6 434.6 433.5 431.8 430.3 428.1 425.4 423 419.7 416 410.3 401.8 370.8 349.3 340.1 349.2 380.2 390.4 392 394.5 395.4 393.5 388.5 384.3 380.9 379.4 378.5 376.9 373 369.7 367.4 365.2 363.7 361.2 360.5 360.1 360.3 358.2 355.7 352.7 350.3 347.5 343.1 338.2 332.5 326.1 318.4 314.2 306.7 300 292.6 286.3 281.8 281.3 282.7 285.9 286.5 286.6 286.5 288.1 288 288.2 289.2 290.4 290.9 293.6 298.4 302.9 297.1 285.6 299.3 318.8 327 329.4 330.6 329.8 328 324.6 321.2 317.8 313.1 311.6 312.3 312.5 312.7 316.7 322.4 327.5 326.9 326.5 326.1 326.7 324.5 322 319 314.3 311 306.5 302.5 298.7 294.7 290.2 285.2 278.8 267.9 257.6 259.7 270.7 282 277.8 266.9 258.5 251.9 245.9 240.6 232.1 221.3 223 221.1 215.8 213.4 213.3 211.1 207.5 204 201.4 199.1 196.2 192.6 188.6 182.5 177 172.5 170.4 166.6 161 157.7 157.1 157.3 156.4 156.5 155 154.4 151.7 150.1 148.4 146.7 148.8 150.4 148.2 145.4 144.2 144.1 145.6 143.5 141.6 140.6 139.9 139.4 139.6 139.4 138.4 135.6 135.8 136.6 136.2 135.8 134.4 132.2 129 126.6 126.5 125.2 122 116.8
366.8 385.6 402.5 410.8 398.9 375.7 349.3 322.2 305 295.9 286.9 289.5 313.8 346.4 379.9 413.1 433 432.4 431.6 431.4 432.5 434.2 435.7 437.1 438.7 439.7 439.9 439.8 438.3 437.3 435.5 432.9 430.1 426.5 421.5 415.7 403.9 369.7 348.5 336.4 346.1 375.2 402.4 405.2 407.6 404.1 399.5 393.2 386 381.8 378 374.4 373.4 370.5 368.1 366.7 365.1 363.5 365.2 367 366.4 365.2 363.1 360.6 357.8 354.8 351.6 348.4 343.8 338.2 333 326.2 321.8 318.2 311.6 302.8 295.3 288 284.3 281.8 278.6 278.1 275.8 274.9 274.9 274.8 273.8 274.8 275.9 275.2 279.1 280.8 280.5 277.1 281.9 302.4 316.4 324 326.5 328.8 327.5 324 320.6 317.7 315.7 314.1 317.7 317.9 319.1 319.9 322.2 326.3 331.1 332.1 331.7 331.6 332.8 330.2 326.2 321.2 316.3 313.1 309.8 305.7 301.5 296.9 291.6 287.7 278.3 266 257.4 265.8 274.7 282.4 274.9 267 259.2 252.1 249.7 241.7 235 226.9 230.5 231.7 226.2 215.9 214.5 212.7 209.1 205.7 201.9 200.2 197.2 193.2 190.1 185 178.8 172.7 168.9 164.8 160.5 159.2 158.8 158.5 159.6 159.9 157.3 156.1 151.8 149.4 146.9 148.2 150.7 151.9 149.7 144.1 144 145.2 145.3 142.1 140.9 140 139.7 138.9 138 137.8 136.5 136.7 137.2 137.3 137.1 136 134.3 132.4 129.5 128.2 129.3 127.2 124.3 120.7
346.8 361.9 374.1 379.1 373 359.5 337.9 313.1 298.6 290.9 283.1 285.9 307.5 334.9 362.8 391.1 406.8 423.2 429.5 429.6 431 433.7 438.3 440.1 441.8 442.6 445 445.7 443.9 441.2 438.8 436.7 433.8 429.3 424.6 419.4 407.2 373.7 351.3 336.6 340.2 361.8 388.9 406.3 407.9 405.5 399.5 392.1 386.6 381.8 378.4 374.1 369.9 367 364.3 364.1 363.4 364.2 368.3 369.9 369.9 369.6 367.9 365.4 361.7 358.1 355.2 352.1 347.8 343.5 338.7 332.9 329.6 324.6 319 313.6 306.9 296.5 292.9 292.8 291.8 285.3 278.2 276.9 274.8 273.9 270.3 268.3 266.6 267.7 268.5 270.7 270.1 274.1 285.8 301.6 311.3 320.7 326.6 326.7 324 320.7 317.5 316.3 314.4 315.9 318.9 320 321.8 324.2 325.5 330.2 335.1 339.3 338.8 337.5 336.7 333.6 329.7 323.4 318.5 315.4 312.2 308.1 304 299.5 293.6 286.2 271.7 265.2 258.8 276.1 281.3 283.3 276.8 270.2 260.1 250.8 248.1 241.3 235.5 229.1 230 233.1 231.7 226.7 220.4 215.5 210.9 205.9 202.4 200.8 201.1 196 191.4 185.3 178.4 171.3 167.4 162 161.8 163 162.6 161.7 159 160.6 158.5 154.2 152.4 148.7 147.1 149.4 151.4 151.1 149.3 144.9 143.5 144.2 144.1 142.2 141.5 141.1 140.9 139.9 138.7 138.5 137.2 139 137.3 138.3 139.4 138.8 136.4 134.1 132.9 129.9 129.5 128.2 124.1 122.1
328.8 339.9 350.1 354.4 351.8 341.5 327.3 305.3 293.2 285.8 278.4 281.1 297.7 319 342.3 360.1 375.2 390.6 399.1 404.4 407 417.2 429.7 434.2 437.5 443.4 446.2 445 443.6 443.5 442.1 440 435.6 431.2 426.9 422.5 413.2 380.6 355.1 337 332.1 344.2 368.2 389.6 399.1 395.4 391.3 387.6 384.9 382.1 380.1 375.9 370 363.1 360.6 360.2 361.5 365.6 370.3 372.4 372.4 372.1 371.5 369 365.2 361.3 358.3 355 350.9 346.5 342.2 337.9 335.1 329.5 323.4 317.1 310.7 306.5 307.5 306.9 304.1 299.3 291.2 286 283.7 281.1 276.5 272.2 268.5 267 263.8 263.5 266.4 271.9 286.4 289.1 308.8 321.9 323.2 322.7 320.2 317.9 316.4 315.1 314 315.7 318.1 319.6 322.4 326.3 329.4 333.7 340.1 346.6 348.2 346 341.7 335.4 330.4 325 320.3 316.7 313.3 309.1 304.7 300.1 294.5 282.9 272.8 258 263.8 277.9 276.5 274.1 267.3 262.1 255.7 246.8 238.5 232.9 230.6 227.6 222.2 226.4 229.3 229.6 220.9 218.3 209 202.5 205.2 205.7 204.3 197 190.2 183.7 176.2 169.3 166 165.7 166.6 169 165 162 158.5 157.1 156.5 154.1 151.2 148.4 147.1 149.8 150.5 149.8 148 144.7 143.1 142.7 142.6 142.9 143.2 142.9 142.3 140.6 139.4 139.8 139.9 138.7 137.8 139.2 140.1 141.6 140.1 134.1 132.1 130 127.8 127.3 124.3 122.1
311.1 320.1 327.1 330.4 329.2 322.9 313.8 299 287.6 280.9 274.3 275.7 287.6 304.3 321 335.3 348 359.3 366.7 374 381.3 390.4 400.6 407.4 415.8 425 434.3 439.9 441.4 442 441.6 439.1 436.3 431.8 427.5 424.6 417.3 392 363.7 343.8 332.1 332.1 348.1 367 379.6 385.8 384.1 385.4 385 384.4 382.9 378.3 368.6 359.4 355.1 356.6 362.3 367.6 372.5 374.7 374.9 374.5 374.1 372.2 368.4 364.5 360.9 357.4 353.4 349 345 341.4 337 331.1 325.5 322.4 319.2 316.7 315.9 312.7 308.9 305 298.2 294.8 294 291.1 285.6 278.5 272.4 268.9 266.7 263.1 261.8 267.6 274.8 292.4 316.2 323.2 322.2 318.4 317 315.5 313.8 312.1 311.8 314.8 316.2 319.1 324.1 327.9 332.6 337.5 344 348.3 352.2 350.1 343.2 337.4 332.4 327.1 322.5 318 314 309.7 304.6 300 293.8 280.7 271.6 257.9 252.4 255.8 260.8 262.4 257.4 250.9 247.8 238.6 225.1 219.5 214 212.1 210.8 212.6 214.2 214.8 215.7 214.2 205.1 207.2 207.9 209.1 206.7 195.9 188.2 181.1 174.1 169.3 167.7 169.2 171 170.5 167.5 163.3 160.9 159.4 159.1 156.2 153 149.5 147.6 148.9 149.1 147.7 145.7 143.6 145.7 145.7 145.5 145.5 145.1 144.6 141.9 140.2 140.1 140.7 140.3 138.7 137.6 139.4 141.2 142.2 140.1 134.1 130.9 129.5 127 124.9 124.3 121.2
292.5 301.2 306.5 308.6 307.3 304.9 298.9 291.9 283.1 275.9 270.4 271.5 278.5 292.2 304.1 314.3 322.4 332.6 340.2 348.3 357.2 366.4 373.3 380.9 387.3 399.5 414.5 433.5 439.2 440 439.3 436.9 434.7 432.5 429.6 426.6 422.5 408.1 378.6 353.1 337.2 332.1 332.1 348.9 357.9 368.7 380.4 382.7 384.3 385.8 384.8 377.5 366.7 355.6 348.8 358.1 367.4 371.5 375.3 376.4 376.8 376.7 376.4 375 371.1 367.2 363.3 359.3 355.5 351.6 347.7 343.6 339.7 334.6 329.7 326.8 324 321.6 318.5 314.9 311.8 309.4 305.2 302.3 301.1 299.9 298.2 292.7 283.4 274.7 270.7 266.8 261.7 261.5 270.7 290.3 316.4 317.4 320.7 315.3 313.9 312.7 310.2 309 310.1 313 316.4 320.6 325.7 329.8 335.2 341.3 347.4 352.3 354.9 353.2 346.1 340.3 335 328.6 324.1 319.7 315.5 309.6 304.5 298.8 291.5 281.7 273.9 267.5 264.5 258.7 252.8 244.9 239.3 238.7 240 227.8 218.6 219.2 218.8 214.7 208.8 204.8 203.8 204.7 205.7 205.3 211.1 211.2 212.4 210.5 202.5 193.7 185 177.3 172.4 169.3 171.8 174.1 173.2 172.2 172.2 168.4 164.7 164.2 160.6 157 153.4 150.4 148 147.9 147 145.8 145.1 146.8 148.2 147.8 147.4 147.1 146.6 144.8 141.1 140 140.1 139.5 139.3 139 138.7 139 140.1 139.3 137 133.4 131.1 130 128.2 124.8 122.8 122.1
272.9 281.2 285.5 288.2 288.4 287.3 286.3 282.4 277.1 270.8 265.6 267 272.4 280.5 289.4 296.8 302.5 310.6 316.6 324.2 334.9 343.8 350.2 355 364.5 383.7 411 432.1 435.5 436.8 435.5 434.6 433.4 431.8 431.3 428.2 423.9 417.9 396 369 347.1 332.1 332.1 332.1 336.4 353.4 369.2 378.1 380.5 386 380.9 368.6 355.5 346.3 347 360.3 369.5 374.4 376.8 377.5 378.1 378.5 378 376.8 372.6 368.6 365 361.2 357.2 353.2 349.1 345.2 340.9 336.8 333.2 329.9 326.4 323.4 320.5 317.2 314.5 311.9 308.6 306.2 304.3 302 299 295.8 291.9 283 275.5 269.2 263.6 258.5 263.6 289.6 315.4 312.7 317.3 313 311.3 309.9 307.2 306 307.6 310.6 317.4 322.4 327.2 331.8 338.9 343.3 349.6 353.7 354.8 353.5 349.8 343.3 337.3 330.5 325.6 321.7 317.7 311.4 305.7 299.1 293.1 284.1 281.1 281.5 282.3 278.2 271.2 255.8 246.1 232.6 227.9 222.2 228 230.1 230.5 228.1 222.6 212.7 203.9 199.5 198.2 205.7 212.4 214 213 206.2 198.9 190.7 180.5 173.8 171.1 177.6 180.4 178.5 177.9 174.3 172.6 171.5 168.7 164.4 160.6 157.2 152.9 149.8 148.1 146.4 146.2 146.7 148.4 149.3 150 149.4 148.7 147.5 145 144.3 140.9 137.7 136.7 135.9 135.4 137.6 138.2 138.5 137.7 135.4 134.9 134.2 131.9 131.4 130.5 127.8 122.9 120.3
257.7 260.8 266.1 269.7 270.4 269.1 269.1 270.6 268.3 264.2 261.5 263.1 266.7 271.1 277.4 281.8 287.7 294.6 300 306.5 315.4 324.3 331.3 342.8 361.7 387.2 417.5 430.3 433.6 433.5 431.7 430.2 429.7 431.4 431.2 429.2 424.5 416.9 408.9 386.1 364.6 346.2 332.1 332.1 330.3 339 359.3 363.1 369 372.4 363.3 350.5 340.3 338.3 346.4 359 369.1 375.6 378.3 377.7 377.3 377.2 377.2 376.8 374.3 370 365.6 362.1 357.9 353.5 349.3 344.6 340.1 336.6 333.2 330.1 326.8 323.9 321.5 318.6 317 314.2 311.2 308.3 305.4 302.4 299.3 296.1 293 289.1 281.5 272.2 263.7 258.6 259.9 288.1 315.5 320.8 313.5 311.2 309.5 306.9 303.2 302.9 307.1 313.1 320.6 325.1 329.4 334.8 341.4 346.4 352.5 353.5 354.1 352.5 351.1 349.7 340.7 332.6 327.4 323.3 318.4 313.5 307.8 301.8 294.7 289.5 289.6 295 292.8 286.9 278.9 266.8 256.9 245.3 234.5 231.6 235.6 238 239.1 236.9 230.1 221 209.1 197.1 199.2 209.6 215.8 213.4 208.2 201.8 194.2 183.4 176.4 172 176.6 182.2 184.6 183.6 181.4 176.8 172.3 171.4 168.2 165.3 161.8 156.9 153 149.4 148.4 147 145.7 147.7 149.3 150.5 151.2 150.5 149.2 145.2 142.1 141.2 137.4 134.8 132.9 132.2 132 134.9 135.4 135.8 136 133.5 133.2 134.4 131.5 129.8 129.3 127.6 124 120
248.3 248.4 251.9 255.2 257.7 258.9 259.6 260.2 260.3 260.2 259 258.5 262.5 266.1 270.2 274.8 280 285.9 291.8 297.7 306.1 314.8 325.8 341.7 366.5 394.4 421.3 428.4 429.4 429 426.5 423.7 423 425.9 427.5 424 417.9 409.7 402.5 393.7 382.9 363.8 344.1 329 318.2 324.3 334.5 338.3 345.9 349.1 344.8 333.7 330 339.5 355 371 371 375.9 376 374.7 374.6 373.4 373 372.8 373 368.7 363.9 359.6 356.2 351.7 347.1 342.9 339.5 335.9 332.1 329.2 325.7 323.1 321.2 319.2 317 314.6 311.5 308.3 305.5 302.1 298.9 294.7 292.7 291.3 285.9 275 264.2 257.7 257.2 289.4 313.6 315 311.3 309.5 306.3 302.3 298.8 306 311.5 317.3 322.7 327.5 331.5 337.9 342.8 347.6 352.9 353.7 353.5 352.9 350.9 349 345.3 334.6 328.7 324.6 319.5 314.6 309.2 302.9 297.5 298.7 299.2 299.1 295.5 288.6 281.7 272.8 268 259.7 250.6 247.1 248 249 246.6 241.9 235.9 222.1 205.2 195.6 196.7 207.4 206.9 204.7 202.5 196.2 186.9 178.8 175.5 177.9 179.8 184.4 185.9 184.2 180.1 176 173 172.7 169.9 166.7 162.3 157.8 153.3 149.6 148.2 145.3 145.8 148.5 150.9 152.5 152.3 150.7 148.3 143.4 139.6 137.7 135.3 133.3 131.3 130.8 130.3 130.9 131.3 130.9 130.3 130.3 132 130.1 126.8 125.2 124.9 125.3 122.7 120
243.6 243.1 241.9 244.6 248.4 251.9 254.4 255.6 255.7 256.4 256.9 252.7 259.4 262.7 265.8 270.3 276.3 282 288.5 295.9 304.4 314.7 330.4 351.8 375.6 399.5 419.6 422.5 422.4 420.8 417.4 415.3 414.7 416.8 416.1 411.3 404.5 399.1 392.4 385.6 374.3 358.9 346.3 340.3 327.8 314 315.7 318.4 321.2 324 323.6 323.5 337.3 347.5 365.7 372.9 368.3 372 371.2 369.6 368.4 366.5 365.6 364.1 363 359.8 356.2 352.4 348.5 344.8 341.4 337.4 333.6 331.7 328.8 327.5 324.4 322.2 320.4 317.9 316.2 314.1 310.8 307.7 305.1 301.8 298.1 293.7 290.2 288.4 283.5 275.7 264.9 257.2 257.4 290.4 304.4 308.6 307.6 304.2 300.3 296.9 301.5 309.2 315.9 320.9 328.5 330.2 333.4 337.9 343.2 347.6 353.2 352.5 351.5 351.7 349.9 346.7 344.1 334.3 328.2 324 320 315.2 311.2 306.1 302.6 304.2 304 303 296.9 292.1 285.2 282.5 277.6 270.4 264 258.8 255.7 253.9 248.1 242.5 235.6 220.6 204.6 195.3 191.2 190.4 192.2 192.3 189 184.8 180.3 177.6 180.9 183.4 184.1 184.3 183.6 183.7 180.5 175.2 173.3 173.6 172 168.5 163.7 159 154.1 150 146.2 146 146.6 150.2 152.8 153.7 152.6 150.2 146.5 140.5 138.6 137.3 134.5 132.6 131.7 131.4 130.8 130.6 131.1 130.1 129.8 129.3 128.7 128 127.1 126.3 124.1 122.5 122.3 120.5
251 249.8 246.8 242.7 239.7 241.3 249.8 251.3 251.7 254 254.1 248.4 254.8 258.7 261.9 265.8 273.2 281.5 290 299.4 309.3 322.1 340.9 361.2 383 405.3 415.5 415.5 412.4 406.5 403.8 401.8 399.2 401.1 400.2 397.9 393.8 388.9 380.3 366.7 354.4 349.1 342.7 339.4 328.1 328.2 321.6 312.6 309.1 309.1 311.5 334.6 358.1 358.7 368.4 369.6 365.9 370.9 367.5 363.8 362.1 360.1 358.2 354.7 352.1 349.4 346.7 343.9 340.2 336.5 332.6 329.4 325.6 323.8 322.3 320.2 319.5 317.6 318 316.3 314.5 313.1 310.1 306.7 303.9 301.4 297.6 293.4 289.4 284.3 279.4 272.7 264 256.5 256.7 290.4 307.8 305 302.4 297.9 291.7 298.2 303.8 310.4 318.6 326.4 330.6 331.8 335.7 340 343.3 348.1 352 351.5 349.6 349.4 348.5 344.9 341.5 335 328.2 323.7 319.8 316.2 312.9 308.9 307.1 306.8 306 304.5 299.6 295.2 292 287.1 282.2 278.6 274.4 266.7 262.7 256 248.3 241.5 233.8 221 213.7 209.2 198.3 196.2 190.4 186.4 183.9 181.7 178.2 185.1 188.9 190.3 188.8 186.2 181.8 179 179.7 175.8 173.9 174.9 173.9 169.9 165.2 161.1 155.8 149.7 146.2 146.3 149.1 152.5 154.5 154.8 153.2 151.2 146.4 141.3 139.2 137.2 134.8 133.3 134.3 136.7 136.6 134.4 133.4 133.5 133.5 132.5 132.6 134.6 131.3 128.7 124.9 121.9 121.3 120.6
254.3 252.3 251.4 245.7 243.9 238.9 240.1 245.9 247.4 252.3 250 246.2 253.5 254.5 261.7 269 274.9 283.2 292.4 301.4 310.9 325.3 340.1 356.2 376.3 390.4 398.3 397.4 389.2 384.9 382.3 379.9 374 382.2 385.2 385.1 380.1 366.3 356.8 348.3 345 344.4 344 341.5 339.5 337.7 335.4 332.6 329.1 313.7 305.1 330.3 366.3 371.3 370.9 369.5 364.9 360.8 360.6 359.6 355 351.5 349 344.8 341.8 339.1 336.4 333.9 330.6 326.8 323.3 319.1 314.3 311 308.6 306.7 306 308.8 310.9 311.5 311.5 310.7 308.2 305 302.5 300.1 297.1 293 288.8 283 276.1 269.7 262.2 255.2 259.5 290.3 307.4 302.9 299 293.5 294.6 304.7 305.9 312.1 319.4 326.6 329.4 332.1 335.5 339.8 341.9 345.8 348 347.5 347.2 346.9 346.6 344.8 341.7 334.9 328.7 324.5 321.1 317 313.2 311.2 309 307.2 304.7 303 302.4 300.2 297.9 292.4 288.6 285.9 281.8 274.8 266.6 259.3 250.9 244.1 240 228.7 222.4 222.3 216.7 209.2 202.9 198.5 189.2 182.2 179.1 188.4 194.2 195.8 192.1 188.9 185.2 181 177.9 176.4 177.6 178.4 175.8 172.3 168.1 161.7 154.6 149.9 147.2 146.6 151.6 154.8 156.4 156 154.5 151.3 147.6 142.5 138.8 136.8 135.1 135.9 138.5 140.5 141.4 142.2 142.2 140.7 139.9 140 137.2 136 134 128.8 124.7 123.3 119.2 119.9
258.8 254.7 251.7 251.3 248.9 242.5 238.9 236.8 242.9 248.9 243.9 245.3 248.5 254.3 261.2 267.3 275.2 283.8 289.4 297.3 307 319 332.2 345.1 356.5 361.3 364.6 362.9 361.4 357.1 356.3 352.8 345.5 352.6 354.7 352.7 349.2 343.6 337.6 335.2 335.9 339.6 343.9 343.3 343 342.3 338.1 334.1 329.9 318.3 303.2 320.1 348.2 370.3 374.7 373.3 369.9 364.3 357.5 352 348.2 332.3 328.8 337.4 330.7 328.6 326 322.9 318.2 315.4 310.8 306.8 303.9 303 300.8 297.7 295.8 296.3 299.5 302.1 303.8 306.7 305.9 303 300.9 298.4 294.6 290.4 285.9 280.2 273.7 266.9 261.7 253.3 261.6 293.6 304.6 300.6 293.8 291.9 288.4 294 300.3 309.1 319.7 325.8 330.4 332.8 335.4 339.2 340.6 343.3 345 345.3 344.9 344.6 344.3 342.8 341.7 335 329.5 325.2 322.3 317.9 314.8 311.8 308.8 306.1 305.4 305.2 304.1 302.4 299.7 297.7 294 290.3 287 279.7 271.9 264.9 256 248.7 242 236.8 230.4 228.2 227.6 220.3 212.2 205 194.8 185.2 181.5 187.8 193.8 196.4 193.2 188.8 183.6 181.7 179.8 180.1 180.8 180.5 175.8 172.2 170.5 166 155.9 148.5 146.9 147.2 152 155.5 156.6 156.2 152.8 149.8 145.5 142.3 138.6 137.1 136.7 138.9 142.9 148 149.1 148 146.7 146.7 143.8 141.4 138.2 137.2 132.1 127.8 124.8 123.1 118.3 117.3
263.9 259 256.5 252.9 250.6 245.5 240.7 238.7 235.4 239.6 238.1 243.6 247.1 253 258.5 264.5 271.6 278.2 284.4 290.9 298.5 308.4 320.3 327.9 334.5 336.4 337.9 336.6 334.4 330.6 329.2 324.8 324.1 326.1 326.8 327.2 327.5 324.4 320.4 320.6 324.5 336.5 342.7 340.9 340.7 340.5 339.1 335.4 329.3 312.7 306.3 303.3 327 352 371.3 377 372.7 366 359.7 354.1 347.7 332.3 327.5 322.1 328.4 318.6 313.7 310.6 308.5 305.9 304.2 302.8 301.5 300.3 298.1 297 294.7 291.4 291.2 291.1 292.8 297.5 300.2 298.7 296.1 293.9 290.8 286.7 280.8 275.5 269.6 263.6 258.5 248.4 273 295.8 301.3 296.1 289.5 288.3 286.7 299.1 310.2 317.7 323.7 328.6 333.7 336.9 339.2 339.6 341.2 344.3 343.7 343.6 343.3 342.9 342 340.6 337.9 336.9 329.7 325.3 321.7 318 315.1 313.4 313 307.4 307.5 307.6 307.1 305.7 304.1 301.1 297.8 294.6 290.9 284.8 277.6 269.8 261.7 253.9 246.7 240 236.4 230.9 227.9 221.3 214.6 203.9 193.5 184.7 184.2 191.7 196.8 197.8 195.8 190 186.2 184.7 180.2 180.9 181.8 179.4 175 172.2 170.7 167.9 160.1 150.9 148.1 147.9 149.8 154.8 154.5 152.5 148.5 145.3 142 140.1 139.4 138.5 138.6 140.8 144.1 147.7 149.6 149.4 147.9 148.2 145.2 142.1 138 137.2 133 127.9 125.4 122.3 117.9 117.3
273.1 269.5 265.7 261.9 258.8 253.7 246.9 242.1 237.6 234.8 235.4 240.2 246.1 251.5 258.4 264.5 267.9 273.7 280 285.7 291.6 296.8 302.4 308 311.5 313.5 312.1 310.7 309.7 307.6 306.7 305.4 303.1 306.4 307.1 307 307.1 307.3 305.8 308.1 319.1 333.4 337.6 338.3 337.4 335.5 336.8 335.4 329.3 321.3 311.9 302.1 302.6 325.1 348 364.1 367.8 363.5 360.2 355 349.1 345.5 338.7 327.2 319.3 315.8 313.2 311.6 310.3 308 307.3 306.7 306 305.2 303.5 301.4 299.3 296.3 292.5 288 285.7 285.7 288.7 290.6 289.9 287.4 284.8 282.3 276.6 268.9 262.9 258.6 253.6 248.4 278.6 294.1 297 290.6 285.5 278.8 291 302.2 311.3 320.8 327.8 333.3 337.7 340.6 341.9 342.4 344.7 345.3 343 342.1 341.4 340.4 339.5 338.3 337.2 339.2 332.9 325.4 323.3 319.5 317.2 314.4 312.3 310.9 309.9 309.5 309.8 308.2 305.7 302.8 299.4 296.2 291.2 287.1 279.4 273.5 264.8 255.2 245.8 239.5 236 233.1 228.4 221.6 213.8 201.9 189.3 185 190 196.2 199.7 200.2 197.5 191.6 187.3 185.5 181.1 181.7 180.8 179.5 176.5 173.9 169.9 165.6 162 156.8 150 148.4 148.2 148.3 148.6 147.6 144.4 141.9 140.6 139.5 138.8 139.4 141 142.4 145 148.1 148.7 148.6 148.9 148 145.6 142.3 139.2 136.5 136 130.2 126.5 123.1 120.1 117.5
289 286 281.4 278.5 273.6 264.8 256.4 248.3 241.2 237.6 233.4 238.5 243.8 255.8 265.4 269.3 270.8 272.1 276.4 282.1 286.7 289 289 290.3 291.4 290.6 288.7 289.2 287.5 286.9 286.9 287.7 288.6 289.9 291.2 291.1 291.9 294.5 297.2 301.4 306.7 317.8 331.4 331.7 331.5 330.3 328.7 327.3 324.6 319.5 310.4 304.1 298.2 299.1 314.1 336.4 350.9 358.4 358.4 356.6 354.6 353.3 347.4 340.8 334.8 329.4 326 321.8 319 316.3 315.5 314.9 314.1 313.9 312.5 311.6 309 305 300.6 297.2 291.6 285.6 282 280.5 282.6 280.1 278.3 278.1 270.4 264.4 258.5 253 249.6 252.4 280 289.6 288.3 282.7 276.6 281.4 292.6 305.7 315.9 324.4 332.1 337.5 340.9 342.5 343.9 345.1 348.9 347.4 342.5 340.9 339.5 338 337 336.3 336.2 337.3 332.2 325.1 322.5 320.6 317.8 314.9 315.6 313.6 312.6 311.1 310 307.5 305.4 302.6 298.6 294.3 288.8 285.7 279.1 272 263.3 253.7 246.1 239.9 231.2 228.2 224.5 219.8 212.1 201.5 189.3 188.3 196.5 203.2 205.4 203.2 198.9 192.9 188.3 189.1 186.2 183.3 181.1 178.3 176.8 174.2 169.6 165.9 162.3 157.6 151.1 149.7 148.4 146.9 145.2 144 143.3 141.6 141.2 140.7 140.4 141.5 143.4 144.6 146.5 148.7 147.9 147.2 148.4 147.4 144.5 142.1 139.4 136.6 135.9 133.7 126.5 123.5 121.3 119.4
300 297.4 292.8 287.4 281 272 263 253.2 244.7 239.5 231.7 235.9 245.4 263.9 274.1 277.6 277.3 277.2 280.3 281.7 282.5 281.9 279.4 277.5 275.5 274 273 272.7 273.3 274.9 275.9 277.8 279.2 279.9 280.7 281.6 285.7 294.2 300.1 305.6 316.8 324.6 323.2 325.7 328.1 328.4 329.7 328.5 326.4 321.7 316.8 309.3 303.5 296.3 295 305 321.4 335.3 349.7 360.6 362.5 358.4 353.7 346.7 341.4 336.9 331.1 328.6 326.8 324.8 323.7 323.1 323.3 323.6 322.8 321.6 319.4 314.9 309.7 303.8 298.3 291.4 286.9 281.3 275.2 269.5 268.5 266.3 264.4 261.3 255.4 250.1 245.9 259.1 274 282.6 274.4 269.9 271.1 283.1 297.2 311.4 320.9 330.6 336 340.2 342.4 344.2 346 350.1 350.2 344.4 341.7 340.1 338.4 336.8 335.4 334.4 335.2 334.5 330.8 327.3 324.9 320.8 318.5 317.7 317.5 316.4 314.7 312.7 310.1 307.3 304.1 300.8 295.7 289.8 286.2 282.4 275.4 268.3 260 248.7 243.6 233.2 222.1 216.3 214.3 213 210.6 201.8 189.1 190.7 200 207.2 207.3 204.7 199.2 193.5 189.4 187.9 186 185.1 181.9 177.4 176.2 174.2 170.2 165 161.1 158.4 158.7 155.7 151.9 148.3 146.1 145.1 144.6 143.9 143.6 144.4 143.7 145.3 146.7 146.8 148.2 149.1 148.3 147.4 146.6 145.5 143 140.8 138.3 135.7 134.2 131.5 124.9 120.9 120 118.3
303.9 301 295.5 289.3 281.6 273.1 264.2 253.7 247 241.4 236.8 232 252.4 273.1 284.9 286.5 285.2 283.5 283.6 281.5 278.7 275.2 269.8 266.1 263.6 263.4 263.7 263.8 264.7 267.2 267.3 271.1 272.2 274 277.5 282.6 296 304.4 310.8 318.3 327.7 333.9 335.3 337.2 338.9 341.5 341.1 337.5 333.9 329.1 322.9 314.5 306.9 301 294.8 290.3 298.4 311.4 326.5 342.1 356.4 356.6 353.3 352.4 346.4 336.5 332.4 335.1 333.4 332 333.7 334.9 336.8 336.5 334.7 333.7 329 322.3 315.6 306 299.6 294 291.2 287.3 279.6 275.5 270.9 265.3 260.1 254.4 251 248.3 242 257.9 264.4 258 264.3 271.2 274.9 284.1 300.3 314.2 327.1 335.5 340.4 344.2 344.2 345.8 347.3 351.6 346 342.2 340.6 338.8 337 335.3 333.9 332.5 332.9 334.2 332.3 331.5 330.8 324.4 321.4 320.6 320.8 319 316.7 312.7 308.5 304.9 301.2 297.1 289.6 284.8 281.7 276.3 270 262.7 254.4 242.4 235 223.6 213.6 207.4 203.9 205.2 204.6 198.6 189.2 189.8 199.1 208.1 209.3 206.2 200.9 194.5 191 186.7 184.8 184.6 182.2 176.5 174.5 173.4 169.7 164.4 163.3 164.9 167.3 166.1 163.9 159.3 154.9 153.1 149.3 147.2 148.5 147.6 147.7 148.2 148.5 149.6 150.8 150.3 149.7 148.7 146.6 143.7 141.3 139.3 136.9 134 132.2 128.6 124.1 122.1 119.7 118.1
304.4 301.3 295.7 289.1 281.1 272.9 261.6 252.6 245.5 239.8 236.6 230.9 262.4 283.1 300.8 298.2 293.8 288.4 283.4 278.2 272.7 266.1 261.2 259.1 258.1 259.7 261.4 263 265.4 268.3 272 274 277.2 281.9 286.4 298.8 309 314.3 322.1 328.6 335.9 341.3 344.9 348.3 350.1 349.7 347.2 343.7 339.4 334 328.6 321.7 313.2 306.7 300.2 294.7 290.5 286.7 300.2 318.7 333.2 342.8 350.4 344.1 334.8 332.2 340.9 341 340 340 342.2 344.5 345.3 344.4 343 339.2 333.7 326.6 317.6 304.9 296.6 292.4 290.3 289.7 283 278.6 273.9 269.7 262.6 255.2 252.7 249.5 243.1 251.2 250.3 265.6 266.8 268.5 274.9 285.4 304.2 314.6 330.9 338.1 343.2 346.9 345.4 345.6 346.7 349.5 342.3 340.2 338.3 336.7 335.2 333.7 331.9 330.9 330.9 331 333.4 334.5 333.8 329 326.8 322.8 322.5 322 318.8 315 310.8 306.4 301.3 294.7 286 279.9 274.5 270.5 264.5 257.3 248.7 235.9 227.5 219.9 207 201.3 199.1 197.7 195 191.1 190.4 190.6 198.5 206.1 208.3 207 201.3 194.7 190.9 187.5 184.5 183.2 179.1 176.2 173.1 171.8 169.5 166.7 166.4 168.3 168.8 167.1 170.8 171.7 166.5 164.8 158.6 155.1 152.5 148.4 148.5 151.4 152.2 153.3 153.2 151.8 151.2 149.4 146 142 137.3 134.6 133.8 131.1 128.9 126.3 125.9 121.9 118.6 117
302.3 297.6 291.5 285.6 278.9 269.8 260.8 253.1 243.5 238.8 234.2 234.3 266.3 283.8 299.5 300.4 290.4 283.3 277.2 269.3 262.1 257.7 253.3 256.9 258.5 261.2 264.2 268.6 274.2 276.3 279.9 283.9 289.5 296.3 303.1 309.3 316.8 325.2 332.3 337.7 343.7 349 354.4 357.2 356.9 355 352.7 349.2 344.5 339.5 334.1 327 320.9 313.9 306.6 303.7 295.4 289.5 285.2 289.5 308 322 328.9 330.3 329.7 333.4 341.9 340.6 340.2 342.6 346.4 351.4 350.1 345.4 341.4 336 330.3 322.6 313.8 299 294 289.2 287.5 286 284.2 279.7 275.5 267.2 260.3 257.4 254.3 251 243.5 240.6 246.7 260.9 262.7 267.2 276.7 289.6 309.2 316.4 331.3 338.2 342.9 346.6 346.2 345.6 345 345.9 341.6 338.8 336.3 334.4 332.8 331.3 329.6 329.2 329.1 329 330.1 331.5 333.7 334.9 334.8 328.3 326 323.8 323.9 316.7 311.9 307.4 303.1 298.3 287.7 278.7 271.4 261.5 252.8 246.9 239.1 228.3 220.3 214.3 202.7 199.3 199.6 201.1 195.8 192.8 191.7 192.3 198.3 202.6 205.8 204.8 199.6 195.2 191.5 187.3 184.4 181.4 179.2 176.7 174.2 172.2 170.3 168.4 170.5 168.9 170.5 172.4 174.4 175.9 172.1 169.2 164.7 161.1 162.1 160.2 152.9 157.3 157.4 157.4 154.5 153.5 150.9 144.4 138.6 135.4 133.9 132.2 131 130.8 127.1 124.5 122.1 118.2 116.6 116.4
300.4 288.5 285 278.4 267.7 258.2 251.5 245.3 241.1 237 233.1 234.2 258.9 274 284 285.4 281.3 274.4 265.9 257.8 253.1 252 254.7 257.3 261.5 266.8 271.1 277 284.3 288.7 292.1 297.8 302 311.1 318.3 322.9 328 335.2 341.2 344.9 350.6 358.5 363.3 365.2 363.5 360.9 357.3 353.5 348.7 344 338.2 331.5 325.7 319.7 313.8 309.3 302.4 292.7 286.8 283.5 283.3 294.5 305.3 317.7 327.5 333.2 334.8 333.8 336 343 345.7 346.9 344.5 341.1 335.9 328.9 323.2 315.3 307.8 297.7 292.5 288.7 286.2 282.9 279.5 272.4 268.7 269.3 267.8 265.9 258.7 254.7 249 240.2 241.5 246.4 254.6 265.3 278.1 300.8 310.9 320 329.9 336.4 341 344.1 345.5 346.4 344.5 343.1 340.8 337.8 335.3 332.8 330.5 328.9 327.5 327.3 327.2 327.1 327.5 328.6 331.4 336 338.8 333.4 329 327.7 324.2 320.9 313 308 303.1 297.3 289.4 280.8 273.5 263.9 255.8 243.9 231.6 223.5 215.1 209.6 203.7 202.6 208.1 208.6 205.7 199.1 194.2 193.7 196.4 200.6 204.4 203.3 199.5 196.1 191.6 186.3 182.8 181.2 179.3 176.4 174.1 172.8 171.5 170.3 171.3 170.5 170 171.3 171.9 175 175 172.2 168.4 169.1 169.4 169.8 161.9 159.2 159.1 158.3 156.1 154 145 138 135 133.6 133.1 131.2 129.2 127.6 123.5 122.1 118.6 117.8 118.8 117.6
297 285.6 264.4 258.4 252.9 247.6 244.1 239.1 237.4 234.7 231.9 228.6 246.7 260.6 271 274.5 269.1 261.9 253.8 249.4 248.3 247.3 253.5 259.3 266.9 275.7 284.3 290.8 296 300.1 304.3 308 314.3 323.1 329.9 334.9 338.7 343.9 349.4 352.8 360.5 368.6 371.9 370.3 367.8 363.9 360.2 355.8 350.2 344.7 337.9 333 328.3 323.5 316.2 303 298.1 295.5 290.9 285.4 281.3 279.7 284.7 300.7 315.7 321.9 325 325.3 327.6 334 339.8 345.9 341.6 337.2 331.6 324.7 318.2 309.6 302.2 297.2 292.9 290.2 285.9 283.9 279.4 273.7 280.1 279.8 275.1 271.6 266.4 261.7 257.7 251.3 237.3 237.5 242.8 259.6 280.5 304.5 308.3 317.4 325.3 331.2 339.2 344.3 347.7 346.2 343.4 341.5 339.5 337.1 334.3 331.8 328.9 326 325.8 325.1 325.2 325.6 326.5 329.4 331.4 333.6 336.2 335.7 330.4 330.3 325 321.1 314.3 307.5 302.5 297.1 290.4 282.5 275.2 266.7 258.6 247 233.1 221.2 212.4 206 205.3 206.8 215.6 215.4 213.3 208.5 201.3 196.4 198.5 202.6 204.3 202.2 199.4 195.1 190.4 186.4 183.4 181.3 179.6 177.9 175.1 173.4 170.8 170.8 172 173 171.4 173.4 172.3 172.4 174 174.4 171.7 171.3 172.4 165.4 161.6 158.7 159.3 158.8 157.7 150.2 140.2 136.7 135.2 133.6 132.4 129.2 127.2 126.2 122.7 120.5 118.3 118.4 120.1 117.4
279.7 265.1 261 257 254.3 250.7 245.1 239 233.8 232.8 231.2 226.4 233.1 243.5 257.1 262.5 257 250.7 246.3 243.9 247 250.8 257 266.9 277.6 287.2 294.8 301.8 307 310.7 316.6 321.3 327.2 333.6 340.2 344.1 347.5 352 357.9 364 372.4 377.6 377 374.4 370.5 366.1 361.3 356.3 350.3 343.3 337.6 332.8 326.2 318.1 307.2 309.5 309.1 305.1 296.8 288.5 283.9 280.8 277.7 281.1 297.7 306.7 311.2 314.7 316.7 321.8 327.7 333.9 335.8 332.3 327.8 321.9 315.4 308.5 302.7 297.8 294.5 291.8 287.5 283.9 277.6 280.2 284.4 285.4 279 275.1 270 265.9 261.9 256.8 251.5 247.7 236 250 277.7 299.5 303.7 312.5 320.9 328.8 335.7 342.1 347 343.7 341.2 339.3 336.9 334.5 331.2 329.3 326.9 322.8 321.5 325.4 326 326.1 326.8 329.2 331 332.9 334.7 337 330.4 327.2 324.8 320.5 314.3 307.8 302 296.7 290.7 284.1 277 268.2 259.8 245.1 231.5 220.2 210.2 205.3 205.3 213.6 222.8 218.7 216.3 213.1 209.6 205.4 204.4 205.5 202.4 200.7 198.4 193.9 189.5 186.8 184.8 182.5 180.2 178.2 176.8 174 172.2 172.4 172.6 172.9 173.5 176.9 174.2 169.9 175.3 174.6 173.2 173.6 163.8 158.1 158.9 156.2 153.2 155.7 153.4 143 138.3 136.4 134.9 133.4 131.5 129.5 127.7 126.8 123 120.6 118.9 119.5 118.8 116.9
275.8 275.2 272.8 271.8 271.7 270 261.2 248.2 238.5 232.8 229.2 225.7 230.3 234.9 243.5 247.5 247.5 243 239.3 242.1 245.7 252.9 264.8 278.7 289.2 296.6 304.1 311.7 317.1 322.8 328.9 334.6 340 345.4 349.4 353 356.3 360.7 367.1 374.6 381.3 382.8 379.9 375.3 369.9 364.9 360 354.8 348.3 340 331.7 324.5 320.9 319.2 320.8 320.3 316.6 311.2 304.3 295.7 289.4 284.4 279.7 276.5 278.8 283.2 285.5 289.8 296 303.4 314.2 325.1 335.8 334 328.4 322.3 316.2 311.4 306.7 301 297.4 294 288.3 282.4 279.6 283.8 288.2 288.2 282.9 278.2 273.9 269.8 265.6 260.7 254.9 248.6 235.9 240.3 270.9 291.1 297.4 306.1 315.9 323.9 329.9 340.7 342.8 339.9 337.9 335.6 333.4 330.1 326.5 322.2 320 318.3 320.1 323.8 325.1 326.7 327.4 329 330.9 332.6 333.4 334.8 328.3 325.4 322.7 318.9 312.6 305.9 300.7 295.4 289.4 283.4 276.4 267.8 258.9 245.5 232.2 219.7 209.3 205.3 206 213.4 219.2 217.6 216.4 216 215.4 211.8 208.4 206.7 202.5 200.5 199.2 193.6 189.7 188.1 186.5 182.9 179.6 179.6 179.3 178.4 175.2 174.8 175 174.3 176 174.6 172.3 171.3 173.5 173 175.2 172.2 154.5 154.1 154 150.3 147.9 146.7 142.8 139 137.8 136.1 134.5 132.3 130.3 129.5 130.4 130.2 124.7 122.2 121.2 119.1 118 117.6
294 294.9 294.9 294 293.1 289.6 282.1 262.4 245.3 240.5 230.1 226.2 228.7 231.5 235.3 239.7 239.9 234.2 237.7 241.5 247 255.3 267.8 283.6 292.5 301.1 310.9 320.2 326.1 334.4 342 347.3 351.6 355.8 359 362.3 367.1 371 376.4 385.3 388.9 384.8 379.5 373.9 368.1 361.8 356.4 351.5 344.7 336.9 334.5 332.3 330.3 330.1 330.7 326.8 325.3 319.5 312.8 305.4 298.8 293.6 285.7 281.4 275 272.4 271.8 272 269.3 279.5 301.8 320.3 336.5 334.9 329.3 323.9 320.8 318.6 314.7 307.8 298.6 291.2 284.4 281.7 283.9 286.7 287.3 286.3 284.3 282.6 278.3 273.7 270 266.8 260 250.8 236.8 233.7 258.1 280.8 295.4 301.3 309.5 318.1 324.3 336.2 336 334.5 332.9 330.7 328.4 324.6 320.5 315.3 313.2 314.3 319.4 323.1 322.5 325.2 327.3 328.4 329.3 329.6 328.4 327.5 325.1 322.4 319.4 315.1 309.5 303.5 297.7 292.2 286.4 279.8 272.8 263.9 255.4 241.9 230.5 219.8 213.1 206.7 205.3 212.8 216 218.1 217.9 217.6 217.2 212.7 210.3 207.9 205.2 201.6 199.1 195.2 190.6 188.1 186.9 185.1 182.3 182.1 181.7 181.2 179.1 177.4 177.2 180.1 178.4 174.7 172.1 167.9 170.8 173.2 175.6 171.2 153.1 149.2 149 147.5 145.4 141.8 139.2 137.6 136.4 135.1 133 131.2 131.4 131.8 135.2 135.2 129.3 124.5 121.5 119.2 118.3 117.4
313.9 312.7 310.7 308.6 305.3 300.7 295.6 282.9 267.7 251.4 240.7 225.9 224.8 227.8 230.2 232.6 233.3 234.8 239.5 242.3 248.1 253.5 262.9 275 285.9 297.8 314.9 327.2 337.5 347 354.9 361 363.8 365.7 368.6 372.1 377.4 381.1 385.2 391.6 388.7 383.6 377.3 370.3 365.2 360.2 354.3 349.2 344.9 345.3 344.8 344.4 343.4 341.2 338.9 336.1 332.5 327.2 321.2 315.7 309.8 303.4 296 289.8 285.8 278.4 275.8 282.1 273.2 266.8 286 311.7 336.5 335.9 331.8 324.7 326.2 324.9 319.2 313.3 295.7 287.5 285.4 287.8 287.6 283.4 282.7 285.5 287.2 283.8 280.8 277.9 275.3 270.8 265.3 252.3 237.4 230.7 252.6 277.1 290.6 296.4 301.2 308.5 315.1 327.4 328.4 330.2 327.1 325.4 322 316.4 310 308.3 307.4 313 318.9 322.3 322 323.6 324.7 324.6 324.6 324.1 323.6 322.3 320.1 317.7 314.6 310.9 306.4 301.2 295.3 289 282.5 275.5 268.2 259.4 249.2 238.2 229.4 222.2 216.9 210.4 205.3 211.6 214.9 218.1 219.5 219.8 219.3 214.6 212.6 211.8 209.2 205.5 201.8 195.6 192 188.7 187.2 186 185 184.7 184.9 184.1 182.8 181.2 178.1 176.6 174.3 172.2 171.7 165.8 167.3 163.9 164.6 171.9 158.1 150.8 151.4 147.9 144.2 140.6 138 136 134.6 132.8 132.1 132.6 135.6 139.7 148.7 145.8 137 129.2 122.6 121.7 119.6 119
326.5 324.3 322.1 319.4 315.3 310.6 305.6 299.4 288.2 271.8 255.2 237.2 222.2 224 226.3 228.6 226.4 234 237 243 249.5 254.5 260.1 267.1 278.6 302.8 319.1 334.1 348.9 359.2 368.5 373.1 374.1 375.6 377.7 380.9 385.5 387.7 388.7 387.9 386.5 382.5 378.6 374.6 371.2 367 362.8 360 357.5 356.2 354.8 353.2 350.7 347.8 344.5 341.9 337.1 332.1 327.5 321.7 315.1 310.2 304.4 300.8 295.4 284.1 279.3 286.3 280.2 267.6 267.5 291.5 316.8 320.3 313.4 309.8 309.6 308.7 307.1 303.3 305.5 302 293.3 286.8 279.3 278.4 283.1 283.1 282.3 280 279.4 278.7 273.1 269.3 263.8 251.1 235.3 228.7 247.8 271.2 272.6 286.7 290.9 296.5 304.6 316.7 319.3 322.3 321 317.2 314 307.7 304.2 302.9 302.1 310.2 317.1 320.8 319.6 321.3 321.7 320.1 319.2 319.1 318 316.5 314.8 312.6 309.5 305.8 302 297.4 291.5 285.3 278.5 271.5 263.4 253.4 243.4 235.9 230.6 222.9 219.8 213.3 205.3 210.9 214.1 218.3 221 219.7 219.4 216.6 214.7 213.9 211 206.8 203.6 198.2 195.6 192.5 191.4 190.1 190.1 189.7 188.6 184.6 183 180.9 178.6 175.2 172.6 171.4 168.7 167.1 159.4 159.2 160.3 159.4 154.2 150.3 151.3 148.9 143.6 140 137.6 135.2 134 134.9 137.1 140.5 145.9 151.5 151.7 150.4 143 132.8 126.2 124.3 122.5 119.1
338.9 335.3 332.6 329.2 325.2 320.3 315.3 307.8 296.4 285.5 270.5 253.6 234.8 222.3 222.8 224.3 222.8 229.4 233.7 243.3 256.5 263 268 272.2 281 298.8 323 339.3 356.4 369.8 378.3 382.2 383.7 384.3 386.1 388.1 390.9 391.5 390.8 390.2 388.4 387 385.3 382.3 378.6 374.7 371.1 368.6 365.6 364.1 361.8 358.7 355.9 352.9 349.6 345.3 339.6 333.3 327.2 322.3 316.9 312.9 308.5 301.9 292.4 285.6 287 288.8 283.6 270.8 262.9 270.4 296.8 314.9 313.8 325.6 320.6 316.7 311.8 307.1 315.3 307.8 291.3 281.7 282.6 282.4 280.4 277.3 274.9 272.9 271.9 270.3 265.2 261.1 256.3 245 242.2 227.8 240.8 252 262.1 279.6 284.3 290.1 294.3 302.8 312.4 314.7 313.1 307.8 306.3 300.3 293.7 291.9 302.4 309.6 314.6 318.5 316.2 315.6 317.2 316.8 314.9 311.5 312 310.5 308.3 305.6 302.8 299.5 295.9 291.9 286.5 278.9 272.7 266.5 258.5 248.2 238 231.3 227 220.9 216.5 211.3 208.5 211.9 214.3 218.5 221.8 221 218.6 216.8 215.7 214.5 211.6 206.7 203.3 200.1 197.5 196.1 195.1 194.8 192.7 188.4 187.5 185 181.4 180.1 178.1 175.5 171.1 169.1 166.9 162.6 156 155.5 154.9 151.6 149.3 149.7 150.1 149.4 144.1 139.2 136.7 135.3 136.6 141.2 148.1 154.1 159.9 157.2 154.6 152.6 149.2 135.4 128.9 127.5 122.2 118.4
347 344.3 339.9 335.3 329.9 324 317.6 308.7 299.5 289.3 280.2 270.8 253 237.8 223.4 219.5 220.8 224.9 229.8 243.8 263 276.4 285.3 290.9 300.5 313.3 322.1 333.8 360.9 380.8 386.6 390.9 390.9 390.7 392 392.4 393.2 393.5 392.7 392.3 392.5 393 391.7 387.6 384.3 381.1 378.4 375.9 372.9 370.5 367.2 363.6 360.4 356.3 350.1 343.4 336.2 328.7 324.1 319.3 314.5 311.1 305 296.9 295.4 298.3 304.1 296.1 285.8 273.1 265.4 260 279.7 302.4 314.3 328.7 327 323.8 319 313.8 317.4 312.3 291.3 278.2 279 278.6 275.8 270.7 267.8 267.3 264.4 261.2 255 250.6 247.1 241.5 240.6 228.7 234.5 247.9 268.1 271 276.4 282.5 290.2 292.1 297.3 300.5 297.9 294.1 292.2 288.5 283 291.6 301.4 307.6 312.4 315.6 311.5 311.6 311.3 311.2 310.4 305.6 304 302.8 300 296.9 293.9 291.2 287.9 284.7 278.9 272.2 266.6 260.6 253.6 243.4 235 229.5 224.7 218.4 212.8 210.5 209.1 212.7 214.7 218.2 220.8 220.6 219.3 217.9 216.7 214.4 211.7 208 206.1 203.1 199.1 197.8 196.3 195 191.2 187 185 187.3 176.7 175 175.1 174.4 169.8 166.6 165.1 162.3 153.2 157.1 151.3 149.3 149.2 149.8 149.8 147.3 143.1 138.9 136.9 136.8 139.5 151.2 159.1 164.7 162.8 160.2 159.5 157 150.7 139.5 130.4 126.1 120.9 118.8
352 347.2 341.7 333.1 327 319.4 312 305.3 298.9 292.4 284.6 275.4 265.2 254.1 240.5 228 217.7 218.6 223.9 241 266.2 289.2 303.9 314.2 325.5 331.4 335.1 349.3 366.5 386.9 395.2 396.4 396.6 397.1 396.7 396 395.6 395.6 394.8 396.1 397.5 397.6 395.2 392.7 389.7 387.5 384.3 381.1 377.8 374.6 371.6 367.4 362.5 356.2 349.9 343.2 335.4 328.6 322.9 316.7 311 307.5 308.7 307 307.6 304.2 299.4 293.1 285.3 273.6 267.4 260.8 267 291.5 306 308.6 313.2 316.5 309.4 299.2 295.9 298.2 283.4 273.7 270.5 270.7 269 265.1 266 264.4 261.2 262.9 260.1 256.1 247.5 241.1 238.1 228.1 230.4 248.2 258.5 262.9 267.5 272.5 278.6 278.9 285.5 287.5 285.8 279.4 277.4 271.7 283.6 291.5 300.8 308.7 311.4 311.3 309.3 308.2 308.1 308.1 305.2 299.8 295.2 293.2 291.9 288.4 285 283 280.4 277.3 271.3 266.2 260.5 254.3 247.3 239.9 233.8 229 225 218.3 212.9 211.5 210.5 212.6 215.5 218.1 220.9 220.9 220.3 218.6 216.8 215.2 213.9 210.4 207.6 204.3 200.7 199.5 197.3 195.7 190.9 187 183.9 183.5 177.5 173.2 170.5 171.6 169.2 166.2 162.1 156.3 149.3 152.6 149.4 145.9 148.6 148.6 146.5 142.8 139.8 138.3 138.6 138 139.6 149.6 158.9 164 164.7 163.5 161.9 158.8 154.1 135.1 124.2 122.7 121.4 119.9
337.7 329.8 323.9 316.2 310.1 303.2 299 295.5 295.4 294.7 290.4 280.3 270.6 261.3 251.5 240.1 228.5 218.3 218.9 243.4 271.5 297.5 318.3 335.4 343.7 346.6 354.2 369.2 380 391.1 397.4 398.9 400.6 399.7 398.5 398.6 397 394.4 392 394.6 397.3 398.6 397.4 395.7 393.7 391.1 389.1 386.7 382.8 378.7 373.4 369.1 364.2 357.8 350 341.9 334.6 328.1 320.5 315.3 313.9 317 316.5 314.8 309.6 304.7 300.2 294.4 286.6 280.2 268.7 263.7 257.8 279.4 301.9 305.7 304.9 301.4 297.6 292.9 290.8 288.4 281.9 265 261.6 262.3 260.6 258.9 257.5 257.6 258.4 260.2 257.7 254.9 252.2 249.6 240.8 229.2 225.5 237 248.4 255 262.5 268.6 268.1 265.4 266.8 274 272 271.4 264.3 272.3 283.8 294.9 301.7 308.7 311.1 309.4 307.6 306.3 306.1 304.4 299.7 295.1 290 287 283.3 280.2 278 275.5 272.7 269.6 264.6 259.3 253.2 248.1 242.1 237.4 233 229 224.6 218.5 213.9 212.4 211.1 214 218.8 221.1 221.7 222.8 222.7 220.8 218.2 216.9 214.4 209.1 208.3 206.7 205 202.9 198.4 196.6 192.9 190.5 186.5 181.9 180.1 176.5 170.1 168.9 168.6 165 161.2 157.6 152.2 148.2 147.2 145.9 146.7 145.6 143.3 141.3 139.7 138.9 139.5 140 139.3 147.2 156.6 161.6 164.8 164.1 162.6 156.8 141 125 123.4 122.5 121.5 119.3
310.9 305.4 300.3 296.5 289.4 284.8 281.6 280.6 281.2 283.9 286 281.4 272.3 262.8 253.4 240.5 227.6 218.2 220.3 250.8 277.1 305.6 331.8 353.2 360.9 364.8 374.8 386.6 392.4 395.2 398.1 400.2 401.6 398.6 394.2 389.7 385.7 378.1 376.4 385.9 393.3 396.5 396.2 394.1 391.3 389.7 389.9 388.5 382.3 378.2 372.6 366.8 361.3 353.6 345.8 336.6 330.7 324.1 320.5 321.7 324.3 325.5 325 321.4 315.9 308.6 303.3 297.2 291.1 284.9 277.5 267.8 258 258.1 275.5 292.3 296.2 292.9 290.6 279.7 276.4 276.6 265 255.9 256.7 254.6 252.8 252.2 249.7 249.4 250.8 255.3 253 248.9 247.4 248.5 245.9 231.8 222.9 231.7 237 248.1 258.3 264.1 265.6 263.8 258.1 259.1 262.3 259 261.9 275.4 289.5 303.3 308.9 310.5 310.8 308.5 306.8 305.4 305.6 301 298.6 293.6 288 282.4 277.1 273.4 267.8 265.1 262.7 260.2 256.6 250 246.7 241.6 238.3 236.8 232.6 228.7 223.7 218.9 216.3 215.1 212 211.2 219.2 222.7 222.6 223.6 223.7 221.7 219.5 219.5 214.8 210.6 209.2 208.2 208.2 204.8 200.8 197.8 193.7 191 188.2 184.3 178.7 177.9 171.6 167.4 166.4 164.7 160.3 155.6 154.7 153.6 149.2 145.5 144.8 142.5 141.5 141.6 140.8 138.5 137.5 137.8 140.3 150.1 156.9 162 163.9 164.2 161.8 145.8 128.5 124.5 122.8 121.9 121 119.8
289.6 285.9 280.7 276.3 272.8 268.5 265.2 263.4 264.7 265.7 268.5 270.6 264.7 258.8 249.9 233.5 223.4 214.6 229.3 257.7 283.4 311.4 339.2 361.9 371.8 378 385.6 390.1 393.9 395.8 395.9 395.3 392.1 388 378.4 365.1 358.5 355 358.4 370.8 379.1 381.7 383.9 381.9 381.3 382 382.1 380.1 376.4 371.3 364.9 359.9 354.5 346.8 338.7 332.3 329.3 329.1 330.6 333.5 333.2 333.9 331.5 326.3 320.9 313.7 307 301.1 294.7 290.5 283.7 276 270.2 256.2 253.4 262.3 264.2 263.3 261.7 256.8 249.4 247.6 249 250.8 250.3 248.7 247.5 245.8 242.8 241.5 240.9 245.8 242.3 241 242.3 245.2 246.3 234.3 225.5 221.6 226.4 235.8 247.9 254.4 257.6 258.4 256.3 251.1 252.2 253.7 271.2 282.9 295.9 307.8 311.8 312.3 312.1 311.4 306.5 305.5 303.5 302.1 299.1 295.7 288.8 281 275.6 270.7 265.7 260.7 255.4 250.4 245 242.9 240.9 242.2 238.5 233.7 231.6 226.8 222.5 219.8 218.5 216.4 213.6 211.1 217.1 220.7 221.8 223.1 224.2 221.9 220.8 220.6 216 212.8 211.1 209.7 207.5 204.6 201.9 199.1 195.3 190.7 187.2 182.9 179 177.1 170.7 166.6 165.9 163 158.4 154.4 154.7 155.5 153.3 148.1 144.8 140.3 140 140.5 139.8 137.6 135.6 135.3 139.2 155.4 160.3 163.1 162.7 164.1 150.8 132.5 125.8 123.6 122.6 121.2 120.7 119
271.8 268.3 264.7 262.1 259.3 254.3 251.2 249.3 249.4 250.6 252 253.2 251.6 251.8 244.4 228.4 219.2 214.2 240 263.9 288.5 315.1 341 360.1 374.1 381.1 383.4 385.2 389.6 390.1 388.2 383.9 377.2 363.1 349.1 339.8 334.9 331.8 339.5 349.8 357.8 361.6 364 363.7 364.6 368.3 371.8 370.2 367.5 362.4 358.6 353.4 349 342.6 339.1 338.8 339 342.1 344.1 344.1 341.6 343 339.5 333.9 328.9 321.1 312.7 304.8 298.3 295.7 289.9 281.1 273 267.6 264.1 256.6 254.8 249.6 247.5 243.7 240.2 251.7 250.6 247.8 246.4 244.7 242.9 239.9 239.7 237.8 237.1 236.7 235.7 235 236.2 242.5 243 237.6 226.3 222.4 221.1 222.7 230.4 242.7 247 250.4 250.4 246.5 241.3 259.2 272 290.1 303.3 311.5 313.8 313.7 313.3 311.6 309.6 307.5 304.5 300.3 296.5 293.2 290 279.9 273.8 268.8 263.1 258.8 254.2 249.9 244 240.1 238.8 237.8 235.3 231.2 229.8 225.4 223.8 222 219.5 216 213.8 211.7 215.9 219 221.1 222.8 223.9 222.5 220.2 219.8 217.4 215.1 212.9 210.4 208 205.4 202.7 199.9 195.1 191 185.5 181.2 177.9 176 171.6 166.9 164.1 160.2 158 156.6 155.8 155.4 149.5 146.7 145.6 141.5 138.3 138.9 137.8 135 133.8 134.4 135.4 144.1 150.5 153 151.1 151.4 141.8 126.7 125.3 122.9 121.2 121.5 120 118.3
259.4 257 254.2 251.8 247.1 243.2 239.1 237.6 237.3 237.3 238.2 239 240.7 241.9 239.9 226.3 216.5 213.8 241.3 266.7 289.2 311.3 334 355.5 368.8 375.2 376.5 377.8 379.5 379.2 376.8 368.6 351 335 322.8 318 314.8 314.5 319.2 327.5 334.7 338.7 343 347.2 350.3 354.1 359.1 360.5 360.3 359 354.6 351.8 351.1 349.9 349.9 346.6 352.6 354.9 355.2 354.4 352.9 349.9 346.2 341.2 336.4 329.2 321.9 314.1 304.5 295.5 290 283.7 278.3 273.5 269.6 266.2 262.5 256.9 253.2 249.5 245.3 241.8 240.1 243.8 243.3 241.6 239.9 239.3 239.2 238.6 238.6 239.4 238.6 235.3 231.6 234.3 228 226.4 224.5 223.8 221.6 218.8 218.1 226 233.6 236.8 239.4 237.1 242.9 263.1 274.5 292.8 308.6 314.4 315.1 315.6 313.8 312.6 311.1 307.1 303.9 301.1 298.1 295.9 290.5 284.1 277.8 270.4 264.9 258.9 253.5 249.1 244.3 239.5 237.1 235 231.9 230.2 229 226.6 224.2 222 219.2 215.4 213.1 215.6 217 219.7 221.3 222.3 224.1 223.2 220.8 218.8 215.6 213.9 212.9 210.8 208.8 206.9 203.5 199.7 195.2 191.7 184.3 178.2 176.1 174.2 168.1 166.5 163.4 156.5 155.2 155.8 154.5 149.5 145.2 143.1 141.7 141.4 138.5 137.1 135.7 135.6 134.8 134 133.1 135.3 138.3 136.4 134.8 133 130.1 125.1 123.8 122.1 120.8 120.2 119.7 119.1
251.4 248.9 246.9 242.5 237.8 226.2 218.4 223.4 224.7 224.5 226.4 227.5 228.9 231.2 233.2 225.6 215.9 211.7 236.4 264.2 286.4 305.5 325.6 349 362.9 365.7 367.3 368.7 369.8 369.8 367.2 352.1 327.3 311.6 305.1 301.3 301.1 302.8 306.2 311.3 316.6 322.8 329.1 334.7 339 342.7 348.4 352.5 356.9 359.2 360.2 359.6 359.6 361.3 362.4 363 367 366.2 365.2 363.2 360.2 355.9 350.9 346.3 341.7 335.6 328.2 320.2 311.1 298.8 293.5 288.4 284.5 281.3 277.1 272.6 268 263.8 258.6 252.8 245.9 244 237.3 241.1 243.2 242.2 240.1 240.1 240.6 240.9 241.9 244.1 243.9 243.1 238.6 233.9 231.4 231.8 235.3 237.7 235.5 225.5 217.4 215 215.6 218.2 223.3 225.6 246.7 262.4 280.7 297.3 311.1 316.8 317.6 316.4 314.8 313.4 310.9 306.6 302 299.7 298.1 296.5 290.6 284.4 276.5 269.6 264.4 258 251.8 246.9 242.2 237.8 235 232.8 231.2 230.4 229.2 227.2 224.6 221.6 218.9 215.2 213.7 217.6 218.3 219.3 220.3 221.3 222.9 222.9 221 217.8 215.1 213.7 212.6 210.6 207.8 206.3 203.4 199.5 196.5 192.9 184.5 177.1 172.5 170.1 169.1 168.1 163.4 154 151.8 150.6 148.9 146.1 144.5 142.3 140.7 140.1 139.2 139 137.5 137.7 136.8 134.8 133.6 131.3 131.3 130.3 130 128.5 127.8 126 124 121.5 120.2 119.3 117.7 116.7
245.4 243 239.7 233.8 219.4 217.2 216.6 215.3 214.5 213.4 214.5 215.9 218.1 220.8 224 225.2 216 211.1 229.1 253.7 277.7 299.2 315.5 334.4 351.1 356.2 357.5 357.8 358.1 356.4 350 332.2 311 296.6 292.1 290.7 290.7 291.4 295.7 302.2 310 315.9 322 330.9 337.2 342.7 346.1 352.6 359.3 364.2 369.2 372.3 375.4 377.4 379.3 378.1 377.5 374.6 372.8 369.3 364.1 358.9 352.9 347.1 341.2 335.2 328.8 321.2 307.3 303.3 301.8 294.5 286.5 280.1 275.3 270.1 264.2 258 251.8 248.3 244 240.4 234.8 235.2 240.5 249 249.1 246.5 245.9 246.4 248.2 249.9 252.5 253 251.7 247.5 242.7 251 250.1 250.4 248.6 244.6 237.4 230.9 223.6 213.6 215.3 224.6 244.6 264.7 282.1 298.8 311.4 318.2 320.4 318.5 316.3 313.6 310.1 305.6 300.9 296.9 296.1 293.3 288.3 283.4 276.8 268.1 261.8 254.6 248.4 242.8 238.9 236.2 233.5 231.4 230.2 229.7 228.6 226.5 224.7 221.8 219.6 215.6 214.5 216.6 217.8 218.7 219.5 220.2 221.3 221.5 219.7 216.9 213.6 211.8 210.9 208.5 206.5 204.1 201 199 196.8 193.9 186.6 179.2 174 170.9 171.9 168.5 158.3 152.2 150 149 147.4 147.1 146 143.7 141.8 141.4 140.3 141.5 141.6 139.9 137.8 134.9 135 134 135.2 132.2 132.9 134.9 133.7 130.8 129.8 120.9 118.2 117.9 118 115.9
241.8 235 230 225.4 218.4 219.9 219.6 218.1 217.6 216.9 215.3 212.6 211.4 212.2 215.5 218.6 216.4 210.7 218.1 237.9 258.9 279 297.7 312.9 327.8 343.1 345.6 345.7 344.3 340.1 330.9 313 295.7 285.5 281 280.7 281.9 285.5 291.5 297.9 305.3 312.9 323.9 339.2 349.7 353.6 357.6 362.8 370.1 379 386.1 390.7 393.6 393.4 390.6 387 384.9 381.5 375.8 369.4 363.3 357.2 351.6 345 338.7 332.8 326.1 316.8 306.5 303.6 295.4 287.2 282.2 277.1 274.1 270.3 259.3 266.6 264.5 258.9 253.1 246.5 234.9 233.9 234.8 249.8 259.6 259 257.1 256.4 258.1 259 261.5 267 265.5 258.9 256.6 259.9 258.7 258.4 256 253.6 251.4 248.3 243.7 225.1 211.7 221.7 241.6 262.7 280.7 295.9 308.7 318.7 321.9 321.4 318 314.2 311.6 307 302.4 297.9 293.3 288 282.4 278 271.6 265.5 260.7 252.7 247.3 241 237.9 235.2 232.6 230.7 229.8 228.6 227.4 225.6 224 222.1 216.9 217.7 216.9 216.4 217.1 218.1 218.1 217.8 219 219.7 217.9 215.1 211.5 210.1 208.7 206 203.8 201.3 198.6 196.1 196 194.1 188 180.1 174.2 171.7 171.6 162.1 154 150.5 149.2 148.2 148.1 148.2 147.1 144.5 143.8 144.3 144.7 147.5 143.2 138 135.3 134.4 134.7 138.1 141.2 143.9 147.6 148.4 144.6 137.9 130 121.2 117.9 116.7 116.6 114.5
234.1 226.9 220.6 219.1 223.6 228.5 229.9 233.3 234 230.4 222.9 219.8 215.6 210.9 210 212.2 212.9 211 212.6 224.9 240.3 257.3 274.2 290 304 316.4 326.4 327.3 326.4 322.6 314.6 297.8 280 274.4 273.3 273.9 276.3 282.3 289.3 296.7 306.2 317.3 333.8 357.7 367.2 373.2 372.4 375.7 390 399.5 403.8 405 402.4 398.1 393.7 390 386.2 380.2 372.7 366.5 360.5 354.1 347.4 340.7 333.9 327 317 306.4 298 292.4 286.8 283 279.4 276.5 273.8 265.1 271.6 269 266.1 262.3 258.5 253.3 243.8 233.2 237.4 254.9 265.3 266.1 268 268 268.4 269.4 274.1 275.9 272.8 266.1 265.6 268.5 268 266.1 263.1 260.1 254.9 247.2 240.2 223.2 209.8 219.4 238.8 261.5 278.2 291.9 308.7 319.4 323.1 321.3 320.1 317.6 312.8 309.7 305.1 299.9 295 288.8 281.4 275.4 269.5 264.2 258.5 252.1 245.2 239 236 234.4 232.3 231.1 229.2 227.8 224.9 222.8 220.6 219.3 221.2 221.5 219.5 218.9 218.5 218.9 218.1 217.8 217.7 218.7 216.8 213.7 210.6 209.7 206.4 203.9 201.8 200.1 196.9 194.3 193 191.9 189.8 182 173 168.5 166.5 159.4 153 150.2 151 150.6 148.8 148.7 148 146.4 145.1 145.3 143.6 146.9 139.4 134 133.9 134.1 134.3 138.7 149.6 157.7 158 150.2 137.3 132.7 126.6 119.9 117.3 116.9 114.6 114.5
