ncols 200
nrows 82
xllcorner 380000
yllcorner 472400
cellsize 50
292.1 297.7 303.1 301.9 310.8 323.3 327.4 333.8 339.7 351.7 355.5 360.7 365.3 368.1 371.7 373.7 373.1 383.9 392.8 387.5 379.8 382.6 387 393.6 404.5 406.1 405 405.3 408.3 410.7 412.2 414.8 421.6 428.9 430.2 430.2 436.4 447.4 453.9 459.3 460.8 460.7 468.2 473.1 478.6 487.4 487.4 478.5 466.7 463.2 460.9 459.4 459.3 459.6 454.8 451.4 446.9 452.9 452.7 453.6 455.3 457.8 462 465.3 466.8 465.2 464.8 464.6 461.1 467 472.8 469.4 465.9 463.2 463.9 463.3 462.9 460.6 457.8 457.3 456.9 456.1 453.1 449.3 445 441.5 441.1 439.4 436.2 434.8 433.1 433.8 433.5 434.4 434 432.6 429.8 425 415.4 412 409.3 406.5 412.3 410.4 408.8 408 406.1 403.4 403.5 401.2 397.6 398.3 398.9 399.5 399.7 398 398.3 398.6 399.3 400 401.1 400.4 400.1 399.6 396.2 395.8 394.4 392.6 391.4 389.7 384.9 380.1 375.8 368.4 360 369.7 372.7 372.4 369.4 366.3 363.7 359.4 353.5 348.1 343.6 338 332.4 321.6 322.1 315.6 307.9 302.9 299 297.5 297 297.4 296.9 297.3 298 300.5 301.8 301.2 298.8 306.4 310.7 318.1 338 350.2 357.2 372.6 388.4 397 406.6 421.2 426.1 431.7 444 450.8 458 478.9 497.7 513.4 520.4 529 541.2 545.6 558.9 570.6 573.9 574.4 570.3 565.5 564.8 566.9 567 567.3 568.4 569.9 572.4 576.5
289.5 292.4 297.6 304 311.2 314.9 327.3 334.3 340.9 351.1 357.9 361.9 363.1 367.1 370.5 370.6 373.9 388 396.4 391.5 387.3 383.6 388.1 397.4 407.4 404.4 403.9 407.3 413.6 414.3 415 417.8 421.9 422.8 422.8 424.5 433.1 443.9 451.2 457.9 459.3 459.2 465.6 470 477.7 480.6 479.8 474.2 465.1 463.5 461.4 456.7 456.5 454.5 452.2 443.9 451.8 454.7 455.3 455.7 457 461.8 473.2 472.4 468.3 464.5 462 458.5 465.7 474.2 473.2 467.9 464.7 461.2 459.9 458.8 457.7 455.2 455.3 455.1 454.6 453.4 445.2 443.5 439 438.5 436.4 435.1 435.3 436 436.4 434.6 437.2 437.5 434.5 432.2 428.7 428 426.7 425.9 421.8 423.2 423.8 422.6 420.3 417.7 416.9 417.4 416 415 413.1 411.1 409.9 410.4 409.4 411 412.2 410.9 411.7 411.6 412.1 412.1 409.6 408.8 407.6 403.9 400.4 397.2 395.5 392.7 390.4 386.6 380.2 373 379.1 383.5 382 378.8 378.1 374 371.7 366.9 361.6 356.5 351.5 341.8 337.5 329.5 327.5 319 313.1 306.7 302.1 299.1 296.8 294.4 293.7 293.3 295.2 297.4 298 297.3 297.6 299.6 304.2 308.1 320.5 337.6 344.9 363.6 377.9 389.6 401.4 413 422.8 425.6 433 444.5 446.8 463.8 479.4 505 516.8 523.6 532.1 535.1 544.6 560.2 560.5 560.6 559.7 560.8 565 566.1 565.2 565.5 565.6 566.7 568.1 570.8
288.6 296.1 300.9 306.9 317.5 322.5 328.2 339.2 342 351.8 359.2 363.3 365.9 367.5 369 371 377.3 391.4 396.5 392.6 391.5 384.7 388.3 398.7 405.2 400.7 403.7 411.2 417.2 417.5 418.2 418.9 419 420 421.5 426.4 432.1 438.6 450.6 457.2 460.2 454.4 460.8 464.5 471 471.6 472.1 468.7 465.9 465.9 463.4 455 452.6 452.5 448.4 446.1 453.4 456.2 456.3 456.4 458.8 471 472.7 469.4 466.2 462.9 456 461.6 470.8 473.7 470 466.9 464.5 460.9 456.8 454.8 452.8 453.8 454 454.1 454.3 452.5 447.4 440.4 437.9 435.9 438.3 440.5 440.1 439.7 437.2 436.9 438.1 439.6 437.3 435 434.4 434.4 434.1 433.3 434.1 433.1 432.4 433.2 431.8 430.3 429.1 428 428.3 426.5 426.3 424.7 424 423.9 423.4 422.6 421.2 422 421.6 422.5 420.7 420.2 420.3 418 415.8 412.4 407.8 406.1 402.1 397.3 394.7 392.1 387 388.3 388.1 390 388.4 386 384.7 382 378.8 374.6 370.9 365.7 361 351.8 343.6 340.6 333.7 325.2 319.3 309.3 304.2 304 300.4 296.5 294.4 293.1 292.3 292.6 293.2 294.5 295.8 297 298.4 301.6 313.7 321.3 334.7 349.4 367.2 378.8 395.7 404.1 410.9 419.3 426.8 438.9 448.6 454.9 462.1 494.8 506.1 512.2 521 532.4 536.6 544.5 553 556.4 560.5 561.8 562.7 563 563.4 563.9 563.3 563.7 566.7 569
290.6 298.3 302.8 307.8 309.9 324.8 328.5 335.6 342.1 352.2 358.9 363.5 366.9 368.4 369.7 371.4 379.2 391.3 394.7 391.1 391.9 383.1 386.7 397.5 400.9 397.1 403 412.3 418.1 419.2 420.2 418.2 418.4 419.2 423.8 432.1 438.7 447.4 454.2 461.3 461.7 451.1 454.1 457.5 460.9 462.3 465 463.2 463.1 466.6 462.9 453.1 452.3 448.4 440.3 450.4 456.7 458.1 456.1 457 465.7 468.2 466.9 463.3 460 454.4 457.9 464.5 468.2 467.7 465.8 464.1 460.8 456.1 453.5 450.1 449.8 453.1 454.8 455.8 454.3 448.8 441.8 437.5 438.5 440.3 445 445.2 441.3 440.4 439.7 439.9 441 442.5 442.1 440.9 441.2 440.9 442.1 442.7 442.2 441.7 441.5 441.1 440.3 439.8 438.4 440 439.4 439.4 438.9 437.7 437.8 438.8 437.8 436.9 436.6 433.8 432.4 431.4 430.5 429.6 429 427.6 425.8 419.6 414.8 410.9 409.2 405.4 400.9 399.2 400.1 397.6 395.4 393.4 391.7 389.6 389.6 387.7 384.7 382.6 378.3 374.2 368.8 359.8 353.9 346.9 339.7 331.3 325.8 316.5 311.9 310.3 305.1 300.5 295.8 293.9 291.2 291.8 292 292.5 293.6 293.9 294.6 296.1 299.9 305 313 328.2 347.4 362.5 379.9 388.4 397.7 409.8 425.1 431.7 445.8 450 458.5 476.3 497.2 504.9 517.4 529.1 533 537.8 549.5 557.5 561.3 560.6 561.2 561 561.4 560.8 560.5 563.6 565.1 568
292.7 298.2 304 307.7 306.3 315.2 328.8 332.8 342.2 344.5 356 363.6 367.4 369 370.4 371.5 379.8 389.7 390.5 387.7 388.3 381.4 385.5 394.9 395.9 394.8 402.8 412 417.4 419.8 419 417.7 418.3 419.6 428.3 438.3 445.1 450.6 459 466.8 461.1 451.4 448.6 451 453.2 456.5 458.2 456.8 458.5 462.7 457.6 451.4 450.3 444.3 439 451.5 457.4 455.2 454.7 458.5 462.4 462.1 459.3 456.2 452.8 454.3 459 462.7 464.3 464.1 463.4 460.4 455.9 452.9 450.3 448.3 447.5 450.7 452.3 450.7 446.4 441.6 441.2 444.9 443.3 446.7 446.9 442.8 443.5 445.1 446.5 447.5 448.9 451.7 453.4 454.8 455.3 456.8 459.2 456.5 455.9 454.7 455 455.2 453.3 452.6 452.3 453 452.7 451.6 451.1 450.6 449.2 448.5 447.1 446.9 448.3 444.8 441.6 442 441.6 440.3 441.9 442.7 436.7 429.5 424.6 418.7 414.6 412.8 411.4 409.4 407.2 403.1 402.1 398.5 398.2 394.5 392.3 391.7 387.6 387.2 382 379 374.6 369.1 361.1 355.6 348.2 338.7 330 322.6 318.1 315 309.2 304.4 300 294.2 292.9 290.9 290.4 290.8 289.9 291 291.8 293.3 295.4 298.9 306.1 313.6 330.6 356.7 371.2 380.1 390.7 404.9 418.8 427.6 435.6 443.8 454.3 467.3 480.1 497.9 507.4 518.7 527.2 538.7 542.5 551.7 557.6 558.6 559.5 560 559.2 558.4 557.6 558.5 561.8 565
291.6 297.9 303 304.4 306.2 313.6 326.1 330.7 342.3 344.3 357.4 362.7 366.1 369.3 370.3 371.5 378.6 386.4 385.4 382.8 382.1 378.5 382.4 387.8 391 392.7 401.3 410.3 415.5 418.7 416.9 417.1 418.8 421.9 433.6 444.2 448.2 452.9 463.6 469 459.3 450 448.3 446.9 449.4 451.7 451.9 452.3 455.7 459 451.9 449.3 446.5 437 446.6 451.1 451.4 448.6 450.9 454.3 456.1 456.7 452.5 449 452.3 455.2 457.4 459 460.4 461.3 459.2 456.6 453.8 451.4 449.2 447 447 447.3 446.6 443.8 440.5 443.8 449.6 447.7 444.9 446.8 444.4 446 450.2 452.7 456.2 458 460.6 463.1 464.8 467.3 468.6 472.2 473 471.2 471.3 470.1 468.6 466.7 467.9 467.6 468.3 468.7 467.7 465.1 463.6 464.5 463.9 462.4 461.1 459.5 458.6 456.8 454.4 451.2 448.6 448.9 449.7 448.7 443.7 438.3 432 428.1 427.1 425 422.3 418.4 414 410.6 407.2 404.9 405 402 397.5 396.4 392.4 389.3 386.6 385.2 382.1 376.4 370 364 357.4 349.6 339.1 331 322.1 319 314.3 310.9 305.9 297 295.6 292.4 290.4 288.1 288.7 288.4 288.2 290.6 292.1 295.8 300.5 308.3 322.6 346.6 362 375.4 387.3 401.2 408.7 422.5 427.9 439.4 450.4 458.9 471.7 486.5 498.2 511.9 522.2 532.1 538.2 540.2 551 555.5 556.7 556.8 557.9 554 554.2 557.4 561.4 561
290.2 296.3 301.3 301.8 305.2 307.4 324.2 330 342.4 343.7 355.6 365.4 366.5 368.6 370.2 371.5 377.1 382.4 380.3 379.6 378.5 381.3 392 400.1 397.5 394.3 400.3 407.8 413.1 416.6 415.7 416.9 419.5 425.4 437.1 446.2 448.7 454.5 466.3 468 457.9 449.7 447.2 444.1 447.5 448.3 447.7 449.2 455.5 453.9 449.4 446.8 444.1 435.3 445.5 445.6 442.2 441.1 443.8 445.7 449.7 449.7 449.1 454.9 455.1 455.1 455.9 456.8 458 457.6 455.8 455.5 453.7 451.1 448.7 445.9 445.2 444 443.6 448.4 451.3 452.1 453.5 452.9 452.8 453.3 457 460.1 462.2 462.6 466 469.5 473.4 476 476.3 473.9 480 481.1 481 479.8 480 479.9 479.3 479.8 479.6 481.5 481 483.2 482.6 481.7 477.8 480 476.7 472.9 470.9 472.9 469.8 468.5 468 466.4 461.6 459.1 457.3 454.8 450.2 445.3 444.3 441.5 436.1 433.8 429.9 427.8 424 418.3 415.7 412 410.9 410.7 409.3 405.2 400.3 395.1 390.7 387.9 389.4 383.7 378.1 372.5 365.8 359.6 347.6 337.2 330.5 323.8 317.2 312.8 305.3 303.7 300.7 295.7 292.2 289.9 288.4 287.3 287.3 288 289.2 291.7 295.9 303 323.9 336.3 349.6 363.2 381 386.3 395.5 409.1 423.2 434.4 443.9 452.1 465.2 473.1 487.7 500.3 512.8 523.3 531.1 535.4 541.5 552.1 552.2 551.2 549.6 547.8 550 553.3 558 560.1
288.2 293.9 299.5 299.9 304.6 306.6 323.3 329.7 342.8 343.7 354.1 364.3 365 367.3 371 372.1 375.3 377.7 377.2 376.8 377.4 388.1 397.5 407.7 403.7 397.8 401.3 405.5 411.3 415.3 414.8 416.9 419.4 429.2 438.9 444.6 445.6 455.1 465.8 466.5 456.4 450.6 448.4 446.8 444 444.5 444.4 449.1 452.8 448.3 443.1 444.4 440.6 435 441.2 438.9 433.4 433.2 433.4 437.5 438 444.4 453.9 455.8 456 454.5 455 455.4 455.6 453.8 453.5 454.3 453.2 451 449.4 447.4 446.4 451.8 456.6 457.4 454.9 455.3 457.6 458.4 459.1 462.3 465.6 468.5 473.4 477.9 477.1 481.2 482.4 482.9 482.7 483 484.8 485.7 488.1 487.2 487.9 488.4 489.5 490.4 491.7 493.6 498.2 499.8 499.1 497.4 495.8 494.5 492.9 489.4 488.4 486.6 485.9 483.6 480.7 477.3 472.5 468 464.9 462.3 456.8 452.1 449 446.6 444.8 443.2 440.1 435.5 431.9 427.5 424.8 421 417.3 413.8 413.9 412.5 408.7 402.9 398.4 392.3 391.8 391.7 384.7 379.4 373.2 366 358.8 348.3 339.2 330.7 322.7 316.5 311.8 308 304.2 298.6 295.6 293.7 290.7 288.1 286.3 286.7 286.2 289 292.3 299.1 313.8 316.8 334.3 351.2 367.1 385.5 390.1 400.4 413.6 427 439.6 447.6 461 472 483.9 498 504.2 516.4 523.1 533.6 534.8 544.4 546.4 544.6 542.5 542.7 545.9 550 555.5 557.8
285.5 291.6 296.8 299 305.9 305.1 320 331 336.7 344.1 351.5 361.7 365 366.9 369.3 370.9 373 374.8 375.6 376.8 382.1 391 400.7 409.7 405.9 404.5 409.9 405.3 410 414 414.6 416.9 421.6 432.7 441.1 440 443.8 453.5 463.8 463.1 455 451.7 449.2 447.7 444.1 441.4 443.2 448.2 447.8 445.5 443.1 441 436 431.4 438.1 433.6 430.6 429.8 431.3 440.5 447.3 452.1 454.6 454.4 455.6 452.8 453.7 454.5 454.9 450.6 450 451.6 452.3 451.3 450.7 450.6 453.2 458.2 459.4 458.8 457.4 457.6 461.1 464.1 467.6 471.7 475.8 480.3 481.8 482 484 485 485.9 487 492.8 493 494.7 497.5 496.5 495.7 496.9 498.6 501.1 503.5 506.2 507.2 508.2 508.2 507.8 507.8 506.8 505.6 505 505.1 505.1 501.4 497.2 492.4 489.4 484.7 481.6 479.2 476.9 472.3 466.6 462.4 458.1 454.2 449.5 447.8 445.9 444.1 441 437.7 431.2 429.1 425.5 420.4 416.8 415.1 411.1 408.4 403.3 401.6 394.4 393.9 392.2 384.7 378.7 372.8 367.1 359.9 350.2 339.2 330.1 322.3 315.1 310.4 306.7 301.9 297.4 295.8 293.5 289.6 286.7 285.1 284.9 284.9 288.6 292.8 298 306.4 318.7 335.8 351.4 371.5 382.7 391.1 398.6 421.7 437.1 446.4 454.8 465.2 479.3 495.5 501.9 507.9 516.5 523.5 531.6 535 536.2 535.9 533.8 532.2 540.7 546.8 553.4 554.9
282.1 287 292.1 299.7 304.9 301.6 310.2 329.6 333.4 343.9 348.8 357.6 363.9 366.8 369 370.7 372.1 374.4 375.6 376.8 382.1 391.8 402.5 407.6 405.6 409.1 411.5 403.2 408.7 410.3 415.1 418.3 423.5 432.9 438 435.5 441.5 451.3 459 458.8 454.6 452.1 450.4 447.4 442 439.1 441 444.1 445.5 445.1 440.8 439.4 434.4 431.5 435.7 430.1 429 429.9 437.5 444.2 447.9 452.5 455 455.6 455.3 451.6 452.8 453.5 454.5 447.7 445.2 448.1 451.6 453.1 454.5 456.1 457.3 460.3 461.8 461.7 460.7 465 473.2 478 478.8 481.8 483 483.9 486.3 487.9 487.3 491.9 496 499.8 499.9 503.5 504.6 506.2 506.6 506.3 508.5 513 516.7 519.1 520.7 521.2 520.5 520.2 519 519.6 519.1 517.6 515.5 513.6 515.2 515 511.5 506.8 501.7 494 491.2 488.8 484.6 481.3 479.2 475 468.7 464.7 458.7 454.8 452.5 448.3 445.7 443.6 440 436.5 432.6 428.5 422.4 417.4 414.3 410 406.7 405.9 403.7 397.6 394.6 389.2 383.7 378.5 372.9 367 358.2 348.5 339.4 329.8 320.9 314 309.8 304.2 298.9 294.6 292.6 291.9 285.7 285.2 284.6 284.1 284.5 287.9 292 298.1 309.1 319.2 337 348 361.3 380.5 400.4 415.8 431.1 441.2 449.8 460.6 473.3 487.8 496 506.1 508.9 515.8 522.9 527.5 526.1 526.2 525.4 524.2 533.2 539.7 544.6 547
282.7 285.8 291.1 297.7 300.2 300.5 308.7 327.1 333.4 337.1 348.4 356.5 363.1 365.5 367.7 369.9 372.2 374.3 376 377 382.2 393 402.4 404.1 402.7 408.3 407.6 401.8 404.7 413.6 417.1 418.8 423.7 430.8 431.7 429.7 438.4 447.6 454.3 455.3 455.2 454 452.2 447.7 437.7 437.2 438.8 440.6 448.4 445.9 437.3 435.8 430.3 435.4 433 428.5 427.8 436.6 445.2 445.8 448.1 450.5 452.4 453.2 452.4 450.8 451.5 450.7 448.6 442.9 442.9 446.8 450.5 454.1 458 460.4 459.7 463.3 465.2 468.8 472.6 476.2 480.1 481.9 483.7 484.1 486.7 488.9 493.3 496.4 497.6 501.3 501.7 505.3 505.1 507.2 510.1 513.3 515.8 519.1 521.6 525.5 529.3 532.1 532.8 533.5 532.8 532.1 531.2 531.3 530.3 529.4 526.5 524.3 522.2 522 521.1 518.1 513.7 507.9 504.4 500.8 496.5 492 488.7 484.4 479.2 474.4 474.8 466.5 462.4 457 452.6 449.9 445.3 442.5 440.3 435 428.8 423.9 421.3 417.1 414.5 411.4 408 406.1 402.3 395.7 389.6 384.1 379.2 372.7 366.9 359.2 348.2 339 327.7 318.1 312.2 306.7 301.4 296.5 293.8 293.1 286.8 284.6 284.1 283.7 283.4 284.5 288.5 293.9 300.5 309.8 322 328 346 370.9 392.1 407.4 421.9 432.8 442.9 452.9 463.6 477.8 487.7 497.4 503.5 507.2 513 516.6 518 519.3 518 518.6 522.4 528.7 535 540
288.1 294 295.7 296.1 297.7 300.9 307 318.2 333.1 336.1 347 352.8 359 365.3 366.6 368.8 371.1 373.9 376.2 377.4 382.9 393.3 399.9 400.5 398.1 404.2 402.2 399.7 412 418.3 420.5 420 424.1 425.4 425.5 427 434.6 442.7 448.2 452.5 457.4 458.1 456.8 452.9 441.7 436.9 438.2 440.3 450.6 445.1 433.4 431.3 428.4 435.1 430.7 427.8 433.9 444.4 446.5 444.6 444.7 445.2 446.1 445.9 446.1 446.8 447.6 447.1 441.2 440.6 442.1 445.7 449.9 456 460.5 464 464.3 471.8 476.3 479.3 480.1 479.8 480.8 484.4 487.5 490.9 493.3 496.8 499.3 502.9 506.1 509.5 508.3 509.1 512 517.2 521.9 527.2 529.7 531.6 535.8 538.3 541.2 543.5 543.3 542.8 543 544.4 543.1 543.9 542.8 540.7 537.7 535.4 532.8 530.5 529.2 527.8 525.7 523.7 520.5 517.3 510.4 504.7 500.2 497.3 492 485.4 483.1 478.6 475.7 472 463.7 460.2 455.5 448.8 445.5 443.1 436.3 431.4 426.5 425 421.6 416.7 410.3 409.2 407.1 402 393.2 388.5 383.5 377.9 372 366.2 357.6 347.1 336 323.9 315.7 309.3 304.9 298.7 294.8 291.3 288.7 284.5 283.7 282.9 282.2 282.9 286.5 290.3 295.9 306.6 313.3 325 340.6 358 381.6 399.7 416.1 427.2 436.3 446.2 455.7 463.8 477.7 485.2 494.5 502.1 506.1 509.9 511.6 512.3 512.4 513.9 515.9 519.1 524.3 530.3
292.7 297.7 297.6 295.5 297.6 301.6 307.5 316.3 333.2 335 342.6 348.8 358.5 365 366 368.1 371.9 374.1 376.4 377.9 383.6 392.9 396.6 395.7 392 398.2 395 409.3 420.6 427.1 424 420.5 422.1 423.1 427.1 428.4 431.6 438 444.1 451 458.3 460.6 461.7 459.9 449 438.4 437.5 442.4 449 443.3 434.2 428.7 431.7 431.3 425.2 431.5 442 448.4 443.5 439.3 437.7 437.2 436.8 437.4 438.8 442 441.8 440.3 438.4 441.3 443.8 449.3 455.3 458.5 461.5 467.4 474.5 478.2 479.6 480.2 481.5 480.9 483.3 488.2 491.8 496.2 500.2 503.9 505.6 509.8 514.2 517.4 517.7 520.4 525.4 531.6 533.3 537.7 541.4 544.8 549 550.4 550.9 551.8 552.9 552.5 553.8 555.1 555.7 555 554.3 551.4 547.6 544.4 540.8 540.9 539.3 537.8 536.4 534.2 531.5 529.1 525.9 522.6 518.6 512.5 504.8 500.4 494.4 490.4 487.9 483.1 477.5 473.8 468.3 460.8 453.9 447.3 440.3 437.5 432.8 430.5 427.2 423.5 416.9 410.4 408 406 398.9 392.4 388.2 381.5 376.3 369.7 364.2 355.6 344 331.8 320.5 314.4 306.4 301.1 296.1 291.9 289.5 287.8 284.1 282.3 281.8 281.8 283.8 290.3 297 301.5 308.6 320.1 333.3 347.9 367.8 388.7 404 418.5 430.7 443.5 449.8 459.1 471.1 481.9 489.7 496 501.7 505.6 507.9 508.5 507.7 506.3 510.9 512.2 515.8 521.9
296.3 300.4 297.7 295.6 299.3 302.9 307.4 314.6 329.6 334.8 339.9 348.4 357.5 359.4 365.9 368.3 371.2 374 376.5 378.9 382.9 390 390.2 388.3 388.6 396.1 405.1 415.9 427.1 433 426.2 422.9 422 423.9 429.3 429.4 430.1 433.8 439.6 449.1 455.9 459.1 462.9 462.2 451.7 437 436.3 443 447.1 442.2 434.6 428.4 429.1 426.2 426.4 434.1 447.5 447.7 439.1 431.6 430.5 430.5 430.4 432 431.8 434 434.7 436.7 441.2 445.3 447.8 453.3 459.3 463.5 466.8 472.6 476.2 477.9 477.4 481.1 481.6 484.4 487.7 493 498.1 504.7 508.6 512.4 515 519.6 523.6 528 530.6 534.7 538.3 541.9 547.1 550.3 552.5 556.8 559.9 561.6 560.9 561.7 563.6 562.8 565.2 565.3 564.8 565.9 564.7 562.2 557.7 552 549.9 549.8 547.8 547 545.8 544.6 543 541.7 538.8 535.9 533.3 530.4 524.4 521.2 517 509.6 502.4 497.1 493.8 487 482.2 475.7 469.8 460.1 450.7 443.6 438.9 434.8 430.6 427.8 422.6 417.7 410.8 406.9 402.8 398 391 385.9 380.8 373.9 368.6 362.4 350.1 339.4 327.3 316.4 308.6 302.9 297.7 293.4 289.3 287.1 285.4 283.1 280.4 279.8 281.6 287.8 292.7 295.4 301.7 312.6 323.8 338.8 357.5 379.7 397.2 411.4 423.8 436 445.3 454.5 463.2 476.1 485.1 489.8 497 502.2 504.3 504.3 502.5 500.6 502.5 505.8 509.1 511.9
298.8 301.7 296.1 294.7 300.5 303.9 306.4 314.7 326.3 333.9 337.4 346.6 351 359.4 365.2 368.3 377.6 379.2 377.7 379.9 382.6 387.1 385.1 386.6 390.3 400.1 409.1 417.6 431.6 434.2 426.8 422.8 422.7 428.1 431 429 429.7 431.3 435.4 445.3 451.1 455.2 460.1 457.8 449.1 435.5 434.9 442.6 443.8 439.4 434 428 422 421.8 426.2 434.7 447.7 446.9 436.3 430 427.7 428 427.5 428.5 429.8 435.3 442.8 447.4 448.6 451.6 455.4 457.5 458.1 463.8 467.8 473.2 476.8 477.8 479 483.3 488.7 491.5 494.5 498.5 503.8 511.2 516.4 521.1 525.7 529.6 532.1 536.7 540.9 545.2 549.4 552.8 555.2 560.5 563.2 566.3 571.2 573.9 575.9 576.3 577.4 578 577.7 575.4 571.9 571.5 569.9 566.6 564.4 558.7 557.2 557.2 556.6 555.9 553.9 554.3 554 554.2 552.2 549.8 547 544.6 541.8 538.9 535.3 530.6 525.5 520.8 511 501.8 497.4 491 484.8 474.7 465.5 453 446.2 440.5 436.6 431.4 426.5 423.2 415.1 411.5 404.3 400.1 394.9 390.5 383.6 376.8 371 366.1 357.4 344.9 333.1 320.2 311 305 299.3 294.5 290 287.6 286.2 285 282 281 279.9 284.3 286.8 290.1 294.8 305.4 317.8 331.4 347.7 369.3 391.3 407.5 418.8 429.5 441.1 450.6 458.1 468.7 478.9 486.1 492.5 498 500.1 498.4 494.9 493.5 495.2 499.3 501.9 505.5
300.8 302.8 295 291 300.8 302 307.6 314.2 323.6 331.8 335.7 339.1 350.3 357.9 362.9 370.1 382.7 382 379 379 382.5 385.5 384.2 388 394.1 401.5 412.5 422.6 432.5 433 425.8 421.9 425 432.2 431.5 428.5 428.1 428.7 432.6 439.9 444.9 449 454.3 450.6 443.1 432.5 434.1 439.4 439.3 434.9 430.3 426.9 424 422.8 425.6 435.6 444.9 442.7 433.9 426.6 427.7 427.6 429.6 430.8 432.8 442.1 451.8 455.4 454.5 455.8 459.6 462.3 463.2 466.2 470.2 477.1 479.3 482.3 483.9 488.9 493.1 498.9 503.3 503.7 507.3 515.9 523.2 530.1 536 542.7 548.8 552.5 555.5 557.7 562.1 566.8 571.4 572.4 576.1 580.1 583.2 585 587.8 589.6 590 591.6 591.3 589.6 586.7 582.3 578.7 574.4 569.7 565.8 565.2 564.2 564 563.7 563.9 563.3 564.1 564.1 562.6 561 558.9 556.5 553.9 550.5 548.1 544.3 541.9 537.1 530.7 523.6 516.1 510 501.1 489.3 479.9 471.8 459.3 449.3 443.2 439 432.6 426.8 422.2 417.5 410.4 403.3 398.3 393.9 386.6 381.3 375.7 370 363.1 351.4 340.7 327.5 315.7 309 301.6 295.9 292.8 288.3 286.6 285.3 282.8 280.9 278.4 279.8 283.5 286.2 291.1 299.6 309.5 322.4 339.5 355 380.4 400.2 412 424.9 436.6 446 454.5 461.7 472.4 479.1 486.6 491.7 493.7 491.6 487 486.2 487.5 492.3 493.9 498.7
302.5 303.5 294.6 290.6 299.7 301.5 306.9 312.6 320.9 331.2 336.2 338.7 351 357.6 363.7 373.9 386.5 383.7 380.2 380.4 381.5 380.9 385.8 394.4 400 404.7 415.1 424.3 430.5 428.8 422.5 422.4 429.1 435.5 432.5 427.9 427.1 426.5 429.2 434.7 438.9 444.5 448 444.6 435.3 428.6 430.7 434.7 433.3 430.6 427.2 425 423.1 419.8 424.6 433.2 439.8 437.4 428.9 427.2 431.3 428.4 430.1 432.5 437.2 449.4 457.4 457.9 456.9 459.1 463.2 464.9 465.2 468.1 477.9 483.8 484 482.4 491.6 496.5 500.1 505.9 508.9 509 514.2 526.3 535.9 543.9 552.5 560.4 565.7 567.9 571.3 575.8 579.5 584.5 588.2 594.8 598 597.4 600.7 606.2 603.1 609.1 615.6 609.5 602.4 602.7 596.6 591.2 586.8 583.9 581 577.3 576.3 574.5 573.3 573 573.3 572.8 572.2 571.7 570 567.8 566.1 563.3 561.9 560.7 557.1 552 549 544.8 540.1 535.2 528.9 523.1 515.3 503.6 492.6 486.9 474.9 462.3 449.8 441.3 437 433.2 426.6 422.9 417 408.4 402.6 395.1 390.6 384.5 379.1 372.7 367 356.9 346.4 333.5 320.2 310.3 302.3 297.2 292.8 289.2 286.4 284.2 280.1 278.7 279.2 279.6 279.6 284 288.1 295.2 303.5 316.4 329.7 349.6 370.9 391.1 406.7 418.9 431.2 441.8 449.6 457.4 465.9 473.4 480.1 485.6 486.6 484 482.5 482.7 483.4 485.4 487.2 492.1
303 303 291.7 290.3 294.3 300.4 307.5 313.8 319.9 326.4 334.6 338.9 347.9 356.7 363.6 376.5 387.5 382.8 380.1 380.7 381.5 382.6 392.8 402.9 405.7 407.5 414 420.8 425 423.5 418.8 425 432.5 438.4 432.9 428.4 426.3 425.3 425.6 429 433.3 440.5 443.7 439.6 431.1 426 426.5 429.5 428.6 426.7 423.5 422.8 420.9 416.8 423.7 430.6 434.2 432.1 426.3 431.6 432.7 429 432.9 436.5 442.5 452.7 458.3 458.7 459.3 462 464.8 465.1 466.2 478.3 483.1 488.4 487.6 492.7 496.4 500.9 504.8 509.5 513.9 519.7 531.9 545.6 556.9 565.3 571.9 577.2 580.9 585.4 589.5 594 600.3 604 607.2 615.6 626.3 625.7 628.1 628.6 625.9 626.7 626.4 625 622 618.3 612.5 599.8 592.7 590.7 589.9 587.1 584.6 581.9 581.9 583.1 582.5 581.1 579.9 577.2 575.6 573.9 572.6 569.1 566.1 563 560.5 556.8 552.9 547.3 543.4 539.7 536 530.6 522.7 514.1 502.8 499.9 487.5 474.5 461 446.3 441.8 438.4 431.7 427.3 422.5 414.5 406 399.8 393.8 386.8 382.7 375.8 370.2 360.3 351 339.2 325 312.9 303.9 299.7 294.8 290.7 287.4 285.7 278.4 278.6 278.3 277.1 278.2 280.6 285.1 290.4 297.8 311 323.9 340.7 363.9 385.4 401.1 412.8 425.2 437.3 445.9 452.7 459.5 469.6 476.3 480.4 481.9 481.5 481.1 480 475.9 477.7 481.1 485.6
302.3 301.6 289.5 286.5 292.6 297.3 306.3 313.7 320.6 323.4 331.6 337.4 343 353.9 364.6 378.2 388.4 380.9 379.1 380.5 380.2 384.1 396.9 407.2 407.8 406.4 410 415.4 418.6 417.4 417.3 425.6 433.2 439 432.5 429.4 428.4 425 423.2 423.9 429.1 437 439.4 437.4 430.1 424.8 422.7 424.2 423.3 422.2 421.1 421.3 419.2 415.8 421.6 427.5 430.6 425.3 430.7 433.6 433.7 432.2 432.9 437.4 445.4 453.6 456.7 458.1 460.1 463.5 462.3 463.3 478.3 483.2 483.9 486.7 489.9 495.4 498.4 503.1 510.7 515.4 522.7 535.8 552 567.2 579 584.7 590.3 595.1 598.2 607.2 616.6 628.6 634.5 641.1 644 643.9 643.8 643.6 644.6 643.5 641 640.3 638.1 636 631.7 628.2 617.8 609.5 599.9 595.8 595.3 592.4 590.6 588.6 588.2 587.2 586.3 586.2 584.4 583.2 582.7 580.6 576.6 573 570 566.3 561.9 558.2 554.2 549.1 544.6 539.8 536.8 533 524.9 516.5 507.5 499.9 496.2 485.2 473.7 459.7 449.6 441.3 436.7 431.2 426.8 419.8 410.4 404 396.9 390.5 385.3 377.8 371.9 365.2 353.4 343.2 329.2 315.7 307 300.9 295.4 292.4 289.2 286.8 284.2 280.3 276.4 276.8 276 279.2 283 286.6 292 304.5 316.7 332.8 352.1 377.9 394.7 407.5 419.8 431.4 439.7 448 455.2 463.1 471.1 477 480.1 480.5 478.5 473.7 468.7 470.4 473.3 477.6
299 299.5 288.2 281.8 287.6 293.9 306 309.7 319.2 320.6 328.1 337.4 342.9 353.5 364.6 378.1 385.6 379.7 378.9 380 381.3 386.5 399 406.8 405.5 403.7 405 410.1 413.5 413.7 417.4 424.9 433.3 436.3 432.8 433.8 433.4 429.6 425 422 425.7 433 435.4 434.2 428.6 423.6 420.3 419.5 418.9 418.8 420.1 421 419.7 415.3 418.4 424.1 425.8 424.8 433.3 435.3 435.3 433.5 433.9 437.9 445.9 451.9 454.6 456.8 459.8 459.6 462 468 479.5 481.5 486.6 490 493 500.7 504.5 510 516.9 528.7 540.6 556.1 569.7 581.4 594.5 606.1 613.9 624.2 629.1 633.6 639.4 642.8 645.7 649.6 650.7 651.7 652.1 652.1 652.5 650.7 650.1 652.4 652.9 650.4 644.3 638.6 633 623.7 615.5 606.8 603.5 606.3 605.1 603 598.8 593.3 590 589.4 588.4 585.4 582.1 578.6 575.7 573.1 571.1 567.8 562.5 557.9 554.3 548.7 543.5 539.8 535.6 529.7 523.3 516.3 509.4 503.7 497.5 492.1 482.3 472.3 459.7 449.5 442.4 435.4 430.5 424.5 417.1 406.9 401.1 394.9 386.7 380.3 374.1 367.7 356.8 346.8 332.8 321.4 310.6 303.5 297.5 293.3 290.7 286.9 284.3 283.8 279.2 277 276.5 275.9 279 282.7 289.7 297.6 309.7 326.4 345.3 369.7 387.9 401.9 415.2 425.8 434.7 442.3 450.6 458.3 464.9 468.7 471.3 472.1 467.1 463.9 460.4 464.3 468 470.6
292.2 295.2 284.5 279.8 289.5 297.9 308.2 315.9 318.6 319.2 323.2 335.5 341.4 354.3 363.3 374.3 381.5 375.4 378.5 379.9 381 388.2 400.3 404.7 401.6 399.5 400.9 405.8 409.2 412.7 418.2 424.2 431.3 432.5 433.2 437.1 436.7 431.7 424.5 420.8 422 428 429.7 429.8 427.6 422.9 421.1 418.9 417 417.4 419.7 422.8 424.5 419.6 413 414.9 419 425.7 433.7 435.2 435.7 434.8 435.3 438.5 443.4 449 451.8 453.8 455.3 461.7 465.6 474.1 480.4 485.9 487.5 491.6 498.7 506.2 511.1 518.2 532.6 547.3 559.8 571.5 582.8 603.9 617 623.5 628.9 634.3 644 644.8 646.7 648.6 651.5 653.2 653.3 654.8 657 656.9 656.4 655.6 655.7 656.5 658.7 656.7 650.5 646.2 641.5 636 629 621.3 616.2 613.2 611.1 606.6 599.9 595.3 592.9 591.2 588.3 585.6 580.6 576.9 575.4 571.6 569.3 566.3 561 558.6 553.4 548.8 542.6 539.1 535.2 527.6 522.7 517.5 512.2 509.6 504.5 493.1 487.5 481 473.4 459.1 447.7 440 433.3 429.3 422.2 411.4 404.5 396.3 388.2 382.5 376.5 370.8 361.5 351.7 341.9 328.2 316.4 307.8 301.3 295.1 291.6 288 284.3 282.3 279.9 277.5 276.5 276.1 274.4 280.7 284.6 291.8 304.3 318.2 336.5 361.4 382 396 409.4 418 429.3 436.3 445 453.3 460.2 463 462.4 463.2 462.8 461.6 458.6 458.2 461.7 463.1
281.1 288 277.6 285.2 291.1 296 309.6 316.8 319.4 319.1 319.2 334.2 339.1 350.7 361.2 373.6 377 372.6 376.9 379.1 381.7 388.4 398.9 401.4 398.4 397.1 398.7 403.3 407.9 413.3 418.7 423.4 428.8 429 433.1 438.5 437.1 431.3 422.7 419.7 420 423.1 424.6 427.1 426.6 422.8 422.2 420.2 416.1 416.8 419.7 423 422.4 411.4 417.6 425.4 424.9 425.2 430.7 433.5 434.2 434.9 437.6 438.3 441.1 446.7 452 455.8 461.3 464.9 468 475.9 482.7 488.2 491.1 499.5 504.1 512.6 520.5 533.3 549.9 561.2 571.9 583.9 607.5 615.1 623.9 628.7 633.8 646.4 648.9 649.8 651.7 654.4 654.9 655.2 655.9 658.4 659.4 659.9 659.9 659.3 657.5 657.6 660.5 660.7 656.5 652.6 645 640.9 634.1 626 619.5 614.9 612.5 602 597.3 595.4 593 591 587.5 585.1 579.4 576.4 574.8 571.4 568.1 564.3 560.7 558 553.2 548.3 541.5 538.1 533.7 526.9 521.3 516.7 512.6 510.8 506.1 493.4 488.1 484.6 477.2 465.9 452 443.7 437.7 432.8 426.3 415.5 406.9 399.7 392.3 385.1 379.4 375 367 357.2 347.9 335.1 322.8 313.1 305.7 298.7 291.6 287.5 285.4 283.8 282 279.8 275.9 275.5 274.8 272.7 282.5 289.2 298 312.1 328.8 352 375.1 389 401.5 412 422.2 431.2 439.7 450.4 456.5 459 462 461.8 461.7 459.2 455 453.9 454.9 456.2
271.3 277.5 271.9 288.5 292.9 299.9 311.5 317.2 319.4 317.2 317.6 329.5 338.9 343.2 358.8 370.3 369.7 373.7 375.6 379.1 381.3 388.4 395.8 398 396.2 396.1 398 402.8 408.1 414.6 419.9 422.6 425.2 425.7 432.4 437.7 434.7 428.9 421 419.1 418.7 419.8 421.7 427.4 427 422 422.4 420.5 415.7 418.8 420.7 416.2 410.3 410.3 425.5 432.1 429 426.3 427.4 430.2 433.4 435.6 438.9 440.6 444.4 450 456.6 462.1 465 467.4 469 477.5 484 490 499.2 506.3 512.4 522.1 536.9 553.7 563.3 569 589.2 610.6 614.2 621 629.1 634.2 644.2 651 652.2 653.2 655.8 657.4 659.4 659.3 661.1 663.1 664.4 664.4 664.7 662.5 659.7 657.8 661.4 661.2 657.7 654.9 649.3 641.7 634.7 628.3 620.4 617.2 604 598.5 595.6 593.5 590.4 587.9 584 582.5 577.2 574.1 572.4 570 566.3 563.4 559 553.6 551.5 545.5 538.4 535.2 530.9 525.5 520 515.7 512.2 509 504.1 493.2 487.9 484.7 477.9 467 454.9 447.3 443 436.3 429.2 420 410.7 401.9 395.7 387.2 382.5 377.3 372.1 360.3 352.1 342.2 329.6 318.3 307.7 297.6 293 290.3 287.1 284.6 282.5 280.9 277 274.9 274.5 273.2 277.3 284.8 293.7 307.5 323.1 342.6 368.6 385.9 396.6 408 417.2 425.8 435.5 445.3 453.9 459 459.1 459.9 458 455.9 453.8 448.4 447.3 448.6
261.9 263.9 275.1 290 297.9 303.6 313.9 320.8 320.9 316.6 316.7 323.6 338.4 340.9 356 365 364.8 372.6 375 377.9 382.2 384.5 390.6 392.6 394.6 395.8 398.2 402.5 408.1 418 421.3 421.1 422.5 423 429.9 435.1 432 425.4 420.3 419.4 417.9 418.4 421 427.7 422.8 420.5 421.8 419 412.5 420.7 419.7 411.2 408.2 419.4 430.3 436.3 436 428.9 427.5 430.8 434.1 437 443.9 447.2 452 457.2 461.8 465.2 467.2 468.4 469.8 479.4 485.1 494.8 503.6 512.2 520.7 537.4 557.9 567.4 578.3 602.3 612 614.6 621.1 628.2 629.5 639.5 648.8 652.2 653.8 655.8 657.7 662.6 665.3 668.6 672 673.7 674 672.4 669.4 665.8 661.1 659.5 662.6 660.7 656.8 652.9 645.9 637.4 634.1 629.2 619.6 610.5 598.6 595.8 593.5 590.2 586.3 584 581.8 580.3 574.6 570.5 569.1 566.5 563.7 561.1 556.5 552.2 547.7 543 536.6 533.6 527.4 523.7 516.1 512.9 510.7 509.4 502 493.4 488.4 484.2 476.7 467.7 458.1 450.5 445.8 439.3 431.4 423.8 413.3 403.5 398.4 390.6 385.6 380.1 374.7 366.3 357.1 348.8 335.1 322.5 312.5 300.8 296.6 292 288.6 285.4 283.5 281.9 279.4 276 274.3 274.3 272.3 282.1 288.5 300.2 317.4 336.7 360.4 379.7 392.6 401.9 412 421.2 429.5 441.5 450 455.5 454.9 453.9 453.6 452.8 452.1 447.5 440.2 432.7
265.4 264.1 273.1 289.5 299.7 305.1 315.6 323.3 321.2 311.7 315.5 321.4 339.1 340.3 351.3 357.8 362.9 369.3 373.8 377.5 382 387.1 394.9 399 395.4 396.7 400 403.8 410.7 423 421.9 420 420.2 420.8 427 432.2 429.7 423.3 419.6 418.1 417.4 417.6 421.4 425.6 420.4 420 420.7 415.7 412 418.8 414.1 405.8 413.2 424.2 435 438.6 438.4 432.3 430.8 433.6 436.6 441.1 448.3 452.8 456.4 459.6 462.8 465.5 466.7 468.3 473.6 480.1 487.3 497.6 507.2 517 530 550 565 580.2 603 615.5 616.7 619.4 627.9 632.3 630.7 641.8 649.6 653.1 654.8 657.6 662.3 669.5 674 676.1 677.3 678.2 679 678.5 673.9 665.7 660.3 660.3 661.2 659.6 656.1 650.4 639.9 632.6 631.5 627 613.8 600 596.4 593.2 590.1 588 583.8 580.9 578.2 577.4 569.7 567.2 565.8 562.8 559.6 557.5 552.6 549.2 546.5 540.8 536.6 533.8 529.4 520.3 513.2 510.2 508.9 507.9 500.3 492.7 486.8 484 476 468.7 460.6 451.4 446.6 441.2 433.5 423.9 415.2 406.4 399.9 392.9 388.3 383.8 378.5 371.5 362.5 353.7 342.4 327.3 314.3 308.6 300.2 294.6 290.9 287.7 285.2 283.7 282.2 278.3 274.2 272.7 271.8 272.9 283.6 294 308.5 329.2 353.5 374.6 387.6 397.3 406.1 415.5 424.6 433.8 442.8 445.9 449 450.5 449.6 448.4 448 445.2 442.4 439.6
269 269.1 273.6 288.4 294.7 306.8 316.5 323.8 318.6 309.4 315.8 319.6 333.2 339.9 345.2 353.9 359.7 365.3 373.6 378.1 383.4 390.7 401.2 402 396.5 398.8 403 407 415 425.6 421.5 418.4 418.4 419 425 429.2 428.2 422.9 419.8 418.1 417.4 417.2 422.1 422 419.7 418.8 417.8 410.7 408.8 411.5 408.8 405.8 416.4 427 434.9 437.1 436.2 431.8 430.4 434.2 436.3 443.4 449.4 453 454.8 457.9 462.2 464 465.6 470.4 477.8 485.8 489.7 500.4 512.2 521.6 538.4 556.3 576.8 604.7 618.3 618.6 620.7 628.3 634.7 634 636.5 642.4 649.7 654.4 656.5 659.4 664.3 671.6 677.5 677.6 678.5 679.3 679.7 677.6 671.3 663.1 659.4 657.7 657.8 656 652.3 641.5 634.7 632.5 627.2 623.4 600.2 597.9 595.2 590.6 585.8 584.4 581 578 575.4 571.4 566.2 563.6 561.6 557.8 556.1 553.6 549.4 547.5 544.6 538.3 535.8 533.4 526.9 516.2 511.3 508.1 507.3 504.8 498.7 491.3 486.4 482.3 474.8 468.4 460.2 451 446.8 441.9 435.9 424.5 417.5 410.9 402.5 395.4 390.4 386.8 381.1 376.2 367.5 359.4 347.7 334.3 322.2 313.9 306.1 298.3 293.8 290.6 288.1 285.3 285.9 281.1 275.8 272.8 272.1 271.2 279.2 289 300.7 320.4 344.1 366.2 379.7 391.5 400.4 410.4 418.7 426.9 433.8 437.3 443.1 445.4 445.6 444 442.7 443.3 442.8 439.3
273.6 271.7 275.9 288.1 293.5 306.2 315.5 321.2 315.7 305.9 310.1 319 323.6 339.6 340.4 352.3 362.4 364.9 373.5 376.8 385.8 394.4 405.4 403.5 396.7 400.5 406.1 410.8 418.5 427.6 420.7 417.2 416.9 417.8 422.9 427.1 428.1 422.3 421.1 419.4 417.5 416.2 420.4 419.1 418.7 417.9 414.4 408.6 408.4 405.1 403.3 408 417.3 426.9 430.4 431.5 430 427.9 427 429.7 435.2 442.6 445.8 448.7 450.7 455.4 459.4 462 465.9 472.6 482.3 488 491.5 504.2 515 527.8 543 566 594.2 617.7 620.9 620.5 625.7 634.4 634.8 638.1 642.4 646.3 650.6 655.3 657.2 659.3 663.8 674.8 678.5 679.1 679.5 679.8 677.5 671.1 666.6 660.7 658.7 655.1 654.7 653.4 648.3 636.1 631.7 630.3 626.2 603.9 597.4 595.5 593.4 585.6 582.2 579.8 577.7 576.3 573 565.5 562.5 559.7 557.1 553.4 552.9 550.7 547.6 546.6 542.2 537.1 534.2 529.4 519.4 513.6 510.7 508.1 507 501.6 494.2 486.9 484.3 479.3 473 466.2 456.1 450.8 446.5 442.1 436.3 426.2 418.2 414.5 406.2 400.2 393.1 388.9 385.2 379.6 373.8 363.6 354.7 343.2 328.8 320.5 312.3 303.7 296.7 292.9 289.6 286.3 284.8 281.7 277.9 272.8 271.7 270.5 271.6 283 293.1 308.2 330.5 355.6 373.3 385.1 394.5 403.7 412.8 418.7 426.8 431.6 435.6 442.8 443.2 443.8 443.6 443.6 443 441.2
272.3 272.5 276 285.3 290.7 302.7 311.1 316.2 311.6 301.3 312.1 318.2 318.6 332 341.3 351.4 361.9 364.8 373.6 377.4 386.9 397.7 406.9 403.7 396.8 401.8 407.6 412.2 419.8 427.4 420 417 416.1 416 420.2 424.6 426.3 424 424.1 420.8 418.6 416 415.7 417.2 418 416.2 411.8 407.7 410.4 408.9 400.6 408.9 415.4 421.6 423.1 423.8 422.9 423.3 425.1 428.9 434.1 438.1 442.9 443.5 446.7 451 455.1 459.7 469 474.8 484.7 488.4 493.9 508 518.7 530.5 550 576.2 609.1 624 623.4 623.9 630.4 635.4 637.8 641 645.9 648.5 652.2 656.5 657.9 658.6 661.9 670.9 677.4 679.3 679.5 676.8 672 668.2 662.4 659.3 657.2 652.4 653.1 650.6 640.4 632 629.7 628.2 604.5 596.1 596.2 595 588.9 582.2 579.4 575.2 573.8 572.3 567.6 560.7 557.3 554.5 553.2 551 548.9 548.1 546.9 544.9 539.2 535 530 523.9 515.3 512.2 510.4 509.1 507.4 499.9 490.9 484.7 478 475.4 468.7 463.2 455.5 449.9 446.8 442.6 435.8 426.8 421.1 415.1 407.8 401.7 397.5 390.8 387.8 382.5 377.8 371 362.7 350.6 337.8 324.7 318.3 307.5 298.9 293.6 291.4 289.4 285.9 282.5 280 277.1 271.3 269.9 270.4 277.8 287.4 302.1 320 344.5 363.8 378 388.4 397.6 404.8 414.2 420.7 424.8 430.5 437.2 440.6 442.8 440.2 443.6 442.7 442.4
271.8 272.4 275.2 281.6 282.8 294.5 302.5 308.3 305 298.9 310.5 312 314.8 329.7 340.3 347.3 356.6 366 374.4 380 388 398.2 405.7 400.7 393.5 402.2 408.4 412.2 419.5 425.3 419.9 416.4 415.2 414.6 417.6 422.2 425.5 425.4 427.7 425.6 421.1 417.3 414.7 415.2 417.1 416.7 414.5 406.8 409.6 411.2 399.7 405.4 410.6 412.7 414.3 416.3 422.1 426.9 425.6 429.3 432.6 434.5 438.5 442.4 446.8 451.3 456.6 462.8 471.4 480.4 485.6 488.7 501.1 510.3 520.5 533.7 559.5 593.1 616.5 626.1 626.4 626.2 629.9 635.4 638.4 645.1 647.6 649.3 652.4 656.5 658.5 661.3 661.2 667.6 671.7 675 673.5 671.1 667 661.9 659.5 657.9 654.2 648.9 644.6 637.2 632.2 629.5 620.5 607.1 594.7 591.3 592.9 591 583.8 578.8 573.9 570.4 570.1 567.4 560 554.8 552.7 552.1 549.2 547.2 545.8 546.4 545.2 540.9 535.8 530.3 524 517.1 512.6 511.4 510.1 509 504.6 494.3 487 483.2 477.8 469.8 460.3 457.1 452.8 448.8 446.3 441.7 435.9 426 420.8 414.2 410 402.3 398.8 392.5 390 387.4 381.8 377.4 370.1 359.5 346.4 333 320.9 312.4 302.6 295.7 291.3 288.9 286.9 283.9 281.4 278.1 274.1 268.7 269.7 269.9 277.9 292.2 309.9 329.3 352.2 368.8 380.1 390.2 398.7 405.7 414.5 420.2 424.9 432.9 439.2 439.4 443.7 440 440.9 441.2
270.1 271 273.1 277.6 274.3 284.2 292.1 298.7 292.4 300.4 307.2 309.2 319 324.3 340 346 352.7 365.2 372.1 379.7 387.9 398 402.9 396.9 393.5 402.8 408.3 410.8 417.5 421.5 419 417 414.6 413.9 414.9 419.8 423.3 424 428 427.9 423.2 416.7 413.5 411.9 415.1 417.3 409.3 404.9 409.2 409.3 403.3 399.4 404.9 406.9 412.5 420.8 431.7 434 428.8 429.5 431.1 432.2 439.1 445.5 453.1 454.4 459.8 468.5 475.9 482.3 484.3 493.8 504.9 512 522 539.4 569.3 608.8 622.4 627.5 628.3 629.6 632.3 634.3 641.5 646.2 648 649.8 652.4 657.6 662.9 666 665.1 666.6 669.2 669.8 669.8 666 661.9 659.8 658.6 656.4 651.8 645.7 636.1 631.3 626.3 605.3 600.1 594.5 588.3 585.3 588 585.1 578.3 573.5 568.8 566.9 565.3 562.1 553 549.9 550.2 548.7 547.1 545.9 545.4 543.6 540.7 536.5 531.6 525.7 518.6 512.8 510.2 510.2 509.8 505.5 499.1 487.9 484.6 481.5 475.3 467.9 461.6 454.5 449.4 446.4 444.2 440 435.4 426.4 421 414.8 410.5 402.7 400 394.8 391.8 389.4 385.2 379.6 376.4 368 354.3 340.3 325.9 315.6 306.2 298.5 294.1 289.4 286.9 283.7 282.6 280.7 277.4 275.5 268.5 269.2 274.7 284.9 299.1 316.6 336.3 355.9 370.4 381.9 389.5 397.4 405.8 415 421.2 425 431.5 438.7 442.7 441.1 438.9 439.6
266.6 267.9 269.7 272.1 269.7 276.6 282.5 288.9 284.4 299.9 303.2 311.7 318.4 322.4 338.9 346.1 352.8 363.3 373.9 378.7 387 396.1 398.7 391.6 394.2 404.2 407.8 408.5 413.9 416.9 416.2 417.3 415.5 412.6 412.7 417 420.4 421.5 425.5 427.9 423.8 416.9 413.4 413.5 415.3 415.2 402.8 402.7 406 405.6 399.2 395.6 404 413.6 414.8 427.6 437.4 436.9 432.9 431.8 430.3 432.6 442.6 453 460.4 460.5 464.8 472.1 476.8 481.2 487.9 499.5 506.5 514 525.4 546.7 578.5 609.5 623.4 627.6 629 633.2 633.5 636.7 641.1 646 648.2 649.2 651.5 658.4 665.6 667.9 666.9 667.6 668.4 668.2 663.6 661.3 660.9 660.1 658 655.4 651.8 645.1 631.7 625.3 604.3 595.6 590.7 584.5 580.6 580.3 580.3 577.5 572.8 567.3 563.5 561.6 559.7 554.5 548.6 546.1 547.6 547.3 544.2 542.7 539.9 539 535.6 530.3 525.5 516.8 511.8 509.5 508.4 508.6 504.4 501.7 490.5 484.8 480.7 476.3 470.1 465.1 459.1 453.1 448 444.2 440.4 437.4 434.4 426.5 420.4 414.1 411 403.5 401.6 394.9 393.1 391 388.9 382.7 379.5 372.6 362.7 348.8 333.9 320.2 310.8 303.3 295.1 291.2 289.1 287.2 284.9 282.1 279.4 276 273.3 266.6 268.5 279.4 290.4 304.5 320.7 340.6 358 371.3 381.7 389.3 396.6 405.4 414.3 419 421.5 423.6 431.2 433.4 436.4 437
260.9 262.3 264.4 266.5 273.2 281.1 278.6 280.1 285.2 299.1 297.8 307.2 316.3 321.6 334.5 343.2 353.5 355 372.3 377.4 385.3 393.1 393.9 387.8 396 404.5 406.3 406.1 409.4 411.7 412.1 415.4 415.3 412.2 411.7 414.5 417.6 418.6 422.7 426.9 423.9 417.3 412.2 408 413.8 410.1 401.7 401.3 403.9 400.9 393 396.3 409.4 418.7 421.2 431.9 439.6 438.5 435.3 429.5 429.9 433 447.7 460.7 465.8 465.5 469.1 475.1 477.6 483.7 492.2 501.9 507.2 516.5 533.3 558.8 589.1 608.9 626.2 627.5 631.7 635.7 634.9 636.2 639.5 644.5 646.9 648.3 650.9 656.7 662.3 666.7 668.1 668.3 667.7 666.2 662.5 660.3 659.6 658.5 656.8 653.3 646.9 639.7 631.7 614.8 593.8 589.4 583.9 576.2 574.5 575.3 573.7 570.5 564.7 560.6 556.4 556.6 554.2 547.4 545.5 545.2 545.7 544.6 539.5 535.3 535.5 533.7 527.8 524.2 518.2 511.2 508.8 507.3 505.9 504.5 500.6 493.3 484.8 480.2 476.3 471.9 467.1 461 456.1 450.7 447.3 444.6 441.3 437.3 433.5 424.1 418.3 414 410.4 403.3 401.4 396.6 394.6 392.3 390.3 387.5 381.8 376.8 368 355.3 342.1 328.3 317.7 307.2 301.1 295.6 290.9 289 286.2 284.1 280.9 277.2 274.6 268.2 267.4 268.8 282.9 291.8 307 325.2 342.9 359.1 371.4 381.1 389.9 396.5 403.9 412.6 415.8 419.9 423 427.2 428.5 426.7
251.9 257.1 260.1 264.4 276.9 285.7 281.9 275.5 283.8 296.2 292.9 304.4 313.9 318.6 328.1 341.2 346.8 354.9 365.5 375.5 382.5 389.1 389.1 387.2 396.9 403.9 403.9 403.1 405.6 407 407.8 412.5 413.8 411.4 410.5 412 415 417 420.7 425.7 423.5 415.2 408.7 403.8 407.4 406.8 403.3 398.9 401.9 399.2 392.5 403.6 416.5 419.2 423 432.3 436.6 436.8 433.9 427.5 431.1 439.2 451.6 462.9 467 467.3 471.7 476.5 480 488.8 496.3 502.3 507.9 520.3 542.2 570.8 607.6 615.7 627.6 629.2 633.8 635.7 636.3 637.1 639 642.9 645.2 647 648.9 653.9 659.8 665.3 667.7 668.4 667.5 665.1 661.9 660 658.4 656.6 654 650.5 642 633.9 621.1 603 586.7 584.1 578.2 573 570 570.3 567.8 562.5 556.5 551.8 551.3 551.9 548.8 546.3 544.2 541.8 543 538.9 531 530.5 530.2 526.5 519.9 515.9 510.6 509 507.1 506.1 500.8 498.7 492 484.6 480.1 474.4 471.5 468.3 464.3 456.7 452.8 448.5 446 443.6 438.6 435.8 432.4 425.4 419.4 414.3 407.7 404.5 402.9 397.2 395.2 393.4 391.8 390 384.1 379.6 369.8 359.4 348.1 337.1 324.3 313.4 303.5 298.8 294.2 290.7 288.9 284.8 281.2 277.3 274.2 271 267.4 266.9 273.5 282.3 294.6 309.3 322.5 342.5 359.2 370.7 380.6 389.7 396.2 403.2 410.5 416.3 419.5 422.2 422.7 422.1
250.3 252.2 258 265 280 287.6 284.7 275.2 280 292.6 289.1 303.3 312.5 318.9 330 341 344.9 355.3 358.7 373.7 378.3 384.3 384.7 388.2 398.3 403.3 401.9 400.7 402 402.8 404.2 409.7 410.9 409.2 407.7 410.7 413.8 415.9 418.7 423.2 421.3 413.1 398.9 400 405.6 407.4 401.2 398.3 401.5 398.8 395.5 408.5 419 416.6 421.5 429.5 432.2 433.4 429.3 425.4 431.9 441.4 453.4 463 464.3 466.1 471.9 476.3 481.8 490.8 497.2 502.5 511.2 526.1 552.5 584.6 609.7 628.1 628 631.6 633.9 637 637.1 638.3 640.8 642.7 644 645.9 648.2 654.3 656.6 660.3 666.2 666.7 666.3 664.7 659.3 658.1 656.7 654.8 648.7 641.9 633.6 617.4 603.7 589.8 581.1 579.7 572.9 569 567.3 565.6 561.7 554.6 547.7 546.7 548.7 547.7 546.1 544.9 539.7 539.9 537.8 528.2 524.9 526.7 525 516.3 513.3 507.8 507.2 507.1 506.5 502.5 497.8 488.2 482.7 479.3 474.6 469.2 466.9 465.4 460.4 454.2 449.6 446.7 444 439.3 434.7 435.6 432 424.1 419 413.2 406.3 404.2 402 396.9 395.2 393.4 391.7 390.2 384.7 380.5 373.2 363.1 351.8 343 330.3 318.8 307.9 300.1 294.4 291.8 288.8 286.7 282.4 277.4 274.2 271.9 268.1 265.5 264.9 267.2 279.2 292.1 306.5 320.6 339.5 359.6 371.5 381 388.4 393.6 399.5 405 408.6 412.9 415.7 417.6
250.3 256.4 261 268.3 281.6 288.3 285.4 273.5 281.4 290.8 291.2 298.5 313.4 317.2 327.5 335.9 344.4 350.6 356.1 372.1 376.5 379.8 381.8 389.7 399.2 404 401 398.6 398.9 399.5 401.2 407.4 408.3 407.2 406 409.2 412.4 414.6 417.4 421.5 418.4 412.6 399.1 398.6 406.2 408.3 396 395.2 397.9 390.3 396.7 410.8 416.8 411.7 419.5 425.9 428.1 429.5 424.2 428.1 432.8 442.7 454 459.4 459.4 464.7 470.4 475.4 483.6 493 499.1 504.3 515.7 533.1 560.7 592.4 612.4 626 630.3 633 635.5 637.4 638.3 637.7 639.9 642.9 641.7 644.7 648.5 651.7 654.2 656.8 658.8 659.3 658.3 658.2 656.9 656.3 654.2 650.7 640.1 630.9 612 596.8 589.2 578.6 577.3 576.3 566.6 564.6 564.2 559.7 554.2 547.3 543.8 542.2 545.3 545.6 544.6 540.7 537.2 535.1 527.5 521 521.6 521.8 512.9 509.7 507.3 504.3 506.5 503.9 502 495.5 486.2 480.5 475.8 473.4 468.9 464.1 461.4 461.3 455.6 451.2 446.7 442.5 437.6 431.3 429.9 432.5 427.2 418.6 415.6 409.8 406.6 403.4 399.3 396.4 394.8 392.9 392.1 390.8 384.3 381.6 374.2 365.2 355.4 344.7 334.7 321.7 310 301.5 294.5 291.3 287.8 285.5 282.7 278.2 275.7 272.3 270.1 267.8 264.9 264.3 264 275.5 288.7 302.2 316.8 335.8 355.8 370.5 379.2 385.5 390.6 394.2 399 404.1 407.4 410
254.4 258.9 264.7 270.7 281.3 287.4 284.6 272.6 281.1 290.8 286.8 293 308.2 316.9 327 329 343.7 345.5 355.6 365.1 371.1 376.6 380.9 390.3 400.2 405.1 401.9 396.3 396.2 396.9 399.7 405.2 405.6 405 405.2 408.2 411.9 415 417.2 419 415 408.9 397.9 398.7 407.9 404 391.8 393.2 394.6 387.5 396.8 409.7 411.9 407.5 416.1 421.5 424 424.7 421.9 429.3 433.7 443.4 451 453.9 454.6 460.7 468.6 475.8 485.7 493.7 500.2 507.9 519.7 538.9 564.9 594 613.3 624.7 631.1 633.1 635.6 636.1 636.4 637 639 640.7 640.4 642.4 646 648.1 650 653.4 655.1 656.2 656 654.6 653.4 653.2 648.4 637.1 625.4 606.8 595 587.7 581 573.3 573.7 570.8 561.4 560.7 560.4 553.6 545.2 540.4 539.5 541.6 543.1 541.5 541.1 537.8 533.2 526.7 519.4 517.5 518.6 511.5 506.2 503.2 500.9 500.8 501.7 499.4 489.5 481.7 477.6 473.9 469.7 466.9 461.5 456.8 456.2 454.6 450 447.2 443 438.2 432.5 421.6 424.7 424.9 418.8 413.7 410.3 407.6 407.1 399.5 397.5 395.7 394.6 393 391.9 390.6 385.3 384.8 374.9 366.2 356.8 347.2 334.9 323.1 311.3 303.4 294.6 289.2 286.1 283.9 280.5 277.1 272.9 270.6 269.3 268 267.2 266.3 264.6 262.6 270.3 284.6 298.7 312.7 330.2 349.1 365.1 375.7 381.7 386.2 390 393.2 397.2 401.5
254.9 260.3 266 271.4 280.4 286 282.4 270 279.7 285.8 281.3 296.2 310.1 322.7 324.7 322 337.1 345.4 352.9 356.3 360.6 375.1 380.2 389.9 399.8 404.9 401.8 394 393.4 394.9 398.6 403.5 403.7 403.2 405.3 409 411.8 414.9 416.4 415.9 411.2 404.7 396 401.8 406.9 397.5 390.6 392 391.7 384.8 395.9 405.4 406 403.9 412.7 417.4 420.3 419.2 425.1 430.3 436.7 443.4 447.2 447.1 450 458.9 468.8 477.2 486.8 495.1 502.1 511.9 525.4 544.9 564.1 586.5 611 626.4 631.3 631.2 632.7 634.7 635.4 635 636.3 635.5 634.7 637.3 640.8 643.3 648 649.6 650.5 653.1 653.7 651.2 649.1 640.8 630.4 615.7 601.3 595.1 587.6 580.1 574 570.1 568.1 561.4 557.6 557.8 554.4 545.7 538.5 533.7 536.8 541.6 539.1 537.6 535.4 531.7 527.1 519.6 514.6 513.8 511.7 506.5 499.9 496.5 493.5 492.7 491.5 484.8 478.1 474 472.4 468 461.2 457.9 452.1 448.6 448.1 446.5 444.8 441.5 436.7 432.4 424.8 418.3 418.4 416.5 413.1 409.8 405.1 404.1 400 398 396.6 394.9 393.6 392.6 390 385.8 385.6 382.7 374.5 363.4 353.7 344.8 334.4 321.4 311.8 302.8 297.3 288.3 284.4 282.5 277.2 274.2 272.3 270.8 269.5 268.8 268.2 267 265.4 263.6 262.2 263.2 280.2 296.1 309.5 324 341.5 357.6 369.7 376.8 381.4 385 388.6 391.6
256.5 261.1 266.5 270.1 277.6 281.4 276.1 266.3 272.1 275.9 287.9 299.4 310.2 323.1 326.1 318.5 327.5 344.7 346.6 349.1 366.5 372.9 378.5 387.3 398.2 402.2 399.1 391.1 390.1 393.2 398 401.8 402 403.2 408.3 412.2 413.1 414.8 415.3 413.5 408.1 401 394.4 402.8 402.1 393.2 391 389.5 386.4 387.7 393.8 401.4 400.6 401.2 410.6 413.1 415.8 417.7 428.5 432.8 437.3 441.5 442.4 441.6 449.3 461.4 469.6 478.9 485.8 496 503.3 514.5 530.4 545.6 561.3 582.6 612.8 627.6 629.4 629.7 631.4 633 634.2 633.8 632.7 632.5 631.3 633.4 636.7 641.6 645.2 646.4 647.6 648.3 645.4 635.6 634.9 619.7 607.8 599.1 591.1 586.3 580.3 574.3 567 565.7 561.2 556 553.8 554.1 548.1 538.8 533.7 530.1 537.4 537.8 534.4 531.8 528.5 524.2 518.7 515.4 511.5 509.8 505.5 500 492.6 489.2 487.8 485.5 480.7 471.5 467.2 467.3 466.4 460.4 449.6 446.6 442 439.6 438.4 437.9 436.9 431.2 428.7 421.1 416.4 416.8 415.3 414 408.8 404.1 400.2 398.9 398.2 397 395.5 393.9 393.1 391.5 386.3 379 376.7 370 361.3 353.8 346 337.5 328.7 317.5 308.8 299.7 292.1 285.4 277.8 276 274.5 273.3 272.2 271.5 270 268.9 268.4 267 264.8 263.6 262.9 262.1 261.6 277.2 292 306.2 318.6 329.9 344.8 358.3 367.4 374.3 378.7 381.8
256.8 260.9 265 267.7 271 271.8 265 267.1 278.6 288.9 291.2 299.1 311.8 324.5 320.5 315.2 323.4 340 347.2 346.4 357.7 368.1 376.5 384.9 393.7 395.9 393.4 385.4 380.7 387.9 392.6 395.6 400.3 404.6 412.7 415.4 414.8 415.4 415.5 413.1 406.9 397.8 391.7 399.4 396.8 391.3 393.1 387.5 383.4 387.9 393.8 397.4 395.5 400 403.7 410.4 416 422.2 429.4 433.6 435.9 438.5 438.1 444.3 454.2 462.8 472 481.7 488.4 496.4 506.3 519.2 534.6 545.4 563.3 589.9 616.6 627.4 628.7 629.8 631 632.5 632.2 631.8 630.1 628.4 625.2 628.1 632.6 637 640.4 641.5 640.6 636.4 628.4 621.7 612.3 602.5 594.6 589.7 584 578.6 573.5 567.5 561.7 560.6 557.4 551.9 551 548.5 540.5 534.8 529.7 533.3 534 530.7 526.7 524.5 521.2 518.6 514.7 511.7 508.4 502.4 499.4 489.5 484.3 481.3 480.1 476.2 468.9 461 459.5 462.1 461.4 453.8 442.9 438.7 432.2 430.1 429.3 426.8 424.8 423.3 419.5 414.4 415.7 416.7 412.6 407.6 402.3 400.4 399.4 398.2 397.4 396 394.8 391.2 387.5 379.9 376.6 371.4 361 356.5 349.7 342.9 335.6 327.4 318.3 308.4 298.4 288.3 280.3 276.5 273.8 274.9 273.6 274.3 275.8 274.2 272.6 272.2 269.7 268.1 266.4 265.7 263.8 262.8 261.3 260.2 274.5 285.2 296.6 306.4 318 329.5 341.8 353.9 362.8 369
255 258.4 260.7 260 261.1 258.9 260.7 274.3 286 292.8 293.2 297.9 309.8 317.8 311.3 313.7 321.9 333.7 340.7 344 356.7 362.8 371.4 378.9 386.3 386.9 385.3 370.7 386.9 393.2 398 401.5 402.9 406.5 415 417.1 417.2 419.2 424.7 420 408.2 397.8 390.3 392.8 391 392.6 392.6 386.8 384.4 387.6 390.3 394.6 396.3 401.9 413.5 416.7 419.6 425.2 432.1 434.1 435.2 433.1 442.9 450.2 456.6 465.5 475.8 484.2 490.3 499.5 510.4 522.7 533.6 546.8 567 596.7 621.6 628.1 627.9 629.2 631.2 631.2 629.4 628.1 625.5 622.5 617.8 622.1 626.5 628.3 626.4 624.4 621.1 615.2 609.5 600 595.7 592.2 585.5 582.2 575.7 571.9 566.3 560.1 556.3 557.1 550.2 547.4 547 541.2 534.7 530.4 527.5 529.4 526.6 521.5 519.2 517.1 514.1 512.6 508.5 506.1 503.5 497.9 483.1 479.2 475.1 472.9 470.6 465.9 457.7 451.2 455.1 459.5 453.9 444.7 437.5 432.8 429.1 418.3 419.7 416.6 418.2 415.5 411.5 414.2 414.6 410.4 404.8 401.6 399.9 398.8 398.1 397.1 395.6 390.3 388.1 380.4 373.8 368.3 362.7 359.1 349.3 342.3 335.9 326.1 315.7 303.8 294.2 284.8 280.3 277.8 280.6 280.4 284 285.8 286.6 287.1 285.9 283.8 281.1 279.3 276.7 272.8 269.4 267.4 265 262.9 261.9 260.9 258.3 270 278.9 287 297.4 304.2 314.6 324.7 335.2 345.9
252.9 254.2 254.4 254.4 255.1 258.7 264.4 278.7 286.5 291.4 293.5 296.9 304.8 312.4 305.9 312.7 321.1 327.9 335.4 340.5 347.9 358.1 363.8 371 376 376.5 376.1 373 387.1 393.9 398.2 401.6 403.6 409.1 415.7 417.7 420.2 424.5 429.9 422.7 409.4 399.5 390.7 387.3 388.3 394.1 390.4 381.7 386.2 389.4 394.3 396.9 400.3 407.5 415.3 418.8 421.4 428.3 432.4 432.3 431.3 434.3 445.2 452.3 459.4 470.5 477.5 483.6 491.4 500.6 511.7 525.1 534.8 551.6 573.6 605.3 624.7 628.5 626.4 628 629.9 629.3 626.9 623.1 619.6 615 606.8 612.8 613.3 609.2 606.1 607 603.8 601.1 597.5 593.5 588.7 581.5 575.9 572.8 568.7 564.3 559.6 553.6 552.9 548.9 545 541.7 539 533.4 528.3 523.6 524.7 523.6 515.5 513.5 511.7 509.1 507.4 504.5 503.4 501.1 497.8 489.4 478 467.5 463.8 462.8 460 454.3 445.2 446.5 450.6 448.9 441.3 435.8 429.4 424.5 415.5 413.4 411.1 410.8 410.5 409 405.4 408 407.3 401.8 399.1 397.1 394.1 390.9 389.6 386.8 382 380.1 373.8 367.5 360.7 352.4 344.9 339 330.2 321 312.1 302.2 291.1 279.9 282.5 287.3 292 297.4 302.1 306.3 306.7 304.3 302.2 296.8 292.8 290.9 286.8 283.4 280.6 276.9 273.8 270.6 266.7 263.9 261.8 260.9 260.4 257.6 261.6 270.3 277.4 284.5 292.1 299.8 308.8 317.7
249.7 250 249.6 252.4 254.8 258.9 264 277.9 284.3 287.7 289.5 290.1 297 303.4 301.7 308.2 317.6 320.9 330.2 337 345.1 348.5 357.3 361.3 364.9 362 361.9 379.8 387.9 394.5 398.5 401.4 404.3 410.1 414.3 416 422.5 426.6 426.4 419.5 407.2 397 389 384.7 388.8 395.8 385 380.8 386.8 395.8 398.9 399.7 405.7 411 414.6 419.4 421.9 428.9 430.1 429.8 428.2 437.2 446.8 453.4 461.9 471.6 477.1 484.6 492.9 502.9 515.2 528.4 540 556.2 581.1 608.5 624.6 626.8 625.6 628.2 629 627.1 622.9 614 609.4 603 598.2 600.2 602.4 596.9 596.1 598.1 597.7 594.7 591.9 587.6 580.7 574.9 567 564.6 562.9 559 552.8 547.4 545.3 541.3 538.1 534.9 531.6 527.2 523.5 516.2 518.8 511.7 506.5 506.4 504.7 502.4 500.1 496.9 497.1 495.5 490.1 480.1 470.2 463 453.9 453 449.6 442.4 432.1 440.8 439.8 435.1 430.1 425.9 421 413.8 406.8 403.7 401 400.1 397.4 397 395.4 394.3 394.5 391.7 386.9 383.5 379.2 376.2 372.7 369.1 362.6 357.9 354.8 348.1 343 333 322.4 315.7 307.3 294.3 288.7 284.9 286.7 296.7 306.3 314.7 319.8 323.7 328.3 327.4 325.5 323.3 318.5 311.2 302.9 296.5 291.2 290 284.4 280.1 276.2 272.3 267.9 265.4 261.7 260.4 259.7 259.6 258.2 260 261.7 267.4 273 280.5 287.2 295
243.7 246.6 252.2 255.5 258.5 264.1 262 274 278.7 280.6 280.8 280.1 286.7 291.9 288.4 297.6 313.9 321 329.3 337.2 341.1 346.1 350.5 351.1 350.4 365.3 375.8 383.7 388.8 393.6 397.9 401.3 405.3 409.1 411.8 413.5 419.7 421.7 418.8 413.2 405.7 394.2 387.5 382.8 386.7 392.5 382.2 382.1 390.6 403.5 408.7 410.3 410.9 415.4 418.8 418.5 421.8 427.2 427.1 427.1 427.2 438 446.6 453.8 463.5 472 478.3 485.7 495.5 504.9 518 531.8 543.4 563.4 588.9 609.1 623.3 623.8 622.5 625.7 627.6 625.3 618.6 606.4 598.7 589.8 589.9 592.2 592.8 591.3 590.6 591 590.7 588.6 584.1 579.8 575.5 569.6 564.9 559 558.1 552 544 540.8 537.7 533.8 531.7 530.4 525.9 522.5 519 513.6 509 497.5 499.7 500.4 498.6 494.2 491.9 491.9 491.4 487.6 481.6 472.9 462.4 458.1 454.7 447.8 438.7 429.1 427.5 430 427.3 424.3 419.5 413.4 408.4 402.1 399 394.6 386.7 381.3 378.7 375.1 369.8 369 366.9 363.9 362.7 362.2 360.5 357.3 354.7 348.4 345.8 341.3 330.7 325.9 317.1 310.4 302 294.6 287.8 289.4 299.4 310.8 320.1 327.5 333.1 340.1 345.2 345.6 346.7 345.3 344.1 338.6 334.3 328.2 320.5 311 303.9 293.6 289.1 286.8 278.1 273.4 272.1 269.5 265.3 261.8 259.1 258.9 258.3 257.7 259 258.7 257.7 262.3 268.5 274.3
241.9 245.2 253.8 255.7 262.7 267.2 264.7 269.5 270.5 267.1 267 268.1 276.1 283.1 282.7 297.3 308.5 318.3 328.3 337.1 339.1 343.7 343 348.8 358.3 368 379.6 384.2 388.1 392.2 396.9 400.9 405.2 407.7 407.6 409.2 414.7 414.9 411.3 407.2 402.7 390.9 385.7 382.3 385 387 379.4 383.3 394.5 408.6 414.6 415.9 415.6 419.4 421.9 421.1 422.9 425.5 424.1 422.8 427.7 435.9 443.2 453.2 463.6 471.7 477.5 487.1 497.4 506.9 518.3 533.8 545.9 566.5 582.4 608.4 621.1 621.6 621 623.8 626.4 624 617.4 606.7 589.1 577.3 578.2 584.9 585.7 584.8 585.2 584.1 583.5 581.2 577.6 572.4 569.6 564.5 561.2 554.7 550.4 544.1 539.9 535.9 531.5 527.5 526.2 524.4 521.5 518 514.4 506.8 495.3 493.4 495 494.9 491.9 487 485.2 485.9 484.7 480.3 473.2 463.5 456.9 454.9 450.3 442.2 432 419.2 419.7 418.2 417 413.4 408.5 402.3 394.7 387.5 381.9 372.7 363 360.1 361.5 353 348.1 346.5 344.4 341.7 340.3 342.2 345.7 340.4 333.6 324.3 322.2 315.5 305.9 297.8 291.8 291.1 289.6 295.8 312.9 322.6 332.6 341.5 347.7 352.8 357 360.5 361.6 360.4 359.4 357.7 353.9 350.9 346 340.5 333 327.9 318.3 310.5 302.5 292.8 286.4 281.3 280.2 276.8 272.1 268.1 262.7 257.9 257.8 257.3 258 257.4 257.1 256.7 258.2 257.4
239.8 242 254.3 253.9 262.2 266.5 263.5 261.9 260.4 261.2 270.7 273 270.3 276.2 278 292.6 304.8 315.3 326.1 335.7 335 340 334.7 345.1 357 367.9 378.9 382.2 386.6 391.2 396.3 400.5 404.9 404.8 403.4 404.6 409.2 408.9 406.9 402.8 399.3 387.9 382.9 379.2 383.7 381.2 377.3 384.2 399 412.1 417.1 416.9 416.8 418 417.8 415.7 422.5 422.7 420.7 419.5 427.1 434.5 444.7 454.2 463.1 470.6 477.8 486.8 497 508 520.4 532.2 546.3 561.3 576.6 605.9 618.1 619.9 621.2 623 623.7 622.5 618.4 610.2 586.3 571.9 572.2 576.3 578.2 578.7 579.5 577.5 575.9 573.9 569.9 566.6 563.7 558.4 552.9 547.4 541.7 537.1 535 531.2 525.2 521.7 521.2 519.9 518 513.4 507.9 500 489.2 491.1 491.5 489.9 484.4 479.7 478.3 478.9 476.9 471.6 463.3 454.6 452.4 449.7 444 435.8 421.3 413.2 409 409 405.8 402.2 395 382.9 372 361.9 355.5 348.9 342.3 339.6 334.4 325.4 313.1 316.2 312.2 307.3 307.1 308.9 309.6 309.7 303.3 298.8 301.7 296.2 297.7 299.5 310.8 319.1 325.2 331.3 341.7 351.9 360.5 367 371.3 377.4 375.1 374.5 372.8 373 370.7 369.9 367.9 363.3 359.1 351.8 346 340.5 334 327.4 320.3 312.4 302.3 295.2 290 286.5 279.9 276.2 269.5 263.4 259 257.3 255.7 256.7 256.5 256.3 255.8 255.5
239 239.3 249.4 253.8 259.8 264.2 261.4 256.5 255.5 266 278 279.8 271 272 276.5 289.6 300.8 310.7 322 333.1 332.5 336.3 327.5 341.2 356.5 370 379 380.3 384.2 390 395.9 400 402.6 401.3 399.3 400 403.4 404 403.3 399 395.4 384.8 380.4 377.3 378.6 373.7 378.8 385.9 401 410.5 413.2 412.9 411.9 411.6 410.5 413.9 421.1 418.9 416.6 421 428.9 439.1 448.2 456.5 462 470.1 480.2 491.1 499.9 508.7 518.4 530 542.1 554.9 568.1 594.2 613.8 619.9 621.6 622.5 622 620.4 618.1 613.4 592.5 572 566.2 569.4 570.5 573.9 573 571.2 568.9 567 563.9 561.4 556.8 550.5 545.4 540.5 535.2 531.9 530.4 527.1 520.1 516.3 517.4 516.2 513.3 508.6 501.7 489.3 485.2 487.1 489.4 484.5 473.7 471.8 471.3 470.8 468.4 462 453.2 448.2 446.6 442.7 436.8 425.9 414.7 409.8 400 397.8 390.9 382.6 372.6 360.5 353 338.4 333.7 328.1 320.5 319.8 322.2 324.8 328.3 330 327.2 328.2 327 321.6 316.8 316.4 317 314.5 314.8 312.9 321.3 329.9 338.3 347.1 351.6 360.7 370.9 376.5 380.9 381.5 381.9 384.7 384.2 382.6 382.4 381.7 378.7 376.1 374 373.3 367.9 363 358.6 353.6 350.2 344.5 337.9 328.3 321.5 313.7 304.6 295.6 288.9 280.9 274.3 271.3 266.6 262.6 254.1 256.4 256 254.7 253.8 254.2
237.6 237.9 244.9 251 253.5 258.2 255.2 254.4 256.6 270 282.1 284.6 274.4 269.7 275.3 288.5 298.6 306 317.2 329.5 328.6 333.4 322 339.3 354.3 366.1 374.6 377 381.2 388 394.3 398.5 399.5 397.8 396.4 396.9 400.1 400.3 400 396.1 391.4 381.7 376.6 369.7 373.8 373.3 379.2 384.6 398.9 403.2 405.2 405.7 406.3 406.7 407.4 413 417.2 414.8 417.4 421.4 429.8 443.5 453.1 457.8 458.1 473.1 485 492.6 500 507.3 517 529.6 538.3 550.1 563.5 588.4 611.4 619.1 621.7 623.9 622.1 621.2 620.8 617.2 600.9 575.1 559.9 562.4 562.3 565.4 567 563.8 564.1 561.3 557.8 556.3 549.7 542.9 537.4 533.9 530.7 528.8 525.7 520.3 514.5 510.1 513 511.3 507.1 501.7 493.8 481.4 482.2 486 482.1 476.2 467 462.8 462.4 462.9 460 452.1 443.6 440.4 438.7 435.7 428.2 417.7 410 402 392.4 376.5 370.1 361.4 349.3 337.7 324.5 325.3 327.6 329.7 335.9 341.1 347.1 353.4 353.1 353.6 354.8 356.1 354.9 347.3 343.7 340.5 335.1 325.5 318.7 331.6 342.1 352.1 362.7 372.2 380.5 384.6 387.2 387 388.1 389.4 389.5 391.5 391.7 390.9 390.4 389.3 387.8 384.8 383.3 380.6 377.2 374.9 371.1 365.6 361.3 356.8 350.4 343.5 335.5 328.9 318.6 309.6 299.3 287.7 285 277.9 274.5 270.7 265.4 262.2 257.2 255.7 253.3 252.8
238.5 235.5 237.8 247.3 248.5 251.1 251.3 252 257.7 273 284 286.9 276.5 266.8 275.5 288.6 298.7 302.9 313.8 324 323.8 326.3 323.3 338.7 351.5 363.1 370.9 372.5 377.6 385.5 392.5 396.9 396.7 395.6 394 394.1 397.6 397.6 397.9 393.6 386.7 377.6 371 355.8 372.3 377.5 379 383 393.2 394.5 397.1 399.9 402.4 403.9 408.2 412 413.2 414.9 418.2 423.4 432.2 445 454.1 454.9 461.2 475.7 484.9 490.8 497.6 505.7 516.9 528.4 536.6 549.6 561.5 590.3 611.2 617.8 620.8 622.4 622.4 623 622.6 619.8 604.9 574.5 560.2 556.1 556.7 557.3 555.4 553.2 554.8 554.3 551.9 547.3 540.9 536 533.5 528.6 526.7 526.1 522.1 514.9 506.2 506.7 508.1 506.1 500.1 493.3 485.2 475.3 478.8 484 473.4 467.3 460.5 454.6 455.5 456.5 452.4 443.9 432.5 431.3 430.4 425.5 415.6 410.3 402.4 387.6 374.5 362.6 352.6 339.3 327.8 331.7 338.1 342.9 351.8 356 360.5 361.8 364 366.7 365.7 365.5 364.6 363 359.6 358.8 357.6 354.2 335 329 341.7 347.2 363.8 373.6 383.4 388.8 391.6 393.6 395.6 396.2 395.6 396.9 397 397.4 398.3 397.9 397.7 396.5 395.9 394 391.4 387.6 385.1 383.6 379.7 377.3 372.8 367.9 362.3 356.5 350.8 344.3 332.1 319.6 305.2 304.7 294.4 288.5 284.1 281.2 272.9 270 263.8 261 256.6 254.5
248.1 241.6 235.1 237 238.7 240.9 241.3 246.1 256 273.3 283.4 287.1 278.4 265.8 276.2 290.1 297.9 304.3 310.4 317.6 321.2 313.6 324.1 335 348 361.1 365.8 367.4 373.6 383.1 390.2 394.9 395.7 393.6 392.5 392.4 394.4 396.2 395.6 390.3 381.6 372 364.7 358.7 367 376.9 380.2 383.7 388.3 390.7 393.8 396.4 399.9 402.2 405.8 410.3 408.9 412 419.4 425.5 433.6 443.9 451.7 452.4 464.7 475.2 480.3 487.2 495.2 505.4 519.4 527.9 535.2 548.3 561.7 591.8 609.7 617.3 619.7 621 624.3 625.4 624.2 620.7 611.4 579.6 558.3 548.2 551.5 550.9 547.3 546.4 547.4 546 542.5 538.7 534.6 531.4 529.6 525.1 523.2 522.3 516.2 508 497.8 502.7 502.8 500 493.7 484.8 478.4 466.3 480.5 477.6 469.5 460.8 454.6 446.8 449.3 452.6 447.3 437.7 424.4 424.1 421.4 413.6 407.8 401.5 385.2 372.8 362 341.3 329.4 332.7 339.1 345.3 351.6 359.9 365 368 372.2 372.7 374.2 376.2 378.2 375.4 373.8 372.3 371.7 369.7 359.9 351.5 332.4 351.6 365.9 373.2 384.3 389.3 394.5 397.9 398.8 399.4 401.7 402.9 402.9 404.5 405.2 404.7 404.7 404.5 404 402.3 401.1 399.5 397.3 395.2 393.5 389.8 387.6 385.2 382.2 377.7 373.8 368.1 362.3 353.9 344.5 327.3 325.7 317.2 307.8 301.4 293.3 288.9 281 276.3 272.5 270.9 264.2 261.3
249.2 246.4 238.6 234.7 236.6 237.1 241 244.9 254.3 270.9 280.6 284.1 274.4 263.9 276.5 290.5 296.7 299 303.9 309.6 314.3 305 318.5 330.7 343.3 355.2 358.8 362.1 369.7 380.2 387.7 392.8 395.2 393.9 391.2 391.9 393.4 394 392 386 375.2 367.1 346.7 357.3 365.8 377 380.8 384.3 386.7 389.4 392.2 395.3 389.3 397.2 403.7 405.8 412.7 414.9 420.5 425.7 434.3 442.9 447.3 451.4 462.9 470.4 475.5 482.9 493.5 505.4 522.6 532.1 538.9 547.1 567.1 599.9 610.5 617.2 621.4 624.1 626.7 626.5 624.5 619.9 611.6 588.8 563.8 552.5 543.9 544.8 541.8 537.7 536.6 537.9 535.7 531.6 528.4 527.2 524.5 521.4 518.5 516.3 510.2 502.9 494.1 497.5 496.9 493 486 478.7 468.8 470.9 477 471.9 462.5 453.1 447.5 443.9 449.6 448.9 441.8 429.4 417.7 418.6 412.6 406.6 398.5 386.7 372.2 352.2 336.8 331.2 337.2 346.7 356.3 362.8 367.7 374 374.9 376.4 380.9 385.3 386 386.3 387 387.4 386 383.2 377.1 372.8 366 349.3 353.7 370.7 384.9 395.1 396.7 398.5 399.7 403.1 405.8 406.8 409.3 411.1 413.5 414.6 415.1 415 413.4 414.1 413.8 413.7 411.3 409.8 407.1 404.2 399.4 397 395.1 392.2 388.3 385.1 381.8 376.7 370.8 363.5 353.3 348 340.5 326.2 324.3 317.3 311.3 302.7 293.3 286.6 283.3 280.3 277.5 271.3
248.8 247.9 241.9 235.5 236.1 237.2 248.9 250.7 254.2 267.1 277.5 281.1 271.9 262.6 275.8 290 294 292.8 297 300.8 306.1 299.9 313.2 325.1 337.2 350.1 353.5 355.5 366.4 376.7 384.1 389.8 394.5 393.9 389.2 389.8 390.9 391 389 379.6 370.8 360.4 350.4 358.2 366 374.2 382.3 386.9 390 392.1 395.6 398.3 402 407.1 406.5 414.4 415.8 419.3 422.6 426.4 433.5 439.8 441 448.4 457.8 462.8 468.3 480.1 494.1 509.9 522.6 534.6 538.5 549.6 573.5 604.5 618.5 622.8 625.3 627.2 627.5 628.3 626.1 619.2 610.5 593.3 568.7 554.5 549.2 542.7 526.9 529.7 525.8 529.3 526.8 524.3 521.6 520.9 517.8 515.4 511.5 509.5 503.5 494.6 490.1 491.3 489.1 484.8 476.9 469.5 455.5 471.4 467.9 462.9 453.4 445.4 440.3 443.3 446.2 442.4 433.9 421 414.1 411.7 406.3 398.1 385.8 369.2 355 333.1 336.9 348 353.4 363.8 372.3 376.7 381.5 386.8 388.1 391.2 391.3 392.3 393.6 395 395.2 393.9 390.1 388.8 385.7 378.5 368.4 349.3 370.3 392.2 401.4 402.1 403 407.4 410.4 413.1 413.2 415.7 417.5 419 418.6 420.4 420.6 420.8 421 421.8 421.9 422.2 421.4 418.9 415.6 411.6 408.4 406.4 400.7 397.3 395.1 391.2 388 384 378.5 369.8 362.7 357.6 350 344 337.4 333.8 326.8 313.5 306.4 301.1 296.7 296.4 291.8 286.3
245.7 246.1 244.9 235.6 234.3 241.3 258.2 256.5 254.3 262.4 274 277.7 272.9 261.3 274.2 287.1 289.9 287.6 289.2 290.9 294.5 297.3 310.6 321.7 332.6 342.1 345.6 353 362.3 372.7 380.1 386.9 394.3 394.7 387.5 388.1 387.4 387.2 381.7 373.3 366.3 342.1 349.7 358.7 365.2 370.8 383.4 387.3 391 392.5 395.4 398.6 406.7 414.1 413.4 413 418 420.7 423.1 426.5 433.1 436.3 437.5 444.3 451.7 456.1 469.4 483.7 496.6 513.8 524.7 535.6 544.4 562.9 581.6 611.1 621.9 623.6 623.9 629.2 629.4 628.1 625.5 620.7 612.7 599.5 587.4 568.6 549.9 538.8 532.6 522.1 520.3 520.2 518.5 515.8 514.7 514.1 510.6 509.2 504.7 504.2 497.3 489.5 484.5 484.7 481.6 475.1 467.4 457.7 462.8 463.1 457.8 451.7 445 436.1 433.2 439.7 439.5 434.4 423 412 409.2 404.4 397.7 389.8 383.1 368.3 337.3 340 349.7 358.6 365 377.4 384.2 388.8 393.4 394.8 395.8 396.8 397.1 397.9 397.9 397.6 397.3 396.1 395.4 394.7 391 386.4 367.9 364.6 387.6 404.9 409.9 411.5 410.1 413.4 419.4 421.5 420.1 421 422.7 423.9 425.5 425.3 427.8 428.3 428.6 427.7 428.5 428.1 427.8 424.9 421.1 418.6 417 412.7 410.1 405.5 400.5 397.7 394.8 390.2 385 379.2 373.7 366.9 360 356.7 352.3 345.7 338.2 325 320.7 320.2 314.5 313.6 307.1 302.7
245.1 242.5 244.8 236.1 234.1 247.6 262.4 260.1 257 260.1 268.7 276.2 273.1 259.6 273.2 283.7 290.2 290.2 283.3 285.9 289.1 298.4 308.4 318.5 326.7 333.3 344.6 349.5 360.4 370.3 378.6 387.8 395.8 393.5 383.1 382.3 382.3 380.7 374.8 367.6 359 338.4 350.4 363.9 363.2 369 378.4 386.8 390.8 393.2 394.8 400.1 409.9 417.6 415.7 416.7 417.8 420.3 423.5 426.6 430.8 432.1 440.2 450.1 453.3 459.8 474.9 488 501.2 513.3 521.6 533.9 547.7 567.8 593.4 620.1 625.2 626.8 627.9 631.1 631.9 632 628.9 624.2 618.8 609.3 595.3 583 561.1 539.9 527.3 519.8 513.4 513.5 510.4 507 507.8 506.4 503.6 502.3 501.2 498 491.1 482.8 479.1 478.8 474.5 467.3 457.2 448 458.5 454.2 449.6 441.9 436.9 424.9 429.8 432.9 431.3 422.9 411.7 407 404.2 395.4 389.5 382.9 378.3 354.6 339.5 352.4 359.5 367.8 377.6 385.3 391.5 393 395.2 397.6 399.8 400.7 402.5 402.8 403.3 403.2 402.8 401.3 398.5 396.2 394.9 391.8 380.3 378.5 403.4 409.4 412 412.8 414.7 419.3 422.4 425.3 427.7 430.5 431 433.1 436.1 436.6 437.8 439.3 436.9 438.9 438.5 436.8 436.5 432.5 429.4 425.4 422.3 420.3 416.7 412.2 407.2 404.2 400.6 395.4 391.1 387.2 381.5 375.1 371 367 363.2 355.8 343.9 342.2 337.9 334.4 330.1 327.3 323.6 318.9
248.9 245.9 237.7 235.5 233.7 253.3 264.2 262.4 257.5 257.5 264.7 273 273.6 259.8 272.8 280.5 287.5 292.9 282.5 284.2 289.4 297.8 306.9 316.2 324.7 334.9 344 350.1 360.4 370.2 379.8 388.7 395.8 388.2 378.1 375.3 374.2 371.7 367.8 358.1 351.5 337.9 348.8 366.7 361.9 367.8 376.1 387.2 391.7 393.6 395.7 401.5 413.1 419.8 416.9 420.2 422.1 420.7 423.2 427.1 431.8 437.7 447.1 453.5 456.5 468 477.1 490.9 502.4 511.9 519.7 533 552.3 582.6 615.6 627.4 629.3 629.4 633.7 638.2 639.5 639.3 635.5 629.4 623.3 615 603.9 585.3 560.2 541.4 526.3 517.8 506.3 506.1 501.5 501.6 501.7 497.8 493.4 494 497.8 491.7 483.6 476.4 472.9 471.3 465.7 457.8 445.9 447.1 451.1 446.6 440.8 435.8 429.1 419.7 424.1 424.7 419.6 410.4 401.2 401.1 396.4 389 384.1 379.2 367.6 340.3 350.8 363.5 372.7 382.1 384.7 388.7 393.4 395.3 399 402.1 403.2 404.2 405.3 405.9 406.1 406.4 405.9 405.1 404.5 402.1 399.8 398.4 390.9 398.9 411.7 416.2 419.3 421.6 426 427.7 431.9 434.7 437.1 438.9 439.3 440.5 443.4 443.8 445.5 445.1 445.1 445.8 445.4 443.4 443.4 440.6 437.1 433.5 428.6 424.7 422.1 418 413.6 409.9 404.4 402.4 397.5 393.5 389.7 384.4 379.5 375.8 371.1 364.2 357.2 355.3 354.7 350.8 346.6 343.6 338.3 334
253.3 248.2 244.6 235.2 233.5 254.2 263.2 261.7 256.2 253 258.3 265.7 270.1 256.8 269.7 276 283.3 291.3 281.6 283.3 289.5 296.2 304.7 313.9 321.2 330.3 340 349 359.7 369.1 379.7 390.7 392.7 383.5 372.4 367.8 367.5 366.7 361.2 345.5 335.7 336 344 352.3 361.2 370.1 377.3 387.6 391.5 394.4 397.7 402.3 414.7 417.6 418.2 423.6 422.3 420.8 424.3 428.9 433.8 442.5 452.2 458.1 461 469.7 480.2 491.1 500.9 508.5 516.5 539.6 558.7 590.8 625.8 631.4 632.1 635.9 641.6 645.2 647.6 647.8 644.7 638.4 626.7 619.8 607.8 588.5 560.3 539.8 525.7 512.8 504.2 497.9 493.8 496.7 495.7 488.5 487.5 492.4 492.9 485.2 477.5 471 462 464.5 458.3 449 435.3 441.6 444 439.2 432.5 426.9 421.3 414.6 417.2 413.3 406.9 397.7 394.4 393.5 388.7 383.8 378.2 370.3 345.5 351.2 360 377.2 381.7 385.6 388.6 392.9 396.4 399.2 401.9 404 405.9 406.8 408.7 409.8 412.3 413.8 414.3 414.1 412.9 409.8 405.4 409 411 405.8 420 425.1 429.3 431.6 433.1 436.3 438.5 441.3 443.4 445 447.2 448.4 450.6 451.4 452.3 452 451.6 451.9 449.5 448.7 448.8 447.5 443.1 438.8 434 428.4 425.1 422.8 419.5 413.5 412.1 408.9 403.9 399.8 396.4 392.8 388.5 384.1 378.5 372.5 368.8 365.1 364.5 363.7 358.7 355.6 353.5 349.5
256.9 248.1 245.5 235.1 236.5 250.8 257 258 252.7 248.2 249.6 255.8 260.6 253.9 261.1 268.4 277 286.8 281.6 279.1 288.1 294.7 300.8 310.1 314.8 328.7 337.3 346.6 358.6 369.8 381 389.9 387.9 376.5 369.6 361.2 366.1 361.2 348.2 327.3 317.5 332.9 345.7 348.9 364.7 372.6 378.4 386.9 391.1 396 398.9 404.2 414 414.9 418.6 421 419.7 424.9 431.7 433.9 437 449.2 457.9 461 463.5 470.9 480.2 489.1 497.4 506 523.2 545.1 564.4 600.2 631.3 634.7 638.8 645.1 649.8 653.4 654.3 654.2 652.7 648.1 636.8 623.5 610.2 579.7 552.4 533.2 522.6 504.7 498.7 493.9 489.8 493.2 489.9 484.9 485.1 489.7 485.3 477.4 471.1 467 463.8 456 446.3 442 430.6 436.6 436.2 432.3 424 419.6 413.8 409.1 408.4 403.1 394.9 391.4 388.2 385.6 377.8 374.7 359.6 348.2 351.9 365.1 374.9 383.7 386.7 389.7 394 398.2 400.4 402.2 404.3 407.3 411.7 413.5 413.6 414 414.7 415.5 416 415.7 415.4 414.2 412.8 419.6 420.6 419.1 425.3 432.4 437.3 440.3 444.1 447.2 448.2 449.6 451.2 453.5 456.3 457.5 460.5 461.7 463.3 465 465.4 465.1 462.3 458.6 454.3 452.3 450.5 445.7 439.6 432.5 427.8 426.3 422.6 420.5 417.8 415.5 412.2 408 404.4 400.1 396.5 391.4 385.8 381.5 378.4 375.3 372.3 369.9 368.1 366 363.3 361
259.1 250.7 246.4 233.5 234.9 245.6 253 251.6 246.7 242.7 247.4 250.2 251.4 251.2 254.6 259.7 268.1 279.2 279.2 274.1 285.1 292.5 301.8 307.6 316.1 328.8 335.6 340.1 356.1 369.2 379.8 385.2 380.5 366 357.2 353.1 349.7 344.3 338.2 319 326.5 335.1 340.3 350.1 361.1 375 378.2 391 397 399.5 400.3 404.6 410.3 410.5 416.1 417.2 422 431.1 439.8 440.1 446.4 454.6 458.8 459.4 462.2 469.2 476.2 485.9 495.2 506.1 529.1 548.1 573.1 610.2 635.4 639.5 647.4 653.6 657.9 659 661 661.9 659.1 653.8 642.4 623.7 603.3 573.4 546.5 526.6 513.7 498.1 494.1 489.3 486.8 490.8 485 477 483.3 483 477.2 470.4 465.4 463.6 461.2 454.2 445.6 435.8 425.8 432.1 429 422 413.4 411.8 407.2 404.8 399.4 394.1 390.4 385.8 383 374.7 368.2 356.7 356.8 364.4 372.3 381.4 385.6 387.5 392.5 397 400.2 401.5 403.6 405.4 410.6 412.8 413.9 414.6 415.2 415.6 417.5 419.1 419.6 422.6 424.8 423.7 422.1 430 433.2 436.1 438.3 440.8 446.2 449.2 452.7 454.7 454.9 456.6 460 464.3 467.5 470.1 471.8 473.8 474.6 476.1 476.7 477.4 476.7 473.1 468.7 460.7 454.1 451.2 447 440.9 433.6 429.9 426.6 426.1 424.6 421.2 417.4 415.2 412.1 409.2 404.3 399.1 394 390.6 386.9 384.3 381.8 379.3 377.3 375.5 372.4 370.2
260.6 253.1 248.9 234.2 233.6 236.6 245.7 244.3 240.1 241.2 245.4 245.5 247.7 248.9 253.3 256.2 259.2 267.1 268.4 281.3 282.6 293.1 298.6 303.2 312.5 325.2 330.4 336.9 353.6 365.4 374.8 377.5 371.2 358.1 350.7 347.6 343.8 335.4 326.5 313 325.5 333 341.6 350.3 363.2 370.6 381.6 393.2 401.1 404 404.1 404.4 407.3 408.4 413 414.8 425 436.3 443.4 444.7 448.5 453.4 454.6 453.9 458.9 467.4 475.4 486.3 495.9 510 535.5 554.4 582.5 621.9 638.9 646.5 655.1 660.8 665.6 672.4 675.9 673.4 664.8 655.3 641.3 622.3 591.4 565.5 538.1 520.9 501.6 494.8 489.9 485.4 487.8 487.5 480.5 472.4 478 474.6 468.6 462.2 460.4 460.1 458.6 451.9 443.4 433.8 422.7 425.6 420.3 413.4 411.2 408.9 405 398.7 395.7 391.7 387.3 382.8 375.2 358.9 353.3 363 375.6 380.6 382.2 386.5 390.8 392.3 397.8 401.5 403 403.9 409.9 411.5 412.5 413.2 414.8 416.3 419.8 423 428.8 433.3 432.6 436.8 438.7 434.6 434.2 441.9 446.4 448.7 450.7 448.3 453.3 456.7 459.8 461.9 464.9 466.3 470.9 475.2 479 481.7 485.1 487.2 489.6 492.6 492.9 492.4 489.3 486.7 478.5 472.4 466.6 456.2 452 447.8 441.8 434.3 432.2 430.5 429 426.1 423.2 421 418.6 416.3 412.2 406.3 402.1 399.2 396.5 393 390.2 387.7 385.7 383.5 381.1 380
260.6 254.5 251.4 237.1 232.9 234 237.4 236.7 237.4 241 242.3 243.7 246.4 251.8 259.3 265.9 269.1 274.9 282.5 279 290.5 295.9 297.6 300 310.3 320.5 325.7 334.7 348 360 368.7 369.9 362.5 352 343.3 343.3 341.7 327.5 314.7 313.7 322.6 331.7 342 352.8 363.8 377.1 385.1 395.2 404.9 408.4 407.2 408.3 408.6 409.7 411.9 413.9 428.2 439.4 441.4 443.3 445.6 448 447.3 448.6 456.9 466.2 476.3 486.8 499.2 514.9 541.3 557.6 593 632.2 645.3 654.6 662.8 671.4 680.5 683.3 681.5 678.2 669.5 652.4 635.5 612 583.3 551.2 526.8 507.1 492.5 491.7 485.8 479.3 486.8 483.6 475.6 468.5 469.7 465.9 458.4 455.8 456.6 456.5 453.3 446.3 438.4 431.1 420.5 416.1 412.7 411.2 409 406.5 401.7 398.5 394.4 390 380.9 366.6 358.8 372.6 377.6 377.6 381.5 386.5 389.6 390.7 393 396.8 397.9 403.5 405.2 409.8 411.6 413.3 415.8 416 420.2 425.1 427.6 431.4 434.8 436.3 440.9 443.2 441.5 440 441.8 449.5 453.4 455.8 455.6 454.9 458.2 463 468.5 471.2 471.8 474.6 480.3 485.8 492.8 497.9 499.4 501.9 503.3 503.4 502.8 502.2 498.2 495.3 495.4 482.5 473.9 464.7 455.2 452.4 447.9 443.5 439.2 435.7 431.5 429.4 428.4 426.4 424.5 421.9 417.8 413.7 410.6 408.2 404.9 401.1 398.8 395.4 393.3 391.7 388.9 387.4
259.1 254.8 251.2 249.3 231.8 233.5 234.4 235.7 237.7 239.1 243.6 246.8 252.2 259.8 264 269.3 277.5 284.9 285.5 286.2 291.8 295.9 295.6 295.4 308.2 315.9 319.7 332.4 343 352.7 360.5 361.5 355.5 347.9 340.3 341.4 329.7 318.3 310.9 317.5 320.7 329.1 341.6 356.9 368.4 376.8 389.2 398.7 409.8 410.7 408.7 410.1 410.1 410.9 413.3 418.6 429.9 438.1 437.7 439.3 441.1 440.5 442.2 446.8 458.3 466.6 476.5 489.6 503.5 525.7 543.4 564.2 600.8 643.7 652.8 663.2 673.7 683.9 688.9 689.7 686.4 679.1 663.7 644.9 623.2 597.2 577.5 532.9 515.9 494.2 490.4 488.7 480.7 480.1 484.1 478.8 469.7 459.8 460.1 455.5 451.6 452 452.7 449.3 446.3 439.9 432.3 427.1 420.7 413.6 410.3 406.2 404.2 403.2 398.8 396.5 391.4 377.5 368.3 379.4 384.1 385.4 386.8 387.2 389.1 384.8 389.6 394.9 398.4 399.1 400 403 406.8 412.1 412.8 414.5 418.7 419.6 425.5 428.9 432.3 434.2 435.8 439 443.9 444.8 443.7 447.8 450.5 454.4 458.2 459.5 458.2 457.9 462.3 470.4 475.4 478.5 482.1 487.1 496.5 503 507.4 512.5 514.3 516 516.9 515.8 514.8 512.9 509.5 507.1 501.8 497.7 486.3 472.6 464.5 455.3 453.4 451.5 447.2 442.2 438 436 432.4 430.6 429.2 425.8 422.6 419.7 417.3 414.1 411.3 409 407 403.8 400.6 398 395.5 392.9
257 254.2 250.3 248.9 242.8 232.3 234.1 235.1 236.7 240.3 247.2 251.8 258.7 265.5 266 270.1 279.5 285.7 281 284.7 290.5 293.6 292 295.8 305.4 311.3 317.4 327.3 337.4 345.9 353.3 354 347.9 343.9 336.4 332.2 323.5 312.6 313 318.3 325.9 335.4 347.1 359.9 369.9 377.2 393.2 402.6 412.1 411 408.5 410.7 411 412.2 413.2 418.9 429.5 435.7 433.9 433.2 434.3 441.8 448.2 450.9 460.5 470.8 481.4 493.8 513.7 531.8 545.8 569.8 603.7 645.9 663.9 676.1 684.8 687.5 689.6 691.7 690 672.7 650.9 628.7 599.7 580.8 543.2 520.7 500.3 489.9 488.7 486.5 476.8 478.9 479.9 473.5 464.9 457.4 451.7 447.9 443.6 447.7 447.8 443.3 439.3 433.2 427.7 423 416.7 413.6 410.9 407.5 402.3 396.6 393.2 390.9 376.2 381.2 387.3 388.3 389.4 389.3 391.1 391.3 392.4 391.8 396 397.2 396.8 399.8 403 405.6 411.2 414.4 417.5 420.1 425.5 430.1 431.9 434.6 436 438.8 441.1 444 450 454.1 457.4 458.2 456.6 459.1 464.3 465.7 467.1 469.8 471.3 475.4 479.9 485.7 491.9 498.5 508.5 518.7 525.1 526.1 527.7 528 527.4 526.3 525.8 523.9 519.3 516 513 507.6 500.4 485.9 469.4 459 456.3 454.7 452.9 449.3 446.5 442.6 438.5 435.7 433 431.3 427.1 426.5 422.9 419.2 416.6 413.2 412.6 410.8 408.6 405.6 402 399.5
252.3 252.6 251.4 249 245.8 233.2 233.5 233.7 235.2 244.9 247 252.7 259.3 264.3 265.5 269.4 278.4 281.7 282.3 277 286.9 289.9 288.9 293.9 301.8 308 313.6 320.1 330.3 338 345.7 347.5 344.8 339.6 334.5 322.5 313.2 308.7 316.5 320.7 329.8 341.5 351.3 363.1 373.9 378.5 392.7 404.4 411.7 409.5 409.8 411.1 411.7 413.6 414.1 419.4 428.6 431.4 430.3 432 437.5 448.4 455.2 456.4 465.2 474.2 484.1 496.3 517.3 534.7 550.2 574.2 611.1 651.4 673.2 685.5 690.6 690.5 689 690.2 670.3 650.8 620.5 599 578.7 541.7 531 505.9 490 486.2 488.3 481.3 472.8 476.2 474.4 467.3 459.1 451.1 445.3 440.4 439.9 442.7 441.5 437.4 433.8 428.7 422.6 417.5 414.3 412.2 410.3 406.2 400.5 393.3 388.4 373.2 383.5 389.8 391 392.2 393 393.9 396.1 397.2 396.6 397.6 399.2 401.2 404.3 407 406 408.4 416.5 419.9 422.4 430.5 433.5 436 435.4 438.4 442.2 444 451.1 457.5 462.8 467.1 466.8 462.4 460.5 466.2 471.8 474.2 477.4 479.7 482.5 483.6 485.9 491.8 500.1 509.2 520 526.4 535.4 537 539.4 540.5 539.1 538.1 538 534.9 534.4 530.6 526.4 521 512.2 497.3 477.6 467.9 457.2 457.8 456.2 455.2 449.4 448.8 447.7 443.5 440.5 436.3 432.2 430.7 427.9 426.2 423.6 420 416.8 416.3 414.4 413.2 409 405.6
256.2 255.1 255.6 252.5 248.4 244.8 231.2 232.3 233.3 244.1 245 249.2 255.6 260.6 263.9 267.3 275 280.4 280 270.4 281.5 284 286.8 293.5 300.5 308 315.4 321.3 322.6 329.7 337 341.2 340.3 337.5 321.6 316 308.8 319.3 323.2 326.4 333.8 345.7 354.4 365.1 374.4 379.8 392 404.7 410.6 408.4 408.2 410.1 411.7 412.5 414 419.3 425.7 426.7 427.2 431.1 441.6 452.5 460.2 462.5 467.8 475.8 485.6 500.8 520.1 535.6 556.6 582.9 616.2 653.5 680.6 689.2 692.7 692 684.7 674.4 641.8 619.9 589.1 562.3 542.6 522.2 515.9 492.2 484.3 484.6 484.8 475.5 465.4 471.6 467.9 462.8 455.9 448 442.4 435.7 432.5 435.6 433.3 430.8 429.2 424.4 418 414.6 414.2 413.2 408.5 402.4 395.9 390.1 381.7 386.5 391.6 392.9 393.8 395.3 398.6 399.8 400.7 400.5 400.5 401.7 405.3 408 409.1 410.5 416.7 420.8 423.2 426.8 432.6 439.5 441.8 441.9 441.5 443 448.7 454.5 460.9 467.2 471.3 470.3 466.5 467.8 470.7 472.5 474.6 479.1 484 486.6 488.7 491.5 495.7 501.2 512.2 521.3 529 534.3 540.6 543.9 546.2 546 546.2 547.6 547.9 547.1 546.3 543.3 540.2 535.5 525.4 514.7 493.4 476.3 470.9 463.8 457.6 457 456.5 452.5 452.1 450.5 448.7 448.2 440 438.2 434.8 432.2 430.3 430.1 429.1 423.8 421.7 419.8 417.4 413.6
256.9 251.2 258.2 256.9 249.9 250.1 249.9 231.5 232.4 234.6 242.6 246.2 255 263 264.6 263.6 270 275.8 272.5 268.4 278.5 287.9 291.6 293.1 298.7 306.8 317.9 321 317.2 319.7 327.3 334.4 336.9 329.5 316.1 311.9 308.9 321.4 325.3 331.2 337.5 347.3 355.1 366.7 374.9 380 393.3 405.5 407.9 406.6 407.4 409.9 411.1 413.2 415.6 419 423.3 423.8 424.8 430 443.5 457.1 462.6 464.8 470.1 476.9 487.6 505.4 521.7 535.2 557.8 586.3 625.3 659.8 680.5 685.4 680.8 676.4 669.4 647.9 624.2 583.5 559.2 539.3 519.5 506.4 494.3 482.8 482.4 485.3 480.2 465 466 466.7 463.5 459.5 452.6 446.4 440.2 436.4 425.4 427.2 427.3 428 427.5 419.8 414.9 411.5 413.2 410.4 405.5 398 393.6 389.8 391.2 392.9 393.9 396.4 398.4 400.3 401.8 403 404.4 406.3 406.5 408.2 410.3 411.4 414.6 421.1 424.6 427.5 431.4 436.5 441.3 444.6 445.1 446.6 450.7 448.5 454.5 459.5 466.2 471.9 473.1 474.7 476 476.2 477.6 479.6 479.3 483 486.8 491.3 494.3 499.4 506 515.4 521.9 530.4 536.6 541.5 545.9 548.7 552.1 555 557.5 558.9 556.3 556.7 556.4 555.6 553.4 546 538.2 529.1 517.1 500.1 480.6 472.6 466.7 460.4 457.7 457.8 455.9 453.4 451.7 452.1 453.1 447.8 443.2 440.4 439.2 438.6 435.5 431.7 429.2 426.6 422.2 418.7
254.1 251.5 253.1 257.8 253 253.1 254.5 243.5 232.9 232.1 237 244.3 253.8 262.1 263.3 260.1 264.9 270.3 269.8 267.4 281.7 291.1 292.6 289.2 294.2 310.9 319 318 311.3 312.7 319.2 328.8 326.9 321 313.5 304.2 311 322.3 326.4 330.8 338.6 347.2 356 367 374.9 385.2 395.4 404.3 406.6 406.3 407.2 409.4 410.7 412 414.7 420 423 421.7 423 430.8 446 458 461.6 463.2 469.3 477.7 488.9 508.9 522.2 533.5 560.3 601 631.7 658.5 676 676.1 668.7 662.3 650 621 592.4 560.9 541.1 521.6 509.2 498.3 485.7 477.1 484.1 481 468.7 458.3 462.5 460.6 459.8 455.5 449.3 443.8 438.8 428 422.1 424.1 425 428.8 423 414.8 410.2 411.3 411 406.5 402.1 396.9 392.2 393.3 394.6 397.3 398.6 400.4 401.6 403.4 405.1 408 410 409.7 410.3 412.2 415 421.1 425.4 428.9 431.9 436 437.1 440.6 444.9 448.9 453.3 457.6 455.5 451 458 463.8 471.9 477.8 479.7 480.9 481.7 483.7 487 488.4 485.8 488 494.1 497.9 502.6 509 516.4 523.2 531 536.9 541.4 548.1 553.1 555 556.8 559.5 562.4 563.2 562.3 561.4 563.6 563.5 561.7 555.4 550.2 544.1 533.9 521.9 506.5 487.6 474.3 468.6 461.2 457.7 458.4 456.9 455.7 455 455.1 456.6 451.5 447.7 446.6 445.1 441.3 437.3 435.7 432 430.9 426.6
249.2 246.8 248.9 253 252.3 252.8 254.2 248.4 239.8 232.8 232.2 242.1 251.1 257.3 259.2 255.2 260 265.3 262.6 270.2 282 290.2 290.6 288 293.9 306.3 315.3 313.1 304.4 306.2 313.9 322.7 322.9 317.2 312.2 301.6 311.2 321.6 322.4 329.5 337.2 346 357.5 368.5 376.2 384.7 393.8 404.1 405.6 406.4 407 409 409.7 412.6 415.9 424.3 422.2 422.6 421.4 432.2 447.3 457.1 458.2 460.5 466.8 477.6 489.8 511.7 519.8 535.4 563.3 600.5 645.8 664.3 668.3 664.9 653.6 637.3 614.6 592.9 565.4 540.3 521.8 514.1 503.4 488.3 478.2 481.6 479.6 469.8 458 459.7 456.3 457.3 456.6 452.8 447.5 441.8 434.4 420.9 418.4 422 427.2 423.9 417 411.1 409.6 408.7 406.2 403.3 398.6 394.5 395.4 396.4 399.6 400.9 401.3 402.9 403.9 407.4 411.2 411.6 411.9 413.1 415.3 421.1 426.5 429.9 432.4 436 437.9 440.3 442.5 446.9 454 458.6 458.7 456.9 455.5 458.2 462.9 470.5 475.7 477.8 479.5 483.1 486.6 490 491.7 490.1 491.6 494.4 499.7 505.8 511.7 518 525.1 533.1 540.2 545.3 549.1 553.8 557.9 560.2 563.5 565.4 567.1 569 569.4 571.2 571.7 570.1 568.3 565.1 560.7 556.6 550.3 540.7 527.6 514.6 498.1 480.6 471.3 464.8 461 460.8 459.3 458.7 456.7 457.4 457.7 454.5 453.3 451 447.5 443.9 441.9 439.9 437.2 432.6
244.4 243.4 244.2 245 248.7 247.5 250.6 246.1 239.9 237.4 231.6 237.4 245.4 253.1 254.5 252.2 255.8 261.6 258.6 266.2 278.7 286.4 287 284.4 292.2 302.5 310.9 306.7 301.5 303.1 310.2 317.4 316.4 313.8 310.5 300.1 310.5 320.1 318.8 327.1 337.9 347.2 359.7 368.5 377.8 385.1 396 403.4 406.1 406.2 407.6 407.5 409.7 411.6 420.1 428.9 420 421.4 420.5 431.4 446.8 454.2 453.5 457.6 466.9 480.2 491.5 511.9 518.2 532.2 564.6 602.8 655.2 663 662.9 662 638.9 605.5 588.8 565.6 542.9 524.3 512.3 503.5 491.8 482 480 477.3 470.1 459 457.7 456.1 451.6 455 454.4 450.9 443.6 435.4 423.4 416.8 418 423.6 421.2 415.7 410.9 406.7 405.1 404.2 403.3 399 396.3 398.3 399.6 401.9 403 403.8 403.9 405.5 408.5 412 412.8 413.7 416.2 424.2 429.6 429.3 430.7 432.8 437.8 441.5 443 444.1 449.6 456.4 460.9 461.6 460 458.4 464.3 467.4 469.2 466.8 470.9 477 480.9 483.3 487.4 489.5 492 493.6 498.2 501.9 509.2 513.2 519.3 525.5 533.3 540.4 547.4 550.5 556 560.7 563.6 566.4 570.4 575.3 576.2 577.4 579.4 581 579.3 577.7 574.2 571.9 568.8 565.5 561.3 554.8 548.7 536.8 524.2 509.8 490.2 476.5 467.9 463.1 462.3 463.8 458.7 457.5 458.7 459.1 457.6 457.4 453.6 450.1 447.9 445.7 443.7 439.9
242.8 240.6 240.5 245 243.9 242.3 244.9 241.6 237.6 237.7 233 228.5 240.6 248.2 250 249 251.9 258.5 257.9 259.2 271.2 279.6 281.3 281.1 288.5 297 304.2 301.5 297.2 300.7 306.5 312.5 312.8 310.3 308.4 299.5 308 314.8 317 328.1 335.6 346.1 359.8 370.1 377.9 385.2 394.8 403.5 405.4 405.6 406.5 407.4 408.9 413.2 424.6 429.8 418.8 420.1 421.6 431.8 444.7 449.7 447.6 454.3 467.4 482.9 492.7 512 515 533.4 566.1 604.3 649.9 658.6 657.3 650.2 619.6 588.4 566.9 547.7 529.4 514.1 503.5 494.2 483.5 480.9 477.9 468.6 461.8 457 456 452.4 454 446.3 452.6 446.3 436.6 429.3 420.8 414.3 418 417.8 411.5 408 404.4 403.9 403.4 404.5 401.4 397.9 400.1 401.8 403 404.7 406.1 407.5 409.6 410.4 414.2 414 415.5 421.7 430.8 431.4 431.1 431.8 434.5 437.3 442.9 448.1 449.7 449.2 452.7 458.2 460.3 462.5 463 467.4 471.9 474.2 477 478.4 476.8 481.2 486.3 488.3 488.8 491.7 496.6 500.3 504.3 509.5 515.6 520.3 527 534.1 540.2 547.3 554.7 559.5 563.6 567.2 569.8 575.4 579.7 583.2 585.5 586.8 587 587.6 589 585.9 583.1 579.2 579 573.3 569.5 565.4 561.7 556.5 547.8 534.6 523.1 502.4 483 474.8 468.9 467.4 470.3 465.6 463.8 464 461.6 460.4 459.2 455.6 454.2 451.8 449.8 446.4
245 245.8 245.4 245.6 236.2 236.7 237.8 239 233.6 232.8 232.1 230.9 235.3 243.4 244.7 246.3 251 254.6 255.8 256.4 266.5 273.2 275.1 276.1 283.3 290.4 295.6 294.4 297.3 299.1 301.5 305.3 309 307.8 305.1 299 302.8 309.2 320.8 330.1 339.7 348.8 359.1 367.1 375 384.8 395.1 401.9 404.1 404.6 405.7 406.8 409.2 415.7 428 428.7 418.5 419.9 423.8 432.2 441.5 444.1 443.5 453.9 471.1 484.7 493.1 507.2 517.4 534.6 564.2 601.8 653.6 650.5 639.9 619.7 596 567.4 546.6 531 517.3 505.3 497.5 485.3 481.7 480.1 474.3 464.8 459.6 457.5 458.9 460.3 454.4 443.8 448.2 442 434.8 426.6 418.6 414.6 414.5 412.8 406.6 405.9 404.9 404.2 405.9 403.6 399.7 401.3 402.9 404.7 406.4 411.3 412.3 412.7 412.9 414.9 416 418.5 426.6 432 433.2 438 439.3 437.6 442.1 448.2 451.1 453.3 454.9 457.4 460.2 460 465.9 469.9 474.8 476.7 481.4 485.6 488.9 489.5 483.3 487.4 490.4 494 496.1 497.9 502.4 505.8 509.9 514.8 520.2 527.1 534.9 540.1 547.1 554 559 563.5 570 576.3 584.2 588.4 589.2 590.8 593 594 593.9 600.6 600.8 594 589.6 586.9 584.8 579.6 577.6 574 569.9 566.6 562.1 557 546.2 535.6 518.4 500.9 487.1 479.9 478.6 476.9 476 474.8 472.3 471.5 466.5 463.2 460.6 459 455.2 451.3
249.9 253.5 252.6 242.6 240.1 236.3 234.6 234.1 232.2 231.5 230.3 230.8 230.7 238.2 241.5 243.8 249 250.4 250.1 257.1 264 267.6 269.1 270.7 277.7 283.3 286.1 292.7 297.3 295.7 295.8 302.9 308.6 307.2 302.4 297.8 301.3 311.1 322.3 332.8 342.6 351.5 362.2 367.8 375.9 386.7 388.8 398.4 402.7 403.6 404.7 407.1 410.7 418.1 428.4 426.8 417.9 420.8 425.5 432.2 438 439 447.7 462.1 473.8 485 493.8 503.2 518.4 533 556 598.1 623.8 620.8 608.2 595.6 569.3 546.2 529.4 516 507.8 498.4 486 481.5 480.5 477.5 468.9 462.9 461 461.4 463.1 458.3 450.8 441.9 441.7 436.2 429.7 422.9 417.5 411.4 409.4 407.4 406.3 405.9 405.3 404.9 402.3 401.5 401.8 403 405.1 409.7 411.2 413.5 414.2 414.7 415.2 417.2 414.1 426.6 433.5 436.1 442 444.9 445.3 448.6 453.2 455.8 454.5 456.8 461.9 463.8 468.3 471.8 475.1 481.6 482.2 484.9 486.5 491.8 493.2 490.9 491.3 491.2 493.2 495.9 499 500.4 504.9 509.9 514.4 520.3 527.9 535 541.9 548.2 551.7 556.3 561.7 569.5 577.8 585.5 591.7 598.7 606.3 608.6 610.7 610.4 608.6 607.3 605.8 602.6 596.8 594.7 589.7 586.2 584.5 581.6 577.9 575.5 570.6 566.8 562.5 557.9 551.8 533.9 517.9 508.9 500 495.3 494.8 488.2 484.4 481.6 476.3 471.8 468.4 464 462.1 457.2
255.2 261.7 260 248.5 247.3 238.8 235.3 233.4 232.5 231.5 230.9 230.7 228.2 234.5 238.5 240.5 243.8 248 252.7 257.7 258.3 261.6 262.8 263.9 271.7 273 287.2 297.9 299.2 292.9 293.5 303.2 310.8 311.4 304.9 297.3 302 311.2 323.1 334.4 342.7 352.5 363.1 372.3 380.8 389.8 392.7 398.3 401.4 403.1 405 407.3 411 418 425.8 424.3 417.8 421.3 426.9 430.5 435.7 444.9 454.1 463.5 476.4 484.8 494.8 502.3 512.1 528.5 543.1 576.1 597.8 594.2 586.8 565 545.2 524.1 512.9 503.1 498 485.3 480.9 478.7 478.8 472 465.8 462.4 462.7 465.1 460.6 453.3 446.5 440.2 429.5 429.6 424.4 419.3 414.9 415.5 408.2 405.7 404.9 403.9 404.6 403.3 401.6 402.4 403.1 404.8 411.1 411.4 412.5 414.2 416.1 420.6 422.7 428.3 431.6 433.4 435.3 441.9 446.3 448.8 451.6 454.6 458.2 460 461.8 463.6 467.5 472.9 476.7 480.3 484 486.2 488.3 492.8 492.9 494.3 495.3 494.5 494.4 495 496.3 497.8 499.4 502.9 510.1 514.3 519.8 529.6 536.2 544.1 549.2 550.5 555.5 560.6 567.1 574.3 582.7 589.6 600.8 609.5 613 614.8 618.5 617.1 617 615.1 612.3 606.3 603.4 601.7 597.1 591.7 589.3 586.8 583.9 581.3 577.5 575.1 572.9 569.7 565.4 561.5 553.6 543.4 535.5 529.5 523.7 518.9 509.1 502 493.9 487.2 478.7 472.5 468.6 462.7
259.3 265.1 263.2 254.7 246.2 239.9 237.7 236.5 235.6 231.7 230.9 230.7 230.3 230.7 234.2 236.6 242.2 252.9 253.8 254.4 255.5 255.7 253.4 253.3 257.8 276.8 289 298.4 297.2 286.7 293.8 303.1 312.8 315.9 311.2 298.1 303.3 312.5 321.6 334.9 343.3 352.8 361.9 372.5 382.1 391.2 392.8 396.7 398.6 403.2 405.8 407.9 411.6 417.1 422.6 420.8 416.9 421.8 428.3 431.1 437.8 447.3 458.7 468.2 478.1 485.1 494.1 500 511.9 522.7 531.1 554.2 585.6 583.6 563.1 541.5 524.2 512.4 503 495.4 481.9 479.2 479 478.2 472.8 466.5 463.4 463.9 466.5 464 455.1 446.8 442 436.4 423.5 422.6 421.3 418.7 418 409.7 408 407.4 406.5 405.9 404 401.1 402.4 402.1 403.2 404.4 412.6 413.7 414 415.6 425.8 427.4 432 433.2 433.4 435.4 440.2 443.6 448.7 453 456 459.9 463.2 466.1 467 467.4 472.6 477.3 481.3 485.1 487.8 495.3 494.8 496.6 495.1 497.5 498.6 494.2 497.9 499.5 499.5 501.7 505.7 510.3 515.1 520.7 528.2 537.4 542 548.4 552 555.4 559.9 563.5 570 576.8 586.8 595.5 605.5 610 612.9 616.2 619 620.9 620.1 618.4 620.2 612.9 606.9 604.9 603.5 597.2 592.1 589.5 587.3 586.1 584 581.1 579.7 577.1 574.8 572.3 568.7 563.6 556.9 551.1 545 538.4 532.8 524.9 517.5 505.9 493.6 487.9 478.2 470
258.9 264.2 266.9 257.3 248.9 246.7 238.7 237.4 237 233.7 230.6 230.5 230.2 227.4 231.5 234 241.9 251 255.6 250.5 251.4 248.1 252.6 263.8 273.1 280.7 290.3 295.1 293.8 289.7 291 303.8 313 319.2 314.6 297.7 302.8 311 321 335.3 344.7 353 360.8 372.3 382.1 389.5 392.2 392.8 398.2 399.8 406.1 408.9 412.9 415.4 419.9 419.4 416.7 422.6 429.2 430.8 438.8 448.2 460.6 471.1 480.1 489.6 490.2 495.6 508.5 519.8 523.8 534.8 558.6 556.9 540.2 523.8 512.2 501.3 494.7 481.9 478.7 477.2 475.8 472.7 466.5 462.8 461.6 465.2 463.2 456.6 446.2 437.1 434.4 430.3 424.1 418 414 418.8 413.2 408.5 408 407.6 406.5 405.5 404.2 404.4 402.3 402 401.3 403 413.1 414.8 416.7 426.5 430.7 432.8 433.3 433.9 437.3 436.4 442.4 447.3 452 457.4 461.9 464.5 470.5 471.1 467.4 468.1 475.3 479.5 483.5 488.1 495.6 497.9 497.4 496.4 496.8 499 499.4 497.2 499.9 501.7 505.2 508.2 511.3 514.9 520.2 527.9 535.1 543.1 548.2 553.2 559.4 565 566.3 570.7 576.3 583.5 593.4 599.9 605.4 611.4 614 618.1 623.5 623.3 622.3 621.2 621.5 617.7 611.6 605.9 604.9 599.3 594.9 590.7 589.5 588.6 586.3 585.2 583.5 581.8 580.5 578.7 576 571 566.8 560.8 555 550.7 545.8 538.7 529 521.8 515.3 502.4 489.8 482
257.7 262 270.4 260.5 250.6 243.5 240.5 238.6 236.6 234.1 230.8 230 229.8 229.5 229.6 231 238.2 249.9 255.5 249.1 247.1 248.1 256.4 265.8 273.9 280.2 290.6 291.7 291.4 287.1 292.8 302 314.1 320.9 314.7 297.7 301 310.8 320.9 334.3 345.6 353.5 359.4 370.3 381 387.5 389.9 391.9 393.9 397.5 404.5 409.7 413.7 414.3 417.1 418.3 418.3 423.7 428.9 430.8 440.4 449 462.8 475 487.1 488.7 485.7 492.4 508 516.1 516.6 524.7 542.3 535.3 521.5 511.5 502 492.3 483.3 478.9 477.4 475.1 471.1 466.9 461.9 459.1 462.3 460.6 455.3 445.8 436 432 429.8 425.8 422.2 419.4 414.2 410.3 407.6 406.5 407 406.1 405.8 405.9 405.2 401.6 400 401.8 403.8 401.1 412.6 417.1 426.7 430.8 433 433.4 438.7 442.4 441.2 440.3 445.9 451.6 457.5 461.3 465 470.2 473.7 473.9 469.7 474.7 478.2 482.1 487.1 493 498.1 499.3 500.8 500.3 500.5 499.6 502 499.7 502.6 507.7 509.3 512.2 515.6 523.3 527.7 536.8 542.9 549.6 554.6 560.9 565.9 570.2 575.3 582 590.3 598.5 602.8 604.6 606.2 611.5 615.2 615.6 621.2 622.2 622.5 620.5 620.4 620.1 615.8 608.8 606.2 601.9 596.4 592.3 591 589.5 588.4 585 585.1 584.3 583.6 582.3 580.5 574.6 569.9 567.3 562.8 559.1 553 546.2 539 530.1 523.1 515.8 508.1 499.5
254.8 258.9 268.7 264.9 253.2 247.4 244.9 241.4 235.9 234 230.6 229.5 229.3 229.3 227 229.6 237 248.1 254.3 248 245.6 247.5 258.9 266.4 272.9 281.7 288.8 287.8 288 287.4 292.9 300.8 314 320.6 315 297.3 300.4 310.1 321.6 335 346 354.1 358.4 367.6 378.3 384.8 384.5 390.3 392.5 394.5 401 410.1 412.8 412.8 416.6 415.2 419.7 425.4 427.5 430 441.1 452.2 462.7 472.6 484.7 479.9 480.2 489.3 503.7 511.3 511.3 522.8 531.8 523.8 511.5 500.6 491.4 484.4 478.1 476.7 475.2 472.3 468.3 463.4 455.9 458.4 458.1 452.9 446.1 437.1 431 429.3 428.3 425.2 421.6 419.7 417.2 412.4 410.2 406.2 404.7 404.7 404.4 403.8 402.7 399.5 401.2 404.9 405.2 403 412.6 423.3 428.6 432.9 435 440.9 445.6 444.7 444.3 444.8 450.5 457.7 462.4 464.4 466.2 471 474.3 474.9 476.1 478.6 481.7 484.9 489.4 498.3 501.6 504 506.1 506.4 505.8 503.6 506.6 507.4 510.2 510.2 513.2 516.9 524.2 530 536.6 542.7 549.2 555.2 563.8 569.2 572.7 577.7 588.1 597.3 601.5 601.5 602.6 604.9 610.9 615.4 616.1 617 622.4 622.6 622.4 622.2 620.4 619.1 618.3 613.4 607.7 602.1 597.1 592.1 588.9 587.2 586.7 584.7 584.7 585.2 584.7 585.9 582.9 577 571 566.9 565.1 562.5 557.2 550.9 546.1 539.1 530.2 524.3 516.3 510.7
250.6 254.4 264.9 265 256.5 254.2 249.5 243.6 237.6 233 232.2 229.9 229.2 229.3 228.8 229.5 235.3 246.7 252 245.2 244.3 249.2 259.5 265.8 271.4 278.6 286.2 285.2 285.1 285.7 292 299.9 312.1 308.2 305.6 295.1 301.1 310 319.6 334.1 345.2 353.3 358.4 364 374.7 380.2 380.9 387.9 392.3 392.3 402.1 404.5 411.1 411.2 415 417.1 420.7 425.2 425.7 433 438.9 452.1 464.5 476.1 475.1 469.3 475.6 484.8 499.3 508.4 510.7 522.2 524 513.8 502.3 491.6 485.7 479.3 476 474.5 472.7 470.4 465.5 459.7 451.6 456 451.9 445.4 437.9 432 431.9 430.4 427.5 423.5 421.2 418.7 415.9 414.6 412.2 411.3 402.6 402.5 402.7 402.1 401 400.6 402.2 404.5 405.6 406.2 414 425.6 428.8 434.5 441.2 447 447.4 446.7 447.4 451.4 456 460.6 465.1 467.4 469.3 474.3 476.7 478.7 479.6 482.5 486.4 489.2 496.8 501.9 506.4 508.9 511.4 511.7 512.8 512.5 516.4 517.4 518 520.4 524 526.8 530.8 538 544.5 551.3 560.2 566.6 570.5 573.8 580 589.1 594.2 597.7 600.3 600.9 603.4 607 613.3 617.6 617.7 621.4 621.5 622.4 622.8 622.3 621.5 620 616.6 613 607.2 601 596.3 591 587 584.4 584.6 582.9 582.9 583.8 582.3 582.4 581.6 578.8 572.6 567.5 565.8 561.7 556.4 552.9 549.1 543.1 537.6 530.3 523.8 515.9
248.9 249.5 259.9 262.9 258.1 257.6 254.1 244.5 237.2 232 233.4 229.8 228.9 229 230.3 229.7 234.1 243.7 248.8 243 242.9 251.8 258.2 264.5 267.7 276.1 283.1 282 279.6 282.1 291.4 300.3 303.4 295.3 288.7 288.2 300.9 311.2 317 334.7 344.5 351.1 357.6 361.5 367.4 376.4 380.8 384.6 390.4 389.1 399.2 404.6 411 409.9 412.7 417.4 419.7 422.1 427.4 434.5 438 449 462.5 467.8 464.5 465.7 470.1 480.8 495.1 503.4 511.7 519.3 515.3 503.6 492.5 486.9 480.8 476.3 475 473.6 471.2 468.9 464.1 455.3 453.1 452.3 446 438.5 433.1 434.1 433.8 430.2 425.1 422.5 419.5 417.2 415.4 414.9 414.6 413.2 407.1 403 400.9 400 401.8 402.7 403.1 403.4 406.6 410.6 415.2 424.6 432.1 439.5 445 446.9 448.2 448.4 451.4 455.5 460.4 462 466.7 472.3 474.8 477.6 482.6 486.2 486.4 488.5 491.2 499.5 504.6 509.3 510.9 514.1 516.6 518.1 519.2 519.9 523.1 524.1 526 530 532.1 536.6 541.1 547 553.6 559.4 566.5 572.3 577.1 582.6 589.9 594.9 597 599 600.3 602 605.9 609.4 613.1 617.8 619.2 621.2 621.8 622.3 622.5 621.6 620 617.2 611.9 606.7 604.4 598.3 593.7 588.6 583.6 581.4 580.8 577.8 578 577.7 577 576.3 577.5 575.3 572.4 567.9 564.4 561.2 558.4 555.1 552 546.5 542.2 537.6 529.1 521.5
249 248.2 252.6 258.5 257.5 256.2 255.3 245.3 237.1 231.5 231.9 228.5 228.3 226.2 233.3 231.1 232.6 240.7 245.6 238.2 246.4 251.1 257.2 262.7 263.9 272.1 279.5 278 275.9 276.3 289.3 292.8 288.4 278 283.1 291.9 298.5 308.6 318.7 332.2 343.7 348.2 354.3 359.4 365.1 372.2 379.5 383 385.2 387.4 395.1 405.5 408.8 408.9 409.8 415.2 419.5 422.2 428.7 433.7 436.2 446.7 455.4 457.2 453.7 458.3 465.9 479.1 493.5 502.8 515.9 513.3 503.9 495 488.5 483.2 476 474.8 474.5 472.9 470.1 460.6 457.8 450.8 449.9 446.4 439.2 435.7 437.5 437.4 433.8 427.8 423.6 421.3 418.5 416.5 414.5 414.5 414 410.5 405.7 404.2 402.6 402.7 402.6 403.2 403.9 404.5 412.4 417.8 418.5 426.8 436.3 442.1 444 446.1 448 451.7 455.2 458.9 465.8 467.5 470 478 481.8 483.8 486.6 491.2 491.1 495.1 501.4 507.8 513.5 516.3 517.4 521 523.3 524.8 526.5 527.8 530.9 531.9 536.1 539.7 544.1 550.6 556.7 557.7 564.1 572.1 574.3 577.6 583.6 590.2 595 598.3 599 599.1 599.7 601.1 605.6 610.8 615.2 617.9 619.2 620.7 621 620.9 619.4 616 612.9 608.6 606.2 603.6 598 595.5 590.4 585.9 581 578.8 576.9 576.1 575.6 574.7 573.1 571.4 571.1 571.3 569.8 566.9 563.9 561.1 560 557.4 552.6 549.4 545.6 541.1 536.2 528.1
249.8 247.3 246.8 253 253.5 252.4 255.6 244.7 236.4 232.6 230.9 227.9 225.8 232.6 234.8 232.8 231.7 238.6 235.4 238.9 244.5 250 256 261.1 260.7 269.2 275.5 274.1 270.4 269.4 281.7 279.4 272.9 266.1 283.1 290.4 298.1 306.6 318.9 330.7 341.3 346.3 350.3 358.2 362 366.6 375.9 381.3 384.1 386.2 392.1 403.6 408.5 409.3 409.9 412.6 417.7 421.9 429.5 432 434.3 443.7 448.5 445.6 448.1 453.4 463.9 480.7 494.3 506.2 511.2 504.1 497.8 490.4 484.9 478.1 473.5 473.5 473.8 473.4 468.6 459.6 450.6 448.7 446.1 442.3 437.5 440.1 440.9 438.1 431.9 426.6 422.7 420 418.4 416.3 415.1 412.5 411.9 407.2 405.9 405.6 405.1 404.5 405.3 404.4 411.9 423 421.8 423.3 424.1 428.8 438.8 438.7 442.3 446.7 451.6 455.3 459.9 465.8 468.5 474.5 478.5 483.3 489.2 488.9 489.5 493.5 497.2 503.9 509.3 515.3 519.5 523.4 526.7 529.5 531.7 533.2 534 534.9 536.2 540.9 545.1 550.2 555.8 559.5 566.5 565 572.3 576.7 580.1 581.9 587.8 591.6 595.6 598.2 598.9 598.2 600.4 602.8 605.7 611 617.5 618.1 618.3 619 618.6 615.7 609.6 605.5 602.8 599.4 597.4 591.2 590.1 589.2 582.8 580.5 576 575.4 574.8 573.1 572.5 571.6 570.1 566.6 565.1 566.6 566.4 564.1 562.8 561.6 559 556.7 554.1 551 547.7 543 539.7 534.5
258.3 248.7 246.3 247.1 248.8 248.4 256 247.4 239.5 234.3 231.7 226.1 227.4 231.6 235.4 235.6 233.8 235.3 237.5 240.5 243.7 248.4 254.6 258 258.5 263.7 268.5 268.4 262.8 259.7 271.6 266.3 252 274 281.6 289.1 297.2 305.3 317.3 327.4 336.7 344.7 347.9 354.7 357.8 362.1 366.2 379.2 384.3 386.9 391.1 400.5 409.4 409.7 410.1 410.7 415.4 420.3 427.8 428 433.6 439.4 442.5 442.4 446.5 455.1 468.8 485.9 497.9 507.2 502.4 497.1 492.3 485.7 479.7 472.7 470.6 471.4 473.1 469.5 462.5 452.1 448.9 447.9 446.6 442.9 442.8 443.2 440.9 436.8 430.4 425.3 422.2 420.5 418.1 417.1 415.6 413.5 411.2 409.2 407.9 408.5 409.1 407.3 407.2 408.1 424.4 427.8 428.5 428 429.6 434.2 437 440.7 445.4 450.6 454.6 459.8 466.2 469.9 475.9 481.9 486.3 483.5 490.2 490.7 492.2 500.1 508.7 514.7 519.9 524.7 529.1 532.7 533.4 536.4 541.1 544.3 543.6 550.2 555.6 556.8 560.4 564.3 567.6 570.9 573.3 573.8 572.7 577.1 580.1 583.4 586.7 590.8 593.2 595 595.9 596.5 599.9 601.2 604.8 612.3 617 615.6 614.9 612.7 608.4 603.8 601.7 598.2 597.1 594.2 590.3 585.9 583.4 579.5 577.2 574 572.3 571.2 572.3 570.6 570.6 567.6 567.4 564.4 560.9 562.7 563.5 562.4 560.9 560 559.7 557.1 555 550.7 547.1 543.4 540.4 535.3
264.8 253.2 245.8 244.8 244.8 244.8 251.9 250.2 242.7 235.3 233.1 225.4 227.2 230.5 235.5 235.6 235.4 236.5 236.7 240.2 245.3 247.1 251.8 254.3 253.6 252.3 259.6 260.5 257.5 252.1 261.7 253.4 252.5 265.5 278.3 288.4 298.5 308.1 319 332.3 339.3 340.4 346.3 351.7 356.1 360 367.4 373.4 382.9 385.6 389.9 397.6 407.9 410.8 411.3 411.9 413.7 419.9 427 428.4 435.2 433.8 435 440.7 449.5 461.8 473.8 491.7 502.9 502.5 495.2 492.2 487.9 482.4 472.3 468.5 467.8 470.2 466.6 461.4 453 449.2 448.1 448.2 448.9 445.6 444.6 442.3 439.2 433.7 428.3 424.1 422.2 420.7 419.3 417.7 416.2 415.6 412.3 410.4 410.5 413.9 423.5 419.9 410.3 414.4 424.5 428.3 430.6 432.2 433.5 437.9 438.2 443.8 448.1 452.5 458.7 466.9 472.1 478.2 484.1 487.9 489.1 487.4 490.5 494.8 503.1 506.4 519.8 526.4 531.6 533 536.3 541.1 543.1 549.3 556.8 560.4 562.1 564.6 568.1 567.1 568 569.1 573.6 574.3 575.5 576.9 576.4 578.4 580.4 581.7 584.3 586.2 588.6 591.7 595.1 593.6 595.6 596.6 602.7 607.3 610.9 609.4 608 604.1 600.5 599 595 590.7 588.3 583.9 582.6 578.1 574.7 575.9 571.1 570.7 569.7 568 569.4 565.8 567.9 564.8 562.5 561.7 558.1 558.8 560.1 559.8 558.8 556.8 556.7 556.1 554.4 550.5 546.8 543.4 540.3 536
270.4 258.2 248.3 243.4 243.5 242.7 245.7 251.3 242 234.1 233 232 224.8 229.5 234.3 237.1 237.1 235.5 236.3 244.1 249 244.8 248.3 247.2 245.8 245 251.5 251.4 249.9 249.7 247 248.3 253.9 261.1 278.3 288.4 299.9 310 320.1 331.9 338 337.5 345.1 351.2 355.1 359 361.6 364.1 374.4 385.9 389.4 397 404.9 409.5 409.8 412.2 413 422 426.5 433 437.4 431.9 432.7 441.6 455.9 468.3 481.9 497.4 501.8 494.1 490.2 489.2 485.8 476.3 465.8 466.2 468.5 466.9 459.9 453.9 449.9 448.2 448.7 451.1 449.8 447 444.8 441.3 434.4 430 426.5 424.5 422.2 420.6 418.5 417.1 415.7 413.3 411.3 412 414.1 421 426.8 426.3 423.8 418.9 427.1 430.4 432.2 435.3 435.9 438.7 440.2 444.9 449.5 455.8 466.8 473.5 481 486.4 489.4 490.8 491.9 491 494.9 507.2 517.9 524.4 528.5 535.4 536.2 540.2 546.9 557.5 562.3 562.7 566.5 569.6 570.2 572 575.2 576.1 576.2 577.7 580.1 581.2 581.1 581.6 582.4 582.1 583 582.5 582.1 581.6 583.9 585.4 588.3 590.4 592.4 594.1 596.7 601.4 604.2 602 596.2 593.6 589.1 585.3 582.5 582.5 582.9 578.8 575.7 571 570.3 569.3 567 567 565.5 565.7 564.3 560.4 562.3 562.8 560.9 555.9 555.1 553.7 555.7 555.8 555.1 553.2 553.3 554.1 553.1 550.1 545.5 543.3 540.2 536.9
