ncols 200
nrows 82
xllcorner 260000
yllcorner 633850
cellsize 50
194.8 195.4 199.1 205 206.7 208.9 212.3 214.9 218.2 223.2 230.8 236.5 243.3 259 277.8 305.8 306.7 308.9 292.7 249.6 231.4 223.2 214.4 204.3 199.9 205.1 217.6 227.6 231.2 232.8 233.7 235 236.3 236.7 237.7 238.7 239.5 238.9 237.5 236.6 236.2 234.5 234.9 234.2 233.6 233.2 233.3 233.8 234.1 234.5 235.3 235.9 235.7 235.8 235.4 234.6 233.8 232.1 229.6 227.7 225.2 221.2 217.9 214.1 211.4 208.6 205.6 200.1 193.8 192.2 193 197.1 198.5 197 196.5 194.8 193.6 193.1 193.3 193.2 192.5 191 192.2 190.7 190.5 190.3 190.2 190.4 190.6 190.3 190.4 192.8 192.3 192.9 191.9 194.1 195.6 195.4 195.7 194.8 197.3 201 204.8 208.2 212.5 217.5 221.9 225.9 228.5 231.8 236.9 240.8 244.8 247.5 249.2 248.9 248.3 247.5 247.1 247 246.9 248.6 251.5 254.3 256 257.8 259.6 259.2 259.7 261.1 262.8 267.1 269.3 270.2 271.1 273.5 275.8 277.4 278.9 280.2 283.3 286 287.5 289.6 292 294.4 296.7 299.4 298.7 307.5 311.9 316.1 320.4 324.4 327.8 331.3 335.5 339.7 344 348.9 353.4 358 363.7 368.7 373.1 377 378.7 381.4 383.1 385.2 386.9 388.3 389.5 389.1 385.5 379.6 370.3 363 357.5 353.2 349.2 346.2 344 342.6 340.2 338.2 336.7 335.5 334.9 334 333.1 331.7 331.4 330.7 329.5 328.4 327.4 325.9 322.5 324.9
190.5 196.3 197.4 197.2 199.5 205.3 208.1 207.4 213.1 218.1 224.8 231.7 237.7 248.5 279.3 293.2 292.8 304.7 276.9 235 223.5 216.2 206.1 198.3 200 211.1 218.4 223.9 228.7 230.7 232.2 233.2 234.2 234.7 235.4 237 237.1 235.6 234.3 234.8 234.6 234 233.6 233 232.4 232.4 231.7 232.2 232.5 232.9 234.1 235.2 235.3 235.5 235.9 235.2 234.8 233.2 229.9 226.6 224.6 221.3 218 215.1 211.6 207.5 204.4 198.1 195 193 192.1 193.7 193.9 193.7 195.7 195.4 194.5 193.6 193.5 193.4 194.1 191.8 191 191.1 190.9 190.5 190.5 190.6 191 190.7 191.3 193.1 192.9 193 193.7 197.1 197.9 197.3 197.6 197.3 199.7 203.5 207.3 211.6 216 221.1 224.7 228.5 230.2 234.3 238.8 243.1 248.1 250.2 250.1 249.4 249 248.8 248.6 249 249.7 251.3 254 256.5 258.1 259.1 259.4 260.7 261.8 262.8 266.5 270.1 272.5 274.1 275.7 277.3 279.2 280.9 282.5 284.9 287.2 289.5 291.1 292.6 295 297 299.5 303 305.4 307.9 309.3 318.1 323.3 327.4 330.7 333.4 337.3 341.3 345.5 350.2 355.4 360.1 365.1 370.1 374.8 379.4 381.9 383.4 383.6 384.6 385.7 386.3 386.3 384.2 380.5 372.9 365.3 359.6 354.5 350.8 347.8 345.3 343.9 342.5 340.9 338.8 337.7 337.1 336.4 335.1 334.1 333.6 332.3 331.4 330.6 329.3 328.4 323.6 326.4 326.4
180.8 184.6 188.5 189.9 194.2 198 199.3 200.7 205.3 211.1 216.9 222.2 226.8 230.4 243.3 251.7 251.8 245.5 231.9 221.8 221.7 207.5 198.3 199.6 210 219.3 219.5 219.9 222.9 227.4 229.2 228.9 230 230.4 231.7 232.6 232.3 232.2 232.2 232.9 233 232.3 232 231.9 231.4 231.1 230.2 230 230.4 230.9 231.9 233.5 234.2 234.8 235.2 234.8 234.6 232.6 228.6 225.8 223.2 220.6 217.5 213.1 210.2 207.3 203.5 197.5 197 196.4 190.5 193.7 193.5 193.4 193.9 195.7 194.5 193.8 193.4 192.3 194.3 191.5 191.5 191.4 191.1 190.8 190.7 191.5 191.1 190.9 192.5 192.8 193.2 193.9 195.6 198.9 199.6 199.2 199.7 200.3 203.3 206.4 210.7 215.3 220.7 225.2 229 230.2 231.9 236.2 240.8 245.8 250.2 251.1 250.3 250.5 250.1 250.5 250.7 251.6 251.8 253.7 256.6 258.5 260 260.5 263.3 263.1 263.5 264.9 268.8 272.5 274.6 277 278.8 279.8 281.1 284.2 287 289 290.9 293.2 294.6 295.5 297.5 299.6 301.8 305.1 309.1 311.8 316.9 319.6 317.1 329.5 332.9 335.8 339.6 343.2 347 351.6 357.1 362.5 367 371.5 376.5 380.4 382.8 383.5 383.7 383.2 381.7 379.3 376.9 373.3 369.2 364.8 359.4 355.3 351.6 348.6 346.5 345.4 343.8 342.3 340.7 339.8 339.1 338.1 336.9 335.7 335.3 334.1 332.9 332.1 331.4 330.4 329.1 324.5 328.4 328.8
175.7 176.4 177.8 180.7 184 187.8 192.5 194.1 196.3 200.4 206.7 211.4 218 217.3 219.4 223.3 218.5 219.9 215.7 212.1 206.3 191.7 198.4 210 220.1 220.4 215.1 215.9 218.8 220.7 221.9 221.8 223 222.8 225.7 228.8 229.7 228.6 228 228.9 230.1 229.6 230.2 230.5 230.3 229.5 227.8 227.8 228 227.9 228.9 232.1 233.8 234 232.8 232 231.7 229.4 226.8 224.6 222.1 219 215.9 212 208.7 206.2 201.7 197.7 197.5 196.3 191.6 191 191.6 192.7 193.1 194.4 194.3 194 193.7 193.3 191.8 191.8 191.1 191.4 191.5 190.8 190.9 191 191.4 190.8 193.3 193.5 194.4 196.1 198.3 201.2 202.6 201.9 201.4 203 205.6 209.8 215.4 220.4 224.9 228.9 230.6 231.3 234.1 238.6 243.3 248 250.8 250.9 251 251.9 252.5 252.1 252.4 253 254.7 256.7 258.5 261.7 261.8 264.5 265.8 265.4 265.2 267.9 271.7 274.5 276.6 279.7 281.2 282.6 285.1 287.2 289.8 292.2 294.4 296.6 298.1 299.2 300.8 303 305.2 307.7 311.4 316.4 320.2 324.3 327.6 323.9 333.9 338.3 341.9 344.7 348.4 352.9 358 363.2 367.7 371.9 376.5 379.8 382 383 382.2 379.5 374.8 370.9 366.9 363.1 360 357.6 355.2 353 350.7 348.9 347.4 346.2 344.9 342.9 341.3 340.2 339.4 338.3 337.6 336.8 335.7 334.7 333.4 332.8 332.1 331.1 327 328.6 330 330
170.9 172 173.6 177.3 180.5 184.5 189.5 190.1 187 195.4 199.7 202.2 205.7 201.5 205.1 210.8 202 203.2 200 193.3 185.3 184.3 201.4 221 220.6 214.9 212.2 212.5 213 213.7 216.7 220.2 220.3 220.1 219.6 220.5 224.3 224.7 223.6 224.5 227 227.8 228.4 228.8 227.8 227 226 225.7 225.9 226.3 226.6 228.1 231.8 233.1 231.3 229.2 227.3 225.2 223.7 221.5 219.5 216.9 214.4 211.3 207.9 205.2 199.4 198.1 197.5 195.9 193.9 192.6 192.4 193.7 196.1 192.4 194.4 193.6 193.4 193 191.9 192 191 190.3 190.8 191.5 191.5 191.5 191.2 191.5 193.4 194.4 196 198.3 200.5 202.5 203.5 202.8 203.6 205.8 208.4 214.1 219.5 224.2 227.6 229.9 232.4 234.4 236.4 240.9 245.9 249.4 251 251.3 252 252.2 253.4 253.3 254.4 255.4 257.9 260.6 261.1 262 262.7 263.2 265.9 266.3 267.9 269.9 272.3 275.4 278.7 281 283 285.9 288.5 290.4 292.5 294.7 298 300 301.8 303.1 304.6 306.9 310.1 313.9 317.9 320.6 323.4 327.2 330.7 334.6 335.2 337.4 343.6 346.6 350.1 354.2 358.7 363.5 367.9 372.1 375.8 378.9 380.9 381 379.3 375.4 369.1 368.6 368.1 367 365.2 362.6 360 357.4 353.8 350.9 348.8 347.2 345.5 343.9 342.1 341.1 340.4 339.8 338.5 337.4 336.1 335.2 334.2 333.4 332.4 331.2 327.4 331 331.6 331.7
164.7 166.8 171.5 173.6 175.3 179.9 178.7 181 181 186.7 192.5 193.2 194.7 193.1 194 194.3 191.5 185.4 181.9 182.1 182.6 202.2 217.2 221.1 213.1 209.9 209.8 208.9 208.8 208.4 209.2 211.9 215.3 219.2 219.1 218.8 218.8 219.4 220.4 222.1 223.4 224.6 225.2 224.6 223.6 222.9 222.2 224.6 225 224.4 225 225.8 228.6 230.4 229.3 227.7 225.5 223.6 221.9 220.8 218.9 216.8 213.9 210.5 207.4 204.5 199.9 198.5 197.5 195.9 193.8 192.4 193.5 193.5 193.8 193.9 195 193.5 193.6 193.2 193.1 193.3 191.9 192.1 191.3 191.8 191.6 191.3 190.9 191.9 194.4 196 196.2 199.4 200.8 202.4 203.1 204.5 206.1 208.3 213.7 218.6 223.3 227.5 230.4 232.8 234.9 237.3 239.3 243.3 248.1 250.3 250.8 251.5 252 252.2 253.1 254.5 255.6 257.1 261.3 260.5 262 263.5 263.8 265.1 267 267.9 269.5 271.2 272.9 276.2 280.2 281.7 285 288.6 291.5 293.1 296.7 298.5 301.6 303.6 305.6 306.9 308.6 311.7 316.5 319.9 321.6 324.5 327.1 330.1 333.5 337.1 340 341.9 343.1 348.9 352.5 355.4 359.6 363.5 367.4 370.9 374.8 377.8 378.9 377.9 375.3 372 376.6 378.1 375.9 374.7 372.6 369.8 366.9 362.7 358.3 355 351.2 348.4 346.2 344.6 343.3 342.3 341.3 341 339.8 337.7 336.5 335.6 334.7 333.8 332.3 328.8 331.3 332.4 333.6 332.7
161.4 166.8 169.1 169 169.9 171.6 172.9 173.6 174.5 176 178.3 180.5 184.9 182 179 177.8 176.3 177.6 176.7 180.5 198.2 211.2 220.9 214.3 208.8 208.2 208.3 208 206.8 206.1 205.3 208 210.4 207.2 211.3 218.9 217.9 218.2 218.9 218.4 220.1 220.7 221.7 220.8 220.4 219.5 220.7 222.2 222.3 223 223.5 224.5 225.9 226.9 226.9 226.1 224.1 222.2 220.8 219.1 217.6 215.7 211.8 208.7 205.6 199.4 199 196.6 196.8 195.8 193.9 192 194.1 193.6 193.9 194.1 194.4 194.3 194 193.5 193.9 193.3 192.5 192.5 192.5 192.1 192 191.8 190.9 192.6 194.6 197 196 200.3 201.8 203.2 204.4 205.6 207.9 211.4 217.6 222.5 227.3 231.5 234.2 236 237.9 240.5 242.4 246.2 249.7 250.9 250.1 249.4 250.5 251.5 253.4 255.2 256.6 258.8 261.1 261.7 264.1 264.8 265.4 267.6 268.9 271.2 271.6 273.5 275.3 277.6 281.6 284.8 287.4 291.2 294.8 297.6 300.3 302.8 305.1 307.1 309.1 310.6 313.1 317.2 322.1 324.1 326.3 329.2 332.3 334 336.7 339.8 342.9 345.1 347.1 349.9 354 356.9 360 363.4 366.8 370.5 374.2 376.8 376.3 376.7 378.7 380.1 381.4 381.4 380.3 378.8 377.3 374.6 371.2 367 362.6 358.3 353.8 350.1 347 345.1 343.9 343.4 342.5 342.1 340.1 337.7 336.3 335.4 334.7 333.6 331.9 328.9 332.5 333.3 334.2 334.1
160 163.1 163.8 164.5 165.6 167.1 168 168.9 169.2 167.9 167.8 168.6 173.9 170.5 170.8 175.7 182.1 177.4 192.7 201 214.1 221.4 220.8 208.4 207 207.4 207.9 208.8 207.6 205.3 203.8 206.6 207.7 203.9 205.3 207.5 211.4 216.8 218.1 215.3 214 218 218.1 218.2 218 218.8 220.3 221.5 220.2 223.2 222.1 222 222 222.2 222.6 221.9 220.8 219.3 218.1 216.8 216.7 214.6 211 205.2 203.2 199.7 198.6 197 196.2 195 193.4 194 194.6 194.8 195.1 194.7 194.7 195 193.8 194.2 194.7 193.7 192.9 193 192.8 192.6 192.4 192.5 190.5 192.2 194.4 196 196.4 199.8 203 205 205.5 206.8 209.6 215.2 220.3 224.7 229.9 233.8 236 238.2 240.4 242.1 244.2 247.9 250 249.7 248.3 248.1 249.8 251.3 253.6 255.1 258.1 260.1 261.7 263.4 265.2 265.1 265.6 267.5 269.5 275.1 272.8 273.4 275.5 279 283.2 287.3 290.6 294.3 297.2 300.2 303.1 305.9 308.7 310.6 312.6 315 317.8 323.2 326.8 329.4 331.7 334.4 337.4 338.4 340.8 343.3 346.2 349.4 352.1 353.8 353.8 358.1 360.5 363.5 366.4 370.4 373.6 375.2 377.2 379.6 382.1 385 386.8 387.6 388.4 387 385.5 381.3 375.1 370 364.2 359.6 354.5 351.1 348.4 346.1 344.5 343.6 342.7 341.5 339.4 337 336.1 335.2 334.2 333.4 331.6 330.9 333.1 333.8 334.6 335.1
156.1 169.8 159.8 159.4 160.3 161.1 163.5 163.9 164.8 165.7 168.7 169.3 171.4 176.6 180.7 185 196.4 196.5 200.4 217.5 220.2 220.7 211.1 204.4 205.5 205.9 206.3 206.7 207.6 206.2 203.4 205.5 204.4 203.4 205.2 207.4 208.8 210.2 211.7 215.4 214 215.4 214.5 216.9 217.1 217.3 218.7 220.3 219.2 221.2 221 220.5 219.6 218.9 218.7 218.8 218.1 215.2 213.7 214.2 215.2 209.5 203.8 202.3 201.2 200.1 197.8 195.9 195.5 194.1 192 194.1 194.5 194.4 195.1 194.9 195.4 194.6 195.3 195.2 195.1 194.3 193.3 193.1 193 193 192.8 192.8 190.1 192.5 194.7 195.3 196.7 200 203.5 205.7 206.3 208 210.9 215 218.8 223.7 228.6 233.8 236.7 239.4 240.9 244.3 245.4 247.4 247.7 246.5 246.4 248.3 250.3 251.8 254 256.9 259.5 261.5 263.3 265 265.4 264.8 265.9 267.1 269.4 273.2 272.9 274.6 276.3 279.9 285.3 289.8 293.2 294.9 299.6 302.9 305.9 309.3 312.4 314.5 316.7 320.9 324.2 326.6 330.3 334 337.2 339.8 341.5 343.2 345.5 348.2 350.5 353 354.6 357 357.7 357.7 360.4 363.2 365.9 369.8 373.2 375.4 377.7 381.8 386.3 389.9 393.3 396 395.7 393.6 390.4 384.9 378.5 372.2 365.6 359.7 354.5 350.3 347.8 345.5 343.8 342.1 340.8 339.5 338 337 336.3 335.5 334.7 333.4 330.5 330.8 332.6 333.3 334.2 334.4
153.8 155.2 154.1 153.3 158.1 157.6 158.3 162.3 171.5 173.1 176.1 177.9 176.7 181.8 194.6 204.1 207.9 215.4 217.3 217.3 219.2 221.4 208.1 203.1 203.9 204.4 204.6 204.7 206.6 208.4 205.4 203.5 203.1 203.8 205.2 207 208.8 208.9 209.2 211.1 213.6 216.4 214 215.7 216 215.9 216.6 217.4 218.1 218 218.8 218.2 217.5 216.7 216.8 215.7 214.6 211.6 206.4 207.3 208.7 204.6 202.5 201.1 201.4 200.6 199.6 198.3 195.5 194.4 193.6 194.2 194.4 195.4 195.5 195.7 195.6 194.7 196.1 195.9 195.7 195 194.1 193.2 193.2 193.1 193.1 192.8 190.2 193.1 194.7 195.3 196.4 200.5 203.6 205.8 207 208.1 211.5 215.7 219.3 223.8 229.5 233.4 236.8 238.9 240.8 243.6 244.1 244.6 243.8 244.3 244.7 247.8 250.3 252.3 255.1 257.6 259.2 262.3 264.4 265.4 266.3 266.7 266.4 266.8 268.4 271.8 273.5 275.6 279.3 282.1 286.6 290.4 294.1 298.2 301.9 305.6 309 312.8 316.1 318.7 321.7 327.1 329.8 331.8 335.1 339.2 341.8 343.2 345.6 347.5 349.4 352.1 354.3 356.1 358.8 360.7 361.3 362.4 363.3 362.7 366.8 369.5 373.5 377.5 381 386.1 391 395 398.3 400.2 400.5 397.1 392.3 386.1 379.6 373.1 365.4 359.2 353.8 349.3 346.5 344.3 342.3 340.6 339 338 336.9 336.7 336.5 335.8 335.2 334 332.2 330.3 332.3 333.2 334.1 334.3
149.3 153.2 156.5 157.9 159.2 162.2 166.7 172.5 173.7 177 181 185.4 187.1 196.8 211.1 204.2 202.3 203.1 201.1 203.1 209.8 212.1 201.5 201.8 202.4 202.7 202.9 203.3 205.2 207.7 207.3 203.7 203 203.5 204.4 205.9 207.8 208.4 208.8 210.6 212.5 213.9 216.5 214.9 214 214.2 213.7 214.2 214.7 213.7 212.6 214.4 214.2 213.4 211.6 211.5 208.9 203.4 201.2 200.7 200.3 202.3 200.7 199 200.9 200.2 199.1 198 194.8 194.1 193.6 194.9 195.8 195.9 196 196.1 195.2 195.9 197 196.5 196.1 195.5 194.6 193.4 193.5 193.5 193.5 192.5 191.3 193.6 194.7 195.5 196.2 199.3 203.1 206.3 207 207.6 210 214 218.4 223.3 229 232.6 235.9 238.3 240 242.3 242.8 242.6 242.7 243.3 244.2 247 250.4 252.6 255.9 258.1 259.6 260.6 262.5 263.3 265.2 266.9 268.1 267.9 270.3 273 274.7 277.2 282.2 283.7 287.2 291.3 295.1 300.5 304.1 308 312.1 316.1 319.5 323.1 327.9 331.2 334.6 336.7 340.7 344.2 346.4 347.5 349.7 352.3 354.9 357.5 359.4 360.9 363 364.7 365.7 366.2 366.8 367.2 368.1 371.8 376.4 381.8 386.7 391.1 394.9 399.1 402 402.8 401 397.9 392.6 386 379.6 373.4 365.4 358.3 352.7 348.1 345 342.5 340.3 338.6 337.1 336.8 336 336 336 335.7 335.1 334.1 331.8 330.2 332.2 332.9 333.8 334.7
156 157.3 158.3 163.7 169.9 173.5 176.3 179 181.4 180.6 191.5 196.8 203.4 201.2 196.3 197.2 198.2 198.9 199.1 200.3 200.9 200.6 200.7 200.7 200.9 201.4 202 202.7 204.2 207.1 209.9 203.5 203.8 205.8 206.2 205 207.2 208 208.9 209.8 214.6 215.1 216 216.4 216 215.5 213.9 211.6 210.9 209.6 208.7 211.3 211.5 209.3 207.2 205.6 202.8 201 200.2 199.8 199.3 198.9 198.5 197.7 197.1 195.7 197.7 197.4 193.5 193.7 194.9 195.2 196.6 196.4 196.4 196.1 195.1 196.7 198.2 197.7 196.5 195.9 195.3 193.9 193.8 193.8 193.8 193.4 192.1 192.9 194.7 195.4 195.9 197.4 198.8 202.9 205.6 205.6 207.7 212 216.7 222.5 227 231 234.5 237.4 239.4 241.4 242.6 242.5 241.7 242.4 244.1 246.6 249.9 252.3 255.5 257.5 259.1 260.4 262.7 263.5 264.9 267.2 268.7 269.8 271 274 277.4 280 282.9 286.5 290.5 293.8 298.4 301.5 306.1 310.7 314.5 319.1 322.7 327.8 332.4 336.2 337.6 341.3 343.8 347.4 350 352.4 354.6 356.7 359.7 362.8 364.5 366.3 367.4 368.9 370.4 370.9 372.3 372.1 373.6 375.1 380.6 385.4 390.1 394.5 398.6 402 404 403.7 400.8 397.5 391.6 384.9 378.7 371.5 364 357.4 351.3 346.8 343 340.4 337.9 336.2 335.2 334.9 334.7 334.3 334.6 334.6 333.9 332.5 330.8 330.9 332 333.8 334.6 335.8
159.6 162.5 164.6 167.5 176.8 178.5 182.9 187.5 190.7 188.2 186.2 190.4 190.5 192 194.4 197.2 198.1 199.2 199.6 200.5 201.1 201.2 201.5 201.2 200.9 201.5 202.3 202.6 204.3 207.4 208.5 202.8 207 209.1 209 204.7 207.6 207.7 210.2 212 213.6 212.5 213.3 213.9 214.7 209.5 208.8 209.4 210.6 208.3 204.1 206.4 210.5 208.2 204.7 203.3 204.2 200.1 199.5 197.5 198.5 197.6 197.2 198 197 196 197 195.5 193.2 193.9 194.8 195.2 196.3 197.4 197.2 197 197.4 197.7 198.5 199 197.4 196.3 195.7 194.6 194.2 194.1 193.9 193.6 194 192.7 193.5 195.1 195.9 196.5 197.5 199.1 200.8 203.9 207.1 211 215.3 221.4 227.1 230.5 233.7 236.4 238.6 240 240.4 240.3 240.6 241.8 244 246.9 249.8 250.8 253.9 257.4 258.8 260.8 263.1 263.8 265.7 267.2 268.8 271 272 273.8 277.4 280.9 283.8 288 291.7 294.8 299.4 303 308.1 313 317.6 321.7 325.8 331 335.2 337.6 341.1 344 346.5 350.3 352.7 355.8 358.7 361.3 365.4 368.7 371 374 375.1 376.4 376.5 376.6 377.6 378.6 379 379.5 384.1 387.3 392.3 397.1 400.8 403.2 404 402.7 399.8 395.5 389.1 382.7 375.9 369 361.9 355.5 349.9 345.3 340.4 337.6 335.9 334.6 333.8 333.1 332.7 332.9 333 333.3 332.4 331.4 330.5 331.8 333.2 334.4 335.3 336.6
159.2 161.4 160.8 171.8 178.5 178.5 189.3 188.2 192.9 188.7 188.5 189.7 190 191.8 193.9 196.4 198.3 199.5 200.8 202.1 202.9 203.3 203.5 203.5 203.3 202.3 202.3 203.2 205 208 205.3 202.4 206.1 204.3 203.9 204.5 207.7 207.7 212.9 211.9 209.8 208.1 204.4 202 200.2 200.5 200.8 202.2 205.8 205.5 204.5 201.3 203.1 204.9 203.1 200.7 199.7 199.8 199.3 198 198.8 197.6 197.1 197.7 197 197.2 197.9 194.8 194.9 193.7 195.1 195.7 196.3 197.5 198.8 198.7 198.4 197.4 198.9 200 197.8 197 195.8 194.9 194.6 194.3 194.2 194.2 194.4 194.8 192.8 195.1 196.2 196.6 197 198.3 201.5 206 206.8 209.4 213.4 220.9 226.4 229.3 232.9 235.6 237.7 239 238.8 238.8 240 241.8 244.6 247.3 249.8 253.8 255.7 256.9 257.2 261.8 263.8 265 266.9 268.3 269.2 271.1 274 276.3 278.8 281.8 284.2 288.2 292.5 297.3 301.3 305.4 309.1 315.5 320 324.1 328 333.6 335.5 341.1 343.8 346.5 349.3 352.9 356 359.3 363 367.4 371.7 375 378.5 380.5 383.2 383.4 382.9 383 383.8 383.8 384.4 384.8 387.8 391.9 395.4 398.9 401.6 403 402.5 400.9 398 391.9 385.8 379.2 372.6 365.5 359.2 353.7 347.8 341.6 337.7 335.2 334.2 333.1 332.8 332.3 331.8 331.6 331.4 331 330.8 331.1 332.3 333.9 335.7 336.9 337.9 339.2
160.9 161.7 164.2 162.8 172.2 178.8 187.7 188.3 189.8 189.2 188.7 191.7 194.4 192.6 194.4 196.7 198.3 199.9 201.2 202.6 203.9 204.6 204.7 204.7 204.8 204 202.9 203.5 206.1 207.7 202.6 202.4 202.5 205.5 206.4 208.6 210.4 215.5 215 204.8 208.6 209.1 206 199.7 199.4 199.4 198.9 198.9 199.1 200.3 200.6 200.3 200.4 200.3 200.3 200 198.6 197.5 196.8 197.8 197.2 197.3 196.7 197.2 196.9 197.6 197.1 194.2 193.9 194 195.3 196.3 197.2 200 200.5 199.7 198.5 197.1 198.8 200 198.7 198.3 197.2 195.5 194.9 194.8 194.6 194.8 194.8 195.5 193.1 195.4 196.5 197 197.4 197.9 198.7 204.1 207.4 208.2 210.6 218.7 224.4 227.7 231.5 234.7 236.6 237.6 237.5 238.2 240.3 242 243.9 246.4 248.5 252.2 255.9 257.3 258.1 261.9 263.6 266.6 267.1 268.9 269.7 271.4 273.9 276.6 279.8 283.5 285.6 289.1 294.1 299 303.3 307.7 312.3 317.6 322.3 324.5 325.3 334 337.1 342.1 345.7 348.5 352.5 356.2 360.3 364.1 367.9 373.6 377.9 382.1 384.7 388.2 389.6 390.8 391.5 391.7 391.7 392.5 393.4 393.2 394 396.1 396.8 400.4 401.9 402.2 401.4 398.9 394.2 388 381.7 375.1 368.6 362 356 350.2 343.4 339.4 335.8 333.6 332.7 332.4 332.3 331.9 331.5 331.4 331.9 332.5 332 332.8 335.4 336.8 338.8 340.7 341.7 341.5
168.5 173.1 168.9 172.5 168 178.6 180.3 190.8 191.7 188.5 189 190.1 194.9 201.5 195.4 197.2 198.3 199.9 201.6 203 204.2 204.9 205 205 204.5 204.4 204 203.8 206.2 203.7 202.9 204.6 209.2 213.7 210.7 214.9 215.1 214.8 214.7 205 202.3 201.5 199.9 199.8 199.6 199.4 198.9 198.4 198.5 198.7 199.2 199.5 199.6 199.5 199.3 199.3 198.7 198.1 198.7 198.2 197.5 196.7 197.1 198.3 197.9 199 195.9 194 193.9 193.5 195 196.5 198.1 201.4 201.4 200.5 199.3 197.8 199.8 200.5 200.2 199.8 198.6 196.6 195.1 195.2 195.2 195.2 195.2 195.8 192.5 195.2 196.2 197.2 197.6 198.2 198.6 204.4 207.8 207.8 208.7 216.4 224.3 226.4 230.2 233.6 235.1 235.8 236.6 238.7 240.8 241.1 243.4 245.6 249 252.8 256.5 257 259.8 262 263.6 266.1 267.7 269.1 270.5 272.4 274.8 277.2 280.6 284.1 286.5 290 294.3 299.8 305.8 310 314.8 319.3 321.8 324.8 329.6 333.4 338.6 342.6 346.7 350.4 353.9 358.4 364.2 368.8 374.7 381.3 384.9 388.8 392.2 396 398.7 399.4 399.8 400.6 401 400.8 402 401.2 400.6 399.5 400.7 401.5 401.9 401.4 400.2 396.3 390.6 383.2 377.2 370.9 364.7 358.4 352.6 347 341.1 336.8 334.6 333.5 332.5 332.2 331.9 331.9 331.8 332.2 333.1 333.5 334.5 336.1 337.8 340.2 341.2 343.1 344.6 345.1
172.9 179.8 177.7 186.8 182.4 178.8 179.2 178.1 189.5 190.5 190.8 191 192.5 199 200.7 198.1 198.9 200.4 202 203.5 204.1 204.7 204.9 204.8 204.2 204.2 204.2 205.5 205.8 205.1 205.2 207.6 212.4 216.3 214.5 212.6 213.5 213.4 206.2 202 202 200.9 200.6 199.8 199.7 199.4 198.9 198.5 198.9 198.9 198.8 198.9 199.1 199.1 199.6 197.9 198.8 199.4 199 198.8 197.6 196.6 197.4 199.2 199.2 198.2 196.4 194.2 194.1 195.2 198.5 198.9 199.6 201.5 201.8 201.1 199.6 197 200.6 201.5 201.4 201.1 200.7 198.3 196.9 196.4 195.4 195.2 195.4 195.7 196.4 194.9 195.1 197.5 198.1 198.6 199.2 200.5 202 205.1 208.6 216.7 222.6 225.6 229.7 231.7 233.4 234.6 235.9 237.4 239.3 239 241.1 244.7 248 252.6 256.3 257 260.9 263 264 266.8 269 270.1 271.4 273.6 275.8 278.7 281.8 284.4 287.5 291.3 295.6 301.2 307.7 311.9 316.2 318.3 323.1 327.3 329.7 334.9 339 342.8 346.8 350.8 355.2 360.3 366.1 372.2 379.8 385.6 390.9 394.7 399.4 404 406.8 409.1 408.7 409.6 409.8 410 409.4 408.4 405.8 403.5 402.6 401.5 401.2 400.4 397.2 391.9 383.8 378.3 372 366.2 359.5 353.4 348.2 342.4 338.7 337 335.1 332.5 332.7 332.2 332 332 332.1 332.4 333.9 334.9 336.4 338.1 341.2 342.9 344.5 346.3 347.4 348.4
166.5 173.5 183.8 194.4 194 190.5 189.2 181.6 177.3 189.1 192.5 193.3 196.8 199.4 206.4 200.6 200.7 201.5 202.9 202.5 203.1 203.6 204.2 204.4 204.4 202.1 205.7 206.2 206.2 206.7 207.6 211.1 215.7 216.1 213.8 206.8 204.6 203.3 202.9 202.1 202.2 201.7 201.4 201 200.8 199.9 199.4 199.4 199.6 199.4 198.6 198.7 199 198.9 199 197.9 199.6 200.1 200.2 197.6 195.8 199.2 198.8 198.5 198.4 197.9 196.6 194.8 194.6 198 203.9 204 202.3 201.8 201.8 201.5 199.7 200.3 202.2 202.8 203 203 202.5 199.1 198.2 196.4 195.8 195.6 195.7 196.3 196.4 196.5 192.7 197.5 198.1 198.7 199.1 199.9 206.4 204.2 208.6 212.9 219 225.7 229.4 232 233.3 233.7 234.9 236.7 237.6 236.9 239.6 241.9 245.7 251 255.8 258.6 261 263.4 264 266.6 268.6 270.4 272.3 274.3 276.3 279.5 282.7 286.1 289.6 293.8 298.2 303.8 308.8 311.9 316.3 319.1 322.3 326.4 331.5 334.2 338.5 342.8 347 350.4 355.9 362.6 369.1 376.5 382.7 389.5 395.3 400.5 406 411 414 416 417.7 417.6 418 418.7 416.9 414.8 409.1 405.5 402.3 402.7 401.3 398.8 393.8 387.2 381.6 374.7 366.6 361.3 356.2 350.1 345.7 344.8 342.5 339.2 336.7 334.2 333.4 332.7 332.2 332.1 332.6 333.8 334.7 337 338.4 341.2 344.3 346.3 347.5 348.8 349.6 350.7
175.2 178 186.4 196 198.9 197.4 199.1 190.6 181 179.4 184.2 194.8 196.8 198.9 206.3 200.1 200.2 201.2 200.7 200.5 201.1 201.8 203.1 204.4 205.5 204.4 205.2 205.8 206.5 208.6 211.9 215 215.4 213.4 213.6 204.6 203.6 202.9 202.5 202.9 202.9 202.9 202.1 201.4 200.9 201 201.1 199.8 199.1 199.1 197.5 198.3 199.2 199.1 199.8 200.4 200.8 200.8 200.4 197.4 198.2 198.1 197 197.1 197.9 197.3 196.9 195.9 195 202.5 206.1 207.5 204.2 202.1 201.6 201.2 199.9 204.8 205.2 205.2 205.9 205.4 201.1 199.3 197.7 196.5 196.6 196.3 196.2 196.5 196.9 197.2 197.5 196.9 198.7 198.8 199.6 200.2 208.3 208.4 209.2 215.3 222.2 227 229.4 231.4 233.1 233.7 233.5 235.1 235.5 235.1 238.1 241.2 245.5 250.1 255.6 258.7 260.7 262.6 264.3 266.3 268.1 269.8 271.5 274.2 277.4 280.9 283.7 286.7 290.6 294.9 299.5 303.5 308.6 312.8 315.4 319.4 322.7 325.8 330.5 333.2 337.6 341.7 346.3 351.8 357.4 364.8 371.6 378.3 384.7 392.6 399.4 405.6 411.1 417.2 419.9 420.4 421.8 423.6 425.3 426 422.8 417 411.5 407.7 404.7 402.9 400.6 397.9 393.1 386.4 380.3 373 365.1 360.1 353.6 351.4 350.6 348.8 346.7 344.3 341 337.2 334.3 333.3 333.1 333.3 334.3 336 338.3 339.8 341.9 345.4 347.7 349.8 351.3 352.3 354.8 355
190.1 196.2 196.7 199.9 200.7 201.3 199.9 196.4 190.7 185.9 182.6 189.4 196.5 199 198.2 196.8 197.4 197.5 198.8 200.6 201.7 200.9 201.8 201.7 202.6 202.9 203.6 204.2 203.7 206.7 211.8 212.3 211.9 210.9 209.1 203.6 203.3 202.9 203.3 203.8 203.7 203 202.4 201.4 201.7 201.8 201.7 200.2 199.2 199.3 199.1 198 198.8 199.4 199.3 200.7 201.6 201.7 201.1 200.5 200.7 198.8 197.5 196.6 195.8 195.7 194.4 193.6 196.1 203.3 206.9 209.4 206.8 202.1 201.5 202.7 206.2 209 209.7 208.4 206.9 204.1 203.8 199.9 197.7 196.9 196.9 196.8 196.6 197.1 197.4 197.4 197.8 196 198.5 199.3 200.2 200.5 202.5 204.9 210.7 216.4 220.7 226.2 228.6 229.8 231.5 231.9 231.9 233 233.6 235.4 238.8 240.7 245.3 249.8 254.7 258 259.9 261.9 264.3 265.5 267.3 269.1 271.4 274 277.8 280.8 283.7 286.7 291.7 294.2 299.8 303.5 308.3 311.2 315.4 319.4 321.4 324.6 329 332.3 336.4 341.1 346.4 352.2 359.2 365.6 372.4 379.4 386.7 393.6 401.7 408.6 414.9 420 422.4 423.6 423.1 425.5 429.1 429.3 424.2 417.7 412.7 409.3 405.4 403.5 401.1 397.5 393.1 388.1 379.4 370 364 358.2 355.4 355.4 355.5 354.3 353 349.4 346.2 341.5 337 334.6 334.8 335.9 339.4 341.7 343.6 344.4 347.5 350.7 354 356.3 358.4 359.7 360.7 359.9
198.8 204.5 205.6 206.2 204.1 202.4 200.9 196.1 195 190.5 187.3 188.7 191.4 191 190.5 192.7 194.6 194.9 195.6 195.3 195.9 197.7 198.6 199 199.3 201.6 202.7 202.8 202.8 203.2 206.3 211.6 211.5 211.3 203.7 203.3 203.3 203.4 203.1 203.4 202.8 202 202.6 202.3 202.3 201.9 201.5 199.5 199.4 199.4 198.9 197.6 198.3 198.5 199.4 201 201.7 201.9 201.7 200.9 199.9 198.7 197.1 195.2 196.2 196.4 197 197 198.1 205.5 211.9 212.4 207.3 202.2 202.9 206.2 211.1 213.4 213.9 212.8 210.4 207.2 205.2 199.9 199 198.4 197 197 197.1 197.6 197.5 197.4 197.4 194.5 199.2 200.7 200.8 201.1 203.5 207.1 214.3 219 222.8 225.4 226.7 226.5 225.3 225.2 229.5 231.2 232.5 234.9 237.5 240.6 244.7 249.3 254.3 256.2 259 261.5 263.2 264.7 266.5 268.5 271.9 275 277.9 281.6 284.6 288.4 292 296 300.9 304.5 307.9 310.9 314.7 318 319.8 323.9 329.6 332.2 336.6 340.7 346.2 352.4 359.3 366.4 372.9 380.6 388.5 396 403.8 410.7 416.2 418.9 419.9 420.4 421.9 424.6 426.6 423.7 419.9 416.8 413.8 411 408.7 406.7 403.9 400.1 395 388 379.6 369.5 363.1 361.8 363.6 364 363.8 361.7 357.6 355 350.7 346.8 342 338.3 337.7 342.2 346.4 347.2 349.3 350.9 353.6 357.4 360.6 362.9 364.1 365.5 365 364.3
206 207.1 207.7 208.9 207.2 203.6 201.3 202 199.2 193.1 190.9 191.9 190.1 186.2 190.7 192 193.7 194.5 194.3 194.3 194.2 194.4 195.2 196.5 197.2 197.5 203.5 203.2 202.9 202.8 202.7 202.7 211.7 203.2 203.3 203.6 203.5 203.1 202.5 202.8 203 203.2 203.1 202.7 203 201.6 201.2 200.2 199.7 199.4 198.7 197.8 197.7 198.3 199.6 200.7 201.3 201.7 201.8 200.7 198.5 196.9 194.6 196.8 197.1 197.5 198.2 198.4 198.8 202.7 214.7 214 207.7 202 204.8 209.1 212.7 216 218.4 217.4 214.2 211.2 207.3 203.8 199.5 199.1 197.6 197.5 197.6 197.9 197.8 198 198.3 199.1 196.5 200.9 201.3 201.9 203.8 210.3 211.1 216.1 220.6 222.6 220.6 226.3 230.1 231.3 231 232.5 233.5 234.2 235.9 238.2 242.8 247.8 252.7 254.9 257.7 259.5 261 263.1 265.7 268.5 271.3 274.2 277.6 281.7 285.1 288.6 292.4 296.3 300.2 303.5 306.4 310.6 313.4 315.8 319.2 323.4 328.6 332 337 341.3 346.2 351.3 358.3 366.6 374.6 382.6 390 397.8 404.5 410.9 414.1 414.7 415.4 417.2 418.5 422.1 422 418.6 415.6 414.4 413.4 413.3 412.3 410.6 407.5 403.4 397.2 388 375.8 367.7 367.4 370.6 371.9 372.2 370.2 367.8 365.1 360.2 357.2 352.6 346.7 343.5 345 348.4 352.3 353.7 354.3 356.7 360.1 363.4 366.3 368.3 369.9 370.6 370.6 368.4
211.3 210.5 213 214.7 210.6 208.5 204.4 206.5 200.3 195.8 195.7 194.8 196.4 199.3 196.8 187.9 193.5 194.1 194.7 194.6 194.5 194.7 195 195.9 196.9 197.2 203.7 203.8 203.4 203.1 202.8 202.7 202.7 203.4 203 202.8 202.5 202.7 203.1 202.3 203.1 202.9 202.8 202.9 202.8 201.7 201.5 201.7 201.6 199.9 199.1 198.2 197.3 198.5 199.3 199.9 200.4 200.3 200.1 198.7 194.8 196.5 197.1 198.6 198.8 198.8 198.9 200.7 200.1 201.3 211.8 212.7 208.9 202.5 206.6 209.4 212.4 215.4 217.3 218.1 215.2 213 210.1 209.7 204.8 199.5 197.7 198.1 198.3 198.3 198.4 198.5 198.7 198.9 197.2 196.7 201.7 202.2 203 204.8 206.3 211.1 213.6 216.3 223.6 226.5 229.1 231.2 232 232.8 234.4 234.4 235.4 238.1 241.9 243.9 250.2 252.4 254.7 256.5 258.5 261.2 264.2 267 270.1 273.7 277.3 281.5 285.3 288.8 292.5 296.3 299.3 302.1 304.9 309.2 311.2 314.4 318 323.2 327.3 331.3 337.3 341.4 347.1 352.9 360.5 368 375.4 383 390.3 397.6 403.5 407.3 408.2 409.7 410.5 410.8 412.8 414.1 413.3 412.8 412.6 412.9 414 414.5 414.9 413.6 410.4 405.6 398 386.9 373.3 375.4 378.5 381.4 381.6 380.4 377.9 374.8 370.1 366.2 361.7 355.6 351.4 351.2 352 355.6 356.9 356.2 358.7 362.3 366.1 370.4 372.9 374.5 375.8 376.6 375.2 373
215.9 216.1 218.5 217.1 215.7 213.3 212.5 206.9 205.3 199.2 201.2 202.6 203.1 206.6 199.2 197.7 195.7 192.1 195.3 195.5 195.8 196.1 196 196.7 197.4 198.1 199.6 203.8 203.6 203.3 203 202.7 203.3 203.4 202.4 202.6 202.3 202.5 202.2 202.1 202.2 201.7 201.2 202.1 200.9 200.3 200.6 202.8 202.8 203.3 201.5 198.6 197.7 197.5 197 197.8 198.1 198.3 198 195.4 196.4 197.2 198.2 199.3 199.4 199.1 199 200.2 201.3 204.4 209.6 208.8 206.4 204 205 205.9 207.3 208.3 206.7 207.4 208.5 208.5 209.6 211.2 210.8 207 200.8 199.9 198.8 199 198.7 198.8 199 199.2 199.1 195.9 201.8 202.5 203.4 204.7 206.4 208.4 211 218 221.8 225.4 228.2 230.3 231.8 233.3 234.4 234.4 235.3 237.6 239 241 245.4 247.1 249.6 251.4 254.9 258.7 261.7 266.3 269.4 273.4 277.4 280.6 285.4 289.1 292.4 295 297.3 299.7 302.4 306.2 310.3 313.9 317.9 323.1 327 331.4 335.9 341.2 345.4 354.5 360.4 367.4 375.2 382.3 389.1 394.5 398.3 399.5 402.7 404.7 405.1 405.2 406.8 407 407.6 408.3 409 410.6 413.9 411.2 412.3 414.2 411.5 405.4 398 383.8 380.5 387.3 391.1 390.7 389.8 387 383.9 380.5 376.3 372.6 368.1 363 360.9 361.9 362.1 363.7 361.6 362.4 365.1 369.4 374.1 377.5 379 380.8 381.3 382 381 378.8
221.5 221.2 224.6 219.5 217.2 216 214.2 210.9 209.7 203.1 208.4 207.7 209.2 209.3 208.9 203.6 203 198.5 195.8 193.5 196.1 196.6 197.3 197.9 199.2 199.3 199.8 204.2 203.8 203.5 203.3 202.5 202.9 202.6 202.7 202.9 201.9 201.5 200.8 201.1 201 200.7 200.3 200.1 200.2 200.5 200 202.1 203.1 203.1 202.5 201.6 198.7 197.6 197.1 196.9 196.8 196.7 195.9 195.4 195.2 194.8 196.6 199.6 200.3 199.9 202.9 206.4 203.3 205.3 207.8 209.3 204.3 203.7 205 206.2 204.7 205 206.4 208.5 211.6 210 209.8 210.7 209.7 210.8 206.1 204.1 199.3 199.6 199.7 199.4 199.3 199.5 199.6 199.1 199.3 202.8 203.7 204.6 207.4 207.6 209.2 213.7 218.8 223.4 226.5 229.1 230.8 232.5 233.4 233.9 236.1 235.9 233.5 235.9 237.3 240.2 241.9 244.9 249.1 253.6 259 263.7 268 272.1 277.2 281.2 284.8 288.1 291.1 293 294.6 295.2 300.8 305.2 308.8 312.5 317.8 322.6 327.1 330.7 335.2 340.5 344.8 352.2 359.3 365.1 373.2 378.6 382.9 386.7 390.4 393.7 396.3 397.6 397.5 399 400.8 401.4 403 404.3 404.9 408.7 411.7 407.6 409.8 410.3 406.7 401.4 393.1 389.3 396.7 401.7 401.4 400.5 398.4 394.8 389.9 385.7 382.4 379 375.2 370.4 368.1 369.2 369.5 369.1 368.8 370.2 373.3 378 381.4 385.3 386.7 387.1 387.3 387.2 386.7 383.9
223.5 224.3 222.1 219 220.8 219.5 218.5 218.3 215.6 205.4 216.5 218.2 215.1 214.5 212.6 207.6 206.8 202.9 201.2 199.4 197.9 195.8 196.7 200.6 203 203.3 204.1 203.7 203.7 201.2 200.9 202 203 202.9 202.3 202.1 201.5 201.6 200.9 200.7 201.1 200.3 200.1 199.6 199.5 199.6 199.7 199.1 200.6 201.8 202.1 201.8 201.5 200.9 198.7 198.1 199.6 199.7 198.7 200.6 195.9 196.4 197.3 200.5 200.4 200.3 209.3 207.4 203.9 206.2 208.2 207.8 205.2 204.3 205.6 209.5 205.1 206 208.8 211 219.8 213.5 211.6 210.7 208.6 207.7 209.5 203.2 199.8 199.3 200.2 200.2 200.1 200 199.8 199.7 200.5 202.1 202.9 203.9 203.6 205.6 208.2 211.7 216.4 221.5 224.7 227.4 229.7 229.8 229.4 232 225.6 227.4 227.5 229.7 231.7 234.5 236.7 240.4 242.5 247 253.8 260.8 265.5 270.6 275.5 279.8 283.2 285.8 287.4 287.9 287.8 295.6 299.9 303.8 307.4 311.8 318.3 322.1 326.1 329.5 334.3 339.6 343.4 349.7 355.6 361.8 367.6 373.1 377.9 380.5 382.6 386.3 388.4 389 390.4 392.4 393.8 395.4 396.9 398.4 400.2 404.8 406.2 406.8 408.5 404.4 401.7 399.3 396.3 405.5 410.3 410.4 409.3 407.1 404 400.5 397.2 393 390.1 387.3 383 380.1 377.6 375.9 375.4 376.6 375.8 378.2 382.4 386.2 389.7 392 393 394.7 393.8 392 391.1 390.1
221 222 221.8 224.7 226 224.1 223.8 223.6 222 208.7 216.2 218.5 218.7 218.3 215.5 213.8 213 211.2 208.1 206 203 202.3 202.7 207.2 206.8 207.5 206.8 203.7 204.1 203.2 202.8 202.9 202.9 201.9 201.8 201.3 201.3 201.4 201.3 201.5 201.4 201.3 199.8 199.3 199.3 198.8 198.8 198.3 197.9 200 200.1 200.4 201.5 201.3 200.5 198.9 200.5 201 200.7 197.8 195.5 199.8 200.9 201 200.2 201.3 211.4 210 207.3 207.6 208.4 208.5 207.5 205.9 209.4 211.7 205.9 209.4 211.3 212.7 216.1 213.3 211.8 211.9 208.9 205.9 204.2 202.6 201.3 200.9 200.5 200.7 200.8 200.9 200.4 198 200.8 200.1 202.7 203.2 203.8 205.7 207.4 210.2 214.6 220.1 222.6 224.9 220.9 220.6 221.3 220.6 233.2 233 228.4 229 229.9 231.3 232.8 237.5 238.3 240.1 241.7 252.5 262 266.6 272.3 277 280.9 282.7 279.6 285.8 292.8 294.4 300 302.2 308.2 312.4 317.7 321.2 324.8 328.5 333.2 338.5 342.8 349.3 353.6 358.4 363.5 367.3 371.6 374.9 379.4 379 381.4 381.8 383.6 385.9 388.4 389.9 391.2 393.7 396.3 399.2 400.3 401.1 402.2 402.5 403.1 404.6 409.1 416.3 418.4 418.1 415.5 412.6 409.7 404.8 402.1 400.3 399.5 395.7 392 388.6 386.3 385.6 382.9 383.1 385.2 388.3 390.4 394 397.4 393 391.2 402.4 400.1 400.1 398.5 394.2
220.5 224.7 227 229.2 229.6 228.6 226.2 220.2 214.1 213.4 224.2 222.9 221 220.6 218.8 217 216.3 216 214.8 214.1 213.7 213.4 214.4 213.6 214.4 215.1 214.7 213.6 208.1 203.9 203.8 202.7 202.5 201.7 201.5 201.3 201.6 201.6 201.1 201.1 200.4 201.2 200.1 199.9 198.5 198.5 198.6 199 198.4 197.7 198.4 198.4 199.8 201.4 200.5 199 197.9 197.5 197.3 197 195.9 196.9 200 200.2 200.1 201.6 207.9 214.4 209.2 205.4 205 206.4 207.4 207 207.8 206.2 206 208.3 210.5 211.4 211 211.4 212.4 212.4 211.4 209.1 206.1 204.1 203.5 203.5 203.5 202.5 201.9 201.1 200.4 197.5 198.8 201.4 201.6 204.5 205.6 206.8 207.1 208.6 213 214.7 216.3 216.5 216.8 216.9 220.8 232.3 234.7 234.9 232.9 233.5 234.6 236.7 239.2 239.3 242.1 245.4 248.9 244.2 250.4 261 268 272.4 275.3 275.5 284.1 289 293.1 297.1 300.7 304.3 308.2 312.5 316.4 319.9 323.6 327.9 331.9 336.4 340.7 344.6 351.2 355.3 359 362.7 366.2 369.1 371.4 373.3 374.4 376.2 378.5 379.9 381.9 383.3 385.7 387.8 391.4 394 395.2 397.4 399.9 402.4 405.6 409.1 414.7 418.4 421.3 421.4 419.2 417 413.5 411.3 409.5 409.1 407.4 403.5 400.3 397.9 396.3 393.1 393.1 391.3 395.5 396.1 400.6 404 406 405.9 393.2 407.1 406.5 405.5 403.3 401.9
221.8 226 229 231.3 231.3 226.5 218.9 216.6 217.6 226.8 228.1 228.5 227 227.5 226.9 225.5 223.6 218.4 217.5 219.6 219 219.8 222.6 221.9 220.3 219.1 215.4 214.6 213.4 211.2 213.4 209.3 209.4 207.8 207.4 206.5 202.1 201 200.9 200.7 200.8 199.6 200.1 199.4 199.1 198.6 198.6 198.5 198.6 197.7 197.5 197.7 197.1 197.7 197.6 197.4 196.6 196.2 196.3 196.5 197.5 197.5 198.7 199.7 200.9 207.3 203.9 204.2 204.9 205.3 205.5 206.1 206.7 207 206.8 206.5 207.9 210 211.4 211 210 211.1 211.3 212.3 213.4 214.8 211.3 207.6 205.6 205 204.8 204.2 202.9 201.3 201.4 201.9 198.9 200.8 203.9 205 205.9 207.4 208.6 209.2 209.6 211.4 211.9 214.1 215.9 226.3 229.6 232.6 235.4 237.8 236.8 236 236.5 238 240.9 244.7 250.1 253.6 255.3 257.7 247.7 250.9 253.6 258.1 273.8 279.3 284.4 289.1 293 297 300.6 304.1 307.7 311.5 315.7 318.9 322.7 326.4 329.7 333.4 338 342.3 346.7 351.6 355.1 358.3 361.1 364.1 366.4 368.4 370.6 372.6 373.1 374.3 376.1 378.4 381.1 383.5 386.6 389.3 391.9 394.4 397.6 402.2 407 412 416 418.8 420.2 420.8 421 419.6 418.1 416.3 416.2 416.2 415.7 413.9 409.4 406.8 404.7 403.9 404.7 406.3 406.2 405.9 408.7 411.2 413.8 414.2 414.6 414.2 413.7 412.1 409.6 406.6
221.2 225.6 229.5 231.9 226.7 219.9 219 227.3 233.2 234.9 232.5 234.1 233.6 233 231.9 233.3 232.5 227.8 227.7 226.9 228.3 228.8 231 227.8 225.5 223 220.5 217 216.6 215.7 213.6 213.1 214.5 214.6 212.5 210.9 208.6 204.6 199.9 200.8 200.5 200.2 199.7 199.2 199.2 198.9 198.7 200.4 201.4 202.4 201.9 201.1 200.9 200.6 200.9 199.8 197.3 197.2 196.7 197.5 198.1 198.6 200.6 204.6 203.9 205.5 204.2 205 209.5 205.6 207 206.8 207.4 208 207.6 207.5 208.4 208.8 209.6 211.7 211.1 211.3 211.6 212.4 214.1 214.1 214 211 207.9 206.8 206.5 205.5 204.9 201.6 202.1 202.2 201.7 201.4 199.6 203.6 205.9 207.6 210.8 211.9 212.5 214 214.1 216.9 221.8 225.8 230.7 233.7 237.1 240.4 237.9 237.5 238.1 240.1 243.8 250.7 255.3 257.3 260.9 263.1 262.5 251.3 256.1 269.3 274 278.7 283.5 288.7 292.6 296 300.1 303.7 307.3 311 314.6 317.5 320.5 324.2 327.3 329.5 334.8 339.5 343.4 347.4 351.6 353.8 357.2 360.4 362.5 363.9 365.6 366.9 368 369.7 371.3 374.2 376.1 378.9 381.4 385.6 387.8 391.8 396.4 401.6 407.2 412.3 416.2 418 419.2 422.1 423.1 423.6 422.2 421.9 421.3 422.6 423.4 421.6 418.3 413.8 413.5 412.3 415.5 416.9 419.5 418.3 416.9 418 421.5 421.2 420.9 420.2 419.5 418.4 415.1 411.2
219.1 219.8 223.1 223.9 219.6 218.5 226.4 235 237.5 236.7 235.8 238.5 239.4 239.2 239.9 240.5 239.6 240.1 240.6 239.2 236.4 235.5 234.9 233.9 235 233.9 230.6 227.4 225.4 221.6 219.5 221.8 223.9 225.7 217.7 213.8 210.1 201.7 201.2 200.6 200.3 200.1 199.5 199 199 199.2 199.6 200.8 202.5 203.6 203.5 203.7 203.6 203 203.1 202 199.3 200.3 200.3 198.8 200.1 200.3 206.9 209.1 207.8 208.7 209.2 210.6 214.4 208.1 206.8 212.8 208.9 208.6 210.2 210 210.2 209.9 210.4 211.1 213.3 212.3 213.5 212.9 214.6 214.8 214.4 214.9 212.1 210.7 208.4 206.6 207.7 202.8 202.8 202.6 202.2 202.2 202.3 201.5 205.2 207 213.8 223.9 223 219.9 224.3 220.5 224.2 230.2 234 236.8 240 242.5 241 239.4 241.2 243.9 248.5 254.5 257.9 260.8 263.7 267.6 268.9 265.2 254.9 257.6 274.4 277.8 282.7 287.7 291.9 295.6 299.4 303.1 306.3 309.7 313.2 316.5 319.2 322 324.9 327.6 331.5 335.7 340.9 344.1 346.9 349.5 352.7 356 356.7 358.9 361.4 362.6 364 365.5 367.3 370.3 372.9 374.7 376.7 381.3 384.1 389.9 395.5 401.6 407 411.8 414.2 417.1 420.6 424 426.4 427 427.1 427.1 426.9 428 429.4 429.1 427.6 425.8 423.9 425.2 426.7 428.5 428.6 430.3 429.3 426.4 427.9 426.9 427.2 426.7 425 423.4 420.3 415.9
219.6 219.1 218.5 219.1 218.5 223.3 232.7 236.4 237.3 237.6 239.1 243.1 242.9 243.2 245.7 247.8 249 249 248.7 250.4 248.9 244.2 243.4 243.1 242.1 240.5 239.9 238.6 234 229 224.3 225.2 226.4 226.2 224.5 213.9 205.5 202 201.2 200.7 200.2 199.9 199.3 199.3 199.6 199.8 200.4 202.7 204 206.3 205.8 205.6 206.6 206.6 206.6 206.7 201 203.8 204.3 201.8 202.9 203.5 205.8 207.6 212.9 208.8 211.8 214.7 218.6 216.1 211.6 209.7 211.5 211.2 210.9 210.4 215.2 213.9 214.5 212.5 212.3 213 215.5 216.4 215.3 215.4 215 215.8 216.7 216 214.8 207.9 204.7 211.4 203.6 202.9 202.7 202.8 203.1 202.8 203.5 207.7 210.9 225.1 225.1 221.5 224.9 223.9 227.6 233.2 236.1 240 242.7 243.2 242 242.7 244.3 247.4 252.2 257.3 260.5 263.5 267.1 271.6 272.4 273.4 271.7 258.3 269.3 276.8 282.4 286.8 291.4 295.6 298.6 301 305 307.8 311.2 313.7 316.5 319.5 322.8 325.6 329 331.9 336.2 339.8 342.5 344.7 347.7 350.6 352.9 355.5 358.1 360 361.4 363.5 364.9 367.5 369.7 371.3 373.6 376.8 380.4 386.4 392.4 398.8 401.9 406 415.5 418.8 422.6 426.3 428.5 430 430.2 429.8 430.1 432 433.8 434.2 433.5 434.5 435.6 434.6 435.6 436.7 437.8 438.3 436.8 434.8 434 432.5 432.5 432.1 430.6 427.3 424 421
220.6 221 220.5 220.8 220.2 229.6 235 236.7 237.1 237.5 240.8 244 244.3 245.6 248.3 252 254.8 258 261.2 265.3 262.5 256.7 256.7 256.2 250.6 245 242.2 241 239.8 237.9 232.4 226.8 225.1 223.8 217.5 206.5 200.7 201.9 201.3 200.7 200.3 199.9 199.6 199.8 200.1 200.5 203.1 205.9 208.5 209.5 209.9 209.6 209.3 209 209.4 208.6 207.1 205.2 207.1 207 209.9 211.4 210.2 214.4 213 214.5 215.3 214.5 217.3 219.5 214.9 213.4 211.3 214.6 214.4 214.1 215.1 213.9 213.6 213.2 213.4 215.2 216.8 217.6 216.1 216.5 215.6 216.8 218.4 217.2 212.9 209.1 206.2 212 203.5 203.5 203.2 203.4 203.8 202.2 205.7 208 210.3 223.2 226.9 225.3 226.3 226.4 228.5 233.2 237.1 241 243.6 244.2 244.5 245.3 248.1 251.9 255.5 259.9 263 265.5 269.4 272.5 275.3 275.5 276.2 273.8 261.3 276.1 281.6 286.1 291.4 295.1 298 300.9 303.6 305.8 308.5 310.8 313.9 317 320.3 323.4 326 328.8 331.9 335 338.2 340.8 343.4 346.2 349.1 351.2 354.9 356.4 358.8 360.1 361.7 364.1 365.9 367.5 370.2 372.5 377.3 382.5 386.4 392.9 399.9 407.3 415.4 419.7 423.9 427.2 430 431.7 431.8 431.2 432.9 434.6 436.8 439.6 440.7 441.4 442.1 443.4 443.5 442.9 444.4 443.1 441.5 439.9 439.3 437.2 437.5 435.8 433 430.6 428.3 424.2
222 222.5 221.6 219.9 220.4 226.7 234.5 236.3 236.8 238.3 239.6 240.9 244.5 247.1 250.5 255.3 260.9 266.2 275.9 280.5 279.3 273 268.4 264.8 260.9 255.7 247 242.7 240.4 238.8 237.2 230.3 225.1 217.4 208.8 204.5 202.2 202 201.5 201.1 201.4 202.3 201.6 200.8 201.7 204 205.4 207.6 210.2 212.4 213.1 213.9 214.8 214.7 214.1 212.9 212.4 213.2 210.1 212.6 215.1 215.7 211.7 214.7 215.8 216.8 218.1 217.7 216.5 216.7 216.9 214.9 215.1 215.6 218 217.5 215.2 215.7 214.4 215.3 217.5 218.6 218.8 218.2 217.5 216.8 217.8 219.9 217.7 217.7 217.9 214.4 208 212.9 206.3 206 204.2 203.7 203.8 203.4 205.4 205.5 208.8 220 228 226.8 226.1 227.6 229.2 234.5 238.3 241.6 243.5 245.1 246.8 248.3 251.7 255.2 258.2 262 265.1 268.5 271.4 275.1 275.8 277.4 277.5 277.5 267.7 264.2 276 284.8 289.5 290.7 295.4 298.3 299.2 302.3 305 305 309.2 313.1 316.2 319.1 320.5 324.1 326 328 332 334.4 340.4 344.3 348.3 351.2 351.5 355 357 358.4 359.8 362 362.1 365.3 369.5 372.1 375.5 380.7 386.8 392.7 399.4 408.7 417.5 420.9 425.2 428.1 430.6 431.6 432.1 433.2 434.6 436.4 439.1 442.6 445.4 445.9 446.1 446.3 445.8 447.2 447.6 447.8 446.3 444.2 443.4 441.5 440.5 439 436.5 434.1 431.1 427.5
224.6 223.6 222.8 221.3 222.1 222.3 233.6 237.7 237.9 237.8 238.6 239.3 242.8 247.3 252.7 259.1 265.9 272.9 282 284.3 283.5 280.2 274 270.8 266.6 260.8 254.4 249.1 244.1 240.2 237.9 232.1 220.4 212.2 208.4 202.9 202.6 202.1 205.9 205.3 205.3 204.4 203.8 202.4 203.6 206.6 209.5 210.5 212.7 214.2 216.1 216.7 217.2 217.8 216 216.8 217.3 217.9 212.7 216.3 217.9 214.9 217.5 218.7 218.7 218.7 219.2 219.8 219.2 218.7 218.2 217.1 215.6 215.4 218.9 219.4 216.6 218.4 215.8 219 222 221.7 219.3 219.1 219 218.1 223.2 220.1 218.2 218.9 218.4 217.1 211.9 210.9 218.6 220.7 209.3 204.8 204.9 204.7 201.2 204.8 205.2 205.8 220.8 221.4 227.4 227.7 229.7 234.3 238 240.4 242.1 244.2 247.8 250.2 254.1 256.9 259.9 263.5 266.5 269.9 273.7 275.5 277.2 278.4 278.4 278.2 275.6 269.1 268.4 276.8 274.1 278.3 280.2 282.7 286.6 291.5 296.9 297.2 298.5 302.3 305.4 310.7 314.7 320.5 328.6 331 333 337.7 341.8 344.2 340.5 349.1 351.1 353.5 354.4 354.4 358.1 360.4 362.2 364.6 367.1 373 377.8 383.6 388.9 396.7 403 411.1 417 421.6 426.3 429.2 431.2 431.4 432.2 433.6 435.7 438.4 441.3 444.9 447.3 447 446.9 444.8 444.3 446.1 448.3 449.5 448 446.1 444.7 444 443.7 441.8 440.3 437.3 434.5 431.6
227.6 225.2 223.3 222.4 222.8 222.2 228.7 234.1 235.7 237.5 238 239.7 242.3 247 253.1 259.8 266.8 275.9 283 287.1 286.1 284.1 281.3 275.1 267.6 263 258.9 253.2 245.5 240.7 237.4 227.8 216.8 209 204.9 202.5 203.3 206.2 208.4 207.8 206.7 205.5 204.7 204.4 205.6 208.4 211.9 215.1 215.8 217.3 218.2 218.8 219.4 219.2 219 219 219.7 219 215.7 218.9 219 215.1 218.9 220 220.3 221.3 225 225.3 225.3 224.2 221.3 219 218 218 217.5 220.5 218.4 218.4 217.7 219.6 221.9 221.6 223.6 221.3 223.3 222.9 221.5 220.1 220.3 219.8 219.3 217.3 212.3 209 217.6 220.7 212 209.1 205 205.7 205.1 205.3 206 206.1 204.6 209.8 225 226.3 229.8 233 234 236.6 239.2 244.8 249.2 252.3 255.8 259.7 262.5 266.3 269.9 271.4 275.2 276.4 279 278.9 280.1 281.2 281.4 278.5 278.4 280.6 284.9 288.4 291.1 293.8 294.2 300.7 304.6 309.3 313.2 313.8 317.1 319.4 323.6 328.8 331.8 334.8 337.9 339.8 344.2 346.6 349.1 351.2 353.5 353.5 356.3 358.3 360.5 362.7 364.9 365.6 370.4 375.7 380 385 390.8 398.3 404.6 415.8 418 423.8 427.1 429.6 430.9 430.4 432.1 433.5 435.9 439 442.3 445 445.4 445.6 443.4 441.4 442.8 445.2 447.1 447.9 447.4 446.9 447 446.7 446.6 445.1 443.5 440.2 436.9 434
228.9 226.5 224.2 223 222.8 223 225.4 228.8 233 236.7 237.9 238.8 240.4 245.4 252.6 259.9 266 273.8 279 282.5 284.8 285 281.5 275 269.7 265.3 260.4 253.8 247.6 239.3 232.4 222.8 211.8 208.5 204.6 203.9 206.3 210.4 210.1 208.8 207.9 207.4 206.9 206.7 208.3 213.1 215.5 217.3 218.2 219.2 220.8 220.5 220.5 220.8 221.1 221.8 221.9 222 219.7 219.9 219 217.9 219.4 221.3 225.2 227.7 230.5 229.3 227.7 226.9 224.9 225 224 222.3 221.1 219.7 220.5 220.9 220 219.8 221.1 223.3 223 222.6 222.8 221.7 222.3 223.8 225.9 221.5 219.4 216.4 211.4 210.9 217.9 218.5 213.5 211 208.9 207.3 206.5 206.8 207 206.8 204.9 216.5 222 225.3 229.3 228.7 233.9 238.5 240.4 247.4 250.6 254.5 258.1 261.2 263.5 267.3 272.6 274.1 276.2 278.2 280.2 280 280.8 283.3 283.6 284 284.2 286.1 289.5 293.5 297.2 300.5 303.7 306.3 310.1 313.8 316.4 318 321.4 323.7 327 330.5 333.7 337.3 340.2 342.4 344.7 348.3 350.7 352.8 354.1 355.9 357.1 359.8 362.6 365.1 367.2 370 373.7 377.8 382 386.8 394.7 401.6 408.5 415.2 415.9 422.7 427.7 428.7 428.7 428.5 431.4 433.3 436.2 439 440.9 441 441 439.5 438.4 439.4 442 443.7 445 446.8 446.2 446.7 448 448.2 448.8 448.2 445.8 443.5 441.5 439.7
230.5 227.8 224.9 223.8 223.4 223.8 225.4 227.7 231.7 236.1 237.1 237.6 238.6 243.2 250.5 257.1 262.7 269.9 276.7 281.1 283.3 282.9 280.8 274.2 267.6 264.3 260.7 254.6 246.1 237.8 229.6 216.4 209.3 208.6 203.4 206.9 209.2 211.4 212.9 209.8 209.4 209 210 210.4 212 212.5 216.7 219.1 220.1 221.9 222.8 223.8 224.2 224 224 224.9 225.3 224.5 220.4 220.2 219.3 220.4 221.5 226.8 232.4 230.4 231 230.3 229.8 229.1 228.6 228.6 227.6 225.6 224 223.1 223.4 223 222.3 222.4 221.9 223.3 223.6 224.4 225.9 228.6 223.9 225.6 223.1 219.2 217 213.6 211.3 211.1 214.9 217.7 216.4 221.3 214.7 209 207.7 207.4 207.5 204.2 206.3 218.5 221.1 223.2 224.6 230.5 235.5 239.2 241.7 246.9 250.7 255 258 261 263.9 267.8 271.4 274 277.8 278.7 280.9 281.8 282.1 284.2 285.6 285.8 287.5 289.3 292.8 297 300.5 303.8 308.6 310.9 312.9 316.4 319.1 320.9 323.4 327 330.1 332.7 335.4 338.9 342.9 345.8 347.2 350 352.4 354.1 355.8 358.1 360.5 362.9 366.2 369 369.3 372.7 375.4 381.1 386.1 392.3 399.6 406.4 412.7 415.6 414.3 425.6 426.8 427.5 427.1 427.4 429.7 431.8 434.2 436.4 436.7 435.2 433.6 433.3 435.3 438.2 440.9 442.6 444 445.5 446.5 447.6 448.1 448.8 450.3 450.3 448.2 445.6 443.8 443.4
231.6 226 225.9 226.5 224.3 225.7 225.7 227.5 229.1 233.9 235.6 237 238.1 242.4 248.6 253.1 259.7 266.6 272.6 278.1 281.4 279.2 274.7 268.8 265.3 262.3 256.9 249.5 243.2 233.5 224.3 212.4 207.5 205.5 205.2 208.4 211.5 211.7 213.7 211 211 211.7 214.2 214.8 216.7 216.2 218.2 221 222.2 225.4 226.9 228 228.9 227.4 226.9 226.4 226.4 223.7 222.4 221.9 222.2 222.7 225 229.1 231.3 232.7 236.1 235.2 234 233.4 232.2 233.4 232.6 231.2 226.9 227.1 226.4 225.4 224.8 225.2 225.1 225.8 226.4 227.1 227.8 227 229.1 225.5 222.8 218.3 215.8 213.6 214.5 212 215.9 219.4 221 228.8 225.3 211 208.8 208.4 207.6 204.9 207.5 217 220 221.9 225.1 230.5 235.7 239.7 242.9 246.7 249.7 256.5 258.3 261.9 263 266.5 270.5 273.5 277.6 278.9 280.9 282.4 283.3 285 287.1 287.8 290.3 293.2 297 300.5 303 305.9 309.4 312.9 316 319.9 322.4 324.7 326.7 330.8 333.4 336 338.6 342.2 345 348.4 351.5 353.7 355.8 358.3 360.1 361.1 365 367.7 371.1 372.7 374.6 376.9 380.9 383.7 391.7 398 405.1 409.3 414.6 419.3 422.6 424.5 425.9 425.1 426.4 427.7 429 430.5 433 433.3 432.6 430 431.9 433.1 435.1 437.3 438.6 441.2 442.7 443.4 445.2 446.2 447.4 448.5 449.5 449.8 449.4 447.8 445.9 445.8
225.1 225.6 226 227.1 228.4 227.3 225.3 226.1 227.9 231.3 235.2 237.4 237.3 241 245.9 250.2 256.3 260.9 267 272.6 274.9 273.8 270.7 267.8 263 258.1 253.8 247.8 235.7 230.1 219.5 212.2 207.1 205 204.9 209.7 211.9 212.3 213.9 213.5 216.2 215.6 216.9 218.1 218.7 219 222.9 224.8 227.2 229.5 230.1 230.1 229.3 228.1 227.7 226.7 226.4 225.3 224 224.6 226.6 227.1 227.4 230.5 233.7 236.2 237.3 237 235.1 234.7 234.3 233 233 231.5 228.1 228.7 228.7 227.6 227.7 228.1 228.9 229.6 229.6 230 229.8 229.1 232.9 223.2 221.3 218.2 215.9 215 220.4 218.6 214.8 217.1 226.2 230.2 232.4 219.5 210.6 209.2 207.9 207.8 209.2 210.3 220.3 222.1 225.5 227.8 233.7 238.8 243.3 247.1 249.2 253.9 256.7 260.5 263.9 267.5 270.8 273.2 275.9 278.7 279.9 282.5 285.1 287.3 289.7 292 294.7 297.3 300.4 303.8 306.6 309 312.1 315.9 320.1 323.3 325.7 328.5 330.7 333.7 336.9 340.8 343.2 346.9 350.5 354.2 357 360 362.2 364 365.7 367.3 371 372.1 375.6 376.9 380.6 383.2 388.4 392.5 395.7 402.4 409.1 412.9 417.7 420 422.1 423.6 424.1 424.7 426.3 427.2 428.2 429.8 429.3 428.8 427.6 428 429.6 431.9 434 436 437.8 439.2 440.2 441.4 443.1 444.1 445.6 447 447.8 447.9 447.8 447 447.2 447.7
225.4 225.8 226.3 226.7 227.9 228.2 226.8 227 227.1 228 232.7 236.2 236.9 239.4 242.9 247.1 251.4 255.5 261.4 266 266.6 266.2 265.3 261.8 259.1 255.3 250.2 241.9 233 224.9 215.4 211.7 206.2 206.5 205.4 209.7 212.1 214.9 216.5 217.7 218.7 218.5 219.6 221.4 219.8 221.6 226.9 229.6 231.5 231.5 231.4 231 230.6 230.5 231.1 231.8 231 226.4 229.3 227.5 230.6 230.1 229.8 234 237.7 238.1 239.7 237.7 238.2 238.6 239.1 237.8 235.9 233.3 230.8 231.7 231.8 231.1 232 232.6 232.6 233.1 233.7 233.5 232.2 231.8 234.5 228.9 224.5 222.2 218.9 218.4 223.2 223.4 220 215.7 221.6 225.4 230.6 229.9 219.5 210.2 209.5 207.4 208.6 209.5 210.9 212.5 216.9 224.4 230 238.1 243.2 247.4 249.5 252.5 255.7 260.6 264.3 267.8 270.3 272.6 275.8 277.9 280.4 282.6 286.3 288.7 290.8 293.1 296.1 299.8 302.2 305.7 309.3 312.3 315.7 320.1 322.8 326.4 329.3 331.5 334.2 337.4 340.2 344 347.7 351.6 355.6 359.3 362.2 364.6 367.1 368.8 370.5 374.8 376.3 377.9 380.2 380.9 386.4 390.3 394 397.5 401.3 406.6 411.5 415.3 418.3 419.5 420.5 421.8 422.9 424.8 425.8 425.8 426.6 427.5 426.1 424.6 424.9 425.5 427.7 430 431 433.7 435.4 436.6 437.4 438.4 439.6 441 443.1 444.1 444.4 444.2 444.3 445.4 446.2 448
225.5 226.1 226.6 227.4 227.4 228.6 229.4 228.8 228.7 228.5 230.7 234.1 236 237.5 240.1 243.7 246.9 250.7 255.1 259 259.9 259.1 258.2 255.2 254.3 250.5 244.7 237.4 230.8 220.6 215 210.7 206.7 207.4 208.3 210.7 214.1 217 218.5 219.3 221.2 223.1 224.6 224.5 222.6 227.9 229.3 232.8 233.5 233.5 233.3 234.2 235.5 235.8 234.7 233.5 230.4 233 233.9 232.7 233.3 234.9 234.7 238.6 240.9 242 242 240.4 240.9 242.1 240.8 238.7 236.8 236.1 234.8 235.8 235.1 234.9 235.2 234.6 235.4 236.7 236 235.6 234.8 234.7 237.1 233.9 228.8 226.3 224.6 223.8 224.8 224.9 222.1 219.1 219.3 224.1 230.7 232.1 226.1 214.2 211.1 209 207.5 209 210.3 210.7 211.8 223.5 234.4 238.1 242.4 246.7 249.8 254 258.3 261.8 264.8 267.6 270.3 272.1 274.6 276.6 280.1 282.3 286.1 288.8 291.3 294.7 297.3 301.3 304.6 307.6 312.4 315.4 319 322.2 325.3 328.4 331.3 333.9 337.2 340.4 344.1 348 352.1 357.2 361.2 364.5 367.5 368.9 372.5 375.6 378 380.5 380.3 381.1 385.7 388.3 392.4 395.1 397 399.6 404.8 408.9 413 416.3 415.2 418.7 419.3 420.6 423 424.4 425.1 424.5 424.8 423.3 423.4 423.1 422.4 424 425.3 425.7 428.3 430.2 431 432.1 433.1 434.7 435.5 437.3 438.7 439.9 440.2 440.8 441.9 443.6 444.7 446.9
225 228.1 227.7 227.6 229 230.2 232.6 230.2 229.7 229.5 230 231.9 234 235.8 238.4 241.2 245.1 249 252 253.7 254 253.6 251.5 249.5 247.3 244.8 239.7 234.2 227.8 216.3 212.2 208.8 207 207.6 209.6 212.3 217 219.3 221.2 225.1 226.1 225.3 224.9 222.9 231.1 231.3 230.5 231.7 234 236.3 237.5 237.7 237.9 236.1 234.1 236.1 235.2 237 236.7 235 237.3 238.4 239.7 242.7 245.2 245.6 244.4 244.2 245.5 245.4 244.4 242.3 240.3 239.4 237.5 238.7 239.8 240.3 238.6 237.8 238.1 238.4 238.1 238.2 237.5 236.7 241 235.7 231.6 229.4 228 226.3 225.6 226 223.4 219.2 220.5 222.3 228 232.8 224.7 218 211.3 209.2 209.4 209.7 209.4 211.1 212.1 222.3 233.2 238.3 241.9 246 247.6 252.6 257.2 260.7 264.2 267.2 271.4 271.7 273.3 275.4 278.9 282.2 286.7 288.7 291.6 295 297.8 300.8 305.4 309.8 312.8 316.5 320.1 324.4 329.6 332.4 335.1 338 340.1 343.9 348 352.4 357.6 363.1 367.4 370.8 373.5 378.1 381.9 384.1 388.4 390.1 391.4 392.7 394.4 397.9 398.6 400.6 402.9 405.2 406.5 410.1 413.1 416 417.3 417.7 419.2 421.1 422.3 423.5 422.7 422.6 422.5 421.5 421.1 420.4 420.9 420.3 421.2 422.6 423.9 424.4 425.2 427.2 428.5 430.1 431.8 432.8 433.8 435.3 436.1 436.7 439.6 441.2 442.9 444.6
226.8 227.6 228.5 228.2 229.5 230 230.6 231.4 231.5 231.8 231.1 230.9 232.8 235.1 237.4 240.6 245.9 251.2 253.5 252.2 251.1 249.8 247.7 245.5 243.5 239.6 234.6 229.4 221.7 215.6 210.2 209.5 207.9 209.8 213.7 218.1 219.8 223.5 226.6 227.8 226.1 224.9 228 232.1 232.5 234.9 234.2 237.8 239.2 240.8 241.1 240.3 239.3 239.5 240.1 239 238.6 240.1 239.9 241.5 242.2 243.4 245.6 246.3 247.4 248.5 247.3 247.8 249.1 246.9 246.7 246.4 245.5 242.8 243.5 243.6 244.1 242.8 241.3 241.8 241.6 241.9 241.9 240.8 239.8 239 238.5 237.6 234.6 233.1 231.2 229.1 227.5 227.7 225 221.4 222.5 223.3 224 230.8 225.6 221 211.9 213.1 214.4 215.3 208.3 212.1 213.2 214.7 226.3 235.6 242.7 246.1 247.3 251.6 256 259.2 262.5 265.9 269.9 271.6 271.6 273.5 277.6 283.2 286.7 289.6 292.7 296.4 299.9 303 308.1 312.2 315.6 318.8 322.1 325.3 329.4 332.5 335.3 337.8 341.6 345.4 350.6 353.7 360.8 367.6 375.4 380.8 386.4 391 394.4 396.9 398.7 400.7 401.5 402 406 407.2 407.3 407.4 409.2 410.7 411.5 412.2 413.5 415.3 415.4 415.6 418.9 420.6 420.1 420.9 418.7 420.3 420.7 420.7 419.4 419 418.2 417.5 416.1 415.7 416.1 417.8 420.4 422.4 424.1 425.6 427 428.6 429.5 431.1 432.1 434.9 437 438.5 440.2 442.4
227 228.3 228.9 229.1 229.6 230.3 230.8 231.6 232.7 233.1 233.2 233.2 233.8 235.3 237.3 240.3 244.9 251.2 255.7 252.3 249.1 246.9 245.2 243.3 241.7 238.3 230.4 221.4 216.1 213.8 210.2 209.6 209.3 213 218.8 221.4 225.3 226.8 228.6 228.8 230 234.3 235.2 234.9 235.4 237.5 238.4 241 242.7 243.8 244.1 244.3 242 243.8 242.2 241.6 242.2 243.9 248.4 246.7 245.6 248.2 249.9 251.1 251.6 252.4 252.1 252.4 251.9 251.4 251.5 251.3 250 249.3 249.1 248.3 247.2 246.3 244.6 245.7 245.4 245.6 245.5 245 243.9 242.8 240.7 242.9 239.8 237.9 234.9 231.3 229.4 229.4 227 222.8 224.5 227 227.1 231.1 223.4 223.9 212.8 213.8 214.8 217.9 211.2 212.8 212.7 216.1 220.5 229.8 239.8 244 247.2 250.3 253.5 256.5 260 263.6 266.4 270.7 271.6 273.2 278.2 282.7 286.9 290.2 293.7 296.9 301.6 302.7 306.8 311.6 316.9 320.2 323.5 327.4 331.4 333.4 336.9 340.8 345.2 349.5 354.4 361.1 369.4 379.9 387.9 393.4 398.4 403.7 407.1 409.1 410.6 411.7 411.8 411.7 412.7 413.3 413.4 412.8 413.5 414.6 415.3 415.7 415.4 415.5 414.7 415.8 418.1 418.5 416.9 418.6 418.9 418.9 419.3 418.9 418.4 416.8 416.6 415 412.8 411.5 410.6 412.4 415.2 417.5 418.6 420.3 422 425.2 426 426.9 428.6 431.2 433.5 434.5 436.8 439.8
229.1 229.2 229.6 229.7 229.9 230.6 231.2 231.6 232.7 233.3 233.3 233.9 235.2 236.5 237.2 239 243.8 249.7 253.7 251.9 246.9 244.3 241.6 240.5 238.3 236.7 229.2 218.8 214.9 211.8 210.9 210 212 216.6 220.3 224 226 228.1 231.7 235.3 235.8 236 238.9 238.6 239.3 240.3 244.5 243.6 245.7 247.2 247.2 245.3 245.9 246.8 246.3 246.2 246.7 250.5 250.4 250.4 250.7 253.5 255.5 256.8 257.5 256.6 255.1 256.7 257 258.2 258.2 257.7 255.7 254 253.6 252 250.7 249.8 248.8 249.7 249.7 249.4 249.2 248.7 247.6 246.4 245 244.7 245.5 244.1 239.2 235.7 233.3 236.5 228.4 224.6 227.7 237.3 236 233.7 224.5 223.8 226.8 214.5 216.3 214.5 210.3 211.7 212.5 216.7 219.7 224.9 231 237.4 241.4 247.2 254.7 256.8 260.1 263.3 265.1 268.1 270.9 273.5 277.6 282 286.3 291.1 294.3 297 299.4 301.6 305.3 309.6 314.5 318.8 323.2 326.4 330 333.3 338.3 342.7 347.3 351.8 357.7 366 380.5 390.3 399.8 405.7 410.6 415.3 417.9 420 421.2 422 421.6 420.7 420 419.9 418.4 417.7 416.8 417.2 417.5 416.7 415.6 415.6 412.8 413.9 413.5 413.5 414.1 416.1 417.5 418.1 418.5 418.2 417.4 414.3 415.1 411.9 408.9 408.1 406.5 407.4 409.8 412 413 414.7 416.5 417.9 421 422.4 424 426.1 429.5 431.9 433.4 436
230 230 229.9 229.9 230 230.9 231.5 232.1 232.6 233.1 233.7 234.9 236.1 236.9 237.4 238.3 242.3 247 249.4 248.5 244.4 241.7 239.1 238.7 237 233.7 226.3 217.3 213.9 212.3 210.9 212.4 215.3 221.5 224.4 227.3 229.7 233.6 236 237.2 237 239.7 241 241.8 243.4 245 247.1 247.7 248.3 249.3 250.1 250.4 249.8 251.3 251.8 253.6 254.6 255.1 252.7 255.1 257.7 259.2 261.1 262 261.3 260.9 260.8 262.9 264.6 265 263.4 263.3 263 259.7 258.2 255.8 254.2 252.7 253.3 253.6 253.1 252.5 252.2 252.3 251.7 249.7 248.3 247.3 247.3 246.2 243.8 240.8 238.3 239.5 226.9 226.7 234.2 241.4 236.8 230.4 226.4 226 224.8 215.3 215 215.7 214.5 213.7 213.2 215.3 219.7 222.7 231.4 239.9 243.5 246.1 250.4 252.6 256.2 259 262.6 266.1 269.7 273.1 277.2 281 285.2 290.8 294 295.9 298.2 300.8 304.4 308.7 313.9 317.9 321.4 326 330.5 333.4 339 344.8 349.8 356.9 364.6 375.9 389.6 399.2 410.2 417.6 421.5 425.3 427.7 428.9 429.7 429.3 429.2 426.7 425.1 423.3 422 420.1 418.7 417.9 417.5 417.7 417 414.8 413.9 412.6 410.9 411.3 413.4 415.1 415.7 417.2 417.9 417.3 416.4 415.1 412.4 409.9 407.5 404.1 403.4 403.9 404.8 406.3 409.4 410 411.2 412.8 416.1 418.4 420.4 422.5 425.7 426.3 429 432.8
230.3 230.1 230 230 230.2 231.2 231.8 232.3 232.8 233.4 234.5 235.7 236.6 237.4 237.9 238.3 239.8 243.8 245.7 244.2 242.1 239 237.5 236.1 234 229.7 222.1 214.8 213.2 212.8 212.3 219.3 221.9 223.2 228.9 232.4 234 235.6 237.8 239.7 241.1 241.9 245.6 247.7 247.4 247.6 249.8 250 250.8 252.7 253.5 254.3 254.5 255.9 257.3 257.6 259 259.8 260.7 260.8 263.3 263.5 265.3 266.8 266.7 267.1 267.8 269.2 270.6 270.5 269.4 268.4 267.4 265.3 261.5 260.2 258.4 256.5 256.7 257.1 256.1 256.4 257.3 257 256.1 253.7 251.7 250.9 250.6 249.1 244.7 243.9 243.9 237.1 226.1 230.3 243.1 240.6 232.4 233.2 230.4 229.1 217.4 216.1 214.6 216.6 215.6 214.8 214 216.4 219.4 220.8 227.1 237.2 235.7 239 244.6 248.4 250.1 257.6 260.5 264.3 268.7 273.1 276.6 280.1 283.6 288.7 292.8 294.6 297.5 300.1 303.5 307.9 312.2 315.4 321 326.4 331.4 336.4 341.7 348.3 354.3 363.8 377.1 389.4 399.6 411.9 421.5 429.8 434.4 436.6 437.4 437.9 438.5 437.2 434.8 431.6 428.5 425.9 423.5 421.2 418.7 417.8 417.2 416 415.1 413.8 412.8 411.5 409.7 405.8 409.3 411.9 414.4 415.3 415.6 415.5 414.7 412.6 410.8 408.1 405.2 403.2 399.1 397.1 400.6 400.9 402.7 405.3 405.9 408.2 410.1 412 415 417.7 420.9 421.6 426.3 429
230.7 230.5 230.2 230.1 230.3 231.4 232.1 232.5 233 234.2 235.3 236.2 237 237.8 238.4 238.8 239.1 242 243.3 242.7 241.5 239.4 237.7 234 229.9 224.5 218.1 214.9 215.2 218.5 219.2 222.8 226.3 229.8 232.1 235 236.9 239.2 241.1 242.7 244.2 245.7 247.4 249 250.8 250.5 252.9 253.2 254.4 256.3 258 259.1 260.7 262.8 262.8 263.1 265 265.9 266.1 266.7 268.2 268.4 269 271.7 273.3 272.4 273.6 274.6 275.2 273.9 273.9 272.3 271.4 270.1 265.5 264.7 261.3 262.3 262.8 260.9 260.2 261.9 262.8 261.9 260.5 257.9 255.6 254.3 254.4 249.3 245.6 245.5 241.2 231 230.1 238 240.1 235.6 232.1 231.3 230.7 223.2 217.8 227.1 228.7 222.4 216.5 215.2 213.1 216.9 215.5 217.8 219.3 218.1 221.7 226.1 236.7 245.5 247.9 254.8 258.9 262.9 267.2 271.4 275.7 278.9 282.3 287.2 290.4 293.1 296.2 299.3 303 306.8 310.6 315.7 321.5 326.7 332.9 338.4 344 351.2 361 373.2 386.9 400.7 412.8 423.7 433.1 440.2 447 448.2 447.4 446.5 444.6 442 438.8 434.6 430.5 426.9 425.6 422.7 419.1 416.7 415.5 413.7 412.1 411.4 411.5 409.4 407.7 403.6 402.2 406.9 411.1 413.3 414.2 414.3 413.3 411.1 408.4 405.8 403.9 400.3 397.4 394.2 394.6 396.9 398.9 400.1 401.2 403.1 406 407.3 410.4 412.5 416.4 419.8 422.8 425.3
232.3 231 230.7 230.5 230.4 231.5 232.4 232.7 233.7 234.6 235.6 236.7 237.5 238.3 238.7 239 239.4 242.2 244.1 240.8 239.9 239.4 238 231.1 227.2 220.9 214.2 215.2 221.7 221.5 224.3 228.2 231.9 234.4 234 236.8 239.4 242 243.9 245.1 247.4 249.2 249.8 250.8 252.2 255.5 255.9 258.2 261 263.5 265 266.2 267.8 268.7 268.9 269 269.4 271.1 271.2 272.3 273.5 274.5 275.5 277.2 278.3 277.9 278.3 279.7 279.5 279.3 278.3 276.4 275.6 272.3 271.2 269.7 265.9 265.2 266.8 265.9 264.8 266.8 267.6 267.1 266.5 263.6 259.7 258.8 256.9 249.3 246.3 245.4 237.2 230.7 233.4 238.8 238.1 234.6 232.7 232.2 231.4 222.4 220 230.1 231.7 234.5 237.6 219 214.5 215.9 217.8 226.7 225.6 229.2 223.1 221.3 233.6 237.3 246.7 251.9 257.7 262.3 266.6 270.6 274.3 277.5 281 284.7 288.9 292.1 295.2 297.6 302.4 305.6 311.5 316.2 320.9 327.7 334.1 341.1 347.3 356.6 370.8 382.8 395.5 408 419 430.3 439.6 446.3 453.3 455.3 453.6 451.7 447.2 443.7 439.3 433.9 431.4 427.8 424.4 421.3 418.7 416.7 414.5 412.4 411.4 409.8 408.6 406.9 405.1 401.3 397.9 404.3 407.8 410.8 412.2 412 410.8 408.4 406.8 403.9 400.3 397 393 391.3 388.8 390.5 393.2 395.4 396.6 398.9 400.3 402.7 405.6 408.3 413.5 414.8 419 423.1
232.7 231.7 231.4 231.7 231.5 232.7 232.9 232.5 234 234.7 235.9 237.1 238 238.7 238.8 238.8 238.8 241.2 242.4 239.3 238.9 238.9 238.2 231.2 225.7 216.6 215.1 216.2 224.5 227.2 230.4 233.9 235.3 236.8 239.1 241.6 242.5 244 245.9 247.9 250.7 251.5 251.7 254.4 256.2 258.4 262.3 263.8 266.6 270.3 271.6 271.7 273.7 273.8 273.8 275.1 275.7 276.1 275.8 277.8 278.2 279.4 280.5 282.3 282.2 281.8 283.2 284.9 285.2 284.5 282.9 281.3 279 277 274.6 271.8 275.4 274.3 273.6 275.4 272 275.8 274.9 273.5 272.1 267.9 263.3 262.4 256.1 250.3 246 245.1 235.3 230.9 238.1 239.3 237.7 236 234.6 234.2 230.3 219.5 224.6 232.7 237.4 239.5 246 242.5 222.5 224.6 236.5 236.3 240.6 242.5 235.5 220.4 223.2 240.9 245.6 251.2 255.8 262.4 267.8 269.9 272.8 276.1 279.9 281.9 287.6 288.8 293.8 297 301.9 306.1 310.5 315.7 322.7 329.2 335.9 343.2 348.9 364.5 379.7 392.5 403.4 415.8 426.2 437.1 445.1 452.3 457.2 456.9 455.2 452.3 447.5 442.3 436.4 432.6 430.4 428.4 424.4 421.2 418.9 416.9 414.4 409.8 409 404.2 404.4 403.1 400.8 397.5 393.8 401.6 405 408.3 409.1 408.5 408.3 405.7 404.5 402.4 398.7 394 391.4 388.7 388.2 383.4 388.6 390.2 392.3 392.9 394.6 395.7 399.1 404.6 409.7 412.7 416.2 421
232.8 232.4 232.7 233.3 234.1 233.7 234 233.8 235.1 235.8 236.6 237.5 238.5 239 239 238.7 238.2 239.6 240.8 238.9 238.6 239 236.8 230.2 223.4 217.1 215.9 227.3 230.2 232.9 235.5 237.8 238.6 240.8 242.6 243.6 245.2 246.8 248.1 250 252.2 253.2 256.6 258.8 261.4 265.2 268.8 271.6 273.2 276.1 277.8 278.8 279.7 280.3 280.6 280.7 280.6 280.8 281.1 282.6 283.3 284.1 285 286.6 287.3 287.1 288.4 289.7 289.4 289.1 287.9 286.3 281.5 281.7 282.5 282.8 282.8 282.6 282.3 282.1 282.3 282 281.6 279.8 277 272.8 267.1 261.8 256.8 250.7 246.3 241 237 234.2 237 239.9 239.5 238.6 237.6 236 222.8 222.4 232.6 240.4 240.1 244 246.6 246.9 247.2 243 241 241.4 246.8 242.3 223 223.3 227.6 237 245.8 252.2 256.1 260.9 264.5 267.2 271.7 275.6 277.6 278.6 280.9 286.4 292.1 297.3 301.3 306.3 309.5 316.1 323.2 328.9 336.6 341.8 353.5 367.7 387.1 399.2 409.4 421.8 432.1 442.4 450 455.6 457 455.8 453.7 450.4 445.8 437.8 433.6 431.8 430.1 428.4 425.5 421.9 419 415.9 413.2 409.5 404.3 401.5 399.7 398.5 396.9 392.5 391.2 396.5 401.9 404.4 405 405.4 404.9 403.5 401.1 399.2 396.4 393.3 387.1 387 382.4 378.6 384 383 386 388.8 389.1 393.1 397.5 402.7 407.1 412.7 416.7 418.6
234.5 234.9 236.8 237.4 238.4 236.6 235.6 236.2 237.1 237.5 237.8 238.5 239.1 239.2 238.5 237.9 237.2 239.6 239.9 238.5 237 237.2 233.8 228.2 220.4 216.3 220.2 229.8 233.7 236 238.6 241.2 243.1 244.2 245.6 246.7 248.3 249.7 251.5 252.3 254.8 258.5 263.3 264 269 272.7 275.1 277.2 279.3 281.3 283.6 284.8 284.6 285.9 286.2 286.1 285.4 285.2 285.8 287 287.6 288.9 289.8 290.9 291.6 292.2 293.7 293.7 295.3 294.9 293.7 292.6 291.3 288.1 288.4 287.4 287.7 287.1 287.6 287.9 288.3 288.5 288.2 285.7 281.7 275.9 269.4 263.6 258.2 252.9 247.8 242.3 240.2 242.3 236.8 244.9 242.7 239.5 237.3 235.2 224 223.4 239.2 250.3 248.7 248.2 253.5 251.3 252.9 245.5 249.4 251.9 254.2 229.3 223.1 224.4 227.9 233.9 243.7 250.7 256 258.2 260.8 263.9 268.9 273.6 275.7 278.1 281.1 285.4 291.1 296.3 300 305.2 310.7 316.1 322.9 330.3 336.8 346.7 358.6 371.8 390.5 402.4 414.1 426.7 436.8 446.1 451.7 453.9 453.8 452.5 450.5 447.4 442.7 436.2 431.6 430 429 427.8 425.5 422.3 419.1 415.2 411.2 406.8 402.4 398.7 397.1 395.8 392.3 388.4 388.1 392 396.3 401.2 401.3 401.5 401.3 400.4 398.8 397.5 393.3 390.5 388.4 385.2 381.5 372.6 377.7 379.1 383.8 385.6 388.9 393.6 397.8 402.4 407.3 411.8 415.8 417.8
236.2 236.9 238.6 239.6 239.3 238.8 237.9 238.7 238.9 239.1 239.2 239.4 239.5 238.9 238.2 237.2 236.1 235.6 236.9 236.5 235.6 235.5 228.3 223.1 219 218.2 219.2 223.7 237.6 241 242.1 244.4 246.2 247.6 248.7 250.2 251.6 254.2 257.1 258.3 260 266.6 269.4 272.4 275.7 278.6 280.5 282.6 284.7 286.7 288.9 289.7 288.9 289.9 290.4 290.3 290 289.8 290.2 291.3 292 293 294 294.8 295.5 297.8 299.6 300.6 301.2 300.9 299.8 298.7 296.6 295.1 294.8 294.4 294 294 293.9 295.4 296.8 297 295.4 290.7 285.1 279.2 272.3 265.9 259.8 254.9 249.3 244 240.3 239.6 237.5 245.2 246.1 241.7 238.2 233.9 223.3 223.5 224.9 250.4 254 253.6 258.6 257.8 255.3 249.6 253.5 261 264.9 222.7 224.6 224.8 228.5 231.2 240.2 244.1 247.2 249.7 257 261.4 267.2 272.9 275.1 277.5 281.3 284 288.9 294.3 298.9 303.2 308.9 315.2 322.8 330.4 338.1 349.6 361.7 374.8 389.3 403.2 414.7 426.4 437.8 445.2 448.8 449.2 449.1 448.7 446.9 444 439.3 433.1 429.9 428.8 427.3 426.4 424.1 420.4 417 413.2 409.2 405 400.7 397.3 395.1 391.5 389.5 388 383.8 387.5 391.4 394.2 396.6 397.2 398 396.6 395.5 394.5 391.1 388.8 386.6 381.3 377.6 372.1 371.3 377 381.7 384.4 387.9 392.3 396.8 400.6 404.8 408.6 414.6 418.3
240.6 240.9 241.3 241.9 241.3 241.1 240.8 240.3 240.2 240.5 240 239.8 239.4 239.2 238 237 236.8 235.5 235.6 232.5 231.1 228.7 226.3 220.4 218.9 218.9 219.7 227.2 236.2 243.8 245.7 247.3 249 251 252.6 254.2 257.2 259 262.7 264.5 267.8 271.6 274.2 277.3 281.4 284.5 286.3 288.2 290 291.2 293.2 293.9 293.3 292.8 293.7 294 294.3 294.6 294.3 294.9 296.1 297.4 298.5 299.6 301.5 303.1 304.6 305.6 306.5 306.3 305.3 304.4 303.1 303.4 304 304.1 304.4 303.1 304.1 304.7 305.8 304.9 302 296.8 288.8 280.9 273.9 267.8 262.3 255.9 250.3 245.2 241.3 238.1 239.2 246.8 250.2 243.5 240.1 239.4 229.5 224.2 226.7 244.8 246.5 250.7 255.1 255.8 256.4 256.8 268.5 263.7 263.4 234.1 226.7 225.4 226 224.8 225.5 228.2 229.1 230.2 243.9 260 267.4 269 264.6 275.8 278.3 281.5 286.1 291.4 296.7 301.7 306.4 313.4 320.8 326.8 335.4 349 361.4 375.6 386.5 398.9 411.3 423.4 433.1 440.5 443.2 444.1 444.6 444.3 442.9 439.2 434.2 430.7 428.2 425.9 425.5 424 422.1 418.1 414.5 411.1 407.4 402.9 400.3 396.3 395 391.3 388.2 385.1 380.4 384.4 386.5 389.4 391.8 394 395.3 394.2 393.5 391.9 388.9 387 381.7 377 372.6 369.9 370.8 377.6 381.8 385.5 388.4 393 397.3 400.7 403.8 406.7 413.1 415.5
245.1 244.6 244.8 244.6 244.4 243.5 242.1 241.5 241.2 240.8 240.6 240.6 239.7 239.1 238.5 237.7 237.5 237.6 238.1 235.1 234.4 231 227.4 225.4 221 219.7 220.4 228.5 236.8 245.5 247.9 250.1 252.4 255.4 258.1 261.1 263.7 266.2 268.7 271.3 275.4 278.6 280.8 283.7 288.1 289.9 291.1 293.1 295 296.4 297.2 297 296.9 296.7 297.2 297.5 297.7 299 299.8 299.5 300 301.3 302.6 304.4 306.2 307.6 309.4 310.6 311.5 311.7 311.5 310.5 310.6 310.5 311.1 311.8 312.2 311.6 311.6 311.5 312 310.6 306.9 301.5 293.2 283.6 275.3 269.2 264.3 257.6 251.9 246.2 242.6 239.4 240.1 244.9 247.9 242.3 241.4 239 234 224.7 225.7 233.8 239.1 245.2 246.7 254.2 259.4 264.6 270.2 266.1 258.4 239.1 227.7 227.7 229.4 231.2 234 237.7 232.8 234.8 231.8 254.3 259.2 251.4 270.8 275.1 275.6 278.2 282.7 287.8 293.3 298.6 304.3 309.7 316.8 322.5 329.3 340.8 355.9 369.1 378.9 390.2 402 414.4 424.3 431 434.3 436.2 439.2 439.1 437.8 434.5 430.6 428.3 426.2 425.5 423.3 421.3 419.6 416.3 413.5 410.7 407.1 401.9 399.1 395.8 393.7 390.9 385.9 382.1 376.9 381.6 382.9 385.5 388.6 391.6 391.9 391.3 390.5 389.7 387.6 383 378 373.2 369.5 362.9 372.3 377.8 382 384.5 388 391.9 396.1 400.2 403.3 407.7 411.9 414.6
246.2 247.7 248.8 250 249.3 246.6 243.7 242.6 242 241.3 241.3 240.6 240 239 237.3 236.5 235.3 235.3 234.4 234.6 230.6 232 228.5 228.2 220.8 220.5 221.8 229.5 241 247.8 251.1 253.1 255.5 259.3 262.7 265.2 268.4 271.7 274.7 277.7 281.8 285.8 289.8 292.4 294.7 295.4 296.5 297.8 299.5 300.4 300.9 300.8 300 300.1 300.9 301.7 300.8 301.5 302.2 302.2 304.1 305.4 307.1 309 310.9 312.3 313.7 315 316.3 316.3 316.6 316.3 316 316.5 317.6 318 318.3 317.7 317.8 317.7 316.9 314.6 310.5 303.9 295 285.4 276.4 270.7 265.6 258.8 252.2 246.6 243.8 241.5 241.4 243.7 244.8 243.3 240.6 240.5 239.3 229 226.2 230.5 238.9 245.2 254.7 256.4 255.6 260.9 267.1 269.9 268.5 260.8 234 236.6 243.4 235.5 240.2 249.6 239.2 232.3 231.1 238.2 244.1 262.6 269.6 271.7 270.6 277.2 280.1 284.2 289.9 295.5 301 305.2 313.1 318.2 323.4 332.9 344.9 358.9 370.2 381.2 395.8 406.3 415.5 422.1 426 431.7 434.6 434.8 433.2 430.7 427.8 426.2 424.3 422.2 420.5 418.7 416.8 412.4 410.7 408.5 404.8 401.6 397.7 395.1 391.2 387.8 383 380.7 378.3 377.9 380.2 382.1 385.1 387.7 388.7 388.8 388.6 386.4 382.6 379.1 374.3 369 361.4 366.7 372.9 377.5 381.6 384 386.6 390.6 395.6 399 402.5 407.3 409 410.3
254.2 254.5 252.1 251.4 250.2 248 245.7 244.4 243 242.4 241.6 240.2 238.5 238.5 239.8 237.7 239.4 238.7 237.2 233.5 233.7 233.6 234.3 224.1 220.6 220.4 222.2 232.4 243.9 250.7 253.8 256.6 260.3 263.7 267.1 270.4 274 277.9 281.4 284.7 288.8 294.1 297.9 299.1 300.1 300.9 301.7 302.1 302.9 302.8 303.1 303.2 303.4 303.9 304.8 304.4 303.7 304.2 305.1 306 307.4 309.4 311.3 313 314.8 317.4 319.3 320.4 321.3 321.6 322 321.9 321.6 322.1 323.6 323.8 323.7 323.2 322.5 322.2 320.6 318.2 311.9 304.6 295.8 286.2 277.2 271.8 266.6 259.7 251.9 247.4 245.2 243 245.2 249.4 247.5 244.7 245 247.6 241.1 232.9 226.8 227.6 232.3 237.1 244 245.7 254.1 260.2 264 268.4 268.3 263 253.9 249 244.2 242.4 253 255.4 238.4 235.3 237.1 232.8 237.7 239.1 257.3 255.1 267.6 276.4 280.1 282.3 286 292.3 297.8 301.7 309 316.7 323 329.5 336.4 349.5 361.3 373.8 388.8 399.9 411 418 422.9 428 430.5 430.9 429.7 427.5 424.6 422.9 421 418.9 417 414.9 412.1 410.5 409.5 407.1 404.7 402.1 400.6 399.6 395.7 390.7 384.9 376.7 375.5 374.4 376.3 378 380.1 383.2 384.8 384.7 383 380.6 377.4 373.8 367.2 363.1 361.3 366.8 372.2 376.3 379.7 382.3 384.7 388.7 393.6 396.8 400.4 404.5 407.1 406.6
261.3 260.9 258.7 255.3 251.9 249.4 247.8 246.2 244.6 244.1 243.5 241.6 238.8 241.7 240.9 239.5 239.8 238.6 236.3 239 237.9 236.9 235.4 223.5 221.5 221.9 223.8 236.3 245.9 252.1 256.6 260.4 264.4 268.5 272.3 276.3 279.1 284.1 288.3 292.4 297.5 302.7 305.3 304.2 304.7 305.3 305.3 305.5 305.9 306 306 305.8 305.7 306.4 306.7 306.8 306.4 306.3 307.1 308.1 310.7 312.7 314.9 317.1 319.4 321.1 323.4 324.6 325.6 326.2 326.5 326.7 326.9 327.2 328.3 328.8 328.4 327.6 326.6 325.7 323.8 319.3 313 304.7 296 286 277.3 272 266.4 258.6 252.3 248.8 246.1 245.3 246.4 249 251.2 250.9 252.4 254.2 244.3 238.9 232.6 228.6 229.3 233.9 239 248.7 256.2 269.9 265.2 268.5 269.1 267.2 260.5 247.4 245.2 251 253.1 256.4 256.7 251 245.3 243 239.1 237.9 248.9 258.1 267.9 275.3 280.5 279.4 282.7 289.2 294 297.1 303 312 321.9 328.6 336.6 346.7 356.6 369.7 384.3 395.3 405.8 413.7 419.7 424.3 426 426.5 425 422.6 420.4 418.2 416.1 412.3 410.8 409.8 408.2 409.1 408 405.5 404.2 403.5 401.9 400.7 396.8 390.5 385 379.4 370.1 369.9 371.9 373.9 375.5 378.8 380.5 381.1 379.4 377.5 373.2 366.3 361.1 355.4 364.3 366.9 371.3 374.7 377.5 380.2 382.7 385.6 390.2 394.4 397.4 400.4 402 402.5
272.1 266.3 259.4 256.3 252.5 250.5 249.1 247.3 246.7 246.6 244.8 242.8 239.6 242.1 241.7 240.9 240.2 240.8 238.6 240.5 239.3 238.6 236.3 224.2 221.1 223.2 226.4 240.8 250.4 254.9 260 263.9 267.8 272 277.4 282.2 287.6 291 295.3 303 308.4 309.9 309.6 309.4 309.3 309.4 309.1 308.9 308.5 307.9 308.6 308.4 308.2 307.8 307.8 308.6 308.4 307.3 310.6 311.1 313.9 316 317.9 320.6 323.1 324.8 327.1 328.6 329.5 330.2 330.5 330.6 331 331.6 332.6 332.8 332.2 331.4 330.1 328.9 326.2 320.5 312.6 304.7 295.8 285.8 277.2 271.3 265.3 258.5 253.3 249.8 247.8 247.8 249.3 251.1 251 252.9 256.7 257.6 250.8 252.9 245.4 231.6 230.2 231.1 237.5 248.6 266.6 272.7 270.5 269.8 268.2 263.2 257 244 248.2 255.2 253.1 256.5 256.7 255.4 255 252 249.4 250.2 257.7 255.5 259.4 268.9 269.4 278.3 280.3 285.1 286.1 291.6 300.1 309.8 320.2 327.5 334.6 344.1 355.8 370 382.5 392.8 401.6 408 414.4 419.7 421.8 421.3 418.8 416.3 414.7 412.5 409.3 406.6 405.2 404.4 403.5 405.3 405.5 404.4 403.7 403.8 401.2 398.1 394.5 389.8 383.6 378.6 372.4 355.4 368.5 369.9 371.2 374.4 375.7 376.1 375.9 372.2 367.3 357.8 347.1 354.2 363.4 366.7 370.4 373.4 376 378.1 380.4 382.7 386.1 389.5 392.2 394.6 395.7 395.3
275.9 266.8 260.5 258 254.8 252 250.3 248.5 248.4 247.9 246.9 243.9 241.6 242.6 242.4 241.6 241 240.3 241.2 241 241.2 240.8 234.8 223.9 223.6 224.3 235.5 247 255.2 257.8 262.5 266.6 270.4 276.3 282.4 287.9 292.7 298.3 305.1 313.7 314.6 313.5 312.2 312.2 312.8 312.5 311.1 310.7 309.7 309.8 309 309.1 308.1 308.4 308.3 309.5 309.8 308.5 312.9 314.8 316.9 318.8 321.5 324.1 326.5 328.5 330.4 332.1 332.7 333 333.4 333.7 334.4 335.1 335.4 335 334.9 334.3 333.2 330.9 326.7 320.4 312.3 304.3 294.5 284.6 275.9 270.4 263.9 257.7 254.6 250.2 249.9 252 254.9 253.1 248.1 251.2 251.8 252.2 253.7 256.9 261.1 247.4 231.3 232.4 237.6 252.7 264.6 269.5 267 264.6 263.4 258.8 254.4 251.2 253.8 255.3 257.2 257.8 256.8 257 255.1 257.7 254 257.8 255.5 255.5 255.5 255.5 258.9 264.4 270.6 279.3 284.2 293.5 299.7 308 318 325.8 333.2 340.5 354.7 370.3 382 391.6 398.3 403.9 408.9 413.9 414.6 414.2 411 408.5 407.4 406.5 403.5 401.8 399.7 398.9 399.2 401.1 402.1 402.9 403.2 402.1 399.2 396.4 392.4 386.2 381.5 377.5 372.3 352.7 363.7 366.1 366.4 369.4 370.1 370.5 370 366.9 357.4 339.3 347.9 359.4 361.7 365.6 369 371.2 373.2 375.8 377.4 378.7 381.7 383.6 385.2 388 388.1 386.6
273.1 266 263.4 260.5 257.2 253.3 251.1 249.5 249.2 248 245.8 242.9 243.2 244.1 243.7 242.9 242 241.9 242.5 242 242.1 241.4 232.6 222.8 224.2 227.1 241.1 250.6 256.2 260.6 265.4 269.1 273.7 280.2 286.5 291.7 298.9 305.6 312 316 316.8 315.4 314.6 314.8 312.9 311.7 311.3 310.5 309.7 308.9 309 307.5 308.4 308.4 308.6 309.9 310.3 312 314.9 317 319 321.9 324.5 326.7 329.2 331.1 333 334.3 333.3 332.7 333.3 334.8 335.4 336.8 336.7 336.7 336.6 336 334.3 331.3 326.4 319.5 311.5 302.1 293.1 283.6 274.8 269.3 262.2 256.9 253.3 252.5 252.5 254.5 257.2 249.3 243.8 244.3 247 250 249.5 258.9 255.9 234.7 232.1 233.2 238.6 249.4 260.9 265.5 262.3 257.5 255.5 254.1 249 253.9 258 255.3 260.5 260.9 259.1 256.2 256.7 258.6 259.1 255.5 255.5 255.5 255.5 268.3 265.1 275.3 278.9 281.7 287.3 294 300.1 307.5 315.2 322.6 329.8 336.4 352 369.3 381.4 390.1 396.1 401 403.5 406.2 407.7 407.4 405.3 402.9 401.3 399.7 397.9 396.4 395.1 393.4 395.3 398.3 398.6 399.4 399.6 396.8 395.6 392.8 387.5 382.9 379.9 375.6 371.3 361.6 358.2 361.7 363 365.8 367 366.9 365.2 361.6 348 340.6 353.6 357.6 361.7 364.4 367 369.1 370.4 370.5 372.4 372.4 374 377.9 379.5 372 373.1 384.8
270.8 268.5 264.5 261.9 259 255.7 252.7 252.1 250.3 247 244.5 243.2 244.6 245.1 243.8 243 244.7 244.5 244.1 243.7 242.6 239.6 224.4 224.4 225.3 235.4 248.3 254.7 260.6 263.8 267.9 271.7 276.8 283.6 289.4 294.6 304.2 310 314.2 315.9 316.1 316.4 315.4 313.3 311.2 309.8 309.6 307.4 307.2 306.7 307.6 308.1 308 308.3 308.7 309.9 311 314 316.2 318.7 320.9 323.8 327 329.1 331 333 334.6 334 332.6 331.5 330.6 332.2 333.1 335.5 336.7 336.3 336 336.8 334.9 330.6 324.4 317.7 309.6 300.2 290.4 280.7 273.7 267.4 261.6 257.9 255.9 255.7 254.4 257.6 251.1 244.3 241.4 239.5 238.3 236.9 236 236.4 233.1 233.3 233.6 234.1 239.2 248.4 259.8 261.5 261.9 258.3 254.2 252.2 254.5 257.9 258.2 260.8 260.8 263.4 263.4 259.5 257.9 258.6 255.5 255.5 255.5 255.5 255.5 266.6 274.3 276.6 278.7 282.8 286.4 293.9 299.4 305.9 312.4 319.7 327.3 334.1 349.6 367.5 379.8 387.2 391.9 394.8 397.3 399.8 401.5 402.1 399.6 397.3 395.6 393.8 391.8 389.8 389.3 387.5 393.5 395.4 395.4 396.2 395.5 394.2 391.9 388.7 383.7 379.8 377.4 372.9 367.4 357.8 350.9 353.4 358.6 362.9 364.1 363 360.3 353.7 340.9 344.2 351.7 355.7 361.1 360.9 363.9 365.6 365.6 364.3 362.8 359.4 366.5 367 377.2 385.2 388.8 393.2
271.2 269.1 265.2 261.8 259.2 256.5 255.3 253.8 250.9 246.1 244 243.6 247.2 244.7 243.9 243.6 245.6 246.9 246.5 246.5 243.8 239.2 224.4 225.7 230.7 246.4 253.5 258.3 261.4 265.7 269.2 273.3 278.9 284.3 290.2 296.6 305.3 309.8 313.6 312.7 312.5 312.2 313.4 311.5 309.2 306.9 305.3 304 304.9 305.7 306.1 305.8 306.8 308.1 309.3 310.7 311.4 315 317.4 319.9 322.4 325.5 328.5 331.3 333.6 333.9 335.5 333.6 331.5 329.8 328.5 329.9 331.1 333.3 334.8 334.4 333.8 332.8 331.1 328.1 321.9 315 307 296.8 286.4 279.3 273.4 267.2 263.8 260.5 258.2 256.4 259.4 254.6 245.4 242 239.9 239.3 238.1 238 235.7 235.8 235.7 236.3 236.1 235.8 241.4 252.3 258.6 263.1 265.2 263.6 257.6 251.4 256 260.8 259.9 260 263.3 264.1 263.4 261 262.4 258.9 255.5 255.5 255.5 255.5 255.5 268.5 273.9 276.8 277.1 282.6 282.1 289.7 297.6 304 309.8 317.5 324.9 331.4 342.4 359.5 373.8 383.6 387.9 389 391.2 393.5 395.1 395.8 393.6 390.7 389 387.6 384.7 382.6 383.3 384.3 388.8 392 393 393.7 393.2 390.7 388.3 385.2 379.8 376.5 372.7 368.9 365 358.6 344.4 345.1 354.5 359.5 361.3 359.7 354.3 349.1 330.9 342.9 352.4 355.3 357.7 356.5 358.3 355.3 354.8 350.1 356 369.1 375.7 379.8 384.8 389.2 393.3 396.3
268.8 267.1 264.1 261.6 260 256.8 251.7 246.8 246.7 246.3 247.8 246.9 245.5 244.8 244.9 245.3 247.2 248.1 248.1 248 247.1 237.3 225.9 227.5 237.4 251.4 257.5 259.8 261.5 265.7 270.4 274.5 279.4 284.8 290.9 296.7 302.8 307.4 309 309.1 308.9 308.7 308.3 307.1 305.4 302.3 301.6 303.2 303.2 302.4 304.2 303.5 306.9 307.8 309.4 310.4 312.1 315.3 318.1 320.8 323.6 326.5 329.9 332.8 333.5 334.4 335 332.9 330.5 328.3 327.2 328.3 329.8 331.2 331.4 330.4 330.3 330.8 329.2 324.1 318.8 311.9 303.5 291.9 283.9 278.2 271.9 268.2 265.8 262.4 261.6 257.3 250.4 248.3 244.6 242.1 240.9 244.5 243 241 239.1 238.9 239.1 238.4 237.8 238.4 248.1 259.5 264.4 265.8 266.1 265.5 256.8 254.8 254.3 260.5 264.2 264.9 266.3 265.7 265.1 265.4 265.2 261.7 255.5 255.5 255.5 255.5 255.5 265 269.6 270 273.7 277.7 278 283.8 294.2 300.8 307.1 314.7 321.2 327.6 336.2 348.6 363.9 375.5 378.9 383.3 385.6 386.4 387.6 388.4 385.8 382.7 381.1 378.6 375.8 373.5 378.3 383.4 386.1 388.9 392.1 391.7 390.8 387.5 384.2 380.7 376 372 368.2 364.2 360.1 355.4 348.9 336.8 350.1 356.7 358 355.9 352.2 344.1 329.4 340.6 350.6 351.6 345.5 339.6 333.6 337.9 343.6 359.8 366.1 373.5 378.6 384 388.5 392.1 396.1 400.7
266.4 265.2 263.4 258.3 255.8 256.1 255.4 254.6 254.5 254.6 252.3 248.5 246.9 246.4 245.8 250 249.3 249.1 248.9 248.7 248.5 243.3 226.9 226.7 234.1 251.6 258.5 261.4 263.7 264.4 269.6 273.7 279 283.7 289.2 294.9 299.6 303.7 305 305.4 305.6 305.1 303.9 302.8 301.3 299.7 299.8 300.2 301.2 302.1 302 303.9 305.4 306.5 308.4 310 312.5 315 317.6 320.5 323.2 326.3 329.9 332.1 332.2 333.2 333.1 331 328.8 326.3 324.8 326 327.2 328.9 329.3 329.2 329.5 328.7 324.8 319.6 313.7 306.8 298.2 287.1 281.2 276.1 272.1 269.1 266.4 264.5 263.2 253.3 257.5 251.9 245.1 243 247.1 255.1 251.9 246.9 242.7 242.6 240.6 239.7 240.5 247.3 249 257.2 264.4 264.3 265.5 263.9 256.9 260.6 259.1 262.4 265.3 267.2 267.1 266.8 265.5 264.5 264 258.5 255.5 255.5 255.5 255.5 264 255.5 257.7 263.5 265.6 270 276.7 282.4 292 297.4 304.1 311 317.6 324.2 332.3 340.6 354.8 365.1 368 372.1 376 377.2 379.6 378.7 376.8 373.7 371.1 368.9 367.2 369.1 374.6 379.4 383.8 386.7 388.5 388.1 385.9 383.9 380.9 376.9 371.9 367.5 363.4 359.5 355.6 349.3 342.4 333.8 348.9 353.4 353.2 350.6 347.1 343.8 328.2 332.9 341.5 339.7 329 328 339.8 347.9 356.9 364.9 371 377.7 381.9 386.6 390.6 395.2 399.5 402.5
265.6 263.9 261 257.7 262 261.1 260.3 259.4 258.7 256.8 254.8 249.1 248.6 248.1 248.7 251.2 250.1 249.9 249.9 249.5 249.7 247.5 237.1 233.5 228.4 235.6 255.5 260.4 262.2 263.6 268.3 271.8 277.1 280.1 283.6 290.6 295.3 299.6 302.1 303 302.7 301 300.1 298.8 296.7 295.6 295.7 295.8 297.4 299.3 301.2 302.9 304.1 305.8 307.4 309.7 312.4 314.8 317.4 319.8 322.5 325.3 327.5 329.4 329.9 330.1 329.9 327.6 326.1 323.5 322.5 323 324.2 325.3 325.3 325.4 325.7 324.7 320.5 315.1 309.3 302.1 293.4 284.5 277.4 273 270.4 263.8 259.9 259.2 258.3 259.9 261.9 253.4 244.9 243.4 246.9 260.4 260.5 257.3 250.4 245.3 242.8 242 244.9 252.2 255.3 258.5 263.3 263.4 263.8 262.5 261.2 264.6 263.3 264 265.6 265.7 265.3 265.6 264.8 263.8 255.5 255.5 255.5 255.5 255.5 255.5 261.2 268.9 272.1 275.5 276.2 268.8 275.1 282 286.9 293.1 300.2 307.4 313.8 319.1 326.5 335.3 344 353.8 356.8 360.4 364.2 366.8 368.1 368.4 367.1 364.7 362.1 361.3 356.5 367.8 371.4 376 380 383 385 384.2 382 379 376.3 371.9 367.6 362.6 358.5 354.5 348.4 341.5 334.5 331.6 346.8 349.1 349.1 347.2 342.6 338.9 324 330.2 324.5 327.7 332.3 337.2 346.2 353.9 360.1 367.7 373.7 378.8 383.8 388.3 392.9 399.2 403.5 406.1
260.5 260.4 260.3 262.1 263.3 263.5 263.2 262.4 261.2 258.9 252.9 253.2 249.6 249.5 253.4 253.7 252.1 251.2 251.1 251.1 251.5 250.8 246.5 244.6 242.9 229 254.9 260.4 262 263 266 268.2 272.3 275.3 279 283.1 289.8 294.6 295.6 296.5 298.5 296.8 294.9 293.3 291.4 290.7 292.6 294.8 294.7 297.6 298.5 301.7 303.1 304.4 305.9 308.2 311.4 314.2 317 319 321.7 323.9 325.6 326.6 326.4 326.6 325.9 323.9 322.6 320.9 319.7 320.5 321.2 321.7 321.6 321.5 321.5 319.8 315.7 310.7 304.8 297.8 290.8 283.6 274.5 273.1 263.5 266.5 264.7 263.9 264 265.7 265.1 258.3 248.8 244.9 244.5 256.6 263.2 263.4 259.4 255.8 259.8 248.5 251.1 257.2 265.6 267.2 267.6 266.5 264.2 261.7 261.9 265 266.2 264.8 264.5 264.1 264.1 263.2 259.7 255.5 255.5 255.5 255.5 255.5 255.5 256.8 261.4 266.6 272.2 276.9 277.2 273 270.9 275.6 280.6 282.3 294.1 303.2 309.3 314.2 321 328.2 336.3 341.8 346.3 349.8 353.5 355.8 357.4 358.3 357.5 355.1 353.9 348.4 357.2 363.8 368.1 373.3 376.5 379.2 380.4 380.6 378.8 376.2 373 369.5 364.3 359 354.7 348.3 340.1 332.6 324.4 332.6 341.7 344.6 345.2 343.2 335.5 327.2 318.8 321.9 331.8 334.9 344.3 346.5 349.8 357.5 362.4 368 374.3 380.3 385.4 389.1 395 401.9 405.1 409.2
266.1 265.7 264.8 264.7 264.9 265 264.5 263.9 261.2 256 258.9 262.7 258 255.4 257.4 256.4 254.1 252.6 252.2 251.6 252.7 252.7 249.4 231.3 230.3 244.9 254.9 260.4 262.6 263.7 264.7 264.8 268 270.8 274.2 278.8 283.5 285.7 285.7 287 288.8 288.9 286.7 286.3 288.3 290.6 291.8 294.9 295.4 296.1 296.6 298.4 300.1 301.8 304.4 306.9 309.4 312.5 314.5 316.6 319 320.9 322 323.2 322.9 322.2 321.4 320.3 318.4 317.5 316.1 316.7 316.2 317.5 317.4 317.5 317 314.2 310.7 305.9 300.3 290.3 286.9 279.8 269.1 264.4 270 269.3 268.3 267.7 267.4 268.4 268.3 266.6 258.6 249.5 246 249.9 264.8 265.5 265.6 262.8 267.3 264.1 249.3 259.7 269.7 270.1 270.3 270.5 268.2 264.5 263.8 264.5 265.7 266.2 264.5 262.8 260.2 255.5 255.5 255.5 255.5 255.5 255.5 255.5 255.5 263.4 265.5 264.6 269.9 274.2 276.4 275.3 275.6 279.8 277.2 278 285 295.5 304.3 308.8 315.1 321.6 329.3 334.4 337.3 339.7 343.5 346.4 347.7 348.8 347.4 345 342.8 346.7 354.5 359.7 364.7 369.7 372.8 375.3 376.9 376.9 375.2 373.4 369.4 365.2 359.3 354.5 348.6 339.7 331.6 323.6 319 335 341.4 341.4 337.7 332.2 318.9 315.4 321.3 331 333.3 330.4 345.9 350.7 350.6 358.5 364 369.9 375.4 381.9 387.5 391.2 394.2 399.3 406.3 410.7
267.9 267.3 266.3 266.2 266.3 265.7 262.7 260.9 263 262.6 262.9 262.4 263 262.2 259.5 258.2 255.9 254.5 254.2 254.2 254 252.8 247.9 234.3 231.6 246.7 256.5 259.9 262.4 265.2 266.4 263.4 262.4 265.9 267.6 271.8 275 275.1 274.3 276.9 278.9 280.8 283 284.4 286.4 288.4 290.4 292.8 294.2 294.2 296.4 297.1 298.1 299.8 303 305.4 307.6 309.4 310.7 312.9 315 317.1 318.3 318.5 318.2 317.4 316.6 315.7 314 313.2 311.3 311.3 312.1 312.6 312.9 312.8 312 309.3 305.7 301 295.6 288.4 282.3 276.7 265.9 273 274.1 274.6 273.3 272 271.2 270.7 270.2 269.1 267.1 257.6 248.4 247.7 260.3 268.1 270.7 270.4 271 268.6 258.5 258.7 265.2 271.5 272.9 271.7 269.3 267.3 268.2 268.9 266.8 266.9 264.7 260.7 258.9 255.5 255.5 255.5 255.5 255.5 255.5 255.5 264.3 263.5 268 265.6 267.1 272.5 276.1 276.4 276 280.4 281.1 281.9 280.6 287 297.8 303.8 308.8 313.7 319.5 324.9 328.2 330.5 333.3 335.9 337.4 339 338.1 334.7 336.6 344.2 351 355.9 361.6 365.8 368.9 373.4 374.7 373.1 370.4 368.6 364.5 360.8 354.4 349.9 340.4 331.4 323.4 313.4 325.8 335.4 338.2 338 327.2 311.8 314.3 319.8 330.4 337.3 341.5 343.7 337.1 348 353.7 360 363.5 369.3 374 384.8 388.1 390.5 397.5 402.1 406.4 411.1
269.3 268.8 267.8 267.6 266.8 266 266.6 266.1 266.1 265.5 265.5 265.5 263.9 269 260.4 259.7 257.7 256.6 256.1 255.9 255.1 253.9 250.3 242.7 232.9 234 241.4 245.9 252 257.9 261.2 258 259.6 264.1 263.1 254.2 260.6 265.9 269.1 272.5 274.1 276.2 278.1 281.7 284 286 288.8 291.5 292.5 294.1 295.4 295.2 296.8 298.3 300.6 303 304.9 305.5 306.1 308.2 310.3 311.8 313.2 313 312.5 312.2 311.3 310 310.6 308.9 306.9 306.1 306.5 308 307.9 308 306.9 304 300.8 297.2 291.1 285.6 274.9 272.1 268.2 278.3 279.1 278.9 276 275.5 275.1 274.3 273.5 272.6 270.7 261 250.1 251.9 263.2 269.7 270.6 273.6 273.9 266.3 266.7 263.5 270.1 272.5 274.8 273.5 270.7 270.7 272.7 270.4 267.3 265.9 264.1 262.2 256.2 255.5 255.5 255.5 255.5 255.5 255.5 256.6 266.3 267.4 268.7 269.6 267.1 268.8 276 277.8 277 276.8 278.4 279 281.1 282.1 291.9 297.3 300.7 305.5 310.1 315.2 319 322.1 324.1 326.5 328.9 330.4 330.3 325.6 334.2 340.4 347.2 352.9 357.8 362.5 365.4 368.7 370.9 367.7 364.6 362.2 359.6 355.2 349.4 341 331.2 322.2 314.1 315.2 323 328.4 329.8 323.3 309.7 316.7 328.3 331.5 335.3 341.6 344 348.2 350.7 349.2 346.7 358.5 365.4 371 376 380.6 387.4 392 397.7 402.3 406.5 411.6
270.8 270.3 269.3 267.4 269.1 268.5 268.5 268.6 268.6 268.1 268.4 268.2 266.6 265.9 267.8 263.9 261.2 259.4 258.3 257.2 256.3 255.8 253.2 243.4 233.5 233 234.9 236.8 238.2 239.3 241.8 244.4 254.2 249.7 257.1 262.9 258.9 255.2 259.2 267.9 268.9 271.1 273.4 278 281.3 284.6 288.2 289.7 291.2 292.2 293.1 293.4 294.1 296.1 298.7 300.3 302.9 302.7 303.9 305.1 306.7 307.5 308.1 307.5 306.9 307.5 307.3 306.7 305.9 305.4 304.9 303.8 302.9 303.3 303.5 302.9 300.8 298.6 295.3 292.9 286.9 279.1 271.2 269 269.2 280.4 280.6 279.5 277.1 277 277.2 276.7 276 273.6 265.4 250.2 253.5 262.8 269.3 274.5 276.1 276.5 276.3 275.4 275.3 273.6 274.1 277.2 276.5 275.2 274.5 275.2 274.8 272.3 269.3 266.8 264.4 260.7 260.5 263.1 255.5 255.5 255.5 255.5 255.5 255.5 257.8 264.8 266.6 269 269.1 270.8 278.1 279 280.6 282.2 283 282.1 284.6 282.5 288.4 290.6 294.5 299.8 303.7 306.7 310.5 313.4 315.4 317.8 320.5 322 319.5 323.3 329.8 336 342.1 347.8 355.7 358.7 362.7 366 366.5 363.4 359.5 357.5 351.2 343.9 336.7 329.9 320.8 314.2 310.7 309.9 313.9 313.3 307.2 307.5 312.4 325.8 330.5 334.9 339.8 344.9 347.4 351 354.7 357.4 360.7 362.3 366.4 372.4 376.7 382.9 388 391.1 397.8 402.1 407.6 411.5
271.8 271 268.6 270.4 270.6 271 271.2 271.5 271.2 270.9 270.2 268.4 268.9 267.4 267.4 265.2 263.1 261.4 259.5 257.7 254.3 242.1 240.8 238.9 235.1 238.5 247.9 252.5 255.7 258.6 260.4 259.4 249.3 259.4 262.5 263.3 264.5 262.3 259.2 258.5 260.6 265.4 269.5 274.8 279.9 284.1 285.9 286.6 288 287.8 288.4 289.9 293.5 295.1 297.4 300.1 301.3 301.7 302.6 303.4 304.4 305.3 302.9 299.9 301.4 303.3 304.9 303.9 303.5 303.9 303.4 302.4 300.9 300 299.2 297.4 296.3 293.3 290.4 274.7 273.8 277.2 271.3 268.9 267.9 279.2 281.4 279.4 277.8 278.1 279.2 279.2 278.1 264.6 253.1 259.3 256.1 275.3 277 278.9 279.2 279.3 278.7 278.9 278.6 277.7 277.9 279 279.5 279.3 278.9 279.8 278.1 275.6 272.6 270.2 267.6 261.3 261.3 262.1 259.9 255.5 255.5 255.5 255.5 255.5 255.5 257.7 260.7 265.7 269.1 273.9 275.6 276.3 277.2 282.8 282.8 278.4 283 284.6 284.3 285.1 290.7 295.7 300.5 302.2 306.2 306.5 308.3 309.6 311.8 312.9 316 320.4 324.6 330.4 336.2 342.2 349.1 353.8 355.9 359.1 359.5 357.7 354.2 348.3 340.3 330.6 320.1 318.3 312.3 306 300.2 299.5 300.8 305.1 304.8 318.6 325.8 330.6 335.6 339.1 344.3 348.2 351.7 356.1 359.7 363.3 367.3 368.8 371.2 372.2 378.3 382.9 388.7 392.9 398.1 404.4 408.4 413.1
272.9 270.9 271.3 271.8 272.8 273 273.8 274.2 273.9 273.5 271.8 271.9 270.7 269.4 268.1 266.4 264.5 262.2 258.3 248.1 239.4 239 238.3 239.1 243.5 243.8 253 259.5 262.4 262.9 263.6 263.1 264.2 262.9 264 265.6 266.7 265.6 262.1 264.8 267.3 259.7 261.8 267.4 275.8 279.7 283 284 284.4 282.3 285.6 287.5 291.2 293.8 296.3 297.8 299.6 299.9 299.6 299.2 299.4 301.6 300.3 296.6 299.8 300.8 301.7 302.3 302 302.4 301.8 300.2 296.6 294.8 294.4 290.9 288.7 290 286.7 275 274 272.8 267.3 265.3 268 279.6 281.4 279.4 279.6 278.8 279.8 278.6 273.1 255.6 265.2 274.8 266.7 273.3 281.2 282.3 282.9 282.2 282.3 281.9 281.5 281.1 281.8 282.4 282.9 282.8 282.5 283 281.7 278.8 276.2 273.8 268.3 266.2 263 259.5 255.5 255.5 256.3 255.5 255.5 255.5 255.5 255.5 255.7 258.6 265.3 268.4 268.9 269.3 276.9 278.5 280.6 276.8 278.6 281.3 284.1 285 285.8 292.3 296.7 299.6 301.8 304 304.6 305.1 305.8 307.7 313.5 316.5 319.3 324.5 330.1 335.8 341.3 345.8 348.4 350.2 352.2 350 345.3 336.6 326 317.9 308.6 295.7 296 295.3 297.3 300.5 310.7 318.2 320.4 323.5 329.5 334.3 339.4 344.3 349 354 357.8 362.2 365.8 369.8 372.1 374.6 377.7 378.1 377.4 384.7 390.4 393.4 398.4 404.2 410.4 414.7
274.3 271.1 273.7 274.2 275.3 276 276.9 276.7 276.4 274 274.1 274.2 272.5 271.1 269.2 266.6 264.6 260.8 253.1 240.6 242.4 246.1 241.8 243.3 254.2 256.7 259.1 261.7 263.7 264.6 265.5 266.7 267.7 267.7 269.1 270.3 272.3 270.5 265.6 266.6 266.3 267.6 265.7 262.1 268.1 275.4 279.3 281.6 278.5 279.6 283.5 286.4 289.9 293.3 294.8 296.6 296.8 297.1 297.6 296.6 297.7 297.3 295.5 294.9 293.5 297.2 298.6 299.4 298.7 299.7 299.4 298.1 292.9 291 288.3 285.3 282.2 282.2 275.3 274.5 272.7 265.6 265.3 263.9 263.4 266.7 272.4 275.4 270.2 267.2 273.7 265.7 255.8 276.9 277.6 280.2 275.5 277.3 284.3 284.7 285.5 284.3 284.6 284.9 284.7 284.7 285.2 285.7 286 285.7 285.7 285.8 284.1 282 279.8 277.1 274.3 270.3 265.6 263 259.9 259.1 255.8 255.5 255.5 255.5 255.5 255.5 255.5 255.5 255.6 259.7 263 263.5 268.8 269 276.4 280.8 281.1 280.5 282.3 283.3 285.4 289.5 294.5 297.2 300.4 303.4 301.1 302.4 303.1 304.5 309.2 311.7 314.5 318.8 323.8 328.2 333 336.9 340.6 341.5 341.5 340.9 335.7 322.1 313 306 299.1 292.7 297 300.8 310.8 317.3 320.1 322.9 328.6 332.5 337.2 341 345.7 350.5 354.4 360.1 363.6 368 371.8 375.3 378.4 381.7 384.9 384.3 386.9 388 392.1 395.4 399.1 403.9 410.8 415.2
275.1 274 275.8 276.5 277.6 278.5 279 278.6 276.6 276.5 276.1 275.7 273.7 271.3 269.7 267 262.3 243.2 242.3 255 259.1 258.8 248.9 254.9 258.9 262.1 262.4 263.4 264.4 265.8 267.5 269.9 271.6 272.1 273.1 273.6 273.5 272.7 270.4 268.5 269.9 270.4 270.2 267.7 263.8 271.1 276.6 277.1 278.9 282.3 285.4 286.7 289.1 291.8 292.8 294.6 295.2 294.9 295.5 295.2 296 295 295.2 294.4 291.9 290.9 294.1 297.6 296.9 296.7 294.7 292.7 290 286.7 285.1 280.9 277.8 275.3 271.6 268.8 266.6 265.9 267.9 268.6 267.8 265.2 265.4 260.8 264 264.6 269.5 272.9 279.6 284.3 284.6 284.6 281.8 283.1 287.4 288 288.6 287.3 287.8 288.1 288 288.2 288.6 289.1 289 288.9 288.8 288.9 287.5 285.6 283.7 281.5 279 274.1 269.8 268 264.8 262.9 257 257.7 260.3 255.5 255.5 255.5 255.5 255.5 255.5 255.5 255.5 260.6 265 272.1 280.7 283.4 282.9 283.1 284.8 284.4 284.9 288.1 292 294.4 297 297.8 296.6 296.3 300.1 302.6 304.6 307 309.7 313.7 317.6 320.7 324.1 327.6 330.7 331.8 332.3 331.9 320.2 311.2 303 296.7 294.6 292.5 306.1 313.4 319.3 323.3 327.7 332.1 335.2 339.6 343.2 347.9 351 354.5 359.2 365.3 367.9 371.5 376.1 379.6 384.2 386.8 387.5 391.2 391.5 394.3 395 397.4 400.4 404.5 408.8 414
274.7 276 277.4 278.1 279.4 280.3 280.5 278.3 279.4 279 278.3 276.9 274.4 271.9 269.4 265.4 252.5 257.5 260.4 262.2 262.4 260.4 259.2 261.5 261.8 262.6 264.3 265.1 265.7 267.6 269.8 271.7 273.5 273.9 274.9 274.8 276.2 275 272.9 272.2 273.8 274.4 274.4 275 268.4 266.5 272.3 276.5 281.8 285.1 286.9 288 288.9 290.2 291.2 292.8 292.6 293.2 293.9 294.2 294.3 294.1 293.7 293.6 292.4 288.1 289.5 289.1 290.3 292.1 291.4 290.3 287 282.5 277.5 276 274.5 271.6 268.8 267.3 268.5 271.5 273 275.2 276.7 279 279.4 278.2 283.7 285.9 284.7 285 276 288.2 290.4 289.9 286.6 285.8 289.9 291.2 291.3 290.6 291.9 291.9 291.8 291.7 292.1 292.1 292.2 292.3 292.1 292.3 291.2 289.1 287.2 285.2 282.9 279.6 275.3 272.5 268.7 267.2 263.3 262 264.8 262.8 265.2 255.5 255.5 255.5 255.5 255.5 255.5 255.5 258.9 266.3 273.1 282 282.6 283.7 285.4 285.4 282.4 287.7 289.8 290.1 290.4 290.3 291.3 295.7 298.9 301.1 302.5 304 306.1 308.6 312.1 314.6 316.9 319.1 321.5 322.7 322.9 321.3 316.2 302.7 289.8 290.9 291 298.9 310.8 319.8 324.2 327.9 333.1 334.9 338.1 345.7 349.1 351.5 354.8 358.3 364 368.9 371.4 376.6 382.1 386.5 390.5 391.8 395.7 397.1 398 400.5 401.2 402.9 404.9 407.6 410.8 415.3
276.7 278 277.4 279.6 280.8 281.5 279.6 281.6 281.2 280.6 279.1 277.4 275.1 271.9 267.7 263.8 247.3 263.7 264.5 264.1 264.4 263.2 263.5 264.3 264.7 265.1 265.8 267.1 268.1 270 272 273.1 275.2 276.1 276.8 277.1 278.2 278 277.1 276.2 276.7 278.4 277.7 275.2 272.9 266.5 274.8 280.5 283.7 285.9 287 287.7 288.4 289 289 289.7 290.7 292 292.5 292.8 293 293.2 292.9 292.2 292.3 285.7 284.9 284.5 288.7 288.8 286.7 285.6 284.1 278.9 275.6 272 271 269.6 268 270.9 272.1 276.6 277.6 279.4 282.7 284.7 285.4 286.6 290.4 291.6 291.6 291.9 289.9 291 293.5 293.3 291.5 291.8 289.6 293.2 293.6 294.3 294.5 295.4 295.6 295.8 295 295 295.9 296.3 296.4 297.4 294.8 293.1 291.6 289.4 286.6 284.4 280.6 278.1 274.7 271.5 267.1 266.3 267.9 268.3 268 262.8 255.5 255.5 255.5 256.9 255.5 255.5 255.5 258.1 265.8 270.7 275.2 282.7 281.7 280.1 280.8 281.1 278.9 278 286.5 291.7 295.7 295.1 297.2 298.8 301.1 302.3 303.7 306.2 307.9 310 311.3 312.6 313.6 313.7 314.7 313.3 306.6 287.9 287.4 294.4 305.6 310 317.5 323.3 326.8 330.9 336.3 339.9 345.4 349.1 352.8 356 358 363 367.2 372.1 376.8 382.8 388.3 392.7 393.9 398.1 400.9 401.5 403.8 405.9 405.7 407.4 408.2 410.4 413.1 416.8
279.3 280.1 280.9 281.1 280.3 281.4 282.1 282.5 282 281.2 279.3 277 273.9 270.4 267.5 247.8 257.4 266.5 267.3 266.8 266.6 263.6 266.3 267.3 267.6 267.6 268.9 270.8 271.7 273.5 275.3 276.8 277.9 278.3 280.1 280.4 279.5 279.3 279.8 277.9 279.4 280.5 279.1 280.1 278 267.4 269.5 279.9 282.9 283.8 285.1 286.8 287.6 287.2 288.5 289.7 290.9 291.6 291.9 291.8 291.5 290.7 291.4 291.4 290.6 286.9 291.3 287.9 281.9 283.1 285.6 282.3 279 275.7 273.3 271.8 269.6 271.9 273 272.4 275 277.6 280.7 283.3 285.8 287.6 289.7 291.7 294 295.5 295.4 295.8 295.7 295.6 297.2 296.8 295.3 296.4 293.3 296.9 296.5 298.5 298.8 299.3 300.2 298.8 298.1 298 299.4 299.4 299.6 300.1 299.1 297.6 295.6 293.9 291.2 289 285.9 284.3 282 278.5 275.9 263.9 274.4 274.4 272.4 269.1 267.8 264.8 264.8 261.3 258.1 256 255.5 256.1 258 257.3 257.1 259.9 266.7 268.8 272.4 270.9 278.5 286.6 291.3 295.7 300.1 301.6 300.5 299.4 300 301.4 301.6 304 304.8 305.5 307.1 309.2 308 306.9 307.1 307.6 299.6 285.2 287.7 298 306.7 313.2 319 324.4 328.9 333.5 338.9 341.8 346.8 350.6 353.2 357.4 362.1 367.4 371.1 376.3 383.2 389.7 395.4 397.8 400.4 404.1 404.8 406.7 408.5 409.3 410.1 412.5 413.5 414.3 417.5 419.9
281.1 282.2 282.6 282.1 281.9 282.7 283.7 283 282.1 280.2 278.2 276.2 273.2 271.5 262 250.6 267 270 270.1 269.7 269.2 268 268.5 270.5 271.1 271.8 272.7 274.4 275.9 277.6 279.6 280.5 281.3 281.7 282.7 283.1 281.9 281.6 280.4 281.7 281.8 282.2 281.6 282.3 282.1 273.1 267.4 269.7 277.2 283.6 284.4 284 284.9 288.1 288.3 289.2 289.8 290.4 291 291.5 291.5 290.4 289.7 287.4 287.1 289.9 288.8 288.5 288.6 283.3 278.9 282 277.4 275.2 273.4 271.4 272.9 273.8 274.6 275.3 278.2 279.8 283.5 286.7 289.5 291.1 292.3 294.9 297.9 299.1 300.6 299 300.2 301.4 301.6 299.7 298.9 299.3 297.5 300.3 300.7 301.7 302.6 303.5 303.4 301.9 300.5 301.3 301.3 301.6 301.8 302.7 301.4 300.3 299.2 298 296.7 294.4 290.8 288.8 288.4 285 280.2 275.2 281 279.6 276.2 272.9 271.4 270.5 268.1 261.1 264.2 264.5 255.5 256.1 257.5 260.1 260.6 259.1 259 264.7 264.6 271.8 279 285.7 292.5 296.9 300.8 304.3 307.1 304.6 303 302.9 302.9 303.7 303.3 303.6 303.7 303.9 302.2 299.3 297.7 290.3 286.7 285.5 295.7 304.8 307.9 313.7 321.8 325.5 329.5 334.1 338.6 341.6 345.9 349.9 354 359.8 366.7 371.7 376.4 384.6 391.5 398 401.3 402.7 405.7 407.4 409.1 411.1 412.7 414.2 415.7 417.2 418 418.5 421 422.8
282.5 282.9 282.7 282.6 282.5 283.2 283.4 282.7 281 278.8 277.5 275.8 273.5 265 249.4 263.9 271.6 272.2 272.4 272.2 271.3 270.1 271.2 272.8 273.6 274.5 275.8 278 280.2 282 283.2 284.1 284.6 284.8 285.7 284.4 283 283.1 282.6 283.2 283.3 281.2 283.2 283.9 284 282 271.9 268.4 272.3 282.3 285.7 286.4 286.9 287.4 288.1 288.3 288.4 289 289.6 290.3 291 291.2 290.5 289.6 291 290.8 289.2 288.7 288.5 285.7 280.2 277.4 276.2 274.2 272.5 273.5 275.1 275.9 276.9 277.7 282.2 284.2 286.9 290.1 291.8 293.9 295.3 298.6 301 302.8 303.9 304.6 304 304.5 303.6 303.4 301.3 302.5 302.8 303.1 304 305.2 306.2 306.8 306.6 305.4 305 304.9 304.5 304.6 305 304.9 305 304.5 303.3 302 300.5 298.2 295 293.2 292.7 290.2 281.3 283.8 287.8 284 279.1 275.7 274 272.5 269.6 267.7 268.9 269.9 259.4 259.7 261 261.4 262.2 259.9 258.6 259.1 261.4 266 272.6 282.4 288.4 295.9 299.7 303.3 307.9 307.6 305.4 305.5 304.6 303.6 303 301.4 300.7 300.1 297.5 284.7 281.5 283.1 284.1 289 301.4 308.5 312.5 318.8 324.7 326.8 330.2 334.4 338.6 343.5 348.2 352.4 358.3 365.5 372.7 378.4 384.2 391.6 397.5 400.4 401.6 405.3 407.9 410 411.4 414 415.5 418.3 420.1 421.1 421.9 422 423.1 424.9
284 284.5 283.7 282.7 282.7 283.2 283.1 281.4 279.6 278.4 277.3 275.8 272.7 254.7 265.7 271.9 273.7 274.4 274.4 274.5 273.3 271.7 274.7 275.7 276.7 277.7 279 281.5 283.7 285.5 286.9 287.7 287.9 288 288.1 285.8 284.8 285 284.5 284.2 283.6 283.2 284.7 285.2 285.5 284.9 280.6 268.2 272.6 281.5 286.1 286.5 286.6 286.9 287.1 287 287 287.6 288.1 288.9 288.7 287.9 289.2 291.3 291.9 291.7 289.5 289.8 287 285.2 282.3 278.4 274.7 273.4 273.4 275.6 276.9 277.9 279.5 280.9 284.5 288.2 289.3 292.1 294.4 297.9 298.9 301.2 304.4 306.2 307.3 307.8 306 307.1 306.8 306.1 305.6 303.6 306.1 306.3 306.4 309.2 310.9 310.3 310.1 308.3 308 307.7 307.7 307.7 308.3 308.2 307.6 306.7 307 305.6 304.1 302 299.7 298.5 296.8 293.7 283.7 294.1 294.8 288.7 285.3 282.3 278.8 275.2 267.7 271.9 277 277.4 273.8 271.8 271.7 269.6 267.6 268 263.2 260.6 260.6 261.2 262.1 272.1 283 291.2 297.3 301.4 304.7 306.9 306.7 306.8 304.6 302.2 299.7 298.7 297.6 287.6 280.6 280.8 284.7 287.2 293.4 301.4 308.3 312.6 317.5 322.6 327.1 331 334.9 338.4 341.8 346 350.9 356.9 363.6 370.5 377.4 383.5 388.3 393.1 396.9 400 402.4 405.5 407.6 410.1 412.7 414.8 417.2 420.7 423.5 424.1 424.2 424.9 424.7 426.5
