ncols 200
nrows 82
xllcorner 280000
yllcorner 600350
cellsize 50
344.4 340.9 340.3 335.3 331.9 327.3 327 323.3 319.5 316.9 315.6 314.7 314.6 314.1 311.4 308.7 307.6 307.4 304 302.5 300.7 294.7 292.3 289.7 287.3 283.1 280.4 276.4 271.5 262.7 268.7 265.7 259.9 254 238.7 226.8 228 227.5 221 220.3 218.9 216.9 214.7 213.9 212.9 209.6 203.4 197.7 194.1 193.9 194.6 192.9 190.9 189.6 189.1 188.3 188.9 198.9 202.2 206 207.7 210.1 214.8 217.2 219.6 222.8 227 231.2 232.2 234.1 232.7 229.2 221.8 211.4 202.4 196.4 183.6 168.7 158.6 154.1 148.3 141.9 148.7 166.1 182.5 191.1 197.7 202.1 204.6 206.9 208.8 211.1 215.7 215.2 213.7 210.2 202.2 194.6 182.7 171.1 158.7 142.6 123.9 107.3 94.1 89.1 88.4 78.2 95.4 106.4 115.8 120.8 123.6 131.3 130.6 125.3 102 90.2 104.9 124.7 134.4 144.9 154.3 162.5 177.1 176.4 173.2 177 180.4 174.3 169 161.9 157.3 160.6 170.7 176.2 179.7 180.4 187.1 192.4 193.3 192.2 190.7 189.4 188.4 187.6 186.8 190.7 196.3 204.9 204.7 201.6 198.5 195.1 189.5 184.5 180.4 176.5 174.9 173.3 171.5 169.6 168.6 167.1 159.7 152.1 158.5 164.9 172.5 178 181.9 184.5 190.2 194.5 195.9 195.1 195.8 193.2 197.1 199.4 211.1 216.4 222.7 226.6 228.2 256.3 274.1 293.9 310.7 319.8 301.8 270.4 238.9 211.8 200.8 206.4 212 220.4 236.3 254.1
339.9 336.7 334.7 332.8 329.7 327.6 325.3 323.5 322.4 319.7 318 318.1 319.1 316.5 314.7 312.6 311.4 312 312.7 303.3 302.2 298.3 293.1 290.7 287.8 284.5 281.7 277.6 271.4 273.4 273.6 270.6 266 258.4 244.7 229.2 233.7 228.9 226.6 231 227.9 223.6 222.4 224.5 220.9 217.3 213.4 208 204.1 200.9 197.9 191.6 198.9 198.1 195.8 189.9 187.3 184.6 187.5 193.6 190 197.7 201.6 205.2 207.1 209.7 214.4 218.8 223.6 224.4 225.5 224.8 219.1 212.7 206.3 199.8 187.3 172.2 162.3 156.4 151.4 137.5 141 161.8 178.1 187.9 195 200.1 202.4 204.3 206.1 207.7 210 211.9 211.5 207.7 204.8 195.8 186.1 178.9 168.8 152.9 139.5 116.8 101.2 90.2 88.3 84.5 85.8 99.1 108.2 113 119.5 121.9 119.7 109.5 93.4 118.7 126.1 134.7 148.8 166.9 174.1 177 178.9 173.6 170.6 176.4 180.1 175.3 170.2 164.4 157.8 157.2 165.3 172.3 176 176.3 184.7 189.4 191.5 191.2 188.4 185.8 184.8 183.7 182.9 186.7 192.8 201.3 203 199.4 196.7 193.3 188.4 183.6 179.8 176.1 174.4 172.5 170.4 168.6 167.3 166.4 162.5 151.7 155.9 162.7 168.6 174.7 181.8 178.7 188.7 193 192.6 191.5 191.9 185.6 193.7 201.5 211.2 215.3 222.4 230.5 226.9 249.5 266.8 286.2 301.1 304.5 289.5 263 227.5 202.1 201.2 208.2 215.1 231.3 250.5 268.5
334 331.7 329.6 327.6 327.5 325.7 323.8 321.9 320.8 320 319.4 321.2 322.9 320.2 316.2 314.6 313.5 312.4 310.4 309.2 302 298.9 294.4 292.5 288 284.6 281 276.8 277.4 278.6 278.5 277.1 272.2 261.6 250.6 243.8 233.1 233.3 237.5 238.9 243.3 244.6 236.9 237.6 233.2 228.5 222.8 215.7 214 211.7 208.7 206.1 205.2 201.8 197.2 192.8 188.2 186.4 186.5 184.2 178.7 184.6 187.9 189.9 191.2 191.5 198 202.8 208.6 211.9 213.9 215.5 213.7 211.2 206.3 199.8 191.3 182.2 170.1 160 153.5 147.8 137.4 151.8 169.9 183 192.4 196.8 199.4 201.7 203.5 205.1 207.1 208.8 209.5 207.9 203.2 194.9 190.5 184.6 174.9 160.6 150.1 133.4 111.2 96.5 88.6 86.7 77.9 88.8 100.6 102.3 107.5 109.2 113.5 99.4 112.1 126.7 134.7 145.6 160.2 167 172.6 177.7 180.4 177.3 173.7 174.7 178.9 177.5 172.6 165.7 157.5 156.4 161.6 168.1 170.1 173.8 180.9 185.2 190.4 188.3 184.6 182.2 185.1 180.5 180.6 183.7 190.2 196.8 199.3 198.5 195.9 192.2 186.1 182 178.9 175.6 173.3 171.1 169.2 167.6 166.1 165.1 160.7 153.1 154.3 159.6 166.8 171.3 178.9 175.4 184.1 186.3 188.4 188.3 183 194.4 202.5 208.4 215.2 219.4 216.1 222.7 227.4 240 258.4 275.2 287.2 290.1 274.8 243.4 214.5 197.5 203.9 210.3 222.5 240.7 261.7 281.4
326.6 324.9 325 324.5 322.6 322.9 322.3 320 318 318.8 320 324.3 324.6 322.9 319.7 316.4 315.3 313.7 311.2 309 306.2 302.1 297.7 292.9 289.7 286.1 282.1 276 280.8 282.1 281.4 280.7 275.7 271.6 260.6 257 240.7 250.5 254 257.4 260.8 257.7 255.5 252.2 247.4 239.2 231 228.1 224.4 221.4 217.5 213.1 210.9 209.2 205.2 198.5 193.1 189.8 188.8 188 186.2 176.1 171.8 171.3 174.4 173.9 181.2 187.9 193.1 197.6 201.7 204.4 204.1 204.1 202.7 199.9 195.3 187.7 177.4 165.2 156.4 150.1 139.6 143.2 163.4 179.7 188.5 191.7 194.9 199.1 201 202.2 203 205 207.1 207 203.4 203 198.1 188.3 177.3 167.9 164.3 146 124.8 109.3 96 90.9 87.2 77.3 82.2 88.5 97.3 96.7 100.7 86.4 118.2 124.6 135.9 147.2 160.7 164.8 167.9 177.2 183 181 174.9 174.3 179.7 179.1 172.7 166.3 158 157.1 161.2 166 168.4 170.6 176.4 182.2 187.5 187.3 184.4 181.2 181.8 178.3 180.4 181.4 187.5 194.6 197.3 197 194.1 189.9 185.4 181.7 178 175.1 172.1 169.5 168.4 167.1 165.3 164.5 160.5 152.4 152.3 157.9 162.6 162.7 167 171.5 177.8 179.8 182.1 179.9 184.2 194.8 203.9 212.8 220.2 223.9 211.6 217.8 219.6 233 246.9 264.5 274.8 272.9 250 226.3 202 196.1 205.2 216.3 230.5 248.8 270.9 295
317.6 318.4 318.8 319 317.8 317.9 319 317.5 316.3 321.1 323.7 326.2 325.3 322.4 320.5 317.9 315.8 315 313.1 310.4 307 303.7 298.9 295.3 291.2 287.9 283.3 281.7 285.6 287.1 286.4 284.4 284.3 279.7 273.1 271.6 244.9 264.9 270 272.9 272 269.3 267.5 263.5 257.9 248.7 242.9 239.1 235.2 230.6 226.2 222.3 218.3 218.4 217.9 215.4 207.8 202.8 199.9 200 193.8 193.2 188.5 183.8 179.9 173.1 166.4 175.4 180.4 185.3 188.1 192.7 194.4 193.3 194.7 197.3 201.5 192.6 184.2 169.8 159.3 153.2 144.1 140.2 157.7 175.5 184.2 186.5 192.6 196.4 198.5 199.1 199.4 200.6 202.8 204.2 203.3 201.2 198.1 187.6 179.7 175 167 150.5 134.4 118.9 104.9 97 92.8 91.4 90.5 77.1 79.1 89.2 89.8 84.8 111.5 117 130.6 139.4 153.6 160.3 166.2 177.4 180.6 180.2 175.4 176.3 178.4 179.6 175.1 171.5 158 157.5 163.6 167 167.5 168.7 175 180.5 185.1 185.8 184.6 179.7 176.6 179.2 184.4 183.7 186.5 192.5 195.5 196.2 193.7 190.8 186.5 182.1 176.9 173.8 170.2 167.5 166.6 165.8 165.1 163.6 159.6 150.8 153.1 156.9 158.5 165.1 170.1 171.1 172.7 174.8 173.7 175.5 188.9 193.4 203.4 211.6 217.6 220.5 209 215 217.3 223.4 234.6 254.2 263.4 251.3 229.3 211.2 193.5 198.6 210.1 223.4 238.8 259.5 283.6 307.5
313.2 315.7 316.1 315.3 314.1 312.6 315.1 314 315.8 320.8 325.5 328.4 328.4 323.8 321.6 318.2 316 315.1 314 310.3 307.8 305.4 301.2 296.9 293.6 290 283.3 287.5 290.4 290 290.9 291.4 290.7 283.4 280.1 257 274.8 285 284.9 283.3 281.7 279 275.8 272.7 266.4 258.5 255.6 250.3 243.6 237.2 233.5 230.3 227.5 226.1 226.4 227 222.8 219.1 213.4 208.2 209.8 206.6 195.4 194.1 189.2 183.5 178.2 167.1 167.2 172.4 176.9 179.1 179.1 179.9 182 190.4 198.3 198 190 177.6 161.6 156.3 149.5 141.8 141 160.2 170.3 183 188.9 193.4 195.5 196.9 197.2 198.4 201 201.5 199.8 198.1 194.7 188.5 183.3 179.1 165.1 152.2 142.3 134.3 118.6 102.8 100.2 100.7 100.1 95.5 89.3 76.2 80.5 89.8 98.2 110.3 121.8 128.5 146.8 156.6 169.7 176.3 179.5 180.6 177.6 176.3 176.7 177.3 173.6 168.2 157.5 159.4 163.9 166.5 165 168 172.1 177.8 183.2 183.8 182.4 176.5 175.9 178.5 186.8 185.7 187.7 191.9 194.5 195.3 193.5 191 186.4 181.1 175.5 172.7 169.5 166.2 164.9 164.4 163.6 162.2 158.6 153.3 151.4 155.7 159.2 165.7 165.6 165.7 167.9 167 170.7 176.8 187 191.1 202.5 208.7 213.2 217 213.5 208.7 216.6 212.6 211.9 236.8 247.7 232.3 214.6 199.2 193.2 201.8 213.8 229.4 247.8 272.1 295.6 314
309.5 312.5 312.5 312.1 311.2 311.4 309.8 312.7 315.3 319.2 323 327.6 328.2 324.7 321.2 318.9 317 314.4 313 310.5 307.7 305.9 303.4 298.9 295 291.2 288.1 292.4 293.7 294.4 295.3 295.9 298.4 293 289.8 281.7 294.7 296.7 296.5 295.8 294.1 292.1 288.5 280.3 273.1 268.5 264.6 258.7 249.7 244.5 242 238.6 235.3 236.3 238.9 232.1 238.4 237.5 232.6 228.6 222.5 217.9 213.5 203 200.4 193.1 181.7 173 170.2 162.9 162.4 163.3 160.6 159.6 161.8 173.4 180.2 187.5 189.2 182.2 168 157.6 151.9 144.3 142.4 147.7 161.7 177.6 184.7 189.6 191.7 193.8 195.6 197.5 197.8 196.8 196.5 195.3 192.4 187.6 184 178.1 168.5 160.5 149.6 142 114.6 121.3 121.4 118.6 108.9 101.5 97.1 86.6 83.3 87.5 89.5 98.3 110.8 121.4 132.3 152.2 166.6 174.1 175.2 178.9 179.6 176.8 173 174.8 173.3 166.2 157.2 162.3 162.6 164.8 164 168.2 170.2 175.6 181.3 182.5 180.6 176.6 176.5 176.9 186.1 188.9 189.7 191 193.7 194.2 193 190.1 184.2 179.1 174.2 170.8 168.5 165.2 163.7 163.1 162 159.5 156.8 152.7 151.1 155.2 155.7 160.7 160.5 161.3 162.8 165.4 172 174.3 183.6 186.3 200.1 205.2 210.4 210 212.2 207.8 208.6 211.8 207.2 227.2 234.8 220.5 204.2 188.9 195.6 204.9 220 234.8 257.2 279.3 299.9 319.4
310.3 305.3 308 308.2 308.9 312.7 306.8 312.8 314.7 316.3 321.1 326.5 326.2 326.6 322.9 319.5 317 315.2 313.1 310.4 308.7 306.7 304 300.2 298.8 294.1 294 295.5 296.9 298.4 299.5 301 301.4 300.8 299.9 301.2 304.7 307.6 308.1 307 308.2 304.6 301.7 293.1 285.7 280 272.3 267 260 255.5 252 249.7 249.4 251.6 251.5 252.5 251.4 250.6 245.8 240 237.2 231 225.9 218.6 212.7 200.9 194.6 190.3 185.9 181.7 178.4 175.7 170.2 169.1 162.6 157.5 162 172.3 180.9 182.5 172.5 163 154.8 145 143.2 143.7 156.4 170.5 178.7 185.5 188.2 190.8 194.3 193.8 193.7 194.6 194.6 193.8 190.4 186.2 180.4 171.2 163.5 158.4 155.4 150.3 138.7 143 141.3 140 131.1 119.6 106.3 95.9 89.3 75.3 86.5 89 93.9 108 121.1 139.8 156.9 163.5 171 179 177.8 172.9 171.6 176.6 173.2 164.3 157.3 161.6 160.1 162.5 164.3 168.4 170.4 173.8 179.7 180.9 178.2 175.9 173.7 176.7 183.7 191.1 192 192.2 192.9 193.1 191.9 188.4 182.8 175 172.1 169.6 167.3 164.5 163.1 162.2 159.7 156.1 156.2 151.1 153.4 154.8 155.3 156.3 157.9 159.1 160.6 164.2 167.3 173.2 179.6 187.7 198.5 201.8 205.8 205.4 206.6 209.2 209.1 202 209.6 211.2 222.4 208.6 196.4 188.7 197.9 209.6 223 241 262.3 284 301.9 321
314.2 310.3 305.6 304.9 306.2 306.4 305.6 310 309.7 315.1 321.3 325 325.7 325.7 323.9 319.3 317.1 314.2 311.3 310.5 309.8 307.3 304.6 302.7 299.8 297.1 297.7 299.8 301.6 303.4 304.7 304.5 304.7 305.6 306.3 311 314.9 317.9 317.5 316.8 315 312.8 309.6 304.3 298.8 292 283.8 279.4 274.7 269.4 266 264 266.3 264.5 264.2 262 260 257.7 255.1 251.3 247.6 245.7 236.4 230.8 218.7 216.5 210.7 203 200.9 196.6 193.3 185.2 184.2 179.2 170.7 164.3 157.1 155.5 168.8 174.4 173.7 166.9 156 145.7 144 145.6 153.8 168 175.2 182.1 185.8 189.3 192.8 193 192.8 192.6 192.7 192.1 188.4 182.8 173.2 165.5 158 160.9 158.7 152.2 154.8 154.9 150.8 147.7 138.8 131.4 119.8 107 97.5 89 75.3 83.1 87.7 93.8 112.9 124.5 147.3 157.2 168.1 179.5 176.6 171.7 171.6 176.1 171.5 162.9 157.1 158.3 161.2 161.5 162.6 168.2 170.1 174 178.1 178.1 175.4 174 171.9 172.7 181.6 191 193.2 191.3 192.2 191.3 189 184.3 179.4 175.3 170.9 168.1 165.6 163.6 161.3 161.3 157.5 153.9 152.5 147.6 154.1 155.8 154.9 155.8 156.6 157.8 159 160.9 167 171.8 178.1 185.1 196.2 200.5 201.9 202.7 204.6 202.8 204.9 209.1 201.5 198.4 207.3 200.1 185.6 192.5 201.3 212.4 225.6 245.3 265.4 283.7 301.6 321.6
325.3 320.5 313 307.4 303.6 306 305.4 302.2 307.9 316.5 322.9 325 323.4 323.6 322.2 319.9 316.9 313.7 311.4 310.8 309.7 307.5 306.1 304.5 302.3 298.9 301.1 304.3 307.1 309.3 309.7 308.9 309.1 309.7 314.1 320.1 324.6 326.6 327.3 323.5 319.7 316.6 315.4 312.7 307.7 302.9 296.4 290.4 288.1 285.1 281.7 278 273.3 273.4 273.7 272.8 267.7 263.6 260.5 261.1 259.5 255 247.9 238.7 231.2 231.5 224.8 220.8 219.4 213.4 206.2 196.1 196.8 190.9 183 170.9 166.1 157 154.6 165 169.5 168.7 157.9 147.4 145.6 147 153.3 164.6 173.8 179.7 185.2 188.2 191.3 192.5 192.4 192 191.6 190.1 185.6 175.7 174.6 174.8 178.6 180.1 176.6 175.4 175.2 168.6 155.9 148.4 143.4 140.8 133.2 123.4 112.5 96.1 84.8 75.3 83.9 88.4 101.1 120 131.9 148.8 164 170.9 170.5 175.9 171.7 172.8 169.3 162.2 153.6 157.7 159.1 160.4 162.3 166 170.3 174 175.9 175 172.6 171.5 170.5 170.8 178.7 189.7 193 192.6 191.6 189.1 185.8 183.3 180.1 175 170.9 166.9 164.2 162.1 159.9 159.7 157.5 151.9 147.2 148.6 154.8 155 154.3 155 155.5 156.6 157.9 158.9 164.7 170.6 174 181.8 192.7 197.5 199 199.7 201.8 201.2 198.4 200.8 196.5 200.4 192 192.9 181.9 194.1 203.5 213.6 231.1 247.7 265.2 281.2 302.7 321.5
332.3 320.8 314.7 309.5 307.9 302.4 299.2 301.5 304.8 311.9 318.4 320.5 322.5 321.8 320.5 319.3 317.8 314.8 312.2 311.5 310 309.5 308.6 305.8 303.3 301.1 305.5 308.3 310.6 312.4 313 313.7 313.5 316.6 321.4 326.8 330.3 332.3 333.6 330.4 323 319 317.7 315.5 313.8 311.2 304.9 299.3 295.4 292.4 287.9 284 281.6 279.3 282 281.6 274.3 270.2 268.6 266.7 265.6 262 256.4 246.7 243.5 243.1 241.2 237.4 235.2 231.3 224.1 216 208.2 202.7 194 183.4 171.7 165.7 158.7 153.4 158.7 165.6 159.5 147.8 146.3 147.7 156.9 167.5 171.8 177.9 184.2 187.2 190.2 191.7 191.5 190.9 189.9 187.3 181.8 180.5 189.3 192.8 194.3 192.1 189.7 186.1 185 174.1 158.7 151.5 153 145.9 135.1 135.2 128.3 111.2 92.8 75.3 81.4 83.7 90.2 105 123 140 156 161.8 168.3 174.2 171.3 169.1 166.6 161.8 153.3 155.5 159.2 159.1 160.8 163.8 167.4 171.7 173.1 172.2 170.4 169.5 168.9 170.4 176.4 185.5 191.6 192 190 187.3 185 182.8 179.2 176 171.5 166.7 163.1 160.9 158.6 158.5 157.3 148.8 146.7 152.9 155.4 154.2 153.9 154.1 154.6 155.2 155.9 158.8 162.8 166.8 170.6 177.2 187.3 191.5 195.2 197.1 197.4 197.1 194.9 193 189.9 193.8 190 186.5 181.7 194 204.2 214.1 231.7 246.9 263.3 282.1 301.2 320.1
340.5 330.7 320 314.9 309 306.9 303.8 297 299.3 305.3 310.2 317.9 317.6 319.2 319.6 317.5 316.8 315.3 313.9 312.3 311.1 310.1 308.3 307 306.3 305.8 308.4 311.6 313.6 315.7 319.2 319 319.8 322.6 327.9 332.3 335.1 336.8 336.4 333 327.3 322.4 319.9 317.6 317 313.5 310.5 305.2 298.5 295 290.2 287.3 285.8 283.9 284.3 285.5 279.9 275.6 274.3 271.5 269.2 265.6 260.6 257.6 252.8 251.8 251.9 251.5 249.8 247 239.5 231.4 221.4 212 205 193.2 182.2 171.8 164.9 155.8 151.2 153.2 159.7 147.8 147.8 150 160.5 166.9 172.8 177.1 182.5 186.1 188.2 188.9 189.9 189.8 189.1 187.8 189.3 194.5 200.8 205 205.4 202.9 203 193.7 192 174.5 158.4 159.3 162.6 150.5 147.9 151.2 138 120.8 100.5 83.4 75.3 81.2 85.7 95 112.2 128 144.9 155.5 167.4 170.8 171.6 166.6 166.6 159.9 154 154.2 158 158.8 160.4 162.7 166.3 171 169 168.3 167.6 167.2 167.7 169.3 175.8 184 190.1 191.9 189.7 186.8 184.3 181.4 177.7 173.9 170.5 166.2 162.3 159.9 157.4 157.1 155.6 147.4 141.2 151.4 156.2 153.5 153.3 153 152.9 153.4 154 157.1 160.5 164 168.4 174.3 182.2 187.1 191.5 194.5 194 192.8 189.5 189.5 185.1 188 179.6 176.5 189.6 193.9 203.4 216.6 231.4 244.7 260.8 277.4 297.8 316.7
351.7 341.1 327.9 317.6 309.8 308 304.5 302.6 296.3 299 302.5 310.8 315.4 315.9 316.5 317.2 316 314.7 313.8 312.9 312.5 310.7 309.7 309.7 309.7 308.8 311.1 313.7 315.8 319.6 323.7 325.9 327.5 329.4 332.7 335.9 337.7 338.9 336.9 333.6 327.6 324.3 321.6 319.3 316.6 315.8 313.3 311.2 303.4 297.1 291.6 289 287.9 283.2 282.4 282.3 280.2 278.1 276.4 274.1 271.4 270.4 268.7 266.5 262.6 259.3 258.6 259.5 262.2 260.7 256.4 247.4 235.8 219.1 208.5 200.2 191.1 182.5 171.6 163.7 160.5 152.9 148.8 148.1 148.7 155.4 164.1 168.4 173.9 177.8 181.6 185.2 186.5 188.3 196.4 200.3 196.9 198.7 201.8 205.5 209.1 212.7 210.6 210.8 208.1 197.9 193.1 178.3 168.8 172.4 172 161.2 161.8 153.6 139.3 124.2 108.7 93.2 75.8 73.9 83.4 89 105.1 123.9 133.9 149.3 162.2 169.4 173.2 166.9 167.8 162.2 153.7 151.3 156.5 158.6 160.4 162.5 165.5 168.8 166.7 166.6 166.3 167 166.1 168.6 174.2 180.9 189.3 191.5 190.3 186.6 183.6 180.8 177.9 173.6 169.5 166.1 162.3 158.9 156.4 154.4 153.1 145.7 145 152.1 156.5 153.7 152.8 152.6 151.8 152.1 152.8 154.7 158.1 162.3 166.2 172.3 178.9 186.1 189.6 192.3 190.2 187.7 184.6 181 176 173.3 181.7 187 188.3 194.7 204.1 218.1 229.2 241.6 259.5 273 294.2 312.6
358.5 347.4 332.7 321.9 314.3 308.8 306.4 298.8 298.2 293.5 298.7 303.4 307.2 317 315.9 315.3 315.6 314.6 313.4 313.4 313.1 311.3 311.9 312.1 312.3 312.2 313.7 316.4 319.8 323.7 328.2 332.1 335.2 336 336.6 338.4 340.4 340.4 336.7 333.3 326 322.8 320.3 317.3 315.2 314.1 312.1 310.4 307.9 299.7 293 288.5 285.9 283.2 280.3 279 278.2 276.8 275.7 274 274.3 274 273.9 272.6 270.1 266.5 263.5 263.7 268.2 270.7 268.1 258.2 243.9 230.3 210.6 206.1 196 187.7 175.7 164.6 162.2 160.5 157.3 153 151.6 159.5 166.3 169.6 175.6 178.8 182.2 184.6 187.8 197.5 203.4 203 201.6 204.8 210 214.1 217.1 215.8 216 211 206.1 200 195 185.2 180.2 182 177.3 166.5 160.4 149.4 139.6 130.5 118.5 103.3 84.4 75.9 79.5 87.3 100.3 113.7 129.5 143.3 157.1 166.9 171.8 167.1 169.5 163.1 155.8 151.4 154.2 156 157.4 160.1 163.3 164.6 164.3 165.8 165.8 165.8 166.1 168.9 172.8 178.3 186.8 191 190.2 186.5 183.3 180.3 177.3 173.9 169.8 166.6 162.9 158.5 155.5 153.8 152.7 144.8 145.4 151.4 155.4 152.3 152.9 153 151.7 151.2 151.6 152.5 156.3 160.8 165.2 170.8 177.5 183.1 186.9 188.3 185.1 182.2 180.5 173 169.4 184.9 188.1 189.4 190.6 193.9 204.2 216 227.2 240 254.9 269.8 288.6 305.7
360.6 350 338.5 329.5 319.4 308.7 303.6 301.7 298.4 297.1 291.1 299 302.3 307.6 312.1 314 313.9 313.4 312.6 313.5 313.2 313.2 314 314.4 314.9 316 317.3 320.1 324.3 329.8 334.6 339.2 341.1 342.1 342.4 341.5 342.8 341.7 337.6 334 331.3 326.6 321.6 317.4 313.9 311.5 307 305.2 303.2 299.4 292.7 286 281.8 280.1 277.4 273.6 271.7 272 271.9 272.3 274.5 274.2 274.3 275.2 274.7 271 266.8 263.7 267.2 272.7 269.4 258.8 246.4 230.6 217.2 207.7 196.1 185.5 172.4 166.1 162.3 160.6 158 158.1 155.3 161.3 168.6 174.6 177.9 180.8 183.8 188.1 193.3 202.1 204.8 205 205.2 209.4 215 219.6 223.6 221.3 222.5 211.5 206.3 201.2 196.3 191.6 186.8 184.2 174.6 163.1 157.3 149.2 142.8 137.1 128.2 110.2 86.6 81 73.6 85 92.8 109.5 125.6 138.4 151.7 162.3 164.3 165 167.5 164 158.1 154.8 150.9 153.7 153.6 156.1 159.7 161 163.3 164.8 165.2 165.4 165.1 166.5 170.6 176.8 183.6 190.3 189.1 186.3 183.1 180 177 174.6 170.7 166.3 163.1 158.4 154.9 152 151.2 145.2 144.7 150.5 154.4 153.4 152.6 152.6 152 150.7 152.9 151.6 154 158.4 162.6 168 175.5 180.6 184.6 183.8 183.1 177.7 174.4 168 176.3 186 186.5 187.5 189.7 194.2 202.7 213.5 225.5 236.4 248.9 261.7 279.6 298.9
362.5 352.2 343.4 329.7 323.5 310.8 305.1 304.7 299.5 297.5 293.5 292.9 299.3 302 306.9 310.2 310.9 311.4 311.6 312.1 312.2 313.5 315 315.7 316.9 318.3 319.4 323.3 329.6 335.6 340.5 345.5 346.6 346.5 345.9 344.8 342.7 341.2 338.2 334.7 331.9 327.6 322.7 316.9 312.4 307.7 301.6 299.1 296.6 291.6 288.5 282.1 276.9 272.3 269.3 265.9 263.5 264.5 265.7 267.5 268.5 270 270.4 271.6 273.2 272.1 268.4 266 262.6 265.8 265.9 258.8 243.1 228.4 216.7 206.1 195.9 179.2 172.1 168.3 163.2 160.1 156.8 157.1 158.4 162.6 171.6 174.5 178.9 183.3 187.6 192.4 198 203.7 207.9 208.5 211.2 214.7 221.2 227 226.8 223.8 224.1 214.5 206.1 199 193.8 189.6 188.1 184.4 171.5 161.7 157.3 152.5 147 141.1 134.4 119.3 97.4 82.9 73.2 80.4 90.4 104 121.1 131.9 146.7 158 163.1 164.9 168.3 166.1 159.7 161.3 154.7 148.8 150.3 151.4 154.8 161 163.4 163.9 164.2 164.4 163.9 165.4 171.5 176.3 180.1 187.1 189.6 186.9 184.2 181.6 177.6 175.4 171.8 166.4 162 158.8 154.4 151.5 148.9 142.6 143.7 149.3 152 153.6 152.7 151.2 149.8 150.3 151.2 151.6 152.3 156.3 160.1 163.1 173.3 177.2 179.6 179.3 178.6 174.3 169.3 170.7 173.6 181.4 184.8 185.8 190.3 194.8 203.7 214 222.8 233.2 243.7 256.9 276.5 295.5
365.4 355.4 344.1 334.9 326.6 318.4 311.4 304.3 299.5 297.3 293.7 289.2 296.8 298.7 301.3 305.1 307.1 308.5 310.1 310.8 311.2 313.8 314.6 316.8 318.7 319.8 322.2 325.8 332.2 338.4 344.7 349.3 350.5 349.4 346.8 344.4 342 339.9 337.3 334.5 330.2 327.5 321.7 315.1 309.7 301.2 294.5 291.9 290.3 285.6 281.1 276.1 271.2 264 259.5 255.5 253.6 255 257.9 259.4 260.9 262.4 264.3 266 268.2 268.5 267.6 267.4 263.5 257.3 258.3 254.8 242.8 227.8 217.3 206.3 189 179.5 171.5 166.8 163.3 158.2 156.4 156.3 158.5 161.4 169.8 175.2 182.4 185.8 190.4 195.2 200.5 205.8 208.7 210.8 216 219 225.6 229.8 227.9 223.5 218.6 214.3 205.8 198 192.8 189.2 188.1 183.8 172.3 165 161 157 152 143.1 135.9 122.5 103.6 86.1 82.1 72.9 86.5 103.9 114.4 128 144.6 157.6 160.8 163.4 167.9 170.6 161.9 164.6 155.8 151.3 147.6 149.3 155.9 160.7 163 163.5 163.5 163.3 161.8 165.3 171.5 174.5 179 183.5 187.6 187.1 184.8 182.3 179 174.8 171.7 166.3 161.4 158.6 154.6 150.1 147.6 141.2 140.3 148.5 149.7 153.1 153.3 151.8 150 150.6 150.7 150 151.8 155.2 157.9 162.1 169.4 173.9 174.7 174.1 172.4 169.3 163.7 170.5 172.4 177.2 180.8 185.1 189.1 194 204.5 211.8 220.9 228 238.7 255 274.5 292.2
367.1 358.7 346.7 336 328 320.1 315.1 310.1 301.3 299 294.5 291.9 288.9 294.6 297.3 300.2 303.4 305.6 307.8 309.3 310.9 313.8 315.2 317.6 319.7 321.8 323.9 327.9 333.6 341.9 349.7 353 353 351.1 347.6 344.5 341.9 338.3 335.1 331.2 328 325.5 318.9 312.5 306.2 294.5 289.6 288 284.4 279.4 275.5 271.6 266.9 261.1 253.6 252 251.3 243.7 250.6 251.5 254 254.1 255.9 257.8 259 261.3 262.1 263.2 262.9 257.2 246.7 246.5 239.2 225.2 213.9 197.2 187 178.2 171 163.4 160.5 157.9 156.8 157.2 160.2 162.5 172 178.9 183.3 187.2 191.5 196.3 202 205.3 210.4 214.3 218.1 223.1 227.8 229.8 230.2 224.1 219.4 213.6 206.7 197.8 194.2 194.7 187.8 184.2 177 170 165.4 161.9 156.9 147.3 141 127.8 107.1 90.8 85.9 82.2 80 98.5 110.6 127.1 143.9 154.1 158.9 165.7 168.8 167.2 163.2 159.4 157.6 153.5 148.1 147.2 152.8 159.1 162.5 163 163.3 162.4 162.9 164.3 171.1 174.9 177.7 182.7 184.8 185.9 184.1 181.9 179.5 174.2 169.7 166.6 162.4 158.5 154.3 149.2 145.4 136.8 139 145.9 148.1 152.4 154.2 153.1 152.7 150.4 150.2 149.4 150.9 152.4 154.9 158.5 166.3 171.1 170.6 169.4 167.4 161.5 168.6 170.1 172.2 174.7 179.8 185.1 190.1 195.4 203.7 211.2 219.1 227 236.7 252.7 270.8 288.2
365.9 358 349 341.2 329.5 322.2 314.5 312.5 309 299.4 296.1 295.4 285.5 290.3 294.2 296.1 299.1 302.7 305.2 307.8 309.5 313.7 316.2 317.6 319.5 322.4 325.6 330.2 337 346.2 354.2 356.6 355.4 351.9 348.1 344.5 340.3 337 333.6 331.4 326.8 322.2 315.5 307.5 301.2 293.4 287.6 283 275.2 272.7 272.1 266.6 263.5 259.7 261.6 262.4 260.2 254.1 246.9 234.3 246.1 246 246.9 247.9 249.7 252.8 254.8 256 257.1 254.8 247.2 240.1 233.7 220.2 205.6 193.4 186.8 177.3 169.7 164.9 161.7 161.1 158.6 159.4 161.9 164.7 173.2 180.2 183.6 188.3 192.8 197.5 201 206.5 212.9 216.8 220.3 225.1 229.1 228.8 229.4 223.9 218.6 213 206.4 199 197.5 197.4 189.7 181.6 177.6 174.4 169.3 164.4 156 152 145.9 131.4 109.8 90.7 92 71.7 85 97.4 109.8 125.3 140.9 148.4 154.1 161 163.7 160.9 160.6 161.6 157.6 154.9 149.5 145.6 151 156.7 160.8 162.6 163.2 160.4 161.4 163.9 169.7 174.5 176.4 180.6 183.7 184 183.1 181.2 179.5 174.9 171.8 167.5 163.6 159.1 155 149.5 144.3 138.4 142.2 145.6 147 152.2 154.4 154.5 153.8 152.5 149.5 149.2 149.9 151 152.6 154.3 161.4 167.7 166.4 166 158.8 166.9 167.8 169.2 171.3 174 179 183.3 188.1 194.4 201.4 210.3 217.4 224.3 235.5 250 265.6 284.3
366.8 359.6 350.1 344.2 336.6 329.6 322.3 313.1 307.4 300.4 300.5 297.1 292.3 291.3 288.4 294 295.6 298.1 302.5 305.9 307.2 311.8 315.5 316.2 320 323.8 328.3 333.1 340.7 351.4 357.7 357 356 353.9 350.2 343.4 339.6 335.3 331.7 328.4 323.7 318.4 312.5 307.9 301.5 295.2 287.3 285.5 284.9 280.8 278.8 275 273.4 268.5 268.8 267.6 264.6 258.3 251.9 241.9 236 240.3 239 237.8 240 241.5 243.8 246.2 247.5 247.5 243.3 237.4 227.1 219.3 208.8 194.7 185.9 177.2 170.9 167.8 165.3 163.6 159.5 159.4 162.3 166.7 173.1 179.7 185 189.3 193.6 197.9 201.8 207.9 215.3 221 224.3 226.7 230.3 229.9 227 222.9 217.8 212.2 206 203.8 197.6 192.1 185.9 182.4 177.8 172.9 168.8 164.8 159.3 154.6 143.2 129.6 110.5 92.7 82 79.2 88.1 96 106.9 120.1 137.8 142.7 147.9 158.7 161.4 162.4 164 164.3 159.4 155.5 149.6 145.9 146.4 153.2 157.9 160.1 159.5 157.9 160.2 164.6 170.8 174.2 175.9 180.3 183.2 182.3 182.6 181.4 179.9 175.3 171.3 167.2 164.1 160.5 155.4 151 144.7 139.7 142.1 144.1 145.6 150.9 152.6 152.1 153.4 155 152.5 149.2 149.6 150.7 152 152.8 154.7 162.5 156.9 159.5 165.3 166.2 167 168.6 171.2 173.5 177.5 181.5 186.1 191.6 198.7 209.1 216.4 221.9 230.5 244.4 262.3 280
368.7 358.2 352 344.7 337.1 333.1 325.3 317.5 309.8 302.6 298.1 294 291.4 285.2 282.9 289.8 293.8 294.9 298.4 302.9 305.7 309.7 312.3 312.7 320.8 327.6 332.8 337.1 342.8 350.4 356.1 357.1 356.5 355.6 354.6 348.2 341.4 335.7 330.9 326.8 321.2 315.2 311 305.5 304.2 298.2 294.4 290.4 289.8 287.2 285.9 285.5 284.1 282.1 280.4 278.6 274.8 267.6 256.8 247.3 238.1 226.7 232.5 229.9 228.4 229.4 232 235.7 236.8 238.5 239.1 234.7 226.5 216.3 207.2 194.5 184.9 178 172.5 168.6 166.8 165.8 161.8 159.1 163.7 170.3 176.1 181.9 187.3 191.1 195.1 198.9 203.5 209.7 217.3 221.6 225.2 227.8 230.5 228.9 225.7 220.2 216.1 210.4 205.5 202.3 195.5 191.6 187 182.8 178.1 172.5 167.8 161.9 160 150.7 137.3 125.8 110.7 92.1 71.7 85.1 91.6 98.4 103.4 121.6 127.5 140 146.5 157.8 163 168.6 166.3 164.5 159.6 154.7 150.7 145.5 145.6 146.3 153.6 158.5 160.8 161.2 166.6 168.3 171.1 174.1 175.3 179.8 181.9 181.8 182.1 181.1 180.6 175.5 168.5 167.9 164.7 161.7 156.4 152.6 145.3 139.4 140.5 143.1 147 149.9 150.5 151.9 152.9 154.8 154.2 150.3 148.7 150.7 147.8 148.5 151.1 159.3 164.1 165.5 164.5 165 166 167.8 170.5 174.1 176.2 179.6 183.2 188.9 196.4 206.2 214.8 219.5 225.8 233.2 254.6 271.4
371.3 360 349.1 344.6 338.3 333 326.5 321.4 313 309.2 303 296 287 284.2 282 283.7 291.3 292.5 295.2 298 303.3 306.4 308.2 314.1 321.9 330.1 336.6 339.4 342.5 347.9 351.7 354.8 355.3 355 353.3 351 344.1 338.4 333.2 328.1 322.7 317.8 313.7 310.1 306.8 302.2 300.3 298.4 298 295.5 294.6 293 293.7 291.2 288.7 286.4 282.1 280.1 266.4 254.2 244.7 233.8 222 217.1 220.2 220.1 221 224.9 227.6 229.5 231 229.2 222.7 213.7 206.8 199.7 189.7 179.5 173.5 170.4 169.2 167.6 164.3 158.9 163.9 171.2 177.7 182.8 187.6 192.1 195.7 199.7 205.2 211.9 217.9 221.9 225.6 227.4 228.7 226.5 224.6 218.9 212.7 208.3 203.1 200.4 194.5 191 187.1 181.9 176.9 172.4 167.2 163.9 153.5 147.5 137.1 131.2 110.7 94.5 75.4 87.6 89.6 93.6 99.7 120.7 131 133.1 140.3 152.1 158.8 163.7 161.1 158 155.1 152.9 151.3 145.8 142.9 152.5 158.1 162.8 163.4 167.6 173.3 172.8 173 171.8 174.1 178.8 180.5 181.2 181.5 180.3 180.2 173 170.1 168.6 165.3 162 157 153.8 149.5 140.4 138.2 141.3 145.3 148.2 149.9 151.7 152.4 154.5 155.2 155.3 149.8 145.3 146.2 150.9 153.2 158.2 164.6 166.9 164.7 164.4 165.2 166.4 169.2 172.8 174.7 176.6 182.3 187.6 194 203.1 210.1 216 221.2 225 240.9 262.3
378.7 366 355.1 346.6 339.5 331.6 324.4 320.8 314.4 309.4 303.9 296.5 292.4 289.5 281.8 282.3 288.8 289.8 291.9 294.7 299.8 303.3 305.4 314.7 323.5 330.7 339.1 340.8 343.6 346.3 348.8 350.6 352.3 353.1 351.6 349.3 345.8 341.8 337.8 330.9 324.7 320.1 316.1 312.8 310 308.1 306.3 304.7 304.2 302.1 300.7 300.6 301.6 298.3 293.4 292 288.5 287 277.5 265.5 255.9 243.1 230.8 222 216.7 205.6 212 213.7 214.8 218.9 222.6 222.1 218.4 212.9 204.8 197.9 190.5 182.1 175.2 171.1 170.7 169.3 165 157.9 164.3 172.4 178 183 187.8 192.7 196.4 200.6 205.1 210.3 216.9 222.3 224.9 227.5 227.4 224.8 222.1 216.4 212.3 209.8 204.5 199.8 194.5 189.8 186.1 181.7 176.5 172.6 169 166.2 161 149.5 142.8 135 115.7 92.8 75.8 87.4 90.9 92.7 92.6 101.8 115.1 132.5 136.1 144.6 147.5 151.8 155.1 156.4 155.5 151 149 146.6 141.3 147.1 157.6 164.3 165.4 172.7 178.2 177.4 176.1 174 173.5 176.3 180.4 180.2 180.1 180.1 178.7 172.8 170.5 168.7 166.5 162.8 158.1 155 150.6 142.6 134.1 138.2 143.6 145.6 148.3 149.7 151.5 153.6 155.4 156.3 156.6 143.3 147.8 150.3 152.3 157.5 162.8 167.9 165.6 163.8 163.8 164.9 167.8 171.1 172 176.3 181.7 186.4 192.4 200.2 204.9 209.4 214.3 217.4 226.4 240.4
380.4 371.7 360.9 353.5 343.4 335 327.4 322.2 315.5 309.7 305.1 301.8 296 293.6 289.5 278.8 287.1 288.8 290.2 292.5 294.4 301.6 306.5 317 324.4 330 337.3 341.7 344.6 347.4 348.4 350.4 350.9 351.6 349.6 347.6 345.6 344 341.1 335.5 328.7 322.5 318.2 315.3 311.8 310.4 309.1 307.1 307.2 306.1 306.4 307.2 305.1 301.9 294.7 292 293.4 292.7 286.9 279.1 265.7 253.7 242.6 228.2 224.7 217.6 200.8 204.8 207 209.6 212.9 213.8 213 209.3 201.4 195 189.6 182.7 176.6 172.1 170.1 167.9 163.7 159.6 162.9 170.8 175.9 183.4 187.5 192.9 197.4 202 206.5 211.6 218 222.7 225.7 227.2 227 224.7 220.8 215.9 213.1 209 203.5 198.8 195.2 190.5 185.9 181.3 177.3 173 168.3 169 162.4 154.6 148.8 135.6 119.9 94.3 74.6 85.1 90.1 97.6 100.7 101.3 103 117.1 129.2 136 141.8 143.6 147.8 151.9 151.6 149.2 147.4 144.2 137.8 146.3 153.9 162.3 168.1 177.1 180.9 178.9 177 174.3 173.2 174.3 178.7 178.9 179.5 178.9 177.8 173.3 170.5 168.6 166.6 165.4 161 155.8 148 145.9 138.3 137.1 142.3 144.7 147.8 149.1 150.5 152.4 153.8 154.5 155.7 142.4 146.4 149 153 156.1 160.6 166.3 166.4 162.9 163 163.4 165.9 167.9 170.5 176.6 181.8 187 191 195.5 198.9 202.5 208.8 209.5 212.1 215.1
383.4 373.2 363.7 354.4 345.4 335 327.5 320.8 316.2 310.4 306.2 302.7 299.9 295.6 292.4 276.6 287.5 287.5 286 291.3 297.8 305.6 311 317.9 323.8 332.5 338.3 342.2 345.1 347.2 349.1 349.8 349.9 349.3 350 350.1 346.6 344.6 341 336.7 331.5 325.2 319.8 315.8 312.3 310.3 307.9 305.8 307.3 307.7 306.4 306.4 307.7 302 293.8 289.7 296.9 296.2 291.9 284 273 261.8 254.9 244 235.5 222 211.9 201.3 194 199.4 204.3 206.9 206.7 203.9 199.2 193 187.4 181.5 174.7 172 169.2 165.5 162.9 158.5 161.5 169.7 176.7 183.9 188.8 194.2 199.4 204.1 208 212.5 219.5 223.2 226.2 227.4 226.5 223.4 217.9 214 211.7 208.7 203 198.7 194.3 189.9 185.2 180.3 175.9 172 166.4 165.7 159.1 158.5 151.8 135.8 123.7 101.4 71.2 84.6 89.5 98.7 105.3 109.3 113.2 119.1 117.6 128.4 129 136.9 137.2 145.6 149.1 148.3 145.6 142 137.7 146.3 154 162.3 169.2 179.6 185 181.9 177.9 174.9 173.4 173.1 176.7 177.9 178.2 178.3 177 173.8 170.8 167.9 168.8 167.1 160 158.5 152.3 147.2 140.2 135.6 140.1 144.1 147.2 148.5 149.7 150.3 151.3 153.1 152.3 143.9 144.8 148 151.9 156.4 161.8 164.3 166.8 163 161.4 161.1 163.4 165.8 169.3 175.7 178.8 183.2 187.7 190.6 193.9 196 200.2 201 201.2 200.7
381.2 374.7 364.1 353.9 345.3 334.6 327 319.6 314.3 309.1 304.7 299.9 298.5 295.5 292.4 281.6 278.6 286.2 283.4 290.9 301 308.5 316.5 321.1 324.4 334.5 340.6 343.7 346.5 347.9 349.1 349.1 348.2 347.3 349.7 352.2 346.2 342.7 339.3 335.1 330 325 319.8 315.3 311.5 308.3 305.5 303.4 303.7 305.6 302.9 299.9 299.4 299.2 292.4 285.3 293.7 295.7 293.3 285.7 276.1 267.7 262.7 256.9 246.4 235 215.9 210 202.6 187.4 194.5 198.4 201 199.4 195.7 189.9 183.7 179.1 171.8 170.4 169 164.1 157.7 158.9 163.1 168.7 174.6 183.1 189.5 194.7 202.3 205.5 208.6 213.6 219.5 222.3 225.3 226.1 225.8 224 217.5 213 210.1 206.4 202 197.5 193 188.5 183.7 178.9 174.1 169.3 162.8 157.8 156.6 158.2 150.3 138.5 125.9 103 75.1 81.4 88.6 98.9 109.3 117.9 125.1 132 134.8 130.1 124.8 129 126.5 131.9 141.9 142.8 141.5 140 138.9 147.6 156.6 163 170.6 180.3 186 185.1 180.6 175.6 173.5 172.9 177.4 177.3 177.3 177.2 177.8 176.8 170.1 167.3 168.6 166.1 165.6 161.6 154.1 148.3 142.4 132 138 143.8 146 147.7 150.2 148.9 149.1 150.4 152.2 142.7 142.8 147.9 150.8 156.1 160.2 165.6 166.9 163.2 161.7 161.4 162 164.3 169.5 173.7 175.5 179.4 183.1 186.8 187.3 187.4 188.1 186.6 185 184.8
377.4 372.7 365.1 354.9 343.2 334.3 325.5 319.1 313.1 308.4 303 298.4 294.7 294.6 291.1 281.9 273.3 281.7 281.5 287.6 298.2 310.2 319.9 326 330.8 337.4 344.1 349.4 353.6 350.8 349.3 349.4 347.6 345.9 345.9 347.1 344.4 338.9 336.1 331.2 327 322.2 315.8 311.8 307.5 304 301.7 299 297.1 295.9 295.8 294.2 292.7 290.9 289.2 281.9 285.6 289.3 289.9 284.2 276.6 270.4 265.2 260.4 254.4 243.7 226.9 219.5 207.3 194.9 185.3 191.2 193.3 193.5 190.7 185.5 178.5 172.1 167.9 165.9 166.1 159.6 157.1 165.3 169.9 171.2 175.7 183.4 188.9 196.2 203.6 207.3 212.5 216.2 220.1 221.4 223.8 224.8 224.2 222.1 215.9 211.2 207.9 204.2 199.8 195.4 190.9 186.4 181.1 177.4 173.5 168.9 160.8 165.3 160.5 154 145.9 136.8 126.7 108.1 79.8 71.2 88 99.3 112.1 124.6 134.2 139.1 142.4 148.3 145.7 146.3 148 129.8 132.2 132.6 132.7 135.5 142.8 148.5 158.3 164.6 172.5 181.4 188.1 188 182.9 176.4 173.2 172.6 175.9 176.7 176 176.9 177.1 175.8 170.3 167.4 167.2 168.1 166.5 162.9 156.1 149.2 143.7 135.8 135.6 142.3 145.2 147.2 151.2 149.5 147.4 151 150.4 139.1 145.1 148 150.8 155 159.7 162.8 166.2 164.3 162.5 162 161.3 164 167 169.7 171.6 174.4 178.9 180.8 180.9 180.4 177.3 176.1 179.4 194.5
372.6 368 361.1 352.3 341.6 332.5 322.8 316.8 309.6 304.1 300.6 296.5 293 290.5 288.8 284.8 275.5 273.1 274.7 284.4 294.9 309.3 321.3 331.3 336.2 341.2 350 357.7 360.6 358.9 354.5 349.2 347.3 345 341.2 339.9 337.5 335.9 331.1 326.2 320.8 316.2 312.1 307.1 301.7 298.1 294.3 291.6 288.5 287.9 287.2 286.7 285.4 282.2 280.6 278.8 277.5 282.7 284.8 281.4 275.2 269 264.6 260.8 253.9 246.7 236.2 227.6 212.6 198.5 188.6 181.2 183 187.3 186.4 181.9 176.3 169 163.7 161.3 161.3 158.7 158.8 165.1 171.1 173.8 175.5 181.7 188.6 195.8 203.7 210.2 216.7 218.6 220.5 221.5 222.4 223.8 222.1 219.2 215.4 210.2 206.2 201.9 197.5 193.1 188.6 184.2 179.3 175.6 172.3 166.7 165.4 168.1 162.4 156.7 147.9 142.9 129.7 112.7 89.2 71.3 85.2 98.2 114.9 128.8 138.5 144.3 149.2 154.7 155.6 154.1 152.1 149.3 132.7 141.4 142.8 141.4 144.6 157.4 165.4 169.2 175.6 182.3 187.3 187.9 184.4 177.4 173.7 173.6 174.8 175.3 175.6 176.5 176.4 173.3 172.1 168 166.8 168.8 168.1 164.7 159.2 151.5 145.1 137.8 131.8 137.7 144.2 147 151.5 147.8 147.4 150.1 147.9 136.3 153.4 148.3 151.5 154.3 157.3 160.3 163.2 162.5 161.6 161 160.1 163.1 165.6 167.5 169.2 171.4 171 169.7 172.5 172.4 171.9 183.8 189.1 195.6
368 366.2 357.3 346.9 336 326.2 312.5 308.3 307.3 300 296.8 292.4 288.3 286.4 287.4 284.9 282 279.2 269.4 281.5 289.4 300.2 315.2 332.1 340.6 344.6 354.1 360.8 362.7 364.6 359.4 350.3 347.9 344.6 342 338.2 333.5 331.4 327.3 321.7 314.8 310.4 306.9 303.3 298.9 291.2 286.5 283.8 282 279.4 277.3 275.6 274.7 272.9 271.6 271.8 269.5 271.1 276.7 278 272.6 266.4 262.6 258.9 252.4 248.2 238.6 230.4 214.6 200.1 187.2 178.5 177.8 179.9 180.7 178.8 174.6 167 160.7 157.5 157.3 156.7 159.7 163.1 172.2 174.4 175.5 181.9 189.1 195.2 202.6 211.3 218.4 221.7 220.9 222.2 222.6 222.7 220.6 219 214.5 209.2 205.3 201.2 197.2 193.3 189.3 184.7 179.2 177.2 175 171.9 169.4 166.4 159.7 154.2 150.5 139.4 124.6 112.8 94.9 71.3 83.7 97.9 116.9 133.5 141.1 148.4 153.8 157.4 160.6 159.8 154.8 149.3 147.2 136 144.2 147.6 151.6 161.8 169.6 173.5 177.4 182.9 188.3 188.4 187.9 180.3 174.3 174.4 174.9 175.3 175.3 175.3 174.5 174.4 172.6 167.4 166.9 168.6 170.8 167.2 161.6 155.4 146.1 136.7 132.6 135.6 140.5 147.7 150.3 145.7 146.9 150 143.5 143.9 155.3 150.8 151.7 154.7 157 159.5 157.1 159.3 160.7 159.8 158.8 161.8 164.3 166.4 164.5 162.6 160.7 159.8 164.9 167 169.5 173 181.9 188
362.7 359.6 352.8 339.7 322.3 327.6 328.3 323.1 316.4 311.3 304.9 296.3 291.2 288.9 282.5 279.1 281.5 277.2 270.8 275 281.2 289.8 306.6 324.3 338.9 344.5 351.5 356.3 359.3 362.2 359.2 353 348 344.6 340.9 337.1 332.7 328.3 324.9 322.2 315.8 310 304.6 302.6 300.6 294.6 290.1 280.7 272.9 267.9 271 268.7 267.4 264.7 263.9 263.6 261.2 262.1 262.6 264.7 265.2 260.3 256.7 254.1 250.4 246 238.1 227.2 215 199.2 188.7 181.3 175 174 176.1 174.3 170.9 165.2 158.9 157.3 156.9 156.9 157.2 167.5 174.3 175.6 176.4 180.6 189.7 194.5 203 212.2 218.9 221.7 222.8 222.2 222 222.1 219.9 218.3 214.8 208.9 204.3 200.1 196 192.1 188.1 184.5 179.3 176.7 176.8 173.8 167.7 160.8 155.2 149.9 142.1 135.6 122.7 109.2 90.8 71.1 83.6 97.7 116.7 137.4 144.8 152.8 157.2 160.8 161 159 153.9 152.6 149.6 145.5 132.2 146.9 153.8 164.1 170.3 179.1 180.1 184.5 186.6 187.9 189.3 184.7 177.6 175.6 175.3 175.2 174.2 175.1 175.4 174.9 173.2 169.4 168.4 170.4 171.7 168.6 164.4 158.7 151.4 140.7 129.2 134.5 141.9 146.3 147.6 146.3 147 145.1 136.1 148.3 157.6 151.4 150.8 153.7 155 156.9 155.3 154.2 160.1 159.3 157.9 161 164.1 158.7 157.2 164.1 171.3 174.1 171.2 179.5 184.9 180.1 177.4 178.2
355.5 352.4 343.5 330.8 340.3 343.7 343.1 335.9 328.7 321 312.9 303.7 294.9 290 286.1 282 275.1 276.2 267.7 269.3 275.4 281.2 295.8 314.2 328.4 339.7 342.4 348.3 352.2 357.3 355.6 354 349.9 344.7 340.8 338.1 334.8 331 326.4 324.7 320.5 314.6 308 305.7 303.7 301.3 295.9 287.4 278 271.4 255.9 263.3 261 259.1 256.9 254.4 251.6 251.5 250.9 253 253.4 251.7 247.8 245 243 239.9 233.5 224.3 214.3 203.7 194.6 186.7 176.3 171.3 170.9 170.2 167.6 163.3 159.5 158.4 157.2 156.5 158.8 168.5 174.4 174.8 176.7 181.4 188.6 193.5 204.3 211.2 217.8 220.9 223.1 223.4 221.6 221.1 219.2 217.2 213.9 209.4 203.3 199.1 194.9 190.9 187.6 183.8 179 174.4 173 167.5 161.8 158.4 153 137 125.9 124.9 118.9 104.3 85.8 73.2 83.5 100.9 125.3 141 148.5 155 159.6 160.9 160.8 156.8 153.9 152.8 150.9 146.7 148.1 130.8 155.4 165.8 172.5 182.8 184.3 185.8 187.4 188.5 187.8 185 182.1 176.6 173.8 173.3 172.1 174.7 175 175.7 173.3 171.4 170.5 172.9 172.1 169.5 165.7 160.9 151.4 142.8 129.3 132.3 146.1 146.7 146.3 144.9 146.4 139.8 137.7 147.7 155.7 152.4 151.2 151.5 152.7 153.4 153.8 151.1 158.4 157.1 154.9 157.7 153.7 155.6 164.1 168.4 171.9 175.8 181.6 186.5 192.8 195 195.5 189.3
355.3 345.2 343.9 348.1 355.9 359.6 356.6 350.4 340.5 330.9 321.2 313.3 303.4 295 289.7 285.6 279.1 272.2 268.1 264.9 269.6 272.5 286.8 302.1 314.8 324.8 334.1 339.9 343.6 345.6 347 349.7 347.5 343.1 340.5 336.7 334.4 330.2 327.9 325.8 323.6 318.6 312.8 306.8 305 304.1 300.3 291.9 284 274.2 261.2 249.1 253.5 252.1 250.4 246.1 241.8 241.5 237.5 239.3 239.5 241 239.6 236 235.3 233.9 229.7 223.5 213 208 197.7 186.4 175.1 170.1 168.2 168.5 165.7 162.1 159.7 158.8 157.7 157.1 160.7 168.5 174 176.7 177.2 182 187.2 194 204.7 212.9 218.2 220.3 222.3 223.6 222 219.8 217.7 216 213.9 209 203.8 197.8 193.3 190.5 187.3 183.5 177.9 170.7 167 163.7 162.9 159.2 153 140.7 127.2 116.3 109 95.2 80.6 77.7 84.3 103 130.3 147.6 152.1 156.7 161 162.5 160.8 157 156.8 155.5 151.9 148.9 149.4 151.4 157.1 165.1 174.5 183.8 187.7 188.6 186.9 185.4 184.3 183.8 179.4 175.9 173.1 173.8 172.4 174.4 175.2 176.4 175.7 173.5 173.3 175.1 174.1 172.3 169.7 163.3 155.1 144.8 131.5 133.1 147.6 146.7 147.1 144.9 143 133.4 144.3 149.2 156.2 154.2 151.6 150.3 149.7 147.3 150.9 149.7 156.2 154.2 150.7 151.2 154.3 161 164.8 169.9 174.6 178.9 188.3 195.7 202.5 206 208.5 208
354.4 351.8 353.6 362.8 367.7 369.3 369.5 365.6 354.6 343.5 329.7 322.1 313.3 301 292.1 285.5 280.9 272.1 268.5 265 263.4 269.9 278 289.6 302.1 313.5 327.1 331.7 334 337.9 339.9 342.4 342.2 340.5 339.6 335.7 332.2 328.9 326 324.8 326.8 321.1 316.2 308.4 303.1 302.1 298.5 294.9 286.2 278 267.3 256 244.5 243.6 238.8 236.2 234.2 227 226.4 226.6 225.5 228.5 228.1 226.5 225.6 225.7 222.1 219.9 213.2 209.8 198.3 186.4 174.2 169.3 166.5 165.1 163.7 162.2 160.7 158.8 157.8 156.3 160.6 168.6 174.1 177.3 176.9 178.8 188.3 197.1 204.9 212.7 218.6 220.7 222.6 223.6 221.6 220 217.8 215.8 213.2 208 202.9 198 191.9 189.2 186.8 182.2 174 173.8 172.5 172 166.2 160.9 154.5 143.2 129 114.2 97.9 87.5 73.5 79.7 84.8 103.3 133.1 150.8 158 160.4 162.5 162.3 160.2 161.7 163 160.1 155.3 153.4 155.5 155.5 164.1 166.1 174.2 184 190.8 191.2 188.6 183.9 182.3 182 179.1 176.3 173.8 172.5 171.7 172.4 175 176.8 177 176.2 176.4 176.9 175.1 174.1 170.4 164.9 157.1 145.2 133.3 137.4 146.2 144.8 145.6 143.2 139.5 134.5 144 148.6 151.7 153 152.6 150.6 146 148.6 145.8 148.9 153.7 147.5 150.7 158.3 160.2 161.4 168.8 172.2 176.6 182 193.1 199.9 207.5 212.8 222.8 228.3
357.2 356.8 362.4 368.5 375 378.8 380.3 377.5 369.8 359.2 346.2 333.7 324.3 312.2 299.8 289.1 283.2 277.5 270 265.1 261.6 265.8 272.1 278.5 293.5 305 316.2 323.2 327.7 331.2 335.2 337.3 338.3 338.3 333.1 331.7 327.6 323.9 321.8 320.2 319.1 318.1 312.4 306.6 299.6 298.4 294.9 290.4 284.4 277.4 271.2 258 246.3 225.7 229.9 228.5 224.8 215.5 214.1 212.1 213.3 213.8 215.1 213.3 213.1 214.4 213.7 212.6 209.6 204.9 197.4 187.2 177.3 171.3 166.1 164.3 163.1 161.6 160.3 158.5 157.3 156.7 160.8 168.6 173.9 177.6 177.4 180.2 190.2 198.7 205.5 212.3 218.3 221.6 222.6 222.8 222.5 220.5 217.9 215.7 212 207 202.1 197.7 191 188.2 185.9 181.7 178.8 178.7 175.5 171.9 167.7 160.8 154.4 140.4 126.5 112.3 95.2 83 71.3 81.2 86.5 107.4 137.2 153.4 162.5 164.6 163.9 161.5 160.6 165.5 166 162.9 161.1 159.3 160.7 161 164 170.1 175.7 183.9 192.6 194.7 187.7 181.9 179.8 180.8 178.4 175.5 172.6 171 170.3 172.5 175.5 177.8 177.4 178.3 178.6 177.7 176.3 175.5 171.8 167.4 161.4 153.7 138.2 135.4 140.9 142.7 142.8 142 134.5 136.1 144.1 149.8 149.6 151.6 149.9 146.9 145.4 146.1 146.2 145.8 145.2 152 159 160.8 163.9 163.8 168.6 173.4 179.7 185.7 197.5 203.5 210.3 220.5 237.5 247.4
363.5 362.6 366.3 371.9 379.6 386 388.9 390.1 384.4 376 365.9 353.9 340.6 327 309.1 294 285.1 278.9 272.5 265.8 261.9 261.5 266.5 276.1 282.6 298.5 309.4 317.5 323.5 327.4 332.2 333.9 334 333 329.7 325.2 323.8 318.8 315.1 311.8 308.1 306.5 302.3 296.6 291.4 285.9 283.2 281 277.2 269.1 262.2 251.7 243.2 232.7 216.4 216.4 209.9 208 205.4 202.2 203.3 203.3 205 204.7 203.3 203.3 207 206.3 203.8 199.9 195.2 187.8 178.6 170.8 166.3 162.7 161.8 160.3 159.3 158.1 156.8 156.3 161.2 168.3 173.7 178.1 178.1 180.3 189.8 198.4 206.3 212.9 218.3 221.9 222.6 221.8 222 219.6 216.9 214.9 210.8 205.6 201.8 196.9 192.3 188.8 186.5 183.2 182.3 181.4 176 171.2 165.8 159.7 151.4 138.9 123.8 103.3 90.8 82.1 71.2 82.3 94.7 120.8 141.6 155.4 164 166.6 165.3 165.8 168.6 168.7 166.7 166.1 168.9 167.8 166.7 165.8 165.7 169.8 174.4 181.7 192.8 194.5 188.8 180.9 177.3 178.7 176.9 174.8 172.6 169.6 169.8 171.9 175.8 179.1 178.7 178.9 179.6 178.4 177.3 176.8 173 168.7 162.8 157.8 149.4 140.2 129.7 129.9 140 139.5 131.4 136.5 142.3 148.7 147.2 148.1 147.2 144.6 143.4 144.8 139.3 144.7 152.7 157.2 159.2 160.7 163.8 166.4 169.6 175.1 181.6 188.7 199.7 206.9 215.3 232.7 245.1 249.8
364.9 366.6 369.8 373.2 381.2 391 396.6 399.8 397.9 390.8 382.4 374.9 357.7 339.9 318.2 302.1 288.8 282.9 275.4 267.6 263.2 260.5 260.2 268.6 277.3 288.1 299.7 311.1 318.6 323.9 329.4 331.8 329.3 328.3 323.6 321.9 319 315.6 310.8 305.6 301.5 296.1 291.2 287.5 286.4 280.2 272.8 271.7 265.6 252.7 245.3 240.8 234.9 236.7 225.7 223.1 215.4 210.1 205.3 200.3 194.6 194.4 195.6 194.6 197.2 195.7 196.1 197.4 197.8 195.6 192.4 186.9 178.7 171.3 165.9 164.5 160.5 159.2 158.2 157 156.7 156.7 164.5 169.8 174.5 177.4 177.3 184 189.8 200.8 208.2 213.7 218.4 222 222.8 221.6 219.9 218 215.8 213.7 209.9 204.9 201.2 196.5 193.1 189.9 187.8 186.8 185.9 181.9 176.7 171.5 166.1 158.5 148.7 137 120.6 97 88 78.8 71.1 84.3 109.3 137 147.6 152.7 160 163.5 163.5 163.7 169.9 171 167.6 167.1 169.2 171.9 172.1 167.2 166.7 169 172.2 179.7 191.2 194 188.8 181.4 175.7 176.2 174.9 173.3 171 170.4 171.1 171.7 176.9 177.4 179.8 180 178.9 177.6 177.9 177.6 174.1 169.9 164.3 158.7 153 145.8 143.4 130.2 125.9 138.5 128.6 136 142.8 147.9 146.6 145.5 145.8 142.6 143.1 139.7 143.8 147.7 152.9 156.8 159.4 161.1 166 169.5 170.1 178.1 183.9 190.5 200.7 211.9 221.7 240 252.7 254.8
363.7 366.1 369.2 373 382.1 394.4 403.7 409.8 410.6 407 399.6 389.4 373.1 351.2 327 310.8 295.8 285.8 274.9 270.8 263.5 260.6 259.4 262 267.7 278.2 295 307.2 314.4 321.4 327 328.3 327.4 323.5 321.9 318.7 314.4 310 307.2 304.4 300.7 299 296.7 292.5 287.5 284.7 281.4 278.3 274.6 267 260.3 254.6 249 245.8 236.1 233 222 221.3 218.9 211.5 202.7 197.5 194.8 187.1 185.1 187 188.3 187.1 191 190.4 188.6 184.5 178.6 171.9 166.1 166.1 159.1 158.1 157.1 156.5 155.9 159.1 163.3 170.4 174.5 177 177.8 186.5 192.5 201.3 209.9 216.6 220.2 222.7 223.3 222.2 220.2 217.8 215.6 212.9 208.6 203.6 199.7 195.7 193.9 190.7 189.3 188.8 190.9 182.9 176.9 170.1 164.4 157.6 146.9 134.3 113.3 92.1 86.5 75.4 76.1 87.7 116.2 132.7 147.9 154.8 158.9 160.1 163 165.5 169.7 172.3 170 167.9 167.6 172.3 175.6 171.3 172.7 170.1 171.4 180.8 187.9 189.9 187.3 181.2 174.8 174.5 173.3 171.7 169.3 168.7 169.6 171.7 176.4 178.6 180.4 179.5 178.4 178 178.8 177.6 174.2 171.3 165.9 160.5 154.2 148.3 145.5 141.3 127.5 132.8 124.9 135.1 142.3 147.9 146.5 144 143.9 140.3 135.6 141.1 144.5 149.3 152.4 156.3 158.3 162.4 166.8 171.9 176.4 177 187 193.8 205.4 217.2 225.4 243.3 252.9 260.3
359.6 363.1 366 371.2 383.2 398.5 409.4 416.8 420.8 418.5 410.3 394.9 381.2 361 341.6 322 304.3 287.5 281.2 272.6 265.1 261.3 258.7 256.6 264.5 275.3 289 301.7 312.6 321.7 325.2 326 325.6 323.8 322.3 320.1 318.7 316.3 312.8 308.3 307.1 304.6 303.7 301.3 298.2 293 288.9 283.7 281.7 277.1 267.3 259.4 254.2 250.8 247.8 240.9 234.3 234.3 232.2 224 216.7 212.2 205.5 197 193.6 186 180.4 178.3 181.7 184.5 183.7 180.8 178.1 172.5 166.6 166.2 161.7 158.8 158 155.6 155.8 165.1 170.2 169.9 173.8 177.4 178.8 186.6 193.3 200.7 209.7 217.3 221.3 223.5 223.9 222.4 219.5 217.4 215.7 210.9 206.5 202.2 198.5 196.2 194.2 191.1 189.2 189.4 190.3 184 176.4 167.8 162.2 155.1 145.4 131.2 107.3 91.2 85.1 72 81.4 89.6 116.5 130.5 149.3 155.5 160.2 162.4 167.8 169.7 174.7 173.7 171 169.1 168.9 175 178.5 175.1 173.7 172.7 175.7 186.3 187.6 187.9 185.1 180.5 176.2 174.2 171.6 168.7 167.8 165.7 169.1 171.2 174.9 178.7 180.2 179 178.5 178.8 178.6 177.5 175.4 172.4 167.4 162.7 156.3 149.1 145 142.2 135.4 120.1 133 140.1 140.5 146.6 143.5 140.2 138.1 132.5 138.4 141.5 144.6 147.2 148.3 151.2 156.4 163.4 169.5 174.6 179.4 183.5 187.6 200.1 208.9 224.8 235.8 245.4 250.6 267.4
352.9 357 359 370 383.7 399.8 411.9 419.5 425.2 423.2 411.2 396.3 382.3 368.2 349.7 329.6 308.4 293.8 284.1 274 266.4 260.5 258.1 257.3 259 274 284.2 297.3 308 317.1 321.5 324 324.4 324.5 324.9 326.1 325 323 320.1 315.9 315.1 316.5 316.9 316 311.7 306.7 302.3 296.6 290.9 285.2 278.9 268.3 261 256.5 253 251.7 250.8 249.8 246.2 237.8 232 224.8 215.2 205.9 202.2 195.2 186.2 179.2 169.5 176.9 177.3 175.6 174.6 170.2 165.8 165.2 163.7 156.6 155.5 154.7 160.4 170 170.7 171.4 175.5 179 182.7 189.2 196.4 202.5 209.3 216.3 222.2 223.8 224.1 222.5 220.4 217 215.3 210.5 205.7 201.8 198.1 196.1 194.2 191.3 188.7 189.3 187.3 182.6 175.2 167.6 161.7 153.8 144.7 126.7 104.4 89.9 83.4 69.8 81.4 97 118.6 138.2 149.4 155.3 159.6 163.2 165.1 167.1 168.8 171.9 170.8 169.2 170.3 177.8 179.9 177.4 177.2 177.2 176.7 181.4 185.4 186.3 183.1 177.6 174.6 173.3 171.4 167.3 164 165 168.6 170.5 173.5 178.7 180.2 181.1 182.2 181 179.2 178.3 176.6 173.5 169.2 164.6 157 150.3 144.9 141.3 133.9 124.2 134.7 140.2 143.3 145.1 142 137.1 130.2 132.4 139.8 140.4 142.1 142.6 146.3 149.9 155.5 165.1 169.9 175.7 180.8 185.5 189.2 205.6 215.3 224.3 232.9 251.7 265.1 275
343.6 347 350.1 365.6 380.3 396 410.2 420.7 425.7 421.6 410.1 394.7 380.1 365 349.1 330 312.8 298.6 285.3 278 268.9 262.9 257.9 256.1 256.6 270.7 281.8 292.7 304.9 312.9 316.4 322.1 323.8 326.9 328.4 332.1 332.1 330 326.7 326.4 327.7 326.7 327.2 327 324 317.4 312.5 309.1 302.9 297.4 289 281.3 272.6 264.6 261.1 258.8 260.1 260.8 257.5 253 245.6 234.7 224.8 215.1 208.5 205.6 194.9 183.5 174.5 164.4 172 171 171.8 170.8 168.1 166.6 162.8 162.3 154.4 154.5 166.4 170.1 171.2 173.5 178 181.2 186 190.9 195.7 202.3 209.2 215.3 220.9 224.1 224 222.8 221.4 218.5 215.2 210.5 205.8 201.7 197.8 195.8 194.6 191.6 187.4 187 187.1 178.7 173.2 165.3 160.2 152.2 144.3 123.3 98.4 89.9 79.5 71.2 82 99.1 117.1 134.9 146.5 153.6 159 162.9 164.2 166.3 171.7 172.9 170.9 170.4 171.8 177 177 177.2 179.7 180.9 179 178.6 183 184.2 183.2 179.9 174.4 172 171.3 165.8 161.3 163.9 167.3 170 171.8 177.4 179.6 181.7 182.5 182 182 180.1 176.8 174.1 170.5 165.8 159 152.3 146.1 141.4 136.2 122 130.7 136.7 139.3 146.4 140.2 129.2 135.4 137.6 137.7 138.9 142.9 146.3 151.9 155.7 161.8 166.6 170.7 176.2 183 187 192.7 209.5 221.5 236.7 248.5 261.7 272.7 280.1
333 337.6 342.4 355.8 371.8 389.3 403.9 415.3 418 415.4 403.5 386.6 371.7 357.3 343.6 328.5 316.5 303 289.3 277.9 268.2 263.9 257.7 256.3 255.1 266.9 277.2 287.4 300.3 305.6 311.2 318.3 324.7 328.5 331.2 336.3 336.6 335.1 332.8 334.3 335.7 334.4 334.7 336.5 333.3 326.5 322.9 319.5 316 304.5 298 291.6 284.1 277 268.2 263.1 264.2 267.1 268.1 259.3 250.4 240 228.9 219.7 212.7 206.3 196.9 183.2 173.2 166.5 162.5 168.4 168.6 168.4 166.1 161.8 155.1 156.2 153.8 154.9 167.5 170.5 172.3 175.4 181.1 184.2 188.5 193.4 197.2 203 209.8 215.2 220.7 224.1 224.6 223.1 220.5 217.4 214.9 209.5 206.6 202.3 198.1 195.2 193.8 190.9 187.3 184.3 183.7 183.2 178.4 168.4 159 150.8 139.7 121.5 96.2 88.1 79.3 72.1 82.3 99.6 121.4 133.2 143.2 152.7 157.7 162.5 166.5 168.6 175 174.5 172 172.8 172.8 175.5 175.2 176 178.9 181.1 180.1 180.2 181.3 183 183.3 178.9 174.2 171.9 170.9 165 161.2 161.2 163.7 166.6 169.8 175.1 178.7 181.8 183.8 182.6 182 178.9 176.8 174.6 171.3 166.7 161.1 154 146.9 141.7 136.2 127.8 120.2 127.1 132.3 144 136.4 126.5 135.7 135.9 136.6 140.1 145.5 147 155.7 158.6 162.8 166.8 171.5 176.7 183.7 186.4 198.6 215.5 226.7 247.7 260.1 267.2 278.9 286.6
318.2 327.8 333 342.8 359.8 378.6 395.1 402.9 404.5 403 391.2 376.4 363.3 350.5 338.2 325.5 311.7 299.8 287.5 278.2 269.4 263.7 257.4 256.2 254.5 266.7 274.2 284.3 291.2 300.4 310.9 317.3 323.4 328.1 331.8 336.7 339.4 339.4 338.1 340.3 341.3 341.7 344.5 341.4 338 332.7 328.2 325.4 317.7 310.6 303.9 297.9 292.5 292.1 282.4 271.3 265.9 271 269 262.4 254.9 248.4 234.2 223.2 215.8 209.1 199.7 187.3 176.4 167.3 161.6 158.4 161.9 164.6 155.2 153.1 152.7 153.5 154.6 156.5 168.1 171.7 173 176.8 182.6 187.1 189.3 195.8 201 205 210.8 215.1 221.1 223.5 224.8 222.9 219.6 217.7 213.5 209.8 205.8 202.8 199.1 196.2 193.8 190.8 188.6 185.8 182.7 180.7 175.6 169.5 161.1 152.9 138.5 119.7 98.4 85.4 74.6 73 83.8 101.4 121.9 132.7 148.4 152.3 155.2 157.7 163.2 165.6 173 175.8 174 174.8 174.9 176.7 177 176 179.4 181.2 181.5 180.4 179.3 180.8 179.9 177.2 174.3 173.3 171.3 165.2 159.3 156.6 161.2 164.6 169.9 173.8 176.7 179.8 182.5 182.8 181.1 179.4 177.6 175.2 172.1 167.3 162.8 155.5 148.2 142.3 135.7 131 124.5 123.9 132.9 141.2 136.7 128.1 133.9 131.1 133.9 139.1 145.1 148.1 153.9 158.2 164.2 168.9 172.6 177.1 181.9 188.6 204 216.9 234.6 253.1 264.2 278.4 286.7 292.6
318.7 313.7 323.5 331.7 344.8 363.3 379.1 383.6 385 382.3 374.4 364.6 354.1 346.4 335.6 323.2 308.6 298 288.4 279.2 272.2 265 259.8 256.2 253.1 264.7 273.1 280 286.3 298.3 308 314.2 321.9 326.8 331.7 336.1 339 340.8 341.4 344 347.3 347.5 347.3 345.2 338.7 333.7 330.2 326.4 321.1 311.8 302.7 299.8 298.5 294.6 286.9 282.6 273.2 269.3 268.1 263.1 256.2 247.5 237.9 225.1 216.7 209.3 197.8 188 177.8 168.9 160.9 158.4 157.3 154.7 155.3 153.3 152.9 153.1 154.9 160.2 169.4 172.3 173.9 179.7 184 188.3 193.1 198 204.5 207.1 211.6 217.2 221.8 223.5 223.6 222.2 219.9 218.3 214.8 209.2 205.3 202.4 198.3 194.9 193 190.6 188.9 185.7 182.1 178.1 176.7 170.1 162.1 151.7 136.6 118.5 98.8 84.5 74.1 74.6 83.8 102.2 120.3 133.3 148.9 152.9 155.2 155.5 159.4 166.1 173.9 174.8 175.8 178.2 177.7 177.2 177.3 177.2 179.7 181.2 180.9 181.2 178.9 178.5 177.3 175.8 173.6 172.5 170.8 165.6 159.9 155.5 160.1 162.9 167.7 172.1 175.1 177.5 180 182.1 180.7 180.2 178.5 176 173.4 169 164.6 156.5 150 143.1 135.2 131.8 136.6 119.1 131.6 140 132.4 125.3 127.7 133.2 136.5 142 146.6 149.2 152.7 157.7 166.7 170.1 173.3 177.8 179.3 196.7 206.8 221.2 238.6 255.5 272.3 284.2 291 297.6
319.2 311.3 311.7 321.4 330.8 344.9 355.4 363.4 365.6 363 360.2 353.6 345.9 337.3 329.4 314.2 304.5 294.9 284.6 278.3 274.4 268.2 262.5 255.7 253.1 263.5 273.1 277.5 285.2 294.2 304.4 311.2 319.5 326.5 331.5 335.5 338.3 341 342.8 346.8 351.6 347.5 342.7 341.9 339.3 332.2 327.7 326.1 319.7 311.1 301.4 298.6 302.4 297.5 290.1 282.2 276.2 266.8 263.5 259.7 253.2 244.5 237.2 226.1 214.8 205.1 195.5 191.1 178.7 167.9 161.2 156.5 156.9 156 154.7 155.2 154.6 159.8 162.5 168.7 171.8 173.9 175.2 180.5 186 192.4 196.3 200.7 207.2 209.1 213.8 219.4 221.7 222.3 222.3 220 218.9 217.5 214.8 209.6 205.3 202.2 197.9 194.3 191.7 190 188 185.2 181.1 176.9 174.3 169.2 162 150.1 136.7 118.3 100.7 84.6 76.2 71.1 84.4 103.7 116.8 130.2 146.6 150.6 154.2 154.5 161.6 169.7 174 172.8 178.6 180.4 179.1 177.7 177.7 178.8 179 180.9 182.4 182.4 178.9 176.6 174.9 173.3 173.1 171 169.4 164.5 159.2 153.9 158.4 160.8 165.9 169.6 172.3 175.1 178.1 180.9 179.9 179.4 179.1 177.9 174.9 170.6 166.2 157.1 149.2 144.9 136.9 132.7 134.2 120.2 123.8 137.2 126 126.7 130.6 133.2 138.7 146.3 150.5 154.3 157.4 164.6 162.2 168.7 173.6 175.8 184.1 196.8 208.9 229.4 244 257 274.4 284.9 292.4 299.9
320.4 311.3 300.7 307 318.4 327.7 333.2 337.6 342.5 343.8 342.5 337.8 332.6 326.1 316 306.2 301.2 290.4 280.4 278.7 269.8 266.5 260.8 254.1 252.5 258 267.9 275.3 280.9 292.6 301.9 310.2 318.7 325.9 331.4 336.1 339.5 344.2 347.6 346.8 345.1 344 337.1 335.9 332.9 329.4 324.8 321.6 316 308.6 296.4 294.8 300.6 296.8 288.2 281.8 274.5 268.9 257.5 254.1 250.8 241.4 235.6 226.9 215.8 205.8 197.1 192.7 179.3 168.4 161.5 156.2 154.8 153.6 153.4 153 156.4 159.6 166.7 171.8 174.4 176.2 177.2 182 188 195.3 200.9 204.5 208.4 212.9 215.4 219.2 220.5 220.8 221 219.7 218.6 217 214.2 211.1 206.5 201 197.7 193.9 190.8 188.2 185.7 183.6 180.2 175.9 170.1 167.3 161.1 146.9 136.4 119.8 103.4 85.1 80.1 69.1 82.5 101.2 112.6 125.7 141.1 147.4 152.4 154.5 159.5 169.1 174.1 173.2 179.2 180.4 179.8 178.2 177.5 178.4 180 179.5 182.6 183.2 178.7 174.9 172.8 170.8 170.1 171.2 168.2 164 157.7 152.7 156.3 159.2 162.1 165.6 169.8 172.7 175.7 179.1 179.5 179 178.8 180.9 176.1 171.2 166.1 158 150.2 144 138.5 133.3 136 118.2 131.8 132.1 121.8 128.9 132 135.9 142.1 147.1 152.7 158.1 160.3 167.9 169.6 170.6 175.2 184.3 195.8 204.4 215.9 234.7 243.9 256.2 269.5 281.6 291.8 303.6
320.7 311.2 302.7 298.6 304 309.6 314.3 316.5 321.2 324.4 322 320.4 315.3 310 302.5 297.9 289.9 283.9 276.2 274.2 269.7 265.4 260.5 254.4 250.4 263.6 272.5 279.8 287.1 294.6 302.7 312 318.5 325.5 331.9 338.3 345.2 350.5 352.8 348.7 341.5 336 332.8 326.6 324.2 322.4 318.7 314.9 310.6 303.6 295.3 289.2 291.9 292.2 286.8 279.2 271.7 264.4 257.9 248.6 245.3 238.6 233.7 224.4 213 203.1 195.7 188.3 179.5 168.5 161 155.7 153.5 152.7 152.2 151.4 153.1 155.3 162.5 169.4 174.5 177.1 178.7 182.8 190.8 196.7 203.3 209.7 216.8 215.8 216.9 219 219.8 219.4 218.3 218.8 216.5 216.1 213.8 210 205.7 200.6 197.3 194 189.1 185.7 183.6 181.9 178.5 172.9 166.4 162.7 156.5 145.5 136.7 119.9 106.2 88.5 82.3 69 80.8 94.4 110 123.5 133.8 143.5 151.2 156.7 157.9 165 170.2 174.4 178.2 178.3 178 178.7 178.1 179.5 180.3 181.6 183.5 181.7 178.9 175 170.8 169.7 168.4 170.6 169.5 163.1 155.7 151.5 154.5 157 160.1 163.2 167 170 172.9 176.6 177.3 178.3 177.3 173.6 171.6 170.2 164.7 159.2 151.3 144.4 139 135.6 135 121.2 121.4 117.2 125.6 132.3 133.6 137.9 143.7 149.3 156.6 161.1 164.3 168.9 172.4 174.1 184.4 191 199.6 210.2 221.6 231.8 246.9 259.4 270.3 282.3 293.4 302.6
322.8 312.5 304 298.1 292.4 294.9 300.4 302.7 307.4 306.7 304.4 303.6 299.9 295.7 291.4 286 283 279 273.1 269.9 266.4 262.4 256.9 251.6 249.4 270 278.6 285.5 292.4 300.6 308.5 317 323.4 330 337.4 343.9 351 356 356.7 351.7 340.8 330.8 327 319.6 315.9 314 308.7 306.7 303.8 298.2 292.9 283.6 282.4 286.6 279.5 275.5 267.8 261.3 253.9 247.1 237.9 233.4 230.2 220.9 213.2 205.6 196.9 189.4 181.6 170.5 160.7 154.7 152.2 151.7 151.1 149.9 151.2 152.6 158.4 166.7 172.3 176.8 179.2 185.3 192.9 198.9 206.3 214.2 224.9 221.8 215.6 217.8 218.4 217.6 217.3 217.4 215.7 214.6 213.3 210.3 205.9 199.9 197 193.2 188.3 184.4 180.7 179.1 174.3 169 163.6 159.3 151.4 141.9 133 121 106.9 93.8 82.2 68.6 77.5 91.6 106.3 115.9 130.7 142 152.8 156.8 161.7 165.4 168.6 174.1 175 173.3 175.4 176.6 177.7 177.9 179.5 181.6 185.7 184.3 179 172.6 168.6 168 165.9 166.6 165.7 162.6 154.5 151.3 152.6 155.9 158.1 160.9 164.2 167.2 170.2 173.9 175.9 177.5 176.5 171.8 169.9 168.8 165.3 159 151.2 144.7 139.1 137.1 133.8 126.2 114.8 123.7 128.7 132.2 133.5 138.5 146.5 153.5 157.4 162 165.2 169.7 176.6 184.5 179.8 195.6 204.6 212.5 220.9 233.5 247.1 259.9 266 273.5 279.9 284
325.4 316 307 299.3 292.7 284.5 287.1 291.6 295.1 295.3 291.3 290.4 286.6 285.2 282.4 276 274 271.6 267.5 263.5 261.4 258.7 253.4 250.6 267.5 272.1 283.3 291.6 301.7 312.1 318.7 325.6 332.1 338.6 346.7 350.9 357.4 361.9 359.2 352.1 340.7 331.2 321.2 314.3 307.2 302.4 300.6 296.8 294.8 291.4 286.3 279.3 273.9 277.1 274.2 268.2 261.7 254.9 249.3 242.4 236.5 230.4 226.2 219.9 211.4 204.2 194.6 187.5 180.5 170.9 160.6 154 151.1 150.7 150.2 149.7 149.7 150.8 153 160.7 164.6 171.2 175.6 185.4 193.5 202.1 210.8 219.4 223.2 224.6 220.6 216.2 217.5 216.9 215.2 213.3 213.2 213.9 212.2 210.7 206.8 201.4 197.9 192.1 189.1 182.2 175.6 176.5 170.5 165 160.3 156.4 148.6 140 132.9 120.5 107.4 94.9 83.1 75.3 68.7 88.5 101.2 113 130.5 140.5 150.6 155.6 159.8 163.5 164.9 171.4 174.5 173.5 174.4 176.8 177.2 177.6 178.3 182 186.3 184.9 182.4 175.4 169.4 166.9 164.7 164.8 162.9 164.1 156.1 150.2 151.4 153.9 155 158.1 161.3 164.3 167.2 170.9 173.6 175 173.5 170 167.4 166.2 163.8 157.3 152.5 145.4 138.9 136.1 131.1 129.3 115.4 125.3 127.4 131.3 135.3 139.7 146.7 152.2 156.6 161.6 166.6 174.5 180 188 195.6 193.5 204.2 212.2 220.5 231.8 242.7 247.9 253.5 259.8 265.4 271.5
326.3 317.1 309.4 301.3 293.5 288.6 279.4 282.7 285.1 287.7 284.8 282.7 280.4 278.5 277.2 274.1 269.5 266.4 262.4 260.2 256.9 253.7 249.2 255 267.6 276.7 287.4 298.7 312.5 321.9 331 337.7 344.6 348.3 353 355.6 363.9 367.8 363.1 353.5 340 328.6 320.9 308.4 301.4 295 292.6 287.3 285.2 282.4 277.1 274.7 267.3 265.9 264.9 260.7 255.8 251.5 245.6 239.3 231.3 225.8 220.9 216.1 210 203.3 195.2 187.1 179.3 172.8 161.9 159 152.1 149.8 149.8 149.5 149.2 151.7 152.4 161.1 165.9 168.9 180.5 186.9 195.9 204 212.7 218.5 228.6 226.8 221.8 217.8 216.7 215 212.3 211.9 212.1 211.6 210.7 209.6 207 201.6 197.3 192.4 189.8 183.8 176.9 171.7 163.3 162.8 157 153.7 148 142.9 134 122.2 110.5 94.8 84.1 79.9 69.2 82.6 99.2 111.8 124.3 135.6 147.8 155.2 158.3 163.6 166.1 171.6 174.7 175.5 176.9 178.2 178.1 177.5 175.8 179.8 184.7 184 182.3 179.8 172.7 169.3 166.3 163.1 162 161.6 157.5 152.2 148.7 151.9 152.9 155.4 158.3 161.3 164.1 167.2 170.4 171.3 169.7 167.4 164.7 161.7 159.9 157.5 152.3 145.1 139.2 132.6 128 129.3 113.9 124.1 127.9 132.7 138 145.8 149.2 156 158.6 166.8 169.2 176.6 184.7 190.6 199.1 201.4 201.7 200.5 212 223.5 230.4 236.7 252.7 260.7 268.3 274.8
328.9 318.8 311.7 305.1 298.3 291.7 284.2 275.3 277.4 278.6 277.8 277.6 276 274.7 272.9 270.4 266.5 263.8 260.8 257.3 254.9 251.2 246.2 257.2 267.1 278.5 292.6 306.4 320.7 332.1 342.3 351.2 355.9 355.5 358.9 360.8 368.4 372 366.1 351.7 338.6 329.5 319.2 313.6 301.6 293.3 282.6 277.3 277.9 275.1 270.3 265.9 261.6 257.7 256.8 254.5 249.9 244.8 239.8 234.7 227.4 222.5 217.2 212.9 207.5 201.4 195.3 186.5 179.1 173.5 167.5 160.5 153.2 149.4 149 148.2 150.9 155.3 160.3 169.8 177.4 181.3 182.6 190.5 199.2 207.8 214.9 222.5 224.4 223.9 220.6 219.1 215.5 213 210.2 208.6 209.6 208.4 207.7 207.9 205.4 201.1 195.5 190.2 187 181.8 175.3 170 163.2 151 150.2 147.1 142.3 140.9 135.5 124.2 112.1 94.3 85.1 81.7 70.7 81.1 85.5 102.3 119 134.7 145.7 156 160.1 164.9 167.9 171.4 175 176.9 177.3 178.7 177.9 174.6 172.8 175.6 180 183.6 183.2 180.1 173.3 167.7 164 161.7 161.6 161.2 157.5 151.8 146.1 149.3 150.8 153.1 155.6 158.4 161.2 164.4 167 168.7 165.5 161.9 161.8 159.4 157.6 157.3 151.5 143.6 137.5 129.2 128.5 126.8 117.2 123.7 130.3 136.3 142.9 147.2 153.1 161 164.8 168.5 173.2 180.9 188.8 195.7 201.6 203.9 208.3 216.6 217.4 222.3 237.6 249.5 261.9 277.6 289.1 296.2
335.1 324.9 317.4 310.6 303.1 293.8 287.5 281.7 273.4 272.7 268.1 271.5 271.2 269.5 268.4 266.2 263.8 261.1 257.9 255 252.9 248.6 245 257.7 270 282.8 299.6 315.5 329 341.3 352 359.5 360.8 361 363.1 364 370.3 371.2 364.1 353.5 341.7 326.7 317.7 313.4 302.5 292.2 284.2 275.8 267.6 264.9 260.6 260.1 256.7 252.4 248.4 247.1 245.4 240.3 234.6 228.8 223 218.3 213.2 206.1 204 198.9 192.8 186.7 180.1 172.8 168.9 162.9 156.5 148.7 148.6 148.1 154.2 155.6 162.5 169.8 175.7 180.4 186 193.5 200.5 207.7 216.2 220 220.6 222.5 222.2 217.8 215.8 213.2 209.1 208.2 206.1 202.2 204.5 204.6 203.1 199.3 193.4 188.6 185 182.6 173.1 165 160.9 149.5 143.3 140.3 137.4 135.8 130.3 122.4 112.6 94.2 85.9 83.8 74.7 75.4 91.9 108.6 117.9 132.6 143.7 154.3 159.1 163.6 167.6 170.1 176.8 179.4 179.5 179.3 177.1 174.5 172.1 172.4 178.8 182.8 182.5 180.2 174.6 168.5 163.7 160.1 160.2 159.2 155.5 150.7 145.5 147.5 149.2 150.4 152.8 155.6 158.4 161 163.6 166.2 163.5 160.9 160.4 156.9 154.2 153.6 148.3 142.5 135.6 128.9 127.8 126.9 124.1 128.9 132.7 138.9 144.9 149.5 157.7 166.5 169.2 171.9 182.7 184.2 192.4 200.4 205.8 209.9 217.9 231.3 235.5 227.2 235 246.8 264 281.9 294.7 306.7
346.4 335.1 324.6 316.3 305.4 299 291.5 284.8 280.1 275.5 271.5 264.4 264 266.2 264.6 262.3 261 257.8 255.8 252.9 250.9 247.8 244.2 255.8 270.5 290.8 307.8 325.1 339.4 348.6 361.8 365.2 364.7 364.9 366 368.3 370.7 367.4 357.9 348.7 336.6 326.6 313.6 309.9 301.2 292.3 284.8 277.6 264.5 258.5 255.4 252.5 249.5 245.4 240.9 239.6 239.3 234.6 230.2 225.5 218.4 212.8 208.2 203.1 197.9 196.3 190.7 185.3 178.7 172.5 169.6 164.2 157.2 148.5 148 147.5 154.3 159.2 165.2 172.1 178.8 181.6 188.5 198.2 203.5 209.6 216.4 220.3 223.9 224.3 222 218.4 215.6 213.5 210.5 206.4 203.7 201.7 200.7 199.8 196.7 194.5 189 185.8 181.3 175.4 167.6 162.3 158.3 150.1 142.2 138.2 135.1 134.9 129.2 122.4 110.4 91.5 86.3 84 76.2 71.7 91.4 107.5 120.7 122.5 141.6 152.1 155.8 163.4 164.7 169.3 177.6 181.1 181 177.8 175.6 172.9 171.8 170.7 176 181.1 181.6 181.1 175 170 164.4 159.1 155.9 157.5 153.8 152 146.3 146.6 147 148.8 150.9 153 155.2 157.5 159.5 162.2 163.5 162.1 159.9 157.4 154.8 150.5 144.8 142.6 135.7 128 123.4 110.7 129 130.8 134.6 139.6 148 155.9 165.4 171 172.4 175.2 189 192.6 199 204.9 214.3 219.9 230.1 245.4 252 250.4 236.1 241.5 252.2 271.6 287.6 303.5
359.8 349.8 336.2 325.1 315.5 305.9 297.3 291 285.2 279.4 274.8 271.2 268.1 260.6 259.8 259.9 258.5 255.2 252.5 250.4 248.6 244.6 244.3 256.1 275 296.9 317 335 345.6 351.6 361.3 364.6 364.4 364.9 366.4 373.2 369.7 357.2 350.3 342.6 332.2 325.3 309.6 300.9 295 289.4 281.9 274.7 264.5 256.6 247.9 245.9 242.3 238.8 235.4 231.8 229.1 227.9 225.7 219.5 210.4 206.2 202.3 199.3 194.6 191.7 187.5 183 177.6 172.5 169.2 164 155.8 148.1 147.6 147.7 155.6 161.3 166.2 173.2 179 184.4 193.5 201.5 206.6 211.6 218 224.2 222.7 221.7 222.3 217.9 214.8 214 209.9 206.5 203 200.5 199.8 193.2 193.9 190.8 186.7 182.5 175.1 170 165.7 160.6 155.3 150.9 144.9 137.4 133.1 137.8 127 116.3 107.6 88.8 85.4 83.4 72.5 74.5 92 108.9 119.5 126 137.7 149.8 155.6 163.9 165.1 170.7 177.2 180.5 180 177.2 173.9 172.4 170.9 169.4 174.7 179.2 180.9 179.9 173.2 165.5 161.2 159.2 153 155.4 153 150.9 133.6 143.3 145.3 146.1 148.3 150.6 153.2 155.2 156.7 158.7 159.5 158.7 156.8 154.3 150.6 147.4 142.5 134 123.2 115.5 108.7 125.5 128.2 132.5 138.5 144.2 150.5 160.6 168.4 173 173.6 175.6 188.9 195.8 206.2 213.2 225.4 235.4 247.6 257.9 265.1 267 263.3 248.7 247.1 257.4 272.6 292
378.3 366.5 353.3 340.5 330.7 321.6 312.9 302.7 294.7 288.4 282.2 276.8 270.6 266.6 261.7 256.5 256.4 256.6 253.9 248.7 247.4 242.8 245.3 258.5 284 301.3 322.1 336.9 347.9 353.4 354.6 358.2 361.1 362.1 369 374.3 368.3 355.7 345 334 326.6 317.3 306.1 294.1 289.3 283.3 273.7 270.7 263.3 255.8 247.5 241.3 237.4 233.5 229.4 226.5 223 219.6 216.7 210.8 204.5 200.5 197.9 194.6 189.9 184.3 183.3 180 175.6 170.8 167 163.8 157.7 149 146.2 149.9 157.6 161.8 168 175.3 178.2 188.3 198.1 204.1 207.8 213.9 220.5 222.1 221.7 221.1 219.5 216.8 215 213.3 208.7 205.3 202.6 199.8 196.2 192.1 189.4 186.9 185.6 179.5 170.5 165.3 164.7 162.5 153.1 146.4 140.9 134.6 129.7 132.2 125.3 117.2 104 89.2 85 82.9 68.6 82.6 94.4 109.7 120.6 130.7 138.6 149.6 155.9 162.7 162.2 169.5 173.6 176.6 176.5 174.7 172.7 172.2 170.4 169.3 172.8 177.5 179.8 176 170.7 165.8 162.4 159.3 154.6 150.3 153.1 149.1 142.7 141 143.2 143.7 146 148.4 151 153.6 155.7 156.3 156.8 155.2 151.2 149.4 147.7 145.1 138.8 133 113.2 111.7 125 128.8 137.7 136.7 143.3 147.3 154.1 163.8 170.9 176.8 177.6 182.8 194.7 199.2 214.4 224.4 233.4 246.4 259.5 271.1 280.9 283.3 281 272.7 264.7 259 262.5 279.6
389.8 379.5 371.4 363 356.2 345.3 334.2 324.9 313.5 306.4 298.8 289.2 275.4 270.4 265.9 260.3 254.4 253 251.2 247.5 246.7 242.4 246.4 262.3 284.5 304.9 319.3 332.6 340.2 347 347 347.2 352.9 358.6 363.4 366 362 354.6 340.8 326.9 318.9 308.1 297.8 290 282.5 277.2 272.4 263.4 261.3 255.3 245.2 238.8 228.5 227.6 223.9 219.9 217.6 213.4 209.5 204.1 199.1 194.9 192.3 188.8 185.2 180.8 176.8 175 171.7 166.6 164 162.1 158.3 149.5 146.5 154 159.3 161.8 167.8 173.8 179.1 191.5 201.8 205.5 208.8 216.2 220.6 222 222.3 219.2 218.6 216.3 212 208.6 206.2 204.7 200.1 196.3 192.9 190.6 185.7 179.4 180.6 177.3 172.8 162.3 160.4 160 151.5 143.1 136.4 128.3 125.5 128.9 120.6 112.8 99.8 86.5 84.1 75.5 74 87.6 95.1 115 123.9 129.7 138.1 146.9 156.8 162.5 162.6 167.9 171.8 175 173.9 172.7 172.4 172 170.2 169.2 170.9 175.2 177.2 173.8 169.5 165.3 161.8 157.9 152.9 147.5 149.7 144.9 141 139.2 140.2 142.3 143.9 146.2 148.8 151.4 153.8 155.2 155.3 152 147.9 145.3 144.8 142.8 124.7 117.1 109.2 115.2 126.9 132.8 139.3 141.2 145.1 150.6 159.4 166.6 174.3 177.7 178.4 187 195.8 206.5 220 231 242.9 256.7 272.2 285.6 297.4 305 304.5 298.8 290.9 286 279.2 273.3
391.8 385.7 382.5 383.6 380.5 371.6 360 349.4 336.3 324.3 315.7 303.2 287.7 273.6 267.6 262 258.4 251.9 247.4 247.7 244.3 240.9 248.4 265 286 303.4 311.9 317.7 327.3 333.2 337.4 343.1 347.1 350.5 353.9 361.4 365.3 356.6 338.1 324.3 311 301.3 294.7 288.1 281.4 274.8 271.1 265.7 259.3 249.7 245.3 233.2 223.4 215.3 212.1 209.4 207.3 204.4 201.5 199.4 193.9 188.8 184.9 181.8 178.8 175.6 167.7 168.2 166.7 162.5 159.6 159.4 157.3 149.5 145 156.9 159.4 164.5 169.6 173.5 181.1 194.5 199.5 204.6 209.6 215.7 220.6 224 221.4 223 218.3 215.8 211.6 207.2 204.7 202.9 202.3 198.8 194.8 190.7 186.6 181.6 173.5 171.1 169.1 159.7 156.6 153.7 146.9 139.1 132.1 124.8 123.4 123.5 117.7 109.3 97 85.6 83.2 67.5 80.8 91.4 101.9 119.6 127.8 132.1 141.5 147.5 151.2 157.3 163.7 167.6 172.9 173.1 173 172.2 171.9 171.6 170.4 169.5 169.8 174.2 175.9 172.8 168.9 162.9 158.7 152.3 147.6 144.1 145.7 142.9 140.1 138.1 132.9 140.8 141.4 143.2 146.2 149.1 152.2 154.4 153 149.5 144.6 142.2 141.5 142.8 127.1 112 109.1 122.4 131.4 135.5 138.8 143.1 145.3 153.9 164 169.4 175.4 176.8 182.3 194.3 203.9 212.7 227.5 239.4 252.9 268.5 287.4 301.8 316.4 327 328.6 323.6 318.5 311.7 305.5 296.9
389.8 388.1 388 391.3 390.2 383.9 375.5 368 358.5 340.3 332.8 315.5 299.6 280.9 272.4 264.8 259.9 254.2 249.3 242.8 242.4 240 250 263.9 284.6 297.1 302.8 307.7 319.4 323.6 331.3 337.6 341.5 346.1 352.4 358.7 362.1 357.3 344.1 325.5 312.4 304.7 296.4 288.9 283.7 278.3 270.7 265.3 260.3 256.9 249.2 239.1 229.7 221.7 214.4 206 192.8 188.8 189.4 188.3 187.1 182 177.4 173.1 172.7 170 165.2 159.9 158.3 156.1 154.1 155.7 153.7 148.4 144.8 155.9 159.3 164.1 169.7 177.2 185.7 195.9 199.7 208.4 212.6 215.9 222.9 223.7 225.4 221.8 216.5 214.3 210.5 207.7 204.9 203.9 204 198.8 195.6 192.3 187.1 181.4 177.2 169.4 163.6 156.3 152.2 149.5 140.1 134.2 127.3 120.9 117.8 119 114.3 104.7 93.7 85.7 78.1 67.1 84.4 93 106.3 121.1 129.2 136 144.1 149.4 151.6 162.1 165.1 167.7 171.4 171.9 172.1 171.7 171.4 171.1 170.4 168.1 168.9 173.1 174 171.8 167.8 160 156 152.2 146.9 142.6 141 140.8 139.2 133.7 139.1 136.2 139 141.2 144.3 147 149.3 152 150.3 146.7 142 139.1 138.5 138.9 120.3 106.7 109.1 122.8 135.3 140.7 141.9 146.5 148.8 159 166.2 170.7 176.4 175.2 190.1 200.7 211.9 225.2 239 252.5 267.9 283.8 302.4 319.5 333.4 344.9 347.9 349 341.9 336.3 329.6 323.1
384.1 384.9 388.3 392 390.1 383.8 375.9 367.9 359.2 347.1 332.1 320.9 304.4 287 272.4 265.1 259.2 255.1 250.2 247.7 240.5 240 253 263.6 276.4 286.9 296 309.1 317.9 321.9 328.9 333.4 338 345.2 352.3 358.9 360 356.5 349.2 337 324.1 312.1 301.6 293.9 288.4 282.5 279 272.4 269.1 261.9 251.8 242.6 236.6 228.1 218.1 207.1 202.7 199.7 193 180 174.5 174.1 171.9 169.2 165.6 165.5 159.3 155.3 153.5 151.5 150.2 149.2 149.3 145 144.1 153.3 157.7 163.6 171.5 178.7 187 196.6 202.1 206.6 212.1 217.1 223.4 224.9 223.5 219.9 218.4 214.3 209.9 207 204.2 201 199.7 197.1 194.2 188.9 188.1 184 180.7 170.5 157.4 148.2 147.9 141.4 134.2 127.5 122 118.2 110 110.9 109.6 99.2 88.1 82.7 66.7 76 88.8 94.8 109.6 124.5 131.2 138 142.9 148.3 156.9 162.8 165.2 167.9 169.5 170 170.5 171.1 170.8 170.5 170.1 168.1 167.3 171.4 172.8 171.9 166.6 161.4 156.1 151.7 146.4 143 141 140.8 137.8 135.2 136.8 136.9 137.7 139.8 142.7 145.1 146.4 148.2 147.3 143.4 139.6 136.7 136.2 135.8 114.4 107.1 107 127.9 133 136.2 147.8 149.8 153 161.5 167.2 171.7 172.5 183.6 197.3 207.1 219.2 233.1 247.7 265.4 282.7 298.3 307.7 329.6 343 355.3 363.3 368.2 366.5 359.5 351.2 345.3
374.9 378.9 383.7 385.4 383.2 378.8 373 365.2 354.3 344 331.5 317.4 305.1 289.3 272.3 261.2 256.6 254 252 256 243.8 238.5 255.2 267.4 286.4 293 305.2 313.7 315.1 321.2 327.8 332.4 337.8 345.2 354.3 362.2 364.3 362.3 358.3 351.3 338.4 325.3 315 305.6 298.3 293.2 286.5 277.4 273.5 266 257.6 252.1 244.2 233.9 223.6 212.6 202.7 196.3 191.6 189.7 181.8 174.8 167.8 163.2 163.1 160.3 157.1 155.3 153.2 150.9 149.2 147.2 146.1 145.3 146.3 151.6 157.4 164.1 172 179.3 189.6 196.8 201.8 209.5 213.8 218.6 224.6 224.7 222.5 221.8 218.4 212.1 208.9 206 202.1 198 198 194.8 190.8 186.8 184.6 183.2 178.3 170.8 158.8 149.7 137.7 131.8 126.5 116.4 112.6 114.7 111 106.7 101.6 94 83.8 71.8 68.1 87 93.1 96.9 115.8 127 132 135 141.1 152.8 159.2 162.5 165.2 166.7 167.3 168.4 168.9 169.3 169.7 169.7 169.2 167.8 166.4 171 172.2 171 165.7 160.7 155.8 149.9 143.7 142.9 140.8 138 135.1 134 131.8 138.1 131.6 138.1 140.8 142.5 143.8 144.8 144.8 141.9 137.5 134.5 132.6 130.3 111.8 105.1 106.2 132.4 141 148 148.8 150.4 151.3 156.3 168.1 169.9 175.7 187.5 200.9 212.4 226.5 243.5 258.8 277.5 295.6 313.1 325.3 335.4 346.3 358.2 368 375.6 379 377.8 369.8 357
365.7 370.7 375.6 378.7 377 373.9 366 356.7 347.2 337 324.6 313.2 301.9 289.9 277.2 264.8 259.8 256.6 255.7 263.8 246.9 238.2 254.4 275.6 290.7 299.9 311.2 318.7 324.6 324.4 329.8 333.5 340.3 347.8 356 364 366.7 367.8 366.3 361.2 351 340.1 329.8 321.3 311.8 305.2 296.8 286.6 276.3 270.1 263.2 256.4 248.9 239.9 231.5 220.9 211.9 203.5 198.8 194.2 185.7 181.2 174.1 172.7 169.1 163.4 157.4 154.3 152.6 149.7 148.3 146.8 145.3 144.4 145.1 147.8 152.3 163.1 172.5 180.2 190.8 197.1 203.1 207.6 212.3 218.7 221.8 226.4 225.9 221.6 214.7 210.4 205.3 202.2 198.8 197 196 193.9 188.9 182.9 180.5 177.4 172.7 167.7 160.2 149.6 135.5 129 123.1 121.3 111.6 109.3 107.3 98.8 97 86.8 75 66.5 86.1 92.7 96.8 99.5 117.8 125.6 130.5 135.1 141.3 153.8 158 160.6 163.4 164.4 164.9 166.4 167.2 167.9 168.5 168.6 168 166.7 165.2 169.7 171.4 168 164.8 159.6 153.2 147.5 145.6 140.5 137.2 135 132.8 131.9 128 132.3 136.7 135.9 136.9 139.4 140.5 141.5 141.8 139.9 135.8 132.7 128.1 124.5 115.1 104.9 107.1 135 143.9 149.6 153.2 154 156 164.2 160.9 164.2 175.3 192 204 216.1 236 253.9 271.4 289.2 305.5 319.3 330.7 339.5 346.8 356.2 366.7 376.7 381.1 380.2 371 345.6
356.5 361.5 368.5 370.3 371.1 368.8 358.8 348.3 338.8 328.7 318.4 307.4 298.6 289.2 277.2 266.8 259.9 256.3 253 253.1 236.4 248 262.4 280.6 292.3 304 316.6 324.7 334.8 336.7 338.3 338.8 344.5 352 359 367.7 368.5 372.6 373 369.4 360.2 349.7 339.6 330.3 321.2 312.1 304.2 293.2 280.7 274.1 267.9 259.8 252.2 243.2 238.4 226.6 218.9 211.7 208.1 202.1 195.8 190.6 183.4 175.7 172 162.7 158.6 155.6 152.2 149 147.5 146.3 144.9 143.5 142.8 143.6 147.6 161.2 173.7 181.8 190.8 197.2 203.2 208.9 213.7 216.2 222.5 224.6 222.9 218.1 217 213.4 208.4 201.6 198.4 196.7 196.1 193.6 186.7 184.4 181.4 175.8 171.7 167.6 159.8 153.1 144.3 135.2 127.4 118.1 112.9 107 104.5 96.7 87.1 81.4 66.1 77.6 88.9 92.3 99.7 103.7 115 121.7 130.3 141.1 144.8 153.1 157.6 160.8 161.2 162.1 163.7 164.9 166 166.8 167.2 167.4 166.7 165.6 163.7 168 169 166.7 163.7 159 153.7 147.9 143.4 138.6 134.4 131.8 130.9 130.2 126.5 129.4 132.2 133.9 134.5 136.1 137.7 138.8 139 137.7 134 127.8 124 119.2 104.9 104.9 110.4 130.2 137.9 144.7 151.1 154 159.4 167 171.4 172 180.7 195.7 210.6 222.4 242.9 262.1 280.7 298.9 314.8 323.9 328.4 336.7 344.2 352.8 362.3 374.4 380 374 347.2 321.8
347.1 352.9 360 363.5 364.9 360.9 352.2 340.7 329.7 320.8 312.1 301.9 293 284.5 275.1 265.9 257.1 251.7 249.2 247.7 234.5 258.4 270.3 282.9 296.4 310.9 323.7 335.9 342.4 347.7 345.5 344.2 349.1 354.6 361.3 366.8 367 372.6 375.5 372 364.7 353.8 345.7 337.1 326.2 316.9 309 299.5 287.4 278.5 271.1 263.7 255.4 248.5 244.3 235.8 227 221.8 217.6 209.6 202.9 196.5 189.2 178.2 174.2 166.8 165.5 159.2 153 148 146.3 145.1 144.1 142.7 142.3 142.6 142.7 154.1 170.4 183.2 190.6 194.6 201.5 207.6 211.8 213.2 217.6 221.4 219.6 220.1 218.6 214.5 207.7 203 198.8 196.2 195.5 192.8 184.8 182.6 178.6 174.3 170 164.5 158.4 150 142.1 135.2 128.4 120.8 113.5 106.7 100.8 94.2 81.8 74.5 66.5 88 90.8 100.1 104.6 108.9 115.5 123.3 136.6 141.1 147.1 155.9 158.4 161.6 162.8 161.9 162.7 163.6 164.7 165.8 166 165.9 164.9 164.2 160.5 166.3 167.3 165.2 163.6 158.2 152.1 142.7 140.8 138.1 134.3 131.4 129.4 127.6 119.9 127.6 128.7 129.2 130.5 134.2 135.3 136.4 136.1 133.7 127.9 126.8 125.1 121.3 103 106.7 116.7 135 144.8 148.8 148.5 155 160.3 166.7 172.2 178.9 181.9 202.6 207.6 227.6 251.2 269.7 289.7 304.6 316.4 323.2 326.6 330.1 338.4 349.5 359.4 369.2 360.1 347.9 323.2 298.2
336.5 345.3 352.7 355.7 354.9 350.8 343.9 334.9 324.8 313.8 303.5 294.1 286.3 279.7 272.2 263.9 255.1 249 244.3 238.5 236 253 270.3 284.3 297 317.6 328.4 338.3 345.6 353.1 350.1 350.5 352.2 356.6 361.2 361.7 362.2 368.8 372 370.2 361.7 355.5 347.7 339.1 330.9 321.8 312.7 303.5 292.7 281.8 272.8 265 258.5 250.8 248.3 240.3 233.5 228.2 222.3 215.9 208.3 202.7 192.1 184.2 173.7 171.4 169.2 163 155.3 150.3 149.4 144.5 143.2 142.8 141.5 142.5 142.6 155.2 174.5 185.3 189.6 194.8 198.7 208 216.8 220.1 221.1 219.9 220.9 221.2 218.7 215.2 210 205.2 199.8 196.3 193.9 190.7 188.3 182.9 178.4 171.7 168.4 159 153.9 149.6 142.2 135.2 127.9 118.5 108.7 102.3 96.8 92 77.5 65.5 79.6 89.6 95.1 104.2 106.2 113.5 119.8 125.4 135.3 143.5 149.9 155.7 158.3 161.4 163 162.5 162 162.3 163.1 163.8 164.8 164.4 163 161.8 158.9 164.1 165 164.8 166.7 158.8 149.9 140.9 138.8 137.5 134 130.6 128.6 125.6 123.6 125.7 125.5 127.4 132.7 132.1 133.8 134.1 132.9 128.1 127.1 126.6 125.8 110.2 105 124.8 137.3 142.6 149.4 150.9 151.3 157.1 161.7 169 175.9 174.9 191.6 209.8 212.3 238.4 257.8 275.4 293.3 305.7 314.6 322.1 319.8 318 330.6 344.2 351.7 347.4 331.8 313.5 296.5 275.1
326.5 336.1 343.1 345.1 344.7 341.9 336.5 329 320.6 312.4 302.3 289.1 284.9 275.7 271.9 264 253.9 247.8 238.9 229.8 237.3 249.5 268.3 283.5 302.4 321.2 330 338.9 350.2 352.8 356.2 350.8 351.7 357.4 358.1 355.5 357.6 361.4 365.1 363.4 358.1 352.3 345.8 339.3 331.8 324.2 315 305.5 294.3 283.3 275.6 269.1 262.4 259.1 251.1 244.8 238.6 233.1 228.1 221.6 213.1 207.2 193.7 186 176.1 176.3 170.1 163.1 157.6 153.1 149.7 143.6 142.5 141.7 140.7 141.6 150.1 164.4 180.7 182.4 189.4 195.8 203.7 214 221.2 223.1 218.5 218.1 218.6 218.7 216.7 214.8 209.3 205.2 200.8 197.2 194.9 189 187.8 182.7 179.3 173.8 167.3 159.3 152 142.5 138.6 132.4 125 115.8 107.1 98.3 91 82.6 65.3 73.8 84.3 90.8 95.5 104.1 106.8 115.2 120.2 125.8 137.5 146.8 151 155.8 157.9 160.6 162.9 163.1 162.9 161.5 161.4 161.7 162.3 162.3 160.2 157.1 155.9 160.4 163.2 164.7 165 155.1 147.1 140.3 137.3 134.3 130.9 129.1 127.2 124.5 126.1 113.6 123.7 125.1 127.7 129.4 130.6 131.7 127.2 126.2 126.4 126.2 127.4 120.8 107 132.5 141.8 147 151.4 151.4 151.5 154.9 165.5 170.6 177.8 173.9 195.3 201.8 226.7 246 260.3 278.6 295.1 307.9 318.5 319.5 313.7 294.9 311.4 321.2 325.8 317.4 298.5 281.7 266.4 252.3
318.5 326.8 332.9 336.7 337.8 336.5 332 327.3 319.9 312.2 300.7 290.3 285.8 279.4 270.8 263.9 255.3 247.8 237.2 233.5 237.2 249.7 266.9 284.3 304.4 322.8 331.6 341.1 349.5 353.8 352.5 351.2 346 349.7 350.2 348.1 348.9 352.5 351.8 351.7 349.2 345.6 342.3 337.2 331.7 323.3 313.8 305 294.7 284.7 277 271.9 266.1 262.2 254.3 248.4 243 238.3 232.8 226 219.7 211.6 198.1 188.1 178.2 177.8 166.6 165.9 159.4 154.6 149.3 143.9 141.9 141.1 140.6 141.1 150.3 165.2 174.3 176.6 187.3 196.9 205.6 215.6 221.8 221.3 217 214.8 213.3 213.6 214.2 211.9 207.8 203 199.3 196 194.3 189 185.6 182.9 179.2 172.9 167.6 158.3 150.8 142.2 136.4 130.1 119.9 112.1 101.6 92.4 83.2 68 69.8 77.6 87.6 91.3 95 102.6 107.9 114.4 120.3 126.4 142.1 147.7 151.3 156.1 158.1 161.6 163.3 164 162.4 161.2 160.6 160 159.5 157.9 157 155.4 155.4 156.8 161.2 163 160.9 153.4 145.3 138.3 135.1 132.3 130.5 128.8 126.5 120.4 124.4 121.1 121.8 123.3 125.5 128.3 129.1 128.4 114.2 104.4 124.4 125.8 124.7 118.1 111.9 134.4 144 146.9 150 152 153.6 157 160.4 165.1 173.5 181.4 192.2 213.1 233.3 251.5 267.1 284.8 297.6 312.5 320.4 320.8 302.6 279.7 283.8 292.4 296 285.9 269.3 255.1 241.4 232.5
311.8 319.5 324.5 329.5 332.3 332.4 330.6 329.2 323.9 316.9 303.2 295.5 288.3 279.8 271.5 264 256.2 246.2 235 230.9 234.2 248.5 267.7 287.5 304.1 319.7 331.7 342.4 347.9 346.7 347.7 345.5 341.6 343 343.2 341 341.7 341 339.9 339.8 339.4 338.2 335 331.1 326.5 320.4 312.9 305 296.4 287.5 281.8 275.4 269.3 262.6 256.8 250.9 246.6 240.8 235 229.3 223.3 214.7 202.1 189.4 184.7 182.4 172.7 168 159.7 155.2 149.6 144.2 141.2 140.6 140.7 140.7 144.7 161.4 165 173.8 187.5 196.8 205.5 215.8 220.7 219.4 216 213.9 212.4 214.2 214.7 209 206.4 202 197.9 196.7 192.1 188.3 186.6 179.7 173.9 168 161.7 153 147.7 138.9 134.9 128.3 116.1 105 94.4 85.4 73.9 68.9 81.8 82.6 88.4 92.3 95.7 97.7 109.1 114 120.9 130.4 143.4 146.3 151.8 155.7 161 163.9 165.8 165.6 163.6 160.4 158.9 159 159.4 158.6 157.6 155.2 153 151.8 159.1 161 158.5 152.3 142.2 136.9 134.5 131.9 130.2 128.5 126.8 122.4 120.6 121.5 110.3 121.2 123.6 126.4 128 128.2 104.3 96.2 98.6 97.2 101.8 105.5 129.9 136.4 145 148.1 150.2 152.5 154.5 160.1 165.8 172.6 181.6 187.1 202.8 224 239 256.7 272.8 287.5 299.5 313.8 322.5 321.3 303.8 277.1 255.2 263 268.5 256 242.8 236.2 224.2 224.2
305.3 312 317.9 322.9 326.6 330 332.3 333.6 331.6 321.8 311.7 302.2 293.5 283.2 272.5 265.3 256.8 242.7 236.1 228.5 232.8 249.6 268.9 287.7 302.3 320 336 344.2 343.4 347.5 344.1 337.5 338.6 333.3 331.4 332.9 332.6 328.2 327 327.4 326.7 327 326.6 322.4 319 314.6 310 304.4 297.3 288.2 281.8 276.5 273 268 261 256 249.7 243.5 236.3 233 227.5 217.9 205.6 194.3 193.7 187.9 177.9 169.5 160.6 155.3 149.9 144.4 140.5 139.9 140 140.4 151.9 156.3 168.6 179.9 189.7 197 204.8 215.9 222.5 218.6 215.6 214 212.6 212.9 210.5 205.3 205.3 202.1 197.9 196.3 189.2 184.8 182.6 179.7 175.7 170.8 161.8 151.3 142.9 137.1 133.4 125.1 113.3 99.7 88.8 81.3 64.8 76.3 82 82.2 86.6 97.8 96.4 98.6 111.2 116.2 124.9 137.1 140.6 144.9 151.2 157 162.7 167.9 170.4 170.7 168.2 164.5 161.4 157.8 159.1 159.3 158 155.9 152.6 148.9 156.5 159 154.9 150.2 141.3 137.8 135.8 130.7 128.7 126.8 124.9 123.4 120.3 114.9 111.6 121.2 121.4 123.1 123.7 113.1 97.5 94.7 102.8 115.9 123.2 135.1 140.8 146.3 148.1 149.5 150.5 153.1 156.6 163.6 171 178.2 188.5 198.1 212.8 226.8 242 258.5 274.9 288 299.9 313 323.7 322.4 305 276.8 253.1 243.7 241.4 232.6 224.7 221.6 222.6 227
297.5 303.5 311 316.2 322.3 326.5 330.8 336.3 335.9 326.4 315.9 311.4 299.7 286.7 273.4 264.4 255.5 238.2 234.4 228.4 230.5 246.8 268.8 286 306 320.3 334.1 335.6 335.8 339 338.6 333.8 331.9 325.2 320.7 318.1 318.5 316.4 314.6 314.6 314.7 314.9 314.8 314.3 311.4 307 302.8 298.1 292.5 287.1 282.2 277.2 274.2 270.2 263.9 257.7 252.2 245.3 241 235.3 229 219.6 206.9 197.8 199 185.2 177.4 171.3 161.4 155 151 145.2 140.2 139.5 139.7 141.6 149.7 161.2 173.5 183.5 190.6 196.8 203.8 215.3 220.6 217.9 214.7 213.7 210.1 209 206.8 204.5 203.9 200.9 196.8 193.1 187.1 185.5 182.1 178.9 174.8 170.5 160 149.7 144.1 136.1 129.7 121.3 113.2 100.4 84.8 78.7 63.5 74 79.5 81.8 88.7 100.5 100.5 98.1 109 117.4 130.1 139.4 142 144.5 151.2 158 164 170.5 173.4 174.3 171.9 167.4 163.9 161.7 157.5 157 157.8 156.3 152 147.6 150.3 155.3 152 147.7 143.9 139.1 134.4 129.7 126.8 124.9 123.5 122.4 120.6 112.3 116.7 120.5 119.1 118.6 110.5 93.7 94.5 96.3 123.8 127.7 133.3 138 142.7 148.2 149.6 148.9 150.6 155.4 158.4 166.8 175.6 183 192.1 204.6 215.9 229.1 243 258 272.5 284.2 297.9 308.7 317 319.4 300.6 269.6 239.9 227.9 224.1 218.8 222 224.8 231.6 236.5
291.4 296 304.1 310.8 316.9 321.9 327.9 334.6 334.5 328.8 318.7 315.9 301.9 290.6 275.8 264.6 254.7 241.4 230.8 227.8 228.5 244 263.3 281 302.1 308 319.6 324.9 325.1 327.1 328.4 327.5 325.6 315.8 313.4 308.3 308 304.2 302.9 303 302.7 302.7 302.3 304.8 302.8 300.4 296.1 293.1 288.5 283.6 279 275.4 273.1 269.9 265.7 260.4 253.8 247.6 242.9 236.6 230 221.9 208.8 205.4 200.5 186.4 179 172.2 164 158.8 153.2 147.2 140 139.2 139.6 144.7 151.1 165.3 174.2 182.2 187.8 194.2 202.4 211.5 217.7 216.2 214.2 211 209.3 209.4 205.2 202.1 201.6 199.4 193.8 190.2 187.5 186 181.2 177.4 174.9 169.5 160.1 149.7 141.9 135.8 130.6 120.5 107 92.6 79.5 71.3 63.2 76.7 79.8 83 88.1 99.2 95.4 96.2 111.3 120.4 132.1 136.4 140.5 145.5 151.6 157.6 165.3 175.1 177.6 177.4 173.7 169.6 166.1 164.4 162 156.4 152.2 152.5 150 145.9 146.5 150.6 150.4 145.6 142.6 135.9 130.7 128.5 124.9 123.4 122.3 121.6 120.7 117.1 108.8 118.3 116 112.6 94.5 123.1 125.9 120 119.7 128.7 135.1 139.5 144.5 148.9 149.9 148.4 150.5 154 159.1 167.1 178.6 187.7 196.5 208 216.4 230.2 244.7 257.8 268.3 281 292.5 302.5 309.9 307.5 287.1 255.8 226.7 220.6 217.4 224.4 229.1 234.7 243.6 254.6
287.4 290.3 296.2 304.3 311.4 316.8 322.5 326.8 327.7 326.8 323.4 316.5 302.8 289.9 274.3 270.9 258.2 244.9 233.5 227.6 225.6 237.4 257.4 274.1 283.9 293.5 306.4 311.2 314.5 316.3 315.4 316.8 317.1 312 306.7 296.6 297.1 293 291.1 289.6 289.6 290.7 293.1 293.2 292.8 292.7 289.9 287.7 284.3 278.8 273.9 272.9 271.4 269.5 264.8 259.7 253.5 248.9 244 237.6 230 222.2 213 203.5 196.8 190.8 184.7 175.6 170.8 164.1 155.9 151.3 143.1 138.7 139.8 145.4 151.6 162.8 172.4 179.3 185.5 191 199.9 208.8 214.5 212.7 210.9 207.7 209.7 207.7 202.6 199.1 197.9 192.2 192.6 191.6 189.4 183.4 178.9 176.6 174.3 167.6 159.8 151.3 141.9 135.1 128.2 118.1 105.7 86.5 77.1 62.3 78.4 77.1 77.7 83.7 93 95.1 92.8 103.2 116.8 122.4 130.6 134.2 140 145.9 152.2 159 167.1 178.1 181 179.3 175.6 171.6 166.8 164.4 161.5 157.6 152.8 148.7 148.1 147.3 142.3 146.4 147.5 145.6 140.4 134.7 129.6 125.4 123.5 122 121.2 119.9 119.4 117.2 104.1 112.8 110 95.2 104.8 123.4 126.6 126.3 128.8 132.2 136.2 140.1 144.1 148.2 148.2 147.8 150 155.6 160.8 169 180.6 190.9 201.1 209.8 217.8 227.9 240.2 251.8 264.2 276.1 286.6 295.3 296.5 288.1 264.5 240.5 216 216 224.6 234.1 239.8 249.4 260.7 274.1
283.4 287.3 290.7 297.1 305.2 312.5 317.8 319.6 317.8 316.5 318.6 309.7 304.8 293.2 289.6 281.1 263.9 247.5 236.2 228.9 222.9 230.5 248.9 264.3 272.6 278.4 286.7 296.8 301.9 303.9 305 307.1 310.6 302.7 300.9 293.6 285.2 283.2 279.4 279.1 280.6 283.7 285.2 285.2 285.1 284.6 284 282 279.8 275.4 270.8 266.4 266.7 264.4 261.7 258.2 253.4 249.1 243.5 237.1 230.8 221.2 213.6 205.3 203.8 195.2 181.4 175.9 174 166.1 161.6 156.4 150.2 141.6 138.6 143.2 152.1 161.3 172.5 179.2 185.9 194.1 198.7 208.3 210.3 209.7 206.4 207.8 207.6 205.8 202.6 197.4 194.9 193.9 195.3 193.5 187.6 180.4 178.6 175.2 170.8 167.1 160 148.8 138 132.6 127.6 117.8 100.8 82.5 60.2 76.5 80.6 80 81.4 88.4 107.6 95.2 91.3 103.5 120.2 122.1 128.8 133.4 138.8 145.4 152.1 161.5 169.9 181 183.1 180.7 177.5 173.7 168.5 164.7 160.7 157 153.8 149.2 145.5 145.9 140.1 141.1 143.7 143.8 139.1 133.4 128.2 124 121.2 120.3 120.6 118.8 116.4 114.8 109 105.1 103.3 95.4 117.9 125.1 128.2 128.2 132.6 137.1 136.9 139.7 144.3 147.3 146.7 147.3 150.1 155 159.9 171.9 181.4 190.3 201.8 212.2 222.5 232.3 245.9 258.1 268.3 276.5 281.9 288.8 275 255.5 239.6 224.8 216 216 227.4 240 250.3 264.6 278.6 289.1
279.5 282.6 285.7 292 300.1 308.4 312.5 313.1 314.2 313.7 315.9 318.5 314.2 307.6 305.6 295.5 268.5 249.6 239.7 229.7 224.6 223.7 238.8 254.1 262.4 267.4 273.5 281.2 287.6 289.8 293.3 295.1 297.5 296.3 294.1 286.9 279.2 273.2 271.5 272.7 273.9 277 279.4 279.5 278.3 278.4 278.1 276.4 274 270.9 266.7 263.7 260.8 257.7 258.1 255.5 252.1 247.3 241.9 235.9 226.9 219.1 213.8 208.2 201.9 189.3 183.2 179.4 177.6 171 165.9 160.7 155.1 148.8 138.6 138.8 149.4 162.5 172.7 177.7 188.8 198.7 200.7 204.7 206.7 208.8 204.3 203.8 205.6 207 199 196.1 194.7 195.1 193.1 189.1 185.1 180 177.5 174.1 170.1 165.7 157.9 144.8 134 130.1 125.5 112.3 97.3 78.2 63.9 79.9 81.3 80.9 82.6 103.9 105.8 94.8 90.7 104.8 118.7 120 128.6 132 136.9 143.4 150.3 160.6 170.5 177.7 181.6 179.4 177.3 174.6 169 164.1 159.8 156 152 147.6 143.4 141.7 139.1 138.1 139.9 141.1 137.9 132.2 126.7 122.9 119.6 118 119.5 117.9 114.7 110.9 106.8 106.9 96 98.9 119.7 126.8 129.3 130 133.5 136 138.1 142.7 146.8 147.8 147.2 149 151.8 156.4 161.5 172.9 182.3 195.4 205.4 217.8 228.8 241.9 256.4 268.2 277.6 277.4 277.3 271.7 254.7 241.7 229.1 216 216 221.7 235.6 248.9 263.7 276.9 291.3 300.7
275.4 278.4 281.9 287.6 294.1 302.3 305.9 309.8 314.2 319.5 327.5 331.4 321.9 320.4 315.8 299.3 270.1 253.1 241.4 232.9 225.3 220.4 229.2 244.5 252.1 257 261.3 268.1 271.7 278.2 282.4 287.4 284.9 286.6 284.9 279.4 273.4 266.5 264.1 266.4 269.7 272.1 276.3 278.3 277.6 276.6 273.5 271.2 270 266.5 264.7 261.7 258.5 252.7 253.4 252.4 249.3 245.3 240.3 235.4 227.9 222 216.7 213.1 202 192.3 190.8 184.1 176.2 168.1 163.1 160.1 157.4 151.4 147.6 136.5 143.4 158.7 167.1 179.3 191.1 198.3 198.4 202.5 206 204.6 201.3 201.5 202.7 201 195 193.5 193.5 191.1 188.7 185.9 182.7 179.2 176.2 172.9 168.2 163.6 154.3 143.5 132.5 126.5 122.1 113.7 100.8 82.1 57.9 78.9 78.1 80.1 82.8 96.2 102.1 89.9 88.6 103.8 115.5 117.4 127.9 132.2 136.5 141.4 148.6 156.2 164.9 174.6 178.5 177.6 175.2 171.7 167.1 162.1 158.7 154.7 150.2 145.7 141.2 139.2 137.5 133.6 135.7 137.5 135.9 131 125.4 121.5 118.2 116.3 117.4 115.9 112.5 107.9 108.2 99.1 92.1 105.6 119 125.3 127.7 130.1 133.6 135.8 141.6 146.4 149.7 151.9 148 152 153.7 154.7 162.3 176.5 186.6 200.2 212.9 226.7 240 256.9 271.3 281.1 288.2 290.2 280.3 256.3 241.2 230.8 219.5 216 218.1 231.1 248.5 263.1 276.6 289.3 303 312
272 274 277.8 282.2 288.9 296.3 301.7 305.9 313.2 322 331.5 335.2 330.5 325.9 323.7 296.6 273.2 254.8 244.9 232.5 226 219.8 222.6 232.4 241.6 244.6 250.8 253 257.2 265.8 272.4 275.3 276.7 277.7 275.9 271.3 266.4 262 259.3 263.5 267.6 270.2 274 276 276.5 274.1 270.5 269.6 265.3 264.1 264.8 258.6 255.9 249.6 246.6 247.4 244.7 241.2 238 237 230 223 217.6 210.4 202 195.6 194.5 182.1 172.9 165.7 163.2 160.1 156.8 152.3 145.3 141.9 138.2 154.8 166.8 180.3 195.1 198 198.6 202.1 202.4 198 197.9 199.8 200.4 198.5 198.5 193.5 193.6 189.1 185.8 183.6 181.3 178.5 175.2 170.7 164.8 161.3 155.9 144.8 133.3 128 119.2 109.4 95.9 81.5 71.1 72.5 79.5 79.2 83.5 90.7 97 88.3 91.8 98.1 112.3 116.5 126 129.9 133.8 137.4 146.8 155.1 164.2 173.8 175.9 174.1 171.8 168.9 164.4 158.5 155.8 153 148.4 143.1 137.3 136.6 135.8 133.2 132.3 133.7 133.2 129.8 123.3 118.8 117.1 116 114.8 113.3 109.2 105.3 104 89.1 102.4 112.2 115.2 122.4 129.7 135.7 139 136.8 143.3 146.9 149.7 152.7 154 150 151.1 154.5 164.4 177.2 192.2 205 221.3 238.6 255.4 269.7 283 292.8 302 298.7 285.2 256.1 235.7 224 216 216 224.8 240.6 258.8 275.2 290.4 302.4 315.2 324.8
268.5 269.3 274.8 278.4 284.2 291.4 299.3 304.7 312.2 324.3 333.7 337.4 337.3 332.6 323.3 297.6 276.1 260.6 248.5 232.2 224.3 220.7 219.6 224.2 228.2 234.5 238.5 239.9 245.7 253.5 259.3 265.2 265.4 264.3 265.8 262.5 259.3 256.2 255 260.2 262.8 265 265.7 272.8 272.6 270 269.4 266 264 262.3 257.8 255.3 252.6 243.5 241.7 241 238.5 236.2 233.6 233.6 227.9 220 216.3 210.4 202.1 193.8 187.4 176.8 171.5 167 164.5 162.1 157.1 152 145.2 136.7 139.5 165.2 173.1 182.8 194.7 198.7 201.1 205.4 202.8 198.4 197.2 196.8 194.3 195.2 196.9 192.3 190.7 187.4 184.3 181.6 179.2 176.9 174.3 170.3 163.2 157.9 153.1 141.2 130.4 123 116.2 105.1 91.8 83 75.4 69.5 80.6 79.8 84.6 94.9 97.4 87 89 95.5 110 116 123.8 127.3 131.5 135.8 144.7 155.2 166.9 173.9 172.1 170.5 167.9 165.1 161.2 157.2 152.5 150 147 142.2 134.1 133.1 132.7 130.7 128.4 129.6 130.9 128 121.8 117.7 116.2 115.1 111.7 107.3 105 102.9 97.3 97.4 106.3 112 119 125.6 133.1 137.7 141.9 141.8 141.5 146.5 149 151.9 153 150 151.7 153.7 165.4 185.2 197 208.6 228 248.6 264.4 278.1 290 301.1 309.8 304.6 283.5 254.7 236.7 222.9 216 216 229.3 245.8 265.3 282.5 296.9 310 322.2 335.7
264.2 265 269.8 274.3 278.1 286.2 295.6 304.2 311.9 325.5 336.7 339.3 341.5 337.8 327.2 299 280.9 266.3 249 233.6 226.2 220.9 217.9 218.9 220.3 222.4 229.5 231.4 236.9 245.1 248.3 249 254.8 257.5 257 256.1 253 252.3 255.1 259.3 264.1 262.5 262.3 266.6 267.7 266.5 263.9 258.5 259 257 253.4 252 246.6 240.5 239.2 235.3 233 230.6 228.9 229.9 225.3 216.4 213.4 211.1 205.4 197.7 186.7 180.9 172.9 167.8 165.1 161.8 156.1 148 135.6 140.7 162.2 173.7 176.6 187.7 195.5 201.2 203.7 203.8 200.6 195.4 194.5 194.2 192.9 196 193.8 190.8 190.7 187.6 184.1 179.7 177.2 174.8 172.4 170 164.2 154.4 148.6 138.1 126.9 119.5 111.9 100.5 91 83.9 77.3 69.1 78.5 80.8 92 92.1 87.1 92.2 88.5 95.8 107.5 113.3 118.3 127.3 130.8 134.8 143.8 154.7 167.3 171.1 169.6 167.6 164.1 161.9 157.9 155.7 151.7 147.7 145.1 141 132 130.8 130.3 128.9 125.6 125.9 127.9 125.9 121.3 116.6 115 112 107.7 103 102.8 98.9 88.1 92.4 99.7 111.9 122.2 125.5 135.7 140.6 141.4 143.4 142.5 147.3 149.1 151.2 149.3 150.4 150.6 154.3 172.6 184.8 199 211.7 233.2 256.4 271.5 284 295.7 306.7 316.2 316.4 291 261.6 240.8 223.2 216 216 225.4 242.7 264.9 282.3 299.3 312.5 328.1 342.8
264 261 266.8 271.2 274.7 283.1 292.3 302.7 314.5 326.6 336.4 341.5 344.1 341.8 327.5 308.6 288.6 272.9 251.9 237.2 229.7 222.6 219.2 213.7 216.8 217.1 221.2 225.1 229 238.4 240.1 239.7 244.2 249.9 248.3 248.7 248.7 254.1 258.3 257.8 258 257.5 258.3 260.8 261 258.9 257.6 254.8 252.5 251 247.6 244.8 240.1 235.6 235.8 232.9 228.9 227.7 222.9 223.4 220.1 218.1 211.9 211.5 203.9 196 187.7 177.8 168.1 162.3 162.6 159.6 153.6 142.2 136.8 153 164.7 172.9 181.3 189.2 197 201.2 200.6 199.9 199.7 197.2 193.1 191.1 190.4 192.1 188.2 189.5 188.5 185.7 182.7 178.6 175.1 172.8 170.4 167.6 162.3 154 144.9 135.4 121.4 116.3 109.9 99 90.2 85.7 77.1 66 76.6 79.6 92.5 93.1 87.1 88.7 88.5 98.2 107.6 110.6 120 127.6 128.6 133.3 140.9 152.3 160.1 167.7 165.3 163.3 161.3 158.3 155.4 153.1 148.8 144.9 143.4 140.3 131.7 128.3 127.8 123.4 122.7 122.1 123.6 123.2 119.9 115.6 112.3 107.7 103.2 101.4 101 87.4 98.7 103.7 94.4 111.7 99.4 105.5 121.9 129.5 124.1 119.7 123.7 138.2 148.5 150 148.9 151 149.3 161 168 179.8 201.5 212.4 237.3 259.4 275.6 288.7 300.7 310.4 322.7 327.1 299.6 270.5 244.1 225.4 216 216 216 227.8 244.3 272 297.1 313.5 330.3 348.9
263.5 263.2 263.6 268.5 272.8 279.4 289.9 304.2 316.3 327.5 339.4 344.1 346.5 340.9 328.8 312.6 294.9 275.9 258.8 241.4 231 225 218.1 215.6 210.4 220.1 219.1 220.1 226.9 238.2 235.3 235 238.4 241.6 243.6 244.5 250.1 253.7 260.2 256.7 259.9 259.9 259.1 253.7 252.8 249.4 252.2 250.8 244.7 243.5 241 236.6 231.5 229.2 228.8 227.3 224.9 222.2 217.9 217.3 216.2 215.8 209.3 207.4 201.3 194.9 185.8 171 163 161.6 160 156.7 148 135.6 141.5 153 164.9 180 187.6 190.5 196.8 199.4 200.1 199.6 199 198.4 197.6 193.3 189.9 188.9 188.6 188.5 186.6 182.9 181.4 177.4 173.1 170.7 168.1 165 158 152.5 142.8 132.4 120.1 114.4 109.4 99 90 85.3 78.5 66.2 72.4 78.5 94.6 90.6 86.1 85.9 90.4 97.6 106 109.6 118 125.3 127.2 130.7 135.5 146 159.9 163.8 161.8 160 158.2 155.3 153 150.6 146.6 142.7 140.7 138.1 131.9 124.6 125.9 121.6 121.1 120.9 120.2 119.6 115.5 112 108.3 104.4 99.4 100.4 92.9 90.6 108.2 114.9 119.6 116.9 123.6 127.4 119.3 115.5 122.3 133.7 139.8 130.3 134 142.6 150.2 150.3 149.4 154.4 168.3 182.5 201 216.1 234.1 257.4 274.1 288 300.3 311.9 322.9 327.9 310.9 279.6 251.7 228.1 216 216 216 216.8 242.9 268.1 288.5 311.3 327.2 347.3
262.6 260.7 262.7 265.9 270.2 277.6 290 304.7 318.8 332.3 341.7 345.9 349.5 343.8 330.2 315.5 298.6 282 264.2 248.5 236.7 224.8 218.1 214.4 211.6 210.1 219.4 219.6 221.8 231.8 228.3 228.5 234.2 238.2 238.5 249.2 253.3 257.9 260 256.3 261.4 260.8 256.8 248.7 244.9 243.1 244.5 243.1 238.2 234.6 233.5 229.9 225.2 223.2 222.9 221.3 222.1 218.6 214 210.8 211.2 209.7 206.9 203.6 199.2 191.8 182.1 168.9 163.7 160.4 159.1 152.9 144.9 134.1 143.8 152.9 172.3 185.7 189.8 190.5 195.7 199 199.4 199.1 198.7 197.6 194.7 192.8 189.8 188.4 187.1 185.5 183.2 182.6 179.2 175.5 171.2 168.1 165 162.2 154.3 147.2 139.8 127.9 120.1 116.1 107.3 98.1 89.7 85.3 79 56.4 61.3 72.3 89.6 88.5 85.7 82.5 88.1 94.5 101.6 108.6 116.7 121.1 124.7 127.9 132 141.3 155.1 159.8 158.3 156.9 154.7 152.1 150 148.2 145.2 140.4 137.9 135.5 132.1 123 119.4 118.7 119.1 117.6 116.9 115.4 111.7 108.8 104.9 101.4 97.9 90.9 95.6 103.8 112.9 116.6 120.8 125.5 127.1 135.3 135.6 139.9 142.5 146.5 148.3 145 136.7 135.7 149 146.4 152.7 156.3 171.2 186.2 199.3 214.1 229.8 252.6 269.4 284.1 297.4 310.2 318.5 324.1 318.6 293.2 264.8 237.2 216 216 216 216 233.8 255.5 280.8 294.6 316.3 335.5
261.7 258.2 261.9 262.8 268.7 278.1 289 304.3 320.5 333.8 342.5 348.6 354 343.9 335.3 318.7 305.3 294 273.5 262.2 244.9 231.3 221.6 213.7 210.7 208.6 211.7 218.1 218.4 224.3 221.2 226.6 230.9 232.4 237.1 245.9 252.1 256.1 256.6 256.6 260.3 259.3 247.7 247.3 244.3 239.9 238.8 235.7 230.7 226.7 224.1 221.7 218.2 216.9 216.2 215 216 215.9 212.4 207.7 205.2 204.6 202.3 200.5 194.4 188.7 177.5 170.4 167.1 153.7 156.5 150.4 138.4 136.9 150.3 159.1 176.2 186.4 192.3 190.7 194.5 196.7 197.6 198.4 198.6 197.8 195.6 193.5 189 186.7 186.4 183.9 181.3 180.9 178.9 174.2 169.4 164.9 161 157.6 151.4 145.2 137 126.1 118.9 114.1 105.5 95.9 88.7 85 83.6 72.6 69.1 57.4 70.5 86.6 79.1 83.5 89.6 95.5 101.6 108.3 113.1 117.6 121.4 125.2 128.8 136.7 152.5 155.3 155.2 153.8 151.5 148.9 147 145.4 142.9 138.6 135 132.2 129.7 124.1 117.1 114.8 117.3 115.8 113.6 110.4 107.8 106 103.2 99.1 96 86.8 98.1 103.5 109.5 115.8 123.7 130.4 135.7 137.9 139.1 143.7 146.5 149.2 150.4 150.6 149.8 146.7 147.2 152.6 158.4 165.4 173.2 183.3 195.8 210.5 223.6 242 262 278.9 292.1 305.3 313.7 317.5 316.3 305.3 280.2 249.7 223.1 216 216 216 220.5 238.4 257.4 276.5 297.2 318.5
262.2 259.6 257.5 260.5 267.6 276.4 287.5 305.3 320.1 331.6 340.6 353.9 360.5 354.2 339.1 328.6 317.1 300.3 282.4 272.7 255.3 243.7 228.2 216.4 209.9 208.1 210.5 213.6 216.1 214.4 216.9 225.9 231.3 235.2 237.2 241.6 249.7 252.8 257.2 256.7 260 256 244.1 247.1 242.9 236.6 232.5 230.2 225.9 220.5 216.2 213.8 212.4 211.5 212.8 208.2 208.7 209.3 209.4 206.1 200.3 199.8 198.2 195.8 192.2 184 178.3 167.9 152.4 155 151.9 146.3 132.5 146.4 153.5 165.9 179.7 188.1 192.6 189.4 191.9 194 195.6 196.7 196.9 196.1 194.7 192.1 187.5 187.2 185.6 183.4 181.4 179.4 177.2 174.5 168.2 163.6 159.2 154 148.9 143.9 134.6 124.7 114 110.8 105.4 95.3 90.6 91.5 88.5 81.3 78.4 73.9 61.7 60.6 60.5 71.5 89 95.7 103.5 109.9 111.7 115.1 119 122.7 125.9 131.5 146.8 150.2 151.6 150.6 148.8 146.1 143.3 141.8 140 136.7 132.5 128.9 126.4 124 118 108.7 114.7 113.7 110.6 106.9 103.7 101 100.8 97.5 91.8 93.2 104.8 111.7 117.1 120.3 127.4 127.7 135.8 138.2 142.2 145.1 148.5 150.9 152 152.2 150.7 146.4 148.7 154.7 160 166.9 175 181.8 189.3 204.2 217.6 235.7 257 273.5 286.3 298.2 305.4 310.3 311.8 308.3 291.7 262.6 235.8 216.3 216 216 216 216.7 241.2 259.6 276.3 297.9
259.3 254.8 246 258.4 263.5 272.1 285.2 301 316.2 327.4 339.3 352.6 361.6 360.9 344.2 334 323.8 309.7 290.6 280.6 268.8 250.7 239.6 223.9 213.6 208.4 210.3 212.1 213.8 211.2 213.7 223.5 230.9 234.6 233.7 241.8 248.6 249.6 258.7 260.1 259.5 253.4 243.1 245.2 239.4 235.1 232.1 227.3 220.7 215.9 211.9 208.6 206.6 205.2 204.6 203 202.3 204.2 204.8 201.8 199.3 195.4 196.4 192.1 190.8 181.2 171.5 165.9 148.3 157 148.1 141.7 133.1 152.7 157 170.6 184.3 191.9 194.4 189.6 188.5 189.1 189.7 192.1 193.1 193.3 192.5 191.1 188.5 187.7 182.5 181.9 179.2 177.7 174.5 172 167.2 162.3 157.5 152.8 145.7 139.6 133.8 121.3 116.6 112.6 101.9 95.8 91.5 91.2 90.5 83.7 79.2 76.9 76.1 73.9 57.9 55.9 84.2 95.7 103.4 108.1 109.6 112.1 116.5 120.2 123.7 127.5 138.9 143.7 147.5 146.8 145.8 143.1 140.1 137.6 136.9 134.2 130.5 126.6 123.2 121.9 116.8 110 110.2 110.5 105.4 100.8 99.5 99 99.6 96.7 87.7 96.6 108.5 118.5 120.6 123.8 128.2 132.4 136.9 140 143.9 147.5 149.8 152.1 153.4 152.3 152.2 145.3 145.9 157.9 163.9 166.9 173 180.2 190.6 199 214 225.1 249.8 267.2 279.8 289.7 298.2 301.9 304.5 305.9 302.5 277.1 253.8 230.9 216 216 216 216 216 237.4 260.2 281.3
