ncols 200
nrows 99
xllcorner 550000
yllcorner 103500
cellsize 50
13.7 15.2 15.3 14.6 13.9 12.9 12.7 13 13.4 13.9 14.5 14.4 14.4 14 13.8 14 14.4 14.5 16 17.5 19.2 19.6 18.5 17.5 17.3 15.9 15.6 15.8 15.6 15.4 15.2 15.3 16.7 18.1 20 21 21.1 21.6 22.5 23.6 25.8 27.6 27.5 26.9 25.4 24.4 23.4 23.4 23.7 24 22.5 21.1 20 19.5 18.5 17.9 17.9 17.3 16.9 15.8 16.5 17.3 17 18 18.4 18.4 18.3 17.8 16.8 15.8 14.5 12.9 12.8 13.7 14.1 15 14.9 14.4 13.9 12.6 10.9 14 15.4 17.1 17 15.9 13.9 11.6 9.4 8.9 8.1 10.8 13.1 13.7 14.3 15 16.1 17 15.5 10.7 11.2 12.8 13.7 11.3 11.5 17.1 18.8 19.3 18.7 19 20.2 21.8 23.8 25.4 25.5 24.5 23.3 23.7 24.1 23.5 20.6 18.5 16.9 16 15 15.4 15.1 12.7 16.6 16.9 16.7 18.4 20.2 21.1 22.4 22.6 23.8 26.5 29.8 33.5 37.8 39.5 39.9 37.5 34.9 30.5 27.8 26.1 26 27.1 26.3 26.4 27.9 26.7 27.2 27 25 25.7 25.1 25.9 23 20 19.1 18.7 19.4 20 21.2 22.4 22.5 21.9 21.1 19 14.2 18 17.7 17.6 17.6 17 16.7 16.9 17.7 16.6 16.6 16.6 15.7 15.3 14.1 12.6 10.6 7.6 6.6 5.6 4.9 4.4 3.8 3.3 5.3 3.5 3.7 3.3
13 14.3 14.7 14.5 14 13.4 13.5 14 14.3 15 15.7 16.4 15.9 15.2 15 14.7 14.8 15.2 17 18.8 19.7 19.2 18.7 18.1 17.3 15.9 15 15.8 15.9 15.5 15.5 15.7 17.3 18.4 19.2 19.8 20 20.5 21.8 23.3 25 26.5 27.7 26.9 25.4 24 23.2 22.5 22.6 23 22.5 21 19.7 18.5 17.7 17.2 17.1 17.3 16 15.9 16.3 16.5 16.9 17.6 17.6 17.4 17.2 16.8 15.8 13.9 13.8 15.1 15 14.9 15.5 15.5 15.5 15.2 14.6 13.7 9.5 11.9 14.7 15.6 15.4 14.3 12.6 10.8 5.6 8.6 8.3 11.3 14.2 15 15.4 15.8 17.3 18.4 18.6 17.8 16.9 16.2 15.3 15.1 11.5 16.5 19.3 20 19 19.3 21 23.4 26 27.2 28 28.1 26.9 26.8 25.5 23.2 21.4 19.3 18.4 17.3 16.2 16.5 15.6 13.7 12.6 15.4 17.8 18.9 19.7 20 21 22.2 25.4 27.9 33.3 37.7 40.5 41.5 41.2 37.7 32.4 28.4 28.4 28.9 27.9 28.4 26.7 27.6 28.9 26.8 26.2 27.6 26.8 26.1 23.6 23.8 20.9 18.7 20.9 22.1 16.8 15.4 18.2 19.6 20.8 19 19 13.9 16.4 17 16.9 16.3 16.2 16.4 16.3 16.2 16.2 15.9 16.4 16.5 16.5 16.1 15.1 13.1 11.2 8.3 6.7 5.7 4.9 4.4 3.8 3.1 5.3 2.9 3.3 1.9
12.8 13.5 14.3 14.7 14.3 13.8 14 14.9 15.5 16.4 16.9 17.3 17.2 16.4 15.9 15.4 15.6 16.4 18 20.2 20 19 18.5 17.9 17.3 16.5 16.4 16.7 16.5 16 15.5 15.8 16.8 17.4 17.8 18.3 19.3 20.1 21.3 22.6 23.7 25.1 26.5 26.6 25.4 24.2 23.5 22.5 21.7 22.5 22.1 20.5 19 17.9 17.3 17.1 17 16.6 16.3 16.1 16.4 16.5 16.4 16.8 16.5 16.5 16.2 15 13.6 14.9 15.8 15.5 15.6 15.5 15.8 15.8 15.7 15.2 14.8 14.3 11.5 9.9 12.9 13.8 13.5 12.5 11.2 9 9.4 8.3 7.1 12.9 14.8 15.6 16.2 16.7 17.4 18.8 20.4 20.1 18.6 18 17.2 17.4 16.1 11.5 17.2 19.6 19.3 19.5 21.1 23 24.9 26.8 28.3 30.8 30 28.2 25.4 22.7 21.1 18.5 18.9 17.4 17.2 17.1 16.7 16.5 14.2 13.3 17 19.9 21.3 22.7 21.6 23.3 24.3 27.8 33 37.9 40.7 41.6 40.7 36.9 30.9 31.7 31.8 30.9 29 28.6 27.9 27.2 28.3 28.8 27.8 28.1 27.3 26.4 23.4 23.8 23.1 21.3 23.9 24.3 22.9 21.8 19.5 14.2 16.9 15.6 12.5 13.3 14.3 14.9 14.2 13.1 13.5 14.2 14.7 13 14.9 14.6 15.2 15.5 15.6 14.8 13.9 12.5 10.9 9.1 7.3 6 4.8 4 3 2.5 2.1 2.4 1.8 1.7
12.5 13.4 14.2 14.7 14.6 14.2 14.6 15.6 16.7 17.8 18.2 18.6 19.1 18.8 17.5 17 16.6 18 20.1 21.4 21.1 20.2 19.1 18.2 17.3 17.2 17.1 16.8 16.5 15.8 15.7 15.9 16.1 16.4 17 17.9 18.9 19.9 20.7 21.6 22.7 24.2 25.7 26 25.3 24.6 24 22.8 20.9 21.4 21 19.7 18.4 17.9 17.8 17.4 17.2 17.1 16.8 16.4 16.5 16 16.1 15.8 15.6 14.5 15.1 15.1 15.4 16.4 16.6 16.4 16.2 16.1 16.1 16.1 15.7 15.1 14.6 14 12.5 9.9 10.9 12.1 11.7 11.3 10.1 7.8 8.3 8.1 8.7 13.6 14.8 15.6 16.3 16.9 17.3 18.6 20.4 21.3 20.7 19.8 19.3 19.6 17.8 14.2 12.5 16.1 16.7 19.1 20.5 21.6 23.1 25 28.1 31.3 30.8 28.2 25.4 23.1 21.2 20.3 19.5 19 18.5 18.5 17.8 17 16.7 14 14 17.1 20 22.6 23.4 24.9 25.5 27.1 30.5 35.4 39.1 40.3 39.7 35 33.9 35.5 34.3 31.8 30.8 29.3 28.6 28.8 29.4 29.3 29 28.5 27 25.5 23.2 23.3 23.4 24.7 24.5 22.8 20.6 19 16.6 12.9 12.7 13.9 15 12.7 10.8 11.7 11.6 11.2 11.4 10.9 11.6 11.5 12 11.9 12.6 13.1 13.4 13 12.4 11.6 10.3 8.9 7.5 5.7 4.7 3.5 3.4 3 1.8 2.1 1.7 1.5
12.6 13.7 14.4 14.6 14.8 14.7 14.8 15.9 17.1 18.3 19.1 19.8 20.4 20.7 20 19 18.6 20 22 21.1 21.1 20.1 18.9 18 17.9 17.6 17.3 16.9 16 15.5 16.1 15.7 16 16.1 16.6 17.5 18.4 19.3 20 20.8 21.9 23.1 24.5 25.4 25.7 25.1 24.1 22.7 20.7 20.2 19.5 18.9 18.7 18.3 18.3 17.9 17.7 17.6 17.3 16.6 16.3 15.6 15.4 15.5 15.5 15.8 16.2 16.3 16.9 17.1 17.2 16.5 16.1 15.8 15.8 15.7 15.4 14.6 13.3 12.4 9.8 9.8 9.4 8.3 10 10.2 8.5 8.1 9.2 8.8 8 10.9 12.2 14.2 15.7 16.5 16.9 17.7 19.1 20.8 21.6 20.7 20.2 20.1 18.6 16.8 15.2 14.3 16 18.6 19.5 20.9 22.8 24.9 28.4 31.7 31.6 28.7 25.8 23.3 22.7 22.7 20.9 20.5 19.4 18.8 19.9 19 18 16.1 13.7 16.1 19.5 22.5 23.8 25.2 24.9 25.5 28.5 31.9 36.7 40.7 39.4 37.1 37.8 37.7 35.7 34.1 33.9 32.6 31.5 31 31.5 30.7 29.6 27.7 26.7 24.6 26.2 24.6 21.6 22.1 21.4 19.8 16.9 15.2 15.2 15.7 16 16.7 15.7 14.1 12.2 10.2 10.2 9.7 9.5 9.4 9.1 9.8 10.7 9.6 9.9 10.6 11 10.6 10.4 9.7 8.9 7.4 7 5.6 4.8 4.8 3.5 3.1 2.2 2 2.7 2.3
17.6 13.9 14.4 14.8 14.9 14.8 15 16.3 17.6 18.8 19.6 20.4 21.2 21.9 21.8 21 20.5 21.7 21.9 21.5 20.8 20 18.5 18.4 18.2 17.7 16.9 16.1 15.6 15.7 16.8 16.5 16.6 16.5 16.6 17.4 18.3 19.2 19.8 20.5 21.3 22.7 23.8 24.9 26 25.4 23.3 21.8 20.3 19.4 19.4 19.1 19.3 19.3 19.3 18.4 17.8 17.7 17.2 16.5 16.4 15.6 15.7 15.7 16.2 16.7 17.3 17.5 17.9 17.7 17.3 16.7 16 15.5 15.3 15.1 14.4 13.6 13.2 12.1 11.3 11.1 11 10 8.8 8 8.2 7.4 9 10.2 11.5 11.6 11 11.8 13.7 14.2 16.3 17 18 19.8 21 20.9 20.5 20.8 19.4 19 17.5 16.2 17.1 18.6 20 21.4 23.5 26 29.7 33.2 33.2 31.7 27.3 25.2 24.9 24.6 23.4 23.1 20.9 20.2 20.2 18.8 18.3 14.1 14.3 13.7 16 21.1 23 23.5 22.9 24 25.8 29.5 35.6 38.5 38.7 39 39.1 39.2 38.8 38.3 37.3 36 34.2 34.3 32.5 31.8 29.5 27.8 26.4 27.2 26.4 23.4 20.4 18 16.8 16.1 15 14.7 16.8 17.1 17.6 17.2 14.8 13.7 12.5 10.9 9.8 9 8.4 8 8.3 8.8 9.4 8.1 8.5 8.8 9 9.3 9.2 9.1 8 7.5 6.6 5.8 5.1 5.8 4.8 3.5 2.6 2.9 3.1 2.6
11.3 13.5 18 15.3 15.1 15 15.2 16.3 17.8 18.7 19.3 20.1 21.2 22.1 22.8 22.8 22 21.4 21.7 21.1 20.6 20.1 18.6 18 17.8 17.2 16.3 15.9 16.3 16.3 17.4 17.3 17.3 17.2 17.1 17.4 18.9 20 20.6 21 22.4 23.3 24.2 26.1 26.6 24.7 22.6 21.3 20.3 20.4 20.4 20.7 20.9 20.4 19.8 18.9 17.8 17.5 17.2 16.6 16.2 16 15.9 16.5 17.2 17.8 18.4 18.6 18.5 18.1 17.5 16.9 16.8 16.3 15.7 15.1 14.6 14.3 14.2 13.7 13 12.3 12 11.3 10.3 9.2 7.9 4.7 8.8 11.7 13.3 14.1 14.2 12.3 15.2 16.3 17.1 17.3 17.9 19 20.4 20.9 21.7 22.3 21.6 19.5 18.1 18.2 18.6 19.2 21.6 22.1 24.1 26.7 30.1 34.1 34.7 32.3 29.4 26.8 27.2 26.3 25.8 24.2 22.8 21.9 20.6 18.7 17.3 17.2 17.4 16.2 13.6 17.6 21.2 20.9 22.5 23.6 26.1 29.9 34.4 37.8 37.5 38.5 39.5 39.4 40 40.6 40 39 37.5 36.7 34.8 31.4 29.5 28.2 29.3 27.5 24.1 22.5 19.8 20.3 21.7 21 18 17.7 19.8 22.5 22.1 17.4 14.5 13.3 12.1 10.9 9.9 8.9 7.9 7.7 7.5 7.6 7.2 7.1 7.4 7.8 8.2 8.6 9.3 9.3 8.8 8.1 6.5 6.7 5.9 4.5 4.3 4.1 3.5 3.6 3.7 2.3
12.9 12.3 14.6 15.4 18.3 15.2 15.5 16.4 17.3 17.9 18.7 19.4 20.8 22.4 23.1 22.9 22 20.8 19.9 19.6 19.3 19.8 18.9 17.7 16.8 16.3 16.2 16.4 16.8 17.7 18 18 18.1 18.1 18 17.7 19.4 20.7 21.4 22.7 24.1 26.5 27.6 28.6 27.9 25.3 23.5 22.4 22.2 22.4 22.3 22.1 21.4 20.8 19.8 18.7 17.7 17.5 17.2 17 16.9 16.9 17.1 17.7 18.4 19.2 19.5 19.7 19.6 18.4 18.1 18.1 18.3 17.5 17 16.4 15.8 15.7 15.2 14.6 13.9 13.3 12.7 11.9 10.8 9.2 4.7 8.1 10.2 12.4 13.6 14.8 15 13.8 14.9 16.4 17.1 17.4 18.8 20.2 21.3 22.2 22.9 23.7 23.3 20 18.9 19.1 18.4 18.9 19.9 22.2 23.7 26.2 30.7 34.8 35.4 32.5 29.6 29.8 29.7 28.4 26.7 25.5 24 22.3 20.6 18.4 16.1 19.1 18.5 17.4 14.6 16 19.5 18.9 21.9 23.6 26.6 31.7 36.3 37.2 37 37.4 37.6 38.5 39.2 41.3 41.6 41.3 40.7 39.8 37.1 33.2 29.4 28.8 27.7 23.9 21.9 20.7 20.9 23.7 21.9 20.2 16.9 20.2 20.6 22.9 21.3 16.5 15.7 13.8 12.5 11 9.9 8.7 7.2 7.3 6.8 6.5 6.6 6.5 6.7 7.2 7.7 8.4 9.5 9.5 9.6 8.4 8.2 7.8 6.8 5.3 4.4 4.8 5 4.2 3.4 1.6
13.7 11.9 14.4 16 16 15.8 19.2 15.8 17.3 17.9 18.4 19.6 21.5 23.1 23.3 22.5 21.2 19.9 19.1 18.8 17.9 18.2 17.5 17.1 17.1 16.8 17.2 17.6 18.1 18.9 18.9 18.8 18.8 19 19.2 19.5 20.2 20.4 21.8 23.5 26.5 30.1 31.6 30.5 29.9 28.1 26.4 25.5 25.5 24.9 23.6 21.7 20.9 20 19.4 18.4 18.3 18.1 17.9 17.3 18 18 18.2 19 19.8 20.6 20.8 20.9 20.6 19.9 19.2 19.2 20.2 19.5 19.2 18.6 17.4 16.7 16.3 15.5 14.6 13.8 12.6 11.6 9.9 8.5 8 7.4 12.5 14.4 14.8 15.7 16.1 14.3 15 15.5 16.6 18.2 20.2 22.1 23.6 24.5 25.2 25.7 23.8 22.7 21.4 20.7 21.8 21 21.1 22.3 23.4 26.9 30.4 34.9 36.4 34.3 32.3 32.9 32.3 30.7 27.3 25.9 23.4 22.3 20.7 17 19.1 19.6 19.2 19 16 15.6 16.6 19.5 22.1 23.4 27 31.5 33.8 35.3 35.6 35.4 35.7 36.8 38.4 39.5 40.9 40.1 41.5 39.8 37.1 33 29.8 27.9 26 24.6 23.9 21.9 23.3 23.2 18.2 18.3 18.2 21.7 22.2 22.8 21.6 18.3 16.1 14 12.3 10.8 9.9 8.9 7.4 6.7 6.1 8.2 6 6.4 6.9 6.6 7 8.4 9.3 9.6 9.4 9.3 9.2 8.9 7.8 6 5.7 5.2 5.4 3.8 2.9 2.2
14.8 13.1 14.2 16.4 16.7 16.6 16.9 16.8 19.8 18 19.4 21.4 23.8 23.9 22.9 21.6 20.4 19.2 18.7 18.1 17.9 17.5 17.2 17 17.6 17.3 17.5 17.4 18.9 19.5 20.1 20.3 20.3 20.3 20.3 20.3 20.1 20.5 21.6 23.4 27.1 33.6 33.7 33.2 31.2 28.9 28.2 27.4 27.3 25.6 24.1 21.7 20.4 19.1 19.3 19 19.1 19.2 18.8 19.1 19.3 18.9 19.3 20.2 21 21.7 22.1 22 21.5 21.2 20.3 20.8 22.6 22.8 22.2 21.3 19.6 18.4 16.9 15.5 14.5 13.3 11.6 10.4 9 8 4.7 9.4 14.5 15.9 16.6 17 17.5 17 16.9 16.8 17.6 19.4 22.3 24.6 25.9 26.5 27.1 27 26.8 26.8 25.7 24.5 25.2 23.8 23.3 25.3 25.8 26.9 31.4 34.8 37.4 35.9 36.1 35.3 33.7 29.9 26.4 24 23.1 21.8 18.2 20.9 20.8 20.8 19.7 18.9 16.4 15 17.9 21.1 23.3 25.2 28.3 30.5 32.1 33.6 32.6 32.9 32.6 34 35.7 37.6 39.5 38.8 40.9 39.5 37.3 32.6 30.6 28.1 27.2 25.4 22.9 22.3 23.2 22.6 19.9 18.6 19.6 21.8 23.1 22.5 20.1 17.6 16 14.8 14.1 13.2 11.4 9.3 7.6 5.9 5.8 6 5.3 5.9 7 7.3 7.4 8.2 8.7 9.1 9.3 9.2 9.5 9.7 8.7 7.7 7.3 6.7 5.1 3.7 2.5 3.3
14.8 13.6 14.4 16.9 17.2 17.4 17.6 18 19 20.1 21.4 23 24 23.2 22 21 19.8 19 18.7 18.5 18.6 18.6 18.6 18.6 18.2 17.6 18.1 18.8 19.4 20.2 20.8 21.5 21.7 21.7 22.1 21.9 22.2 23.2 24.1 25.4 27.1 31.9 35 33.7 31.6 29.3 27.6 27.1 26.8 26 24.4 22.3 20.8 20.1 20.4 21 20.3 20.2 20.1 19.9 20 19.8 20.3 21.2 22.2 23.5 24 24.3 24.7 24.9 25.1 24.8 26.7 27.2 26 23.6 21.1 19.2 17 15.3 13.9 12.3 11.2 9.9 8.6 7.9 7.8 12.8 18.2 18.8 19.1 19.1 18.7 17.9 18.1 18.3 19.6 20.7 24.3 26.7 27.4 27.7 27.3 26.8 27.5 28.6 29 28.2 28.2 26.2 26.1 28.3 29.7 32.8 36.2 37.4 37.9 37.8 38.1 35.6 33.7 29.2 26.6 22.8 21.2 19.4 20.6 22.1 22.4 21.6 19.8 18.6 17.5 14.8 18 21.9 25.1 27.8 28.7 31.4 30.7 31.4 31 29.3 29.7 30.7 32.5 35.6 36.1 38.9 39.5 38.3 35.7 33.3 31.1 29 27.6 25.3 22.5 24.2 23.7 22.7 21.2 20.6 21.7 22.5 23.4 22.7 21.6 20.5 19.6 18.7 16.7 14 11.3 9.4 7.2 5.5 5.2 5.3 4.4 4.8 6.5 6.3 6.9 7.4 8 8.6 9.1 9.6 9.9 10.2 9.9 9.1 8.9 8.2 6.3 4.8 3.5 3.5
16.3 14.1 14.4 17.3 18.3 18.1 18.5 19.2 20.8 22.1 22.7 23.2 22.2 21.9 20.8 19.9 19.7 19.2 19.7 20 20.2 20.1 20.1 19.3 18.6 18 18.4 19.5 20.3 21.4 22 22.7 23.1 23.5 24.1 24.5 25.1 26 28.1 30.9 33.3 36.3 35.5 33.6 31.2 29.1 27 26.3 26.3 25.7 23.8 22.4 22.1 21.8 21.6 22 21.8 22.3 21.6 20.7 20.6 21.1 21.6 22.2 23.5 24.8 26.5 27.7 28.8 30.8 31.5 30 29.8 29.2 27.4 24.4 21.7 19 17 16 14.9 14 12.5 10.4 8.3 8.1 10.1 16.3 19.3 20.4 20.9 21 20.4 20 20.4 20.8 22.3 24.3 26.3 27 26.8 26.2 24.8 24.4 25.4 28 28.6 29.9 29.3 29.3 29.3 31 34.3 38.1 39.9 40.9 40.6 38.7 38.2 35 31.4 27.9 24.5 22 23.1 24.1 24.2 22.3 21.7 20 19.4 19.7 17.7 16.7 16.7 21.7 24.3 26.2 27.7 29 29.2 29.7 29.2 28.2 28 29.1 31 32.9 34.5 36.9 37.7 37.7 36.4 34.7 31.8 29.9 28.1 26 24.8 26 25 23.2 23.1 23.1 24.1 23 22.9 22.7 23.7 23.7 23.3 19.4 17.2 14.1 11.3 9.1 6.9 5.4 5.8 4 3.6 3.6 5.2 5.7 6.3 6.8 7.1 7.7 8.7 9.1 9.4 10.2 10.4 10.5 10 9.3 7.5 4.8 4.6 3.7
17.3 15 14.7 17.9 19 18.7 19.3 20.2 21.6 23 23 22.4 21.9 21 19.8 19.7 19.8 19.7 20.4 21.2 21.9 21.8 20.8 19.6 18.9 18.2 19.1 20.2 21.4 22.6 23.3 24.1 25.1 26.3 27 28 30 31.9 33.7 35.8 37.3 37.4 35.9 33.3 30.7 28.5 26.6 24.9 24.8 24.3 23.2 22.6 22.1 21.6 22.1 22.5 22.3 22.5 22.4 21.6 21.5 21.9 22.5 23 24.6 25.8 27.8 29.8 29.2 29.1 29.7 28.5 29 29.5 27.4 24.4 21.1 19.4 18.4 17.4 16.3 14.6 12.3 9.8 8.1 8.5 11.8 17.7 19.9 20.8 21.5 21.9 22.3 22.4 22.8 23.1 24.3 25.6 26.1 25.7 25 23.2 22.6 22.6 23.7 26.1 28.6 29.4 30.8 31 31.5 33.2 35.6 38.7 40.6 41.3 41.4 39.6 36.7 33.2 30.4 26.8 25.4 24.4 28.6 29.8 26.5 23.9 21.9 22 21.5 20.9 18.6 17.5 15.7 20 20.6 23.7 24.7 25.2 27.7 28.4 27.6 26.3 26.4 28.2 29.8 30.5 33.8 35.4 36.1 36.6 36.2 35.2 33.2 31 28.8 27 26.5 26.6 25.6 24.4 24.2 25.4 25.7 24.7 25 24.5 24.4 24.6 22.4 19.8 16.4 13.9 11.4 9.1 6.9 6.1 6.5 3.2 3.4 2.5 4.5 6.5 7.1 5.6 5.7 6 6.4 7.2 7.1 9 9.8 10.2 10.1 9.3 7.5 4.9 3.8 1.1
18.1 16.4 13.9 17 18.9 19.4 19.7 20.7 21.7 22.5 21.9 21.4 20.8 20.3 20.5 20.3 20.2 21.3 21.9 23 23 22.3 21.1 20 19.2 18.4 19 20.4 22 23.1 24.2 25.4 26.7 28.7 31.1 34.8 36.7 36.9 37.7 37.7 37.8 37.1 35.4 32.7 30.2 27.8 26.1 24.3 23.2 22.9 22.5 21.9 21.9 21.4 21.8 22.2 22.8 23.5 22.9 22.8 21.8 20 18.1 18.2 20.4 21.8 22.2 20.7 18.8 18.5 20.9 23 24.9 26.8 26.9 24.9 22.7 21.1 19.7 18.3 16.6 14.2 11.7 9.3 7.7 8.4 13.1 17.2 19.5 20.6 21.5 22.1 23 23.3 23.7 24.1 24.4 24.5 23.8 23.5 22.3 21.2 20.8 21.4 22.5 25.1 27.6 29.7 30.6 31.4 32.3 33.3 34.9 37 39 41.3 40.2 39 36.9 33.4 32.4 29.4 27 28.2 32.4 32.4 28.2 24.6 23.2 22.8 22.6 19.9 17.7 16.6 17.5 17.1 19.9 22.1 22.3 23.6 26 26.7 26.2 25.1 25.8 27.4 28.9 30.5 32.3 34.1 34.8 35.2 35.4 35.3 34.4 32.4 29.4 27.5 27 27.3 26.5 25.7 25.3 25.4 25.6 25.1 22.7 21.9 22.4 21.8 19.9 16.8 14.6 12.7 10.7 8.9 7 6 5 3.2 3.3 3 2.6 4.9 4.7 3.2 2.9 3 3.5 4 4.8 6.9 8.2 8.9 9.4 8.6 6.6 4.9 3.8 2.2
18.6 17.6 14.7 15.9 17.5 18.8 19.3 20.4 21.1 21.1 20.6 20.1 20.4 20.6 21.3 21.5 22.2 23 23.5 22.5 23.9 23 21.4 20.4 19.3 18.8 18.9 20.5 22 23 24 25.1 27 28.9 31.7 35.1 37.9 38.2 37.6 36.5 36.3 35.7 33.7 31.6 29.2 26.9 25.6 24.2 22.6 21.9 21.3 20.7 20.7 20.8 21.4 22.5 22.6 24 24.4 22.3 18 16.8 16.8 16.8 16.8 16.8 16.8 16.8 16.8 16.8 16.8 16.8 17.8 22.7 25.6 25.4 23 21 19.9 18.5 16.6 13.9 11 8.4 8.1 8.8 13.9 16.2 18.1 19.5 20.9 21.8 22.7 23.4 23 22.9 22.5 21.6 20.9 20.8 20.1 19.6 20.3 21.5 22.8 24.5 27 28.7 30.2 31.1 31.8 32.5 33.7 35.3 38 40.4 41 39 37.7 37.6 36.5 32.1 28.2 30.7 34.1 33.5 29.8 27.2 26.5 25.2 23.6 20.4 19 17.1 17.6 17.5 17.5 18.8 19.7 21.2 22.8 23.9 24.5 23.5 24.7 25.5 26.7 29.3 30.7 32.9 33.1 32.9 33.1 34.2 34.9 34.3 32.3 30.6 28.3 27.7 25.7 25.2 25.9 25.6 24.3 22.2 19.6 18.1 19.4 18.2 16.1 12.9 11.4 11.4 9.3 7.8 6.1 5.7 4.6 3.5 2.6 2.3 2 2.2 1.9 1.7 0.7 1.8 2.8 2.7 3.2 4.4 5.1 6.6 6.9 6.4 5.5 4.3 3.3 1.9
18.9 17.8 15.6 14.7 16 17.8 18.7 19 19.6 19.4 18.9 19.6 20.6 21.3 21.9 22.5 23.8 24.5 24.9 24.7 23.4 22.5 21.9 20.8 19.5 19 19 19.7 20.7 22 22.9 24.3 25.5 27.3 29.5 32 35.1 37.5 38 36.9 34.6 33.2 31 29.3 27.3 25.7 24.5 23.9 22.3 21.1 20 19.6 19.5 19.2 20.6 23 23.3 24.2 23.7 17.6 16.8 16.8 16.8 16.8 16.8 16.8 16.8 16.8 16.8 16.8 16.8 16.8 16.8 18 23.3 23.3 21.2 18.9 18.5 18.1 16.5 13.2 10.1 5.9 8 10.6 13.6 15.4 16.5 17.8 19.2 20.5 21 20.7 20.2 20 20 19 18.5 18.1 18.2 19.6 20.6 22.1 23.6 24.6 26.5 28.4 29.3 29.8 30.3 30.8 32.4 34 36.9 38.5 40.9 41 40.3 39.4 37 31.5 31.3 35.6 36.1 34.1 30.8 29.9 29 26.6 23.9 20.9 19.5 18.7 19.5 19.2 18 17.5 18.7 20.2 21.5 22.3 23.1 22.9 23.1 25 26.5 28.3 29.5 30.3 30.8 30.8 31.7 33.1 34.7 35.1 34.3 32.4 29.6 28.3 23.9 22.8 22.7 23.3 22.6 19.9 16.9 14.8 13.6 13.9 13 11.6 8.7 8.6 7.2 6.2 4.9 5.2 3.8 2.9 0.7 1.9 1.6 1.4 1.5 1.2 1.3 1.5 2.3 2.8 2.8 3.3 3.8 4.2 4.3 4.6 4.1 3.6 2.5 2.9
19 17.4 16.7 17.3 16.7 15.8 16.9 17.1 17.2 19.1 19.1 20.4 21.3 22 23.4 23.4 25 25.8 25.7 25.2 24.1 22.8 22.2 22.4 19.5 19.6 20.2 20.6 20.2 20.4 20.7 23.1 24.2 25.4 26.8 28.8 31.6 33.7 37.3 37.4 35 31.3 28.7 27.4 26 24.5 23.5 23.2 21.7 20.4 19.6 18.5 16.3 15.5 20.7 22 23.3 24.4 20.6 16.8 16.8 16.8 16.8 16.8 16.8 16.8 16.8 16.8 16.8 16.8 16.8 16.8 16.8 16.8 19.6 19.6 17.6 16.6 16.3 15.6 14.3 12.2 8.6 4.8 8.6 11.4 13.3 14.1 14.8 15.6 17 18.7 18.4 18 17.5 17.1 16.7 16.3 16.5 17.4 18.9 20.6 22 23.7 24.6 25.5 26.4 27 27.9 28.3 28.4 29.9 31.5 34.4 35 37.8 41.6 42.5 43.1 41.7 36.8 32.5 34.8 38.2 36.9 34.3 31.5 30 28.2 25.8 23.5 20.8 20.9 21 20.7 19.9 19.4 17.5 17.6 19.4 21.3 22.4 22.3 21.5 23.1 24.7 25.6 26.8 28.7 27.5 27.5 28.6 30.5 32.2 34.1 35.1 35.5 34.1 30.2 28.7 25 21.1 18.2 16.9 17 16.2 12.5 11 11.9 11 11.6 9.3 8.2 7.3 6.4 5.4 4.8 4.8 4 2.8 1.8 0.5 1.5 1.3 1.3 0.9 1.4 1.4 1.7 2.4 2.8 2.3 0.4 2.3 2.5 2.3 2.1 1.8 1.9 2.5
18.7 17.5 17.9 19.1 18.7 18.3 18.1 18 19.2 20 20.6 20.9 21.6 23.8 24.7 24.9 24.2 26.5 26.4 25.4 23.9 22.7 21.9 20.9 20.2 22.9 21.2 22 22.5 22.1 21.7 21.9 22.7 23.9 24.7 26.3 27.6 31.3 35.5 35.6 33.4 30.3 27.3 25.9 24.9 24 23.4 22.9 22.2 21.1 20.4 19.2 16.1 15.5 17.3 20 22 22.6 17 16.8 16.8 16.8 16.8 16.8 16.8 16.8 16.8 16.8 16.8 16.8 16.8 16.8 16.8 16.8 16.8 18.8 14.4 14 13.9 13.1 12 9.9 8.3 8.1 9.2 11.1 12 12.8 14 14.5 16.1 16.1 15.9 15.5 15.1 15.3 14.3 15.4 17.1 18.4 20.1 21.4 22.8 23.5 24.2 24.8 25.5 25.6 25 26.2 27.3 29.1 30.7 31.9 33.8 36.8 39.5 42.1 42.3 41.3 36.7 34 37.8 38.8 36.2 35.3 31.8 29 27 25.1 23.4 23.2 23 22 21 20.5 18.8 18 17.3 18 20.1 19.7 20.8 21.3 23.5 24.6 25.5 26.1 26.5 26.4 27.9 28.9 31.3 32.4 33.7 35.6 35.8 35.2 31.2 31.4 28.7 24.8 23.3 22 17.2 15.6 17.3 19.7 16.2 16.9 14.9 11.8 10.4 9.2 7.4 6.3 5.7 5 4.8 4.9 3.5 2.3 0.2 1.1 1 1.1 0.9 1.9 1.4 2 2.8 2.5 0.4 2.2 1.7 2.1 1.7 1.6 2.3 2.1
18.4 18.2 19.8 20.3 19.9 19.3 18.1 18.1 19.7 20.8 21.4 21.4 23.1 24 25.2 25.3 25.6 26.9 26.4 25.2 23.8 22.6 21.7 21.1 21.3 21.2 22 23.1 23.2 23.2 23.2 22.4 22.7 22.7 23.5 24.4 26.5 29.6 33.3 33.6 31.5 30 27.9 26.8 25.6 24.5 24.5 24.1 23 21.6 20.2 18.8 17.2 15.7 17.8 19.1 21 20 16.8 16.8 16.8 16.8 16.8 16.8 16.8 16.8 16.8 16.8 16.8 16.8 16.8 16.8 16.8 16.8 16.8 16.8 12.9 11.9 11.5 11.3 9.8 8.1 8.2 7.4 7.8 9.3 10.1 10.8 11.7 13 14.1 14.4 13.3 13.2 13 13.7 12.8 15.3 17.7 19.1 20.4 20.9 22.1 22.8 23.5 23.9 23.9 23.2 24.4 25.2 27 28.3 29.7 30.9 33.1 36.4 39.1 40.8 40.5 39.9 36.2 34.8 38.7 39.8 39 36.7 33.4 29.7 27.7 26 25.2 25 24 23.1 21.3 18.8 18.4 19.3 19.6 19.4 19.7 19.6 19 20.5 21.5 23.4 24.2 24.6 24.9 26.1 27.6 29 30.2 31.4 32.8 34.3 35.7 35.2 33 31.8 29.9 27.1 23.7 19.6 15.5 20.7 23 22.4 22 19.5 16.9 14.2 12.6 10.5 8.7 7.9 7.8 6.8 6.4 5.1 4 2.6 1.4 1.6 1.2 0.8 1 1.2 1.5 1.6 2.3 2.8 2.1 0.4 0.4 1.9 1.6 1.5 2.4 1.6
19.2 19.9 21.1 21.4 20.8 20.2 18.9 18.1 19.7 21.2 21.8 22 23.2 23.8 24.9 25.8 26.5 27 26.3 24.7 23.3 23.4 22.4 22.6 22.9 22.8 23.2 24 24.1 24.2 23.4 23.1 23.6 23.2 23 23.7 25.8 28.5 33.9 34.4 34.1 32.6 30.6 28.5 26.5 25.2 25.2 24.1 22.5 21 19.5 18.1 17.6 16.8 17 18.9 19.9 18.8 16.8 16.8 16.8 16.8 16.8 16.8 16.8 16.8 16.8 16.8 16.8 16.8 16.8 16.8 16.8 16.8 16.8 16.8 11.1 10.5 10.4 9.5 7.9 7.6 7.9 8 10.5 10.9 9.3 10 11.1 10.7 10.5 11.3 11.7 14.3 15.6 16.3 16.2 13.7 16.9 18.7 19.4 18 21.1 22 22.2 21.3 21.8 23.2 24.5 25.1 26 27.3 28.7 29.5 31.1 33.4 37.8 39.8 38.8 36.7 34.5 34.2 37.3 38.3 39.1 38 34.8 30.7 28.4 26.7 26.6 25.5 24.2 22.6 21.7 18.7 20.1 21.1 20.8 21 21.8 22 20.4 19.7 20.6 21.7 22.2 22.7 24 25.5 27 28 29.4 30.7 32.2 34.3 36.3 35.7 34.2 32.9 32.5 27.3 24.7 17.8 20 23.8 24.1 22.1 20.3 18.4 15.4 13 10.7 8.8 7 6.9 7 6.7 5.6 4 2.4 1.7 1.1 1.1 1.3 0.9 0.9 1.1 1.5 1.4 1.9 2.5 1.6 1.5 1.7 0.4 1.6 1.6 1.7 2.6
20.4 21.3 22.1 22.2 21.5 20.9 19.6 19.2 21.3 22.5 23.1 23.8 23.6 24.2 24.6 26.5 27.2 27.2 25.9 24.4 24.4 25.1 25.3 25.2 23.2 24.8 24.4 24.4 24.5 24.1 23.9 24.6 24.4 23.9 23.4 23.5 25.8 28.1 33.5 36.5 36 34.4 32.4 29.9 27 25.2 24.9 23.7 22 20.4 19.1 19.1 18.4 16.7 15.9 17 18 19.1 17.3 16.8 16.8 16.8 16.8 16.8 16.8 16.8 16.8 16.8 16.8 16.8 16.8 16.8 16.8 16.8 16.8 17.3 10.7 9.5 9.4 9.3 7.7 4.7 7.3 8.6 10.3 11.4 11.8 11.2 11.5 13.5 13.5 14.2 14.7 14.8 16.3 16.9 17.2 17.2 16.1 16.1 16 15.9 19.2 19.9 20.5 22.3 23.6 24.8 26.2 26.7 27.1 27.9 28.2 29.3 32 35.3 39.3 39.1 36.9 33.7 32 31.6 33.7 34.8 37.3 37.3 35.6 31.7 30.6 28 26.7 26.7 25 23.4 21.3 19.2 20.7 22 22.2 22.1 22.9 23.2 22.1 19.7 20.3 22.9 23.8 24.7 23.7 24.6 25.8 27.2 29 30.4 32 34.2 36.2 37.3 35.9 34.4 32 27.8 23 21.3 24.5 25.1 23 21 18.8 17.9 16.3 14.4 11.8 8.8 6.4 5.8 6.9 5.4 4.6 2.7 1.3 0.7 0.9 0.9 1.1 0.9 0.8 1.2 1.6 1.6 1.3 1.4 1.7 1.9 1.4 1.5 1.6 1.6 1.6 1.7
21.9 22.4 22.9 22.9 22.4 21.7 20.5 19.9 22.7 24 25.1 24.8 24.6 25.1 25.4 27.5 27.8 27 25.6 25.1 26.8 28.3 28.2 27.1 26.3 25.6 24.9 24.7 24.6 23.9 24.1 24.7 25 25.1 24.6 24.7 25.5 26.7 31.6 35.4 36 35.6 33.4 30.9 28 26 24.3 22.7 21.3 20.6 20.6 20.1 18.6 16.8 15.6 15.6 16.7 19.6 20.8 19.8 16.8 16.8 16.8 16.8 16.8 16.8 16.8 16.8 16.8 16.8 16.8 16.8 16.8 16.8 16.8 18.1 10.4 9.7 9.4 8.4 6.9 7.9 7.7 7.4 10.9 11.5 11.9 11.5 13.2 13.4 13.8 14.3 14.7 14.7 15.9 16.5 17.3 17.8 18.3 18.8 18.9 19.1 18.6 19.5 21.6 23.1 24.4 26.1 27 28 29.3 28.7 29.2 32.2 34.8 38.5 40.9 39.5 35.3 32.6 30.1 29.7 30.1 31.1 34.4 36.4 35.8 33.5 30.8 28.1 27 25.3 25.2 23.1 20.1 18.7 22 22.9 23.2 22.9 23.9 24 22.9 21.8 20.4 23.2 24.8 25.9 25.5 25.2 26.3 27.8 29 30.6 32.5 34.3 36 37.1 36.7 34.7 32 28.4 22.8 24.8 26.3 25 23.8 19.6 16.8 16.7 17.4 14.6 11.1 8.1 5.8 4.3 5.2 4.3 3.2 3.6 1 1 0.9 1 1 1 1.1 1 1.4 1.4 1.5 1.4 1.5 1.8 1.7 1.4 1.9 1.9 1.5 1.8
23 23.5 24 23.9 23.3 22.2 20.7 20.8 25.1 27.6 27.5 26.5 25.5 25.4 26.3 27.7 28 27.1 25.4 26.6 29.4 30.7 30.1 28.2 27.2 26.3 25.6 25 25 25.1 25 25.4 25.2 25 25.4 25.6 25.3 27.2 30.3 33 34.2 33.9 32.8 30.5 27 25.1 23.3 22.1 21 21.5 22 20.7 18.5 17 16.1 15.5 15.2 17.1 19.8 21.2 20.3 16.8 16.8 16.8 16.8 16.8 16.8 16.8 16.8 16.8 16.8 16.8 16.8 16.8 16.8 13.4 10.3 9.7 9.2 7.4 7.8 8.9 9 8.7 6.8 8.5 10.2 12.8 13 13.3 13.6 13.8 14.4 14.6 15.7 16.4 17.1 17.9 18.5 18.8 19.3 19.6 20.3 20.6 22.3 23.6 24.9 26.4 27.2 28.5 29.4 29.1 31 33.8 37.4 40.9 40.9 39 34.5 31.3 29.5 28.2 28.4 28.5 31.4 33.9 33.7 32.7 28.9 27.4 25.6 23.8 23.3 21.1 19 21.6 22.7 24.4 23.9 23.9 24.2 24.1 23.1 23 22.2 22.7 25.1 26.3 26.1 25.8 26.6 28 28.9 30.5 31.5 33.1 34.7 36 36.2 34.6 32.6 29.5 27.5 27.8 25.9 25.6 23.5 20.4 18.9 16 13.8 13 10.5 7.5 5.3 6.2 3.3 2.8 2.3 2.5 1 0.9 0.9 0.8 0.9 1.2 1.3 0.9 1.2 1.6 1.6 1.6 1.6 1.7 1.5 1.5 1.7 1.5 1.4 1.6
24.1 24.7 25.3 25.2 23.9 22.5 21.1 22.2 26.6 28.9 28.5 27.6 26.7 27.2 27.4 28.4 28.1 26.7 26.3 28.2 31.6 32.2 31.8 29.5 28.1 27.1 26.3 26.1 26 26.1 25.8 25.9 25.7 25.8 26.2 25.9 24.7 26.5 28.9 31.1 31.6 31.2 30 27.9 25.8 24.2 22.4 22 22.5 23.6 23.3 21.9 19.6 18 17.2 16 14.8 15.2 18 18.9 19 18.1 16.8 16.8 16.8 16.8 16.8 16.8 16.8 16.8 16.8 16.8 16.8 16.8 17.9 11.1 10.4 9.6 7.5 7.8 9.9 10.4 10.8 10.3 9.7 8.7 8.2 10.8 12 12.7 13 13.2 14 14.6 15.8 16.2 17 17.7 18.4 18.8 19.3 19.7 20.5 21.6 23 24.3 25.3 26.2 27.8 28.3 28.9 30.8 33.2 36.7 40 41.7 40.9 38.3 32.8 29.9 28.6 27.1 26.5 26.5 26.8 28.9 29 27 26.2 25.3 23.8 21.8 20.6 20.2 21.6 24.5 24.7 24.5 24.3 24.6 24.8 24.5 24.4 23.7 21.8 22.6 25.3 26.5 26.9 26.8 26.7 27.9 28.7 29.7 30.7 31.8 33.9 35.4 36.6 34.6 32.6 32 30.5 28.9 26.8 24.5 23.3 21.9 19.9 16.6 13.3 10.4 9.2 7.2 5.7 6.2 5.1 4.1 3.8 2.6 1.9 0.9 0.9 0.8 0.1 1.1 0.6 0.9 1 1 1.3 1.9 1.7 1.8 1.6 1.5 1.9 2.2 1.8 1.5
25.2 26 26.6 26.1 24.6 23.2 22.1 22.9 25.9 27.5 27.3 27.5 27.6 27.6 28.4 28.9 28.2 28.1 30.2 29.7 32.6 33.8 30.8 30.2 28.8 27.8 27.4 27.6 27.3 27.1 26.8 26.5 26.6 26.7 26.8 26.2 26.6 27.6 28.4 27.1 29.5 28.5 27.2 26.1 24.8 24.7 24.1 24.4 24.2 24.9 24.5 23 20.6 19.3 17.7 16.6 15.5 14.3 15.6 17 17.9 19.3 16.8 16.8 16.8 16.8 16.8 16.8 16.8 16.8 16.8 16.8 16.8 18.9 12.4 11.6 10.6 7.2 7.9 12.4 12.4 12.4 12.2 11.6 11.6 10.5 9.4 8.3 9.9 11.2 12 12.9 13.4 15.1 15.5 15.9 16.7 17.4 17.9 18.3 18.7 19.9 20.8 21.9 23.2 23.8 24.7 25.7 26.7 27 29.1 31.5 34.1 37.5 41.1 41.7 39.9 36.3 31.4 29.4 28.2 28.1 26.2 25.3 25 24.9 24.8 23 22.5 22.3 22.4 22.9 21.9 20.9 23.9 26.1 25.8 26.9 24.7 25 24.7 24.3 24.1 23.4 22.2 22.4 23.6 25.6 26.2 26.9 27.3 28.4 28.9 29.9 31.3 33.2 34.9 34.8 35 33.8 32.8 31.9 30.3 29.6 25.8 23 21.8 20.7 17.3 16.4 13.3 10.3 9.3 7.5 6.8 6.9 6.6 5.7 4.3 3.1 2.2 1.3 1 0.9 0.7 0.8 1.2 1 1 0.8 1.2 1.9 1.8 2.2 2.6 3.1 2.7 2.6 0.4 2.3
26 27.3 27.4 26.6 25.1 23.7 22.5 22.5 24.8 25.6 26.9 27.7 28.1 28.4 29 29.2 28.4 30.2 32.3 34.1 35.3 35.1 32.3 30.8 29.4 28.7 29 29 28.9 28.4 28.1 27.9 27.6 27.8 27.7 28.3 28.7 29 29.5 29.1 28.8 27.3 26.7 26.5 26 26.7 26.3 27 24.8 24.5 24.8 24 21.3 19.5 18 17 16 14.7 14.1 15.4 17.4 18.2 16.8 16.8 16.8 16.8 16.8 16.8 16.8 16.8 16.8 16.8 17.7 13.5 12.5 11.3 6.5 9.7 12.9 13.2 13.8 14.4 13.6 12.3 12.6 11.4 11.7 10.2 9 8.7 9.8 10.5 13 13.8 14.8 15.7 16 16.5 16.9 17.7 19.1 20.3 21.2 21.6 21.7 22.9 23.6 25 26.2 28.4 29.2 32.9 34.7 38.6 40.4 41.3 38.1 34.7 30.4 29 28.1 28.7 27.4 26.6 25 25.2 26.4 25.4 24.7 24.8 25.6 23.9 23.1 21 24.7 26.9 26.7 28.5 28.1 25.9 25.3 24.2 23.8 23.2 23.3 22.2 21.5 23.1 24.7 26.7 26.6 27.3 29.9 30.2 32 34 35.2 34.1 35 33 32.4 35.4 30.3 28.9 22.3 20.4 19.2 18.8 17.6 15.4 13.3 11.5 10.3 9.8 7.5 8.1 7 5.6 4.1 2.5 1.3 0.9 0.9 1 1.2 0.9 1 1.1 1.1 0.9 1.1 1.9 0.3 1.9 1.6 1.5 1.9 2.3 2.5 2.2
27.2 28 27.8 26.8 25.3 24 23 22.9 23.9 25.4 27 28.5 29.2 29.7 30 29.5 29.5 31.9 34.3 36.1 36.3 34.2 32.8 31.2 30.2 30.8 31.5 31.2 30 29.6 29.7 29.6 29.5 29.1 29.5 30.2 30.8 31 31.1 30.4 29.2 28.7 27.3 28.5 29.8 30.2 29.8 24.4 23.3 23.2 23.4 23.8 20.9 18.6 17.5 16.5 15.9 15.2 13.6 14.9 17.2 18 18.3 16.8 16.8 16.8 16.8 16.8 16.8 16.8 16.8 18.5 13.2 12.9 13.1 8.9 7.6 13 13.6 13.5 15.1 15.5 15.2 14.4 13.1 13.1 12.9 12 10.7 8.7 11.8 13 12.3 13.1 13.8 14 14.8 15.2 15.9 17.4 18.9 20.3 20.5 20.7 20.9 22.6 24.4 25.3 26.6 27.5 30 33.7 37.7 39.8 41.1 40.7 38.4 33.9 30.9 29.6 29.5 29.4 28.6 28 27.6 27.5 27.3 27.9 28.8 28.7 26.5 25.8 24.5 22.2 23.5 25.5 28.5 30.6 29.5 26.2 25.2 24.3 24 23.8 23.4 22.7 22.4 22.8 23.2 24.2 26.1 27 27.4 28.9 31.8 31.9 33.2 32.9 32.3 31.4 30.7 29.3 28.1 27.2 23.5 18.5 16.9 16.4 15.4 14.4 12.5 11.7 11.2 10.4 5.9 7.5 6.9 5.2 3.8 2.5 2.3 1.6 1.2 1.5 1.2 1.2 1.1 0.8 1 1.3 0.1 1.1 1.6 1.6 1.8 1.9 2.1 2.4 2.5 2
28.6 28.8 28.2 26.9 25.2 24.1 23.6 24 24.5 26 27.6 29.3 30.4 31 31.4 30.6 30.7 33.4 36.1 37.8 35.8 35.1 31.2 31.7 32.1 34.4 34.4 33.8 32.3 32.1 31.9 31.5 31.4 31.2 31.5 32.1 32.7 33 33.1 31.9 30.3 30.7 31.3 31.4 28.4 33.2 33 28.6 23.9 24 22.6 22.7 20.3 18.2 17.1 16.2 15.2 14.5 13.8 13.9 16.6 18.2 18.3 16.8 16.8 16.8 16.8 16.8 16.8 16.8 18.3 12.9 13.4 13.3 12.4 6.1 12.9 13.1 12.1 14.7 16.3 16.2 15.7 15.2 12.9 13.3 13.5 13.2 11.9 9.8 11.3 13.7 14.4 14.5 13.3 12.8 14.3 14.7 15.9 16.7 16.3 16.8 19.7 20.8 22.2 23.2 25.1 25.2 27.3 28.7 30.6 34.1 37.7 40.2 41.3 40 38.4 34.5 32.1 31.8 32.2 31.4 31.2 31 29.6 30.6 31.7 32.2 30.6 29.1 26.9 26.1 25.1 22.4 22.6 25.5 28.5 32.4 30.2 26.6 25.9 25.2 24.8 24.5 23.9 23 23.2 23.5 24.1 23.7 25.1 26.6 27.4 28.1 29.1 29.9 32.1 32.5 32 30.3 28.6 24.2 22.9 22.7 21 18.5 16.6 14.4 12.7 13.1 11.8 10.7 10.1 9.6 7 7.8 7 5.5 4.9 4.1 3 2.3 1.8 1.3 1.1 1.1 1 1.3 1.5 1.4 1.7 1.3 1.6 1.7 1.7 2.1 2.3 2.2 2 2.1
30 29.9 28.8 26.9 25.3 25 25.5 25.1 25.3 26.9 28.4 30 31.9 33 33.5 33.1 31.9 34.6 37.2 39.3 36.3 35.6 35.2 35.3 35.9 38.2 37.3 35.6 35.2 34.7 34.3 33.9 33.4 33.3 33.4 34 34.7 35.1 34.9 33.5 32.7 33.7 34 34.2 34.5 26.5 34.1 33 27.6 26.8 23.8 21 19.6 17.9 16.8 15.9 15.1 13.6 12.7 13.9 16.9 19.1 18.7 16.8 16.8 16.8 16.8 16.8 18.2 14.7 10.1 12.2 13.8 13.8 12.5 7 13.8 13.6 13.3 17.5 18.6 17.6 16.8 13.6 13.7 14.2 14.3 14 13.1 11.1 11.1 14 14.8 15.4 15.2 15.2 16.4 17.4 17.5 18.9 19.7 20.5 20.9 21.9 22.6 24.6 25.4 25.6 27.6 28.9 32.9 36 38 40.4 40.3 39.7 38.3 37.3 35.4 35.4 34.6 34.9 35.4 34.3 34.3 34.3 34.1 33.7 30.7 28.4 26.7 25.1 24.2 22.3 23.9 27.9 31.4 33.4 31.4 29.7 27.4 25.7 25.4 24.7 24.3 24.2 23.5 24.3 24.9 24.9 25.6 26.3 26.8 28.6 30.2 30.5 31.5 32 32.2 30.5 29.2 27.4 24 19.5 16.6 14.4 13 13.1 11.9 11.2 11.3 10.1 9.2 8.9 9 8.3 7.3 6.1 5.4 4.4 3.5 3 2.4 2.2 1.1 0.9 0.9 1.1 1.3 1.3 1.8 1.2 1.6 1.6 1.8 2.3 2.4 1.8 1.6 1.7
31.5 30.9 29.4 27.2 25.9 25.8 26.4 26 26.3 27.9 29.7 32.2 34.5 36.4 37.1 36.2 33.5 36.9 38.7 40 36.8 38.4 39.2 38.5 39.2 39.9 39.6 37.6 37.9 37.1 36.6 36 35.5 35.3 34.9 35.8 36.6 36.8 37 36.2 35.7 36.2 35.8 35.8 35.6 35.4 31.3 31 27.5 25.4 22.6 20.6 19.2 18.1 16.9 16.2 15.3 14.7 12.8 13.7 18.5 22.3 22 18.2 16.8 16.8 18.6 14.6 9.6 9 9 10.5 12.7 14.1 9.5 7.2 13.7 15 16.1 21 20.9 18.8 14.7 14 14.9 15.4 15.2 14.9 14.2 12.5 10.1 13.8 15 15.7 16.2 16.9 17.6 18.4 19 19.9 20.8 21.6 22.6 23.5 24 24.4 26 24.8 28.3 30.6 34.3 36.9 39.6 40.5 39.9 39 39.4 37.9 37.5 37.6 37.5 38.5 40.5 40.5 39.1 37.1 34.2 33.4 30.1 26.9 26.3 25.4 25.8 23 24.8 29.5 30.8 31.5 32.3 32.1 29.1 26.8 25.3 25 25 24.3 23.6 24.7 25.6 25.4 26 27.2 28 28.3 29 31.4 31.1 31.8 31.4 27.8 25.8 25.1 23.7 19.9 17.9 13.7 11 7.7 8.5 8.8 9.6 7.9 10.9 8.5 9 7.7 6.7 6.1 5.6 4.7 4.1 3.5 3 2.4 1.6 1.1 1.2 1.4 1.3 1.5 1.5 1.7 1.7 1.9 2.2 2.4 1 2 1.6 1.7
32.6 31.1 29.6 27.4 27 27.6 27.1 27.8 27.3 29.2 31.1 35.3 38.3 40.5 39.8 36.3 35.4 40.6 39.1 40.6 39.8 40.6 37.9 37.5 39.7 40.9 39.9 40 38.8 37.9 37.7 37.6 37 36.6 36.4 37.3 38.3 37.8 38.7 37.9 37.3 36.5 36 35.7 35.5 35.1 34.8 30.9 26.5 25.5 23.9 20.7 20.1 18.8 17.7 16.8 16.3 14.8 11.7 15 21.3 26.2 24.1 20.4 17.7 13.8 10.2 8.5 8 7.7 7.5 5.5 9.2 10.3 8.2 8.4 15.5 15.3 15.6 17.4 20.5 16.6 13.7 14.4 15.5 16.3 16.2 15.8 15 13.3 11.5 11.9 13.9 15.4 16.6 17.4 18.4 19.3 20 20.5 21.6 22.5 23.5 24.4 25.1 26.1 27.4 27.4 29.5 33 34.6 37.7 38.9 39.3 39.2 38.6 38.7 37.4 37.5 38.7 39.7 42.2 42.5 42 39.4 36.2 33.1 30.6 29 27.9 27 26.4 26.1 23.2 24.5 28.7 30.5 31.1 32.7 32.9 30.2 28.3 26.5 25.8 25.6 24.5 23.9 25.4 25.5 25.8 26.5 27.3 27.9 27.8 29.5 29.6 30.6 30.9 29 24.7 21.8 20.7 18.3 16.3 15.7 13.4 8.3 8.6 6.4 6.7 7.9 7.9 7.6 6.5 7.9 7.1 6.3 5.6 4.9 4.6 4 3.4 2.8 2.4 1.9 1.3 1.2 1.3 1.4 1.8 1.7 1.8 1.8 0.9 2.3 2.2 1.8 1.9 1.5 1.7
32.6 30.9 29.3 28.1 29 29.3 28.8 28.8 31.6 30.9 34.1 39.2 42 42.2 38.6 36.7 40.4 43.3 42.6 42.9 42.3 41.3 36.6 35.2 35.5 39.9 39.7 36.9 39.8 38.8 38.7 38.4 38 37.8 38 38.8 39.2 38.9 38.7 36.9 35.8 34.4 34.3 34.7 35 34.8 33.1 29.9 28.6 24.8 25.5 23.5 21.8 19.9 18.7 17.5 16.8 15 11.4 15.3 22.2 26.6 24.7 20.4 17 14.1 10.8 8.6 8 7.2 6 7.1 6.7 8 6.7 9.6 15.3 15.6 15.4 15.5 15.3 14.3 14.9 15.2 16.2 16.9 17 16.7 15.8 14.4 13.6 11.6 12.2 14 15.5 16.8 17.7 18.3 19.3 20.2 21.8 22.5 23.2 23.6 25.1 26 26.9 27.7 30.2 32.3 34.2 37 37.8 37.6 37.6 37.8 37.3 36.4 36.4 37.6 41.6 44.1 43.7 42.3 39.3 35.6 32.1 32 31.7 29.5 28.2 26.9 25.5 25.3 23.4 27.5 29.2 28.9 31.7 32.7 32.1 29.8 28.2 26.4 25.9 25.2 24.9 24.7 25.2 26 26.9 27.5 27.5 27.9 28.6 28.7 29.2 28.8 24.7 21.4 20.1 18.1 17.4 12.2 8.8 10.4 10.3 7.6 6.4 5.4 7.6 6.7 7.1 6.3 7.6 6.7 5.8 5.1 4.4 4 3.6 3 2.5 2.3 2.1 1.5 1.1 1.3 1.5 2 2.2 1.7 1.5 1.9 1.9 2.1 1.9 1.7 1.7 1.7
32.6 31.4 29.8 29.2 29.9 30.5 31 32 32.4 36.5 39.8 43.3 43.4 40.6 39 41.9 44.1 43.9 43.7 42.1 41.4 40.2 39 36.1 35.5 38.1 38.6 34.1 35.5 37.7 37.5 37.9 38.5 37.7 38.5 39 39.4 38 36.2 33.7 31.7 30.3 30.5 31.2 33.6 34 34.5 33.7 33.2 31.9 25.2 25.6 22.8 20.9 19.4 18.1 17 15.7 12.2 13.1 21.5 25.8 25.2 20.9 17.6 14.2 12.5 11.3 9 7.6 4.6 6.3 5.7 4.5 5.8 11 16.2 17 16.8 16.6 15.5 15.3 16.2 16.4 16.8 17.7 17.8 17.7 16.7 15.4 15.2 13.9 12.1 12.5 14.3 16 16.6 16.8 17.6 17.9 19.6 19.9 20.7 21 23.2 24.5 25.9 27.6 29.9 31.9 33.2 34.8 35.4 36 36.1 36.5 35.9 35.2 35 36.9 40.5 42.7 43.2 42.4 39.3 35.9 33.5 32.9 32.3 30.7 28.9 27.5 27.6 26.3 23.2 24.7 26.8 29.4 30.8 33.1 33.1 31.1 29.4 27.5 26.7 27.4 26.8 26.1 26.2 26.4 26.9 26.5 28.5 28.3 28.1 27.7 27.6 24.4 22.4 20.6 17.8 17.3 15 11.8 8.8 8.9 8.5 7.1 4.9 5.9 7.7 6.8 7.4 6.4 6.3 5.3 4.5 4.1 3.4 3.1 3.1 2.5 2.3 2.1 1.9 1.6 1.5 2 2.2 1.4 1.3 1.2 1.5 1.5 1.6 1.8 1.9 1.8 1.9 2
33.6 32.3 31 30.5 32.4 33.9 35.4 37.5 39.5 44.9 41.4 43.7 41.7 40.5 43.2 45.1 45 44.1 42.6 40.4 38.9 37.9 36.8 35.5 34.5 35.2 31.3 32.6 34.2 34.9 35.2 35.7 36.3 35.9 35.3 35.4 34.6 32.4 30.5 28.3 26.9 26.1 26.6 27.3 29.5 32.7 34 34.2 33.9 33.4 30.3 25.1 23.4 21.4 19.2 17.9 17 15.7 12.9 11.4 18.2 22.5 23.5 20.8 17.3 14 12.1 10.8 9.6 8.5 6.7 5.6 5.6 5.7 4.8 11.2 16 17.7 20.6 17.9 17.4 17.8 17.5 17.6 18.3 18.2 18.1 17.8 17.1 16.9 16.7 15.6 14.5 12.8 13.8 15.1 15.4 15.9 16.7 17.1 18 19.8 21.1 22.8 24.2 23.1 25.8 28.1 30.2 32 33 32.7 33.6 34.5 34.7 35 34.6 34 33.9 35.1 36.7 40.3 41.5 42.5 40.7 38 37 34.2 31.9 30.6 30.2 29.2 28.1 26.6 25.2 24.9 24.3 27.7 31.8 34.1 35.1 33.4 30.1 28.4 29.5 29.4 28.3 27.3 27.8 27.2 27 27.2 29.8 26.3 26.5 26.2 25.3 22.7 20.8 19.3 16.1 14.1 13 11.2 9.5 7.9 6.5 6.9 5.6 4.5 5.7 5.4 6.6 6.1 5.6 4.9 4.1 3.3 2.4 2 2.1 2.3 2.4 1.8 1.7 1.8 1.5 1.4 1.1 0.9 1.2 1.4 0.9 1.3 1.4 1.5 1.6 1.6 1.4 2
35.5 34 32.4 32.8 34.9 37.1 40.4 43.5 46.5 48.1 46.1 43.1 41.6 44.2 45.6 45.5 44.4 43.7 41.4 39.6 37.6 35.5 34.4 32.7 31.2 31.5 31.3 31.7 32.2 30.9 31.1 31.2 31.6 31.3 30.4 29.7 29 27 25.9 24.6 23.6 23.1 23.4 24.1 25.5 29 32.7 33.5 32.9 31.7 28.6 24.6 21.9 20.3 18.5 17.1 16.2 15.2 13.3 10.7 13.6 16 17.6 17.3 15.1 13.2 9.9 10.2 9.3 7.5 6.1 5.9 5.5 5.5 3.5 8.9 15.8 20.3 20 20.8 18.8 20.1 19.7 20 20.1 20.1 19.5 18.8 18.4 17.9 17 16.4 15.1 13.3 12.9 12.9 14.9 16.5 17.3 18.8 21 23.7 25.6 26.7 26.6 26.1 27 28.8 30.6 32.3 33 32.8 32.2 33.2 33.6 33.6 33.5 32.9 32.9 33.8 35.1 37.2 40.3 42.8 39.7 39.6 35.2 33.4 32.5 32.1 30.4 29 28.1 27.3 26.5 25.5 25.2 28.1 32.9 35.1 36.6 34.1 31.2 29.8 30.1 30.6 29.7 28 27.9 27 27.4 27 28 26.2 25.2 23.5 21.5 20.2 20.2 18.8 16.1 13.9 11.5 9.2 8.6 8.6 8.1 7.5 7.1 5.4 3.7 4.5 5.1 4.5 3.9 3.2 3.1 3.2 2.4 1.8 2.1 2.2 2.2 2.2 2.1 2.4 2 0.8 0.9 0.7 0.8 0.7 0.9 1 1.2 1.2 1.5 1.4 1.5 1.8
36.5 34.7 33.5 35.2 38.6 42.2 45.8 48.4 49.7 47.5 45.3 44.7 46 46.3 46.1 45.1 43.9 42.1 40.7 39.2 36.5 33.6 32.8 33.2 32.1 31.2 29.4 28.7 27.2 27.6 28.1 27.3 27.5 27.6 26.8 25.9 25 23.7 23.3 23.2 22.4 21.7 21.4 21.9 23.7 27.2 31.7 33 31.5 28.6 25.8 23.5 20.5 18.7 21.6 15.9 15.3 14 11.2 9.9 9.1 10.1 11.4 12.1 12 11.1 9.6 10 7 6.5 6.8 6.7 5.7 5.9 5.7 7.4 14.7 20.8 20.9 20.4 21 21.7 22.1 22.3 22.3 21.8 21.2 20.6 19.7 19.2 18 16.9 15.6 16 15.5 14 14.6 16.5 19.2 21.9 24.8 27.7 29.2 29.5 28.3 28 28 28.7 30.2 31.3 31.8 31.7 32.2 32.3 32.8 32.7 32.5 31.9 31.8 32.6 33.8 36.5 40 41.4 40.6 37.2 35.5 33.7 32.9 31.7 31.2 30.1 29.5 28.7 27.8 26.4 25.4 29.4 32.7 35.8 37.1 34.8 32.2 31.4 32.1 31.3 30.3 29.3 28.7 27.4 26.7 26.3 25.7 25.3 23.6 21.5 19.8 18.3 16.9 16 12.9 12.2 11.3 10.8 10.5 9.9 9.4 8.8 8.1 7.2 5.7 2.5 3.9 3.2 2.7 2.4 2.4 2.4 2.1 1.6 2.3 2.1 1.7 1.9 1.8 1.8 2.3 2.2 1 1.2 1.4 0.9 1.1 1.8 1.5 1.5 1.6 1.7 2.3 3.7
36.4 34.8 34.7 38.5 42.2 47 50.7 50.7 49.1 47.4 46.6 47.1 47.8 46.7 45.4 44.4 42.2 39.4 37.4 37 37 37.4 37.3 36.9 35.8 34.4 32.7 30.8 29.9 29 29.4 27.3 26.1 23.9 23.7 24.2 24.1 24 23.7 23.8 23.3 22.6 21.6 20.5 22 26.5 32.8 32.7 29.6 26.7 23.9 21.2 19.3 17.9 17 21.9 14.2 12.6 12.9 12.4 12.2 10.5 8.7 7.5 7.3 7.2 6.8 6.7 8.3 8.7 8.2 7.2 6 5.6 6 7.1 14.3 17.8 17.7 18.4 20.4 20.9 22.6 24.4 23.8 23.3 23 22.4 21.4 20.2 19 17.7 17 16.5 16 14.7 15.3 17.5 20.5 24.5 27.8 29.7 31.2 31.5 30.3 30.3 30.4 31.3 31.5 31.9 30.9 29.8 30.7 31.4 31.5 31.6 31.5 30.9 30.7 32 33.7 36.7 39.7 41.5 40.1 38.7 37 35.7 35.4 34.2 32.7 30.7 30.3 29.3 28 26.3 24.9 30 32.9 36.2 37.5 36 33.3 33.1 33.9 31.5 30.9 30.9 29.5 28.2 27.6 25.3 24.9 24.1 23.2 22.2 19.9 18.9 17.5 15.6 15.1 12.8 12.5 11.9 10.8 9.1 8.5 8.2 7.9 7.6 6.6 5.1 4.3 2.6 2.4 2.1 2.1 2.1 1.4 1.3 1.7 1.6 1.8 1.6 1.8 1.9 2.1 2.6 2.5 1.7 1.2 1.1 0.9 1.8 1.7 1.7 1.8 2.2 4.4 5.5
37.2 37.7 38.8 41.9 45.8 50.5 51.5 49.5 49.6 48.8 49 48.9 47.8 46.4 45 43.3 41.1 40.1 39.7 39.6 39.7 39.2 38.7 38.1 37.3 36.5 35.1 33.6 32.4 31.5 30.5 29.8 28.6 27.2 26.5 26.2 26.3 25.5 25.3 24.9 24 22.9 21.7 21.1 21.4 26 33.2 32.6 30.4 27.3 23.7 20.7 18.7 17.2 16.6 15.2 18.2 13.6 14.4 13.9 13.3 12.6 12.2 11 9.6 8.6 8.5 10.1 10.2 9.9 9.2 7.4 6.2 6.1 5.9 7 11.7 13.1 13.8 15.3 16.1 17.1 20.3 22.7 23.7 24.6 24.1 23.3 21.9 20.6 19.3 18.1 17.4 17 15.6 15.1 15.8 19.5 23.5 27 29.7 31.3 32.2 32 32.2 32.5 33.1 33.9 33.7 32.4 31 29.6 28.8 28.9 29.5 29.8 29.7 29.7 31.4 32.6 34.6 37.3 39.9 40.6 39 40 38.7 37.6 36.4 35.1 33.5 31.4 28.7 29 27.6 25.7 25.7 28.3 32.3 36.1 39.1 37.8 36 35.3 33.9 34.3 32.7 30.5 29.4 28.7 29.5 26.9 25.7 25.8 22.6 22.5 19.2 17.8 17.1 15.9 15.1 14.1 11.9 10.8 9.4 8.1 7.4 7.2 6.8 6.6 6.5 5.2 4.2 2.1 2.1 2 1.9 1.9 0.7 0.2 1.6 1.6 1.6 1.6 1.8 1.9 2.1 2.1 1.8 2.3 1.9 1 1.9 1.3 1.4 1.6 1.9 3.8 5.5 6.5
40.6 41.2 42.6 46.2 48.6 51.3 49.8 47.6 47.6 49.3 50 49.1 47.8 46.2 44.3 43.2 42.2 41.9 41.4 40.6 39.5 38.3 37.4 36.5 36.2 35.4 36 35.6 34.2 33.3 33.1 31.7 30.4 29.3 28.6 28.6 28.3 27.2 26.5 25.1 24.2 23.3 22.2 20.9 22.4 28.8 33.1 32.6 30 25.8 22 19.7 18 16.6 15.5 14.5 15.3 16.3 19.2 14.4 14.1 13.5 12.3 11.7 10.9 10.6 11.2 11.6 11.3 10.3 9.3 7.5 6.2 5.8 4.9 6.6 8.2 9.8 10.6 11 13 14.4 16.1 18.3 19.8 21.3 21.7 21.1 20.7 20 19.1 18.3 17.9 17.5 16.9 16.1 17 18.8 24 27.5 29.3 30.6 31.1 31.8 32.8 33.7 34.3 34.6 33.9 32.5 30.8 27.6 26.8 28.7 29.2 29.7 30.6 31.8 32.9 34.2 36.6 38.6 40 40.9 40.2 39 37.8 35.4 35.4 34.3 32.9 31.1 29.4 28 27.3 25.8 26.7 30.5 34.4 35.7 39.5 40.5 39.1 36.8 34.4 33.6 33.2 32.9 31.7 30.2 29.2 27.2 24.3 23.8 21.2 23.4 19.5 17.2 15.9 15.3 14.6 12.9 10.9 9.5 8.2 6.9 6.1 6 5.6 5.5 5.7 4.4 2.5 1.5 1.8 1.7 1.6 0.3 0.1 1.1 1.6 1.7 1.9 1.8 1.9 1.9 2 2 1.9 2.1 1.6 2.2 2.2 2 1.8 2.2 3.1 4.5 5.6 6.3
44.3 44.2 45.4 47.1 48 47.5 46.4 44.5 45 47.1 49.4 48.9 47.8 46.4 44.9 44.2 43.1 42 40.6 38.9 36.8 35.3 33.6 32.7 32.3 32.4 33.5 34.2 34.4 33.8 32.2 30.9 29.6 28.5 27.6 26.8 27.1 26.9 25.6 24.8 24.1 23.5 22.7 20.7 22.8 28.9 29.9 28.1 24.8 21.4 19.1 18 16.9 15.4 15 17.6 18.7 18.2 16.8 19.8 14.3 13.4 12.3 11.5 11.8 12.1 12.6 12.3 12 10.8 9.4 7.6 6.1 5.7 6.1 6.7 11.6 13.8 15.3 16.8 17.4 16.4 15.2 16 16.3 17.7 18.5 18.6 18.8 18.9 18.7 18.7 18.9 18.7 18 16.8 17.3 19.8 22.8 24.5 27 28.9 29.1 30.4 31.7 33.2 34.1 33.8 32.4 31.2 29.7 26.6 29.3 31.5 32.7 33 33.2 35.1 36.1 37.4 38.6 40 41.3 40.3 39.3 37.8 36.1 34.3 34.1 32.9 31.8 30.6 29.1 28.3 27.5 25.7 28 31.6 34 36.3 40.6 41.4 40.6 37.9 35.1 32.1 31.2 31.9 31.9 30.7 28.8 26.4 23.6 22.2 19.9 21.9 17.9 15.4 14.6 14.6 14 11.9 9.9 8.5 7.1 5.8 5 4.7 4.2 4.4 4.5 3.1 2.1 1.7 1.4 1.3 1.1 0.4 0.3 0.9 1.4 1.6 1.8 1.9 1.9 1.8 1.9 1.9 1.6 1.5 1.7 1.9 1.8 1.5 1.6 2 2.7 4.1 5.3 5.7
43.8 43.2 44.8 44.8 45.2 44.4 42.5 41.8 42.4 44.9 48.1 48.3 47.3 46 45.2 43.6 42.8 41.6 38.8 35.6 32.6 30.8 29.3 28.4 28.1 28.2 29.1 29.9 30.4 30.1 28.5 26.8 25.3 24.2 22.8 22.1 22.6 22.2 21.8 21.3 21.5 22 22.3 21 20.7 23.2 22.4 20.9 19.2 17.7 18.8 17.8 16.9 17.5 19.6 20.5 19.5 18.4 16.8 15.4 14.3 17.6 12.3 12 12.6 13.4 13.9 13.3 12.4 11 9.2 7.3 5.6 5.6 6.1 7 12.9 16.5 18.4 19.1 19.5 18.1 17.5 16.5 16.2 16.7 17.3 17.5 17.9 18.4 18.8 19.6 20.9 21.8 20.4 19.1 17.9 18.3 20 22 23.6 24.9 26.2 28.5 29.9 31.4 32.3 31.9 30.1 28.6 26.5 28.4 31.3 34 35.2 35.7 36.2 37.2 38.6 39.3 40.7 41.7 40.8 39.5 38.2 36.6 35 34.3 33.6 33.8 32.8 31.2 29.9 28.6 28.2 26.8 29.1 31.9 33.9 37.8 41.1 42.5 41.6 39.3 35.4 31.7 28.3 29.6 31.1 29.9 27.2 24.2 22.6 20.9 18.5 18 16.1 14.6 13.6 14 13.6 11.7 9.3 7.8 6.3 5.1 3.9 3.6 3.2 2.9 2.6 3.4 1.7 1.5 1.6 1.6 1.3 1.5 0 0.9 1.6 1.6 1.8 1.9 1.8 1.8 1.7 1.6 1.8 1.7 1.7 1.9 1.8 1.3 1.5 1.5 2.6 3 3.7 5.1
43.2 41.8 42.1 43.1 41.3 40.4 39.7 39.9 40.7 44.7 47.5 47 46 45 43.9 41.9 41.6 39.3 35.5 31.7 29.8 28.8 27.7 26.8 26.1 25.7 25.1 25.4 25 24.8 23.2 22.3 21.5 20.8 20.2 19.4 19 18.6 17.9 17.1 16.4 17.7 19 19.6 19.9 18.8 18.9 19.2 19.7 20.3 19.9 21 22.5 22.8 22.7 20.8 19.5 18.3 16.7 15.5 13.8 13 16.1 13.2 14 14.7 16.5 15.7 13.8 11.3 9.1 6.6 5.8 6.1 5.1 9.9 14.6 16.8 18 18.5 18.5 18.3 18 17.5 18 17.8 18.4 18.4 18.7 19 19.7 20.9 23.2 24.7 23.8 22 20.1 18.8 18.9 19.1 20.5 23.4 25 26.7 27.4 27.7 27.7 27.9 27.1 26.4 27.9 30.1 33.2 35.6 36.7 37.2 37.1 37.6 38.9 40.6 41.4 41.5 40.8 39.5 37.9 37.1 35.8 35.8 35.3 35 33.8 32.6 31.2 29.6 28.1 29 29.7 31.1 34.3 37.2 40.5 42.5 42.7 40.2 37.2 32.3 28.3 26.1 28 27.3 23.9 20.9 20.3 19.3 16.8 16.2 14.5 13.9 11.2 12.3 12.9 11.1 9 7.2 5.7 4.4 3.5 3.2 2.6 2.5 2.1 3.3 1.7 1.9 2 2.1 2 1.8 0.7 0.8 1.7 1.5 1.7 1.8 1.9 1.8 1.6 1.7 1.7 1.7 1.9 1.9 1.9 1.8 2.4 2.2 1.9 1.9 2.5 4.1
43.5 41.8 41.5 41.1 38.8 38.4 38 38.1 39.2 42.9 44.6 43.7 41.9 41.7 40.2 38.6 37.2 34.7 32 29.9 28.6 28.8 28.3 27.9 27.1 26.3 25.5 24.7 24 23.4 23 22.5 22.5 22.7 22.9 22.4 21.5 20.6 20 19 18.2 16.8 16.9 19.2 20 20.1 20.4 20.1 19.6 20.4 21.4 23.9 26.4 26.4 23.3 21.8 21 19.4 17.1 15.6 14.5 14.1 13.9 14 16.6 16.8 18.4 18.2 16.3 12 6.8 5.2 5.7 4 8.6 11.8 13.6 14.9 16.4 17.2 17.2 16.2 16.4 18.3 19 19.9 20.6 21 20.9 20.7 21.2 22.2 24.7 27.6 28.4 25.4 23.3 21.7 21.5 21.1 20.4 21.3 23.1 24.4 24.3 24.8 25.1 25.8 27.7 27.5 29.3 33.1 35.3 36.8 37.7 37.4 37 37.4 38.7 40 40.5 40.3 39.7 40.6 39.7 39.9 38.4 38.9 36.4 36.2 33.7 32.3 30.7 29.4 28.8 29.7 31.2 32.7 33.6 37.4 40.1 41.6 41.2 39.6 37.5 34.2 29.9 25.9 23.2 24.5 21.7 19.3 17.9 16.6 15.1 14.5 13.1 11.8 10.9 11.2 11.4 10.1 8.1 6.4 5.1 3.9 3.3 2.8 2.3 2.2 2.2 2.3 2.7 2.9 2.9 2.8 2.6 2.2 1 0.2 1.5 1.5 1.5 1.8 2 1.5 1.9 1.6 1.6 1.7 1.8 1.8 1.6 2.6 2.7 2.6 2.5 2.1 2.2 3.1
43.9 42.7 42.7 42.3 41.1 39.5 39.3 37.5 36.4 38.3 40.1 39.1 37.2 36.2 34.6 33.4 32.2 30.9 30 30.4 30.2 30.3 29.9 29.3 28.1 27.6 27.2 26.6 26.1 26 25.8 25.6 25 25.2 24.9 23.9 22.7 22 21.4 20.6 19.4 17.6 15.7 15.6 16.6 18 18.5 19 18.3 19.3 21.1 22.9 24.8 26.5 25.5 24.5 22.5 20.2 18.3 16.6 15.9 14.6 14.1 15.2 18 19.1 16.4 18.6 16.3 11 5.7 5.3 4.3 5.5 6.8 8.5 10.1 12.7 13.5 14.8 15.1 14.8 17.1 19.1 20.9 22.7 24.5 25.4 24.6 23.9 23.6 24.1 26.4 31.4 33.1 29.7 27.1 25.7 24.9 24.3 22.5 21.2 21 22.3 22.4 25.5 27.7 29.6 31 30.8 31 32.2 36 37.2 37.1 35.5 35.4 36.6 37.5 38.2 38 38.1 39.1 40.3 41.4 41.7 41.6 39.2 37.9 35.1 33.3 31.9 30.9 30.5 29.6 29.3 29.3 32.1 33.9 35.7 38.7 41.2 40.4 38.4 36.5 33.9 29.9 24.6 19.8 20.3 18.8 17.2 15.6 14.5 13.3 12.8 11.1 10.3 10 10.2 9.7 8.7 7.2 5.8 4.5 3.8 2.9 3.1 3.4 3.7 3.6 3.3 3.7 3.7 3.2 2.7 2 1.6 1 0 1.1 1.6 1.7 2.1 2.4 0.3 1.5 1.2 1.4 1.7 1.8 1.7 2.2 2.4 2.8 2.6 2.4 2.2 2 2.4
46.4 44.9 43.8 43.2 42.6 43 42.1 39.9 37.4 35.7 34.8 34.6 33.8 32.8 32.3 32.2 32 32.3 32.5 32.8 32.3 31.8 31.4 30.4 29.6 29.3 28.9 28.5 28.4 28 27.7 27.4 26.8 26.2 25.3 24.2 23.8 22.9 22 20.6 19.7 18.9 17.5 15.6 14.9 15.5 16.5 17.2 16.9 17.7 18.4 18.8 20.9 24.4 26.3 26.2 23.6 20.5 18.8 18.5 18 16.1 16.1 16.5 18.6 19.3 18.7 16.4 13 6.5 5.9 5.4 4.3 6.9 7 6.2 5.8 7.3 9.5 11.1 12.9 15.6 17.2 19 23.4 27.4 29.8 30.6 28.2 26 25.2 25.9 28.6 32.7 35.6 33 31.8 30 28.6 26.5 25 23.7 22.5 23.2 24.9 27.2 29.8 32.4 33.6 33 34.2 35.5 36.4 35.5 34.7 33.7 33.4 34.5 34.6 34.7 35 35.6 37 38.5 40.4 41.8 41.5 39.4 37 35.2 33.1 32.3 31.8 31.2 30.4 29.7 30.3 31 33.3 34.8 38.2 39.5 38.7 36.7 34.8 32.6 28.8 24.6 21.1 17 15.6 14.7 14 12.4 11.4 11 9.4 9 8.7 8.8 8.3 7.4 5.9 4.9 4.3 3.7 4.2 4.6 4.7 4.8 4.9 4 4.2 3.7 2.4 1.7 1.3 1.5 0.2 0.5 1.3 1.7 2.3 2.8 3.1 1.7 1.1 1.2 1.4 1.7 1.6 2 2.3 2.3 2.7 2.7 2.3 2 1.7 2
46.8 46.3 45.5 45 45 46 45.1 42.4 40.5 39.6 38 36.3 35.1 33.7 33.1 34.6 35.1 35.8 35.4 34.9 34.4 33.5 32.6 31.8 31.2 30.9 30.5 30.1 29.5 29.1 28.6 28.1 27.4 26.8 26 25.4 24.3 23.4 22.3 21.5 20.7 19.9 18.8 17.1 14.5 13.9 14.8 15.4 15 15.2 15.5 15.6 17.6 20.7 23.8 25.3 23.4 19.9 19.4 19.6 18.7 17.8 17.5 17.9 18.7 18.9 17.9 15.8 10.9 11.3 9.7 5.3 7.1 9.3 9.8 9.8 8.8 6.5 5.6 7.4 11.7 14.5 15.5 18.4 22.4 26.9 28.3 29 27.6 23.3 24.4 25.6 30.2 34 36.3 36.3 35.3 32.8 30.1 28.2 26.8 26 26.5 27.6 28.2 29 31.2 33.3 35 35.6 35.6 34.8 34.9 33.8 32.1 31.3 31.5 32.2 31.4 31.6 32.6 33.3 35.5 37.5 39.6 41.4 40.7 38.6 36.7 35.2 34.4 33.5 32.7 32.2 31.8 30.6 30.1 31.4 33.5 35.6 37.3 38.3 37.2 34.7 32.9 31.2 27.8 24.1 21.8 17.8 13.9 12.8 11.7 11.5 11 9.4 8.5 8.3 7.8 7.3 6.9 6 5.1 5 4.1 4.5 5 5.5 5.9 5.4 5.5 4.8 3.9 3.1 1.9 0.2 0 0.8 1.2 0.9 1.5 2.2 3 4.7 3.3 2.3 1.5 1.4 1.6 1.8 1.7 1.8 2.4 2.8 2.9 2.7 2.3 1.6 1.5 1.5
48.1 47.2 45.8 46.2 47.5 48.2 47 45.5 43.6 42.9 40.8 38.7 36.1 34.6 34.6 37.1 38 37.8 36.9 36.3 35.5 34.5 33.7 33 32.3 31.9 31.4 30.8 30.3 29.8 29.1 28.5 27.7 26.8 26.1 25.4 24.5 23.7 23 22.3 21.3 20.3 18.7 17.2 14.9 12.9 12.6 12.7 12.3 12.8 12.8 13.1 15.2 18.1 21.1 23.7 24.3 21.9 20.5 20.3 19.6 18.9 18.5 18.3 18.4 18.2 18.2 17.8 10.9 5.2 4.4 11.2 6.6 9.7 10.3 10.7 11 11.2 10.4 7 6.4 8.2 10.4 12.4 15 17.5 19.3 21.4 22.3 20.7 22.2 24 28.3 33.9 36 36.5 34.6 31.4 28.9 28.6 28.2 29 30.8 30.7 30.6 30.6 31.7 34.3 35.4 35.1 34.4 32.9 32.1 30.9 30.1 29.4 29.8 30.2 29.8 29.8 30.8 32.6 34.9 37.8 40.3 41.6 41.1 38.8 36.8 36.3 35.9 35 34.2 33 31.8 30.6 30.7 32.2 33.8 35.4 36.6 36.6 35.1 32.5 30 27.5 25.7 22.8 20.3 18.7 16.9 13.5 11.3 10.1 10.8 8.6 8.4 8.1 7.2 6.7 6.4 6.1 5.8 6.1 4.7 5.6 4.5 6.3 6.8 7.2 5.3 4.6 3.6 2.8 1.9 1 0.6 0.9 1.2 1.2 2 3.9 7.1 7.7 4 1 1.5 1.1 1.6 1.7 1.8 2.1 2.9 2.9 2.8 2.7 2.2 1.7 1.5 1
50.2 49.3 48.6 49 49.7 49.9 48.2 46.6 44.3 42.7 40.8 38.2 36.3 35.2 35.9 37.5 38.8 39 38.3 37 36 35.3 34.6 33.8 32.7 32.1 31.5 31 30.5 29.6 29.1 28.2 27.6 26.9 26.1 25.5 24.8 24 23.2 22.3 21.2 19.9 17.4 14.7 13.6 14.2 13.9 13.1 12.2 11.6 12.2 11.4 13.1 15.5 19.3 24 25.6 23.6 21.4 20.5 19.2 18.4 17.8 17.5 18 17.7 17.8 17.3 14.5 5.1 3.6 5 6.9 14.3 10.9 11.4 12 12.4 12.7 12.2 10.7 9.4 7.8 6.9 8.2 8.8 10.7 12.6 15.5 15.7 17.6 20.9 23.7 27.3 31.8 32.6 29.4 27.3 27 27.5 28.6 29.4 30.4 30.4 30 28.3 32.3 33.4 34 33.5 32.1 30.6 29.5 28.8 28.2 27.7 28.3 28.1 28 28.3 30.5 32.9 35.6 38.6 41.3 42.1 42.3 40.6 40 38.8 38.2 37.4 35.8 33.7 32.3 31.4 32 33.7 34.3 35 35.5 35.2 33 30.4 28 25 23.4 20.8 19.1 17.7 16.9 13.2 11.1 9.9 10.9 9.1 8.3 8.1 7.6 7.1 7 7.4 7 6.1 5.4 6.6 6.9 7.2 7 7 5.1 4.3 3.4 2.5 1.8 1.3 1.3 1.9 2.2 2 3.7 6.3 10.1 9.6 5.1 2.2 2.1 1.5 1.7 1.6 2.7 3 3.1 2.9 2.9 2.3 0.1 1.8 1.9 1.3
53 53.1 50.4 52.4 52.5 50.8 48.8 47 43.9 42 39.8 37.8 36.8 36.5 37.5 39.1 39.7 39.5 38.9 37.6 36.3 35.3 34.7 33.5 32.2 31.7 31.6 31.1 30.3 29.4 28.7 28 27.4 26.8 26.2 25.6 24.8 23.8 23.1 21.5 20 17.2 14.1 14.9 16.6 16.8 16.1 15.1 14.4 12.9 11 11.1 11.8 14.6 20.6 25.9 26.1 22 18.6 16.8 16.1 16.1 17 16.9 17.6 16.8 16.6 15.4 13.5 10.6 5.1 5.1 7.2 9.7 11 14.8 13.2 13.9 14.8 15 14.3 13.9 13.4 13.2 12.7 10.4 8.4 8.5 9.6 8.9 12.2 15.3 16.7 20.5 23.8 23.2 22.1 23.6 25.6 26.7 27.8 28.5 28.8 28.1 25.6 28 30.1 30.9 31.3 30.7 29.3 28.6 27.4 26.8 26.1 26.7 26.7 26.4 26.7 28.6 31.5 33.7 36.5 39.4 42.5 44.2 44.6 43.1 42.3 40.9 40 38.8 36.6 34.5 33.5 32.5 32.4 33.7 34.8 35.2 34.7 33.8 30.7 27.5 25.4 23.2 20.7 18.8 17.2 16.6 14.7 11.7 10.5 10.2 11.5 8.5 8.4 8.1 7.7 7.8 8.1 7.8 6.9 5.6 5.9 7.1 6.9 7.6 7 6 5.1 3.8 3.2 2.2 1.7 1.6 1.9 2.8 4.1 4.9 6.8 9.2 11 9.9 5.9 2.9 2 1.4 1.7 1.8 2.7 3.3 3.1 2.8 2.2 1.3 1.8 2.1 2.1 1.8
57.5 57.4 56.3 55 52.6 50.2 48.5 46.1 43.3 41.1 39 37.9 38 38.4 39.6 41 40.4 39.8 38.9 37.2 35.2 33.3 32.2 31.8 30.5 29.6 29.8 29.8 28.9 28.2 27.2 26.8 26.7 26 25.8 25.4 24.4 23.3 21.7 19.3 16.2 15.4 16.8 18.3 18.2 17.8 16.6 15.6 14.6 12.9 11.3 10.1 11 15.3 21.8 25.6 22.9 18.1 14.1 12.1 11.2 11.8 13 16 17.2 16.6 15.2 13.6 12.3 10.9 7.3 3.5 5.6 9.2 11.6 14.1 14.5 15.8 16.4 17.2 16.4 15.9 15.6 15.2 15 14.7 14.1 13.9 12.4 10 9.9 10.2 10.7 12.4 15.4 17.1 20.8 23.5 25 25.1 26 26.4 26.1 24.5 24.3 25.2 26.7 27.9 28.6 28.1 26.7 26.3 25.8 24.9 24.6 25.6 25.6 24.8 27.4 29.4 31.3 33.6 36 39.4 42.8 44.8 45.5 44.6 42.9 41.8 40.5 39.2 37.2 35.5 34.3 32.9 31.8 32.5 34 34.6 34.6 33.1 29.1 25.9 21.6 18.9 17.1 15 14.4 14.7 12.7 12.1 12.8 12.2 12.6 10 8.1 8.3 8.5 8.7 8.3 7.7 6.8 5.9 6.6 7.7 8.1 7.5 6.4 5 3.6 3 2.5 2.2 1.7 2 2.9 4.2 6.1 7.9 9.4 10.2 10.5 9.7 5.9 2.9 1.7 1.1 1.3 1.8 2.4 3.1 2.9 2.6 1.7 1.9 2.2 2.4 3 2.7
59.3 58.2 57 54.7 51.8 49.6 47.9 45.1 42.8 40.9 39.6 39.8 39.8 40.5 41.6 42.7 40.7 40.4 38 35.5 33.3 31.1 29.8 28.8 28.1 27.2 27.1 26.8 25.6 25 23.5 22.7 22.9 24.4 24.9 24.4 23 20.6 17.7 16.1 17.9 19.3 20.2 20.2 19.4 18.3 17 15.6 14.4 12.9 11.4 9.6 11.2 16.1 21.4 22.2 17.3 12.6 8.7 7.8 7.3 8 10.5 13.8 15.5 15.5 14.7 12.8 11.2 9.6 7.5 5.2 3.5 8.2 12.6 15.1 14.5 13.4 16.2 16.1 17.1 17.9 17.6 17.1 16.3 15.9 15.5 15.5 15.7 15.5 15.1 14.2 12.5 10.4 11.8 18.6 22.7 23.8 24.3 24.8 22.9 22 22.3 21 20.4 22.6 23.7 24.9 25.9 25.4 24.3 24 23.7 22.7 23.2 23.5 22.9 25.9 27.4 29.2 30.7 32.2 34.6 38 41.8 43.6 44.1 43.5 43 42 40.9 39.6 37.8 35.8 34.4 33.1 32.5 32.7 34 34.3 34.4 30.9 26.2 22 19.9 18.7 18.4 16.7 14.2 12.8 13.8 14.9 14.8 12.5 12.3 13.3 10.7 8.7 9.6 9 7.9 7.5 6.5 6.1 7.3 7.8 8 6.5 5.2 4.8 4.1 4.4 3.7 3.5 3.3 4.5 5.6 6.9 8.5 9.4 9.6 9.9 9.6 8.8 5.1 2.9 0.3 1.1 1.3 2.3 2.5 3 2.7 1.8 1.9 2.3 2.7 3.3 4.1 3.9
58.5 57.1 55.1 53 50.6 48.8 46.6 44.3 42.4 41.1 41.9 42.1 42.2 42.5 43.1 42.7 41.4 39.2 35.7 33.1 30.7 29.1 27.8 27.1 26 24.7 24.7 23.9 22.2 21.6 21.7 20.9 20.3 20 21.8 22 20.1 17.1 18.7 20.4 21.5 21.6 21.2 20.8 19.8 18.8 17.3 15.8 13.9 12.2 9.7 9.7 13.2 18 20 18.5 12.9 7.7 5.7 5.7 5.7 6.2 7.8 11.1 13 12.8 12.6 11.4 9.8 8.1 7 5.3 3.8 5.5 5.8 5.8 5 6.4 10.2 14.5 15.6 17.6 18.9 18.9 18.1 17.1 16.7 16.8 17.1 17.2 16.9 16.4 15.8 13 10.3 12.3 17.4 21.2 21.5 21.9 18 18.6 18.6 17.2 18.2 20.3 21.5 22.4 23.3 22.8 22 21.8 21.5 19.4 20.5 22.6 24.9 26.6 27.9 29.1 29.8 31.2 33 36.3 39.5 41.4 42 41.7 41.7 41.7 41 39.1 37.6 35.7 34.5 33.5 33 34.1 34.6 35.3 34.8 31.8 29.9 27.3 24.4 21.3 18.3 15.7 14.6 15.2 16 14.9 14.3 12.6 15.2 17.5 11.2 10.4 9.8 9.1 8.2 7.4 7 6.9 7.7 8 7.1 6.1 5.5 5.8 5.8 6.6 5.9 6.3 7.1 8 8.9 9.4 9.2 8.6 8.1 8.3 8.2 7.9 3.1 3.1 0.8 0.8 1.3 2.2 3 2.7 1.5 1.5 2 2.4 2.8 3.4 3.8 3.3
56.5 54.7 53.2 50.9 49.2 47.3 45.5 43.7 42.8 42.8 44.5 45 45.1 45.9 45.2 43.8 41.2 37.3 33.7 31.3 29.5 28.3 27.2 26.8 26.1 25.5 24.7 23.8 23.1 24.6 24.7 24.2 23.3 20.9 19.7 18.9 18.3 20.4 22.3 22.9 22.6 22.4 22 21.2 20.3 19.1 17.6 15.7 13.7 11.4 8.7 10.5 15.9 19 18.6 13.7 7.8 5.3 4.8 4.8 4.8 5 5.8 7.4 8.7 8.1 8.5 6.9 6.2 6.1 5.4 5.4 4.9 4.8 6.1 4.2 8.5 6.8 7.7 8.5 7.6 11.2 16.7 18.5 19.1 18.9 18.1 18.3 18.5 18.7 18.3 17.8 17.3 16.1 13.6 13 11.2 13.7 14.6 14.7 15.2 15.2 13.6 13.6 15.8 17.7 19.4 20.3 21 20.8 19.5 19 18.2 20.5 21.7 23.1 25.1 26.7 27.4 27.9 28.5 30.1 32.1 34.9 37.3 38.4 39 39.3 40.2 40.7 40.3 39.2 37.9 36 34.7 34 32.7 35.4 36.1 36.6 36.3 34.9 33.2 31.1 27.8 23 19.2 18.2 16.4 17.5 17 15.1 13.4 13.2 19.2 17.3 11.5 11.8 10.2 9.4 8.5 8.2 7.5 8 8.9 8.9 7.6 7.2 7.3 7.3 8.4 9.2 9 9.4 10.4 10.7 10 9.5 8.5 7.4 6.7 6.5 6.9 6.9 4.1 2.4 0.6 1.4 1.3 2 2.7 2.4 1.8 2.2 2.8 2.8 2.6 2.7 2.6 2.2
54.8 52.4 50.7 49.1 48.3 46.5 44.8 43.9 43.3 45.2 48.3 48.6 48.7 47.3 44.3 42.4 39 35.8 32.8 31.2 29.7 28.4 27.6 27.1 26.7 26.1 25.8 25.7 25.8 27.2 27.5 27.2 25.8 23.8 21.5 20.5 21.7 23.4 23.9 23.3 22.9 22.7 22.2 21.6 20.6 19.2 17.5 15.6 13.3 10.2 9.1 12.5 17.2 17.8 16.3 10.6 5.6 4.9 4.9 4.8 4.7 4.8 4.9 5 5.1 5.1 5.1 5 5.8 6.3 6.2 6.1 4.2 6.7 11.7 11.9 11.9 9.3 10.1 9.2 8.3 7.3 8.6 16.3 17.5 18.3 18.4 19.4 20.2 20.4 19.7 19 18.5 17 16.2 16.3 15.3 12.9 12.3 14.4 12 13.5 15.7 15.4 13.2 14.6 17.3 18.5 18.8 18.6 16.3 18.8 19.6 21.1 22.4 23.8 25.2 25.7 26.1 26.6 27.6 29.2 31.1 33.5 34.7 35.6 36.3 37.5 38.9 39.4 40.1 39 37.4 36.7 35.7 34.9 34.7 36.6 37.2 37.6 37.6 37 35.6 33.8 31.3 27.4 23.6 20 18.3 18.7 17.4 14.6 13.8 13.9 11.7 16.4 10.6 12.8 10.8 9.3 8.9 9.1 9.8 10 10.1 10 9.4 9.2 9.5 9.6 11.3 12.1 13 12 11.9 10.9 9.9 8.9 7.5 5.8 3.8 5.2 5.7 5.7 3.8 1.9 1.3 1.1 1.1 1.7 1.8 2.4 2.8 3.1 3.6 3.3 2.8 2.3 1.7 1.5
52.9 51.3 49.9 48.6 48 46.2 44.9 44.3 44.6 47.8 51 51.7 50.6 46.8 43.6 38.3 36.2 34.2 31.8 31 29.6 28.8 28.5 28 27.3 26.8 26.7 26.5 27.7 29.2 28.9 27.7 26.2 24.4 22.5 22.1 23.5 24.7 24.2 23.7 23.2 22.7 22.1 21.6 20.6 19.1 17.2 15.2 12.5 9.3 8.5 12.8 16.7 16.4 12.9 7.5 5.1 5.2 5.3 5.2 5.4 5.3 5 5.2 5.6 4.6 3.4 3.9 5 5.1 6 6.3 8.6 12.1 12.8 13.1 12.6 10.2 11.5 11.7 12.1 11.6 8.6 8.3 10.7 13.7 18 19.4 20.1 20.9 21.3 20.5 19.6 18.6 17.9 17.5 16.6 15.9 16.5 13.9 14.9 16.1 16.7 17 16.2 14.1 13.7 15.7 15.5 15.5 17.5 18.8 20.3 22 23.3 24.4 24.6 24.8 25.4 26.3 27.6 28.6 30.5 31.5 32.2 33.4 34.6 36 37.1 38.4 39.4 40 39.2 37.7 36 34.8 35 36.4 36.7 37.7 38.1 38 37.5 36.2 34.6 32.2 27.4 22.9 19.9 18.3 17.3 15.7 15.7 17.1 16.4 18.4 20.5 15.4 13.2 13.6 12.6 10.4 12.6 11.7 11.7 11.5 11.1 11.4 11.8 12 12.4 12.9 13.4 12.2 11 9.8 8.5 7.9 6.9 5.3 4.5 4.5 4.1 4.3 2.7 1.4 1.3 1.4 1.2 1.4 2.5 3.5 3.8 3.9 4.2 3.5 2.7 2 1.4 1
52.3 51.2 50 49 48.1 46.7 45.4 45.3 45 49.6 51.7 51.3 48.1 46.1 40.4 36.6 34.5 32 30.9 30.5 30.2 29.7 29.3 28.9 28.3 27.7 27.2 28.2 29.6 30 29.3 28.2 26.4 24.6 23.3 23.8 25.2 25.5 24.7 23.7 22.7 22.4 21.9 21.4 20.2 18.9 17.3 15.4 13.5 9.9 8.3 10.9 15.1 14.3 9.7 6 5 5.3 5.7 5.9 5.6 5.3 5 4.9 5.2 3.4 6.1 6.9 6.9 8.1 10.2 11 11.9 13 13.8 13.5 13 10.2 12 13 13.4 13.8 11.3 9.8 12.2 9.7 12.5 15.7 19.5 19.4 20.8 21.8 21.8 20.6 18.8 18 17.1 16.7 16.9 14.2 15.8 16.5 17.3 17.8 17.5 16 14 16.7 18.6 19.1 19.3 19.2 20.2 21.8 23.6 23.7 23.8 24.8 25.7 26.6 27.6 28.5 29 29.6 30.2 31.6 33.3 34.6 35.8 38 41.2 41.5 40 38.1 37.1 36.1 35.4 35.2 36.2 37 37.9 38.1 38.4 38 36.9 34.3 30.3 25.9 21 18.8 17.3 17 18 18.1 19.2 17.7 17.6 16.1 14.7 13.1 12.2 11.2 10.5 10.4 9.1 9.1 8.4 7.8 7.8 7.8 9.9 11.7 11.8 11.6 9.6 9.3 7.7 7.6 6.9 6.1 5.2 4.2 3 2.2 1.6 1.8 1.7 1.8 1.7 2.7 4.4 4.6 4.9 4.5 3.6 3.2 2.4 1.7 1.3 0.9
53.2 51.8 50.7 49.8 49.1 48.1 47.7 47.1 47.6 49.5 49.6 47.6 43.8 41.1 39.2 38.1 36.5 34.7 32.8 31.8 31.4 30.8 30.4 30 29.3 27.3 28.6 30 30.3 30.2 29.6 28.9 27.3 26 24.7 25 25.6 25.1 24.5 23.3 21.6 21.3 21.2 20.9 20.2 19.1 17.8 16.3 14.4 11.4 7.7 8.8 12.7 12.5 7.9 5.5 5.1 5.3 5.7 6.1 6.2 4.4 5 4.6 5.3 3.3 6.9 9.1 8.7 10.5 11.7 12.5 13.1 14 14.4 14.2 13 11.7 13 14.2 14.6 14.5 12.4 9.7 13.8 14.4 13.4 10.4 13.9 16.3 20.5 21.6 23.4 22.2 19.5 18 17.9 17.2 16.7 15.6 16.1 16.9 18 18.8 18.5 17.7 15.9 15.7 19.4 20 20.2 20.3 20.6 21.8 22.7 22.9 23.9 25.3 26.2 26.8 27.6 27.4 27.5 28.9 30.6 32 33 33.4 35.7 38.6 40.7 41.8 40.3 38.8 37.6 36.8 36.2 36 36.2 36.5 37.6 37.8 37.5 38.8 38 34.8 30.4 25.7 22.7 21.5 20.3 20.7 19.1 16.8 19.3 15 14.5 17 15.6 15.2 14.5 18.7 17.3 17.6 16.7 14.9 14.2 13.4 13.6 12.7 8.7 7.3 7.8 8.3 7.7 7.5 7 6.6 6.5 5.9 4.4 3.1 2.2 3.1 3.1 3.1 2.7 2.8 3.4 4.9 6.7 6.7 4.4 2.7 2.3 3.2 2.3 1.6 1.3 1
55.6 54 53.3 52.8 53 52.1 51.2 50.2 49.8 50.2 49.5 50.4 48.2 45.1 43.7 41.5 39.3 36.7 34.9 33.5 32.7 32 31.4 30.7 29.8 29.3 30.7 31.2 30.8 30 29.4 28.3 26.7 25.2 24.9 25 24.4 23.3 22.4 21 18.4 17.6 17.5 19.1 19.5 18.7 17.6 16.4 14.6 11.8 8.6 7.5 9 11.2 7.3 5.5 5.2 5.3 5.7 6 6.2 4.6 4.9 4.7 5.4 4.7 4.3 9 10.6 11.6 12.5 13.2 14 14.4 14.9 14.7 13.8 13.8 14.9 15.3 15.7 15.3 14.1 9.8 12.9 15.4 15.8 15.3 13.1 13.9 16.9 21 22 22.5 19.4 19.5 19.1 18.4 17.5 16.7 15.9 16.8 18.5 19.7 19.7 19.2 17.8 14.8 18.9 20.6 20.9 21.4 21.3 21.4 22.1 22.8 23.7 25.1 26.2 26.7 26.5 25.7 26.9 28.5 30.2 30.8 30.5 31.1 35 37.1 40.1 41.9 40.9 39.3 38.1 37.3 36.7 36.5 36.8 37 37.2 37.5 38.1 38 37.8 35.8 32 28.5 28.1 27.3 25.7 24.1 21.1 16.9 18.1 16.5 15.6 19.2 19.9 17.1 19.9 18.2 18.6 18.7 17.1 14.6 13.2 12.2 11.8 11.4 9.5 8.6 8.2 6.4 6.1 7.9 5.6 5.5 4.1 4.6 3.8 1.6 4.1 4.7 4.8 4.6 4 4.6 6 7.1 7.6 4.7 3.3 0.7 0.7 0.7 2 1.6 1.2 1.5
58.8 57.3 57.1 57.8 57.4 56.1 54 52.6 52 51.4 50.3 51.9 50.2 47.1 45.8 44.2 42 39.7 37.8 35.6 34.5 32.9 31.9 31.3 30.9 31 30.8 30.7 29.8 28.9 28.3 26.9 25.2 24.5 23.2 23.2 22.5 21.4 19.9 18.3 15.4 14 13.1 13.7 16.7 17.1 16.4 15.8 14.7 13 10.5 6.9 6.9 9.2 8.1 5.4 5.3 5.1 5.4 5.6 5.5 4.5 4.4 4.7 5.6 5.5 5.3 5.4 10.3 12.2 13 13.8 14.7 15.1 15.4 15.4 14.8 15.5 16.1 16.4 16.7 15.9 14.8 11.9 11.2 13.5 15.8 16.4 16 13.5 14.7 19.5 20.3 22.3 21.8 21 20.5 19.2 18.2 17.2 15.8 16.1 18.7 20.3 20.7 19.9 19 17.3 16.1 18.8 20.4 20.5 20.8 21.5 22.3 22.7 23.3 24.3 24.9 24.8 23.9 24.3 26.1 27.3 28.5 29.1 30.4 31.7 34.3 36.2 40 42.2 41.7 40 38.6 37.8 37.4 37 37.2 37.5 37.7 37.9 38 38 37.3 35.8 33.7 33.5 31.9 30.5 28.6 26.1 22.4 18.3 14.7 17.5 16.7 20.9 18.2 19.9 20.5 19.7 18.9 18 17.7 14.8 12.2 10.9 10.6 11.3 9.2 9.5 9.5 8 7 8 5.7 5.4 5.3 9.1 7.6 5.5 5.1 6.4 6.2 6.1 7.1 7.4 9 7.9 6.4 6.3 5.5 4.7 2.8 0.7 2.5 1.3 1.9 0.9
63.7 62.1 63.3 63.2 61.5 58.9 56.2 53.7 52 50.9 50.6 51 48.6 47.2 45.6 44.2 42.6 40.8 39 37.1 35.4 34.1 33.2 32.4 32 31.3 31 29.9 29.1 28.3 27.2 26.1 25.2 24.2 22.6 20.2 20.2 19.2 17 15.8 16.9 17.1 16.7 13.9 12.1 12.9 14 14 12.6 12.3 10.3 8.5 6.8 7 7.1 5.7 5.5 5.2 5.2 5.2 4.8 4.7 4.6 4.5 5.6 5.2 5.2 5.2 8.5 12.6 13.8 14.6 15.4 15.9 16.3 16.3 16 17 17.6 17.8 17.6 16.9 15.2 13 11.8 12 13.5 16 17.1 16 13.7 15.6 19.8 22.8 23.6 22.9 21.8 19.8 18.9 18.1 17.5 16.5 16.6 18 20.4 20.8 20 19 17.9 16.1 16.1 16.1 16.3 18.8 20.6 22.2 21.7 20.6 20.8 21.8 22.2 22.9 24.6 25.4 26.6 27.4 27 30 32.8 35.8 39.1 41.7 42.5 40.9 38.9 38.3 37.8 37.5 37.6 37.9 38.1 38.2 38.4 38.2 37.5 36.1 34.8 34.5 33.1 31.7 30.2 27.7 24.4 20.5 17.3 17.1 16.7 20.3 20.3 21.1 20.8 20 18.4 16.4 16 14.9 12.6 10.2 10.9 11.4 11 10.8 10.7 9.6 8.2 6.6 5.6 6.7 7.3 8.1 7.1 6.6 7.4 7.6 7.7 8.4 10.5 12 12.2 9.9 7.6 6.8 6.2 7 4.2 0.8 0.7 2.3 0.7 1.8
68.7 68.5 67.8 66.4 63.7 60.2 57.1 54.6 51.8 50.3 47 47.2 46.7 45.8 44.5 43.2 41.7 40 38.4 36.8 35.6 34.6 33.9 33.2 32.5 31.9 31.3 30.6 29.8 28.9 27.8 26.8 25.7 24.8 22.5 20.3 19 18.9 19.3 19.2 19 18.6 18.1 16.4 13.3 12.3 12.4 11.2 9.9 9 8.5 8.7 8.3 6.3 6.3 5.9 5.6 5.4 5.3 5.6 4.8 4.8 4.7 4.4 3.2 5 4.9 5 8.2 13.8 15.2 15.7 16.3 16.8 17.3 17.2 17.1 18.2 18.9 18.9 18.5 17.5 15.6 12.9 13.3 13.4 12.5 13.9 16.1 17.5 16.1 15.4 18.6 22.2 24.6 24.7 23.6 22.6 19.9 19.2 19 18.4 16.8 14.7 19.2 20 20.3 20.5 20 19.3 19.3 18.8 17.9 16.1 17 18.7 17.8 22 23.2 24.5 24.9 25.6 25.4 25.2 25.7 26.3 26.6 27.9 31.1 33.1 37.4 41.3 41.4 40.6 39.3 38.6 38 37.6 38.1 38.3 38.7 38.8 38.8 38.4 37.6 36.2 35 34.1 33 31.9 30.4 28.9 26.4 23 19.5 16.8 16.4 21.8 21.7 21 20 19 17.7 15.3 14.5 14 12.1 11 12.8 12.4 13 12.3 10.7 9.2 7.9 6.6 6.9 7.7 6.5 6.7 7.5 7.6 8.9 10.2 11.6 12.2 10 8.6 8.5 8.6 7.4 5.9 5.5 5.7 4.8 3.3 2.8 2.9 2.5 2.6
74.1 73.1 71 67.8 63.9 60.3 57 53.9 52.7 50.8 49 47.8 46.6 45.4 43.8 42.3 40.9 39.8 38.5 37.3 36.4 35.4 34.7 34.2 33.7 33.3 32.9 31.9 30.6 29.5 28.2 27.2 26.1 25 22.9 21.1 20.5 20.1 20.1 20 19.9 20.3 19.5 18.1 16.8 15.8 15 14.6 13.2 11.7 10.5 10 9 7.8 6.2 6 5.8 5.6 5.7 6.4 4.9 4.8 4.6 5.5 5.6 4 4.7 5.4 9.1 15.4 16 16.5 17 17.5 17.5 17.8 17.8 18.4 20.2 20.4 19.1 17.3 15.2 14 15.1 14.5 13.2 14.1 17.4 19.1 18.1 15.6 17.8 22 24.3 24.6 23.7 22.2 21.2 21.3 20 19.8 17.8 15.7 18.2 20.6 21.2 21.5 21.2 21.1 20.7 20.4 20.1 19.9 19.2 16.5 19.7 23 25.1 26.6 27.1 27.1 27 26.9 27.1 26.8 27.6 28 28.7 30.1 35.2 39.7 41.1 40.2 38.7 37.8 36.7 37.4 38.7 39.3 39.8 39.4 38.8 37.8 36.8 35.4 34 33.3 31.9 30.7 29.1 28.8 26.6 25.2 22.3 17.8 20.2 20.3 21.1 20.3 19 17.8 17 15 14 12.8 13 13.8 15.2 14.4 13.7 12.9 10.9 9 8.2 8.8 8.6 8.9 8.6 8.9 9.5 10.4 11.6 11.7 14.2 15.3 15.2 14.8 11.3 9.7 7.6 7.6 7.1 3.7 4.6 4.1 3.7 3.6 2.7 3.7
77.6 75.1 72.3 67.8 63.4 59.6 56.6 54.6 55 53.5 50.2 48.2 46.4 45.2 43.9 42.5 41 40.2 39.2 38.7 37.7 36.5 36 35.6 35.1 34.5 33.7 32.5 31.2 30 28.8 27.6 26.4 25 23.8 22.2 21 21.5 21.5 21.2 21.1 20.7 20.5 19 17.7 16.6 15.6 15 14.3 13.3 12.4 11.4 9.6 7.8 7.1 5.1 5.8 6.7 7.2 7.4 6.5 5.4 5.5 5.3 5.1 3.6 4.6 5.5 11.9 16.3 16.8 17.3 17.8 18.3 18.6 18.9 18.8 18.9 19.7 20.3 18.8 16.8 14.9 15.6 15.8 14.7 14.1 14.6 20 19.9 18.9 17.4 17.9 20.9 22.7 23.1 23.7 23.5 23.3 23.1 21.6 21.9 19.6 16.3 18.8 21.2 21.9 22.6 22.5 22.4 22.1 21.6 21.3 21.2 20.7 19.3 19.3 22.7 25.3 27.7 28.2 28.2 28 27.7 27.9 29.3 29.5 30.1 29.9 29.4 29.8 35.8 39.2 39.2 38.4 37.2 35.1 37.4 38.9 40.1 40 39.5 37.6 35.8 34.5 33.3 32.4 31.6 30.7 29.1 28.7 28.6 27.9 25.6 21.1 21.3 22.5 21.3 19.5 19.2 18.1 16.9 16.2 15.3 13.8 14.1 15.5 16.8 16.4 15.4 14.5 12.5 11.2 10.8 10.5 11.1 10.8 11.1 11.4 12 12.4 13.4 14.3 15.7 16.2 16 14.8 12.3 10.9 9.1 7.3 6.3 5.5 6.7 6.4 3.8 3.4 3.3 3.1 3.9
80 77 72.8 68.3 63.8 59.9 57.2 57.5 58.4 52.2 51.7 49 46.3 44.9 43.9 42.8 42 41.5 40.7 40 38.7 37.5 37.2 36.8 35.9 34.7 33.9 33 31.9 30.5 29.1 27.9 26.8 26.1 24.5 23.7 23.9 23.7 23.6 22.8 21.9 21.1 19.9 18.7 18 16.9 15.9 15.2 14.5 13.7 12.5 11.1 10 9.7 9.6 8.9 8.5 8.6 8.4 8.1 7.3 6.4 6 5.6 5.2 4.5 4.8 8.5 15.3 16.6 17.3 18.1 18.7 19.3 19.7 20.1 19.9 19.8 19.6 19.6 18.6 16.9 16.6 16.5 16.1 14.7 13.9 16.5 18 19.7 19.6 18.4 17 19.2 20.9 22.5 23.7 24 25.2 24.4 22.9 21.9 19.6 22.4 18.6 20.8 22.2 23.1 23.7 23.6 23.4 23 22.7 22.4 21.9 20.2 17.3 22 24.8 28 29.1 29.3 29.2 28.9 27.8 29.2 30.6 31.8 32 32 31 34.4 37.9 38.8 37.9 34.3 32.2 36.4 37.9 38.7 38.3 37.7 34.9 32.7 31.1 29.9 28.6 27.7 27.6 26.6 26.6 27.1 27.6 27 22.3 23.5 22.6 21.3 20.1 19.1 18.1 17.3 17.1 16.7 15.5 16.1 17.6 17.7 17.1 17.4 15.6 14.4 13 13 12.9 13 13.2 13.5 13.8 14.3 14.9 15.8 16 16.5 16.1 15.1 12.8 10.9 10.1 9.1 7.3 6.8 6 6.4 5.2 6.4 4.5 4.1 4.1 3.9
80.7 78 73.2 68.3 63.3 60 60.1 62.5 58.8 59.3 55.7 51 47.2 44.9 43.9 43.2 43.3 42.8 41.9 40.9 39.6 38.4 37.2 37 36.4 35 34 33.1 31.9 30.9 29.8 29.5 29.4 29.5 28.1 26.5 25 25.2 24.2 23.6 22.7 21.5 20.5 19.3 18.2 17.2 16.2 15.3 14.8 14 13 12.5 11.9 11.3 11 10.2 9.8 9.5 9.1 8.4 7.7 6.5 5.4 4.8 4.4 5.6 5.1 9.8 15.6 17.2 18.2 19.1 19.6 20.2 20.8 21.2 21.1 20.7 20.5 19.9 19 17.8 17.4 17.3 16.3 15 15.7 17 18.7 20.3 20 19 17.5 19.2 20.7 22.6 24.4 25.1 25.5 24.5 23.4 22.4 20.7 18.8 18.8 22.4 21.4 23.1 24.5 24.5 24.3 24.1 23.7 23.3 23 21.4 19.3 20.7 25 28 29.8 30.5 30.3 30 29.8 31.3 32.3 32.5 34.7 35.2 34.2 35.2 38 38.6 37.1 32.5 32.1 34.1 34.9 35.3 34.6 34 32 29.7 27.7 27 25.4 24.1 23.7 23.4 24.2 25.5 26.5 26.2 21.5 22.4 22.8 21.9 21.3 19.9 19.1 18.6 18.2 17.8 17.6 17.5 18.7 19 15.1 18.5 17.3 16 15.4 15.2 15 14.7 14.5 14.8 15.1 15.3 16.4 16.7 16.2 15.8 15.2 13.7 12.5 10.5 9.5 8.8 6.1 7.3 6 6 4.8 4.2 3.9 6.2 4.6 4.1
79.5 76.1 70.8 65.2 62.6 62.2 66.9 67.1 64.5 60.3 56.6 52.6 48.7 45.7 44.4 44.2 44.3 43.7 42.6 41.4 40 38.3 37 36.1 35.2 34.4 33.4 33.2 31.7 30.7 31.9 33.3 34.2 34.6 32.6 30.6 28.2 27.1 25.1 23.6 23.3 22.1 20.9 19.8 18.7 17.6 16.6 15.6 14.9 14.6 14.1 13.6 13.1 11.8 11.2 10.6 10.1 9.6 9.1 8.4 6.9 5.5 4.7 4.4 4.5 4.4 5.2 11.2 17 18 19 20 20.8 21.6 22 22.3 22.1 21.5 21.5 21 19.8 18.9 18.2 18 17.3 16 16.6 17.8 19.7 21.1 20.5 19.1 18.5 20.4 21.7 23.3 25.2 26.1 26 24.8 23.4 22.2 21 19.7 18.8 18.5 21 22.4 23.3 24.7 25 25.1 24.1 24 23.4 22.2 20 21.3 25 28 30.3 31.3 31.4 30.9 30.4 31.6 33.3 34.8 35.6 35 36.3 38.4 38.4 38.1 36.8 31.9 27.1 30.1 30.3 30.4 30.6 30.1 28.4 26.5 25.3 24.3 22.8 21.6 21.6 21.8 22.5 24 24.8 24.5 20.2 22 22.5 23.1 22 21.5 20.5 20.6 20.3 19.9 20.4 20.4 20.4 19.9 19.6 18.4 17.1 16.6 16.3 16.3 16.4 16.4 16 15.4 14.8 15.4 15.3 15.8 15.8 15.2 14.6 12.8 11.7 10.8 10.3 10.1 8.9 8.1 6.6 6.1 5.7 5.2 4.6 5 5.4 4.6
73.5 70.4 67.3 66.6 67.4 70 69.1 67.1 64 60.3 54.8 51.5 48.2 45.7 45.3 45.2 44.6 43.5 41.5 39.7 37.5 35.5 34.2 32.7 32 32.1 32.6 32.4 31.1 31.9 33.9 36.4 37 36.1 34.8 31.5 29.6 26.7 27.4 25 24.5 22.6 21.4 20.2 19 17.9 16.9 15.9 14.9 14.8 14.1 13.2 12.6 11.5 11 10.4 10 7.8 7.1 4.3 4.5 4.6 4.3 4.5 4.5 4.6 7.9 13.4 16.9 18.7 19.8 21 21.8 22.6 23 23.3 23.7 23.9 23.6 20.7 21.5 20.2 19.6 19.1 18.2 16.8 17.2 18.8 20.8 21.9 20.9 19.2 20.3 21.8 23.2 24.4 25.9 26.2 25.9 24.8 23.6 22.5 21.2 20.1 19.6 19.3 19.9 21.4 22.9 23.1 24.4 24.9 23.9 24.2 23.5 22.6 20.3 20.4 24.9 27.8 29.7 30.5 30.8 30.9 29.5 32.1 33.6 35.1 36.4 37.3 37.7 38 37.8 37 35 32.2 27.4 24.7 25.4 27.2 27.6 26.5 25.3 24.1 23 22.8 21.5 20.6 19.9 20.2 20.7 21.9 23.8 19.3 20 20.8 22.2 22.4 21.8 21.1 21 20.9 20.9 21 21.5 22 21.5 20.5 18.6 17.9 16.2 15.6 15.5 15.8 16.2 15.6 15.6 15.1 14.5 13.9 13.5 13.7 14.3 14.5 13.4 12.7 13.2 12.5 11.6 11 9.9 8.1 6.9 7 6.3 5.9 5.6 4.6 5.4 5.3
72.4 72.5 73 73.7 72.6 69.9 67.5 64.7 61.9 58.2 54.7 49.8 47.2 45.4 44.5 44.5 43.1 40.8 37.8 36.5 35.9 33.9 33.5 31.7 30.1 29.1 29.7 29.9 28.9 30.9 34.3 36.4 36.4 36.4 34.1 30.9 30.2 30.3 27.8 25.9 24.7 23 21.8 20.6 19.2 18.1 17.1 16.1 15.1 14.8 13.4 12.4 11.9 10.7 10.2 10.2 9.6 6.3 4.2 4.6 4.6 5.9 6.1 5.8 5 6.1 11.4 13.7 16.6 18.8 20.2 21.5 22.8 23.6 24 24.5 25 25.1 24.3 23.6 22.9 21.4 21 20.1 19 17.6 18.2 19.7 21.3 22.8 21.7 20.1 22.3 24 25.4 26.2 26.4 26.2 25.8 25 23.9 22.8 21.5 21 20.5 19.7 19.7 21 22.8 22.3 22.7 24.5 23.9 23.1 22.8 22.5 21.3 18.9 23.9 26.4 28.1 29 29.8 30.1 28.2 31.4 32.8 34.2 35.3 36.2 36.5 36.9 36.7 35 33.2 30.4 27.2 24.8 22.9 24 24.4 23.7 23 22.3 21.7 21.2 20.4 19.4 18.4 18.5 18.8 19.8 20.6 18.9 19.4 19.2 19.2 21.1 19.7 19.4 18.9 19 19.5 19.4 20.5 21.6 21.6 20.4 18.1 17.1 15.6 14.8 14.5 14.3 15.2 14.4 14.3 14 13.5 12.8 12.5 12.4 12.4 12.8 13 13.7 13.6 13.2 12.2 11.1 9.3 8.8 9.3 8.1 7.6 6.9 6.5 8.3 6.9 7
82.2 83.6 78.7 74.5 70.3 66.7 63.1 60.4 57.8 55.3 52.2 48.9 46.3 44 42.7 41.4 40.8 40.1 39.5 38.9 39.4 37.3 35.4 33.7 30.5 28.1 27.1 27.2 26.6 29 31.8 33.7 34 32 33.2 33.3 32.2 31.3 29.6 28.1 25.9 23.6 22.2 21 19.4 18.3 17.3 16.2 15.3 14.1 12.4 11.1 10.3 9.9 9.9 9.8 8.6 3.7 4.6 4.5 4.6 4.6 4.6 5.3 5.7 5.1 8.9 10.9 13.6 16.7 19.5 21.8 23.8 24.9 25.9 27.1 26.6 25.5 24.5 23.9 23.7 22.6 22 20.9 19.6 19.1 20 20.9 22.5 23.6 22.4 21 23.4 25.3 26.2 26.6 26.5 26.2 25.9 25.2 24.1 22.8 22.6 22.3 21.7 20.5 19.2 19.7 21.6 22.5 23.3 23.1 22.9 22.9 22.7 22.6 22.3 20.4 21.1 24.7 26.4 27.2 27.9 28.6 27.3 29.5 30.6 31.7 33 33.9 34.5 35 34.7 33.3 31.3 28.7 26.9 24.2 22.5 22.3 22 21.5 20.9 20 20.2 19.7 19 18.3 16.5 16.7 16.7 17 17.7 17.9 19.2 17.8 17.6 17.3 17.9 18.1 17.8 17.9 18.3 17.8 19.5 20.4 20 19.6 18.2 16.7 15.3 14.7 14.2 13.8 13.5 13.2 12.6 12.7 12.4 12 11.8 12 12 11.6 11.9 12.9 13.5 13.3 12.4 10.4 9.6 10 10.7 9.2 8.9 8.8 9.5 9.6 7.9 7.8
91 87.7 79.9 71.8 66.1 61.3 57.6 55.3 53.7 51.4 49.5 47.9 46.2 44 42.5 41.9 42.4 44.3 43.8 46.2 45 42.2 39.1 35.4 32.3 29 26.5 25.8 25.6 25.9 27.2 28.4 29.4 27.9 30.9 32.3 33.1 33.5 32.2 29.8 27.3 24.7 22.6 21 19.4 18.4 17.3 16.1 15 13.7 11.5 9.7 9.5 9.3 9.7 9.3 7.6 4.5 4.2 4.5 3.5 5 6.5 8.2 9.6 9.8 10.6 11.7 12.4 13.4 16.4 19.8 23.1 25.3 26.1 26.8 27.2 27.1 26.5 25.3 25.2 24.2 23 22.4 21.1 21.2 21.7 22.5 23.9 24.8 23.3 21.7 24.6 25.8 25.6 25.6 26.6 26.6 25.8 24.9 23.6 23.2 22.3 23.3 22.6 21.4 20.5 19.6 21.6 22.8 23.7 23.6 23.4 23.1 23 23.2 22.9 21.2 21.6 23.3 24.5 25.4 26.1 26.5 26.3 27.9 29.2 30.3 31.2 33 33.1 32.8 32.5 31.6 29.5 26.9 25 23.1 23.6 23.3 22.9 21.9 21 19.9 19.1 19.3 18.2 17.5 16.9 16.8 16.7 15.7 15.8 14.4 19.9 15.6 16 15.8 16.7 16.5 16.9 17 17 16.8 18.6 19.2 18.7 18.4 17.5 16.4 15.8 14.9 14.5 13.9 13.1 12.4 11.7 11.4 11.1 10.8 10.4 10.7 10.9 11 12.1 12.8 13.6 13 12.3 11.6 11.2 11.7 12.1 11.6 11.2 11 10.7 10 8.2 6.1
93.3 84.7 75.2 69.4 64.2 59.3 56.5 55.8 54.1 52.6 51.4 50.2 48.1 45.8 44.8 44.8 46.3 49.7 50.7 51.4 49.4 45.9 41.6 36.9 33.3 30.1 28.3 27.2 25.8 25.6 24.6 23.4 23 24.2 25.2 29.2 34 37.3 33.2 30.5 27.9 25.5 23.2 21 19.2 18 16.9 15.7 14.6 13.1 10.9 9.2 8.7 8.9 8.9 8.3 6 4.7 4.6 3 5.3 6.3 7.3 8.8 10.5 12.3 13.9 15.1 16.1 17 18.4 20.1 22.7 24.9 26.9 28 28.3 28.2 28.1 27.3 26.6 25.8 25.1 24.3 23 23.2 23.6 24.6 25.6 25.8 24.4 23.1 24.3 25.5 25.3 25.1 26.4 26 25.8 25.1 24.8 24.5 24.5 23.8 23.2 22.6 21.5 21 21.9 23.1 23.9 24.1 23.7 23.5 23.5 23.5 22.7 23.3 21.2 21.8 22.9 23.8 24.8 25.4 25.7 26.7 27.8 29 29.4 30.3 30.7 30.8 30.7 29.4 27.8 25.6 24.3 24.8 24.5 24.1 23.4 22.5 21.5 20.6 20 19.2 18.2 18 17.8 18 18.3 17.6 16.4 14.4 20.6 14.9 14.9 14.6 14.6 14.7 14.2 15.4 15.2 15.4 17.5 17.8 18.2 17.7 17 15.9 15.1 14.7 14.3 14.1 13.2 12.4 11.7 11.2 10.5 9.7 10 10.6 10.5 10.7 12.1 13.5 14.3 13.8 12.9 12.9 12.6 13.1 13.5 13.6 13.6 13.5 11.6 9.8 7 5.9
93.1 84.9 80.1 72.5 65.6 60.3 59.1 58.6 57.3 54.9 52.7 50.4 47.3 46.3 47.1 47.4 50.2 54.6 55.6 54.5 51.6 47.8 42.9 38.5 34 31.5 29.1 27.3 26.7 26.2 25.7 25 22.2 20.4 20.9 25.9 31.5 35.1 32 28.9 28.1 26.1 23.8 21 18.9 17.3 16.1 14.5 13.7 12 10 8.5 7.7 8 7.9 6.6 4.8 4.5 4.6 4.6 7.2 7.9 8.2 9.2 10.8 12.8 15.3 17.7 20.1 22.3 23.4 24.9 26.4 27.1 27.8 29.4 29.8 29.9 29.5 28.7 28.1 27.6 27.1 26.4 25.8 26.2 26.4 26.8 27 26.1 24.7 24.7 25.2 26.5 27.2 27.2 27.3 27.1 26.7 26.3 25.9 26 25.9 25.2 24.2 23.4 22.5 21.2 21.6 22.8 24 24.2 24 23.8 23.3 22.7 22.1 21.6 21.3 22.4 23.9 22.2 23.6 24.4 25.9 25.4 26.4 27.9 28 28.3 28.8 28.8 28.4 27.3 26.2 25.1 25.1 25.1 24.5 24.4 23.7 22.9 22.2 21.4 20.6 19.8 18.9 18.8 19 19.3 19.2 18.4 17.2 17.2 21.5 15.8 15.4 14.7 13.4 13.7 12.8 13.4 13.8 14.9 15.7 16.1 15.5 14.4 15.4 14.7 13.3 12.7 12.4 12.3 12.1 11.9 11.3 10.8 10.6 9.4 9 9.4 9.9 10.7 12.3 13.8 14.2 14.2 13.9 13.4 13.4 13.8 14.3 15.5 15.2 13.8 11.1 8 6.5 6
99.8 89.2 81.4 73.4 65.6 62.9 63.3 62.5 59.5 55.6 52.6 49.4 47.5 49.6 51.5 53.5 56.5 58.9 58 54.4 51 47.7 43.8 39.3 34.9 31.7 29.4 27.8 27.1 26.3 24.7 23.4 21.7 19.8 18.1 22 27.9 29.8 29.5 27.6 27.1 26.1 24.4 21.2 19 17.4 15.9 13.7 12.3 11.4 10 8.6 7.2 6.2 6.2 4.6 4.3 4.2 3.1 7.7 8.7 8.9 9.2 9.9 10.8 13.4 16 18.5 23.2 25.7 27.4 28.7 30 30.5 30.2 31.4 31.9 31.3 30.8 30 29.3 28.9 28.9 28.7 28 28.6 28.4 27.8 27.2 25.9 25.2 26.8 28 27.4 28.8 29.2 28.5 28.4 27.7 27.6 27.3 27.4 27.4 26.6 25.3 24.5 23.4 22 22 23.1 23.9 24.3 24.2 24.1 23.4 22.8 22.5 22.6 22.7 22.9 22.5 22.5 22 23.2 24.1 23.9 24.1 25 25.5 25.7 25.8 25.9 26.1 26 25.3 25 25.4 25.5 24.9 24.2 24.2 23 23.1 21.9 20.8 19.8 19.3 20.3 20.2 20.7 20.6 19.2 17.6 17 19.3 15.5 16.4 15.4 15 14.8 14.1 12.7 12.2 15.4 14.6 14.8 14.8 14.2 15 13.4 11.8 11.6 13 11.5 11.6 10.8 9.2 10.7 10.4 10.1 8.5 8.9 9.7 10.4 12.4 13.9 13.5 13.7 13.8 13.4 14.6 14.4 14.7 15.4 14.4 13.1 10.3 8.1 7.1 6.6
107.3 89.4 77.6 71.6 66.8 66.9 67.4 64.5 60.1 57.8 54.4 50.9 51.8 55.9 59.5 62.7 63.5 61.6 58.2 53.1 48.9 45.7 42.8 39 35.6 32.3 29.8 29.1 28.7 28 26.3 24.1 22 19.4 17.3 18 22.6 24.9 25.9 25.5 25 24.9 23.8 21.1 18.6 17 15.6 13.7 11.7 11 9.8 8.6 7.1 5.6 4.6 4.3 4.1 4.1 6 8.9 9.6 10 10.1 10.4 11.8 14.1 16.4 18.9 23.8 26.9 28.7 29.8 31.4 31.4 33 33.5 33.5 32.7 32.1 31.3 30.7 30.5 30.5 29.8 29.6 30 29.5 28.4 27.3 26.2 26.7 28.4 28.7 30 30.2 30.5 29.9 29.9 29.3 28.8 28.6 28.5 28.5 27.6 26.4 25.4 24.1 22.7 22.8 23.2 23.7 23.9 23.3 23.3 23.2 23 23 23 23.1 24 23.7 22.8 23.1 23.2 24.2 25 24.8 24.9 26.8 28.7 29.9 29.5 28.8 27.4 26.8 26.7 26.9 27.2 27 26.7 25.5 24.1 23.7 22.9 22.7 21.6 21.9 22.3 22.4 22.1 21.7 20.6 19.3 19.3 19.5 22.8 17 17.4 17 16.3 15.5 13.8 12.9 15.2 14.7 13.6 13.2 12.7 11.9 11.3 11.7 11.5 12.4 13.5 13 12.7 13.5 12.4 12.1 12.8 7.1 9.8 10.3 10.6 10.8 11.7 12.6 12.3 12.8 13.4 14.2 15.3 17.2 16.2 13.2 10.7 9.7 8.4 8.1 7.9
113.6 91 81.3 75.8 71.4 71.8 70.3 66.6 65.7 63.5 56.9 53.9 59.3 70.8 75.8 71.4 67.3 61.9 56.7 51.4 46.6 43.4 41.2 37.9 35.5 32.8 31.8 31.1 29.1 27.9 26.7 25.4 23.2 20.3 17.7 16.1 16.7 19.8 21.4 22.1 23.5 23.1 22.4 20.4 17.9 16.2 15 13.2 11.1 10.6 9.5 8.5 6.8 4.9 4.2 4.2 4.1 4.8 7.8 10.2 10.7 10.8 10.9 11.1 12.2 13.9 15.9 18.6 22.2 24.7 27 28.6 27.6 32.8 34 35.1 35.1 34.9 33.6 32.5 32.6 32.2 31.6 30.8 30.8 30.7 29.7 28.7 27.4 27.3 28.5 29.2 30.4 31.6 32.1 32.5 31.8 31.3 30.9 30.4 30 29.6 29.3 28.4 27.2 26.1 24.9 22.9 23.6 24 24.5 24.6 24.4 24.8 24 24.4 24.7 23.9 23.9 23.8 23.1 23.5 23.4 24.5 25.8 25.9 26.7 28.5 30 32.4 33.1 32.8 31.4 28 26.2 26.9 29 30.1 29.7 28.8 27.1 25.4 25.9 24.9 24.9 24.2 23.8 23.1 23.8 23.9 23.2 22.8 21.6 20.6 20.7 21.8 20.1 18.3 18.2 18.1 16.5 14.7 14.1 12.1 12.2 11.9 11.3 10.5 10.5 9.9 10 9.8 9.5 9.2 8.9 9.7 12.1 12.4 12.2 11.8 7.5 7.2 7.5 7.9 9.9 11.4 11.6 11.2 11.7 12.5 14 15.3 16 14.8 13.8 11.6 11.4 8.9 8.8 9.2
120.1 102.7 91.2 81.1 76.2 74.7 73.3 74.2 74.3 65.9 59.4 59.6 74.4 80.8 80.1 74.2 67 60.6 54.7 49.5 44.9 41.9 39.7 37.3 36.1 34.7 35.6 34.7 31.6 27.6 25.9 24 22.5 19.8 19.3 17.5 15.5 15.4 16.1 18.3 22 22.5 20.7 18.1 15.9 14.1 13.5 11.4 7.4 9.1 7.5 6.7 5.9 4.2 4 4.1 3.2 7.9 8.8 9.4 10.5 11 11.6 11.9 12.9 14.3 15.8 17.4 19.2 20.9 22.2 23.2 23.9 27.3 31.7 34.6 35.1 35.2 33.8 33.4 34 33.6 32.9 32.1 31.6 31.2 30.8 29.8 29.6 28.9 29.3 29.8 32.5 33 33.2 33.5 33 32.7 32.3 31.8 31.4 30.7 30.2 28.8 27.7 26.6 25.5 23.2 24.3 24.7 25.2 25.6 25.7 25.4 25 25.2 25.5 25.6 25.3 24.5 23 23.7 24.1 25.2 26.5 27.4 28.8 31.1 33.8 35.7 35.3 33.8 31.5 29.4 27.3 30.6 32.1 32.1 31.6 30.6 28.1 28.2 28.7 27.4 26.9 26.4 25.9 25.1 25.4 25.4 24.6 24.2 23.3 22.7 21.9 21.9 21.5 20.5 19.3 18.6 17.1 14.7 14.2 14.1 13.7 13.6 12.7 11.2 10.5 10.1 9.4 9.4 9 9.1 9 8.4 8.1 9.5 11.3 10.6 9 7 6.9 7.3 7.1 7.1 7.6 8.1 9.7 12 12.8 14 14.7 13.6 13 12.4 11.9 10.6 11.1 12.6
135.7 116.3 100.1 86.9 81.3 78.7 77.8 79.7 75.2 67 62.2 73.2 81.7 82.6 78.8 72.2 64 57.8 52.1 47.6 43.8 41.1 38.6 37.2 36 38.1 39.3 36.5 32.8 28.1 25.7 23.4 21.7 21.1 20.5 19.6 17.9 15.9 14.5 12.9 16.5 23.7 20.2 14.3 13.7 10.7 8.5 7.7 7 6.1 5 5 4 3.5 3.9 4.2 5.8 8.1 7.7 8.3 9.9 11.5 12 12.5 13.1 14 14.8 15.4 17 18.2 19 19.6 20.9 23.9 26.8 28.4 30.3 31.8 32.1 32.9 34.3 34.4 34.1 33.6 33.1 33.6 33 31.7 30.7 30.5 30.6 30.3 32.5 34.6 35.2 34.5 34.4 34.1 33.5 33 32.4 31.7 30.9 29.3 28.2 27 25.8 23.9 24.9 25.3 26 26.2 26 25.9 25.7 25.7 25.8 25.7 25.1 24.6 23.8 24.4 25 25.9 27.5 28.7 30.5 34.5 37.2 37 35.3 32.5 31.2 29.2 29.5 33.1 33.2 33.1 31.7 30.2 28.7 29.6 30.3 29.8 28.9 28.2 27.5 26.8 26.3 26.5 26 25.5 25 24.3 23.7 23.1 22.6 21.7 20.6 18.9 16 15.2 14.9 15.5 15.5 15 13.9 11.9 10.5 10.4 8.2 10.7 11.1 10.4 10.1 9 8.6 8.5 7.6 8.9 5.5 10.1 6.5 6.3 6.2 6 6.9 7 7.5 9.3 11.4 13.4 13.4 13.4 12.6 12.6 12.3 12.4 12.2 12.5
151.4 129.1 109.4 95.4 87.4 83.7 82.8 80.5 73.3 67.5 72.9 81.5 83.7 81.4 76.3 69.5 61.8 55.1 49.6 45.9 43.2 40.5 39 37.6 38.4 42.7 42 38.5 34.4 30.8 27.2 24.8 23.7 23.8 23.8 22.7 21.2 19.9 17.4 14 12.1 10.9 10.8 9 8.2 8.2 8.9 9.2 8.9 10 8.9 6.1 3.8 3.5 4 4.1 6.7 7.1 7 7.3 9.3 11.6 12.2 12.6 13 12.7 13.9 14.3 14.3 15.3 16.1 17.5 18.9 20.4 21.6 23.5 25 26.5 28.1 30.4 33.7 35.1 34.8 34.6 34.7 34.7 34.5 33.6 32.8 32.1 32 32.8 35.3 36.7 37 36.6 35.9 35.3 34.6 33.8 33.5 32.7 31.7 30.3 29.3 27.7 26 24.7 26.1 26.7 27.2 27.3 27.1 26.7 26.4 26.1 26 25.6 25.1 24.6 24.6 25.3 25.4 26.1 28.1 30.6 32.7 36.9 38.2 37 34.2 32.9 32.3 31.7 33 34.9 34.5 33.6 32.3 31.3 30.5 31.2 31.5 30.6 29.6 28.5 27.8 26.8 26.6 26.6 26.2 25.9 25.8 25.1 25.2 24.6 24.6 22.4 21 18.9 16.7 16.6 16.9 16.9 16.3 15.6 13.4 11.4 10.8 10.2 11.5 12.8 11.9 11.5 11.1 10.1 10 10.1 9.4 9.1 8.4 7.4 8.2 5 6.1 5.9 5.7 5.8 5.8 7.7 10.5 11.7 11.8 10.8 10.9 10.9 13.5 13.6 12.6 12.7
164.6 144.2 123.7 107.4 97 91.7 86.9 79.5 75.9 73.6 82.5 85.4 83.3 79.2 73.4 66.2 58.5 52.1 47.8 45.2 43.1 42.8 41.6 41.3 43.4 46.8 44.7 41.8 36.7 33 28.5 26.9 27.3 28.3 28.5 26.9 25 25.1 24.1 20.3 14.9 11.9 11.2 11.3 11.5 12.4 13.2 13.4 12.6 10.6 9.7 4.9 3.7 3.9 2.3 4.7 5.6 6.2 7.5 8.3 8.7 9.6 11.3 11.5 11.4 12.3 12.9 13.4 14 14.8 16 17.7 19.1 20.6 22.6 23.9 25.1 25.3 26.4 28.7 32.6 34.1 34.5 35.4 36.2 36.6 36.7 35.9 34.5 34.4 33 35.5 37.1 39 39 38.2 37.6 37 36 34.9 34.3 33.4 32.3 31.1 30.2 28.2 26 26.6 27.2 27.8 28.3 28.3 28.1 27.6 27 26.8 26 25.5 24.7 24.7 25.4 26.4 27 28.2 29.6 32.1 34.7 38.4 38.9 37.3 36.3 35.8 35.7 34.7 35.5 35.6 35.5 35.2 34.5 33.2 33.2 32.7 31.6 29.9 28.6 27.5 27.2 26.7 26 26.1 25.8 25.9 26.2 26.3 25.5 25.2 24.2 22.2 21 18.1 16.9 17.4 17.6 16.4 15.5 14 11.9 10.3 10.7 11.4 13 13.7 13.3 12.7 11.9 11.6 11.5 11.6 11.7 11.3 10.9 10 8.3 7.8 6.6 4.6 5.4 5.4 5.4 5.5 7.4 8.6 9.4 9.1 9.7 9.6 10.6 11.2 12 13.9
173.5 162.5 141.8 124.1 112.8 105.1 95.9 86.5 86.7 84.4 87.6 86 81.7 76.6 70.4 63.4 55.4 50.2 47.2 46.1 46.2 47.7 50 50.1 52 53.1 50.6 45.2 40.1 34.9 32.4 29.8 30.8 32.7 31.6 29.7 28.3 28.4 28.3 26.2 23.2 19.6 18.3 17.1 16.9 16.5 16.5 15 12.6 9.9 9 7.4 3.5 4 4 4.5 5.1 7.2 8.9 11 11.2 10.7 10.7 10.9 11.8 12.7 13 13.8 14.7 16 16.8 18.9 20.4 22.5 24.4 25.7 27.1 27.2 27.4 28.3 30.4 33.1 35.7 36.6 37.4 38.7 39.2 38.8 37.9 36.3 35.9 37.6 40 40.9 40.6 39.8 39 38.2 37.1 36.1 34.9 34.1 33 31.7 30.9 29 27.1 27.7 28 28.6 29.1 29.2 28.7 27.9 27.4 26.3 24.4 25 23.6 25.5 26.4 27.3 28.2 29.5 31.1 33.2 37 39.9 39.7 39 39.3 39 37.7 37.3 36.5 36.4 35.7 34.7 34.1 33.2 32.8 32 30.9 29.1 26.9 26 25.2 24.6 24.1 23.9 23.8 23.8 24.3 25.2 24.9 24.1 22.2 21 19.9 18.1 18.2 16.6 15.6 15.1 14 11.7 10.8 11.1 13.3 13.2 13.7 13.6 14.2 13.7 13.1 13 14.2 13.1 13.1 12.7 12.3 11.6 11 8.2 8.2 8 5.7 5.3 5.1 5.1 5.4 5.8 6.5 7.2 8 8.2 9.2 11.2 11.7 11.1
177.6 172.9 162.8 146.5 134.3 124 115.4 107.6 102.7 96.8 90.8 82.2 74.1 68.8 64.4 59 53.3 50.5 50 53.2 59.5 65 66.4 63.7 64.2 60.6 55.5 49.3 43.4 37.9 34.6 33.4 34.6 34.6 32.1 29.9 28.4 28.4 28.7 28.1 26.7 25.3 23 20.8 19.1 17.7 16.6 15.4 13.5 12.3 10.6 9.4 7.4 2.2 4.1 3.9 5.6 7.3 9 13.2 13.4 13.6 13 12.8 13.3 13.5 14 14.6 15.3 16.1 17.6 19.7 22.3 24.7 26.7 27.9 29.1 29.5 29.5 29.9 32 35.4 38.6 39.7 40.3 41.2 42.5 42.4 40.3 37.3 40.5 42.4 43.1 42.8 42.3 41.2 40.4 39.3 38.2 37.2 36 34.9 33.7 32.5 31.4 28.8 28.7 28.9 29.7 30 30.3 30 29.4 28.7 27.4 26.5 25.2 25.5 25.2 25.1 27.1 28.2 29.5 30.8 32.5 35.3 38.3 40.1 39.6 39.6 40 39.8 38.8 36.9 35.5 34.4 34.8 34.6 33.2 32.1 30.6 29.7 28.8 27.4 25.5 25 24.3 23.5 23.2 22.9 21.1 20.7 21.1 21.5 22.5 21.9 20.9 19.8 18.9 18.2 17.2 15.6 14.3 13.5 12.4 11.2 10.9 15.1 15.1 14.8 15.3 15.8 15.9 15.3 14.4 17.1 14.7 14.5 14.4 13.9 13.4 12.9 12.3 11.6 8.7 8.5 7.7 6.2 5.1 5.4 5 4.7 4.6 5.2 6.1 7.2 7.2 7.8 7 4.4
179.5 176.1 171.6 164 155.7 147.8 138.8 129.4 119 106.8 98.6 86.1 77.4 67.9 63.7 62.1 57.5 56.1 62.9 68.8 71.6 73.1 71.6 71.3 69.9 67.3 59.6 53.2 47 41.8 38.3 37.4 37.1 34.8 31.5 29 27.2 26.4 26.6 26.7 25.9 23.9 22.7 21 19.3 19 18.5 17.5 15.8 13.3 10.9 9.5 8.3 3.9 2.9 3.6 4.4 6.1 9.2 14.7 17.1 16.7 15.7 14.6 15.2 15.3 15.6 15.7 16 17.1 19 20.4 23.1 26.1 28.4 29.8 31.1 31.8 31.9 32.4 34.1 37.8 40.5 41.8 42.9 44 45 45.4 43.8 39.7 44.7 45.6 45 44.6 43.8 42.6 41.5 40.9 40.2 39.1 37.5 36.2 34.8 33.4 32.6 31.5 30.6 31.1 31.3 31.4 31.5 31 30.2 29.2 28.2 26.7 26.6 26.4 26.2 26.4 27.5 28.9 30.3 31.8 33.8 36.2 38.3 39.4 38.9 39.8 40.5 39.1 37.7 36.3 34.9 33.6 32.7 32.7 31.4 30.5 29.2 28 26.7 26.5 25.8 24.8 23.9 23.1 22.3 21.2 20.8 20.4 19.1 18.9 19.5 20.4 20.4 19.7 18.9 17.9 16.6 15.2 14.7 12.4 11.4 10.4 14.6 17.6 16.9 16.8 18.1 18.3 17.9 17.3 17.7 16.2 15.8 15.6 15.4 15 14.5 13.9 13.3 12.3 11.3 9.8 8.1 6.3 4.5 4.6 4.4 4.4 4 4 4.9 5.7 5.2 7.6 9.4 8.1
178.2 177.1 173.9 169.9 164.7 159.9 155.1 147.8 129.6 114.6 110.8 97.4 86.1 75.7 73.6 68.3 62.5 66.1 70.5 71.6 72.8 73.6 74.7 73.9 72.7 69.4 63.9 57 51 45.5 42.8 41.5 38.2 34.8 31.4 27.9 26 24.6 23.9 23.5 22.9 21.9 21 20.1 18.9 18.6 18.4 17.9 15.9 12.8 10.5 9.4 8.6 7.6 6.3 2.5 3.3 3.8 8.3 17.4 20.2 19.6 17.6 17.1 17.2 17 16.2 15.9 16.7 17.5 18.4 20.3 23.5 26.6 28.6 30.3 31.9 32.9 33.8 34.5 36.1 38.6 41.4 43.2 44.4 45.5 46.7 48.3 47.6 47.7 48.2 47.6 46.8 46.1 45 43.9 43.5 43.5 43.3 41.7 40.6 38.8 37.2 36.8 36.6 36.6 35.3 34 33.2 33.1 32.7 31.9 31 30.4 29.3 27.1 27.8 27.1 27 27 28.3 29.1 30.5 32 34.4 36.1 35.4 36.9 38.4 41 40.4 38.6 36.7 34.9 33.7 32.8 32.1 31.4 31.2 29.6 28.9 28 27.3 26.6 25.9 25 24.1 23.4 22.6 22.4 21.9 21.3 20.2 19 18.2 18 17.4 18.9 17.9 17.1 15.8 14.6 13.3 11.9 11.7 14.4 17.7 19.3 18.7 19 19.6 19.8 19.7 19.4 18.7 17.1 16.5 16.1 15.5 15.1 14.8 14.4 13.4 12.4 11.4 10.2 8.6 6 5.4 4.2 3.2 3.8 3.7 4.3 4.1 4.5 5.8 7.6 9.2 9
174.6 174.1 172.7 171 168.9 166.7 163.6 159.2 151.3 139 126.7 113.4 100.6 91.2 83 73.8 68.7 70.7 72 70.6 69.2 69.3 70.6 70.5 69.1 66.8 63.7 59.6 54.4 49.5 47 42.6 38.7 34.3 30.6 27.1 25.4 23.7 22.3 21.3 20.2 19.3 18.3 17.5 17.5 17.4 17.1 16.3 14.1 11.6 9.9 9.1 8.3 7.6 6 3.6 2.3 3.2 4.1 24.7 26.9 21.4 18.9 18.1 17.3 17.2 16.1 16.3 17 17 18.3 20.4 22.5 25.4 27.2 29.3 31.4 33 34.5 35.6 37.2 39.6 42.2 44 45.2 46.3 48 50.2 49.8 49.6 49.9 49.3 48.4 47.6 47 46.4 47 48 47.5 46.3 45.9 43.6 43.9 45.1 45.4 44.5 41.9 38.6 35.2 34.5 33.8 33.3 32.8 32.2 31.2 29.8 29.3 28.5 27.6 28.2 28.7 29.1 30.6 32.7 34.8 34.9 34.9 35.6 38 41.4 40.9 38.3 36.1 33.8 32.9 32.3 31.8 31.5 31.3 29.6 29.1 28.3 27.6 27 26.2 25.5 25 24.4 23.8 23.6 23 22.3 21.5 19.7 17.7 17 16.9 16.2 15.7 14.9 14.1 13.2 12.3 12.1 14.3 18.4 19.7 19.7 19.6 19.8 20.5 20.5 20.1 19 18.7 18 17.3 16.6 15.4 14.7 14.4 14.4 13.5 12.5 11.5 10.3 9.3 8.5 6.5 5.5 4.6 2.1 3.4 3.2 3.2 4.4 6.1 7.5 7.8 7.1
169.3 167.1 167.9 167.7 167.3 167.6 167.7 165.9 161.5 154.3 144.2 130.2 119.6 107.7 94.7 84 74.1 71.8 69.4 66 63.4 62.6 63.2 63.3 62.6 60.9 59 57.2 54.8 51.2 47.1 42.9 37.6 33.5 29.4 26.4 24.8 23.6 22.1 20.9 19.6 18.5 18 17.3 16 15.1 14 13.3 11.4 10.3 8.7 8.5 7.8 7.3 6.5 5.3 2.7 2.9 2.4 19.5 26.7 21.9 18.3 16.7 16.2 16 16 16.6 17.2 17.9 19 20.9 22.5 23.6 25.2 27.4 29.1 31.3 33.2 35 37.3 39.7 41.8 42.3 42.9 45.8 46.9 49.6 52.4 52.1 51.5 50.7 50.2 49.4 49.5 51 52.5 53.7 53.1 51.8 52 53.1 55.6 56.2 55 52.3 46.7 41.1 38 36.5 36.3 37.2 37.6 36.8 35.2 33.6 32.2 30.4 29 28.1 28.4 29.6 31.1 33.5 34.5 34.3 34.1 34.9 36.9 39.4 38.3 36.8 35.4 34.2 33.7 33.2 32.6 32 31.2 30.8 29.7 28.7 28.1 27.6 27.1 26.3 25.9 25.4 24.9 24.4 23.4 22.7 21.8 20 17.5 18.5 18.5 17.1 16 14.6 13.8 12.7 12.4 13.6 18.5 20.7 20.9 20.9 20.3 20.6 20.8 20.9 20.7 19.9 19.2 18.6 17.9 17.5 16.3 14.7 13 12.9 13.4 12.7 11.7 10.6 9.5 8.8 7.8 6.4 5.2 3.2 3.2 3.1 3 3.5 5.2 6.4 6.1 5.6
163.4 159.7 161.4 162.6 163.1 164.3 165.7 166.6 166 162 155.9 147 138.2 125.8 109.6 92.7 78.3 70.9 64.7 60 56.4 54.4 53 52.8 53 52.2 50.7 51.1 51 49.8 46.6 42.2 35.5 32.5 28 25.2 24.4 23.5 22 20.5 19.6 18.9 18.1 17.4 16.3 14.4 12.3 10.7 9.2 8.3 7.6 7.9 7.3 6.5 5.5 3 3 3.7 3.9 13.3 21.9 19.3 15.3 14.6 14.7 15.3 16 17.2 17.3 17.7 19.8 21.2 22.6 23.6 24.8 26.3 27.8 28.8 30.7 32.6 34.4 36.3 38 38.8 41.5 45.6 48.3 49.8 53.7 54.4 54.4 53.5 52 51.4 52.9 55 58.2 60.1 60.1 60.4 62.5 65.1 66.7 65.3 63.3 49.3 44.1 41.2 39.6 39.5 41.6 45.8 45.7 43.9 40.9 37.1 34.6 32.4 31 29.5 29 30.1 31.3 32.3 33.7 33.5 33.3 34.5 36.6 38 37.7 36.3 35.6 35 34.4 33.9 33.4 32.6 31.7 30.6 29.9 29.2 28.7 28.2 27.7 27.2 26.7 25.5 25.2 23.9 23.1 21.5 21.2 20.3 20.8 20.1 18.9 17.6 16.4 14.8 13.9 13.3 13.4 16.3 18.4 17.4 20.5 18.8 18.4 20 20.3 20.5 20.2 20 19.8 19.1 18.6 18 16.5 15 12.9 11.2 12.5 12.4 11.8 10.7 9.6 8.7 7.9 6.7 6 3.2 3.2 3 3.1 3 3 4.3 4.3 4.1
159 152.2 155.4 157.3 158.3 159.3 161.6 163.5 164.7 163.3 161.1 156.5 148.8 137.9 122.3 103 87.2 75.3 65.1 56.1 51.4 47.1 44.2 44 41.8 40.6 38.9 40.3 44.2 45.5 43.4 39.7 31.8 29.9 25.7 23.4 22.6 22.2 21.2 20.2 18.9 18.5 17.8 16.5 15.3 13.9 11.9 9.7 8 2.8 2.6 2.7 5.1 4.8 3 2.9 3.7 3.7 3.8 8.9 17 11.1 12.5 14 15.6 16.8 17.8 18.8 19.9 18.8 22 23.1 25.1 26.2 26.7 27.2 28.4 29.5 30.8 32.3 33.5 35.2 36.8 38.5 39.9 43.3 46.6 50 53.6 56 56.4 56 54.7 54.4 55.7 59.9 64.1 66.3 68.5 71.3 74.3 77.8 78.9 72.1 57.2 45.7 45 44.8 43.9 44.2 48.4 57.5 54.9 49.5 45.4 41.1 37.4 34.5 33.4 28.7 32.3 31.7 33 33 31.3 33.1 34.7 36.4 38 38.3 37.8 37 36.2 35.6 35.1 34.6 34.1 33.3 32.5 31.8 31.2 30.1 29.3 28.7 28.3 27.9 27.1 26.3 25.7 23.9 23.2 21.7 22.5 21.6 21.1 20.1 18.9 17.3 15.9 14.5 12.9 14.1 16.2 18.4 19.2 19 18.2 18.2 17.9 17.7 18.7 19.1 19.2 19.5 19.3 19.1 18.6 18 16.6 15.6 14.2 11.6 9.6 10.9 11 10.3 9.3 8.4 8 6.7 5.4 4.1 3.1 2.8 2.8 2.8 2.8 2.9 1.3 2.7
155.4 147 149.5 152 152.9 154 156.1 158.7 160.2 160 160.1 159.1 155 145.8 135.1 116.9 99.8 83.6 69.8 58.2 51.6 47.9 45.7 44.1 41.8 38.6 35 31.8 35.1 38.8 38.1 34.9 30.4 25.5 22.2 19.8 19 18.9 19.2 18.3 17.7 16.2 14.3 12.7 11.1 9.7 8.7 7.2 3.2 3.6 3.4 2.2 5.4 2.2 2.5 3.7 3.7 3.7 3.5 3.8 6.5 12.6 14.4 16 17.3 19.3 20.5 21.7 22.3 22.8 24.7 26.2 28.3 29.2 29.9 30.4 31 32 33.1 34.3 35.3 36.5 38.1 39.9 41.1 43 45 47.7 52.1 56.3 58 57.8 57 57.7 59.1 65.5 69.7 73.9 79 84.4 88.4 88.6 85.7 68.1 48.4 47.5 52.1 51.7 49.9 56.8 71.1 68.7 60.9 54.4 48.2 42.8 38.6 36.2 37.9 40.8 38.4 35.4 34.7 34.2 34.6 35.7 37.6 39.7 39.8 39.3 38.4 37.8 37.2 36.5 35.7 35 34.5 33.9 33 32.2 31.3 30.5 29.8 29.1 29 28.3 27.4 26.6 26 24.8 24.1 22.7 22.8 21.6 21 20 18.7 17.3 15.2 13.6 15.2 16.9 18.5 18.6 18.4 16.7 15.1 16.6 17.2 16.6 15.8 16.8 17.6 18 18.4 18.8 18.4 17.9 16.9 16 14.9 12.8 9.9 8.2 8.8 9.2 8.5 8 7.6 6.5 5.1 2.6 3 2.6 2.6 2.7 2.7 2.2 2.7 2.7
153.3 143.8 141.9 145.9 147.6 148.4 150.1 153.1 154.1 153.8 155.1 156.7 156.7 151.6 143.8 132.1 114.1 95 74.6 63.3 57.3 56 52.2 49.2 45.7 41.7 36.5 30.8 28.1 30.2 30.1 29 26.1 22.4 19.6 18.4 16.8 15.9 15.2 14.9 13.2 11.9 10.3 9.3 8.1 6.9 5.8 4.1 2.6 3.7 -2.2 -2.2 3.6 3.3 3.6 3.7 3.6 3.6 3.5 5.9 12.5 10.6 15.2 18.2 19.5 22.1 23.4 24.4 23.8 26.1 27.1 29.2 31.3 32.5 32.8 33.5 34.1 34.9 35.8 37 37.8 39.3 40.7 42.1 43.6 44.8 45.7 49 51.9 55.2 58.4 59.5 59.6 60.5 63.4 68.9 77.4 78.1 91.6 97.1 101.3 101.1 87 59 54.8 64.3 65.3 59.6 61.6 76.5 80.3 76.4 67.8 59 50.6 44.7 42.1 42 45.6 47 45.7 41.9 37.3 36.7 38.3 41.2 43.3 42.5 41.6 40.6 39.6 39.1 38.4 37.3 36.5 35.6 34.9 34.2 33.5 32.4 31.4 30.7 30 29.2 29.4 28.8 27.6 26.5 26 25.2 24.3 22.8 22.3 22.1 20.6 19.1 17.4 15.9 15 15.8 18 19.2 18.9 17.9 17 16.1 15 12.9 14.4 14.3 14.5 15 15.7 16.2 16.7 17.4 17.7 17.6 16.3 15.2 14.1 12.6 10.2 7.6 6.6 7.9 7.7 7 6.1 5.3 3.9 3.5 3 3.1 2.3 2.5 2.7 2.7 2.7 2.7
152.5 142.8 134.2 139.2 141.5 142.8 144.5 147 147 147.2 149 151.7 154 154.4 148.8 140.4 128.9 109.3 89.4 79.8 75.2 65.7 56.4 49.4 43.4 38.3 34.2 31.7 30.7 28.7 27.3 26.2 25.1 23.1 21.4 20.1 18.7 16.4 13.9 13 14 10.7 10 10.3 9.7 8.5 7.1 4.2 3.4 3.3 -2.2 4.4 3.2 3.7 3.6 2.6 3.1 3.4 4.2 11.2 12.9 15 17 18.5 20.6 23.7 25.3 25 28.2 26.4 29.2 31.2 33.2 35.1 35.4 35.5 36 37.2 38.4 39.8 41 42.3 43.3 45.1 47.8 47.8 47.8 51.5 54.4 56.3 58.5 60.7 62.5 63.8 67.1 73.5 85.7 94.8 101.4 109.6 117.6 116.5 100.1 84.1 81 81.5 79 75.2 79.8 89.2 88.9 83.5 74.8 66.5 61.2 59.1 58 59.5 57.1 54.2 49.8 48.2 41 42.8 41.7 44.8 44.3 43.5 42.3 41.5 40.4 39.4 38.8 38.3 36.8 35.9 35.1 34.3 33.4 32.4 31.4 30.7 30 29.3 29.1 28.4 27.4 26.5 25.7 24.9 24.3 22.6 22.1 21.7 20.2 18.1 16 15.1 16.1 17.7 20.2 19.2 17.7 16.8 16.5 14.9 14.2 12.5 11.9 13 13.2 13.4 13.9 14.5 15.1 15.8 16.2 16 15 14.1 12.8 11.2 9.2 7.2 5.8 6.7 6.5 5.6 4.8 4.3 4.2 4.5 4.9 3.9 2.9 3 2.7 2.7 2.7 2.7
151.6 142.2 132.1 131.9 135.1 136.7 139.1 141 139.8 140 142.7 145.4 149.7 153.3 151.6 144.7 137.4 126.7 113.3 104.9 91.3 73.8 59 47.8 41.4 39.3 39 39.5 40.2 38 35.8 33.3 30.6 29.5 27.9 25.5 22.3 19.4 15.7 13.4 14.7 13 13.4 13.8 11.4 10.1 8.8 2.2 3.4 3.3 -2.2 -2.2 3.8 4.1 3.8 3.1 3.2 4.1 8.1 10.8 12.8 15 17.2 19.4 21.7 23.9 26.1 27.9 29.4 29.8 30.9 33 34.9 36.5 37.6 38 38.8 40.1 41.5 43.1 44.7 46.1 50.2 50.4 50.4 50.4 50.2 53.5 58.1 60.2 60.6 62.6 65.7 67.7 70.6 77.1 85.8 98.2 109.8 121.2 130.9 131.9 121.8 106.3 100.7 99.4 94.5 92.9 97.7 102.8 99.2 89.9 84 78.5 75.5 73.4 72.4 67.7 63.4 58.1 54.2 45.6 47 45.5 44.4 45.4 44.4 43.4 42.5 40.7 40.9 39.6 39.4 38.8 37.4 36.1 35.2 34.2 33.3 32.3 31.4 30.6 30 29.4 29.2 27.8 27.2 26.2 25.3 24.3 23.7 22.1 21.1 20.5 19.3 16.9 16.1 16.3 18.4 19.4 19.8 18.3 17.2 16.5 15.6 14.8 14.1 13.4 12.2 11.6 11.9 12.2 12.7 13.1 13.5 14.3 14.7 14.2 13.5 12.7 11.3 9.6 7.6 6 5.5 5.4 5.1 4.8 4.5 4.5 5.4 6 5.5 4.3 3.4 3 5 2.7 2.7 2.7
150.9 142.2 131.9 124.7 128.9 131.1 135.2 135 133 132.7 135.2 138.8 144.1 149.5 151.3 148.6 142.6 135.2 125.9 115.6 103.9 80.2 60 49.3 45.7 46 45.3 45.4 44.8 43.8 42.3 40.6 38.4 36.9 34.8 31.4 26.4 22.3 18.9 17.6 16.3 16.6 16.4 15.5 12.1 10.8 9 3.4 3.5 3.4 -2.2 -2.2 4.1 5.2 5.1 5 6.8 7.1 8.6 10.6 12.9 15.2 17.4 19.3 21.4 23.6 26.3 28 30.1 32 33.5 35.9 37.9 39.5 40.9 42.4 44 45.5 47 48.8 51.2 54.8 54.7 54.5 54 52.6 52.8 55.9 61.8 65.9 65.7 66.4 70.4 74.2 77 83.4 91.9 101.3 117.3 133 144.5 147 133.6 116.4 106.6 100.2 93.9 93.5 97.9 100.6 102.1 96.7 86.7 84.6 81.9 79.8 76 71.5 66.3 58.5 53.6 50.3 49.1 47.2 46.3 45.7 44.8 43.7 42.7 42.4 41.7 40.6 40 38 37.2 36.1 35 33.9 33 32.2 31.3 31.3 30.6 29.3 28.7 27.6 27.1 26.2 25.1 24.6 23.2 21.2 20.9 19 17.5 17.2 17.3 17.8 19.3 19.3 18.5 17.7 17.2 16.4 15.5 14.7 13.9 13 12 10.9 10.5 10.6 11.7 12 12.7 13.5 13.3 12.8 12.2 11.4 9.3 7.4 6 5.6 5.4 5.4 5 4.6 5 6.6 7.1 6.6 5.6 4.7 3.9 3.1 2.6 5 2.6 2.6
150.3 143.6 133.4 123.4 122 125.8 130 129.6 126.4 125.3 128.2 132.6 138.3 144.8 148.4 148.6 145.2 138.9 130.8 121.8 110.3 92.6 73.9 61.1 57.1 53.5 50 46.6 45.2 43.7 43.5 42.3 41 40.4 37.8 35.2 30.9 25.1 23.3 21.6 19.4 17.7 15.8 15 12.9 9.1 6.7 3 3.2 -2.2 -2.2 4.7 5.1 5.2 6.4 6.5 7.7 8.3 9.7 11.8 13.5 15.5 17.7 19.9 22 24.3 27.3 30.1 32.6 35 37.4 40.3 42.6 45 47.2 48.9 50.5 53.4 59.2 63.1 63.3 62.5 61.3 59.9 57.7 55.2 54.1 58 66.1 73.3 72.8 70.8 77.4 83.2 85 90 97.8 113.2 128.6 145.5 156.9 150.4 131.4 112.6 98.7 91.3 86.9 84.7 84.4 85.9 87.6 87.9 86.1 80.1 78.7 80.9 76 68.4 64.1 59.6 56.1 52.7 50 48.7 46.8 47.4 45.2 44.2 43.5 43.3 42.8 43 41.8 39.6 36.8 35.6 34.5 33.7 33 32.2 31.2 30.9 30.2 29.2 28.3 27.6 27 26 25.1 24.6 23.5 21.4 20.9 18.1 17.4 16.9 19.2 18.9 19.6 19.4 18.8 18.2 17.6 16.8 16.1 15.4 14.2 13.4 12.6 11.3 10.4 10.1 10.4 11.5 12.3 12.9 12.4 11.6 10.8 9.9 7.5 6.4 6.5 6.3 6.2 5.5 5.5 5.8 7.1 7.8 8 7.7 7 6.3 5.4 4.4 3.8 3.7 4 2.4
150.3 144.8 136.1 125.9 116.7 120.1 124.5 123.7 120.5 118 121.1 125.9 132.2 138.7 143.3 145.7 145.3 141.2 134.1 126 116.3 103.9 90.2 79.1 77.7 57.2 50.5 43.6 41.2 41.1 41.3 40.6 40.9 40.9 39.1 37.4 34 29.5 30.9 29.8 26.8 27.7 23.7 18.4 12.1 7.2 2.8 3.1 3.2 -2.2 4.5 4.7 4.5 5 6.1 7.1 8.2 9.3 10.6 12.6 14.4 16 18.2 20.8 23.3 26.4 30 33.6 37 39.8 42.7 46 48.9 51.6 55 62.1 64.3 67.6 70 72 71.9 70.4 68.5 64.2 60.3 58.1 57.8 59.6 69.2 79.1 80.1 76.7 81.6 89.9 93.5 101 109.7 126 144.1 160.3 163.6 140.8 115.7 100.7 96.1 93.1 87.4 82.5 79.1 77.8 76.9 76 77.2 78.3 79 77.8 73.7 69.4 63.6 57.5 55.7 52.3 49.5 48.3 47.1 46.9 46.2 45.6 45.9 46.8 46.8 48 45.7 41.2 37.4 35.7 33.7 33 32.4 31.7 30.8 30.5 29.9 29.1 28.4 27.5 26.5 25.4 24.4 24 21.9 19.7 18.9 18.2 19.1 19.9 20.3 20.1 19.9 19.7 19.5 19.2 18.2 17.5 16.9 16 14.8 13.5 12.5 11.9 11 9.7 9.5 11.1 11.9 11.8 11.1 9.9 8.8 7.3 6.7 6.2 7.1 7.6 6.7 5.7 6.3 7.7 8.4 9 9 8.9 8.3 7.7 7.3 6 5.2 4.7 3.2 3.1
150.5 145.3 139.3 129.5 120.3 112.4 115.5 117.5 114.8 110.2 114.8 119.5 125.6 131.8 137.5 141.5 143.6 141.8 136.1 128.1 119.9 109.8 98.3 87.4 78.7 61.8 50.9 41.4 36.9 37.1 37.5 37.4 38 39.4 37.3 37.4 35.9 35.3 35.1 33.6 32.9 30.3 25.3 18.6 11.6 6.6 2 2.5 3.6 -2.2 4.9 5.5 5.4 4.8 7 7.1 8.3 9.9 11.4 13.9 15.8 17.7 20.9 23.4 26.2 29.8 33.9 38 42.6 46 50.1 53.4 56 64.1 67.1 71.2 75.4 78.9 81.6 82.6 81 78.5 74 67.4 62.9 66.1 64.6 66.5 69.8 80.4 84.9 83.1 87 94.1 103.5 113.6 127.9 142.5 160.4 174.9 168.6 137.7 114.3 109.9 109 103.2 94.6 87 81.1 77 74.4 72.4 70.3 70 70.7 70.2 67.4 63.2 59.1 55.7 53 51.3 50.1 48.6 47.5 48 48.1 48.9 50 51.9 51.9 52.8 48.2 42.9 38.1 34.4 31.9 31 31 30.8 30.2 29.5 28.8 27.7 27 26.4 25.4 24 22.2 20.5 21.1 20.3 19 18.6 20.8 21.3 21.4 21.2 21 20.7 20.5 20.4 19.2 18.4 17.7 16.6 15 13.7 12.8 11.5 11.1 9.2 9.1 9.9 10.3 10.1 8.9 8 7 6.4 6.7 7.6 8.2 7.8 6.3 6.4 7.6 9.2 9.4 9.4 9.7 9.7 9.9 9.9 9.6 8.7 7.3 6.4 6.2 4.8
150.2 145.9 140.6 134.6 126.5 117.6 110.3 107 106.5 104.2 107.8 111.8 117 123.9 130.9 136.5 140.2 139.9 135.7 129.1 121.1 112.5 88.3 79.4 77.2 64.7 51.8 40.8 34.1 32.9 32.5 32.3 33.3 34.3 33.9 34.6 35 36.1 36 34.8 32.8 29.3 24.1 17.3 11.4 6 2.2 2.9 3.6 -2.2 4.5 5.3 5.7 7.2 7.8 7.5 8.6 10.3 13 16 18.7 20.4 23.1 27.1 30.9 34.5 38.9 43.4 48.4 52.6 62.6 58.8 67.4 70.2 76.5 82.4 87.2 91.2 94.1 93.3 91 85 76.3 69 67.5 73.2 73 75.3 76.3 81.4 89.3 90.3 100.1 106.2 117 130.3 145.9 163 179.4 187.5 175.2 148.1 137 133.2 125.4 114.5 104.4 95.7 88.7 82.6 78.2 73.7 70.1 66.8 65.2 63.5 60.9 58.4 56.5 54.5 53.5 52.6 52.1 50.8 49.9 50.2 52.7 59.2 63.2 61.5 59.9 54.4 47.2 41.7 36.8 33 30.5 29.3 29 29 29 27.9 27.6 26.2 25.2 24.2 22.8 22.6 22.3 22.6 21.5 20.3 18.9 20.6 22 23 22.3 21.9 21.3 21.3 21.4 20.5 19.7 19 18 16.5 14.9 13.4 13 12.5 11.6 9.7 9.2 8.7 8.7 8.3 7.5 7.4 7.3 6.9 7.7 8.1 7.7 7 6.6 7.3 8.8 9.5 9.7 9.7 10 10.3 10.4 10.9 10.6 10.2 8.8 8.5 8.2 7.8
148.8 144.8 140.3 135.5 130.1 125.6 119.2 113.3 107.3 102.9 99.6 97.2 102.2 114.1 123.9 131.6 135.9 136.4 133.2 127.8 120.9 113 103.9 93.8 80.5 65.9 50 39.8 33.9 30.7 28.4 26.8 27.3 28.2 28.4 29.7 31.7 33.9 34.5 33.5 31 26.1 20.5 14.3 8.9 5.1 2.3 1.9 -2.2 -2.2 4.5 5.2 5.7 7 7.4 8.5 9.7 12.1 15.6 19.9 23 23.8 25.7 29.7 34.5 40.8 45.2 48.7 52.9 57.7 61.2 62.3 75 82.6 88.4 93.5 99.8 104.2 106.6 106.7 100.5 89.5 80.1 77.7 74 79 82.8 84.2 86 87.7 96.9 102.9 113.6 123.8 135.5 148.5 164.1 184.1 195.9 197.1 189.5 175.3 163.7 152.3 137.2 122.5 112.3 103.8 96.8 90.2 83 77.2 72 67.5 63 60.4 59.1 57.5 56.4 56.4 55.7 56.9 55.5 54.2 52.6 52.2 62.4 69.9 72.6 65.9 60.3 54.2 47.4 41.3 35.8 32.5 30.1 28.4 27.6 28.5 27.3 26.3 25.3 24.8 25.4 25.2 24.9 24.4 23.8 23.5 22.2 20.1 19.4 22.8 24.3 23.8 23.4 23.1 23 22.7 21.8 20.7 19.6 18.9 17.3 16.7 14.9 14 13.5 12.9 11.7 10.3 9.1 9.4 8.4 7.5 7.6 7.8 7.5 7.9 9.1 8.3 7.5 6.9 6.1 7.1 8.1 8.6 9.4 9.7 10 10.4 10.7 11.1 11.3 11.1 10.9 10.4 9.8 9.2
146.9 142.7 138.5 134 130.6 127.6 124 120.5 115.3 111.1 107.2 100.3 93.6 102.1 117.1 126.4 131.8 132.8 130.2 125.3 119.3 112.4 103.9 93.8 79.8 65.2 48.9 39.2 33.7 31.2 28.9 25.7 23.3 22.1 22.1 23.7 25.8 29.3 29.8 30.3 28.3 23.6 16.3 10.6 6.4 3.2 2.8 2.9 -2.2 4.4 4.6 5.3 6.6 7.1 8.2 9.6 11.6 14.4 19.8 25.9 28.4 28.1 28.8 32 37.5 43.7 48.6 51.5 56.5 61.8 70 62.5 85.4 93 100.2 107.4 112.3 114.6 122.2 121.6 112.8 98.3 93.6 91.6 84.8 85.3 92.1 96 100.9 105.1 112.2 120.2 130.8 144.2 155.4 170.7 187.8 199.2 205.1 204 197.3 188 174.9 158.7 139.1 123.5 113.9 106.3 99.8 94.6 87.5 78.4 73.1 67.5 62.9 61.1 59.8 59.3 60.3 62.6 62 62 60 56.9 54.7 54.1 67.6 77.1 77.1 68.8 59.6 52.5 45.6 39.4 34.7 32 30 28.1 28.4 27.9 28 28.8 28.9 28.9 28.2 27.4 26.4 25.6 24.7 23.9 22.1 19 20.7 24.8 25.8 25.3 25 24.8 24.1 22.9 22.1 20.8 19.5 18.5 17.5 16.7 15.6 14.6 13.5 12.3 11.2 9.8 9.9 9.7 9.1 8.8 8.4 7.9 8 8.3 8.4 8.1 7.9 7.7 6.7 6.3 6.8 7.7 8.5 9.2 9.6 9.8 10.2 10.8 11.4 11.5 11.7 11.6 11.2 10.7
145 140.2 135.3 130.8 127.4 126.2 123.2 120 116.4 113 109.2 103.9 95.5 94.4 110 122.1 127.5 128.5 126.6 122.7 117.7 111 103.2 91.3 81.5 66.6 49.3 40.8 35.2 33 30.4 27.3 24.1 19.9 17.2 18.2 20.6 21.4 25 25.6 23.9 20 14.4 8.3 3.7 2.8 2.7 3.4 -2.2 4.1 4.2 5.1 6.8 8 10.1 12 14.3 18.8 25.7 32.7 34.9 34.3 33.2 34.7 41 45.3 49.1 53.7 59.4 69.1 76.5 85.4 94.4 103.1 111.6 115.9 116.4 119 124.7 132.6 128.4 119.2 115.8 97.4 93.5 92.2 105.2 113.5 119.9 127.5 135.1 143.2 152.5 165.4 180.6 194.5 201.9 207.7 209.2 206 196.8 180.8 162.8 147.4 131.5 118.4 109.3 102.2 95.4 89.7 82.6 76.1 70.4 66.1 63.7 62.8 64.9 66.7 69.5 71.3 69.8 67.3 62.6 57.7 55.2 57 72.7 74.7 74 64.8 56.3 48.4 41.8 37.8 34.8 32.6 29.7 30.5 30.8 31.4 33.4 35.3 35.3 32.8 30.4 28.7 27.3 26.5 25.4 23.7 21.7 21.5 23.9 25.8 27.5 27.1 26.6 25.7 24.8 23.8 22.1 21 20 19.2 18.2 17.3 15.8 14.3 13 12.3 11.9 11.2 11 10.4 9.5 8.8 8.5 8.4 8.6 8.8 9.2 9.1 8.9 7.7 6.8 7.3 7.1 6.9 7.7 8.3 8.7 9.1 9.6 10.3 10.8 11.6 11.8 11.6 11.3 10.9
