ncols 200
nrows 89
xllcorner 160000
yllcorner 695250
cellsize 50
-0.3 -0.3 -0.3 -0.3 -0.3 -0.3 -0.3 -0.3 -0.3 -0.3 -0.3 -0.3 -0.3 -0.3 -0.3 -0.3 -0.3 -0.3 -0.3 -0.3 -0.3 -0.3 -0.3 -0.3 -0.3 -0.3 -0.3 -0.3 -0.3 -0.3 -0.3 -0.3 -0.3 -0.3 -0.3 -0.3 -0.3 -0.3 -0.3 -0.3 -0.3 -0.3 -0.3 -0.3 -0.3 -0.3 -0.3 -0.3 -0.3 -0.3 -0.3 -0.3 -0.3 -0.3 -0.3 -0.3 -0.3 -0.3 -0.3 -0.3 -0.3 -0.3 -0.3 -0.3 -0.3 -0.3 -0.3 -0.3 -0.3 -0.3 -0.3 -0.3 -0.3 -0.3 -0.3 -0.3 -0.3 -0.3 -0.3 -0.3 -0.3 -0.3 -0.3 -0.3 -0.3 -0.3 -0.3 -0.3 -0.3 -0.3 -0.3 -0.3 -0.3 -0.3 -0.3 -0.3 -0.3 -0.3 -0.3 -0.3 -0.3 -0.3 -0.3 -0.3 -0.3 -0.3 -0.3 -0.3 -0.3 -0.3 -0.3 -0.3 -0.3 -0.3 -0.3 -0.3 -0.3 -0.3 -0.3 -0.3 -0.3 -0.3 -0.3 -0.3 -0.3 -0.3 -0.3 -0.3 -0.3 -0.3 -0.3 -0.3 -0.3 -0.3 -0.3 -0.3 -0.3 -0.3 -0.3 -0.3 -0.3 -0.3 -0.3 -0.3 0.9 13.4 14.5 61.1 108.6 155.1 159.2 162.3 180 189.6 185.7 185 179.2 177.3 168.4 167.8 168.7 154.1 135.7 120.7 107.3 80.3 52.4 38.1 41.8 58.5 89.7 98.4 87.5 79.2 71.5 66.2 65.8 86.6 100.1 94.9 94 85.5 80.8 77.6 57.2 74.8 95.7 123.1 131.9 136.4 141.8 150.5 153 145 141.7 140.6 139.1 138.6 138.2 139.7
-0.3 -0.3 -0.3 -0.3 -0.3 -0.3 -0.3 -0.3 -0.3 -0.3 -0.3 -0.3 -0.3 -0.3 -0.3 -0.3 -0.3 -0.3 -0.3 -0.3 -0.3 -0.3 -0.3 -0.3 -0.3 -0.3 -0.3 -0.3 -0.3 -0.3 -0.3 -0.3 -0.3 -0.3 -0.3 -0.3 -0.3 -0.3 -0.3 -0.3 -0.3 -0.3 -0.3 -0.3 -0.3 -0.3 -0.3 -0.3 -0.3 -0.3 -0.3 -0.3 -0.3 -0.3 -0.3 -0.3 -0.3 -0.3 -0.3 -0.3 -0.3 -0.3 -0.3 -0.3 -0.3 -0.3 -0.3 -0.3 -0.3 -0.3 -0.3 -0.3 -0.3 -0.3 -0.3 -0.3 -0.3 -0.3 -0.3 -0.3 -0.3 -0.3 -0.3 -0.3 -0.3 -0.3 -0.3 -0.3 -0.3 -0.3 -0.3 -0.3 -0.3 -0.3 -0.3 -0.3 -0.3 -0.3 -0.3 -0.3 -0.3 -0.3 -0.3 -0.3 -0.3 -0.3 -0.3 -0.3 -0.3 -0.3 -0.3 -0.3 -0.3 -0.3 -0.3 -0.3 -0.3 -0.3 -0.3 -0.3 -0.3 -0.3 -0.3 -0.3 -0.3 -0.3 -0.3 -0.3 -0.3 -0.3 -0.3 -0.3 -0.3 -0.3 -0.3 -0.3 -0.3 -0.3 -0.3 -0.3 -0.3 -0.3 -0.3 -0.3 1 6.4 8.4 51.5 83.3 158.3 164.9 172.7 179.2 195.6 198.4 195.5 198.3 187.9 183 195 187.8 172 159.2 150.7 142.9 122 85.3 48.1 41.4 39.9 63.6 87.7 89.9 91.5 79.6 71.7 63.1 86.1 109.7 108.2 103 101 103.4 100.9 96.8 77.2 98.2 124.8 142.3 145.9 149.5 156.8 164.4 156.9 143.1 140.7 139.8 139.2 139.1 134.9
-0.3 -0.3 -0.3 -0.3 -0.3 -0.3 -0.3 -0.3 -0.3 -0.3 -0.3 -0.3 -0.3 -0.3 -0.3 -0.3 -0.3 -0.3 -0.3 -0.3 -0.3 -0.3 -0.3 -0.3 -0.3 -0.3 -0.3 -0.3 -0.3 -0.3 -0.3 -0.3 -0.3 -0.3 -0.3 -0.3 -0.3 -0.3 -0.3 -0.3 -0.3 -0.3 -0.3 -0.3 -0.3 -0.3 -0.3 -0.3 -0.3 -0.3 -0.3 -0.3 -0.3 -0.3 -0.3 -0.3 -0.3 -0.3 -0.3 -0.3 -0.3 -0.3 -0.3 -0.3 -0.3 -0.3 -0.3 -0.3 -0.3 -0.3 -0.3 -0.3 -0.3 -0.3 -0.3 -0.3 -0.3 -0.3 -0.3 -0.3 -0.3 -0.3 -0.3 -0.3 -0.3 -0.3 -0.3 -0.3 -0.3 -0.3 -0.3 -0.3 -0.3 -0.3 -0.3 -0.3 -0.3 -0.3 -0.3 -0.3 -0.3 -0.3 -0.3 -0.3 -0.3 -0.3 -0.3 -0.3 -0.3 -0.3 -0.3 -0.3 -0.3 -0.3 -0.3 -0.3 -0.3 -0.3 -0.3 -0.3 -0.3 -0.3 -0.3 -0.3 -0.3 -0.3 -0.3 -0.3 -0.3 -0.3 -0.3 -0.3 -0.3 -0.3 -0.3 -0.3 -0.3 -0.3 -0.3 -0.3 -0.3 -0.3 -0.3 -0.3 2.8 3.7 7 41.8 86 166.4 174.5 179.4 194.9 210.7 211 213.3 216.7 217.8 210.2 209.3 201.6 201.7 195.3 190.5 174 146.7 108.6 76.8 55.9 54 45.5 63.9 81.3 92 85.4 76 64.9 64.6 99.2 109.8 101 107.7 116.6 111.6 107.8 99.7 101.7 138.4 160.1 160.9 154.3 161.6 171.4 164.3 154.1 149.6 148.5 144 140.8 136.3
-0.3 -0.3 -0.3 -0.3 -0.3 -0.3 -0.3 -0.3 -0.3 -0.3 -0.3 -0.3 -0.3 -0.3 -0.3 -0.3 -0.3 -0.3 -0.3 -0.3 -0.3 -0.3 -0.3 -0.3 -0.3 -0.3 -0.3 -0.3 -0.3 -0.3 -0.3 -0.3 -0.3 -0.3 -0.3 -0.3 -0.3 -0.3 -0.3 -0.3 -0.3 -0.3 -0.3 -0.3 -0.3 -0.3 -0.3 -0.3 -0.3 -0.3 -0.3 -0.3 -0.3 -0.3 -0.3 -0.3 -0.3 -0.3 -0.3 -0.3 -0.3 -0.3 -0.3 -0.3 -0.3 -0.3 -0.3 -0.3 -0.3 -0.3 -0.3 -0.3 -0.3 -0.3 -0.3 -0.3 -0.3 -0.3 -0.3 -0.3 -0.3 -0.3 -0.3 -0.3 -0.3 -0.3 -0.3 -0.3 -0.3 -0.3 -0.3 -0.3 -0.3 -0.3 -0.3 -0.3 -0.3 -0.3 -0.3 -0.3 -0.3 -0.3 -0.3 -0.3 -0.3 -0.3 -0.3 -0.3 -0.3 -0.3 -0.3 -0.3 -0.3 -0.3 -0.3 -0.3 -0.3 -0.3 -0.3 -0.3 -0.3 -0.3 -0.3 -0.3 -0.3 -0.3 -0.3 -0.3 -0.3 -0.3 -0.3 -0.3 -0.3 -0.3 -0.3 -0.3 -0.3 -0.3 -0.3 -0.3 -0.3 -0.3 -0.3 -0.3 -0.3 -0.3 5 38.3 77.4 169.1 173.3 187.7 201.5 210.3 218.4 223.3 227 228.2 220.1 220.6 224.2 221.5 216.2 204.1 181 158.5 120.8 93.7 72.2 70.5 54.7 45.2 58.9 77.7 80 77.7 68.4 65.6 76.1 90.1 98.8 109.8 119.1 124.9 117.6 110.3 103.8 131.4 160.5 161.2 162.7 166.2 178.8 172.9 161.7 155.4 154.4 159.8 159.2 144.7
-0.3 -0.3 -0.3 -0.3 -0.3 -0.3 -0.3 -0.3 -0.3 -0.3 -0.3 -0.3 -0.3 -0.3 -0.3 -0.3 -0.3 -0.3 -0.3 -0.3 -0.3 -0.3 -0.3 -0.3 -0.3 -0.3 -0.3 -0.3 -0.3 -0.3 -0.3 -0.3 -0.3 -0.3 -0.3 -0.3 -0.3 -0.3 -0.3 -0.3 -0.3 -0.3 -0.3 -0.3 -0.3 -0.3 -0.3 -0.3 -0.3 -0.3 -0.3 -0.3 -0.3 -0.3 -0.3 -0.3 -0.3 -0.3 -0.3 -0.3 -0.3 -0.3 -0.3 -0.3 -0.3 -0.3 -0.3 -0.3 -0.3 -0.3 -0.3 -0.3 -0.3 -0.3 -0.3 -0.3 -0.3 -0.3 -0.3 -0.3 -0.3 -0.3 -0.3 -0.3 -0.3 -0.3 -0.3 -0.3 -0.3 -0.3 -0.3 -0.3 -0.3 -0.3 -0.3 -0.3 -0.3 -0.3 -0.3 -0.3 -0.3 -0.3 -0.3 -0.3 -0.3 -0.3 -0.3 -0.3 -0.3 -0.3 -0.3 -0.3 -0.3 -0.3 -0.3 -0.3 -0.3 -0.3 -0.3 -0.3 -0.3 -0.3 -0.3 -0.3 -0.3 -0.3 -0.3 -0.3 -0.3 -0.3 -0.3 -0.3 -0.3 -0.3 -0.3 -0.3 -0.3 -0.3 -0.3 -0.3 -0.3 -0.3 -0.3 -0.3 -0.3 -0.3 4.3 11.1 111.3 154.2 169 183.7 202.1 198.9 212.7 231.3 235.7 229.2 223.3 232.5 234.8 229.8 233.5 225 202.1 179.1 149.9 123.2 92.1 76.9 56.8 46.4 47.5 64.4 73 73.8 67.7 66.4 78.4 80.6 86.8 103.2 115.1 119.8 127.2 122.4 114.4 113.6 143.5 149.5 154.8 166.1 179.7 176.7 171.4 160.3 155.6 160.6 162.6 152.8
-0.3 -0.3 -0.3 -0.3 -0.3 -0.3 -0.3 -0.3 -0.3 -0.3 -0.3 -0.3 -0.3 -0.3 -0.3 -0.3 -0.3 -0.3 -0.3 -0.3 -0.3 -0.3 -0.3 -0.3 -0.3 -0.3 -0.3 -0.3 -0.3 -0.3 -0.3 -0.3 -0.3 -0.3 -0.3 -0.3 -0.3 -0.3 -0.3 -0.3 -0.3 -0.3 -0.3 -0.3 -0.3 -0.3 -0.3 -0.3 -0.3 -0.3 -0.3 -0.3 -0.3 -0.3 -0.3 -0.3 -0.3 -0.3 -0.3 -0.3 -0.3 -0.3 -0.3 -0.3 -0.3 -0.3 -0.3 -0.3 -0.3 -0.3 -0.3 -0.3 -0.3 -0.3 -0.3 -0.3 -0.3 -0.3 -0.3 -0.3 -0.3 -0.3 -0.3 -0.3 -0.3 -0.3 -0.3 -0.3 -0.3 -0.3 -0.3 -0.3 -0.3 -0.3 -0.3 -0.3 -0.3 -0.3 -0.3 -0.3 -0.3 -0.3 -0.3 -0.3 -0.3 -0.3 -0.3 -0.3 -0.3 -0.3 -0.3 -0.3 -0.3 -0.3 -0.3 -0.3 -0.3 -0.3 -0.3 -0.3 -0.3 -0.3 -0.3 -0.3 -0.3 -0.3 -0.3 -0.3 -0.3 -0.3 -0.3 -0.3 -0.3 -0.3 -0.3 -0.3 -0.3 -0.3 -0.3 -0.3 -0.3 -0.3 -0.3 -0.3 -0.3 -0.3 1 8.7 102.7 114.7 144.7 167.2 191.4 193.6 211.3 233.2 233.9 229.4 233.2 241.8 241.2 236.3 251.7 232.5 202.7 178.8 162.8 141.7 108.2 83.8 70.9 51.3 48.2 47.5 61 65.7 60.8 61 72 79.2 92.1 112.8 120.8 126.6 125.5 128.9 129.2 115.8 120.9 135.8 138.8 149.4 172 174.6 169.9 159.6 154.8 155.9 159.3 150.4
-0.3 -0.3 -0.3 -0.3 -0.3 -0.3 -0.3 -0.3 -0.3 -0.3 -0.3 -0.3 -0.3 -0.3 -0.3 -0.3 -0.3 -0.3 -0.3 -0.3 -0.3 -0.3 -0.3 -0.3 -0.3 -0.3 -0.3 -0.3 -0.3 -0.3 -0.3 -0.3 -0.3 -0.3 -0.3 -0.3 -0.3 -0.3 -0.3 -0.3 -0.3 -0.3 -0.3 -0.3 -0.3 -0.3 -0.3 -0.3 -0.3 -0.3 -0.3 -0.3 -0.3 -0.3 -0.3 -0.3 -0.3 -0.3 -0.3 -0.3 -0.3 -0.3 -0.3 -0.3 -0.3 -0.3 -0.3 -0.3 -0.3 -0.3 -0.3 -0.3 -0.3 -0.3 -0.3 -0.3 -0.3 -0.3 -0.3 -0.3 -0.3 -0.3 -0.3 -0.3 -0.3 -0.3 -0.3 -0.3 -0.3 -0.3 -0.3 -0.3 -0.3 -0.3 -0.3 -0.3 -0.3 -0.3 -0.3 -0.3 -0.3 -0.3 -0.3 -0.3 -0.3 -0.3 -0.3 -0.3 -0.3 -0.3 -0.3 -0.3 -0.3 -0.3 -0.3 -0.3 -0.3 -0.3 -0.3 -0.3 -0.3 -0.3 -0.3 -0.3 -0.3 -0.3 -0.3 -0.3 -0.3 -0.3 -0.3 -0.3 -0.3 -0.3 -0.3 -0.3 -0.3 -0.3 -0.3 -0.3 -0.3 -0.3 -0.3 -0.3 -0.3 -0.3 -0.3 3.5 16.4 108.1 118.9 146.6 170.4 185.9 206.2 225.6 230.9 240.2 241.5 244.8 242.7 244.4 249.9 229.3 210.3 184.6 166.4 148.9 116.4 90.1 75.5 68.4 52 46.5 47.6 49.7 51.4 54.4 59.2 73.1 91.5 117.2 128.1 139.9 136.3 139.9 138.5 135.1 117.2 123 124.2 135.8 152.7 164.2 166.4 156.5 152.7 153.7 156.4 143.6
-0.3 -0.3 -0.3 -0.3 -0.3 -0.3 -0.3 -0.3 -0.3 -0.3 -0.3 -0.3 -0.3 -0.3 -0.3 -0.3 -0.3 -0.3 -0.3 -0.3 -0.3 -0.3 -0.3 -0.3 -0.3 -0.3 -0.3 -0.3 -0.3 -0.3 -0.3 -0.3 -0.3 -0.3 -0.3 -0.3 -0.3 -0.3 -0.3 -0.3 -0.3 -0.3 -0.3 -0.3 -0.3 -0.3 -0.3 -0.3 -0.3 -0.3 -0.3 -0.3 -0.3 -0.3 -0.3 -0.3 -0.3 -0.3 -0.3 -0.3 -0.3 -0.3 -0.3 -0.3 -0.3 -0.3 -0.3 -0.3 -0.3 -0.3 -0.3 -0.3 -0.3 -0.3 -0.3 -0.3 -0.3 -0.3 -0.3 -0.3 -0.3 -0.3 -0.3 -0.3 -0.3 -0.3 -0.3 -0.3 -0.3 -0.3 -0.3 -0.3 -0.3 -0.3 -0.3 -0.3 -0.3 -0.3 -0.3 -0.3 -0.3 -0.3 -0.3 -0.3 -0.3 -0.3 -0.3 -0.3 -0.3 -0.3 -0.3 -0.3 -0.3 -0.3 -0.3 -0.3 -0.3 -0.3 -0.3 -0.3 -0.3 -0.3 -0.3 -0.3 -0.3 -0.3 -0.3 -0.3 -0.3 -0.3 -0.3 -0.3 -0.3 -0.3 -0.3 -0.3 -0.3 -0.3 -0.3 -0.3 -0.3 -0.3 -0.3 -0.3 -0.3 -0.3 -0.3 5.6 52.1 70.3 108.1 120.2 156.2 171.4 193.5 217.7 233.9 249.8 248.2 245.9 244.8 244.6 237.9 226 208.2 184.7 161.1 139.7 117.4 101.6 74.6 64.2 54.3 49 47.8 47.8 48.5 49.4 50.5 60.3 84.3 108.6 136.1 148.3 140.3 149.6 146.3 140.3 122.4 120.1 122.2 130.3 135.9 144.7 154.4 153.9 151 148.8 144.4 138.9
-0.3 -0.3 -0.3 -0.3 -0.3 -0.3 -0.3 -0.3 -0.3 -0.3 -0.3 -0.3 -0.3 -0.3 -0.3 -0.3 -0.3 -0.3 -0.3 -0.3 -0.3 -0.3 -0.3 -0.3 -0.3 -0.3 -0.3 -0.3 -0.3 -0.3 -0.3 -0.3 -0.3 -0.3 -0.3 -0.3 -0.3 -0.3 -0.3 -0.3 -0.3 -0.3 -0.3 -0.3 -0.3 -0.3 -0.3 -0.3 -0.3 -0.3 -0.3 -0.3 -0.3 -0.3 -0.3 -0.3 -0.3 -0.3 -0.3 -0.3 -0.3 -0.3 -0.3 -0.3 -0.3 -0.3 -0.3 -0.3 -0.3 -0.3 -0.3 -0.3 -0.3 -0.3 -0.3 -0.3 -0.3 -0.3 -0.3 -0.3 -0.3 -0.3 -0.3 -0.3 -0.3 -0.3 -0.3 -0.3 -0.3 -0.3 -0.3 -0.3 -0.3 -0.3 -0.3 -0.3 -0.3 -0.3 -0.3 -0.3 -0.3 -0.3 -0.3 -0.3 -0.3 -0.3 -0.3 -0.3 -0.3 -0.3 -0.3 -0.3 -0.3 -0.3 -0.3 -0.3 -0.3 -0.3 -0.3 -0.3 -0.3 -0.3 -0.3 -0.3 -0.3 -0.3 -0.3 -0.3 -0.3 -0.3 -0.3 -0.3 -0.3 -0.3 -0.3 -0.3 -0.3 -0.3 -0.3 -0.3 -0.3 -0.3 -0.3 -0.3 -0.3 3.9 4.2 8.2 36.3 57.8 79.8 100.1 135 156.4 192.1 218.9 236.6 249.2 246.9 247.7 247.6 243.5 235 220.9 205 180.3 161.1 144.6 124 105 86.6 75.2 62.6 51.9 49.5 49.4 50.3 51.4 51.7 51.9 65 88.8 119.7 140.3 139 147.7 151.6 152.2 138.2 122 122.2 124.2 134 144.6 150 152 152.3 152.4 149.6 138.4
-0.3 -0.3 -0.3 -0.3 -0.3 -0.3 -0.3 -0.3 -0.3 -0.3 -0.3 -0.3 -0.3 -0.3 -0.3 -0.3 -0.3 -0.3 -0.3 -0.3 -0.3 -0.3 -0.3 -0.3 -0.3 -0.3 -0.3 -0.3 -0.3 -0.3 -0.3 -0.3 -0.3 -0.3 -0.3 -0.3 -0.3 -0.3 -0.3 -0.3 -0.3 -0.3 -0.3 -0.3 -0.3 -0.3 -0.3 -0.3 -0.3 -0.3 -0.3 -0.3 -0.3 -0.3 -0.3 -0.3 -0.3 -0.3 -0.3 -0.3 -0.3 -0.3 -0.3 -0.3 -0.3 -0.3 -0.3 -0.3 -0.3 -0.3 -0.3 -0.3 -0.3 -0.3 -0.3 -0.3 -0.3 -0.3 -0.3 -0.3 -0.3 -0.3 -0.3 -0.3 -0.3 -0.3 -0.3 -0.3 -0.3 -0.3 -0.3 -0.3 -0.3 -0.3 -0.3 -0.3 -0.3 -0.3 -0.3 -0.3 -0.3 -0.3 -0.3 -0.3 -0.3 -0.3 -0.3 -0.3 -0.3 -0.3 -0.3 -0.3 -0.3 -0.3 -0.3 -0.3 -0.3 -0.3 -0.3 -0.3 -0.3 -0.3 -0.3 -0.3 -0.3 -0.3 -0.3 -0.3 -0.3 -0.3 -0.3 -0.3 -0.3 -0.3 -0.3 -0.3 -0.3 -0.3 -0.3 -0.3 -0.3 -0.3 -0.3 -0.3 1.3 3.1 6.7 42.1 41.2 36.3 59.4 84.4 108.2 137.2 178.7 211.6 220.8 232.6 238.3 247.1 249.9 243.1 232.6 220.7 200.3 178 163.5 149.6 133.9 115 96.7 86 79.3 70.8 53.7 51.3 50.7 52.1 54.3 57.6 60.4 72.6 90.5 121.6 129 140.7 148.4 150.6 147.7 136.4 121.5 123.2 128.6 140.1 150.9 151.1 153.9 155.5 153.4 146.5
-0.3 -0.3 -0.3 -0.3 -0.3 -0.3 -0.3 -0.3 -0.3 -0.3 -0.3 -0.3 -0.3 -0.3 -0.3 -0.3 -0.3 -0.3 -0.3 -0.3 -0.3 -0.3 -0.3 -0.3 -0.3 -0.3 -0.3 -0.3 -0.3 -0.3 -0.3 -0.3 -0.3 -0.3 -0.3 -0.3 -0.3 -0.3 -0.3 -0.3 -0.3 -0.3 -0.3 -0.3 -0.3 -0.3 -0.3 -0.3 -0.3 -0.3 -0.3 -0.3 -0.3 -0.3 -0.3 -0.3 -0.3 -0.3 -0.3 -0.3 -0.3 -0.3 -0.3 -0.3 -0.3 -0.3 -0.3 -0.3 -0.3 -0.3 -0.3 -0.3 -0.3 -0.3 -0.3 -0.3 -0.3 -0.3 -0.3 -0.3 -0.3 -0.3 -0.3 -0.3 -0.3 -0.3 -0.3 -0.3 -0.3 -0.3 -0.3 -0.3 -0.3 -0.3 -0.3 -0.3 -0.3 -0.3 -0.3 -0.3 -0.3 -0.3 -0.3 -0.3 -0.3 -0.3 -0.3 -0.3 -0.3 -0.3 -0.3 -0.3 -0.3 -0.3 -0.3 -0.3 -0.3 -0.3 -0.3 -0.3 -0.3 -0.3 -0.3 -0.3 -0.3 -0.3 -0.3 -0.3 -0.3 -0.3 -0.3 -0.3 -0.3 -0.3 -0.3 -0.3 -0.3 5.4 5.6 -0.3 -0.3 7.8 3.5 2.2 5 5.9 12.9 44.9 57.8 82.5 90.9 96.1 90.6 114.3 131.5 175.3 201.4 212.4 221.5 235.9 242.5 242.9 233.1 217.9 199.7 184.1 175.7 158.6 147.2 127 115.2 104.9 91 79.2 64.7 53.7 52 52.2 63.4 79.6 83.5 93.9 95.7 94.9 105.8 125.7 142.7 147.9 149.1 141.4 124.1 121.6 123.5 131.6 140.2 147.4 157.8 161.2 157.3 145.7
-0.3 -0.3 -0.3 -0.3 -0.3 -0.3 -0.3 -0.3 -0.3 -0.3 -0.3 -0.3 -0.3 -0.3 -0.3 -0.3 -0.3 -0.3 -0.3 -0.3 -0.3 -0.3 -0.3 -0.3 -0.3 -0.3 -0.3 -0.3 -0.3 -0.3 -0.3 -0.3 -0.3 -0.3 -0.3 -0.3 -0.3 -0.3 -0.3 -0.3 -0.3 -0.3 -0.3 -0.3 -0.3 -0.3 -0.3 -0.3 -0.3 -0.3 -0.3 -0.3 -0.3 -0.3 -0.3 -0.3 -0.3 -0.3 -0.3 -0.3 -0.3 -0.3 -0.3 -0.3 -0.3 -0.3 -0.3 -0.3 -0.3 -0.3 -0.3 -0.3 -0.3 -0.3 -0.3 -0.3 -0.3 -0.3 -0.3 -0.3 -0.3 -0.3 -0.3 -0.3 -0.3 -0.3 -0.3 -0.3 -0.3 -0.3 -0.3 -0.3 -0.3 -0.3 -0.3 -0.3 -0.3 -0.3 -0.3 -0.3 -0.3 -0.3 -0.3 -0.3 -0.3 -0.3 -0.3 -0.3 -0.3 -0.3 -0.3 -0.3 -0.3 -0.3 -0.3 -0.3 -0.3 -0.3 -0.3 -0.3 -0.3 -0.3 -0.3 -0.3 -0.3 -0.3 -0.3 -0.3 -0.3 -0.3 -0.3 -0.3 -0.3 -0.3 -0.3 -0.3 5.2 6.6 5.5 6.6 7.1 9.2 6.7 4.7 7 9 21.1 62.2 91.5 105.6 111.4 131.7 131.9 134.9 141.8 146.5 159.6 176.9 196.2 223.4 233.3 236.6 227.4 218.1 201 191 179.4 165.6 149.1 135.3 137 130.3 117.1 92.3 79.7 69.9 56.2 53.8 59.1 82.1 94.9 115.1 124.7 122.7 124 124.4 120.7 125.7 140.8 147 140.6 127.2 122.4 123.4 130.5 145.5 156.1 165.4 162.3 146.4
-0.3 -0.3 -0.3 -0.3 -0.3 -0.3 -0.3 -0.3 -0.3 -0.3 -0.3 -0.3 -0.3 -0.3 -0.3 -0.3 -0.3 -0.3 -0.3 -0.3 -0.3 -0.3 -0.3 -0.3 -0.3 -0.3 -0.3 -0.3 -0.3 -0.3 -0.3 -0.3 -0.3 -0.3 -0.3 -0.3 -0.3 -0.3 -0.3 -0.3 -0.3 -0.3 -0.3 -0.3 -0.3 -0.3 -0.3 -0.3 -0.3 -0.3 -0.3 -0.3 -0.3 -0.3 -0.3 -0.3 -0.3 -0.3 -0.3 -0.3 -0.3 -0.3 -0.3 -0.3 -0.3 -0.3 -0.3 -0.3 -0.3 -0.3 -0.3 -0.3 -0.3 -0.3 -0.3 -0.3 -0.3 -0.3 -0.3 -0.3 -0.3 -0.3 -0.3 -0.3 -0.3 -0.3 -0.3 -0.3 -0.3 -0.3 -0.3 -0.3 -0.3 -0.3 -0.3 -0.3 -0.3 -0.3 -0.3 -0.3 -0.3 -0.3 -0.3 -0.3 -0.3 -0.3 -0.3 -0.3 -0.3 -0.3 -0.3 -0.3 -0.3 -0.3 -0.3 -0.3 -0.3 -0.3 -0.3 -0.3 -0.3 -0.3 -0.3 -0.3 -0.3 -0.3 -0.3 -0.3 -0.3 -0.3 -0.3 -0.3 -0.3 -0.3 -0.3 -0.3 5.3 8.4 10.2 27.7 28.1 20.8 15.4 8.3 41.4 12.8 33.1 94.3 116.3 121.6 143.3 161.1 172.1 176.2 179.4 176.3 179.3 185.3 178.7 193.2 215.3 225.4 228.4 216.4 204.1 197.6 186.8 173.3 165.4 159.3 152.9 142.5 127.9 105.7 81.5 74.5 64.8 55.1 56.1 78.4 102.6 120 142 140.4 140.4 148.4 146.4 139.6 139.4 136.5 140.3 131.5 125.8 123.3 126 134.4 149.3 163.1 158.6 146.3
-0.3 -0.3 -0.3 -0.3 -0.3 -0.3 -0.3 -0.3 -0.3 -0.3 -0.3 -0.3 -0.3 -0.3 -0.3 -0.3 -0.3 -0.3 -0.3 -0.3 -0.3 -0.3 -0.3 -0.3 -0.3 -0.3 -0.3 -0.3 -0.3 -0.3 -0.3 -0.3 -0.3 -0.3 -0.3 -0.3 -0.3 -0.3 -0.3 -0.3 -0.3 -0.3 -0.3 -0.3 -0.3 -0.3 -0.3 -0.3 -0.3 -0.3 -0.3 -0.3 -0.3 -0.3 -0.3 -0.3 -0.3 -0.3 -0.3 -0.3 -0.3 -0.3 -0.3 -0.3 -0.3 -0.3 -0.3 -0.3 -0.3 -0.3 -0.3 -0.3 -0.3 -0.3 -0.3 -0.3 -0.3 -0.3 -0.3 -0.3 -0.3 -0.3 -0.3 -0.3 -0.3 -0.3 -0.3 -0.3 -0.3 -0.3 -0.3 -0.3 -0.3 -0.3 -0.3 -0.3 -0.3 -0.3 -0.3 -0.3 -0.3 -0.3 -0.3 -0.3 -0.3 -0.3 -0.3 -0.3 -0.3 -0.3 -0.3 -0.3 -0.3 -0.3 -0.3 -0.3 -0.3 -0.3 -0.3 -0.3 -0.3 -0.3 -0.3 -0.3 -0.3 -0.3 -0.3 -0.3 -0.3 -0.3 -0.3 -0.3 -0.3 -0.3 -0.3 1 10 28 37 39.8 40.2 36.2 32.3 54.8 70 56.9 46.4 98.9 126.7 148.1 167.2 182.3 194.4 197.2 203.2 205.4 204.8 213 208.2 195.9 195.6 207.4 224.6 219.8 209.6 199.4 194.9 187.8 179.1 172.7 166.4 156.1 136.9 118.8 95.2 78.9 69.7 61.8 57.3 70.8 95.9 120.4 147.1 150.6 153.2 161.2 165.9 168.1 171.5 165.8 152.4 133.7 124.7 122.8 124.4 128.5 141.8 157 155.2 139.4
-0.3 -0.3 -0.3 -0.3 -0.3 -0.3 -0.3 -0.3 -0.3 -0.3 -0.3 -0.3 -0.3 -0.3 -0.3 -0.3 -0.3 -0.3 -0.3 -0.3 -0.3 -0.3 -0.3 -0.3 -0.3 -0.3 -0.3 -0.3 -0.3 -0.3 -0.3 -0.3 -0.3 -0.3 -0.3 -0.3 -0.3 -0.3 -0.3 -0.3 -0.3 -0.3 -0.3 -0.3 -0.3 -0.3 -0.3 -0.3 -0.3 -0.3 -0.3 -0.3 -0.3 -0.3 -0.3 -0.3 -0.3 -0.3 -0.3 -0.3 -0.3 -0.3 -0.3 -0.3 -0.3 -0.3 -0.3 -0.3 -0.3 -0.3 -0.3 -0.3 -0.3 -0.3 -0.3 -0.3 -0.3 -0.3 -0.3 -0.3 -0.3 -0.3 -0.3 -0.3 -0.3 -0.3 -0.3 -0.3 -0.3 -0.3 -0.3 -0.3 -0.3 -0.3 -0.3 -0.3 -0.3 -0.3 -0.3 -0.3 -0.3 -0.3 -0.3 -0.3 -0.3 -0.3 -0.3 -0.3 -0.3 -0.3 -0.3 -0.3 -0.3 -0.3 -0.3 -0.3 -0.3 -0.3 -0.3 -0.3 -0.3 -0.3 -0.3 -0.3 -0.3 -0.3 -0.3 -0.3 -0.3 -0.3 -0.3 -0.3 -0.3 -0.3 -0.3 5.3 30.2 51.3 50.8 42.9 47.3 44.6 94.6 98.1 93.3 80.4 50.1 97.8 139.6 172.5 180 191.3 215.4 225.3 220.2 220.4 223.7 222.8 231.8 216.9 211.6 204 214.8 214.2 203 195.6 194.6 187.1 179.8 171.8 169 164.2 156.8 136.5 105 91.3 79.9 63.6 59.6 66.2 79.3 111.9 139.6 150.1 156.3 162.9 178.3 177.5 181.7 176.9 171.4 162.1 147.2 125.4 125.2 128.6 142.2 142.4 138.2 131.1
-0.3 -0.3 -0.3 -0.3 -0.3 -0.3 -0.3 -0.3 -0.3 -0.3 -0.3 -0.3 -0.3 -0.3 -0.3 -0.3 -0.3 -0.3 -0.3 -0.3 -0.3 -0.3 -0.3 -0.3 -0.3 -0.3 -0.3 -0.3 -0.3 -0.3 -0.3 -0.3 -0.3 -0.3 -0.3 -0.3 -0.3 -0.3 -0.3 -0.3 -0.3 -0.3 -0.3 -0.3 -0.3 -0.3 -0.3 -0.3 -0.3 -0.3 -0.3 -0.3 -0.3 -0.3 -0.3 -0.3 -0.3 -0.3 -0.3 -0.3 -0.3 -0.3 -0.3 -0.3 -0.3 -0.3 -0.3 -0.3 -0.3 -0.3 -0.3 -0.3 -0.3 -0.3 -0.3 -0.3 -0.3 -0.3 -0.3 -0.3 -0.3 -0.3 -0.3 -0.3 -0.3 -0.3 -0.3 -0.3 -0.3 -0.3 -0.3 -0.3 -0.3 -0.3 -0.3 -0.3 -0.3 -0.3 -0.3 -0.3 -0.3 -0.3 -0.3 -0.3 -0.3 -0.3 -0.3 -0.3 -0.3 -0.3 -0.3 -0.3 -0.3 -0.3 -0.3 -0.3 -0.3 -0.3 -0.3 -0.3 -0.3 -0.3 -0.3 -0.3 -0.3 -0.3 -0.3 -0.3 -0.3 -0.3 -0.3 -0.3 -0.3 -0.3 6.5 9.4 44.3 52.2 53.1 51.1 54.6 98.1 109.1 110.8 116 106.6 79.4 98.7 131.1 178.5 188.5 200.6 225.8 235.9 232.9 235.8 230.4 226.5 236.3 232 231.4 227.4 211.2 200.9 194.3 191.6 193.6 185.2 179.2 169.4 161.2 155.4 149.6 135.8 113.2 99.9 95.3 75 63.1 74.5 85.4 100.9 115.2 134.9 153.8 165.8 182.6 186.4 189.5 182.3 177.9 171.4 164.4 148.5 137.1 128.7 141 143.3 137.3 125.3
-0.3 -0.3 -0.3 -0.3 -0.3 -0.3 -0.3 -0.3 -0.3 -0.3 -0.3 -0.3 -0.3 -0.3 -0.3 -0.3 -0.3 -0.3 -0.3 -0.3 -0.3 -0.3 -0.3 -0.3 -0.3 -0.3 -0.3 -0.3 -0.3 -0.3 -0.3 -0.3 -0.3 -0.3 -0.3 -0.3 -0.3 -0.3 -0.3 -0.3 -0.3 -0.3 -0.3 -0.3 -0.3 -0.3 -0.3 -0.3 -0.3 -0.3 -0.3 -0.3 -0.3 -0.3 -0.3 -0.3 -0.3 -0.3 -0.3 -0.3 -0.3 -0.3 -0.3 -0.3 -0.3 -0.3 -0.3 -0.3 -0.3 -0.3 -0.3 -0.3 -0.3 -0.3 -0.3 -0.3 -0.3 -0.3 -0.3 -0.3 -0.3 -0.3 -0.3 -0.3 -0.3 -0.3 -0.3 -0.3 -0.3 -0.3 -0.3 -0.3 -0.3 -0.3 -0.3 -0.3 -0.3 -0.3 -0.3 -0.3 -0.3 -0.3 -0.3 -0.3 -0.3 -0.3 -0.3 -0.3 -0.3 -0.3 -0.3 -0.3 -0.3 -0.3 -0.3 -0.3 -0.3 -0.3 -0.3 -0.3 -0.3 -0.3 -0.3 -0.3 -0.3 -0.3 -0.3 -0.3 -0.3 -0.3 -0.3 -0.3 -0.3 -0.3 7 9.9 48.8 53.8 56.7 55.4 107.4 123.8 123.7 117.4 121 113.8 98 92.2 129.2 172.1 203.4 210.2 227.7 238.9 238.2 237.6 240 241 237.3 238.7 245.5 234.5 225.9 218.2 200.6 190.1 188.6 183.9 175.4 165.9 159.3 156.7 145.9 138.4 118 110.9 101.6 85.1 68.8 79.8 99.1 111.4 120.3 144.1 151.4 153.8 160.3 166 178 182.3 179 173.5 164.9 152.8 143.2 135.4 130.8 134.3 139.2 134.4
-0.3 -0.3 -0.3 -0.3 -0.3 -0.3 -0.3 -0.3 -0.3 -0.3 -0.3 -0.3 -0.3 -0.3 -0.3 -0.3 -0.3 -0.3 -0.3 -0.3 -0.3 -0.3 -0.3 -0.3 -0.3 -0.3 -0.3 -0.3 -0.3 -0.3 -0.3 -0.3 -0.3 -0.3 -0.3 -0.3 -0.3 -0.3 -0.3 -0.3 -0.3 -0.3 -0.3 -0.3 -0.3 -0.3 -0.3 -0.3 -0.3 -0.3 -0.3 -0.3 -0.3 -0.3 -0.3 -0.3 -0.3 -0.3 -0.3 -0.3 -0.3 -0.3 -0.3 -0.3 -0.3 -0.3 -0.3 -0.3 -0.3 -0.3 -0.3 -0.3 -0.3 -0.3 -0.3 -0.3 -0.3 -0.3 -0.3 -0.3 -0.3 -0.3 -0.3 -0.3 -0.3 -0.3 -0.3 -0.3 -0.3 -0.3 -0.3 -0.3 -0.3 -0.3 -0.3 -0.3 -0.3 -0.3 -0.3 -0.3 -0.3 -0.3 -0.3 -0.3 -0.3 -0.3 -0.3 -0.3 -0.3 -0.3 -0.3 -0.3 -0.3 -0.3 -0.3 -0.3 -0.3 -0.3 -0.3 -0.3 -0.3 -0.3 -0.3 -0.3 -0.3 -0.3 -0.3 -0.3 -0.3 -0.3 -0.3 -0.3 -0.3 -0.3 5.6 8.6 42.3 52.4 53.7 59.6 125 141.3 142.6 132.6 130.2 129.4 112.5 97 132 168.4 208.6 214.3 230.3 239.1 241.1 245 248.1 246.7 243.3 241.7 244 241.4 237.1 233.2 220.1 206 204.4 196.5 180.2 168.2 159.6 153.3 144.6 136.2 126.8 123.3 115 99.1 77.8 86.5 100.4 114.4 133.4 153.1 166.8 184.3 185.9 192.8 190.1 189.7 182.6 167 158.7 149.7 143.2 132.4 130.3 129.5 135 133.9
-0.3 -0.3 -0.3 -0.3 -0.3 -0.3 -0.3 -0.3 -0.3 -0.3 -0.3 -0.3 -0.3 -0.3 -0.3 -0.3 -0.3 -0.3 -0.3 -0.3 -0.3 -0.3 -0.3 -0.3 -0.3 -0.3 -0.3 -0.3 -0.3 -0.3 -0.3 -0.3 -0.3 -0.3 -0.3 -0.3 -0.3 -0.3 -0.3 -0.3 -0.3 -0.3 -0.3 -0.3 -0.3 -0.3 -0.3 -0.3 -0.3 -0.3 -0.3 -0.3 -0.3 -0.3 -0.3 -0.3 -0.3 -0.3 -0.3 -0.3 -0.3 -0.3 -0.3 -0.3 -0.3 -0.3 -0.3 -0.3 -0.3 -0.3 -0.3 -0.3 -0.3 -0.3 -0.3 -0.3 -0.3 -0.3 -0.3 -0.3 -0.3 -0.3 -0.3 -0.3 -0.3 -0.3 -0.3 -0.3 -0.3 -0.3 -0.3 -0.3 -0.3 -0.3 -0.3 -0.3 -0.3 -0.3 -0.3 -0.3 -0.3 -0.3 -0.3 -0.3 -0.3 -0.3 -0.3 -0.3 -0.3 -0.3 -0.3 -0.3 -0.3 -0.3 -0.3 -0.3 -0.3 -0.3 -0.3 -0.3 -0.3 -0.3 -0.3 -0.3 -0.3 -0.3 -0.3 -0.3 -0.3 -0.3 -0.3 -0.3 -0.3 -0.3 -0.3 5.4 39.7 46.3 46.1 66.3 133.2 149.2 145.4 147.4 141.2 133.9 125.5 100.5 135.2 170.5 209.1 221.2 234 240.1 241.6 252.6 257.5 251.6 253 251.5 247.2 248.5 244.5 231.8 229 227.2 223.8 214.3 208.1 194.8 169.8 164.6 157.9 148.3 143 136.2 130.4 108.7 89.4 98.2 99.5 113.3 141 165.8 170.2 189.9 192.5 205.7 204.7 200.5 195.6 186.9 180.9 163.7 141.9 129.4 127.1 132.2 123.3 130.5
-0.3 -0.3 -0.3 -0.3 -0.3 -0.3 -0.3 -0.3 -0.3 -0.3 -0.3 -0.3 -0.3 -0.3 -0.3 -0.3 -0.3 -0.3 -0.3 -0.3 -0.3 -0.3 -0.3 -0.3 -0.3 -0.3 -0.3 -0.3 -0.3 -0.3 -0.3 -0.3 -0.3 -0.3 -0.3 -0.3 -0.3 -0.3 -0.3 -0.3 -0.3 -0.3 -0.3 -0.3 -0.3 -0.3 -0.3 -0.3 -0.3 -0.3 -0.3 -0.3 -0.3 -0.3 -0.3 -0.3 -0.3 -0.3 -0.3 -0.3 -0.3 -0.3 -0.3 -0.3 -0.3 -0.3 -0.3 -0.3 -0.3 -0.3 -0.3 -0.3 -0.3 -0.3 -0.3 -0.3 -0.3 -0.3 -0.3 -0.3 -0.3 -0.3 -0.3 -0.3 -0.3 -0.3 -0.3 -0.3 -0.3 -0.3 -0.3 -0.3 -0.3 -0.3 -0.3 -0.3 -0.3 -0.3 -0.3 -0.3 -0.3 -0.3 -0.3 -0.3 -0.3 -0.3 -0.3 -0.3 -0.3 -0.3 -0.3 -0.3 -0.3 -0.3 -0.3 -0.3 -0.3 -0.3 -0.3 -0.3 -0.3 -0.3 -0.3 -0.3 -0.3 -0.3 -0.3 8.8 -0.3 -0.3 -0.3 -0.3 -0.3 -0.3 -0.3 1.7 22.8 40.1 42.3 78.2 133.4 158.7 157.2 153.5 152.1 143.4 129.9 126.4 142.7 174.4 201.6 217.8 226.1 230.2 238.9 262.8 271.1 275.9 276.4 272 258.3 250 242.7 236.8 237.2 243.9 248.5 237.5 220.6 208.1 187.4 178.5 171.4 159.9 151.5 144.7 135 113.5 95.9 105.3 108.4 114.7 138.3 158.6 168 187.8 197.6 215.3 211.4 207.7 202.5 199.1 191.6 182.6 168.4 148.6 128 124.6 113.7 109.9
-0.3 -0.3 -0.3 -0.3 -0.3 -0.3 -0.3 -0.3 -0.3 -0.3 -0.3 -0.3 -0.3 -0.3 -0.3 -0.3 -0.3 -0.3 -0.3 -0.3 -0.3 -0.3 -0.3 -0.3 -0.3 -0.3 -0.3 -0.3 -0.3 -0.3 -0.3 -0.3 -0.3 -0.3 -0.3 -0.3 -0.3 -0.3 -0.3 -0.3 -0.3 -0.3 -0.3 -0.3 -0.3 -0.3 -0.3 -0.3 -0.3 -0.3 -0.3 -0.3 -0.3 -0.3 -0.3 -0.3 -0.3 -0.3 -0.3 -0.3 -0.3 -0.3 -0.3 -0.3 -0.3 -0.3 -0.3 -0.3 -0.3 -0.3 -0.3 -0.3 -0.3 -0.3 -0.3 -0.3 -0.3 -0.3 -0.3 -0.3 -0.3 -0.3 -0.3 -0.3 -0.3 -0.3 -0.3 -0.3 -0.3 -0.3 -0.3 -0.3 -0.3 -0.3 -0.3 -0.3 -0.3 -0.3 -0.3 -0.3 -0.3 -0.3 -0.3 -0.3 -0.3 -0.3 -0.3 -0.3 -0.3 -0.3 -0.3 -0.3 -0.3 -0.3 -0.3 -0.3 -0.3 -0.3 -0.3 -0.3 -0.3 -0.3 -0.3 -0.3 -0.3 5.2 4.5 11.4 -0.3 -0.3 -0.3 -0.3 -0.3 -0.3 -0.3 5.5 30.4 30.3 42.6 66.6 127.3 155.9 159.3 157.9 161.7 151.4 139.5 131.4 140.4 176.3 205.5 214.9 216.4 227.1 244.7 267.2 284.8 282.9 283.7 273 263.5 251.8 239.9 237.7 240 243 249.6 236.9 229.4 213.6 207.1 199.7 189.1 171.4 160.5 152.1 138.8 118.5 102.6 104.5 113.7 121.1 131.5 153.6 163.4 189.6 196.8 217.5 215.4 212 209 206.1 198.7 193.2 177.4 160.2 139.6 146.3 138.3 120
-0.3 -0.3 -0.3 -0.3 -0.3 -0.3 -0.3 -0.3 -0.3 -0.3 -0.3 -0.3 -0.3 -0.3 -0.3 -0.3 -0.3 -0.3 -0.3 -0.3 -0.3 -0.3 -0.3 -0.3 -0.3 -0.3 -0.3 -0.3 -0.3 -0.3 -0.3 -0.3 -0.3 -0.3 -0.3 -0.3 -0.3 -0.3 -0.3 -0.3 -0.3 -0.3 -0.3 -0.3 -0.3 -0.3 -0.3 -0.3 -0.3 -0.3 -0.3 -0.3 -0.3 -0.3 -0.3 -0.3 -0.3 -0.3 -0.3 -0.3 -0.3 -0.3 -0.3 -0.3 -0.3 -0.3 -0.3 -0.3 -0.3 -0.3 -0.3 -0.3 -0.3 -0.3 -0.3 -0.3 -0.3 -0.3 -0.3 -0.3 -0.3 -0.3 -0.3 -0.3 -0.3 -0.3 -0.3 -0.3 -0.3 -0.3 -0.3 -0.3 -0.3 -0.3 -0.3 -0.3 -0.3 -0.3 -0.3 -0.3 -0.3 -0.3 -0.3 -0.3 -0.3 -0.3 -0.3 -0.3 -0.3 -0.3 -0.3 -0.3 -0.3 -0.3 -0.3 -0.3 -0.3 -0.3 -0.3 -0.3 -0.3 -0.3 -0.3 2.7 8.5 6 8.4 -0.3 -0.3 -0.3 -0.3 -0.3 -0.3 15.2 24.3 19.2 22.6 27.9 42.6 62.8 122.2 151.3 154.7 159.5 169.3 165.3 156.3 143.5 137.1 170 193.2 205.6 213.5 228 257 266.7 273.4 275.2 279.5 270.1 263.6 251.3 240 241.4 241.6 242.4 246.4 244 238.9 230.4 226.9 217.6 208.5 192.9 174.3 159.5 141.6 123.3 109.4 111.5 117.9 132.7 138.4 144.7 161.6 187.9 190 218.4 218.3 216.6 216.4 208.4 203 198.1 177.8 165.1 148.8 147.6 153.1 137.9
-0.3 -0.3 -0.3 -0.3 -0.3 -0.3 -0.3 -0.3 -0.3 -0.3 -0.3 -0.3 -0.3 -0.3 -0.3 -0.3 -0.3 -0.3 -0.3 -0.3 -0.3 -0.3 -0.3 -0.3 -0.3 -0.3 -0.3 -0.3 -0.3 -0.3 -0.3 -0.3 -0.3 -0.3 -0.3 -0.3 -0.3 -0.3 -0.3 -0.3 -0.3 -0.3 -0.3 -0.3 -0.3 -0.3 -0.3 -0.3 -0.3 -0.3 -0.3 -0.3 -0.3 -0.3 -0.3 -0.3 -0.3 -0.3 -0.3 -0.3 -0.3 -0.3 -0.3 -0.3 -0.3 -0.3 -0.3 -0.3 -0.3 -0.3 -0.3 -0.3 -0.3 -0.3 -0.3 -0.3 -0.3 -0.3 -0.3 -0.3 -0.3 -0.3 -0.3 -0.3 -0.3 -0.3 -0.3 -0.3 -0.3 -0.3 -0.3 -0.3 -0.3 -0.3 -0.3 -0.3 -0.3 -0.3 -0.3 -0.3 -0.3 -0.3 -0.3 -0.3 -0.3 -0.3 -0.3 -0.3 -0.3 -0.3 -0.3 -0.3 -0.3 -0.3 -0.3 -0.3 -0.3 -0.3 -0.3 -0.3 0.9 4.4 8 6.5 8.3 8.9 8.1 -0.3 -0.3 -0.3 -0.3 -0.3 -0.3 6.4 10.2 20.9 25.1 29.5 37.1 58.2 123 150.3 156.8 159.8 166.9 169 168.1 149.7 135.4 168.6 185.1 198 207.7 235.5 268.8 277.2 282.7 277.4 270.3 266.2 259.9 247 244 245.9 249.2 244.8 248.6 254.3 247.3 244.4 239.6 228.7 220.8 210.2 193.3 178 154.6 130.6 117.1 120.1 124.3 132.8 146.2 146.6 155.7 177.4 188.6 221.9 221.5 221.4 218.2 209.8 204.7 197.9 179.1 170.3 151.3 146.2 154.9 143.4
-0.3 -0.3 -0.3 -0.3 -0.3 -0.3 -0.3 -0.3 -0.3 -0.3 -0.3 -0.3 -0.3 -0.3 -0.3 -0.3 -0.3 -0.3 -0.3 -0.3 -0.3 -0.3 -0.3 -0.3 -0.3 -0.3 -0.3 -0.3 -0.3 -0.3 -0.3 -0.3 -0.3 -0.3 -0.3 -0.3 -0.3 -0.3 -0.3 -0.3 -0.3 -0.3 -0.3 -0.3 -0.3 -0.3 -0.3 -0.3 -0.3 -0.3 -0.3 -0.3 -0.3 -0.3 -0.3 -0.3 -0.3 -0.3 -0.3 -0.3 -0.3 -0.3 -0.3 -0.3 -0.3 -0.3 -0.3 -0.3 -0.3 -0.3 -0.3 -0.3 -0.3 -0.3 -0.3 -0.3 -0.3 -0.3 -0.3 -0.3 -0.3 -0.3 -0.3 -0.3 -0.3 -0.3 -0.3 -0.3 -0.3 -0.3 -0.3 -0.3 -0.3 -0.3 -0.3 -0.3 -0.3 -0.3 -0.3 -0.3 -0.3 -0.3 -0.3 -0.3 -0.3 -0.3 -0.3 -0.3 -0.3 -0.3 -0.3 -0.3 -0.3 -0.3 -0.3 -0.3 -0.3 -0.3 -0.3 5.7 6.1 27.6 19.8 24.3 16.6 14.8 10.1 1 -0.3 -0.3 4.1 1 4.5 5.1 11.6 23.9 27.6 31.6 44.2 65.3 115.1 142.4 155.2 157.1 162.4 169.5 160.3 151.8 146.6 164.4 188.5 193 206.2 240.3 268.9 286.2 294.8 285.2 276.7 267.8 263.9 252.8 248.1 259.3 263.9 249.3 246.4 251.2 255.8 263.9 250.1 235.6 230.9 217.6 204 189.2 168.2 148.1 126.4 129.5 132.2 137.1 145.4 154.7 158.6 178 191.1 214.1 220.1 221.7 219.5 216.3 206 197.7 180.6 168 152 146.2 159.5 147.7
-0.3 -0.3 -0.3 -0.3 -0.3 -0.3 -0.3 -0.3 -0.3 -0.3 -0.3 -0.3 -0.3 -0.3 -0.3 -0.3 -0.3 -0.3 -0.3 -0.3 -0.3 -0.3 -0.3 -0.3 -0.3 -0.3 -0.3 -0.3 -0.3 -0.3 -0.3 -0.3 -0.3 -0.3 -0.3 -0.3 -0.3 -0.3 -0.3 -0.3 -0.3 -0.3 -0.3 -0.3 -0.3 -0.3 -0.3 -0.3 -0.3 -0.3 -0.3 -0.3 -0.3 -0.3 -0.3 -0.3 -0.3 -0.3 -0.3 -0.3 -0.3 -0.3 -0.3 -0.3 -0.3 -0.3 -0.3 -0.3 -0.3 -0.3 -0.3 -0.3 -0.3 -0.3 -0.3 -0.3 -0.3 -0.3 -0.3 -0.3 -0.3 -0.3 -0.3 -0.3 -0.3 -0.3 -0.3 -0.3 -0.3 -0.3 -0.3 -0.3 -0.3 -0.3 -0.3 -0.3 -0.3 -0.3 -0.3 -0.3 -0.3 -0.3 -0.3 -0.3 -0.3 -0.3 -0.3 -0.3 -0.3 -0.3 -0.3 -0.3 -0.3 -0.3 -0.3 5.8 -0.3 -0.3 5.6 7.9 29.2 30.3 39.9 32.8 28 24.1 18.3 8.9 6.4 6.9 7.2 5.4 7.8 35 31 27.2 32 37.3 68.1 80.3 115.1 129.5 147.6 149.3 162.3 164.2 160.8 155.1 149.9 164 180 181.5 203.7 241.7 268.2 296.6 298.1 289.1 279.2 272.4 262.9 259.5 262.6 271.5 268.8 251.8 248.3 248.4 251.5 260.5 251.5 241.8 237 228.6 214.4 199.9 180.9 163 140.2 132.5 137.4 148.4 154.6 165.4 162.5 173.5 191.4 204.5 218.9 220.6 220.8 213.4 204 187.4 177.4 166.7 151.3 150.4 164.5 151.2
-0.3 -0.3 -0.3 -0.3 -0.3 -0.3 -0.3 -0.3 -0.3 -0.3 -0.3 -0.3 -0.3 -0.3 -0.3 -0.3 -0.3 -0.3 -0.3 -0.3 -0.3 -0.3 -0.3 -0.3 -0.3 -0.3 -0.3 -0.3 -0.3 -0.3 -0.3 -0.3 -0.3 -0.3 -0.3 -0.3 -0.3 -0.3 -0.3 -0.3 -0.3 -0.3 -0.3 -0.3 -0.3 -0.3 -0.3 -0.3 -0.3 -0.3 -0.3 -0.3 -0.3 -0.3 -0.3 -0.3 -0.3 -0.3 -0.3 -0.3 -0.3 -0.3 -0.3 -0.3 -0.3 -0.3 -0.3 -0.3 -0.3 -0.3 -0.3 -0.3 -0.3 -0.3 -0.3 -0.3 -0.3 -0.3 -0.3 -0.3 -0.3 -0.3 -0.3 -0.3 -0.3 -0.3 -0.3 -0.3 -0.3 -0.3 -0.3 -0.3 -0.3 -0.3 -0.3 -0.3 -0.3 -0.3 -0.3 -0.3 -0.3 -0.3 -0.3 -0.3 -0.3 -0.3 -0.3 -0.3 -0.3 -0.3 -0.3 -0.3 -0.3 -0.3 5.3 8 3.3 3.2 7.3 16.8 28.7 32.5 40.4 37.1 38.6 32.5 25.8 14 11.6 23.3 26 15.9 39.1 35.9 39.4 36.3 38 64.4 93 100.3 133.5 139.6 142.9 147.1 162 164.6 170.7 164.8 155.3 159.3 168.9 174.9 198.7 238 266.3 294.5 292.5 288 289.4 277 270.7 276.5 281.8 279.9 273.7 266.9 263.1 255.6 250.9 247.4 240.7 239.5 236.1 234.8 222.6 209.5 194 175 152.7 137.4 145.5 158.2 166.9 173.2 170.4 172.4 187.6 196.7 213 217.3 218.7 209.1 200.7 185.5 175.7 168.6 153.7 152.8 165.5 152.1
-0.3 -0.3 -0.3 -0.3 -0.3 -0.3 -0.3 -0.3 -0.3 -0.3 -0.3 -0.3 -0.3 -0.3 -0.3 -0.3 -0.3 -0.3 -0.3 -0.3 -0.3 -0.3 -0.3 -0.3 -0.3 -0.3 -0.3 -0.3 -0.3 -0.3 -0.3 -0.3 -0.3 -0.3 -0.3 -0.3 -0.3 -0.3 -0.3 -0.3 -0.3 -0.3 -0.3 -0.3 -0.3 -0.3 -0.3 -0.3 -0.3 -0.3 -0.3 -0.3 -0.3 -0.3 -0.3 -0.3 -0.3 -0.3 -0.3 -0.3 -0.3 -0.3 -0.3 -0.3 -0.3 -0.3 -0.3 -0.3 -0.3 -0.3 -0.3 -0.3 -0.3 -0.3 -0.3 -0.3 -0.3 -0.3 -0.3 -0.3 -0.3 -0.3 -0.3 -0.3 -0.3 -0.3 -0.3 -0.3 -0.3 -0.3 -0.3 -0.3 -0.3 -0.3 -0.3 -0.3 -0.3 -0.3 -0.3 -0.3 -0.3 -0.3 -0.3 -0.3 -0.3 -0.3 -0.3 -0.3 -0.3 -0.3 -0.3 -0.3 -0.3 -0.3 -0.3 3.1 6.9 7.7 9.5 26.7 34.5 40 47.3 46.5 40.1 40.6 26.9 24.3 36 40.5 40.3 22 39.1 42.9 41.5 42.3 46.5 85.1 99.2 102.9 133.6 147.8 149.3 151.4 161 167 173.3 171.5 163.2 157.6 164.5 171 192.9 232.7 264.5 288.5 288.2 288 285.1 277.4 278.4 284.6 285.9 288.5 285.3 276.8 269.2 264.2 257.5 249.1 242.2 233.9 231.7 229.6 219.7 210.5 207.1 191.8 163.3 149.8 153.5 163 168.2 178.5 182.8 175.1 181.2 193.2 220.6 216.4 216.6 210.3 199.6 184.2 177.6 164.5 155.4 154 165.1 156.1
-0.3 -0.3 -0.3 -0.3 -0.3 -0.3 -0.3 -0.3 -0.3 -0.3 -0.3 -0.3 -0.3 -0.3 -0.3 -0.3 -0.3 -0.3 -0.3 -0.3 -0.3 -0.3 -0.3 -0.3 -0.3 -0.3 -0.3 -0.3 -0.3 -0.3 -0.3 -0.3 -0.3 -0.3 -0.3 -0.3 -0.3 -0.3 -0.3 -0.3 -0.3 -0.3 -0.3 -0.3 -0.3 -0.3 -0.3 -0.3 -0.3 -0.3 -0.3 -0.3 -0.3 -0.3 -0.3 -0.3 -0.3 -0.3 -0.3 -0.3 -0.3 -0.3 -0.3 -0.3 -0.3 -0.3 -0.3 -0.3 -0.3 -0.3 -0.3 -0.3 -0.3 -0.3 -0.3 -0.3 -0.3 -0.3 -0.3 -0.3 -0.3 -0.3 -0.3 -0.3 -0.3 -0.3 -0.3 -0.3 -0.3 -0.3 -0.3 -0.3 -0.3 -0.3 -0.3 -0.3 -0.3 -0.3 -0.3 -0.3 -0.3 -0.3 -0.3 -0.3 -0.3 -0.3 -0.3 -0.3 -0.3 -0.3 -0.3 -0.3 -0.3 -0.3 -0.3 6.1 8.5 12.9 19.9 37.1 45.9 52.7 57.9 54.8 53.3 46.6 36.1 51 48.9 47.5 45.2 26.3 46.1 43.2 42.6 42.8 56.3 81.3 97.6 104.8 141.1 151.3 153.2 163.5 169.4 174.2 175 176.2 173.1 164.4 167.1 170.9 190.3 221.2 267.8 281 281.7 272.6 274.5 278.1 280.4 287.5 289.7 289.5 285.3 278.4 273 269 273.8 261.1 251 236.8 231.5 225 221 214.5 211.9 195.3 167.8 159.1 159.1 168.9 179.9 183.8 188.8 181.2 185.5 188.5 214.7 214.8 214.7 207 197.2 187 179.8 160.6 155.7 156 163.5 155.7
-0.3 -0.3 -0.3 -0.3 -0.3 -0.3 -0.3 -0.3 -0.3 -0.3 -0.3 -0.3 -0.3 -0.3 -0.3 -0.3 -0.3 -0.3 -0.3 -0.3 -0.3 -0.3 -0.3 -0.3 -0.3 -0.3 -0.3 -0.3 -0.3 -0.3 -0.3 -0.3 -0.3 -0.3 -0.3 -0.3 -0.3 -0.3 -0.3 -0.3 -0.3 -0.3 -0.3 -0.3 -0.3 -0.3 -0.3 -0.3 -0.3 -0.3 -0.3 -0.3 -0.3 -0.3 -0.3 -0.3 -0.3 -0.3 -0.3 -0.3 -0.3 -0.3 -0.3 -0.3 -0.3 -0.3 -0.3 -0.3 -0.3 -0.3 -0.3 -0.3 -0.3 -0.3 -0.3 -0.3 -0.3 -0.3 -0.3 -0.3 -0.3 -0.3 -0.3 -0.3 -0.3 -0.3 -0.3 -0.3 -0.3 -0.3 -0.3 -0.3 -0.3 -0.3 -0.3 -0.3 -0.3 -0.3 -0.3 -0.3 -0.3 -0.3 -0.3 -0.3 -0.3 -0.3 -0.3 -0.3 -0.3 -0.3 -0.3 -0.3 -0.3 -0.3 -0.3 3.3 19 15.9 26 43.1 57.5 64.4 71.2 75.5 75.5 69.6 61.7 58.4 56.3 57.4 40.6 33.4 47.7 40.7 39.2 44.5 65 85.2 101.7 105.4 133.7 154.4 168.5 176.1 177.8 178.1 182.7 183.1 176.6 171.4 169.5 173.2 189.4 226.3 260 269.1 271.4 270.7 274.5 274.4 276.1 283.9 293.3 287.9 280.5 277.2 273.2 273 275.7 265.9 254.7 239.9 239.1 239.5 237.2 225.5 219.5 201.1 175.1 162 173.5 177.6 190.1 191.3 190.6 185.5 185.6 188 191.2 204.4 216.7 207.5 197 184.8 175.5 159 154.9 154.1 161.6 155.5
-0.3 -0.3 -0.3 -0.3 -0.3 -0.3 -0.3 -0.3 -0.3 -0.3 -0.3 -0.3 -0.3 -0.3 -0.3 -0.3 -0.3 -0.3 -0.3 -0.3 -0.3 -0.3 -0.3 -0.3 -0.3 -0.3 -0.3 -0.3 -0.3 -0.3 -0.3 -0.3 -0.3 -0.3 -0.3 -0.3 -0.3 -0.3 -0.3 -0.3 -0.3 -0.3 -0.3 -0.3 -0.3 -0.3 -0.3 -0.3 -0.3 -0.3 -0.3 -0.3 -0.3 -0.3 -0.3 -0.3 -0.3 -0.3 -0.3 -0.3 -0.3 -0.3 -0.3 -0.3 -0.3 -0.3 -0.3 -0.3 -0.3 -0.3 -0.3 -0.3 -0.3 -0.3 -0.3 -0.3 -0.3 -0.3 -0.3 -0.3 -0.3 -0.3 -0.3 -0.3 -0.3 -0.3 -0.3 -0.3 -0.3 -0.3 -0.3 -0.3 -0.3 -0.3 -0.3 -0.3 -0.3 -0.3 -0.3 -0.3 -0.3 -0.3 -0.3 -0.3 -0.3 -0.3 -0.3 7 1 -0.3 -0.3 -0.3 -0.3 -0.3 16.3 7.6 10.2 17 31.5 62.3 68.9 72.4 77.4 78.7 76.8 71.7 68.3 68.6 60.6 51.1 30.8 35.5 41.8 38.6 38.3 48.6 67 89.9 104.1 109.5 136.9 163.1 184 192.6 191.6 200.7 195.7 189.7 186.2 175.7 171.2 181.6 194.1 219.6 252.3 260.5 258.7 262.5 270.7 271.3 275.6 279.4 288.9 283.5 278.7 275.9 273.9 273.2 271.7 264.5 258.6 249.2 242.9 246.4 244.9 230.8 227 211.2 181.4 167.7 179.4 181.3 192.5 192.7 193.2 191.1 186.2 188 194.8 195.9 205 203.2 194.3 179.8 168.1 157 155 153 169.6 158.7
-0.3 -0.3 -0.3 -0.3 -0.3 -0.3 -0.3 -0.3 -0.3 -0.3 -0.3 -0.3 -0.3 -0.3 -0.3 -0.3 -0.3 -0.3 -0.3 -0.3 -0.3 -0.3 -0.3 -0.3 -0.3 -0.3 -0.3 -0.3 -0.3 -0.3 -0.3 -0.3 -0.3 -0.3 -0.3 -0.3 -0.3 -0.3 -0.3 -0.3 -0.3 -0.3 -0.3 -0.3 -0.3 -0.3 -0.3 -0.3 -0.3 -0.3 -0.3 -0.3 -0.3 -0.3 -0.3 -0.3 -0.3 -0.3 -0.3 -0.3 -0.3 -0.3 -0.3 -0.3 -0.3 -0.3 -0.3 -0.3 -0.3 -0.3 -0.3 -0.3 -0.3 -0.3 -0.3 -0.3 -0.3 -0.3 -0.3 -0.3 -0.3 -0.3 -0.3 -0.3 -0.3 -0.3 -0.3 -0.3 -0.3 -0.3 -0.3 -0.3 -0.3 -0.3 -0.3 -0.3 -0.3 -0.3 -0.3 -0.3 -0.3 -0.3 -0.3 -0.3 -0.3 -0.3 -0.3 -0.3 0.8 -0.3 -0.3 -0.3 -0.3 5.8 21.3 16.1 14.3 18.8 29.9 64.3 79.4 88.9 85.8 86.6 76 71.1 75.5 70.1 64 42.4 27.4 36.5 37.2 38.8 38.2 54.6 77.2 95.2 106 113.1 149.3 179.6 190.4 197.3 212.5 216.1 213.8 202.2 198.8 184.8 176.8 179.7 191.7 226.9 244.4 253.5 258.6 262.1 263.6 266.5 270.7 278 281 279.4 281.2 277.6 275.1 275.1 274.2 275.7 265.7 253.4 255.6 252 247.8 237.8 230.5 215.2 185.1 174.5 182.9 185.9 192.2 194.4 201.3 198.5 187.3 186.8 204.3 198.7 195.8 197.8 188.4 178.7 166.7 153.4 150.8 150.6 168.1 157.6
-0.3 -0.3 -0.3 -0.3 -0.3 -0.3 -0.3 -0.3 -0.3 -0.3 -0.3 -0.3 -0.3 -0.3 -0.3 -0.3 -0.3 -0.3 -0.3 -0.3 -0.3 -0.3 -0.3 -0.3 -0.3 -0.3 -0.3 -0.3 -0.3 -0.3 -0.3 -0.3 -0.3 -0.3 -0.3 -0.3 -0.3 -0.3 -0.3 -0.3 -0.3 -0.3 -0.3 -0.3 -0.3 -0.3 -0.3 -0.3 -0.3 -0.3 -0.3 -0.3 -0.3 -0.3 -0.3 -0.3 -0.3 -0.3 -0.3 -0.3 -0.3 -0.3 -0.3 -0.3 -0.3 -0.3 -0.3 -0.3 -0.3 -0.3 -0.3 -0.3 -0.3 -0.3 -0.3 -0.3 -0.3 -0.3 -0.3 -0.3 -0.3 -0.3 -0.3 -0.3 -0.3 -0.3 -0.3 -0.3 -0.3 -0.3 -0.3 -0.3 -0.3 -0.3 -0.3 -0.3 -0.3 -0.3 -0.3 -0.3 -0.3 -0.3 -0.3 -0.3 -0.3 -0.3 -0.3 -0.3 0.1 -0.3 -0.3 -0.3 -0.3 17.5 20.2 20.5 20.7 23.6 34 56.8 74 82.5 88.6 83.9 76.4 73.7 71.7 73.4 55.5 39.6 28.1 32.9 38.3 38.1 39.6 63.2 81.3 100.7 106.1 117.3 166.5 202.2 205.7 217 231.3 227.6 227.5 219 206.9 196.9 182 181.3 188.2 218.4 234.5 243.6 245.9 255.3 260 264.4 265.6 271.1 273.5 276.9 278.1 279.7 275.6 278.8 279.6 277.6 267.9 266.3 261.1 259.4 254.2 239.7 231.4 213.5 187.5 179.1 190.4 186.7 193.5 198.2 207.1 201.2 193.1 187.2 189 197.9 196.8 187.1 180.5 169.9 162.8 150.8 145.9 147.2 151.3 148.7
-0.3 -0.3 -0.3 -0.3 -0.3 -0.3 -0.3 -0.3 -0.3 -0.3 -0.3 -0.3 -0.3 -0.3 -0.3 -0.3 -0.3 -0.3 -0.3 -0.3 -0.3 -0.3 -0.3 -0.3 -0.3 -0.3 -0.3 -0.3 -0.3 -0.3 -0.3 -0.3 -0.3 -0.3 -0.3 -0.3 -0.3 -0.3 -0.3 -0.3 -0.3 -0.3 -0.3 -0.3 -0.3 -0.3 -0.3 -0.3 -0.3 -0.3 -0.3 -0.3 -0.3 -0.3 -0.3 -0.3 -0.3 -0.3 -0.3 -0.3 -0.3 -0.3 -0.3 -0.3 -0.3 -0.3 -0.3 -0.3 -0.3 -0.3 -0.3 -0.3 -0.3 -0.3 -0.3 -0.3 -0.3 -0.3 -0.3 -0.3 -0.3 -0.3 -0.3 -0.3 -0.3 -0.3 -0.3 -0.3 -0.3 -0.3 -0.3 -0.3 -0.3 -0.3 -0.3 -0.3 -0.3 -0.3 -0.3 -0.3 -0.3 -0.3 -0.3 -0.3 -0.3 -0.3 -0.3 -0.3 -0.3 -0.3 -0.3 -0.3 4.9 16.2 19.9 23.9 34.4 35.9 42.4 72.4 76.3 88.3 85.5 79.3 77.4 79.3 72.5 59 50.1 43.9 35.9 31.5 39.4 39.7 49.3 70.5 99.4 99.4 111 128.9 180.8 216.2 227.8 223 248.8 246.9 239.7 233.6 223.2 208.6 197.9 189.5 187.2 197.7 220.8 228.6 233.9 246.4 258 260.7 271.2 271.8 272.8 274.4 273.7 267.3 272.9 291.3 292.1 283.9 270.5 269.1 263.4 262.6 259.5 239.1 227.7 214.2 186.9 182.4 189.7 187.7 197.2 200.5 207.4 205.7 205.8 194.9 188.8 191.8 198.6 180.8 171.9 162.7 156.8 147.8 141.4 144.5 152.5 143.4
-0.3 -0.3 -0.3 -0.3 -0.3 -0.3 -0.3 -0.3 -0.3 -0.3 -0.3 -0.3 -0.3 -0.3 -0.3 -0.3 -0.3 -0.3 -0.3 -0.3 -0.3 -0.3 -0.3 -0.3 -0.3 -0.3 -0.3 -0.3 -0.3 -0.3 -0.3 -0.3 -0.3 -0.3 -0.3 -0.3 -0.3 -0.3 -0.3 -0.3 -0.3 -0.3 -0.3 -0.3 -0.3 -0.3 -0.3 -0.3 -0.3 -0.3 -0.3 -0.3 -0.3 -0.3 -0.3 -0.3 -0.3 -0.3 -0.3 -0.3 -0.3 -0.3 -0.3 -0.3 -0.3 -0.3 -0.3 -0.3 -0.3 -0.3 -0.3 -0.3 -0.3 -0.3 -0.3 -0.3 -0.3 -0.3 -0.3 -0.3 -0.3 -0.3 -0.3 -0.3 -0.3 -0.3 -0.3 -0.3 -0.3 -0.3 -0.3 -0.3 -0.3 -0.3 -0.3 -0.3 -0.3 -0.3 -0.3 -0.3 -0.3 -0.3 -0.3 -0.3 -0.3 9.8 1.7 6.6 -0.3 -0.3 -0.3 7.3 13 16.4 27.1 36.6 44.4 41.8 47.8 70 85.5 93.2 86.4 82.4 78.8 81.5 75.3 57.6 48.2 48.3 41.7 41 42.6 51.4 57.3 86 103.6 106.5 125.8 140.8 198.4 237.3 243.8 237.3 256.5 257.7 258.8 252 234.3 225 209 203.1 196.5 200.7 205.4 212.9 221.5 233.4 249.8 258.6 273.9 270.5 278.2 274.6 270.1 262.9 265.3 289.1 293.8 288.5 268.2 272.1 266.3 261.9 248.9 231.8 224.3 209.6 184.7 185.5 190.3 189.5 194.3 199.8 206.4 206.8 208.7 201.6 188.6 187 185 180 172 156.8 149.8 143.8 138 140 146 142.9
-0.3 -0.3 -0.3 -0.3 -0.3 -0.3 -0.3 -0.3 -0.3 -0.3 -0.3 -0.3 -0.3 -0.3 -0.3 -0.3 -0.3 -0.3 -0.3 -0.3 -0.3 -0.3 -0.3 -0.3 -0.3 -0.3 -0.3 -0.3 -0.3 -0.3 -0.3 -0.3 -0.3 -0.3 -0.3 -0.3 -0.3 -0.3 -0.3 -0.3 -0.3 -0.3 -0.3 -0.3 -0.3 -0.3 -0.3 -0.3 -0.3 -0.3 -0.3 -0.3 -0.3 -0.3 -0.3 -0.3 -0.3 -0.3 -0.3 -0.3 -0.3 -0.3 -0.3 -0.3 -0.3 -0.3 -0.3 -0.3 -0.3 -0.3 -0.3 -0.3 -0.3 -0.3 -0.3 -0.3 -0.3 -0.3 -0.3 -0.3 -0.3 -0.3 -0.3 -0.3 -0.3 -0.3 -0.3 -0.3 -0.3 -0.3 -0.3 -0.3 -0.3 -0.3 -0.3 -0.3 -0.3 -0.3 -0.3 -0.3 -0.3 -0.3 -0.3 2.2 11.3 9.8 8.5 8 6.1 3.8 6 14.6 18.9 24.4 30.6 36.1 46 47.3 52.5 75.6 89.9 93.4 87.6 79.8 81 83.3 71.8 52.4 52.6 64.3 66.5 54.1 41.4 52.6 64.2 87.3 105.8 116.1 136.4 146 193.1 235.4 253.7 251.3 260.6 273.7 269.1 261.7 245.8 231.9 213.2 210.3 212.4 213.4 216.2 217 218.9 225.2 236.3 245.7 258.7 264.8 274.3 272.7 263.6 257.4 262 287.8 287.7 282.6 269.4 275.8 266.6 255.6 241.4 227 220.8 205.3 186.5 188.1 189.4 190 193.6 197.3 206.1 212.3 212.7 205.9 187.9 185.7 182.9 176.8 168.6 155.8 147.1 139.8 133.9 135.4 142.2 142.5
-0.3 -0.3 -0.3 -0.3 -0.3 -0.3 -0.3 -0.3 -0.3 -0.3 -0.3 -0.3 -0.3 -0.3 -0.3 -0.3 -0.3 -0.3 -0.3 -0.3 -0.3 -0.3 -0.3 -0.3 -0.3 -0.3 -0.3 -0.3 -0.3 -0.3 -0.3 -0.3 -0.3 -0.3 -0.3 -0.3 -0.3 -0.3 -0.3 -0.3 -0.3 -0.3 -0.3 -0.3 -0.3 -0.3 -0.3 -0.3 -0.3 -0.3 -0.3 -0.3 -0.3 -0.3 -0.3 -0.3 -0.3 -0.3 -0.3 -0.3 -0.3 -0.3 -0.3 -0.3 -0.3 -0.3 -0.3 -0.3 -0.3 -0.3 -0.3 -0.3 -0.3 -0.3 -0.3 -0.3 -0.3 -0.3 -0.3 -0.3 -0.3 -0.3 -0.3 -0.3 -0.3 -0.3 -0.3 -0.3 -0.3 -0.3 -0.3 -0.3 -0.3 -0.3 -0.3 -0.3 -0.3 -0.3 -0.3 -0.3 -0.3 -0.3 -0.3 7.3 22.8 22.7 30 23.6 11 18.1 28.4 26.1 27.8 30.2 32.7 37.2 42.7 46.2 53.1 74.2 86.2 87.9 81.2 79.1 81.9 73.2 60.6 58.4 76.6 72.9 75.9 61.8 50.8 50.4 68.2 85 102.7 117.2 138 152.6 194.4 234.8 252.5 260.9 261.6 280.4 273.8 267.8 253.1 237 219.8 217 222 219.5 220.5 229.8 222.3 229.4 235.5 242.8 243.7 254.2 260.2 257.2 254.1 252.4 265.7 283.2 289.3 281.3 269.3 277.4 265.7 255.4 235.3 227.5 219.5 208.3 190.9 188.3 188.1 190.2 195.7 197.8 212.2 214.4 214.5 208.1 189.9 182.9 176.1 175.5 167.1 158.3 146.4 135.9 131.9 133.1 137.8 135.2
-0.3 -0.3 -0.3 -0.3 -0.3 -0.3 -0.3 -0.3 -0.3 -0.3 -0.3 -0.3 -0.3 -0.3 -0.3 -0.3 -0.3 -0.3 -0.3 -0.3 -0.3 -0.3 -0.3 -0.3 -0.3 -0.3 -0.3 -0.3 -0.3 -0.3 -0.3 -0.3 -0.3 -0.3 -0.3 -0.3 -0.3 -0.3 -0.3 -0.3 -0.3 -0.3 -0.3 -0.3 -0.3 -0.3 -0.3 -0.3 -0.3 -0.3 -0.3 -0.3 -0.3 -0.3 -0.3 -0.3 -0.3 -0.3 -0.3 -0.3 -0.3 -0.3 -0.3 -0.3 -0.3 -0.3 -0.3 -0.3 -0.3 -0.3 -0.3 -0.3 -0.3 -0.3 -0.3 -0.3 -0.3 -0.3 -0.3 -0.3 -0.3 -0.3 -0.3 -0.3 -0.3 -0.3 -0.3 -0.3 -0.3 -0.3 -0.3 -0.3 -0.3 -0.3 -0.3 -0.3 -0.3 -0.3 -0.3 -0.3 -0.3 -0.3 -0.3 6 26.9 33.2 36.1 43.8 37.2 32.2 32.4 31.6 33.3 35.6 36.8 40.2 43.4 47.4 61.4 80.3 90.1 83.7 78.6 78 76.8 64.4 69.6 92.7 100.3 88.4 79.5 66.7 63 77.5 58.9 86.5 97.7 116.2 142.4 161.2 190.7 229.9 251.1 260.1 260.6 282.9 281.5 269.4 254.1 240.1 225.1 218.1 224.9 225 227.8 227.1 222.8 225.7 229.5 240.4 240.1 243.3 246.4 246.5 251.3 249 271.4 273.2 275.7 271.7 269.4 273.2 261.1 251.8 239.3 228 219.5 206.3 193.5 191.3 189 190.3 195.5 205.6 220.3 215.6 212.3 206.9 192.7 178.3 172 169 163.3 159.5 151.9 136.2 131.3 130.1 135 131.9
-0.3 -0.3 -0.3 -0.3 -0.3 -0.3 -0.3 -0.3 -0.3 -0.3 -0.3 -0.3 -0.3 -0.3 -0.3 -0.3 -0.3 -0.3 -0.3 -0.3 -0.3 -0.3 -0.3 -0.3 -0.3 -0.3 -0.3 -0.3 -0.3 -0.3 -0.3 -0.3 -0.3 -0.3 -0.3 -0.3 -0.3 -0.3 -0.3 -0.3 -0.3 -0.3 -0.3 -0.3 -0.3 -0.3 -0.3 -0.3 -0.3 -0.3 -0.3 -0.3 -0.3 -0.3 -0.3 -0.3 -0.3 -0.3 -0.3 -0.3 -0.3 -0.3 -0.3 -0.3 -0.3 -0.3 -0.3 -0.3 -0.3 -0.3 -0.3 -0.3 -0.3 -0.3 -0.3 -0.3 -0.3 -0.3 -0.3 -0.3 -0.3 -0.3 -0.3 -0.3 -0.3 -0.3 -0.3 -0.3 -0.3 -0.3 -0.3 -0.3 -0.3 -0.3 -0.3 -0.3 -0.3 -0.3 -0.3 -0.3 -0.3 -0.3 -0.3 28.2 37.1 45.2 48.6 42.7 39.5 38.6 41.6 41.8 43.5 39 41.3 43.5 44.9 47.8 62.9 88 92.3 82.1 76.8 75.5 68.2 76.3 107.3 111.6 114.1 101 86.6 71.9 65 84.8 62 80.4 96.7 115.7 146.2 160.6 185.1 229 243.7 254.6 252.9 282.5 285.4 270.7 249.8 236.5 221.7 216.5 225.4 226.2 231.7 226.1 221.5 221.7 224.2 231.7 233.4 239.3 235.7 239.2 244.7 242.6 263 262.3 267.4 269.8 271.5 272.8 259.1 248.7 243 233 219.9 204.5 194 192.1 190.1 191.9 196.7 205.9 224.7 218.3 219.7 206.6 192.5 178.6 168.6 163.2 158.6 158.7 150.6 136.2 132.2 128.6 128.4 127.9
-0.3 -0.3 -0.3 -0.3 -0.3 -0.3 -0.3 -0.3 -0.3 -0.3 -0.3 -0.3 -0.3 -0.3 -0.3 -0.3 -0.3 -0.3 -0.3 -0.3 -0.3 -0.3 -0.3 -0.3 -0.3 -0.3 -0.3 -0.3 -0.3 -0.3 -0.3 -0.3 -0.3 -0.3 -0.3 -0.3 -0.3 -0.3 -0.3 -0.3 -0.3 -0.3 -0.3 -0.3 -0.3 -0.3 -0.3 -0.3 -0.3 -0.3 -0.3 -0.3 -0.3 -0.3 -0.3 -0.3 -0.3 -0.3 -0.3 -0.3 -0.3 -0.3 -0.3 -0.3 -0.3 -0.3 -0.3 -0.3 -0.3 -0.3 -0.3 -0.3 -0.3 -0.3 -0.3 -0.3 -0.3 -0.3 -0.3 -0.3 -0.3 -0.3 -0.3 -0.3 -0.3 -0.3 -0.3 -0.3 -0.3 -0.3 -0.3 -0.3 -0.3 -0.3 -0.3 -0.3 -0.3 -0.3 -0.3 6.4 -0.3 -0.3 3.7 34.4 43 58.8 52 51.6 49.2 49.1 55.1 52.3 43.6 43.3 44.6 46 46.1 48.2 61.3 83.9 85.7 82.6 74.1 70.8 71.3 95.7 106.8 113.8 110.4 101.2 87.7 75.3 71.2 83.2 66.7 80.7 93.3 122.2 143.5 158.7 187.1 221.4 238.8 246.9 243.9 271.3 281.1 271.6 249.8 230.2 215.5 210.2 222.5 223.7 233.9 232.8 217.5 213.8 218.6 225.8 230.2 230.4 230.3 239.3 241.8 241 252.1 253.9 262.4 270.8 268.8 264.5 251.1 248.5 243.2 237.6 223.3 198.5 192.8 193.6 192.7 195.4 197.6 212.8 227.7 221.2 225.8 212.5 196.9 180.3 163.5 158.7 156.4 154.5 145.8 135.5 133.9 130.8 126.5 125.3
-0.3 -0.3 -0.3 -0.3 -0.3 -0.3 -0.3 -0.3 -0.3 -0.3 -0.3 -0.3 -0.3 -0.3 -0.3 -0.3 -0.3 -0.3 -0.3 -0.3 -0.3 -0.3 -0.3 -0.3 -0.3 -0.3 -0.3 -0.3 -0.3 -0.3 -0.3 -0.3 -0.3 -0.3 -0.3 -0.3 -0.3 -0.3 -0.3 -0.3 -0.3 -0.3 -0.3 -0.3 -0.3 -0.3 -0.3 -0.3 -0.3 -0.3 -0.3 -0.3 -0.3 -0.3 -0.3 -0.3 -0.3 -0.3 -0.3 -0.3 -0.3 -0.3 -0.3 -0.3 -0.3 -0.3 -0.3 -0.3 -0.3 -0.3 -0.3 -0.3 -0.3 -0.3 -0.3 -0.3 -0.3 -0.3 -0.3 -0.3 -0.3 -0.3 -0.3 -0.3 -0.3 -0.3 -0.3 -0.3 -0.3 -0.3 -0.3 -0.3 -0.3 -0.3 -0.3 -0.3 -0.3 -0.3 -0.3 -0.3 3.9 7.4 19.4 29.6 61.7 67.9 63 55.2 61.3 62 58.7 54.6 49.7 51.3 51.8 53.2 52.8 52.3 61.2 71.9 79.4 72.4 70.9 73.7 102.5 112 112.9 108.7 106.7 95.7 89.7 86.7 80.4 86.6 75 81.6 91.1 116.7 140.5 154.2 189.7 209 223.6 235.8 237.1 255.1 263.8 263.6 250.4 235.7 214 203.6 215.7 222.1 229.5 232.5 216.6 210.2 209.4 222.9 225.8 224.9 232.3 244 245.9 241 245.8 245.4 257.2 271.5 264.8 255.5 247.4 249.2 242.4 234.9 223.1 201.6 190.1 195.5 194.7 195.3 199.8 215.7 224.3 223.9 223.9 214.4 197.7 185.2 166.8 154 152.9 152.9 144.9 135.3 132.2 128.8 127.7 125.4
-0.3 -0.3 -0.3 -0.3 -0.3 -0.3 -0.3 -0.3 -0.3 -0.3 -0.3 -0.3 -0.3 -0.3 -0.3 -0.3 -0.3 -0.3 -0.3 -0.3 -0.3 -0.3 -0.3 -0.3 -0.3 -0.3 -0.3 -0.3 -0.3 -0.3 -0.3 -0.3 -0.3 -0.3 -0.3 -0.3 -0.3 -0.3 -0.3 -0.3 -0.3 -0.3 -0.3 -0.3 -0.3 -0.3 -0.3 -0.3 -0.3 -0.3 -0.3 -0.3 -0.3 -0.3 -0.3 -0.3 -0.3 -0.3 -0.3 -0.3 -0.3 -0.3 -0.3 -0.3 -0.3 -0.3 -0.3 -0.3 -0.3 -0.3 -0.3 -0.3 -0.3 -0.3 -0.3 -0.3 -0.3 -0.3 -0.3 -0.3 -0.3 -0.3 -0.3 -0.3 -0.3 -0.3 -0.3 -0.3 -0.3 -0.3 -0.3 -0.3 -0.3 -0.3 -0.3 -0.3 -0.3 -0.3 -0.3 -0.3 4 6.9 12.8 32.2 60.8 72.2 67.8 66.8 70.8 64.1 64.9 68.3 64.3 65.5 66.5 60.9 62.4 58.7 71 74.7 72.1 70.9 70.6 95.1 111.7 118.1 114.9 108.7 105.3 99.1 94.7 83.9 84.2 88.1 82.5 80 94.8 121 133.4 148.6 184.9 203.2 213.7 222.7 229.6 239.5 252.3 253.4 246.2 233.5 209.7 198.4 198.4 214.3 228.9 227.2 215.5 209.2 206.8 205.9 216.4 220.4 229.9 236.1 246.6 234.2 240.3 236.6 252.1 263.1 254.6 248.2 245 248.9 242.8 235.3 221.7 196.1 188.7 195.4 196.2 200.7 203.1 220.7 226 225.6 225.7 219 201 181 166.8 151.8 149.2 149.7 143.7 132.9 129.7 127.9 125.8 123.2
-0.3 -0.3 -0.3 -0.3 -0.3 -0.3 -0.3 -0.3 -0.3 -0.3 -0.3 -0.3 -0.3 -0.3 -0.3 -0.3 -0.3 -0.3 -0.3 -0.3 -0.3 -0.3 -0.3 -0.3 -0.3 -0.3 -0.3 -0.3 -0.3 -0.3 -0.3 -0.3 -0.3 -0.3 -0.3 -0.3 -0.3 -0.3 -0.3 -0.3 -0.3 -0.3 -0.3 -0.3 -0.3 -0.3 -0.3 -0.3 -0.3 -0.3 -0.3 -0.3 -0.3 -0.3 -0.3 -0.3 -0.3 -0.3 -0.3 -0.3 -0.3 -0.3 -0.3 -0.3 -0.3 -0.3 -0.3 -0.3 -0.3 -0.3 -0.3 -0.3 -0.3 -0.3 -0.3 -0.3 -0.3 -0.3 -0.3 -0.3 -0.3 5.2 5 -0.3 -0.3 -0.3 -0.3 -0.3 -0.3 -0.3 -0.3 -0.3 -0.3 -0.3 -0.3 -0.3 -0.3 -0.3 -0.3 -0.3 -0.3 6.7 27.9 39.6 59.3 73.8 73.5 78.1 79.2 71.3 77.8 77.7 81.5 81.5 73.4 63.9 64 64 76.5 83.6 71.7 70.8 77.5 111 116.4 116.2 113.8 112.9 111.4 103.8 89.4 85.2 87.5 89.5 82.7 92 95.1 111.1 129.9 149.8 178.8 190.7 208.5 211.4 222.4 235.7 240.5 240.4 233.9 225.6 204.5 198.4 198.4 208.7 220.3 222.4 214.5 213.9 211.1 204.9 204.5 213.9 223.8 232.6 231.6 224.6 229.8 231.9 251.5 248.8 244.5 245.9 239.9 245.3 242.6 232.7 217.4 190.9 187.9 194.1 196.5 205.9 208.9 220 226.9 230.1 227.9 218.8 200.6 180.3 166.1 152.9 146.1 147.8 145.4 134.3 128.1 126.6 125.7 123.8
-0.3 -0.3 -0.3 -0.3 -0.3 -0.3 -0.3 -0.3 -0.3 -0.3 -0.3 -0.3 -0.3 -0.3 -0.3 -0.3 -0.3 -0.3 -0.3 -0.3 -0.3 -0.3 -0.3 -0.3 -0.3 -0.3 -0.3 -0.3 -0.3 -0.3 -0.3 -0.3 -0.3 -0.3 -0.3 -0.3 -0.3 -0.3 -0.3 -0.3 -0.3 -0.3 -0.3 -0.3 -0.3 -0.3 -0.3 -0.3 -0.3 -0.3 -0.3 -0.3 -0.3 -0.3 -0.3 -0.3 -0.3 -0.3 -0.3 -0.3 -0.3 -0.3 -0.3 -0.3 -0.3 -0.3 -0.3 -0.3 -0.3 -0.3 -0.3 -0.3 -0.3 -0.3 -0.3 -0.3 -0.3 -0.3 -0.3 -0.3 8.3 19.8 8.8 6 4 -0.3 -0.3 -0.3 -0.3 -0.3 -0.3 -0.3 -0.3 -0.3 -0.3 -0.3 -0.3 -0.3 -0.3 -0.3 -0.3 6.2 37.5 50.3 70.1 84.1 84.2 86.9 86.6 80.1 87.8 91.8 96.4 83.8 74.9 73.8 65.7 67.4 82.2 76.8 72.5 71.3 90.4 112.2 119.1 117.8 116.2 120.4 115.9 106.9 89.4 85.9 91.2 90 92.3 104.4 106.6 104.9 123.3 141.2 167.5 184 200.4 205.2 215.7 232.8 232.3 230.4 227.8 217.1 205 198.4 198.4 206.8 217.4 215.5 214.1 218.1 213.6 210.8 206.6 203.5 206.2 218.6 217.4 216 218.6 223.6 233.2 231.8 236.8 243.7 236.5 239.1 240.2 228.2 215.4 191.6 186.6 189.5 198.9 210.2 213.3 224.3 222.1 231.7 224.2 214.7 198.3 180.5 166.3 152.5 145.4 138.7 138.6 128.3 126.3 125.9 125.5 122.9
-0.3 -0.3 -0.3 -0.3 -0.3 -0.3 -0.3 -0.3 -0.3 -0.3 -0.3 -0.3 -0.3 -0.3 -0.3 -0.3 -0.3 -0.3 -0.3 -0.3 -0.3 -0.3 -0.3 -0.3 -0.3 -0.3 -0.3 -0.3 -0.3 -0.3 -0.3 -0.3 -0.3 -0.3 -0.3 -0.3 -0.3 -0.3 -0.3 -0.3 -0.3 -0.3 -0.3 -0.3 -0.3 -0.3 -0.3 -0.3 -0.3 -0.3 -0.3 -0.3 -0.3 -0.3 -0.3 -0.3 -0.3 -0.3 -0.3 -0.3 -0.3 -0.3 -0.3 -0.3 -0.3 -0.3 -0.3 -0.3 -0.3 -0.3 -0.3 -0.3 -0.3 -0.3 -0.3 -0.3 -0.3 2.5 -0.3 6.1 25.4 14.7 21.8 21.2 8.7 31.3 8.2 -0.3 -0.3 -0.3 -0.3 -0.3 -0.3 -0.3 -0.3 -0.3 -0.3 -0.3 -0.3 -0.3 3.3 7.3 44.3 67.2 77.5 82 91.7 90 81.3 84.5 95.3 98.7 95.7 91.7 83.4 76.9 82 76.6 76.7 73.9 73 72 99 106.6 113.9 116.3 120 119.2 116.8 105.4 90.3 87.2 92.6 92.7 99.5 114.2 115 108 118.1 139.3 158.4 174 191.8 197.7 207.1 229.7 224.8 224.6 221.2 209.9 205.7 198.4 198.4 198.4 211.8 212.8 216.5 220.1 218.4 222.8 217.6 204 201 202.3 203.2 209.4 213.7 214.8 220.5 225.7 231.3 236.2 235.8 236.4 233 223.3 213 198.4 187 189.6 199.8 211.6 216 221.4 220.1 220.8 222 210.3 191.5 180.1 166.9 156.4 142.9 131.5 132.2 125.4 124.9 125.6 125.7 121.4
-0.3 -0.3 -0.3 -0.3 -0.3 -0.3 -0.3 -0.3 -0.3 -0.3 -0.3 -0.3 -0.3 -0.3 -0.3 -0.3 -0.3 -0.3 -0.3 -0.3 -0.3 -0.3 -0.3 -0.3 -0.3 -0.3 -0.3 -0.3 -0.3 -0.3 -0.3 -0.3 -0.3 -0.3 -0.3 -0.3 -0.3 -0.3 -0.3 -0.3 -0.3 -0.3 -0.3 -0.3 -0.3 -0.3 -0.3 -0.3 -0.3 -0.3 -0.3 -0.3 -0.3 -0.3 -0.3 -0.3 -0.3 -0.3 -0.3 -0.3 -0.3 -0.3 -0.3 -0.3 -0.3 -0.3 -0.3 -0.3 -0.3 -0.3 -0.3 -0.3 -0.3 -0.3 -0.3 -0.3 4.6 5 6.9 33.9 24.2 18.6 22.8 34.3 41.6 36.2 16.5 -0.3 -0.3 -0.3 -0.3 -0.3 -0.3 -0.3 -0.3 -0.3 -0.3 -0.3 -0.3 -0.3 7.1 24.1 55.2 77.9 90 88.1 89.6 86.4 90.4 93.7 98.5 101.6 103.8 92.9 88.7 91.5 85.6 80.3 75.2 74.2 73.1 94.4 102.6 112.4 112.5 117 120.3 118.4 104.9 96.7 91 88.4 94 93.9 111.7 116.2 118.6 114.9 113.6 145.3 158.5 166.4 180.3 193 194.8 220.6 221.4 216.1 212.6 211.2 211.1 200 198.4 198.4 208.4 213.2 219.4 222.9 224.9 225.3 222.1 211.2 198.3 195.6 195.7 203.5 206.6 214.3 218.7 219.4 227.3 235.3 233.6 233.4 225.4 220.7 207.4 202.2 187.8 187 196.4 211.2 220.1 219.1 218.2 217.1 209.7 200.5 190.3 176.2 169.4 156.9 138.1 130.4 124.2 122.8 123.2 128.3 124.2 120.9
-0.3 -0.3 -0.3 -0.3 -0.3 -0.3 -0.3 -0.3 -0.3 -0.3 -0.3 -0.3 -0.3 -0.3 -0.3 -0.3 -0.3 -0.3 -0.3 -0.3 -0.3 -0.3 -0.3 -0.3 -0.3 -0.3 -0.3 -0.3 -0.3 -0.3 -0.3 -0.3 -0.3 -0.3 -0.3 -0.3 -0.3 -0.3 -0.3 -0.3 -0.3 -0.3 -0.3 -0.3 -0.3 -0.3 -0.3 -0.3 -0.3 -0.3 -0.3 -0.3 -0.3 -0.3 -0.3 -0.3 -0.3 -0.3 -0.3 -0.3 -0.3 -0.3 -0.3 -0.3 -0.3 -0.3 -0.3 -0.3 -0.3 -0.3 -0.3 -0.3 -0.3 -0.3 -0.3 -0.3 5.5 11.1 31.9 31.9 24.3 21.5 24.3 32.1 35.5 31.8 8.3 -0.3 -0.3 -0.3 -0.3 -0.3 -0.3 -0.3 -0.3 -0.3 -0.3 -0.3 -0.3 8.1 18.4 33.7 49.5 85.4 89 98.1 95.8 94 93.8 95.6 100.5 102.7 108.3 114 108.8 105 86.9 77.3 77 77.1 77.5 107.6 109.5 114.8 120.5 124.4 123.1 114.9 98 96.5 97.4 94.9 94.9 95.6 121 123.4 131.2 132 120.1 137.4 160.5 169.6 175.5 184.2 183.5 199.5 201.2 204.2 208.4 209.3 210.9 212.1 201.7 199.7 200 213.6 221 225.3 229.3 230.4 229.3 217.3 201.4 194.9 193.7 193 199.4 209 206.8 214.2 225 234.3 227.9 228.4 219.8 211.8 205.7 202.9 183.5 183.7 195.6 211.3 217.1 217.8 217.2 217.4 206.7 194.3 187.2 175.7 167.5 153.3 136.8 127.8 121.2 120.6 119.6 128.4 119.7 127.1
-0.3 -0.3 -0.3 -0.3 -0.3 -0.3 -0.3 -0.3 -0.3 -0.3 -0.3 -0.3 -0.3 -0.3 -0.3 -0.3 -0.3 -0.3 -0.3 -0.3 -0.3 -0.3 -0.3 -0.3 -0.3 -0.3 -0.3 -0.3 -0.3 -0.3 -0.3 -0.3 -0.3 -0.3 -0.3 -0.3 -0.3 -0.3 -0.3 -0.3 -0.3 -0.3 -0.3 -0.3 -0.3 -0.3 -0.3 -0.3 -0.3 -0.3 -0.3 -0.3 -0.3 -0.3 -0.3 -0.3 -0.3 -0.3 -0.3 -0.3 -0.3 -0.3 -0.3 -0.3 -0.3 -0.3 -0.3 -0.3 -0.3 -0.3 -0.3 -0.3 -0.3 -0.3 -0.3 4.7 15.5 34.8 36.1 33.1 32.4 29.8 38.5 39.5 38.2 35.9 24.4 8.6 -0.3 -0.3 -0.3 -0.3 -0.3 -0.3 -0.3 -0.3 -0.3 -0.3 19 26.3 34.7 43.2 57 79.4 95 100.3 110.1 103.1 97.9 98.1 110.7 108 120.1 120.9 113.7 102.5 80.7 79 79.1 79.2 82 112.3 121.2 117 124 126.7 127.8 119.2 103.2 97.3 93.8 95.3 97.3 99.4 114.9 130.7 136.9 138.1 128.8 129.6 151.8 174.9 176.4 178.1 178.3 193.3 198.2 202.1 207.1 209.8 215.7 218.9 205.3 203.2 198.4 210.4 221.1 226.8 233.7 237.2 227.8 222.3 214 205.6 194.4 192.8 192.7 198.7 198.9 208 218.9 230 221.3 219.6 215.1 208.4 200.8 195.3 177.3 181.5 193.4 207.1 213.8 216.6 216.7 215.2 205.7 192.8 181.9 173.5 166.6 153 135.6 124.6 120.4 118.5 117.6 117.6 120.6 131.8
-0.3 -0.3 -0.3 -0.3 -0.3 -0.3 -0.3 -0.3 -0.3 -0.3 -0.3 -0.3 -0.3 -0.3 -0.3 -0.3 -0.3 -0.3 -0.3 -0.3 -0.3 -0.3 -0.3 -0.3 -0.3 -0.3 -0.3 -0.3 -0.3 -0.3 -0.3 -0.3 -0.3 -0.3 -0.3 -0.3 -0.3 -0.3 -0.3 -0.3 -0.3 -0.3 -0.3 -0.3 -0.3 -0.3 -0.3 -0.3 -0.3 -0.3 -0.3 -0.3 -0.3 -0.3 -0.3 -0.3 -0.3 -0.3 -0.3 -0.3 -0.3 -0.3 -0.3 -0.3 -0.3 -0.3 -0.3 -0.3 -0.3 -0.3 -0.3 -0.3 -0.3 -0.3 3.9 7.4 38.5 40.6 45.9 44.7 37.6 54.7 55.1 52.5 40.1 40 35.8 13.1 -0.3 -0.3 -0.3 -0.3 -0.3 -0.3 -0.3 -0.3 -0.3 -0.3 27.6 36 46.8 54.5 58.9 67.3 90.4 97.9 108.4 107.1 103.6 103.9 112.5 124.1 127.2 118.8 107.5 89.9 81.9 84.1 87.2 81.7 86.2 115.5 121.5 128.9 127.1 123 118.5 113.7 100 95.4 94.5 99.7 100 108.5 120.9 140.5 143 142.2 135.4 127.8 143.9 165.1 173.3 176.5 177.3 185.1 191.4 204 215.1 218.1 223.5 220.8 206.5 199.7 201.4 205.2 217.5 231.1 235.1 236.4 229.1 225.4 222.4 212.7 203 198.6 193.2 191.2 193 197.5 209.9 216.4 214.4 214.2 207.5 202.4 197.8 190.4 170.5 178.3 193.4 202.7 211.8 216.5 218.1 217.5 207.4 191.5 180.4 169.6 160.4 149 131.7 124 120.9 118.6 116.1 116.2 120.8 130
-0.3 -0.3 -0.3 -0.3 -0.3 -0.3 -0.3 -0.3 -0.3 -0.3 -0.3 -0.3 -0.3 -0.3 -0.3 -0.3 -0.3 -0.3 -0.3 -0.3 -0.3 -0.3 -0.3 -0.3 -0.3 -0.3 -0.3 -0.3 -0.3 -0.3 -0.3 -0.3 -0.3 -0.3 -0.3 -0.3 -0.3 -0.3 -0.3 -0.3 -0.3 -0.3 -0.3 -0.3 -0.3 -0.3 -0.3 -0.3 -0.3 -0.3 -0.3 -0.3 -0.3 -0.3 -0.3 -0.3 -0.3 -0.3 -0.3 -0.3 -0.3 -0.3 -0.3 -0.3 -0.3 -0.3 -0.3 -0.3 -0.3 -0.3 -0.3 -0.3 6.9 7.3 7.6 49.7 43.6 42.7 51.6 57.7 64.3 59.9 58.1 61.4 43.9 38.4 35.5 11.6 -0.3 -0.3 -0.3 -0.3 -0.3 -0.3 -0.3 -0.3 -0.3 -0.3 32.6 50.1 56.6 60.2 66.5 64.8 78.6 95 97.8 103 105 106 123.8 131.5 123.2 113.1 95.3 84.4 85.7 96.6 88 86.2 88.8 116.2 121.9 125.3 125 122.6 111.4 104.7 100.1 96.8 97.5 104.8 105.3 114.1 129.5 151 150.3 149.5 137.7 133.4 149.2 167.2 171 175.6 176.7 178 187 201.5 216.1 221.8 228.1 220.1 202.9 199.1 205 205.9 215.9 226.8 232.8 229.8 227.3 226 221.7 213.9 204.4 201.7 196.9 193.5 191 193.1 201.9 205.4 207.4 206.6 206.1 194.8 195.5 183.5 165.9 172.3 192.1 203 217 217 228 226.3 207.1 190.7 175.6 164.9 153.1 139.8 126.4 122.6 120 117.1 115.7 118.7 119.8 124.7
-0.3 -0.3 -0.3 -0.3 -0.3 -0.3 -0.3 -0.3 -0.3 -0.3 -0.3 -0.3 -0.3 -0.3 -0.3 -0.3 -0.3 -0.3 -0.3 -0.3 -0.3 -0.3 -0.3 -0.3 -0.3 -0.3 -0.3 -0.3 -0.3 -0.3 -0.3 -0.3 -0.3 -0.3 -0.3 -0.3 -0.3 -0.3 -0.3 -0.3 -0.3 -0.3 -0.3 -0.3 -0.3 -0.3 -0.3 -0.3 -0.3 -0.3 -0.3 -0.3 -0.3 -0.3 -0.3 -0.3 -0.3 -0.3 -0.3 -0.3 -0.3 -0.3 -0.3 -0.3 -0.3 -0.3 -0.3 -0.3 -0.3 -0.3 -0.3 4.7 12.6 10.8 47.9 52.2 45.3 57.2 55.3 62.8 65.2 64 60 55.6 49.5 42.6 42.8 9.2 1 -0.3 -0.3 -0.3 -0.3 -0.3 -0.3 -0.3 -0.3 0.9 42.9 64.4 71.1 74.6 73 69 68.6 76.3 92.9 109.3 118.6 126.5 125.7 129.7 117.4 104.8 94.9 88 91.5 94.4 88.4 91.3 108.2 116.6 122.7 126.2 122.8 117.7 105.7 102.7 105.8 101.9 106.9 111.2 115.2 126.1 141.5 164.6 163.5 152.3 144 141.8 143.4 164.6 173.2 174.3 175 176.2 179.3 191.3 206.6 215.5 225 213.3 198.7 198.1 208 207.5 213.4 224 226 224.9 227.2 225 221.4 214.9 203.5 200.6 197.5 193.2 192 192.2 193.3 197.7 199.8 198.4 196.9 188.8 188.1 176.3 163.7 170.5 186.6 204 218.7 215.6 232.3 226.2 215.3 196.2 177.6 159.7 151.5 137.6 126 121.9 118.3 117.3 114.3 122.3 122.3 127.2
-0.3 -0.3 -0.3 -0.3 -0.3 -0.3 -0.3 -0.3 -0.3 -0.3 -0.3 -0.3 -0.3 -0.3 -0.3 -0.3 -0.3 -0.3 -0.3 -0.3 -0.3 -0.3 -0.3 -0.3 -0.3 -0.3 -0.3 -0.3 -0.3 -0.3 -0.3 -0.3 -0.3 -0.3 -0.3 -0.3 -0.3 -0.3 -0.3 -0.3 -0.3 -0.3 -0.3 -0.3 -0.3 -0.3 -0.3 -0.3 -0.3 -0.3 -0.3 -0.3 -0.3 -0.3 -0.3 -0.3 -0.3 -0.3 -0.3 -0.3 -0.3 -0.3 -0.3 -0.3 -0.3 -0.3 -0.3 -0.3 -0.3 -0.3 -0.3 10 8.2 19.5 55.8 50.7 72.3 75 65.4 66.2 65.8 70.2 66.7 65 49 50.6 50 25.3 1.2 -0.3 -0.3 -0.3 -0.3 -0.3 -0.3 -0.3 5.3 14.9 55.9 74.2 84.4 83.5 88 77.9 73.3 74.5 91.5 108.9 125.5 130.9 131.6 123 114.1 110.8 113.1 101.8 101.1 94.5 99.6 106.2 129.3 136 130.3 126.2 120.5 111.6 106.5 105.5 105.3 103 110.6 114.8 119.9 137.4 152.4 171.3 166.2 170.6 158.3 155.4 166.7 158.1 172.9 176.6 176.1 176.1 177.3 179.6 194.3 207.9 217.2 208.4 198.5 195.9 207.2 207.7 210.2 217.3 220.5 222.9 228.2 226.1 219.4 214.1 205.1 199.7 195.3 191.3 191.6 192.7 191.8 189.9 191.3 191.8 188.9 181.6 179.9 167.7 161.7 169.8 191 199.8 210.3 216.2 230.8 229.9 216.3 196.3 177.9 158.6 150 133.9 124.7 121.2 121.2 116.6 115.5 122 127.5 129.2
-0.3 -0.3 -0.3 -0.3 -0.3 -0.3 -0.3 -0.3 -0.3 -0.3 -0.3 -0.3 -0.3 -0.3 -0.3 -0.3 -0.3 -0.3 -0.3 -0.3 -0.3 -0.3 -0.3 -0.3 -0.3 -0.3 -0.3 -0.3 -0.3 -0.3 -0.3 -0.3 -0.3 -0.3 -0.3 -0.3 -0.3 -0.3 -0.3 -0.3 -0.3 -0.3 -0.3 -0.3 -0.3 -0.3 -0.3 -0.3 -0.3 -0.3 -0.3 -0.3 -0.3 -0.3 -0.3 -0.3 -0.3 -0.3 -0.3 -0.3 -0.3 -0.3 -0.3 -0.3 -0.3 -0.3 -0.3 -0.3 -0.3 -0.3 -0.3 -0.3 4.5 17.3 55.7 64.2 83.2 75.3 66.9 66.6 64.4 69.9 74.2 72.9 50.5 55.4 55.1 29 4.5 0.7 0.7 1.4 0.8 0.3 0.5 1 8.1 38.8 64.5 83.8 86.8 87.5 90.1 80.5 77.9 82.3 83.4 98 124.6 130.8 127.6 123.9 125.5 128.3 125 111.7 102.1 106.2 132.4 137.1 149.2 146.1 134 131.8 123.5 120.6 109.3 114.9 108.1 107.4 120.7 119.5 122.6 150.1 163.3 176.2 180.2 177.5 172.2 171.5 174.2 170.2 165.3 167.9 178.3 176.8 176.7 178.9 184.4 199 206.7 208.3 193.8 187.8 202.6 206.5 207.7 214.6 217.5 216.7 221.6 218 215.9 210.5 205.5 199.3 192.3 188 189.1 191.4 186.2 181.5 177.3 179.2 179.2 175.1 171.5 162.9 160.9 168.8 190.4 198.3 206.3 216.6 229.4 227.5 209.3 191 176 160.7 151 137.9 126.5 124.1 125.7 118.8 115.3 123.9 131.6 127.9
-0.3 -0.3 -0.3 -0.3 -0.3 -0.3 -0.3 -0.3 -0.3 -0.3 -0.3 -0.3 -0.3 -0.3 -0.3 -0.3 -0.3 -0.3 -0.3 -0.3 -0.3 -0.3 -0.3 -0.3 -0.3 -0.3 -0.3 -0.3 -0.3 -0.3 -0.3 -0.3 -0.3 -0.3 -0.3 -0.3 -0.3 -0.3 -0.3 -0.3 -0.3 -0.3 -0.3 -0.3 -0.3 -0.3 -0.3 -0.3 -0.3 -0.3 -0.3 -0.3 -0.3 -0.3 -0.3 -0.3 -0.3 -0.3 -0.3 -0.3 -0.3 -0.3 -0.3 -0.3 -0.3 -0.3 -0.3 -0.3 -0.3 -0.3 -0.3 -0.3 3.2 19.9 43.5 65.9 75.3 71 65.2 63.2 65.6 68.4 71.5 63.9 50.3 57.2 43.1 25.8 6.6 1 1 0.5 -0.3 0.8 1 6.5 20.3 55.8 74.3 88.3 91.5 97 96 89.1 83.7 85.7 85.8 88.7 112.4 122.7 127.4 137.8 137.3 134.6 118.6 116.6 120.7 139.2 141.7 152 157.6 152.5 145.7 138.7 134.4 122.6 118.1 122.7 112 109.2 127.6 127.3 125.7 146.8 167.1 194.7 185.5 182.5 179.3 178.4 180.2 177.1 169.6 166.4 170.5 175.4 177.7 178.2 180.8 190.2 196.1 199.6 187.2 187.2 195.5 200.6 199.8 205.9 212.9 212.6 212.4 212.1 211.2 206.2 200.3 192.2 189.3 186.2 184.6 185.4 183.9 178.6 170.5 170 168 167.5 163.9 160 161.3 168.3 187.4 194.7 203.8 218.2 234.4 226.8 205.8 188.2 172.7 162.5 151.3 137.5 131.5 130.7 126 120.2 112.3 120.7 134.1 129.4
-0.3 -0.3 -0.3 -0.3 -0.3 -0.3 -0.3 -0.3 -0.3 -0.3 -0.3 -0.3 -0.3 -0.3 -0.3 -0.3 -0.3 -0.3 -0.3 -0.3 -0.3 -0.3 -0.3 -0.3 -0.3 -0.3 -0.3 -0.3 -0.3 -0.3 -0.3 -0.3 -0.3 -0.3 -0.3 -0.3 -0.3 -0.3 -0.3 -0.3 -0.3 -0.3 -0.3 -0.3 -0.3 -0.3 -0.3 -0.3 -0.3 -0.3 -0.3 -0.3 -0.3 -0.3 -0.3 -0.3 -0.3 -0.3 -0.3 -0.3 -0.3 -0.3 -0.3 -0.3 -0.3 -0.3 -0.3 -0.3 -0.3 -0.3 -0.3 -0.3 2.4 26.8 41.8 50.5 64.4 66.1 63.4 64.6 65.8 68.3 64 51 52.6 50.4 35.2 14.2 5.4 4.1 3.9 2.4 -0.3 6 7.4 10.4 55.6 68.2 75.6 100.2 108.4 107.9 110.2 97 87.4 87.3 88.4 91.8 102.6 119.2 133.8 141.5 135 131.5 122 132.9 150.7 150.1 164.3 161 162.5 160.6 147.6 146.6 140.2 125.6 122.6 136 124.3 112.4 124.9 137.6 137.7 151.7 164.5 200.7 196.5 186.1 177.6 179.7 182.8 183.8 182.5 175.7 167.5 173.4 176.4 179.8 181.8 184.2 191.5 191.1 187.2 187.2 188 194.8 194.2 197.8 206.9 210.5 211.2 208.6 206.2 202.2 195.5 188.7 185.3 181.4 180.2 179.8 178.2 172.7 169.7 165.1 161.1 158.2 157 156.6 162.1 169.9 183.3 191.9 202.6 215.8 232.2 218.7 199.2 183.9 173.4 164.1 151.7 140.6 136.9 130.7 124.8 113.8 115.3 117.2 134.4 130.7
-0.3 -0.3 -0.3 -0.3 -0.3 -0.3 -0.3 -0.3 -0.3 -0.3 -0.3 -0.3 -0.3 -0.3 -0.3 -0.3 -0.3 -0.3 -0.3 -0.3 -0.3 -0.3 -0.3 -0.3 -0.3 -0.3 -0.3 -0.3 -0.3 -0.3 -0.3 -0.3 -0.3 -0.3 -0.3 -0.3 -0.3 -0.3 -0.3 -0.3 -0.3 -0.3 -0.3 -0.3 -0.3 -0.3 -0.3 -0.3 -0.3 -0.3 -0.3 -0.3 -0.3 -0.3 -0.3 -0.3 -0.3 -0.3 -0.3 -0.3 -0.3 -0.3 -0.3 -0.3 -0.3 -0.3 -0.3 -0.3 -0.3 -0.3 -0.3 -0.3 6.5 32.7 44.2 50.8 61.9 63.5 60.5 67.7 67.3 63.9 52.9 51.8 45 39.5 17.1 12.6 5.5 4.5 4.8 5.2 4.6 9.2 27.2 28 67.6 84.3 79 112.4 119.6 125 123.3 106.5 90.9 89.9 89.9 101.4 112.7 115.3 124.1 131.4 135.9 125.9 132 151.2 154.8 162 166.6 163.1 167.3 165.4 156.9 150.8 140.8 134.4 134.6 143.7 129.3 117.5 127.3 132.6 141.6 149.8 168.2 190.1 192.6 184.1 170.5 176.9 180.2 183.4 183.1 174 169.3 168.7 173.7 177.8 180.5 183.8 187.4 191.2 187.2 187.2 192.9 197.4 194 198.3 206.8 213.5 215.5 214 213.2 206.3 199.5 191.1 184.6 179.5 179.5 175.2 173.8 169.8 166.7 161.5 156.6 154.6 153.1 156.3 162.1 169.8 179.1 188.6 200 216.9 228.3 216.1 195.4 183.8 176.8 164 152.2 147.6 139.3 128.1 119.9 112 111.7 119.1 133.4 128.4
-0.3 -0.3 -0.3 -0.3 -0.3 -0.3 -0.3 -0.3 -0.3 -0.3 -0.3 -0.3 -0.3 -0.3 -0.3 -0.3 -0.3 -0.3 -0.3 -0.3 -0.3 -0.3 -0.3 -0.3 -0.3 -0.3 -0.3 -0.3 -0.3 -0.3 -0.3 -0.3 -0.3 -0.3 -0.3 -0.3 -0.3 -0.3 -0.3 -0.3 -0.3 -0.3 -0.3 -0.3 -0.3 -0.3 -0.3 -0.3 -0.3 -0.3 -0.3 -0.3 -0.3 -0.3 -0.3 -0.3 -0.3 -0.3 -0.3 -0.3 -0.3 -0.3 -0.3 -0.3 -0.3 -0.3 -0.3 -0.3 -0.3 -0.3 -0.3 3.4 12.8 36.1 44.9 55.4 58.8 59.5 61.3 69.6 64.4 53.4 52.4 41.7 40.9 18.7 16 14.5 6.5 5 5.3 5.4 4.8 12.4 35.4 33.4 73 81.5 93.5 125 135.4 135.9 126.5 107.9 95 94.9 93.8 110.4 122.5 124.5 134.7 131.1 128.3 126 132.6 151.6 152.3 166.2 169.7 172.1 173.7 167.6 154.8 144.1 144 135.7 142.2 149.8 137.8 122.4 122.6 130.7 135.4 139.2 174.2 184.2 181.2 174.6 166.2 171.3 174.4 177 178.9 178.2 172.8 172.9 173.9 176.7 182 185.9 191.3 190.3 187.2 187.2 192.5 198.1 194.9 195.3 204.1 212.3 219.1 220.6 214.5 206.3 201.3 190.1 183.9 182 181.5 179.6 177.7 174.7 170.4 162.9 158.1 155.6 151 155.1 160.3 167.3 175.4 185.1 200 217.3 221.2 207.6 195.2 182.8 176.1 163.7 155.7 148.8 139.5 127.5 114.7 111.7 110.5 117.7 129.2 127
-0.3 -0.3 -0.3 -0.3 -0.3 -0.3 -0.3 -0.3 -0.3 -0.3 -0.3 -0.3 -0.3 -0.3 -0.3 -0.3 -0.3 -0.3 -0.3 -0.3 -0.3 -0.3 -0.3 -0.3 -0.3 -0.3 -0.3 -0.3 -0.3 -0.3 -0.3 -0.3 -0.3 -0.3 -0.3 -0.3 -0.3 -0.3 -0.3 -0.3 -0.3 -0.3 -0.3 -0.3 -0.3 -0.3 -0.3 -0.3 -0.3 -0.3 -0.3 -0.3 -0.3 -0.3 -0.3 -0.3 -0.3 -0.3 -0.3 -0.3 -0.3 -0.3 -0.3 -0.3 -0.3 -0.3 -0.3 -0.3 -0.3 -0.3 -0.3 3.3 6 37.4 44.8 52 55.5 52.1 61.2 66.3 54.2 44.1 49.7 35.7 31.2 21.1 14.8 13 7.7 6.2 5.2 3.9 6.4 22.8 30 34 68.5 88 96.8 128.3 139.2 134.3 125.6 104.5 97.9 98.7 112.6 126.1 129.7 139.5 147.2 133 127.8 126.1 143.1 149.7 150 158.9 169 173.7 176.2 162.9 151.8 145.5 145.6 137.4 146.5 152.6 145.7 133.6 128.6 132.6 134.3 136.7 166.9 178.3 175.7 168 162.5 170.3 174.6 177.1 179 176.6 175.6 187.3 181.4 177.7 180.3 187.4 193.4 187.2 187.2 187.2 188.4 196 195.9 195.9 198.3 211.7 220.1 220.6 216.6 206.2 197.6 190.4 184.6 183.2 181.8 179.1 177.7 175.5 168 163.5 157.5 154.4 148.5 151.9 155.7 162.4 170.6 180.3 195.2 212.3 211 204.3 194.4 176.2 172.2 168 158 147 137.5 122.4 115.3 111.1 110 113.8 123.7 122.8
-0.3 -0.3 -0.3 -0.3 -0.3 -0.3 -0.3 -0.3 -0.3 -0.3 -0.3 -0.3 -0.3 -0.3 -0.3 -0.3 -0.3 -0.3 -0.3 -0.3 -0.3 -0.3 -0.3 -0.3 -0.3 -0.3 -0.3 -0.3 -0.3 -0.3 -0.3 -0.3 -0.3 -0.3 -0.3 -0.3 -0.3 -0.3 -0.3 -0.3 -0.3 -0.3 -0.3 -0.3 -0.3 -0.3 -0.3 -0.3 -0.3 -0.3 -0.3 -0.3 -0.3 -0.3 -0.3 -0.3 -0.3 -0.3 -0.3 -0.3 -0.3 -0.3 -0.3 -0.3 -0.3 -0.3 -0.3 -0.3 -0.3 -0.3 -0.3 1.8 6.4 29.7 42.3 42.5 48.4 43.7 57.2 62.7 48 40.7 37.7 34.8 32.6 24.1 13.6 10.4 6.3 4.9 5.7 5.9 10.2 25 29.4 36.4 66.6 85.5 96.4 127.3 131.3 131.2 109.5 103.4 105.2 117.2 127 136.2 150.7 156.6 148.2 139.1 133.5 144.7 157.7 156.1 155 161.6 165.1 176.5 178.1 159.1 146.4 147 149.2 150 164.2 155.2 147.8 136.6 131.5 131 132.7 136.5 159.4 173.8 169.2 168 162.9 171.4 176.6 173.9 173.5 174.4 180.6 187.8 184.2 180.3 181.1 189.6 196.5 193.1 187.2 187.2 187.5 195.6 196.8 199.5 205.2 209.4 215.6 217.1 213.9 205.3 198 189 184.2 181.5 179.2 177.8 175.7 172.6 166.4 161.1 156.5 152.5 148.6 147.3 151.1 157.7 165.2 175.2 186.1 208.9 205.4 201.3 190.7 175.4 172.8 170 157.6 144.9 136.9 118.4 114.8 110.9 110.1 114.2 117.5 114.1
-0.3 -0.3 -0.3 -0.3 -0.3 -0.3 -0.3 -0.3 -0.3 -0.3 -0.3 -0.3 -0.3 -0.3 -0.3 -0.3 -0.3 -0.3 -0.3 -0.3 -0.3 -0.3 -0.3 -0.3 -0.3 -0.3 -0.3 -0.3 -0.3 -0.3 -0.3 -0.3 -0.3 -0.3 -0.3 -0.3 -0.3 -0.3 -0.3 -0.3 -0.3 -0.3 -0.3 -0.3 -0.3 -0.3 -0.3 -0.3 -0.3 -0.3 -0.3 -0.3 -0.3 -0.3 -0.3 -0.3 -0.3 -0.3 -0.3 -0.3 -0.3 -0.3 -0.3 -0.3 -0.3 -0.3 -0.3 -0.3 -0.3 -0.3 -0.3 4.3 6.7 13.9 30.9 35.9 37.1 42.2 49.9 45.8 47.2 35.8 37.7 35.2 30.7 22.6 10.8 6.7 7.6 7.3 7.4 8.2 23 30.7 32.7 34.5 71.5 82 89.7 118 115.6 112.6 110.2 111 122 128.4 132.6 152.4 157.5 159.4 150.2 144.6 149.4 169.3 170.6 172.6 167.9 165.3 166 176.5 168.1 147.2 142.6 142.6 142.6 165.6 164.2 157.1 150.2 136 131.1 130.6 131.4 135.1 174.3 173.5 167.7 164.4 160.6 169.6 170.5 170.3 171.7 172.8 176.9 183.5 182.3 184.7 187.9 189.3 195 192.7 187.2 187.2 187.2 197 199.2 203.9 209.9 211.1 215.5 216.3 214.1 203.3 199 191.2 185.8 181.3 181.3 179.1 174.7 169.5 163.7 159.2 154.3 149.3 146 141.9 145.3 151.4 158.9 167.5 183.3 200.3 196.9 191.5 183.9 179.9 172.5 167.4 153.6 143.7 136 119.8 111.6 108.8 113.3 113.4 114.3 105.3
-0.3 -0.3 -0.3 -0.3 -0.3 -0.3 -0.3 -0.3 -0.3 -0.3 -0.3 -0.3 -0.3 -0.3 -0.3 -0.3 -0.3 -0.3 -0.3 -0.3 -0.3 -0.3 -0.3 -0.3 -0.3 -0.3 -0.3 -0.3 -0.3 -0.3 -0.3 -0.3 -0.3 -0.3 -0.3 -0.3 -0.3 -0.3 -0.3 -0.3 -0.3 -0.3 -0.3 -0.3 -0.3 -0.3 -0.3 -0.3 -0.3 -0.3 -0.3 -0.3 -0.3 -0.3 -0.3 -0.3 -0.3 -0.3 -0.3 -0.3 -0.3 -0.3 -0.3 -0.3 -0.3 -0.3 -0.3 -0.3 -0.3 -0.3 -0.3 -0.3 7.3 12.7 21.8 30.4 28.9 33.6 38.3 36.8 34.8 35.1 36.5 31 29.8 32.2 16.6 7.3 8.1 8 7.9 11.6 30.9 33.7 34.2 34.5 60.5 71.8 80.8 103 108.1 110 108.1 122.2 133.3 135.7 136.7 156.3 163 152.6 153.7 169.5 187.6 178.2 179 177.6 179.3 168.8 163.6 167.4 155.7 142.6 142.6 142.6 142.6 164 162.3 157.2 151.4 136.3 129.8 128.8 131.4 137.7 180.6 184.4 169.8 162 158 167 166.2 169.5 171.3 172.4 175.3 178.7 182.2 192.9 196.5 196.2 192.4 187.2 187.2 187.2 187.2 200.3 203.8 207.7 214 214.7 216.7 216.4 213.4 206.4 201 194.7 186.1 183.7 182 178.6 175 169.9 164.5 161.1 156.7 150.1 144.1 141.8 141.7 144.6 151.5 159.9 171.5 191.3 186.6 182.8 180.5 180.9 168.1 161.7 149.6 144.7 140.1 126.3 110.4 107.8 113.2 112.1 112.1 102.7
-0.3 -0.3 -0.3 -0.3 -0.3 -0.3 -0.3 -0.3 -0.3 -0.3 -0.3 -0.3 -0.3 -0.3 -0.3 -0.3 -0.3 -0.3 -0.3 -0.3 -0.3 -0.3 -0.3 -0.3 -0.3 -0.3 -0.3 -0.3 -0.3 -0.3 -0.3 -0.3 -0.3 -0.3 -0.3 -0.3 -0.3 -0.3 -0.3 -0.3 -0.3 -0.3 -0.3 -0.3 -0.3 -0.3 -0.3 -0.3 -0.3 -0.3 -0.3 -0.3 -0.3 -0.3 -0.3 -0.3 -0.3 -0.3 -0.3 -0.3 -0.3 -0.3 -0.3 -0.3 -0.3 -0.3 -0.3 -0.3 -0.3 -0.3 -0.3 -0.3 2 9.6 21.9 22.6 21.3 23.7 33.2 32 34.3 36.3 37.8 41.9 38.7 31.7 17.4 7.9 9.7 8.6 8.9 25.9 34.7 35 34.1 34.6 50.3 71.2 75.8 90.9 105.3 121.2 125.6 135.5 140.7 141.7 144 157 157.5 177.9 197.3 197.7 194.6 191.8 190.4 186.2 182.5 184.3 169.7 157.3 144.2 142.6 142.6 142.6 142.8 156.8 154.3 160.7 153.9 140.9 128.6 126.9 129.4 139.8 178.3 186.4 179.1 165.2 153.5 158.5 161.8 167.3 172.8 172.2 173 176.8 186.9 195.2 198.8 201.9 198.8 187.2 187.2 187.2 187.2 200 208.8 213.7 222.1 221 218.1 216.9 215.7 205.3 200.4 190.6 185.5 183.5 181.8 177.7 174.5 168.1 164.3 162.7 157.5 151.5 143 141 138.2 141 145.7 154.8 168.7 176.7 177 177.1 178.8 181.6 169.1 160.5 144.4 143.8 137.2 121.9 110.4 109 112.8 111.1 108.2 104.9
-0.3 -0.3 -0.3 -0.3 -0.3 -0.3 -0.3 -0.3 -0.3 -0.3 -0.3 -0.3 -0.3 -0.3 -0.3 -0.3 -0.3 -0.3 -0.3 -0.3 -0.3 -0.3 -0.3 -0.3 -0.3 -0.3 -0.3 -0.3 -0.3 -0.3 -0.3 -0.3 -0.3 -0.3 -0.3 -0.3 -0.3 -0.3 -0.3 -0.3 -0.3 -0.3 -0.3 -0.3 -0.3 -0.3 -0.3 -0.3 -0.3 -0.3 -0.3 -0.3 -0.3 -0.3 -0.3 -0.3 -0.3 -0.3 -0.3 -0.3 -0.3 -0.3 -0.3 -0.3 -0.3 5.4 -0.3 -0.3 -0.3 -0.3 0.8 1.3 4.1 9.8 19.3 21.2 22.2 21.1 28.7 34.1 40.6 41.8 44.1 51.5 53 34.7 19.2 10.6 11.3 11.9 9.7 31.2 32 30.8 33.7 34.3 48 61 68.2 91.3 110.9 129.3 134.4 141.8 144.9 146.8 143.3 146.6 153.9 197.6 205.1 199.8 203 197.4 187.3 188.5 193 187.6 169.8 164.4 151.8 142.6 142.6 142.6 142.6 147.2 145.1 154.7 154.3 143.2 132.7 125.1 128.7 138.8 170.5 190 181.3 162.7 146.1 147.9 156.6 167.1 170.1 170.8 176.1 180 189.7 197.2 200.5 203.8 196.6 191.2 187.2 187.2 187.6 207.6 218.7 223.4 227.6 226.3 218.8 216.4 212.5 197.1 192.3 189.4 185.4 183.7 180.7 177.5 174.3 166.3 163.8 160.9 156.4 151.4 140.5 139.1 137.8 140.2 142.3 149.7 163.5 170.3 172.7 173.9 176.4 177.7 168.6 153.3 141.5 136.7 126.7 116 110.1 108.3 112.2 109.1 105.6 99.6
-0.3 -0.3 -0.3 -0.3 -0.3 -0.3 -0.3 -0.3 -0.3 -0.3 -0.3 -0.3 -0.3 -0.3 -0.3 -0.3 -0.3 -0.3 -0.3 -0.3 -0.3 -0.3 -0.3 -0.3 -0.3 -0.3 -0.3 -0.3 -0.3 -0.3 -0.3 -0.3 -0.3 -0.3 -0.3 -0.3 -0.3 -0.3 -0.3 -0.3 -0.3 -0.3 -0.3 -0.3 -0.3 -0.3 -0.3 -0.3 -0.3 -0.3 -0.3 -0.3 -0.3 -0.3 -0.3 -0.3 -0.3 -0.3 -0.3 -0.3 -0.3 -0.3 -0.3 3.2 3.3 4.6 4.5 6.3 1.6 2.8 3 6.2 9.8 13 18.2 20.6 23.9 21.5 25.8 35.6 50.3 43.9 52.1 57.7 49.2 34.6 20.4 12.3 11.8 11.7 22 31.2 29 33.5 33.6 33.5 49.9 60.1 66.8 85.4 112.1 132.7 143.4 140.9 152.1 150.5 136.4 135.2 149.4 196.3 201.2 199.9 202.5 192.2 187.5 185.6 187.5 183.1 173.1 162.6 153.7 147.1 142.6 142.6 142.6 142.6 147.7 149.9 148.3 141.2 134.6 126.1 126.7 140.7 161.9 176.1 169.2 153.3 141.4 145.3 156.4 163.2 167.4 171.7 174.6 189.5 195.4 198.9 200.4 202.4 198.1 199.3 190.8 187.2 191.8 212.3 223 231.8 233.2 230.3 222.2 213.3 206.2 192.5 188 186.8 183.7 182.8 181.3 180.3 168.9 166 163.8 161 157.1 147.5 138.4 137.9 136.7 138.8 140.7 147.6 154.1 163.2 166.8 168.2 175.5 173.2 161.5 151.6 137.3 131.5 121 114.5 109.9 111.6 113.3 110.9 107.8 102.4
-0.3 -0.3 -0.3 -0.3 -0.3 -0.3 -0.3 -0.3 -0.3 -0.3 -0.3 -0.3 -0.3 -0.3 -0.3 -0.3 -0.3 -0.3 -0.3 -0.3 -0.3 -0.3 -0.3 -0.3 -0.3 -0.3 -0.3 -0.3 -0.3 -0.3 -0.3 -0.3 -0.3 -0.3 -0.3 -0.3 -0.3 -0.3 -0.3 -0.3 -0.3 -0.3 -0.3 -0.3 -0.3 -0.3 -0.3 -0.3 -0.3 -0.3 -0.3 -0.3 -0.3 -0.3 -0.3 -0.3 -0.3 -0.3 -0.3 -0.3 -0.3 4.6 3.5 6.2 7.2 7.1 12.9 6.7 1 5.6 6.9 7.9 13.1 24.8 20 22.3 24.3 26.3 26.9 39.8 51 59.1 56.8 64.3 59.5 37.4 22 14.7 13.8 12.1 24.1 25.7 29 30.8 29.1 35.6 42.4 48.3 57.5 74.2 103.6 129.7 140.5 138.3 151.4 134.7 131.5 129.4 150.4 194 194.9 195.9 192.3 184.2 173.3 179 181.9 177.9 178.2 168.6 160.8 150 142.6 142.6 142.6 142.6 143.4 144.6 142.5 136.9 131.4 126 123.2 136.7 160 157.9 159.6 140.7 135.7 145.4 154.6 163.9 165.5 171.8 175.2 189.9 199.5 202.7 202.4 203.1 199.9 200.7 202.3 194 196.4 210.2 229.7 233.7 233 230 220.2 211.4 198.9 188.3 184.2 184.1 181.6 180.6 180.1 176.9 167.9 166 164.4 162.9 157.8 146.7 137.6 137.2 136.2 138.3 140.5 141.2 147.6 151 155.9 161.3 168.7 168.5 156.8 145.4 132.5 124.3 116.7 114.2 110.9 112.5 115 113.5 111.2 105.1
-0.3 -0.3 -0.3 -0.3 -0.3 -0.3 -0.3 -0.3 -0.3 -0.3 -0.3 -0.3 -0.3 -0.3 -0.3 -0.3 -0.3 -0.3 -0.3 -0.3 -0.3 -0.3 -0.3 -0.3 -0.3 -0.3 -0.3 -0.3 -0.3 -0.3 -0.3 -0.3 -0.3 -0.3 -0.3 -0.3 -0.3 -0.3 -0.3 -0.3 -0.3 -0.3 -0.3 -0.3 -0.3 -0.3 -0.3 -0.3 -0.3 -0.3 -0.3 -0.3 -0.3 -0.3 -0.3 -0.3 -0.3 -0.3 -0.3 -0.3 -0.3 22.5 16.9 12.5 15.5 29.8 17.7 9 4.7 7.3 9.2 25.6 29.4 27.2 24.7 29.9 26.9 29.8 30.5 35.9 50.5 60.7 65.2 71.6 60.8 39 26.6 12.8 12.8 12.4 10.8 22.7 26.4 29.8 26 31.2 39 42.8 47.2 61.5 89 114.1 135 133.6 131.3 131.8 126.1 126 159.2 179.9 187.1 185.1 172.9 176.7 170.1 171.8 177.7 170 171.5 173.4 163.9 160.3 150.1 144.2 142.6 142.6 144.4 140.6 135.7 130.2 126.5 121.7 121.3 131.3 150.3 145.4 147.1 132.5 132.6 148 153.5 160.2 166.1 171.2 173.9 182.6 198.8 203.9 205.3 211.9 209.9 212.2 210.1 206.7 210.1 209.6 230.6 234.5 234.2 228.2 220.9 209.1 193.6 183.7 181.9 181.8 178.9 178 176.8 173.8 168.2 167.4 165.6 164.8 158.3 150.9 138.6 136.4 137 138.4 139.6 139.7 141.4 140.9 143.4 154.2 161.3 161.9 154.7 137.7 126 118.4 115.6 112.7 107.7 114.7 117.2 115.4 113.2 106.1
-0.3 -0.3 -0.3 -0.3 -0.3 -0.3 -0.3 -0.3 -0.3 -0.3 -0.3 -0.3 -0.3 -0.3 -0.3 -0.3 -0.3 -0.3 -0.3 -0.3 -0.3 -0.3 -0.3 -0.3 -0.3 -0.3 -0.3 -0.3 -0.3 -0.3 -0.3 -0.3 -0.3 -0.3 -0.3 -0.3 -0.3 -0.3 -0.3 -0.3 -0.3 -0.3 -0.3 -0.3 -0.3 -0.3 -0.3 -0.3 -0.3 -0.3 -0.3 -0.3 -0.3 -0.3 -0.3 4.3 -0.3 -0.3 -0.3 -0.3 4 18.6 25 27.8 29.1 30.9 17.7 12.3 10.1 16.6 20.9 28.9 32.1 28.9 37.9 40.2 36.9 34.1 35.2 38.5 50.4 65.6 75.1 76.9 65.4 46.7 27.9 16.9 12.8 12.3 11.1 17.6 29.3 30 24.8 25 36 38.4 44 54.4 75.3 99.9 107.3 124 115.6 117.5 120.4 122.1 150.8 160.7 170.7 170.4 164.9 155.5 157 159.7 157.7 149.8 163.7 165 164.3 163.6 156.1 156 149.4 148.3 146.4 138.3 129.8 124.9 122.4 119.6 120.5 126.1 139.5 136.2 132.8 127.5 133 152.7 157.2 153.5 160 169.3 171.7 179.4 197.9 204.5 211.9 218.3 218.2 221.9 220.3 217.2 218.1 214.9 223.9 230.8 231.6 226.4 217.6 206.6 191.7 180.2 178.9 178.8 175.5 175.1 174.7 166.8 166.8 167.7 167.8 169.1 163.6 146.4 138.4 136.1 136 137.9 137.6 137.6 137.4 135.8 137.2 140.6 153 153 145.2 127.5 121.2 118.4 115.9 112.9 107.5 115.3 119.1 118.3 114.5 99.3
-0.3 -0.3 -0.3 -0.3 -0.3 -0.3 -0.3 -0.3 -0.3 -0.3 -0.3 -0.3 -0.3 -0.3 -0.3 -0.3 -0.3 -0.3 -0.3 -0.3 -0.3 -0.3 -0.3 -0.3 -0.3 -0.3 -0.3 -0.3 -0.3 -0.3 -0.3 -0.3 -0.3 -0.3 -0.3 -0.3 -0.3 -0.3 -0.3 -0.3 -0.3 -0.3 -0.3 -0.3 -0.3 -0.3 -0.3 -0.3 -0.3 -0.3 -0.3 -0.3 -0.3 -0.3 -0.3 4.9 6.3 4.4 4.3 4.2 25.8 24.2 26.5 39.4 38.3 26.8 27.1 24.7 18.8 23.4 37.6 39.9 40.3 46.8 49 50.5 45.1 40.3 41.3 46 53 61.3 72.6 82.3 72.6 51.6 26.6 15.8 12.8 11.9 12.1 20.4 32.5 23.6 22.4 24.1 33 35.5 39 57 65.8 77.6 84.8 103.2 108.4 112.8 107.4 116.3 138.2 145.9 153.6 148.3 153.5 146.2 147 148.9 142.8 137.9 148.8 155.2 156 162.9 157.7 159.7 157.3 157.8 149.5 141.3 123.1 119.2 120.4 117.9 123.6 127.6 133.8 134.2 126.6 122.5 128 150.2 147.2 149.3 155.9 169.9 173.3 184.3 201.2 211.1 218.7 228.2 233.2 225.7 225.8 222.4 225.9 221.7 219.2 226.3 229.5 223.7 213.9 203 190.7 179.1 176.2 175.8 171.5 170.1 169.2 164.7 163.1 165.2 167.9 172.2 161.8 140.2 137.9 136.3 135.2 136.4 135.3 134.6 133.3 131.5 132.3 134.3 141.8 142.1 137.8 120.6 119.4 119.3 119.3 109.3 105.9 115.4 117.3 120.1 112.7 92.9
-0.3 -0.3 -0.3 -0.3 -0.3 -0.3 -0.3 -0.3 -0.3 -0.3 -0.3 -0.3 -0.3 -0.3 -0.3 -0.3 -0.3 -0.3 -0.3 -0.3 -0.3 -0.3 -0.3 -0.3 -0.3 -0.3 -0.3 -0.3 -0.3 -0.3 -0.3 -0.3 -0.3 -0.3 -0.3 -0.3 -0.3 -0.3 -0.3 -0.3 -0.3 -0.3 -0.3 -0.3 -0.3 -0.3 -0.3 -0.3 -0.3 -0.3 -0.3 -0.3 -0.3 -0.3 4.8 36.4 35.5 8.6 16.4 32.1 34.7 28.4 36.9 41.8 40.6 38.8 33.9 22.9 21.9 35.2 41 47.1 60.3 61.5 57.9 54.2 51.1 57.1 54.9 57.4 54.5 64.6 68.8 83.7 69.6 50.9 29 19.1 13.7 12.2 12.9 26.9 28.4 22.6 21 23 23.8 31.3 34.7 51.8 60.2 65 70.5 86.8 95.6 94.8 97 110.9 127.1 136.5 134.3 134.4 133.8 134 136.9 135.9 128.3 127.3 144.1 148.9 158.4 161.3 158 155.1 156.6 165.7 148.5 135.2 120.7 117.1 118.5 119.3 121.9 125.5 128 136.7 126.8 120.5 121.8 135.9 139.7 147.4 165.7 180 184.9 193.1 211 222.7 225.5 233 240.1 232.9 230.2 230.3 232.9 225.4 220.1 222.5 223.7 217.2 206.3 198.7 184.3 178.2 175.3 171.8 167.5 166 163.5 160.2 159.3 161.2 164.3 170.6 160.4 137.3 136.2 134.4 135.1 134.6 132.6 131.5 128.3 126.6 126.2 127.2 133.4 128.3 121.5 117.3 115.6 117.6 113.2 104.3 103 116.2 116.9 123.3 108.1 81.8
-0.3 -0.3 -0.3 -0.3 -0.3 -0.3 -0.3 -0.3 -0.3 -0.3 -0.3 -0.3 -0.3 -0.3 -0.3 -0.3 -0.3 -0.3 -0.3 -0.3 -0.3 -0.3 -0.3 -0.3 -0.3 -0.3 -0.3 -0.3 -0.3 -0.3 -0.3 -0.3 -0.3 -0.3 -0.3 -0.3 -0.3 -0.3 -0.3 -0.3 -0.3 -0.3 -0.3 -0.3 -0.3 -0.3 -0.3 -0.3 -0.3 -0.3 -0.3 -0.3 -0.3 31.7 61.7 32.6 50.8 26.5 41.7 51.2 42.6 35.1 42.2 41.5 43 38.1 30.9 23.4 28.9 40.4 52.9 68.2 71.7 73.2 68.9 66.1 58.9 73.4 76.4 67.3 61.2 70.5 68.5 64.3 57.5 50.1 35.9 23.1 14.3 13.6 18.9 23.4 22.9 19.5 20.8 21.4 21.8 24.5 32.5 41.6 58.9 63.2 76 80.4 92 82.6 98.7 109.2 116.2 126.6 119.2 121.2 114.2 122.2 119.8 112.2 117.4 127.1 144.3 155.9 157.7 159.3 155.1 155.1 156.1 163.4 157.2 133 122.5 116.5 116.7 117.9 117.8 124.6 122.6 132.8 126.5 120.6 119.4 125.6 135.7 150.7 181.4 188.2 188.2 195.4 213.7 230.6 239.3 245.2 243.4 238.7 233.3 235.3 234.9 227.5 219.3 216 213.9 210.9 203.7 192.5 184.4 179.5 175.1 170.9 166 161.2 159.3 156.6 156.7 157.3 157.8 156 147.3 134.6 133.9 134.1 135.4 133 129.8 129 123.7 121.9 122.7 125 126.6 124.7 116.6 112.9 108.5 109.7 106.8 101.3 104.8 115.6 115.5 117.7 100.4 70.2
-0.3 -0.3 -0.3 -0.3 -0.3 -0.3 -0.3 -0.3 -0.3 -0.3 -0.3 -0.3 -0.3 -0.3 -0.3 -0.3 -0.3 -0.3 -0.3 -0.3 -0.3 -0.3 -0.3 -0.3 -0.3 -0.3 -0.3 -0.3 -0.3 -0.3 -0.3 -0.3 -0.3 -0.3 -0.3 -0.3 -0.3 -0.3 -0.3 -0.3 -0.3 -0.3 -0.3 -0.3 -0.3 -0.3 -0.3 -0.3 -0.3 -0.3 -0.3 -0.3 6.2 73.5 66.6 64.1 55.2 51.9 60.5 55.9 48.4 50.2 45.3 41 46.4 36.8 30 28.3 33 44.1 64.2 77.3 81.1 89.4 83.1 77.5 81.7 95.7 86.2 80.5 70.9 65 64.1 56.5 54.9 52.4 38.3 25.4 17.3 14.1 20.8 16.7 17.4 17.5 18.8 19.5 20.8 22.8 31.8 40.1 49.2 63.7 70.5 73.8 72.6 77 104.4 106.6 108.9 113.6 103 101.4 101 98.5 92.7 95.9 106.4 124.9 144.3 154.2 158 158.1 155.1 157.3 160.1 163.6 152.4 136.7 125.6 120.8 117.2 116.4 116.4 120.5 117.7 115.7 115.7 115.7 116 120.3 134.7 166 185.1 189.2 188.2 194 215.6 234.7 241.9 250.1 250.8 246.1 243 237.9 235.5 228.5 219.4 212.3 210.2 208 200.7 190.6 184.4 181.8 173.6 168.7 164.6 161.6 156.1 153 154.6 154.6 153.7 150.1 141.6 132.7 132.2 135.5 138.7 132.5 128.1 124.1 119.9 118.3 118.9 121.4 126.8 125.8 116.1 108.3 103.2 102.9 99.8 97.2 107.7 111.8 112.4 104.5 81.6 62
-0.3 -0.3 -0.3 -0.3 -0.3 -0.3 -0.3 -0.3 -0.3 -0.3 -0.3 -0.3 -0.3 -0.3 -0.3 -0.3 -0.3 -0.3 -0.3 -0.3 -0.3 -0.3 -0.3 -0.3 -0.3 -0.3 -0.3 -0.3 -0.3 -0.3 -0.3 -0.3 -0.3 -0.3 -0.3 -0.3 -0.3 -0.3 -0.3 -0.3 -0.3 -0.3 -0.3 -0.3 -0.3 -0.3 -0.3 -0.3 -0.3 -0.3 -0.3 -0.3 6.4 77.5 72.6 70.2 67.9 70.5 65.6 62.6 57.4 51.6 42 46.2 49.6 37.1 33.7 32.4 42.7 59.5 76.2 83.5 92.9 93.3 88.8 88 96.7 102.6 92.2 97.6 86.6 74.7 71.7 58.5 55.7 57.6 55.4 35.9 26.7 14 14.7 17 18.1 18.7 19.4 19.7 21.1 23.5 36.1 40.7 43.2 51.8 57.8 71.6 65.3 77.7 96.6 102.5 107.4 99.5 88.4 84.7 87 81.6 82.6 88.9 100.9 123 142.9 152.2 158.6 156.9 156.6 161.1 164.2 163.7 156.2 135.2 125.5 122.3 119.4 116.7 116.7 116.1 115.7 115.7 115.7 115.7 115.7 116.7 136.1 165.3 184.7 190.4 193.5 195.4 218.1 233.1 243.3 254.5 254.9 255.2 253.6 244.9 238.6 233.8 219.6 210.7 208.2 206.8 200.9 195.4 186.3 180.5 172.6 168.9 162.1 160.2 153.9 150.5 152.6 153.3 152.3 147.5 137.3 130 133.6 138.7 139.6 135.6 128.5 125.5 119.9 116.6 115.8 116.2 130.9 122.5 117.1 107 98.2 94.8 93.5 98.1 102.8 109 107 93 69.1 47.7
-0.3 -0.3 -0.3 -0.3 -0.3 -0.3 -0.3 -0.3 -0.3 -0.3 -0.3 -0.3 -0.3 -0.3 -0.3 -0.3 -0.3 -0.3 -0.3 -0.3 -0.3 -0.3 -0.3 -0.3 -0.3 -0.3 -0.3 -0.3 -0.3 -0.3 -0.3 -0.3 -0.3 -0.3 -0.3 -0.3 -0.3 -0.3 -0.3 -0.3 -0.3 -0.3 -0.3 -0.3 -0.3 -0.3 -0.3 -0.3 -0.3 -0.3 -0.3 5.5 14.8 75.7 74.1 73.7 63.7 71.2 67.5 66.6 55.4 54.6 48.2 47.5 46.5 36.7 38.1 42.1 46.1 74.7 84 94.2 97.5 100.1 99.4 98.3 108 111.1 111.9 112.5 104.5 97.5 91.6 85.6 72.2 72.1 55.2 40.8 29.1 17.5 19.1 19.2 19.4 19.5 20.4 20.8 22.4 22.7 33.6 39.7 43.2 46 53.7 58.4 58.4 79.5 90.2 98.9 95.4 88.3 79.6 79.8 78.9 73.6 77.3 87.7 104.1 121.7 135.8 150 162.7 153.9 157.3 162.7 162.4 167.2 155.9 137.8 126.7 123.2 123.1 118.2 119.4 122.2 115.7 115.7 115.7 115.7 115.7 115.9 129.2 158.7 181.8 195.9 199.4 197.8 213.9 232.9 245.4 259.8 259.9 259 256.8 245.5 239.6 233.4 218.8 208.2 207.4 205.9 205.6 197.8 190.5 184.7 173.2 165.8 160.4 158.6 153.8 148.6 151.7 153.6 152.1 145.7 135.3 130.5 133.7 139.1 137.3 135.9 132.7 126.8 121.8 115.8 113.2 113.4 130.2 123.9 118 109.9 98.5 92.7 88.7 94.1 98.7 104 96.6 79.7 58.4 49.2
-0.3 -0.3 -0.3 -0.3 -0.3 -0.3 -0.3 -0.3 -0.3 -0.3 -0.3 -0.3 -0.3 -0.3 -0.3 -0.3 -0.3 -0.3 -0.3 -0.3 -0.3 -0.3 -0.3 -0.3 -0.3 -0.3 -0.3 -0.3 -0.3 -0.3 -0.3 -0.3 -0.3 -0.3 -0.3 -0.3 -0.3 -0.3 -0.3 -0.3 -0.3 -0.3 -0.3 -0.3 -0.3 -0.3 -0.3 -0.3 -0.3 -0.3 -0.3 12.7 67.7 71.9 72.5 69.7 72.4 84.9 74.6 67.7 62.2 60.6 55.6 46.1 40.7 42.6 44.5 46.9 59.6 86.5 87.9 96.2 99.5 106.3 102.6 119.6 120.9 119.6 120.3 133.4 131.7 123.7 111.8 104.5 90.3 76.3 55.8 44.2 38.8 26.8 24.7 23.7 21.9 21.1 22.4 26.5 22.8 23.9 33.2 39.6 45 51.7 53.7 47.8 67.2 77.9 83.4 92.5 87.2 80.3 77.2 82 69.9 69.7 80.2 88.4 105.7 118.5 131.7 142 149 153.8 157.8 159.3 161.1 171.8 162.4 143.5 128.8 125.3 124.1 119.3 125.6 134.8 127.1 122 115.7 115.7 115.7 115.7 128.2 146.4 179.7 195.1 198.4 197.8 214.9 233.3 245.6 264.4 265.1 263.2 262 247.8 239.5 234.9 223.2 208.2 204.8 207 201.7 197.6 192.3 187.8 178.8 165.4 160.7 157.1 152.1 148.1 151.2 154.1 152 147.7 134.5 128.3 133.2 137.3 135.6 133.4 134.2 130.7 119.9 115.1 110.9 110.6 122.4 126.5 121.1 109.7 96.6 90.1 80.8 88.2 92.4 95.8 86.7 68.9 49.3 50.3
-0.3 -0.3 -0.3 -0.3 -0.3 -0.3 -0.3 -0.3 -0.3 -0.3 -0.3 -0.3 -0.3 -0.3 -0.3 -0.3 -0.3 -0.3 -0.3 -0.3 -0.3 -0.3 -0.3 -0.3 -0.3 -0.3 -0.3 -0.3 -0.3 -0.3 -0.3 -0.3 -0.3 -0.3 -0.3 -0.3 -0.3 -0.3 -0.3 -0.3 -0.3 -0.3 -0.3 -0.3 -0.3 -0.3 -0.3 -0.3 -0.3 -0.3 5 13.7 70 73.9 71 71.9 92.3 80.7 76.4 70.5 63.2 66.2 53.2 45.3 41.6 43.6 48.1 46.6 75.5 91.7 104 108.5 108.9 108.3 112.2 128 132.8 144.7 154.2 156 149.5 138.7 129.8 123.5 106.9 85.3 60.5 50.1 38.3 34.4 33.2 34.5 28.1 29.2 41 40.1 26.2 24.1 41.6 43.4 50.1 51.9 42.5 41.1 70.4 76.6 82.2 80 77 73.6 84.3 75.5 66.8 68.7 77.6 88.2 103.6 117.7 129.6 141 143.8 153.9 157.3 158.1 166.4 171.8 153.4 141.4 131.7 125.7 123.5 122.2 127.1 139.5 145.5 136.1 119.6 115.7 115.7 115.7 128.4 137 168 186.2 193.9 196.9 216.3 232.8 243.8 267.4 267.4 266.7 261.8 247.1 238.3 232.1 222.3 205.3 201.6 210.7 206 198.6 193.9 187.8 178.2 170 158.9 153.9 148 147.2 150.7 154.7 153.1 148.4 133.1 129 129.6 131.9 130.7 129.2 133.1 134 120.2 112.8 103.4 106.9 123.2 126.8 118.9 105.5 94.1 83 82 79.7 85.5 81 74.7 58.6 46 42.4
-0.3 -0.3 -0.3 -0.3 -0.3 -0.3 -0.3 -0.3 -0.3 -0.3 -0.3 -0.3 -0.3 -0.3 -0.3 -0.3 -0.3 -0.3 -0.3 -0.3 -0.3 -0.3 -0.3 -0.3 -0.3 -0.3 -0.3 -0.3 -0.3 -0.3 -0.3 -0.3 -0.3 -0.3 -0.3 -0.3 -0.3 -0.3 -0.3 -0.3 -0.3 -0.3 -0.3 -0.3 -0.3 -0.3 -0.3 -0.3 -0.3 1.1 8.5 52.8 69.3 76.3 72.3 98 89.9 105.9 96.1 74.2 73.1 66.2 50.8 44.7 48 46 46.6 58.6 83.9 100.7 115.4 121.9 121 117.9 126 139.4 145 169.8 176.3 178 180.5 166 147.8 125.9 111 88.2 82.1 65.6 46.4 40.3 37.7 38 48.6 47.3 41 44.8 32.1 26.5 39 41.3 49.9 39.7 37.8 38.2 65.9 82.5 81 74.5 71 71.9 73.9 66.8 66.8 72.2 80 90.6 100 116 126 136.9 146.5 151.6 156.7 157.7 166.8 172.1 151.9 140.9 128.3 126 124.4 124.1 124.7 137 141.8 134 120.2 115.7 115.7 115.7 131.9 139 160.3 180.8 188.2 198.1 219.5 225.5 236.4 259.8 262.2 274.7 264.2 252.4 236.3 230.7 217.6 199.6 199.4 211.8 211 202.4 195.3 185.3 177.7 169.5 160.3 150.1 145.9 146.6 150.9 153.3 153.6 142.2 131.9 128 125.1 124.7 124.5 126.3 129 126.4 120.4 105.8 99.9 103.8 119.4 122.1 113.7 101.6 88.5 76.4 77.5 76 72.8 70.7 58.5 47.4 47.1 38.7
-0.3 -0.3 -0.3 -0.3 -0.3 -0.3 -0.3 -0.3 -0.3 -0.3 -0.3 -0.3 -0.3 -0.3 -0.3 -0.3 -0.3 -0.3 -0.3 -0.3 -0.3 -0.3 -0.3 -0.3 -0.3 -0.3 -0.3 -0.3 -0.3 -0.3 -0.3 -0.3 -0.3 -0.3 -0.3 -0.3 -0.3 -0.3 -0.3 -0.3 -0.3 -0.3 -0.3 -0.3 -0.3 -0.3 -0.3 -0.3 6.7 8.9 49.8 59.7 73.7 77.5 86.7 99.6 115.1 111.3 94.3 76.8 79.1 67.6 49.1 51.9 51.8 50.8 51.8 70.5 85.6 106.3 120 130.2 134.8 129 143.9 150.1 176 184.6 195.1 198.1 194.6 173.4 153 129.8 122.4 111.3 97.8 79.3 60.9 48.2 43.1 50.7 55.7 52.8 62.9 51.5 38.8 33 29.5 36.7 37.3 34.9 36.2 37.6 64.8 79.4 76.7 69.2 70.3 79.3 75.5 66.8 66.8 71.3 79.9 91 101 111.8 124.1 135.8 145.1 150.8 155.1 157.5 162 162.6 145 133.8 128.2 127.1 124.6 124.5 125.6 136 142.3 134.7 120.6 115.7 115.7 115.7 127.8 141.8 154.9 179.3 183.7 196.1 218.6 219.2 231 247.6 264.3 271.7 266 252 233.2 229 213.1 199.9 199.4 206.6 210.8 205.8 197.6 184.3 175.7 165.2 156.7 148.4 145.4 146.2 150.1 151 148 138.1 128.5 124 122 119.4 119.3 121.8 123.1 120.1 118.1 102.6 96.6 102 105.7 115.9 107.3 94.8 80.6 75.3 72.4 73.1 67.1 57.6 50.6 44.1 42.5 28.4
-0.3 -0.3 -0.3 -0.3 -0.3 -0.3 -0.3 -0.3 -0.3 -0.3 -0.3 -0.3 -0.3 -0.3 -0.3 -0.3 -0.3 -0.3 -0.3 -0.3 -0.3 -0.3 -0.3 -0.3 -0.3 -0.3 -0.3 -0.3 -0.3 -0.3 -0.3 -0.3 -0.3 -0.3 -0.3 -0.3 -0.3 -0.3 -0.3 -0.3 -0.3 -0.3 -0.3 -0.3 -0.3 -0.3 -0.3 5 41.4 48.2 51.4 62.3 70 77.5 107.2 124.5 123.3 115.1 87.8 80.9 77.9 67.9 54.5 57.1 61.7 54.4 72.5 85.2 96 107.9 128 140.6 147.1 153 155.8 180.7 196.4 214.2 210.2 208.6 190 175.1 164.1 142.1 130.3 119.4 102.3 87.6 77.9 57.1 49.3 63.4 75.4 70.1 66.4 57.7 48.7 40.2 26.4 28.8 33.4 31.6 33.4 38 66.4 77.1 73.1 67.1 76.1 91.4 71.1 66.8 66.8 69 79.9 89.5 97.4 107.8 121.4 129.8 139.4 146.8 152.9 159.5 158.8 146.5 131.2 127.1 130 124.3 124.8 125.1 125.5 130.4 140.2 129.8 120.6 115.7 115.7 115.7 124.1 144.8 151 172.1 180.5 190.1 207.4 206.4 220.8 236.5 264.7 267.7 261.7 251 232.7 224.1 208.2 199.9 199.4 200.4 207.1 205.2 199.2 186.7 174.8 166.1 154.6 146.6 144.1 146.2 148.6 149.9 143.4 134 123.8 121.3 116.9 116.4 116.5 117.3 116.6 115.7 108.5 99.2 93.4 97.1 95.1 103 99.6 86.8 76.6 70.8 70 70.3 66 50.7 37.4 32.5 21.5 -0.3
-0.3 -0.3 -0.3 -0.3 -0.3 -0.3 -0.3 -0.3 -0.3 -0.3 -0.3 -0.3 -0.3 -0.3 -0.3 -0.3 -0.3 -0.3 -0.3 -0.3 -0.3 -0.3 -0.3 -0.3 -0.3 -0.3 -0.3 -0.3 -0.3 -0.3 -0.3 -0.3 -0.3 -0.3 -0.3 -0.3 -0.3 -0.3 -0.3 -0.3 -0.3 -0.3 -0.3 -0.3 -0.3 -0.3 -0.3 34.4 46.8 52.6 57.9 61.1 68.8 97.8 108 124.3 125.9 105.1 84.1 79.1 78.6 64.2 62.6 64.7 63.8 69.8 88.9 96.6 105.5 117.4 129.6 144.9 149.5 165.2 166.5 198.6 222.5 232.3 222.7 216.1 196.8 172.4 155.8 146.9 133.2 129.4 110.3 106.9 94 65.7 56 70.1 78.9 69 67.5 69.4 51.4 37.8 29 32 31.7 35.7 43.2 38.9 56.3 68.4 66.8 66.6 69.8 78.5 66.8 66.8 66.8 73.5 77.7 89.6 94.3 102.9 119.1 126.6 133.5 139.3 144.1 157.3 151.3 138.6 128.2 126.2 125.4 121.7 124.1 127.1 125.7 127.2 134.2 126 120.5 115.7 115.7 117.5 122.9 134 152.9 164.8 174 187.4 200.3 197.4 212.2 232.9 262.1 268.1 261.7 244 232.4 215.3 212 204.4 199.4 199.4 205 202 194.6 187.9 176.2 161.4 148.5 145.1 144.5 145.3 146.8 146.5 141.2 133 121.8 117.7 114.9 113.6 112.9 113.1 109.3 109.1 105 90.2 88.3 86.7 87.3 92.7 90.1 78.6 72.5 67 67.2 64.8 60.3 44.6 34.5 21.2 -0.3 -0.3
-0.3 -0.3 -0.3 -0.3 -0.3 -0.3 -0.3 -0.3 -0.3 -0.3 -0.3 -0.3 -0.3 -0.3 -0.3 -0.3 -0.3 -0.3 -0.3 -0.3 -0.3 -0.3 -0.3 -0.3 -0.3 -0.3 -0.3 -0.3 -0.3 -0.3 -0.3 -0.3 -0.3 -0.3 -0.3 -0.3 -0.3 -0.3 -0.3 -0.3 -0.3 -0.3 -0.3 -0.3 -0.3 -0.3 3.1 13.1 50.8 52.4 55 58.2 71.9 103 117 125.9 125.2 94.6 80.8 81.3 83.5 66.2 74.3 80.1 68.5 89 100.7 112.1 117.2 126 132.5 137 145.9 164.2 194.8 211.9 235.1 231.1 229.7 215.8 187.5 170.7 155.3 152.9 150.2 145.5 140.6 121.9 107.3 79.5 62.7 71.9 72.4 70.8 66.3 54.2 46.4 40.5 32.7 34 34.6 48.9 61.3 48.4 56 67.7 68.8 68.4 74.3 67.9 66.8 66.8 66.8 76.5 78 83.4 87.6 102.6 114.8 125.2 132.7 137.1 136.9 146.6 144.2 131.7 128.6 127.4 126.6 120 126.6 126.9 124 123.3 126.7 124.6 118.5 119.8 118.2 126.9 128.1 129.7 140 160 165.8 175 189 188.9 211.7 226.5 247.1 260 255.6 238.8 224.4 218.4 214 208.8 199.4 199.4 204.9 199.9 191.6 184 174.6 157.7 147.1 145.1 146 144.3 138.1 141.2 139.2 128.2 117.3 113.6 111.6 108.5 108.5 105.9 103.7 101.2 92.5 85.4 82.2 78.5 79.4 84.8 81.3 78.5 70.6 68 63.2 56.5 57.1 31 24.5 13.1 -0.3 -0.3
-0.3 -0.3 -0.3 -0.3 -0.3 -0.3 -0.3 -0.3 -0.3 -0.3 -0.3 -0.3 -0.3 -0.3 -0.3 -0.3 -0.3 -0.3 -0.3 -0.3 -0.3 -0.3 -0.3 -0.3 -0.3 -0.3 -0.3 -0.3 -0.3 -0.3 -0.3 -0.3 -0.3 -0.3 -0.3 -0.3 -0.3 -0.3 -0.3 -0.3 -0.3 -0.3 -0.3 -0.3 -0.3 -0.3 3.4 9.3 44.3 51.1 50.1 61.4 94.8 105.6 115.9 119.7 100.6 89.8 82.3 89.1 79.4 79.9 83.4 78.9 79.2 97.3 114.4 118.6 127.6 139.6 147.5 147.8 148 174.4 196.4 231.5 235.6 232.1 228.4 216.3 195.4 175.4 159.4 152 151.9 157.2 153.6 133 109.1 84.2 70.1 71.1 73 66.9 55.5 52.3 48.2 38.2 34.3 37.6 49.5 70 63.3 55.8 61.9 67.7 75.9 77.3 66.8 66.8 66.8 66.8 67.5 75.1 81.5 83.7 86.3 99.4 111.8 123.9 135.1 131.6 131.2 136.4 134.5 128 130.8 122.1 124.5 119 125.3 122.7 121 120 123.7 125.1 114.8 122.3 124.1 136.1 138.2 133.2 136.4 143.7 162.7 166 177.5 184 202.7 225.1 241.9 249.8 248 233.3 227.1 225 216.3 209.8 203 200 204.8 199.2 189.5 179 170.7 157.5 148.8 148.9 148.8 148.1 146.1 139.2 133.1 123.7 117 114.3 110.3 106.4 104.8 100.5 98.8 93.5 86.9 83.1 77.5 72.6 72.4 74.2 75.7 78.7 74 65.8 58.3 48.8 40.5 21.5 8.1 -0.3 -0.3 -0.3
-0.3 -0.3 -0.3 -0.3 -0.3 -0.3 -0.3 -0.3 -0.3 -0.3 -0.3 -0.3 -0.3 -0.3 -0.3 -0.3 -0.3 -0.3 -0.3 -0.3 -0.3 -0.3 -0.3 -0.3 -0.3 -0.3 -0.3 -0.3 -0.3 -0.3 -0.3 -0.3 -0.3 -0.3 -0.3 -0.3 -0.3 -0.3 -0.3 -0.3 -0.3 -0.3 -0.3 -0.3 -0.3 -0.3 3.2 9.6 44.4 44.8 54.2 67 91.3 100 106 103.5 101.1 96.3 95 101.2 86.1 91 86.7 81.9 85.1 106.3 121 127 137.9 146.7 155.1 151.9 161.9 174.6 198.7 217.5 230.7 229.6 229 216.6 188.5 169.2 156.6 151.9 156.2 156.5 136.9 125.7 115.5 92.2 71.8 69.6 65.2 58.9 54.6 45.6 40.8 35.3 42.2 57.4 83 78.3 83.9 76.6 59.9 70.9 71 80.7 68.9 66.8 66.8 66.8 69.2 78.7 86.5 80.9 93.4 100.2 105.6 119.9 130.3 129.1 128.4 129.8 124.8 129.2 130.5 121.1 119.7 117.3 126.8 120.2 119.8 115.4 115.3 119.1 116.8 125.2 125.2 140 140.8 144 139.9 141.2 147.4 158.1 165.1 173.6 194.5 217.9 234.8 245.1 239.6 233.2 231.6 223.3 218.9 210.1 206.1 196.7 202.2 197.5 187.4 175.1 167 158 150.4 150.8 151.1 150.1 147.1 142.1 131 118.6 115.6 113.4 107.3 102.7 97.8 98.8 90.8 87.7 84 79.6 71.8 65.3 62.1 64.6 71.1 73.3 68.9 57.2 53 42.1 24.9 8.6 -0.3 -0.3 -0.3 -0.3
-0.3 -0.3 -0.3 -0.3 -0.3 -0.3 -0.3 -0.3 -0.3 -0.3 -0.3 -0.3 -0.3 -0.3 -0.3 -0.3 -0.3 -0.3 -0.3 -0.3 -0.3 -0.3 -0.3 -0.3 -0.3 -0.3 -0.3 -0.3 -0.3 -0.3 -0.3 -0.3 -0.3 -0.3 -0.3 -0.3 -0.3 -0.3 -0.3 -0.3 -0.3 -0.3 -0.3 -0.3 -0.3 -0.3 4 7.3 23.9 47.8 57.9 85.6 89.8 98.2 103.2 104.4 110.6 104.2 105.6 104.9 95.2 91.1 85 89.2 104.4 115.3 128.7 134.5 141 153.4 155.7 158.8 173.8 185.9 200.5 207.7 216.7 225.7 218.2 198.3 173.9 161.2 155.9 161.3 145.6 139 134.2 122.1 108.6 96.1 74.9 63.7 59.6 59.7 54 44.1 38.9 45.1 69.8 84.9 92.7 96.1 102.9 92.6 81.3 78.7 69.1 69.5 66.8 66.8 66.8 66.8 71.5 79.8 80.1 88.3 96.5 110.7 117.8 113.9 117.6 121.3 122.5 117.5 120.4 127.8 123.5 119.5 115.3 116.5 121.9 115.3 113.6 112.6 110.3 113.8 117.6 118.1 121.3 139.9 146.2 145.1 145.1 141.7 143.5 149.1 155.2 170.8 188 205.6 229 231.5 228.1 228.9 230.2 221.4 221.6 211.7 204.6 195 192.6 189.7 182 172.7 165.2 155.7 150.8 152.9 152.1 150.4 146.4 140.4 131.4 119.3 119.2 116.5 109.3 104.6 99.4 91.2 87.1 84 81.4 76 67 61.5 52.2 59.3 63.1 67.8 66.1 48.7 41.7 26.7 7.5 -0.3 -0.3 -0.3 -0.3 -0.3
-0.3 -0.3 -0.3 -0.3 -0.3 -0.3 -0.3 -0.3 -0.3 -0.3 -0.3 -0.3 -0.3 -0.3 -0.3 -0.3 -0.3 -0.3 -0.3 -0.3 -0.3 -0.3 -0.3 -0.3 -0.3 -0.3 -0.3 -0.3 -0.3 -0.3 -0.3 -0.3 -0.3 -0.3 -0.3 -0.3 -0.3 -0.3 -0.3 -0.3 -0.3 -0.3 -0.3 -0.3 -0.3 -0.3 2.7 5.5 11.2 47.2 75.4 81.1 83.2 93.6 98.8 107.9 111.7 104.9 107.9 104.1 93.1 88.9 89.9 105.9 115.4 129.3 144.1 147.3 142.3 153.6 154.8 162.4 181.7 197.6 209.2 209.6 210.9 213.9 198.5 182 170.1 170.6 167.5 161.9 147.2 131.1 122.4 113.3 104.6 96 71.1 58.8 55.2 53.1 48.3 41.7 47.4 70 86 94.4 104.6 114.2 115.7 106.2 93.2 82.7 68.5 67.7 66.8 66.8 66.8 73.7 76.4 79.4 82.1 85.4 100.6 113.1 127 123.5 114.1 113.8 113.8 113.8 123 124.6 122.8 121.8 112.1 113 118.2 110.1 112.8 109.7 108.2 102.9 112.2 111 117.8 138.6 144.2 145.8 147.2 150.5 146.1 146.7 154.2 162.1 179.7 195.3 216.6 219.8 220.8 229.6 229.7 219 218.2 211.2 207.7 191.4 184.3 180.9 172.4 173.3 161.8 150.6 151.7 154.9 157.3 150.9 145.8 142.4 128.1 122.8 120.9 117.2 107.1 104.9 100.1 90 83.1 77.5 75.7 71.1 62 56.7 46.8 50.3 54.1 56.3 52.5 41.1 29.6 13.6 -0.3 -0.3 -0.3 -0.3 -0.3 -0.3
-0.3 -0.3 -0.3 -0.3 -0.3 -0.3 -0.3 -0.3 -0.3 -0.3 -0.3 -0.3 -0.3 -0.3 -0.3 -0.3 -0.3 -0.3 -0.3 -0.3 -0.3 -0.3 -0.3 -0.3 -0.3 -0.3 -0.3 -0.3 -0.3 -0.3 -0.3 -0.3 -0.3 -0.3 -0.3 -0.3 -0.3 -0.3 -0.3 -0.3 -0.3 -0.3 -0.3 -0.3 -0.3 -0.3 -0.3 4.2 7.2 53.8 71.2 76.4 83.2 89.1 97.8 102.5 107.4 105.8 112.7 104 92.1 90.3 101.3 112.6 121.2 140.3 148.3 145.9 152 152.1 154.1 167.2 181.6 199.7 211.5 211.9 208 200.4 189 178.9 172.7 174.7 173.1 161.2 137.4 123.8 118 118.4 103.6 95.1 70.5 58.3 52.3 48.5 44.2 47 64.2 87 92.5 106.3 115.8 121.6 119.6 117.7 100.8 79.1 69.7 67.4 67.4 67.9 68.4 77.7 79.7 85.3 90.4 92.7 106.7 116.8 127.3 130.8 122.2 113.8 113.8 116.5 123.5 123.6 123.8 121 110.4 112 107.5 108.5 112.2 110.3 106.9 102.8 101.1 103.4 111.4 132.9 141.5 148.5 155.4 160.4 151.2 150.4 156.2 164.7 172.5 180.9 201.9 204.8 212.5 224.2 222 211.6 217.5 209.7 200.3 189.8 179.1 172.6 167.1 167.2 158.5 148.7 149.8 154.6 159.9 152.7 148.5 138.4 136.7 122.4 123.4 119.7 108.1 105.9 97.3 91.1 82.2 76.4 69.2 63.8 55.7 47.2 33.3 41.7 42.4 45.5 40.3 24.7 13.6 -0.3 -0.3 -0.3 -0.3 -0.3 -0.3 -0.3
-0.3 -0.3 -0.3 -0.3 -0.3 -0.3 -0.3 -0.3 -0.3 -0.3 -0.3 -0.3 -0.3 -0.3 -0.3 -0.3 -0.3 -0.3 -0.3 -0.3 -0.3 -0.3 -0.3 -0.3 -0.3 -0.3 -0.3 -0.3 -0.3 -0.3 -0.3 -0.3 -0.3 -0.3 -0.3 -0.3 -0.3 -0.3 -0.3 -0.3 -0.3 -0.3 -0.3 -0.3 -0.3 -0.3 -0.3 2.9 7 33.1 72.6 77.7 81.5 90.2 95.2 101.3 104 106.9 116.3 106.7 91.8 94 110.9 117.4 126.3 143.8 153 161.7 166 158.8 167.4 178.9 202.2 204.7 210.1 213.2 210 192.6 191.6 178 174.1 175 167.7 148.7 138.8 129.1 121.7 115.1 103.9 87.3 68.5 59 51.7 56.4 48.4 53.3 79.6 101.7 109.8 113.7 125 125 131.6 127.9 106.9 82.2 70.5 68.7 69.2 68.7 70.8 81.6 83.7 90.8 98.9 103 110.9 114.3 127.6 129.1 123.5 113.8 113.8 118.8 130.1 130.3 124.8 117.3 109.3 106.1 105.6 108.7 113.9 115.8 107.7 103.4 101.2 100.6 105.4 124.1 147.3 154.4 151.1 154.4 159.6 161.2 160.3 167.6 170.9 175.5 181.3 187.1 202.3 210.7 206.3 206.5 211.3 207.3 200.8 182.9 172.2 169.2 160.7 159.7 151.6 145.7 147.4 156.9 162.7 154.4 147.4 140.2 132.5 122.7 122.9 121.3 110.6 105.8 98.8 89.5 81.8 74.7 64.8 57.7 48.2 41.5 28.5 31.9 30.9 32.1 25.4 8.5 -0.3 -0.3 -0.3 -0.3 -0.3 -0.3 -0.3 -0.3
-0.3 -0.3 -0.3 -0.3 -0.3 -0.3 -0.3 -0.3 -0.3 -0.3 -0.3 -0.3 -0.3 -0.3 -0.3 -0.3 -0.3 -0.3 -0.3 -0.3 -0.3 -0.3 -0.3 -0.3 -0.3 -0.3 -0.3 -0.3 -0.3 -0.3 -0.3 -0.3 -0.3 -0.3 -0.3 -0.3 -0.3 -0.3 -0.3 -0.3 -0.3 -0.3 -0.3 -0.3 -0.3 -0.3 -0.3 1.8 6.8 62.4 71.5 76.5 83.7 87.2 91 97.3 104.7 107.5 116.9 103.2 93.7 108.4 122.7 123.6 143.5 152.8 156.3 171.5 170.3 171.9 182.5 191.3 209.8 218.4 215.8 222.6 208.8 197.9 182.7 180.1 183.7 169.3 158.3 152.3 143.9 133 119.3 110.2 100.8 86 65.7 58.2 57.7 66.5 58.7 61.3 87.4 104.6 122.1 131 128.5 126.8 137.9 124.6 114.8 94.6 72.7 70.9 72.7 70.2 71.3 85.6 92.5 99.1 102.3 112.5 122.4 118.5 124.6 126.1 120.1 113.8 113.8 115.8 132.1 139.3 134 119.7 109 104.1 103.7 105.4 113.3 112.6 109.8 107.1 101.4 98.7 100 115.5 137.6 145.5 145.6 148.1 157.3 164.9 167.3 170.2 171.7 171.5 177.3 177.2 181.5 194.3 192.4 198.8 205.7 206.2 199.7 181.1 167.1 162.6 154.4 149.8 146.9 143.8 145.7 157.4 160.1 154.1 149.5 142.6 133 121.9 120.4 120.3 110.7 105.2 98.1 92.2 82.8 79.6 71.1 61.4 49.3 36.3 21.1 21 21.7 21.5 8.8 -0.3 -0.3 -0.3 -0.3 -0.3 -0.3 -0.3 -0.3 -0.3
-0.3 -0.3 -0.3 -0.3 -0.3 -0.3 -0.3 -0.3 -0.3 -0.3 -0.3 -0.3 -0.3 -0.3 -0.3 -0.3 -0.3 -0.3 -0.3 -0.3 -0.3 -0.3 -0.3 -0.3 -0.3 -0.3 -0.3 -0.3 -0.3 -0.3 -0.3 -0.3 -0.3 -0.3 -0.3 -0.3 -0.3 -0.3 -0.3 -0.3 -0.3 -0.3 -0.3 -0.3 -0.3 -0.3 -0.3 -0.3 15.5 59.6 69 81.3 88.2 90.2 90 98.4 104.2 103.3 109 106.8 98.8 113.3 117.7 134.5 149.9 155.6 168.6 176.5 180.2 191.5 195.2 217.2 217.3 217.4 225.6 222.3 218 206.9 191.5 184.4 178.3 169.9 160.5 154.7 145.8 132.7 117.7 107.7 99.9 81.1 65.3 61.7 66.6 77.2 73.6 63.8 92 101.9 124.4 137.3 138 145.9 130.8 123.4 117 116.8 86.7 78.3 78.2 73.9 74.5 88.3 102.4 104.5 104.7 114.7 124.1 126.6 126.8 120 121.6 113.8 113.8 117.7 131.9 138.2 133.8 119.4 109.3 104.4 103.2 104.3 107.2 111.7 109.6 108.1 101.6 97.9 98.1 108.8 129.8 137.7 139.2 143.7 154.2 165.8 174.1 173.3 174.4 170.4 168.7 172 178.6 175.9 182.4 195.1 201.1 204 190.5 173.7 161.4 158 155.2 146.8 142.7 138.2 145.8 154.3 159 156 150.9 142.4 133.2 119.2 119.7 118.8 111.8 107.8 97.7 92.3 84.8 83 79.2 65.9 47.5 30.2 24.5 18.9 9.2 3.9 -0.3 -0.3 -0.3 -0.3 -0.3 -0.3 -0.3 -0.3 -0.3 -0.3
-0.3 -0.3 -0.3 -0.3 -0.3 -0.3 -0.3 -0.3 -0.3 -0.3 -0.3 -0.3 -0.3 -0.3 -0.3 -0.3 -0.3 -0.3 -0.3 -0.3 -0.3 -0.3 -0.3 -0.3 -0.3 -0.3 -0.3 -0.3 -0.3 -0.3 -0.3 -0.3 -0.3 -0.3 -0.3 -0.3 -0.3 -0.3 -0.3 -0.3 -0.3 -0.3 -0.3 -0.3 -0.3 -0.3 -0.3 -0.3 37.7 56.3 74.1 80.3 87.5 90.9 96.6 97.3 102.8 97 100.7 106.6 103.2 111.5 119.2 145.5 161.3 163.7 182.1 183.2 200.6 207.4 218.6 230 230 227 230.3 228.8 231 224 198 183.7 173.1 169.8 164.1 154.1 141.7 127.6 118.3 106.2 94.3 73.5 76.5 80.1 83.5 86.1 93.7 74.8 94 115.7 129.3 145.2 155.3 151.6 144.4 128.5 131.7 116.6 98.4 91.7 80.6 74.4 75.8 92.8 109.5 109.3 108.7 111.5 129.3 133.4 125.6 120 113.8 113.8 113.8 117.7 127.1 134.7 132 122.6 110.7 106.3 102.1 103 105 108.5 108.8 108.5 102.7 95.6 96.4 103.5 124 134 135.2 139 150 168 176.6 173.8 172.9 168.4 164.5 167.9 172.3 168.5 173.5 184.4 195.4 195.2 183.1 167.2 155.2 152.9 154.7 151.1 139 137.3 147.9 152.4 153.9 154.3 153.6 143.4 133.3 118.3 121.8 124.2 121.8 106.2 96.6 90.1 84.9 84.3 85.6 71.9 48.5 33.4 22.7 18.2 6 -0.3 -0.3 -0.3 -0.3 -0.3 -0.3 -0.3 -0.3 -0.3 -0.3 -0.3
-0.3 -0.3 -0.3 -0.3 -0.3 -0.3 -0.3 -0.3 -0.3 -0.3 -0.3 -0.3 -0.3 -0.3 -0.3 -0.3 -0.3 -0.3 -0.3 -0.3 -0.3 -0.3 -0.3 -0.3 -0.3 -0.3 -0.3 -0.3 -0.3 -0.3 -0.3 -0.3 -0.3 -0.3 -0.3 -0.3 -0.3 -0.3 -0.3 -0.3 -0.3 -0.3 -0.3 -0.3 -0.3 -0.3 -0.3 -0.3 20.8 52.6 76.7 83.3 81.8 81.7 88.7 102 92.2 93.3 98 106.2 110.8 113.7 128.8 150.1 162.7 178.6 182.1 192.9 214 217.1 247.1 247.4 240 239.6 235.4 242.6 237.6 208.6 198.4 187.1 181.5 175.2 162 158.6 138.5 127.3 117.8 112.1 108.7 91.3 110.3 103.4 95.3 104.9 112.2 89.9 103.3 118.7 131.4 161.3 172.9 161.5 147.1 134.9 128.2 112.8 100.2 88.2 85.5 76.7 78.5 98.6 111.9 113.2 112.4 116.1 131.5 133.4 125.7 121.9 113.8 113.8 113.8 115.2 121.8 129.1 132.2 119.8 109.9 105 102.6 101.4 103.4 106.9 109.1 107.1 96.4 94.3 97.6 101.5 121.3 127 132.9 135.9 146.5 166.2 176 171.9 170.3 164.3 162.5 162.9 165 164 175.7 176.1 180.2 184.8 172.5 160.7 151.7 149.6 153.1 151.4 134.2 136.5 148.8 154.6 152.8 150.6 147.2 140.9 131.7 114.4 119.8 126.3 124 112.5 98.6 88.6 85.6 87.8 84.7 74.8 53.2 35.4 20 16.2 -0.3 -0.3 -0.3 -0.3 -0.3 -0.3 -0.3 -0.3 -0.3 -0.3 -0.3 -0.3
