ncols 200
nrows 96
xllcorner 100000
yllcorner 884400
cellsize 50
153.3 183.1 222.5 239.3 253.7 261.8 270.9 281.1 276.2 258.2 238 219 196.8 183.7 163.1 147.5 129.7 117.2 102.1 84.2 75 63.6 56.2 50.5 45 40.3 35.4 33 32.8 30 28.5 26 23.4 18.8 20.9 20.9 17.5 13.7 13.8 16.3 14.7 12.1 11.9 15.4 17.9 18 17.9 17.9 17.1 16.1 16.5 17.9 17.1 16.6 15.3 11 9.8 10.5 10.5 10.1 11.3 11.4 12.6 14.1 16 19.8 24.5 26.5 27.1 30 32.5 32.5 32.1 32.6 33 37.3 44 49.2 54.2 57.1 57.6 57.1 56.2 56.1 55.6 54.3 52.4 50.3 45.2 45.2 45.2 45.2 45.2 45.2 45.2 45.2 45.2 45.2 45.2 45.2 45.2 47.3 52.7 63.5 69.6 76.9 83.4 82.8 85.5 83.1 89.9 87.3 85.6 70.8 67.8 57.5 52.7 47.8 48.8 46.9 45.6 47.5 43.5 44 40.6 44.7 45.2 47.4 47.4 44.9 50.5 55.7 56.7 52.6 53.8 55.4 54.8 52.9 48.3 43.9 43 38.9 38.2 37.8 38.1 41 40.1 39.4 44.6 49.7 41.8 34.4 32 27.5 19.6 19.9 23.9 19.8 15.2 19.4 24.4 20.6 18.8 18.5 15.7 27.3 30.2 32.4 28 35.6 35.4 38 39.2 43.2 47.6 52.1 55 54.8 55 52 37.7 38.5 35.6 35.8 34.1 25.5 26.4 25.5 27.6 25.5 22.7 18.6 9.5 8 7.7 7.1 4.9 7.5 13.7 13.3
140 169.6 200.5 233.4 251.8 258.5 262.6 268.6 270.6 259.8 241.3 218.9 201.9 185.1 164.7 147.7 130.8 116.7 102.1 87.1 76 65.5 56.1 48.8 44.3 41.2 36.4 35.4 32.4 29.8 27.7 25.4 22.1 19.3 18.8 18 16 14.6 12.4 11.7 10.8 9.7 9 11.2 16.3 17.4 17.3 17.2 16.7 15.8 14.1 14.9 13.5 13 11.4 10.7 10.1 9.8 10.6 10.7 11.1 11.4 12.9 14.9 18.2 24.5 30.3 31.9 33.1 34.9 37.3 37.6 37.8 37.1 36.3 34.5 39 42.8 46.8 50.5 50.9 49.3 50.1 50.4 51.4 50.6 50.9 50.3 48.1 45.2 45.2 45.2 45.2 45.2 45.2 45.2 45.2 45.2 45.2 45.2 45.2 47.4 51 61.3 68.8 71.8 78.2 83.4 77 86.8 88.8 84.5 88.7 84.1 69.9 57.7 54 45 45.1 46.7 45.5 48.2 45.3 48.6 47 37.8 43.2 49.5 52.5 45.5 53.6 53.6 54.9 51.2 48.9 50.6 51.5 51.9 46 44.9 44.7 35.1 28.5 28.5 34.8 37.8 40.4 39.3 45.9 48.8 43.3 36.9 30.7 27.5 20.4 13.5 18 17.7 13.9 18.8 17.6 22.3 23 20.2 15 18.4 23.6 25.7 28.3 31.3 36.1 39.7 40 40 43.2 47.7 49.7 51.5 46.3 50.2 37.8 33.6 31.9 28.1 25.5 25.5 25.5 25.5 25.5 29.4 27.2 19.4 11.8 14.9 11.8 14.3 4.9 6.6 10.6 17.5
127.1 155.5 184.2 214.7 234.8 247 252.7 253.8 253.5 250.3 237.2 213.9 203.3 180.8 161.3 143.5 132.9 116.1 103 93.2 75.6 68.1 58.3 47 44.4 41 38.4 36.1 33.2 29.7 27.1 24.6 21.7 19.1 15.2 15.6 14.9 13.1 12.4 8.6 8.6 8 7.5 9.1 12.1 14.9 15.9 16.6 16.3 15.2 13.6 11.5 11.1 10.5 10.1 10.7 10.7 8.1 9.8 10.5 10.3 10.9 13.9 18.3 24 33.6 37.8 40.3 41.4 44.8 44.5 44.3 45.7 44.2 42.2 38.8 37.7 40.5 44 45.5 46.4 46.6 46.9 46.8 47.1 47.5 48.1 48.4 46.8 47.4 45.2 45.2 45.2 45.2 45.2 45.2 45.2 45.2 45.2 45.2 45.2 45.2 50.7 58.2 65.3 72.6 77.9 82.5 77.6 86.8 88.7 84.9 91.7 88.1 63.4 64.5 53.1 50.1 39.7 46.6 42.8 42.7 44.3 44.5 46.5 37.8 41.5 48.5 48.2 48.6 49.2 49.4 49 52.5 50.5 46 50.4 52.4 46.4 42.5 46.8 42.7 36.4 28.5 28.5 35.9 38.8 40.8 39.4 46.5 45.1 37.6 31.2 27.4 24 16 16.5 16.2 13.2 16.4 19.8 19.2 20.3 15.4 16.4 22.1 24.1 29.6 27.7 29.3 33.4 37.2 38.3 39.1 41.6 46.2 49.9 46 47.2 50.8 45.6 40.8 35.9 38.2 26.3 25.5 25.5 25.5 25.5 33.7 35.8 27.9 22.3 17.4 15.7 14 16.5 5.2 6.5 9.5
109.5 133.4 161.5 187.7 210 226.6 232.8 233.8 232.8 230.3 222.8 206.9 193.1 172.9 156.9 142.4 132.4 117 101.9 93.2 78 67.6 60.3 50.7 46.9 44.7 43.1 38.8 36 31.9 28.6 25.2 22.5 19.8 16.2 13.2 13.5 12.3 11.3 9 7.5 6.5 7.4 7.3 10.7 12.1 14.2 16.3 16.5 15 13.4 12.1 10.4 8.8 9.3 9.9 10.2 10 9 9.3 9.9 11.4 20.1 28 33.5 39.5 45.4 47.3 50.4 55.4 56.1 55.1 54.2 53.5 49.1 44.8 41.6 40.3 40.5 43.6 44.7 45.3 45.3 44.7 44.5 44.9 44.3 45.4 47.5 50.2 51.7 54.5 55.7 49.7 45.2 45.2 45.2 45.2 45.2 45.2 45.2 45.2 45.2 55.7 64.4 71.5 76.6 78.3 80.2 85.8 88.5 85.9 83.4 82.3 57.4 63.2 54.9 51.7 44 39.9 41 40.6 43.8 45.3 41.6 38.5 37.8 45.6 47.6 47.7 44 49.2 48.7 46.7 49.9 48.4 45.3 55.4 49.2 43.9 42.5 40 36.3 28.5 28.5 31.5 37.2 37.4 40.4 40.3 44.4 41 31.8 30.4 24 22.7 14 15.4 13.5 19.1 18.8 19.7 17.6 15.4 19.5 27.3 24.8 29.1 32 27.1 28.9 27.5 32 36.9 39.4 42.7 47.5 44 46.2 48.2 47.3 50.9 36.1 37.3 27.5 25.5 28.1 30.5 29.7 31.5 42.6 33.2 32.3 23.4 17.1 13.7 14.4 6.1 10.7 7.1
92.5 113.4 131.7 156.5 183.1 200.3 203.8 205.7 206.5 209 205.3 195.8 183.5 172.1 158.6 143.4 129 109.7 95.8 88.1 80.4 70 61.8 56.7 50.8 46.4 44 42.3 38.4 34.6 30.4 26.5 25.7 21.2 14.7 12.1 11.1 11.6 11.5 11.3 8.7 6.2 6.4 7 7.5 10.6 12.2 14.6 18.4 14.8 13.2 12 10.6 8.8 8.6 9.3 9.8 9.8 8.7 8.9 9.9 13.2 21.8 29.2 36.4 40.9 47.1 50.3 64.8 71.9 74.4 70.6 67.7 63.8 58.5 52.1 47.3 46 44.1 43.5 44 44 43.6 43.1 43.9 44.3 46.3 47.2 49.8 52.9 57.2 64.5 66.8 61.7 51.4 45.2 45.2 45.2 45.2 45.2 45.2 45.2 45.2 53 62.2 69.1 70.6 72.5 76.8 89.2 94.9 88.2 80.4 77.2 55.5 59 52.2 53.6 47.3 39.2 41.2 42 42.9 43.9 38.3 40.5 42.8 41.3 45.6 47.1 44.5 48.6 47.8 49.5 46.3 44.8 47.5 49.1 48.4 43.5 44.2 41.6 39.4 28.5 30.2 29.3 31.7 37.3 37.2 37.1 40.3 40.8 35.5 28.3 23.5 20 17.3 14.4 15.3 11.4 14.3 18 18.1 15.4 17.8 30.2 32.3 29.5 26.8 29.1 28.1 27.5 30.3 32.2 37.5 41 44.9 46.7 41 45 45.3 49.4 43.8 31.4 29.3 25.5 30.2 29.7 35.4 30.4 33 35 37.3 21.6 20 12.9 17.5 6.6 5.2 3.5
76.1 93.8 110.8 130.9 149.8 170.3 179 178.2 177.9 177.8 177.9 179.8 178.4 172.8 159.8 147.5 129.4 109.2 96.3 89.1 83.3 73.7 68.2 64.8 56.8 52.3 53.4 48.4 44.6 38.2 33.4 27.1 24.3 18.6 13.2 11.7 10.6 11.2 11.4 11.3 8.6 6.5 6.1 6.5 8 9.3 10.6 12 13.7 13.1 12.5 11.5 10.4 9 7.5 8.8 7.9 7.7 9.2 9.1 10.2 14.5 21.4 27.8 33.1 41.7 47.1 53.5 75.1 82.3 87.1 86.3 82.7 74.4 64.4 57.2 52.8 49.3 48.4 46.4 45.5 45.1 44.5 43.3 44.1 45.5 47.6 50.4 53.3 58.2 67 76.2 78.8 70.6 57 50.5 45.2 45.2 45.2 45.2 45.2 45.2 45.2 49.3 58.2 66.5 70.2 70.6 73 89.2 97.5 90.2 78 79.1 60.6 44.8 47 45.7 48 43.4 36.1 46 44.1 44.6 40 19.7 25.4 39.3 44.5 49 48.1 45.2 48.9 51.3 47.4 41 42.5 42 44.1 41 43 43.8 39.7 33.5 34.4 34.3 28.5 32.3 37.6 35.8 34.9 38.9 35.9 31.8 23.2 21.8 18.4 12.8 15.6 14.7 15 13.9 15.1 15.4 18.7 28.4 31.8 35.2 31.7 31.7 28.1 29.3 31.1 32.7 36.3 41.2 46.9 43.6 37.4 41.4 42.8 45.4 44.2 38.8 29.3 25.5 25.5 26 34.5 30.4 29.7 30 34.1 33.3 23.1 13.4 11.5 7.8 4.4 -2.3
59.1 71.9 91.1 110.9 128 143.6 149.3 153.3 152.1 158.2 158.3 164 164.5 164.8 155.3 142.5 125.7 106.2 94.8 92 85.7 78.1 73.8 73.6 69.2 60 55.8 51.1 44.7 40 37 28.3 25 17.2 13.5 11.7 10.3 10.7 11.2 11.3 9.9 7 5.3 4.7 4.3 5.5 7.8 10.3 11 10.9 11.4 10.5 9.8 8.8 8.7 7.2 7.8 9.6 9.9 10 11.3 13.4 16.8 20.8 29 34.2 45 59 77.1 92.9 98.8 102.9 95.6 87.4 72.8 62.7 54.8 50.6 50.1 48 47.1 46.3 45 44.1 45.9 47.3 49.1 54.2 59.3 66.5 77.4 89 88.2 77.9 66 52.8 45.2 45.2 45.2 45.2 45.2 45.2 45.2 45.2 55.9 65.5 70.1 76.6 81 89.3 93.2 89.9 76.2 74.7 71.5 45.6 44.8 49.2 46.8 47.6 36.1 43.7 43 41.4 39.6 19.7 19.7 37.2 37.8 45.9 50.9 51.6 44.2 47.9 45.3 41 39.7 41.6 38.3 39.9 41.5 40.5 38.7 33 37.6 36.6 34.9 28.5 29.1 34.1 35.9 37.1 38.2 36.5 32.1 22.1 20.2 13.2 12.2 11.3 12.1 12.3 12 16.4 19.2 28.9 30.9 28.6 32.1 37.6 34 32.9 31.4 30.5 34.8 39.3 42.6 44.3 34.3 43.4 38.8 41.5 43.7 40.3 26.9 26.2 25.5 30 28.7 31.6 27.2 30.5 32.2 35 20.5 17.6 8.5 7.9 8.8 -2.3
62.1 64.8 69.4 82.3 97.5 114.5 120.3 128.3 136.7 133.1 143.2 147.1 148.7 146.7 141.7 137.5 122.1 100.7 90 83.7 84.7 84.8 81.3 86 81.2 78.6 62.7 54.1 49.7 44.4 38.8 29.7 25.8 21.2 17.2 12.1 10.6 10.1 10.8 11.3 10 6.7 5 4 4 4 4.5 7.3 9 9.9 9 9.3 8.5 8.2 7.3 8.9 9.2 9.9 10.4 10.6 11.9 12.8 14.6 16.3 22 29.2 41.7 54.2 69.4 85.5 95.1 100.1 100.2 93.8 78.9 67.1 56.8 51.4 50.7 50.7 48.7 46.7 45.6 45.2 46.4 48.6 52.7 60.3 68.5 77.7 88.4 98.3 96.9 83 72.6 57.7 48.5 45.2 45.2 45.2 45.2 45.2 45.2 45.2 48.6 63.5 65.6 75.9 74 86.2 92.4 84.5 76.7 77 73.8 44.8 42.9 48.5 47.9 48.6 40.1 36 43.3 39.9 37.8 36.5 19.7 37 44.4 42.2 48 51.4 44.6 42.9 42.3 39.8 37.1 39.6 37 37.1 38.8 35.8 34.5 37.5 35.7 36.5 35.2 28.5 28.5 28.5 36.7 39.4 39.7 37.5 32.5 26.8 18.8 15.7 12.4 12.7 10.9 11.4 11.2 15.5 16.8 25.1 25.3 26.3 35.9 25.4 34.4 35.7 29.7 29.4 29.6 29.9 36.4 33.1 33.1 38.6 39.4 52 51.2 50.7 31.2 25.5 25.5 28 24.7 26.6 26.2 24.9 29.4 30.4 26.5 14.7 7.7 5.7 11.4 13.2
61.3 70.7 75.4 75.2 82.2 93.8 103.8 103.9 104.1 109.8 126.4 127.8 132.5 133 125.7 118.2 105.1 91.1 86.3 83.6 83.8 88.3 95.3 93.8 92.4 87.7 77.7 69.4 58.2 49.9 42.5 30.4 26.5 21.7 20 14.4 11 9.2 9.9 10.7 10.5 7 5 4 4 4 4 4 6.7 7.1 6.8 7.2 6.1 8.7 9.1 9.3 9.9 10.4 10.9 11.2 12.4 13.9 15.2 16.8 21.6 28.2 36.4 49.7 64.3 78.8 84.7 89.2 88.5 87.8 78.8 69 58.7 51.7 50.9 50.8 49.7 48.5 47.5 46.6 47.8 49.6 57.4 66.3 77.5 89.5 102.6 106 104.1 89.6 75.4 63 52.8 45.2 45.2 45.2 45.2 45.2 45.2 45.2 45.8 58.2 65 75 74.3 85 88.6 87.5 76.8 77.2 73.1 64.9 42.3 47.9 49.2 41 44.6 35.6 35.2 39.9 34.5 35.7 33.9 35.3 40.4 42.1 42.6 47.7 44.2 39.6 39.8 37 36.3 33.9 32.6 31.5 30.9 34.4 31.1 34.2 34.5 35.8 35.7 33.7 33.7 28.5 28.5 38.2 37.3 34.7 32.9 27.9 20.2 13.2 13.6 11.8 11.5 15.8 9.2 12.6 18.6 17.8 24.2 21.4 27.4 25 32.4 38 36.7 30 31.1 29.6 30.6 33.6 33.1 33.1 44.8 46 52.2 48.4 39.7 30.4 25.5 25.5 25.6 25.8 21.5 24.6 23.8 25.4 28.6 15.4 8.1 4.1 10.8 13.7
59.4 64.3 69.8 74.5 81.3 88.1 93.8 107.5 114.8 109.1 105.2 116.5 116.6 113.4 105.6 94.4 82.3 80.4 81 83.2 86.3 95 99.5 98.4 98.5 95.9 85.1 70.5 64.1 56.6 45.8 37 33.6 25.7 18 13.5 11.2 9.3 9.9 10.2 10.3 10.8 4.1 4 4 4 4 5 5.9 6.5 5.7 6.9 7.8 8.9 10.4 10.4 10.6 11.1 11.5 11.9 12.2 14.4 16.2 18.8 23.8 29.7 34.4 45.5 57 65.7 72.8 77.5 79.3 77.5 72.9 66.6 59.7 52.5 52.2 52.2 50.7 50.6 49.8 48 48.5 54.2 63.3 72.9 86.1 102 115.1 115.5 104.7 93.3 80.2 69.8 57.3 45.2 45.2 45.2 45.2 45.2 45.2 45.2 51.4 54.1 62.2 70.6 74.4 82.2 87.4 88 79.9 74.4 73.2 67.9 58.2 42.3 48.4 45 45.5 37.3 31.5 32.6 35.5 30.9 35.7 35.6 36 40 40.3 42.8 42.6 40.9 38.4 38.3 33.2 30.5 28.2 31.6 29.2 25.8 28.2 30.4 35.4 36.1 35.7 35.4 34.1 30.9 33.9 33 33.5 34.3 32.4 26.6 20.2 14.7 11.5 9 14.2 10.6 9.2 11.1 12.7 12.8 19 21.7 19.7 24 32.7 38.1 40.8 33 31.7 36.8 35 37 41.4 34.6 37.9 41 40.8 39.2 38.3 33.1 30.1 29 30.1 25.9 23.3 21.5 25.6 25.7 24.8 12.8 -2.3 -2.3 10.8 14.7
52.6 62.7 67.6 73.9 82.3 86.9 89.3 95.7 104.9 112.4 106.1 104.5 102.7 92.8 86.7 81.3 76.5 71.8 68.6 81.1 85.5 98.1 102.2 98.9 102.6 99.7 89.1 77.8 67.9 58.8 50.8 44 33.7 29.5 20.4 14.6 11.8 10.1 9 10.1 10.1 9.5 4 4 4 4 4 4 4 5.1 7.1 7.9 9.2 10.5 11.4 11.8 11.7 12.1 12.5 13.3 14.7 15.6 16.5 19.9 25.1 33.5 38.9 45.7 53.7 62.7 68.5 71.4 72.5 71.8 68.3 64.8 59.3 56.4 54.8 54.4 54.7 53.2 52.1 50.1 50.3 56.7 66.8 80 92.5 108.7 119.3 118.8 109.9 101.1 90 77.7 66.3 53.9 45.2 45.2 45.2 45.2 45.2 45.2 48.5 53.5 64 62.2 68.8 79.6 86.8 89.1 88.8 76.5 72.5 68.7 69.1 43.2 48.5 51 43.7 37.3 29.9 32.3 30.2 24.8 19.7 34.5 35.8 38.3 41.3 38.4 39.3 38.6 36.3 38 32.6 31 29 25.3 25.9 25.3 25.3 29.5 30.2 34.3 35.5 36.7 33.9 28.5 34.9 33.6 26.1 29.4 28.1 25.4 22.7 16.9 13.5 11.4 9.5 9.6 11.5 8.5 11.5 10.2 15.9 17 19.4 21.1 25.9 34.6 35.7 35.6 33.1 33.7 39.3 36.9 39.9 41 37.6 36.9 37.2 38.8 40 38.2 33.6 32.4 35.1 28.4 25.6 21.3 21.4 23.4 20.6 14.9 -2.3 -2.3 -2.3 11.6
52.5 58.9 63.1 70.1 78 84.1 88.6 90.5 96.7 101.7 104.1 102.8 103.7 104.2 102.5 99.7 82.4 70.7 68.7 66.7 83.6 95 103 97.8 96.5 95.8 88.8 75.2 66 59.1 53.1 46.2 32 29.3 22 13.4 12.6 11.5 12.4 7.9 8.5 7.1 4 4 4 4 4 4 5.3 7.5 9.8 10.4 11.2 12.3 12.6 13.3 13.3 14 15.2 17 18.2 19.6 21.3 24.7 30.6 35.6 42.9 50.7 57.1 65.5 70.3 71.4 71.5 71 67.2 63.3 59.5 59 59.2 59.5 58.7 57.2 57.4 56.1 56.5 61.5 73.4 88.3 99.7 111.8 121.2 119.9 113.1 105.7 95.7 82.6 73.6 58.9 45.2 45.2 45.2 45.2 45.2 45.2 45.2 51 60.5 63.7 73.2 81.7 86.4 86.6 87.4 77.5 72.3 73.1 68.7 63.4 43.1 51.5 40.3 38.8 32.1 30.2 29.9 19.7 23 29.6 36.2 37.5 37.5 37.3 33.8 36.1 38.3 34.9 31.2 30.1 30.3 26.6 25.3 25.3 25.3 30.2 30.7 29.4 34.2 34.4 36.8 28.5 28.6 35.9 30.3 23.1 23.5 22.4 23.6 19.1 17.5 13.4 9.4 8.5 8.5 8.5 8.5 8.5 8.5 14.1 16.7 19.4 19.3 27.1 27.3 34.6 34.6 30.4 38.2 38.1 33.7 39.1 40.9 36.9 36.8 38.9 38.1 37.8 34.7 34.7 35.1 33.9 27.4 23.1 21.4 21.4 22 13.4 4.9 -2.3 -2.3 15.8
54.6 60.2 60.1 61.7 71 78.9 83.1 86.2 88.3 92.4 96 99.6 103.7 105.1 106.5 108 102 87.9 70.8 65.1 75.4 82.4 90.4 93.7 87.2 91.5 84.9 74.3 62.1 56.2 49.4 41.9 33.6 32.8 28 14.7 13.5 12.7 10.9 9 6.4 6.2 4 4 4 4 4 4 7.2 10.4 11.8 11.7 13 13.9 15.1 15.6 15.5 16.9 18.1 20.6 22.8 24.7 27.9 31.6 37.1 43.3 47.5 54 61.3 66.8 72 72.7 72.9 71.1 66.5 62.4 61.4 61.8 64.3 62.6 62.9 62.9 63 62.5 63.4 64.8 80.3 96.1 109.1 118 125.7 122.2 118.6 113.1 98.8 89 76.3 62.3 45.2 45.2 45.2 45.2 45.2 45.2 45.2 47.2 55.1 63.4 71.9 75 78.3 85.1 85.4 84.5 72.1 78.9 72.4 67.3 49.6 39.2 39.8 40.8 33.1 27.8 28.2 30.7 27.4 29.6 33.4 34.5 37.6 34.5 33.4 33.5 34.1 33.6 31.4 30 29.6 31.1 28.9 25.3 25.3 26.1 30.6 34.1 27.5 33.3 34.3 35.2 32.8 26.7 32.1 25.8 20.5 21.7 22.2 17.8 15 12.3 11 8.9 10.4 8.5 8.5 8.5 8.5 8.5 14.5 17.3 18.5 19.8 18.9 27.9 33.7 33.5 32.5 38.4 30.4 30.9 39.2 38 38 39.9 37.4 39.7 37.3 36.1 37.4 35 33.2 24.6 21.1 23.1 23.6 14.8 3.1 -2.3 -2.3 -2.3
54.7 59.8 61.3 58.3 58.2 65.7 74.4 80.8 82.3 90.4 92.9 97.8 100.6 103.4 103.4 106.3 106.1 99.9 84 65.2 64.3 76 76.1 81.1 81.3 78.2 73.3 62.8 53.4 48.1 42.3 35.6 28.9 31.9 30.5 19.7 13.7 13.4 13.9 9.6 8.6 9.1 5 4 4 4 4 4 8.8 12.7 15 14.8 16.3 15.6 16.9 17.6 18.6 20.5 24.7 27.1 29.2 31.4 34.6 40.3 43.9 50.9 54.9 58.4 62.8 67.4 72.1 74.1 75.2 72.9 67.9 68.6 65.4 64.7 66.1 67.8 69.4 68.1 69.2 68.3 73.3 75.5 88.3 103 115.1 124.1 130 127.4 128.4 124 108.5 98.7 83.4 66.3 47.6 45.2 45.2 45.2 45.2 45.2 45.2 47.5 45.2 56.4 61 70.8 71.1 81.5 89.8 81.8 73.6 77.1 74.2 66.9 61.1 39.2 38.7 28.5 36.8 31.1 26.8 26.8 26.3 29.1 29.9 30.2 37.2 35.7 32.6 32.1 31.2 32.4 32.9 31.6 28.3 27.6 29.4 25.3 25.3 25.3 27.7 27.2 31.6 27.2 32.7 33.3 32.3 25.4 24.2 24.2 18.7 19.5 16.7 15.3 12.4 10.6 8.5 8.5 10.4 8.5 8.5 8.5 8.5 8.5 8.6 14.4 15.7 18.6 16.6 22.4 27.4 34.8 30.4 34.1 25.7 31.9 33 38.7 39.6 36.1 42.4 32.7 35.4 33.8 34.2 32.6 31.1 24.3 18.8 22.9 22.8 22.1 6.7 -2.3 -2.3 -2.3
50.6 56 58.7 57.3 53.8 55.5 61.7 68.4 76 84 90.8 91.8 94.4 97 99.5 99.6 100.6 96.5 88.9 74.9 60 63.2 66.6 68.6 68.6 61.8 59.9 51.6 43.7 35.5 31.2 26.6 22.7 25.3 23 18.1 12.8 13.2 15 10.9 10.3 8.5 6.3 4 4 4 4 5.6 11.6 16.7 19.2 20.5 20.1 19.9 20.9 23.4 25.4 30.2 35.7 36.2 38.1 40 46.3 50.8 53.4 56.5 59.9 63 65.6 68.8 71.7 75.3 76 76.2 73.9 72.9 71.4 68.5 70.7 74.7 78.3 76 73 77.5 85.1 88.4 97.6 109.9 121.6 129.3 133.5 136.2 140.9 136.6 120.1 108.7 90.4 70.4 56.2 49 45.2 45.2 45.2 45.2 45.2 48.1 49.1 45.2 51.3 65.7 70.8 78.2 85.4 85.3 77.8 67.8 73.8 67.7 63.9 56.6 39.6 38.7 27.5 33.5 28.3 24.9 20.2 27.4 28.1 27.7 31.2 32 35.1 33.8 29.2 30.2 33.6 29.9 28.6 25.2 29.5 25.3 26.2 27.6 25.3 27.2 27.2 27.2 28.5 30.3 31.8 28.5 24.2 26 22.5 11.5 14.3 15.8 14.9 11 8.5 8.5 8.8 8.5 8.5 8.5 8.5 8.5 8.5 10.3 12.6 11.8 14 22.1 26.2 28.6 33.1 31.6 25.2 28.8 32.2 34.2 34.1 29.6 30.7 33.6 27.7 24.7 26.1 30.5 27.6 27 21.7 20.7 18.3 17.8 10.6 -2.3 -2.3 -2.3
42.5 50.6 53.5 54 51.8 50.3 52.4 58.8 68.7 76.3 84.3 87.1 91.8 93.1 90.3 91.4 93.6 92.1 87.2 76.6 67.8 55.6 48.2 49.8 54.7 53.9 46.6 43 35.7 27 18.4 16.8 16.7 14.3 13.7 12.2 10.2 13 18.5 14.7 12 8.1 4 4 4 4 4 9.2 16.4 22.3 25.3 26 26.4 26.1 27.1 30.1 34.1 41.1 47 49.8 51.5 55.9 59.3 61.2 63 63 62.8 64.9 68.2 70.4 73 76.1 78.6 79.7 79.7 79.1 77.7 76.4 79.5 84.4 87.5 87.7 86 91.6 96.5 98 109.3 119.5 126.9 132.8 139.5 143.9 150.4 147.8 130.5 113.7 97.9 76.4 66.4 56 50.7 45.2 45.2 45.2 45.2 46.5 49.6 54.6 48.6 57.1 62.5 73.8 83.4 94.7 74.2 65.3 72.6 67.7 63 57.6 37.9 37.4 29.5 33.9 27.1 21.5 19.7 24.4 26.6 27.2 26.6 28 33 32.1 31.8 27.7 31 31.9 32.8 25.8 25.2 25.3 30.6 33.7 31.9 30.5 27.2 27.2 27.2 27.2 33.3 28.7 29.2 29.8 19.7 10.9 10.8 10 11.8 11 13.2 8.5 8.5 8.9 8.5 9.6 8.5 8.5 8.5 13.8 13.1 14.6 18.3 18.4 22.5 27.3 31 28.8 25.6 30.2 30.8 32.3 31 32.6 25.9 24 23.9 24.3 23.3 26.6 27.7 24.8 24.6 17.7 13.6 13.7 -2.3 -2.3 -2.3 -2.3
30.8 40.8 45.4 49 49.5 48.2 47.3 48.2 53.9 63.4 73.6 78 84.3 87.8 89.3 86.3 83.7 81.5 77.7 75.6 67.8 65.8 57.2 43 39.2 39.1 36.3 35.1 29.9 20.3 12.7 8.3 10 7.6 6.4 5.6 7 10.2 12.4 15.9 11.3 10.4 4 4 4 4 4 11.9 19.3 28.1 33.1 33.5 33.1 33.9 34.6 37.4 42.3 51.7 60.9 65.2 67.8 71 71 71.4 71.5 71.8 70.6 71.2 71.4 71.5 73.3 77 79.5 83.9 86.7 86.8 85.6 85.8 88.6 93.5 96.9 99.1 101.2 106.5 109.6 112.7 119.4 127.1 135.6 139.9 149.4 155.7 157.4 154.9 140.4 122.8 106.2 82 74.1 70.5 60.7 51.9 45.2 45.2 45.2 45.2 50.6 54.3 56.9 52.8 58.7 68.8 81 89.3 85.2 68.5 58 68.2 61.5 55.1 40.6 34.7 34.9 27.1 31.9 29.2 19.7 25.5 25.8 24.7 25.1 28 29.8 31 31.8 30.4 28.9 30.3 26.9 25.2 26.1 26 36.9 32.2 34.4 37.6 27.2 27.2 27.2 27.2 27.2 31.5 30.3 31.9 28.9 21.1 13.4 16.6 8.5 8.5 8.5 8.5 8.5 8.5 11.1 8.5 8.5 8.5 8.5 8.5 16.2 17.3 20.3 21.6 23.5 26.6 28.7 27.5 25.2 25.2 35.8 30.2 30 27 24.5 23.7 23.5 24.5 25.1 22.9 20.3 20.3 20 15.2 11.1 7.9 -2.3 -2.3 -2.3 -2.3
36.2 26.9 40.7 44.6 48.2 49.3 45.1 44 47.1 51.3 58.2 65.1 71.4 77.6 83.4 91.5 87.7 79.8 75.4 66.2 65.1 60.5 60.5 55.5 47.5 40.6 34.8 29.3 26.2 19.3 13 8.7 6.8 4 4 4 4 7.1 9.4 10.6 8.5 8.7 4 4 4 4 4 15.8 27.4 36.1 42.2 41.9 40.8 42 44.4 49.2 55.2 67.5 74.6 81.3 83.1 84.2 86.5 84.3 84.4 83.8 80.4 78.3 78.4 78.9 79.4 81 83.3 87.2 92.7 94.1 93.7 95.3 100.5 102.9 105.1 109.3 113.6 118.9 122.1 122.8 128.5 135.7 143.9 151.8 161.8 166.8 169.7 166 152.8 136.7 116.8 90 84.9 79 69.6 55.2 48.7 45.2 45.2 45.2 52.3 55 56.9 57.7 59.1 63.3 68.4 76.7 78.1 56.2 51.1 65.1 60.6 55.1 46.7 32.5 35.6 27.6 27.4 32.6 23.7 19.7 26.3 25.1 24.7 24.7 28.5 30 30 30.2 29.4 28.1 26.5 26.7 26.1 28.3 33.1 36.2 37.6 36.2 31.2 33 27.2 31.8 32 32.1 33 30.3 29.4 23.8 16.8 11 14 8.5 8.5 11.9 11.4 12.5 12.6 13.1 8.5 8.5 8.5 8.5 13.4 13.7 20 24.2 24.4 26.7 28.7 29.3 26.1 25.2 25.2 27.2 27.3 23.5 22.3 24.5 21.2 20.7 28.5 30.4 21.8 21.2 17.6 12.7 12.6 9.4 -2.3 -2.3 -2.3 -2.3
41.3 31.5 24.9 43.1 47.9 47.6 44 42.4 39.1 39.1 45.5 45.4 50.7 54.6 65.3 73 78.4 78 73.7 68 60.5 55.9 48.9 42.6 38.4 34.3 28.7 26.3 22.2 19.6 18.2 14.7 13.2 11.5 7 4 4 4 4 4 5.3 4 4 4 4 4 4 21.1 31.9 46.5 53.3 49.6 49.1 50.7 52.6 59.2 69.7 81.4 90.2 96.1 99.1 97.9 99.7 99.4 98.3 95.8 92.4 90.1 89 89 88.7 90.9 93.2 97 102.1 103.6 104.3 109 112.1 114.9 118.8 121.1 122.4 128.6 131.3 134 139 144.9 153.7 165.4 174.5 178.5 180.4 176.6 167.9 145 121.1 99.3 94.9 89 77.1 61.5 51.8 48.8 45.2 45.2 49 56.8 56.8 58.1 57.3 55.9 60.6 64.4 71 68.1 49.6 52.4 57.5 52.2 54 32 32.3 27.6 24.4 30.5 28 19.7 22.9 25.2 27.3 27.5 27.9 28.1 28.4 30.4 28.8 26.4 26.1 26.2 28.7 27.3 32.1 40 37.3 37.2 34.9 34.1 35.3 35.6 39.7 34.8 32.9 33 31.9 28.2 19.2 9.4 10.4 10.2 11.6 13.5 8.5 10 15.2 9.5 8.5 8.5 8.5 8.5 9.4 14.9 15.6 23.7 27.3 26.4 26.5 29 29.6 25.2 30.3 29 29.4 27.1 22.7 20.2 20.2 20.2 21.7 25.6 24.9 24.9 25.3 13.8 12.1 13.5 11.9 -2.3 -2.3 -2.3
40.5 38.3 26.6 28.1 43.4 47.1 44 38.5 32.3 31 33.4 34.6 39.1 38 41.9 52.5 60.9 68.8 67 65.6 60.3 58.8 50.6 40.4 26.7 22.2 22.4 21.3 18.1 16.1 13.6 11.4 11 12.7 14.6 12.4 10.2 4 4 4 4 4 4 4 4 4 8 22.6 37.4 50.2 57.5 54.7 55.8 59.1 63.9 67.5 77 92.2 102 109.8 115.1 115.2 113.2 112.2 111.3 108.1 103.9 102 102.2 101.5 101.1 103.1 108.1 111.1 112.2 114.3 117 122.7 125.7 127.9 129.2 128 130.2 135.7 138.3 143.3 152 158.3 168 179.1 187.9 189.9 190.6 190.5 176.4 150.1 120.9 102.7 103.8 94 81.5 67.4 54.6 48.2 45.2 45.2 45.2 57.2 57.1 57.6 57.5 55 57.3 55.8 63.2 68.9 51.1 54.2 52.7 50.9 54.4 43 28.7 30.9 32.5 24.4 30.4 19.7 19.7 25.1 25.7 27.7 31.1 28.4 27.7 29.9 30.7 27.1 28.4 26.2 27.3 28.9 30.3 34.3 37.1 38.2 37.2 37.9 39.8 43.1 37.9 42.2 37.8 32.7 32.2 32 20.9 13.6 12.2 8.2 10.3 12.9 14.6 14.8 8.5 8.5 8.5 8.5 14.3 11.1 8.7 9.7 12.9 19.6 26.9 30.6 27.2 25.1 28.1 29.6 25.4 25.3 30.9 25.6 25.1 29.3 25.9 26.6 23 21.6 21.8 21 20.8 15.9 13 16.5 16.9 -2.3 -2.3 -2.3
41.8 39.9 33.4 23.4 28.1 40.4 41.3 37.1 27.2 24.9 27.3 28.6 24.5 23.1 29.3 33.1 44.3 56.4 58.2 56.9 55.8 54.1 50 45.1 23.4 13.6 12.5 12.5 13.9 13.2 11.1 8.8 6.9 6.9 12.2 14.5 12.6 9.3 8.9 8.1 4 4 4 4 4 4 8.2 19.6 36.5 46.3 53.1 54.3 58.3 71.7 80.8 85.3 94.5 107.3 116.1 125.3 129.6 129.2 125.2 123.4 123.4 122.7 121.4 119.3 116.8 116.8 116.1 118.7 121.7 122.1 121.8 126.4 128.6 135 137.2 139.4 139.7 135.8 141.9 143.7 145.5 154.8 163.3 172.5 183.7 191.6 199.9 202 202.2 197.7 182.5 152 120.2 105.7 107.8 93.3 84.5 71.5 57.6 48.3 46.3 45.2 45.2 50.1 57.6 57.3 55.5 52 57 63.1 58.9 62 49.6 54.8 50.7 49.2 52.4 47.5 32.2 29.1 37.7 25.8 24.4 28.8 19.7 19.7 25 24.4 24.5 27.7 26.1 25.7 24.3 28.3 24.8 21.2 23 24.9 26.5 30.7 37.6 38.9 37.7 40.5 44.5 41.9 41.9 39.8 40.2 29.1 36.9 35.4 25.6 16.8 9.1 7.7 7.8 10.7 12.9 14.6 16.6 18.4 12.9 10.4 8.5 11 8.5 13.1 13.5 12.4 19.9 25 27.6 24.9 25.7 33.1 31 25.4 25.3 27.4 33.1 35.3 34.2 32.2 28.2 26.5 21.6 20.2 20.7 19.8 15.1 17.7 18.6 14.3 -2.3 -2.3
43.6 43.7 40.3 31.7 22 19.6 33.8 37.7 23.9 24.1 25.5 24.3 19 17.8 19.2 25 29 36.6 44.2 46.6 45 43 42.2 37.8 30.1 21 12 10.7 12.2 11.2 9.5 7.5 6.9 6.9 6.9 11.7 12.6 11.7 11.6 16.8 8.6 4 4 4 4 4 4.8 14.4 32.8 42.3 45.6 50.7 58.5 83.6 102.4 113.7 117.3 128.8 134.5 142.3 142.4 142.7 139.8 135.6 137.4 136.4 136 136.9 137 134.8 133.9 132.7 133.2 133.2 131.4 131.5 138.3 143 146.3 146.2 145 143.7 147.9 150.1 158.5 168.7 178.1 188.6 198.4 205.4 213.2 215 216 206.2 186.4 154.3 123.7 109.3 105.7 93.6 85.1 75.3 61.7 50 49.2 45.2 45.2 49.9 56.3 57.6 49 49.3 54.6 57.9 60 53.7 46.2 52.5 45.5 47.2 45.6 45.6 35.8 24.3 35.4 30.2 24.4 24.3 28.4 19.7 20.6 23 22.4 21.6 25 24.9 23.9 23.9 26.5 19.9 14.9 21.5 22.6 25 34.9 38.7 37.7 45.5 44.2 42.1 42 40.9 40.2 35.3 33 35.2 31.1 23.3 14.5 5.8 7.2 9.2 12.2 13.8 16.3 15.7 19.8 23.7 18.5 8.5 8.5 10.1 8.5 11.3 14.9 18.6 24 26.7 23.2 28.2 37.3 28.1 26.6 25.4 32.6 33.6 34.3 31.2 31.7 27.3 21.5 22 25.2 23.5 13.6 12.7 16.8 14 -2.3 -2.3
43.4 45.7 42.2 39 30.7 19.2 14.4 29.2 28.2 23.9 24.9 22 18.5 17.5 19.2 20.7 25.5 26 26.3 26.5 28 25.3 24.9 24.1 23 19 9.7 8.7 8.1 11.2 9.1 8.2 8.2 8.7 20.2 18.4 14.9 12 13.1 18.7 11.2 7.3 4 4 4 4 4 10.1 24.6 34.4 40.3 47.4 66.4 89.4 111.7 127.2 140.3 144 157.7 159 158.9 156.5 154.3 153.2 155.4 155.9 154.4 154.2 154.1 151.4 149.6 146.3 143.5 141.2 138.4 141.1 144.3 148.4 150.9 149.2 148.6 151.7 156.7 163.8 172.8 182.5 191.4 202.6 215.1 224.1 229.8 229.6 227.2 211.2 185.9 155.9 128.5 118.7 105.3 97.7 84.3 79.2 68 53.3 49.6 45.5 45.2 47.4 55.3 56.7 49 49 54.1 61.3 58.9 51.7 44.7 55.9 40 46.3 43.5 41.1 37.9 24.4 24.4 33.2 24.4 24.4 29.5 27.4 23.3 19.7 21.6 22.6 21.4 22.3 26.5 25.1 26.7 18.6 15.8 13.8 19 22.9 25.5 35.5 36 42.8 44.8 41.8 40 38.8 35.7 35.2 29.8 40.4 32.4 18.8 14.2 8.9 5.8 5.8 10.5 12.9 15.8 14.6 19.8 23.2 22.7 17.4 14.9 8.5 8.5 8.5 12 12.7 17.1 22.2 24 27.5 32.1 37.5 32.3 32.2 43.7 36.8 32.5 31.8 33.7 33.5 31.8 30.8 29 25.5 21.8 12.5 13.6 11.4 -2.3 -2.3
43.8 46 48.2 43.7 39.1 30.8 16.4 13.5 24.8 19.7 17.3 20.2 23.7 17.5 17 18.5 20.4 19.1 17 12.7 11.2 9 8.9 4.6 4.5 9.8 6 4.5 6.5 9.8 8.9 7.8 14.1 18.3 22.4 25.2 23.4 11.9 11.4 12.5 9.6 7.8 5.6 4 4 4 4 7.2 14.5 25.4 34.2 48.7 64.9 83.1 106 128.8 142.9 152.9 166.5 169.6 166.6 167.8 169.8 170.7 171.6 171.7 173.3 171.9 168.7 165.3 160.8 156.7 151.6 150.4 146.4 146.4 147.2 151.4 156 157.9 156.7 162.7 169.7 178.3 187.2 193.8 206.8 220.4 232 241.6 244.7 242.2 234 214.3 185.9 157.8 137.3 122.8 112.2 98.4 83.5 80.2 71.1 58.7 52.5 48.9 45.2 45.8 51.3 49 49 49 53 56.2 60.4 57 49.4 54.6 45 44.5 41.9 37 35.8 40.5 24.4 29.1 24.3 24.4 33.1 29.6 25 24.5 20.2 22.6 23.5 24.7 25.3 25 24.3 18.2 14.9 15.2 13.9 22.3 25.1 26.7 34.9 41.2 41.5 40.1 38 34.7 35.3 33.2 29.8 30.7 32 34.3 12.8 5.8 5.8 5.8 6.7 11.4 14.3 14.6 17 21.9 24.5 20.9 16.8 8.5 8.5 8.5 8.5 8.6 8.9 15.6 19.4 25.8 26.8 30.9 34.2 34.3 38.3 41.6 35.8 38.1 38.3 35.7 34.7 31.5 31.3 31.6 29.3 19.4 22 17.2 8.4 -2.3
44.9 44.2 49.1 49.3 43.9 34.3 27 13.5 12.8 16.7 13.1 16.6 24.9 23.6 16.6 16.6 15.8 11.7 5.5 4.5 4.5 4.5 4.5 4.5 4.5 4.5 4.5 4.5 6.2 7.3 7.5 8 13.9 20.2 19.3 18.9 20.2 16.7 10.1 9.9 9.5 8.2 7 4 4 4 4 4 10.5 18.7 26.9 35.6 58.2 76.4 92.7 112.4 131.6 147.4 161.7 169.7 178.9 183.5 185.1 187.1 189.4 192.8 194.5 194.5 188.5 178.5 173.3 166.2 160.9 157.2 154.5 154.4 152.6 155.2 161.8 165.6 167.3 173.9 183.3 192.6 199 211.1 223.8 235.9 248 254.1 255.2 253.1 241.9 218.4 186 158.7 140.6 128.9 117 101 90.2 80.7 73.9 59.4 48.9 47.3 45.2 45.2 49.3 50.8 52.5 49 49 54.5 57.1 61.8 60.9 55.9 42.3 37.4 38.5 33.3 33.3 41.1 35.6 24.5 26.5 24.4 35.1 32.5 25.8 25.5 26.1 19.7 27.6 26.3 29.6 27.7 23.1 16.3 14.8 14 14.3 16.6 22.6 22.3 29.6 37.6 37.7 38.1 35.3 32.2 36.4 37.6 32.3 19.8 20.3 21.3 18.6 8.4 5.8 5.8 11.1 9 11.2 15.5 17.6 22 23.5 20.9 17 13.1 8.5 15.9 8.5 8.5 8.5 12.7 20.3 24.9 26 33 34.5 32.4 31.5 34.7 35.6 33.2 41.8 37.8 40.5 36.8 33.8 32.3 28.2 20.9 17 18.2 11 -2.3
44.9 47.4 47.8 51.6 43.9 38.3 31 23.7 11.8 11.2 14.4 16.4 16.6 17.8 20.3 19.7 13.9 9.9 4.5 4.5 4.5 4.5 4.5 4.5 4.5 4.5 4.5 4.5 9.8 13.8 8.6 8.8 12.8 14.7 13.2 12.9 14.6 15.6 8.8 8.5 8.6 6.7 6.3 6.4 4.4 4.1 5.2 5.9 7.6 13.9 22.5 26.7 38.9 49.3 59.7 77.7 102 123 140.3 173.1 188.6 196.5 197.6 201.6 207.5 211.5 212.6 213.2 210.4 203 191.1 178.2 170.8 164.3 162.1 160.4 161.8 162.8 166.6 173.4 179 185.1 192.3 201 212.1 224.1 240.2 251.5 261.3 264.9 264.4 263.5 245.5 216.3 182.9 157.9 148.3 133.6 122.3 102.7 92.5 81.5 74.6 60.4 49.8 50.1 47.8 49 50.2 51 51.8 52.4 58.3 56.2 53 61 65.2 61.5 45.9 35.9 37.2 35 33.3 36.8 33.3 36.4 24.3 24.4 24.4 29.2 33.5 32.3 27 24.4 15.9 29.3 33.9 27.6 18.6 16.6 15.9 15 15.7 20 17.8 22.2 24.2 29.8 36.4 39.4 34.1 28 25.4 26.8 27.1 20.4 21.3 6.7 15.4 11.9 6.4 5.8 9.9 11.6 12.6 13.3 16.2 17.1 20.6 21.4 18.2 19.1 13.7 12.6 16.2 16 10.4 8.5 11.9 17.8 23.4 27.2 30.5 40 33.8 30.8 34.2 35 31.9 33.2 33.8 32.3 31.5 31.8 23.6 28.6 13.2 23.5 18.7 -2.3
37.3 48.6 49.3 44.6 47.7 41.6 35 29.9 20 11.3 10.8 13 14.8 15.2 15.7 17.7 16.2 10.7 6.9 4.5 4.5 4.5 4.5 4.5 4.5 4.5 4.5 4.5 9.6 12.3 10 9.8 11.9 12.4 9 8.5 8.7 10.3 10.4 7.5 7.1 6.1 5.5 4.8 4.7 5.7 5.7 6.3 7 10 15.3 19.5 24.5 30.8 37.1 49.9 70 89.2 118.9 148.7 175.3 194.9 205.7 215.1 224.8 229.3 230.8 230 227.6 220 209.6 196.3 183.8 176 171.3 168.7 169.9 174.1 178.1 183.6 188.8 194.2 204 212.2 224.1 242.1 253.1 262.4 272.2 273.1 272 263 237.6 209.6 178.9 167.2 150.1 138.4 122.7 106 93.1 82.7 70.6 58.9 52.1 48.2 54.7 57.9 55 53.5 52.9 55.9 64.6 57.6 50.5 53.5 58.3 62.3 54.6 42 33.3 33.3 34.1 33.3 33.3 33.3 33 24.3 31.2 30.9 32.7 35.2 33.7 33.6 30.4 14.1 13.3 17.3 15.4 10.9 11.6 12.8 14.1 15.6 18.6 21.2 22.5 22.1 29 32.8 36.9 30.8 29.1 26.8 27.8 18.5 17.2 9.2 1.2 1.2 1.2 1.6 2.3 11.1 16.6 13.9 12.6 13.6 14.3 14.7 18.4 18.9 14.9 14.4 15.9 20 18.5 12.9 16.7 15.4 13.3 19 22.3 26.4 31.7 32.4 33.6 36.9 29.8 34.7 36.5 35.8 33.8 31.6 26.2 19.6 7 11.5 15.2 -2.3
35.4 42.6 48.4 45.6 44.1 45 40.2 29 25.9 17.4 10.3 10 16.7 19.1 13.5 12.7 12.9 14.8 14.4 8.9 4.5 4.5 4.5 4.5 4.5 4.5 4.5 7.5 7.8 9.5 9.5 9.4 9.6 9.5 4.5 4.5 4.5 4.5 6.1 6.9 6.4 5.8 5.8 4.3 5.1 6.2 6.3 6.4 7.7 9.4 12 14.6 17.7 20.9 28.1 40 55.5 74.8 97.8 124.5 152.8 178.5 206.7 221.2 236.1 243.9 248.4 246.5 241.6 233.9 223 213.6 201.5 193.9 182.9 179.5 184.8 188 191.5 193.6 198.4 203.8 214.3 222.6 234.9 249.7 261.5 272.2 277.9 281.3 277.1 257.1 230.6 204 188.1 169 159.3 137.8 120.8 103.9 89.3 76.6 67.9 56.6 50.4 52.6 59 62.8 59.1 58.3 55.1 56.2 67.8 59.2 60.4 50.5 54 56 54.9 49.7 43.5 33.3 33.3 35.9 33.3 33.3 37.7 24.4 25.8 35.5 38.9 40.2 38.4 35.6 41.3 36.3 29.3 21.5 10 11.6 11 10.1 11.3 16.9 18.4 16.3 18.7 19 20.5 23 35.1 28.6 26.3 29.9 24.4 20.7 13 12.2 21.6 1.2 1.2 1.2 2.4 8.8 15.5 20.4 19.5 15.2 15.6 15.6 18.8 18.6 17.4 12.4 10.2 15.4 23.8 23 20.4 22.4 23.5 13.3 13.3 13.3 22.9 26.3 29.5 32.9 28.9 28.8 34.3 33.2 30.9 25.8 27.5 22.6 1.7 1.7 -2.3 -2.3
27.8 38.6 41.4 42.3 42.8 41 41.9 36.6 29.8 25.9 16.4 9.9 12.6 21.3 15.1 12.3 8.4 6.2 8.4 15.5 15.4 12.9 4.5 4.5 4.5 4.5 4.5 4.5 7.8 7.9 8.2 7.2 6.8 4.8 4.5 4.5 4.5 4.5 5.6 5.6 6.2 5.9 4.8 4.7 5.5 6.5 6.8 7.5 8.2 9.8 12.5 15.3 18.8 24.1 29.7 40.2 53.7 74.3 93.6 110.4 133.7 161.2 187.3 215.7 235.5 249.8 261 259.4 253.6 246 237.9 227.8 218.8 208.9 198.5 194.9 199.3 200.2 202.3 205.6 210 213.1 221.9 236.2 245.2 256.1 270.4 277.7 284.1 285.5 278.3 261.1 230.1 203 190.2 177.8 161.1 136.9 114.8 100.2 80.8 73.9 64.9 65 63.1 62.9 61 67.5 62.9 62.5 57.2 57.4 69.5 67.8 65.1 50.9 50.5 58.2 58.4 51 46.1 39.4 33.3 38.8 40.3 33.3 37.5 36.2 27.3 28.4 40.2 44 48.9 41.4 38.4 38.1 34.5 29.5 30 16.2 8.6 9.2 11.1 13.3 13.7 13.6 15.3 16.1 16.1 21.2 22.1 22 25.3 27 23.6 22.5 13.1 15.2 27.2 23.2 13.9 2.5 5.4 10.2 15.2 23.2 23.6 18.5 16.9 21.2 25.5 29.9 26.2 13.4 10.3 14 21.8 25.5 23.6 22.3 24.3 23.8 14.7 13.3 13.3 15.8 16.3 22.1 23 19.5 24 24.5 25.6 25.2 26.5 28.2 15.3 1.7 -2.3 -2.3
23 38 39 41.3 41.4 40.4 40.7 35.5 33.4 27.1 25 13.3 10.4 14.6 16.1 16.8 11.7 5.7 5.7 9.2 13.6 16.5 10 4.5 4.5 4.5 4.5 4.5 4.5 6.8 7.1 7 6 4.5 4.5 4.5 6.1 5.9 5.6 5.6 6.8 5.5 4 5.2 6.1 6.3 6.7 7.3 7.9 9.8 11.9 14.9 18.7 24 34.9 48.2 63.9 80.5 94.5 111.8 130.7 153 174.8 197.2 218.9 239.4 255.8 264.7 259.5 255.3 248.8 241.1 231.9 223.5 217.5 211.6 209.6 211 214.8 217.9 221.1 224.2 230 243 254.3 267.2 279.6 286.9 290 287.1 278.1 259.4 229.9 209 197.9 181.9 162.8 145.5 122.3 100.4 86.9 81.7 77.1 70.8 64.9 63.4 63.6 69.3 68.8 64.4 59.5 59.2 64 71.5 66.3 52.4 50.5 58.8 59.2 55.8 48.3 52.5 40.8 35.3 44.4 37.4 35.6 36 29.7 27.4 31.7 42 42.5 42.1 46.9 41.4 36.6 35.6 31.7 21.9 13.9 7.6 8.7 9.5 12.6 11.2 11.9 11 10.7 15.2 15.6 10.2 20.6 24.9 21 19 22.3 13.3 22.4 24.2 18.5 13.5 1.3 -2.3 9.4 20.3 23.6 20.5 20.6 20.6 24.4 27.8 24.2 18.2 11.4 10.4 18.3 20.7 23.5 21.7 21.7 20.7 18.4 13.3 18 16 17 21.2 25.5 19.2 18.4 20.3 26.8 32.2 23 23.7 22.6 14 0.4 -2.3
13.2 37.4 39.1 38.9 44.7 42 41 35.6 32.3 32.2 27.5 20.9 12.1 9.4 15.6 19.3 16.4 14.4 6.1 6 6.4 7.9 10.7 6.8 4.5 4.5 4.5 4.5 4.5 4.5 8.3 8.4 7.8 4.5 4.5 4.5 4.5 6.2 6.7 5.6 6.8 5.9 4 5 6.2 6.8 7.2 7.4 7.7 9.6 14.3 22.5 31.1 39.7 50.3 60.1 70.6 85.8 99.9 115.3 134.5 150.3 167.3 183.6 201.6 220.1 237.5 251.6 256.3 258.1 254.9 250.1 243.3 236.3 232 228.6 224 226.4 228.2 230.5 233.2 236.6 238.9 250.6 260.8 273.2 287.7 299 297.6 288.8 275.3 249.2 231 215.9 201.2 191.5 180.6 159.4 130.2 117.9 105.3 92.3 84.1 73.5 66.9 65.1 63 70.8 76.5 65.5 63.3 62.3 63.3 72.8 71.7 58.1 52.4 50.5 58 60.8 53.2 46.1 43.7 45.7 41.4 38.7 35.5 31.5 32.6 25.8 30.2 31.8 36.9 40.9 48.3 38.8 32.5 36.6 34.8 27.7 19.2 15.3 15.5 7 8.5 10.1 8.6 11.6 11.4 5.4 8.8 8.8 11.5 18.1 20.6 14.7 18.1 10.5 26 21 20.5 8.4 5.2 -2.3 -2.3 15.9 23.9 19.2 18.4 20 30.7 31.6 27.2 18.8 11.2 7.5 15 18.2 22.9 25.7 22.4 22.7 22.5 19 28.3 26.1 28.5 16.8 18.9 14.2 14.3 14.2 14.2 22.2 20.3 19.6 24.3 16.4 8.8 -2.3
-2.3 30.3 42.7 41.1 45.2 44.5 43.1 40.4 36.4 31.3 30.2 28 21.3 13.3 9.8 15.2 21 10.7 8.7 7.3 8.4 7.5 4.5 4.5 4.5 4.5 4.5 4.5 4.5 4.5 4.5 6.6 5.5 4.5 4.5 4.5 4.5 7.8 6.6 5.6 9.7 5.9 5 6.4 7.7 7.7 8 7.7 8.8 13.6 24.7 33.4 42.6 54.9 68.9 75 83.4 95.2 109.5 124.5 138.2 144.2 166.7 180.8 194.6 208.7 221.7 235.8 253.8 262 262.3 258.3 254.2 248.6 244.2 243.3 242.8 242.2 245.2 246.6 247.4 250.3 251.5 258.2 268.8 278.9 288.9 297.9 302.3 289.7 267.6 244.5 232 222.1 214.1 206.4 189.4 179.9 158.3 124.9 106.1 91.4 83.7 72.6 66.9 65.9 60.9 66.2 70.1 66.4 67.3 67.1 64.5 69.2 67.1 63.2 63.7 50.5 56.1 63.8 57.1 46.1 44.8 47.6 38.2 38.6 35.1 34.9 25.7 25.7 25.7 34 30.2 34.3 42.4 40.6 32.2 31.7 29.2 28.4 22.9 28.6 20.5 16.3 9.2 5.1 6.5 8.4 8.9 7.6 1.3 5.5 11 11.4 7.5 11.7 9.2 9.2 22.9 22.9 18 13.4 1.1 -2.3 -2.3 14.2 15.1 19.6 18.5 24.8 33.7 31.7 25.5 17.6 7.5 7.5 13.1 16.8 22.4 24 28.1 25 24.6 23.5 30 30.4 34.4 26.5 14.2 14.2 14.4 14.2 14.2 16.7 21.4 18.8 17.8 18.6 12.5 8.2
-2.3 17.6 36.4 44.4 41.8 43.4 45.2 43.8 38.1 37.9 32.8 31.5 28.1 21.2 14.2 10.7 15.5 15.1 11.9 10.8 12 13.5 13 9.1 4.5 4.5 4.5 4.5 4.5 4.5 4.5 4.5 4.5 4.5 6.1 9.4 7.6 7.6 6.3 5.6 7.4 5.3 5 7.9 11.5 11 9.7 9.3 11.6 16 30.3 40.8 46.6 61.1 76.4 87.7 94.9 105.7 118.3 133.8 147 159.8 173.2 177.6 193.5 205.3 215.4 224.6 241.7 260 267.9 265.7 261.6 258.5 255 253.1 253.2 255.3 257.9 261.7 265.3 267.4 270.2 270.6 278.9 287 293 297.7 300.1 291.8 264.2 245 240.4 231.9 226.3 224.1 220.3 192.8 158.9 124.8 103.8 89.2 80.6 72.1 69.6 65.9 61.3 61.9 62.7 65.9 70.6 67.7 63.9 63.7 63.6 66.3 72.9 61.9 50.5 55.3 56.5 45.4 46.2 44.4 43.2 34.4 34.4 37 29.8 25.7 25.7 30.3 30.7 30.2 37 38.7 40.2 33.8 28.5 24.7 23.9 28.6 24.2 15 9.9 6.7 6.9 4.3 7.5 8.1 1.7 3.5 7.1 6.3 5.8 4.9 -2.3 -2.3 17.1 20.8 16 8.5 -2.3 -2.3 -2.3 11.1 17.2 14 15.7 17.8 20.4 31.3 25.1 8.3 7.5 10.1 13.3 18.2 20.9 22.5 26.8 31 25.4 28.3 34 33.9 37.5 29.7 24.9 14.2 14.2 14.2 14.2 15 15.1 14.8 16.8 17.3 19.1 18.3
-2.3 -2.3 21.3 37.1 41.8 40.7 44.5 46.2 40.7 44.1 43.4 41.9 34 27.8 21.2 12 7.1 11.2 16.6 14.4 14.7 20.4 17.1 7.5 6.4 4.5 4.5 4.5 4.5 4.5 4.5 4.5 4.5 4.5 7.5 9.9 7.7 7.3 8.4 5.9 5.7 5.1 4.9 10.6 17 15.2 16.1 18.4 24.1 21.1 32.1 39.6 50.3 61 75.9 88.5 103.2 114.6 127.9 143.5 156.2 168.8 180.7 188.7 194.5 204.1 213 222.2 232.5 247.5 264.2 269.5 269.4 268 266 265.9 267.8 269.1 273.9 279 282.5 286.3 287 286.6 290.8 296.4 297.8 298.7 296.6 283.7 266 256.8 247.8 243.2 250 247.9 238.7 197.1 163.4 131.6 107.8 92.9 80.4 72.6 70.4 67.4 59.3 53 52.5 61.5 69 66.9 62.3 62.9 64 67.9 73.7 63.8 55.1 54.4 46 46 49.6 51.5 45.7 42.8 33.7 32.7 31.9 28.2 25.7 25.7 27.1 31.2 29.5 33.6 37.1 34.1 31.9 23.8 23.1 26.1 21.8 14.9 10.1 9.1 8.6 8.4 6.2 -2.3 -2.3 -2.3 -2.3 -2.3 -2.3 -2.3 -2.3 -2.3 -2.3 10.7 12.8 6.2 -2.3 -2.3 18.1 10.9 21.2 17.7 15.4 11.5 11.7 17 17.3 7.5 9.9 16.3 12.9 16.4 21.8 22.7 30 33.3 31.6 25.4 24.2 27.2 29.7 30.7 25.2 19.1 14.2 14.2 14.2 14.2 16 13.4 13.2 15.8 14.4 13
-2.3 -2.3 5.4 20 33.2 37.9 41.7 46.2 41.9 43.4 50.7 51.8 45.3 35.7 27 20 7.8 5.8 11.5 19.3 16.9 22.6 19.4 15.8 9.3 4.6 5.5 4.5 4.5 4.5 4.5 4.5 4.5 4.5 4.5 5.6 5.8 6.1 6.2 5.9 5.6 5.6 4.5 12.9 23 20.8 28.4 24.4 27.2 23.3 29.1 40.9 51 64.9 75.1 93.7 107.3 122.7 138.5 156.8 165.4 178 189.3 197.5 202 207 214.9 220.8 227.8 236.3 253.6 267.6 272.8 275.7 273.8 271.3 273.1 277.7 286.3 296.5 302.3 305.6 305.8 304.9 305 306.4 303.3 302.7 299.1 286 276.5 267.1 264.7 267 270.6 269.6 248.8 204.8 178 153 119.2 104.4 81.6 70 68.2 64.6 57.4 53.3 49.9 56 65.5 62.2 59.7 61.5 63.6 72.1 70.7 69.3 69.4 52.3 46 46 58.5 55.5 49.7 43.1 35 33.3 38.5 34.5 25.7 25.7 25.7 26.9 29 29 32.9 37.6 34.6 27.7 24.8 23.4 25.5 22.2 11 9 9.2 9.8 8.3 -2.3 -2.3 -2.3 -2.3 -2.3 -2.3 -2.3 -2.3 -2.3 -2.3 8.3 11.4 3.6 -2.3 -2.3 -2.3 -2.3 -2.3 11.4 10.3 11 18.6 19.8 14 13.2 15.8 27.5 24.1 19.4 21.8 26.4 30.1 34.3 36.5 38.4 29 37.6 36.9 37.5 27.3 19.3 14.2 15.6 14.2 16.5 19.8 16.6 10.9 10.9 13.6 11.6
-2.3 -2.3 -2.3 5 16.4 29.7 44 42.3 43.7 44.3 52.7 56.6 52 44.1 36 25.5 17.4 10.5 5.5 14.9 19.2 17.7 17.9 13.7 11.9 13.5 6.7 7.5 4.5 4.5 4.5 4.5 4.5 4.5 4.5 4.5 4.5 6 7.5 5.8 5.4 5.1 4.5 15.9 21.4 25.1 29.3 30.9 27 26 29.8 38.8 52.4 67.9 82.1 100.3 117.4 138.9 154.2 169.3 180.5 188.8 201.2 206.9 209.5 214.9 219.2 222.2 224.4 229.2 235.5 250.5 264.7 270.7 276.1 277 277.8 284.7 299 309.3 316.5 322.2 323.6 321.9 321.3 317.9 317.2 314.4 309 300.6 291.3 289.6 295.2 292.2 292 288.3 274.8 218.2 185.5 159.2 125.9 106.1 81.8 70.1 64 59.4 54.4 47.3 45 51.5 60.8 60.9 58.4 60.6 64.4 67 67.5 70.4 74.2 64.6 46 46 56.8 55.8 54.8 46.6 42.4 36.5 33.2 36.9 25.7 25.7 25.7 25.7 28.7 31.7 29 33.9 34.9 32.1 25.4 21.3 15.9 19.1 18.9 12 9 8.8 8.8 8.3 9.7 9.1 7.4 -2.3 -2.3 -2.3 -2.3 -2.3 -2.3 -2.3 -2.3 -2.3 -2.3 -2.3 -2.3 -2.3 -2.3 -2.3 8.3 6.8 8 17.2 15.5 9.7 21.2 32 25.9 18.2 22.9 24.7 33.2 37.9 36.3 40.8 36.3 42 40.2 41.1 32.2 18.7 17.9 19.8 25.1 26.2 26 19.4 17.4 21.2 20.8 13.7
-2.3 -2.3 -2.3 -2.3 9.8 17.5 38.7 45.3 40 47.8 56.6 59.7 57.2 49.6 40.8 33.4 24 13.9 14.4 5.7 14 16.9 15.4 12.8 13.2 14.6 10 7.6 4.5 4.5 4.5 4.6 10.4 4.5 4.5 4.5 4.5 5.9 6.3 5 5.2 5.2 5.2 16.9 22.2 30.8 31.6 31.3 29.2 29.7 36.9 42.7 52.3 69 85.9 104.8 122.6 145 162.5 177.9 190.6 198.4 210.2 218 221.5 221.7 222 221.2 222.4 224.3 226.4 232 242.1 263.5 268.9 274 279.7 287.3 301.6 316.1 327.6 334.3 335.6 336.6 334.2 330.5 330.2 326.8 319.4 317 307.6 304.8 309.3 314.4 310.7 304 284.4 233.5 200.5 163.9 129.3 109.7 89.4 71.7 60.1 54.4 49.6 45.2 41.7 46.1 53.5 59.2 60.2 59.3 63.8 64.9 65.4 66 69.1 65.2 46 46 52.3 61.8 54.1 52.9 45.6 34.9 36.3 32.4 33.4 33 28.1 25.7 32.7 34.9 31.1 29.1 26.7 25.4 25.6 22.1 19.3 16 15.4 15.1 16.8 9.3 8.2 7.5 8.2 7.4 10.2 9.7 -2.3 -2.3 -2.3 -2.3 -2.3 -2.3 -2.3 -2.3 -2.3 -2.3 -2.3 -2.3 -2.3 -2.3 -2.3 8.5 5 6.3 12.1 8.5 10.2 20.8 24.6 18.3 21.9 22.7 31 33.3 32.4 32.7 32.3 32 36.3 33.4 28.5 22.9 18.1 20.9 30.8 29.7 29 23.3 23.5 27.9 22.7 15
-2.3 -2.3 -2.3 -2.3 5.7 10.4 27 40.7 38.7 47.4 59.6 60.5 58.6 55.7 48 42 33.3 19.5 11.4 10.1 1.7 12.7 13.6 14.8 15.5 13.4 14.9 16.1 13.9 4.5 4.5 4.5 6.3 4.5 4.5 4.5 4.5 4.5 4.5 4.5 5 4.5 4.7 12.8 25 37.5 36.7 34.4 35 37.7 41.2 48 53.9 68.3 88.2 105 126.8 148.1 166.5 181.7 191.8 204.5 214.9 226.9 229.4 226.6 223.2 221.6 219.1 218 219.4 222.2 228.5 241.8 252.2 262.2 273.3 284.3 296.3 315.2 333.2 339.8 341.9 342.1 345.8 349.6 348.6 341.5 340.6 330.1 323.4 321.7 321.2 324 325.5 325.4 300.9 260.9 219.9 171.8 137.6 111.3 94.1 75.4 60.4 50.4 46.1 44.2 39.4 41.5 46.2 52.1 53.1 57 60.9 61.2 61.5 63.1 67.6 71.7 72.6 46 52.7 57.5 55.5 53.4 49 42.6 35.8 37.5 33.4 29.6 24.6 28.5 30.7 32.7 36 33.9 25.6 23.2 24.3 22.2 20.3 18.2 14.4 12.6 12.2 12.5 9 8.7 7.3 6.8 6.6 8.2 8.4 6.9 -2.3 -2.3 4.3 -0.2 -2.3 -2.3 -2.3 -2.3 -2.3 -2.3 -2.3 -2.3 -2.3 -2.3 4.6 -2.3 -2.3 1.7 1.7 6.9 11.6 19.1 16.5 20.6 26.4 35.8 31.8 34.9 33.1 29.4 29.9 31.8 25.6 22 19.6 19.9 29.3 32.2 30.3 32.2 28 38 28.5 14.2
-2.3 -2.3 -2.3 -2.3 -2.3 -2.3 10.7 21.3 30.3 39.1 54 59 54.5 55.3 51.1 46.3 37.2 27.8 18.3 9.3 1.7 -2.3 -2.3 12 13.7 13.2 13.7 16.3 13.4 10.7 7 6.5 9.4 4.7 4.5 4.5 4.5 4.5 4.5 4.5 6.5 4.5 5.4 9.7 22.7 38 47.1 42.2 45 40.9 43.8 54.2 61.4 73.4 85.6 103 129.1 148.2 166.8 178.3 189.5 197.5 205.5 222.3 228.2 224.5 220.2 217.4 215.2 212.3 214.1 216.1 221.7 230 242.3 253.5 266.1 276.7 290 306.5 325.1 334.6 343 349.8 358.5 370.3 368.3 359.5 354.7 341.5 331.4 331.4 325.4 328 331.7 328.9 317.3 282.6 226.3 191.5 156.4 122.8 97.5 77.3 62.7 51.6 43 36.1 31.7 32.3 38.3 46.3 49.4 53.3 55.7 58.7 59.3 62.3 64.7 69.2 75.3 64.5 46 53.8 55.3 54.3 51.3 47.5 43 37.1 38.3 30.7 24.3 24.3 28.3 30.5 30.6 35.1 33 23.4 23.5 23.3 17 17 19.3 14 15.3 12.7 8.4 11.2 7.8 6.4 7 5.7 6.4 11.2 11.1 10.7 8.2 5.3 -2.3 -2.3 -2.3 -2.3 -2.3 -2.3 -2.3 -2.3 -2.3 -2.3 -1.3 -2.3 -2.3 1 1.7 6.8 17.7 19.2 14.8 15.6 17.5 27 30.4 31.9 30.6 31.5 29.5 38.7 27.6 26.1 27.7 22.7 28.8 32.2 33.4 34 28.1 29.6 36.1 24.5
-2.3 -2.3 -2.3 -2.3 -2.3 -2.3 -2.3 7.7 16.5 36.1 38.2 51 49.6 49.3 50.6 46.7 41.8 32.3 24 14.2 -2.3 -2.3 -2.3 -2.3 9.3 11.4 12.6 14 13.7 12.3 6.3 6.3 9.1 11 6.5 4.5 4.5 4.5 4.5 4.5 4.5 4.5 4.9 8.7 19.3 36.1 43.8 57.9 49.9 45.2 43.3 57.7 63.9 74.6 84.4 106.4 127.1 147.3 163.4 175.5 184.7 185.8 195.8 206.8 210.1 214.7 212.3 209.5 207.1 206.8 207.7 212.1 217.1 223.5 234 248 260.7 271.8 286.8 302.9 318.6 330.4 342.3 348.8 356.6 369.5 373.6 371 367 352 336.2 332.7 328.9 330.2 330.9 329.3 313.6 289.9 242.3 206.9 166.1 131.5 104.1 85.4 66.1 49.7 42.6 37.5 30.5 24.8 24.8 35.7 41.8 44.1 52.5 54.8 56.1 59.2 63.2 67.9 69.8 73.6 57.6 54.4 55.8 55.3 49.3 51.6 48.7 45.8 43.4 35.1 24.3 24.9 24.3 33 30.6 29.7 31.5 31.3 22.9 21.1 17.7 17 18.9 14.5 12.7 11.5 10.6 7.9 7.3 6.3 7.3 5.8 8.1 11.8 13.7 16.7 16.7 9.4 3 1.7 4.1 -2.3 -2.3 -2.3 -2.3 -2.3 -2.3 -2.3 -2.3 -2.3 -2.3 -2.3 9.4 15.7 20.5 19.4 15.3 8.8 14.6 19.8 29.7 33.4 33.1 36 35.3 27.9 26.8 21.7 20.7 24.4 28.7 31.8 34.6 34.9 31.4 30 27.6 34.4
-2.3 -2.3 -2.3 -2.3 -2.3 -2.3 -2.3 -2.3 -2.3 20 32.6 33.6 40.5 48.2 46.5 46.9 43.8 35.6 26.1 20.1 -2.3 -2.3 -2.3 -2.3 -2.3 11.1 10.2 12.8 13.3 11.2 9.7 6.3 7 11 7.1 4.5 4.5 4.5 4.5 4.5 4.5 4.5 4.5 7.2 19.5 31.6 46.1 57.7 53.8 45.4 44.1 55.5 65.2 76.5 83.9 102.7 126.7 145 158.8 168.3 175.2 181.5 189.7 196.8 196.2 198.2 199.8 198.9 199.9 201.9 204.2 208.1 213.4 219.8 229.6 241.5 255.8 268.1 282.5 301.9 316.9 327.2 336.7 344.2 350.7 357.5 365 365.6 359.9 351.9 337.6 328.9 325.3 325 323.9 319.7 308.3 286.1 257.2 222.4 181.9 144.6 118.5 91.6 75.1 56.3 46.8 38.4 32.5 24.8 24.8 30.7 37.8 40.2 44.6 51.8 52.3 59 61.5 65.5 67.8 69.1 62.7 57.9 59.9 55.8 49.6 57.2 52.5 57.8 46.4 49.7 24.8 24.3 28.6 24.3 25 31.3 29.6 32.5 30.9 17.7 17.3 17 18.3 18.8 13 13.1 6.8 4.5 4.2 5.7 5 7 10.1 12.6 17.9 18.5 20.5 17.6 15.9 7.5 8.9 5.8 -2.3 -2.3 -2.3 -2.3 -2.3 -2.3 -2.3 -2.3 -2.3 -2.3 12.3 15.7 11.4 17.7 18.3 10.4 8.3 14.7 20.3 23.9 32.1 36.7 35.1 23.1 28.3 22.3 12 17.2 23.5 33.7 33.4 32 27.8 30.5 28.8 24.8
-2.3 -2.3 -2.3 -2.3 -2.3 -2.3 -2.3 -2.3 -2.3 9.3 19.7 25.3 32.1 40.6 45 46.5 45.8 40.8 29.5 20.5 14.3 -2.3 -2.3 -2.3 -2.3 -2.3 6.7 9.6 10.9 10.8 8.3 8.4 8 7.7 6.1 4.5 4.5 4.5 4.5 4.5 4.5 4.5 4.5 6.9 15.3 28.5 43 50.7 53.7 45 45.2 54.1 65.2 77.5 86.9 100.3 121 138.6 152.5 159.7 168 175.5 182.8 188.9 190.8 189.5 189.1 190.4 194.9 196.7 200.7 204.3 211.6 216.9 228.4 238.5 251.7 268.1 282.2 296.7 310.1 322.5 329.3 334 340.6 342.9 344.5 347.5 344.7 336.7 327.7 320.8 318 319.7 314.5 305.5 296.4 281.5 260.8 233 195.1 166.3 141.5 106.6 87.2 66.9 52.9 43.1 35 24.8 24.8 25.5 33.1 34.8 39.7 46.8 50.8 52 59.7 61 62.8 65.9 66.1 64.6 66.3 52.3 50.6 55.9 56.2 55.8 53.6 49.6 37.3 25.6 24.3 24.3 24.3 28.2 29.5 33.8 33.3 20.4 19.2 17 18.3 18.1 16.6 13.9 8.6 5.7 4.5 4.3 1.7 4.2 8.9 12.7 15.9 17.4 19.6 20.8 20.7 24.8 24.6 22.4 17 -2.3 -2.3 -2.3 -2.3 -2.3 -2.3 -2.3 -2.3 -2.3 -2.3 14.5 8.8 8.8 12.1 8.5 8.3 14.5 19.5 15.5 16 24.8 28.1 20.2 21.6 12.8 17.3 20.7 20.8 23.5 25.2 27.9 27.9 31.5 32.1 28.4
-2.3 -2.3 -2.3 -2.3 -2.3 -2.3 -2.3 -2.3 -2.3 -2.3 12 18.7 24.9 34.5 42.2 43.3 45.2 42.2 34.9 25.5 15.5 -2.3 -2.3 -2.3 -2.3 -2.3 -2.3 -2.3 6.9 6.9 6.3 6.7 7.8 4.5 4.5 4.5 4.5 4.5 4.5 4.5 4.5 4.5 4.5 4.5 8.6 22.6 34.2 43.2 46.7 45.9 46 56.9 65.3 79.2 90.4 97.1 111.8 131.5 142.6 144.2 159 169.3 173.4 178.5 179.4 178.3 180.7 187.4 189.9 192.2 198 205.6 212.1 220.8 231.4 243.9 257.2 266.1 280.2 289.8 300.2 316 323.1 325.4 327.3 329.2 331.1 327.7 327.1 320.3 311.8 308.2 306.7 304.7 303.1 298.1 290.5 277.1 257.2 238.2 212.6 186.3 152.2 121.1 96.5 73.9 57.6 45.5 33.6 28.9 24.8 25.4 29.5 33.2 34.3 40.7 46 46.9 55 58.6 59.8 63.2 64.6 68.7 64.1 56.7 53.1 56 58.6 49.8 45.4 42.1 42.2 28.1 28.8 24.3 24.3 24.3 31.1 38.2 38 33.2 23.3 18.5 17 17.4 17 15.9 16.2 9.5 5 2 1.7 3.9 8.8 10.4 15.5 16.3 18.6 21.2 23.8 26.3 28.6 31.8 28.6 21.2 -2.3 -2.3 -2.3 -2.3 -2.3 -2.3 -2.3 -2.3 -2.3 -2.3 -2.3 -2.3 -2.3 -2.3 -2.3 -2.3 4.9 4.6 7.5 11.5 15.1 14.3 5.5 12 21.8 24.8 21.9 19.2 25.7 24.8 23.8 24 27.4 25.4
-2.3 -2.3 -2.3 -2.3 -2.3 -2.3 -2.3 -2.3 -2.3 -2.3 -2.3 8.3 18.7 24 37.4 40.8 41.9 41.5 36.9 29.4 14.3 -2.3 -2.3 -2.3 -2.3 -2.3 -2.3 -2.3 5 3.5 2.9 2.9 4.5 4.5 4.5 4.5 4.5 4.5 4.5 4.5 4.5 4.5 4.5 4.5 5.5 13.4 25.1 28.2 38.3 42.1 48.4 50.1 65 75.8 89.7 97.8 104.1 119.2 130 137.5 147.4 158 165.8 168.6 171.1 173.6 176.9 182.6 185.1 191.9 196.6 204.9 215.6 227.2 236.4 249.3 262.8 275.4 284.5 289.9 296 306.8 315.4 317.8 316.3 316.7 315.8 312.5 305.4 305 303.1 300.4 295.5 290.9 288.5 283.1 277.5 267.2 254.6 238.2 220.1 194.8 169.5 139.6 116.4 86.8 69 53.4 36.6 31.8 28.2 24.8 26.9 28.8 34.6 35 39.5 40.7 51.1 55.3 57.5 60.3 62.6 65.9 70 57.9 52.3 58 68.1 53.8 41.4 36.4 36.3 35.4 27.6 30.1 27.7 24.3 27.7 31.5 39.4 36.4 29.1 23.4 20.1 17.2 12.5 14.6 14.5 12.5 8.4 1.7 1.7 1.7 8.2 10.4 11.9 13.7 16 20 27.2 29.9 28.3 26.2 26.3 21.2 12.3 -2.3 -2.3 -2.3 -2.3 -2.3 -2.3 -2.3 -2.3 -2.3 -2.3 -2.3 -2.3 -2.3 -2.3 -2.3 -2.3 -2.3 -2.3 4.9 -2.3 -2.3 -2.3 7 13.9 18.9 21.9 16.8 22.4 17.4 18.6 22.2 27.1 25.7
-2.3 -2.3 -2.3 -2.3 -2.3 -2.3 -2.3 -2.3 -2.3 -2.3 -2.3 -2.3 6.3 18.6 26.2 35.4 38.2 40.9 39.6 31 19.8 -2.3 -2.3 -2.3 -2.3 -2.3 -2.3 -2.3 -2.3 -2.3 3.5 7.6 4.5 4.5 4.5 4.5 4.5 4.5 4.5 4.5 4.5 4.5 6.4 4.5 5.8 7.8 12.1 21.3 29.4 41.5 45.3 46.9 59.7 77 83.6 94.6 99.3 109.6 118.2 130.7 133.6 142 152.7 162 169.3 172.2 175.5 176.2 183.2 193.4 199.9 208.1 219.8 234 249.3 260.2 271.5 281.6 290.3 294.6 299 301.2 304.1 303.4 304.8 303.5 301.8 299 289.7 288.3 289.7 291.2 283.2 275.7 272.5 266.4 258.4 255.1 246.9 237.5 219.8 207.8 192.7 160 133.3 101.5 79.2 62.3 42.3 35.2 30.4 27.1 27 28.2 30.7 31.9 36.6 38.8 41.1 50.8 55.9 56 59.1 62.5 71.4 57.9 58.7 60.3 74.6 64.8 50.1 38 36.2 28.8 29.2 31.3 28 27.4 24.3 26.3 32.8 38.4 40.6 26.8 21.9 14.9 9.7 12.2 10.2 10.2 5.9 2.9 1.7 1 1.7 10.8 10.2 10.1 12.8 16.5 23 28.6 26.5 22.5 21.3 19.4 12.9 4.5 -2.3 -2.3 -2.3 -2.3 -2.3 -2.3 -2.3 -2.3 -2.3 -2.3 -2.3 7.5 -2.3 -2.3 10.7 6 -2.3 -2.3 -2.3 -2.3 -2.3 -2.3 5.3 8 9.6 9.7 7.4 11.7 20.8 23.1 30.4 31.9
-2.3 -2.3 -2.3 -2.3 -2.3 -2.3 -2.3 -2.3 -2.3 -2.3 -2.3 -2.3 -2.3 -2.3 18.6 27.6 36.6 39.3 38.8 34.3 25.1 -2.3 -2.3 -2.3 -2.3 -2.3 -2.3 -2.3 -2.3 -2.3 -2.3 5.1 7.4 4.5 4.5 4.5 4.8 4.5 4.5 4.5 4.7 4.5 7 10 12 7.6 10.6 14.7 23.1 30.5 40.8 46.7 55 74.8 87.1 88.7 96.9 103.3 109.3 121.2 129.4 139.5 147.5 156.5 164.9 170.1 172.1 173.6 182.2 189.6 199.9 212 228.7 242.4 257.6 271.5 284.3 295 300.7 303.4 304.9 304.7 302.4 300.1 297.5 290.6 286.5 280.8 278.8 271.7 272.2 271.5 266.1 257.3 252.2 246.3 236.2 233.2 231.9 226.8 218 209.5 198 178.4 148.8 118.4 93.5 69 56.6 44.4 36.1 30.2 30.5 26.8 26.7 33 33.4 35.9 38.3 45 49.5 53.8 54.7 59.1 66 65 60.7 62.7 68.2 72.4 52.5 41.5 37.8 30.8 35.3 40.7 34.4 28 29.6 30.5 24.8 32.4 34.5 31.6 23 17.3 9 6 11.4 17.2 5.7 1.7 0.2 -2.3 0.8 5.5 8.8 7.5 8.2 12.6 19 22 23.4 20.8 20.7 19.8 12.8 6.8 -2.3 -2.3 -2.3 -2.3 -2.3 -2.3 -2.3 -2.3 7.1 7.2 1.6 20.8 22.3 22.6 30 17.9 11 -2.3 -2.3 -2.3 -2.3 -2.3 4.6 10.6 4.6 4.6 4.6 16 21.2 26.3 29.7 33.4
-2.3 -2.3 -2.3 -2.1 -2.3 -2.3 -2.3 -2.3 -2.3 -2.3 -2.3 -2.3 -2.3 -2.3 11.5 21.4 28.4 36.7 36.3 32.1 25 7.8 -2.3 -2.3 -2.3 -2.3 -2.3 -2.3 -2.3 -2.3 -2.3 -2.3 6.8 4.5 4.6 5.3 5.6 5.2 4.5 4.5 4.5 9.9 7.6 13.2 13.9 15.3 13.1 18.6 28.5 36.2 46.5 53.1 49.3 68.8 79.1 86.8 92.2 96.5 102.5 115.3 127.5 136.9 144.1 152.7 161.3 165.8 165.4 172.8 181.5 189.5 201.1 217.7 235.4 250.8 267.2 282.5 295.8 306.3 312.3 312.2 312 307.8 303.7 298.7 289.8 279.9 275.1 269.3 264.7 254.9 252.6 252 249.2 241.2 234.2 226 216.9 215.9 213.4 207 212.6 204.7 193.1 180.9 157.4 136 109.3 81.9 66.7 56 47 36.8 33 30 26 26.8 30.6 33.6 35.5 38.9 43.5 49.2 53.3 55.9 63 62.5 55.5 62.9 66.8 70.6 60.4 44.6 42.5 36 40.1 40.9 37.5 28 28 35 31.6 23.8 28.7 28.1 25.7 16.9 11.4 6.4 8.4 5 6.6 1.6 -0.5 -2.3 -2.3 5.3 5.6 5.9 6.2 6.9 11.7 15.2 20.9 17.9 18.7 18.3 11.7 -2.3 -2.3 -2.3 -2.3 -2.3 -2.3 -2.3 -2.3 -2.3 3.3 8.9 7.4 19.7 31.3 30.1 33.8 27.6 19.8 19 -2.3 -2.3 -2.3 5.2 4.8 4.6 4.6 4.6 4.6 10.8 19.2 30.9 32.6 34.5
-2.3 -2.3 -2.3 -2.3 0.1 -2.3 -2.3 -2.3 -2.3 -2.3 -2.3 -2.3 -2.3 -2.3 -2.3 9.6 20.7 29.7 31.7 29.7 25.1 11.5 1.3 -2.3 -2.3 -2.3 -2.3 -2.3 -2.3 -2.3 -2.3 -2.3 -2.3 8.2 5.9 6 5.1 4.6 7.2 4.5 4.3 5.7 5.6 13.5 19 20.8 27.1 34.2 42.3 52.9 58.3 62.4 63.4 58.6 73.2 85.6 90.9 100 110.7 116 129.2 138.4 144.3 150.9 158.7 163.4 169.8 176.1 184.7 196.3 206.7 223.5 239.6 258.6 279.5 292.3 305.8 315.6 321.3 322.4 318.5 315 309.2 300.8 288.9 278.3 272.6 270.3 262.9 251.6 237.3 233.3 233.5 227.5 217.6 207.4 198.3 199.5 194.5 191.4 196.6 195.1 186.6 177.6 160.8 144.7 118 94.5 74.9 63.9 56.4 46.4 41.4 32 27.5 25.4 27.1 28.2 32.1 34.5 37.4 44 53.4 55.3 58.8 57.6 60.2 57.4 61.5 65.4 64.4 58.1 40.5 44.1 48.3 50.2 42.1 29 28 32.6 37.3 39.3 22.9 21.6 21.7 19.4 14.3 12 4.3 3.8 3.6 4.6 -2.3 -2.3 -2.3 1.7 1.7 1.7 2.1 -2.3 -2.3 7.9 10.3 13.6 12.6 13.7 11.4 -2.3 -2.3 -2.3 -2.3 -2.3 -2.3 -2.3 -2.3 -2.3 -2.3 -2.3 12.5 14.5 16.4 25.3 23.6 25.4 19.3 15.8 9.2 13.3 21.1 19.3 13.3 12.9 4.6 4.6 4.6 4.6 11.6 19.5 26.4 29.1
-2.3 -2.3 -2.3 -2.3 -2.3 -2.3 -2.3 -2.3 -2.3 -2.3 -2.3 -2.3 -2.3 -2.3 -2.3 -2.3 8.8 22.6 25.3 24.3 21.4 16.4 4.9 -2.3 -2.3 -2.3 -2.3 7.4 -2.3 -2.3 -2.3 -2.3 -2.3 -2.3 -2.3 6.7 6.5 4.5 4.7 4.4 2.2 2.2 4.1 11.7 18.8 23.3 32.6 38.7 42.7 50.4 65 76.2 76 72.1 70.9 84.3 90.1 103 112.8 123 131 139.8 147 152.9 160.9 166 174.3 180.8 190.9 204 212.2 227.2 249.8 267.4 287.5 303.7 314.8 323.3 328.8 329 327.2 320 314.8 307 299.6 288.2 275.9 269.5 265 255.6 247.6 231.5 214 204.4 201.8 193.7 189.3 185.7 184.2 185.1 188.1 182.7 180 169 156.4 144.5 120.7 100.2 82.6 71.3 67.2 57.6 49.2 40.6 29.2 25.9 22.6 24.9 27.4 32.3 34 41.2 47.2 53.9 53.7 54.9 55 55.6 60.4 65.6 61.2 55.8 44.1 40.5 47.3 55 47.9 30.1 28 32.6 40.5 42.1 40 23.8 21.5 22.5 17.1 13.2 9.2 8.9 6 2.4 -2.3 -2.3 4.4 5.7 0.7 -2.3 -0.5 -2.3 -2.3 -2.3 4.9 6.5 7.6 7.9 7.7 -2.3 -2.3 -2.3 -2.3 -2.3 -2.3 -2.3 -2.3 -2.3 -2.3 -2.3 12.4 16.7 20.2 15.4 10.9 15 15.4 10.7 6 14 25.8 26.5 20.7 21.3 15.9 7.3 7.8 14.6 11.6 20.4 24.1 28.3
-2.3 -2.3 -2.3 -2.3 -2.3 -2.3 -2.3 -2.3 -2.3 -2.3 -2.3 -2.3 -2.3 -2.3 -2.3 -2.3 -2.3 10.4 20.4 22.1 21.3 19.5 12.8 -2.3 -2.3 -2.3 7.7 10.1 8.8 8.2 -2.3 -2.3 -2.3 -2.3 -2.3 -2.3 -2.3 4.7 3.9 2.2 2.2 2.2 2.4 7.2 12.9 18.2 25.9 32.4 44.7 56.1 68 76.1 82.3 92 74.6 77.4 94.2 106.2 115.8 124.6 133.5 141.4 150.6 158 162.3 170.3 175.5 183.6 201.5 209.2 221.3 235.8 256.5 273.8 290.9 307.8 320.4 330.1 335 336.5 334.8 329 325.2 320.6 314.6 303.4 284.5 276.2 268.4 256.9 247.6 231.3 217.3 203.3 193.5 183.3 178.3 175.2 172.6 173.4 172.8 169.8 171.5 160.1 150.9 142 127.7 112.4 91.6 75.4 67.2 58.2 51 44.9 37.6 27.9 22.8 22.6 23.5 27.4 29.9 37.9 42.7 51.6 50 50.6 50.4 51 56.1 59 60.1 53.3 42.4 40.5 49.9 48.8 49.4 28 28 34.1 36.7 50.5 44.5 39 34.1 27.6 21.4 22.1 19.9 16.9 13.1 11.6 -2.3 -2.3 -2.3 4.1 1.7 -2.3 -2.3 -2.3 -2.3 -2.3 -2.3 -2.3 -2.3 -2.3 8.6 -2.3 -2.3 -2.3 -2.3 -2.3 -2.3 -2.3 -2.3 -2.3 -2.3 -2.3 9.9 24 23.8 16.5 7.9 7.7 -2.3 -2.3 -2.3 11.2 24.9 29.1 23.8 20.2 23 21.5 24.6 26.5 24.3 16.2 27 28.7
-2.3 -2.3 -2.3 -2.3 -2.3 -2.3 -2.3 -2.3 -2.3 -2.3 -2.3 -2.3 -2.3 -2.3 -2.3 -2.3 -2.3 -2.3 8.1 12.4 17.4 15.5 14.5 -2.3 -2.3 -2.3 5.8 9.4 10.8 12.4 4.6 -2.3 -2.3 -2.3 -2.3 -2.3 -2.3 -2.3 3.7 2.2 2.2 2.2 2.2 4.4 7.2 14.2 25.6 30.5 37.2 49.5 59.3 70 77.9 85.1 86 76 88.9 109.5 120.3 128.3 134 144.4 151.9 159.3 165.5 175.7 182.6 192.8 205.5 221.1 232.9 244.9 260.8 277.6 293.1 308.6 321.8 333.5 341.3 343.6 343.4 342.2 339.3 332.9 325.5 318 304.6 290.2 277.4 265 244.9 222.6 207.4 197 189.5 179.5 172.1 165.5 164.1 163.6 160.6 160.1 157.8 154.4 147.3 136.9 131.7 112.4 96.6 74.9 62.7 59.2 55.2 48.8 40.7 33.4 24.9 21.5 22.6 23.2 26.3 28.9 39.8 44.2 45.1 46.6 47.4 46.4 56.1 56.7 56.5 54.4 50.6 40.5 47.9 50.1 43.5 37.3 33.7 28.3 39.6 51.8 46.8 41 36.1 29.4 29.6 32.4 29.3 24.7 16.6 12.4 11.4 -2.3 -2.3 -2.3 -2.3 1.3 -2.3 -2.3 -2.3 -2.3 -2.3 -2.3 -2.3 -2.3 -2.3 -2.3 -2.3 -2.3 -2.3 -2.3 -2.3 -2.3 -2.3 -2.3 -2.3 -2.3 -2.3 9.1 16.7 18.8 14.7 11.1 -2.3 -2.3 -2.3 12 21.1 25.7 23.5 23.2 20.2 27.9 34.6 31.2 30.5 22.1 20.8 23.2
-2.3 -2.3 -2.3 -2.3 -2.3 -2.3 -2.3 -2.3 -2.3 -2.3 -2.3 -2.3 -2.3 -2.3 -2.3 -2.3 -2.3 -2.3 -2.3 6.5 15 15.1 15.1 -2.3 -2.3 -2.3 6.1 8.1 7.3 7.1 3.8 -2.3 -2.3 -2.3 -2.3 -2.3 -2.3 -2.3 -2.3 1.4 4.5 3.8 2.2 2.2 4.8 11.1 21.7 29.3 37.1 45.3 56.5 67.4 78 76.2 77.2 77 84.1 95.2 116 127.2 138.6 147.3 151.4 161.4 173.7 183.5 186.9 204.5 215.1 230.9 240.6 251.2 260.9 277.1 296.3 310 324 337.3 345.8 349.1 349.9 349 348.5 346.8 342.8 331.9 317.3 303.1 293.1 272.5 255.8 224.9 202.6 189.3 180.1 174.8 166.5 163.5 158.5 149.8 150.2 151.6 149 147.6 137.7 138.7 138.8 121.4 96.2 78.8 64.4 61.9 54.9 49.6 43.6 35.7 31.5 22.6 21.1 21.5 22.4 25 31 38.1 42.7 41.6 43.6 46 48.1 53.1 55.2 52.7 53.7 40.5 47.4 53.1 48.2 42.6 43.6 30 40.2 55.9 51 44.6 42.2 37.1 38.9 35.8 30.8 34.3 30.6 21 10.9 8.8 8 -2.3 -2.3 -2.3 -2.3 -2.3 -2.3 -2.3 -2.3 -2.3 -2.3 -2.3 -2.3 -2.3 -2.3 -2.3 -2.3 -2.3 -2.3 -2.3 -2.3 -2.3 -2.3 -2.3 -2.3 13.9 20.7 23.6 22.6 13.7 -2.3 -2.3 -2.3 -2.3 20.2 30 32 25.4 20.7 33 39.1 38.7 33.4 28.1 17.3 18
-2.3 -2.3 -2.3 -2.3 -2.3 -2.3 -2.3 -2.3 -2.3 -2.3 -2.3 -2.3 -2.3 -2.3 -2.3 -2.3 -2.3 -2.3 -2.3 4 5.3 11.4 11.7 11.5 -2.3 -2.3 4.9 5.4 7.5 7.3 5.7 3 -2.3 -2.3 -2.2 -2.3 -2.3 -2.3 -2.3 -2.3 9.3 10.7 7.5 6 5.4 6.2 11.8 24.9 30.2 45.1 50.6 57 66.1 67.3 71.5 74.4 78.1 93.2 110.7 125.9 143.5 152 159 173.1 181.9 187 197.8 213.8 223.4 236.8 247.9 257.5 269.6 281 296.7 311.1 324.5 337.6 346.7 351.5 355.7 356.4 356.2 356.9 351.9 342.4 331.7 329.2 315.8 283.1 250.3 220.8 192.2 176 170.5 166.8 161.5 154.4 152.7 146.9 142.4 140.2 138.8 134.1 130 123.9 122.1 105.2 89.9 75.3 61.4 59.1 56.7 51.1 43 37.9 33.3 25.9 20.5 19.9 20.2 21.4 23.3 31 33.6 34 36.7 39.9 43.7 49.4 54.6 54.4 49.5 48.4 48.8 58.6 44.4 40.4 38.3 33.4 39.4 50.2 50.6 47.5 47.1 49.2 54.7 33.5 26.4 34.9 37.9 27.9 15.7 8 16.1 12.2 14.1 9 -2.3 -2.3 -2.3 -2.3 -2.3 -2.3 -2.3 -2.3 -2.3 -2.3 -2.3 -2.3 -2.3 -2.3 -2.3 -2.3 -2.3 -2.3 -2.3 -2.3 -2.3 18.1 17.3 21.9 22.3 11.3 -2.3 -2.3 -2.3 -2.3 -2.3 22.5 28.4 22.9 25.3 33.7 43.1 37.4 33.1 27.1 20 17.3
-2.3 -2.3 -2.3 -2.3 -2.3 -2.3 -2.3 -2.3 -2.3 -2.3 -2.3 -2.3 -2.3 -2.3 -2.3 -2.3 -2.3 -2.3 -2.3 1.7 4.4 1.3 7 5.9 -2.3 -2.3 4.4 5 5.7 5.1 4.7 3.3 1.3 -2.3 0.7 1.7 -2.3 -2.3 -2.3 -2.3 2.7 7.9 10.3 9 6.2 5.5 7.3 11.2 20.4 28.3 38.3 43.1 53 55.4 64.8 70.8 75.9 91.4 102.4 118.7 136.1 154.5 169 177.7 186.6 191.3 204.6 218.7 230.6 244.5 256.1 262.6 276.9 286.7 297.5 311.4 324.5 334.9 345.7 352.8 358.8 362 366 364.7 365.3 362.8 359 348.7 308 265.1 236.9 209.4 185 170.5 162.6 158.4 153.6 147.3 142.4 138.9 139 138 136.5 133.6 133.5 121.1 106.1 98.9 85.7 69.1 60.5 58.4 53.6 52.2 44.8 37.9 32.1 26.5 22 20.5 19.9 20 20.5 21.4 27.2 23.5 27.5 35.8 32.5 49.4 49.8 50.6 53.4 51.4 46.3 57.9 55.2 48.9 35.9 32.4 37.5 45.9 43.7 47.9 50 45.3 49.2 45.6 30.6 28.2 42.1 44.7 32.1 21.5 18.5 20 23.3 20.5 17.6 10.1 0.1 2.3 -2.3 -2.3 -2.3 -2.3 -2.3 -2.3 -2.3 -2.3 -2.3 -2.3 -2.3 -2.3 -2.3 -2.3 -2.3 -2.3 -2.3 -2.3 -2.3 -2.3 8.3 -2.3 -2.3 -2.3 -2.3 -2.3 -2.3 -2.3 11 16.9 24.5 31.5 35.9 37 32.7 21.7 26.6 21.5
-2.3 -2.3 -2.3 -2.3 -2.3 -2.3 -2.3 -2.3 -2.3 -2.3 -2.3 -2.3 -2.3 -2.3 -2.3 -2.3 -2.3 -2.3 -2.3 -2.3 -2.3 -2.3 -2.3 -2.3 -2.3 0.4 1.7 4.8 4.3 4.1 4.4 5.6 9.3 5.1 5 5.6 5.5 5.5 5.6 5.6 5.6 6.7 8.6 9.6 7.1 4.5 7.1 8.3 13.5 17.8 27.2 34.1 40.3 43.7 52.5 67.2 74.8 87.9 105.5 116.6 132.3 152.7 167.4 177 182.8 193.2 209.7 225.4 237.3 249.1 260.7 271.2 284.8 294.6 303.8 314.7 325.4 333.9 344.3 354 361 368.4 373.9 377.5 382.5 381.9 376.8 338.1 298.5 259 229.8 204.5 184.4 167.5 162.1 156.6 153 146.9 141.9 139.7 139.3 139.8 138.4 142.7 142.7 135.8 122 101 77.9 61.8 57.7 54.6 50.5 49.9 42.9 36.9 32.7 27.8 22.5 21.2 20.1 19.8 19.9 19.9 21.2 23.3 21.4 24.8 26.5 51.9 46.4 45.8 51.2 53.4 46.2 50.5 55.6 56.9 43.9 36.4 49.7 50.3 44.1 47.5 50 40.6 42.3 39.9 28.3 20 29 38.9 30.8 30.2 24.6 28.3 36.2 30.6 24.4 16.6 9.4 6.7 8.8 8.5 -2.3 -2.3 -2.3 -2.3 -2.3 -2.3 -2.3 -2.3 -2.3 -2.3 -2.3 -2.3 -2.3 -2.3 -2.3 -2.3 -2.3 -2.3 -2.3 -2.3 -2.3 -2.3 -2.3 -2.3 -2.3 -2.3 -2.3 10.6 16.6 24.8 32 33.8 25.1 23.2 17.5 19.2
-2.3 -2.3 -2.3 -2.3 -2.3 -2.3 -2.3 -2.3 -2.3 -2.3 -2.3 -2.3 -2.3 -2.3 -2.3 -2.3 -2.3 -2.3 -2.3 -2.3 -2.3 -2.3 -2.3 -2.3 -2.3 2 4.1 4.3 5 5 5.9 7.2 14.1 14.1 13.2 11.7 10.3 11.6 10.5 10.3 13.6 8.8 7.7 11.1 13.2 5.5 4.4 4.8 8.4 13.6 21.1 25.8 32.2 39.2 44.3 56.2 68 78.7 97.9 118.4 129.7 141 159.4 171.3 183.6 198.9 212.2 226.2 241.6 252 265.8 275.8 286.9 298.7 308.8 319.8 328.7 337.8 347.9 356.6 367 378 383.2 390.3 396 395.8 384.1 342.9 300.6 263.1 234.1 207.5 190 174.3 161.7 156.5 151.8 149.9 149.4 149.4 160.9 162.3 159 156 155.5 148.2 132.2 106.9 78.5 64.7 61.1 52.1 46.2 46 44.6 37.5 32.7 27.6 24.3 22.1 20.6 20.5 19.9 19.9 19.9 22.1 21.4 20.4 23.5 35.4 42.2 44.1 50.3 53.1 45.8 48.3 54.9 52.9 49.7 40.5 46.2 49.1 52.3 52.7 44.2 49.3 37.6 35.2 21.4 20 22.6 18.6 11.3 14.1 17.1 24.2 33.7 29.2 30.8 24.6 22 15.8 15.6 15 9.3 -2.3 -2.3 -2.3 -2.3 -2.3 -2.3 -2.3 -2.3 -2.3 -2.3 -2.3 -2.3 -2.3 -2.3 -2.3 -2.3 -2.3 -2.3 -2.3 -2.3 -2.3 -2.3 -2.3 -2.3 -2.3 -2.3 -2.3 -2.3 3.7 9.6 15 16.2 16.7 7.8 -2.3
-2.3 -2.3 -2.3 -2.3 -2.3 -2.3 -2.3 -2.3 -2.3 -2.3 -2.3 -2.3 -2.3 -2.3 -2.3 -2.3 -2.3 -2.3 -2.3 -2.3 -2.3 -2.3 -2.3 -2.3 -2.3 -2.3 4.6 4.3 4 5.2 5.7 8.1 14.9 19.5 18.1 19.6 19.2 18.1 14.9 12.8 14.1 16.2 14.9 15 12.8 7 4.2 4.4 5.8 11.7 15.5 19.4 25 36.7 41 53.3 67.2 74.6 97.2 107.9 131.4 139.5 149.5 165.5 183.6 195.2 213.7 229.1 243.2 258.8 269.2 277.4 292.3 305.5 316.2 325.7 333.7 345 353.3 367.6 378.6 388.4 394.4 399.7 407.2 408.7 400.3 351.5 318.8 284.3 243.2 216.4 199.6 184 163.4 164.3 162 158.9 161.8 175.7 193.4 198.8 193.2 172.1 167.7 155.5 135.3 104.8 81.5 74.2 64.1 57.5 51 46.4 40.8 37.2 35.8 31.8 26.3 20.1 19.9 19.9 19.9 19.9 19.9 19.9 22 20.5 19.5 20.9 29.5 37.6 47 45 41 38.2 51.1 55.2 56.2 46.2 46.7 44.1 46.5 54.1 53.1 44.5 41.9 34.5 26.4 20 22.6 19.7 18.8 11.3 9.1 6.5 13.6 23.2 20.7 20 21.6 24.8 26.1 19.1 14.7 9.7 -2.3 -2.3 -2.3 -2.3 -2.3 -2.3 -2.3 -2.3 -2.3 -2.3 -2.3 -2.3 -2.3 -2.3 -2.3 -2.3 -2.3 -2.3 -2.3 -2.3 -2.3 -2.3 -2.3 -2.3 -2.3 -2.3 -2.3 -2.3 -2.3 -2.3 -2.3 -2.3 -2.3 -2.3
-2.3 -2.3 -2.3 -2.3 -2.3 -2.3 -2.3 -2.3 -2.3 -2.3 -2.3 -2.3 -2.3 -2.3 -2.3 -2.3 -2.3 -2.3 -2.3 -2.3 -2.3 -2.3 -2.3 -2.3 -2.3 -2.3 -2.3 4.3 1.4 3.9 6.8 12.2 16.8 19.8 25 26.6 26 23.5 21.1 16.1 14.6 16 20 19 18.2 12.6 4.8 4.6 5.2 7.5 14.3 16.5 22.8 33.1 43.2 50.5 69 80.9 93.7 112.1 123 143.1 153.3 165.9 185.2 197.3 207.8 224.8 247.6 260.2 271.5 285.3 296.6 309.7 322 333 344.2 354 365.2 378.4 387.6 398.2 405.9 414.6 416.4 416.9 413.7 369.4 342.7 314.2 260.2 229.6 211 192 174.3 172.6 170.2 171.2 178.7 191 214 227.1 228 203.4 177.9 167.3 139.2 107.1 83.8 76.6 68.3 67.1 61.6 57.5 53.8 46.3 36.5 34.9 31.1 25.7 25.3 21.3 21.8 20.5 19.9 19.9 21.9 19.9 18.9 19.2 24.7 30.4 37.6 36.9 31.2 34.2 47.7 48.2 49.3 39.7 47.5 51.3 45.4 54.2 53.7 46.4 35.9 33.7 29.5 21.5 20 33.4 23.4 25 16.5 13.9 5.3 7.3 8.3 12.2 14.1 32 31 22.6 21.4 13 16.5 12.4 4 4.1 -2.3 -2.3 -2.3 -2.3 -2.3 -2.3 -2.3 -2.3 -2.3 -2.3 -2.3 -2.3 -2.3 -2.3 -2.3 -2.3 -2.3 -2.3 -2.3 -2.3 -2.3 -2.3 -2.3 -2.3 -2.3 1.7 -2.3 -2.3 -2.3 -2.3
-2.3 -2.3 -2.3 -2.3 -2.3 -2.3 -2.3 -2.3 -2.3 -2.3 -2.3 -2.3 -2.3 -2.3 -2.3 -2.3 -2.3 -2.3 -2.3 -2.3 -2.3 -2.3 -2.3 -2.3 -2.3 -2.3 -2.3 1.7 2.9 6.4 9.2 12.3 20.4 23.6 26.9 31.9 33.2 31.6 28 24.3 23.6 19.5 20.8 22.1 21.9 23.6 12.7 5.9 5.2 5.3 12 21.3 24.4 30.9 42.1 56.3 67.9 80 88.4 104.9 120.5 132.9 155.4 169.3 183.3 200.1 213 225.8 246.8 260.7 276.1 289.4 303.5 315.3 326.3 341.4 354.5 364.2 375.7 387.4 395.1 407.9 416.4 426.6 427.7 427.2 422.6 394.3 363.7 319.6 286.3 253.1 226.3 204.2 188.7 185.7 191.3 189.9 199.5 210.5 222.6 237.5 235.8 226.8 191.7 177.8 144.4 113.9 89.8 82.6 80 78.2 71.7 66.9 60.8 54.7 48.8 42.1 33.1 29.3 28.3 26.5 26 26.2 24.4 20 18.4 19.8 19 17.6 19.1 27.4 28.4 28.3 27 27.4 35.2 39.9 42.3 39.6 54.1 55.3 48.2 53 54.1 50.1 35.5 36 34.9 29.1 23.5 35.5 31.2 22.7 18.9 9.7 5.9 5.1 8.9 10.5 13.9 14.1 19.1 13.9 21.3 -2.3 9.5 13.6 -2.3 -2.3 -2.3 -2.3 -2.3 -2.3 -2.3 -2.3 -2.3 -2.3 -2.3 -2.3 -2.3 -2.3 -2.3 -2.3 -2.3 -2.3 -2.3 -2.3 -2.3 -2.3 -2.3 -2.3 -2.3 -2.3 -2.3 -2.3 -2.3 -0.9 -2.3 -2.3
-2.3 -2.3 -2.3 -2.3 -2.3 -2.3 -2.3 -2.3 -2.3 -2.3 -2.3 -2.3 -2.3 -2.3 -2.3 -2.3 -2.3 -2.3 -2.3 -2.3 -2.3 -2.3 -2.3 -2.3 -2.3 -2.3 -2.3 -2.3 -2.3 6.4 9.7 13.3 19.1 24.7 30.6 36.5 39 39.8 41 40 31.4 29.2 27.2 28 25.6 28.1 23.3 14.8 11.7 14 7 10.9 28.1 31.7 39.1 50.9 63.5 77.2 88.3 97.5 116.7 129 147 166.9 179.2 193.4 214.4 232.5 245.7 262.8 274.2 289.8 304.3 320.8 335.4 351.7 362.8 373.2 383.8 393.3 404.5 416.1 426.2 442.6 443.1 437.1 430.2 418 383.1 342.8 304.1 273.1 246.1 215.7 207.1 210.9 212.8 219 233.7 241.6 246.7 238.6 244.7 238.3 210.4 184.4 162.1 126.7 100.2 100.3 92.3 89.1 84.2 81.5 75.6 68.4 57.9 49.2 42.3 34.1 29.5 30.5 28.9 28.6 27.3 22.8 22.2 18.9 19.6 19.2 16.8 20.9 21.2 20.3 21.1 21.4 23 40.3 32.5 39.2 52.8 52.7 50.9 48.5 47.2 40.3 36.1 38.2 38.1 36.4 26.7 27.7 35.3 35.6 23.3 26.1 13.4 7.3 6.6 4.6 9 8.6 18 6.9 -2.3 -2.3 -2.3 -2.3 -2.3 -2.3 -2.3 -2.3 -2.3 -2.3 -2.3 -2.3 -2.3 -2.3 -2.3 -2.3 -2.3 -2.3 -2.3 -2.3 -2.3 -2.3 -2.3 -2.3 -2.3 -2.3 -2.3 -2.3 -2.3 -2.3 -2.3 -2.3 -2.3 -2.3 -2.3 -2.3
-2.3 -2.3 -2.3 -2.3 -2.3 -2.3 -2.3 -2.3 -2.3 -2.3 -2.3 -2.3 -2.3 -2.3 -2.3 -2.3 -2.3 -2.3 -2.3 -2.3 -2.3 -2.3 -2.3 -2.3 -2.3 -2.3 -2.3 -2.3 -2.3 -2.3 15 16.2 18.2 21.4 29.5 38.4 44.8 47.5 52.5 52.6 47.3 42.4 37.9 34.7 32.4 31.4 32.5 28.1 11.7 21.7 7.9 8 14.9 32 40.8 49.4 58.8 75.6 86.8 94.1 108.8 122.7 142 162.3 176.1 201.6 221.1 236 250.8 267.2 279.7 288.6 305.3 323 336.7 355.8 371.1 382.5 393.1 401.6 412.8 423.1 436.5 452.2 452.9 445.3 437.5 429.2 412.8 356.4 315.9 290.3 260 235.6 237.4 238.4 244.1 252.5 272.7 276.5 271 262.5 244.5 241 220 184.8 169.3 141.1 115.9 115 108.2 101.8 96.7 92.7 86.9 79.8 72.1 65.1 57.5 47.1 39.1 37.5 36.6 32.7 30.4 31.3 30.9 29.9 25.6 21.9 19.4 16.1 16.5 15 15.1 16.5 19.7 30.5 27.7 39.8 40.8 42.2 42.4 39.9 39.5 37.9 38.4 48 39.5 40 28.8 24.4 32.4 35.9 30.2 23.8 24.4 20.9 20.3 5.8 2.7 3.2 1.7 -2.3 -2.3 -2.3 -2.3 -2.3 -2.3 -2.3 -2.3 -2.3 -2.3 -2.3 -2.3 -2.3 -2.3 -2.3 -2.3 -2.3 -2.3 -2.3 -2.3 -2.3 -2.3 -2.3 -2.3 -2.3 1 7 0 -2.3 -2.3 -2.3 -2.3 -2.3 -2.3 -2.3 -2.3 -2.3
-2.3 -2.3 -2.3 -2.3 -2.3 -2.3 -2.3 -2.3 -2.3 -2.3 -2.3 -2.3 -2.3 -2.3 -2.3 -2.3 -2.3 -2.3 -2.3 -2.3 -2.3 -2.3 -2.3 -2.3 -2.3 -2.3 -2.3 -2.3 -2.3 -2.3 9.5 15.6 17.2 18.1 28.9 43.6 52.8 56.4 60.9 63.1 61.1 54.5 49.5 44.1 40.3 37.1 36.8 37.5 34.4 16.2 10.2 6.4 6.9 19.2 33.9 43.5 52.9 66.7 81 91.1 100.3 109.9 131.8 154.1 171.1 197.9 220.3 246.4 265.2 279 289.6 295.2 304.1 324.5 341 357.5 376.1 391.2 400.6 407.3 416.2 429.2 444 454.1 457.5 452.2 441.5 433.1 419.3 385.5 339.1 309.7 282.6 263.6 266.9 266.2 285.3 303.2 303.8 304.5 301.2 281.1 251.9 239.4 224 195.6 168.8 147.7 129.2 122.6 120.1 115.5 114.1 104.6 100.6 91.4 82.2 73.5 65.6 56.4 50.8 44.1 38.5 37.9 34.9 34.3 34.5 34.8 31.8 28.2 15.2 15.7 15.6 14.9 14.3 14.8 16.2 13.5 23.5 29.1 34.5 36.7 42.5 44.7 47.8 47.6 40.1 36.6 41.8 32.2 27.2 24.4 24.4 26.8 27.9 23.8 18.3 13.7 13.4 8.1 4.3 5.6 8.9 -2.3 -2.3 -2.3 -2.3 -2.3 -2.3 -2.3 -2.3 -2.3 -2.3 -2.3 -2.3 -2.3 -2.3 -2.3 -2.3 -2.3 -2.3 -2.3 -2.3 -2.3 -2.3 -2.3 -2.3 -2.3 -2.3 3.5 8.9 -2.3 -2.3 -2.3 -2.3 -2.3 -2.3 -2.3 -2.3 -2.3
-2.3 -2.3 -2.3 -2.3 -2.3 -2.3 -2.3 -2.3 -2.3 -2.3 -2.3 -2.3 -2.3 -2.3 -2.3 -2.3 -2.3 -2.3 -2.3 -2.3 -2.3 -2.3 -2.3 -2.3 -2.3 -2.3 -2.3 -2.3 -2.3 -2.3 -2.3 9 11.4 18.7 25.4 45.3 56 62.9 68.6 72.7 71.2 65.8 60.1 53.7 48.6 43.8 40.7 40.6 38.6 27.6 10.1 6.4 6.5 7.3 24.1 34.8 45.1 58.1 73.7 87.3 94.3 104.2 119.5 148.3 167.7 193.8 216.5 236.6 260.1 286.2 294.8 303.4 307.1 318.3 340.1 357.3 377.4 395.1 405.2 412.3 420.2 431.1 446.8 452.9 456.7 455.1 445.3 431.2 421.5 393.5 358.7 335.1 313.1 301.3 294.1 303.6 319.4 341.1 342.2 332 313.5 288.5 260.8 230 210.8 190.9 163.6 148.4 140.5 128.4 126.8 124.4 123.4 117.4 111.6 103.3 95.4 85.1 77.1 68.2 56.2 50.2 45.1 42.6 41.8 40.8 40.3 40.5 37.5 31.1 21.4 16.5 15.3 15.5 15.4 13.5 13.5 13.5 15.5 23.3 31.6 28.7 39.1 42.1 46.8 44.6 46.5 36.8 30.7 27.9 24.4 33.4 24.4 29 31.3 25.8 22.4 12.9 15.3 15.6 17.2 13.2 6.3 11.6 15 19.7 -2.3 -2.3 -2.3 -2.3 -2.3 -2.3 -2.3 -2.3 -2.3 -2.3 -2.3 -2.3 -2.3 -2.3 -2.3 -2.3 -2.3 -2.3 -2.3 -2.3 -2.3 -2.3 -2.3 -2.3 7.8 -2.3 -2.3 -2.3 -2.3 -2.3 -2.3 -2.3 -2.3 -2.3
-2.3 -2.3 -2.3 -2.3 -2.3 -2.3 -2.3 -2.3 -2.3 -2.3 -2.3 -2.3 -2.3 -2.3 -2.3 -2.3 -2.3 -2.3 -2.3 -2.3 -2.3 -2.3 -2.3 -2.3 -2.3 -2.3 -2.3 -2.3 -2.3 -2.3 -2.3 -2.3 4.4 11.3 18.1 41.8 52.9 62.4 71 77.3 81.4 78.2 70 62.2 55.4 50.3 45.2 42.4 43 38.5 17 8.3 6.9 7.6 12.2 32.1 39.6 50.2 68 75.8 86 100.3 107.6 135.1 163 174.8 205.2 229 251.5 278.8 298.6 302.5 314.1 320.9 333.3 356.1 374.7 393.8 409.9 416.3 420.5 425.5 435.1 446.4 446.3 444.8 445 424.8 415.3 406.1 400.1 372.4 375 334.5 325.4 340.1 365.4 367.1 359.4 345 322.9 291.7 265.5 223.8 193.3 178.4 163.1 155.4 148.7 136.9 133 136.1 140.9 132.8 121.4 114.8 107.4 100.4 89.7 80.7 71.8 61.3 50.8 46.1 46.6 42.2 42.5 44.2 44.8 40.9 31 24.3 16.6 13.9 14.6 13.6 13.5 13.5 14.2 22.5 25.7 24.3 32.1 38.5 39.8 43 46.2 44.5 36.4 30.4 28.9 29.5 28.4 24.6 31.3 27.4 28.6 13.1 13 19.3 31.7 27.4 18.8 8.7 16.5 28.1 29.4 15.4 -2.3 -2.3 -2.3 -2.3 -2.3 -2.3 -2.3 -2.3 -2.3 -2.3 -2.3 -2.3 -2.3 -2.3 -2.3 -2.3 -2.3 -2.3 -2.3 -2.3 -2.3 -2.3 -2.3 -2.3 -2.3 -2.3 -2.3 -2.3 -2.3 -2.3 -2.3 -2.3
-2.3 -2.3 -2.3 -2.3 -2.3 -2.3 -2.3 -2.3 -2.3 -2.3 -2.3 -2.3 -2.3 0.7 -2.3 -2.3 -2.3 -2.3 -2.3 -2.3 5.1 -2.3 -2.3 -2.3 -2.3 -2.3 -2.3 3.8 -2.3 -2.3 -2.3 -2.3 1.3 9.6 12.9 37.5 51.1 61.6 72.3 83.2 89 88 80 71.2 60.3 55.9 50.2 44.5 44.2 43.7 33.2 14.8 10.2 7.3 8.8 18.1 38.6 44.3 55.6 71.1 80.7 92.3 105.5 113.8 148.7 157.6 187.9 218.1 233.8 269.4 296.2 306.5 317.4 322.5 327.5 341.6 370.8 389.4 409.2 415.6 417 418.7 423.9 428.3 432 429.7 425.4 414.5 405.1 401.1 397 389.8 382.2 365.5 365.8 385.9 385.5 382.9 372.2 347.9 323.7 295.6 266.5 236.8 206.7 180.3 163.3 157.9 152.9 140.7 137.8 142.9 148.5 142.7 135.9 125.4 121.3 115 106.3 101.9 93.5 78.9 66 56.5 51 47.1 43.8 46.9 51.4 53.5 48.1 41.3 34.6 17.2 14.1 14.3 13.5 13.5 13.5 14 15.6 15.5 15.5 19.8 27.3 32.9 36.8 40 38.8 36.3 32.7 34.4 29.7 24.6 30.7 22.3 17.8 15.8 17.5 19.5 34.7 32.1 17.1 14.6 1.7 16.3 23.5 14.8 -2.3 -2.3 -2.3 -2.3 -2.3 -2.3 -2.3 -2.3 -2.3 -2.3 -2.3 -2.3 -2.3 -2.3 -2.3 -2.3 -2.3 -2.3 -2.3 -2.3 -2.3 -2.3 -2.3 -2.3 -2.3 -2.3 -2.3 -2.3 -2.3 -2.3 -2.3 -2.3
-2.3 -2.3 -2.3 -2.3 -2.3 -2.3 -2.3 -2.3 -2.3 -2.3 -2.3 -2.3 -2.3 2.3 -2.3 -2.3 -2.3 -2.3 -2.3 -2.3 5.4 -2.3 -2.3 -2.3 -2.3 -2.3 -2.3 1.6 5.2 1.7 -2.3 -2.3 7.1 7.2 9 20.2 43.6 56.3 67.6 81.3 90.7 93 87.6 78.6 70.1 62.1 56.3 49.8 45 45.5 43.5 28.2 20 11.3 8.1 10.1 23.4 41.6 47.5 64 71.6 84.8 99.4 108 131.3 148.6 174.1 204.8 233.1 250.9 278.9 302.8 316.9 327 325.7 333.2 356.8 378.3 396.9 407.6 409.1 409.4 409.2 414 413.9 409.9 408.3 401 393.5 391.9 388.6 387.3 388.5 391.9 394.4 397.2 395.3 389.8 375.8 347.1 318.3 293.9 266 239.9 211.6 191.5 176.2 157.3 151.8 142.4 145.2 151.3 152 146.8 143.4 137.3 134.8 126.4 123.1 118.4 109.9 95.4 80.5 69.4 62.7 54.1 46.8 46.6 51.4 57.5 53.9 44.6 40.5 29.7 15.3 13.5 13.8 13.5 13.5 17.3 18.9 16.8 15.6 16.4 25.9 29.2 31 41.2 41.1 41.3 34 36.5 40 24.6 32.1 29.7 29.4 19.5 21.1 21.3 18.8 13.8 6.1 1.1 -2.3 -2.3 -2.3 -2.3 -2.3 -2.3 -2.3 -2.3 -2.3 -2.3 -2.3 -2.3 -2.3 -2.3 -2.3 -2.3 -2.3 -2.3 -2.3 -2.3 -2.3 -2.3 -2.3 -2.3 -2.3 -2.3 -2.3 -2.3 -2.3 -2.3 -2.3 -2.3 -2.3 -2.3 -2.3 -2.3
-2.3 -2.3 -2.3 -2.3 -2.3 -2.3 -2.3 -2.3 -2.3 -2.3 -2.3 -2.3 -2.3 -2.3 -2.3 3.3 -2.3 -2.3 -2.3 -2.3 -1.3 -1.4 -2.3 -2.3 -2.3 -2.3 -2.3 1.7 5.8 3.7 -2.3 -2.3 0.7 6 5.9 7.3 30.6 45.5 61.5 76.2 89.9 97 94.1 87.9 79 68.4 62.3 56 49 46.3 47.8 41.9 32.1 18.4 11.6 8.7 10.8 24.1 39.5 48.6 58.3 69.9 88.9 101.2 109.4 130.2 151.6 181.5 211.6 237.4 256.9 283.2 302.4 315.9 321.3 323.2 333.4 361.7 380.5 394.1 395.6 395.5 396 395.3 396.2 392.8 390.2 384 381 377.7 374 380.3 388.5 394.1 396.8 397.7 395.5 388.6 374.6 347.5 318.3 291 260.8 234.5 219.6 199.8 182.5 160.1 144.6 137.2 144.4 153.9 153.6 149.1 148.9 145 142.3 141 137.6 135.8 131.2 113.5 95.4 84.7 73.7 66.6 55 48.6 54.1 54.3 56.9 49 45.6 39.7 21.9 13.5 13.6 13.9 17.2 20.8 23.9 22.8 21.9 24.5 26.2 30.9 33.2 36.2 43.3 40.4 31 34.2 32.7 29.3 33.4 36.9 42.2 27.5 35.3 35 35.7 22.4 12.7 0.6 -2.3 -2.3 -2.3 -2.3 -2.3 -2.3 -2.3 -2.3 -2.3 -2.3 -2.3 -2.3 -2.3 -2.3 -2.3 -2.3 -2.3 -2.3 -2.3 -2.3 -2.3 -2.3 -2.3 -2.3 -2.3 -2.3 -2.3 -2.3 -2.3 -2.3 -2.3 -2.3 -2.3 -2.3 -2.3 -2.3
-2.3 -2.3 -2.3 -2.3 -2.3 -2.3 -2.3 -2.3 -2.3 -2.3 -2.3 -2.3 -2.3 -2.3 -2.3 -2.3 -2.3 -2.3 -2.3 -2.3 -2.3 -2.3 -2.3 -2.3 -2.3 -2.3 -2.3 4.5 5.1 -2.3 -2.3 -2.3 -2.3 0.9 1.7 1.7 10.9 33.2 52.6 69.8 86.9 96.7 100.1 94.5 87.9 77.2 69 63.5 57.8 47.9 46 47.1 40.5 29.2 19.6 10.8 9.7 11.2 24.4 37.8 47.7 60.5 84.8 94.9 101.2 116.7 138.8 160.6 186.3 217 238 258.4 284.1 300.8 309.4 316.9 321.7 336.2 356.8 372.8 374.8 376 378.5 377.8 372.9 375 373.2 368.3 367.2 364.4 368.6 374.7 385.8 393.2 395.2 395.5 392 383.9 366.9 345.2 316.4 287.6 262.9 236.4 217.3 203.2 187.7 175.2 149.3 136.8 146.2 151.3 153.1 150.5 155.1 151.4 150.8 148.1 147.2 148.2 142.6 127.3 106.2 96.6 86.1 75.5 64.2 51.2 51.3 51.1 51.4 53 48.9 45.6 27.4 16 13.7 14.9 23.7 26.2 25.7 24.9 24.9 27.4 35.5 37 38 37.1 38.3 43.5 30.9 41.1 37.3 31.6 36.1 43.5 52 36.5 40 39.7 35.8 26.3 22.9 9.4 8.9 4 8.3 -2.3 -2.3 -2.3 6.8 12.6 20.5 14.1 -2.3 -2.3 -2.3 -2.3 -2.3 -2.3 -2.3 -2.3 -2.3 -2.3 -2.3 -2.3 -2.3 -2.3 -2.3 -2.3 -2.3 -2.3 -2.3 -2.3 -2.3 -2.3 -2.3 -2.3 -2.3 -2.3
-2.3 -2.3 -2.3 -2.3 -2.3 -2.3 -2.3 -2.3 -2.3 -2.3 -2.3 -2.3 -2.3 -2.3 -2.3 -2.3 -2.3 -2.3 -2.3 -2.3 -2.3 -2.3 -2.3 -2.3 -2.3 -2.3 -2.3 2.9 -2.3 -2.3 -2.3 -2.3 -2.3 -2.3 -2.3 1.7 1.7 17.9 34.1 58.6 76.9 91.7 100.1 98.5 94.5 85.5 75.3 69.7 63 57.1 45.9 47.9 46.5 31.1 34.5 22.8 11.5 11.3 12.4 28.2 42.8 57.5 69.5 88.1 93.2 107 122.7 146.8 167.4 185.3 212.9 237.9 259 277.5 294.7 306.3 313.2 315.3 336.8 348.9 355.8 357 357 355.9 357.1 355.6 355.1 347.3 343.8 355.7 362.4 367.8 377.8 388.7 390.3 392.2 387.4 378.1 362.7 335 309.9 287.3 258.9 233.1 215 201.4 189.9 172.9 151.9 133.7 144 146.7 151.7 151.7 154 155.7 150.1 149 148.2 143.5 139.8 130.1 116.9 107.4 94.1 83.8 65.2 52.9 51.4 51.1 52.1 51.5 49.5 44.4 36.3 26.1 11.8 13.9 26.2 28.2 26.7 27.8 28 31.7 35 38.4 38.7 39.9 49.1 36 27.2 36.7 31.5 34.9 32.9 38.4 51.7 44 43 37.7 39.8 31.6 21.9 32 14.9 5.6 11.1 -2.3 -2.3 -2.3 6.2 19.5 19.4 25.6 19.8 -2.3 -2.3 -2.3 -2.3 -2.3 -1 -0.1 -2.3 -2.3 -2.3 -2.3 -2.3 -2.3 -2.3 -2.3 -2.3 -2.3 -2.3 -2.3 -2.3 -2.3 -2.3 -2.3 -2.3 -2.3
-2.3 -2.3 -2.3 -2.3 -2.3 -2.3 -2.3 -2.3 -2.3 -2.3 -2.3 -2.3 -2.3 -2.3 -2.3 -2.3 -2.3 -2.3 -2.3 -2.3 -2.3 -2.3 -2.3 -2.3 -2.3 -2.3 -2.3 -2.3 -2.3 -2.3 -2.3 -2.3 -2.3 -2.3 -2.3 0.3 1.7 10.4 27.7 47 64.7 82.3 93.5 99.2 98.5 92.9 83.5 75.6 70.5 62.5 49.4 43.4 45 31.1 28.9 33.3 22.3 12.4 13.5 15.1 38.8 51.3 65.4 81.5 88.3 102.7 114.6 127 153.3 170.8 181.2 213.3 239.6 256.5 272.1 292 295.9 304 312.2 319.3 335.8 334.3 338.4 335.7 341.1 336.7 332.3 332.1 333.1 347.4 357.9 366.6 371.8 378 381.2 383.2 379.2 367.1 351.6 329.6 305.9 285.4 261.1 233.7 215.6 203 188.5 170.5 153.3 131.3 138.3 140.7 139.8 148.7 151.7 148.9 144.4 144.8 149.1 141.8 137 124.8 118 108.9 96.9 84.2 65.5 56.5 52.3 50.3 54.2 54.9 53.3 45.5 41 26.9 15.2 19.2 26.2 31.5 27.7 29.7 29.4 35.7 39 44 38.6 42.1 47.2 34.2 27.2 35 45.3 33.1 31.1 34.1 43 39 47.3 30.1 32.1 25.7 25.2 35.3 17.2 18.1 21 23.9 15.2 11.7 15.7 18 17.8 23.7 16.8 -2.3 -2.3 -2.3 -2.3 -2.3 15.1 17 -2.3 -2.3 -2.3 -2.3 -2.3 -2.3 -2.3 -2.3 -2.3 -2.3 -2.3 -2.3 -2.3 -2.3 -2.3 -2.3 -2.3 -2.3
-2.3 -2.3 -2.3 -2.3 -2.3 -2.3 -2.3 -2.3 -2.3 -2.3 -2.3 -2.3 -2.3 -2.3 -2.3 -2.3 -2.3 -2.3 -2.3 2.7 -2.3 -2.3 -2.3 -2.3 -2.3 -2.3 -2.3 -2.3 -2.3 -2.3 -2.3 -2.3 -2.3 -2.3 -2.3 -2.3 -2.3 5.2 17.5 40.3 57.6 73.4 85.6 94.5 98.6 100.1 94.2 82.4 75.8 71.8 60 47.5 39.7 38.4 29.4 30 28.3 19.6 16.5 16.4 37.7 52.2 60.1 74 83.8 91.4 101.7 115.6 137.9 156.2 166.2 189.8 217.9 239.2 250.2 267.9 277.7 290.4 293.7 288 289.6 306.1 317.4 324 325.3 325.2 322.7 316.6 328.5 338.6 351.3 362.3 369.2 372.7 375.9 375.7 370.6 361.3 342.9 323 298 276.5 258.5 237.3 221.6 201.9 187 173 147.9 129.7 126 129.8 133.4 142.6 145.3 138.6 135.2 137.8 140.5 140.8 131.6 123.7 116.9 105.3 92.9 83.3 66.6 58.6 58 50.5 54 58.9 55.6 47.9 39.2 29.4 11.9 25 30 31.7 28.2 31.7 28 34.6 41.9 45.5 47.2 47.2 44.1 38.7 37.9 27.2 44.6 47.3 34.2 35.4 36.8 33.5 44.3 36.4 29.6 31.4 28.3 39.9 26.2 22.7 23.6 34.3 29.2 12.4 18.4 18.2 18 14.6 13.8 -2.3 -2.3 -2.3 -2.3 9 1.7 -2.3 -2.3 -2.3 -2.3 -2.3 -2.3 -2.3 -2.3 -2.3 -2.3 -2.3 -2.3 -2.3 -2.3 -2.3 -2.3 -2.3 -2.3 -2.3
-2.3 -2.3 -2.3 -2.3 -2.3 -2.3 -2.3 -2.3 -2.3 -2.3 -2.3 -2.3 -2.3 -2.3 -2.3 -2.3 -2.3 -2.3 -2.3 -2.3 -2.3 -2.3 -2.3 -2.3 -2.3 -2.3 -2.3 -2.3 -2.3 -2.3 4.1 -2.3 -2.3 -2.3 -2.3 -2.3 -2.3 -2.3 8.3 27.4 51.3 64.8 75.7 88 95.8 99.8 98 89.5 81.1 75.4 70.6 59.7 47.1 38.9 33.3 30.7 31.2 26.8 22.3 17.9 26.9 43.5 56.4 70.2 78.7 86.7 90.7 107.6 123.7 142.2 156.9 175.8 190.2 215.2 227.6 242.8 261.6 274.5 279.1 284.9 281.9 282.6 297.3 310.1 310.7 311.6 308 305.1 316.2 335.9 349 358.3 364.7 368.8 370.8 369.2 362.7 353.5 335 319.7 290 262.6 251.8 228.8 216.3 201.7 185.8 165 145.4 134.2 124.4 120.9 125.6 132.3 132.1 128.6 129.6 134.5 134.5 126.6 124.5 122.6 110.8 97.4 86.3 77.6 66.2 54.8 52.2 49.2 53 51.6 52.6 38.9 34.1 24.6 9.7 12 27.2 25.2 24 26.7 26.3 42.2 42.9 45.6 49.9 48.2 43.6 41.6 41 27.2 38 45.6 36.5 32.9 42.7 38.2 37.6 44.6 31.6 32.3 34.1 37.9 26.6 13.7 21 27.8 30.3 10.8 15.2 18.8 23.3 23.3 -2.3 -2.3 -2.3 -2.3 -2.3 -2.3 -2.3 -2.3 -2.3 -2.3 -2.3 -2.3 -2.3 -2.3 -2.3 -2.3 -2.3 -2.3 -2.3 -2.3 -2.3 -2.3 -2.3 -2.3 -2.3 -2.3
-2.3 -2.3 -2.3 -2.3 -2.3 -2.3 -2.3 -2.3 -2.3 -2.3 -2.3 -2.3 -2.3 -2.3 -2.3 -2.3 -2.3 -2.3 -2.3 -2.3 -2.3 -2.3 -2.3 -2.3 -2.3 -2.3 -2.3 -2.3 -2.3 -2.3 1.3 6.2 -2.3 -2.3 -2.3 1.7 -0.5 -2.3 0.9 16.8 38.1 53.4 65.1 78.4 91.6 99.9 96.2 91.4 86.5 80.4 74.5 69.9 60.1 42.1 40.2 36.2 36.5 35 33.1 25.3 20.3 43.1 50.3 63.2 74 85.9 89.6 100.8 118.1 128.3 143.5 160.7 182.9 194.9 213.4 233.4 242.4 252.9 259.4 267.7 277 272.3 275.3 286.4 294.8 295.8 296.2 288.7 309.4 328.3 344.1 352.8 362 369 369.7 365.2 358.3 347.3 333.2 315.9 291.7 259.7 238.7 217.8 201.8 190 178.4 163.6 148.8 134.8 129 119.6 113.8 109.9 113.4 110.8 112.9 114.2 118.1 115.2 116.4 110.6 101.3 94 80.7 73.3 62.5 54.5 51 48.1 51.7 49.5 47.1 35.8 29.4 26.5 6.7 -2.3 16.1 16 18.3 19 26.9 38.6 37.4 41 43.1 39.4 45.1 42.2 35.3 27.2 29.1 35.2 28.5 27.9 38.4 41.8 39.9 36.1 31.5 31.5 38.5 38.2 35 18.3 20.1 22.2 27 23 6.5 14.8 19.2 23.8 -2.3 -2.3 -2.3 -2.3 -2.3 -2.3 -2.3 -2.3 -2.3 -2.3 -2.3 -2.3 -2.3 -2.3 -2.3 -2.3 -2.3 -2.3 -2.3 -2.3 -2.3 -2.3 -2.3 -2.3 -2.3 -2.3
-2.3 -2.3 -2.3 -2.3 -2.3 -2.3 -2.3 -2.3 -2.3 -2.3 -2.3 -2.3 -2.3 -2.3 -2.3 -2.3 -2.3 -2.3 -2.3 -2.3 -2.3 -2.3 -2.3 -2.3 -2.3 -2.3 -2.3 -2.3 -2.3 -2.3 -2.3 4.8 -2.3 -2.3 -2.3 1.6 1 -2.3 -0.6 1.5 23.8 40.6 54.8 70 84.6 99.2 99.7 95.2 91.4 84.8 80.1 74.5 69.3 53 43.3 44.1 46.3 44.9 44.3 36 29.2 25.6 49.3 59.4 68.1 79 85.5 89.6 107.9 123.8 136 154.7 173.8 192.3 206.7 227.9 237 240.6 249.5 250.1 260.3 264.3 255.7 261.8 274.5 281.3 277.1 286.4 307.5 325 339.3 351.7 363.3 373.3 371.7 365.4 351.6 340.7 325.6 304.8 285.4 250.6 226 208.9 192.4 184.9 170.6 155.5 144.6 143.5 131.4 109.1 108.4 106.9 97 89.7 92.1 94.4 94.9 100.1 105.6 96.4 94.9 88.2 77.6 66.7 58.9 50.8 47.9 47.5 53.2 52.2 43 33.3 21.1 19.9 9 -2.3 9.5 11.7 11.3 14.2 21.5 30.5 33.3 37.7 40.3 36.4 39.4 32 37.5 33.2 30.2 29.4 21.4 20.3 30.8 48 40.7 41.9 35.1 35.5 32.8 34.1 33.2 25.4 16.7 24.7 17.7 17.5 -2.3 -2.3 16.2 17.4 16.4 -2.3 -2.3 -2.3 -2.3 -2.3 -2.3 -2.3 -2.3 -2.3 -2.3 -2.3 -2.3 -2.3 -2.3 -2.3 -2.3 -2.3 -2.3 -2.3 -2.3 -2.3 -2.3 -2.3 -2.3 -2.3
-2.3 -2.3 -2.3 -2.3 -2.3 -2.3 -2.3 -2.3 -2.3 -2.3 -2.3 -2.3 -2.3 -2.3 -2.3 -2.3 -2.3 -2.3 -2.3 -2.3 -2.3 -2.3 -2.3 -2.3 -2.3 -2.3 -2.3 -2.3 -2.3 -2.3 -2.3 -2.3 4.8 -2.3 -2.3 -2.3 -0.3 -1.4 -0.2 1.1 5.3 23.7 43.3 60.6 73.8 90.5 98.9 94.2 94.1 87.1 83.1 78.3 73.7 66.4 53 47.3 55.1 63.9 55.2 50.4 40.4 35 34.9 56.4 68.9 71.5 77.8 86 91.8 113.2 131.4 153 169 190.6 206.4 219.4 229.3 232.2 228 234.5 242.7 245.6 242.5 235.3 254.4 269.6 272 285.6 304.1 317.6 334.5 352.4 366.3 377.9 372.7 364 346.8 329.3 314.5 298.5 279 254.7 224.1 205.3 187.8 177 169.4 157.2 136.5 139.7 135.2 119.4 106.4 98.4 96.1 86.3 79.1 70.3 72.7 83.2 86.2 92.6 91.3 82.5 75.8 63.7 55.8 50.5 44.9 49.9 50.9 49.1 40 32.8 23 21.7 10.7 -2.3 4.2 8 10 18.8 22.5 33 34.4 32.6 36.4 31.4 34.1 31.4 33.1 34.1 24.3 23.5 20.3 20.3 26 44.7 43.8 44.6 42.8 34.3 35.1 30.4 32.6 26.6 21.5 20.4 21 -2.3 -2.3 -2.3 -2.3 10.6 -2.3 -2.3 -2.3 -2.3 -2.3 -2.3 -2.3 -2.3 -2.3 -2.3 -2.3 -2.3 -2.3 -2.3 -2.3 -2.3 -2.3 -2.3 -2.3 -2.3 -2.3 -2.3 -2.3 -2.3 -2.3 -2.3
-2.3 -2.3 -2.3 -2.3 -2.3 -2.3 -2.3 -2.3 -2.3 -2.3 -2.3 -2.3 -2.3 -2.3 -2.3 -2.3 -2.3 -2.3 -2.3 -2.3 -2.3 -2.3 -2.3 -2.3 -2.3 -2.3 -2.3 -2.3 -2.3 -2.3 -2.3 -2.3 -2.3 4.7 -2.3 -2.3 -2.2 -1.1 0 1 5.6 7.4 22.4 47.8 63.2 76.5 89.8 90.2 95 94.7 88.5 81.2 73.8 73.5 65.8 57 53.9 63.5 70.3 60.8 53.3 43.4 39.5 41.5 61.6 69.6 73.1 80 91.6 99.4 121.4 144.4 166.2 183.2 200 212.6 216 217.1 219.7 219.6 224.5 225.4 229.4 223.7 237.4 250.8 262.9 278.1 298 312.3 329.5 349.7 366.5 373.5 370.3 357 340.7 322 302.3 290.7 271.8 253.1 225.8 213.3 195.5 184.5 171.6 158.2 129.9 131.4 123.7 116.8 98.8 94.3 87.9 79.4 75.2 66.6 64.6 65.2 67.6 81.3 81.2 76.4 70.3 53 54 48.8 41.8 46.6 47.2 41.2 47.3 33.8 22.7 21.3 8.3 -2.3 3 3 3.6 15.5 18.5 35.2 38.6 34.4 34.5 31.4 31.4 31.4 31.4 30 27.2 20.3 20.3 20.3 40.3 50.4 40.8 50.4 41.5 35.1 39.2 35.4 24.5 6.5 19.7 15.5 12.2 -2.3 -2.3 -2.3 -2.3 -2.3 -2.3 -2.3 -2.3 -2.3 -2.3 -2.3 -2.3 -2.3 -2.3 -2.3 -2.3 -2.3 -2.3 -2.3 -2.3 -2.3 -2.3 -2.3 -2.3 -2.3 -2.3 -2.3 -2.3 -2.3 -2.3 -2.3
-2.3 -2.3 -2.3 -2.3 -2.3 -2.3 -2.3 -2.3 -2.3 -2.3 -2.3 -2.3 -2.3 -2.3 -2.3 -2.3 -2.3 -2.3 -2.3 -2.3 -2.3 -2.3 -2.3 -2.3 -2.3 -2.3 -2.3 -2.3 -2.3 -2.3 -2.3 -2.3 -2.3 6.8 6.5 1.9 -0.3 0.3 1.4 1.7 6 7.1 12.9 26.4 51.6 66.8 75.4 85.2 91.8 93.2 89.7 83.6 75.2 71.6 69.7 67.8 61.7 62.1 71.4 72.5 63.9 58 55.5 45.4 46.8 64 73.3 81.5 89.2 98.5 113.8 132.6 153.3 173.3 190.8 203.7 203.2 203 204.2 208.3 207.2 202.6 216.3 218.3 219 224.6 253.8 269.4 289.9 306.7 328.6 348.7 361.8 363.2 359.4 347.4 330.9 316.6 299 278.2 263.7 248.4 236.2 217.5 206.2 190.1 174.9 153.4 129.6 127.8 115 106.8 93.9 84.9 81.1 77.8 72.9 62.4 61 59.4 58.3 62.3 64.6 68.7 56.6 41.6 47.9 45 38.6 35 43.1 41.2 46 32.6 23.7 21.4 11.7 -2.3 2.2 -1.9 6.4 5.3 12.1 26.4 39 36.5 33.6 31.4 35.5 34.1 32.8 33.3 20.6 21.9 27.1 21 44 47.8 40.1 41.1 37.6 30.9 37.5 35.2 28.2 -2.3 -2.3 8.2 -2.3 -2.3 -2.3 -2.3 -2.3 -2.3 -2.3 -2.3 -2.3 -2.3 -2.3 -2.3 -2.3 -2.3 -2.3 -2.3 -2.3 -2.3 -2.3 -2.3 -2.3 -2.3 -2.3 -2.3 -2.3 -2.3 -2.3 -2.3 -2.3 -2.3 -2.3 -2.3
-2.3 -2.3 -2.3 -2.3 -2.3 -2.3 -2.3 -2.3 -2.3 -2.3 -2.3 -2.3 -2.3 -2.3 -2.3 -2.3 -2.3 -2.3 -2.3 -2.3 -2.3 -2.3 -2.3 -2.3 -2.3 -2.3 -2.3 -2.3 -2.3 -2.3 -2.3 -2.3 -2.3 8.2 5.1 5 4.8 1.7 1.7 1.7 5.5 6.1 10.7 18.7 31.5 50.7 62.8 74.4 84.3 88 88.4 86.3 78.7 75 72.1 69.3 69.4 67.9 73.8 76.4 70.1 68.6 64.2 60 48 55.5 71.1 79.7 89 97.5 102.6 119.3 134.9 155.2 169.6 186.8 192.2 192.1 187.6 191.4 190.8 190.7 194.1 204.7 217.2 218.7 230.1 258.7 281 301.7 325.6 343.5 357.3 356 350 338 326.9 311.9 293.6 275.8 261.9 248.2 232.5 218 205.7 189.2 171.6 149.2 135.6 126.5 112.9 100.5 88.6 84 75.7 74.8 66.9 61.5 54.1 57.2 51.8 51 48 50.4 38.7 33.6 31.3 33.9 26.5 30.8 42.4 40.6 43.8 36.5 25.3 20.6 -2.3 -2.3 5.8 3.9 11.2 11.2 9.2 16.2 26.3 31.1 32.9 31.4 35.3 38.2 34.4 31.4 26 20.3 28.2 20.3 38.1 51.3 44.4 40.3 32.3 32.1 36.8 23.1 -2.3 -2.3 -2.3 -2.3 -2.3 -2.3 -2.3 -2.3 -2.3 -2.3 -2.3 -2.3 -2.3 -2.3 -2.3 -2.3 -2.3 -2.3 -2.3 -2.3 -2.3 -2.3 -2.3 -2.3 -2.3 -2.3 -2.3 -2.3 -2.3 -2.3 -2.3 -2.3 -2.3 -2.3 -2.3 -2.3
-2.3 -2.3 -2.3 -2.3 -2.3 -2.3 -2.3 -2.3 -2.3 -2.3 -2.3 -2.3 -2.3 -2.3 -2.3 -2.3 -2.3 -2.3 -2.3 -2.3 -2.3 -2.3 -2.3 -2.3 -2.3 -2.3 -2.3 -2.3 -2.3 -2.3 -2.3 -2.3 -2.3 3.6 6.2 4.8 4.3 4.1 1.7 1.7 1.7 7.5 8 14.2 23.3 39.3 56.4 65.9 74.8 81 83.8 85 82.2 81.9 78.8 79.2 80.7 80 82 78.7 75.7 78 73.8 68.5 61.4 53.5 59.4 74.1 87.2 95.7 95.9 100 117 133.1 151.2 164.2 174.9 178.7 180 184.5 178 181.1 184.6 191.2 200.7 214.4 219.4 241.4 270.1 295.8 317.8 337.7 350 346.2 340.6 332.4 321.4 307 292.1 273.4 256.6 242.6 225.1 213.6 201.4 188.1 168.4 150.7 146.1 126.2 116.5 96.6 87.2 84.9 75.2 66 64.8 59.4 54.8 46.4 48.2 42.3 39.3 39.1 34.8 36.2 32.1 23.7 25 24.2 29.1 35.7 34.7 34.1 20.9 12.9 -2.3 7.7 10 22 12.5 13.6 13.7 15.5 24.4 33.3 37.6 35.5 37.9 36.3 37.4 38.6 30.6 28.6 27.6 25.3 23.2 36.3 36.3 24 24.2 16 23.8 17.5 -2.3 -2.3 -2.3 -2.3 -2.3 -2.3 -2.3 -2.3 -2.3 -2.3 -2.3 -2.3 -2.3 -2.3 -2.3 -2.3 -2.3 -2.3 -2.3 -2.3 -2.3 -2.3 -2.3 -2.3 -2.3 -2.3 -2.3 -2.3 -2.3 -2.3 -2.3 -2.3 -2.3 -2.3 -2.3 -2.3
-2.3 -2.3 -2.3 -2.3 -2.3 -2.3 -2.3 -2.3 -2.3 -2.3 -2.3 -2.3 -2.3 -2.3 -2.3 -2.3 -2.3 -2.3 -2.3 -2.3 -2.3 -2.3 -2.3 -2.3 -2.3 -2.3 -2.3 -2.3 -2.3 -2.3 -2.3 -2.3 3.1 1.7 1.7 9.6 3.8 4 5.5 1.7 1.7 7.6 7.1 10.2 21.7 29.4 42.5 53.3 59.6 66.5 75.3 80.3 83.3 87.3 87.4 89 89.9 92.2 89.7 90.6 85.5 84.2 84.2 76.6 69.4 61.4 58.6 60.4 79.1 93.7 98.9 88.1 105.1 119.1 130.8 145 158.2 171.3 176.7 175.1 167.8 171.5 174.3 180.7 185.2 203.5 210.3 226.3 258.1 284.1 305.9 327.4 335.8 333.3 328.4 325.1 313.4 297.5 284.9 267.4 251.5 241.8 228.3 204.7 188.9 170.6 153.2 153.1 145.4 123.5 110.5 94.5 82.6 81.1 73.2 62.8 63.1 54.1 45.4 40.8 38.2 36.8 34.5 30.1 28.6 37.4 28.5 17.7 23.2 21.2 25.2 24.7 23.9 28.7 19.1 1.7 -2.3 4 21.3 23.8 21.1 12.7 12.7 14 16.4 29 41.4 44.1 37.1 33.9 40.4 35.1 23.4 27 30.1 23.1 15.4 -2.3 26 22.7 20.2 8.3 -2.3 -2.3 -2.3 -2.3 -2.3 -2.3 -2.3 -2.3 -2.3 -2.3 -2.3 -2.3 -2.3 -2.3 -2.3 -2.3 -2.3 -2.3 -2.3 -2.3 -2.3 -2.3 -2.3 -2.3 -2.3 -2.3 -2.3 -2.3 -2.3 -2.3 -2.3 -2.3 -2.3 -2.3 -2.3 -2.3 -2.3 -2.3
-2.3 -2.3 -2.3 -2.3 -2.3 -2.3 -2.3 -2.3 -2.3 -2.3 -2.3 -2.3 -2.3 -2.3 -2.3 -2.3 -2.3 -2.3 -2.3 -2.3 -2.3 -2.3 -2.3 -2.3 -2.3 -2.3 -2.3 -2.3 -2.3 -2.3 -2.3 -2.3 1.7 6.1 1.7 10.7 8.7 1.7 1.3 1.6 1.7 1.7 8.1 7.3 14.8 22.1 29.2 35.6 49.3 59.9 68.4 79.4 79.8 87.3 91.3 97.1 101.3 99.7 102.9 94 94 87.9 90.3 88.1 81.6 71.6 67.3 62.2 61.9 90.2 97.8 97.1 90.2 105.2 118.2 129.8 146.4 161.2 167.2 169.6 160.7 156.3 162 166.1 173.3 191.4 208.1 214.4 243 270.3 288.2 305.5 315.7 316.6 314.3 311 302.3 287.7 274.5 258.4 244.2 236.3 220.3 205.2 185.5 169.9 151.9 153.9 139.8 125 117.6 101.9 87.3 74.1 66 59.1 60.8 54.3 36.4 31.8 28.9 30.5 32.8 24.6 21.7 23.3 21.6 17.5 13.2 15.3 17.5 18.6 17.9 15.2 17.5 1.7 -2.3 13.1 17.9 19.1 18.9 15.7 12 10.2 10.4 18.7 23.7 41.7 36.5 32.5 38.6 29.4 17 26.7 -2.3 -2.3 -2.3 -2.3 -2.3 -2.3 -2.3 -2.3 -2.3 -2.3 -2.3 -2.3 -2.3 -2.3 -2.3 -2.3 -2.3 -2.3 -2.3 -2.3 -2.3 -2.3 -2.3 -2.3 -2.3 -2.3 -2.3 -2.3 -2.3 -2.3 -2.3 -2.3 -2.3 -2.3 -2.3 -2.3 -2.3 -2.3 -2.3 -2.3 -2.3 -2.3 -2.3 -2.3 -2.3 -2.3
-2.3 -2.3 -2.3 -2.3 -2.3 -2.3 -2.3 -2.3 -2.3 -2.3 -2.3 -2.3 -2.3 -2.3 -2.3 -2.3 -2.3 -2.3 -2.3 -2.3 -2.3 -2.3 -2.3 -2.3 -2.3 -2.3 -2.3 -2.3 -2.3 -2.3 -2.3 7 1.6 1.8 5.8 2.4 10.8 5 1.7 3.3 1.7 1.7 3.9 4.9 9.7 18.4 23.3 27.9 38.7 53 62.8 67.3 75.5 83.2 92.5 103.8 110.2 113.4 113.5 110.2 99.3 100.2 96.3 93.1 90.3 88.1 80.5 73.3 63.5 66.4 86.2 95 87.2 97.8 109 118.8 133.1 143.1 154 159.4 155.8 150.2 146.5 154.1 162.2 175.3 196.4 208.6 225.3 249.7 274.2 290.1 298.2 303 302.9 299.6 287.9 276 263.3 252.2 236 224.6 214.1 202.9 185 169.2 155.5 146.8 135.4 123.2 114 107.3 82.5 68 62.1 57.4 50.9 46.2 31.3 29.3 30.8 27.7 27.3 27.2 20.3 20.9 17.6 12.1 9 8.9 14.3 16.6 15.7 11.7 4 1.7 -2.3 17.8 21.5 22.8 26.5 20.1 26.4 12.5 14.9 -2.3 -2.3 -2.3 15.1 16.5 19.9 19 -2.3 -2.3 -2.3 -2.3 -2.3 -2.3 -2.3 -2.3 -2.3 -2.3 -2.3 -2.3 -2.3 -2.3 -2.3 -2.3 -2.3 -2.3 -2.3 -2.3 -2.3 -2.3 -2.3 -2.3 -2.3 -2.3 -2.3 -2.3 -2.3 -2.3 -2.3 -2.3 -2.3 -2.3 -2.3 -2.3 -2.3 -2.3 -2.3 -2.3 -2.3 -2.3 -2.3 -2.3 -2.3 -2.3 -2.3 -2.3
-2.3 -2.3 -2.3 -2.3 -2.3 -2.3 -2.3 -2.3 -2.3 -2.3 -2.3 -2.3 -2.3 -2.3 -2.3 -2.3 -2.3 -2.3 -2.3 -2.3 -2.3 -2.3 -2.3 -2.3 -2.3 -2.3 -2.3 -2.3 -2.3 -2.3 -2.3 1.3 8.8 2.1 2.2 -2.3 -2.3 -2.3 1.7 7.6 1.7 1.7 3.9 4.2 6.5 16.8 21.1 22 26.6 42.9 53.7 60.3 68.7 79.5 91.3 103.9 117.6 122.8 123.8 123.2 118.2 108.7 101.6 98.8 97.6 98.4 96.1 89.3 80.3 70.6 64.9 68.9 81.7 91.6 98.9 110.5 117 126.3 136 146.1 143.9 141.7 141.6 141.5 146.8 164 177.8 199.1 210.3 229.7 259.1 276.1 283.7 290.4 296.2 289.3 274.8 264.1 253.2 240.3 224.1 216.1 206.9 194.1 179 164.9 148.7 140.4 129.2 114.7 106.1 93.8 76.4 66.1 59.1 57.2 50.5 40.7 36.5 32.1 29.7 31.4 29.6 26.2 19.4 22.2 21.5 15 5.8 6.3 9.4 10 11.5 6.9 4.3 1.7 -2.3 12.9 22 24.3 24.1 25.5 27.3 19 15.9 15.6 -2.3 -2.3 -2.3 -2.3 -1.5 -2.3 -2.3 -2.3 -2.3 -2.3 -2.3 -2.3 -2.3 -2.3 -2.3 -2.3 -2.3 -2.3 -2.3 -2.3 -2.3 -2.3 -2.3 -2.3 -2.3 -2.3 -2.3 -2.3 -2.3 -2.3 -2.3 -2.3 -2.3 -2.3 -2.3 -2.3 -2.3 -2.3 -2.3 -2.3 -2.3 -2.3 -2.3 -2.3 -2.3 -2.3 -2.3 -2.3 -2.3 -2.3 -2.3 -2.3 -2.3 -2.3
-2.3 -2.3 -2.3 -2.3 -2.3 -2.3 -2.3 -2.3 -2.3 -2.3 -2.3 -2.3 -2.3 -2.3 -2.3 -2.3 -2.3 -2.3 -2.3 -2.3 -2.3 -2.3 -2.3 -2.3 -2.3 -2.3 -2.3 -2.3 -2.3 -2.3 -2.3 -2.3 3 1.9 -2.3 -2.3 -2.3 -2.3 1.7 1.7 4.9 4.7 2.6 5.1 1.7 9.9 18.7 21.4 20.5 26.3 37.3 50.8 64.4 78.2 93.3 100.4 116.1 125 130.7 131.2 134.4 128.6 118.4 108.5 104.7 108.3 108.8 105.1 96.2 87.1 75.1 65.1 66.9 72.7 89.4 97.5 101.5 106.9 118.3 129.7 130.6 134.8 134.9 128.5 137 150.2 165 185.1 203 207.2 237.2 259.6 267.9 278.2 282.2 276.8 265.5 256.8 244 229.7 217.2 204.8 194.3 185.8 169.1 156.4 145.4 146.1 127.3 107.3 99.4 89.1 73.8 62.7 59 54.5 49.2 43.1 39.2 38.9 34.5 33 31.9 32.7 26.3 17.8 16.9 13.4 3.3 -2.3 -2.3 -2.3 -2.3 -2.3 8.3 17.2 -2.3 10.3 23 17 19.3 22.5 24.5 14.5 7.6 13.5 -2.3 -2.3 -2.3 -2.3 -2.3 -2.3 -2.3 -2.3 -2.3 -2.3 -2.3 -2.3 -2.3 -2.3 -2.3 -2.3 -2.3 -2.3 -2.3 -2.3 -2.3 -2.3 -2.3 -2.3 -2.3 -2.3 -2.3 -2.3 -2.3 -2.3 -2.3 -2.3 -2.3 -2.3 -2.3 -2.3 -2.3 -2.3 -2.3 -2.3 -2.3 -2.3 -2.3 -2.3 -2.3 -2.3 -2.3 -2.3 -2.3 -2.3 -2.3 -2.3 -2.3 -2.3
-2.3 -2.3 -2.3 -2.3 -2.3 -2.3 -2.3 -2.3 -2.3 -2.3 -2.3 -2.3 -2.3 -2.3 -2.3 -2.3 -2.3 -2.3 -2.3 -2.3 -2.3 -2.3 -2.3 -2.3 -2.3 -2.3 -2.3 -2.3 -2.3 -2.3 -2.3 -2.3 -2.3 -2.3 -2.3 -2.3 -2.3 4.6 10.2 9.5 6.7 6.9 6.5 1.7 1.7 1.7 7.8 20 19 18.4 27.2 40.1 51.5 69.4 90 103.5 112.9 124.2 131.9 141 140.4 142.1 134.7 125.3 115.5 109 115.2 115.5 111.7 103.6 94.9 78 67.8 66 68.5 80.1 85.3 92.7 102.7 114.4 120.3 120.9 127.6 121.5 124.3 138.4 151.4 168.7 192.3 199.6 215.7 237.5 256.1 264.7 269.7 264.4 256 248.3 235.5 222.1 209.4 197.6 191.2 181.7 166.6 152.9 140.7 143.5 131.4 104.7 92 89.9 72.6 56.6 57.2 60.2 57.9 47.6 46.7 45 43.9 40 38.1 31.7 27.6 18.2 11.8 10.5 2.7 -2.3 -2.3 -2.3 -2.3 -2.3 16.6 -2.3 -2.3 -2.3 18.6 12.8 -2.3 -2.3 13.8 -2.3 -2.3 -2.3 -2.3 -2.3 -2.3 -2.3 -2.3 -2.3 -2.3 -2.3 -2.3 -2.3 -2.3 -2.3 -2.3 -2.3 -2.3 -2.3 -2.3 -2.3 -2.3 -2.3 -2.3 -2.3 -2.3 -2.3 -2.3 -2.3 -2.3 -2.3 -2.3 -2.3 -2.3 -2.3 -2.3 -2.3 -2.3 -2.3 -2.3 -2.3 -2.3 -2.3 -2.3 -2.3 -2.3 -2.3 -2.3 -2.3 -2.3 -2.3 -2.3 -2.3 -2.3 -2.3 -2.3 -2.3
-2.3 -2.3 -2.3 -2.3 -2.3 -2.3 -2.3 -2.3 -2.3 -2.3 -2.3 -2.3 -2.3 -2.3 -2.3 -2.3 -2.3 -2.3 -2.3 -2.3 -2.3 -2.3 -2.3 -2.3 -2.3 -2.3 -2.3 -2.3 -2.3 -2.3 -2.3 -2.3 -2.3 -2.3 -2.3 -2.3 -2.3 -2.3 6.5 14.9 7.9 5.6 6 9.9 1.7 1.7 5.6 9.4 19.7 17.4 19.7 26.6 37.4 63.1 82.8 98.9 107.4 117.5 129.1 139.5 149.1 149.2 149.4 143.3 134.7 126.6 117.2 117.4 115.1 114.3 105 92.8 82.6 73.1 68.8 66.8 68.3 79.5 93.1 99.7 107.8 107.6 108.2 106.6 115.1 123.2 138.7 153.7 175.9 186 195.3 215.9 240.3 252.3 253.1 251.4 245.2 237.1 226.7 214.3 199.8 190.9 186.3 180.5 169.7 153.1 140.2 136.9 121.9 107.5 88.8 79.5 61.9 56.3 53.4 54.5 51.1 46.3 45.8 47.2 44.5 38.9 36 37.6 25.4 22.1 13.7 12.1 5.9 4.3 -2.3 -2.3 -2.3 -2.3 -2.3 -2.3 -2.3 -2.3 -2.3 -2.3 -2.3 -2.3 -2.3 -2.3 -2.3 -2.3 -2.3 -2.3 -2.3 -2.3 -2.3 -2.3 -2.3 -2.3 -2.3 -2.3 -2.3 -2.3 -2.3 -2.3 -2.3 -2.3 -2.3 -2.3 -2.3 -2.3 -2.3 -2.3 -2.3 -2.3 -2.3 -2.3 -2.3 -2.3 -2.3 -2.3 -2.3 -2.3 -2.3 -2.3 -2.3 -2.3 -2.3 -2.3 -2.3 -2.3 -2.3 -2.3 -2.3 -2.3 -2.3 -2.3 -2.3 -2.3 -2.3 -2.3 -2.3 -2.3 -2.3 -2.3
-2.3 -2.3 -2.3 -2.3 -2.3 -2.3 -2.3 -2.3 -2.3 -2.3 -2.3 -2.3 -2.3 -2.3 -2.3 -2.3 -2.3 -2.3 -2.3 -2.3 -2.3 -2.3 -2.3 -2.3 -2.3 -2.3 -2.3 -2.3 -2.3 -2.3 -2.3 -2.3 -2.3 -2.3 -2.3 -2.3 -2.3 -2.3 -2.3 8.4 10.9 5.6 5.3 7.9 1.7 1.7 0.2 5.2 10.9 23.4 16.5 21.9 32.6 53.4 74.8 86.2 97.6 112.7 125.9 135.6 152 156.1 157.9 158.4 156 144.3 132.9 126.2 122.6 115.3 111.4 106.2 93.2 83 76.3 67.7 61.3 62.6 72.4 83.2 87.2 89.3 89.8 94.6 106.1 115 130.8 143.8 160.3 171.1 191.2 200 217.4 235.1 239 240.1 234.1 229.1 220.2 209.1 192.8 179.7 177.8 174.6 165.8 150.7 144.9 133.9 116.8 106.6 88 69.6 61.5 54.9 54.1 54.1 52.3 44.8 42.5 43.4 40.9 37.5 37.2 35.3 29.7 11.6 7.2 20.4 14.9 10.7 -2.3 -2.3 -2.3 -2.3 -2.3 -2.3 -2.3 -2.3 -2.3 -2.3 -2.3 -2.3 -2.3 -2.3 -2.3 -2.3 -2.3 -2.3 -2.3 -2.3 -2.3 -2.3 -2.3 -2.3 -2.3 -2.3 -2.3 -2.3 -2.3 -2.3 -2.3 -2.3 -2.3 -2.3 -2.3 -2.3 -2.3 -2.3 -2.3 -2.3 -2.3 -2.3 -2.3 -2.3 -2.3 -2.3 -2.3 -2.3 -2.3 -2.3 -2.3 -2.3 -2.3 -2.3 -2.3 -2.3 -2.3 -2.3 -2.3 -2.3 -2.3 -2.3 -2.3 -2.3 -2.3 -2.3 -2.3 -2.3 -2.3 -2.3
-2.3 -2.3 -2.3 -2.3 -2.3 -2.3 -2.3 -2.3 -2.3 -2.3 -2.3 -2.3 -2.3 -2.3 -2.3 -2.3 -2.3 -2.3 -2.3 -2.3 -2.3 -2.3 -2.3 -2.3 -2.3 -2.3 -2.3 -2.3 -2.3 -2.3 -2.3 -2.3 -2.3 -2.3 -2.3 -2.3 -2.3 -2.3 -2.3 -2.3 6.9 7.5 5.8 4.4 4.1 -2.3 -2.3 0.4 7 15.1 26 15.7 29.1 47.4 60.4 75.5 88.4 101.1 119.7 131.5 143 154.9 159.7 168.6 175.4 169.1 152.4 140 133.6 126.5 123.2 112.3 107.9 95 84.5 76.8 66.5 56.1 55.8 64.2 72.3 75.4 78.3 92.4 100.8 111.6 124.6 136 148.2 160.6 174.8 182.5 195.8 212.1 219.5 225.5 222.9 219.8 213.1 202.2 190.6 182.1 171.5 161.5 156.1 145.7 136.9 126.6 112.2 101.5 91.3 71.7 63 54 52.5 55.8 49.6 41.1 36.9 41.7 35.3 31.8 32.4 35.1 29.1 19.4 6.7 15 17.3 11.1 -2.3 -2.3 5.2 -2.3 -2.3 -2.3 -2.3 -2.3 -2.3 -2.3 -2.3 -2.3 -2.3 -2.3 -2.3 -2.3 -2.3 -2.3 -2.3 -2.3 -2.3 -2.3 -2.3 -2.3 -2.3 -2.3 -2.3 -2.3 -2.3 -2.3 -2.3 -2.3 -2.3 -2.3 -2.3 -2.3 -2.3 -2.3 -2.3 -2.3 -2.3 -2.3 -2.3 -2.3 -2.3 -2.3 -2.3 -2.3 -2.3 -2.3 -2.3 -2.3 -2.3 -2.3 -2.3 -2.3 -2.3 -2.3 -2.3 -2.3 -2.3 -2.3 -2.3 -2.3 -2.3 -2.3 -2.3 -2.3 -2.3 -2.3
-2.3 -2.3 -2.3 -2.3 -2.3 -2.3 -2.3 -2.3 -2.3 -2.3 -2.3 -2.3 -2.3 -2.3 -2.3 -2.3 -2.3 -2.3 -2.3 -2.3 -2.3 -2.3 -2.3 -2.3 -2.3 -2.3 -2.3 -2.3 -2.3 -2.3 -2.3 -2.3 -2.3 -2.3 -2.3 -2.3 -2.3 -2.3 -2.3 -2.3 -2.3 11.1 12.4 5 1.7 -2.3 -2.3 -2.3 2.2 9.8 15.3 15.8 17 32 52 63.6 71.9 86.6 107.7 127.5 137.3 147.3 155.2 167.4 176.3 184.1 177.6 162.4 146.8 139.2 132.7 122.6 112.4 108.9 94.7 85.6 79 67.7 54.1 48.3 53.2 62.4 72.8 84.2 95 104.9 118.6 131.9 141.3 153.2 157.7 170.4 172.6 190.1 186.3 195.2 206.7 211.3 207.8 194.8 187.8 178.8 167.5 157.3 147.9 137.4 129.4 118.6 110.1 99.2 85.7 71.8 67 57.2 51.6 53.8 49.2 43.6 35.6 36.6 29.5 33 31.2 26.2 27.8 16.1 2.8 -2.3 -2.3 6.6 -2.3 -2.3 -2.3 -2.3 -2.3 -2.3 -2.3 -2.3 -2.3 -2.3 -2.3 -2.3 -2.3 -2.3 -2.3 -2.3 -2.3 -2.3 -2.3 -2.3 -2.3 -2.3 -2.3 -2.3 -2.3 -2.3 -2.3 -2.3 -2.3 -2.3 -2.3 -2.3 -2.3 -2.3 -2.3 -2.3 -2.3 -2.3 -2.3 -2.3 -2.3 -2.3 -2.3 -2.3 -2.3 -2.3 -2.3 -2.3 -2.3 -2.3 -2.3 -2.3 -2.3 -2.3 -2.3 -2.3 -2.3 -2.3 -2.3 -2.3 -2.3 -2.3 -2.3 -2.3 -2.3 -2.3 -2.3 -2.3 -2.3 -2.3
-2.3 -2.3 -2.3 -2.3 -2.3 -2.3 -2.3 -2.3 -2.3 -2.3 -2.3 -2.3 -2.3 -2.3 -2.3 -2.3 -2.3 -2.3 -2.3 -2.3 -2.3 -2.3 -2.3 -2.3 -2.3 -2.3 -2.3 -2.3 -2.3 -2.3 -2.3 -2.3 -2.3 -2.3 -2.3 -2.3 -2.3 -2.3 -2.3 -2.3 -2.3 4.6 4.6 1.7 1.7 -2.3 -2.3 -2.3 -2.3 3.5 1.3 7.9 22.6 26.6 36 53.4 62.5 76.9 90.6 114.5 128.9 136.5 148 158.9 167 180.4 191.3 183 170.5 152.4 140.5 134.5 125.5 114.3 105.7 94 85.1 72.5 59.3 46.3 48.1 58.6 65.7 80.3 89.5 101 112.2 125.8 137.9 149.3 152.9 157.9 164.4 174.3 182.2 177.2 185.5 205.2 197.4 193.9 184.8 173.7 163.2 150.7 137.6 129.3 124.1 116.1 105.9 92.4 76 62.1 60.4 51.6 49.6 55.4 50.9 39.7 35.5 32.5 30.7 28.6 24.9 27 13.1 11.3 -2.3 -2.3 -2.3 -2.3 3.1 -2.3 -2.3 -2.3 -2.3 -2.3 -2.3 -2.3 -2.3 -2.3 -2.3 -2.3 -2.3 -2.3 -2.3 -2.3 -2.3 -2.3 -2.3 -2.3 -2.3 -2.3 -2.3 -2.3 -2.3 -2.3 -2.3 -2.3 -2.3 -2.3 -2.3 -2.3 -2.3 -2.3 -2.3 -2.3 -2.3 -2.3 -2.3 -2.3 -2.3 -2.3 -2.3 -2.3 -2.3 -2.3 -2.3 -2.3 -2.3 -2.3 -2.3 -2.3 -2.3 -2.3 -2.3 -2.3 -2.3 -2.3 -2.3 -2.3 -2.3 -2.3 -2.3 -2.3 -2.3 -2.3 -2.3 -2.3 -2.3 -2.3
-2.3 -2.3 -2.3 -2.3 -2.3 -2.3 -2.3 -2.3 -2.3 -2.3 -2.3 -2.3 -2.3 -2.3 -2.3 -2.3 -2.3 -2.3 -2.3 -2.3 -2.3 -2.3 -2.3 -2.3 -2.3 -2.3 -2.3 -2.3 -2.3 -2.3 -2.3 -2.3 -2.3 -2.3 -2.3 -2.3 -2.3 -2.3 -2.3 -2.3 -2.3 -2.3 -2.3 -2.3 0.9 3.5 1.1 -2.3 -2.3 -2.3 -2.3 6 21.5 35.3 39 34.6 53.8 71.5 82.8 97.5 113.1 125.2 137.9 149.5 159.5 171.9 187 196.9 189.2 172 157.1 146 135.5 122.1 116.9 97.9 90.2 75.2 59.4 49.8 45 53.1 64.6 71.9 88.1 95 107.1 118.5 133 144.4 148.7 151.9 155.6 164 167.6 173.7 172.6 203.9 200.1 192.3 183.7 170.5 160.5 149.1 132.8 120 117.5 109.3 96.7 85.6 74.6 68 56.7 49.9 46.7 41.8 36.1 33.4 39.1 39.2 31.1 29.5 10.6 7 -2.3 -2.3 -2.3 -2.3 -2.3 -2.3 -2.3 -2.3 -2.3 -2.3 -2.3 -2.3 -2.3 -2.3 -2.3 -2.3 -2.3 -2.3 -2.3 -2.3 -2.3 -2.3 -2.3 -2.3 -2.3 -2.3 -2.3 -2.3 -2.3 -2.3 -2.3 -2.3 -2.3 -2.3 -2.3 -2.3 -2.3 -2.3 -2.3 -2.3 -2.3 -2.3 -2.3 -2.3 -2.3 -2.3 -2.3 -2.3 -2.3 -2.3 -2.3 -2.3 -2.3 -2.3 -2.3 -2.3 -2.3 -2.3 -2.3 -2.3 -2.3 -2.3 -2.3 -2.3 -2.3 -2.3 -2.3 -2.3 -2.3 -2.3 -2.3 -2.3 -2.3 -2.3 -2.3 -2.3
-2.3 -2.3 -2.3 -2.3 -2.3 -2.3 -2.3 -2.3 -2.3 -2.3 -2.3 -2.3 -2.3 -2.3 -2.3 -2.3 -2.3 -2.3 -2.3 -2.3 -2.3 -2.3 -2.3 -2.3 -2.3 -2.3 -2.3 -2.3 -2.3 -2.3 -2.3 -2.3 -2.3 -2.3 -2.3 -2.3 -2.3 -2.3 -2.3 -2.3 -2.3 -2.3 -2.3 -2.3 -2.3 2 -2.3 -2.3 -2.3 -2.3 -2.3 -2.3 17.8 28.4 39.3 39 38.9 54.5 75.2 80.5 96.5 109 127.2 143.2 153.2 157.9 172.1 184.8 197 191.5 173.6 160.9 150.2 136.2 123.2 113 90.8 78 59.7 51.8 49 43.8 57.5 69.6 78.9 94.7 106.8 114.7 125.3 132.7 139.9 147.3 147.3 149.2 152.6 158.2 162 182 185.6 191.4 179.5 168.8 154.6 143.2 126.2 117.2 112.3 104.2 92.8 83.8 75.1 67.2 56.3 50.2 44.2 39.8 35.1 34 37.8 40.8 36.6 26.6 14.4 -2.3 -2.3 -2.3 -2.3 -2.3 -2.3 -2.3 -2.3 -2.3 -2.3 -2.3 -2.3 -2.3 -2.3 -2.3 -2.3 -2.3 -2.3 -2.3 -2.3 -2.3 -2.3 -2.3 -2.3 -2.3 -2.3 -2.3 -2.3 -2.3 -2.3 -2.3 -2.3 -2.3 -2.3 -2.3 -2.3 -2.3 -2.3 -2.3 -2.3 -2.3 -2.3 -2.3 -2.3 -2.3 -2.3 -2.3 -2.3 -2.3 -2.3 -2.3 -2.3 -2.3 -2.3 -2.3 -2.3 -2.3 -2.3 -2.3 -2.3 -2.3 -2.3 -2.3 -2.3 -2.3 -2.3 -2.3 -2.3 -2.3 -2.3 -2.3 -2.3 -2.3 -2.3 -2.3 -2.3 -2.3
-2.3 -2.3 -2.3 -2.3 -2.3 -2.3 -2.3 -2.3 -2.3 -2.3 -2.3 -2.3 -2.3 -2.3 -2.3 -2.3 -2.3 -2.3 -2.3 -2.3 -2.3 -2.3 -2.3 -2.3 -2.3 -2.3 -2.3 -2.3 -2.3 -2.3 -2.3 -2.3 -2.3 -2.3 -2.3 -2.3 -2.3 -2.3 -2.3 -2.3 -2.3 -2.3 -2.3 -2.3 -2.3 -2.3 -2.3 -2.3 -2.3 -2.3 -2.3 -2.3 12.8 25.6 32.7 39.3 41 40.9 53.4 72 85.4 100.5 112 122.8 137.6 146.4 159.8 172.1 187 201.2 195.5 184.8 166.8 156.1 136 124 105.8 79.6 66.6 53.6 49.1 41.3 45.1 59 77.6 84 99 111.9 124.2 126.1 125.1 134.9 139.8 138.3 143.2 142.9 150.2 159.4 168.1 173.7 169.9 163.7 150 134.8 108.1 110 109.2 104.2 97.5 82.5 75.6 67.8 64.1 54.9 41.8 34.9 33.5 32.7 33.7 35.6 39.5 34.5 22.2 -2.3 -2.3 -2.3 -2.3 -2.3 -2.3 -2.3 1.3 -2.3 -2.3 -2.3 -2.3 -2.3 -2.3 -2.3 -2.3 -2.3 -2.3 -2.3 -2.3 -2.3 -2.3 -2.3 -2.3 -2.3 -2.3 -2.3 -2.3 -2.3 -2.3 -2.3 -2.3 -2.3 -2.3 -2.3 -2.3 -2.3 -2.3 -2.3 -2.3 -2.3 -2.3 -2.3 -2.3 -2.3 -2.3 -2.3 -2.3 -2.3 -2.3 -2.3 -2.3 -2.3 -2.3 -2.3 -2.3 -2.3 -2.3 -2.3 -2.3 -2.3 -2.3 -2.3 -2.3 -2.3 -2.3 -2.3 -2.3 -2.3 -2.3 -2.3 -2.3 -2.3 -2.3 -2.3 -2.3 -2.3
-2.3 -2.3 -2.3 -2.3 -2.3 -2.3 -2.3 -2.3 -2.3 -2.3 -2.3 -2.3 -2.3 -2.3 -2.3 -2.3 -2.3 -2.3 -2.3 -2.3 -2.3 -2.3 -2.3 -2.3 -2.3 -2.3 -2.3 -2.3 -2.3 -2.3 -2.3 -2.3 -2.3 -2.3 -2.3 -2.3 -2.3 -2.3 -2.3 -2.3 -2.3 -2.3 -2.3 -2.3 -2.3 -2.3 -2.3 -2.3 -2.3 -2.3 -2.3 -2.3 10.7 20.7 29.1 33.3 39.4 47.1 41.7 55.5 75.8 85.4 103.3 117.6 125.8 133.7 139.8 159.3 176.4 191.4 198.5 195.6 189.4 171.9 156.4 136.4 115.9 95.6 81.1 57.9 47.1 48 44 51.3 64.1 77 91.3 103.1 114.5 122.7 120.7 116.7 123 126.7 126.8 137.8 147.3 145.1 155.2 156 154.1 153.8 141.1 126.3 103 103.6 100.4 98 91.4 78.9 71.9 67.3 63 55.4 44.2 43.6 39.1 32.9 26.1 26.1 28.6 27.9 18.8 11.5 5.1 -2.3 -2.3 -2.3 -2.3 9.6 3.7 7.7 7.6 7.1 1.4 -2.3 10 4.8 10.9 -2.3 -2.3 -2.3 -2.3 -2.3 -2.3 -2.3 -2.3 -2.3 -2.3 -2.3 -2.3 -2.3 -2.3 -2.3 -2.3 -2.3 -2.3 -2.3 -2.3 -2.3 -2.3 -2.3 -2.3 -2.3 -2.3 -2.3 -2.3 -2.3 -2.3 -2.3 -2.3 -2.3 -2.3 -2.3 -2.3 -2.3 -2.3 -2.3 -2.3 -2.3 -2.3 -2.3 -2.3 -2.3 -2.3 -2.3 -2.3 -2.3 -2.3 -2.3 -2.3 -2.3 -2.3 -2.3 -2.3 -2.3 -2.3 -2.3 -2.3 -2.3
-2.3 -2.3 -2.3 -2.3 -2.3 -2.3 -2.3 -2.3 -2.3 -2.3 -2.3 -2.3 -2.3 -2.3 -2.3 -2.3 -2.3 -2.3 -2.3 -2.3 -2.3 -2.3 -2.3 -2.3 -2.3 -2.3 -2.3 -2.3 -2.3 -2.3 -2.3 -2.3 -2.3 -2.3 -2.3 -2.3 -2.3 -2.3 -2.3 -2.3 -2.3 -2.3 -2.3 -2.3 -2.3 -2.3 -2.3 -2.3 -2.3 -2.3 -2.3 -2.3 1.7 14.7 19.7 27.7 33.7 46.4 43.8 43.2 60.6 73.7 85.9 104.1 112.3 129.7 138.5 148.1 170 181.7 190 197.9 204.2 191.4 170.8 153.3 131.7 107.3 83 68.3 48.4 41.1 40.3 51.4 53.8 56.2 79.3 90.7 98.9 109.2 114.8 111.5 104.5 110.9 115.8 120.1 131.1 135.2 143.4 147.3 141 134 128.2 114.6 96 94.6 91.6 86 77.8 71.3 66.8 61.7 55.9 53.5 43.9 46.8 43.6 33.2 29.3 19.4 25.7 22.4 16.1 -2.3 -2.3 -2.3 -2.3 -2.3 7.9 14.3 8.8 10.7 22.5 17.4 14.3 1.4 -2.3 -2.3 -2.3 -2.3 -2.3 -2.3 -2.3 -2.3 -2.3 -2.3 -2.3 -2.3 -2.3 -2.3 -2.3 -2.3 -2.3 -2.3 -2.3 -2.3 -2.3 -2.3 -2.3 -2.3 -2.3 -2.3 -2.3 -2.3 -2.3 -2.3 -2.3 -2.3 -2.3 -2.3 -2.3 -2.3 -2.3 -2.3 -2.3 -2.3 -2.3 -2.3 -2.3 -2.3 -2.3 -2.3 -2.3 -2.3 -2.3 -2.3 -2.3 -2.3 -2.3 -2.3 -2.3 -2.3 -2.3 -2.3 -2.3 -2.3 -2.3 -2.3 -2.3 -2.3
-2.3 -2.3 -2.3 -2.3 -2.3 -2.3 -2.3 -2.3 -2.3 -2.3 -2.3 -2.3 -2.3 -2.3 -2.3 -2.3 -2.3 -2.3 -2.3 -2.3 -2.3 -2.3 -2.3 -2.3 -2.3 -2.3 -2.3 -2.3 -2.3 -2.3 -2.3 -2.3 -2.3 -2.3 -2.3 -2.3 -2.3 -2.3 -2.3 -2.3 -2.3 -2.3 -2.3 -2.3 -2.3 -2.3 -2.3 -2.3 -2.3 -2.3 -2.3 -2.3 -2.3 12.3 15.5 21.4 30.3 38 47.9 43.2 47.4 67.2 78.8 91.7 106.4 122.5 137.6 149.2 158.1 173 184.3 193.3 206.7 206.8 189.8 166.9 146 122 96.3 74 50.4 37.6 40.2 47.7 49.7 55.8 59.7 80 86.8 91.8 96.8 101.5 96.2 89.4 96.2 106.9 113 123.3 128.5 135.2 132.6 109 110.7 91.4 92.5 90.4 84.5 78.6 69.7 64.4 60.1 55.1 54.2 55.1 49.5 45.3 43.6 42.3 31.1 19.3 14.3 18.3 13.3 -2.3 -2.3 -2.3 -2.3 -2.3 9.4 15.1 12.9 16.5 17.8 16.9 25.6 13.9 -2.3 -2.3 -2.3 -2.3 -2.3 -2.3 -2.3 -2.3 -2.3 -2.3 -2.3 -2.3 -2.3 -2.3 -2.3 -2.3 -2.3 -2.3 -2.3 -2.3 -2.3 -2.3 -2.3 -2.3 -2.3 -2.3 -2.3 -2.3 -2.3 -2.3 -2.3 -2.3 -2.3 -2.3 -2.3 -2.3 -2.3 -2.3 -2.3 -2.3 -2.3 -2.3 -2.3 -2.3 -2.3 -2.3 -2.3 -2.3 -2.3 -2.3 -2.3 -2.3 -2.3 -2.3 -2.3 -2.3 -2.3 -2.3 -2.3 -2.3 -2.3 -2.3 -2.3 -2.3
