ncols 200
nrows 93
xllcorner 280000
yllcorner 44750
cellsize 50
136.2 136.5 134.1 128.7 120.1 109 98.7 92.3 84.9 75.5 71.7 74.3 71.6 54.9 52.3 58.1 65.2 64.7 56.4 58.8 65.3 72.1 78.4 87.2 98.8 105.2 109.9 112.6 114.6 114.7 113.1 107.8 95.3 105.7 109.8 110.5 108.6 106.2 104.6 103.9 106.8 108.7 107.1 105.9 104 100.1 95.7 89.6 87.9 94.2 99.4 102.2 106.2 110.5 116.4 122.4 128 130.7 133.6 136.6 135.6 132.1 124.6 113.8 98.3 81.4 77.3 83.4 90.4 101.1 104.4 99.1 94.8 106.4 117.2 123.5 126.3 129.9 134.2 138.9 141.7 142.3 141.3 139 134.1 126.8 121.8 127 129.7 130.7 130.6 128.2 124.2 116.8 105.2 95.2 103.7 111.7 114.7 111.8 106 88.8 68.9 50.6 38.7 42.6 59.7 74.3 86.7 87.9 85 76.2 57.3 47.5 54.1 60.1 67.1 73.5 75.9 72.4 79.7 96.3 109.6 116.3 123.1 127.7 130 130.5 128.9 126 122.9 122 122.2 121.7 122.9 125.6 126.6 127.1 127.2 129.2 131.4 135 135.2 135.4 134.4 133.9 133.8 132.3 130.7 129 127.3 126.2 125.6 127.1 128.9 130.4 131.9 131.3 129.1 126.4 122.9 118.5 112.6 106.3 98.4 89.6 78.9 63.2 26 -1.4 -1.4 -1.4 -1.4 -1.4 -1.4 -1.4 -1.4 -1.4 -1.4 -1.4 -1.4 -1.4 -1.4 -1.4 -1.4 -1.4 -1.4 -1.4 -1.4 -1.4 -1.4 -1.4 -1.4 -1.4 -1.4 -1.4 -1.4 -1.4 -1.4 -1.4
137.9 137.5 134.8 126.5 118.5 112.1 106.5 99.6 91.7 84.5 76.7 68.5 62.6 59.4 52 51.2 51.9 51.6 57.8 73 83.2 88.8 93.7 98.6 103.5 106.3 108 109.8 111.4 110.8 107.9 103.5 89.5 97.3 101.5 102 98.8 95.9 93.8 93.7 98.3 99.8 97.9 97.5 95.7 93.3 90.1 84.5 87.4 91.6 96.2 100.1 105.2 112.1 118.8 124.9 130.1 132 134.8 137.7 135.9 131.4 125.6 117 105.1 92.4 81.3 73.7 74.5 85.5 97.6 91.3 100.2 114.2 120.2 122.1 123.2 125.6 129.1 134.5 137.5 138.8 137.6 134.6 130 122.8 115 121.4 124.7 126 126 124.1 120.6 115.1 105.5 90.1 94.9 107.1 110.3 108.5 102.1 85.2 61.7 42.1 38.4 52.2 69.6 84.1 84.5 80.8 74.4 64.8 46.2 52.9 64.3 72.9 79.9 85.7 89.8 89.1 83 88.5 99.1 110 119.6 126.3 129.6 130.1 128.8 125.3 122 119.2 117.3 117.7 118.3 121.2 122.8 123.9 124.3 127 130.5 133.2 133.7 132.6 132.4 132.5 131.2 129.8 128.6 127.7 126.7 123.9 122.4 124 125.9 127.3 127.2 126.3 124.1 121 117.4 113.2 107.6 101.9 93.9 85.1 74.4 57.6 35.7 -1.4 -1.4 -1.4 -1.4 -1.4 -1.4 -1.4 -1.4 -1.4 -1.4 -1.4 -1.4 -1.4 -1.4 -1.4 -1.4 -1.4 -1.4 -1.4 -1.4 -1.4 -1.4 -1.4 -1.4 -1.4 -1.4 -1.4 -1.4 -1.4 -1.4 -1.4
139.5 138.3 134.7 130.4 126.2 121.6 115.3 106.3 100.5 94.8 88.7 80 76.7 72.5 64.2 55.5 50.9 50.7 61.6 75.8 88.6 94.5 97.5 100.6 102.1 104.3 105.1 106.1 106.2 105.6 102.2 98 85.4 81.9 89.4 88.9 88.3 86.4 82.3 85.4 88.1 91.2 91 89.2 87.9 87 84.5 81.2 85.9 91.5 97.1 102.1 107.9 115.6 122 127.6 132.6 134.5 136.5 137.8 136.5 131.3 126 120.1 112.8 103.4 92.6 80.2 74.2 72.1 80.6 87.6 97.8 109.3 115.8 117.3 117.3 112.1 120.5 127.9 132.3 133.8 133.1 131.7 127.5 120.7 110.3 115.3 120 121.5 120.5 119.6 116.7 112.4 105.3 88.8 87 100.3 104.9 102.7 97 81.1 55.3 36.2 42.7 61.5 75.1 76.2 69.3 62.9 57.7 50.6 45.3 57.7 70.4 81.8 89.6 95.6 100.5 103.9 101.4 99.1 98.9 107.4 118.7 126.2 129 129.7 128.6 126.4 122.9 117.5 112.2 112.6 113.8 116.3 118.7 120.1 122.8 126.1 128.4 130.5 130 128.9 128.1 128 126.9 125.7 126 125.3 124.5 123.2 123.1 120.2 122.2 122.9 122.1 120.7 118.3 115.5 111.9 107.4 102.4 96.8 90.2 81.5 71.7 59.3 13 -1.4 -1.4 -1.4 -1.4 -1.4 -1.4 -1.4 -1.4 -1.4 -1.4 -1.4 -1.4 -1.4 -1.4 -1.4 -1.4 -1.4 -1.4 -1.4 -1.4 -1.4 -1.4 -1.4 -1.4 -1.4 -1.4 -1.4 -1.4 -1.4 -1.4 -1.4
140.1 139.4 137.9 135.5 131.8 128.3 123.6 115.4 109.3 105.2 99.5 95.8 92 87.7 81.5 71.9 59.7 50.7 52.7 64.4 76.1 88.8 94.2 97 98.5 99.6 100.3 100.3 100.5 98.6 94.2 89.8 79.3 73.2 79.3 78.7 79.5 78.2 76.7 80 81.5 81.3 81.4 78.8 77.7 77.9 79.4 83.3 90.2 98.5 103 108.4 114.4 118.9 124.5 129.7 134.8 138 140 140 138.7 133.5 128.5 126 121.7 115.5 105.9 94.4 82.3 74.1 70.2 79.7 90.5 100.1 105 108 105.4 98 109.2 121.7 127.2 129.9 129.4 128.8 125.7 120.1 108.4 106.8 114 114.7 114.3 113.2 111.4 107.6 100.8 84.4 81 92.7 98 94.6 88.1 76.3 52.8 33.4 50.5 60 62 58.3 48.5 42.9 42.7 43 49 62.7 75.5 87.3 97.1 103.1 110.9 116.9 118.3 116.9 114.2 114.4 119.9 126.3 129.1 129 128 126 121.3 119.3 112.2 105 107.9 110.5 117.4 119.9 121.8 123.9 126 127 126.3 125 123.9 121.6 121.7 120.2 120.5 121.1 120.3 116.4 114.5 115.8 117.7 118 116.5 113.9 111.3 107.9 104.2 100.2 95.8 91 85.6 78.3 71.2 55.1 30.3 -1.4 -1.4 -1.4 -1.4 -1.4 -1.4 -1.4 -1.4 -1.4 -1.4 -1.4 -1.4 -1.4 -1.4 -1.4 -1.4 -1.4 -1.4 -1.4 -1.4 -1.4 -1.4 -1.4 -1.4 -1.4 -1.4 -1.4 -1.4 -1.4 -1.4 -1.4
139 139.6 138.8 137.2 135 132 128.4 123.5 118.7 113.6 108.8 107 102.7 99 94 87.6 76.3 63.6 53.9 52.8 62.5 77.2 85.7 88.9 90.3 90.6 91.3 92 91.9 90.2 86 81.3 73.2 63.3 68.4 69.1 69.9 69.9 70.1 71.4 70.7 71 73.2 78.6 82.9 86.6 89.4 89.8 98 105.1 108.8 114.9 118.8 123.1 127.7 133 138.3 141.4 143 142.2 141.9 139.2 136.9 135.4 133.5 129 120.3 109.1 97.3 84.3 72.6 67.7 73.6 83 86.8 90.6 87.8 88.6 104.6 117 122.6 126 125.7 125.6 122.9 118.4 110.1 98.9 105.1 107.1 106.5 105.2 103.6 100.5 95.6 80 73.6 85.9 88.9 85.7 75.6 64.6 48.6 31.8 40.5 41.2 45.9 40.8 38.8 43.1 48.6 54 61.3 68.1 82.2 93.6 103.5 111.6 119.1 124.4 127.4 127.6 126.4 125.3 126.2 127.3 128.1 127.8 126.6 124.3 121.4 118.5 113.2 102.9 99.2 110 115.9 116.9 118.9 121.7 122.9 123.6 121.4 117.9 114.5 113.2 112.8 114.5 117 118.5 117.9 115.8 111.8 111.5 114.6 113.1 110.6 107.1 102.8 99.5 96.1 94 90.8 86.9 82.2 74 64.5 39.8 -1.4 -1.4 -1.4 -1.4 -1.4 -1.4 -1.4 -1.4 -1.4 -1.4 -1.4 -1.4 -1.4 -1.4 -1.4 -1.4 -1.4 -1.4 -1.4 -1.4 -1.4 -1.4 -1.4 -1.4 -1.4 -1.4 -1.4 -1.4 -1.4 -1.4 -1.4 -1.4
134.4 135.9 136.8 136.7 135.4 133.9 131.9 127.8 123.2 118 112.1 109.5 104.7 99.6 94.9 89.5 81.6 72.8 63.3 51.8 51.5 60.8 65.7 69.8 72 74.5 77.2 80.8 83.3 82 78.1 70.5 62.8 57.4 59.9 60.6 62.2 63.6 65.3 68.7 74 79.7 85.9 90.6 95.6 99.4 101.2 101.7 104.1 110 114.5 119.4 122.8 127.2 132.6 137.7 141.1 144 145.6 147.5 148.3 149.3 147.3 146.9 145.2 141.7 133 122.1 110.3 95.4 83 73 67 63.1 66.3 69.1 70.7 82.5 102.1 112.6 117.9 121.2 121.8 121.4 119.1 115.2 108.2 94.1 90.5 98.3 96.6 95.4 94.8 90.9 84.2 73 65.3 76.9 79.2 73.7 63.6 52.9 38.6 31.2 32.6 34.5 37 42.1 48.5 55.1 60.9 66.1 74 77.1 86.8 100.8 109.5 117.6 123.9 128.7 130.6 131.4 130 128.5 127.5 127.3 127.3 124.6 124.6 122.5 121.2 118.8 116.5 110.7 96 98.2 108.5 112 114.7 117.8 119.9 119.5 116.4 110.6 105.4 103.3 105.5 110.6 114.4 117 116.6 114.7 111.4 110.6 108.7 108.5 104.1 100.2 95.1 92.8 91 88.9 85.5 81 74.6 68.7 52.3 11.7 -1.4 -1.4 -1.4 -1.4 -1.4 -1.4 -1.4 -1.4 -1.4 -1.4 -1.4 -1.4 -1.4 -1.4 -1.4 -1.4 -1.4 -1.4 -1.4 -1.4 -1.4 -1.4 -1.4 -1.4 -1.4 -1.4 -1.4 -1.4 -1.4 -1.4 -1.4 -1.4
126.5 128.4 130.7 132.1 133.1 133.1 131.2 127.9 123.7 117.4 111.1 101.8 97.3 91.4 85.6 79.3 77 72.6 64.9 54.9 48.9 48.4 50.7 53.5 56.9 59.8 62.3 68.9 75 73.9 67.8 57.7 55.9 61.5 67.5 71.5 74.7 76.6 80.8 84 89 94.3 99.7 104.8 107.1 106.9 107.4 109.7 111.9 114.9 120 124.5 128.9 133.1 137 140.5 143.5 146.9 150.7 153.5 154.2 155.5 156.3 156.3 153.7 149.8 143.5 134.7 122.2 108.4 95 84.8 76.7 69.4 64.2 59.3 57.1 74.5 94.4 107.5 114 116 116.6 116.2 114 108.6 100.5 84.6 85.5 89.4 86.4 83.7 79.1 75.7 70.7 62.7 56.2 65.6 68.2 62.2 53 43.5 31.6 31.2 39.5 46.9 52.7 56.4 60 65.5 72.4 79.3 86.8 94.4 98.8 105.2 116.2 123.3 126.6 130 131.4 131.9 130.6 128.3 126.7 126.5 125.5 122.8 122.9 121.4 119.4 118.2 116.3 113.2 105.5 88.1 94.3 104.3 109.3 113.9 116.9 116.5 114.1 108 98.6 98.5 104.6 110.3 113.3 114.2 114.2 111.9 107.8 106.3 105.3 103.3 98.8 94.7 90.2 87 85.9 81.9 76.5 69.9 55.9 43.5 24.1 -1.4 -1.4 -1.4 -1.4 -1.4 -1.4 -1.4 -1.4 -1.4 -1.4 -1.4 -1.4 -1.4 -1.4 -1.4 -1.4 -1.4 -1.4 -1.4 -1.4 -1.4 -1.4 -1.4 -1.4 -1.4 -1.4 -1.4 -1.4 -1.4 -1.4 -1.4 -1.4 -1.4
117.3 120.1 122.9 126 128.3 131.4 129.8 127.1 121.5 111.7 100.8 91.6 85.1 78.3 72.8 69.2 64.9 60.2 59.1 58.4 54.4 49.2 48.7 48.7 49.3 49.7 51.7 54.9 62.4 64.3 56.9 54.3 62.5 69 75.6 83 88.7 92.9 95.7 97.6 100.2 102.6 105.6 107 108.5 109.8 111.3 113.5 117.1 120.2 124.3 128.5 132.9 137 140.5 144.7 149.7 154 157.3 159 160 160.7 160.5 159.3 157.6 154 148.7 140.2 129.2 118.4 107.5 97.6 90.5 81.5 72.1 65.2 56.7 66.1 86.2 102.6 108.8 110.6 110.5 109.6 107.4 102.1 95.1 82.7 75.9 80.6 77.5 72.2 69.2 64.8 59.5 52.5 49.5 59.1 57.9 48.6 40.9 30 29.8 37.2 47.8 56.5 63.8 71.9 77 82.6 89 92.5 97.5 104.6 108.4 113.8 119.6 125.4 128.2 129.6 130.2 130.2 129.8 128.5 125.9 125.1 123.8 122 119.6 118.2 117.4 116.1 114.4 111.8 106.4 92.1 82.8 97.4 103.1 109.9 114.5 114.4 112.4 106.9 92.7 94 104.2 108.6 110.6 111.3 111.4 109.4 104.8 103.3 101.5 98.5 94.4 89.9 84.3 79.7 78.6 73.6 65.4 37.9 25.2 -1.4 -1.4 -1.4 -1.4 -1.4 -1.4 -1.4 -1.4 -1.4 -1.4 -1.4 -1.4 -1.4 -1.4 -1.4 -1.4 -1.4 -1.4 -1.4 -1.4 -1.4 -1.4 -1.4 -1.4 -1.4 -1.4 -1.4 -1.4 -1.4 -1.4 -1.4 -1.4 -1.4 -1.4 -1.4
106.7 110 113.2 118 122.8 127.6 128.4 126.6 122.5 114.5 105.3 97.5 89.8 82.9 77.8 74.2 71.8 71.6 69.3 66.2 60.5 55.2 50 46.1 47.1 47.2 47.3 47.3 52.2 54.4 51.6 62.1 69.8 78.6 88.4 93.5 97.4 100.3 100.4 101 102.3 103 104 105.7 107.1 108.5 111.9 115.6 119.2 124.3 128.3 132.4 136.7 141 144.8 150.2 155.1 158.5 160.4 161.8 162.1 162.3 160.5 159.4 158.4 155.2 150.1 142.9 135.1 126.2 117.9 110.8 102.7 93.2 81.9 71.3 59.6 59.7 77.4 95.4 102.2 103.4 103.3 101.9 100.5 97.3 90.7 78.3 70.8 72.3 68 62.1 59.7 55 50.1 42.3 43 57.9 49 38 29.8 28 38.6 51.9 61.4 68.9 76.5 84.4 89.6 94.5 98.7 101.4 105.9 110.2 114.7 119.6 123.4 125.8 128.2 128.1 128.6 127.8 126.9 125.7 124.1 122.5 120.7 118.8 115.9 115.3 114.6 113.9 111.6 108.9 104.5 93.4 76.1 85.1 100.6 107.4 110.4 110.1 108.8 104.4 94 89.1 99.9 105 107.8 107.8 107.4 105.7 101 97.6 96.3 94.1 89.7 82.4 76.7 69.8 68.8 66.5 35.4 12.2 -1.4 -1.4 -1.4 -1.4 -1.4 -1.4 -1.4 -1.4 -1.4 -1.4 -1.4 -1.4 -1.4 -1.4 -1.4 -1.4 -1.4 -1.4 -1.4 -1.4 -1.4 -1.4 -1.4 -1.4 -1.4 -1.4 -1.4 -1.4 -1.4 -1.4 -1.4 -1.4 -1.4 -1.4 -1.4 -1.4
102.4 105.2 111.5 116 121.8 125.7 128.6 127.8 125.5 120.5 114.9 108.7 101.9 93.8 89.5 87.2 84.7 83.8 79.4 73.9 67 61.9 56.7 52.6 49.4 46.4 46.3 46.4 46.9 50.7 59.4 70.8 80.1 87.7 91.6 94.9 97 97.3 96.7 98.3 99.2 99.3 99.6 102 103.4 105.8 111.1 117 122.4 128 132.1 137 141.1 145.1 150.4 155.6 158.6 160.2 160.4 160.8 160.3 160.3 159.8 159 157.1 154 149.3 143.6 136.7 128.9 122.2 114.6 104.6 95.4 87.5 78.2 65.4 51.3 71.4 89.1 95.3 95.7 95.7 95.3 92.8 89.4 84.3 76.2 66.9 63.7 61.6 57.2 54.1 54.1 54 48.1 36.4 36.3 37.3 28.3 28.1 41.3 56.8 67.3 74.2 80.8 87 91.1 96.1 100.7 103.8 107.2 111.4 114.9 118.9 122.6 125.2 126.6 127 126.3 125.7 124.8 123.7 122.6 121.7 119.5 117.4 114.8 112.4 111.8 112.4 111.3 108.8 105.9 98.8 90.4 75.1 76.4 93.7 102.9 103.6 102.9 101.9 97.4 85.1 87.4 95.5 100.4 103.4 103.2 102.8 100.7 98.4 94 92.6 88.7 83.7 77.6 78.3 76.9 72.7 59.4 66.7 14 -1.4 -1.4 -1.4 -1.4 -1.4 -1.4 -1.4 -1.4 -1.4 -1.4 -1.4 -1.4 -1.4 -1.4 -1.4 -1.4 -1.4 -1.4 -1.4 -1.4 -1.4 -1.4 -1.4 -1.4 -1.4 -1.4 -1.4 -1.4 -1.4 -1.4 -1.4 -1.4 -1.4 -1.4 -1.4 -1.4
103.3 105.6 108.8 114.2 120.6 124.4 128.4 129.4 128 124.8 120.3 114.4 108.9 105.6 102.8 101.6 98.3 96.5 92 85.3 78.8 74.4 68.8 65.2 59.4 53.8 51.9 47 46.4 52.3 66.9 78.2 83.4 86.2 88.9 91.3 92.2 92.9 93 94.1 93.6 92.5 92.2 95.4 100.6 106.8 112.6 120 126.5 131.7 136.7 141.6 146.2 150.3 155.4 157.9 158.4 158.6 156.9 155.8 156 156.9 156.8 156.4 154.8 152.2 147.4 141.8 135 127.6 121.3 114.5 107.5 102.5 93.2 83.2 70.4 53.3 63.4 82.8 84.5 83.2 85 86.3 83.5 80.8 76.6 72.2 70.1 68.1 64.4 64.1 66.5 69.1 65.9 58.5 48.2 38.2 29.8 22.5 40 52.1 61.1 70.8 78.8 86.2 91 95.7 100.2 104.8 108.9 112.9 116.1 119.3 122 124.4 126.5 126.3 125.2 123.8 121.7 121 119.5 118 117.7 115.9 113.4 110 109.1 108.4 110.1 108.5 106.8 104.8 101 88.5 70.8 68.5 89.2 95.9 96.5 95.8 93.9 89.9 76.7 82.3 90.4 95 97.7 98 98.6 97.1 95.2 90.8 87.8 85.3 83.9 82 78.8 74.3 71.4 57.9 55.2 36.3 -1.4 -1.4 -1.4 -1.4 -1.4 -1.4 -1.4 -1.4 -1.4 -1.4 -1.4 -1.4 -1.4 -1.4 -1.4 -1.4 -1.4 -1.4 -1.4 -1.4 -1.4 -1.4 -1.4 -1.4 -1.4 -1.4 -1.4 -1.4 -1.4 -1.4 -1.4 -1.4 -1.4 -1.4 -1.4 -1.4
108.2 109.9 110.4 114.2 119.7 124 128.7 130.3 130.4 128.2 124.3 120.6 118.2 115.6 113 111.9 109.9 107.1 102.8 96.4 89.1 83.6 78.8 72.1 62.3 66.1 63 57.3 49.8 46.9 64.1 72.7 77.1 80.1 83.7 85.9 87.2 87.2 86.6 84.6 82.9 85.6 93.8 99.7 104.7 111.3 118.4 124.8 132.1 136.2 140.6 145.5 150.3 153.7 156.3 156.5 154.6 152.3 150.1 150.9 151.5 152.9 153.9 153.5 152.5 150.1 145.4 141 134.5 129.1 125.1 120.3 114.5 106.8 92.6 83.6 74.4 55.9 53.2 72 65.5 64.1 68.1 72.6 68.4 65.9 64.8 65.3 69.1 70.3 71.6 75 75.3 73.6 70.3 64.7 57.8 50.5 41.5 23.7 37.1 52 62.4 71.1 80.1 89 94.6 99.7 105.1 110.1 114.1 117.3 119.1 121 123.4 124.8 125 123.6 121.4 119.2 117.1 116 114.3 112.6 112.3 111.7 111 107.9 106.1 105.9 108 107.8 106.6 105 102.4 94.2 69.1 61 79.7 84.2 87 87.5 85.9 82.5 70 76 84.2 89.2 90.4 91.6 93.3 94.3 94.7 92.2 88.7 87.1 85.2 81.6 77.7 73.3 68.2 55.8 40.8 12 -1.4 -1.4 -1.4 -1.4 -1.4 -1.4 -1.4 -1.4 -1.4 -1.4 -1.4 -1.4 -1.4 -1.4 -1.4 -1.4 -1.4 -1.4 -1.4 -1.4 -1.4 -1.4 -1.4 -1.4 -1.4 -1.4 -1.4 -1.4 -1.4 -1.4 -1.4 -1.4 -1.4 -1.4 -1.4 -1.4
117.2 116.9 117.8 119.7 120.1 122.6 126.3 128.4 129.1 129.2 127.7 125.9 124.3 123.3 121.3 118.5 115.2 111.1 106.4 100 93.1 86.8 79 72.3 74.4 77.7 76.7 69.5 60 48.6 46.9 58 66.8 73.6 77.7 78 74.9 74.7 72.8 74.9 83.1 92.5 100.5 109.3 115.6 121.6 127.5 133.7 137.5 141.1 144.5 147.9 151.4 152.4 151.5 148.4 144.1 143.2 143.2 144.8 147 149 150.3 150.7 149.7 147.7 144.1 140.3 136.9 132.4 128.8 123.2 115.3 104.7 89.7 80.9 72.8 62.6 49.3 51.3 53.3 52.4 54.4 51.6 48.7 46.4 44.8 48.1 57.7 69.3 74.9 78.9 78.1 75.3 71.4 68.2 64.6 58.7 51.6 28.5 26.8 48.1 63.7 73.1 81.6 91.8 98.2 103.6 108.6 112.6 115.9 118.4 119.4 120.8 121.7 122.9 121.6 120.2 118.2 114.9 112.5 109.6 108.3 108.7 108.3 109.2 108.8 106.8 104 104.7 107 107 105.6 103.9 100.1 94.2 69.9 52.8 60.8 62.7 70.4 77.3 76.6 73.1 65 72.4 79.3 83.5 85.1 88.2 93.7 95.4 95.3 91.7 88.5 86.7 83.1 79.7 76.4 72.3 67.6 59.1 43.1 3 -1.4 -1.4 -1.4 -1.4 -1.4 -1.4 -1.4 -1.4 -1.4 -1.4 -1.4 -1.4 -1.4 -1.4 -1.4 -1.4 -1.4 -1.4 -1.4 -1.4 -1.4 -1.4 -1.4 -1.4 -1.4 -1.4 -1.4 -1.4 -1.4 -1.4 -1.4 -1.4 -1.4 -1.4 -1.4 -1.4
129.4 127.8 126.8 124 122.7 122.4 121.9 123.4 125.7 125.6 125.3 124.9 124.3 123.1 121.9 119 115.8 110.8 103.7 96.9 91.6 86.5 83.2 81.6 83 83.4 80 74.8 67.3 56.4 45.5 44.9 52.1 60.6 67.6 64.2 60.5 63.7 73.5 81.9 91.2 101.3 111.5 118.3 123.7 129.2 134.3 138.2 140.4 142.6 143.8 145.9 146 144.3 139.9 135.6 135.3 136 136.2 138.2 142.6 145.1 146.6 147.4 146.9 145.1 141.7 138.9 136.3 133.6 128.8 121 111.4 97.1 84 74 64.9 60.1 55.3 50.6 49.9 49 47.7 46.6 44.9 44.3 42.5 40.7 43.5 60.8 71.4 75.2 74.5 71.3 68.3 64.6 61.9 60 55.8 36.4 20.6 42.3 63.1 75.4 84.7 92.2 98.1 104.2 109.2 112.9 115.6 116.8 117.9 118.7 119.1 119.1 118.1 116.7 115.2 111.4 108.4 105.8 104.5 103.6 106.2 108.1 108.8 106.9 105.2 100.9 104.2 104.2 102.5 99.9 96.2 91.2 76.8 59.1 45 44 50.8 65.3 62.4 57.7 59.1 68.2 73.9 76.9 82.4 88.8 93.2 95 94.3 91.1 88.4 85.3 81.1 77.5 73.6 70.2 66 59.2 49.2 1.6 -1.4 -1.4 -1.4 -1.4 -1.4 -1.4 -1.4 -1.4 -1.4 -1.4 -1.4 -1.4 -1.4 -1.4 -1.4 -1.4 -1.4 -1.4 -1.4 -1.4 -1.4 -1.4 -1.4 -1.4 -1.4 -1.4 -1.4 -1.4 -1.4 -1.4 -1.4 -1.4 -1.4 -1.4 -1.4 -1.4
135.7 134.3 132.3 129.1 124.8 122.1 119.9 118.3 116.9 118 118.7 117.6 119 119.7 119.5 118.4 115 111 105.2 99.8 95.7 93.1 90.1 88.7 89.1 88.3 85.6 80.5 75.4 69.3 59 47.8 42.9 50.1 54 53.5 65.7 75.2 83.5 92 103.6 114 120.2 125.5 129.7 133.2 136.5 138.3 138.7 137.3 137.5 134.9 131 129.9 128.8 128.1 128.4 129.3 130 134.8 137.9 141 143 143.7 143.2 141.9 140.3 137.9 135.2 131.6 125.2 117.3 104.9 88.2 78.6 74.7 71 71.3 69.2 63.1 56.7 56.9 58.2 57.2 52.1 47.6 46 43.6 39.3 49.4 65.9 69.4 68.6 64.2 55.9 45.7 44 49.6 54.2 38.1 18.9 37.4 63.6 77 83.4 89 95.6 102 106.1 109.2 112.1 113.3 113.4 114.2 114.8 114.5 114.1 113.3 111.9 109 106 102.4 100.4 100.7 105.1 107.2 108.8 107.9 106.9 102 97.4 100.8 97.9 95.1 91.2 87.6 81.8 73.9 56.3 36.3 38 47.6 46.8 53.5 62.4 66.1 69.7 74.3 82.6 90.9 88.4 85.9 86.1 84.1 83.3 82.6 79.1 72.6 69.3 65.7 61.7 55.5 48.9 45.5 40.5 29.7 -1.4 -1.4 -1.4 -1.4 -1.4 -1.4 -1.4 -1.4 -1.4 -1.4 -1.4 -1.4 -1.4 -1.4 -1.4 -1.4 -1.4 -1.4 -1.4 -1.4 -1.4 -1.4 -1.4 -1.4 -1.4 -1.4 -1.4 -1.4 -1.4 -1.4 -1.4 -1.4 -1.4 -1.4
140.2 139 136.1 132.5 128.2 124.3 121.4 117.5 113.7 111.6 110.4 111 111.9 114.7 116.6 116.9 116.5 112.7 109.5 104.7 101 99.5 97.3 95.8 95.6 94.3 93.3 90.3 88.7 83.3 75.7 64.2 50.6 44.8 45 59.4 72.8 83.7 94.6 105.6 115.2 120.6 124.6 127.4 130.1 132.3 133.4 132.7 130.7 128.5 125.8 123.2 122.6 122.4 122.4 122.8 122 123.2 125.9 130.8 134.7 137 138.6 138.5 138.1 137.6 136.2 134.6 132.4 129 121.6 111.7 98.5 86.9 82.8 79.9 79.4 79 78 75.4 72.7 69.3 67.1 63.1 54.3 52.6 52.2 49.2 43.9 38.5 47.5 57.5 57.8 46.1 32.8 26.4 26.7 23.5 30.1 27.6 17.4 33.2 54.1 68.3 76.2 81.5 88.8 96.8 101.5 104.5 107 109 109 109 111 110.9 110.9 110.9 109.9 107.5 105.6 102 97.8 99.1 104.4 106.9 107.4 105.5 105 102.7 94.5 93.5 92.9 90.5 88.3 84.8 79.5 72.7 65.2 41.5 28.8 38.2 53.8 56.3 56.1 56.1 56.9 52.1 77.9 82.4 77.9 67.1 68.8 70.8 69.2 70.3 66.6 64.6 63.5 59.2 51.8 46.4 39.6 34.1 30.5 -1.4 -1.4 -1.4 -1.4 -1.4 -1.4 -1.4 -1.4 -1.4 -1.4 -1.4 -1.4 -1.4 -1.4 -1.4 -1.4 -1.4 -1.4 -1.4 -1.4 -1.4 -1.4 -1.4 -1.4 -1.4 -1.4 -1.4 -1.4 -1.4 -1.4 -1.4 -1.4 -1.4 -1.4 -1.4
143.5 140.7 137.8 134.2 130.9 127.2 124 120.8 116.5 114.5 110.8 107 104.7 108.5 110.2 114.2 116.1 114.7 112.8 109.5 107.1 106.1 106.2 103.8 103.4 104.1 104.7 104.2 101.5 95.3 87.2 78.4 66.2 53.9 45.2 58.5 74.8 90.2 103.1 112.3 118.1 122.1 124.1 125.4 124.6 124.7 124.3 123.2 122.1 121.3 120.5 117.9 116.7 115.9 115.7 116.5 121.2 125.5 129.2 131.4 131.7 132.7 132.4 132.2 132 132.3 131.7 132.4 129 125.4 117.2 108.1 98.9 95 91.1 88.4 87.7 87.3 84 81.3 77 73.5 67.6 60.3 55.9 57 60.1 60.6 57.4 49.6 38 41.3 37.2 30.5 35.7 40.9 40.1 35.3 29.4 24.1 21.5 19.3 39.3 55.7 68.6 74 81.8 91.3 96.5 98.7 101.4 102.8 102.6 103.6 106 108.4 109.1 109.8 110.6 107.7 106.1 103.1 97.2 94.9 102.4 103.3 101.8 101.2 100.2 99.4 95.9 85.9 85.8 86.2 85.1 81.6 75.3 66.9 56.2 47.9 23.3 43.7 43.4 4.7 38.1 32.7 10.7 13.9 53 70.6 62.4 31.1 40.8 40.4 39.9 42.3 31.5 60.6 60 49.6 35.4 22.2 17.8 20.9 -1.4 -1.4 -1.4 -1.4 -1.4 -1.4 -1.4 -1.4 -1.4 -1.4 -1.4 -1.4 -1.4 -1.4 -1.4 -1.4 -1.4 -1.4 -1.4 -1.4 -1.4 -1.4 -1.4 -1.4 -1.4 -1.4 -1.4 -1.4 -1.4 -1.4 -1.4 -1.4 -1.4 -1.4 -1.4 -1.4
144 141.2 137.5 134.4 131.7 129.4 126.8 124.3 121.1 119.7 116.7 110.9 106.2 101.9 100 106.2 112.8 115.2 114.7 113.5 113.4 112.7 113.5 114.9 114.2 114.6 115.2 114.9 112.4 107.1 100 91.5 77.8 60.4 47.4 55.5 73.2 88.4 101.5 111.6 117 120.1 121.1 119.5 117.9 117.2 117.4 117.5 116.8 115.2 113.6 111.9 110.8 110 112.7 119 125.7 129.4 129.5 129.1 128.7 127.6 125.9 125.5 124.6 125.4 128.1 129.4 127.8 124 117.2 110.7 106.8 105 101.8 99 95.9 92.2 87.5 80.7 74.7 69.1 64.2 62.9 65.2 66.9 67.8 68.7 69.3 65.4 53.8 41.5 40.5 44.6 54.4 61.7 58.5 52.9 48.8 46.2 40.5 16 25.7 42.2 56.6 68.8 80.6 89.1 90.5 92.8 94.3 94.3 95.5 98.6 101.9 106 108.2 109.1 109 108.2 106.6 102.8 97.5 92.2 97.5 96.6 94.5 95.8 95.8 94.7 92.3 84.5 77.6 81.8 81.5 78.4 71.2 64.2 43.3 16.8 4.8 6.9 -1.4 -1.4 -1.4 -1.4 -1.4 5.9 56.1 51 41.3 -1.4 -1.4 -1.4 -1.4 -1.4 21.6 52.2 46 34.5 -1.4 -1.4 -1.4 -1.4 -1.4 -1.4 -1.4 -1.4 -1.4 -1.4 -1.4 -1.4 -1.4 -1.4 -1.4 -1.4 -1.4 -1.4 -1.4 -1.4 -1.4 -1.4 -1.4 -1.4 -1.4 -1.4 -1.4 -1.4 -1.4 -1.4 -1.4 -1.4 -1.4 -1.4 -1.4 -1.4 -1.4 -1.4 -1.4 -1.4
140.9 136.7 132.7 130.5 129 128.3 128.2 127.6 125.3 122.8 120.2 116.3 111.5 106 99.3 98.5 109.7 114.5 116.5 118.4 119.4 119.6 120.1 122.1 123.5 123.8 123 120.8 116.9 111.5 104.7 94.9 79 60.9 46.9 52.9 70.9 84.9 95.9 107.6 113.7 116.7 117.4 115.7 113.6 112.2 111.9 111.9 110.4 107.4 105.7 104.3 105.6 110.1 116.7 123.7 126.9 130.7 130.3 129.2 126.1 123.5 121.4 120.1 120.3 124 127.3 128.9 128.7 125.9 121.6 117.7 114.7 112 108 104.1 100.2 95.4 88.4 79.3 75.4 69.1 69.4 73.9 77.2 78.2 78.9 78.1 81.4 81.2 74.7 63.9 62.4 66.5 72.7 74.8 71.8 68.5 66.6 64.4 50.3 26.8 12.8 28.5 48.9 66 81.2 85.1 81.8 81.7 84.6 91.6 95.1 99.4 102.1 104.7 106.9 108.8 108.8 108.8 106.5 102.9 99.1 92.8 90.4 90.8 90.2 91.2 89.2 89.1 85.4 79.6 71 78.8 80.9 74.9 68.4 60.7 41.3 -1.4 -1.4 -1.4 -1.4 -1.4 -1.4 -1.4 -1.4 3.2 41.1 31.5 -1.4 -1.4 -1.4 -1.4 -1.4 -1.4 -1.4 22 20.5 -1.4 -1.4 -1.4 -1.4 -1.4 -1.4 -1.4 -1.4 -1.4 -1.4 -1.4 -1.4 -1.4 -1.4 -1.4 -1.4 -1.4 -1.4 -1.4 -1.4 -1.4 -1.4 -1.4 -1.4 -1.4 -1.4 -1.4 -1.4 -1.4 -1.4 -1.4 -1.4 -1.4 -1.4 -1.4 -1.4 -1.4 -1.4 -1.4 -1.4 -1.4
137.7 133.7 130.8 126.9 124.5 121.4 124.5 125.7 126.3 125.5 123.6 119.7 115.7 111 101 93.7 106.9 117.1 120.2 123.4 125 125.2 126.4 126.9 126.9 126.2 124.6 120.3 115.1 108.6 100.9 89.6 72.9 55.2 45.3 51.4 68.5 81.4 95.7 105.4 110.7 112.4 113.1 110.7 107.5 106.6 105.6 105.6 104.4 101.8 97.7 101.8 109.9 116.3 122.8 127.1 128.6 130.5 131 129.5 126.2 121.9 119.2 119 120.1 124.5 127 129.2 128.9 127.8 125.1 121.5 119.4 116.5 111.5 105.8 100.2 93.5 86.4 87.2 82.5 74.2 81 87.9 89.6 88.4 87.3 88.3 91.6 95.1 94.1 89.6 85.7 83.9 83.8 83 80.8 78.7 77.6 74.4 62.3 35.3 13.3 18.7 42 61.3 77 71.2 71.1 79.3 88.1 92 94.6 97.6 100.5 104.3 107.7 109.3 109 107.4 105.7 102.6 97.3 92.5 88.9 86.1 85.2 84.6 81.6 81.2 79.3 67.6 67 76.5 76.3 68.5 42 35.7 -1.4 -1.4 -1.4 -1.4 -1.4 -1.4 -1.4 -1.4 -1.4 -1.4 -1.4 -1.4 -1.4 -1.4 -1.4 -1.4 -1.4 -1.4 -1.4 0.4 -1.4 -1.4 -1.4 -1.4 -1.4 -1.4 -1.4 -1.4 -1.4 -1.4 -1.4 -1.4 -1.4 -1.4 -1.4 -1.4 -1.4 -1.4 -1.4 -1.4 -1.4 -1.4 -1.4 -1.4 -1.4 -1.4 -1.4 -1.4 -1.4 -1.4 -1.4 -1.4 -1.4 -1.4 -1.4 -1.4 -1.4 -1.4 -1.4 -1.4 -1.4 -1.4
138.1 136.3 132.6 128.3 124.6 118.4 118 121.4 123.4 122.7 121.5 120.1 116.8 111.8 100.7 92.3 101.6 111.1 117.6 122.7 126.5 128.2 128.5 127.4 126.7 124.4 121.4 116.5 110.5 102.6 92.9 77.5 63.6 51.8 42 51.4 66.2 81 94.5 102.9 106.8 107.9 108.2 104.4 101.3 98.1 98.7 98.5 96 93.1 98.5 108.6 117.7 123 126.1 129.4 130.8 131.8 130.8 128.1 124.7 120.2 118.5 117.2 118.2 122.7 125.9 128 128.4 128.2 127.2 126.4 123.1 119.1 112.1 104.9 98.4 92.1 93.8 97.1 90.2 81.1 91.7 95.3 96 95.2 98.2 100 101.6 102.9 101.3 97.5 94.6 92.5 90.8 90.3 88.2 88.4 88 82.5 68.6 42.6 17 11.8 39.2 50.8 54.3 58.7 71.3 82.7 87.4 89.1 91.3 94 99.9 104.9 108.6 109.5 108.6 107.8 104.8 101.9 97.5 92.9 88.1 86.3 81.6 74.5 70 64 60.1 52.6 66.1 73.1 65.9 52.7 5.3 -1.4 -1.4 -1.4 -1.4 -1.4 -1.4 -1.4 -1.4 -1.4 -1.4 -1.4 -1.4 -1.4 -1.4 -1.4 -1.4 -1.4 -1.4 -1.4 -1.4 -1.4 -1.4 -1.4 -1.4 -1.4 -1.4 -1.4 -1.4 -1.4 -1.4 -1.4 -1.4 -1.4 -1.4 -1.4 -1.4 -1.4 -1.4 -1.4 -1.4 -1.4 -1.4 -1.4 -1.4 -1.4 -1.4 -1.4 -1.4 -1.4 -1.4 -1.4 -1.4 -1.4 -1.4 -1.4 -1.4 -1.4 -1.4 -1.4 -1.4 -1.4 -1.4 -1.4
140.4 137.7 136.1 134.9 130.8 122.5 114.2 111 113.5 116.4 116.1 114.6 111.2 107.1 99.9 90.7 90.9 98 105.5 114.1 122.6 126.3 127.2 125.7 123.5 121.3 117.6 112.2 106.2 99.1 90.5 80 65.2 49.3 40.4 49.4 62.9 77.8 91.2 97.5 101.4 103 102.9 99.2 94.8 90 88.1 87.4 89.7 96.2 107.4 115.7 122.6 126.7 129.8 131.6 132.2 131.3 128.9 125.9 122.1 118.2 113.4 111.8 116.3 120.9 124.4 126.5 127.8 129.2 129.1 127.4 123.7 119.1 113 105.8 100.8 97.1 100.4 99.3 91.3 87.8 97 101 101.9 104.1 105.5 106.1 107.7 108.6 107.5 104.9 102 100.7 99.2 97 96.3 95.9 93.4 80.4 59.2 38.4 15.8 9.1 27 42.6 51.9 60 75.3 79.9 82.7 85.3 88.5 93.7 98.9 103.2 106.7 108.7 108.4 108.1 105.5 102.1 99.5 97.7 94.2 89.2 83.7 79.1 68.6 65 57.2 43.3 60.6 63.5 50.9 -1.4 -1.4 -1.4 -1.4 -1.4 -1.4 -1.4 -1.4 -1.4 -1.4 -1.4 -1.4 -1.4 -1.4 -1.4 -1.4 -1.4 -1.4 -1.4 -1.4 -1.4 -1.4 -1.4 -1.4 -1.4 -1.4 -1.4 -1.4 -1.4 -1.4 -1.4 -1.4 -1.4 -1.4 -1.4 -1.4 -1.4 -1.4 -1.4 -1.4 -1.4 -1.4 -1.4 -1.4 -1.4 -1.4 -1.4 -1.4 -1.4 -1.4 -1.4 -1.4 -1.4 -1.4 -1.4 -1.4 -1.4 -1.4 -1.4 -1.4 -1.4 -1.4 -1.4 -1.4 -1.4
143.2 139.3 136.6 134.6 130.2 125.2 118.5 114.9 110.1 105.8 104.1 102.5 99 95.2 90.8 87.5 85.2 85.9 93.9 103.4 115.7 121.2 123.3 119.9 117 114.3 112.7 107.4 102.7 96.3 88.4 77.3 64.7 52.2 39.7 47.2 61 75.4 86.4 93.2 96.4 97.8 97.5 94.3 90.1 83.2 84.7 91 97.6 104.1 110.8 118.8 125.1 128.8 130.6 131.1 130.3 128.9 126 123.1 120 115.5 108.6 109.4 115.2 117.9 120.6 123.9 126.6 128.5 129.4 127.6 124.2 119.7 115.3 110.1 104.7 103.2 103.3 99.9 90.9 95.3 102.2 107.2 109.5 111.3 111.8 111.9 113.4 114.1 113.3 111.6 109.4 106.9 104.4 102.2 99.8 98.5 92.9 73.7 49.3 27.8 8.1 17.8 51.4 64.6 68.7 65.9 68.3 75.3 82.7 88.7 92.5 96.7 100.4 103.4 105.2 106.6 107.4 107.2 106.1 103.9 101.2 98.2 94.3 90.8 87 83.7 79.5 74.5 63.5 40.8 47.4 42.1 -1.4 -1.4 -1.4 -1.4 -1.4 -1.4 -1.4 -1.4 -1.4 -1.4 -1.4 -1.4 -1.4 -1.4 -1.4 -1.4 -1.4 -1.4 -1.4 -1.4 -1.4 -1.4 -1.4 -1.4 -1.4 -1.4 -1.4 -1.4 -1.4 -1.4 -1.4 -1.4 -1.4 -1.4 -1.4 -1.4 -1.4 -1.4 -1.4 -1.4 -1.4 -1.4 -1.4 -1.4 -1.4 -1.4 -1.4 -1.4 -1.4 -1.4 -1.4 -1.4 -1.4 -1.4 -1.4 -1.4 -1.4 -1.4 -1.4 -1.4 -1.4 -1.4 -1.4 -1.4 -1.4 -1.4
143.9 140.6 135.4 133 129.6 127.7 125.9 123.1 118.5 113.4 109.7 108 105.5 105.2 104.4 101.7 91.3 82.8 82.8 93 103.9 114.3 117.3 114.3 110.6 107.6 106.1 103 99.7 91.8 81.6 73.2 65.2 57.3 44.9 44.2 62.2 76.3 83.8 88.1 89.6 91 91.4 89.7 85 79.8 86.2 96 99.1 106 113.7 120.2 124.9 127.6 128.4 128.4 127.5 126.1 123.4 120.5 117 112 104.9 107 110.6 115.3 118.2 121.4 125 127.9 129.6 129.6 127.2 124.1 119.8 116.3 111.9 110.3 108.2 104.2 95.7 103.7 110.1 112.8 114.6 116 117.1 117.8 119.1 118.7 117 114.6 112.3 110 107 104.3 99.5 95.9 86.9 64 39.9 15.4 6.5 29.8 50 63.8 70.1 71.9 74.6 82.4 89.8 93.8 97 100.9 102.2 102.7 104 105.1 105.2 104.6 103.5 101.6 99.8 98 95.4 93.3 91 86.6 80.5 72 61.7 35.9 28.1 -1.4 -1.4 -1.4 -1.4 -1.4 -1.4 -1.4 -1.4 -1.4 -1.4 -1.4 -1.4 -1.4 -1.4 -1.4 -1.4 -1.4 -1.4 -1.4 -1.4 -1.4 -1.4 -1.4 -1.4 -1.4 -1.4 -1.4 -1.4 -1.4 -1.4 -1.4 -1.4 -1.4 -1.4 -1.4 -1.4 -1.4 -1.4 -1.4 -1.4 -1.4 -1.4 -1.4 -1.4 -1.4 -1.4 -1.4 -1.4 -1.4 -1.4 -1.4 -1.4 -1.4 -1.4 -1.4 -1.4 -1.4 -1.4 -1.4 -1.4 -1.4 -1.4 -1.4 -1.4 -1.4 -1.4 -1.4
144.2 139.4 134.6 131.9 130.7 128.9 127.9 125.2 121.8 118.1 117.9 117.8 116.7 114.2 112.2 108.6 101.6 88.4 80.6 84.6 99.1 109.2 110.8 108.6 105.9 101.4 100.7 99.8 96.8 91.5 83.9 77.2 71.2 63.4 51.3 42.2 59 70.2 75.5 80.8 82.6 85.7 86.7 84.6 78.6 81 90.7 97 103.3 109.1 114.3 120 122.9 124.8 125.6 125.7 124.8 123.4 120.8 117.9 114.2 108.8 102.9 104 110 113.1 115.8 120.3 124.7 129 131.2 132.5 131.6 128.6 125 121.4 118.7 116.3 112.8 107.1 102.9 111 116.4 118.4 120.7 122.8 123.6 124.3 123.6 121.8 119 116.3 113.8 110.7 107.4 102.6 96.2 89.5 79.6 54.5 31.6 9.8 7 31.8 47.7 59.9 68.9 77.8 82.2 87.2 91.3 95.1 98.5 99.4 98.9 99.8 101.2 102.3 102.1 101.8 100.6 98.6 96.8 95.6 95.4 94.1 92.5 89 83 71.7 51.1 29.7 -1.4 -1.4 -1.4 -1.4 -1.4 -1.4 -1.4 -1.4 -1.4 -1.4 -1.4 -1.4 -1.4 -1.4 -1.4 -1.4 -1.4 -1.4 -1.4 -1.4 -1.4 -1.4 -1.4 -1.4 -1.4 -1.4 -1.4 -1.4 -1.4 -1.4 -1.4 -1.4 -1.4 -1.4 -1.4 -1.4 -1.4 -1.4 -1.4 -1.4 -1.4 -1.4 -1.4 -1.4 -1.4 -1.4 -1.4 -1.4 -1.4 -1.4 -1.4 -1.4 -1.4 -1.4 -1.4 -1.4 -1.4 -1.4 -1.4 -1.4 -1.4 -1.4 -1.4 -1.4 -1.4 -1.4 -1.4 -1.4
140.7 136.7 133.7 130.1 125.6 123.1 121.3 120.4 117.9 114.8 113.9 113.9 114 112.5 110.2 107.4 101.8 93.4 81 79.1 93.4 103.6 104.8 104 101.3 96.3 92.7 95 94.1 91.5 86.1 80.1 74 66.4 51.5 43.3 52 55.5 59.3 64.9 73.2 79.4 80.6 76.4 78 86.8 94.3 100.8 107.3 111.9 116.4 118.7 120.5 121.1 121.9 123 122.6 121.8 119.2 115.8 111.8 108.1 100.6 101.5 106.1 111.2 116.3 121.3 126.4 130.6 133.3 134.8 134.2 132.7 128.5 124.7 122.4 119.7 115.9 108.6 111.8 116.8 121.3 125.4 128.8 130.6 130.6 128.9 126.6 123.7 120.9 118.1 114.1 110.4 105.6 98.2 91.3 83.4 73.7 45.9 24.1 6.1 18.1 29.7 42.7 54.7 68.9 75.8 77.7 79.5 81.6 86 90.9 91.4 92.7 94.3 96.5 97.3 98 98 96.7 95.3 92.9 91.3 91.2 89.9 88.3 84.3 76.3 59.6 33.4 -1.4 -1.4 -1.4 -1.4 -1.4 -1.4 -1.4 -1.4 -1.4 -1.4 -1.4 -1.4 -1.4 -1.4 -1.4 -1.4 -1.4 -1.4 -1.4 -1.4 -1.4 -1.4 -1.4 -1.4 -1.4 -1.4 -1.4 -1.4 -1.4 -1.4 -1.4 -1.4 -1.4 -1.4 -1.4 -1.4 -1.4 -1.4 -1.4 -1.4 -1.4 -1.4 -1.4 -1.4 -1.4 -1.4 -1.4 -1.4 -1.4 -1.4 -1.4 -1.4 -1.4 -1.4 -1.4 -1.4 -1.4 -1.4 -1.4 -1.4 -1.4 -1.4 -1.4 -1.4 -1.4 -1.4 -1.4 -1.4 -1.4
130.8 126.5 122.6 118.8 113.1 107.8 106.4 105.8 104.4 102.8 101.4 101.4 103.1 104.8 104.2 103.6 100.5 96.3 85.4 75.5 83.2 97.8 100.6 100 95.9 89.6 84.6 88.2 88.8 87.5 83.5 79.9 76 68.9 48.6 45.1 53.3 59.4 64.3 65 65.8 66.4 69.6 72.8 80.8 92.1 98.8 106.2 109.9 112.8 114.1 115.8 116.4 116.9 117.7 119.1 120.7 120.5 119.2 115.3 111.1 105.5 97.7 98 105.2 111.1 116.9 122.4 127.6 132.2 135.2 136.7 136.7 135.1 131.5 128.2 125.1 121.6 117.4 113.7 118.1 123.3 129 132.7 134.7 135 133.8 131.2 128.1 125.1 121.3 117.2 113 108.1 102.8 94.7 87.2 80.1 66.8 39.3 19.2 6.1 11.1 23.6 32 48.1 60.2 63.5 63.3 63.7 63.8 68.8 73.6 76.5 80.9 82.7 86.8 89.2 90.1 90 88.7 87.5 86.1 84.8 83.6 83.3 81.2 77.6 71.1 58.9 21.5 -1.4 -1.4 -1.4 -1.4 -1.4 -1.4 -1.4 -1.4 -1.4 -1.4 -1.4 -1.4 -1.4 -1.4 -1.4 -1.4 -1.4 -1.4 -1.4 -1.4 -1.4 -1.4 -1.4 -1.4 -1.4 -1.4 -1.4 -1.4 -1.4 -1.4 -1.4 -1.4 -1.4 -1.4 -1.4 -1.4 -1.4 -1.4 -1.4 -1.4 -1.4 -1.4 -1.4 -1.4 -1.4 -1.4 -1.4 -1.4 -1.4 -1.4 -1.4 -1.4 -1.4 -1.4 -1.4 -1.4 -1.4 -1.4 -1.4 -1.4 -1.4 -1.4 -1.4 -1.4 -1.4 -1.4 -1.4 -1.4 -1.4
129.9 125.8 123.1 120.7 118.2 116.1 111.7 106.4 99.9 96.6 93.4 89.2 87 93.7 97 98.2 95.9 93.2 86.8 73.5 77.2 92 95.2 95.1 91.2 84.4 78.3 80.5 78.8 77.8 77.1 74.8 72.8 66 45.7 44.5 58.8 70.6 77.7 80.2 79.5 79.5 80.5 85.6 90.5 97 103.1 106.7 109.2 110.7 111.1 111 111.8 112.7 113.8 115.5 117.2 118.2 119.1 116.6 115.6 108.7 97.8 96 104.1 113 119.2 124.8 130 133.3 136.6 138 138.1 137.3 135 131.4 127.5 124.3 121.1 120.6 123.1 128.7 133.7 136.5 137.6 136.7 134.5 131.1 127.1 123.1 119.2 114.8 110.5 105.1 100 93.6 86.7 78.6 66.9 48.8 29.3 7.4 5.4 7.5 14.4 27.6 43.7 47.3 46.9 45.3 41.8 43.7 47.6 57.8 64.7 63.4 66.8 75 77.6 79.4 78.1 76.8 75.1 74.8 74.5 75.4 74.8 72.3 68.4 59.3 5.6 -1.4 -1.4 -1.4 -1.4 -1.4 -1.4 -1.4 -1.4 -1.4 -1.4 -1.4 -1.4 -1.4 -1.4 -1.4 -1.4 -1.4 -1.4 -1.4 -1.4 -1.4 -1.4 -1.4 -1.4 -1.4 -1.4 -1.4 -1.4 -1.4 -1.4 -1.4 -1.4 -1.4 -1.4 -1.4 -1.4 -1.4 -1.4 -1.4 -1.4 -1.4 -1.4 -1.4 -1.4 -1.4 -1.4 -1.4 -1.4 -1.4 -1.4 -1.4 -1.4 -1.4 -1.4 -1.4 -1.4 -1.4 -1.4 -1.4 -1.4 -1.4 -1.4 -1.4 -1.4 -1.4 -1.4 -1.4 -1.4 -1.4
132.4 134.9 136.7 134.4 133.3 130.3 126 120.8 111.9 105.2 101.5 98 92.8 88.2 82.6 84.2 84.5 81.6 81.3 75.8 76.6 87.9 88.2 86.8 82.8 78.7 67.6 65.9 60.3 56.6 55.8 55.8 54.1 50.5 41.2 40.5 48.5 54.2 67.1 83 91.8 92.9 93.1 96.8 99.1 103 104.8 106.7 106.8 106.6 105.2 103.9 104.4 106.3 108.5 111.7 113.7 116.8 119 115.8 115.4 114.7 104.1 93.5 101.7 114.7 120.7 124.9 129.8 134.2 137.3 138.8 138.9 138.6 137.5 134.8 132.5 129.6 128.7 127.8 128.8 133.7 137.5 138.9 138.4 136.2 133.1 128.6 123.8 119.8 115.7 111.4 106.5 101.7 96.6 91.3 84.1 76.5 68.9 60.2 45.1 27.1 10.2 5.7 5.1 6 23.9 28.6 29.1 27 25.7 27.3 26.3 27.1 29 34.8 43.8 54.5 65 67.3 65.5 66.1 65.4 65 65.7 65.1 66.3 67.2 64.8 54.7 34.2 -1.4 -1.4 -1.4 -1.4 -1.4 -1.4 -1.4 -1.4 -1.4 -1.4 -1.4 -1.4 -1.4 -1.4 -1.4 -1.4 -1.4 -1.4 -1.4 -1.4 -1.4 -1.4 -1.4 -1.4 -1.4 -1.4 -1.4 -1.4 -1.4 -1.4 -1.4 -1.4 -1.4 -1.4 -1.4 -1.4 -1.4 -1.4 -1.4 -1.4 -1.4 -1.4 -1.4 -1.4 -1.4 -1.4 -1.4 -1.4 -1.4 -1.4 -1.4 -1.4 -1.4 -1.4 -1.4 -1.4 -1.4 -1.4 -1.4 -1.4 -1.4 -1.4 -1.4 -1.4 -1.4 -1.4 -1.4 -1.4 -1.4
139.4 143.3 146.4 146.5 146 144.9 141.3 136.3 129.6 123.3 114.9 106.8 99.7 96.1 91.8 81.7 78.7 77.8 74.3 70.9 74.6 79.2 72.7 68.7 67.7 63.3 56.4 52 52.4 54.9 52 47.2 45 45.8 50.3 43.1 37.2 44.6 55.4 74.9 93.8 98.4 100.5 102 103.6 103.8 103.3 103.4 102.1 100.3 97.7 95 97.9 100.6 102.2 105.4 109.7 114.7 117.2 117.5 118.1 115.6 108.8 95.3 98.4 113.3 118.6 123.9 129.7 134.7 137.9 139.3 140.4 140.7 140.2 138.6 137.6 136.2 135.8 134.9 136 139.2 140.7 138.9 137.2 133.9 130 125.7 121.1 116.4 112.1 106.5 100.9 95.4 87.1 86.3 77.4 70.5 63.9 53.1 40.7 31.9 22.3 13.1 4.8 4.9 6.8 8.8 9.8 11.3 14 10.4 5.1 2.6 1.5 2.2 26.9 42.1 48.5 53.4 54.6 56.3 55.9 54 54.1 54 57.5 54 46.1 11.7 -1.4 -1.4 -1.4 -1.4 -1.4 -1.4 -1.4 -1.4 -1.4 -1.4 -1.4 -1.4 -1.4 -1.4 -1.4 -1.4 -1.4 -1.4 -1.4 -1.4 -1.4 -1.4 -1.4 -1.4 -1.4 -1.4 -1.4 -1.4 -1.4 -1.4 -1.4 -1.4 -1.4 -1.4 -1.4 -1.4 -1.4 -1.4 -1.4 -1.4 -1.4 -1.4 -1.4 -1.4 -1.4 -1.4 -1.4 -1.4 -1.4 -1.4 -1.4 -1.4 -1.4 -1.4 -1.4 -1.4 -1.4 -1.4 -1.4 -1.4 -1.4 -1.4 -1.4 -1.4 -1.4 -1.4 -1.4 -1.4 -1.4 -1.4
147.3 149.9 151.7 151.7 150.9 149.6 146.4 141.9 137.4 131.8 124.2 113.3 98.9 93.9 89.4 86.5 90.4 89.6 81.1 75.3 69.3 65.6 63.3 62.6 62.2 59.2 55 63.1 68.4 67 64.8 63.6 61.5 61.8 65.2 63 50.5 36.2 49.4 67.6 89.3 98.2 100.9 102.3 102 101.1 99.9 96.5 93 89.8 88.8 90.3 94 95.3 94.3 99 106 111.5 114.7 117 118.2 114.8 109.5 95.1 96 107.6 115.7 123.8 130.2 134.6 137.9 139.8 140.9 141.8 142.8 142.4 141.4 140.7 140.6 140.8 141.9 142.2 140.6 137.6 134.2 130.6 126.6 122.5 118.1 112.4 106.5 101.4 96.2 88.8 84.2 82.6 75 67.8 59.9 53.7 48.5 40.5 27.7 18.8 12.6 4.9 4.8 5.4 5.3 6.4 2.7 -1.4 -1.4 -1.4 -1.4 -1.4 -1.4 14.2 35.6 40.8 44.3 44.4 43 42.6 43.4 23.9 -1.4 -1.4 -1.4 -1.4 -1.4 -1.4 -1.4 -1.4 -1.4 -1.4 -1.4 -1.4 -1.4 -1.4 -1.4 -1.4 -1.4 -1.4 -1.4 -1.4 -1.4 -1.4 -1.4 -1.4 -1.4 -1.4 -1.4 -1.4 -1.4 -1.4 -1.4 -1.4 -1.4 -1.4 -1.4 -1.4 -1.4 -1.4 -1.4 -1.4 -1.4 -1.4 -1.4 -1.4 -1.4 -1.4 -1.4 -1.4 -1.4 -1.4 -1.4 -1.4 -1.4 -1.4 -1.4 -1.4 -1.4 -1.4 -1.4 -1.4 -1.4 -1.4 -1.4 -1.4 -1.4 -1.4 -1.4 -1.4 -1.4 -1.4 -1.4 -1.4 -1.4 -1.4
154.2 154.9 155.8 154.9 153.4 149.9 145.3 140 135 128.9 121.6 108.2 97.7 94.4 96.1 97.8 96.6 90.5 88.7 89.4 84.9 81 79.3 78.8 75.4 64 65.2 77.8 80.3 79 77.7 75.9 75.5 75.6 77.4 75.1 64.5 40.6 45.6 62.8 84.1 95.2 99.2 99.9 98.9 97.1 93.4 87.1 79 76 81.7 88.1 88.5 87.9 82.9 92.5 100.8 106.8 111.5 114.4 116.6 116.3 109.8 85.9 84.6 102.5 112.7 122.5 129.1 133.6 136.5 139.7 141.5 142.6 144.1 144.2 144.3 143.7 144.6 144.5 143.9 142.5 139.8 136.1 131.3 127.2 123.2 119 114.1 108.7 105.3 102.2 98.2 93.7 92.6 90.9 86.3 80 72 65.1 60.2 51.7 40 27.5 13.4 4.8 6.3 4.2 2.1 -1.4 -1.4 -1.4 -1.4 -1.4 -1.4 -1.4 -1.4 -1.4 -1.4 14.2 -1.4 -1.4 -1.4 -1.4 -1.4 -1.4 -1.4 -1.4 -1.4 -1.4 -1.4 -1.4 -1.4 -1.4 -1.4 -1.4 -1.4 -1.4 -1.4 -1.4 -1.4 -1.4 -1.4 -1.4 -1.4 -1.4 -1.4 -1.4 -1.4 -1.4 -1.4 -1.4 -1.4 -1.4 -1.4 -1.4 -1.4 -1.4 -1.4 -1.4 -1.4 -1.4 -1.4 -1.4 -1.4 -1.4 -1.4 -1.4 -1.4 -1.4 -1.4 -1.4 -1.4 -1.4 -1.4 -1.4 -1.4 -1.4 -1.4 -1.4 -1.4 -1.4 -1.4 -1.4 -1.4 -1.4 -1.4 -1.4 -1.4 -1.4 -1.4 -1.4 -1.4 -1.4 -1.4 -1.4 -1.4 -1.4 -1.4 -1.4
156.7 158.6 159 158.2 154.9 149.9 145.2 137.9 129.1 120.3 114.4 110.2 106.1 107.3 109 107.2 102.8 89.3 99.7 103.3 99.7 96.3 92.7 81.5 70.7 68 80.7 90.2 90.4 87.8 86.3 85.9 85.5 85.3 85.5 82.1 71.7 47.8 39.8 57.9 79.3 92.1 94.9 94.6 93.1 90.1 85.4 70.3 59 70.5 70.6 69.4 72.4 71.8 70.1 83.6 92.4 102.6 108.5 112.2 115.3 114.9 109.8 86.7 75.8 93.8 109.4 120.1 126.2 131 135.2 138.5 140.8 142.9 144.1 144.9 145.2 145.7 145.3 144.6 143 140.9 138.2 133.7 128.6 125.3 121.4 117.9 115.2 113.2 109.3 105.1 101.5 99.3 97.8 96.1 91.7 86.4 80.5 73.8 66.3 54.5 33.2 19.1 6.7 4.9 2.8 -1.4 -1.4 -1.4 -1.4 -1.4 -1.4 -1.4 -1.4 -1.4 -1.4 -1.4 -1.4 -1.4 -1.4 -1.4 -1.4 -1.4 -1.4 -1.4 -1.4 -1.4 -1.4 -1.4 -1.4 -1.4 -1.4 -1.4 -1.4 -1.4 -1.4 -1.4 -1.4 -1.4 -1.4 -1.4 -1.4 -1.4 -1.4 -1.4 -1.4 -1.4 -1.4 -1.4 -1.4 -1.4 -1.4 -1.4 -1.4 -1.4 -1.4 -1.4 -1.4 -1.4 -1.4 -1.4 -1.4 -1.4 -1.4 -1.4 -1.4 -1.4 -1.4 -1.4 -1.4 -1.4 -1.4 -1.4 -1.4 -1.4 -1.4 -1.4 -1.4 -1.4 -1.4 -1.4 -1.4 -1.4 -1.4 -1.4 -1.4 -1.4 -1.4 -1.4 -1.4 -1.4 -1.4 -1.4 -1.4 -1.4 -1.4 -1.4 -1.4 -1.4
159.3 160.6 161.5 160.1 157.1 154.1 149.8 146.1 137.6 128.9 124.9 120.7 117 114.7 114.6 110.1 103.1 93.7 109 111 108.2 101.3 87 79.9 83.1 86.9 96 101.5 102.6 100.8 98.7 97.3 95.8 96 93.1 87.2 75.7 51.1 35.2 54.7 72.5 84.3 87 86.7 84.4 80.5 74.6 58.4 49 51.3 42.9 42.9 45.7 49.9 54.2 67.6 82.1 95.7 102.8 109.6 111.4 110.1 102.5 85.5 71.6 87.1 105.9 116.6 122.9 127.9 131.9 135.8 138.3 140.7 142.7 143.4 144 144.6 144.4 143.3 141.4 139.3 136.5 132.2 129 126.6 124.2 121 117.7 115.6 112.3 108.8 106 103.6 101.1 98.5 93.9 88.7 82.8 76.1 66.2 53.4 33.4 18.2 8.1 1.6 -1.4 -1.4 -1.4 -1.4 -1.4 -1.4 -1.4 -1.4 -1.4 -1.4 -1.4 -1.4 -1.4 -1.4 -1.4 -1.4 -1.4 -1.4 -1.4 -1.4 -1.4 -1.4 -1.4 -1.4 -1.4 -1.4 -1.4 -1.4 -1.4 -1.4 -1.4 -1.4 -1.4 -1.4 -1.4 -1.4 -1.4 -1.4 -1.4 -1.4 -1.4 -1.4 -1.4 -1.4 -1.4 -1.4 -1.4 -1.4 -1.4 -1.4 -1.4 -1.4 -1.4 -1.4 -1.4 -1.4 -1.4 -1.4 -1.4 -1.4 -1.4 -1.4 -1.4 -1.4 -1.4 -1.4 -1.4 -1.4 -1.4 -1.4 -1.4 -1.4 -1.4 -1.4 -1.4 -1.4 -1.4 -1.4 -1.4 -1.4 -1.4 -1.4 -1.4 -1.4 -1.4 -1.4 -1.4 -1.4 -1.4 -1.4 -1.4 -1.4 -1.4 -1.4
158.5 161.1 161.9 161.6 160.2 157.2 154.9 150.5 145.6 139.3 136.6 130.2 126.5 122.6 116.6 110.8 102.3 96.7 111.5 112.4 105.6 92.2 89.5 95 99.3 103.7 108.9 112.2 113.4 112.8 110.1 106.6 103.6 101.3 97.3 89.8 81.5 54.4 34.6 49.1 60.9 66.3 67.8 68.9 62.8 52.8 44.2 34.4 25.4 23 18.7 18.3 15.5 21 27.2 45.2 67.2 86.4 97.7 103.3 103.2 99.4 85 73.9 69 86.5 102.8 112.1 119.3 124 127.9 131.8 135.1 137.5 139.9 140.9 141.5 142 141.9 141.2 139.2 137 134.9 132.2 129.1 126.5 124.2 120.9 118.9 117.6 115.1 113.3 110.1 107.2 103.6 100 95.6 90 84.5 77.7 67.6 57.4 47.9 30.6 5 -1.4 -1.4 -1.4 -1.4 -1.4 -1.4 -1.4 -1.4 -1.4 -1.4 -1.4 -1.4 -1.4 -1.4 -1.4 -1.4 -1.4 -1.4 -1.4 -1.4 -1.4 -1.4 -1.4 -1.4 -1.4 -1.4 -1.4 -1.4 -1.4 -1.4 -1.4 -1.4 -1.4 -1.4 -1.4 -1.4 -1.4 -1.4 -1.4 -1.4 -1.4 -1.4 -1.4 -1.4 -1.4 -1.4 -1.4 -1.4 -1.4 -1.4 -1.4 -1.4 -1.4 -1.4 -1.4 -1.4 -1.4 -1.4 -1.4 -1.4 -1.4 -1.4 -1.4 -1.4 -1.4 -1.4 -1.4 -1.4 -1.4 -1.4 -1.4 -1.4 -1.4 -1.4 -1.4 -1.4 -1.4 -1.4 -1.4 -1.4 -1.4 -1.4 -1.4 -1.4 -1.4 -1.4 -1.4 -1.4 -1.4 -1.4 -1.4 -1.4 -1.4 -1.4 -1.4
158.1 160.6 163.3 162.8 161.2 159.5 157 153.6 150.1 146.3 142.4 138.4 132.8 126.1 119.6 108.8 101.3 99.8 107.9 108.2 100.1 94.6 102.1 106.9 111.9 115.9 119.3 120.9 120.3 118.7 117.3 113.7 108.7 103.4 98 88.9 74.7 58.5 39 40.3 48.4 50.1 48.2 43.9 35 25.9 21.3 19.1 19.1 17.4 17.7 16.2 14.1 13.5 11.2 29.8 56.7 78.2 89.9 94.6 95 84.1 69.1 62.4 74.7 89.8 100.4 107.3 113.6 118.5 121.8 125.5 129.5 133.5 135.9 137.2 137.9 138.4 139.1 138.3 136.2 134.2 132.1 129.6 127.3 125.2 123 120.9 119.6 118.3 116.8 114.3 111 107.6 103.9 100.7 96.3 91.4 86.1 80.6 76.7 71.3 64.3 50 25.5 -1.4 -1.4 -1.4 -1.4 -1.4 -1.4 -1.4 -1.4 -1.4 -1.4 -1.4 -1.4 -1.4 -1.4 -1.4 -1.4 -1.4 -1.4 -1.4 -1.4 -1.4 -1.4 -1.4 -1.4 -1.4 -1.4 -1.4 -1.4 -1.4 -1.4 -1.4 -1.4 -1.4 -1.4 -1.4 -1.4 -1.4 -1.4 -1.4 -1.4 -1.4 -1.4 -1.4 -1.4 -1.4 -1.4 -1.4 -1.4 -1.4 -1.4 -1.4 -1.4 -1.4 -1.4 -1.4 -1.4 -1.4 -1.4 -1.4 -1.4 -1.4 -1.4 -1.4 -1.4 -1.4 -1.4 -1.4 -1.4 -1.4 -1.4 -1.4 -1.4 -1.4 -1.4 -1.4 -1.4 -1.4 -1.4 -1.4 -1.4 -1.4 -1.4 -1.4 -1.4 -1.4 -1.4 -1.4 -1.4 -1.4 -1.4 -1.4 -1.4 -1.4 -1.4 -1.4
160.1 161.5 163.1 163.8 162.7 160.4 157.3 154.3 150.9 147.3 144 139.2 132.8 125 115.5 106.5 105 106.4 108.7 106.5 96.6 102 109.9 114 117.3 121.3 123.7 124.7 123.9 121.9 120 116.1 111.3 105.3 94.7 78.8 72.5 66.5 44.7 34.1 28.6 32.8 28.3 24.6 28 27.4 29.7 32 35.3 37.2 34.6 30 27.7 25 14.8 16.2 43.1 63.5 79.7 85.9 86 70.8 56.4 68.1 81.7 89.9 94.6 100.8 105.3 110.3 112.2 119.2 124.4 128.4 130.5 132.1 133.7 134.9 135.8 135.3 133.3 131.1 128.2 125.6 123.3 121.6 120 118.3 117.3 116.3 114.5 111.8 108.5 105 101.1 97.4 93.1 90.6 86.7 85.9 83.7 78.9 73 58.7 36.4 -1.4 -1.4 -1.4 -1.4 -1.4 -1.4 -1.4 -1.4 -1.4 -1.4 -1.4 -1.4 -1.4 -1.4 -1.4 -1.4 -1.4 -1.4 -1.4 -1.4 -1.4 -1.4 -1.4 -1.4 -1.4 -1.4 -1.4 -1.4 -1.4 -1.4 -1.4 -1.4 -1.4 -1.4 -1.4 -1.4 -1.4 -1.4 -1.4 -1.4 -1.4 -1.4 -1.4 -1.4 -1.4 -1.4 -1.4 -1.4 -1.4 -1.4 -1.4 -1.4 -1.4 -1.4 -1.4 -1.4 -1.4 -1.4 -1.4 -1.4 -1.4 -1.4 -1.4 -1.4 -1.4 -1.4 -1.4 -1.4 -1.4 -1.4 -1.4 -1.4 -1.4 -1.4 -1.4 -1.4 -1.4 -1.4 -1.4 -1.4 -1.4 -1.4 -1.4 -1.4 -1.4 -1.4 -1.4 -1.4 -1.4 -1.4 -1.4 -1.4 -1.4 -1.4 -1.4
160 161.1 161.9 162.5 161.5 159.3 156.1 153.3 149 141.3 138.2 133.9 127.2 118.8 113.8 113.8 115.4 116.9 114.4 111.1 106.1 101.1 106.8 113.1 118.9 123.8 126.1 126.8 124.5 122.4 119.1 116 111.5 102.6 87.3 79 86.7 88.1 69.3 52.1 43.3 40.2 40.2 44.7 46.4 46.3 48.6 49.4 51.6 53.9 50.8 44.1 39.3 31 13.3 12.3 35.2 56.9 74 77.4 71.9 55.1 54.1 71.9 78.5 83.2 87.3 91.4 95.3 98.4 100.8 112.3 117.9 122.1 122.9 125.8 128.5 132 134.4 132.5 130.3 126.8 123.8 120.6 117.5 116.1 115 114.1 113 112.1 110.6 108 105 101.3 96.9 92.7 89.5 87.5 86.2 85.1 81.7 73.8 66.6 51.4 -1.4 -1.4 -1.4 -1.4 -1.4 -1.4 -1.4 -1.4 -1.4 -1.4 -1.4 -1.4 -1.4 -1.4 -1.4 -1.4 -1.4 -1.4 -1.4 -1.4 -1.4 -1.4 -1.4 -1.4 -1.4 -1.4 -1.4 -1.4 -1.4 -1.4 -1.4 -1.4 -1.4 -1.4 -1.4 -1.4 -1.4 -1.4 -1.4 -1.4 -1.4 -1.4 -1.4 -1.4 -1.4 -1.4 -1.4 -1.4 -1.4 -1.4 -1.4 -1.4 -1.4 -1.4 -1.4 -1.4 -1.4 -1.4 -1.4 -1.4 -1.4 -1.4 -1.4 -1.4 -1.4 -1.4 -1.4 -1.4 -1.4 -1.4 -1.4 -1.4 -1.4 -1.4 -1.4 -1.4 -1.4 -1.4 -1.4 -1.4 -1.4 -1.4 -1.4 -1.4 -1.4 -1.4 -1.4 -1.4 -1.4 -1.4 -1.4 -1.4 -1.4 -1.4 -1.4 -1.4
158.9 159.7 160.3 160.9 161.1 158.1 154.7 151.6 145.7 142.4 137.7 131.8 127.5 126.1 126.3 126.7 128.4 128 124.5 120 112.9 106.2 105.6 109.6 118.2 124.9 128.1 127.5 124.9 119.6 115.3 111 105.8 98.5 84.6 88.1 100.2 100.1 90.1 73.8 63.3 59.8 62.4 64.2 65.7 65.1 67.4 68 68.1 65.2 61.8 57.7 47.8 30.2 13.1 13.5 37.2 59.2 69.3 71.9 59 44.8 56.9 66.8 72.1 75 76.9 80 82.6 84.8 95.7 102.6 108.3 113.2 118.9 122.7 127.7 132 133.6 130.4 127 122.7 118.9 114.2 111.3 107.5 109.6 109.3 108.5 107.6 106.1 103.8 99.7 95.5 90.8 87.3 83.5 83.3 83.1 82.5 76.1 60.5 52.3 38.5 -1.4 -1.4 -1.4 -1.4 -1.4 -1.4 -1.4 -1.4 -1.4 -1.4 -1.4 -1.4 -1.4 -1.4 -1.4 -1.4 -1.4 -1.4 -1.4 -1.4 -1.4 -1.4 -1.4 -1.4 -1.4 -1.4 -1.4 -1.4 -1.4 -1.4 -1.4 -1.4 -1.4 -1.4 -1.4 -1.4 -1.4 -1.4 -1.4 -1.4 -1.4 -1.4 -1.4 -1.4 -1.4 -1.4 -1.4 -1.4 -1.4 -1.4 -1.4 -1.4 -1.4 -1.4 -1.4 -1.4 -1.4 -1.4 -1.4 -1.4 -1.4 -1.4 -1.4 -1.4 -1.4 -1.4 -1.4 -1.4 -1.4 -1.4 -1.4 -1.4 -1.4 -1.4 -1.4 -1.4 -1.4 -1.4 -1.4 -1.4 -1.4 -1.4 -1.4 -1.4 -1.4 -1.4 -1.4 -1.4 -1.4 -1.4 -1.4 -1.4 -1.4 -1.4 -1.4 -1.4
157.9 158.2 158.7 159.3 159.9 157.8 154.4 151.8 149 145.6 143 141.9 139.9 138.8 138.5 139.3 139 135.7 129.1 121.9 114.1 109.9 110.2 112.8 117.5 123.2 127.2 126.8 122.7 115.8 107.9 101.3 96.9 91.9 92.8 100.6 108.6 109.1 107.1 98.6 89.1 84.4 84.2 85.5 84.7 81.5 81.4 80.7 79.5 77.6 70.4 61.4 43.8 23.3 6.4 17 38.8 57.1 68.5 68.8 49.8 40.1 52.6 60.5 61.7 57.8 63.3 70.1 74.6 81.7 90 98 106.1 113.3 119.3 124.1 129.1 133 132.8 130.6 127.8 124.6 121.1 116.8 111.8 105 102.3 102.9 102.4 103 101.4 98.4 93.1 88 83.4 79.6 75.8 72.1 73.6 72.4 64 47.7 18.5 18.2 -1.4 -1.4 -1.4 -1.4 -1.4 -1.4 -1.4 -1.4 -1.4 -1.4 -1.4 -1.4 -1.4 -1.4 -1.4 -1.4 -1.4 -1.4 -1.4 -1.4 -1.4 -1.4 -1.4 -1.4 -1.4 -1.4 -1.4 -1.4 -1.4 -1.4 -1.4 -1.4 -1.4 -1.4 -1.4 -1.4 -1.4 -1.4 -1.4 -1.4 -1.4 -1.4 -1.4 -1.4 -1.4 -1.4 -1.4 -1.4 -1.4 -1.4 -1.4 -1.4 -1.4 -1.4 -1.4 -1.4 -1.4 -1.4 -1.4 -1.4 -1.4 -1.4 -1.4 -1.4 -1.4 -1.4 -1.4 -1.4 -1.4 -1.4 -1.4 -1.4 -1.4 -1.4 -1.4 -1.4 -1.4 -1.4 -1.4 -1.4 -1.4 -1.4 -1.4 -1.4 -1.4 -1.4 -1.4 -1.4 -1.4 -1.4 -1.4 -1.4 -1.4 -1.4 -1.4 -1.4
156.5 157.8 158.1 158.4 158.7 158.6 156.1 154.7 152.9 150.5 148 147.4 146.9 147.1 147.8 147.7 144.5 139.4 132.7 124.6 120.9 119.6 119.7 120.8 121.7 124.6 128.8 128.8 126.1 120.6 114.9 109.8 106 105 107.2 113.5 119 120.1 119.3 115.9 110.5 106.7 103.9 101 97.5 94.7 92.3 88.9 85.3 80.6 75.5 62.4 40.2 14.1 7.2 12.1 32.6 50.7 66 68.4 47.4 34.4 44.1 45.4 49.3 59.7 71.8 83.5 89 87.9 95.9 104.9 112 118.5 123.4 127.5 132.3 134 133 131.7 129.4 126.2 122.6 118.8 114.1 107.1 98.1 89.9 86.5 93.6 94.7 90.3 84.3 77.8 71.4 64.2 58.7 52.4 50.4 54.7 52.9 19 -1.4 -1.4 -1.4 -1.4 -1.4 -1.4 -1.4 -1.4 -1.4 -1.4 -1.4 -1.4 -1.4 -1.4 -1.4 -1.4 -1.4 -1.4 -1.4 -1.4 -1.4 -1.4 -1.4 -1.4 -1.4 -1.4 -1.4 -1.4 -1.4 -1.4 -1.4 -1.4 -1.4 -1.4 -1.4 -1.4 -1.4 -1.4 -1.4 -1.4 -1.4 -1.4 -1.4 -1.4 -1.4 -1.4 -1.4 -1.4 -1.4 -1.4 -1.4 -1.4 -1.4 -1.4 -1.4 -1.4 -1.4 -1.4 -1.4 -1.4 -1.4 -1.4 -1.4 -1.4 -1.4 -1.4 -1.4 -1.4 -1.4 -1.4 -1.4 -1.4 -1.4 -1.4 -1.4 -1.4 -1.4 -1.4 -1.4 -1.4 -1.4 -1.4 -1.4 -1.4 -1.4 -1.4 -1.4 -1.4 -1.4 -1.4 -1.4 -1.4 -1.4 -1.4 -1.4 -1.4 -1.4 -1.4
156.2 157.5 157.7 157.9 158.9 158.7 157.3 156 154.9 153.8 152.2 147.8 148.6 150.3 150.7 149 145.7 140.5 133.8 131 130 126.8 126.5 127.5 129.5 131.1 133.3 134.9 134.3 131.3 128 124.6 121.4 120.8 122.2 124.7 127.7 127.6 126.5 123.9 120.6 116.4 112.9 108 105.1 102 98.6 95.8 88.7 81.7 69.6 50.8 32 7.8 6.7 10.8 28 48.3 63.8 61 44.8 30.4 33.1 43.1 56.5 71.5 83.3 92.8 98.7 102 103.4 109.9 117 122.8 127.5 131 133.5 134.7 134.1 132.8 130.2 127.3 123.6 119.6 115.7 110.6 104.4 95.7 79.2 79 81.9 78.2 71.4 62.3 49.9 42 35.4 28.8 23.3 28.5 27.8 -1.4 -1.4 -1.4 -1.4 -1.4 -1.4 -1.4 -1.4 -1.4 -1.4 -1.4 -1.4 -1.4 -1.4 -1.4 -1.4 -1.4 -1.4 -1.4 -1.4 -1.4 -1.4 -1.4 -1.4 -1.4 -1.4 -1.4 -1.4 -1.4 -1.4 -1.4 -1.4 -1.4 -1.4 -1.4 -1.4 -1.4 -1.4 -1.4 -1.4 -1.4 -1.4 -1.4 -1.4 -1.4 -1.4 -1.4 -1.4 -1.4 -1.4 -1.4 -1.4 -1.4 -1.4 -1.4 -1.4 -1.4 -1.4 -1.4 -1.4 -1.4 -1.4 -1.4 -1.4 -1.4 -1.4 -1.4 -1.4 -1.4 -1.4 -1.4 -1.4 -1.4 -1.4 -1.4 -1.4 -1.4 -1.4 -1.4 -1.4 -1.4 -1.4 -1.4 -1.4 -1.4 -1.4 -1.4 -1.4 -1.4 -1.4 -1.4 -1.4 -1.4 -1.4 -1.4 -1.4 -1.4 -1.4 -1.4
156.7 157.1 156.9 157.1 157.9 156.9 155.6 154.3 152.9 149.9 149.5 147.6 148.1 149.4 149.3 148.2 145.1 143.4 139.3 137.6 134.7 132.1 133.3 133 135.4 138 137.8 138 137.3 136.2 134.1 132 132.4 132.7 133.3 134 133.6 132.1 130.7 129.2 126 123 120.2 116.4 112.4 107.7 103.3 99.8 91.4 84.7 72.6 50.9 30.6 7 5.7 9.4 29.1 51 54.4 43.2 32 27 39.4 54.8 68.9 81.6 93.7 102.2 108.9 112.1 114.7 117.4 121.9 127.3 131.8 134 135.3 135.9 134.8 132.7 130.3 127.5 123.1 119.2 115.3 111.2 104.9 93.8 85.4 76.4 66 61.5 55.7 51.7 51.6 50 43.7 35.3 22.2 4.9 -1.4 -1.4 -1.4 -1.4 -1.4 -1.4 -1.4 -1.4 -1.4 -1.4 -1.4 -1.4 -1.4 -1.4 -1.4 -1.4 -1.4 -1.4 -1.4 -1.4 -1.4 -1.4 -1.4 -1.4 -1.4 -1.4 -1.4 -1.4 -1.4 -1.4 -1.4 -1.4 -1.4 -1.4 -1.4 -1.4 -1.4 -1.4 -1.4 -1.4 -1.4 -1.4 -1.4 -1.4 -1.4 -1.4 -1.4 -1.4 -1.4 -1.4 -1.4 -1.4 -1.4 -1.4 -1.4 -1.4 -1.4 -1.4 -1.4 -1.4 -1.4 -1.4 -1.4 -1.4 -1.4 -1.4 -1.4 -1.4 -1.4 -1.4 -1.4 -1.4 -1.4 -1.4 -1.4 -1.4 -1.4 -1.4 -1.4 -1.4 -1.4 -1.4 -1.4 -1.4 -1.4 -1.4 -1.4 -1.4 -1.4 -1.4 -1.4 -1.4 -1.4 -1.4 -1.4 -1.4 -1.4 -1.4 -1.4 -1.4
156.4 156.7 155.9 156.3 154.6 153.9 152.7 151.4 148.6 144.9 143.7 143.4 145.8 147.5 147.5 146.9 144.9 143.2 142.4 139.4 137.9 136.1 137.4 137.9 138.9 140 140.2 139.7 139 137.6 134.8 135.2 135.2 135.8 136.6 137.2 137.2 135.5 134.4 133.3 130.3 126.9 124.3 121.2 117.4 113.7 108.1 102.5 93.7 85.3 70.4 48.3 25.9 5.6 5.2 7.1 33.3 46.6 34.4 22 23.7 34.4 49.5 65.7 81.2 93.8 105.5 113.3 117.6 121.8 123.9 125.8 127.1 131.5 135 136.5 137.1 137.2 134.8 132.1 129.9 126.5 122 118.3 114.5 110.9 106 101.1 95.3 87.7 76.1 68.9 65.2 64.3 65 65.6 60.7 53.2 40.4 14.9 -1.4 -1.4 -1.4 -1.4 -1.4 -1.4 -1.4 -1.4 -1.4 -1.4 -1.4 -1.4 -1.4 -1.4 -1.4 -1.4 -1.4 -1.4 -1.4 -1.4 -1.4 -1.4 -1.4 -1.4 -1.4 -1.4 -1.4 -1.4 -1.4 -1.4 -1.4 -1.4 -1.4 -1.4 -1.4 -1.4 -1.4 -1.4 -1.4 -1.4 -1.4 -1.4 -1.4 -1.4 -1.4 -1.4 -1.4 -1.4 -1.4 -1.4 -1.4 -1.4 -1.4 -1.4 -1.4 -1.4 -1.4 -1.4 -1.4 -1.4 -1.4 -1.4 -1.4 -1.4 -1.4 -1.4 -1.4 -1.4 -1.4 -1.4 -1.4 -1.4 -1.4 -1.4 -1.4 -1.4 -1.4 -1.4 -1.4 -1.4 -1.4 -1.4 -1.4 -1.4 -1.4 -1.4 -1.4 -1.4 -1.4 -1.4 -1.4 -1.4 -1.4 -1.4 -1.4 -1.4 -1.4 -1.4 -1.4 -1.4
156 156 155.1 153.3 151.6 149.7 148.3 146.7 143.9 139.3 137.6 138.4 141.3 144.1 145.5 145.1 144.3 143.2 141.6 139.2 138.1 138.2 138.8 139.4 139.3 139.8 141.2 139.9 138.2 136.6 133.1 129.8 131.9 132.9 135.7 137.1 138.6 138.4 136.7 134.2 132.7 129.3 127.5 125.6 122.1 118.8 112.3 105.3 95.5 80.9 61.3 40.4 20.2 5.7 5.2 14 35.9 28.9 17.3 20.6 32.5 44.9 60.4 76.5 91.8 105.8 117.7 124.2 128.8 130.3 130.3 130.9 131.6 133.5 136 136.9 138 138 135.4 132.4 129.4 125.3 121.1 117.2 113 110.8 109.3 105.8 101.7 95.8 89.9 84 79.8 78.9 78.5 78.6 67.6 50.7 30.8 -1.4 -1.4 -1.4 -1.4 -1.4 -1.4 -1.4 -1.4 -1.4 -1.4 -1.4 -1.4 -1.4 -1.4 -1.4 -1.4 -1.4 -1.4 -1.4 -1.4 -1.4 -1.4 -1.4 -1.4 -1.4 -1.4 -1.4 -1.4 -1.4 -1.4 -1.4 -1.4 -1.4 -1.4 -1.4 -1.4 -1.4 -1.4 -1.4 -1.4 -1.4 -1.4 -1.4 -1.4 -1.4 -1.4 -1.4 -1.4 -1.4 -1.4 -1.4 -1.4 -1.4 -1.4 -1.4 -1.4 -1.4 -1.4 -1.4 -1.4 -1.4 -1.4 -1.4 -1.4 -1.4 -1.4 -1.4 -1.4 -1.4 -1.4 -1.4 -1.4 -1.4 -1.4 -1.4 -1.4 -1.4 -1.4 -1.4 -1.4 -1.4 -1.4 -1.4 -1.4 -1.4 -1.4 -1.4 -1.4 -1.4 -1.4 -1.4 -1.4 -1.4 -1.4 -1.4 -1.4 -1.4 -1.4 -1.4 -1.4 -1.4
154 154.8 153.1 150.9 148.3 145.7 143.2 140.7 138 132.6 129.8 133.5 137 140.2 141.9 141.2 140.9 139.7 139.3 137.7 136.3 137.7 139 139.8 140.2 140.3 140.1 139 137.6 135.4 131.4 125.4 124.7 125.7 130.9 133.6 135.7 136.8 136.1 134.1 133 132.2 130.6 128 125.3 122.8 116.5 109.2 96.7 76 54.8 36.9 20.7 5.5 5.1 20.3 16.7 11.8 16.8 30.9 45.2 59.2 73.9 88.7 104.1 117.7 126.4 132 136 138.2 137.7 137.2 136.6 137.5 138.3 139 139.1 138.4 136.1 133.6 129.7 126.2 121.1 117.8 108.9 107.7 107.6 105.8 103 99.5 95.3 94.2 92.1 87.3 79.8 65.1 46.4 29.9 -1.4 -1.4 -1.4 -1.4 -1.4 -1.4 -1.4 -1.4 -1.4 -1.4 -1.4 -1.4 -1.4 -1.4 -1.4 -1.4 -1.4 -1.4 -1.4 -1.4 -1.4 -1.4 -1.4 -1.4 -1.4 -1.4 -1.4 -1.4 -1.4 -1.4 -1.4 -1.4 -1.4 -1.4 -1.4 -1.4 -1.4 -1.4 -1.4 -1.4 -1.4 -1.4 -1.4 -1.4 -1.4 -1.4 -1.4 -1.4 -1.4 -1.4 -1.4 -1.4 -1.4 -1.4 -1.4 -1.4 -1.4 -1.4 -1.4 -1.4 -1.4 -1.4 -1.4 -1.4 -1.4 -1.4 -1.4 -1.4 -1.4 -1.4 -1.4 -1.4 -1.4 -1.4 -1.4 -1.4 -1.4 -1.4 -1.4 -1.4 -1.4 -1.4 -1.4 -1.4 -1.4 -1.4 -1.4 -1.4 -1.4 -1.4 -1.4 -1.4 -1.4 -1.4 -1.4 -1.4 -1.4 -1.4 -1.4 -1.4 -1.4 -1.4
152.7 152.8 151 148.6 145.7 142.9 140.3 135.1 131.6 126 120.7 126.9 132.9 136.2 137.6 137.3 136.1 134.6 133.9 134.4 134.6 134.9 135.3 136.8 137.7 138.6 138.1 137.7 137.1 135.5 132.9 128.9 121 113.6 116.9 120.7 127.2 130.8 131.7 130.4 125.5 125 125 124.4 126.5 126.1 120.2 111 99 77.8 54 36.6 19.3 5.1 5.1 11.4 6.3 17.7 30.2 45.7 59.3 72.8 87.3 102 115.8 125.2 131.1 136.1 140 142.3 142.8 143.1 142.3 141.2 140.8 139.9 139.1 138.1 135.6 132.7 129.8 126 121.3 116.7 106.3 99.2 97.8 100.2 100.9 101.4 101.3 100 96.5 88.3 68.2 47 27.3 -1.4 -1.4 -1.4 -1.4 -1.4 -1.4 -1.4 -1.4 -1.4 -1.4 -1.4 -1.4 -1.4 -1.4 -1.4 -1.4 -1.4 -1.4 -1.4 -1.4 -1.4 -1.4 -1.4 -1.4 -1.4 -1.4 -1.4 -1.4 -1.4 -1.4 -1.4 -1.4 -1.4 -1.4 -1.4 -1.4 -1.4 -1.4 -1.4 -1.4 -1.4 -1.4 -1.4 -1.4 -1.4 -1.4 -1.4 -1.4 -1.4 -1.4 -1.4 -1.4 -1.4 -1.4 -1.4 -1.4 -1.4 -1.4 -1.4 -1.4 -1.4 -1.4 -1.4 -1.4 -1.4 -1.4 -1.4 -1.4 -1.4 -1.4 -1.4 -1.4 -1.4 -1.4 -1.4 -1.4 -1.4 -1.4 -1.4 -1.4 -1.4 -1.4 -1.4 -1.4 -1.4 -1.4 -1.4 -1.4 -1.4 -1.4 -1.4 -1.4 -1.4 -1.4 -1.4 -1.4 -1.4 -1.4 -1.4 -1.4 -1.4 -1.4 -1.4
150.3 150.1 148.3 146.4 143.5 140.4 137.5 132.8 129.5 125.5 118.9 120.9 128.6 131.7 133 132.8 131.3 129.8 129.9 130.7 131.2 131 131.7 133.5 135 136 136.6 136.7 136.1 134.8 133.1 131.2 125.6 116.7 106.3 104.4 106.2 111 114.1 116.4 115.2 112.9 112.1 115 115.9 114.1 111 105.5 96.2 79.7 54.6 34 14.3 5.6 5.1 5.5 19.8 32.8 46.4 60.4 73.4 86.4 100.4 113.6 122 128.6 133.9 138.7 142.2 144.7 146.3 146.3 144.9 143.8 142.5 140.3 139.3 137.3 134.6 131.3 127.9 122.5 118.4 114.7 107.1 99.1 87.8 86 95 100.7 102.6 99.7 92.7 81.7 60.8 35.4 -1.4 -1.4 -1.4 -1.4 -1.4 -1.4 -1.4 -1.4 -1.4 -1.4 -1.4 -1.4 -1.4 -1.4 -1.4 -1.4 -1.4 -1.4 -1.4 -1.4 -1.4 -1.4 -1.4 -1.4 -1.4 -1.4 -1.4 -1.4 -1.4 -1.4 -1.4 -1.4 -1.4 -1.4 -1.4 -1.4 -1.4 -1.4 -1.4 -1.4 -1.4 -1.4 -1.4 -1.4 -1.4 -1.4 -1.4 -1.4 -1.4 -1.4 -1.4 -1.4 -1.4 -1.4 -1.4 -1.4 -1.4 -1.4 -1.4 -1.4 -1.4 -1.4 -1.4 -1.4 -1.4 -1.4 -1.4 -1.4 -1.4 -1.4 -1.4 -1.4 -1.4 -1.4 -1.4 -1.4 -1.4 -1.4 -1.4 -1.4 -1.4 -1.4 -1.4 -1.4 -1.4 -1.4 -1.4 -1.4 -1.4 -1.4 -1.4 -1.4 -1.4 -1.4 -1.4 -1.4 -1.4 -1.4 -1.4 -1.4 -1.4 -1.4 -1.4 -1.4
147.4 147.2 145.7 143.9 141.6 138.2 134.7 131.4 128.1 124.6 117.8 113.5 122.7 126.6 128.1 128 126.6 125 124 125.6 126.3 126.8 128.2 129.9 131.8 133 134.1 134.7 134.3 133.7 132.4 131.1 128.9 124 116.2 105.4 97.6 93.1 93.6 94.4 93.2 88.9 89.2 93 97 97.3 95.7 92.1 84.5 74 54.2 33.3 9 5.8 5.4 8.8 27.3 42.8 57.6 72.3 86 98.7 108.8 116.6 124.3 130.3 134.9 139.7 143.1 145.3 146.5 146.7 145.8 144.7 143.4 141.1 139.3 135.7 133 128.5 123.2 119.6 117 112.8 107.3 100.9 92.4 70 81.5 94.6 97.1 91.5 82.4 68 48.3 -1.4 -1.4 -1.4 -1.4 -1.4 -1.4 -1.4 -1.4 -1.4 -1.4 -1.4 -1.4 -1.4 -1.4 -1.4 -1.4 -1.4 -1.4 -1.4 -1.4 -1.4 -1.4 -1.4 -1.4 -1.4 -1.4 -1.4 -1.4 -1.4 -1.4 -1.4 -1.4 -1.4 -1.4 -1.4 -1.4 -1.4 -1.4 -1.4 -1.4 -1.4 -1.4 -1.4 -1.4 -1.4 -1.4 -1.4 -1.4 -1.4 -1.4 -1.4 -1.4 -1.4 -1.4 -1.4 -1.4 -1.4 -1.4 -1.4 -1.4 -1.4 -1.4 -1.4 -1.4 -1.4 -1.4 -1.4 -1.4 -1.4 -1.4 -1.4 -1.4 -1.4 -1.4 -1.4 -1.4 -1.4 -1.4 -1.4 -1.4 -1.4 -1.4 -1.4 -1.4 -1.4 -1.4 -1.4 -1.4 -1.4 -1.4 -1.4 -1.4 -1.4 -1.4 -1.4 -1.4 -1.4 -1.4 -1.4 -1.4 -1.4 -1.4 -1.4 -1.4 -1.4
143.8 144.2 143 140.5 137.8 135 131.5 128.2 125 121.7 118.2 108.8 117.7 121.8 123.5 123.3 121.7 120.3 118.9 119.9 120.7 121.7 123.8 125.8 127.9 129.6 131.6 132.9 132.3 131.7 131.1 129.9 128.3 126.7 123 119.3 109.8 97.8 85.6 73.8 68.1 63.2 64 67 71.5 74.3 74.5 72.5 66.8 62.3 53.2 28.7 4.3 5.5 7.2 12.2 28.2 47.2 64.3 79.5 92.4 100 106.9 114.9 122.9 130.5 135.6 139.9 142.9 145 146.3 146.7 146.1 145.1 144.1 141.1 138.2 134.9 131.5 126.9 121.1 117.7 111.7 107.4 102.2 96.7 88.4 66.5 67.1 81.6 88.5 80.9 67.9 49.6 30.3 -1.4 -1.4 -1.4 -1.4 -1.4 -1.4 -1.4 -1.4 -1.4 -1.4 -1.4 -1.4 -1.4 -1.4 -1.4 -1.4 -1.4 -1.4 -1.4 -1.4 -1.4 -1.4 -1.4 -1.4 -1.4 -1.4 -1.4 -1.4 -1.4 -1.4 -1.4 -1.4 -1.4 -1.4 -1.4 -1.4 -1.4 -1.4 -1.4 -1.4 -1.4 -1.4 -1.4 -1.4 -1.4 -1.4 -1.4 -1.4 -1.4 -1.4 -1.4 -1.4 -1.4 -1.4 -1.4 -1.4 -1.4 -1.4 -1.4 -1.4 -1.4 -1.4 -1.4 -1.4 -1.4 -1.4 -1.4 -1.4 -1.4 -1.4 -1.4 -1.4 -1.4 -1.4 -1.4 -1.4 -1.4 -1.4 -1.4 -1.4 -1.4 -1.4 -1.4 -1.4 -1.4 -1.4 -1.4 -1.4 -1.4 -1.4 -1.4 -1.4 -1.4 -1.4 -1.4 -1.4 -1.4 -1.4 -1.4 -1.4 -1.4 -1.4 -1.4 -1.4 -1.4
142.3 141.4 139.4 135.8 132.7 130 126.7 123.4 120.2 117 114.1 106.3 113.8 116.9 118.8 117.7 116.8 114 112.4 113.8 115.1 117.3 119.9 123 124.7 127.4 129.6 130.8 130.7 130.7 130.7 127.1 125.2 123.2 120.5 117.2 113.9 111.6 101 90.1 81.4 71.2 57.9 48 48.2 48.8 49.4 47.4 43.5 41 38.7 24.1 5 5.6 5.9 5.2 25.6 47.3 65.1 79.1 81.7 89.9 99.8 113 122 130.1 135.6 139.8 142.8 145 146 146.4 145.4 144.3 142.7 139.7 136.4 133.3 130 126 120.1 115.1 109.1 98.3 88.6 83.5 81.7 69.7 50 66.8 77.4 67 50.2 31.1 -1.4 -1.4 -1.4 -1.4 -1.4 -1.4 -1.4 -1.4 -1.4 -1.4 -1.4 -1.4 -1.4 -1.4 -1.4 -1.4 -1.4 -1.4 -1.4 -1.4 -1.4 -1.4 -1.4 -1.4 -1.4 -1.4 -1.4 -1.4 -1.4 -1.4 -1.4 -1.4 -1.4 -1.4 -1.4 -1.4 -1.4 -1.4 -1.4 -1.4 -1.4 -1.4 -1.4 -1.4 -1.4 -1.4 -1.4 -1.4 -1.4 -1.4 -1.4 -1.4 -1.4 -1.4 -1.4 -1.4 -1.4 -1.4 -1.4 -1.4 -1.4 -1.4 -1.4 -1.4 -1.4 -1.4 -1.4 -1.4 -1.4 -1.4 -1.4 -1.4 -1.4 -1.4 -1.4 -1.4 -1.4 -1.4 -1.4 -1.4 -1.4 -1.4 -1.4 -1.4 -1.4 -1.4 -1.4 -1.4 -1.4 -1.4 -1.4 -1.4 -1.4 -1.4 -1.4 -1.4 -1.4 -1.4 -1.4 -1.4 -1.4 -1.4 -1.4 -1.4 -1.4 -1.4
140 138.6 135.2 131.6 128 124.9 120.8 117.3 113.9 110.4 109.2 104.7 108.2 113.2 114.4 113.4 112.2 108.6 107.2 110.9 114.8 117.1 120.2 123.7 127.4 129.2 131.2 131.2 130.4 130.4 128.9 123.8 120.6 118.3 115.7 112.8 109.9 109.6 109.8 108.1 99.8 89.8 74.3 59 45.8 37.7 29.8 25.5 22.2 17.6 15.4 12.9 4.7 4.9 6.1 5.4 21.6 43.9 62.7 66.4 76.4 90.7 102.2 114.6 122.7 130.7 135.7 139.4 141.7 143.8 144.5 144.5 144.1 142.8 140.4 137.3 134.3 131.2 128 124.3 119.1 113.9 109 102 91.2 78.7 63.4 50.3 44.3 50.3 65.8 50.3 31.7 -1.4 -1.4 -1.4 -1.4 -1.4 -1.4 -1.4 -1.4 -1.4 -1.4 -1.4 -1.4 -1.4 -1.4 -1.4 -1.4 -1.4 -1.4 -1.4 -1.4 -1.4 -1.4 -1.4 -1.4 -1.4 -1.4 -1.4 -1.4 -1.4 -1.4 -1.4 -1.4 -1.4 -1.4 -1.4 -1.4 -1.4 -1.4 -1.4 -1.4 -1.4 -1.4 -1.4 -1.4 -1.4 -1.4 -1.4 -1.4 -1.4 -1.4 -1.4 -1.4 -1.4 -1.4 -1.4 -1.4 -1.4 -1.4 -1.4 -1.4 -1.4 -1.4 -1.4 -1.4 -1.4 -1.4 -1.4 -1.4 -1.4 -1.4 -1.4 -1.4 -1.4 -1.4 -1.4 -1.4 -1.4 -1.4 -1.4 -1.4 -1.4 -1.4 -1.4 -1.4 -1.4 -1.4 -1.4 -1.4 -1.4 -1.4 -1.4 -1.4 -1.4 -1.4 -1.4 -1.4 -1.4 -1.4 -1.4 -1.4 -1.4 -1.4 -1.4 -1.4 -1.4 -1.4 -1.4
137.8 135.9 132.4 128.6 124.7 121.4 119 116.7 114.1 111.1 108.6 103.2 100.5 109.1 110.2 109.3 106.9 105.3 108.2 113.5 117.5 120.8 123.9 127.2 129.9 131.6 132.5 132.4 131.2 130.1 127.4 124.8 122.1 117.8 117.3 111.6 108.4 105.6 106.1 107.5 107.1 101.6 93.2 79.1 64.7 53.2 44.1 35.7 29.2 22.8 16.5 10.8 4.7 4.9 5.6 5.1 16.3 32.3 41.9 59.9 75.2 90.3 103.6 115.4 124.1 131 135.4 138.4 140.6 142.1 142.6 142.5 141.8 139.8 137.6 134.7 131.3 128.1 125.5 121.8 117.9 112.8 109.3 104.5 98.8 90.4 77.7 62.6 44.6 31.8 53.9 39 -1.4 -1.4 -1.4 -1.4 -1.4 -1.4 -1.4 -1.4 -1.4 -1.4 -1.4 -1.4 -1.4 -1.4 -1.4 -1.4 -1.4 -1.4 -1.4 -1.4 -1.4 -1.4 -1.4 -1.4 -1.4 -1.4 -1.4 -1.4 -1.4 -1.4 -1.4 -1.4 -1.4 -1.4 -1.4 -1.4 -1.4 -1.4 -1.4 -1.4 -1.4 -1.4 -1.4 -1.4 -1.4 -1.4 -1.4 -1.4 -1.4 -1.4 -1.4 -1.4 -1.4 -1.4 -1.4 -1.4 -1.4 -1.4 -1.4 -1.4 -1.4 -1.4 -1.4 -1.4 -1.4 -1.4 -1.4 -1.4 -1.4 -1.4 -1.4 -1.4 -1.4 -1.4 -1.4 -1.4 -1.4 -1.4 -1.4 -1.4 -1.4 -1.4 -1.4 -1.4 -1.4 -1.4 -1.4 -1.4 -1.4 -1.4 -1.4 -1.4 -1.4 -1.4 -1.4 -1.4 -1.4 -1.4 -1.4 -1.4 -1.4 -1.4 -1.4 -1.4 -1.4 -1.4 -1.4 -1.4
136.4 134.1 130.6 129 127.2 125.4 123.9 121.2 118.7 115.8 112.7 108.1 100 100.4 105.7 104.3 101.4 105.7 111.7 116.7 120.5 123.9 127 129.6 131.6 133.4 134.3 134.4 133.3 132.3 130.5 127.9 125.8 123.3 120.7 117.5 112.9 106.2 101.6 103.8 106.1 106.4 103.4 96.7 86.7 75.4 65.1 56.5 47.6 35.9 29.2 23.2 4.6 5.1 4.8 4.6 5.2 24.3 42 55.7 70.2 84.5 98.2 109.5 121.7 129.5 134 137.2 139 140.1 140.5 140 138.5 137.4 134.6 131.8 128.3 124.9 122.7 119.6 116.2 112.4 108.1 104.1 100.5 95.5 88.4 79.5 56.5 28.9 35.2 25.7 -1.4 -1.4 -1.4 -1.4 -1.4 -1.4 -1.4 -1.4 -1.4 -1.4 -1.4 -1.4 -1.4 -1.4 -1.4 -1.4 -1.4 -1.4 -1.4 -1.4 -1.4 -1.4 -1.4 -1.4 -1.4 -1.4 -1.4 -1.4 -1.4 -1.4 -1.4 -1.4 -1.4 -1.4 -1.4 -1.4 -1.4 -1.4 -1.4 -1.4 -1.4 -1.4 -1.4 -1.4 -1.4 -1.4 -1.4 -1.4 -1.4 -1.4 -1.4 -1.4 -1.4 -1.4 -1.4 -1.4 -1.4 -1.4 -1.4 -1.4 -1.4 -1.4 -1.4 -1.4 -1.4 -1.4 -1.4 -1.4 -1.4 -1.4 -1.4 -1.4 -1.4 -1.4 -1.4 -1.4 -1.4 -1.4 -1.4 -1.4 -1.4 -1.4 -1.4 -1.4 -1.4 -1.4 -1.4 -1.4 -1.4 -1.4 -1.4 -1.4 -1.4 -1.4 -1.4 -1.4 -1.4 -1.4 -1.4 -1.4 -1.4 -1.4 -1.4 -1.4 -1.4 -1.4 -1.4 -1.4
136.1 135 134 132.7 131 129.3 127 124.7 121.8 118.3 113.7 109.3 102.2 97.2 95.6 96.6 104.2 110 114.7 118.1 120.1 124.6 126.8 129.8 132.4 135 136.3 136.2 135.5 134.7 133.1 131.4 129.6 127.8 125.1 121.4 117.1 110.9 100.1 98.6 103.6 108 108.7 106.6 101 93.9 83.8 72.9 58.7 47.9 37.6 28.9 6.5 4.8 4.7 4.9 5.2 20 32.6 47.1 61.7 74.9 87.7 102.3 116.9 126.1 131.3 134.9 137.1 138 137.5 136.9 136.1 134.8 131.6 129 125.3 121.6 120.7 116.2 113.3 109.5 105.6 100.8 95.7 98.9 89.4 79.3 55.4 34.2 15.7 -1.4 -1.4 -1.4 -1.4 -1.4 -1.4 -1.4 -1.4 -1.4 -1.4 -1.4 -1.4 -1.4 -1.4 -1.4 -1.4 -1.4 -1.4 -1.4 -1.4 -1.4 -1.4 -1.4 -1.4 -1.4 -1.4 -1.4 -1.4 -1.4 -1.4 -1.4 -1.4 -1.4 -1.4 -1.4 -1.4 -1.4 -1.4 -1.4 -1.4 -1.4 -1.4 -1.4 -1.4 -1.4 -1.4 -1.4 -1.4 -1.4 -1.4 -1.4 -1.4 -1.4 -1.4 -1.4 -1.4 -1.4 -1.4 -1.4 -1.4 -1.4 -1.4 -1.4 -1.4 -1.4 -1.4 -1.4 -1.4 -1.4 -1.4 -1.4 -1.4 -1.4 -1.4 -1.4 -1.4 -1.4 -1.4 -1.4 -1.4 -1.4 -1.4 -1.4 -1.4 -1.4 -1.4 -1.4 -1.4 -1.4 -1.4 -1.4 -1.4 -1.4 -1.4 -1.4 -1.4 -1.4 -1.4 -1.4 -1.4 -1.4 -1.4 -1.4 -1.4 -1.4 -1.4 -1.4 -1.4 -1.4
137.2 137.7 137.1 136 134.3 132.3 129.9 127.5 123.9 119.3 115.1 110.6 106.5 101.1 95.3 94.2 106.6 111.2 114.9 117.4 119.7 123.4 126.7 130 132.6 135.3 136.5 136.7 136.4 135.9 133.6 131.9 130.7 129.2 127.1 123.9 119.5 113.9 99.4 95.5 104.3 110 112.2 111.7 107.9 102.1 94.5 84.6 73.1 62.1 50 38.2 18.8 4.7 4.9 4.9 4.5 8.1 18.8 34.6 51.9 65.6 77.9 91.4 106.8 120.6 127.8 132 134.3 135.3 135 134.2 132.5 130.2 127.9 125.7 121.8 118.5 113.6 109.8 108.4 104.7 98.5 89.8 74.9 79.5 67.5 38.3 22.5 -1.4 -1.4 -1.4 -1.4 -1.4 -1.4 -1.4 -1.4 -1.4 -1.4 -1.4 -1.4 -1.4 -1.4 -1.4 -1.4 -1.4 -1.4 -1.4 -1.4 -1.4 -1.4 -1.4 -1.4 -1.4 -1.4 -1.4 -1.4 -1.4 -1.4 -1.4 -1.4 -1.4 -1.4 -1.4 -1.4 -1.4 -1.4 -1.4 -1.4 -1.4 -1.4 -1.4 -1.4 -1.4 -1.4 -1.4 -1.4 -1.4 -1.4 -1.4 -1.4 -1.4 -1.4 -1.4 -1.4 -1.4 -1.4 -1.4 -1.4 -1.4 -1.4 -1.4 -1.4 -1.4 -1.4 -1.4 -1.4 -1.4 -1.4 -1.4 -1.4 -1.4 -1.4 -1.4 -1.4 -1.4 -1.4 -1.4 -1.4 -1.4 -1.4 -1.4 -1.4 -1.4 -1.4 -1.4 -1.4 -1.4 -1.4 -1.4 -1.4 -1.4 -1.4 -1.4 -1.4 -1.4 -1.4 -1.4 -1.4 -1.4 -1.4 -1.4 -1.4 -1.4 -1.4 -1.4 -1.4 -1.4 -1.4 -1.4
137.9 138.9 139.1 138 136.7 134.7 132.1 129.1 124.9 120.1 116.1 112.2 108.4 104.5 99.6 91.5 104.9 107.9 110.5 114.1 118.9 123.3 126.9 130.2 132.9 135.3 136 136.2 136 135 133.7 131.9 130.5 128.6 126.4 123.9 120.8 114.2 99.6 93.7 105.8 111.4 113.2 113.1 111 106.9 99.4 94 85.8 75.5 62.4 47.1 26.5 5.3 4.6 4.5 4.5 11.8 22.1 31.6 43.2 58.7 71.2 83.7 99 116.3 124.9 128.7 131.4 132.6 132.5 130.9 129 126 123.4 120.7 116.9 113.1 107.2 99 100.7 95.9 85.7 72.2 47.7 46.3 42.5 9.9 -1.4 -1.4 -1.4 -1.4 -1.4 -1.4 -1.4 -1.4 -1.4 -1.4 -1.4 -1.4 -1.4 -1.4 -1.4 -1.4 -1.4 -1.4 -1.4 -1.4 -1.4 -1.4 -1.4 -1.4 -1.4 -1.4 -1.4 -1.4 -1.4 -1.4 -1.4 -1.4 -1.4 -1.4 -1.4 -1.4 -1.4 -1.4 -1.4 -1.4 -1.4 -1.4 -1.4 -1.4 -1.4 -1.4 -1.4 -1.4 -1.4 -1.4 -1.4 -1.4 -1.4 -1.4 -1.4 -1.4 -1.4 -1.4 -1.4 -1.4 -1.4 -1.4 -1.4 -1.4 -1.4 -1.4 -1.4 -1.4 -1.4 -1.4 -1.4 -1.4 -1.4 -1.4 -1.4 -1.4 -1.4 -1.4 -1.4 -1.4 -1.4 -1.4 -1.4 -1.4 -1.4 -1.4 -1.4 -1.4 -1.4 -1.4 -1.4 -1.4 -1.4 -1.4 -1.4 -1.4 -1.4 -1.4 -1.4 -1.4 -1.4 -1.4 -1.4 -1.4 -1.4 -1.4 -1.4 -1.4 -1.4 -1.4 -1.4 -1.4
138.5 139.2 139.8 139.7 138.2 135.6 133.2 129.9 125.6 120.8 115.8 109.4 108.1 104.6 99.3 91.2 89.9 98.1 105 113.1 118.7 123.3 127 129.6 131.7 133.8 134.6 134.7 134.6 133.5 132.3 130.2 128.3 126.4 124.1 121.6 118.6 113.3 95.6 92 103.9 108 110.5 111.7 112.2 110.1 106.1 99.6 93.7 86.3 76.4 59 35.1 13.4 4.7 4.6 4.6 18.5 33.4 44.8 55.4 64.8 72.9 82.7 95.8 113.8 122.6 126.6 128.6 129.7 129.5 127.6 125.3 121.3 119.1 116.5 113.5 109.1 104.1 85.7 95.1 83.8 68.8 54.2 22.7 3.9 -1.4 -1.4 -1.4 -1.4 -1.4 -1.4 -1.4 -1.4 -1.4 -1.4 -1.4 -1.4 -1.4 -1.4 -1.4 -1.4 -1.4 -1.4 -1.4 -1.4 -1.4 -1.4 -1.4 -1.4 -1.4 -1.4 -1.4 -1.4 -1.4 -1.4 -1.4 -1.4 -1.4 -1.4 -1.4 -1.4 -1.4 -1.4 -1.4 -1.4 -1.4 -1.4 -1.4 -1.4 -1.4 -1.4 -1.4 -1.4 -1.4 -1.4 -1.4 -1.4 -1.4 -1.4 -1.4 -1.4 -1.4 -1.4 -1.4 -1.4 -1.4 -1.4 -1.4 -1.4 -1.4 -1.4 -1.4 -1.4 -1.4 -1.4 -1.4 -1.4 -1.4 -1.4 -1.4 -1.4 -1.4 -1.4 -1.4 -1.4 -1.4 -1.4 -1.4 -1.4 -1.4 -1.4 -1.4 -1.4 -1.4 -1.4 -1.4 -1.4 -1.4 -1.4 -1.4 -1.4 -1.4 -1.4 -1.4 -1.4 -1.4 -1.4 -1.4 -1.4 -1.4 -1.4 -1.4 -1.4 -1.4 -1.4 -1.4 -1.4 -1.4 -1.4
138.1 138.9 139.6 139.6 138.2 135.4 133 129.8 125.6 121.2 115.4 108.5 107.4 101.8 97.4 92.2 86.8 86.2 100.1 111.2 118.4 122.5 125.6 128.2 130.3 132.3 133 133.4 132.6 131.6 129.4 127.2 125.2 122.8 120.4 117.7 114.6 110.4 96.9 85.9 90 98.4 104.9 108 110.6 110.3 107.5 103.3 97.4 91.3 82.6 69.9 46.9 21.7 7.9 5.2 6 21.4 39.9 53.5 68.2 78.4 84.2 92.1 103.4 114.7 121.4 124.8 126 126.7 126.4 124.3 121.6 117.3 114.5 112.1 106 102.8 95.6 82.7 68.9 65.9 49.1 30.8 4.4 -1.4 -1.4 -1.4 -1.4 -1.4 -1.4 -1.4 -1.4 -1.4 -1.4 -1.4 -1.4 -1.4 -1.4 -1.4 -1.4 -1.4 -1.4 -1.4 -1.4 -1.4 -1.4 -1.4 -1.4 -1.4 -1.4 -1.4 -1.4 -1.4 -1.4 -1.4 -1.4 -1.4 -1.4 -1.4 -1.4 -1.4 -1.4 -1.4 -1.4 -1.4 -1.4 -1.4 -1.4 -1.4 -1.4 -1.4 -1.4 -1.4 -1.4 -1.4 -1.4 -1.4 -1.4 -1.4 -1.4 -1.4 -1.4 -1.4 -1.4 -1.4 -1.4 -1.4 -1.4 -1.4 -1.4 -1.4 -1.4 -1.4 -1.4 -1.4 -1.4 -1.4 -1.4 -1.4 -1.4 -1.4 -1.4 -1.4 -1.4 -1.4 -1.4 -1.4 -1.4 -1.4 -1.4 -1.4 -1.4 -1.4 -1.4 -1.4 -1.4 -1.4 -1.4 -1.4 -1.4 -1.4 -1.4 -1.4 -1.4 -1.4 -1.4 -1.4 -1.4 -1.4 -1.4 -1.4 -1.4 -1.4 -1.4 -1.4 -1.4 -1.4 -1.4 -1.4
137.8 138.6 139.4 138.6 137 135.1 132.7 129.7 125.5 121.8 117.1 112.8 108.1 106.4 104.4 100.9 93.8 85.1 87.1 105.5 114.9 120.6 124.1 126.8 128.8 130.7 131.7 131.5 130.5 128.9 126.5 123.9 120.5 117.1 114 111.2 108.4 105.1 100.6 84.3 79 86.6 96 103.9 108.1 109.6 107.4 103.7 98.7 91.1 82.1 70.6 53.6 29.8 7 4.6 4.9 25.7 45.6 63.6 79.8 89.3 96.4 103 110.7 116.3 120 123 123.9 123.7 123.4 121.5 117.9 113.6 109.6 105.4 98.7 91.9 81.2 66.8 51.1 43.6 25.3 5 -1.4 -1.4 -1.4 -1.4 -1.4 -1.4 -1.4 -1.4 -1.4 -1.4 -1.4 -1.4 -1.4 -1.4 -1.4 -1.4 -1.4 -1.4 -1.4 -1.4 -1.4 -1.4 -1.4 -1.4 -1.4 -1.4 -1.4 -1.4 -1.4 -1.4 -1.4 -1.4 -1.4 -1.4 -1.4 -1.4 -1.4 -1.4 -1.4 -1.4 -1.4 -1.4 -1.4 -1.4 -1.4 -1.4 -1.4 -1.4 -1.4 -1.4 -1.4 -1.4 -1.4 -1.4 -1.4 -1.4 -1.4 -1.4 -1.4 -1.4 -1.4 -1.4 -1.4 -1.4 -1.4 -1.4 -1.4 -1.4 -1.4 -1.4 -1.4 -1.4 -1.4 -1.4 -1.4 -1.4 -1.4 -1.4 -1.4 -1.4 -1.4 -1.4 -1.4 -1.4 -1.4 -1.4 -1.4 -1.4 -1.4 -1.4 -1.4 -1.4 -1.4 -1.4 -1.4 -1.4 -1.4 -1.4 -1.4 -1.4 -1.4 -1.4 -1.4 -1.4 -1.4 -1.4 -1.4 -1.4 -1.4 -1.4 -1.4 -1.4 -1.4 -1.4 -1.4 -1.4
136.8 137.4 137.5 137.1 135.6 134.4 132.2 129.9 126.6 123.7 120.3 117 114 110.1 108.1 104.9 99.5 90 80.5 96.1 109.5 117.3 122.8 125 127.4 129.4 130.5 129.4 128.4 126.2 124.3 120.2 116.1 110.5 106.7 104.3 101.8 98.6 94.3 85.4 74.6 74.7 85.6 98.5 105.8 107.3 105.8 102.3 97.5 89.2 78.6 66.3 49.2 28.4 7.8 4.6 5.9 30.7 54.2 72.4 87 99.8 105.4 109.4 113.1 117.1 119.7 121.7 122.2 121.4 120.1 118.2 114.1 108.6 103.7 98.8 90.1 72.9 56.5 46.3 36.1 18.2 3.3 -1.4 -1.4 -1.4 -1.4 -1.4 -1.4 -1.4 -1.4 -1.4 -1.4 -1.4 -1.4 -1.4 -1.4 -1.4 -1.4 -1.4 -1.4 -1.4 -1.4 -1.4 -1.4 -1.4 -1.4 -1.4 -1.4 -1.4 -1.4 -1.4 -1.4 -1.4 -1.4 -1.4 -1.4 -1.4 -1.4 -1.4 -1.4 -1.4 -1.4 -1.4 -1.4 -1.4 -1.4 -1.4 -1.4 -1.4 -1.4 -1.4 -1.4 -1.4 -1.4 -1.4 -1.4 -1.4 -1.4 -1.4 -1.4 -1.4 -1.4 -1.4 -1.4 -1.4 -1.4 -1.4 -1.4 -1.4 -1.4 -1.4 -1.4 -1.4 -1.4 -1.4 -1.4 -1.4 -1.4 -1.4 -1.4 -1.4 -1.4 -1.4 -1.4 -1.4 -1.4 -1.4 -1.4 -1.4 -1.4 -1.4 -1.4 -1.4 -1.4 -1.4 -1.4 -1.4 -1.4 -1.4 -1.4 -1.4 -1.4 -1.4 -1.4 -1.4 -1.4 -1.4 -1.4 -1.4 -1.4 -1.4 -1.4 -1.4 -1.4 -1.4 -1.4 -1.4 -1.4 -1.4
134.6 135 135.2 134.7 134.1 133.2 131.7 129.9 127.1 125.1 122.4 119 116 112.5 109 105 100.1 93.5 79.2 86.6 101.6 112.7 118.8 123 125.8 127.5 128.7 127.8 127 124.4 122.5 118.4 113.3 110.1 106.8 103.2 99.3 95.6 87.1 83.7 78.7 70.2 78.6 95.8 104.2 104.8 104 101.5 95.6 87.7 75.3 57.5 37.2 17 4.7 4.5 10.4 37.6 63.6 81.3 98 106.4 110.4 113.4 115.6 117.5 118.9 120.3 120.6 119.2 117.8 114.7 110.6 104.9 95.6 89 75.7 53.4 39.5 20.9 5.9 3.1 -1.4 -1.4 -1.4 -1.4 -1.4 -1.4 -1.4 -1.4 -1.4 -1.4 -1.4 -1.4 -1.4 -1.4 -1.4 -1.4 -1.4 -1.4 -1.4 -1.4 -1.4 -1.4 -1.4 -1.4 -1.4 -1.4 -1.4 -1.4 -1.4 -1.4 -1.4 -1.4 -1.4 -1.4 -1.4 -1.4 -1.4 -1.4 -1.4 -1.4 -1.4 -1.4 -1.4 -1.4 -1.4 -1.4 -1.4 -1.4 -1.4 -1.4 -1.4 -1.4 -1.4 -1.4 -1.4 -1.4 -1.4 -1.4 -1.4 -1.4 -1.4 -1.4 -1.4 -1.4 -1.4 -1.4 -1.4 -1.4 -1.4 -1.4 -1.4 -1.4 -1.4 -1.4 -1.4 -1.4 -1.4 -1.4 -1.4 -1.4 -1.4 -1.4 -1.4 -1.4 -1.4 -1.4 -1.4 -1.4 -1.4 -1.4 -1.4 -1.4 -1.4 -1.4 -1.4 -1.4 -1.4 -1.4 -1.4 -1.4 -1.4 -1.4 -1.4 -1.4 -1.4 -1.4 -1.4 -1.4 -1.4 -1.4 -1.4 -1.4 -1.4 -1.4 -1.4 -1.4 -1.4 -1.4
131.8 132.2 132.6 132.6 132 131.3 130.2 128.9 127.9 126 123.6 120.2 116.4 112.8 109.3 103.9 97.7 93.5 84.4 75.8 92.2 106.3 115 120.4 123.9 125.2 126.5 127.2 126.2 124.7 121.7 119.5 116.6 114.5 113.2 111.1 110 106.8 102.5 97.2 85.5 69.8 74.5 91 100.2 101.6 102.5 101 95.5 89.1 76.1 51.8 24.9 5 4.6 4.4 14.3 44.5 71.1 90.3 103.8 109.9 112.8 115 116 117 118.1 118.4 117.8 116.2 114.1 111.4 107.7 100.5 89.2 70.9 56.1 40.9 4.7 5.8 5.5 -1.4 -1.4 -1.4 -1.4 -1.4 -1.4 -1.4 -1.4 -1.4 -1.4 -1.4 -1.4 -1.4 -1.4 -1.4 -1.4 -1.4 -1.4 -1.4 -1.4 -1.4 -1.4 -1.4 -1.4 -1.4 -1.4 -1.4 -1.4 -1.4 -1.4 -1.4 -1.4 -1.4 -1.4 -1.4 -1.4 -1.4 -1.4 -1.4 -1.4 -1.4 -1.4 -1.4 -1.4 -1.4 -1.4 -1.4 -1.4 -1.4 -1.4 -1.4 -1.4 -1.4 -1.4 -1.4 -1.4 -1.4 -1.4 -1.4 -1.4 -1.4 -1.4 -1.4 -1.4 -1.4 -1.4 -1.4 -1.4 -1.4 -1.4 -1.4 -1.4 -1.4 -1.4 -1.4 -1.4 -1.4 -1.4 -1.4 -1.4 -1.4 -1.4 -1.4 -1.4 -1.4 -1.4 -1.4 -1.4 -1.4 -1.4 -1.4 -1.4 -1.4 -1.4 -1.4 -1.4 -1.4 -1.4 -1.4 -1.4 -1.4 -1.4 -1.4 -1.4 -1.4 -1.4 -1.4 -1.4 -1.4 -1.4 -1.4 -1.4 -1.4 -1.4 -1.4 -1.4 -1.4 -1.4 -1.4
127.8 129.4 129.3 129.4 129.5 129.5 128.3 127.6 127.2 126.4 124.2 122.2 118.8 114.9 111.3 105.8 102.2 101.8 94.3 76.3 79.5 95.1 110.3 117.2 121.6 123.8 125.2 126.4 125.8 124.6 123.1 121.5 119.9 118 117.2 116.2 114.4 111.9 108.5 102.4 89.1 67.9 66.7 81.9 92.8 96.6 100.1 101.3 98.5 92.3 80.9 56.9 25.4 4.9 4.6 6.6 16.7 48 75.4 93.7 104.3 110.4 113 114.2 114.8 115.9 115.6 115.8 114.1 112.5 110.3 108.1 101.3 93.6 81.9 62.4 43.3 10.9 5.7 6.4 -1.4 -1.4 -1.4 -1.4 -1.4 -1.4 -1.4 -1.4 -1.4 -1.4 -1.4 -1.4 -1.4 -1.4 -1.4 -1.4 -1.4 -1.4 -1.4 -1.4 -1.4 -1.4 -1.4 -1.4 -1.4 -1.4 -1.4 -1.4 -1.4 -1.4 -1.4 -1.4 -1.4 -1.4 -1.4 -1.4 -1.4 -1.4 -1.4 -1.4 -1.4 -1.4 -1.4 -1.4 -1.4 -1.4 -1.4 -1.4 -1.4 -1.4 -1.4 -1.4 -1.4 -1.4 -1.4 -1.4 -1.4 -1.4 -1.4 -1.4 -1.4 -1.4 -1.4 -1.4 -1.4 -1.4 -1.4 -1.4 -1.4 -1.4 -1.4 -1.4 -1.4 -1.4 -1.4 -1.4 -1.4 -1.4 -1.4 -1.4 -1.4 -1.4 -1.4 -1.4 -1.4 -1.4 -1.4 -1.4 -1.4 -1.4 -1.4 -1.4 -1.4 -1.4 -1.4 -1.4 -1.4 -1.4 -1.4 -1.4 -1.4 -1.4 -1.4 -1.4 -1.4 -1.4 -1.4 -1.4 -1.4 -1.4 -1.4 -1.4 -1.4 -1.4 -1.4 -1.4 -1.4 -1.4 -1.4 -1.4
121.2 124.8 125.9 126 126.2 126.3 126.7 126.9 126.3 125.8 124.8 122.8 120.8 117.7 114.8 110.1 108 106.3 100.1 82.7 69 86.3 105.1 114.1 119.3 122.2 123.8 125 125.6 125 124.5 122.9 120.9 119.9 117.4 115 113.8 112 108 103 93.1 70.5 59.9 68.6 79.6 90.4 98.5 102.5 100.3 95.2 85.9 61.4 32.7 9.5 4.5 4.3 15.9 49.2 73.5 91.9 102 107.9 110.7 112.7 113.5 113.4 113.2 112.2 110.5 108.7 105.7 102.1 95 85.6 68.9 48.4 18 6.1 6.4 4 -1.4 -1.4 -1.4 -1.4 -1.4 -1.4 -1.4 -1.4 -1.4 -1.4 -1.4 -1.4 -1.4 -1.4 -1.4 -1.4 -1.4 -1.4 -1.4 -1.4 -1.4 -1.4 -1.4 -1.4 -1.4 -1.4 -1.4 -1.4 -1.4 -1.4 -1.4 -1.4 -1.4 -1.4 -1.4 -1.4 -1.4 -1.4 -1.4 -1.4 -1.4 -1.4 -1.4 -1.4 -1.4 -1.4 -1.4 -1.4 -1.4 -1.4 -1.4 -1.4 -1.4 -1.4 -1.4 -1.4 -1.4 -1.4 -1.4 -1.4 -1.4 -1.4 -1.4 -1.4 -1.4 -1.4 -1.4 -1.4 -1.4 -1.4 -1.4 -1.4 -1.4 -1.4 -1.4 -1.4 -1.4 -1.4 -1.4 -1.4 -1.4 -1.4 -1.4 -1.4 -1.4 -1.4 -1.4 -1.4 -1.4 -1.4 -1.4 -1.4 -1.4 -1.4 -1.4 -1.4 -1.4 -1.4 -1.4 -1.4 -1.4 -1.4 -1.4 -1.4 -1.4 -1.4 -1.4 -1.4 -1.4 -1.4 -1.4 -1.4 -1.4 -1.4 -1.4 -1.4 -1.4 -1.4 -1.4 -1.4
112.7 116.5 120.8 121.8 122 121.9 123.6 125.2 125.9 125.4 125 124 122.1 120.1 117.7 115.7 113.5 109.5 103.4 88.6 68.3 76.6 95.2 109.3 115.9 120.2 123.2 124.5 125.8 125.6 125.2 123.7 121.7 119.4 115.8 112.9 110.2 107.2 104.3 99.9 95.1 77.4 58.5 57.2 69 85 96.8 101.7 99.2 94.9 86.8 63.6 31.4 8.5 4.3 3.9 15.4 46.5 68.1 84.7 98.2 104.6 108.2 110.5 110.8 110.7 110.2 109 107.3 104.7 99.2 93.6 84.3 67.8 54.9 33.2 5.8 6.4 3.9 -1.4 -1.4 -1.4 -1.4 -1.4 -1.4 -1.4 -1.4 -1.4 -1.4 -1.4 -1.4 -1.4 -1.4 -1.4 -1.4 -1.4 -1.4 -1.4 -1.4 -1.4 -1.4 -1.4 -1.4 -1.4 -1.4 -1.4 -1.4 -1.4 -1.4 -1.4 -1.4 -1.4 -1.4 -1.4 -1.4 -1.4 -1.4 -1.4 -1.4 -1.4 -1.4 -1.4 -1.4 -1.4 -1.4 -1.4 -1.4 -1.4 -1.4 -1.4 -1.4 -1.4 -1.4 -1.4 -1.4 -1.4 -1.4 -1.4 -1.4 -1.4 -1.4 -1.4 -1.4 -1.4 -1.4 -1.4 -1.4 -1.4 -1.4 -1.4 -1.4 -1.4 -1.4 -1.4 -1.4 -1.4 -1.4 -1.4 -1.4 -1.4 -1.4 -1.4 -1.4 -1.4 -1.4 -1.4 -1.4 -1.4 -1.4 -1.4 -1.4 -1.4 -1.4 -1.4 -1.4 -1.4 -1.4 -1.4 -1.4 -1.4 -1.4 -1.4 -1.4 -1.4 -1.4 -1.4 -1.4 -1.4 -1.4 -1.4 -1.4 -1.4 -1.4 -1.4 -1.4 -1.4 -1.4 -1.4 -1.4 -1.4
109.7 109.1 115.3 116.9 116.8 117.8 121.4 124.1 125.3 125.2 124.9 124.3 123.2 121.4 119.3 117.4 115.1 112 105.3 90.2 69.6 68.1 85.7 102.6 112.5 118.4 121.8 124.2 125.5 125.5 125.2 123.8 121.4 118.6 114.8 109.9 106.6 103.6 98.6 96.2 91.4 84.7 63.9 48.7 60.9 78 93.1 97.9 96.1 92.4 85.6 67.6 32 11.6 4.1 3.6 14.4 40.2 59.3 74.1 90.5 99.8 104.7 107.5 108.1 107.6 106.7 105.9 103.2 98.8 91.1 83 72.6 58.2 40.7 16.4 6.3 6.6 0.9 -1.4 -1.4 -1.4 -1.4 -1.4 -1.4 -1.4 -1.4 -1.4 -1.4 -1.4 -1.4 -1.4 -1.4 -1.4 -1.4 -1.4 -1.4 -1.4 -1.4 -1.4 -1.4 -1.4 -1.4 -1.4 -1.4 -1.4 -1.4 -1.4 -1.4 -1.4 -1.4 -1.4 -1.4 -1.4 -1.4 -1.4 -1.4 -1.4 -1.4 -1.4 -1.4 -1.4 -1.4 -1.4 -1.4 -1.4 -1.4 -1.4 -1.4 -1.4 -1.4 -1.4 -1.4 -1.4 -1.4 -1.4 -1.4 -1.4 -1.4 -1.4 -1.4 -1.4 -1.4 -1.4 -1.4 -1.4 -1.4 -1.4 -1.4 -1.4 -1.4 -1.4 -1.4 -1.4 -1.4 -1.4 -1.4 -1.4 -1.4 -1.4 -1.4 -1.4 -1.4 -1.4 -1.4 -1.4 -1.4 -1.4 -1.4 -1.4 -1.4 -1.4 -1.4 -1.4 -1.4 -1.4 -1.4 -1.4 -1.4 -1.4 -1.4 -1.4 -1.4 -1.4 -1.4 -1.4 -1.4 -1.4 -1.4 -1.4 -1.4 -1.4 -1.4 -1.4 -1.4 -1.4 -1.4 -1.4 -1.4 -1.4
118.1 108.1 106.4 112.7 111.2 114.3 118.9 122.1 124.1 125 124.7 123.8 122.9 121.7 119.9 118.1 115.6 112.1 105.7 90.5 71.2 58.4 77.8 99.3 111.8 117.2 120.8 123.2 124.5 124.8 123.9 122.8 120.9 117.9 113.1 107.5 101.3 95.9 89.8 88.3 84.4 78.9 63.4 46.2 57.8 71.1 90.2 94 92.1 88.6 83.3 72.3 44.9 19.1 4.3 3.7 10.2 31.2 50 64.9 80.4 93.2 101 103.9 104.8 104.2 103.4 101.8 98.8 92.5 84.2 74.3 61.3 44.7 23.2 6.3 5.4 2.5 -1.4 -1.4 -1.4 -1.4 -1.4 -1.4 -1.4 -1.4 -1.4 -1.4 -1.4 -1.4 -1.4 -1.4 -1.4 -1.4 -1.4 -1.4 -1.4 -1.4 -1.4 -1.4 -1.4 -1.4 -1.4 -1.4 -1.4 -1.4 -1.4 -1.4 -1.4 -1.4 -1.4 -1.4 -1.4 -1.4 -1.4 -1.4 -1.4 -1.4 -1.4 -1.4 -1.4 -1.4 -1.4 -1.4 -1.4 -1.4 -1.4 -1.4 -1.4 -1.4 -1.4 -1.4 -1.4 -1.4 -1.4 -1.4 -1.4 -1.4 -1.4 -1.4 -1.4 -1.4 -1.4 -1.4 -1.4 -1.4 -1.4 -1.4 -1.4 -1.4 -1.4 -1.4 -1.4 -1.4 -1.4 -1.4 -1.4 -1.4 -1.4 -1.4 -1.4 -1.4 -1.4 -1.4 -1.4 -1.4 -1.4 -1.4 -1.4 -1.4 -1.4 -1.4 -1.4 -1.4 -1.4 -1.4 -1.4 -1.4 -1.4 -1.4 -1.4 -1.4 -1.4 -1.4 -1.4 -1.4 -1.4 -1.4 -1.4 -1.4 -1.4 -1.4 -1.4 -1.4 -1.4 -1.4 -1.4 -1.4 -1.4 -1.4
121.6 109.2 100.6 107.9 106.8 109.9 116.8 120.3 122.5 123.5 123.7 122.4 121 120.8 119.6 118.1 115.6 111.8 105.8 86.4 67.7 54.2 74.8 95 109.9 115.5 119.9 122.2 123.5 123.7 122.7 121.5 120.3 117.4 113 107.1 98.8 89.6 81.7 72.6 71.6 64.6 50.7 40.8 55.9 68.6 82.5 88 86.5 82.9 78.6 72 52 25 4.5 3.9 3.5 18.5 35.4 52.8 70.2 86.7 96.2 99.1 99.8 98.8 97.9 96.4 92.5 85.4 76.4 62.4 46.6 32.7 5.7 5.6 2.7 -1.4 -1.4 -1.4 -1.4 -1.4 -1.4 -1.4 -1.4 -1.4 -1.4 -1.4 -1.4 -1.4 -1.4 -1.4 -1.4 -1.4 -1.4 -1.4 -1.4 -1.4 -1.4 -1.4 -1.4 -1.4 -1.4 -1.4 -1.4 -1.4 -1.4 -1.4 -1.4 -1.4 -1.4 -1.4 -1.4 -1.4 -1.4 -1.4 -1.4 -1.4 -1.4 -1.4 -1.4 -1.4 -1.4 -1.4 -1.4 -1.4 -1.4 -1.4 -1.4 -1.4 -1.4 -1.4 -1.4 -1.4 -1.4 -1.4 -1.4 -1.4 -1.4 -1.4 -1.4 -1.4 -1.4 -1.4 -1.4 -1.4 -1.4 -1.4 -1.4 -1.4 -1.4 -1.4 -1.4 -1.4 -1.4 -1.4 -1.4 -1.4 -1.4 -1.4 -1.4 -1.4 -1.4 -1.4 -1.4 -1.4 -1.4 -1.4 -1.4 -1.4 -1.4 -1.4 -1.4 -1.4 -1.4 -1.4 -1.4 -1.4 -1.4 -1.4 -1.4 -1.4 -1.4 -1.4 -1.4 -1.4 -1.4 -1.4 -1.4 -1.4 -1.4 -1.4 -1.4 -1.4 -1.4 -1.4 -1.4 -1.4 -1.4 -1.4
120.9 111.2 96.9 99 99.2 104.3 112.8 116.7 119.8 120.7 121.1 120.3 119.6 118.3 118.2 116.7 114.3 110.9 103.1 81.1 61.4 51.5 71.5 89.9 104.8 112.3 117.7 120 121.1 122.1 121.5 120.3 119.2 118.4 116 111.4 106.5 100.9 93.3 81.8 71.9 62 52.7 37.4 50.7 64.6 74.2 76.6 76.4 74.9 71.1 65.9 60.4 34.1 8.9 4.2 3.6 4.3 20.5 39.2 59.3 77.8 89.5 93.5 93.3 92.2 91 89.6 84.8 76.4 65.9 49.4 33.3 17.8 6.7 6.4 0.8 -1.4 -1.4 -1.4 -1.4 -1.4 -1.4 -1.4 -1.4 -1.4 -1.4 -1.4 -1.4 -1.4 -1.4 -1.4 -1.4 -1.4 -1.4 -1.4 -1.4 -1.4 -1.4 -1.4 -1.4 -1.4 -1.4 -1.4 -1.4 -1.4 -1.4 -1.4 -1.4 -1.4 -1.4 -1.4 -1.4 -1.4 -1.4 -1.4 -1.4 -1.4 -1.4 -1.4 -1.4 -1.4 -1.4 -1.4 -1.4 -1.4 -1.4 -1.4 -1.4 -1.4 -1.4 -1.4 -1.4 -1.4 -1.4 -1.4 -1.4 -1.4 -1.4 -1.4 -1.4 -1.4 -1.4 -1.4 -1.4 -1.4 -1.4 -1.4 -1.4 -1.4 -1.4 -1.4 -1.4 -1.4 -1.4 -1.4 -1.4 -1.4 -1.4 -1.4 -1.4 -1.4 -1.4 -1.4 -1.4 -1.4 -1.4 -1.4 -1.4 -1.4 -1.4 -1.4 -1.4 -1.4 -1.4 -1.4 -1.4 -1.4 -1.4 -1.4 -1.4 -1.4 -1.4 -1.4 -1.4 -1.4 -1.4 -1.4 -1.4 -1.4 -1.4 -1.4 -1.4 -1.4 -1.4 -1.4 -1.4 -1.4 -1.4 -1.4
119.1 111.5 98.9 90.1 88.1 93.8 105.5 111.9 115.1 116.5 117 116.4 115.8 114.8 115 115.1 113.1 109.2 99.6 76.7 55.5 48.8 65.2 81.7 99.3 109.9 114.4 117.1 119.7 120.1 118.6 118.1 119.4 119.3 118 115.6 112.5 109.2 103.6 96.2 89 80.2 63.4 42.1 41.2 52.6 60.9 63.1 63 63.9 60.4 55.1 50.1 40.9 17.5 4.5 4 3.6 6.8 25.4 45.9 65.9 81.1 86 84.8 83.8 82.7 80.1 74.7 65.6 51 34.6 27.1 6.2 6.5 2 -1.4 -1.4 -1.4 -1.4 -1.4 -1.4 -1.4 -1.4 -1.4 -1.4 -1.4 -1.4 -1.4 -1.4 -1.4 -1.4 -1.4 -1.4 -1.4 -1.4 -1.4 -1.4 -1.4 -1.4 -1.4 -1.4 -1.4 -1.4 -1.4 -1.4 -1.4 -1.4 -1.4 -1.4 -1.4 -1.4 -1.4 -1.4 -1.4 -1.4 -1.4 -1.4 -1.4 -1.4 -1.4 -1.4 -1.4 -1.4 -1.4 -1.4 -1.4 -1.4 -1.4 -1.4 -1.4 -1.4 -1.4 -1.4 -1.4 -1.4 -1.4 -1.4 -1.4 -1.4 -1.4 -1.4 -1.4 -1.4 -1.4 -1.4 -1.4 -1.4 -1.4 -1.4 -1.4 -1.4 -1.4 -1.4 -1.4 -1.4 -1.4 -1.4 -1.4 -1.4 -1.4 -1.4 -1.4 -1.4 -1.4 -1.4 -1.4 -1.4 -1.4 -1.4 -1.4 -1.4 -1.4 -1.4 -1.4 -1.4 -1.4 -1.4 -1.4 -1.4 -1.4 -1.4 -1.4 -1.4 -1.4 -1.4 -1.4 -1.4 -1.4 -1.4 -1.4 -1.4 -1.4 -1.4 -1.4 -1.4 -1.4 -1.4 -1.4 -1.4
118.9 113.9 104.8 95.4 86.2 84.3 92 105 109 111 111.4 111.3 110.8 111.1 112 113.4 111.8 108.2 99.2 77.4 56.2 45.2 60.7 78.2 97.7 108 112.6 116.2 117.7 117 116.6 116.3 118.3 118.7 119.1 117.6 115.9 113.6 111.5 107.8 102.9 93.2 77.5 53.4 35.4 36.8 44.3 47.1 46.5 45 40.5 37.7 33.2 27.2 23.4 7.3 5.7 4.1 3.5 12.1 32.8 53.6 71.1 75.2 74.4 73.3 72.5 69.8 64.3 53.9 36.8 25.1 11.4 5.5 3.9 -1.4 -1.4 -1.4 -1.4 -1.4 -1.4 -1.4 -1.4 -1.4 -1.4 -1.4 -1.4 -1.4 -1.4 -1.4 -1.4 -1.4 -1.4 -1.4 -1.4 -1.4 -1.4 -1.4 -1.4 -1.4 -1.4 -1.4 -1.4 -1.4 -1.4 -1.4 -1.4 -1.4 -1.4 -1.4 -1.4 -1.4 -1.4 -1.4 -1.4 -1.4 -1.4 -1.4 -1.4 -1.4 -1.4 -1.4 -1.4 -1.4 -1.4 -1.4 -1.4 -1.4 -1.4 -1.4 -1.4 -1.4 -1.4 -1.4 -1.4 -1.4 -1.4 -1.4 -1.4 -1.4 -1.4 -1.4 -1.4 -1.4 -1.4 -1.4 -1.4 -1.4 -1.4 -1.4 -1.4 -1.4 -1.4 -1.4 -1.4 -1.4 -1.4 -1.4 -1.4 -1.4 -1.4 -1.4 -1.4 -1.4 -1.4 -1.4 -1.4 -1.4 -1.4 -1.4 -1.4 -1.4 -1.4 -1.4 -1.4 -1.4 -1.4 -1.4 -1.4 -1.4 -1.4 -1.4 -1.4 -1.4 -1.4 -1.4 -1.4 -1.4 -1.4 -1.4 -1.4 -1.4 -1.4 -1.4 -1.4 -1.4 -1.4 -1.4 -1.4 -1.4
120.2 117.9 112 104.8 90.6 83 83 97.4 103 104.5 104.3 104.3 104.3 106.8 109.5 111.3 110 106.6 101.1 83.1 62.7 44.4 55.9 74.6 95.1 106.7 111.4 114.4 115.6 115.2 114.1 113.5 116.2 117.6 118.4 118 117.2 116.6 116 114.1 111.1 103.5 91.4 68.6 44.9 28.8 29 29.5 28.7 27.1 25.1 19.5 13.9 7.2 7.2 6.8 4.5 3.7 3.8 3.6 18.3 39.2 57.3 62.9 63.8 62.9 62.6 60.3 53.6 41.8 25.9 18.7 6.4 6.1 -1.4 -1.4 -1.4 -1.4 -1.4 -1.4 -1.4 -1.4 -1.4 -1.4 -1.4 -1.4 -1.4 -1.4 -1.4 -1.4 -1.4 -1.4 -1.4 -1.4 -1.4 -1.4 -1.4 -1.4 -1.4 -1.4 -1.4 -1.4 -1.4 -1.4 -1.4 -1.4 -1.4 -1.4 -1.4 -1.4 -1.4 -1.4 -1.4 -1.4 -1.4 -1.4 -1.4 -1.4 -1.4 -1.4 -1.4 -1.4 -1.4 -1.4 -1.4 -1.4 -1.4 -1.4 -1.4 -1.4 -1.4 -1.4 -1.4 -1.4 -1.4 -1.4 -1.4 -1.4 -1.4 -1.4 -1.4 -1.4 -1.4 -1.4 -1.4 -1.4 -1.4 -1.4 -1.4 -1.4 -1.4 -1.4 -1.4 -1.4 -1.4 -1.4 -1.4 -1.4 -1.4 -1.4 -1.4 -1.4 -1.4 -1.4 -1.4 -1.4 -1.4 -1.4 -1.4 -1.4 -1.4 -1.4 -1.4 -1.4 -1.4 -1.4 -1.4 -1.4 -1.4 -1.4 -1.4 -1.4 -1.4 -1.4 -1.4 -1.4 -1.4 -1.4 -1.4 -1.4 -1.4 -1.4 -1.4 -1.4 -1.4 -1.4 -1.4 -1.4 -1.4 -1.4
122.3 120.3 116 109.7 97.3 79.9 78.4 90.4 93.6 94.7 94.2 93.3 94.7 103.4 106.8 108.4 107.4 103.8 97.8 77.5 60.3 42.1 53 71.1 92.5 104.9 109.3 111.9 112.8 112.7 110.8 110.6 113.1 114.9 115.5 115.9 115.8 115.9 115.7 114.5 111.2 106 97.2 80.9 56.6 41.8 29.4 22.4 19.3 16 12.2 9.4 8.4 6.6 5.1 6.4 4.6 3.6 3.9 3.5 5.2 23 42.3 50.9 52.4 53.9 55.8 52.4 42.5 28.6 18.3 7.1 6.7 2.6 -1.4 -1.4 -1.4 -1.4 -1.4 -1.4 -1.4 -1.4 -1.4 -1.4 -1.4 -1.4 -1.4 -1.4 -1.4 -1.4 -1.4 -1.4 -1.4 -1.4 -1.4 -1.4 -1.4 -1.4 -1.4 -1.4 -1.4 -1.4 -1.4 -1.4 -1.4 -1.4 -1.4 -1.4 -1.4 -1.4 -1.4 -1.4 -1.4 -1.4 -1.4 -1.4 -1.4 -1.4 -1.4 -1.4 -1.4 -1.4 -1.4 -1.4 -1.4 -1.4 -1.4 -1.4 -1.4 -1.4 -1.4 -1.4 -1.4 -1.4 -1.4 -1.4 -1.4 -1.4 -1.4 -1.4 -1.4 -1.4 -1.4 -1.4 -1.4 -1.4 -1.4 -1.4 -1.4 -1.4 -1.4 -1.4 -1.4 -1.4 -1.4 -1.4 -1.4 -1.4 -1.4 -1.4 -1.4 -1.4 -1.4 -1.4 -1.4 -1.4 -1.4 -1.4 -1.4 -1.4 -1.4 -1.4 -1.4 -1.4 -1.4 -1.4 -1.4 -1.4 -1.4 -1.4 -1.4 -1.4 -1.4 -1.4 -1.4 -1.4 -1.4 -1.4 -1.4 -1.4 -1.4 -1.4 -1.4 -1.4 -1.4 -1.4 -1.4 -1.4 -1.4 -1.4
123.6 122.6 119.1 113.4 103 82.4 72.2 75.8 78.1 80.3 78.3 79.8 92.9 99.3 103.3 105.1 103.6 99.6 92.5 70.1 51.6 36.1 53.1 72.8 92.4 102.3 106.6 109 110 109.6 107.8 106.2 108.2 110.3 112.1 112.5 113.1 113.9 114 112.7 110 106.5 100.9 91.2 72.6 53.4 45.7 39.9 35.9 33.5 30.9 29.8 28.5 28.6 25.7 21.7 16 4.7 4.2 4 3.9 8.7 27.3 39.1 40.4 42.8 45.4 41.2 30.5 18.6 14 6.5 4 -1.4 -1.4 -1.4 -1.4 -1.4 -1.4 -1.4 -1.4 -1.4 -1.4 -1.4 -1.4 -1.4 -1.4 -1.4 -1.4 -1.4 -1.4 -1.4 -1.4 -1.4 -1.4 -1.4 -1.4 -1.4 -1.4 -1.4 -1.4 -1.4 -1.4 -1.4 -1.4 -1.4 -1.4 -1.4 -1.4 -1.4 -1.4 -1.4 -1.4 -1.4 -1.4 -1.4 -1.4 -1.4 -1.4 -1.4 -1.4 -1.4 -1.4 -1.4 -1.4 -1.4 -1.4 -1.4 -1.4 -1.4 -1.4 -1.4 -1.4 -1.4 -1.4 -1.4 -1.4 -1.4 -1.4 -1.4 -1.4 -1.4 -1.4 -1.4 -1.4 -1.4 -1.4 -1.4 -1.4 -1.4 -1.4 -1.4 -1.4 -1.4 -1.4 -1.4 -1.4 -1.4 -1.4 -1.4 -1.4 -1.4 -1.4 -1.4 -1.4 -1.4 -1.4 -1.4 -1.4 -1.4 -1.4 -1.4 -1.4 -1.4 -1.4 -1.4 -1.4 -1.4 -1.4 -1.4 -1.4 -1.4 -1.4 -1.4 -1.4 -1.4 -1.4 -1.4 -1.4 -1.4 -1.4 -1.4 -1.4 -1.4 -1.4 -1.4 -1.4 -1.4 -1.4 -1.4
124.4 123.4 121.2 116 107.1 92.2 75.8 67.8 63.4 62.4 62.6 72.3 83.7 94.6 98.8 101.2 99.5 96 85.9 63.6 43 36 56 74.7 92.5 99.9 103.7 105.8 106.7 106.2 103.5 99 101.8 105.1 107.1 108.1 109.5 110.4 111.2 110.2 108 104.4 100.2 93.5 85.1 73.8 65.6 59 56.1 54.8 55.6 56.4 52.7 51.7 49.4 41.1 31.3 19.2 4.7 4.9 4.6 4 14.6 27 28.3 33.6 34.1 30.2 20.1 11.6 9.3 6.6 -1.4 -1.4 -1.4 -1.4 -1.4 -1.4 -1.4 -1.4 -1.4 -1.4 -1.4 -1.4 -1.4 -1.4 -1.4 -1.4 -1.4 -1.4 -1.4 -1.4 -1.4 -1.4 -1.4 -1.4 -1.4 -1.4 -1.4 -1.4 -1.4 -1.4 -1.4 -1.4 -1.4 -1.4 -1.4 -1.4 -1.4 -1.4 -1.4 -1.4 -1.4 -1.4 -1.4 -1.4 -1.4 -1.4 -1.4 -1.4 -1.4 -1.4 -1.4 -1.4 -1.4 -1.4 -1.4 -1.4 -1.4 -1.4 -1.4 -1.4 -1.4 -1.4 -1.4 -1.4 -1.4 -1.4 -1.4 -1.4 -1.4 -1.4 -1.4 -1.4 -1.4 -1.4 -1.4 -1.4 -1.4 -1.4 -1.4 -1.4 -1.4 -1.4 -1.4 -1.4 -1.4 -1.4 -1.4 -1.4 -1.4 -1.4 -1.4 -1.4 -1.4 -1.4 -1.4 -1.4 -1.4 -1.4 -1.4 -1.4 -1.4 -1.4 -1.4 -1.4 -1.4 -1.4 -1.4 -1.4 -1.4 -1.4 -1.4 -1.4 -1.4 -1.4 -1.4 -1.4 -1.4 -1.4 -1.4 -1.4 -1.4 -1.4 -1.4 -1.4 -1.4 -1.4 -1.4 -1.4
123.4 122.7 119.5 115.5 110.2 101.7 88 77.7 70.9 63.8 54.9 54.8 67.7 85.3 93.3 95.6 95.6 93.1 81.4 57.8 36.7 39.9 58.1 77 91.4 96.8 100 102.1 103 102.4 100.4 93.9 94 99.4 101.3 102.9 104.3 106.9 107.5 106.3 104.6 101.2 97.9 94.2 88.3 84.1 81.6 79.6 76 73.1 72.2 72.1 72 70.6 66.6 57.6 45.2 30.4 9.4 5.8 5.1 4.7 3.8 13.2 22.1 22.3 23 18.7 11.3 7.1 6.4 3.3 -1.4 -1.4 -1.4 -1.4 -1.4 -1.4 -1.4 -1.4 -1.4 -1.4 -1.4 -1.4 -1.4 -1.4 -1.4 -1.4 -1.4 -1.4 -1.4 -1.4 -1.4 -1.4 -1.4 -1.4 -1.4 -1.4 -1.4 -1.4 -1.4 -1.4 -1.4 -1.4 -1.4 -1.4 -1.4 -1.4 -1.4 -1.4 -1.4 -1.4 -1.4 -1.4 -1.4 -1.4 -1.4 -1.4 -1.4 -1.4 -1.4 -1.4 -1.4 -1.4 -1.4 -1.4 -1.4 -1.4 -1.4 -1.4 -1.4 -1.4 -1.4 -1.4 -1.4 -1.4 -1.4 -1.4 -1.4 -1.4 -1.4 -1.4 -1.4 -1.4 -1.4 -1.4 -1.4 -1.4 -1.4 -1.4 -1.4 -1.4 -1.4 -1.4 -1.4 -1.4 -1.4 -1.4 -1.4 -1.4 -1.4 -1.4 -1.4 -1.4 -1.4 -1.4 -1.4 -1.4 -1.4 -1.4 -1.4 -1.4 -1.4 -1.4 -1.4 -1.4 -1.4 -1.4 -1.4 -1.4 -1.4 -1.4 -1.4 -1.4 -1.4 -1.4 -1.4 -1.4 -1.4 -1.4 -1.4 -1.4 -1.4 -1.4 -1.4 -1.4 -1.4 -1.4 -1.4 -1.4
119.8 119.1 116.7 113.2 109.7 104.5 100.1 94.6 86.2 77.3 66 52.5 55.3 71.8 86.2 90.5 91.2 89.3 79.1 54.1 33.3 41.5 58.5 78.1 88.9 93.5 96.3 98.4 99.4 98.5 97.7 94.2 86.5 92 94.4 96.7 99.1 101.6 101.9 101.1 100.2 98.5 95.7 92.7 89.6 88.5 88.4 87.9 85.4 82.2 80 79.2 78.5 77.2 74.6 69.6 56.4 39.4 18 8.7 4.9 5.6 4.3 5.5 8.3 12.8 13.6 4.4 5.1 6.2 5.1 -1.4 -1.4 -1.4 -1.4 -1.4 -1.4 -1.4 -1.4 -1.4 -1.4 -1.4 -1.4 -1.4 -1.4 -1.4 -1.4 -1.4 -1.4 -1.4 -1.4 -1.4 -1.4 -1.4 -1.4 -1.4 -1.4 -1.4 -1.4 -1.4 -1.4 -1.4 -1.4 -1.4 -1.4 -1.4 -1.4 -1.4 -1.4 -1.4 -1.4 -1.4 -1.4 -1.4 -1.4 -1.4 -1.4 -1.4 -1.4 -1.4 -1.4 -1.4 -1.4 -1.4 -1.4 -1.4 -1.4 -1.4 -1.4 -1.4 -1.4 -1.4 -1.4 -1.4 -1.4 -1.4 -1.4 -1.4 -1.4 -1.4 -1.4 -1.4 -1.4 -1.4 -1.4 -1.4 -1.4 -1.4 -1.4 -1.4 -1.4 -1.4 -1.4 -1.4 -1.4 -1.4 -1.4 -1.4 -1.4 -1.4 -1.4 -1.4 -1.4 -1.4 -1.4 -1.4 -1.4 -1.4 -1.4 -1.4 -1.4 -1.4 -1.4 -1.4 -1.4 -1.4 -1.4 -1.4 -1.4 -1.4 -1.4 -1.4 -1.4 -1.4 -1.4 -1.4 -1.4 -1.4 -1.4 -1.4 -1.4 -1.4 -1.4 -1.4 -1.4 -1.4 -1.4 -1.4 -1.4 -1.4
113.9 113.6 111.7 109 105.9 102.1 100.6 97.4 92.9 87.7 77.1 59.9 43.8 59.2 77.8 83 84.9 83.9 76.9 51.1 31.5 39.5 58.2 77.4 86 89.6 92.3 93.9 95 94.9 93.9 91.7 82 82.9 86.3 89.7 92.9 95.8 97 96.9 95.7 94.3 91.9 89.1 86 86.4 86.6 86.5 84.3 83 82.1 80.8 79.5 77.7 75.6 70.1 61.7 48.6 26.7 4.5 5.7 5.2 5.6 5.7 4.5 7.3 3.3 3.5 5.4 7 2.3 -1.4 -1.4 -1.4 -1.4 -1.4 -1.4 -1.4 -1.4 -1.4 -1.4 -1.4 -1.4 -1.4 -1.4 -1.4 -1.4 -1.4 -1.4 -1.4 -1.4 -1.4 -1.4 -1.4 -1.4 -1.4 -1.4 -1.4 -1.4 -1.4 -1.4 -1.4 -1.4 -1.4 -1.4 -1.4 -1.4 -1.4 -1.4 -1.4 -1.4 -1.4 -1.4 -1.4 -1.4 -1.4 -1.4 -1.4 -1.4 -1.4 -1.4 -1.4 -1.4 -1.4 -1.4 -1.4 -1.4 -1.4 -1.4 -1.4 -1.4 -1.4 -1.4 -1.4 -1.4 -1.4 -1.4 -1.4 -1.4 -1.4 -1.4 -1.4 -1.4 -1.4 -1.4 -1.4 -1.4 -1.4 -1.4 -1.4 -1.4 -1.4 -1.4 -1.4 -1.4 -1.4 -1.4 -1.4 -1.4 -1.4 -1.4 -1.4 -1.4 -1.4 -1.4 -1.4 -1.4 -1.4 -1.4 -1.4 -1.4 -1.4 -1.4 -1.4 -1.4 -1.4 -1.4 -1.4 -1.4 -1.4 -1.4 -1.4 -1.4 -1.4 -1.4 -1.4 -1.4 -1.4 -1.4 -1.4 -1.4 -1.4 -1.4 -1.4 -1.4 -1.4 -1.4 -1.4 -1.4 -1.4
106.7 106.1 104.5 102.5 100 97.1 95.3 93.7 90 86.8 81 65.9 43.7 45.4 65.1 73.2 77.4 77.3 72 48.1 26.4 37 57.4 74.8 82.3 85.6 88 89.3 90.4 91 90.5 87.6 82.9 71.1 74.9 81.7 86.8 89.7 91.6 91.9 90.9 89.6 87.7 85.2 82.8 83.4 84 84.1 82.4 81.5 80.7 78.3 76.1 73.9 71.5 65.2 59.2 52.3 36.4 11.7 4.3 4.3 5.5 5.8 4.7 4.8 4 5.4 6.2 5.3 -1.4 -1.4 -1.4 -1.4 -1.4 -1.4 -1.4 -1.4 -1.4 -1.4 -1.4 -1.4 -1.4 -1.4 -1.4 -1.4 -1.4 -1.4 -1.4 -1.4 -1.4 -1.4 -1.4 -1.4 -1.4 -1.4 -1.4 -1.4 -1.4 -1.4 -1.4 -1.4 -1.4 -1.4 -1.4 -1.4 -1.4 -1.4 -1.4 -1.4 -1.4 -1.4 -1.4 -1.4 -1.4 -1.4 -1.4 -1.4 -1.4 -1.4 -1.4 -1.4 -1.4 -1.4 -1.4 -1.4 -1.4 -1.4 -1.4 -1.4 -1.4 -1.4 -1.4 -1.4 -1.4 -1.4 -1.4 -1.4 -1.4 -1.4 -1.4 -1.4 -1.4 -1.4 -1.4 -1.4 -1.4 -1.4 -1.4 -1.4 -1.4 -1.4 -1.4 -1.4 -1.4 -1.4 -1.4 -1.4 -1.4 -1.4 -1.4 -1.4 -1.4 -1.4 -1.4 -1.4 -1.4 -1.4 -1.4 -1.4 -1.4 -1.4 -1.4 -1.4 -1.4 -1.4 -1.4 -1.4 -1.4 -1.4 -1.4 -1.4 -1.4 -1.4 -1.4 -1.4 -1.4 -1.4 -1.4 -1.4 -1.4 -1.4 -1.4 -1.4 -1.4 -1.4 -1.4 -1.4 -1.4 -1.4
96.2 96.6 96.2 93.8 91.8 90.6 89.2 87.7 86.7 85 80.7 72.3 50.8 35.5 47.9 59.8 66.4 71.4 67.7 48.1 25.2 35.2 55.3 70.6 77.1 80.7 83.6 84.7 85.8 86.9 86.7 85.5 81.7 74.1 62.8 70.6 79.9 83.7 85.2 86 84.9 83.7 81.8 79.8 79.7 80.4 80 79.4 78.1 76.5 74.8 73.1 71 68.8 65.9 61.8 55.9 51.2 43.1 29.5 13 3.8 5.2 5.8 5.7 5.6 4.4 6.1 6.3 -1.4 -1.4 -1.4 -1.4 -1.4 -1.4 -1.4 -1.4 -1.4 -1.4 -1.4 -1.4 -1.4 -1.4 -1.4 -1.4 -1.4 -1.4 -1.4 -1.4 -1.4 -1.4 -1.4 -1.4 -1.4 -1.4 -1.4 -1.4 -1.4 -1.4 -1.4 -1.4 -1.4 -1.4 -1.4 -1.4 -1.4 -1.4 -1.4 -1.4 -1.4 -1.4 -1.4 -1.4 -1.4 -1.4 -1.4 -1.4 -1.4 -1.4 -1.4 -1.4 -1.4 -1.4 -1.4 -1.4 -1.4 -1.4 -1.4 -1.4 -1.4 -1.4 -1.4 -1.4 -1.4 -1.4 -1.4 -1.4 -1.4 -1.4 -1.4 -1.4 -1.4 -1.4 -1.4 -1.4 -1.4 -1.4 -1.4 -1.4 -1.4 -1.4 -1.4 -1.4 -1.4 -1.4 -1.4 -1.4 -1.4 -1.4 -1.4 -1.4 -1.4 -1.4 -1.4 -1.4 -1.4 -1.4 -1.4 -1.4 -1.4 -1.4 -1.4 -1.4 -1.4 -1.4 -1.4 -1.4 -1.4 -1.4 -1.4 -1.4 -1.4 -1.4 -1.4 -1.4 -1.4 -1.4 -1.4 -1.4 -1.4 -1.4 -1.4 -1.4 -1.4 -1.4 -1.4 -1.4 -1.4 -1.4 -1.4
85.4 85.6 85.5 84.2 82.2 81.5 81.9 81.2 81.8 80.2 79 74.5 61.4 38.9 35.6 45.3 55.1 60.6 58.8 45.2 21.4 34.7 52.4 63.9 70.2 74 78.3 80 81.1 82.3 83.2 81.8 79.4 76 63.2 60.6 72.8 78 79.3 78.7 77.5 76.1 74.1 72.1 73.9 74.1 73.6 72.1 71.2 69.8 68.2 66.4 64.3 62 58.3 55 52.6 49.2 45.2 39.8 29.4 17.9 4 4.3 5.3 5.6 4.4 6.1 3.2 -1.4 -1.4 -1.4 -1.4 -1.4 -1.4 -1.4 -1.4 -1.4 -1.4 -1.4 -1.4 -1.4 -1.4 -1.4 -1.4 -1.4 -1.4 -1.4 -1.4 -1.4 -1.4 -1.4 -1.4 -1.4 -1.4 -1.4 -1.4 -1.4 -1.4 -1.4 -1.4 -1.4 -1.4 -1.4 -1.4 -1.4 -1.4 -1.4 -1.4 -1.4 -1.4 -1.4 -1.4 -1.4 -1.4 -1.4 -1.4 -1.4 -1.4 -1.4 -1.4 -1.4 -1.4 -1.4 -1.4 -1.4 -1.4 -1.4 -1.4 -1.4 -1.4 -1.4 -1.4 -1.4 -1.4 -1.4 -1.4 -1.4 -1.4 -1.4 -1.4 -1.4 -1.4 -1.4 -1.4 -1.4 -1.4 -1.4 -1.4 -1.4 -1.4 -1.4 -1.4 -1.4 -1.4 -1.4 -1.4 -1.4 -1.4 -1.4 -1.4 -1.4 -1.4 -1.4 -1.4 -1.4 -1.4 -1.4 -1.4 -1.4 -1.4 -1.4 -1.4 -1.4 -1.4 -1.4 -1.4 -1.4 -1.4 -1.4 -1.4 -1.4 -1.4 -1.4 -1.4 -1.4 -1.4 -1.4 -1.4 -1.4 -1.4 -1.4 -1.4 -1.4 -1.4 -1.4 -1.4 -1.4 -1.4 -1.4
71.9 73.6 74 73 71.8 72.3 74.5 75.4 76.8 75.9 75.2 72.5 66.7 49.4 31.8 31.4 39.3 42.6 42.4 36 17.3 29.9 42.6 50.7 60.2 67.8 74.5 77.2 78.8 79.5 80.1 78.8 76 73 65.7 54.1 66.4 70.8 71.4 70.2 69.4 67.5 64.7 65.8 67.9 67.6 66.9 66.2 64.4 62 60.3 58.1 55.2 53.2 51 49.3 47.6 45.9 43.1 39.3 35.7 29.7 17.1 4.4 5.4 5.9 4.8 4.1 -1.4 -1.4 -1.4 -1.4 -1.4 -1.4 -1.4 -1.4 -1.4 -1.4 -1.4 -1.4 -1.4 -1.4 -1.4 -1.4 -1.4 -1.4 -1.4 -1.4 -1.4 -1.4 -1.4 -1.4 -1.4 -1.4 -1.4 -1.4 -1.4 -1.4 -1.4 -1.4 -1.4 -1.4 -1.4 -1.4 -1.4 -1.4 -1.4 -1.4 -1.4 -1.4 -1.4 -1.4 -1.4 -1.4 -1.4 -1.4 -1.4 -1.4 -1.4 -1.4 -1.4 -1.4 -1.4 -1.4 -1.4 -1.4 -1.4 -1.4 -1.4 -1.4 -1.4 -1.4 -1.4 -1.4 -1.4 -1.4 -1.4 -1.4 -1.4 -1.4 -1.4 -1.4 -1.4 -1.4 -1.4 -1.4 -1.4 -1.4 -1.4 -1.4 -1.4 -1.4 -1.4 -1.4 -1.4 -1.4 -1.4 -1.4 -1.4 -1.4 -1.4 -1.4 -1.4 -1.4 -1.4 -1.4 -1.4 -1.4 -1.4 -1.4 -1.4 -1.4 -1.4 -1.4 -1.4 -1.4 -1.4 -1.4 -1.4 -1.4 -1.4 -1.4 -1.4 -1.4 -1.4 -1.4 -1.4 -1.4 -1.4 -1.4 -1.4 -1.4 -1.4 -1.4 -1.4 -1.4 -1.4 -1.4 -1.4 -1.4
55.3 59.2 60.7 61.2 60.7 61.4 66.2 68.7 71.4 71.9 71.4 69.2 66 60.3 46.1 32.2 24.6 26.8 26 22.7 14.1 25.3 38.5 51.3 61.4 68.7 71.4 73.2 74.3 75.3 76.2 76.4 73.2 69.8 63.8 47.6 55.1 60.9 61.1 59.5 60.3 59.1 56.3 59.5 61.8 61.1 60.6 59.6 56.9 54.7 52.3 49.8 46.7 44.2 43 41.3 41 38.5 36.9 33.7 29.4 22.7 12.2 4.3 5.5 5.3 6 2.8 -1.4 -1.4 -1.4 -1.4 -1.4 -1.4 -1.4 -1.4 -1.4 -1.4 -1.4 -1.4 -1.4 -1.4 -1.4 -1.4 -1.4 -1.4 -1.4 -1.4 -1.4 -1.4 -1.4 -1.4 -1.4 -1.4 -1.4 -1.4 -1.4 -1.4 -1.4 -1.4 -1.4 -1.4 -1.4 -1.4 -1.4 -1.4 -1.4 -1.4 -1.4 -1.4 -1.4 -1.4 -1.4 -1.4 -1.4 -1.4 -1.4 -1.4 -1.4 -1.4 -1.4 -1.4 -1.4 -1.4 -1.4 -1.4 -1.4 -1.4 -1.4 -1.4 -1.4 -1.4 -1.4 -1.4 -1.4 -1.4 -1.4 -1.4 -1.4 -1.4 -1.4 -1.4 -1.4 -1.4 -1.4 -1.4 -1.4 -1.4 -1.4 -1.4 -1.4 -1.4 -1.4 -1.4 -1.4 -1.4 -1.4 -1.4 -1.4 -1.4 -1.4 -1.4 -1.4 -1.4 -1.4 -1.4 -1.4 -1.4 -1.4 -1.4 -1.4 -1.4 -1.4 -1.4 -1.4 -1.4 -1.4 -1.4 -1.4 -1.4 -1.4 -1.4 -1.4 -1.4 -1.4 -1.4 -1.4 -1.4 -1.4 -1.4 -1.4 -1.4 -1.4 -1.4 -1.4 -1.4 -1.4 -1.4 -1.4 -1.4
36.2 40.4 45 46.5 47.6 49.9 60.4 63.4 66.1 67.4 66.8 66.3 64.5 62.4 58.8 50.6 36 23.2 19 13.8 14.1 30.4 47.6 59.3 63.3 66.2 67.3 68.3 69.2 70.1 70.8 69.7 68.9 66.7 62 48.7 42.5 44.8 50.3 50.2 52.6 49.6 48.4 52 54.1 55.7 55.4 52.3 49 46.9 44.7 41.7 38.6 35.7 34.4 34 34.1 32.4 30.7 27.3 22.6 16.4 3.6 5.8 6 5.8 3.6 -1.4 -1.4 -1.4 -1.4 -1.4 -1.4 -1.4 -1.4 -1.4 -1.4 -1.4 -1.4 -1.4 -1.4 -1.4 -1.4 -1.4 -1.4 -1.4 -1.4 -1.4 -1.4 -1.4 -1.4 -1.4 -1.4 -1.4 -1.4 -1.4 -1.4 -1.4 -1.4 -1.4 -1.4 -1.4 -1.4 -1.4 -1.4 -1.4 -1.4 -1.4 -1.4 -1.4 -1.4 -1.4 -1.4 -1.4 -1.4 -1.4 -1.4 -1.4 -1.4 -1.4 -1.4 -1.4 -1.4 -1.4 -1.4 -1.4 -1.4 -1.4 -1.4 -1.4 -1.4 -1.4 -1.4 -1.4 -1.4 -1.4 -1.4 -1.4 -1.4 -1.4 -1.4 -1.4 -1.4 -1.4 -1.4 -1.4 -1.4 -1.4 -1.4 -1.4 -1.4 -1.4 -1.4 -1.4 -1.4 -1.4 -1.4 -1.4 -1.4 -1.4 -1.4 -1.4 -1.4 -1.4 -1.4 -1.4 -1.4 -1.4 -1.4 -1.4 -1.4 -1.4 -1.4 -1.4 -1.4 -1.4 -1.4 -1.4 -1.4 -1.4 -1.4 -1.4 -1.4 -1.4 -1.4 -1.4 -1.4 -1.4 -1.4 -1.4 -1.4 -1.4 -1.4 -1.4 -1.4 -1.4 -1.4 -1.4 -1.4 -1.4
18.8 21.5 27.7 33 32.8 45.4 54.3 58.2 60.9 63.1 63.3 63.1 62.4 61.5 60.1 58.2 54 45.9 34.8 12.5 15.2 31 47.3 57.1 61.2 62.2 62.3 62.2 63.9 64.8 65.6 65.5 66.5 65.3 62 56.3 42.9 36.1 36.7 41.2 42.6 39.7 38.4 43 43.8 48.5 50.2 46.5 41.2 39.2 36.8 33.8 30.7 28 26.9 27 27 25.3 23.5 21.5 18.2 13 3.4 5.4 5.6 6.4 1.8 -1.4 -1.4 -1.4 -1.4 -1.4 -1.4 -1.4 -1.4 -1.4 -1.4 -1.4 -1.4 -1.4 -1.4 -1.4 -1.4 -1.4 -1.4 -1.4 -1.4 -1.4 -1.4 -1.4 -1.4 -1.4 -1.4 -1.4 -1.4 -1.4 -1.4 -1.4 -1.4 -1.4 -1.4 -1.4 -1.4 -1.4 -1.4 -1.4 -1.4 -1.4 -1.4 -1.4 -1.4 -1.4 -1.4 -1.4 -1.4 -1.4 -1.4 -1.4 -1.4 -1.4 -1.4 -1.4 -1.4 -1.4 -1.4 -1.4 -1.4 -1.4 -1.4 -1.4 -1.4 -1.4 -1.4 -1.4 -1.4 -1.4 -1.4 -1.4 -1.4 -1.4 -1.4 -1.4 -1.4 -1.4 -1.4 -1.4 -1.4 -1.4 -1.4 -1.4 -1.4 -1.4 -1.4 -1.4 -1.4 -1.4 -1.4 -1.4 -1.4 -1.4 -1.4 -1.4 -1.4 -1.4 -1.4 -1.4 -1.4 -1.4 -1.4 -1.4 -1.4 -1.4 -1.4 -1.4 -1.4 -1.4 -1.4 -1.4 -1.4 -1.4 -1.4 -1.4 -1.4 -1.4 -1.4 -1.4 -1.4 -1.4 -1.4 -1.4 -1.4 -1.4 -1.4 -1.4 -1.4 -1.4 -1.4 -1.4 -1.4 -1.4
12.2 11.9 14 17.6 22.7 36.5 44.8 51.5 56.4 58.4 59.3 58.9 58.2 58.1 57.4 56.5 53.8 48.8 38.9 13.3 14.1 30.2 47.2 55.2 57.1 57.4 56.9 56.3 57.4 59 60.4 62.6 64.3 63.4 60.2 55.6 49.9 39.3 28.9 26.3 31.9 28.8 30.4 32.6 39.4 49.5 48.4 41.7 37.2 32.3 28.8 25.8 22.9 20.3 18.5 19.2 19.5 18.5 17.4 15.5 14.3 10.7 5.8 5.6 4.6 3.2 1.7 -1.4 -1.4 -1.4 -1.4 -1.4 -1.4 -1.4 -1.4 -1.4 -1.4 -1.4 -1.4 -1.4 -1.4 -1.4 -1.4 -1.4 -1.4 -1.4 -1.4 -1.4 -1.4 -1.4 -1.4 -1.4 -1.4 -1.4 -1.4 -1.4 -1.4 -1.4 -1.4 -1.4 -1.4 -1.4 -1.4 -1.4 -1.4 -1.4 -1.4 -1.4 -1.4 -1.4 -1.4 -1.4 -1.4 -1.4 -1.4 -1.4 -1.4 -1.4 -1.4 -1.4 -1.4 -1.4 -1.4 -1.4 -1.4 -1.4 -1.4 -1.4 -1.4 -1.4 -1.4 -1.4 -1.4 -1.4 -1.4 -1.4 -1.4 -1.4 -1.4 -1.4 -1.4 -1.4 -1.4 -1.4 -1.4 -1.4 -1.4 -1.4 -1.4 -1.4 -1.4 -1.4 -1.4 -1.4 -1.4 -1.4 -1.4 -1.4 -1.4 -1.4 -1.4 -1.4 -1.4 -1.4 -1.4 -1.4 -1.4 -1.4 -1.4 -1.4 -1.4 -1.4 -1.4 -1.4 -1.4 -1.4 -1.4 -1.4 -1.4 -1.4 -1.4 -1.4 -1.4 -1.4 -1.4 -1.4 -1.4 -1.4 -1.4 -1.4 -1.4 -1.4 -1.4 -1.4 -1.4 -1.4 -1.4 -1.4 -1.4 -1.4
27.5 19.3 9.7 10.2 10.7 14.4 25.7 37.7 48 51.8 54.2 53.2 52.5 53.2 53 52.6 51.1 46.2 34.5 10.6 12 30.1 47.6 51.9 52.8 51.6 50.5 50.4 50.9 53.4 57.4 60.6 60.4 59.3 55.7 51.9 47.9 40.4 32.7 21.8 20.4 23.1 25.7 27.6 40.4 46.8 44.3 38.4 33.4 31.2 26.1 22 17.8 14.6 12.7 12.2 14 12.7 11.4 10.2 9.9 6.5 3.6 4.5 5.8 2.3 -1.4 -1.4 -1.4 -1.4 -1.4 -1.4 -1.4 -1.4 -1.4 -1.4 -1.4 -1.4 -1.4 -1.4 -1.4 -1.4 -1.4 -1.4 -1.4 -1.4 -1.4 -1.4 -1.4 -1.4 -1.4 -1.4 -1.4 -1.4 -1.4 -1.4 -1.4 -1.4 -1.4 -1.4 -1.4 -1.4 -1.4 -1.4 -1.4 -1.4 -1.4 -1.4 -1.4 -1.4 -1.4 -1.4 -1.4 -1.4 -1.4 -1.4 -1.4 -1.4 -1.4 -1.4 -1.4 -1.4 -1.4 -1.4 -1.4 -1.4 -1.4 -1.4 -1.4 -1.4 -1.4 -1.4 -1.4 -1.4 -1.4 -1.4 -1.4 -1.4 -1.4 -1.4 -1.4 -1.4 -1.4 -1.4 -1.4 -1.4 -1.4 -1.4 -1.4 -1.4 -1.4 -1.4 -1.4 -1.4 -1.4 -1.4 -1.4 -1.4 -1.4 -1.4 -1.4 -1.4 -1.4 -1.4 -1.4 -1.4 -1.4 -1.4 -1.4 -1.4 -1.4 -1.4 -1.4 -1.4 -1.4 -1.4 -1.4 -1.4 -1.4 -1.4 -1.4 -1.4 -1.4 -1.4 -1.4 -1.4 -1.4 -1.4 -1.4 -1.4 -1.4 -1.4 -1.4 -1.4 -1.4 -1.4 -1.4 -1.4 -1.4 -1.4
42.1 35.1 26.9 19.8 13.8 9.3 9.3 17.1 29.9 44 46.2 47.3 47.3 48 48.2 48 47.3 43.3 28.4 7.6 11.4 29.7 45.9 47.6 48.2 46.3 43.3 42.8 46.7 52.2 56.4 57.1 56.8 55 51.1 46.3 46 41.7 35.9 22.7 18.2 18.8 20.6 23.8 37.5 39.4 37.7 34.1 33.2 29.8 27.2 25.6 23.6 17.8 10.2 7.3 7.2 7.6 6.3 4.8 5.1 3.3 3.8 5.2 3.2 1.3 -1.4 -1.4 -1.4 -1.4 -1.4 -1.4 -1.4 -1.4 -1.4 -1.4 -1.4 -1.4 -1.4 -1.4 -1.4 -1.4 -1.4 -1.4 -1.4 -1.4 -1.4 -1.4 -1.4 -1.4 -1.4 -1.4 -1.4 -1.4 -1.4 -1.4 -1.4 -1.4 -1.4 -1.4 -1.4 -1.4 -1.4 -1.4 -1.4 -1.4 -1.4 -1.4 -1.4 -1.4 -1.4 -1.4 -1.4 -1.4 -1.4 -1.4 -1.4 -1.4 -1.4 -1.4 -1.4 -1.4 -1.4 -1.4 -1.4 -1.4 -1.4 -1.4 -1.4 -1.4 -1.4 -1.4 -1.4 -1.4 -1.4 -1.4 -1.4 -1.4 -1.4 -1.4 -1.4 -1.4 -1.4 -1.4 -1.4 -1.4 -1.4 -1.4 -1.4 -1.4 -1.4 -1.4 -1.4 -1.4 -1.4 -1.4 -1.4 -1.4 -1.4 -1.4 -1.4 -1.4 -1.4 -1.4 -1.4 -1.4 -1.4 -1.4 -1.4 -1.4 -1.4 -1.4 -1.4 -1.4 -1.4 -1.4 -1.4 -1.4 -1.4 -1.4 -1.4 -1.4 -1.4 -1.4 -1.4 -1.4 -1.4 -1.4 -1.4 -1.4 -1.4 -1.4 -1.4 -1.4 -1.4 -1.4 -1.4 -1.4 -1.4 -1.4
49.4 46.4 42.3 36.3 29.9 21.7 10.9 7.4 8.8 27.5 37.3 39.5 40.5 41.6 42.2 41.6 40.3 38.8 25.8 7.4 11 31.4 46.5 46 43.6 40.6 35.6 41.1 47.1 52.2 54.1 53.7 52.2 48.9 42.1 39.7 45.3 42 38.6 31.7 22.3 15.6 16.3 22.5 28.5 32.3 30.6 30 32.2 32.5 31.3 30.5 28.6 22.9 14.4 7.9 5.6 4.7 4.2 3.7 3.8 2.5 4.5 6.1 2.5 -1.4 -1.4 -1.4 -1.4 -1.4 -1.4 -1.4 -1.4 -1.4 -1.4 -1.4 -1.4 -1.4 -1.4 -1.4 -1.4 -1.4 -1.4 -1.4 -1.4 -1.4 -1.4 -1.4 -1.4 -1.4 -1.4 -1.4 -1.4 -1.4 -1.4 -1.4 -1.4 -1.4 -1.4 -1.4 -1.4 -1.4 -1.4 -1.4 -1.4 -1.4 -1.4 -1.4 -1.4 -1.4 -1.4 -1.4 -1.4 -1.4 -1.4 -1.4 -1.4 -1.4 -1.4 -1.4 -1.4 -1.4 -1.4 -1.4 -1.4 -1.4 -1.4 -1.4 -1.4 -1.4 -1.4 -1.4 -1.4 -1.4 -1.4 -1.4 -1.4 -1.4 -1.4 -1.4 -1.4 -1.4 -1.4 -1.4 -1.4 -1.4 -1.4 -1.4 -1.4 -1.4 -1.4 -1.4 -1.4 -1.4 -1.4 -1.4 -1.4 -1.4 -1.4 -1.4 -1.4 -1.4 -1.4 -1.4 -1.4 -1.4 -1.4 -1.4 -1.4 -1.4 -1.4 -1.4 -1.4 -1.4 -1.4 -1.4 -1.4 -1.4 -1.4 -1.4 -1.4 -1.4 -1.4 -1.4 -1.4 -1.4 -1.4 -1.4 -1.4 -1.4 -1.4 -1.4 -1.4 -1.4 -1.4 -1.4 -1.4 -1.4 -1.4 -1.4
49.8 50.5 47.4 43.3 38.3 32.7 22.5 10.7 7.6 12.8 26 29.5 30.7 32.3 32.4 32.3 33.5 30.8 22.6 5.8 11.5 35.1 40.8 40.9 38.4 30.3 36.3 44.6 48 50.2 49.9 48.2 45.5 38.2 30 38.4 44.9 42.4 37.4 31.3 23.4 15.2 13.5 20.5 26.6 27.2 25.1 26.9 31.3 34 34.4 32.7 29.7 25.1 22.2 16 8.6 5.4 4.5 3.7 3.8 3.6 6.7 2.9 1.6 -1.4 -1.4 -1.4 -1.4 -1.4 -1.4 -1.4 -1.4 -1.4 -1.4 -1.4 -1.4 -1.4 -1.4 -1.4 -1.4 -1.4 -1.4 -1.4 -1.4 -1.4 -1.4 -1.4 -1.4 -1.4 -1.4 -1.4 -1.4 -1.4 -1.4 -1.4 -1.4 -1.4 -1.4 -1.4 -1.4 -1.4 -1.4 -1.4 -1.4 -1.4 -1.4 -1.4 -1.4 -1.4 -1.4 -1.4 -1.4 -1.4 -1.4 -1.4 -1.4 -1.4 -1.4 -1.4 -1.4 -1.4 -1.4 -1.4 -1.4 -1.4 -1.4 -1.4 -1.4 -1.4 -1.4 -1.4 -1.4 -1.4 -1.4 -1.4 -1.4 -1.4 -1.4 -1.4 -1.4 -1.4 -1.4 -1.4 -1.4 -1.4 -1.4 -1.4 -1.4 -1.4 -1.4 -1.4 -1.4 -1.4 -1.4 -1.4 -1.4 -1.4 -1.4 -1.4 -1.4 -1.4 -1.4 -1.4 -1.4 -1.4 -1.4 -1.4 -1.4 -1.4 -1.4 -1.4 -1.4 -1.4 -1.4 -1.4 -1.4 -1.4 -1.4 -1.4 -1.4 -1.4 -1.4 -1.4 -1.4 -1.4 -1.4 -1.4 -1.4 -1.4 -1.4 -1.4 -1.4 -1.4 -1.4 -1.4 -1.4 -1.4 -1.4 -1.4
42.4 45.7 47 43.2 39.4 35.7 30 21 8.9 6.9 8.7 12.6 14.4 16.3 14.4 13.7 14.1 15.8 18.3 6 7.3 27 33.8 33.9 30.5 26.8 39.6 44.8 46.7 46 44.9 41.8 37 27.4 28.6 41.7 44.4 41.8 33.9 25.2 20.1 15.5 12.3 17.4 21.6 22.3 21.8 27 32.3 34.5 34.3 32.5 30.3 25.1 22.4 18.2 12.9 10.1 6.5 2.2 4.2 5 6.4 1.4 -1.4 -1.4 -1.4 -1.4 -1.4 -1.4 -1.4 -1.4 -1.4 -1.4 -1.4 -1.4 -1.4 -1.4 -1.4 -1.4 -1.4 -1.4 -1.4 -1.4 -1.4 -1.4 -1.4 -1.4 -1.4 -1.4 -1.4 -1.4 -1.4 -1.4 -1.4 -1.4 -1.4 -1.4 -1.4 -1.4 -1.4 -1.4 -1.4 -1.4 -1.4 -1.4 -1.4 -1.4 -1.4 -1.4 -1.4 -1.4 -1.4 -1.4 -1.4 -1.4 -1.4 -1.4 -1.4 -1.4 -1.4 -1.4 -1.4 -1.4 -1.4 -1.4 -1.4 -1.4 -1.4 -1.4 -1.4 -1.4 -1.4 -1.4 -1.4 -1.4 -1.4 -1.4 -1.4 -1.4 -1.4 -1.4 -1.4 -1.4 -1.4 -1.4 -1.4 -1.4 -1.4 -1.4 -1.4 -1.4 -1.4 -1.4 -1.4 -1.4 -1.4 -1.4 -1.4 -1.4 -1.4 -1.4 -1.4 -1.4 -1.4 -1.4 -1.4 -1.4 -1.4 -1.4 -1.4 -1.4 -1.4 -1.4 -1.4 -1.4 -1.4 -1.4 -1.4 -1.4 -1.4 -1.4 -1.4 -1.4 -1.4 -1.4 -1.4 -1.4 -1.4 -1.4 -1.4 -1.4 -1.4 -1.4 -1.4 -1.4 -1.4 -1.4 -1.4 -1.4
28.3 36 38.9 38.6 36.1 33.3 29.8 25 16.2 8 7.2 6.4 5.6 6.1 5.7 5.4 5.5 5.6 5.4 6.5 5.4 12.2 24.4 25.7 20.2 27.8 40.1 42.7 42.9 41.2 39 35.6 30 21.4 30.1 41.9 43.4 41.5 35.8 30.5 24.5 20.8 14.3 14.2 16.9 18.4 20.8 27.9 30.9 32.4 33 28.6 25.4 20.8 16.4 13.4 8.1 5.8 2.2 3.8 4.3 5.8 3.4 -1.4 -1.4 -1.4 -1.4 -1.4 -1.4 -1.4 -1.4 -1.4 -1.4 -1.4 -1.4 -1.4 -1.4 -1.4 -1.4 -1.4 -1.4 -1.4 -1.4 -1.4 -1.4 -1.4 -1.4 -1.4 -1.4 -1.4 -1.4 -1.4 -1.4 -1.4 -1.4 -1.4 -1.4 -1.4 -1.4 -1.4 -1.4 -1.4 -1.4 -1.4 -1.4 -1.4 -1.4 -1.4 -1.4 -1.4 -1.4 -1.4 -1.4 -1.4 -1.4 -1.4 -1.4 -1.4 -1.4 -1.4 -1.4 -1.4 -1.4 -1.4 -1.4 -1.4 -1.4 -1.4 -1.4 -1.4 -1.4 -1.4 -1.4 -1.4 -1.4 -1.4 -1.4 -1.4 -1.4 -1.4 -1.4 -1.4 -1.4 -1.4 -1.4 -1.4 -1.4 -1.4 -1.4 -1.4 -1.4 -1.4 -1.4 -1.4 -1.4 -1.4 -1.4 -1.4 -1.4 -1.4 -1.4 -1.4 -1.4 -1.4 -1.4 -1.4 -1.4 -1.4 -1.4 -1.4 -1.4 -1.4 -1.4 -1.4 -1.4 -1.4 -1.4 -1.4 -1.4 -1.4 -1.4 -1.4 -1.4 -1.4 -1.4 -1.4 -1.4 -1.4 -1.4 -1.4 -1.4 -1.4 -1.4 -1.4 -1.4 -1.4 -1.4 -1.4 -1.4 -1.4
