ncols 200
nrows 82
xllcorner 250000
yllcorner 733800
cellsize 50
502.7 509.3 516.2 519.6 514.5 515.3 514 508.3 509 502.9 495.1 483.2 481.1 470.8 461.8 452.2 442 432.6 422.5 421.7 423.8 420.8 415.9 421.5 424.6 428.5 430.7 437 437.5 441.4 448.2 453.6 453.5 461 466.3 467.3 467 466.4 467.9 471.8 477.2 477.2 479 482.1 484.8 493.3 497.7 498.8 503 505.9 510.7 513.5 513 511.5 508 502.9 494.6 484.9 476.3 464.2 445.7 437.7 427.8 415.9 406.9 399.8 393.5 396.8 396.6 399.9 391.9 372.6 367.7 383.3 399.2 412.4 416.6 435.9 443.7 452.7 462.2 472.5 481 487.4 495.1 504.2 512.5 520 527.8 534.8 540.9 546.6 551.3 555 558.5 558.2 560.9 565.3 570.5 574.4 578.4 586.8 595.3 605 616.4 629.7 646.3 662.4 678.3 686.4 699.2 709.5 723.1 738.8 750.2 760.8 779.4 790.5 803.6 814.5 835.1 848.7 850.2 862.9 871.9 876.1 859.2 846.7 820.1 805.7 793.8 786.8 784.3 774.6 774.8 771.3 774.4 785.1 789.6 790.6 795.7 809.2 797.6 797.2 798 796.4 790.5 785.6 780.6 778.5 780.6 787.3 798.5 807.2 819 826.1 837.9 861.4 877.5 886 856.4 809.8 780.7 757.4 741.3 736.4 735.4 733.9 730.2 728.9 730.3 731.8 734.8 735.8 733.8 732 730.7 738.1 746.5 758 765.4 764.4 752.2 729.1 706.9 683 663.8 645.9 630 618.4 603.9 590.9 580.6 567.5 557.3 546.3 529.9 521.1 507.8 498.9
481.9 488.5 493.6 489.6 493 492.3 486.7 487.1 486.5 478.2 469.9 461.9 456.7 450.3 443.5 434.7 424.9 419.1 412.4 413.5 415.8 408.3 409.8 415.8 418.6 422 423 428.2 427.8 431.9 435 439 443.4 445.8 448.4 447.3 447.6 451.3 451.5 456.4 456 456.2 459.3 464.3 469.3 473.2 475 477.5 478.8 487.6 491 494.2 496.1 495.7 493.6 489.5 483.2 475.8 466.7 454.9 440.9 431.1 420.8 409.7 399.8 391.7 384.8 387.8 388.8 391 378.2 357.9 372.8 387.1 400.3 417.6 422.3 429.1 445.2 453.9 464.1 473.5 483.2 490.2 498.8 509.6 519.2 526.8 533.4 542.5 549.3 555.5 561.9 566 566.8 568.2 570.1 570.4 574.7 579.8 582.8 588.6 596.9 608.3 620.4 634 644.9 665.1 679 689.2 703.3 709.2 724.2 738.6 752.1 766.3 776.4 787.8 803.7 814.8 835.7 851.5 863.1 878.2 885.7 882.1 871.1 832.6 812.4 799.6 794.5 787.5 772.1 770.6 777.6 765.7 760.8 765.1 766.6 771 782 790.3 797 801.9 801.7 794.4 793.7 788 779.3 775.5 773.1 778.4 786.4 796.9 808.2 818.1 829.6 846.8 855.9 858.2 863.6 821.8 771.5 749.8 734 732.5 729.3 726.7 721.2 720.2 720 720.3 721.9 722.7 723.1 722.6 719.5 726.9 734 741.8 749 750.4 746.1 721.4 704 677.3 658.3 643.9 634.9 622.2 610.8 599.2 586.6 574.4 564.7 551.4 536.4 521.1 511.2 503.8
460.8 472.3 468.2 471.3 470.1 463.7 461.6 462.8 457.6 450.2 448.6 445.4 441.3 442.9 432.5 420.2 412.2 405.2 403.1 400 401 395 399.7 403 408.6 411.8 414.8 420.3 416.6 421.5 420.7 428.3 430.7 429.8 432.9 433 434.8 438 435.4 439.4 439.5 440.3 442.8 447.4 452.8 455 458.3 457.1 464.1 466.6 470.5 474.7 477.5 478.9 477.5 473.9 468 462.7 456.4 443.1 434.5 425.2 410.8 401 392.6 387.2 378.4 376.3 379.5 379.9 361.6 355.8 370.7 385.1 394.2 400.3 413.7 432.4 446.8 457.5 466.8 476 485.6 493.6 502.2 512.6 523.9 534.4 541.8 550.6 558.1 566.4 573.5 580.3 579.1 579.5 579.4 580.4 581.4 586.4 590.9 599.5 607.9 618 626.4 639.6 647.6 667.1 682.6 692.2 701 715.5 730.4 742.8 756.1 764.6 775.4 785.3 799.7 812.8 833.2 856.5 875 885.2 891.9 890.1 883.6 832.9 808.8 787.6 780.8 768.6 760.7 760 748.9 748.2 748.2 753.5 756.3 762.4 771.2 787.7 805.3 813.2 799.4 797 791.2 787.1 771.8 766 765.6 771.2 780.2 787.2 797.1 808.3 818.6 831.7 840.9 844.4 838.5 799.4 771 747.1 731.2 729.5 726.5 718.6 715 714 712.3 711.1 710.9 710.1 709.7 709.9 708.8 717 723.8 730.3 734.1 734.7 726 714.3 696 673.3 657.4 646.6 637.1 624.6 612.1 600.6 590.2 578.6 564.2 550.8 537.9 526.3 518.6 511
440.7 450.1 446.7 445.8 442.6 441.9 439.4 439 435.7 432.5 429.3 426.1 425.4 421.8 410.9 405.6 404.1 400.8 394.7 387.3 388.3 383 386.2 392.6 395.4 399.2 402.4 405.4 403.6 405.9 410.5 416 416.6 417.1 421.4 421.7 421.8 420.1 423.6 423.2 424.1 428.6 430.4 432.3 436.1 438.8 441.8 442 444.6 446.2 448.9 453.8 457.6 460 460.6 459 455 451.5 443.8 434.7 425.3 416.8 402.2 393.8 387.2 379.5 375.7 365.5 368.8 366 350.1 352.7 372.1 381.6 393.9 402.5 419.2 435.6 448.2 458.2 469.1 478 485.5 497.2 506.2 517.8 529.4 541.2 552.1 564.9 575.1 581.4 586.5 593.6 592.4 592 593.2 593.3 593.9 594.6 599.4 610.5 624 628.4 635.3 647.1 652.3 661.5 684.3 693.6 707 719.5 737 750.1 765.2 775.3 778.8 782.7 797.7 809.7 826 854.9 871.2 880.2 890.1 904.6 879.7 831.9 797.8 776.3 772 758 740.8 733.3 729.6 731.5 740.3 749.4 756.5 761.7 767.3 770.2 777 783.9 788.1 789.7 795.9 785.1 763 754.2 757.7 761.6 770.1 776.9 784.2 798.8 811.3 816.9 822 823.1 823.8 802.9 763.3 740.4 730.6 725.5 722.3 717.2 711.1 707.4 704.2 703.7 703.2 702.2 702.2 702.2 701.4 707.7 713 718.3 722 720.3 714.4 704.5 688.1 669.5 657.9 650 636.6 622.4 613.2 603 593.8 581.1 569.6 553.9 540.9 532.9 521.4 515.9
413.1 415.4 418.4 418.7 417.9 418.8 415.7 413.5 411.8 410.4 411.1 408.7 406.4 404 397 394.5 392.1 380 376.7 374.8 372.5 379.6 374 379.9 382.3 386.6 392.1 393.7 390.7 396.1 397.1 396.8 400.5 406.2 406.7 412.8 408.6 408.9 412.9 411.4 414.4 414.1 417.2 420.8 423.2 426.1 428.6 428.8 424.7 430.1 431.7 433.1 436.2 438.3 440.5 442.5 440.3 437.7 432.5 423.4 411.9 401.7 396.7 385.1 377.7 374.3 370.3 353.9 356.3 352.1 336.3 351.3 359.5 370.3 388.3 409 419.7 437.8 451.8 463.1 472.2 481.5 491.3 500.1 511.4 525.1 538.1 553.4 576 588.4 597.4 601.4 603.6 608.8 607.7 607.7 606.1 608.9 608.2 611 613.7 618.8 627.8 634.3 644 657.3 662.5 662.7 680.8 698.8 714 728.6 739.7 758.5 776.3 783.5 779.8 782.2 794.5 809.3 824.8 844.1 860.1 875.6 895 912.6 877.8 835.2 799 771.6 753.5 740.1 722.3 721.7 721.7 726.8 739.2 746.4 758.4 760.3 762.9 764.8 769.4 771.9 767.9 766.6 762.2 759.8 750.4 744.3 741.8 747.2 755.3 765.1 774.8 787.5 800.9 810.9 808.6 805.4 801.7 789.2 756.1 736 726.6 723.1 717.5 715.4 706.8 697.7 692.9 693.5 694.8 696.9 696 694.3 694.6 699.4 703 708.5 709.3 707 703.2 694 681.4 667.9 657.6 648.8 634.5 623.4 615.6 602.5 589.6 579.6 568.1 556.2 544.8 536.8 525.7 516.1
387.9 392.4 393.9 392.7 393.6 395.1 391.3 390 390.9 389 389.6 388.9 386.1 388 385.5 384.4 379.9 369.9 365.1 365.1 357.9 366.2 362.2 369.3 369.4 372.4 377.5 380.5 377.2 382.3 382.6 383.7 383.6 387.7 392.3 393.1 393.9 396 397.4 398.5 398.9 401.9 404.3 408.5 412.8 410.9 412.1 413.3 410.1 413.9 416.1 417.1 418.8 421.3 423.1 426.1 424.4 423.4 420.1 411.9 400.3 392.5 385 380.6 370.3 367.4 367 343.7 342.9 336.6 327.9 344 365.2 372.8 394 411.8 422 440.7 453.2 465.5 476.8 485.4 495.4 507 521.4 537.3 551.9 569.6 588.5 599.7 608.9 615.6 617.7 623 630.2 623.5 620.6 626.5 625.9 625.5 630 631.3 633 635.9 646.7 661 675.3 668.4 681.2 704.5 722.2 736.7 743.8 759.1 783.2 792 783.7 780.8 794.6 806.3 826 842.2 853.8 871 892.9 902.5 874.9 833.3 796.1 762.8 745.7 733.6 716.3 711 712.4 720.8 731 740.8 750 755.5 759.9 766 767.6 762.4 753.8 756.4 753.6 741.1 735.4 733.4 727.7 735 743 752.1 763.1 774.4 785.3 795.9 797.8 796.1 792.1 765.7 748.1 734.1 725.2 718.9 714.5 707.4 695.9 688.7 682.6 683.6 685.3 686.3 687.2 688 685.9 691.5 693.6 696.5 698.6 696.9 694.6 689.3 677.6 666.5 655.1 645.5 636.2 624.5 613.6 600.5 589.8 578.1 566.5 558.3 550.1 539.1 527.6 516.1
364.5 366.1 365.7 368.7 370.7 372.9 370.3 371.7 372.3 370.8 369.5 369.8 369.6 369.7 368.5 364.5 358.6 357.1 353.3 355.9 349.1 350.3 349.5 351.6 352.1 354.4 362 359.2 365.7 370.6 373.9 370.9 368.7 375.9 375.7 374.4 380 377.7 380.1 381.7 386.4 391.3 392.4 391.9 391.3 392.5 396.3 396.8 394 397.3 399.7 401.6 404.7 405.2 408.1 408.6 409.7 407.2 402.5 399 393.6 386.8 378.8 372.3 365.6 359.2 354.7 338.8 326 323.4 330.8 352.6 357.7 374 397.3 406.5 427.8 441.5 455.3 468.7 480.4 490.2 502.2 516.5 534.6 550.5 564.1 577.7 593.2 605.2 614.2 624.6 630.7 634.1 640.5 638.5 632.1 642.6 644.6 645.1 639.3 641.2 641.8 642 651.1 665.7 681.8 673 684.4 702 715.9 732 747 757.8 777.5 787.2 788.6 779.7 789.3 796.7 821.3 832.7 844.3 870.7 891.1 900.6 876.9 844.4 793.9 756.7 739.4 725.1 710.7 706.2 708.9 715.8 725.7 741.6 745.8 746.9 744.4 753.8 754.9 749 737.2 730.4 731.9 727.8 725 725.7 723.1 726.1 732.5 741.3 753.1 763.7 770.9 776.3 784.3 781.5 770 756.9 744.8 741 736.3 717.1 707.4 700.7 691.1 682.9 675.3 676.8 674.8 675.9 677.1 677.8 679.6 684 687.7 691.5 694.9 695.9 691.2 685.6 676.4 664.7 653.8 645.4 635 620.9 610.7 598.2 587.6 576.5 565.9 559.5 550.1 539.3 529.1 518.1
342.2 342.9 346.7 346.9 352.6 353.3 350.6 348.8 352.9 353.4 355.5 352.1 350.3 349.4 349 349.6 346.7 344.4 346 349.5 343.7 341.4 341.4 337 334.5 339.2 343.2 341.9 347.4 357.4 359.7 354.4 358.2 364.9 364.6 366.4 365.7 369.1 372.6 373.7 373.9 376.8 376.7 373 372.4 378.7 378.1 377.5 380.8 381.4 385.3 387.7 390.4 392.2 392.2 393.6 392 389.5 388.9 388.4 381.1 376 371.4 364.1 357.3 352.9 341.3 329.9 311 314.2 339.6 346.8 358.3 375.8 392.4 417.8 430.8 443.4 458.1 472.3 485.7 498.8 516.1 532.5 548.7 561 573.4 585.9 597.9 609.6 617.5 625.7 636.3 643.5 646.3 650.9 639.7 650.1 651.9 648.1 647.6 646.2 646.8 650.2 656.8 672.2 675.9 673.8 682.9 703.7 716.3 734.5 750.1 769.4 778.7 792.5 795.6 775.1 776.3 787.8 802.3 814.6 840.6 862.1 881.9 890 867.4 845.3 790.2 767.6 747.4 720.1 708 701.8 702.5 708.2 716.3 726 730.7 735.3 728.6 737.3 736.6 729.1 723 721.2 719.6 719.5 719.7 718.8 717.5 716.2 717.9 727.9 741.7 750.1 759 766 764.2 759.6 757.8 750.6 748.1 757.2 752.5 723 708 695.8 685.6 678.4 672.2 668.9 665.3 666 667.5 668.2 670.9 676.4 680.9 687.5 691.7 692.2 688.6 682.1 674.1 663.5 655.5 644.5 629.9 618 608.1 597.8 583.5 572.9 566.5 557.9 548.7 537.9 529.1 518.4
323.2 324.6 329.5 334.2 330.4 331.6 328.6 326.9 333.6 331.2 333.5 332.7 332.9 337.9 334.2 336.6 330.9 331.3 334.4 338.8 334.7 327.8 327.7 316.6 327.4 331.4 328.6 327.2 333.9 337.8 338.8 345 349.7 351.3 352.2 355.9 357.4 359.8 362.8 363.1 360.9 361.6 356.2 353.6 362.1 362.9 365.9 364.5 364 367.1 368 372.4 374.7 377.8 377.7 379.3 375.5 376.6 376.9 373.5 370.4 368.2 362.5 354.9 350.1 339.7 334.1 313 305.3 324.6 335.5 339.2 360.7 381.3 402.7 416.6 430.3 448.7 461.1 476.7 491.8 511.1 528.5 544.4 562.7 580.7 588.9 594.3 606.5 619.1 627 634.7 642.2 648.3 652.1 656.8 650.3 661.4 659.2 662.6 664.4 652.2 655.7 658.1 665.6 674.2 673.6 675.4 681.1 693.7 716.2 746.4 759.6 774.3 773.3 787.3 779 763.1 765.6 774 790.9 808.7 828.6 848.3 868 883.6 866.9 814.3 784.7 765.2 748.7 718.1 704.2 698 695.3 699 704.9 712.9 717.7 720.1 713.3 727.2 731.2 720.6 713.8 719.1 717.5 716.8 717 715.3 709.6 698.8 705.7 717.9 731.2 741.3 745.5 748.7 751.3 751.2 750.2 747.9 746.1 746.2 736.1 721.1 704.8 692.4 682.1 673.7 666.2 657.2 657.7 657.1 657.6 658.4 661.6 667.5 673.4 678.7 683.1 683.8 680.1 676.5 670.5 663.5 653.1 641.7 624.3 613.6 599.1 588.4 579.4 571.8 563.8 554.8 547.1 537.2 528.1 519.8
312.6 309.9 313.6 313.3 308.2 310.6 304.3 305.3 309.1 306.1 306 306 310.4 313.4 313.1 309.8 312.1 316.3 321.5 320.8 319.2 309.1 306.2 304.4 311.6 313.6 309.6 316.4 321.3 325.2 322.3 326.8 327.9 333.8 338.4 341.3 346.7 346.5 349.9 352.3 346.5 341.9 342.5 338.9 347.1 348.8 350.5 345.7 349.9 351.1 352.4 356.3 357 361.9 361.8 359.7 358.6 359.6 359.8 360.4 356.8 354.6 349.7 346.9 344.5 334.3 326.3 301.8 306.2 324 324.3 342.4 362.9 382.9 403.3 418.2 435.9 450.5 465.1 477.7 498.3 517.8 536.6 555.8 575.9 591 600.1 608.7 621.6 635.6 646.1 651.2 656.7 650.9 654.7 658.2 663.5 671.7 674.5 681 683.4 668.1 667.5 667.7 672.7 675.6 674.6 683 678.8 694.7 725.7 748 763.4 779.5 758.4 754.7 756.3 748.5 753.1 766.6 782 799.7 816.1 833.2 856.6 875.9 873 817.4 790.1 768.9 744.5 710.8 696.7 692.4 687.7 688.6 690.7 697.8 699.9 696.4 699.2 705.7 709.4 705.9 699.7 705 708.8 690.7 691 699 691.9 680.4 694.4 708.5 719.9 728.4 737 740.9 744.2 746.5 747.5 747.2 743.4 738.9 729.2 714.7 703.2 691.2 680.6 671.4 664.3 651.2 650.9 647.7 649 649.7 652 657.2 661 669.1 674.7 675.4 673.4 673.3 671.5 659.8 648 632.6 620.3 605.6 592.5 583.6 577.1 567.9 560.2 552.5 544.9 537.2 527.3 518.9
293.5 290.8 295.5 288.5 289 286.4 288.8 284.3 285.1 284.6 287.3 288.7 288.3 288.8 285.4 292.5 303.5 303.6 307.6 303.3 297.3 288.8 289.1 293.5 298.2 296.3 291.8 298 312.2 312.7 310.8 306.8 310.9 319.8 318.6 329.4 332.5 331.4 333.6 330.7 326.4 327.3 328.3 330 328.3 330.7 330.9 327.5 337.4 338.6 338.7 338.1 345.4 345.3 342.4 344.2 343.6 347 348.7 344.4 343.9 342 340.4 338.8 334.9 323.5 316.9 288.9 299.1 314.4 324.7 344.5 363.6 384.9 402.4 421.3 436.7 453.7 468.4 487.6 508.1 528.7 545.3 564.9 579 599.2 611 623 636.2 647.8 655.8 666.9 664.9 661.5 670.2 673.6 672 682.6 683.8 698 693.1 691.9 677.1 680.9 686.1 683.3 675.9 676.1 672.5 692.7 726.1 749.9 761.4 772.3 743.8 746.8 735.1 729.2 739.4 760.2 781 799.7 818.5 837.2 857 874.8 880.9 822.1 809 770.8 740.1 707.5 691.2 687.8 685 677 676.3 678.6 681.3 685.9 690.9 697.3 704.5 696 688.9 688.5 685.5 686 686.6 684.9 682.3 672.4 683 695.9 706 713 718.8 728.1 736 741.4 746.7 750.2 743.6 742.7 728.7 709.1 691.5 687.3 679.9 665.8 655.3 644.7 641.6 638.2 639.2 638.7 642 646 652.3 657.8 660.5 664.5 663.9 665.6 661.3 650.5 644.8 627.9 611.4 598.8 590.5 581.6 573.6 566 558.4 550.8 542.8 535.3 527.2 517.9
266.7 271.2 272.4 271.2 267.7 267.1 266.4 263.2 264.7 266.7 266 267.7 266 273.5 273.6 282.8 290.1 288.8 284.7 280.5 280.9 277.6 277 276.4 282.1 281.3 278.7 284.5 290.5 290.4 290.2 290.8 290.1 303.8 315.4 317.6 318 314.2 313.8 312.1 311.3 308.5 311.6 318.9 314.2 313.5 312 315.4 321.9 320.2 321.1 326.9 326.9 326.7 323.8 328.3 335 337.2 332.8 329.2 332.8 330.2 329.5 328.1 323.6 318.8 308 280.9 299 308.3 319.1 340.8 365.1 385.2 403 420.7 438.4 459.5 476.7 501.5 514.4 531.4 551.8 572.5 586.7 602.2 616.3 631 648.6 661.9 673.2 674.1 678.2 677.6 682.3 684.3 681.7 691.1 700.7 711.5 708.4 708.5 685 692.4 695.5 709.5 683.3 677.3 669.3 680.8 699.4 724.9 731.5 734.5 715.3 714.4 712.1 717.7 730 756 774.8 796.7 818.4 836.5 853.1 868 858.1 828.1 799 761.9 731.8 705.6 685.4 677.4 672.5 666.8 663.8 665.5 671.3 675.1 681.3 689.8 688.9 678.1 668.4 665 661.8 665.1 672.6 674.1 673.3 671.3 667.6 679.7 690.8 698.3 704.8 713.1 723.4 732.4 740.9 739.2 738.3 736.9 722.1 701.7 681.8 687.3 674.1 656.5 646.4 637.7 629 625.6 624.7 622.7 628.6 635.7 640.5 645.5 647.6 647.9 649.2 649.1 647.6 638.5 627.2 612 602.4 594.1 585.5 576.5 569.8 562.8 553.4 546.8 540.4 533.2 525.4 515.2
256.5 253.3 250.5 248.9 246.6 248.8 247.2 244.1 246.4 248.3 245.1 246.4 248.5 253.4 258.5 257.5 268.7 268.4 263.5 262 260 262.9 258.2 256.7 260.8 261 264.1 264.3 276.6 275 277.2 275 273.6 280.8 296.1 298.3 293.6 292.9 293.3 296.9 297.2 297.4 294.7 298.9 295.8 299.5 304.7 309 305.6 305.8 304.4 307.6 309.4 310 309.5 313.3 321.8 323.1 320.4 316.6 318.8 319.8 320.7 317.3 315.3 314.9 305.3 273.4 290.9 299.1 312.3 342.9 364.7 383.2 400.3 419.3 439.1 462.8 489 508.6 524.4 538.1 559.2 584.2 603.5 618.7 634.6 650.4 665.4 680 692.3 688 700.5 698.4 704 691.7 693.6 705.3 715.2 712.8 723.4 703.4 693.7 700.3 703.7 719 692.3 681 667.2 664.1 679.8 689.4 685.6 689.4 696.3 700.9 701 710.2 721 750.9 772.6 789.7 812.8 827.6 836.8 856 864.6 835.4 811.1 768.7 737.5 704.4 684.3 670.5 662.9 656.4 647.5 650.9 654.9 662.3 666.4 664.1 661.1 656.9 651.5 651.7 651.1 653.4 657.6 658.1 658.3 654.8 658.7 670.8 682.8 691.8 698 705 713.6 722.1 727.3 726.1 725.1 722.2 713.3 694.7 674 659.2 644.5 636.8 632.4 626.7 620.6 617.7 610.8 612.9 619.6 626.4 630.5 634.1 637.6 640 639.8 635 627.4 616.4 608.6 602 592.6 584.7 577.3 570.6 563.7 556.5 549 541.4 535.2 528.8 521.1 513
242.7 237.7 236.5 231.8 234.3 233.6 229.4 229.6 230.1 226.6 226.4 226.9 229.4 230.8 234.6 238 243.6 242.6 243.4 241.4 243.4 244.8 241.8 242.9 245.7 249.9 249.6 251.6 255.8 261.8 258.8 259 260.9 266.1 278.5 275.9 271.4 275.7 276.4 282.6 285.3 281.3 280.9 285 282.9 289.1 293.4 297.2 293 291.5 289.5 290.8 294 296 297.6 299.9 301.5 305.1 306.2 307.1 309.3 310.3 310.6 306.1 307.6 303.2 297.4 268.8 272.7 289 315.6 341.7 360.2 378.5 396.1 414 436.9 467.7 488.4 510 523 549.3 575.7 595.8 609.9 629.5 647.9 669.4 677.3 689.1 701.6 700.4 713.7 710.7 704.4 700.7 704.2 717 717.6 718.8 722.5 703.8 701.6 709.2 721.3 710 702.2 681.6 666 658.3 660.7 666.4 676.3 686 685 686.2 689.9 702.6 719.3 744.1 766 782.5 796.6 815 832.7 848.2 862.9 847.8 828.1 815.2 739.8 713.6 680.7 665.1 656.1 649.1 639.8 636.6 636 637.1 638.5 642.2 643.3 642.2 640 644.1 644.4 646.5 645.9 642.4 640.8 647.1 653.6 662 673.5 684.7 691.6 699.8 712.1 716.9 718.3 718.4 717.7 717.8 707.2 690.1 668.3 650.1 634.8 624.5 617.8 615.5 609.4 609.2 603.4 604.7 609.7 613.8 619.8 623.5 623.9 624.7 622.7 620.2 610.5 602.5 594.4 588.1 582 575.8 568.1 560.9 555.2 549.3 543.1 536.1 529.9 523.5 516.5 507.9
228.4 222.2 220.6 220.3 213.6 213.3 209.4 209.4 210.9 212.1 210.5 214.4 216.8 215.9 219 225.7 223 222.4 227 226.5 228.4 228 225.3 225.9 233.4 234.4 237.6 240.6 242.4 246.6 243.9 244.7 246.6 252.3 256.5 262 261.4 261.9 266 269 267.3 266.6 264.4 269.9 275.3 280 282.7 285.3 280.8 282.8 281.4 280.8 281.5 285.2 287.4 288.5 287.7 291.5 293.7 293.8 300.7 297.2 300.3 297.8 301.2 297.2 290.5 268.9 254.1 278.4 312.5 337.8 355.9 372.2 388.6 410.6 434 464.5 477.4 495.3 524.5 551.4 582.7 603.8 624.8 644.5 647.6 661.2 680.8 699.6 712.8 712.4 725.8 722.2 717.8 710.7 713 719.1 718.8 727.2 716 707.7 711.8 728 735.2 704.5 704.5 675.2 656.5 654.7 658 660.4 669.3 674.3 672.5 670.1 683.8 699.2 709.1 732.5 750.5 770.3 789.2 807.6 825.5 840.3 848.3 848.3 853.1 824.2 734.1 696.9 670.7 648.3 629.8 622.8 621.3 620.9 621.9 624.6 630.2 632.2 634.6 633.9 633.8 635.1 636.9 637.3 636.1 633.9 635.4 638.6 642.3 650.8 664.1 672.1 682.1 692.8 702.5 708.3 709.3 711.5 709.5 700 695.1 678.2 656.1 638.5 625.2 616.2 609.9 607.3 604.1 598.4 591.9 594.5 598.5 602.9 607 608.6 609.2 609.9 605.5 599.9 593.2 587.7 582.9 576.7 570 564.3 558.1 551.5 546.2 541.1 534.5 529.6 523.7 517.2 509 503.6
213.9 207.7 206.9 204.2 198.1 194.6 194 194 193.6 194.6 194.1 198.6 201.6 205 206.5 209.7 206.2 213.8 212.9 213.7 214 219 219.6 214.8 225.1 225.8 227.8 227.8 229.7 230.1 230.2 228.4 228 230.2 238.1 242.7 251.3 255.1 254.5 251.6 254.6 254.4 258.5 262.3 263.9 263.4 265.5 267.7 270.8 274.2 277.8 277.4 274.1 273 277.3 277.7 281.4 277.7 280.4 282.8 289.6 285.3 287.4 287.8 290.9 286.7 281.9 260.8 246.5 278.6 311.6 331.9 348.8 363.4 381.2 405.3 423.1 441.1 461.9 482.4 512.3 546 577.5 597.8 612.6 627.1 639.3 655.1 681 700.8 714.2 712.4 722.5 735.4 729.9 715.5 722.1 726.4 724.3 723.2 716.3 714.2 724.8 730.4 725.9 699.5 696.4 671.5 651 655.2 658.9 659.8 663 659.8 658.4 663.2 673.8 686.6 706.5 721.9 739.8 761.3 777.7 796.1 809 825.8 842.3 854.4 847.2 764.9 712.5 693.8 646.3 618.3 604.2 604.5 605.1 610.5 612.2 614.7 618 620.8 624.6 627.3 629 628.1 627.9 628.8 630.1 629.9 630.6 632.5 632.7 639.7 650.9 661.2 670 682.5 686.4 692.7 692.5 693.7 688.2 679.7 672.4 657.2 640.5 627.9 616.5 607.5 600 595.7 593.2 584.7 581.6 583.8 589.3 593.5 595.5 596.1 594.6 594.9 589.1 583.5 580.7 576 569.6 564.5 558.7 553.8 548.7 543 537.1 532.7 526.2 521.4 515.1 507.8 502.7 496.8
202.9 197.7 194.8 190.9 186.4 183.5 183 184.1 184.7 184.4 184 186.5 188.8 191.9 192.3 200.9 197.6 198.5 199.8 203.8 205 208 210.2 205.3 212.9 215 219.6 216 217 215.3 215.2 213.8 213.3 219 224.7 233.4 235.4 243.4 240.4 240.1 244.2 248 251.1 252.7 254 257 256.5 259.6 264.5 270.8 270.8 269.2 267.3 265.5 267.2 272.2 278 276.3 270.1 271.9 276.2 272.4 275.2 278.5 279.3 277.5 269.4 238.6 253.7 284.5 308.8 325.9 339.7 354.3 372.9 391.2 416.8 437.7 460.1 474.9 496 528.2 564 569.1 582.4 603.9 622.1 639.5 664 680.2 694.4 704.4 714.3 728.7 735.8 726.9 735.7 737.4 733.3 724.8 727.3 724.9 715.8 716.7 707.2 693.6 676.3 652.9 651.8 654.6 659.8 657 662.5 656.9 651.6 660.1 667.4 678.9 698 716 732.5 749 765.1 783.9 800.7 819.9 838.7 848.7 831.2 754.7 699.6 673.2 636.9 606.7 592.9 591.6 595.7 601 604.6 610.1 613.4 616.7 619.7 621.9 622.7 622.9 625 625.2 626.8 624.8 625.7 625.8 627 632.6 641.4 651.7 659.8 667.9 674.7 677.6 679 675.9 669.2 659.7 652.2 644.7 628.7 612.9 604.2 595.1 590.5 583.9 578.8 574.7 573.2 579 583.6 586.3 586.5 586.1 583.7 581.6 579 576.2 571.2 565.7 562.5 556.6 551.6 547.2 541.9 533.8 529.7 525.2 517.7 512 506.2 501.2 495.6 488.6
194.9 190.2 185.4 182.2 180.6 179.9 179.4 178.9 178.9 179.3 179.7 180.6 182.2 180.8 181.8 187.2 187.7 187.4 190.2 190.8 199.8 198.2 198.8 198.8 200.8 202.4 202.8 208.3 207.7 204.6 206.3 207.5 205.8 209.9 219 223.9 221.3 230.8 228.8 231.8 239.6 244.6 240.3 240.3 242.1 246.6 246.8 248.2 251.9 256.8 258.5 258.1 256.7 258.2 258.4 260.8 263.6 264.3 262 260.7 266.9 262.7 264.9 265 268 269.1 266.6 231 259.8 289.3 303.4 319.9 333.7 349.6 365 384.6 406.1 433.6 452.7 472.4 488.4 502.6 525.3 546.2 568.3 590 606.7 626.6 642.2 657.6 671.4 691.9 703.3 703.9 704.7 712 728.3 747.1 745.9 729.9 722.1 721.7 712.1 704.1 699.9 670.2 648.4 649.7 647.2 648 656.5 652.3 647.1 648.4 643.9 650.9 662.4 675.8 691.1 703.9 725 740.8 757.5 774.9 791.4 810.1 824.6 839.6 813 740.7 693 662.2 623.4 598.9 589.1 586.3 587 594 600.8 606.6 610.8 613.8 613.1 614.9 616.2 620 624.9 622.7 619.9 616.9 616.7 617.5 620.1 623.4 631.3 641.8 650 657.3 664.3 669.4 672.5 667.6 658 647.4 638.9 628.1 614.1 602.9 593.9 583.9 578.1 572.5 570.1 565.8 570.8 573.4 575.5 575.2 575.5 577.6 575.4 575 572.4 568.2 563.8 559.5 555.7 551.2 545.4 539.9 533.2 526.8 520.6 515.4 508 502.3 497.3 493.3 486.4 477.7
186.5 184.6 183 179.7 180.6 181.3 182.8 183 182.6 183.4 180.3 176.4 174.9 176.5 176.4 177.6 177 180.7 182.5 183.4 186.3 188.5 192.2 187.8 189.7 190.5 192 196.7 192.6 193.5 197.8 197.9 199.4 200.4 211.9 214.8 212.3 222.1 220.9 226 225.1 229.7 231.7 230.5 233.7 237.1 239.7 238.1 241.2 241.4 243.4 245.3 245.6 247 245.5 248.9 250.4 251.6 253.9 250.9 254.7 254.6 254.2 255.2 258 258.6 246.2 237 268.1 286.5 300.7 317.1 328.9 343.6 358.9 377.9 400.9 429.4 449.9 465.7 480.7 498 514.6 531.7 547.6 567 585.5 599.3 616.1 624.8 635 650.8 678.9 685.1 699 702.8 720.8 743.6 731 716.2 726.9 714.5 701 679.1 663.3 646.5 643.2 640 633 639.8 643.6 642.9 639.2 636.3 634.3 642.8 656.7 669.7 683.5 698.8 715.6 729.1 746.1 765.9 773.6 792 805.3 815.6 792.3 707.7 677.8 645.7 610.8 595.2 583.8 586 582.9 588.8 598.2 605.9 608.6 609.8 608.2 609 610.2 610.8 610.8 610.6 609.9 608 606.2 604.5 608.5 614 620.4 627.6 633.8 638.7 643.8 649.4 656 652.4 644.2 636.7 625.3 615.4 604.9 593.2 581.6 575.7 570.2 565 563.9 564.8 565.7 565.2 565.8 566.9 568.9 569.2 569.2 568.8 565.4 561.4 556 552.5 549.6 544.4 537.3 532.2 526.9 520.8 514.3 508.8 502.1 496.6 489.6 483.4 478.2 471.6
181.6 181 181.5 183.6 185.2 187.3 191.2 192.2 195 199.2 192.6 190 184.9 180.6 176.1 176.9 176.1 173.7 171 176.2 179.1 178.3 180 180 178.8 178.9 181 181.9 180.8 182.8 185 184.7 188.7 196.1 196.1 199 202.7 207.1 206.9 216.4 218.1 225 227.7 225 225.8 229.2 230.9 230.7 232.9 235.8 236.8 235.9 234.5 236.7 240.8 247.6 244 242.1 244.6 244.6 245.3 244.2 246.2 246.9 248.2 248.7 229.4 242.1 267.6 282.5 295.3 307.7 322.8 337.7 355 372.1 399.1 419.9 438.3 450.8 468.2 479.6 498.5 516.7 535.9 551 565 582.3 587.2 598 609.2 626.6 652.6 664.4 678 687.6 699.7 712 705.8 713.2 713.4 704.1 679 670.6 656.1 640.3 635.2 629.5 623 637 643.9 636.8 630.4 627.4 630.6 638.8 651.1 662.5 675.8 681.7 687.3 704.8 716.5 732.2 749 758.7 756.5 760.6 738.9 682.6 658.5 620.3 595 583.7 578.1 582.3 580.4 585 589 596.7 600.6 602.9 605.4 601.3 600.4 600.5 599.7 599.6 599.6 602.3 596.9 592.7 595.6 602.9 611.4 612.4 616 618.9 622.9 628.4 628.9 629.3 625.6 615.1 606.6 599 590.1 580 573.1 568 561.7 557.3 556 557.3 556.4 557.4 560.2 561.8 562.3 562.7 563.1 562.4 558.3 555.4 551.9 548.6 544.5 539.3 532 526.7 521.4 515.1 509.4 504.1 496.7 489.5 483.4 478.4 472.6 464.2
183.5 184.1 188.9 195.5 200.8 202.5 207 206.3 211.3 207.2 205.7 203.2 201.2 196.3 187.2 183.5 179.4 174.2 168.6 168.6 171.4 173.3 172.6 172.2 171.8 170.2 171.9 172.6 168.5 173.4 176 174.1 182.8 184.7 185.5 188.1 193.2 194.8 199.8 204.1 206 217.8 212.8 216 220.9 223.2 224.4 225.9 226.9 227.2 227.2 229.3 230.6 230.4 232.2 237.7 236.8 235.7 234.2 233.6 235.5 235.9 238.2 237.1 236.2 239.3 216.9 241.7 261 278.8 289.1 303.6 314.8 331.8 348.7 361.8 382.5 402.3 421.3 433.2 448.2 468.1 483.7 501.4 517.4 532.2 548 566 576.7 585.2 595.3 611 625.2 636.4 646.8 659.4 670.1 682.4 691.7 702.4 699.2 682.3 671.8 667.5 656.1 640.6 630 629.6 615 618.8 623.8 624.9 622.3 619.2 626.4 635.7 646.4 656.2 662.9 662.6 666.2 686 698.7 708.8 710.6 718.4 725.3 727.2 699.8 659 627.7 604.6 582.5 574.4 571.6 575.7 576.8 579.1 575.9 577.3 583.5 589.9 591.2 590.9 593 592.5 591.8 590.7 593.6 591.7 587.4 582.9 583.7 589.9 594.8 597.8 599.2 600.6 604.2 607.6 609.7 607 603.3 597.2 590.5 583 575.1 568.2 563.1 558.4 553.7 549.7 548.6 550.3 549.7 552 554.2 555.6 556 556.9 558 563.3 558.7 552.5 547.1 544 540.6 535.4 528.6 521.1 517.5 510.4 506.1 499.7 492.9 485.8 478 474.3 469.5 460.3
192.5 194.9 202.8 208.2 212.6 213.6 215.4 217.3 219.4 223.3 221.3 213.6 209.5 209.6 200.4 186.6 180.3 177.5 173.2 168.1 165.5 164.7 166.7 167.3 168.1 166.1 165.3 164.7 163.8 164.2 164.2 165.2 174.4 176.6 176.8 179.9 183.2 186 191.8 195 193.6 199.5 201.1 210.1 216.6 216.4 218.3 216.6 217.1 221.2 220.8 221.9 225.8 226.7 226.4 224.9 227.5 227.6 228.1 226.4 226 227.9 228.9 231.6 230.2 214.3 219.7 242.1 258.4 272.2 286 297.9 308.2 325.2 341.4 350.1 368.6 389 408.2 422.2 438.9 452.9 482.7 497.6 512.2 528.6 545.2 557.8 568.1 581.9 594.1 599.2 606.6 623.6 639.6 649.6 658.5 667.6 674.6 674.8 675.7 674.6 666.6 660.8 650.1 632.2 623 618.6 606.5 604.9 613 612 611.6 609.4 621.4 632.4 642.5 648.1 650.5 645.1 652.4 679.1 678.8 677.5 681.2 692.7 699.8 696.6 664.4 634.1 609.3 587.4 573.8 569.7 571.2 574.3 575.5 573.5 570.7 570.4 575.6 581.2 582.7 581.8 583.5 584.5 583.8 582.6 582.4 580.7 577.3 572.9 567.5 568.2 573.9 579.2 581.6 582.7 584.1 584.9 583.5 582.4 580.1 575.2 570.2 565.7 562.9 558.9 556.1 553.3 551.3 546.9 543.4 544.5 544.4 545.4 547.4 549.4 550 550.9 554.3 556.4 551.5 547.9 543.9 540.5 536.8 531.3 525.9 520.1 515.1 509.7 502.5 496.8 491.2 483.3 473.5 467.8 461.7 455.5
207.8 213.1 216.6 221.3 224.9 227 226.1 230 229.9 227.7 226.3 219.1 215.7 209 194.7 189 190.8 186.5 179.8 175.3 170 164.4 161.9 163 165.5 164.4 163.9 162.9 162.4 161.3 160.1 161.1 165.8 168.1 168.4 171.1 173.8 176.7 180.5 186.5 186 185.8 186.7 197.5 205 206.4 205.7 207.7 213.7 213 214.2 214.1 218.2 218.7 220.8 221.6 220 220.5 220.1 224.3 222.4 222.9 222.9 224.7 225.5 202.2 226.6 243.7 258 268.1 278.9 291.2 305 317.3 330.6 345.6 360.7 374.7 394.1 410.8 428.6 451.7 467.7 487.3 507.1 523.9 538.8 549.8 557 565.7 573.7 581.8 594.2 616.1 630.9 640.2 646.6 648.5 657.2 668.6 678.7 680.3 660.1 646.3 644.9 624.1 617.4 610.9 602.6 592.3 597.4 601.5 600.3 606.5 617.2 628.5 636.5 642.9 642.1 638.1 636.7 646.8 661.3 669.6 674.9 676.2 670 663.2 643.4 623.5 597.3 583.8 576.7 570.8 562.6 561.6 563.7 565.8 566.6 565.2 569.6 573 574.2 573.5 575.3 576.2 574.8 575.1 575 571.9 568.1 561.5 558.1 555.9 558.1 563.5 567.1 568.1 568.6 568 566.1 564 562.1 559 556.4 556.3 554.5 553.5 551.2 548.2 545.5 542 536.1 537.5 539.9 538.7 540.7 542.6 544.2 545.4 547 548.9 548.3 545.8 543.9 539.5 532.8 527.5 519.5 512.2 508.7 503.9 499.7 493.9 484.5 478.5 469.6 462.2 455.1 451.1
223.5 228.4 229.1 232.4 239 242.7 240.2 235.6 234.4 236 233.9 225.7 216.3 206.6 199.8 209.8 207.7 195.4 187.6 184 179.1 172.5 168.3 162.3 161.4 162.3 162.7 162.2 161.3 159.8 159.7 158.3 158.5 158.2 158.6 163.1 165.8 169.1 170.8 174.4 176.8 177.4 177.1 184.9 185 196.8 202.2 204.8 206.3 207.1 206.4 204.4 210.1 212.9 212.6 211.7 210.1 208.6 212.2 215.4 217 215.8 219.2 219.9 218.5 199.7 227.5 242.1 254.8 264.7 276 289.2 301 312.1 326.1 337.1 347.1 368.9 384.2 399.7 415.2 433.6 451.1 465 485.7 501.6 515.4 531.8 538.9 546.8 557.1 567.5 578.8 594.1 607.5 619.6 629.1 641.1 653.2 666.2 672.2 666.2 647.9 633.2 624.6 611.5 601.4 597.3 590.8 587.9 593.2 599.7 593.7 598.7 612.8 621.8 628.2 633.4 637.1 634.2 631.9 636.9 654.2 665.9 667.5 668.2 657 649.2 637.4 613.9 600.3 595.9 585.2 573.3 560.1 550.7 554.7 557.6 559.5 559.1 559.5 561 563.3 564.6 566.7 567.5 568.7 569.1 567.7 562.3 556.6 546.8 548.2 546.9 547.7 550.4 554.9 558.8 560.6 560.3 560.1 559.2 556.5 551.8 548.2 545.8 544.2 542.7 540.5 539.2 537.7 536.8 531.8 533.6 534 533 533.3 535.3 537.6 538 538.8 539.8 543.3 547.4 548.1 538.6 530.2 522.3 513.7 508.8 505 501.5 494.3 489.6 483.5 474.9 465.3 457.9 452.5 447.4
241.1 247.5 244.9 242.3 243 248.1 249.7 246.6 240.3 236.4 232.2 224.3 212.6 209.2 211.7 216 210 212 212.2 202.5 191.8 182.7 174.4 168.7 164.3 162.4 159.9 159.3 161.5 162 161.5 161.2 160.6 159.7 158.7 156.6 161.8 162.8 163.9 164.7 167.5 169.5 171.3 181.9 181.3 182.6 191.7 196.5 198.2 198.6 201.7 198.8 201.3 202.6 210.1 211.6 207.1 204.8 201.5 205.2 206.3 210.3 213.4 216 216 194.9 219.8 240 251.6 263.8 274.6 286.4 296.3 308.4 322.4 332.5 344.2 360.3 379.1 393.6 407.6 423.1 435.4 455.5 474.3 488.6 497.4 507.7 522.3 534.8 549.6 564 581.1 592.4 603.8 614.8 623.6 635.4 649.6 656.6 657.8 646.7 636.9 615.5 603.2 590.9 584.3 584.6 582.8 579.7 589.8 592.6 591.2 594.2 602.1 608.1 615.8 628.8 632.9 628.2 629 635.7 645.4 657.3 666.5 675.8 673.2 654.8 640.6 623 617.9 613.6 593.3 572.5 556.4 551.1 545.7 550.1 553.1 551.2 550.4 550.9 552.7 557.1 559.3 561 560.4 559.2 554.4 549.9 543.8 537.7 537.3 537.5 539.5 541.6 546.5 551.9 553.8 556.8 559.4 555.5 550.5 544.3 538.9 535.8 534.9 534.6 535.3 535.7 534.6 532.5 529.5 525 526.6 529.1 529 529.6 529.3 529 530 530 533.7 538 541.1 536.5 523.8 518.1 511.4 507.8 502.7 493.8 491.2 487.6 478 471.7 462.2 455.2 451.3 446.7
254.2 253.9 253 253.8 253.7 247.6 242.5 238.9 236.2 236.4 229.1 217.8 212.3 220.5 225.8 227.9 225.5 233.9 222.3 211.3 204 203.3 195 180.7 173.7 170.5 169.4 172.4 172.9 169.7 167.2 163.7 161.4 159.4 158.6 157.7 158 159 160.1 160.6 163 167.2 164.8 169 172.6 174.1 176.9 178.6 185.8 188.5 188.8 188.8 192 194.9 202.8 207.5 203.7 201.5 196.9 192.7 193.7 200 204.4 209.5 200.3 187.8 219.1 237.7 251 259.9 272.9 283 293.8 305.7 319.2 327.8 341.3 354.9 372.2 384.8 398.7 413.5 429 440.8 454.8 467.4 481.7 505.6 517.5 527.9 544.1 561.4 577.6 592.4 600.9 608.6 614.8 625.9 636.9 635.3 637.4 638.7 615.9 601.2 599 583.7 571.1 568.2 569.5 571 578.2 582.4 580.8 585.8 594.2 601.9 608.6 616 623.1 624.6 631.4 640 649.2 663.3 677.1 683.9 677.2 663 657 639.4 643 622.6 597.7 571.7 560.9 559.2 551.3 542.1 541.5 539.6 542.3 543.1 548.7 547.8 550.1 550.3 549.3 547.1 542.9 537.5 533 530.5 531.8 530.9 535.5 536 539.4 545.3 548.5 552.4 551.9 545.2 539.9 535.2 534.1 533.3 532 531.5 532.1 530.4 529.8 530.4 528.6 525.3 518.2 522.2 520.8 521.6 521.7 521.6 521.7 522.1 525.1 531.1 529.2 526.7 521.3 512.6 507.6 503.8 495.9 489 483.4 478.8 472.5 464.5 456.9 451.9 448.9 443.1
257.1 260.3 262.4 262 259.5 252.7 240.7 234.8 231.3 229.4 228.5 222.6 222.9 234 233.6 234.7 234.9 235.3 226.6 223.5 218.8 209.9 196.4 187.1 192 192.1 187.7 188.1 196.3 189.5 178.2 178 173.2 169.1 163.9 159.2 155.8 156.9 156.9 157 159.5 157.9 159 162 162.5 163.2 166 170.5 172.9 172.6 176 186.6 191.4 195 190.3 193.6 195.2 194.8 189.1 186.2 190.8 192.6 193.9 198 185.9 202.4 221.4 234.6 248.8 258.7 270.6 278.2 290 298.8 311.2 320.4 332.9 346.8 359.7 374 387 407.3 424.5 435.4 446.6 462.7 482 496.7 509.5 520.5 534 555.9 571.1 587.8 598.9 602.2 606.3 615.8 616 619.6 628.1 619 595.8 584.6 570.8 557.2 556.7 548 551 558.6 563.6 564.8 559.7 577.4 585.2 593.2 597.8 604.4 615 626.3 636 649.8 662.2 670 674.1 678 679.2 676.2 673.9 662.5 645 626.6 615.7 592.8 574.8 566.5 551.5 541.9 530.6 533.6 535.8 537.8 537.3 538.6 538.6 537.9 538.6 536.1 529.8 527.8 526.8 528.7 529.4 528.7 531 534.7 538.5 539.7 541.6 543.6 542.5 541.3 538.6 536.2 533.8 532.6 531.3 531.1 533.4 530.6 526.1 525.8 523.7 517.2 514 513.7 513.7 513.4 512.9 513.5 513.2 512.6 513.1 513.2 513.9 512.1 507.2 503.7 498.9 495.5 489.4 482.5 475.9 474.2 468.5 461 455.3 447.5 444.4 441.8
263.6 263.7 265.8 263.4 261.8 260.8 251.6 241.9 238.3 231.7 229.6 224.3 230.8 237.2 239.8 241.1 239.8 239.5 230.5 229.3 224.8 226.1 218.1 218.2 222.5 218.7 217.4 201.6 211.5 201 201.1 192.9 187.9 186.5 177.7 164 160.4 158 153.7 150 152.5 151 150 153.8 155.6 156 157.4 162.7 166.5 169.4 182.2 188.6 185.9 183.7 182.1 183.9 183.5 182.2 176.5 179.2 182.3 183.1 188.4 191.6 185.4 206.6 218.6 231.8 241.8 252.1 261.9 273.6 283.1 293.4 304.1 313.5 323.6 336.8 350.5 362.5 381.6 396.6 415.9 433.9 443.6 457 472.7 487.3 498.1 511.9 520.2 533.1 545.5 562.1 571.8 576.1 583.6 601.6 605.1 605 598.3 602.7 585.9 570.4 549.1 539.3 541 535.2 537.6 542.5 547.6 551.8 552.6 566.1 574.7 581.7 587.4 598.4 608.2 623.3 633.2 649.2 658.8 664.7 661.3 661.2 658.4 664.9 673.6 682.8 673.8 646.2 615.9 587.2 571 555.8 541.8 532.9 524.8 530.4 530.6 530.2 529.1 528.7 529.8 529.3 526.3 526.1 522.5 523.3 523.7 525.5 527.7 528 529.7 535.2 538.8 537 537.5 540.5 541.4 540.2 537.7 536.2 534.3 532.7 532.1 534.4 531.7 529.6 528.7 523.8 516.9 516.7 515.7 506 507.6 504.3 503 501.8 503 505.4 505.8 506.6 505.3 502.8 502.8 498.9 491.2 489 480.8 473.7 467.4 465.1 461.5 454.1 447.1 443 438.7 438.9
279.5 277.8 279 277.1 274.5 283.8 280.3 260.6 247.3 246.2 236.1 234.7 243.4 241.8 243.2 242.5 245.2 245.9 242.4 236.5 246 242 242 238 231.6 229.9 229.3 214.6 217.7 215.9 220.1 216.6 196.3 198.8 190.1 175.9 178.1 176 168.8 158.7 153.6 149.7 147.5 147.5 149.3 148.7 150.7 155.7 155.5 163.9 171.8 176.6 172.3 170.2 171.6 173.3 172.8 171.6 167.3 168.9 173.7 177.9 173.9 172.8 189.2 205.6 214.6 226 237.6 247.7 258.3 267.8 277.7 288.3 295.4 304.9 316.8 328.2 339.5 354.2 368.5 386.8 403.4 418.3 434.9 449.2 460.7 471.1 485.6 498 506.4 520.3 536.5 552.3 561.4 566.7 562.6 572.1 572.1 579.1 587.7 576.8 552.8 542.8 538.5 531 529.7 520.4 518 523.4 531 532.1 544.2 555.1 564.1 572.6 579.7 587.9 596.3 604.6 615.2 625.4 630.7 633.1 632.4 639 649.5 658.5 668.3 662 645 622.4 599.9 574 555.1 542.3 531.3 526.1 520.6 525.6 525.8 520.2 523.5 521.5 521.6 521.2 517.9 518.8 516.1 517.5 522.7 525.3 526.4 526.6 527.8 530.7 532.4 533.7 536 538.7 540.8 539.3 537.2 534.8 534.8 533.6 533.3 531.5 530.8 529.3 533.8 526.9 516.9 507.6 500.2 496.9 494.6 495.3 494.7 493.6 495.5 496.8 497.2 496.8 495.5 495.6 493.5 487.2 481.6 478.1 471.8 465.9 460.6 455.5 451.3 446.3 441.9 435.9 436.4 435.9
293.8 292.6 287.4 282.5 286.9 287.5 276.9 267.7 253.6 245.1 239.3 248.1 246.7 244.4 243.4 244.4 248.7 247 252.2 247.7 248.4 251.4 255.4 249.8 250.9 249.9 239.2 233.1 240.6 234 233.4 235.7 216.1 209.1 197.1 198.2 202.1 195.4 180.2 173.1 167.9 159.1 150.4 148.4 144.6 144.3 145.5 147 151.5 160.3 159.6 158.7 160 161.6 163.3 163.5 162.6 160.6 158.4 159.7 168 164.6 171 181.8 188.8 200.8 210.2 222.3 232.9 242.5 252 259.6 268.5 277.8 289.3 297.7 307.4 320.6 331.3 343.6 358.6 378.8 400.3 413 423.1 434.6 447.5 463.4 482.3 494.9 508.8 517.8 532.3 539.3 550.4 551.6 544.8 536.2 539.8 530.2 533.2 526.6 531.5 530.9 530.3 527.8 516.5 509.8 504.8 510.3 517.6 516.4 530.2 540.8 550.9 562.5 571.5 578.4 584.9 593.6 600.6 608.8 613.8 616.7 619.5 624.4 636.1 647.4 645.7 636.6 620.5 598.9 577.5 558.4 544.3 534 527.5 522.9 517.8 516.4 513 512.1 514.4 515.9 512 512.6 509.6 516.3 517.9 518.8 519.9 521.7 522.5 523.5 525.3 527.3 529.7 532.5 534.7 537.4 540 540.8 538.4 537.5 536.4 538.6 538.4 530.9 528.6 527.8 530.9 522.1 511.6 500.7 488.9 485.6 487 484.8 484.4 485.1 487.1 486.1 485.8 486.7 488.6 487.5 483.8 479 474.4 469.5 466 460.4 454.1 450.4 443.7 439.4 436 431 430.5 428.9
304.6 303.2 296.7 294.3 293.5 288.8 274.6 263.4 264.7 252.3 254 259.1 256.9 251.5 245.8 248 256.9 261.4 261.5 254.8 259.4 263.2 260.7 257.4 257.5 257.4 246.1 246.3 256.3 255.7 242.6 251 234.7 226.5 218.3 227.5 219.5 205 199.4 194.5 184.9 169.6 156.3 152.2 147 149.4 145 144.4 146.7 149.2 147.9 147.1 147.5 148.2 151 153.1 152.5 150.9 151.4 155.4 157.8 160.3 170.3 175 185.5 196.2 207.3 216 226.5 236.4 245.7 254.3 261.3 270.9 279.1 287.8 299.5 309.7 322.6 337.9 355.2 371.6 384.2 399.7 413.4 429.8 446.2 466.9 483.1 492.7 503.3 508.1 514.7 519.3 519.8 527 516 504.9 504.5 508 510.3 513.6 521.7 519.7 508.6 508 509.4 505.7 497.4 500.2 504.8 507.6 518.8 524.1 539.6 551.4 559.3 568.2 574.7 581.2 588.7 596.1 599.6 604.9 613.1 623.7 635 639.9 636.7 623.1 599.4 577.5 560.7 546.2 537.7 534.3 530.2 524.5 520.1 514 511.3 508.1 504.3 504.8 504.3 507.4 510.3 511.6 513.6 517.3 518.4 519.8 521.1 523.1 525.3 527.5 529.7 532.4 534.7 538 541.3 544.6 544.7 547.6 552.7 556.3 546.7 533.1 525.3 521.9 519.1 512.2 500.3 486 477.3 473.5 473.2 475.6 475.9 476.8 476.6 477.5 475.9 476.2 477.7 476.9 473.7 470.3 466.2 461.6 457.5 454 448.9 444.6 439.7 434.2 430.3 425.7 421.8 421.5
301.7 300.1 302.1 304.6 304.2 301.8 285.8 274.8 264.2 257.1 267.5 265.9 263.2 258.1 256.2 259.8 261.2 263.6 265 261.5 262.5 260.9 260.1 263 266.3 257.8 248 257.7 264.9 266.4 254.3 251.9 241 238.4 233.9 238.6 229.2 216.7 210.8 205.3 193.5 176.7 168.4 164.3 158.7 154.9 147.1 142.6 141.2 141.4 140.5 140.9 140.9 141.7 144.1 144.1 145.1 145.7 148.8 151.5 154.3 159.9 163.6 170.6 178.7 190 203.1 211.1 217.8 229.6 237.4 245.6 252.8 260.8 270.5 282.3 292 303.2 314.9 330.3 349 365.6 378.1 391.4 402.7 415.8 433 451.6 463.8 470.9 480.7 483.9 483.7 499.8 508.6 504.1 490.2 494.2 498.8 500.5 504.7 505.5 507 503.9 499.3 497.7 499.6 498.5 486.6 491.8 491.6 496.1 501.5 511.8 521.3 533.9 544.3 554.4 563.2 570.1 576.4 583.3 592.7 601.4 610.2 620.2 620.4 616.3 609.6 597.9 579.2 559.6 547.9 539 533 528 520 511.8 506.6 502.9 499.6 497.9 495.7 499.4 500.8 504.3 508.9 510.6 515.6 517.5 518.3 519.4 521 522.7 525 527.2 528.8 531.6 534.2 537.7 542.7 548.4 557 560.8 561.8 563 550.7 535.6 524.5 518.9 514.6 503.6 488.8 478.2 467.6 463.2 465.6 464.6 464.5 465.8 465.6 465.2 466 465.8 467.3 466.8 464.6 462.7 459.8 456.7 453.3 449.8 446.3 439.9 436.3 430.9 422.6 421 414.4 412.1
308.4 302.2 302.7 304.3 311.6 302.7 289.5 285 269.1 266.1 271.1 269.1 263.7 266.8 272.6 272.6 268.4 266 264.9 264 269.1 270.7 268.6 264.3 262.9 258.3 256.5 263 265.5 261.5 258.4 263.1 256.1 244 244.2 237.9 228.7 219.9 225 212.4 194 196.3 193.1 188.1 175.9 164.6 155 148.4 142 139.2 138.1 139.3 139.9 140.1 141.2 142 144.4 146.3 148.7 151.2 153.4 159.1 159.9 164.4 171.6 180.4 195.7 206.8 211.3 222.1 230.3 236.7 245.3 252.5 263.4 273.6 282.2 294.7 306.8 321.1 343.8 361.1 372.4 382.9 393.3 403.3 417.3 430.5 445.6 455.7 457.7 457 453 459.1 468.8 479.3 483.9 479.8 485.1 491.1 491.7 495.3 498.1 493 492 490 492.5 486.5 481.7 481.8 482.5 486.1 491.6 500.3 511.4 522 534.5 546.7 554.2 564 571.5 578.8 586.9 598.3 604 606.7 604.8 601.8 591.7 582.6 564.9 546.7 534.9 526.6 519.1 510.9 504.4 500.6 498.8 497.4 493.2 491.5 491.7 495.3 500 503.2 507.4 509.5 513 515.4 517.4 518.5 519.4 520.3 522.2 523.8 526 529.9 532.5 537.8 547 557 563.6 565.7 565.2 562.5 557.8 546.5 523.2 514.2 502.1 484.1 472.3 465.4 458.9 456 454.3 453.4 453.4 452.8 453.7 453.5 454.1 455.3 457.1 456.6 456.8 456.1 453 449.8 445.3 442.3 441.3 435.1 429.4 424 414.6 412.1 405.7 400.8
307.1 303.3 305.4 303.5 310.3 305.5 290.5 286 273.7 282.2 279.4 274.8 275.6 281.4 285.5 283.6 277 272.7 280.2 274.3 268.8 266.2 263.5 265.1 261.5 260.6 264.5 269.8 266.9 261.4 260.4 260.5 256 246.9 250 240.5 232 223.2 230.4 226.1 205 208.5 202.7 195.3 189.6 185.1 165.1 152.7 146.3 141.8 140.3 139 139.4 139.7 141.3 142.1 142.5 144.8 146.3 148.7 150.5 154.7 156.5 159.5 163.1 172.1 186.4 200.2 203.6 210.5 219.1 225.2 233.9 243.9 254.7 264.5 277.3 286.1 300.5 313.5 328.1 345.5 362 375.1 387.2 394.7 402.6 412.7 420.7 425.5 432.8 438.3 439.3 451.7 459 469.1 473.1 478.1 487.9 492.1 495.2 493.6 493.5 493.7 487.6 484.7 481.4 474.3 473.4 474.9 472.9 476.5 484.6 491.5 503.1 515.8 529.2 540.6 552.3 562.7 572.7 581.8 589.9 594.8 594 598.3 603.6 597.9 584.2 568.7 550 534.7 522 515.9 507.9 503.5 498.3 492.1 489.7 490.2 488.2 481.2 490.9 492.6 498.8 502.4 504.4 506.5 509.1 510.7 512.6 513.6 514.6 516.1 518.3 520.4 523.5 527.5 531.8 538.2 549 558.1 562.9 564.2 563.2 566.2 561.2 547.7 522.9 503.9 487.2 474.5 462.1 455.1 450.7 450.4 447 445.4 441.7 442.2 442.5 442.7 443.8 446.3 447 447.7 449.1 448.5 444.6 441.7 438.8 433.3 429.1 425.4 419.8 416.4 410.5 403.8 393.6 385.2
314.1 302.2 294.3 294.7 304.4 297.4 289.7 282.8 282.7 286.3 286.3 283 286 291.8 286 284.9 283.7 280.9 276.6 270.9 268.9 270.5 268.7 265.7 263.8 263 264.8 269.9 272 268.6 261.6 258.7 257.1 259.4 255 252.5 246.2 233.7 230.6 227.7 212.8 212.4 207.2 207.3 203.3 198.1 183.5 167.6 156.7 144.9 139.9 137.7 138.8 139.6 140.3 142 142.1 142.8 143.8 146.1 146.9 149.7 151.5 155.7 157.6 166.3 178.1 185.9 194.4 198.9 208.2 217.1 225.5 234.9 244 258.6 271.8 282 294.4 305 318.3 333.9 352.8 364.5 374.3 385.3 397.7 403.2 402.6 410.1 419.1 424.6 433.4 440.7 448.4 460.8 464.5 470.5 482.3 487.4 492.4 497.5 501.9 496.5 489.7 478.8 470.9 471.2 465.7 468 467.7 472.1 476 487.4 499.4 514 527 537.5 547.3 559.6 570.9 581 588.1 591.6 586.7 584 584 582.9 568.1 546.8 533.2 522.4 511.8 503.3 497.2 491.1 487.5 486.6 484.4 483.7 484.7 485.2 489.1 491.5 494.8 497 498.3 500.2 502.7 505.2 507 508.8 510.3 512.3 514.5 516.6 520.7 523.6 529.9 535.7 543.3 551.1 553.8 559.4 563.8 565.1 554.8 538.2 508.6 487.9 477.5 466.5 455.1 446.3 441.6 439.5 439.8 435.8 432.3 430.4 431.7 431.3 433.9 434.9 436.9 439.7 441.7 443.1 441.2 436 431 424.9 421.2 415.8 413.4 406.1 400.8 391.7 380.5 374.9
322.2 307.4 298.1 292.2 292 294.6 286.1 285 283 287.9 289.7 288.7 290.6 289 289.1 291.4 291.2 289.9 283.9 276.4 275.2 280.4 282.5 275.9 268.6 273.5 271.2 270.6 271.9 271 266.9 263.4 260.5 260.9 263.6 263.3 258.7 249.9 238.7 229.4 231.6 223.5 226.5 220.4 211.8 199.6 192.4 183.3 167 151 140.6 137.1 139 140.2 140.9 141.6 141.5 141.4 142.1 142.8 143.3 147.9 147.8 149.5 158.6 165.8 168.1 174.6 180.2 191.2 199.3 206.2 214 226.1 236.2 248.1 260 272.5 286.3 297.9 312.5 325.6 337.8 350.7 363.4 372.5 379.3 393.7 401.9 409.3 414.7 420.5 427.1 438.1 446.6 452 458.8 464.6 475.7 488.7 499.8 509.8 507.7 496 492 477.4 468.7 467.4 454.6 455.5 464 459.2 472.4 483 497.7 509.7 521.5 530.2 540.5 552.3 564.4 573.9 582.3 585.5 582.5 577.1 567.9 555.5 542.4 532 517.1 507.5 501.1 494 488.7 486.4 483.3 480.4 480.9 480.9 477.6 483.2 485.8 487.8 489.7 490.9 492.8 493.7 496 498.6 500.4 502.6 503.9 506.6 509.6 512.2 513.4 517.4 523.5 528.3 533.6 541.1 548.3 552.9 552.9 550.5 539.4 512.8 494.2 476.7 469.4 461.9 451 441.5 435.7 431.4 426.6 426.9 424.7 423.9 423.1 422 422.7 425.7 426 426.8 429.6 434.8 435.9 429.5 422.5 416.5 410.9 403.9 397.5 390.8 384.7 375.7 370 358.8
321.9 309.2 310.3 296 294.6 288.2 288.5 291 284.8 290 294.3 297.7 293.4 295.7 297.8 298.6 296.1 291.7 286.7 283.4 282.9 280.1 278 280.5 276.3 277.2 277.4 279.3 276.6 274.6 272.1 270.6 268.8 268.2 269.5 267.8 260 256.1 244.8 241.9 238.9 227.9 223.6 220 208.7 200.5 194.4 191.7 172.5 159.3 146.1 139.2 136.6 140.2 140.6 140 140 139.8 141.5 141.3 141.9 142.1 142.2 146.9 156.9 159.1 163.3 165.8 172.8 179.9 190.8 199.1 208 219.2 226.1 234.6 248.6 263.9 275.1 288.9 301 316.5 328.2 339.2 349.5 360.3 372.6 386.8 401.1 409.3 416.7 425.3 425.6 429.7 437.2 445.6 452.3 460.5 474.9 486.9 489.2 495.2 498.1 488.8 481.2 468.9 463 454.6 448.1 441.8 450 456.3 466.1 477.6 490.2 501.5 512.2 520.5 530.8 541.7 549 561.6 566.2 570.5 569.4 557.1 551.1 542.2 530.4 515.2 504.3 496.2 490.6 485.4 482.2 478 477.1 475.3 475.5 475.2 469.7 478.9 481.5 483 482.9 483 483.7 485.9 488.4 490.7 492.9 496 498.1 500.8 503.3 505.5 506.7 509.2 516 520.5 524.7 532.2 539.5 538.4 533.5 530.4 508.2 499.9 481.3 466 459.8 454.6 442.6 432.9 429 424.7 419.2 421.7 416.9 416.2 418.4 417.5 414.6 416.1 414.8 414.3 418.6 422 423.9 424.6 415.5 405.6 398.9 391 383.2 376 366.8 361.2 352.6 343.5
317.8 316.8 313.6 304.8 306.1 301 292.1 287.8 290.7 294.8 302.4 301.2 301.7 302.5 303.5 301.1 297.8 298.4 294.9 293.5 293.6 287.9 282.8 283.3 286.1 286.7 286.5 291.6 295.8 289.4 286.7 287.8 287.2 283 274.5 275.9 272.6 269.2 253.4 255.3 246.5 233.8 226.2 217.9 216.3 208.2 197.3 186 175.7 166.9 151.4 141.5 140 139.6 138.9 136.9 137.1 136.4 136.4 136.7 139.2 139.3 142.5 147.3 153.9 157.7 156.7 160.3 166.8 173.9 181 188 197.7 207 217.2 226.7 240 254.6 264.9 280.1 294.3 307.7 318.6 329 341.9 355.9 370.7 380.7 392.3 401.1 407.5 417.4 421 423.7 428.9 435.7 444 450.8 457.6 468.3 470 475.4 472.5 472.5 473.1 464.1 461.4 453.2 452.5 429.9 439.5 447.3 457.9 468.8 480.7 491.3 500.9 508.6 516.3 523.4 530.2 536.8 543.9 545.7 534.7 530.9 534.6 522.9 510.6 497.7 490.7 486.3 480.6 476.4 474.4 472.9 472.4 472.5 471.5 471.1 470.1 473.1 473 474.6 475 476.2 476.9 478.5 480.2 482.5 485.7 488.7 490 492 494.7 496.7 497.7 500.5 507.7 513.5 514.7 515.4 516.5 514.1 511.7 510.9 497.6 488.5 472.2 459.4 447.9 437.3 433.7 430.1 425.8 423 411.9 413.5 413 413.2 412.8 411.1 408.1 407 406.7 407 408.3 410.3 413.5 411 399.8 391.6 388.8 378.9 366.8 357.6 349.8 346.1 332.8 331.1
323.3 319.1 319.5 312.8 305.7 301.1 295.6 291 297.2 300.7 303.3 305.6 311.1 311.7 310.5 306.5 303.1 302.1 306.9 310.4 308 304.1 297.7 293 295.2 297.9 296.6 300.4 300.4 301.1 299.6 297.6 294.8 291.2 294.3 293.4 282 269.2 270.3 267.9 258.4 250.7 242.2 232 229.3 229.5 205.5 190.3 186.9 169.1 152.8 145.6 140.3 138.4 137.7 138.2 139.4 139.3 138.4 137.9 137 137 138.7 142.7 147.4 151.9 152.1 154.6 164.1 167.1 173.2 176.6 184 196.1 212.6 217 229.4 244.2 254.5 269 288 301.7 313.9 322.9 335.7 348.8 361.8 372.1 380.7 389.9 396.4 401.7 407.7 412.5 420.5 427.2 432.7 436.7 443.8 452.5 456.8 457.3 458.9 462.6 464 460.1 450.7 453.1 450.3 423.1 428 437.8 448.6 459.2 468.8 478.3 486.5 494.5 501.5 509.5 515.6 519.5 520.6 518.2 518.1 524 519.5 506.1 494.6 485.4 480.4 474.7 471.9 470 468.5 466.4 466.1 465.4 464.4 464.6 463.9 465.9 466.3 466.5 467.8 467.9 468.3 467.6 468.6 471.4 475.1 477.1 480.2 484 486.7 486.5 486.7 488.2 494.2 497.1 501.1 501.9 502.8 506.1 508.4 505.1 495.3 481.7 465.1 452.3 439 427.5 426 420.3 417.5 415.4 407.1 406.4 407.9 406.4 405.3 402 401.7 401.5 400.3 399.6 395.8 394.7 396.6 391.4 382.3 374.5 367 358.8 353.8 346.6 338.2 326.5 313.4 317
335.7 327.6 322.6 316.9 308.2 304.1 301.6 295.4 303.9 304.2 304.5 313.7 316.2 314.5 310.9 309.5 309 313.9 316.8 317.3 319.1 313.3 306.5 312 312.7 312.4 311 310.2 312.1 309.8 309.8 299.4 296.7 300.2 302.9 299 288.3 286.1 290.8 280.8 269.9 272.2 270.1 257.8 228.4 210.6 200.8 189.6 180.8 166.6 153.2 147.4 141.5 140.6 141.5 140.4 142.9 152.6 153.4 149.2 142.8 136.3 138.6 137.3 141.4 142 145.5 146.8 154.5 159.6 163.6 168 171.9 185.5 199.9 211.3 216.7 232.9 245.8 260.4 274.1 290.4 305.1 317.4 328.7 340 352.2 360.7 369.5 378.7 385.2 390.7 397.3 400.7 408.6 416.2 420.1 425.1 435.9 439.6 444.2 449.8 446.5 451.4 450.6 438.4 438.2 447.2 446.3 421 424.5 431.9 436 445.5 455.5 464.8 476.1 483.6 492.5 501.1 507.2 509.2 509.5 510.6 512.8 510.5 503.6 490.2 487.1 477.9 472 468.6 463.8 460.5 459.5 459.5 458.9 458 458.3 458.8 454.7 458.8 459.2 460.1 460.6 459.2 458.5 459.1 459.4 461.5 464.2 466.6 473.5 478.3 475.1 474.7 473.9 472.6 476.7 482.9 486.8 487.5 489.1 497.8 501.7 495.6 489 474.7 458.8 445.5 430.6 422.5 417.8 415.6 411.2 407.4 402.3 400.6 397.8 400.1 396.9 395.8 397.9 397.4 394.2 391.6 382.1 379.7 378.2 374 368 358.6 353.1 346.8 344.5 341.8 332.2 309.3 293.9 298.3
341.7 332.3 328.5 330.8 323.9 325 312.6 303 317.2 321 311.5 313.4 319.3 320.4 319.6 322.9 321.5 318.1 321.2 322.4 322.3 318.3 312.8 321.3 321.7 318.5 316.8 317.3 317.7 321.4 324.6 313.7 310.7 309.1 310.8 308.4 306.2 296.6 303.2 292.5 292.9 283.8 273.6 265.2 230.1 216.7 209.1 193.5 180.8 177.3 170.8 157.8 144.2 142.2 142.8 142.6 147.3 154.6 162.6 155.2 149.3 146.1 135.2 138.1 138.9 139.1 140.1 139.6 139.8 144.4 155 154.9 163.8 175.2 188.6 200.4 209.8 221.6 236.5 251.2 266.2 278.2 296.1 308.4 320 332 343.1 353.1 361.2 369.5 375 381.2 386.4 392.1 400.8 406.7 416.1 415.6 424 434.4 438.5 438.5 436.9 441.4 436.4 433.7 434.9 437.2 432.1 417.1 408.3 421.1 425.7 433.7 444.5 455.8 465.9 474.4 485 493.3 495.4 499.3 501.2 503.7 501.5 495.9 487.3 480 476.1 467.1 463.2 460.1 458.5 455.1 455.1 454.3 453.7 453.9 454.4 454.6 454.7 454 455 454 453.7 452.3 450.8 450.8 451.1 452.5 454 459.4 463 462.4 462.6 463.1 463.6 460.8 461.3 467.9 471.8 474.9 477.2 485.3 487.9 487.5 480.3 464.8 449.4 441.3 427.8 418.1 419.4 417 407 402.6 401.3 402.6 395.7 388.8 389.2 389.6 392.1 392 389.1 386.6 374.9 369.3 365.2 362.4 360.3 349 342.5 339.2 336.3 330.6 318.7 297.3 283.5 287.3
344.1 339.9 344.2 341.7 336.8 327.1 311.6 322.1 328.8 326.4 319.4 318 324.7 326.5 326.2 326.4 325.5 327.4 327.1 322.6 319.2 317.6 319.8 321.7 322.5 325.2 330.7 333.9 327.4 322.6 322.5 327.3 327.5 319.1 314 317.5 313.4 319.3 311.5 312 316.5 312.8 303.2 286.6 260.7 247.6 244 210.2 205.7 204.6 203.1 193.2 173.7 155 149.5 145.5 147.4 152.5 156.2 152.6 145.8 142.1 135.2 140.5 139.2 137.6 138 137.9 137.5 138.6 139.9 143.6 154.1 161.6 178.4 194.8 202.1 211.9 228.2 241.9 253.7 268.6 282.7 297.2 311.9 321.6 332.8 343.5 352.9 360.8 366.8 372.2 376.4 382.5 391.4 395.5 401.2 406.8 413 408.8 414.1 418.6 425.1 425.1 426.8 433.6 424.2 421.8 412.1 398 400.5 410.8 417.3 427.9 436.4 447.1 455.8 463.6 469.7 476.9 486.6 490 491.5 491.7 490.1 483 472.9 467.2 463 460 457.5 455.2 452.8 450.7 450.7 450.6 449.5 449.8 450.2 450.6 450.4 449.1 449.1 447.9 446.6 445.8 446.8 444.9 445.1 446.3 447.3 454.4 457.5 457 456.5 453.5 453.6 452.6 451.7 453.1 458.6 462.7 466.1 474.2 476.6 476.5 463.1 447.6 438 427.6 419.3 417.5 414.1 412.8 410.7 407.7 396.4 390.1 387.5 387.6 385.2 384.8 383.2 382.5 379.8 376 364.7 358.8 358.8 356.8 352.1 349.2 339.1 329.5 318.9 315.9 307 281.4 276.6 279.1
351.1 355.2 349.6 345 337.4 319.7 323.7 329.8 334.4 329 321.9 325.4 328.8 333.8 333.5 331.4 332.1 332.2 331.2 332.7 328.5 327.6 324.4 328.1 338.4 335.2 335.9 333.8 331.5 334.7 336 335.5 334.7 333.5 332.1 325.2 318.1 319.4 317.2 329 329.7 316.7 320.6 300.8 268.5 257.1 251.7 221.8 219.2 222 223.4 220.9 195 165.8 158.6 146.8 150.8 154.6 152.6 151.9 147 142.8 135.1 138 137.3 136.4 137.1 137 136.1 136.2 136.7 137.8 143.1 156.3 175.2 185.8 195.3 205.5 217.2 231.8 243.9 257.3 271.1 284 297.9 310.3 320.9 331.6 340.5 347.6 355.4 361.9 366.6 371.8 379.2 389.6 391.3 391.4 392.6 398 406.4 412.8 417.4 415.2 417.7 423.1 410.7 394.9 389.9 378.5 395.6 402.7 408.7 420.4 429 436.3 444.8 449.9 456.7 462.8 469.1 475.8 483.8 484.2 478.6 468.3 459.2 456.3 453.3 451.1 450.4 447.9 446 445.3 445.2 445.7 445.3 445.6 446 446.7 440.9 443.9 444 443.1 442.2 441.1 443 440 437.9 437.6 441.2 449.9 452 452.1 449.8 446.1 447.5 444.3 444.5 445.7 449.1 452.7 458.8 462.4 459 454.4 448.7 440.4 427.8 421.6 420 412.9 416.4 420.6 410.3 402.3 398.6 390.1 386.7 385.7 380.5 379.9 377.8 372.3 367.4 363.5 358.6 352.3 357.9 358.8 352.6 347.8 335.9 326.5 319.7 301.6 286.5 268.4 264.1 258.7
352.6 351.3 348.4 340.6 342.2 324.7 333.1 335.6 334.6 332.4 330.5 336.6 339.2 337.3 340.1 340.5 340.1 339.9 342.6 340.6 339.5 336.5 338.4 341.6 339.5 336.2 334.4 340.1 341.3 339.9 338.1 338.6 340.1 342.1 334.1 331.8 328.9 326.7 331.3 327.1 320.4 315.3 304.1 289.1 273.6 261.4 241.6 225.7 224 222.6 218.9 222 198.8 172.6 160.9 151.2 154.4 159.8 159.3 152.8 145.5 142.8 136.7 135.3 135.9 135.1 136 136.8 136.5 136.2 136.5 136.4 138.5 151.2 170.8 179.1 189.4 199 211.7 223.7 235.1 249.1 259.7 272.1 285.3 296 307.1 316.8 325.2 335.6 343.4 350.2 356.9 361.4 366.3 372.8 376.3 379.5 387.5 394.6 400.4 408.7 409.5 405.5 402.3 400.4 396 393.8 380.8 373 385.8 388.8 399.4 409.4 417.6 425.2 430.5 436.3 444.1 450.2 453.4 456.6 458.1 459.1 453.8 451.9 446.8 444.2 444.6 443.5 442.2 441.5 440.8 440.2 440.6 440.9 441.3 442.1 442.9 443.4 441.2 441.5 440 438.9 435.8 433.3 430.9 428.5 429.2 428.7 433.8 439.5 441.8 444.3 443.9 438.2 435.4 435.9 437.2 434.2 438.7 445.3 448.3 445.4 440.5 438.4 434 428 424.6 419.4 413.7 409.6 408.6 410.9 399.7 399.4 396.4 389.3 394 390.8 386 379.5 374.3 365.7 362.3 357.2 345.2 336.1 345.6 346.9 348 347.8 334 318.8 304.3 283.9 267.6 254.8 250.8 246.2
356.6 352.2 345.9 341.3 345 332.8 336.4 339.5 338.6 334.9 343.4 342.4 350.1 348.1 349.6 352.3 353.3 353.7 353 354.1 353.2 350.1 351.6 351 344.3 345.3 342.5 347.9 358.5 354 347.9 346 345.9 347.8 339.7 338.7 340.1 334.7 339 343.1 322.9 302.4 292.9 282.7 270.2 247.6 230.8 225.9 221.9 219.1 215.3 210.5 193 181.7 168.8 156.7 162 164.4 159 151 148.8 148.6 148.3 150.3 149 143.3 137.6 134.2 135.2 136.3 136 135.4 136.9 149.2 163.5 171.1 180.6 192 205 217.5 223.9 233.9 245.8 258.3 270.4 281.3 291.5 301.2 311.4 319.9 325.2 334.6 343.4 348.6 356.2 364.1 367.4 371.4 381.8 386.4 386 386.2 390.4 404.5 396.9 387.5 388.2 385.7 379.8 361.6 369.3 377 387.5 403.9 411.3 414.8 419.9 424.2 429 434.1 437.8 437.9 437.1 440.7 444.3 440.2 435.8 431.9 433.3 432.5 431.5 433 435.3 435.3 437.9 437.7 439.3 439.7 440.7 440.7 439.2 435.5 434.8 433.1 430.8 427.4 424.8 422 420.9 422.5 425.4 429.2 433.7 433.5 432.4 430.1 428.1 429.8 429.2 425.8 426.2 431 430.7 431 430.4 422.6 423 418.9 414.3 410.2 405 404.5 400 397.2 397.4 401.5 401.6 398.5 395 393.5 393 381.3 371.9 366.3 360.3 341.7 328.8 316.8 320.9 326.4 332.6 330.1 311.2 301.5 282.7 260.7 252.4 246.3 242.9 236.7
354.2 348.9 345.7 342.9 340.7 333.7 343.6 343.2 345.5 344.3 346.8 352.9 357.6 362.8 364.4 365.8 365.5 367.8 371.1 368.7 362.4 358.3 357.9 352.2 350.1 352 356.6 365.4 376.3 368.9 362.6 362.3 357.6 354.5 356.8 361.6 364.6 363.6 340.1 339.2 333 309.7 310.2 306.5 291.5 258.2 240.6 236.7 228.4 224.1 217.9 206.5 192.4 180.9 167.4 166.1 171.6 167.1 158.4 153.6 157 163.9 169.5 174.4 172.7 166.4 156.2 150.6 142.2 134.2 134.4 134.4 136.1 144.8 154.5 163.7 174.5 185.5 194.4 203.4 209.5 225.5 237.1 246.3 257.5 266.3 276.8 287.2 297 306 313.1 323 329.6 338.5 348 356.4 362.1 362.4 367.7 373.7 374.6 372.2 379.2 380.7 380.9 380.2 384.7 383.8 375.7 354.5 358.7 367.9 377.1 389.4 396.2 400.6 404.9 410.6 417.1 422 424.8 425.7 433.3 432.2 435.6 433.1 435.4 430.2 426.5 428.2 429.9 429.9 431.8 429.4 433.6 432.4 436.5 438.1 439.5 440.8 438.9 435.7 431.6 423.4 422.5 417.4 412.1 412.3 412.7 413.6 414.5 416.9 421.4 425.9 426.1 425 422.5 419.8 417.4 414.8 416.6 416.3 417 419.2 420.4 419.5 414.1 409.7 408.3 403.8 396.5 397.6 395.2 393.6 397.6 402.7 405.9 403.2 395.8 392.5 384.1 371.8 371.7 362.5 345.1 323.5 315 296 295.8 308.3 314.2 295.9 287.1 269.6 262.6 252.5 249.9 243.4 234.1 226.2
356.7 355.1 347.5 344.2 348.5 342.5 348.8 350.6 353.8 348.1 356.2 366.1 371.3 372.8 372.9 379.3 380.4 385 378.7 374.4 373.1 362.4 357.8 361.4 367.6 365.5 376.8 379.6 386.7 386.6 382.2 378.6 378.3 366.6 375.9 370.6 365.7 361.8 358.6 341.3 333.7 328.9 317.9 307.4 291.9 263.1 251 241.6 228.7 220.6 209.3 199.2 188.9 178.8 169.6 178.9 192.4 184.3 161.9 159.6 163.5 172.9 183.1 186.5 195.3 187 181.1 161.9 145.9 137.4 134.3 133.4 132.9 134.5 143.5 153.7 164.4 173 180.6 194.7 207.4 219.7 226.9 235 243.9 254.9 264.7 273.4 282.5 292.3 300.7 311.2 319 324.8 337.4 348.5 349.3 353.4 356.9 359 361.1 367.8 374.5 374.6 374.3 374.7 378.8 379.3 372.7 350.3 352.9 357.7 362 370.1 376.8 386.7 393 400.5 403.3 405.7 411.5 424.3 426.7 427.1 432.6 430.7 431.4 424.5 425.1 432.6 433.7 430.7 427.4 424.7 429.6 430.4 435.5 436.8 439.8 440.1 441.9 437.9 433.4 426.1 411.5 407.5 402.4 399.9 402.4 404.2 403.5 403.6 410.2 415.9 413.8 409.4 409.2 409.8 407 405.8 405.5 406.7 408.8 410.1 411.2 408.1 399 396 394.4 391.5 391.3 391.3 387.9 390.9 394.7 400.3 399.2 398.8 387.7 380.8 372.3 362.1 350.7 331.2 320.7 317.4 310.2 287.5 263.1 277.4 277.5 271.8 265.8 259.9 252.4 244.2 236.5 231.7 231.1 224.4
359.5 350.8 353.8 350.2 351.8 349.4 357.4 356.8 355.1 363.7 365.2 369 377.6 382.3 385.7 386.1 387.8 387.8 379.7 377 373.6 369.8 370.9 375.1 379.2 378.4 382.1 388.2 390.6 392.9 393.6 389.8 385.2 384.3 388 391.9 390.9 378.8 362.6 348.7 337.3 325.4 312.5 295.8 279.7 263.7 249.3 235.3 223.7 213.6 203.7 196.7 190.5 181.2 176.5 192.2 189.7 179.4 164.3 161.5 161.6 162.1 169.6 177.8 178.4 177 179.6 173.7 158.8 138.7 141.4 141.6 141 135.5 135.1 141.7 151.5 164.2 176.8 191.3 205 215 220.8 225.2 235.1 245.5 254.5 264.4 273.5 279 287.1 294.5 304.8 313 320.1 328.9 332.7 342.6 347.9 353.3 358.9 364.6 368.1 368.5 364.4 367.1 369.2 370.3 358.2 340 342.2 348.1 352.5 358.3 365.5 373.5 382.1 389.6 394.8 393.7 402.5 411.4 413.8 413.9 418.3 423.5 427.5 422.5 419.3 425.5 431.6 428.2 425 415.3 420.4 430.6 431.8 433.4 431.4 434.5 441.4 433.8 433.6 420.9 406.9 390.7 391.3 390.8 392.5 393 391 392 395.5 398 397 394.9 396 395.7 396.6 393.1 387.1 393.3 397.1 393 391.5 384.8 382.2 386.7 380.7 379 381.1 382.6 382.8 388 386.2 390 388.4 380 372.8 361.6 348.6 337.4 325.8 323.6 322.1 302.2 288.3 271.2 263.4 251.3 258.8 255.6 250.2 245.9 236.7 228.2 222.6 226.5 228.1 215.2
357.4 357.2 356 360.1 355.9 358.3 361.7 359.7 362.7 371.1 372.1 373 382.5 391.3 389.2 388.1 385.3 383.4 383.6 386.2 389.5 388.5 387.8 392.5 393.4 386 394.1 397.9 399.7 400.9 398.2 393.4 396.9 399 401.1 400.6 395 382.9 372.6 353 339.5 332.2 325.3 309 286.1 285.5 271.9 246.5 227.8 216.5 212 205.4 196.8 189 190 196.9 191.1 186.6 180.4 172.1 162.7 162.7 163.7 164.1 164.3 164.9 167 161 147.8 143.7 159.3 165.9 170 159 132.9 136.3 144.6 161.3 175.6 184.9 196.5 208.6 217.4 225.9 236.8 240.6 246.8 256.1 258.9 265.5 266.2 274.3 282.1 291.3 298.9 296.4 320.1 331.5 338.4 344.6 355.4 360.9 362.8 362.6 356.9 353.8 358.4 352.9 337.8 323.4 331.1 338.8 343.2 348.9 356.6 364.3 373.7 380 384.8 392.8 398.1 401.7 406 411 419.5 424.2 423.3 423 418.2 425.2 421.2 418.4 414.2 407.5 416.6 426.2 429 429.6 428 429.3 437.3 431 420 408.6 398.7 387.6 374.7 380.1 377.6 376.8 373.8 372.4 375.4 378 377.9 377.5 377.6 378.9 376.2 375.7 372.4 375.4 375.6 374.2 371 371.4 371.6 369.3 370.4 371.2 371.3 373.9 376.3 378.3 370.6 370.6 367.1 358.8 352.2 332.7 323.8 323.2 312.6 301.9 287.2 270.4 262.6 257.1 244.8 240.8 244.7 239.3 232 227.9 223.5 221.1 220.8 225.1 218.4 197
359.8 361 362 360.3 353.4 362.7 364.6 365.6 367.3 371.6 373 376.3 380.7 384.3 387.4 388.9 390.5 390.9 394.5 396.4 397.5 396.1 400.4 401.4 399.9 398.8 399.5 406.2 405.7 401.7 402.1 406.4 409.6 408.9 412 412.4 402.4 401 395.9 382.3 365.8 346.9 327.1 313.2 301.5 298.6 284.5 261.6 243.9 231.6 222.5 219.1 205.3 196.9 198.9 200.4 203.1 204.6 203.2 197.5 188.3 180.1 172.8 168.1 167 168.1 166.8 158 146.9 148.3 152.1 163.8 162.5 153.7 132.5 137 146.4 161.8 178.4 188.2 197.3 210.4 218.6 228.9 234.2 237.9 235.8 237.1 242.3 243.7 249.6 252.6 258.3 267.3 266 280.1 302.1 318.1 327.4 332.6 338.9 337.9 340 350.8 356.2 345.5 333.1 326.4 318.2 317.3 318 325.7 327.3 334.7 345 352.1 363 370.9 374.6 375 382.9 389.2 395.7 400.8 409.5 416.6 414 410.8 403 411.4 417.3 413.9 406.6 406.3 413.6 426.3 425.4 427.3 422.3 420.8 424.3 418.3 405.1 400.7 395.1 380.5 361.1 373.2 374.5 365.1 355.6 348.8 353.5 357.9 359 359.8 360.7 365.5 365.3 360.3 355.1 356.3 358.4 358.3 356.7 359.9 356.2 355.6 359.5 358 357.4 363.3 362.1 355.5 348.7 344 335 331.1 317.1 312.3 306.6 294 279.1 268.5 260.7 255 252.5 245.5 237.9 226.9 227.1 224.9 224.4 222.9 222.7 222.2 217.6 214 199.2 182.2
362.2 366.3 367.9 364.9 362.9 366.9 371.4 371.4 370.5 374.7 380.1 383 387.5 391.2 396 403.6 405.4 403.9 403.7 404.6 405.1 404.3 406.1 407.9 404.2 408.3 410.3 409.2 409.7 411.8 415.2 420.3 421.3 419.6 419.6 414 412.7 407.7 402.9 392.7 381.3 362.9 338.8 315.1 312.3 311.7 291.4 271.3 252.2 243.4 236.4 229 214.3 197.6 207.1 213.9 219.2 223.1 224.5 221.2 212.7 202.6 191.9 186 182.1 179.8 172.3 159.6 151 152.3 152.1 153.1 152.2 132.5 138.3 133.8 142.1 153.4 170.2 187.1 197 200.9 215.9 220.7 228.3 224.9 220.6 229 224.4 222.7 225.1 229 235.2 237.7 242 256.3 273.6 288.1 292.1 299.8 299.7 302.8 304.5 318.3 316.9 312 317.1 318.5 304.6 293.6 295.2 302.6 309.1 323.5 331.8 339.9 347.9 354.9 361.6 366.2 370.9 379.6 387.2 391.6 395.7 394.2 398.9 399.9 406.5 412 412 400 387.7 402.9 405.3 416.4 417.1 418.2 416.6 403.6 405.8 399.2 397.5 398 385.7 372.3 345.4 360.2 367.8 357.9 340.7 331.2 333.1 339.2 340.8 343.9 344.3 345.7 343.8 341.3 338.4 337 338.1 339.3 342.7 340.3 340.3 340 344.1 340.3 347.2 347.7 345.6 335.3 324.7 318.3 307.8 308.7 300.5 285.8 278.9 267.7 257.8 254.6 250.6 248.4 246 233.6 225.3 222.4 217.2 214.3 216.2 216.8 214.2 208 205.4 195.6 179 178.4
373.8 377.6 374.4 371.9 367.4 375.3 375.4 373.7 374.4 383 387.6 392.4 397.5 401.9 406.6 412.4 409.8 415.1 416.9 419.2 420.8 421.3 418.4 417.6 416.5 414.2 417.7 413.1 415.5 420 428.4 432.8 430.6 430.5 427.7 426 426.6 424 410.2 394.5 381.8 362.2 340.7 334.9 320.9 308.6 295.2 278 256.5 253.6 245.1 232 216 208.4 218.7 226.7 233.5 241.8 247.3 240.3 231 227.6 212 203.7 191.2 186.3 183 174.3 168.9 164.4 160.2 155 146.2 135.6 136.4 144.5 138.1 139.9 158.9 171.1 181.7 188.3 185.8 194.7 201.2 204.7 210.8 214.3 217.5 214.9 212.4 213.9 215.5 215.9 217 235 251.5 259.8 267.2 274.4 277 278.1 286.4 287.5 285.5 293.8 299.3 296.9 288.3 271.7 277.7 285.2 293.6 305.4 316.1 325 336.4 345.1 352.9 359.8 361 364.5 370.8 380.3 377.9 380.2 393.1 394.4 400 402.2 393.2 383.2 378.6 391.4 398.2 411.1 412.5 407.8 399.1 386.6 386.5 390.5 396.4 399.9 390.8 371.5 340.1 338.7 350.2 336 325.1 312.2 313.1 319.9 323.3 326 326.2 327.1 324.8 324 322.7 321.5 322.4 323.9 325.2 324.8 323.8 325 326.5 329.9 329.1 326.5 325.4 314.5 301.6 297.2 289 276 269.4 265.7 260.4 254.1 247.6 246.4 242.6 235.8 230.8 224.1 222.5 214 210.1 207.4 205 207.5 207.5 191.8 181.5 172.3 171.3 173.6
381.1 382.7 378.6 378.4 373 370.2 374.2 378.6 382.7 389.3 396.1 400.3 406 410.6 416.5 417.3 421.1 424.4 428.5 432.1 431.7 428.6 426.7 428.1 428.2 428.4 427.8 421.8 425.2 427.5 431.7 435.8 437.1 439.5 439.6 438.5 440.7 434.9 425.7 415.8 392.6 371.5 357.4 353.4 342.3 314.5 294.2 278.7 262.5 254.6 246.9 230.2 208.8 221.3 229.3 238.5 247.9 257.4 259.8 256 250.8 237.8 232.2 224.9 212.4 199.5 194.1 190 182.6 175.5 168.4 158.6 148.6 152.5 146.3 135.9 132.1 131.3 138.2 156.1 166.6 164.6 153.2 160.4 165.1 177.2 186 198 201.4 209 213.2 211.3 210.3 192.1 201.1 219.9 233 235.1 244.5 252.2 251.3 255.2 263.5 260.9 264.7 277.4 273.3 273.9 266.5 255.4 255.8 269.7 280.5 289.3 299.3 311.5 320.7 334.6 344.4 345.3 351.5 351.2 345.4 350.8 352.5 364.3 377.3 380.5 383 381 368.4 361.9 371.2 386.2 388.7 401.9 399.6 391.1 379.8 384 382.2 386.6 390.9 391.2 384 370.4 341.1 311.6 319.2 318.4 308.4 298.7 293.4 300.5 305 308.4 308.9 309.3 309.4 309.1 308.4 307.4 307.5 306.4 307.9 307.2 306.3 308.7 306 305.3 302.1 299.1 293.9 284 276.9 267.9 258.3 258.9 256.8 250.4 246.9 243.7 240 239.8 233.8 233.1 229 220.1 209.3 206 203.7 198.2 195.4 197.1 191.2 179.6 169.1 169.4 167.1 165.8
390.9 385.2 379.7 379.8 376 374 382.7 386.2 389 393.8 400.5 410.7 420 429.2 432 433.3 435.2 435.3 436.5 438 438 440.4 437.9 441.1 441 438 436.1 433.1 435.6 440.6 442.7 444.5 446.6 453.2 454.3 453.6 451.1 445.9 435.5 419.8 397.6 376.8 371.3 359.9 346.6 322.8 300.2 277.4 259.8 247.6 237.6 220.3 222.2 232.2 240.2 247.3 258.9 267.5 270.7 268.8 263.4 253.8 249 242.9 230.3 221.3 209.2 203.2 195.8 188 177.3 164.2 152.9 163.7 162.9 155.4 142.7 133.9 133.3 134.6 132.1 135.3 139.1 146.4 153.3 161.5 170.5 178.5 184.5 192.6 205.6 201.6 180.4 174.1 184.1 202.2 210.5 214.3 222.1 224.7 224.8 236.7 237.8 236.4 243.3 253 250 249.2 243.3 232.8 233.5 254 266.1 274.8 284.4 296.1 302.8 319.4 332.8 331.8 337 327.1 326.8 332.6 334.3 347.5 362.9 368.7 361.2 359.5 347.5 353.5 364.6 376.6 382.3 384.4 378.5 370.8 377.4 380.1 368 371.7 379.8 378.7 375.1 355.6 330.4 303.6 296 294.7 292.8 285.8 280.1 283.7 288.4 289.9 292.1 293.3 293.7 295 295 293.2 290.8 289 290.1 286.6 285.3 285.2 285.2 286.7 283.1 274.4 269.8 260.7 254 249 249 247.3 248.6 249.1 243.5 239.3 235.7 234.2 230.5 226.8 217.5 210.8 201.6 200.4 198.4 187.3 185.5 187.1 180.3 167.3 161.7 163.4 160.9 157.6
388.2 384.6 384.8 383.3 383.3 387 387.6 393.5 397.1 401 407 418.6 431.9 438 441.1 442.2 441.4 444.1 447.7 450.1 449.9 450.2 449.1 453.1 450.3 443.6 445 447.6 447.1 446.6 448.8 452.7 460.3 466.4 465.5 464.1 460.5 453.5 440.4 422.9 409.3 382.1 374 362.5 350 335.4 319.8 296.4 264.7 244.5 227.6 223.7 233.3 241.9 250.4 257.8 269.3 280.5 285.9 283.9 283.4 277 258.8 246 235 246.4 231 229 208.6 196.7 184.2 169.2 160.2 163.9 163.1 158.7 147.5 133.7 133.9 132.5 135.1 131.7 134.3 137 139 141.9 150.5 160.1 167.2 174.9 173.1 168 155.8 162.4 162.7 174.5 179.1 180.6 186 186.6 195.6 202.5 203.9 207.2 215.6 217.8 221 227.9 222.4 215.3 223.5 241.2 251.2 261.2 271 282.2 288.4 301.7 311.3 311 309.5 311.3 313.9 310.1 314.8 329 343.4 342.1 347.5 346.4 335.3 341.3 347.1 354.6 366.2 357.4 358.8 372.2 372.6 358.7 354.5 357.9 370.4 359.6 344.5 328.6 309.4 287.7 270.5 273.8 275.9 273.3 267.7 271.4 275.5 276.4 278.6 279.9 278.9 280.9 281 276.9 273 270.4 272.1 269 268.8 268.5 265.7 261.9 258 250.8 245.6 244.6 242 239.9 242.8 238.5 238.4 233.8 235.1 232.1 227.4 221.7 217.1 211.8 204.5 201.2 196.4 190.5 184.4 177.5 177.1 176.6 165.8 152.7 153.2 155.5 153.6 154.4
395.4 397.4 392.2 383.8 388.5 397.3 399.6 402.4 410.9 419.4 424.1 428 437.3 439.4 444.9 448.3 452.4 454.7 456.9 460 462.3 463.5 461.8 462.7 458.6 453.9 455.6 457.5 454 453.6 457.1 464.6 472.7 472.3 471.5 470.8 470 466.3 459.1 433 403.6 386.8 375.4 367.6 356.6 342 324 297.9 271.1 248.9 224.5 233.6 243.5 251.3 258.2 266.9 278.9 285.7 287 280.5 279.9 277 271 247 230.3 236.8 232.4 223.6 211.4 202.5 188.8 174.9 167.5 169.8 163.4 152.9 145.9 138.3 131.2 134.2 138.5 137.8 133.2 130.4 130.7 131.4 133.4 141.5 149.8 151.6 148.4 139.9 140.2 142.8 146.7 152.4 151.4 156.3 161.1 170.9 175.2 176.4 180.7 183.9 190.6 189.4 195.9 206.8 204.1 194.4 208.6 223.4 236.3 247.4 259 267.6 276.6 283.2 286.7 284.7 285.1 285.5 290.3 289.3 295.5 304 318.7 315.1 313.8 318.4 323.1 330.8 331.9 327.5 335.7 335 349.3 355 346.7 335 330.4 324.4 335.9 328.9 317.5 303.8 287.1 266.7 258.9 260.4 259.3 260.8 257.6 258.6 262.8 265.9 267.3 266.9 266.1 267.1 266.7 261.4 255.6 256.3 254.6 253.2 250.5 248.1 243.8 237.9 235.2 236.6 235.5 233 234.3 230.6 230.6 227.6 226.4 225.5 224 215.9 210.8 205.6 203.1 201 197.6 197.5 187.2 185.1 184.2 176.5 161.6 160.8 155.4 149.6 144.8 149.5 149.8 148.7
407.2 401.6 397.6 389.3 402.1 405.3 413.3 415.1 423.9 428.9 431.4 435.4 440.9 447.6 453.9 460.6 461.6 463.7 468.6 472.9 474.1 472.5 471.4 468.4 463 466.5 468 470.1 463.7 464.6 472 477.4 477.1 482.8 484.1 481.1 476.4 459.8 439.8 419.7 403.7 387.2 372.9 366 353.1 338.9 320 296.4 271.8 248.1 240.5 244.6 252.5 259.9 266.8 274.4 282.9 288.8 292.3 293.5 291.7 286.7 268.5 242.5 232.1 226.8 225.8 224.2 217.7 207.1 191 178.9 172.6 169.8 163.9 160.9 159.3 155.4 145.7 146.3 149.9 154.7 155.7 153.5 146.4 137 125.6 127.5 134.3 134.1 129.9 128.2 129.2 130.6 134.9 137.3 137.5 147.4 152.8 157.3 161.6 162.8 164.3 165.3 173.5 181.6 182.5 188.4 186.5 180.2 194 207.9 219.2 231.5 243 254.8 264.6 272.9 276.9 269.4 268.6 272.6 269.2 269.2 278.4 283.2 292.9 289.8 283.5 305.4 317.3 309.1 306.5 301.1 303.7 319 333.2 325.9 317.8 308.5 299.6 288.5 296.4 296.3 288.3 277.9 266.6 251.6 251.3 251.5 249.2 245.8 246.5 248.3 253.1 256.4 257.1 256.8 255.4 254.1 254.5 250.1 244.8 239.7 237.5 234.9 232.4 227.8 222.4 223.7 225.4 225.1 226 225.2 223.6 219.7 219.3 214.8 209.2 207.5 202.4 199.2 200.5 196.3 194.3 192.4 190.5 185.4 184.2 177.3 175 166.2 157.9 151.8 145.6 146.4 143.7 142.2 144.4 146.2
414.8 410.7 407.5 408.2 413.7 416.7 423.5 425.7 431.3 438.3 443.5 445.5 456 463.1 465.6 467.3 470.1 471.5 478.1 482.9 482.4 477.9 475.8 476.5 477.9 477.8 478.1 472.9 480.3 483.6 480.1 485.2 489.5 496.4 497.6 495.9 486.4 467.7 439.2 419.2 405.9 392.3 380.6 363.6 349.3 342.6 332.2 302.8 275.4 252.2 252.8 253.4 261.7 268.2 275.7 282.3 287 296.7 303.6 296.6 285.6 272.7 260.5 252.1 246 242.5 240 236.3 225.6 213.3 201.9 191.5 181.8 178.3 180 182.7 180.7 179.3 172.2 167.8 170.4 174.1 177.4 175.8 158 150.4 130.8 114.3 118.8 118.6 118.1 119.4 121.1 122.6 124.2 127.2 137.1 140.5 143.1 147.4 150.4 153.2 151.2 165 175.2 180.8 185.5 188.4 185.5 168.7 180.6 193.5 207.5 217.1 229.1 239.8 246.2 256.9 265 262.3 251.2 247.1 247.7 249 259.3 258.3 260.3 260 258.6 274.2 280.7 277.8 278.9 278.3 279.9 291.3 296.1 294.4 289 285.2 278.9 264 264.1 265 259.5 254.5 252.5 246 241.5 242 239.1 231.8 235.9 240 242.9 244.7 244.7 245.2 244.8 243.9 243.4 238.1 231.5 221.6 218.9 214.9 212.8 210.5 211.7 214.3 215.8 215 215.9 214.5 213.3 210.6 205.5 198.9 199.2 196.6 202.1 200.8 194.6 194.3 191.8 191.5 192.8 183.3 176.4 171.2 166.2 164.8 161.3 144.5 135.3 135.1 138.1 142 140.4 144.3
428.7 425.7 421.3 422.6 428 426.8 433.1 439.6 446.8 451.2 451.3 453.8 466 470.6 477.8 478.9 481 487.7 484.1 485.2 485.4 487.2 487 492.5 489.5 485.3 484.4 487.5 494.2 492.1 489 493.7 499.3 501.2 507.9 498.6 485 458.9 437.6 415 409.2 399.6 385.7 366.3 352.2 343.3 332.3 311.2 281.7 261.7 265.2 263.3 270 275.8 283.2 293.2 296.9 294.9 297.1 298.7 287.6 279.7 275.1 270.8 266.9 262.8 256.2 245.6 233.3 222.6 213.4 200.9 192.1 200.2 198.4 203.8 198.2 196.3 196 189.5 190.4 195.9 200.7 186.5 166.1 154.5 139 122 112.8 112.8 116.6 115.9 117.4 119.3 119.3 119.6 126.4 128.6 134.8 137.8 143.1 142.3 145.1 161.5 169.3 172.6 176.5 175.2 169.6 156.5 164.1 179.4 194.5 210.8 212.4 225.2 234.8 237.4 244.5 249 241.8 233.2 229.6 225.8 229.1 229.8 226.9 228.4 223.3 236.1 243.7 250.9 258.7 261.7 259.9 264.3 266.8 261.9 258.6 258.8 254.8 247 245.3 243.3 239.3 241 238.4 232.8 229.8 231.7 229.7 224.8 225.4 228.5 230.3 232.8 232.2 234.2 235 234.1 230.2 224.9 217.7 208.5 202 202.2 200.1 200.1 202.2 205.6 208.1 208 209.3 208.8 206.3 202.5 196 196.5 187.4 184.2 186.9 188.9 188.8 190.4 191.4 189.4 180.6 175.5 171 169 166.8 166.9 156.2 137.4 127.4 131.4 133.9 137.2 137.8 139.6
449.3 438.7 427.1 429 432.7 439.1 443.6 452.4 454.6 457.8 463.6 462.3 471.9 482.7 490.5 495.3 494.1 497.4 496.4 495.3 497.9 494.6 492.3 495.8 497.2 499.7 498.8 498.9 505.4 505.4 498.6 501 499.4 498.2 493.4 487.9 472.8 456.1 429 434 423 408.8 391.3 378 360.1 343 327.7 310.3 285.8 275.6 276.6 273 279.8 284.5 292.9 301.6 308.2 311.5 306.6 293.8 290.2 293.4 288.2 286.2 286.6 287.5 292.9 254.8 241 235.6 223.7 215.5 213 219.6 217.4 210.7 209.2 209.4 207.9 205.7 207 213.5 206.2 192 174.6 159.1 141 128.5 120.7 115.9 110.4 118.6 118.6 120 116.9 116.2 120.4 121.6 126.1 130.7 136.4 136.5 135.9 145.3 149.9 152.6 159.4 161.3 157.2 150.8 149.9 164.2 178.7 188.3 195.7 207.4 221 221.7 220.4 226.7 226.1 219.5 214.1 205.2 202 205.7 200.1 198.4 196.8 212 220.9 231.2 237.9 241.3 239.1 241.8 239.9 237.8 236.8 236 232.6 229.5 229.1 228.3 228.4 232.4 232.8 225.5 221.4 222 219.7 214.8 215.5 218.9 220.9 222.1 223.6 224.3 224.1 220.6 216.2 209.2 202.2 195.3 191 193.2 193.7 196.1 198.1 200.3 202.3 204.2 205.7 201 200 193.2 180.1 178.3 175.1 176 173.9 177.4 177.2 179.2 179 172.2 169.2 162.7 165.6 167.1 165.2 154 138.3 124.2 124.7 125.8 129.8 134.3 137.3 143.8
456.1 445.4 434.6 438.9 444 448.9 450.1 459.7 463.8 465.8 468.6 472.7 485.1 493.8 501.8 505.2 503.4 504.1 504.3 506.6 505.3 504.2 508.6 511.6 515.2 512.3 511.4 508.5 513.2 510.7 506.8 507.6 501.7 499.2 489.5 480.8 474.8 450.1 458.4 442.8 428.5 415.2 401.2 386.2 371.1 354.1 333.7 315 290.2 287.4 287 281.7 289 296 300.4 304.9 307.9 313.2 316.3 307.9 302.7 303.6 302.6 303.9 300.5 303.3 299.2 261.6 256.6 251.7 239 234.3 232 234.8 235.5 223.1 214.7 214.8 210.9 209.6 218.1 216.5 212.5 200.2 173.5 158.9 146.4 133.6 120.8 116.1 111.6 118.8 122.3 118.6 115.1 114.5 117.2 120.9 121.7 124.8 131.1 129.5 129.2 128.9 131.9 138.7 144.4 147.4 146.2 140.3 137.4 148.6 158.9 169.1 179.7 191 201.1 203.6 205.8 207.7 209.6 200.8 192.3 181.9 182.5 185.6 181.8 176.2 177.7 193.7 200.3 205.5 212.3 215.5 218.6 217.6 218.3 217.2 216.8 216.8 214.6 215.5 217.7 218.8 219.7 220.3 222.2 216.8 213.4 211 209.6 207.6 207.9 210.3 210.5 210.7 210.9 210.5 210.3 206.9 200.8 198 189 184.4 182.7 186.6 187.9 191.2 194.2 195.7 196.8 194.5 194.1 187 181.3 178.9 172.7 170.5 164.8 161.2 163.3 167.4 168.2 166.7 165.2 161 157.8 158.1 159.8 154.6 145 137.1 122.8 118.2 119.7 123.5 130.8 134.3 136.9 135.5
456.1 446.8 445.6 451.9 450.3 457.5 462.9 464.1 474.7 476.8 479.3 485.5 491.8 496.2 504.2 509.9 514.9 515.2 513.2 514 515.5 518.9 529.4 538 538.3 534.2 520.7 518 521.4 521.7 514.8 508.1 506.4 506.8 504 482.5 475.5 472.4 463.8 447.6 431.8 419.6 408.6 394.1 377.3 360.3 343.7 318.7 303.3 303.6 299.2 289.9 298 306.1 308.5 312.2 313.8 314.4 316.7 321 318.9 319.9 323 320.9 316.8 313.9 294.9 281.1 286.7 274.1 260 255.8 250.6 249.6 246.4 235.6 219.8 214.8 210.8 207 210.7 211 203.2 184.6 167.5 159.4 149.8 135.7 123.9 117 112.7 117.6 118.7 116.5 113 110.8 116.1 121.1 124.7 124.1 124.3 120.8 119.9 118.6 121 124.7 131.2 133.9 134.6 132.1 128.6 135.2 145.2 153.5 161.5 171.5 180.4 184.2 184.4 186.9 184.2 177 169.2 159 160.2 160.1 159.7 160.9 160 168.1 176.6 183 194 202.4 207.2 206.7 206.9 206.5 207.3 204.9 204.5 206.2 205 207.2 209.1 209.3 206.7 204.6 201.2 206.1 205.2 203 201.7 200.9 199.6 198.7 196 193.8 194.3 194.5 192.4 181.8 176.3 174.6 176.2 180.5 183.4 185.2 188.2 187.4 186.4 184.2 180.6 177.5 176.9 181.3 172.5 155.6 150.1 150.2 153.1 155.1 157.6 156.3 153.9 150.6 149.5 148.9 142 130.5 127.5 121.5 117 115.5 115.4 121.9 128.5 128.7 127.9 125.3
460.8 451.4 453.3 457.2 457.8 462.2 467.4 468.9 478 485.6 486.2 493 500.5 504.1 515.9 521.8 528 525.8 520.2 523.7 528.5 544.3 548.2 549.9 549.7 545 537.8 532.1 528 520 519.2 516 513.9 511.2 503.9 496.6 496.4 488 472.5 453.5 439.2 425.4 409.3 394.6 378.9 363 346.8 330.6 321.5 318.5 312.6 305.4 303.4 313 317.5 322.8 322.1 324.4 326.1 328.6 331.3 340.1 343.1 338.4 330.5 316.9 298.9 308.8 307.1 293.9 279.4 268.2 261.2 252.7 251.7 240.2 225.8 216.5 205.3 198.4 187.3 183.6 175.4 170.9 162.9 155.3 144.9 132.4 123.4 115 111.4 115.3 114.7 112.4 111.6 110.7 113.8 119.2 122.4 118.9 116.9 116.6 115.4 116.6 117.2 122.1 126.5 123.2 123.9 122.6 123 122.2 127.2 137.4 142.5 149.9 159.5 163.1 160.9 160.3 158.9 153.7 145.6 141.6 143.8 143.7 144.8 146.7 146.2 151.2 157.5 170.5 182.2 184.4 192.8 195.1 193.6 196.2 200.1 200 205 203.5 198.6 203.2 201.2 197.6 194.2 194 198.1 198.8 200.7 199.3 195.9 191.8 190.4 186 183.7 181.5 182.2 176.7 170.2 166.7 166.3 166.9 171.4 172.8 175.7 177.5 176.9 176.1 175.7 174.9 173.7 172.9 169.2 164.4 151.7 142.7 141.9 141.5 147.9 144 142.5 138.7 137 134.9 133 127.6 121.5 116.3 117.5 115.2 115 112.9 113.6 121.8 124.7 125 122.4 118.3
464.7 457.3 464.4 466.7 466.2 470.1 477.6 483 482.2 487.4 492.9 498.1 509.6 520.1 531.2 533.9 541.1 533.9 533 539.9 548.3 555.9 563 563 559.8 557.1 545.6 543.3 540.5 531.4 531.8 523.8 514.3 516.6 514 519.3 518.6 510.7 497.4 462.5 449 435.3 416.9 399.7 385.3 371.1 361.9 348.1 343.4 335.2 325 314.5 307.8 320.7 328.4 332 336.4 344.7 351.1 344.7 346.6 343.2 347.8 352.2 336 329.8 329.8 335.5 326.8 312.4 298.8 282.8 267.4 256.7 244.8 237.7 226.4 209.6 195.3 182.7 173 169.3 164.4 163 160.6 148.9 139.1 128.9 121.1 117.3 114.7 112 111.9 112 111.8 112.9 112.9 111.4 113.2 114.1 113.8 115.4 113.2 115.9 117 116.1 115.4 115.7 116.3 117.2 119 117.4 117.5 122.4 125 130 138.8 141.1 139.4 136.4 136.9 132.9 125.7 127.6 129.9 136.3 139.6 140.9 139.7 143.4 147.8 152.8 165.5 175.5 176.2 184.3 181.7 193.4 193.6 197.3 200.9 196.6 192.5 197.7 191.8 186.8 187 190.1 195.3 197.9 199 197 194.1 183.6 180.4 177.7 177.1 174.9 172.5 168.4 165.8 164.3 163.6 163.2 164.4 169.4 170.2 169.1 169.7 169.8 174.2 170.2 164.9 156.6 146.2 136.2 137.5 137.5 137.5 136.4 134.1 132.6 135.9 135.7 134.3 129 125.2 119.3 119.7 116.4 114.9 113.6 112.2 111.3 114.1 118.6 118.4 114.4 112 109.7
468.3 466.9 470.1 474.3 475.8 478.5 481 486.4 487.6 493.8 503.2 506.6 518.3 526.8 539.7 540.8 546.5 554.9 562.6 564.2 563.9 570.8 569.8 567.8 568.5 561.6 552.4 553.1 550 540.9 529.6 526.1 530.1 523.5 527.4 539.2 533.1 525.1 510.2 488.5 463.8 448.1 428.4 412.5 398.4 383.7 369.9 369 360.5 350.2 335.7 317.2 320.6 330.8 341.2 347.5 355.1 361 367.7 371.4 369.7 363.4 353.4 348.9 347.6 340.2 355.2 358.4 349.7 332.1 321.8 299.5 281.9 258.2 237.9 224.9 210.9 194.9 182.4 174.8 169.1 168.2 171.7 170.3 156 145.6 136 127.9 121.1 118.7 116.8 114 113.3 114.9 115.9 116.4 113.6 114 110.9 112.5 110.8 110.7 112.1 114.3 113.9 114.2 113.5 114.1 113.6 114 115.2 114.9 114.8 118 115.2 115.7 118.8 120.4 122.3 120.1 117.7 116.2 117.6 117.7 116.6 125.3 131 133.9 134.2 138.9 143.5 148.7 154.8 165.1 169.6 174.2 172.9 177.7 183.3 188.3 188.7 185 179.8 180.5 178 176.4 184.2 188.7 193.5 198.5 193.2 187.2 183 176 172.3 172.4 171.3 168.7 168.6 167.4 166.5 171.3 165.7 162.7 161 158.3 156.9 159.4 161.4 162.1 161.8 156.6 149 142 132.1 133.6 134.6 134.6 132.5 134 131.1 130.1 136 134.9 131.1 125.7 123.7 115.8 114.1 112.3 110.5 111.4 111.6 110.3 110.1 111.6 112.6 111.1 106.7 105.1
473.1 476.9 472.2 480.9 480.8 485.3 489.3 489.9 494 501.4 509.6 520.5 528.6 534.6 541.9 550.3 562.9 584.6 589.7 583 575 574.8 573.9 578.3 583.6 570.8 557 555.8 565.9 554.4 540.5 532 534.8 539 543.4 546.5 539.4 529.1 516.5 487.2 471.9 458.3 441.3 430.2 413.1 396.5 385.6 382.8 375.3 358.9 341.3 321.5 334.2 344.3 352.6 365.5 375 382.2 382.5 385.9 384.7 381.1 373.1 366.6 358.5 364.3 372.2 373.3 366.8 353.9 330.9 314.9 285.3 254.4 239.9 224.1 199.9 189.5 183 176.7 172.5 174 175.1 164.1 152.2 143.3 136 126.8 123 120.1 116.8 116 115.3 116.9 119.4 118.3 115.7 113.9 113.9 116.3 114.4 113.6 113.1 112.4 111.7 110.6 110.6 110.6 112 112.4 112.8 113.3 113.3 115.4 113 111 109 109 111.9 112 111.1 111.4 112.9 113.9 111.3 114.4 119.9 125.3 126.1 129.3 134.4 140.6 148.5 154.4 161.1 168.1 166.1 169 171.7 171.3 172.8 174.5 167.5 165.6 164.2 173.9 182.1 183.2 188.6 190 183.1 179 174.9 170.5 166.8 166.7 164.6 166.1 168.6 172.7 180.7 186.8 176.2 162.6 157.3 153.5 153.8 154 151.8 148.9 144.4 136.4 127 126.3 129 128.8 128.4 130.9 129.5 133 128.6 128.6 129.7 128.2 123.5 118 115.5 111.3 107.8 106.5 108.5 108.1 108.9 109.7 109.1 108.9 109.9 108 105.1 105.1
484.4 479.3 476.6 484 488.9 494.1 492.4 497.6 503.3 508.4 516.8 520.7 531.8 541.7 550 562.8 588.3 602.3 605.4 599.9 594.8 585.9 580 584.9 582.8 574.5 559.1 560.1 556.5 549 544.7 545.2 553.2 549.5 551.4 551.8 546.8 532 506.1 488.1 475.1 462.3 450.7 440.6 425.1 408.1 398.2 392.1 384.1 361 341.2 330.9 348.3 358.3 362.9 374.6 386.9 394.4 400.5 398.9 400.3 406.5 394.2 383.5 373.8 388.7 389.7 381.2 378.3 368.3 354.9 321.6 288.3 257.4 244.5 224.8 202.7 194.8 191.1 187.6 188.2 182.3 171.3 165.1 154.8 145.7 139.4 135.9 128.3 120 117.7 117.9 117.2 116.8 117.2 117.5 115.9 114.3 115.7 119.1 117.2 114.5 114.3 115.9 115.8 115 115.2 113.3 110.2 112.1 112.6 112.5 112.3 111.6 111.4 111.4 109.9 111.7 111.9 110.7 109 109.8 111.4 111 111 112.5 112.7 115.6 117.7 117.9 121.1 130.5 138.1 143.3 149.7 153.6 150.8 155.7 156.3 157.2 156.1 156.7 153.4 151 164.2 171 175.7 175.2 178.8 178.9 176.6 172.2 167.5 161.6 158 160.6 166.7 168.1 175.6 182.9 183.6 182.7 172.7 165.9 165.7 154 145.2 142.5 138 132.1 124.5 119.9 120.1 118.6 120.4 117.9 118.8 125.2 125.3 125.8 124.6 124.4 124.1 120.5 112 108.9 109.5 106.6 105.1 105.1 105.1 105.1 105.1 106.4 108 107.9 108.1 106.6 105.1 105.1
489 478.5 484.6 486.2 492.6 497.6 502.6 502.9 509.2 512.1 519.2 526.7 537.5 552 562 576.5 594.1 606.7 608 616.4 613 606.5 601.8 588.3 582.3 575.7 573.6 572.1 566.5 553.6 555.8 557.6 563.3 563.9 561.2 557.7 551.8 541.1 511.8 490 473.9 460.4 449.6 439.4 426.9 408.5 407.1 401.9 390.5 362.9 341.7 345.5 361.4 374.8 380.7 388 397.1 406.3 412.5 420.8 409.7 408.3 405.9 396.4 390.3 401.1 403.5 398.8 387.2 368.6 346.5 314 292.4 273.7 248.6 223.4 206.7 203 195.3 190.8 187.1 180.7 172.3 164.5 155 152.7 148.7 143.4 137.1 129 122.7 121.9 124.5 122.2 120.3 120.5 119.9 118 121 123.8 120.3 117.9 117.1 120.3 119.1 119.4 117.7 114.4 111.7 111.8 111.9 111.8 111.6 111.6 111.4 111.4 111.4 111.6 111.7 111.7 111.7 111.7 111.4 111 111.4 109 111.5 114 116.6 115.3 115.2 119.1 124.2 130.6 135.1 135.9 134 141.8 145.2 148.4 146.1 145 140.6 153 162.5 169.3 173 167.9 172.1 175 171.1 162.8 153.4 151.3 157.1 163.9 166.3 172.3 177.1 183.9 183.3 181 170.5 169.8 164.9 152.5 140.9 131 121.6 111.7 111.3 113 113.7 112.7 109.4 107.1 106.4 112.4 115.4 116.4 117.5 117.5 115.5 110.8 105.1 105.1 105.1 105.1 105.1 105.1 105.1 105.1 105.1 105.1 105.9 106.5 107.2 105.1 105.1 105.1
492.7 481.7 491.2 494.8 498.5 502.3 509.9 510.4 513.9 516.7 526.2 536.4 547.8 559.8 572.1 586.9 596.9 611.9 625 630.4 627.7 618.1 612.1 606.2 599.3 583.8 576.3 570.4 564.9 565.9 564.8 568.2 573 576.5 569.4 564.3 549.3 532 515.8 499.4 477.2 462.5 452.3 440.5 426.3 423 419.9 409.1 391.9 362.9 344.7 362 378.5 390.1 405.2 407.2 414.4 428.3 432.4 436.1 430.8 426.4 421.2 410.1 408.4 409 411.4 409.5 396 359.8 331.5 318.1 294.5 272.5 249.1 223.3 214 208.7 200.8 190.3 182.4 175.2 170.4 166.3 163.3 159.4 155.1 148.5 142.4 137.5 133.3 129 128.8 129.4 122.4 125.9 130.2 128.3 124.3 132.6 123.8 122.3 123.6 125 123 121.9 118.4 115.7 113.5 109.9 111.9 111.6 111.4 111.9 111.6 111.3 111.2 110.2 111.7 111.7 111.7 111.2 111.2 110.8 110.9 110.5 111.4 112.4 114.7 113.2 115.7 114.5 113.4 118.8 118 120.3 124.8 133.5 136.2 138.1 139 138.5 138.8 152.9 161.7 164.4 162 160.5 165.2 160.1 153.1 148.3 145.5 149.2 152.4 159.3 166.5 175.2 173 173.5 171.7 172.1 175.1 170.4 159.3 146.4 131 119.2 108.9 107.3 106.5 105.1 105.1 105.1 105.1 105.1 105.1 105.1 109 106.8 107.8 108.3 106.1 105.1 105.1 105.1 105.1 105.1 105.1 105.1 105.1 105.1 105.1 105.1 105.1 105.1 105.1 105.1 105.1 105.1
497.6 490.6 495.9 497.2 502.8 504.1 508.5 514.6 518.5 523.6 530.7 540.9 550.8 568.6 588.1 604.3 606.8 613.2 627.3 630.6 629.6 625.7 622.6 617.2 607.3 596.6 580.4 580.7 578.8 581 585.4 583.8 590.6 586.9 577.1 566.7 552.5 539.4 523.7 500.4 482.5 470.8 465 447.2 435.9 434.5 430.9 419 393.6 367.4 352.7 381.1 395.9 408.1 417 422.4 428.6 438.1 445.6 450.4 445.2 437.2 428.5 420.7 419.1 418.4 414.9 402.5 370.2 342.9 326.8 309.9 285.4 262 241 229.2 221.8 212.4 203.1 193.4 191.9 186.2 181.3 176 169.3 162.6 156.8 151.1 144.2 140.2 136.6 133.5 133.1 132.7 133.7 132.8 141.1 135 133.5 135.7 131.6 131.7 130.7 127.7 127.8 123.3 118.9 116.6 115.6 112.2 111.6 111.4 111.2 112 112 111.7 111.6 111.7 109 110.9 111.4 111.3 111 110.6 110.1 110.9 111.4 110.8 111.7 111 113.2 112.5 111.5 112.5 114.1 113.7 119.7 127 130.9 132 130.6 131 137.1 144.8 151.8 150.9 148.6 145.6 144.2 142.5 143.3 142.6 143.4 145.8 149.2 152.5 163.8 169.7 165.7 165 170.2 173.7 169.9 161.9 150 135.1 118.7 110.8 108.8 107.3 105.1 105.1 105.1 105.1 105.1 105.1 105.1 105.1 105.1 105.1 105.1 105.1 105.1 105.1 105.1 105.1 105.1 105.1 105.1 105.1 105.1 105.1 105.1 105.1 105.1 105.1 105.1 105.1 105.1 105.1
500.8 496.9 502 503 506.8 508.6 514.6 518.9 522.2 529.1 536.1 545.7 566.5 581.4 603.6 617.9 625.1 628.2 634.9 635.5 643.2 640.3 631.8 625.5 617.7 607.7 590.3 591 593.1 601.5 599.3 602.4 601.5 594.7 585.3 567 553.1 537.6 520.5 502 484.4 473.2 464.6 451.9 443.2 446.3 442.3 427.2 389.7 367.3 369 392.7 405.9 418.7 436.1 446.2 455.4 458.5 472.3 471 461.1 449.9 438.9 431.4 432.5 430.8 415.3 378.8 355.9 337.8 317.7 291.8 271.5 255 244.2 237.7 229.4 218.5 204.9 202.6 203 195.7 189.1 180.9 171.7 163.9 160.1 156.3 150.9 147.6 143.6 144.6 146.3 146.6 145.3 144.6 143.5 141.3 142.3 139.8 141.2 141.2 138.3 132.5 129.3 125.7 122.7 119.8 117.4 112.9 110 112.3 110.6 111.3 112.2 112.1 111.9 111.8 111.6 111.3 109 111.3 110.9 110.5 110.1 110.3 109.3 111.1 110.1 110 110.2 110.2 109 110.8 111.4 110.3 115 118.4 118.7 118 119.5 118.6 129.4 136.5 140.1 138.6 135.5 134.4 138.7 140.8 142.1 141.4 142.1 147.1 149 148.3 154.3 157.1 161.1 167 169.2 170 160.4 149.6 135.5 119.2 108.5 105.1 105.1 105.1 105.1 105.1 105.1 105.1 105.1 105.1 105.1 105.1 105.1 105.1 105.1 105.1 105.1 105.1 105.1 105.1 105.1 105.1 105.1 105.1 105.1 105.1 105.1 105.1 105.1 105.1 105.1 105.1 105.1 105.1
500.2 508 509 510.4 513.2 513.9 517 524.7 529.9 535.4 545.7 558.1 573.5 591.8 611.3 629.8 638.1 642.8 650.7 652.5 652.1 639.4 635.7 631.8 622.3 614.5 613.1 610.6 618.1 620.3 618.7 611.5 604 596.5 584.3 568.3 554.8 537.2 518.9 505.1 493.8 481.5 473 451.9 448.1 450.5 446.3 427.4 391 371.3 384.8 408 422.2 434.4 444.4 457.2 465.5 471.6 474.4 471.5 467.9 469.9 453.2 449.5 449.3 429.7 398.6 366.5 345.9 327.8 308.5 291.6 279 266.2 256.5 242.8 230.2 221.8 207.8 212.7 209.4 203.1 200.1 189.2 184.2 178.9 174.7 167.8 162.3 161.6 157.5 158.2 158.6 157.3 156.9 155 152.6 152.2 153.8 147.8 150.8 150.8 147.6 140.5 135.4 131 127.3 124.5 119 113.9 113.3 111 109.8 111 110.3 109.4 109.5 109.4 109.8 110 109.6 111.6 111.3 110.9 111 110.8 110.5 109 110.3 110.3 108.5 110.9 110.9 108.5 109.5 108.2 111.3 113 114.5 117.3 117.4 111.4 121.1 126.5 127.5 124.7 126.7 131.6 135.5 139.8 139.3 138.1 140.3 142.5 145 142.1 143 149.3 156.4 161.7 160.3 153.9 144.6 132.8 118.4 105.1 105.1 105.1 105.1 105.1 105.1 105.1 105.1 105.1 105.1 105.1 105.1 105.1 105.1 105.1 105.1 105.1 105.1 105.1 105.1 105.1 105.1 105.1 105.1 105.1 105.1 105.1 105.1 105.1 105.1 105.1 105.1 105.1 105.1 105.1
504.9 513.1 514 517.9 519.8 521.5 526.7 530.9 537.4 544.8 554.3 568.9 585.9 607.2 624.5 637.8 646.4 658.4 657.6 655.7 659.6 658.6 646.2 636.9 630.5 625 630.9 635.5 643.7 637.9 631.5 616.5 605 594.9 587.4 570.5 558.9 550.1 534.4 512 497.6 483.3 471.1 454.5 447.3 444.4 433 409.1 386.3 380.1 400.9 421.4 438 451.6 463.9 477.7 486.4 491.9 490.3 483.1 487.6 490.1 470.5 469.2 460.3 426 391.8 369.6 355.4 338.4 319.7 301 289 276.5 264.7 253.9 240.7 218.7 220.6 224.2 217.4 218.2 214.9 207 200.8 194.1 186.5 178.3 178.1 176.1 170.9 173 175.7 171.7 173.5 165.1 163.7 160.7 163.9 158.8 156.8 153.4 153 148.4 144.1 138.4 133 130.5 124 116.9 114.5 114.1 109.6 112.2 112.6 111.8 111.9 111.2 111.6 111.3 111.1 112 111.7 111.6 111.9 111.6 111.1 110.9 108.6 108.8 111.1 111.1 110.4 111.1 112.7 112.2 108 108.8 114.7 116.3 112.3 110 114.2 116.6 116.4 119.3 127.6 132.4 133.7 135.1 135.5 135.8 135.4 142.3 142.4 140.6 138.4 142.4 145 150.5 146.1 135.1 124 111.3 105.1 105.1 105.1 105.1 105.1 105.1 105.1 105.1 105.1 105.1 105.1 105.1 105.1 105.1 105.1 105.1 105.1 105.1 105.1 105.1 105.1 105.1 105.1 105.1 105.1 105.1 105.1 105.1 105.1 105.1 105.1 105.1 105.1 105.1 105.1 105.1
514 519 521.3 522.9 527.8 531.1 532.7 539.2 544.3 552.7 564.2 581.1 597.6 620.9 636.6 654.1 662.3 661.5 657.6 657 657.7 660.9 655 643.2 636.3 645.4 649 663.7 660.4 652.3 645.6 635.5 629.2 615.7 585.5 568.1 558.9 546.4 528.1 512.3 495 482.8 464.7 451.7 449.1 437.4 415 402.6 398.4 398.3 420.2 442.7 455.9 470.3 482.8 494.6 501.6 502.2 498.3 502.9 500.9 489.1 484.2 474.3 447 433.6 392.1 372.7 357.1 340.8 324.8 316.2 296.3 283.7 272.9 261.9 243.7 232.6 232 234.6 232.5 231.3 222.5 220.6 215.6 212.9 202 193.2 196 192.4 192.3 192.1 186.6 179.4 179.5 174.4 171.2 169.7 168.7 162.3 156.1 157.9 159.5 154.8 150.8 145.3 139.6 135 130.7 125.3 118.5 116.1 116.2 113.7 114.4 112.8 110.8 111.9 113.2 112.4 113 112 112.3 112.7 112.7 112.6 111.6 111 111.5 111.8 112.5 112.2 112.3 112.1 112.3 112 111.3 109.5 107.9 108.2 107.4 108.3 111.6 112.8 114.6 128.3 128.7 132.3 138.3 134.2 132.2 131.3 136.5 143.6 138.3 138.1 137.5 137.5 136.5 135.3 128.1 113.2 109.3 106.1 105.1 105.1 105.1 105.1 105.1 105.1 105.1 105.1 105.1 105.1 105.1 105.1 105.1 105.1 105.1 105.1 105.1 105.1 105.1 105.1 105.1 105.1 105.1 105.1 105.1 105.1 105.1 105.1 105.1 105.1 105.1 105.1 105.1 105.1 105.1 105.1
524.7 524.6 527.1 529.2 536.1 539 541 547.9 553.4 561.1 571 592.1 612.7 626.6 645.2 661.1 665.7 667.4 668.5 661.5 655.6 658.1 658.3 657.4 659.5 660 667.4 679 675.2 668.6 659.8 647.9 633.4 618.5 598.7 565.7 546.8 535.5 522.6 516.2 500 473.1 457.3 453.9 448.6 441.7 442.6 434.8 421.2 421.3 439.5 465.8 479.6 491.7 504.5 514.4 515.7 508.2 512.5 516.2 504.2 491.9 477.8 463.5 447.4 421.3 399 382.9 361.1 350.5 339.9 320.5 305.8 294 281.7 264.9 241.3 251.7 247.3 244.8 243.6 240.2 234.4 237.7 233.1 226.8 215.8 207.9 209.7 209.8 210.4 211.4 199.9 195.5 196.3 189.1 185.4 178 175.5 167.7 158.7 158.8 165.3 162.8 157.8 151.9 154.1 144.5 134.3 130.4 124.3 119.8 118.3 116.4 116.6 118.5 115.8 116 115.8 114.6 115.3 114.5 117.5 116.1 113.9 113.1 112.2 111.6 112.7 112.9 113 112.6 112 111.5 112.1 111.6 111.8 116.2 117.8 113.7 107.3 107.7 108.6 112.2 115.8 121.6 125.9 124.1 130.6 131.6 130.3 130 137.8 135.2 134.9 139.5 134.3 129.6 124.9 115.4 110.3 107.9 105.9 105.1 105.1 105.1 105.1 105.1 105.1 105.1 105.1 105.1 105.1 105.1 105.1 105.1 105.1 105.1 105.1 105.1 105.1 105.1 105.1 105.1 105.1 105.1 105.1 105.1 105.1 105.1 105.1 105.1 105.1 105.1 105.1 105.1 105.1 105.1 105.1 105.1
529.2 531.6 534.2 538.9 541.5 546.7 549.4 554.7 561.3 571.6 585.2 603.3 619.8 638.3 647.6 656.3 659.2 662.9 668.5 667.1 657.9 657.7 664.7 664 668.1 674.9 685.6 694.7 688.6 683.1 674.1 655.4 639.4 624.8 593.1 573.1 555 533.1 523.3 515 498.1 473.7 454 464.2 464.3 463.5 465.5 455.7 437.4 452 471.5 487.8 498.7 511.1 523.1 529.1 524.9 522.6 523.7 515.9 501.3 487.1 477.5 461.2 437.3 418.2 397.4 392 381.7 365.7 354.7 337.4 312.3 299.2 283.7 263.1 269 262.2 260.3 259.2 255 252.1 251.4 249.1 250.7 245.4 235.2 230 233.5 231.8 228.7 229.6 218.4 211.5 204.4 200.4 193.2 187.6 182 175.9 164.1 163.1 175.2 177.8 162.8 158.8 156 148.4 140.5 133.6 129.2 127 120.9 119.8 119.7 122.7 120.4 120.3 119.3 120.5 120.6 120.2 123.8 120.7 117.7 115.7 115 114.6 114.8 114.1 113.3 113.4 113.3 112.7 114.5 114.1 119.4 119.3 114.5 112.7 108 107.4 109.3 111.7 113.9 118.5 119 122.2 122.9 125.5 132 132 131.8 134.9 138.6 137.1 128.6 120 114 108.4 107.6 107.8 105.1 105.1 105.1 105.1 105.1 105.1 105.1 105.1 105.1 105.1 105.1 105.1 105.1 105.1 105.1 105.1 105.1 105.1 105.1 105.1 105.1 105.1 105.1 105.1 105.1 105.1 105.1 105.1 105.1 105.1 105.1 105.1 105.1 105.1 105.1 105.1 105.1 105.1
533.9 539 542 546.6 550.2 552.6 557.2 561.8 570.4 587.2 600.1 623.2 636.9 647.3 651.5 656.2 661.6 668.4 672.9 668.9 664.9 657.1 659.5 671.2 683.6 694 714 713.5 713 690.4 674.3 667.3 653.3 606.4 583 567.8 552.6 537.8 522.6 509.5 489.3 471.7 467.4 470 474.5 476.8 479.2 475.6 468.4 476.6 490.3 504.7 516 528 534.4 539.4 537.3 535.2 523.1 511.1 494.1 486.3 476.5 450.4 434.8 416.6 417.5 408.8 389.2 378.4 355.2 331.5 313.9 300.1 285.1 265.9 278.7 276.3 274.5 272.4 266.1 268.4 264.8 263.4 263.5 263.6 252 250.8 254 254 243.7 243 235.3 230 222.9 209 201.9 198.4 192.4 181.6 168.2 169.7 181.3 176.2 169.7 166.6 160.3 154.6 141.7 134.4 132.6 124.7 121.9 123.2 123.8 126.5 125.7 125.9 127.3 133.7 134.8 130.6 127.7 124.2 120.6 121.7 127.9 126.4 123.7 120.4 116.9 112.8 113.7 112.8 115.9 116.6 116 115 116.4 111.4 111.6 107.7 108.3 112.5 113.6 114.6 114.5 115.8 117.2 122.8 122.3 125.3 130.6 134.6 130.3 126.8 117.2 109.9 108.1 107.9 107.8 107.4 105.9 105.1 105.1 105.1 105.1 105.1 105.1 105.1 105.1 105.1 105.1 105.1 105.1 105.1 105.1 105.1 105.1 105.1 105.1 105.1 105.1 105.1 105.1 105.1 105.1 105.1 105.1 105.1 105.1 105.1 105.1 105.1 105.1 105.1 105.1 105.1 105.1 105.1
541.1 546.7 551.2 552.8 559.7 561.3 567.3 573.7 584.2 598.6 615.4 634.5 656.3 661.4 666.5 666 668.5 671.3 671.2 671.7 667.4 657.3 663.1 679.9 693.4 704 718.5 722 711.3 696.2 677.1 653.4 637.1 605 574.3 558.8 541.7 530.2 517.9 505.5 483.6 462.7 475.1 477.3 488.2 492.1 492.1 487.4 489.1 498 506.9 523.6 534.8 544.2 549.3 540.6 531 521.7 513.6 502.2 490 478.8 461.3 448.3 445.9 441 429.2 412.1 403.3 379.4 357.5 336.5 314.1 300.5 284.1 291.8 293.2 290.5 289.2 283.9 281.4 277.7 277.9 277.5 275.7 271.4 268.9 271 275.7 276.7 266.6 259.5 255.7 244.7 233.3 222.8 214.4 209.3 200.2 189.3 174.3 178.7 185.1 181.2 177.1 167.9 158.8 149.2 142.3 141.2 136.5 133.9 132.4 135.6 129.6 131.3 138.1 141.3 146.4 147 141.3 136.6 134.9 130.3 134.4 140.3 142.4 137 130.2 126.5 121.1 114.1 114.4 121.4 122.8 120.3 118.9 119.3 115.5 114.2 113.8 109.2 107.9 112.8 114.6 115.2 114 113.4 115.7 117.4 116.4 117.7 120.7 122.2 124.2 119.3 110.8 108.6 107.9 107.9 107.9 107.6 105.5 105.1 105.1 105.1 105.1 105.1 105.1 105.1 105.1 105.1 105.1 105.1 105.1 105.1 105.1 105.1 105.1 105.1 105.1 105.1 105.1 105.1 105.1 105.1 105.1 105.1 105.1 105.1 105.1 105.1 105.1 105.1 105.1 105.1 105.1 105.1 105.1 105.1
551.1 552.2 558.7 563.1 564.1 572.2 577.1 586 596.8 613.2 631.4 655.3 674.5 684.8 682 682.9 678.4 669.5 664.4 668.6 663.1 658.1 671.5 685.9 699 705.8 710.5 708.6 702.7 691 677.4 652.5 616.1 600.3 574 553.8 541.2 529.9 516.5 499.3 489.9 471.3 481.4 488.5 499.3 502.7 505.3 503.2 506.9 515.8 525.2 533.8 542 548.5 540.4 536.8 530 526.2 518.8 503.3 492.7 482.3 468.8 467.2 457.3 438.2 427.7 422.6 400.6 376 357.1 337.8 314.1 295.4 301.9 306.3 306 305.3 301.8 301.2 298.3 295.5 292.7 291.9 287.1 286.4 284.7 283.4 289.5 284.2 280.3 275.5 266.2 256 245.9 234.5 232.1 221.9 209.7 196.5 180.5 183.3 193.3 189.7 182.5 172 160.7 157.7 159.8 158.4 153.2 148 146.2 144.3 138.5 143.2 152 155.8 158.9 155.3 150.1 146.4 147.9 143.8 143.9 150.9 149.8 143.3 136.1 130.5 127.8 120 129.6 132 131.8 131.8 126.9 122.8 120.4 130.7 116.8 109 106.9 111.8 113 113 113.2 112.8 114.7 112.6 112.1 110.9 114.3 118.5 117.8 112 109 109.7 108.2 108.1 108 107.5 105.6 105.1 105.1 105.1 105.1 105.1 105.1 105.1 105.1 105.1 105.1 105.1 105.1 105.1 105.1 105.1 105.1 105.1 105.1 105.1 105.1 105.1 105.1 105.1 105.1 105.1 105.1 105.1 105.1 105.1 105.1 105.1 105.1 105.1 105.1 105.1 105.1 105.1
558.9 561.7 567.3 571.7 578.1 584.8 589.6 597.4 611.8 628.9 649.1 671.4 686.6 694.5 693.3 687.7 690.9 684.3 674.8 662.3 658.8 660.7 679.6 695.8 693.9 700.7 697.3 687.3 683.1 669.8 653.1 635.2 608.9 591.6 571.5 554.4 543.3 529.9 518.3 506.1 486.9 482 489.6 499.9 510.8 514.4 515.7 514.8 520.3 530.7 540 546.7 549.2 547.7 544 546.8 538.1 528.9 512.7 503.5 496 490.6 484.3 462.4 446.1 437.8 433.8 421.9 395.1 374.2 359.2 333.2 306.7 314.2 316.9 319.1 319.5 319.1 318.5 317 317.7 318.2 310.8 310.3 303.9 299.8 297.1 297 300.9 297.8 299.1 289.7 278.1 268 259.5 250 242.4 232.3 219.8 206.6 189.7 193.5 203.7 199.5 190 178.7 171.3 173.5 180.3 175.7 171.7 165.6 162.8 155.8 149.7 156.3 166.2 170.6 168.4 165.2 164.7 162.3 159.2 156.6 156.1 156.8 152.1 145.3 140.9 140.7 135.1 137.9 144.8 143.2 146.4 145.3 135.6 131.5 127.8 126.3 114.1 108.3 108.8 107.4 110.5 110.4 111.2 111.4 111.8 110.6 111.8 111.1 111.7 113.4 110.4 109.2 109.8 109.9 108.8 108.6 108.5 108.2 107.1 105.1 105.1 105.1 105.1 105.1 105.1 105.1 105.1 105.1 105.1 105.1 105.1 105.1 105.1 105.1 105.1 105.1 105.1 105.1 105.1 105.1 105.1 105.1 105.1 105.1 105.1 105.1 105.1 105.1 105.1 105.1 105.1 105.1 105.1 105.1 105.1 105.1
567.8 571.7 577.5 584.7 593.1 598.3 604.1 611.3 623.1 646.4 662.2 677.9 687.1 689.4 689.2 691.6 684.2 675.7 668.3 661.7 659.1 660.6 675.7 685.3 680.9 677.4 674.1 674.6 669 656.3 646.7 632.2 620.4 600.8 579.8 557.1 541 534.2 524.8 505.6 486.5 491.4 500.6 509.5 519.3 523.8 526.1 525 531.7 537.7 546.3 553.4 554.9 546.4 548.2 542.8 538 529.6 513.4 510.9 503.5 500.7 474.3 464.6 456.7 440 433.2 410.9 390.2 373.7 348.7 321.7 328.4 330.6 332 334.1 332.5 333 329.8 329.6 328.7 329.5 327.3 325.6 318.2 314 312.4 309.9 311 309.8 310.2 304.4 294.8 282.6 277.6 265 261.3 245.6 232.9 221.3 204.7 206.8 206.3 207 196.5 189.1 186.1 179.8 190.8 188.2 182.1 180.2 176.7 173.3 160.9 166.3 178.9 185.5 181.8 182 176.4 172.4 168.2 167.5 165.3 167.4 159.9 157.2 154.7 152.2 146.4 150.2 153 156.5 151.1 142.8 147.2 142.4 137.7 130.6 116.4 109 108 107.1 109.2 109.6 109.4 111.5 112 113.6 112.5 110.4 109.6 108.1 107.4 107.4 108.5 109.1 108.8 108.3 108.3 107.6 107 105.4 105.1 105.1 105.1 105.1 105.1 105.1 105.1 105.1 105.1 105.1 105.1 105.1 105.1 105.1 105.1 105.1 105.1 105.1 105.1 105.1 105.1 105.1 105.1 105.1 105.1 105.1 105.1 105.1 105.1 105.1 105.1 105.1 105.1 105.1 105.1 105.1
578.5 584.5 586.8 596 604 609.9 616.8 625.4 637.1 654.9 669.2 682.5 691.4 697.8 697.5 684.3 676.5 670.7 666.2 661.2 660 659.5 661.5 668.2 668.9 665.8 668.2 672.9 666.6 652.3 636.7 624.5 608.2 595.5 577.4 556.4 546.8 538.4 520.7 503.3 494.7 501.5 512.7 521.3 528.9 531.7 533 535.3 538.5 543.8 549.6 555 551.3 549 546.2 542.3 538.1 529.2 514.3 510.3 505.5 491.8 476.9 467.8 449.2 432 420.1 405.4 387.5 371.4 335.8 337.3 345.7 344.9 346.7 349.7 348.7 344.5 345.5 344 341.6 345 344 342.6 343 331.9 327.7 325.4 322.3 321 321.6 318 307.1 299.2 291 288.8 279.8 264 251.2 233.7 224.4 220.5 214 210.1 207.8 204.4 201.1 191.3 197.8 198.2 195.7 198.7 191.8 184.2 176.1 176 189.5 194.1 191.2 189.5 189.3 184.3 178.6 178 183.7 186.4 179.3 173.2 169.6 163 155.5 158.4 158.2 154 155.1 165.1 159.1 149.3 142.5 130.6 116.6 108.9 108.6 107.8 109.6 111.1 111.3 112.8 114 112.6 111.2 109.5 107.2 107 107.2 109.4 109.1 108.7 108.5 108 107.4 106.6 105.9 105.1 105.1 105.1 105.1 105.1 105.1 105.1 105.1 105.1 105.1 105.1 105.1 105.1 105.1 105.1 105.1 105.1 105.1 105.1 105.1 105.1 105.1 105.1 105.1 105.1 105.1 105.1 105.1 105.1 105.1 105.1 105.1 105.1 105.1 105.1 105.1 105.1
