ncols 200
nrows 85
xllcorner 220000
yllcorner 63450
cellsize 50
140.7 133.9 133.5 135 132.5 129.1 131.1 133.8 137.2 139.3 128.7 111 100.7 110.8 132.8 151.7 166.9 172.7 176.7 179.4 179.5 177.8 174.1 171 167.8 168.8 175.5 183.5 187.8 191.1 195.1 198.8 201.5 203 204.1 204.6 204.3 203.4 203.6 203.7 206.6 208.8 211.1 212.9 214.3 215.4 216.3 216.8 216.4 215.2 214.4 214.3 212.3 209.9 206.6 202 196.2 189.8 182.4 172.9 161.5 146.3 135.8 128.2 125.1 127.1 131.2 137 140.4 147.1 157.5 167.5 175.7 181.8 186.5 189.4 191.1 192.1 192.5 193 192.1 190.5 188.4 186.7 186.9 188.1 189.9 191.9 194.8 197.6 200.1 202.6 205.1 207.8 209.8 210.7 210.8 210.5 210.2 209.8 209.9 209.7 207.7 204.8 202.7 200.7 198.7 196.8 193.7 188.5 184.3 181.1 178.4 175.2 175.5 175.1 174.2 172.4 169.7 166.6 162.4 157.4 151.7 142.7 133.7 125.4 122.2 121.4 122.9 125.4 122.6 119.1 116.8 119.2 126.3 134.7 137.8 140.5 142.5 144.6 147.4 150.6 152 152.4 154.2 158.1 162.1 166.2 168.6 168.2 167.1 165.1 163.4 161.1 158.6 156.1 154.8 156.3 158.5 159.5 160.3 160.2 161.1 161.3 161.4 160.2 157.4 154.7 152.7 152.9 151.1 148.9 145.9 141.6 135.6 127.7 127.3 134.7 138.3 138.4 137.5 135.3 131.9 127.4 119 109.3 101.4 99.1 101.6 102.8 105.7 109.1 112.2 112.8 118.1 124.9 130.6 135.4 137.6 138.4
140.4 133 128.3 127.5 125.3 120.2 119.2 120.9 125.2 130.2 121.6 106.6 99.9 108.5 127 149.3 164.5 171.6 176.1 179 179.8 178.8 176.6 175.2 174.6 175.2 179 185.4 190.1 193.3 196 198 200.1 201.1 201.9 201.8 201.4 200.3 200 201.4 203.5 205.5 208.5 210.4 211.8 212.7 213.3 213.8 213.4 212.8 212.4 212 210.4 208.5 205.5 201 196.2 190.2 182.9 174.8 164.6 150.1 135.6 125.6 123.7 125.2 128.7 133.3 137.6 145.5 156.8 167.1 174.9 180.7 184.5 187.3 188.9 189.9 190.2 190 189 187.3 185.8 184.2 184.5 186.3 188.2 190.3 192.9 195.7 198.1 200.1 202.1 204.5 206.5 207.6 207.3 206.8 206.2 205.6 206.2 206.4 203.9 201.9 200.4 198.2 196 194.5 192.6 187.3 183.6 182.1 180.1 178.4 178.2 177.4 176.1 175.1 173.1 170.8 166.9 162.2 156.7 150.1 141.1 132.8 126.5 120.7 118.1 118.9 117.3 115.7 115.4 118 123.6 130 133.7 136.2 138.6 140.5 142.7 145.3 147.1 149.6 152.5 156 160.4 164.6 165.9 165.8 165 163 160.9 158.7 156.5 154.2 152.9 155.1 157 157.5 158 158.5 159 160.8 162.5 162.7 160.6 158.8 156.5 155.7 153.9 152.1 149.6 146.8 142.5 134.7 124.1 126.4 133.2 134 133.3 132.3 129.2 125 118.6 109.7 99.6 100.5 107.3 109.6 111 115 117.9 117.7 119.4 124.8 130.5 134.9 136.9 137.1
143.6 137.3 130.7 124.5 121.5 118.4 114.4 111.4 112.1 114.6 109.8 101.3 99.5 104.7 125.2 145.8 162.2 170.2 175 177.8 179.4 179.7 178.7 177.6 178.7 179.7 181.8 185.9 189.5 192.9 195 196 197.5 198.2 198.8 198.6 197.4 195.5 194.6 196.1 199.1 202.3 205.1 207.5 208 208.3 208.8 209.1 209 208.6 208.6 208.2 207 205.3 202.9 199.3 194.7 188.8 181.8 173.7 163.3 148.4 133.5 122 121.8 124 127.5 131.8 136.7 145.3 157 165.7 173.3 178.3 182 184.6 186.2 186.9 187.2 186.6 185.5 184.4 183 181.3 182.2 184.3 186.6 189.3 191.6 193.9 196 197.8 199.6 201.4 203.2 204.1 203.7 203.1 202.1 201.2 200.7 199.6 198.5 197.2 196 193.7 192.2 190.7 189.2 185.6 182.6 181.2 180 179 178.1 177.2 175.8 174.7 173.6 171.4 168.1 164 159.3 153.7 147.3 140.1 133.7 126.5 117.4 115.8 114.6 114.1 113.7 118.2 122.6 126 129.9 132.8 135.4 137.6 139.8 142.9 146.2 149 152.4 155.5 160 162.5 163.7 163.4 162.3 160.2 157.7 155.6 153.7 151.8 151 152.9 153.5 154.2 154.8 155.6 157.3 159.7 162.5 163.7 163.1 161.5 159.5 157.9 156.1 153.8 151.6 148.9 145.5 140.1 130.2 121.1 123.6 127.9 128.8 128.1 126.1 122.6 117.1 108 98.9 103.9 112.2 116.1 117.5 120.7 122.6 123 124 127.4 132 135.7 136.5 136.3
150 144.4 136.9 130 128 125.9 121 114 107.4 105.3 102.1 99.5 98.4 104.4 120.8 141.3 159.3 168.6 173.5 176.2 178.4 179.2 179.1 179.1 180.1 181.1 182.5 185.3 188.2 190.8 191.8 192.8 193.9 194.5 194.2 193.7 191.7 189.6 189.1 190.7 194.4 198.8 202 203.8 203.8 203.5 203.6 203.5 203.6 203.9 204 203.9 203.2 201.6 199.1 195.5 192 186.9 180.3 172.2 161.6 146.9 130.5 117.5 119.8 123 126.5 130.1 135.4 145.8 157.3 165 171.1 175.8 179 181.8 183.4 183.9 183.4 182 181.1 180.1 179.2 178.1 179.7 183.4 186 189 191.1 192.4 193.9 195.4 197.3 199.1 200.2 200.6 199.6 198.7 197.7 196.5 195.3 194.5 193.6 192.1 190.6 188.7 187.3 186.3 185 183.2 181.2 179.8 178.7 177.9 177.1 176 174.7 172.7 171.7 169.5 166.8 162.6 157.8 152.3 146.7 141 134.9 122.6 120.6 114.8 113.7 112.9 114.1 120.3 127 128.6 129.3 130.6 133.4 136 139.9 143.9 146.2 149 152.4 156 159.4 161.2 161.8 161.6 160.1 157.8 155.4 152.8 150 148 147 148.4 149.7 150.9 152 154.4 157.3 160.3 163.2 164.6 164.8 163.4 161.6 159.3 156.8 154.6 151.9 149.3 145.5 141.7 135.3 124.3 115.6 118 122.4 123.8 122.7 120 115.1 104.1 97.2 107.7 116.5 121.7 123 125.6 127.6 128.3 129.1 131 134 136.3 136.2 135.4
156.2 151.5 145.1 139.2 136.7 133.4 128.7 119.5 108.6 103.1 100.4 98.1 98.2 102.9 114.5 135.9 155.6 166.3 171.7 174.9 176.5 176.8 176.9 177.2 178.5 179.4 180.7 183.1 185.6 187.6 188.8 188.9 189.7 189.6 189 187.6 185 182.6 183.2 186 190.1 194.8 198.4 199.9 200 199.1 198.1 197.6 197.6 198.3 198.8 199.3 198.6 197.2 195.1 192.1 189 184.2 178 170.5 160.3 146.7 129.6 119.7 117.7 120.6 124.5 128.6 134.6 145.4 156.3 163 168.2 172.8 175.8 178.5 180.5 180.8 179.4 176.7 175.4 174.2 174.1 175.2 178.6 183 185.5 188.3 189.5 190.4 191.9 193.4 195 196 196.6 196.4 195.6 194.5 193 191.2 190 189.3 188.7 187.7 186.2 184 182.4 181.6 181.4 181.1 179.9 178 177.2 176.4 175.5 174.7 172.9 170.6 168 165.6 162.2 157.8 152.9 148 142.9 137.2 131.8 126.7 118.5 113.9 113.2 112.2 113.8 120.4 125.7 128.7 130.8 132.2 134.4 136.7 139.9 142.8 145.8 148.7 152.1 155.8 158.6 160 160.2 160 158.7 157.3 154.8 151.4 147.9 145.7 144 144.2 147.1 149.9 152 155.2 158.6 162 165.4 166.1 165.7 164.5 162.3 159.3 156.6 154.9 152.2 149.6 145.3 141.1 136.1 128.3 118.3 111.8 113 116.6 117.8 115.8 109.4 99.6 98.3 110.1 118.9 123.8 127 129.6 131.5 133.2 134.6 135.6 136.9 136.8 137.1 134.7
160.7 156.2 151.7 147.6 143.7 139.6 133.9 122.9 109.2 102.7 99.5 97.1 97.3 101.3 112.5 132.9 153.5 164.7 170.5 173.5 174.1 174.4 174.6 174.6 175.3 177.1 178.9 181.2 183.3 184.9 185.7 185.7 185.3 184.6 182.9 181.3 178.7 175.9 177.2 180.3 185.3 190.6 194.8 196.2 196 195.1 193.8 193 193.3 194.1 195 194.7 193.6 192.2 190.7 188.4 185.1 181 175.3 168.6 159.9 148.5 132.8 120 115.7 117.8 122.8 127 133.9 145 154 160.6 165.7 170 173 175.9 177.5 177.6 175.5 172.2 169.7 168.3 169.5 173.5 178.8 182.4 184.5 186.5 187.2 187.7 189.2 190.7 192.4 192.8 192.7 192.2 191.4 189.7 187.7 185.8 184.7 184.4 184.1 183.1 182 180.1 179.6 180.1 179.3 179.8 176.5 174.9 174.8 174.2 174.3 173.4 171.2 168.7 165.2 160.4 156.1 151.1 146.9 142.2 137.2 132.2 127.6 123.1 115.8 112.8 112.1 111.4 113 118.6 123.6 127.8 131.1 134.2 136.8 139 140.5 143 145.9 148.6 151.8 155 157.5 158.8 159.1 159.1 159.4 158.2 156.2 152.6 149.3 146.1 142.3 143.1 150.1 153.1 154.8 158.3 161.9 164.7 166.7 166.9 166.1 164.3 161.6 159.1 156.4 155 152.4 150.1 147 144.3 139.5 135.7 129.3 119.6 110.7 107.3 108.1 106.8 102.7 96.3 98.7 108.9 117.7 124.7 129 132.8 135.1 136.8 137.9 137.2 138.4 138.4 137.7 135.3
165.7 161.8 158.7 155.1 151.8 148.6 141.1 128.3 113.1 102.9 98.2 96.9 96.3 99.2 109.2 129.6 150.5 162.2 168 171.2 172.8 172.8 171.4 170.3 171.2 173.2 176 178.5 180.7 181.8 183 182.5 180.5 179.4 177.7 174.8 171.9 169.8 171 175 181 187 190.8 192.6 192.9 191.3 189.6 188.6 189.2 189.6 189.9 189.1 187.8 186.4 184.9 182.7 179.9 175.8 172.1 166.1 159 149 135.1 120.9 113.6 115.5 120.8 125.6 132.2 143 151.9 158.8 163.2 167.2 170.6 173.3 174.4 174.7 171.6 167.9 164.3 164.5 168.4 173.5 177.4 180.1 181.9 183.1 183.4 184.1 186 187.8 189.2 189.2 188.9 188.5 186.7 184.7 182.5 180.5 180.1 179.8 179.2 178.5 177.2 175.9 175.9 175.7 174.5 174.4 172.7 171.4 171.9 172.7 173.2 172.8 169.9 166.2 161.1 155.1 148.6 143.5 139.4 135 130.6 126.5 123.1 118.9 113.8 111.5 110.9 110.3 112.5 119.2 124.8 129.2 132.8 135.8 138.4 139.9 141.4 143.4 145.8 148.3 151.1 153.2 155.1 156.1 157.2 158.5 159.5 159.2 157.4 155 152.2 147.7 141.6 142.3 150.8 155.2 157.9 161 163.5 165.5 166.3 166.1 165.1 163.1 160.7 157.8 155.1 152.8 152.1 150.7 149 147 144.4 141.7 137.7 129.6 119.2 109.4 101.4 99 97.8 93.9 95.7 105.2 115.2 123.9 130.8 134.2 136.4 137.2 137.9 138.7 139.3 139.7 139.4 137.2
171.1 169.2 167.6 164.6 161.1 157.6 151.6 140 124.5 106.3 97.7 95.7 95.5 97.1 104.7 120.6 140.8 156.1 163 167.4 169.7 169.5 167.8 166.5 167.2 169 171.4 175 177.8 178.9 180.1 179.4 176.9 174.3 171.8 168 164.6 163.8 165.1 170.3 177.6 183.6 188 189.6 189.7 188.1 186.2 184.2 183.9 184.7 184.2 183.1 181.3 179.4 176.8 174.6 172.5 169.3 165.4 160.6 154.8 146.6 134.3 118 110.9 113.4 119.4 125.1 131.8 142.8 151.4 156.7 161.1 164.8 168.2 170.7 172.2 172 168.7 163.2 159.9 162.6 168 171.7 174.7 177.3 178.9 179.4 179.5 180.5 182.3 184.4 185.9 185.5 185.2 184.7 182.3 179.9 177.7 176 175.6 175 174 173.4 172.9 171.5 170.9 171 170.3 169.2 168.2 167.6 168.4 169.8 170.2 170.2 168.1 163.7 158 151.4 145.3 138.6 133.8 129.7 125.9 121.9 118.9 116.4 113.2 109.7 110.2 109.7 113.3 121.4 126.9 130.3 133.2 135.5 137.6 139.7 141.3 143.3 145.6 148 150 151.4 152.3 152.8 154.2 156.2 157.8 157.7 156.9 154.8 151.5 145.2 139.1 143 151.9 155.7 158.1 160.2 161.9 163.1 163.7 163.2 161.6 159.6 157.5 155.1 152.4 150 149.3 148.8 148.5 147.5 146.3 144.1 140.7 136.1 128.3 118.8 108.7 99.4 94.5 93.1 91.9 102.9 114.5 126.5 132.5 135.3 136.2 136.4 136.9 137.8 138.7 139.7 140.6 138.6
175.7 174.5 173.5 170.9 167.2 163.5 158.7 150.4 137.6 121.8 107.7 97.1 94.8 96.6 99.9 110.2 129.4 147.1 157.3 163.7 166.1 166.6 164.3 162.5 163.1 163.7 167.1 171 175.3 176.5 177.4 176.7 174.4 170.3 166.1 161.6 159.1 158.8 160.3 166.4 174.6 180.9 185.5 187 187 185.9 183.1 180.1 177.8 178.2 177.8 176.1 174 171 168.5 166.1 163.3 159.8 156.2 152.2 147 139.6 128.7 113.5 108.8 111.4 118 124.5 132.2 142.4 150.6 155.2 159.1 162.6 165.5 167.7 169.5 169.2 166 159.3 156.8 161.8 166.2 168.6 170.7 172.9 174.4 175.2 175.1 176.6 178.8 180.7 181.5 180.7 180.5 180.2 178.7 176 173.8 171.8 170.7 169.8 168.9 168.2 167.8 167.3 166.8 166.5 165.8 164.9 164 163.8 164.6 165.7 166 164.8 162.4 158.8 153.8 148.5 142.4 136.3 131.4 127.6 123.8 120.6 117.8 115.5 112.4 109.7 109.6 109.1 113.7 120.7 125.1 128 130 134.5 137.6 139.6 141.8 143.8 146.1 147.6 148.3 149.2 149.3 149.2 150.5 152.5 153.6 153.9 153 150.7 144.9 138.1 138.6 146.3 152.2 154.5 156 157.2 158.3 159.9 160 158.9 157.3 155.2 153 150.6 147.9 145.1 144.9 146 145.9 145.1 144.2 142.3 140.3 136.8 131.8 126 117.6 108 97.2 93.6 91.2 102.2 116.9 127.3 132.7 134.6 134.6 134.7 135 136.6 138.1 139.4 140.2 138.8
179.7 178.1 176.1 174 170.7 166.5 161.5 155.5 145.8 134.3 117.8 100.3 94.2 94.1 95.7 101.8 117.3 137.7 151.5 159.1 162.2 162.6 159.9 157.4 157.3 158.8 163.1 168.5 172.5 174.6 175.4 174.1 171.6 167.4 162.3 157.3 154.3 154.2 155.6 163.3 172 178.2 182.9 184.6 184.6 184 181.7 179.3 174.2 170.3 167.9 166.5 165.2 162.5 159 156.5 153.5 149.6 145.6 142.1 136.5 129.5 120 110.1 106.7 110.7 117.3 125.1 132.6 141 147.5 152.3 156.1 159.3 161.8 164.2 166.7 167.3 164.1 156.3 153.5 158.7 162.1 164 165.9 167.5 168.5 168.9 169.1 171.6 174.4 175.7 176 175.5 175.3 174.9 174.1 171.8 169.2 166.6 165.7 164.7 163.7 163 162.6 162.9 163.3 162.6 162.3 161.8 161.3 162.1 161.1 160.8 160.9 159.3 157 154 150.2 145.8 139.7 134.6 130 126.4 123.6 120.8 117.8 114.8 111.5 110.2 108.8 108 111 116.7 119.8 123.4 129.8 135.6 139.6 142.1 143.8 145.4 146 146.3 146.9 147.3 146.5 145.7 146.5 147.5 147.3 147 145.7 142.4 136.1 134.8 141.9 148.4 150.7 151.6 152.7 153.3 153.5 155 155.4 154.3 152.1 149.6 147.4 145.3 141.6 139.5 140.3 142 142.8 142.2 140.9 139.4 137.6 135.9 132.7 128.7 123.6 116.1 105.6 96 90.8 100.3 117.1 127.5 131.7 132.9 132.1 131.5 132.7 134.9 136.8 138.4 139.3 137.7
182.2 180.8 178.7 175.8 172.5 167.6 162.5 157 149.9 139.6 123.6 104.1 93.6 93 93.3 96.4 107.7 128 144.3 153.1 157.1 156.9 155.7 152 151.4 155.9 162.3 167.9 171.9 174 173.8 172.4 169 165 159.2 153.8 150.2 149.2 150.9 160 170.2 176.6 180.4 182.1 182.6 182.1 180.5 178.1 174 170 162.8 155.5 154.5 152.6 148.8 146.2 143 138.8 134.9 131.7 127.7 121 112.2 105.5 104.6 110.2 117.2 124.4 131.6 138.8 144.1 148.5 152.2 154.9 157.2 159.8 162.7 164.4 162.3 155.1 150.3 154 157.1 158.5 159.6 160.8 161.6 161.7 163.7 166.4 169.3 170.4 170.2 169.4 169.1 168.9 168.1 166.5 163.9 161.7 160.8 159.7 158.6 157.9 158.1 158.5 158.8 159.2 159.1 158.9 158.7 159.3 158 157 157.2 155.8 153.7 150.9 147 142.6 138.2 133.5 129.6 126.2 123.6 121.4 118.4 115.5 112.2 109 107.4 107.1 107.9 111.9 117.8 124.9 131.8 136.9 141.2 144.5 145.7 145.9 145.3 144.8 144.6 143.7 143.1 141.4 142.3 142.3 141 137.9 135 132.2 132.1 136.6 144 147.1 148.2 148.7 149.1 149.1 149.1 150.3 150.8 149.6 147.1 144.5 142 139.3 135.5 133.5 135.7 137.2 138.5 138.8 137.8 136.5 135.3 133.9 132 129.4 125.5 118.7 109.5 98.5 89.5 100.6 116.2 126.3 130 130.3 128 127.6 130.2 133.1 135.6 136.9 137.6 136.1
183.1 182.1 179.6 176.3 172.9 167.8 162.1 156.2 149.9 140.6 125.1 107.4 94 92.3 92.3 93 103 118.6 132.5 143.4 147.5 148.6 148.3 146 148.7 155.6 163.2 169.4 173.1 174 173.8 171.5 166.9 162.1 156.1 150.2 146 144.4 146.9 156.3 168.6 175.2 178.6 180.3 180.7 180.1 178.6 176.5 173.9 170.5 165 154.5 144.6 142.1 138.1 135.5 132.7 128.6 126.2 126.4 124.8 119.7 111.6 103.8 102.5 108.7 115.4 121.4 128.2 135.4 140.3 144.7 147.9 150.7 153 155.8 158.6 160.5 159.4 153.7 147.8 148.6 151.1 152.4 153.4 154.3 154.7 156.6 159.5 162.1 164.6 164.8 164 163 161.5 161 159.9 159 158 156.7 155.8 154.8 153.8 153.9 154.2 154.6 155.2 156.3 157 156.6 156.4 155.3 154.2 153.5 153.6 152.6 150.7 148.1 144.7 140.5 136.7 133 129.6 126.3 124.1 121.9 119.4 117.3 113.5 108.7 106.6 106.3 106.7 111.1 117.6 124.3 130.3 135.8 140.8 144.2 145.1 144.2 143.2 142 139.9 139.3 137.1 135 136.3 136 133 130.2 129.6 130.9 132.5 136.4 141.4 143.9 145.3 145.6 145.7 145.2 145 145.9 146.3 145.5 142.8 139.8 136.8 134.2 130.9 128.6 131.4 132.5 134.3 136.1 134.9 133.8 132.2 130.9 129.1 126.2 122.4 116.1 107.4 95.7 89.3 100.4 113.2 123.5 128.3 127.8 125.4 125.5 128.8 131.7 134.2 135 134.5 132.7
183.2 182 179.7 176.4 172.6 166.7 160.4 154.4 146.2 135.7 122.2 107.8 94.2 91.7 91.3 92.1 104.1 116.6 122.8 130.6 135.7 137.2 137.8 141 147.2 156.2 165.1 172.1 174.7 175 173.9 171.4 166 160.2 153.9 147.5 142.3 139.5 143.8 154.8 167.2 173.8 176.8 178.4 178.8 178 176 174 171.1 167.1 162.3 154.7 142.4 133.3 128.9 126.4 124.4 121.6 120.8 121.7 122.1 120.9 114.4 104.3 99.5 106 111.7 117.7 124.4 132 136.8 140.5 143.5 146.5 149 151.8 154.5 156.1 155.2 150.9 145.3 143.5 145.1 146.2 147.7 149.2 151.1 153.4 156.4 158.5 159.6 158.8 157.7 156.7 155 153.1 152.7 152.8 152.1 151.3 150.6 149.6 149 149.6 150.7 151.5 152.5 153.9 155 154.7 154 152.2 151.1 150.4 150.2 149.8 148.1 145.6 142.4 138.4 134.9 132.1 129.3 126.6 124.4 122.2 120.2 117.7 113.4 108.9 106.1 105.6 105.9 107.1 113.4 120.9 127.2 133.5 138.5 141.5 142.3 141.4 139.8 137.9 135.8 133 128.6 126.8 127.8 128 127.9 131.7 134.4 135.2 134.1 135.8 138.4 141.2 142.3 142.6 142.5 142.1 141.8 142.2 142.6 141.6 139 135.6 132.5 129.1 126.2 123.5 125.2 126.7 130.6 133 133.2 131.6 128.9 127.3 125.2 121.9 117.5 110.5 101.9 94 88.4 97 108.3 119.1 125.5 125.8 123.3 124.6 127.5 130.7 132.8 131.9 130.3 125.6
182.6 181.6 179.8 176.4 171.3 165.8 159.3 151.3 139.3 122.1 110.6 98.9 91.4 90.6 90.1 91.7 104.7 114.1 117.6 120.9 124.5 129.6 135.5 141 147.7 157.1 165.9 172.8 175.6 175.1 173.8 170.8 165.3 159 151.7 145.3 139.1 134.7 143.1 154.9 165.7 171.1 173.8 175.6 175.5 174.5 172.8 170.5 167.1 162.4 156.9 150.5 141.4 133.2 126.7 121.5 118.3 116 114.7 116.2 116.9 118.2 112.6 102.5 98.1 101.8 107.2 113.7 121.6 128.6 133.5 136.6 139.4 142.2 145.3 148.5 150 150.6 149.1 145.8 141.4 138.7 139.7 141.1 142.8 144.7 147.9 151.5 153.8 154.3 154 153.1 152.1 151.2 149.9 148.2 147.8 147.4 146.5 145.7 145.2 144.6 144.7 145.6 147.5 148.7 150.2 151.5 152.7 152.9 151.7 149.3 147.7 146.7 146.3 146.1 145.3 143 139.7 136.8 133.9 131.4 128.7 126.4 124 122.4 120.5 117.2 112.3 108.4 105.6 104.8 104.8 104.9 106.8 114.6 122.6 130.1 135.4 138.1 139.1 138.5 136.5 133.7 130.6 124.7 121.8 124.8 128.1 131.7 136.4 140.9 142.4 141.7 140.1 140.5 139.7 140.1 139.5 139.4 139.2 139 138.8 139 139.1 137.6 135.2 131.5 128.2 123.4 120.7 119.1 118.6 122.1 127.3 130.6 131.7 130.2 126.8 123.9 120.4 116.8 112.2 104.9 97.5 91.2 88.7 91.4 100 111.3 120.4 123 121.8 120.2 126.3 130.4 130.7 127.1 120.1 111.3
180.9 180.5 178.5 174.7 169.9 164.9 158.8 149.7 129.1 105.2 93.4 87.2 85.2 86.5 88.5 93.8 103.2 108.9 113.3 117.2 123.1 129.3 136.3 142.6 150.1 158.4 166.2 172.8 175.6 175.2 173.4 170.1 164.7 158.2 150.6 142.4 134.6 131 142.3 154.9 163.8 168.1 170.6 171.5 171.5 169.8 167.9 165.5 161.8 156.3 151.1 146.6 141.9 135.9 129.6 122 116 111.9 108.6 108.6 109.4 110.7 105.2 98.1 94.7 98.3 104.2 112.2 120.8 127.1 130.2 132.2 135.3 139.1 142.6 144.6 145.5 144.6 142.4 139.1 135.4 133.9 135.2 136.8 138.9 142.3 145.9 149.6 150.7 150.6 149.5 148.5 147 146.1 144.8 143.1 142.4 141.6 140.8 140.2 139.9 140.4 140.8 141.7 143.7 146.1 147.7 149 150.3 150.6 149.4 146.9 144.5 143.1 142.2 141.6 140.5 138.4 136 134.5 132.8 130.5 128.4 126.1 124.3 123.6 121.4 116.7 110.9 107 104.7 104.3 104.1 103.9 103.9 112 120.8 127.8 132.7 136.3 137.3 135.6 132.5 128.7 123 119.5 124.7 134.3 140.2 143.6 146.7 147.7 147.5 146.7 144.9 144.1 141.9 139.6 138.4 137 135.7 135.5 135.1 134.8 134.7 133.8 131.9 128.5 123.9 118.3 115.6 114.7 116.4 121.6 126.8 130.1 131.4 130.7 127.4 124.6 121.4 116.7 111.7 106.9 103.3 97.9 91.1 86.3 92.3 101.4 112.8 117.6 112.6 116.5 125.3 129.5 127.5 119.3 106.9 100.5
178.2 177.6 176.1 172.4 167.9 161.9 156.5 146.9 122.4 93.6 86.5 92.9 93.1 95.5 98 100.6 102.6 107.5 113.6 118.7 124.5 130.4 138 146.1 153.5 161 167.9 173.1 175.7 175.7 173.9 169.3 164.4 157.6 149.2 140.2 131.5 128.7 141.9 153.7 160.9 164.9 166.6 166.6 166 164.5 162.4 159.7 155.3 151.2 147.7 144 140.3 136.7 131.6 124.5 117.8 112.1 107 103 101.4 100.8 95 95 93.9 96.1 102.8 111.7 120 124.8 126.4 127.7 131.3 135.9 140.1 141.8 141.6 139.3 136.5 132.8 130.4 130.3 131.8 133.7 136.9 142 145.7 148.4 148.1 146.8 145.6 143.8 142 140.3 138.8 137.1 135.7 135.3 134.8 134.7 135 136.1 137 137.8 139.4 141.9 144.5 146.4 148.3 149.8 149 146.7 143.1 140 138.4 137.2 135.4 133.5 132.1 130.6 129.6 128.2 126.9 126 124.5 122.5 119.2 113.3 108.5 104.9 103.7 103.8 103.7 103.5 103.9 113.2 123.3 129.9 133.7 135.7 135.3 132.2 127.3 120.3 117.2 122.6 132.6 139.9 144.5 147.4 149.4 150.4 150.6 149.3 148.1 146.7 144.4 141.8 139.5 137.5 135.5 133.1 131.9 130.6 130 128.9 127.5 123.7 119.6 115.2 111.7 111.3 116.3 124.6 129.1 131.5 133 132.9 131.6 129.3 125.8 122.8 120.4 117.4 115.6 108.9 100.3 89.4 86.6 93.2 102.1 106.4 104.8 113.1 124.2 127.5 123.7 111.5 99 99.9
174.5 174.1 172.6 169.7 164.9 158.2 153.3 143.1 120.5 88.3 87.5 105.1 116 118.5 118.9 116.9 114.5 116.1 119.6 123.3 128.7 134.9 142 149.6 155.8 162.4 168.1 172.6 174.7 174.9 172.7 168.4 163.3 157.7 149.8 138.7 128.1 127.1 140.4 151 157.3 160.5 161.6 161.2 160.7 159.6 157.9 155.2 152 148.6 144.9 141.2 137.8 134.9 131.6 127 119.6 113.3 108.2 103.4 99.7 97.7 97.2 93.8 92.5 94.2 101.8 110.8 116.3 119.4 120.7 122.8 128.8 133.9 137.7 139.2 138.4 135.2 132 128.3 126.5 127.5 129.8 133 137.5 141.8 145.3 146.8 145.7 143.2 140.9 138.9 136.9 135.1 133.5 132.1 130.8 130 130.1 131 131.5 132.2 133.4 134 135.8 139.3 142.6 145.5 147.8 149.6 149.4 147.3 143.7 140.2 136.3 133.6 131.5 130 128.4 127.3 126.2 124.5 124.5 125.1 123.4 119.7 115.5 110.2 106 103.4 102.8 102.8 103 103 105.3 116.2 126.4 132.3 135.1 135.2 132.8 127.6 120.2 114.8 119.2 127.6 133.6 138.5 142.7 146 148.3 149.4 150.4 149.4 148.9 148.7 146.9 144.7 142.7 140.3 138 135.4 132.6 128.9 126.6 124.2 121.7 118 115.2 112.7 110.1 107.9 117.4 126.7 130.2 132.6 134.2 134.8 134.4 133.2 131.4 130 129.2 128.7 126.2 120.7 112.9 103 91.1 85.5 90.8 93.5 102.9 114.6 121.9 123.4 118.5 104.3 96.5 103.1
171.6 170.9 169.2 166.6 162 155.7 150.4 139.1 117.1 94.5 89.3 109.5 126.5 137.1 139.4 136.5 132.1 129.7 130 131.8 136.5 141.8 146.3 152.2 157.5 162.5 167.3 170.2 172.3 172.9 171.2 166.8 162.3 157 150.3 138.8 125.9 122.6 135.2 147.4 152.8 155.7 157 156.8 156.2 155.2 153.6 151.4 148.6 145.6 142 138.2 135.2 133.2 131.2 127.3 122.8 117.3 113.6 109.1 102.6 97.7 93.4 91.7 91 93.1 100.6 107.9 110.1 111.8 114 120 126.1 131.7 135.7 136.7 135.6 132.3 127.9 124.6 123.4 125.9 129.2 133.3 137.8 141.3 143.7 144.9 143.7 140.4 137.1 134 131.7 130.1 128.9 127.9 127 126.7 127.3 127.9 128.4 129 129.6 130.6 132.4 137 141.8 144.7 146.8 148.2 148.6 147.1 144.7 141.5 137.2 133.1 129.9 127.9 125.4 123.7 122.3 120.8 120.8 122.4 121.9 118.3 113.1 108.7 104.9 102.2 101.9 101.9 102.1 103.1 109.5 119.6 126.8 131.2 132.8 132.3 129.7 124.6 115.7 113.5 118 123.4 128.4 133.9 138.8 142.4 144.7 146.6 147.7 147.7 148 148.3 148 147.2 145.9 143.5 141.2 138.8 136.6 133.5 130.6 127.5 124.3 122 120.7 117.9 113.4 106.2 115.8 124.4 128.9 131.2 132.5 133.5 134.2 134 133.5 133.8 134.7 133.7 131.4 127.2 120.7 111.4 100.9 86.8 84.1 92.2 103.5 114.7 118 117.4 111.6 97.7 96.2 106.2
168.4 167.3 166 163.1 159.6 154.5 148.4 133.8 113.1 92.3 95.9 117.1 135.8 149.1 151.9 151.3 149.2 146.2 142.9 141.6 144.3 148.5 151.8 155.6 159 162.4 165.3 167.1 168.5 169.4 168.2 164.1 159.9 154.9 149.1 140.2 124.5 120 128.1 141.8 148.1 150.9 152.3 152.3 152.2 151.1 150 147.6 144.7 141.9 138.6 135 132.2 130 128.7 128 125.4 123.3 120.9 117.5 111.2 104.2 95.2 90.5 89.8 92.4 96.6 99.7 102 105.1 111.1 118.3 124 129.9 133.5 134.4 132.6 129.4 125 121.2 121.6 124.9 128.6 132.8 137 140.1 142.1 143.1 141.5 138.6 135.3 131.4 128 126.1 124.8 124.1 123.5 123.8 124.4 125.3 125.5 126 126.5 127 128.9 133.1 137.6 141.1 143.9 145.2 145.7 145 143.3 140.5 136.4 133 129.6 126.9 124.5 122.2 120.4 118.8 117.3 116.6 116.3 114.8 110.5 107.1 104.3 101.4 101.2 100.9 101.7 106.5 113.7 120.7 124.8 126.7 127.6 126.7 125 120 113.6 114.8 119.3 121.4 123.7 128.3 133.6 137.3 140.2 142.4 144.6 145.8 146.9 147.2 147.5 148.2 148.1 147.4 145.7 144.9 142.9 140.2 137.6 134.8 131 127.3 124.9 121.2 115.4 107.8 110.7 120 125.5 127.6 129.1 129.5 130.3 131 132 133.4 134.8 134.3 131.8 128.5 123.3 116.9 108.1 96 85.6 86.8 100.9 107.5 111.8 111.8 105.4 92.3 95.7 109.3
165.9 165.1 163.1 161.1 157.7 151.7 144.3 127.1 106.4 88.3 101.8 123.9 144.6 154.9 157.1 158.1 157.6 155.6 152.6 150.6 151.3 154.6 156.9 158.5 159.6 161.8 163.5 164 164.4 164.3 162.5 159.1 154.7 150.1 144.9 139.1 124.8 116.5 123.4 135.6 141 144.8 146.5 147.2 147.3 146.6 145.1 142.7 139.9 136.9 133.8 130.6 128 125.8 125.8 126 124.5 123.6 122.1 120.1 115.1 108.3 100.5 91.3 87.4 88.4 91.6 95.9 100.6 106.8 112.4 118.2 122.8 128 131.1 132.1 130.3 126.6 122 118.8 120 124 127.8 131.5 135.4 138.7 140.4 141.3 140.1 137.4 134.3 130.4 126.3 122.8 120.9 120.1 120.1 121.1 122.2 123.2 123.4 123.6 123.8 124.2 126.1 129.5 133.8 137.3 140.2 141.7 142.3 141.8 139.9 137.4 135.3 132.4 129.5 126.8 124.1 122.4 122.4 121.8 120.4 117.2 113.2 110.3 107.5 104.7 102.5 100.7 100.2 99.6 101 106.8 115 119.1 121.1 122.1 121.8 120 116.3 113 111.7 117.2 122.5 125.6 127.2 128 129.8 133 135.9 138.6 141.9 144.5 146.5 148.3 149.2 150 151 151 150.2 150.3 149.7 148.1 144.6 140.9 136 131.6 127.5 122.7 116 107.9 105.5 113.9 120.2 123.9 125.1 125.2 124.7 125.7 127.4 129.1 130.7 131.2 129.5 126.5 123 118.6 111.9 100.6 87.2 83 91 95.7 101.7 102.6 95.6 89.4 97.5 112.7
163.7 162.5 160.9 159.2 155.6 149 137.9 119.8 98.4 84.2 104.6 129.7 149.3 156.7 159.8 162 162.1 160.7 158.7 157.8 158.4 159.5 161.5 161.7 160.5 160 160.5 159.8 159.3 158.2 156.4 154 149.7 145.2 140.4 135.6 125.5 113.9 117.1 127.3 132.4 136.1 138.2 140 141 140.1 138.5 136.3 132.9 129.4 127.1 124.8 122.7 120.6 120.8 122.1 122.2 120.9 119.4 117 112.2 105.9 98.8 89 85.4 86 91.7 99.4 106.5 112 116.5 120.6 123.7 126.5 129.1 129.8 128.3 124.7 119.6 117.2 119.4 123 126.8 130.5 133.8 136.8 138.8 139.2 138.1 136.4 133.7 130 126.5 122.5 118.8 117.5 117.5 118.8 120.2 121.4 121.6 121.8 122 122.2 123.7 126.2 130.1 134.2 137.1 138.4 138.7 138.6 137 135.2 133.2 131.2 128.4 126.1 124.5 125.2 127.5 128.6 128.5 126.9 120.7 112.1 107 103.8 101.3 99.8 99.1 98.7 99.8 103.6 113.4 116.5 118 117.5 113.1 109 107.6 109.6 115 120.8 124.4 127.8 130.3 131.6 132.1 133.7 136.1 139.1 142.2 144.5 146.6 148.6 150.5 151.8 153 153.6 153.8 153.7 152.8 151.4 149.4 146.3 141.2 136.3 132.2 126.8 119.3 109.3 101.9 107.4 114 118.9 120.3 119.5 118.3 119.6 121.4 123.3 125.1 125.4 124.7 122.5 119.7 117.1 113.5 107.8 96 84.2 81.9 88.1 96.7 90.7 87.2 89.1 99.1 115.8
160 159.9 159 157.2 153.9 147.6 132.6 111.9 90.4 90.2 113 133.5 151.1 157.6 161.6 164.7 165.2 164.4 163.9 164.5 165.2 165.9 165.9 164.5 161.3 158.7 156.2 154.9 154 153.1 151.5 149.2 144.9 140.3 135.5 130.5 122.5 111.4 110.9 118 124.5 127.3 129.6 131.6 133.4 132.4 129.9 127.5 124.7 122.3 120 119.4 117.4 115.7 115.8 117.5 117.9 116.9 115.6 112.6 107.9 101.5 92.5 85.2 83.4 85 94.1 106.1 114.5 119.2 121.6 124 125.5 126.6 128 127.4 125.8 122.4 117.5 116.2 119.9 123.6 127.1 130.6 133.4 135.8 137.7 137.2 135.4 134.3 132.9 130.4 126.9 122.4 118 115.7 116 117.1 118.6 119.7 119.8 120 120.1 120.3 121.7 123.7 127.1 130.8 133.9 136.8 137.5 137.4 136.2 134.4 132.3 130.5 128.8 127.1 126.6 128.7 131.4 133.1 133.1 131.1 125.9 118.6 111.4 106 101.8 99.5 98.5 98.4 98.9 101.6 111.3 113.9 114 109.6 104.5 106.4 111.9 118 123.6 126.4 129.2 130.9 133.4 135.2 135.9 137.2 139.1 141.4 143.4 144.8 146 147.8 149.2 150.9 152.1 153.1 153.8 153.4 152.4 152.1 150.8 149.7 146.6 141.6 136.4 130.1 120.9 109.3 101 102.1 108.3 112.4 113.3 112.8 112.2 112.8 114.6 116.6 117.6 118.1 117.6 116.3 115 113.8 113.1 111 105.6 92.7 81.5 84.2 85.6 83.9 85 91.7 102.1 120
154.6 155.4 155.4 154.6 152.2 144.6 125.5 102 83.4 96.1 114.7 135 150.8 157.7 161.6 164.5 166.2 166.7 166.9 168.6 169.6 170 169 166.3 162.1 156.5 153.6 150.8 148.9 147.8 146.3 144.3 140.6 136.1 131.7 126.4 118.4 109.4 107.4 110.1 116.8 120.7 123.2 124.8 126 125.4 122.7 120.3 117.7 115.2 113.3 113.5 112.2 109.9 109.9 112 112.8 112.9 111.7 108.2 103.8 95.7 86.4 82.3 81.6 84.7 97.3 111.8 120 124.1 125.4 127.9 129.8 129.1 126.8 123.7 120 117 114.6 117.1 122.1 126.5 131 134.2 136.4 137.6 137.8 135.6 132.1 130.5 130 128.5 125.4 121.4 117.2 114.4 114.3 115.6 116.9 117.9 118 118.2 118.3 118.6 120 122.3 125.4 128.7 132.8 135.4 137.1 137.1 136.1 135 133.5 131.9 130.5 129.3 128.8 130.6 133.4 134.9 134.7 131.8 127.5 122.6 115.7 108.5 103.2 99.6 97.8 97.6 98.1 101.4 109 109.8 107.7 102.9 107.1 114.3 120.7 125.7 129.5 132.1 133.9 135.3 137 138.8 140 141.3 143.3 144.7 145.1 145.2 145.3 146 146.9 148.1 149.2 150.4 151.6 151.9 152.1 151.9 151.3 150.2 147.5 143.1 137.3 130.1 122.2 110.4 101 98.8 103.8 106.9 108 107.1 106.2 106.7 108.1 109.6 110 110.1 110.1 109.5 109.6 110.2 110.8 111.6 109.6 103 91.8 82.2 81 81.1 86.2 95.7 108 124.4
138.9 144.3 149.2 150.3 148.6 137.3 116.1 91.5 84.4 96.5 113 132.9 148.5 155.2 159.5 162.3 164.6 166.8 167.9 168.9 170.1 171 170.6 167.3 162 156 152 148.4 145 142.9 141.6 139.2 136.4 132.9 128.6 123.5 117 109.4 105.6 105.3 109.8 114.5 116.8 117.5 117.2 115.6 112.4 109.3 107.9 105.4 103.3 105 104.8 103.1 103.6 106.6 108.3 109 107.9 104.8 100.4 91.2 82.4 80 81.2 85.6 100.7 115.6 122.8 125.5 127.9 130.7 131.7 129.6 124.6 117.7 112.4 110.7 112.7 119 124.7 130.5 134.9 137 138.2 138.1 137 133.9 129.5 126.6 125.7 124 120.8 117.1 113.9 112 112.5 113.9 115.3 116.4 116.9 117.3 117.6 118.1 121.2 123.5 126.7 129.5 132.8 136.1 137.4 137.8 138.3 137.2 135.7 133.9 132.4 131.5 131.3 133.1 135.4 136.3 135.5 133.3 129.5 125.1 119.2 112.1 105.3 99.4 96.8 97.2 97.4 99.3 103.6 102 101 102.8 111.8 118.6 125.5 130.4 134.1 137.1 139.1 140.1 141.4 142.8 144.2 145.3 145.9 145.8 145.3 144.7 144.2 144.3 144 144.4 145.2 146.6 148.3 149.8 150.4 150.8 150.8 149.9 146.9 143.3 137.5 130.7 122.9 113.2 102.9 97 99.7 102.6 103 102.1 101.4 101.1 102.3 103 103.5 103.4 103 102.8 104 105.9 108.2 110.3 110.8 107 96.5 83.6 80.7 82.3 94.1 101.4 112.7 125.2
120.8 128.7 138.4 143.2 141.5 127.3 105.8 85.8 85.4 95.1 109.6 128.1 144.7 151.8 155.9 159 161.4 163.4 165 166.3 167.5 168.8 168.9 166.2 160.6 155.5 150.5 146.7 142.4 139.1 136.7 134.3 132.1 129.7 125.8 121.6 116.4 110.4 105.9 103.3 102.8 105.1 106.2 105.5 103.5 100.4 97.6 96.2 94.6 92.8 93.1 95.8 97.4 97.7 98.5 101.4 103.8 104.8 104 101.6 97.5 89.9 81.6 79 80.3 88.1 103.7 116.7 123.5 127 129.4 130.2 128.6 124.3 117.3 110.6 107.2 108.5 113.5 121 127.1 132.9 136.5 137.1 136.4 135.6 133.6 130.3 126.2 122.6 120.2 118.2 115.6 112 109.2 109.2 110.8 112.3 113.7 115 115.7 116.3 116.8 118.7 121.7 124.9 127.8 130.5 133.8 137.2 139 139.4 140.5 140.2 138.8 136.8 135.2 134.5 134.7 135.5 137.2 137.1 136.8 134.4 131.4 127 121.2 114.2 106.7 100 96.3 96.9 96.8 97 98.1 98.7 102 111 118.5 123.9 128.7 133.6 137.3 140.9 143.3 144.7 145.8 146.3 146.5 146.6 146.1 145.4 144.7 144 143 142.3 141.9 142.2 143.5 144.8 146.5 148 149.2 150.2 151.2 150.2 147.7 144.1 138.9 132.3 125.8 117.5 107.8 98.6 95.7 97.3 97.7 96.9 96.7 96.6 97 97 97 97 96.7 96.6 98.2 101.4 104.4 107.4 109.3 104.8 92.7 81.5 80.1 97.8 104.9 110.4 117.6 127.4
110 115.5 124.9 131.9 134.3 116 96.3 83.7 85.1 94.2 107.6 126 141.6 148.1 151.1 153.9 156.2 156.7 158.9 161 162.7 164.3 164.7 163.6 159.6 154.7 149.7 144.9 140.5 136.8 133.5 130.8 128.5 125.7 122.1 118 113.7 109.1 106.1 103.7 101.2 99.7 99.2 97.9 95.5 93.5 92.5 90.8 89.2 87.2 86.7 88 89.5 91.9 93.2 96 98.4 99.9 99.9 98.5 94.8 88.9 80.7 77.7 80.4 89.8 104.3 116.1 123.7 128 129.3 127.8 122.7 114 106.7 104.2 106.4 111.8 118 124.3 129.6 133.8 136 135.4 133.7 131.8 129.9 127 123.1 119.3 115.8 112.9 110 106.4 105.5 107.5 109.1 110.6 112.1 113.6 114.4 115 115.7 118 120.8 123.7 127 131.5 135 138.2 140.7 141.7 142.7 143.1 141.9 140.2 138.9 138.5 138.5 139.1 139 139 138.6 136.3 133.2 128.5 122.5 115.5 108.3 99.4 96.6 96.3 96.3 96.5 98 102.9 112 119.7 124.1 128.1 132 136.2 139.7 142.6 144.9 146.6 147.9 148.2 147.6 146.6 146.1 145.1 144.1 142.7 141.4 141 140.8 141.9 143.2 144.6 146.1 147.5 148.8 149.9 150.8 150.9 148.3 144.5 139.5 133.7 127 119.4 110.5 102.4 95.7 93 92.1 91.2 91.2 91.7 92.2 92.5 92.1 91.7 91.3 90.7 91.2 95.4 99.4 102.7 104.9 99.3 86.3 78.8 82.4 105.2 110.1 118.8 125.7 132.6
115.1 105.4 111.7 118.8 124.1 104.6 88.8 83.2 84.1 93.8 109 127.6 140.5 143.8 146.3 148.4 150.1 151.1 152.3 153.5 156.1 158.6 159.4 159.4 157.3 153.9 148.9 143.5 138.8 134.6 131.2 126.4 124.7 121.3 117.3 115.4 114.2 112.6 111.8 108.3 105.4 105.1 105.2 103.7 102.6 100.9 99 96.1 94.2 91.7 89.9 86.3 84.3 86.6 87.3 89.6 91.5 93.1 94.1 93.6 92.6 88.4 80.3 76.6 79.9 89 103.3 116.1 124.2 128.3 128.1 123.9 114.6 104.1 99.6 103.8 110.5 118.4 124.3 128.7 132.9 135.6 135.9 134.1 130.8 128.4 126.1 123.4 120 115.9 111.2 107.7 104.4 101.9 103.1 105.4 107.4 108.9 110.4 112.8 113.6 113.9 114.9 116.6 118.8 121.5 125.7 130.8 135.4 139.4 142.8 144.5 145.9 146.1 145.5 144.5 143.4 142.9 142 141.7 141.6 141.6 140.3 138.1 135.2 130.6 124.2 116.8 109.1 97.8 95.7 95.6 95.7 96.3 100.2 110.8 120.4 125.9 129.4 132.4 135.2 138.2 140.7 142.5 145.1 147.1 148.3 148.3 147.2 146.3 145.5 144.3 143.1 141.2 139.8 139.5 140.3 142.1 143.6 144.3 145.7 147.1 148.4 149.6 150.8 150.6 148.1 144.3 139.7 134.2 127.7 120.4 113 105.7 100.3 97.5 95.9 92.4 88.2 86.8 87.3 87.4 87.2 86.8 86.4 86.8 86.7 89.9 93.2 96.7 96 88.5 80.1 79 90 104.9 118 125.3 130.7 136
124.1 107.6 101.1 106.6 109.4 101.6 86.7 82.3 84.2 95.7 113.4 129.9 136.6 138.4 139.4 140.8 143.4 144.6 146.1 147.1 148.6 151.4 152.9 154.7 154.9 153.1 148.3 143.7 139.2 134.9 130.9 125.9 123 119.2 121.6 124.6 124.3 122.5 121 115.7 113.6 114.6 117.8 117.5 116.2 113.8 110.8 107.5 104.1 100.8 96 93.6 89.7 85.7 83.8 83.5 82.5 82.5 84.1 85.7 87.7 87 81.2 75.9 78.2 87.3 101.6 115.4 123.8 126.4 124.8 117.5 105.2 96.2 100.8 110.5 117.8 124 128.4 133.4 137.1 137.5 135.7 133 129.1 125.6 122.1 119.1 115.5 110.8 105.5 102.8 100.7 100.3 102 104.6 107.6 110.1 111.9 112.9 113.5 114.3 114.9 116.1 117.7 120.3 125.1 130.4 136.5 141.8 145.3 147.2 148.6 148.9 148.9 148 147.3 146.7 145.8 144.9 144.6 143.5 142.2 139.8 136.9 132.3 125.9 117.9 108.3 95.8 94.8 94.7 95 96.9 108.7 119.5 125.4 130 132.4 133.8 135.7 138 139.3 141.3 143.7 146.1 147.2 147.1 146.2 145 143.2 142 141.6 139.6 138 139.2 141.3 143.2 144.3 144.5 145.3 146.7 148 149.1 149.3 149.3 147.4 144.2 139.9 134.6 128.7 122.1 115.6 109.8 105.3 102.6 100.6 96.5 91.6 86.7 83.8 82.9 82.4 82.4 82.1 82 83.5 86 87.3 85.5 82 79.1 77.2 84.8 100.6 115.5 124.3 129.8 133.1 135.6
131 113.9 100 96.1 98 91.2 84.1 81.4 84.1 98.7 115.9 124.8 128.4 130 131 132.5 135.5 137.7 139.2 140.3 142.2 144.7 147.6 151.8 154 153.9 151 146.9 142.5 138.5 134.4 129.9 125.5 123.5 128.5 133.6 134.8 131.8 126.9 123.7 123.5 124.8 127.2 127.7 126.3 124.1 122.1 118.9 114.6 109.4 105.5 102.6 99.8 95.7 91.6 89.1 86.9 82.3 78.5 77.3 80.6 82.7 80.5 74.7 76.2 86.9 100.7 112.9 121 123 119.7 109.2 96.3 94.3 107.3 119.9 124.2 127 130.1 133.5 136.5 137.1 135.1 132.1 128.5 124.2 119.5 115.1 110.2 105.5 100.7 98.5 98.8 100.3 102.8 106.5 109.9 112.9 115.4 116.5 116.3 116.4 116.4 117.5 118.9 121.4 125.8 131.7 137.8 143.5 147.5 149.7 150.6 150.9 150.4 150.1 149.8 149.4 148.7 147.7 146.7 145.4 143.7 141.2 137.9 133.5 127.6 119.5 108.3 94.2 94.4 94.3 94.5 100.1 115.2 124.2 127.8 131.2 132.6 133.2 134.1 135.3 136.2 139.1 141.4 143.5 144.5 144.7 143.4 141.9 140.3 139.7 138.9 137.4 136.8 138.8 141.6 143.2 144.1 144.7 145.4 146.4 147.5 147.7 147.9 147.6 145.6 143 139.5 135.1 130.4 124.7 118 111.8 107.6 105.1 102.7 99.6 94.9 91.3 88 85.1 82.3 80.8 79.7 79.6 79.6 80.5 80 78.2 77.3 76.9 81.1 93.9 110.1 121.4 127.5 130.2 132.1 133.6
133.8 118.8 106.1 96.1 89.4 87.2 83 81.3 83.3 98.8 110.3 113 116.4 119.3 121.3 124.2 127 130.5 132.3 134.1 136.5 139.6 144.3 149.7 154.4 156.1 154.4 151.5 148.3 143.9 139.4 135.6 131.3 128.2 129.5 134.1 136 133.7 131.6 130.3 130.8 132.3 133.7 133.9 132.8 130.9 128.7 125.4 120.9 116.7 113.1 110.4 108 104.7 101.3 100.3 97.4 91.2 83.8 78.1 74.6 76.4 76.6 73 74.7 88.7 103.9 113.5 118.7 118.9 114.2 102.8 91.6 95.3 112 121.1 125.3 125.9 127 128.6 131.3 133.4 133.3 131.5 128.3 124.3 119.5 112.8 105 99.7 96.8 97.4 100 104 108.4 112.4 116.3 118.2 119.8 120.8 119.8 119.8 119.8 120 120.7 122.7 127 132.3 138.3 143.7 147.2 149 150.1 151.1 151.2 150.6 150.3 150.1 149.5 148.6 147.7 146.3 144.5 141.9 138.7 134.7 129.2 122 109.7 94.1 94 93.9 94.6 103.5 118.2 124.8 128.7 131 131.6 130.8 130.4 130.4 131.6 134.9 138.3 140.3 141.3 141.8 140.4 138.7 137.6 137.1 136.2 136.4 136.6 138.2 141 142.7 143.7 144.7 145.4 146.1 145.8 145.9 145.4 145.3 143.3 140.5 137.2 133.4 129.3 124.1 117.6 112.1 107.6 104 100 97.3 95.4 92.6 91.4 89.7 87.1 85 82.3 79.3 76.5 76.1 76.3 75.8 75.7 78.6 90.2 104.7 117.1 123.4 127.2 128.5 128.5 129
125.5 116 108 99.7 90.7 86.2 82.4 80.9 82.7 91.8 96.1 98.9 103.4 108.4 112.1 115.4 118.9 121.8 125.3 128.2 133.3 139.5 146.2 151.1 156.4 159.1 159.5 157.3 154.1 149.7 145.6 141.9 137.3 133.1 133.1 133.7 136 136.4 135.7 135.9 136.5 138.4 139.1 139 138 136.5 133.6 129.6 125.7 122.6 119.8 117.1 114.3 111.2 107.6 103.7 99.5 95.3 92.1 85.6 77 72.9 72.6 71.3 76.3 94.3 108.1 114.8 118 116.4 110.7 97.8 89 94.8 108.9 115.8 119.9 120.7 120.9 121.9 124.1 127.8 129.2 128.7 126.9 123.2 118.3 111.3 102.5 95.3 94.8 98.6 104.1 109.6 115.1 120.1 122.9 123.6 124.2 125.1 124 123 124.4 124.6 124.3 124.8 128.8 133.4 138.6 143.2 146.3 148.2 149.3 150.3 150.6 150.4 149.8 149.4 149 148.5 147.3 145.6 143.8 141.1 138.4 135.1 130.5 124.1 110.3 93.7 93.3 93.3 95.4 108.3 118.7 124.5 128.2 129.8 129.4 127.8 125.1 124.6 126.5 130.8 134.3 136.6 137.3 137.1 135.8 134.1 133.9 134.2 134.6 135.7 136.8 138.2 140.2 142.2 143.3 144.3 145.2 145.3 144 142.4 141.5 140.4 138 135.1 132.3 129.3 125.3 119.1 112.5 107.2 103.6 99.9 96.2 93.1 92.7 92.4 92.8 93.3 93.3 92.3 89 83.5 76.9 74.5 74.1 74.3 77.3 87.8 99.8 111 118.9 122.3 123.3 123.9 123.2 122.9
111.4 100.9 94.5 90.9 88 86.3 82.3 80.6 83.1 90.3 94.8 99.7 103.3 106.1 110.5 113.6 117 120.3 123.8 128.8 136.9 145.2 150.9 155 159.5 163.8 164.6 162.4 159 155.2 151.3 147.4 142.6 137.5 136.2 136.9 137.9 138.7 138.8 139.9 141.4 143.1 143 142.4 141.5 139.8 137 133.9 130.6 127.5 124.6 121.4 117.6 114 110.4 107.4 104.3 102 99.2 92.7 84.2 75.5 71.3 70.5 78.3 96.8 108.1 113.2 115.3 112.9 106.6 93.5 86.4 91.3 104.1 108.5 108.2 108.4 109.9 112.1 115.1 117.6 119.2 120.2 119.4 116.4 112.7 106.3 96.7 93.2 95.4 100.6 107.1 114.2 119.5 124.2 126.2 127.8 128.6 129.2 129.1 129.2 129.5 129 128.7 128.9 130.9 135 139.3 143 145.5 147.3 148.3 148.6 148.8 148.5 147.9 147.4 146.7 146 144.8 143.3 141.7 139.7 137 133.7 129.9 124.3 110.3 93.8 92.7 92.7 97 110.3 118.6 123.1 125.9 126.4 124.8 122.1 118.9 117.7 121 124.6 128.6 130.6 130.5 129.4 127.9 128 131.9 134.8 136.7 137.4 137.7 138.7 140.8 142 142.9 143.9 144.8 144.4 141.6 137.7 135.3 132.6 129.7 126.1 123.8 120.6 115.7 109.6 102.8 96.3 95.3 93.6 90.3 88.5 87.9 88.7 91.6 93.5 95.6 94.2 91.6 86.3 77.6 73.6 74 80.4 90.6 100.2 107.6 112.1 116.8 116.1 112.5 111.1 110.3 111.6
94.7 83.9 80.1 79 78.7 80 79.9 80.8 84.7 95 103.3 110.2 114 117 121 121.6 122 124.5 127.7 133.3 142.8 150.1 154.8 158.3 162.3 165.3 166.3 164.9 162.1 158.7 155.2 151.1 146.4 142.4 140.8 140.2 140.2 140.7 141.5 143.4 145.3 147.1 146 145 143.9 142.3 140.3 137.9 135.5 132.4 129.2 125.1 121.3 117.6 114.4 112.1 109.3 107.5 103.9 98.1 90.9 82 71.9 69.8 76.2 93.9 105.9 110.5 111.3 108.9 102.9 90.5 83.4 86.9 95 94.6 92 92.8 95.3 98.5 101.7 102.2 103.4 104.6 104.5 103.4 101.2 95.4 91.8 92.8 96.8 102.4 112.2 119.6 124.2 127.3 129.3 130.9 132.7 133.3 133.3 134.2 134.2 133.8 133.3 132.8 133.5 136.4 140.1 143.2 145.4 146.1 146.5 146.7 146.2 145.9 145.6 144.8 143.8 143 141.7 139.9 138.2 136.7 134.7 131.5 127.5 120.7 107 92.5 92.5 92 97 110.9 117.4 120.1 119.3 117.1 114 112.5 109.8 110.1 113.2 116.9 118.5 120.8 121 121.6 124.4 129.5 136.7 138.8 139.9 140 139 139.1 140.5 141.4 141.8 141.5 141.9 141.2 138.3 133.3 128.2 123.9 120 115.4 112.7 109.7 104.7 100.4 97.7 95.9 92.5 88.7 85.4 84 83.5 84.3 87.4 90.5 93 93.1 90.6 83.8 75.8 73 75.7 92.8 101.1 106.5 109 109.8 108.1 102.9 97.8 94.8 94.2 96.6
80.4 76.6 75.7 75.6 77.3 79 80 81.3 86.8 97.9 106.3 112.9 119 125 129.7 131.9 131.5 132.7 135.7 140.7 149.4 154.5 158.7 161.4 163.6 166.1 167.3 166.6 163.7 160 157.5 154.3 150.3 147.2 145.7 144.7 143.9 143.6 145.7 148.4 149.7 150.3 148.8 146.8 145.7 144.2 142.8 141 139 136.2 133.1 129.3 125.2 121.7 119.2 116.9 114.6 111.5 107.5 102 94.4 85.3 73.8 69.2 73.2 90.9 102.5 105.5 106 104.5 97.8 86.3 79.8 81.7 82.1 80.6 81.2 82.7 82.5 83.4 84.4 85.4 86.2 87.8 89.3 90.4 91.2 89.7 90.8 95.7 100.2 106 116.2 123.3 127.8 130.2 132.5 134.8 136.5 137.3 137.7 138.4 139 138.5 137.9 137.3 137.3 139.1 141.5 143.3 144.3 144.8 144.5 144 143.3 142.8 142.5 141.6 140.6 139.7 137.6 135.2 133.4 131.9 130.3 127.6 123.2 114.1 100.3 92 91.7 91.7 98.1 109.5 113.4 111.6 105.8 103.2 104.5 106.3 109 112.3 116.2 117.7 118.5 119.3 122 126.2 131.2 137 141.3 142.2 142.4 141.4 140.4 140.1 140 140.5 140.9 139.8 138.8 137.4 135.1 129.8 125.1 121.8 118.1 115.5 113.7 111.6 109.6 108.2 107.1 103.6 98.4 92.1 85.6 82.7 81 80.8 82.7 85.9 88.5 88.9 85.5 79.8 74 72.8 78.2 94.7 100.9 103.7 104.4 102.3 97.1 88.3 85 89.5 92 90.9
76.1 74.9 75.5 76.8 79.2 80.5 81.8 84.5 88.9 96.5 104.3 112.4 120.2 127.2 132.9 137.9 143 146.9 149.8 152.6 156.4 159.7 162.1 163.6 164.7 165.9 167.7 166.9 164.1 160.6 157.8 155.3 152.9 150.8 149.5 148.5 148.1 147.9 150.8 153.2 154.1 154 151.3 149.1 147.3 145.7 144.3 142.9 141.1 138.5 135.7 132.2 129.3 126.7 124.3 121.6 118 114.8 110.5 104.8 96.7 86.7 74.3 69.2 71.1 86.7 97.7 98.9 98.8 95.3 88.2 79.1 76.9 77.1 76.8 79.6 83.5 86.8 87.7 87.5 87.1 87.6 87.2 87.8 88.7 89.2 91.3 94 98.3 102.7 106.2 110.7 117.2 123.1 128.5 132 135.8 139.1 140.8 141.7 142.4 142.9 143.4 143.2 142.5 141.7 141.6 141.8 142.8 143.5 143.3 142.6 142.1 140.9 140.3 139.8 139.4 138.8 137.7 136.2 133.7 130.2 126.1 125.2 124.5 121.9 117.1 107.8 93.2 91.9 91.5 91.4 94.4 100.5 102.1 100 101.8 107.8 111.3 114.6 118.5 123.3 128.2 130 131.2 131.7 133.4 135.2 137.8 139.3 141.3 142.9 143.1 142.5 141.9 141.3 141.2 140.7 140.5 139.8 138 136 134.4 132.1 129.1 125.5 123.1 121.4 119.7 118.8 118 115.7 112.1 107.2 100.5 93.8 86.9 82.7 79.6 78.5 79.3 81.3 84.1 84 81 77.5 72.9 71.9 80 91.3 96.8 98.8 97.9 92.8 85.2 86.3 96.9 102.2 104.7 105.2
74.7 74.5 76.3 79.8 82.4 83.9 85.4 88.4 93.6 100.2 109 118.6 127.2 134.9 139.8 143.4 150.2 154.9 156.7 159.5 160.7 162 162.8 163.5 164.4 165.7 167.1 166.7 163.6 160.2 157.1 154.7 152.3 150.8 149.9 149.5 150.2 150.6 152.9 154.9 155.5 154.9 153 150.4 148.3 146 144.2 142.6 141 139.5 137.8 135 132.8 130.7 128.8 125.8 121.6 118.3 113.1 106.8 98 85.2 74 69.1 69 81.4 90.3 91.1 87.9 82.5 77 73.8 73.8 74.7 78.7 85.1 91 96.4 99.6 100 99.4 99.3 99.1 99.4 100.2 102.5 104.8 106.8 109.1 110.9 113.8 117.3 121.9 125.9 130.5 133.9 138.2 142.7 145.2 146.6 147.3 147.6 147.6 147.5 147.3 146.5 145.8 145.1 144.2 143.6 142.6 140.9 138.8 137.2 135.7 135.5 135.1 134.8 134 131 126.8 122 117.7 115.7 115.5 114.1 110.1 103.2 90.6 91.8 91.1 91.4 93 95.7 97.5 102.4 111.4 120.4 124.7 126.5 128.6 131.4 134 136.3 137.7 138.2 138.9 139.8 140.4 141.1 142.4 143.4 143.9 144.2 143.6 143 142.5 142.4 141.9 140.9 139.5 138.7 137.9 136.4 133.7 130.9 128.5 126.8 125.1 123.8 122.2 119.2 115.4 109.8 102.9 94.1 86.6 82.3 79.1 77.1 76.6 77.2 78.4 78.8 78.4 75.7 72.4 71.2 76.3 86.7 91.4 93.4 91.1 84.5 82.6 97.7 108.8 115.4 120.3 121.1
73.3 76.1 79 83.2 85.5 87.6 89.2 93.1 99.1 106.8 115.1 124.2 134.2 142.2 147 149.7 152.3 156.2 159.3 160.6 161.5 162.3 162.7 163.3 163.7 164.1 165 163.9 161.5 158.2 154.8 152.4 150.1 148.4 148.4 148.5 149.1 150.4 152.5 154.3 155.6 155.1 153.1 150.8 147.8 144.4 142 140.7 139.8 139.4 138.4 136.8 135.2 133.2 131.5 128.7 125.1 120.2 114.9 107.6 98.6 85.1 73.8 68.6 67 75.3 80.9 78.4 73.6 71.3 71.4 71.9 74.9 79 85.2 92.5 102 111.1 115.7 115.7 117.1 118.4 117.8 117.8 118.1 119 118.7 117.2 116.4 117.5 119.8 122.2 125.5 129.3 132.1 135.6 139.3 143.7 147.5 150 151.2 151.7 151.9 151.8 151.5 150.6 149.6 147.8 145.7 143.4 141.1 138.3 134.9 132.1 130.3 129.9 129.3 128.2 126.7 124 119.7 115.1 110.7 108.2 107 105.9 103.9 97.9 90.4 90.5 90.7 91.7 99.3 106.6 110.3 115.6 122 128.2 132.8 134.4 135.4 135.9 136.8 137.3 138 138.5 139.2 139.9 140.6 141.8 142.8 143.3 144.4 145.2 144.9 144.7 144.7 144.7 144.1 143.5 142.8 142 141 139.6 137.8 135.3 133.7 131.7 129.8 127.7 125.2 121.9 117.8 112.3 104.9 96.1 86.2 82.1 78.9 76.6 75.6 75 74.7 74.8 75.2 74.9 72.7 71 74 81.1 84.8 85 81.1 77.2 91.8 105.9 116.8 124.5 129.4 131.1
76.3 80.1 83.7 87 89.5 90.9 95 100.6 108.7 118.7 127.4 132.9 140.4 147.4 152.4 155 155.8 157.3 160 161 161.7 161.8 161.9 162.5 162.2 162.3 162.4 160.9 159.1 155.6 152 149.2 147 145.3 145.5 146.2 147.3 149.1 151 152.9 154.5 154.6 152.7 150.2 146.8 143.2 139.4 138 137.7 138.4 138.4 137.7 136 134.1 131.7 129.6 126.1 121.8 116.6 110.1 101.7 87.4 74.8 68.8 66.2 68.8 71.7 69.1 68.7 69.7 71.9 76.3 81.5 87.9 94.6 103.2 113.9 121.7 127.7 130.8 133.2 134.2 133.5 132.1 130.4 129.6 127.5 124.8 122.9 123 124.5 126.4 128.9 131.4 133.2 135.9 139.2 143.3 146.4 149.5 152.2 154.2 155.1 155.6 154.7 152.8 150.9 148.9 146 142.4 138.9 135.4 130.7 126 123.8 123.3 122.1 120.6 119.2 116.3 112.7 109.3 105.3 102 100.4 99.3 98.9 96 90.4 89.8 90.2 92.6 105.3 114.3 118.1 122.1 125.6 128.8 132.4 135.2 136.8 136.3 136 134.6 135.6 136.1 136.4 137.5 139.2 141 142.3 143.1 144.2 145.2 145.9 146.2 146.8 146.8 146.6 146.3 145.7 144.8 144.1 142.8 141.3 139.3 137.4 135.4 133.3 130.1 127.6 124.2 119.7 113.8 106.1 97.6 88.8 83.3 79.4 76.4 75.2 75.1 73.6 72.9 72.9 72.6 72 70.7 71.3 75.7 78 77 74.5 83.9 99.3 112.9 122.2 128.5 132.5 134.8
82 86.1 89.3 92 95.4 99.6 106.6 114.8 125 133.9 140 143.8 147.9 152.7 156.5 158.2 159.2 160.1 160.8 161.5 161.6 161.5 161.3 161.3 160.8 160.9 160.5 158.8 156.5 153 149.4 146.3 143.5 141.9 141.3 142.4 143.9 146.7 149.2 151.1 152.9 153.8 152.2 149.2 146 141.1 136.4 134.1 133.8 135.9 137 136.8 135.4 133.2 130.5 128.8 127 123.6 119.4 114.3 106.4 93.1 78.2 70.4 66 65.9 66.8 70.7 75.7 80.3 83.7 89 95.6 101.2 109.3 115.9 122.4 129.9 135.6 138.6 140.7 141.2 140.9 139 137.5 135.2 132.6 130.2 127.3 126.1 126.6 128.4 130.5 133.1 134.4 135.8 138.6 141.6 144.6 147.8 151.1 154.2 156.5 157.2 156.3 154 151.3 147.8 144.1 139.9 136.1 131.9 126.5 122.4 118.7 116.9 115.7 113.9 112.4 110 107 103.9 100.8 97.5 95.4 94.9 95 93.8 90.4 89.6 89.6 92.7 106 114.2 118.4 120.6 123.4 125.7 127.9 130.2 131.8 132.7 132.2 131.1 131.5 133 133.9 135.4 137 138.3 140.6 141.8 143.4 144.7 145.7 147.1 148.1 148.7 148.9 148.9 148.6 148.1 147.6 146.5 144.8 142.9 141.2 139.3 137.1 133.4 129.3 125.9 121.2 114.6 106 97.1 89.5 83.3 79.2 77.1 76.7 76.5 75.8 73.4 71.7 71 70.8 70.1 69.6 71.7 72.8 75.6 82.6 94.5 107.4 117.8 125.3 129.9 132.9 134.6
90.8 93.8 97 101 106.7 115.7 125.3 132.7 139.8 144.2 148.4 151.5 153.9 157.3 159.5 160.5 161.6 161.6 161.4 161.5 161.3 161 160.6 160 159.9 159.6 158.3 156.6 154 150.2 146.9 144.1 141.3 138.8 137.1 137.6 140.2 143.6 147.3 149.4 151.2 151.9 151.2 148.4 145.4 139.4 134.5 131.1 131.7 133.3 134.3 134 133.6 131.9 129.5 127.9 126.5 124.6 121.2 116.7 110 99 83.9 73.7 66.4 65 71.4 84.1 94.7 100.7 103.6 107.8 113.7 118.8 122.3 125.7 130.3 136.6 140 142.3 144 144.4 144.2 143.2 141.1 138.4 135.3 132.5 129.8 128.1 128.5 129.2 130.9 132.9 134.7 136 137.3 139.9 142.8 145.9 148.9 152 154.6 156.2 155.4 152.9 149.5 145.4 141.2 136.9 132.3 128 122.6 118.2 114.7 111.8 109.8 108.4 106.6 104.2 101.5 99.2 96.6 94.9 94.5 92.6 91.4 90.4 89.5 89.1 89.1 92 101.8 108.2 112.2 113.9 115.8 117.1 118.7 121.9 124.1 126.1 127.9 129.6 130.9 132 132.9 133.8 134.9 136.3 138.1 139.8 141.4 143.2 145.3 146.6 148.6 150.1 151.2 151.9 151.8 151.5 151 150 148.3 146 144.3 142.4 139.6 135.9 131.7 127.4 122.8 113.7 104.4 94.5 86.6 81.8 80.2 79.8 79 80.4 80.5 77.6 73.8 70.8 69.6 69.2 69.3 71.8 76.7 84.4 94.3 103.7 112.4 120.7 126.2 129.4 132 133.2
106 107.9 110.9 117.9 126.5 135.5 143.3 147 149.7 152.8 155.1 157.5 159.1 160.6 162.4 163.2 162.9 162.4 161.9 161 160.3 159.9 159.5 158.8 158.9 159 157.9 155.8 153.1 148.9 145.7 143.3 141 138.3 133.9 132.4 135.8 141 145.4 147.5 149.1 149.7 149.3 147.7 144.8 138.7 132.1 127.6 128.7 130 130 130 129.8 128.4 127 126.3 125.9 124.4 121.3 117.8 111.8 100.4 87.4 77.7 67.1 66.4 79.9 96.2 106 110.8 115.2 119 123.9 128.5 130.8 133.2 136.6 140.1 142.3 143.8 145 144.9 144.3 143.4 141.7 139.2 135.5 132.7 129.9 128.2 127.8 127.7 129.9 131.8 133.4 134.7 135.7 138.2 140.8 143.2 145.6 147 148.9 150.7 151 148.6 145.4 142.2 137.9 133.5 128.8 124 119.6 115.2 112.7 110.2 108.7 106 103.3 101.7 100.8 100.1 100.8 101.3 99.2 96.6 93.3 90.7 89.3 88.6 88.8 90.4 94.9 99.5 102.2 106 110.7 115.4 120.2 124 126.7 129 130.8 132.6 134.1 133.6 134.2 135.1 136.4 138 139 139.8 140.6 142.5 144.8 147.3 149.2 151.1 153 154 154.5 154.5 154.3 153.2 151.8 149.5 147.2 144.5 141.1 136.1 130.5 123.3 115.4 105.6 96.9 90.1 85.4 87 86.7 83.8 82.9 84.4 84.1 81.4 77.6 73.8 70.9 68.9 69.3 73.2 83.3 93.5 101 108 115.7 122.4 126.5 128.6 130.3 131
127.8 130.2 133.1 140 146.2 151.3 154.5 155.4 157.2 158.4 160.6 161.9 163.2 164.5 165.1 164.6 163.9 163.3 162.4 161 160.1 159.2 158.4 157.7 157.9 158.7 158.2 156.7 154 150.5 147.1 144.4 142.1 138.9 134.1 129.2 132.5 139.2 143.7 146.1 146.9 147 146.6 145.1 142.8 138.6 130.3 123.3 123.9 125.5 125.2 124.6 124.6 123.7 122.6 122.5 122.3 121.2 119.1 116.2 110.4 100 88.1 78.5 66.1 67.5 83.4 102.2 109.1 114.7 119.9 123.7 127 130.7 133.8 136.4 138.8 140.9 142 142.9 143.4 143.2 142.4 141.3 140.1 137.6 134.8 131.9 129 127.4 126.5 126.2 127.6 129.2 130.5 131.7 133 135.3 137.5 139.9 141.8 143.5 144.1 145.6 146 145 142.5 139.7 135.1 130.4 126.3 123 120.8 119.4 117.3 115.2 112.7 110.3 107.1 106.9 108.1 108.9 108.9 107.3 103.7 99.9 96.3 92.4 90.6 88.9 88.3 90.5 95.4 102.2 108.6 113.2 118.4 123.7 126.2 128.4 130.3 132.2 133.2 134.4 134.6 135 135.5 136.6 138.6 140.6 141.4 142 142.8 144.6 146.7 148.9 150.8 153.2 155 156.4 156.7 156.8 156.9 156.4 154.3 151.6 148.8 145 139.8 130.9 119 108.1 100.6 95.1 91.4 90.4 93.6 96.2 93.4 88.6 86.9 88.3 86.6 83.6 80 76.3 72.4 68.7 68.7 73.6 85.7 96.2 103.1 110 116.7 122.3 125.6 127.1 128 128
145.7 148 151.2 155.4 157.6 159.7 160.7 160.3 160.8 161.7 162.9 164.2 165.4 166.7 166.8 166.3 165.8 165.2 163.8 161.7 159.8 158.8 157.8 156.6 157.9 158.8 159 157.9 155.2 152.1 148.9 146 143.2 139.7 135.2 126.8 129.9 137.6 142.6 145 145.1 144.3 143.4 141.9 139.7 135.8 128.2 118.8 116.8 118.9 119.3 118.5 117.8 117.2 116.3 116.2 117 116 114 112 107.8 98.3 87.6 77.1 65.2 66.9 82.4 98.9 105.8 111.1 115.8 119.6 125.1 129.7 133.4 136.2 138.5 140.1 140.7 140.6 140.3 140.3 139.2 138.1 137.1 135 132.2 128.9 126 124.7 123.2 122.7 123.3 125.3 126.3 127.4 128.9 131.1 133.1 135 137.1 139.6 142.1 143.5 144.1 143.5 141.5 139.3 136 131.9 129.5 126.8 125.3 124.5 122.7 120.8 118.5 114.9 111.9 113.4 114.8 115.1 113.8 111.3 107.2 102.6 97.6 93.8 90.3 89 88.1 89.8 99.9 109 115.3 119.3 121.5 123.6 125.8 128.4 130.4 132 133.1 133.7 134.5 135.4 136.5 137.7 139.7 141.2 142.4 143.4 144.6 146.2 148.6 150.6 152.2 154.4 156.6 158.4 158.6 158.6 158.3 156.3 153.4 150.3 146.8 142.4 132.6 119.1 104.4 98.4 97.5 97.5 99.5 102.4 104.6 103.2 99.5 93.8 90.4 91 89.9 87.1 84.1 80 75.3 69.5 67.9 72.8 85.1 95 102.5 109.6 116.3 121.7 124.5 125.7 126.1 124.9
153.3 154.1 156.6 160.1 161.7 162.3 161.9 161.2 160.7 160.8 162 163.1 165.4 167.3 167.9 167.7 167.4 166.6 164.5 162.6 160.6 158.3 156.6 155 156.1 157.8 158.5 157.7 156 153.7 150.7 147.5 144.1 140.2 135.5 125.3 123.9 135 140.6 142.7 142.1 140.7 139.2 137.5 134.7 130.1 123.6 114.7 109.3 110.9 111.7 110.4 109.8 109.2 108.7 109.1 110.2 109.7 108.3 106.2 103.8 96 85.6 75.4 64.9 65.7 78.2 90.6 98.2 101.1 104.5 112 121.4 127.9 132.6 136 138.2 138.7 138.1 137.1 136.9 136.2 135.5 134.5 133 131.2 128.7 125.5 122.8 120.4 117.9 116.9 117.7 119.9 120.6 120.8 122.6 125.4 127.4 129.4 132.7 135.9 139.4 142.2 143.7 143.7 143.1 141.8 139.9 137.2 134.7 132.3 129.8 128.9 127.3 125.6 123.4 118.9 115.9 118.9 119.3 118.9 116.9 113.6 109 103.6 100.2 95.3 91.2 88.7 87.9 89.4 101.9 111.2 116.6 119.8 120.6 121.6 123.1 125.1 126.7 128.6 129.6 131.3 133.2 134.5 135.7 136.7 138.4 140.2 141.5 142.6 144.6 146.7 148.8 151.3 152.2 153.7 154.7 155.6 155.7 155 154.1 152.1 148.8 145.5 141.1 136.1 124.8 107.5 103.1 107.6 111.2 113.7 115.4 116 114 109 104 97.8 93.9 94.2 94 92 90.2 86.2 80.5 73.4 68.5 72.4 83 92.2 99.6 107.3 114.3 119.6 122.7 123.9 123.5 122.1
158.1 159 159.9 161.7 163.3 163.1 162.4 160.6 159.6 159 160.3 162.1 164.2 166.3 167 167.5 167.4 166.5 164.4 162.3 160 157.4 155.2 153.6 155 157 157.9 157.1 156.4 154.5 152.1 148.6 145.1 141.5 137.2 128.3 119.2 129.9 136.3 138.5 138.3 136.3 134 131.4 128.8 124 117.5 111.2 104.8 102.7 103.6 102.4 100.7 100.3 99.9 100.4 101.5 101.5 101.4 100.7 100.2 92.2 81.9 71.8 64 63.1 72.8 81.2 88.9 97 107.9 117.5 124.5 129.1 133 136 137.4 136.8 135 133.6 132.8 131.9 131.1 130 127.8 125.8 123.9 120.7 117.3 114.2 111.7 110.7 111.8 113.6 114.5 115 115.3 117.4 119.8 123.4 127.2 132.3 137 141 144.2 145.5 145.7 145.6 145.2 142.9 140.6 138.5 136.1 134 131.6 129.6 126.8 123.3 121.9 123.4 123.2 121.2 118 113.9 109.7 107.5 105.7 100 92.6 88.5 87.7 88.5 99.3 109.2 114.2 116.4 116.8 117.2 117.9 118.4 119.7 122.1 124.6 127.1 130 132.4 133.4 134.3 136 137.9 139.8 141.7 143.2 145 147.1 149.7 151.7 151.9 152.4 152 151.4 150.4 149.1 147.1 144.3 141.1 136.6 130.8 118.4 107 112.2 121.7 127.9 129.9 128.9 125.5 119.5 113.9 107.6 101.1 98.6 99.8 100.7 99.3 97.4 92.5 84.5 75.7 68.5 69.6 78 88.5 97.2 104.8 111.6 116.6 120.1 121.1 120.6 118.6
160.7 161.9 162.7 164.4 164.7 164.3 163 160.9 158.8 156.9 157.5 159.4 161.7 163.5 164.9 165.8 165.5 164.7 163.4 161.5 159.2 156.6 153.6 151.2 153.6 155.9 157.2 157.1 156.6 155.3 153.4 150 146.4 142.8 139.2 132.7 118.1 122.6 130.1 132.4 132.7 130.7 127.8 124.4 121.6 118.6 113.4 107.6 101.7 96.3 95.4 94.7 92.6 91.5 91.3 91.8 93 93.6 94.3 94.3 92.1 87.4 77.3 68.3 62.9 61.2 68 81 96.4 111.7 119.8 124.7 128.8 132.2 134.1 135.8 136.4 134.3 131.7 129.2 127.6 126.7 126 125.9 123.6 121.4 119.2 115.8 112.4 108.9 105.7 104.8 105.7 107 107.7 107.6 108.2 110 112.1 116.2 122.4 128.7 135.1 140.5 144.8 146.8 147.6 148.1 147.7 146.1 144.6 142.8 141.1 138.5 135.4 132.5 129.6 127.8 127.3 127.2 125.8 123.6 120.2 116.3 113.6 113.1 109.9 104.1 95.7 88.6 87.7 87.4 93.8 102.4 103.5 105.2 106.7 108.5 108.6 112.5 117.1 121.2 122.1 124.1 127.3 129.6 131.2 132.1 133.7 135.6 137.5 139.4 141.4 143.1 145.3 147.3 148.9 149.8 150.1 149.7 148.8 147.5 146 144.3 141.5 137.8 133.1 126.4 115.9 110.9 121.5 129.3 132.3 133.9 131.8 128.5 122.4 116.2 109.6 103.6 102.7 105.5 107.9 107.3 104.1 98.3 87.4 76.2 68.8 66.8 70.6 82.5 93.8 102.4 108.8 114 117.7 118.6 117.7 115.3
160.9 163.5 165.4 166.7 167 165.7 163.4 160.8 157.8 154.8 154.1 156 158.1 159.8 161.5 162.9 163.6 163.3 162.2 160.5 158.6 156 153.2 149.6 151.6 154.7 156.4 157.1 156.7 155.7 153.6 150.8 147.6 143.9 140.1 134.2 121.5 116.8 122.9 124.9 125.1 123.6 120.4 116.8 114 111.4 107.5 102.6 97.8 92.6 88.9 87.8 86.2 85 84.9 85.5 86.8 87.8 88.7 89.4 87.6 83.7 73.4 66.1 62.4 61.6 70.5 86.9 104.8 118.3 124.2 128 131.9 134.7 135.2 134.6 133.3 130.9 127.9 124.8 122.9 121.6 120.9 121 119.5 117.2 114.9 111.6 108.3 105 102.1 100.2 100.4 101.3 102.6 103.9 106.6 110.4 114.3 116.4 119.2 126.7 133.8 139.9 144.6 146.5 148.6 148.9 148.8 147.6 146.5 145.4 143.9 141.6 138.4 135.4 133.7 132.3 131.8 130.5 128.7 126.3 123.2 120.7 119.2 117.2 113.4 109 99.9 90.5 88.5 86.8 88.7 92.1 94.2 99 101.8 105 112.1 119 123.2 124.8 126 126.7 127.6 129.2 129.5 129.8 131.5 133.4 135.3 137.3 139.5 141.6 143.7 145.4 146.5 147.7 148.3 147.5 146.4 144.5 143.2 141.6 139.3 136.1 130.5 123.9 114 115.9 127.4 132.3 134.7 135.7 134.6 131.5 127.7 122.2 114 106.8 105.3 107.6 110.9 112.3 109.8 104.8 93.2 78.9 70.9 67.2 67 74.6 88.2 98.7 106.2 112.1 116 117.3 115.8 113.2
160.3 163 165.2 166.5 166.2 165.2 162.9 160.2 156.8 153.1 151.3 152.7 154.3 156.2 158.1 159.9 160.8 161 160.3 159.1 157.1 155.3 152.6 148.5 149.5 152.9 154.6 153.1 151.6 151.2 151 150.3 147.5 143.8 139.9 135 125.6 113.8 115 115.9 115 113 109.7 106.7 105 103.6 102.1 99.3 95.1 90.6 86 83.4 81.6 80.5 80.3 80.9 81.6 82.7 82.9 83.7 83.6 79.9 70.1 64.6 61.8 62.6 73.9 92 109.9 119.1 124.6 128.5 132.3 134.4 134.1 132 129.7 126.8 123.9 120.9 118.4 116.8 116.1 116 115.5 113.1 111.2 107.9 104.5 101.2 98.4 95.8 97.2 102.3 106.1 109.2 112.3 117.2 122.1 124.1 122.6 126.5 134.1 140.1 144.8 146.8 148.8 149.1 149.2 149.4 148.6 147.3 145.9 144.3 141.3 138.3 137 136.4 135.2 133.8 131.2 129 126.9 126 124.1 122.3 118.4 114 106.8 93.4 89.6 87.7 87.7 93.5 103.1 110.1 113.7 118 123.6 126.1 127.2 128.3 128.8 129.6 130.4 130.4 130.5 130.5 130.7 132.4 134.3 136.3 138.4 140.5 142.9 144.4 145 146.1 145.9 144.9 142.5 140.2 138.7 137.5 136.2 133.9 129.9 124.3 115.5 120.2 129.4 134.3 136.3 138 138.4 136.3 133.7 129.6 123.7 115.4 110.3 110.9 113 114.3 112.3 108 100.4 87.1 74.2 68.2 66 68 80.1 93.8 102.7 109.8 114.2 116.5 114.9 112.5
159.3 161.5 163 163.8 163.6 162.5 160.5 158 154.6 150.8 147.8 149.1 150.7 152.6 154.7 156.4 157.6 158.2 157.4 156.4 153.5 148.2 144.8 144.9 145.2 146.5 148.4 150.2 150 148 145.5 142.4 139.2 137.1 135.9 133.8 128.2 118.1 108.5 105.9 102.7 100.5 99.3 97.3 97.9 99.2 99.5 97.1 94.1 90 85.6 81.9 79.1 77.2 76.3 76.2 76.7 77 77.1 77.9 77.9 74.2 66.7 63 60.6 62.4 77.4 97.3 112.2 119.7 124.9 128.7 131.5 132.9 132.1 129.9 127 123.1 120.1 116.7 112.9 111.1 111.3 111.6 111.2 109.6 107.6 104.7 101 97.3 94.4 92 98.6 106 111.3 115.7 119.5 124.7 130 133.4 131.5 130.3 135.1 139.9 144.8 147 149 149.3 149.8 150.1 149.5 148.3 147.1 145.3 143.3 141.8 141 139.7 138.4 136.8 134.8 133 130.9 129.1 128.4 127.2 123.8 119 113.4 102.8 91 86.6 87.1 100 108.3 115.6 120.5 123.9 126.6 127.6 127.8 128.3 128.9 129.7 130 130.3 130.7 131.1 131.8 132.7 134.6 136.6 138.4 140.1 142.4 143.3 143.8 144.6 143.8 142 139.4 134.4 131.1 129.8 128.8 126.6 123.6 119.3 116.6 122.8 130.4 135.3 137.7 139.2 139.5 138.1 136.4 134 129.8 124.7 119.9 116.6 116.9 116.9 114.7 111.8 106.3 98 83.4 72.8 66.1 65.5 73.1 86.9 99.1 107.4 113.3 115.4 114.6 112.7
157.5 159.2 159.7 160.4 160.1 159.1 157.7 155 152 148.3 144.2 145.4 146.7 148.1 150.4 152.1 153.2 148.5 142.3 142.2 143 148.4 148.3 145.3 144.3 146.4 147.6 149.7 151.3 150.9 148.6 146.4 143.8 140.2 136.6 133.3 129.4 125.1 115.8 109.6 102.6 96.5 91.9 90.3 93 96.3 96.8 95.6 93.1 89.4 85.5 81.9 78.6 75.4 73.5 72.3 71.8 70.9 71 71.3 71 68.8 64.3 61.1 59.3 62.8 79.8 102.5 114.1 120.6 124.9 128.3 130.8 131.3 130 127.8 124.2 120.6 116 111.6 107.2 105.2 106.9 108 107 105 102.9 100.4 97.3 93.6 90.2 88.5 98.2 106.5 112.4 117.5 122 127.6 134.1 138.2 138.6 137.9 138.6 140.9 144.5 146.9 149 149.8 150.3 150.6 149.8 148.9 147.7 146.4 145.1 143.8 143 141.4 140.7 139.4 137.2 135.6 134.8 133.7 133 131.2 128.5 123.8 118.7 111 96.8 86.5 85.2 96 106.6 114.1 118.9 121.9 123.9 124.2 124.6 124.9 126 126.7 127.2 127.2 128.2 129.7 131.6 133.1 134.4 136 138.3 139.9 141.9 142.7 143 142.6 141.4 139.5 134.6 131 128.3 126.4 126 123.7 123 121.5 121.7 127.2 131.2 135.9 137.5 138.6 138.1 137.5 136.2 133.8 130.4 126.8 124.1 121.3 119.6 118.5 116.8 114.6 109.7 102.7 93.4 81.4 69.9 65 67.2 79.5 93.9 105.8 112.2 115 114.8 112.8
154.7 156.2 156.6 157 156.5 155.3 154 151.9 149.3 145.8 140.9 141.1 142 142.7 144.7 140.6 139 140.2 148 148.8 148.3 148.2 147.6 144.5 142 143 144.2 145.3 145.7 145.5 144.6 142.7 140.1 137.1 134 130.6 127.8 125.3 122 118.1 111.6 103.3 96 91 88.2 92.5 94 93.3 91.5 88.3 84.5 81.9 78.6 75.1 72 69.6 67.5 65.6 64.7 64.7 64.5 63.1 61 59.3 58.3 63.8 84 105.1 114.4 120.4 124.6 127.3 129.5 129.7 127.9 125.3 121.7 117.3 111.7 105.4 99.9 99.9 102.6 103.9 102.9 100.6 98 95.5 93 89.6 87.7 90.9 97.1 104.2 111 117.1 122.4 127.9 135.1 140.6 142.8 142.8 144 144.7 145.7 147 148.8 149.8 150.6 150.8 150 149.2 148.2 146.6 146 145.3 144.1 143 142.3 141.8 140.7 139.4 137.7 136.9 136 134.7 131.4 127.8 122.7 115.5 103.3 89.2 85.4 86.6 96.4 109.1 115.9 118.2 119.3 119.1 119.1 119.4 119.7 120.6 121.9 122.6 123.3 125.4 128 130.8 132.9 135.6 138.3 139.8 141.3 142.4 142.7 142.3 140.8 138.4 135.7 133.4 132.5 132.4 132 130.9 130.3 129.8 129.4 132 135.9 137.8 138.9 138 137.1 136.5 135 132.4 129 125.2 122.6 121.5 119.4 117.2 115.2 112.6 108.2 103 96.9 88.5 76.8 67.1 64.3 70.4 88.4 103.3 112.5 116 115.2 113.2
151.9 152.9 153.5 153.5 153.1 152.2 151 148.8 146.4 142.7 138.4 135.2 135.6 135.9 136.6 138.6 138.2 144 144.6 145 145.1 145.1 144.9 142.5 140 139 139.6 140.9 141.2 140.8 140.2 138.7 136.3 133.4 129.9 125.7 121.3 117.1 114.9 113.7 114.7 110.3 102 92.5 85.6 86.9 89.9 89.7 88.6 86.3 82.7 80.7 78 75 71.5 68.5 67.3 66.4 65.4 63.1 61.4 60.2 59 58.1 57.9 65.5 87.6 104.4 112.8 118.8 122.9 125.5 127.5 127.7 126.5 124.8 120.6 115.6 109.7 100.9 93.8 96.6 99.7 100.4 98 95 91.4 88.9 87.5 85.4 85.5 91.4 97.3 104.2 111.6 117.7 123.2 127.9 134.6 140.3 144.2 145.6 146 147.3 147.9 148.5 149.3 150 150.9 150.3 150.1 149.4 148.2 147 146 145.1 144.2 144.3 144 143.5 143.1 142.3 140.5 139 139 137.1 133.7 129.7 124.1 116.7 105.4 91.5 86.6 84.5 86 100.3 109.6 111.8 112.2 112 111.1 110.6 109.5 110.9 113.9 116.9 122.3 126.1 129.2 132 134.2 136.6 138.8 140.7 142.1 142.8 143.4 142.8 141.5 139.7 138.9 138.1 138 138.3 138.8 137.7 137.1 137.1 136.8 138.3 139.7 140.4 139.7 138.4 136.9 135.2 133.8 131.6 128.6 123.9 118.9 117.4 115.9 113.2 110.4 107.5 104.2 100.7 96.6 91.5 84.6 73.4 65 66.4 84.1 100.5 111.2 114.8 114.1 112
148.2 149.2 149.8 149.9 149.8 149 147.8 145.6 141.8 138.7 133.1 129.9 130.1 131.7 133.7 136.4 136.5 137.5 139.5 140.2 141.2 142.5 142.5 140.8 138.7 136.8 136.7 137.9 139.3 139 137.7 136.2 133.5 130.3 127.2 123.8 119.4 114.3 109.5 106.8 105.2 110.2 107.1 102.9 90.5 84 83.9 83.8 83.7 81.8 79.9 77.4 75.3 72.3 70.7 72.6 74.3 75.4 74.2 70.2 64.9 61.7 59.3 57.7 57.5 67.7 90 103.1 111 116.8 120.9 123.5 125.3 125.6 125 123.6 120.1 115.8 109.5 98.2 88.3 93.6 96.1 96.2 93 88.3 85.3 84.2 82.9 82.5 88.5 93.7 99.5 106.7 114 120.4 125.5 130.4 135 139.5 144.2 146.7 148.2 149.5 150.6 150 150.8 151.3 150.8 149.3 149.9 149.4 147.4 145.6 144.9 144.3 144 144.3 144.8 145.2 144.9 144.6 143.7 142.2 140.9 139 135.1 130.5 124.4 117.3 107.1 93.5 87.3 85.6 84 89.6 98.6 104.5 105 103.6 101.3 101.6 108.9 117.3 117.7 116.9 125.1 129.8 132.6 134.9 136.9 138.9 140.7 142.3 143.6 144.3 144.3 143.6 141.8 140.6 141.2 141.9 142.5 143.5 144.1 143.6 143.4 142.8 142.1 141.6 142.4 142.2 140.5 138 134.9 132.8 131.7 130.8 127.9 122.9 116.2 111 109 107.1 103.4 99.3 96.7 96 93.8 90.4 85.8 78.9 66.7 66.6 82.3 97.5 106.3 110.6 111.2 109.2
145 145.6 146.1 146.2 146.2 145.3 142.3 140.9 138.9 135.1 130.2 126.3 125.5 126 131.5 138.4 139.8 138.8 136.7 137.5 138.3 140.4 140.7 139.6 137.6 135.2 134.5 135 136.8 137.3 136.6 135.2 132.6 131 129.7 127.1 122.8 116.8 109.9 106.1 103.3 108 98.1 99.3 100.7 97.7 91 83 79.8 78.2 76.3 74.7 73.6 73.3 77 78.7 79.6 78.7 77 71.2 68.6 63.6 60.9 58.5 57.7 70.1 91.2 101.2 109.2 114.8 118.6 121.3 123.4 123.8 123.5 122.1 119.8 115 108.4 95 81 89.4 91.1 89.9 85.7 81.6 80.3 79.6 80.7 88 94.4 98.8 103.3 110.4 117.5 123.4 128.7 133.7 137.4 140.7 144.8 147.3 149.7 150.8 151.3 151.8 151.7 151.1 150.4 148.9 147.9 147.4 145.9 144.1 142.8 141.8 141.7 141.5 143.3 145.1 146.7 146.2 144.8 143 140.9 138.4 134.9 130.2 123.8 115.3 105.3 95.2 89.4 86.8 85 83.4 88.4 97.6 97 93.9 99.3 110.9 122.6 129.9 127.9 122.9 125.8 131.6 134.8 137.5 139.5 141.5 143.4 144.8 145.9 146.3 145.6 144.1 141.9 141.3 143.7 144.6 146.1 147.5 148.3 148.5 148.3 146.9 145.2 144.1 144.1 143.7 141.6 137.8 133.4 129.7 128.4 128.2 126.5 122.1 116.4 109.1 103.3 99.4 95.4 90 87 87 87.3 86.5 83 76.2 66 66.1 81.4 93.7 101.8 106.7 107.1 106
141.6 141.8 141.3 141 140.5 139.5 138.2 136.4 133.9 131.1 127.8 124.1 121.8 123.2 132.4 136.6 135.9 134.4 132.8 134.5 137.6 139.4 139.5 139.3 137.5 135.4 133.4 135.4 139.5 140.1 139.1 137.8 136.7 135.4 134.4 130.6 126.4 122.3 120.2 117.4 115.2 113.1 110 106.6 103.4 100.4 97.5 93.6 88.7 86.5 84.8 83.3 81.3 79.1 77.2 75.6 73.4 71.5 69.2 67.3 68.2 65.3 62.7 58.9 57.7 72.9 92.6 101.6 108.3 113.6 116.8 119.2 121.5 121.9 121.6 120.1 117.3 112.5 105.2 91.3 78.1 83.5 82.7 79.7 75.6 79.2 81 85 90.8 96.1 101.5 105.5 108.5 114.8 120.8 126.5 131.8 136.4 139.8 143.2 146.2 148.4 150.7 151.9 152 151.7 151.2 150.4 149.6 147.6 146.2 145.5 143.7 141.5 139.1 138.2 137.4 137.8 140.9 144.4 146.3 146.4 144.9 142.6 140.7 137.6 133.7 128 121.6 115.2 109.3 102.6 96.5 90.4 87.4 85.2 84.1 87.8 89.6 99 111.1 123.7 133.8 137 135.2 129.7 125.7 130.2 134.4 138.5 141.5 143.5 145 146.6 146.9 146.4 145.6 143.1 140.6 140.8 144.5 147.6 149.4 150.6 151.4 151.7 151 149.7 147.6 146.2 145.4 144.7 142.2 137.9 132.3 127 123.7 124.1 124.1 121.6 116.7 111 104.6 98.1 92.8 88.7 84.7 79.9 78.2 78 76.6 70.4 64.1 64.9 76.4 87.8 95.2 99.8 100.4 100.4
137.9 138 137.2 136.7 136 135.4 134.2 131.9 130 127.2 124.6 121.7 118.9 125.8 133.3 131.3 129 127.2 129.2 132.6 135.3 137.3 138.7 138.8 138.4 137.3 132.7 134.2 139 139.9 139.7 139.6 139.4 139 136.6 133.2 129 124.5 121.7 121.4 120.9 118.8 115.2 112.7 109.7 112.7 111.1 106.1 100.2 94.7 89.4 83.5 90.2 89.8 88 86.8 81.4 78.3 73.7 66.2 62.6 62.7 61.2 57.9 58.1 73.5 92.7 102.3 107.8 112.3 115.6 117.9 119.4 119.5 118.7 117 113.7 107.9 98.3 85.2 74.9 74.8 74.1 76.6 82.2 87.8 93.5 99.2 103.8 106.6 109.6 111.4 114.3 118.4 124.6 130.1 134.2 138.5 142.4 145.5 148.2 150.2 152 151.9 151.5 150.9 150.3 149.4 148.4 146.7 146.1 145.1 143.1 140.9 137.9 134.8 132.3 133.2 136.3 140.7 142.3 143.1 141.9 140.9 138.9 136.5 133.7 128.9 125.3 121.5 118 112.4 106.4 99.8 92 84.7 82.8 86.8 96.8 109.2 121.7 130.9 137.4 139.5 138 133.5 128.2 130.4 134.2 137.8 140.5 143 145.4 146.6 146.5 145.3 143.5 139.8 137.1 139.9 144.9 148.2 150.3 151.9 152.6 152.8 152.1 150.5 148.5 146.6 145.3 143.2 139.9 135.6 130.3 124 118.9 119.7 120.7 119.6 115.9 111 105.4 100 95.1 90.6 87.5 82.2 77.1 72.6 69.5 66.4 63.8 63.4 68.2 76.2 82.8 88 91.3 93.2
135.3 135.2 133.5 133.1 132.1 131.4 130.2 128 125.9 123.8 121.4 118.8 120.4 129.5 123.9 120.8 121.8 123 125.7 129.3 132 134.3 136.4 137.4 138.8 138.1 134 132 135.3 137.2 137.9 138.5 138.9 138.7 136.9 134.5 131.7 128.3 126.1 125.3 124.5 122.4 119.8 117.1 114.2 107.9 107.2 108.3 103.6 86.5 86.6 91.5 96.5 96.5 89.9 93.3 91 87.9 84.6 76.5 68.6 59 56.3 56.8 57.5 71.2 90.5 100.5 106.4 110.4 113.9 116 116.8 116.4 115.2 113.1 107.4 96.4 85.2 74.9 69.9 70.9 76.9 84.8 94.6 102.9 109.2 112.8 114.4 114.5 115.6 117.2 120.1 124.2 128.3 133.6 136.9 140.8 144.1 147 149.8 151.2 152.1 151.5 150.4 149.5 148.7 147.8 146.7 146.1 146.9 146.6 144.7 142.8 139.2 134.8 130.4 128.8 129.5 132.4 134.3 135.1 135.5 135.9 135.8 135.2 134.5 132.7 129.4 126.8 123.3 119.1 114.2 107.6 95.5 83.3 81.5 91.2 104.6 117.4 127.6 134.3 138.1 139.7 137.7 134.2 130.9 132 134.5 136.8 139.4 141.9 144.2 145.4 144.8 143.3 140.7 136.5 134 138.9 145.1 148.2 150.5 152.5 153.4 153.4 152.6 150.7 148.6 146.5 144.3 141.2 136.1 130.4 124.9 119 113.6 113.7 115.4 115.3 112.8 108.5 103.4 98.9 94.2 90.1 88 84.1 78.7 73.9 69.9 66.1 64.2 63.3 63.3 65.4 68.2 72.3 77.3 81.2
134.4 131.2 129.9 129.4 128.2 127.2 125.6 125 123.5 121.1 118.2 118.2 125.4 126.6 112.9 116.8 118.8 119.6 121.9 124.9 127.7 130.5 133.1 135.8 137.5 137.9 135.2 129.3 129.1 132.1 133.9 134.8 136.2 136.1 135.5 134.1 132.5 130.2 129 128.2 127 125 123.3 121.3 118.4 111.3 104.6 97 98.3 90.4 91.7 95.2 100.6 100.2 99.4 96.7 94.1 90 85.2 79.3 71.2 64.6 59.2 53.9 56.6 66.5 86.1 97 103.3 107.5 111 112.7 112.6 111.1 109.2 104.7 94.4 80.9 70.3 68.8 71 78.6 88.5 98.9 110.7 113.9 116.7 118.8 120 120.4 121.2 123.2 126.3 130.2 134.3 136.5 139.6 142.5 144.9 147.8 149.2 149.4 149.5 148.7 147.2 146.7 145.7 144.5 143.8 145.5 147.5 147.8 146.8 143.7 140.7 136.1 131.2 127.7 125.2 124.6 124.1 125.8 128.1 130.4 132.3 134.2 135.2 135.1 133.3 130.4 126.9 122.9 117.7 110.2 95.5 82.1 81.5 93.4 103.9 116.8 129.4 136.1 139.1 138.7 137 134.7 132.9 133.2 134.6 136.2 137.7 139.9 141.9 142.8 142.4 140.7 137.9 132.8 130.1 138.2 145.3 148.2 150.7 152.7 153.4 153.7 153 150.9 148.9 147.4 145.3 142.1 137.6 131.9 126 119.5 111.3 106.8 108 111 109 104 99.2 94.7 90.6 87.5 85.5 82 77.6 74.1 70.5 66.9 65 63.9 62.9 61.6 62.3 63.1 66.2 69.4
136.8 132.2 130.5 130.3 129.8 129.6 128.6 120 119.4 118.6 118.4 122.4 117.9 111.7 110.3 109.8 111.6 114.1 118.9 119.9 122.8 126.1 130 133.3 135.7 136.4 135 130.3 125.4 126.2 128.8 130.9 132.8 133.4 133.4 132.7 132 131.4 130.6 129.3 127.9 126.1 124 122.8 119.9 117.6 107.6 106.9 100.2 99 90.7 95.8 95.9 102.9 101.7 99.6 96.4 91.6 85.9 79.5 72.4 66.1 60.1 55.3 54 61.4 69.8 92.2 99 103.2 106.5 108 107.3 104.7 100 88.9 76 68.2 69.8 74.8 83.9 93.8 103.5 112.4 117.4 119.8 121 122.8 123.7 125.2 126.5 129.4 132.6 136.3 138.9 140.5 140.9 142.1 144.4 145.8 146.5 145.9 146.4 145.5 143.8 142.6 140.9 140.5 142.5 145.7 148.7 149.4 148.8 145.6 142.7 139.8 135.9 132.3 128.3 124.3 120.9 120.1 121 123.7 128.7 132.5 135.2 136.3 135.7 133.4 130.1 126.1 120.6 111.9 95.2 82.2 81 89.8 98.6 109.8 126.2 134.6 138.8 138.7 137.7 135.9 134.8 134.4 135.1 135.4 135.4 136.5 137.8 138.6 138 136.2 133.5 127.9 126.7 136.5 143.5 146.5 148.9 150.7 151.5 151.5 151.5 150.3 148.8 147.7 146.4 144.1 141.2 136.9 131.9 125.6 117.1 108 101.3 103.4 102.4 97.8 93.7 89.6 86.4 82.8 80.3 77.4 74.1 71.4 69 67.3 68 70.4 70.2 68.1 63.4 60.3 60.9 65.9
139.6 136.9 130.7 130.5 129.4 129.1 123.6 120.4 117.9 119.6 120.7 112.9 110.8 110.2 108.7 107.5 107.4 109.6 112 114 118.5 123.5 127.5 131.1 134.4 135.3 134.2 131.2 125.8 121.8 122.2 125.3 128.7 130.7 131.2 131 130.8 130.7 129.9 128.5 127.2 125.6 123.5 121.6 119.2 117 114.8 112.4 106.5 100.7 99.4 102.3 103.3 99.3 103 100.6 97.4 92.5 86.8 79.9 72.6 66.6 60.7 55.9 54 55.5 63.6 87.4 93.9 97.7 100.7 101.7 100.8 97.6 88.6 72.8 65.3 71.5 81.5 89.5 100 110.7 115.5 120.5 123 124.7 125.4 125.9 126.5 128.7 131 134 136.9 139.3 140.2 139.5 138.5 139.1 140.6 142.5 143.2 141.7 142.1 141.3 139.8 138.7 136.6 138.5 143.8 147.6 150.4 152.1 151.4 149.4 146.6 143.8 140.7 137.2 132.7 127.5 122.4 118.5 116.7 119.2 124.9 129.8 133.1 135.4 135.9 134.7 132.4 129.4 123.7 115 100.2 81.3 80.2 83.3 93 104.3 120.9 131.6 136.8 138.7 138.9 137.2 136.7 136.1 135.4 135.1 134 132.6 133 132.2 130.4 128.7 126.2 121.7 124.1 133.5 139.9 143.2 145.2 145.9 147.1 148 148.2 148.2 147.9 147.2 146.7 145.7 143.5 139.8 135.1 128.7 121.4 112.7 102 95 92.8 89.8 86.6 83.3 81.8 79.2 76.9 74.8 72.7 71.6 71.8 73.4 75.3 76.8 76.2 73.2 67.2 60.8 59.1 63.1
143.3 141.3 138.9 136.3 133.1 128.8 124.4 122.8 122.2 116.9 114.7 113.5 111.4 109.5 107.6 105.9 104.8 104.6 106.8 109.6 114.4 121.3 125.4 129.5 133.4 135 134.9 132.5 127.9 121.9 117.8 121 125.9 127.9 128.5 128.9 128.8 128.5 128.4 127.4 126.1 123.6 120.9 118.5 115.7 112.2 111.5 108.5 104 103.2 103.6 106.4 107.6 106 104.8 101.1 97.5 93 87.2 80.3 72.5 66.5 61.6 56.9 54.9 54 61.9 83 86.6 90.5 92.9 94 92.9 88.8 75.9 62.9 68.5 81.5 94.5 103.9 110.7 115.9 120.2 123.1 124.8 125.5 125.2 125.7 126.1 127 127.8 131 132.8 134.1 134.4 133.6 132.7 133.7 135.3 136.2 137.4 137.6 137.5 136.5 134.7 132.4 132.9 138.6 144.5 148.4 151.4 153.9 154.1 152.9 151.2 148.2 144.3 140.3 135.8 130.2 123 118.1 115.3 116.3 120.8 127 131.1 132.9 134.6 134.3 133.2 130.4 126 119.1 109.3 90.5 82.4 79.8 85.6 100.6 116.6 127.8 134.3 138.1 139.4 139 138.6 138.1 137.4 135.8 132.4 130 128.7 126.6 123.7 120.8 118.7 116.5 119.4 127.2 134.4 139 141.1 142 142.2 143.1 144 145.1 145.8 145.9 145.6 144.9 142.7 139.1 134.3 128.7 122.4 113.8 103.3 93.6 93 93.4 91 91 89.9 88 85.6 83.3 82.1 82.3 83 83.6 83.5 82.2 80.3 77.7 72.5 63.9 59 58.9
147.2 146.1 143.5 139.8 135.4 130.3 127.6 122.8 123 121.8 120.2 118 115.6 113.5 112.6 110.8 108.3 104.9 102.3 103.7 110 116.1 123.3 127.8 132.6 134.7 135 133.4 130.3 125.5 118.7 116.8 124.1 126.8 127.1 127.1 126.9 126.9 126.8 126.3 124.9 122.5 119.4 116.6 113.5 111.5 109.9 111.7 109.4 109.5 111.2 111.1 110.8 108.5 105.3 101.3 96.5 91.8 86 78.1 73.1 70.2 66.6 59.7 55 54.2 55.5 68 75.8 80 82.4 83.7 82.7 78 66.1 60.9 72.1 86.9 101.6 111 116.5 120 122.4 124.1 124.5 124.5 124.2 123.6 123.5 122.3 123.3 124.3 125.4 125.6 125.3 125.1 125.9 127.4 129.3 131.6 133.6 134 133.1 130.8 127.2 125.4 131.1 138.7 143.3 147.4 150.4 152.3 152.8 153.4 152.5 149.8 146.4 143.4 139.9 134 126.9 120.4 115.8 112.7 119.7 125.3 128.7 131.9 133.2 133.9 133.8 131.6 127.7 123.1 115.8 104.2 90 80.4 82.4 98.6 112.6 122.8 131.2 136.2 139 140.3 140.6 140.5 140.4 138.3 134.7 131.9 130.6 129.7 127.3 124.3 120.7 116 111.6 120.4 129.9 134.9 137 137.8 137.9 138.5 140.2 142.1 142.8 142.8 142.7 142.2 140 136 131.5 126.2 119.8 110.9 101.3 100.4 108.4 111.4 110.1 108.4 106.1 104.1 101.8 99.6 98.4 97.6 95.4 93.8 91.8 89.4 87.4 85.5 81.5 72.7 64.7 59
150.4 148.1 145 141.5 135.8 132.4 130.2 129.2 128.8 127.3 125.1 122.7 120.6 120.1 119.9 118.1 114.9 111.3 106.8 100.7 102.1 110.9 118 122.2 130.4 133.6 134.6 133.3 130.9 126.9 120.3 115.6 123 126.2 126.5 125.8 125.3 125.7 125.6 126 125 123 120.1 116.3 116.7 117 118.9 121.3 120.8 120.2 119.3 117.4 114.6 108.9 104.9 102.1 102.6 88.8 84.7 82.1 82.7 78.1 72.1 64.2 55.1 52.8 54 56.8 62.7 68 72.8 75.6 74.2 69.8 60.4 61 75.1 92.1 107.7 113.6 117.7 121.6 123.8 124.5 124 123.4 122.6 121.7 120.1 118.4 117.7 118.3 118.9 118.4 118.5 117.6 119.1 121.4 124.7 128.1 131.1 131.1 129.7 125.3 120.5 121.8 129.3 136 140.8 144.9 147.3 149 149.8 150.4 149.9 148.2 146.1 143.7 141.9 138.2 132.3 125.9 119.7 111.9 116.7 123.5 127.6 130.8 132.7 133.5 133.4 131.5 127.4 122.6 116 107.1 91.3 79.6 80.7 98.7 110.1 118.9 127 133.6 138.1 141.2 142.9 143.4 143 141.2 138.1 137.4 137.1 137 134 130 126.1 120.2 110.5 115.9 127 132.1 133.9 133.8 133.1 134.2 136.7 138.6 139.7 140 139.3 138.6 136.6 132.6 128.1 122.4 115.4 107.7 100.7 110.7 119 120.9 119.9 118.6 117.1 115.8 114.8 112.9 111.3 108.9 106.2 102.8 100.1 97.9 96.7 95.9 93.8 87.8 79.2 71.5
150.6 148.5 143.7 141.1 137.4 133.9 133.4 133.5 132.7 130.9 128.9 126.6 125.3 124.8 124.4 122.5 119.4 115.5 111.4 104.4 98.3 102.9 113.6 122.3 127.4 131.6 133 132.3 129.7 125.3 118.7 111.9 120.6 124.2 125 124.4 123.7 123.8 124.5 125.3 118.9 125.3 124.2 123.7 122.5 123.9 125.1 126.2 126.6 125.8 124.2 121.8 119 116 113.2 108.7 103.6 103.7 95.1 95.8 93 85.3 77.1 68 57.2 52 52 52.1 57.1 61.1 66.2 69.8 68.9 64 57.3 62.1 76.6 98.4 107.4 112.3 116.2 119.4 122.6 123.2 122.5 121.2 120.4 119.7 118.6 115.7 112.1 110 108.9 110.2 109.6 113 119.3 122.8 125.2 127.4 129.9 129.2 128.3 123.7 117 118.9 127.3 133.3 137.9 142.2 144.1 145.4 146.1 146.9 146.7 145.6 143.7 141.8 139.9 137.3 133.8 129.8 124.4 112 111.9 119.7 126.5 129.9 132.2 132.6 131.8 129.8 125.8 120.4 113.2 104.2 90.5 78.9 78.4 94.3 104.7 113.6 122.9 132.5 138.8 143.9 146 146.6 145.3 143.5 141.7 140.9 140.2 138.8 135.4 130.9 126.5 121.7 113.2 112.4 122.8 128.2 130.4 129.8 128.3 130.3 132.8 136 138.2 138.6 137.5 134.7 132.3 128.4 123.3 118 111.6 104 106.6 116.5 120.6 122.3 121.6 121.4 121.2 121.2 119.8 118.6 117.2 115.8 113.4 110.2 108.4 106.9 106.2 105.4 104.6 102 95.5 90.2
149.9 147.1 144.3 141.5 138.3 136.5 136.1 136.6 135.6 133.8 132 130.2 129 128.3 127 125 122.3 118.6 115 110 101.7 97 107.1 119.9 126.3 129.9 130.8 124.5 127.4 123.5 117.3 110.2 116.6 121.8 123.3 122.8 122.1 120.7 121.6 124.6 126 127.3 127.2 126.8 125.7 127.5 128.8 129.8 130.3 129.7 127.7 125.6 123.5 121.8 118.8 115.2 110.8 108.4 106.1 102.5 98.5 90.6 81.3 71.1 60.9 53.7 52.1 51.9 52.6 57.7 61.2 64.9 63.9 58 57.6 64.4 85.9 97.8 105.1 110 113.2 115.7 117.7 118.3 118 116.8 116.1 117 117.2 115.3 110.8 104 99.5 102.4 106.6 116 124 127.9 129.9 130.1 129.3 128.1 126.1 121.4 114.9 117.6 126.4 131.7 135.9 139 140.6 141.6 142.4 143.5 143.5 142.8 141.9 140.8 136.9 133.7 130.3 127.4 122.6 111.9 107.2 114.2 122.8 127.9 130.3 131 130.3 128.3 124.5 119.1 110.7 99.3 86.6 78.1 76.2 83.8 95.4 110.1 123.1 132 138.7 144.9 148.1 149 147.4 146 144.4 143 140 136.9 133.3 128.9 124.1 119.3 111.1 109 118.2 124.7 126.9 126.1 124.4 128.4 132.5 135.7 137.5 137.4 136.9 134.6 131 125.5 119.9 114.7 109.2 106.3 111.9 117.8 120.3 122 121.7 121.3 121.6 120.9 119.5 118.9 118.9 118.4 117.3 115.1 114.2 114.1 113.2 112.8 111.5 110 107 103.1
149.7 147.6 144.8 142.3 140.6 139 138.6 138.6 136.9 134.9 133.1 131.7 131 129.9 128.8 127.1 124.8 121.8 118.9 115.3 106.7 96.8 99.4 115.2 122.7 127.3 129.4 129.3 126.9 122.1 116.3 109.1 110 114.4 118.1 118.5 117 118.6 121 124.9 128.3 129.6 129.4 129.4 129.5 130.1 131.1 131.6 132.4 131.8 130.4 128.9 127.3 125.6 123.1 120 117 114.5 111.7 107.5 102.4 94.2 84.6 77.3 69.3 60.3 51.8 51.2 52 52.6 57.3 60.1 59.2 53.1 57.4 73.2 88.4 96.2 101.7 106.3 109.1 109.1 110.8 111.3 111.8 110.2 110.6 112.6 113.3 111.9 106.1 95.8 92.9 102.5 112.2 120.1 125.9 130.5 133.1 132.9 130.9 128.9 125.1 118.3 112.6 118.4 127 132.9 135.7 137 136.9 137.5 140.1 142 143.6 143.7 143.4 142.6 139.8 136.4 131.6 127.8 121.6 112.8 101.3 105.6 115.3 124.2 129.2 130.5 129.8 128.2 124.4 119.6 112.5 100.1 84.5 77.1 76.1 77.8 91 110.9 121.2 128.5 135.1 141.4 145.8 147.9 148.9 148.2 147 144.2 140.8 136.6 131.6 126.2 120.7 113.5 108.2 105.8 112.9 120.1 122.1 120.7 123.9 130.1 133.5 136.3 137.3 136.9 135.9 134.1 130.4 124.9 119 115.2 114.1 114 115.7 118.4 119.6 120.7 120.3 119.5 118.9 118.2 116.5 115.4 116.3 116.8 116.9 116.8 117 117.3 117.4 117.2 116.3 114.7 112.3 109.2
149.5 147.9 146.3 144.2 142.5 140.9 140.1 139.9 138.3 136 134.1 133 132.2 131.6 130.1 128.3 125.8 123.3 120.7 116.7 110.2 99.1 94.6 109.2 119.3 124.4 127 127.1 125.8 122 117.3 110.7 105.6 108.1 111.4 112.5 112.7 117.5 123.4 127.1 129.8 131.3 131.1 130.9 130.5 131.2 131.5 132 132.6 133.4 132.9 131.6 130.2 128.8 126.5 123.7 121.4 119 116 112.2 107.2 99.8 92.2 85.8 78.6 70.3 54.8 51.3 51.6 50.9 51.5 57.7 57.6 54.6 58.4 76.4 87.6 92.7 97.3 101.1 102.8 102.5 102.3 103 103.2 103.4 104.5 106.7 107.9 106 99 88.2 91.7 102.4 111.9 119 123.6 127.4 130.4 131.4 130.2 127.7 123.2 115 109.2 118.5 128.4 132.9 135.3 135.7 134.2 134.3 138.2 141.9 144.5 145.4 145.4 145 144 140 136.7 132.7 128.8 121.4 111.1 101.4 103 113.8 124.2 127.5 127.4 125.8 122.6 118.1 111.1 99.9 81.6 76.5 75.7 75.9 87 105.5 117 123.5 130.6 137.6 143.6 148.7 151.3 150.9 148.2 144.7 140.7 135.8 130.7 125.8 121 115.3 111.9 105.7 108.4 113.1 114.3 119.8 128.5 133 136 137.8 137.8 136.6 134.1 131.8 128.7 125.2 121.7 120 119.3 119.4 119.7 120.2 120.5 119.1 117.1 116 115.3 114.7 112.6 111 111.8 112.8 113.6 114.9 116.1 117.2 118.1 118.5 118.3 117.7 115.3 112.7
149.3 148.5 147.3 146.1 144.4 142.8 141.2 140.2 138.2 135.7 133.5 132.1 131.6 131.7 130.1 128.2 125.9 123 120.1 116.4 111.3 101.2 93.1 103.3 115.5 121.5 124.5 125.3 125.1 122.5 118.4 113.5 107.5 102.5 103.1 106.3 112.6 120.3 124.6 126.9 129.2 131.1 131.2 131.1 130.6 130.7 131 131.6 132.4 134.4 135 134.3 133.1 131.7 129.9 127.2 124.7 122.3 119.6 116.2 112.1 106.6 99.7 94.1 86.5 77.6 63 54.4 51.2 50.6 50.6 50.8 59.4 56.4 67.6 78.5 83.9 88.3 91.9 94.3 96 95.7 95.2 95 94.8 95.5 96.9 99.3 101.2 99.7 91.4 83.8 90.3 98.9 108 115 119.3 122.5 125 126.3 126.4 124.4 120.2 110 105 116.2 126.9 129.9 131.4 131.2 129.9 131.3 134.4 139.9 143.8 145.8 146 146 145.7 143.4 140.9 136.9 132.8 127.4 119.4 112.5 100.2 98 110 117 119.7 119.4 116.7 111.9 105 94 80.3 76.1 75.3 75.4 83.3 98.5 111.2 120.8 129.7 137.2 143.5 148.3 150.5 150.7 147.9 143.9 139.5 135.2 130.8 127.5 124.6 122.2 118.4 109.7 103.2 106.4 114.4 123.6 130.7 134.9 137.9 140 140.2 138.1 135.1 132.5 130.3 127.7 125.1 123.5 121.9 121.3 121.2 121.1 119.8 117.1 114.4 111.9 110.7 110.3 108.4 106.2 107 108.4 109.9 111.9 113.5 114.9 116.2 116.7 116.4 115.5 113.9 111.5
149.3 148.4 147.4 145.9 144.2 142.3 140.5 138.7 136.8 134.4 132.1 129.7 128.2 129.1 129.1 127.1 124.6 121.9 118.2 114.3 110.1 102.2 92.5 96.9 111.3 118.6 122.5 124.4 124.5 122.8 120.2 116.9 111 102.7 99.7 108.7 115.2 119.9 123.5 125.7 127.9 129.8 130.4 130.2 130 129.8 129.8 129.6 131.6 134 135.7 135.2 134 132.4 130.8 129.2 127.4 125.4 122.8 119.6 115.8 111.4 105.8 100 93.4 84.5 75 64.7 53.3 50.3 50.3 50.4 51 59.4 66.3 76.1 80.2 82.7 84.7 87 88.6 88.6 88 88 87.2 87.8 89 90.9 93.2 92.6 85.4 80.2 84.4 91.8 100.9 108.7 113.5 117 118.8 120.7 121.4 120 117.1 106.1 99.2 110.4 120.2 123.9 125.1 124.2 123.8 127.2 130.1 134.1 139.4 142.5 143.2 143.3 144.1 143.3 141.8 138.1 134.7 131 122.7 120.1 111.2 94.9 97.1 103.2 106.3 106.9 103.3 97.5 91.7 85.3 78.5 75.7 74.9 74.7 79.7 94.9 111.1 120 128.8 136.3 142.2 146.3 148.8 148.6 146.7 142.6 138.1 134.2 131.6 129.8 128.4 126.7 123.6 115.1 102.7 104.4 116.8 123.8 128.8 132.3 135.2 137.6 138.5 138.2 136.3 134.5 131.9 128.6 125.8 124.1 123.3 122 120.6 119.7 117.9 114.9 111.1 108.1 106 105.7 103.9 101.3 101.1 103.1 105.9 108.3 110.1 111.5 112.9 113.3 112.4 111.4 110.2 108.5
149.1 148.1 146.4 144.7 143.1 141.2 139.3 136.7 134.5 131.5 128.9 125.9 123.9 125.1 125.6 124.1 121.8 118.7 114.8 110.2 105.1 99.4 92.2 94.6 110.4 117.6 121.6 123.5 124.3 123.4 120.9 117.7 113.3 104.6 98.1 107.7 113.3 117.7 121.2 124.2 126.7 128.9 129.8 129.6 129 127 127 127.3 129.8 132.3 134.2 133.7 132.4 130.8 129.1 128.3 127.6 125.5 123.2 120.1 117.4 114.5 110.6 104.3 98.9 90.4 81.6 72.1 62.9 55.6 49.9 49.9 49.5 50.3 59.6 65.6 75.7 77.1 78.2 78.9 79.8 80.1 80.8 80.3 81.1 81.1 82 83.6 85.3 84.8 80 77.5 83.8 92.2 97.8 103.3 107.2 111.4 114.6 117.5 118.6 118.5 117.5 108.1 94.7 101 111.5 116.7 118.3 117.6 118.1 122.8 127.2 130.1 133.5 135.3 138.2 140 140.2 138.7 137.4 135.8 133.4 131.2 126.9 123.7 116.4 101.1 88.7 92.4 92.4 91.9 88.1 84.6 80.7 79.8 82.1 77.6 74.7 74 77.4 94 109.1 117.6 125.9 133.1 138.9 143.4 146.1 145.7 144.2 141 137 133.9 131.3 129.1 127 124.3 121.4 114.9 102.2 103.1 116.3 122.1 125.8 128.5 130.6 132.4 133.7 134.7 134.9 133.1 130.9 127.8 124.9 123.4 122.5 120.9 118.7 116.6 114.4 111.4 107.1 102.7 99.7 98.8 99.1 96.9 96.5 98 101.1 104 105.9 107 107.8 108 106.9 106.3 105.8 104
149.3 148.2 146.3 144.5 141.8 139 136.6 132.8 130.2 127.7 124.9 121.8 119.6 121 121.8 120.6 118.2 114 106.8 99.8 94.8 92.9 90.1 95.3 111 118 121.5 123.2 124.1 123.1 120.7 117.8 113.7 105.2 96.5 104.6 109.5 114.1 118.8 122.2 125.8 128.1 129.6 129.3 127.9 124.9 123 123.4 126.5 128.8 130.6 130.5 129.1 127.9 126.7 125.8 125.1 123.9 121.4 118.7 116.2 114 111.7 107.5 99.8 95.9 88.8 81.7 76.3 69.7 59.2 49.6 48.6 49 54.9 60.8 63.1 69.9 71.1 72.5 67.7 69.5 71.2 72.5 72.9 72.9 73.9 74.6 75.5 74.6 72.5 80.9 89.5 97.8 102.6 106.1 109.3 112.2 115 116.8 117.8 119.5 118.2 111.9 96.8 87.8 102.1 108.5 110.4 110.1 112.7 117.4 121.9 124.9 128 130.1 132.8 131.6 130.6 130.1 130.5 131.3 130.4 128.6 123 120.1 110.9 90.7 91.4 88.8 88.3 87.1 86.4 87.3 90.5 94.1 92.4 83.7 75.2 73.7 75.7 88.7 105.2 112.8 120.5 127.4 134.5 138.5 141.4 142.4 141.1 138.9 135.5 132.5 129.3 126.1 123.5 120.2 117.2 112.5 100 101.9 114.4 118.8 122.1 123.9 125.5 127.5 129.3 130.4 130.8 130.3 128.1 125.9 123.5 122.2 121.3 119.8 118.1 114.1 110 107 102.8 99 96 94.5 94.3 94 93.6 93.2 96.2 98.8 100.1 100.4 99.6 98.6 98.6 98.7 98.6 97.5
148.4 148.1 146.1 144.1 140.9 137.3 134.1 130.6 126.7 122.6 119.8 117 114.4 115.7 117.1 116.6 113.5 105.4 97.5 99.8 103 100.8 91.2 94.9 111.2 119.6 122.8 123.8 123.3 122 119.4 116.3 113 104.5 95.1 100 105.3 110.3 116.1 120.9 124.8 127.1 129.4 128.7 127 124.9 121.1 118.7 121.5 123.5 124.5 125.5 124.8 123.8 122.6 121.5 120.5 119.3 117.1 115.5 113.1 111 110.1 108 105 97 94.3 89.2 84 78.5 69.9 55 48.5 48.2 49.6 56.2 56.8 59.1 59.1 60.9 60.6 61.6 62.3 63.3 63.8 64.3 65.5 66.8 69.7 74.2 81.5 90.7 96.7 102.1 106.5 110.2 113.1 114.6 115.6 116.7 117.9 117.9 116.5 113.2 103 89.2 95 94.1 101.4 102.8 106.9 111 114.5 117.1 121 124.9 127.3 128 128.6 128.6 128.5 127.8 127.1 119.9 112.9 108.1 96.2 98.7 103.2 104 102.6 101.3 101.1 101.4 103.3 103.2 99.2 90.2 77.6 73.3 74.4 80.6 92.6 102.3 111.9 121.7 129.7 135.2 138.4 139.8 139 136.3 132.8 129.1 125.1 121.2 117.9 115 111.9 108.3 97.8 102.1 111.7 115.6 117.8 118.3 120.2 123.1 125.3 126.6 126.9 127.5 126.1 123.1 121.3 120.7 119.8 118.5 116.9 114.3 110.5 107.5 104 101.9 99.5 96 92.6 90.5 90.2 87.9 88 90.4 91.6 90.7 87.5 83.8 83 83.8 84.5 83.6
147.5 148.1 146.2 144.7 141.6 138.5 134.5 130.6 126.9 123.7 119.3 114.4 110.1 109.3 109.4 108.6 104 101.1 107 114.3 115 109.3 94.8 91.1 105.9 117.4 121.3 121.8 120.1 118.4 114.8 110.1 105.9 98.9 93.4 97.1 102.7 107.9 114.5 119.8 123.9 126.5 128.5 128.6 126.7 124.4 120.3 115.6 115.4 117.4 118.5 119.5 119.9 119.8 118.5 115.7 114.4 113.4 110.9 109.4 107.8 107.1 107.3 106.3 104.4 101 95.8 92.7 88.9 85 80.1 66.7 51 47.9 47.3 54.9 52.8 54.5 63 65.3 67.4 69.2 69.3 69.4 69.3 71.1 73.9 76.4 79.8 85.5 90.8 95.7 101.4 106.3 109.5 113 114.4 115.2 115.8 116.1 115.6 114.4 113.9 113.8 101.8 92.9 84.2 94.2 94.2 92.4 103 105.8 106 107.2 110 114.3 121.8 125.9 126.5 127.8 127.7 126.6 125.2 122.6 112.7 104 106.1 111.2 115 114.9 114.4 114.3 113.5 112.4 110.9 108.6 104.1 95.9 83.8 73.7 72.9 74.5 81.7 91.3 107.4 119.1 127.3 133.1 136.7 138.2 137.4 134.5 131 125.7 120 114.8 110.4 106.8 104.7 103.1 94.2 101.4 108.6 111.3 112 112.1 113.9 117.5 121.4 122.4 123 124 123.2 120.7 118.9 118.5 118 118.2 117.7 116.4 113.9 111 108.1 106.5 104.6 101.4 100 97.7 96.6 93.7 89.3 85.3 82.9 81.6 79.7 77.5 74.8 72.4 71.8 70.1
147 147.9 147.5 146.4 144.4 141.3 139.2 135.8 131.7 128.2 124.3 119.1 114.5 111.1 108.4 107.3 108.7 115 122.2 124.4 122.7 117.5 102.6 88.6 95.4 108.1 114.7 114.5 109.9 103.4 97.9 94.2 92.9 94.4 97.2 101.2 103.4 106.6 112.2 118.1 122.6 126.2 128.6 129.1 126.9 124 119.7 114.3 111 110.8 112.6 114.8 115.5 115.2 114 112 109.1 105.5 101.3 101.7 101 102.2 102.8 102 100.8 98.6 95.4 91.9 91.5 87.8 84.3 76.9 59.4 48.2 47.3 47.2 53.6 66.6 76.4 79.6 81.5 82.6 82.4 82.3 82.7 82.9 83.1 84.1 86.8 89.3 93.3 100.1 105.3 110 112.2 113.1 113.9 113.9 113.8 113.3 112.4 111.4 112.2 109.6 99.3 97.4 100.3 101.4 101 96.6 92.3 89 92.9 97.1 99.2 111.2 113.9 118 121.7 125.3 127.1 127.2 125.8 124 117.2 111.4 115.1 120 121.5 121.1 120.5 120.3 119.4 117.6 116 113 108.6 101.1 89.6 76.9 72.1 72.3 76.2 85.5 105.5 118.9 126.3 133.1 137.1 138.6 138.3 135 130.3 124.4 118 112.4 107.6 103.5 100.5 94.9 90.8 96.1 104.2 106 105.6 105.7 107.9 112 116.3 118.7 120.1 120.9 120.4 118.6 116.5 116.2 118.1 118.4 118.6 118.2 116.8 114.3 112.4 111.3 109.5 108.9 108.8 108.5 107.7 105.6 100.5 92.1 85.3 88.2 90.5 89.8 86.7 82 77.8 73.6
147.1 148.2 148.5 147.7 146 144.4 142.7 139.6 135.5 131.5 128.5 124.5 122.4 120.5 119.4 120.5 122.9 126.6 128.8 128.5 126.3 122.9 112.8 95.4 87.3 95.8 104.5 101.5 92.3 89.2 88.6 90.5 94.7 101.9 109.5 111.3 110.1 112.2 115.5 119 123.3 126.7 128.8 129.5 128 125 121.8 117.1 113.9 109.3 106 108.6 111.9 112.8 111.8 109.3 106.1 101.8 93.4 89.3 92.2 95.6 97.7 97.3 96 94 91.1 88.5 87.9 87.6 90.8 88.3 73 50.8 46.6 46.7 57 83.4 81.4 84.4 90 94.5 96.8 97.2 97.4 96.1 94.1 90 86.4 85.2 91.7 97.9 98.6 97.8 99.2 100.7 106.5 110.1 110.8 109.6 108.2 106.7 105 98.6 102.3 97.8 91.8 84.1 80.2 73.5 85.3 85.7 91.7 97.3 101.6 105.5 108 118.9 120.6 123.6 125.6 127 126.4 123.9 120.5 116.6 118.6 122.6 124.5 124.9 124.6 123.9 123 121.1 118.7 116 111.8 105.4 95.8 83.8 74.4 71.7 72.9 79.2 96.5 114.3 123 130.4 135.9 138.7 139.2 137.9 134 128.2 122.8 118.8 115.1 112.2 108.1 99.8 90.5 90.8 97 98.8 98.8 99.5 103.3 108 112.3 115.7 118.1 118.4 118.4 116.2 113.8 114.4 116.5 117.3 118.3 118.4 117.8 116.8 116.1 115.6 114.5 115.4 115.8 116.2 115.4 113.5 110.2 102 93.2 100.3 103.8 103.2 100.8 97.3 91.9 83.4
147.1 148.2 148.3 147.9 147.3 146.2 144.2 141.4 137.9 134.4 132 129.6 128.6 128 127.4 126.5 127.7 128.6 129.8 128.9 126.9 124.2 119 107 93.4 87.9 89.4 88.1 88.1 93.3 97.9 102.4 108.8 115.3 118.8 118.8 117.4 118.8 120 122.4 124.9 127.9 129.4 129.9 129.1 126.8 125 122.2 120.1 116.2 111.2 102.6 104.4 106.3 106 104.1 99.6 94.7 85.3 75.6 77.5 82.7 89.6 91.6 90.5 87.9 84.4 82.4 82.1 82.2 80.7 78.7 72.8 56.7 46.3 45.7 51.8 65.7 76.5 84.5 91 96.7 100 101.9 103.2 103 101.5 98.5 95.6 92.9 94.7 99.8 105.8 110.9 113.4 113 112.5 111.4 108.2 105 101.8 100.7 99.4 98 95.7 92.9 86.4 75 73.9 80.1 88.9 94.7 100.4 104.1 108.7 114.5 118 121.1 125.4 125.8 126 127.1 125.5 124.3 122.4 121.4 122.1 123.7 126 127.8 127.5 126.8 125.7 123.6 121.3 118.6 114.7 109.2 101.9 91.6 79.6 72.9 71.4 74.1 89.7 106.5 116.6 124.7 131.6 135.3 137.9 138.4 137.2 134.6 130.2 125.7 121.8 118.4 113.3 105.7 93.8 87.6 89.1 91.2 92.2 97.1 102.5 107.6 112 115 116.7 116.6 116.3 113.7 110.1 112.4 114.8 116.4 117.7 118.3 119 118.7 119.2 119.5 119.8 120.9 121.9 122.3 120.8 118.8 116.4 110.9 102.1 106.4 110.4 111 109.8 106.9 102 91.8
146.6 147.5 147.7 147.5 146.7 145.9 144.5 142.1 139.5 136.8 134.5 133 131.1 129.9 130 129.3 129.7 129.9 129.3 127.9 126.1 123.7 120.2 114.3 104.4 94.2 86.7 84.8 94.6 107.3 114.7 119.5 122.9 123.9 124.8 124.2 123.7 123.8 125.1 126.3 127.9 129.6 130.5 131.4 130.6 129.1 127.8 126.4 125.4 123.8 121.2 115.2 105.9 94.9 93.8 90.6 84 83.5 86.4 90.9 84.4 73.9 73.2 83.8 83.6 81.4 76.4 71.5 73.2 74 74.4 74 71.1 62.1 49 45.4 45.5 56.5 71.5 81.7 89 94.6 98.7 101.8 104.1 106 106.5 104.6 101.6 98.9 98.7 101 106.6 109.9 112.8 113.2 112.9 111.6 108.6 103.9 96.2 92.9 91.3 89.3 87.3 83.2 76.4 71.4 81.6 90.9 98.8 103.2 105.1 107.6 111.8 122.6 126 128.3 129.8 130 128.9 128.8 127.2 126.7 127 126.9 125.9 127 127.6 129.4 130.6 129.7 127.9 125.8 123.8 121.2 118 113.6 108.2 99.7 87.3 75.6 68.9 71.6 79.4 96.7 109.3 118.4 125.9 131.5 134.5 136.9 137.1 136.2 133.8 130.1 125.5 120.7 114.7 108.1 99.1 88.8 85.5 85.8 89.4 95.7 101.9 107 111.3 114.1 115.4 115.3 114.2 111.1 106.2 111 114 115.5 117.1 118.2 119 120.1 121.1 122.2 123.1 125 126.4 126.1 124.9 123.1 120.6 116.1 109.4 111.4 114.2 115.1 114 111 106.1 97.8
145.9 146.2 145.9 146.1 145.4 144.7 143.7 141.8 139.5 137.3 135.4 133.9 132.6 131.5 130.4 129.9 129.5 128.7 127.5 126.4 124.9 123 120.3 116.1 110.7 102.3 89.9 87.6 100.4 115.1 125.1 128.7 129.7 129.4 129.2 129 128.8 128.5 129.1 129.9 130.7 131.6 132.4 133.2 133.2 132 130.9 130 129.3 128.5 126.7 124.4 120.6 114 106.9 102.3 100.7 101.4 103.6 105.1 98.2 91.2 76.9 63.9 71.3 71 69 62.1 60.8 62 64.1 66.4 66.6 62.5 52.4 46.1 44 48.2 62 75.5 84 90.2 95.4 99.4 102.9 106.1 108.7 109.4 106.8 104.1 102.6 99.6 104.1 109.8 112.2 113 112.7 111.2 108.1 102.4 95.5 81.8 80.9 78.9 74.8 71 69.7 77.8 86.3 99.4 107.9 109.6 110.3 112.4 118.4 129 131.4 132 132.3 130.7 130.3 130.5 129.7 129.8 130.3 130.5 129.5 129.2 129.5 130.8 132.4 132.4 130.5 128.4 125.9 123.5 120.3 116.7 111.8 104.8 94.7 81.7 73 70.6 71.9 81.8 97.1 111.1 119.9 126.1 131.4 134.8 135.4 134.6 132.8 129.4 125.2 119.4 113.5 106.3 98.9 91.3 87.7 84.2 86.2 93.1 99.8 105.4 110.1 112.5 113.8 113.8 112.1 108.7 101.6 105 109.2 113.6 115.7 117.1 118.4 120.7 122.2 123.8 125.7 128 129.4 129.2 127.8 125.4 122.5 119 114.4 115.2 117.3 117.7 116.3 113 108 99.1
144.7 144.7 144 143.4 142.9 142.3 141.6 140.7 139.1 137.1 135.6 133.9 132.3 130.6 129.5 128.3 127.3 126.2 125.2 124 123 122.1 120 117.1 111.1 97.7 84.5 94.1 106.5 120.8 128.6 131.7 132.3 132.6 132.5 132.4 131.6 131.4 131.5 132.1 132.6 133.4 134.3 135.1 135.3 134.5 133.3 132.9 132 131.2 130.4 128.7 126.5 123.8 121.2 118.8 117.8 116 113.7 111.5 108.1 103.4 95.9 82.5 72.4 66.9 64.3 61.9 59.2 56 53.7 55.8 58.7 58.5 52.5 46.2 44.2 45.2 53.6 69.7 78.8 85.5 90.8 95.8 100.5 105.2 108.8 110.8 110.5 108.9 108.4 107.8 101.7 108.5 111 112 111.4 108.6 103.3 101.4 96.7 84.1 71.3 67.6 65.9 71.7 79.4 89.7 101.9 109.7 113.8 118.3 121.1 125.7 130.2 132.6 133.4 134 133.8 129.7 132.3 132.1 131.2 132.3 132.7 132.5 131.2 130.3 130.9 131.5 132.9 133.5 132.3 130 127.5 124.4 121 117.4 112.7 106.9 99.7 89.4 78.1 70.8 69.3 70.9 83.2 99 112.9 121.7 128 131.9 132.6 131.4 130.1 127.2 123.4 117.8 111.8 104.9 99 95.3 91.5 86.1 81.6 87.9 96.1 102.6 107.6 110.5 111.8 111.6 109.7 105.8 97.9 101.3 104.5 108 110.8 114.1 117.6 120.1 122.4 124.3 126.3 129.1 131.2 130.9 130 127.2 124 120.7 118.4 118.6 119.2 118.7 117.5 114.6 109.5 98.2
143.4 141.9 140.5 139.5 138.6 138.4 138.6 138.2 137.7 136.1 134.1 132.4 130.1 128 126.4 125.2 123.8 122.7 121.5 120.8 120.6 120 118.7 115.4 103.8 87.7 85.9 101 113.9 124.9 130.5 132.9 134 134.4 134.1 133.7 133.2 132.9 133.2 133.8 134.3 135.1 136.1 136.9 137.3 136.8 135.8 135 134 132.7 131.9 130.6 128.5 126.3 124.3 123.1 121.2 118.9 116.7 114.6 111.6 108.4 104.1 98.1 91.7 85.6 82.2 79 73.5 69.7 63.9 56 50.4 49.9 48 45.6 44 42.7 47.6 63.1 74.1 81 86.3 91.3 96.5 101.6 106.3 109.3 110.7 111.3 111.4 111.5 111.1 110 103 110.3 108.7 104 101.6 99.9 88.8 76 63.9 64.3 73.8 81.9 94.1 103.6 110.5 114.3 116.7 120.2 124.7 128.1 130.6 131.8 132.5 132.9 132.6 128.9 132.3 132.7 133.6 133.1 133.3 132.5 131.2 130 129.4 129.3 129.2 129.6 128.5 127.1 125.2 122.8 119.2 115.4 111.1 106.7 101.4 94.9 85.3 73.6 69.9 67.6 75 88.7 105.2 116.5 123 126.6 128.1 127.2 126.5 125 121.7 117.8 113.1 107.4 102.3 97.7 91.9 87.7 84.6 83.6 90 98.7 104.4 107.3 108.4 108.1 106.3 102.8 94.6 96.1 97.4 98.9 101.6 106.7 110.6 114.2 118.7 122 125.4 128 130.7 132.1 131.2 129 126.5 124 122 121 120.3 119.2 117.9 115.3 109.9 97.1
141.4 139.2 137.2 134.9 133 133.7 134.8 135.4 135.6 134.8 132.9 130.3 127.5 125.1 123.1 121.1 119.5 118.1 117.2 116.7 116.9 116.7 115.7 111 93.9 78.7 91.7 107.6 120.1 126.6 130.3 132.6 134.2 134.8 134.6 134.1 133.6 133.1 133.3 134.3 135.1 136.3 137.6 138.7 139 138.7 137.8 136.5 134.4 132.6 131.7 130.1 127.8 125.4 124.2 122.5 120.4 117.6 116.2 114 111.7 109.6 106.6 103.8 101 97.7 93.7 89.8 84.2 80.1 76.7 71.2 64.8 59.3 53.8 48.3 44.4 41.7 43.4 56.7 69.1 76.2 81.3 86.3 91.3 96.6 102.2 106.5 109.5 111.3 112.5 113 112.5 110.4 108.3 103.4 104.8 101.9 101.6 87.9 73.2 62.9 62.3 72.3 81.6 96.7 106.3 110.4 114.7 116.7 117 118.3 121.7 124.7 127.4 128.3 128.4 128.2 128.1 127.1 130.1 133 135 135.3 133.7 132.5 130.1 127.8 125.6 124.8 123.8 123.1 122.3 121.5 119.6 117 113.5 110.3 107.4 104 100.4 96 90.4 82.6 76.6 70.1 70.1 81.9 98.7 110.9 117.6 121.1 122.8 123.6 123.9 123.2 121.5 118.2 114.3 109.3 104.1 98.7 95.6 94.3 90.5 84.4 83.9 91 99.2 102.5 103.4 102.8 100.7 97.3 91.8 92.4 95.5 100.3 103.7 104.5 106.3 108.5 111.7 116.8 122.7 127.2 130.2 132.4 132.8 131.6 129.6 127.3 124.9 122.9 120.6 118.2 116.5 114.1 110.1 97.2
138.2 135.9 133.1 129.8 125.5 127.1 130.1 132.7 134.2 134.1 132.5 130.6 127.7 124.7 122.1 118.2 114.4 111.5 110.3 111 112.4 112.6 111.6 105.1 87.6 85.2 99.8 113.6 121.8 125.2 128.4 130.5 132.1 133.2 133.4 132.9 132.7 132.7 132.8 133.7 135.4 136.6 138 139.1 139.8 139.8 139 137 134.7 132.2 129.6 127.4 125.3 122.8 120.6 118.8 117 114.6 112.8 110.9 108.8 106.9 105 102.9 101.1 99.6 96.5 93 89.3 85.1 82.1 78.3 74.3 69 63.8 56.6 47.2 41.9 42.7 49.9 63.7 69.6 74.1 80.1 85.4 91.1 97.2 102.7 105.8 107.9 110 110.9 110.8 110 107.1 102.6 100.1 101.3 101.1 75.9 62.4 60.2 69.6 78.7 93.5 105.6 110.3 113.7 115.6 115.3 114.1 113.4 116.3 119.9 122.4 123 121.6 120.1 121.6 125.6 130 133.7 135.6 135.6 132.9 131.7 129.2 125.5 122 120.3 119.2 118.5 116.6 113.8 110.5 108.1 105.7 102.9 100.7 98.1 96.5 94.2 89.6 82.3 76.5 71.3 68.7 74.8 90.2 104.8 112.5 117.1 119.1 120.7 121.7 121.9 120.9 118.3 114.9 110.7 105.9 103.4 102.8 100.4 97 91 83.7 82.2 89.4 95.5 97.3 95.9 92.9 90.5 90 94.1 103.3 109.6 112.8 115 117.7 118.7 118.3 116.5 119.1 125.1 129.6 132.5 133.8 133.8 132 129.5 126.2 122.6 119.2 115.3 112 109.2 105.1 93.5
134.4 132.4 129.4 124.6 116.7 119.8 125.2 130.9 134.1 134.8 134.5 133.5 131.2 128.5 125.1 121.9 117.7 112.9 106.8 101.9 106.8 107.9 107 101.1 86.2 87.2 101.3 114 119.7 123.1 125.8 127.4 129.1 130.7 131 130.7 130.6 130.4 130.8 132 134.2 136.3 137.7 138.9 139.9 140.1 138.4 136.1 133.1 130.6 128.1 124.7 120.9 116.9 114.7 113 111.1 109.5 106.7 104.2 102.8 100.4 99.3 97.4 96.9 96.5 94.9 92.4 89.8 86.7 83.2 80 76.4 72.5 68.3 61.5 51.5 42.1 41.6 47 58.7 64.1 69.2 73.7 79 85.1 92.1 97 100.7 103.2 106 107.7 108.9 108.1 105.4 100.2 93.5 84.1 80.9 67.8 57.6 67 76.1 87.8 103.8 108.7 112.5 114.4 113.8 113.2 110.3 108.4 110.9 113.5 116.5 115.8 111.4 109.4 118.8 125 130.7 134 135.8 135.9 134.7 131 128.6 125.8 123.3 119.2 115.8 113 111.1 108.9 106.6 104.8 102.7 98.8 94.8 90.2 88.7 87.9 85.3 83.7 82.8 76.2 68.8 68.2 78.5 96.1 109.3 113.6 115.8 117.8 120 120.8 120.5 118.5 115.5 112.3 109.9 108.5 107.1 105.2 102.4 98.8 91.9 82.9 80.1 85.3 89.3 86.3 82.1 85.5 93.3 105.6 110.8 114.4 117.7 120.9 123.4 125 124.7 122.9 121.1 124.4 129.5 132.5 134.8 135.4 134.1 131.1 127.2 121.8 115.3 108.8 102.3 98.1 93.2 88.1
129.5 127.3 124.8 120.1 108.3 115.4 125 130.6 134.5 135.7 136.2 136.3 134.5 132.1 128.9 125.4 121.6 116.8 110 101.3 99.4 102 101.4 96.1 85 84.3 97.5 110.4 116.6 119.9 122.2 123.7 125 126.1 126.6 127.1 127 126.9 128.4 130.8 133.4 135.3 136.8 138.3 139.1 138.8 136.7 133.7 131 127.9 124.6 120.8 116.3 110.1 105.7 104.3 101.8 97.8 93.3 90.6 88.5 88.5 89 90.1 91.1 90.4 88.9 87.3 86.1 83.9 80 75.5 71.7 67.7 63.9 59 52.4 42.8 40.4 42.7 53.8 60.6 64.8 69 73.7 80.3 86.5 91.6 95.8 98.4 101.9 105.5 107 107 105.2 101.4 94.4 80.2 67.7 56.9 63.9 74.6 88.3 99.5 106.3 110 112.6 113.8 113 110.9 107.6 102.2 103 105.3 107.1 104.9 99.3 107.7 120.3 126.2 131.2 133.9 135.1 134.9 133.6 132.3 129.1 127.5 126.5 123 119.7 116 114.4 113 111.8 110.3 108.4 105.2 102.2 98.9 97.7 94.5 94 95.7 92.1 83.5 73.4 67.1 70.1 90.5 105.4 108.8 111.2 114.7 117.8 119.6 119.7 118.6 116.7 114.2 113.1 111.7 110.2 108.6 106.6 103.8 99.6 91.5 80.8 78.2 80.1 81.4 86.4 96.5 108.3 115.2 117.6 119.7 122.5 124.8 127 128.4 128.3 127.8 126.2 125.6 129.8 132.7 135.3 136.3 135.7 133.3 129.3 123.4 117.2 111.1 105.4 100.7 97.8 94.8
123.5 121.5 119.3 115.3 101.6 113.3 124.2 129 132.8 135.1 136.3 136.9 136.3 134.3 130.9 127.5 124 119.9 114.3 106.6 93.2 90 90.1 85.2 80.1 77.9 90.8 104 111.7 115.6 118.1 119.4 120.1 120.3 120.2 121.6 123.2 124.9 128.9 131.3 133.1 134.6 136.2 137.4 138.1 137.1 134.9 131 127 122.8 118.1 113.5 108.7 103.3 95.7 93.1 89.3 83.4 78.5 76.3 73.1 71.6 71.6 75.1 78.7 79.3 78.4 77.6 76.7 74.2 70.2 63.5 57.4 53 49.7 47 44.7 44.1 40.2 41.7 50.1 56.2 58.4 63.4 70 74.7 80.6 86.1 90.8 95.7 99.9 103.7 105.6 105.6 104.8 101.4 94.8 80 61 56.8 71.8 86.7 98.3 102.8 105.8 108.4 109.5 110.7 110.2 108.3 105.3 98.1 95 94.9 93.4 93.3 101 116 124 127.9 130.9 133.3 134 133.5 132.5 131.1 131.5 129.5 128.7 127.4 125.3 121.9 119.7 118.5 117.7 116.5 114.3 112 109.4 106.4 105 103.2 102.8 101.4 96.7 87.9 75 66.3 68.5 88.6 100.2 102.8 106.5 111.6 115.2 117.8 118.9 119 117.9 117.2 116.3 114.8 113.3 111.6 109.9 107.1 103.4 97.4 86.1 76.3 79.9 90.6 100.2 107.3 114.7 121.2 122.5 124.5 126.8 129.2 131.1 131.8 131.5 131.2 129.5 126.8 129.3 131.7 133.3 134.8 135.3 134.6 132.3 128 124.2 121.3 118.1 115.2 112.7 108.5
