ncols 200
nrows 82
xllcorner 250000
yllcorner 710900
cellsize 50
540.1 543.1 547.8 539.7 527.3 517.6 500 485.3 471.3 462 453.6 448.2 441.3 439.2 438.9 439.8 444 449.4 451.3 452.3 457.1 462.5 464.9 467.3 467.7 467.3 462.9 453.4 446 443.2 442.1 430.5 415.8 414.1 418.5 417.7 410.9 409.1 412.6 429.6 446.9 451.7 461.2 485 506.9 523.3 543.1 560.4 576 583.1 591.2 596.1 599.3 605.3 605.1 600.4 595.1 584.1 570.2 551.8 532.4 515.8 505.4 493.9 482.4 469.3 450.3 442 427 413.8 404.1 395.9 389.4 379.8 372.4 362 357.6 353.6 347.7 340.5 333.1 323.5 313.4 302.4 300 293.1 287.9 287.9 287.2 286 285.5 286.3 289 287.5 286 282.7 277.7 269.8 260.3 251.1 241.6 235.4 231.3 228.3 226.3 225.7 223.6 221.8 217.3 211.1 202.6 192 180 165.7 152.5 140 133.9 128.8 125 125 123.1 119.5 117.2 117.2 117.2 117.2 117.2 117.2 117.2 117.2 127.3 141.8 157.6 175.6 193.2 214.1 229.8 244.5 255.1 260.9 271.6 282.3 293.2 303.5 318.9 331 339.9 345.8 354.5 366.3 381.7 401.8 422.6 425.8 428.9 420.2 419.5 422.3 429.5 455.2 461.4 467.6 487 511.9 529.7 543 548 547.7 545.9 545.3 525.3 507.4 455.1 416.9 389.7 367.5 344.8 324.6 320.2 329.9 345 357.4 370.4 389.9 393.5 410.3 440.7 462.4 484 502.1 527.7 537.8 541 545.5 545.5 546.3 553.5 567.2 579 591.4
552.1 551.2 551.5 538 528 510.9 492.9 478.1 466 456.2 449.3 444.1 438.5 437.1 437.3 438.1 446.3 449.2 451.4 454.1 461.4 465.9 467.4 469.9 471.1 471.9 467.9 458.5 451.2 444.7 439.1 428.2 420.3 418.5 416.1 413.1 407.9 405.4 410.5 429.3 448.9 448.6 460.3 479.9 502.7 520.3 537.5 556.6 572.7 579.2 587.4 595.7 598 606.2 607.1 603.6 600.1 593.3 578.5 557.9 540.8 521.9 512.7 503.6 491.3 475.9 462.7 452.4 438.6 426.8 415 405.6 398.1 389.9 380.2 374.7 369.5 366.3 360.6 354.1 344.9 333.5 324.5 319.9 312.8 305.9 300.3 298.5 299.4 301 300.2 297.8 290 285.2 280.1 275 270.2 262.8 255 247.3 238.5 237 231.9 227.8 221.3 216.2 211.8 211 207.4 202.2 195.6 187.2 176.5 165.4 153.4 142.7 137 130.9 126.9 125.9 124.6 121.1 117.8 117.2 117.2 117.2 117.2 117.2 117.2 117.2 117.2 131.6 148 164.5 181.8 202.7 218.6 230.6 240.2 245.4 256.3 266.7 279.1 292.4 306.2 319.8 329.9 337.2 344.7 353.7 364.8 383.1 405 426.4 432.9 430 420.3 421.2 424.8 433.1 454.4 454.7 479.3 510.4 519.9 538.1 551.3 551.3 542.9 537.9 527.8 514.4 448.3 407.1 384.6 362.4 340.4 321.1 321.7 329.7 347.3 363.3 379.9 399.8 413.2 430.3 451.8 472.7 497.4 526.3 534.8 538.2 539.7 539.2 535.8 539.5 548.5 560.3 574.1 584.2
558.8 554.5 542.5 525.1 510.3 492 479.3 469.9 459.7 450.3 444 438.1 436.6 436 436.5 437.6 444.9 452 455.5 455.9 459.7 462.4 464.3 470.6 472.7 474.7 472.6 466.5 461.8 440 436.1 423.9 423 418.7 411.9 409.1 407.8 404.5 411.3 424 441.4 446.5 456 476.2 498.8 517.8 533 552.7 567.6 574.3 580.6 591.3 596.6 601.6 607.1 607.1 611.8 605.7 595.5 573 552 533.9 522.9 513.4 498.9 484.3 473.9 466.5 455.4 441.5 430.5 417.7 410.2 399.8 391.1 385.1 381.2 377.1 371.6 365.6 355.4 346.5 341.7 335 326 322.1 315.2 315.6 315.4 314.6 312.1 308.3 301.2 290.3 280.8 279.8 271.9 264.5 259.7 255.4 250.6 247.5 239.4 237 228.6 214.7 202.4 199.1 194.2 190 185.7 179.8 171.4 159.5 149.5 141.4 136.3 132.5 127.5 124.8 123.8 121.4 119 117.2 117.2 117.2 117.2 117.2 117.2 117.2 117.2 119.6 136.2 150.2 166.4 183.6 199 217.9 229.4 231.9 239.7 249 262 274.7 291.4 305.8 317.3 324.8 333.7 342.5 351.6 368.2 383.3 421.6 435.7 436.6 420.7 419.1 419.8 427.6 437.6 444.7 468.8 502 506.7 520.6 544.2 544.7 536.6 529.3 520.2 500.1 438.9 402.2 379.6 357.6 333.7 318.4 316.6 331.2 352 370.6 389.1 405.7 419.8 437 454.2 476.3 509.9 535.3 544.4 539 535.5 531.3 529.1 539.4 543.6 552.2 563.5 571.9
553.6 540.9 528.1 506.2 491.6 480.3 468.2 458.4 450 445 439.3 437.4 436.1 435.5 436.4 437.6 443.4 451.5 455.8 457.8 458.5 461.6 463.9 467.1 472.8 472.4 477.6 471.9 455.1 434.8 427.9 422.9 423.4 413.4 406.8 403.5 400.2 404.4 410.7 421.9 433.2 445.4 455.5 474 492.4 514.3 533.7 548.2 561.3 571.1 576.4 586.3 597.2 601.2 604.2 609.8 613.8 610 605.3 586.9 562.5 546.2 538.9 524.5 503.2 486.7 479.7 476.2 466.1 455.2 443.4 431.5 419.4 408.5 402.7 394.7 390.8 386.3 381.4 375 366.9 360 355.6 348.6 343.7 338.8 333.7 332.1 329.3 326.5 322.4 317.3 310.2 302.1 294.6 290 286.1 281.2 274.9 267.9 264.1 257.2 252.9 247.3 239.3 226.9 212.8 205.9 198.4 191.1 184.6 178.2 169.7 160.9 155.7 145.4 136.9 132.2 127.7 125.5 123.9 123.1 122.2 121.1 117.2 117.2 117.2 117.2 117.2 117.2 117.2 117.2 124.4 139 154.4 166.2 180.3 197.4 215.8 217.4 223.9 234.6 245.9 257.7 272.4 290.3 303.2 310.6 320 331.7 344.6 359.6 375.5 399.8 430.5 432.5 423.7 412 418 424.1 430.9 437.3 448.8 492.1 499.2 490.6 510.3 525.6 522.5 511.1 499.9 484.2 435.5 394.8 373.6 352.9 328.7 312.3 316.1 334.9 357.8 376.6 396.5 413.2 426.4 441.3 462.6 479.7 510.7 540.8 547.1 540.5 530.3 522 528.1 536.2 538.9 545.6 559 564.3
552.3 533.1 517.4 498.5 485 473.2 466.9 459.3 449.9 442 438.9 438.3 436.6 434.6 435.9 438.2 445.1 451.2 454.9 455.9 458.1 461.2 465.5 463 462 464.5 471.8 464.1 443.6 430.6 426.1 425.8 419.1 408.2 400.7 397.2 396.4 400.3 412 417.6 427.6 440.6 453.1 472.9 486.5 507.6 522.6 539.7 557.4 566.9 575.4 587.7 597.2 602 602.4 612.8 615.4 617 615.8 603.9 583.3 561.5 559.5 542.1 515.6 498.8 484.5 479.3 475.3 464.5 453.8 442.4 428.8 421.7 412.6 406.8 402.6 398.4 392 386 377.5 372.1 367.5 361.8 358.4 353.7 348.8 344.9 342.3 337.4 332.3 325.1 321.4 316.8 311.3 305.7 301.1 295.1 289.3 284.3 279.4 272.1 266.4 258.6 250.4 243.8 234.9 226.6 218.8 206.7 197.2 185.9 175.5 168.1 162.3 151.6 144.8 136.3 131.1 127.9 125.8 123.6 122.5 122.5 117.2 117.2 117.2 117.2 117.2 117.2 117.2 117.2 117.2 129.8 151.1 161 165.8 177.3 191.1 201.5 208.3 218.3 230.3 241.7 258.2 275.1 288.5 299.7 309.9 321.4 333.6 348.9 362.8 378.5 401.7 417 409.1 404.3 411 417.3 426.8 432.4 436.2 451.9 471.3 470.5 495.5 500.6 495.1 493 492.1 482.2 419.3 390.3 368.8 345 324 308.3 316.4 339.3 364.7 383.5 401.5 418.8 434.3 448.6 465.9 484 515.9 541.4 552.6 538.7 520.6 519.5 523.8 528.4 531.3 536.6 544.4 554
551.9 525.8 508.7 491.2 479.2 471.4 465.8 455.5 445.8 441.8 440.8 439.1 438.1 436 433.6 436.4 444.7 451.2 453.8 455 457.4 459 458.8 458.6 456.5 454.3 457.9 444.4 434.9 429 425 421.2 411.5 401.5 394.7 389.3 390.2 398.7 407.4 415.1 425.6 435.7 450.7 472.4 484.1 501.3 520.8 538.8 554.8 561.5 575 586.7 595.5 598.2 603.4 613.6 619 623.1 623.3 617.4 600.3 583.8 583.2 563 538 514.9 496.5 485 483.1 474.5 463.9 451.4 442.9 433.7 426.3 420.9 416.2 409.2 402.8 393.8 388.5 383.4 378.8 374.7 370.8 365.3 359.2 357.3 352.8 350.5 343.7 336.9 332.4 327.9 323.2 318.6 312.4 307.9 301.8 297.6 293.3 286.3 277.3 269.2 260.4 254.7 247 236.2 225.6 218 207.6 194.6 182.9 175.2 167.3 163.4 152.3 143.9 136.3 129.2 126.8 125.7 123.5 119.7 117.2 117.2 117.2 117.2 117.2 117.2 117.2 117.2 117.2 117.2 136.5 150.6 152.7 161.7 173.9 182.4 190.5 199.9 215.5 228.2 243.7 259.2 274.2 287.7 300.3 309.3 319.1 335.5 351.8 367.4 381.8 391.3 390.4 387.5 399.6 411.4 417 425.9 432.2 436 447 458.2 485.4 492 488.5 480.9 476.9 459.5 415.1 383.4 364.6 341.7 320.4 302.2 317.6 345 366.3 384.9 405.2 424.7 443.4 455.5 468.9 491.3 517.9 541.7 547.8 532.8 516.5 516 517.9 520.5 522.6 527.3 537.6 544.8
545.9 520.1 505.3 495.2 483.3 475 465.4 459.4 451.3 445.7 444.8 442 439 438.1 436.5 432 442.8 450.7 453.4 452.8 452.2 455.2 456.5 456.6 455.3 451.5 446.4 439.4 434.1 429.2 420.7 411.5 404.8 397.6 389.4 380.2 379.7 392.1 402.7 412.9 424.3 434.3 454 472.5 482.8 499.4 516.8 538.3 549.1 559.8 574.5 589.5 596.5 597.7 607.7 614.8 621.7 630.5 632.6 627.3 616.1 605.7 603 592.5 574.5 548.3 512.1 496 490.3 482.1 471.6 462.8 455.8 446.8 440.8 434.7 428.6 421 410.1 406.9 403.1 397 390.5 386.6 380.9 377 372.3 370.1 365.5 363.1 356.5 349.6 343.5 340.9 336.2 330.7 325 319.7 313.3 310.3 305.4 299.6 291.7 279.2 265.8 258.5 251.2 245.3 236.3 229.7 220.1 209.5 198.1 186.8 180.4 170.3 160.4 151.5 141.6 133.9 130.3 125.7 123.8 122.6 117.6 117.2 117.2 117.2 117.2 117.2 117.2 117.2 117.2 117.2 120.7 133.8 139.8 147.2 152.2 160.8 169.2 183.1 197.9 213.3 226.8 241.2 255.5 271.2 284.9 297.5 302.7 317.3 334.8 351 363.1 369.2 370.4 376.5 391 402.9 412.5 418.5 426 432.4 438.4 451.2 474.2 480.8 480 478.1 473 462.9 411 379.1 359.3 338 315.9 295.3 314.3 345.9 362.9 387.2 410.1 431.7 450.7 464.1 480.4 498.2 516.5 546.7 553 529.1 517.3 513 514.1 513.7 518.1 522.5 529.5 532
539.7 518.5 510.1 494.8 483.7 475.9 469.7 463.8 456.5 451.6 449.1 444 440.9 438.1 437.4 431.6 436.5 445.4 449.1 447.7 448.9 452.1 453.9 453.9 453.2 452.5 444.4 435.8 431.9 429.5 415.5 403.9 399 391.7 381.3 372.8 373.6 384.8 398.2 408.5 420.5 433.1 457.7 467.3 478.8 493.1 512.3 526.7 546.2 556 572.3 588.2 595.9 598.4 605.4 616 625.9 633.9 637.2 636.7 629.1 624.5 617.5 610.7 579.1 553 530.2 507.8 495.6 486.8 480.8 476.3 466.9 462.9 456.4 447.9 439.5 430.6 424 420.1 415.3 409 402.3 397.5 391.8 388.2 385.6 383.1 377.2 374.1 367.8 359.7 357.4 353.9 348.7 343.4 336.9 330.1 324.6 319.6 314.4 309.4 302.7 285.3 271.5 263.5 256.9 250.3 245.7 238.6 230.6 225.1 213.6 201.2 187.6 175.5 166.6 157.8 151.5 146.8 133.5 128.3 125.6 123.4 120.2 117.9 117.2 117.2 117.2 117.2 117.2 117.2 117.2 117.2 117.2 117.2 120.3 130.8 137.2 141.4 146.6 162 176.3 192.3 208.2 223.7 235.6 252.9 268.1 280.6 290.6 298.8 316.3 333.6 345.1 352.8 357.3 366.4 379.4 394.9 406.1 415.2 423.7 432.4 437.4 443.7 458.5 466.6 475.2 470.7 465.3 462 405.3 371.4 349.9 329.7 306.8 290.4 321.7 349.2 367.7 389.2 414.3 440.2 460.4 473.8 491.6 503.7 512.4 544 546.5 529 513.9 509.5 508.5 510.4 513.5 518.3 524.4 530.3
538.8 518.1 507.8 495.7 486.4 477 470 465.9 458.7 457.6 451.4 445.2 442.4 440 438.2 434.6 429.8 435.7 440.9 443 444.3 448.1 448.2 450 450.9 450 444.6 436.8 428.1 420.1 408.4 398.8 395.2 384.2 373.8 367.5 367.1 378.7 390.7 404.7 418.5 433.8 460.1 473.5 479 493.5 511.2 530.8 545.5 560.8 574.7 588.1 597.8 602.3 610.2 616.1 629.2 639.1 646.2 642.7 638.3 639.3 637.7 618.2 594.1 563.8 543.6 522.6 522.3 505.9 493.2 488.4 482.6 477.2 472 462.7 451.7 441.5 435.5 429.1 425.2 419.9 413.6 406.9 403.2 399 396.1 394.3 389.6 382.9 379.1 371.1 370.5 366.6 360.9 354.3 347.5 340 334.3 327.3 321.2 313.7 301.2 289.7 278.6 272.5 265.3 258.7 254.1 245.1 238.1 235.4 225 211.8 198.1 183.4 170.9 163 159.6 149.8 141 131.1 126.5 124.7 123.6 122.8 120.9 122.6 117.5 117.2 117.2 117.2 117.2 117.2 117.2 117.2 117.2 124.7 127.4 130.3 135.1 143.3 155.2 168.1 186.2 205.3 220.5 234.7 248.1 264.2 276.5 287.2 300.5 315.3 328 337.4 347.3 356 366.9 383.8 402 413.9 415.8 429.6 440.8 433.4 452.7 459 466.9 458.9 458.5 448.2 390.8 355.9 336.5 318.5 295.1 294.5 324.8 348.4 371.1 393.9 421.5 455.2 468.1 481.6 496.6 511 520.5 537.3 542 518.1 509.6 506.9 504.2 506.4 506.7 512.5 518.7 532.3
539.6 519.8 509.8 498.9 488.9 479.4 472.5 467.4 466 461.7 454.3 448.2 445 440.9 436.9 432.9 430.2 429.2 433.3 436.5 439.3 439.7 441.5 446.9 447.3 448.1 442.6 433.2 419.2 410.5 400.9 394.5 384.8 374.5 363.9 361.1 360.2 373.1 387.2 402.6 418.2 437.1 457.4 470.8 476.3 488.8 507.3 528.7 545.7 559.9 573.5 587.1 597.8 606.5 614.9 620.3 629.7 641.9 644.7 642.3 647.5 652.2 655.5 634.3 610 589.7 569.2 543.9 531.8 520.7 510.6 502.7 496.3 490 483.2 474.5 464.4 455 449.9 443.2 434.5 428.7 423.7 416.4 413.2 408.1 406.2 403.3 400.1 393.5 387.5 383.9 382.4 377.3 371.9 363.3 356.9 350 342.6 333.4 323.5 312.6 301.3 295.6 285 279.3 270.9 267.8 262.1 256.4 249.4 239.6 230.3 221.3 205.9 189.8 178.6 172.4 166.2 158.4 149.1 139.3 130.5 126.4 125.5 125.4 124 121.3 118.5 117.2 117.2 117.2 117.2 117.2 117.2 117.2 117.2 117.2 123.1 126 127.8 130.5 137.4 144.8 162.5 184.7 204.7 220.5 233 248.5 260.1 275 287.5 300.8 311.1 320.4 333.7 347.1 362.9 380.9 403.8 416.6 409.2 419.4 429.8 428.1 425.4 442.3 433.9 427.9 430.4 411.7 376.5 348.1 327.4 307 282.7 299.7 326.8 350.9 375.9 398.4 429 459.8 472.4 485.8 493.6 512.8 526 530.1 533.6 515.6 510.3 507.1 500.2 499.2 499.5 499.8 516.7 527.8
538.3 518.9 513.9 503 494.8 484.4 479.8 472 469.5 464.1 457.3 451.5 444.8 438.9 437.2 434.7 431.2 429.2 430.6 431.6 433 432.5 434.2 441.9 442.7 442.6 437.5 425.9 412 403.1 393.2 385.7 376.9 366 356.3 353.9 352.5 366 381.6 398.5 415.2 438.3 451.8 468.5 473.8 481.3 504.8 524.9 543.7 557.1 572.3 587.5 600 610.8 620.6 623.2 629.6 640.6 642.6 644.7 655.3 666.2 665.9 659.9 636.3 624.8 596.3 565.4 546.9 533.2 524.5 516.3 509.5 502.2 494.8 485.6 474.9 469 464.1 456.2 448.2 440.7 432.1 426.2 422.5 417.2 415.8 413.2 410.7 402.9 395.8 396.1 392.8 387.9 383.1 374 366.6 357.3 348.3 337.7 327.7 317.8 309.6 303 291 284.5 279.2 273.4 267.9 265.8 260 248.3 235.7 223.7 209.6 196.8 186 179.3 173.7 167.3 157.4 142.7 135.6 128.6 128.1 128 125.4 122.6 120.4 117.3 117.2 117.2 117.2 117.2 117.2 117.2 117.2 117.2 117.2 123 123.7 124.5 127.3 131.3 142.5 160.4 184.5 204.5 220.1 234.6 248.9 259.9 272.8 286.5 299.6 311 321.6 336.7 353.7 375.6 406.8 416.6 412.7 398.2 407.7 409.8 409.1 408.5 403.8 401.1 401.1 388.2 365.3 339.8 316.8 293 277 305.4 331.5 357.2 382.6 407.6 432.1 453.8 476.6 483.4 491.4 509.9 530.4 523.6 524.8 514.8 511.5 504.7 496.4 491.2 493.6 501.8 515.6 522.7
529.9 522 514.3 504.9 500 494.4 486.5 481.8 475.7 468.3 460.7 453 446.4 439.2 436.3 434 434 433.7 428.5 426.6 430.1 427.2 426.8 433.5 438.3 437.7 429 420.1 407.1 394.2 387.8 378.3 368.4 357.3 349.4 344.3 346.8 359.2 375 392.4 409.8 435.9 441.6 460.8 463.2 475.5 499.1 520.6 539.1 557.1 570.5 588.1 599.7 611.5 623.2 630.7 634.5 639.8 645.2 652.5 667.4 677.2 677.9 668.4 648.5 626.2 601.5 573.7 557.4 547.8 537.1 528.7 519.4 511.9 503.8 495.2 485.3 481.9 476.4 468.7 462.1 455.1 446 438.1 433.1 429.5 426.4 424 420.2 411.9 408.4 408.2 402.4 398.4 393.4 387.5 381.8 366.8 356.4 342.6 333 327 321.7 309.2 297.4 290.1 284.4 278.2 274.6 272.7 265.8 254.5 239.9 225.5 211.3 200.6 192.3 182.5 177 172 164.6 154.9 144.7 136.9 131.5 129.7 126.9 125.6 124.1 120.3 117.2 117.2 117.2 117.2 117.2 117.2 117.2 117.2 117.2 118.1 118.8 122.7 121.7 126.5 131.8 144.8 167.5 187.7 204.4 220 234.8 246.6 259.2 273.5 286.6 299.6 312.1 322.1 340.7 366 399.2 408.7 404.4 392.4 393.3 399.9 399.4 399.5 395.9 387.6 378.3 364.8 352.7 326.8 301.7 277.9 282.4 310.6 335.3 360.6 386 410 432.2 453.6 475.9 479.4 489.8 507.2 521.6 523.5 516.5 514 510.4 503.4 491.8 486.4 488.1 498.7 506.2 513.5
528.4 520.7 514.4 506.2 502.2 495.6 493.8 488.4 481.5 474.1 464.7 458.6 452.7 447 443.3 440.9 437.7 433.9 429.7 427.2 419.3 420.7 422.4 427.5 429.7 432.2 424.1 413 400.5 387.1 378.2 368.4 357.2 348.4 343 335.1 338.7 354.9 367.7 382.2 396.2 407.6 426.2 443.6 452.3 466.5 491.7 517.9 536.3 556.9 570.3 585.6 598.5 614.3 625.8 633.8 636.1 638.4 648.5 661.8 676.9 682.8 680.9 671.5 653.5 622.7 598.7 582.2 572.5 560.5 550.2 540.6 531.4 520.9 512.1 503.4 497 492.2 487.2 480.2 473.9 467.2 459.6 451 443.6 443.1 440.7 436.7 430.2 421.3 421.9 421 415.5 410.1 403.3 397.6 384.6 370 358.2 352.1 340.8 332.5 324 314.4 305 296.9 290.9 284 279.4 274.1 271.3 258.9 242.7 229.2 216.5 208.6 201.3 191.5 184.7 179.1 174.8 166.7 156.5 149.1 140.8 133.3 128.3 126.3 124.6 120 117.2 117.2 117.2 117.2 117.2 117.2 117.2 117.2 117.2 117.2 117.2 117.2 117.2 117.2 124.1 131.8 150.5 170 188.3 203.9 220 232.5 243.8 259.5 271.7 287.5 299.5 311.5 327.2 353.3 379.4 391.3 390.3 384.3 378.3 383.8 385.1 388.4 384.7 378.1 360.5 348.5 331.7 310.1 283.6 260 289.4 314.1 335.3 360.5 385 409.7 431.9 451.4 469.9 480.2 492.1 499.4 526.3 525.9 518.1 518.3 512.1 501.6 488.7 484.3 485.6 487.2 494.6 500.4
525.5 518.3 512.6 506.8 503.9 500.6 497 492.8 486.8 478.1 470.9 464.4 459.4 455.5 449.9 448.8 441.2 433.4 428.7 425 423.6 419.6 413.6 420.2 422.2 422.7 414.7 405.4 392.9 379.9 366.9 359.7 347.8 340.9 335.7 322.6 330.1 351.8 357.4 369.5 384.5 390.2 405.4 425.9 437.1 458.6 482.7 510.3 531.9 549.9 566.2 581.9 598.1 617.8 631.5 636.9 639.4 639.6 652.4 666.8 681.9 688.5 684.1 677.4 653.1 626.4 603.2 593.7 580.8 573.7 568.1 561.9 553.9 539.3 526.5 516.3 509.6 502.1 497.4 490.4 484.2 475.2 468.8 461.6 457.1 454.2 452.7 447.4 440.1 433.4 434.6 433.7 427.7 422.6 418.4 401.3 389.9 380.8 372.3 363.2 349.9 339 328.1 317.6 305.7 300.5 293.8 288 282.1 274.5 268.3 256.3 245.3 234.7 223.3 216.2 209.1 199 190.8 185.6 182 174.2 164.1 152.8 151.2 143.6 132.1 126.3 124.3 119.5 117.2 117.2 117.2 117.2 117.2 117.2 117.2 117.2 117.2 117.2 117.2 117.2 117.2 117.2 117.2 122.8 128.9 150.1 170.1 187.7 203.8 217.7 230.8 242.4 260.8 276.1 286.9 298.3 314.9 336 366.8 377.5 382.7 371 355.1 360 366.6 375.6 370.8 351.4 340.4 328.8 310.4 289.9 260 268.5 295.1 317 338.1 361.9 385.4 410.1 430.5 449.3 464.2 476.8 489.7 505.5 525.3 529.6 520.3 516.8 507.6 498.4 487.3 483.2 483 485.3 489.2 498
527.1 518.5 513.9 511.5 507 503.3 501.3 496.8 490.7 487.9 478.4 470.3 464 458.3 455.5 447.3 442.7 438.1 434.1 429.8 427.3 422.9 413.5 412.1 411.9 412 405.7 397.3 385.2 369.7 359.8 348.1 338.7 328.1 325 315.5 326.5 341 345.2 358.5 373 378.6 391.3 416 430.9 449.1 476.2 496.7 521.9 541 558.7 577.7 596.4 620.2 632 637.1 642.1 643.4 656.4 670.9 684 693 693.8 690.9 665.8 639.6 617.6 606.2 600.6 594.8 596.3 582.3 570.4 558.3 549 532.2 523.6 512.4 507.9 502.2 494.6 486.1 479.8 473.5 470.1 467.2 463 456.2 450.3 448.3 448 446.1 441.2 435.6 428.2 417.1 406.8 398.2 386.8 375.1 360.5 350.6 339.2 325.9 315.7 307.8 297.6 288.7 281.8 275.3 267.2 259.7 249.9 241.3 232.3 225.2 217.6 208.1 197.9 193.2 186.8 178.8 167.3 165.7 162 156.6 143.5 130.5 124.4 122.2 117.2 117.2 117.2 117.2 117.2 117.2 117.2 117.2 117.2 117.2 117.2 117.2 117.2 117.2 117.2 117.2 120.5 130.5 149.2 164.6 185.8 201.1 214.6 228.9 247.2 262.2 276.1 288.2 302.6 320 348.3 366.1 366.4 369.1 341.6 334.1 340.6 345.9 342.1 331.2 318.2 307.5 291.7 270.4 246.4 273 299.2 321 341.4 366.4 388.6 409.9 433.3 449.6 455.3 468.2 490.3 506.5 522.5 527.9 522.9 516.7 504.9 492.8 484.3 481.7 480.4 481 484.2 491
527.9 519.5 515.5 512.9 510.3 506.4 503.7 501.8 498.2 492.7 484.9 479.1 470 464.6 458.6 453.4 449 443.4 441.9 435.8 429.1 423.6 419.6 411.9 403.8 403.6 396 387.6 376.7 361.5 354.7 340.7 330.4 322 313.5 310.5 316 325.5 335.2 343.5 359.3 370.6 386.1 405.3 424.8 443 467.6 488.2 509.5 528.1 550.1 572.2 591.4 618.9 626.3 631.6 643.9 649 661.4 671.2 684 695.6 699.6 698.7 692.9 677.5 654.3 625.8 609.6 610.4 598.6 591.4 583.7 570.2 558.6 546.6 535.2 524.9 518.9 513.7 506.1 496.6 492 486.7 483.2 478.4 472.7 467.6 462.9 461 460.3 457.2 454.2 450 443.1 433.6 421.9 410.1 398.3 383 368.7 360.9 351.3 340.7 329.4 317.2 304.5 294.5 286.2 276.7 270.8 264.2 256.2 246.4 240.8 234.7 226.1 216.1 206.7 197.3 188.6 178.6 178.7 179.9 177.7 171.2 160.2 143.2 135.6 125.5 121.5 117.2 117.2 117.2 117.2 117.2 117.2 117.2 117.2 117.2 117.2 117.2 117.2 117.2 117.2 117.2 117.2 125 130.8 148.9 167.3 182 198.2 213.1 230.5 248.4 262.2 274.4 287.2 300.9 320.5 346.6 338.9 334.3 322.4 311.1 312.3 315.8 314.1 307.2 295.3 285.6 271.7 253.7 250.2 277.1 302.1 323 345.8 367.7 390.3 406.7 433.5 441.5 446.9 466.1 488.8 501.3 519.4 527.9 526.6 519 507.4 494.7 483.5 481 479.4 478.5 480.9 487.8
531.2 524.1 517.8 515.4 512.9 509.6 506.7 505.7 501.5 498.7 493.4 484.6 478.6 470.4 465.6 460.5 454.4 449 442 434.8 433.7 428 420.9 414.2 405.7 392.9 386.7 375.5 366.1 354 345.5 337.1 324.6 311.9 306.6 309.6 310.7 317.2 327.5 334.5 347 362.7 377.4 393.9 414.2 436.9 461 481.3 504.2 521.3 542.2 563.6 585.5 610.8 616.2 626 639.6 654.6 664 673.3 683 692.7 699.9 708.8 713.2 703.6 674.9 644.8 622 617.8 609 601.5 592.3 582.3 576.8 562.4 552.6 541 531.9 524.8 517.3 509.9 502.5 499 493.9 487.7 485.3 481.4 476.3 473.1 469.9 466.6 465 461.9 455.6 446.6 434.3 419.6 407.2 393.6 380.6 370.8 360.5 350.2 338.2 325.7 314.8 304.8 294.3 282.1 274 268 260.1 251.5 246 241 234 224.7 210 197.2 190.5 191 190.9 192.1 190.5 185.5 177.3 165.6 153.2 139 130 118.2 117.2 117.2 117.2 117.2 117.2 117.2 117.2 117.2 117.2 117.2 117.2 117.2 117.2 117.2 117.2 118.4 124 130.4 147.8 167.3 182.1 196.6 213.9 231.5 245.4 256.3 266.4 276.9 288.2 297.7 303 301.7 296.3 286.8 283.2 286 286.6 282.5 275 263.5 248.3 236.5 255 279.8 303.4 324.7 345.4 365.3 386.3 404.5 429.1 435 447 469.8 488.3 497.2 513.3 528.9 536.7 528.7 511.9 496 486.3 480.9 478.9 476.5 478.2 483.9
531.9 525.8 519.6 517.8 515.5 513.1 509.8 506.7 505 501.2 497 491.8 485.1 478.8 470.3 462.6 456 451.5 446.8 443 437.1 430.1 423.1 414.3 406.1 394.9 378.6 360.8 354.6 346.3 336.5 329.2 317.2 307.2 302.2 297.8 301.5 307.5 315.8 327.4 343.8 355.6 366.8 384.4 403.8 429 450.5 472.2 493.9 516.7 540 558 578.2 596.5 609.3 624.2 647.2 660.1 665.6 673 678.9 687.2 709.5 720.8 717 706.5 684 655.7 638.6 625.1 617.8 616.1 608.4 599.9 589.1 577.4 563.6 553.6 545.5 537.4 528.5 523.5 516.1 510 502.6 497.6 498.8 497 492 485.7 477.9 477.5 474.3 469.7 465 456.7 445.3 432.7 419.5 410.3 396.2 382.5 369.9 358 346.2 332.8 323.2 313.4 302.4 291 280.2 269 261.5 258.1 252.6 246.2 240.7 230.3 215.3 196.2 200.3 203.2 202.3 201.8 201.2 198.2 191.6 182.2 170.7 158.6 146.6 136.3 118.4 117.2 117.2 117.2 117.2 117.2 117.2 117.2 117.2 117.2 117.2 117.2 117.2 117.2 117.2 117.2 118.2 124.7 133.8 152.6 167.4 183.6 197.7 213 226 235.8 242 245.8 255.6 258.8 263.5 269.1 269 266.6 257.5 259.1 260.7 258 252.9 240.9 222 237.5 260.6 281.9 301.4 322.8 340.7 359.3 377.9 399 415.3 432.2 448 469.5 486.4 495.3 506.5 531.7 545.4 543.5 522.9 505.7 495.2 483.9 478.2 475.5 474.4 479.6
530.1 524.5 521.1 519.3 517.6 514.4 511.8 509.2 507 504.9 500 495.8 491.6 483.4 473.5 468.5 465.9 458.3 453.3 447.5 439.4 433 425.2 415.3 406.2 396.2 379.3 361.5 345.5 329.3 327.8 319.8 311.9 301.6 297.3 296.7 295 297.6 305.8 322.4 335.3 347.8 360.6 375.5 393.4 416.2 441 463.7 485.8 509.9 532.6 551.3 571.6 589 608.3 627.2 647.9 662.4 666 671.8 678.4 695 720.6 725.1 726.1 711.7 695 679.6 657.2 644.5 635.8 627 619.6 614 605.8 588 575.3 562.1 554.8 547.2 541.2 535.5 527.8 520.7 513.7 507.4 512.1 510.9 506.5 499.1 491.5 488.6 482.6 476.9 472.6 465.1 454.6 441.3 430.5 419 409 394.9 378.7 366.3 353.9 342.4 331.4 321.3 310.4 298 284.8 274.9 269.6 264.4 259.4 251.9 245.7 234.2 221.3 208.6 212.3 215.5 214.7 212.5 208.5 207.4 203.4 196.2 186.6 175.3 163.3 151.1 137.9 128 117.2 117.2 117.2 117.2 117.2 117.2 117.2 117.2 117.2 117.2 117.2 117.2 117.2 117.2 117.2 119.7 124.5 138.3 155.8 169.1 181.9 193.7 204.6 212.2 216.8 220.3 229.3 232 232.8 240.5 244.9 243.5 238.7 235.3 238.6 237.8 232.2 221.3 222.9 244.6 264.1 283.4 300.7 318.2 333.3 349.9 368.3 387.5 408.1 426.8 447.2 465.5 483.3 494.4 507.3 534.8 544.9 544.6 530.1 517.5 506.6 485.6 481.2 479.2 473.2 478.5
529.3 525.4 521.9 520.2 518.9 516.5 514.1 512 510.3 507.8 504.9 500.1 495 488.6 482.2 477.2 471.9 465.1 458.2 452.3 446.1 437.2 429.1 418.5 410.2 399.8 384.6 364.8 349.7 329.4 310.8 304.5 305.3 297.1 294 294.5 290.1 292.1 300.7 315.4 326.7 338.4 353.8 367.8 385.9 405.2 431.5 453.7 477.8 501.6 523.8 544.5 565.8 588.1 605 623.6 641 655 664 671.4 687.5 703.7 723.9 732 736.8 726.6 717.6 703.1 685.4 674.4 666.1 645.6 637.7 633.2 622.1 603.3 588.5 575.1 566 556.9 551.9 546.4 537.9 531.3 524.9 521.1 524.5 524.7 519.9 513.9 507 499.9 491.5 485.4 480.2 472.7 461.9 450 437.6 425.9 419.3 410.8 390.2 374.6 361.6 350.3 337.7 327.7 317.3 307.2 294.9 283.5 274.4 268.2 263.1 257.2 248.8 237.5 223.6 217.6 225.7 228.7 226.8 221.9 220.4 215.8 212.1 207.2 199.3 187.5 177.1 165.8 154.6 143.3 132.1 122.5 117.2 117.2 117.2 117.2 117.2 117.2 117.2 117.2 117.2 117.2 117.2 117.2 117.2 117.2 120.2 125.5 142.1 154.3 163.1 173.8 181.9 186.3 189.3 197 204.9 209.8 211 212.6 217.7 221.1 218.4 212.6 216.3 217.9 211.8 205.8 224.8 244.4 262.7 280.3 297 311.5 323.2 340 361.6 383.5 405.5 425.8 444.7 461.2 479 493.3 513.4 535 550.4 547.3 538.5 529.3 515.3 499.7 487 480.7 472.9 472.3
527.8 524.6 521.5 520.3 519.5 518.4 517.7 514.8 513.3 511.1 507.1 504.2 500.3 495.9 489.6 482.8 476.6 471.6 467 458.7 452.2 444.2 435 422.6 412.7 398.4 383.7 367.1 351.4 338.1 315.8 297.3 294.8 293.4 293.2 290.2 287.6 288.9 296.4 310.7 318.3 330.6 345 360.4 378.3 394.8 416.8 445.2 468.9 494.9 517.7 538.2 559 581.8 599.5 614.7 628.8 649.2 661.7 677.2 695.1 715.7 729 740.3 747.5 742.6 732.4 721.8 712.3 701.5 688.2 671.4 656.9 646.4 639.4 619.1 599.2 584.1 574.5 567.9 563.8 558.6 550.6 543 535.5 538.2 538.5 538.2 534.8 529.8 530.1 517.6 503.7 496.9 489.6 479.9 468.5 457.8 447.1 436 427.6 417.5 403.2 383.8 367.5 359.1 347 336.5 327.3 316.7 305.4 293.3 283.3 274.9 266.2 259.6 250.8 239.4 222.8 231.9 238.6 240.2 238.7 234.8 231.2 227.1 221.2 216.7 210.4 203.1 192.7 181 171.2 158.1 148 139.2 128.4 117.2 117.2 117.2 117.2 117.2 117.2 117.2 117.2 117.2 117.2 117.2 117.2 117.2 117.2 117.2 127.3 139.1 147.7 152.7 157.6 160.8 161.9 170.3 178.8 184.6 187.8 190.5 195.6 199 198.1 195.1 197.1 199.2 194.1 202.3 220.4 237.9 254.2 271.2 289.2 302.6 318 334.8 355.6 377.4 398.9 420.8 441.1 457.3 471.7 496.2 520.5 535.9 553 559.5 543.2 533.1 522.7 504 495.5 486.2 474.3 468.7
527.7 523.2 521.8 520.9 520.2 519.3 519.2 518.3 516.8 513.8 512.1 509 505.6 499.2 495.7 487.7 481.6 477.2 472.8 463.3 457.6 451.4 442.2 429.8 415.3 403.4 385.4 367.5 351.3 328.1 318.9 302.6 291.9 288.9 285.2 285.4 284.1 286 295 305.7 312.4 322.3 336.9 352.1 365.5 386.7 408.6 437.6 460.4 487 511.8 531.4 551.5 576 591.2 611.5 628.8 644.6 662.4 682.2 703.3 722 740.9 747.9 759.4 755.1 750.9 741.8 735.6 725.7 709.7 696.8 681.4 661.5 647.7 633.5 607.3 591.2 581.9 577.7 575.6 570.8 563.4 553.9 549 552.6 552.2 549.9 547.7 547.2 545.1 530.2 511.9 506.5 497.9 487.3 476.2 464.3 453.9 443.2 434.6 422.6 406.3 386.5 378.3 370.6 359.4 346.8 334.6 324 313.4 301.5 291.5 282.8 272.6 263.1 253 240.2 232.9 251 251 251.3 249 244.8 242.6 239.9 236.1 230.7 223.8 217.1 207.5 195.8 186.7 175.2 164.4 155.6 144.6 135.2 123.8 117.2 117.9 117.2 117.2 117.2 117.2 117.2 117.2 117.2 117.2 117.2 117.2 117.2 117.2 124.4 131.6 130.8 127.9 136.1 140.3 141.9 151.8 157.7 161.2 163.8 170.8 176.5 177.1 178.6 180.4 181.3 179.2 193.9 211.2 227.3 243.6 260 281.2 298.6 312.6 328.3 347.9 369.5 387.6 411.6 434.3 453.7 470.7 495.6 517 536.7 554.4 556.1 546.9 535.1 523.5 511.6 503.3 487.9 471.7 467
527.2 522 521.7 523.6 521.5 522.1 520.6 520 518.5 516.9 515.5 512.3 509.1 506.6 501.3 494.5 488.7 484.2 476.7 468.7 463.8 456.6 447.4 436.3 421.6 406.3 390 373.1 360.7 342.2 323.2 309.2 296.8 292.2 288.9 283.5 281.9 284.1 291.5 295.8 304.5 313.9 324 343.5 358 375.5 397.7 426.4 452.6 479 501.5 524.6 544.8 566 585.8 607.5 625.9 643.1 664.3 685.1 706.4 726.8 755.6 762.7 770 771.9 766.8 763 757.8 749.4 733.7 721.6 707.7 686.1 660.3 641.6 621.4 601.7 595.3 588.9 588.2 583.8 575.8 561.2 569.2 568.4 565.5 563.2 562.6 564.2 556.9 545.8 519.2 511.4 504.3 497.2 488.8 472.8 456.3 444.6 429.1 419 405.1 395.3 390.7 381.4 365.2 352.1 340.2 329.7 319 308.7 299.2 290.3 279.1 268.5 253.9 241.8 259.3 263 262.9 261.4 258.5 255.5 253.9 251.6 247.6 243.1 237.2 230.7 220.6 212.4 202.5 190.1 180.5 172.6 163 153 141.8 131.7 123.7 122.5 121.3 119.5 118.4 117.2 117.2 117.2 117.2 117.2 117.2 117.2 117.2 117.2 117.2 117.2 117.2 117.2 125.2 125.4 129.2 134.1 134.1 136.1 143.5 153.1 157.3 162.8 166.7 162.5 167.1 185.3 199.7 214.9 236 256.3 275.7 291.6 306.1 320.3 339.8 361.5 381.7 402.5 424.7 449 469.7 491.9 513.9 530.8 547 553 554.5 541.7 527.6 515.8 506.2 488.2 474.8 464.7
527.6 526 525.2 524.7 523.1 523.7 522.6 522.9 522 520.4 518.7 515.4 516.6 512.7 507.5 502.1 495.3 487.5 480.7 474.6 467.7 461 453.4 441.3 424.8 410.1 396.9 384.1 362.7 347 329.4 313.8 300.5 293.8 287.4 281.5 279.3 281.4 286.5 289.9 294.9 304.4 315.7 334.3 350.1 367.2 386.9 417.4 443 470.9 492.2 516.1 536.8 558.1 582 602.3 620.9 644.5 665 684.4 702.2 728 763.7 781.3 785.2 785.4 782.8 783.9 782 778.5 764.6 750.3 734.1 714.8 680.7 658.6 637.8 617.4 605.1 601.7 599.5 595.9 588.1 578.5 585.4 581.2 578.3 580.5 582.2 582.2 572.8 553.2 530.8 519.4 513.9 508.8 499.2 488.4 473.1 452.6 436.2 421.7 411 408.7 403.8 381.5 367.6 356.3 344.7 334.2 324.2 315.3 306.9 296.7 284.7 270.2 251.8 270.3 273.7 274.9 274.2 273.2 271.2 268.4 267 263.1 260.6 256.7 251.9 244.2 235.3 226.8 216.5 204 194.5 187.8 179.7 169.5 158.1 147 138.9 131.3 126.8 123.9 120.7 117.2 117.2 117.2 117.2 117.2 117.2 117.2 117.2 117.2 117.2 117.2 117.2 117.2 117.2 117.2 120.9 122.4 124 126 129.2 133.2 141.7 150.9 154.4 152.2 163.4 182.1 195.7 213.1 232.3 250.3 269 284.7 298.1 312.7 332.1 353.7 372.9 393 418.4 443.6 464.1 484.4 507.4 523.9 545.4 556.6 557.8 546.6 535.1 522.2 500.6 485.9 475.2 465.5
526.2 524.5 524.4 525.6 524.9 524.8 524.3 525.5 525.1 522.6 521.8 521.3 521.9 519 514.9 508.8 501.8 495.8 486.2 479.6 472.1 464.3 458.6 447.6 433.5 418.7 402.9 388.9 373.5 354.5 334 317 305 297.2 288 280.9 274.9 276.8 284 285.3 290.2 297.1 306.6 323.7 342.8 354.3 377.2 406.2 434.7 462.1 485.2 508.8 530.8 552.2 576.4 595.9 619.5 644.1 661.4 681.6 698.3 725.3 760.8 785.3 798.4 794.3 794.5 800.5 807.9 808.6 796.4 780 764.6 733.4 709.5 679.7 658 647.1 627.5 612.8 610.2 606.8 599.6 593.9 595.6 592.8 593.2 602.5 606.1 598.2 582.8 567 545.9 533.7 522.2 516.5 498.5 482.8 466.4 455 443.6 431.4 422.3 413.8 397.6 384.7 370.8 358 347.2 337.8 328.2 319.7 311.1 301.3 288.3 269.6 271.6 284.6 283.5 284.3 284.7 284.6 284.2 282.2 279.7 275.5 272.9 268.5 264.5 257.1 248.9 239.2 229.7 219.1 208.6 199.8 193.1 184.7 174.5 163.4 152.2 141 132 125.6 121.6 117.2 117.2 117.2 117.2 117.2 117.2 117.2 117.2 117.2 117.2 117.2 117.2 117.2 117.2 117.2 117.2 120.8 123.4 124.7 126.3 130.3 136.1 143.6 145.8 149.8 163.2 179.5 191.3 206.5 223.7 239.7 260.1 275.8 288.1 303.9 322.7 345.4 364.9 386.7 412.9 437.7 458.9 475.9 498.4 516.5 538.4 552.2 558.9 552.6 528.4 515.3 500 487.5 475.1 465.1
526.8 525.6 526.3 525.7 526.5 527.6 527.3 527.2 526.2 525.9 524.5 525.4 525.5 524.6 520.5 515.6 506.8 500.5 492.7 483.7 477.8 470.3 461.2 454 441.6 426.2 408.8 392.7 376.3 358.4 342.4 324.1 308.9 297.9 287.7 279.5 272 274.3 279.5 282.8 283.4 290.7 300.5 316 332 346.5 368.8 392.4 424.7 451.7 476 501.3 524 546 570.5 592.1 616.3 639.5 655.6 677.6 694.2 722.1 752.6 780.5 799.9 799.3 802 804.6 810 811.2 819.7 809.3 792.7 763.8 750.8 713.9 679.4 669.1 650.1 633.9 622.3 618.9 603.5 607.2 608.8 611.1 618.6 630 630.3 624.9 614.3 595.7 565.1 554 544.2 523.5 498.4 480.3 467.7 456.4 446.5 435.3 426.5 416.4 404 386.1 373.4 360.7 349.7 337.3 328.7 319 310.7 303.7 292.5 274.9 296 295.7 293.4 294.2 293.7 293.7 293 292.2 290.7 288.6 284.7 280.6 274.9 270.8 262.5 251.9 244.2 234.7 224.3 213.3 202.9 194.3 185.7 175.2 163.1 150.1 143.6 132.5 124.3 117.2 117.2 117.2 117.2 117.2 117.2 117.2 117.2 117.2 117.2 117.2 117.2 117.2 117.2 117.2 117.2 117.8 120.1 122.3 125.7 128.3 131.6 137.6 141.5 147.3 162.2 172.1 185.9 198.3 215.2 232.1 250 267.3 280.7 295.1 314.1 336.5 357.8 378.2 405.2 429.3 452 470 491.1 512.4 533.9 554.3 561.4 554.1 538.7 519.7 503.5 484.3 469.2 459.8
524.8 524 524.7 526.2 527.3 528.5 528.3 528.3 528 528.3 528.2 529.9 529.7 529.5 527.2 522.1 514.1 503.7 495.1 488.4 480.8 475.3 466.3 457 447.2 430.1 414 398.8 381.9 364.6 345.9 328 310.7 298.3 289.1 280.9 274.3 269.7 273.6 278.5 280 286.2 294.2 307.4 322.9 339.3 359.8 382.9 410.8 440.6 464.7 490.6 514.6 539.6 564.7 585.5 609.4 630.3 650.2 669.8 690.1 714.9 742.9 770 794.5 803 801.4 805.9 802.1 803.2 809.6 812.9 794.3 783.2 766.4 737.5 704.9 684 667.7 656 638.4 628.7 622.4 626.7 633.6 637.6 647.4 658.7 657.9 651 635.1 615.3 588.5 564 543.7 524.9 502.4 481.6 467.6 457.3 445.7 434.3 423.3 410.6 398.6 386.3 372.5 356.6 346.5 336 329 318.3 314.4 309.1 298.8 292.1 308.4 306.7 307.2 305.9 306.7 304.7 305.3 305.5 304.3 303.1 299.8 294.6 289.1 283.6 274.1 266.1 258.3 249.7 239.8 228.1 215 201.5 191.7 182.1 169.7 161.2 155 146.9 137.3 125.4 117.2 117.2 117.2 117.2 117.2 117.2 117.2 117.2 117.2 117.2 117.2 117.2 117.2 117.2 117.2 117.2 118.3 121.8 125.2 127.5 129 134.8 140.5 144.8 155 167 178.2 191.6 208.6 223.9 238.1 259.2 274.2 289.1 305.8 328.6 350.7 372.8 396 421.4 445.5 464.1 486.4 506.8 528.6 552 563.6 560.9 546.8 531.8 512 489.3 471.7 457.7
524.7 525.2 525.9 527 528.4 529.7 530 530.2 529.9 531 532.7 533.8 534.5 534.5 532.4 526.7 519.2 510.3 502.5 494 488.4 480.3 471.4 460.1 450.1 434.4 421.4 405.1 385.2 369.3 351.3 334.3 320.5 305.4 290.8 281.1 274.2 268.7 270.7 274.8 276.9 281.9 288.8 299.8 316.3 330.7 351 372 396.4 428.5 454.7 479.8 505.5 531.8 556.5 578.9 603 623 639.6 659.8 682.5 703.6 729.7 753 779.6 793.4 789.9 797.5 787.8 793.3 796.4 801.6 786.8 774.7 764.9 745.5 723.1 714.4 696.4 682.7 658.6 653.8 656.8 660.9 660.3 664.5 669.1 677.2 678.1 670 661.4 626.3 601.1 571.3 543.9 521.3 509.7 489.7 469.7 456 445.6 434.3 422.1 408.9 401.1 389.7 378.3 366.3 355.2 342.2 334.3 326.7 321 315.1 310 317 321.1 322.8 320.1 320 320.7 320.7 319.7 319.9 318.1 318 314.2 307.6 302.3 295.8 287.4 280.6 270.8 262.4 253.7 242.1 227.8 212.7 197.3 184.1 174.2 171.8 165.2 154.8 145 135.1 126.3 117.2 117.2 117.2 117.2 117.2 117.2 117.2 117.2 117.2 117.2 117.2 117.2 117.2 117.2 117.2 118.4 121.6 124.4 125.6 126.9 135.7 136.5 141.4 150.7 161 172.8 186.3 200.9 215.3 231.4 249.6 266.9 282.6 297.4 321.2 344.7 366.2 390.6 416.3 439.5 459.4 480.4 501.5 523.9 541.6 559.2 564.6 562.2 549.2 526.7 500.5 475.6 458.5
522 524.1 525.9 525.8 528.9 530.1 530.6 532.3 534.3 535.1 535.7 536.2 539.6 539 538.4 532.4 526.6 516.8 510.6 503.9 495.9 487.2 476.2 465.1 453.3 440.8 425.4 407.5 391.6 374 358.1 339.5 323.4 310.2 294.3 282.3 274.7 269.6 267.2 269.8 273.3 276.6 284 294.7 310.4 324.7 338 362.8 386 411.7 443.6 468.6 494.2 520.6 546.2 571.4 594.9 614.9 633 648.9 671 690 717.3 732.9 756.3 776.6 769.6 778.3 774.8 777.5 789.1 790.7 782.4 767 753.1 736.6 718.2 713.2 704.9 688.3 674.6 673.7 673.2 674.5 687.8 691.9 692.4 693.2 693.9 694.4 680 641.7 621.2 596.7 561 528.8 512.2 500.7 478.6 460.3 450.7 438.7 425.8 418.3 412.2 400 389.6 379.8 368.8 355.8 344.8 328.6 328.4 322.1 335.4 332.3 336.4 337.4 336.7 338.7 338.7 338.9 335.3 335.8 335.3 333.6 329.1 325.8 320.1 311.8 301.5 296 285 273.3 263.6 251.8 239.2 224.1 205.8 195.1 189.9 181 173.4 161.8 152.4 143.6 135.8 126.7 117.2 117.2 117.2 117.2 117.2 117.2 117.2 117.2 117.2 117.2 117.2 117.2 117.2 117.2 117.8 120.6 123.4 124.6 125.4 128.1 129.5 138 147.5 156.3 168 179.7 194.9 208 222.6 237.7 257.7 273 287.9 313 337.1 358 384.3 409.9 433.6 454.8 474.9 495.7 519.2 539.3 552.2 564 575.1 560.6 529.6 500.5 474.8 458.9
520.7 523.2 525.2 526.7 527.9 530.9 531.6 533.6 536.8 538.8 539.5 540.5 541.8 541.8 539.8 536 529.8 524.3 519.5 512.2 507.1 496.2 483.9 470.2 456.1 443.2 427.4 412.5 395.3 378.3 364.4 346.7 325.8 310.4 297.1 288.1 278 270.2 266.1 267.4 271.1 274 277.2 284.4 304.1 313.5 327.7 350 375.8 396.2 430.9 458.1 481.5 509.9 535 562.4 585.6 605.5 620.9 639.1 657.3 676 702.5 718.9 736.4 756 750.9 753.7 757 762.9 773.9 780.6 774.6 762.4 754.2 732.7 716.2 708.1 704.1 688.1 682.8 689.5 688 691.6 699.9 699.8 702.8 704.8 703.4 703.1 696.7 661.5 640.3 610.9 576.8 549.7 520.9 507.6 489.7 469.7 459.9 448.3 438 429.1 422.9 413.7 399.8 387.9 375.8 365.1 354.6 344.9 337.1 337.6 348.6 345 349.7 351.2 354.2 354.4 353.4 354.2 351.8 352.4 351.8 348.1 343.7 342.4 338.2 330.3 320 309.9 299.1 285 270.9 259.2 247.4 235.8 224.8 214.9 203.4 193 180.8 168.9 155.9 147.5 143.5 136.5 122 117.2 117.2 117.2 117.2 117.2 117.2 117.2 117.2 117.2 117.2 117.2 117.2 117.2 117.2 119.2 122.5 121.1 120.9 123.5 126.4 135.2 141.7 149 159.3 173.3 187.9 203.4 215.8 229.7 249.9 267.6 280.5 303.5 326.4 351 376.3 402.7 425.6 448 468 487 512.7 536 552.7 569.6 577.6 559.1 529.3 499.7 475.6 457.5
520.2 522.9 524.5 525.6 528.7 531.4 533.7 536.4 538.8 542 543.9 544.2 544.6 544.5 543.3 540.3 538.4 535 528 521.5 513 499.9 490.6 478.7 457.4 445.1 430.9 415.6 398.9 383.4 366.9 350.2 330.6 315.5 302.7 294.2 282.1 271.1 264.9 266.1 267.9 267.8 271.4 277.5 295.2 304.9 320 342.7 362 381.8 419.1 445.1 470.5 496.1 524.8 551.4 577.5 595.4 611.3 631.6 648.4 663.7 687.4 705.6 716.9 732.6 731.3 737.9 741.3 751.5 756.8 769.1 769.9 758.6 744.5 726 706.7 698.4 700 691 694 695.8 692.7 699.8 702.7 700.5 704.3 708.5 706.1 706.7 704.3 673.3 657.4 625.4 589.5 565.5 536.2 508.4 490.5 479.5 472.5 464.6 451.6 437 423.9 414.8 403.9 393.1 381.5 368.1 359.1 353.1 344.2 356.2 361.7 355.5 362.7 365.9 370.1 371.1 373.1 373.6 374.2 371.5 370.1 366.6 362.3 360.6 357.3 350.2 340.5 328.8 315.8 299.5 281 266.4 258.6 248.7 241.9 233.8 218.7 208.2 194.8 184.6 171.2 160.4 152.7 145.3 136.1 128.9 120.1 117.2 117.2 117.2 117.2 117.2 117.2 117.2 117.2 117.2 117.2 117.2 117.2 117.2 117.2 117.2 117.2 117.2 117.2 124.9 128.9 142.5 155.3 167.8 181.4 198.6 212.4 226.6 244.9 261.8 275.7 291.9 314.7 341.8 367.4 394 416.9 442.3 463.7 478.7 507.4 532.4 551.7 568.2 576 554.6 520.1 497.9 477.2 460
518.9 521.9 524.1 527.1 527.6 531.3 534 537.3 541.7 543.9 546.4 548.2 548.5 547.7 547.3 548.2 547.6 540.8 536.5 530.3 518.7 509.3 499.8 481 457.6 446.6 433.7 420.2 405.4 386.5 369.8 354.3 339.3 321.5 307.3 296.2 284.6 271.5 265.5 262.5 262.7 263.6 266.6 273 288.8 300.6 314.6 334.5 351.2 371.6 404.7 432.3 455.8 481.8 510.5 542 568.7 588.7 601.1 622.2 637.7 653.3 668.2 690.9 698.8 707.5 709.2 717.5 729.6 742.3 754.1 760.6 763.7 751.4 736.7 711.6 699.2 696 695.8 697.4 699.2 702.1 699.2 701.9 700.9 696.9 696.9 702.8 702.6 697.3 708.7 695.1 666.8 636.9 612.6 584 541.8 524.4 504.7 489.9 481.9 470.8 457.5 443.2 430.1 421.9 410.6 394 381.5 368.9 362.9 360.8 356.8 367.7 373.7 369 376.8 380.6 384.8 388 391.5 395.2 397.5 397.8 397 391.5 383.8 379.9 376.8 370.7 360.1 346.9 332.7 315.9 298.9 279.4 270.5 261.7 257.1 250.5 241 228.8 214.8 199.2 184.5 174.9 165 153.9 146.9 139.4 130.6 122 117.2 117.2 117.2 117.2 117.2 117.2 117.2 117.2 117.2 117.2 117.2 117.2 117.2 117.2 117.2 117.2 117.2 117.2 124.8 132.1 147.2 159.7 174.8 193.3 208.9 222.9 239 255.6 270.4 281.8 300.3 331.3 358.5 386.9 412.4 436 457 473.3 502.3 529.1 553.1 566.2 568.7 547 515.5 498.9 482.9 463.1
517.6 520.9 523.6 525.5 529.7 532.7 536.6 539.2 543.8 547 550.2 551.2 552.9 553.5 556 557.7 557.7 550.2 546.4 536.3 524.6 514.8 502 480.4 462.1 446.1 438.9 421.7 405.6 389.2 372.9 358.3 340.2 324.8 311.5 297.3 286.1 274.4 267.6 263 259.9 260.7 263.1 267.3 281.6 291.4 304.6 322 340.3 360.9 385.5 414.4 439.1 468.3 495.8 526.1 566.9 582 599.2 612.4 625.8 642.8 653.8 671.3 684 686.4 694.9 704.8 722.8 739 753.3 745.6 748.2 735.3 720.2 703.5 702.7 703.8 698.1 697.3 702 705.4 704.1 705.9 702.5 696.6 692.1 695.3 694.2 678.7 697.1 695.9 682.9 655 622.9 589.8 557.1 530.6 510.2 492.8 481 469.6 458.5 445.4 433.5 421.8 405.1 390.1 377.3 371.8 370.8 372.4 372.4 373.1 381.1 376.6 390.6 397.7 401.7 406.2 412.1 413.7 421.4 420.3 419.4 408.7 398.5 399.9 395.4 387.4 377 363.6 348.8 332.3 315.6 299.8 285.7 274.9 269.4 264.1 259.1 247.6 232.5 215.1 200.1 186.9 176.7 168.1 162.4 153.8 144 136 127.5 124.4 117.2 117.2 117.2 117.2 117.2 117.2 117.2 117.2 117.2 117.2 117.2 117.2 117.2 117.2 117.2 117.2 117.2 125.9 139.7 154 166.7 185.3 201.7 219.3 231.9 248.7 262.8 273.3 290.9 321.6 349.8 378 404.4 429.8 451.9 473.4 499.3 527.3 553.5 561.8 562.6 543.5 526.1 506.1 488.7 468.6
515.5 519.8 523.4 527.5 531.1 534 536.9 541.1 545.1 549.5 552.5 555.4 558.5 560.7 562.3 565.3 566.1 560.4 557 549.3 533.3 515.4 501.3 485.2 463.7 448.2 437.1 423.8 409.2 392.6 376.5 362.1 348.3 329.5 313.9 299.8 287.9 278.3 270 263.3 259.1 255.1 257.4 262.4 270.8 283.7 296.9 316 330.7 351.8 373.1 400.2 424.8 452.1 478.5 506.6 559.6 568.5 591 607.5 621.3 635.1 646.5 657.4 667.4 670 681.5 700.5 718.8 733.8 742.3 738.3 735.4 727.9 714.4 711.9 716.8 715 704 700.7 707.3 708.7 703.3 699.4 697.5 692.2 685 686.8 680.1 661.8 680.5 681.3 672.3 663.9 639.6 611.5 576.9 546.5 518.5 507.5 489.6 475.3 463 448.4 434.2 420.7 407.6 398.8 388.3 378.2 382.5 386 386.6 383.4 389.1 391.2 401.7 410.1 416.3 425.8 433.5 439.8 440.2 442.4 439.4 432.3 423.5 417.5 410.6 400.7 389.2 376.5 360.9 343.2 326.9 313 304.8 296.9 289.3 283.2 275.5 263.5 245.8 225.8 210.6 199.1 188 182.8 176.9 168.8 158.8 147.7 140.1 135.5 126.4 124.5 124.4 121.6 120 119.8 117.2 117.2 117.2 117.2 117.2 117.2 117.2 117.2 117.2 117.2 117.2 117.2 133.3 148.4 161.4 178.3 196.5 213 229.4 244.7 255.2 268.1 285.9 312.1 342.7 369.4 397.2 424 448.9 471.9 503.2 529.1 550.3 554.8 549.7 543.8 524.9 511.9 492.6 469.2
513.9 518.4 524.7 528.5 532.3 536 540 542.2 546 550.3 555.7 561.8 565.3 568.5 571.2 574.3 574.7 571.9 571.6 562.9 537.8 517.3 502.9 487.5 464.9 444.7 439.6 427.1 413.6 397.4 378.8 365.7 350.9 332.3 316.8 303.6 291.3 279.7 271.9 262.8 256.9 254 252.6 260.1 268.6 278.2 290.7 306.2 323.1 342.2 363.9 387.1 409.2 435.5 462 492.6 535.4 552.3 575.7 598.1 614.3 624.8 635.7 647.3 653.1 654.3 671.6 692.1 715.1 737 741.7 740.6 738.8 733 724.7 725.6 728.3 727.5 714.5 706.8 712.1 712.7 703.2 692.6 687.3 682.5 671.4 670.5 664.4 651.7 651.5 656 664.3 661.3 657.9 642.8 605.4 568.8 538 520.7 505 484.4 466.9 449.6 436.3 423.5 416 406.7 396.7 389.3 396.6 401.8 401.3 398.8 404.1 405.4 410.5 421.7 429.3 440.2 449.4 459.5 461.7 461.1 460.1 454.2 444.6 432.4 422.4 411.1 398.6 384.6 369.2 348.7 330.3 324.2 320 316.9 310 303.9 293.6 278.3 259.4 238.5 221.3 210.7 203.5 198.3 192.6 182.5 172 159.9 154.4 148 142.7 136.2 130.7 129.1 126.1 124.2 118.7 117.2 117.2 117.2 117.2 117.2 117.2 117.2 117.2 117.2 117.2 117.2 127 143.7 157.8 171.8 190.3 206.1 225.9 240.9 253.2 265.4 283.4 306.8 335.6 365.2 392.6 418.3 442.1 468.8 498.8 523 542 553 555.4 534 518.2 498.8 483.1 462.6
514.3 518.8 524.2 528.7 533.1 537.5 541.3 544.8 548.3 554.3 561.2 567.3 571.9 577.5 582.7 585.4 586.7 588.1 583.1 566.9 536.4 517.1 504.5 482.1 460.7 453.1 444.3 430.4 417.2 405.5 388.5 371 353.8 335.2 320.9 305.6 294.1 280.3 270.8 262.6 255.6 252.1 250.4 258.7 265.7 273.8 284.4 296.8 313 331.3 351.9 376.5 395.4 420 447.7 478.5 502.7 533.8 560.9 587.1 602.7 616.1 625.7 634.1 643.4 647.2 662.3 684 707.1 731.6 745.8 748.7 745.6 741.6 736.8 740.6 742.1 736.3 721.7 714.6 715.5 713.7 704.2 686.2 677.2 667.4 655.5 651.4 646.9 635.1 636.6 646.8 651.4 656.8 667.7 663.8 630.3 588.9 564.3 534.5 516 486.5 464.5 452.7 439.5 430.5 421.4 413.8 404.9 407.2 413.4 418 417.2 412.9 419.6 420.2 421.1 435 442.4 454.6 465.6 476 484.9 480.2 482.2 474.3 464.4 446.8 431.5 416.5 403.8 390.7 376 356.2 342.8 342.7 340.5 336.2 329.9 322 310.3 293.7 272.2 255.2 243 234.3 225.2 217.6 210.8 202.2 188 174.1 164.4 161.9 156.2 150.6 144.8 137.6 131 126.8 120 117.2 117.2 117.2 117.2 117.2 117.2 117.2 117.2 117.2 117.2 117.2 117.2 137.5 154.2 168.3 184.7 204.4 225.9 237.4 247.9 258.6 282.1 301.8 329.5 358.1 387.8 411.6 433.4 462 494.9 513.3 527.3 549 562 557 527.5 502.4 471 454.7
514.5 519.2 524.8 529.3 534.5 538.9 543.4 546.8 551.5 557.2 564.8 572.7 579 584 591.9 597.1 600.8 603.7 596.3 563.3 537.3 513.2 497.9 477.1 464.3 453.7 446.4 434.8 423 410.2 392.3 375.3 359.8 343.9 326.6 309 296.2 282.5 271.5 263 254.9 251.1 250.9 256.7 263.1 269.4 278.4 289.2 302 321 339 361.6 383.4 404.8 436.8 462.1 487.7 519.6 551.8 575.7 589.8 603.1 616.3 620.9 623.9 636 652.9 675.3 699.4 719.9 739.4 747 747.7 743.5 744.7 747.9 744.6 738 722.2 714.4 714 712.6 701.3 683.7 669.4 658.7 646.7 633.9 626.2 618.8 621.6 633.2 636.5 646.7 660.3 664.6 633.7 599.3 581.2 554.4 536.5 504.4 485.8 466.3 448.1 435.8 431 422.9 421.4 422.8 430.8 434.1 434.2 430.2 434.9 437.4 436.6 447.5 457.2 467.7 484.5 498.9 494.9 494.2 499.3 494.8 478.4 459.6 437 417.9 402.9 395 381.3 365.1 362.6 359.1 356.8 353.8 347.5 338.7 324.9 308 290.1 274.8 260.2 254.5 245.2 235.2 229.3 220.9 207.9 193.1 183.3 174.6 168.9 161.9 153.5 150.1 143.3 133.9 127.2 118.8 117.2 117.2 117.2 117.2 117.2 117.2 117.2 117.2 117.2 117.2 117.2 132.1 151.4 168.6 184.8 206.4 224.2 235.3 244.4 262.5 282.6 301.2 326 354.8 382.5 404.4 426.2 452.1 479.7 506.7 533.4 549.4 561.7 559.3 536.4 503.8 472.5 452.9
515.6 521.7 526.4 531.6 536.7 539.6 544.7 549 554.2 559.6 568.3 577.1 583.8 590 600.3 608.2 614.5 616.6 605.2 574.3 543.8 517.7 499.8 488.5 471.2 454.1 447.9 439.6 427.4 413.6 397.6 381.2 366.1 350.2 332.3 315.2 299.5 285.2 272.7 263.9 255.7 249.2 249.9 252.1 258.7 264.4 273.1 281 296.5 308.3 328.5 348.9 374.1 392.7 423.2 450.2 471.8 504.3 537.7 565.1 577.2 590.8 605.2 609.1 613.5 624.7 641.8 664.1 685.9 706.3 727 737.9 745.5 744.2 747.2 751 743.7 735.4 719.9 710.1 709.4 709.2 697.8 677.4 661.1 652.8 640.4 626.8 614 605.8 608 613.1 625.6 639.5 644.3 648.8 636 628.7 605.2 580.4 561.1 521.9 497.9 486.6 465.6 448.3 442 440.2 437.7 437.4 445.3 450.1 450.5 447.6 449.7 453.9 454.9 459.6 472.7 484.9 505.9 515.1 515.3 514.2 511.8 511.9 494.9 468.9 441.2 430.6 412.8 401.8 392.6 385 382.8 378.8 377.1 374.2 366.2 353.9 341.5 325.9 307.9 288.2 279.5 274.1 264.7 254.6 248 239.6 226.7 212.4 202.1 190.5 180.4 171.1 164.3 161.9 154.2 142.9 131 123.6 117.2 117.2 117.2 117.2 117.2 117.2 117.2 117.2 117.2 117.2 117.2 127.4 147.3 167.5 186.3 207.4 223.1 233.4 239.5 260.8 282.4 301.9 323.1 349.8 377.4 400 420.2 447 476.6 501.4 528 551.4 565.4 551.1 526.2 495.8 470.5 450.9
517.4 523.7 529.3 533.4 538.1 542.4 545.4 549.9 556.8 562.2 572.2 582.5 589.6 601.2 610.2 618.6 627.7 625.9 612.8 589.7 560.5 525.7 503.7 491.6 471.8 457.7 452.3 444 434.1 418.6 404.9 389 374.2 359.5 339.2 321.3 303.8 292 277.8 263.1 256.2 249.4 247.4 248.9 256.1 261.2 266.8 275.1 287.9 302 321 339.2 362.8 380.8 402.4 430.4 452.5 488.9 522 552.7 567.1 573.6 589.6 596 602.6 609.4 628.9 652.1 670.8 689.7 711.1 725.2 736 743.6 746.1 748.2 738.8 729.3 718.2 706.3 704.5 701.8 693.7 668.2 651.8 644.8 629 616.2 603.3 594.9 595.3 595.6 612.3 630.1 631.8 636.9 627.6 624.5 610.4 594.7 566.9 541.9 514.1 499.8 485.2 462 455.2 454.7 453.3 448.3 458.8 464.9 467.2 464.8 464 469.1 471.7 473.5 485 504.4 522.6 531.8 531.2 529.9 523.4 513.3 492.6 481 461.6 447.7 430.5 419.3 416.7 410.4 407.3 404 412.3 408 388.2 372.7 359.1 343.9 326.2 306.9 304.3 295.1 282 271.8 265.3 257.3 244.2 230.1 216.7 203.7 192.6 179.8 177.7 174.6 165.9 155.6 143.9 131.8 117.2 117.2 117.2 117.2 117.2 117.2 117.2 117.2 117.2 117.2 117.2 117.2 143.5 166.8 187.3 207.4 221.4 231.9 238.3 261.2 282.7 301.2 319.9 345.2 371.5 393.7 413.7 438.3 468.3 498.2 532.3 555.2 561.5 544.2 514.5 490.1 468.7 455.5
517.8 525.1 530.4 535.9 540.5 543.9 546.8 553.8 561.1 567.2 576.2 586.6 600.4 611.4 623.3 631.5 637.9 633.8 621.5 598.9 570.5 543.8 513.9 491.9 470.9 464.2 455.9 447.8 437.8 425.4 411 393.6 377.9 361.8 347.2 331.3 311.4 294.9 280.8 267.3 255.2 248.1 244.7 246.3 253.9 261.6 264.3 268.8 281.9 294.8 310 329.7 351.3 370.5 385.2 407.4 432.8 472 507.7 533.8 552.2 558 567.1 567.2 585.6 595.1 612.2 635.9 657.1 676.3 692.3 713.6 730.3 742.4 745.6 742.1 734.6 724.4 716.4 704.3 699.6 696.1 684.5 655.2 636.6 631.4 616.9 606.7 596.9 584.7 581.4 584.7 591.5 606.9 611.9 617 612.3 614.2 608.6 602.9 589 560.8 534.9 510.5 494.6 475 468.7 469.2 467.8 462.8 469.6 477.9 485.7 484.9 477.5 482.5 488.7 489.9 494.7 507.8 527.1 541.5 546.1 535.1 534.3 524.2 509.8 500.5 480.4 460 444.4 436.7 432.1 433.9 440.7 435 450.3 433.3 410.9 397.1 380.4 369.6 356.4 347.9 346.6 330.6 308.1 294.4 285 275.7 261 246.8 231.5 217.5 208.1 194.1 193.5 189.7 181.6 170.1 156.7 140.7 123.9 117.2 117.2 117.2 117.2 117.2 117.2 117.2 117.2 117.2 117.2 117.2 138.4 165.3 186.8 207.2 221.6 230.7 239.3 261 282.8 301.2 318.4 341.1 365 385 403 433.1 465.2 495.2 526.5 554.8 559.2 539.9 507.5 493.5 473.1 458.9
518.8 527.3 533.4 539 542.7 545.6 552.5 558 565.2 573.1 581.7 596.8 611.4 622.5 631.8 641.4 648.1 644.3 621.6 600 568.8 543.2 531.3 503.8 482.8 469.3 459.7 450.5 440.4 429.7 416.6 400.1 384.7 367.9 351.5 335.1 318.9 298.8 283.4 269.3 259.6 248.4 243.8 244.3 250.5 256.2 266.2 269.3 279.6 288.3 301.3 318.2 338.7 359.4 374.7 391.1 411.6 451.3 487.7 526.2 536.8 543.9 550.7 559.7 571.8 586.5 601.2 621.8 644.3 664.8 688 713.5 733.2 745.3 745 739.2 732 721 716 703.4 696.9 685.9 674.3 649.8 630.6 623.8 610.8 595.3 585.4 577.6 565.9 574.9 580.4 591.9 598.3 602.3 606.1 607.9 609.6 606.2 599.8 571 542.9 511.3 497.9 484.4 482 481.9 482.1 477 481.8 493.6 503.4 501.4 494.3 498.6 502.1 507.1 510.6 516.2 531.5 545.8 557.4 564.5 554.2 546.2 536.1 520.4 501.7 478.8 463.7 452.3 454.5 461.5 462.9 461.8 468.6 454 441.1 423.9 402.9 389.8 380.1 387 379.6 367.7 344.9 321.2 307.2 293.7 280.3 266.2 248.4 236.8 227.3 219.5 214.2 204.3 195.4 183.9 166.6 148.3 129.7 117.2 117.2 117.2 117.2 117.2 117.2 117.2 117.2 117.2 117.2 117.2 133.4 163.1 186.5 207.2 221.7 228.3 240.2 259.8 280.7 298.7 314.2 335.1 356.5 375.3 398.7 428.5 463.1 491.3 517.6 542.3 543.5 531.7 514.4 496.2 476.3 461.3
522.4 529.6 535.2 539.2 543.7 550.9 555.2 562.1 571.6 582.1 591.1 604.9 619.2 630.2 640.2 648.8 652.2 645.8 630.2 602.9 572 554.7 545.2 510.2 490.7 477.2 466.7 454.4 444.9 433.8 421.7 405.2 389.6 372 355 337.8 322.1 307.1 291.4 276 261.5 249.8 244.2 241.6 249.7 253.4 256.2 263.2 269.5 282.5 292.8 309.5 327.4 345.7 363.9 381.6 398.5 425.1 459 508.2 517.5 524.3 531.7 542.5 558.7 577.9 594.5 621.1 637.5 666.7 694.4 718.5 739.8 748.7 744.3 736.4 725.9 719.3 711.5 700 689.7 675.1 652.7 637.7 617.5 610.8 603.2 592.2 573.7 565.5 559.6 565.3 571.7 585.4 590.3 597.3 601.1 606.7 609 608 604 576.1 544.2 517.1 499.3 498.1 492.7 493.9 495.3 493.3 494.7 510.5 522.2 514.3 509.2 514 517.4 522.2 526.8 533.3 538.7 553.3 572.9 581.8 584.5 569.3 555.8 539.5 519.4 501.2 472.6 458.1 465.6 482.3 494.4 495.4 496.1 498.3 480.5 452.9 433.9 427.9 422.3 418 416.1 405.7 379.6 355.4 337.3 313 299.6 286.2 268.7 255.3 250.4 243.9 234.5 221.9 208.3 194.3 174.7 149.6 127.7 117.2 117.2 117.2 117.2 117.2 117.2 117.2 117.2 117.2 117.2 117.2 128.7 160.3 184.6 209.2 220.9 224.6 239.1 255.2 277.1 295.6 308.2 325.7 347.3 368.7 394.5 421.6 454.6 485.6 510.4 529.9 535.4 527.9 513.7 498.9 481.3 465.5
524.2 530.9 537.4 541.1 545.7 554 558.7 568.2 578.5 588.4 601.3 612.2 624.6 637 646 654.2 664 660.9 639.4 607.9 583.3 564.2 551 514.2 497.2 487.8 469.9 458.1 447.9 437.3 425.2 414.3 394.5 377.2 359.9 344.3 326.6 309.5 294.1 274.8 261.6 251.4 244.5 240.6 246.4 250.6 256.2 259.6 267.2 276.7 286.6 298.5 316.6 335.6 358.1 371.4 386.6 411.8 441.7 472.8 493.1 505.7 514.3 533.6 550.1 570 590.7 612.3 642 669.6 695.4 721.9 742.8 750.5 741 730.4 723.4 718.9 706.3 693.2 680.8 665.8 646.9 620.3 603.8 599.8 592 581 572.3 559 552.8 553.6 559.9 572.2 582.4 588.8 594 601.8 605.2 608.4 604.6 580.5 546.2 523.4 519.8 512.2 505.4 504.5 508.1 506.8 507.4 526.1 538.1 525.4 522.9 529.7 531.6 537 541.3 546.7 552.2 557.3 575.1 591.1 600.4 595.2 574.7 550.5 527.3 506.5 491.2 485.8 478.6 507.6 525.8 531.4 530.7 518.3 511.8 482.6 479.5 465.4 457.3 456.3 442.5 429.3 403.1 379.8 355.3 334.4 320.6 305.2 285.4 276.5 273.3 265.5 254.2 238.8 220.4 202 179.3 151.2 126.6 117.2 117.2 117.2 117.2 117.2 117.2 117.2 117.2 117.2 117.2 117.2 128.2 157.8 182.9 207.4 215.8 218.1 235.1 252.8 275 292.5 304.6 319.9 339.2 361 390.3 418.8 447.1 473.4 500 518.9 528.6 531.5 515.8 502.5 489.1 474.7
524.5 530.4 537.1 541.7 548.1 558.5 563.6 572 584.4 595.8 609.6 619.4 628.9 642.8 651.4 663 670.7 665.8 648.5 620.7 596.9 567.6 546.2 514.7 499 491.1 475.2 461.4 453.7 444.2 430.9 417 402.8 384.2 365.8 346.6 332.7 313.3 295.1 278.6 261.8 251.9 243.2 240 242.4 247.5 251.7 257.1 266.9 275.4 282.5 293 308.5 329.6 352 365.2 378.8 400.4 429.6 453.4 473.9 485.6 497.9 518.6 545.6 569.3 589.9 616.5 644.9 673.3 698 723.1 742.7 746.7 737.1 731 724.9 719.2 705.1 689.6 675.8 658.3 639.1 616.5 597.2 589.6 586.8 570.5 559.1 546.6 541.6 543.7 549.1 559.6 569 578.4 586.5 601.8 600.2 605.6 605.1 584.9 563.3 543.7 538.5 527 517.7 517.8 519.9 517.6 518.5 540.2 547.6 534.2 539.8 546 551.2 559.1 563.6 566.2 570 576.3 580.5 589.2 603.8 612.6 599.7 578.6 550.6 544.9 539.1 519.4 502.3 523.6 546.8 558.2 556 548.3 535.6 521.2 522 499.2 480.6 479.4 471.3 450 427.7 401.1 381 361.6 344.1 322.1 306.4 300.4 295.1 285.1 275.8 257.4 234.6 209.5 184.2 161.1 136.1 122.6 117.2 117.2 117.2 117.2 117.2 117.2 117.2 117.2 117.2 117.2 129.5 158.3 181.4 202.7 209.3 214.7 232.9 253.3 272.7 289.5 302.3 314.7 334.2 357.7 388.1 418.2 447.5 471.4 495.6 518.8 533.6 543.2 534 515.7 503.6 489.2
524.2 531.3 536.9 543.9 553.4 563.2 571.9 578.5 589.6 599.9 613.1 623.4 632.9 645.2 658 668.4 673.6 668 654.5 634.4 611.8 566.8 540.5 517.6 505 498.9 478.7 469.1 458.9 447.4 433 420.9 402.7 389.7 366.4 349.7 334.8 318.4 302.2 282.5 265.7 254.4 242.7 241.5 239.9 242.8 247.2 253.4 265.6 272.6 276.4 285.8 302.9 320.7 342.9 357.7 372.5 391.7 416.8 439.8 449.4 471.7 494.5 522.1 546.5 573.9 596.7 617.2 645.1 674 701.5 724.6 740.2 743 734.9 733 726.3 716.7 701.2 684.3 671.2 652.4 626.9 609.5 592.2 574.4 571.2 556.1 547.1 535.1 530.4 536.6 540.2 545.3 555.5 565.8 579.3 592.5 595.5 603.4 605.1 596.7 587.1 569.2 557.7 547.4 538.7 531.5 531.8 528.3 534.3 554.9 559.2 547.2 555.6 564.6 569.3 577.2 584.1 586.3 592.8 595.9 603.6 611.1 609.5 627.7 630 613 593.2 579.2 568.6 546.9 529.8 559.7 571.1 575.5 577.5 576.5 575.8 573.2 572.8 535.4 510.3 493.8 490.4 478.8 452.2 431.5 410.7 396.5 365.2 341.9 326.2 322.7 319.7 311.8 298.6 277.8 252.7 224.6 196.7 171 143.1 126.2 117.2 117.2 117.2 117.2 117.2 117.2 117.2 117.2 117.2 117.2 131 156.3 178 197.6 205.3 210.6 228.9 249.4 268.8 285.3 299.9 312.2 333.7 354.3 383.7 415.5 444.3 473.2 499.8 519 529.9 535.9 538.3 530.9 508.3 490.6
524 530.1 538.3 544 553.9 566.2 574.9 578.9 588.3 600.9 612 622 632.5 648.1 658.3 668.2 670.9 668.2 665.1 645.5 612.3 569.8 540.9 517.4 509.6 497.7 483.2 469.3 460.6 449.5 434.9 426.2 413.2 403.9 375.5 351.8 335.6 319.7 302.8 284.4 270.9 255.1 246.2 240.1 239.4 242.2 245.1 249.2 257.6 265 272.8 284.1 297.5 310.9 328.3 349.6 367.1 383.1 394.7 418.5 443.8 469.7 495.8 523.8 550 578.7 601.6 617.7 642.8 671.9 705.7 728.3 741.3 739.6 734.2 734.3 726.1 711.7 694.2 679 667.1 644.7 623.3 608.9 585.9 566.9 554.3 541.4 529.6 527.2 521.4 528.5 534.1 537.1 547.6 556.1 571.5 584.8 590.2 601.6 605.7 612 609 601.2 591 582.6 566.7 551.4 545.8 545.5 544.2 563.9 571.1 560.2 572.9 585.6 586.2 592.6 601.4 606 618 619 630.3 639.6 641 645.7 645.2 649.2 628.7 601.8 586.3 561.1 559.3 598.7 600.2 597.3 600.8 611.4 616.1 612.4 603.7 569 536.5 512.3 496.5 501.6 491.1 478 455.3 411.1 388.4 358.2 352.5 356.7 352.4 341.4 324.7 305.9 270.4 240 212.5 181.3 153.7 127.1 118.6 117.2 117.2 117.2 117.2 117.2 117.2 117.2 117.2 117.2 132.7 156.1 176.6 194.8 201.5 204.4 224 242.9 260.4 279.2 296.9 310.4 328.8 348 375.3 411 441.4 467.3 493.6 519.5 534.9 541.9 538.4 526.7 517.1 510.1
523.3 530.4 539.1 547.3 553.8 565.1 570.3 575.9 586.3 598.2 608.9 620.5 628.5 645.4 657.5 667.8 670.2 668.2 667 657.1 624.1 579.9 546.8 522.6 511.3 500.5 485.5 474.4 463.6 450.4 441.4 431.6 423.1 411.7 383 358.9 339.4 322.5 307.2 290 274.8 262.5 245.9 239.4 238.3 243.1 243.9 247 252.7 259.4 266.7 277.2 288 303.7 320.4 337.9 357.4 371 397.7 422.1 444 474.8 500.9 526.7 550.9 579.8 603 619.4 641.6 674.3 705.1 729 736.6 735.7 729.4 731.4 721.9 703.6 687.6 677.6 664.1 638.4 614.3 596.1 573.5 556.8 541.2 526.9 521.2 518.7 512.1 521.4 530.1 533.8 541.7 551.8 566.6 574.7 588.8 599.4 608.3 619.7 621.9 623.4 620.8 619.3 596.6 569.1 560.1 563.2 565.5 565.9 582 574.4 586.8 600.5 606.3 615.2 624.1 637.7 644.8 653.4 657.9 661 661.5 670 666.1 654.8 647.1 620 598.6 587.2 592 614.4 624.4 625.1 632.7 636.3 650.8 638.3 628.5 598.2 565.9 542.8 535.7 532.1 545.3 512.7 477 429.9 402.5 376.5 377.8 389.3 384 372.4 353.6 326.6 296.2 261.3 228.4 192.7 161.4 130.4 117.2 117.2 117.2 117.2 117.2 117.2 117.2 117.2 117.2 117.2 132.5 154.8 176.3 192.2 198.5 201.7 218.9 238.7 259.8 275.8 294.8 309.6 326.6 346.2 371.3 404.1 437 466.8 492.7 515.7 534.9 534.7 530.7 529.9 521.7 514.6
523.9 530.5 538.9 547.9 553.7 560.9 569 574.4 580.2 591.2 604.2 613.2 623 634.5 647.9 660.3 663 663.8 664.3 658.4 633.9 590.1 557.8 535.7 516.2 502.6 491.2 481.8 469.5 457.3 446.4 439.8 431.1 417.2 385.7 364.8 345.8 328.2 312.3 293.4 280.4 263.4 246.1 238.7 237.4 242.9 242 244 248.4 258.8 263.8 272.1 285.6 295.3 311.8 323.7 346.3 372.2 400 426.2 444.4 472.3 497 522 545.5 573.8 600.1 622.9 640.7 670.3 701.6 724.9 730.4 728 722.3 724.8 712.7 695.3 685.6 675.5 657.1 630.9 605.9 582.8 557.7 543 531.2 524.4 511.8 507.9 506.4 515.2 526.2 531.2 539.9 547.9 561.7 574.9 589.7 600.7 614.5 626.1 629.6 636.6 631.9 634.1 621.9 591.7 576.5 581.2 584.1 585.8 588.6 592.5 605.4 617.1 636.1 643.7 658.2 671.7 679.7 685.7 690.8 685 674.9 684.9 686.8 666 657.2 651.1 641.6 637 627.8 650.7 656.4 661.9 673.5 654.5 658 660.3 649.8 613.1 590 603.5 595.9 583.4 569.5 523.3 478.2 444.8 417.5 399.1 404.2 412.9 407.3 397.8 378.6 353.3 330 301.6 251.5 198.7 163.1 130 117.2 117.2 117.2 117.2 117.2 117.2 117.2 117.2 117.2 117.2 131.5 154.1 176.4 190.8 194.2 199.4 217.4 236.9 257 276.8 293.2 308.9 325.4 344.6 371.4 400.3 432.3 468 494.5 508.1 518.7 526.3 532.5 538.6 532.1 522.7
524.6 531.4 540 548 553.4 559 565.3 572.8 579.8 587.3 598.9 606.6 614.9 623.3 637.6 648.8 656.1 662 661.6 657.9 638.2 594.9 570.1 545.4 530.1 514.8 496.1 486.4 473.4 466.8 455.6 448 429.1 421.3 388.5 371.1 351.1 331.2 313.8 295.6 280.2 265.2 249.3 241.9 237.1 237.2 239.1 241.4 248.7 255.7 259.1 270.6 280.1 290.6 301.7 324.1 342.3 367.5 395.9 426.1 447.1 471.8 493.6 514.9 540.3 568.2 593.6 619.4 637.4 663.9 691.4 716.3 717.6 720.3 715.5 713.8 700.9 686.6 680.6 666.8 644.6 620.6 598.2 578 551.8 533.1 520.3 511 503.6 502.9 502.7 509.9 520.8 530.7 540.9 553.4 564.7 578.7 592.3 606.4 622.2 631.7 639.8 646.6 644.8 644.7 636.5 610.3 598.5 601.5 608 604.9 603.8 608.2 621.4 633.9 652.3 662.5 679.9 690 698.9 703 695.5 690.8 676.3 691.2 686.4 671.1 659.1 663.5 671.2 671.5 660.1 690.3 695.2 685.6 689.7 677.1 674.9 668.1 653.7 630.7 625.3 618.3 607.9 596 581.5 537.4 488.6 452.4 421.5 424.7 426.9 432.7 433.7 423.6 409.8 394.8 360.4 330.6 269.7 198.8 161.3 128.9 117.2 117.2 117.2 117.2 117.2 117.2 117.2 117.2 117.2 117.2 131.9 156 177.8 187.4 188.2 194 218.3 232.9 255.9 275.9 291.8 308.2 324.1 343.3 371.9 404.3 437.3 472 498.9 512.7 515.1 523.6 529.6 532.9 537.5 526.5
522.8 530.9 539.7 545.9 551.2 556.5 562.9 572.5 577.2 583.1 593.9 599.1 607.5 618.5 634.1 644.5 652.2 659.7 658.9 650.2 631.8 598.7 577.5 552.9 530.2 517.3 503.1 489.9 486.1 478 464.1 446.6 423.9 408.9 390.5 377 356.8 337.2 319.3 300 281.4 273.7 254.7 241 235.9 235.1 237.3 239.1 245.2 250.4 255.8 264.9 273.6 282.6 299.4 317.1 337.8 362.3 391.1 421.6 445.3 468.7 488.2 510 536.6 559.3 584.4 609.8 632.6 662.4 686 701.2 705.7 704.1 708.8 704 692.8 681.9 675 659.3 633 616.4 587.9 567.9 552.6 531.2 516.7 507.3 496.9 490.6 495.5 506 517.2 527.9 541 555.4 567.6 581.3 596.4 613.5 627 637.2 648.3 654.8 655.9 651.8 646.6 620.6 630.1 630.1 621.4 617.8 617.6 632.9 645.8 647.1 657.3 669.7 682 694.5 703.2 708 700.7 691.2 674.9 678.4 686.7 676.4 664.9 664.6 676.3 679.9 672.8 709.5 708.3 706.3 693.4 695.9 696.3 670.9 650.1 633.5 639.6 624.7 620.5 608.7 576.4 531.5 492 462.6 454.3 460.7 462.6 456.9 444.3 446.3 439.8 423.2 392.6 352.9 272.4 207.7 162.6 129.3 117.2 117.2 117.2 117.2 117.2 117.2 117.2 117.2 117.2 121.4 131.9 155.2 171.7 180.8 186.3 193.9 212.4 235.2 258.6 277.2 291.5 308.7 324.5 343.3 370.4 401.9 434.6 465.7 485.7 500.1 513.8 520.7 526.7 528.2 531.7 526.6
520.8 528.5 539.7 544.4 549.5 554 557.8 564.8 569.4 577.8 587.2 593 602.1 615.3 629.1 639 645 652.7 652.9 647 629.6 610.7 584.3 560.7 535.2 519.8 519.1 500.1 498.4 480.8 461.4 438.2 422.1 402.9 395.6 386.1 365 343.1 322.6 302.5 288.4 271.8 255.3 246.9 239.2 237.1 234.9 236.4 239.6 246.3 251.7 258.7 268.7 281.6 294 311.7 332.6 358.8 383 415.6 438.4 459.9 481.6 503.2 531.2 553 573.3 596 620.9 653.6 679.1 692.1 700.4 694.7 699.7 694 685.6 674.5 665.1 649.8 623.7 602.8 583.3 566 551.5 529.3 512.1 503.7 492.3 488.7 492.8 502.6 513.2 526.1 540.2 556.3 573.6 585.1 601.8 618.8 632 643.6 654.9 658.8 661.8 654 655.2 646.8 651 644.6 634.7 631.7 631.9 650.8 657.7 661.5 672.5 681.3 688.6 689.7 696.4 710.7 701.9 690.2 672.9 679.7 683.9 685.7 674.9 665.6 669.1 674.9 672.8 700.8 712 703.3 690.4 691.2 689.5 670.2 644.8 631.4 632 628 617.7 612.8 570.9 535.6 491.9 465.4 478.5 491.4 487.7 468.4 455 441.7 442.2 427.6 400.5 371.9 278.5 215.9 155.3 127.3 117.2 117.2 117.2 117.2 117.2 117.2 117.2 117.2 117.2 124.6 134.2 151.3 165.8 177.3 183.4 199.1 219.6 241.5 261.7 279.3 292.1 310.3 327.3 343.3 366.5 394.4 428 451.8 476 496.3 510.2 516.9 524.8 526.6 522.7 513.1
519.6 528.2 538.1 543 546.9 551.4 553.8 558.6 565.3 574.3 580.4 587.7 598.3 609.2 622.1 632.8 637.9 645.5 649.4 646.8 632.6 618.5 594.7 567 548 524.8 516.7 505.6 500.7 475.9 457.2 435.9 416.7 405.9 405.5 394.6 368.8 345.9 328.1 309.2 288.7 270.7 262.6 253.4 245.4 239.5 235.3 236.5 238.8 242.4 249 254.4 265.2 274.9 288 308 326.1 350.2 378.6 408.6 430.9 452.9 476 499 524.9 549.2 566 588 615.5 638.5 666.5 681.5 693.9 685.6 689.6 684.1 678 668.9 657.7 637.9 618 594.6 578 558.7 547.4 529.4 506.9 496.7 488.6 483.5 486.9 497.1 510.3 523.6 537.8 556.8 574.9 585.7 606 622.7 636.8 647.9 658.8 661.4 662.8 655.7 653.3 656.5 665.6 666 652.1 645 646.3 657.4 666.4 668 674.7 689.7 694 694.8 692 696.2 693.3 683.3 670.8 677.7 683.1 689 691.2 683.6 673.9 681 674.9 681.3 695.4 693.9 682.2 674.2 676.7 662.2 638.2 624.6 624.7 628.3 622.5 599.6 559.1 528.4 496.4 488.1 504.2 515.6 499.1 477.6 456.3 421.4 430.5 420.1 399.2 350.3 290.9 198.5 149.3 122 117.2 117.2 117.2 117.2 117.2 117.2 117.2 117.2 117.2 124.8 134.9 151 165.1 173.7 179.3 200.7 222.2 242.7 263.7 279.8 294.2 312 328.6 343.4 366.4 389.2 417 445.7 477.1 495.4 504.5 509.8 512.6 516.6 516.2 512.2
519.8 527.9 535.2 540.1 543.7 548.1 552 555.9 561.3 568 575 584.1 596 605.9 613 623.5 629.3 640.8 650.6 648.5 634.5 623.1 602.9 573.8 545.2 523.9 518.1 503.3 500.2 472.4 453.7 434.7 418.1 408 399.2 391 370 349.2 332.2 308.8 291.6 275.5 267.5 259.4 249.9 244 237.2 234.4 236 239.2 245.6 251.9 260 270.6 285 305 324.2 343.7 369.3 396.6 425.8 446.7 469.9 491.3 515.1 542.5 559.3 583.9 607.7 632.3 649.1 669.3 678.8 678.9 679.2 675.6 676.8 666.1 651 629 609.6 588.4 567.7 549.3 532.6 514.6 499.3 490.7 482.7 476.8 479.7 491.7 505.4 519 534 557.2 573.2 586.8 609 624.5 637.1 647.6 658 659.9 660.1 655.4 657.6 660.6 668.8 675 668.8 655.6 660.5 667.2 669.7 673.5 677.8 684.4 691 687.7 687.7 690.3 690.1 680.8 668.5 668.5 682.8 695 700.3 692.2 671.8 672.4 670.3 677.7 684 682.4 671 666.5 664 651.1 637.3 612 621.7 618.3 611.7 578.7 555.6 534.4 511.8 513 529.4 524.6 506.9 476.8 432.1 393.3 401.8 396.2 373.2 321.8 247.9 197 156.2 127.8 117.2 117.2 117.2 117.2 117.2 117.2 117.2 117.2 117.2 121.5 135.2 151.2 162.6 169.5 176.7 200.1 222.5 243.9 263.5 279.7 291.9 312 329.4 345.7 365 386.9 412.6 440.5 472.1 493.6 498.2 500.4 505.8 511.2 512.5 508.5
520.5 527.6 533.4 539 543.4 547.8 551.7 557 560.8 564.7 570 579.1 592.6 602.1 608.6 617.7 623.1 635.5 642.7 643.9 644.6 632.3 605.2 577.8 550 530.9 514 506 495.5 462.9 445.8 431.5 422.3 412.9 399.1 383.7 370.9 354 341.5 324.3 303.4 282.3 273 261.9 253.4 247.3 237.3 232.1 231.9 236.6 241.3 249.8 257.7 265.9 281.1 299.7 316.7 336.1 363.4 390.8 417.4 437 463 483.8 505 523.7 550.2 573.3 596.5 615.7 636.4 658.4 670 677.4 673.9 664 667.7 659.1 641.2 622.1 598.2 583.8 563.7 540.1 525.2 508.9 490.4 482.3 475.2 467.2 473 485.5 500.6 515 533.3 553.3 569.7 587 609.4 625.8 635.4 642.1 652.9 655.7 653.3 650.6 659.5 661.7 663 677.3 676.8 667.1 677.1 680.4 674.5 679 686.8 688.8 686.4 682.9 678.3 682.1 678.9 672.5 655.2 661.3 670.2 692.3 697.3 694.6 674.3 662.4 660 672 676.8 677.7 663 657.2 649.6 640.8 623.8 609.1 607.9 616.6 595 567.7 553.1 540.2 522.4 536.6 541.5 525.8 501.6 434.9 392.7 364.6 353.8 361.6 333.3 276.5 232 193.7 154.8 136 124.5 119.2 117.2 117.2 117.2 117.2 117.2 117.2 117.2 117.2 135.1 150.1 159.8 166.4 176.8 200.5 222 242.9 261.7 277.6 291.3 311.9 329 342.5 361.3 386.7 417 450.2 470.2 484.5 492.1 494.2 497.4 501.6 501.7 502.7
517.5 526.2 532.8 537.6 542.8 547.1 551.3 556.3 559.4 562.2 566.1 573.7 588.3 597.4 604.6 612.1 618.7 628.6 637.7 643.7 653.9 641.6 609.1 577 546 533.8 519.4 511.3 488.6 462.9 449.8 438.3 424.7 412.9 403.1 387.9 375.3 362.2 343.9 325.2 305.4 287.9 275.7 265.2 253.4 248.3 237 230.4 229 233.2 239.9 247.9 256.6 263.2 274.8 293.2 310.7 329.9 355.7 383.2 411.5 428.7 442.1 464.2 484.4 508.3 536 556.8 580.2 604.3 616.3 641.4 658.8 668.7 668.8 656.8 657.5 648.9 636.4 617.4 592.5 574.3 554.8 534 513.1 498 481.3 474.1 467.6 457 467.7 479.2 494.6 509.6 529.2 548.5 566.2 584.4 607.6 622.7 629.4 634.2 642.6 647.1 645.2 646.9 651.8 656 658.5 670.9 674 676.5 692.2 692.9 686.1 680 685.7 687.8 684.2 680.7 671.4 670.9 668.8 663.4 651.7 653.8 663.6 678.2 681.1 670.7 658.2 648.6 646.5 662.5 667.7 664.3 650.4 646.3 639.9 634.3 617.6 603.9 590 598.6 580.7 559.5 554.5 540.5 547.9 544 532.9 522.7 463.2 404.7 367.8 337.8 314.6 318.6 311.5 252.1 218.3 185.7 154.9 142.3 130.1 125.3 117.2 117.2 117.2 117.2 117.2 117.2 117.2 118.1 133 149.6 159.1 166.2 178.1 201.2 223.1 242.8 260.1 275 290.8 310.4 326.9 340.4 357.8 386 415 446.9 470.6 481.8 482.3 485 489.8 491.4 492.5 491.2
512.9 523.7 530.3 535.5 540.3 544.2 548.8 553.1 557.7 560.7 563.9 570.9 583.6 592.3 600.4 606.8 616.3 626.9 633.3 644.2 653.2 641.2 608.6 573.5 556.7 537.3 524.9 508.7 491.2 470.6 455.5 444 427 414.2 406 394.8 378.4 363.6 347 333.1 312.7 298.1 277.7 265.4 255.4 246.3 236.3 228.7 227.5 229.9 238.8 246.8 254.3 260.9 272.8 287.5 305.1 327.2 354.9 388 415.7 426.4 436.2 449.2 468.6 496.7 517.3 534.6 551.3 579.6 599.1 623.6 643.4 656.5 665.7 653.3 648 639 628.7 609.4 587.3 564.5 544.1 526.4 507.6 490.3 474.6 467.4 460.7 446.9 463.5 474.6 489.2 505.2 524.2 544.1 560.6 579.7 602.2 616 622.6 624.4 629.7 635.7 634.3 643.7 646.6 650.7 655.4 662 667.3 676.8 697 696.8 693.6 685 682.8 681.3 674.5 670.6 658.1 661.7 655.8 656.3 652.6 657.5 662.7 665.9 662.5 646.2 646.3 629.6 631.5 640.2 650.8 651.7 639.7 635.5 634.7 628.6 610.5 594 572 577.6 563.8 562.8 553.3 558.9 550.8 530.8 515 490.7 436.5 387.6 350.8 318.2 289.6 275.4 256.4 232 205.7 179.3 160.2 145.7 134.9 127.4 118.4 117.2 117.2 117.2 117.2 117.2 117.2 120.1 132.6 149.7 160.8 167.7 175.9 198.2 221.8 241.9 258.8 273 288.4 307.3 323.4 335 355.5 383.9 408.5 436.7 460 470.1 476.5 481 482 483 483.1 482.9
509.2 515.9 526.5 532.2 537 541.1 544.3 547.9 553.7 557.8 563.8 568.9 578.9 587.1 596.1 603 612.9 619.8 626 637.9 647.9 644.1 603.9 572.5 555.8 537.8 528.9 511.9 497.1 478 456.5 442.3 430.1 419.3 409.2 397.8 382.8 368 353.1 338.9 319.4 300.2 280.5 267.1 258.1 245.4 236.2 228 226.3 230.8 239.5 246.1 250.2 260 268.3 282.5 299.8 329.4 361.2 386.6 405.7 419 422.9 444.4 474.2 494.7 508 520.6 531.1 565.4 584.9 609.8 634.5 644.5 656.7 648.9 641.4 633 622.3 603.3 582.6 550.6 533.2 519.2 503.6 487.1 470.2 460.9 453.6 440.5 456.9 466.6 481.5 499.5 518.2 537.2 554.2 575.5 594.5 606.1 612.6 612.4 617 618.8 626.5 637.3 642.2 646.1 651.2 655.3 661 681.5 690.6 695.8 700.2 695.2 687.9 676.4 665.1 658.1 656.6 654.4 654 651.3 647.3 659.4 662.3 657.6 651.5 631.7 618.7 603.1 612.3 629.3 633.2 636.3 631.5 619.4 633.5 615.9 599 587.4 577.6 565.4 561.1 561.2 568.1 565.8 552.8 523.2 488 432.5 396.8 366.4 327.2 298.7 273.4 251.2 232.3 209.5 190.6 175.9 162.8 152.6 143 132.3 118.5 117.2 117.2 117.2 117.2 117.2 117.2 117.2 132.3 150.5 161.2 168.7 177.5 198.7 220.4 240.3 257.1 270 285.8 302 318.3 331.6 354.4 379.7 405.4 430.9 450.6 463.9 469.6 475 476.4 478.6 478.7 475.8
501.5 509.7 517.7 525 533.3 537.3 538.5 543.5 548.9 555.8 561.9 567.5 575.5 585.2 590.6 598.9 608.7 615.3 621.6 631.6 639.2 637.1 602 582.5 557.1 544.8 534.1 515.6 501.6 483.1 467 449.2 436.2 425.3 414.9 400.9 386.8 374.3 360.7 343.5 325.5 304 285.4 273.1 258.7 244.7 235.4 229.2 225.3 230.5 243.1 244.1 248.6 258.2 270 281.2 305.4 332.2 368.3 383.6 394.5 408.8 417.2 443.5 471.7 489 500.2 508.3 520.4 541.4 575.7 595.4 624.8 634.6 648.7 643.7 636.7 629.1 617 599 576.1 554.1 531 513 494.1 476.9 463.6 454.6 448 439.3 448.4 460.7 475.1 492.6 510.9 529.1 546.6 566.9 586.6 595.4 600.6 598.5 599.2 604.3 619.1 629.2 637.4 643.3 651 654.5 667.4 680.2 685.5 694.6 701.7 701.1 696.4 686.7 676.6 664.5 656 651.2 650.1 649.2 642.5 655.2 649.6 644.5 637.3 628.6 614.6 585.1 596.8 606.9 606.4 621.7 618.7 608.1 603.7 601.6 600.5 579.5 574.5 564 562.5 569.4 571.2 560 534.4 501.5 458.3 423.4 381.3 347.9 318.9 290 264.9 240.2 221.7 202.4 185 173.4 163.6 157.6 148.5 136.5 120.6 117.2 117.2 117.2 117.2 117.2 117.2 117.2 134.4 150.8 160.9 168.4 175.9 197 218.4 237.8 254.2 268.5 282.2 296.3 312.3 327.8 349 377.1 403.6 428.7 448.2 459.2 463.8 468.3 471.6 476.5 477.9 475.7
494.3 500 508.6 514.6 526.6 531.5 533.7 537.6 542.8 552.5 558.5 564.6 572.3 581.3 587.2 594.6 602.3 609.4 614.2 619.4 630 624.7 612.6 592.6 567.9 557.1 539.3 525 509.1 487.6 467.9 457.3 443.5 432.2 419.8 409.8 394.5 380 368.3 350.2 331.7 312 293.1 277.3 261.4 244.9 234.3 227.6 225.1 230.1 236.4 240.6 246.2 259 268.7 290.2 308 328.8 355.7 378.9 392.2 404.2 418.4 437.3 460.4 476.4 496.4 507.4 513.9 530.3 564 578.3 600.9 621.8 641.9 639.6 631.9 624.8 612.4 592.4 568.7 544.9 523 504.4 489.5 471.5 454.5 446.5 439.8 425.6 441.3 454.4 468.9 485.8 502.6 522.7 539.5 557 576.1 583.8 587.2 583.1 584 592.2 608.4 619.8 629.4 637.2 647 659.3 664.6 677.7 686.3 698.6 703.7 704.4 705.1 694.3 679.7 669.4 667.3 668 664.2 654.5 641.5 642.8 642.8 640.8 633.4 617.7 599.6 577.8 589.1 596.3 595.3 605.9 617.4 603.5 596.6 597.7 591.9 583.9 574.9 568.9 571.5 573.8 562.5 546 514.6 486.8 447.7 428.3 389.5 351.1 320.5 292.1 269.7 249.2 227.2 205.9 186.4 171 165.5 160.9 151.9 140.1 123.2 117.2 117.2 117.2 117.2 117.2 117.2 117.2 135.5 150.9 160.1 166.3 175.2 194.3 213.8 233.2 249.6 263.9 280.5 297.5 312.5 329.2 348.9 376.4 402.8 428.2 447.5 453.3 458.9 465.5 472.6 478.4 479.7 477.7
477.3 486.8 494.4 504.1 516.1 522.6 526.8 531.1 537.9 547 555.3 561.6 570.1 578 585 590.5 598.2 604.4 608.2 614.9 625.1 622.5 617.4 601.1 596.5 576 549.3 534.5 512.3 494.9 474.5 462.9 451.1 439.7 427.9 416.5 404 386.6 374.4 358.7 337.4 318.8 296 275.1 261 243.6 233.3 227.2 223.7 226.7 233.9 239.2 244.8 255.9 276.6 291.1 301.7 324.6 354.5 372.7 389.6 403.4 419 435.8 451 465.9 484.9 502.4 511.7 521.9 540.5 562.2 584.5 606.3 630.9 633.2 625.2 622.7 611.3 589.1 560 538.8 517.5 502.2 484.8 466.1 448.5 439.7 434.8 420 434.5 445.6 462.3 478.8 493.5 513.1 531.3 546.1 564.2 571.8 572 569.6 572.6 581.9 598.9 609.1 619.9 627.6 646.4 660.4 667.5 669.5 683.8 697.8 702.9 705.5 706.2 701.5 685.5 668.6 666.5 674.9 667.9 654 637 639.8 641 643 634.4 618.4 594.4 563.6 575.5 578.6 574.3 584.6 582.6 579.7 585.8 594.1 588.6 587.1 585.9 573.8 574.3 574.3 564.3 538.7 515.6 487.8 464 434.2 389.6 355.1 324.2 302.2 281.4 258.1 234.8 209.9 186.1 170.1 165.4 162.3 153.3 140.9 122.7 117.2 117.2 117.2 117.2 117.2 117.2 117.9 134.4 150 159.6 164.6 174.8 194.6 216 235.7 250.9 264 280.2 296.8 313.1 325.8 347.1 374.3 399.7 421.8 437.7 454.2 464.5 468.9 475.4 480.4 480.4 477.7
458.4 468.2 477.1 489.7 502.6 511.4 516.9 524.1 531.3 540.2 550.1 559.1 567 574.4 579.7 588.4 592.7 599.3 603.2 610 621 620.7 617.2 605.8 607.9 597 566.3 541.1 522 503.7 486.2 469 458.3 450.3 435.8 422.4 410.4 395 381.3 366.2 342.8 321.7 300.5 279.6 259.3 244.1 232.7 227.2 223.2 225.2 232.4 237.7 243.7 261 278.1 286.3 297 320.1 347.2 365.6 385.1 402.5 421.4 437 450.7 466.1 483 495.6 510.3 522 535.7 556.5 571.6 590.9 614.8 627.3 620.5 618.8 610.7 586.3 558.9 537.2 513.2 500.7 481.2 462.2 444.5 432.4 427.7 411.9 428.6 436.7 453.2 470.9 485.9 505.3 522 533.7 549.5 558.6 556.4 555.2 559.8 568.7 576.9 599 612.5 631.1 647.3 660.6 669.7 670 680.9 695.2 701.7 706 707.1 698.9 690 669.5 664.6 663.7 655 646.4 636.6 641.2 649.8 631.1 622.3 611 590.4 558.1 567.1 571.1 566.8 569.7 571.1 573.6 579.3 587 589 598.6 591.5 585 583 577.1 566.8 546 522.1 488.4 467.8 438.3 391.6 363.8 337.3 312.7 289.8 265.4 239.4 211.6 184.8 171.1 163.8 159.6 153 138.8 124.5 117.2 117.2 117.2 117.2 117.2 117.2 117.2 133.4 147.2 156.1 163.7 176.3 196.2 219.4 234.3 246.9 261.8 278.4 294.2 309.4 323 343.7 368.4 394.2 419 441.4 456.7 470 473.8 477.3 483.7 485 483.4
436.5 447.6 457.4 471.2 484.8 495.2 505.6 514.1 524.3 534.3 545.6 554.9 563.6 570.3 576.5 582.8 586.6 592.2 597.6 605.6 613 617.7 617.5 613.2 617.1 606.2 581.6 557.1 535.6 511.8 492.8 475.8 467.4 456.1 443.3 429.7 418.6 404.5 387 372.3 350.2 326.3 305.5 280.4 259.1 241.7 234.3 226.5 220.9 223 228.3 234.3 241.6 267.8 273.5 282.9 290.5 322.7 346.8 359.8 378.1 397.8 420.9 440.2 453.6 469.7 484.4 496.8 506.3 523.4 540.4 553.2 563.7 579 601.7 619.2 617.4 615.1 608.6 587.4 559.5 535.3 509.3 493.4 478.3 458.8 442.2 427.7 415.7 413.6 421.3 428.6 444.3 461.5 475.2 495.1 510.8 524 535 540.4 543.2 530.9 536.6 565.5 578.8 595.9 613.3 630.6 646.7 660.7 668.9 673.6 684 692.3 700.8 709.1 713 708.3 698 684.4 658.9 650.3 638.8 634.3 633.2 638.2 635 632.3 617.4 601 580.5 561.3 558.7 561.5 563 561.6 566.8 568.1 571.2 585.2 596.8 609.5 601.4 591.6 590.5 581.2 569.6 549.1 534.3 504.3 471.2 434.1 395.8 367 341.3 317.1 293.1 268.2 241.8 213.2 184.7 169.6 160.3 157.7 150.5 136.8 121.3 117.2 117.2 117.2 117.2 117.2 117.2 120.6 129.7 141.8 152.1 162.2 174.2 192.7 215.5 234.8 245.2 260 273.6 287.7 302.2 318.3 339.8 367 395.8 420.2 440.8 460.8 475.1 480.9 487.6 491.4 491.4 489.3
412.7 426.8 436.5 449.7 464.9 476.6 488.7 500.4 513.6 525.4 536.8 546 556 563.5 570.7 575.6 580.5 584 590.1 598.9 603.6 608.4 610.9 619.8 623.3 616 591.5 563.2 545.8 526.5 498.9 489.4 475.1 461.4 450.4 436 423 410.7 392.5 376.2 358.7 332 306.4 280.2 261.9 249.2 236.5 225.8 220.1 220.4 224.1 231.1 248.1 264.3 274.4 279.7 286.2 317.5 338 349.4 372.2 392.3 413.2 437.1 457 472 487.3 499.2 504.4 528.7 541.8 558.4 562.2 573.1 594.2 615.5 617.3 610.5 603.6 585.2 558.5 536.6 511.9 491.9 474.6 455 437.1 422.4 412.7 394.8 413.5 422 436.9 453 463.5 484.4 499.2 508.7 519.7 525.9 517.7 527.5 541.5 562.1 578.2 596.2 612.5 629.1 644.9 658.6 669.5 674.8 682.2 696.3 698 705.8 710.7 708.1 691.6 680.9 661.9 654 642.9 635.4 630.6 633.6 634.1 630.4 613.4 605.3 589 568.2 553.6 548.8 553 552.3 565.1 568.1 570.3 583 604.1 607.1 604.9 598.1 591.8 594.8 580.8 559.3 543 511.8 468.3 439.3 395.1 365.1 336.8 317 293.6 268.5 241 212.3 185.2 170.4 157.2 153.7 145.3 132.4 117.2 117.2 117.2 117.2 117.2 117.2 117.2 118.1 126.3 135.2 148.4 161.8 172.5 190 209.3 224.5 242.2 256.2 274 291.6 308.3 323.4 345.5 373.1 398.7 421.8 444.5 470.2 484.9 493.1 497.3 499.8 497.7 494.4
387.4 401.5 411.7 424.9 439.7 453.4 469.1 485.8 499.8 510.3 522.7 533.8 543.2 554.5 562.7 569.4 573.5 576.6 583.5 591.6 598.3 600.9 603.3 617.1 624.9 618.1 592.6 568.2 558.6 543 517.5 500.5 483.2 467.6 454.8 441.7 427.3 412.3 394.8 374.4 357 335.7 307.6 281 263.5 249.6 235.8 225.9 221.6 218 219.9 225.5 235.5 259.5 276.2 279.4 284.1 313 330.6 339.6 363.8 385.4 404.7 430.3 454 473.8 487.8 499.9 513 524.2 548.4 557.1 561.3 573.2 597.8 614.8 615.7 607.7 599.2 580 554.4 530.8 504.7 486.5 468.9 451.6 434.1 416.8 407.5 391.2 407.4 414.9 426.7 442.2 456 472 485.1 495.7 506 500.7 509.3 529.5 544.9 562.8 582.4 596.2 611 624.4 642.8 656.3 666.4 672.7 683.3 694.4 701.2 704.9 712.2 709.2 701.9 689.9 678.3 661.5 651.3 635.9 630.1 627.2 624.2 619.3 607 595.2 584.4 566.7 547 540.5 546.6 547.8 563.3 570.2 569.8 575 596.4 603.4 608.9 602.5 594.3 589.9 576.4 567.9 525.1 486.2 451.8 418.4 386.9 362.5 337.4 314.6 289.5 262.9 236.1 209.1 186.6 172.4 153.2 148.8 141 126.4 117.2 117.2 117.2 117.2 117.2 117.2 117.2 117.2 125.9 133.3 144.8 160.4 172.8 191.7 211.6 231.3 242.4 258.5 276.9 294.8 311.8 324.1 346.2 375 401.7 425.4 447 476 489.2 503.6 507.2 509.3 502.5 503
363.7 373.5 382.8 396.3 405.9 427 444.6 465.6 481 490.9 503 518.3 530.3 540.5 551.2 559 564.7 567.9 572.7 582.4 591.9 593.1 593.9 610.1 616.5 610.2 590.1 580.3 567 550.3 532.2 512.1 495 476.1 459.5 445.5 429.3 411.4 390.5 374.2 360.6 337.6 308.6 284.5 265.4 251.1 235.5 224 220.5 216.5 218.5 223.2 229 249 270.3 279.5 284.9 309.5 318.2 330.4 357 379.1 399.9 421.8 449 469.1 482.5 497.3 517.3 529.8 551.5 558.3 565 588.4 607.6 616.4 614.5 603.7 596.6 580.4 556.5 529.3 502 487.9 467.2 448.5 428.3 412.2 403.5 385.5 400.3 409.1 417.7 433.8 448.7 462.8 477.5 487.9 485.8 482.7 510.2 525.8 545.6 562.1 581.4 594.2 608.3 626.5 639.8 650.7 662.6 671.1 685 694.1 704.7 710.5 714.7 712.5 710.3 705.1 691.2 670.6 652 640.4 636.1 624.5 616.8 612.4 605.2 599.8 586.8 566.4 551.8 536.9 540.5 543.3 555.3 563.5 573.3 570.9 586.5 600 604.6 604.8 591.8 577.4 570.8 550.3 512.3 473.7 442.2 410 381.3 355.3 330.3 305.7 280.2 250.3 228.1 204.3 187.9 174.1 156.5 144.9 135.1 122.2 117.2 117.2 117.2 117.2 117.2 117.2 117.2 117.2 123.8 132.1 144.4 157.7 175.7 194.8 213.2 231.8 242.9 258.9 279.1 298.3 313.9 324.4 346.9 372.7 402.2 427.3 450.4 478.8 498.4 512.7 520 518.8 511.7 507.3
340.8 346.9 355.8 368 382.4 397.3 418.5 436 453.9 467.2 477.7 496.9 512.6 525 534.5 546.5 553.5 556.2 559.9 568.4 579.7 583.8 584 595.4 603.9 591.2 584.8 579.9 570.2 552.8 542.6 525.8 507.3 489 468.2 451.7 435.7 413.3 395.2 375.7 362.3 340.1 309.6 287.9 267.3 251.2 236.3 224.7 218.6 214.4 215.8 220 225.9 241 263 276.2 290.8 309 316.5 327.1 346.9 373.4 396.5 415.7 440.1 464.5 480.8 499.7 520 536.5 553.7 563.7 573.1 597.5 612.7 617.6 612.4 601.8 591.9 576.7 554.9 524 499.6 484.2 466.6 445.1 425.3 410.4 397.1 380.8 395 402.5 411.8 425.9 439.5 454.2 467.9 459.9 468.6 492.6 510.4 526 541.7 561.3 579.2 593.2 606.5 623.3 638 649.6 656.2 670.5 685.7 696.6 703.4 707.7 715.8 712.7 715.4 709.7 701.8 667.4 651.1 637.2 634.3 630.7 620.7 614 600.3 584.8 564.6 555.2 548.8 535.6 534.7 540.7 543 548.3 558.2 565.2 573.5 586.1 586.4 587.3 582.7 573.5 558.6 535.2 499.9 462.6 429.7 397.1 367.4 340.6 314.7 291.3 267.4 240.2 224.4 204.2 190 174.3 161.1 143.7 133.4 122.2 117.2 117.2 117.2 117.2 117.2 117.2 117.2 117.2 121.9 125.1 143.1 158.8 176.9 194.9 215.3 232 243.2 258.5 280.8 300.9 314.5 324.3 347.6 373.1 402.1 426.9 449.6 470.6 493.2 503.1 510.5 516.3 515.9 511.6
318.5 325 333.2 340.2 357.5 366.1 387.1 405.8 427.4 443.2 454.3 470.3 489.9 504.5 516.9 527.8 536.3 541.5 547 556.6 567.1 573.5 574.4 575.4 581.2 575.6 579.9 580.4 576.5 560.2 559.4 541.2 520.1 499.7 481 463 442.2 427.3 402.5 378.2 358.1 335 309.7 288.9 273.7 254 238.2 225.4 217.5 214.8 214.4 216.5 222.3 238.7 252.4 265.6 285.8 308.7 319 329.4 346.3 372 395.3 419.3 437.9 449.9 471.9 493.4 520.8 542.3 561.6 569.8 586.4 605.8 616.5 619 610.8 597.1 584.6 569.7 548 523.7 502.5 486.6 462.3 440.5 424.1 405.9 393.1 378.9 391.1 399.2 406.8 418.3 430.6 440.6 449.7 449.5 475.2 496.2 510.4 525 538.9 558.6 575.6 590.8 603.1 616 631.7 646.3 656.3 668 681.1 694 700.5 702.9 702.6 702.7 703.3 702.6 690.8 656.6 651.9 644 639.7 635 630.3 617.1 586.1 564 560.1 549.8 549.6 526.4 524.2 523.2 529.5 534.2 546.1 552.3 563 564.4 573.5 579.6 584.4 576.7 555.7 532.3 496.2 450.3 419.9 384.2 348.8 320 294.3 276.6 256.8 238.7 223.8 205 193.1 180 165.3 150.8 134 118 117.2 117.2 117.2 117.2 117.2 117.2 117.2 117.2 117.2 123.1 138.3 156.9 176.1 193 213.9 230.3 243.1 258.9 282 301.8 314.6 322.3 349.3 375.5 401.6 423.2 442.3 458.3 472.6 487 498.2 508.8 515.5 516.7
296.7 302 311.5 321.1 331.1 343.3 359.3 376.9 389.1 402.6 420.6 440.8 460.2 478.4 493.5 504 513.6 521 530.7 541.4 551.8 556.3 557.6 558 558.4 561.6 569.8 575.7 574 565.2 560.4 539 522.2 509.2 488.7 470.1 445 429.3 409.1 385 359 339.9 309.9 290.3 273.3 257.6 239.8 223.7 217.5 214.9 214.5 215 221 231.2 245.2 258.7 272.5 288.8 306.4 321.9 338.4 356.9 383.7 415.5 436.2 449 470.5 495.7 519.1 542.9 565.6 584.9 597.4 611.5 621.1 618.8 608.5 594.2 578 562 546.9 531.6 509.9 486.4 455.4 436.8 417.7 402.7 389.7 376.2 388.5 395.2 401.6 413.6 423.5 429.1 431.7 457.1 480.8 495.4 510.1 521.1 536.1 554 569 584.8 597.7 610.4 627.6 639.1 651.6 664.8 674.3 686.6 694.7 698.8 699.3 702.5 700.3 695.7 680.5 666.2 652.3 648.7 646.6 641.1 630.4 610.5 568.8 550.7 542.2 536.7 536.2 521.3 514.5 503 516 523.5 528.5 539.2 551.7 558.2 567.3 579.2 580.7 577.3 564.9 545.4 494.7 459.7 431.8 382.2 343.1 309.7 286.6 269.6 253.2 238.3 223.6 207.4 196.3 184.3 170.4 154.4 135.3 118.8 117.2 117.2 117.2 117.2 117.2 117.2 117.2 117.2 117.2 123 136.8 156.9 174.1 189.7 210 227.4 241.3 258.4 282.7 302.1 314.7 321.5 349.9 375.9 397.9 417 433.6 448.3 467.2 482.1 494.8 516.1 522.7 522.9
279.4 284.4 294.9 300 306.2 318.2 332.7 346.4 356.4 368.3 383.3 409.1 427.8 444.9 463.9 478.3 486 493.1 507.3 523.5 531.5 537.2 534.3 539.3 537.6 539.7 546.8 557.4 564.1 562 551.9 536.9 527.3 511.2 495 475.7 448.1 430.8 411.8 393.3 364.7 341.2 310.3 288.7 271.9 258 241.9 226.1 216.4 215.3 212.4 212.4 217.5 228.5 244.1 254.9 269 281.4 296.1 312.3 331.5 349.3 374.3 398.1 421.3 445.1 469.1 492.5 516.8 543.4 568.2 588 606.5 618.6 624.1 618.2 605.4 590.2 573.8 557.2 541.5 525.9 496.1 465.9 447.2 430.2 411 398.4 386.3 371.4 382.3 389.4 396.7 407.7 408.2 419.9 436.7 460.6 476.4 491.3 506.7 517.8 529.5 549.1 565.6 579.8 594.8 609.5 624.2 634 645.8 657.5 669.3 675.6 683.8 692.1 693.8 693.1 698 696 684.9 684.9 665.5 643.1 638.9 631 613.5 575.4 561.5 538.6 523.7 517 509.5 500.9 495.5 498.3 492.7 499.3 510.4 529.8 539.2 546.6 560.4 570.8 577.4 578.3 570.3 537.8 503.7 464.7 413.7 372.2 336.4 308.5 278.7 259.9 247.6 236.8 224.9 211.1 199.9 187.3 173.3 157.6 138.7 121.1 117.2 117.2 117.2 117.2 117.2 117.2 117.2 117.2 117.2 123.2 138.9 155.9 172.3 188.8 207.3 224.7 241.2 260.6 283.1 301.2 313.8 323.3 348.1 370.7 390.4 407.8 422.4 438.7 461.3 484.9 504.2 518.1 532 529
263.7 268.8 277.3 277.9 283 297.9 308.6 320.3 328.6 335.8 352.8 373.4 394 412 428 443.1 457.5 458.3 478.8 498.6 510.4 508.3 508.9 513.3 506.6 514.2 519.8 527.9 544.3 547.8 540.6 532.7 533.1 513.2 493.3 476.7 454.2 432.1 407.3 386.7 361.7 338.4 312.9 291.3 282.7 266.4 245.1 229.5 218.1 214.8 212.3 209.5 216 226.7 240.5 254.9 265.6 282.1 296 310.6 327.8 345 369.8 394 419.2 445.6 469.1 492.1 516.4 544.1 573.4 593.8 612.2 622.5 624.5 616.3 602.4 587.4 570.6 551.3 529.6 511.5 483.7 462.1 441.2 422.9 406.9 394.1 383.2 369.1 377.8 386 392.4 396.2 410.7 420.2 434.1 455.8 471.1 485.6 498.5 512.8 525.8 544 557.6 573.1 588.3 602.7 613.2 627.3 640.7 648.9 659.5 671.7 671.8 680 684.2 686.1 692.9 688.3 674.3 667.7 659.3 632 615.8 600.4 570.9 558 535.2 520.3 506.5 496.9 489.3 482 475.6 483.8 482.6 477.4 491.5 505.5 524.9 541.4 553.4 555.2 564.5 570.9 567.1 534.3 488.3 446.9 401.6 365.3 335 306.2 280.8 258.4 242.7 233.7 225.2 214.7 204.1 190.5 174.5 158.5 141 117.2 117.2 117.2 117.2 117.2 117.2 117.2 117.2 117.2 119.5 126.7 141.1 154.9 170.9 188.1 207.9 223.9 239.9 260.1 281.7 298.9 313 322.6 343.3 362.5 380.2 396.5 417.2 440.7 464.9 487 513.4 525.3 535.2 539
250 252.8 264.3 265.3 263.3 275.5 283.9 295.5 303.2 311.3 328.1 341 360.5 372.7 389.8 405.2 418.9 429 447.6 472 478.4 475.8 476.8 482.5 478.8 484.9 488 494.3 509.6 538.5 536.9 524.3 526.8 515.3 492 473.3 457.3 436.6 409.4 385.7 362.6 337.9 313 293.9 280.8 264 248 232.9 219.1 213.7 210.5 208.6 215.1 226.2 240.6 253.2 265.9 281.6 296.9 310.9 325.6 342 365.3 390.5 416.5 446.9 469 491.1 516 543.3 576.8 600.3 616.3 622.9 621.3 611.5 597.7 583.5 565.2 546 521.6 504.8 487.5 456.6 432.2 417.7 401.9 388.3 378.5 364.1 373.3 381.8 388.2 398.1 410 418.2 430.5 450.1 468.3 480.1 492.5 507.1 520.8 535.7 551.1 562.2 575.8 593 605.7 617.3 628.2 635.9 649.4 662.5 669.3 669.8 680.1 680.3 683.9 680.3 669.4 639.7 629.7 618 592.2 568 546.9 536.8 510.9 495.7 484.9 478.3 462.2 463.5 457.4 460.8 468.6 469.2 481.5 490.8 503.1 520.7 534.9 542.7 554.5 558.4 559.9 522.1 475.2 438.5 402.3 371.2 342.4 316 288.7 260.8 243.9 232.9 224.7 216.9 208.6 196.8 182.9 165 141.5 117.2 117.2 117.2 117.2 117.2 117.2 117.2 117.2 117.2 120.3 128 143.6 155.5 170.7 188 204.2 220.5 239.9 259.2 279.1 295.4 308.9 319.9 336.3 351.5 375.9 397.9 417.2 441.9 468.8 499.2 522.6 534.5 549.3 550.8
229.8 233.4 246.9 243.5 246.8 252.5 260.7 269.8 279.4 290.6 304.4 314.2 326.7 336.2 350 364.5 381.3 390.1 424.2 447 451.6 447.6 444.5 446.7 450.5 454.8 458.7 468.3 486.5 512.6 523.5 523.6 514.8 508.7 492.9 475.1 453.8 435.4 411.8 389.1 362.5 335.1 311.4 292 278.8 263.9 250.3 234.1 227.3 213.1 209 207.2 213.5 226.3 239.9 255.9 265.7 278.3 295.4 309.6 326.8 341.9 361 386.6 414.8 447.5 467.7 489.8 516.2 543.6 580.8 606.5 618.9 621 611.5 602.2 589.4 576.2 558 538.3 511.4 488.5 470.4 444.5 428.9 413.6 394.5 382.5 375.1 366 367.5 375.2 382.4 396.4 407.6 416.4 427 444.1 461.7 475.4 488.8 501.2 516 530.7 546.4 554.4 565.1 577 590.8 602.9 613.9 628 637 649.1 660.3 661.2 669.1 674.8 678.1 678.8 661.7 628.3 598.8 587.3 560.2 531.8 517.1 497.1 483.5 471.4 463.3 456.2 446.2 445.7 443.7 446.4 454.5 464.5 469.7 477.9 489.1 504.5 521.3 527.9 541.1 541.9 542 516 480.1 445.2 412.1 380.4 352.1 326.1 298.3 270.6 248 232.1 224.8 220.7 214.7 205.2 189.8 168.3 142.6 117.2 117.2 117.2 117.2 117.2 117.2 117.2 117.2 117.2 117.2 132.6 150.8 163.9 178.1 190.7 203.6 219.7 239 258.7 277.9 291.8 306.7 319 336.7 357.1 379.1 398.5 419.3 442.6 469 497.2 523.7 538.6 547.2 557.2
217.2 215.7 227.4 223.4 231 231.4 238.8 249.1 261.7 270.9 281.9 291.9 297.5 310.2 323 333.6 343.3 365.8 399.1 420.4 411.9 412.7 412.3 414.8 422.4 426.6 433.8 445.9 465.3 488.3 502.4 514.9 512.3 501.7 486.3 473.2 450.7 433 414.1 391.8 361.2 330.7 308.4 293.1 276.7 267.4 253.9 237.1 226.1 215.3 209.4 205.8 212.3 226 238.6 256 264.9 279 294.2 308.9 323.2 340.5 358.7 382.8 410.6 440.6 463.6 488.3 514.7 544.3 584.4 606.9 616.1 619 602.1 590.2 578.7 561.3 547.5 529.9 505 478.3 453.5 435.9 421.6 404.8 387.6 378.3 369.4 354.5 366.7 374.1 382.7 392.9 402.8 411.3 426 441.6 457.9 468.6 482.4 497.1 510.9 524.4 538.6 548.3 560.5 572.7 585.8 592.4 602.8 613.1 624 637.8 649.6 654.9 659.8 666.2 672.9 672.3 653.8 620.9 576 548.4 524.8 511.7 496.3 481.8 469.5 460.6 452 438.7 432.2 430.8 432.9 440.3 444.9 449.1 462.3 474.7 484.3 495.3 507.4 524.6 520 533.8 533.3 516.7 484.6 453.5 421.2 389.2 360.3 335.2 305.7 281.1 257 234.8 226.7 225 219.9 208.5 190.9 167.8 140.5 117.2 117.2 117.2 117.2 117.2 117.2 117.2 117.2 117.2 120.6 138.4 156.1 168.2 179.8 195.3 206.7 222.9 242.5 262.1 280.2 295.5 309 321 338 357.2 377.2 398.5 413.3 439.2 465.5 491.2 509.4 526.9 540.3 552.4
200.8 204.4 207.5 208.2 213.3 218.7 220 232.8 246.3 250.1 262.4 268.5 275.7 285.9 298.6 308.8 313.9 336.4 370.4 388.3 378.2 379.7 381.3 384.1 388.6 399.9 401.7 421.5 441.8 460.4 478.5 493.2 504.5 494.7 478.8 463.5 445.1 426.4 411.1 385.1 353.4 325.6 307.2 291.9 282.5 270.7 252.3 234.8 221.7 212.4 207.6 206.2 213.3 226.4 241.3 253.9 265.2 276.9 294.7 310.3 322.2 336.8 356.1 377.9 405.5 431.4 457.9 484.7 512.9 542.8 585.6 601.3 610 608.7 591.3 578.1 564 554.1 540.4 524.9 496.3 465.8 447.1 427.9 412.2 397.6 382.1 370.1 365.2 353.7 362.5 374.6 383.1 392.2 400.1 410 422.5 438.9 453.5 465.8 475.7 490.3 506.1 519.9 531.7 541.9 553.6 566.8 575.9 587 597.6 606.8 619.6 632.8 642.8 650.6 658.1 662.9 673.4 669.7 636.6 593.8 550.6 529.9 513.4 498 483.8 475.8 465.8 451 440.1 423.2 416.1 412.6 423.3 433.7 440.8 440.3 454.1 467.3 481.8 496.4 504.3 515.8 517.4 517.5 519.9 513.7 492.2 462.2 430 396.7 366.8 343.1 316.4 289.7 262.4 238.4 232.4 229.1 220.7 206 185.9 162.8 136.8 117.2 117.2 117.2 117.2 117.2 117.2 117.2 117.2 117.2 118.8 140 160.1 174.4 187.2 200.5 211 226.9 247.9 266.8 284.5 299.6 310.9 325.3 341.5 359.5 378.5 399.3 416.4 435.1 466.4 489.3 514.8 531.3 543.6 553.4
191.1 191.5 196.1 196.9 196.7 204.9 208.4 213.9 222 230.7 238.7 246.8 254.8 264.9 277.4 281.4 295.8 310.1 323 346.6 349.1 353.6 362.9 358.7 360.8 371.4 371.6 398.4 413.9 432.2 451.2 465.5 478.3 478.8 466.4 454.6 443.3 421.5 398.2 373.4 353.4 326.3 310.8 295 279.1 264.7 253.4 235.5 224.8 211.3 205.7 206 214.7 228.2 239.1 250.3 263.5 274.7 292.4 306 320.9 334.8 353.6 376 403.8 428 453.4 479.8 509.5 533.4 577.1 594 598.5 590.1 580.6 571.3 558.8 549.1 528.9 517.8 487.3 458.4 436.6 422.9 403.3 388.4 374.5 365.4 362.7 348.9 362.1 373.6 379.6 388.8 397.2 409.3 420.7 433.2 447.1 446.6 454.1 478.2 500.6 514.1 525 535.1 545.5 560.1 572.2 583.7 595.9 607.4 620.9 630.9 640.7 648.2 657.2 655.3 659.4 656.1 623.1 572.6 545.6 530.6 518.8 500 480.3 469.1 457.5 444.6 429.1 413 408.1 403.5 416.3 426 433.8 438.7 442.3 455.5 468.4 485.4 500.6 510 516.5 517.3 515.8 521.8 503.4 473 439.8 406.9 377.8 350.9 326.9 300 271 246.1 237.8 230.9 217.2 197.8 177.1 152.6 134.7 125.2 117.2 117.2 117.2 117.2 117.2 117.2 117.2 117.2 118.3 142.4 162.5 177.5 190.9 203.5 214.9 233.4 252.4 269.6 289.3 304.5 314.9 328.8 342.7 362.3 383.1 402.1 418.7 437 465.9 494.9 512.6 525.5 537.2 547
185.3 184.7 185.8 187 186.5 194 196.4 200.1 205.5 212 220 225.8 234.4 245.4 253.2 261.1 275.2 285.7 293.7 303.1 319.2 330.5 342.2 337.6 333.2 340 349.3 372.1 388.3 403.2 421.7 438.3 446.8 453.5 448.4 438.5 430.9 417.6 396.5 374.7 352.5 326.5 307.3 291.4 278.5 264.4 253 247.2 224.8 210.8 204.9 208.2 219 228.4 238.5 250.9 262.5 273.4 288.3 301.6 318.6 334.2 350.8 374.7 404.2 426.2 449 474.6 505.5 527.1 552.6 584.6 582.4 575.9 570.7 558.9 550 538.2 517.8 509.9 480.3 450.5 431.5 411.5 397.1 381.5 369 361.7 358.5 345.3 364.2 368.9 375.3 384.3 397.1 399 408.8 424.5 427.5 456.2 473.4 480.5 484.9 494.4 510.9 524.2 535.9 554.6 571.9 584.2 594.9 611.4 624 635 647.4 656.9 662.7 665.3 657.4 630.7 591.9 569 547.2 532.7 519.6 491.6 476.5 466 457.6 437.7 418.9 409.9 397.1 394.9 407.5 417.6 421.6 431.5 437.9 443 454.7 469.7 484.1 495.7 504.5 512 516.1 514.3 508.6 489.4 451.8 418.1 387.9 360.9 337.5 308.8 278 253.2 241.6 231.3 213.2 190.3 162.4 145.2 133.3 125.1 117.2 117.2 117.2 117.2 117.2 117.2 117.2 117.2 126.8 144.1 164.6 180 192 205.3 217 234.4 252.5 271.9 293.1 309 319.4 335.2 350.4 366 386.2 403.3 419.9 440.9 464.9 490.8 509.2 525 534.6 543.6
182.9 181.2 181.3 181.8 182.4 185.8 187.1 191.5 195.8 197 206.1 209.3 215.7 223.8 233.1 246.5 252.4 263.9 272.1 280 288.8 299.9 306.9 306.5 307.6 307.2 326.3 341.4 357.9 373.2 389.3 409 418.7 424.1 423.2 413.9 406.1 413 398.1 373.1 354.1 327.2 310.5 294.7 279.2 267.3 256.5 243.3 227.6 214.1 206.8 205.5 212 225.8 235.9 247.1 259.3 271.1 283.5 296.6 313.3 333.6 347.7 374.9 406.8 430.8 448.5 469.8 496.8 523.2 540.3 562.9 569.8 566.8 559.3 549.2 543.5 525.4 506.9 498.8 475.6 445.2 418.2 403 387.9 372.7 363.9 358.6 345.5 354.8 359.1 365 370.7 378.5 391.7 411.3 426.7 440.3 454 470.3 484.6 497.6 504.9 513.6 524.3 538.4 548.3 560 568 584.1 599.7 615.2 629 638.3 651.4 663.5 671.6 664.9 649.8 622.2 590.9 566.6 545.2 527.2 504.3 494.8 482.9 470.8 455.1 435.8 419.3 402.8 393.6 384.6 391.1 401.5 409.4 423.4 429 434.7 444 454.9 469.6 482.8 494 503.8 514.4 509.2 506.3 496.4 462.4 427.4 397 371.3 345.4 316.5 288.5 264.1 246.3 232.9 213.3 189.7 162.8 142.3 129 124.8 117.2 117.2 117.2 117.2 117.2 117.2 117.2 117.2 129.8 148.1 167.2 182.5 195.9 207.4 218.5 238.2 256.9 275.6 296.6 312.7 323.4 340.4 356.8 372.8 392 407.1 422.1 442.7 469.1 485.6 498.5 514 526.2 529
184.3 182.8 180.8 177.3 177.8 179.8 179.5 181.6 183.2 187.3 192.6 196.6 201.1 207.6 216.6 224.9 233.6 239.3 250.5 254.1 262.4 271.1 278.4 281.5 282.4 286.9 300.8 311.2 323.7 338.6 354.1 371.1 384.9 396.6 394.2 387 390.6 404.9 397.8 370 347.9 326 305.7 292.5 279.8 267.6 256.4 244.1 233 215 204.4 204.2 208.6 219.1 233.1 248.1 255.5 267.9 282.7 296.8 309 329.1 348.1 376.5 411.9 432.5 454 466.8 492.4 519.8 536.7 546.7 554.4 556.3 550.7 542.3 534.2 516.7 498.1 483 460.4 433.4 410.6 394.2 378.7 367.1 358.4 339.5 344.5 362.4 368.5 372.7 379 387.2 402.6 418.7 433 445.1 462.1 480.5 497 511.6 523.3 532.9 544.7 556.7 567.3 575.9 581.7 590.8 606.2 622.5 634.3 644.1 653.7 663.2 670.7 671.5 654.5 624.2 595.4 577.9 550.1 531.8 518.9 505.8 489.7 473.6 455.9 439.5 419.9 401 391.7 386 378.9 382.4 392.6 404.3 413.5 420.8 429.7 438.4 451.7 465 478.1 490.6 494.8 510.5 499.7 492.2 470.7 435.5 405.7 381.3 352 323.8 294.1 271.2 250.4 234.8 213.5 189 161.6 143.3 129.5 124.3 117.2 117.2 117.2 117.2 117.2 117.2 117.2 117.2 131.6 152.2 171.5 187.3 200.5 208.7 220.7 240.9 260.4 278.7 299.9 315.8 328 346.3 363.4 379.9 396.7 411.2 425.4 445.3 464.5 483.7 499.7 510.7 519.1 521.3
186 182.8 180.1 178.3 177.9 175.5 174.7 175.8 176.6 179 183.5 185.7 190.1 195.8 198.3 202.5 211.1 215.4 224.1 232.3 237.5 247.9 253.5 263.8 264.1 271.6 279.2 288.6 300.8 313.1 325 334.6 346.8 354.3 366 370.2 371.4 394.2 393.1 368.7 347.3 324.1 304.5 293 284.9 270.8 255.5 246.9 231.3 216.1 208.2 202.8 205.9 220.9 233.1 247 261.7 271.4 280.8 294 310.6 326.8 346.9 375.2 417.9 433.8 461.3 474.4 489.2 515.9 534.1 543.7 548.8 551 546.4 538.6 527.1 512.9 489.7 476.8 448.4 423.3 404.5 384.5 372.2 361.6 352 333.7 352.5 363 369.6 373.7 380.3 391.9 407.3 421.5 436.6 452.1 470.7 488.4 506.1 521.5 535.2 548.5 559.9 572.4 582.9 591.8 600.4 606.3 614.2 629.1 639.3 644.3 653.8 662.4 663.7 657.4 651.1 624.6 600.8 571 556.1 548.5 534.9 520.4 498.8 477.5 455.1 437.4 417.5 395.1 386.4 379.6 374.8 371.3 374.8 386.1 395.3 405.3 415 421.5 431.7 445.6 460.9 473.8 478 486 492.8 484.7 473.8 447.5 423 392.6 359.8 326.3 292.5 275.2 254.1 235.7 213.5 186.5 158.8 138 129.3 123.5 117.2 117.2 117.2 117.2 117.2 117.2 117.2 117.2 136.6 157.6 177 191.8 203.8 210.3 222.4 243.6 262.7 284.5 303.5 319.3 334.2 351.6 367.3 382.4 397.6 410.5 429.1 449 466.7 484.1 493.8 505.5 508.4 512.7
189.5 184.9 182.3 180.7 177.9 175.5 173 174.2 172.3 174.7 177.5 177.1 182.5 184.9 185.8 186.9 191.9 195.7 203.6 211.8 218 228.1 234.7 248.3 247.4 252.7 259.2 269.9 278.5 289.5 298.7 309.2 318.6 331.2 348.3 356.4 358.5 380.6 381.8 368.2 348.4 327.4 307.6 295.1 290.2 272.3 256.9 245.6 233.8 223 205.3 200.3 204 221.9 237.6 247 259.1 267.4 279.9 295.4 309.5 326.7 348.2 375.7 407.1 438.6 460.3 484.3 500.7 517.9 531.6 542.2 546.4 544.4 539.1 532.3 516 503.5 483.6 466.6 441.1 419.2 397.3 376.7 363.2 354.9 331.8 329.9 352.7 361 367.9 372.3 382.8 395.1 412.3 429.5 443.3 459.9 479.8 495.1 513.1 530.9 544 558.2 570.1 581.9 595.2 606.9 616 619.1 623.7 634.4 644.9 651.6 657.1 656.7 656.3 651.2 643.5 628.1 597.8 578.2 568.6 559.2 550.2 535.6 508 484.6 461.6 438.8 418 390.6 381.3 375.3 367.4 359.7 358.7 365.9 375.9 386.8 397.3 405 414.9 426.5 440.1 456.8 460.7 468.3 478.8 480 472.5 456.7 438.1 407.5 365.8 328.7 299.3 278.6 257.6 236.6 212.2 183.1 155.4 136.7 128.7 125.7 120.4 117.2 117.2 117.2 117.2 117.2 117.2 123.2 143.4 162.9 182.2 195.2 205.4 213.5 226.5 246.1 267.2 288.6 306.9 323.2 338 352.8 367.6 381.1 398.2 411.9 428.8 445 464.8 481.8 494.9 496.4 498.7 497.1
195.3 190.7 187.5 182.7 178.7 176.2 174 171.5 170.4 168.6 171.2 173.1 174.8 176.9 176.1 176.4 178.7 182.5 187.9 194.8 204.2 212.1 220 229.3 229.2 234.7 242.8 252 261.9 266.8 278.4 289.1 295.5 314.4 332.7 349.9 352.4 367.1 368.1 364.1 349.8 329.7 309.4 293.9 291.2 276.5 257.8 244 238.9 224.6 208.8 201.4 203.3 221.5 233.6 244.7 260 271.4 281.9 296.6 312.2 327.7 348.2 377.4 413.3 442.7 464.7 493.5 510.7 519.1 531.2 540.7 541.7 537.9 532 524.5 511.3 496.2 477.3 453 431.9 406 383.9 368.8 357.9 344.3 325.7 341.4 350.7 357.3 365.2 371.7 385.2 400.1 415 431.2 447.4 466.5 487.1 504.7 519.6 537 554 569.9 581.9 590.2 606.8 617.7 625.4 631.7 634.3 639.2 644.5 651.5 655 653.6 647.9 645.9 638.8 615.5 596.6 590.5 582.4 572.1 556.8 537.6 515.2 492.8 472.9 445.3 415.9 397.1 378.8 370 363.1 359.6 353.7 346.6 356.7 367.1 378.3 388.1 397.4 407.2 418.9 431.6 446.2 455.5 460 474.5 473.8 451 435.2 406.8 359.2 327.2 301.6 279.7 259.1 235.6 209.5 178.8 148.7 132.8 128.9 125.6 123.3 117.2 117.2 117.2 117.2 117.2 117.2 132.3 152.6 170.4 187.9 199.8 207.6 214.2 228.9 248.3 269.1 290.8 308.9 325 339.1 352.8 367.6 382.1 398.3 412.5 427.5 440.2 458.2 480.5 486.7 493.5 489.1 477.7
206.8 197.2 192.2 190.2 184.2 179.4 175.7 173 170.6 167.5 169 170.4 170.5 170.6 169 168 172.7 174.6 175.9 182.7 187.3 195.3 199.9 205.9 211.7 215.6 222.8 234.6 245.9 247.7 257.5 264.3 274.9 299 310 323.3 332.1 342.5 350.9 354.6 348.6 331.1 306.2 290 291.7 278 257.2 244.4 235.3 226.7 210.8 199.2 209.6 223.3 234.5 247.3 260.4 272.8 283.6 298 311.9 327.8 349.6 379.9 406.8 446.9 472.5 499.4 513.5 522.1 535.4 540.2 541.3 537 530.2 522 505.4 484.7 466.2 440.3 419.6 401.5 377.3 364.1 351 339 322.4 344.9 349.8 358 365.9 376.2 388.1 399.5 419.3 434.5 449.8 470.8 492 511 529.2 546.1 564.7 581.6 596.6 608.7 619.3 628.7 635.4 640.3 642.6 646.2 651 654 654 649.8 646 641.3 623.9 615.3 614 606.9 598 585.1 565.8 553.9 523.5 493.6 465.9 435.5 412.2 401.1 389.4 376.7 367.7 358.1 351 345.3 343 349.6 360.1 370 379.8 389.1 400 414.6 435.6 446.2 443.9 455.6 461.4 447.6 411.9 398.6 353.6 313.6 297.1 277.8 256.6 232.3 203.4 170.9 142.2 131 128 126 124.1 117.2 117.2 117.2 117.2 117.2 117.2 136 159 178.3 192.9 202.8 209.1 214.5 231.3 250.8 269.1 291.9 309.5 325.8 341.4 355.1 367.2 380.4 394.7 407.3 418.7 429.5 447.7 465.3 472.2 476.2 476.3 449.6
