ncols 200
nrows 82
xllcorner 360000
yllcorner 490200
cellsize 50
230.2 235 243.5 246.1 252 259.6 257.9 262.8 266.6 270.6 272.1 277.5 283 280.7 281.1 284 286.3 290 295 294.7 292.8 292.3 291.7 294.5 298.2 302.5 305.6 308 311.4 311.7 308.3 299.1 293.6 293.4 292.2 286.4 280.1 273.2 264.9 255.6 251.8 248.1 242 236.2 231.1 224.2 212 198.9 190.7 185.5 181.4 174 165.3 151.7 139.7 124.2 116.1 112.7 112.4 118.4 134.6 137.4 141.7 143.4 153.5 152 153.9 155.7 158.3 162 164.9 171.8 176.7 180.1 181.1 185.2 188.6 190.9 192.9 194.4 198.6 204.8 215 223.7 233.7 241.2 249.6 259.5 272.9 291.1 308.6 326.4 338.9 350.2 355.7 366.9 378.8 384.7 381.8 372.7 357.2 334.8 315.2 309.5 324.8 338.8 351.7 363.8 377.2 388.1 392.2 391.8 385.8 378.9 370.1 361.8 378.6 395.8 420.9 447.5 473.6 495.7 512 517.6 520 520.8 518.6 515.2 509.8 500 485.1 462.5 435.1 416.7 430.9 443.3 457 472.2 489.1 497 499.1 495.8 485.2 470.3 456.8 443.5 433.2 422.1 412.4 404.8 399.6 398.6 397.3 393.6 381.2 353.4 330.4 306.5 282.3 259.6 235.3 211 176.3 194 201.6 209 216.6 218.4 221.5 212.9 204.1 196.2 187.1 178.9 160.6 141.8 140.1 148.7 162.8 169.1 173.9 179.4 180.7 187.3 195.8 202.9 207.5 214.5 214.7 213.9 217 213.2 223.1 226.5 228.4 225.3 219.1 216.7 216.2 230.1
231.3 237.2 247.3 250.6 254.9 257.7 257 261.3 265.1 266.7 270 276 278.6 277.5 282.5 286.8 290.3 295.2 299.4 297.1 294.6 292.9 290.9 294.3 297.4 299.6 302.9 304.9 305.8 305.2 300.4 295.1 289.7 289.3 286.3 280 272.8 265.4 254.8 249.5 246.8 242.8 238.4 232.6 228.5 223.6 213.7 199.2 190.9 186.2 179.2 172.5 165.1 153.6 141.4 131.1 119.9 113.8 110.3 115.5 132 136 139.3 143.4 142.4 145.2 153.1 159.2 162.6 164.7 168.5 175.5 179.5 179.7 180.4 182.1 184.9 190.5 189.9 198.3 201 208.5 217.4 225.2 231.4 239.9 249.6 259.6 274.4 290.6 306.2 327.6 338 346.2 347.3 350.4 357.5 355.6 353 344.1 329.8 313.7 300.4 304.2 318 326.7 337.2 347.6 354.8 361.8 362.8 361.1 355.2 349.9 343.1 362.9 382.2 405 431.1 455.6 479 498.8 506.6 510 510.9 511.5 509.3 508.4 504.6 492.9 482 458 429.9 410.5 429.3 442.5 456.3 472.1 487.5 494.5 496.9 492.9 481.6 467.9 456.3 438.9 425.2 416.2 412.2 408.4 408.8 410.3 408.1 408 391.3 372.5 349.8 326.6 300.4 273.8 243.7 222.8 192.6 178.7 189.4 199 208.8 213 215.8 205.7 196.6 188.5 180.8 167.3 149.5 147.3 154.9 163 169.9 174.2 177.7 181.1 184.3 191.7 198.1 203 203.7 210 210 212.5 206.5 218.9 221.9 226.1 219.7 207.7 213.8 220.7 224.4 235.8
232.2 240.9 249.2 251.4 252.6 254.3 255.5 258.9 263.7 269.1 272.1 274.4 275.5 279.4 285.7 291.6 296.3 303.2 303.1 297.1 294.3 290.9 290.3 292.9 295.1 296.5 299 300.5 299.9 297.3 295 292.8 287.6 283.9 280.9 275.1 266.6 260.2 250.4 244.9 241.2 239.5 235 230.2 226.1 220.9 211.9 199.6 184.9 178.5 172.2 166.5 160.6 151.7 141.2 128.2 117.2 114.6 107.9 114.5 132.5 139.4 142.3 140.2 140.2 145.4 153.9 159.1 165.3 170.8 172.8 176.4 179.4 180.1 179.5 180.5 184.2 184 194.4 199.9 205 213 216.7 222.9 229.2 238 248.3 260.3 275.1 290.1 306.1 318.1 327.3 331.9 330.7 332.9 332.8 331.9 324.6 316.2 303.4 295.5 285.8 298.2 305 314.6 323.9 330.4 331.5 334.3 333.6 331.9 329.1 331.2 351 367.7 391.9 414.9 438.9 463.2 484.2 496.4 501 502.8 503.4 502.4 502.8 502.7 498.4 489 472.8 449.9 421.7 405.2 428.3 438.6 453.7 469.6 483.8 488.7 491 487.6 478.1 465.9 450.1 432.1 417.4 409.2 408.8 413.5 421.2 423 419.6 415.1 400.9 383.9 365.1 344.2 320.1 290.2 257.8 238 211.9 178.4 174.8 186.1 195.7 205.8 208.7 197.3 188.1 183 173.9 154.1 147.9 162.2 167.6 172.6 176.6 178.3 178.8 181.3 185.6 192.3 199.6 204.7 201.6 201.2 205.6 208.6 202.5 216.5 218.7 210.3 209 217.9 225 231.8 236.1 242.1
233.2 245.4 246.8 249.3 251.8 252.4 256.3 260.3 268.1 272.4 275.5 277.6 282.7 282.6 289.4 298.8 303.2 309.8 302.7 296.9 292.8 290 290 292.6 292 291.7 294.6 295.8 294.8 291.3 291.8 291.7 285.8 279.6 275.6 270 265.2 260.1 253.7 247.9 244.6 238.7 228.6 225 220.9 216.5 211.2 204.6 198.8 191.2 181.6 176.3 168.8 158.6 146.4 132.3 118 114.2 110.2 112.8 135.5 146.2 145 138.4 139.2 144.5 151.3 159.9 169.8 171.6 176.5 177.7 178.6 179.9 178.8 179.6 180.3 186.5 195.6 200.6 206 212.8 214.9 220.8 228.9 236.4 248.4 261.6 276 289.7 304.4 311.5 313.6 315.4 313.2 312.4 311.4 309.6 301 292.4 285.1 279.8 274.7 282.8 291.3 303.1 309.1 308.4 311.5 312 308.8 309 322.5 340 356.8 376.8 400.6 423.6 444.8 466.8 484.5 491.6 493.5 493.7 494 494.3 493.1 491.8 489.9 481.7 467.3 440.8 412.8 398.4 425 432.1 449.7 465.3 477 481.7 482.8 480.8 471.3 457.3 441 425.2 411.9 402.2 405.3 414 421.8 422.5 424.6 421.6 410.7 392.5 372.4 353.6 331.5 301 270.1 251.2 227.5 202.6 178.2 168.1 190.5 200.9 199.8 190.3 178.7 176.6 162.7 139.4 161 172.4 175.2 177.6 178.8 179.4 181 184.1 184.9 191 197.8 201.4 196.7 193.7 191.2 192.1 195.8 209 204.3 211.1 219.2 225.9 231.4 236.4 242.8 248.1
234.7 247.4 249.4 250.9 251.3 252.5 258.2 261.3 268.2 272.8 277.4 281.9 286.6 287.9 293 301.3 307.9 311.5 305.5 299.3 294.3 289.6 289.3 291.5 290.3 287.2 288.5 289.9 289.3 288.3 289.9 287.6 283.5 276.9 272.5 269.9 266.6 263.6 259.6 255.4 251.7 245.7 237.9 232.8 228.8 225.1 217.6 211.1 206 198.4 186.3 180.7 173.1 160.9 145.5 137.8 127.5 113.6 112 112 134.3 143 147.5 136.4 140.1 145.3 153.4 163.7 169.8 179 181.9 181.1 181.9 181.6 179.8 178.6 178.1 185.4 190.6 197.1 202.8 210.2 212.9 219.7 228.1 238.1 249.4 262 273.1 286.5 294 298.6 299.5 298.2 298.2 295.7 292.1 288.7 281.6 272.2 268.7 267.3 263.5 270.1 282 288.8 291.1 289.1 290.9 290.3 300.6 318.1 331.6 347.4 365.1 384.9 405.9 427.1 447.1 468.1 479.9 484.2 483.2 485.1 487.5 488.6 488.1 486.8 481.6 472 456.9 432.5 405 391.1 419 426.6 445.2 458 466.6 471.2 472 470 462.7 451.1 434.1 415.4 400 393.6 402.3 414.2 418.6 422.2 427.4 422.9 412.8 400.2 379.4 359.7 333.3 302.7 279.1 258.5 236.4 210.8 190.9 160.1 180.6 195 191.3 177.6 172.7 166.7 138.1 154.5 171.5 176.3 178.3 177.7 177.9 178.9 184.6 186 190.3 195.5 197.9 197.4 186.4 187.4 202.3 207.5 199.3 200.7 209.4 219.2 225 231.1 237.9 243.8 247.6 250.9
237.6 245.1 247.5 251.3 249 250.4 256.2 262.2 267.7 273.7 279.5 284.6 291.4 291.7 296.2 303.5 314.1 314.5 308 301.3 295.5 290.6 288.6 289.6 289.3 287.1 284.6 284 283.8 284.9 285.7 283.6 280.9 275.9 271.9 271.4 272.2 270.9 268.4 267.2 263 255.6 252.7 244 237.5 232.3 225.3 219.2 213.5 204.5 193.9 185.2 172.3 162.5 148.7 138.2 129.3 114.3 111.4 109.3 131.2 141 139.6 132.4 138.9 145 156.4 164.7 175.3 182.1 184.3 185.5 184.1 182.5 181.7 176.5 175.2 179.5 185.4 194 200.1 205.3 209.1 216.8 227.9 237.2 249.7 260.2 270.5 279 284.3 285.6 285.2 283.9 282.8 278.2 277.2 271.4 266.6 256.1 255.5 256.7 255.1 263.3 268.8 272.7 270.9 274.7 285.5 301.6 313.6 325.8 339.1 354.1 371.7 390.7 410.7 432.4 449 465 473.9 475.4 472.9 478.1 482.5 483.3 481.6 480.2 472.9 462.9 450.2 423.2 398.5 388.2 405.5 418.8 436.1 446.5 453.5 459.1 462.2 461.3 451.8 439.1 421.9 402.4 386.8 385.4 396.5 411.3 417.7 420.8 420.1 416.9 407.5 395.9 383.7 356.2 328.6 301.4 282.6 256.9 239.1 213.8 193.1 157.9 175.6 188.2 183.3 176 162.8 138.7 152 167 173.5 176.4 175.9 174 175.5 178 178 184.9 189.9 194.2 199.9 190.8 187.8 201.2 208.1 209.7 212.6 210.1 211.5 219.3 230.1 237.3 240.3 246.9 252.2 259.8
237.6 241.5 249.4 250.5 247.3 251.7 256.1 262.1 268.1 275.3 281.1 286.6 291.1 293.4 298.2 308.4 316.1 312.1 307.7 302.4 297.4 291.4 287.3 287.4 287.2 287 282.3 280.5 280.1 283 281 278.5 276.7 273.2 269.9 271.1 275.7 275.6 275.9 278.5 275.2 265.5 263.8 257.7 249.9 243.1 237.5 231 220.6 209.3 198.3 187.2 175.3 165.5 155.6 141.6 134.4 118.5 111.6 108.3 128 127.9 125.8 135.2 138.1 143.5 153.9 166.4 180.1 184.2 185.5 186.2 185.6 183.4 182.2 177.5 174.3 173.6 178.4 190.8 198.9 203.2 206.2 215.2 224.5 235.2 246.5 256.6 264.1 270.5 271.6 271.3 272.9 267.8 265.9 263.4 263.3 258.7 253.6 244.4 246.8 247.6 251 255.6 260.1 266.3 275 286.6 298.4 311.8 323.2 334.9 347.9 363.5 379.5 396.1 415.9 434.6 449.3 462.8 468.2 467 463.5 469.2 471.2 474.3 473.7 472.3 466.4 454.7 440.4 415.4 390 391.4 380 402.7 419.5 426.5 434.4 438.1 444 443.8 438.3 425.9 408 388.5 372.1 375.1 384 397.8 403.6 410 410.8 405.9 398 384.6 370 348.1 318.2 295.1 275.3 255 236.5 212.9 189.3 155.1 159.9 176.9 173.9 162.9 140.7 148.5 159.4 166.4 168.7 169.1 167 167.3 169.7 173.8 176.5 179.8 188.2 195.2 197.1 179.4 194.2 200.7 204.8 209.5 216.5 221.4 226.3 224.8 235.1 241 243.6 250.8 260.2 266.8
235.8 241.5 248.6 246.4 246.4 250.5 258.1 265.4 271.3 277 283.4 289.7 291.5 295.7 302.7 309.7 312.7 309.6 307.7 304.7 300.8 292 287.5 285.5 284.8 283.9 281.3 278.8 278.5 278.9 276.8 276 272.5 269.4 267.3 271.9 277.8 279.3 282 283.9 280.2 278.6 279.3 272.1 263.2 255.7 253.3 245 228.6 213.8 203.6 193.6 180.9 167.3 156.4 142.9 132.8 120.2 111.7 107.2 117.7 129.9 125.9 132.4 137.5 144.1 153.2 165.9 175.5 181 184 184.1 183.9 182.7 179.7 176.4 172.4 167 176.5 189.2 198 200.2 202.2 212.7 222.9 233 242.6 251.5 257.7 262.5 261.8 260 259.4 255.4 252.8 248.6 249.2 246.5 238.6 239.2 243 249 256.9 264.2 273 283.9 292 298.3 311.7 323.1 335.3 347.6 360.3 374.2 388.4 403.9 420.7 438.4 449.7 459.2 461.5 457.8 453.4 461.5 464.5 467.1 468.2 466 461.8 450.3 435.9 412.8 381.3 366.5 363.5 384.2 396.4 401.6 409.5 416 424 427.4 419.9 408.1 392.9 374.5 358 363.7 373.4 383.9 395.5 395.9 391.1 391.8 383.4 365 352.5 331 307.1 287.2 264.9 249.1 229.6 209 195.9 176.5 151.8 167.6 165.1 146.1 142.8 157.1 159.6 163.2 166.1 163.7 163.3 163 166 170.8 176.6 181.3 187.3 194.7 190.8 183.5 194.4 199.8 206 212.3 222.6 231.6 238 233.7 238.2 242.5 249.4 259.3 269 268.2
235.7 242.1 245.6 242.4 245.2 253.2 261.2 267.9 272.4 278.2 283.1 290.6 293.9 299.5 305.9 309.7 309.6 305.3 304.8 304 301 291.6 289.9 288.4 282.4 280.3 278.2 277.2 278.3 277.6 276 274.2 269.3 265.1 265.9 271 275.1 279 283.8 286.7 286.8 288.2 289.3 283.5 276.3 271.1 267.1 259.4 240 221 208.3 197.4 185.9 171.8 156.1 145 132.7 120.3 111.4 107.7 113.8 119.1 126.5 133.8 136.8 142.9 150.6 164.6 174.7 180.3 183 182.4 182 180.7 177.6 173.8 169.7 164.6 175.4 187.5 193.6 193.6 198.8 211 220.3 230.4 239.7 244.8 248.1 249 251 249.7 248.4 242.2 238.2 236.8 235.3 232.6 238.1 248.5 254.6 260.9 269.4 279.5 290 300.3 309.6 316.5 324.6 337.4 349.4 360.4 373 385.1 399.8 417.4 431.8 442.2 449.5 454.9 454.2 446.8 443.8 452.9 457.9 461.2 461.5 460.1 454 446.6 432.4 410.7 383.7 356.5 345.4 358.9 369.6 372.6 379.1 390.2 400.8 406.2 399.5 390.4 375.4 358 344.1 352.9 363.2 372.9 374.8 372.1 374.6 372.8 361 348.2 329.7 311.7 294.4 276.7 259 239.8 223.8 204.6 195.9 182 159.7 149.6 149.8 139.6 153.7 162 158.8 161.3 157.9 160 157.9 159.3 161.7 166.5 175.4 180 183.8 189.2 178.9 191.3 200 207.4 214.7 223.3 228.7 236.4 243.2 240.2 242.3 251.4 260.3 268.2 268.8 269.4
235.7 241 241.4 240.6 245.6 255.7 264.8 271.6 274.7 278 284.8 292.2 297.2 301.3 306.9 310.2 308 303.8 302.3 301 298.1 292.8 292.7 290 282.2 277.8 274.7 275.3 275.8 274.3 271.6 269.5 264.7 261.1 265 271.9 275.3 279.4 285.9 291.9 295.2 297.6 297.9 295.5 288.8 279.9 275.9 267.9 250.9 226.4 210 197.2 185.8 174.9 160.9 150 136.8 120.9 113.6 104.4 111.7 124.5 135.5 135 138.4 144.7 154.8 164.2 172.5 178.9 180.7 180 178.5 176.6 174.7 170.8 166.3 162 173 184.9 188.4 190.8 195.8 207.8 216.3 225.4 233.6 238.7 235.8 236.2 235 239.2 235.6 228.4 224.1 227 235.1 243.5 252.7 259.4 268.7 276.3 285.1 295.3 307.3 316.7 326.4 335 344 355.3 366.5 378.9 389.4 402.5 415.9 429 440.8 447.6 448.4 448.6 444.5 435.4 434.8 445.8 449.1 453.5 456.1 453.2 450.8 446.2 431.8 409.4 384.8 357.3 331.9 334.7 341.5 348.8 352.9 362.1 376.6 381.7 378.9 369 356.2 341.6 330.6 338.7 345.9 349.6 350.6 354.8 353.8 351.6 341.4 327.8 310.1 292.6 279.8 263.1 245.5 229.4 212.7 201.8 193 182.3 169.6 147.2 133.9 151.2 160.3 158.4 152 151.8 153.5 156.3 159.5 162.7 169.2 168.8 164.6 167.6 172.3 180.1 192.9 203.9 213.1 218.9 223.1 228.9 236.2 242.4 244.6 245 251.7 259.6 267.8 268.6 267.4 274.1
233.9 236.5 240.2 245.2 248.3 258.4 266.7 274.2 276.2 279.5 286.1 294.2 298.9 303.4 308.2 308 305 303.4 301.8 300.1 296.9 294.8 294.7 290.7 282.8 278 277.4 274 269 270 266.7 264.5 260 259.7 263 268.9 272.3 279.7 287.9 292 299.4 302.1 303.6 300.5 296 288.2 281.4 275 256.3 234.2 211.3 199.7 186.5 173.8 163 150.5 141.3 129.6 115.6 109.8 110.8 125.5 134.4 135.8 142.8 150.3 155.3 164.1 172.6 177.7 178.9 178.2 175.7 172.8 170.4 166.5 162.6 160 171.5 179.3 181.8 184.9 191.1 198.7 209 218.8 223.6 222.5 219.6 215.8 215 215.2 220.7 226.6 233.8 242.4 250.3 256.5 263.8 271.3 280.2 291.6 302.8 312.6 323 335 346.6 360.4 366.6 374.4 388.4 400.2 411.1 419.4 430.1 440 444.9 447.3 443.5 439.6 432.7 427.8 429.3 440 444.1 447.7 449.8 449.5 450.9 443.9 432.7 413.3 390.6 366.6 341.8 316.5 314.1 329.8 338 336.7 347.7 355.7 353.7 345.7 336.7 324.5 317.7 323 327.7 332.6 333.9 333.1 334 329.7 320.6 305.3 288.2 275.9 261.7 246.4 234.5 220 206.1 196.7 192.3 182 168.7 153.8 140.1 147.7 155 147.3 148.9 152.2 158.6 165.4 170.1 174.9 177.9 181.8 186.6 188.9 183 200.2 206.6 212.7 215.9 220.4 228.8 236.2 239.1 240.8 243.1 250.5 254.8 263.7 267.4 267.6 272.3 272.2
232.9 238.7 244.6 246.9 250.1 260.1 268.6 274.3 279 283.8 290 296.1 300.4 304.9 306.2 303.7 301.7 303.2 302.4 298.7 295.9 296.8 296.6 291.5 282.8 278.9 277.7 275.9 270.2 262.5 261.8 259.9 257.3 257.1 260.8 267.5 275.1 281.4 286 292.5 298.6 303.7 303.5 302.4 302 287.6 284.1 276.2 261.5 241.7 218.6 204.3 194.1 176.8 162.8 153.9 145.4 130.7 116.7 110.1 107 122.8 133.2 135.6 146.7 151.1 158.5 164.5 170.7 173.7 174.7 173.6 172.5 169.5 166.7 164.6 159.7 160.2 171.2 175.1 172.2 173.9 184 184.1 185.8 207.2 206.1 206.2 209.3 218.4 221.6 230 236.3 243.1 252.5 259.3 262.7 272.8 277.7 285 293.2 304.5 316.1 329.7 340.6 354.7 368.1 379.1 387.3 395.2 406.5 418.9 428.7 437.2 440.6 442.1 442.8 438 432.3 429.7 423.7 417.6 424.1 433.5 437.2 442.8 446.4 444.8 444.7 442.1 433.4 418.1 398.9 378.1 353.2 328 300.9 308 324.8 324.1 324.1 332.3 332.3 326.6 318.4 305.8 304.6 307.9 312.3 313.6 313.3 314.4 312.1 306.7 294.3 280 268.8 256 245.2 235.9 224 210.7 199.3 195.6 189.4 177.5 165.2 136.7 140.9 144.1 144.4 144.8 150.9 153.8 161.7 168.1 173 178.5 182.6 187.4 193.4 197.9 202.3 201.5 207.1 212.3 216.1 225.7 236.4 245.1 244.4 246.7 252.3 259.1 262.3 263.5 266.4 268.4 269.8 266.4
235.5 243.9 247 250.5 254.5 262.5 270.5 276.8 283.4 288.3 293 297.8 301.7 304.4 302.3 299 300.7 304.5 301.9 297.6 296.9 298.1 297.8 292.6 282.1 279.6 278.3 274.3 268.1 261.1 258.2 256 255 255.8 257.9 263.2 269 276.1 281.1 288.7 297.7 300.8 300 302.2 298.9 289.9 282.1 279.9 268.7 251 227.1 209.7 198.4 180.5 165.5 154.5 147.1 132.5 119 109.9 102.9 119.2 129.5 133 144 151.1 156.3 161.8 169 171.4 172.3 172.2 169.7 165.8 162.1 158.5 155.3 159.9 169.1 167.5 171.5 182.3 188.7 198.4 198 201.3 209.8 218 225.9 229 235.3 242.7 248.4 256 264.1 273.1 279.7 286.6 294 299.2 308.5 318.7 327.6 341.4 355.3 370.8 386 396.6 403.7 413.4 424 434.8 442.6 447.3 447.9 441.6 432.8 425.1 420.4 418.2 412.5 407.6 419.9 427.2 432.5 438.2 443.1 446.2 448.1 444.1 434.6 424.6 407.6 390.2 368 342.8 315.7 288 300.1 312.7 309.1 310.7 312.1 307.1 302.3 291.5 290.6 293.3 296.2 296.3 296 294.7 291.1 282.1 270.2 260.4 251.7 243.4 235.2 225 212.9 202.1 197.1 194.3 185.1 174 159.1 136.2 133.6 141.3 142 146.5 150.9 154.7 162.8 169.4 175.7 181.7 188.7 194.4 199 202.3 203.8 207.3 209 216.2 227.2 234.5 243.3 246 247.1 251 256.6 262.4 265.6 265.6 266.9 267.6 267.7 262.6
240.6 245.8 248.2 252.5 257.2 264.2 271.7 278.4 284.8 289.3 293.8 299.8 302.4 302.1 299.3 298.2 302.7 306.5 303.1 298 297.5 299.1 298.3 292.6 281.9 278.9 276.3 272.3 268 261.7 257.6 255.1 254.5 253.7 256.7 260 265.5 271.9 278.6 286.2 292.7 295.2 298.5 302.6 299.1 289.9 281 279.4 270.6 256 240.2 220.3 199.4 184.8 168.6 156.1 147.7 132.5 121.1 110.6 102.5 118.5 131.5 133.4 139.7 145.5 151.6 159 164.7 168.8 167.4 162.4 161.7 160.3 150.1 150.5 153.6 157.6 166.9 166.8 175.5 186.5 192.9 197.7 203.2 208.5 215.1 222.8 229.7 237.2 246.6 256.1 264.1 270 278.4 285.9 293.6 297.1 304.6 311.5 320.9 331.5 338.4 354 368.3 384.9 399.7 411 419.5 430.7 440.6 449.1 454.1 451.4 445.7 431.1 418.9 411 408.4 405.2 399.5 405.3 415.7 423.9 430.4 437.8 445.1 448.3 448.1 446.4 447 435.6 419.3 396.8 375.2 353.3 325.4 297.8 279 298.5 298.5 295.1 293.8 291.7 286 273.7 276.1 278.3 279.8 279.6 277.4 273.6 267.3 259.3 251.7 245.9 241.7 238.3 229.9 215.9 202 196.1 195.1 189.3 180.1 171.7 157.7 133.3 135.7 140.7 143.1 148.7 151.7 157.6 163.4 169.3 177.1 183.8 190.9 197.3 202.5 202.5 209.2 209.2 213.3 221.6 229.7 236 242.1 246.1 249.6 254.9 259.1 262.6 266.1 267.7 267 266.5 263.9 253.6
244 245.3 246.2 250.4 258.2 265 273.6 281 286.7 290.7 295.7 301.7 301.9 299.7 298.1 298.1 303.8 307.7 304.7 299.1 298.4 299.8 297.9 291.5 283.4 279.8 274.3 270.5 268.2 264.8 260.3 255.7 252.6 252.2 254.7 255.2 262.2 267.4 274.1 281.1 285.8 289.4 300 302.1 300.4 291.9 283.4 276.7 269.6 262.6 251 228.1 204.8 186.8 171.3 156.7 146.5 131.9 121.4 112.9 102.4 116.1 129.9 132.6 134 142.9 151.1 155.9 161.5 163 161.7 163.8 158 155.1 148.5 153.8 161.8 163.9 170.5 169 182.9 188.4 195.2 202.7 208.1 215.3 223.9 229.3 237.2 246.2 256.4 265.8 278.4 286.4 292.2 298.6 305.3 311.2 318 324.7 334 344.3 352.4 364.9 381.3 396.5 411.3 421.5 435.2 443.2 450.4 458.9 459.5 450.2 435.1 418 404.4 395.2 392.6 391.6 386.7 402.5 413.9 423.9 431.7 439.3 444.6 448.2 457 458.7 452.8 443.5 426.3 405.5 380.2 354.6 332.1 310.5 277.9 277.5 288.5 286 281.2 278.5 272.7 263.4 261.6 261.9 262.9 261.5 256.9 253.1 248.3 243.3 239.2 237.6 234.5 229.2 217.7 204 193.3 192.8 191.1 182.9 174.6 168.5 161.5 149 128.7 140.3 142.7 148.9 151.5 158 164.1 171.1 177.5 182.9 190.3 200.1 199.7 201.6 205.4 212.1 216.7 224 228.9 233.8 240.6 246.2 251.7 255.4 258.1 263.3 269.3 267.9 264.9 261.6 258.9 247.5
244.6 244.3 245.1 251.4 259.1 266.7 276 283.7 290 293.7 298.9 303 301 298.1 297.2 299 305 308.3 305.3 300.5 299.8 300 296.6 290.4 285.5 281.5 278.8 273.7 270 266.9 262.3 256.7 251.8 251.3 253.3 252.8 259 264.5 270.3 273.4 280.5 288.7 300 297 297 290.5 280.7 268.6 262.6 259.4 245.6 230.6 206.2 188.4 174.2 156 146.5 135.6 121.7 110.2 102.4 113.5 118.3 124.6 129.5 136.2 144 157.9 161.3 155.6 159.4 161 155 145 150.8 159.1 165.2 166.4 169.3 175.1 184.1 191.6 199.4 205.1 211.9 221.2 227.8 235.1 244.6 254.2 266.5 279.7 289.4 298.7 304.6 311.2 317.6 324.2 332 339.2 348 356.3 366.2 380.4 394.3 410.6 425.5 437.7 446 452.8 458 461.7 458.8 444.9 425.2 405.1 388.9 380 380.1 374 385.9 398.9 407.5 416.9 426.3 434.4 439.8 448.3 457.3 459.7 453 442.5 424.5 402.9 377.3 349.2 328.2 309.3 280.1 261.9 278.2 277.2 272.5 266.9 260.5 251.4 245.4 245.6 248.2 245.1 241.9 238.6 235.9 233.8 232.4 229.7 224.1 216.2 203 190.5 184.9 185.6 182.6 175.8 170.3 166.5 162.6 154.5 138.2 136.1 142.7 148.9 151.7 159.4 165.2 170.7 174.5 181.2 189.8 193.1 193.3 201.6 211.1 211.1 215.7 219.9 227.6 234.5 242.1 244.4 247.7 251.3 256 263.8 266.6 264 258.8 256.3 253.6 236.9
244.1 243.4 245.1 251.5 259.8 269 279.3 289.7 294.4 298.1 301.6 303.3 299.5 296.4 296.2 299 304.9 307 305.1 302.9 302.9 299.1 293.9 289.2 285.1 280.9 277.8 274.5 272.3 269.6 265.1 260.1 253.9 250.8 251.4 251.9 256.6 260.8 265.4 270.7 279.9 284.2 286.6 288.6 293.9 289 273.4 261.4 255.2 249.8 237.6 221.6 205.7 190.5 173.5 163.7 151.8 139.3 124.5 110.3 104.7 115.1 127.1 128.1 134.6 134.3 144.7 157.5 153.9 148.1 145.6 146.1 148.3 143.2 152.3 163.7 164.3 170.9 172.3 176.1 185.3 195.1 200.5 206.5 214.5 222.7 232 239.9 250 262.2 276.4 290.2 299.5 307.3 313 321.5 332.4 339.4 348.3 355.4 361.5 368.3 377.2 393.6 407.6 421.1 434.3 444.8 453.8 459.4 462.9 465.4 456.7 439.6 413.8 391.7 375.1 371.7 372.8 366 383.3 393.1 401.6 411.2 422.3 432.2 437.6 448.1 449.7 445 443.4 426.2 411.2 393.6 363.7 340.3 321.5 303.3 283.6 251.8 267.5 266.4 261.5 255 249.7 240.4 235.1 235.5 236.8 233.7 232.1 230.3 228.5 226.8 224 220 213 203.9 190 178.3 174.3 175.8 172.9 170.1 167.9 166.2 160.8 153.6 139 127.7 142.2 148.8 154.5 158.5 161 164.5 172.2 180.3 183.8 194.9 202.8 205.5 206.9 206.7 212 218.2 225.1 231.7 238.3 238.9 241.5 248.3 254.2 258.1 258.1 255.4 252.8 251.5 238.3 246.3
243.3 243.7 246.5 252.6 260.9 271.8 283.5 291.5 294.7 297.7 300.5 301.3 298 294.1 296 298.9 304.1 305.2 304.7 304.7 301.7 296.8 289.1 283.8 282.3 278.5 275.7 274.4 277.1 274.4 267.5 260.8 253.7 251 250.9 252.4 252.9 257.5 262.1 268.6 274.9 278.1 279.4 282.3 286.7 282 266.9 257.8 253.6 245.5 235.4 223.2 208.4 193.6 180.5 170.5 158.7 143.5 129.9 110 103.7 116.3 126.7 130.4 133 133.8 137.7 142.4 146.1 152.9 149 146.7 140.4 146.4 159.3 161.8 167 176.7 180.8 181.9 189.8 194.5 200.6 209 217.9 224.2 234.8 243.1 254.2 268.1 285.4 300.1 309.1 315.1 325.2 334.9 344.4 352.4 363.7 370.1 376.2 384.3 392.7 407.6 419.8 434 443.3 448.6 457.5 461.8 463.6 461.8 448 429.1 405.8 379.9 367.7 365.2 364.9 356.3 374 384.2 394.6 406.7 418.5 428.8 438 445.1 447.8 446.5 436.1 416.5 399.1 374.7 350.9 329.1 311.3 293.1 273.9 243.7 253.6 254.9 251.1 246.2 241 232.8 226.2 226.8 226.7 226.2 226.1 225.3 222.2 218.4 213.6 210.7 202.9 193.2 180.7 170.3 167.1 166.7 165.3 167.9 164.6 160.6 153.9 140.2 137.7 128.3 145.4 150.2 152.9 155.5 157.8 163.3 169.9 179.4 192.8 203.2 205.2 202.4 202.2 203.5 208.2 214.9 220.3 225.1 229.1 229.1 238.4 244.9 246.2 248.3 248.1 248.1 247 243.5 222.9 246.6
243.4 244.9 249.1 254.7 263.2 273 283.5 288.7 290.4 293.7 296.7 297 294.8 291.5 294.8 298.9 302.7 304.4 304 303.1 301.3 295.8 289.3 286.8 280.5 275.8 272.8 274.6 279.7 277.6 268.2 259.8 255.2 252.3 252.7 248.4 248.6 253.9 260.8 265.9 271.3 271.5 273.5 275.6 274.7 273 263 256 251.5 247.1 241.9 227.5 213.8 199.6 185.1 174.1 162.8 146.3 131.9 111.1 103.1 112 121.3 123.4 127.4 128.1 129.9 135 137.5 141.6 145.1 137.3 141.6 152.1 158.2 162.2 170.1 176.8 181.9 184.9 191.1 196.8 201.8 211.6 218.7 226.2 236.6 247 258 273.8 291.2 305.4 315.6 325 333.4 346.7 357 364 371.5 383.8 395.5 402.2 412.1 421.8 432.1 443.6 450.9 455.2 463.4 468.1 465.9 465.5 444.8 419.5 397.6 371.6 360.3 358.8 358.3 342.6 362.2 375.2 387.6 400 410.3 420 429.8 438.3 441.4 432.5 415.9 399.6 379 356.3 333.4 313.4 299.2 282.8 266.6 239.4 240.2 244.6 241.8 236.5 231.3 225.2 220.5 219.5 219.9 221.5 222.2 219.5 214.7 210.7 206.8 201.9 195.8 186.2 174.5 165.4 160.7 160.3 164.3 164.8 154.7 146 137.9 136.5 134.1 127.4 148 153.4 154 156.3 161.7 169.7 178.1 189.1 198.8 204.6 204.5 204.3 201.3 201 205.1 209.9 216 218.4 219 223.5 229.4 230.2 233.6 237.6 241.5 229.3 231.8 227.2 234.7 245
246.2 249.5 253.1 257.4 264.7 273.8 282 283.1 284.9 289.9 291.9 291.5 291 289.6 293.6 298.2 302.6 306.1 303.4 302.7 302 296.2 291.5 290.9 280.6 273.9 268.8 272.4 277.6 276 266.2 258.4 255.6 255.9 254.2 250 242.4 249.4 256.3 260.8 263.5 263.2 265.3 266.7 265.1 265.9 261.3 254.9 252.5 253.8 244 234 221.2 205.9 191.7 178.5 166.7 150.6 132.6 120.4 104.5 109.1 118.6 128.6 134.7 137.7 135.6 131.4 133.1 136.4 132.6 136.3 144.4 154.1 157.6 164.4 172.4 177.8 181.7 186.2 189.2 194.4 203.7 213.7 220.3 229.5 238.5 248.8 261.5 278.6 292.7 308.4 318.3 331 344.5 356.6 365 373.6 381.6 392.9 403.7 414.7 425.8 435.3 443.6 449.6 456.1 461.6 467.9 468.4 470.9 461.4 438.7 413.8 392.6 365.4 353.3 351.7 349.3 327.1 342.6 361.3 377.1 390.7 401.8 411.1 419.6 427.3 423 405.6 391.8 376.8 358.7 334.9 314 299.9 287 270.5 254.6 237.6 228.4 231.9 231.4 226.6 224 218.8 216.8 212.9 215.7 218.8 217.9 212.6 207.9 203.8 198.2 193.9 188.3 179 169.3 158.1 154.1 156.6 157.4 150.4 137.9 135.7 135 124.4 137.8 146 154.1 158.3 159.7 160 166.4 174.4 183.3 194.9 201.9 201.8 204.2 202.9 198.8 198.4 201.1 204.4 206.1 208.3 210.3 210.2 211.4 212.1 215.7 221.7 220.3 201.2 211.6 221.2 237.2 241.4
250.9 254.7 256.2 259.9 266.7 274 278.1 279.3 284.3 289.8 290.2 289 287.8 288.2 292.6 296.7 302.8 305.2 303.2 302.6 300.9 295.3 296.1 287.3 281 273.1 264.8 268.6 272.7 271.7 263.4 260.4 262.2 261.1 257 248.9 240.8 243.5 250.4 255.8 256.1 257.3 258.4 259 258.2 261.4 256.8 253.1 258.9 257.9 248.8 240.3 227.7 212.5 199 184 171.6 155.6 133.6 125.1 110.2 103.5 118.5 131.3 136 136.5 139.2 132.6 131.8 132.8 132 139 145.9 155.1 160.3 168.6 175.7 180.4 180.8 182.2 188.2 194.7 203.2 214.3 221.3 230.6 241.2 250.9 265.5 280.2 295.8 309.4 321 334.2 347.8 358.8 370.6 377.5 384.8 393.6 404.7 416.5 429.5 440.7 446.1 454.1 461.7 470.3 470.7 464.3 461.5 451.3 432.7 410.7 389 365.8 346.8 343.7 337.9 319.7 321.6 341.8 359.7 375 388.5 399 407.6 410.4 401.5 384.2 368.5 351 332.1 312.7 296.9 285.3 270.3 252.9 239.8 229.7 218 219.9 221.7 220.2 217.7 212.7 211.6 207.1 212.2 213.8 212.2 205.3 201.3 198.4 192.3 187.2 182.1 174 163.9 152.9 149.4 143.5 139.7 134.4 133.2 131.2 129.7 139 147.1 150.8 159 164 165.9 170.5 175.7 179.1 187.1 193.2 195.4 196.1 197.2 197.9 195.7 194.5 198.1 196 194.1 198 195.6 193.8 193.9 194.8 196.3 195.8 194.8 218 232.7 238.6 240.4 242.9
255.2 258.9 259.9 262.5 267.6 271.5 274.8 279 285.1 290.6 292.2 288.2 286.5 287.1 290.4 297.1 300.8 302.3 303.6 301 297.3 294.4 290.9 285.4 279.7 273.2 263.2 262.2 266.1 264.1 259.1 262.1 265.5 261.4 255.4 246.8 236.6 240.5 246.2 250.6 251.9 251.5 251.7 251.9 251 251.3 252.6 253.1 258.7 259.9 251.5 240.4 230.6 218.5 202.5 186.9 173.9 157.4 135.9 123.6 113.1 100.8 113.6 130.3 138 140.4 135.4 131.3 126.4 129.6 136.8 142.4 149.8 155.9 164 171.5 177.9 181.9 188.3 185.3 191.4 196.5 202.9 213.5 221.1 230.5 242.4 254.2 268.4 282.4 296.1 307.1 321.6 333.3 345.1 354.5 368.1 370.4 375.7 383.9 391.7 402.2 414.5 423.4 431.9 444.2 456 461.5 460.8 453.1 447.6 442.4 429.2 408.4 387.9 366.6 344 335.6 332.9 308.4 303.2 324.3 343.2 356.3 367 378.4 386.4 385 378.5 366.2 349 326.6 305.6 290 277.6 264.3 250.1 239 231.6 227.7 212.7 210 212.4 214.3 211.7 207.4 205.5 201.6 204.6 205.6 204.4 199.2 195.9 192.6 187.6 179 175 168.8 159.6 146.1 122.5 127.9 132.3 133.8 123.1 135.3 138.5 145 149 155.4 163.2 170.2 173.6 176.5 177.2 180.5 188.4 192.1 194.6 195.4 195.8 195.6 171.1 166.3 172.2 179.9 173.6 175.7 180.1 200.9 208.4 211.9 212.8 213.8 212.6 199.9 225.9 240.2 243.1 245.8
257.5 260.2 262.3 262.5 265.3 268.5 272.1 279.4 287.9 292.2 292.8 288.4 286.3 286.8 290.4 298.3 299.5 301.9 301.8 297.5 294.8 291.8 287.9 283.1 279.5 274.2 265.4 256.1 257 256.3 255.2 258.4 262.3 257.5 250.9 243.9 234.8 239.4 243.4 245.7 247.7 247.8 248.3 246.1 245.9 246 253.2 250.8 251 250.8 246.8 235.3 225.4 217.1 201.9 189.4 177 161.1 138.4 130 112.4 101.9 109.9 128.4 136.6 140.5 135.7 129.1 126.6 132.4 137.3 143.9 148 157.1 162.8 170.5 180.6 187.5 188.3 184.8 189.4 199.1 205.3 217.1 221.6 232.4 245.3 258 270.9 284.2 295.7 303.8 319.6 330.6 337.2 345.2 352.5 357.1 363 369.5 377.2 385.7 395.9 410.7 429.5 443.9 449 449.1 444.5 438.3 434 427.5 418.8 405 389.7 369.3 347.1 329.2 321.6 307.4 289 311.6 329 339.6 351.9 361.8 367.3 369.8 356.9 337.3 318.5 298.4 283.5 269.4 256.9 244.8 235.5 229.8 226.7 222.6 204.4 201 207.1 208.6 209.4 207.8 198.8 197.3 189.9 196.2 195 192.9 190.4 188.3 183.3 174.1 167.1 162.1 152.1 139 122.5 129 133 135.2 145.9 147.7 146.9 147.2 152.7 159.3 164.4 172.8 176.7 175.9 178.8 183.9 190 189.3 192.1 190.8 187.3 170.9 171.5 189.1 189.4 185.1 192.7 201.8 206.9 216.4 224.2 227.6 228.9 229.8 233.7 225.5 219 222.2 236.3 241.8
259.4 261 264.2 263.5 262.2 265 272 283 292.1 293.8 291.6 288.2 286.2 286.8 291 297.9 298.1 298.5 298 297.4 291 287.7 284.1 281.7 281.7 273.7 266.3 259.7 253 247 248 251.7 254.6 253.4 246.4 241.2 233.7 238.1 239 240.9 241.4 245 244.5 243.6 242.8 242.8 247.3 245 244.4 242.8 237.2 233.3 222.3 212.4 201.4 189.3 176.5 159.5 139.6 121.3 122.4 100.4 108.8 126.5 131 129.3 119.6 124.1 129.8 132.4 138.3 143.9 150.6 158.6 167.4 174.8 183.4 192.4 193.2 189.4 192.1 198.6 207 214.8 223.1 235.4 248 260.4 272.1 284 291.4 303.5 312 317.8 322.2 331.2 337.5 342.5 347.8 352.8 362.1 371.1 384.6 402.7 419.9 424.8 429.2 428.4 423.5 420.1 416.7 407.4 410.5 401.1 389.4 373.1 350.1 331.4 315.5 298.9 275.8 299.7 314 325.8 335.4 344.4 349 342.2 326.6 307.6 292.1 277.7 263.3 247.8 238.6 231.5 225.5 221.5 218.4 210.6 196.6 194.1 204.1 203.5 203.1 201.8 192.6 190.8 182.9 186.7 185.7 183.8 184.2 180.3 175.1 168 163.6 159.3 153.5 152.3 146 128.5 130.4 138.8 147.4 148.9 151.8 156.7 155.7 160.7 168.4 174.5 176.4 174.3 178.3 183.3 183.1 190.6 187.3 179.3 173.4 162.9 178.7 192.1 199.9 203.6 207.4 213.5 223.4 227.9 233.4 239.4 242.3 239.7 236.9 223.6 211 229.2 232.2 230.6
260.4 264.2 266.6 262.6 259.4 261.8 270.8 278.8 285.3 287.9 287 286.2 291.5 290.5 291.2 296.6 298.4 298.3 296.3 295.3 287.2 282.2 278.7 279.5 281.3 273.6 266.9 258.5 251.5 248 240.9 244.7 245.1 243.9 239.5 236.1 231.1 234.5 235.4 236.3 236.4 240.7 240.7 241 241.4 241.8 242.6 240.9 239.5 235.9 231.3 230.6 220.1 213.5 201.3 185.7 172.1 155.4 136.4 118.3 109.3 100 110.3 126.1 124.5 116.5 122.6 131.3 135.6 133.9 136.3 142.6 150.5 159.8 168.7 175.3 180.7 186.9 189.6 189.7 195.5 197.6 205.7 216.1 224.6 234.9 247.3 259.6 271.9 282.3 289.3 292.7 300.3 304.5 311.4 317.4 323.8 328.3 334.2 341.1 349.8 362.1 378.7 394.1 406.2 409.7 406.6 403.8 403.1 400.8 395.1 390.1 391.8 388.4 382.3 371.5 350.2 330 306.7 297.1 267.7 290.9 298 309.2 315.7 321.8 321.9 314.4 297.2 283.2 269.2 254.6 242.2 232.5 225.6 220.5 216.3 211.3 202.4 194.8 189.8 189.7 195.5 195.6 195.6 191.3 186.7 182.3 177.6 179.1 177.8 176.8 175.4 172.5 169.3 164.5 160.7 158.1 157.5 157.7 153.9 138.4 131.3 142.5 147 149.4 155.2 156.9 159 163.7 169.6 174.2 174.2 173.8 171.7 177.1 184 181.9 173.4 154.6 155.6 161.5 186.9 196.1 204.7 211.6 220.1 229 225.4 227.1 236 240.1 239.7 239.5 239.3 234.4 237.9 240.7 247.1 250.4
263 266.6 265.8 261 257.8 262.2 266.3 271.2 274.4 278.1 280.2 285.2 290.9 290.5 290 296.2 298 293.6 292.6 291.8 283.3 275.8 273.9 276.9 277.4 272.6 266.8 256.7 249.4 245.3 236.9 237.9 237.9 234.9 230.5 230.6 230.2 232.5 231.5 232.8 234.3 237.4 238.2 237.6 239.4 240.6 239 238.9 235.8 231.9 229.2 222.4 211.7 205.3 193.7 180.2 168.5 154.2 135.8 115.3 106.4 103.5 112 123.2 113.1 122.1 128.1 133.6 134.6 132.7 136.2 141.3 149.4 161.3 169.6 178.3 184 184 185.3 185.7 193 201.3 208.5 216.9 224.5 233.9 243.4 253.1 263.3 272.5 279.1 284.7 292.2 298.5 303.4 308.1 314.4 321.5 328.6 333.3 342.6 354.9 370.6 388.5 391.3 393.4 391.5 387.6 384.4 374.5 369.2 370.5 373.3 375.4 375 361.5 345 323.3 297 286.4 257.2 279 282 289 294.9 299.1 298.7 284.8 267.7 255.2 247.4 238.1 229.1 221.8 216.4 212.3 204.8 195.3 189.7 184.8 183.4 188.3 189.2 187.9 185.1 182.3 180.5 176.7 171.3 174.2 171.8 171.8 170 166.3 162.4 159.4 158.3 158.3 157.9 153.2 146 137.1 122.4 139.2 146.6 150.3 154.9 160.5 163.8 166.8 169.4 170.9 170.9 168.9 169.1 172.4 170.9 165.9 156.7 153.8 170.2 180.7 190.9 201.5 211.8 217.8 226.4 224.2 225.4 232.1 237.3 241.4 243.8 243.2 238.7 240.2 244.5 245.7 246.5 254.8
264.3 265.3 262.3 258 257.1 260.9 264 267.1 270.5 273.3 277.1 283.2 285.2 285.3 286.4 291.5 290.6 290.1 290.5 286.4 278.1 270.3 269.4 273.2 272.5 268.8 263.9 254.7 247.2 242.9 236.9 232.7 232.2 229.4 226.6 227.5 230.6 232.8 230.9 230.5 232.1 233.5 234.7 235.8 236.3 238.4 235.8 236 233.6 231.1 228.8 220.2 209.5 197.6 185.9 174.9 166.3 152.3 133.5 111.7 100.3 105.3 122.8 117.8 114.1 124.7 128.9 132.1 131.5 133.4 141.7 143.7 151.2 160.1 166.7 176 180 183.8 182.7 183.5 189.7 199 208.7 216 222.8 231.8 240.9 249.7 260.6 267.4 273.8 280.6 286.4 293 301.4 308.6 313.7 319.6 323.4 327.8 339 355.3 367.1 375.8 380.3 382 375 364.8 356.5 354.6 349.4 353.7 359.5 362.2 360.6 352.1 338.8 316.7 288.2 267.3 248.8 265 271.7 270.6 271.2 268 263.7 253.5 241.4 238.6 235.4 229.1 219.9 214.1 208.3 203 195.5 190.7 194.1 186.3 177.9 182.1 180.5 180.2 177.8 174.9 174 170.5 165.1 167.7 166.4 166.1 165.3 163.1 160.7 158.3 156.8 157.2 153 145.8 141.9 134.8 124.8 138.2 146.8 151.4 155.2 160 162.8 165.3 168.4 168.9 166 161.1 160.6 156.9 159 152.6 163.9 169.1 171.6 177.9 189.6 205.1 222.3 221.7 219.4 224.6 231.7 237.3 244.7 250.5 250.5 246.5 243.1 248 253.2 254.6 255.4 259.5
263.9 262.6 259.1 255.4 255.3 258.2 261.2 263.9 266.9 269.4 274.6 279.5 280.8 280.9 281.5 284.4 284.8 283.5 281.3 278.4 273.2 268.4 264.4 267.4 266.6 263.5 260 249.3 241.2 236.9 234.6 232.7 228 225.9 225.9 226.6 229.5 230.7 230.2 229.5 225.9 228.6 231.2 231 230.7 232.5 231.6 232.5 233.4 232.7 229.4 220.4 209.6 194.1 180.8 170.4 158.2 144.9 134 112.4 100 105 111.3 118.1 120.4 124.1 126.3 128.7 127.5 130.8 137.5 142.6 151.5 158.7 164 168.8 169.4 172.1 174 180 186.3 194.7 204 211.1 216.9 225.7 234.5 244.6 252.4 261.4 267.1 275.1 281.9 289.7 299.4 308.5 313.8 317.1 320.2 328 337.1 350 354.5 355.7 357.4 359.6 349.3 344.7 341.3 339.3 341 338.4 338.4 337.6 337.2 337.4 332.7 317.3 285.5 255.9 241.5 257.1 262 255.4 251.3 246.2 239.8 232.4 233.5 231.5 221.7 215.2 212.1 206.1 201.1 195.9 192.1 192.6 194.4 188.9 178.1 171.9 174.6 174.2 172.4 167.9 165.4 162.9 160.3 160.7 158.8 160.3 162.1 160.7 159.4 156.4 154 152.9 150.3 141.3 141 131.2 121.5 138 146.9 150 154.1 156.4 159.1 165.7 170.4 165 154.1 149.9 148.7 161.6 160.5 167.9 180.5 185.7 187.2 183.1 184.5 198.4 213.1 213.9 221.3 231.8 241.2 248.2 255.1 255.9 252.9 248.7 249 253.3 258.3 264.4 265.8 266.6
261.6 258.7 255.2 251.4 253.4 255.8 257.5 260.9 265.3 266.7 271.3 275.6 276.9 277.8 277.9 279 278.7 276 273.2 270.7 266.6 264.6 262.2 261.9 261.4 259.2 254.9 246.8 236.9 234.9 234.8 232.8 226.3 224.1 226 227 226.6 226.6 224.5 226 221.7 223 225.5 225.4 224.5 224.8 227.2 232.5 235.1 236.1 230.7 220.3 208.5 192.8 178 161.4 149.4 140.2 125.9 112.4 101.2 102.4 104.6 111.4 119.7 122.8 124.1 125.6 125.1 130.9 133.3 142.3 154.2 156.7 157.8 160.2 162.6 166.1 170 176.3 182.2 191 198.9 201.8 206.4 217.2 223.6 235.3 243.6 248.7 258 265.4 278.3 284.6 293.1 301.4 306.6 311 314.8 324.9 326.9 332.1 330.2 333 334.4 334.3 327.3 327.6 325.5 324.8 316.6 311.6 316.1 316.1 319.1 318.7 321.1 314.9 286.5 256.9 229.8 245.1 246.7 243.8 239.2 234.5 229.9 224.8 217.4 210.9 207.3 204.9 203.3 198.4 193.7 189.7 189.5 187.7 189.4 184.7 178.3 171.3 166.7 168.3 165.4 160.7 158.2 156.7 156 155.2 153.7 154 155.7 156.9 156.9 155.3 152.1 147.2 143.9 138 136.5 129.3 131.8 144.5 146.8 149.9 152.4 158.7 163.2 169.6 162.4 139.2 149.1 160.6 172.3 177 181.5 176.8 178.8 193.8 195.5 194 198.1 206.6 215.1 220.6 227.8 238.3 249 255.7 262.3 259.4 252.3 254.2 261 259 265.2 269.6 270.1 272.6
255.7 252.2 248.6 248.7 250.5 252.2 254.4 258.6 264.3 268 271.4 274.9 277.7 278.6 279.1 278.5 275.8 268.1 265.9 265 262.1 261 259.5 256.8 254.7 253.4 249.1 241.1 235 233.5 233.6 231.7 224.9 222.5 226.6 227.1 224.1 221.8 218.1 216.8 216.4 217.2 220.1 219.7 219.2 218.9 226.2 233.3 239.2 245.1 232.5 215.7 205.9 191.7 171.7 153.6 140.4 129 118.2 108.6 102.5 103.6 104.4 110.3 116 119.3 122.4 122.8 123.5 127.7 137.1 147.4 151.5 151.7 149.4 150.2 154.2 161 165.6 173.7 180.3 185.1 188.3 189.5 195.5 201.3 209.9 221.6 230 235.1 242.5 255.6 264.5 270.6 278.4 287.1 290.3 293.3 299.3 302.7 303.2 304.5 305.1 309.3 310 308.7 307.8 311.2 304.1 294.8 290.9 288.1 292.1 294.7 295.7 294.2 289.8 281.6 266.4 248.6 230 227.2 231.5 231.1 228.3 224.7 219.3 211.5 206.1 202.7 200.2 196.8 192.7 189.1 187.5 184.8 185.3 182.6 180.8 177.7 173.2 166.4 161.8 160.6 158.8 157 155.2 151.7 153.3 151.8 149.5 146.7 149.6 152.4 153.2 152.5 148.3 143.3 141.5 133.8 130 122.3 139.9 146.4 147.8 150.4 159.3 164.7 166 159.1 143.6 145 160.1 170.1 176.5 180.3 185.7 190.8 188.3 186.2 193.4 197.5 203.3 211.6 219 227 237.7 244.8 254.3 261.9 262.8 258.2 252.5 251.5 253.8 262.1 263 268.5 270.5 271.3
249.2 246.4 246.7 248 249 250.6 255.1 260.9 268.5 272.2 275.3 278.3 281 282.8 284.1 282.3 276.5 268.2 262.9 260.5 259.8 256.4 255 251.5 252.2 246.7 239 238.2 234.5 234 231.3 228.2 222.4 223.4 226.4 225.6 220.8 217.2 214.9 213.5 214.4 213.7 213 214.7 213.6 215.2 224.3 231.1 238.1 242.7 226.4 214.8 204.9 188.9 165.7 147.4 133.2 122.3 113.5 106.2 104.3 102.3 103.7 106.4 109.1 108.3 113.9 120.6 125.9 133.3 141.8 148.8 146 147 143.1 146.5 148.9 156.2 161.5 167.3 170.1 174.7 174.5 176.1 183.4 187.8 196.3 206.8 212.8 221.1 230.1 238.9 249 254.2 264.8 266.1 269.8 274.6 277.2 277.4 278.8 280 284.5 285.5 288.9 285.6 291.7 295.7 282.4 269.8 266.9 266.3 264.8 265.5 265.5 261.5 258.8 251.8 240 227.2 222.9 214.9 220.3 220.6 218.4 214.6 208.5 202.9 199.3 195.3 194 192 190.4 185.8 185.1 181.5 177.9 175.9 173.3 170.8 166.2 158.3 158 157.3 158.4 160 157.2 148.9 150.6 149.8 149.1 146.7 143 147.7 147 146.3 144.1 145.5 140.5 129.4 120.6 134 139.3 142.6 148.1 151.4 157.2 159.4 155.2 138 146.5 155.2 169 173.5 180 183.7 187.7 191.8 192.8 193.9 199.2 203 204.5 213.1 220.8 232 243.2 250.6 255 257 258.1 253.7 251 249.3 259.4 268.4 270.6 270.1 275.9 278.9
249.4 251 249.4 248.6 248.6 249.5 255 265.4 272.4 277 281.5 284.2 285.1 286.8 287.6 281.9 275.3 268.9 264.5 260.7 254.8 251.5 248.2 244.5 242.7 237.1 236.1 233.2 232.8 231.7 228.9 224.8 220.3 222.7 224.5 222.5 217.3 212.8 211.6 210.1 210.9 212 209.6 210.2 209.4 209.8 218.4 226.2 228.5 223.6 217.1 212.2 201 184.7 165.7 148 133.4 118.4 108.7 105.3 104.4 99.7 103.5 104.8 112.6 110.7 117 130 125.3 136 142.6 142.1 137.6 139.8 142.2 143.2 143.2 148.8 154.7 162.4 163.6 164.7 162.2 165.9 174 182.6 189.1 193.1 202.5 209.4 220.4 224.1 229.6 238 246.4 242.8 246.9 251.7 255.7 257.8 257.3 257.8 263.8 269 268.8 267.4 264.6 259.3 255.9 246.9 245.2 244.9 244.6 243.8 244.6 240.9 233.9 227.8 222.3 218.4 213.1 204.2 209.7 211 208.6 205.5 201.7 194.5 191 189.8 188.3 186.6 187.8 183.5 180.5 174.8 171.8 171.9 167 161.8 154.3 154 153.5 155.2 157.7 155.6 149.4 146.4 149.4 151.9 150.9 143.9 139 141.4 141.3 145.5 149.4 150.5 134.6 120.3 131.2 137 136.8 140.7 144.2 147.8 144.5 137.9 142.6 148.2 156.5 166.7 169.7 173.8 180.7 185.9 190.7 192.7 194.2 197 202 206.6 210.9 217 226.1 235.5 242.2 248.3 251.5 251 251.2 247.2 248.4 254.3 263.2 262.8 264.9 270.7 275 280.7
252.8 254.2 253.5 251.7 249.5 249.4 255.8 269.8 277 281.2 284.2 284 282.8 284.2 286.3 279.5 272.5 266.8 263.1 259 253.6 251.6 242.9 238.8 234.6 231.6 229.7 231.6 234.5 232.1 227.9 221.3 219.9 221.6 221.6 218.8 213.2 208.1 207.4 207.1 209.4 210.9 208.6 208.9 208.2 209.4 212.7 217.3 215.8 208 203.1 196.7 186.4 174 156.9 141.2 126.3 114.3 107.7 104.8 104.6 100.6 102.6 105.8 118.9 121.4 127.5 132.9 128.7 127.5 136.8 133.9 130.4 139.9 142.3 139.5 138.6 144.7 154.4 157.6 156.6 157 153.9 162.8 169.9 175.7 177.2 184.1 192 200.9 207.5 207.6 214.7 222.7 226.2 224.3 230.3 237.5 241 242.3 242.2 247.8 249.3 250.8 251.5 239.7 232.3 228 224.1 223.3 224.4 225.4 223.4 226.3 228 222.7 215.4 219.2 220.1 211.2 205.2 198.7 199.8 199.7 198.1 196.8 194.7 190.6 186 183.9 182.1 182.3 182.7 174.7 172.9 168.6 163.8 162.5 155.5 152.9 148.6 149.6 149.7 151.5 150 147.8 144 146.1 147.8 148.8 142.5 135.4 135.6 138.2 143 147.5 147.8 145.1 127.2 128.5 134.7 138.6 142.3 145.5 137.4 131.3 140 145.4 158 165.5 163.7 156.3 170 173.5 184.2 189.4 191 192.4 194.4 199.2 202.4 207.3 214.1 219.6 225.7 234 240.3 244.2 246 247.7 244.1 245.2 248.2 255.1 256.7 261.3 268 274.5 279.2 282.8
256 256.5 255.5 253.8 251.1 251 259.2 268.8 274.6 278.8 279 276.4 276.6 276.6 277.3 272.4 267.8 263.2 260.1 255.1 252.7 249.1 241.6 234.4 230.4 227.1 227.7 233.9 233.9 229.6 225.3 218 218.2 217.8 217.8 214.5 209.5 206.9 206.6 207.3 210 208.9 207.8 208.2 206.6 205.4 205.9 204.9 202 196.7 188.2 178.1 169.1 156.1 144 130.5 119.2 108.8 109 104.7 104.5 103.8 99.4 105.2 111.8 118.7 123.8 127.2 127.1 130 124 127 136.7 140.3 136.6 133.2 137.4 144.3 148.3 150 149.2 150.1 152 160.4 164.7 164.8 170 178.7 184.8 190.3 192.8 196.2 204.3 210.5 212.4 212.8 217.6 220.6 220.8 220.6 224.3 230.5 230.7 235.6 226.4 212.3 207.3 203.2 204.4 207.8 210.6 213.8 219.7 215.5 211 210.9 208.8 212.4 208.9 196 201.2 198.6 188.1 190.7 188.4 189.2 189 184.2 182 180.7 177 175.7 170.5 168.1 164.5 159.1 154.3 151 147.6 149.1 145 146.5 146.5 145.5 141.9 140.7 141.2 142.5 145.6 143.6 135.6 132.7 134.1 138.8 141.3 141.6 140.8 135.7 121.5 128.9 134 137 134 135.4 136.7 147.3 154.5 160.8 166 173 177.8 175.6 170.4 171.4 179.1 185.3 188.3 189.9 192.5 196.8 201.3 206 211.6 219.5 223.6 230.8 235.2 239.9 243.1 241.7 248.1 248.4 248.2 252 255.4 263.1 270 278 285.7 283.8
260.5 259.6 256.9 254.7 251.4 251.7 258.1 263.3 267.7 267.4 264.1 260.3 263.6 266.1 266.7 266 262.1 258 255.8 251.4 249.9 245.7 238.9 231.6 227.9 225.4 229.6 233.4 231.5 226.1 221.9 216.8 214.4 213.7 213.5 211 207.5 206.4 207 207.5 209.2 207.9 207.8 207.2 201.2 196.5 196.1 191.3 186.7 178.4 168.6 158.3 150.8 140.6 131.9 120 112.5 108 109.8 105 103.7 103.4 98.6 104.7 111.9 115.6 120 121.9 122.4 122.8 122.2 122.1 133.1 131.2 128.4 131 136 138 139.8 142 143.5 145.5 145.8 151 151.5 162.2 169.9 175.2 177.8 181.6 185.7 189.1 194.9 198.4 198.9 198.9 199.5 200.5 200.6 204.1 206.2 208.1 206.2 211 199.7 191.4 190.8 192.9 195.3 198 198.2 200 196.8 197.6 199.4 200 196.6 195.3 193.1 187.7 191.5 188.6 183.3 181.8 181.9 177.7 182 176.4 177 171.2 170.2 167.9 163.5 158.1 154.2 148 145.1 143.5 144.2 145.2 142.1 142.1 143 141.9 139.8 137 136.5 139.6 142 139 131.3 131 131.5 132.9 133.4 135.6 135.4 128.9 125.3 121.9 127.8 132.3 138.8 144 148.9 152.5 161.2 168.4 172.4 176.3 181.3 182.3 174.7 179.6 185.3 189.2 195 199.7 202.6 199.4 200 204.5 207.8 212.6 220.6 222.9 229.1 237.4 238.3 240.9 242.3 243.5 248.6 254 261.4 269.4 280.8 286 288.3 286.2
261.8 260.2 256.8 253.9 250.9 250.1 252.2 253 254 254.5 254.4 253.4 254.8 255.7 257 256 253.7 251.8 250.6 247.5 246.1 240.5 236.2 229 225.4 223.3 228.6 230.4 227.5 222.1 219.3 215.6 211.2 207.2 207.2 205.6 206.5 207.4 207.8 207.8 207.8 207.5 206.1 203.2 194.5 186.4 183.9 178.6 170.9 159.7 150.8 143.8 136.3 129 123.1 114.3 110.9 107.2 106.3 105.3 102.8 103.1 98.6 104.9 114.1 117.1 118.7 118.9 117.6 117.4 122.2 124.8 122.4 119.6 124.1 130.1 130.4 129.8 130.1 132.4 134.5 133.9 146.8 152.4 160.1 165.4 167.2 169.9 173 176.4 179.5 178 181.6 182.6 184.9 184.4 182.1 183.2 184.9 192.9 192.6 185.2 184.6 181.2 175.6 177.9 179.8 182.1 184 183.3 180.5 181.9 183.7 186 183.1 183.4 184.1 181.1 180 179.8 180.6 179.1 179 176.3 174.7 172 170 169.5 166.3 165.6 165.3 160.6 154.5 147.8 142.8 139.3 137.9 137 136.4 138.4 139.2 139 139.7 138.9 137.3 135 133.8 133.6 132.4 129.7 129.5 130.2 130.3 130.4 131.2 131.6 128.9 119 126.5 131.3 133.9 137.3 142.7 148.8 154.4 160.6 169.5 175.6 178 180.1 177.4 174.8 173.9 178.5 184.8 192.6 201.3 207.4 205.8 200.5 200.9 204.8 210 219.2 226.5 231.7 237 233.8 236.7 238.2 243 249.4 255.8 261.3 268.6 277.4 284.5 288.2 287 283.7
258.7 256.3 254.4 251.9 249.3 246.6 245.3 245.2 244.9 246.5 248.4 248.3 248.5 248.7 247.1 246.8 246.5 245.6 245.3 243.3 241.2 235.4 231.4 227.7 221.8 223.2 225.6 225.2 221.6 217.9 215.2 210.9 207.9 202 202.1 203.3 206.1 207.8 206.4 205.3 205.6 206.2 203.1 196.9 186.5 175 167.8 160.3 153.2 147.6 141.5 134.7 130.2 123 119.9 112.2 109.8 107.1 105.9 111 110.6 106.3 100 104.2 114.6 115.4 116.7 116.2 112.7 117.3 118.5 113.9 113.7 115.7 120.6 124.2 123.9 123.5 124.6 125.9 128.2 135 142.7 150.3 158.2 162.5 164.4 166.6 167.8 167.9 165.5 168.1 168.8 169 168.5 168.3 169.7 171.9 174.3 173.2 170 169.4 170.5 168.6 168.4 170.3 172.8 171.6 171.9 170.2 167.5 167.7 169.1 170.9 169.5 172.7 174.2 174.5 171.4 173.8 177.7 175.4 174.8 176.5 168.4 164.4 161.7 162 162.1 163.4 158.2 151.6 140.7 137.5 134.4 134.5 134.2 132.6 133.5 135.5 135.8 135.9 135.8 135.6 133.5 132 130.9 131.1 130 128.4 128.4 129.3 129.6 129.6 128.6 126.1 120.8 126.3 128.8 132.3 134.4 139.4 145 151.9 157.1 165.2 172 174.2 173.5 171.8 169 171.7 173 179.8 187 195.1 201.9 201.9 199.4 199.7 202.2 209 215.7 221.7 229.1 231.7 235.1 239.4 240.8 240.8 248 253.5 259.1 265.9 273.8 281.4 287.6 290.3 287.2 283.4
254.1 252.1 250.5 249 247.2 243.6 239.2 238.1 237.9 238.1 241.5 243.2 243.4 242.7 241.5 240.7 239.5 239.6 237 237.7 234.8 229.5 225.4 221.7 219.1 220.2 221 219.7 216.4 212.2 209.2 204.9 203.9 199.6 197.6 202.6 205.9 207 205.9 203.8 204.8 206.1 199.5 190.1 175.8 163 152 148 143.1 139.9 134.6 131.3 125.9 118.4 113.8 112.2 111.3 109 112.2 119.5 121.3 117.2 109.7 98.6 108.1 108.7 107.1 106.9 110.5 110.8 107.5 106.5 109.2 117 122.6 121.6 120.5 120.3 119.8 121.9 124.7 129.6 138 147.9 156.1 159.9 159.9 163.6 161.8 159.3 154.9 154.9 156.1 154.2 156.5 161.1 162.4 165.8 167.1 167.1 166 162.5 164.5 161.3 160.5 166.6 168.3 165.7 160.8 159.4 155.2 152.5 156.7 159.2 159.2 163.7 165.8 165.8 164.7 166.6 169.7 167.6 166.3 166.7 163.9 161.5 156.9 158.1 159.7 157.2 146.2 136.2 135.3 134.4 132.8 132.8 131.1 130.3 131.5 132.8 132.8 132.7 133.1 132.5 130.8 129.5 128.8 129 128.3 127.4 126.9 127.1 127.3 125.3 125.5 125.1 121.8 127 131 134 136.2 141.7 145.7 150.9 156 163.3 168.8 169.1 165.6 165.9 166.4 169.6 176.1 184.9 188.5 191 194.6 197 198.6 201.1 204 210.8 217.8 223.7 227.9 232.9 235.9 237.1 240.2 241.1 247.9 254.8 262.4 269.6 276 283.5 290.5 290.3 287.8 287.8
245.9 246.6 246 245.7 246 246.6 241.7 232.5 231 231.7 234.3 237.6 238.4 237.7 236.7 234.5 233.2 233.2 232 232.4 229.4 224.6 220.3 218.2 216.7 217.6 217.5 215.9 213 208.5 205.9 201.1 198.1 194.2 197.6 202.7 205.7 205.9 205 203.8 204.1 202.1 194.6 181.5 160.4 149.8 140.8 136.4 130.4 129.9 126.5 126.2 122.9 116.3 113.1 112.3 112.5 111.5 115.4 119.8 117 113.1 106.9 97.8 102.9 105.7 107.8 111.1 107.2 104.6 104.9 105.4 106.9 114.3 118.8 119.3 117.7 116.9 118.2 119.7 121.6 125.1 134.6 143.4 149.2 152.5 152.5 152 150.3 147.5 140.7 143.1 145.6 146.7 152.2 159.8 166.3 166.6 168.8 166.9 162.3 156.2 154.2 153.7 159.3 162 161.5 157.4 149.2 146.2 144.7 146.4 148.9 152.8 154.5 155.4 156.7 156.8 158.8 161.1 161.6 161.1 161.5 160.2 162.2 163.3 158.6 152.5 150.2 142 133.4 132.3 132.2 130 131.7 130.1 127.2 128.3 129.5 130.1 130.1 130.1 130.4 129.6 128.6 126.8 126.4 126.9 126.2 125.8 125 124.3 124.4 124.7 124.8 118 125.7 129.7 133.3 135.4 136.6 141.1 146 147.5 151.9 158.7 161.5 163.7 158.8 159.7 163.3 166.9 174.6 180.7 182.8 185.7 190.1 192.1 195 200.6 205 209.9 215.5 220.6 228.2 232 232.1 234.1 237.6 241.1 249.8 257.7 264.3 271.9 279.2 286.8 288.7 287.1 287.8 291.2
237.9 240.9 242.1 244.6 247.9 245.3 238.6 232.2 226.8 228.6 229.5 232 232.6 232.9 232.8 233.1 233 229.9 228 226.9 223.5 219.3 215.8 214.3 214.9 217.4 218.3 216.2 211.8 206.7 202.6 197 190.5 191.5 196.1 199.9 202.7 202.3 201.5 200.7 199.3 194.3 185 171.2 151.7 140.2 131.1 127.5 122.4 119 118.3 122.6 122.7 119.8 112.6 111.4 111.8 112.5 116.3 116.5 111.5 106.6 102.2 97.4 101.4 104.6 108.8 104.3 104 106.4 108.5 108.6 110 111.3 112.6 112.1 113.6 116 123.2 122.5 121.1 124.5 129.8 137 141.3 143.9 146.5 145.6 144.2 136.4 132.2 133.9 139 146.5 153.9 162.4 163.1 156 158.3 154.5 151.1 146.4 147.9 149.5 152.9 152.2 150.1 145 139 137.8 137 136.1 141.1 142.7 142.7 145.9 148.4 151.8 153.1 153.1 153.6 157.2 154.1 162.1 167.7 167.7 159.7 141.1 138.2 133.3 130.5 129.5 127.7 125.2 124 124.4 125.3 126.2 126.4 127 127.5 127.5 126.8 126.4 125.9 124.4 124.5 124.9 124.5 124.2 123.5 123.2 123.8 123.6 116.4 125.2 126.6 129.3 131.5 132 132.3 140.4 143.9 145.5 149.6 151.5 154.3 155.3 157.7 158.4 163.6 163.6 167.7 172.8 176.5 180 184.3 189.6 194 199.1 204 208.4 213.1 220.8 224.6 225.7 226.3 227 233.5 240.3 249.2 253.4 262.2 270.9 276.3 279.9 281.1 281.8 285 288.6
234.6 236.6 239.3 243.7 248.9 243.6 236.7 230.5 226.2 224.9 224.3 225.8 225.9 229.1 234.8 238.2 234.2 228.1 223.9 222.1 219.2 215.7 212.6 212.4 214.7 217.3 217.2 214.4 209.9 204.4 199.5 190.1 181.4 187.4 191.5 194.9 197.8 197.3 196.3 195.4 193.3 187.7 176 161.5 144.3 131.9 121 118.5 118.1 116.2 119 126.8 128.2 124.1 114 111.4 115.4 118.6 111.8 110.2 105 102.2 102.3 97.2 101.2 105 108.8 104.6 106.9 109.6 108.1 107.9 107.7 107.1 108.1 110 112 122.3 131 132 127.6 121 125.4 130.2 137.8 142.4 148.3 153.1 147.8 130.6 127.5 128.5 135.5 141.4 146.8 152.3 150.8 145.7 142.3 142.2 142 142.1 146.3 147.5 149.5 147.2 142.5 137.3 133.6 132.5 132 133.8 137.5 137 138.2 140.9 144.1 146.1 145.8 145.2 149.1 147.3 156.7 165 163.6 154 142.1 135.1 133.2 131.9 130.2 125.5 122.2 121 121.4 122.3 123.2 122.6 121.5 123.8 124.5 124.9 124.7 124.1 123.4 122.2 122.4 122.8 122.6 123.2 123 118.7 118.5 115.2 123 124.9 126.8 130.1 130.3 130.6 131.4 136.3 139.3 143.4 146.3 147.8 149.3 151.2 153.7 156.2 157.1 158.8 162 166 170 176.2 182.6 185.2 188.2 192.6 201.2 205.7 214.8 220.1 221 222.6 221.1 220.6 229.8 240.3 243.9 249.9 258.5 265.2 268.8 272.1 272.4 276.4 280.2 283.4
233.4 233.2 236.7 243.5 247.1 242.2 233.3 227 224.4 224.1 222 221.4 223.2 231.3 239.2 239.6 232.7 226.2 219.8 218.8 216.7 213.4 210.6 212.3 215.3 217.3 215.1 211 206.9 201.9 196.5 185.5 173.2 177.3 181.7 186.6 189.6 191 190.2 189.5 185.9 179.4 166.4 152.5 139 125.4 117.4 114.1 112.1 112.2 120.4 129.1 128.4 122.2 112 112.9 113.2 111.5 108.6 102.7 102.1 101.8 101.1 97 101.8 106.1 110.7 109.3 109.1 109.1 108.3 108.2 108.9 107.9 108 108.7 112 124.2 132.7 133.5 128.5 118.1 121.1 128.3 135 145 154.8 151.9 140.4 126.8 126.4 127 132.7 136.1 138.2 135 132.9 137.8 134.1 133.5 136.9 142.8 147.4 145.4 143.2 141.2 135.5 133 131.1 130.2 130.8 134.6 136.4 135.2 135.7 137.9 140.2 139.6 138.8 140.1 138.3 146 143.3 135.8 134 129.9 128.3 130 129.7 128.6 125.4 122.1 120 119.4 120.2 121.2 121.7 119.3 120.3 121.2 121.9 122.8 122.6 121.9 121.5 120.1 120.5 121.2 120.9 120.9 120.6 114.9 114.6 118.9 123.5 125.2 126.9 128.8 130.2 131.5 132.8 136.9 138.1 141.1 144.1 146.3 149.6 153.2 155.4 159.4 159.8 160.8 162.1 165.3 168.7 171.4 174.6 175.7 185.7 194.9 199.2 205.2 211.9 216.9 217.2 217.8 213 220.7 232 236.7 242.1 247 252.1 256 259.8 263.2 268 271.7 275.3 277
231 230.1 234.7 239.9 241.7 236.3 226.7 222.6 222 224 221.3 220.2 222.4 231.6 238.1 236 229.8 221.6 219.1 218.7 214 210.5 208.5 213.1 217.5 217.1 212.6 207 203 199.6 193.3 181.3 171.5 165.8 169.9 174.2 178.3 183 183.4 182.7 178.2 168.9 159.1 144.8 136.4 121.9 114.3 111.5 109.7 113.6 123.3 128.3 125.5 117.7 112.6 108.9 104.1 102.3 101.2 101.2 101.4 96.2 96.8 100.7 107.4 109.9 110.5 110.5 110.5 117.2 119.8 113.5 108.9 106.9 107.1 107.5 110.6 124.6 131.6 131.7 124.3 112.9 117.3 124 134.6 144.5 149.7 146.5 131.2 123.4 122.5 122.9 127.4 126.4 124.1 122.4 127.2 130.7 129.4 131.2 134.4 135.8 136.4 135.3 135.9 133.4 132.6 131.3 129.2 128.2 132.7 135.6 136.5 133.5 133.2 134.1 135 134.5 134.4 135 134.2 134.9 129.8 124.9 124.9 124.1 124.9 125.1 125.4 124.9 122.6 120.6 118.3 117.6 119 118.1 116.6 117.7 118.6 119 119.8 120.6 120.4 119.7 119.9 117.9 119 118.7 117.4 114.2 115.4 117.9 119 122.8 124.7 125.7 127.6 129.3 130.4 133.1 137.5 139.6 138.4 139.5 142.2 145.8 151.3 152.3 154.4 157 158.6 161.6 161 161.9 163.3 166.2 170.3 176.8 188 194.7 200.1 204.4 208.7 209.3 208.6 209.4 211.5 223.4 228.6 231.1 230.8 238.5 244.1 249.7 256.4 262.2 266.1 268.4 268 267.8
227.3 229.2 232.5 236.1 235.7 229 221.7 221 220.8 223.4 222.4 219.4 221.8 230.3 231.7 229.8 223.3 221.4 224 222.6 215 208.9 207.3 214.7 218.6 216.7 210.9 203.1 200.8 198.2 189.5 177.6 168.4 162.1 161.7 162.4 165.7 174.2 175.9 175 170.8 161.8 155.3 142 134 118.7 110.8 109.1 110.2 117.1 120.8 124.3 120.5 112.8 111.4 109.8 101.6 100.8 101.2 98.8 96.2 97.6 109.6 112.6 110.5 109.3 109.7 110.2 117 121.3 122 117.9 111.8 106.2 106.1 106.4 111.4 123.1 130.2 129.4 116.5 108 112 117.5 130.3 137.4 140.7 138.1 130.9 122.3 120.1 120.1 121 120.8 122.4 124.5 124.2 123.9 124.7 120.3 123.6 123.2 123.6 125.5 128.3 128.7 129 128.2 126.6 128.1 130.9 132 131.6 129.6 129.6 130.6 130.9 130.7 130.5 130.4 129.5 128.3 125.1 123.1 121.4 121.4 122.7 122 120.8 119.4 118.4 118 116.4 115 114.4 114.4 115.3 116.4 116.6 117 117.6 118.2 118.3 117.4 116.6 115.3 112.7 114.7 116.7 117.6 121.6 122.9 121.8 124.1 125 126.2 128.7 135.3 138.7 140.8 143.5 148.6 149.4 139.5 140.5 143.1 147.7 149.3 151.9 154.6 157.1 157.3 159.4 160.7 162.3 165.8 171.2 179 185.4 190.7 195.2 199.8 204.2 203.7 203.1 206.1 208.7 212 216.1 220.1 225.4 234.6 244.2 251.1 257.1 260.3 261.7 261.7 262.2 262
222.8 225.5 229.9 230.3 227.6 222.6 221.4 221.1 220.4 221 219.6 218.5 220.7 223.7 221.4 219.9 219.5 225.6 228.5 224.4 217 207.6 208.2 215.6 213.8 211.8 206.7 200.9 201.1 196.8 189.4 179.6 170.8 160.4 159.2 157.9 157.6 165.1 168.6 168 164.5 157.1 149.6 137.5 129.3 113.8 108.3 110.3 113.4 120.4 120.4 111.6 108.2 107.4 106.1 102.1 100.3 100.4 96.2 98.1 99.5 107.4 112.4 109.2 106.6 107.6 109.1 116.4 125.7 129.1 123.8 119.9 111.9 105.7 104.9 105.6 112.3 123.2 127 121.4 111.1 105.9 108.3 112.1 120.7 129.8 134.4 135.9 131.4 123.9 119.7 119.9 122.4 126.5 126.3 123.5 120.2 119.9 117.1 113.7 114.6 117.2 118.3 119.4 120.4 121.7 122.2 123.6 126.4 129.7 132.1 132.9 130.6 126 126.4 127.7 127.9 128 128.6 127.9 127.3 126 123.9 121.7 119.7 119.3 119.9 118.3 117.1 114.9 113.5 114.4 114.7 113.3 113.4 113.5 114.3 114.8 115.3 115.6 115.7 115.9 116.8 115.4 112.1 115.3 118.7 121.2 120.9 122 122.7 123.3 122.8 123.1 125.4 127.3 129.4 135.1 142.4 149 149.3 150.9 149 139.9 139.5 142.9 149.2 155.5 162.3 165.7 159.9 157.1 157.6 158.2 159.8 162.2 167.4 172.9 179.6 184.8 188.8 193 197.7 197.8 202.6 203.6 209.1 206.6 214.6 223.6 231.3 238.9 245.5 250.8 250.4 249.1 254.2 255 255.1 263.9
220 222.9 225.6 225.4 222.4 220.7 221.4 224.2 225.5 224.5 223.3 219 217.8 217.2 215.9 215.2 221.6 228.6 231.1 224.7 217.1 207.9 206.8 210.9 207.3 203.6 200.4 198.1 200.7 195.6 188.6 180.5 170.4 159.8 158.2 156.6 155.6 156.7 161.8 163.2 159.2 152.3 141.9 128.7 121 108.2 107.6 110.1 114 116.9 110.6 106.2 102.9 101.7 101.8 100.2 99.8 95.6 98.9 99.6 105.2 110.4 108.6 110.6 112.2 110.1 114.6 124 130.9 130.1 123.8 115.7 107.3 105 103.8 105 112.4 120.2 122.1 113.1 106.8 104.8 104.8 107.8 112.9 125.6 132.2 128.4 124.7 121.4 120.3 122.6 126 127.8 124.4 118.4 115.6 114.5 113.4 113.4 113.5 114.8 116.6 117.2 118.3 119.7 122.1 125.4 130.3 130.6 131.3 131 129.5 123 123.2 124.9 124.3 125.7 126 125.3 125 123.9 121.7 120.1 117.7 117.2 116.3 114.9 114 113 112.3 112.4 111.9 112.3 111.1 110.6 112.5 112.9 114 114.3 114.4 114.5 114.5 112 116.9 119.6 120.3 120.7 120.9 122.1 122.8 123.8 124.3 122.8 126.5 132 134 139.2 144 143.8 142.9 140.3 142.6 139.1 140.7 147.9 156 160.9 161.7 162.9 163.6 158.7 160.1 159.2 158.9 159.5 162.8 168.1 172.9 178.9 184 188.2 191.7 197.1 196.6 196.4 199.7 206.3 216 224.5 231.4 235.4 233.6 237.1 249.2 254.5 255.8 257.9 262.8 265.8
217.3 218.1 220.1 220.9 219.6 220.7 224.8 228.4 231.1 231.4 224.7 217.3 213.9 212.5 213 217.2 222.8 229.3 231.3 224.6 216.1 209.1 198.9 204.6 200.6 196.2 192.8 195.7 199.9 194.7 185.5 177.8 169.6 161.5 157.7 157.1 154.5 154.4 156.2 159.5 155 147.1 136 120.1 113.4 107.9 107.2 107.6 111.2 109.1 104.2 101.5 99.3 99.3 99.5 97.8 94.9 98.2 99.2 101.1 107.8 107.6 110 111.7 112.5 111.9 119.7 126.5 126.9 123.6 119 111.9 105.9 103.7 102.4 105 110.6 118.3 116.2 109.5 105.2 104.4 104.3 107.2 112 115.5 122.4 120.6 118.4 118.9 120.8 120.7 119.3 117.8 115.5 113 113.4 114 114 115.6 115.1 116.4 118 119 119 119.8 121.5 126 128.7 129.7 129.3 127.2 123.2 122 121.8 122.1 122.5 123.4 123.7 123.8 122.9 121.8 119.9 118.4 115 113.6 114 112.6 112.3 111.9 111.1 108.7 112 112.5 113.7 114.1 114.5 114.5 111.4 112.4 112.9 110.9 116.3 117 118.7 119.6 120.4 120.7 121.1 122.1 124.4 128.8 132.7 120.2 126.4 134.5 135.6 137.1 140.2 135.9 134.4 134.1 138.5 138.2 144.6 151.9 158.1 157.6 155.4 154.9 156.9 163.8 166.9 168.8 162.1 158.4 160.8 163.7 167 175.1 180.1 181.7 184.3 185.4 184.8 192.3 200.3 208 203 217.6 221.2 231.3 241.2 248.6 255.5 261.4 265.1 267.3 269.6 270.7
215.8 216.8 216.8 217.3 220 223.7 229.2 233.3 235.6 232 224 216.5 212 212.2 214.3 218.3 222.8 228.4 231 224.8 215.4 206.5 196.9 196 190.9 189.8 186.8 193 198 193.5 183.3 175.7 168 162.9 161 160.2 155.8 153.5 156.5 158.3 151.2 141.3 129 112.1 108.7 108.7 107.7 109.4 105.5 104.1 102.6 110.5 110.2 102.4 99 98.8 95.1 98.6 99.7 104.8 106.3 108.6 109.8 110.5 109.3 113 121.1 123.3 122.6 121 116.2 106 103.9 101.2 102.9 104.8 107.8 115.2 115.5 115.3 112.9 107.2 104.4 105.6 109.5 112 115.9 116.7 115.1 115 112.5 111.6 109.7 110.6 110.7 111.4 113 113 115.3 116.9 118.2 117.4 118 118.7 118.8 119.4 119.1 124.9 127.8 129.3 129.7 126.8 122.4 121.9 121.8 121.5 121.3 121.7 122 124.2 122 120 118 115.4 111.9 111.6 111.7 111.7 109.1 109.2 112.2 112.8 112.6 112.9 113.4 113.7 113.9 114 115.4 116.2 116.4 116.5 117 118 118.7 119.3 120 120.5 121 122.2 129.8 131.5 132.7 129.3 125.9 121.6 128 130 132.4 132.9 132.9 133 135.1 140.3 147 149.9 152.4 153.4 153.3 161.3 166.6 170.9 170.2 168.6 160.1 158.3 160.1 162.6 163.5 169.4 171.3 172 173.6 182.2 184.7 192 193 189.3 186.2 215.2 225.3 237.1 247.1 255.5 262.4 267.4 269.2 270.7 272.8 271.6
214.3 214.6 215.5 216.3 220.8 226.9 233.1 239.3 236 231 221.8 216.1 211.4 211.8 213.7 220.5 223.2 226.9 229.6 224.9 211.6 206.5 201.8 192.5 185.8 184.5 183.8 188.7 191.2 189 182.1 171.1 163.5 160 160.6 160.1 153 156.9 159.3 156.8 147.4 134.2 119.4 110.6 110.2 108.9 107.7 105.9 104.8 104.3 107.9 111.6 110.1 107.4 98.2 98.2 94 98.7 101.1 106.1 105.5 105.7 109 106.4 108 114.8 118.1 118.9 121.7 119.1 109.6 103.1 102.5 100.1 100.6 103.1 106.3 114.6 121 119.4 113.7 110.3 107.9 105.3 107.2 109.4 111.7 111 108.2 109 108.3 106.6 107.5 108.8 109.5 111.5 113.3 112.3 113.5 114.9 115.8 116.5 116.8 117.8 118.8 120.2 118.7 118.8 123.3 125.2 124.7 123.6 121.4 121.7 121.6 122.3 125 125.2 126.7 127.9 129 124.3 122.3 112.9 111 111.1 110.8 109.2 111.5 111.7 112 111.8 112.6 113.1 113.5 113.5 113.7 114.3 115.6 115.8 116.2 116.6 117.3 118.2 118.8 119.2 119.5 119.8 121.1 122.9 129.6 131.2 131.4 132.1 131.8 134.4 127.8 128.4 129.3 130.4 130.9 128.9 128.9 136.3 141.8 147.3 152.1 150 158.1 165 167.4 168.1 164.5 159.5 158.6 158.6 159.2 158.8 158.9 162.5 164.2 166.2 175.7 180.2 182 183 184.4 198.3 204.2 219.2 229.9 240.6 250.6 258.4 265.6 269.3 270.7 271.2 274 271.2
212.4 216.7 219.1 219.2 219.9 229.8 238.8 240.3 235.5 227.4 218.8 212.8 211 211.3 213 219.8 221.7 225.5 228.1 225.3 220.7 213.2 206 200.8 189.4 185.1 182.7 179.2 182.7 181.3 173.5 161.5 157.3 155 157.3 156.9 146.9 157.2 157.1 149.9 141.1 128 115.5 112 110.7 109.6 107.8 106.6 105.5 105.1 109.7 111.2 112 109.7 97 94.4 97.8 99.3 104.2 104.8 104.2 104.4 105.5 103.6 109.2 114.7 117.7 119.9 119.5 112.3 104.8 104.7 103.2 99.4 97 100.1 106.2 112.8 118.4 115.9 116 116.6 106.8 102.6 104 106.4 105.9 104.7 104 104.2 103.4 106.7 109.3 109.7 108.6 112 113.1 113.1 113.6 114 114.6 114.6 114.7 115.9 116.5 115.4 114.9 114.4 116.3 117.5 117.4 116.9 118.8 121.2 122.4 125.4 128 131.3 133.8 135.2 134.3 130.5 128 114.7 110.4 109.7 110.7 110.8 111.2 111.2 111.4 111.8 112.5 112.9 113.3 113.5 113.8 113.9 115.3 116.3 116.5 116.7 117.5 118 118.3 118.8 119.2 119.8 121.7 127.1 131.1 131 132.7 133.5 136.4 138.6 128.8 129.5 129.4 126.7 131.3 135.6 138 130.5 141.1 144.7 148 148.9 157.1 159.9 160 160.5 158.7 158.9 158.8 155 153.8 154.4 155.2 158.4 160.7 167.1 173 174.9 170.6 178.7 186 192.5 200.4 216.5 228 237.8 245.9 253.2 256.3 261.4 267.3 268 269.1 267.9
217 223.3 222.5 220 220.8 228.3 233.6 235.5 229.5 220 214.3 211 211 211 214.9 221.9 225.3 229 230.3 226 222.4 216 209.6 203.6 196.8 189.3 185.6 186.6 177.1 169.1 162.9 158.6 155 148.5 152.2 146 146.2 154.8 150.3 144.1 133 121.2 113.4 112.4 112.1 110.5 108.3 107.4 106.3 105.8 107.8 112.3 111.5 100.2 94 95.3 98.9 105.3 110.7 105.7 103.4 103.4 102.4 103.5 110.3 113.1 115.7 115.6 111.4 105.9 111.3 113.9 108 98.2 96.4 97.6 109.2 116 117.4 115.8 113.3 107 104 101 100.4 103.3 98.9 109.2 99.4 99.6 102 105.8 109.5 110.3 110.7 112.2 112.7 111.3 111.7 115.7 116.2 115.2 115.8 114.6 114.3 113.5 111 109.6 109.9 112.5 113.8 115.3 119.2 123 124.7 127.9 130.2 133.7 134.5 136.5 133.2 128.5 124.4 112.2 109.7 108.1 110.6 110.5 110.8 110.8 110.9 111.8 112.3 112.7 112.9 113.1 113.3 113.7 115.6 116.4 116.7 116.9 117.4 117.9 118.1 118.6 119.1 120.4 126 127.7 130.6 131.1 133.7 135.7 138.4 137.3 131.4 132.2 132.4 135.9 139.1 143 143.5 136.3 135.6 139.7 143.4 148.5 151.5 154.1 154.6 152.2 152.8 153.4 148.9 144.3 141.2 146.8 150.2 163.9 161.7 166.3 168.3 165.1 178.9 183.9 182.4 189 202.1 210 220.4 229 236.6 243 247 256 260.3 261.6 261.3 260.5
221.6 224.6 221.3 218.4 218.9 224.1 227.2 223.4 219.8 213.5 211 211 211 211 217 224.1 229.8 232.7 234.2 227.6 226.3 220.1 215.8 207.3 201.2 193.4 190.3 192.2 185 176.1 168.5 162.9 160.4 150.3 143.9 136.7 140.6 147.2 143.1 131.6 119.8 115.9 114.7 112.9 111.6 110 113.6 111.6 108.2 106.6 106.5 111.7 104.9 92.5 93.8 98.9 106.4 114.4 109.3 105.1 103 102.1 102.7 106.8 112.5 112.2 111.5 109.8 103.9 108.7 116 110.4 100.4 94 95.1 98.9 110.3 119.6 121.1 116.8 110 102.6 100.3 100.2 96.7 95 95 99.7 102.8 103.9 107.7 111.8 111.2 109.9 109.4 109.9 111.5 110.8 112.4 114.2 115.7 116.7 118.4 114.8 113.6 114.6 109.6 109.3 109.2 109.2 114.9 115.3 117.5 123 125.1 127.7 128.7 130 130.9 130.3 126.8 119.2 113 109.9 110 108.3 110 110.3 110.3 110.3 110.5 111.7 112.1 112.5 112.6 112.7 113 114 115.8 116.3 116.8 117.1 117.3 117.7 117.9 118.5 119.3 120.6 123.5 125 129 133.3 135 135.6 136.4 137.3 139.1 140.9 142.5 142.7 143.4 142.8 140.8 131.4 135 136.7 141.1 146.4 149.5 147.6 141.8 137.7 142.9 141.5 145.3 150.8 153.1 141.2 147.7 152.2 162.6 160.4 164.7 170.6 175.3 175.7 177.8 186.4 198.4 203.7 210.7 219.4 226.9 235.3 241.5 247.4 248.9 250.8 249.9 251.3
222.4 221.9 217.2 213.7 211.2 216.3 216.7 212.1 211 211 211 211 211 211.4 218.4 225.8 232.4 234.2 234.3 229.1 226.5 224 218.9 212.4 204.9 196.2 197.8 196.7 189.4 182.5 176.1 167.7 161.9 154.3 146.7 142.1 133.1 136.9 130.2 120.7 117.1 119.2 114.4 113 111.7 113.5 118.8 111 107.7 107.5 109.5 106.2 94.1 93.6 98.7 112.9 119.4 111.5 104.9 105.2 104.5 102.9 105.1 107.5 106.6 107.9 102.7 99.7 102.4 112.3 116.8 106.2 94.5 93.2 93.4 99.1 108.5 118.8 121.4 117.5 110.3 103.1 97.3 94.4 94.4 94.9 96.4 99.7 109.9 114.6 117.6 117 111.2 109.8 109.7 110.2 112.1 112.6 113.1 111.5 111.8 113.4 114 108.4 107.7 108.5 109.2 109.3 109.3 111.2 112.8 115 117 118.3 119.2 122.5 126.5 126.6 127.1 124.9 120.4 110.4 109.6 109.6 109.4 110 109.7 110 110.4 109.9 110.3 111.4 111.8 112.1 112.2 112.4 112.7 114.6 115.7 116.2 116.7 117.2 117.3 117.4 117.8 118.4 119.3 121.2 123 124.2 127.5 129.6 131.8 134 137.1 136 136.5 139.1 141 142.4 140.3 138.5 137.5 134.6 131.7 133.1 135.9 135.8 134.1 139 135.6 147 151.2 154.3 156.8 158.7 158.1 159.5 147.4 144 144 144.5 152.3 160.2 168.7 168.7 175.5 183.7 196.1 201.1 205.3 211.4 221.2 225.1 229.7 234 236 237.7 239.9 245.4
222.9 217.5 213.3 211 211 211 211 211 211 211 211 211.4 214 215.6 220.9 227.6 232.9 234.6 232.5 229.8 226.4 226 221.5 218.7 214.1 206.3 206.5 202 194.4 190.4 183.1 175.7 169.4 161.8 155.8 151 141.3 129.7 122.7 123.7 126.4 121.6 113.8 112.3 112.3 116.3 114.2 107.2 106.9 110.3 102.3 96.6 93 97.5 108.5 118.6 114.2 105.7 103.4 104.1 103.7 103.3 101.5 100.6 100.4 101.7 99.8 99.9 107.4 111.4 108 100 92.9 92.7 93 98.3 109 116.9 121.6 119.6 112.2 101.4 96.8 94.2 94.5 99.7 103.6 111.7 116 121.6 117.1 111.4 108.7 108.6 106.6 109.2 108.1 109.8 108.5 106.5 106.6 106 104 104.2 104.8 108.8 107.5 108.4 109.1 111.3 112.1 114.4 115.8 118 116.2 118.8 120.6 121.3 121.2 121.3 115.9 109.4 109.3 109.5 109.2 109.4 109.5 109.8 110.3 110 110.4 111.1 111.4 111.7 112 112.3 113.2 115 115.6 116 116.4 116.9 117 117.6 118 118.4 119.3 120.1 121 122 122.8 123.2 125 125 127.3 128.6 131.6 133.2 135.6 136.9 137.1 137.8 138.3 139.4 139.7 139.7 138.9 141.4 142.9 144 150.6 157.2 161.1 164 166.3 167 167.1 168 166.5 166 157.9 152.2 147.4 150.6 153.5 161.6 171.7 181.3 191.2 196.3 198.4 206.2 211.8 214.3 221.2 225.3 226.9 228.4 227.3 237
220 211.6 209.4 211.4 212 211 211 211 211 211 211 211 214.9 219.1 223.4 229.1 232.8 231.8 233.9 234.5 231.5 228.3 224.7 222.6 219.3 216.4 213.1 205.8 198.1 194.6 191.7 185 178.8 172.2 166.1 160.4 146.4 136.4 131.6 132 127.1 118.3 113 112.3 111.5 112.8 112.1 105.9 101.5 97.9 96.8 89.4 96.6 102.8 112.1 112.4 105.5 102.7 102.2 101.6 101.7 103.2 103.4 104.2 98.9 97.7 99 101.7 105.3 104.2 100.5 95.1 92.6 92.4 92.7 98.7 109.8 116.5 118.4 114 104.7 94.5 94 94.1 95.3 103.1 110 121.7 121 115.4 106.7 106.5 104.9 106.7 105 108 105.2 104.4 103.5 103.4 103.5 103.4 103.4 103.5 105.3 106.6 105.5 107.6 107.8 110.6 111.3 112.3 110.8 112.5 111.2 113 114.6 115.6 116.5 117.4 116.5 109 109.1 109.3 109.7 109.3 109.2 109.4 109.5 109.3 110.7 111 111.4 111.7 111.9 113 114.1 115 115.8 116.2 116 116.6 116.9 117.6 118.3 118.6 119.2 120.3 121.3 122.2 123.2 126.6 128.9 132.9 132.7 138.6 140.3 137.5 136.9 138.8 141.6 142.8 147.1 145.9 142.7 142.1 139.7 144.4 149.4 154 158.7 163 165.7 169.3 173.2 174.9 176.8 177.2 177.3 174.4 168.1 157.4 154 153 149.7 153.2 159.5 174.7 182.8 191.3 190.3 200.4 205.6 208.3 213.3 219.5 222.1 220.5 222.3 227.2
211 208.1 211.6 217.1 218 214.4 211 211 211 211 211 211.6 214.8 219.1 224.1 227.7 229.2 230.7 235.9 236.8 236.2 237.9 233.7 232.8 230.7 226 218.4 211 205.8 207.9 202.8 195.2 189.2 183.4 177.7 169.9 150.4 138.9 135.9 130.6 122.2 114.6 113.7 112.9 112.1 107.1 105 105 96.9 96.8 89.4 96.1 97.3 109.7 109.4 103.5 102.4 101.7 102.2 102.5 102.9 103.9 110.1 108.8 98.8 98 100.2 100.5 101.5 100.7 98.9 94.2 92.3 92.5 93 99.4 107.2 112.8 109.9 103.1 94.6 93.9 93.8 94.1 99.2 111.4 120.4 119.4 110.9 101.7 102.4 103.7 103.1 103.2 103 103.5 102.9 103.1 103.6 104.6 105.1 107.7 108.5 107.4 107.7 104.4 104.3 103.4 102.7 107.9 108.2 108.2 110 110.1 110.8 112.1 113 113.7 114.8 116.9 115.5 112 108.5 109 109.3 107.7 109.1 109.1 109.1 109.2 110.4 111.2 111.6 112.5 113.1 114.3 114.4 114.8 115.5 115.5 116.2 116.7 117.2 117.9 118.8 119.6 120.9 121.7 123.4 125.4 129.2 133.6 138 139.6 141.3 142.7 146.5 148.8 150.8 153.4 155.8 153.8 156.4 156 154 149.3 141.6 146.4 149.1 153.8 157.9 163.8 167.5 172.3 175.8 179.7 181.1 182.6 181.8 178.4 172.4 163.7 155.5 155.2 155.4 147.8 150.4 155.1 164.8 176 187.7 192.9 200 200.9 206.3 211.1 216 215.4 218.1 221.8
207.6 209.7 211.8 220 220.8 212.5 211 211 211 211 211 213.7 218.2 220.5 223.3 224.8 229.4 236.2 241.9 244.5 248 244.4 243.5 240.3 236.9 231 223.2 218.8 216.5 217.5 210 202.5 200.4 195.9 187.6 174.2 154.1 143.4 135.8 128.9 120.5 114.2 116.3 118.8 112.4 107.3 99.8 96.5 96.3 91.7 93.9 96.3 105.6 107.7 104.4 102.1 103.3 107 109.5 107.5 104.8 108.2 108.5 104.7 97.4 99.2 99.6 98.2 100.3 96.1 92.3 92.1 92.4 92.6 93 95.8 100.4 98.9 96.2 94 94 94.1 94 99.9 109.6 117 119.9 110 101 106.4 103.5 105.7 107.8 107.5 104.9 105.3 105.7 109 109 109.3 110.7 114.3 114.1 110.5 111.7 110.4 103.8 103.8 103.8 105.4 109.5 108.2 109.5 110.5 110.6 112 113 112.9 113.6 115.4 116.1 115.4 108.7 108.6 108.9 106.5 108.9 108.8 109.2 110.1 110.7 111.5 112.3 113.3 115.1 117.2 118.2 119.8 120 121.4 120.3 119.1 118.6 119.1 120.1 121 123.6 128.5 133.4 135.8 137.8 139.3 140.2 143.1 146.9 150.4 153.2 156 158.1 161.1 163.2 165.7 164 160.3 155.6 151.2 143.4 146.6 148.9 154.4 158.6 161.5 166 170.8 174.8 177.8 178.7 179.9 178.2 174 169.9 163.2 159.7 158.5 158 158.8 158.1 157.1 154.4 150 165.8 183.1 191.1 192.7 198.6 205.2 213.1 214.5 214.5 216.5
212.9 215.5 215.3 222.3 219.8 211 211 211 211 210.8 212.6 215.3 217.3 219.7 220.3 222.2 229.8 236.6 241 245.7 248.9 249.7 247.6 243.5 238.4 232.6 225.9 226.3 228.3 226.8 216.4 211.8 211.7 202.5 191.7 173.6 156.1 146.9 136.5 128.4 121.2 116.8 118.4 118.2 111.1 106.9 98.1 96 95.7 91.9 95.6 102.3 102.1 101.6 101.7 103 108.8 113.2 111.5 107.2 104.9 102.4 98.4 94.6 93.6 95.5 93 94.2 95.9 91.9 92.1 92.3 92.4 92.8 93.1 93.4 93.8 93.7 93.7 93.8 93.9 94.1 94.6 101.6 111.2 118.6 113.4 102.2 99.1 106.4 102 102.4 103.5 103.1 103.5 104 106.9 108.6 109.1 109.2 110.6 109.9 108.2 108.7 106.1 102.4 103.6 103.7 104.1 104 105.3 105.8 109.8 112 111.3 114.1 116.2 115.5 114.7 115.1 115.7 116.3 109.8 108 108.8 106.2 108.9 109.6 110.4 111.3 112.1 113 114.6 117 119.6 123.7 130 135.9 138.4 139.6 136.3 126.9 120.5 121.7 123.8 127 130.1 135 136.2 135.4 136.6 139.4 143.1 148.1 151.3 155.7 158.9 161.6 164.3 166.8 166.9 166.7 163.6 158.1 152 148.4 146.2 146.5 148.3 152.3 156.2 159 161.4 165.9 169.6 172.7 173.6 174.7 173.2 170 166.2 162.9 162.1 162.8 163.4 165.3 168.4 169.7 170.5 165.6 155.8 157.7 182.7 188 191.1 197.2 205.5 208.8 210.2 212.8
214.2 214.9 217.1 221 216.7 211 211 211 211 211.1 212.1 213.2 215.7 217.9 219.5 222.7 232.1 235.8 240.9 245.2 249.2 252.1 253.6 249.6 240.4 235.4 230.3 232.3 232.1 227.1 222.2 219.3 216.5 203.2 190.1 169.3 151.8 143.5 134 125.4 116.9 115.6 117 114 106.8 101.5 96.1 95.3 88.1 94.6 95.6 100.5 100.2 101.8 106.2 108.9 110.5 107.4 101.8 99 98.1 96.9 95.6 95 92.7 97.4 92.5 91.3 91.5 91.8 92.4 92.5 92.5 92.8 93.1 93.6 93.6 93.8 93.8 94.4 94.4 94.8 95.7 100.3 111.3 112.7 105.1 98.3 99.8 106.2 99.7 99.7 100.4 100.5 100.9 102.2 103.1 104.5 103.9 105.4 104.2 97.7 101 101.2 101.5 99.5 100 103.7 104.2 104.4 103.9 106 111.3 118.3 120.6 120.8 121.8 116.7 114.8 115.1 115.9 115.9 104.9 110 105.6 109 108.9 111.1 112.3 113.8 115.8 118.4 122.5 125.9 130.5 136.2 142.2 146.1 146.3 143.8 138.6 128.9 125.6 129.9 128.9 130.6 133.8 136.3 136.2 138 140.8 142.8 144.1 150.1 154.1 159.3 160.5 162.3 165.2 166.6 166.4 163.8 160 153.6 150.5 149.9 148.2 150.7 152.5 151.7 152.2 155.8 158.8 162.2 166.6 169.2 171.2 171.9 169.3 167.2 165.6 165.1 167.2 169.6 173.9 177.8 180.6 182.6 181.1 171.9 164.6 155.7 166 178.8 184.5 188.7 192.3 195.5 201.2 207.3
214.1 214.9 215.9 216.3 211 211 211 211 211 211 211.2 212.1 214.6 217.9 220 225.8 230.6 234.8 239 242.8 246.7 249.5 249.5 244.6 240.2 236.2 233 233.6 231.2 228.5 226 219.2 214.5 203.9 187.1 164.7 149 140.2 131.6 122.5 115.2 113.5 114 107.6 101.9 97.7 95.1 95 91.3 95.8 95.4 98.4 97.8 104.9 107.9 109.5 106.4 98.3 97.7 97.5 94.3 90.9 92.3 93.2 93 92.5 90.6 90.9 90.2 92 92.2 92.3 92.5 92.7 92.9 93.3 93.6 93.9 94.1 94.5 95.2 96 98.5 102.1 103.7 102.4 98.3 97.6 97.3 104.8 103 100.8 100.9 101.2 102.5 103.4 102.6 103 102.8 105.3 103.1 98.4 101.1 101.7 102 102.4 102.6 101.7 99.3 103.8 104.6 110.1 118.3 122.8 120.8 121.5 105.5 103.1 111.2 113.5 113.4 112.3 104.2 113.6 113.7 113.7 116 116.3 117.1 119.8 123.5 127.2 132.2 136.9 139.3 142.7 142.6 140.3 136.3 132.7 132 131.4 131.8 135.5 137.1 138.3 139.6 140.5 142.7 146.9 148 154 150.5 149.7 154.9 159.4 159.8 160 163.4 165.7 166.5 161.6 156.9 153.9 153.8 154.6 154.6 155.2 156.8 156 153.3 154.2 157.2 159.7 162.1 165.4 166.7 167.3 169.1 168.9 168.6 172.1 175.7 179.2 182.2 183.3 185.7 187.6 184.6 177.5 170.3 169.1 153.9 164.2 170.8 174.3 174.5 179.2 189.1 196.5
214.7 214.4 213.6 211 211 211 211.3 211.3 211 210.4 210.5 210.6 213.3 215.3 217.1 222.1 227.1 232.2 237.1 240.9 244.2 245.5 244.7 242.3 238.8 235.3 233.1 231.6 230.8 231.2 230.8 223.5 217.1 202.2 180.8 158.6 146.9 136.2 127.9 122.2 118.4 116 110 103.5 99.7 97.7 99.6 86.8 94.9 95.1 95.6 96.8 100.1 104.3 103.8 103.4 100.4 97.5 98 96 93.1 90.9 92 91.8 89.4 89.1 89.1 89 89.3 91.5 91.9 92.2 92.5 92.7 92.9 93.8 93.8 94.2 94.3 94.6 95.4 95.4 95.6 97.5 96.2 96.3 96.5 97.5 97 101.8 99.1 100.8 102.6 103.2 102.9 106.3 109.6 110.2 106.9 108.8 102.9 99.4 98.6 101.4 102.4 103.1 103.4 106 105.6 103.4 99.4 105.6 112.6 118.7 116.6 114.2 101.9 105.6 105.5 106.4 108.6 107.5 110.2 115.4 116.8 117.3 117.8 118 123.2 125.3 129.5 134 136.1 138.3 136.7 133.9 130.8 130.2 131.5 132.5 133.7 134.9 137 139.4 141.2 142.3 146.1 148.5 151.7 154.5 159 160.3 157.6 156.7 154.3 155.6 158.5 162.2 167.3 167.7 164.9 161.2 161.3 158.3 158.1 162.1 159.2 158.4 160.3 160 158.1 157.6 158.3 160.9 163.2 164.8 167 169.4 172.3 172.6 173 173.8 176.1 181.2 183.6 186.6 189.9 190.7 193.8 189.4 181.6 178.7 173.4 168 160.8 158.7 158.1 165.4 168.6 175.1
214.4 214.2 214.5 211 211 211.9 212.9 212.3 211.3 211 211.1 211.5 212.5 215.8 217.1 220.7 227 231 234.7 238.1 240.2 241.9 243.7 244.4 239.5 235 232.4 230.4 231.5 229.6 228 219.8 209 192.1 171.9 152.4 141.6 127.9 125.2 125.4 123.5 119.5 112.1 105.3 102.6 106.4 99.4 86.9 94.6 94.5 95.1 101.4 101 100 100.2 97.6 98.1 97 97.9 95.4 92.1 89.7 88.4 88.5 89.2 89.4 89 89.2 89.3 89.4 91.2 91.1 89.7 88.5 92.8 93 94 94.1 94.3 94.7 95.2 95.2 95.4 95.6 95.9 96 96.3 96.6 97.1 97.4 96.7 100.9 100.4 103.8 109.6 110.7 106.7 104.5 102.5 100.9 100.8 100.1 95.6 101.7 102.7 103.3 106.8 107.2 111.9 114.2 107.9 106 101 103.4 106.8 101.8 105.4 106.6 107.2 107.8 104.9 103 113.1 115.9 116.5 118.2 118.2 118.4 119.9 121.6 123.1 124.8 127.7 128.7 128.2 132.1 134.6 135.6 136.5 137.2 136.8 136.4 138.1 139.7 141.1 144.4 147.6 150.4 155 157.9 159.4 159 162.3 159.6 157.1 161 165.2 169.5 172.6 169.2 163.4 161.9 162 163.8 163.9 167 165.2 163.9 164.8 164.7 161.8 160.8 160.1 161.1 164.7 170.9 176.7 180.3 185.2 188.4 187.5 185.5 182.2 186.8 190.4 193.1 195.4 195.8 195.5 194 191.9 189.7 187.6 184.6 180.9 177 173.6 165.9 160.2 165.2
216 214.7 214.1 212.1 213.5 214.9 215 214.2 212.3 211.6 211.7 211.8 212.1 215.8 217.6 220.4 224.8 229.8 233.2 236 237.5 240.9 243.5 243.5 241.7 236.1 233 229.2 230.2 228.2 226.5 216.8 201.2 182.5 162.1 144.1 132.1 124.9 128.4 131.6 129.6 122.4 112.1 104.7 103.6 107.5 93.7 90.7 94.1 94.3 95.4 104.2 102.5 98.6 99.2 96.8 94.8 92.6 93.6 91.4 88.1 87.6 87.8 88.1 89.5 89.9 89.5 89.4 89.2 88.4 85.9 85.6 84.9 84 83.2 83.6 85.1 93.9 94.3 96 99.2 94.3 93.3 94.5 95.8 96 96.1 96.2 97.9 97.1 97.9 101.8 102 103.5 104.9 105.5 102.9 100.7 100.1 99.8 100.1 99.9 98.3 102.2 105.1 108.8 117.8 124.9 131.7 132.5 122.2 116.5 110.4 108.8 108.8 107.8 110.3 108.6 110.5 111.4 110.9 111.6 113.3 114.9 117.2 117.4 118.7 120.3 120.4 120.5 122.6 123.9 126.4 128.7 131.1 134 135.4 135.2 136.9 138.4 140.1 140.4 142.3 147.2 151.1 150.1 156.7 157.2 158.7 157.1 156.3 157.3 158 160 160.9 163.5 165.3 170 170 166.4 164.3 163.6 165.6 167.1 169.4 170.2 170 171.4 170.6 169.9 168.8 167.8 166.4 166.3 172.7 178.3 183.6 187.7 190.2 192.7 190.3 187.6 186 192.3 195.5 199.2 200.9 201.3 201.7 198.1 196.6 199.3 200.9 199.3 194.8 191.3 185.9 187.9 179 170.4
218.4 216.6 216 216.5 219.5 221.5 221 217.7 213.7 213.5 212.4 212.1 212.3 214.2 217.1 221.4 224.8 228.1 231.1 233.4 236.5 239.2 240.9 241.2 238.9 232.8 228.6 226.1 225.1 224.9 222.4 212.1 195 175.4 154.2 134 125.8 130.6 135.4 134 128.3 120.2 109.9 106.4 107.9 103.1 92 91.9 94.3 94.5 100.1 106.5 103.3 94.9 94.2 96.7 93.4 90.3 91.3 87.6 87.5 87.8 88.5 88.6 88.1 89.7 89.7 87.7 86.3 85.1 85.7 85.5 84.6 83 84.6 86.2 86 83.9 91.8 96.1 94.5 91.8 91.7 92.7 95.3 96 96.3 96.6 103.7 99 97.5 98.3 99.5 101.8 103.9 105.1 101.2 99.3 99.3 99 98.7 99.3 95.6 109.3 116.8 123.5 130.4 136.2 136.3 130 122.3 118.8 117.4 117.7 118.3 117.1 116.5 110.6 110.9 112 113.3 114.7 116 117.3 120.2 122.4 123.9 126.6 128.5 129.6 130.4 132.3 129 131.6 132.5 133.9 135.3 136.8 137.6 139.9 140.4 143.2 151 154.7 158.8 162.7 163.4 166.1 170.1 166 161.3 160.3 161.7 165.2 166.9 173.5 171.5 170.6 170.8 170.4 170.5 171.4 172.3 173.1 175.5 175.8 176.7 177.4 179.8 180.8 179.8 176.1 171.8 171.9 176.4 178.9 184.8 184.5 184.2 186 184.9 187.9 192.3 197.7 203.4 207.7 209.5 209.8 211.9 211.8 205.1 208.5 208.1 206.7 203.1 197.8 195.9 194.4 189.6 185.2
216.8 216.7 217.7 221.7 226.8 230.3 227.5 221.8 214.8 214 213.7 213.1 212.7 213.9 217.7 223.6 227.4 227.5 230.1 233.5 235.8 235.5 234.8 233.1 228.7 224 220.7 219 219.5 217.1 212 201.9 186.3 168.5 146.2 128 127.9 132.8 137.1 131.9 124.3 114.7 108 107.9 105.4 94.7 90.7 93.6 93.7 98.7 107.7 105.7 100 90.9 92.8 94.1 93.7 96.8 87.3 87.7 87.6 87.8 88 87.5 87.2 86.1 85.3 85.4 85.9 84.9 85.1 85.1 81.4 85 86.1 87.1 87.5 87.7 87.8 85.2 91.3 91.4 92.3 92.6 94.6 95.6 96 96.4 98.1 97.1 97.1 97.5 97.9 98.3 100.1 99.5 96.1 95.4 96.2 94.9 92.5 93.3 108.6 120.3 125.2 127.8 129.6 128 124.3 120.9 120 120.3 121.7 120.3 116.9 114.4 112.3 112.1 112.4 114.9 118.1 122.2 126.2 127.2 129.4 130.6 137.3 141.6 144.1 146.2 146.9 144.3 139.2 140.7 137.9 141.4 142.7 144.4 144.8 146.8 149.4 155.2 161.4 164.4 165.7 168.9 172.6 171.3 166.9 165 167.8 171.9 170.3 175.9 174 172.7 173.6 175.5 177.5 177.1 177.5 179.8 184.1 186.4 187.5 188.8 187.9 185.3 186.4 187.3 185.1 182.4 176.7 174.8 174.6 176.7 178.2 179.4 181 188.2 190.7 195.2 201.2 206.1 211.9 215.8 217.7 219 216.6 214.9 214.8 216.7 216.5 214.3 211.1 205.3 199.2 194 189.5 186.4
214.4 215.8 221.3 227 233.5 234.7 231.8 225.5 216 213.1 214.2 214.4 214.4 214 219.3 225.9 228.6 227.3 228.2 231.4 231.2 229.1 226.4 223 220.3 219.1 216.5 214.7 213.3 211 205.7 193.7 178.6 159.9 139.8 126.7 129.5 131.1 132.1 128 118.7 109 108.2 108.8 101.7 92.6 85 93.4 95.5 107.7 108 102.7 93.9 90 93.5 97.6 97.5 93.4 87.4 87.1 88 88 85.3 85.1 84.9 84.8 85 85.3 85.6 84.3 84.3 81 86.1 87.3 88.4 89.5 90.2 90.2 90.8 89.7 85.3 89.5 91.5 92.9 93.9 95.2 95.7 99.5 96.1 96.4 94.4 89.6 88.6 90.1 92.2 90.3 92.8 94.1 94.9 95.5 95.9 106.6 110.4 116.3 116.6 118.5 119.1 117.3 118.3 121.6 121 117.7 117.6 118.1 117.8 115.6 116.6 118.2 119.6 125.1 127.5 131.5 137.1 141 146 148.8 151.9 153 154 157 159.3 156.9 156 152.6 149.2 148.6 147.8 146.5 154.6 160.7 165.4 170.5 172.4 171.5 172.4 173.4 172.6 172.4 173.6 176.6 181.4 184.3 185.6 186.9 181.8 184.7 183.2 184.4 182.4 181.3 187.2 190.8 192.9 196.5 199.3 200.6 201.6 198.4 191 188.7 189.1 189.3 188.5 186.4 183.9 178.2 183.2 184.9 186 195.3 201 205.6 208.7 213.2 218.4 220.8 223.4 227.8 223.3 223.4 222.9 222.7 221.5 219.3 215.3 211.3 202 201.5 193.4 189.8
214 217.8 226.8 232.8 236.6 237.2 232.2 225 215.6 212.9 213.1 213.1 213.6 214.7 221.5 226.2 227.5 226.4 226.9 226 223.9 222.3 219 216.8 215.5 214.4 212.9 211.3 209.6 206.9 201.4 189.8 174.1 154.1 133.9 122.9 126.8 127.3 125.4 121.6 112.1 103.6 108.7 109.4 97.7 90.9 92.5 94.3 104.7 105.7 103.7 98 91.9 89 88.7 94.6 95.6 89.2 86.9 87.4 87.2 84.4 84.6 84.9 84.6 84.6 84.8 84.7 84.8 84.4 80.7 86.6 86.6 89.1 89.6 89.4 90.1 90.5 90.9 91.2 88.5 85.4 89.4 90.8 92.6 94.1 95.5 98.7 87.2 89.5 91.7 92.2 92.8 93.5 93.7 94.5 91.4 96.4 98.3 100.3 102.6 102.3 106 109.8 110.7 114.8 117.7 121.6 126.4 127.4 125.4 121.7 121.2 125.1 125.7 122.7 125.1 127.6 131.9 135.2 141 146.6 150.6 153.5 155.6 157.3 160.7 163 163.4 168.2 169.6 169.9 169.8 170.8 170.6 167.3 164.5 162.1 159.1 165.3 166.8 167.9 169.6 171.4 172.6 177.2 179.4 182.7 190.7 193.2 194.9 196 199.6 198.8 193.4 192.8 192 189.1 186.5 189.5 195 200.7 205.1 209.9 213.1 214.5 213.5 209.7 203.4 203.3 206.1 208.2 205.1 203.1 199.2 185 191.1 195.8 200.2 204.1 208.8 212.7 217.5 222 225.1 226.1 228.6 231.6 231.1 233.2 233.9 236.4 235.1 229.4 227.6 223.4 208.2 207.1 203.6 199.8
214.3 221.4 230.2 236.8 239.3 236.6 229.7 222.8 212.7 212.3 212.7 212.6 213.7 216.8 221.2 224.9 225.8 224.4 223.2 222.8 224.7 222.2 218.2 216.5 215.7 213.1 211.2 207.9 206.5 202.7 196.5 185.6 171.3 152 130.6 122.9 122.6 123.6 122.2 114.1 104 101.7 106.5 107.3 93.8 84.6 92.6 100.1 102.1 98.8 96.4 93.5 90.8 86.1 83.2 83.4 83.7 88.1 86.2 87.1 85.6 84 84.3 84 84.1 84.4 84.4 83.9 81.7 84.7 86.3 86.5 88.3 89.2 89.2 89 89.5 90.1 90.3 90.4 91.2 87.2 87.9 89.6 90.2 91.5 101.3 87.2 91 91.4 92 93 93.8 94.1 94.9 94.9 95.2 97.3 99.6 100.1 100.5 103.1 103.7 108.8 114.3 117.2 121.6 127.9 131.8 131.6 127.2 127.2 126.4 127.3 130.9 131.8 133.7 139.7 142.7 147.1 148.1 151.2 155 158.4 163.2 165.6 170.8 177.1 181.1 180.9 180.7 183.7 181.6 183.8 184.6 177.4 170.5 167.8 162.5 162.6 163.9 165.7 169.4 172.2 175 180.3 187.9 196.3 201.8 204.7 206.9 208.1 209.1 209.9 203.1 203.5 201.6 197.2 194.1 194.4 197 203.3 207.9 209.6 211.7 212.2 212.5 213.9 215.1 216.7 217.4 217.1 213.3 203.2 198.9 185.8 199.9 205.8 210.5 213.3 217.3 221.6 225.7 227.3 228.9 231.6 233.7 236.8 238.5 239.7 240.7 240.8 238.1 235.6 236.5 232.7 213.7 210.1 207.8 206.3
213.8 221.8 232.2 237 236.5 231 224.8 217.2 212.1 212.2 212.3 213.1 214.6 216.8 220.2 223.4 223.9 222.6 221.9 221.2 223.6 220.8 220.1 227.6 223.8 219.1 213.9 207.4 203.9 200.4 192.2 180.9 164.9 148.4 130.7 123.6 120.3 121.6 115.6 108 104 105.9 102 102.2 91.6 85.5 93.5 103.2 99.9 95.6 94.2 89.8 82.8 83.7 83.9 84.6 84.2 83.6 85.2 85.7 84 84.1 83.5 83.5 83.9 83.8 80.2 80.1 85.4 85.8 85.8 86.9 88.8 88.9 88.8 88.4 88.8 89.6 89.6 89.9 90.1 93.9 86.3 87.4 86.5 87.2 88.9 91.3 91.1 91.7 92.2 93.7 94.3 95.2 96.6 97.4 96.7 94.7 100 100.9 103.4 103.8 105.3 109.3 115.2 120.6 123.2 128.3 130 127.4 130.1 130.5 128.2 131.1 132.4 138.8 136.5 136.9 144 149.1 153.6 155.8 159.1 163.7 169.6 174 178 183.6 188.9 192.4 192.2 194.6 192.5 189.9 185.2 178.2 172.5 169.1 167.5 168.4 168.5 174.6 181.2 185.1 186.2 195.3 203.5 209.4 211.4 216.6 217.1 217.8 217.3 213.7 207.4 208.2 207 205.5 200.4 202.3 203 200.7 201.8 203.8 208.5 213 212.2 214.3 216.5 216 212.3 209.3 204.5 198.2 190.8 195.4 204 207.7 212.3 215.9 215.9 217.4 220.5 225.6 230.7 232.6 233.8 237.2 237.1 237.4 237.9 238.4 239.5 241.4 245.3 238.1 227.2 214.2 211.3 208.5
212 220.2 228.1 231.9 227.9 222.4 217.7 211.5 211.4 212.2 212.3 213.3 216.8 218.6 218.6 220.8 221.9 221.4 221 220.8 220.7 221.2 227 229.3 228 226.6 219.1 209.8 206 203 197.3 184.3 168.7 149.9 129.3 122.8 117.8 115.4 108.9 106.3 112.1 112.2 107 94.1 89 91.2 94.6 103.2 98.4 92.4 89.8 83.6 83.6 84.4 84.8 84.8 84.8 84.4 83.7 85.2 83.4 83.1 83.3 83.5 80 80.6 85.1 85.1 85.4 85.4 86 87.5 88.1 88.3 88.2 87.2 87.9 88.4 88.9 89.1 89.4 94.1 96.1 97.4 96.3 97.8 106.2 98.2 93.1 93.6 96 97.2 97.1 97.3 97.7 98.4 98.7 95.1 99.8 100.9 101.8 103.9 105.1 107.1 112.7 118 117.9 122.4 121.1 125 128 131.2 135.1 142.2 150.7 152.6 153.7 151.5 146.3 146.6 149.5 154 159.9 163.1 167.6 171.6 175.3 179.6 184.1 187.6 190.8 188 184.5 182.1 180.9 179.1 179.3 182.1 181.5 184.6 184.8 182.3 183.8 190.1 198.4 204.6 210 213.7 215 214.2 211.6 212.7 215.4 212.7 212.4 214.1 211.5 214 208.2 212.4 207.1 205.9 206.3 207.9 210.4 211.7 211.4 212 213.1 210.3 207.5 205.1 199.7 197.4 192.5 197.1 201 204.4 208.7 211 213.3 216.5 220.7 223.6 227 230.3 234.8 240.8 240.7 243.8 245.9 245.2 245 247.6 254.7 247.9 229.9 227.6 226.1 226
211.1 219.1 221.9 218.5 212.6 210.8 210.9 211.2 211.5 212.7 215 216.8 219.7 220.5 219.5 219.8 220.9 221 221 220.9 220.9 224.9 230.1 233.3 232.7 234.1 229.8 215.2 207.6 205.3 199.4 189.7 174.9 152.8 130.6 120.2 116.2 112.1 109.4 111.7 116.1 113.2 105.2 92.5 82.9 91.6 93 97.3 95.9 90.7 87.8 82.1 83.8 84.3 84.3 84.5 84.7 84.8 84.7 82.4 82.8 82.8 80 83.8 84.3 84.5 85 85.1 85.2 85.2 86 87.2 87 87.7 88.7 88.5 86.9 86.4 88.4 88.4 88.8 91.3 95.4 100.3 102.1 108 115 120.3 121.8 116.8 115.1 114.2 114.9 112.8 109.2 109 110.2 106.4 97.1 101.2 104.4 105 103.7 106.5 109.6 113.3 115.2 117.3 121.1 128.1 134.9 143.3 148.8 158 161.9 165 169.2 165.2 160.8 154.6 156.3 157.5 159.1 163.2 164.9 169.9 175.6 178.2 176.3 177.7 182.2 181.2 183 183.7 187 187.1 185.4 184.5 183.4 185.1 186.8 188.4 188.5 192 198.9 200.3 202.3 204.7 205.1 206.4 208.1 209.7 211.7 214.7 216 217.6 217.6 220 217.6 215.6 218.1 219.7 219.4 216.3 219.6 216.7 213.4 213 213.9 211.3 207.4 203.8 201.1 195.5 200.9 208 213 218 221.6 222.3 216.3 218.9 227 231.2 234.1 237.6 243.8 247.8 249.8 249.5 249.3 249.3 249.5 251.8 255.5 240.7 232.5 240.1 245.3 246.7
211.9 215.9 213 209.8 212.9 216.2 217.7 215.3 213 213.7 216.1 219.2 221.8 223.1 222.1 221 220.7 221 221 220.9 221.2 225.4 229 231.8 238.5 240.4 236.8 224.2 210.1 208.7 201.9 192.9 179.2 156.6 135.8 124.2 116.2 110.7 109.3 116.3 118.6 112.3 101.5 90.4 82.9 91.9 92.4 93.2 94.4 88.4 88.6 82.5 83 83.8 83.7 84.3 84.1 84.2 83.2 82.2 79.1 83.2 83.4 83.4 83.8 84.1 84.6 84.9 84.9 84.9 84.8 85 85.2 86.5 88.3 88.5 87.6 86.1 87.7 87.8 88 95 104.6 106.3 111.6 117.9 127.2 131.8 128.7 122.5 120.6 116.6 114.7 117.8 116.2 113.9 115.9 114.2 106.3 99.4 106.3 108.5 103.9 105.3 101 101.3 104.3 111.2 123.7 132.7 137.1 144.5 153.9 161.4 166.1 170.5 171.7 168.3 163.8 163.5 169.7 171.7 173.9 177.7 183.2 188.8 192.2 193.8 192.6 193.3 192.9 194.6 193.4 191.2 187.5 188 188 186.9 185.4 186.7 190.7 190.6 191.5 191.8 194.1 196 199 202.4 204.6 206.5 208.8 210.5 213 215.9 217.1 218.4 221.9 226.2 222.1 220.7 226.4 228.5 231.3 224.9 224.6 220.5 220.4 219.5 217 214.9 210.5 206.8 207.2 207.7 214.3 218.7 223.6 227 228.5 226.6 223.7 224.9 232.1 236.2 238 239.4 242.6 245.8 249 250.1 247.5 251 252.4 253 249.8 237.5 237.7 244.9 251.5 255.5
211.9 212.4 209.2 216.6 223.1 226.2 224.6 220.9 216.4 216.2 218.3 221 223.6 225.2 225 222.8 221.9 221.7 221.1 221 221.6 224 227.4 230.5 236.2 240.5 236.4 225.1 211.8 209.8 202.2 193.2 181.2 159.9 140.7 128.4 116.4 110.3 108.8 116.4 114.7 104.3 94 87.6 87.9 91.6 92.1 92.2 91.9 88.6 87.7 84.4 82.3 83.4 83.5 83.7 82.8 83 79.9 81.4 82.8 82.6 82.9 83.1 83.4 83.7 84 84.8 84.3 84.3 85.2 85.3 84.9 84.9 85 86 86.2 86.4 88 87.7 92.8 101.1 106.2 112.8 117.7 126.8 128.7 126.4 123.8 122.9 124.7 124.5 124.7 123.4 120.6 118.4 119.1 119.7 115.8 102.5 100.5 103.3 104.6 100.7 103.9 104.9 104.5 104.6 115.1 126.6 137.1 141.5 143.7 150.4 154.6 160.9 161.1 162.4 164.8 168 172.4 180.1 185.7 192.7 194.9 199 204.6 208.7 210.6 211.2 212.1 211 206.8 203 199.4 195.5 195.1 193.9 193.3 194.4 198.1 196.1 194.2 195.3 199.5 199 200.7 202 203.9 206.4 209.5 213.1 215 216.4 218.4 220.2 221.6 221.9 224.7 232.4 233.9 236.6 236.7 230.5 227.9 226.2 226.7 224.7 222.9 217.2 211.4 210.1 211.6 206.9 215.8 220 223.4 225.3 225.6 226.3 227.9 226.2 231.5 238.6 240 242.9 248.9 254.1 257.3 257.2 257.5 256.8 258 256.6 248.7 238.7 237.5 243.7 252 256.7
210 209.4 212.8 222.8 227.1 228.3 226.8 222.9 219.3 218.5 220.3 222.8 225.7 227.1 228 227.1 225.8 224.4 221.6 221.3 222.1 224.3 227.9 230.8 235.1 236 230.6 222.5 213.2 211.1 202.9 194.8 180.4 157.1 140.2 128.3 115.9 110.1 108.9 111.5 110.7 101.4 91.2 82.7 91.4 91.7 91.3 91.7 91.3 91.2 89.4 86 81.6 82.8 83.4 82.8 82.4 83.3 78.6 82.4 82.5 82.1 82.4 82.8 82.9 83 83.9 84.3 84.1 86.3 89.8 91.2 92.2 91.1 92.4 95.9 95.1 107.4 98.7 98.3 101.6 108.6 116.4 125 127.5 128.4 127.5 125.2 124.4 125.2 127.7 130.3 130.6 131.4 129.7 126.9 123.1 120.3 116.8 112.4 107 99.6 102.2 102.5 110.8 116.4 117.4 103.1 106.7 119 123.6 127.7 130.4 135.6 143.7 155.7 160.6 163.3 166.6 170.9 176.1 185.9 190.7 197.6 203 207.3 213.3 216.9 220.7 222.2 221.6 219.8 215.6 215.6 211.2 208.4 207.9 203.1 205.6 205.3 204.6 204.7 204.5 201.8 207.2 205.8 206 208.1 210.1 212 213 215.3 218 221.8 223.7 225.1 228.6 230.9 234.3 235.7 237.2 238.3 237.8 235.5 236.8 235.7 234.7 230.7 228.9 224 222.6 223.5 222.2 219.9 214.7 218.6 223 226 227.6 229.3 228.6 229.9 233.5 240.6 247 252 258.1 263.8 267.6 266.9 265.3 263.8 262.7 257.4 248.7 240.4 239 245 252.2 259.6
207.5 206.7 215.4 224.9 228.3 229.1 226.7 222.7 219.9 216.6 219.8 223.4 227.8 230.1 231.5 230.9 229.1 226.2 222.1 221.3 221.5 226.6 230.4 233.3 233.9 233.3 226.6 218.8 213.4 211.4 202.7 191.3 173.3 154.1 141.8 130.3 116.8 112.2 112.7 107 107.3 100.6 89.7 82.6 90.6 91.3 91.1 91.5 91.3 91.2 88.9 88.5 83.8 82 82.6 82.5 82.3 81.6 81.6 81.9 82 81.9 82.1 82.5 82.9 84.1 84.6 88.1 95.3 96.2 94.3 98.9 101.8 105.2 106.2 106.4 106 103 102.4 103.7 111 116.3 121.5 126.5 129.1 130.9 132.9 134.1 135.7 139.7 142.2 142.1 140.7 137.4 134.9 131.3 126 123.1 123.8 122.9 126 121.5 116.5 122.9 131 133 128.5 110.8 105 111.5 120.1 123.2 127.4 132.2 141.3 147.9 152.6 160.3 167.9 171.1 178 186.1 193.3 199.4 204.4 208.3 213 217.8 221.1 223.7 226.6 227.9 228.5 228.3 228.2 225.2 220.7 215.4 214.7 214.6 212.4 209.4 210.9 207.1 211.8 213.7 212.7 212.5 214.2 217.4 219.6 222.4 224.9 226.6 229.1 232.7 236.8 238.7 241 242.8 243.6 245.1 246.6 248 246.6 243.3 238.6 240.7 241.7 241.5 240.1 237.1 233.3 223.9 220.1 225.5 233 237.9 241.2 242.8 239.9 236.2 239.6 241.9 247.8 254 259.3 264 268.2 269.7 268.1 268.4 267.2 266.7 264.9 262.2 260.6 256.6 249.1 260.8
204.5 205.6 214.1 223.4 228.4 227.5 224.5 222.2 218.9 214.9 217.8 223.1 228.5 231.4 235.1 235.8 232.8 226.9 221.1 220.9 221.6 225.4 231.7 234.7 234.5 230 226.6 220.4 212.4 204 196.3 184.2 167.2 153.8 143.1 129.5 116.9 114.3 115.1 108.2 102 97.5 87.4 82.5 90.8 90.9 90.8 91.4 91 90.5 88.5 88.1 84.7 81.2 82.8 82.6 82.3 81.3 81.2 81.7 81.7 81.4 87.3 89.7 93.6 99.4 99.7 100.8 102.5 100.2 101 103.1 106.1 107.1 106.6 106.2 103.2 102 106.4 113.3 117.5 122.2 125.6 128.3 133.9 141.5 145.4 146.5 146.5 151.2 152.9 152.1 150.8 148.4 142 138.6 136 134.6 137.3 139.3 139.3 137.6 136.7 137.8 138.7 134 130 122.2 108.6 105.1 117 123.4 127 128.6 135.4 145.3 152.1 160.2 165.7 173.5 174.1 180.1 185.1 189.1 194.1 200 205.8 211.3 219 224.2 229.1 233.7 236.4 236.1 235.3 232.5 228.6 228.1 226.5 226.9 226.8 224.6 222.8 215.5 220.6 223.5 225 225 225.1 224.7 231 232.5 233.6 236.1 239.7 244.4 246.1 249 254.3 255.1 254.6 254.9 254.4 254.3 250.8 244.2 248.7 249.8 249.8 249.3 245.7 239.2 234 225.2 223.4 231.1 234.9 237.7 239.4 238.6 238.3 239.2 240.2 242.5 246.7 253.4 258.6 264.2 271.2 275.2 277.2 277.4 278.2 278.4 277.8 279.2 275.4 269.1 255.7 267.9
202.1 203.1 210.5 219.6 225.2 223.9 221 220.1 216.8 212.9 215.5 221.9 227.2 232.1 237.2 237.5 232.9 225.8 220.8 220.5 222.5 226.9 230.5 232.2 229.4 227.4 215.8 211.5 206.3 199.6 192 176.1 163.4 153.7 143.5 129 117.5 115.1 113.3 107.2 102.2 93.9 82.5 90.3 90.4 90.6 90.8 91 91 90.5 89.2 87.4 83.8 82 82.1 82.3 82.1 82.3 80.3 81 81.2 84.9 102.2 102.3 101.2 101.5 103.9 104.1 102.1 102 103.4 104.9 105.8 105.6 104.5 103.2 102 103.3 111.5 116.8 120 126.1 133.5 139.4 145.9 152.6 159.6 159.9 158.3 161.2 162.5 162.6 160.6 155.4 151.4 147.6 147.6 147.3 148.4 147.3 145.6 142.6 137.1 127.8 123.8 121.4 121 122.1 120.3 110.8 107.3 118.9 122.9 125.3 132.2 141.8 149 152.6 156.7 163.8 167.9 171.2 177.5 182.6 189.2 196.3 201.1 208.3 214.8 220 223.5 226.7 230.5 234.1 237.6 240.3 240.9 238.5 238.1 238.9 240.4 236.3 230.3 224.9 225.9 227.4 231.1 232.5 234.6 234.8 234.7 239.9 243.2 248 248 251.6 252.5 257.3 261.5 259.9 261.3 262 259.3 253.8 251.7 245.6 246.4 246.7 246.2 245.3 243.5 242.7 238.2 230.5 228.1 227.3 230.2 233.5 236.4 238.9 241.2 242.1 244 247.5 251.6 256.3 260.5 266.7 273.6 278.9 281.5 281.8 282.1 282.4 282.1 281.3 276.9 267.7 267 274.8
200.9 201.3 205.3 213.4 218.4 217.9 219.4 218.5 213.8 210.4 212.7 218.8 224.7 231.3 236.4 235.4 230.6 223.9 220.7 220.4 223.5 224.8 228.1 229.3 228.9 221.4 212.9 205.1 200.7 194.7 184.4 171.9 160.8 152.4 141.2 128.9 118.6 115.3 110.5 103.4 98 91.8 82.7 90.2 90.3 90.6 90.7 90.8 90.9 90.3 88.9 87.1 84.8 83.1 81.9 81.2 81.7 81.9 78.7 80.2 80.8 84.9 101.7 100.8 100.5 102.4 105 104.1 102.5 102.7 103.7 105.1 105 103.9 102.8 102.2 103 108.6 115.6 120.5 126.8 135.6 142 148.2 153.5 158.7 161.9 164.4 169.7 173.7 173.1 168.4 162 159.5 157.7 155.9 155.5 153.3 152.5 150.7 146.4 137.7 128.9 124.3 122.5 122.2 122.8 122.8 119.5 116.9 105.2 107.5 111.5 118.4 127.8 135.3 141.2 146.7 150.5 155.6 159.8 164.5 171.1 176.6 183.4 190.1 195.5 200.9 204.8 213.4 217.1 224.1 228.1 232.4 236.8 240.6 244.1 245.6 246.2 244.9 240 235 231.6 234.2 235.7 233 235.9 240.4 241.6 240 238.5 246.3 250.9 251.8 253.4 256 257.8 262.9 265.7 266.1 267.7 268.7 267.1 261.6 254.4 249.6 246 247.4 248.1 248.2 247.9 248.3 247.5 245.7 243.2 240.3 237.3 236.6 240.5 244.3 245.2 245.8 246.1 247.8 251.3 255.2 258.9 264.2 270.9 275.7 279.1 281.7 283 285.2 286.5 285.4 284.5 282.6 281.4 279.5
200 201.2 202.8 208.1 211.6 215.1 216.5 215 210.7 207 210.3 214.9 221.2 229 233.2 231.8 227.1 222.4 219.9 220.5 221.6 224 226.4 229.3 233.1 227.7 215.9 206.1 199.1 189.5 179.3 167.4 158.2 150.4 139.9 128.3 118.2 113 104.4 96.2 93.6 89.4 82.6 89.8 89.7 90.5 90.7 90.6 90.5 89.7 88 87 86.3 84 82.9 82.3 81.3 81.6 81.4 78.7 79.9 86 97.6 100.5 101.9 103 103.8 103.2 103.1 103 104.2 105.1 105.6 102.5 102 102.9 105.4 112.7 122 128.4 138.5 145.7 150.2 153.7 158.4 165.5 168.8 175.6 180.1 178.4 177.2 173.7 172 170.7 169.5 169.2 168.1 167.1 165.9 159.2 149.5 142.7 135.6 131.3 126.8 125.9 126.1 124.8 119.6 114.6 109.1 107.8 108.7 110.9 120.1 128.2 134.9 140.1 143.8 149.6 151.9 158.1 164.1 170.9 176.6 183.4 189.3 194.2 199.3 206.8 214.4 217.1 221.7 225.3 229.7 233.3 236.2 240.4 244.6 245.2 242.8 239.2 238.1 243.3 244.9 240.9 240.9 244.9 246 247.2 245.7 248.3 252.4 255.1 257.3 260 259 261.5 262.4 261.5 261.7 264.3 265.8 262.7 254.7 248.5 247.3 250 251.6 253.4 255.6 257.1 257.9 257.6 256.1 253.6 250.1 245.2 242.3 245 245 245.2 245.8 246.7 248.8 253.1 256.1 261.9 270.4 276.9 282.5 286.9 289.8 291.3 292.7 294 294.6 294.5 297.3 294.6
199.6 200.8 201.6 204.8 206.7 209.9 210.1 208.8 205.5 205.4 207.7 211.6 216.3 224.8 228.5 226.6 222.5 220.1 219.5 221.7 223.5 224.4 225.3 229.4 232.9 232.5 224 209 198.8 186.5 174.4 164.6 156 147.4 136.6 125.8 117.2 110.8 101 96.5 92.9 89.3 82.5 89.3 89.3 90.1 90.3 90.1 89.9 89 87.3 86.5 86.5 85.8 85.6 85.8 80.8 81.4 80.9 80.4 78.2 86.7 94.9 96.7 98.6 100 99 101 101.8 104.4 105 104.6 103.5 101.9 102.5 104.4 111.6 119.3 128.8 139.4 146 150.9 154.9 161.6 167.9 175.4 177.5 180.1 182.9 183.2 181.8 181.6 183.3 184.9 188.1 189.1 190.1 189 184.6 176.3 168.1 160.3 155.2 149.4 141.9 136.4 132.7 129.1 123.1 118.4 113.9 106.6 108.6 109.2 113.9 122.8 130 136.4 140.4 146.8 151.4 157.7 161.4 167.3 171.7 175.6 180.6 186.3 188.9 196.2 203.8 210.9 214 219 224.6 230 233 239.2 246 249.5 250.9 252.3 251.2 253.3 254.6 256.4 254.5 251.1 248.2 251.2 252.3 249.3 256.8 256.7 254 254.3 255.4 256.1 257.5 257.7 257.3 255.8 253.8 249.4 246.8 247.5 249.7 250.6 251.5 252.6 253.6 255.2 257 258.4 259.3 259.8 258.9 256.6 255.2 252.6 249 246.5 246.1 246.8 249.3 252.6 256.5 264.7 273.2 280.6 287.2 292.9 296.6 296.2 296.2 297.7 299.4 301.9 304.4 308.7
199.4 199.7 200.3 201.1 201.2 201.7 201.4 202.1 201.7 202.9 205.2 208 210.8 220.3 222.4 221.5 219.1 219.2 219.7 221.9 224.1 224.6 224.9 229.8 232.4 229 221.8 211 200.2 186.3 173.9 166 154.3 146.2 137.2 126.1 115.7 109.4 103.2 98.4 93.8 89.1 82.1 89.5 88.8 89.6 89.9 89.9 89.7 88.7 86.9 86.1 86.1 86.1 85.5 85.8 83.6 80.4 80.6 80 78.5 85.5 91.7 92 94.7 96.3 96.4 98.9 100.7 105.9 104.7 102.7 101.7 102.6 104.7 112.6 118.1 123.8 132.9 141.2 146.3 151.9 160.4 168.1 173 179.7 185.7 187.7 188.6 191.3 192.9 194.8 196.8 199.2 203 206.6 211 208.3 204.7 198.6 190.4 182.1 176.8 169.3 162.4 155.8 151.5 145.4 140.4 134.1 125.3 110.8 105.8 108.7 112.6 120.2 128.9 135 139.7 145.2 150.4 155.5 159.6 164.2 167.7 171.2 175.2 179.6 181.7 184.8 191.9 198.6 205.8 212.7 221.4 225.4 231.6 238.6 245.9 251.6 257.8 262.3 265.6 264.2 264.2 266.9 267.1 263.3 255.5 251.7 250.6 250.6 253.4 255.3 255 258.7 260.6 262.4 264.5 263 260.3 254.5 249.7 245.7 244 245.4 246.5 247.1 246.2 247.2 248.8 250.8 253 255.6 259.6 262.7 265.2 264.6 263.8 263.1 259.8 256.4 252.1 248.8 250 252.5 255.5 263.3 272.7 280.9 286.9 291.9 295.2 294 295.4 299.2 302.8 306.4 310.9 316.1
200.2 200 199.5 199.6 199.7 199.5 200.1 200.5 200.9 201.8 203.4 206.2 211.4 215.9 217.5 217.3 219.9 220.8 223.2 224.6 224.6 224.6 224.8 226.7 227.4 225.2 223.6 212.3 200.9 185.9 174.5 166.3 155.9 147.8 137.8 125.8 117.1 110.8 107.7 100.5 93.6 88 82.9 86.6 88.8 89.3 89.4 89.5 89.1 88.5 87 86.1 85.5 85.6 84.9 85 85.2 85.3 82.7 79.9 76.8 82.4 90.7 89.6 92.6 93.3 95.2 99.5 100.1 101.5 103 101.7 101.7 103 110.1 115.1 122.3 129.5 136.5 142.9 149.4 157.1 166.9 176.4 181.8 186 190.6 196.3 199.8 201.7 207.4 213.2 217.1 224 228.7 231.4 233.4 232.3 228 219.5 209 201.6 195.6 189.3 181.9 172.8 168.6 161.3 153.1 143 133 118.8 108.6 107.3 111 119.4 126.7 137.6 141.3 145.8 150.9 155.7 159.3 163.4 166.6 168.7 172.1 174.5 175.8 178 181.7 188.2 195.5 200.3 206.4 212.6 220.6 230.2 236.2 244.2 253.5 261.2 268 273.2 275 276.3 274.1 267.8 259 256.9 255.2 253.7 257.3 260.3 263 267 268.3 266.8 267.8 266.8 262.2 255.8 248.2 245.3 243.6 243.6 245.2 244.8 243.6 242.1 242 244 247.2 250.3 255 260.9 265.2 268.9 270.2 268.8 267 264.3 260 255.6 254.7 258.5 258.3 261.6 268.8 277.2 283 286.3 289.7 291.2 294.7 301.6 308.1 313.8 319 324.3
