ncols 200
nrows 82
xllcorner 330000
yllcorner 611200
cellsize 50
324.9 313 323.5 332.1 346.6 362.5 369.2 377.4 390.9 400.5 406.2 413.6 412.9 412.4 414.1 414 412.2 416.4 425 421.9 415.1 406.3 398.8 390.1 380.5 370.6 368.6 368.1 363.7 358.7 350.3 337.7 331 323.1 312.8 301.4 291.9 278.8 266.7 259 248.6 245 269.3 298.2 328.4 352.3 373.1 389 398.3 400.7 404 408.5 403.5 405.9 411.3 404.4 398.5 395.3 390 383.6 375.6 366.2 356.8 349.1 342.9 338.6 335.4 334.5 334 331.4 328 323.7 318.2 312.4 307.4 304.1 303.8 303.3 302.7 303 302.7 302.2 300.4 299.4 301 301.9 303.8 303.8 306.7 309.5 310.9 313.2 314.9 317.6 318.5 319.2 319.8 322.8 321.9 319.1 315.7 310.2 312.8 314 316.4 316.7 316.8 319 321.3 323.1 323.5 323 323.7 324.4 322.9 319.7 315.3 309.5 311.3 318.3 319.6 319.5 318.7 318.4 318.5 321.7 323.5 326.1 328.7 331.8 332.9 330.5 324.6 318.1 315.2 310.2 307.8 306.2 304.6 303.8 295.1 294.2 292.8 296.3 300 308 319 329.8 337.6 340.1 340.4 340.9 338.7 333.9 327.8 319.3 311.7 307.7 311.2 314.2 315.6 317.1 318.9 321 318 317.3 315.9 316.5 318 314.6 314.4 317.2 315.9 313.6 316.5 322.5 326.3 329 328.3 323.3 319.2 317.2 315.8 315.7 314.4 309.6 305.5 299.8 294.7 287.7 280.6 275.3 273.4 273.4 273.4 273.4 273.4 273.4 273.4 273.4
318.3 327.5 331.7 337 352.3 365.2 374.7 383.6 392.9 402.8 407.2 408.6 410.5 409.8 410.6 407.6 407.9 409.1 414.8 411.7 405.1 396.6 389.8 382.2 374.5 361.9 361.3 362.8 358.5 353.7 346 332.8 323.2 318.3 310.5 303.3 299 286 274.4 262.2 250.1 245.8 266.2 296.8 326.5 348.8 365.8 378.1 385.9 387.2 391.2 394.3 399.3 400.9 402.5 402.9 404.1 397.6 388.9 379.8 373 366.8 358.9 350.2 343.4 338.4 334.7 331.8 333.5 331.8 327.3 321.3 314.7 308.9 305.1 302.4 303.7 302.5 302.2 299.9 299.4 300.2 298.5 301.9 302.4 304 308.3 309.9 313.7 315.4 317.3 320.9 322.8 322.7 324.9 324.1 326.1 326.1 323.8 319.6 316.7 320.4 321.3 322.2 324.7 325 324.3 324.2 325.8 327.8 328 328 327.5 327 324.1 319.4 314.5 308.9 318.7 320.5 322.3 322.6 322.3 322 321.7 324.3 325.4 327.8 330.6 333.6 335.5 331.7 327.1 322.3 318.1 313.8 311.7 310.9 310 308.8 306.8 300.4 294.6 292.3 291.2 302.7 316.7 325.9 336.2 340.8 344.1 344.7 342.4 337.4 330.5 321.1 312.8 305.5 308.2 311.8 313.2 315 317.1 319.1 318.8 314.2 310.2 310 306.5 307.8 309.3 310.7 308.2 307.2 311.8 315.2 320.2 325.4 326 324 320.6 316.5 314.3 310.4 303.8 299.3 294.2 289.5 285.7 282.5 278.7 272.8 273.4 273.4 273.4 273.4 273.4 273.4 273.4 273.4
332.8 332.2 336.2 342.2 355.2 370.3 383.6 387.1 393.5 402.2 406.5 408.4 406 402.9 401.6 395.6 396.5 396.1 402.3 399.3 395.5 386.9 380.4 373.3 365.9 351.3 346.3 346.3 347.2 344.1 339.9 330.2 320.7 311.7 308.1 302.8 297.4 289.9 280.3 265 246.6 248.2 265.7 293.7 320.4 345.2 357.3 366.8 370 371 374.8 380.9 389.5 397.4 401.1 400.5 396.4 393.2 385.6 378.7 374.5 367.7 360 354 347.1 341.2 335.7 332.4 330.5 328.7 323.5 317.2 309 304.3 301.7 301.2 300.9 300.3 299.7 298.1 299.1 299 300.1 302.6 306.8 311.9 317.4 321 325.3 326 328.9 327.7 329.3 330.1 330.1 330.4 329.5 326.5 322 322.2 326.1 329.6 330.6 331.9 331.8 331.5 330.6 329.6 330.4 329.8 329 327.8 327.4 325.7 322.5 317.9 314.4 312.9 320.5 322 323.8 325.1 325.1 324.9 324.9 326.2 327.8 329.5 332.5 335.4 336.8 333.3 328.6 324 319.4 316.5 315.4 314.1 312.9 313.6 312 309.1 305.1 299.9 289.9 295.2 311.7 323.5 332.8 342.3 347.3 346.5 343.9 338.2 331 322 312.5 305.6 306.1 309.3 311.1 313.2 315 316.9 316.6 315.6 310.8 305.9 301 300.5 301.1 303.3 302.6 304 308.3 311 319 324.7 324.1 324.6 319.2 312.2 307.3 303.1 298.4 293.5 289.1 284.8 280.2 278.9 277.7 274.4 273.4 273.4 273.4 273.4 273.4 273.4 273.4 273.4
338.7 337.2 342.1 348.6 363.8 378.1 387.7 394 403.7 406.6 407.7 406.2 400.7 393.7 384.3 376.8 377.6 381.5 389.3 387.9 384.5 375.6 370.9 365.5 355.9 341.1 336.6 340.5 341.1 338.5 332.5 325.3 315.1 306.6 300.2 296.5 292.6 286.8 282.6 249.2 247.8 247.5 268.2 292.5 315.1 331 344.9 352.9 353.9 354.8 357.5 365 378.2 390.4 395.6 396 392.2 388.3 384.8 378.8 374.2 368.6 362.1 354.3 348.9 343.3 338.6 332.1 327.4 315.8 314.9 308.8 303.3 301.8 301.2 300.9 300 299.5 297.7 299 299.7 302.6 303.8 308.9 313.7 322.3 327.5 334.2 335.5 334.8 336.2 335.5 334.4 334.5 334 332.7 328.8 323.4 325.3 330.1 333.1 336.2 338.2 338.1 337 335.9 335.1 334.2 331.5 330.3 329.2 327.9 326 323.5 320.7 316.8 313.5 315.9 322.1 323.5 325 326.3 327.4 326.4 326.7 327.9 329.4 331.4 333.8 337.4 337.5 332.7 327.9 324.2 320.4 319.1 317.8 316.6 316 317.6 316.8 314.9 309.2 302.1 292.1 288.2 305.8 320.5 334.1 343.3 347 346.2 342.6 334.7 327.6 318.1 311.5 307 303.9 307 308.8 310.6 312.4 313.4 312.2 311.5 309.8 305.8 301 296.5 294.7 295.3 296.7 300 303.8 310.1 317.5 320.2 322.2 315.9 311.6 306 302 298.1 293.3 289.2 286.1 283.1 280.5 278.4 275.2 273.4 273.4 273.4 273.4 273.4 273.4 273.4 273.4 273.4
342.6 342.7 345.7 357 368.7 383.1 392.9 404.1 411.2 412.7 410.3 404.9 398.7 389.4 375 365.3 358 361.3 366.9 370.7 366.8 361.9 356.8 348 340.9 330.3 326.9 330.8 328.9 323 321.3 316.2 309.9 300.7 292.1 287.9 282.4 279.1 276.7 250.3 248.6 249.1 266.5 285.5 304.9 317.6 326.8 334.5 337.9 339.5 341.9 351.2 364.8 379.6 391.4 395.6 391.7 387 382.1 377.2 373.1 368.3 362.5 356.6 349.2 342.6 336.9 327.3 321.1 314.6 306.4 303.4 300.9 299.7 300.7 300.5 299.7 298.5 297.4 299.6 303.3 308.2 310.1 316 324.3 334.2 339.9 342.9 342.9 341.5 339.5 337.7 337.2 336.6 334.6 331.7 326.4 327.6 332.8 336.7 339.4 341.7 341.6 340.1 339.4 338.2 336.4 334.5 332.4 329.8 328 326.5 323 321.6 319.9 316.5 313.6 317.9 321.8 324.6 326.2 326.8 327.1 327.6 328.7 329.9 331.4 333.7 337.6 338.9 336 332.1 327.6 324.5 322.5 321.2 320.2 319 319.4 321 320.7 316 310.7 304 295.8 287.8 300.3 316.3 331.8 338.5 341.4 341.1 336 330.6 324.6 318.3 314.4 308.5 302.9 301.6 304.8 308 309.8 309 307.9 306.7 304 301.4 297.1 294 289.7 291.5 291.5 295.4 299 307.9 310.4 316.4 309 311.1 307 301.3 297.3 294.2 290.6 287.8 284.9 281.8 279.8 275.8 273.4 273.4 273.4 273.4 273.4 273.4 273.4 273.4 273.4 273.4
347.9 349.1 357.3 369.7 380.3 388.7 398.4 410.8 413.5 412.7 406.9 400.6 393.6 383.2 370.4 356.7 348 344.3 348.7 350.1 348.2 342.9 335.3 329.5 323.3 317.6 314.6 314.8 312.9 309.9 306.7 303.3 296.6 289 282.5 280.9 278.1 274.6 265 249.1 248.5 249.6 254.1 270.8 286.8 299 307.4 312.1 316.2 319.1 324.5 336.3 353.6 373.6 389.1 391.7 389.4 386 383.5 380.1 375.8 370.6 363.9 356.8 348.3 340.2 331.1 321.4 312.2 306.1 302.9 301.2 298.6 297.5 298.5 299.6 297.9 296.7 298.8 302.7 307.6 313 319.6 326.4 331.2 339.4 345.3 347.5 346.4 344.4 341.8 339.3 338.4 336.9 334.3 329.4 328.5 334.9 338.2 340.2 343.1 343.8 342.3 340.2 338.7 338.4 337.3 335 332.5 330.5 329.6 328.4 326.9 324.8 322.4 319.6 315.5 319 322.8 325.7 327.4 328.6 329.5 330 331 332.3 334.1 336.5 339.2 337.7 335.6 331.4 329.3 326.7 323.8 322.3 321.8 321.4 321.1 320.7 318.2 314.3 309.9 303.8 294.3 289.7 292.6 311.4 328.6 334.1 335.1 334.6 333.3 329.3 323.7 320.8 317.4 312.2 307.2 303.2 300.4 303.1 305.6 304.4 302.7 303 299.6 296.2 293.4 292.4 286.2 284.5 283.9 286.8 291 295.8 302.4 302.8 303.2 301.8 299.9 296.5 292.9 291.3 289.1 286.3 283.5 280.6 276.5 273.4 273.4 273.4 273.4 273.4 273.4 273.4 273.4 273.4 273.4 273.4
352.1 358 369.3 381.8 388.5 395 404.6 415.5 415.2 409.7 402.4 393.2 385.1 373.6 364.6 351 341.8 336.2 332 327.5 323.1 318.3 316.1 311.3 307.6 305.2 303 302.1 300.6 298.9 296.8 289.3 282.9 276 274.3 274.3 272 265.7 252.6 258.4 261.6 251.8 249.8 250.4 259.8 272.4 284 293.6 299.4 304.2 311.2 327.5 345.3 366.3 381.7 388.1 389.1 390.1 386.2 379.9 373.4 368.8 363.9 352.1 342.6 332.2 323 314.2 305.9 301.8 299.8 298.1 296.3 295.9 296.3 296.7 296.7 297.9 302.7 308.3 312.6 319.7 330 332.4 338 347.4 351.1 349.9 347.2 343.8 340.7 339.6 337.8 335.3 332.4 327.7 332.7 337.8 340.9 342.9 342.9 341.9 340.4 338.9 338.9 338.5 338 336.3 334.3 333.6 332.9 331.7 330.5 328.8 326 321.7 317.2 320.7 323.3 327.2 330 331.4 332 332.5 333 334.5 336.7 336.7 336.5 335.5 334.1 331.7 330.3 328.1 325.5 324.1 323.4 322.2 321 319.9 316.1 314.7 310.4 303.6 298.9 289.3 288.3 302.9 319.3 326.4 330.8 330.8 330 328 321.7 320.9 319.3 317.5 313 310.6 306 302.7 302 298 296.4 294.8 298.1 295.2 292.8 290.8 285.8 278 276.5 276.6 279.6 285.2 290.6 290.9 290.3 288.4 288.7 289 288.5 288.8 287 284.7 282.1 280.1 276.3 274.7 275.5 274.4 273.4 273.4 273.4 273.4 273.4 273.4 273 272.5
360.2 368.4 381.3 394.2 403.2 410.2 409.8 408.3 404.7 398.1 391.4 384.5 377.1 368.4 355.1 344.7 336.2 322.8 319.7 312.3 308.2 303.5 299.3 295.4 294.1 293.8 295.7 296.5 297.1 295.8 290.4 282.5 276.6 272.1 267.2 266.6 257.4 254.9 263.2 272.6 276.5 278.2 268.4 258.8 252.2 251.1 254.5 274.5 284.8 289.4 303 322.1 339.8 360.5 373.7 382.3 385.8 383.4 378 369.2 361.9 358.4 351.2 345.3 334.6 326.1 319.4 312.9 306.1 300.3 297.4 295.7 295.8 298.3 298.2 298.7 297.2 298.4 302.9 313.1 326.1 333 337.7 339.3 346.6 351.9 352 349.8 346.3 341.5 339.1 337.6 336 333.8 330.5 331.6 333.9 336.5 339.1 340.4 340.1 339.7 338.6 338.3 338.4 338.5 338.4 337.1 337.3 337.6 337.1 335.8 334.5 332.9 328.8 323.1 320.8 323.8 330.3 334.4 335.5 334.4 334.6 335.1 335.5 336.5 335.8 335.8 335 333.8 332.4 331.4 330.9 329.4 327.5 326.6 327.4 326.4 325.4 322.2 319.4 317 314.3 309.5 303.5 296.9 287.1 294.3 309.6 320.2 322.7 324.5 324.8 321.1 322.5 321.9 321.1 320.7 319.9 317.3 313.7 309.2 307.8 305.6 302.5 297.5 289.9 288.3 282.7 283.4 282.7 279.9 275.2 275.3 274.9 274.5 276.7 275.9 275.9 277.5 279.2 283.3 284.9 285.8 284.8 282.6 282 279.8 278.7 280.4 279.3 275.1 273.4 273.4 273.4 273.4 274 275.3 276.4 277.5
370.4 379.5 390.1 402.9 412.3 416.6 413.3 407.9 402.7 394.7 389 379.8 371.6 366.6 356.6 342.7 333.6 322.5 315 305.9 300.4 294.6 290.7 287.9 285.5 289.4 293.7 295.2 292.1 290.8 286.1 280.6 273.3 264.2 261 258.1 265.7 271.4 275.2 281.4 284.5 284.7 284.8 279.9 272.6 255.9 252.1 250.2 265.5 281.2 301.3 322.9 338.1 353.5 366.9 376.3 377.6 377.9 374.5 367.5 360 352.3 344.3 337 329.6 324.9 319.6 313.5 307.7 300.4 296.4 294.7 295.1 297.2 298.4 297.6 299.8 301.9 311.2 325.7 334.3 341.4 341.4 343.7 347.7 348.9 350.7 347.3 343.5 338.9 337 335.5 333.9 332.2 329.7 332.5 334 335.9 337.2 338.3 337.9 337.6 337.9 337.8 337.9 338 338.7 339.6 339.9 340.2 340.6 340.1 338.6 336.2 329.7 322.2 324 333.8 338.8 341.6 340 338.9 337.8 337.9 337.9 337.5 336.5 334.7 333.4 332.4 331.2 330.3 329.8 329.8 329.7 329.2 332.5 331.1 327.8 324.5 322.1 319.6 316.9 313.3 307.6 300.6 287.6 286.8 301.4 309.7 313.6 317.3 316.9 319.7 320.4 317.7 322.7 325 324 321.1 317.8 313.9 311.2 303.2 302.8 300.5 295.6 295.6 291.7 288.2 285.9 280.8 274.8 274.3 272.5 272.4 272.4 272.4 272.4 274.1 276.1 278.4 281.5 283.6 282.3 281.3 280.9 282.6 283.3 281.4 278 272.4 272.4 272.4 272.4 277 279.2 280.1 281.1 280.6
380.3 388.6 400.2 410.6 419 419.8 416.2 407.2 403 394.5 385.9 373.8 361.4 359.1 346.5 336.6 331 320.5 311.8 305.1 297.8 294.7 291.3 288.6 286.1 287.1 289.4 289.6 285.1 280.3 269.6 266.7 267.1 271.6 274 276.7 279.7 281.3 283.2 287.1 289.7 291.8 293.2 290.5 283.8 272 252.7 251.6 262.3 278.7 300 317.9 333.5 345.2 358 370.7 375.3 374.7 368.3 361 355.5 347.9 341.9 334.4 329.6 326 321.4 315.9 309.2 300.3 295.7 294.2 294.6 295.5 296.4 296.9 303.1 312.6 325.1 332.2 340.7 344.4 347.1 348.4 346.8 345.6 345.6 343.4 339.1 336.5 336 334.5 332.9 331.4 330.4 332 333.2 334.4 335.7 336.6 336.4 336.1 336.9 337.9 338.6 339.4 340.1 341.4 343.3 344.3 345.5 342.6 340.3 337.1 329.6 325.3 334.1 342 344.8 346.7 345.3 343.4 342.3 340.6 339.5 338.1 336.2 334.2 332.2 330.9 329.8 330 330.3 330.6 330.4 333.1 336.3 333.3 330 326.7 324.4 322.1 319.2 316.1 310.7 302.9 292.5 286.5 288 299.2 306.1 308.1 310.1 311.1 304.1 316.5 322.4 323.4 324 320.6 317.6 311.9 304.1 306.9 306.6 300.8 297.2 293.9 287.3 285.4 277.4 273.8 272.9 272.5 272.4 272.4 272.4 272.4 272.4 272.4 272.5 274.2 276.3 277.4 277.3 280.4 284.6 283.6 283.5 279.4 272.6 272.4 272.4 272.4 272.4 280.7 284.6 285.7 282.6 283.8
389.4 396.8 407 414.3 416 413 407.6 401 398.8 390.5 379.3 365.5 351.9 346.6 336.5 329.4 324.1 316.5 307.8 300.1 294 291.5 290 287.6 281.5 279.1 278.9 275.6 278.2 274.7 277.9 279.6 283.8 284.4 286.8 289.6 291.9 293.8 295.6 296.5 298.8 299.4 298.1 293 287.8 279.5 255.2 251.6 257.7 279.6 298.3 318.5 334.2 340.4 351.4 358 361 362.7 359.1 360.4 355.9 349.3 340.2 333.3 328.2 324.5 320.3 315.3 310.6 300.1 295.6 293.5 294.7 297.2 298.6 300.6 308.6 320.5 329.7 337.3 346 351.2 349.7 345.7 344.5 343.6 341.3 338.7 335.9 334.6 334.2 333.7 332.2 330.7 330.9 332.3 333.1 334.3 335.6 337.3 337.5 337.5 338.1 339.1 339.9 340.7 342.1 344.8 347 348.6 348.4 345.5 340.9 334.5 329.5 332.3 341.5 346 348.6 347.9 347.2 346 343.9 341.8 340.7 338.5 336.4 334.2 331.5 329.3 327.7 328.5 329.5 330.7 333.1 334.7 331.5 332.4 333.3 330.5 329.4 325.2 321.8 316.5 310.9 304.7 297.5 297.6 289.7 285.8 295.4 298.5 300.6 297.1 301.9 313.3 316.7 319.7 318.6 316 307.7 305.2 305.9 307.6 302.1 296.3 291.9 289.3 284.5 280.7 273.1 274.2 272.4 272.4 272.4 272.4 272.4 272.4 272.4 272.4 272.4 272.4 272.4 274.3 279.4 281.6 285.6 281.2 278.6 273.6 272.4 272.4 273.9 276.2 278.7 285 290.7 288.7 286.7 291.7
397.5 400.7 406.8 409.6 410.6 404.6 397.1 391.4 391.1 381.8 368.6 355.4 344.6 336.7 330.9 325.1 319.1 309.3 298.5 292.8 289.9 286.5 285.8 284.1 290.5 293.7 293.9 293.4 293 291.8 292.4 291.4 295.5 300.1 306.1 309.2 308.1 306.8 305.5 302.8 301.3 299.7 294.7 289.8 283.3 274.7 259.1 252 254.9 272.2 291.6 309.4 319.9 327.9 338.2 346.2 349 353.5 359 358.5 355.5 350.7 340.1 332 326.9 322.8 318.7 314.2 309.5 300.9 296.3 294.1 297.1 298.8 300.9 305.6 314.4 324.3 332.9 341.3 346.9 348.8 347.1 345.8 344.6 343.4 340 337.4 335.3 333.8 332.9 332 331.4 330.9 331.8 332.7 333 334.5 336.4 337.9 339 339.2 339.7 340.3 341.2 342.9 345.6 347.5 349.1 349.2 346.7 343.4 339.3 334.2 334.1 337.5 344.6 348.5 349.4 349.2 348.6 347.2 345.1 343.1 341.1 338.7 336.1 333.5 330.9 327.5 326.2 326.9 327 327.6 330.1 330.7 329.7 330.3 330.9 330.3 329.3 327.9 322.5 316.9 311.1 305.1 298.9 297.3 294.6 288.8 281.5 288 291.4 292.7 298.5 306.7 311.6 310.1 308.6 302.5 303.8 305.2 301 301.7 295.5 288.5 289.5 289.2 287 282.4 275.8 273.8 272.4 272.4 272.4 272.4 272.4 272.4 272.4 272.4 272.4 272.4 272.4 273.1 278.9 281 284.5 280.3 275.3 272.3 272.4 278.7 281.9 282 286.2 291.8 296.3 296.8 294.1 301.5
403.8 405.7 407.5 408.2 403.4 396 390.5 384.4 379 369.4 358.3 345.3 335.4 331.6 326.5 321.2 312.1 301.8 296 295 294.8 296.1 295.5 296.7 300 300.2 301.2 302.8 301.9 302.9 302.7 303 309.3 315.6 320 319.4 325.8 316.3 311.8 305.4 298.6 295.4 289.8 285 280.2 270.5 255.3 252.3 255.1 263.8 278.9 291.4 304.5 318.8 329.5 335.9 346.1 353.7 360.5 362.6 355.9 346.1 334.6 329.9 326.5 324.2 317.8 312.8 307.9 301 298.6 295.7 296.1 299.3 302 308.1 314.5 322.3 336 345.1 351.2 353.2 351.2 347.6 345.7 343.2 340.4 337.2 335 333.6 332.7 331.7 331.2 331.8 332.6 332.8 333.1 335 337.1 338.8 340.6 341.5 342 342.3 343.2 345.3 347.5 349.3 350.7 349.8 346 341.3 340.3 340.3 338.8 341.5 346.2 348.7 350 350.3 349.9 348.5 346.5 344.2 341.4 338.5 335.4 332.8 330.8 329.1 326.7 323.9 323.4 325.1 325.3 326 326.9 327.6 328.2 327.8 324.6 324.5 320.3 316.5 312.1 306.5 301.2 296.1 294.5 292.7 288.4 280.7 284.6 289.4 294.2 300.9 300.8 300.2 296.5 302.4 296.1 293.5 292.5 291.2 286.2 288.8 290 286.8 283.9 280.7 278.2 276.3 273.3 272.4 272.4 272.4 272.4 272.4 272.4 272.4 272.4 272.4 272.4 272.4 277.5 280.4 282.1 279.2 272.4 272.4 280.3 283.4 286.3 292.5 299 303.3 303.2 302.2 303.9 305.9
409.5 407.4 408.5 403.9 397.6 390.1 385.3 378.2 366.7 357.4 346.5 335.9 330.5 324.4 320.2 313.5 303.1 297.5 299.6 301.8 305 306.6 308.9 310.9 311.8 312.8 313.5 315.3 315 315.8 316.8 318.2 323.2 330.6 334.4 331.6 327 318.6 311.7 303.9 296.6 291.3 286.5 282.2 276.8 271.8 253.8 253.8 254.8 259.2 268 277.1 292.5 305.5 316.6 326.6 341.4 351.5 351 344.4 338.2 331.6 330.5 326.7 323.2 318.3 313 311.8 306.4 295.3 294.1 293.8 297.8 301.5 303.7 308.4 314 326.8 336.1 346.1 351.7 350.9 348.8 346.7 345 342.8 339.7 336.9 335 333.4 332.5 331.9 332 332.6 332.6 332.5 333.2 336.5 339.5 342.4 344.2 344.9 345.3 346.2 346.6 347.8 349.1 350.4 349.9 347.9 342.9 345.1 345.2 345.5 344.2 346.4 346.8 349 351 351.7 351 349.8 347.9 345.2 342.4 339.5 336 333 331.5 330.1 326.7 324.6 323.5 321.7 322.5 323.3 324.2 325.2 324.9 324.5 323.4 321 318.3 315.7 311.6 307.2 301.6 294.1 292.3 290.9 289.8 286.4 279.7 282.5 287 286.7 284.5 284 286.3 285.4 286.2 284.7 282.4 279.9 284.5 286.4 284.8 283.5 280.7 277.3 276.1 275.9 274.6 272.4 274.5 273.4 273.2 272.4 273.9 275.5 275.7 274.1 272.4 272.4 274.7 279.5 279.9 277.1 272.4 275.4 287.3 290 298.4 303.3 308.6 309.1 307.2 307.1 306.8 306.4
408.1 404.9 401.8 396.2 388.1 380.7 373 363.9 354.4 344.5 334.5 328 323.4 318.6 312.3 303.7 304.7 307 310.1 312.5 318.6 324.9 326.5 326.6 327.9 326.4 327.4 329 330.5 332.2 334.9 338.5 340.8 342.3 337.9 330.7 323.9 315.8 309.3 302.1 294.7 289.5 284.5 279.6 274.6 269.4 254.1 254.1 253.3 257.2 259.4 264.8 277.4 287.4 304.5 318.2 328.3 331.3 330.6 334.2 334.9 331.1 327.9 322.4 317.2 313.3 309.1 306.5 301.5 292.4 296.3 296.5 300.3 303 305.4 310.6 315.6 327.3 334.8 344.1 349.1 349.1 348.1 347.8 344.7 342.2 340.5 337.8 335.8 333.9 332.6 332.7 332.8 332.7 332.5 332.6 334.3 338.5 342.1 345 347.8 348.7 348.7 348.8 349.1 349.4 349.8 349.4 347.9 344.8 347.4 348.1 348.5 348.9 349.3 349.8 350.2 351.4 353.3 353.7 352.5 351 349.2 346.4 343.5 340.7 338 335.2 332.4 330.9 329 329.2 328.3 324.7 322.9 320.6 321.8 321.5 321.6 320.8 319.9 318.8 317 314.8 310.9 305.9 301.2 295.3 289.8 288.1 286.5 284.4 279.1 278.1 280.9 280.3 277.2 275.9 275.5 276.1 275.3 274.5 274.5 278.3 282.1 282.5 280.5 277.7 274.6 273.7 273.7 274.1 273.7 277.5 283.5 286.6 287.4 283.3 282.8 283.8 281 278.5 275.4 272.4 272.4 274.4 274.9 272.4 272.4 285.7 294.6 301.3 311.4 312.5 314.4 314.3 311.4 308.7 307.4 307.1
402.3 398.1 393 385.6 377.8 370.5 361.8 352.7 343.2 336.2 328.6 323.2 317.6 307.9 308.9 311.5 313.9 316.9 321.5 330.5 337.1 341.6 343.2 339.9 338.6 337.9 341 343.9 348.5 351 351.1 351.8 351.2 344.4 337 329.7 321 312.8 306.4 300.6 294.2 287.8 282.7 277.7 272 266.8 254.8 255.3 255.5 253.9 258.6 260.2 264.7 273.9 284.8 295.9 308.2 316.4 324.5 326.5 328.6 327.2 322.7 317.3 312.9 308 303.8 298.4 291.4 300.4 297.7 299.9 303.9 306.9 308.1 308.6 315.4 324.6 334.1 341.5 347.8 348.3 348.1 347.9 346.4 344.4 341.3 338.3 335.9 334 332.8 332.8 333.5 335.6 336.6 336.7 338.1 341.9 345.8 349.1 352 352.8 351.9 349.6 349.9 350.3 348.5 347.2 346 348 350 350.7 350.5 350.9 351.3 351.8 353.3 353.7 355.7 356.1 354.5 352.9 350.8 348.7 345.8 343 340.2 338 335.9 334.8 333.9 331.8 330.6 329.4 326.5 325.5 322.7 318.6 314.8 315.9 310 307.5 304 299.7 298.6 295.4 294.6 293.6 288.4 285.9 284.2 282.2 280.6 278.9 279 277.4 277.1 276.1 275.7 276 275.7 275.1 274.2 275.5 278.6 277.8 276.1 274.7 274.2 273.5 273.3 275.8 283.5 291.5 295.5 297.6 297.1 295 292.4 289.5 285.3 281 276.5 275 272.4 272.4 272.4 274.7 285.4 296.3 303.2 313.7 317.2 318.8 319.4 317.1 313 308.7 308.2 308.2
392.1 388.7 380.7 377.9 369.7 358.3 349.7 342.3 334.3 325.8 320.1 315 313.5 316.1 317.7 319.1 321.8 326.8 339.3 344.6 348.8 351.5 352.7 350.1 348.8 351.6 358.3 363.1 368.3 367.2 364.9 361.5 355.2 346.1 336.8 326.7 319.7 311.7 305.3 299.5 293.6 287.2 280.9 274.8 269.7 264.8 262.1 255.6 255.9 255.7 254.5 257.8 260.3 267.3 274.7 285 297.7 307.3 315.4 317.9 320.8 319 314.9 310.5 306 289.3 287.5 292.5 300.9 305.1 300.6 303.3 306.8 309.4 311.7 310.6 318.6 329.1 335 342.2 346.7 348.5 349.8 350.1 348.4 346.2 342.3 338.8 336 334.2 333.6 335.4 340.5 343.2 344.5 343.9 343.4 345.1 349 352.8 356.1 356.7 355.1 351.9 350.2 348.4 346.6 346.7 348.6 350.6 352.5 353.8 353.5 353.1 353.4 354 355.3 356.8 358 358.1 356.5 354.5 352.1 350.3 348.2 345.5 343.4 341.6 339.5 338.4 336.7 334 331.4 329.8 328.8 328.6 325.3 322.7 321.5 321.3 320.7 317.6 314.7 311.5 308.7 302.6 297.8 293.5 289.4 286.6 284.1 281.9 280.2 278.7 278 277.2 276.9 276.3 276 275.9 275.9 275.7 274.2 273.6 273.1 274 274.1 273.9 273.7 273.9 276 284.6 293.8 300.4 302.8 304.3 305.2 301 299.3 294.2 289.5 285.3 280.1 274.5 272.4 272.4 279 291.1 301.7 309.2 315.4 322 323.6 323.9 323.3 317.6 313.4 309.2 309.4 312.6
379.5 374.7 375.6 366.6 358 348.3 339 332.1 325.8 320.7 314.8 315.8 317.7 320.2 323.8 326.3 331.5 341.8 349.9 355.3 358.2 358.9 358.6 358.1 359.8 365.3 371.5 376 380.1 376.5 372.9 366.5 356.9 346.1 334.7 324 317.3 310.3 304.2 298.3 292.4 287.3 282.1 279.8 277.5 271.4 266.2 263.6 258.9 255.7 256.2 256.6 255.6 261.4 269.1 280.5 291.5 301.7 305.9 309 308.9 309.8 308.5 302.5 284.9 297.5 302 304.5 305.5 302.6 304.6 307.1 308.9 311.3 312.8 313.5 320.1 330.1 338.4 344 348.4 351.2 351.4 352.3 351.2 347.7 343.7 340 336.8 336.1 341.8 345.1 348.6 351 352.3 350.6 348.3 349.1 352.7 356.6 360.2 358.6 356.7 352.4 350.2 347 347.3 348.9 350.7 353.2 355 356.5 356.6 356.2 355.9 356.1 357.3 358.7 359.2 359.3 358 355.9 353.5 351.6 349.6 348.4 346.6 344.6 342.5 340.8 338.3 335.6 333.7 331 330.6 330.6 328.8 326.4 324.9 324.7 322.7 319.1 315.1 312 306.1 301.1 296.3 292.5 289.2 286.6 284 281.5 280.2 278.7 277.5 277 276.7 276.5 276.1 275.8 275.5 275.5 274.5 274.9 275.2 274 274 274.1 274.6 273.7 285.2 295.4 301.5 306 310.8 314.1 312.8 307.2 303.5 299.4 294.9 288.4 282.5 272.5 272.4 278.3 290.3 305.9 313.6 320.4 325.3 328.2 328.8 327.9 324.5 317.9 313 311.1 312.4 318.4
373.9 364.6 364.1 354.9 347.4 338.9 331.2 326.5 321.2 317.9 313.5 318 321.1 324.3 328.7 335.3 345.4 354.6 360.6 363.7 365.1 366.3 367.6 367.5 371.8 378 383.1 387.3 386.6 382.4 376.5 368.6 357 344.2 331.5 323 315.9 308.7 303 297.1 291.9 287.9 285.1 283.1 279.9 276.9 275.6 273 271.1 261.9 256.7 256.7 256.9 257.4 263.4 271.2 279.2 289.2 297.6 300.1 300.2 300.7 297.5 285.6 293.7 304.3 307.1 306 305.5 306.8 307.2 309.2 310.6 313.7 317.6 316.8 326.4 335.2 340.2 345.5 347.8 349.4 353.6 355.4 352.5 348.7 345 341.9 341.9 341.1 349 350.9 355.3 357.9 357.7 355.9 352.7 350.7 356.3 359.1 359.1 358 355.5 351.2 348.4 347.1 348.8 350.6 352.8 355.5 357.5 359 359 358.4 357.9 357.2 358.4 359.5 359.2 359.6 359 357.2 354.9 352.8 350.7 349.6 348.5 347.1 344.5 341.7 338.8 336.1 334.6 334.2 333.9 333 331.3 329.7 328.8 327.4 323.6 319.7 315.6 309.5 303.6 299.5 294.7 291.5 288.4 285.7 283.2 281 279.5 278.4 277.4 277.8 280.7 280.3 280 279.5 277.6 279 279.4 278.3 274.7 275 274.7 274.4 274.4 283.5 300.9 305.7 310.9 319.1 322.7 321.6 318.2 313.1 310.1 304.5 298 290.5 282.8 274.6 277.5 286.7 304.5 315.5 316.2 319 330.4 331.4 326.8 325 321.6 317.9 315.2 316.6 318 325.2
367 360.1 353.9 347.1 338.6 333.3 325.4 322.4 318.5 317.1 317.5 320.5 323.5 328.3 335.5 346.7 358.4 366.1 368.8 370.6 372.4 374.4 376 378.1 384.1 389.8 392.3 393.8 392 386.3 379.8 369 355.2 341.1 327.5 319.2 311.3 305 300.9 296.6 292.5 288.5 285.4 281.1 278.8 276.6 278.2 278.6 275 269.8 258.8 256.7 256.8 257.4 260.9 269.5 274.5 279.7 287.5 292.8 290.5 287.9 274.4 292.6 304.1 309.4 310.2 306.5 308.3 314.3 310.8 312.4 315.2 319 322.7 322.3 330.7 335.9 340.6 345.5 346.7 354.4 358.5 359.5 355 351.6 348.1 345.6 346.3 348.9 352.8 355 357.8 358.1 357.4 356.3 354.5 351.7 351.1 352.3 353.8 354.3 353 350.2 349.4 348.6 349.9 351.4 353.4 356.6 359.1 359.5 359.4 359.2 358.3 357.5 357.9 358.9 359.1 359.8 358.1 356.1 354.8 352.8 350.7 350 349.9 347.7 343.6 341.3 338.9 337 336.6 336.2 335.9 335.2 334.1 332.3 330.5 328.4 323.5 318.6 314.6 308.5 302 297.7 293.7 290.7 287.6 284.9 282.7 280.4 279 278.4 282.9 284.7 284 284.6 284.7 284 282.6 284 283 280.4 275.9 274.7 274.5 274.4 280.1 293.2 306.5 316.7 327 331.1 332.1 328.3 322.9 319.5 314.4 305.7 298.7 291.3 282.1 277.2 281.9 297.1 304.4 314.2 312.4 323.1 327.4 323.8 326.4 323.5 320.9 320.8 319.2 319.9 321.6 327.1
362.3 356.1 350 344.5 337 332.1 327.9 321.7 319.3 318 319.8 322.4 326 332.6 343.5 358.5 368.1 375.6 377.9 379.4 380.5 383.1 384 387.2 393.2 398.2 396.9 394.6 391 385.8 376.3 364.6 350.9 338 325 313.8 306.8 300.9 297.4 294.4 290.8 286.7 282 276.8 276.1 276.7 277.8 278.2 275.6 271 265 259 258.1 257 261.7 268.5 272.4 275.5 274.2 277.3 273.1 274.7 293.3 306.9 314.2 318.2 318.4 317.6 317 316.1 315.5 317.7 319.5 323.7 324.8 326.2 331 335 340.6 348 351 361.3 364.5 364 358.6 354.2 351.2 350.6 353.6 356.5 359.6 359.3 358.6 357.8 356.6 356.3 354.1 350 349 348.2 346.9 347.9 347.1 347.5 348.1 348.9 349.9 351.2 354 357.2 359.3 359.6 359.5 358.8 358.3 357.8 357.4 357.3 356.7 356.3 355.1 353.9 353 352.5 350.6 349.2 348.6 346.2 342.8 340.5 339.1 338.6 338.6 338.2 337.8 337 334.9 332.8 329.9 325.9 321.2 316.7 312.3 307.5 301.3 296.6 292.8 289.7 286.3 283 281 279.7 278.8 283.5 285.6 287.2 287.9 288.8 289 288.2 288 288.1 285.2 282.2 280.1 275.8 275.4 279.1 291.9 303.4 313.7 329.1 335.7 339.6 334.4 333.4 328.9 321.5 312.8 305.6 298.6 291.2 283.7 283.2 288.1 297.2 304.4 310.8 314 322.8 323.2 326 325.4 327 325.6 322.3 320.9 322 326 330.9
364.8 356.1 349.3 342.2 337.9 332.8 326.8 321.4 318.3 319.6 322 324.7 329.4 340 356 371.3 380.5 383.8 386.8 386.5 387.5 390.2 392.8 395 399.3 400 396.9 389.5 385.3 378.5 367.8 356.4 343 331.1 318.6 310.7 304.6 298.4 294.9 291.8 288 283.5 278.9 273.4 273.5 276 277.2 277.1 275 271.8 266.2 260.2 257.2 259.2 260 261.2 266 267.6 274.2 278.2 281.8 294.5 311.3 319.3 324.3 326.4 326.3 321.3 320.1 319.2 319.7 321.5 324.8 327 326.8 328.4 330.9 336.4 344.5 355.3 357.5 362.8 368.3 366.8 360 357.2 356.3 357 361.9 364.7 364.9 363 360 357.9 356.4 353.6 351.2 349.8 348.9 347.7 346.4 345.3 346.2 347.7 348.5 349.3 350.4 350.9 352.1 354.9 357 358.4 357.5 358.3 357.7 357.2 356.4 355.5 354.6 354 352.4 352.3 352.3 351.6 351.1 348.6 346.8 344.5 342.4 341.4 340.4 339.8 340.2 340.3 339.7 338.2 335.6 332.5 329.5 324.9 320.1 315.2 310.5 306.1 300.7 296.1 291.7 288.3 284.5 281.2 280.6 280.3 282 286.7 288.9 290.7 290.9 291.5 292 292.1 291.6 292.4 291 287.7 281.8 278.3 278.7 290.8 301 310.3 327.4 338.6 342.9 338.8 339.1 333.2 325.9 318.2 311.5 304.4 298.1 293.1 290.4 289 288.1 296.6 305.2 306.8 316 322.3 323.9 325.7 329 328.1 324.5 320.8 320.6 321.8 325.7 329.6
365.1 358.1 349.7 343.4 336 329 325.6 320.6 319.7 322.2 324.7 327.6 337.6 350.8 368.4 381.6 387.7 391.8 394.2 389.7 391 389.3 392.9 395.9 398.8 395.5 387 379.5 376.4 367.8 353.9 341.5 330.3 321.5 312.1 304.4 300 297.2 292.1 288 284.5 281 277.1 273.9 273.2 275 276.6 275.1 272.7 263.4 262.7 260.3 258.6 259.5 262.2 264.4 272 279.6 284 289 303.9 314.1 321.4 328.2 329.9 330.6 326.4 324 323.2 322.9 322.9 323.9 325.4 326.7 327.6 329.1 331.5 342.5 351.8 358.4 363.9 369.3 370.9 368.7 363.1 359.6 357.7 362.3 367.9 369.7 367.6 364.5 361.6 359.5 357.7 353.1 351.4 350 349.1 348 347 346 346.3 348.1 349 349.8 349.9 350.5 350.2 350.6 352.4 354.3 354.4 355.3 356.2 356.3 355.5 354.5 353.5 352.6 352.3 352.3 352.3 352.2 351.7 350.4 347.1 345.4 344.1 342.9 341.7 341.1 341.5 341.8 341.4 339.3 335.9 332.3 328.9 324.6 319.8 314.9 309.9 304.8 299.6 295 290.5 287 283.1 280.8 284.4 285.1 287.3 289.5 292.2 294.2 294.4 294.5 294.7 294.8 295 296.1 295.1 288.8 283.5 282.2 289.5 299.4 307.2 323.9 335.9 339.9 342.7 341.5 337.6 329.3 321.9 316.2 310.1 303.3 298.2 297 294.2 291.4 288.9 297.4 307.3 306 315.2 319.2 325.1 329.2 328.9 325.7 321.4 317.5 318.3 318.2 320.3 324.9
370.6 359.8 349.7 339 331.5 325.4 322.8 321.3 322.5 325.3 327.9 333.8 345.5 362.1 377 390.5 397.5 400.2 398.3 391.9 385.5 378.2 379.8 389.3 391.6 386.3 375.8 365.7 359.7 348.1 336 325.4 316.7 309.8 303.5 297.5 294.2 291.6 288.1 284.6 281.1 277.6 274.1 272.9 273.3 275.1 270.9 267.8 264.5 264.2 270.6 258.5 259.2 260.8 263.1 271.8 278.4 286.4 291.8 299.8 314.3 322.6 331.9 333.6 333.9 330.6 325.1 324.8 325 325.2 324.8 325.6 327.4 327.6 331.4 331.2 342 353 357 360.6 368 374.7 375.3 370.9 364 359.1 360 365 369.9 371.1 369.2 366.2 363 360.1 357.8 354.4 351.7 351.2 350.1 349 347.9 347.6 348 348.4 349.5 350.3 349.7 348.3 347 345.4 348.7 350.2 351.6 352.5 353.4 354.4 355.2 354.1 353.1 352 352.1 352.3 352.4 353.6 353.4 352.5 350.4 349.4 347.6 345.7 344.3 343.2 343.3 342.6 342.5 339.5 335.8 332.2 328.2 323.9 319.3 314 308.8 303 297.8 293.3 289.2 285.6 282.8 286.2 288.9 289.3 291.4 294 295 297.7 298.4 299 298 297.8 298.3 299.3 297.3 292.1 286.2 293 296.1 301.8 318.4 329.7 337.5 339.9 341.1 339.8 332.8 325.2 319 313.8 307.6 302.5 300 299.7 296.4 292.7 291.7 299 302 307.5 313.3 319.7 328.3 327.8 325.9 321.2 315 308.2 307.1 312.1 317.8 319.3
368.5 356.5 346.8 337.4 330.2 324.4 323.4 323.4 325.4 327.7 332.8 341.7 354.2 370.1 386.3 398.4 405.2 404 398.4 388.3 377.8 367.3 366.3 376.5 376.9 366.7 355.1 344.2 333.7 328.8 322.3 314.3 307.6 302.1 297 293 289.9 287.4 284.1 281.3 277.7 274.1 271.9 271.4 272.5 269.7 266.4 269.5 274.4 274.2 274.3 261.5 260.1 262.1 266.9 280 288.4 290.6 296 315.5 329 336.6 338.4 338 333.8 328.3 326.3 325.8 327 326.6 325.4 325.4 327.3 328.6 332.5 340.5 350.9 358.3 361.2 368.5 372.7 376.2 375.5 370.5 365.3 361.4 364.4 370.6 377.1 376.2 370.2 365.4 363 359.8 357.9 355.8 352.6 352.3 351.2 350 348.9 349.2 349.4 349.6 348.8 348.5 347.2 345.6 338.8 341.3 344.6 347.3 348.8 349.7 351.1 353.6 355 355 354 352.3 351.9 352.3 353.2 355.1 355.8 355.6 354.8 353.9 352.9 351 349 346.9 346.2 344.1 342.1 339.4 336.3 331.7 327.1 322.5 317.7 312.8 307 301.1 296.1 292 287.9 283.4 281.7 290.4 294.1 298.9 301 302.2 301.7 301.9 302.1 302.2 301.6 301.3 303.1 303 300.2 295.1 291.3 294.1 298.4 310 322.6 333.2 335 338.9 341.8 336.7 327.9 321.2 316 311.7 308.5 305.5 303.8 300.8 297.4 294.4 292.9 299.3 302.9 306.6 312.8 322.6 323.1 320.6 318.1 309.1 305.6 299.2 303.2 309.3 313.3 311.9
362.9 354.1 345.4 337.9 330.6 325.6 324.8 326.7 328.8 331.6 339.4 350.2 361.6 379.6 394 404.7 405.6 404.5 395.1 385.1 373.7 362.1 355.3 352.7 347.4 339.4 329 322.9 319.2 312.7 308.8 304.4 300.5 296.4 291.9 289 285.7 283.3 280.9 278.8 274.2 276.8 274.6 271.2 269.7 274 278 279.3 279.1 277.8 277.4 269.4 258.9 263 274.4 283 287.7 290.4 300.2 316.6 328.5 336.3 339.8 336.9 329.6 324.6 327.2 330.1 329.1 325.6 324.3 325 327.1 331.3 339.2 344.8 351.1 357.3 366.9 373.7 378.4 377.6 377.3 374.1 369.6 366.6 369.6 376.8 379.5 375.2 368.6 364.8 363.3 360.6 358.8 356.8 354.7 353.2 352.8 351.3 349.4 349.5 349.4 347.7 346.4 344.5 342.5 339.8 338.4 338.4 338.5 343.6 346.2 347.8 350.2 352.7 354 353.8 353.6 352.5 351.7 352.3 354 356 359.3 359.4 360.2 359.5 358.3 356.3 353.6 351 349.1 346.3 343.5 340.1 335.7 331.1 326.3 320.6 315.8 310.2 303.6 298.2 293.7 289.5 285.2 282.9 293 299.9 306.4 308.9 311.3 310.4 309 306.1 306.9 307 305.4 306.7 308.9 304.4 302.9 300.7 300.6 299.6 305.4 316 323.3 333 337 342 338.5 331.2 323 318.5 314.2 313.1 311.6 309 305.9 300.9 298.5 296.8 294.2 299.8 304.4 307.8 314.2 315.5 315.4 311.8 305.9 301.6 294.9 291.6 297.2 306.6 308.9 306
362.4 355.7 347.3 336.9 330.6 327.2 328.4 330.1 332.2 336.3 346.6 357.5 370.3 387.7 398.1 404.4 399.9 399.9 392.2 380.5 368.9 356.6 346.3 339.1 331.9 324.6 318.9 311.9 307.5 302.9 300.1 297 294.7 291.1 287.1 284.5 281.8 279.1 278.3 281.6 281.5 279.8 277 277.2 278.8 280.7 281.4 282.1 282.9 282.8 280.9 276.7 266.4 262 269.4 278.7 287.3 297.7 309.2 323.7 331.8 337.6 338.2 331 323.6 324.1 325.9 321.8 322.8 322.3 324.8 327.5 331.6 336.7 346.5 350.3 354.8 361.5 369.6 375.9 378.8 379 380.1 376.1 370 370 374.4 376.7 376.3 371.4 367.1 364.4 363.5 361.3 360.4 360.1 358.5 357 353.6 351.8 349.8 349.4 347.6 345.8 343.9 341.3 338.8 338.4 338.4 338.4 338.4 338.4 343.9 346.9 349.4 351.6 351.8 351.6 351.3 350.8 350.7 351.3 353.8 357.7 360.1 360.8 363.7 365.4 363.6 360.3 357.5 354.9 351.8 348.3 343.9 339.5 335.2 330.7 324.6 318.9 313.9 307.4 300.8 295.9 291.5 287 283.5 295.7 304.4 310.7 314.6 319.3 319.5 317 315.5 311 312.5 311.8 311.6 313.2 310.1 308.2 307.7 311.7 309.6 310 319.3 324.9 327.3 335.1 342.5 343.1 332.6 327.7 321.4 317.3 315.3 313.7 310.5 306.8 304.6 301 298.5 296.1 295.3 303.4 305.4 309.5 312.1 308.8 307.2 301.4 294.9 290.6 285.7 283.3 294.5 302.5 302.4 301.7
357.9 352.2 345.5 337 331.9 330.9 332.4 333.8 336.2 341.9 353.8 366.8 379.8 391.8 399.2 401.2 397.6 395 386.4 373.9 360.3 348.1 338 328.6 323.6 317.1 311.1 304.9 298.9 296 293.2 290.5 288.6 285.9 282.4 287.6 286.8 282.8 281.4 280.6 280.9 281.2 281.7 281.9 282.7 284.2 285.6 286.6 287.4 286.5 283.1 279.1 275.8 261.5 265.4 281 294.3 306.6 319.4 331.2 334.4 334.1 327.5 322.7 319.8 321.7 320.5 319.4 319.8 326 330.5 330.9 335 342.3 350.7 354.4 355.9 361 370.1 375.8 378.8 379.5 380.3 374.3 368.4 372.2 374.4 375 373.6 368.9 364.7 364.1 363.7 365 364.9 363.9 360.7 357.1 353.6 351.8 349.9 348.4 346.7 344.5 342.8 339.5 338.4 338.4 338.4 338.4 338.4 338.4 342.9 346.9 349 349.6 349.2 348.8 348.2 348 348.4 349.9 353.1 356.4 360.7 360.3 363.1 365.9 364.6 361.4 359.4 356.7 354 349.9 345.4 340.5 335.6 329.8 323.1 316.7 311.2 304.6 298.6 293.2 287.7 284.3 294.6 306 314.2 322.1 325.6 328.7 327.4 323.1 320.9 318.6 316.6 317.9 317.5 315.6 313.5 309.2 316.7 317.5 318.2 324.3 328.4 334.8 335.5 338.3 341.5 341 334.8 329 321.6 316.8 314.8 312.5 309.3 306.1 303 301.2 298.4 294 295 299.9 302.4 301.2 300.9 299 296.7 290.9 285.2 279.9 277.4 277.9 287.2 293.5 298.3 298.5
358.8 351.3 343.4 336.8 332.7 334.4 335.9 337.4 341.5 348.4 358.7 371.7 384.8 395.8 400.3 396.7 392.7 385 373.8 362.6 349 337.9 327.9 321.4 316.1 311.2 305.9 300 294.7 291.3 287.4 286.1 285.7 290 290.1 289.2 289.6 286.9 284.2 284.4 284.7 285.2 285.3 286.2 288.4 290.3 292 293.1 293.9 290.4 286.2 281.9 278.4 260.6 262.7 274.6 294.5 308.1 322.6 331.3 328.2 321.7 314.6 313.5 314.6 317.1 317.3 318.9 324.5 332.4 334.1 333.9 339.3 350.1 355.3 356.2 358.9 362.4 368.2 372.2 374.4 378.8 376.5 372.2 368.4 371.1 373.9 374.1 370.6 365.9 364.7 367.2 368.1 368 366.9 363.2 359.7 356.7 353.6 351.2 349.1 347.4 345.9 343.7 341.5 338.4 338.4 338.4 338.4 338.4 338.4 339 343.5 346.8 348.7 346.8 346.4 345.7 344.8 345.2 345.5 345.7 348.1 352.1 354.5 355.9 358.5 361.3 361.6 360.2 359 357.3 354.6 351.3 347.1 342.3 335.9 328.6 320.9 313.1 307.4 301.7 296 290.4 285.5 286.3 303.4 316.5 324.8 331.9 334.4 334.3 332.2 331.4 326 324.6 324.2 322.2 319.4 318 316.1 318.4 323.5 325.4 328.8 335.2 338.6 342.2 344.3 348.7 347.3 343.8 336.8 328.9 323 318.8 314 311.3 308.6 305 301.4 298.9 296.1 292.6 290.4 293.1 292.9 291.9 297.3 294.8 288.2 283.9 279.4 275.4 271.6 274.9 282.1 286.3 294.8 296.3
355.7 349.4 341.2 336.8 335.5 337.5 339.4 342.1 348 355.3 364.5 376.5 388.6 393.1 392.7 386.2 380.1 372 360.6 347.1 337.6 328.3 320.6 315.3 310.5 307 302.5 296.9 292.3 289.1 288.7 288.7 289.8 292.5 291.6 290 289.5 289.4 287.8 288.1 288.5 289.1 289.3 290.6 293.8 295.6 298.9 299.6 298.6 294.3 289.7 285.8 281.2 268.3 262.1 270 291.2 305.3 317.5 324.7 317.3 305.3 303.9 304.4 306 316 319.9 323.9 334.4 338.5 341.4 342.5 350.5 355.4 358.3 358 357.9 362.5 364.6 370.7 372.1 370.4 373.5 368 368 370.6 374.2 371.6 367.5 366 365.6 366.7 365.6 364.5 362 359.1 356.7 354.6 352 350.2 348.2 346.6 344.9 342.9 340.1 338.4 339.3 340.2 340.9 341.6 341.7 342.8 344.7 347.7 347 344.4 343.2 342.1 341.9 342.2 342.5 342.6 342 344.1 346.5 348.6 351.9 354.9 356.8 357.6 357.2 356.4 354.6 352.5 348.4 342.8 334.5 326.2 318 310.8 304 298.8 293.1 290 285.7 290.6 309.2 320.5 332.7 336.9 340.6 340.2 339.7 338 331 328.4 326.8 323.8 322 320.6 318 325 331.3 338.1 344.2 346.9 349.5 351.6 353.1 353.5 350.1 345 336.4 327.1 322.6 319.9 314.4 310.2 304.2 302.2 297.8 296.3 294 291.1 285.6 287 290 291.2 289.7 285.2 281.8 278.9 276.8 273 270.7 273.2 277.8 284.6 290.1 293.9
353.9 347.3 341.9 337.5 338.8 341.4 343.4 347.1 352.7 360.1 369.2 378.4 385.8 386.6 382.5 376.1 368.4 356.9 343.3 334.8 327.2 319.8 315.2 311.3 306.5 303 300.4 294.8 290.3 290 290.5 292.1 293.7 294.6 293.4 292.2 291.9 292.3 292.4 292.7 293.9 294.3 296 297.9 299.4 301.2 304.5 304.8 302.5 298.9 294.9 290.8 280.6 274.8 262.1 264.9 285.2 297.6 309.8 311.8 297.7 294 295.7 297 311.4 322.8 327.6 330.8 339.3 344.3 348 353.2 356.2 359 361.2 360.7 359.7 358.3 359.4 363 364 364.9 365.9 367 370 371.8 371.5 369.8 368.3 366.4 364.7 362.7 362 361.1 358.9 355.4 352.5 351.4 350.6 348.9 347.6 346.4 344.8 343.5 341.3 339 340 340.8 344 344.7 344.8 345.2 346.8 347.6 343.7 341.2 339.7 338.7 339 338.6 338.1 337.6 336.1 335 336.8 338.6 342.3 347.7 350.2 353 354.8 354.8 353.1 350.6 346.9 340.5 333 324.4 315.8 307.3 300.6 295.7 291.5 289.2 287.2 293.1 313.5 327.2 335.3 342.1 346 345.8 345.9 341.2 333.6 330.9 327.9 326.1 324.6 323.1 322.9 333.5 343.3 352 354.2 356.6 357.4 359.9 357.9 356.7 351.7 343.8 332.2 325.1 325.7 318.7 311.9 309.4 304.4 300.8 295.1 290.1 289.7 286.2 284.8 282.5 282.6 281.7 282 281.1 278.7 275.5 272.2 270.2 269.7 270.6 274.9 280 284.7 286.2
352.1 346.4 340.7 339.6 342.3 345 347.7 351.3 356.6 363.7 372.1 377.3 379.7 376.7 371.4 364.3 354.5 343.3 331.4 325.5 320.4 315.2 310.3 306.5 303.6 300.6 297.8 292.8 291.3 292 294.2 296.2 297.9 298.3 296.7 295.5 297 298.4 298.6 299.6 300.8 303.2 305 306.9 305.7 305.5 309.2 307.8 305.3 301.1 297.8 294.6 287.2 278.7 270.5 262.5 275.6 285 293.8 293.6 285.8 287.8 290.1 295.3 308.3 323 332.4 340.8 349.6 354.6 356.9 360.1 362.7 364.1 363.9 361.6 358.7 357.4 357.2 358.6 360.8 363 365 367.4 369.8 370.9 371.7 371.2 368.9 365.7 362.9 361.4 359.7 358.6 355.3 352.5 350.7 349.1 348.1 347.6 346.2 345.5 344.4 343.2 342.3 340.2 341.2 345.4 346.6 347.1 347.8 347.5 346.2 344.6 340.8 337.9 335.5 335.2 334.1 333.6 333.1 332.2 331 328 326.1 330.2 336 339 344.5 347.3 349.5 350.6 349.5 347.4 344.4 338.5 331.7 324 314.8 304.9 297.6 292.2 291.1 289.2 287.6 296.6 317.7 329.5 339.5 346.8 349.9 352.2 352.7 342.8 335.8 333 330.2 327.7 325.9 324.2 330.8 339 350.3 356.8 359.3 361.5 363.9 362.3 361.2 355.9 346 334.6 326.7 325.7 323.1 314.4 312.9 306.7 302.5 296.5 290 286.3 284.5 282.4 283 282.3 279.9 279.1 276.8 278.4 275.4 272.7 270.9 270.6 270.4 268.5 270.7 272.8 277.3 284.9
354.5 347.8 341.7 343 345.7 348.4 350.6 355.1 360 366.2 368.9 373.5 371.6 366.4 359.1 351.6 344.7 338.6 326.5 322 316.8 311.8 306.9 303.7 300.8 298.1 294.9 292.4 294.1 296.5 298.9 301.1 301.5 301.9 302.8 302.7 303.7 305.7 306.2 306.6 308 312.3 313.9 313.9 312.1 309.5 309.5 307.4 305.1 301 296.7 291.4 286.6 279.2 272.9 264.6 263.1 273.1 277.4 278.9 279.3 281 285.3 293.4 308.9 324.9 336.6 347.8 356.7 365 366.5 372 371.3 367.3 364 361.3 358.6 356.6 355.5 356 357.4 359.7 362.3 362.8 367.6 371.2 372.3 371.5 368.9 362.7 360.7 360 358.4 356.7 353.9 350.9 349.1 347.3 345.7 345.1 344.6 343.6 342.7 341.7 340.5 342.8 347.6 348.6 349.2 349.2 349 347.4 343.9 340.5 337.5 334.4 332 331.6 331.2 328.9 328.3 325.3 319.8 319.6 318 319.6 324.6 328.1 335.2 341.6 343.1 344.1 344.4 343.5 340.2 334.7 328.2 321.2 311.3 301.9 292.9 291 292.2 289.4 288.6 295.1 313.7 328.3 340.9 349.6 355.4 356.4 350.3 343.8 338.4 335.6 332.9 329.6 328 326.5 336.7 345.5 352.8 358.6 364.1 365.6 365.9 364.1 359.7 350.4 336.2 326.9 326.2 323.4 314.5 314.5 309.4 304.3 297.1 292.8 287.6 284.5 283.3 282.1 282.4 283.9 283 282 278 274 272.7 271 271.6 270.9 268.9 266.1 266.5 270.1 274.2 282
354.4 348.9 346.8 347.5 348.9 350.9 353.8 356.8 362.2 368.1 369.1 368.2 363.7 359.4 349.7 343.8 336.9 331.3 323.5 318.2 313.4 308.6 304.4 301.5 299 295.2 294 296.6 298.9 301.9 304.4 307.1 307.3 310.1 308.9 312.2 314 314.2 315.1 315.9 316.7 320.7 320.5 319.5 317.7 314.3 311.3 308.3 303.4 299.3 294 288.2 283.2 278.4 272 262.4 263.2 269.2 269.9 271.1 275.3 278.7 282.5 298.2 314.7 328.2 339.2 350.3 360 369.7 371.8 374 373.4 368.8 363 360 357.2 354.5 353.1 352.5 353.2 355.1 356.8 357.2 362.8 368.2 366.8 365.6 364.5 359.9 358.9 358.6 357 355.1 352.4 349.8 347.4 345.6 343.8 342.6 342.3 341.4 340.3 341.7 342.7 344.2 346.4 348.5 348.9 347.8 345.2 342 338.3 335.4 333.5 330.4 328.8 327.3 327.7 325.9 324.5 331.2 328.5 319.5 316.8 315.9 316.6 316.5 321 328.5 331.9 334.8 336.8 337.7 333.4 329.8 324.4 317.9 306.6 297.9 292.2 294 291 289.9 293.4 298 311.7 327.7 345.5 355.6 359.4 357.6 353.3 345.8 340.9 338.5 335.8 332.3 331 329.5 337.1 349.2 356.7 362.1 366.4 366.1 364.2 360.9 353.3 337.9 324.7 323.5 324 314.8 316.3 309.7 304.6 300 295 288.3 286.1 284.5 284.2 283.9 284.9 284.5 282.1 277.7 275.5 272.1 271.3 270.1 269.1 267.2 266.9 263.8 262.3 266.4 272.2 278
354.3 351.2 351 350.8 351.3 352.9 356.1 359.4 362.4 363.6 364.7 363.6 359.2 354.3 345.9 339.6 331.6 324.4 319.6 315.4 310.1 305.5 301.9 299.3 296.8 293.9 298.6 301 303.4 306.4 309.9 312.6 315.7 317.4 319.9 322.4 322.3 321.7 322.4 323.3 324.9 325.9 325 324.2 322.1 316.6 311.9 306.6 301.2 295.4 289.5 283.5 278.9 275.2 266.9 264.3 262.6 265.2 265.8 269.9 270.5 272.9 286.7 301.1 314.4 329 343 354.7 364.2 372.3 374.5 374.7 370.5 366.6 362.9 358.7 355.6 352.9 350.9 349.5 349.3 349.8 349.1 352.1 354.1 358.3 363.7 362.5 361.2 358.6 357.5 357.2 355.6 353.4 350.6 347.5 345.1 343.6 342 341.1 341.5 341.9 343.5 345.1 343 338.7 341.6 342.7 343.8 341.9 336.1 335.4 332.9 330.9 329 327.1 325.6 327.6 330.2 333.5 335.7 336.5 332.3 326.4 321.8 319.3 322.4 324.8 321 313 317.5 321.2 327.9 328.3 325.3 323.9 319.2 309.4 298.1 293.9 294 293.7 291.4 292.3 296.6 300.4 312.6 331 349.2 360.3 365.2 362.5 355.8 348.4 344.3 341.7 338.5 335.1 333.6 332.2 339.9 351.3 358.1 362.2 362.7 361.3 361.9 352.4 336.2 328.9 323.3 322.2 315.9 313.7 307.7 305.9 301.7 294.7 290 289.5 289.9 289.8 288.5 287.9 284.9 282.9 279.9 276.7 273.1 272.1 271.8 272.3 271.5 270.4 268.6 264.9 259.9 264.2 268.2 273.3
357.8 355.6 355.4 354.9 353.5 354.3 355.9 357.9 358.1 359.2 360.2 358.7 354.4 350 343.4 336.1 327.3 320.7 316.3 311 306.2 302.7 299.7 297.1 295.1 299.4 302.3 306 308.2 311.9 317 320.5 325.3 327 328.4 329.6 329.7 328.7 328.8 329.8 329 328 327.3 326.1 323 316.4 311.4 305.3 298.5 290.5 283.9 278.7 275.5 267.2 264.7 264 263.9 264.4 265.3 267.6 269.3 274.3 285.2 302.2 315.7 329.1 342.1 353.9 362.8 372.4 373.5 371.1 368.6 365.9 361.4 357.3 354 351.2 349.7 348.3 348.1 348.1 348.1 348.1 349.7 355.6 359.6 358.9 358 357.7 356.5 355.8 353.4 350.4 347.3 344.9 343.2 342.4 343.2 343.8 344.4 346.1 347.1 347.4 346.8 344.6 336.2 335.2 335.2 333.9 333.5 332.4 330.4 328.6 325.1 326.8 330.1 332.9 334.6 336.3 339.4 340 336.7 331 326.2 321.7 328 329.3 328.1 324.9 314.9 309.9 311.7 315.6 316.8 312.7 306.4 298.8 297.7 295.3 294.5 293.9 292.1 296.3 299.7 303.7 319.6 339.3 356 364.5 366.8 363.7 357.7 352 347.1 344.2 341 337.9 335.9 334.7 343.7 351.4 356.1 357.2 358.7 357.9 347.4 339.3 329.3 324.2 319.9 316.1 311.1 306.3 301.8 301.4 296.5 293.7 293.4 293.7 293.8 294.1 291.5 287 283.4 280.9 278.9 275 274.8 275.6 275.2 276.2 275.5 274.1 271.9 267.3 260.3 256.8 259 266.3
363.3 360.7 358 356.8 354.8 355 355 355.1 354.5 355 355 353.3 349.7 345.1 339.5 331.4 322.4 316.8 311.7 305.9 302.9 300.9 298.6 297.7 302.6 306.7 311.5 314.8 319 323.4 328.7 333.8 336.2 337.3 337 335.6 334.8 335.5 335.2 335.4 333.1 330 327.3 324.7 320.6 313.4 306.2 299 292.6 285 277.7 275.8 267 265 264.7 264.3 266.8 267.6 268.1 267.5 273 275.2 290.9 304.3 317.1 334.6 347.4 356.6 365.2 371.3 371.6 369.9 367.7 362.8 359.1 356.4 353.1 350 349 348.3 348.1 348.1 348.1 348.1 348.1 351.8 354.9 355 354.4 355 354.9 352.9 349.9 347.4 345.7 343.8 342.8 343.7 344.6 345.4 346.6 348.4 349.4 349.6 348.1 344.3 341.1 338.6 335.6 332.8 330.9 329.8 328.4 326.6 326.1 329.3 332.5 335.2 336.8 339.6 342.6 343.4 340.6 337 331.9 326.7 330.6 333.9 334.5 332.4 327.8 321.7 318.3 308.8 306.3 302.2 300.9 303.8 300.1 296.8 294.4 292.7 292.7 297.3 301.2 306.9 326.3 345.2 359 366.1 366.4 362.8 358.7 355.1 350.9 346.1 342.1 339.1 337.7 338.4 344.6 350 356.8 357.6 352.6 348.8 343.7 330.9 322.9 319.5 317.1 313.1 310.4 306.2 302.5 298.4 296.3 296.5 297.4 297.4 295.6 292.4 288.7 286.1 283 280.1 278.5 277.2 277 277.1 277.6 278.4 278.1 276.7 274.4 269.8 262.3 256.5 253.4 259.8
373.5 368.7 363.1 358.4 356.1 353.8 352.5 352.4 352 350.7 350 348 344.6 339.9 333.2 325.6 317.5 310.6 304.2 303.5 301.4 299.8 300.4 303.9 309.4 315.2 320 326.8 331.6 337.4 342.4 344.6 345.9 345.3 344.5 341.2 339.2 338.6 339.1 338.2 334.7 330.4 325.7 319.2 312.7 306.1 299.5 293.2 286.5 278.3 271.7 267.8 265.9 264.8 267.7 272.9 272.7 271.2 271.8 272.3 280.6 290.6 300.4 312 329.3 342 352.5 361.8 368.3 369.6 369.3 366.5 364.4 362 359.9 356.6 353.2 350.1 349.3 348.6 348.1 348.1 348.1 348.1 348.1 348.1 348.1 348.1 350.4 352.6 352.3 349.5 348.1 345.8 344.3 343.2 343.7 344.3 345.2 346.1 347.4 349.2 349.4 349.5 348 343.4 341.1 339.6 337.2 334.6 332.3 330 327.7 329.3 330.2 332.1 335.2 337.8 339.7 342.5 345.8 347.1 346.1 343.1 337.9 333.4 331.8 335.7 337 337 334 329.9 325 320.9 318.5 315.8 311.4 307.1 302.3 298 294.8 293.4 294.4 298.6 302.7 312 329.8 345.7 356.6 362.7 361.1 362.5 361.3 359.6 353.1 347.4 342.5 340.3 339.1 339.6 345.3 350.5 354.9 352.9 355.5 345.2 333.2 325.1 320.7 319.6 315.6 312.9 311.6 306.2 301.5 299.6 299.9 300.2 299.2 296.3 293.5 290.7 288.5 285.3 283.5 281.2 278.9 277.1 278.1 278.9 279.7 280.4 279.2 274.9 271.7 269.1 263.8 256.9 251.1 256.9
384 376.3 366.9 360.5 356.2 352.3 350.8 351.1 352.1 350.5 347.4 341.4 337.3 332.9 329.7 324.1 315.5 307.8 305.3 302.9 300.6 300.4 308.4 313.6 318.5 324.8 328.4 335.1 343.6 349.7 351.1 352 352 350.7 349.5 346.7 344 342.1 339.3 336.9 332.9 327.1 321.1 314.3 306.8 300.3 293.8 287 280 271 265.5 265.4 265.5 266 272.7 275.6 276 275 276.6 279.5 286.8 299.8 309.6 326.3 339.1 350.2 363.3 369.3 372.8 372.6 369.7 367 365.4 363.1 360 356.7 353.4 350.8 350.8 349.6 348.1 348.1 348.1 348.1 348.1 348.1 348.1 348.1 350.4 350.2 349.3 348 346.6 344.3 342.8 343.7 343.6 344.5 345.4 346.4 347.1 348.7 348.9 346.8 345.2 341.8 341 339.5 337.4 334.5 332.2 330 328.4 331.4 333.1 334.7 337.5 340.2 342.8 345.2 348.4 351.1 350.3 347.5 343.4 340.9 338.2 338.7 339.3 339.2 338.2 333.7 329.4 325.3 321.3 317.7 312.7 307.6 302.5 297.9 295 293.8 295.8 300 304.7 314.5 330.3 344.5 352.6 356.4 362.9 364.8 363.4 359 353.2 346.2 342.8 341.7 339.9 341.1 345.3 349.2 349.6 352.3 345.2 332.7 326.8 323.2 319.4 316.9 314.8 315 311.6 307.7 304.6 301.8 299.7 298 296.4 294.6 292.4 289.4 287.4 285.3 282.5 280 277.3 275.3 277.1 277.5 278.6 279.6 275.8 271.2 268.2 266.4 262.7 254.1 248.5 254.8
392.6 380.6 369.1 361.3 355.6 352.4 350.5 351.3 352 350 346.1 342 339.4 336.4 331.1 323.4 316.1 309.6 306.4 304.5 306 311.1 318 324.3 330.9 334.9 338.1 344.9 354.6 357.4 356.6 356.4 356.3 356.2 353.4 348.7 346.2 343.2 338.8 334.1 329.4 322.8 315.6 307.9 301.1 295.1 290 284.4 276.1 268.7 267.3 266.4 266.5 266.7 271 274.8 276.1 280.1 281.9 285.7 292.9 307.8 322.7 337 348 359.6 367.7 375.2 378.5 375 370.4 365.6 364.2 362.2 360 356.7 354.3 353.2 351.7 349.8 348.4 348.1 348.1 348.1 348.1 348.1 348.3 348.4 348.7 349.2 348 346.6 346.4 346.8 347.2 347.3 346.6 345.8 345.7 346.6 344.9 344 343.5 341.7 340.1 339.6 338.4 338.3 337.4 334.5 331.6 330 331.7 334.6 336.2 337.9 339.7 342.4 345.6 347.9 351.1 354.8 354.4 352 348 344.1 341.9 341 340.2 339.3 336.3 332.4 329.5 325.2 320.2 316.1 311.5 307.4 303.1 298 294.9 294.1 296.7 301.3 306.2 316 330 341.8 349 356.3 360.8 361.6 361.2 354.8 348.7 342.3 339.9 339.5 338.8 339.5 344.4 345.1 347.7 344.4 333.6 323.2 321.7 320 321.1 319 320.7 316.5 312.9 309.5 304.7 300.1 296.4 295.5 294 292.2 290.9 288.9 287 284 279.9 277.4 275 273.7 274.3 274.1 274.2 273.5 272.5 267.8 265.8 263.7 260.9 252.5 246.7 251.2
396.2 383 371.3 362.7 356.5 353.8 352.5 352.8 353.5 350.1 346.9 346.3 343.6 338.9 332.6 324.6 316.2 311.1 308 308.3 313.9 319.1 326.3 333.7 336.8 338.1 342.8 353.8 359.4 361.5 361.3 361.3 361.3 361.1 356.9 351.3 346.4 342 337.6 331.2 323.6 316.8 308.4 301.9 296.9 291.7 287.3 282.2 274.7 268.9 266.6 267 267.3 267.6 270.3 275.4 280.1 285.4 289.6 299.9 307.2 316.6 330.7 343.7 354.1 363.5 374 379.9 379.8 374.1 369.1 363.9 362.6 361 359 355.9 353.8 353 351.3 349.5 348.8 348.5 348.2 348.1 348.1 349.7 351.2 350.8 350.2 349 349.6 350.2 351.3 351.7 351 349.7 349.1 348.6 347.6 345.2 342.3 339.9 338.6 336.6 336 336.2 335.9 336 335.2 334.1 333.9 335.1 336.5 337.7 339.3 341 342.7 344.7 347.7 350.9 354 358.3 357.8 355 351.1 347.3 343.7 341.3 338.8 335.8 332.8 329.6 325.7 322 318.4 314.4 309.8 304.9 300.7 296.7 295.3 294.9 297.6 302.1 307.1 319.7 330 339.4 349.7 355.3 359.1 358.6 354.8 350.4 344.8 338.3 337.7 337.2 336 336.8 339.3 342.7 341.3 335.6 324 321.7 321.2 324.8 323.2 325.3 323.1 318.3 314.4 308 301.5 298.2 294.7 294.7 294.2 292.8 291.2 289 286.1 282.7 278.2 274.2 272.5 271.9 271.2 271.6 272.1 269.3 266.8 264.6 263.7 260.8 258.6 252.5 241.8 244.3
395.9 381.9 370.8 364.8 358.6 356.5 355.9 354.9 354.4 350.4 348.9 347.1 343.8 338 331.9 324.7 316.8 312.9 310.6 315.2 320.9 326.7 329.6 331.7 335.4 338.4 344.6 353 361 362.1 362.6 365.4 366 360.6 357.2 351.2 345.2 339.4 332.1 324.5 316.2 308.9 301.9 297.4 294.1 289.9 285.4 281.2 274.5 270 267 274.3 267.3 268.9 272.9 278.2 286.4 296.4 304.8 311 316.3 323.1 332.7 345 357 367 374.9 377 376.3 372.1 367.3 363.1 361 359.8 357.7 355.5 353.2 352.7 351.3 350 349.5 349.3 350 349.5 351.2 352.8 352.7 351.8 351.4 351.2 352.7 354.3 355.7 354.8 353.3 351.7 350.5 349.3 347.2 344.6 341.3 338.5 335.9 335 334.6 334.7 334.9 334.1 336.6 338.7 338.4 339.5 340.6 341.2 342.4 344.1 345.9 347.6 349.7 353 356.5 359.5 358.6 355.6 351.7 348.5 344.4 340.8 336.6 332.6 329.6 326.3 322.7 320 316.9 312.6 308.1 302.7 299 295.8 295.7 296.2 298.4 303.3 310.3 321.3 331.4 341.7 351.5 354.6 357.3 356.8 351.6 345.9 340.4 335.2 333.5 332.1 329.5 330.3 334.6 336 331.3 325.1 323.2 322.5 324.7 327.3 329.6 327.4 320.9 314.9 310 304.4 299.2 294.7 293.2 293.7 292.4 292 289.5 287.6 283.5 277.6 273 271.9 270.1 269.3 268.9 269.8 269.4 266.6 263.7 262.4 261.1 257.5 255.7 252.1 245.8 237.7
391.4 377.8 368.1 363.8 360.7 359.4 358.9 357.8 355.6 352.5 351.1 344.8 341.6 337.8 330.7 325.4 319.3 317.4 317.7 322.9 326.5 327.2 328.5 329.8 333.9 337.4 342.2 346.8 350.5 355 362.7 362.5 360.6 357.8 353.9 348.8 342.8 335.2 326.3 317.2 308.3 299 295.7 293.2 291 287.1 282.2 277.3 271.2 267.6 273.4 277.8 280.1 279.7 277.5 286.6 298.2 307.8 314.5 319.8 322.6 327.1 335.7 343.2 349.7 355.2 365.8 370.7 370.6 368.8 366.9 362.4 360.5 358.3 355.8 354.2 353 352.3 352.1 351 351.3 351.5 352.2 352.3 352.7 353.3 353.6 352.7 352.3 352.9 356.3 358.1 357.8 356.7 355.2 353.2 351.2 349.1 346.5 343.8 340.4 336.6 335.2 334.6 334.5 336.7 337.1 336.9 339.3 341.7 342.8 343.5 344.2 344.8 344.8 346.2 347.9 349.6 350.1 352.1 355.1 356.6 355.4 352.6 349.2 345.6 342.2 338.5 334.7 330.8 326.9 323.3 320.6 318 315.3 311 306.5 302 298.1 296.2 297.9 299.2 300.3 304.7 312.3 321.9 333.3 341.8 346.3 350.5 353.1 353 348.6 343.4 336.8 331.6 325.7 323.8 321.1 324.7 326.1 324.8 321.6 319.1 320.3 323.1 326.2 329.5 327.9 321.3 318.1 313.4 308.1 302 296.7 293 288.5 288.3 287.8 287.2 285.5 280.9 276.7 272.7 270.5 270 267.5 265.3 265.5 266.3 266.4 263.5 261.1 259.8 257.5 254.5 252.6 248.3 242.7 239.1
383.5 371.2 365.4 362.6 360.5 359.5 360.4 359.4 357.5 353.8 348.8 341.2 338.1 333.9 329.4 324.8 320.5 318.2 318.3 321.3 325 325.4 326.2 327.6 331.3 332.7 335.3 336.6 340.8 348.4 355.5 354.8 355.3 352.5 348 342.8 335.6 327 317.8 305.6 296.4 291.8 291 288.7 286.2 283.9 278.7 272.4 268.5 273.6 280.1 279.8 284.7 285.9 281.1 293.5 303.7 313.8 319.4 323.3 326.2 328 333.6 335.5 339 344.8 351.6 357 362.8 365.7 365.2 362 359.9 356.3 353.4 353.2 352.3 353.5 352.6 351.7 353.3 353.9 354.4 354.7 354.6 354.7 355.1 354 355.9 353.4 361 360.6 359.1 357.7 354.7 351.7 349.7 348.6 346 343.2 338.5 335.3 335.7 334.6 335.3 337.2 339 339.7 341.6 344.7 346.8 347.9 347.3 347 347.6 347.8 349.2 349.8 349.9 350.5 352.1 352.2 350.9 348.4 345.5 341.9 337.7 334.8 331.1 327.3 323.4 321 318.5 315.9 313.3 309.6 305.7 301.4 300 296.6 301 302.8 304 306.5 311.7 320.3 329.4 333.1 341.4 347.7 350.2 346.4 345 340.3 333.1 325.7 319.7 314.1 313.3 315.8 315.3 313.7 313.1 314.8 317.4 323 326.9 325.9 321.1 318.5 313.9 310.2 305.1 299.5 294 288.1 283.8 282.4 281.3 281.2 279.1 276.4 272 270.6 269.3 268.2 264 262.9 261.2 260.9 260.6 260 258.6 257.2 254.8 252.3 250.5 248 241.4 237.9
373.8 366.9 361.6 359.9 359.1 359.9 360.7 360.8 357.5 352.7 346.5 338.9 333.7 330 326.6 323.5 320 317.8 318.2 321.2 321.3 319.9 319.1 318.7 318.9 318.5 320.2 323.3 325.5 331.3 337 344.4 348.4 344.8 341.2 334.2 325.2 316.8 305.4 294.3 287.9 286.1 285.5 283.2 280.8 276.7 273.1 267.8 272.3 277.1 284 286.9 290 291.6 290.3 294.5 305.2 312 319.3 324.4 326.8 325.8 327.6 329.7 332.9 336 339.1 348.6 352.1 356.8 360.6 359.3 356 352.9 351.1 352.2 352.3 353.4 353.2 353.9 355.5 356.3 356.9 357.5 357.3 357.1 356.9 357.6 357.8 360.5 364.4 362.5 360.3 357.5 354.1 350.9 348.2 347.4 344.2 340.1 335.6 335.2 334.9 334.3 336.8 338.9 341 342.2 345.6 348.8 350.7 349.9 349.2 348.9 349.5 348.9 348.8 349.1 348.3 348.1 347.5 347.5 346.6 343.9 341.7 338.1 331.4 328.2 326.3 323.7 319.9 318.4 316.1 313.6 311.1 308.6 304.4 299.8 297.9 300.5 302.8 305.9 307.9 309.1 310.1 315.1 322 328.3 336.7 342.5 344.4 342.9 340.6 333.9 326 318.1 313.7 306.8 305.6 304.5 303.1 302.7 304.9 309.3 315.8 319 320 319 316.6 315.2 311.7 307.2 301.5 295.4 288.7 283.5 278.9 277.1 275 275.6 273.7 271.2 269.1 269.5 268.1 264.9 260.7 257.4 258.2 257.1 256.7 256.5 255.7 254.5 253.3 250.2 248.4 245.7 241.7 239.8
366.5 360.2 357.4 357.6 359.5 360.3 362 361.9 356.6 350.6 342.7 334.4 330.1 326.4 323.8 321.1 317.6 314.3 316.1 315.5 314.8 312.6 309.7 307.4 304.6 304.2 305.2 307 308.9 311.5 320.5 330.9 335.5 334.3 331.5 323.9 314.4 303.8 292.8 284.8 282 281.3 281.3 279.2 274.6 268.9 268.9 272.9 280.1 285.7 289.5 292.7 294.9 295.2 297 293.9 303.7 311.6 315.9 318.5 320.3 320.5 320.2 324.6 328.2 330.3 333.8 340.8 346.5 352.2 355.3 353.4 349.7 348 352.3 354 353.7 354 355.6 356.9 357.2 357.9 358.6 359.1 358.1 356.8 356.6 357.5 359.1 361.5 361.3 359.2 356.7 354.5 352.4 349.5 344.8 343.3 340.3 335.9 335.9 335.1 334.3 336.1 338.5 341.2 343.9 346.7 349.9 352.5 352.8 351.7 350.8 349.8 349.1 348.6 348.4 347 345.8 344.7 343.7 343.4 342 339.2 335.8 332.3 326.4 322.3 320.4 318.5 317.2 315.7 313.7 311.3 309.5 306.9 303.3 299.5 302.4 303.2 306.2 309.4 310.9 312.3 313.8 315.4 320.1 323.6 329.5 333.5 336.8 336.7 331 324.7 314.9 310.9 306.6 301.9 299.7 297.6 296.2 294.8 297.9 304 311.5 314.1 314.8 314.7 314.3 312.5 307.4 302.5 296.6 289.9 282.8 276.9 272.5 269.6 268.1 268.1 265.5 266.5 267.6 266.9 264.1 261 256.4 252.6 255.3 254.3 254.8 253.2 252.6 251.5 249.7 245.2 244 242.3 240.1 240.5
358.2 354.7 353.3 354.1 355.4 357.9 360.3 360.3 350.7 342.6 334.5 325.5 325.2 323.4 320.5 317.6 314.2 310.9 309.6 309.6 308.6 306.7 303.3 298.8 294.6 293 293.4 295.6 299.6 301.8 306.4 317.2 324.8 322.6 321.2 311.7 299.9 290.4 281.6 278.9 277.6 277 271.2 274.7 271.3 269.6 274.8 286.2 293.2 296.3 298.2 299.6 299.5 300.5 302.8 303.3 300.2 307.2 315.4 316 315.9 313.8 314.3 316.6 321.1 324.5 329.4 335.2 340.2 342.5 343.8 344.2 347.1 353.2 357.9 361 361.3 359.9 358.3 358.7 358.5 358.4 358.7 359 356.9 355.3 356.2 356.5 356.8 356.6 354.6 352.5 349.9 348.1 348.2 346.4 341.9 338.9 336.1 335.8 335.7 334.8 335.8 338.3 341.7 343.7 345.8 348.2 352.5 354.5 353.3 351.8 350.9 349.8 348.5 346.5 344.6 343.4 341.9 340.5 340 338.9 336.5 333.9 329.7 326.2 321.7 318.9 316.3 314.5 313.8 312.8 311.5 310 307.8 304.8 301 307.8 310 310.4 311.4 313.7 315.3 316.3 317.7 318.8 320.9 323.1 327.6 329.3 332.3 328.5 322.2 314.7 308.9 302.4 299 295.1 293.8 292.9 290 289.2 290.1 298.5 307.8 310.9 312.7 311.8 310.1 306.3 300.7 293.9 290.3 283.8 276.9 270.9 265.2 259.8 260.9 259.4 260.6 262.4 263.7 262.2 258 255.8 252.8 247.4 248 249.2 251.5 249.6 252 251.8 248 244.9 242.7 241.6 242.6 241.8
353.4 351.7 349.9 350.2 351.4 350.7 349.7 345.1 338 329.6 323.5 318.1 319.4 319.3 316.6 313.2 309.8 305.3 303.2 303.5 302.5 300.4 297.2 295 298.6 300.3 298.4 292.1 287.4 289.6 294.1 300.4 304 303.4 301.2 295.5 286.3 279.9 275.7 273 272.2 271.8 270.8 270.6 270.9 278.7 287.4 298.8 300.9 303.9 304.1 303.6 305.1 305 306.9 308.3 310 309.2 307.4 309.3 308.9 309 310 312 314.2 317.8 321.7 327.2 333.6 337.8 345.3 349.3 354.3 358.6 361.5 363.5 362.6 362.2 359.9 359.5 357.9 357.7 359 358.7 355.4 353.6 355 351.9 348.9 351.2 346.4 343.1 343.4 342.2 342.5 341.3 338.2 335.9 336 336 335.9 335.9 337.6 340.3 343.9 347.2 348.4 350.2 354.9 355.3 353.8 352 350 347.4 344.5 342.6 340.9 339.5 338 336.5 335.5 333.4 331 328.6 324.3 321.8 319.4 316.4 313.6 311.7 310.3 309.9 309.2 307.1 302.3 310.2 314.2 317.4 317.1 316.1 316 318.1 319.3 320.2 321.2 321.7 322.3 324.5 328.3 327.7 327.8 324.7 317.6 310.9 303.7 297.8 295 292.3 287.4 285.4 283.6 283 284.3 291.9 298.8 305.5 305.9 304.3 301.1 297.9 292 286.1 284.4 277.7 271.5 263.5 257.3 253.6 252.6 253.3 253.3 255.5 255.4 255.2 255.3 254 250.3 241.2 241.7 243.2 248.2 254.8 256 253.7 251.5 248.8 245.1 244.4 243.7 240.6
351.6 349.6 347.3 346.5 346.5 343.8 340.5 333.6 326.4 319.6 316.4 313.1 314.8 313.9 309.7 308.1 304 300.9 299.5 299 296.7 296.2 300.3 302 304.9 306.5 306 303.6 297.7 287.5 285.1 284.8 287.5 287.2 283.8 280.8 276.2 274.4 273.7 273.1 272.2 271.7 270.8 271 276.3 289.5 298.3 300.8 308.4 308.7 309.5 310.6 310 311.1 311.7 313.6 316.3 315.7 311.4 310.3 310.2 310.1 310.5 311.3 312.9 316.1 321.7 330.1 338.1 344.7 351.1 356.7 360.8 363 366 367.3 367.2 364.8 361.7 358.3 353.4 349.8 355.1 353.7 350 349.4 348.8 344.1 340.3 338 336.8 337.2 339.7 338.6 337.4 336.6 336.4 336.4 336.4 336.5 336.2 336 338.9 343.1 346.6 349.9 352.2 354.6 356.2 355.3 352.9 349.9 346.4 343.3 340.6 338.5 337.2 335.7 334.2 332.7 331 328.8 326.5 324.6 321.5 319 317.7 315.1 312.2 311 309.8 309 306.5 306.2 311.2 320.2 324.1 324.8 323.5 322.1 321.5 322.2 322.3 323.9 325.3 325.9 325.3 323.6 324.2 324 322.4 318.4 312 307.5 301.4 296.2 292.8 287.4 281.1 280.8 278.7 276.9 277.7 285.4 292.8 296 295.2 293.2 289.3 283.8 281.4 280.4 277.6 272.1 264.8 256.3 250.4 247.7 247.3 246.7 245.6 246.7 246.4 251.5 253.4 249.8 242.1 234.5 237.7 242.6 253.1 258.4 255.4 254.9 255.5 252.3 247.4 246.7 243.3 240.1
348.7 346.8 344.8 343.6 341.5 338.1 333.7 327.3 321.1 314.3 309.7 307.9 308 307.6 303.8 302.1 300.6 300.2 296.9 296.8 298.8 301.6 305 307.8 311.9 314.3 314.9 312.7 306.9 298.7 290.9 284.6 281.1 278.9 277.7 276.7 275.3 273.9 273.9 272.9 272 271.7 271.5 271.8 291.1 299.3 303.7 308.7 312.3 315.2 316.9 318.1 316.7 318.1 319.3 320.3 322.9 320.2 317.2 314.3 313.2 312.3 312.7 312.9 317.3 324.9 330.6 337.6 345.8 351.3 356.1 362.5 365.2 367.4 369.6 370.7 368.4 365 360.8 356.1 350.9 348.6 346 345.3 343.8 343.9 342.1 338.1 336.8 336.3 335.6 335.4 337.6 338.1 336.6 336.4 337.5 337.1 336.8 336.9 336.5 337.1 341.6 346.1 349.4 352.5 355 355.9 355.9 353.7 349.3 344.8 341.4 337.3 335.8 334.3 333.7 332 330.5 328.8 326.7 324.9 323 321.1 319.4 317.1 315 313.3 311.7 312.8 314.3 315.3 315.5 314.2 321.6 329.5 331.5 330.8 329.2 327.4 326.4 325.6 326.3 327.2 328.4 328.7 327.1 323.2 320 319.8 319.4 313.4 308.2 304.8 300.1 295.3 290.2 284.1 276.3 275.7 271.9 271.5 271.7 277 278.9 281.1 280.4 281.8 275.4 274 273.3 273.2 268.6 263.1 253.8 246.1 243.4 243.4 242.9 240.6 237.2 241 243.1 248.2 248.5 241.5 234.2 231 233.8 243.4 251.5 254.7 259.7 260.3 257.4 253.7 249.3 248.3 246.4 240.3
345.2 343.3 341.6 339.6 336.8 334.4 329.2 323.4 317.6 310.4 306.7 305.3 304.2 303.2 301.9 300.3 299.5 299.1 298.6 300.7 303.4 306.2 313.1 317.3 320.8 323.1 324.1 322.1 316.9 308.3 299.4 292.1 286.7 281.6 277 276.2 275.4 274.9 274.5 273.9 272.9 272.6 272.4 283.3 300.2 311.4 315.3 319.7 325.1 327.4 327.6 326.9 325.2 323.9 324.8 326.3 328.2 324.4 321.8 319 319 317.8 317.4 319.7 328.4 334.7 343.7 346.6 352.3 357.4 362.5 366.8 370.2 371.8 371.3 370.7 366.1 362 359.4 356.5 354.1 351.8 348.5 345.3 342.1 339.6 338.5 337.9 337.3 336.7 336.3 336.3 337.6 339.1 338.8 339.2 339.9 339.6 338.5 338.3 339.6 341 344.2 347.9 351.4 354.7 355.4 353.5 352.4 348.7 343.4 339.8 335.9 332 330.4 330 329.7 328.5 326.8 325.3 323.5 321.9 319.8 317.9 316.8 315.9 312.9 314.3 315.4 316 317.4 318.6 319.8 322.8 328.5 334.4 336 335.4 334 331.5 329.4 328.5 328.9 329.6 329.2 328.3 327.2 323.3 319.4 314.6 312 308 305.9 303.3 297.7 291.4 285.4 277.9 274.4 271.1 267.7 266.9 264.9 262 259.8 262.6 261.7 263.2 263.9 267.7 265.7 264.6 257.8 250.3 243.7 242.5 240.5 237.7 239 236.1 233.2 237.2 240.9 244.8 240.1 234.1 228.3 226.4 229.8 238.2 249.5 260.6 262.3 260.7 258 255.2 251.4 249 245.4 240.1
344.7 342.6 339.8 334.2 334.5 326.9 324.5 319.5 312.8 307.6 304.6 303.5 302.4 301.2 299.8 299.5 299.5 300 301.2 306 313.8 320.1 329.4 335.9 335.1 334.3 333.8 331 327.3 317.5 308.6 298.7 290.8 287.2 279.9 276.6 275.9 275.1 274.6 274.3 273.8 273.3 280.9 296.2 312 320.6 328.9 334.1 337.8 339.6 337.2 335.1 333 331.4 330.7 333.1 333.1 329.1 326.9 325.5 326.1 327.5 324.8 328.4 339.4 345.6 350.8 355.9 359 363.4 368.3 372.5 375.3 375.5 372.9 369.9 366.4 364.4 362.1 359.9 357.6 355.1 351.6 348.5 344.8 342 339.3 338.6 338 337.4 336.9 337.6 338.8 339.7 340.6 341.9 342.6 342.4 340.3 339.7 342.1 344.6 347.3 350.1 352.8 354.2 353.4 350.6 348 344.9 339.6 335.8 332.7 329.5 325.6 325.5 323.3 324.4 322.6 322.2 319.3 318.9 317 316.2 315.5 314 315.5 317.5 318.6 319.6 320.5 321.7 323.5 327.6 332.7 338.3 339.2 339.3 337.4 334.3 332 331.4 331.5 331.3 330.5 329.4 327.2 323.3 319.5 314.5 307.7 303.6 301.2 294.6 290.1 284.4 273 271.6 268 265.1 264.3 263.3 260.8 258.2 254.1 248.3 247.3 253.2 250 253.2 255.6 251.8 242.7 239.6 238.9 240.3 236.8 232.2 234.9 233.2 232.8 236.9 238.9 236.2 232.2 228.2 224.7 221.4 225 239.5 253.1 259.4 260.7 261.3 257.1 254.2 254 249 244.4 239.8
346.7 343.1 338.9 334.8 326.2 326.5 319.8 314.3 309.9 306.1 303 302.2 302.3 302.6 301.4 300.8 301 301.7 310.2 319.9 328.9 337.3 345.2 349.5 348 344.2 340.6 338.5 333.5 325.3 316.1 306.7 297.5 291.4 285.7 281.8 279.6 276.2 274.7 274.1 273 280.5 292.8 310.5 324.6 333.8 340.3 345.1 350.7 351.4 347.5 343.9 341.7 340.6 340.9 342.3 340.1 337.1 333.8 334 335.9 336.4 335.4 336.6 343.7 350.1 357.3 364.4 369.1 373.6 377.9 381.3 380.5 379.2 376.2 372.9 370.2 368 365.7 363.4 361.1 358.1 354.7 351.2 347.5 344.3 341.7 339.3 338.7 338 337.6 338.9 340.3 341.4 343.3 345 345.8 343.1 340.9 341.4 344.1 346.2 348.8 350.5 351 351.6 348.9 346.2 344 341.3 338 334.8 330.8 326.9 326.9 327.1 326.1 324.1 323.5 322.1 320.8 318.9 318.4 319.6 319.7 318.8 320.2 320.6 321.7 322.8 323.8 325.1 327.1 330 336 339.5 340.3 340.6 340.4 337.9 335.5 334.3 334.7 332.8 331.6 329.4 327.2 323.4 319.7 314.8 310.5 302.8 293.9 287.6 278 271.7 262.7 261.3 259 259.7 257.3 259.1 257.2 254.7 251.8 245.7 240.9 240.7 241.3 241.9 242.3 236.3 234.8 233.7 233.5 232.1 228.4 226.3 229.9 229.8 232.1 234.5 232.4 230.6 228.7 225.2 222.5 219.8 221.9 237.7 251.5 258.1 260.7 259.8 254.7 255.7 251.9 248.2 244.5 242.8
345.6 341.3 336.5 331 326.2 319.2 315 312.2 308 304.6 303.3 304.2 304.6 305.2 305.5 305.1 305 311.4 321.6 332.5 342.2 351 359.7 360.1 357 351.8 346.2 343.5 337.9 331.3 324.1 315.9 305.6 298.2 291 288.2 284.4 276.5 275 274.4 285.3 295.9 308.3 321.4 329.9 336.1 349.5 354.9 360.3 359.6 356.3 353.2 353 355.6 355 354.2 351.9 348.9 345.9 343 343 342.5 341.4 340.7 348 355.6 363.4 373.9 380.3 384.3 388 388 386.3 383.7 380 376.6 374.2 371.6 369.4 366.3 363.1 360.1 356.7 353 349.2 345.7 343.1 340.5 338.7 338 338.3 340.3 341.8 344 345.5 345.7 345.3 343 343.1 345 346.2 346.4 348.1 348.9 349.4 348 345.6 343.7 342.1 340 337.2 334.1 329.9 329 328.5 328.5 328.4 327 325.9 324.7 323.3 323.7 323.9 324.3 324.5 323.4 323.9 323.7 324.6 325.7 326.8 327 328.9 330.1 335.6 341.1 344.1 344.5 344.8 342.6 340.2 338 336.8 334.4 331.2 328.8 326.5 323.6 319.7 316.3 307.6 298.2 291 279.9 273.9 264.7 256.9 252.4 253.3 255.7 255.7 254.6 253.6 251 248.2 245.9 240.8 237.7 235.9 234.8 233.6 233.7 232.4 230.9 229 226.3 225.5 223.4 223.2 225.6 229.8 230.4 228.5 226.8 225 222.8 220.3 217.3 218 233.8 245.7 253.9 257.3 255.8 253.6 255.8 252.6 250 248.2 249.6
342.6 337.5 332.1 326.3 321 316.4 313.7 310.2 306.8 305 305.4 306.5 307.3 307.9 308.9 309.4 313.5 322.2 332.7 343.2 352.1 364.7 368.4 368.3 365 359.1 353.4 348.9 342.7 336.4 329.7 320.4 311.9 304.1 298.4 291.7 286.4 275.8 275.1 278.8 294.5 309.6 318.6 326.3 336.9 343.8 359.3 365 368.8 367.7 366.8 365.1 368 371.2 369.8 369.7 365.5 361.3 355.8 351.2 349.9 349.5 348.4 348.5 354.9 363 374.3 382.6 388.3 394 393.3 392.3 391.2 388 383.7 379.9 377.5 374.8 371.5 368.3 365.1 361.7 358 354.3 350 346.3 344 341.4 340.3 337.7 338.7 340.2 342.7 345.1 345.6 346.4 345.7 345 346.8 347.6 348 348.1 346.7 347.5 345.7 344.1 343.6 342.4 340.6 338.3 334.8 332 332.3 331.9 330.8 330.7 330.6 329.6 329.1 328.9 328.6 328.6 328.7 328.1 328.1 328 327 326.9 327 328 328.3 328.4 328.5 331.2 336.8 344.6 348.3 349.3 348.2 346.1 343.7 340.6 337 334.5 330.6 328 324.8 320.2 315.8 309.3 301.4 294.5 282.1 274.4 268 262.2 257.9 251.4 248.8 252.3 253.5 252.3 247.2 248.1 247.5 244.5 239.8 236.8 235.2 233 231.3 230 229.2 226.4 226.1 224.5 223.1 221.1 220 219 223.7 226.5 224.9 223.1 221.6 218.6 215.7 213.6 213.2 229.7 243.2 251.1 253.8 254.5 254.7 258.4 254.6 252.4 253.1 249.5
337.7 333.1 327.5 321.7 316.6 313.2 310.6 308.1 306.6 307 307.4 308.5 310 310.6 312.8 317.6 323.4 333.5 343.7 352.6 361.3 373.6 376.4 375.4 371.1 365.6 359.1 353.7 346.4 337.9 330.1 321.9 314.6 306.7 298.5 292.7 278.7 275.6 281.3 295.5 307.6 318.1 326.6 335.1 343.8 353.9 367.1 372.4 373.2 373.4 374.9 379.3 379 379.2 380.3 377.7 373 369.9 365 361.2 358.5 355.4 352.5 354.7 362.1 371.7 381.3 388.9 394.6 398.2 397.2 396.2 394.6 391.1 387.1 383 380.2 377.3 373.9 370.4 366.7 363 359.3 355 350.7 346.9 344.9 342.4 340.5 337.9 340.5 341.9 342.6 344.9 346.7 348.2 347.5 348.6 350.3 349.5 348 346.5 344.9 343.5 342.1 341.3 340.6 339.6 337.7 334.6 335.5 335.1 334.6 334 333.3 333 333.2 333.1 332.9 332.7 332.2 332.4 332 331.6 330.7 331.2 329.8 328.6 328.2 328 328 327.5 326.3 331 337.8 347.1 351.6 352.6 351.1 349 345.7 342.7 337.9 333.8 327.5 326.1 322.4 317 310.8 304.7 298.8 289.7 278.5 271.3 265.1 259.9 256.3 251.4 249.2 247.8 250.1 249.9 246.1 243.8 244.3 239 236.8 235.3 235.7 235.1 232.8 230.6 229.9 230.8 231.2 230.6 229.1 228.7 226.6 227.8 217.5 215.4 212.6 210 207.1 205.4 206.7 208.1 210.2 227 239.8 246.2 251.4 257 254.8 259.9 256.5 255 249.8 259.3
332.8 328.1 322.1 316 312.8 310.1 308.2 308 308.1 309 309.4 310.5 312.1 314.1 319.2 324 332.9 344 353.2 364.3 371.9 380 380.8 378.4 373.4 368.6 364 356.5 349.9 340.8 330.3 321.2 313 305.1 296.9 283.9 276 279.3 291.7 307.5 319.5 328.7 334.2 345.9 353.5 362.9 372.4 376.1 377.8 382.2 383.5 387.7 389.3 387.9 385.6 382.5 381.2 376 372.5 368.6 365.1 361 353.7 360.1 368.2 376.5 384.4 391.7 398.8 401.7 400.4 398.4 396.4 393.2 389 385.8 382.7 379.9 376.4 372.2 368.1 364.3 359.3 355.7 351.5 347.5 345.5 343.4 340.7 340.3 342.6 344.8 345.7 347.6 348.9 349.9 350.1 351.4 350.3 348.3 346.4 344.5 342.3 338.7 337.3 337.5 337 336.4 337.9 337.7 337.8 337.5 337 336.2 335.3 335.5 336.4 336.6 336.4 335.9 335.4 335 333.8 332.6 331.7 330.6 329.5 328.5 328.1 326.7 324.9 324.6 326.6 329.9 336.6 346.6 350.5 352.7 353.3 351.1 348.2 343.5 337.9 331.8 325 321.8 317.1 312.2 306.8 301.3 296 289.3 280.5 273.1 265.7 259.3 255.2 253.8 249.8 247.8 244.8 244.4 242.4 240.8 239.7 240 240.7 239.8 240.5 240.8 236.5 235.5 235.2 234.8 234.8 234.5 233.2 232.7 230.7 231.3 230.1 229.1 221.2 227.5 224.4 219 205 199.8 206.4 221 236.2 245.1 251.8 254.9 253.7 255.1 254.8 250.6 258.1 259.6
324.7 320.7 316.7 312.6 311.3 309.9 309.5 309.5 309.5 310.5 311.4 312.6 316.2 321.7 326.3 334.5 343.9 353.5 360.9 372.3 381.8 381.4 378.5 375.4 373.7 370.9 365.3 358.8 350.7 339.9 329.5 319.7 310.5 300.6 289.7 277.3 278.1 287 300.1 315.8 325.3 334 340.5 352 358.8 369.6 373.8 376 380.5 386.4 389.5 393.4 392.1 390.6 391.6 391.1 386 379.6 376.3 373.2 368.6 363.1 357.1 365.4 370.6 378 385 392 397.8 401.7 401 399.2 397.7 394.8 391.3 388.5 385.4 382.4 378.2 373.6 369.4 364.6 359.3 355.3 352.2 348.1 346 343.9 343.5 344.3 345.5 346.7 348.8 350.2 351 351.2 350.4 349.4 348 346.1 344.2 341 338.4 336.3 336.7 337.2 338.2 339 340 339.7 339.9 339.9 339 338 337.1 337.8 338.9 339.1 338.8 338.2 336.9 335.4 333.6 332.1 331 329.8 328.7 326.7 326 324.8 323.6 324.4 327.4 330.3 335.6 342.4 348.2 352.5 353.3 350.5 346.5 339.9 334.2 328.2 323.7 319.8 314.6 310.1 305.9 298.5 293.1 289 282.6 274.7 268.2 264.8 258.2 255.4 255.2 251.6 246.3 245.2 245.1 243 242.5 242.8 243.2 244 243 242 240.8 240.1 239.4 239 238.4 238.2 237.7 236.4 234.8 233.6 231.6 231.9 232.8 231.6 228.3 223.7 216.5 207.3 202.3 217.5 233.9 241 247.4 250.7 250.4 253.9 246.2 255.1 254.1 251.4
317 314.6 313.2 312.4 311.5 310.5 310.1 310.1 310.3 311.3 313.6 318.5 324.1 329.4 336.6 344.7 352.2 359.7 367 377 380.2 377.9 373.9 370.4 368.4 364.6 362.5 358.2 349.7 339.2 328.6 317.3 304.8 294.2 278.6 278.1 280.2 296.1 309.6 321.4 330.3 339.5 351.6 359.6 361.6 370.4 371.4 372.7 382.5 385.3 390.3 391.1 393.3 395.1 394.7 390.5 384.2 381.1 376.6 371.2 366.9 362 359.4 367 370.3 376.7 383.7 390.7 396.2 400 401.2 400.5 400 396.4 394.7 391.3 387.9 384.2 379.5 374.8 369.7 364.9 359.3 354.9 352 348.5 346 347.4 348.2 348.9 349.4 349.8 350.2 349.9 349.6 348.8 348.1 347.2 345.4 343.7 341.8 338.8 336.9 338.4 339.3 340.5 341.5 342.4 342.3 341.8 340.7 340.8 340.4 339.8 338.9 339.8 339 338.9 339.1 338 336.2 334.1 332.4 331.3 330.2 329 327.6 325.5 323.6 322.3 322.4 324.6 328 330.8 334 339 347 351.5 350.8 347.3 341.3 335.5 332.1 328.6 324.2 318.7 313.8 310.1 305.6 299.4 294.2 287.6 281.5 272.8 266.1 263.4 258.2 259.7 256.6 252.7 246.9 246.8 248.1 247.7 247 247.2 247.6 246.9 246.3 245.7 245.6 244.8 244.1 243.2 243 242.1 241.4 240.2 239 238.1 236.5 234.9 235.2 234.1 231.6 227 221.5 215.8 197.5 214.7 226.8 232.9 240.6 241.7 247.8 242.4 252.6 250.3 245.3 239.5
312.1 311.2 312.8 312.9 311.9 311 310.3 310.2 311.2 316.3 321.4 326.8 332.5 338.4 345.4 351.2 357.8 364.8 371.6 374.9 378.9 374.5 370.9 367.9 363.8 358.9 356 349.2 344.3 336.9 327.8 313.8 302.3 290.8 277.8 279.2 285.7 301.4 315.7 327.8 338.2 348.7 354.9 361.8 365.6 365.8 369.4 373.4 379.1 381.2 387.2 393.2 395 392.4 389.8 387.1 382.5 377 372.8 367 362.2 361.6 361.3 365.1 368.5 374.3 381.5 388.9 394.6 398.4 401.8 402.8 402.2 399.5 397.9 394.7 389.9 385.5 380.5 375.4 370.2 364.4 358.8 353.6 350.6 345.4 347.3 348.4 348.3 348.7 349.1 349.6 348.7 348.5 347.2 346.5 345.7 344.8 342.8 340.8 338.5 337.5 339.8 341.3 342.6 343.5 344.7 345.7 344.7 342.9 341.1 341.5 341.1 340.6 340 340.3 339.3 338.3 337.6 336.4 334.6 332.7 331.6 330.5 329.4 328.3 326.3 324.2 322.3 320.9 321.3 323.9 327.4 331.3 334.8 341.4 347.3 350.2 346.7 343 340 335.8 332.8 328.1 323.1 318 314.1 309.8 304.6 300.7 295.4 288.8 282.9 276.4 270.5 267.3 263.7 260.2 255.9 253.6 249.9 249.8 250.8 251.1 251.4 251.2 251.5 251.1 250.5 250 249.8 249.7 248.9 247.9 247.4 247.7 246.9 245.6 244.2 242.9 241.2 239.5 237.9 236.8 234.9 231.3 226 220 207.4 200.8 215.4 223.5 232.5 237 237.6 243.6 244 241.8 232.7 224.7
309.8 310.7 311.6 312.6 312.5 311.4 311.2 316.4 321.6 326.5 331.2 335.9 340.6 346.3 350.7 356.3 362.5 368.9 373.9 377.5 379.3 375.3 370.4 366.7 361.9 357.1 352.4 347.7 343 336.3 330.8 319.6 307.4 295.4 278.6 280.7 285 299 316.3 333.1 343 351.4 358.4 362.7 357 358 359.7 364.3 371.8 377.6 384.4 390 391 388.3 385.3 380.3 374.7 367.6 362.3 360.7 360.5 360.4 361.2 363.3 366.6 371.9 379.4 386.8 393.4 398.6 402.5 403.9 404.2 402.5 400.5 395.9 391.2 385.8 380.4 375 369.5 363.7 356.9 351.3 346.7 347.9 349.6 348.5 348.4 348.5 348.9 348.7 347.3 346 344.9 344.4 343.4 342.1 340.3 340.8 340.2 340.7 342.5 343.6 346.1 348.3 348.3 348.2 347.1 345.3 344.5 342.2 341 340.1 338.8 337.8 336.1 334.9 334.6 333.9 332.2 331.9 330.8 329.7 328.6 327.5 325 323 321.2 320.9 320.9 324.6 328.6 333.1 338.2 344.3 349.1 350.4 347.5 345.3 340.4 335.7 332.1 328.1 323.2 318.7 314.2 309.9 305.5 301.1 296.4 291.4 283.1 278.2 273.7 270.3 266.9 263.3 258.2 254.9 253 253.4 254 254.5 255.1 255.1 255.4 255.2 254.7 254.2 254.1 254.1 253.7 252.6 251.5 252.1 252 250.9 248.9 246.3 244.7 243 241.3 240 236.9 233.1 227.8 221.3 215.9 200.6 198.8 211.7 217.6 228.2 232.7 238.7 235.3 231 219.2 212.5
308.9 310.3 311.1 312 315.4 318.9 322.7 327.8 333.5 337 338.9 343.3 347.9 353.3 356 359.7 365.1 369.8 374.4 379.2 378.7 374.2 369.9 365.3 360.6 355.7 351 346.7 342.2 338.7 331.6 319.8 308.9 298.7 281.9 280.2 287.1 301.6 318 331.8 344.4 350.7 358.1 357.7 350.4 350.3 352.1 355.3 362.1 368.3 376 383.8 383.9 381.1 376.3 369.3 364.4 359.2 356.5 356.3 356 356.2 358.6 360.9 365.2 369.7 377.1 384.7 392.3 399 405.3 407.7 407 405.2 400.8 396.2 390.8 385.2 379.8 374.3 368.6 362.9 355.6 347.5 348.1 350.8 348.9 348.7 348.6 348.5 348.6 347 345.2 343.6 342.6 342.2 341.1 341.3 344.1 343.1 341.4 343.4 344.6 345.9 349.1 350.1 349.8 350.2 349 346.2 343.4 341.6 340.2 339 337.7 335.6 333.1 331.8 331.6 331.4 331 330.8 330.2 329 327.9 326.5 323.9 322.6 321.4 320.9 322.5 325.9 330.3 336 342.8 348.6 352.6 351.2 350.6 348.4 343.1 336.6 333.8 329.1 323.8 319.3 313.9 308.8 304.9 301.5 297.2 291.4 286.4 279.7 275 271.2 267.9 265.4 262.6 258.2 256.4 257 257.4 257.9 258.5 259.1 259.2 259.3 258.8 258.6 258.6 258.5 258.4 258.1 257.5 257.2 256.8 254.5 252.2 250 248.1 246.3 244.6 242.5 238.6 234.5 231.8 225.8 216.7 212.1 198 196.3 206.4 219.1 229.7 230.9 226.3 217.2 206.3 200.7
311.4 310.5 314.1 319.1 324.5 329.4 334.9 339.5 344.4 346.9 347.4 348.9 352.4 356 358.8 361.3 365.2 370.6 375.9 380.2 376.2 373.5 368.4 364 359.2 354.2 349.5 345.4 340.9 336.6 330.2 322.4 313.4 303.7 287.8 279.4 283.1 298.4 312.6 324.9 329.4 340.4 348.2 345.7 341.2 338.8 342.4 347.8 356.7 365.5 372.7 372.6 372.5 371 365.9 358.7 352.8 350 350.2 351.1 351.3 353.4 356.3 358.6 362.8 368 375.2 384.6 392.4 401.7 410.6 411.2 410 406 401.1 396.4 390.9 384.7 379.1 373.4 367.8 362.1 354.3 349.2 350.6 348.7 348.7 348.9 348.8 348.7 346.6 344.7 342.9 341.7 343.7 343.5 344 346.4 345.6 342.1 343.7 345.2 346.7 348.4 351.1 352.5 351.5 350.8 348.2 344.9 341.8 340.1 338.3 336.5 334.4 331.5 330.3 329.5 330 329.9 329.8 329.6 329.2 328.4 327 325.2 323.2 321.9 322.2 322.7 325.2 328.5 333.2 341.6 348.6 352.2 355.7 356 355.8 353.1 349.1 342.2 336.2 330.7 324.4 319.3 313.8 308.3 304.5 300.8 296.4 292.2 287.6 282.2 277.3 273.6 270.1 269 265.1 260.2 260.5 260.8 261.9 262.9 263.5 263.6 264.1 263.5 263.2 263.1 263.1 263 262.9 262.6 262.2 262.1 260.3 257.8 255.4 252.1 249.9 247.7 244.8 241 237.8 234.2 231.4 227.9 220.1 213.3 206.4 194.8 188.2 214.6 221.9 220.8 210.7 200.4 194.5 191.5
317.1 320.7 324.4 331.5 337.5 342.7 348.3 352.5 353.5 355.6 354.1 353.9 354.9 358.3 358.6 359.7 362.9 367.5 373.5 376.1 373.1 369.7 368.8 363.1 357.8 352.7 348 342.9 337.7 333.6 329.7 323.4 316.6 308.5 300 289.9 280.4 289 302.6 309.9 322.4 331.7 335.2 334.8 331.6 331.8 336 342.2 349.5 358.2 362.1 364.4 364.8 360.8 354.4 348.2 343.1 344 345.5 346.5 349.3 351.5 353.7 356 359.9 367.2 377.3 385.6 393.1 400.9 412.1 412.9 410.6 407.2 401.8 396.8 390 382.9 378 372.5 367 361.6 355.6 351 348.8 347.7 348.4 348.9 348.5 346.3 344.2 342.9 341.7 344.1 346 347.6 347.6 346.6 343 344.3 346.2 347.5 348.8 350.7 352.9 354.1 352.8 349.2 344.4 341.6 339 336.4 334.4 332.8 330.6 328.9 328.4 327.3 327.8 328.6 328.8 328.6 328.1 327.3 325.9 324.1 322.3 322.1 323.3 325 327.2 331.2 339.1 346.2 352.9 358.4 361.4 361.2 361 358.2 353.9 348 340.2 332.7 326.3 319.6 313.1 307.9 304.1 300.3 295.8 291.9 286.3 282.5 278.5 274.7 271.9 267.9 266.6 265.6 266.8 267 267.3 268.1 268.2 268.6 269 268.3 267.6 266.7 266.9 266.8 266.9 266.3 266 265.8 264.1 260.2 256.8 253.5 249.9 246.6 243.7 240.5 236.8 232.6 229.2 225.8 218 212.5 202.2 192.5 191 203.3 209.4 199.6 193.3 186 181.3 178.9
327.8 332.3 338.2 346.5 352.3 356.7 360.7 362.8 363.5 363.7 360.5 358 357.6 356.5 357.7 357.5 357.5 362 368.7 370.8 367.2 368.1 367.4 361.7 357.2 352 345.4 340 334.6 330.5 326.9 322.8 317.8 311.8 304.5 295.3 287.6 282.1 286.1 301.3 314.8 320.2 323.5 323.9 321.9 321.7 328 331.8 337.7 344.7 349.7 352.8 350.4 347.7 344 341 339.5 340.3 341.3 343.9 346.7 348.3 350.4 353.8 361.1 370.9 379.2 387.6 394.7 401.9 409.1 409.2 409.2 407.4 402.3 395.4 388 380 375.7 370.7 366.1 361 355.2 351.5 348.8 348 347.3 347 345.2 343.1 341.2 343.3 346.2 347.5 347.9 347.5 346.5 343.8 344.2 346 348 349.4 349.9 350 350.8 353.3 349.9 345.9 341.3 337.4 334.8 332.2 330.6 329.1 327.3 326.3 326 325.4 325.3 326.1 326.8 327.1 327 325.6 325 323.3 321.2 322.6 324.1 326.5 329 334.9 342.6 349.3 356.1 362.3 365.7 367.4 365.3 361 357 352.7 346.8 337.9 330.1 320.7 313.4 307.5 304.3 300 294.6 290.5 286.2 282.9 279.2 274.3 272.4 272.6 272.1 271.6 273.1 272.8 272.6 272.9 272.8 272.9 272.2 271 269.9 268.8 269.4 270.2 270.2 269.5 268.8 268.3 265.8 262 258 254.3 250.5 246.9 243.3 239.7 235.3 230.6 227 223.5 217.4 210.3 200.9 186.4 183.7 191.1 189 184.1 178.7 175.6 173.3 170.5
339.9 346.5 354.2 360.1 364.6 367.2 370.3 370.2 370.4 369.6 365.8 362.1 359.8 358.6 356.7 354.7 353.5 355.1 359.7 358.5 356.1 361.3 360.6 357.5 353.4 348.2 342 336.9 331.7 327.8 324.8 321.4 317 312.7 306.6 299.1 292.5 285 283.8 291.4 300.6 306 308.3 308.6 311 312.1 318.2 322.1 326.8 332.9 337 340.3 339.7 338 335.8 334.7 333.9 336.9 339.3 341.7 344.6 346.3 347.8 356.1 365.9 374.1 381.8 389.6 396.5 403.5 408 408.6 409.3 404.4 398.8 392.4 385 378.9 374.2 368.8 364 359.5 354.9 351.3 347.9 345.9 345.1 343.7 343.7 343.4 345.4 347.2 346.6 345.7 345.4 345.1 344.4 344.8 346.4 348.1 349.9 349.9 349.5 349.6 349.9 350.9 345.4 342.2 337.7 333.3 330.9 328.7 327.1 325.5 324.1 323.6 323.3 323 322.8 323.5 324.2 324.6 324.4 323.9 323.3 322.4 321.2 323 324.9 327.8 330.9 338.3 345.3 352.3 357.7 362 364.6 366.1 366.4 365 361.6 357.6 350.5 341.2 333.7 325.9 316.7 310.4 303.5 298.3 294.4 291.2 288.2 282.8 280.5 278.8 277.9 280.9 279.2 278.5 279 277.9 276.6 276.2 275.9 275.5 273.9 272.4 271.2 270.9 271 270.8 270.2 270 269.7 268.2 265.2 261 256.9 252.9 247.8 244.1 240.5 236.6 234.1 229.3 225.1 220.9 214.4 209 200.6 193.5 178.5 179.5 178.6 177.2 175.3 172.9 170.5 170.5
351.8 359.4 366.7 372 373.8 375.5 377.5 378.1 376.4 374.1 370.1 366.4 363.4 360 356.4 353.6 350.5 350.3 348.9 348.5 349.6 353.9 354.3 354.4 348.3 342.6 336.8 332.2 328.8 325.4 322.3 319 315.9 312.6 308.2 301.4 294.5 286.4 284.6 284.7 288.1 293.6 299 301.9 304.9 305.9 307.8 312.5 318.1 322.2 324.5 327.1 326 323.3 325.5 325.7 331 333.8 337.5 339.7 342.3 343.7 348.7 359.2 368.3 375.8 382.4 390.2 397.3 404.7 411.8 410.2 406.1 400.1 393.2 387.6 383.2 377.5 372.2 366.8 362 357.5 354 351.4 348.1 345.5 345.2 345.5 346 346.9 345.9 345.2 344.7 343.4 344.2 345.3 346.1 347.9 348.6 350 350.4 350 349.1 349 348.7 343.9 341.4 337.8 333.6 329.5 327.2 325.3 324.1 322.1 321.1 320.7 320.4 321.2 320.7 321 321.7 321.9 322.4 321.7 321 319.1 321.6 323.7 325.5 329.7 334.8 342.2 349.1 355.2 359 361.3 362.7 362.6 363.5 364.5 363.3 357.8 349.9 343.7 336.8 327.7 318.3 310.3 302.2 297.4 293.1 291 287.9 290.7 288.3 285.9 286.7 285.9 285.3 284.7 283.8 281.5 280.3 279.6 278.4 277 275.4 273.2 271 270.6 270.3 270.1 269.5 269.2 268.4 266.9 263.1 259.6 255.7 251.6 246.3 241.4 237.5 233.7 231 228.3 223.8 219 213.4 207.9 202.6 193 187.6 178.2 176.5 174.9 173.7 172.4 169.8 170.6
362 369.1 374.9 379.1 380.1 381.5 382.7 383.3 381.7 377.6 373.4 369.6 365.4 360.3 355.7 351.8 348.4 345.3 345.3 344.6 347.4 352.8 347.2 345.9 340.5 336.2 333.1 329.3 325.7 322.2 319.9 317.2 314.3 311.8 300.8 292.9 293.6 293.8 287.4 284.5 284.6 285.6 291.1 294.4 299.1 300.5 303.1 306.1 310.3 313.9 315 314.6 315.1 316.5 318.9 326.8 330.6 330.5 334 336.1 337.9 342.3 350.1 361 369.3 374.9 381.5 390 397.3 407.9 416.2 409.7 399.9 392.5 388.1 384.1 379.5 374.8 370.2 364.8 359.9 356.1 353.3 351 350.3 348.3 348.1 348.1 345.9 345.3 344.5 345.4 345.8 346.7 349.7 347.9 348.8 351.2 351.9 351.9 350.8 349.6 347.6 347.5 346.1 341.5 338.2 333.8 330.3 326.1 324.3 322.9 321.8 322.3 321.9 320.1 320 319.8 319 318.7 319.4 321.1 320.7 319.4 318.5 319.2 321.6 324 326.1 331.2 338 345.7 352.2 357.3 358.5 358.5 359.3 359 358.9 359.6 356.5 351.7 348 341.8 334.8 323.7 314.4 309.3 302.4 295.4 291.2 290.3 298.4 295.7 292.3 290.6 291.6 290.6 288.9 287.2 286 284.1 283 282.6 280.9 277.9 275.4 272.8 270.7 269.8 269.5 268.3 267.1 266.4 265.3 262.9 260.4 257 253.5 249.8 243.9 238.3 234.3 230.8 228 224.7 221.3 216.3 212 207.2 201 193.6 185 179.4 175.5 173.2 173.7 172 170 171
370.7 376.8 380.9 384.9 386.7 387.8 387.8 387.2 384.3 380.1 375.7 371.6 365.8 360.5 355.2 350.9 347 343.8 341.8 342.2 343 341.2 339.7 337.6 334.9 332.3 330.2 326.6 322.5 318.8 316.4 308.9 309.3 299 304.7 308.1 304.6 296.3 288.6 286.3 284.9 286.1 287.4 288.5 290.5 296.1 300.1 303.1 306.6 310.5 309.3 310.5 312.4 321.4 327.4 332.4 335.9 337.1 338.7 339.6 341.7 345.8 352.9 362.1 369.3 374.6 380.2 387.3 395.7 408.1 407.6 399.5 391.7 389.6 385.1 380 375.5 371.3 366.6 362 358.2 355.1 352.8 351.8 351.1 351.4 348.3 345.7 345 345.8 346.7 347.8 350.5 353.1 353.3 351.4 351.6 354 354.8 354.1 351.8 349.1 346.7 345.9 343 339.1 334.7 330.4 326.2 324.7 323.4 325.8 326.2 325.7 324.6 323 322.4 321.6 320.4 319.6 319.7 318.2 317.4 317.5 317.9 319.3 321.7 324.1 326.3 332.7 341.6 348 354.3 357.1 356.2 356.2 355.3 354.1 354.3 351.7 346.9 343.2 342.7 335.6 326 319.8 315.2 309.4 301.1 296.1 291.9 295.7 296.5 297.3 293.7 294 295 293.1 291.2 290.4 287.1 284.4 284.6 283.4 280.8 277.5 274.7 272.1 269.5 268.5 267.4 266.1 264.8 264.5 262.2 259 256.4 252.3 248 244 239.6 234.6 231.1 228.1 224.1 220.6 218 213.6 209.3 204.6 199.3 192.8 186.2 178.6 173.8 173.4 172.2 170.8 171.6 171.8
376.4 382.5 386.7 390 392.2 392.9 390.8 390.3 386.5 381.2 375.9 370.5 365.1 359.2 352.6 349.1 345.2 343.1 340.9 338.3 336.1 334.4 334 333.6 331.5 329.1 326.8 322.3 316.3 312.5 308 311.6 307.2 313.1 314.7 314 311 303.1 298.6 295.8 285 286.6 286.1 288.6 289.6 290.7 296.6 298.7 300.5 307.5 309.8 314.3 320.7 327.4 333.5 338.2 342 344.9 344.8 345.4 346.9 349.3 355.7 362.1 367.3 372.1 377.7 384.3 391.9 400.2 398.9 390.9 389.2 385.8 380.2 375.7 371.8 367.9 362.9 358.2 354.9 352.5 351.9 351.7 351.3 348.3 345.5 344.9 346.5 347.4 348.6 357.9 356.5 356 355.9 355.1 355.7 356.1 355.4 354.1 351.4 349.2 346.9 343.5 338.3 335.2 331.4 327.5 324.1 325.7 326.9 327.6 328.1 327.7 326.2 325.9 325.3 324.6 322.1 321.2 320.5 318 316.2 316.5 320.5 317.4 320 322.5 326.3 334.8 340.7 348.8 353.5 353.9 354.9 354 350.8 348.6 347.2 342.3 341.5 340 334.5 326.5 323.2 318.3 312.6 305.6 300.9 297.3 295.3 295.3 296.1 297.1 298.3 298.8 297.7 295.7 292.8 289.4 285.9 284.9 284.6 281.8 278.8 276.3 273.3 269.6 267.3 265.7 264.9 264 263.5 262.8 257.9 255.7 252.2 248.1 245.5 241.5 236.7 232.6 229.4 225.1 220.6 216.5 214.2 210.5 205.4 200.2 197.2 194 186 176.8 173.3 173.1 172 171.3 173.3 176.3
379.7 384.4 389.4 391.5 393.5 394.2 391.7 390.4 388.1 382 376 370.3 363.6 357.1 350.6 347.1 344.1 341.4 338.7 336.1 333.9 331.9 329.2 328.5 326 322.9 319.2 315.3 310.9 314 316.9 315.6 317.3 316.5 316.7 315.8 314.9 311.4 307 303.5 298.7 294.1 292.8 295 291.9 290.6 294.1 297.1 304.5 309.5 315.9 320.9 326.9 333 339 344.3 348.6 352.5 352.8 351.6 352.5 351 354.9 359.8 363.5 368.2 374 381.2 387.3 391.6 391.4 385.7 384.2 380.2 376 373.2 368.7 364.4 359.5 355.4 351.7 351.1 350.9 351.2 350.4 346.1 345.3 346.8 348.2 349 352.7 357.3 357.5 357.9 357.8 356.8 355.7 354.3 353.5 351.6 349 345.6 342.1 339 333.9 330.3 327.2 324.1 327.4 328.2 328.7 329.1 329.5 329.4 329.1 328.9 328.3 326.4 323.9 322.3 321.1 318.3 316 319.7 320.2 316.7 318.4 321 325.8 330.7 341.6 346.2 350.1 350.1 351.4 350.3 346.7 344.8 341.6 343.1 335.6 331.7 327.1 323 319.3 314.6 309.9 304.6 300.4 297.1 295.4 295.4 297.1 298.9 299 299 297.1 293.8 290.6 287.1 284.6 284 281.9 279 276 273.3 270.2 267.6 265.3 262.9 261.8 260.2 260.8 258.8 254.3 252.4 249.4 246.5 243.8 240 235.6 230 225.7 222.1 217.7 214.2 210.2 206.5 202.6 196 193.2 189.8 186.5 180.4 173.8 172.4 171.1 170.9 174.5 177.6
379.7 383.1 387.7 388.9 389.7 390.6 388.4 385.5 381.8 377.8 373 366.4 360 353.1 348.3 344.6 341.7 339.1 336.4 333.8 331.8 329.3 325.6 323.3 321.4 318.8 315.1 311 318.7 320.6 317.8 319 319.6 320.2 320.8 321 320.4 319.2 315.1 311.3 309.1 308.4 306.3 303.4 303 294.1 294.4 297.9 304.3 312.6 319.7 324.7 331.4 336.2 341.1 347.5 353.6 357.5 359.2 359.1 353 352 354.1 356.3 358.8 362.5 367.2 375.6 380.4 382.6 383.5 382.2 380.1 376.6 373.3 370.1 366.4 361.6 357 353.4 350.8 348.9 349.1 348.9 348.8 345.9 346.8 348.1 349.7 352 354.8 357.9 358.6 358.7 358.8 356.8 355.4 352.3 349.8 347.1 343 339.4 336.4 334 329.6 325.8 324.4 324.7 328.9 329.5 330.2 330.7 331.3 332.2 332 331.8 330.7 328.2 325.7 323.3 321.6 319.1 314.8 319.9 319.2 316.8 316.9 318.2 321.8 329.5 335.4 343.6 343.2 346.8 344.9 344.5 346.7 342.1 340.9 339.9 332.1 326.4 322.1 318.4 315.3 312.5 309.1 305 298.6 295.4 293.9 293.3 294.2 294.4 295 295.2 293.3 290.8 288.2 284.9 283.6 282.3 279.7 274.5 271.2 267.1 265.2 264.9 264.6 262.5 260.2 258.4 258.8 257.2 253.8 251.3 247.8 244.9 242.8 239.8 233.8 227.7 221.9 218.3 214.3 210.1 205.9 202 197.7 192.4 189.3 186.2 183.9 180.4 176.3 172.2 171.7 171.3 173 178.2
380.9 380.8 382 382 382 382 381.2 378.7 375.1 373.5 368.6 361.2 353.9 348.2 345.8 341.9 339 336.7 334.1 331.8 329.8 327 322.4 319.3 318.2 318.4 318.4 318.9 322.7 323 322.9 324.1 324.8 325.5 326.3 326.5 325.6 324.6 322.3 319.8 317.8 314.8 314 312.1 309.8 302.5 292.5 298.8 305.1 314.1 319.3 326.2 332.3 336.6 342 347.3 352.2 358.7 360 356.1 351.1 350.8 349.6 349.9 354 357.2 361.8 369.4 375 376 377.4 378.2 376.1 374.8 371.5 367.9 364 359.6 354.5 352.1 352 349.2 346.9 346.5 346.8 347.4 348.4 349.4 351.3 353.4 355.5 359 359.2 358.8 357.6 354.8 351.8 348.9 345.2 340.8 336.8 333.1 331.4 328.7 326.7 324.4 324.6 327.6 330.9 331.5 332.1 333 334.1 334.9 334.8 334.5 332.8 330.4 327.9 325 321.3 319.4 314.8 314.5 315 315.2 315 315.2 324.4 328.7 333.8 333.3 340 340.2 340.7 341.4 340.4 340.6 341.6 338.4 328.7 322 314.6 311.9 310.4 308.9 305.8 301.2 296.7 291.6 291.2 289.6 288.8 289 289.1 288.2 287.7 286.3 283.8 280.1 278 276.4 274.8 269.6 267 264.7 263.2 262 262.3 262 260.5 259.7 259.3 257.7 254.5 250.3 247.4 244.9 242.1 238.5 232.2 226 218.5 213.5 209.2 205.2 200.8 196.4 192 189 185.8 183.3 180.6 179.6 175.6 172.1 172.2 172.2 171.9 177.3
382.4 381.2 376.9 374.5 372.1 369.4 368.6 368.2 366.4 363.2 356 348.8 345.4 344 341.9 338.8 336.5 334.2 332.1 330.2 328.2 325.3 321 320.5 324.2 326.6 326.9 327.5 328.5 329.1 328.9 329.6 330.8 332.8 332.9 332.4 331.1 329.9 328.7 327.1 326.4 323.3 321.1 318.8 316.2 313.2 298 295.8 301 309.2 314.4 321.1 328 333.4 338.6 344.6 349.3 354.6 353.4 346.9 343.5 343.3 343.4 344.6 348.1 352.6 357.2 363.1 370.1 371.5 373 374.6 374 372.8 369.9 366.3 362.5 357.6 354.6 353.8 353.5 350.5 349.4 348.3 348.1 348.5 349.6 350.7 351.7 353.2 355.1 356.4 356 354.9 353.3 351 348.2 344.3 339.1 333.4 329.2 328.4 327 325.5 324 325.7 328.6 331.5 333 334.1 335 335.9 336.8 337.7 337.4 336.4 334.6 332.5 330.2 326.8 323.4 319.6 315.6 313.7 313.7 314 315 319.6 321.3 329.8 329.4 334.4 336.6 336.7 340.8 339.7 338 338.6 337.4 330.6 325.8 320.4 312.3 305.3 304.1 302.6 299.7 294.9 289.5 287.2 285.7 284.7 283.5 283.1 282.3 280.9 280.7 275 272 271.4 269.7 270.4 268.4 265.6 262.7 259.9 258.6 257.8 261.6 262.3 263.4 263 259.4 256.1 253.2 250.4 247.3 244.4 241.7 238.2 230.8 222.8 214.4 208.1 204.3 200.3 195.9 190.8 187 185.7 182.9 180.6 177.4 174.9 171.7 173.1 173.1 172.5 175.1 175
384 382.7 379.6 375.9 372.8 364.6 360.5 356.6 356.1 352.8 348.3 344.5 341.5 340.9 341.7 338.6 335.1 333.3 332.3 330.8 328.7 326.6 323.8 324.5 329.6 335.3 339 338.1 337.1 337.8 336 337.4 338.8 340.5 341.9 340.8 339 337.6 336.2 334.3 333.4 330.4 327.8 325.5 322.9 319.5 306.1 295.1 297.1 302.7 309.8 314.7 322.1 328 333.4 338.6 339.8 342.3 340 337.3 336.7 335.4 335.4 338.1 343.9 348.9 354.1 360.3 368 369.8 370.5 372.1 371.9 370.8 368.1 364.7 361 357.9 356 355.4 355.1 353.5 351.9 350.6 349.8 349.6 350.5 350.5 350.3 350.8 351.5 351.5 350.6 349.1 347.4 344.9 340.6 336.7 332.5 327.5 327 325.9 325.3 327.1 328.2 330.2 333.8 335.3 336.3 338.8 339 339.5 339.9 340.3 339.7 339.1 337.1 334.5 331.9 328.1 324.3 320.5 316.6 313.9 312.3 313.7 317.4 317.1 327.2 326.3 330.8 333.8 333.5 337.1 337.6 336.7 334.7 331.2 327.8 324.1 321.6 316.7 308.6 302.3 295.2 292.3 290.4 287.5 284.8 283.3 281.6 278.5 278.3 277 274.3 272 266.5 263.2 265 264.3 265.7 264.9 262.4 260 257.1 254.1 253.2 255.1 259.6 263 263 261.1 257.9 255.8 253.2 250.5 247.8 245.4 244.8 237.7 229 220.2 206.4 201.1 198.3 194.9 190 183.5 183.7 182.3 180.2 177.9 172.9 172.8 172.7 173.7 175.3 178.9 180.7 184.6
388 386.4 384.8 381.9 377.1 373.2 368.6 364.6 360.6 356.2 353.4 350.5 348.4 345.9 344.7 341.6 338.7 336.2 334.1 331.5 329.1 327.4 328.8 332.9 337.3 344.9 348 348.5 348.4 348.1 345.3 347.1 348 349.6 349.9 348.1 346.9 345.3 343.1 341.6 339.6 338.4 337.1 332.9 329.9 321 312.9 303.4 295.4 296.9 301.8 305.5 314.3 319.6 324 328.2 328.7 330.8 329.5 328.6 328 326.6 329.2 334.3 339.8 345.3 351.6 359.2 365.9 369 369.6 370.3 370.5 370.5 368.8 365.7 362.2 359.4 357.9 357.2 357.6 356.4 355.1 353.5 352.1 351.2 350.5 349.9 348.4 347.4 347.3 345.7 344.4 342.5 340.3 337 332.9 329.1 327.4 327.7 328 328.9 329.1 330.9 332.3 334.9 337.5 339.9 344.2 344.2 344.5 344.9 344.8 344.2 343 341.8 339.8 336.7 332.3 328.7 325 321.2 317.7 314.2 312.6 317 320.2 320.2 324.7 328.7 330.4 330.2 331.4 332.1 332.4 331.3 325.2 321.2 320.9 319.2 313.1 306.1 302.8 298.1 292.3 286.3 284.2 282.7 281.1 279.6 277.3 274.4 270.7 266.2 264.7 262.5 260.4 259 262.2 261.3 259.9 259.1 256.6 254.2 251.7 248.5 246.9 249.8 254.8 258.3 257.2 256.6 254.9 254.8 253.2 250.7 248.7 246.6 243.9 233.8 223 209.6 198.1 195.6 194.1 191.2 187.2 180.3 179.1 178.7 174.6 173 172.4 173.8 175.3 178.2 178.5 183.8 188 199.7
395.2 393.9 391.4 388.6 384.8 381.4 378.3 375.6 371.2 368.6 364 362 358.8 355.5 351 346.3 342.3 339 337.1 334.3 330.6 330.7 335.1 341.8 348.8 353.7 356.5 357.6 357.8 356.8 356.2 357.6 357.5 357.2 356.9 353.6 352.1 351 350 346.1 342.2 340.4 340.9 337.8 332.7 326.8 321.2 313.7 306 295.7 297.6 297.8 302.7 308.7 314.9 315.5 318.4 321.1 320.8 318.9 318.9 319.2 326 331.1 336.7 343 351.3 360 365 368.4 369.6 370.6 371.6 371.7 371 369.4 366.4 364.4 363.1 362.9 362.1 360.8 358.8 357.2 356.3 352.9 350.2 347.4 345.8 344.1 342.1 340.1 338.7 336.6 333 329.3 327.7 328.8 329.6 330.4 331.5 333.2 333.3 336.3 339.8 342.1 344.6 347.7 348.8 349.7 349.9 349.5 348.5 348.1 348 344.9 341.4 337 332.7 329 325.4 321.8 318.5 315.9 310.4 319.3 321.2 322 324.1 325.5 326.4 326.4 325.9 324.5 320.5 316.9 312.2 313.1 314.1 311.9 306.7 303.2 299.3 292.5 285.4 282.1 277.5 277.3 274.3 273.7 269.9 267.1 262.8 259.7 257.7 257 255.4 256.1 257.2 255.9 254.1 252.4 250.5 248.2 245.9 242.3 240.7 241.3 245.9 248.4 249.3 250.4 254.3 252.7 253.2 251.1 249.7 248.5 239.1 225.2 212 199 192.7 191.2 189.7 188.4 186.3 182.8 175.1 173.3 173.4 172.8 173.2 178.3 180.7 182.8 183.4 191.5 202 216.5
403.7 401.4 398.7 396 392.8 388.6 384.7 382.3 378.3 375.7 372.8 368.6 365 361.5 357.1 352.1 347.8 344.2 340.3 337.9 336.5 338.8 346.9 354.4 358.7 361.7 363.4 364 364.8 364.3 364.1 363.1 361.5 360.8 359.6 358.6 355.1 351.3 348.9 346.4 343.6 341.3 340.4 337.5 332.8 328.2 323.6 318.7 314.5 309.2 297.8 297.5 297.8 299.2 302 306.5 310.9 311.9 311.6 312.1 314.6 318.2 322.6 328.6 334.5 341.9 351.8 359.8 362.3 365.7 370.1 371.5 373.6 375.5 374.9 374.3 372.4 370.2 369.5 368.3 367.3 365.6 364.1 362.2 360.6 355.3 350.4 347.5 344.4 340.5 337.8 335.4 334.1 331.5 328.1 329.3 331.2 332.7 333.4 334 335.1 336.1 339.3 344.5 347.3 349.7 352.3 354.1 354.6 355.3 354.4 353.2 352.2 351.9 348.9 345.9 342.1 337.4 333.1 329.4 326 322.8 319.3 314.9 315.6 318.3 321.1 320.9 319.5 319.5 321 319.3 316.7 314.8 308.7 305.2 304.7 307.1 306.1 303.8 300.7 296.5 290.2 283.9 278 275.9 274.2 269.7 269 266.6 263.8 260.7 257.6 255.4 253.6 251.5 250.5 250.1 249.7 248.6 246.9 244.8 240.9 240.1 237.8 230.5 227.8 229 233.6 239.6 244.7 242.8 246.4 247.4 248 251.4 246.8 239.1 227.3 214 201.2 191.1 187.7 187.4 185.9 186.3 184.7 182.9 177.1 173.5 173.6 173 179.2 181.3 183.6 190.9 186.7 197.4 206.1 222.7
409.8 407.9 404.5 401.6 398.8 395.5 391.9 389 385.3 382.2 377.7 372.7 369.1 365.5 361.6 357.6 354.8 352.4 348.6 345.6 346.8 351.4 357.8 362.5 364.5 366.2 367.4 366.7 367.3 369.2 369.5 366.3 364 362.4 360.4 358.4 355.7 351.2 347.6 344.2 341.7 339.4 337.8 334.8 330.9 326.9 322.1 318.4 311.1 303.6 302.1 304.1 305.2 309 300.9 304 308.1 309.6 311.3 313.8 316.6 319.6 319.4 326.2 334.1 341.5 348.6 355 360.2 364.5 370.3 374.8 377 380 379.9 379.7 378.5 375.9 374.7 373.6 370.1 368.7 367.4 365 360.8 355.7 350.3 346.4 342.2 337.9 334.3 332.5 331.1 329.2 330.4 332.1 334 335.9 337.9 338.4 338.8 341.6 345.8 351.9 355.9 358.5 361.1 363 362.7 361.1 360.2 357.9 355.5 352.1 348.5 344.8 341 337.2 333.5 330 326.5 323.1 319.6 316.1 304.7 305.7 312.3 310.6 310.9 312.5 311.2 308.1 308 301.5 296.9 295.7 295.5 298.2 297.1 296.4 293.2 286.8 280.1 273.5 272.3 272 270.5 266 263.4 259.6 258.2 255.1 252.7 249.1 248.4 245.6 244.1 242.7 241.9 241.1 239.4 234.6 231.9 231.4 230.5 223.8 220.3 219.5 225.7 230.4 233.4 236.9 237.1 240.5 242.9 240.4 234.7 226.3 213.3 203 192.2 182.8 182.3 182.5 182.1 182 181.9 178 173.9 173.5 173.7 176.3 180.8 185 193.2 196.9 194.5 197 207.4 219.5
415.4 413.7 410.4 407.1 403.7 402.8 399.4 395.5 391 386.8 381.2 377.1 373.2 369.6 366 362.2 359.4 357.5 354.5 352.6 354.7 359.6 362.7 365.4 368.4 370 369.5 369.3 369 369.7 369.5 367 363.5 361.2 359 356.6 352.7 348.7 344.6 340.8 338.7 336.4 334.6 331.6 327.8 323.9 321.8 313.8 306.7 310.7 310.9 312.1 312.1 313.5 301.5 306.9 311.2 312.8 314.6 316.8 319.1 321.5 324 329 334.5 341.2 346.4 353.4 359.6 366.1 371.5 376.8 382.8 387.6 386.9 385.2 383.1 380.2 378.8 373.6 371.2 369.9 368.6 365.1 360.7 355.1 348.4 344.2 340.2 336.1 332.4 331 330.7 331.5 333.2 334.9 336.8 338.8 340.8 342.7 343.1 346.6 353.2 359.4 364.6 367.1 369.4 370.3 369.2 367.4 363.3 358.4 355.1 351.2 347.6 343.8 340 336.5 332.9 329.7 326.5 323.4 320.3 316.8 312.7 308.7 304.5 303 302.3 300.5 300.9 297.9 295.1 289 285.3 285.7 285.8 287 288.4 287.9 282.4 276.6 272 267.6 269.7 267.1 262.5 261 256.3 255.1 251.6 249.1 243.8 243.5 241.2 239.9 238.6 236.1 233.8 231.4 226.3 225.3 226.6 224.7 225.2 220 213.2 211.4 215.7 220.8 224.4 224.2 227.4 230.4 228 224.4 221.5 207.9 200.1 191.5 180.8 178.7 180 180.4 179.2 176.5 174.6 174.6 174.1 173.7 174 179.4 186.2 194 200.6 202.3 205.3 206.5 206.7 215.6
416.2 415.9 415.8 413.5 412 406.7 403 398.6 393.8 389.1 384.2 379.6 375.6 371.5 368.2 365 363.4 361.6 360.6 359.5 359.2 362 364.2 366.9 369.4 373.1 372.4 370.1 370.9 368.3 366 363.7 362 358.4 356.5 353 348.7 344.8 341 337.6 335.6 333.5 331.5 328.4 324.6 320.7 315.4 319.9 320.7 319.5 318.7 316.4 314 315.2 302.9 307.3 312 313.7 317 319.5 321.9 325.1 328.6 333.2 337.1 340.7 346.2 353.5 362.3 370.6 375.9 381.2 387.4 390.5 389.3 388.3 383.7 381.6 377.1 373.9 372.8 371 368.2 365.4 361.2 352.1 346.5 341.7 338 334.3 331.2 331.4 331.5 334.2 336 337.7 339.6 341.7 343.8 345.9 347.4 352.7 359 366.4 371.9 374.4 375.4 375.4 373.1 369.7 364.1 358.6 354.3 350.3 346.5 343 339.5 335.9 332.4 329.1 325.9 322.8 319.6 316.4 311.6 307.3 293.8 296 293.7 292.7 290.3 287.9 283.9 280.4 279.3 279.9 278.7 279.2 280.2 277.1 273.6 271.1 268.7 263.5 260.7 258.6 256.4 254.9 251.8 247.3 247.8 243.5 238.2 236.8 235.1 232.4 231 229.1 227.8 218.2 220.2 220.4 221 218.1 215 214.5 209 206 205.3 212.4 208.9 212.2 211.7 210.7 206.8 207.7 199.8 193.9 188.2 181.5 179.1 177.9 177.3 176.5 175.2 174.6 174.2 174.5 173.9 174.2 177.7 184.6 192.9 202.8 208.6 211.1 211.1 212.5 212.2 213.9
411.9 414.4 414.3 411.8 408.9 405 402.6 397.8 391.6 386.6 381.8 378.2 373.3 371.1 367.2 365.6 367.1 369.4 365.6 366.5 361 363 365.5 367.7 369.2 373.2 372.3 368.6 366.4 363.1 360.3 359.4 358.1 353.7 350.6 346.8 343.2 339.6 336.4 334.4 332.4 330.3 328.3 324.8 321 319.1 324.5 324.5 324.1 323.4 322.6 319.6 317 308 305.3 309.3 312.2 315.5 318.8 321.9 324.4 328.1 332.5 336.6 340.3 343.9 349.8 357.8 366.4 373.4 379.7 385.6 390.5 389.7 388.5 386.9 383.7 379.8 376.4 374.8 372.7 369.9 366.7 363 357.6 349 343.9 339.4 335 332.5 332.9 333.1 334.6 336.4 338.7 340.5 342.6 344.7 346.8 348.9 352.2 358.6 364.5 370 375.8 380 380.8 378.4 376.1 370.3 364.4 358 353.1 349.1 346 342.5 338.9 335.4 331.9 328.5 325.3 322.2 319 315.2 310.1 305 298.8 282.7 287.5 285.2 283.2 280.3 276.7 274.3 274.8 274.1 272.9 273 273.5 273.5 270.7 268.2 266.6 262.6 258.3 254 251.1 249.3 248.6 245.5 243 238.3 231.4 233.2 231.2 226.2 224.3 223.4 213.6 213.5 215 216.2 214.6 208.4 207.7 206.2 201.1 201 196.9 199.8 197.4 193.7 189.2 190.9 187.5 186.5 188.2 183.9 180.4 178.9 178.3 178.2 176.9 176.1 175.2 174.4 174 174.3 176.6 176.2 183.2 191.3 201.4 207.8 212.1 215.3 217.5 219.1 217.1 219.8
