ncols 200
nrows 83
xllcorner 240000
yllcorner 821200
cellsize 50
516.1 513 513 512.6 510.9 510.4 509.3 507.7 507.2 507.6 507.2 507.2 501.6 501.7 502.4 509.9 514.2 519.7 522.3 528.5 526.3 522.8 531 536.6 535 531.3 527.5 516.7 500.2 496.4 489.1 480.5 472.4 463.5 459.4 458 458.7 454.8 452 443.9 436.5 434.3 430.8 424.9 422.6 421.6 418.3 416.4 413.4 410.1 405 400.9 395.1 389 383.9 378.7 371.2 365.4 362.3 354.1 349.1 341.7 341.7 339 331.8 327 324 324.8 326.5 326.9 329.7 325.8 321.5 332.4 339.5 344.9 348.8 348.9 351.4 351.1 349 359.3 370.4 371.6 368.3 376.6 379.7 377.6 371.6 371.3 370.8 375.3 376.7 383.5 391.1 396.2 397.4 399.8 399.1 402.4 410 418.7 417.2 418.6 411.3 414 423.8 435.2 441.4 444.7 451.7 458.9 460 456.5 438 421.9 410.3 407.4 405 404.7 405.6 408.1 407.3 402.3 394 391.2 390.9 394.3 395.6 399.5 403.9 404.4 405.9 408.1 407.8 413.8 426 426.3 429.9 425.1 424.8 427.9 428.6 427.5 425.7 418.6 409.3 402.7 398.1 391.5 382.7 373.1 366.4 359.9 353.7 351.5 347.2 342.7 337.7 333.7 328.9 322.7 315.9 310.6 305.2 306.2 308.4 309.3 309.8 310.2 310.7 310.3 310 309.7 309.6 309.5 307.7 305 302.6 299.6 298.7 296.2 294.1 291.1 288 286.4 284.8 281.1 276.7 274.3 271.9 269.5 266.2 262.7 260 256.9 255 253.3 252 251.1
511.4 510.9 510.7 510.4 510.3 510.3 508.8 507.1 503.2 503.2 502.8 504.8 498.2 497.7 499.6 507.5 509.3 515.4 515.8 518.1 520.1 520.2 523 527.5 527.6 525.2 514.8 501.7 491.4 482.1 478.8 468.6 462.4 455.8 454.2 449.9 447.7 447.2 441.5 436.6 432.7 434.6 423.7 416.6 414.2 412.2 409.7 409.2 405 401.5 396.6 390.9 383.8 377.9 372.2 364.9 359.4 355.2 353.4 346 340.5 335.7 332.4 329.1 326 327.3 329.2 329.7 328.9 331.4 330.6 332.3 335.2 337.7 346.7 346.7 350.2 351.3 351.8 351.7 353.4 373.1 374.8 377.1 384.1 383.8 385.9 378 374.8 376.2 377 380.4 382.9 391.8 395.8 400.2 399.4 397.9 398.7 405.9 414 418.7 408.9 409 411.4 423.5 430.5 437.4 440 444 452.4 457.8 455.9 445.9 430 419.3 409.6 409.7 408 406 407.8 410.4 409.8 404.2 396.5 393.3 393.6 394.7 399.2 400.5 400.9 402.6 404.7 405.4 406.9 415.9 425.3 424.5 427.5 422 423 425.9 424.7 423 420.7 414 406 401.8 394.2 387.3 378.8 370.8 365.6 361.4 356 353.9 349.4 344 338.2 333.3 328 320.5 313.5 309.1 308.6 312.5 313.4 313.6 313.9 314.3 313.7 313.5 312.6 311.1 311.1 310.1 308.7 306.3 302.9 299.5 297.3 295.5 293.2 289.7 288 286.8 284.7 279.9 275.9 273.4 271 268.6 264 261 258.4 255.4 253.7 252 250.2 249.4
510.3 510.1 510.2 509.9 509.1 508.3 506.6 505.2 499 498.2 499.1 496.8 491 494.8 496.3 503.7 500.4 505.1 509.2 509.1 513.5 514 512.8 514.1 514.7 508.9 497.1 487.6 477.8 473.1 463.7 457.2 452.4 445.5 444.8 439.2 439.1 438.2 434 432.5 427.4 423.4 416.1 408.8 406 405.1 402.9 400.3 398.6 392.4 387 380.1 374.3 367.3 362.3 356.2 350.9 348.5 342.9 338.8 334.9 331 328 325.6 326.1 330.4 329.9 329.7 332.8 335 335.7 339.1 346.3 344.2 350.2 351.1 351.4 352.4 354.3 355.7 364.9 376.4 388 392.9 395.2 388.8 384.7 378.6 378.4 380.7 381.3 381 383.1 394 398.2 400.8 401.2 399.3 399.9 412.6 412.5 408.9 408.9 408.9 419.5 425.4 429.7 437.5 437.9 444.6 449 448.3 447.2 431.8 422.4 417.5 411 411.3 408 406.3 411.6 414.7 407.2 402.5 398.8 400.5 396.5 397.2 402 401.9 401.5 403.7 411.7 406.9 406.5 417.2 420.5 420.3 420.7 419.9 421.1 424 422 419.9 415.5 410.1 404.7 398.5 392 385.3 376.6 373.8 368.2 363.3 360.2 356.7 353 345.4 339.6 333 326.1 318.4 311.2 312.6 316.3 318.3 317.4 318.2 318.5 317.4 317 316.1 314.6 313 311.6 310.7 309 306.8 303.4 300 296.4 294.7 291.4 289.2 287.4 286.6 282.4 278.2 275.2 272.5 269.8 265.5 262.6 259.6 257.1 254.2 252.4 250.5 248.7 247.5
509.5 509.4 509.4 509.4 506.4 503.1 500 494.7 493 490.8 488.6 486.8 485 484.5 486.4 487.1 492 494.1 493.8 491.5 496 498.7 494.6 497.4 496.3 491.6 481.6 474 467.6 458.4 453 446.9 439 435.1 436.2 433.7 429.9 429.2 428.4 426.9 418 407.7 402.8 398.6 397.3 396.4 396.5 393.3 389.7 382.4 375.7 370.9 363.8 361.6 356.1 349.9 346.5 343.8 338.2 333.1 330.3 327.8 325.8 329.8 330.3 331 333.9 332.1 340.8 341.9 340.8 351.3 350.3 349.4 350.2 355 356 359.8 361.8 370.3 386.4 400.3 412.8 412.5 400.4 388.5 383.8 384.4 382.9 383.5 381.6 382.1 385.1 391.2 398.5 401.2 401.1 400.7 410.3 416.4 408.9 408.9 408.9 414.8 415.7 418.3 422.8 427.7 432.1 435 433.2 428.9 424.9 422.5 420.3 416.8 412.6 412.2 407.5 408.2 412.9 414.6 408 402.5 400.3 399.5 398.3 399.9 403.4 403.5 402.6 404.4 408.3 408.4 408.7 418.3 419 418.2 417.4 416.9 417.8 419.6 416.9 415.6 409.8 406.6 402.2 396.4 390.1 385.3 383.7 379.7 371.2 368 364.8 360.1 353 346.1 340 332.2 324.5 316.9 315.6 318.3 322.4 322.3 321.4 322.3 323.1 320.6 320.2 318.7 316.7 314.7 312.7 311.3 310 306.6 302.6 298.7 295.4 293.1 290 288.5 286.9 284.6 280 275.5 273.4 271.1 266.8 264.2 260.9 257.5 254.7 252.8 251.1 249.3 247.4 246
508.7 509.8 511.3 511.5 510.2 505.9 499.3 497.5 492.7 490.3 489.8 485.3 481 481.9 485.9 485.2 492.9 491.2 489.4 486.1 484.8 481.3 481.5 488.2 475.6 466 467.4 461.9 452.2 448.2 446.3 440.1 433.1 432.4 431.4 425.8 418.5 416.2 417.5 415.2 407.1 404 396.2 392.3 387.4 387.9 387.1 383.3 378.7 372.3 367.1 359.7 356.3 352.7 349.4 344.1 340.6 337.7 330.8 328.1 327.2 326.1 331 332.3 333.9 334.1 336.2 342.4 344.6 348.4 355.3 355 353.6 353.3 360.2 358.3 362.7 369.2 376.1 384.9 400.6 416.5 421.7 409.4 398 389.1 390.1 392.1 392.8 388.1 383.7 383.6 385.5 395.9 402.8 406.1 402 406.5 408.2 409.1 408.9 408.9 412.6 413.5 411.9 411.9 411.9 414.9 419.2 422.2 423.4 421.1 420.2 421 420.5 417.2 415.7 414.1 412.1 410.3 413.1 411.6 408.1 405.1 402.4 402.1 400.4 400.8 404.8 404.7 404 409.1 412.8 411.5 412.8 418.4 419.5 418.3 414 410.9 411.3 412.3 410.5 408 406.8 404.5 399.2 393.6 394 393 387.5 381.8 374.3 371.4 366.7 360.7 352.1 345.1 339.4 329.9 323.7 316.4 320.9 325.2 324.3 325.8 326.8 325.1 323.8 324.1 323.5 320.7 318.2 316.5 314.4 312.3 310.1 305.3 301.7 297.3 294.4 291.2 288.5 286.9 284.3 281.5 277.9 273.6 271.4 268.6 265.6 261.6 257.7 254.8 251.9 250.5 250 248.1 246.2 244.6
508.5 509.2 510.6 512.1 509.7 502.7 498.6 495.6 488.8 487.3 485.4 485.7 478.9 482.8 485 481.5 487 485 485.2 485.2 481.4 480 484.9 485.7 479.9 475 459.7 456.4 445 439.3 438.4 436.9 427.7 423.7 420.3 414.3 408.2 405 401.9 401.6 400.9 394 387.7 384.2 382.7 380.9 377.7 373.4 367.9 363.5 360.1 351 349.5 345.4 342.7 338.7 334.6 330.8 328.1 327.4 330.7 329.5 332.3 335.8 338 343.5 342.3 347.9 348.5 358.8 358.4 355.8 357.6 359.3 362.6 365.1 373.4 379.3 384.3 394.2 402 414.6 417.1 405.8 398.4 394 393.7 395.1 397.5 398 395.4 397 395.1 403 405.8 405.8 410.3 420.6 418 411.5 409.2 417 415.7 413.2 411.9 411.9 411.9 411.9 413.2 414.6 418.2 418.2 419.6 419.9 418.9 416.8 414.9 414.2 413.7 411.5 410.8 408.7 406.4 407.1 404.8 403.7 404.5 405.6 408 408.2 407.3 416.7 414.9 413.8 416.8 420.1 420.5 413.1 409 409 409 409 409.9 410.6 408.5 404.9 400.5 401.6 406 400 390.2 380 375.6 371 365.4 357.5 349.5 343.4 337.2 327 320.7 320.5 326.8 327.1 326.9 327.8 330.3 327.1 327.9 328.2 324.9 320.7 319.5 318.5 316.2 313.4 308.3 305.1 300.2 295.9 292.8 289.2 287 284.4 281.9 279 275.1 271.8 269.1 265.9 261.9 257.5 254.2 251.5 249.8 249.4 247.6 247 245.1 241.7
507.7 509.2 510.4 510.2 506.9 500.3 496 490.5 485.7 483.9 482.7 483.1 476.2 476.5 478.1 477.8 482.8 482.9 484.9 480.8 476.5 477.5 476.9 476.7 472.2 462.6 453.2 448.9 444 439.8 436.9 430.1 418 412.8 410.2 406.4 400.9 399.3 395.1 391.8 387.7 385.2 382.5 378.7 375.3 372.8 368.3 363.2 358 355.8 352.3 345.6 342 340.7 337.6 334 331.2 329.3 328.2 327.1 331 333.2 336.9 340.4 339 343.3 343.4 350.8 353.6 356.8 361.8 356.4 361.2 363.6 368.1 368.8 374.9 379.1 388.2 393.5 399.8 411.7 407.9 404.4 403.2 400 396 400.6 406.1 403.8 401.3 396.5 397.8 400.4 404.3 414.1 416.7 422.3 420.4 410.1 416.9 418.6 415.2 413.3 412.1 411.9 412.8 424.5 428.8 429.2 418.6 421.1 421 420.8 421 418.6 415.6 415.8 414.7 414 410.1 408.7 410.7 410.2 411.7 412.4 420.9 419.6 417 412.9 413.8 415.2 415.9 415.6 414.1 415.8 410.4 409 409 409 409 409 411.8 411.3 409 406.5 406 416 412.6 405.3 389.8 380.6 376.1 368.4 363.4 352.5 343.6 338.6 332.8 324 319.7 322.9 330.1 328.1 328.1 334 331.5 331.4 330.9 329.8 325.7 320.6 323.1 319.2 316.1 311.6 307.8 304.8 298.6 294.7 291.2 287.3 284.8 282.2 279.6 277.1 274 268.6 266.4 263.6 258.5 253.9 250.4 249.8 249.8 250.8 248 246 242.6 237.9
508.5 509.7 508.7 505.3 502.5 497.6 493.9 488.1 481.3 477.5 479.7 477.1 475.1 473.6 474.7 474.3 477.5 478 477.3 472 468.3 466.9 464.6 463.8 459.1 453.2 443.7 439.6 438 431.4 426.8 420.8 413.9 411.1 401.2 394.4 390 386.8 388.2 387.8 383.4 377.9 374.4 370.3 366.5 362.8 360.5 355.9 353.1 347.3 344.8 339.5 337.8 337.2 335.2 331 329.2 328.3 327.5 332.1 332.5 335.5 341.5 342.4 341.4 344 347.8 356.8 357.2 366.1 363.7 360.4 362.8 369.2 367 369.7 374.8 380.4 389.4 395.7 398.8 408.4 408.9 406.6 410 407.5 413.2 418.3 417.4 414 405.3 399 401.4 403.2 407.8 417.9 416.2 424.5 424.4 413.1 413.5 414.8 416.2 417.2 413.6 417.6 429.4 435 441.7 439.3 418.4 420.4 420.7 421 422 418.9 418.6 417.3 416 415 412.7 416.5 414.9 415.9 427 428.4 426.9 420.1 419.2 418.7 416.3 421.5 427.1 423.2 421.5 413.6 410.5 409 409 409 409 412.3 413.3 412.4 410.3 409.1 420.2 421.1 411.4 396.4 387.5 380 375.2 366.6 360.1 346.1 337.4 333 328.4 322 319 324.2 332.8 329.6 331.3 337 333.9 334.8 332.2 328.3 324.7 322.9 323.9 317.4 312.7 309.5 307.3 301.7 296.6 293.8 290 286 282.7 280.5 277.9 275.4 271.9 267.5 263.9 260.8 255.6 250.9 248.1 249.7 250.6 249.7 247.5 244 238.9 232.4
505.6 506.1 504.2 499.9 495.2 493.1 488.7 484 476.5 473.9 475.9 469.7 466.3 468.3 467.4 467.5 466 468.9 466.6 464.2 460.7 457.4 454.2 452.8 447.5 441.5 438.7 431.2 423.1 419.7 410.6 409.2 406.3 404.3 397.3 392 387.7 386 384.4 381.2 378.4 371.8 364.3 360.8 356.7 352.6 352.6 352 349.7 343 339.2 336.3 335.3 333.8 331.3 330.9 329.2 328.7 328.4 333 336.8 335.9 337.8 341.4 348 349.7 356 359.3 360.5 364.5 364.8 362.1 364.5 373.5 370.4 377.3 381.2 387.3 396.5 403.9 418 422.8 417.8 416.2 418 414.9 419.9 423.5 421.3 413.4 405.4 402.5 403.4 407.2 416.4 418.8 421.5 426.4 427.1 415.7 415.1 416 417.6 418.7 417.2 424 435.2 441.1 449.1 443.5 421.5 421.5 421.5 424.8 424 422 419.5 417.9 416.8 415.8 414.4 414.1 418.5 424.3 434.3 435 433.7 431.8 428.8 425.8 419.5 427 428.6 429.2 429.9 424.9 416.8 413.4 410.1 410.4 411.3 414.2 413.9 413 411.8 418.1 425.6 425 407.8 391.9 383.4 379.2 371.7 361.2 351.7 341.1 334.4 332.9 328.6 321.9 320.9 325.2 329.1 334.8 336.7 339.2 336.9 336.8 329.6 326.8 323.8 323.5 323.1 315.7 311.8 308.7 305.2 299.3 295.7 292.2 288.6 284.6 280.6 278.3 276.1 273.5 267.8 263 260.7 255.9 251.3 247.9 245.9 249 251.2 247.2 246.2 241.1 231.5 217
497.8 498.7 495.7 494.7 489.6 484.8 479.1 475.2 468 466 464 461.7 460.2 459.5 460.7 458.6 460.6 460.1 460.4 457.8 449.4 443.7 441.3 440.8 437.5 428.6 424.9 416.5 412 408.8 401.3 398.1 397 395.1 389.1 381.6 380.1 379.4 379.6 372.5 367.4 359.8 356.2 353.5 350.4 348.8 348.9 347.6 344.9 338.9 336.7 335.1 333.5 332.5 330 329.9 328.7 328.4 328.1 338.6 339.4 344.2 346.9 351.1 352.3 360 363.8 370 371.5 373.8 372 371.8 377.7 381.3 379.2 384.8 386.7 395.5 403.3 412.4 430.6 427.9 419.2 420.3 423.3 424.8 429.8 429.5 425.4 412.2 404 405.5 408.3 408.4 423 424.9 427.8 434.7 423.5 413.8 415.2 418.9 419.7 422.7 424.3 430.2 437.9 444.1 450 441.6 424.4 427.1 428.8 428.5 425.7 425 420.7 419.1 418.9 416.6 414 413.8 420.7 435.3 437.9 438 436.4 436.9 434.1 429 422.5 429.7 435.7 439.9 437.4 437 425.6 417.6 415.3 416.2 417.3 417.2 416.8 415.9 419.5 428.8 429.5 417.6 401 389.1 381.3 375.8 366.7 355.1 347.7 336.9 334.2 332.4 329.2 323.1 322.5 325.5 331.8 337.3 341.7 339.5 340.2 336 328.1 325.6 324.8 323.9 321.3 314.3 311.8 307.8 302.7 297.6 293.7 289.6 286.4 283.2 279.2 276 273.8 270.4 263.4 259.3 256.7 251.3 247.8 245 246.7 249.7 250.2 246.4 244.3 235.6 217.9 213.1
493.4 494.7 491.4 487.5 484.2 477.6 471 464.5 463.5 461.7 462.2 456.4 453.3 454.6 454.2 452.5 447.1 446.5 443.2 437.2 431.5 427.7 424.9 423.7 425.2 420.2 414.5 413.4 407 400.3 398.9 397.2 390.5 386.1 376.1 375.6 374.8 372.4 367.3 366.5 356.1 355.8 348.2 351.2 343.6 340.9 343.3 343.5 340.4 336.7 335.1 333.7 333 332.3 330.1 329.7 330.2 329.6 331.8 333.7 340.4 353.5 357.3 353.2 355.8 366.4 375.3 373.4 379 381.3 371.1 378.9 390 386.5 389 390.4 394.5 405.6 412.1 422 433.3 424.4 420.1 424 425.8 425.7 431.1 432.5 422.2 409.9 406 407.5 411.5 421.4 427 429.5 434.6 421.8 421.4 419.4 424.6 425.3 424.4 426.1 430.7 434.9 442 444.3 443.3 441.3 433.1 431.3 433.2 431.7 432.7 428.5 426.5 422.5 421.1 418.2 415.3 415.5 424 438.5 440.4 440.8 440.8 442.1 442.3 434 428.8 437.5 446.9 444.5 440.6 434.8 428.4 421.7 419.3 420.4 420.4 420.3 419.9 422.2 435.4 439 425.3 408.7 394.9 383.6 376.8 369.1 359.4 350.7 341.8 335.8 334.4 332.3 328.2 324.3 323.1 329.2 334.3 340.4 343.4 340.9 339.5 329.9 327.9 325.9 325.8 322.7 316.4 313.3 309.7 304.5 300.8 295.9 291.2 287 283.7 280.6 277.5 273.8 271.2 264.8 259.4 256.2 252 246.8 244.3 243.7 246.1 249 247.4 244.8 239.1 225.9 210.2 211.9
487.1 487.6 485.1 478.6 473.1 465.6 463.2 457.1 460.6 455.3 450.2 450.5 447.3 448.6 445.8 438.5 432.4 430.1 427.2 426.5 425.7 423.7 422.7 418.8 415.3 412.5 408.4 405.2 405.9 407.5 403.7 395.3 394.6 392.2 379.3 373.3 366.9 364.6 359.5 363.5 362.5 355.8 352.2 353.7 349 339.3 339.1 339.4 337.6 336 334.7 333 333 332.6 330.7 332.5 330.2 337.7 334.1 336.2 352.3 359.2 361.3 361.6 362.6 369.4 373.6 380.3 384.8 384.9 375.3 382.1 387.2 386.6 388.4 391.5 402.3 409.5 413.1 423.9 427.8 425.1 423 423.5 425.4 424.8 426.8 424.6 415.4 408.5 409.1 416.1 420.5 428.6 431 443.8 436.7 423.5 429.5 423.9 428.5 429.2 429.9 427.8 434.5 442.3 443.8 446.3 446.5 443.5 438.7 435.1 435.5 435.2 435.5 434.4 431.2 428.5 428.8 421.7 416.3 418 428.8 439 445.1 447.4 446.2 450 448.1 448.7 458.1 461.1 455.5 445.8 440.8 432.7 428.5 423.3 423.5 424.2 423.4 423.4 427.3 438.2 448.5 441.4 419.1 402.7 388.4 377.6 370.5 360.6 352.3 346.3 338.7 334.7 334.4 331 326.7 324.3 327.8 334.5 337 344.6 343 342.3 333.2 329.2 328.6 327.5 325.2 317.7 316 311.9 307.1 302.5 298.4 293.1 288 284.6 281.3 278.2 275.1 271.9 266.7 260.9 254.7 251.5 246.7 243.1 241.2 241.9 243.2 247 243.4 238.1 226.7 211.3 208.8 204.3
481.5 480.5 476.1 469.4 461.9 456.2 452 448.1 445.2 442.1 441.2 439.7 438.8 439 442.4 441.2 443.7 445.9 446.6 447.9 451.7 453.7 456.2 457.7 450.6 440.2 435.4 434.5 430.8 421.9 410 401.2 396.5 390.9 379.5 372.8 369 368.2 367.1 366 361.4 351 348.2 350.7 342.2 337.3 337 337.4 335.4 334.8 334.1 333.5 331.7 330.8 336 332.1 331.9 340.3 342.5 356.5 359.1 367.5 368.3 373.9 372.8 373.5 378.8 388.4 391.9 388.1 382.9 378.6 383.8 387.6 390.2 393.7 402 410.1 415.9 425.8 429.5 425.7 423.5 421.9 423.2 423.9 422.6 421.6 413.1 412.7 414.2 420.1 426.5 431.7 445 447.9 436.8 429.2 428.9 429.3 432 433.6 431.4 431.9 442.3 445.2 447 450.3 449.9 449.1 444.9 442.7 442.1 444 444.1 440.8 438.3 436.1 433.7 429.6 426.2 425.9 433.9 443.4 450.5 452.3 455.3 457.5 454.7 465.2 475.5 470.4 461 448.7 439.1 434.2 429.7 426.5 427.2 427.1 426.6 429.8 441.1 447 447.7 431.6 412.3 399.7 383.9 372.3 360.4 352.7 347.2 342.8 336.9 333 334.5 329.6 328 324 332.2 337.4 341.2 345.2 344.7 337.5 331.8 329.3 328.1 326.3 319.9 315.8 314.2 309.1 304.4 300.2 295.1 289.6 286 282.6 279.5 276.5 273.4 268.4 263.2 257.6 251 245.4 241.6 239 238.2 239 239.5 241.1 237 226.9 212.7 206.8 205.8 190.1
475.5 468.4 464.9 462.7 453.7 446.9 443.8 442.2 441.5 440.6 446.7 452.9 458.7 458.7 457.2 459 466.1 473.7 470.9 466.9 465.9 465.7 468.1 468 464.4 464.5 458.8 449.8 438.6 424.1 415.2 409.7 400.9 390.3 379.3 371.7 369.5 370.6 366 361.5 357.1 348 342.5 342.3 338.5 336.8 336.1 335.4 335.1 334.5 333.9 333.8 333.4 337.2 333.4 331.9 337.5 342.4 351.9 355.5 363.9 368.5 375.3 373.5 373.7 380.3 389.1 395.6 397.8 390.6 383.8 383.6 384.5 390.3 393 399.8 406.5 412.1 416.5 425.8 424.8 425 423.1 420.2 421.9 419.8 420 418.3 414.1 414.7 423.5 423.8 430.9 439.5 453.1 445.8 434 430 434 434.6 436.5 438.4 433.3 441.9 448.1 450.1 454.7 457 457 457.5 456.8 453.1 449.9 449.4 450.1 448.4 445 441.5 440 436.5 434.5 436 439.9 451.2 456.2 459.3 461.2 464.4 476.7 488.1 482.7 475.5 461.9 448.1 440.3 437.7 432.7 431.1 430.7 430.5 431.3 439.2 449.6 445.6 435.2 422.7 408.2 390.6 377.5 366.9 354.9 350.1 341.6 337.6 334.3 329.8 327.2 327.3 328.6 327.1 334.3 337.7 344.3 345.6 343.9 335.6 332.1 329.6 326 322.5 316 313.6 311.5 306.3 302 297.4 292.3 287.4 283.9 280.6 277.6 274.4 270.4 263.8 259.1 253.4 247 240.5 237.7 233.9 233.8 234.5 234.3 233.6 224.4 210.7 207.8 199.2 189.2 177.3
467.2 463 461.5 457.7 447.5 445.6 446.3 447.4 456.8 457.7 471.5 473.1 471 468.7 468.3 470.3 474.9 478.1 478.1 475.7 473.3 471.7 471.4 472.1 474.7 462.4 456.3 446.8 432 422 420.7 412.8 400.1 387.1 377.8 370.9 369.6 367 363.7 359.6 353.1 345.7 338.9 336.2 335.8 335.6 335 334.8 335.6 335.4 333.9 332.9 334.3 339.8 337 333.1 339.5 342.9 361.1 364.1 376.4 378.9 379 374.5 382.1 393.6 397.7 407.8 407.4 396.4 392.5 389.3 386.9 393.8 398.9 405.5 412.4 415.3 419.3 425.1 422.1 420.7 422.6 417.4 418.6 419.2 419.7 418.5 416.5 419.2 427.5 428.6 435.6 449.3 450.7 446.9 434.7 435 440 437.8 440.9 435.4 436.7 445.6 452.6 458.3 463.2 462.5 462.3 465.3 476.7 468.5 457.9 455.9 457.6 455.5 451.4 445.1 443.2 442.2 442.2 444.2 445.5 455.9 459 464 469 477.2 494.2 489.6 480.9 470.4 456.4 444.7 440.8 438.1 434.2 433.5 433 432.7 438.5 451.8 449.9 443.3 427.9 415.9 399.7 383.6 371.6 359.6 352.9 348 338.8 337.6 333.8 327.5 326.3 326.1 328.2 331.9 332.8 335.5 343.9 346.4 339.8 333.5 331.7 330.1 324.5 318.7 314.1 311.9 308.7 304.6 299.9 294.4 289.4 285.1 281.9 278.7 275.2 271.5 266.1 259.3 253.3 247.3 241.4 236.2 233 227.2 229.5 230 227.5 219.9 203.9 202.2 200 188 177.5 166.4
464.2 458.7 453.8 446.3 451.6 458.7 457.4 464.5 464.3 470.8 479.1 477.7 476.1 473.9 476 476.9 479.7 480.9 479.4 479.1 477.6 476.8 475.9 482.4 471.5 457.8 450.8 441.8 426.9 422.1 417 407.9 392.7 383.8 373.8 369.1 369.3 367.7 362.7 355.8 351.5 344.9 337.5 335.4 334.9 334.6 335 335 334.8 334.4 333.8 333.7 335.7 345.5 342.4 339.4 344.6 351.8 363.2 377.5 382.1 384.9 385.2 384.7 398.7 404.3 409.9 419.7 407.6 397.1 402.4 400.3 394.8 397.1 395.7 402.5 412.5 413.9 414.5 419 416.7 419.7 420.7 412.8 420 419.3 423 423.3 423.7 425.3 429.3 435.6 446.1 454.6 451.2 441.7 439.5 438.3 442.1 441.5 445.8 440.2 444.8 454.6 460.4 469.3 472.3 468.9 477.4 487.2 488.1 477.6 461.2 463 465 461.2 455.6 452.7 450.6 450.4 450.1 450.7 453 461.8 468.2 472.2 475.2 499.1 497.6 487.7 473 463.5 455.6 448.9 442.7 438.4 436.7 436.3 436.4 440.5 449.8 454.4 446.1 426.8 420.6 411.4 388.9 376.4 363.3 353.9 348.7 341.6 336.4 338.5 331.8 326.9 330.3 331 334.4 333.2 333.4 334.8 340.7 341.4 336.1 332.9 330.2 326 322.5 314.9 312.3 310.3 305.9 301.6 297 291 286.7 282.9 280.1 277 273.2 268.5 259.8 253.8 247.8 241.8 236.2 232 225.1 220.4 225.7 225.1 215.5 202.9 196.1 192.5 186.4 179.1 166.3 150.9
459.1 455.4 459.3 457.1 464.5 465.5 469 467.3 469.1 475.4 477.5 478.7 477.2 476.1 478.2 480 482.4 482.9 483.5 480.8 479 477.5 480.2 474.9 467.1 455.2 440.3 430 419.1 415.1 410.9 400.3 385 376 368.7 366.4 370.1 365.3 359.7 353.9 350.7 341.5 340.7 335.9 334.9 335.7 335.8 336.3 336.6 335.3 335.1 335 339 345.7 343.7 351.3 360.4 361.7 380.6 387 389.4 390.8 392.5 400.5 402.3 419.2 431.3 422.6 410.6 401.5 406.5 400.9 399.5 397 395.4 397.4 406.1 410.9 409.8 412.4 413.2 411.2 413.3 411.6 415.9 423.2 420.1 426.6 429.8 427 433.4 445.7 459.1 462 451.9 442.2 440.7 441.4 443.9 445 448 449.1 456.7 463.1 471.1 477.2 473.4 477.3 484.6 495.3 493.4 482.3 472.8 470.1 470.3 466.3 465.1 462.7 458 456 456 453.4 457.9 467.3 472.3 482.3 500.4 505.7 495.1 479 468.7 463 455.3 450.7 441.8 439.8 440.3 440.4 443.6 443.3 455.5 448.6 437.4 424 417.6 398.8 381.8 366.3 356.7 347.3 341.9 336.2 336.6 331.9 328.4 329.9 335.6 334 335.4 334.1 333.9 335.9 339.5 337 335.4 331.6 328.5 322.5 317.6 312.4 310.4 306.8 301.4 298.3 293.1 288.1 284 281.4 278.6 274.9 270 262 254.8 248.9 242.9 237.1 232.8 229.2 220 212.7 218.4 213 198.8 193.1 190.9 183.6 176.9 161.4 147 136.1
469.9 470.2 468 464.8 466.6 467.3 469.1 470.1 473.5 475.5 476.4 480.2 476.4 476.2 481.5 481.2 485.6 485.8 486.3 483.8 481.6 478.6 475.9 468.8 461.8 449.1 433.7 423 412.2 410.2 404.8 391.3 380.9 368.4 366.7 364.5 368.5 360.9 356.2 357.4 347.2 347.6 340.4 335.4 335.4 337.3 336.8 337.2 338.1 337.2 336.6 336 340.4 349.5 348.3 362.6 372 380 387.3 393.6 397.4 397.3 408.6 414.6 425.8 437.6 431.4 419.3 410.6 403.6 408.9 402.8 406.6 400.8 399.9 407.3 410.8 406.6 407.7 409.6 408.9 408.7 411.5 412.3 419.9 421.2 418.6 428 434 429.9 438.6 452.7 464.8 459.5 449.1 442.9 445 445.7 448 452.7 455 456.4 463.3 474.8 478.3 479.4 480.1 486.3 498.6 505.9 500.6 492.9 480.9 473.8 475.5 473.4 472.7 469.4 467.1 462.3 458.8 460.3 465.4 473.8 480.7 500 511.2 504 486.2 474.7 468.3 460.6 454.1 446.6 442.2 444.3 446 445.6 442 450.9 452.5 444.6 428.9 422.4 405.2 390.9 376 363.6 353 343.1 336.7 333.7 334.3 329.9 327.7 331.8 335 335.5 335.8 335 334.7 339 337.9 336.5 334.4 328.6 325.1 320.5 311.7 310.1 307.5 303.7 299.9 295.5 290.2 285.3 282.2 279.8 276.3 271.1 264.3 257.1 249.4 243.9 238.2 233 229.8 227.5 217.9 209.2 202.7 194.5 183.3 188.9 182.7 179 165.4 143 130.6 122.7
476.8 472.8 467.2 464.1 464.1 466 468 470 474.9 475.4 477.4 480.2 476.1 476.7 483.3 491.2 493.3 489 488.9 484.9 481.2 479.6 474 466.3 452.2 441.4 431.1 416.5 405.9 404.4 398.4 386 377.7 365.7 360.7 360.8 361 354.8 360.7 357.3 352.1 352.3 340.9 336.2 337 337 337.9 338.8 339.5 339.1 338.5 340.3 350.2 357.5 364.2 370.8 377.9 386.2 394.8 403.2 406.2 417.8 422.6 437.8 441.3 441.1 430 418.4 405.1 405.1 409.7 409.2 411.7 410.4 412.4 418.3 415.3 406.8 407.8 407.2 407.5 408.1 410.9 416.6 420.6 419.4 416.7 425 430.6 432 442.7 456.6 470.1 461.3 446.3 445.2 449.9 448.6 450.4 455 458.9 465 468 475.9 485.2 486.7 494.3 504.3 513.5 513.7 506.7 498.4 494.5 485.5 484.4 480.4 478.3 480.7 481.6 480.2 483.8 478.2 477.8 483.7 494.9 509.1 507.5 497 481.9 470.8 464.5 457.6 452.3 444.9 446.8 447.9 445.9 443.9 441.4 452.5 447.1 434.5 425.2 413.6 395.3 382.3 370.7 359.4 347.7 339.1 331.2 331.8 330.1 328.5 327.8 330.4 333.9 334.5 334.7 334.8 339.3 339.3 338.3 336.9 330.8 324.8 318.7 311.5 307.8 307.8 304.1 300.4 296.3 291.7 286.7 283.1 280.1 277.3 272.5 266.3 258.4 251.4 244.2 238.3 233 230.4 224.6 221.6 215.5 208.5 196.9 174.4 175.3 179 175.4 170.5 152.1 132.9 119.9 109.2
477.6 475.4 469.4 466.4 464.1 465.7 468.5 468 471.9 477.2 477.6 476.8 473.3 482.5 485.3 490.1 492.7 489.1 485.6 483.5 485.5 482.1 476.6 462.3 448 436 420.6 409.9 402.8 399 392.5 383.8 374.3 362.7 356.2 355 355.2 355.7 358.7 356.5 359.7 353.4 341.8 336.7 336.3 337.6 339.1 340.3 341 340.7 342.2 348.6 360.4 360.2 368.4 380 387.7 396.4 401.5 414 427.5 433.5 441.9 449.8 445.4 444.1 427.7 412.8 407.5 407.5 410.9 414.9 421.1 420.7 425.4 425.9 423.4 416 411.8 407.6 407.7 407.3 408.8 412.8 418.4 416.2 415.3 422.2 427.1 433.4 442.4 458.4 467.4 455.2 444.4 446.5 449.8 451.5 456.4 462.9 466.8 473.5 480.9 485.9 489 502 513.4 522.5 528.3 522.5 514 509.3 509.9 502.6 496.7 500.7 498.5 497.7 500.6 502.9 505.3 493.6 495.1 496.5 502.8 503.5 496.5 490.2 482.7 464.5 461.7 455.9 448.8 447.5 449.2 445.2 441.4 440.8 441.6 445.4 435.3 427.5 416.9 399.5 389 378.1 367.8 356.1 342 330.8 330.6 329.2 328.5 328.2 328.2 330.4 332.7 333.1 333.7 336.9 339.2 339.5 339.7 332.1 325.4 321.2 314.4 307.2 305.1 304.1 300.6 296.4 292.2 287.5 283.6 281.2 278 274.2 267.9 258.7 251.5 244.9 238 234.6 231.9 226.6 221.7 219.1 214.1 206.1 189.8 170.4 167.4 168.3 168.6 159.5 139.3 125.8 109.2 96.4
480.7 478.5 471.8 466.8 463.9 465.8 467.2 466.9 473.3 476.9 475.2 475 476.5 486.7 481.8 487.2 487.7 486.8 480.4 483.6 484.7 482.6 474.1 460.5 448.6 430.5 415.4 405.6 400.8 394.2 387.3 382.2 371.5 362.2 355.1 355.3 355.5 362.2 366 359.7 364.5 353 341.4 337.5 337.1 337.9 339.2 340.9 342.7 343.7 347.5 357.3 366 364.4 377 387.5 397.6 406.7 414.2 432.6 444.4 446.3 455.1 452.9 449.4 446.5 423 415.1 410.7 415.5 423.5 429.7 432.9 436.4 442.3 443.1 429.6 429.5 416.4 410.6 408.9 408.1 409 412.1 414.4 413 414.3 419.2 425.1 432.2 440.2 451 453.9 446 443.7 446.6 450.4 452.8 458 470.2 471.4 481.5 488.2 495 508.3 515 527.2 532.7 531 527 521.4 521.4 525.7 509.2 521.1 519.2 519 516.4 513.8 527.9 527.5 522.8 523.6 515.6 499.3 495.1 487.1 486.8 477.5 463.4 459.1 452.3 448.3 449.4 445.9 440.6 438.6 438.4 439.3 431.8 426 418.9 403.1 392.9 385.1 376.1 361.7 348.7 335 329.2 329.9 328.6 328.5 328.6 328.7 330.1 331.7 333 333.5 337.4 339.3 339.4 336.2 325.4 319 315.7 307.5 301.3 301.6 300.1 296.7 292.4 288.2 283.9 281.4 278.7 274.7 269.3 259.3 249 242.7 237.6 231.3 229 227.6 219.6 216.3 214.8 208.1 198.7 183.3 172.9 155.5 162.6 166.1 154.4 146.7 131.4 109.3 89.2
489.2 481.2 471.4 463.7 463.7 465.2 465.3 464.2 469.6 473.2 468.2 467.5 479.8 481 475.8 476.6 482.3 479.2 479.8 480.8 477.1 477.4 469.2 460.1 442.1 424.5 406.9 402.9 397.9 386.4 382 377.9 369.2 360.6 362.8 361.8 365.1 370 369.4 363.8 364.1 356.4 342.4 336.8 338.3 344 340.2 343.2 344.5 345 355.4 363.4 369.4 374.2 386.4 396.7 406.4 412.3 427.9 449.1 453.7 453 456.6 449.5 446.2 438.4 421.8 416.7 419.2 429.8 441.8 443 450.8 458.9 461.1 455.2 444.1 440 419.2 414.1 412.1 411.4 410.7 417 419.2 412.5 412.1 414.4 425.7 428.9 433.2 444.5 448.4 441.8 445.7 449.2 453.1 456.1 466 470.4 481.3 487.5 493 503.8 516.4 525.5 531.4 533.4 534.1 530.2 532.4 541.6 528.2 522.7 529.4 533.2 533.2 523.2 526.1 538.5 536.4 537.2 522.4 505.8 492.1 484.8 479.1 477.5 465.5 457.4 450.3 446.5 446.3 443.2 439.7 437.7 436.9 437.2 432 425.2 419.5 406.6 396 388.1 381 370.7 354.3 341.2 331.9 329.6 328.5 328.3 328.6 328.7 329.6 330.5 334 334.7 336.3 337 336.8 335.7 327.8 321.5 314.7 306.8 299.8 298.1 299 296.7 293 288.6 284.1 281.6 279.1 275.7 270.6 262 249.4 241.8 236.6 233.2 226.3 224.2 219.5 215.9 210.4 207.3 198.7 187.4 180.3 166.4 138.1 154.9 153.3 147.8 142.3 123.1 99.3 74.4
491.9 481.2 467.5 463.7 463.7 467.1 464.6 464.3 464.8 465.6 462.1 462.8 472.1 471.6 467.5 471 476.5 475.5 472.2 472.6 469.7 468.4 463.3 454.2 439.1 417.9 399.3 395.5 386.9 381.7 378.2 374.7 367.2 367.1 367.9 370.8 372.1 374.8 375 363.9 364.4 357.2 341.7 339.6 347.9 347 341.3 350.4 347.2 346.6 365.3 368.3 370.2 381.3 397.7 405.5 409.5 422.6 440.1 459.4 459.3 452.5 447.8 446.3 443.3 439.1 426 426.1 437.2 453.9 455.6 456.2 464.9 472.3 473.7 469.3 461.6 445.9 430 421 416.8 416.7 418.4 419.3 422.8 413.7 413.9 414.8 423.2 426.6 432.8 439.4 439.9 441 445.2 450.5 458 460.6 469.4 476.6 486.4 491.9 498.4 508.5 517.2 525.4 528 532.7 538.6 534.7 542.4 539.2 533.2 534.1 534.1 539.4 535.1 531.8 535.3 534.5 533.2 522.5 510.4 497.7 485.3 478.5 478.9 474.2 465.4 453.1 447.1 445.4 441.8 440 439.1 439.2 438 435.8 427.9 417.2 409.5 395.6 386.2 378.7 375.4 360 348 339 329.9 328.7 328.1 328.4 328.7 329.5 332.6 336.7 337.5 339.1 339.4 337.7 334.6 326.7 320.8 314.7 309 298.3 294.1 296.1 295 290.8 287.4 283.9 280.7 278.6 276.2 271.5 264.6 255.6 241.2 235.8 231.6 223.2 219.7 216.4 211.9 207.8 201.7 199.1 189.1 180.8 161.7 143.1 123.5 133.8 133.5 128.7 117.1 97 76.9 60.4
491.6 479.8 470.1 465.3 464.9 467.1 465.9 468.1 466.8 460.7 460.7 460.7 463.9 463.2 460.2 464.2 468 471.8 463.7 464.4 460 457 452.2 444.1 431.7 413.8 394 387.4 385.1 377.5 376.3 372.8 370.4 371.7 374.2 381.4 380.9 379.2 376.8 364.5 370.7 357.4 341.4 345.3 348.7 345.1 348.2 349.3 350.4 349.1 367.6 374.1 380.1 392.5 403.2 411 412.3 432.8 449.2 464.1 459.9 452.3 448.9 448 445.4 438.9 431.7 433 448.9 470.7 460.3 466.3 476.2 482.1 482.7 481.4 468.7 451.6 443 429.4 429 427.1 428 421 423.8 414.2 415.5 418.1 429.8 431.8 436.7 440.9 441 445 444.6 450.7 457.5 460.9 467 477.9 486.9 493.9 499.1 510 517.7 527.6 529.8 536.8 544.9 537.7 540.8 541.1 542.6 538.8 538 540.7 538.4 538.1 535.2 523.7 519.2 514.4 504 496.8 485.8 484.9 486.1 472.7 459.1 451.4 448.7 444.8 441.9 440.9 439.9 439.2 437.2 432.7 422.5 409 394.6 390.2 383.1 375.7 363.8 349.8 344.1 333.3 329.5 329.4 329.3 329.4 330.2 333.5 337.4 338.9 338.7 339.5 340.7 338.7 332.6 324.5 315 309 299.9 294.6 291.2 291.8 289.1 285.5 282.1 279.4 277.3 275.1 272.1 265.6 256.6 246.2 233.8 228.5 221 214.8 211.4 208.5 204.8 200.7 193 187.3 179.5 160.8 134 103.7 88.5 102.6 102.1 102.7 93.7 74.6 59.4 44.4
493.4 480.2 471.8 469.2 468.5 469.7 472.1 473.9 471.8 464.1 460.7 460.7 460.4 457.4 453.8 453.8 459.1 457.2 458.7 458.6 451.1 444.9 447 436.2 424.5 408.1 391 383.8 382.2 374.9 374.9 374.6 378.6 378.5 385.1 390 388.3 386.1 377.7 369.7 371.9 360 345.4 348.9 349.6 346.2 347 349.8 360.4 351.8 374.2 379.9 384.8 402.2 407.3 413 417.5 440 457.9 460.7 457.7 453.6 453.9 450.3 449.2 440 439.2 439.7 460.4 469.6 471.5 477.8 486.5 487.3 490.4 480.1 469.8 457.5 453.4 436.3 439.6 441.2 439 429.4 424.3 417 416.1 417.6 424.7 433.7 439 441.3 443.8 446 444.9 454.5 461.8 466.7 471.9 485 491.1 496.8 504.7 510.8 520.8 525.2 531.8 544.3 548.6 544.9 545 547.2 552.3 544 541.2 546.8 543.7 544.4 537.3 524.8 518.2 512 505.1 492.3 490.6 494.4 483.9 466.8 454.4 450.2 446.2 442.5 440.8 440.3 439.7 438.4 435.5 424.3 411.2 399.6 391.5 387 381.7 367.8 353.7 345.2 336.2 331.2 330.2 330 330.3 330.4 335 339 338.7 339.9 339.3 342 342.4 340.5 328.8 319.8 312.9 301.6 294.1 289.9 287.7 288.5 285.7 281.9 278 275.5 273.7 271.4 266.3 257.3 248.5 235.4 227.2 217.8 211 208.3 206.6 199.2 201.3 188.7 183.2 169 149.3 124.5 102.4 104.7 95 81.5 69.5 56.9 50.9 46.3 35.5 31.3
491 479.4 474.8 472.3 472.4 473.4 476 476.4 475.2 466.6 460.7 460.7 460.6 456 453 447.6 446 450.7 450.7 448.7 440.2 436.6 436.2 425.6 418.8 403.7 387.8 382.5 378.6 373.8 374 375 382.4 387.5 394.5 398.3 394.5 391.5 379.7 376.3 376.6 363 348.5 350.8 350.4 349.2 348.1 351.5 360.8 355.6 376.2 386.6 389.5 404.4 412.1 418.7 431 447.1 459.3 456.1 458.6 455 459.2 452.2 449.9 443.3 444.7 448.2 465.3 476.4 480.9 484.6 488.8 489 479.8 476.4 473.1 473.2 460.3 448.8 456.8 465 450.4 441.6 432.1 424.1 418.8 417.3 427.1 436 440.4 441.7 444.1 445.7 448.3 458.4 461.4 466.7 476.6 486.3 489.8 495 502.9 509.2 521.3 527.7 533.4 543.5 548.4 545.9 550.3 560 560.4 556.1 567.3 563.8 564.8 557.9 549.4 535.8 524 510.8 501.7 489.9 492.7 486.4 474.3 458.9 453.7 448.4 444.7 440.8 439.1 438.5 438 435.7 428.7 417.8 407.3 398.8 393 386.1 375.2 360.3 349.3 339.1 333.5 332.5 331.7 331 331 333.9 340.8 340.3 339.5 340.2 340.7 343.7 342 338.2 323.6 315.4 309 298.5 291.1 286.3 284.8 284.1 281.1 278.1 274.3 272 270 266.4 257.1 247.8 237.6 227.2 218.6 207.4 205.7 205.2 198 197.9 192.7 176 149.9 153.4 146 138.7 133.7 137.5 123.3 112.4 96.6 81.7 64.1 53.7 40.2 31.5
489.1 480.4 477.3 476 475.6 477.3 477.6 478.7 476 467.7 460.7 464.1 462.7 455.3 448.9 441 440 447.1 446.1 441.9 431 429.1 424.6 419.9 409.8 398 385.2 381.2 375.6 375.3 377.3 379.1 390.4 400.6 401 404.3 403.4 396.3 386.4 385.6 383.3 365.8 350 352.9 355.5 353.1 355.9 361.2 368.3 365.3 369.5 393.1 395 406.3 415.9 420.5 433.5 448 454.3 456.5 456.5 464.3 459.5 453.7 451.7 451.8 450.9 459.4 470.8 482.6 489.7 488.1 491.5 496.5 486.6 478.1 480 479.7 466.7 464.8 478 478.2 458.3 450.9 442.8 432.6 419.6 419.2 427.3 432.3 440.6 442.2 447.1 447.5 453.2 460.2 461.9 469 479.3 485.7 487 491.4 502.3 512.7 518 523.9 533.1 538.5 544 544.4 554 561.6 559.3 565.5 573.2 574 569.3 558.4 547.9 538 523.5 508.4 493.4 487.1 486.1 476.5 464.4 457.2 452.4 445.4 442.5 438 437.1 436.5 435.8 432 424.6 415.8 405.9 396.6 390.5 380.9 365.6 354.6 347 337.3 334.7 334.8 333.7 332.6 333.4 338.2 342 342.1 341.1 342.7 345.7 345.3 339.9 329.1 320.4 310.7 301.2 294.6 288.1 282.2 281.2 279.2 276.8 273.8 270.7 268.7 266.3 257.4 248.6 240.6 229.2 221.6 213 200.2 200.2 196.7 196.7 195.2 190.1 178.2 168.2 165.7 150.7 141.4 146.6 144.5 129.9 118.5 103.7 83.8 65.2 53.4 38.2 24.7
489.5 482.6 479.8 479 481.3 478.4 479.8 478.8 477.8 469.5 461.3 468.6 460.2 449.4 442.7 432.7 432.1 438.7 441.9 434.2 424.1 421.5 421.4 413.6 400.8 392.4 383.8 378.1 375.6 378.6 381.8 385.9 396.2 405.1 413.1 411.5 408.1 401.3 396.9 394.1 384.9 367.5 354.2 356.1 358.3 359.3 363.5 370.8 373.8 371.3 366.9 395.2 399.1 412.6 418.9 425.4 439.7 449.4 455.9 457.1 456.3 462.3 462.7 454.3 456.9 460.4 458.3 467.4 475.7 493.9 489.5 492.1 498.1 500.9 487.8 479.6 481.5 480.2 471.4 475.6 487.9 484.8 471.5 458.4 446.7 437 421.9 420.1 427.4 436.2 441.9 442.8 447.6 449.2 454.3 461.1 462.3 471.6 477.5 482.3 480 487.9 501 509.8 517.2 522.1 530.6 531.1 534 548 553.6 557.3 558.9 568.7 574.7 579.7 564.9 557.7 547.7 531.8 517.5 511 490.1 486.1 476.4 465.8 459.1 455 447.2 440.8 436.9 435.6 434.7 434.1 432.9 428.1 420.9 411.7 401.9 396.3 386.5 373.7 361.2 356.8 347 341.3 337.4 336.7 335.2 333.7 339.4 346.2 345.7 345.5 347 350.7 350 346 338.5 321.6 314.8 304.2 296.3 289.2 282.5 277.5 276 274.1 271.8 269.5 266.7 263.8 258.7 249 242.6 233 225.1 218.5 204.3 197.1 195.1 193.9 196.1 192.5 189.3 177.9 170.6 159.2 149.8 148 150.6 142.6 130.1 121.6 104.2 78.9 61.9 43.8 24.3 15.3
487.2 483.4 479.7 482.2 483.3 479.1 480.9 479.1 479.2 471.2 462.3 471.9 456.8 444.8 436.3 425.7 424.7 428.9 432 426.7 418.5 411.1 410.1 406.2 392.3 387.7 381.3 378 376.6 383 384.1 390.7 412.8 418.6 420.4 417.6 411.7 407.3 404.7 395.1 383.9 369.3 360.9 362.9 367.2 369.5 370.3 373.6 376.6 376.9 362.7 396.1 405.4 416.8 421.5 434.7 443.6 454.5 461.6 457 461.4 475.5 465.2 458.3 463.2 467.7 465.1 474.5 480 496.2 490.1 503.6 506.7 501.7 492.3 481.5 481.9 483.4 475.9 481.7 494 496.4 484.1 460 445.2 441.4 426.1 423.4 431.3 436.9 441.5 444.6 448.9 450.4 460.1 461.1 463.7 472.8 477.2 480.4 476.2 486.2 500.2 507.4 509.6 518.7 529.2 526.6 531 545.8 552.6 551.6 561.9 567.6 573 569 557.8 553.4 542.7 525.5 513.3 502.3 489.2 478.9 470.4 461.5 456.7 449.7 440.8 435 434.9 434 432.9 432.2 430.2 425.7 416.6 407.4 400.9 391.6 381.3 369.5 363.6 360.1 354.8 347.9 343.5 338.7 338.7 344.1 351.8 351.2 349.6 351.5 356.7 353.9 349.8 342.3 330.1 316.5 307.2 295.7 287.7 283.1 274.2 272.7 270.8 269 266.7 264.9 263.1 258.2 250.5 244.3 236.6 227.1 218.7 209.7 200.3 201.3 196.8 191.1 192.2 191.5 183.4 178.9 169.2 156 151 156.8 152.7 137.7 128.1 118.9 101.4 74.6 61.8 32.5 15.3 15.3
484.7 482 479.3 481.4 480.1 479 482 477.6 476.8 471.7 465 469.2 448.1 439.7 432 419.1 415.9 416.8 418.4 419.4 412.1 403.7 401.7 399.1 388.3 387.3 385.5 381.3 379.4 384.6 389 407.2 420.5 428 427.5 418.9 416 414.7 409.2 398.1 384 371.2 371.3 370.3 369.5 373.4 373.8 380.3 386.1 385.3 365 396.4 410.2 418.9 430.7 441.1 448.7 457.5 460.2 462.6 476.6 483.4 468.2 467.3 478.1 472.6 475.6 479.6 481.2 486 489.2 505.1 507.5 495.2 485.2 484.7 489.7 490 481.3 487.4 499.2 497.3 483.6 461.4 450.2 445.5 434.9 427.9 436.6 435.4 441.2 446.4 448.7 451.4 461.3 464.2 468.6 475.5 478.6 476.9 476.3 483.5 498.9 502.4 503.6 512.4 521.8 525.9 530.8 545.2 548.4 549 556.3 566.9 566.5 561.1 551.6 545.3 533.4 519.3 507.9 493.7 485.6 471.9 462.9 457.7 451.4 443.7 436.6 431.4 431.6 432.4 432.4 431.8 429.8 422.3 412.5 403.8 394.7 380.1 373.6 369.3 364.2 362.1 357.1 349.4 341.7 345.7 351.7 355.6 356.9 355.6 355.9 361.5 360.6 355.8 347.9 335 323.7 313.2 302.6 289.9 278.6 271.7 269 267.3 265.5 264.3 262.6 260.8 257.1 252.6 245.8 239.4 231 221.9 213.5 202.3 203.4 205.9 194.7 188.3 190.1 185.4 182 175.6 162.1 153.4 160.1 160.7 147.7 133.8 120.7 106.6 86.4 77.5 52.2 29.7 15.3 15.3
482.6 479.7 479.7 482.3 481.3 480.7 480.7 476.1 473.6 466 461.7 460.2 445.7 435.3 428.3 416.7 407.5 408.6 407.4 409.4 404.4 397.7 396.3 391.2 389.9 389.8 390.6 383.7 383.1 390.5 406.6 419.6 432.5 438.9 432.5 422.4 417.4 415.6 411.6 401.2 384.5 378.2 378.1 374.2 373.2 375.6 378.6 384.9 393.6 394.8 375.4 397.2 409.7 424 435.7 442.2 448 457 462.6 467.6 483.4 479 473.7 474.8 487 480.5 479.5 486.8 486 484.4 490.7 504.7 499 491.4 484.2 486.9 491.2 494 490.9 495.3 495.9 492.3 478.8 464.7 460.8 447.9 443.1 434 438 440.6 440.1 447 448.7 453.5 462.6 467.1 472 475.7 479.3 476.8 477.1 483.9 493 497.3 500.1 513 520.9 524.8 531.2 539.8 544.2 546.9 550.3 561.6 556.8 549.9 542.7 534.4 526.5 511.1 500.2 488 475.4 466.4 458.1 454.8 443.7 435.8 429.4 429.2 430.8 429.9 430.9 432.3 426.5 417.5 408.5 400 387.4 380.8 372.5 363 358.2 353.7 351.2 346.4 347.9 352.3 359.1 360.2 360.3 360.3 364.6 366.6 360.1 353.1 343 328.3 317.6 310.1 296.8 285.7 275.5 266.3 262.8 260.3 259 259.6 258.6 254.7 250.7 245.5 240.3 232 223.4 215.2 204.2 201.9 206.7 208.7 195.8 187.9 190.6 185.5 178.6 175.1 158.4 160.9 160 149.6 137.6 126.3 107.5 91.6 84.1 62.4 32.8 15.3 15.3 15.3
483.5 479.8 479.9 483.3 481.2 480.2 480.6 476.3 468.5 463.5 457.3 452.9 440.3 426.5 423.6 415.1 404.5 402.5 401.1 399.8 405.3 396.9 393.6 394.7 392.1 394.6 394 389.3 390.9 399.9 412.8 425.7 436.7 446.6 434.9 425.3 416.8 415.9 408.6 401.7 388.5 382.5 381.8 380.1 377.6 376.9 386.6 388.8 408.1 401.3 383.8 397.7 414.4 429.1 438.9 444.3 450.1 465.9 472.6 476.1 485 484.8 478.9 481.5 495.9 487.5 488.9 497.9 493.7 489.3 504.6 515 512.3 497.9 491.3 494.6 505 503.6 506.4 507.8 500.9 495.2 484.1 473 461.1 447.4 447.5 445.1 438.3 444.5 445.6 447.7 450.9 455.9 464.4 467.5 469.6 471.7 475.3 476.8 480.5 487.1 488.8 496.6 504.6 511.2 516.5 523.9 529.8 535.6 539.2 543.3 545.7 547.4 544.8 536.2 528.7 521.8 514.8 500.6 490.3 477.6 467.3 460.8 456.7 447.4 437.8 432 424 426.3 426.6 427.2 428.9 428.4 423 412.5 407.6 396.3 380.5 371.5 368.1 369.2 367.4 361.6 356.1 349.3 352.9 360.2 362.9 362.9 364.4 366.4 374.4 364.6 356.7 348 333.4 321.1 312.8 304.4 293.7 282.7 273.5 263.9 258.3 254.4 253.8 254.1 252.4 248.2 243.6 238.1 232.4 222.3 215.8 206.9 200.6 203.8 206.6 195.4 195.4 190.2 182 181.9 180.2 165.8 160.9 158.5 148.7 139 129.2 111.9 95.7 85.6 65.7 32.1 15.3 15.3 15.3 15.3
479.9 480.4 480.7 480.4 479.9 481.8 476.4 474 465.4 463.2 456.2 442.6 432.7 418.4 415.5 409.8 398.6 398.6 398.6 398.6 402.4 396.6 396.8 397.9 397.7 399.1 394.8 394.7 401 408.8 416.1 435.8 448 451.6 435.1 423.3 419.6 416.1 405.9 399.3 391.8 386.8 385.4 385.3 382.2 380.5 390.7 398.4 410 399.1 386.7 399.3 415.1 430.8 441 448.2 459.8 469.6 478.7 482.2 485.2 486.7 487.6 489.1 492.8 493 507.1 505.4 502.8 497.6 516.7 521.2 522.2 510.4 509.9 520.9 529.3 521.6 526.4 527.7 514.5 500.1 487.9 487.5 462.3 450.9 449.7 448 450.7 452.3 447.6 448.1 450.3 454.8 459.1 464 468.8 476.5 479.3 483.4 485.6 489.2 491.5 495.9 509 513.7 518.4 520.7 525.9 528 529.7 534.5 533.5 536.1 529.6 522.9 510.2 504.4 498.4 489.3 476.6 467.7 460 455.8 446.6 440.9 437.2 429.9 427.8 425.7 419.8 418.1 420.9 418.7 411.1 404.6 398.4 382.1 378 381.6 380.4 371 365.9 360.6 355.7 353.8 357.2 364.8 365.1 365.7 370.4 380.2 371 362.9 350.7 339.4 325.2 316.9 307.3 296.8 289.1 281.3 270 265.5 254.9 249.2 247.7 247.6 245.6 242.1 237.3 231.9 224.3 215.8 210.2 200.2 199.5 206.5 199.6 191.6 187.6 182 185.9 178.2 176.3 168.3 168 159.8 145.6 131.4 116.4 102.3 87.5 64.1 31.3 15.3 15.3 15.3 15.3 15.3
478.6 476.8 476.2 474.6 474.6 472.3 470.5 464.7 463.2 459.2 456.1 439.3 427.2 417.4 412.8 406.4 398.6 398.6 398.6 398.6 399.4 401 401.4 403.6 403.1 398.9 393.2 398.7 409 410.9 427.1 441.1 449.8 443.6 431.8 423.7 418 413.5 405.7 399.8 395.5 389.3 388.2 387.3 386.6 383.7 396.2 404.1 408.6 403.4 389.8 402.5 418.8 431.5 445.1 453.2 459.6 475.2 486 489.6 489.6 489.4 497.9 495.9 496.5 502.9 518.1 512.4 506.4 507.8 522.6 532 530.5 522.8 528.6 535 534.3 533.2 536.1 536.1 528.8 511.8 493 492.7 471.1 457.6 456.9 455 461.3 460 452.4 450.4 455.1 461.5 466.9 473.1 472.2 479 483.9 486.1 487.9 493.1 492 498.8 510.7 513.7 519.1 523.4 529.2 532.4 527.6 522.9 520.8 519.9 517.9 509.5 497.4 487.1 484.9 476.8 466.2 457.5 451.9 454.3 449 441.4 434.3 430.6 427.3 423.4 415.1 402.4 406.1 400.4 394.9 388.3 381 383.5 385.7 379.8 373.4 369.1 359.3 357.9 356.4 356.3 360.2 365.7 367.1 369.1 381.8 373.3 366.3 355.8 344.4 330.9 318.7 312.2 303.5 292.6 282.6 275.4 268.5 262.4 252.6 242.4 242 241.2 238.8 235.9 230.6 222.4 215.2 209.5 203.6 198.5 204.6 205.5 199.6 188.6 188.9 191.6 196.2 183.8 178.8 179.6 176.2 168.6 152.1 129 113.2 91.4 66.4 34.2 17.2 15.3 15.3 15.3 15.3 15.3
474.7 471.4 471.1 469.3 463.8 461 458.5 455 448.4 446 443.6 434 426.8 415.3 410.5 404.4 398.6 398.6 398.6 398.6 404.4 404.7 408.5 407.9 408.6 398.4 396.1 401.4 409.1 411.4 433.4 446.9 445.7 437.9 430.1 425.3 419.2 412 407.6 402.6 398.9 395.7 391.3 391 387.4 390 399.6 410.4 415.7 410.7 388 404.6 419.6 431.4 444.2 451.6 458.4 475 489.7 493.1 494.1 495.7 502.4 500.3 503 516 524 520.4 520.1 527.8 540.6 546.7 538 533.4 539.2 548.6 540.1 538.1 538.5 541.6 541.6 514.5 500.1 499.1 481.9 460.1 459.5 462.9 466.5 464.7 455.4 458.4 461.8 475.2 480.8 481.5 477.7 484.8 488.9 488.8 493.3 495.5 495 501.3 512.4 514.7 518.2 523 530.1 533.8 527.2 522.4 513 507.6 499.3 494.7 486.4 482 474.4 464.7 458.8 458.6 457.6 453.1 446.4 437.3 433.2 430 425.8 420.4 414.8 408.9 402.3 397.2 398.6 402.6 398.9 391.1 387 381.5 380.8 375 357.6 356.4 356.8 359.6 367 368.6 368.9 378.5 376.6 368.6 357.3 346.8 334 322.2 313.6 304.4 293.5 284.5 279.2 270.5 266.7 261.1 247.7 238.8 239.3 238.6 232.8 228.5 220.9 211.4 205.9 204.3 197.8 198.8 201.2 195.1 193.5 193 197.6 205.8 207.8 196.3 181.5 178.9 172.3 164.3 150.4 124.4 111.5 73.6 32.9 15.3 15.3 15.3 15.3 15.3 15.3 15.3
470.2 469.3 464.8 463.4 458.6 452.2 447.6 445.7 440.2 433.6 436.2 429.6 423.8 412.8 406.1 401 398.6 398.6 398.6 398.6 406.1 411.5 410.5 407.8 411.9 396.8 396.8 398.8 406.3 417.1 435.4 444.3 445.2 437.6 431.7 425.3 422.7 411.8 408.1 405.4 404 401 398.3 394.8 393.1 403.2 411.4 425.7 429 414.3 393.4 408.2 422.6 434.2 442.9 451.1 465.4 479 496 500.7 503.6 504.1 506.9 504.9 508.4 522.8 530.6 527.6 531.2 546.7 554.3 558.5 546.5 544 552.7 556.6 544.3 540.2 541.7 546.9 540.8 517 510.4 504.3 487.2 463.4 463.5 473 474.9 471.4 462.2 468.8 473.6 488 487.3 484.5 481.5 488.5 492.6 493.1 498.6 497.9 499.8 506.3 513.9 514.2 518.6 522.3 528.7 529.2 526.6 517.9 506.9 503.7 497.4 491.8 481.1 477.5 469.1 463 462.1 460.7 458.1 450.9 443.7 438.1 434.4 430.5 423.3 422.5 420.9 418.2 413.2 419.7 419.7 428.3 421.9 410.5 404.7 393.8 381.2 372.9 364.9 366.5 366.4 371.4 375.1 375.6 383.5 381.1 374.1 361.2 347.8 336.8 325.4 316.5 305.7 294.9 285 280.4 274 267.5 264.7 253.9 238.5 239.4 240.6 237 227.9 216.6 209.9 204.8 201.8 199.3 194.7 195.8 193.6 188.9 193.1 194.1 210.3 214 213.4 202.3 187.9 176.4 166.4 152 136.1 121.7 89.5 46.7 18.2 15.3 15.3 15.3 15.3 15.3 15.3 15.3
467.3 463.7 454.1 455.5 451.8 446.3 439.2 433.3 433.8 432 430.6 426.3 422.9 414.3 403.9 401.5 398.6 398.6 398.6 398.6 411.6 416.3 410.1 406.4 403.4 397 397.3 401.4 409.4 420.8 432.3 444.2 443.1 442.8 437.7 431.8 424.4 415.2 410.9 411.2 413.4 408.7 404.9 399.9 399 410.4 424.5 437.5 430.7 413.8 397.3 410.4 425.3 432.1 442.9 454.1 468.7 485.7 501.5 506.8 507.3 515.9 520.3 517.3 516.1 523.6 533.7 540.7 543.9 553.8 561.3 562.1 554 557.7 565.6 562.5 551.3 545.7 542.6 548.2 542.8 526 520.4 512 493.2 475.2 476.7 480.3 481 477.6 480.6 481.9 485.4 498.8 494.7 491 488.5 494.1 494.5 496.7 496.2 495.2 500.2 507.8 512.1 516 517.3 522.2 525.6 529.2 523.6 520.3 517.7 508.8 498.5 490.9 481 470.7 464.9 468.4 465.9 465.5 461.6 451.3 441.9 438.2 435.3 429.6 427.3 432 431.9 427.1 435.2 433.6 443.2 441 433.4 421.5 411.7 405.3 396.5 391.9 384.8 384.6 378.1 380.8 384.6 391.3 388.1 379.3 366.4 351 340 330.8 321.5 310.8 301.1 292.3 283.7 276.5 270.9 265.9 254.2 246.4 238.9 239.6 237.9 232.4 223.2 217.4 205.9 200 200.7 196.1 193 191.5 190.5 190.3 191.7 200.8 216.3 216.9 215.5 204 190.2 178 164 144.5 131.4 100 66.9 33.6 15.3 15.3 15.3 15.3 15.3 15.3 15.3 15.3
464.6 460.1 452.4 449.9 448.9 438.2 433.5 431.8 431.5 435.9 430.5 425.8 422.4 410.8 402.9 400.6 398.6 398.6 398.6 404.7 417.3 416.6 412 410.9 398.7 397.3 400.7 403.8 410.8 420.7 434.5 450.3 451.2 451.1 444.3 437.1 425.5 416.2 415.3 420.1 420.2 415.5 411.3 405.7 407.3 420.1 434.1 457.9 432.2 414.3 406.1 410.4 427.2 432.9 447 457.4 472.6 488.3 502.9 505.9 509.2 527.2 531.8 537.9 537.9 547.6 554.1 567.5 554.7 564.4 575.4 577.8 561.2 568.6 568.3 559.8 552.4 550.7 549.4 551 544.5 533 522.7 515.1 496.6 484.7 493 496.7 489.7 484.7 491.9 490.5 496.2 502.8 502.1 496.3 493.7 494.1 495.8 495.6 494.4 493.1 497.3 506.1 515.3 517.2 517.5 526.7 528.4 534.4 529.7 532.9 517.7 503.7 493.8 485.7 479.5 472.3 476.4 478.6 477.3 476 464.2 450.9 441.1 437.8 433.5 433.1 439.2 449.1 444.9 437.4 446 452.2 447.7 443.3 431.5 428.6 422 410.8 404.5 402.6 407.6 397 387.7 391 401.3 396.2 381.3 372.1 356.7 343.2 334.9 323.5 319.5 307.8 299.7 286.5 282.2 276 265.1 257.6 246.8 243.2 239.3 235 233.5 227.3 222.9 217.2 211.2 201 195.9 193.3 191.2 190.8 189.8 189.7 189.8 202.1 213.7 218.1 209.2 199.9 189.3 176 156.3 139.6 113.5 82 51.6 22.8 15.3 15.3 15.3 15.3 15.3 15.3 15.3 15.3
467 463.1 448.7 449.2 440.1 435.4 432.2 429.7 428.1 427.8 426.3 421.5 413.6 409 402 398.7 398.6 398.6 398.6 412 419 414.9 412 409.1 398.7 399 402.2 403.2 412 421.9 434.4 446.9 454.6 459 451.1 439.9 422.9 419 420 423.4 422.7 420.8 418 411.1 411.9 426.6 445.2 464.1 432.6 420.1 410.4 410.5 428.9 435.4 446.4 456.9 477 489.7 506.4 508.3 518.4 534.5 537.1 545.2 547.8 559.5 569.1 570.2 565.9 577.3 587.6 584.3 585 587.9 596.4 579.3 558.5 555.4 554.2 550 541.4 533.1 530.9 519.2 503.7 494.2 501.4 503.2 499.5 497.2 496.7 499.7 501.4 507.8 508 499 492.3 492.3 497.5 498.3 494.3 492.6 493.3 509.1 519.8 520.7 522.8 527 534 529.1 525.8 522.9 509.7 498 488.8 482.9 477.6 483.5 489 493.6 498.8 481.5 462.6 450.2 442.6 438.2 436.7 441.3 456.5 449.9 445.2 441.6 455.5 460.3 451 451.4 443.5 438.3 429.4 421.5 421.8 417.9 413.7 403 399.8 407.8 404.5 391.2 375 359.6 349.5 337.5 328.4 322.5 318.9 304.1 290.3 279.3 274 270.3 260.7 254.1 251.1 246.3 239.2 234.5 232.8 228.2 219.8 215 210.5 203.3 193.9 192 190.1 190.4 189.9 190.2 190 199.9 211.1 209.4 202.3 194.6 184.4 171.5 153.1 122.7 96.5 66.8 35.3 15.3 15.3 15.3 15.3 15.3 15.3 15.3 15.3 15.3
478 467.7 460.3 470.6 460.4 446.4 445.6 439.8 437.5 433.8 425.6 419.2 413 407.8 400.2 398.6 398.6 398.6 402.2 411.7 416 416.2 414.2 415.9 405.3 407.8 410.4 410.1 420.2 432.5 447 461 471 465.5 456.2 437.2 427.5 428.2 426.2 425.9 424.7 421.3 420 419.7 417.4 430.3 454.6 472.4 436.4 424.3 410.4 411.7 429.3 437.7 449.4 464.3 484.8 497.3 506.7 514.6 528.8 539.8 541.9 550.1 558.9 566 574.4 573.4 578.8 589.2 592.7 587.3 595 608.8 612.5 610.5 602.2 579.6 569.6 562.1 558.6 554.6 549.1 536.6 517 507.9 514 509.2 507 507.9 505.9 506.9 503.6 514.6 513.2 498.4 492.3 492.3 494.3 494.9 493 493.7 497.8 510 522.3 520.4 521.1 529.7 530.2 522.1 520.4 515.7 500.7 494.2 491.3 480.1 489.8 502.5 514 532.5 512.9 482.2 464.6 451.9 445.7 440.9 441.5 456.1 453.1 448.1 450.6 451 459.9 463.5 461.9 454.2 448.2 445.5 440.8 436.1 433.7 430.2 417.7 412.9 421.3 407.6 394.9 378 365.1 349.6 344.1 338.7 329 324.3 314.9 301.2 287.9 282.2 272.9 267.2 262.5 257.5 252.4 243.4 236.6 234.9 232.9 226.2 218 213.1 208.4 203.6 193 194.4 190.9 190.8 190.3 190.6 191 197.2 203.6 202.7 197.2 189.1 176.2 161.5 134.5 101.6 66.3 36.1 15.3 15.3 15.3 15.3 15.3 15.3 15.3 15.3 15.3 15.3
487.3 477.8 474.6 474.4 459.2 451.1 457.2 453.6 445.1 437.8 434.1 421.6 414 408.2 398.6 398.6 398.6 398.6 406.4 414.4 429.3 424.8 420.9 422.2 417.7 417.8 420.7 423.9 436.8 446.6 458.6 479.1 475.5 468 455.5 438.7 433.8 432.3 428.6 426.7 427.1 421 420.6 423 423.3 437.1 465.3 474.6 440.1 420.5 411.7 414.6 431.5 441.9 455.5 469 490.1 496.6 506.5 519.4 530.7 538.6 541 550.8 564.1 578.3 575.8 579.4 586.7 595.2 596.9 599.3 606 621.7 628.4 627.4 617.2 605.1 601.7 585.1 572.7 565.9 563.5 550.7 538.1 526.3 525.9 517.8 516.4 524.6 513.6 515.4 509.4 518.5 518.4 502.1 492.3 492.3 494.6 493.8 492.8 496.9 503.5 510.6 520.9 520 522.3 526.1 523.7 514.6 511.6 505.3 498.7 495.8 485.1 489.9 512 535.3 534.8 531.5 511.3 479.4 467.7 452.8 446.5 445.2 451.5 450 452.3 465 464.7 463.4 468.3 472.3 470.8 460.1 455.2 453.5 450.5 446.8 439.8 430.9 424.4 421.5 420.9 403.2 383.6 368.5 357.7 349.3 340.6 335.6 326.6 317.9 312.7 299.8 291.6 285.5 278.5 271.2 265.9 258.4 246.9 241.5 237.6 234.5 228.9 223.1 216.5 212.5 206.3 198.7 196.3 194.7 191.3 190.5 190.6 198.9 200.3 204.4 207.1 202.8 192 181.8 167.4 141.4 111.9 80.8 48.3 19.8 15.3 15.3 15.3 15.3 15.3 15.3 15.3 15.3 15.3 15.3
504.5 485 476.2 470.2 458.9 459.7 462.4 454.6 446.2 440.6 432.1 422.8 415.9 407.7 401.6 398.6 401.4 408.2 415.9 420.7 431.3 433.9 427.7 432.1 427.7 431.7 437 446 449.4 458.8 476.1 496 482 467.5 454.9 441 436 431.6 428.6 428.3 430.2 420.8 424 427 429.1 438.7 457.4 459.3 438.1 420.4 415 413.4 434.3 445.8 456.6 473.6 487.4 499 507.9 516.5 529 535 538.1 545.7 568.9 583.1 580.5 582.4 590.5 599.8 600.9 604.7 617.9 632.8 642 634.4 620.3 621.5 608 593.1 589.9 579.1 573.1 564.9 555.3 545.9 535.3 530.6 528.5 532.9 521.6 519.7 516.4 523 515.7 502.2 492.3 492.3 496.6 495.9 492.9 497 508.2 512.4 515.2 520.4 520.9 516.3 513.2 510.5 506.8 504.7 501.9 489.9 495.3 503.2 519.5 528.6 529.3 523.7 503.2 473.8 458.7 451.2 448.5 453 461.1 452.6 467.2 477.8 479.5 491.1 483.6 480.4 479.7 468.7 468.4 465.1 458.2 450.3 442 436.1 428.8 423.3 410.2 390.6 375.7 364.6 354.7 347.3 339.5 333.3 324.9 313.5 305.2 297.9 292.5 286.3 282.3 265.3 261.3 257.5 247.5 242.1 240.6 231.9 228.3 221.4 215.1 210.8 204.3 198.7 198.4 195.5 193.7 191.9 197.8 207.1 209.7 214.7 210 199.5 185.6 172.2 156.5 126.2 94.6 63 37.9 15.3 15.3 15.3 15.3 15.3 15.3 15.3 15.3 15.3 15.3 15.3
510.3 486.7 475.9 470.9 459.8 469.3 461.6 457.6 453.4 442.7 432.8 425 416.4 414.5 408.5 411.6 416.8 418 419.9 438.1 446.4 441.2 440.1 441.2 442.4 447.1 458.2 457.3 464.5 474 489.8 499.2 483.2 469 456.2 446.3 440.4 433.2 428.8 426.1 428.1 424.3 429.2 429.1 432.9 445.3 464.3 454.8 435.3 426 418.5 412 430 443.8 452.6 474.6 490.8 498.5 506 515.9 524.1 533.5 536.2 550.4 575.3 581.5 584.9 584.9 591.8 603.3 605.8 615.3 633.5 643.5 646.7 638.5 632.5 625.2 618.4 608.3 601.8 590.5 587.7 576.2 563.2 558.1 544.7 539.8 538.6 541.1 526.8 524.9 524.7 530.7 519.4 505.3 494.2 492.3 495.8 495.3 494.2 495.3 505.7 508.6 515.1 517.2 518.9 512.2 509.1 508 505.9 504.5 495.3 493.3 505.8 509 510.6 509.2 508.9 506 486.6 465.4 457.7 452.5 459.9 468.5 467 467.5 481.3 485.1 495.7 501.9 497.4 495 483.5 475.5 480.2 474.5 464.4 454.5 446.7 440.3 426.3 409.7 399.2 379.7 370.5 363.6 352.3 344.2 338.5 330.5 320.3 311.6 301.6 293.7 285.4 284.4 274.5 264.4 255.7 253.1 247.2 246.3 241.9 235.2 232.2 224.7 216.4 208.9 201.7 201.5 201.9 196.5 193.8 193.4 202.8 207.6 213.6 219.6 208.9 192.1 179.1 160.5 140.1 101.8 76.4 43.8 15.3 15.3 15.3 15.3 15.3 15.3 15.3 15.3 15.3 15.3 15.3 15.3
510.3 488.3 475.6 469.8 460.3 458.3 456.8 454.8 449.2 439.9 434.3 436.2 434.3 425.2 418.3 421.7 428.7 431.3 435.6 462.4 457.8 454.4 450.4 457 460.8 469.8 471.1 468 482.5 491.9 499.9 497.3 484 471.9 454.5 451.6 446.8 436.8 430.9 426.7 425.4 428 430.2 432.9 441.1 466.3 474.6 453.2 447.5 435.2 423 411.5 432.7 443.2 456.2 475.3 495.9 504.1 512.1 513.4 519 525.2 536.9 556.8 576.1 584.5 587.6 587.6 596.2 604.7 611.1 624.6 642.6 649.6 644.9 641.8 635.8 631.3 626.4 615.2 614.8 598.8 601.4 579.3 566.4 559.9 554.5 544.1 544.1 543.2 532.6 530.1 529.7 536.6 525.7 511.5 501.2 494.7 496.9 496.4 495.1 496 502.2 505.6 512.7 516.5 510.6 508.7 507.8 506.9 506.3 503.5 495 500.5 506.6 502.3 499.2 495.7 486.6 479 470 461.5 455.8 459.2 469.6 473.5 472.6 476.7 491.4 499.5 508 513.7 509.2 506.5 488.5 482.7 480.6 475.4 463.7 453.5 446.6 440.6 414.2 399.3 383.8 375.3 368.3 359.2 350.8 339.5 335.4 326.5 317.1 305.5 300.2 289.1 282.2 277.6 271.7 259.7 256.7 250.7 246.8 243.8 240.4 236 230.9 224.4 216.8 206.5 205.3 207.1 207.4 203.3 197 197.3 202.8 206.9 210 212.1 200.1 189.4 167.8 146 123.8 85 49.5 23.9 15.3 15.3 15.3 15.3 15.3 15.3 15.3 15.3 15.3 15.3 15.3 15.3
504.6 485.5 471.6 458.9 455.1 454.8 453 450.2 443.1 448.8 451.3 451 443.3 436 430.7 433.5 436.8 438.7 453.4 471.7 468.9 477.2 482.8 489 491.5 484.2 480.1 481.5 490.7 501.9 502.3 495.3 485.2 465.8 456.4 453.2 450.9 443.2 435.4 431.6 427.5 430.3 433.2 438.2 447.9 484.2 478.6 464.1 453.3 444.2 430.1 414.9 432 444.3 457.3 473.8 494.7 505.2 515.1 515.8 524.4 533.8 547.9 571.3 590.3 597 592.2 587.9 600.6 607.8 615.5 632.9 639.5 643.3 643.2 641.4 639.5 638.7 633.6 623.6 615.4 609.6 605.4 581.1 570 564 559.7 548.1 544.7 539.8 535.9 527.7 529.5 537.8 539.5 524.8 506.5 499.3 499.8 496.6 497.2 497.7 501 505.1 511.2 513.5 509.8 507.6 507.5 508.4 506.2 495.6 503.1 515 520 523.7 517.2 494.3 483.7 475.5 471.3 465.6 463.4 472.5 476.3 483.3 483 491.1 503.2 514.6 518.9 520.3 520.6 515.6 503.1 486 476.3 470 463.7 450.3 447.9 421 405.8 386.1 375.4 371.6 363.2 355.1 349.3 334.3 328.5 318.5 311.4 297 290.3 289.1 276.5 271.9 269.5 262.6 259.2 252.4 246.5 242.8 239.1 234.9 229.3 221.3 215.4 209 210.2 212.5 215.8 213.4 204.9 200.2 204.4 207.9 210.8 205.4 192.8 174.5 153 131.3 107 67.1 33.5 15.3 15.3 15.3 15.3 15.3 15.3 15.3 15.3 15.3 15.3 15.3 15.3 15.3
498 478.2 462.6 457.9 455 463.6 463.7 462.6 460.6 462.5 458.9 457.2 452 448 446.8 444.9 441.7 451.8 474.6 482.1 491.7 497.1 506.6 513.7 513.5 510.3 507.8 493.3 496.2 501.7 503.1 493.1 482.9 468.8 462 458.7 454.2 447.3 440.9 432 431.6 435.2 440.7 442.2 458 488.6 473.4 476.3 457.5 448.3 434.7 419.3 430.4 446.2 460.6 475.6 494.8 505.1 512.5 514.7 520.4 538.1 557.4 581.6 598.7 599.2 594.6 594 604.7 608.4 612.6 616.7 624.7 640.2 641.1 643.5 635.8 636.2 634.1 628.6 618.2 614.1 602.1 580.9 576.6 566.7 560 550.3 547.5 540.3 534.8 529.6 532.6 544.9 547.3 532.9 517.5 507.1 506 503.1 504.6 499.9 503.4 505.1 510.5 512.8 507.7 506.6 506.7 506.6 496.1 493.1 512.5 518.3 533.1 541.6 532.7 506 490.3 480.4 474 471 473 479.5 486.2 490.5 497.5 506.9 514.3 520.6 524.1 527.2 526.4 521.9 511 490.7 473.1 463.9 457.2 443.9 430.4 401.8 388.4 376.4 372.7 367.8 357.9 350.4 341.8 330.2 320 309.4 303.4 293.6 285.6 280.3 274.9 270.1 265.4 261.9 257.7 251.9 243.5 240.9 237.6 233.9 228.2 218.3 214.8 217.6 218.6 222.8 222.4 219.4 219.2 217.8 214.1 209.9 211.5 195.5 177.1 156 130.4 107.3 84.2 47.1 21.2 15.3 15.3 15.3 15.3 15.3 15.3 15.3 15.3 15.3 15.3 15.3 15.3 15.3
494.5 474.7 478.7 478.3 473.4 471.1 466.7 461.5 468.7 472 472.7 467.3 462 463.8 463.9 454.4 452.9 465.6 488.1 501.3 505.8 509 521 527.5 539.2 540.3 542.1 520.4 511.3 513.4 510.6 500 484.4 474.5 469.4 464.5 457.9 454.8 443.6 435.8 437.7 442.8 449.7 455.9 470.2 486.2 478.4 477 462.4 453.1 442.2 426.2 430.3 446 459.8 474 490.9 506.4 511 517.4 526.3 540.1 558.1 574.9 590.1 594.1 595.3 598.3 605.1 608.5 608.8 611.8 617.5 626.7 627.2 625.8 630.3 629 625.3 620.6 615.5 608.7 596.1 583 573.3 565.1 559.2 549.2 541.2 540.7 538.6 536.1 538.6 552.8 555.3 548.9 542.7 525.3 518.5 508.7 505.1 502.9 503.1 506.6 515.2 513.9 506.8 505.8 505.2 500.5 487.9 494.2 513.1 521.6 531.3 540.7 539.5 527.3 507 491 486.2 484 484 488.3 494.9 500.9 509.1 522.3 525.2 527.2 538.8 531.3 530.2 525.8 506.8 486.4 470.1 458.5 448.3 433.6 410.3 389.2 377.9 373.1 370 362.6 355.4 342.2 334.4 326.4 317.1 304.9 299 291.2 281.6 275.2 272 268.4 261.8 259.4 256 249.6 244.2 238.5 233.1 228.4 221.6 221.9 223.4 222.6 227.5 227.2 224 221.3 223.5 224.7 223 221.4 213.6 189.7 161.9 135.7 110 83.2 59.7 32.5 15.3 15.3 15.3 15.3 15.3 15.3 15.3 15.3 15.3 15.3 15.3 15.3 15.3 15.3
508.8 506.6 492 485.8 478.9 471 469.9 475.4 484.7 491.4 488.8 481.2 478.7 481.2 477.4 467.6 468.6 491.7 505.7 511.4 514.7 525.2 532.9 547.6 554.9 557 560.6 546.5 532 529.5 522.2 509 493 482.7 478.2 471.5 465.4 458.1 453.6 446.6 447.6 450.8 464.5 466.5 471.3 482.6 483.5 475.4 468.9 457.9 451.7 428.8 430.6 447.6 460.4 472.8 485.8 502.8 511.2 520.1 527.2 538.5 556 570.3 590.9 590.3 592.7 596.9 596.8 600.8 603.8 606.3 614.3 623.7 623.5 624.5 624.8 621.6 614.4 607 598.5 597.2 590.2 584 573.9 558.5 551.4 540.9 537.3 538.9 542.3 543.8 543.2 555.8 555.3 551.4 545.3 528.6 526.9 510.3 507.7 505.3 504.4 507.8 510.3 509.9 504.3 503.9 502.7 494 483.8 494.7 514.3 520.3 524.9 536.2 537.6 530.1 509.2 504.2 505.1 497.9 499.3 505 510.8 515.7 527.8 538 536.4 539.5 549.5 540.1 530.9 520.8 505.2 481.6 461.5 445.9 432.2 417.5 396.1 383.2 375.8 372.8 367.9 356.5 350.8 337.8 330.3 321.6 313.3 306.4 292.4 285.4 277.4 271.1 266.8 265.5 258.4 254.6 252 251.1 244.3 232.1 226.9 224.5 223.6 224.8 228.4 229.5 234 231.2 225 222.3 223.1 224.6 222.6 219.3 207.3 181.3 150.8 115.7 89.8 64 37.1 15.3 15.3 15.3 15.3 15.3 15.3 15.3 15.3 15.3 15.3 15.3 15.3 15.3 15.3 15.3
528.5 516.2 495.8 489.3 482.2 482.9 491.7 497.3 507 524.5 510.8 493.6 490.3 492.3 484.5 480.7 492.5 505.9 511.3 520.1 525.9 536.1 552.8 560.6 566.7 569.6 563.7 547.7 544 555.5 538.9 521.8 510.3 496.3 487.9 485.3 480.7 478.2 469 464.5 459.6 463.5 476 471.1 472.7 480.1 486.8 475.3 479 466.4 457.6 431 434.6 446.2 458.2 471.7 482.8 494 507.4 518.5 525.6 542.1 556.9 567.6 584.8 586.6 588.8 583.3 586 588.1 596.3 597.8 610.8 621.5 622.4 624.8 625 621.2 608.5 601.3 591.4 587.1 578.1 577.3 567 550.8 535.4 535.2 536.4 538.9 547.2 544.9 544.9 551.6 551.6 549.8 535 525.8 509.9 507.9 506.6 504.8 504.1 509.3 507.1 505.2 502.2 502.5 497.2 483.1 483.1 494.9 507.2 512.9 522.4 528.2 530.2 520.3 510.6 515.7 514.5 518.3 519.1 531.4 536.6 536.5 543.7 547.2 547.4 551 552.6 548.1 525.2 518 501.1 474.4 453.4 429.9 413.4 395.4 382.7 380 374.7 371.6 363.1 352.6 344.9 334 324.6 320.8 308.7 301.8 284.8 276 273.9 267.2 261 259.6 256.7 257.1 255.7 248 242.4 234.8 228 225.5 226 230.5 232.6 238.8 235.6 232.3 227.8 224.9 224.1 221.3 214.8 207.1 187.3 165.6 139.8 101.3 69.7 41.8 19.7 15.3 15.3 15.3 15.3 15.3 15.3 15.3 15.3 15.3 15.3 15.3 15.3 15.3 15.3 15.3
523.7 522.3 509.2 497 486.4 494.9 511.3 516.7 528.3 530.7 522.8 515.5 505.1 499.4 490.2 492.5 512.8 519.1 524.3 535.5 536.7 549.4 564.2 574.6 575.2 573 562.1 551.1 554.2 559.9 556.7 540.9 531.6 512.9 501.8 497.5 498.3 497.2 491.1 490.6 479.5 475.4 483.8 477.3 481 484.1 494 479.3 479.8 472.3 456.2 433.1 430.6 444.7 456.7 470.5 477.9 486.8 500.7 511.6 525.5 544 558.7 560.6 568.9 582.8 582.4 575 578.5 580.2 585 588.6 600.8 611.4 614 616.9 617.1 609.7 602.7 596.9 587.4 583.9 571.5 568.1 548.7 535.7 529.1 531.7 534.6 542.9 545.2 543.5 545.3 548.2 548.6 538.2 522 507.5 505.8 503.7 503.7 503.4 503.1 504.3 504.3 499.4 497.8 501 491.2 483.1 483.1 493.7 502.3 508.3 517.6 522.8 520.6 518.1 517.7 528.1 541.3 544.1 554.5 554.9 561.8 556.3 556.3 551.9 555.8 554.7 557.6 541.3 515.6 507.7 485.8 460.2 431.9 416 396.8 383.2 376.3 375.3 371.9 364.5 359.4 347.4 338.5 328.2 320.1 315.5 301.5 294.4 283.3 277.2 272.6 263.7 267.7 262.1 260.4 258.7 253.2 245.3 240.2 237.1 233.4 230.2 229.3 234.2 237.7 240.4 236.8 230.8 228.9 226.3 220.1 211.4 205.4 190.9 166.5 145.1 123.2 84.4 49.9 23.3 15.3 15.3 15.3 15.3 15.3 15.3 15.3 15.3 15.3 15.3 15.3 15.3 15.3 15.3 15.3 15.3
526.5 525.8 514.5 502 496.5 509.6 517.5 530.9 539 531.6 525.5 524.2 522.9 508.6 500.1 505.3 521.8 534.3 535.3 545.3 546.6 558.3 572.2 575.2 574.4 574 560.6 558.7 562.9 563.1 560.8 550.5 543.7 526.8 511.9 516.3 520.1 514 520.4 520.1 503.3 497 496.1 499.2 492.7 495.5 499.6 484.6 475.5 478.4 457.8 434.9 429.8 440.2 454.4 466.1 475.8 480.5 499.1 510.1 517.3 529.6 544.6 554.4 560.2 569.6 571.1 564.8 566.8 568.3 573.5 580.2 591.8 599.7 600.4 595 591.2 593.3 589 585.9 582 570.1 559.7 551.2 541.6 528.9 529.1 529.1 533 541.6 540.5 544.3 546.6 547.6 537.1 524.2 519.4 508.4 508.8 506.8 503.1 501.6 500.3 498.2 499.2 497 497 497.2 484.6 483.1 483.1 492.7 501.6 505.7 511.5 514.8 515.2 516.2 528 557.7 572 580.4 582.4 582 576.8 566.6 556.2 552.7 551.1 550.2 547.6 531.2 513.8 492.2 464.7 442.7 418.1 404.2 391.7 378.4 373.2 369.2 366.1 358.9 351.4 338.4 330.4 327.5 318.8 307.6 299.4 287.5 282.9 279.9 269.9 271.4 268.5 267.9 264.4 258.2 254.5 250.7 243.9 241.2 241.1 239.5 236.3 237.5 242.4 241.8 236.3 231.8 227 223.3 217.8 201.9 189.1 169.4 145.1 124.3 101 70.7 29.5 15.3 15.3 15.3 15.3 15.3 15.3 15.3 15.3 15.3 15.3 15.3 15.3 15.3 15.3 15.3 15.3 15.3
526.9 520.9 518.3 505.1 503.1 518 523.7 528.6 536.1 531.4 536.6 543 531.9 522.6 516.6 528.1 545.6 549.9 549 551.1 554.6 569.8 573.1 573.8 573.9 565.2 559.3 563 566.1 565.4 563 555.2 548.1 535.6 521.4 530.4 533.2 538.5 540.6 544.2 522 512.8 518.7 527.9 515 507.6 510.4 492.2 487.6 475.4 456.9 438.4 431 439.3 454.3 465.4 470.7 480.9 496.5 507.6 514.9 525.5 536.5 544.7 550.5 558.4 566.1 557.4 555.7 558.4 568.5 573.9 576.3 578.8 577.9 577.8 580 585 583.6 580.5 564.2 561.1 549.8 537.7 532.5 529.1 529.1 529.1 531 534.5 534.5 538 547.9 540.8 536.8 521.2 517.6 515.4 516.7 510.6 504.3 503 499.6 497.3 497.3 495.4 495.5 487.7 483.1 483.1 483.1 490.6 496.6 500.6 503.4 509 515.4 523.6 544.6 569.9 582.1 587 584.8 582 574.9 567.8 558.8 555.8 550.3 546.1 539 525.6 500.2 474.6 450.8 423.8 408.6 398.6 388.1 377.7 371.1 364 361.7 352.7 342.4 332.4 326 321.6 314.3 300 292.7 289.7 285.8 282.9 276.6 272.1 269.6 268.1 265.5 261.4 260.6 259.7 252.1 249.5 245.9 246.3 243.6 239.3 242.6 241.7 235.4 233.8 224.9 221.4 204.5 191.1 170.2 144 120.2 99.4 69 39.1 15.3 15.3 15.3 15.3 15.3 15.3 15.3 15.3 15.3 15.3 15.3 15.3 15.3 15.3 15.3 15.3 15.3 15.3
529.4 519 513.5 507 518.3 524 525.5 529.7 533.4 542.1 549.6 555.1 549 541.4 536 546 552 561.7 563.1 559.4 560.8 569.7 573 574.4 575.5 568.3 560.2 569.5 567.3 571.4 570 559 556.5 544.7 533 540.2 555.7 561.3 556.6 556.7 528 529.3 529.3 540 530.8 512.2 524.8 497.2 497.6 491.9 459.5 441.3 433.1 439 450.7 463.6 473.1 485 496.2 512.7 515.5 521.8 536.3 541.9 541.5 548.3 552 548.2 548.7 553 558.7 560.3 561.9 563.4 566.3 573.1 576.8 573.9 577.4 577.6 565.4 565.2 549.4 537.1 533.4 530.1 536.9 535.6 529.1 529.6 530 533.4 533.8 527.7 519.5 517.1 521.7 520.4 517.8 510.4 502.3 500.4 496.4 495.5 492.9 492.6 493.7 483.1 483.1 483.1 483.1 485.8 491.9 492.4 498.6 504.5 516.9 531.8 564 587 593 593.3 586.6 581 571.8 566.6 561.4 555.2 545.8 536.8 529.9 511.7 481.8 456.7 427.9 410.7 397 391.3 382 372.7 366.8 357 354 347.3 335.3 330.5 323 315.7 311.1 296.8 293.3 291 290.4 285.2 281.4 276.7 272.3 270.5 269 265.8 262.5 258.3 254.6 252.1 249.2 253 250.9 245 243.1 241 236.6 234.1 222.1 202.4 190.1 170.6 146.3 124.1 98.4 72.3 40.7 18.4 15.3 15.3 15.3 15.3 15.3 15.3 15.3 15.3 15.3 15.3 15.3 15.3 15.3 15.3 15.3 15.3 15.3 15.3
533.4 524.8 511.6 512.8 523.9 525.3 527.1 527.7 532.7 541.6 551.4 561.6 559.6 555.3 560.3 556.8 564.3 567.3 565 561.1 568.5 570.9 573.4 576.5 575.5 570.2 566.1 576.8 572.4 571.8 571.3 564.9 562.3 554 539.7 548.5 567.9 566.6 561.4 556.4 538.7 546.5 542.2 550.5 540.2 524.2 526.7 503.8 506.3 495.1 461.9 445.2 433.3 440.4 451.7 462.6 477.6 488.5 493.3 510.3 515.2 521.9 531.6 535.2 536 538.4 545.7 542.6 537.5 545.3 544.5 547.1 552.8 559.8 563.8 565.7 572.2 571.2 574.7 577.1 568.4 564 546.9 540.7 539.5 539.2 549.7 545.8 533.8 527.8 523 526.3 524.6 519.3 520.4 523 522.9 522.4 520.5 511 502.1 496.6 495.5 492.2 489.8 488.2 486.8 483.1 483.1 483.1 483.1 483.1 487.4 489.8 500.5 510.8 527.7 538.6 575.9 604.2 602.5 594.3 588.1 585.8 580 567.4 557 551.4 542.8 534.7 523.3 502.9 474.4 438.5 408.9 394.5 387.3 382 372.7 365.4 361.2 350.4 346.8 339.7 332.6 328.7 318.3 313.1 307.2 300 293.6 290.2 288 282.4 286.1 282.7 276.7 274.8 273.5 271.2 262.3 258.9 254.1 251 252.9 254.4 249.9 241.5 238.9 238.4 237.7 226.3 203.6 178.8 164 145.4 121.3 96.3 72.2 45.5 21.9 15.3 15.3 15.3 15.3 15.3 15.3 15.3 15.3 15.3 15.3 15.3 15.3 15.3 15.3 15.3 15.3 15.3 15.3 15.3
541 532 522.5 522 528.4 535.4 531.8 532.3 539.7 550.9 555.3 559.7 562.2 564.6 567.1 562.6 567.2 561.6 560 559.9 566.8 563.2 573.9 575.7 576.2 570.5 575.3 581.9 573.1 569.3 569.3 571 564.1 555.2 552.6 561.8 568.8 566.6 558 553.2 553.6 550 550.6 554.8 544.4 534.9 526.2 510.7 509.7 487 463.8 446.3 434.3 440.3 451.2 465.8 487.2 492.3 496.7 507.4 509.4 517.7 522.3 527 527.3 530.1 533.3 537.3 533.4 534.8 534.7 541.3 551.1 551.5 555.9 564.8 570.7 567.2 569.4 567 563.2 561 548.4 550.1 542.5 551.9 558.3 540.6 531.3 520.6 519.4 519.6 519.5 518.9 523.4 522.8 523.2 521.7 514.9 508.5 498.9 495 495.1 491.3 484.5 485.1 483.1 483.1 483.1 483.1 483.1 483.1 485.6 498.3 511 528.2 551.8 578.7 596.9 611.1 615.9 605.4 594.9 593.4 581.7 574.9 563.2 556.9 544.6 532.3 516.6 486.9 446.6 422.8 399.8 386.7 379.1 373.1 365 361.2 354.7 345.3 339.7 335.8 326.9 323.3 314.2 306.9 306.9 298.7 296.4 291.6 290.8 291.2 289.3 286.1 284.6 283.4 280.9 277.3 265.1 259.7 255.2 252.3 253 251.3 244.3 235.5 229.3 231.1 225.1 203.9 181.1 165.9 146.3 122.9 97.7 74.3 47.5 23.8 15.3 15.3 15.3 15.3 15.3 15.3 15.3 15.3 15.3 15.3 15.3 15.3 15.3 15.3 15.3 15.3 15.3 15.3 15.3 15.3
544.7 545.6 540.2 536 535.2 544.8 539.9 559.4 564.4 570.9 577.1 570.5 569 565 563.5 560.9 565.3 559.4 556.1 555.9 551.6 554.1 567.9 570.5 572.5 570.4 575.5 578.9 569.5 569.3 574.3 569.6 564.4 552.6 564.7 570.2 570.2 563.5 553.9 555.3 567.4 554.2 559.3 555.9 540.8 538.8 516.3 521.5 505.3 487.5 460.5 450.5 437.7 442.4 451.9 469.9 486.1 495.5 497.1 504.5 506.2 510.7 511.7 513.4 516.4 520.1 524.8 523.9 525.9 525.8 525.1 534.3 547.4 544 548.5 553.3 555.2 560.5 563.1 565.2 565.9 564 554.7 551.2 546.9 550.4 545.2 524.7 519.5 519.9 516.6 525.5 518.1 520.1 517.5 518.9 518.3 513.3 508 504.6 498.6 494.1 494.2 489.3 483.1 483.1 483.1 483.1 483.1 483.1 483.1 485.8 502.2 510.2 531.2 558.8 584.3 613.7 622.1 615.8 617.3 619.4 605.9 603.8 592.9 580.9 569.3 564.3 551.4 531.9 502.9 455.3 425.9 406.4 393.3 378 371.6 366.7 360.6 355.8 349 342.9 339.3 329.1 321.7 315.4 312.6 307.5 302 301 298.2 294.7 294.2 294.3 293.2 291.3 290 289.6 291.6 284.1 274 263.5 258.7 255.1 252.3 244.7 233.2 220.6 212.7 208.7 195.6 176.9 163.1 149.6 128.8 102.1 73 51.8 26.6 15.3 15.3 15.3 15.3 15.3 15.3 15.3 15.3 15.3 15.3 15.3 15.3 15.3 15.3 15.3 15.3 15.3 15.3 15.3 15.3 15.3
557.8 550.9 554 547 550.8 552.4 549.7 561.8 567.5 569.4 568.1 569.1 569.8 563.7 559.7 557.9 560.9 550.2 552.4 548.6 541 545.2 559.3 560.7 562.6 569.5 572.6 574.5 567.1 573.9 573.9 566.8 562 556.3 566.4 567.4 566.5 558.4 559 567.9 569.4 556.4 563.3 551.1 534.4 530.1 513.6 514.6 496.2 477.5 459.9 450 443.9 445.2 453.3 466.4 482.1 499.3 501.1 502 501.8 499.8 501.1 501.4 501.9 510.1 513.4 512.9 519.1 519.3 522 532.3 537.5 538.2 541.3 542 542.9 548.7 560.2 557.8 554.9 545.3 541.9 538.7 535.8 527 521.4 517.6 518.9 512.8 513.1 516.9 515.9 515.6 514.5 514.9 509.9 508.4 499.5 500.3 499.6 493.3 490.4 484.7 483.1 483.1 483.1 483.1 483.1 483.1 487.1 504.5 512.3 536.6 576.3 596.9 641.8 655.4 634.4 619.2 622.3 622.3 619.7 608.8 599.8 586.4 567.1 558.3 537.2 511.7 472.6 430.9 412.1 397.6 385.9 375.4 364 358.5 356.6 347.7 340.8 341.4 334.4 327 317.5 312.7 308.9 303.2 302.2 300.9 299.4 298.7 297.8 295.4 295.2 294.8 292.4 292.4 290.6 285 276.5 268.2 258.6 252.7 245.1 231.9 216.9 206.5 197.7 184.8 171.6 154.9 139 124.3 102.9 81.3 52.3 25.3 15.3 15.3 15.3 15.3 15.3 15.3 15.3 15.3 15.3 15.3 15.3 15.3 15.3 15.3 15.3 15.3 15.3 15.3 15.3 15.3 15.3 15.3
578.5 564.3 552.4 555.1 553.3 555.3 556.8 559.2 561.3 562.9 560 564.3 560.5 560.2 558.1 555.5 551.6 543.6 537.3 537.3 535.7 535 539.7 544.2 556.1 562.2 563.5 569 561.8 565.1 567.1 561.3 561 562.4 563.5 559.4 557.3 553.9 562.1 565.9 564.8 559.2 552.6 545.4 531.4 516.8 517.6 504.5 487.7 471.6 457.3 449.1 445.4 447.8 453.5 465.6 481.6 494.6 498.9 501.1 498.9 491.9 490.7 490 493.3 501.5 504.1 509.8 513.4 518 518.9 522.6 529.6 529.8 529.9 531.3 533.7 541.5 549.8 538.6 526.2 526 522.5 525.3 523.3 522.3 516.1 506.8 503.5 508.5 506.3 509.3 510.4 509.5 509.2 506.4 501.5 499.9 500.4 496.2 493.7 489.2 487.9 485.4 483.1 483.1 483.1 483.1 483.1 489.1 500.6 516.5 541.5 586.3 603.3 633.9 658.4 659.5 637.6 633.5 636 627.6 622.3 606.1 596.8 579.1 557.8 545.1 522.8 488.5 438.3 414.4 402.9 388.1 376.7 369.6 359.7 355 350.7 340.1 338.7 339.3 330.4 327.8 318.9 310.6 307.3 302.3 300.5 300.4 298.5 301.1 303.6 297.1 300.4 296.1 291 288.4 284.4 282.2 274.8 264.9 255.2 245.9 234 217.5 204.1 193.7 179.9 163.7 148.3 130.1 114.1 97.3 77.5 53.3 25.6 15.3 15.3 15.3 15.3 15.3 15.3 15.3 15.3 15.3 15.3 15.3 15.3 15.3 15.3 15.3 15.3 15.3 15.3 15.3 15.3 15.3 15.3 15.3
584.9 577.3 567.6 565.2 558.8 554.8 557.2 553.5 550.3 552.8 552.4 555.8 550.6 550.9 554.6 544 536.7 528.5 524.2 525.4 529.6 529.1 531.4 533.8 548.3 558.2 556.3 559.5 556 557 560.7 557 552 555 553 553.7 545.5 539 542.7 553.5 556.1 556.3 546.2 534.7 529.8 515.8 519.1 493.7 484.2 467.7 456.4 445.7 443.9 448.3 456.1 466 483.9 493.9 493.2 495.9 490.8 487.4 481.7 486.2 489.1 489.8 495 499.9 508.1 511.8 514 515.9 521.6 519.4 515.4 516.5 525 529.5 533.7 511.6 510.6 509.1 504.3 504.3 509.6 505.8 502 497.6 499.3 498.7 498.6 502.2 506.4 508 505.6 502 499.9 501 499.2 491.9 488.1 487.5 488.1 483.1 483.1 483.1 483.1 483.1 485.2 497.1 513.8 539 593.6 613.7 627.8 654.9 663 651 634.7 639.3 645.8 642.7 629.3 609.6 587.9 558.7 535.3 521 495.3 444.8 421.2 405.1 392.3 379.5 370.5 365.4 361.1 355.1 347.4 336.6 335.6 329.8 328.1 322.7 317.4 312.6 304.6 301.9 298.7 298.6 302 307.7 307 307.5 305.1 297.5 286.3 281.7 279.9 276 266.9 258.2 247.4 236.7 219.7 203.6 191.3 174.9 159.1 143.4 128.1 109.3 89.4 71.7 53.7 27.1 15.3 15.3 15.3 15.3 15.3 15.3 15.3 15.3 15.3 15.3 15.3 15.3 15.3 15.3 15.3 15.3 15.3 15.3 15.3 15.3 15.3 15.3 15.3 15.3
582.8 585.1 581.5 577.9 570.9 564.4 561.6 552.3 541.2 540.5 543.7 549.8 545.3 544.7 545.6 535.6 522.8 512.8 509.8 510.3 515.8 520.4 529 528.5 535.2 548.6 552.1 550.2 551 554.1 559.6 555.9 548 544.8 544.9 544.5 539.9 531 528.5 533.3 545.7 545.1 541.3 528.9 515.8 521.9 518.3 491.3 486.6 470.4 452.4 445.3 444.6 453 463.1 468.1 478.8 486.4 484.1 484.5 482.1 476.3 475.9 478.6 481.4 487.1 491.2 494.2 502.9 505 505.7 511.1 514.4 511.6 504.7 508.9 512.1 509.5 505.5 501.7 496.2 494 492.3 491 490.1 485.2 483.7 489.5 489.7 491.5 496.1 500.2 503.1 504.7 502.8 500.9 499.5 494.6 492.5 490.9 487.1 483.1 483.1 483.1 483.1 483.1 483.1 494.5 508 518.1 545.2 567.5 608 635.8 656.4 666 663.3 654.2 649.9 654.8 659.4 653 641.9 619 604.7 568.1 530.6 491.1 461 431.9 414 395.2 385.2 375.8 368 364 363.2 352.6 341.2 338.7 327.5 326.9 320.9 315.2 313.8 310.2 306 299.4 298.4 299.3 304 306 311.1 311.8 310.7 302.8 289.2 278.5 274.5 266.8 256.7 246.2 232.6 222.6 205.4 189.7 169.4 148.3 126.5 115.3 100.7 86.5 70.4 44.5 26.9 15.3 15.3 15.3 15.3 15.3 15.3 15.3 15.3 15.3 15.3 15.3 15.3 15.3 15.3 15.3 15.3 15.3 15.3 15.3 15.3 15.3 15.3 15.3 15.3 15.3
575 587.9 589.6 589.9 584.5 564.2 562.1 553.4 541.1 536.9 535.4 537.4 541.5 539.2 533.8 527.3 521.7 509.9 508.4 504 506.6 516.3 523.6 522.7 526.3 537.3 539.8 544.8 549.9 552.7 556.7 555.1 552.8 551.4 542.4 536.6 534.4 522.1 519.8 526.1 538.5 534 526 515.2 517.1 517.9 511.4 488.2 484.4 471.8 453.8 445.8 446.1 458.5 471.7 471.4 476.1 477.6 474.9 475 471.8 469 471.3 473.4 478.1 484.4 487.4 491.8 495.9 498.5 502.8 509.9 512.7 503.3 500.1 497 498.8 496.3 495.3 491.1 482.8 482.1 480.7 479 476.4 474 475.4 480.3 476.9 481.4 487.3 495 498.9 498.4 499.9 496.5 495.6 490.6 489.5 487.6 483.1 483.1 483.1 483.1 483.1 483.1 487.8 512.7 525.7 545.9 565.9 595.7 623.5 648.2 668.6 677.4 677.4 671.3 670.4 659.1 677.4 665.1 652.8 635.2 610.2 580.2 529.8 482.8 453.1 427.3 405 394.1 382.3 372.9 365.7 362.9 359.6 348.9 341.1 328.4 325.5 318.3 314.4 311 311.7 306.6 305.5 299.8 298.4 299.1 301.5 309.1 312.1 313.8 315.8 306.1 289.6 280.9 270.6 255.3 245 233.1 223.1 206.1 188.2 164.3 144.2 122.8 112.5 91.2 74 57.3 31.6 19.8 15.3 15.3 15.3 15.3 15.3 15.3 15.3 15.3 15.3 15.3 15.3 15.3 15.3 15.3 15.3 15.3 15.3 15.3 15.3 15.3 15.3 15.3 15.3 15.3 15.3 15.3
568.5 579.5 594.8 594.5 586.7 564.3 560 556.3 550 544.5 533.7 534 530.5 525.9 519.6 516.1 509.2 497.9 497.9 498.5 501 506.7 520.3 516.6 520.7 524.1 532.6 541.6 550 551.4 559 560.7 551.6 550.3 544.4 536.2 534.7 518.9 513 515 519.8 526.2 515.9 512.2 517.1 515.6 499.7 486.9 482.2 471 457.5 447.9 447.6 465.8 474.6 470.8 469.5 471.5 468.4 467.5 466.6 472.6 474.4 475.3 476.1 480 481.1 488.4 491.3 498.8 497.3 499.3 500.4 488.2 487.2 486.5 487.6 483.8 481.3 479.5 474.4 468.7 468.7 469.7 469.3 468.6 471.6 472.4 471.1 477.4 483.1 490.2 490.7 490.2 489 491.2 489.2 487 483.1 482.3 483.1 483.1 483.1 483.1 483.1 487 507.4 524.3 549.3 567.8 600.2 630.3 659 677.6 689.6 690.5 683.8 689.8 684 671 677 656.2 647.7 628.1 592.9 555.8 503.3 463.8 444.2 421.5 403.4 390.8 377.2 368.8 364.3 359.5 353.1 340.8 332.3 327.5 320.2 312.2 309.3 308.8 306.1 303 302.5 302.8 300 300.5 302.1 310.6 312 315.7 313.9 305.8 291.1 279.3 265.5 247.5 232.8 223.4 211 186.1 161.4 144.1 125.5 114.5 91.5 68.8 49.5 31.2 15.3 15.3 15.3 15.3 15.3 15.3 15.3 15.3 15.3 15.3 15.3 15.3 15.3 15.3 15.3 15.3 15.3 15.3 15.3 15.3 15.3 15.3 15.3 15.3 15.3 15.3 15.3 15.3
564.8 570.6 590.4 592.3 589 579.2 565.6 562.9 557.7 549.7 535.6 533.1 528.8 524.1 512 507.2 498.2 497.9 497.9 497.9 497.9 503.7 513.5 512.6 516.6 520.1 533.5 548.2 553.8 556.5 555.9 562.3 551.4 547.5 546.8 536.8 540.3 523.4 510.9 504.5 503.9 511.8 510.7 505.7 504.3 505.7 490.1 492.2 486 469.5 457.5 454.6 449.9 459.9 465.8 464.7 466.6 465.3 465.2 469 465.1 470.7 474 472.7 470.2 473.1 474.7 481.8 485.7 493.9 488.3 486.7 482.9 479.6 474 476.4 472.5 473.8 467.7 466.7 463.6 461.1 461 462.1 460.4 458.3 461.9 461.8 467.8 476.1 481.2 487.1 486.3 486.2 484.9 487.1 489.3 489.2 483.1 483.1 483.1 483.1 483.1 483.1 483.1 499.7 520.1 547.6 588.5 610.1 625.7 645.3 676.5 695.4 695.9 691.8 688.1 690.1 689.7 674.8 658.1 646.1 630.1 602.5 561.3 506.5 473.2 451.4 434.1 414.4 399.6 387.4 375.3 367.8 364.7 355.6 345.8 336.5 332.1 325.5 317.9 311.5 306.8 304.3 303 302.2 301.7 304 302 301.3 302.3 305.2 310.2 312.1 310.6 303.6 294.8 278.4 258.7 240 222.9 210.7 188.4 164.3 145.2 129.1 113.2 88.7 63.2 43.5 28.7 15.3 15.3 15.3 15.3 15.3 15.3 15.3 15.3 15.3 15.3 15.3 15.3 15.3 15.3 15.3 15.3 15.3 15.3 15.3 15.3 15.3 15.3 15.3 15.3 15.3 15.3 15.3 15.3 15.3
563.7 567 575.2 587.1 590.8 585.5 565.2 561.1 556.6 544.7 535.8 536 531.5 521.8 511.5 502.4 497.9 497.9 497.9 497.9 499.4 500.7 506 510.5 515 519.7 527.8 543.1 553.9 554.3 558.2 559.2 551.7 547.2 552.4 536.3 537.7 522 512.9 503 495.1 493.7 495 494.7 492.1 496.8 486.4 492.9 487.6 472.9 456.2 455.6 453 458 459.3 461.2 466.1 463.7 464.8 466.6 461 468.5 469.9 468.2 465.3 466.9 469.6 474.4 479 477.9 478.3 474.6 475.5 471.5 466.9 465.3 458.7 457.6 454.4 454.2 452.5 455.8 455.1 458.3 456.3 454.5 459.5 458.7 460.4 470.1 476 481.4 482.7 483.6 485.2 485.5 488.3 483.4 483.1 483.1 483.1 483.1 483.1 483.1 491.2 511.7 538.9 579.2 618.1 649.4 658.2 666.1 679.2 695 691.7 692.5 690.1 690.1 685 663.1 638.6 610.3 593 557.2 518.8 486.4 459.3 442.9 425.5 409.7 397.9 387.5 377.5 372.6 362.8 351.9 341.2 337.6 331.8 325.8 315.6 309.9 305.7 303.8 303 303 303.6 304.4 303.6 303.8 300.9 303.3 306.5 307.3 305.4 296.3 286.6 271.2 245.8 223.3 204 189.3 166.9 148.2 133.1 111.7 87.6 60.8 35.4 19.1 15.3 15.3 15.3 15.3 15.3 15.3 15.3 15.3 15.3 15.3 15.3 15.3 15.3 15.3 15.3 15.3 15.3 15.3 15.3 15.3 15.3 15.3 15.3 15.3 15.3 15.3 15.3 15.3 15.3 15.3
561.1 564.9 569.1 579.6 590.6 582.5 569.5 561.5 557.6 540.1 530.6 532.3 533.3 525 513 503.8 497.9 497.9 497.9 497.9 503 501.5 503.1 506.8 519.6 519.9 528.1 550.2 562.2 560.2 559.8 560.9 558 544.4 550.2 538.9 525.8 519.8 511.1 497.6 492.3 487.4 484.9 484.3 485.4 480.9 482.9 483.9 484.2 475.1 462.9 457.5 454.5 457.3 459.4 461.9 466.8 463.5 460.7 463 458.1 461.8 461 464.9 459.4 459.1 462.1 467.4 476.8 474 475 468.7 463.6 461.4 459 451 449.4 448.3 447.1 444 448.2 451.9 452.9 452 451.9 450.6 455.6 458.1 461.9 469.5 470.4 473.9 477.2 480.4 479.6 483.9 484.6 483.1 483.1 483.1 483.1 483.1 483.1 483.1 502.2 529.8 577.5 608.5 642.3 660.6 672.8 676.8 683.7 677.9 676.9 676.3 673.4 669.6 645.8 627 617.2 566.5 545.1 513.9 491.1 464.4 447.4 431 417.8 407.4 398.4 387.2 380.6 373.6 359.5 346.7 342.4 339.6 332.2 326.3 316.9 310.1 305.1 304 303.1 302.3 303.2 304.4 304.4 303.3 303.1 297 298.8 298.5 295.4 287.3 271.1 250 225 203.9 183.6 167 147.7 133.8 113.1 86.1 60.3 32.3 16.4 15.3 15.3 15.3 15.3 15.3 15.3 15.3 15.3 15.3 15.3 15.3 15.3 15.3 15.3 15.3 15.3 15.3 15.3 15.3 15.3 15.3 15.3 15.3 15.3 15.3 15.3 15.3 15.3 15.3 15.3 15.3
558.7 563.3 564.3 570.4 582.6 580.4 570.1 556.4 550.3 536.9 530.6 530.6 531.1 529.9 520.2 508 502.9 497.9 497.9 498.9 503.7 502.6 502.9 503.8 514 520.2 532.6 562.9 567.1 571.7 567.7 569.9 560 545.9 541.8 528.7 521.1 519 512.6 498.7 490.3 487.3 482.7 482.8 484.4 480.2 480.2 481.3 480.2 477.2 472.4 465.6 456.8 459.7 461.5 463.6 470.4 465.7 459.2 458.7 456.9 457.5 455.4 456.4 455.4 456 459.2 463.9 473.8 473.3 471.1 468.9 460.4 453.4 451.1 443.3 441.9 439.8 440.4 439 446.6 449 447.6 442.6 447.1 449.8 455 457.4 461.4 466.6 467.5 469.8 476.2 477.4 475.2 479.3 481.5 483.1 483.1 483.1 483.1 483.1 483.1 494 516.6 554.1 603.5 636.9 658.1 666.9 671.8 670.4 674.5 667.6 661.5 660 642.4 628.7 610.4 583.5 547 524.7 504.5 485.3 464.3 450.3 434.9 418.8 410.9 403.1 391.3 385.3 378.6 369.7 358.8 353.6 347.4 338.9 330.9 324.5 320.1 314.2 306.2 304.5 303.2 303.3 303.6 304.5 305.2 305.4 304 297.8 285.7 282.1 274.9 263.6 247.6 222.8 204.3 184.9 161.9 146.4 130 111.6 83 54.9 29.1 15.3 15.3 15.3 15.3 15.3 15.3 15.3 15.3 15.3 15.3 15.3 15.3 15.3 15.3 15.3 15.3 15.3 15.3 15.3 15.3 15.3 15.3 15.3 15.3 15.3 15.3 15.3 15.3 15.3 15.3 15.3 15.3 15.3
556.1 558.4 564.5 564.3 573.3 572.9 564.3 552.5 544 529.8 532.7 533.5 543.6 539.2 526 512.6 503.7 497.9 497.9 502 503.9 502.9 504 506.2 511.8 520.9 542.4 561.3 561.7 563 575 570.7 566.4 555 539.5 526.4 529 524.7 517.7 498.1 488.9 485.5 484.4 482.1 482.2 480.2 480.2 480.2 482 478.6 474.6 470.5 460.7 463.3 464.4 467.5 473.2 470.9 465.7 458.1 452.2 452.5 452.9 449.6 450.1 453.4 456.3 459.3 469.5 474.5 470.9 466.4 455.7 445.8 441 438.6 437.1 433.8 431.8 436.7 438.3 441.3 442 435.1 443 440.7 448.1 451.4 454.4 460 463.7 467.8 471.1 470.4 474.1 476.7 485.9 485.5 483.1 483.1 483.1 483.1 494 511.3 549.3 582.6 621 647.4 669.7 672.5 670.9 664 660.5 652.2 648.1 640.9 617 588.2 567.3 543.1 520.7 499.1 477.7 460.1 448 433.6 420.2 409.8 402.8 394.4 385.6 380.3 376 364.9 358.7 356.4 348.5 338.6 330.8 324.2 321.2 315.7 308.4 305.2 303.6 304.6 305.6 306.1 307.5 308.6 307.3 306 287.6 269.3 257.2 237.5 221.7 201.4 179.8 161.2 137.3 123.6 104.2 75.6 48.9 27.9 15.3 15.3 15.3 15.3 15.3 15.3 15.3 15.3 15.3 15.3 15.3 15.3 15.3 15.3 15.3 15.3 15.3 15.3 15.3 15.3 15.3 15.3 15.3 15.3 15.3 15.3 15.3 15.3 15.3 15.3 15.3 15.3 15.3 15.3
557.1 555 554 554.6 555.3 558.3 548.8 545.8 542.9 534.6 530.3 542.5 555 549 531.2 519.2 507.8 500.8 497.9 501.6 504.8 503.6 505 512.5 514.4 522 539.7 550.8 554.4 557.1 565.9 565.7 571.6 561.8 539.4 525.4 525.7 525.8 523.9 501.3 489.5 485.5 483.5 481.3 480.2 480.2 484.6 488.7 489.8 480.7 475.6 472.9 460.9 466.7 472.2 484.5 478.6 476.2 468 463.2 450.9 450.7 448.7 443.4 442.9 450 456.6 457.5 460.2 465.7 468.3 457.3 447.2 440.5 437.2 435.2 434 429.7 429.3 431.5 433.5 434.6 435.6 433 435.2 436 442.7 446 449.2 453.2 461.5 461.5 461.4 464.9 469.7 480.9 488.6 490.1 483.1 484.6 484.6 486.9 504.4 531.1 563.2 610.1 639.1 665.5 671 667.5 663.2 658.9 644.8 640 634.7 611.7 579.7 562.7 536.5 525.1 516.2 499.3 477 448.8 430.6 417.1 408.5 400.9 394.1 389.1 382.3 376.8 371.5 361.9 359.1 353.7 347.3 338.2 332.9 326.9 320.9 315.2 312.1 310.6 309.3 311.2 309 310.8 311.2 310.4 309.2 311.1 299.5 279.2 264.3 250.1 230.6 205.5 171 139.3 111.8 97.5 73.1 45.8 24.8 15.3 15.3 15.3 15.3 15.3 15.3 15.3 15.3 15.3 15.3 15.3 15.3 15.3 15.3 15.3 15.3 15.3 15.3 15.3 15.3 15.3 15.3 15.3 15.3 15.3 15.3 15.3 15.3 15.3 15.3 15.3 15.3 15.3 15.3 15.3
556.8 550 549 548.1 542.3 543.3 550.2 551.8 545.3 539.4 525.8 540.9 546 552.2 537.3 519.6 507 503.3 498.1 505.5 507.5 503.8 511.2 520.8 515.9 522 533.3 542 550.7 557.3 556.5 560.2 570.3 559.4 542.4 528.2 520.8 524.3 524.9 505.9 493 486.6 483.7 480.7 480.5 485.3 487.6 493.8 495.4 482.5 474.9 473.1 465 471.8 477.6 489.4 482.4 477.2 472.7 467.9 452.7 452.3 447.8 438.5 438.4 444.4 448.2 454.4 453.3 453.9 448.7 449 445.9 438.2 434.5 432.3 430.9 428.5 427.6 428.1 428.2 426 428.1 428.8 430.5 436.7 442 444.7 447.7 451.7 458.4 459.9 460.6 466.8 474.9 490.3 495.5 493.8 483.1 487.9 489.7 501.1 519.9 553.9 582 618.3 646.7 657.5 661.9 660.7 654.7 646.2 638.8 631.5 617.1 595.1 560.7 534.6 512.9 507.6 497.3 487.6 471.1 449.3 426.4 410.5 400.5 393.5 388.7 383.9 378.9 375.3 363.6 359.7 354.8 351.2 342.3 338.9 334.2 330.3 325.3 321.8 321.1 321 318.5 315.6 316.6 318.6 315.8 311.9 314 313.5 300.7 282.4 274.9 256.3 222.1 193.8 155.9 123.1 94.3 71.6 47.5 27.4 15.3 15.3 15.3 15.3 15.3 15.3 15.3 15.3 15.3 15.3 15.3 15.3 15.3 15.3 15.3 15.3 15.3 15.3 15.3 15.3 15.3 15.3 15.3 15.3 15.3 15.3 15.3 15.3 15.3 15.3 15.3 15.3 15.3 15.3 15.3 15.3
552 547 540.2 537.8 535.9 540.1 554.9 557.2 546.1 540.7 528.2 533.5 546.5 545.8 539.9 523.1 510.2 501.7 497.2 508.8 505.5 505.7 520.1 526.9 523 522.2 527.1 540.1 543.4 550.5 546.6 550.2 559.4 555.1 542.8 528.4 520.1 519.9 519.6 508.7 496.4 486.6 483.4 482.7 482.3 482.3 491.1 494.8 495.5 485.9 474.2 471.4 466.1 480.9 482.6 484.2 481.8 475.9 472.7 464.8 454.3 456.3 443.5 435 434.9 438.4 443.7 446 446.2 441.3 440.7 439.9 439.8 436.9 432.3 431.4 433.3 429.5 426.1 427 425.1 422.6 430.2 426.8 429.4 438.8 441.7 444.2 447.9 450.6 455.1 460.1 461.4 471.2 476.6 489 501.7 496 487.6 491.8 501.2 527.5 552 585.5 613.7 633 650.7 651.6 657.9 656.4 647.2 634.7 632.3 619.4 592.6 569.3 538.1 514.9 502.5 487.7 475.3 462.6 448.8 429 418 410.7 399.6 392.8 386.8 380.9 376.6 366.6 361.8 358.6 353.3 347.4 344.4 339.9 336 333 330.1 328 325.6 325.2 321.5 320.6 325 324.3 323.5 316.6 311.8 306.4 287.9 275.8 261.5 241.3 202.6 169.3 135.5 100.9 73.6 47.6 28.1 16.2 15.3 15.3 15.3 15.3 15.3 15.3 15.3 15.3 15.3 15.3 15.3 15.3 15.3 15.3 15.3 15.3 15.3 15.3 15.3 15.3 15.3 15.3 15.3 15.3 15.3 15.3 15.3 15.3 15.3 15.3 15.3 15.3 15.3 15.3 15.3 15.3
545.7 542.8 536.9 535.2 534.6 541.4 555.5 558.2 549.5 542.2 529.6 522.5 537.9 542.1 541.1 523.7 515.9 503.6 493 499.3 503.6 508.8 526.9 527.7 522.3 523.3 527.4 539.5 539.7 549.7 545.5 542.4 551 551.1 537 524.6 526 519.3 514.2 505.5 496.3 489.9 487.1 484 482 482.7 487.6 491.4 484.9 481.3 474.9 469.8 468.8 478.5 482.1 481.2 477.7 472.3 471.6 458.1 458.3 457.6 437.8 431.1 431.6 436.2 439.3 442.7 439.1 438.2 437.3 438 436.7 432.8 428.9 430.5 427.9 427.9 424.6 425.1 424 421.2 425.1 427.2 429.5 437.4 439.6 444.3 448.5 452.3 457 463.8 470.8 476 477.2 491.1 507 498.7 496.4 501.3 528.4 558.6 592.2 609.1 634.4 647.6 649.5 645.8 640.2 633 618.3 618.1 611.3 583.2 563.5 539.5 517.7 506.7 494 480.6 464.6 449.4 437.1 424.1 415.7 405.2 399.9 393.9 384.9 377.7 370.3 364 361.2 355.6 351.6 348.5 344.7 343.1 339.1 335.4 332.3 330.6 328.2 326.3 323.4 322.9 325 327.7 320.6 317.6 313.3 296.9 280.2 264.1 246.6 223.9 182.3 146.1 110.7 80.7 57.7 31.4 17.6 15.3 15.3 15.3 15.3 15.3 15.3 15.3 15.3 15.3 15.3 15.3 15.3 15.3 15.3 15.3 15.3 15.3 15.3 15.3 15.3 15.3 15.3 15.3 15.3 15.3 15.3 15.3 15.3 15.3 15.3 15.3 15.3 15.3 15.3 15.3 15.3 15.3
530.6 540.9 537.9 536.1 534.5 540.2 554.2 559.5 551.4 549.8 525.7 516.7 530.9 532 530 522.3 520.7 507.9 494.7 490.9 501.3 507.6 517.4 522.1 519.4 521.8 523.3 529.6 540.8 549.3 538.5 535.3 539 544.1 534.2 522.2 520.1 515 505.5 503.8 494.6 491.5 486.6 482.6 482.1 487.3 488.6 491.4 489.3 481.8 472.8 470.5 473.4 477.9 479 480.7 472.9 470.7 466.4 461 460.7 451.3 436.4 427.7 429.3 432.4 433.2 436.4 434.1 432.1 433.7 432.3 432.8 427.4 427.7 426.8 423.8 424.6 423.7 420.4 421.1 421.3 422.4 424.8 428 436.2 438.5 444.1 448.8 456.9 457.7 473 484.2 489.7 483.9 487.8 506.4 503.3 503.1 515.1 551 581.6 613.5 633.1 644.5 646.6 640.7 627.2 606.1 601.7 602 598.1 573.9 557.6 542.9 521.3 512.9 497.2 484.4 474.2 459.2 443.3 429.3 421.1 411.7 403.2 398.9 391.1 379.8 371 365.7 362 358.9 351.9 350.9 350.1 346.3 344 339 336.5 334.7 332.9 332.5 330.3 325 325.1 324.9 323 319.7 316.3 309.8 288.4 269.5 250.7 229.6 200.9 152.3 116.5 86.6 59.2 34.5 20.3 15.3 15.3 15.3 15.3 15.3 15.3 15.3 15.3 15.3 15.3 15.3 15.3 15.3 15.3 15.3 15.3 15.3 15.3 15.3 15.3 15.3 15.3 15.3 15.3 15.3 15.3 15.3 15.3 15.3 15.3 15.3 15.3 15.3 15.3 15.3 15.3 15.3 15.3
525.9 538.2 536.6 535.4 532.8 538.6 554.7 563.2 551.3 550.2 522 509.9 518 524.1 521.5 526 524.8 508.3 496.3 487.4 495 506.3 513.5 516.7 519 517.1 517.7 522.4 536.2 541.3 537.1 528.9 527.7 531.7 526.8 514.3 514 506.7 500.1 497.2 493.1 492.8 483.6 483 482.6 491.7 486.6 487.9 492.9 482.6 474.8 471.1 470.5 474.7 475.5 476.8 471.5 472.7 462.1 461.7 460.9 449 437.2 428.8 428.3 428.2 427.1 427.7 431.6 432.3 431.4 429.6 427.4 424 422 420.1 421.3 424.4 421.2 418.9 421.5 420.3 422 426.3 430.6 437.1 439.8 442.9 450.6 461 463.2 479 498.5 496.7 489.7 494.2 505.8 509.8 514.7 535.6 562.7 607.8 630.1 638.8 645.2 637.3 621.9 597 587.8 591.7 587.4 566.9 557.4 544.6 526.1 515.8 501.4 487.6 474.8 463.5 448.1 434.8 423 412.1 403.2 399.9 391 383.7 373.2 365.1 362 359.7 352.9 349.6 349.1 348.9 346.1 340.9 339.4 337.6 336.5 335.3 332.4 330.3 326.3 322.9 320.7 319.6 319 313.4 298.8 276.5 250.7 225.4 202 167.1 124.4 94.7 69.1 40.4 21.3 15.3 15.3 15.3 15.3 15.3 15.3 15.3 15.3 15.3 15.3 15.3 15.3 15.3 15.3 15.3 15.3 15.3 15.3 15.3 15.3 15.3 15.3 15.3 15.3 15.3 15.3 15.3 15.3 15.3 15.3 15.3 15.3 15.3 15.3 15.3 15.3 15.3 15.3 15.3
522.9 531.8 534 532.8 530.8 537.5 555.8 561.2 548.4 543.6 520 505 503.8 511.4 528.8 531.1 527.6 508.1 495.8 487.2 494.3 501 509.6 511.1 516 516.2 518.2 519.8 531 539.8 537 527.1 522.6 524.6 523.1 505 502.4 495.6 493.1 493 493.5 490 484.4 482.5 482.3 483.9 483.2 483.5 487.6 480 481.2 478.5 471.9 476 480.5 475.7 471.5 468.9 462.7 457.3 453.7 445.6 436 427.6 427.1 427.1 427.1 431.3 432 431.3 429.2 424 421.2 416.2 413.3 415.7 418.5 418.5 418.1 418.9 419.6 420.6 422.8 427.1 435.2 440 442 445.1 456.8 472 473.2 482.1 502.8 501 493.7 506.8 511.5 517.2 534.1 557.5 593.6 622.1 629.7 630.7 624.1 607.9 586.1 574.8 579.5 576.3 561.9 551.3 545.9 531.4 517.7 502.8 489.8 476.5 464.2 450.1 435.9 425.5 416.8 405.6 397.5 392.6 384.7 376.1 365 360 355.9 351.6 348.9 348.9 348.1 345.4 343.4 340.4 339.8 338.9 338.9 337.8 333.2 331.5 327.7 323.7 319.7 317.4 318.4 306.7 286.5 261.8 223.3 194.9 170.9 143.2 110.5 81.6 46.5 24.2 15.3 15.3 15.3 15.3 15.3 15.3 15.3 15.3 15.3 15.3 15.3 15.3 15.3 15.3 15.3 15.3 15.3 15.3 15.3 15.3 15.3 15.3 15.3 15.3 15.3 15.3 15.3 15.3 15.3 15.3 15.3 15.3 15.3 15.3 15.3 15.3 15.3 15.3 15.3 15.3
523.5 530.4 529.1 527.4 528.8 534 555.2 556.8 541.2 536.6 514.8 501.4 496.2 506.2 529.4 531.4 528.1 509.9 495.4 486.2 497.2 500 503.8 506.2 508.9 517.5 519.5 519 530.7 538 539.5 528.5 515.2 514.8 514.3 502.9 501 492.3 495 496.8 497.3 488.3 488.5 481.1 481.8 480.3 485.8 479.7 476.4 480.9 494.7 483.1 476 487.4 489 485.8 484.9 476.2 476.7 462.9 455.9 448.4 444 427.1 427.1 427.1 427.1 435.4 431.3 431.2 428.1 421 415.9 413.3 411.6 411.9 413 417.5 418.2 420.6 419.8 421.8 424.1 430.4 432.7 438.7 443 447.4 462.2 472.9 478.3 488 509.4 503 506.4 516.5 519 522.9 549.7 571.4 603.7 615.9 619.7 614.3 605.7 585.8 572.8 572.4 578.2 567.8 557 548 536.6 520.1 503.9 486.3 476.2 461 447.6 434.9 425.3 419.1 408.2 401.8 396.9 386.7 379.1 370.1 362.4 358.6 354.4 350.2 347.2 347.1 345.2 343.1 342.6 340.2 338.7 339 340.8 339.5 333.8 332.7 330.8 329 317.5 313.7 308.4 288.3 270.5 237.1 201.9 174.2 146 119.8 90.2 60.1 24 15.3 15.3 15.3 15.3 15.3 15.3 15.3 15.3 15.3 15.3 15.3 15.3 15.3 15.3 15.3 15.3 15.3 15.3 15.3 15.3 15.3 15.3 15.3 15.3 15.3 15.3 15.3 15.3 15.3 15.3 15.3 15.3 15.3 15.3 15.3 15.3 15.3 15.3 15.3 15.3 15.3
520.3 525.6 519.4 519.4 525.1 530.2 551.5 551.1 534.3 530.3 508.8 496.9 495.2 502.5 522 531.2 525.4 513.7 496.9 485.7 496.9 499.3 501.8 501.3 510.3 518.9 518.2 517.8 528.1 536.8 537.6 524.9 511.2 502.9 500.9 495.7 493.1 491 498.2 500.2 495.3 490.9 494.1 484.8 478.6 480.5 484.3 473.8 473.8 484.5 487.1 482.5 479.4 485.8 487.9 492.1 485.8 487.8 490.3 473.3 469.7 456.7 444.7 427.1 427.1 429.9 431.8 430.2 428.8 430 425.4 416.3 414 412.2 410.2 411.8 410.5 416.4 420.1 420 420.6 423.2 426.4 432.2 435.5 438 444.2 449.9 466.5 478.8 486.6 494.9 516.5 512 520.3 526.7 520.8 529.8 564.4 573.7 595.5 606.1 605.5 596.2 586.6 577.1 574.6 574.6 570.3 562.3 553.9 540.8 524.4 511.7 487.7 468.8 459.3 446.6 436.5 427.8 421.1 413.1 404.5 400 390.7 384.9 375.4 367.8 362.5 356.7 355.1 348.9 347.3 341.8 343.4 342 339.4 339.1 337.6 339 339.4 335.7 335.5 336.2 334.3 331.1 321.4 307.8 291.7 278 244.8 213.7 179.6 154.2 123.8 93.3 61.6 27.4 15.3 15.3 15.3 15.3 15.3 15.3 15.3 15.3 15.3 15.3 15.3 15.3 15.3 15.3 15.3 15.3 15.3 15.3 15.3 15.3 15.3 15.3 15.3 15.3 15.3 15.3 15.3 15.3 15.3 15.3 15.3 15.3 15.3 15.3 15.3 15.3 15.3 15.3 15.3 15.3 15.3 15.3
518.7 519.8 519.4 519.4 522.8 527.1 542.5 536.3 528.8 523.6 502.7 491.3 494.4 497.3 512.7 527.7 521.7 514.2 500.3 487.2 493.1 494.3 496 499.2 509.7 517.2 516.1 514.9 522.3 532.2 531.1 522.1 511.9 498.7 497.3 492.5 488.2 488.9 492.9 495.2 489.1 490.6 494 484 478.6 478.6 480.4 473.8 476.4 481.1 486.3 481.3 479.4 487.6 496 490.8 488.2 494.1 487.7 486.1 478.8 470.6 455 433.1 427.1 431.3 430.8 426.9 427 424.8 419.7 413 412.6 410.1 411.3 410 410.7 415.7 419.3 422.5 423.2 424.5 429.5 435.1 438.1 440.9 445.1 454.2 471.2 485 490.2 497.8 515.9 519.3 524.7 527 523.8 547.4 570.2 570 576.7 583.6 580.7 571.5 571.2 570.4 568.2 567.2 560.9 552.7 538.2 526.9 507.2 488.7 469.7 460.3 445.3 436 431.6 422.2 414.7 407.3 400.6 392.2 389.5 381.3 373.5 368.6 360.6 357 353.9 350 342.1 339.3 342.1 338.5 336.8 336.9 335.7 336.8 336.4 336.5 337.5 336.3 334 328.6 313.8 298.3 283.2 260.5 221.3 182.7 156.8 131.1 106.4 71.1 38 17.2 15.3 15.3 15.3 15.3 15.3 15.3 15.3 15.3 15.3 15.3 15.3 15.3 15.3 15.3 15.3 15.3 15.3 15.3 15.3 15.3 15.3 15.3 15.3 15.3 15.3 15.3 15.3 15.3 15.3 15.3 15.3 15.3 15.3 15.3 15.3 15.3 15.3 15.3 15.3 15.3 15.3 15.3
521.9 519.6 520 519.4 519.4 527.1 533.5 527.9 524.8 514.2 496.2 487.8 489.2 488.9 499.5 513.1 515 512.3 503.6 490.5 487.6 489.2 487.4 492.4 496.2 509.4 513.5 513.2 512.2 522.2 522 515.1 506.3 498.7 494.9 493 491.2 481.8 487.9 487.5 488.1 489.4 488.9 481.8 479.8 482 475.7 473.8 478.2 478.9 478.2 479.9 481.3 490.8 494.7 489 498.5 492.6 493.8 493.8 486.9 475.2 469.7 442.9 429 431.2 428.1 423.9 422.7 423 415.6 411.6 411.3 410.3 409.6 407.2 409.6 412.9 420.3 424.2 424.3 425.9 431.9 435.6 439.1 443.8 448.9 451.6 472 485.4 492.5 500.4 517.2 520.6 524.3 525.5 532.6 558.4 565.6 563.3 565.1 563.3 560.1 554.8 549.7 555.6 561.7 557.8 544.9 531.7 520.3 504.8 485.4 470.2 462.3 447.1 439.9 433 422.2 417.8 414 407.9 394.3 391.3 384 373.4 368.7 364.9 356.8 352.3 349.8 340 331.5 327.8 329.8 334 334.9 334.7 333.8 333.2 335.1 337.3 337.4 330.4 327 313.2 299 284.1 263.2 236.1 200.1 163 130 99.1 74.6 47.3 24.4 15.3 15.3 15.3 15.3 15.3 15.3 15.3 15.3 15.3 15.3 15.3 15.3 15.3 15.3 15.3 15.3 15.3 15.3 15.3 15.3 15.3 15.3 15.3 15.3 15.3 15.3 15.3 15.3 15.3 15.3 15.3 15.3 15.3 15.3 15.3 15.3 15.3 15.3 15.3 15.3 15.3 15.3 15.3
522 515.4 522.5 520.6 521.5 535 532.5 520.3 516.5 505.7 489.8 485.3 486.5 485.3 492.4 505.5 509.7 509.1 501 489.5 485.5 484.3 484.2 483.9 489.6 502.4 508.5 511.4 508.5 509.6 508 510 506.4 501.1 493.8 494.2 490.4 477.6 482.2 481.7 482.3 485.9 489 479 475.5 478 474.8 478 476.8 472.1 481.4 481 485 492.2 487.2 489.5 493.6 497.6 501.4 497.2 491.1 477.6 473.9 448.3 432.3 425.1 421.9 420 416.8 411.9 411.4 411.1 412.3 408.9 404.3 405.8 407.6 410.5 417.2 422.2 423.6 427.1 433.2 436.3 441.2 448.3 453.2 455 473.9 486 493 505.8 521 522.3 523 526.3 543.7 557.4 555.5 552.4 554 547.3 535.5 526 532.4 551.5 554.4 542.8 529.4 519.7 505.3 489.5 472.8 464.5 455.5 443.4 434.8 427.8 418.2 415.8 405.9 397.9 390.2 385.6 374.2 363.4 357.1 351.8 348.4 346.5 342 335.1 329.6 324 325.5 332.2 334.1 329.1 329 331.8 334.7 334 330.1 328.8 318.9 302 286.8 268.8 240.4 210.6 176.7 140.4 103.5 72.8 48 27.7 15.3 15.3 15.3 15.3 15.3 15.3 15.3 15.3 15.3 15.3 15.3 15.3 15.3 15.3 15.3 15.3 15.3 15.3 15.3 15.3 15.3 15.3 15.3 15.3 15.3 15.3 15.3 15.3 15.3 15.3 15.3 15.3 15.3 15.3 15.3 15.3 15.3 15.3 15.3 15.3 15.3 15.3 15.3 15.3
515.3 511 515.9 517.3 525.8 525.6 524.6 519.5 514.8 499.5 485.9 485.3 485.3 485.7 487.1 500.9 507.4 503.8 495.5 482.4 478 478.2 480.5 476.9 487.5 496.9 501.5 503.6 500.3 497.1 503 503.5 496.2 496.7 494.1 491.3 484.2 476.2 480.3 477.6 479.4 487.3 484.6 478.1 471.9 473.5 473.1 478.4 470.1 476.7 479.2 485.4 487.2 488.7 485.8 489.8 496.6 501.3 504.5 501.4 499.2 488.2 481.4 455.8 437.4 426 418.7 415.4 410.8 408.6 409.6 415.1 410.8 405.2 400.5 405.7 407.4 410.1 416.8 419.5 423.3 426.9 432.6 437.3 440.8 450.9 458.8 460.2 472.6 488 494.9 504.3 520.4 524.3 527 523.8 537.5 553.5 550 537 528.9 528.3 517.4 512.5 525.6 544.4 538.6 528.2 521 508.7 492.3 479.9 468.5 462 452.8 443.9 433.6 423 413.5 403.5 396.6 389.7 384.2 376.1 366 355 350.3 348.4 348.5 348.3 341.1 335.6 332.2 325.3 322.7 325.8 323.9 321.9 323.3 323.1 322.9 327.1 323.9 317.5 302.4 286.3 268.2 240 211.8 181.5 147 109.8 81.6 51.1 29.8 15.3 15.3 15.3 15.3 15.3 15.3 15.3 15.3 15.3 15.3 15.3 15.3 15.3 15.3 15.3 15.3 15.3 15.3 15.3 15.3 15.3 15.3 15.3 15.3 15.3 15.3 15.3 15.3 15.3 15.3 15.3 15.3 15.3 15.3 15.3 15.3 15.3 15.3 15.3 15.3 15.3 15.3 15.3 15.3 15.3
506.1 506.2 512.3 516.5 518.9 513.1 516.3 521.7 515.8 495.1 486.2 485.3 485.3 490.7 487.8 498.3 506.5 505.8 492.7 480.4 470.4 468.3 475.2 473.7 482.1 491 494.6 498.4 494.1 491.2 502.2 503 498.3 492.5 490.7 491.1 480 476.1 479.9 474.4 476.4 482.8 479.2 472.9 467 469.8 469.3 474.4 467.5 472.6 478.1 484.3 484.1 482.6 486.5 491.3 500.4 502.4 510.1 507.5 508.2 495.4 483.3 461.9 441.8 427.5 422.4 415.1 406.3 406.3 412 416.6 408.4 402.1 402.1 404.3 406.5 411.7 417.4 420.5 423.3 427.5 434.3 437.3 443.6 451.6 458.6 462.1 470.5 487.5 497.8 504.1 515 523 518.2 518.2 531 544.1 537.9 522.7 514.6 511.5 503.2 510.4 528.5 530.1 528.2 516.8 504 492.8 482.1 476.1 469.8 460.4 451.7 439 429.4 421.2 408.2 397.8 394.2 386.9 381.8 373.7 359.9 353.3 350.7 348.9 344.5 343.2 340.9 334.5 331.9 326.5 322.8 321.2 323.7 319.5 318.8 315.3 317.8 317.2 311.9 303.2 285.9 266.4 237.2 203.6 178.6 140.5 113.8 85.6 60.2 29.4 15.3 15.3 15.3 15.3 15.3 15.3 15.3 15.3 15.3 15.3 15.3 15.3 15.3 15.3 15.3 15.3 15.3 15.3 15.3 15.3 15.3 15.3 15.3 15.3 15.3 15.3 15.3 15.3 15.3 15.3 15.3 15.3 15.3 15.3 15.3 15.3 15.3 15.3 15.3 15.3 15.3 15.3 15.3 15.3 15.3 15.3
505.5 505.8 510.3 512.7 511.2 503.8 507.1 516.2 507.7 493.8 485.3 485.3 491 497.3 491.6 495.5 500.6 498.7 491.6 482.3 469.7 462.4 467.4 469 476.2 489 492.5 495.5 485.3 477.9 495.4 496.9 491.5 491.2 487 482.8 478.8 482.4 476.8 471.5 475.7 474 474.5 466 465.4 466.6 468.1 466.8 466.3 466.6 473.4 477.2 475.8 477.2 486.1 492.9 499.4 503.1 509.5 515.6 513.9 497.3 485.9 467.6 441.7 428.7 425.4 414.4 406.2 403 408 412.6 405.7 400.7 398.5 402.3 407.5 413.2 416.9 421.3 424.6 430.6 435.7 437.5 446.1 452.2 456.4 459.5 469 478.4 493.5 509.9 513.9 517.9 512.7 515.6 517.3 531 517.7 509.1 503.9 503.3 502.3 520.4 520.5 522.5 519.9 502.5 491.7 484.9 475.4 472.3 463 452.6 444.3 437 425.1 414.1 410.2 403.4 390.5 389.1 378.8 365.8 357.6 353.2 350.2 346.5 341.5 337 333.1 333.7 335.6 326.5 324 322.2 323.7 321.9 323.9 319.7 316.2 312.2 298.5 283.2 263.2 225.4 203.5 176.6 152.8 122.5 93.5 65.1 38 19 15.3 15.3 15.3 15.3 15.3 15.3 15.3 15.3 15.3 15.3 15.3 15.3 15.3 15.3 15.3 15.3 15.3 15.3 15.3 15.3 15.3 15.3 15.3 15.3 15.3 15.3 15.3 15.3 15.3 15.3 15.3 15.3 15.5 15.5 15.3 16 15.5 15.3 15.3 15.3 15.3 15.3 15.3 15.3 15.3 27.5
506.1 504.9 497.8 495.2 492.1 488.7 495.6 499.9 499.8 492.2 485.6 486.4 498.2 498.4 498.1 502 504.8 498.7 490.8 477.3 470.8 458.5 462.4 463.9 473.6 484.6 489.2 489.7 480.1 473.1 488.1 487.8 486.4 483.6 481.7 475.2 476.2 477.2 471.2 470 471 468.4 463.5 458 459.6 457.5 461.7 459.9 462 463.1 473.7 474.3 472.9 477.3 490.8 498.2 506.1 509.9 515.3 522.2 515.1 501 487.3 467.7 439.2 428 425.3 412.8 403.1 399.8 404.7 405.2 401.8 403.5 397.2 402.4 408.4 413.2 416.1 422.2 426.4 431.4 435.4 437.8 441.5 449.8 451.2 460 469.4 476.6 486 498.4 502.3 507.9 511.8 504.3 499.7 504.5 499.4 498 496.9 498.4 511.6 518.2 521.8 519.2 511.8 487.4 478.3 474.5 468.3 465.3 453.7 447.2 437.5 429.4 422.9 415.9 412.2 401.9 395.2 387.1 376.5 369.2 360.3 355.9 350.1 343.9 339.6 336.1 331.9 330.9 330.3 328.3 325.7 323.3 322.3 317.4 309.2 308.9 303.4 297.1 288.7 275.2 253 202.6 169.9 152.9 135.8 107.5 75.6 46.2 27.9 15.3 15.3 15.3 15.3 15.3 15.3 15.3 15.3 15.3 15.3 15.3 15.3 15.3 15.3 15.3 15.3 15.3 15.3 15.3 15.3 15.3 15.3 15.3 15.3 15.3 15.3 15.3 15.3 15.3 15.3 15.3 15.3 15.3 15.7 15.5 15.6 16.7 16.4 15.9 16.3 17.5 17.2 15.3 15.3 15.3 27.5 47.2
