ncols 200
nrows 80
xllcorner 240000
yllcorner 770300
cellsize 50
491 483 469.4 458.1 445.4 436.7 426.9 416.5 406.7 398.7 389.8 383 376.4 367.9 364.9 358.1 356.8 355.5 356.3 356.8 356.7 356.7 356.7 356.7 356.7 356.7 356.7 356.7 356.7 356.7 356.7 356.7 359.7 361.3 366.9 370.5 379.2 388.6 400.6 424.5 447.4 467.6 494.8 525.5 561.6 580.9 593.3 596.5 602.2 604 607.1 608.9 611.8 623.8 629.5 633.5 644.4 654.2 663.5 675.7 688.1 701.8 718.9 733.5 745.3 758.7 774.6 793.3 808.7 819 835.1 848 856.9 859 854.1 850.1 835.4 816.1 801.2 794.7 790.1 791.9 794.5 801.3 801.4 806.1 813.1 795.4 782.4 770.3 762.9 766.2 759.7 759.8 766.1 778.7 793.1 803.9 814.5 822.5 830.8 834.1 834.7 838.4 845.5 856 863.3 880.2 914.2 957.1 1000.5 1032.3 1058.6 1081.5 1098.2 1082.7 1060.3 1037.7 1023.6 1018.9 1007.9 998.9 999.8 1014.5 1010.7 1021.5 1029.3 1036.1 1049.3 1062.5 1075 1081 1077.8 1074.3 1071.5 1072.8 1072.8 1071.8 1070.8 1068.7 1067.7 1066.1 1067.1 1069.7 1073.9 1080.2 1084.2 1088.1 1090.5 1090.1 1088.7 1087.6 1086.4 1080.8 1070 1055.8 1031.6 1013.1 993.7 979.7 975.9 972.5 969.4 968.9 975.3 977.8 980.4 982.8 984.4 985.2 986.4 990.4 996.2 1003.8 1010 1015.3 1013.2 997 967 950.1 927.1 902.4 878.3 856.8 819.6 779.4 755.8 736.1 719.7 700.7 680 662.9 647.2 632.3 618.8 601.3 592.3 589 588.1 584.3
484.3 474.7 463.8 451.1 439.2 428.3 420.7 410.2 401.2 392.8 387.1 378.1 368.9 363.6 357.8 357.1 355.8 356.8 356.8 356.6 356.7 356.7 356.7 356.7 356.7 356.7 356.7 356.7 356.7 356.7 356.6 356.6 359.9 362.3 367.2 376.4 387.8 391.8 405.3 433.8 458.8 480.5 509.8 541.5 568 590.5 609.6 614.1 613.9 608.1 613 620.7 621.5 630.3 641.6 646.2 651.6 661.5 672.7 682 695.8 710.9 723.5 736.5 750.7 765.5 780.8 804.3 819.9 832.4 848.8 861 868.9 872.4 870.5 863.8 850.1 831.1 812.5 805.8 799 800.7 806.3 814.7 813.7 822.1 837.6 822.5 811.7 792.8 789.5 783.5 774.3 771.3 777 783.5 798.4 810.2 819.8 828.5 834.7 840.2 841.3 845.9 850.8 857.6 869 880.3 909.1 947.8 993.2 1031.3 1062.5 1089.4 1105.3 1110.1 1102.5 1077.2 1061.4 1051.7 1036.7 1029.9 1035.5 1026.7 1018.9 1020 1024.3 1032.7 1043 1053.7 1060.2 1059 1055.9 1053.2 1053.2 1056 1056.5 1055.9 1055.3 1055.1 1055 1057.6 1060.4 1064.3 1070.2 1075.8 1080.3 1082.2 1083.6 1083.4 1082.5 1081.9 1076.9 1067.1 1056 1038.4 1016.3 1003.4 984.2 967.7 965.8 965.2 962.9 966.1 972.1 975.1 976.1 976.6 977.2 978.4 981.7 987.2 994.9 1001.4 1005.6 996 980.2 946.6 928.6 913.8 896.8 876.8 851.8 806.3 775.2 750.3 730.6 713.9 698.1 678.3 659.2 641.2 630.7 613.8 602.9 596.5 594.6 586.9 585.5 581.6
477 466.8 453.9 442.3 431.3 421.9 413.1 404.2 396.1 389 380.3 371.7 368.7 363.1 357.8 356.5 355.4 356.7 356.4 356.7 356.7 356.7 356.7 356.7 356.7 356.7 356.7 356.7 356.7 356.7 356.7 359.8 361 363.8 369.5 379.5 392 399.1 416.8 440.9 470.5 501.1 526.4 552.8 580.4 604.9 626.6 626.2 629.1 623.1 621.6 627.9 632.3 646.6 655 662.1 666.6 674.9 683.9 693.7 706.1 714.2 725.6 738.6 757 774.9 796.1 815.9 830.7 845.3 859.5 871.1 878 881.2 882.7 876.6 859.5 843.5 824.4 813.2 809.4 810.1 816.4 822 828.8 836 858.4 844.2 828.3 828.2 819.4 802.4 804 797.6 797.6 797.8 805.1 816.8 826.9 833.8 841.4 845.8 846.8 851.1 855.5 858.6 868.6 879.8 907.2 943.5 984.8 1025.7 1061.6 1088.9 1104.1 1114.5 1112.5 1105.1 1098.7 1074.5 1056.4 1042.6 1025.7 1010.7 1002.4 1000.2 1006.5 1018.2 1028.2 1034.2 1032.3 1031.3 1029.2 1030.3 1032.5 1036.6 1038.1 1037.8 1038.5 1038.1 1040.5 1047.2 1053.5 1059.7 1066.6 1071.8 1076.2 1078.3 1078.3 1077.9 1075.3 1069 1060.2 1053.9 1042.3 1022.4 1004.2 994.9 967.8 953.7 956.6 960.2 958.9 964.3 968 966.6 967.8 970.3 970.4 972.9 976 983 990.6 992.3 975.5 960.5 931.8 910.9 896.4 885.9 871.5 846.6 813 764.8 743.8 723.6 705.2 689.3 669.6 656.4 642.6 624.3 611.6 606.2 595.6 591.4 588.4 583.4 582.1 584.3
469.4 457.7 445.4 436 426.5 417.5 406.8 398.2 390.1 382.7 373.4 368.9 367.4 359.9 355.3 356.6 356.1 356.1 356.5 356.3 355.8 356.7 356.7 356.7 356.7 356.7 356.7 356.7 356.6 356.7 356.8 357.9 362.1 367.4 372.8 390.3 396.2 404.7 425.8 453.9 483.5 512.7 544.5 566.3 593.2 618.1 632.6 641.6 639.5 635.7 640.7 644.4 652.2 669.6 680.1 679.6 684.2 689.3 694.2 703.4 711.1 719.6 730.3 746 765.4 786.9 808.9 826.2 841.8 855.7 866.7 877.4 886.1 893.4 897.1 891 872.4 855.3 840.9 824.6 826.1 828.8 828.5 836.9 844.5 857.8 865 867.5 856.1 845.9 838.9 842.7 840.1 828.4 831.2 823.8 829.2 828.9 835.6 841.4 847.9 852.6 855.2 855.5 859.2 864.6 871 883.1 907.2 939.9 982.4 1021.8 1058.2 1084 1102.3 1109.8 1106.4 1095.7 1077.5 1060.6 1044.8 1026.6 1009.7 992.2 979.4 977.6 982.5 992.2 999.1 1001.2 1000.1 999 999.9 1004.7 1008.8 1011.5 1014.2 1018.6 1020.5 1023.5 1028.5 1035.1 1049 1056.3 1062.8 1068.1 1072.3 1074.5 1074.2 1072 1061.6 1054.6 1048.8 1042.6 1019.6 1004.6 993.1 974.7 957 946.2 949 953.3 955 957.8 957.1 956.3 958.7 961.9 965.8 968 972.5 979.3 981.6 961.4 949.5 923.3 899.6 884.4 870.1 858.5 820.1 805.5 764.6 734.9 716.5 696.7 679 664.8 649.1 636.5 623.4 610.2 601.9 599.1 594.7 590.1 585.4 586.1 583.4 584.9
460.7 450.2 438.8 430 420.7 412.1 402.6 393.3 385.1 376.6 371.5 367.9 361.1 356.4 356.5 356.5 356.4 357 354.3 355.2 355.3 355.9 355.2 356.7 356.7 356.7 356.7 356.7 356.7 356.7 357.3 362.2 363.5 369.1 382.3 395.5 398.3 412 433.7 458.1 491.3 527 555.7 582.2 605.4 629.9 647.7 653.5 655.4 656.7 663.4 659.5 678.2 690.9 694.9 693.3 698 702.9 702.4 711.5 718.3 729.8 741.6 756.4 775 796.3 816.9 835.9 851.4 864.9 875.7 888.4 898.6 906.7 911.7 907.7 897.3 874 862.1 858.6 854 849.3 845.2 846 857.3 871.9 879.4 893.4 889.8 874.8 869.4 868.9 871.5 869.2 859.6 851.7 854.8 844.1 848.8 851.7 856.4 858.9 861.4 862.4 862.8 866.4 872.5 882.4 905.4 939.8 976.5 1018.8 1054.2 1079.5 1094.3 1092.1 1080.4 1066.5 1051.5 1038.4 1021.6 1005.5 987.9 968.7 953.6 947 951.6 960.7 963.7 966.4 969.1 969.2 978.1 982.7 988.5 989.9 993.8 998.4 1001.8 1013.5 1025.8 1036.8 1047.2 1052.7 1058.2 1064.3 1068.2 1069 1067.4 1062 1052.5 1045.4 1040.3 1029.2 1011.5 995.5 978 961.5 945.6 936.4 938.5 943.8 948.1 946.8 947.6 948.7 951.9 954.9 958.5 963 968.3 970.6 961.6 937 920.9 898 876.1 861.1 848.5 813.8 785 753.4 728.9 706.1 689.5 672.7 656.1 644.6 633.1 619.8 611.6 602.3 598.1 599.6 594.6 588.9 589.5 583.6 585.6 587
452.9 441.8 432.6 424.1 414.7 405.8 395.3 387.6 380.4 374.9 370.3 362.9 357.7 356.6 356.7 356.8 356.7 354.3 356.1 356.3 356.2 355.4 355.7 356.6 356.7 356.7 356.7 356.7 356.7 356.7 358.3 361 364.4 371.8 390 395.8 405.3 422.2 446.5 473.4 505.9 536.9 565.2 594.2 616.9 639.6 660.9 667.4 672.3 677.6 680.3 679.2 707.7 711.8 707.8 707.7 713.9 714.3 716.3 722.2 730 740.9 754.7 767.4 781.8 804.4 825.1 845 862.5 872.6 884.2 898.8 909.1 915.9 922.5 922.6 917.1 901.4 893.8 876.1 867.6 862 860.8 853.5 862.6 883.1 891.1 906.2 926.6 909.1 906.7 902.4 901.9 910.3 891.6 880 870 866.2 860.2 861.7 865.8 865.9 866.9 869 867 869.6 874.5 886.6 910.4 938.4 972.3 1012.8 1048.9 1073.1 1073.8 1060.9 1049.2 1036 1022.7 1009.7 995.4 978.2 961.7 942.1 919.9 915.9 922.5 925.6 932.1 935.8 943 951.1 958.1 963.2 963.2 959.3 967.5 989.6 1006.7 1018.9 1028.5 1039.8 1046.5 1051.1 1055.3 1060.8 1063.6 1061.1 1058.9 1052.3 1041.7 1039 1031.5 1015.4 995.6 982.3 966.8 951.1 935.9 928.2 928.1 934.1 936.3 938.2 941.2 943.2 945.1 948.2 951.6 957 961.4 955.4 937.5 919.6 898.2 874.4 855.9 843.1 818.6 777 749 726.4 702.6 680.8 665.5 650 640.3 628.9 613.1 607.6 603.9 596.9 597.2 594 590.8 594.5 587.7 591.4 592.6 591.7
445.7 436.1 426.8 417.1 409.5 400.5 391.4 384.7 377.3 375.8 368.4 359.5 357.8 356.8 356.6 356.7 356.9 356.7 354.3 354.3 355.7 355.7 356 356.6 356.6 356.7 356.7 356.7 356.7 357.5 359.6 362 367.2 375.3 391.9 397.3 410.8 432.3 454.2 484.3 518.2 547.1 574.7 603.4 628.7 654.2 670.1 678.8 687.4 694.3 685 703.5 727.3 742.5 729.1 728.7 729.1 727.8 733.2 733.7 742.3 749.2 761.2 774.4 791.6 812.9 833.7 852.3 869.5 881.7 895.2 908.1 917.9 926.2 932 937.6 939.8 928.8 910 889.7 890.4 881.5 876 868.3 875.5 890.8 897.9 914 950.8 948.3 944.7 938.9 940.1 947.5 929.1 912.3 896 887.6 868.6 870.7 872 869.8 872 873.3 871.7 873.2 879.4 891.5 908.4 934.6 969.7 1009.3 1048.5 1055.7 1041.1 1028.2 1016.6 1003.8 991.4 979.7 963.6 945.2 927.9 913.3 894.2 888.7 892 898 904.2 911.3 925.3 934.3 939.2 934.9 929.6 952.9 979 998.4 1011.4 1023.9 1034.8 1042.6 1048.1 1051.9 1055 1058.2 1057.3 1052.3 1045.4 1040.4 1032.3 1030 1018 995.6 978.6 962.6 954.6 937.9 923 918.5 920 923.5 929.5 930.6 934.8 935.3 938.5 943.7 948.6 954.1 950.2 934.7 910.4 889.1 869.1 849.6 840 814.5 776.1 744.4 721.6 698.9 682.9 658.8 642.5 629.7 617.6 607.6 599.8 597.5 593.4 590.6 589.8 589.4 589.1 590.6 587.9 588.8 591.5 595
439.3 430.8 423 414.2 404.3 394.2 388.2 380.3 375.3 372 362.6 358.8 357.9 357 356.7 356.9 357.1 357 356 356.7 354.3 356.9 356.7 356.7 356.7 356.7 356.7 356.6 358 365.8 363.7 364.9 373 384.4 394.8 398.9 417.3 437.4 467.1 497 525.8 557.2 583.5 614.5 642 659.3 678.4 692.7 697.6 696 698.8 726.6 749.6 760.7 746.8 739.2 740.1 742.3 746.2 745.5 754.1 763 767.7 781.9 797.1 818.3 836.9 858.7 877.6 891.1 905.6 915.1 925.5 936.7 943 949.3 953.2 951.6 932.2 911.6 906.6 898.6 891.6 888.4 896.8 897.6 908.4 927.6 958.3 981.5 986.6 981.8 992.1 996.8 964.3 942.9 923.9 900.9 880.8 875.9 873.4 875.6 879.2 880.6 878.2 880.7 885.6 892.1 907.5 933.3 967.5 1013.6 1042.5 1026.7 1006.8 992.8 981 969.4 959.2 946.2 929.1 913 898.4 884.7 870.8 859.3 861.6 871.8 880.6 891.4 902.1 904.2 903.2 902.1 933.8 964 975.4 1001 1020 1030.9 1039.4 1044.7 1049.1 1051.5 1052.7 1051.1 1047.2 1043.2 1034.2 1026.3 1022.5 1018.3 999.7 979.5 962.6 954.1 936.1 919.6 912.3 906.2 908.6 914.8 920.7 924 926.6 928.9 933.4 939.9 945.5 947.8 938.7 915.7 885.8 865.5 844.6 830 812.2 786.4 746.5 719.4 697.2 678.4 660.2 640.8 626.8 611.4 603.6 601.6 595.7 594 590.3 589.7 590.9 590.5 593.9 588.3 586.9 593.5 595 596.5
434.3 426.1 417.4 409.2 399.8 391.2 385.3 379.9 372.8 364 359.4 358.1 357.4 357.4 357.4 357.1 357.3 356.9 356.7 357.1 355 357.4 357.3 356.9 356.7 356.7 355.2 357.3 359 362.5 364.3 368.3 373.7 389.1 396.5 405.5 424.5 447.6 478 505.4 537.4 563.2 592.7 618.8 642.8 664.6 687.5 697.2 703.5 706.3 723.3 744 762.5 769 763.7 769.8 763.5 759.9 758.8 760.4 766.4 771.1 778.6 791.8 808.9 826.1 843.8 864.9 884.7 899.8 911.9 924.9 935.2 944.9 952.6 960.9 964.6 965.2 959.3 936 926 912.7 910.7 907.5 913.2 911.1 916.1 936 966.8 993.8 1007.4 1018.6 1030.4 1029.6 998.8 975 943.4 908.5 888.4 880.3 877.6 881 885.6 887.6 887.6 888.8 890.4 891.7 910 934.1 973.8 1008.6 1023.1 998.1 973.7 959.8 948.6 935.9 926.2 913.6 896.1 884 870.3 857.1 839.9 829.6 836 843.9 851.7 862.7 868 868.2 870 908.6 941.5 970.2 982 1001.3 1024.2 1034.5 1041.4 1045.6 1047.6 1046.5 1043.1 1042.5 1040.3 1033.7 1024 1014.3 1011.7 996.1 987.9 967.4 952 938.4 919.7 905.5 893.8 896.7 898.1 905.4 912.3 915.5 918.2 923.7 929.4 935.5 942.6 940.3 920.3 894.3 867.4 846.8 828.8 808.5 780.1 752.7 721.3 696.4 676 659.1 638.2 624 613.9 607.2 599 597.6 596.5 590.8 591.2 589.7 588.9 591.2 587.3 589.1 593 596.3 602.6 610.7
429.8 420.9 412.4 404.1 394.7 386.9 380.5 376.6 372.4 365.2 359.4 357.8 357.6 357.8 358.2 357.7 357.4 357.2 355.9 354.3 356.9 357.5 357.3 356.4 357 356.5 357.3 357.7 361.9 361.9 366 371.4 379.7 395.5 401 414.2 432.2 452.9 483.9 514 543.8 570.7 598.2 622.4 653.5 672.6 691.6 707.8 709.7 724.5 736.6 759.1 767.9 781.3 783.1 785.8 779.3 773.6 772.6 772.1 775.7 782 790.2 801.6 817 828.7 849.5 868.9 889.5 905 920.7 932.3 943.5 953.7 962.2 971.3 975.8 976.7 975 959.8 944.9 928.9 924.8 924.3 926.8 927.6 935.6 955.1 983.3 1003.9 1017.4 1029.6 1039.4 1047.7 1021.2 983.7 949.9 912.3 891 882.5 882.1 887.1 890.8 896.9 897 898.1 894.9 896.4 910.5 937 972.1 1009.1 990.2 964.5 940.6 927.9 917.8 907.1 896.8 883.1 869.1 855 841.7 831.1 821.1 809.9 812.1 818.3 829.4 839 834.3 837.8 876.5 908.3 946.8 973.8 985.8 1001.2 1029.4 1036.4 1040.6 1042 1040.9 1036.6 1034.6 1033.5 1029.9 1021.8 1012.2 1003.7 992.6 987.1 971.2 955.3 929.1 917 907.2 886.9 880.5 888.8 889.2 896.1 902.5 908.6 913.5 919.7 927.4 933.2 936.8 925 903.7 879.4 853.7 829 804.8 778.9 757.3 729.6 695.7 675.8 656.7 638.7 625.3 614.1 607.2 597.6 594.7 592.5 592 590.1 589.2 588.7 588.3 592.2 590.1 597.5 600.4 605.4 616.9 627
424.2 417.3 409.2 400.5 393.4 386.2 380.1 373.4 367.2 361.9 359.3 358.6 358.1 357.8 358.4 358.2 357.8 355.3 354.3 355.2 357.6 357.7 357.5 357.4 356.9 356.3 357.2 360.4 361.6 363.7 366.5 374.9 386.1 401.7 409.7 424.5 442.7 457.8 486.9 517.5 545.6 574.8 602.3 627.6 652 672.8 691 705.9 715.9 742 744 766.2 782.2 793.8 790.7 795.7 787 784.6 784.3 787.6 787.7 789.9 795.2 807.5 818.4 834 856.1 875.3 892.9 912.3 927.1 941.2 953.9 963.4 971.6 979 986.6 988 986.3 976.7 964.7 953.7 942.4 944.5 952.7 954.8 966.6 982.9 1001.5 1015 1026.2 1037.2 1047.6 1054.3 1020.5 982.1 948.8 917.9 893 884 881.8 887.7 895.6 899.1 907.7 906.9 902 905.7 920.2 944.7 973.6 978.8 959.3 935.1 917.1 906.2 896.9 885.2 874.7 859.4 844.3 832.2 819.6 808.3 800.1 791.8 788.8 797.2 805 809.5 805.4 838.2 871.7 902.7 935 963.2 983.4 1015.1 1030.9 1036.9 1038.5 1033.9 1031.2 1025.4 1024.6 1022.7 1017.8 1011.2 1002 994.5 980.2 969.3 951 935.8 912.6 895.6 882.2 871.3 867.2 874.9 878.6 886.8 894.1 903 908.7 917.2 925.9 930.9 931.1 903.4 879 851.9 825.2 802.4 779.1 758.1 733.1 703.8 672.2 654.7 642.7 629.1 617.1 607.4 603.7 600 598.4 592.2 591.7 590.9 589.6 588.9 589.3 593 598.5 604.5 609 615.4 627.6 637.8
420.8 415.8 408.7 399 389.3 384.2 376.6 371.5 366.8 361.9 360 359.1 358.9 358.3 358.5 357.5 354.3 356.1 356.7 356.8 357.2 357.7 357.6 357.6 357.2 357.1 358.4 364.4 361.4 364.6 373 383.7 392.9 402.4 418.7 439.3 453 468.5 493.8 521.7 547.8 579.1 605 629.1 650.8 670.2 688.3 704.5 727.1 742.6 755.2 776.2 793.6 802.4 795.5 798.5 799.8 797.7 794.4 797.9 802.6 802.2 809.8 816.4 829.1 844.3 862.7 879.6 899.5 918.6 933.1 949.9 963.3 975 981.3 988.4 993.6 995.1 995 986.8 982.1 976.2 972.1 971.6 976.4 983 995.7 1006.1 1017 1025.8 1037.1 1047.2 1056.5 1060.2 1016.7 974.9 945.1 911.6 894.3 886.9 883.6 886.2 897.8 906.4 914.8 911.7 911.1 921.4 938.7 958.7 977.7 955.8 939.6 930.4 908.3 894.1 878.1 867.5 852.8 840.9 828.1 815.6 805.9 793.6 785.2 777.8 774.6 779.7 780.2 781.7 798.7 824.1 854.1 891.5 928.1 956.9 985.8 1014 1027.3 1023.3 1020.3 1018.9 1015 1013.8 1013 1009.6 1006.1 1000.5 991.4 980.4 961.4 954.8 934 918.1 899.2 878.6 865.4 858.5 853.8 860.6 871.2 879.7 885.7 895.1 905 914.7 921.1 921.7 906.4 878.4 850.1 823.7 801.3 779.2 760.8 735.5 706.1 680.2 659.3 644 632.7 619.6 608.6 605.2 600.8 598.2 596 592.4 593.8 592.8 591.5 590.6 595.7 599.1 608.4 609.7 614.8 630.1 641.7 651
418.4 414 402.9 395.3 388.6 382.3 376.1 369.9 365.6 361.8 360.4 359.5 359 358.6 358.5 358.1 356.4 354.3 355.1 356.7 357.4 357.7 357.6 357.4 357.9 358.9 358.4 360.1 362.5 369.8 382.6 394.6 404.2 415.4 432.3 443.5 458.7 476.8 503.8 525.9 549.4 579.6 605.2 629.2 649 666.9 683.5 706.2 735.5 759.4 765.7 785.2 799.8 803.9 810.5 825.4 825.4 817.5 813.5 819.3 823 823.4 824.1 832.5 842.1 854.5 871 883.1 903.3 923.6 938.5 954.9 970.7 980.3 988.3 994.6 998.5 1000.8 1001.3 993.6 992.7 990.3 989 989.9 995 1002.5 1014 1022.1 1030.5 1037.9 1048.4 1056.4 1065.2 1061.1 1020.4 971 934.3 913.9 897.5 889.6 883.6 886.2 900.6 912.1 921.2 922.6 923.4 937.2 950.8 969.6 980.4 952.4 943.7 928.8 913.4 890.3 869.9 852.9 838.3 825.4 815.6 807.3 797.4 786 772.7 766.7 759.6 765.4 763.6 769 788.7 813.3 849.3 891.1 918.7 942.7 972.3 1000.6 1008.2 1004.5 1004.7 1003.6 999.7 1001 998.7 997.8 992.3 986.4 975.6 956.2 944.3 938.9 918 901.7 884.6 867.3 846.3 841.7 840.6 850.8 861.3 869.8 879.3 890.4 899.3 908.1 915.2 907 886.6 851.3 822.7 798.8 778.3 760.6 736.6 705.3 679.7 660.8 645.5 634.4 622.3 613.7 604.5 602.9 599.1 596.3 596.9 597.3 598 596.1 597.5 600.4 603.3 609.4 616.5 622.7 630.8 644.7 656.4 666.6
415.9 407 400 392.9 384.3 378.6 372.4 368.3 364.5 362.6 360.6 360 359.2 357.1 358.6 357.3 357.4 356.6 356.8 356.2 356.7 357.8 357.8 357.9 358.5 360.2 361.1 362.8 366 378.2 392.5 406.8 416.1 428.3 442.8 455.6 468.8 487.8 511.3 534.5 555.6 579.7 604.2 626.2 646.4 662.1 680.3 710 745.1 768.3 774.9 792 811.2 818.9 840.9 843.9 837.7 834.1 837.4 839.8 845.3 845.3 843.3 843.1 850.6 861.8 874.7 886.5 908.7 927.2 944.6 961.2 976.7 984.6 991 997.7 1002.4 1007.3 1005.3 1003 1002.4 998.8 999.5 1007.4 1008.6 1015.5 1025.4 1032.4 1042.2 1049.5 1055.9 1064.3 1071.8 1054.7 1011.7 974.1 945.8 921.4 903.9 893.6 887.8 890.6 905.1 915 928.6 934 933.4 949.8 966.2 983.2 992.7 960.5 937.6 919.5 897 879.5 861.7 840.8 823.2 810.6 804.3 794.6 786.1 777.8 764.7 754.2 749.1 752.1 747.7 760.9 776.5 800.5 831 865.8 897.6 926.2 953.8 977.5 983.8 987.3 987.3 985.3 984.9 985 984.7 984 979 966.9 948.6 934.8 930.7 917 896.8 879.5 858.6 842 827.2 826.1 831.6 840.6 851.1 862.2 873.7 882.6 891 900 895.4 876.3 852.5 821.9 798.3 775.8 757.4 735.7 703.2 678.5 658.7 644.3 632.3 619.8 616 605.6 601.1 598.9 598 600.2 602.2 603.6 602.6 601.4 604.4 613.9 615.6 626.2 635.1 641.5 652.3 668 679 686.5
410 404.1 395.8 388.7 382.1 374.8 370 367.6 364.5 362.5 361.2 359.5 358.6 356.9 358.5 357 356.9 356.6 355.4 357.4 355.3 358.1 357.8 358 361.2 364.2 371.2 374 383.7 394.3 405.3 421.1 431.7 444.4 455.6 465.9 484.2 506.4 525.9 541.3 559.1 582.3 602.7 623.5 641.8 658.2 680 711.8 745.7 771.7 780.6 797.5 821.1 844.8 848.2 853.8 862.6 852.9 855.1 864.9 878.7 870.9 860.9 860.8 860.2 872.5 877.6 887.3 914.1 934.1 950.6 966.4 978.4 985.1 993.2 1002.5 1010.1 1015.5 1016.5 1014.5 1014.8 1007.8 1011.5 1014.9 1020.1 1026.2 1034.2 1040.3 1048.7 1055.3 1061 1068.7 1077.3 1064.3 1013.8 986.9 960.9 935.6 916.9 906.8 899.7 903 911.9 921 935.3 938.9 951.6 973.6 993.2 1011.2 1008.6 972.8 934.9 908 895.2 874.2 857.6 832.2 815.6 804.5 795.3 787.2 778.5 768.7 759.4 744.6 735.3 737.3 733.6 744.6 758.1 783.1 812.1 843.3 874.4 906.2 934.5 955.5 968.7 970 970.3 970.9 972 970.4 971.1 964.5 953 939.5 926.3 912.4 900.6 884.7 867 847.6 832.7 819.4 809.1 808.1 819.9 828.1 840.8 851.1 861.4 873.7 875.8 873.3 862.5 837 816.2 792.6 769.5 746.2 723.7 700.5 676.4 655.2 641 627.4 620 613.9 610 603.5 606 604.1 605.5 608.8 607.1 610.5 613.1 615.2 621 622.7 630.1 640.4 654.4 661.9 677.1 696.8 709 718.9
408.8 401.3 393.6 388.2 383.7 377.7 370.3 366.5 364.6 363.1 364.6 358.4 359.6 357.1 357.4 358.3 357.5 357.1 355.4 354.9 357.3 356.9 358 357.6 363.3 372.9 380.1 384.4 399.6 419.6 433.6 444.7 455.9 463.5 471.2 485.4 503.5 521.5 537.8 547.5 564.5 587.2 602.1 617.6 636.7 653.1 674.5 708.7 742.9 767 782.4 804.3 825.3 851 872.1 868.9 875.8 877.8 871 887.9 901.6 893.4 877.4 872.8 877 877.2 879.2 890.5 914.8 934.6 950.1 963.6 973.4 986.9 996.2 1004.5 1013 1020.3 1028.5 1026 1017.8 1015.2 1015.6 1020.1 1023.9 1029.5 1035.2 1044.2 1049.2 1054.4 1061.5 1069.1 1077.9 1069 1051.3 1015.6 988.8 959.9 941.9 931.8 932.4 926.6 921.8 926.4 937 955.3 978.5 1007.7 1026.7 1045.7 1017.7 980.2 935.6 904.9 884.6 868.7 846.9 831.8 817.8 800.7 790.7 780.7 765.9 763.9 754.6 741.4 724.3 728 724.7 730.2 743.7 768.3 792.8 824.1 853 891 921.6 943.7 953.1 955.2 957.1 958.5 956.6 951.2 949.2 939.7 924.3 906.7 895.5 889.3 868.1 850.1 836.6 825.9 807.3 793.2 789.9 793.3 801.4 815.7 827.7 839.4 850.5 858.6 851.2 836.5 826 808.5 781.5 761.4 736.3 715.3 692.6 674.6 653.1 637.9 626.3 617.2 613.9 610.1 607.5 611 612.2 612.2 613.3 620.7 616.4 622 626 628 631.3 633.8 645.7 662.8 676.8 692.8 708.9 725.7 742.2 754.1
404.6 400.4 394.5 388.9 384.3 377.1 371.2 366.8 365.4 365.6 361.9 361.4 358.8 358.3 359.2 358.1 357.8 356.7 355.9 356.5 356.9 357.3 358.4 360.2 368.4 375.8 386 403.1 419.9 435.2 476.8 505.3 519.9 518.7 532.9 527.9 533.3 544 547.7 553.1 567.8 584.5 598.6 614 633.5 650.9 672.6 700.9 732.7 762.3 784.9 811 833.2 870.8 881.1 883.9 886.6 889.6 894.9 903.8 913.5 907.5 898.7 899.4 891 888.7 881.5 890.6 910.9 930.6 946.4 960 970 985.7 993.4 1000.2 1011.6 1018.8 1026.6 1023.8 1015.5 1013.6 1014 1016 1020.9 1023.1 1027.1 1036.5 1041.9 1048.1 1055.4 1065.2 1073.9 1084.6 1090.2 1072.2 1036.9 1005.7 986.4 967.7 963.3 953.7 942.9 944.3 959.6 975.6 1002.7 1033.8 1055.8 1038.6 1020 988.6 957.6 918.5 892.1 872.4 854.5 837.3 817.9 801.8 791.6 783.2 774.7 762.3 751.5 738.4 723 711.5 718.2 717.5 729.4 756.5 782.8 812.8 843.4 873.5 906.2 931.1 937 944 943.4 940.9 934.3 926.3 921.2 912.2 888.8 872.5 868.4 855 839.6 824.3 814.3 796.4 780.2 774.4 776.3 776.1 791.3 803.2 813.4 829.3 831.5 834.2 823.3 801.9 785.5 767 747.8 727.9 708.5 689.8 670.1 653.6 640 623.9 616.3 614.7 611.4 613.4 615.3 619.4 619.2 619.2 630.5 625.6 633.5 631.5 638.3 640.2 648.4 654.6 662.9 683.4 702.2 718.5 739.9 759.9 782.4 795.9
409.2 401.1 396.4 390.9 385.3 377.7 372.6 369.2 366.6 365.7 361.7 361.2 359.2 358.8 359.3 358.3 358.2 356.3 357.6 357 357.1 357.4 359.2 363.1 369.7 381.3 398.3 419.4 442.1 502 536.1 549.5 584.1 595.5 587 580.2 570.4 566.4 559.3 556.3 577.1 585.8 597.6 610.9 629.4 649.1 673 699.6 737.8 773.3 798.2 812.7 840.6 870.8 885.4 893.9 900.2 903.1 908.3 913.3 921.9 914.7 908.5 904.2 888.1 892.2 885.8 885.7 904.9 922.8 937.5 952.7 966.3 979.3 986.5 996.8 1004.2 1009.4 1013.3 1012.7 1009.6 1014.9 1009 1006.6 1007.1 1009.5 1012.7 1019.5 1026.7 1034.8 1043.3 1054.6 1065.9 1078.8 1092 1098.4 1077.3 1041 1022.3 1012.1 996.3 982 978.2 978.3 985.6 1004.2 1036.1 1062.9 1046.8 1028.7 1007.8 985.9 971.4 936 910.7 886 876.8 852.4 824.3 805.4 793.3 784.3 774 761.6 750 735.7 721.4 709.1 705.3 713.3 721.9 744.3 768.7 795.9 827.5 861.2 895.6 915.2 920.7 925.6 924.4 914.3 907.4 901.1 890.9 872.7 854 842 831.5 825.1 820.5 798.8 786.7 774.2 760.5 757.4 762 767.6 775.8 790.1 802.8 808.9 810.8 803.2 789.4 770.4 753.7 737.6 716.1 701 682.4 665.9 650.7 635.6 626.4 617.8 614.3 615.2 617.5 621.8 629.3 626.6 632.5 644.1 648.4 652.9 651.3 646.9 649.3 659.6 677 679.9 691.6 706.5 729.2 745.2 770.4 797.7 823.7 833.8
407.8 403 395.6 391 384.8 378.9 373.5 370.3 368 365.2 364.4 362.1 361.4 360.6 359.2 358.7 357.6 356.9 358 357.3 357.2 356.9 361 366.6 374.1 388 403.5 429.8 483 535 558.2 579.5 607.6 627.6 638.3 628.6 601.1 582.8 564 561.3 571.8 586.3 598.1 609.1 627.2 647.3 669.3 704.5 742.9 784.3 803.5 814.2 853.6 868.6 881.9 892.2 897.1 894.5 899 905.6 914.3 914.9 914.4 904.4 891.1 887.3 882.5 888.3 899.8 916.2 928.1 944.2 961.1 972 981.7 990.8 993.9 994.8 994.8 996.5 996 996.2 993 991.1 987.5 989.1 994.1 1000.1 1007.2 1015.8 1028.5 1040 1054.3 1067.8 1081.8 1093.6 1100.8 1068.6 1052.3 1046.6 1024.9 1017.5 1015.7 1012.6 1019.3 1029.5 1058.7 1050 1035 1012.9 990.6 970.1 961.9 947.6 936.3 913 889.7 870.1 846.6 812.4 797 787.5 776.7 759.6 746.6 734.7 719.6 708.1 695.9 695.3 713 732.1 752.3 782.9 812.2 848.3 876 891 898.3 902.4 890.8 880.9 878.9 868.9 849.6 839.8 829 817.2 812.9 808.7 790.2 779.5 770.9 750.2 738.1 739.6 740.8 761.8 758.6 767.9 778.5 783.5 778.1 768.1 758.2 741.1 723 709.9 693.6 678.1 665.5 648.8 634.6 623.2 622.1 619.4 621.7 626.7 636.2 635.9 644.4 651.1 657.6 660.9 670.4 679.8 677.1 678.2 675.5 685.8 702.5 719.9 742.1 744.9 760.7 779 826.1 851.5 875.6 892.5
407.7 401.1 393.4 390.3 384.9 380.3 374.6 370.4 366.7 366 363.4 362.5 361.4 360.2 359.3 358.4 357.5 355.8 357.6 358.3 357.8 357.4 360 369.4 377.1 390 404.6 438.7 474.7 513.8 547.6 568.7 602.5 631.9 650.2 657.2 644.8 609.5 574.9 571.8 579.4 591.3 602.6 614.4 628.8 646.4 670.2 709.6 746.1 783.8 808.8 816.2 842.1 857.7 873.3 880.7 882.3 882.2 887.4 894.9 901.2 904.9 903.8 900.9 892.7 882.2 882.2 886.3 892.9 908 923.6 938.2 952.8 964.3 972.9 978.7 980.2 978.7 975.8 972.8 968.9 965.2 961.1 963.2 963.8 966.2 971 977.7 986.9 997.7 1010.8 1025.1 1040.6 1056 1068.3 1081.4 1090.3 1095 1083.3 1089.4 1063.8 1056.5 1054.2 1053.1 1052.1 1051.1 1044.6 1034.5 1014.7 993 971 958.7 943.7 935.7 926.8 915.6 900.2 887.6 861 825.3 808.7 795.3 778.6 761.1 745.1 730 718.8 706.2 697.2 687.2 706.5 724.5 740.7 758.8 790.7 817.4 846.5 861 872.1 869.8 858.6 855.4 843.4 828.6 819.3 808.8 803 799.1 791.1 787.9 768.8 766.1 746.1 729.2 725.9 719.9 734.4 741.9 745.6 751.1 762.1 764.2 752.7 746.9 731.5 717.1 696.2 681.7 667.2 654.5 644.5 634.9 626.5 627.2 627.9 632.2 637 644.1 647.8 656.4 666.1 676.1 677.6 684.5 697.1 710.9 723.3 723.8 723.1 729.9 764.1 773.9 805.7 834.7 870.3 872.2 880.7 905.9 945.2 957.6
404.8 399.2 393.8 388.9 385.2 380.8 376.4 372.6 369.2 365.2 363.5 362.4 361.5 360.2 359.7 358.9 357.9 356.6 357.4 358.5 358 357.8 360.6 367 375.4 385.9 403.8 431.4 463.5 497.6 522.5 551.8 588.2 618.3 650.5 665.9 666.7 634.7 596.6 590.6 597.2 606.2 615.9 623 634.5 647.3 673.8 710.2 747.5 783.5 804.9 813.5 834.8 844.7 859.3 863.6 864.9 869.5 872.5 880.5 887.8 889.6 890.7 886 878.1 883 881.1 880.8 885 899.8 915.2 927.8 941 951.8 960.9 966.8 966.3 961.2 953.2 943.8 938.8 936.3 934.7 935.1 941 941.9 946.2 951.1 961.9 973.6 989.4 1007.7 1025.4 1041.9 1055.6 1067.8 1078.2 1087.9 1097.2 1098.1 1093.1 1088.4 1075.6 1060.8 1043.6 1030.4 1019.4 1005.9 988.9 972.7 956.1 944 930.7 919.8 910.3 900.8 895.4 889.1 869.7 838 816.9 799.4 783.9 760.6 742.1 726 713.6 702.6 693.3 679.7 701.8 712.2 722.5 745 764.4 784.5 808.3 826.8 830.6 826.1 823.6 821.1 811 806.4 788 779.3 782.2 780.8 771.3 756.5 747.5 739.8 720.3 714.7 710.7 707.7 717.3 720.2 730.5 740.6 747.1 746.7 736.1 729 709.1 689.8 675.1 660.2 653.2 644.5 637.1 637.3 634.5 639.2 644.7 654.4 662 668.8 675.4 683.1 693.1 699 706 716.5 726.5 741 784 784.6 763.7 754.1 798.7 828.5 863.8 908.5 942 948.7 933.8 930.8 976.4 999.2
405.1 398.9 392.8 388.8 381.7 384 377.1 378.5 372.5 367.1 364.1 361.5 360.7 359.7 358.9 358.7 357.6 358 355.8 358.2 358.6 357.7 360.1 365.7 372.9 384 400 423.3 453.5 479.1 503.8 541 572.3 609.7 637.4 666.9 673.4 644 625.2 620.3 620.7 621.6 622.8 629.5 642.5 656.7 681.7 710.2 745.4 778 796 807.9 816.8 829.5 842.6 846.4 848.8 852.9 857.6 863.7 871.5 869.6 869.6 870 866.3 869.7 874.4 876.5 880.4 889 903.1 915.8 930.6 942 949.9 955 951.4 936.3 921.6 914.5 912.7 909.3 908.7 911.9 912.7 917.4 923.1 929.4 938.5 946.3 973.8 992.6 1011 1026.7 1041.8 1052.9 1064.4 1076 1087.3 1088.4 1084 1074.8 1060.8 1043.4 1023.5 1006.6 990.4 979.4 968 953.2 943.8 932.5 916.9 904.8 894.3 889.6 887.5 879.1 868.1 847.4 826.5 807.3 781.8 756.6 739 725.3 708 695 684.9 671.8 687.5 697.6 711.2 728.3 740.9 752.8 763.7 784.6 790.6 791.4 788.1 791.3 792.3 777.9 759.3 756.3 755.2 748.8 738.9 726 722.9 711.1 700.9 699.8 695.5 689 697.3 694.5 706.4 713.6 725 729.2 725.1 712.4 689.6 673.4 664.4 651.3 648.7 647 643.5 642.2 647.5 656.1 669.9 680.6 689.9 692 703.4 711.1 717.1 719.7 746.7 756.1 773.8 777.8 822.9 831.7 809.7 789.3 819.1 867.2 893.3 949.9 980.8 989.9 977 986.3 1009.7 1006.5
403 398.8 391.1 390.2 388.2 386.1 379.1 376.2 372.3 367.7 364.5 361.7 360.6 359.3 358.6 358.8 358.2 358.4 356.9 358.4 360 358.5 362.8 366 371.7 383 396.2 417.2 440.2 464.3 490 524.4 557.1 587.7 624.2 655.1 675.8 670.3 646.1 640.9 637.2 633.8 632.7 636.6 649.1 665.2 690.1 717 750.3 772.4 785.6 795.2 803.7 811.3 820.5 826.7 830.3 832.8 837.6 842.7 848.8 850.9 849.5 850.7 850.4 854.6 858.7 866.3 867.8 880.6 891.3 905.6 918.8 931.1 940.7 942 932.4 911.6 897.5 893.9 890 889.7 890.9 892.9 894.4 894.8 899.1 906.1 912.8 939.4 960.4 978.8 995.7 1011.9 1026.6 1038.4 1049.6 1061.9 1070.7 1075.3 1072 1053.3 1040.3 1021.7 999.9 981.3 970.3 961.3 947.4 937 931.1 916.1 903.2 893 883.6 878.5 874.1 863.7 859.3 843 825.6 800.2 775.3 753.5 731.5 713.6 699.8 689.3 680.9 663.7 679.8 686.2 695.4 708 730.4 739.2 744 752 758.9 766.3 767.4 767 757.8 742.3 732.8 725.3 724.1 719.8 709 702.7 693.8 688.8 684.3 686.8 674.4 672.4 676.2 678.3 686.8 707.9 721.9 729.7 734.7 720.5 696.8 682.3 667.5 658.1 655.7 655.7 657.3 666 676.7 688.1 698.2 706.2 718.5 724.7 735 744.2 750.2 751.9 770.1 798.6 822.6 819.7 848.1 884.7 836.1 823.3 827.8 880.3 916.3 960.8 994.7 1002.1 1005.4 1008.7 1010.6 1008.1
401.6 400 397.6 393 388.1 385.2 382.7 377.3 372.2 370.4 368.2 363.9 361.5 360.5 358.7 359.9 358.7 358.3 357.8 358.5 359.5 358.9 360.2 364.3 368.3 380.4 394.4 411.8 433.7 453.8 478 507.7 539.7 572.5 600.2 634.1 668.7 685.9 684.1 682 658.3 647.3 646 649.3 664 678.7 697.4 730.4 751.1 766.6 776.8 786.3 791.3 797.9 805.7 813.2 814.3 815.9 817.6 823.4 828 828.6 829.6 832.6 832.5 834.1 842.4 849.8 858.1 870.3 883.6 894.6 907.1 920.4 930 931.5 911.5 890 883.8 874.1 870.3 870 870.3 871.8 874.3 875.9 879 884 908.9 931 950.7 963.9 979.3 995.6 1009.4 1023.2 1036 1048.4 1056.4 1061 1054 1030 1015.8 998.2 974.6 962.8 951.3 938.6 931.9 918.6 907 899.3 889.2 882.9 871.1 865.3 858.8 853.5 842.9 831.7 814.8 791.7 764.9 740.3 722.5 708 695.5 683.8 676.6 656.6 671.3 678.3 681.9 692 710 712.5 719.8 723 727.7 732.1 731.3 724.2 716 708.2 702.5 696.5 696.6 693.4 689.1 675.5 674.3 670.4 664.7 659.9 657.4 659 662.4 680 703.7 721.6 730.7 736.9 742.5 735.4 712.4 697.6 682.9 671 676.3 679.1 683.3 695.9 706.6 718.5 726.5 740.2 747.9 757.5 767.4 774.3 786.8 794.3 789.6 815.1 851 852.4 875.4 921.6 891.5 862.2 850.5 882.2 918.4 961.3 993.1 1006.3 1010.5 1013 1012.8 996
404 401.5 400 397.7 392.2 386.9 383.6 378 375.4 374 370.2 369.7 367.7 360.9 360.1 359.5 359 358.4 356.4 361.7 359.8 359.4 360.1 363.9 367.9 376 388.5 406.1 425 444.6 467.8 494.1 522.6 551.5 586.3 620.1 653.5 684.6 697 703.4 678.5 661 665.2 672.2 680.7 690.9 710.8 728.8 750.3 760.6 767.9 776.2 781.1 785.8 791.6 797.6 798.7 800.2 801.3 805.2 807.7 810.9 812.5 815.1 815.1 820.1 827.5 838.6 850 864.4 877.7 888.4 897.7 911.3 921.3 918.7 891.4 877.4 868.8 858.8 850.3 849.1 849.6 853 854.5 855.6 857.5 881.9 903.4 920.3 936.8 951.6 961.7 976.6 991 1006.1 1022.3 1034.3 1041 1041.6 1031.6 1008.2 988.9 973.4 957.7 946.4 931.4 920.1 911.5 901.1 891.4 883.9 879.1 871.3 859.1 845.8 841.3 836.7 825.8 816.5 799.5 775.8 752.4 732.3 712.9 698.4 687.4 675.7 668.7 654.8 662.9 667.1 671.2 674.9 684.5 689.9 693.9 696 698.3 703.2 700.2 688.9 684.7 682.8 677.8 672.8 673.3 671.8 662.9 660.3 659.8 655.9 643.7 642 646.4 657.3 678.6 700.9 723 740.5 752.3 752 746.3 733.7 722.9 704.9 706.3 698.8 706.7 706.6 714.9 724 737.6 750.1 762.9 770.8 781.7 791.9 801.2 806.6 816.1 829.3 826 836.6 881 886.5 897.1 925.4 940.6 901.7 884.9 889.1 924.6 959 990.7 1007.1 1015.8 1017.2 1018.9 1017.3
405.3 402.6 399.6 397.6 393.5 388.4 385.2 380.9 378.2 375.9 373.8 370 369.4 362.1 360.7 359.7 359.3 359.5 356.7 361.3 360.1 360 360.7 363.8 369.3 376 386.7 397.4 416.9 437.4 459.3 480.2 506 535.2 568.3 605.6 637.5 675.7 700.2 709.4 689.9 675.9 690.9 696.1 704.2 709.7 720 735.4 746.7 755.4 760.8 767.2 771.5 774.3 777.7 782.1 781.8 782.8 783.6 788 792.5 795.4 796.2 798.3 801.9 810.9 820.1 829.4 842.3 859.3 874.3 887 894.1 900.2 913.4 906.9 879.4 868.1 856 845.3 834.9 829.1 830.9 832.6 832.8 836 849.9 874.3 892.2 907.7 919.8 937.2 945.6 957 973.2 987.7 1004.9 1018.3 1024.2 1020.3 1008.3 986.5 967.1 954.1 941.6 926.6 913.2 900.9 892.6 884.1 877.8 874.2 868.6 856.2 840.4 829.2 825 818.2 809.7 797 778.4 759.9 736.8 717.1 701.2 687.9 676.5 669.6 659.6 645.7 645.1 657.6 656.3 660.7 664.5 672.8 673 673.3 672.9 676.5 671 663.8 661.4 659.2 657.4 651 651.5 648 649.6 645.8 641.8 637.2 634 640.9 652.2 672.4 699.6 729.2 749.6 772.6 780.1 780.3 767.3 743.4 730.8 723.8 715.6 714.8 724.3 732.1 744 754.5 768.7 792.6 802.3 807.2 818.2 827.8 836 844.4 848 851.8 857 866.1 892.7 909.7 913.4 935.4 951.3 951 916.9 902 920.9 950 986.3 1008.2 1018.7 1026.2 1032.2 1032.8
404.9 403.3 401.6 398.7 395.6 392.7 390.3 387.1 383.7 381.7 375.9 375 372.4 364.3 361.9 360.9 360.4 359.5 357.7 360.6 361.2 360.9 361.2 363.4 366.5 373.2 382.2 392.7 410.2 432.3 444.5 467.1 490.5 516.4 547.6 578.8 612.5 654 691.2 706.2 696 692.3 708.5 722 730.7 731.3 729.4 738.3 744.1 751 756.3 760.3 762.3 763.4 765.4 768.2 766.9 767.6 767.5 772.2 776.6 779.7 781.7 785.7 792 802.1 813 826.6 842.2 856 872.2 886.9 896.3 903.4 907.6 897.3 873 859.9 845.4 832.3 821.3 814.3 812.6 814.1 817.2 824.7 841.9 860.2 879.2 893.8 906.5 917 927.9 940.7 953.3 968 985.8 999.2 1004.6 998.2 982.7 965.6 947.1 939.4 922.3 905.5 893.7 883.9 874.8 869.2 866.9 862.7 849.6 836.2 824.1 811.9 804.4 797.1 788.4 774.1 755.3 738.9 718.8 703.9 688.3 676.2 668.2 660.4 652.9 640.5 632.2 646.2 647.4 651.8 650.8 651.5 655.1 652.4 651.7 649.5 645.8 640.4 639.6 637.7 631.7 628.3 628.3 630.6 629.2 629.3 626.1 628.8 637 647.7 666.1 694.5 723.2 746.4 769.8 790.4 803.6 802.8 786 766.7 742.5 727.4 726.3 737.2 752.3 768.3 774.6 789.7 806.6 822.8 839.1 849.4 863.7 879.8 899.1 927.7 898.2 885.9 885 878.9 888.7 905.7 915.7 929.6 947.8 961.4 948.6 926.3 933.5 954 982.9 1013.6 1028.6 1036.8 1045.6 1046.3
407.5 406.8 402.8 400.5 399.1 394.6 394.5 389.8 386.7 385.2 384.6 384 382 372.6 365.9 362.7 360.9 360.2 358.1 361 361.5 362.1 362.1 362.6 366.2 370.1 383.4 389.5 400.8 417.2 439.1 451.2 477.6 501.1 531.2 564.9 598.8 636.3 674.1 706.3 712.1 720.3 739.8 744.5 742.1 734.1 736 739.7 742.3 743.5 747.6 750.4 751.4 751.7 754.4 753.3 752.2 752.5 753.8 756.5 760.3 763.9 770.2 775.1 787.5 797 808.6 823.8 840.1 855.9 873.1 889.9 904.1 912.9 918.6 896.1 867.7 854.2 837.7 823.9 810.7 800.3 795.2 797.2 801.4 814 830.4 846.2 862.4 878 890 900.6 913.3 927.4 938.6 950.8 965 975.2 980.5 977.1 960.4 949.8 931 920.8 903.2 890.8 879.4 866.3 858.7 855 853.8 843.9 832 819.3 808.4 792.8 777.8 772.7 766.5 748 734.6 718.6 697.8 683.3 673.4 662.5 653.3 645.4 642.5 632.7 622.3 631.5 634 637.8 634.6 634.2 631.3 632.3 633.8 632.6 629.6 624 618.7 619.7 614.4 612.6 610.7 612.2 611.5 612.6 627 636 647.3 663.6 686.2 715.9 739.3 763 781.9 797.4 808.4 802.4 778 771.5 748.2 742.7 749.3 765.4 784.6 806.3 819.1 822.7 844.1 851.3 872.6 892.7 914.9 944 949.2 975.1 990.3 947.5 918.1 907 910.2 919.8 939.6 941.8 953.1 962.5 959.9 952.2 952.3 964.5 984.6 1016.8 1037 1050.6 1061.7 1063
412 409.2 407.5 405 403.1 399.8 397.2 396.8 394.4 394 394.3 393.2 388.7 381 370.3 367.1 363.4 360.6 358.1 362.8 363 363.2 362.4 363 364.5 367.6 380.6 386.4 395.2 409.3 425.2 444.2 464.7 488.5 521.1 549.8 584.5 623.9 661.2 684.9 723 740.8 745.5 747.9 746.5 746.1 745.5 742.3 739.4 737.1 738.4 738.9 738.3 738.9 740.2 740.4 738 740.5 741.8 743.9 747.6 750.8 760.7 770.3 782 792.9 807.8 823.4 842.1 858.7 878 897.5 911.4 917.8 920.3 891.5 863.2 849.1 831.5 816.5 803.9 789.9 781.1 782.8 790.3 801.5 817 830.5 844.6 858.6 869.2 882 899.5 914.9 926 935.4 945.1 951 956.9 954.1 944.2 931.2 913.9 900 887.1 878.8 866.7 854.6 844.8 837.8 832.6 823.9 813.1 802 788.5 772.9 756 745.9 734.3 720.8 707 693 677.3 665.9 656.6 648.7 639.9 632.6 628.8 624 612 623.3 620.8 623.5 622.5 617.2 617.9 615.8 618.9 618.3 615.2 611.6 604.5 602.2 602.1 601.2 600.9 609.2 615.6 623.6 632.6 644.7 662 681.4 707.1 729.2 753.8 770.9 785.1 794.5 791.4 787.8 777.8 773.4 755.7 763.1 775.2 792.5 812.9 837.2 855.4 874.3 878.4 892.3 918.8 945.3 973 1007 1007.1 1029.7 1028.2 1011.9 955.9 969.5 953 963.4 990 979.6 971.6 961.2 965.1 963.4 964.1 973 989 1022.9 1046.2 1061.4 1069.8 1073.3
416.2 413 411.8 410.6 406.8 403.6 402.5 403.5 401.8 403.5 402.4 401.3 395.6 385.7 378.8 373.1 370.2 365.1 359.4 359 361.7 364.3 362.8 363.6 364.3 366.8 371.4 381.7 389.2 400.2 414.5 432.8 452.2 477.7 506.9 537.6 576 616.5 641.3 669.8 716.4 737.1 745 746.6 746.2 741.3 738.4 735.3 732.7 730.5 729.1 727.8 726.6 727.6 728.6 728 726.3 729 730.2 732.3 734.5 743.5 752.9 764 777.4 789.3 804.6 822.2 842.7 862.4 881.7 905.6 918.1 923.1 919.1 891.4 862.4 846.3 827.4 812 797.1 781.9 773 769.2 776.2 787.3 799.5 812 826.4 837.8 846.6 864.5 884 897.4 910 919.1 927.4 933.9 936.5 935.3 926.9 915.6 892.5 877.6 871.2 863.4 853 841.9 827.7 814.6 811.9 802.7 791.4 781 765.8 747.6 734.4 714.8 706.8 696.9 682.5 668.5 658.3 650.8 639.9 634.2 627.7 620.9 617.8 608.8 605.5 608.7 608.5 607.6 611.4 608 608.4 607.9 609.9 607.9 605.1 601.2 596.2 592.9 594.6 597.5 608 613.2 619.1 632.5 644.1 663.3 682.4 701.3 720.8 740.1 759 774.1 787.2 791 791.5 788.7 782.5 775.3 773.3 789 805.3 816.8 837.3 860.8 884.3 913.8 936.4 935.5 964.7 1001.2 1032.1 1047.4 1042 1037 1032.8 1027.2 1001.3 996.3 994.6 1010.8 1017.6 1006.2 988.2 977.6 978.4 970.7 970.2 976.7 992.9 1028 1051.9 1065.2 1072.1 1075.7
420.8 417.6 415.3 414.9 413.2 410.6 415.3 414.2 416.6 413.9 416.7 411.5 406.5 396.9 388.3 381.3 375.5 372.8 365.1 361.7 359 363.3 364 363.7 364.4 365.8 369 375.2 384.1 397 408.5 424.5 442.5 466.1 493.6 525.9 559.4 590.3 622.4 658.3 692.9 731.5 740.1 743.2 738.5 733.5 728.8 725.9 724.6 721.9 719.6 718.7 717.2 716.8 716.3 714.8 715 717.3 717 720.2 727.4 736.6 746 756.9 770.8 787.1 805.3 825 845.8 866.8 887.4 910.1 921 924.2 919.5 895.5 865.1 843.4 826.2 808 790.9 776.4 764.2 757.8 762 771.3 782.2 793 804.1 815.7 827.9 846.4 863.3 879.7 890.6 901 912.4 918.2 918.2 916 911.6 896.6 877.1 859.8 854.1 846.2 838.9 829.1 813.2 795.8 791.2 783 771 755 738.4 722.5 708.7 694.6 680.5 672.3 660.3 651 642.4 637.7 628.4 622 617.6 612 607.6 600 599.1 599.2 596.6 602.7 603.5 599.5 598.9 597.9 598.3 597.4 592.6 591.2 590.2 590.6 594.8 600.9 609 619.4 630.5 638.3 656 676.7 693.1 714.9 731.2 748.2 761.6 776.9 787.4 791.5 794.2 798.8 788.3 795.9 803.1 814.3 829.3 843.5 864.1 891 918.1 948.4 970.7 985.1 996.3 1017.8 1037.5 1046.4 1045 1038.4 1038.6 1032 1021.2 1014.4 1015.5 1018.2 1024.4 1014.3 996.2 989.6 981.2 978.6 977.1 984.1 1001.3 1032.1 1052.1 1064.1 1070.8 1076.3
425.8 423.1 423.4 420.9 421.2 420.2 424.6 426.4 430.1 434.2 434.1 423.3 425 425.5 404.1 389.7 380.1 374.4 367.4 365.3 361.9 360.1 363.6 364.1 363.7 364.3 365.7 368.5 376.4 391.7 405 416 430.8 454.1 481 509.6 539.3 578 609 652.4 703.3 727.8 733.7 730.9 730.9 725.8 719.9 716.3 714.3 713.3 711.3 710.3 708.9 707.1 705.2 704.8 705.1 705.8 707.2 710.5 718.9 728.6 738.1 749.2 764.7 784.1 805.4 829.3 849.3 873.7 893.2 909.7 920.5 920.2 915.8 898.1 869.6 844.8 826.3 806.3 788.7 772.2 760.3 746.9 749.5 756.5 765.8 776 785.2 796.2 807.6 825 841.3 859.6 873.1 884.4 895 899.7 901.8 899.2 893.7 879.4 861.2 845.7 832.9 829.8 822.6 811.5 796.7 782 769.3 760.1 744 727.8 709.8 698 684.3 674.1 657.5 650.3 640.9 632.5 627.1 624.1 617.5 609.3 603.1 599.8 601 592.9 594.1 591.8 594.9 595.2 595.4 594 592.1 594.5 587.2 589.9 588.7 587.3 586.8 589.3 594.8 604.8 615.5 626.3 639 652 672.3 690.4 706.3 722.8 733.2 756.2 769.9 779.9 790.7 796.4 807 805.6 818.7 821.8 832.9 844.4 862.2 878.2 893.6 921.8 943.6 963.9 983.6 993.7 999.3 1022.9 1038.8 1046 1047.2 1041.3 1040.6 1039.1 1033.1 1030 1027.6 1029.4 1028.8 1014.9 1004 995.3 990.8 984.3 983.7 992.4 1008.5 1035.4 1051 1061.7 1069.4 1075.5
433.1 430.9 431.5 431.8 436.5 435.5 440.8 442.2 447.1 457.2 456.8 442.5 431.8 439 418.3 402 389.2 377.1 367.9 364.3 363.3 363.1 361.6 360.6 362.1 363.3 363.9 365.4 368.2 379.9 394 410.3 424.4 444.3 469.2 497.4 528.4 559 602.4 642.4 677.3 716.3 726.7 717 718.4 716.3 711.1 706.8 705.2 704.2 701.8 701.8 699.1 698.5 696.5 696.2 695.9 696.8 699.2 703.9 711.6 720 731.6 744.9 763.5 785.8 808.8 835.2 859 876.3 892.6 905.7 915 915.4 912.2 902.1 878.3 849.1 824.9 805 785.6 768.9 755.1 742.2 739.8 745.5 751.4 760.4 767.3 779.2 791.1 805.4 819.5 838.9 855.6 867.4 877.5 881.7 883.5 881.5 875.1 862.7 845.6 830.2 811.4 808.4 802.7 790.7 781.2 766.8 746.4 734 717.5 701.2 687.4 675 663.6 652 641.9 633.4 626.6 619.3 613.8 610.5 603.8 596.9 593.3 589.4 586.6 588.3 588.3 587.6 588.5 585.8 589.4 588.4 585.9 588 580.7 582.5 583.2 583.9 587.5 592.7 601 611.4 623.6 637.5 652.8 668.5 686.7 702.2 718.2 730 747.6 761.8 774.6 785.3 795.6 805.7 810.3 820.7 835.4 851.4 855.2 871.4 887.7 909.5 935.7 949 959 972.7 985.8 993 1002.4 1024.9 1035.2 1043.2 1044.4 1045.5 1048.5 1053.6 1045 1039.7 1037.2 1037.4 1035.5 1020.2 1012 998.2 993.9 988.1 989.7 997.4 1013 1035.5 1050 1060.5 1068.3 1073.3
445.2 439.5 443.6 447.9 452.6 456.3 458.9 460.5 473.7 487.3 491.7 472.1 458.8 444.8 432.4 415.8 403.6 385.1 371.8 365.9 364.3 360.8 361.5 361.9 361.2 363.2 363.4 363.9 365.4 371.2 382.5 396.9 416.9 435.2 457.1 487.7 515.3 542.6 584.9 626.2 663.1 700.7 709.4 707.7 701.8 700 696.3 693.7 693.3 693.1 692.5 691.5 691.6 690.9 688.7 686.8 687.3 689 691.6 697.6 704.6 714.2 725.7 740.3 759.8 783.4 810.2 837.7 855.5 870.2 884.3 895 902.8 907.5 906.4 898.3 880.1 845.6 822.6 803.6 784.8 767 750.1 738.1 733.9 734 738 746.7 756.2 762.1 775.4 788 801.9 817.4 835.7 848.6 856.8 862.6 863.8 863.5 855.5 843.5 828.1 812.6 794.8 784.2 778.9 771.5 765.3 748.9 721.6 707.5 692.7 677.8 666.6 656.7 644.7 634.6 628.3 621.3 612.9 608.7 599.6 595.5 593.5 590.4 586.8 584.2 579.7 585.7 584.3 583.4 581.7 581 583.9 582.2 580 579.9 579.7 580.4 581.7 583.7 588.6 597.7 608.6 621.9 639.3 649.8 666.3 684.7 701.3 714.7 728.2 741 755.1 769.7 779.6 790 800.7 810.3 816.8 827.9 839.4 856.3 867.8 882.7 904.8 926 936.9 950.4 963.7 974.4 981.9 990.3 1001.2 1017 1030.7 1036.7 1043.1 1049.2 1055.3 1060.8 1057.1 1052.9 1048.4 1043.9 1034.9 1026.9 1016.6 1007.3 999.2 994.3 995 1004.5 1016.8 1035.4 1049 1060 1067.3 1065.2
460.2 457.1 461.8 466.1 473.8 481.4 489.4 497.3 503.6 523.2 545.5 534.7 503.9 474.2 459.4 436.1 415.8 396.5 379.8 371.9 366.6 364.1 362.1 362.2 361.2 363.5 363.2 364.4 365.2 368.4 377.1 387.7 404.3 428.6 447.3 470.9 501.2 528.9 565.4 609.5 656.7 674.9 690 695.7 688.4 687 686.2 687.5 687.3 689.2 689.6 688.7 685.4 683.2 681.5 678.9 679.2 681.4 685.7 692.4 698.4 708.4 720.9 737.3 756.9 781.4 805.3 826.2 842.7 856.4 869.4 879.3 886.8 892.1 894.1 887.8 873.8 842.8 818 801.4 782.1 764 745.5 732.9 723.3 724.9 728.1 733.5 741 750.2 760 773.7 786.3 797.5 813.3 826.6 836.7 841.3 842.8 840.8 832.8 823 808.2 795.5 775.9 759.2 754 746.5 738.4 717.9 700.2 684.3 669 659.6 650.5 640.8 630.1 621 612.8 607.1 603.9 593.2 586.2 586.3 585.5 579.7 583.7 579 578.2 581.1 580 580 579.3 577.1 576.3 577.9 577.7 579.9 578.9 581.2 583.4 589 595.5 605.7 618.9 634.5 651.3 662.4 681.1 699.5 715.1 727.2 740.7 753.6 763.6 773.6 783.1 792.9 804.5 811.7 822.1 831.5 847.3 863.6 882.7 898.2 913.9 925.3 935.5 946.2 959.4 969.8 977.1 990.8 997.7 1009.1 1024 1032.9 1041.9 1052.3 1061.3 1064.6 1066.8 1064 1058.4 1046 1035.2 1025.4 1015.7 1008.8 1005.5 1002.7 1002.1 1010 1021.1 1033.8 1051.3 1061.1 1067 1056.7
479.8 480.9 483.9 490 495.2 506.3 522.8 544.7 555.1 563.9 587 582.1 578 542.8 469.9 459.4 432.8 410.3 393.2 380.8 372.4 366.8 364.8 362.6 360.9 363.7 364.8 366.1 365.9 367.2 369.6 382.3 396.5 414.5 438 462.7 486.8 516.4 549.5 591.7 626.7 648.5 662.3 676.1 681.5 683.6 685.8 685.7 685.4 685.7 684.5 684.6 681 676.6 673.7 673.1 673.2 674.1 680.9 686.3 692.9 703.7 716.7 732.6 751.5 773 795.6 811.6 825.3 838.6 850.5 861 869.1 875.4 879.5 875.6 866 841.6 814.1 797.2 779.3 759.8 741.7 728 720.8 718.8 720.5 724.3 729.7 738.3 746.2 758.4 769.5 781.1 792.6 808.3 814.8 817.1 819.4 814.4 809.4 802.6 788.1 777.4 757.9 741.9 730.3 718 706.9 692.4 679.6 664.9 648.8 643.8 635.4 625.2 615.2 607.2 600.8 596.5 592.3 583.5 578.5 577.3 574.6 574.4 572.2 575.8 575.1 575.7 578.9 578 576.8 574.5 574.2 576 576.5 577.4 578.9 583.5 586.9 593.6 603.8 618.2 632.1 648.7 664.5 682.2 697.3 714.3 726.7 740.6 754.2 759.8 770.8 781.6 792.4 798.8 805.5 817.2 827 837.9 852.6 871 886.1 902.2 917 931.7 941.5 949.5 960.6 970.5 979 990.6 997.5 1006 1015.7 1025.7 1041 1053.5 1063.8 1069.4 1072 1071.4 1061.9 1047.7 1037.6 1027.7 1018.8 1012.7 1012.2 1010.8 1009.7 1015.2 1024.4 1038.6 1055.3 1065.1 1069.9 1057.4
506.1 508.3 518.1 520.9 528 549.3 568.4 595.5 608.2 605.6 617.7 628 616.8 574.3 498.4 476.8 451 432.5 412.2 388.5 378.8 371.9 367.2 364.6 363.2 363.1 366 367.2 366.3 366.8 370 380 393.1 410 427.7 448 472.1 502.1 533 568.3 598.4 618.8 650.6 668.7 681.2 684.1 681.5 681.8 681.6 680.3 679.4 678 674.6 670.4 667.6 666.9 668.2 672.5 676.1 681.7 689.1 699.7 712.4 728.1 743 762.6 782.1 797.9 809.7 822.3 833.1 844.7 853 858.5 862.7 863 856.3 835.2 809.5 790.7 772 755.4 739.2 724 715.2 709.6 711.6 712.5 718.9 725.8 735.8 744.6 752.3 764.4 774.8 784.3 792.1 794.1 793.9 788.8 785.9 781.1 766.8 754.1 739 720.1 703 692.8 682 671.9 660 648.2 636.7 628.5 621.4 614.1 603.6 593.6 589.6 585.3 583.2 578.5 572.5 574.2 567.3 569.4 566.8 569.4 571.6 572.4 572.7 573.8 573.9 575 574.8 575.6 577.6 580.5 578.9 584.5 592.5 602.2 615.5 632.3 647.4 661.4 678.2 692.6 714.7 725.7 741.4 751.9 763.1 772.9 781.8 792.9 799.2 805.9 812.2 820.9 833.5 846.6 855.9 869.2 883.6 901.1 922.8 937.7 945.8 953.7 962.5 978.7 988.5 997.3 1002.3 1007.9 1017.4 1028 1039.4 1051.7 1066.1 1072.5 1076.1 1074.3 1061.3 1049.4 1037.3 1029.1 1024.1 1021.4 1015.3 1017.1 1016.8 1027.1 1037.5 1046.7 1063.4 1073.4 1077.8 1076.5
530 539.5 550.6 559.8 567.8 588.3 608.6 641.3 653.8 648.7 646.4 636.1 610.7 554.7 510.3 483.1 459.4 441.5 420.2 399.7 385.3 376.4 370.4 366.3 364.6 362.4 363.4 366.1 366.2 366.3 367.6 376 387.3 401.7 422.3 438.2 460.3 488.4 518.5 545.2 571.5 605.3 641.8 659.9 673.8 680.9 679.5 679 677.5 674.4 673.8 671 669.2 665.8 662.2 661.2 664.5 667.6 671.5 676.8 683.5 693.5 706.4 722.1 737 753 770.2 785 796.3 807.7 819.4 830.4 838.9 845.1 850.5 850.4 844.3 826.9 802.3 783.4 766.3 750.3 733.1 719.6 711.2 705.3 703.1 704.2 706.5 713.1 722.5 729.9 739.3 748.8 756.5 763.7 766.7 765.4 768.4 766.3 763.6 758.5 746.2 730.8 717 702.6 686.1 672.1 664.6 654.5 642 631.9 625.4 612.6 609.6 599.7 593.7 583.6 583.1 578.9 577.1 573.2 566.7 569.7 565.8 567.8 565.9 567 568.3 568.6 572.2 571.1 580.9 578.2 574.5 576.9 582.1 590.9 590.5 597 604.3 616 630.4 645.4 661.7 676 691.3 709.3 725.3 741.8 757.3 767 778.5 789.9 798.8 803.2 808.1 813.2 820.1 828.3 845.1 855.3 862.1 871.8 886.8 906.6 927.3 944.5 951 959.2 974.8 989.4 998.2 1005.5 1005.8 1010.3 1018.7 1028.9 1042.3 1055.8 1067.6 1076.9 1078.2 1071.7 1060.7 1048.3 1040.5 1032.8 1029.8 1024.3 1022 1022.9 1033.7 1037.6 1043 1055.3 1073.8 1080.7 1086 1086.2
557.5 569.4 589.3 594.8 608.6 635.2 639.2 665.3 669.3 669.9 664.3 641.4 604.6 561.6 518.7 488.2 458.6 440.9 422.3 404.6 388.4 379.5 370.9 365.9 364.5 362.7 361.8 365.6 366.2 367 369 373.6 383.7 398.9 414.6 432.5 454.1 477.8 499.3 529.6 559 596.3 630.6 654.3 670.9 681.3 677.3 676.2 672.9 670.1 669.1 668.3 666 661.6 656.4 653.2 660.3 663.7 665.7 670.4 677.6 687.1 698.6 714.7 728.4 743.9 760 774.4 785.7 794.7 806.1 818.2 827.4 835 839.3 840 835.2 819 796.8 778 759.2 744 727.6 714.4 705.4 698 695.1 695.4 697.6 701 706.7 713.3 722.8 730.2 737.5 740 742.6 744.8 744.7 742.7 738.1 731 722.1 706.7 694.3 683.7 667.6 655 645.2 636.6 628.3 618.7 613.8 605.6 597.1 592 587.1 579.3 579 573.8 573.4 567.2 562 562.3 564.3 565.3 566.7 568.1 570.5 574.4 575.8 579 580.8 576.1 581.2 581.5 588.3 592.1 595 605 617.5 628.8 646.7 659.5 674.4 688.6 707.2 725.7 748.2 762 774.1 785 797.6 809.5 816 816.4 818.7 823.5 831.8 840 848.6 865 873.7 881.8 899.9 915.1 941.6 950 963.4 974.4 991.2 1000.5 1007.7 1010.1 1011.1 1016.3 1024 1034.3 1049.8 1059.7 1071.2 1081 1079 1069.9 1058.6 1052.6 1044.6 1040.4 1035.3 1031 1029.5 1037.9 1051.6 1050.7 1059.3 1063.9 1080 1086.5 1092.4 1094
576.9 596.8 611.1 618.9 641.5 661 664.9 675.2 681.2 678.9 677.5 667.6 622.8 580.8 541.7 502.1 475 452.8 430.5 414.5 393.6 380.6 372.1 367.9 364.7 364.4 361.9 364.5 365.8 367.7 369.9 374.3 382.8 395.1 413.2 430.3 448 470.7 494.5 520.7 548.6 579.1 625.3 648.9 670.5 671.9 675.2 675.8 670.1 668.7 667.3 665 661.3 655.8 651.8 651.9 655.5 658 660.9 666.3 673.1 681.1 690.9 707.2 720.9 735.3 748.6 762.8 774.9 786.8 797.1 806.6 815.3 824.1 828.6 829.5 826.1 813 791.7 774.9 754 737.3 723.1 710.5 699.8 693.2 687.6 686.6 687.6 689.1 692.4 698.2 706.3 713.9 716.9 717.3 717.2 718.3 718.5 717.4 712.1 703.5 693.9 684.6 673 661.3 649.6 641.2 633.9 624.8 615.7 608.7 602 596.3 587.3 587.3 578.1 574.8 572.7 566.2 565.9 560.4 561.5 564.1 566.1 567.4 567.5 571.3 574.8 573.4 573.7 575.2 578.8 579.4 582.6 590.9 594.8 599.4 608.9 619.6 632.4 642.5 661.6 675.4 686.3 704.9 723.5 745.4 766.2 778.3 797.6 806.9 822.1 835.1 837.7 837.6 840.7 841 849.9 856.9 864.4 875.5 887.7 895.3 916 927 940.4 954.9 968.4 988.4 1002 1008 1012.7 1017.1 1022.7 1027.7 1034.1 1046.1 1056.4 1065.1 1076.2 1083.7 1080.2 1071.7 1062.1 1055 1047.8 1045.1 1041 1039.2 1042.3 1050.6 1060.6 1064.6 1072.4 1079.1 1089.8 1095.3 1099.3 1099.9
591.1 610.4 624.9 642.3 651.8 659.5 666.5 672.3 678.2 696.3 697.9 679 634.4 612.3 584.7 546.1 498 469.5 443.1 419 398.1 384.6 376.7 369.2 366.4 365.1 362.8 364.6 367.1 367.4 369.1 371.9 379.1 390.3 406 422.2 440.4 461.5 485.4 510.1 539.8 568.2 607.2 638.9 660.5 670.8 672.8 674.3 671.2 668 667.4 661.6 658 652.3 644.8 646.6 650.5 653.5 656.6 660.9 667.1 674.5 684.8 699.5 712.8 726.1 738.9 752.6 763.9 775.6 787.9 798.1 805.7 813.2 818.1 818.5 817.1 804.4 783.7 766.2 747.6 732 717.2 706 693.8 686.6 680.5 680 679.1 679.7 681.6 685.9 692.7 696.5 697.6 696.5 695.9 692.5 693.5 690.3 685.1 680.1 670.6 662.6 655.1 648.9 637.3 626 619 613.3 607.3 597.3 591.8 583.6 578.3 582.9 571.8 567.3 565.9 564.6 563.1 559.7 566.4 561.5 562.7 568 564.9 566.2 570.8 570.2 572.7 577 582.3 589.2 592.2 598.9 605.1 612 620.8 632.4 645.6 658.5 674 686.6 703.6 722.1 744.3 763.8 780.3 801.8 814.1 823.9 844.9 864.9 866.7 873.2 869.6 871.4 876.6 882.7 890.5 889.5 894.8 908.8 927.4 939 945 963.2 988.8 1006.1 1009.6 1014 1022.6 1027.6 1035.9 1039.5 1050.7 1056.5 1065.7 1075.6 1084.2 1086.4 1083.9 1076.9 1065.6 1058.8 1054.6 1052.9 1049.5 1050.2 1058.4 1067 1078.2 1075.9 1082.3 1087.8 1096.3 1102.1 1106.1 1106.2
600.5 616.3 630 640.8 652.9 657.2 667.4 667.3 674.7 694.2 697.4 694 678.1 654.7 638.3 553.8 518.7 485.6 457.2 429.5 408 393.2 382.2 374 369.2 366.1 361.9 364.5 365.7 367.3 368.5 370.8 375.1 384.5 399.9 419.9 436.2 457.5 476.1 499.1 527 559.8 592.5 626.2 656.4 668.5 675 672.6 669.7 665.9 664.8 660.1 653.7 648.4 643.1 643.5 646.1 649.3 650.5 654.7 661 668.8 678.1 689.6 704 718.2 730.6 741.8 752.7 766.8 777.9 788.1 796.4 802.5 807.9 809.4 806.3 795.7 773.6 758.2 741.1 726.1 712.1 700.2 688.3 682.1 676.3 673.5 671.3 671.1 672.6 676.6 678.5 680.7 678.2 675.7 676.4 672.4 671.1 667.2 663 658.9 649.7 642.7 639.4 630.7 623.1 613.3 607.8 602.9 594.5 587.4 582.8 574 571.9 570.7 568.5 563.5 563.5 559.3 562.9 558.8 562.5 560.4 564.4 565.5 569.8 569.4 573.8 572.8 575.9 581.1 589.7 592 600.5 608.5 616.6 622.6 633.2 643.6 662.7 671.3 686.7 700.6 719.8 742.6 763.9 782.1 804.1 822.3 833.3 845.5 868.4 886.9 896.2 906.8 903.2 905.2 911.7 920.3 918.8 922.6 923.9 917.8 929.5 941.3 961.6 984.3 1010 1022.8 1025 1027.1 1033.6 1041 1047.8 1051.9 1057.3 1063.4 1073.1 1085.4 1092.8 1091.9 1087.7 1078 1073.8 1064.5 1061.3 1061.4 1062.2 1066.2 1072 1078.1 1086.3 1089.2 1094.5 1100.6 1105.9 1108.8 1110.9 1109.4
603.4 618.1 633.6 640.3 649.6 659.4 663.7 669.5 674.3 682.7 698 695.3 684.5 671.7 631.4 583.8 534.1 496.1 463.9 438.1 417.3 398.1 385.7 376.9 371.2 370.5 364.2 363.7 365.8 366.4 367.7 369.2 372.3 378.7 388.3 407.7 425.6 446.1 466.9 489 518.7 548.5 580.6 621 654.8 673 675.3 671.4 669.7 665.7 660.7 656.7 648.8 644.5 640.5 637.1 641.6 642.3 644.8 648 653.9 660.6 671 682.8 695.3 709.7 722.8 734.3 745.6 758.6 767.6 777.8 786.9 792.9 797.5 798.5 795.7 785.2 763.8 749 734.6 719.4 706.5 693.1 683.3 676 671.5 660 664.7 663.9 664.3 666.4 666.8 662.1 661.4 658.8 657.3 653.6 651.9 648 643.4 637.3 633.3 628.9 623.8 617 612.5 601.7 596.5 588.5 581.2 576.3 579.8 565.1 566.4 569.4 566 559.2 561.1 557.3 562.1 557.8 559.3 559.8 560.4 563.2 574.2 575.4 574.7 577.5 580.4 586.9 596.8 603.4 608.3 618.1 630.1 636.2 647.8 659.4 673.7 684.4 699.7 715.6 740.5 762 781.7 802.5 824.5 840 853.5 869.6 891.4 907.9 922.9 929.3 934.1 936.3 947.2 963.7 960.2 949.1 948.8 944.1 943.2 960.7 986.8 1005.5 1037.7 1046.2 1044.4 1045.9 1050.3 1053.8 1058.7 1062.8 1065.5 1070.7 1081.8 1092.9 1100.8 1095.7 1092.2 1084.2 1080.7 1072.6 1072 1071.5 1075.4 1077.8 1086 1093.7 1100.1 1103.8 1108.3 1108.8 1111 1112.6 1112.2 1109.8
603.6 617.9 635 647.4 658.7 660.7 664.5 670.5 676.3 687.7 691.4 694.4 684.2 658.2 621.4 588.7 559.2 515.7 475.3 450.9 427.2 403.7 389.7 379.1 372.1 366.6 366.7 365.3 366.8 367.2 367.4 368 369.8 374 383.5 397.5 415.8 431.5 458.6 481.8 511.3 540.3 576.6 612.5 660.1 678.3 673.5 668.6 666.1 661.1 659.7 651 643.6 640.9 639 631.1 636.9 636.7 638.1 641.1 648.4 657.2 665.9 675.3 686.5 699.8 712.3 726.1 740.2 752.3 762.5 771.3 779.1 784.7 788.4 788.3 784.1 774.6 755.4 737 723.4 713.4 701.3 689.6 679 670.3 664.6 654 655 655.1 654.5 653.7 649.8 649.2 647.7 646.2 641.6 638.1 633.4 631.3 627.2 622 618 612.9 608.1 603.1 597.4 590.7 584.2 577.2 571.9 567.6 572.5 559.2 560.9 561.3 561.4 555.1 561.4 556.3 560.4 568.7 565.6 563.4 564.7 568.7 575.7 575.3 582.4 586.5 590.8 599.4 604.6 614.6 623.9 625.1 636.9 647.1 658.6 669.7 684.2 695.6 714.5 734.3 757.8 777.9 797.6 818.2 839.4 856.7 871.7 888.9 906.6 927.7 940.8 947.5 957.1 960.6 970.8 993.3 1003.2 995.7 990.1 981.3 973.3 985.7 1007.2 1031 1049 1061.4 1066.3 1067.1 1068.6 1069.1 1072.3 1075.4 1076.3 1079.1 1088 1099.2 1103.6 1099.9 1096.2 1090.8 1084.7 1081.7 1081.5 1084.3 1087.4 1090.8 1096.3 1106 1110.3 1114.2 1115.1 1115.8 1115.4 1114.2 1111.3 1105.9
604.9 620.6 637 649.3 656.8 664.6 668 672.3 672.6 682.3 688.7 689.9 690.7 677.3 652.5 622 563.7 520.8 486 453.7 429.9 409.5 391.6 382.3 375.9 369.4 368 368.4 365.1 367.7 369.3 368.2 370.3 375.1 384 396.2 412.1 434.3 453.6 477.3 505.2 536 571.2 618.6 666.5 677 675.2 668.1 665.2 658.6 651.5 650.1 640.2 637.4 636.4 629.7 629 631.9 631.8 636.9 643.7 651.2 660.3 670 679.1 690.6 705.3 718.8 731.6 745.6 756.5 764.6 772 776 778.1 777.2 771.1 762.1 748 729.7 716 705.3 696.5 686.2 674.6 665.1 657.6 651.1 646.1 643.2 642.9 640.2 638.4 635.1 634 632.5 628.2 623.9 621.5 617.3 612.7 606.8 601.8 596.9 595.1 592.5 583.7 579.9 575.7 570.4 565.9 562.1 558.2 556.6 559.4 562.3 554.9 555.7 554.4 564.9 564.4 571.5 565.7 565.2 569.4 572.5 574.8 581.7 589.1 598.5 603.1 613.6 614.8 625.1 632.3 639.7 647.7 655 667.9 679.4 695.2 708.1 728.6 751.3 771.5 791.4 810 831.4 851.7 868.1 884.7 903.3 920.8 938.5 954.3 965.4 973.8 979.1 994.8 1013.3 1017.9 1017.6 1018.9 1019.1 1021 1017.8 1034.1 1051.4 1058.7 1065.7 1072.2 1077.7 1082.2 1087 1087 1082.1 1083.5 1088.8 1096.7 1103.7 1106.5 1103.8 1099.8 1097.1 1093.4 1091.5 1091.5 1094.1 1096.2 1101.5 1108 1115 1121 1119.6 1119.2 1118.5 1116.8 1114.4 1111 1073.8
611.7 625.8 640.3 649.9 662.8 664.9 670.4 678.6 681.1 686.5 690.5 693.4 688.2 680.2 658.9 609.5 559.4 522.1 486.9 457.3 438.5 415.6 395.4 384.4 377.7 371 368.4 366.5 367.9 367.6 368.4 368.5 370 374.4 380.8 387.9 409.4 427.7 449.5 473.2 501.3 531.7 564.6 613.3 669.3 676.4 671.3 666.5 660.6 658.3 651.2 643.9 638.5 634.1 630.7 625.6 629.3 626.3 629.8 630.8 636 644 653.5 663.5 671.8 684.8 699 713.5 727.8 740.6 750.1 758.7 763.7 766.6 767.2 765.2 758.5 747.3 730.8 716.5 704.6 696.9 687.8 677.8 669.3 660.1 652.4 645.1 639.4 634.2 631.8 629 626.7 623.6 621.3 619.9 615.8 611.1 608.1 604.1 599.3 596.3 590.6 585.8 582 576.7 570.9 566.5 568.3 563.8 557.2 556.3 556 552.6 551.9 554.9 553.3 554.9 559.3 566.9 566.4 568.6 571.7 576.9 580.5 583.7 592 592.2 604.7 613.1 615 620.9 627.1 633.4 644.4 650.5 656.1 665.2 676.9 689.3 702.5 721.8 743.3 764.6 782.6 801.5 818.1 836.1 857.3 881.2 897.5 915.3 929.6 950.5 964.5 975.3 984 997.9 1011.2 1020 1026 1030.2 1032.8 1035.6 1038.2 1040.8 1046 1054.3 1061.6 1068.1 1074 1081.1 1087.2 1090.5 1091 1088.6 1088.4 1093.8 1099.8 1104.3 1106.5 1105.1 1101 1101.7 1102.1 1101.7 1101.7 1103.6 1107 1111.1 1117 1122.4 1124.4 1122.9 1120.1 1119.2 1116.5 1113.7 1109.3 1039.4
614.9 626.9 643.4 656.6 667.1 674.2 678 676.8 683.5 686.1 686.8 687.6 686.6 678.4 656.2 604.7 559.4 524.6 492.9 463.5 440 418.7 396 384.6 375.2 371.5 369 366.3 368.2 368.3 368.4 368.2 371.1 372.6 378.5 387.2 400.3 425.1 440.4 467.2 497.6 529.3 564.4 616 659.8 669.3 665 661.1 662.7 653.3 645.6 640 632.5 628.7 626 621.2 620 625.2 626.1 627.7 630.5 640.1 648.7 657.3 665.2 678 694.4 709.8 723.4 734.6 744.4 751.5 755.5 758 757.4 753.9 746 733 715 703.3 694.2 686.1 677.7 670.2 663.8 656 648.6 640.4 629.7 624.3 623.2 621.2 618.4 615 612.3 609 603.3 600.2 597.4 595.6 589.8 585.4 582 576.1 571 565.3 562.3 556.3 555.3 559 553.7 552.7 553 551 555.4 549.9 550.6 557.5 559.7 568.2 567.1 569.8 572 580.7 587.1 590.3 597.9 607.8 608.7 618 625.2 631.4 639.7 646.5 652.1 660 667.1 677.1 685.6 697.2 710.4 734 758.2 776.4 791.4 807.4 826.8 846.1 868.8 890 904.7 921.2 942 959.4 971.1 985.4 995.7 1008.9 1018.8 1025 1031.7 1037.5 1041.2 1043.8 1046.2 1045.4 1049.6 1054.7 1060.8 1066.8 1072.7 1079.1 1084.4 1087.9 1089.5 1089.7 1091.7 1094 1097.8 1102 1104.6 1104.2 1101.7 1105.4 1108.8 1111 1111.1 1111.3 1114.4 1119.1 1124.2 1128 1129.7 1128 1122.3 1120 1115.7 1112.7 1084.5 1024
615.7 633.1 642.3 656.8 669 686.3 686.8 680 686.4 682.9 679.8 678.2 676.8 673.6 646.1 619.2 568.9 531 496.1 465.9 438.4 416.1 396.5 385.5 376.9 370.2 368.2 364.3 366.2 368.5 368.7 367.1 368.6 371.7 377.5 390.1 405.2 425 437.6 465.1 495.2 527.1 561.1 614.6 654.9 661.2 657.7 656.1 651.5 646.2 639.7 634.4 630.1 625.7 623.9 621.2 617.4 621.9 622 623.9 625.8 631.4 642.9 652.2 660 672 689.7 704 719 731.7 741 746.1 747 748.6 744.6 740.7 733.2 714.1 700.3 691.1 686.2 678.3 670.6 663.4 655.7 648 640.6 634.2 626.3 615.7 616.3 612.4 608.8 606.6 604.5 597.7 593.2 590.6 589.5 586 581 577.3 574.2 568.1 564.3 559.7 554.3 552.5 552.6 556.3 547.6 550.9 546.2 547.8 548.1 557.5 558.4 560.4 564.4 568.8 575.3 579.9 585.3 590.9 597 603.7 612.8 618.1 621.6 624.6 634.5 640.9 649.2 654.6 660.4 666.5 677.3 683.1 693.6 706.6 722.3 743.7 763 781.3 797.3 813 833.3 854 875.4 892.3 911.4 930.2 948.8 964 978.1 992 1004 1015.3 1023.3 1030.4 1036.8 1042.3 1047.2 1049.5 1050.3 1049 1050.8 1054.3 1058.8 1064.3 1069.4 1074.2 1078.5 1082.4 1084.7 1086.7 1088.8 1090.8 1094.3 1098.5 1101.4 1103.1 1105.2 1109.6 1114.2 1117.5 1117.6 1119.2 1121.7 1125.5 1130.1 1134 1134.5 1131.6 1126.5 1120.9 1115.7 1103.7 1060.7 1011.7
625.7 632.9 647.7 664.9 674.2 692.1 694.1 686.1 686 682.5 680.9 672.5 667.1 670 663.4 640.6 602.7 548 503.1 468.9 439.7 419 401.8 387.7 379.1 371.8 369.1 366.1 365.2 368.2 367.3 365.3 367.6 370 378.6 389.4 407.6 420.7 437.6 463.5 492.5 523.5 557.7 604.4 641.2 653.5 652.7 652.2 647 641.5 634.9 629.6 625.9 621.7 618.7 614.6 614.8 617.5 619.7 619.3 620.6 625.9 637.4 646.4 655.9 668.3 680.6 698.2 712.8 725.7 734.3 742.9 740.6 739.7 731.3 723.3 716 699.6 688.3 681.6 676.5 669.7 662.1 654.7 647.5 641.2 633.9 626.3 618 613 606.5 606 601.5 599.7 594.6 590.3 587.7 583.7 581.5 578 573.1 569 566.1 561.2 557.6 553.3 548.8 545.1 544.8 546.3 543.8 543.9 552.8 552.2 552.6 558.2 562.1 569.7 572.4 578.3 583.1 589.7 597 605.8 608.9 615.7 621.8 630.1 631.6 640.4 645.4 652.4 656.2 661.7 669.3 676 685 692.5 704.2 717.7 735.9 756 772.6 787.7 802.5 819.3 838.1 858.5 874.2 894.5 916 935.9 952.8 968.3 983.6 997.5 1008.3 1017.7 1025.6 1032.2 1039.2 1045.1 1050 1052.9 1053.4 1052.8 1051.5 1053.3 1056.8 1061.4 1064.9 1068.8 1072.5 1076.2 1078.9 1080.5 1081.7 1084.8 1090.5 1095.6 1099.2 1102.6 1105.9 1111.5 1116.8 1120.3 1122.1 1123.9 1127.9 1132.8 1137.3 1142.1 1144.7 1134.5 1124.8 1120.1 1115.2 1079.3 1039.5 1003.2
625.1 635.2 648 666.6 679.7 691.4 697.8 693.1 689.6 686.5 680 669.3 663.8 661.6 657.5 646.1 612 575.1 521.2 476.2 447.5 419.9 403 389.1 380.9 373.9 371.8 365.9 366.3 365.2 365.7 365.8 367.8 372.8 379.8 389.9 403.2 418.8 436.2 459.7 489.1 518.8 551.1 595 634.9 646.4 646.8 644.2 640.1 635.1 631.8 626 621.4 619.4 616.4 609.8 615.2 613.5 614.7 613.5 616.8 623.6 632.4 643.4 654.3 666.2 680.2 692.6 706.3 720.4 731.3 738.7 733.9 728 719.6 712.9 691.3 684.3 674.5 669.2 662.3 658.5 654.7 646.9 641.2 631.7 626.5 621.5 615.1 607.3 598.2 598.8 595.9 591.7 588.5 584.7 583 579.4 574.9 572.7 568.3 562.6 558.3 554.7 550.5 547 544.4 542 542.5 542.7 544.3 553 557.3 560.4 561 563.2 565.7 570.7 580.2 589.3 593.8 599.2 606.1 615.9 620.8 626.9 632.7 640.1 641.8 646.7 652.1 656.8 662 666.5 675.4 681.1 690.7 702 715.5 731.4 749.3 765.6 780.8 793.6 811.6 827.3 843.3 859.4 877.2 899.2 922.4 940.6 957.6 971.2 985.6 997.3 1008.8 1018.1 1026 1032.9 1039.9 1046.1 1051.7 1053.7 1053.4 1052.5 1051.4 1052.7 1055 1057.8 1060 1063.5 1066.7 1070.6 1073.3 1073.4 1076.4 1082.3 1088.3 1093.2 1097.9 1102 1107.2 1112.4 1117.8 1122.4 1124.8 1127.2 1130.5 1135 1138.9 1144 1146.7 1142.3 1131 1115.3 1078.1 1053.3 1024.5 990.7
626.6 635.7 652 672.1 681.5 690.5 701.2 701.3 694.8 683.7 676 669.6 660.4 656.1 650.3 636.6 616.9 589.8 533.1 482.9 452.7 427.9 406.5 391.7 380.2 373.4 368.7 367.3 365.8 366.8 365.8 366 369.9 374.9 380.1 391.4 403.6 416.8 435.4 456.6 483.6 514.9 544.7 596 626 636.8 639 638 635.5 630.3 627.5 619.8 615.4 612.5 611.5 606.7 607.4 609.9 609.9 608.4 610.5 619.4 629.9 640.2 647.4 659.3 672.2 687.4 701.3 713.6 724.6 728.7 726.1 718.3 711.1 692.4 678.6 672.4 664 656.2 654.2 651.7 646.1 641 634 623.1 619.3 611.9 606.4 599.3 591.1 591.1 588.3 585.2 581.5 576.8 576.6 573.4 568 566 560.1 555.1 551.2 547.7 545.4 542.8 540.3 541.1 542.2 540.4 542.8 547.5 560.9 562.5 564 568.6 576 581.7 587 598.5 607.2 612.1 619.9 625.9 632.7 637.8 641.4 647.7 648.8 648.5 654.6 658.7 662.5 668.5 677.5 685.6 698.5 711.5 724.6 744 758.8 773.7 790.2 804.8 822.7 837.5 851.1 871.1 885.6 906.8 926.7 945 960.1 974 986.4 997.5 1007.9 1017.8 1025.1 1031.6 1038.7 1045.1 1050.2 1051.3 1050.1 1049.2 1050.2 1051 1051.8 1051.4 1051.4 1057.9 1062.9 1066.9 1069.8 1071.9 1075 1081.5 1087 1092.5 1096.9 1101.7 1107.1 1112.6 1118.1 1123 1126.6 1129.3 1131.9 1134.7 1137.6 1138.6 1139.4 1136.6 1110 1071.8 1043.8 1025.2 1010.7 985.8
630.9 639.4 652.6 671.4 679.8 693.1 699.7 703.1 696.5 679.9 672.3 667 661.1 656.1 644.3 626.2 605.5 565.3 523.1 485.1 455.2 429.7 408.6 393.8 381.1 373.1 369.9 369.3 368 367.1 367.5 367.5 372 377.3 381.9 391.7 401 417.7 437.1 457.4 481.9 513.4 544.8 589.2 621.7 632.9 632.1 628.3 628.7 627.4 621 615.3 610.6 606.1 603.7 600.5 603.7 605.8 606.6 606.8 607.9 614.8 624.4 631.9 640.8 652.1 666.4 678.2 691.1 704.9 716 717.5 713.7 705.6 693.8 682.3 670.9 661.8 653.1 649.9 647.1 642.5 637.8 627.8 622.5 619.7 615.3 607 598.8 592.4 587.8 579.1 580.9 577.2 571.4 568.2 567.3 564.5 562 557.9 552.8 548 548.4 542.1 540.5 539.5 537.7 539.4 541.4 545.4 546.9 549.6 559.2 569 574.3 577.6 584.9 592.3 605.1 616.3 622.8 632 636 641.3 647.6 648.1 649.7 652.1 653.7 653.2 654.6 657.3 656.8 665.8 676.2 691.3 704.4 719.1 735.2 752.8 767 786.9 805.5 819.9 834.5 849.8 865.9 881.7 899 916.3 932.9 948.4 962.7 975 986.8 996.1 1005.1 1013.6 1019.9 1027.2 1035.4 1042.7 1046.3 1045.7 1044.3 1044.8 1045.9 1045.7 1041.3 1041.2 1051 1058.5 1063.9 1066.5 1069.1 1072.3 1076.8 1082.4 1087.5 1092.5 1096.8 1101.7 1106.8 1111.6 1116.6 1122.4 1126.1 1128.8 1132.2 1134 1134.2 1133.8 1133.9 1108.8 1072 1038.8 1015.8 1001.5 994.8 989.1
626.5 641 656.3 672 683.6 697.5 696.7 695.7 684.8 679.9 671.3 664.6 655.6 650.5 638.6 619.7 585.9 549.8 515.8 485.4 453.1 430 411.8 394.4 383.8 377.3 371.4 370.4 370 367.5 366.4 368.9 373.7 379 385 392.1 403.9 422.9 435.5 455.5 480.8 510.5 544.1 591.8 619.9 625.9 624.4 623.2 623 618.4 615.1 608.7 605 600.3 596.7 597.8 600.4 600.9 601 599.8 603.6 607.9 617.6 627.9 636.6 647.3 658.4 670 684.7 695.9 701.7 703.3 700.9 691.6 680 666.9 658.9 651.4 644.3 641.1 637.9 633.7 628.1 619.2 617.2 612.3 607.8 602 592.4 583.6 581.6 576 573.3 568.8 565.2 561.4 559.5 556.6 553.9 552.9 547.9 545.8 543.4 538.9 539.2 537.4 540.8 542.5 547.7 549.3 554.1 559.5 563.5 574.6 582.3 590.6 599.1 612.5 623 636.2 640.4 644.7 651.2 656.7 659.9 663.1 665.1 664.8 662.4 661.6 662.2 653 651.1 665.8 682.5 698.7 715.2 731.1 745.6 760.5 776.8 797 814.6 831.9 847.4 865.5 881.5 897.1 913.9 925.1 937.8 950.5 963 975.4 984.5 992.1 998 1005.2 1011.5 1019.8 1030.1 1036 1035.8 1035 1035 1036.2 1037 1033.1 1030.4 1044.7 1053.8 1060.4 1065.6 1068.6 1070.5 1074.9 1079.6 1083.7 1089 1092.9 1096.9 1101.9 1106.1 1110 1114.9 1120.4 1124.6 1126.7 1128.4 1129.7 1129.9 1128.5 1116.1 1063.5 1033.3 1010.7 993.7 979 973 963.2
628 642.5 653.1 672.4 686.5 697.7 692.9 689.5 684.8 680.7 665.8 656.3 644.6 636.5 626.4 610 571.5 536.8 510.1 484.8 455.5 431.6 412.4 394.9 385.4 378 372.8 370.9 370.9 366.6 368.7 371 375.3 381.8 386.3 394.9 408.2 424.1 441.2 460.8 482.4 510.6 546.6 597.5 617.4 619.3 617.6 616.5 616 615.1 610.9 606.6 602.2 597.3 593.5 589.7 593.3 593.1 593.1 595.6 597.7 606.5 611.1 620.8 628 637.1 649.8 662.4 671.8 686.1 689 687.1 682.5 676.7 662 655.4 648.1 640.4 636 632.4 628.7 624.8 619.7 613.2 606.7 602.9 597 592.5 584 578.3 574.3 569.1 565.6 560.4 558.5 554.6 553 548.2 545.6 547.3 545.4 541.5 538 537.7 535.9 540.9 543 545.9 550.2 554.8 559.9 566.5 576.4 585.9 597 605.9 618.3 631.9 647.2 657 661.3 666.1 668.1 671.8 677.7 677.2 680.1 679.6 676.1 667.7 664.7 651.2 645.8 664.5 679.8 696.3 718.8 740.3 755.6 773.2 786.1 804.3 822.5 841.8 863.7 880.9 895.9 911.2 922.9 933.6 942.7 954.2 962.5 972.7 977.8 982.2 986.3 991.1 997.2 995.9 1012.1 1017.4 1019.4 1020.6 1022.3 1021.7 1021.6 1014.3 1031.8 1046.6 1054 1060.4 1065.2 1069 1071.5 1076.3 1080.8 1085.1 1089.1 1093.7 1097.3 1102.8 1105.7 1109.8 1113.5 1118.7 1122.1 1123.8 1124.2 1124.8 1124.8 1123.7 1094.5 1040.7 995.5 972.9 961.3 953.1 941.6 937.4
623.5 646.1 657.4 671.7 685.3 691.2 684.7 688.3 686 676.2 663 650.8 640 633.2 624.5 607.9 578.7 538.1 507.2 475 449.5 428.3 410.5 395.3 385.4 378 373.4 370.2 367.3 370.9 372.1 371.7 376 382.3 389 395.8 410.3 425.5 444.9 464.1 487.8 517 552.5 610 616 622 620.3 617 612.8 607.3 606.4 603.4 600 598.4 593 588.8 589.6 590.4 590.4 591 592.7 597.8 607.7 614.3 623.7 630.5 641.6 651.6 662.9 672.2 674 674.5 666.8 656.5 648 640.8 635.3 632.3 627.3 623.1 619.4 617 611.7 607.9 600.9 594.6 592.4 584.5 575.9 571 568 563.7 559.9 557.1 552.8 548.7 551.4 549.6 544.3 543 544.3 541.6 536.2 533.7 538 541.8 546.8 550.7 555.3 564.9 571.1 579.6 591.6 604.6 613.3 623.5 635 648.6 663.2 675.7 694.5 684 686.6 686.7 692.3 694 694.5 689.6 687.3 680.4 667.8 653.7 638.9 645.5 656.5 675.6 699 735.8 756.1 779.9 795.1 810.8 831.2 854.2 872.4 890.8 904.9 916.6 929.6 937.5 945.1 946.8 956.2 956.6 954.7 954.4 952.2 954.6 952.9 961.6 975.3 992.4 996.5 991.2 994.2 999.5 1000.8 1014.8 1033.4 1044.3 1053 1058.5 1062.9 1067.8 1073.4 1078.5 1082.2 1086.2 1089.1 1095.6 1099.7 1103.8 1106.8 1110.2 1113.7 1118.4 1121.1 1120.6 1119.2 1120.2 1120.9 1117.8 1076.8 1020 967.6 939.1 923.4 917.4 905.9 904.7
622 639.9 655 665.5 680.9 678.7 678.6 677.7 678.1 672.1 661.8 652.1 641.2 631.8 622.8 610.9 589 553.4 512.8 481.7 453.2 428.5 409.1 393.2 384.5 378.4 373.3 370.6 371.8 371.8 372.3 372.1 377.3 382.4 390.2 399.1 411.9 428.7 448.7 467.9 499.1 529.4 559.2 609.9 621.8 620.8 616.9 611.9 608.3 602.6 600.3 597.4 594.3 592.3 589.2 585.3 581.9 583.9 587.3 588.5 592.6 598.2 602.1 609.1 616.9 624.2 630.8 640.4 649.4 659 656.5 654.2 650.8 643 637.4 631.4 627.5 622.1 617.6 614.2 611.4 607.2 603.1 601.2 594.9 588.8 587.3 576.1 568.1 561.3 557.8 556.7 554.8 553.2 550.9 548.8 550.3 548.2 544.6 544.3 543.6 533.5 531.1 534.4 537.9 543.5 548.3 555.4 562.3 571.1 580.2 591.4 602.4 616.7 629.8 641 652.3 665.3 695 714.6 724.6 722 715.4 710.8 709.8 710.1 708.3 703.8 702.1 694.1 673.6 655.8 640.7 633.7 643 659.2 680.3 704.4 727 755.7 794 801.9 824.9 843.7 865.6 883.1 902.9 908.2 908.7 907 907.4 907.7 915.3 921.2 919.9 912.5 915.3 916.5 923.3 936.1 948.1 953.4 958.2 959.6 965.5 970.7 976 1012.6 1029.6 1039.3 1046.7 1052.4 1058.7 1066.6 1074 1080.5 1086.9 1089.4 1091 1096.2 1101.2 1103.2 1108 1111.4 1115 1121.3 1124.7 1125.8 1118.7 1118.1 1113.4 1087.1 1042.3 991.2 939.2 910.7 893.5 881.1 866 866.4
622.9 636.5 651.7 664.9 668 669 671.4 674.1 681.1 677.3 672.1 664 650.8 640.3 628.2 612.2 585.4 554.5 513.9 484.4 459.7 435.3 412.1 393.7 384.5 378.5 373.7 368.1 371 372.1 373.1 373.2 377.4 382.7 391.1 401.9 415.1 433 451.8 474.7 505.7 542 574.8 612.7 619.9 618.8 613.6 610.1 606.8 604.3 598.2 595.3 591.2 588 587.4 589.5 577.3 580.1 585.4 587.5 589.4 589.3 595.6 601.7 608.4 615.4 623.2 630.9 639 644.3 642.9 639 636.6 631 624.8 621.7 616.1 613.1 609.6 604.8 603.4 599.8 595.8 591.8 585.3 580.7 574.3 566.4 559.1 554.4 553.1 552.2 551.7 551 548 542.1 541.8 543.5 533.9 536.7 536 531.8 534.6 538.8 541.9 549.4 557 563.7 570.2 583 592.2 604.5 617.1 632.1 648.6 661.8 672.6 695.6 723.6 742.1 747.5 753.3 750.8 737.6 734 726.2 724.3 720.9 713 703.2 690.7 662.9 643.2 632 628.9 644.4 662.4 681 701.5 730.3 756.1 771.4 788.6 806 819.8 831.5 838.1 866.9 854.6 856.7 863 868.7 872.3 879.2 885.9 885.4 889.3 895.2 902.7 912.2 917.3 922.5 927.9 934.4 943.7 945.9 978 1005.9 1019.9 1026.5 1033.9 1040 1054.4 1063.9 1073 1080.4 1084.7 1085.4 1087.6 1091.9 1094.4 1101.7 1107.1 1111.9 1116.4 1122.4 1124.2 1130.3 1127.3 1125.9 1086.1 1055.7 1022.7 971.3 924.4 884 866.6 852.7 838.1 832.9
619.4 631.8 645.8 655.3 660.6 663.9 666.9 668.7 680.2 686 675.4 671.1 651.4 642.9 628.1 610.5 585.3 554.2 512.4 482 455.9 430.7 412.4 397.3 384.1 376.5 370.2 369.1 371.3 372.1 372.2 373.6 377 384.6 391.8 402.5 416.4 433.9 453.4 480 514.9 554.6 594.6 621.8 624.9 619.6 613.8 611.4 609.6 603.8 594.8 587.5 584.3 584.3 586.2 583.8 573.4 580.2 583.5 582 581.8 586.6 591.9 594.2 600.4 607.5 612.7 619.8 626.2 629.5 627.1 624.3 621.6 617.9 613.8 610.5 607.4 603.7 600.6 596.8 594.7 589.6 585.5 579.7 572.2 567.6 561.3 557.3 551.7 546.3 544.4 544.7 549.2 548.1 547.3 539.9 535.1 529.4 528.5 528.2 531 535.3 539.7 546.2 551.7 558.1 566.4 572.3 583.3 593.1 607.7 618.3 634.6 650.9 665.4 681 693.9 713.5 739.6 754 769.3 775.6 779.9 766.1 758 750.8 741.2 735.7 728.2 716.8 698.5 673.8 651 636.9 624.9 627.9 639.3 658.6 680.8 700.2 716.1 730.7 739.1 751.2 772 784 801 809.4 814.8 820.4 829.5 836.7 840 846.1 862.4 872 867 866.1 875.8 882.1 893.7 896.8 904.2 916.5 920.1 946.4 975.5 989.9 1001.3 1010.4 1019.3 1034.9 1048 1058.4 1064.5 1066.3 1068.9 1072.4 1075.7 1081.3 1084.8 1097.3 1105.7 1111 1113.3 1115.3 1119.2 1122.3 1126.9 1128.3 1072.3 1045.1 1005.4 952.5 905.1 873.3 846.6 830.9 822.2 817.9
615.6 626.9 640.2 649.1 656.2 661.3 668.5 673.9 679.9 689 684 669.5 651.9 640.7 626.3 613.8 584.7 556.1 513.1 480.2 456.2 429.1 410.3 393.9 381.5 375.4 369.5 371.8 372.2 372.7 372.9 373.7 375.3 384.2 390.4 401.4 417.8 435.3 457.2 483.3 519.7 569 612.4 632.9 627.4 622.3 614.7 611.9 609.1 601.6 590.3 584.3 577.9 577.1 577.1 574.8 573.6 578.9 575.8 574.9 576.8 581.4 586.2 589.5 594.2 599.2 606.9 610.7 613.6 614.6 613 611.8 609.3 607.8 603.2 599.9 597.1 595.5 593.5 591.4 584.2 578.5 573 568 562.3 559.3 552 549.9 545.6 541.5 538.3 541.7 544.8 544 540.6 529 528.2 527.7 531.1 534.1 538.5 542.6 547.9 553.8 558.8 567.9 577.3 584.9 598.6 605.6 618.7 633 648.5 671.6 683.9 697.7 713.9 733.6 760.5 776.4 800.9 798.2 802.5 796.7 780.9 770.4 759.6 753.1 747 731.5 705 683.4 656.5 639.1 629.1 621.6 623.2 637.2 652.1 662.4 674.3 689.4 702.8 717.2 733.9 751.9 761.1 770.5 777.6 783.2 791.4 800.7 806.6 814.7 826.9 828.5 832.9 840.7 849 863.1 873.4 878.5 882.4 888.8 913.6 934.4 955.6 967.1 979.9 991.8 1009.2 1024.6 1038.9 1046.3 1051.6 1055.3 1057.9 1060.1 1062.1 1067.2 1073.4 1084.8 1092.5 1100.9 1104.3 1109 1114.7 1115.9 1119.8 1120.3 1075.9 1037.6 992.8 940.9 906.8 874.7 847.5 828.4 820.4 815.9
613.7 625.5 633.8 646.2 664.2 663.1 672.1 684.4 681.6 689.5 683.2 670.2 649.2 640.9 629.2 614 592.7 562.7 513.3 480 453 426 407.5 389.4 380.5 373.2 368.9 370.8 373.3 372.9 373.7 373.5 376.2 384.6 389.7 398.8 417.6 435.7 459.8 493.9 529.5 583.4 624.9 640 627.2 618.1 611.1 610 606.8 600.7 590 581.5 575.7 573.2 571.8 567.5 565.8 570.2 569.3 568.9 571.5 579 583.1 582.6 587.3 592.7 597.3 600.7 603.5 603.2 603 602.4 599.5 597.8 593.7 593.2 590.7 587 582.6 579 572.8 569.5 565.6 561.2 554 548.9 544.8 539.8 539.3 536.2 536.4 535 534.5 534.1 529.2 522.2 524.3 529.5 532.9 536 540.4 549.2 553.8 561.1 568.5 578.5 586.7 598.2 608.9 623 630.6 648.2 662.4 680.4 692.8 708.9 726.8 751.6 772 793 814 822.5 820.2 820 808.1 792.5 785.7 775.7 760.1 745.8 712 687 668.5 651.9 636.8 627.5 620.3 617.6 625.4 639.9 650.6 661 673.3 692.2 709.2 718 726 735.4 741 747.8 756.1 765.4 774.5 782.8 790.7 795.5 806.3 823 836.2 849.8 857.1 857.6 849.3 851.9 876.5 907.2 920.8 941.2 960.6 979.6 996.4 1011.1 1024.2 1032.6 1037.5 1040.7 1042.3 1043.3 1046.2 1050 1057.8 1064 1075.8 1085.4 1093.7 1101.6 1106.8 1110.3 1115.2 1120.5 1108.8 1042.2 986.9 939.6 904.8 874.2 850.5 836.6 833.7 821.9
613.7 622.4 631.2 643.1 665 676.8 680.9 689.9 694.1 691.8 683.5 669.8 646.4 634.7 620.3 607.6 587.9 553.7 513.4 476.8 447.9 425.5 403.5 389 380.8 374.4 369.3 372.4 374.1 374.3 373.8 373.5 374.9 381.5 389.1 401.7 415.6 435.2 461.2 494.9 529.2 589.4 622.7 631.7 622.2 611.7 608.3 605.4 601.4 596.1 588.9 579.1 576.1 575.4 571.1 566.4 559.8 561.3 562.5 565.4 568.1 570.4 574.4 576.8 581.4 584.8 586.9 589.2 591.3 592.8 593.8 591.9 589.6 586.6 584.4 582.8 580.8 575.9 570.8 567.8 564.3 562.4 556.7 550.5 545.1 539.7 536.3 534.6 534 534 528.2 531.3 527.3 525.3 519.8 524.1 525.9 528.9 537.9 540.9 543.4 555.2 563.3 568.6 579.7 589.3 601.5 612.1 620.7 629.6 642.4 659.6 671.7 683.4 702 718.2 738.7 760.7 778.8 802 821.8 838 840.5 835.6 831.9 819.2 808.9 795 772.6 744.8 719.1 698.3 679.5 666.1 650.5 636.5 626.2 618.4 612.7 622.7 630.9 642.7 657.2 672.5 680.9 689.5 697.1 705.8 711.2 716 725.2 734.4 744.2 752.7 759.6 769.5 778.9 799.5 815.9 831.4 834.9 819.8 808.2 824 852 868.1 896.3 922.8 945.9 964.2 979.4 995.7 1008.3 1015.5 1019.5 1022.4 1022.2 1025.5 1029.4 1030.1 1036.8 1047.2 1061.2 1070 1080.5 1093.5 1101.2 1105.2 1109.1 1116.2 1124.1 1086.6 1013 949 911 879.3 861.8 857.7 859.2 841
607.9 620 628.4 645.9 662.5 681.6 688.8 696.2 698.9 691.9 681.4 662.1 642.8 630.8 618.3 602.2 577.2 548.5 519.7 486.6 454.4 429 403.5 388.7 381.6 377.1 372.6 376.4 374.8 374.9 374.6 374.6 376.1 383.2 390.4 400 414 435.6 463.3 499.1 564.3 600.7 621 620.3 612.1 605.7 600.2 598.2 595.4 593.2 588.2 581.9 575.8 572.6 572 564.9 557.5 553.2 555.3 558.9 562 565.6 569.8 573.3 576.1 577.2 578 579.7 581.2 582.6 582.8 582.1 580.5 578.8 576.9 573.4 571.3 567.7 561.3 557.5 554.3 550.9 545 540.1 534.4 532.9 533.2 530.7 529.9 528.3 526.4 524.3 519.3 522.6 528.1 529.8 529.6 535.3 539.7 545.8 552.6 562.8 572 581 589.4 603 614.7 624 631.8 642.6 651.4 667.4 678.3 692.9 710.8 728 746.7 765 784.8 805 828.4 848.1 858.9 854.2 855.7 847 830.4 813.8 786.7 753.8 730.7 706.7 694.6 681 668.3 654 638.4 621.7 615.5 609.2 616.3 630.8 643.7 652.7 657 665.4 673.2 676.5 683.5 693.3 706 708.5 716.8 722 731.1 738.5 753.3 771.6 791.3 803.7 804.5 787.7 777.4 796.2 823.3 851.7 887.1 910.2 928.3 945.9 961.4 974.9 985.3 990.8 996.8 998.5 1001.9 1004.1 1004.2 1001.7 1008.8 1027.3 1043.4 1056.4 1066.7 1080.9 1090.1 1096.4 1100.9 1106.9 1114.8 1098.2 1035.7 964.5 929 916.2 899 901.4 911.1 875.4
606.6 613.3 627 645.3 665.3 683.1 695.4 692.7 696.8 691.6 674.3 659.9 643 628.2 616.4 590.3 571.6 547.8 520 487.4 456.9 430.3 404.8 392.4 384.4 375.4 370.4 374.7 374 374.9 374.7 375.1 375.8 380.6 388.6 398.7 414.2 438.5 467.6 522.5 570.3 589.7 608.8 607.3 603.6 597 595.8 592.7 592.1 591.4 588.3 582.2 574.8 570.7 567.9 561.6 555.9 554.3 550 553.1 557.1 563.1 563 568.5 570.1 570.7 570.2 571.6 571.5 571.7 573.3 571.6 571.1 568.9 566.1 563.7 562 559.6 555.4 548.6 545.2 540.3 534.9 532.2 529.7 523.5 523 523.2 522.3 522.1 519.7 515.7 520.7 525.2 530.3 531.2 534 535.5 544.5 556 562.6 574.5 581.4 591.8 603.5 612.9 626.6 633.2 642.9 650.7 662.8 675.2 687.9 702 717.5 733.7 751.6 770.4 790.5 809.3 832.7 856.1 871.2 874.7 875.3 871.2 852.3 829.3 795.7 764.9 738.6 722.7 706.4 694.4 677.9 665.9 651.7 636.7 623.2 614.2 606 616.9 626.8 636.2 641.8 647.1 654.5 658.8 663.6 672.3 681.3 687.3 694.8 696.7 703.1 709.3 725.3 742.5 761.2 776.7 779 762.5 762 783.7 809.8 841 868.4 891.2 910.2 925.3 939.8 950.2 959.9 966.1 971.3 974.8 973.5 975.8 974.3 975.5 983.1 1007.2 1028.3 1042 1054.6 1067.2 1077.3 1083.6 1090.7 1099.1 1106.2 1107.8 1046.3 988 966.6 953.6 936.5 940 943.9 939.5
611 618.8 630 644.1 668.2 681.9 695.7 688.4 692.2 682.6 669.3 652.8 638.2 619.5 604.1 583.6 565.6 535 506.6 479.8 449.4 424.8 404.5 393.1 380.6 374.8 372.3 371.6 371.3 373.3 374.6 374.6 376 382.1 389.6 399.9 414.8 439.9 472.1 525.4 563.9 584.5 591.6 597.2 598.7 592.8 589.6 586.4 586.9 584.9 580.2 575.3 572.4 570.4 565 560 556.2 551.9 548.4 547.3 553.6 555.6 560.4 562.6 562.7 562.8 563.2 564.6 564.4 564.7 563.5 562.6 562.9 559.3 553.9 557.7 553.1 549.5 544.4 542.7 537.2 529.4 528.6 524.1 519.7 517.1 517.1 518.4 516.6 516 514.5 517.6 522.3 525.2 533.7 537 540.9 545.8 555.6 563.2 572.8 585.7 595.6 603.7 612.4 622.3 631.1 642.3 651.2 660.4 669.7 683.2 697.5 710.5 724.6 742.1 760.7 777.1 797.7 814.9 837.6 860.5 879.5 886.9 886.9 884.1 869.7 843.6 805.1 779.6 756.1 737.3 720.3 705.9 690.2 680.4 665.7 647.6 635.4 621.7 610.3 602 613.9 620.6 628.6 635.1 636.2 637.6 639.4 651 662.1 672.3 676.5 677.8 679.4 685.8 697 714 731.1 749.3 756 741.4 745.4 767.2 795 822.8 849.6 867.7 884.4 898.7 913.2 926.2 935.7 942.7 945 944.7 942.2 946.6 953.5 953.9 964.5 984.3 1007.9 1024.6 1039.4 1050.7 1063.3 1072.3 1081.4 1088.1 1098 1099.5 1056.5 1019 996.6 978.7 961 962.2 963.3 965.9
611.1 623.2 628.5 642.2 665.6 682.9 689.3 685.1 681.9 673.7 655.8 640.5 632.1 611.2 594.6 582.9 556.5 528.1 495.3 468.2 441.1 418.4 403.9 393 382.1 375.7 373.8 372.6 372.8 371.8 372.5 375.2 376.5 380.1 389.2 399.8 416.2 441.5 471.7 519.4 557.6 576.1 586.4 588.2 586.1 584.9 584.7 583.1 581 580.9 576 573.7 571.3 566.8 561.1 557.4 552.5 550.2 548.4 541.9 546.8 548.8 552.4 554.4 557.4 556.9 558.3 557.5 557.8 557.4 557.6 554.2 550.7 549.1 546.1 545.1 542.1 537.2 534.1 530.6 527.7 519 517.5 518.5 512.7 511.9 512.1 512.6 513.8 514.4 515.4 520.4 525 530.8 535.3 541.2 546.5 555.1 564.4 575.9 584.3 594.8 602.7 609.9 619.6 630.2 639.7 650.7 658.4 668 678.6 691.6 705.4 718.8 736.5 754.6 770.9 788 805.7 824.6 844 865.4 883.3 895 896.6 897.5 888.1 859.6 832.8 811.7 776.7 757.4 736.3 722 707.8 692.8 675.6 663.9 650.5 640.1 620.3 605.9 596.6 605 616.3 618.1 622 622.7 626.2 634.6 647.6 653.4 652.8 657.7 657.9 664.3 671.3 683.2 703.2 722.3 728.3 717.7 734.3 758.9 780.7 805.7 827.4 849.1 866.3 880.1 892.8 903.9 912.3 915.3 914.3 914.1 917.3 921.5 928 934.8 947.8 964.9 989.4 1005.6 1024.1 1036.6 1045.6 1053.5 1063 1071.8 1083.2 1087.4 1084.5 1042.7 1023.9 995.2 984.4 980.6 979 980.8
611.7 628.2 627.1 640.7 657.3 669 674.3 675.3 669.3 663.7 640.5 628.9 616.5 601.4 589.2 573.6 555.9 521.2 491.3 463.5 436.7 416 401.5 392.7 381.4 375.6 374.1 372.7 372.9 372.4 373.6 374.7 377.1 380.9 387.8 399.2 418.5 442.3 473 516.6 541.7 554.1 569.6 576.4 581.5 577 577.9 576.9 574.7 571 570.7 568 563.8 558.4 560 552.9 548.3 544.2 543.8 537.1 540.1 545.6 549.3 551.9 550.3 551.8 551.2 547.5 547.2 547.1 547.1 543.2 539.9 534.7 538.5 535.8 532.5 527.4 520.6 520.4 516.4 512.8 509.6 508.7 507.2 508.8 509.5 510.9 512.6 513.9 517 520 527.5 534 538 544.2 553.5 563.9 574.2 584.2 590.8 599.9 608.7 619.2 628.7 635.5 646.2 655.6 664.2 674.8 686.3 701.3 712.8 728.8 744.9 764.2 780.1 798.3 815.8 833.1 851.4 871.5 886.1 897.1 900.7 898.6 890.7 878.7 866.1 839.6 804.9 784.7 759.2 741.7 732.4 708.7 693.3 680.9 666.7 652.8 640.3 621.3 603.7 592.1 600.2 602.4 608.3 614.1 614 621.6 627.4 632 634.3 635.8 638.7 642.7 651.3 666.2 683.5 694.7 702.3 695.3 719.8 745.1 767.7 790.3 811.4 834.5 851.2 865 875.3 883.2 887.1 886.3 890.8 894 900 908.8 912.8 915.5 934.1 955.8 972.7 989.6 1004.4 1018 1029.1 1036.8 1045.6 1056.7 1070.1 1078.2 1080.6 1082.1 1064.1 1018.4 1000.9 996.2 996.3 997.6
616.6 628.5 627.5 635.2 649.7 657.5 662.2 663.2 656.2 641.7 628.2 617.9 610.9 599 582.9 566.2 541.8 509.4 485.5 458.7 434.5 414.9 402.6 393 383.4 376 375.2 372.9 373.5 372.7 373.6 374.3 375.4 379.8 384.9 394.4 414.3 441.9 470.2 502.4 525.8 548.9 565.9 574.7 572.3 564.8 568.6 570.8 570.1 566.8 569.9 562.5 556.9 556.4 553 548.3 544.6 544.3 539.4 535.7 535.8 540.5 543.9 543.2 542.6 541 539.6 537.8 540 534 534.7 533.4 530.1 529.6 528 527.7 524.4 518.5 512.9 514.1 512.2 507.8 507.3 507 509.3 511.2 511.2 512.4 513.8 515.3 518.1 519.9 524 537 546.7 552.4 562.6 571.7 581.8 588.2 597.3 606.6 615.6 624.5 633.9 643.6 651.4 661.8 672.9 683.9 696.6 709.8 725.2 740 754.6 773.4 790.3 807.8 825.7 841.9 857.9 874.5 887 892 891.5 890 887.6 881.1 867.5 852.2 832.8 809.8 786.1 766.2 751.5 729.4 707.4 693.5 680.3 666.2 649.8 635.6 613.5 594.6 584 591.3 596.8 602.9 602.8 604.3 609.5 612 615.5 621.6 624.9 630.4 639.9 646 658 666.1 679.4 679.3 703 728.2 754.6 777.1 800.6 822.5 835.5 848.9 857.8 862.3 865.7 868.8 870.3 876.5 882.3 893.4 898.1 903.3 921.5 944.2 960.7 973 984.3 999.8 1009.9 1020.1 1029.5 1044.2 1054.8 1066.3 1078 1090 1094.2 1050.6 1023.3 1010 1006.8 1006.1
622.5 630.7 627.3 638.8 646.6 649.1 650.2 650.6 645.1 632.4 622.2 613.3 605.6 593.2 577.1 562.6 532.9 511.4 483.4 459.7 431.5 412.7 401.2 392.6 387.2 378.7 373.9 373 373.6 373.9 373.2 374 375.1 379 386.4 396.2 413.2 435.6 462.3 492.7 519.5 540.8 556.2 558.3 560.2 562.4 559.5 559.6 559.2 563.5 562.2 554 550.7 546.7 544.4 540.2 539 539.9 534.5 528.1 530.4 536.6 537.3 538.9 536.1 532.9 530.7 531.4 528.7 526.2 529.8 527.1 525 519.6 520 515.7 514.9 514 512.9 504.7 503.7 507.7 505.5 506.8 509 509.9 514.5 515 515.4 518.9 522.5 527.1 533.1 541.6 552.1 562.7 568.6 580 587.9 594.4 602.6 612.5 621.3 629.7 639.6 647.6 658.7 669.3 681.6 693.3 709.3 725 738.7 753.2 767.2 784.3 799.2 817.8 834.1 849.9 864.1 872.5 879.1 882.9 883.7 880.5 875.8 871.9 864.9 853.9 845.9 835.4 814.5 790 776.4 754.5 725.9 709.8 691.8 676.4 659.9 642.6 623.9 603.6 587.8 581 585.8 588.2 591.1 591.1 593.8 596.7 602.3 608.7 614.7 616.8 619.4 624.2 633.1 648.2 658.1 664.2 686.1 711.7 738 765.4 790.3 809.6 821.7 831.1 838.1 843.5 845.9 850.7 855.1 862.5 869.8 877.8 881.8 891.7 906.9 926.4 944.3 956.8 969.6 982.4 992.5 1002.2 1013.4 1026.5 1039.9 1053.1 1068 1081.7 1092.7 1082.3 1058.3 1032.7 1030.1 1021.3
623.4 627 626.7 640.1 642.7 644.8 642 637.6 628.4 622.3 613.6 605.4 595.3 588.3 576 552 529.6 510.6 480.6 454.4 434.7 414.7 401.7 393.2 389.4 382.5 378.5 374.6 373.9 374.3 375.6 373.4 375.4 380.8 386.2 395.3 411.6 430.1 454.6 482.5 507 522.4 536.4 541.5 545.3 543.6 543.6 547 549 548.7 548.5 546.5 542 539.1 537.4 535.6 533.9 531.7 529.9 528.8 528.8 528.9 528.4 527.3 527.8 525.2 522.7 519.8 519.9 517.3 516.4 517.5 513.1 515 516.2 513.5 510.2 508.6 502.2 507.2 512.4 506.3 512.8 513.4 512.3 519.4 524.3 524.4 523.7 527.6 532.2 536.7 540.9 551.4 559.2 568.1 577.7 585.5 592.1 600.2 608.3 617.6 626.6 635.3 645.7 654.1 666 678.6 692.8 707.6 724.7 739.7 756.1 771.2 784.3 797.8 813.2 829.7 843.2 855.1 861.5 865.8 867.2 869.8 867.1 864.7 864.2 860.9 855.5 848.3 842.6 839.7 830.5 812.2 797.1 786.7 746.1 728.8 704 682.7 665 649.3 630.4 610.3 594.9 579.5 576.4 577.5 578.5 583.2 584.5 587.8 590.6 588.6 594.3 601.6 607.4 611.8 620.7 632.7 641.4 650.9 668.5 694.4 722.2 753.4 775.2 792.3 807.4 813.4 819.8 824.8 828.6 831.6 836.9 842.8 851.1 858.7 869.9 878.9 892.8 906.9 924.3 938.9 949.2 958.5 968.5 981.7 997.8 1013.4 1028.1 1042.7 1057.9 1073.3 1086.1 1097 1090.9 1070 1056.5 1040
618 620.6 628.2 637.2 637.4 635.3 633.7 626.7 618.9 609.4 603.6 594.9 585.5 577.4 562.6 544.8 530.3 502.6 477.8 453.8 434.4 417.7 403.3 396.1 390.3 385.7 382.4 377.2 375 375.6 375.7 374.4 376.2 379.3 385.8 393.8 407.1 426.2 448.6 473.8 492.5 507 517.1 522.6 533.3 536.6 537.9 543.1 542 544.8 540.8 537.3 535.1 534.5 533.9 530.6 529.1 526.9 524.3 522.6 516.4 516.8 520.5 518 516.8 515 515.4 514.5 512.6 510.1 512.3 509.7 507.7 508.3 507.1 504.4 499.7 506.6 508.9 509.1 512.4 514.9 515.1 516 517.3 520.6 525 530.3 531.2 535.6 541.3 547.6 551.5 559.4 564.4 573.7 581.9 588.9 596 603 611.4 620.8 632.6 642.2 651.9 661.8 675.3 691.7 709.3 726.6 744 761.1 774.9 785.9 801.5 816.2 830 841.2 850.3 856.4 856.7 856.5 858.1 857.2 851.6 848.4 847.3 846.9 842.1 835.5 829.9 834 832.4 824.8 808.9 801.4 776.7 743.5 725.3 694.5 670 649.6 630.7 611.4 598 583.3 569.7 570.4 572.4 575.9 576.9 578.8 579.3 579.6 587.8 595.1 598.9 601.8 609.6 617.4 628.1 638.8 656.9 680.4 707 733.2 756.9 774 788.6 796 802.2 806 807.2 811.2 815.7 824.4 831.1 848 851.8 864.4 873.4 884.8 896.6 905.6 917.9 933.4 947.5 961.3 979.1 998.3 1014.9 1032 1049.5 1063.9 1079.1 1092.9 1099.2 1099.9 1094 1054.6
610.2 618.3 626.7 630.3 628.3 629.7 625.5 620 612.5 599.4 589.7 583.6 581.4 571.4 562 543.5 519.6 498.3 479.9 453.3 433.4 418.4 404.6 397.9 392.3 387.4 384 379.2 377 376.4 376.5 377.2 377 377.8 382.1 391.5 405.1 424.1 442.1 466.1 482 498.7 506.2 516.1 524.9 529 533.2 535.7 536 535.9 538.5 532.4 532.5 528.7 527.9 527 525.6 519.9 515.5 511.4 506.9 513.6 514.8 512.8 510 510.1 508.3 507.4 506 507.9 506.1 504.8 505.1 504.2 502.3 499.8 501 507.1 509.1 509 514.7 519.5 517.9 517.6 520.4 522.2 525 530.2 534 537.7 545.2 550.5 557.2 565 571.4 579.8 586.2 593.2 600.9 608.1 616.6 627.7 636.2 648.3 658 671.5 688.6 706.5 725.1 744.4 762.1 778.1 791.4 805.7 819 831.7 840.7 847.5 851.8 851.9 849.7 849.1 845.5 844 838.3 834.5 831.7 832.1 828.3 822.9 816.9 816.1 818.8 817.3 810 805.3 797.9 764.1 737.7 706.9 676.4 653 631.9 614.3 599.2 584.1 572.9 562.5 565.4 569.2 571.4 573.6 575.9 574 583.7 588.2 592.3 592.1 599.1 607.7 618.6 632.1 649.2 668 690.2 711.1 734 754.1 768.4 775.5 781.2 781.8 785.7 788.5 796.7 804.5 821.1 832.9 838.3 846.3 854.8 865.2 870.1 882.6 897.1 913.6 927.6 942.6 961 979.3 1001.8 1021.7 1041.6 1058.5 1073.1 1086.9 1096.3 1100.1 1101.7 1077.5
607.9 614.4 617 616.8 616.8 617.2 614.2 608 602.5 598.7 589.6 580.9 571.6 564 551.9 534.6 517.3 492.1 469.8 451.1 430.1 416.1 406.5 399.6 394.1 387.1 383.9 381.5 378.8 377.9 378.4 377.5 375.7 377.8 382.8 391.8 403.7 420.3 437.7 457.6 474.6 493.1 502.1 509.9 512.9 518.7 524.1 524.1 524.3 525.4 528.5 524.4 523.9 520.8 518.2 517.2 514.4 509.7 506.9 503.1 509.7 507.5 505.4 505 503.6 503.8 501.3 500.4 500.8 502.4 499.7 500.4 499 500.8 494.1 495.5 507.1 509.6 510.5 514.7 515.4 516.9 520.4 526.9 528.2 533.8 536.5 533.6 541.6 547 552.2 559 564.5 569.1 579.3 586.1 589.9 599.1 608.7 615.1 622.7 633.4 642.7 654.2 667.8 682.3 699.9 720.2 740.7 760.9 780.1 794.2 807.2 820.1 831.6 839.7 845.6 847.6 846.9 845.5 841.1 838.1 828.5 822.9 820.7 819.4 814.4 812.3 814.3 809 800.8 798.7 800.5 798.3 794.4 794.4 785.2 772.4 744.6 718.2 696 657 633.5 615.2 597.7 585 572.6 564 558.2 561.5 566.5 568.1 569.4 568.1 575.6 581 585 583.1 588.5 600.8 611.8 629.1 639.4 653.9 669.3 687.3 709 728 743.4 754.8 760.8 760.2 758.9 767.7 781.6 793.7 806.7 814.4 818.7 828.5 835.4 839.9 856.3 870.6 883.2 899.4 912 927.1 944.2 965.9 991 1015.1 1035.4 1052.5 1069.2 1082.5 1093.9 1096.3 1097.7 1094.9
600.9 603.1 607.4 604.6 605.8 604.6 600.4 600.4 596.6 593.2 587.9 572.4 566.3 557.1 547.5 531.6 512.1 489.7 463.4 440.1 427.4 414.9 404.9 400.7 394.2 387.8 385.5 383.2 379.9 379.9 378 377.3 378.9 382.5 384 391.5 401.2 414.5 431.4 450.5 468.7 487.6 500 504.2 508.2 513.7 515.9 517.3 518.8 518.6 518.4 516.9 516.1 513.8 513.7 510.7 508.3 506.3 502.3 498.9 506 503.5 502.1 500.8 500.7 500.3 496.5 495.8 496.8 496.7 499.6 495 499 497.1 496.5 502.7 508.7 513.6 514.6 515.2 516.6 523 524.5 527.7 529.8 537.5 540.1 541.8 544.5 551 558 566.1 570.2 575.7 582.8 593.3 597.5 603.9 613.1 621.5 630.8 641 651.5 664.5 678.6 696.5 713.9 733.8 754.8 774.5 795 808.4 819.7 829.3 836.9 842.9 845.6 844.2 839 834.4 826 819 811.1 808 803.3 799 797 793.7 794 786.1 784.4 784.1 784.9 777.7 772.4 770.4 767.8 763.5 749.1 724.9 690.8 658 634.8 616 597.1 583.4 572 560.9 558 554.7 560 563.2 563.2 562.2 567.3 572.7 576.6 576.7 583.6 591.8 607.7 619.8 629.1 638.8 653.4 665.5 685 701.6 715.7 729.4 735.2 732.9 733.9 753.6 768 781.4 788.1 791.3 800.9 809.4 815.2 831.8 843.8 859.1 873.9 888.4 902.6 918.1 935.7 955.6 983.3 1011.8 1032.8 1050.7 1065.6 1078.3 1086.7 1090.4 1089 1084.4
594.1 592.4 594.5 595.3 594.9 591.9 591.1 587 583.2 581.5 578.2 570.7 555.6 552.2 541.2 525.8 512.4 483.8 467.2 450.7 434.3 416.7 402.5 395.3 393.4 387.4 385.3 381.3 379.2 378.6 378 378.1 379.5 381.2 383.8 391.4 401.5 412.7 426.1 442.9 461.4 477.3 492.3 498 503.3 506.6 508.3 511.2 513.5 513 513.1 509 507.3 505.2 505.4 503.9 503.3 500.5 492.5 496.6 497.6 496.4 496.9 495.7 497.4 493.5 491.5 491.4 493.1 496.2 490.3 490.3 490.4 494.2 501.5 503.9 505.9 512.6 516.4 516.4 520.6 524.8 531.5 532.6 536.5 544 548.5 551.7 554.7 558.1 566 572.9 576.5 585.7 592.6 599.5 603.3 611.8 623 629.6 636.7 647.6 661.8 674.5 689.9 705 723.9 744 766.4 790.1 806.8 818.4 825.8 832.4 837.2 838.5 840.2 836.4 826.5 816.8 810 802.1 800.2 791.1 787 783.5 778.9 779.3 775.5 770.2 766.4 769.2 765.2 767.7 757.9 757.5 750.4 733.6 709.9 691.5 671.7 654.7 632.7 615.6 598.4 582.2 570.4 560.2 553.1 550 557 558.4 558.3 558.6 562.5 566.7 569 573.1 575.3 587.1 598.1 610.3 619.5 625.4 637.6 647.7 666.1 677.1 692.1 704.1 706.6 704.2 725.2 742.2 755.3 766 767.1 773.9 781.6 791.7 806.1 816.2 829.6 846.5 862.6 877.8 898.5 916 935.5 957.4 985.6 1012.3 1032.8 1049.8 1064 1074.4 1080 1081.2 1078.5 1069.4
580.5 584.2 583.5 583.5 579.9 579.8 577.9 575.4 575.3 569.5 566.2 560.2 553.9 546.9 536.4 529.7 518.6 506.9 487.9 468.3 445.1 423.6 405.3 396 391.6 388.8 384.8 381.2 380.6 378.4 379.4 379.2 379.5 382.1 384.4 390.9 399.3 410.4 423.7 437.6 456.9 469.8 482.5 491 498.4 505.4 508.2 506.8 507.2 505.9 504.6 502.7 500.7 501.4 499.9 497.5 495.3 492.9 486.8 493.2 491.7 493.2 490.5 489.2 488.5 489.9 487.9 491.6 488.4 485 494.4 499 498.7 498.7 502.5 509.1 512.1 516.3 517.5 521.3 526.2 529.9 534.5 537.9 540.7 551 555.5 558.3 560.8 565.7 573.8 579.7 586.7 591.1 600.7 608.4 611.8 620.8 626 633.4 645.6 658.3 669.6 681.9 697.3 711.9 731.1 752.4 773.3 795.6 810.9 820.9 824.8 828.1 829.8 829.7 827.8 824.3 811.9 804.2 796.6 786.9 782.4 772.2 773.1 770.5 766.2 761.8 758.8 755.3 754.7 751.8 749.5 742.5 736.6 740.2 721.3 708.7 694.2 675.5 663.1 648.7 632.3 612.8 598 582.9 567.8 559.2 550.6 548.7 548.9 553 552.2 553.7 554.9 557.3 561.8 567.7 572.8 582.9 591.3 603.5 611.4 615.3 622.7 634.1 645.8 659.2 672.7 680.9 681.5 700.1 718 731.5 738.6 737.1 738.4 752.1 764.4 774.4 782.1 801.2 821.9 843.7 865.4 881 902.2 921 938.4 964.7 993.1 1017 1035.2 1050.8 1062.7 1069.9 1070.7 1070.5 1065.7 1056.5
570.6 572 575.4 568.9 569.8 569.3 564.1 562.1 563.2 559.2 556.9 558 549 543.2 535.7 529.2 528.9 528.3 506.9 479.7 454.4 432.5 411.9 402.2 393.8 389.8 384.9 382.6 381.3 380 380.1 381 381.3 382.7 384.6 389.3 399 410.6 422.4 438.2 452.3 464.9 476.1 482.5 491.2 498.8 502.2 503.2 499.4 495.9 494.5 493.6 494.3 493.3 493.5 490.1 488.6 485.8 484.2 486.8 486.3 484 484.2 484.6 485.8 485.3 481.8 484 487.4 488.9 494.4 499.5 501.2 505 507.8 512.3 515.6 517.7 522.8 526.6 531.8 535.9 540.1 543.6 548.4 554.9 559.7 563.6 569.5 574 578.9 586.7 594.5 603.2 605.9 613.3 619.9 626.6 631.6 643.4 652.7 663.1 674.1 686.3 700.3 715.4 732.7 752.4 773.8 794.1 808.3 815.5 819.3 819.7 817.9 818.6 813.6 804.4 797.2 789.2 782.2 777.6 770 763.7 758.1 753.7 745.3 742.4 737 731.2 731.1 730.2 726.4 717.4 715.1 711 703.2 687.7 677.9 666.9 654.8 636.7 619.8 606.1 593.7 581.4 569 558.2 550.1 544.9 543.1 546.5 547.1 547.8 548.1 548.8 556.5 560.4 566.9 574.9 583.4 595 602.1 607.4 613.2 620.3 633.4 641.8 655.5 661.8 670.5 690.7 708.6 717.4 711.3 717.2 736.7 753.6 764.3 780.1 796.9 813.4 831.8 852.1 871.1 888.4 908.8 929.2 953.5 979.3 1002.3 1022.2 1038.3 1050.1 1059.1 1061.4 1061.5 1057.9 1052.4 1046.4
558 560.4 555.8 555.7 558.6 559.8 558.7 554.1 551.4 552.2 549.3 544.6 541.1 542 538.9 530.9 534.7 528.8 511.9 484.5 468.6 453.9 426.3 410.1 400 391.9 386.4 383.6 382 379.3 381.5 382.3 381.9 384.4 385.1 389.3 397.8 410.2 424.7 437 448 461 469.6 476 484 489.3 490.4 492.3 490.1 488 486.7 487.5 488.1 486.4 485.1 484.2 482.2 479.6 479.1 482.8 482.4 480.1 483.2 484.9 484 481.6 481.5 485.4 490.6 496.1 497.7 506.7 508.6 510.2 511.7 514.2 516.8 522 527.3 531.6 534.3 537.6 544.5 549.5 554.1 560.6 566.1 570.9 578.2 583.4 588.4 595.2 601.9 608.3 617.9 620.6 627.5 633 641.3 646.1 656.4 664 675.5 687 700.4 715.5 731.7 748 765.5 781.9 796.5 806.6 811.7 811.9 809.6 805.5 801.1 795 786.2 774.5 769.2 764.3 756.3 747.7 742 732.3 722.1 716.6 712.2 705.6 705 704.3 703.6 699.5 696.3 691.9 686.1 676.4 663 655.2 643.2 627 614.8 603.1 591 579.7 567.8 558.4 551.8 542.7 539.7 541.6 544.7 540.9 544.3 542.9 549.4 555 560.8 565.5 575 586.1 595.4 599.7 603.2 610.7 619.4 631.6 643.2 643.2 665.4 682.9 687.6 687.6 706.7 727.7 747 765.5 783.6 798.2 812.3 828.1 846 862.8 880.1 900.8 922.1 946.3 969.2 988.7 1010.5 1027 1041.2 1050.9 1055.1 1056.7 1055.6 1051.6 1042.4 1031.7
548.2 549.6 546.5 545.2 544 544.7 545.2 542.6 542.7 539.4 537.3 539 539.1 539.3 537.1 533.3 531.6 527.8 515.6 493.5 477.5 458.5 430.6 414.4 402.2 393.3 389.5 385.8 383.6 380.6 383 383.6 384.3 385.8 387.7 390.5 398.3 409.7 423.4 433.7 443.2 451.9 459.6 469.4 475.3 478.9 480.2 482.1 481.4 480.3 478.6 477.6 479.2 478.3 477.1 475.8 476 471.3 473.4 477.8 476.6 481.2 477 476.9 477.9 478.9 486.1 487.6 492.8 499.4 502.5 502.6 508.3 512.5 515.8 519.8 522.5 528.1 533.6 535.6 538.8 542.5 550 556.6 560.6 567.2 573.1 580.9 586.7 592.2 596.2 606.4 611.8 617.4 622.6 628 632.4 640.2 648.6 655.8 659.2 668.8 677.3 687.6 699.2 714.1 729 743.7 758.4 770.9 785.4 797.6 801.6 802.7 800.5 795.8 790.4 782.7 773.6 762.2 754.6 743.8 737.2 729.4 722 714 705.6 696.5 695.8 688.6 687 683.3 681.8 680 676.9 673.7 668.5 660.2 652.9 643.5 631.4 620.4 609 596 585.1 577.3 567.9 557.8 548.6 541.8 532.6 536.4 539.9 538.4 536.6 536.6 543.3 547.4 552.7 557.2 566.2 576.8 586.7 593.5 593.9 600.1 609.4 620.9 630.6 636.1 645.6 658.3 679.5 695.9 713.8 735.8 754.3 775.9 793.9 810.4 823.5 841.1 859.1 875.8 894.4 914.2 936.5 957.5 977.4 995.9 1012.1 1027.3 1039.3 1046.8 1050.4 1050.8 1050.3 1047.6 1038 1026.2
539.7 540.6 534.9 535 535.6 532.6 532.7 534.3 529.9 533 530.6 532.6 534.9 537.1 536.5 532.7 528.1 522.5 511.1 493.4 471.6 445.4 427.4 411.7 400.5 394.1 390.7 386.2 384.6 382.1 383.6 385 385.5 387.4 389 393.9 398.3 409.5 419.2 432.2 439.9 446.1 452.7 460.8 465.7 469.8 469 471.1 468.1 470.4 468.5 468.3 469.7 469.6 469.7 471.6 472.4 464.9 469.7 470.2 471.5 471.9 474.9 482.7 485.6 485.7 492.9 495 499.5 503.2 505.4 509.4 511.4 512.4 514 522.5 526 533.9 537 539.4 544.2 549 556.9 562.5 568 573.8 578.5 584.9 592 598.7 605.7 610.7 619.4 622.8 630.1 635.4 640.8 647 651.7 658.9 665.4 672.5 677.9 687.2 698 710.3 724.4 738.1 752.7 766.3 780.2 790.9 795.7 795.6 790.4 784.8 776.5 766.9 757.2 749.6 740.1 725.9 719.6 710.1 703.7 695.5 685.6 678.4 676.3 675.4 672.8 670.7 668 665.2 665.2 663.3 658.5 651 643.2 633.9 624.8 612.8 602.1 592.7 582.6 573.7 563.8 554.4 545.8 540.5 534.2 530.5 533.6 532.7 531 530.9 535 540.6 545.1 550.9 559.1 568.4 578.2 585 584.4 590.7 600.3 607.2 607 621.1 647.7 667.3 684.5 700 719.2 742.7 763.9 783.3 802.1 817.2 830 847.8 868.4 886.7 905.6 926.2 946.3 963.5 981.1 997.2 1011.7 1024.9 1034.5 1040 1041.9 1040.6 1039.7 1036.3 1028.3 1015.6
531.1 531.7 528.6 523.9 525 520.9 522.6 524.8 521.9 524.9 523.4 526.2 530 532.6 530.4 529.3 525.1 516.8 505.6 491.8 463.3 442 419.3 409.3 399.8 393.9 388.9 385.7 385.3 382.2 385.1 386.4 387.1 388.7 391.6 394.6 400.9 406.8 416 425.8 433.8 441.7 446.3 450.5 456.1 462.2 462.3 463 461 459.6 458.9 463.9 466.7 469.7 468.8 464.9 465.9 470.4 475 473.7 474.8 479.1 480.8 486.6 488.5 492.1 498.3 500.4 503.8 507.3 510.5 514.4 516.8 519.9 523.1 525 530.6 535.8 539.3 542.8 549.9 554.6 560.5 565.9 572 579 585.4 593.6 602.2 603 610 616.3 623.9 630.2 635.8 640 646 653.4 658.7 666.4 671.3 679.3 685.7 692 698.9 708.2 722.2 734.1 749.1 760.7 775.9 785.8 789.5 786 781.2 773.9 763.7 753.4 741.9 730.9 721.3 710.1 701.9 693.3 685.8 680.7 675 669.2 667.6 666.4 661.8 661.1 660.6 657.9 654.5 653.4 649.7 643.6 636.8 629.4 618.5 606.8 595.9 587.5 579.8 569.3 560.1 549.2 541 537.4 532 528.9 527.7 528.1 527.4 525.8 529.8 533.4 538.1 544 551.4 562.1 569.4 574.9 578.3 581.3 587.5 582.9 600.5 625.6 652.1 670.3 688.5 703.7 722 741.9 765.2 787.4 804.6 819.5 835 851.1 872.9 895.8 913.4 929.5 949.6 966.1 982.1 996 1008.6 1020.6 1028.5 1031.4 1032.6 1030.9 1027.3 1021.7 1014.5 1004
