ncols 200
nrows 84
xllcorner 190000
yllcorner 703400
cellsize 50
139.5 140.9 142.3 153.1 164 173 181 185.5 198.5 206.3 217.8 229.7 238.9 249.3 255.2 249.9 250.5 251.9 255 259.9 260.7 260.8 263.1 266.9 267.6 265.1 254.3 245.5 242.2 245 235.9 221.3 213.1 213 212.8 218.1 218.3 226.4 222.6 208.3 200 191.4 190 187.1 183.2 175.7 167.3 152.1 136.3 126.1 129.1 130.5 147.8 168.7 167 149.1 135.8 120 137.5 143.3 145.5 131.1 118.9 112.2 93.5 71.5 50.3 32.7 32.7 32.7 32.7 32.7 32.7 32.7 32.7 32.7 32.7 32.7 32.7 32.7 32.7 32.7 32.7 32.7 32.7 32.7 32.7 32.7 32.7 32.7 32.7 32.7 32.7 32.7 32.7 32.7 32.7 32.7 32.7 32.7 32.7 32.7 32.7 32.7 36.3 37.4 38.2 41.9 44.1 47 47.3 44.5 44 43 44.5 53 58.2 60.3 66.1 71.5 77.5 80.1 82.2 88.7 93.7 97.9 101.3 107.7 116.5 125.9 135.8 146 150.3 161.5 164.6 176.1 175.2 181.8 184 184.5 196 206.9 219.7 227.8 233.3 239.6 249.3 256.5 262.1 263.7 264.7 270 272.2 277.5 292.6 293.4 302.8 307.7 310.9 313.1 311.4 317.1 325 340.4 345 349.8 347.2 349.3 353.4 361.6 365.6 370.9 373.9 376.2 375.8 382.1 387 392 397.6 413.4 426.2 430.8 424.7 429.6 443.6 438.4 432.2 429.5 429.1 436 438.6 441.6 445.1 447.6 450.4 454.4 455.2 461.3 467.7 472
140.2 136 138.8 154.1 164.8 174.2 180.9 187.1 198.1 204.2 222.8 232.9 244.2 249.3 248.1 244 246 248.4 254.4 259.5 259.4 255.5 258.6 262.4 255.2 249.4 241.3 242.3 240.8 241.2 231.4 208.6 210.9 213.1 216.9 218.9 220.5 225 215.4 202 190.4 188 186.6 183.4 177.5 167.1 153.1 138.4 123.1 116.7 121.4 132.1 141.9 150.9 144.6 130.9 113.3 116.2 126.7 143.1 124.5 110.2 96.9 81.3 62.9 40.6 32.7 32.7 32.7 32.7 32.7 32.7 32.7 32.7 32.7 32.7 32.7 32.7 32.7 32.7 32.7 32.7 32.7 32.7 32.7 32.7 32.7 32.7 32.7 32.7 32.7 32.7 32.7 32.7 32.7 32.7 32.7 32.7 32.7 32.7 32.7 32.7 38.7 41.3 43.5 43.9 43 44.6 46.2 49.4 49.6 46.1 46.9 48 47.1 49.4 57.4 65.8 66.7 72.3 73.4 76.1 86.5 92.5 95.8 100.4 103.7 110.7 123.9 132.9 141.9 152.2 156.2 165.1 167.2 168.9 171.9 176.2 179.6 188.7 202.4 215.7 228.4 238.1 241.4 242.2 249.7 255.7 267.9 271.9 269.4 277.2 281.6 282.3 286.5 296.5 304.5 308.7 313.8 316.8 319.1 323.7 335.7 336.1 342.7 347.3 349.7 351.2 359.9 366.6 369.7 371.4 372.1 370.6 374.4 386.3 389.8 391 400.2 413.6 421.8 421.7 425.2 429.7 427.4 424.6 424.3 426.5 431.4 434.8 438.9 446.1 450.8 456.1 455.8 454.9 457.6 461.2 470.9 476.6
130.9 132.6 137.5 146.7 161.7 171.8 178.3 184.5 192.8 206.7 219.9 236.8 245.1 239.1 238.6 240.4 245.4 249.7 252.6 256.5 255.3 253 251 252.1 244.8 237.4 236.8 241.8 229.6 224.6 202.6 212.4 215.3 215.3 213.5 214.3 222.6 222.5 204.3 194.8 190.8 186.4 183.6 178.1 168.9 153.2 137 123.3 114.5 110.7 115.4 126.4 134.6 130.1 121.5 108.8 95.8 109 125 118.6 105 86.8 72.4 57.4 34.5 32.7 32.7 32.7 32.7 32.7 32.7 32.7 32.7 32.7 32.7 32.7 32.7 32.7 32.7 32.7 32.7 32.7 32.7 32.7 32.7 32.7 32.7 32.7 32.7 32.7 32.7 32.7 32.7 32.7 32.7 32.7 32.7 32.7 32.7 32.7 32.7 40.4 46.5 46.7 48.4 48.6 47.7 46.6 50.3 54.6 49 46.5 49.3 51.5 55.4 52.4 56.7 66.6 72 70.2 77.6 84.2 86.9 90.2 99.7 103.4 112.4 124.6 133.8 140.8 144.7 152.6 159.4 164.9 169.7 169.5 175 179.3 187.2 192.4 207.5 219 229.5 237.4 240.8 246.9 252.5 260.2 268.8 271.6 276 283.2 287 290 293.5 299.9 305.6 310.1 316.7 322 327.1 334.2 336.9 337.2 338.7 343.6 348.5 353.2 358.6 364.1 368.7 369.5 368.1 372.1 379.6 385.7 387 390.3 403.3 411.6 416.2 422.2 423.4 417.2 417.1 422.2 426.8 431.9 439.7 442.1 445.1 449.4 454.4 457.5 458.3 459.8 462.6 472 477.3 479.4
133.2 139.3 150.4 155 159.9 167 173.4 181.5 195.5 204.9 221.6 234.9 235.3 230.6 237.4 241.4 247 250.6 253.6 255.6 254.3 252.5 250 244.1 239.1 233 235.4 225.9 213.6 200.1 208.9 213.1 215.1 208.2 209.6 216.3 217.7 211 196.7 188 186.3 184.6 178.8 169.2 154.7 137.4 120.9 114.6 108 112.6 114.9 113.9 112 107.7 100.3 86.4 89.9 97.7 100.6 93.2 81.3 67.5 54.4 39.8 32.7 32.7 32.7 32.7 32.7 32.7 32.7 32.7 32.7 32.7 32.7 32.7 32.7 32.7 32.7 32.7 32.7 32.7 32.7 32.7 32.7 32.7 32.7 32.7 32.7 32.7 32.7 32.7 32.7 32.7 32.7 32.7 32.7 32.7 32.7 32.9 46 48.9 52.8 51.9 52.8 53.5 50.4 48.8 51.7 51.8 49.7 50.2 55 57.1 61.5 59.9 53.9 64.9 70.2 71.9 77 82.7 87.3 93.9 100.5 109.1 119.3 128.4 141 148.4 147.3 150.6 156.5 165.3 170.3 174.6 177 188.6 188.2 199 214.4 223.2 228.5 234.9 237.7 246.5 253.3 260.5 269 273.7 277 287.9 293.1 296.4 297.4 300.7 304.6 310.3 318.2 330.5 340.1 339 337.9 339.9 343.6 348.4 352.5 351.6 355.5 362.2 363.9 363.7 370 377.2 381.4 385.1 383.2 389.9 403.2 411.4 416.4 415.5 413.5 419.8 423.9 429 434.3 437.3 440.9 444.9 448.2 451.9 454.9 460.9 466.6 463.6 470.1 476.7 477.9 482.2
143.8 152.7 161.8 165.1 170.5 175.6 181.6 184.8 191.2 199.6 212.1 220.5 219.1 227.4 237 244.5 249.5 251.9 254.3 256.9 254.3 252.6 248.4 241.9 236.6 230.3 220.7 206.8 197.8 196.7 205.8 208.6 205.4 202.6 212 218.1 214.1 200 188.4 179.7 177.6 177.8 170.3 156.8 138.6 120.1 112 106.7 106.7 112.8 114.5 109.4 98.6 88.1 81.1 72.7 81.3 77.2 75.1 67 60.5 52.8 39.9 32.7 32.7 32.7 32.7 32.7 32.7 32.7 32.7 32.7 32.7 32.7 32.7 32.7 32.7 32.7 32.7 32.7 32.7 32.7 32.7 32.7 32.7 32.7 32.7 32.7 32.7 32.7 32.7 32.7 32.7 32.7 32.7 32.7 32.7 32.9 39.5 56.1 59.3 62.2 58.6 63 59.6 61 54.6 51.6 52.8 51 48.6 55.1 61.2 63.3 66.6 65.1 61.1 59.4 69.5 74.3 78.9 84.3 90.6 96.7 106.1 115.2 125.7 134.9 141.8 145.9 148.6 157 160.4 167.7 174 176.6 178.7 184.6 192.8 202.7 216.4 221.3 227.7 235.1 240.5 247.9 254.1 261.2 269.1 275 280 289.1 298.5 299.1 298.3 301.7 305 310.6 326.8 340.1 342.2 341.2 340 342.9 353.9 362 360.4 355.8 354.3 358 359.7 368.2 376.6 381.1 384.2 382.9 383.6 397.7 405.3 409.5 403.8 413.3 419 423.5 427.3 429.4 433 437.4 443.2 447.5 455.4 458.9 458.1 466.6 466.7 466.5 475.6 477 482.8 487.2
155.8 163.5 170.6 174.8 179.5 184.2 188.2 191.5 194.7 199.7 205.1 211.8 217.4 227.4 238.2 246.7 251.5 254 257 259.9 256 253 245.8 238.8 230.6 220.9 210.9 196.9 189.8 192.4 196.6 195.4 195.6 200.5 212.9 215 205.8 192.4 183.8 174 170.1 169.4 158.4 141.7 122.8 113.1 107.5 103.6 107.2 111.9 114 100.8 90.3 76.2 68.6 68.9 67.4 60.1 55 48.3 43 32.7 32.7 32.7 32.7 32.7 32.7 32.7 32.7 32.7 32.7 32.7 32.7 32.7 32.7 32.7 32.7 32.7 32.7 32.7 32.7 32.7 32.7 32.7 32.7 32.7 32.7 32.7 32.7 32.7 32.7 32.7 32.7 32.7 32.7 32.7 35.5 44.2 52.5 65.7 68.5 73.9 70.3 66.6 65.2 66.4 59.2 59.4 57.6 52.5 57.9 63.7 64.7 68.9 69.3 67.9 65.6 63.1 68.3 75.1 82.5 87.6 93.4 102 112.2 121.6 129.5 133.9 138.6 145.1 151.4 158.7 163.4 172.7 175.5 178 180.7 189.1 199.2 208 215.6 225.4 227.9 236.4 242.9 249.5 255 261.9 269.8 275.4 279.5 287.1 296.5 297.6 299 301.3 307.7 322.8 334.9 340 339.9 341.4 343.1 347.6 359.4 365.8 363.4 360.1 362.4 362.2 362.6 370.8 376.8 379.9 382.5 381.4 389.1 399.8 402 404.2 414.7 415.6 425.7 426.5 426.3 427.4 433.3 440.3 445 455.3 463.2 463.6 464.8 468.5 467 472.7 476.1 479.4 486.6 489.7
164.5 172.2 179.6 185.2 189 191.3 194.3 197.6 201.5 206.5 211.6 215.7 224.6 234 241.6 249.6 254.7 257.6 260.6 263.2 261.2 252.2 242.4 233.4 224.3 213.8 201 192.2 184.6 190.1 186.4 188.1 191 200.6 210.2 201.9 198.3 188.3 178.8 169 159.8 156.9 144.6 126.3 113.2 107.8 102.3 102.3 107.8 112 111.1 89.9 74.7 64.6 58.7 60.7 52.3 42.6 34.7 32.7 32.7 32.7 32.7 32.7 32.7 32.7 32.7 32.7 32.7 32.7 32.7 32.7 32.7 32.7 32.7 32.7 32.7 32.7 32.7 32.7 32.7 32.7 32.7 32.7 32.7 32.7 32.7 32.7 32.7 32.7 32.7 32.7 32.7 32.7 32.7 36.3 48.1 53 63.1 70.5 78.3 82.4 76.5 71.2 70.7 67.1 60.1 58.6 61.2 55.5 58.4 64.6 69.5 70.2 70.6 70.3 68.9 69.6 63.5 74.8 82.4 90.9 96.8 108.9 118.4 126 130.5 134.9 139.4 149.2 153.9 157.2 163.1 171.9 175.2 179.7 184.1 194.1 203.1 210.9 216.6 219.9 224.2 234.2 241.8 250.5 256.1 262.5 269.7 277 282.2 288.6 295.3 297.5 297.9 303.2 314.9 328.3 333.7 337.4 338.4 340.7 343.8 352.4 362.1 366.6 362.6 363.5 364.5 364.9 365.7 367 370.7 375.5 379.3 386.1 394.1 393.3 395.3 407.7 414.6 420.2 427.8 424.9 424.8 429.1 437.6 444.3 455.5 462.9 464.9 467.4 471.3 470.3 473.2 476.4 477.7 484 485.8 488.6
169.8 178.2 185.8 191.1 194.7 196.6 200.1 203.7 208.2 213.2 218.3 224.3 232.5 240.6 248.2 253.5 258.9 261.7 264.4 266.3 264.7 252.9 241.5 227.7 214.1 200 192.9 189.1 178.6 179.9 179.9 183.1 190.7 195.7 193.7 191.6 187.8 180.7 173.5 164.4 152.7 143.1 130 114.4 105.4 100.8 100.7 106.4 109.9 112.9 99.9 68.9 56.5 50.7 53.6 45.1 39.2 32.7 32.7 32.7 32.7 32.7 32.7 32.7 32.7 32.7 32.7 32.7 32.7 32.7 32.7 32.7 32.7 32.7 32.7 32.7 32.7 32.7 32.7 32.7 32.7 32.7 32.7 32.7 32.7 32.7 32.7 32.7 32.7 32.7 32.7 32.7 32.7 32.7 39.9 46.3 56.7 57.9 75.5 86.1 88.7 88.1 78.2 75.5 72.1 68.3 64.8 61.4 59.3 57.9 62.2 66.3 70.7 71.2 71.4 71.7 72.4 76.9 71.7 72 83.1 91.9 102.4 112.5 120 126.1 129.7 136.6 141.5 146 150.3 157.2 163.1 171.1 175.7 180 188.7 198.7 205.4 208.9 212.4 218.9 223.5 232.1 242.9 251.2 254.3 263.3 271.4 279.6 284.6 289.2 294.6 297.5 299.6 310.8 320.9 329.4 332.3 335.3 337.3 339.9 344.5 356.3 362.1 360.3 359.7 362.5 362.6 366.2 368.1 374 378.5 381.2 380.7 381.1 384.1 398.3 401.3 408.8 412.1 416 421.5 424.2 430.1 437.7 445.3 456.1 460.9 464.5 468.8 473.1 481.1 479.6 479.8 481.2 483.5 482.9 483.6 486.1
170 183 188.6 193.6 196.9 200.2 204.1 208.9 214.6 220.6 227.6 233.8 237.7 244.4 251.7 257.5 261 262.4 264.3 261.6 257.1 247.1 233.3 217.6 199.2 184.7 188.9 181.1 172.9 176 177.3 181.3 186 184.5 181.4 180.4 176.4 168.2 163.1 156.4 144.1 130.2 114.1 102.6 96.9 99.1 110.2 110.7 117.4 102.8 77.8 48.4 39 41.9 43.4 36.5 32.7 32.7 32.7 32.7 32.7 32.7 32.7 32.7 32.7 32.7 32.7 32.7 32.7 32.7 32.7 32.7 32.7 32.7 32.7 32.7 32.7 32.7 32.7 32.7 32.7 32.7 32.7 32.7 32.7 32.7 32.7 32.7 32.7 32.7 40.1 37.4 38.1 44.4 50.6 56.9 68.8 69.3 82.6 97.2 96.2 86.1 81.4 81.8 72.5 71.4 69.3 66 62.5 62.9 62.4 68.9 73.3 72.5 72.4 72.7 78 88 77.3 69.6 83.9 92.9 105.9 113.7 119.7 125.1 131.6 136.3 140.7 144.1 150.7 154.4 165.8 170.3 174.4 179.4 188.9 195.9 197.2 203.7 211.4 217.9 229.4 236.7 244.1 251.9 256.9 261.8 271.2 280.9 288.7 292.4 294.3 300.5 311.1 317.6 322.5 328.5 330.4 331.9 334.4 339.2 346.6 356.1 356.4 351.5 354.3 357.5 361.7 370.3 378.1 385.8 389.9 390.7 390.6 390.9 395.8 402.1 403.9 406 408.8 411.8 422.8 432.7 441.8 450.1 457.3 463.2 464.8 468.2 473.9 482.3 478.6 481 484.1 481.4 477.9 479.7 483.4 486
170.5 183.5 189.1 194.6 198 202.7 207.4 213.8 220.4 227.5 236.3 243.2 243 242.2 250.1 256.9 260.5 262.1 261.2 255.1 250.3 236.2 218.6 196.4 182.3 183.3 183.7 177.9 178.1 173.4 163.7 170.5 179.6 176 172.3 170 162.7 157.6 151.7 145.1 131.5 116.1 103 98.1 90.2 108.3 114.3 117.6 98.2 79.3 54.3 32.7 32.7 32.7 32.7 32.7 32.7 32.7 32.7 32.7 32.7 32.7 32.7 32.7 32.7 32.7 32.7 32.7 32.7 32.7 32.7 32.7 32.7 32.7 32.7 32.7 32.7 32.7 32.7 32.7 32.7 32.7 32.7 32.7 32.7 32.7 32.7 32.7 32.7 42.9 49.1 49.8 54.8 62.8 65 67.4 76 84 90.3 97.3 95.5 86.6 87.1 77 74.7 73.5 72.8 69.1 66.1 67.5 63.5 69.1 73.3 77.4 76 80.2 88.5 90.2 82.2 75.1 81.2 94 103.1 111.5 118.5 125.7 127.9 138.4 143.2 146.9 154.1 158.3 166.4 173.6 177.2 182.2 187.1 192.9 203 208.4 216.4 224.8 234.1 238.8 245.3 251.2 254.2 258.6 269.4 280.9 289.2 290.6 296.1 307.8 317.8 324.1 326.2 326.6 326.5 328.2 334.2 340.1 349.8 352.6 346.7 351.3 357.1 361.9 369.7 381 387.9 395.3 396.7 395.5 395.9 395.6 396.8 402.4 408.6 409.9 415.7 425.6 435.2 443.5 452.5 461.7 465.1 464.6 468.4 470 474 476.5 480.3 482.1 481.5 477.6 477.1 486.1 483.4 475.9
172.4 185.2 190.7 195.7 201.9 206.9 213.5 220.2 226.9 235.9 244 246.2 248.2 245.8 247.7 253.3 257.3 256.8 252.5 243.4 237.8 218.6 196.2 180.6 175.9 179.1 180.7 178 179.1 179.7 169.2 159.5 163.9 162.7 166.9 165.7 159.4 151 143.2 131.7 117.5 104.6 98.1 89.3 91.3 106.9 113.3 107 85.7 53.5 32.7 32.7 32.7 32.7 32.7 32.7 32.7 32.7 32.7 32.7 32.7 32.7 32.7 32.7 32.7 32.7 32.7 32.7 32.7 32.7 32.7 32.7 32.7 32.7 32.7 32.7 32.7 32.7 32.7 32.7 32.7 32.7 32.7 32.7 32.7 32.7 32.7 32.7 45.2 53.4 59.3 60.4 71.6 72.2 78.2 74.6 85.8 95.3 93 99.9 94.3 91.7 86.6 80.8 84.7 78.9 74.6 72.3 71 71.4 72.6 71.2 76.4 79.4 87.1 94.9 91 91.1 89.5 80.9 79.2 94.3 102.5 108.9 116.4 121.4 130.2 136.2 139 145.2 153.2 161.4 167.2 173.6 176.5 181.4 185.9 195.7 204.7 211.9 217.4 226.7 235.4 239.5 243.4 249.5 259.1 270.1 276.5 279.8 283.8 287.2 304.1 314.4 322.1 325.7 324.9 320.4 321.8 325.6 332 341.7 349.3 342.9 351 358.8 365.4 371.1 377.2 389.4 395.8 399.9 400.5 398.1 398.6 398.7 399.8 401.1 410.1 413 419.2 432.6 439 450.3 457 459.2 460.8 467.5 466.9 468.2 471.1 475.4 477.4 477.7 476.3 477.6 486.4 490.1 480.4 470.4
178.7 187.5 192.5 197.3 202 213 220.3 227.2 234.6 243.4 247.2 248.9 250.3 249.1 249.1 248.8 242.7 241.3 235 229.3 220.2 198.9 184.6 173 176.8 176.6 177 175.3 177.8 182.8 174.3 161.6 150.6 154 156.8 156 151.8 142.4 132.5 120 105.1 96.6 88.5 84.2 89.5 91.9 90.1 78.1 53.6 32.7 32.7 32.7 32.7 32.7 32.7 32.7 32.7 32.7 32.7 32.7 32.7 32.7 32.7 32.7 32.7 32.7 32.7 32.7 32.7 32.7 32.7 32.7 32.7 32.7 32.7 32.7 32.7 32.7 32.7 32.7 32.7 32.7 32.7 32.7 32.7 32.7 32.7 45.7 54.3 61.8 68 70.7 77.7 83.6 82.3 81.4 90.9 96 97.8 100.3 98.6 95.6 88.3 93.6 93 88.3 82.3 76.9 77.5 79.8 82.5 75.3 78 81.7 93.1 91.2 91.8 92.7 93.3 90.2 76.5 91.6 102.5 108.4 114.8 120.6 126.3 131.8 135.9 143 156.7 159.3 164.5 169.2 175.3 185.4 190.4 200.8 206.5 214.1 221.2 226.5 230.7 234.7 244 252 265.6 269.3 275.9 280.3 285.2 298.3 310.4 318.3 324 316.7 313.6 316.4 320.2 323.3 329.3 335 337.8 345.2 355.9 362.5 369.5 376.7 382.9 390.9 397.6 400.9 400.5 399.9 400.1 402.1 404.4 411 412.9 422.7 425 437.9 445.1 453.4 456.9 458.7 463.8 463.2 465.3 466.6 468.4 475.8 477 474.6 472.1 484.2 491.7 485.2 470.1 469.8
178.2 187.4 193.5 198.8 202.9 217.1 227.4 234.6 241.7 247.8 250.1 251 250.6 248.2 250.7 239.6 232.4 226.9 223.1 214.3 198.8 185.5 168.7 175.2 177.5 177.7 172.9 171.5 172.5 172.5 169.6 158.3 148.1 144.5 146.5 144 138.5 133 120.6 106.6 94.8 87 78.9 82.4 84.7 82 62.3 47.8 32.8 32.7 32.7 32.7 32.7 32.7 32.7 32.7 32.7 32.7 32.7 32.7 32.7 32.7 32.7 32.7 32.7 32.7 32.7 32.7 32.7 32.7 32.7 32.7 32.7 32.7 32.7 32.7 32.7 32.7 32.7 32.7 32.7 32.7 32.7 32.7 32.7 32.7 46.2 57.5 63.8 69.8 73.6 78.7 85.5 86.5 86.9 89.6 97.9 101.8 101.5 102.4 99.5 97.5 98 102.7 99.3 97.3 92.4 89.5 91.5 93 91.5 79.1 89.5 91.2 89.2 91.1 92.8 96.4 98.7 94.5 77.8 88.1 98 106.7 115.9 122.6 130.8 135.3 138.8 146 153.1 153.5 160.2 167.7 174.4 182.4 194 200.5 203.9 208.9 216.1 221.7 224.5 235.8 245.3 256.2 259.1 261.2 266.5 277.4 290.9 305.9 314.4 315.1 309.9 309.1 311.1 315.1 319 321.9 324.7 332.3 340.8 350.3 361.1 367.3 373 380.4 387.8 393.6 395.7 397.2 397.8 399.6 401.9 405 406.3 411.5 422.2 428.2 431.6 437.4 445.5 449.2 454 457.9 460.5 462.1 463.1 468.9 471.4 472.2 474.2 470.8 481.6 483.2 476.7 470.1 472.3 467.5
184.3 190.2 194.9 199.7 206.8 222.8 232.4 240.1 244.6 249.5 251 250.4 245 241.7 241.1 226.8 223.2 214.8 207.7 197.8 185.7 168.1 171.8 176.5 178.4 177.2 178.6 174.6 165.2 159.1 156.2 151.9 151.2 151.7 148 139.2 128.1 123.7 104.6 94.8 87.5 74.5 77.7 84.3 64.7 53.4 44 32.7 32.7 32.7 32.7 32.7 32.7 32.7 32.7 32.7 32.7 32.7 32.7 32.7 32.7 32.7 32.7 32.7 32.7 32.7 32.7 32.7 32.7 32.7 32.7 32.7 32.7 32.7 32.7 32.7 32.7 32.7 32.7 32.7 32.7 32.7 32.7 32.7 36.9 45.1 57.6 67.9 74.4 79.6 83.3 89.3 91 89.9 95.6 97.5 104.3 108.2 105.5 107.5 108.7 110.6 116.7 121.3 117.8 109.3 104.5 102.7 105.2 101.8 101.9 97 97.2 96 93.2 93 93.2 98.9 102.1 97.5 92.2 83.1 86.9 93.4 109.5 118.3 125.7 131.9 134.1 140.3 146.3 153.2 160.6 167.4 177.1 182.5 190.7 199.4 204.9 209.1 208.1 209.1 220 233.3 241.8 251.1 258.7 264.8 269.4 277.2 291.1 299.7 302.1 302.1 304 306.3 309.7 315.2 321 322.8 329.6 338.7 346.1 360 367.5 372.6 376.6 381.4 387.2 391.2 393 394.5 396.6 400.3 404.1 403.2 403.5 413.8 427.4 432.1 437.3 442.6 443.9 449.1 452.3 456.6 460.2 464.8 465.3 466.7 468.4 471.4 468.9 480 475.6 464 468.9 471.6 468.2 467.4
194.5 194.3 198.7 203.6 210.2 227.1 237.6 247.7 248.9 247 245.3 244.1 231.9 230.8 221.1 220.6 211.1 203.9 191.9 184.7 167.7 167.2 175.5 173 178 173.7 173 169.6 161.1 154.4 154.2 151.5 152.3 153.9 152.4 146.8 123.4 102.8 94.8 86.2 78.9 67.7 73.9 73.4 55.8 39.4 32.7 32.7 32.7 32.7 32.7 32.7 32.7 32.7 32.7 32.7 32.7 32.7 32.7 32.7 32.7 32.7 32.7 32.7 32.7 32.7 32.7 32.7 32.7 32.7 32.7 32.7 32.7 32.7 32.7 32.7 32.7 32.7 32.7 32.7 32.7 32.7 32.7 42.3 52.8 60.6 68.8 76.3 83.4 87 94.6 98.9 98.7 94.8 102 110.5 113.3 112.8 113.7 117 120.3 123.7 131.6 131.8 126.6 124.1 121.4 114.5 110.4 106.1 99.7 101.9 100.4 100.3 103.6 99.6 96.9 96.6 100.9 98.1 97.3 97.7 103.5 108.4 104 110.6 120 121.7 129.3 135.8 148.6 156.9 167.6 167.6 174.3 183.5 193.9 196 192.3 194 214.2 224.8 235.7 242.7 246.8 256.1 264.1 267.3 271.3 276.5 280.8 290.5 293.5 299.4 304.5 309.1 313 317.9 323 328.2 333.6 341.8 354.9 368 375.3 377.6 379.4 382.7 385 387.5 390.2 394.8 400.3 401.2 398.6 397.1 401.7 419.5 428.9 435 439.6 442.8 446.7 451.4 455.7 462.3 465.7 469.9 466.5 468 466.4 472.3 472.4 466.4 462.3 467.1 465.1 464.4 467.9 469.6
188.5 192.6 200.2 205.6 210 224.4 239.2 244.8 247.1 242.6 235.9 227.4 223.6 220.7 214.2 212.1 196.1 188.2 179.2 163.5 158.6 161.4 166.1 169.3 166.7 163.6 163 162.6 156.6 152.6 151.7 151.3 154.7 159.4 156.5 144.8 120.3 93.4 87.9 82.4 74.1 68.8 65.4 56.1 36.2 32.7 32.7 32.7 32.7 32.7 32.7 32.7 32.7 32.7 32.7 32.7 32.7 32.7 32.7 32.7 32.7 32.7 32.7 32.7 32.7 32.7 32.7 32.7 32.7 32.7 32.7 32.7 32.7 32.7 32.7 32.7 32.7 32.7 32.7 32.7 32.7 32.7 41.3 56.6 73.4 77.1 79.6 86 89.4 94.5 102.4 111.9 114.2 113.8 119.7 127.5 122.2 123.1 130.2 128.3 130 132.4 137.2 138.3 137.1 135.7 132.7 124.1 115.3 107.1 110 109.3 111.2 109.3 108.4 104.7 99.5 101.3 98.8 100.7 101.1 108 113.8 119.8 114 103.3 110.1 118.9 123.7 128.7 144 149.2 157.9 166.7 170.2 179.7 180.4 180.3 199.8 211.3 221.1 235.3 240.9 245.1 253 261.6 266.3 269.1 273.4 279.9 283 288.5 295.3 302 306.6 312.2 316.5 322.4 327.2 329.1 337.7 353.3 366.1 374 379.4 381.2 383.2 385.3 383.6 384.3 387.1 397.6 397.7 394.3 392.6 394.4 418.2 425.1 429.3 432.8 442.7 451.4 452 452.9 460 462.2 469.1 468.9 465 467.3 474 462.3 462.3 468.4 462.1 460.4 461.3 460.5 467.6 478
182.4 193.2 201.4 208.7 211.2 220.3 228.3 240.9 240 232.2 223.2 216.4 213.7 207.2 203 189.8 183 176.2 162.3 152 159.4 154.5 161.4 163.4 152.2 155.5 163.5 164.7 156.6 153.9 151.2 152 160.2 158.4 154.2 136.8 117.1 97.5 81.9 79.4 76.7 55 51.2 32.7 32.7 32.7 32.7 32.7 32.7 32.7 32.7 32.7 32.7 32.7 32.7 32.7 32.7 32.7 32.7 32.7 32.7 32.7 32.7 32.7 32.7 32.7 32.7 32.7 32.7 32.7 32.7 32.7 32.7 32.7 32.7 32.7 32.7 32.7 32.7 32.7 33.2 40.1 48.1 64.1 81.5 83.5 85.8 90.9 95.1 109 118.9 127.2 126.7 126.5 133.3 133.5 137.8 140.8 138.9 141.2 142.7 143.4 144.8 148 148.6 146.9 138.8 128.6 114.1 115.7 117.5 119.7 118.4 118.3 114.9 108.2 109.3 106.2 100.9 108.3 111.2 115.5 120.9 123.6 120.7 106.8 109.9 108.5 128.4 139.7 146.4 148.3 163.4 168.9 164 167.7 183.5 195 206.3 217.9 228.7 235.1 240.9 246.6 254.2 262.1 267.2 269.7 273.3 279.3 283.6 289.9 296.8 303.8 308.4 314.1 318.7 322.5 323.9 333.3 347.4 363.1 371.6 377.4 379.4 378.6 381.9 382.3 382.8 382 388.6 389.3 387.6 391.1 394.5 402.9 416.1 423.9 430.2 437.4 445.6 447.3 450.2 455.7 460.7 468.3 466.4 464.2 468.8 467.5 462.3 467.4 467.2 459.4 460.1 459.5 456.5 465 483.1 482.2
184.9 192.6 203.7 209.5 208.5 218.2 222.9 225.1 225.6 218.8 217.8 213.9 206.2 198.7 187.7 175.9 168.3 160.4 149.8 148.9 148 146.7 149.5 143.4 144 157.2 162.2 147 145.9 148.9 152.6 144.1 150.7 147.8 134.7 126 110.9 92.7 77.7 69.4 68.9 50.8 38.6 32.7 32.7 32.7 32.7 32.7 32.7 32.7 32.7 32.7 32.7 32.7 32.7 32.7 32.7 32.7 32.7 32.7 32.7 32.7 32.7 32.7 32.7 32.7 32.7 32.7 32.7 32.7 32.7 32.7 32.7 32.7 32.7 32.7 32.7 32.7 32.7 41.1 45.3 49.5 59.1 69.3 82.7 86.6 90.7 96.9 115.8 125.9 131.2 137.5 140.8 137.2 141.7 143.3 152.5 150.2 147.5 152 155.9 156 154.6 157.6 158.3 154 142.9 121.1 129 129.4 126.1 129 126 122.8 121 115.5 113.1 110.9 105.6 109.9 116.8 121.5 128 127 124.6 124.6 119.2 116.8 117.4 142.9 151.7 162.4 169 170.6 175.4 185 190.3 202.6 212 218.7 229.6 237.2 242.9 248 256.8 261.9 266 270.6 272.4 276.3 282.6 290.3 297.4 303.5 306.3 311.1 314.3 316.2 329.1 341.8 353.9 368.9 374 375.8 377.5 377.2 377.3 378.1 377.8 378 381 385.9 390 395.2 403.4 412.2 428.9 427.1 434.5 447 449.9 447.2 453.9 459.6 463.6 466 464.6 468.3 470.6 467.4 466.5 466 460.8 459.5 457 457.1 460 479.2 485.5 481.2
192.6 194.6 200.8 206.4 205.8 212.1 218.2 220.5 214.6 217.5 210.4 213.7 203.9 188.1 175.6 164.9 160.8 149 140 142.6 141.3 138.8 138.2 133.1 145.3 158 146.3 135.9 136.6 148.2 154.3 142.3 133 129.6 118.2 110.5 103.2 87.5 73 59.1 51.7 35.5 32.7 32.7 32.7 32.7 32.7 32.7 32.7 32.7 32.7 32.7 32.7 32.7 32.7 32.7 32.7 32.7 32.7 32.7 32.7 32.7 32.7 32.7 32.7 32.7 32.7 32.7 32.7 32.7 32.7 32.7 32.7 32.7 32.7 32.7 32.7 32.7 41.2 53.2 60.1 61.2 66.1 75 84 90.5 95.6 113.5 132.1 147.1 151.7 151.7 146 144.2 149.9 161.6 167 155.4 156.7 161.8 166.9 167.3 166.2 165.7 165.5 156.4 129.1 139.2 141.2 140 135.3 133.7 129.6 126.3 123.8 123.5 119.1 119.3 113.7 114.7 127.8 130.6 135.4 130.8 129.6 129.8 131.3 124.7 110.9 144.1 156.9 161.7 165.6 172.4 179.2 190.6 196.5 204.9 212.9 220.6 227 237.5 244.5 249.1 256.1 260.4 264.5 266.8 268.1 275.2 282.1 289.1 295.8 301.6 304.4 309.4 316.4 325.9 336.5 346.6 355.2 366.1 369.7 371.9 374.1 373.3 372.8 372.1 373.6 380.3 384.2 388.7 393.1 402.5 419.8 429.9 422.9 429 444.9 455.9 443 450.8 455.1 458 462.2 463 469.3 470.6 466.9 464.7 462.6 460 458.7 456.9 457 458.7 470.2 472 473.5 476.8
190.1 194.6 198.7 203.2 201.9 202.8 204 204.3 203.9 197.9 203.7 199.9 189.7 183.6 163.1 156.6 148.9 139.2 134.1 137.7 138.6 131.9 127.2 133.1 143.3 140.3 133.3 128.9 133.4 145 145.8 131.5 126.9 117 110.4 101.7 91.3 85.1 67.1 57.2 38.2 32.7 32.7 32.7 32.7 32.7 32.7 32.7 32.7 32.7 32.7 32.7 32.7 32.7 32.7 32.7 32.7 32.7 32.7 32.7 32.7 32.7 32.7 32.7 32.7 32.7 32.7 32.7 32.7 32.7 32.7 32.7 32.7 32.7 32.7 32.7 37.7 41 49.9 60 67.6 71.2 74.4 80.3 86.2 99.2 112.2 128.9 146 156.2 163.8 155.1 148.1 149.1 164.2 174.8 171.3 158.1 163.6 172.4 177.9 179.2 177 175.2 167.4 147.2 149.4 151.9 148.6 150.2 141.6 136 133.4 127.4 128.5 130 130.9 127.9 124.4 115 128.1 131.4 134.2 134.3 134 134.3 135.3 130 114.2 136.9 148.5 158.8 166 172.4 182 192.3 202.1 206.7 212.8 221 227.3 236.8 244.1 249 252.1 256.9 261 263.4 269.8 276.9 283.9 289.4 294.3 299.3 303.9 312.2 320.9 330.3 338.8 346.3 353.8 362 365.4 368 369.6 368.7 369.1 371.5 376.8 381 387 391.4 400.2 417.9 418.9 419.2 423.7 439.8 444.4 437.8 446.6 450.3 453.9 455.5 457.5 469.5 474 469.5 461.2 457.7 455.9 460 457.3 458.5 463 462.2 467 470.5 472.4 474.3
192.6 196.8 203 206.1 201.7 198.3 195.8 190.2 188.8 187.5 186.9 186 184.4 169.4 152.6 147.5 133.9 133.4 132.5 137.4 133.5 125.2 126.9 135.6 134.2 130 129.1 127.2 130.1 137.6 131.6 127.3 126.4 105.4 98.9 88 85 79.6 64.2 44.5 32.7 32.7 32.7 32.7 32.7 32.7 32.7 32.7 32.7 32.7 32.7 32.7 32.7 32.7 32.7 32.7 32.7 32.7 32.7 32.7 32.7 32.7 32.7 32.7 32.7 32.7 32.7 32.7 32.7 32.7 32.7 32.7 32.7 32.7 32.7 41.6 47 50.6 59.4 64.6 73.4 77.6 82.7 88.1 100.3 110.9 122.7 135.8 150.6 160.9 164.9 156.4 156.6 164.6 180.3 181.3 176 165.1 175 184.1 188.8 190.1 185.5 176.9 166.3 154.9 159 162.4 157 152.8 148.3 142.9 139 134.4 133.6 136 140 140.1 137.2 133.9 123.3 133 135 135.9 137.2 139.2 139.1 133.5 123.6 125.7 146.9 157.3 165.6 172.2 179.6 188.3 197.2 204.3 209.9 227 227.3 233.4 240.5 244.3 246.9 250.9 256.1 261.8 268.8 277.9 284.3 289.6 295.6 302.4 307.7 315 322.3 331.4 338.3 345.5 352.9 360.9 363.9 365 366 366.3 369.7 373.1 376.8 380.7 387.9 395.2 414.9 408.6 409.1 419.9 434.1 439.5 433 436.3 442.2 452.7 453.7 454 465.6 470.2 467.7 456.2 451.9 453.2 455.8 454.4 456.1 458.4 464.5 464.6 468.8 471.6 472 479.8
193.2 199.2 198 201.1 199.2 192.6 189.3 187.3 185.4 184.8 183 178.5 163.1 144.3 140.4 129 125.6 129.3 131.3 130.4 127.8 124 126.2 120.9 120.8 123.8 126.9 129.8 129.3 125.3 118.1 110.2 105.9 94.9 88.8 81.3 72.2 60.7 48.7 32.7 32.7 32.7 32.7 32.7 32.7 32.7 32.7 32.7 32.7 32.7 32.7 32.7 32.7 32.7 32.7 32.7 32.7 32.7 32.7 32.7 32.7 32.7 32.7 32.7 32.7 32.7 32.7 32.7 32.7 32.7 32.7 32.7 32.7 32.7 44.1 59.2 58.8 58.7 65.9 71.5 79.5 86.3 91.5 100 110.5 116.1 123.8 132.4 145.5 158 160.6 162.7 165.7 179.6 190.9 187.2 177.8 173 189.8 196 198.8 198.3 189.4 174.7 167 165.3 165.7 167.3 162.9 158.7 156 152.1 146.5 141.5 137.9 142.9 145.9 148.2 142.7 145 133.6 131.2 137.9 139.5 141.4 142.3 141.5 135.6 124 125.3 142.5 156.2 168.5 177.6 188.2 196.6 201.7 205.4 216.2 227.5 226.9 232.7 236.2 239.8 241.8 244.3 250.7 259.9 269.6 277.9 285.1 290.6 297.7 305 311.5 318.3 323.7 331 338 344.9 351.9 360.7 361.9 363.1 364.4 367 369.8 372.8 376.3 381.6 389.8 396.4 400.8 405.6 412.6 429.5 433.4 426.8 430.6 434 441.3 443.4 448.9 455 463.1 454.7 447.2 444.4 447.3 450.1 450.9 452.7 458.2 461.5 462.3 469.4 469.4 469.4 474.3 476.6
196.2 200.6 199.8 195.1 194.5 188.9 184.7 181.4 179.3 181.8 172.9 159.1 141.3 131.3 124.1 120.4 123.9 121.5 123.4 125.4 126 120.1 116.5 122.5 127 127.6 125.3 132.5 138 124.1 105.4 109.5 97.1 101.2 90.8 70 59 45.6 32.8 32.7 32.7 32.7 32.7 32.7 32.7 32.7 32.7 32.7 32.7 32.7 32.7 32.7 32.7 32.7 32.7 32.7 32.7 32.7 32.7 32.7 32.7 32.7 32.7 32.7 32.7 32.7 32.7 32.7 32.7 32.7 32.7 32.7 32.7 40.8 58.3 68.6 64.2 66.2 73 77.6 87.4 92.9 100.8 110.6 117.1 127.8 142.1 153.9 146.6 160.3 170.6 171.3 182.5 195.6 200.6 185.5 178.1 189.3 202.3 204.7 202.6 198.8 188.3 179 177.7 174.5 174.5 173.4 170.9 166.2 164.2 159.6 153.4 150.9 143.8 148.4 154.8 153.8 151.2 146.1 140.2 132.1 138.5 141.2 145.7 147 144.3 138.9 129.9 127.2 138.5 153.4 167.5 181.7 191.8 198.4 203 207.4 213.7 218.4 226.7 229 231.3 236.2 236.5 241 250.3 261.6 271.7 279.2 286.6 291.9 299.3 306.1 312.5 319.3 324.4 331.1 337.9 345 352.2 359.2 359.9 361.6 364.5 367.1 369.1 372.3 375.7 381.1 388.4 393.9 397.1 404.8 422 419.8 418.9 423.3 427.9 431.2 434.3 438.5 443 445.4 441.7 437.7 441.7 445.4 445.2 449.8 452.4 456.2 462.3 463.9 469.2 468.7 468.3 470.8 474 476.3
198.7 198.7 198.5 194 186 182.9 179.1 174 171 166.5 152.6 144.4 128.9 120.8 117.7 116.6 115.1 116 122.5 123.8 124.4 110.2 109.3 120.1 125.3 119.4 130 138.3 133.7 106.4 105 103 94.3 97.1 81.2 66.6 45.5 32.7 32.7 32.7 32.7 32.7 32.7 32.7 32.7 32.7 32.7 32.7 32.7 32.7 32.7 32.7 32.7 32.7 32.7 32.7 32.7 32.7 32.7 32.7 32.7 32.7 32.7 32.7 32.7 32.7 32.7 32.7 32.7 32.7 32.7 32.7 34.8 52.2 64.6 67.5 66.5 71.5 78.3 85.9 101.7 103.9 111.6 118.4 127.6 145.2 160.2 168.6 169.6 173 177.5 182.5 196.9 205.2 193.8 187.6 195.3 200.8 204.9 207.1 205.4 196.9 188.5 191.3 191.5 189.6 184.5 182.7 180.4 177.6 172.9 168 162 156.3 153.9 158.5 158.9 156.1 154.1 149.2 137.4 133.5 137.2 143.6 147.6 148.1 146.6 143.7 140.2 134 134.3 147.4 167 183 190.7 198.3 203.6 208.6 210.4 220 227.1 227.9 227.5 228.8 233.2 243.1 252.2 261.8 272.6 279.8 286.3 291.1 297.5 303.8 310.8 318.4 324.5 330.3 336.7 342.9 348.9 355.5 357.4 359.8 362.2 364.7 367.6 372.1 376.7 381 385.5 389.8 395.2 405 406.2 408.8 416.6 421.9 424.2 427.9 431.5 435.1 434 432 429.8 437.2 442 439.7 444.8 447.5 450.8 456.9 464.1 470.2 472.3 469.7 469.2 475.5 477.9 474.2
192.9 193.6 187.2 181.3 172 173.1 170.2 163.5 157.2 144 143.3 129.9 117.6 107.2 105.6 109.1 107.7 114.9 117.2 116.2 108.9 102.7 106.2 109.7 114.9 125.6 136 132.3 109.2 100.3 88.2 91.6 91.4 86.6 69.6 45.1 32.7 32.7 32.7 32.7 32.7 32.7 32.7 32.7 32.7 32.7 32.7 32.7 32.7 32.7 32.7 32.7 32.7 32.7 32.7 32.7 32.7 32.7 32.7 32.7 32.7 32.7 32.7 32.7 32.7 32.7 32.7 32.7 32.7 32.7 32.7 32.7 48.8 60.1 69.4 74.8 74.5 81.8 89.9 103.5 111.4 123 129.1 134.1 142.2 163.6 172.7 177.4 182.2 183.2 188.8 192.9 198.4 200.9 196.3 202 207.5 208 211.1 211.1 204.1 193.8 197.5 200.6 201 199.3 194.2 192.8 190.3 186.3 181.4 176.9 173.4 171.7 166.7 164.8 162.1 159.5 156.1 150.1 146.5 145.6 141.1 149.6 151.3 150.3 149.2 147.8 146.8 144.6 136.8 147.9 167.3 178.6 188.1 196.2 201.8 205.1 214.2 222.5 225.9 224.8 217.9 228 236.7 245.8 254.8 263.6 272.4 279.1 282.7 287.1 295.7 300.9 307.7 315.6 322.8 328.9 335.6 341.2 346.1 351.8 354.2 356.1 359.2 361.1 367.1 374 374.5 377.7 382 386.3 390.2 395.8 401.7 407.6 414.7 417.5 419.8 423.6 426.6 425.1 421.3 425.5 431.2 432.5 435.1 438 441.6 444.8 450 459.7 469.1 472.3 471.6 474.8 482 477 478.1 474.7
189 186 179.3 169.4 162.6 158.5 153.1 145.9 138.2 135 131.2 116.7 105.9 98.5 102.4 107.4 104.6 112.3 111.1 102.5 97.9 92.5 96.9 103.5 114.1 128.2 122.2 104.6 87.9 89.4 74.7 75.8 82.5 60.8 50.3 32.7 32.7 32.7 32.7 32.7 32.7 32.7 32.7 32.7 32.7 32.7 32.7 32.7 32.7 32.7 32.7 32.7 32.7 32.7 32.7 32.7 32.7 32.7 32.7 32.7 32.7 32.7 32.7 32.7 32.7 32.7 32.7 32.7 32.7 32.7 40.8 51.4 60.3 70.2 81.6 88.6 94.1 97.4 103.7 114.4 132.4 141.8 148.3 154.4 162.3 177 185.2 188.8 191.3 193 201.8 207.3 199.1 201.9 209.8 218.6 217 220 221.1 213.3 207.7 199.6 206 206.6 206.1 204.5 202 199.7 195.9 192 189.4 186.9 186.1 184.8 175.3 168 167.6 163 158.5 158.3 157.2 156.9 154.1 143.8 154.8 152.6 151.8 150.5 145.3 141.6 142.7 144.3 161.1 172.9 186.1 192.9 197.9 206.2 215.6 221.1 222 220.5 212.1 228.9 240.7 248.2 255.3 262.6 268.4 272.2 281.4 287.6 293.4 297.2 303.7 311.8 319.7 326.9 333.6 338.8 344.7 347.9 348.2 351.4 354.2 356.6 363.7 368.5 372.3 378.2 381.3 383.6 384.8 390.7 399.2 404.9 409.7 411.7 414.7 415.9 413.4 414.7 417.6 420.5 422.5 429.7 434.2 435.1 438.2 444.3 455.4 464.7 468.7 471.7 479.1 478.5 482.1 473.1 472.9 470.1
183.3 179.4 174.1 166.4 155.5 147.2 141.3 133 127.2 125.3 115.6 103.1 96.8 97.7 104.2 108 103.3 108.1 101.4 94.9 87.3 89.7 97.9 98.8 115.6 113 98 86.5 90.7 72.1 73.1 72.3 61.4 46.3 32.7 32.7 32.7 32.7 32.7 32.7 32.7 32.7 32.7 32.7 32.7 32.7 32.7 32.7 32.7 32.7 32.7 32.7 32.7 32.7 32.7 32.7 32.7 32.7 32.7 32.7 32.7 32.7 32.7 32.7 32.7 32.7 32.7 32.7 32.7 46.4 53 64.1 75.8 85.5 93 101 108 119.6 131.3 137.4 156.3 166.1 172.5 175.4 178.3 188.3 200.3 201.4 198.2 204.6 219.6 225.5 214.4 215.5 226.6 232.1 230.6 232.9 233 220.2 212.9 207.9 208.6 208.5 208.7 208.5 209.3 206.3 202.4 198.3 198.2 196.8 196.1 193 181.1 173.5 172.5 169 166 167.3 164 162.5 159.3 154.5 160.5 157.1 153.1 151 148.7 150 152.3 138.7 155.6 166 177.4 187.7 196.3 204 210 215.6 216.8 213.5 214.3 230.4 244.4 248.6 255.3 260.4 267.8 271.2 280.7 288.3 290.5 296.2 301.4 308.2 315.8 322.7 330.7 335.4 341.6 343.8 346.4 350.4 353.1 356.1 361.8 368.4 376.8 381.4 383.1 382.5 381 384.3 393.6 398.6 400.9 403.8 406.2 405.8 407.9 410.5 413.5 414.4 419.2 424.7 429.8 432.5 441.6 452.9 456.9 462.6 462.5 478 486.6 480.9 475.5 468.9 470.6 468.9
179.8 174.8 167.6 157.3 147.5 143.9 141.5 126.8 118.8 116.7 98 90.2 94.2 97.3 105.6 102.3 100.8 98.2 90.3 84.6 85.9 87.3 92 98.2 113.9 90.5 79 75.5 65.8 57.4 68.1 52.2 35.6 32.7 32.7 32.7 32.7 32.7 32.7 32.7 32.7 32.7 32.7 32.7 32.7 32.7 32.7 32.7 32.7 32.7 32.7 32.7 32.7 32.7 32.7 32.7 32.7 32.7 32.7 32.7 32.7 32.7 32.7 32.7 32.7 36.5 38.2 40.4 45.4 59.5 72.8 80.1 90.8 99.6 105.6 115.8 129.3 145.8 159.3 161.5 182.5 189.1 192.7 193 195 200.6 214.5 215.9 212.1 227.1 238.9 237 221.4 231.1 241.2 248 247.6 246.8 240 225.1 220.3 223.1 213.7 212.1 212.8 214.1 214.7 212.3 210.3 205.7 204.5 202.9 199.9 194.4 189.3 188.1 183.8 173.5 173.3 170.5 168.4 166.8 164.8 161 158.1 156.1 153.9 150.6 154.2 154.3 157.3 154.2 149.3 154.1 161.9 179.4 195 200.2 204.8 206.4 206 202.4 224.6 238.8 245.2 257.5 258.5 261.9 267.2 270.1 277.7 287.1 291.2 293.1 301.8 308.7 315.5 323.8 328.9 332 337.2 342 346.6 350.5 355.7 360.3 364.2 369.7 376.1 380.8 384.7 381.2 378.8 378.1 383.9 387.8 391.3 395 399 399.8 401.5 404.7 407.7 410.8 416.8 422 429.5 436.8 452.4 455.2 452.5 457.9 464.9 478.5 487.6 486.1 470.6 467.8 467.8 463.6
169.5 167.5 159.8 149 145.3 137.9 130.4 119.8 114.1 96.2 81.2 85.3 84.6 92.5 97.2 93.8 92.8 84.8 82.3 76.1 77.7 79.8 83.9 104.3 86.7 60.8 65 67.9 49.2 55.4 51.5 32.7 32.7 32.7 32.7 32.7 32.7 32.7 32.7 32.7 32.7 32.7 32.7 32.7 32.7 32.7 32.7 32.7 32.7 32.7 32.7 32.7 32.7 32.7 32.7 32.7 32.7 32.7 32.7 32.7 32.7 32.7 32.7 32.7 32.7 40.4 44.8 50.2 61.7 78 92.5 96.6 104.6 112.5 127.2 141.2 156.9 172 182.3 193.7 199.8 204.8 211.3 210.3 210.6 218.5 232.3 226.3 233.5 247.6 253.7 241.3 231.9 247.2 251.1 256.2 256.9 252.1 240.3 223 231.2 225 219.4 214.9 217.2 220.8 220.7 219.8 222.1 215.2 212.8 210 204.6 202.1 199.9 198 193 187.6 180.3 177.7 174.6 171 168.6 165.6 164.1 157.1 153.2 152.6 160.7 159.3 160.6 165.5 163.2 159 159.1 171.4 186.3 191.8 191.1 194.1 196.4 215 227.2 236.4 244.8 249.6 253.2 259.1 263.8 271 274.7 281.5 287.4 294.7 298.2 304.7 311.9 321 326.6 329.3 335.8 341.4 347.2 351.1 354.9 361.7 366.2 369.9 374.2 378.7 381.4 379.9 376.7 375.3 378.3 382.3 386.7 389.6 391.9 395.8 398.7 400.5 402.4 410 416.6 424.2 435.5 440.6 445 446.2 453.2 458.1 465.1 469.8 484.1 482 464 461.8 455.6 454.1
156 153.9 150.8 143.6 134.1 125.3 120.2 109.3 96.6 80.9 71.7 71.5 78.2 84.9 78.9 81.4 76.1 79.6 75.4 67.3 70.8 72.9 88.2 80.3 62.6 44.7 62.2 45.6 34.4 38 32.7 32.7 32.7 32.7 32.7 32.7 32.7 32.7 32.7 32.7 32.7 32.7 32.7 32.7 32.7 32.7 32.7 32.7 32.7 32.7 32.7 32.7 32.7 32.7 32.7 32.7 32.7 32.7 32.7 32.7 32.7 32.7 32.7 33.8 46.8 54.2 60.6 70.7 76.7 94.2 111.1 114.5 118.7 140.7 149.7 163.8 179 190.5 206.8 216.3 217.3 221.6 226.1 226.2 229.3 242.3 250.6 239.2 252.5 260.8 259.7 246.5 248.1 257.2 259.8 261.5 258.5 250.2 231.5 231 231.9 230.1 221.2 219.7 221.9 225 228.8 232.2 230 223.9 219.6 213 209.1 209.7 209.2 207.2 204.4 199.2 189.1 180.7 177.3 173.3 169.8 166 161.1 155.7 159.8 163.3 169 166.9 168.5 169.5 170 170.2 167.7 159.9 175.9 172.8 183.9 193.5 206.4 216.4 222.7 229.4 236.7 242.8 249.4 253.5 259.9 265.4 271.8 276.5 285.4 293.3 298.3 302 307.4 317.9 320.6 325.6 334.5 342.1 347.7 351.9 355.4 360.3 364.8 368.4 372.2 376.4 379 377.3 374.9 373.4 374.5 377.3 382.2 385.7 389.5 393.6 393.8 396 405.3 411.3 416.5 425.1 435.9 436.9 439.8 446.4 452.8 454.3 459.1 463.3 465.8 458.5 453.7 451.3 449 449.7
144.1 150.7 146.6 134.8 117.9 109.4 104.8 96 84.4 68 64.2 64.5 65.3 63 61.8 68.9 71.9 71.1 66.7 65.8 61.4 71.1 73.3 52.2 41.2 38.9 32.7 32.7 32.7 32.7 32.7 32.7 32.7 32.7 32.7 32.7 32.7 32.7 32.7 32.7 32.7 32.7 32.7 32.7 32.7 32.7 32.7 32.7 32.7 32.7 32.7 32.7 32.7 32.7 32.7 32.7 32.7 32.7 32.7 32.7 32.7 32.7 36.2 50.5 61.1 71.8 78.1 87.7 97.1 107.1 121.6 126.9 137 154.9 164.5 180.6 192.8 214.6 230.6 235.6 233.9 239.1 241.1 243.1 250.2 266.9 257 257.8 270.2 271.1 265.1 259.1 258.6 264.2 265.1 264.4 251.2 237.9 229 231.2 232.5 230.9 227.4 222.5 226.1 231.5 236 238.4 235.9 226.5 219.6 216.6 216.8 216.8 218.6 220.6 218.1 206.7 190.5 180.1 175.5 168.5 163.8 161.7 159.6 164.6 169.6 173.8 175.6 173.8 174.9 175.4 175.2 178.1 176.4 166.8 165.1 177.4 189.6 194 199.4 208.8 216.6 223.2 232.5 239.8 243.3 247.9 256.2 263.2 273.9 279.5 284.3 294.1 294.4 300.9 305.5 313 320.9 326 333.7 342.1 348.2 351.5 355 358.8 362.7 366.5 370.4 374 376.1 372.8 372.1 373.9 374.5 380.6 380.7 384.5 387.2 388.5 392.3 395.5 405 411 415.2 422.4 430.1 433.2 437.6 442.6 444.9 445 459 462.5 456 450.9 453.2 447.1 439.1 437.1
149.5 146.2 141.5 134.2 109.1 97 92.5 85.7 70.2 62.5 55.6 58 56.8 49.6 50.8 58.6 58.8 58.4 69.9 66.1 54.9 58.8 51.4 42.7 32.7 32.7 32.7 32.7 32.7 32.7 32.7 32.7 32.7 32.7 32.7 32.7 32.7 32.7 32.7 32.7 32.7 32.7 32.7 32.7 32.7 32.7 32.7 32.7 32.7 32.7 32.7 32.7 32.7 32.7 32.7 32.7 32.7 32.7 32.7 32.7 32.7 34.2 48.9 59.8 70.8 84.9 92.6 100.1 110.1 121.1 132 146.7 154.6 160.9 185.2 200.1 214.8 233.8 247.5 247.2 253.1 261.2 263.6 263.6 273.3 273.1 265.3 275.6 278.8 275.9 271.5 269.2 268.5 269.4 269 254.5 240.4 231.2 230.5 232.2 232.2 233.5 234.4 225.8 231.8 237.1 240.9 242.7 236.6 226.8 223.6 220.4 222.3 220.8 222.9 220.6 211.7 198.5 186 176.8 170.7 172 171.3 172.9 171.2 172.5 178.3 179.8 182.7 180.7 181.2 182.1 184.5 186.2 186 179.9 167.4 166.3 187.8 199.4 199.8 207.1 212.9 215.4 218.5 233.1 234.8 242.5 251.8 255.2 264.2 272.3 280.1 288.5 294.6 299.9 306.2 311.5 318.8 327.2 331.7 338.6 346.7 350.8 354.2 357.4 360.6 364.5 368.9 368.9 368.1 376.9 380.4 378.9 377.2 382.9 386.3 383.8 385.7 388.8 393.3 397.1 403.3 409.4 413.7 419.1 427 429.9 431.3 434.6 436.8 448.4 464.2 457.5 448.3 447.4 437.6 430.8 427.8 426.9
149.6 138.4 130 118.2 101.8 87.8 80.8 67.3 57.9 52.8 51.9 53.9 49.3 43.3 45 45.7 48.6 64.8 70.8 59.8 48.8 43.6 39.5 32.7 32.7 32.7 32.7 32.7 32.7 32.7 32.7 32.7 32.7 32.7 32.7 32.7 32.7 32.7 32.7 32.7 32.7 32.7 32.7 32.7 32.7 32.7 32.7 32.7 32.7 32.7 32.7 32.7 32.7 32.7 32.7 32.7 32.7 32.7 32.7 37.2 42.6 50.6 60.7 71.5 82.8 92.2 103.5 111.1 122.2 143 157.5 169.3 173.3 176.5 197 216.9 235.7 251.7 261.6 261.8 276.3 280.1 286.9 291.4 293 278.2 278.6 282.2 283.2 282 283.2 277.5 272.3 275 262 246.4 234 234.3 232 231.6 233.8 234.8 230.9 232 238.2 242.6 245.2 240.8 235.5 228.2 225.6 224.9 224 221.9 220.3 212 202 190.1 178.6 180.8 181.5 181.5 177.8 178.4 180.7 179.2 180.8 184.8 185.7 187.1 189.3 191.8 193.2 194 194.1 190 180.6 168.4 181.2 193.8 201.6 204.7 208.3 213.7 224.4 232.3 239.2 247.6 250.6 254.9 264.6 271.6 277.5 285.5 292 298.5 308.6 312.2 322.2 326.8 330.2 338 344 349.4 352.8 355.7 360.6 362.6 361.8 366.5 376.9 388.4 389.2 379.9 375.3 378 383 384.2 385.5 389.3 392.5 394.8 399.8 406.6 410.9 415.1 420.9 422.3 424.8 428.6 441 448.3 449.6 443.2 433.9 428.2 425.2 421.7 418.5 416.1
135.8 129.3 116 99.5 89 81.4 60.2 51.1 45.1 41.4 44.7 44.1 42.1 40 42.8 40.8 50.1 62.2 61.4 53.3 36.8 32.7 32.7 32.7 32.7 32.7 32.7 32.7 32.7 32.7 32.7 32.7 32.7 32.7 32.7 32.7 32.7 32.7 32.7 32.7 32.7 32.7 32.7 32.7 32.7 32.7 32.7 32.7 32.7 32.7 32.7 32.7 32.7 32.7 32.7 32.7 32.7 32.7 42.2 49.2 54.8 62 73.3 87.1 96.8 101.5 114 126.8 140.1 158.6 176.3 189.1 192.2 208.6 215.8 231.4 252.2 271.8 274.1 278.8 290.9 297.3 305.1 308 290.1 281.9 286.9 286.8 286.9 289.5 286.9 277.2 268.2 260.9 248.9 240.5 235.7 243.3 231 231.2 233.7 236.6 237.6 239.8 246.8 251.4 245.9 240.8 234.8 228.3 226.8 222.6 221.1 217.2 210.6 204.3 198.6 183 180.5 185.1 189.9 190.7 188.4 184.9 191 188.3 191.4 192 191.2 193.6 196.6 198.3 199.5 200.7 200.4 197.6 185.4 171.2 178.6 182.4 185.1 206.4 209.8 213.2 223.2 233.1 239.5 246.6 250.8 255.6 265.8 272.2 277.4 283.6 288.8 298.4 307.2 313.3 319.9 323.9 331.5 336.7 340.5 347.2 351.1 354.7 357.6 353.4 363.3 374 384.9 389.7 376.9 371.5 369.5 374.7 379.6 383.5 385.6 388.8 390.8 390.9 396.3 402.1 406.6 410.7 412.3 414.3 420 426 434.2 441.3 446.8 433.8 423.7 419.6 416.2 412.9 410.2 409.4
125 112.5 99.9 88.7 80.9 65.3 47.1 43.5 37.8 36.7 37.6 37.4 32.7 36.4 32.8 33.5 48.7 56.8 49.5 36 32.7 32.7 32.7 32.7 32.7 32.7 32.7 32.7 32.7 32.7 32.7 32.7 32.7 32.7 32.7 32.7 32.7 32.7 32.7 32.7 32.7 32.7 32.7 32.7 32.7 32.7 32.7 32.7 32.7 32.7 32.7 32.7 32.7 32.7 32.7 32.7 41.1 47 52 58.4 68.5 80.3 91.8 104.2 112 117.1 127.1 142.5 160 177 193.5 208.5 221.6 226.8 231.9 246.8 267.6 281.8 287.7 291.3 299.1 307.7 313.4 307.1 286.2 290.8 293.2 289.7 290.7 289.2 282.5 269.6 256 249.2 243.1 234.9 243.3 240.9 231 233.2 237.7 241 245.5 251.2 255.3 257.6 252.9 246.2 232.2 228.5 226.9 218.6 213.8 209.3 203.5 200.6 197.9 189.3 185.5 193.2 197.4 198.2 197.8 195.5 197.3 196.6 197.9 200.6 200.6 201.4 204.3 204.9 205.9 207.1 206.9 204.5 194.9 183.9 184.4 192.9 182.7 198.8 206.9 213.2 221.1 230.5 237.8 244.1 249.9 255.8 261.8 269.5 274.9 279.9 286.9 297.8 304.8 312.6 314.7 322.1 330.4 336.8 340.3 344.6 347.7 349.4 345.2 360 370.3 378.9 384.9 373.9 363.9 362.7 368.2 371.4 376.2 380.3 384 386.9 387.7 388 392.5 397.5 401.2 402.1 404.8 411.2 416.8 420.3 424.6 429.2 425.3 419.1 415.4 412.1 408.5 405.8 402 400.6
105.2 97.7 89.1 78.8 68.5 45.1 40.3 35.1 32.7 32.7 32.7 32.7 32.7 32.7 32.7 32.7 49.5 39 32.7 32.7 32.7 32.7 32.7 32.7 32.7 32.7 32.7 32.7 32.7 32.7 32.7 32.7 32.7 32.7 32.7 32.7 32.7 32.7 32.7 32.7 32.7 32.7 32.7 32.7 32.7 32.7 32.7 32.7 32.7 32.7 32.7 32.7 32.7 32.7 47.2 53.1 53.3 51.7 59.8 74.1 88.8 103.6 111.5 120.5 128.8 136.3 144.5 161.4 177.4 194.2 212.4 225.1 237.4 240.7 249.7 263.8 276.1 289.9 295 300.6 307.9 317.8 315.1 297.9 289.1 298.5 297.6 294 291.9 286.7 274.7 259.3 246.3 241.3 235.7 245.5 249.9 235.1 231.7 238.1 242.2 244.7 254.8 258.9 263.7 260.4 250 237.1 229.8 226.2 222.6 213.1 209.2 205.7 199.3 196.1 193.6 195.1 196.7 198.7 200.4 204 205 204.2 205.2 204.4 205.5 208.3 208.8 209.6 211 211.5 212.3 212.7 211.8 210.6 206.4 204.6 204 205.5 204.9 195.5 204.8 213.7 220.7 227.1 234.5 239.9 245.4 250.7 258 267.7 272.7 278.2 285.1 299.1 306.6 309.5 314.2 317.9 325.8 336.1 340.2 342.9 344.3 340 351.8 362.8 369.7 375.3 369.7 361.1 357.6 363 367.2 369 373.4 378.7 382.1 380.9 381.8 385.7 389.5 391 394.4 399.8 403.1 408.2 411.6 413.5 415.8 414.7 413 410.7 408.3 405.3 402.3 397.1 394.1 392
94.2 86 76.6 60.9 43.5 32.7 32.7 32.7 32.7 32.7 32.7 32.7 32.7 32.7 32.7 32.7 32.7 32.7 32.7 32.7 32.7 32.7 32.7 32.7 32.7 32.7 32.7 32.7 32.7 32.7 32.7 32.7 32.7 32.7 32.7 32.7 32.7 32.7 32.7 32.7 32.7 32.7 32.7 32.7 32.7 32.7 32.7 32.7 32.7 32.7 32.7 32.7 37.3 47.1 60.1 64.9 69.5 63.4 74.7 92.9 111 124.8 132.2 140.6 148.3 156.1 167 180.5 195.6 206.8 223.1 240.3 245.6 254.3 267.8 279.2 289.6 298.6 304.6 310.8 320.5 324.2 314.8 293.7 297.3 300.3 298.5 298.9 292.2 279.9 266 249.8 240.9 235.8 243 249.7 246.3 234.1 234.8 242 243.8 252.8 265.4 265.2 262.7 250.8 238.1 228.2 224.9 221.8 215.4 209.2 206.2 203.8 200.1 201 202.3 203.1 208.7 206.5 203.4 208 211.7 213 213.3 212.6 214.5 216.7 217.4 218.1 219.6 220 219.3 216.5 215.7 214.9 215.6 217.4 217 215.9 214.7 211.7 205 212.4 218.7 225.5 231.7 237.9 243.2 248.8 257.7 268.8 274 277.8 286.3 296.6 301.5 309.8 314.5 314.5 323.2 331.9 339 340.7 339.4 342.8 354 362.5 368.4 368 361.2 353.4 356.8 363.1 364.4 365 367.2 372.2 371.8 374.4 378.3 381.9 384.7 387.1 393 397.4 400.7 402.9 404 405.6 406.4 405.1 403.4 402.1 400.5 395.8 392.7 387.7 386.9 393.7
88.4 76.3 58.7 36.5 32.7 32.7 32.7 32.7 32.7 32.7 32.7 32.7 32.7 32.7 32.7 32.7 32.7 32.7 32.7 32.7 32.7 32.7 32.7 32.7 32.7 32.7 32.7 32.7 32.7 32.7 32.7 32.7 32.7 32.7 32.7 32.7 32.7 32.7 32.7 32.7 32.7 32.7 32.7 32.7 32.7 32.7 32.7 32.7 32.7 35.7 33 45.7 55.3 62.9 74.4 76.5 85 77.8 94.3 105.3 129.8 138.8 147.2 157.6 166.5 178.3 190.5 200.6 207.2 212.4 230.1 248.4 257.7 270.7 281.6 291.5 301 308.8 316.2 322 328.4 326 298 295.1 300.4 302.8 304.7 301.2 290.5 275.1 257.4 242.9 236.9 241.9 249.4 250.6 242.7 238.7 238.2 241.5 249.5 262.9 266.2 263.8 254.5 240 229.3 225.5 221 216.1 211.2 211.3 212.8 211.3 204.9 208.8 210.6 217.1 219.2 216 211.9 215.4 219 220.3 221.5 222.4 225.4 225.6 227.5 228.4 227.3 228.8 227.5 224.4 223 222.1 221.4 222.9 223.3 222.8 221.6 219.6 216.6 211.3 218.1 225.2 231.5 238.5 245.6 251.1 257.8 267 272.6 279.1 284 288.4 300.3 309.1 312.4 311.3 317 323.2 334.2 332.6 333.8 345.7 358.5 360 359.1 360.1 353 354.7 360.4 361.9 361 360.1 361.5 364.4 363.9 368 372.8 376.1 380.6 385.8 389.8 392.4 394.3 395.8 397.1 398.6 397.2 395.8 393.7 392.5 391.3 385.3 379.1 382.7 393.7 400.6
66.3 49.6 34 32.7 32.7 32.7 32.7 32.7 32.7 32.7 32.7 32.7 32.7 32.7 32.7 32.7 32.7 32.7 32.7 32.7 32.7 32.7 32.7 32.7 32.7 32.7 32.7 32.7 32.7 32.7 32.7 32.7 32.7 32.7 32.7 32.7 32.7 32.7 32.7 32.7 32.7 32.7 32.7 32.7 32.7 32.7 32.7 34.7 39.3 41.8 48 60.5 63.9 77.3 83.7 92.8 102.2 94.5 107.1 122.7 139.4 152.9 163.6 174.1 186.8 202.7 212.7 221.2 224.5 225.9 234.4 251.2 265.2 279.5 291.8 301.6 311.1 319.5 324.9 331.2 328 310.2 294.9 298.7 304 307 305.5 295.3 283.8 270.1 253.1 235.6 237.9 247.9 248.4 245 240 247.2 241.9 245.2 255.4 261 262 257.6 243.9 228.8 222.8 221 217.6 215.8 215.4 217.7 219.8 217.6 208.2 213.7 216.6 221.6 223.3 223.6 221.4 220.8 226 227.8 229.4 233.6 236.6 236.6 236.1 236.3 235.4 236.1 235.5 233.3 231.7 229.4 228 227.7 227.7 228.1 228.2 226.2 226.4 211.7 215 223.8 231.7 238.7 246.6 250.1 253.4 261 268.8 278.3 282.6 287.1 295.1 303 304.8 301.7 308.7 313.8 321 334.4 341.7 350.8 355.7 354.2 353.5 352.7 349.1 355.5 358.7 358.6 357.1 356.1 356.7 358 358.5 362.6 366.8 372.2 377.7 381.6 385.5 387.6 389 390.9 391.9 390.1 388.5 386.6 383 380.3 377.5 375.8 376.5 386.9 394.4 383.9
47.5 32.7 32.7 32.7 32.7 32.7 32.7 32.7 32.7 32.7 32.7 32.7 32.7 32.7 32.7 32.7 32.7 32.7 32.7 32.7 32.7 32.7 32.7 32.7 32.7 32.7 32.7 32.7 32.7 32.7 32.7 32.7 32.7 32.7 32.7 32.7 32.7 32.7 32.7 32.7 32.7 32.7 32.7 32.7 32.7 32.7 32.7 45.8 48.7 53.7 60.6 71.2 77.3 91.5 98.3 109.7 119.2 118.4 122.9 133.3 149.7 163.3 176.3 189.5 204.5 220.9 227.8 233.5 238.9 249.7 256 259 273.8 288 301.5 311.8 324.6 330.5 333 334.5 318.9 300.7 299.8 300.1 306.4 304.6 296.2 285.3 273.6 261.5 237.4 235.5 245.9 247.6 243.4 239.6 249 255.6 245.2 248.4 254.6 257 258 240.2 227.2 225.5 225.4 222.9 219.6 221.4 221.2 223 223.4 220.4 209.9 218 220.7 224.8 226.7 228.9 227.2 228.3 233.1 236.2 238.4 243.1 247.3 249.6 247.7 246.7 243.3 244.6 243.6 241.6 239.6 237 234.2 231.7 232 232.2 232.4 231.2 229.8 225 212.3 221.4 230.8 238 243.8 248.3 252 258.8 265.8 278.2 281.3 285.9 292.2 300.8 293.6 302.4 311.6 322.3 332.8 335.8 340 345.3 350.9 352.8 349.8 345.3 348.8 353.4 356.8 355.1 353.6 352.2 352.3 352.4 355.3 361.1 365.4 369.8 374.6 377.3 382 383.8 384.7 384.4 381.6 380.2 378.4 374.8 371.7 369.8 367.7 378.5 387.9 386.6 378.5 374
34.7 32.7 32.7 32.7 32.7 32.7 32.7 32.7 32.7 32.7 32.7 32.7 32.7 32.7 32.7 32.7 32.7 32.7 32.7 32.7 32.7 32.7 32.7 32.7 32.7 32.7 32.7 32.7 32.7 32.7 32.7 32.7 32.7 32.7 32.7 32.7 32.7 32.7 32.7 32.7 32.7 32.7 32.7 32.7 32.7 32.7 44.2 60 58.1 62.5 74.3 79.2 94 107.3 116.1 122.4 125.9 127.6 133.1 148.7 160.9 175.4 189.2 203.2 218 230 237.2 241.1 252.8 263 266.6 270 278 295.3 307.7 323.3 335.1 342.2 343.6 325.6 303.5 302.1 302.9 305.3 302.9 294.2 283.2 274.4 261.2 246.1 236 235.2 246.5 246.5 244.7 252.8 257.9 250.4 245.9 247.1 250.9 246.5 237.7 230.5 229.2 228.4 226.5 222.8 224.6 228.2 226.2 226.6 224.4 222.9 215.9 222.3 223 228.1 233.8 233.1 231.9 238.6 239.8 245.6 251.4 256.3 260.1 260.7 258.7 256.1 252 252.7 253.8 250.7 247.8 245.2 241.2 239.6 237.4 236.4 235.2 234.3 232.8 232.4 223.2 219.2 228.9 235.6 241.3 246.1 250.5 257.3 261.8 272.4 276.4 282.3 283.6 289 296.8 305.6 315.1 325 333.3 335.9 340.5 345.4 348.2 345.6 342.9 344.5 346.9 349.1 351.2 349.9 348.1 347.1 347.6 349.7 354 360 363.9 369.8 372.4 372.8 375.9 376.4 372.9 373.2 372.3 371.5 369.1 366.4 363.4 369.7 384 393.7 396.9 379.4 381.5 377.1
32.7 32.7 32.7 32.7 32.7 32.7 32.7 32.7 32.7 32.7 32.7 32.7 32.7 32.7 32.7 32.7 32.7 32.7 32.7 32.7 32.7 32.7 32.7 32.7 32.7 32.7 32.7 32.7 32.7 32.7 32.7 32.7 32.7 32.7 32.7 32.7 32.7 32.7 32.7 32.7 32.7 32.7 32.7 32.7 32.7 42.3 55.9 62.4 69.9 77.5 89.7 93.3 110.5 123.4 126.7 140.3 145 144.8 146.7 164.6 172.9 186.3 197.6 210.9 225.4 235.5 239.5 248 262 268.2 272.9 275.9 284.5 299.2 312.6 332.7 343.5 348.3 340.9 309.6 301 303.2 300.9 302 292.7 280.7 276 268.8 251.9 237.1 235.9 242 246.5 248.1 251.4 256.5 251 246.3 244.3 244.2 240.9 237.1 230.5 232.4 232.4 230.1 227.5 227.5 229.9 232.6 230.2 225.7 220.9 218.7 218.2 228.2 231.5 234.9 237.8 239.2 242.1 243.1 248.6 256.2 262.7 266 270.3 271.5 268.6 265.3 261.5 262 263.6 260.2 254.8 251.9 248.4 246.4 243.9 240.6 239.5 238.4 236.3 234.1 231.9 219.2 225.4 233.1 238.8 243.7 248.2 253.3 256.7 266 268.3 273.5 279.7 289.4 298.6 306.4 315.3 322.8 328.2 333.8 337.7 342.5 340.4 339.1 341.8 342.4 341.2 342.9 344.8 344.2 343.6 344.1 343.1 343.4 351.3 357.1 362.5 367.8 368.8 367.3 368.8 367.7 365.1 363.7 362.6 362.4 361 359.6 372.1 380.8 385.7 382.2 373 379.2 390.3 376.1
32.7 32.7 32.7 32.7 32.7 32.7 32.7 32.7 32.7 32.7 32.7 32.7 32.7 32.7 32.7 32.7 32.7 32.7 32.7 32.7 32.7 32.7 32.7 32.7 32.7 32.7 32.7 32.7 32.7 32.7 32.7 32.7 32.7 32.7 32.7 32.7 32.7 32.7 32.7 37.6 33.7 33.2 33.2 44.5 46.5 52.8 54.8 68.8 80 92.9 102.1 113 128.2 131.3 145.6 157 161.6 161.2 156.7 175.9 186.8 198 205.6 217.6 230 235.5 243.3 253.5 266.4 270.6 275.7 279.8 288.7 298.9 317.2 336 343.1 345.7 322.2 298.6 299.1 304.5 298.6 283.9 273.5 273.5 274 260.5 240.9 236.2 238.4 243.6 247.5 250.9 254.2 250.8 248 244.1 242.2 238.9 235.9 234.1 235.4 236.4 235.6 233.1 233.3 234 232.8 232.5 230.6 226.8 227.7 233.9 230.8 233 236.4 237.6 246.9 249.8 249.1 252.3 257.7 265.3 272.3 277.5 279.9 280.1 277.2 273.4 270.3 270.6 271.6 269.3 265 260 254.8 252.4 250 246 243.9 241.9 239.8 237.6 235.4 228.8 220.9 229.6 236.4 240.8 244.2 247.4 250.3 253.4 260 270.2 279.4 289.5 297.3 304.7 312.2 321.2 328.4 328.5 332.1 331.5 334.2 339.1 337.1 337.1 336.3 337.6 339.1 339 339.6 341.4 341.4 345.1 349.7 354.1 359.6 363.7 360.1 359.9 360.7 360.7 357.9 357.7 357.1 355.9 355.2 361.5 369.4 373.8 373 376.8 382.7 389.3 391.5 371.7
32.7 32.7 32.7 32.7 32.7 32.7 32.7 32.7 32.7 32.7 32.7 32.7 32.7 32.7 32.7 32.7 32.7 32.7 32.7 32.7 32.7 32.7 32.7 32.7 32.7 32.7 32.7 32.7 32.7 32.7 32.7 32.7 32.7 32.7 32.7 32.7 32.7 32.7 34.8 44.8 41.2 42.2 55.3 66.7 65.9 72.7 72.9 81.8 92.5 106.9 115.3 134.4 137.3 151.7 164.9 173 178 178.2 175.9 188.9 196.9 205.4 216.5 231.7 233.1 239 245.5 256 265.9 269.1 276.1 281.3 286 299.6 321.8 331.8 340.1 328.5 300.2 293.8 300.9 296.1 281.5 272.8 270.1 269.1 268.2 244.3 238 238.2 243.4 251.2 249.5 250.8 248.9 247.5 246.9 243 239.9 237 234.2 235.8 237.8 239.1 238.3 238.5 237.5 235.8 234.1 233.2 231.7 229.2 231.7 233.2 233.3 236.6 243.4 247.7 252.1 256.3 257.3 263.1 269.2 278.3 284.7 289.4 290.7 287.7 284.9 281.1 280 279.4 279.7 277.5 272.5 266.9 261.8 258.4 255.8 252.2 247.9 245.5 243.3 240.2 239.3 235.8 229.9 223.9 232.9 233.6 238.4 243.5 247.9 255.1 261.2 268.6 277.8 287.7 295.3 302.8 309.6 317.4 320.5 322.1 324.5 329.6 332.4 334.7 333.4 332.6 335.5 336.4 336.6 336.6 336 335.8 336.3 343.6 347.3 351.1 351.6 350.6 352.5 353.4 354.7 355.6 352.5 352.7 353.8 353.7 356.2 360.2 376.1 379 381.2 384.1 386.2 385.8 380.2 364.2
32.7 32.7 32.7 32.7 32.7 32.7 32.7 32.7 32.7 32.7 32.7 32.7 32.7 32.7 32.7 32.7 32.7 32.7 32.7 32.7 32.7 32.7 32.7 32.7 32.7 32.7 32.7 32.7 32.7 32.7 32.7 32.7 32.7 32.7 32.7 32.7 32.7 35.1 46.3 46.9 49 59.2 74.7 83.6 86.9 90.6 96.7 98.4 115.2 133.6 134.5 140.9 151.6 168.1 180.6 187.6 192.5 192.3 192.7 202.3 203.4 212.3 220.4 231.2 245 242.9 248.4 258 266.8 269.9 278.9 276.4 284.9 306.9 321.2 330.1 328.6 307.5 292.4 293.7 290.5 285.5 273.7 274.1 276.6 269.7 249.6 241.2 238.9 245.7 258.5 254.6 251.1 248.7 247.1 246.8 245.5 242.7 239.8 236.7 234.6 237.1 239.7 240.6 239.8 238.1 236.3 234.7 235.3 236.9 235.3 234.5 234.9 238.9 239.8 242.1 249.7 253.3 258.2 262.1 268.4 274.7 281.2 288.8 295 300.4 301.9 298 293.7 289 292 293.3 290.2 285.7 280.2 274.7 269.1 264.6 261.9 258 253.6 249.3 245.9 242.7 242.5 233.9 235.6 230.3 228.1 232.5 239.2 245.1 250.4 256.3 261.7 269.1 276.6 282.6 290 298.2 305.1 310.8 315.5 319.2 324.3 327.1 328.7 329.6 329.8 332.1 339.5 344.4 335.3 333.8 333.2 331.5 337.2 339.7 342.5 340.5 341.6 344.9 348.6 349.1 349.1 349.5 346 346.6 354.8 356.5 357.2 366.4 372 378.4 379.2 378.2 373.7 369.3 360.7 353.2
32.7 32.7 32.7 32.7 32.7 32.7 32.7 32.7 32.7 32.7 32.7 32.7 32.7 32.7 32.7 32.7 32.7 32.7 32.7 32.7 32.7 32.7 32.7 32.7 32.7 32.7 32.7 32.7 32.7 32.7 32.7 32.7 32.7 32.7 32.7 32.7 39.3 48 55.9 58.3 66.1 80.6 97.8 105.9 105.2 111.1 123.5 123.9 138.2 146.3 148.9 153.7 163.8 179.7 191.7 193.9 196 198.2 198.4 208.7 211.7 216.7 229.2 242.2 258.3 260.5 254.5 260.3 268.1 272.2 277.2 281 290.9 311.3 325.2 327.2 311 294.9 290.2 289.6 288.5 279.3 276.1 277.5 271.6 258.8 244.2 241.6 247.4 255 256.5 253.3 249.6 247.2 245.9 245.3 242.3 239.3 237.4 236.5 237.3 239.3 241.5 242.4 242.3 242.3 237.4 240.4 240.8 241.6 241.3 237.4 241.3 245 247.1 250.8 253.2 257.6 264.9 271.8 278.5 287.1 292.9 297.7 303.8 308.4 310.5 305.1 299.9 299.9 304.9 303.6 301 294.1 287.4 281.7 276.6 272.2 269.5 264 257.9 254.3 251.9 247.7 242 241.9 240.3 236.6 228 234.1 239.1 244.5 248.6 253 259.3 268.7 274 278.4 288.1 294.8 301.3 306.9 311.9 317.7 322 323.4 325.6 329.2 330.6 334.7 336.9 335.4 332.8 331.1 329.6 328.7 332.2 333 333.5 334.1 336.1 340.7 344.6 344 342 342.4 343.8 354.1 362.1 359.8 360.9 366.1 368.7 368.7 368.4 364.7 361.5 356.4 351.5 350.4
32.7 32.7 32.7 32.7 32.7 32.7 32.7 32.7 32.7 32.7 32.7 32.7 32.7 32.7 32.7 32.7 32.7 32.7 32.7 32.7 32.7 32.7 32.7 32.7 32.7 32.7 32.7 32.7 32.7 32.7 32.7 32.7 32.7 32.7 32.7 42.2 52 63.5 70.6 76.1 83.3 97.8 114 120.2 123.4 128.6 139.3 144.5 144.9 154.9 161.6 168.7 175.8 190.5 196.8 199.4 202 204.4 209.4 213.4 221.5 230.7 237.4 255.9 264.7 259.1 259.8 268.4 270.6 282 281.2 287.6 298.2 315.9 329.6 316.1 295.6 289.3 286.3 285 281 280.3 284.5 279.2 261.3 250.4 244.1 250.1 256.3 256.9 255 252.9 249.4 248 246.1 245 243.7 239.8 238.2 239.7 241.2 242.8 244.3 245.6 246.6 245.9 246.3 251.6 252.9 249.5 242.9 245.7 249.8 250.9 253.1 255.1 260.2 265.8 274.1 283.1 290.4 298.6 304.4 308.8 310.4 311.3 313 309.9 308.2 310.2 308.6 305.4 303.9 299.4 294 289.3 284.5 279.8 276 270.4 264.6 259.7 256.4 252.2 249.2 245.5 244.6 239.9 235.6 231.6 237.1 242.5 247.2 249.8 256.7 262.5 270.2 278.5 286.9 293.5 300.4 306.4 310.3 315.5 319.6 321.2 326.3 330.9 329.8 333.9 333.4 331.7 331.7 329.7 327.8 326 328.1 329 329.7 329 331.3 335.2 336.9 336.9 348.2 353 355.8 354.4 356.4 357.3 360.9 366.6 364.9 364.2 362.4 360 357.8 357.2 355.5 352.9
32.7 32.7 32.7 32.7 32.7 32.7 32.7 32.7 32.7 32.7 32.7 32.7 32.7 32.7 32.7 32.7 32.7 32.7 32.7 32.7 32.7 32.7 32.7 32.7 32.7 32.7 32.7 32.7 32.7 32.7 32.7 32.7 32.7 32.7 46.7 55.2 64.8 80.2 88.1 93.7 99.6 111.6 129.7 139.1 142.2 147.1 158.6 162.2 161.7 167.8 173.4 178.8 185.6 194.7 201.9 204.5 207.3 213 218.5 219.8 233.1 241 249.1 260.8 267.5 269.9 272.7 276.6 281.3 288.9 293.1 300 309.2 321.4 318.5 298 283.6 283.4 286.1 278.9 284.6 293.5 290.5 273.3 253.1 247.7 252 256.9 257.2 257 254.5 252.4 251 249.2 247.4 245.4 243.2 240.2 240.4 242 243.2 245.8 247.2 251.1 252.4 256.9 258.2 255.3 255.5 251.3 243.8 250.7 253.7 254.3 255.4 262.1 272.3 277.3 286 295.8 307.2 309.1 313.9 316.3 318 316.5 314.9 313.1 313.2 315.3 313.8 310.6 309.9 306.1 299.7 294.9 290.7 287.7 282.3 276.5 270.6 264.7 260.1 253 253 250.6 247.8 243.8 240 235 234.7 240.8 247.2 253.3 260 267.5 274.6 280.9 287.6 294.6 300.7 306.4 308.1 313.1 316 320.4 326.5 329 327.4 329.1 329.4 328.8 333 330.5 328.1 322.7 324.2 325.1 326.2 324.9 325.8 328.5 331.5 347 361.9 364.6 355.8 355.7 357.5 358.4 360.6 362.2 363.2 362.9 360.9 360.3 365.8 367.1 353.7 343.3
32.7 32.7 32.7 32.7 32.7 32.7 32.7 32.7 32.7 32.7 32.7 32.7 32.7 32.7 32.7 32.7 32.7 32.7 32.7 32.7 32.7 32.7 32.7 32.7 32.7 32.7 32.7 32.7 32.7 32.7 32.7 32.7 38.1 45.8 59.7 69 79.7 95 103.3 109.8 116.5 128 152.8 170.8 170 169.5 173.3 177.8 175.1 179.2 185.3 189.8 195.1 200.9 206.9 213.2 219.4 223.7 225.2 232.5 243.4 249.2 260.6 269.1 285 287.1 288.1 284.6 289.6 298.1 308.5 315.5 320.6 319.9 305.3 287.1 279.4 278.7 277.1 285.8 297.2 295.4 284.5 260.4 250 253.8 255.2 256.4 257.3 257.1 254.5 251.6 252.4 250.8 248.8 246.5 243.6 241 240.3 243.2 247.5 255.6 258.3 261.3 263.4 263.1 267.3 262.6 255.8 249 253.1 257.1 257 257.2 266.7 275.4 279.2 285.4 296.2 307.6 315.7 320.2 322.7 324.5 324.8 322.3 320.9 319.3 319 320.3 319.9 318.7 317.1 314.4 315.3 301 295.3 291.9 287.6 281.5 275.9 268.4 261.6 261.4 256.7 254.9 251.5 247.6 244.3 240.3 235.5 240 247.8 254.3 260.9 267.7 275.1 281.6 288.4 294.9 299.9 303.4 307.5 310.8 314.4 319.4 321.7 323.3 322.7 324 325.9 326.3 334.5 327.4 322.3 319.9 320.6 322.1 322.4 321.3 322.3 329.1 345.4 358.4 365.2 364.1 361.4 359.5 355.4 357.7 359.4 362 362.1 360 359.4 357 359.4 353.5 347.1 339.5
32.7 32.7 32.7 32.7 32.7 32.7 32.7 32.7 32.7 32.7 32.7 32.7 32.7 32.7 32.7 32.7 32.7 32.7 32.7 32.7 32.7 32.7 32.7 32.7 32.7 32.7 32.7 32.7 32.7 32.7 34 41.3 49.7 61.8 74 85.1 98.9 113.2 120.7 127.9 138.8 144.8 161.9 184.9 197.7 195.7 190.5 192.5 186.2 186.8 196.9 198.7 207.1 214.8 222.2 229.9 235.8 240.5 245.3 247.7 250.5 261.9 274.2 290.7 303.7 308.1 301 294.4 300.2 309.3 322.9 327.9 321.2 303.3 286.9 278.8 278.7 279.1 284.6 297.7 295.4 286.1 264.2 251.9 253.9 257.8 258.6 259.1 259.3 259.5 258.1 254.9 253.8 252 249.5 246.4 247.8 243.2 246.8 251.6 259.1 269.4 272.7 273.8 272.7 272.6 271.2 264.1 254.9 254.8 258 259.3 263 271.7 278.5 285.5 289.4 299.1 312.3 318.4 322.2 328 331.4 333.7 334 331.1 328.8 327.5 326.7 328 328.3 328.1 326.5 326.5 323.3 310.2 301.5 296.6 290.9 285.6 277.6 272.5 269.5 265 260.3 257.4 255.5 252.7 249.4 245.9 240.6 238 246.9 254.8 260.6 266.4 273.2 281.3 287.6 292.2 294.5 296.8 302.7 307.5 315.7 314.6 315.2 318.6 319.2 319.1 320.7 322 321.3 320.6 319 317.4 317.2 319 317.2 321.3 330.2 341.2 350.6 358.1 358.2 357.7 359.7 355.7 353.4 357.9 357.6 356.5 354.5 352.4 350.8 349.5 350 348 341.7 336.4
32.7 32.7 32.7 32.7 32.7 32.7 32.7 32.7 32.7 32.7 32.7 32.7 32.7 32.7 32.7 32.7 32.7 32.7 32.7 32.7 32.7 32.7 32.7 32.7 32.7 32.7 32.7 32.7 33.3 40.9 44.5 50.2 62.3 75 87.7 100 120.4 137.8 153.2 147.8 167.3 180.7 183.1 200.6 217.4 217.2 207.7 205.2 195.6 190.8 200.6 207.3 213 227.9 237.2 247.6 254.9 260.6 260.2 262 267.2 274 293.9 312.7 324.3 319.7 311.5 303.7 307.5 317.1 327.8 329.4 312.5 284.4 280.2 278 279.5 286.8 295.7 289.1 275.9 264.3 255.5 252.1 255.5 258.2 259.5 261.1 263.3 263.8 263.3 260.1 258.3 253.6 251.5 252.4 250.4 250.3 251.5 261 273.4 279.9 283.6 280.5 279.6 277.2 271.8 262.5 254 256.7 259.8 266.5 279 282.9 288.2 295.2 306.6 320.7 323.7 324.6 329.8 336.6 340.3 341.9 342.5 341.1 336.5 334.6 334.6 335.7 336.8 335.2 333.8 333.6 325.1 313.3 302.5 298.1 294.3 286.2 283.3 278.1 273.1 269.3 264.4 262.2 260.2 257.9 254.4 250.8 246.7 238.5 247.1 254.3 259.3 264.3 270.1 277.7 284.9 287.9 291.1 295.6 300.1 304.5 306.7 309.4 312 312.6 314.3 317.3 317.3 316.7 318.4 318 317.3 315.7 314.7 313.7 314.2 323.4 334.6 343.8 348.5 351.3 351.3 351 351.7 352.4 351.7 354.1 355 357.1 356.9 355.2 349.5 343.7 344.9 341 334.8 336.2
32.7 32.7 32.7 32.7 32.7 32.7 32.7 32.7 32.7 32.7 32.7 32.7 32.7 32.7 32.7 32.7 32.7 32.7 32.7 32.7 32.7 32.7 32.7 32.7 32.7 32.7 32.7 35.1 47.1 52.3 53.9 59.9 73.2 87.2 99.5 112.7 144.7 166.3 177.8 173.4 184.9 211 207.2 222.9 235.7 236.4 225.8 215.4 204.3 202.3 206.9 211.9 216.4 232.5 248.3 255.2 263 271.4 271.6 276.8 282.3 298 315 331.3 330.1 324.1 316.7 311.3 315.9 321.3 326.9 324.1 299.8 286.1 280.1 279.7 286.7 292.4 285.8 275.7 269 259.1 259 260.7 262.8 260.8 260.5 263.5 266 267.6 267.4 265.1 261 258.7 257.4 258.1 253 254.5 258.1 272.9 284.3 288.6 290.6 288.7 285 280.3 273.2 257.9 262.9 263.5 270.4 279.7 288.3 291.5 304.9 310.7 326.2 326.8 329 332.5 337 344.1 349.8 348.8 348.3 347.1 343.6 342.8 341.6 339.6 340.7 344.6 341.1 328.9 321.7 307.5 307 301.6 298.6 293.8 291.4 285.4 280.5 275.7 270.7 265.8 264.3 262.4 259.4 255.9 252.3 244.5 245.6 254.5 259.5 263.5 268.1 274.3 279.8 285.6 289.2 293.2 297.9 301.4 302.3 304.9 309.1 308 307.3 310.3 314.7 312.2 314.2 315.1 315.1 314.1 313.9 312.5 313.2 321.9 334.3 341.5 342.4 343.2 341.2 341.8 346 347.8 348.8 353.5 355.2 354.2 354.5 353.5 348.1 344.8 340.3 333.9 335.7 340.8
32.7 32.7 32.7 32.7 32.7 32.7 32.7 32.7 32.7 32.7 32.7 32.7 32.7 32.7 32.7 32.7 32.7 32.7 32.7 32.7 32.7 32.7 32.7 32.7 36.5 36 39.7 48.7 59.2 65.6 73.3 71.4 84.1 97.4 113.1 138.5 169 192.2 186.8 189.1 194.7 215.9 226.5 247 257.9 252.3 237.2 221.9 212.2 216.8 216.4 216.1 224.7 241.8 257.7 266.3 272.2 275.4 280.9 288 300.6 316.7 330.2 334.4 332.9 326.8 318.1 316.5 320.6 323.6 321.8 308 297.3 288.8 282.5 285.1 289.4 284.9 277.8 271.3 265.7 262.8 267.8 267.6 266.5 268 262.6 266 268.4 270.8 269.8 266 263 263.2 261.9 260.2 253.3 263 270.9 289 295.8 298.7 296.3 294.8 289.5 282.5 273.7 264.4 264.9 267.1 276.8 289.8 296.7 304.9 315.8 326.5 331.7 332.2 333.5 336.9 345.9 352.1 351.3 353.3 352.7 352.2 356.2 364.6 348.6 338.5 339 335.9 329.8 319.8 314.7 315.7 310.8 303.2 303.3 301.1 297.9 292.7 287.4 281.9 276.8 271.6 267.8 264.7 263.7 260.7 257.2 253.6 244.2 254 258.9 261.9 265.7 270.5 275.3 281.1 286 289.3 293.6 298.4 299.4 301.7 304.1 306.3 304.6 305.5 311.3 310.7 310.3 310.8 311.4 312.2 311.4 310.5 312.7 320.2 329.3 334.5 335 334.8 343.1 342.3 342.2 343.4 344.5 345.4 347.1 347.5 347.4 344.7 341.6 336.9 333.2 335.2 341.3 341
32.7 32.7 32.7 32.7 32.7 32.7 32.7 32.7 32.7 32.7 32.7 32.7 32.7 32.7 32.7 32.7 32.7 32.7 32.7 32.7 32.7 32.7 32.7 37.5 41.9 45 55.5 64.5 73.9 80 80 84.9 97 117.7 141.7 162.3 196.5 202.3 203.8 206.8 204.2 221.8 243.8 264.4 272.6 257.3 243.2 229.7 226.7 227.3 227.7 231 234.5 251.7 267.3 278.4 286.8 279.2 287.2 299.3 313 327.7 332.8 335.9 330.8 324 318.6 320.8 323.5 323.9 309.4 300.5 298.2 292.9 291.9 293.1 291.5 283.7 277.2 273.9 274.6 275.5 275.4 273.5 269.2 266.3 266.5 271.6 272.7 273.8 273.3 266.7 268.5 268.2 264.9 259.3 262 273.2 280.7 301.7 311.3 309.1 302.9 299.5 291.9 284.2 275.5 269.2 266.9 278.5 289.7 298.2 308.2 319.6 329 348.5 344.3 342.5 339.9 340.8 361.7 357.1 353.5 360.8 354.4 359.5 368.3 363.8 342.6 334.6 330.1 326 320.9 322.7 322.8 319.1 313.3 310.9 309.6 311.5 306.8 301 294.2 287.8 281.6 276.8 272.5 268.7 266.7 264 260.9 257.7 250.9 251.4 256.4 258.5 262.1 266.7 271.5 276.5 281 285.1 289.4 293.6 298.4 298.2 300.1 301.2 302.5 303.1 309 309.9 309 307.7 308.7 309.7 309.2 308.2 309.2 315.2 319.8 323 331.3 337 337.8 337.2 339.1 341.7 342.9 343 343.6 343 341.9 338.8 330.5 329.4 329.4 346.3 348.2 348.6
32.7 32.7 32.7 32.7 32.7 32.7 32.7 32.7 32.7 32.7 32.7 32.7 32.7 32.7 32.7 32.7 32.7 32.7 32.7 32.7 32.7 32.7 40.2 45 46 55.6 70.4 79.6 87.1 92.5 91.4 99.1 116.6 145.3 167 195.6 208.2 206.7 207.8 211.9 220.7 232.3 252.6 268.7 266.2 254.4 237.6 236.3 241.4 253.8 256.5 246.5 248.7 264.7 278.4 293.6 292.6 286.6 295.4 307.7 321.7 329.3 333.4 333.3 327.6 323.3 324.5 326 324.9 314.7 300.3 301.4 299 298.7 301.8 296.6 294.8 285.2 282.1 283.5 286.7 284 282 276.8 270.2 269.9 272.6 277.2 276.7 279.5 274.9 273.7 275.5 272.1 267.9 267.6 276.2 283.5 301.2 311.1 316.7 312.4 306.5 302.5 294.7 286.9 279 273.3 278.2 288.8 305.1 308.6 319.3 329.3 344.2 352.1 352.6 354.7 351.2 348.2 361 352.6 356.7 355.3 352.6 356.6 354.1 340.1 336.5 330.7 329 327.6 328.9 331.3 328.4 322.5 321.5 319.1 321.3 322.6 316.8 309.4 300.8 293.2 285.4 280.4 275.5 271.4 269.5 267 263 259.3 255.5 248.8 252.8 256.2 259.9 263.9 268.1 272.1 277 280.6 284.7 288.8 295 295.7 296.6 298.6 300.2 299.4 307.2 307.4 305.5 304.5 305.9 307.2 307.3 305.5 304.7 307.9 314.9 325.1 327.3 329.6 330.5 336.9 339.4 340.6 340.5 339.9 339.6 336.6 330.3 329.4 329.4 329.4 340.3 359.9 360.2 356.4
32.7 32.7 32.7 32.7 32.7 32.7 32.7 32.7 32.7 32.7 32.7 32.7 32.7 32.7 32.7 32.7 32.7 32.7 32.7 32.7 38.1 43.6 48.4 51.4 56.2 69 83.7 91.8 96.5 99.3 104.7 115.8 137.1 167.5 192.2 210.3 216 220 224.1 232 232.6 241.5 258.8 265.2 261.7 252.6 244.8 241 255.3 271.7 270.6 254.6 258.6 277.7 285.9 294.1 287.6 294.9 302.3 312.4 323.1 328.2 331 330.2 325.6 328.1 329.9 326.5 320 307.4 300.9 300.1 307 316.9 318.6 311.3 294.8 290.3 293 301.6 295.3 289.8 287.1 274.1 275.2 281.4 286.1 278.1 289.2 285 279.6 284.4 281.3 274 272.8 278.5 286.9 300.5 310.7 314.9 317.9 315.8 311.3 306 298.2 289.7 280.9 277.8 287.7 303.9 315.2 319 326.5 336.3 357.1 361.5 367.9 361.7 348.4 345.1 347.9 349 347.3 346.5 347.2 345.2 342.2 339.9 337.8 335.9 333.6 333.7 336.7 333.3 329.5 329.9 328 329.6 335 331.2 321 314.4 306 297.8 288.9 283.3 278 274 271.8 268 264.3 260.5 256.3 248.8 251.6 255.4 258.9 263.4 267.4 271.3 274.4 277.6 280.6 283.9 288.2 293.3 294 295.7 294.5 296.4 299.2 304.9 301.2 302.2 303.9 305.6 305.1 302.5 305.4 306.3 311.1 317 320.4 326.6 332.5 337.5 340.3 339.1 335.4 334.3 333.4 329.4 329.4 329.4 329.4 335.6 351.9 365.4 370 361.9
32.7 32.7 32.7 32.7 32.7 32.7 32.7 32.7 32.7 32.7 32.7 32.7 32.7 32.7 32.7 32.7 32.7 32.7 37.6 37.8 44.7 49.7 51.5 60.3 69.8 86 91.8 97.6 106.4 111.8 114.6 133 155.7 183.7 209.4 216.3 222.6 229.6 234.3 240.3 242.9 247.5 262.8 271.8 270.2 260.9 252.3 248.3 264.2 281.9 271.1 257.4 272.8 287.9 288.5 288.4 290.5 298.1 305.5 314.7 319.6 322.9 324.9 325.1 327.4 330.7 330.4 321.9 309.2 305.6 301.8 304.6 314.5 318.8 314.5 306.3 299.3 300.9 305.3 306 302.4 292.3 282.4 278.5 280.7 295.4 288.6 288.9 290.5 282.6 284.8 287.9 283.9 273 280.2 285 298.2 309.3 314.3 319.1 322.9 319.5 315.3 310.7 303.1 293.9 283.2 287.3 300.3 317.9 321.6 324.3 332.7 348 365.7 371.3 363 357.6 340.8 339.4 345.7 340.8 341.1 342.2 342.4 344.6 344.5 342.8 345.4 340.5 338.4 338.6 340.9 336.6 335.1 335.6 337.5 339.4 338.1 332 325.5 319.6 307.6 299.9 293.4 286.7 280.8 276.3 272.2 266.7 262.7 258.8 256 248.8 250.8 254.4 258.3 263.1 267.1 269.8 273.3 274.3 277.2 280.5 284.3 289.4 291.4 290.9 289.9 293.3 296.8 301.8 296.4 299.1 301.3 301.9 302.2 302.3 310.1 312.2 315.3 311.8 314.2 318.6 329.5 337.4 338.5 335.6 329.7 329.4 329.4 334.6 329.5 329.4 337.7 349.9 361.8 365.1 366.5 359.8
32.7 32.7 32.7 32.7 32.7 32.7 32.7 32.7 32.7 32.7 32.7 32.7 32.7 32.7 32.7 32.7 39.3 44.1 42.4 44.3 48 53.6 61 71.5 90 100.4 104 111.3 119 124.2 127.9 144.3 169 192.7 207.7 218.4 227.7 236.3 243.1 243.9 248.9 261.9 281.5 284.9 277.2 265.6 260.6 252.8 270.7 281.5 273.1 272.3 291.7 292.1 290.7 291 294.7 301 307.7 313.7 316.5 316.2 320 325.9 326.9 328.7 322.1 314.7 311.7 305.3 304.9 309.4 316.5 313.2 306.1 305.3 309 311.2 310.7 308.6 303.4 290.7 279.9 287.6 292.9 290.3 288.7 291.9 287.4 287.1 289.9 289.6 282.5 277.7 282.6 295.3 306.9 315.1 318 326.7 327.9 324.4 320.6 316 306.6 297.3 290.8 298.8 314 320.6 323 327.3 336.4 349.6 367.5 357.2 357.7 339 330.5 332.2 335.1 337.3 337.7 341.8 346.6 348.6 347.8 346.4 344.8 342 342.2 342.5 342.1 340.8 340.7 341 345.4 341.5 338 333.7 328.1 318.7 308 302.9 297.7 291.4 283.7 277.2 271.1 264.9 259.9 256.2 253.7 250.1 250.1 253.2 257.8 262.3 264.7 267.3 270.1 271.6 274.4 277.8 283 287.5 293.1 287.8 288.1 289.2 289.8 292.7 295.5 299 298.8 298.6 298.2 303.1 308.4 314.9 318.6 318.6 323.2 330.4 326.4 329.8 331.2 328.7 334.5 336.2 336.6 341.8 343.5 339.4 352.3 355.9 359.3 357.3 353.4 353.4
32.7 32.7 32.7 32.7 32.7 32.7 32.7 32.7 32.7 32.7 32.7 32.7 32.7 32.7 37.8 45 51.3 57 50.9 53.4 54.6 58 68.9 84.5 101.2 109.1 116.1 126.6 135.4 138.8 146.6 163.4 182.5 196.8 206.6 219.3 231.4 241.1 245.7 249.2 262.8 280.5 294 286.4 278 271.4 261.4 260.3 278 283.3 272.5 286.8 298.4 294.5 292.9 295.5 300.4 302.5 308.7 311.6 314.8 318.6 321.7 327 328.2 325.8 321.6 318.5 314 308.6 307.2 310.5 312.9 305.6 309.5 318.5 321.9 318.6 314.3 309.5 299.9 289.3 284.3 294.9 290.7 293.3 294.7 292.3 290.3 293.1 294.8 286.5 280.1 287.1 298.3 301.6 315.9 326.5 324 335.3 332 329.6 325.5 317.8 306.5 297.6 306.3 309.4 316.4 320.1 324.5 331.3 339.7 347.7 350.5 349.8 338.8 330.5 330.5 330.5 330.5 332.2 342.6 349.6 354 352.1 348.7 348.5 349.6 347.7 347.4 347 346.3 344.5 349.4 351.1 349.2 344.3 339.6 334.2 327.8 319.4 313.7 306.8 300.1 293.1 284.3 277.7 270.7 263.7 258.2 253.6 251.5 250.3 249.7 252.6 257 260.2 263.2 265 269.2 273.4 275.6 277.8 284.4 287.3 286.8 284.4 286.2 287.3 290.5 292.1 295.6 296.9 296.6 296.6 298.6 302.7 308.2 317.7 325.5 321.9 332.5 340.5 339.3 334 331.3 341.9 340.6 344.8 338.6 342.3 345.8 349.6 353.1 354.2 353.4 353.4 353.4 357.4
32.7 32.7 32.7 32.7 32.7 32.7 32.7 32.7 32.7 32.7 32.7 32.7 32.7 40.9 46.6 55.4 63.3 60 58.8 60 65.9 71.3 81.6 101.7 106.5 115.8 126.7 140.4 147.7 153.5 175.4 190.2 184.8 199.1 215.9 226.6 237.5 249.9 260.5 267.1 279.5 291.3 292.6 284.9 275.6 269.4 259.9 268.2 286.4 277.7 281.3 294.7 297.6 293.6 297 301 305.7 303.6 305.3 306.7 308.9 317.8 324.3 329.3 328.8 326.7 323.9 322.4 315.8 310.6 307.7 307.6 305.8 305.1 319 328.9 329 322.7 316.3 308.8 298.7 291.8 297.7 292.6 296.5 303.2 300.7 295.6 294.7 299.2 295 282.7 284.1 293.8 304.3 321.4 328 331.1 328.4 340.2 335.6 337.5 327.1 316.6 303.7 310.5 318.2 316.6 318.6 322.4 326.1 332.4 340.1 345.5 347 343.9 331.6 330.5 330.5 330.5 330.5 339.2 349 358 355.3 351.8 350.1 349.9 350.4 351.2 351.7 351.4 349.8 357.6 364.5 359.2 351.8 347.3 342.5 336.2 330.4 325.1 319.7 310.2 300.6 293.5 285 277 269.8 262.8 257 252.8 251.6 250.1 249.7 251.8 256 259.2 261.8 266.9 271 275.2 277 279.4 283.6 283.2 283.7 281.9 287.5 291.4 294.4 294.6 294.8 294 295.1 295.9 300.9 306.5 312.1 324.9 328.1 329.2 340 349.7 346.2 338 333.4 340.3 338.9 338.8 341.1 347.7 353.5 357.2 359.9 359.5 355.5 353.4 353.4 364.5
32.7 32.7 32.7 32.7 32.7 32.7 32.7 32.7 32.7 32.7 32.7 38.1 45.7 50 56.1 65.3 67.1 65.5 65 68.7 75.9 82.7 92.6 106.1 110.6 120.4 135.2 150 162.2 175.2 191 187 188.2 201 221.3 232.8 243.9 260.9 281 281.1 290.1 298.5 293.1 283 277.4 270.8 267 279.2 279.5 278.8 294.2 305.2 299.2 299.2 305.9 307.2 308.9 304.1 304.8 307.8 315 322.1 328.4 329.4 325.2 324.8 324.6 324.9 318.7 316 304.8 302.7 301.1 310.8 320.7 325.3 327.1 324.3 315.2 306 298.5 296.5 297.8 302.7 307.4 305.9 298.7 298.7 300.2 298.4 287.9 285.1 288.4 303.9 317.2 327.8 337 336.2 334.9 338.6 349.4 345.7 325.8 311.8 309.8 317.9 321.3 319.3 322 324.7 328 332.5 338.3 342.1 344 335.5 330.5 330.5 330.5 330.5 339.3 349.1 356.5 359.5 357.1 355.4 355.3 356.4 354.6 355.1 356.7 356.9 362.5 369 368.2 362.2 355 348.8 349.9 347.8 341.1 329 320.8 312 300.3 293.7 285.6 277.2 269.2 262.3 255.9 252.6 251.7 250 250.1 251 254.1 257.3 262.1 268.6 272.2 275.1 276.8 277.5 279.1 280.3 280.8 285.1 291.7 295.2 294.6 292.9 291.8 292.7 294.5 297.2 304.4 312 316.5 327.6 328.7 332.1 340.8 342.2 340.4 338.8 337.7 337.7 337.7 344.7 353.4 358.4 364.9 367.5 364 358.6 353.4 353.4 357.6 362.3
32.7 32.7 32.7 32.7 32.7 32.7 32.7 32.7 32.7 32.7 37.9 46.5 50.8 57.7 66.4 71.6 68.1 69.2 64.9 75.1 83.4 91.2 98.2 105.6 116.2 127.7 142.4 166.1 181.4 197.2 191.6 190.1 191.9 200.2 221.3 233.1 249.5 261.3 279.1 289.8 296.8 296.6 289.1 284.3 286.9 279.9 271.9 277.2 279.4 289.3 306.5 314.7 300.3 306.6 313.3 313.2 308.2 307.3 310.5 317.2 325.1 327 327.3 326 322.9 322.3 323.5 324.5 323.8 310.8 303.2 298.8 305.7 311.7 317.5 321.9 321.2 319.4 313 303.6 300.6 306.7 309.9 311.6 310.4 301.7 301.8 303.2 302.3 289.4 287.1 289.6 302.5 320.7 330.3 333.1 340 344.2 344.3 348.4 358.5 339.6 318.9 307.4 313.8 320.6 321.6 321.9 324 324.8 329 333 338.5 340 338.9 333.1 330.5 330.5 330.5 338.3 342.3 352.2 360.6 363.8 362.8 363.8 364.3 361.1 359.7 360 361.2 369 377.8 376 370.7 363.8 358.1 357 359 352.5 343.3 331.9 321.6 311 299.1 292.8 284.9 276.4 268.1 262.5 255.7 251.9 252 250.8 250.8 252 254.9 260.3 263.4 268.5 269.9 273 276.2 276.2 277.7 278.6 282.4 288.8 294.3 294.7 295.3 292.6 289.9 292.5 295.7 298.5 307.2 315 322.5 325 330.2 334.2 336.8 339.5 341 341.7 340.7 337.9 344.5 356.9 365.3 370.7 375.1 377.2 361.4 353.4 353.4 353.4 356.6 362.3
32.7 32.7 32.7 32.7 32.7 32.7 32.7 32.7 32.7 37.1 47.6 52.9 58 66.3 74.4 72.2 70.7 73.3 78.5 82.8 92.6 99.1 106.3 113.5 124.6 138.8 156.2 187.9 195.4 196.8 194.6 194 199.6 214 222.5 231.7 258.1 266.8 278.5 295.3 297.2 293.8 288.7 287.4 286.8 274.7 273.2 280.4 286.6 294.7 308.7 307.3 306.5 312.2 315.6 312.6 310.8 311.6 319.5 332.2 338.1 329.9 327.3 326.7 320 321 322.8 324.5 313.4 304.6 298.8 305.1 310.1 311.2 313.9 314.8 312.5 313.6 313 307.5 311.4 316.6 316.5 315.4 303.9 302.4 306.8 304.2 299.1 292 292.6 299.3 327 347 354.2 353.1 352.4 352.6 351.6 354.9 345.2 331 315.1 308.2 314.4 319.7 323.4 327.1 326 325.2 326.9 331.1 335.8 337.7 335.8 330.5 330.5 330.5 341.3 340.6 345.3 357.3 376 375.8 377.1 372 371.1 366.5 364.1 365.8 377.7 396.1 392.9 382 371.7 365.8 363.7 364.4 360.5 351.8 343 332.3 320.5 311.6 299.7 291.3 283 274.8 266.1 261.1 256.2 252.9 251.9 251.7 250.2 250.8 254.9 265.2 266.3 267.7 269.6 272.8 282.3 276.6 278 280.3 286.6 292.6 292.7 291.2 291 292 289.7 292.1 295.4 302.8 314.1 321.1 326.4 328.6 330.6 334.6 341 341.8 343.1 342.7 342.4 345.6 355.6 366.7 375.6 380.5 380.8 374 353.4 353.4 353.4 355.9 359.4 361.5
32.7 35.1 39.2 39.6 35.2 32.7 32.7 32.7 32.7 45.2 53.6 59.8 65.4 74.5 82.1 75.2 75.1 82.1 87.9 92.4 97.4 106.2 111.3 122.9 139.5 152.1 173.3 203.6 199.5 198.7 196.7 203.3 219 227.6 227.2 252.8 264.1 273.2 287.2 292.4 293.6 291 288.2 285.2 276 274.4 283.4 289 292.5 298.2 303.6 306.8 311.5 314.8 315.8 315.3 317.1 323.7 336.7 339.9 335.6 330.9 329.5 326.2 313 317.1 320.1 318.9 312 300.9 299.7 309.4 308.3 309 307.8 306.8 308.9 311.3 314.1 327.6 324.6 332.1 321.7 311.3 305.1 308.4 307 304.4 302.6 299.1 300.1 319.7 346.9 365.5 369.1 372.7 362.6 356.4 358.5 353 341.1 333 318.4 308.5 312.8 321.3 326.9 330.3 329.7 329.1 328.5 330.2 333.9 333.6 330.5 330.5 330.5 339.6 341.5 342.4 356 379.7 393.8 390.3 384.3 377.4 378.8 373 372 386.2 400.6 399.6 392.2 382.9 373 371.1 368.9 366.8 360 351.1 342 332.5 322.8 313.1 301 291 282.9 275.3 265.8 261.9 256.4 252.9 251.4 251 250.5 253.1 255.6 260.1 265.7 270.2 273.3 275.2 283.6 279.7 280.1 292.5 289.9 289 287.7 286.3 291.4 298.7 296.4 292.6 299.1 312.3 320.9 327.4 331.3 332.7 333 334.8 338.3 341.2 346.8 346.7 346.2 351.5 362.4 374.1 382.5 382.5 379.3 365.5 353.4 353.4 353.4 354.5 359.4 360.2
40.9 44.5 44.3 39.9 35.7 35.4 36.7 38.2 43.2 53.6 59.8 64.4 73.5 82.5 80.5 78.7 81.7 88.8 96.6 104.2 102.9 108.3 118.7 134.5 152.3 160.5 186.7 197.4 198.3 198.6 197.8 209.1 228.4 227 243.8 263.5 274.7 280 289.6 287.7 287.7 287.6 285 279.7 274.2 280 297.8 302.2 299.5 303.4 307.7 311.6 315.8 319.1 320.1 323.2 324.7 333 342.6 337.3 332.3 328.9 326.7 314.5 309.2 314.2 316.8 313.8 311.2 293 301.1 306.2 305.7 303.9 305 306 308 310.2 329.4 337.6 348.9 331.7 321.3 309.6 309.8 313.6 309.9 309.4 310.2 312.3 315.8 329.9 355.8 382.5 381.9 387.9 372.7 362.4 358.7 349.9 340.6 333.4 320 308.7 312.8 321.1 328.5 331.6 332.7 333 331.1 331.8 333.6 333 330.5 330.5 331.2 343.2 342.2 354.6 381.2 399.4 401.4 399.6 385.8 383.9 388 380 391.4 403.3 401.8 395.2 386.7 378.6 377 374.7 371 367.4 360 352 343.6 332.3 322 309.6 299.1 291.3 282.9 274.2 266.8 260.7 256.7 252.9 251.4 250.6 252.8 255.1 257.5 259.9 264.9 270.7 274.2 275.9 281.8 281.2 286.3 287.5 289.6 286 289.5 291.6 296 300.3 296.8 299 309.8 321.8 327.9 333.7 336.1 336.1 335.9 337.5 340.8 344.3 346.9 348.1 349.4 355.1 364.3 377.2 384.9 384.5 377.3 360.9 353.4 353.4 353.4 354.1 358.1 359.3
47 45.5 42 38.2 36.8 38.1 38.8 47 49.8 57.3 64.7 70.1 75.7 80.5 82.2 83.2 88.1 99.3 109.3 112.1 107.4 115.7 129.9 147.2 160.6 172.6 190 196.3 199.1 201.3 206.4 213.7 220.7 231.2 256.1 262.2 274.2 286.2 286.4 286.4 286.6 284.8 281.6 279.5 279.4 295.1 312.9 314.3 308.1 307.2 311.2 315.3 320.2 324.9 328.3 331 329.7 333.2 335.5 333.1 329.3 324.6 321 311.2 304.5 311.1 312 311.3 302.2 294.3 301.1 303.8 304.2 306.5 307.4 308.1 311.8 324.5 341.7 346.4 342.8 333.1 319.5 317.4 322.3 320.7 314.4 327.9 316 324.3 321.3 341.8 365.3 389.1 390.6 385.2 376.7 371.9 357.5 349.5 339.3 333.9 324.1 314.2 312.6 322 329.8 332.7 333.9 333.5 334.1 332.9 335.3 330.5 330.5 335.9 345 345.5 350.8 378.3 399 404 408.4 397.7 401.6 396.4 391.5 401.1 400.9 402.1 399.2 388.3 383 383.9 379.4 375.1 371 366.7 360.5 353.7 345.1 334.8 323.4 310.7 297.8 289.1 280.3 272.5 266 260.3 256.5 252.4 251 251.8 254.5 257.2 258.3 261.7 265 270.5 274.9 279.2 279.5 280.5 282.8 288.3 291.7 287.7 291.4 293.5 296.9 303.6 305.4 310.5 321.2 331.6 339.1 340.4 339.7 340.4 339.5 339.4 342.5 346.2 348.4 349.8 352.5 357.8 366.8 379.3 385.2 382.7 372.8 357.6 353.4 355.4 357.9 357.6 359.9 358.4
44.3 42.2 38.9 38.1 37.4 39.5 46.4 55.7 56.8 62.7 70 76.7 77.6 82.5 87.2 88.9 99 108.2 108.3 113.6 118.8 126.5 141.3 160.1 168.4 182.4 199.9 200.2 201 202.1 214.7 210.3 225.2 247.4 254.4 266.8 275.3 279.3 284.2 284.8 284.2 282.7 281.3 280.6 288.9 305.3 321.1 321.2 311.5 309.9 314.8 319.2 326.5 332.3 337.3 338.3 334.1 339.1 334.4 331 327.6 322.6 314.7 302.3 303.8 308.5 308.8 308.5 289.4 294.2 301.5 304.3 315.4 309 308.8 306.6 319.7 334.1 337.3 344.3 341.2 331.5 324.8 330.7 328.8 320.9 326.9 331 319.4 326.7 347 357.3 369.3 386.3 385 382.6 379.8 370.2 353 343.9 337.3 336.4 329.1 321.5 318.2 325.3 330.6 331.9 333.1 331.7 332 332.6 330.8 330.5 337.5 348.1 350.6 353.9 373.2 400.4 410.4 411.5 406.3 406.7 414.2 403.1 403 400.8 400.1 408.1 392.1 388.2 391.7 385.6 379.7 375.3 371.5 365.8 360.1 353.6 346.7 337 320.6 310.3 298.4 288.1 278.5 271.7 265.3 259.5 255.2 252.4 251.2 252.2 254.9 256.2 257.9 261.4 266.1 268.9 272.1 270.7 273.1 276.4 285.7 289.4 281.8 289.6 292.1 294.3 299 312.5 314 318.7 329.4 342.8 346.6 344.1 342.5 344 343.4 341.9 344.1 348.1 350.5 351.8 354.9 359.8 367.4 378.3 384 380 369.5 356.3 353.4 357.6 359.6 359.6 358.4 358.4
42.4 38.8 39.8 38.1 41.2 48.9 55.5 58.4 59.9 65.9 72.4 75.4 81.1 85.5 91.2 98.6 105.9 106.2 118.6 128.7 133.3 143.8 154.6 167.3 173.5 188.3 201.7 199.3 199.3 209 215.2 213.8 233.3 246.1 258.8 273.9 278.4 280.6 283.7 284.3 283.7 282.9 282.9 282.9 295.4 312.9 322.4 318.4 311.5 312.3 318.1 325.7 332.7 337.9 344.7 342 338.5 349.6 333.9 329.5 324.8 317.5 306.5 298.5 302.3 304.6 307.2 295.3 287.9 295.6 302.1 317.4 308.4 304.5 302.1 312.9 326.6 332.1 338.5 343.8 341.2 333.7 334.5 340.5 329.3 328.4 348.1 333.7 329 346.9 363.2 370.4 366.2 376.7 380.7 381.4 374.2 367.4 352.6 338.7 337.1 337.4 333.6 334.6 325.3 324.1 328.3 329.8 330.5 330.6 330.8 331.4 330.5 335.9 347.6 354.5 359 377.8 403.1 411.8 416.3 409.8 408.6 419.4 418.8 406.8 409 404.6 403.8 394 391.4 401 388.5 383.4 380.9 376 370.1 364.5 358.9 353.4 345.7 332.3 317 306.2 295.7 286 277.2 269.9 262.5 257.1 253.8 252.3 251.6 252.6 254.3 255 256.7 259.5 260.2 261.1 266.5 272.3 273.9 280.5 287.4 289.1 278.2 284.8 291 298.1 308.8 316.7 320.3 326 336.5 349 349.1 345 341.7 345.9 346.2 345.1 344.9 348.7 351.9 354.2 357.1 361.7 368.4 374.5 376.6 372.7 364.5 358.5 358.4 358.5 360.6 358.4 358.4 358.4
41.7 40.9 41.6 42.1 48.7 56.1 57.4 61.1 65.1 66.7 70.7 77.3 84.6 90.2 97.2 101 106.2 121.4 127.1 131.2 149.2 157.5 158.4 168.2 177.5 187.3 198.4 202.5 197.1 205.8 213 223.3 231.1 250.5 275.1 283.9 282.3 282.9 282.1 282.9 283.5 290.4 285.3 284.1 299.7 311 311.9 311.4 310 314.8 322.2 330.6 336.7 342.5 348.4 342 343.1 351.7 329.2 325.2 321.3 312.6 301.5 297 299.4 305.6 302.5 287.3 289.1 294.8 305.8 300.3 301.7 299.6 304.5 328.8 329.4 336.8 346.9 343 340.1 341.6 351.6 341.7 330 350.5 342.9 340.3 348 376.4 376.4 375 373.3 375.4 384.2 378.6 380.5 370.2 352.2 337.8 337.6 340.9 336 332.9 336.1 329 328.5 331.9 331 332.5 335 333.6 334.5 342.3 352.5 365.5 378.6 399.1 411.9 411.8 408.9 410.6 419.9 423.7 413.4 412.7 413.3 411.4 402.9 398.4 399.4 392.6 387.3 385.2 381.3 372.8 367.5 362.8 357.8 353.3 342.9 323.5 312.8 302.2 291.9 279.4 273.6 266.7 259.8 253.9 252.5 252.2 252 252.4 253.2 254.2 255.3 259.2 262.8 263 262.5 271.8 274.5 277.5 279.4 272.5 283 291.4 296.1 308.7 312.9 320.5 326.3 334.9 340.1 345.2 346.3 342.5 341.7 344.5 346.2 345.1 347.5 350.9 355.6 358.2 360.2 363.1 369.5 371.6 373.1 369.5 361.3 358.6 356.7 358.9 362.1 358.4 358.4 363.7
40.1 42 43.4 41.5 54.8 58.3 59 63.5 65.6 68.5 73.2 81.2 88.3 96 100.3 107 117.2 123.5 134.2 148.1 162.9 165.8 170.5 174.4 177.1 181.4 196 192.4 194 203 217.4 227.3 237.5 261.4 288.2 288.3 285.9 286.3 277.3 279.4 282.8 290.5 282.4 285.1 295.3 299.8 303.5 306.4 313.4 319.4 328.7 336 341.7 347.2 347.1 344.5 345.8 337.1 327.8 319.9 314.6 303.2 294.1 294.4 300.1 305.7 288.4 290 288.5 289.9 294.8 299.7 301 300.7 323.7 325.5 332.9 342.1 344.2 340.5 339.8 349.7 350.5 339 352.1 350.8 346.6 355.8 361.3 385.3 391.4 384.6 382.6 378.3 379.4 383.7 388.8 362.9 345.5 337.3 337.9 339 336.6 341.6 336.8 332.9 338.4 331.9 330.4 334.4 340.7 339.6 344.2 353 366.6 382.3 385.6 399.6 411.5 406.6 407 413.9 419.3 421 420.1 420.1 423.1 418.1 409.4 402 400.2 393.6 390.3 386.2 375.3 369 364.4 359.8 355.7 352.1 332.7 318.2 309 298 287.3 278.1 268.8 260.4 255.8 252.8 252.6 252.4 252.1 252.3 253.4 254.9 261.9 271.2 270.6 269.4 265.2 265.5 272 275.9 273 283.5 291.2 299 308.7 312.9 319.5 324.5 336.1 340 341.7 344 341.7 341.7 341.7 344.5 345.7 347.1 350.1 353.2 359.4 362.5 363.8 364.5 369.1 374.1 373 365.4 359.3 356 355.9 361.6 364.3 358.4 358.4 361.8
41.2 43.8 51 55.2 57.2 58.4 63 63.9 67.2 71.3 76.6 84.6 91.7 99.6 106.7 116.3 123.6 135.8 144 156.5 169.8 178.3 175.7 185.3 184.7 181.5 191.8 187.9 196.5 204.1 214 229.5 245.8 272.3 280.4 280.3 270.6 265.8 271 275.6 279.6 280.7 277.2 278.5 284.8 290.3 299.1 308 316.4 323.9 334.6 342.4 347.4 348 346.9 347.2 338.2 330.4 321.3 313.5 300.6 294.4 292.2 296.4 299.9 290.4 291.3 287.6 282.8 288.2 293.8 297.9 302.3 320.7 327.4 331.5 342.4 342.7 344.8 338.1 344.2 341.1 341.7 358 358.3 348.9 357.3 363.5 369.6 379.9 388.2 382.1 385.1 378.6 381.1 387.9 375.9 352.6 338.5 337.1 337.9 336.8 341.9 347.1 347.7 343.2 338.9 334.9 333.2 341.5 346.1 353 358 365.9 373.6 381.1 390.3 398.9 402.4 407.9 406.9 411.5 414 415.6 428.5 433.3 422.1 423.8 411.4 405.1 398.5 395.6 389.8 379.1 370.3 365.5 360.8 356.7 353.2 342.4 325.6 315.1 305.7 293.6 282.9 274.1 265.9 258.9 254.8 252.7 252.4 252.2 252.1 252.8 255.3 259.1 268.4 271.8 272.5 270.3 268.6 269.5 266.5 272 281.3 293.4 299.5 303.6 309.5 319.2 323.4 329.8 337.6 340.9 341.9 343.9 347.4 343.5 341.7 341.7 346.5 351.4 353 354.9 360.1 363.9 365.9 365.9 367 369.9 363.8 357.5 358 355.4 357 371.1 364.6 364.9 365.1 365.9
45.3 50.2 56.3 58.2 59.3 60 63.6 67 67.2 73.8 80.6 88.2 96.5 105.5 113.4 126.3 137.1 145.8 152 160.8 175.1 193.3 185.8 190.8 187.8 184.2 186.6 188.3 195.8 202.8 213.6 233 256.6 262.8 262.2 263.4 262.7 263.6 267.6 270.8 271.8 277.3 287.1 282.9 282.6 284.1 294.4 310.1 316.8 329.2 340.6 345 347.7 349.1 350.4 341.2 327.9 320.8 314.3 305.4 297.3 292.2 291.5 295 288.9 288.9 289.7 282.6 282.3 287.2 291.8 295.4 310.9 330.5 332.5 344.2 344.9 347.4 338.1 341 341.8 335.2 344.7 352.5 357.1 364 364.6 372.4 363.1 372.8 376.3 379.3 376.4 373.7 380.8 374.7 362.3 344.3 343.1 337 337.9 342.4 343.3 352.2 361.9 353.7 343.3 338.5 337.4 346.1 356.1 365.2 367.9 369.8 382.5 388.9 383.5 396 399.2 404.7 410.2 411.5 414.2 424.5 437.5 435.1 424.6 414.7 409 401.2 398 389.6 380.3 371.3 367.7 362.6 357.1 352.5 342.3 330.6 319.6 310.9 299.7 291.8 281.8 271.8 266.4 257.9 254.9 252.8 251.9 251.8 251.9 252.9 258 265.7 269.9 272.4 274.5 272.2 272.1 273.9 275.3 281 289.5 299 306.7 309.9 317.8 322.9 327.2 331.1 336.2 342.2 342.8 342.8 346.5 345.2 341.7 341.7 349.7 354.6 356.3 358 360.2 364.3 366.8 365.2 363.8 361.8 355.7 356.9 355.8 355.8 359.6 367.1 365 368.1 371.5 369
47.3 56.9 58.2 60.1 60.3 60.9 65.3 68 69.9 78.6 87.5 91.5 101.4 112.1 131.4 143 149.7 160.7 165.5 171.9 184.2 207.5 196.1 194.8 190.5 203.5 193.2 195.7 202.3 201.8 214.7 239.2 248.4 257.4 264.2 261.3 261.1 262.2 264.2 265.4 278.9 288.2 293.5 289.6 289.7 294 291.3 305.6 312.6 328.8 340.8 343.4 347.7 350.8 349.7 337.3 322.3 315.5 310.7 302.6 294.4 291.4 289.6 286 282.8 284.1 279.8 282 289.6 291 291.2 301.2 322.7 329.6 345.4 352.2 350 343.3 330.6 338.1 331 335.5 339 347.6 359.8 368.4 372.9 370.3 363.1 363.1 363.7 369.9 371.6 368.7 364.9 349.9 344 343.8 340.8 342 343.5 344.1 344.4 354.5 366.5 350.2 341.7 335.8 344 356.1 366.1 378.8 382.1 385.8 391.8 382.2 382.2 395.2 400.4 413.6 414.1 411.9 421.5 431.1 443.9 432.5 419.8 410.9 405.3 397.8 389.3 381.5 375.7 369.1 365.1 358.7 354.3 345.3 331.1 321.3 312.2 303.8 294.4 285.8 274.7 268.7 263.1 256.2 254.3 252.9 251.4 251.5 252.3 254.2 262.4 269.3 270.7 272.7 273.4 271.1 272.8 276.7 282.1 289.1 296.1 304 311.2 320.5 323.3 325.4 328.3 331.2 336 343.8 344.2 344.9 348.5 344.1 341.7 344.3 353.8 357.5 359.6 362.7 364.1 365.3 366 363.2 359.1 355.6 357.9 364.2 354.5 356.6 356.8 362 366.4 371.1 374.7 368.4
52.7 59.5 61.6 63.6 65 62.2 63.8 67.5 75.8 82.6 88.7 99.2 110.9 124.4 143.8 152.2 165.1 179.3 182.9 182 193.8 208.8 203.8 202.6 203.4 201.8 201.3 203.3 201.7 205.2 218 234.9 241.1 257.3 264.3 259.2 259.3 260.4 262.9 285.4 296.7 297.1 296.6 294.9 295.9 293.8 292 297.9 309.9 326.8 336.4 341.4 344 346.7 341.2 332.1 318.3 310 302.9 297.3 293 292.8 290 281.1 277.9 277.4 279.5 286.7 291.9 294.2 296.5 316.6 318.6 331 348 345 340.8 324.7 332 327.8 333.1 330.8 341 349 355.9 380.3 382.9 374.5 367.3 363.5 363.1 366.6 355.3 352.3 346.4 338.5 339.3 340.4 343.7 349.3 349.4 345.2 345.6 356 355 345.4 338.5 339.8 352.1 359.5 376.9 389.5 397.3 396.3 386 382.2 382.2 392.1 403.8 424.8 418.3 420.5 425.8 447.5 440.6 426.5 413.4 408.2 400.2 393.4 383.8 379.2 375.1 368.3 362.3 354.4 347.5 331.5 322.5 314.6 306.4 297.6 289.1 282.3 274.1 267.4 260.8 255.3 254.5 253.2 252 251.9 253.4 257.9 266 268.8 268.4 269.6 270.2 272.6 274.2 278.1 286 293.5 300.9 310.6 317.3 322.1 324.5 325.1 328.6 332.2 339.2 348.3 346.1 347.2 348.9 344.4 344.8 352.8 359.3 359.3 362.8 367.7 366.3 364.7 363.2 357.9 353.6 358.3 356.7 352 349.2 351.2 353.9 360.1 370.6 372.6 375.2 362.3
60.2 60.1 63.2 66.5 68.6 67.5 68.1 67.3 77.9 85 94.6 105.8 119.1 138.4 152.2 162.5 181 192.9 193.2 197.6 206 206.6 205.3 205.5 206.1 204.5 216.2 217.9 207.5 209.9 212.7 225.1 238.3 249.4 259.2 260.3 263 264.8 276 301.3 307.4 304.1 300.3 300.3 300.5 294.3 294.1 298 307.4 321.7 331.9 336.5 339.1 338.9 334.6 324.8 314.7 306.5 301.7 296.5 294.7 292 282.8 277.4 277.4 277.4 288.6 289.9 294.8 302.6 316.2 310.4 321.4 336.3 335.1 329.4 325.9 317.9 321.5 326.3 324.8 333.4 347.4 346.5 369.2 386.1 395.4 387.5 378.4 374.8 369.2 361.3 354.2 346.6 338.5 338.5 338.5 344.8 354.6 353.5 353.8 347.7 354.6 353.2 344.6 342.5 345.1 347.4 355.9 371.7 391.3 399.8 398.5 394.3 382.2 382.2 385.8 398.2 416.7 423 421.2 423.5 432.5 443.9 432.2 418.1 415 407.4 396.6 388.8 385.1 379.3 371.5 365.5 354.9 345.6 335.4 325 317 309 299.7 291.7 286.7 279.6 274.5 268.3 260.4 254.2 253.8 253.2 252.9 252.7 255.9 260.1 264.3 268.2 265.1 267 271.5 274.3 275.6 284 292.4 297.8 305.8 314.2 317 319.4 321.4 324.8 329.2 336.6 346.1 352.5 347 346 353.1 348.5 355.2 361.6 364.6 363.3 364.9 367 364.7 361.7 356.2 350.4 354.1 353.9 350.6 346.2 346.4 346.7 353.3 358.8 368.5 371.9 369.3 360.3
67.5 65.8 65.9 74.1 76.8 77.2 72 74.1 76.5 88.3 98.5 109.3 125.2 143 158.8 173.6 189.8 199.4 205.8 213.1 218.2 209.6 213.7 208.7 208.1 214.8 216.3 215.7 210.4 210.2 213.3 220.1 230.7 237.5 252.3 271.1 271.3 280.1 289.5 307.1 308.3 307.5 309.4 307.8 307.9 297.2 299.5 305.4 309.6 318.9 327.8 332.4 334.7 332.3 328.4 318.2 308.6 303.9 303.3 298 296.5 286.2 277.4 277.4 277.4 279.8 283.1 291.5 315.7 309.9 302.1 312.7 323.6 330 323.3 318.4 313.3 313.3 314.1 318.6 329 342.5 344.7 364.7 375.1 383.1 391 383.6 384.4 385 366 363.3 347.1 338.5 340.4 338.5 338.5 347 351.7 352.4 351.6 355.1 353.5 343.7 345.1 351.2 350 358.5 365.6 379.6 397 402.7 399.7 391.4 382.2 382.2 394 405.4 422.9 419.9 423.7 426.7 433.1 430.5 421.7 421.2 415.6 411.6 395.8 386.5 381.7 377.4 370.5 360.2 342 334.1 326 319.2 311.4 302.5 294.4 287.3 281.4 275.2 271.6 267.3 257.2 253.2 252.9 252.6 252.5 254.8 256.7 259.6 262.4 261.6 265.1 268.3 272 277.8 281.1 291.7 298.3 299.1 304.8 309.9 313.3 316.7 318.3 328.4 333.4 345.7 350.3 350.1 347.1 348 351 354.9 363.4 369.3 370.9 365 361.9 362.8 358.8 355.7 345.4 345.4 351.4 349.6 345.1 341.1 341.1 344.8 351.1 357.1 365.1 363.3 362.8 355
78.9 73.5 76 78.4 81.1 83.8 81 74.3 81.9 94.7 108.6 120.6 130.7 146.9 164.5 185.5 196.7 203.9 213.6 222.8 224.3 219.3 217.9 214.7 219.7 220.5 218.8 217.4 211.1 210.5 213.7 226.2 231.4 242.7 259.4 275.2 281.7 290.1 306.3 307.6 311.6 317.2 322.7 316.8 307.3 299.9 301.9 307 314.2 313.7 323.6 330 329.9 325.7 321.8 316 302.4 300.4 299.5 296.5 296 280.6 277.4 277.4 277.4 277.4 290.7 314 308.6 297.8 303.7 314.7 315.3 316.7 316.2 313.3 313.3 313.3 313.3 323.7 342.5 338 352.9 362.7 367.4 377.2 380.4 379.8 388.8 376.4 360.2 347.4 338.5 338.5 338.5 338.5 338.5 346.3 347.7 349.3 354.3 351.4 342.6 344.7 345.9 347 354.8 367 375.3 385.1 396.7 399.3 394.3 382.2 383 388.9 402 422.7 426.9 425.5 432.4 425.4 425.7 420.9 422.1 420.3 417 408 384.7 380.1 379.2 379.3 360.6 343 333.7 326.4 319.6 313.4 305.1 296.7 290.1 283.3 274.4 272.5 269.9 264.1 254.5 253 252.5 252.3 252.9 254.4 255.9 257.5 259.5 263.2 267.2 271.7 277.7 284.4 289.7 295.5 299.9 301.6 304.2 309.4 314.5 317.5 328.3 331.1 343 353.4 350.8 346.9 350.3 349.1 353.2 360.5 367.7 373.5 371.8 367.3 361.4 359.1 354.5 345.4 345.4 346.2 348 341.1 341.1 341.1 341.1 344.2 343.6 353 357.5 357 358.2 350.2
85.6 82.5 84.5 88.4 91.1 91.5 91.5 79.3 93.3 101.7 116.1 125.5 138.1 152.9 173.6 192.5 199.6 210 218.9 228 230.1 228.9 224.6 223.1 224.9 226.1 224.4 215 212.6 210.8 215.4 224.6 236.5 251.2 260.9 279.8 289.1 300.8 312 312.2 318.3 320.4 324.9 320.6 307.1 302 303.9 305.5 310.3 313.3 319.1 324.7 324 320.5 321.9 313.4 300.7 296.6 293.6 292.3 285 285.6 277.4 277.4 277.4 279.1 298.2 301.5 292.5 299.5 305.9 312.7 317.7 313.3 313.3 313.3 313.3 313.4 318 336.4 334.6 350.7 358.2 349.3 352.9 365 374.9 381.5 380.4 365.3 354.1 345.4 338.5 338.5 338.5 338.5 347.1 350.3 348.5 352.2 349.3 345.3 344.1 341.2 341.2 348 361.5 371.9 383.4 389.7 398.9 396.6 383.7 382.2 388.9 402.2 417.4 430.3 433.8 440 427.7 410.3 414.3 417.3 424.6 418.6 409.4 388.8 377.4 374 373.6 360.4 343.9 333.5 325.7 322.3 317.9 306.2 297.3 292.3 284.8 275.6 269 264.5 258.6 254.2 254.1 253 252.9 254.4 256.5 257.6 259.1 261.2 264.2 267.8 273.5 279.3 284.4 291.1 295.6 298 300.4 303.6 305.2 309.4 317.4 322.7 329.2 336.5 353.3 354.8 346.3 345.8 348.8 351.7 356.3 362.7 369.2 371.7 372.2 367.4 361.8 357.9 350.5 345.4 345.4 352 346.7 341.1 341.1 341.1 341.1 341.1 341.1 347 355.4 353.3 352.8 346.2
95.7 88.3 89.2 93.9 98.5 98 99.1 101.3 103.4 110.2 119.1 131.5 141.9 157.6 176.8 193.9 204.1 213 221.6 227.4 232 230.9 227.7 226.4 228.7 227.8 218.3 213.9 211.7 212.5 220.2 227 240.8 255.1 268.9 283.2 294 305.8 313.8 322.4 326.2 323.7 324.3 313.2 306.2 304 305 306.5 313.3 315.8 315.6 315.9 316.7 318.5 319.4 304.6 300.1 293.7 290 286.9 287.7 279.8 277.4 277.4 277.4 283.6 286.2 283.6 291.2 299 303.4 311.9 319.7 313.3 313.3 313.3 313.8 314 325.7 330.8 348.7 349.6 346.2 345.4 349.5 362.6 374.9 377 366.6 362.7 347.8 338.5 338.5 338.5 338.5 353.8 360.1 351.3 350.3 349.4 347.9 347.6 341.2 341.2 341.2 351.9 362.4 373.4 384.6 390 393.3 391.3 390.6 388.2 393.3 409 429 439.7 440.2 438.2 411.6 409 403.2 420.4 422.8 404.2 390 376.5 371.8 367.8 360 346.1 334.9 326.6 324.8 319.9 314.8 300.6 298 288.2 284 269.2 263.9 258.2 255.4 254 253 252.2 252.2 255.8 259.1 261.4 263.1 266.4 268.9 273.1 281.4 285.6 286.1 289.9 293.4 295.3 299.1 303.8 307.4 315.5 322.6 328.7 334.7 344.7 353.5 344.8 342.5 344.4 348 353.5 357.7 364.1 371.6 372 371.9 369.4 361.2 357.5 345.8 345.4 352.1 355.3 345.1 341.1 341.1 341.1 341.1 341.1 341.1 341.1 352.4 347.2 342.6 340.5
101.6 93.3 95.1 99 104.4 105.5 108.7 109.9 97.3 114.5 127.3 139.6 147.9 159.2 179.2 195.1 204.4 211.6 221.5 228 233 231.2 229.7 228.7 229.7 221.5 216.7 214.8 213.5 217.3 227.5 234.4 245 265.6 280.8 296.3 306.4 306.7 314.8 322.8 324.9 328.4 320.6 311.3 307.7 307.4 309.8 316.3 314.8 316.3 314 314 315.1 321.1 307.5 302.5 295.6 293.1 289 288.1 284.8 277.4 277.4 277.4 277.4 277.4 277.4 283.3 290.5 299.7 305.1 314.4 316.3 313.3 313.3 313.3 313.3 326.7 335.8 346.4 351.7 349.1 345.1 346.3 348.7 356 365.8 364.9 356.2 346.1 338.5 338.5 338.5 338.5 356.7 367.3 363.7 357.6 356.5 353.9 351 347.5 341.2 341.2 341.2 354.6 364.7 377.3 389.4 390.2 390.4 392.3 394.6 395.8 400.2 416.6 439.2 451.9 440.2 426.5 409.7 407.1 402.1 419.8 420.7 393.5 376.4 369.1 365.2 361 346 334.7 329.8 324.4 321.9 315.9 304.4 294 286.1 279.8 272.2 264.5 260.1 257.1 254.6 253.3 252.7 252.5 253.8 257.2 261.3 264.5 268 271.5 274.9 281.6 286.7 286.5 285.8 292.6 299.4 295.7 296.2 302.4 310.2 317.3 326.2 332 336.7 343.9 342.3 339.7 343.6 342.2 349.2 355.3 357.9 362 365.7 370.5 374.2 372 361.1 356.5 345.4 347.6 362.1 362.2 349.3 341.1 341.1 341.1 341.1 345.1 342.1 341.1 346 342.6 335.2 328.9
106.1 98.8 99.5 104.2 109.1 112.5 116.6 117.6 111.5 119.5 133.5 144 158.5 163.8 177.9 197.1 206.5 213.4 222.7 229.7 231.9 231.6 230.8 229.2 226.7 221.8 217.8 217.6 219.8 225.1 232.9 242.8 254.5 267.9 293.9 314.7 318.4 311.1 311.5 316.7 321 325.2 323.1 308.4 306.9 311.9 314.2 315.6 312 312.5 311.6 311.2 314.9 311.7 304.7 302.3 294 292.1 285.7 282.6 277.4 277.4 281.7 277.4 277.4 277.4 277.4 288.4 297.7 311 310.6 313.8 313.3 313.3 313.3 313.3 325.9 337.9 347.7 345.8 345.2 344.4 346.5 346.2 346.8 354.4 363.2 361.6 354 340.1 338.5 338.5 338.5 351.2 368.3 381.6 375.2 367.6 361.5 359.2 350.6 342.2 341.2 341.2 341.9 356.7 368.4 380.3 394.7 395.2 390.3 393.6 399.1 400.9 404.3 425.5 442.6 451.3 441.3 423.1 422.2 397.5 397.7 414.3 395.5 377 369.3 364.3 357.1 344.8 334.3 327.1 323.3 320.4 316.4 309.4 296.5 286.3 278.8 273.1 268.6 261.3 259 256.1 254.4 253.7 252.9 253.7 257.6 261.2 265.1 271.1 277.1 281 285.7 281.9 284.3 282.9 289.7 295.3 295.6 299.8 299.8 306.1 319.3 321.7 324.9 331.1 334 335.4 340.7 343.8 341.5 342.5 347.4 355.4 360.1 360.1 362.8 368.4 369.6 367.7 359.5 350.1 345.4 352.4 373.3 369.8 351 341.1 341.1 341.6 349.4 343.2 340.8 342.7 345.8 337.3 324 317.6
111.7 111.2 109.3 113.8 119.5 124.1 129.4 130.9 119.8 121.4 137 147.7 160.9 175 179.2 195.6 207.3 217.4 224.4 231.6 233.7 233 230.3 226.8 224.2 223.4 222.5 224.4 221.9 226.4 239.9 253.3 265.5 283.4 310.1 322.5 311.3 309.4 311.9 314.8 315.3 319.9 315.6 303.5 310.1 310.1 311.3 304.4 308.7 313.6 311.1 305.8 316.3 307.1 303.2 299.1 288.7 285.9 282.1 277.4 277.4 277.4 277.5 277.4 277.4 277.4 283.8 299.3 302.3 304.8 317.1 313.3 313.3 313.3 313.3 321 346.8 361.3 353.1 345.2 342.8 343.4 349.2 347.1 349.5 358.1 358.3 354.2 348.5 338.5 338.5 338.5 341.5 362.8 381.9 385.7 374.2 369.2 364.8 354.3 344.5 341.2 341.2 341.2 348.1 360.7 373 384.2 396.2 389.7 393.5 394.3 400.4 407.5 412.5 430.9 447.9 455.8 448.7 429 425.9 392.7 392.5 390 379 372.8 365.5 356.6 344.2 334.2 327.2 322.4 320.8 319.7 315.9 307.7 290.2 286.7 275.2 271 265.2 259.5 258.4 256.1 254.5 254.5 254 257.2 263.9 269.4 275.3 281.1 287.1 292.6 286.6 281.2 281.5 288.4 290.6 292.7 302.7 305.3 307.6 316.5 326.3 327.5 332.9 333 339.2 341.8 341.9 345.9 342.8 341.7 346.4 352.1 359.6 358.5 356.4 361.2 363.9 361.4 353.8 349.3 350.1 354.3 371 372.8 350.6 342.9 341.1 348.6 335.5 329.2 332.3 336.4 328.4 317 312.6 312.6
115.9 114.9 123.9 130.2 138.1 137.6 137.2 140.5 136.9 124.9 122.8 141.7 159.3 171.8 181.3 195.8 209.6 217 223.5 229.4 232 233.1 226.5 225.7 225.2 229.2 229.3 225.7 224.7 230.1 255.8 260.3 273.9 301.2 321.9 311.2 308.1 309.9 308.3 309 311.3 314.4 299.9 302.8 306.5 306.5 296.4 300.1 309.4 313.5 303.5 310.8 305.6 302.7 302 294.9 283.2 279.1 277.6 277.4 277.4 277.4 277.4 277.4 277.4 277.4 290 297.3 300.5 310.4 317.2 319.8 313.5 316.2 320.8 337.8 365.3 356.6 353.5 344.6 343.8 348.8 352.2 350.9 357.2 358.3 356.9 359 351.8 338.5 338.5 338.5 351.6 372.8 381.3 383.5 369.8 364.9 358.4 342.2 341.2 341.2 341.2 348.5 363.1 366.8 376.3 384.2 388.6 388 389.6 397.6 402.3 405.9 420.3 434.7 449.1 454.3 450.8 441.4 413.5 391.9 385.2 377.7 374.1 374.9 360.2 345 335.1 326 322 318.7 319.1 318.7 313.6 298.5 293.2 288.1 277.5 269.2 261.6 257.7 256.6 255.5 254.4 254.8 255.9 257 270.7 276 279.6 285.8 291.3 288.1 279.6 280.1 284.9 290.1 291.9 302 308.5 307.4 315 322.3 326.6 333.6 336.2 342.4 348.4 353.6 347.6 346 343.8 342.4 345.5 350.4 353.1 351.3 350.2 349.8 354.3 353.3 347.1 345.8 350.3 357.1 373.1 364.1 349.7 349 340 327.9 323.5 324.1 326.8 324.4 312.6 312.6 312.6 312.6
121.7 122.1 134.4 146.3 156.5 154.9 158.8 155.3 153.7 142 143.7 142.4 151.4 170.7 178.5 194.3 207.1 212.3 219.5 224.8 229.7 228.5 225.6 224.9 227.7 233.4 232.8 230.1 229.8 243.4 271.4 268.7 287.7 318.8 318.6 308.3 305.4 305.9 304.5 308.3 308.2 296.6 291.4 296.8 300 290.2 296.5 305.3 310.5 309.9 297.3 301.5 301.2 300.9 296.8 284 277.4 277.4 277.4 277.4 277.4 277.4 280.8 277.4 277.4 285.8 288.1 297.5 303.5 313.6 320 321.4 329.1 330.8 328.2 346.3 349.9 350.1 341.4 343.3 350.9 350.5 352.1 356.8 364.9 367.4 363.9 358.4 352.4 343.5 339.8 338.5 359.1 374.6 374.3 374.1 364 358.1 341.2 341.2 341.2 341.2 349.1 364.5 369.7 379.5 383.2 387.7 386.1 387.6 390.9 401.1 402.6 414.6 422.3 436.1 445.7 444.3 441 423.5 397.8 384.9 375.2 370.5 372.8 368.6 342.5 331.4 326.8 322.7 317.6 315.8 315.9 312.9 300.9 294.2 291.8 285.2 270.4 266.5 260.3 257.1 255.7 254.6 254.4 256.9 261.6 272.2 272.8 277 279 282.5 282.1 279.1 279 279.8 284.3 289 299.9 304.6 307.3 310.7 317 329.8 337.6 339.2 345.2 348 352.9 356.6 351.2 344 343.6 344.3 343.4 347.4 349.6 348.8 348.1 346.7 343.6 343.6 347.4 348.8 350.6 364.3 369 356.7 352 341.8 334.1 324.4 318.7 321.3 312.7 312.6 312.6 312.6 312.6 312.6
