ncols 200
nrows 85
xllcorner 180000
yllcorner 840350
cellsize 50
671.5 658.8 667.7 692.5 720 746.5 774.8 801.3 816.5 827.1 835 841.2 846.6 850.6 855.8 851.9 809.4 727.7 670.3 651.1 640.9 631.7 625.2 603.2 597.8 584.5 574.3 565 542.6 536.2 536.2 524.4 505.7 495.2 478.7 461.3 445.5 427.4 407.1 397.4 384.2 369.5 356.7 339.1 326.4 314.4 302.1 293 283.3 277.1 268.2 260.5 252.9 242.9 230.2 217.8 204 193 183 173.6 162.4 154.9 150.3 144.9 141.4 137.2 127.9 130.7 129 118.6 116.5 115.3 109.8 105.7 102.4 91.4 83.6 74.5 65.4 61.5 55.5 49.4 42.3 31 24.8 29.8 41.4 48.7 53.8 57.7 64 59.5 64.2 61.4 56.6 53.3 50.2 44.8 40 40.9 42.5 44.5 44.5 45.3 44.8 46.2 46.5 50.1 57.3 67 73.3 80.7 86.9 95.4 102.3 108.6 116.2 127 139.9 152.2 159.2 172.1 189 198.5 204.2 214.4 223.5 228.8 234.3 242.8 256.3 263 275.9 297.5 315.9 326.4 333.2 344.3 348 354.3 359.9 365.8 369.8 376.5 377 382.5 385.3 388.7 393.1 404.5 408.5 410.9 412.7 418.7 426.6 431.4 440.1 445.1 448.1 467.1 498 504.8 500.1 493.8 494 494.6 495.3 498.2 511.3 530.5 530 528.7 537.6 551.2 578 585.8 597.3 590.7 609.8 605.6 582.1 530.8 489 458.8 434 425.5 419.5 412.2 413.4 419.4 426.1 431.5 437.4 446.5 461.8 497.2 529.9 518.5 507.1 506.3
643.8 630.2 640.2 665.4 694.2 722.9 754 780.8 797.6 809.5 821.5 831.7 839.5 846.3 852 852.3 798 694.2 644.2 617.8 604.3 610.4 588.3 557.3 542.1 519.4 512.9 506.9 494.9 487.9 483.5 475.6 465.1 458.9 447.8 440.7 432 421.9 407.5 399.6 384.4 370.6 361 342.6 330.8 317.9 304.8 293.8 283.7 277.1 267.8 259.1 250.7 241.7 230.9 219.3 204.3 192.2 182.5 172.8 163.5 156.1 149.5 143.2 139 134.8 128.6 125.4 120.3 117.4 112.7 113.2 106.9 103.1 98.5 90.3 82.1 73.2 63.2 59.1 49.4 46.9 36.5 27.1 24.2 31.4 40.6 46.8 51.5 53.6 56.8 56.1 59.7 56.5 50.5 49.2 46.4 41.8 39 39.1 40.8 43.1 44.7 44.7 46.1 50.6 53.4 57.3 66.7 74.1 84 90 95.9 103.3 109.2 116.8 125.1 133.3 145.1 156.7 167.3 180.3 194 201.8 212 224.8 230.9 238.4 243.9 256.3 263.5 273.7 289.2 311.9 332.8 342.4 351.5 361.6 364.9 367.8 370.6 378.2 382 388.1 391 393.7 398.9 403.7 405.5 408.7 411.9 417.1 426.5 437.2 450.5 462.1 472.5 480.8 485.2 504.9 521.5 536.8 529.1 521.5 520.2 535.5 549.1 554.2 560.2 561.3 565.3 572.1 596.5 605.7 618 631.7 646 641.5 642.9 619.3 599.2 554.9 542.2 521.2 482.1 466.3 455.6 444.5 451.4 452.5 453.1 447.2 455.6 465.2 500.8 542.9 565.8 550.3 577.8 632.7
618.4 604.2 612.9 636.8 669.1 702.7 732.8 756.9 775 791.4 806.7 823.3 834.4 842.6 847.3 844.7 791.8 683.1 625.2 599.7 592 595.8 564.1 526.4 504.8 490.4 483.4 479.5 472.2 465.4 458.1 452.1 446.7 443.7 439.2 435.2 427.4 418.8 409.9 398.7 384 373.2 360.5 346.4 334.8 320.6 307.6 295.7 284.6 278.1 270 261.2 252.5 242.6 232.4 219.2 205 192.3 185.4 178.2 167.9 156.8 150.9 146.1 137.7 130.7 128.5 119.7 117.7 112.4 110.8 101 100.9 98.2 95.6 88 79.3 69.7 60 52.2 46.8 42 35.1 23.8 24.9 31.9 40.3 46.9 49.8 49.7 51.4 50.1 53.3 48.9 46.6 43.8 41.1 39.8 38.4 39.4 41.6 46.1 46.4 41.3 50.6 55.8 58.4 66.5 74.1 84.8 94 99.4 104.5 111.4 117 124.8 135.2 145.9 152.4 161.1 174.9 188.9 196.1 207.4 219.1 232.6 241.4 248.4 259.8 267.9 275.4 288.4 301.7 322.2 342.3 353 366 374.3 375.7 380.4 384.8 390.2 396.7 403 409.7 418.5 425 419.3 417.5 418.7 418.1 423.5 440 452.2 466.5 481.1 494.6 515.8 524.5 562.2 569.9 576.1 569.9 571.3 577.6 587.8 592.1 601.7 608.7 609.2 618 627.2 636.2 640.3 643.7 646 656.4 660.5 654.3 645.8 623.7 607.5 592.3 561.8 529.3 504.6 489.6 485.4 490.3 495.3 483.2 472.3 480 496.8 543.7 591.8 599.7 619.4 674.1 680.4
593.8 578.7 586.7 611.1 647.4 681.2 708.2 729.2 749.5 770.3 792 811.8 822 833.7 841.5 829.6 780.4 683.2 620.1 592.1 585 570.7 532.6 501.7 483.2 471 464.7 459.7 453.8 446.5 440.2 433.3 430.6 428.6 426.5 425.8 422.3 415.6 408.7 398.3 386.6 376.8 363 348.7 336.5 323.4 311.1 296.5 285.1 277.8 270 260.3 248.9 239.2 230.8 217.9 206.9 195 188.3 177.9 170 159.3 153.6 145.6 137.7 131.1 126.4 117.5 113.5 111.5 107.8 99.7 92.5 92.1 87.7 81.9 72.7 64.4 55.9 47.8 45.2 38.7 29.9 20.6 26.3 29.1 36 44.9 46.5 44.3 49.3 44.7 46.8 46.8 41.9 39.8 39.8 38.8 37.7 40.5 43 42.5 38.8 53.6 57.3 64.1 64.5 70.1 82.9 93.6 100.8 107.3 112.4 118.4 125.1 135.9 142.3 153.7 162.6 168.7 180.4 194.1 203.1 212.5 224.2 235.7 246.2 257.5 267.8 273.2 288.4 298.2 314.9 334.5 347.1 361.1 374.3 384.4 386.6 393.8 397.2 407.1 413.5 419.3 427.5 438.3 443 434.5 428.8 430.1 428.8 435.2 452.3 470.4 492.7 505.2 529.5 558.1 563.3 577.1 585.3 598.6 598.8 610.5 633.1 662.5 662.3 662.7 663.3 677.3 671 668.2 664.1 656 656.5 658.7 658.6 658.7 660.1 651.3 634.7 617 603.8 587.3 564 540.6 521.7 520.4 520.7 524.2 516.4 520.5 518.4 537.1 573.8 618.9 646.4 673.6 696.7 690.7
568.1 552.8 562.2 585.4 624 657 681.8 701.7 723.7 741.6 754.2 773.5 784.4 801.4 823.1 835.7 794.2 700.7 633.3 595.5 578.4 549.7 524 495.8 475.7 465.4 459.7 453.5 446.5 436.9 430.9 426.1 423.2 419.8 419 418.7 415.1 408.1 403.9 399.3 388.8 374.5 359.8 349.7 334.7 317.9 307.8 296.7 288 277.7 267.3 261 252.7 243.8 234.3 219.1 208.8 197.2 187.7 177.7 170.9 163.5 155.8 144.3 137 130.8 128.8 119 110.7 108.3 102.9 98 88.6 84.9 82.6 77.3 66.9 60.4 52.6 46.9 41.3 35.9 25.1 19.8 23.8 26.7 34.1 41 40.9 42.6 43.3 42.5 43.5 41.5 39.2 39.1 38.8 36.9 38.3 39.2 36.8 43.4 54.3 61 59.3 65 67.9 77.6 92.9 100.6 107.6 114.5 120.2 124.6 135.3 141.3 150.1 158.6 170.5 189.7 193.7 202.3 211.5 220.6 230.8 239.6 248.8 261 270 284 295.4 308.4 329.4 345.6 364.3 371 385.1 398.3 405.2 411.1 416.9 427 428.2 436.6 442.8 446.8 444.1 441.1 440.5 440.1 444.1 453.3 469.7 496.3 535 549.4 565.2 578.8 578.8 589.1 600.1 611.6 634.8 661.1 684 710.8 712 718.7 721.9 714.3 698.6 685.6 674.9 657.3 655.2 661.1 653.1 642.1 646.6 642.2 632.1 620.2 610.3 606.4 598.1 576.8 563.5 567.1 570.2 564 573.2 567.8 564.1 563.2 597.6 639.5 672.6 689.2 701.8 698.1
536.4 528.2 537.2 559.8 596.9 626.5 655.3 677 694.1 704.6 717.2 732.7 747.3 770.4 793.7 804.8 815.5 785.1 741.4 619.1 601.8 571.5 539.4 510.2 483.8 469.7 466.7 460 453.3 446.1 436 430.6 426.4 424 422.8 421.1 420.2 416.3 411.6 404.3 397.7 380.5 365.6 352.3 338.7 325.5 314.7 301.1 292.2 281.5 273.8 268.3 258.9 247.8 234.5 221.3 212.6 201 190.5 180 170.6 165.6 156.7 143.6 137.1 131.5 127.1 116.6 109.7 105.9 96.9 92.7 86.3 80.8 78.6 71.6 63.4 54.9 50.2 43.7 37 31.4 22.5 19.2 20.6 21.7 30.6 37 38 39.5 36.4 41.7 41 37 41 39.4 37 36.6 38.7 34.2 39.3 52.1 61.4 65.6 66.3 67.9 72.5 90.7 98.8 108.6 115.7 121.2 126.6 131.2 139.1 149.6 156.8 169.3 184.2 197.1 202 203.3 215.3 225.5 236.8 243.8 256 271.6 283 296.1 310.7 327.5 342.4 355.8 374.1 381.1 394.9 412.2 421 426.1 432.7 434.5 438.8 444 448.4 449.2 447.9 445.2 449.9 456.8 467.7 476.1 494.5 536.5 553.6 577.7 581.2 585.4 590.7 600.6 613.1 637.8 661.4 674.9 691.7 718 725.9 729.9 725 715.2 705 688.6 677.1 663 659.5 652.2 642.8 633.9 632.3 630.3 623 610 615.8 613.6 615.3 608.7 591.7 595.4 612 605.9 611.8 616 610.6 598.7 612.5 662.2 673.6 683.8 686.5 681.8
509.5 503.6 512.7 530.1 565.4 590.8 621.1 646.9 657.9 664.6 680.9 695 715.4 738 757.1 770.5 791.3 805.9 787.8 679.5 639.7 597.3 571.7 537.1 507.3 491.3 487.3 473.2 469.9 462.6 453.8 443.3 437 434.4 432.1 429.7 425.9 422.2 415.6 406.4 399.7 384.3 367.7 355.6 345.1 329.4 320.8 306.6 294.1 282 273.3 266.6 258.6 246.6 236 224.7 215 204 192.6 182.2 171.6 164.3 154.6 144 137.3 131.2 125.4 117.1 108.5 101.7 93.2 88.6 84.1 78.3 73.6 66.3 59.6 50.7 45 37.3 28.1 27.4 19.4 17.7 18.7 18.8 25.2 30.6 34.8 35 35.1 35.9 31.2 37.8 40.5 40.4 36.4 36.1 37.5 36.3 50 58.8 65.3 69.4 71.2 74.6 83.8 96.9 107.4 115.2 121.9 130.2 134.4 138.3 146.6 154.1 164.2 176.9 191.6 202 208.7 216.6 218.9 229.8 240.5 248.6 265.8 278.4 294.9 313 325 335.8 354 364.1 377.8 390.8 404.2 420.2 426.9 430.8 436.9 440.7 445.1 447.5 453.9 458.9 457.3 460.5 468 479.4 491.8 501.4 535.6 575.6 572.1 587.2 588.4 584.9 597.6 609.9 637.4 647 656.5 666 685.7 705.1 712.8 720.6 711 709.8 696.5 678.9 664.3 649.4 640.9 630.6 623.7 620.3 622.6 619.4 615.7 605.7 605.7 608.7 608.6 608.6 610.3 624.3 618.4 626.5 624.6 628 629 630.1 637.7 662.2 672.4 672.4 676.6 671.6
483.6 478.7 486.3 501.7 525.9 553.1 578.6 608.9 619.7 624.2 636.2 651.9 677.1 702.2 723.2 737.5 755.7 775 792.4 758.8 723.3 675.3 603.7 582.5 548.1 530.6 521.1 499.4 490.8 486.3 480 470.9 463.2 454.2 446 440.3 433.4 425.8 416.7 406.4 394.4 385.1 370.9 358.4 347.3 332.6 323.3 309.7 297.6 287 276.5 270.9 263.8 254.7 240.1 226.9 214.8 202.4 193.4 183.6 174.8 163.5 155.8 145.6 139 129 125.4 115 105.4 96.7 91.6 88.8 80.3 76.1 69.3 59.9 53.7 46.5 41.3 33.5 21.7 20.5 18.2 16.7 17.9 17.4 18.8 23.8 29.1 30.7 30.3 24.2 32.5 39.6 41.8 39.1 34.7 34.8 38.8 45.2 58 63.1 67.5 70.5 74.3 78.5 93 103 112.6 120.7 128.4 136.6 140.7 145.8 152.6 160.7 171.7 183.8 198.3 207.5 216.4 226.3 230.7 231.4 244.1 251.7 268 288.1 313.1 324.9 329.9 345.9 358.5 372.9 388.2 399 410.4 418.8 426.9 428.6 429.4 434.4 449.3 469.8 474.6 479.4 474.9 493.3 503.7 512 520.7 527.2 568.7 581 584.4 584.1 592.2 599.2 599.4 622.6 637.5 641.3 641.9 650.6 665.4 689.9 688.4 691.4 685.7 685 673.7 657.8 644.2 632.4 625 620.2 615.3 619.2 623.2 623.5 613.9 606.5 611.1 609.6 610.2 622.9 619.8 620.1 618.9 630.3 642.4 643 629.7 627.5 635.6 644.3 652.6 655.5 662.7 665.5
456.2 453.5 462.8 475.6 494.8 516.6 539.4 560.8 576.9 585.1 596.4 619.5 640.9 663.9 683.3 699 720.9 748 767.3 765.8 752.6 723.2 661.6 618.7 597.7 572.1 576.4 554.7 535.3 522.5 516.1 517.4 511.6 502.7 476.2 457.1 440.1 429.4 416.4 404.2 393 385 370 357.3 347.2 338.9 326.9 317.9 305.1 290.3 280.7 273.8 268.9 259.1 243.8 228.7 218.8 205.9 196.7 186.5 179.4 165.6 154.2 147.6 135.9 128.4 123.9 115.5 102.1 95.8 90.5 85 76.3 75.1 67 58.7 50.9 41.7 36.8 27.9 17.4 17.2 17.5 16.4 16.7 16.6 18.9 19 20.2 21.2 22.7 23 34.9 38 38.3 35.8 32.5 28.7 47.8 50.7 60.3 63.9 68.5 72.7 76.3 89.1 100.2 109.5 117.1 121.5 129.9 137.8 143.7 151.1 158.5 171.8 183.2 196.2 204.4 213.4 224.8 231.4 241.1 234.7 248.5 259.3 279.7 296.5 321.8 329.2 343.1 355.3 367.4 381.6 388.6 397.5 404 406.3 415.7 423.4 434.4 450.4 457.7 476.8 486.5 484.8 490.3 512.7 531.5 535 544.3 546.7 570.8 575.4 588.2 591.6 594.9 598 608.1 617.3 625.2 627 626.3 629.5 634 648.9 654.2 652.1 653.8 658.3 651.5 642.4 631.3 622.2 618.5 614.8 613.9 612.5 612.3 612.7 614.9 608.9 606.5 618.9 617.9 620.9 636.2 623.6 620.1 628.6 632.8 630.4 622.6 626.2 633.4 636.6 636.1 639.5 649.1 663.2
429.6 427.8 441 450.3 465.8 486.5 504.9 523.4 536.8 550.4 560.1 587.3 605.8 629.3 644.5 664.3 686.1 708.9 736.4 751.3 739.8 733.7 727.8 698.7 643.6 607.7 627.3 601 597.8 593.8 583.6 584.8 587.7 564.7 515.5 486.1 457.8 435.5 417.9 401.2 388.7 382.8 373.2 361 350.8 345.1 331.5 324.1 314.5 302.3 287.1 275.5 269.5 262.5 244.8 230.9 221.5 212 204 189.7 184.7 172.5 157.3 145.2 133.2 128.9 124.1 110.1 100.2 94.9 88.6 81.3 75.6 71.9 61.8 54.1 46.7 38.3 24.2 23.4 17 16.3 14.6 15.7 15.7 16.3 20.3 21 22.1 22.9 23.5 25.8 32.6 34.8 35.1 33.2 27.3 36 53.3 56.4 61.3 67.9 72.3 76.5 85.2 94.8 107.3 115.8 120.7 123.7 134.6 142 149.1 156.3 167 185.1 195.1 206.8 213.3 226.7 234.3 243.6 252.8 258.6 255.5 263.1 289.4 306 320.2 335.5 357.9 362 371.5 377.9 383.8 384.4 390.5 406.1 414.7 422 440.2 452.1 455 471.5 482 493.6 491.7 513.4 526.1 534.7 546.8 557.7 568.1 577.9 591.7 592.6 589.5 588.2 604.7 600.8 603.5 604.6 602.6 604.6 608 616.9 624.7 625.6 630.9 633.9 635.7 628.3 622.6 621.9 619.6 619.3 617.4 611.6 613 610 609.7 606.6 604.4 608.5 614 616 617.7 618.6 615.5 620.9 621.2 618.1 615.1 622 625.1 626.9 628.4 635.8 655.4 670.9
401.6 401 414.9 425.8 437.6 454.9 471.8 489 502.3 514.8 530.9 549.7 573.7 594.9 609.1 627.2 650.7 673.5 705 721.5 716.6 716.5 724.9 726.7 681.7 644.9 652.8 654.2 659.9 649.4 648.3 651 637.8 600.2 561.3 518 494.6 447.1 420.4 404.3 392.6 386.4 381.3 369.1 357.5 348.3 341.7 329.3 322.3 312 300.7 281.6 273.5 264.8 249.5 232.7 230.5 216.1 210.7 192 187.5 174.8 159.2 141.8 127.1 121.1 112.6 107.2 99.2 93.9 84.9 77.8 72.7 68.8 58.6 49.7 43.1 34.6 19.8 17.3 15.4 14.1 13.9 14.4 14.9 18.4 20.1 21.7 22.5 23.1 23.9 27.8 30.4 31.6 32.2 29.1 24.6 43.9 54.9 59.1 66.7 70 73.7 82.4 97.1 105 111.9 119.7 126.1 130.1 138.6 144.8 154.4 164.8 180.4 192.6 207.1 214.3 224.4 235.5 244.3 259.1 266 272.7 279.1 274.7 295.7 312 324.5 340.1 350.8 357.7 363.6 366.2 368.9 378.2 384.5 397.4 414.9 428.8 448.4 448.1 451.5 468 475.2 486.3 489.3 502 517.1 534.6 568.2 574.2 573.7 584.9 581.3 574.6 573.8 578.2 587.7 585.5 584.1 583.2 582.8 585.1 590.3 595.1 605.9 611 613.4 614.7 615.1 616.3 618.5 620.3 620.4 622 622.1 619.6 614.3 611.6 609.2 601.4 599 598.6 601.4 600.5 600 601.7 604.2 610 612.7 611.5 613.7 617.8 617 622.9 629 643.2 664.9 675.6
371.7 373.1 385 396.1 408.5 423.2 437.9 454.6 471.3 484.1 501.3 519.5 543.4 560.6 577.8 595.2 616.6 641.1 666.9 688.3 691.8 697.2 713.5 732.1 717.5 690.2 688.4 703.5 696.4 684 688.3 690.2 674.1 626.3 581.4 539.6 516.3 473.1 426.9 408.2 400.3 394.5 387.6 374.8 368.7 354.7 350.8 336.9 325 313.3 308 285.6 276.6 270.5 254.8 237.2 231.8 219.5 209.7 198.9 189.7 179.8 162.8 143.7 126.2 115.1 112.4 107.7 100.2 95.2 86.8 75.2 69.3 63.8 56.5 48.7 40.5 32.8 23.9 17.9 14.6 12.4 12.8 14.2 15.7 16.1 16.7 20.4 22.6 23.1 24 26.9 27.1 27.9 25.5 22.8 32.7 48.1 57.3 62.8 67.5 70.3 80.4 92.2 104.5 112.1 117.4 121.8 129.3 134.7 140.9 150 162.3 178 191.5 204.7 216.3 222.5 232.7 244.7 256 269 277.2 284.6 298.6 313.8 297.7 315.2 329.5 339.7 345 350 353.8 361 366.3 372.5 381.1 391.1 416.4 429.6 435.7 449.3 447.6 455.6 468.6 483.3 493.7 503.1 515.3 527.6 559 570.3 571.6 570.9 565.2 560.6 562.4 568.4 574.1 574.4 574 573.4 571.7 571.4 576.8 581.6 588.9 596.3 602.9 610.2 610.3 609.6 612.1 614.5 614.9 613.9 614.5 612 606.5 605.4 602.3 596.8 592.6 591.8 591.2 590.7 590.7 596.4 604.9 601.8 602.4 605.1 608.8 612.1 620.8 629.7 634.9 639.4 656.1 678
344.8 348.2 354.5 364.2 376.4 390 405 418.9 438.6 454.5 470.2 491.7 512.7 529.4 545.9 565.7 585.5 607.8 633.9 653.8 665.5 676.1 696.2 722.2 741.7 728.4 732.2 746.9 731.4 721.5 721 709.2 681.8 639.3 595.6 542 508.2 465.7 426.4 409.6 402.7 397.8 392 388.1 379.7 364.5 355.5 348.5 326.7 316.2 304.3 289 276.5 276.3 263 243.1 232.6 223.7 210.8 201.9 191.1 180.2 163.8 144.8 126.5 116.2 116 107.2 99.5 95 87 76.5 67.2 57.3 52.8 46.8 40 30.5 17.3 16.3 12.3 11.8 13.5 13.4 14.5 14.7 15.5 15.9 18.9 22.1 22.5 21.2 20.8 20.5 23.1 31.4 40.1 49.5 57.9 63.6 69.8 75.9 85.1 100.8 110.2 117.1 121.3 127 133 137.1 144.8 157.3 169.9 187.7 197.3 207.8 216.1 228.9 242.2 255.5 272.5 280.3 286.9 295.9 310 320.5 315.2 312.2 327.3 334 338.9 349.5 353.2 361.9 368.2 375.3 379.8 390.3 411 425.1 427.5 425.4 429.4 440.6 454.7 480.4 494.8 497.3 507.8 515.9 535.8 545.9 555.3 559.1 556.3 556.3 556.3 562.9 567.1 568.9 567.5 565.6 563.6 564.6 569.4 575.5 580.5 587.3 594.9 600.7 602.3 603.5 606.6 608 608.2 608 608.9 604.4 598.2 597.4 596.1 591.2 588 586.5 585.4 586.1 587.4 590 592.4 594.1 599.3 604.5 609.7 618.5 626.8 635.1 637.6 636.9 647.2 671
324.5 326.1 329.1 336.2 346.2 359.2 373.3 387.5 404 421.6 436.7 462.9 482.4 497.9 517.3 537.4 557 577.3 602.4 622.6 635.5 651.6 676.2 705.1 732.1 746 758.3 761 755.1 744.6 733.8 710.2 682 644 603.1 530.7 489.7 452.8 424.6 412.9 405.6 401.6 400.4 396.8 389.9 375.4 360.2 349.5 331 320.2 308.5 290.5 278.3 277.6 267.1 249.8 234.2 225.4 214.3 203.6 191.4 184 165.6 146.3 127.9 118.5 116.5 105.7 98.5 95.3 87.2 74.9 64.7 55.6 49.4 42.3 37.3 30.1 21.3 15.1 10.1 12.2 13.2 13.4 13.4 13.5 14.1 14 15.3 15.8 18.3 20.5 20.4 22.6 30.4 39.6 49.5 56.7 62 67.6 77.7 84.2 92.5 104.9 114.5 121.2 127.3 131.6 138.4 143 151.2 162.8 176 190 199.9 211.5 224.6 238.6 252.6 262.4 276.7 285.3 296.9 309.9 316.3 320.4 322 322.7 323.8 329.4 338.2 345.4 350 362.4 368.4 374.6 382.1 391.5 403.9 417 416.1 416.2 417.5 423 439.9 463.7 473.2 482.7 492.2 502.2 517 539.9 573 574.8 564.7 559 556.3 558.2 559.5 557.1 558.1 557.2 557 559.5 564.1 571.7 574.1 581.1 585.2 596.8 596.5 596.2 597.4 602.7 603.9 603.4 601.2 601 594.6 589.2 588.3 582.7 582.3 581.9 582.8 585.5 587.8 589 592.2 595.6 603.6 609.2 618.3 628.3 637.5 641.6 640 637.5 642.9 663.9
308.1 307.3 304.2 307.9 316 328 342.7 356.7 370 387.8 404.1 430.5 448.4 467.1 489.1 509.9 528 549.1 570.6 588.7 603.2 626.7 653 681.4 709.9 728.9 744.9 756.1 760.3 752.1 735 708.1 679.3 647.5 612.5 523.1 480.3 451.1 429.2 416.5 409.9 408.5 410.5 406.9 400 391.1 368.5 356.1 333.7 322.3 312.1 295.1 279.9 279 270 253.9 236 222.3 215.1 205.8 193.2 185 168.2 148.8 131.9 120.2 113.4 105.4 99.4 94.4 85.7 72 66.5 54.7 43.5 39.6 36 23.1 20 15.1 9.3 12.1 12.6 13 12.6 12.6 12.8 14.1 15.4 19.4 22.7 23.8 25.7 28.1 35.4 46.4 52.2 59.2 64.7 73.7 82 90.6 101.2 109.8 117 126.8 132.8 136.6 142.7 149.3 157.1 171.3 180.9 190.9 205.3 219 232.5 246.5 260.7 268.5 277.4 291.7 304.4 314 319.6 322.1 323.4 324.4 325.3 327.2 333 338.4 346.3 356.7 363 372 381.9 394.4 398.9 399.4 404.9 409.3 410.7 416.4 430.5 453.3 462.9 471.7 480.6 490.3 508.2 551.4 580.8 581 571 563.2 556.8 556.7 553.9 551.4 551.2 553.3 554.5 555.3 557.4 562.7 567.3 573.5 582.5 594.1 592.5 590.9 591.5 594.8 595.3 596.2 593.8 589.5 587.9 582.7 578.6 578.3 579.3 581.3 585.8 592.9 599.6 603.5 596.2 600.1 606.8 621.5 623.2 634.5 637 642.7 641.3 642.4 642.6 650.8
286.8 288.1 282.4 280.8 287.7 302.5 316.3 328.9 343.2 356.5 376.3 394.7 412.1 434.6 461.6 479.6 498.5 518.9 541.4 557.4 582.9 607.4 629.2 653.5 678.9 704.7 732.1 753.4 758.1 752.1 736 709.4 680.9 653 616.9 526.8 482.9 454.6 434.9 421.2 418.1 420 417.5 413.6 403.3 403.8 380 357.1 337.3 324.7 309.7 293.2 281.9 276.6 268.7 250.6 235.3 221 214.9 205.1 195.1 184 167.8 150.3 134.9 122.7 115.4 105.8 98.6 92.1 84.4 71.2 68.1 56.3 43.5 35.5 29.6 20.5 18.3 12.1 8.6 9.7 10.7 11.8 13 12.9 14.2 15.9 17.6 23.1 24.4 26.4 31.1 36.7 44.6 48.3 51.6 59.4 71.3 77.5 87.9 99.2 111.8 117.7 122.7 128.9 137.9 142 147.9 155 162.7 177.1 183.7 196.2 212.7 222.6 235.2 251.9 263.9 270.5 281.8 293.2 305.2 311.6 331.8 333.3 327.3 326.1 330.7 335.2 343.8 353.1 352.4 352.7 354.4 363.6 374.1 380.8 390 388.5 391.3 401.4 408.8 414.7 423.6 434.7 446.4 462.3 471.9 487.7 504.7 531 566 577.4 570.4 564.3 559.3 556.1 553 551.2 551.2 552.3 553.7 552.3 554.2 561.4 565.1 568.9 575.3 585.4 582.2 581.7 582.4 585 586 587 585.2 583.9 582.1 579.9 578.8 577.6 579.2 585.7 594.8 601.6 609.8 610.5 608.6 605.4 612.6 623.8 623.2 631.7 638.9 637.2 638.3 645.6 647.7 649.1
266.4 270.8 267 265.3 270.1 282.4 295.7 304.3 316.2 331.3 347.7 363.9 382.3 404.9 428.8 447.2 468.8 489.2 508.9 532.4 563.7 593.8 614.8 633.4 653.7 685.5 716.6 737 748.4 748.7 739.3 710.3 679.6 652.5 615.7 538.1 494.7 462.2 442.6 432 427.6 426.8 425.9 422.6 414.2 401.5 374.1 358.2 341.9 326 310.7 297 283.8 273.2 260.4 246.2 233.7 222.5 214.4 205.2 193.4 179.6 165.4 150.5 136.3 123.5 115.3 106.1 96.9 90.8 83.3 72.2 66.2 57.3 44 34.6 24.8 14 15.8 9.8 10.1 8.9 9.8 10.8 12.5 15.6 19.8 20.8 22.8 23.6 24.7 30.5 34.4 46 50.1 54.1 57 66.7 75.5 83.9 95.2 109.5 117.5 124.1 132.1 136.5 142.4 147.4 151.8 159.6 168.4 179.5 190.5 201.3 212.2 224.4 240.4 258.6 265.2 276.3 284.8 291.5 295.6 320.5 339.9 338.7 331.5 328.2 328.8 343.1 350.5 356.9 358 357 359.8 359.7 362 369.4 372.7 381.1 394.4 393.8 403.6 411.7 426.6 437.1 446.6 460.8 476.8 496.2 511.6 533.7 560.3 573 575.7 579.1 574.4 567.2 560.3 551.4 551.9 552.7 551.6 550.3 552.9 561.1 567.8 566.8 570.2 570.4 572 572.9 576.4 580.4 580 578.1 577.7 580.1 582.7 582.9 579.1 575.9 575.4 578.7 591.5 595 602.5 603.5 603.9 617.2 619.3 619.4 620.6 631.2 638.1 637 638.7 648.2 655.1 655.4
255.6 250.1 250.3 247.6 251.1 260 273.3 282.1 292.9 305.2 320.6 336.6 353.1 371.8 394.2 413.9 436.8 458.3 478.4 510.9 545.5 575.9 604.1 620.7 635.7 669.3 694.2 713.9 729.6 742.8 735.9 710.4 680.1 647.8 594.1 563 514.9 486.5 454.6 447.1 440.5 437.1 436.8 431 426.2 407.2 380.9 361 339.9 324.1 311.5 298.3 287.2 269.9 252.8 243.2 233.5 221.9 210.7 199.4 189 175.8 163.9 151.8 135.1 121.8 115.1 105.5 96.8 91.3 82.1 71.7 64.4 57.4 43 34.1 24.8 14.7 11.5 7.5 9.6 9.8 9.2 9.7 11.2 15.4 20.5 22.2 23.1 24.3 28.1 34.5 42 48.4 52 59.3 61.9 70.7 78.7 89.1 102.9 113.6 121.4 128.7 136.2 143 147.8 152 155.7 162 172 184.1 196.8 210.2 218.1 229.7 243.6 256.9 266.4 274 278.2 282.4 294.7 320.9 336.7 337.3 332.9 329.6 328.7 343.2 351.4 357.4 361.8 361.1 362.9 367.2 369.8 374.5 378.9 385 398.8 407.1 412 426.8 434.5 445.7 459.1 473.5 492.2 508.3 533.3 557.6 566.9 577 594.8 594.2 590.1 578.3 568.2 557.8 554.6 554.9 553.7 550.6 553.1 563.6 576.4 569.1 564.4 565 564.6 565.1 570.2 574.9 575.8 575.2 576.7 578 574.8 578.9 577.2 576.8 574.6 574.2 581 590 596.8 598.1 600.7 612.8 617.8 614.8 617.2 627 632.1 636.7 641.9 652.3 657.8 659.9
243.2 239 236.5 237 238.1 245.4 255.6 267.6 273.7 284 299.3 311.2 323.2 338.5 358.1 380.7 403.6 425 455.6 488.2 521.1 551.6 579.7 599.2 624.4 651.6 674.1 692.7 711.2 727.8 727.2 707.7 680.7 652.2 626 570.5 529.8 501.8 473.4 463.7 458 459.7 450.3 441.9 431.7 414.2 391.5 359.3 336.5 321.4 310.9 298.7 286.5 269.9 252 237 231.6 221.3 209 194.1 183.9 173.3 162.7 151.7 135.6 119.3 113.7 105.2 96.1 90.2 80.2 69.2 62.3 52.9 41.2 32.3 24.1 18.5 11 6.9 9.5 9 8.5 8.3 10.6 13 19.4 22.3 23.6 28 31.1 38 47 49.2 56.4 60 70.2 76.4 85.2 96.9 107.6 115.3 124 135.5 141.2 146.4 152.4 157.6 161 168.3 178.9 191.8 204.7 219 228.4 236.6 248.1 256.5 262.8 264.5 265 279.4 292.6 309 328.1 331.9 331.8 329.1 328.6 339.3 346.7 350.8 360.4 364.4 371.9 377.6 378.5 387.7 399.1 396.8 401.9 413.4 425.1 439.4 440.8 447.9 468.5 497.1 514.3 527.4 541.2 557.7 579.1 588.8 585.9 583.3 578.4 569.3 565.1 558.4 556.3 554.9 550.5 546.3 543.1 548.3 554.8 552.8 555.3 557.4 556.2 557.1 560.8 565.1 572.2 575.8 575.3 573.8 573 572.3 572.5 573.3 572.6 573.9 577.4 586.5 595.6 598.8 603.6 610.2 614.5 615.2 620.9 636.1 640 641.8 653.9 663.6 663.9 668.3
232.8 228.9 226.9 224.7 225.3 233.8 244.3 254.4 258.9 266.4 278.2 286.4 297.7 311.9 330.3 350.9 374.7 395.9 430.8 463.8 496.3 525.9 555.5 582.3 609.7 634.4 655.1 673.7 691 708.6 717.2 705.6 684.4 661.8 640.5 608.8 558.8 516.9 501.3 497.6 491 490.5 481.8 455.9 438.8 415.6 389.4 357.2 336.6 322.3 308 292.3 279.2 265.3 248.1 234.8 226.6 218.2 209.9 191 179.1 170 160.3 148.9 135.3 120.2 113.9 103.9 95.1 88 77.3 65.8 56.1 44.6 37.1 29.3 22.3 16.9 7.8 9.1 9 8.6 8.3 8.4 8.9 11.5 16.8 21.4 25.7 33.6 37.8 40.9 46.2 52.1 58.3 64.9 73.6 80.5 91.2 102.8 113.2 120.1 128.7 138 145.1 151.1 159 163.3 166.1 174.8 186.6 200 213.3 225.2 235.6 241 247.5 251.5 253.3 252.4 262.7 273.3 281.9 301.2 311.3 319.2 326.6 327 328.9 334.4 341.6 351.7 362.9 373 378.5 384 391.1 397.4 405 405.6 410.5 414.7 422.6 434.4 443.6 453.5 477.6 515.1 525.2 530.6 536.8 549.7 571.2 575 572.8 565.2 555.8 554.3 554.7 555 554.5 553.4 550 541.5 535.9 537.6 539.9 543.1 543.3 546 548.3 554.2 559.2 566 574 576.8 577.4 576.7 574.8 570.8 568.8 569.5 573.6 574 576 582 596.2 604 609.3 615.5 618.2 616 622.9 650.7 658.4 652.5 660.5 666.5 672.9 671.9
223 221 220.1 217.2 219.5 227 233.3 241.4 245.8 248.4 257.4 264.5 274.5 287 303.5 323.2 342.2 371.4 402.2 436.8 473.1 502.4 535 562.3 585.5 608.9 632.3 655.8 671.3 686.1 699.8 702.5 690.6 673 651.6 617.3 581.7 547.1 530.5 526.5 520.4 522.9 518.4 480.5 447.9 419.9 392.8 359.6 338.9 321.9 306.7 289.1 281.5 264.1 247 236.2 220.9 214.9 206.7 188.2 172.8 165.4 156.5 146.9 134.3 118.8 112.5 102 94.4 86.1 72.5 61.7 50.5 41.6 35.1 27 20.7 12.4 7.1 8.5 8.5 8.4 8.4 8 8.6 11.2 15.9 22 30.1 39 39.1 43.6 52.3 58.2 62.9 71.4 77 86.1 96.3 108.1 120 125.7 136.3 143.2 152 157.8 166.3 170.4 172 176 190.4 200.2 212.6 220.7 231.9 234.7 239.6 243.1 243.4 250.5 260.1 268 275.1 292.1 302.3 315.8 325.2 328.1 331.3 334.8 345.4 360 368.5 375.3 381.2 391.9 397.8 406.2 413.6 416 420.7 425.1 430.3 429 439.6 454.2 475.2 504.4 510.4 520.2 527.5 533.6 539.7 549.2 553.3 553 541.7 541.9 547.7 551.7 555.9 558.2 548.8 537.6 533 532.8 534.2 530.8 531.3 535.7 545.7 555.3 557.1 567.4 568.3 570.9 572.1 572.4 567.9 567 566.1 568.2 572.3 573.5 576.2 584.1 592.7 599.9 611.9 622.5 623.4 618.6 628.7 654.1 665.9 666.5 669.3 673.1 675.3 676.8
211.2 215 212.2 211.8 214.9 218.4 222.1 228.2 230.5 228.9 236 242.8 251.8 263 280.7 298.5 319.7 346 374.8 404.1 445.8 476.1 507.6 536 559.2 585.6 610 635.5 649.5 660.2 676.1 692.2 695.3 684.5 662.1 633.8 607.6 576.5 564.4 560.1 555.2 566.5 540.9 498.4 457.1 426.6 396.4 365.7 342 323.6 309 289.1 281.3 267 247.6 232.7 222.1 212.4 203.3 187.1 171.6 158.4 149.1 143.2 131.7 117.7 110.5 99.3 92 80.7 69.6 59 52.6 39.7 32.7 24.7 17.8 5.5 7.7 7.8 7.7 7.7 7.7 7.6 8.6 12.8 16.6 22.6 30.5 33 36.5 48.8 52.6 66.3 70.6 75.2 80.7 91.2 102 113.4 123.8 132.3 142 150.7 156 164.4 171.7 177.7 178.1 183.6 190.3 197.6 205.5 214.4 220.6 226 232.3 236.5 245.3 246.1 255 258.8 275.4 293.8 309.5 315.5 322.2 331.2 335.4 341.3 350.2 363.7 368.2 377.6 387.4 401.6 411.6 420.9 435.9 436.9 437.7 437.9 440.3 437.6 439.5 448.2 467.9 485.6 494.6 503.8 512.2 517.2 517.7 522 525.6 526.7 525.9 527.1 535.1 547.6 553.8 551.9 545.9 534.6 530.8 522.7 519.7 518.4 521.5 529.2 539.4 547.7 553.4 560 563.7 567 569 570.8 565.9 561.8 566.4 569.8 573.2 573 580.2 586.8 596 601.6 616.1 625 625.7 623.5 640.6 654.7 666.7 670 675.2 689.8 687.3 682.4
203.7 204.6 206 207.8 211.6 211 210 211.8 213.5 212.6 216.2 222.9 231.5 246.1 264.1 281.1 300.3 322.3 348.2 378 414 444.5 480.5 505.7 529.7 562.6 589 610.4 622 632.8 653 673.2 687.7 689.6 674.2 654.1 631.9 617.1 610.5 598.1 604.4 581.9 543.4 503.2 466 432.3 402.3 376.9 352.4 328.1 311.1 292 281 268.8 248.6 236 221.2 206.2 195.5 179.3 167.2 155 141.1 134.5 124.6 115.8 109.1 98.8 89.3 80.2 66.4 57.5 50 36.9 28.8 21.6 12.7 6.2 7.5 7.5 7.3 6.7 6.5 6.5 10.5 15 17.5 25.9 32.2 34.5 43.8 50.4 60.6 70.7 76.4 78.3 86.5 97.8 106.6 118.8 129.6 138.6 146.9 153.2 159.9 168.2 176.1 181.5 185.4 190.9 192.9 199.6 201.8 209.4 214.4 219.4 233.2 238.4 243.8 246 245 257.3 270.8 297 315.1 320.3 322.7 329.1 337.2 347.2 359.5 366.7 382.7 393 404 411 429.3 440.9 446.9 448.6 454.3 457.1 447.6 447.9 445.2 444.5 460.5 468.3 477.5 486.3 495.4 504.2 506.6 504 504.4 505.6 509.9 515.2 528.2 535.3 543.6 547.7 540.8 531.9 524.8 517.7 512.1 513.9 517 524.5 529.6 538.9 551 557.9 563.7 569.6 566.5 560.8 558.9 558.7 564.8 570.4 573.9 576.3 587.5 596.5 599.1 605.7 619.3 626.5 623.6 631.5 644.7 657.8 666.3 671 679.1 695.6 695.3 685
192.3 192.7 194.6 201.3 207.1 205.5 200.6 200.2 202.1 201.2 201 209.9 221.6 236.3 249.6 263.1 280.1 300.9 327.7 354.8 380.9 411.9 448.6 472.3 501.8 540.6 570.6 589.2 593.2 613.6 634.6 657.4 678.5 687.2 683.4 674.9 667.8 652.7 632.5 615.1 599.1 570.3 536.6 501.6 467.1 435.1 405.6 382.4 356.9 331.9 314.3 294.7 278.6 270.2 249.9 233.3 220.6 201.9 183.5 172 163.1 151.2 137.9 125.5 122.2 113.3 106.4 95.1 87.3 76.8 64.2 56.7 46.7 36.1 26.6 17.5 8 6.8 7 7.1 7.1 7.1 6.5 5.8 9.6 16.4 22.5 28.4 36 42.7 47.2 57.5 66.7 74.2 81.3 82 92.8 100.5 110.2 122.1 134.5 145.1 150.6 155.5 164.3 175.2 181.1 185.3 191.1 193.8 195.3 195.2 205.1 205.6 212.2 219.5 230.5 238.5 242.8 240.5 244.5 259.1 273.9 293 313.5 320.8 326.6 335.2 343.8 357.4 370.5 376.4 384.1 392 404.7 419.5 437.3 451.4 455.7 461.7 468.8 467 462.6 454.8 448 449.1 456.1 462.5 469.1 476.7 483.6 488.9 491.1 492.5 495.4 499 500.4 504.5 510.3 519.9 532.1 536.7 533.9 525.7 519.8 513.2 508.8 507.4 507.8 513.1 520.5 544.6 552.6 555.7 561.1 566.9 560.9 558 557.4 558.8 564.7 570 577 583.7 591.8 598.8 605.4 608.9 617.4 622.4 624.2 638 648.2 654.6 665.1 671.9 683.3 690.1 690.6 680.6
183.4 184.9 189.4 195 198.2 197.9 193.9 193.2 193.2 193.4 193.7 200.5 212.9 224.4 236.7 248 262.9 279.8 304.8 330.2 355.2 383 411.7 441.6 474.8 511.1 540.3 550.2 565.1 592.6 622.6 645.9 664.5 677 679.4 673.6 664.6 649.3 626 605.6 586 554.3 524.4 496.3 464.9 436.1 406.5 381.7 358.6 338.1 317.3 297.5 277.8 271.7 254 232.9 217.5 204.6 182.6 166 156.7 145.9 134.7 123.1 114.8 106.2 101.3 91.6 82.3 67.8 61.6 54.9 43.7 34.2 24.7 13.8 4.9 6.3 6.5 6.6 6.7 6.7 6.8 10.3 13 19.3 24.2 30.1 38.9 49.9 56.9 61.9 69 78 81.3 83.4 93.9 102.1 115 127.5 139.4 146 152 160 169.7 178.9 183.2 189.9 190.4 185 194.8 202.8 199.6 210.1 213.8 215.5 220.1 231 239.7 240.3 247.1 258.4 273 292.1 308.4 319.7 337.4 344.2 355.2 363.7 379.4 389.5 392.4 396.4 404.8 414 432.6 443.1 458 468.5 469.4 466.9 463.8 457.5 452.2 457.2 460 460.9 463.7 470.7 476.6 476.2 479.4 486 485.6 489.5 491.4 496.5 504.1 510.2 525.7 521 520.4 517.8 515.4 510.4 505.9 501.8 501.3 504.6 522.2 537.1 541.3 548 555.5 553.5 553.9 557.1 553.1 558.7 562.1 567.7 578.5 588.7 596.1 600.8 602.6 612.5 619.6 621 629.4 642.1 650.1 654.7 665.2 680.5 684.2 678.4 676 670.9
180.1 181 184.5 186.5 189.5 190.1 189.3 188.2 187.8 188.2 187 192.8 206.4 215.2 224.1 235 246.6 260.7 283.4 306.8 331.5 357.1 383.1 415.1 447.4 483.8 506.5 509.5 541.4 580.9 615.6 637.5 653.2 664.8 669.4 665.8 658 642.1 617.7 590.8 566.1 538.6 513.8 489.2 461.5 434 405.7 381.5 357.5 338.7 319.7 301.9 279.4 272.7 251.8 233.7 218.7 203.9 183.6 161.9 151.5 141 131.3 120.2 105.6 98.5 96.7 88.8 78.8 67.9 58.8 52.9 40 31.5 21.4 11.7 5.1 6.1 6.2 6.2 6.1 6 7 15.2 18.9 23.6 30.7 39.9 51.9 59.2 62.1 65.6 72.9 79.3 80.2 87.4 94.8 106.7 120.3 133.7 142.4 149.5 155.5 163.7 173.2 180.3 184 181.2 164.5 165.9 193.4 197.5 208.3 214.3 217.2 220.7 228.9 236.7 242.2 247.5 249.9 260.6 279.5 290 310 322.8 334.5 344.8 362.8 372.1 384 400 406.8 407 404.9 410.1 421.9 433.1 447.6 457.7 466 470.6 470.8 461 459.2 461.1 459.7 464.1 462.3 462.3 466.3 469.1 476.4 479.6 480.2 482.7 484.3 496.7 498.3 499.6 514.6 507.1 506.2 510.7 507.4 504.6 498.6 495.4 496.1 496 508.6 526.1 527.7 542.1 552.1 546.9 547.1 546.5 554.2 560.4 563.6 570.8 579.2 591.8 600.7 602.8 601.6 616 618.5 621.1 632.7 646.8 653.2 659 666 674 673.2 666.5 660.4 657.4
176.4 175.2 174.7 179.1 182.8 181.4 179.9 181 180.9 178.6 179.6 186.3 197.8 205.5 213.5 223 232.1 243.7 264.7 287.5 310.9 335.2 360.7 389.4 420.3 448.3 461.8 498.2 536.1 576.7 607.4 629.6 646.9 658 661.7 656.9 646.3 630.2 605.3 575.3 549.3 523.8 502 482.2 454.8 428.7 402.6 376.9 352 335 320.8 305.8 281.8 268.5 251.2 235.4 220.8 202.2 184.5 168 149.7 138 127.1 115.7 104.8 89.4 89.1 86.9 74.5 67.8 55.9 47.9 38.2 28.6 20.1 8.9 4.5 5.7 5.7 6 4.4 8.9 9 17.3 22.2 29.7 38.3 48.4 58.5 64.4 67.7 69.3 74.3 78.9 82.6 91.9 100.9 111.3 126.4 140.5 146.2 152.8 159.1 168.8 176.3 177.8 163.9 155.1 180.7 193 196.2 203.8 209.9 212.8 217.3 226.2 233.6 243.9 252.1 260.2 267.9 275.1 285.8 295.1 309.8 321 328.1 348.6 361.8 366.6 371.7 380.1 392.8 405 407.7 410.9 419.3 430.7 444 453.9 460.5 464 466.1 472.5 466.3 466.7 466.7 467 466.1 465 466 468.8 471.8 475.4 472.2 475.3 479.5 495.7 493.5 492.7 497 498.7 498.7 500.8 499.6 495.2 493.1 489.2 488 491 499 508.9 518.6 534.6 539.5 539.1 537.4 547.6 550.9 561.9 567.3 572 583.6 593.4 597.9 599.4 601.8 605.4 610.5 618.6 638.5 646.8 651.8 662.8 670.6 669.9 663.2 653.5 643.7 640.7
173.1 172.5 170.8 172.9 174.5 174.6 173.2 171.8 172.9 172 173 179.2 190.3 196.6 202.7 211.7 219.9 231.8 249.5 271.1 293.4 315.7 340.8 365.4 387.9 408.9 456.6 498.9 531 565.5 594 619.1 637.7 649.8 653.9 647.7 632 613.5 590.3 564.8 536.4 510.1 490.8 471.9 446.9 422.6 398.9 374.1 349.8 332.6 319.7 305.3 284.7 267.8 251.8 233.8 221 203.9 181.5 169.4 148.8 137.3 124.5 112 103.6 89 83.8 80.3 76.7 66.1 52.2 44.7 35.5 26.9 17 6.6 4 5.3 4.7 8.5 11.6 11.5 12 19.9 25.5 36.2 43.1 53 61.9 68.2 72.1 73.9 76.3 80 88 98.5 105.3 117.7 131.7 143.4 149.7 156.9 164.3 173 175.7 161.8 153.9 183.8 190.8 198.4 201.5 205.2 208.2 213.6 226.5 237.7 244.2 257 265.3 269.3 276.7 285.5 295.3 310.6 327.5 334.1 337.7 344.7 350.5 354.5 360.4 370.1 382.1 397 407.5 414.1 418.7 430.4 442.9 452 456 463.5 468.7 472.4 481.1 490 486.3 478.2 470.1 471.1 467.5 466.8 473.2 471.3 470.7 473.5 476.3 484.6 485.7 484.4 482.7 486.7 493.8 490.6 489.2 486.1 486.7 482 479.3 490 497.9 501.7 509.4 518.6 524.4 530.8 540.4 549.8 551.5 562.9 569.8 576.5 586.2 589.9 590.2 591.7 594.6 596.8 602.5 614 639.7 656 658.1 665 680.5 677.3 662.7 648.1 632.5 630.1
172.2 171.4 168.8 166.9 165.9 165.3 165.5 164 165 167.6 168.2 171.2 181 188.2 193.9 200.7 209.3 221.7 238 255.7 274.8 297.3 320.9 344.4 365.1 400.1 439.1 479 507.2 535.2 575.6 600.5 624.3 641.3 645.4 639.4 623.1 599.4 576.2 554.8 528.8 503.3 478.7 460.9 438.9 415.4 391.3 369.7 348.9 332 316.8 301.6 283.9 265.2 246.7 229.7 219.8 205.1 183 162.8 149.7 132.4 118.3 110.9 104.2 89.5 73.1 74.9 72.4 62.2 50.6 38.8 31.5 22.5 15.6 6.3 3.9 4.2 5.7 8.7 13 18.9 16.1 22.2 30.2 41.1 47.4 56.2 64 70 74.2 76.4 78.3 81.2 91.5 101.7 108.3 124.2 137.2 148.1 154.1 161 165.2 166.8 156.2 152.1 173.4 183.1 189.5 195.8 199.5 207.8 210.7 219 236.6 251.1 263.5 265.1 267.9 274.4 284.1 294.8 309.4 320.9 335 339.8 346.7 352.5 356.2 364.7 369.7 372.6 388.7 402.2 408.4 415.6 424.4 434.7 445.9 450.8 458.6 463.3 466.6 477.3 491.8 500.3 498.6 496.4 483.3 483.3 480.3 470.8 474.1 470.5 469.4 468.3 468.4 473.5 477.3 474.4 476.8 480.8 486.4 478 473.5 475.2 475.9 474 474 483.3 490.4 494.1 499.6 508.1 517.1 531.6 540 550.8 558.4 568.4 578.8 583.1 591.9 594.2 587.5 579.3 585 594.2 599.6 617.9 632.3 643.3 654 665.3 678.2 678.6 656.4 638.7 620.7 613.1
169.2 170.9 167.1 165.2 159.7 156.5 154.2 154.4 156.2 158.7 162.9 167.3 174.4 183.2 187.7 193.4 200.9 211.7 226.7 243.1 261 280.6 301 325.7 350.9 380.4 412.1 444.3 477.1 514.6 540 574.2 612.7 630.7 635.8 632.7 614.2 591.5 566.8 544.5 520 496.1 469.8 449.1 429.8 407.7 385.9 364.7 344.5 328.3 314.5 297.4 278.7 257.3 239.8 223.7 215 197.8 181 161 145.8 130.2 114.7 108.5 102.6 88.6 74.9 70.2 66.9 58.5 48.9 37.1 27 18.2 11.5 4.2 3.5 3.8 4.9 6.5 11.1 20.9 21.2 28.1 34.9 44.2 52.6 58.6 64.9 70.8 75.5 78.2 79.4 86.5 95.4 104.8 117.4 127.7 140.3 149.9 155.8 163.3 164.1 156.5 141.4 160.9 169.5 178.1 184.6 193 195.9 204.6 212.3 226.1 246.4 260.4 272.7 274.6 276.1 279.4 292.6 305 323.2 335.4 336.4 339.8 346.4 356.4 367.8 374.6 379.2 378.9 390.3 401.4 407.7 414.9 421 430.2 446.1 454.8 457.5 471.7 478 488.9 498.2 501.2 507.8 501.9 491.9 490.4 484.4 476 471.9 468.1 470.4 469.8 467.5 466.5 469.6 469.6 474.5 475.7 473.7 471.5 465.4 469.4 471.4 470 470.4 475.8 478.9 487.8 497.7 509.6 519 530.5 533.5 542 561.5 576.8 586.4 587.3 597.6 592.9 581.9 575.5 582.4 591.3 601.9 625.6 633.3 638 640.3 654.2 654 647.9 638.9 621.4 603.7 582.2
171.9 167 165.5 161 157 150.9 148 149 150.6 150.1 156.8 162.9 172.3 179.5 183.1 188.5 195.2 203.3 217.1 232.5 249.4 264.9 284.9 309.7 333.9 359.7 388.9 419.7 448.8 482.8 528 565.2 596.4 619.6 629.2 627.1 608.5 582.8 561.3 537.5 513.5 490.5 465.8 444.9 422.8 400.8 379 360.4 340.6 324.5 310.1 291.5 272.4 249.7 233.1 221 208.3 193 178.8 158.4 145 127 110.3 104.9 98.9 88 75.8 66.3 63 55 46.1 35.7 25.3 16.7 9.3 5.2 4.8 5.1 5.1 5.3 7.6 21 26 31.8 37.8 48.8 55.7 61.8 66.8 72.7 76.8 78.7 83.1 90.3 99.4 111.9 122.8 132.8 144.4 152.4 160 165.3 160.6 149.9 142.5 153.8 152.4 162 182.3 193.3 201 210.7 221.9 232.9 249.4 260 274.7 282.7 289.1 294.3 298.5 310.4 326.4 336.7 341.2 348.5 356 368.6 379.7 386.5 395.4 394.2 392 405.1 410.9 414.2 421 431.9 439.6 452.6 460.2 470.9 481.6 496.4 508.1 512.9 511.4 503.7 494 490.6 488.6 479.7 476.8 468.1 466.5 466.5 464.3 466.6 467.8 466.9 466.9 464.9 462.8 461.5 457.6 462 465.6 463.5 466 471.2 481 493.2 501.6 513.4 519.1 527.6 529.2 534.8 551.1 577.2 590.2 593.6 593.2 586.4 576.4 576.1 584.7 587.9 608.4 632.4 636.9 636 637.1 637.3 628.9 617.1 608.1 595.9 577 554.8
172.7 170.8 167.8 162.9 154.5 146.4 143.9 143.1 144.5 147.1 150.2 158.9 168.9 174.9 178.2 184.1 190.3 197.8 209 222.9 236.1 252.1 269.8 292.5 317.4 341.6 368.7 397.7 426.7 458.5 502.1 531.7 566.5 604.3 618 618 600.9 576 553.5 531.7 509 485.1 460.7 440.3 417.7 393.2 374 354.2 335.8 320.3 301.7 283.6 265 243.4 227.4 217.7 202.9 186.3 169.9 155 142 123.4 109.3 99.3 93.7 84.5 73.8 59.9 59.3 51.7 42.9 34.2 21.7 14.2 8.1 3.6 3.3 4.4 4.9 5 11 22.5 31.9 37.3 42.1 51.2 59.2 66.4 71.1 74.5 76.8 82.7 89 94.2 105.1 116.1 127.5 139.5 150.2 158.3 166 162.7 155.6 133.6 150 153.6 159.1 164.4 184.8 200.3 210.2 222.5 235.1 243.8 254.1 259.8 276.5 289.6 295.5 302.2 305.9 311.8 330.3 339.5 357.5 375.8 384 395.5 406.1 404 406 410.2 406.4 406.2 408.9 415.7 436.7 440.7 445.3 456.1 471.4 489.2 493.6 512.4 523.2 532.3 523.5 509.5 517.1 523.2 511.5 494.9 482.2 473.5 464.9 459 460.7 469 469.8 464.9 460.8 457 455.8 451.5 450.8 455.2 456.6 456.6 460.6 465 473.5 504.9 507.3 509.4 518.2 525.1 526.6 530.3 546.1 570.6 576.4 582.9 590.4 578.6 569.2 572.8 579.1 584.8 614.5 630.5 635.5 630 626.5 621.9 614.7 600.2 584.5 563.3 543.9 526.5
172.1 169.6 166.7 163.8 156 148.3 141.1 139 139.2 140.6 145 155.7 164.6 172.4 173.5 179.9 185.9 191.6 200.1 211.3 225 240.2 255.7 274.4 298.9 322.9 346.7 375.9 403.9 433 471.6 506.9 542.7 577.8 610.4 608.3 591.1 568.3 544.8 525.4 505.5 480.9 456.9 436.3 414.4 390 369.8 347.5 330.4 314.3 296.4 279 257.9 236.7 219.6 208.8 195.3 180.2 164.7 150.6 137.7 117.2 106.1 92.7 88.9 78.6 70 58.9 48.7 47.2 40.1 29.4 17.8 11.6 5.6 3.1 3 4.2 4.4 5.4 16.8 30.1 40.1 42.9 46.9 52.6 62.8 68.4 70.8 75.4 81 87.7 93.5 99.6 110.1 121.1 136.6 145.5 154 161 164.5 149 130.1 157.2 160 166.9 167.3 171.2 179.5 202.8 217 230.9 243.6 254.3 258.6 262.5 277.1 289.3 296.3 308.1 312.2 317.9 328.8 344 357.7 373.3 387.1 417.1 418.5 412.8 408.6 411 412.7 416.9 421.7 437.7 449.3 448 454.7 476.6 486.5 494.7 498.3 507.9 518.3 522 526.8 517.9 532.3 543.5 531.3 511.9 493.8 477.9 466.7 459 453 462.3 463.9 459.4 456.7 452.7 448.2 444.6 445.3 449.9 448.7 443.9 453.7 461.1 471.3 491.9 500.3 511.7 525.8 524.6 525.1 530.7 542.3 562.1 564.5 570.4 574.3 576.2 571.3 572.4 578.6 587.3 619.1 622.3 620.5 611.7 605.6 597.9 588.9 580.1 565.4 544.4 519.5 509
173.2 168.9 165.3 162 156.9 149.1 141.3 136.8 137.3 138.3 143.4 153.8 161.6 163.1 168.6 175.5 180.9 186 193.2 203.1 216 228.2 241.2 259.5 281 304.2 327.4 354.6 382.1 412.4 446.5 480.2 516.1 553 587.4 597.4 585 563.2 539.1 516.5 499.9 475.9 453.5 431.9 410.2 387 365.4 344 326 308 291 272.4 250.1 230.9 214.3 198.6 186.4 172.9 157.7 145.3 131.4 113 105.7 92.5 83.5 73.5 66.7 56.6 42.3 39.8 33.4 25.9 13.6 6.3 3.2 2.9 3.1 3.8 4.4 6 21.7 36 45.3 49.6 50.1 55.6 62.7 67.2 72 79.2 87.2 93.8 99.1 105.7 117.2 129.1 145.8 150.2 159.7 163.1 154.9 133.3 151.5 162.5 167.2 173.9 177.6 180.6 183.3 196.9 216.2 236.9 252.7 260.6 263.2 264.5 270.7 283 295 309.7 319.2 324.6 334.8 353.7 364.9 377.4 396.2 422.8 432.2 426.6 416.2 413.7 428.7 430.7 430.4 436.8 444.9 455.3 467.5 487 492.2 497.6 501.8 508.6 512.5 512.9 517.1 515.5 539.3 552.2 538.5 515.8 499 481.5 467.8 457.5 451.6 450.4 457.3 456.6 454.4 448.9 443.7 440.8 440.1 443.9 442.4 443.6 453 460.2 469.9 484.8 503.2 515.4 516.8 516.3 519.4 532.9 538.9 549.2 554.5 562 560.8 565.9 570.5 568.2 568.7 587.6 608.7 608.5 600.2 594.7 585.7 574.3 561.7 547.5 535.1 521.6 503.6 494.4
180.1 172.6 167 162.3 155.5 148.3 142.5 136.8 135.8 137.5 141.3 149.1 154.2 158.3 164.2 171.2 175.3 180.3 187.2 196 207.4 217.2 228.3 244.6 263.1 285.6 310 333.9 361.3 392.9 424.9 454.8 492.8 523.2 561.9 585.6 577.4 555.9 531.6 510.6 494.6 468.3 447.6 426.3 404.4 381.9 359.7 338.3 319 300.6 282.7 263.1 242 223.4 207.6 191.7 173.9 165.8 152.5 139.9 126.4 111.1 104.3 92 76 67.2 65.2 55.7 43.6 31.5 29.9 19.6 10.4 4.4 3 2.9 3.5 4.1 4.7 6.3 30.3 40 47.7 52.4 52.2 57.3 62.8 68.7 76.8 85.7 93.3 98.8 104.8 112.9 123.6 136.5 148.2 154.6 163.6 162 143.3 138.2 155 164.7 174.8 178.8 183.9 185.7 196.1 207.5 220.1 232.9 260.9 267.1 269.6 274 276.7 283.3 301.3 321.6 334.2 339.8 352.7 366.7 374.8 394 416 434.3 440.4 435.4 427.5 424.9 432.4 447.2 444.3 449 464.9 483.2 484.5 499.8 504.8 511 512.5 501.7 499.1 499.1 499.1 507.9 542.5 548.3 529.9 516.3 500.1 482.4 467.2 460 454.8 447.1 447.3 450.5 448.8 444 440.2 437.7 436.3 437.8 439 441.2 451.4 460.4 471.3 483.1 498 505.7 508.6 510.7 514.7 521.7 532 540.8 544.9 548.6 550.7 559.9 560.3 553.8 555.7 573.3 590.1 593.2 586.8 576.4 567.1 552.1 535.1 520.8 509.7 500 491.3 476.4
191.2 182.1 172.7 166.9 160.7 151.1 142.9 136.7 134.4 136 139.6 144.3 152.7 155.1 159.4 166 169.2 173.7 181.4 189.6 200.3 208.2 217.7 230.2 246.1 267 291.8 315.8 343 372.4 403.2 433.5 464.2 498.6 536.5 569.3 572.9 550.7 524.7 504.1 488.6 463.3 441.8 419.7 398.5 378.5 356.2 332.7 311.3 290.8 269.7 251 230.8 216.2 198.2 185.1 168.1 155.9 146.7 134.5 120.4 107 99.2 88.1 75.9 63 60.5 52.9 42.8 29.1 22.4 14.9 5.9 3.3 3 3.1 3.8 4.2 4.6 15.9 35 45.6 50.5 50.6 55.3 58.9 65.6 71.8 81 90.5 97.7 103.5 111.3 118.1 129.2 143 153.3 161.1 163.4 156.3 133.2 144.2 157.2 167.2 178.9 182.5 185.1 189.1 207.1 212.9 228.7 230.6 251.3 268.6 276.7 286.3 291.1 299.5 319.7 341.4 361.7 367.6 369.6 372.4 377.3 392.3 416.5 436.4 447.7 453.5 446 438.7 452.3 455.2 456.8 467.8 482.8 484.9 492.1 501 509.3 508.2 503 499.1 499.1 499.1 499 513.4 528.3 527.7 521.9 510.9 495.9 482.8 466.6 463.4 460.9 456.7 448.8 443.2 443.2 441.1 438.2 433.6 430.6 429 430.4 436.1 445 455.3 472.8 481.6 490.8 497.8 505.2 507.7 511.2 524.4 527.5 531.3 536.6 539.4 541.9 549.1 550.1 538.5 544.2 551.3 562.6 572.9 579.1 564 549 530.7 517.7 504.2 490.8 482.5 473.9 463.9
205.1 191.5 179.8 172.8 165.5 156.2 144 137.1 133.6 135.3 137.5 141.5 149.8 151.6 154.9 159.7 163.3 167 174.5 183.3 192.5 200.1 208 219.5 232.2 248.4 271.5 298.8 323.2 350.3 383.9 413.5 444.7 474.3 509.8 546.3 558.4 540.1 517 498 478.4 457.2 434.9 412.1 391.3 373 352.5 331.2 310.3 287.6 262.4 238.1 221.3 205.9 190.7 177 162.5 147.9 139.3 127.4 113.4 102.7 92.9 84 75.2 60.5 53.1 48.6 38.8 29.5 18.6 7.9 3.7 3 2.5 2.9 3.6 4.3 4.4 15.8 33.9 45.2 48.3 50.4 56.6 62 70.1 76.1 89 97.8 103.2 110.2 115.4 125.4 138.6 148.5 155.4 160.4 158.8 135.6 142 146 158.3 167 178.5 184.2 186.8 191.8 209.4 218.7 232 240.7 249.7 263.8 282.4 290.7 299.3 319.4 346.7 366.6 374.4 376.3 377.3 379.2 384.1 400.9 425.6 439.8 450.5 457.7 465.2 455.2 459.6 465 468 474 478.3 478.4 479.1 488.1 493.8 497.9 505.3 499 498.8 500.5 506.6 509.7 514.1 512.6 507.9 496.5 491 478.4 468 465 462.5 458.4 455.7 447.2 440.7 439.4 437.9 431 425.3 422.3 425.8 432.9 443.5 456.4 471.7 490.1 501 504 503.4 507.5 509.7 517.3 519.4 521.3 532.7 532.3 532.1 535.2 534.5 523.2 529 536.8 544.2 540.1 544.2 540.2 535.8 519.8 503.2 486.8 472 463.5 453.9 446.8
220.5 202.6 191.1 179.8 170.3 158 147.7 138.2 134.4 133.7 130 137.8 143.7 147.6 149.9 152.9 156.9 162.1 167.6 174.9 183.7 191.5 199.1 208.5 220.4 235.5 253.2 276.7 303.8 331.1 360.7 393.2 422.7 453.1 484.3 522.6 538.4 525 509.8 493 467.9 448.1 427.7 405.9 384 367.1 347.5 327.2 304.8 282.9 257.8 239.1 217.2 197.6 183 170 156.6 142.7 132.4 120.3 106 96.9 89.4 79.5 71.8 60 47.1 39.8 33.7 27.2 11.9 4.7 4.6 4.3 2.6 2.7 3.3 3.9 4.8 20.6 33.1 42.5 46.2 51.1 58.2 64.1 72.4 82.9 94.4 106 108.7 117.2 120.9 128.1 144.1 153.5 154.5 157.6 151.7 122.7 144 154.7 164 167.4 174.5 182.4 190.5 200.1 214.2 226 242.3 251 260.2 272.1 291 303.7 322.8 347.3 373 383.6 388.4 391.4 388 385.2 392.7 421.1 447.4 453.7 457.5 465.7 471.8 470.9 470.4 466.9 470 479.2 479.4 486.3 485.1 490.3 499.9 509.2 507.7 507.1 505.3 500.7 500.5 500.7 503.8 505.4 498.1 484.7 479.9 476.4 467.3 466 462 453.6 448.9 445.8 443.5 438.6 435.2 427.9 422.9 422.5 425.4 435.2 446.7 464.9 486 504.8 512.6 509.7 506.9 521.2 509.2 511.6 510.6 514.6 519.6 522.8 521 517.2 510.9 506.8 516.9 523.7 526.2 522.2 517.8 518.9 516.1 508.2 493.2 472.7 459.1 451.8 441.2 428.5
232.9 218 201.8 188 176.4 161.4 150.6 141.4 136.5 134.6 128.8 134.6 137.5 141.6 144.7 146.5 151.3 156.9 161.4 167.5 176.5 183 190.5 200.1 209.8 222 238.3 257.7 281.9 308.5 338.1 368.8 402.1 431.3 461.3 496.8 516.9 511.6 497 482 459.7 440.4 420.2 398.9 378.2 359.4 341.3 322.2 299.7 276.8 254.3 236.3 217 198.4 179.2 162.3 149.4 135.4 122.8 109.5 100.2 93.7 86.9 77.4 71 58.6 45.1 35.1 28.1 21.6 6.4 4 4.4 4.4 2.3 3.3 3.1 3.7 6.4 21.6 32 40.9 45 50.5 55.1 61 75.1 94.5 100.9 111.7 117.3 118.9 124.2 131.4 147.9 152.3 150.3 149.2 109.8 139.9 147 156.6 161.8 168.5 179.3 188.8 199.2 211.6 218.9 235.7 253.8 262.7 269.6 282 300.4 318.3 344.2 367.1 378.8 387.5 395 400.6 396.1 399 421.7 446.7 467.1 474.6 476.1 476.3 476.8 474.5 476.4 476.7 487.2 491 493.1 495 496.6 505.3 509.8 512.1 508.9 505.6 500.5 497.4 492.3 487.7 495.9 493.7 485.3 479.7 472 466.6 461.8 463.9 457.9 446.8 442.6 443 441.3 439.6 433.7 427.5 423 420.7 422.3 435.7 452.8 481.4 499 507.3 509.7 510.1 503.9 514.6 508 502.9 502.5 507.5 511.3 511.7 512.5 506.5 497.2 491.1 506.3 516.8 513.3 506.3 504.8 499.9 502.3 491.9 473.3 459.7 445.7 439.8 431.5 416.9
248.3 232.8 212.2 198.4 180.8 169.9 156.5 144.5 137.1 135.2 131.7 132.4 130.4 131.9 139.2 142.8 145.9 150.2 156.2 162.6 170.4 177.4 182.4 191 201.3 210.4 223.7 241.9 262.1 285.8 315.3 346.7 378.4 408.7 441.5 472.2 496.5 495.2 482.9 471.6 449 430.5 411.4 391.4 372.5 354.1 334.1 318 295.9 272.3 251.4 233.2 214.4 196.4 177.6 158.4 143.5 130.1 119.5 103 92.4 89.1 86.1 75.4 70.4 57.6 43 30.4 22.6 15.7 3.6 3.6 4.2 3.9 2.5 2.2 2 2.8 12.6 23.7 34.8 43.7 50.6 55.4 62.8 71 87.9 99.8 108.5 114.6 121.1 122.7 125.9 136.9 150.6 145.9 143.6 121.7 116.8 133.9 142.9 150.8 158.1 168.8 184.1 194.5 206 222.1 226.3 246.4 266.4 275.7 279.6 295 316 336.5 362 381.6 387.1 389 393.6 398.6 407.1 425.5 441.7 458.4 481.1 482 485.2 484.9 485.2 485 485.3 488.1 498.2 500 500.5 496.2 495.4 494.3 491.6 497.6 502.3 501.4 499.1 491.1 486.9 480.4 490.2 486.7 480.5 471.2 462.7 457.1 453.9 457.9 448.9 438.6 436.6 440.3 436.8 434.7 431.9 426.9 422.7 419.5 419.5 439.6 454.8 489.7 501.2 502.1 501.5 497.7 496.3 502.1 495.8 495.7 501.2 503.5 502.8 501.3 499.7 495 489.6 471.4 485.5 492.1 493.9 499.8 495.1 491.3 481.6 472 457.8 442.9 426.5 417.2 410.7 399
264.9 244.3 222.4 201.9 188.4 178.7 166.7 151.3 140.5 135.6 131.4 128.7 128.7 128.7 132.3 138 141 144.8 151 156.8 164.3 170 175.5 181.8 190.4 199.1 210 225.2 244.4 263.8 290.6 322.8 350.8 381 417.5 450.6 474.1 475.9 471.8 461.1 439.5 423.2 403.6 384.5 367.1 347.5 327.5 314.1 288.5 265.7 249.3 227.2 208.6 192.3 173.8 155.8 137.8 124.2 111.9 101.4 90.4 84.2 80.5 71.3 68.4 56.1 40.3 26.5 15.4 5.5 3.4 3.8 4 3.6 2.7 2.2 2.4 1.8 17.3 29.5 39.6 48.9 54.9 62.9 72.4 81.8 98.1 108.8 116.5 116.5 121.3 123.2 125.6 137.6 137.6 124.1 103.4 129.4 142 141.3 144.4 150.5 159.7 169.3 183.5 194.4 208.3 224.7 236.9 254.3 272.7 283 290.7 306.9 328.6 355.5 376.2 403.4 414.7 416.3 411.7 408.4 416.4 429.5 440.2 460 480.9 481.8 485.6 492 496.5 492.6 490.4 491.9 493.2 497.8 495.6 493.6 487.5 482.7 482.8 485.4 492.8 490.3 491.5 481.5 477.4 469 477.7 478.1 467.6 460 453.5 448.3 441.6 442.1 437.9 430.7 430.2 438.1 431.6 432.9 432 426.8 421.4 416.5 417.8 429.4 448.9 471.5 493.7 495.7 493.2 484.5 488.1 489.5 485.1 489.4 502.1 498 497.1 495.9 492.2 483.3 469.6 453.1 463.9 467.2 479.6 488 476.9 472.5 467.6 454.3 437.3 425.6 413.4 402.7 391.5 384.5
279.5 255.9 235.4 216 200.8 184.5 172.8 156.6 141.1 136 131.6 128.7 128.7 128.7 128.7 132.7 137.1 139.9 145.3 151.1 156.5 161.5 167.8 173.7 178.5 186.9 197.3 212.9 228.8 245 267.6 296.4 324.8 355.7 386.1 425.7 453.4 460.2 459.1 450.4 430.8 413.5 395 376.6 359.6 342.1 322.6 302.8 280.8 262.4 244.5 222.8 204.9 187 168.5 153.2 135.7 119.3 105 97.5 87.5 78.7 70.1 68.1 64.5 53.5 39.4 27 7.7 2.7 3.5 3.4 3.4 3.4 2.6 2 2 5.3 23.4 40.9 46.1 51.6 58.4 67.8 75.4 84.9 99.6 114.1 116.1 115 122.4 120.7 125.3 129.1 109.8 117.3 131.8 140.7 152.1 158 156.4 156.6 161.8 168.9 181.4 193.3 212.9 228.5 254.2 272.7 277.6 287.1 303.4 321.1 342.4 363.2 387 405.8 417 424.8 420.6 418 425 432.8 439.6 453.8 468.9 482.6 491.3 493.5 496.6 494.4 496.1 496.3 494.7 494.9 484.7 474.9 478.4 473.8 469.2 474.5 478.5 479.2 473.2 470.3 465.5 457.2 461.1 458.1 452.9 450.3 442.7 440.7 431.4 426.5 424.8 420.2 424.9 425.8 426 431.9 426.9 423.8 420.2 414 415 420.7 432 437.5 470.7 482.7 480.2 475 478.9 477.7 474.8 479 489.4 491.3 491 491.8 482.8 467.8 452.7 439 442.6 448.1 461.8 460.6 452 446.8 439.3 427 415.9 409.9 401.9 393.4 379.9 375.3
287.7 272.6 252.6 230.8 211.9 192.9 179 161.9 148.6 138.8 132.7 128.7 128.7 128.7 128.7 128.7 132.2 135.6 140.1 146.2 151.7 155 159.2 164.3 169.7 178.6 187.8 199.4 214.5 229.2 248.7 273.7 299.7 326.1 360.7 390.2 424.5 443.8 445.3 435.2 419.1 403.4 385.2 367.5 353.8 336.1 317.3 296.6 273 256.3 237.5 219.6 201.7 182.5 163.2 148.1 133.3 115.8 100.1 91.3 82.3 74.4 63 64.4 58.8 50.1 37.8 22.8 -2.2 -2.2 2.9 2.9 2.4 3.1 2.5 1.9 2.7 13 35.2 50.8 54.4 56.4 61.5 67.3 75.8 84 98.8 108.5 109.3 112.9 114 118.2 116.8 98.6 118.6 128.7 134.6 147.6 166.4 168.6 167.8 167.9 167.6 173.4 180.6 197.1 219.5 239.8 268.7 287.8 295.8 304.1 316.2 331.4 358.9 382 390.8 393.7 410.7 424.5 433.8 428.3 430.4 436.1 443.7 457.9 471.5 478 481.7 490.7 492.7 493.5 498.8 497.8 491.9 485.6 474.2 470.4 466 465.1 458.3 464.2 466.2 466.9 458.5 456.5 452.9 449.3 447.1 446.3 440.9 438.3 432.5 432 423 414.6 407.2 407.7 412.6 416.9 421.6 425.6 423.3 418 413.5 414.4 418.8 419.2 418.3 421.7 438.7 463.8 463.6 460.1 466.6 470.5 468.2 470.6 482.3 482.7 481.8 487.3 469.2 453.4 436.9 427.9 428.1 431.1 431.3 433.3 428.4 418 410.6 404 400.6 393.5 388.6 381.9 370.1 358
298.4 286.2 269.3 248 227.5 204.6 187.1 171.9 156.2 143.3 134.9 128.7 128.7 128.7 128.7 128.7 129 132.2 136.3 141.5 147.5 150.3 153.4 159.1 165.2 174.1 182.6 190.8 201.4 213.7 229.9 250 275.7 300 326.4 361.2 390.5 415.5 424.9 417.3 407.3 390.9 374.4 359.1 343.6 329.9 310.5 289.9 268.7 250.6 234 213.2 197.9 178.9 159.7 143.4 128.2 111.4 93.5 83.9 79.6 71.4 60.3 60.4 54.3 46.8 34 21.2 -2.2 -2.2 2.5 0 1.5 2.6 2 1.7 4.9 23.9 44.6 56.3 59.2 61.7 64.4 68.4 75.1 86.1 98.3 102 102.8 104.5 107.2 103.4 100.3 112.8 121 130.1 140.8 157.3 170 174.1 175.6 176.5 178 184.8 188.1 200.1 223.1 245 271.9 298.7 317.2 318.1 330.3 338.1 363.1 382.9 389.4 396 408.4 421.7 440.9 440.3 436.1 443.8 456.5 466.2 473.2 475.5 479.2 483 493.5 491.3 499.7 500 488.1 472.7 469.7 468.8 461 454.2 449.5 452 450.6 448.2 446.6 444.7 443.8 440.3 436.7 436.5 429.6 428 425 422.8 412.7 403.7 396.3 393.3 401 412.6 418.6 411.9 409.8 406.3 414.7 420.4 426.1 428 418 412.5 416.4 437.8 444 441.9 449.6 454.2 457.6 462.5 470.4 476.7 477.8 478.5 456.5 440.6 426.6 420.1 418 415 413.1 413.7 408.7 398.4 384.6 380.9 382.8 376.7 367.5 371.5 357.2 344
308.7 294.7 279.7 262 241.5 218 195.3 184.6 164.7 148.8 136.3 128.7 128.7 128.7 128.7 128.7 128.7 128.7 133.3 138.3 143.6 147.6 151.2 156.1 161.7 170.2 178.7 187.4 196.5 206.5 218.4 236.7 255.7 278.4 302 329 356.2 388.1 403.6 402.3 393.6 381.8 366 350.4 336.9 320.4 302 281.7 262.7 246.3 232.8 211.2 191.5 173.8 156.5 139.4 122.1 104.9 87.6 77.8 74 66.8 57.9 57.7 49.6 41.4 30 16.2 -2.2 -2.2 2.9 2.8 2.1 2.3 3.2 2.7 6.5 31.9 53.3 60.7 64.8 66.2 67.3 69.7 76.6 86.3 92.7 93.9 96.9 98.5 89.7 98.4 108.1 113.4 119.8 129.8 148.7 164.5 170.1 176.9 183.3 183.7 189.7 193.2 195.8 206.4 225.9 247.1 270 307.2 322.3 327.7 335.8 344.3 363.3 380.5 390.4 402.8 407.5 420.5 439.1 450.3 459.9 470.8 482 488.2 487.7 477.8 479.2 484 494 491.7 490 490.8 484.3 475.6 475.6 477.3 466.5 451.5 445.7 440.7 437.7 437.2 436.1 437.2 431.3 428.8 425.8 420.4 416.9 417.2 418.6 412.3 401.8 393.5 387.6 382.8 392.8 402 402.3 399.9 402.5 410.3 425.6 432.7 433.9 429.7 420.7 409.7 406.5 417.9 426.8 430.8 436.2 439.3 443.8 449.1 456.8 470.2 475.7 465.6 445.9 432.5 424.4 417.5 409 403.7 399.2 402 394.3 384 368.9 354.6 354.2 351.8 348.6 361.7 351.2 333.6
323.1 309.4 296.5 277.8 251.8 225.2 203.1 190.4 172.2 152.5 138.8 129.9 128.7 128.7 128.7 128.7 128.7 128.7 128.7 135.9 141.8 145 149 154.5 159.4 167.4 174.2 181.7 189.8 200.4 211.6 226.1 240.5 256.3 279.1 303.7 327.9 354.7 380.9 388.4 382.1 371.1 357.6 343.9 329.7 311.7 294.5 275.4 257.9 242 229.7 206.1 184.9 170.3 151.3 132.2 116.5 100.9 83.4 74.1 69.3 61 55.8 49.1 42.4 37.4 24.7 11.2 -2.2 -2.2 -2.2 3.4 3 3.3 3.9 4 11.4 34.7 55.5 64.6 69.3 69.3 69.4 70.6 78.6 84.5 91.9 96.5 97 92.5 97.4 108.4 112 117.9 125.6 139.3 157 168.9 176.2 183 191.5 193.4 204.6 204.2 209.4 214.7 234.5 251.9 270.9 302.7 317.9 339.3 339.9 354 366 384.2 402.9 417 419.9 423.7 432 446 465.4 479.3 486.3 493.3 497.1 488.6 481 480.3 488.7 498.4 492.7 489.1 483.3 477.7 474.1 473.1 474.5 456.3 443.8 436.7 429.7 426.1 424.2 422.6 415.2 412.1 407.8 405.9 403.5 408.9 414.5 406.8 392.5 381.6 377.4 374 385.1 390.9 388.9 399.4 408.1 417.3 434.1 434.1 434.1 423.9 416.1 407.1 404.2 404.1 408.1 415.5 425.9 424.1 421.7 427.6 447 460.7 466.9 451.2 436.7 424.2 418.2 419.2 406.6 394.2 383.2 376.1 375.6 364.8 349.9 335.7 329.5 326.6 332.5 333.9 333.6 326.2
328.9 321 309.3 289.8 265 234.9 209.9 194 177.8 158.5 144.8 134.3 128.7 128.7 128.7 128.7 128.7 128.7 128.7 133 138.5 143.3 148 152.9 158.6 165.4 170.7 177.7 184.2 193.3 202.3 214.9 228.2 237.3 256.4 278.5 302.1 327.1 352.9 369.3 368.1 358.3 346.8 334.7 320.3 302.5 287.2 269.2 253.7 237.4 218.2 199.3 177.9 165.9 150.9 129.8 112.8 96.2 79 69.3 63.5 56.5 53 45.8 37.3 30.2 17.7 7.9 -2.2 -2.2 -2.2 4.3 3.8 4.2 4.6 5.4 17.5 35.6 55.9 63.2 72 68.6 64.3 62.8 77.8 92.4 94.3 91.9 86 96.8 105.3 111.3 115.8 125.6 134.4 151 164.1 176.3 182.2 187.4 191 213.3 215.6 218.9 224.6 226.5 239.6 254.5 267.7 297.2 320.6 332.9 342.6 357.3 369.8 390.4 407.7 418.2 423.7 426.8 430.2 431.7 443.7 470.3 480.3 485.7 494.7 490.7 481.6 479.1 485.7 489.7 496.7 495.2 495.4 492 485.1 473.3 464.5 453.3 438.6 430.2 424.8 416.7 410 403.5 400.8 400.8 394.9 388.9 391.7 399.5 399.5 391 381.6 373.7 366 364.6 374.8 383.9 393.7 401 408.9 424.7 431.1 434.7 435.2 425.5 415.5 403.9 400.6 394.4 390.6 395 403.6 404.7 404.9 415.2 431.7 444.7 453.7 437.7 422.6 415.1 414 405.8 395 381.6 368.6 355.2 349.3 341.2 328.7 315.1 304.7 308.8 314.7 312.2 310.8 307.1
332.8 323.7 314.1 300.8 279 247.7 217.8 201 184.3 167.6 151.9 137.7 128.7 128.7 128.7 128.7 128.7 128.7 128.7 128.7 136.3 141.6 146.2 150.1 156 162.1 165.6 173.8 179.1 185.2 191.1 200 214 226.6 240.1 256.5 278.5 302.2 327.6 346 348.5 344.6 334.7 324.8 309.9 294.7 279.4 262.2 247.1 233 210.7 190 173.8 162.8 149.3 130 110.3 92.2 76.6 66.9 60.9 53.2 49.4 40.6 31.3 23.5 10.4 -2.2 -2.2 0.9 3.7 5 4.8 4.9 5.3 7.3 21.3 38.4 55.6 59.2 59.7 56.6 48.1 66 62.1 76.5 78.4 70.7 86.7 101.3 107.8 113.5 122.5 135 141.7 162.8 174.3 184.5 189.4 191.5 205.1 218.7 223.2 233.3 238.4 236.9 247.8 262.2 283.6 316.3 331.8 335.2 352.2 367.6 381.7 397.9 417.1 420.6 427.1 435.8 431.9 429.6 433.4 446.8 466.7 470.2 475.8 481.5 473 478.9 481.1 485.6 492.4 495.6 494.2 490.6 484.6 468.8 464.8 456.3 441.1 424.6 415.6 405.3 398 396.7 390.8 385.1 377.9 375.5 378.1 384.9 388.3 377.5 371.3 362.1 352.8 351 352.8 384.5 400.5 402 405.3 420.3 428.4 428.9 426.1 426.4 414 401.2 392.9 388.4 383.1 381.6 383.3 387.9 394.4 404.9 414.8 426.6 436.6 426.3 412.6 407.4 413.1 403.2 384.6 369.1 353.6 340 325.8 323.3 307.9 293.7 282.9 284.2 287.9 291.2 291.7 290
355.2 335.7 320.4 308.9 290.1 264.3 234.7 209.3 192.8 175.8 159.1 144 131.9 128.7 128.7 128.7 128.7 128.7 128.7 128.7 134.5 141.3 142.4 146.1 153.3 156.7 162.6 170 173.3 177.6 183.6 187.9 196.1 208 220.1 235.5 256.1 279.5 303.4 323.7 328.5 326.5 324.1 311.2 298 287.4 272.7 254.8 241.2 228.4 206.3 184.9 168.5 155.7 143.3 124.8 107.3 88.6 73.4 64.1 56.6 51.9 42.7 33.9 23.5 10.4 -2.2 -2.2 -2.2 2.1 5.1 5.2 5.1 5.3 6.3 10.2 25.6 39.9 51.7 46.7 44.5 54.2 67.7 70.7 76.3 63.9 76.8 86.1 96 105.5 110.2 117.1 129.1 139.4 149.1 168.1 182.8 188.5 192.5 200.1 219.1 223.2 230.7 242 245.7 247.1 254.8 269.6 296.3 328.5 342.8 349.1 366.2 384.1 395 405.5 426.5 428.6 431.5 442.4 441.6 434.6 438.3 439.9 441.8 452.4 458.5 463.6 460.7 468.4 469 469.5 477.5 482.9 483.4 478.3 468.1 465.9 462.7 454.3 444.1 431.3 416.5 402.9 398.2 391.7 383.3 373.2 365.5 364.4 365.4 368.4 368.4 366 358.2 349.7 340.7 345.3 353.6 375.8 392.4 392.1 402.3 405.9 413.4 413 417 416.4 407.5 396.4 384.9 379 373.6 373.3 368.7 373.4 379.4 388.2 396.5 417.7 428 416.2 403.4 411 408 390.9 371.2 359.8 341.6 325.1 305.3 285.3 282.9 273.4 264.7 259.6 263.1 268.9 274.3 271.6
374.5 349.1 332.5 317.4 302.7 282.5 255 221.6 200.8 181.7 165.6 149.1 139 128.7 128.7 128.7 128.7 128.7 128.7 128.7 132.4 140.5 140.2 143.8 150.8 154.6 161.5 166.5 170.1 171.4 176.2 179.9 188.4 196.9 205.7 217.2 233.9 256.3 280.3 301.1 310 314.2 309.2 298.5 288.5 278.9 268.7 247.7 233.8 231 202.5 181.2 161.6 147 134.2 119 103.7 85.1 70.5 59.6 51.6 45.6 38.9 29.7 16.1 8.5 -2.2 -2.2 2.5 2.9 5.3 5.1 5.1 5.8 6.7 13.9 25.5 16.4 32 48.8 63.9 60.2 64.8 69.3 80.2 93.5 87.1 90.5 101.9 111.3 112 117.8 128.2 138.9 158.6 173.3 185.9 188.7 197 205.7 219.3 227.1 237.9 246.6 251.2 252.4 261.6 279.1 305 339.1 359.6 372.9 382.1 417.2 412.9 414.9 427.2 431.8 436.4 447.2 448.6 441.4 441.1 445.6 436.4 434.3 440.5 444.9 450.9 451.4 451.8 452.3 451.8 457.4 464.3 466.1 458.4 455.2 452.3 447.2 439.4 427.7 420.4 402.5 393 390.7 385.3 374.7 367.1 358.9 353.6 356.5 352.5 352 345 337.9 333.4 333.2 344.9 363.6 377.1 381.9 393.6 400.2 401 397.5 396.7 400.1 393.1 388.5 377 366.6 365.8 360.2 358.9 359.7 365.4 375.8 385 412 420.5 404 399 405.7 396.1 370.6 352.6 338.9 320.8 304.5 290.3 273.9 262.6 258.3 251.5 244.9 242.2 243.7 245.4 247.2
400.6 370.3 346.5 327.2 319.3 302 270.1 235.7 211.1 193 174.3 157.4 147.8 137.1 128.7 128.7 128.7 128.7 128.7 128.7 128.7 135.2 137.2 140.7 147.9 154.1 159.2 163.8 169 169.6 170.6 173.9 181.4 190.5 198 204.7 217.1 234 257 280.6 295.4 298.6 293.1 288.6 281.4 273.5 261.4 243 227.2 226.6 195.1 176.6 151.5 138.6 127.5 112.4 99.2 82.5 68.1 55 46.3 38.2 31.5 23.4 16.6 6.3 -2.2 -2.2 2.8 3.9 5.1 5.4 5.6 7.1 8.8 11.1 21 37.9 47.3 61.7 67.2 61 66.4 71.8 84.6 92.9 88.5 91.7 105.3 115.3 115.1 117.7 128.8 142.5 168 179.3 183.1 191.6 210.8 213.7 222.8 232 241.9 249.4 257.6 259.4 269.7 288.8 321.2 360.7 379.7 389.6 392.9 420.5 423.8 425.8 430.3 432.1 434.2 446.9 449.6 442.2 435.5 439.4 434.9 428.6 424.2 433.9 440 437.5 435.9 437 440.5 447.3 449.4 450.2 450.5 443.3 442.2 437.4 432.4 419.5 407.4 399.4 389.1 377.5 373.4 369.3 362.9 357.2 353.6 346.6 344.3 341.7 333.8 329.6 326.3 333.8 339.4 342.5 352 363.4 377.9 378.4 381.8 378.8 376.1 378.1 375.3 372.5 369.3 355.1 351.4 348.1 349.7 357.1 358.8 368.4 386.2 409.1 409.6 387 389.9 382.9 369.5 354 341.7 328.7 309.1 291.2 275.3 263.6 253.3 239.2 234 231.7 231.6 230.9 227.2 225.4
434.6 400.5 368.4 345.9 331.2 320.9 281.2 243.9 219.4 204.5 182.4 163.6 152.2 145.3 133.4 128.7 128.7 128.7 128.7 128.7 128.7 129.6 135.3 138 145.5 151.5 156.4 161.1 166 166.7 167.2 169.1 173.3 180.3 188.5 196.9 204.5 217.4 237.2 259.2 276.4 279.7 279.1 278.8 270.6 260.8 250.1 236.1 222.3 212.5 189.3 171.3 149.1 131.6 121.1 106.9 94.9 79.4 66.1 50.4 41.2 33.8 23 18.1 8.8 3.1 -2.2 2.6 3.4 4.1 4.6 5.2 5.9 6.7 8.2 13.7 25.3 38.1 53 66.6 65.9 65.1 68 74 84.4 91.3 89.3 95.7 111.4 121.1 119.6 119.8 127.3 145.9 169.2 177.2 179.4 195.2 216.3 218.1 224 239.8 243.6 250.7 259.9 266.7 280.4 299.1 334.1 367.6 386.3 396.4 398.6 424.2 429.1 428.7 435.8 435.9 434.5 443.5 449.3 449.3 437.5 430.5 424.4 419.8 421.7 420.5 425.1 422.8 424.5 424.1 428.6 433.3 434.5 432.2 427 425.4 430 425.5 421.2 409.5 399 388 382 370.9 365 353.7 352.9 352.1 349 343.9 341.6 335.6 327.6 322.9 323.4 329.3 333.9 333.6 337.7 346.5 356.6 361.2 357.1 359.7 355.5 360.3 364.4 355.9 349.9 338.9 338.8 339 343.2 347.5 352.6 370.7 391.1 392 385.3 370.6 366.3 360.9 353.5 337.4 323.8 314.6 297.5 279.1 265.3 255.2 247 235.2 221.4 224.3 225.2 221.9 214.7 209.5
497.3 438 399.4 367.1 345.6 330.6 291.9 258.1 228.2 209.6 192.2 170.8 159.1 152.4 141.3 128.7 128.7 128.7 128.7 128.7 128.7 129.8 134.5 137.9 142 148.3 152.7 157.5 161.6 163.3 165.2 165.3 167.3 170.2 175.3 181.5 188.5 201.4 217.5 235.1 254.4 262.9 265.9 262.7 258 250.8 237.6 225.6 217.1 200.5 181.4 164.6 145.6 125.7 114.6 103.4 89.5 77.7 62.1 47.3 35.5 27.2 19.3 10.7 -2.2 -2.2 -2.2 2.7 3.5 4 4.6 5.1 5.8 6.7 7.5 16.6 27.8 42.6 59.3 66.4 64.1 64.6 69.8 76.4 83.3 92.2 91.4 103.8 119.8 123.2 119.9 120.7 128.1 144.5 161.3 170.1 181.8 198.1 209.3 213.9 223.3 239.6 244.9 255.7 264.3 275 293.3 316.4 356.1 374.2 385 399 407.7 430.1 435.7 434.9 434.8 438.7 441.3 445.3 452.8 453.1 438.3 423.6 413.6 412.2 417.7 423.5 418.6 418.8 419 414.2 416.4 422.6 424.1 422.7 415.4 413.8 419.3 418.3 409 400.8 390 375.8 370.5 364.4 355.9 347.7 341.7 340.5 340.4 337.5 335.9 334.9 328.1 321.4 324.5 322.8 323.8 325.7 327.7 330.4 335.5 338.2 338.4 341.4 339.1 339.2 341.9 336.1 329.3 324.1 325.1 332 337.9 339.3 347.7 364.2 376.4 364.6 356.6 347.7 346.7 346.1 342.7 325.6 311.5 295.5 281.2 264.1 252.4 242.8 229.7 220.1 213.3 213 211.5 208.5 202.4 196.4
572.4 510.6 455.4 400 363.5 337.8 300.8 267.6 238.6 215.3 201.1 183 168.2 157.1 152.4 141.3 131.2 128.7 128.7 128.7 128.7 128.7 135.3 136.4 137.7 142.9 148.5 154 158.2 160.6 160.8 161.1 162.7 163.1 165.8 169.8 175.8 186 200.6 217.4 233.5 242.9 249.2 248.5 250.4 239.8 227.6 216.1 211.3 191.3 174.8 157.7 137.8 119.3 108.9 98.8 85.9 74.4 59.3 43.6 29.5 22.4 13.3 -2.2 -2.2 -2.2 -2.2 2.5 3.4 3.9 4.5 5.1 5.8 6.5 8.7 17.9 29.7 47.6 62.9 69.7 65.5 67.1 73.9 75.6 81.4 89 92.5 109.9 126.4 120 119.1 122 128.6 141.5 156.2 169.3 181 194.1 208.7 211.8 228.7 242.4 249.2 260.6 270.1 281.4 303.2 335.7 361.1 379.4 383.9 395.8 411.5 421.7 433.2 437.8 440.8 439.5 439.6 446.1 453 453.9 441 426.1 409.1 404.5 411.2 420.5 420.3 415.7 414.2 413.4 409.4 408.1 411.5 417 418.3 415 409.6 402.9 396 388.1 379 369.9 357.6 348 340.2 334.2 333.5 331.4 328 328.7 328.7 326.5 327.9 322.4 315.3 313.1 318.5 316.7 318.3 319.5 316.2 319.8 322.8 327.6 328.5 322.8 318.8 313.9 310.5 305.5 316.6 318.1 328 332.5 343.8 349.8 360.9 350.8 338.4 331.7 337.3 333.3 328.6 313.1 294.3 277.3 266.7 252.6 240 230.5 217.3 209.8 203.3 196.6 195.2 191.7 185.5 182
613.8 557.9 497.2 454.1 403.5 356.9 321.7 281 250 228 211.3 197.2 180.9 166.8 160.9 151 141.7 133.6 128.9 128.7 128.7 128.7 132.5 132.8 135.5 140.7 145.4 150.3 152.8 156.6 155.8 157 160 158.5 159.1 163.4 167.9 170.9 180.5 193.4 211.3 229.1 239.1 244.3 242.8 233.3 222.4 210.8 200.4 185.1 168.3 151.5 132.6 114.1 104.3 93.3 84.1 68.2 53.8 38.2 25.7 18.4 6.6 -2.2 -2.2 -2.2 -2.2 1.9 3.1 3.8 4.4 5 5.8 6.5 11 22.6 35.2 49.4 67 73.2 65.9 69.6 73.1 73.8 77.9 83.3 92.4 107.9 127.4 121.3 117.2 127.3 128.9 140.5 156.9 168.4 179.2 192.4 204.3 216.4 239.5 245.4 253.2 267.3 275.3 288.7 313.1 347.1 364.2 379.8 383.3 389.8 406 414 424.7 436.2 432.1 432.2 439.9 447.6 453.7 453.4 439.9 422.6 409.3 398.2 401.9 422.4 429.4 424.4 416.5 405.6 403.1 403.5 400.6 399.6 406 404.9 404.5 393.5 388.8 382.6 370.5 360.5 347.7 334.5 326.4 325.9 320.4 322.7 324.8 322.6 322.5 318.9 322.9 320.6 316.2 315.3 311.5 312.3 313.6 311.4 305.7 303.9 307 313.2 313.9 312.7 300.9 295.8 291.2 283.9 289.6 300.6 310.9 323.9 330.3 334.3 339.5 324 315.8 321.9 331.2 329.9 317.4 303.1 278 265.1 254.8 243.5 229.5 216 203.5 195.6 189.9 182.8 179.7 177.1 173.5 173.6
641.6 586.9 541.7 490.4 433.1 384.9 345.3 304.4 266.7 242.2 222.5 207.9 192.1 181.1 168.6 162.7 151.7 145.9 134 128.7 128.7 128.7 128.8 130.5 133.6 138.5 142.6 145.9 149.1 153 151.5 151.7 152 151.5 152.9 154.4 158.9 158.6 164.5 177.5 192.7 208.7 228.8 231.1 228.1 227.2 214.5 201 192 176.4 162 144.9 128.7 109.5 99.1 87.6 80.2 64.1 48.3 32.9 22.5 12.4 -2.2 -2.2 -2.2 -2.2 -2.2 2.1 2.7 3.6 4.2 4.7 5.8 6.3 19.5 30.7 44.5 55.5 71.2 73 67.6 67.7 70 72.4 74.5 80.6 91.9 105.8 115 109.8 124.9 133.8 137.4 141 154 166.3 176 188.7 202.9 221.8 237.1 248.6 261.7 268.5 277.1 292.6 314.8 348.3 364.5 378.6 384.7 394 403.2 418.3 422.2 428.3 428.7 436.8 442.7 447.7 445.8 440 433.8 425.1 408.7 398.2 398.2 404.6 414.4 420.8 420.1 413.1 403.5 392.6 393 388.2 383.6 386.8 387.7 384.3 381.4 373.5 363.4 349.7 337 326.5 320.2 309.4 308.1 312.7 313.6 313.1 313.6 310.5 306.6 308 311.7 315.8 316 299.3 304.8 295.5 304.1 301.6 296 293.6 291.9 289.1 287.6 283.3 279.4 273.4 271.6 279.7 293.3 304.5 309.7 311.9 309.1 296.7 294.8 309.1 315 311.2 299.4 286.5 270.5 257.3 242.7 228.5 217.6 204.6 194.7 181.6 177.2 167.2 168.4 167.3 167.6 165
672.7 619.5 575.2 514.1 461.1 415 369.4 333.3 291.8 258.3 237.4 219.9 204.8 195 184.9 170.6 159.5 153.9 141.9 129.6 128.7 128.7 128.7 127.2 131.9 135.8 139.7 142.2 144.6 147.9 148.9 148 146.9 145.7 145.8 146.2 147.8 149.2 155.6 165.7 176.3 190.4 200.4 210.5 217.1 212.8 206.6 186.1 178.6 163.7 154.3 140.3 124.9 105.1 92.2 84.5 76.3 60.9 43.9 31.1 18.5 4.9 -2.2 -2.2 -2.2 -2.2 -2.2 0.4 2.3 3.3 4 4.5 5.3 14.4 28.2 42.3 53.8 64.3 73.7 74.1 68.9 69.2 70.5 71.3 74.5 79.9 90 97.7 108.4 117.6 132.2 133.4 139.4 145.5 158.4 169.9 177.9 189.9 204.9 221 237 248.6 258.9 266.3 276.2 289.1 311.7 345.4 372.7 375.2 385.4 394 412.2 423.7 424.2 428.3 429.4 435.9 435.5 433.5 438.4 428 414.1 406.2 403.9 398.2 398.2 405.9 413.7 418.1 423 422.3 417.2 406.8 392.4 380.6 378.2 373.6 377.7 375.9 370.3 362.6 355 341.5 328.2 319 307.8 300.9 300.8 302.9 304 307.4 308.7 306.2 305.6 306.8 311 318 317 299.9 295.4 287.4 287.3 288.2 287.3 286.6 284.8 281.6 276.7 270.5 266.6 262.2 260.4 265.7 272.5 280.4 285.4 280.5 274.5 276.2 278.8 290.5 291.7 289.1 280.9 268.7 256.5 242.4 230.8 219.7 209.2 199.8 190.6 180.6 170.6 165.2 157.6 153.8 154.5 153.5
698.9 656.5 601.9 541.3 487.3 441.7 394.8 357.2 316.8 277.6 251.1 232.6 218.2 204.6 195.5 186.8 171.7 159.2 148.1 138.5 128.7 128.7 126.6 125.3 128.2 132.6 137.3 138.9 142.1 143.3 145.3 144.8 143.4 140.8 139 138.9 139.3 140.2 144.8 152.1 162.6 176.8 189.9 204.3 202.7 207 198.4 178.4 165.1 157 146.8 133 119 98.4 86.4 81.7 70.6 57.1 38.6 26.3 15.6 -2.2 -2.2 -2.2 -2.2 -2.2 -2.2 -0.1 1.8 3.1 3.6 4.1 8.1 29 43.9 56.5 66 74.6 82.6 77.8 72.3 71.5 71.7 74 75.1 78.2 83.9 96.1 109.8 115.5 124.3 133.3 144.5 157.6 161.3 168.8 178.8 193.5 206.8 221.6 234.7 248.4 261.1 265.7 272.7 283.2 306.7 342.8 375.4 377.5 387.8 396.9 410.9 416.9 416.9 423.3 426.3 427.5 427.5 423.1 421.8 418.6 415.2 405.8 400 394.9 395.9 401.2 406.6 413.7 418 421.1 419.5 419.4 402.2 383.3 370.2 364.8 359.2 358.8 349 347.5 343.9 331 320 309.6 301.5 297.6 299.1 304.9 307.3 307.6 305.1 305 306.2 307.1 310.7 315.5 316.8 312.6 304.2 293 286.8 271.8 275.9 276.6 273.9 271 269.5 263 252.2 250.2 248.7 252.5 256.5 262.6 266.7 264.4 258.6 259.4 264.3 265 266.5 264.6 257.7 247.8 244.8 233.6 221.7 212.2 204.8 196.6 185.7 177.2 168.9 160.9 156.6 151.8 144.3 139.2
706.2 673.5 625.4 571 513.5 467.1 420.2 376.8 345.9 306.3 269.4 242.6 226.7 218.8 202.8 195.2 183.7 167.2 153.7 144.4 133.9 124.7 124.5 123.9 125.7 128.9 135 136.4 138.4 139.6 141.3 141.1 140.9 137.9 132 131.5 130.4 130.8 137 142.5 151.4 164.5 175.5 182.3 189.1 192.8 176.5 167.9 155.5 148.9 137.6 125.2 113.8 93.6 81.3 77.5 61.3 49.3 33.4 21.4 10.5 -2.2 -2.2 -2.2 -2.2 -2.2 -2.2 -2.2 0.9 2.7 3.2 2.2 25.7 43.2 62 73.3 76.6 83.4 94 89.8 80.5 78.7 75.9 75.7 76.8 80.9 86.4 96.3 103.4 111.1 123.7 138.9 152.1 163.8 168.6 173.6 179.6 196.2 208.7 223.4 239 252.4 260.4 264.9 273.4 284.3 306.3 327.3 364.3 382.4 391.5 400 409.8 410.9 413 412.5 414.9 416.7 420.4 416.7 414.7 413.9 411.9 404.3 396 387.8 392.4 399 401.2 407.3 411.8 412.6 408.2 407.2 395.7 377 368.6 366.4 354.5 335.3 334.7 327.7 324.5 318.1 312.4 302.1 299 297.5 301.2 306 308.9 307.2 303.3 305.7 314.5 322.5 327.3 331.1 330.8 327 314.2 298.2 288.3 282.2 276.9 269.7 273.5 277.4 275 269.2 260.6 249.8 236.8 235.7 240.1 243.9 245.8 248.2 243.8 245.9 247.9 249.2 245.7 247.9 233.8 228.9 225.2 217.4 210.5 204.4 195.9 189.1 182.1 173.8 164.1 157.1 152.2 147.3 142.1 140.4
706 681.2 641.9 593.4 539.2 489.8 448.2 404.4 366 326.6 286.1 260.6 236.4 224.8 215 205.1 195.3 180.1 159.2 149.1 136.9 129.7 120.9 122.5 123.4 125.9 131.4 135.2 136.8 137.6 137.5 137.1 137.2 135.5 127.9 125.5 124.1 122.6 126 131.7 139.6 151 159.5 166 170.9 166.5 163.3 156.4 144.3 137.8 127.8 118.4 104.2 88.2 77.6 72.6 57 43.4 27.9 18.7 2.4 -2.2 -2.2 -2.2 -2.2 -2.2 -2.2 -2.2 0.1 2.5 2.7 7.3 35.5 58.3 82.6 87.6 86.6 93.1 101.5 100.6 89.6 84.9 82.9 77.8 77.5 79.7 85.1 91.1 99.7 114.3 128.6 147.5 163.1 171.8 178 180.2 185.5 201.3 217.4 233.3 243 251.4 259.3 264.6 273.7 283.6 300.9 323.4 356.3 376.1 384.4 394.4 400.5 407.1 412.9 410.7 409.1 409.6 414.3 409.7 407.6 400.4 400.2 403.2 395.3 384.6 386.5 399.5 405.4 406.8 400.8 403.3 403.2 392.3 378 365.9 368.2 372.5 362.8 347.2 330.2 313.9 308.4 304.8 300.6 296.6 294.7 297.4 301.1 302.3 301.6 299.7 299.4 306.3 314.2 327 335.2 333.8 332 326.2 312 300.1 294.7 289.1 284.1 278.8 272.7 264.7 266 264.5 258.2 248.2 241.7 229.5 222.8 229.1 221.1 227.8 224.4 225.5 227.6 228.9 228.3 221.6 216.7 213.3 208.3 201.9 198.9 196.2 189.6 182.9 176.2 170.1 161.9 155.9 152.6 151.6 144.6 142.8
701.7 680.8 649.6 608.3 563.9 514.6 472.6 424.5 381 341.6 305.2 273.4 247.9 232.9 224.2 216.5 204.5 190.4 166.1 151.3 140.7 133.6 125.5 121.5 121.1 123 127.9 132.3 135 135.2 134.6 134 134.6 133.4 125.2 120.2 118.4 116.9 119.8 125.1 131 136.2 142.4 149.1 154.4 153.6 150.3 144.9 133.4 127 118.9 110.6 98.2 83.8 71.9 65.9 54.3 38 24 13.9 -2.2 -2.2 -2.2 -2.2 -2.2 -2.2 -2.2 -2.2 -1 2.4 -2.2 19.1 45 71.2 88.3 91.2 92 100.3 110.5 110 98.1 94.4 85 80.3 78.5 80.1 85.3 90.2 102.9 122.9 139.4 155.9 173.1 181.5 186.5 188.3 193.7 205.9 223.6 238 247.7 254.7 259.4 266.8 276.6 285.5 302 325.5 357.1 374 384.4 391.1 405.2 414.1 409.5 408.6 404.4 402.5 408.4 405.5 401.6 392.3 386.7 393.4 392.5 388.9 376.5 385.3 391.8 395.9 387.7 374.7 363.1 360 356.2 360.7 364 365.2 364 351.2 331.9 318.3 309.7 305.6 301.6 294.1 293.2 294.7 296.8 295.8 294 290.7 298.5 305.9 320.6 335 340.8 342.8 341.7 336.2 325.1 313.2 301.2 290.1 285.5 280.1 277.2 271.8 261.7 259.1 243.8 247.2 242.5 238.7 235.2 230 225.2 221.8 218.2 212 215.2 211.2 207.6 204.5 201.3 198 193.1 190 186.8 184.1 182 179.6 174.5 167.6 159.6 158.3 155.9 152.6 148.9 144.6
686.1 662.7 642.8 616.9 581.1 537.4 491.8 440.1 394.4 357.4 324.4 292.5 260.4 242.2 232 223.1 211.4 195.8 174.4 157 142.7 135.3 126.4 119.9 117.7 119.5 122.8 127.9 132.1 133.8 132.8 130.1 129.9 130.2 121.6 114.1 111.3 111.2 117.3 121 122.4 125.6 129.9 135.9 143.8 143.8 143.3 133.5 122.4 118.7 113.1 103.3 90.3 79.7 66.2 57 49.4 34.4 21.2 9.1 -2.2 -2.2 -2.2 -2.2 -2.2 -2.2 -2.2 -2.2 -2.2 -2.2 -2.2 25.3 55.2 74.1 85.4 91.4 97.5 111.9 119.3 116.6 105.5 96.1 87.2 84.1 80.6 84.5 91 96 109.5 128.2 151.3 161.2 176.8 189.5 193.3 196.9 200.1 212.3 233.3 242.9 249.8 258.3 261.6 268.1 276.7 294.1 316.6 342.9 362.1 386 393.8 398.5 405.8 406.8 406.7 405.4 401.8 396.1 398.9 396.3 393.1 389 382.4 381.5 384.4 384.6 372.8 373.6 375.5 370.5 364.5 352.9 346.3 344.6 343.6 352.3 356.3 355.5 352.8 339.8 329.2 317.4 309.4 303.6 300.6 297 294.6 291.3 286.1 288.8 288.8 286.9 291.7 297.3 312.9 337.2 346.1 349.4 348.6 345.3 337.2 330.6 320 308.4 301.2 289.1 290.7 286.3 275.7 262.4 255.4 250.8 246.1 244 243.3 235.9 229.5 226.1 221.5 217 201.6 203.1 199.9 193.5 191.3 189.7 185.6 182.4 178.1 174.8 168.7 167 166.1 164 157.9 156.9 156.4 157.8 154.9 147.7
649.5 621.8 613.9 611.3 585.4 542.8 494.4 448.7 407.5 371.8 345.4 312.9 280.6 251.3 237.9 227.2 214.3 200.9 183.7 164.9 150.3 134.9 128.7 122.9 117.8 116.7 120.7 123.6 128.1 131.1 130.2 126.5 123.6 121.9 116.9 109.9 105.8 104.9 109.8 116.3 116.6 116.8 119.2 124.7 129.4 136.2 130 124.8 114 110.8 101.9 92.9 83.6 71.5 61.1 50.2 42.2 28.3 17.6 6 -2.2 -2.2 -2.2 -2.2 -2.2 -2.2 -2.2 -2.2 -2.2 -2.2 5.2 38 63.6 78.7 90.8 96.7 106.3 124.2 123.9 118.5 104.5 95.4 92.2 88.8 85.2 88 95.4 103.3 113.2 132.9 151.2 163.1 179.2 185.1 191.4 202.9 208.1 218.4 236.2 245 252.1 261.9 264 269 282.9 303.1 337 356.6 364.7 386.3 397.2 408.5 415.2 414.1 414.9 412.1 401.5 391.3 385.4 381.6 381.8 382.1 375 372.1 372.5 367.4 361.2 359.8 358.5 352.5 343.4 335.4 333.9 335.7 336.1 342.2 348.5 352.4 348 334.7 322.7 316.1 312.5 315.3 311.6 306.1 299.6 294.7 288.5 283.3 284.6 283.6 283.1 286.3 300.8 320.8 332.1 338.8 338.9 335 342 335.8 324.7 314.5 306 297.8 295.2 292.7 288.3 278 256.7 247.5 244.5 244.1 246.6 247 239.1 230.5 228.3 221 209.6 202.8 189.7 179.4 182.9 183.1 186.3 181.5 175.5 169.3 164 160.7 158.3 156.7 156.2 156.9 157.2 157.7 157 149.5
583.6 588.3 584.1 597.2 577.6 539.1 488.4 449.3 410 378.9 351.1 324.7 305.1 263.6 242.9 228.2 215.7 203.1 190.7 173.2 155.1 141.6 130 121.6 119.1 113.5 115.7 119.2 123.7 127 126 123.4 118.3 116.4 110.2 104.5 100.8 99.2 101.8 108.2 107.7 108.5 110.3 111.6 116.4 118.3 120.2 114.4 105.1 103 93 84.3 77.3 66.3 54 43.2 35.2 23.7 14.4 -2.2 -2.2 -2.2 -2.2 -2.2 -2.2 -2.2 -2.2 -2.2 -2.2 1.7 19.3 44.6 70.1 89.1 94.8 105.9 113.7 129.1 124.5 119.6 106 101.2 99.9 94.2 92.4 94.2 100.4 108.3 116 133.8 148.2 162.3 171.8 177.8 191.5 203.6 213.3 220.3 235.2 244.3 251.9 260.4 264.1 272.6 287.4 308.6 335.7 359.6 373.2 388.9 394.9 406.6 416.3 421 418.3 414.8 410.6 398.9 390.2 378.7 374.3 372.5 368.3 359.8 358.9 350.4 343.8 344.5 345.4 340.4 333.1 321 313.5 318 326.6 340.3 345.7 342.8 339.9 330.4 323 318.7 316.5 319.8 320.7 318.1 316.6 304.5 293 284.1 280.7 281.6 278.5 276.1 289.9 308.6 320.3 325 326.5 326.4 329.3 327.3 316.8 306.3 301 295.2 291.2 295.8 289.8 274.4 258.3 248.7 243.8 242 241.1 241 235.9 231.4 227.9 219.6 207.6 201 199.2 191.3 186.2 182.7 174 172.3 174.8 173.9 173.2 169.7 163.2 155.7 156.2 155.8 154.6 152.7 151 147.3
543.4 548.5 549.7 561.1 554.5 516.6 479.2 440.1 407.7 379.9 353 331.3 314 287 251.2 234.6 221.2 207.3 196 180 161.9 147.2 134 124 118.7 113.9 112.4 115.6 117.3 122.8 121.5 119.6 114.9 111.1 108.5 102.8 96 92.3 93.6 98 100.4 101.9 103.4 100.9 99.8 101.5 104.8 107.6 99.5 93.6 85.1 76.5 71.9 63.3 47.9 37.2 28.3 21 12.6 -2.2 -2.2 -2.2 -2.2 -2.2 -2.2 -2.2 -1.6 -0.9 0.4 5.5 37.7 62.9 82 90.7 99.2 113.7 121 128.7 128.1 123.3 113.4 104.9 103.2 98.5 97.5 98.4 108.1 112.9 118.1 129.7 149.5 160.7 167.3 176.2 189.9 205.4 215.7 224.6 237.4 248.3 256.3 259.8 264.8 273.4 286.5 314.6 338.6 364.9 372.4 389.2 393.6 396.6 412.9 417.4 415.6 413.7 410.6 401.6 395.3 386.9 376.2 368.3 360.5 348.7 342.7 333.4 327 322 319.6 318.6 316.3 311.5 309.4 318 335.5 350.9 357.2 353.5 338.1 328 323.6 320.5 320 324.6 326.8 332.1 332.5 324.3 309.7 291.6 282.7 275 274.4 269.1 277.7 294.5 303.4 311.4 314.5 313.3 313.9 316.5 311.6 301.7 292 285.1 280 280.5 275.3 262.7 251.4 248 242.4 234.8 230.3 231.7 229.5 226.5 222.5 212.4 199.4 201.1 201.4 193.4 185.6 189.1 184.5 178.1 175.8 164.4 163 167 160.8 154.9 154.8 153.2 150.9 148.2 145.7 142.7
501.4 508.1 505 510.2 506.5 493.2 461.6 427.9 402.2 375.9 353.3 333.5 319.2 303.2 266 245.1 227 212.7 200.2 185.2 169.5 155.6 141.6 127.6 119.2 114.6 110 109.1 112 117.7 117.1 115.4 110.7 106 104.4 100.3 92.5 84.9 85.6 89.8 90.8 93.4 93.3 92 89.6 90 94 98.3 93.8 86.9 75.3 69.8 67.6 59.4 42.8 31.7 23.3 16 5.3 -2.2 -2.2 -2.2 -2.2 -2.2 -2.2 -1.3 0.1 1.1 4.8 23.8 52.3 73.2 82.7 90.4 99.7 111.1 123.4 131.8 131.2 123.4 114.8 107.9 105.8 100.7 98.7 102 111 113.8 119 131.1 151 154.1 157.6 172.6 187.5 200.2 214.7 228.2 237.7 247.9 254.2 263 265 273.2 285 310.4 339.7 360.9 369.2 393.6 404 401.4 409 416 415.9 413.9 405.4 399.8 398.6 391.9 382.8 364 353.3 341.4 333 326.3 313.1 307.5 305.9 303.9 303.6 304.5 307.7 315.6 326.2 339 346.9 358.2 348.3 332.3 327.1 323.7 322.8 322.7 327.6 334.5 343.4 334.3 317.9 302.1 285.6 270.9 264.2 262.3 263.2 267.8 280.4 291.5 299.3 304.8 309.4 309.7 301 293 285.6 273 266 259.9 252.3 243.2 239.9 241.4 240.4 231.3 227.8 220.4 222.9 220.6 214.8 204.3 195.1 199.3 198.8 191.1 185.1 177.7 176.1 177.6 177 172.4 173.8 169.8 158.4 150.5 151 148.7 146.6 143.8 140.5 137.5
459.4 461.5 467 470.3 469.3 463 439 412.3 392.7 370.5 351.6 333.8 319.6 309.3 280.4 252.8 234.3 219.5 203.1 190 174.8 162.3 150.6 133 122.1 114.2 110.9 109.2 104.4 110.6 113 111.2 106.9 102.4 97.7 94.3 87.9 80.3 76.9 83 84.4 87.4 86.7 87.2 82.9 84.2 84.9 84.3 83 78.9 67.7 64.2 61.7 51.3 36.6 25.3 18.6 7.3 0.4 -2.2 -2.2 -2.2 -2.2 -2.2 -2.2 -1 0.7 2.2 20.1 45.7 64.3 73.8 82.4 92.8 99.8 110.1 127.6 134.4 130.2 125.7 121.3 114.5 114.2 106.6 102.3 105 111.1 112.8 117.5 125.6 131.5 138 150.3 168.1 178.2 197.1 214.9 230.6 233.7 240.6 251.3 264.5 262.2 273.3 283.9 308.4 334.7 358 375.9 391.9 404 409.3 406.4 404.5 400.8 405.3 394.2 389 383.2 383.7 379.2 373.2 360.3 343.8 331.1 319.9 314.7 309.4 304.5 302.7 311 314.8 309.1 309.3 317.1 325.4 332.8 344.1 356.4 351 342.2 331.1 323.8 322.4 325.5 332 333.8 330.4 322.6 312.1 298.8 281.6 267.7 262.1 258.4 254.7 259 275.3 288.5 299.3 295.6 293.4 290.1 286.5 276.4 265.7 256.4 241.6 233.2 228.2 229.5 233.6 234.5 226.3 226.7 216.4 213 214.6 207.5 200.8 189.8 184 184 184 182.6 180 176.3 168.9 168.1 170.5 174.1 173.9 165.7 146.3 129.7 144.3 141.8 139.1 135.5 133.2
421.5 421.3 425.8 430 432 430.9 413.7 396.2 378.9 362.2 346.3 330.1 318.6 312.3 288.7 261.3 243.8 228.5 207.3 193.2 178.9 167.7 158.3 141.4 124.7 114.6 110.7 107.8 100.3 104.8 108.2 107 103.4 98.2 91.3 85.9 82.9 73.6 69.9 75.3 79.4 83.9 82.7 83.3 79.4 75 75.2 70.6 71.1 68.8 64.9 59.9 50.1 41.7 29.9 20.7 10.8 2.4 -0.6 -2.2 -2.2 -2.2 -2.2 -2.2 -2.2 -0.9 1.1 5.1 36.9 59 70 73.8 81.4 96.2 104.4 115.3 130.6 136.2 134.6 129.4 126.8 117.6 115.6 109.4 107.1 110.1 111.8 112.2 113.8 116 118 125.1 140.8 156.4 170.6 190 214.4 222.5 228.8 233.3 239 247 253.9 268.6 287.9 310.4 331.5 354.5 369.1 375.4 393.6 398.4 391.1 388.7 390.8 389.2 379 376.6 371.6 368.9 368.5 367.8 365.7 346.9 334.6 318.6 316.8 317.1 309.8 302.3 303.5 311.8 310 310.1 316.3 320.4 323.4 332.2 339.8 341.9 340.7 330.1 321.8 321.3 324.9 326.9 330.9 329.1 324.3 316.9 310.5 292.9 275.5 266.1 260.6 254.2 251.2 261.3 276.6 290.9 286.6 283.9 279 274.2 265.3 258.3 247.7 229.3 219.2 215.7 215.2 217.4 219.4 223.2 223.6 215 206.9 207.2 203.1 192.1 184.7 177.8 175.7 175.8 175.8 174.2 171.8 166.8 160 157.5 154.2 153.5 151 140.1 133.7 137.4 137.7 135 131.9 125
374.5 382.4 390.6 393 396.7 395.8 391.4 376.2 361.8 353 341.2 326.8 318 309.9 289.8 262.6 245.9 238.6 212.6 196.5 181.8 170.5 162.2 146.1 130.4 118.8 112.4 106.2 102 96 102.7 101.7 99.5 93.3 86.1 78.7 72.5 69.2 67.2 68 75.2 79.4 78.2 78 73.3 66.5 67.3 65.9 62.8 58.6 56.3 51.4 43.1 34.4 24 14.1 4.9 1.6 -1 -2.2 -2.2 -2.2 -2.2 -2.2 -2.2 -0.7 1.7 18.3 42.6 57 66.5 75.7 82.8 102.7 108.6 116.9 131.4 135.3 133.2 129.6 125.4 118.9 115 110.2 110.2 110.6 111.1 113.3 117.6 119.3 115 111.9 120.4 135.8 158.6 176.8 202.3 213.2 223.4 226.7 229.9 232.6 239.2 256.3 283.6 300.6 316.3 344.8 347.3 348.9 351.5 361.5 370.8 367.6 370.7 375.5 373.4 365.8 356.9 354.7 351 346.7 342.9 333.7 319.9 310.8 313.3 316.5 306.4 301.1 298.1 298.1 305.5 309.4 315 320.1 316.6 315.2 324.2 327.2 330 324.3 318 314.4 316.9 320.6 311.9 323.8 322.6 319.3 313.8 303 290.1 276.1 260.2 253 248.8 251.5 267.5 279.6 277.2 273.8 267 265.2 257.3 247.2 233.2 220.1 213.8 212.1 207 206 210.9 212.8 211.5 207 201.9 200.1 192.8 183.1 179.3 177.5 165.9 163.3 163.8 161.8 159.8 156.9 151.2 147.9 142.6 140.7 141 116.8 135.3 135.8 132.8 127.2 121.7 116.7
339.3 348.7 355.4 360.4 363.9 364.5 366.2 357.4 349.5 342.6 332.9 321.5 311.8 298.9 282.6 263 247.9 239.7 220.3 201 183.7 172.4 162.5 148.4 134.9 123 115.2 106.2 100.8 95.4 98.2 96.4 93.3 88 80.8 74.3 68 63.7 62.7 65.5 70.1 73 72.6 70.2 66.4 61.8 63.8 58.5 51.7 50.1 46.8 42.1 38.5 30.7 22.1 9.8 3.9 0.9 -1.5 -2.2 -2.2 -2.2 -2.2 -2.2 -2.2 -2.2 3.1 29.6 45.2 56.2 70.2 77.6 86.9 102.4 106.7 116.8 126 133.7 130.7 128.5 127.1 121.5 116.9 113 108.5 107.5 107.4 109.9 111.5 111.9 108.8 105 105 116.4 136.1 163 181.2 201.7 211.4 220.3 222.7 228.8 233.9 248.2 274.3 284.2 288.5 303.6 319.8 325.3 329.7 328.4 333.3 341.3 342.3 347.2 345.9 340.4 339.5 334.5 330.5 326.3 319.5 312.1 304.3 298.5 297 292.9 282.2 282.5 290.4 291.5 283.8 284 298.7 304.8 307.8 310.3 308.7 308.6 305.1 305 304.8 303.8 302.3 294.3 295 309.4 317.9 313.9 305.1 298.9 294.3 283.6 261.8 248.6 247.3 245.5 265.6 272.3 262.8 256.4 249.9 245.3 242.7 234.9 222.7 215.6 206.7 206.7 203.6 202.4 206 207.4 204.9 198.5 197.5 193.6 186.4 181.6 178.5 170.6 161.7 152.3 153.6 152.6 150.2 147.2 143.1 142.4 136.4 133.8 133.3 109.3 126.6 124.8 123.5 119.7 114.1 110.2
311.5 321.2 326.1 330.6 333.1 338.1 343.1 339.5 334.4 331.9 324.2 314.2 306.6 289.4 273.6 260 247.4 237.7 227.5 206.2 186.5 172.4 163.8 147.8 136.7 126.3 118.4 106.7 99.6 95.1 95.9 90.4 86.9 81.6 75.7 70.2 65 59.9 56.1 61.5 64.9 67.2 67.6 63.3 59.8 56.4 53 47.7 44.4 44.6 42.2 35.7 29.4 23.8 16 7.3 2.2 0.3 -1.9 -2.2 -2.2 -2.2 -2.2 -2.2 -2.2 0.8 6.3 37.3 54.1 61.9 69 76.8 84.5 97.9 109.2 119.9 127.2 133 129.4 129.4 128.2 124.7 123 116.7 109.1 104 102.5 102.6 102.4 99.2 98.4 97.5 93.8 105.2 118.3 144.7 169.6 196.2 201.4 213.2 217.3 218 221.1 243.8 267.2 270.7 272 278.4 282.8 285.4 290.9 301.9 298.5 303.9 306.3 314.6 321 320.2 323 325.3 318.5 308.4 300.8 295.1 289.4 282.6 278.6 272.9 262.3 260.2 268.5 271.3 267.6 261.8 268.2 286.6 287.3 290.6 291.3 289.3 288.2 281.5 284.3 290.5 288.1 290.1 291.5 296.7 299.8 298 290 283.2 288.4 279.8 259 244.5 245.9 243 228 251.3 246.8 250.6 243.7 236.4 231.1 224.9 218.9 209.3 198.6 188.6 189 193.9 196.8 193.3 192.9 192.8 190.8 188.3 186.7 182.2 181.9 169.1 157.2 147.4 144.6 144.9 141.8 140 136.1 134.9 132 128 123.9 107 102 104.7 100.4 101.6 102.1 103.9
291.6 298.3 302.1 310.2 313.3 316.9 323.2 323 324.3 322.4 315.6 307.7 302.1 284.3 269.8 255.1 244.5 237.4 229.5 207.2 188.8 172.4 164.6 148.8 137.9 130.1 120.9 109.4 99.6 95.1 92.9 83.6 79.1 76.9 71.5 66 61.8 56.7 51.9 57.7 59.9 61.4 61 57.7 55 52.2 46.4 42.6 40.5 42 36.3 26.6 20.9 14.8 8.4 3.5 0.9 -0.9 -2.2 -2.2 -2.2 -2.2 -2.2 -2.2 -0.4 2.6 34.3 48.2 59.1 65.7 69.6 75.2 81.8 97.2 110.6 117.2 123.1 130.1 128.2 130.5 128.9 126.8 124.8 118.2 108.3 99.5 97.4 97.7 93.1 87.6 85.6 82.9 84.2 94.4 109.1 129.3 155 181.8 187.3 204.3 211.6 212.5 210.6 221.9 251.6 255.8 260.3 260 263.8 267.6 269.3 268.1 264.7 265.9 266.3 271.1 287.3 296.4 298.4 299 289.4 279.1 275.8 271.1 264 259.2 255.2 256.8 246.6 232.1 229.1 230.4 229.6 248.4 243 248.6 268.9 271 270.4 270.5 271.6 270.9 264.2 261.1 270.4 289.8 294.9 287.8 289.2 278.5 275 274.9 270.2 267.5 257.3 243.7 251.3 246.2 238.5 226.1 226.9 237.9 236.7 231.9 228.5 223 209.5 197.8 189.7 183 177.9 182.1 183.6 185.7 188.6 189.7 186.9 182.8 180.6 174.8 166.3 157.6 149.8 143.1 138.9 138.2 135.2 134 130.3 126.1 126.4 122.9 120.2 118.3 115.3 107.2 103.2 103.1 96.3 100.1
275.8 279.8 283.5 286.3 291 296.8 302.7 308.4 313 312.8 304.1 299.3 292.9 283.1 264.8 249 239.7 235.7 229.6 206.6 187.6 173.2 164.3 149.9 138.5 135.5 123.9 110.3 103 97.3 91.7 82.3 72.8 72 67.5 61.9 57.5 53.1 47 50.6 53.7 56.3 57.4 53.1 49.9 47.5 44.3 41 35.4 33.1 28.2 18.3 10.8 6 2.2 1.1 -0.4 -2.2 -2.2 -2.2 -2.2 -2.2 -2.2 -0.3 1.8 9.6 43.2 56.3 65.6 68.2 70.3 74.7 81.9 93.8 103.3 111.2 118.2 121.4 125.1 127.7 128.1 127.2 121 111.2 102.1 95.7 92.2 88.8 83.5 76.6 73.3 73.6 78.2 86.4 100.5 116.3 137 167.7 166.7 186.5 199.1 199.9 197.3 204.8 218.7 227.9 237.5 240.7 242.6 249.6 255.3 255.2 251.9 245.3 243.6 246.7 256.9 267.4 272.4 271.9 266.5 256.9 246.6 246.3 244.2 245.6 248.6 252 239 218.7 204.9 199.9 203.9 235.6 240.1 229.2 240.2 246.4 242.8 242.3 244.4 245.3 249.2 249.4 263.9 265.5 262.9 266.9 266.4 265 267.9 264.7 259.3 257.5 246.6 234 230.9 238.3 237.5 231.6 219.8 210.4 213.2 218.8 221.7 215.6 198.4 185.7 178.2 171.2 172.9 174.7 178.1 182.5 182 179.3 178.4 175.9 171.3 161.6 153.8 147.9 141.5 136.7 136.2 135.1 134.1 134.4 131.5 128.7 122.3 116.9 113.9 115.3 109.9 103.2 96.3 97.3 95.1 104
262.8 263 266.2 269.9 273.2 279 286.1 293.1 300.6 299.7 293.3 288.3 286.5 277.5 256.7 243.9 235.7 230.8 224.6 205.3 185.6 175 163.5 148.3 137.5 136 126.2 112.8 104.8 99.3 93.7 82.9 70 65.9 62 58 53.3 47.7 41.6 45.3 47.3 50.9 49.6 48.5 46.4 43.9 39.9 36.2 27.2 22.8 15.4 7.9 3.2 2 1.4 0.5 -0.9 -2.2 -2.2 -2.2 -2.2 -2.2 -2.2 1.5 10 28.8 50.2 59.3 67 67.1 70.1 74.5 81.5 91.9 99.2 107.4 112.8 116 122.1 127.2 130.5 128.6 121.1 111.2 100.7 91.6 86.6 82.4 74.9 70.7 68.7 68.8 72.3 78.7 89.6 101.1 114.6 149.2 152.1 163.5 171.6 179.7 181 179.6 192.8 201.7 206 218.6 218.7 221.4 229.8 233.9 233.1 229.6 228.5 226.8 227.3 233.9 242.4 242.9 240.8 240.2 243.7 240.3 229 214.8 209 216.6 213.8 204.4 196.1 189.2 186.5 203.8 209.2 221 211.2 220.2 220.5 221.5 217.9 222.3 224.4 236.6 238.2 241.1 241.1 240.5 243 243.7 258.1 249.9 240.4 233.9 223.7 210.2 215.3 232.7 230 228.4 219.4 206.6 198 198.3 198.5 191.1 174.5 167.2 168.3 171.9 172.7 173.7 176 176.9 172.6 171.7 167.3 160.6 154.4 149.9 146 141.9 137.7 136.4 137 139.8 141.8 136.7 131.6 127 123.8 119.9 114 105.7 107 102.2 103.6 105.4 105.9 106.4
252.2 250.3 252.4 260.3 266 271 270.1 278.4 285.4 279.6 278.6 281 277.9 261.5 247 237.6 229.4 223.2 212.6 199.3 180.6 173.4 163.3 147.6 138.1 135 126.1 114.8 107.2 101 95.1 84.6 69.8 60.5 56.9 53.7 48.7 43.2 36.8 39.7 42.3 45.3 47.8 47.7 43.6 37.8 31.7 24.5 18.2 12.9 6.7 2.4 2 1.5 0.9 -0.1 -0.9 -2.2 -2.2 -2.2 -2.2 -2.2 0.5 6.4 18.2 41.4 51 58.3 62.3 65 70.4 74.5 82.1 91.7 98.9 105.5 116.1 113.7 122.1 128.3 130.3 129.6 120.2 110.3 98.9 86.7 80.9 76.9 71.2 67.2 65.3 65.5 66.3 72.6 80.6 89.8 98.3 114.2 138.3 152 161.1 163.7 167.1 165.7 162.6 156.7 168.5 185.5 190.9 194.2 203.1 207.7 207 206.3 202.3 204.8 205.2 200.6 195.7 196 203.5 207.9 215 232.6 222.1 204.6 199.2 192.2 189.2 188.4 186.2 183.9 176.6 173.7 174.9 180.3 192.4 186.7 202.3 200.9 205.1 198.1 195.9 204.1 213.6 218 224.7 231.8 227.9 214.4 205.4 201 204.6 208 192.3 188.6 200.5 216.6 210.7 203.2 199.6 195.5 180.6 168.5 160.7 170.2 173 172.3 174.3 167.9 165.6 165.2 164.7 162.4 156.6 153.7 148.8 145.9 145.7 144.1 142.5 140.9 139.5 140.9 143.4 143 140.5 135.7 128.8 123.2 117.2 114.3 110.4 101.2 104.3 100.8 103.2 104.3 105.4 106.7
245.7 243.4 244.4 250.9 257.1 254.8 254.5 262.3 271.7 267.2 271.5 268.6 262.8 250.2 241 231 221 213.8 204.9 193.2 174.1 168.1 161.9 146 140.7 138.4 126.9 116.6 110.5 103 96.5 85.2 69.5 61.4 53.8 49.7 46.1 36.9 35.4 34.7 38.6 42.3 43.9 42.8 39.5 31 24 15 8.2 2.5 2.3 1.9 1.5 0.9 0.4 -0.2 -1.2 -2.2 -2.2 -2.2 -2.2 -2.2 4 13.7 23.5 42.6 50.5 54.7 57.2 63.5 70.4 75.7 81.7 92.4 97.9 102 106.3 113.8 126.6 125.2 125 125.5 117.9 105.6 95.8 85.7 79.7 76.3 72.5 66.4 63.8 63.2 65 69.7 72 77.6 84.1 92.4 107.3 129.1 144.3 150.9 159 159.1 156.7 151.6 144.5 140.9 149.6 158.4 166.4 184.2 185.3 178.6 174.4 172.4 171.5 172.8 164.6 156.2 157.2 165.8 182.8 191.2 199.8 198.9 195.2 189.7 186.3 182.2 181.9 176.1 167 164.6 160.5 156.4 152.3 165.8 167.7 166.1 165.6 181.3 173.8 169.6 167.9 174.4 186.8 200.6 205 195.2 185.5 176 170.3 165.8 151.4 152.3 160.6 161.5 161.7 160.2 157.4 158.2 156.1 133.3 170.1 183.2 185.9 177.8 177.3 167 160.1 157.7 152.9 149.4 145.8 142 140.9 142.7 141.8 143.4 143.5 142.5 143.6 145 145.5 143.5 135.2 128 122.2 116.4 110 107 103.9 99.6 102.7 101.5 100.8 103.4 105.5 105.1
240.4 239.2 238.1 240.2 241.6 242.4 243.9 251.7 257.5 264.4 263.3 260.7 254.6 243.6 234.6 224.6 214.8 209.6 201.5 188.2 169.2 158.8 155.9 140.6 140.2 139.5 127.2 117.1 111.6 104.6 96.6 85 69.8 62.4 56.6 51.2 46.4 38.1 30.7 29.8 35.2 37.9 37.7 35.4 28.9 22.9 14 5.8 2.5 2.5 2 1.4 1.1 0.6 0 -0.6 -1.2 -2.2 -2.2 -2.2 0.1 4.9 14.5 18.9 24.6 39.5 48.5 51.1 54.3 64.3 69.1 73.5 80.9 89.2 94.9 97.4 103.4 112.6 122.2 119 117.7 115.6 108.3 100.9 93.2 84.9 78.6 75.2 71.7 67.5 63.6 61.7 63.5 65.5 65.1 67.5 73.1 82.1 88.5 97.4 103.1 114 132 137.6 142.4 136 135.9 137.7 136.3 139.9 137.4 146.3 160.3 153.3 144.5 138.4 139.7 143.3 137.5 131.7 128.2 136.2 164.2 169.2 173.1 177.6 183.3 182.5 182.2 183 183.5 180.3 166.3 154.6 149.1 145.4 128.2 124.2 127.4 132.9 126.3 130.1 149.7 135.6 137.1 138 140.8 145.3 159.4 163.4 159.2 156.8 148.8 139.6 127.2 124.8 125.9 122.1 122.1 124.8 131.2 134.9 116.1 151.4 164 169.6 172.9 170.8 164.8 160.5 154.2 150.1 144.4 142.7 140.5 140.3 140.2 140.2 140.6 142.2 142.9 145.1 142.7 141.5 139.7 134.8 129.1 120.6 113.9 108.6 103.5 101 100.4 91.6 99.7 96.9 99.3 100.9 101.1 100.4
235.4 234.5 232.3 233.5 233.2 233.6 236.7 241.9 248.4 253.3 254.3 251.9 244.9 235 225.1 217.9 209.8 205.9 196.2 183.9 163.2 152.2 148.8 137.9 133.4 134.9 127.1 120.1 114.8 107 96.2 85.3 69.7 63.5 59.1 53.3 46 39.8 32 25.1 29.9 32.6 27.6 23.9 19.6 12.1 6.6 3.1 2.5 2.2 1.7 1.1 0.6 0.3 -0.3 -0.9 -1.5 -2.2 -2.2 -2.2 2.4 19.4 21.5 21.9 25.8 36.7 43.9 47 54.4 63.5 66.4 71.5 78.1 84.9 88.4 92.4 100.3 107.1 115.5 112.4 108.5 105.7 99.8 95.5 90.3 86.1 82.1 74.9 68.9 66.4 63.3 61.1 58.7 59.2 57.9 60.2 66.2 70.5 76.4 83.6 86.9 91.6 102.4 112.1 128 127.2 133.9 132.4 126.1 119.6 118.3 116.6 112.6 110.2 112.7 114.4 109.1 107.9 108.1 103.6 98.3 103.8 138.4 140.7 136.5 132.9 136.7 155 168.6 167 166.3 178.6 168.5 159.4 136.4 106.2 102.5 102.6 100.1 94.6 97.2 95.7 97.8 95.8 106.2 117.2 115.5 114.9 116.9 121.7 127.5 122.6 119.8 116.1 109.6 102.4 98.4 99.2 101.7 106 111.5 108.4 130.1 138.5 143.4 147.5 151.2 156.4 152.9 143.1 141.2 141.2 140.2 140.2 140.3 140.2 141 141.3 144.5 140.2 138.7 138 136.6 134.1 129.5 125.9 122 113.4 108 101.4 98.9 97.7 97.3 88.1 93.3 98.9 99.4 99.4 99.4 99.6
232.6 227.6 227.8 227 227.3 226.9 230.2 234.7 239.5 241.5 248.8 247.2 238.5 223.3 215.5 210.5 205.6 203 187.6 176.7 157.1 146.9 139.6 134.7 124.7 130.6 130.5 127 119.3 107.6 93.7 82.9 70.3 65.2 61.7 55.2 49.8 44 34.8 22 13.9 23.7 19.2 15.8 10.1 7.1 4.9 3.2 2.4 1.9 1.4 0.8 0.3 -0.2 -0.6 -1.2 -1.8 -2.2 -2.2 -2.2 5.8 23.4 24.8 24.6 27.5 35.5 39.3 43.4 53.1 61.7 64.7 70.5 78.6 79.9 82.1 88.1 95.6 99.5 104.1 102.8 100 93.9 96.8 91.2 88.2 85.1 80 72.4 65.5 64.3 63.9 65.4 68.3 67.3 61.2 53.1 58.6 61.7 65.8 71.2 78.1 83 89.9 97 102.7 105.9 112 113.1 111.3 105.7 99.2 97 94.7 95.5 97.2 94.8 89.6 83.7 81.3 81.7 80.7 82.4 89.3 104.9 113.6 107.1 104 99.3 102.1 112.5 136.2 153.4 145.5 131.2 96.5 84.1 77.8 76.9 83.1 84.3 77.7 77 79.2 80.8 83.5 84.2 87.2 84.9 87.7 87.5 88.5 88.3 89.6 94 93.2 97.5 99.3 101.2 103 105.9 110.5 111.7 113.1 121.9 128.1 130.5 132.4 135.5 141.7 150 149.5 147.9 148.7 149.8 149.3 149.4 151.5 148.3 145.7 143.5 139.6 135.2 132.8 129.8 127 122.5 117 109.8 100.8 96.2 97 93.1 80.4 95.2 99.3 98.6 99.4 99.2 98.8 99.4
229.2 223.8 221.5 220.1 221.4 221.3 225.2 228.2 232.5 234.7 237.5 236.2 224.7 211.8 208.8 205 200.1 191.2 177.7 166.9 152.1 140.1 133.1 126.2 118.5 129.1 131 128.1 116.3 105.5 91.6 80.9 72.8 66.9 62.1 58.7 53.1 47.6 37.2 20.5 15.7 13.1 12.5 10.2 8.3 6.2 5.5 4.4 2.2 1.6 1.1 0.5 0 -0.5 -1 -1.5 -2.1 -2.2 -2.2 0.4 17.2 22.1 24 25 27 31.2 35.6 43.5 52.6 59.7 64 70 76 74.6 77.3 87.1 95.3 93 95.6 94.8 85.5 91.5 96.2 89 85.9 83 77.6 71.6 67.8 66.9 67.5 67.1 65.3 62.4 59.2 54.8 49.8 53.7 57 61.3 65.7 70.8 75.7 81.2 87.2 96.1 100.8 100.9 98.2 93 87.4 80.1 77.4 76.2 73.8 72.8 69.9 66.8 68.5 67 69.8 69.3 69.3 72.3 74.2 75.8 74.8 74.1 75.2 82.5 86.4 103.2 98.5 75.5 69.7 70.5 78.8 83.7 77.7 74.3 76.7 80.3 84 83.3 85.3 93.1 95.1 96.5 99.9 94.4 91.4 93.3 101.5 109.5 117.4 121.4 124.3 123.5 121.2 122.8 124.3 124.7 125.1 127 131.9 133.9 141 142.5 149.9 154.6 156.9 157.4 161.6 162.5 163.7 163.7 160.6 157 148.6 142.8 138 133.6 126 121 118.3 114.1 110.2 103.3 93.8 92.4 90.7 78.6 92.5 95.3 95.1 97.7 97.7 97.5 97.9 99.3
224.6 219.5 214.2 215 214.9 215.5 218.6 221.3 224.5 227.2 221.9 216.7 209.2 207.9 205.1 202.1 195 181.1 170.1 159.1 147.3 134.3 127.2 115.9 110.5 125.7 126.2 122.6 113 103.3 92.7 86.8 78.5 69.7 64.1 59.1 52 44.8 33.1 17.9 13.9 6.9 9.5 8.2 7.2 6.3 5.4 4.1 2 1.5 1 0.3 -0.3 -0.8 -1.3 -2.2 -2.2 -2.2 -2.2 1 11.9 19 21.2 21.9 24 28 33.7 42.1 51.2 55.8 60 66.7 68.6 70 75.9 85.9 95 88.8 84.2 79.1 84.2 91.1 90.8 90.1 84 80.5 80.1 83.1 79.7 74.1 69.7 67.4 65.1 62.5 58.4 53.8 48.5 43.1 50 52.5 56.9 61.4 66 68.8 71.2 75.7 79.3 81.5 85.1 85.1 82.5 73.3 59.8 61.3 57.8 52.3 50.3 52.2 55.4 57.8 61.8 65.4 69.6 70.8 70.5 64.9 62.6 60.9 58.4 58 57.5 68.6 74.1 80.3 88.1 99.1 114.5 121 105.5 90.7 85.1 96.2 104.9 101 105.5 112.4 111 110.5 115.4 110.8 107.3 109.6 111.5 134.4 144.8 150.1 146.9 143.4 139.3 139.8 141.9 143.2 139.8 137.6 137.4 141.1 144.7 144.5 148.2 153.5 158.5 161.9 163 162.6 163 162.3 158.8 153.4 147.8 139.1 133.5 128.1 121.1 114.1 109.5 105.9 101.1 95.2 91.6 89.8 85.2 87 91.2 91.9 92.8 95.9 96.6 96 96.7 97.8
219.2 213.2 207.7 208.8 210.4 210.8 211.6 213.2 216.2 218 212.7 202.1 196.6 199.9 203.2 197.3 188.4 174.2 164.8 153.7 139.5 129.4 120.8 108.8 107.4 115.4 118.3 112 108.6 101.5 96.9 92.9 82.6 73.2 64.8 57.5 46.2 37.5 24.6 15 10.5 7.8 5.6 6 5.9 5.8 5 2.5 1.3 0.8 0.5 0 -0.5 -1 -1.6 -2.2 -2.2 -2.2 -1.8 0.4 9.1 15.7 18.6 21.4 23 26.2 31 40.4 49.7 53.2 57.7 63.8 65.6 68.3 74.1 82.8 83.9 76.5 69.2 77.7 85.6 84.6 84.4 87.1 85 88.5 90.9 89.7 84 76 71.1 69.2 67.9 65.2 59.3 53.9 47.2 40.4 44.4 46.4 49.4 52.9 56.8 61.2 64.7 64.3 61.9 59.9 57.4 60.1 59.7 54.8 46.4 45.2 43.9 41.7 43.4 46.8 51.8 55.2 57.5 58.9 59.3 59.2 58.3 49.9 46.3 54.1 55.2 64.8 94.4 109.9 115.8 113.4 120.9 127.1 125.3 131.4 121.5 104.9 101.3 113.5 117.9 119.5 137.5 135.9 131.1 122.8 130.3 126.9 133 124.7 134.3 163.8 171.7 176 178.7 167.8 166.7 160.8 159.4 156.9 148.6 143.1 142 143 147 144.3 145.3 148.1 150.3 153.5 155.9 156.6 161.5 159.1 150.4 145.8 140.7 138.9 137.8 132.8 123.4 117.2 114.5 108 98.4 91.3 92.5 88.8 70.4 87.3 89.3 91.2 94.2 94.7 95 95.4 96.2 97.7
212.9 206.7 203.3 203.3 205.2 207.2 206.2 208.9 210.5 213.4 203.5 195.9 191.3 194 199 194.6 188.4 175.3 162.1 147.5 134.1 122.4 113.3 102.8 104.1 104.4 105 102.1 100.2 99.7 97.9 94.4 85.4 74.5 65.2 53.7 41.4 31.4 21.7 15.7 11 7.3 6.4 3.7 4.3 4.8 3 1.7 0.6 -0.2 -0.5 -0.7 -0.9 -1.5 -2.2 -2.2 -1.2 0.3 -2.2 0 12.4 15.5 17.6 20.9 23.6 24.5 29.9 39.9 47.4 50.1 53.5 60.9 68 72.5 73.7 76.1 70.4 63.6 66.3 69.2 73.6 84.7 90.2 91.8 92.5 96.4 98.8 92.5 84.6 74.2 73.9 76.5 77.1 73.9 66.1 55.7 46.5 37.3 39.4 40.8 42.9 45.5 49.6 50.8 51.1 50.6 47.7 44.8 41.7 39.9 38.1 36.7 38.2 38.6 37.9 38.8 39.6 39.9 41.7 44.9 48.9 52.6 50.6 43.9 52.9 70.2 87.3 92.5 93.3 100.9 118 127.9 132.1 143.7 154.1 153.2 148.8 151.6 136.9 122.9 128.8 134.5 132.5 133.7 145.9 153.1 145.8 134.5 131.6 146.7 152.7 149.1 158.1 170.8 182.9 190.1 191.5 188.5 190.7 176.1 166.9 158.8 154.1 149.4 144.9 143.2 143 143.6 143.4 145.4 147 147.4 147.1 147.5 144.8 141 137.1 137.3 139.6 139.9 136.8 129.5 121 116.9 112.4 103 92.9 87.8 91.4 87.7 84.1 86.9 87.8 91.7 93.3 94.7 95.2 95.6 96.2 97.5
203.2 199.5 199 198.1 201.5 202.1 202.7 203.3 205.6 207 200.5 189.9 188.8 190 193.9 191.8 190.3 174 156.6 142.5 130.3 117 109.2 96.7 98.2 99 97.3 97.8 94.5 92.3 93.9 93.4 86.3 78.7 67.1 53.3 43 34.5 27 19.5 11.9 9.1 5.4 5.1 2.8 3.6 -0.2 0.5 -0.2 -1.1 -1.5 -1.7 -2 -2.2 -2.2 -2.2 0.2 2 -2.2 0.2 12.1 14.2 16.1 19.1 23.5 25.3 29.6 37.5 42.8 43.2 50.7 61 70.1 67.9 65.6 62.7 61.4 66.2 71.4 76.6 84.3 96.1 104.2 113.4 113.1 115.4 107.8 98.6 87.3 74.7 69.1 73 76.7 75.6 70.5 60.8 45 35.1 33.9 36.4 38.8 41.7 45.3 45.8 42.8 41.2 39.6 36 34 33.7 34.4 36.2 37.7 36.8 35 35.6 36.2 37 38.2 41.5 45.1 46.1 38.1 56.7 82.1 105.2 125.9 139.2 133.7 139.3 148.6 153.1 159.8 178 172.8 166.9 161.8 163.4 151.7 144.8 157.6 160.3 145.8 149.6 155.6 163.8 152.8 144.2 145.5 157.8 174.6 176.1 177.4 188.8 191.9 189.7 183.5 183.9 184.6 176.1 169.6 161.2 154 149.4 145.1 143.4 142.3 142.5 144.1 144.9 144.9 144.4 140.7 137.4 135.2 134.7 134.6 134.1 130.9 126.4 122.9 120 113.6 107.4 102.8 92.6 92.6 86.3 88.3 83.2 85.7 86.9 86.2 88.9 90.1 91.7 94.8 95.1 95.5 96
197.1 193.4 193.9 194.3 195.8 196.7 200.7 199.7 204.2 202.2 194.7 183.4 183.8 186.3 182 186.2 186.6 166.2 151.7 138.3 125.8 112.3 103.3 95.2 92.2 92.1 93.6 95.2 91.7 86.3 85.8 84.6 84.6 79.4 72 60.2 46.3 36.8 30.7 21.4 13.2 9.8 4.2 4.2 2.9 -2.2 -2.2 -1 -1.5 -2.2 -2.2 -2.2 -2.2 -2.2 -2.2 -1.2 0.2 1.5 2.5 2.3 5.5 11.1 15.1 17.4 22.3 25.9 27.6 35.6 36.3 39.1 47.4 57 60.1 50.4 56.6 61.7 66.8 69.5 72.2 75.5 86.5 102.1 111.2 121 120.9 125.3 111.3 97.7 88.5 77.5 66.4 64.2 68.7 70.3 65.4 54 43.4 32.9 31.1 33.2 37.4 40.1 40.4 38.2 33.8 32.1 31.2 31.9 33.4 37.5 39.9 35.8 35.3 32.8 32.4 32.8 33.1 33.5 34.7 34.9 34.5 37.9 54.3 68.8 90.9 111.2 135.3 148.5 151 159.9 169.7 173.6 181.4 183.2 178.9 176.8 177 172.4 166 160.2 173.6 174 162.9 160.8 165.9 173.4 163.2 155.8 157.7 173.6 188 183.3 181.7 189 189.9 184.4 178.8 175.9 171.6 168.5 165.3 159.6 152.6 149.4 145.1 143.3 141.8 141.3 141.2 140.7 140.6 140.5 140.2 138.9 135.4 134.4 131.6 127.8 124.7 121.2 115.5 105.6 110.3 106.3 106.8 101.6 94.7 89.5 81.7 66.3 85.1 87.7 85.8 86.8 90.6 91 93.1 94.5 94 93.5
