ncols 200
nrows 82
xllcorner 220000
yllcorner 845250
cellsize 50
526.7 557.8 593.8 627.2 657.3 675.3 691.3 709 729.1 745.9 757.5 762.6 758.9 751.1 735.1 721.4 710.8 703.4 696 695.1 697.8 705.3 705.1 701 695 691 683.6 681.1 677.6 673.6 672.6 686.9 702.7 716.1 731.4 744.3 755.4 765.9 760.9 744.7 712.5 695 683.1 682.5 675.9 677.7 671.6 655.9 638 618.9 607.3 603.4 608.8 613 613.3 611.7 609.2 606.4 607.1 608.5 611 615.5 619.6 619.2 616.5 614.7 612 608.8 606.2 605.7 602.3 599.5 594.9 589.5 582.7 577.5 571.5 563.9 555.1 546.1 537.1 527.8 519 513 504.3 494.4 485.4 474 463 457 446.9 437.6 428.8 417.9 410.2 391.5 376.7 369.3 357.9 347.3 322.7 303.7 289.8 274.6 260 246.8 231.3 224.4 225.3 230.1 243.7 264.9 286.2 300.5 315.5 329.1 347.2 356.3 392.7 406 414.2 419.4 424.3 427.5 427.6 425.5 421 414.1 396.2 377.2 364.3 359.3 357.5 353.2 342.9 339.8 335.6 332 322.8 349 358.1 362.5 371.7 381.4 391.5 401.6 410.7 404.1 403.4 398.4 399.9 402 401.3 403.6 409 415.1 422.8 420.6 422.3 426.5 431.9 441.1 449.2 454.3 459.3 463.6 466.3 472.7 478.3 480.9 482.2 483.3 483.4 487.5 489.2 497.8 507.2 510.3 504.8 497.5 494.8 494.7 502.9 510.1 520.7 533.2 539.5 545.9 552 551.6 552.8 550.9 552.2 562.9 570.3 581 580.6 581.7 581.5 581.5
496.9 530.3 568.9 606.7 638.9 662.5 680.7 701 720 737.7 743.7 745.2 738.6 735 733.4 728.9 727.9 724.7 720.8 721 726.2 727.8 726 724.3 718.1 715.3 702.8 695.2 692.4 689.4 682.7 687.2 706.2 722.2 733.6 744.3 757.7 767.2 770.1 770.4 754.7 728.5 714.2 699 697.7 700.3 691.8 676.6 653 627.4 609 596.9 591.5 592.1 596.1 596.2 593.6 592 594.4 597.4 598 599.8 601.8 600.1 601.9 600.2 599 596.8 593.6 594.4 593 589.8 586.1 581.3 576.4 571.2 564.4 557.1 548.1 537.8 528.5 519.4 510.5 502.1 494.1 485.6 473.2 461.3 449.2 439.5 428.3 418.4 410.6 400 390.3 374.4 357.9 351.6 338.2 322.4 306.3 290.4 277.8 264 247.8 237.8 227 225.7 228 236.3 259.4 284.5 302.4 318 330.3 348.1 375.3 393.6 407.5 419.9 426.8 428.2 434 436.3 435.2 439.6 439.1 432.3 414.2 400.4 388.7 378.4 373.9 364.6 355.3 346 345.5 343.4 332 349.3 359.7 368.8 373.7 385 395.2 409.7 416.6 408.1 405.9 405.7 410.4 407.2 406.2 402.9 405.4 410.8 416.9 417.1 420.5 430.5 435.7 437.4 437.6 444.2 446.4 450.8 458.1 461.8 467.2 468.7 472.7 477.5 479.3 478.5 486.9 492.3 496.2 493.3 489.5 486.8 488.1 494.9 502 514.1 522.2 536 541.3 547.1 552.7 554.6 557.4 563.2 565.8 571.3 577.3 584.7 580.2 573.5 570.7 573.8
475.7 505.9 544.5 583.4 617.1 641.8 668.2 691.6 709.6 724.1 728.8 724.2 721.5 720.2 722.9 725.9 728.7 730.8 731.2 732.4 737.6 742.7 745.1 742.9 734.4 725 714 705.3 700.6 699.5 700 704.1 712.1 724.9 735.9 746.3 757.2 767.7 777.8 782.7 787.4 779.8 748.5 722.8 718.6 716.3 708.1 690.1 672.3 652.8 628.7 608.3 590.1 578.2 576.9 575.9 578.2 576.6 580.8 583.6 583.6 588.1 588.7 590.2 591.3 592.6 590.1 586.5 582.2 579.7 579.2 577.2 574.8 569.8 564 559 553.3 544.6 537 526.9 517.9 507.7 501 490.8 482.3 472 460.3 445.4 432.5 418.8 412.7 404.7 392.4 381.8 372.6 354.6 344 332 318.9 304 292 278.1 264.5 248.4 240.7 229.8 228.4 227.1 237.6 253.6 276.3 294.5 314.1 334.5 351.8 374.4 398.1 413.6 416.3 430.1 441.5 449.9 459.6 459.5 457.5 451.9 454.4 452.1 438.2 419.5 407.3 399.5 389.5 378 365.9 352.1 351.2 351.7 349.4 345.8 359.8 367.3 377.3 384.2 392.9 404.1 410.3 402.6 405.7 412.8 422.3 414.5 412.2 409.4 405.2 407.1 416.8 418.1 420.1 431.4 434.6 439 434.5 429.8 436.9 440.8 447.6 452 455.1 460 462.7 467.7 467.9 466.8 471 475.6 476.1 475.8 482.5 485.3 491.3 493.4 502.7 516.6 524.1 537.3 543.3 550 556.9 561.6 565.2 565 565.2 568.6 567.4 566.8 567.7 565.7 566.5 572.6
455.8 484.1 515.4 560 594.2 621.5 653.6 680.5 702.4 711.5 715.8 710.1 707.5 709.2 712.4 719.6 722 725.6 729.8 735.1 741.9 748 755.7 753.9 750.3 742 731.7 718.7 710 710.2 712.9 715.1 720.8 730.7 738.9 747.9 756.5 767.8 779.8 788.3 797.3 799.9 792.5 770.3 748.5 739.9 722.9 711.4 691.9 666.2 648.4 632.3 606.1 586.4 574.3 561.2 560.2 561.1 562.7 563.1 566.1 568.9 569.9 570.7 571.9 573.5 573.8 571.3 570 567.9 566.6 564.6 561.6 556.3 553.5 546.7 542.2 533.5 523.8 516 507 497.9 487.8 479.1 466.9 456.7 445.5 434.3 417.4 406.4 396.6 386 378.4 363.3 352 340 328.8 309.6 303.7 291.9 281.2 267.8 250.4 240.6 230.5 229.8 232.8 238 252.6 270.4 288.7 309.3 326.4 348.3 375.2 396.7 410.6 423.1 429.8 436.5 444.5 454.2 466.8 471.9 475.9 484.6 482.9 467.5 454.2 445.9 435.9 425.2 412.3 400 377.5 361.2 360.8 356.1 354 356.3 356.3 366.2 378.7 384.2 389.5 393.8 399.1 401.1 406.8 417.9 419.3 417.5 418.1 417.9 411.4 407.4 414 419.8 417.4 429 431.6 431.8 438.2 432.6 426 427.7 438.8 441.6 444.4 447.9 447.4 451.9 454.8 453.9 459.5 461.2 468.7 474 479.6 483.7 491.3 502.3 512.8 520.4 526.2 535.9 540.3 548.5 558.9 567 566.7 563 559.8 553.3 550 547 551.9 560.2 561.9 565.5
439 464.5 497.6 533.8 565.8 602.2 639.2 667.9 692 701.3 701.6 696.6 694.1 694.2 699.3 706 712.5 718.4 725.2 734.7 743 750.6 759.2 762.4 762.6 756.8 743.4 731.6 723.7 724.2 726.6 728 731 735.7 743.6 749.8 758.9 769.6 781.5 793.5 803.5 810.3 812.1 806.4 790.7 764.9 750.7 731.8 713.6 690.4 671 650.8 625.4 600.5 579.8 559 543.9 545 547.2 549.7 551.8 553.6 553 553.6 553.5 553.9 554.2 552.5 550.7 554.2 551.6 548.1 546.2 542.7 537.1 531.4 525.7 520.2 510.8 502.5 494 484.8 474.6 464.2 454.4 443.6 431.6 421.6 404.4 390.1 378 366.5 359.7 345.3 332.4 320.2 311.3 297.3 287.6 280.6 267.4 253.2 242 232.5 231 233.4 237 251.3 272.8 290.8 305.8 324.7 346.1 376.8 398.1 415.8 422.4 427.5 440.5 442.5 450.1 462.8 468.7 476.9 486.1 495.4 499.4 493.8 485.1 466 456.4 450.1 433.5 414.1 388.9 368 364.4 361.3 354.7 364 362.1 371.4 382.2 386.9 389.8 391.1 395.1 401.8 411.7 422.1 418.5 418 419.7 423.5 411.4 407.1 410.5 412.5 414.2 428.9 433.8 429.5 429.9 432.4 427.9 422.7 423.6 426 432.5 437.4 435.7 431.6 432.7 443.1 447.3 455.9 460.1 464 472.4 478 494.4 510.1 519.6 521.4 521.8 528.4 532.7 540.4 554.2 563.5 565.3 565.3 550.2 530.5 529.1 527.3 536 548.4 553.9 550.9
422.8 448.1 479.3 507.6 541.8 579.8 616.6 650.9 679.3 690.2 689 684.1 682.7 683.2 691.3 698.3 705.8 711.9 719.2 726.7 736.7 745.1 753.8 759.6 763.8 762.9 757.2 745.7 737.4 736 736.9 737.7 740.2 744.7 749.8 756.8 763.2 772.7 783.8 795.3 805.8 814 817.9 817.1 810 790.8 768.4 753.4 737.9 709.1 687.7 667.7 641.5 612.3 576.4 552.1 540.3 529.1 531.4 533.6 537.1 539.9 542 542 542.7 542.6 543.6 542.4 540.9 539.7 537.2 536.5 535 531 524.4 518.1 513.6 507.7 502.5 494.4 484.4 474.4 465 454 440.9 427.7 419.8 407.2 392.8 379.9 363.5 346.9 340.7 331.5 315.9 303.4 289.8 280 275.8 262.7 253.7 243.1 236 232.4 235.1 235.5 254.2 273.6 288.5 311.5 325.5 348.6 366 395 417.7 426.4 437.6 443.5 443.1 452.3 460.7 470.8 476.1 484.8 495.5 506.7 510.9 509.3 500.2 487.1 467.5 475.7 461.6 431.1 397.5 377 369.1 366.5 366.9 371.1 369.6 376.5 384.5 387.3 391.1 393.2 399.3 407.9 421.8 432.8 434.3 426.3 427.2 421.2 412.9 406.8 403.3 403.4 409.1 420.1 424.6 422.3 423.2 421.8 421.4 420.1 426.3 424.1 410.8 414.6 413.4 419.4 420.3 427.4 436.9 445.3 450.7 455.8 463.2 470.2 491 508.6 513.2 510.2 505.6 513.2 519 528.9 539 549.1 552.3 549.9 529.2 514.7 507.4 504.6 513.2 526.3 531.1 533.3
413.8 433.1 458.5 488.9 517.7 555.7 592.9 627.7 659.3 676.4 678.3 673.9 668.8 673.9 681.1 687.1 695.4 702.6 712.7 721.7 732.1 739.5 744.9 752.9 758.9 764.6 766.1 758.9 750.3 747.7 743.8 744.4 747.3 750.3 756.7 763.2 770 777.4 788.2 800.4 811 820.3 828.4 827.1 826.8 808.2 782.1 766.1 751 727.2 706.6 675.7 644.3 614.9 564.5 538 529.8 520.7 520 520.3 523.2 526.7 529.8 531.7 533.8 534.4 534.8 535 535.5 534.6 533 529.5 526.4 521.8 515.7 509.6 505 499.9 493.6 484.8 475.1 465 455 442.5 429.2 415.5 404.6 395.5 382.2 365.8 352.6 338.1 320.3 306.7 297.1 285.8 277.2 268.6 259.5 250.9 243.5 235.6 234.1 239.9 243.1 254 276 293.5 311.5 320.9 350.2 371.3 395 413.9 428.2 439.5 449 461.6 463 464.5 467.4 477.2 483.2 496.4 504.5 513.4 520.3 518.8 513.5 500.2 477.1 474.5 470 444.9 410.1 385.8 375 369.3 376.5 377.9 375.9 383.5 386.2 389.7 394.3 397.4 402.5 412.2 426.2 428.1 432.9 430.5 426 419.8 417.8 411.6 404.2 402 402.7 410.6 412 415.8 419.1 417.7 414.1 412.2 414.9 406.4 404.5 401.6 395.3 400 403.5 414.3 425.7 433.5 438.3 442.5 453.1 464.6 464 481 485.3 481.3 487.3 496.6 508.2 516.4 528.5 528 526 520.1 507.5 494.2 491.1 486.8 490.4 503.2 511.2 517
400.1 420.4 443.5 468 498.2 526.7 566 599.9 634.1 662.6 664.2 660.4 659.2 664.7 670.4 677.7 686.7 694 705 716.8 727.8 733 737 744.8 752.3 761.2 767 769.2 766 760.5 754.8 756.9 757.6 757.6 762.2 770 776.3 783.9 795 805.9 818.1 831 840 843 842.5 828.5 798.3 774.2 762.8 744.8 720.7 684.6 649.5 611.4 569.9 534.1 519.3 515.5 515.1 514.8 514.8 515.4 518.9 522.2 525.5 526.5 527.2 526.8 528.1 527.5 525.1 523.3 520.4 514.5 507.2 504.3 498.8 489.5 483.4 475.4 465.9 457.5 448 435.5 421.5 407.7 392.5 379.2 366.6 356.1 345.8 327.8 309.6 296.9 283.9 274 265.9 258.6 249.6 240.1 237.6 236.8 239.2 245.5 264.4 284.4 301.2 322.5 338.7 350.2 369.5 403.6 417.6 429.4 441.7 457.1 464.3 471.3 483.2 485.6 477.5 487.2 496.8 502.6 510.4 520.5 526.3 527.6 523.1 519 499 479.5 460.6 445 415.8 388.7 368.8 379.7 383 383 381.9 387.2 394.4 396.6 397.4 402 407 417.4 423 425.8 429 425.9 422.3 419.2 420.2 414.8 409.9 404 401.5 400.4 402.8 402 404.4 407.2 403.7 402.2 399.1 396 393 390.5 390.3 388.2 391.5 400 414.3 417.8 424.1 429.7 443.7 445.7 444.9 453.6 454.5 459.1 469.6 480.2 491.5 499.9 509.2 513.4 501.3 487.4 480 463.9 467.9 466.6 475.6 486.2 490.9 490.5
389.2 407.5 428.5 452.3 478.5 504.1 540.9 575.2 610.3 634.7 641.8 644.4 648.8 653.9 658.3 666.9 675.2 685.9 696.9 707.6 715.8 720.4 729 737 744.1 753.3 762.4 769.2 771.8 771.4 775.8 780.1 776.3 769.6 769.1 773.6 781.1 788.2 798.4 808.3 821.3 831.2 835.5 837.2 844.2 837.6 820.2 784.9 770.8 764.3 744.8 694.4 656.7 629.8 583.5 533.6 514.8 514.8 514.8 514.8 514.8 514.8 514.8 514.8 517.4 518.6 518.7 520.1 519.6 520 520.3 517.5 512.4 508.3 502.5 496.1 491.9 483.9 475.1 466.1 452.1 447.4 440.8 428.7 414.3 400.5 384.8 371.4 356.5 344.9 332.7 318.2 302.3 288.7 275.5 266.2 257.2 249.9 241.6 242.2 243.1 246.6 252.9 260.3 285.7 307.2 332.8 372.2 379.2 379.5 375 419.1 431.4 441.2 456.9 465.9 480.9 484.8 492.5 497.1 493 496.4 505.2 508.2 517.5 523.7 530.9 532.3 526.5 523.1 504.8 493.1 457.7 433.7 411.5 389.6 382.2 385.8 386.3 386.1 387.1 395.3 401.2 404.4 406.5 406.1 411.2 423.4 424.4 426.7 428.3 426.6 427.5 423 421.2 418.5 418.6 409.9 406.2 404.3 402.3 399.1 394.1 391.8 390.8 390.2 389.5 388.5 386.7 385.4 384.8 384.5 384.8 386.6 395.7 402.1 403.9 416.7 428.6 421 425.1 428.1 431.3 441.5 447.5 457.4 471.2 477.9 485.6 480.3 469.1 463 452 446.3 448.2 449.7 459.8 467.3 467.2 472.9
385.8 399 416.9 435.2 457.1 486.9 517.1 550.8 581.6 605.8 622.3 630.7 635.3 639.7 647 656.4 665.9 675.9 685.7 696.6 704 709.6 717.4 725.8 735.4 745 752.6 760.7 769.5 774.6 779.7 783 785 781.7 778 781.9 786.3 790.6 796.2 806.9 819 823.3 825.5 826.8 830.8 831 822.7 803.5 781.6 776.4 761.9 714.1 676.2 628.8 597.6 548.9 514.8 514.8 514.8 514.8 514.8 514.8 514.8 514.8 514.8 514.8 514.8 515.8 517.7 516.5 517.1 515.3 510.3 502.2 501 495.4 488.3 483.9 479.1 471 459 444.4 427.9 420.1 407.5 393.4 379.4 366.1 352.1 338.4 324.2 308.9 296.1 280.7 268.4 260.8 250.9 243 248.6 250.5 254.1 257.8 268.2 287.3 307 323.8 358.5 388.7 402.4 404.9 397.3 429.3 443.8 457.8 473.1 477.2 483.4 493.7 502.9 509.4 508.1 513.4 512.8 518.2 521.7 525.7 533.1 539.6 532.5 520 508.6 494.6 459.1 428.8 406.1 391.3 390 393.1 390.6 391.4 394.6 399.4 407.4 415.6 416.9 414.8 419.2 423.7 427.3 431.1 433.5 434.8 435 434.2 432.8 430.5 428.3 425 415.9 413.5 413.5 410.5 406.6 399 395.3 392.9 390.4 388.2 386.4 387.3 386.3 384.8 383.6 383.3 384.8 387.8 392.5 400.4 404.7 402.1 404.9 408 414.5 418.9 425.3 432 438.6 444.7 449.5 444.5 440.5 438.3 427.8 432 434.9 440.6 444.9 448.5 449.6 457
378.2 387.9 403.9 422.1 442.8 467.5 494.6 519.5 548.9 579.5 598.9 612.3 621.3 625 633.9 645.4 653.7 663.5 674.6 685.7 693.4 700.7 707.6 715.5 723.6 732.9 742.8 750.2 758.5 766.9 773.5 778.4 781.1 780.7 779.9 785.8 787.2 787.4 788.6 797.9 810 811.9 812.5 814.7 817.9 820.5 820.2 812.1 798.2 784.7 772.8 717.8 666.5 637.9 608.9 562.1 528.9 514.8 514.8 514.8 514.8 514.8 514.8 514.8 514.8 517.1 517.1 515.8 514.9 514.3 515 512.5 511.9 510.4 510.8 510.3 505.5 494.4 483.7 475.3 465 449.3 433.3 410.9 397.3 382.6 371.3 360.4 346.2 330.2 315.4 301 286 269.6 263.9 254 247.6 252 255.4 260.3 266.1 274.8 296.2 317.8 333.8 348.2 364.5 397 418.6 426.6 421.2 441.8 456.3 471.5 480.9 484.8 499.5 512.6 518.6 516.5 522.4 525 524 530.5 532.6 529.9 526.4 529.4 534.6 521.1 507.1 481.2 448 425.3 407 395.9 396 397.2 397.2 397.9 403.2 408.4 416.3 421.9 426.1 428.4 434.3 438.2 441.6 444.3 444.3 445.9 446.9 446.9 444.9 443 441.7 441.9 437.5 432.7 429.7 427.5 424.9 419.1 411.5 408.2 404.8 404.6 395.8 390.8 388.4 386.2 384.4 384.7 388.6 388.6 383.4 381.2 388.4 387.7 387.9 388.4 395.1 400.2 408.7 417.3 421.5 423 424.7 425.7 424.5 420.1 411.7 418.3 426 430.7 433.7 432.7 439 444.3
374.8 383.4 395.1 410.7 432.6 454.4 474.4 495.8 523.1 551.3 573.6 588.8 602 609.7 620 630.7 640.6 650.2 662.4 672 679.8 689.1 697.6 705.6 714.5 722.8 731.7 740.4 749.4 759.2 766 772.5 775.5 774 777.6 782.5 782.1 778.8 779.3 785.7 795.6 800.5 800.1 802.4 805.2 805.9 807.8 805.5 795 784.2 775.3 729.8 680 646.7 611.7 580.5 551.3 525 514.8 514.8 514.8 514.8 514.8 521.3 522.8 524.1 523 521.4 519.5 516.6 517.6 518.7 521.5 521.4 522 521 517 506.6 491.1 485 478.4 463.5 446.8 427.1 398.6 381.2 370.1 355 341.3 306.4 298.3 291.5 275.2 262.1 252.6 250.6 254.7 260 265.2 270.5 281.4 299.7 321.4 341.7 359.3 380.1 390.9 399.8 436.8 447.6 440.5 458.5 466.9 478.8 489.8 501.5 512.4 520.7 525.3 530.2 537.6 533.9 533.7 538 538.5 535.6 532.9 524.6 518.3 503.8 484.3 461.4 435.1 418.8 405.4 399.7 402.7 401.2 401.5 407 413.6 419.7 426.9 433.4 439.3 444.4 448.5 452.3 456.2 459.3 462.5 463.4 463.4 463.3 463.3 464.8 466.5 466.4 465.8 458.5 455.9 452.6 451.5 446.6 433.4 419.1 413.2 404.8 399.6 393.8 393.3 390.9 386.8 384.3 389.2 393.7 387.4 386.8 387 376.3 362.1 371 372.8 380.7 388.7 395.7 400.3 397 399.8 403 404.2 399.1 401 404.9 418.1 421.5 421.6 419.5 425.5 435.9
377.2 381.1 389.9 402.1 419.3 438.5 459.3 478.2 495.2 526.3 550.6 567.3 580.1 593.6 604.7 615.7 627.2 637.7 650.4 659.5 670.4 678.5 686.7 694.8 704.2 714.5 724.1 732.2 741 750.4 756.5 761.5 764.8 767 767.9 770.1 769.7 767.4 768.7 775.2 782.7 789 790.9 791.9 793.5 793.2 791.5 790.1 785.3 777 772.3 768 718.3 673 640.2 614.4 577.9 545.9 526.5 519.1 515.4 519.9 524.5 527.5 530.8 530 529.3 529.1 524.7 521.8 520.7 520.8 522.8 524 525.2 522.3 516.4 507.4 494.1 486.6 479.9 472.4 462.7 430.5 401.4 382 358.5 346.4 325.7 311.3 293.7 274 266.3 256.7 253.9 256.7 263.7 273.4 280 287.6 306 319.4 343.2 361.7 387.4 409.5 420.6 429 446.5 455.4 457.9 467 478.2 489.3 499.9 510.2 515.4 522.6 530.5 538.5 542.7 546.9 535.3 547.1 545.1 543.6 530 518.5 495.6 476.8 462.1 444.6 425.4 411.3 404.5 403.8 406.7 408.1 412.2 416.9 424.7 430.5 438.1 444.3 449.9 454.6 459.1 464.1 467.7 470.8 475.4 478.6 481.5 482.5 477.7 478.4 478.5 480.6 480.2 476.1 479.9 476.8 469.2 467 447 434.4 422.6 412.6 404.5 398 399.2 399.2 392.2 385.4 385.4 387.8 385.4 389.6 393.7 395.9 389.7 369.4 351.5 356.3 365 372.4 371.8 370.4 374.2 377.9 377.9 372.3 380.3 390.2 397.9 403.7 396.9 398.6 407.4 421.9
385.1 384.2 387 397.6 409.9 425 444.6 464.7 482.5 503.6 528.9 547.1 562.3 577.4 590.4 600.8 612.9 626.1 637.8 649.5 660.6 670.4 679.3 688.8 698.6 709 717.1 726.2 735.4 742.3 747.7 752.3 756.4 758.1 758.2 757.6 756.6 755.3 758.5 767.3 773.5 778.6 781.8 782.4 782.4 780.5 776.3 771 769 766.1 765.3 765 756 713.9 670.5 627.8 605 578.3 553.8 544.1 543.1 548.6 546.2 546.7 545.4 537.7 538.5 542.4 540.5 531.9 523 521.4 522.8 525 528.2 528.3 520.5 506.4 497.3 487.8 478.3 468.6 451.6 420 393.7 372.5 352 322 314.1 296.6 278 266.2 260.8 254.3 259.2 265.2 278.3 293.3 296.1 316.8 333 350 364.7 388.6 414.8 436 443.9 449.9 456.8 463.8 464.7 476.7 485.1 494.5 502.4 510.1 515.3 519 525.5 535.5 546.1 548.7 530.7 542.1 546.1 536.3 510.6 492.1 474.3 460 448.9 432.5 415.9 409 415.9 411.3 413.8 416.9 420.5 427.3 433.4 439 446.6 451.2 456.8 461.6 466.3 471.6 477 480.9 485.4 488.4 494.2 496.8 495.1 487.9 484.2 481.6 482.5 481.3 486.7 484.5 472 465.9 457.3 443.1 430.9 420.9 410.4 410.5 404.3 396.3 390.1 383.7 385.4 385.4 385.4 385.3 390.6 397.3 398.3 375.4 366.8 360.2 349.8 342.9 350.6 349 346.7 351.6 349 346.3 352.9 367.3 373.3 373.7 379.9 382.6 384.6 391
398.3 393.3 394.5 394.3 402.8 415.6 431.4 451.1 469.1 487.1 511 529 546.4 561.7 575.2 588.9 600.2 613.9 625.1 639.4 651.6 663 673.8 684 694.8 704.9 714.6 722.9 728.9 734.4 736.1 738.8 743.8 749.8 749.7 746.7 744.5 744.8 747.9 755.4 762.2 767.6 770.8 771.3 769.6 763.6 756.4 751.1 749.5 752 756.1 759 758 743.7 702 666.8 639 599.7 584.4 577.2 584.1 584.3 588.8 584.1 578 570.1 563.8 564.5 566.1 549.9 529 520.4 517.6 519.1 519.2 526.1 521.8 507.7 495.8 488.4 473.8 458.8 439.4 400.7 375 352.6 333.3 317.5 297.2 282.4 266.5 260.1 256.6 261.4 268.6 281.1 297.5 307.4 320.6 345.7 368.2 381 392.4 414.9 446.4 458.9 466.3 473.3 480.1 482.8 482.5 485.9 489.6 494.9 499 501.5 505.8 510.3 513.4 521.3 526.4 527.6 516.1 526.6 523.5 505.3 491.2 474.9 457.8 449.6 441.9 431.6 420.9 422.2 419.3 414.9 421.1 423.7 428.7 432.8 438.3 444.7 451 454.9 460.9 465.8 470.3 478.5 484.9 489.6 492.1 495.4 497.5 501.7 503.5 500.3 495.9 492.3 484.6 480.7 480.5 476.9 468.5 465.3 459.9 452.8 435.1 429.5 418.7 421.1 414.7 403.3 397.3 387 386.7 387.2 388.7 386.9 387.7 390.4 386.6 381.6 368.8 362.7 357.6 352.3 345.7 340.9 333.8 336.3 332.2 329.8 332.3 334.7 342.6 343.8 350.9 360.9 361 354.3
434.6 424.3 416.5 412.3 406.2 410.7 419.5 440.8 455.5 478.8 488.6 511.3 532 548.7 561.7 575.5 591.3 601.9 614.5 630.4 644 655.6 667.4 679.6 693.1 703 712.9 720.6 726.5 730.1 733.1 735.6 741.5 737.9 737.3 734.5 732.1 734 736.6 741.6 748.3 754.8 758.9 759.8 756.5 746.1 739.9 735.2 733.3 739.1 746.5 751.9 753.6 749.4 725.1 695.8 666.4 640.9 623.9 620.7 618 626.1 630.2 632.1 621.7 606.8 588.7 578.6 569.5 555.5 543.9 529.7 519.1 515.2 509.3 502.8 503 496.3 477.7 461.2 449.8 435.1 417.7 383.1 352.3 334.1 317.5 300.1 283.2 269.8 262.2 256.8 261.4 270.2 281.3 300.5 312 331.9 359.3 380.9 397.5 407.4 420.7 441.4 466.4 481 487 489.8 491 497.4 497.7 497.8 498.8 500.2 500.9 503 500.8 500.3 500.2 500.2 499 498.5 497.2 493.5 490.3 482.4 471.5 459.2 461.6 455.9 440.9 433.2 424.5 424.7 422.9 422.2 425.1 428.9 431 434.2 441.4 447.7 454.9 459.4 463.6 470.3 475.3 483 490.5 496.9 501.4 503.1 506.8 510.2 508.8 511.2 507.8 505.1 500.4 495.3 484.2 477.3 471.7 468.1 464.8 463.4 451.8 435.2 434.4 434.6 424.7 414.2 410.6 407 397.3 400.2 403.7 401.9 401 398.8 392.3 385.8 381.1 376.6 370 362.8 356.9 352.4 346.8 339.7 332 327.7 324.5 322.7 321 321.9 324.2 332.1 336.3 330.9
478.1 460.5 446.9 436.1 425.4 415.1 426.2 438.7 456.7 473.6 484.8 506.2 524 541.7 555.8 566.7 581.7 592.9 611.1 626.9 641.8 653.4 666.2 680.8 692.5 702.6 710.2 717.2 723.9 727.7 728.6 728.7 729.9 729.3 723.1 720.5 720.2 720.3 722.7 726.6 733.6 741.2 745.2 746.9 741.1 732.8 725.5 723.6 726.8 733.1 738 743.8 746.7 746.9 741.7 720.2 703.1 693.2 674.1 672.3 678.1 679.4 683 680.3 670.1 648.4 617.5 590.8 567.5 561.4 551.6 535.1 522.5 510.8 502.2 489.1 462.2 465.9 452.8 426.6 418.3 401.2 382.6 356.9 332.9 316.2 300.3 282.4 270.7 263.8 260.3 263 275.6 289.1 304.7 319.9 340.2 373.4 399 415.7 426.9 439.6 450 469.6 489.7 500.6 501 500.2 505.2 506.6 503.4 503.6 504.6 500.9 500.1 505.2 504.2 498.1 497.5 495.9 492.6 489.9 487.7 483.7 480.5 478.2 486.6 486.7 478.6 467.1 449.5 435 427.3 424.5 424.7 423.3 427.1 430.3 432.7 436 441.3 448.9 457.3 463.4 470.1 476.1 481.6 487.3 495.4 501.8 507.6 512.4 516.1 518.8 520.6 522.9 525.5 526 516 503.6 495.8 487.8 477.7 470.8 463.9 460.2 454.3 448.5 443.7 438.9 435.3 426.6 423.1 422 415.6 415.6 415.6 417 418.3 417.8 417.5 406.2 398.2 394.3 390.6 380.3 376.9 372.5 367.1 357.7 349.9 343.2 338 333 328.9 323.7 318.9 315.9 313.3 311.9
527.5 499.9 489.9 469.3 446.9 433.5 435.3 447 461.7 477.1 496.7 516.9 537 552.6 564 576.4 589.6 600.8 615.7 629.4 642.1 655.6 668 678.7 689 700.1 709 717.4 723.3 724.1 723.2 720.7 717.2 713.3 709.4 705.3 705.2 707.6 709.7 715.4 721.6 728.3 731.6 731.3 725.7 721.2 718.1 717 719.3 724 726.6 731.4 738.6 740.3 740.2 737.5 734.4 729.3 722.7 717.7 716.5 720.6 717.8 714.4 702.1 670.1 625.7 586.2 565.2 553.1 543.3 535.7 517.5 505 488 478.6 450.5 431.7 426.7 406 385.5 369.5 352.2 331.9 317.1 297.1 279.1 269.2 263.8 260.2 263.2 275.3 293.5 313.4 326.8 341.1 370.4 405.5 431.5 449.7 462.9 481 489.4 503.7 510.9 509.8 509 508.3 511.9 507 506.1 505.6 502.8 500.9 500.1 500.1 508 502.1 496.8 493 491.6 492.1 498.8 501.3 503.6 504.4 497.6 491.4 485.1 479 464.1 442.1 428.5 426.2 425.9 423.9 427.3 430.4 432.7 435.8 440.6 447.2 455.8 464.4 471.2 478.2 483.5 490.6 498.3 504.4 509.7 516.7 521.9 526.1 529.2 531.9 538 538.7 532.4 525.7 513.3 502.5 487.7 481 471.9 463.4 460.5 455.7 451.1 447.5 446.6 446.4 443.5 437 429.1 430.8 432.8 429.4 433.6 432.8 432.1 432.9 426.1 413.5 412.5 402 395.9 393.8 388.6 380.9 375.8 371.8 365 361.6 360.4 352.4 339.1 331 322.6 313.9
544 533 512.6 496.7 474.2 450.7 446.7 458.5 473 489 504.3 523.8 541.3 557.2 567.9 581.2 592 605.2 619.1 630.4 643.7 655.5 666.3 675.4 684.5 695.3 706.5 716.3 723 722.6 719.2 715.8 709.8 702.4 696.7 692.1 691.1 692.8 698 704.4 711.3 716 717.3 716.8 712.9 709.4 709.4 708.2 709 712.9 715.1 718.7 723.8 731.3 733.5 732.3 729.6 726.7 722.6 716.7 710.1 709.2 705.3 704 695 667.2 638.1 603.3 561.1 542.8 533.9 513.1 504.2 493.1 475.1 461.5 437.7 423.4 395 386.2 366.2 349.7 331.5 312 295.2 279.4 268.9 264.7 262.6 260.8 279.4 294 313.1 331.8 349.8 371.5 402.6 428.9 455.1 483.3 501.3 517.5 521.8 528.4 526.5 519.9 515.4 511.7 508.1 507.1 508.5 508.1 506.6 502.8 501.7 504.4 503.1 500.4 498.4 502.1 505.5 506 512 520 524.9 515.4 506.1 499.2 487.6 482.1 467.2 450.1 431.5 428.2 428.9 426.7 426.4 430 432.4 435.3 439.1 445.5 453.4 462.2 469.2 476.3 483.1 490.5 498.7 503.8 509.1 513.2 520.6 525.2 532.1 535.2 546.4 538.9 533 528.9 519 508.8 501 497.5 487 474.7 465.6 463.7 462 463 460.9 461.5 464.8 460.7 445.6 444.3 443.5 446.3 446.4 451.5 452.7 452.9 444.7 441.9 431.2 426.4 419.7 413.5 409 407.4 403.7 399.6 392.7 389.8 388.2 379.5 371.4 356.5 351.7 341.2
549.2 531.3 517.3 506.8 483.4 468.7 461.6 468.7 482.1 498.5 511.9 527.8 545.5 556.2 570.5 579.6 592.7 606.5 616.9 630.8 641.6 652.6 659.7 668.4 678.8 690.8 701.6 709.1 710.4 708 704.3 704.6 702.2 696.4 688.5 682.2 678.2 681 685.5 692.2 699.1 704.3 706.7 707 701.6 697.7 696.7 695.4 697.3 698.6 699 704.2 711.9 717.3 721.8 721.6 719.6 711.6 709.2 705 698.9 692.8 688.7 687.9 682.1 656.1 623 590.6 565.9 533.5 521.9 505.8 490 477.7 458.1 441.5 419.9 401 385.3 363.5 350.4 325.3 311.1 295.6 283.3 272.6 264.5 263.4 265.1 277.5 291.3 311.6 333.3 351.3 376.3 401.3 430.5 452.9 482.1 507.8 522.4 531.7 537.2 546 545.5 538.5 534.2 532.7 522.9 513.7 510.1 508.8 510.9 507.8 506.7 505 506.7 508.3 509.1 515.3 516.3 516.1 524.4 529.7 530.3 519.5 513.4 505 490.5 480.6 465.9 450.6 439.1 431.8 430.6 428.4 427.2 428.5 431.3 433.9 437.5 444.3 452.5 459.8 468.4 475.3 481.2 487.3 495.3 501.2 508.1 514.2 516.7 518.7 523.4 528.6 533.7 533.2 532 530.7 525.7 517.3 506.4 504.1 496.4 487.6 477.2 469.2 470.1 473.3 475.9 480.6 478.9 476 468.4 460.4 464.1 459.2 461 464.1 470.4 474.1 468.7 461.1 462.6 459.4 446.4 439 433.4 429.1 423.5 421 418.4 418.8 415.9 413.7 409.6 405.1 390.4 372.2
561.6 546.1 519.9 500.3 485.7 476 472.7 478.9 492.4 509.8 522 533 544.9 557 568.3 578 591.3 604.6 614.1 625.1 635.8 641.9 647.2 655.9 665.8 674.8 678.5 680.9 678.9 680.7 683 688.9 688.1 685 682.2 676.2 671.9 670.6 677 685.1 688.7 694.1 696.6 694 689.3 683.4 683.8 682.9 681.8 682.5 683.7 687.8 694.7 700.8 705.9 706.2 700.3 692.8 687 686.8 683.3 676.5 669.1 666.8 658.9 627.6 595.6 578.2 545.4 519.6 507.9 496.6 478.5 462.5 445.3 421.8 401.4 382 368 347.5 330.8 315.2 300.6 285.8 276 268.2 264.5 268.2 274.3 292.1 309 330.9 350.5 376.1 406.5 438.3 463.4 486.4 514.7 533.8 545.4 550.3 563.6 568.5 567.5 559.6 556.9 549.5 537.9 525.4 516.7 519.8 517.6 518.3 519.1 514 511.7 512.8 517.4 521.2 521.8 524.4 531.9 537.1 537 529.2 519.4 512.9 502.2 487.2 473.5 460.4 443.9 434.8 433 430.2 428.5 429.7 431.7 434.1 436.7 442.6 446.8 454.9 464.3 470.3 476.1 485.4 493.7 499.4 510 513.7 515.1 516.7 518.8 527.6 532.2 533.6 532.4 535.1 530.9 521.5 515.5 513.7 504.2 493.9 485.6 480.8 483.3 486.3 489 490.1 490.5 482.3 480.8 484.2 489.3 487.7 488.6 478.5 492.2 492.3 485.3 481.7 478.6 476.8 467.8 466.9 463.4 456.3 444.4 439.4 432.6 426.4 424.3 421.1 406.9 394.7 382.1 364.1
558.4 546.4 525.6 502.8 500.8 492.6 489.5 490.3 499.8 516.3 527.4 531.2 545.1 554 563.1 574.8 587.1 598.2 607 614.3 621.3 623 625.2 635.6 642.5 642.7 641.2 644.9 644.8 651.9 663.7 671.5 674.6 676.5 674.8 670.9 667.9 668.4 672 678.9 682.9 686.9 692.8 692.9 684.6 679.9 673 674.6 674.6 672.4 670.8 671.9 676.6 682.9 688.4 689.4 680.4 675.4 659.3 656.1 662.2 655.8 646 638.1 631.1 608.6 579.6 558.4 540.3 516.1 492.3 478.6 466.2 450.7 431.3 405.8 384.6 366.4 347.8 331.7 313.8 300.1 286.9 278.2 271.5 267.4 266.4 276.7 289.1 312.4 331.4 350.6 371.9 403 435.9 471.7 494 514.1 531.1 547.6 561.2 568.3 577.3 580.5 582 577.6 572.1 559.3 547.2 533.9 531.9 527.2 523.1 519.4 518.7 517.5 516.7 518.6 526.4 531.7 534.3 536.8 545.9 557 554.9 554.1 540.7 529.7 519.3 504.1 491.1 472.9 453 440.8 437.3 431.7 429.3 429.6 430.1 431.4 435.1 438.8 444.6 450.6 459.2 465.4 473 480.8 490.9 495.2 501.7 507 513.2 515.4 518.7 524 532.3 532.8 533.4 536.3 529.9 526.4 529.8 526.7 519 507.8 496.3 494.8 498.8 501.1 507.1 512.8 504.5 492.8 487.6 491.2 495.4 497.6 497.7 492 495.8 505.7 500.5 489.1 487.7 481.1 473.4 474.1 481.5 475.7 465.4 461.3 450.2 437 426 411.9 398.7 385.8 374.7 365.6
557.9 546.6 526.9 527.7 521 518.6 506.4 506 509.4 517.9 531.2 535.6 545.3 550.9 559 569.1 579.3 585.8 588 592.7 596.1 601.2 602.6 608.7 611.9 610.6 615.2 614.4 614.2 623.4 638.6 650.9 659.4 663.8 663.9 662.9 660.7 660.7 666 673.8 676.1 680.2 683.3 684.3 683.5 677.4 669.1 662.1 662.8 662.7 660.1 658.3 660.2 664.6 669.4 667.3 663 656.7 643.9 636.5 627.6 620.1 613.3 606.7 600.9 583.9 561.4 541.2 523 502.3 481.3 463.3 446.7 432.1 412.4 386.1 367.2 347.8 331.2 314.3 299.8 288.7 283.8 274.8 269.2 268.8 277.5 291 312.1 331.4 349.8 368.4 390.5 430.1 452.1 487.8 508.6 525.8 537 559.2 570.3 580.2 588 593.2 591.9 587.4 577.1 563.8 552 540.5 535 529.5 523.8 519.6 518 521.8 521.9 524.9 530.6 539.2 550.4 556.7 569 576 576.8 572 563.9 555.3 533 518.5 509 493.4 467.2 455.1 443.1 435.9 431.4 429.6 429.8 430 431.8 433.8 439.2 445.1 453.3 461 468.6 479.1 486.8 494.3 501.6 506.5 511 517.2 521.9 523.8 526.1 528.9 534.6 533.4 530 529.7 531.3 529.7 529.9 526.4 521.2 513.3 513.7 513.2 519 521.2 511.4 503.3 497.2 495.6 500.9 502.3 502.8 492.1 489.8 493.3 491.5 483.8 484.3 477.3 470.3 474.1 479.4 467.3 462.8 447.6 437.6 425.9 415.3 405.7 396.5 392.2 385.6 375.3
562.8 551.1 540.8 540.5 547.5 543.4 523.6 520.2 524.5 526.4 532.4 540.4 542.6 543.6 550 557.7 561.9 566.6 565.1 570.3 577.5 581.6 582.5 584.9 581.7 581.1 582 581.1 585 596.1 612.1 623.7 641 649.4 651.9 653 653.2 651.6 653.8 660.2 663.8 666.1 667.1 670.1 674 673 671.3 666 654.3 653.1 647.3 644.4 643.1 647.8 652.4 651.3 644.9 631 617.2 610.1 604.2 584.7 582.2 580.3 565.8 554.2 538.3 530.9 506.5 483.4 460.8 442.2 424.4 408.4 390 369.9 349.5 329.5 314 301.2 287.4 276.5 273.2 270.5 276.5 282.3 292.7 312.3 331.1 352 371.8 386.7 423.3 448.8 476.4 502.8 522.4 538.3 551.5 570.9 577.3 585 590 593.5 597.9 598.7 592.5 582.7 563.6 552.4 552.6 544.4 538 530.8 536.2 536.7 537.8 541.8 546.4 553.4 560.8 568.2 576.7 583.3 582.2 578.4 574.6 566.9 544.9 529.1 517.4 515.4 498.5 472.1 455.1 444.7 435.3 428.4 429.2 427.7 428 429.2 434.3 440.1 446.9 456.1 463.5 476.7 485.7 494 503.7 507.2 509.2 515.4 521.7 523.1 524.1 528 533.2 533.9 538.4 541.9 545.9 547.8 542.6 544.7 542.3 527.1 529.7 525.4 528.4 530.9 527.6 515.3 509.8 504.3 501.9 501.7 503 497.9 482.1 480.2 477.2 474.5 468.9 462.9 457.4 455.7 456.9 447.4 439.4 430.9 424 414.5 404.3 393.8 392.2 387.2 380.9 375.7
568.5 563.5 554.7 554.9 552.4 549.2 539.4 532.8 538 539.5 537.3 540.2 547.1 545.1 541.6 543.4 542.6 541.4 539.5 546 552.6 558.8 561.4 561.4 560.1 554.2 558.9 562.6 569.7 574.4 591 600.4 620.1 626.2 633.6 640.3 642.2 640.7 642.1 650.5 654.2 655.4 659.5 657.8 656.7 658.6 657.4 651.3 642.1 637 632.7 624.7 627.9 632.3 633.5 632.8 615.5 598.3 585.4 576.7 568.9 561.3 557.1 548.8 533.5 523.7 515.9 505.2 483.7 460.4 443.8 418.8 401.5 385.5 369.4 347.6 332.4 312 299.8 287.4 278.4 273.3 276.2 280.3 291.2 302.3 319.7 333 355.2 378.1 396.4 419.1 438.8 470.7 490.6 512.3 530.1 544.5 566.9 577.4 586.7 592 600.3 607.6 613 610.1 601.8 581.8 577.8 573.9 569.8 563.1 559.6 551.2 548.7 553.6 550.4 552.2 562 566.7 569.1 574.8 582.3 590.7 590.3 584.6 577.7 569.4 560.9 542.9 533.4 533.2 521 494.7 466.5 449.8 438.3 427.9 422.6 423.9 422.1 424.2 429 435.1 441.3 450.7 460.2 475.5 487.1 492.8 502.2 505.4 507.7 513.8 518 521 521.1 524.8 531.3 536.5 541.6 544.6 549.5 554.6 552.2 551.7 551.5 541.6 546.2 539.5 537.7 536 524.4 515.3 510.1 508.4 503.5 503.9 501.3 498.5 486.5 475.1 466.3 459.9 455.2 450.2 442.5 437.9 433.2 424.1 418.2 413.9 406.1 390.3 384.3 380.8 371.3 371.4 367.4 365.9
574.9 572.4 566.3 563.9 559.9 555.9 552.6 547.5 543.9 543.4 541.4 543 542.4 542.5 541.3 533.8 527.8 521.6 518.4 520.7 524.4 534.7 541.7 542.5 547.3 545.2 547.9 549.8 556.6 563 573.4 584.1 591.6 607.1 617.9 627.2 629.4 628.7 634.9 644 649.5 649.4 647.4 644.6 644.8 643.9 643.6 634.9 631.9 623.2 616.6 606.3 610.9 616 614.6 604.3 586.6 572.6 562.5 557 555 548.4 533.7 524.3 512.8 496.7 488.3 473.5 455.7 439.1 420.5 398.1 379.6 369.6 351.3 327.5 314 296.3 290.5 282.3 276.1 276.5 286 298.2 316.3 331.4 345.2 364.4 382.7 397.5 420.5 449.3 471.1 486.8 503.9 522.2 541.3 563.6 578.4 583.7 594.4 607.3 619.1 620 618.1 604.1 595.2 589.6 583.1 576.3 574.7 571.4 568.5 567.1 559.8 568 566.9 563.9 570.6 578 579.6 579.5 591.6 595.7 594.3 589.4 579.7 574.2 569.2 560.1 550.6 539.9 530.3 520.8 488.9 457.9 442 429.8 420.5 418.8 416.8 416.6 422.1 429.5 438 447 457.4 470.8 482.1 491.4 500.2 501.7 503.2 509 513 517.9 520.8 523.3 530.7 536.2 540.7 544 550 553.6 555.5 561.9 558.9 560 562.3 554.5 548 547.3 540.2 524.3 513 512.3 504.6 501.7 499.7 495.7 486.1 474.5 462.7 453.4 443.4 434.2 432.7 424.6 416.1 401.9 399.8 390.2 376.2 365.8 363.8 357.7 351.5 346.4 352.3 347.9
579.9 578.6 575.9 568.9 569.5 569.4 565.3 559.2 559.5 562.8 555.1 550.8 549.2 544.4 537.6 528.5 515.5 506.7 502.8 501.4 505.3 508.4 516.8 525.8 538.6 538.4 536.4 540.1 543.2 550.2 558.6 566.3 575.7 587.1 603.6 618.5 622.1 621.1 623.7 637.5 645.6 646.4 643.1 635.6 636.3 632.9 629.4 623 611.4 607.5 599.3 593.2 596.5 603.9 600.5 586.5 561 546 539.5 537.5 529.9 525.6 515.2 500.6 487.2 477.7 464.4 441.4 430.1 413.6 393.9 378.1 363.7 351.7 332.4 312.5 298.2 285.3 279.3 277.7 285.3 293.8 305.4 319.4 337.8 353.9 375.7 398 414.4 420.8 447.7 472.8 489.4 507 520.2 539.1 552.4 570.2 579.1 592.7 610.2 608.1 622.6 617.7 615.7 603.6 587.7 575.8 575.4 577.8 575.7 572.8 575.2 575 573.5 578.8 580.1 582 584.1 592.1 596.8 588.3 603.1 605 601.7 596.6 588 581.4 579.4 575.2 566.2 548.4 530.7 526.4 506.8 479.9 452.5 431.9 420.9 413.1 410.1 407.4 415.5 426.1 435 444 454.1 464.8 479.9 492 494.1 496.6 498.4 504.1 506.9 512.1 517 518.6 527.9 534.4 539.5 546.9 553.5 558.4 563.8 567.6 562.9 566.2 565.2 556.2 555.8 553.7 548.4 534.2 515 508.7 502.4 498.4 497.4 499.9 495.1 481.4 465.9 453.1 442.2 426 419.6 417.7 401.2 388.4 372.7 364.2 354.4 347.2 344.1 340 331 333.6 332.4 326.1
586.8 585.8 583.4 579 581.7 581.5 575.3 575.8 573.6 578.8 570.7 567.2 565.4 559.4 549.7 535.4 520 505.7 495.2 485 485.9 488.2 492.3 502.7 518.3 530.1 522.2 523.5 526.2 534 544.1 552.7 564.8 567.2 598.4 606.7 610 610.5 612.3 625.3 636.4 640.3 633.8 630 631.1 626.2 619.1 611.6 600.2 595.7 586.2 573.2 577.1 583.9 577.1 567.8 536.6 520.8 519 511.3 505.4 499.6 494.2 478.1 462.9 453.3 438.2 426 406 391.7 378.9 358 341.7 321.2 308.7 294.4 287.3 283.8 289.3 292.7 303.7 315.6 334.4 354.1 366.9 384.7 401.9 423.3 442.5 455.4 477.6 493.3 506.1 521.1 535.6 546.8 558.1 571.3 592.2 605.1 608.4 613.5 620.2 609.5 607.3 601.6 590.1 585.5 588.4 591.9 590.7 587.4 587.7 592.1 594.2 601.9 607.4 605.7 604.1 605.8 605.3 599.6 607 610.2 606.7 600.5 594.1 592.5 589.6 580.9 574.5 571.1 553.7 531.9 516.2 495.4 465.7 440.7 418.9 408.1 403.7 401.7 409.4 421.9 432.2 441.2 450.4 460.7 474.3 486.7 486.5 487.8 491.3 495.6 502.5 505.8 508.8 514.5 520.1 529.8 536.4 544.2 554 560.9 565.9 566.1 565.2 565 560.3 561.2 556.7 551.7 544.3 532.9 520.2 509.5 502.2 491 491.9 494.1 492.8 485.8 473.5 460.1 444.9 425.2 404.9 398.6 387.5 366.9 355.1 349.2 338.9 330.7 326.2 319.6 320 320.1 313.5 308.7
601 593.2 591.9 590.6 593.5 595.9 600.9 611.4 600.3 602.6 595.6 589.9 596.7 590.5 576.8 562.5 533.8 517.3 501.4 487.1 475.3 470.7 474 482.4 491.3 508.7 506.9 511.9 519.4 525.2 537.1 544.4 545.1 556.9 579.5 586.6 589.2 585 599.3 612.2 617.1 618.8 619.1 623.5 626.8 619.9 612.6 605.2 591.1 576.9 567.6 550.2 560 563.5 548.8 535.4 513.7 505.8 499.7 492.5 486.7 480.8 469.2 455.6 438.1 425.1 414.5 400.9 391.3 369.5 348.5 329.5 313.4 299.7 290.5 287.4 290.7 296.6 303.6 311 324.7 342.5 362.8 381.5 399.3 411.7 425.7 448.7 464.6 485.5 497.2 510.4 519.3 532.4 549.8 557.2 565.9 576.4 578.9 586.8 590.3 593.7 598.9 602.1 602.9 599.3 590 595.6 599.2 607.8 605.1 610.9 613.9 614 619.7 630.4 630.1 630.9 628.2 624.2 624.3 617.7 618.8 617.5 608.7 600.1 602.6 602.2 595.6 588.4 585.1 576.6 563.8 540.8 521.2 509 479 445.7 416.6 402.5 397.6 396.4 404.6 416.5 429.2 437.9 446.9 457.3 466.7 472.4 476.2 481.1 485.2 490.6 498.9 501.3 504.8 509 515 521.5 531.6 542.6 551.9 559.9 563.5 563.9 565 561.8 553.8 559.9 560.3 551.4 541 530.9 529.2 515 500.2 490.6 480.5 484.7 480.5 474.1 468 461.6 454.2 436.3 411.6 388.4 366.7 350.8 341.3 333.4 323 314.9 310.3 307.1 309.5 304.7 297.3 295.4
613.8 606.5 601.7 600.5 610.8 619.4 627.5 633.7 628.7 627.8 628.2 626.4 621.2 610.4 597.6 577.3 550.2 530.1 514 492.6 475.6 464.2 460.9 467.3 470.4 485.2 493.2 492.6 503.3 508.3 514.5 526.5 518.8 536.3 553.9 561.8 561.4 559.2 589.1 606.3 612 613.7 613.7 611.1 609.5 602 592.8 580.4 568.6 554.7 545.7 533.2 541.5 546.4 530 505.5 494.5 486.7 483.3 473.6 467.6 454.8 442.2 430.5 417 396.8 381.3 369.6 355.7 337.6 318.1 305 292.8 294.7 296.9 300.6 305.5 313.4 323.1 335.4 351.4 374.6 397.6 417.5 430.6 440.6 451.9 473.8 489.6 503.4 514.5 528.1 536.5 547.2 558.5 565.4 571 581.4 564.6 567.9 575.1 578.9 582.8 591 598.9 597.8 596 598.2 601.5 615 614.5 621.5 625.7 631 635.8 641.8 646.4 647.7 641.6 638.7 630 626.7 618.8 630.9 630.7 623.7 619.9 606.3 599.4 594.2 590.6 582.2 569.6 557.9 550.4 530.4 499.2 451.7 419.8 397.5 392.9 393.8 399.3 409.9 423 433.6 442.2 450.9 459.6 466.8 473.5 479.4 485.1 488.7 495.9 498.5 503.2 506 509.6 511.3 523.4 535.7 545.7 552.8 553.1 553.2 551.4 551.7 547.2 553.2 551.6 545.8 537.3 525.2 522.5 509.6 489.9 478.9 471.4 468.8 469.8 462.5 451.8 440.4 437.5 429.8 406 384.2 365.1 342 325.8 318 311.4 302.6 299.6 294.3 292.3 291.6 285.3 285
626.7 621.4 617.2 613.2 621.3 628.2 635.4 639.7 640.6 641.9 646.5 647.9 648.4 642.6 616.4 591.4 566.7 547.2 528.7 504 482.2 465.9 452 453.9 458.6 467.2 479 476.4 480.9 490.4 493 496.6 504.5 513.5 523 531.2 533.7 565.7 582.9 600.7 603.5 603.3 607.3 602.2 600.2 587.1 569.3 557.5 550.8 537.6 527.1 513.5 518 515.3 507.8 491.8 480.6 469.6 461.5 454 442 429.9 419.2 401.9 386 370.7 353.6 339.4 324 311.2 300.9 295.9 298.6 305.3 310.6 316.7 326.8 338.3 352 366.3 383.3 405.3 432.1 449.4 461.3 468.1 486.1 500.7 510.5 523.8 534.9 545.5 556.2 558.3 565.5 578.5 569.2 570.1 560.1 560.1 559.5 571.4 578 581.4 591.5 598.4 600.5 606.2 606.5 617.2 623.2 628.7 638.7 642.3 643.8 651.1 655.9 655.2 652 647.1 639.6 629.1 626.7 630.1 632.4 632.6 629.6 610.6 599.5 597.2 595.1 590.1 569.2 564.7 566.5 553.2 498.8 460.3 423.9 393.8 389.4 392.3 395.8 401.7 414.9 427.7 437.2 445.1 453.4 460.6 467.4 472.1 477.8 483.7 488.3 492.8 494.3 497.4 498.8 505.5 507.9 515.8 527.1 535.1 540.1 540.7 544.5 546.6 540.1 543.2 536 536.5 528.9 515.8 502.1 486.9 471.2 464.2 457.8 457.1 449.5 441.8 436.9 430 428.3 421.9 407.3 369.8 344.8 329 320.9 313.3 302.6 294.4 291.2 292.9 287.3 284.3 279.6 281.6
636 631.4 627.8 626.2 626.4 636 641.4 643.6 646.8 651.2 655.3 658.1 659.5 658.2 646.1 614.7 585.8 559.3 535.4 512.4 488.1 470.4 455.8 448 447.7 451.3 456.9 458.2 456.5 461.4 467.1 477.5 478.8 488.6 498.2 501.3 525.5 553.4 572.1 584.9 589.2 590.2 593.7 599.9 590.6 579.9 569.3 549.7 539.2 526.2 515.6 504.1 494.8 488.9 485.2 469.9 460.6 450.3 437.9 431.4 418 405.1 390.8 377.6 364.1 348.6 335.2 323.6 310.1 301.4 301.8 306.8 311.2 317.5 328.8 339.9 352 365.4 379.2 398.4 420.6 441.4 459.8 475.5 488.5 500.6 512.7 520.6 528.8 545.2 558.5 559.5 562.5 565.8 577.9 580.9 566.5 560.1 560.1 562.5 561.8 566.5 572.8 579.7 590.7 597 605.4 609.8 614.2 618.4 627.1 638.3 643.5 647.1 652.8 656.3 658.4 662.6 658.7 650.7 639.7 631.3 631.8 634.3 636.2 631 628.1 614.9 613.9 618.1 619.2 600.7 579.3 565.2 556.1 539.6 496.8 454.9 422 392.4 385.2 394.3 394.2 397.6 406 419.6 429.4 436.8 444 452.3 454.5 457.8 462.7 471.7 476.7 482.2 479.8 481.1 485.3 487.9 493.5 495.8 504.1 514.6 520.5 526.4 525.2 521.6 524.8 518.1 520.6 526.2 517 503.6 491.6 471.5 457.5 444.3 437.9 432.5 433 419.3 410.2 406.1 409.6 402.5 383.8 356.1 332 316.1 311.4 301.5 295.2 286.1 285.9 283.6 283.4 278.7 279.2 280
644.8 642.9 638.7 638.1 637.5 642.2 647.4 649.5 651.3 656.4 662.2 663.2 663.6 663.6 662.3 647.2 612.6 578.2 551 520.6 499 477.3 460.8 450.5 444.1 444.4 446.4 445.8 446.3 448.8 453.5 458 463.8 471.7 479.9 480.3 513 538.7 558.2 570.2 574.2 575.2 580 577.2 576.1 570.4 551.1 540.6 534.6 527 503.8 496 491.4 470.5 457.1 451.2 442.5 430.4 417.9 406.5 398.3 384.8 372.3 358.6 344.1 331.5 321.4 307.6 305.1 313.2 320.9 323.7 326.9 337.5 350.4 365.6 383.8 400.4 416.6 433.4 454.2 472.5 486.8 504.9 513.6 518.7 529.5 536.4 551.5 562.5 568.5 569.1 574.2 578.9 577.9 567.2 560.1 560.8 558.4 564.4 566.6 564.3 570.4 581.5 591.9 599.3 606.5 613.6 618 622.3 628.8 635.1 640.6 645.7 649.7 652.8 657.5 653.9 649.2 645.5 641.8 639.7 636.6 634.3 633.5 630.7 625.2 624.5 630 633 628.4 612.1 593.8 564.4 540.2 520.1 483 450.8 420.8 395.2 382.2 393.3 392.8 394.2 399.3 408.4 419.3 422.5 429.2 436.6 438.4 442 446.3 450 453.9 456.3 458.1 460.9 463.3 466.6 469.9 479.4 486 489.3 499.3 500.2 502.4 499.7 503.8 500.5 500.8 499.9 496.4 482.6 467.8 455.5 442.8 426.4 419.2 414.5 399.3 390.3 380.5 376.8 376 371.8 351.6 331.8 317.7 306.4 295.8 290 284.4 281.2 279.2 280.6 279.4 276.4 276.4 278
651 650.9 649.4 649.3 649.2 649.4 652 655.4 656.4 659.4 662.8 664 663.9 664.4 662.9 663.2 631.8 600.5 575.6 540.2 512.6 488.5 467.3 450.7 443.2 435.6 438.7 439.5 439 440.8 442.5 447 450 456.1 463.7 472.4 493.9 521.8 543.9 552.9 557.8 558.1 556.3 556.9 551 546.1 543.4 537.4 521.7 508.8 492.4 483.5 475.5 459.5 446 434.1 423.6 411.9 402.2 393.3 376.8 362 349.3 338.5 318.3 319.7 320.4 322.5 333 339 341.5 342.7 349.4 360.4 372.5 397.1 414.7 431.8 450.6 469.2 485.9 499.2 513 516.9 521.4 529.8 540.1 551.2 567.6 582.3 583 589.7 582.4 578.9 566.5 558.6 557.8 557.1 557.7 560.8 560.7 562.3 570.7 583 592.8 598.3 604.8 610 615.7 620.3 623.9 628.8 636.3 639.6 639 642.3 650.3 645.7 642.7 640.2 645.5 642 637.4 633.4 629.3 622.6 624.4 628.8 635.7 639.1 623.4 611.9 603.7 585.3 546.9 521.9 488.4 448.8 421.4 402.9 381.5 385 384.3 385.7 385.8 391.8 400.2 406.5 412.6 415.3 419.6 423.8 426.5 429.7 432.3 433.2 434.6 436.6 436.9 441.1 447.6 458.1 465.2 465.9 465.6 475.4 476.3 477.3 481.9 478.6 483.3 479.5 475.4 464.5 451.6 437.1 420.2 405.2 390.9 383 369.1 359.8 351.9 345.3 337.6 328.5 319.7 309.9 298.7 293.5 289.1 282.2 280.4 279.5 279.4 277.9 276.6 274.3 273.5 276
660.3 660.7 660.6 659.6 657.1 657.4 657.5 660.3 661.8 663.2 664.4 664.5 664.2 663.8 662.4 663.2 659.1 626.8 592.2 563.3 526.4 502.2 472.6 454.5 443.5 436.7 433.2 429.9 432.9 432.8 433.6 438.2 438 445.4 448 462.5 478.5 500.4 527.6 541.9 550.5 550.2 545.6 540.9 537.1 531.5 528.2 526.1 506.5 494.7 484.3 475.5 467.5 459.4 451.9 439.2 432.2 422.3 404.4 389.3 373.6 361.3 346.6 338.7 334.9 336.3 342.4 351.7 359.9 366.1 368.1 371.4 376.1 387.4 409.9 427.4 443.2 462.6 479.6 492.7 505.2 514.2 519.8 524.4 536.1 545.8 557.9 572.4 586.8 593.8 590.7 580.8 573.9 566 559.4 547.8 548.5 554 554.6 556.8 558.4 558.8 571 581.7 590.4 596.5 601.9 606.9 610.3 614.8 618.2 620.5 616.2 621.8 627.2 631.1 634.2 633.6 633.4 635.9 639.9 636.1 632.1 629.3 625.8 621.8 629.4 634 634.3 629.7 615.3 608.5 605.2 587.3 550.8 502 473.4 444.6 421.8 405.5 382.3 370.2 367.7 367.4 369.3 378.4 378.1 387.4 390.7 392.2 395.8 400.4 401.8 405.9 405.6 410.2 414.4 412.8 412.2 415.5 423.7 432.6 433.9 436.8 447.5 446.4 453.2 453.8 457.6 454.7 453.7 450.2 444.1 436.9 422.9 412.9 391.9 376.7 364.2 356.2 351.3 339.1 330.2 318.8 314.9 304.8 300.9 296 290 287 288.4 284.1 280 280 279.6 278.3 277.2 273.2 272.9 271.5
671.9 671.8 670.3 668 664.2 662.5 661.9 666.5 668.2 668.5 667.3 664.9 663.1 660.2 660.2 661 661.4 647.5 609.6 577 543 509.5 484.2 460.5 444.8 435.7 431.6 425.3 424.4 427.7 428.5 431.9 431.6 432.6 435.4 452 463.4 480.4 511.2 538.5 550.7 549 539.9 533.7 530.4 520 510.5 504.1 497.3 486.1 482.3 480.2 478.2 468.6 456.1 448.1 436 420.9 406.8 386.9 369.4 354 348.5 350.2 353.7 362.1 374.7 386 390.5 397.1 394.5 399.4 408.2 422.8 438.1 450.6 472.3 482 497.1 508.3 518.3 522.3 539.8 546.8 558.8 569.8 578.5 585.2 587.8 585.8 583.4 574.9 564.8 556.1 551.3 543.6 548.5 547.8 547 549.8 551.8 561.1 570.9 578.8 585.7 591.4 595.5 598.8 603 606.3 610.6 609.7 606.2 609 617.2 623.6 625.5 627.2 627.4 626.8 629.6 625.8 628.7 631.6 630.8 620.8 627.4 628.9 628 620.9 608.6 605 595.9 572.8 527.2 475.4 452.3 431.1 412 398.6 385.2 373.3 360.6 353.8 354.9 357.2 355.1 361.6 362.6 365.5 370.6 369.2 372.4 381.7 382.5 380.7 380.3 386.2 383 387.4 392.9 398.9 406.1 407.6 413.3 418.7 419.5 428.2 435.3 432.2 425.5 422.4 419.9 410 393.9 376.1 363.6 352.8 346 337.5 327.5 314.9 310.7 305.9 302.2 298.7 294.8 288.5 288.5 283.6 281.8 283.9 280.6 279.4 279.8 278.6 274.6 272.4 271.8 268.8
680.1 678 675.9 674.5 671.5 671.3 672.2 671.2 670.8 671.3 672 667.7 661.3 655.5 653.2 651 654.9 659 625.5 586.7 550.9 522.1 496 466.5 448 436 425.7 427.8 422.7 420.2 424 426.4 423.9 424.9 426.7 439.5 450.3 466.7 489.8 518.5 539.9 547.1 538.9 535.6 529.5 518.5 507.5 492 487 479.8 477.5 476.1 471.9 465.4 454.8 446.1 431.6 414.1 397.1 377.7 361.8 363.9 366.7 373.8 385.3 395.9 410.1 420.4 425.5 426.4 424 435.7 435.6 453.9 467 478.2 488.9 497.8 511.3 523.1 533 547.2 554.3 565.5 574.8 580.9 581.9 580.2 580.7 574.2 567.8 557.5 553.2 551.5 546.5 539.4 538.2 543.8 543.3 544.7 550.8 558.8 565.1 571.4 578.9 584.9 588.7 592.9 596.7 598.7 599.9 600.6 600.6 602.1 607.4 614.9 616.6 616.1 619.7 618.4 618 621.8 627.5 627.6 624.6 615.5 624.1 621.6 616.8 610.5 605 595 585.7 560.8 511 454.1 434.9 414.4 398.1 382.1 374 364.2 352.8 346.6 344.9 342.9 340.4 337.6 339.5 339.7 340.7 343.4 346.8 348.9 347.7 348.1 352 356.6 360.4 359.5 364.1 367.6 370.9 376.9 382.9 390 395.6 400.3 408.3 411.3 406.2 397 385.9 374 358.4 353 340.3 329.2 326.5 320.8 310.6 303.1 297.9 296.2 288.5 289.5 292.3 286.2 284.4 280.5 281.1 275.3 275.4 274.6 275.2 279.1 273.6 269.6 269.2 269.4
686.9 687.7 687.2 686 686 684.8 684.3 681.6 676.9 676.6 674.4 670.4 664.1 656.3 646.3 642 643.2 647.9 643.6 598.7 568.3 533.7 503.1 476.8 457.2 439.1 425.6 421.8 419.3 413.3 417.7 418.3 419.1 421.2 417.7 426.9 439.4 449.6 469.9 494.8 519.3 540.2 541.9 531.6 520.9 511 501.5 487.5 477.2 470.3 468.3 468.5 469.8 458.4 445.5 435.5 420.6 401.6 387.1 383.2 381.1 384.5 393 406.6 417.9 434.4 444 450.2 453.6 454.9 454.2 455.2 465.8 476.9 489.2 501.6 512.9 520 527.2 536.9 547.1 557.5 562.3 561 569.7 568.2 566 567.1 563.2 556 548.6 546.6 545.3 544.4 537.9 532.1 532.3 533.2 537.9 541.2 549 554.5 558.2 563.5 570.2 577.1 581.4 586 588.2 589.1 593.8 594.9 594 596.7 603.8 607.4 611.1 618.2 622.7 618.5 618 623.4 621.1 621.4 614.9 611.4 617 617.7 611.3 606.4 598.9 587.5 569.6 519.6 476.6 436.7 415.7 398.1 386.4 368.7 358.7 348.5 339.4 331.6 328 332.2 328.5 324.3 320.5 322.1 318.7 321.3 325.2 325 327.7 325.7 327.3 332.3 330.6 335.5 342.2 345.8 345.2 351.1 348.5 355.7 362.2 366 370.4 372.4 369.4 358.9 354.7 345.2 337.7 327.8 321.6 312.5 310.3 307.7 302.9 294 291 285.8 283.1 282.5 285.4 284.7 283.3 280.1 277.8 276.3 276 278 276.1 274.5 271.2 277.2 276.7 275.7
697.4 698.1 699.8 698.8 697.8 698.7 697.2 694.2 685.3 677.8 672.2 665.9 659.5 649.9 643.1 637.3 633.4 636.7 646.1 620.9 581.8 547.7 519.5 490.5 462.7 443.9 432.5 423.6 421.6 419.4 409.5 411.2 413.1 416.2 410.8 416.8 427.5 437.9 451.9 472.7 495.7 520.4 529.3 529.6 522.9 508.8 499.3 482.5 467.8 463.3 456.9 458.9 454.7 447.8 435.9 426.2 412 411 401 402.1 408.2 417.6 430.4 440.5 451.2 462.3 465.5 468.2 475.5 483.1 476.4 481.9 491.4 497.4 506.9 519.9 529.6 532 537.6 544.7 553 558.6 556.4 555.4 549.2 549 546.5 544.8 545.7 535.3 535.9 533.7 534.4 533.6 526.9 522.5 523.6 526 529.1 533.7 540.4 547.1 548.6 552.6 558.9 568.1 570.5 573.4 581.5 585.1 589.7 593.1 590.5 595.5 601.1 609.1 608.3 616.1 614.7 610.3 612.3 616.4 616.9 613.9 610.7 604.3 607.8 610 603 597.6 590.5 575.5 521.2 475.3 439.4 408.8 393.9 380.9 369.1 357 345.6 336.8 330 325.5 323.4 318.8 317.7 314.8 311.1 309.1 307.3 306.8 307.7 310.6 309.7 309 307.7 310.6 312 313.4 317.5 319.1 326 326 325.5 330 333.9 337 340.2 338.7 335.6 330.5 324 321.7 313.9 310.7 305.4 301.5 297.1 297.4 290 287.3 285.8 282.3 280.5 279.3 283.1 282.7 281.3 280.5 280 276.7 276.6 278.2 277.5 278.8 276.5 278 277.1 275.6
707.4 707.9 708.1 710 709.2 709.8 708.2 704.7 694 677.7 664.8 657.3 648.8 640.3 634.2 629.7 624.9 626.9 633.1 640.4 604.5 562.6 532.6 510 474 451.9 442.9 431.6 420.2 417.2 414.3 405.1 409.6 409.8 408.9 409.6 418.3 425.7 437.1 453.2 474.9 498.7 510.3 511 506.9 503.6 498.9 491.1 472.2 455.5 449.3 449.4 448.6 441.9 429.2 426.2 426.2 420.3 420.4 428.5 439 452.9 462 465.5 471 476.3 477.6 483.7 495.8 509.3 507.6 507.8 511 509.9 522.2 532 538.4 542.4 549.8 554.9 551.3 550.6 548.4 544.5 538.1 532.7 531.3 527.1 526.6 524.6 522.6 517.2 519.3 515.2 511 509.1 514.8 517 522.4 525.2 529.6 537.1 543.1 548 548.9 551.9 559.1 568.1 573.9 578.6 580.8 583.9 590.3 597.4 608.3 611.6 596.6 599 600.2 602.5 605.6 612.4 618.5 616.9 607.4 604.8 603.4 602.8 598.2 592.1 584.3 567.2 520 457.4 414.4 389.2 376.3 361.7 348.9 343.9 335.2 329.7 322 317.7 313 312.6 309.9 309.1 304.8 303 301.3 300.7 300.6 300.8 298.2 297.9 296.1 295.8 296.9 298.8 299.3 305.5 305.1 306 304.1 307.6 312.1 314 316.1 316.2 317.9 312.5 306.9 302.9 302.8 299.2 295.6 292.6 290.6 288.9 287.3 286.7 281.7 280.5 280.3 279.1 279.1 280 280.4 280.3 279.2 276.7 276.9 278.2 279.7 282.5 282.3 283.4 283 282.2
715.9 719 722.1 721.9 721.7 720.1 716.9 711.5 699.9 681.9 662.9 648.7 639.9 632.4 625.2 622.1 617.6 621.2 621.8 629.5 625 591.7 558.7 526.4 485.1 468.5 451 436.2 424.6 420.6 414.2 409.5 402.3 403.4 403.5 404.7 408.4 416.1 425.8 438.5 458.5 474.6 485.8 494.8 493 490.7 482.1 478.3 469.3 456.8 446.6 445 445.2 438 434.2 438.9 435.4 433.5 443.1 456.9 466.8 471.6 475.1 478.8 489.1 493.2 495.4 504.6 516.3 519.4 525 527.8 521.8 523.3 536.5 543.6 550.6 555 558.1 553.4 550.2 542.4 536 530.2 522.3 518.4 517.4 515.3 513.2 513.7 508.2 499.6 499.7 497.5 498.3 500.5 503.3 508.2 514.8 518.3 525.1 528.4 533.2 537.5 538.9 548.9 554.8 557.6 565 568.6 578.9 587.9 592.6 597.8 599.6 592.8 583 587.2 589.8 594.3 602.2 615.3 620.2 623.8 612.5 612.6 607.9 605.5 604.9 591.8 573.4 550.4 512.6 449.6 391 373.4 359.2 345.2 337.1 328.8 323.4 318.1 312.5 306.4 302.6 305.2 304.5 303.4 302.4 299.5 297.8 296 295.1 295.1 294.6 294.1 292.4 291.5 291.1 291.6 291.2 290 289.1 288.3 288.4 288.1 293.3 296.7 299.9 304.3 303.5 301.8 300.6 296.3 294.1 291 290.4 289.9 289.7 287.5 287.3 285.2 282 281.1 280.9 280.2 279.4 278.5 279.4 279.5 278.2 276.8 278.2 280.6 282.5 287.1 286.1 288.5 286.5 288.4
726.2 729.6 733.3 733.7 733.4 733.9 728 719.3 705.8 688.5 674 650.4 637.5 626.7 619.4 614.4 610.1 611 614.1 616.3 626.6 605 571.1 540.2 509.2 482.8 468.8 452.3 435.4 422.9 417.3 413 403.6 398.5 397.8 403.5 404.6 406.9 417.2 426.8 443.3 459.3 469.9 477.4 474.7 472.5 468.7 470.4 465.6 462 446.4 445.9 445.2 442.3 443.8 442.7 442 449.8 455.2 464.5 468.4 473.7 479 486.5 493.7 499.7 509 514 523.3 532 529.4 525.1 525.8 533.3 542.9 547.5 551.2 553.2 551.1 548.2 539.4 533.3 527.8 516.8 510 505 502.6 497.5 492.9 494.7 487.4 483.1 483.6 487.2 489.8 491.6 493.9 501.7 506.5 512.6 520 525.6 527.2 533.5 536.7 547.2 550.9 547.5 549.4 562.7 574.1 591.5 602.3 601.6 593.7 576.4 573.8 579.7 587.6 596.5 605.7 610.9 618.2 615.7 614.9 617.7 622.6 628 620.7 597.5 570.9 536.9 486.5 421.1 376.8 357.2 344.4 335 325.3 318 312.3 308.4 305.8 302.7 300.1 298.8 298.9 298.4 297.1 297.4 296.8 296.6 295 294.4 297.2 293.7 291.7 291.5 291.4 290.9 289.7 290.1 289.3 288.4 288.4 288.4 288 287.6 290.7 296.7 300.2 300.4 298.2 294.5 291.1 287.8 286.5 286.7 285.1 284.7 286.5 285.9 281.1 285.8 285.2 284.3 282.3 281.9 277.9 279.2 277.3 277.2 279.9 285.2 288.5 290.2 290 288.6 291.9 292.3
735.4 741.1 745.4 747.5 746.6 740.5 736.2 729.3 715.3 697.4 679.7 654.2 639.2 630.1 618.7 609.8 600.7 598 601.7 605.1 611 614.3 586.1 549.3 527.8 504.9 494.2 472.4 448.3 432.5 419.9 413.5 407.7 398.2 393.9 398.8 400.8 396.7 405 417.7 431.1 439.4 451.8 457.2 464.2 463.3 460.3 460.4 456.6 451.5 447.3 448.4 445.6 444.8 443.9 442.2 451.2 455.3 460.1 463.6 467.4 475.4 480.2 487.7 495.5 510 517.9 522.2 525.9 524.9 520.5 521.6 528.5 534.6 541.5 542.3 547.1 548.1 544.4 540.3 537 530 522.5 510.5 485.1 490 486.6 482.8 479.4 473.6 469.1 469.3 471.6 472.8 475.3 479 483.6 491.4 499.3 502.9 508.3 521.1 530.8 535.6 537.1 538.8 537.9 536.7 545.4 557.4 570.9 577.2 587.1 592.8 587.7 568.5 568.7 575.9 585.5 600.3 606.7 618.3 620.6 618.5 627.1 631.9 637.4 631.4 604 588.3 570.6 538.9 444.1 395.1 365.4 343.9 336.6 325.1 316.7 309.5 305.7 301.7 296 292.8 293 293.2 294.6 298.3 295.3 295.5 298.1 296.4 296.3 295.2 293.1 291.5 291.5 290.5 289.4 289.1 289.7 289.7 289.4 289.2 288.6 288.7 288.2 287.5 286.7 286.5 285.9 293.5 293.4 291.8 289.5 286.1 285.7 284.4 284.2 283.2 281.8 285 282.7 284.4 285.7 284.7 284.9 284.5 282.7 282.4 277.2 277.2 287.2 289.8 295.9 295.5 296.5 296.2 297.8 296.8
744.2 751.2 752.7 752.1 749.5 741.7 737.7 731.2 722.1 708.8 683.5 655.8 642.4 626.4 618 608.3 597.9 589.2 589.5 593.4 598.6 605.4 597.7 569.5 544 524.2 510.3 490.4 466.2 448.6 428.9 419.4 413.4 401.8 394.9 391.2 393 388.7 396.6 406.7 415 423.9 435.5 442.1 450.4 456.7 462.2 465.1 467.3 453.3 445.8 442.5 441.8 442 443.3 449.5 459.1 462.4 461.8 464.4 473.5 476.3 478 484.4 494.8 505 511.1 517 517.4 517.4 519.2 524.7 528.5 534.3 537.8 542.4 542.7 541 540.7 538.5 531.1 521.7 505.7 492.5 472.8 467.3 466.3 463.8 463.3 457.5 454.2 454.7 453.6 454 457.2 463.5 472.9 481.2 490.3 500.1 506.7 518.7 528.1 534 536.9 529.4 528.1 535.4 543.2 545.1 559.2 567.1 572 581.1 566.8 561.4 568.2 570.2 584.3 595.7 606 613.8 624 626.6 632.6 634.3 631.1 615.9 590.8 568.6 557.4 526.1 426.3 380.3 355.8 340.6 325.2 311.7 308.3 305.3 303.3 294.7 293.4 293.7 293.1 292.5 291.9 292.2 293.5 293.3 294.3 294.6 294.7 291.7 290.8 290.5 291.5 290.4 290.6 290.3 289.5 289.4 289.5 289.5 289.4 288.4 287.3 286.6 286.6 286.4 286.9 285.9 286 285.7 285.1 285.1 284.7 284.1 285 284.1 284 285.6 284.3 283.7 286.6 285.8 286.2 284.8 283.9 282.5 281.2 285.6 293.9 298.8 300.9 303.1 302.5 301.3 300.7 304.4
755.4 760.9 759.6 753.7 751.5 740.7 733.3 728.6 723.2 713.9 685.5 660.5 644.5 627.3 612.8 603 593.3 582.3 579.9 581 586.8 592.3 595.9 589 567.4 541 526.8 502.2 482 465.3 439.5 431.1 421 410.7 400.2 391.1 383 380.8 390.7 391.5 400.9 408.1 417.8 429.5 442.1 457.2 472.6 471.9 457.3 449.2 444.7 440.4 438.1 440 445.6 451.9 454.8 458.9 464.9 470.7 471.5 470.5 475.2 484.4 488.1 494 500.7 505.1 510.8 514.7 519.7 527.4 529.3 529.9 533.3 536.4 536.9 537.6 526.2 522.5 514.7 503.1 483.8 463.8 454.6 447.3 442.4 440.7 442.3 442.8 443.3 440.7 435 430.8 439.2 456.5 467 475.2 485.7 492.1 504 510.3 519.2 520.6 515.2 519.9 532.7 527.4 526.1 534.3 543.7 552.6 548.1 553.5 556 557.5 564.5 571.1 580.5 589.1 600.6 610.6 616.2 625.1 634.8 638.1 636.2 624.1 581.6 549 481.6 472.1 400.5 370.3 348.3 331 314.1 306.4 304.3 302.6 299.5 294 293.9 294.2 294.1 293.7 293.3 293.5 292.1 291.5 291.9 290.5 291.9 292.7 292.6 292.1 292 291.9 291 292.5 292.2 290.3 289.6 289.8 289.6 288.6 288.6 288.5 286.7 287.5 286.1 286.3 285.2 284.7 284.5 284.3 286.9 288.3 285.4 285 287.2 287 286 287.4 287.2 286.9 286.4 285.8 284.9 285.9 287.5 293.2 301.2 303.7 303.9 305.2 304.1 307 312.6 314.6
755.6 758 754.6 750.7 745.4 737.5 727.1 718.2 715.1 712.8 699.6 666.2 649.7 631.3 614.7 598.4 586.5 577.4 568.1 570.2 573.2 580.5 585.4 586 576.5 562.6 541.6 519.6 490.4 468.7 450.1 441.4 433 420.5 406.3 396.4 386 381.9 375.7 379.4 387.1 395 404.5 416.7 426.4 441 446.2 445.5 443.6 447 434 431.7 437.2 440.5 447 452.2 447.8 450.6 452.1 454.7 458.5 464.3 470.1 474.5 479.5 488.1 491.3 502.1 507.4 517.1 526 529.9 531.6 526 526.7 522.9 521.1 513.4 502.7 496.3 492.6 471.9 461.2 445.5 436.8 422.1 420.3 417.6 419.6 423 422.6 419 416.3 407.9 423.4 437.3 453 461.9 470.7 478.2 489.9 496.4 499 497.7 501.1 510.5 521.1 517 521.1 524.1 522.7 527.8 536.8 539.7 540.9 556.2 562.8 569.6 570.6 581.4 595.3 605.9 612.7 617.1 625.2 636.3 630.6 612.2 583.5 523.4 475.2 421.9 388.4 360 339.9 320.8 307 302.1 301.7 297.6 294.7 294.6 294.7 297.1 295.3 295.4 297.7 295.6 293.9 298.1 299.7 301.5 296.9 295.2 294.5 292.1 291.8 290.9 291.9 294.4 291.8 291.2 290.8 290.4 289.7 289.2 288.8 287.6 287.6 287.9 286.6 288.5 293 295.3 291.7 291.9 290.9 289.7 288.3 289.9 289.9 289.7 289.4 289.2 291.6 289.8 288.4 290.6 292.2 291.6 293.4 299.5 301.7 303.7 305.2 307.9 311.3 318.5 322.4 326.9
749.6 750.7 746.8 746 739.7 731.6 722.3 711.8 707.8 708.3 702.3 681.7 653.2 632.8 618.8 601.8 584.5 573.4 564.8 559.6 560.4 566.9 570.5 574.7 571.7 558.6 548.8 534.4 502.2 482.4 455.8 446.1 437.1 423.4 413.4 401.4 388.9 379.4 372.3 367 378.8 385.8 394.3 403.3 412.6 422 426.4 428.7 423.8 420.8 425.8 427.6 432.4 438.8 446.4 440.3 438.9 440.5 443.2 450.3 457.9 465.6 468.6 470.4 473.9 481.1 489 497.2 504.9 516.2 522.1 525.6 527.3 518.5 503.7 490.2 489.6 486.8 475.9 468.3 460.3 445.2 431.9 419 407.9 402.8 400.7 397.9 395.7 390.8 394.4 395.5 393.7 371.3 407.1 410.9 420.8 438.5 445.5 455.9 461.3 468.2 482.6 496.6 507.2 509.9 520.2 539.1 524.3 517.7 517.7 517.7 520.8 527.2 534.8 550.6 551.2 561.8 571.7 580 586 591.6 605.2 617.8 616.5 623.4 614 592 547.9 482.5 439 400.9 372.2 348.1 326.3 313.6 302.4 299 297.5 295.7 295.8 295.3 295.4 296.1 297.6 297 297.8 298.7 297.8 300.9 300.3 299.3 298.6 294.2 293.3 292.8 293 295.6 295.9 295.2 295.4 294.4 293.5 293.1 292.5 293.2 290.1 290.1 294 294.3 293.1 293.4 293.4 294.8 292.4 292.1 291.1 291.6 291.5 292.2 292.3 291.5 290.5 291.6 293.3 292.8 295.2 293 298.1 299.4 298.8 300.6 300.4 305.7 308.4 317.3 325.9 330.1 334.1 341.8
742 739.8 737.2 736.6 730.8 722.6 715 706.2 700 699.7 698.5 689.1 670 638.5 625.3 604.9 587.2 574.2 562.1 549 546 550.2 552.4 556.9 557.8 554.5 545.1 525.5 509 491.5 463.9 454.5 446.6 426.6 414.1 404 389.9 378 368.5 363.7 371.4 378.7 384.6 389.5 391.7 397.8 401.6 402.7 406.3 412.8 411.1 418 425.4 432.8 434.3 430.9 427.3 432.4 438.3 445.9 449.2 455 455.4 457.7 469.4 476.1 485.7 495.9 508 514.5 523.4 521.3 510 499.5 492 463.5 459 457.3 449.8 442.1 427.4 413.5 404.3 395 391.5 379 380 379.4 372 361.7 362.2 362.7 364.6 374.3 380.4 383.4 393.8 401.7 418 422.4 424 451.7 475.1 487.9 504 514.7 524.9 529.4 524.6 521.7 517.7 519.8 522.7 524.2 528.1 531.5 541 557.8 564.7 569.6 571.2 579.1 591.5 599.3 603.7 603.2 588.6 560.5 512.5 469 420.9 390.4 371.3 335.4 316 302.7 299.7 296 296.5 296.2 295.7 295.9 296.2 296.7 299.8 301.3 302.2 305.7 306.1 302.1 302.4 298.3 297.2 295.5 295.3 295.1 296.5 297 297.4 296.4 296.2 296.3 296.6 296.3 295.2 295.2 294.5 297.5 297.6 295.9 295.2 297.3 296.6 293.7 293.4 292.7 293.3 294.7 294.6 294.6 294.5 293.7 293 299 302.9 300.2 299 302.9 309.8 309.9 309.5 313.2 317.8 320.3 323.4 327.5 331.9 339.5 343.9 354.6
735.5 733.5 730.9 727.4 722.4 715.5 705.1 695.1 690.2 688.9 688.8 685.6 674.2 654.8 641.5 615.2 589.6 569.1 560 550.3 541.3 532.2 537.1 537.8 538.2 538.4 528.2 513.4 503.5 492.6 467.5 462.5 456.9 435.5 418.8 407.9 392.7 375 365.7 360.2 356 370.4 370.7 371.8 382.6 389.2 392.1 394.3 396.9 399.4 404.2 409.9 413.3 417.9 417.3 416.1 416.7 424.8 431.2 438.2 438.4 435.2 452.8 463.3 466 477.8 490.8 493.8 500.9 506.2 509 502.1 492.2 470.6 451.3 442.5 433.2 429.9 422.4 414.3 403.2 393.5 383.8 375 367.8 359.6 358.1 355.6 349.2 343.6 340.6 337.5 341 349.5 355.8 358.7 365 374.3 380 387.4 407.2 422.6 445.3 470 483.9 498.4 509 512.5 514.3 513.4 517.2 529.8 526.7 525.4 524.1 530.4 547.1 559 560.6 552.4 553.9 562.8 565.2 568.4 567.4 567.7 548.9 504.4 480.6 436.6 410.1 385.9 365.9 329.9 312 301.4 297.4 296.4 297 296.7 296.4 297.7 298.2 301.3 302.7 304 308.1 308.5 304.5 301.6 301.8 302.7 303.4 301.9 301.5 297.7 298.7 298.6 298.5 298.4 299.2 299.2 299.4 299.5 299 298.9 301.3 301.3 301.2 300 298.8 296.5 295 296.5 295.4 294.5 295.6 297.2 297.6 298.1 296.4 296.5 297 299.1 305 305.8 306.7 310.8 313 316 321.1 327.9 332.2 335.4 339.3 344.1 349.6 351.9 362.8 375.4
730.6 726.8 721.6 714.9 710.6 702.7 692.8 684.3 677 675.9 677.6 676.6 671 662.5 648.7 640.6 595.9 568.2 549.6 540 531.6 527.7 519.9 521.5 518.1 515.4 508 500.5 496.9 488.3 475.3 469.3 461.5 444.4 435.3 414.5 391.7 373 362.6 355 355.2 362.1 357.2 362.1 370 373 378.5 378.9 380.7 380.1 393.3 394.2 397.5 399.3 399.3 399.2 399.1 408.5 413.8 410.1 428.4 442.8 448.2 455.5 465.2 473.5 478.6 492.1 494.9 498.7 503.6 494 476.7 449 424.4 414.6 402.4 400.1 399.1 387.9 376.1 373.6 361.6 352.4 348.9 340.4 338.1 335.3 332.5 327.2 327.2 322.2 320.1 327.2 330.5 337 345.8 351 352 363.3 376.3 389 410.1 431.9 444.3 463.9 477.1 480.5 483.2 493.2 488.2 494.9 497.3 510.7 508.4 526.4 547.2 547.8 543.6 545.4 545.5 542 523.2 513 510.7 511.7 482.5 471.1 430.5 409.1 388.5 371.5 355.8 326.3 308.1 299.1 297.8 296.7 297.2 297.2 297.6 298.9 300 302.4 305 308.7 311 308.7 303.9 303.5 306.1 307.6 306.3 306.7 304.1 302 303.3 302.2 302.9 304.1 305.5 306.8 305.7 308.2 308 307 307 312.1 308.7 304.3 301.9 299.9 300.9 297.2 296.9 297.8 298.8 300.2 300.9 301.5 299.8 299.3 301.6 303.9 305.1 310.6 315.2 322.4 325.7 330.6 333.8 338.8 342.9 351.7 356.9 362 367.8 376.4 383.7 397.8
721.1 712.6 701.3 687.2 685.3 683.4 678.3 670.9 665.8 661.1 658.6 660.8 660.1 653.7 642.1 631.6 616.5 582.1 544.4 532.6 525 518.5 514.2 504.5 501.1 489.1 476.2 477.7 477 476.2 476 471.1 460.5 448.9 434.7 412.5 387.8 372.6 363.5 355.2 345.3 349 346.3 349.8 355.4 360.3 363.2 366.4 367.6 373.8 376.5 379.3 380.3 381.8 382.7 376.8 383.6 384.3 397.7 421.4 436.3 441.8 447.9 450.6 466 473.6 477.5 483.7 481.9 487.9 489 484 453.5 426 401.7 390.6 380.5 376.8 368.9 362.7 353.6 346.5 342.4 339.8 334.8 327.8 326.3 322.3 316.5 313.1 310.4 310.7 310.3 311.5 314.2 320.9 328.7 335.9 331.2 346.6 351 361.6 373.1 390.1 399.6 418.7 430.1 437.8 451.3 448 452.4 462.6 471.9 481.8 496.4 518.5 525.3 523.4 529.5 531.1 527.3 511.6 491.8 475.4 457.5 448.6 437.1 418.1 385.7 372.9 359.5 347 334.1 315.3 298.5 297.7 297.5 297.1 297.8 297.8 297.8 300.5 304.2 306.4 310.4 313.9 315.7 315.2 305.7 311.4 315.9 314 309.3 308.9 308 307.8 314.5 309.7 310.1 312.4 316 317.3 315.5 312.8 312.5 312.6 311.7 317.4 315.2 309.9 308.3 306.8 305.1 299.4 298.8 300.9 302.4 303.6 304.8 304.5 302.8 302.9 305.6 309.6 311.2 315.5 322.4 332.1 341.3 344.3 347.4 354 362.9 369.4 372.7 383.3 395.4 401.1 415.2 425.8
710.2 697.6 685.3 659.3 652.6 661 654 646.3 648.7 646 642.8 646.8 649.8 643.5 634 622.9 608.9 583.2 552.3 540.5 522 515.9 510.5 507.3 505.9 502.1 488.9 477.5 461.7 445.6 457.6 455.8 450.3 443.6 431.3 415.3 388.1 371.5 360.6 349.2 339.5 338.9 336.7 338.1 340.3 346.3 350.8 353.5 356.9 358.1 358.3 359.9 363.9 366.9 364.6 352.4 369 390.4 403.8 415.6 426.7 429.1 437.2 451.1 460.1 471.4 476.3 477.7 482.7 490.3 485.4 475.4 453 414.6 391.9 375.9 366 357.2 349.4 340.3 334.9 332.7 332.1 324.5 317.7 317.2 315.9 313.5 310.7 306.3 305.7 306.3 308.1 307.9 305.6 307.2 313 319.9 323 329.7 330.2 335.2 345.3 358 367.6 375.3 390.9 398.6 407.3 414.3 423.2 432.1 437.5 455.8 479.4 494.4 500.8 500.1 488.5 476.3 472.6 462.5 450.6 436.6 425.1 418 408.9 385.8 362 341.9 328.3 317.5 308.4 299.3 298.6 298.5 298.3 298.4 298.1 299.7 301.2 304.7 309.9 313.2 314.1 315.5 315.3 309.8 315.5 320.8 317 313.9 310.9 312.1 313.3 317.1 317.2 319.6 320.7 321.9 326.7 325.4 327.1 328.1 324.6 322.4 319.5 320.2 319.1 314.2 311.2 308.4 305.2 303.2 304 304.7 307.6 307.3 309.5 312.8 308.4 306.9 311 315.6 317.4 323.1 330.3 338.6 346.5 359.6 367.9 371.6 378.3 385.3 397.7 406.4 412.8 430.4 445.3 464.4
704.6 685.3 667.2 638.3 630.2 641.1 621.2 620 622 626 628 634.5 631.7 631.1 624.8 610.9 602 586.9 563.6 552 531.3 531.4 530.7 529.6 534.5 524.3 495.3 476.5 465.8 445.7 436.9 444.9 442.1 430 417.9 403.2 379.8 366.2 351.8 342.8 333 326.1 328.2 328.7 333 336.8 337.8 340.8 342.4 340.2 343 345 350.7 352.5 349.3 353.3 370 379.6 388 394.1 405.3 410.3 427.3 435.3 446.8 455.4 460.5 466.1 470.2 478.2 477.1 462.6 439 407.9 381.4 363.4 351.5 341.3 338 331.5 324.2 321.7 318.4 313.4 310.5 306.8 307 307.7 306.1 305.7 305.7 305.7 305.7 305.7 305.7 305.7 306.4 310.4 312.5 316 316.5 319 323.4 331.9 338.4 348.1 357.4 367 377.2 388 391.1 398.5 393 419.6 443.7 448.1 450.7 445.9 440.8 432.7 428.9 418.2 416.4 403.7 396.4 395.7 385.2 358.1 342.5 326.3 312.9 305.9 299.5 299.2 299.4 299.6 300.5 301.3 300.8 301.8 305.9 310.4 314.2 318.5 318.2 316.9 318.4 322.8 327.4 329.2 324.4 319.3 316.4 321 320.9 322.3 327.2 335.5 339.1 336.9 336.1 335.4 338.9 345.4 335.2 335.5 331.2 324.8 322.3 320.3 313.9 313.1 311.9 309.6 312.4 311.5 313.6 312.9 314.4 316.4 314.8 316.5 317.9 322.6 325 333 344 357.6 360.7 367 376.8 383 391.3 404.3 417.4 427 445.2 458.6 477.7 494.4
697.5 683.5 660.7 625.9 611 613.8 590.5 591 589.3 591.9 617.1 620.5 620 619.6 614.9 609.4 601.4 594.3 577.6 558.5 549.4 544.3 548.6 551.8 542.5 531.5 504.7 473.2 455.8 440.7 427.1 420.8 412.9 407.4 394.5 383.6 369.3 355.2 348.3 333.6 326.3 320.3 322.7 322.2 321.9 325.2 327.8 329.2 331.3 328.6 330.2 330.1 336.2 336.7 335 348.2 357.4 366.4 372.3 377.4 384.8 397.6 400.9 407.5 421 427.2 429.8 440.3 452.4 455.4 441.6 436.8 426.2 401.6 367.7 352.7 340.3 334.5 329.2 322.9 319.5 311.4 306.8 306.1 305.2 305.2 305.4 305.2 305.2 305.7 305.7 305.7 305.7 305.7 305.7 305.7 305.7 305.7 306 308.2 308.9 310 309.8 319.5 322.8 330.2 335.8 342.3 350.6 357.4 361.8 368.6 364 374.9 379.3 386.8 399.9 391.3 398.1 396 385.5 383.6 384.6 374.3 368.8 368.8 340.3 333.3 331.1 316.6 307.1 300.9 301.1 301.3 301.2 301.1 302.5 302 302.8 305.1 309.5 315.6 321.5 324.6 325.1 322.7 330.2 335.6 333.9 332.7 330.8 327.9 332.6 328.8 330.5 336.7 350 358 355.9 353.9 348.9 344.4 341.8 343.4 343.7 338.2 339 333.4 332.5 326.8 325.8 320.9 318.8 317.8 320.2 318.1 320.5 322.7 321.9 320.8 323.8 326.1 328.4 331.8 340 350 361.1 373.3 378.7 382.5 386.1 395.8 411.1 425.2 436.8 455.6 470 488 503.8 503.3
690.9 675.7 655.3 618.7 597.2 586.7 573.9 563.8 561.6 581.7 595.2 605.7 606.8 607.4 599.7 595.8 589.5 585.5 582.3 574.2 563.7 555.7 560.8 557.5 544.7 523.2 498.3 472.7 445.7 422.9 412.2 400.2 390 385.5 376 367.4 359.4 347.2 336.1 327.6 321.5 318.2 317.9 318 316 314.5 317.3 320.3 321.3 319.2 318 315.1 319.9 322.6 329.4 332.3 340.4 348.2 350.3 354.6 358 366.2 375.3 381.2 389 400.5 409.4 416.1 420.2 416.4 409.6 404.3 393.9 370.2 352.8 342.2 333.3 327.9 320.6 316.3 312.2 307.7 306.2 305.3 305.4 305.2 305.2 306.9 305.4 305.7 305.7 305.7 305.7 305.7 305.7 305.7 305.7 305.7 305.7 305.7 305.7 305.7 305.7 305.7 311.2 316.6 321.8 328.2 331.6 336.4 339.8 341.1 341.2 340 344.1 349.2 352.6 354 354.8 353.9 347.9 349.9 349.2 340.1 335.4 327.6 321 319.5 315.6 306.4 301.7 302.8 303.5 303.7 303.6 303.5 303.5 305.5 306.4 310.4 315.2 322.3 328.4 329.5 330.9 336.2 339.2 344.8 341.4 336.4 337.9 340.2 340 347.8 349.2 358.4 363.7 368.5 371.2 369.9 372.8 359.3 358.1 350.6 351.6 344.2 339.1 335.7 333.7 335.1 331.3 330 326.5 328.5 332.1 330.6 330.7 332.7 331.5 329.8 332.7 335.8 341.5 347.1 355.5 368.7 377.6 382 391.2 396.1 406.3 415.3 431.5 448 464.3 475.3 491.5 502.5 507.4 518.6
684 660.6 641.7 618.4 596.7 587.5 570 546.5 541.9 550.7 563.9 583.9 587.5 585.3 583.2 579.9 577.7 572.6 574 568 563.8 554.2 550.5 538 523.5 506.3 491.4 465.7 440.3 418.7 401.2 388.5 378.1 372.3 369.4 358.3 349.6 338.2 332.8 327.1 320.8 318.4 316.2 315.3 314.8 312.3 312.3 312.3 312.3 312.4 312.3 312.3 312.5 316.6 318.2 321 323.8 326.3 333.4 334.3 336.5 340.3 343.2 352.1 360.9 367.4 378.9 385 387.9 376.7 376.5 372.9 362.6 349.9 339.4 334.9 324.6 318.1 315 311.5 308.1 306.3 305.8 308.4 311 313.9 311.5 312.3 317.4 316.9 315.6 316 316.6 315.8 312.4 305.7 305.7 305.7 305.7 305.7 305.7 306 305.7 305.7 306.4 308.6 312.9 317.3 320 321.5 320.5 321.6 319.3 313.2 314.7 321.1 324.6 325.6 324.8 324.7 324.3 319.9 315.4 312.5 309.9 306.7 305.5 305 301.2 302.4 303.7 304.2 305.3 305.3 304.2 303.9 307 308.4 313.5 317.6 322.7 330.3 335.1 338.5 342 345.4 349.5 347.2 341.5 345.5 346 352.3 355 365.5 375.6 377.1 382.7 383.1 382.3 386.6 385.6 374 370.5 366.4 363.4 354.5 353.8 346.7 344.7 342.9 337.4 337.1 336.9 336.9 340 339 338.3 338.8 339 338 342 346.4 353.7 360.9 370.5 383.5 388.5 395.1 404.4 413.1 423.5 432.8 446.3 466.4 479.9 490.9 502 509.2 523.7 539.2
675.4 654.6 633.1 616.9 595.9 578.2 570.8 552.9 527.4 528.8 540.2 554.1 564.1 565.1 566.1 564.9 563.4 560.7 558.3 554.8 546.2 536.4 527.4 515.6 501.1 482.6 470.4 451 426.5 405.1 390.7 378.6 369.4 361.7 355.9 349.4 335.1 329.6 325.6 321.2 318.5 316.3 315 313.6 313.1 312.3 312.3 312.3 312.3 312.3 312.3 312.3 312.3 312.3 312.3 312.3 312.8 314.4 313.8 314 314 316.2 320.7 328.4 338.5 341.3 348.2 350.8 348.6 348.3 351.1 349.3 343.7 337.5 335 328.7 321.7 318 313.3 307 306.9 308.4 316.6 316.3 320.2 322.4 323.4 328.2 332 332.9 333.5 328.1 324.2 321.7 318.3 310.6 310.8 307.2 309.7 311.5 311.8 311.6 309.7 305.7 305.7 305.7 306.1 309.7 313.7 314.4 311.1 311.4 308.5 306.4 304 303.3 303.1 303.3 303.4 303.7 303.8 302.4 301.8 301.6 301.6 301.6 301.7 301.5 302.6 304.6 304.8 306.2 307.1 307.9 306.5 306.7 309.8 316.1 321.5 324.5 330.6 336.5 343.4 349.8 351.9 355.6 358.1 349.6 350.6 356.5 363.8 366.7 379.7 382.3 391.6 398.1 400.4 403.8 406.3 406.1 407.7 398.4 381 383.4 387.6 373.5 372.9 364.1 358.5 357 357.6 351.6 346.8 342.5 343 344.2 343.1 345.2 344.8 342.5 349.6 357.7 367.4 375.9 387.1 395.6 399.9 408.3 418.6 432.2 444 456.4 467.3 477.5 496.6 504.1 513 529.5 545.3 552.9
678.6 642.1 619.9 605.4 585.9 572.7 565.8 551.2 526.8 504.3 514.7 523.2 531.1 537.1 541.8 540.7 540.9 538.3 539 534.5 522.5 510.5 496.8 487.7 475.7 458.9 443.5 423.9 406.8 391.5 383.5 370.1 356.9 351.9 341 335.9 326.9 321.6 321.7 316.6 312.7 313.4 313.2 312.3 312.3 312.3 312.3 312.3 312.3 312.3 312.3 312.3 312.3 312.3 312.3 312.3 312.3 312.3 312.3 312.3 312.3 312.3 312.3 312.3 315.7 321.5 321.4 328.5 330 330.7 337.5 332.6 332.3 328.5 325.9 318.8 315.7 312.7 309.1 312.5 314.6 319.7 324.1 330 332.7 334.9 338.7 343.3 344.3 346.2 345.4 343.2 337.4 337.6 335.8 333.7 327 324.2 325.5 322.6 318.4 314 312.3 307.2 305.7 305.7 305.7 305.7 307.7 309.5 307.5 305.5 305.5 304.3 302.9 303.5 303.5 303 302.7 302.7 302.7 301.8 301.5 301.6 301.6 301.6 301.6 301.6 303 305.3 306.1 307.9 308.8 309.8 309 314 319.7 325.1 329.2 333.5 338.1 344.2 351.5 359.8 363.9 365.6 366.9 357.6 362.7 373.1 384.4 387.4 399.1 408.9 410.9 415.2 426.4 421.6 425.6 428.5 422 408.5 391 396.3 400.7 392.9 389.6 380.5 381.3 381.2 381.7 376.5 372.9 356 349.4 348.3 349.9 351.1 351.7 351.3 358.7 367.8 376.4 389.4 400 407.3 412.4 421.6 434.5 450.9 466.1 474.7 486.8 492.3 510.1 520.6 531.7 545.5 556.2 564.5
664.1 636.1 615.1 594.8 580.3 568.9 557.1 541.3 525.2 500.6 491.7 498.2 508.2 511.1 511.7 515.9 516.8 514 513.6 512.6 498.9 480.8 468.6 457.1 445.5 431.7 421.2 404.5 391.4 381.3 362.8 352.1 342.6 336.3 326.3 325.4 318.7 315.9 312.9 312.3 312.3 312.3 312.3 312.3 312.3 312.3 312.3 312.3 312.3 312.3 312.3 312.3 312.3 312.3 312.3 312.3 312.3 312.3 312.3 312.3 312.3 312.3 312.3 312.3 312.3 312.3 312.3 312.6 313.1 316 315.6 316.2 316.2 313.8 310.9 310.3 308.6 311.3 319 322.2 327.2 329.5 336 341.1 345.9 347.2 354.3 356.6 356.3 360.5 359.1 360.5 362.6 367.3 366.3 359.6 349.3 343.9 335 332.2 326.9 320.3 316.7 310.6 305.7 305.7 305.7 305.7 307.1 307 305.2 304.5 304.4 303.5 303.1 303.1 303.2 303.3 302.8 302.6 302.6 301.5 301.2 301.8 301.5 303.1 301.7 302.2 303.9 305.4 309.9 308.1 310.7 311.6 315.1 319.3 324.4 329.1 334.2 341.9 348.2 358.1 365.6 370.4 371.5 372.4 373.4 374.2 385.2 389.6 398.5 410.2 419.8 430.8 440.2 454.1 451.3 458.9 460.8 444.6 432.3 433.2 416.9 417.8 414.9 413.8 413.2 405.8 407.2 406.5 401.6 405.2 395.6 371.1 363.2 362.7 360.1 360.9 360.8 357 363.2 371.9 382.8 399.2 408.6 417.1 426.4 435.7 454.6 474.7 487.6 498.8 510.5 519 522.6 532.2 545.4 555.5 566.4 583.2
636.3 618.6 603.3 587.7 574.6 560.6 547.2 532.8 515.1 497 479.8 479.1 486.6 489.7 489.8 491.2 492.1 486.9 484.9 479.3 471.9 459 445.3 434.2 426 412 399.8 386.4 374.3 360.1 345.5 334.8 330.1 328.5 318.9 316.2 314.5 312.3 312.3 312.3 312.3 312.3 312.3 312.3 312.3 312.3 312.3 312.3 313 316.6 316 312.3 312.3 312.3 312.3 312.3 312.3 312.3 312.3 312.3 312.3 320.4 318 319.8 318.7 318.4 316.9 316.5 315.4 318.7 323 320.8 319.8 316.8 313 311.2 313.5 322.1 327.2 333.2 338.3 342.2 345.9 353.5 360.5 365.6 369.5 373.4 380.3 380.7 385.9 387.3 391.7 393.8 397.8 393 384 374.8 355.8 343.3 333.4 325.2 316.2 311.6 307.1 305.7 305.7 305.7 305.4 305.2 305.1 304.8 304.7 304.1 304 303.6 303.4 302.7 302.9 302.6 302.6 301.4 301.1 301.9 301.3 306.3 304 304.1 308.7 312.2 321.9 309.7 312.8 315.6 324.3 328.1 329.3 336.4 340.3 351.4 361.2 373.1 380.3 378.3 378.3 378.2 391.2 394.6 402.7 414.7 424.3 429.4 442 450.8 461.2 459.3 469.1 472.5 470 457.4 443.4 440.4 434.6 435.7 436.3 441.6 441.1 435.7 427.5 425.4 424.6 414.8 406 394.4 376.1 373.7 369.8 368.5 367.4 363.8 366.4 373.8 384.7 402.9 412.8 424.2 438.4 461.6 477.5 494.2 507.7 519.7 533.2 537 534 544.6 553.8 566.8 583 594.3
612.3 598 587.3 576.1 561.1 548.7 538.5 527.4 508 496.3 482.4 460.7 467.3 473.1 472.6 467.2 465.2 465 460.9 450.6 442.2 433.8 424 415.2 403 394.1 377.8 365.2 349.7 339.8 327.8 321.5 316.9 314.7 314.8 313.4 313.5 312.3 312.3 312.3 312.3 312.3 312.3 312.3 312.3 312.3 312.3 312.5 319.1 320.5 320.4 318.4 313.6 312.7 312.3 312.3 312.3 312.3 312.3 322 327 329.1 329.6 325.3 326 324.2 322.4 320 319.5 321.2 321 321 319.6 318.4 317.8 320.1 324.8 332.7 341.1 345.4 350.4 357 363.8 367.9 376.5 380.9 388.3 393.9 401.7 408.4 409.5 418.5 423.2 418.3 421.6 422.1 407.8 393.2 380.8 356.7 341.6 331.2 318.5 312.9 309 305.2 305.5 306.5 307.2 306.8 306.5 305.9 305.4 305.1 304.6 304.2 303.3 301.9 302 302.6 302.6 301.6 301.8 301.4 303.2 306.2 307.5 309.6 314.4 321.8 320.9 312.1 318.1 326.9 330.8 335.6 337 345.2 349.1 361.3 375.6 386.7 390.1 391.7 394.1 402.8 404.9 419.2 429.5 447 454.8 461.7 463.2 469.1 470.2 471.3 469.9 469.4 468 462.5 456.3 450.4 441.3 447.7 457.2 462.3 457.6 451.5 451.6 441.9 433.7 425.5 413.7 399.9 392.9 387.2 379.7 380 376.1 374.4 369.6 379.2 388.2 404.7 420.3 431.4 452.5 474 492.9 506.2 522.5 538.2 545.6 541.5 548.2 553 567.8 577.4 590.2 598.7
585.8 578.7 569.3 560.4 546.8 534.1 522.4 514.1 504.8 486.6 467.7 459.5 442.5 451.3 453.9 447.7 447.9 448.7 441.6 434.5 425.4 415.6 402.7 392.2 383 373.2 356.3 341 330.9 322.6 318.7 315.1 313.9 313.5 313.3 312.7 312.3 312.3 312.3 312.3 312.3 312.3 312.3 312.3 312.3 314.9 319.6 322.6 326.1 324 328.5 330.6 328.1 328.4 333.5 333.8 325.1 324.1 332.3 333.6 335.9 337.2 336.9 335.6 332.3 329.3 325.7 324.3 323.9 324 324.3 323 324.1 323.8 328.4 333.6 341.9 345.7 352.2 358.4 364.4 373.9 382.4 389.7 398.9 398.9 405.8 415.1 420.3 431.1 434.9 444.5 447.6 452 447.6 449.7 431.9 414.5 387.3 372.4 354.3 339.7 324.8 316.7 312.9 309 306.5 307.9 307.9 308.6 308 307.4 306.8 306.2 307 307.1 305.9 304.2 304 303.8 303.4 303.1 302.3 303.5 305.1 310.2 313.3 318.1 320.2 324.5 324.8 316 328 332.5 334.4 341.3 345.6 352.4 360.8 379.3 395.8 400.7 408.5 413.4 419.3 425.5 435.2 443 458.1 464.1 477.8 484.9 484.2 477.7 475.8 473.2 470.9 473.9 470.8 475.4 467.4 461.7 461.6 464.1 475.9 475.9 470.3 464 458 449.3 442.9 430.7 423.9 415.9 405.5 399.3 389.8 391.9 386.2 382.5 371.8 381.7 392.9 406.4 426.8 441.7 464.1 482.6 503.4 520.4 528.8 543 549.1 554 557.8 567.3 570.3 575.4 588.4 599.7
562.7 558.3 551.4 542.7 528.7 515.4 505.3 491.7 482.9 470.2 453.5 445.2 437.9 429.5 431.9 429 431.6 430.2 421 418.4 406.9 400.7 381.4 371.1 362.4 348.4 336.4 327.5 320.8 315.3 314.9 314.4 314 313.7 312.9 312.5 312.3 312.3 312.3 312.3 312.3 312.3 312.3 320.3 329.7 329 329.7 333.3 337.1 338.9 344.6 351.3 346.2 346.8 353.9 354.6 355.8 348.7 351.6 353.8 353.8 351.5 349.1 345.9 338.8 333.7 331.6 329.2 328.5 329 330.6 333.2 334.5 339.2 345.9 350.8 355.5 361.5 367 376.7 384.1 386.4 397 409.3 411.5 418.8 420.9 430.9 442.7 449.5 458 469.2 475.4 478.8 469.5 468.9 458.9 439.1 407 386.7 370.5 357.6 341.7 324.7 313.5 310.5 308.7 309.7 309.6 310 309.5 309.3 309 311.1 310.7 310.4 308.6 307.5 307.2 307.9 309.6 304.7 304.2 304.7 312.2 316.5 320.5 324.6 327.4 326.3 326.6 322.1 333.1 335.6 341.4 346.8 351 360.1 373.5 393.7 405.8 419.7 426.5 438.5 447.7 453.6 468.3 477.1 487.5 492.4 492.6 492.2 492.9 478.9 473 471.8 471.3 470.9 471 470.6 471 474.4 476.9 479.9 482 479.9 481.8 477.6 471.6 462.1 455.9 446.5 437 428.4 419.2 412.6 402.5 402.8 394.7 389.2 385.1 387.3 395.4 408.3 425.8 444.8 470.8 492 513.2 534 547.9 552.6 563.2 566.2 576.9 581 582 586.6 591.4 597.4
545 535 527.5 518.6 509.1 500.3 489.3 480.5 467.6 452.5 442.6 433 424.8 417 416.7 414.4 413 406.7 397.5 389.2 381.4 372.4 361 351.6 343.6 335.1 325.3 318.5 315.6 315.3 314.9 315 313.6 313.6 312.4 312.3 312.3 312.3 312.3 316.5 322.6 327 333.1 343.2 345.1 353.5 361.7 364.9 362.2 359.9 362.1 367.9 368 367.8 375.3 378 379.4 374.5 373.3 379.4 376.6 366.3 362.5 350.1 349.4 346.8 343.3 333.2 336.2 338.5 343.1 346.6 352.7 358.6 361.9 367.8 374.8 381.2 391.9 396.9 406.3 404.6 411.1 421.7 428.3 433.7 442 451.1 465.6 468.8 479.3 488.6 488.3 485 474.8 470.8 467 451.8 431.6 419.4 394.7 370.7 347.7 331.2 321.4 315.3 316.4 315.9 311.9 311.8 310.5 310.4 310 313.6 315.1 315 314.7 314.6 313.3 314.2 315.1 318.1 320.1 322 322.2 328.7 332 334.1 331.4 328.6 327.3 328 336.3 342.4 349.2 353.6 358.8 368.3 379.6 401.8 414.9 428.2 439.9 453.4 473.8 478.6 497.8 507.2 516 516.1 512.3 493.3 486.7 478.3 473.9 473.4 475.6 471.6 471.9 474.6 476.5 481 489.3 492.8 492.7 496.1 494.7 489.4 482.8 481.3 476.8 468.1 452.1 441.7 434.9 422.6 415.3 412.6 406 396.9 394 389.3 402.1 410.5 423.7 443.3 466.6 494.8 521.9 544 558.7 567.1 581.3 591.1 592 588.9 602.8 604.9 609.1 619.2
520 515.5 507.7 501.3 491.6 483.8 473.3 464.7 449.9 439.1 431.9 422.5 412.6 410.3 401 395.7 390.7 385.3 378.1 371 362.6 354.1 347.4 337.6 331.9 323.1 318.8 316.7 316.8 316.7 315.8 315.5 315.1 316.9 314 313.4 312.3 317.9 326.4 334.9 341.6 348 357.4 367.7 378 390.9 391.4 393.1 391.2 382.1 382.9 391.1 392 402.3 406.6 410.4 404.3 408 399.8 402.6 396.6 381.8 370.6 362.3 360.8 353.9 347.9 345.8 347.1 354.5 360.2 363.1 369.2 373.7 379.7 386.4 396.6 401.9 410.1 415 421.8 420 430.6 437.9 446.4 452.6 461.7 473.6 481 487.3 491.5 492 489.8 488.8 493.2 489.6 487.1 471.4 458.3 450.4 430.9 394.7 366.1 349.7 334.3 328.3 323.7 317 313.7 313.8 314.3 314.9 318.5 323.4 324.4 326.3 321.5 324.3 328 331.9 331.8 338.2 346.1 342.9 345.1 345.1 341.5 340.5 344.5 340.5 330.5 332.3 335.5 343.1 355 360.6 369.1 377.1 391 402.9 419 437.8 455.4 472.1 486.4 497.7 515 523.9 525.7 525.2 519.4 508.5 490.6 480.3 478.8 480.2 478.3 476.9 480.8 488.7 491.6 495.6 500.7 502.4 506.7 506.7 503.2 499.7 498.6 493.4 490.2 482 468.3 453.3 439.7 431.7 423.7 420.3 415.8 406.7 408.1 397.1 404.1 415.3 427.1 445.9 467.4 497 524.2 543.6 564.5 578.3 585.9 588.3 592.5 602 613.4 624.6 626.8 632.4
502.7 497.8 489.8 487 476.8 472.3 463.4 450.7 440.5 430.5 423.9 413.8 404.3 395.9 387.7 380.8 376.3 371.4 364.3 357.7 348.4 339 331 324.6 324.4 321.8 317.6 316.7 317 317.8 317.3 316.3 320 322.3 323.4 323.9 326.6 333.4 345.7 356 366.7 377 389.9 405.4 419.1 421.4 425.7 432.7 427.2 417 410.4 412.7 417.7 425.9 437.9 441.2 434.2 431.3 430.8 425.1 416.3 404.2 390.5 382.3 376.5 371.8 364.8 362.2 360.3 367.1 372.5 381.1 386.2 395.8 403.4 405.8 410.5 418.5 427.6 431.4 441.8 441.3 451.4 452.3 459.4 465.8 473.2 479.5 491.9 496.2 493.2 495 504.6 511.8 510.5 505.3 490.3 473.7 457.7 441.3 423.8 405.1 386.1 363.3 343.3 337.3 330.3 322 321.3 320.8 321.9 325.5 329.1 333.3 337.2 340.1 342.5 342.1 349.2 354.6 359.1 363.9 365.6 365.4 365.4 360.5 352.9 349.8 350 346.2 341.7 340.8 352.6 355.5 352.2 366.5 377.2 385.4 402.2 416.8 430.2 438.7 452.2 477.3 494.3 506.6 516.9 521.1 525.4 527.6 525.6 516.7 504.9 492.9 491 490.8 489 485.6 490 495.1 498.8 503.3 511 511 510.8 510 507.4 509.8 504.6 496.8 484.2 474 464.2 457.1 446.5 440 433.2 428.8 425.1 417.4 413.5 405.3 416.3 422.7 435.9 452.6 475.6 499.6 521.8 544 567 585 583.9 590 602.2 614.7 622.9 629.1 635 642.9
490 479.7 474.4 468.7 462.5 455.7 450.1 443.5 432.2 419.6 410.3 403.3 395.6 386.7 378.2 370.6 357.5 352.9 344.3 339.6 333.3 327.5 323.6 320.4 321.7 320.4 317.2 317.2 317.1 318.1 318.8 322.5 327 330.8 336.9 338.8 345.2 356.1 372.8 383.2 394.8 412 428.4 439.5 449.3 458.2 462 457 450.8 438.4 441.5 454.7 455.2 459.3 464.3 471.4 480.9 459.9 464 457.8 450.4 429 419.1 406 395.5 391.7 383.7 378.7 377.1 378.6 392.5 400.8 408.7 418.4 424 426.9 429.4 436.6 446.6 453.8 461.4 463.2 466.3 468.8 469.9 474.8 481 489.3 495.4 502.2 505.8 510 516.9 517.8 514.9 515.9 488.3 467.9 451.1 433.6 414.2 397.8 382.8 367.1 353.6 341.9 332.5 331.4 334.4 337.2 337.1 344.7 346.7 350.3 354.6 357.3 362.4 368.4 375.8 379.6 385.3 388.4 386.7 389.8 384.7 379.5 371 364.6 358.8 353.9 352 353.3 358.8 363.7 369.4 375.3 384.9 396.1 411.4 428.1 441.2 456.9 466.2 471.4 485.1 504.3 514.9 522.3 524.2 524.2 525.9 528.5 521.1 503.1 494.7 493 492.8 492.8 492.3 499.8 503.7 506.3 512.9 513.5 512.9 510.8 511.1 510.6 507.5 504.1 499.3 489.6 480.2 469.1 462.3 449.7 442.7 436.2 431.5 425.7 420.6 409.9 417.8 434 440.8 458.5 482.1 498.8 521 542.8 562.2 573.4 585.8 598.2 610.6 620.6 626.4 632.6 638 649.7
469.9 461.7 458.6 454.7 448.8 441.4 435.5 425.1 418.3 407.2 396.8 389 379 375.3 362.7 354 347.4 336.5 335.5 332.5 326.4 322.3 320.3 319.3 319.1 317.7 317.7 318.3 318.5 318.4 322 330.8 337.6 343.1 353.9 363.6 370.5 385.1 401.3 415.6 435.3 451.3 470.9 484.8 495 502 499.8 489.4 476.8 484.1 482.6 481.2 486.6 492.8 492.8 503.6 508.2 494.5 494 499.5 502 480.7 456.9 436.3 430.5 416.4 407.8 401.6 393.8 397.7 412.4 423.2 426.3 436.4 445 457.3 459.8 463.7 467 469.1 473.9 477.5 481.9 488.9 486.1 484.6 486.5 490.6 495.9 499.2 500.9 506.4 510.5 513.3 512.9 513.4 489.1 467.6 448.6 436.7 418.7 401.3 387.2 367.4 353.3 352.7 353.3 353.8 356.2 360.3 366.2 369.2 374.6 373.5 379.1 379.2 384.6 389.8 395 398.7 400.3 402 403 400.8 396.1 396.2 393.2 383 372.9 367.4 361.8 364.1 370.3 373.4 377.2 380.5 392.8 406.4 421.9 443.3 459 474.1 478.3 485.1 497.1 502.5 499.4 504.1 508.7 511.8 508.8 506.8 499.6 496.3 495.3 494.1 496.8 500 504.4 505 509.8 513.6 519.3 521.8 522.6 526.5 528.4 527.9 522.7 519.2 513 504.6 494.5 481.3 470 461.7 453.6 446 438.5 433.4 427.8 416.7 429.6 441.7 447.6 464.1 482 502.1 524.2 542.9 556.3 572.3 587 603.2 613.7 624.8 626.4 638.1 642.7 648.7
453.3 446.2 439.4 437.5 429.7 423.9 418 409.9 398 394.2 384.3 371.6 364.2 354.9 354 339 333 330.1 328.3 328.2 323.8 320.8 319.8 319.5 319.1 318.3 317.7 320.7 322.4 325.1 330 340.3 348.2 360.3 373.6 386.9 402.9 419.3 435.7 454.6 475.1 495.1 514.1 523.6 523.8 517.4 506 502.8 497.1 498.8 504.7 508.4 512.7 520.1 524.9 531.2 534.2 532.8 529.1 528.2 528.7 521.4 497.9 465.1 472 457.5 439.2 430.9 420 422.1 430 441.4 447.6 457 470.1 476.9 480.7 477.1 477.2 481.4 487.6 494.9 499 497.8 494.9 491.8 485.3 485.4 485.1 488.3 489 491.6 496.8 500.7 502.1 495.7 474.6 466.1 445.6 434.6 418.7 407.9 394.8 386.1 376.9 372.2 378.1 382.4 377.9 386.6 386.6 393.1 396.8 397.2 400.8 401.5 403.4 407.1 410.1 417.3 414 409.6 411 412.2 406.8 407.2 399.7 389.2 381.4 379.2 373.8 372.1 377.6 383.1 388 391.7 403.2 414.8 428.6 451.6 466.3 477.8 481.3 492 499.4 506.4 511.8 506.3 502.1 503.4 505.1 505.8 505.2 504.3 503.4 499.4 505.8 510.2 511.1 516.9 520.3 524.9 529 531.6 536.6 539.3 539 539.5 537.1 533.5 527.6 518.2 511.9 499.5 485.5 470.4 465 455.9 446 441.3 437.9 423.3 431 451.1 456.6 470.4 487.6 511.4 530.3 546.7 558.8 572.8 588.3 600.7 608.6 618.1 620.9 630 634.5 640.4
437 431.5 421.8 417.7 412.7 401.1 399.1 393.2 385.1 376.1 362.2 354.3 349.4 345.2 340.9 332.8 328 326.4 323.4 323 323.6 323.6 322.8 323.4 324.2 326.3 328.2 331.9 334.4 337.6 345.9 358.9 368.1 382.5 397.9 412.8 433.5 450.5 470.5 499 517.8 525.1 535.7 539.9 533.3 527.4 519.4 518.1 517.9 519.8 522.5 529 537.9 546.7 552.5 557.1 558.7 564 567.6 558.7 556.6 556.1 527.1 493.3 504.7 493.9 489.2 460.5 451.8 442.3 452.3 461.6 469.7 477.6 486.1 489.3 491.4 495.1 497.9 504.4 507.2 512.2 519.2 516.6 500.6 496.2 482.9 481.6 481.7 477.4 479.1 478.3 480.4 482.5 478.7 472 462.9 451 431.2 423 416.7 406.4 400.2 400.1 397.4 395.2 400.4 403.3 404.8 409 410.8 414 417.1 417.6 418.5 418 420.9 420 420 418.3 417.1 414.2 414.4 415.3 417.3 414.2 408 399.9 391.6 384.1 381.7 378.9 383.6 390.6 398.8 402.5 412.4 423 435.6 454 471.3 478.7 484.8 496.5 500.6 504.9 509.8 512.8 514.3 508.1 505.1 505.5 509.7 509.1 506.8 509.1 517.3 522.3 526.3 527.5 528.7 530.5 536.6 543.4 548 552.2 555.4 555.3 553.2 548.8 545.3 537.5 526.8 513.9 497.1 480.7 472.1 464.9 456.3 449.9 447.3 430.9 431.1 457.9 465.4 479.2 495.6 517.7 540.3 552.5 561.9 576.6 588.9 595 603.3 615.4 619.9 625.7 630.3 632.3
416 413.3 407 404.3 393.6 386.1 382.8 373.1 366.1 357.7 349.3 343.3 340.5 334.7 331.4 328.1 326.1 323.8 323.1 325.7 327.1 328.7 327.8 329.4 332.6 336.4 342 345.7 350.7 355.6 367.5 381.3 394.2 407.2 424.1 440.2 454.2 482.2 500 521.9 535.2 542 544.9 545.8 537.1 530.6 533.1 537.9 528.1 533.6 539.6 550.9 557.8 566 569.1 573.8 577.7 583.7 589.4 585.8 582.5 577.4 568.8 527.5 530.2 521.1 505.4 492.1 481.6 476.5 477.3 483.2 489.4 494.7 502.4 509.2 511.2 515.1 517.2 525 526.9 518.7 519.7 505.6 486.2 478.4 477.9 475.2 474.2 465.9 466.2 470.6 469.7 468.9 464.3 460 450.6 443 425.9 417 412.2 402.5 409.2 412.1 413.4 417.8 420 426.9 426.1 427.9 433.6 432.8 433.2 436.7 436.2 437.5 437.8 435.9 430.6 428.7 427.9 431.2 434.2 434.2 429.4 423 418.1 408.4 400.1 394.4 386.3 388.5 392.3 400.2 407.3 414.1 417.3 431.7 441.6 458.3 472.4 484.9 490.5 497.8 502.5 507.5 512.4 516.2 520.7 523.7 519 516.3 518.1 519.9 522.1 521.6 525.4 529.4 534.3 537.5 537.4 541.5 549.8 559.4 565.2 567.8 569.8 571.1 569.2 568.5 564.1 556.4 540.7 522.8 504.1 491.4 479.8 473.5 468.4 461 455.8 435.2 444 463.9 474.1 487.6 501.2 522.9 543.7 560.7 569.6 580.1 589.2 599.2 606.2 613.5 624.3 627.1 630.3 637.8
402.1 400.6 393.6 387.9 382.3 375.8 367.5 359 353.3 346.8 339.9 334.1 335.1 332.3 327.8 326.2 325.2 324.6 325.3 327.6 330.1 334.2 335.1 337.8 344.1 351.5 356.2 364.5 368.3 381.6 393.8 409.1 424.1 437.7 450.5 461.9 484.3 504 519.5 534.2 539.1 548.5 549.5 546.7 543.4 542.6 547.6 547.4 544.7 552.8 554.5 561.9 571.7 578.6 582.3 587.8 594.4 603.9 609 610 606.7 595 579.3 553.3 560.1 546.4 535.7 524.4 516.3 501.8 500.5 511.6 518.4 522.7 523.1 522.8 520.9 520.2 520.2 523.6 520 514.8 499.1 488.5 480.7 478.9 477.8 476.4 471.2 469.5 466.1 460.9 463.6 459.6 453.4 447 436.7 429 421.4 414.1 417.9 420.3 425.3 426.1 428.5 437.8 440.9 449.6 457.8 459.4 458 457 453.9 453.3 452.6 452.7 459.5 453 448 443.8 441.1 442.3 448.7 455 438.4 426.8 419.1 415.4 412.1 403.9 396.9 396.2 401.1 409 415.6 423.6 429.7 437.6 450.6 463.6 478.9 486.4 493.6 498.7 505.8 511.5 516.4 520.6 529.1 533.3 536.1 535.1 528.3 529.9 534.6 535.1 534.8 537.4 542.1 550.1 550.8 560.8 569 573.2 578.9 583 583.6 585.2 589.2 588.8 581.9 568.3 545.7 525 509.1 498 488.4 481.9 476.6 470.7 464.3 445.6 448.3 471.7 478.3 491.4 506.6 531.2 554 569.6 579.5 592.9 600.3 607.3 612.2 618.4 632.6 630.3 631.3 643.2
394.6 382.8 382.8 373.2 369.4 364.5 360.4 354.7 347.2 343 337.2 330.9 328.6 328.4 327.3 326 326 325.6 329 333.7 337.7 343.6 348.1 350.7 356.8 365.7 374.4 384.8 394.3 406 422.9 447 461.1 470.8 476.4 485.5 504.4 523.9 535.4 544 552.1 555 554.5 554.5 553 553.1 553.9 551.6 553.4 560.6 567 573.6 580.9 589.1 600.7 609.5 616.1 624.3 630 629.8 617 604.5 588.6 576.6 568.2 558.9 549.1 541.4 535.2 524.6 531.5 535.5 541.7 539.8 541.9 539.2 529.5 527.1 523.7 521.8 518.2 505 497.7 487.3 481.4 480.9 479.4 475.1 470.8 469 463.2 459.6 452 450.8 444.7 437.6 427 430.8 431.2 433.7 438.5 440.9 442.5 447.2 452.1 460.8 465.7 475.2 481.7 483.4 485.8 482.7 475.9 476.1 468.7 464.2 465.8 465.3 470 461.3 457.3 455.9 459.1 455.1 449 433.3 424.6 421.3 421 416.8 407.8 408.5 412.8 420.2 429.4 434.7 442.1 452 455.3 468.1 481.9 492.5 497.6 503.2 508.9 517.6 522.3 524.3 535.4 540.1 542.5 552.2 559.2 554.2 546.3 545.4 546.7 549.1 554 560.3 568.5 577.1 584.2 588.8 591.4 594.6 598.3 604.5 606.9 602.6 587.9 568.1 540.3 523.3 512.9 504 494.7 489 482.7 477 471 445.9 464.5 476.9 485 497 512.9 535.6 559.1 577.5 592.1 603.3 614.7 621.5 624.7 629.7 642.3 635.1 637.3 647.8
384.1 376.7 366 363.2 361.6 356.6 353.9 347.6 343 335.9 328.6 334.2 332.4 329.9 328.5 327.4 327.9 332.1 337.6 342.1 349 357.7 364.9 371.6 376 388.5 398.3 409.4 424.3 439.4 456.9 475.6 487 501 501.6 514.2 526.5 537.4 544.9 556.3 561.6 563.9 564.4 560.6 560.3 560.9 560.7 560 562.8 568.9 575.4 583.8 593.6 608 624.6 631.2 637.9 640.1 635.2 630.3 622.8 612.7 601.7 593 583.1 572.5 567.5 561.9 551.7 547 552.3 556.2 558.3 555.1 550 544.7 539.4 535.6 537.5 530.3 521.1 504.4 495.6 488.2 487.1 483.8 481.7 476 472.4 466.3 461.7 455.7 451.9 450.2 448.4 448 447.8 446.1 452.5 453.4 462.7 467.4 469.3 471.1 479.1 482.7 486.7 488.3 491.8 494.5 496.1 491.3 485.8 483.2 480.7 479 481.2 481.2 476.1 472.8 469.3 470.7 467.5 461.7 458 447.8 433.6 431.8 430.4 422.6 416 419.2 425.2 433.3 441.3 447.6 454.3 463.1 469.8 475.6 485.3 492.5 499.5 506.8 514.4 522.2 526.5 534 539.9 551.6 560 570 570.3 568.9 564.2 557.9 562 562.2 569.5 577.1 583.3 588.9 595.3 600.8 603.5 608.4 612.4 616.3 616.5 607.4 583.9 570 545.7 526.2 516.8 507.3 500 492 485.9 479.5 466.9 454.3 469.7 479.2 488.2 502.5 518.9 539.2 564.7 584.8 602.8 618.5 630.5 634.7 639.1 643.9 650 646.8 652.5 659.5
368.3 362.3 356.9 353.4 351.5 351.7 343.9 339.2 335.1 338 337.9 336.9 333 331.5 331.9 331 335.6 343.3 350.7 357.3 364.4 374.9 385.4 394.3 398.3 410.5 424.7 441.4 457.1 471.6 488.5 500.1 515.3 517.5 524.1 541.2 547 552.8 560 567.8 569.9 570.3 567.8 568.7 571.2 569.5 567.6 568.1 571.9 577.8 587 597.1 608.8 621.1 632.5 640.2 644.1 643.8 643.7 637.8 627.9 618.3 610.4 600.3 594.2 588.4 580.5 569.2 562.2 564.2 564 559.4 556.4 550.8 543 537.6 536.3 533.2 530.8 519.7 513.7 507.2 497 492.5 489.9 488.5 482.5 475.5 468.6 468 465.3 464.4 464.2 465 470.7 469.6 469.3 472.6 476.7 484.6 488.8 492.3 495.6 498.1 500.3 503 502.5 501.6 503.3 504.9 504.6 502.7 500 496.4 493.6 496.5 501.2 493.2 489.1 488.4 481.1 477.3 475.8 464.6 457.9 446.4 440.7 437.8 436.4 430.4 426.7 433.9 440.3 448.6 455.3 458.2 467.4 477.4 484 488 484.9 498.8 505.4 511.5 519.4 528 536 544.5 554.7 562.5 569 573.9 575.7 578.3 579 572.6 574.3 579.5 584.6 589.7 596.1 601.2 607.5 612 616.1 620 621.9 619.7 615.8 612.9 603.5 586.1 558.3 532.5 519.2 510.5 502.4 492.9 485.1 479.1 470.2 456.3 474.7 481.5 492.2 506.6 522.4 543.2 568.1 589.1 610 628.2 642.4 647.6 647.8 653.8 656.2 654.1 662.7 673.4
359.5 354.6 349.1 347.1 344.8 341.3 334.8 338.9 340.8 342.2 339.5 338.6 335.7 335.1 337.1 341.7 348.7 359 367.9 377.6 387.5 398.2 410.6 417.3 417.1 433.5 452.2 468.3 487.3 503.8 512.7 523.7 527.7 533 551.9 557.2 561.6 566.6 576.5 577.3 576.4 573.4 578.5 580.2 580.1 578.9 577.8 578.4 583.7 590.2 599 609.9 622.8 634.3 642 645.5 651.4 646 642.7 639.6 634.3 626.8 619.7 604.8 591.1 586.8 582.2 569.2 562.3 558.1 553.9 552.8 547.5 541.2 536 533.3 530.7 526.6 522 518.3 512.6 504.2 505.2 498.3 491.6 489.7 486.5 484.1 482.3 483.9 484.9 483.3 484.5 481.7 489.2 491.8 492.8 499.2 505 508 510.7 512 514.5 517.9 519.3 519.2 519.9 518.7 522.2 519.8 517.1 511.9 509 506.3 504 507.3 509.3 500.7 492.7 491.6 482.9 475 468 463 456.8 452.7 449.9 441.5 432.2 435.1 440.4 446.2 452.8 459.3 465.5 472.5 482.3 488.3 489.6 494.7 499.9 505.7 513.7 521.9 530.2 541.9 550.3 557.7 567.3 575.7 579.2 582.5 584 584.1 582.4 584.7 590.5 596.3 599.5 604.3 608.8 613.8 618 622.9 625.7 626.3 630 633.5 637.3 632.6 616.3 590.1 561.8 539.8 524.4 512.5 501.9 493.7 486.9 481.6 477.8 461.3 480.4 484.6 495.1 509.5 525.9 547.4 569.1 594.5 617.2 636.1 653.8 662.5 661.2 659.7 661.3 667.3 676.6 687.1
352.3 348.6 343.8 341.9 340.2 340.3 343.6 346.4 347.4 346.7 344.4 341.5 341.6 342.3 347.2 354.5 369.1 379.9 390.3 400.5 413.9 432.7 442.4 444.8 444.1 460 481.3 493.8 510.5 520.6 529.5 533.8 543.3 552.1 556.9 564.2 570.6 576.5 583.4 583.9 581.6 588.7 591.5 592.5 588.7 585.5 584.5 585.2 591.5 600.4 609.2 618.1 632 642.6 646.3 647.6 644.1 639 632.7 628.9 625.1 620.8 608.5 601.3 591.9 583.3 569.4 561.7 553.9 547.6 548.6 545.9 540.4 536.6 535.6 531.2 527.3 521.3 513.5 509 509.6 510 505.3 502 500.6 499.4 498.9 498.3 498.5 499.3 501.5 502.6 504 508.5 512.4 515.5 517.8 520.4 524.1 526 527.1 528.3 532.2 534.6 535.1 535.9 532.9 531 530.9 530.6 527.3 522.5 516.4 514.9 511 509.5 508.7 506.1 498 490.8 482.8 477.8 473.8 471 462.4 455.8 451 443.6 440.9 445.8 452.1 459.2 464.6 470.8 475.7 488.7 492.4 495.5 502.3 505.4 509.5 513.9 520.4 530.5 541.6 549.9 558.3 566.6 575 583.8 588.8 594 594.4 591.4 593.9 599.7 604.2 608.3 612.5 617.4 620.8 627 631 631.9 635.2 636.9 643.4 651.5 654.8 650.9 632 598.6 573.1 546.2 527.7 512 502.6 494.3 487.6 483.1 480.8 468.6 483.3 488.2 498.1 514.8 528.9 546.8 570.6 597.6 621.8 644 663.5 672.3 673.3 672.1 674.2 682.7 692.5 700.9
347.5 342.7 339 337.9 346.7 348.3 352.9 353.8 353.6 354.1 351.5 351 352.6 354.5 363.4 381.3 397.2 401.7 415 431.4 447.1 459.2 468.3 481 481.2 486.2 503.8 517.7 527.7 533.9 535.8 542.6 549.4 555 562 569.2 573.9 581 587.6 592.3 594.7 600.3 601.4 598 596.6 594.7 592.6 598.3 601.3 604.9 613.8 625.6 635.5 639.4 636.2 635.3 631 630.4 628.7 623.3 615.9 607.8 602.8 595.4 582.5 569.2 559.6 552.8 546.9 542.7 540.4 538.6 535.1 532 528.9 522 520.5 521.2 518.8 518.3 519.3 513.6 510.7 511.4 509.6 510.4 510.2 510.7 514.2 517.7 520.2 523.5 527.2 530.6 532.7 535.2 536.6 538.2 540.6 542.7 545.3 545.8 546 548.7 549 547.5 544.7 542.4 539.6 537.1 537 531.1 526.6 523 519 515.2 509.3 505.7 500 493.7 489.1 486.3 479.5 472.7 465.8 458.4 452.9 447.1 450.4 455.9 462.6 469.5 476.3 484.1 491.2 495.1 500 506.8 511 514.7 518.7 525 531.1 539.6 547.9 556.1 565.3 573.6 584.4 592.8 597.3 599.6 599.8 603.8 610.6 614.2 618.2 622 624.5 631.5 633.9 638 639.3 642.7 644.4 654.3 662.1 669.8 680.4 677.6 645.1 612 586.6 558.8 533.9 515.4 505.1 496.1 491.4 485.3 476.7 478.2 488.3 493.8 502.4 519.1 534.5 550.4 571.1 599.3 628.8 651.9 671.8 680.9 683.3 685.3 688.2 696.6 706.7 714.7
341.5 341.7 347.2 354.2 357.6 362.3 361.9 364.5 366.8 363.2 362.8 363.8 370.9 377 387.1 409.6 420 432.5 448.2 458.8 472.7 489.9 496.9 505.6 504.8 509.7 521.8 527.9 527.9 533.6 539.3 545.1 551.8 559.3 568.7 575.6 583 587.7 598 603.9 605.8 608.3 606.1 606.3 605.7 608 604.5 603 603.9 607.8 614.7 619.2 624.7 629.3 627.5 631.3 628.5 625.7 617.6 611.4 605.4 596.2 587.7 580.2 574 563.4 557.2 548 544.4 540.3 534.8 532.1 529.5 528.4 525 526.2 527.2 528.2 524.8 523.9 523 520.4 520.6 519.7 519.4 520.7 524.6 526.4 530.6 535.2 537.6 541.7 544.5 548.2 551.3 553.7 554.7 553.9 556.3 558.2 559 558.7 558.5 560.1 558.6 553.3 551.4 550.4 546.8 545.4 543.2 544.5 541 536.8 530 523.5 519.2 510.8 505.1 499.9 492.9 487.4 480.8 474 471.1 462.8 455.8 453.6 461.4 469.6 472.4 476.7 483.7 491.4 500 505.6 510.5 514.6 520.9 526.3 530.8 537.5 543.8 550.5 555.3 564.6 574.9 585.6 594.7 602.1 604.6 606.7 610.4 617.3 625.1 630.1 634.2 639.4 644.2 647.8 646.8 649.7 649.8 654.5 660.7 669.8 680.6 694.3 705 692.6 660.9 616.6 589.1 565.1 540.6 523.2 510.4 502.9 492.8 488 483.8 478.5 491.8 498.3 507.8 523.2 539.2 552.7 572.6 600 632.4 658.8 680.4 694.5 698.3 699.8 702 710.1 719.6 727.3
343.7 349.8 357.2 362.7 369.1 374.1 378.5 381.4 381.6 379.7 375.5 379.6 389.8 404 420.1 435.3 453.1 469.6 479.2 487 498 507.9 514.6 518.8 508.7 515.9 520.6 526.9 535.4 539.9 542.7 549.6 558.5 567.7 577.7 586.3 595.4 601.4 606 612.6 615.3 616 619.6 619.9 616.2 611.2 607.4 604.4 602.1 603.3 606.8 611 617.4 622.9 624.5 621.1 617.3 610.5 606.2 601.4 595.1 588.6 581 575.1 569 559.5 554.3 547.3 544.3 538.3 536.2 536.5 535.6 533.8 532.5 530.3 531.6 530.4 532.9 529.9 529.8 527.5 529.6 527.2 530.3 533.5 537.6 541.6 545.5 548.6 553 555.5 560.2 562.7 565.5 569.8 569.7 570.3 569.4 570 569.5 568.7 567.3 565.8 562.7 564.3 565.2 562.7 562.4 563.1 559 554 547.4 543.2 535.9 528.2 526.9 516.5 509.6 503.7 495.2 490.5 484.2 479.2 471 463.6 457.2 466.9 470.9 478.5 480.7 486.4 494.2 502.7 509.7 515.5 521.6 526.9 533.5 538.9 544.1 550.4 556.6 561.6 566.4 574 583 592.4 600.7 607.1 612.3 617.1 624.8 633.6 641.5 649 656.2 657.4 655.2 661 666.9 666.1 667.4 671.7 676.6 686.7 699.3 711.2 716.5 704.5 663.5 629.2 598.2 572.3 552.3 530.1 515.8 505.4 497.4 491.8 487.7 480.2 492.9 500.6 511.5 527.2 541.7 554.7 574.5 604.6 636.3 664 683.8 694.1 699.3 707.7 715.9 721.7 731.2 738.4
352.1 358.4 364.6 374.2 381.7 386.2 397.4 401 398.9 399.1 396.9 404 417.8 432.6 451.9 460.3 485 501.5 509.2 513.8 509.7 512.4 508.3 508.3 515.2 523.9 529.9 537 535.6 539.3 545.9 553.7 564.8 578 588.9 599.2 608.4 614.9 619.5 623.6 629.8 630.5 629.9 624.7 617.4 612.3 609.6 605.5 601.9 601.5 603.3 607.1 611.5 614.3 614.1 611.7 608.5 605 601.7 597.9 591.8 584.4 579.3 570.7 563.3 556.8 550.6 546.1 541.2 541 542.8 540 537.9 537.7 538.3 538.6 538.3 538 538 537.1 536.8 538.4 538.8 539 543.8 546.5 550.5 554.4 558 562.9 565.2 568.2 571.3 573.9 574.7 576.7 578.1 578.5 579.3 580.1 580.8 581.1 580.4 580.8 581.4 581.2 578.5 576.6 573.8 573.1 567.2 562.7 555 547 539.8 532.2 524.9 518.4 511.9 507.9 501.8 492 485.1 475.8 469 469.2 466.4 476.9 482.4 485.4 492.8 498.7 506.9 514.2 520.9 526.9 532.3 538.7 546.2 552.9 558.8 563.6 567.9 571.7 575.7 580.5 587.5 598.7 608 614.4 620.6 630 639.8 649.7 660.8 667.8 664.3 667.9 679 686.4 689.4 688.5 687.8 692.2 697.3 704.7 715 726.1 731.7 727 699.9 651.3 614 583.8 557 536 520 509.7 500.6 495.1 487.9 484.5 495.5 502.9 514.3 529.4 544.1 558.5 575.8 607.7 639.4 668.4 685 698 706.8 717.5 727.7 734.2 741.6 747.2
359.5 367.1 376.5 384.2 394.6 403.9 414.8 416.2 417.4 417.1 420.6 428.1 438.8 456.5 474.5 491.7 502.5 506.1 509.9 508.6 511.4 510.1 508.9 513.8 524 530.9 536.3 533.3 538.9 545 552.4 560.8 573.5 586.4 598 608.3 619.7 627.3 633.5 637.6 638.2 635.9 631.1 625.6 618.5 614.1 609 605.4 601.4 602.2 601.9 605 607.4 608.1 606.5 606 603.7 600.4 595.8 589.7 584.9 578.5 574.4 566.7 557.3 553 545.8 544 545.6 545.8 544.4 543.1 545.2 545.2 544.6 545.1 544.2 546 545.7 546.7 547.3 547.5 548.4 546.7 555.2 558.8 561.9 567 574.4 577.7 580.9 583.5 584.7 585.1 586.5 589.3 590.4 590.6 592.8 595.7 598.3 600.5 600 596.8 593.4 593.3 589.8 583.7 580.8 577.5 570.1 561.3 553.2 545.4 540.3 534.2 527.1 519.3 513.9 507.3 499 490.6 488.2 481.5 477.7 473 480.4 488.7 490.9 498.6 504.1 513 517.7 524.5 531.7 539.3 546.6 554.1 560.6 565.6 569.4 571.5 574.9 578.5 583.6 590 592.5 605.5 614.8 622.4 628.1 640.2 652.4 664.9 672 674.7 683.8 692.1 703.6 707.1 714.7 712.2 709.9 712.8 719.2 725.1 732.4 741.1 740.7 731 696.9 656.2 624.5 594.7 567.2 548.1 525.8 512.7 502.4 497.1 486.6 492.3 498.7 507.1 516.9 533.7 548.2 562.9 583.1 611.2 640.7 670 687.6 699.4 713.2 727.9 736.4 745.2 750.7 754.6
