ncols 200
nrows 83
xllcorner 360000
yllcorner 775650
cellsize 50
413.2 408 399.6 392.8 385.4 379.6 374.2 366.3 361.7 358.1 356.5 355 349.6 344.2 347 349.9 351.2 352.5 355 356.9 360.1 363.9 370.1 376.3 383.9 391.7 399.9 405.6 407.5 407 405.5 403.6 405.1 410.8 416.1 420.1 419.9 429.3 432.2 438.6 448.1 453.9 458.9 461.2 465 463.4 459.5 450.9 442.2 438.2 437.7 439.2 440.8 444.7 452.7 457.4 465.1 476.8 485.4 492.1 497.4 500.3 504.3 503.9 499.9 494.7 487 475.9 464.3 454.4 445.5 437.7 437.3 433.5 435 440.9 451.2 461.7 464.2 463 458.2 450.8 442.2 435.7 430.8 423.1 413.3 402 390.7 379.5 367.4 356.9 347.6 340.1 333.5 321.8 313 310.5 305.6 302.1 299.1 298.8 304.6 308.7 313.9 320.3 325.9 329.9 329.9 327.2 323.3 317.9 309.9 300.6 288.8 275.2 254.1 257 257.1 248.5 247.6 245.7 246.9 254.5 268.7 282.8 294.6 300.9 303.2 301.7 298 292 286.3 279 271.4 262.7 255.8 248.6 238.3 220.7 190.3 159.8 168.1 200.7 229.4 254.7 277.4 287.1 296.6 295.1 290.9 283.8 277.5 262.7 261.7 258.9 251.2 243.1 248.6 253.9 246.5 234 215.1 217.5 224 230 231.7 230.3 229.1 227.7 225.5 201 183.5 207.6 220.6 220.1 216 213.6 202.9 186.6 172.7 163.1 154.6 154.5 154.9 154.6 152.9 153.1 153.6 156.3 156.6 156.8 160.6 165.4 166.1 166.7 169.1 171 170.5 169.6
421.3 414.5 405.8 397.3 389 381.9 376.6 368 362.3 359.4 357 354.9 346 347.3 350.6 354.3 356.4 358.5 360.7 363.8 367.8 373 380.2 388.5 397.3 406.7 414.8 418.3 418.2 418.7 417 414.4 412.6 421.6 425 431.1 429.8 436.5 439.8 442.3 451.6 459.6 464.8 468.1 470 469 465.1 457.6 450.8 445.7 443.4 444.3 448.3 453.5 459.2 462.3 468.5 477.2 484.1 488.8 495.3 498.4 502.1 499.5 496.6 490.7 481.8 470.6 459.5 446.7 437 430.5 428.2 424.6 426.6 431.8 441.5 451.3 455.2 455 452.6 447.9 441.6 436.9 431.9 426.2 418 407.6 394.5 382.4 370.5 359.8 350.4 343 333.1 323.9 315.8 309 297.1 293.2 291.2 292.1 294.7 301.8 307.7 313.8 321.1 326.9 329.1 328.4 325.9 321.6 314.3 304.2 291.8 280.8 269 254.6 254.1 246.6 240.9 234.4 245.8 255.9 270.5 284 292.5 295.3 296.2 293.5 287.8 283.9 278.5 272.1 264.8 256.9 249.1 244.2 233.7 216.1 192.5 158.7 163.2 198.3 227.7 253.3 275.1 289 292.7 291.3 281.7 269.2 261 250.5 250.6 244.9 244.6 255.2 253.4 244.5 233.6 218.7 214.2 220.8 220.5 222 223.2 224 223.8 223.9 222 210.6 180 191.2 216.9 215.4 209.9 198.5 179.2 165.2 159 155.3 156.8 160 160.6 164 172.9 175.4 176.6 177.5 175.8 171.8 184.9 187.2 187.4 187.2 189.2 187.6 186.8 184.9
426 419.4 411 400.2 391.5 384.3 377.2 369.1 364.1 360.2 357.6 353.9 347.3 354.6 356.9 360.4 363.9 364.4 366.2 371.3 376.4 383.3 391.4 401.9 412.1 420.8 426.5 429.8 429 428.9 428.9 426.6 425.4 430.7 437.7 441.3 440.6 443.8 449.3 452.8 456.7 464.1 469.5 473.8 475.1 473.1 470.4 465 459.6 457.5 453.4 451.7 454.4 457.8 462.1 464.3 472 475.8 482.9 486.4 491.8 496.5 498.2 496.6 492.8 484.8 477.7 465.6 453.3 441 429.5 421.5 417.2 415.1 417.9 423.7 432.8 441.5 446 447.3 444.8 442 438.3 435.6 432.9 428.3 421.9 412 399.3 387.1 375.8 365.2 354.4 345.3 335.8 326.3 317.6 309.7 303 295.5 281.2 281.8 287.8 294.7 300.3 308.1 315.3 322.3 326.4 327.9 325.9 322.1 316.1 307.3 293.8 284.4 271.1 262.1 238.9 234 236.7 231.9 243.2 257.3 272.4 283.9 290.5 292 289.3 284.3 279.8 275.4 269.9 262.7 255.8 245.1 240.1 234.8 223.8 204.2 176.5 157.2 167.1 198.2 227.1 252.9 273.1 285.9 288.3 284.5 274.2 265.9 251.7 243.6 251.3 241 239.4 240.8 231.3 217.8 214.2 221.7 225.1 220.8 217.1 215.5 216.7 211.8 213.9 214.5 212.6 206.6 182.6 182.6 204.1 208.9 206.5 196.6 172 159.5 158.1 159.5 165.2 166.5 168.3 185.6 195.4 200.4 197.7 195.7 191.8 180.7 203.1 205.5 204.4 206.6 206.3 204.6 204 201.6
430.4 423.2 414.6 403.2 393 384.7 376.3 371.3 365.8 361.1 356.8 350.1 350.7 359.2 361.2 366.7 369.3 370.9 373.9 379.7 385.6 394.6 403.6 413.9 423.5 431.6 436 439.8 439.1 438.9 439.8 439 440.3 443.5 448.2 449.4 449.6 450.9 456.7 462 466.1 469 476 482.4 484.9 483.5 480.6 473.4 468.1 464.4 462 459.9 460.2 461.6 464.5 464.5 470.3 475 479.3 483.8 488.8 492.8 492.9 492 488 480.5 472.5 461.1 448 435.5 424.3 414.2 406.8 405 407.9 415.6 424.6 432.3 438 438.4 435.6 432.7 431 431.2 430.8 428.3 423.2 415 404.2 392.9 382.8 372 359.9 350.8 341.5 331.1 321.6 312.4 303 296.5 288.8 278.3 280.4 285.7 292.7 301.3 309.9 319.3 324.1 326.4 325 321.9 316.1 307.4 295.4 285.1 272.7 260.7 244.3 237.2 231.8 227.8 242.1 259 273.1 281.1 286.6 287.2 283.6 279.1 273.9 267.6 259.2 251.3 242 233.7 231.2 225.2 213.1 191.2 166.3 156.3 171.3 203.9 231.8 253.2 272.3 283.6 285.8 274.7 255.6 253.5 249.4 239.5 228.9 218.1 215 213.3 215.3 226.6 232 228.4 224.1 218.5 213.1 210 209.6 206.3 203.5 202.4 199.3 196.2 184.3 173.9 180.1 184.7 186.2 179.2 162.3 160.7 166.4 174 173.4 183.3 178.9 203 203.9 212.2 210.7 207.3 201 191.7 220.9 224.9 225.8 223.9 222.2 220.7 219.4 218.6
433.1 425.8 416.6 405.2 394.1 385.2 377.4 370.9 367.7 363.2 356.2 350.7 355.3 363.6 368.3 373.2 375.9 378.6 382.7 387.2 393.6 402.7 412.7 423.2 432.3 439.3 444.6 447.1 447.9 448.3 450.7 450.5 451.3 455 456.8 457.4 456.5 457.3 467.7 472.2 477.2 481.1 487.8 491.3 492.8 491.5 487.3 483.4 475.6 470.9 468.3 465.7 464.9 464.1 462.5 462.8 466.3 472.2 475.5 478.6 482.9 486.6 488.4 486.9 482 474.8 466.3 454.8 441.5 428 415.7 406 398.4 394.8 398.3 406.6 415.5 422.7 428.5 428.5 425.9 422.5 422.7 423.9 425.2 424.6 420.1 414.6 406.8 396.1 386.5 374.3 363.6 353.7 343.5 334.2 325.1 316.6 306.6 298.4 288.8 277 273.6 279.9 286.5 294.7 306.3 315.7 321.7 324.6 324.1 321.6 315.8 306.4 296 285.1 272.6 261.7 250 238.5 222.8 222.7 243.3 259.2 272.6 279.6 282.2 280.5 279.3 274 266.7 256.5 249.2 241.6 233.5 226.8 221.7 216.1 203.5 186.7 171.8 154.7 171.7 203.8 233.3 256.6 274.6 273.7 268.4 263.2 270.1 262.5 247.8 227.6 223.4 227 218.4 223.2 231 230.6 227.2 223.4 218.3 212.3 206.8 206.7 206.3 202.9 195 189.3 185.2 180.9 173.4 168.7 166.3 163.2 161.3 161.4 163.3 166.9 179.6 187.5 186.4 195.4 186.5 207.1 215.2 223.1 221.6 216.1 202.2 206.4 232.7 242.5 243.9 245.2 244.7 241 238.2 231.8
433.4 425.6 417.2 404.3 397 386 377.8 372.5 368.6 365.2 359.2 353.6 360 367.2 372.7 376.8 380 383.8 387.5 391.8 399.8 409.1 417.9 427.7 436.1 443.7 449.8 451.8 452.8 455.9 458.7 458.1 460.6 462.8 463.6 465.7 466 471 476.7 482.1 486.3 490.9 492.4 495.4 497.1 497.2 493.3 489 480.7 474.8 473 470.4 467.8 464.4 457.2 461.5 463 467.7 470.4 475.4 479.7 482.2 484.2 482.1 477.7 468.4 459.4 446 432.3 420.7 408 395.3 389 385.1 389.3 397.9 405.5 412.4 416.5 415.1 412.3 410.3 412.6 413.5 416.4 417.4 415.4 411.4 405 395.9 384.7 373.4 364.1 353.6 343.9 334.9 325.5 316.6 308.3 297.1 287.2 277.7 263.4 273.3 280 291.9 304.8 313.9 321.3 323.6 323.4 321.2 314.7 306.7 295.4 285.8 273 260.6 249.6 238.2 226.8 223.6 243.5 259.9 269.2 275.2 276.8 275.5 273.6 268.9 258.2 249.3 241.5 235.2 228 221.7 215.7 204.6 188.1 172 162.1 153.2 182.5 212.1 238.7 261.3 270.5 279.6 277.4 272.3 264.9 249.5 228.8 232.2 233.2 224.9 219.2 221 224 224.3 220.8 216 211.5 207 203.9 203.2 191.4 180.1 173.8 171 169.5 171 169.6 169.1 167.9 166.5 167.3 170 172 182.5 194 203.8 208.7 210.2 208.8 206 227 236 232.4 226.7 215.7 204 228.4 241.7 252.6 256.2 254.9 249.2 243.9 236.4
431 424.4 414.9 403.9 395.9 386.5 379.2 373.5 369 364.7 359.2 357.6 360.4 368.8 374.2 379.3 382.7 386.3 389.9 395.4 402.9 411.8 420.5 429.8 438.5 448.6 455.1 459.6 460.6 463.7 465.6 468.7 469.5 470.2 471.6 475.8 479.2 481 485.6 488.4 494.6 496.7 497.9 500.7 501.7 503 498.9 494.3 485.7 477.9 474.3 471.5 468 464.4 457.8 456.8 458.5 462.9 466.4 471.1 474.9 476.3 477.7 477.5 472.7 462.9 451.3 438.5 423.8 411.1 398.8 387.8 379.2 375 380.3 387.9 396.2 401.8 403.6 400.1 396.8 397.5 400.3 401.9 404.7 408.1 408.4 405.6 400.5 391.6 380.1 370.1 360.1 351.4 339.8 332.1 323.8 314.3 306.2 295.2 285.1 279 262.7 266.8 275 288.4 301.3 309.9 318.8 321.9 322 319.7 313.5 302 289.6 284.5 272.5 261.9 248.7 238.1 226 220.2 240.1 256.7 265.3 268.2 270.2 266.1 263.2 260.6 256.2 245.7 239.7 232.2 225.1 213.9 204.9 198.7 189.7 168.7 151.2 164.1 196.2 226.7 251.6 270.7 278.9 278.4 274.7 267.1 249.2 230.9 239.6 238.8 232 222.2 215.4 214 216.5 216.2 212.8 208.2 203 198.1 188.7 181.6 175.2 175.5 173.2 170.9 169.6 171.3 173.2 172.6 171.4 168.7 171.2 175 186.2 200.7 213 223.2 226.7 220.9 222.9 223.2 233.8 244.2 243.2 238.6 233.7 232.9 235.1 233.8 253.9 263 261.2 256.7 251.8 244.4
426.9 419.6 410.1 404.7 395.3 384.9 378.5 372.6 367.8 361.6 356.2 365.5 363.2 363.2 372.1 378.5 382.4 386.3 391 395.7 403.3 411.3 420.5 430.6 441.3 450.9 459.1 463.2 466.1 469.4 471.6 475.4 474.7 475 479.5 483.2 487.2 487.8 491.6 496.9 501 503.5 504 504.1 505.3 504.8 502.4 495.5 487.7 479.8 474.6 472.4 467.2 463.6 457 446.7 450.5 456.3 461.9 464.7 467.6 469.7 471.6 470.5 466.3 456 442.7 431.2 415.8 401.6 389.3 379.8 372.1 364.6 370.7 379 386 391 390.8 387.1 384.4 384.9 387.9 389.5 393.4 397.1 398 396.9 387.9 379.5 370.5 361.9 353 346.7 337.1 328.5 319.9 310.4 302.5 294.1 284.7 278.2 267.1 260.5 271.5 285.8 295.2 305.1 313.5 318.2 318.6 316.7 307 296 286.7 278.7 268 259.8 248.3 234.5 221.6 214.9 235.9 250.2 258.3 261.3 262.9 265.8 264.1 261 247.5 247.7 239.4 231.8 223.4 210.2 201.1 188.1 180.5 155.4 149.9 181.4 209.5 236.5 259.8 275.4 279 276.4 270.7 254.2 233.2 246.8 242.7 235.7 228 219.9 213.5 208.6 206.4 203.7 198.3 197.5 191 174.1 172.1 173.7 176.5 178.3 176.6 179.2 179.9 180.9 178 180 180.3 189.8 198.1 194 198.7 215.3 226 236.8 239.9 237.7 237.7 239.4 235.6 255.1 257.7 252.4 248.9 245.3 251.5 248.5 260.6 269.2 266.9 262.3 258.3 250.1
417.7 411.2 404.5 399.9 390.7 382.5 377.3 370.7 362.8 361.8 371.9 374.5 375.5 374.1 371.8 373 380.8 385 389.6 394.4 402 410.7 421.4 431.7 441.6 451.6 458.8 464.1 468.7 472.3 477.3 480 477.7 478.8 484.3 487.4 493 495.1 497.4 502.8 507.9 509.1 508.2 508.9 510.4 506.5 504.1 495.4 488.4 479.7 472.9 469.8 464.4 460.2 454.2 445.8 445.5 449.3 454.8 459.4 461.7 461.4 464 462.7 457.4 446.6 434.5 422.5 407.6 392.7 382 373.3 366.3 358.3 359.8 368.5 375.6 378.6 378.8 375.9 373.4 373.4 374.6 378.3 382.4 386.3 388.6 383.7 376.9 370.1 360.3 354.6 345.2 336.4 330 322.2 314.8 308.4 300.7 291 283 277 265.6 250.9 269.5 280.8 289.6 299.2 307.2 311.5 312.8 310.4 303.9 292.4 286.7 271.7 266 257 246.9 235 218.7 212.9 232.4 245.4 251.4 254.2 256 258.5 254.2 257.9 256.1 246.1 236.3 223.8 220.7 213.1 202 182.6 160.4 149.2 161.3 196.8 225.8 246 260.4 269.9 274.3 270.3 263.6 236.7 236.9 242.9 236.4 230.7 223.9 217.2 208.7 204.5 202.6 196.7 190.9 175.7 170.2 171.3 173.1 176 179.7 183 186.2 187.6 193.4 192.8 185.7 200 188.4 202.1 212.4 211.4 205.4 225.7 240.4 248.8 251.6 251.6 253 255.4 253.4 266.2 271.5 270.9 267.7 262.5 269.1 264 267.6 276.4 276.5 273.5 266.5 260.3
405.7 402 397.6 393.9 387.5 380.9 373.6 363.9 361.8 376 380.6 381.8 383 381.3 377.6 369.6 377.5 382.7 387.9 393.2 402.6 411.4 421.2 429.8 439 447.7 454.6 462.6 469 474 478.7 480.1 481 483.8 488.6 491.6 494.7 498.1 501.6 507.6 511.9 515.3 513.6 513.3 512.2 508.8 502.5 493.2 486.8 478.4 471.3 465.4 461.1 457 450.6 444.8 432.3 438.5 447.8 451.9 453.7 454.4 454.9 453.5 446.3 437.3 425.2 412.2 399.3 384.8 374 365.2 361.2 354.1 351.8 358.1 364.1 367.5 368.7 366.4 363.1 362.4 363.7 367.8 370.2 376.3 376.3 370.7 365.1 357 350.5 343.1 334.3 327.4 321.4 314.4 309 304 296.6 289.6 281.3 273.5 262.1 247.2 264.1 274.6 282.9 290.6 299.6 303.4 304.3 302.5 296.7 296.2 282.8 273.6 265.8 255.8 244.6 233.3 220.2 200.4 226.9 239.9 243.4 247.3 249.6 250.4 250.2 249.2 250.1 229.5 221.9 225 218.9 212.9 193.3 173.7 155.5 147.9 177.9 208.7 222.1 232 233.2 252.2 263.6 257.8 250.1 232.1 217.9 218.5 217.2 220.5 216.7 205.6 200 202.6 201.6 193.7 173.5 168.7 171 173.5 177.2 184.3 192.1 188.8 194.5 194.5 204.3 204.6 193.9 212.2 203.7 205.9 223.9 222.3 213.2 237.3 256 259.8 264 269.3 271.8 275.3 278.3 281.3 287.4 288.7 289.4 287.1 282.2 276.4 282.4 285.6 285.9 282.4 275.6 267.9
398.7 394.8 392.1 386 378.4 366.6 364.4 371.9 380.2 386.8 388.3 388.6 388.2 385.6 380.2 373.5 375.2 380.6 385.2 393.4 402.8 411.6 419.6 426.9 434.9 444.1 449.7 458.1 466.1 471.1 475.5 477.3 480.1 485.9 490 492.6 494.9 499.2 505.4 508.9 514.4 517.3 517.8 515.6 512.4 509.6 502.1 491.8 482.2 473.3 466.1 462 457 452.6 448.5 442.5 430.3 425.3 434.7 443.6 445.5 445.3 445.5 443 437.1 427.4 416.1 403.6 391.1 378.9 367.3 359.8 355.7 349.3 342.1 348.1 354 357.3 358.7 357.6 355.5 353.1 352.8 355.9 359.4 365 363.6 358.4 353.9 346.6 340.2 333.5 327.5 321.3 315.1 309.6 303.6 298.1 291.5 285.6 279.1 270.7 259.4 238.4 256.3 266.7 275.3 282.9 290.8 296.1 297.1 296.8 296.3 291 285.8 275 267.7 255.8 246.1 233 221 197.2 220 229.7 234.2 237.5 240.4 243.6 248.5 241.1 227.6 236.4 242 225.6 217.1 203.5 183.6 163.5 146.3 147.6 185.4 219 239.6 249.7 230.7 240.5 243.4 228.7 220.6 211.7 214.5 215.4 208.5 203.8 203.3 195.5 201.7 196.6 181.2 169.9 168.2 169.7 173.1 183.8 182.2 192.6 204.1 193.5 204.6 209.5 212.6 216.6 204.9 226.5 211.8 224 225.6 233 219.2 247.1 263.9 274.4 281.7 286.1 288.8 291.3 293.9 297 304.4 307.8 312.1 308.6 301.3 298.2 298.4 299.6 298.3 295.6 291.8 287.5
386.8 375.3 372.4 373.7 368 378.2 384.4 389.3 395 396.4 394.6 393.6 391.1 386.9 375.9 380.4 380.6 377.7 384.1 390.4 400.6 409.3 417.4 425.4 433.1 440.3 445.3 452.9 461.4 466.6 469.7 474.6 477.4 483.1 488.9 492.6 495.7 499.9 504.9 508.2 512.2 515.9 516.7 515.9 512.1 506.7 499.7 488.7 476.8 466.4 459.6 456.5 452.6 448.5 445.4 441.2 434.1 421.3 425.2 433.4 436.1 437.1 435.9 433.7 426.9 416 404.1 393.5 382.7 371.7 363.1 355.5 350.7 345.6 339.2 339.4 344.3 347.9 348.9 348.3 346.8 345 343.6 345.2 348.5 351.8 351.8 349.8 346.7 340 334.4 328.4 323.7 318.3 311.9 307.2 301.5 295.6 288.2 280.5 272.5 260.8 252 232.4 248.4 260.3 268.1 276.1 281.8 288.8 292.5 292.3 292.6 288.7 283.5 272.6 267.2 255.7 245.9 233 219.6 195.1 211.2 223.1 226.2 227.4 231.5 240.3 236.5 225.1 240.5 245.4 243.2 230.3 221.2 204.3 177.5 159 144.8 163.5 197.2 227.4 244.1 255.5 243.7 216.8 215.6 220.5 228 231.6 226.6 217.6 211.1 206.3 203.5 190.1 190.5 173.3 167.2 167.2 170.6 176.1 183.8 196.5 199.4 197.4 209.9 200.4 213.5 220 219.2 225.4 221.1 227.6 233.9 235.7 236.5 245.1 232.7 252.1 270.5 286.2 295.9 303.7 306.2 308.4 310.3 315 321 327.6 331 327.2 322.6 319.2 317.3 316.2 314.9 313.5 311.5 306.7
382.1 387.6 382.9 377.8 389.3 392.4 398.6 404.1 404.9 402.7 399.1 396.5 391.6 385.7 383.1 389.1 389.6 388.3 386.2 388.2 398.3 406.3 414.5 421.2 430 437.2 442.1 448.7 457.1 461.2 466.1 469.5 473.2 479.4 485.3 490.5 495.3 498.7 502.3 504.9 509.7 512.4 512 512.1 509.5 502.8 495.3 484.6 473.3 460.4 453.7 448.6 446.5 444.3 441.2 437.6 432.1 420.7 421.2 425.7 426.2 426.4 427.1 423 416.2 405.2 393.5 383.6 374.9 367.5 358.8 351.5 345.9 340.9 335 333.4 336.2 339.9 339 337.8 336.3 337.1 335.8 334.3 335.2 339.1 339.4 341.2 337.9 334.6 328.9 325 320.1 315 310.5 306 300.4 295.2 288.8 279.6 270.5 261.6 247.6 229.7 239.8 252.2 259.1 267.2 273.8 279.6 284.7 287.2 286.4 283.8 277 270.9 265.5 256.1 247.5 234.3 219.5 205.1 194.8 215.3 222.2 223.1 223.4 225 225.1 241.1 241.6 240.8 234.4 227.2 218.1 201.9 177.8 147.3 143.8 169.6 203.2 226.4 239.1 244.3 233.1 216.8 227.7 232.5 231 226.9 219.5 214 209.7 202.7 193.3 179.5 168.6 167 167.6 172.5 179.9 185.9 193.9 204.8 205.3 200.6 217.7 206.6 214.7 227.3 233.9 238.4 240 238.4 248.2 250.7 257.2 259.3 251.1 258.8 276.3 296.5 308.8 319.6 328.4 332 336.1 337.9 342.9 346.6 344.4 340.6 337.7 335.1 333.6 332.7 330.6 328.9 325.6 321.6
405.4 401.9 392.7 399.6 402.8 406.8 412.7 414.6 412 408.3 401.7 397.2 392.3 381.6 391.7 397.1 399.3 396.9 395 392.3 393.4 401.7 408.8 417.3 425.5 434.9 441.1 447.3 453 456.7 459.9 464.7 467.1 474.4 482.6 489.3 493.1 495.6 499.5 500.1 505.8 507.5 508.2 508.8 504.3 496.4 488.3 478.3 466.8 456.3 448.8 442.2 439.1 438 436.5 433.5 429.2 417.2 415.5 417.6 419.4 416.3 416.4 413.1 404.3 395.1 385.3 375.2 367.6 360.6 354.3 348 343.3 337.9 332.2 326.7 328.2 331.2 330.9 330.1 328.5 328.7 327.7 325.9 325.9 329.2 330 331.7 330.4 326.6 323.8 321.2 317.1 313.5 310 305.7 299.9 296.4 292.5 284.3 277.9 270.1 255.7 240.8 223.6 241.3 248.7 256 264.2 271.2 276.4 278.2 277.7 277.2 271.6 269 265.2 258 250.4 237.4 221.2 208.3 185.8 206.3 212.5 218.4 216.7 225.8 234.8 236.8 235.8 233 228.1 219 208.1 196 179.6 148.6 143.2 167 197.4 216.2 225.4 224 216.9 220.6 225.3 224.6 222.6 215.9 211.8 209.1 205.4 192.8 175.3 167 167 169.2 172.8 179.5 185.8 192.4 200.9 212.3 215.3 218.5 219.1 230.6 214.5 227.4 241.6 246.9 249.7 252.8 258.4 262.7 266.5 270.4 271.5 260.1 284.9 306.1 321.4 334.9 346.2 352.1 357.1 361.1 361.1 360.8 358.1 353.9 350.5 346.7 345.5 342.7 339.8 337.2 334.1 329.8
419.9 412.6 411.7 412.9 415.8 422.1 425.2 423.5 419.1 411.5 404.2 397.6 391.5 388.2 399.8 406 409.9 407.7 406.8 403.5 398.5 397.1 406.5 412.9 423.4 433.8 440 446.7 451.1 453.8 456.2 458.4 463.8 469.8 479.7 485.8 489.5 492.7 495.3 498.8 500.8 502.9 505 503.7 496.9 489.8 478.5 469.2 459 451.4 444.5 436.4 431.7 430.3 430.3 428.8 424.7 416.4 410.9 410.4 412.6 412.4 404.1 401.8 394.3 386.1 376.5 367.5 361.2 355.2 350 345.5 341 335.7 329.4 322.5 321.6 323.5 324.2 323.2 322.4 321.7 320.5 319.6 321 321.2 323.1 322 321.7 320.3 319.3 317.7 315.5 312.5 309.6 306.3 301.2 297.7 293.3 289.3 284.3 275.7 263.2 247.2 227.3 228.8 238.9 246.7 255 260.7 265.8 267.5 268.5 268.9 268.6 266.7 264 257.9 250.3 240.5 225.9 209.9 195.3 188.4 202.2 206.2 209.3 218.6 225.5 226.7 228.2 224.4 218.4 207.5 199.6 191.3 172 142.9 141.9 162.1 194.1 211.6 213.1 215.4 216 214.7 214.8 214.7 212.7 207.1 204.7 203.4 193.5 175.9 167 167 170.6 175.9 189.3 191 197.9 205.2 212.5 214.8 223.4 220 233.5 237.7 231.7 227.3 243.1 252.7 258.8 264.3 270.4 277.6 282.7 287.1 289.3 284.5 293.6 313.7 332.1 346.2 358 367.5 373.5 376.5 375.5 371.9 369 363.5 360.1 356.9 353.7 351.5 349.5 345.5 342.3 338
431.4 426.7 423.7 423.5 427.6 431.9 433.1 430.4 424.3 416.1 406.9 398.1 391.4 392.8 405.5 415 420 421.1 419.6 416.7 409 402.9 402.1 409.7 420.2 432.4 439 445.1 449.1 452.2 454.2 456 461 466.4 475.7 482.8 486.5 489.3 492.7 496.8 498 499.5 500.9 497.3 489.5 479.9 469.1 457.7 448.8 444.9 439.3 429.3 420.9 420.4 423.4 424.1 422 415.5 404.3 402.6 406 405 400.7 393.1 386.9 378.1 369.1 361.4 356.4 352 346.8 342.9 338.7 333 326.6 320.6 316.2 317.6 318 317.3 316.6 315.3 314.2 313.2 315 315.1 314.7 314.6 314.1 312.8 313.9 313.4 312 311 308.6 306.1 302.6 299.3 294.9 290.8 285.2 277.6 266.1 251.5 230.1 212.8 229.8 235 241.8 249.1 256.2 259.7 260.2 260.6 262 260.7 259.6 256.7 250.9 241.5 229.8 214.8 195.8 185.4 186.4 196.3 201.9 210 215.1 217.4 210.1 210.4 204.9 199.9 193.1 181.4 154.1 140.9 140.6 165.2 188.6 194.1 198.7 200.5 198.9 202.3 202.7 204.8 208.5 201.3 200.4 196.4 182.6 167 167 174.2 182.7 189.4 188.9 202.1 206.7 210.3 222.3 227.6 232.7 232.9 238.9 245.3 248.6 248.1 237.2 257.5 266.4 274.1 282.9 292 297.4 301.6 304.1 298.9 304.6 324.7 341.6 357.1 369 379.9 385.8 385.9 384.8 381.1 376.1 372.2 368.1 364 360.7 357.3 354.6 351.8 349 345.9
441.5 438.1 435 436 440.9 443.4 442.1 437.5 429.5 420.6 409.9 398.6 392.7 393.9 409 421 428.7 432.6 433.1 428.6 420.3 413.7 407.4 407.2 417.2 429.8 437.1 440.7 446.9 450.2 452 456.4 460.3 465.5 473.9 480.5 484.7 487.1 490.9 494.4 494.8 494.6 495.1 491.7 481.2 469.1 458.4 444.7 437.9 436.9 432.2 421.3 410.4 408.2 414.6 421 422.1 417.9 409.7 397.4 396.8 398.1 393.1 384.1 371.2 362.4 356.9 354.8 352.4 348 344.7 340.4 335.8 330.4 325.1 319.5 312.3 313 313.5 312.4 311.8 310.2 307.1 307 308.5 310.5 308.6 307.7 307.4 307.8 308.7 308.7 307.5 307.8 306.8 304.6 301.2 297.6 293.3 289 282.1 274.6 263.5 248.8 231.3 205.1 215 225 231.9 238.5 244.5 249.7 249.7 251.3 252 253.5 254.8 254.1 249 239.6 229 221.6 208.1 197.9 183.2 180.9 191.1 200.5 206 204.4 206.2 203 196.4 193.7 185 165.6 145.5 139.3 151.1 180.8 196.3 204.9 205.9 205.7 195.1 190.1 187.1 189.5 196.4 200.5 196.9 187.8 169.7 167 172 187.4 195.9 197.4 199.9 203.9 211 220.4 227.2 234.6 241.1 246.9 251.7 255.7 259.6 261.9 263.6 254.1 272.3 282.7 293.1 302 310.3 318.9 322.1 322.1 318 334.9 351.5 366.4 380.9 391.7 396.7 394.4 390.9 387.1 381.6 376.2 372.2 367.2 364 361.1 357.7 354.8 352 349.9
451.6 448.6 447.3 448.3 450.6 450.4 448 441.8 435.8 427.3 415.8 401.7 394.6 394.1 409.3 424.3 435.4 441.1 443.5 440.2 431.5 423.5 416.7 410.1 414.4 426.1 433.9 439.2 442.5 445.6 449.1 454.7 456.6 465.6 474.3 480.4 487.4 491.8 494.1 494.9 493.7 490.9 488.7 483.3 471.2 458.4 444.2 433.7 425.4 424.2 421.1 411.9 399 394.7 405.5 414.4 418.4 417.5 410.9 401.8 393 385.1 381 370.2 365.2 366.1 362.2 350.3 346.8 343.8 340 337.4 333 328.6 323.4 317.4 310.3 309.1 309.1 308.9 307.3 304.8 301.6 301.4 301.4 301.7 303.6 301.1 301 301.3 303 304.7 304.6 304.8 303.5 301.1 297.6 293.7 290.5 285.1 278 269 258.4 246.7 232.6 210.7 202.5 210.1 218.8 226.8 232 237.8 238.7 239.9 243.2 247 248 246.6 243.8 237.3 229.1 223.9 218.1 208.5 196.5 175 178.5 189.5 196.4 198.6 198.6 193.6 190 184.9 174.7 155.5 141.6 138.7 162.5 186.7 205.1 215.3 219.2 214 206.7 200.3 195.7 187.4 185.7 198.9 193.1 175.9 167 168.9 176.9 188 197.1 202.9 208.4 214.8 221.9 229.4 238.7 245.3 250.3 255.5 261.4 265.6 270.1 271.2 275.5 276.2 279.5 291.1 302.5 312.9 323 335.1 337 337.1 332 348.3 363.3 377.3 388.6 398.8 401.3 400.3 396.4 392.5 386.8 380.2 376.1 370.9 366.4 361.9 358.7 356.2 353.7 351.9
462.5 461.1 458.9 457.8 457 457.6 450.5 444.8 437.1 427.6 417.8 403.7 397.1 393.5 408.9 426.4 438.8 446.7 450.8 449.1 443 434 427.2 419.5 417.1 419.3 428.2 433.3 435.4 442 448.3 453 461 469.4 479.4 486.6 493.7 497.2 499 498.7 498.5 494.8 485.9 471.8 461.8 446.6 432.5 421.1 412.7 409.6 407.2 399.1 386.9 378.2 393.6 404.3 408.6 409.7 406.7 398.4 392.6 387.7 387.8 387.7 387.9 386 382 373.3 360.3 348.4 342.3 336.5 331.9 323.6 317.8 316.2 313 300.9 303.6 303.4 302 298.9 295.3 293.4 294.9 296.5 297.6 298 297.6 296.6 296.1 298.6 299.6 300.9 300.2 296.9 293.4 289.5 284.6 279.1 271.5 259.8 249 236.6 224.3 212.2 195.9 196.5 202 210.3 219.1 226 228.9 228.9 233.5 237.6 239.9 240.1 239 233.9 227.4 221.7 217.3 209.5 203.1 190.7 165.4 176.6 186.9 192.2 191.7 188 184.4 177 164.9 152.4 143.1 137.7 158.3 188.8 208.7 214.4 215.6 212.8 205.1 199.9 196.3 190.5 183.9 193.1 181.5 167 167 176.4 181.4 186.3 195.2 205.3 215.4 224.3 232.8 241.3 249.1 256.7 263.3 268 273 277.5 280.9 283.8 286.1 288.8 280.9 297.1 310.2 321.5 336 347.2 350.7 351.8 348.7 364.9 376.4 387 395.9 401.6 405.1 405.2 401.1 396.7 390.7 384.1 378.8 373.2 367.8 363.5 360.1 356.9 354.6 353.4
472.1 471.4 468.9 466.5 463.6 461.2 453.2 444.5 436.1 427.8 418.6 406.4 400.8 394.3 409 426.1 438.6 448.7 454.6 456.6 455.4 449.9 442.5 434.5 428.2 428.8 431.2 435.4 439.7 444.2 450.1 455.9 464.4 476.1 486.2 494.3 500.6 503.1 502.6 502.7 500.7 496.4 488.2 477.8 461 439.1 423.4 410.7 403.3 396.7 393.4 384.9 375.9 365 380.5 390.7 395.5 396.6 393.9 387.8 386.6 382 386.1 389 391.4 393 389.7 383.4 374.2 362.4 350.3 341 335 330.3 325.3 319.7 315.6 309.8 297.2 297.3 289.9 287 286 282.3 288.2 290.2 292 293.5 292.8 292.4 292.8 293 294.8 296.2 294.7 292.1 287.7 283 278 272.7 263.4 252.7 239.3 224.6 205 198.6 201.6 200.4 189.9 190.1 198.5 210.4 218.1 220.2 223.5 226.8 230.4 232.3 230.7 227.3 223.5 218.1 213.9 210.4 203.7 196 170.7 166.7 176 182.1 184.4 183.6 178.5 170.5 155.6 147.2 137.5 136.2 165.6 198.7 211.3 211.2 209 205.6 200.5 197.9 194.5 189.8 183.5 181.9 175.1 167 167.4 181.3 190 195.2 200.1 213.6 222.3 232.2 241.4 251.2 260.4 270.1 278.2 283.9 288.4 291.4 294.2 297.2 299.2 299.7 301 304.7 318.1 331.4 347.4 359.3 364.5 368 369.5 378.1 387.3 395.2 403.6 404.5 408 406.8 403 398.9 392.8 386.4 381 374.2 369.2 363.5 359.5 356 352.9 350.8
478.6 478.1 475.8 472.1 469.2 464.2 456.1 445.8 434.9 427.1 418.5 410 405.2 397.3 408.7 422.3 436 446.5 455.8 460.9 462.2 461.4 457.3 452.2 443 440.7 442 443.4 445.8 450.2 458.6 465.7 474.1 482.5 491.7 500.5 505.5 508 506 503.2 499.3 494.2 486.2 475.1 460.9 442.4 418.6 402.3 390.5 383.4 378.8 370.5 362.3 357.5 364.7 373.1 378.2 381.5 381.4 375.2 378.2 376.5 378.8 383.5 389 392 390.9 387 381.3 373.6 363.5 353.4 345.4 338.6 333 328.4 324.3 319.4 315.4 310.4 306.4 299.7 289.5 281.3 280.3 282.6 286.3 288.4 287.7 287.6 288.5 288.8 290.6 291.6 291.1 287.9 282.2 277.6 272.3 266.6 258.3 243.5 229 210.7 209.9 221.2 227.2 223.4 212.2 198.3 183.4 186 203.5 208.4 212.9 218.1 222.5 221.2 221.5 220.2 218.4 216 213.8 207.8 203.4 194.5 182.2 156.3 166.2 171.4 174.5 176.1 171.5 161.3 150 139.5 135.2 152.5 178.8 202.4 208.7 205.6 203.9 200.4 196.8 193.9 191.8 189.7 184 177.9 167.6 167 170 185.7 195 202.4 210.4 214.3 228.4 238.3 248.7 259.8 271.3 282.7 291.9 299.5 305.8 310 311.1 313.1 315.3 315.6 313.2 317.6 329.5 340.8 356.9 363.7 367.8 376 381.8 388.1 393.4 401.1 406.1 407.3 410.9 408.2 404.9 401 394.3 387.2 381.1 375.6 368.2 363 358.1 353.7 349.3 346.5
483.4 482.2 478.7 475.1 471.9 465.3 457.4 446.1 435.5 427.3 419.2 412 407.4 402.6 407.7 420.5 430.7 442.4 454.4 462.4 465.9 467.3 466.5 464.6 460.2 457.6 457.4 459.1 461.9 465.6 472.1 477 481.5 486.6 495.7 502.5 505.7 506.2 504.4 501.9 496.2 489.5 481.1 469.5 456.5 441.5 422.9 405.5 387.2 374.2 365 358.6 354.9 349.4 348.1 355.8 362 365.6 363.3 368.2 365.9 363.7 370.2 375.5 380.6 386.4 388.2 387.9 385 380.4 372.7 363.7 356.3 349.8 343.7 339.2 335.5 332 331.3 327.2 321.8 313.2 302.7 291.9 281.1 268.9 270.3 280 281 280.5 279.5 282.4 284.1 285.4 284 280.7 276.6 271.4 264 257.4 246 235.4 218.3 213.3 230.9 244.9 247.5 241.6 229.3 215.1 193.5 176.8 187.7 195.3 202.7 208 211.1 210.4 209.5 210.2 211 211.8 210.1 206.8 201.9 194.6 185.4 173 151.2 161.3 168.6 170.9 166.2 154.3 146.4 134.5 143.7 172.6 193.6 201.2 203.3 202.9 201.9 198.9 194.3 191.5 187.2 185.5 183.4 169.3 167 167 177.9 190.8 197.9 206 215.3 225.5 233.9 244.4 256.3 268.7 280.9 293.3 304.8 315.7 324.3 330.2 332.8 336.1 336.2 335 329.7 334.3 344.8 355.7 365.9 370.8 376.9 384.1 389.1 393.2 399.1 403.6 407.6 409.2 412 408.2 404.6 400.6 393.6 386.8 380.2 374.2 366.4 361.1 355.9 351.3 346.1 342.9
487 485.3 482.3 477.5 473.7 467.7 458.3 447.5 436.9 428.7 420.7 414.4 409 404.6 404.6 417.6 426.4 436.7 448.6 460 466.3 469.6 473.1 472.7 473.3 473.1 474.2 476.2 479.3 482.1 483.9 487.1 488.2 491.7 496.5 501.9 505.5 504.8 501.4 498.2 492.1 484.4 474.7 463 449.2 433.1 417.7 403 389 373.2 359.8 351.6 347.7 343.5 335.2 341.1 347.3 348.3 351.2 356.6 347.9 348.5 360.2 365.4 371.5 378.2 383.3 386.6 385.8 382.7 375.7 367.6 361 354.3 350 346.8 343.6 340.7 339 334.2 329.6 322.4 314.6 303.9 295.2 285.7 273.5 259.9 269.6 270.8 273.3 271.5 275.7 277.2 277.8 273.6 267.6 258.5 247.4 242 236.4 226 212.3 230.1 248.8 259.9 263.9 261 245.8 227.7 208.9 182.7 173.2 182.4 189.8 197.4 201.9 195.6 189.1 196.8 200.3 204.3 203.1 201.5 197 190.9 185.9 179.2 170.4 149.5 159.5 165.6 159.7 152 133.5 133.8 156.7 182.6 191.4 195.7 199.7 200.6 198.9 197.6 194.9 190.7 185.8 183.9 174.4 167 167 171.5 181.1 192 202.2 212.2 221 231.8 242 251.7 263 276.7 289.7 304 317.2 329.3 338.6 345.2 349.1 351.6 352.5 351.4 350.3 353.7 359 367.3 374.8 378.5 383.4 389.9 394.1 399.1 403.5 406.8 409.1 410.5 410 406.4 402.7 397.5 391.8 386.1 380 373.5 366.3 359.4 353.6 347.8 343 336.6
487.4 487.5 483.9 479 474.6 469 458.3 449.6 441 432.4 424.7 417.8 411.6 411.8 408.6 412.4 422.8 431.3 442.2 454.7 463.8 469 474.7 479.4 480.1 484.8 486.6 489.4 491.9 493.6 493.6 493.4 496.2 497.5 500.2 503.3 505.6 504.1 500.3 492.1 485.6 477.3 466.6 454.7 441.1 425.8 410.4 398.2 387.8 375.1 360.6 344 339.9 336.2 329.7 328.9 334.3 336.4 337.3 340.2 335.9 334 347 353.5 360.4 368.4 376.2 381.3 383.6 380.9 374.4 366.2 360.2 354.2 349.7 345.9 341.7 339 338.5 335.7 333.6 328 319.1 313.3 310.1 303.5 294.2 283.2 263.3 255.7 263.6 259.3 262.8 265.3 267.5 264.4 250.1 237.5 232.3 227.5 222 218.5 232.1 247.4 261.6 271.8 275.6 270.8 259.6 238.8 222.5 205.7 189.4 168.9 173.5 177.2 184.6 185.6 181.6 176.4 180.9 190.1 193.9 193.5 191.4 187.6 185.4 182.3 173.4 153 151.6 154.7 156.9 149.1 132.2 139.3 165.2 180.2 188.8 192.7 196.3 195.5 194.1 196.1 197 192.5 186.4 183.1 177.7 167 167 174 184.9 195.4 205.9 215.9 225.6 236.6 248.4 259.3 272 284.8 299.1 313.5 327.7 340.1 350.3 358.3 363.1 365.4 366.6 366.2 365.3 366.4 369.8 374.4 380.5 383.8 387.6 392.5 398 402.4 405.6 408.7 410.5 409.2 407.7 404.4 399.7 394 388.3 382.6 377.6 371.6 364 357.3 351.2 345.4 337.4 323.9
488.7 486.8 483.8 478.2 472.8 467.3 459.8 451.5 444 437.5 431.1 422.5 414.3 416.7 415.5 411.4 418.2 426.7 435.9 447.3 459.1 467 473.4 480.9 484.9 490.1 494.7 498.3 500 500.6 501.1 500.6 501.6 503.7 505.2 506.2 505.1 502.3 494.7 485.9 475.5 466.7 454.4 443.1 430.6 416.3 402.1 393 384 375.1 362.1 349.4 335.1 327.5 323.3 321.1 325.2 326.8 325.5 325.9 323.8 324.2 335 341.7 351 359.8 367.5 374 377.7 375.1 367.9 358.4 353.3 349 344.3 338.1 334.1 329.8 329.5 329.4 328.1 325.7 321 322.5 317.6 312.7 304.7 294.9 289.5 269.2 249.6 245.4 241.3 243 249.2 246 238.8 228.4 231.2 233.1 234.8 240.7 251 259.1 270.7 280.7 282.3 277.9 268.1 252.6 236.9 224 208.8 193.8 176.6 162.9 162.9 163.9 169.9 167.6 166.7 172.4 179 183.4 184 183.1 183.3 180 173.1 165 153.3 139.6 151.3 137.5 131.2 145.1 164.8 178.3 185.1 188.6 190.7 191.7 194.9 194.5 192.3 188.7 184.8 179.4 180.3 167 167 177.6 186.9 197.2 208 219.1 229.6 241.7 252.9 265.4 278.5 292.8 307.1 322.1 337.1 350.7 361.8 369.9 374.6 376.8 377.3 376.8 375.7 374.5 376.3 380.9 383.7 386.7 391.1 395.9 400.1 404.6 407.2 408 407.8 406.5 404.9 401.2 396 390.3 384.6 379.9 375.1 368 361.1 354 347.5 342.3 331.9 319.1
487.7 484.9 481.5 476.5 469.6 464.5 459 452.3 444 438.8 432 419.3 425.4 426.6 423.8 419.1 416.7 421.7 431 440.8 453.3 462.7 470.3 480.5 486.8 494.8 500 504.3 505.2 506.3 504.4 506.2 507.5 507.3 509.5 508.4 505.6 500.1 492.6 479.9 466.4 444.9 438.1 424.7 413.7 402 392.9 385.3 378.9 371.6 360.7 349 338 324.4 316.7 308.4 314.9 317.6 315.7 314.7 313 316.5 322.6 331.1 341.1 350.7 359.1 366.9 370.4 367.2 359.9 351.5 343.8 339.2 332.6 327.7 324 321.1 318.8 319.7 321 319.9 320.9 322.1 316.5 312 302.6 301.4 290.4 260.9 253.4 261.2 253.7 244.8 234.5 234.9 235.3 249.8 255.8 256.3 253.6 257.9 262.6 271 279 287.1 287.1 283.7 275.6 266.1 254 241.7 226.9 212.8 194.2 175.4 174.7 169.4 155.2 148.2 144.3 144.8 162.2 168.3 172.6 175.8 179.3 179.2 172.5 164.6 157.8 145.1 142.3 130.1 129.9 144.1 161.9 174.4 180.9 183.5 186.3 191.7 193.1 191.5 188.9 186.2 182.3 176.7 171.8 167.5 167 175 187.1 198.1 209.7 221.4 232.9 244.8 257.5 271.3 285.6 299.4 314.8 330.2 345.6 359.3 370.2 377.7 381.8 383.5 383.1 382 380.3 380 381.3 383.7 386 388.9 394.1 397.7 399.3 403.1 404.8 405.6 405.1 404 401.2 396.3 391.4 386.5 381.4 376.3 371.1 364 357.2 350.3 343.3 336.8 327.3 317.5
486.3 482.8 477.4 472.9 466.9 460.8 455.9 451.7 446.3 439.3 433.1 432.4 433.1 436.1 433.3 427.2 422.5 419.9 427.9 436.1 447.5 457.1 466.7 476.8 486.4 494.8 502.6 507.9 510.3 510.8 510.1 510.4 509.9 509.4 509.5 507.2 503.9 497.7 488.3 473.1 455.3 434 415.9 408.9 398.7 387.7 379.4 374.8 369.9 365.7 356.8 345.9 334.3 323.2 311.1 303 305.8 307.2 307.3 305.7 302.4 306.7 312.9 321.1 330.1 340.6 349.5 358.3 360.3 357.8 352.3 344.5 334.8 328.5 322 315.8 312.7 311.1 311.5 310.6 311.5 312.4 314.5 315.5 311.9 306.3 306.1 300.5 279.4 257.4 275.7 279.7 274.4 266.1 258.4 257.5 260.4 268.1 271 269.4 267.6 270.7 275.6 283.2 289.2 292.3 292.1 287.4 281.1 273.8 263 250.2 237.2 216.2 191.6 201 195.8 192.6 191.1 184.5 174.5 161.7 139.3 151 161 166.7 172.8 173.6 170.2 166.1 157.1 136.7 129.8 129.4 131.6 149.6 165.6 171.7 176.7 180.4 183.6 188.4 189.5 187.9 186.8 184.5 181.1 174.5 168 161.3 166 174.5 188.8 199.4 210.6 222 234 248.1 262.1 275.5 289.7 304.1 320.5 338 353.4 366 375.4 381.9 385.3 384.8 381.6 381 380.1 380.6 382.1 383.7 385.9 388.5 393.7 393.9 396.1 399.9 401.8 402.7 400.6 398.1 395.6 391.1 386.1 381.4 376.5 371.7 366.8 360.1 353.4 346.5 339.2 330.4 322.1 313.1
483.8 479.8 475.1 469.5 464 459.5 456 451 445.8 438 440 439.8 444.5 447.2 444.4 438.4 430.1 425.5 426.9 435.4 444.6 453.5 462.3 471.8 484.6 495.1 501.5 508.9 511.8 510.2 511.1 510.9 509.9 509.7 507.6 504.1 499.7 493.4 483 466.9 446.1 428.1 410.4 392.1 386.5 377.2 367.2 362.4 361 356.8 349.1 337.3 327.7 316.5 311.5 306 295.1 298 300.2 298.2 297.9 299 304.8 312.4 320.6 332.1 339 347.5 351.3 349.8 344.2 336.2 326.7 319.4 312.6 306 301.9 300.8 302.6 301.9 302.1 304.3 305.6 306.6 304.9 304.1 302.6 280.9 262 277.1 294.8 295.5 291.9 287.2 282.5 282.3 283.4 284.7 283.8 281 280.3 282.5 287.3 292.1 296.4 297.8 295.5 290.3 284.8 277.5 267 252.7 233 219.9 223.4 226.7 222.6 217.6 214.6 207.9 195 182.8 162.6 138.1 144.1 154.1 161.6 167.9 166.3 162.9 148.6 129 127.4 137.1 139.5 147.1 164.3 168.5 172.6 176.6 180.4 184.7 187.4 185.5 184.2 181.7 177.1 171.4 165.2 158.4 165.4 174 183.2 192.9 207.6 219.4 232.2 248.6 263.4 277.7 293.6 310.2 327.4 344.1 358.1 369.9 378.5 383.2 383.5 381.2 378.6 378.4 376.8 375.1 376.2 379.4 383.2 386.8 389.3 389 391.6 393.5 394.7 395 394.2 391.7 389.1 385.7 380.9 376.2 371 366 361.3 355.7 349.2 342.5 334.3 324.9 316.1 307.2
482 477.9 473 466.8 462.9 459.3 456.5 449.5 449.3 446.6 445.1 451 457.4 458.2 455 449.1 440.9 433.5 432 438.5 444.7 453.6 461.2 471.1 483 494.9 501.5 506.4 511 512.2 511.6 511.4 509 507.9 504 499.1 493.8 487.7 478.8 465.6 446.7 430.8 414.7 401.7 387.7 378.8 370.1 357.6 353 349.4 339.1 336.3 330.5 323.3 317.6 309.9 302.1 289.7 292.9 293.1 291.6 292.7 297.8 303.7 313.6 323.1 331.4 337.3 341 340.6 337.5 328.5 320.7 312.4 306.6 300.7 295.9 294 291.3 292.6 295 295.4 297.1 297.2 295.4 297 292.4 281 290.2 300.8 305.8 306.1 304.5 302.8 300.1 299.4 298.5 298.5 295.8 292.6 290.6 293.8 296.5 300.9 302.2 301.3 298.1 292.2 285.9 278.6 267.4 251.3 241.4 242.2 243.5 243.3 241.4 238.8 233.1 223.2 210.5 199 181.1 163 148.3 134.1 148.8 156 160 160.1 133.9 125.6 140.9 148.1 148.2 150.8 157.4 165.7 169.8 174.4 177.6 183.1 185.5 182.8 179.7 176.2 172.4 166.9 159.5 158.4 168.1 177.8 183.9 194.6 206.1 217.3 231.4 243.7 263.2 279.1 296.1 313.6 330.7 346.5 360 370.9 378.3 381.8 380.1 377.6 374.9 372.3 370.4 369.2 372.1 375.3 376 377.8 381.8 381.9 382.6 384 385.3 386.2 387 385.2 382.6 379.8 375.7 370.6 366.1 361.3 356.2 351 345.9 338.4 325 312.2 303.2 293.4
481.3 478 471.8 466.2 463.6 460.3 456.1 455 451.9 450.9 455.7 462.5 465.6 466.2 462.3 455 445.5 439.7 437 442.2 450.3 458.6 467.5 476.3 485.6 494 501.4 503.6 508.6 511 512.1 510 505.5 501.3 496.8 490.9 486.2 481.4 475 466 454.3 441.2 428.4 415.1 403.6 393.4 383 372.4 362.4 355.6 349.8 343.9 338.7 333.1 326.8 319 308.2 294 287.4 282.8 285.5 284.9 287.6 295.9 304.1 312.2 320.8 328.1 332 332.4 330.6 325.1 316.5 307.8 300.6 295.1 291 287.8 284.3 284.7 286.5 287.1 287.1 286.8 285.8 279.7 279.2 293 300.5 307.5 309.8 311.8 312.8 313 311.6 311 312.2 309.6 306.3 302.8 302.5 303.1 304 305.9 306 302.7 299.5 293.3 285.2 278.4 264.5 257.9 257.5 257.9 258.9 260.2 257.4 251.6 244.3 233.9 216.5 206.7 194 179.9 171.4 161.1 133.2 142.2 147.9 152.4 125.2 125.5 144.3 151.7 151.1 153 160.2 163.6 169.9 174.9 174.8 177.9 179.4 177.5 173 170.2 166.9 162.5 155.6 159 175.6 185.2 190.7 194.4 203.8 215.5 228.3 244 260.8 277.8 295.7 314.7 331.6 347 360.3 370.7 377.4 379.7 377.8 370.5 369.4 366.1 363.4 360.7 360.4 361.3 363.2 366 370.4 372.4 373.1 374.6 375.8 376.8 377.9 379.1 376.3 373.4 370.8 366 361.3 356.7 351.5 346.7 343 334.4 323.3 300.9 280.7 272.7
481.1 480 474.1 469.5 465.3 462.1 460.3 458.7 457.5 458.5 466.2 471.1 473.1 471.8 465.4 457.2 449.2 442.8 439.4 446.7 454.9 463.6 474.5 483 491.8 498 500.7 505 510.9 512.5 509.9 504.1 500.5 492.2 485.8 478.4 475.7 473.1 468.8 464 456.5 448.8 438.1 426.3 417.8 406.9 397.2 385.8 377.1 369.7 362.8 357.6 353.1 349 343.2 336.2 324.1 310.8 298.4 281.2 273.2 275.1 279.8 285.3 293.2 302.9 312.5 319 322.9 325.4 324.4 320 313.2 305 296.4 291.1 286.9 282.8 277.6 278.6 275.9 277 277.2 278.5 277.8 277.8 284 291.1 297.1 304.3 309.3 312.8 314.6 318.6 319.6 321.2 320.1 318.5 315.5 313 311.9 311.8 311.5 309.9 307 303 298.9 293.6 287.7 283.1 279.5 275.3 274.1 275 273.5 269.7 264.4 257.2 245.6 231.1 220 207.4 194.2 186.6 180.8 173.1 154.3 129.7 132 139.5 124.5 131.6 148.3 151.9 153.5 157.9 160.7 163.7 171.4 174.4 174.3 174.4 174.2 172.8 169.4 165.8 162.6 158.1 150 162.3 174.6 186.8 197.7 204.9 213 215.5 233.3 239.3 258.5 276.5 294.6 313.4 331.2 346.7 360.2 370.2 374.8 377.8 375.1 368.5 363.9 358.1 352.7 347.5 348.3 350.6 352.6 355.3 359.8 363.2 364 365.1 366.4 367.6 368.8 370.2 370.5 369.1 365.8 361.1 356.4 352.2 347.1 342.9 340.3 332.3 322.2 304.8 281.1 275.7
483 480.9 480.9 475.1 473.2 470.9 466.1 464.9 463.2 467.2 474.4 477.1 478.7 475.3 467.2 458.9 451.6 445.6 442.9 451.3 459.9 468.8 476.8 486.3 492.7 498.1 504.2 508.6 512.5 510.7 507 498.8 491.9 483.3 472.3 464.5 461 462.1 460.9 459.6 455.4 449.7 441.8 432.6 426.1 416.7 409.3 400.6 390.7 383.5 376.8 371.9 367.2 362.9 357.8 349.5 340 325.6 312.1 298.2 287 275.3 270.3 275.8 283.5 293 300.9 309.3 313.3 316.3 317.2 315.4 309.3 302.6 294.3 287.7 283 278.5 274.1 270.3 268.8 269.1 270.9 270.8 273 272.6 278.4 285.4 291.8 299 304.6 309.6 313.3 317.5 320.3 321.9 322.4 322.1 322.5 319.8 319.2 317.2 315.5 312.1 308.9 304.5 299.3 295.7 291.2 290.4 289.5 289.8 287.4 286.1 279.8 272.5 266.5 257 247.3 233.6 218.5 207.6 196.4 187.9 182.5 175.9 168.5 156.3 124.7 131.9 122.6 135.1 144.1 150.2 156.1 160.1 161.2 166.6 171 171.7 173.4 173.7 172 170.9 167.5 163.3 159.4 155.5 151.9 163.9 174 186.3 195.8 207.1 222.4 232.7 238.3 249.7 267.1 279.5 298.4 316.2 332.9 348.4 360.4 368.9 371.6 373.1 368.6 362.1 358.3 347.1 341.6 336.3 333.1 337.7 340 344.1 349.2 352.3 354.1 354.8 355.9 356.8 357.7 359.6 362 361.3 358.9 355.3 350.6 347.1 343.1 339.3 336.3 329.5 317.9 306 302.7 296.8
485.6 482.7 484.6 482.5 480.9 479 476 473.8 474 475.3 479.8 481.7 481.6 476.7 468.2 459.6 452.7 447 446.8 455.8 463 471.6 480.8 488.3 495.2 500.4 505 509.1 511.2 509.3 503 494 483.7 470.2 455.5 446.6 443.9 446.4 450.5 452.2 449.6 446 439.7 432.6 425.9 419.3 413 408 401.6 396.8 392.2 386.5 380.3 372.2 365.5 356.4 346.3 335.1 321.8 307.6 294.2 282.2 263.7 261 273.3 282.3 292.5 298.7 303.5 306.6 309.1 310.2 304.6 300 292.9 286 278.8 274.3 271.1 267 264.4 262 262.5 263.3 264.2 267 271.6 279.5 283.9 292.8 299.2 303.7 309.1 313.1 317 318.8 319.6 321.6 323.4 324.2 323 320.6 318.7 315.8 312.2 306.2 300.5 297.7 297.5 297.3 296.6 297.5 294.4 290.3 282.2 273 262.7 252.8 240.3 225.1 215.1 204.8 193.8 187.8 183.2 175.4 168.5 148.6 132.5 127.3 123 121.1 135.8 149.5 156.6 160.1 164.2 167.5 169.9 170.7 170.5 171.5 171.2 168.9 165.5 161 156.7 151.6 155.1 166.5 178.3 191.9 202.7 218.7 231 242.2 250.1 261.6 276.3 290.1 304.5 322.3 337.4 350.7 360.8 366.4 369 366.9 361.1 358 350.1 337.9 326.3 314 314.5 318.9 323.1 328.5 335.5 341.7 346.7 349.5 351.1 351.7 352.6 353.5 353.7 353.8 351.4 348.3 344.5 340.7 338.9 335 332.1 327.6 323.4 318.5 312.5 304
486.5 485.9 487.6 488.5 487.5 484.1 483.4 483.4 483.3 483.7 485.5 485.1 484 479.2 470.7 462.1 454.4 447.8 450.5 459.6 467.3 475.6 483.3 488.4 496.3 500.4 505 510.6 510.4 505.3 499.8 489.2 476.6 460.9 441.9 430 424.8 427 435.8 439.8 438.2 436 431.4 425.8 420.2 415.3 411.6 408.4 404.2 402.9 399.6 392.5 385.1 378 369.2 359.3 347.5 337 328.1 314.6 302.2 287.7 274.8 263 253.7 271.9 280.2 288.6 292.9 296.7 300.7 301.3 297.2 293.8 289.3 283.5 278.4 269.9 262.5 261.2 257.3 254.8 255.8 257.2 257.6 260.6 264.9 272 277.7 284.8 292 297.5 303.6 307.4 310.4 313 315 317.8 320.6 323.9 324.1 323.3 321.2 316.9 312.6 307.4 303.9 302.1 300.3 299.6 299.3 297.3 293 287.6 280 269.2 259.1 249.1 233.3 222.2 212.8 201.8 192.1 185.3 179.6 173.3 166.4 149.8 148.4 138.5 120.7 120 136.1 149.5 156.9 163.7 165.9 168 168 168.5 170.5 171.3 172.8 168.1 162 157.7 153.3 143.8 160 171.9 182.3 197.8 214.2 227.5 240.9 252.7 263.5 275.8 289 301 315.7 330.8 342.5 352.9 360.5 365.5 366.9 361.3 356.8 352.7 341 329.3 306.9 292.5 289.7 297.7 305.7 314.8 326.3 335.2 339.8 344 346.2 346.8 347.6 348.2 347 346.2 344 340.9 337.9 334.3 328.4 328.5 326.4 324.6 321.8 318 312.6 303.9
489.3 491.7 492.6 492.8 494.3 491.2 491.4 493.7 490.8 490.7 488.3 488.2 486.1 481.4 473.3 465.6 458.6 451 456 462.4 469 477.3 483.3 489.3 496.1 501.1 507.1 510.9 508.7 502.3 495.7 484 469.6 451.7 433.6 417.8 410.6 411.5 419.9 424.7 424.6 422.2 419 414.6 410.9 408 406.3 404.1 401.8 400.1 395.2 390.6 383.6 375.7 368.1 357.7 348.2 339.5 329.9 319.2 308 295.6 282.3 270.9 256.4 255 268.7 278.7 281.5 286.7 290.5 292.2 291.7 289.3 284.1 279.1 272.8 268.5 261.3 250.9 252.5 249.4 249.7 249.8 251.1 253.5 257 263.2 270.4 275.8 284.9 291.2 297.4 300.4 301.4 305.2 308.2 311.9 317.3 321.6 324 324.5 323.4 319.5 313.7 308.1 306.2 303.9 300.5 298.8 297.1 292.2 287.5 280.4 273.5 263.1 254.2 241.1 226.6 218.4 209.2 198.4 190.4 183.3 177.5 171 166.8 159.6 153.7 135.8 118.7 119.4 134.2 152.5 158.4 163.2 166.6 169 168.8 168.2 166.8 167.7 169.2 164.1 158.8 154 149.2 148.6 164.2 176.9 193 206.9 221.6 235.5 249.7 263.4 274.9 287.4 300.5 315.7 328.7 338.5 347.2 354.9 358.8 362.6 362.4 357.1 352.1 344.3 334.6 317.9 297.7 285.5 276.5 283.4 291.1 303.9 317.7 327.3 331.2 335.1 333.3 339.3 342.2 342.7 341.7 340.5 338.2 334.7 327.8 322.9 320.4 319.3 319.2 318.8 317.6 314.8 309.7 301.3
492.7 494.3 498.4 498 497.1 498 497.5 497.1 497.7 495.7 494.1 493.5 490.8 484.6 477.3 469.6 462 459.5 461.9 468 472.2 478.3 484.4 493.2 496.1 502.9 507.3 509.1 505.7 498.5 490.2 478.4 461.6 441.3 424.2 410.4 399 398.9 405.4 409.1 409.3 407.8 405.2 402.1 399.9 398.1 397 396.3 394.8 391.9 387.5 382.1 376.3 369.8 364.2 356.4 349.6 339.1 332.6 322.9 313.4 302.6 291.5 278.5 269.2 248.7 252.8 264.5 269 276.2 281.8 285.6 284.8 278.8 275 270.2 268.5 262.2 256.4 251.3 244.5 242.4 241 242.6 244 247.8 251.9 256.9 264.1 269.5 276.5 283.1 289 292 294 296.9 300.5 305.5 312.2 318.4 322.4 325.1 325.4 323.8 319.5 314.4 311.3 306 300.8 297 291.5 286 279.7 271.9 263.8 254.5 245.7 233.2 220.8 213.5 202.6 195.8 187.2 180 174.4 169.8 164.7 159 153.3 131.1 117.4 124.5 144 146.4 156.3 163 166.1 169.5 170.3 169.8 165.9 163.2 161.7 157.9 153.8 149.5 139.1 159.1 168.6 182.4 198.5 212.8 227.3 242.7 258.2 272.8 286.4 300.7 314.7 327.1 337.1 344.3 350.2 355.7 357.9 356.2 353.4 349.8 345.1 336 327.8 310.9 292.5 278.7 254.4 267.7 283.9 295.4 304.7 316.3 321.2 321.8 314.2 323.6 331.7 336.9 337.6 335.3 332.1 325.6 318.4 312.5 307.3 305.4 308.5 309.1 309.8 308.7 305.4 298.3
495.6 498 499.8 502.1 502.9 501.8 504 502.8 501.8 500.8 502 499.3 498.3 492.3 481.7 473.2 468 465.8 469.1 471.9 475 483.4 487.8 496 498.3 503.7 505.4 507 502.9 495.1 485.1 471.8 453 435.4 419.7 405.2 394.9 386.9 390.3 394.2 394.4 393.5 392.2 390.3 388 385.4 385.5 384.4 380.6 378.2 372.7 368.1 364.9 361.5 358.1 352.1 347.5 339 332.3 325.3 316.6 308.2 297.9 286.6 273.6 263.1 242.6 249.5 257.4 263.7 270.6 274.8 271.5 267.8 259.2 253.7 249.2 249.6 249.1 246.5 242.2 236.7 235.6 237.2 238.1 241.9 246.7 256.9 266 264.3 270.6 276.4 281.3 284.9 284.6 286.6 290.4 298.3 306.8 313.7 319.1 323.8 325 323.8 321.7 318.5 313.2 306.6 300.8 294 286 278.4 270.7 262.4 254.9 243.8 234 225.6 214.3 204.7 196.5 190.6 182.6 175.5 171.3 167.6 164.4 155.7 147.1 127.1 116.4 134.4 151.6 147 155.2 162.3 165.6 168.7 170 169.8 165.5 159 155.9 152.7 149.3 141.7 151.4 162.7 173 186.9 201 216.4 231.9 248.7 265.3 281.7 296.7 310.8 324.1 334.9 343.2 349.2 353.1 354.6 353.4 350.3 347.3 343.5 338.8 329.3 320.8 305 291.2 271.5 250.9 256.5 276.8 288.6 298.1 302.6 303.1 299.2 292.6 302.7 315.1 324.9 329.1 330.8 328.1 319.6 300.8 293.8 286.7 282.6 290.1 292.9 297.3 297.8 297 291.1
496.8 498.6 501.1 504.4 505.7 504.1 507.2 508.3 508.7 510.2 511.5 509.9 507.1 500.3 490.3 478 471.8 471.9 473.1 474.5 479.9 485 492.5 498.2 501.2 503.9 504.5 503.9 498.9 490.4 478.7 464.4 446.7 429.9 418.2 405.6 392.9 382.3 377.5 380.9 380.9 380.4 379.8 378.1 377 374.4 371.8 370.3 366.3 363 357.6 353.6 353.1 350.1 348.2 346 342.1 335.7 329.3 323.3 316.4 308.6 299.7 291.7 281.2 270.8 255.3 235 238.9 249.7 256.6 258.1 256.1 248.4 244.7 241.5 237.9 236.7 232.8 233.8 232.7 227.5 230.3 229.1 232 234.8 240 245.6 251.9 257.7 264.2 269.7 273.2 275.3 274 275.3 281.6 291 300.1 307.3 314 320.1 321.3 322 320.6 317.8 313.7 307.2 300.3 293.2 283 271.9 260.7 253.9 243.4 233.2 228.2 216.6 204.9 199 192.3 185.8 178.1 171.6 167.8 164.2 160.4 149.6 136 116.1 115.2 142.2 161.1 146.8 154.4 162 165 167.7 168.3 166.5 161.6 155.4 152 148.9 143.1 138.2 154.7 164 176.6 189.4 201.8 218 235.2 252.7 271.3 287.1 302.2 317.6 330.8 340.5 347.8 351.7 353.4 352.2 349.9 346.4 341.1 337.1 329.5 322.1 315.3 301.4 288.6 267.2 247.2 248.4 267.7 280.5 283.6 283.5 279.7 276.2 275.7 284.7 297.5 314.2 329.4 332.2 330.2 320.8 310.2 297.7 280.7 257.9 257.8 268.7 274.8 279.6 282.8 278.7
499.1 501.2 501.1 503.5 504.8 505.6 507.3 511 517 520.3 519.4 516.9 513.5 506.1 496.1 483.6 478.2 477.7 478.4 479.5 482.2 488.9 492.5 497.7 502.3 502.8 503.5 500 494.5 485.2 472.6 458.2 441.4 425.9 415 404.4 394 381.1 368.9 370.3 369.5 368.9 368.5 367.7 366.3 362 360.3 357.6 354.1 349.7 346.1 343.7 342.3 340.7 337 336 334 329.1 324.3 319.6 313.3 307.1 299.3 290.3 279.3 268.1 259.1 244.8 231.9 227 241 240.7 242.4 238.6 233.5 230.2 227.7 224.7 223.2 223.4 223.2 223.5 221.7 218.4 221.5 228.1 233.5 237.8 243.2 251.2 258.7 262.6 264.1 264.8 263.1 265.3 273.7 283.8 292.7 300.3 306.3 311.9 315.6 316.9 316.3 314.2 312.5 306.7 301.8 294 282.3 269.6 256.4 242.7 235.3 226 216.2 206.9 198.4 191.6 187.1 181.2 175.7 170.5 166.2 161.3 154.8 143.6 125.9 114.8 126.4 147.6 161.5 148.3 152.5 161.1 164.6 165.7 164.2 162.3 156.7 151.8 147.9 144.7 136.7 147.4 163.6 174.4 188.3 194.2 203 219 236.7 254.6 272.6 289.2 305.7 321.5 333.5 343.2 348.2 350.3 350.6 347.8 345 341.1 336 330 320.7 316.4 306.1 296.7 283.8 267.2 246.4 239.3 255.7 267.7 269.9 264.9 253.2 259.9 274.9 292 310 324.6 333.7 336.9 335 325.6 315.9 305.4 292.1 276.2 254.4 244 252.2 258.4 262.1 265.5
501.3 500.2 499.5 499.6 499.4 501.7 506.2 512.4 519.6 523.6 524.7 522.3 516.8 509.4 500.3 490.3 486.1 483.3 484.8 483 483.4 489.8 495.2 499 502.4 501.4 499.4 496.8 489.9 480.2 467.4 452.6 436.2 421.4 409.9 401 390.8 380.2 368.6 359.7 359.2 357.9 355.6 353.3 353 352.9 348.6 347.2 344.4 340.7 337.3 335.4 332 330.3 328.1 327.4 324 321.2 316.6 313.1 307.7 301.3 292.5 284.6 274.1 260.3 247.7 238.7 230.7 224.6 223.1 225 225.4 222.5 213.4 214.2 214.6 212.4 212.1 213.6 215.8 215.1 212.4 211.7 210.5 216.7 226.3 231.3 237.3 244.9 248.4 253.2 255.8 255.4 252.5 255.2 264.7 275.2 284.6 291.9 296.9 302.5 306.7 309.3 310.2 309.8 308.9 306.5 302.3 294.7 284.1 268.5 252.7 237.7 226.5 217.9 206.8 198.5 191.7 187.6 182.4 178.5 173.4 169.8 166.5 159.4 151.3 138.3 120.7 114.3 132.1 149.3 153.5 145.7 150.3 158.3 163.9 163.4 161.1 157.4 151.7 147.8 143.8 139.4 127.9 155.9 167.9 180.1 195.5 206.8 216.9 225.2 228.7 253.2 271.4 289.7 307.6 323.3 335.2 343.1 346.5 346.5 344 341.5 338.5 334.1 329.6 322.1 313.3 306.7 300.4 293.3 282.7 263.3 244.7 223 243.5 248.3 241.9 236.6 253.5 269.6 288.2 306 321.8 332.3 339.4 341.6 339.5 332 321.9 312 298.8 282.3 266.8 248.3 228.9 237.3 245.4 251.4
502 494.2 491.6 490.5 490 494.6 500.7 508.7 516.2 523.6 527.2 526 519.5 512.1 503.6 496.7 493 491.5 490.6 489.6 491.1 489.9 498 500.7 501 499.9 494.8 491.4 484.9 474.8 463.1 448.7 434 418.5 405.8 397.3 389 378.9 370.1 357.1 350.6 346.6 343.6 341.1 340.2 338.3 337 335.2 334.1 332 330.6 327.2 322.7 321.2 319 316.3 314 310.9 308.5 305 298.8 291 284 275.8 268.8 256.1 237.1 233.2 232.2 234.1 232.2 229.2 226.9 227.3 228.5 218.4 218.3 216.3 213.5 206 202 199.9 197 201.6 201.4 207.3 216.1 224.7 229.8 237 242 247.1 247.3 245 243 244.3 252.4 261.6 271.8 280.5 286.6 291.5 296.2 299.5 302.7 303.8 303.8 303 299.5 292.3 278.9 260.9 243.2 232.3 220.3 207.5 201.1 195 187.6 182.5 180.1 176.5 171.8 168.2 166 159.1 152.9 147.6 119.4 113.5 133 143.5 144.7 137 147.9 156.3 159.9 160.6 157 152.3 147.7 144.3 138.5 126.3 142.3 157.4 168 184.8 202.1 216.5 230.1 242 253 261.1 272.1 291.1 310.2 324.2 334.8 341.4 343.6 342.4 338.6 335.6 332.5 328.1 322.4 314.1 307.4 298.9 293.7 287.9 280.2 264.5 244.1 225.7 227.8 230.7 222.1 241.2 260.3 279.8 301.8 316.8 328.6 338.5 344.5 345.5 345.8 341.3 329.1 317.3 304 289 274.3 257.8 239.4 221.5 226.3 234.1
496.9 487.5 479 477.7 479.5 484.9 493.6 503.7 513.8 519.7 526.5 526.5 520.4 513 507.8 501.7 502.8 500.4 498.2 495.8 494.6 485.3 498 500.7 499.4 496.4 492.4 487.3 478.9 467.1 457.3 443.5 428.4 414.4 401.9 391.7 386 377.9 368.2 358.6 349.1 339.7 338.2 335.1 333.2 331 330.4 328.4 327.9 326.2 323.3 319.2 315.5 312.1 309.2 307.1 304.6 301.8 297.7 293.9 287.7 280.7 275.9 268.1 250.8 240.6 241.1 247.5 252 255.6 255.2 254.4 255.6 254.8 251.8 248.8 244.5 237.8 235.3 229.1 217.3 211.5 204 196.9 195.4 200.3 205.6 213 221.1 227.5 235.3 235.8 236.4 235.2 232.5 233.9 239.1 246.5 253.6 262.6 271.3 279.3 285.8 290.8 294.1 295.1 296.3 297.5 295.3 284.7 264.7 250.4 238.1 227.3 214.2 203.7 196.5 190.6 184.7 179.2 176.9 172.4 169.6 166.8 162.6 155.3 152.9 143.6 116.3 112.7 132.3 134.9 133.6 127.2 145.6 153.3 154.7 154.7 152.2 148.1 144 138.8 125.8 139.9 149.8 161.1 175.5 190.8 208.5 225.6 239.9 253 266.7 279.4 290.1 304.6 316.8 327.3 335.1 339.6 340.2 338.8 331.9 329.1 327.1 322.4 315.2 306.4 299.2 292.7 286.6 281 273.2 263 248.2 227.3 202.2 214.3 224.5 246.5 267.9 291.4 308.7 324.4 337.2 344 349 349.2 349.1 343.5 333.7 320.9 307.5 292.4 276.7 262.8 245.9 228.6 212.5 217.5
489.5 478.8 467.9 461.4 462.8 473.4 483.8 494.8 506.8 514.2 524.5 524.6 521.9 515.1 510.5 507.3 507.9 507.3 504.2 502.5 499 490 493.1 496.2 496 492.2 487.7 482.5 471.4 459.6 448.7 436.3 422.1 409 397.7 387.6 379.7 373 364.2 355.7 348.8 342 335.3 329.3 329.6 326.9 325.7 324.1 322.1 320.7 317.9 314.5 312.6 308.6 304.8 300.8 296.2 292.8 288.7 285.6 282.2 276.1 264.4 247.4 243.2 247.2 262.6 269.3 272.6 276.3 276.7 276.9 276.7 274.1 270.9 269.3 266 260 253.7 246.5 233.2 225.3 218.1 209.8 191.7 189.3 188.4 203.5 210.6 217 223.6 226.2 227.1 226 224 223.4 224.2 230.8 237.8 245.3 252.2 261 269.8 277.4 282.7 284.8 286.4 284.4 277.7 262.5 247.5 242.2 231.2 226.2 210.2 200.5 192.9 185.4 180.6 175.4 172.2 168.5 166.1 162.4 158.5 154.8 152.8 144.2 114.4 111.7 131.2 127.1 119.8 119.7 130.4 140.5 143.8 148 146.9 142.9 139.2 130.5 123 144.9 154.9 165.9 180.6 199.5 218.1 235 250.1 265 280.9 294.6 304.9 314.1 322.9 331.2 337.3 336.1 336.6 334.3 327.5 326.4 322 314.6 307.6 300.9 292.2 283.7 276 270.2 265.3 258.4 247.9 227.5 202 207.2 226.4 250.9 275.1 297.1 314.4 328.3 337.8 342.9 347.7 349.6 345.7 339.6 330.7 320.8 308.2 292.4 277.9 263.1 249.3 233 214.5 204.5
478.4 467.1 455 446.5 448.8 457.8 471.2 483.7 496.3 507.4 518.6 522.1 521.3 514.7 510.1 510.8 511 511.7 509.1 505.3 501.2 491.5 479.5 488.4 488.9 487 482.3 475.6 463.4 451.1 441.1 427.9 416.6 405 393.8 383.1 374.6 367.3 360 354.1 348.5 342.4 335 328.7 322 322.2 321 319.3 316.8 315.1 313.6 310.8 305.3 301.1 292.7 289.7 287.5 285.5 283.1 270.7 271.2 257.4 249.9 256.7 260.7 275.2 280.1 286.4 290.6 293.3 295.3 295 294.2 289.2 288.2 287.1 285.8 281.5 273.5 262.6 250.5 241.6 233.9 226.5 210 196.9 186.5 185.1 198.8 204.1 209.3 215.2 218.2 218.4 215.3 213.7 209.7 215.8 220.9 225.8 232.4 239.6 247 255.6 265.1 269.8 272.7 271.7 268.2 259.8 244.1 232.4 226.1 219.7 205 198.4 191.9 184.4 178.1 173 170.3 164.8 162.3 158.9 155.2 152.1 151.5 149.6 123.6 110.3 109.4 108.6 108.5 107.5 107 109.3 126.3 142.5 141.5 137.9 135.2 119.3 136.5 146.9 159 173.3 190.4 206.1 226.1 244.2 261.1 277.5 290.7 303 311.9 320.1 327.8 333.9 334.2 333 332.5 330 326.3 321.3 314.9 308.1 300.3 292.6 281.2 273.6 265.1 261.8 257.7 252.5 244.4 227.7 204.4 207.2 229.3 255.3 276.1 294.4 312.5 327.9 334.1 338.2 343.7 343.3 339.6 333.9 325.4 316.5 304.7 292.7 278.1 260.3 248.2 232.8 218 201.7
466.3 452 441.3 434.7 433.3 443.2 455.8 468.7 482.6 496 510.1 518.3 518.7 513.7 510.6 510.7 512 511.9 509.3 505.1 500.8 492.6 478.9 476.9 480.3 478 473.8 465 453.6 442.3 432.3 425.1 415.6 405.2 396.9 385.1 374.9 365.8 358.9 351.3 346.3 341.3 335.4 330.8 322.7 316.4 316.4 314.4 311.6 309.9 306.4 300.1 290.8 281.2 278.3 274.4 274.4 272.9 265.2 261 259.9 264.6 270.2 275.7 272.3 286.9 295.8 299.5 301.2 303 304.4 304.9 301 303.5 302.6 301.8 299 294.9 288.2 276.9 268.5 258 250.8 243.5 232.3 221.5 208.9 192.1 181.9 185.7 197 203.5 207.5 208.8 205.3 204.2 200.7 205.5 208.3 214.8 219.9 225.1 231.1 237.5 242.9 243.6 247.7 247.7 245.9 239.5 229.2 223.4 217.1 212.8 206.2 199.7 193.1 185.1 177 170.9 165.2 160.2 157.1 153.7 151.1 149 146.1 147.7 130.8 115.9 124.3 126.8 114.4 106.6 106.3 104.7 121 137.4 136.1 133.3 124.2 124.6 141.5 152.5 164.8 180.4 199.5 217.8 235.9 253.3 271.1 286.3 297.5 306.6 314.7 322.2 328.4 331.4 330.4 327.7 327.3 326.5 320.4 316 309.6 304.5 295.7 287 276.7 266.2 256.8 246.2 247.2 244.1 237.6 225.5 207 199.7 227.2 253.4 272 288.6 307.1 322.3 329.6 332.2 334.6 335.9 332.7 327.1 320.4 311.5 301.4 289.5 276.2 262.1 245.1 232.4 221.2 209.9
453.6 440.1 428.8 421.8 421.5 429.4 441.2 454.6 469.6 483.5 498.2 509.7 513.9 511.6 507.1 507.2 509.3 507.4 503.6 500.7 495.6 488.8 479.3 458.1 467.4 467.2 460.8 451.8 442.2 431.8 425.8 421.2 416.2 408.3 398.3 388.8 379.4 368.2 361.2 354.1 347.4 342 337.6 332.5 327.7 320.8 309.9 308.6 305.4 299.6 294.1 295.2 303.6 302.8 301.5 296.7 285.3 278.2 279 281.3 283.3 286.1 289.4 292.4 286.7 283.1 302.3 305.1 305.3 305.8 306 307.2 307.3 309 309.5 309.8 307.3 298.8 295.8 290.8 280 271.2 268.1 262.8 251.7 242.9 229.9 216.5 202.1 181.8 180.5 185.6 193.3 195.8 194.2 193 192.2 194.5 200.2 203.9 208.1 213.9 216.9 221.1 223.2 223.9 228.9 228.6 224.4 222.3 215.4 211.8 211.1 210.3 207.4 203.2 196.8 189.4 181.3 169.6 163.7 158.6 152.9 151.1 149 146 139.8 133.1 126.6 126.6 137.3 139.5 121.5 108.8 105.5 105.2 116.9 133.6 131 123 114.1 134.1 145.9 158.6 172.4 190.4 208 227.2 245.2 261.6 276.1 286.7 296.7 305 312 317.6 323.3 327.7 324.7 321.5 321.6 321.4 316.7 313.2 307 299.4 290.1 281.6 266.7 257.8 244.8 241.5 228 233 226 217.5 202.8 195.8 217.7 234.5 260.5 282.6 300.6 312.6 318.7 325.4 326.7 328.1 327.2 322.7 315.1 307.4 299.6 288.9 277.9 266.1 248.6 235 223.6 212.6
444.4 428.9 416.6 409.7 409.6 418.2 428.5 442.7 458.4 473.4 489.4 502.2 506.9 505.7 504.6 503.8 501.7 499.6 496 491.6 486.6 481.3 473.6 452 450.9 449.5 446.2 438.5 428.4 421.1 419.1 417.8 414.7 407.7 400.4 392 384.4 374.9 366.9 359.3 352.4 347.3 344.4 340.4 335.8 331 324.8 320.4 313 307.6 311.2 314 316.1 317.7 318.2 315.7 310.4 305.4 303.3 301.3 300.5 302.9 304.5 303.8 302.2 286.2 303 305.4 304.4 304.1 303.8 305 307.5 310.9 313.2 312.5 311.4 311.2 307.1 300.4 293.6 287.6 282.8 278.6 271.3 261 250.8 238.2 224.3 209.8 193.5 174.6 174.6 176.8 181.3 180.5 182.4 185.9 190.6 194.1 198 203.5 205.6 210 210.6 214.5 216 216.7 213.3 210.6 207.9 205.6 205.9 207.6 205.4 199.7 195.9 192.7 182 170.9 165 158.1 152.6 147.9 144.4 141.3 138.9 133 125.5 132.1 137.3 138.8 137.9 128.2 112.4 104.3 106.9 127.4 122.4 119.9 130.7 140.3 152 166 181.8 197.6 214.3 231.9 248.9 263 274.2 282.4 290.2 298 304.8 311.2 314.6 319.5 317.2 316 316 315.4 313.1 311.1 305.1 296.9 288.3 271.3 263.1 250.7 243.6 231.9 214 215.3 212.4 207.2 199.1 187.2 211.4 233.2 259.1 274.4 287.1 299.2 305.6 310.5 313.7 317 315.2 310.3 304 300.7 295.3 288 276.9 266.8 250.7 235 223.1 211.5
438.9 422.9 407.9 401.7 402.9 409.2 419.6 432.9 446.9 461.5 478.4 491.7 496.9 498.6 497.8 494 492.1 489.9 486.1 482 478.3 473.7 466.7 450.1 433 429.2 427.7 422.7 413.9 409.8 411 412.1 411.5 406.3 399.9 393.4 386 376 368.6 360.2 353.6 348.4 345 341.9 338.3 334.7 331.8 326.4 318 316.8 321.7 323.1 324.3 326 326.5 326.8 324.7 321.2 319.6 316.8 315 312.6 310.8 308.5 304.3 292.7 297.2 300.2 300.5 299.7 299.8 301.6 303.8 308.3 312.4 313.4 316.1 315.7 312.8 309.4 303.6 300 296.5 290.2 285.7 277.3 266.2 255 243.4 229.8 214.5 203.8 185.6 171.7 171 167.4 170.8 173.4 178.4 183.7 188.5 192.6 195.4 199.7 202.6 208.6 210.3 208.9 207.1 205.4 203.5 200.9 201.3 201.7 197.5 194.5 192 185.4 177 171 165.1 160.1 154.1 149.1 147.6 137.5 134.1 130.5 126.5 127.6 131 133.1 134.1 132.1 121 103.7 103.6 111.6 118 118.6 134.7 143.1 156 171.3 184.9 200.6 216.9 232.9 247.6 259.2 267.8 275.2 282.7 290.2 296.7 300.8 303.8 307.6 310.2 310.2 311.9 310.4 308.8 304.5 301.1 296.6 290.6 284.1 274.1 265.4 257.2 248.4 235.6 216.6 187.9 197.2 195.7 180.5 202.7 226.8 248.9 261.9 272.7 279.3 285.8 291.7 297.3 302 301.6 295 290.1 287.7 285.7 281.7 272.9 261.7 249.1 233.5 220 210.7
432.7 416.9 399.9 394.5 395.2 400.8 409.8 422 436 450.5 465.3 477.1 485.3 487.4 487.2 485 481.3 478.1 473.9 469.8 465.8 461.9 457.9 447.8 431.4 415.1 405.6 405.4 400.3 397 401.3 405.2 405.3 400.7 396.3 389.6 382 373.9 365.8 357.9 351.2 344.8 340.6 336.5 332.7 329.4 327.2 324.8 318.2 314.1 319.5 322.9 324.7 326.2 327.1 327.6 327.1 326.1 325.1 321.8 318.1 314.6 311.2 307.7 303.9 299.4 289.7 289.4 295.2 294 292.6 295.5 298 302.2 308.2 313.9 316.3 317.6 316.8 314.7 311.1 309 306.4 301.8 297.6 289.3 280.4 271.1 259.7 248 236.5 225 211 200 186.7 180.9 165.9 164.2 167.2 172.8 181 183.1 188 192.7 196.4 202.4 205.4 203.5 202.2 200.7 197.4 195.6 196 191.9 189.9 187.7 185 179.1 175.1 169.8 165.6 160 152.8 147.4 145.5 139.4 134.6 130 127.9 129.4 130.5 131.4 131.1 131.6 122.4 102.8 103.3 104.1 113.4 128.3 136.1 146.2 159.3 173.1 186.4 200.7 215.8 229.9 242.9 252.6 260.3 267.1 274.4 280.6 286.5 291.4 297.3 299.7 302.1 304.6 304.8 304.3 303.6 303.2 301.9 298.2 293.9 289.8 281.1 272.9 262 251.4 238 226.7 206 180.5 180.1 175.4 196.9 218.9 240 244.9 254.1 261.3 268.3 273.2 277.4 281.9 284.3 278.6 273.9 272.4 270.5 268.5 261 252.3 242.4 230 216.3 203.8
425.1 408.9 396.1 387.5 387.8 391.4 401.1 411.9 423.3 438.3 452.6 463.9 472.2 475.9 475.7 474.9 470.3 465.7 460.3 455.4 452.2 450.2 445.7 437.9 426.6 413.7 395.6 383.5 381.7 383.1 391 395.5 394.1 392.1 388.1 382.6 374.9 368.6 361.3 354 345.8 339.2 334.7 329.4 324.7 320.5 319.4 316.6 313.5 310.2 311.3 315.3 317.7 320.9 321.4 324.2 325 325.6 324.5 321.6 318.8 313.4 310.1 306.1 302.1 298.4 292.1 287.3 287.9 287.3 286.4 286.6 291.3 295.5 302.5 309.6 314.7 317.2 317.9 317 316.1 314.2 311 308.6 303.5 299.1 289.9 282 272 262.4 254 242.7 233.3 221.5 211.3 204.2 192.5 181 161.9 163.6 169.8 176.1 183.4 188 193 198.1 201.9 198.8 196.7 196 192.6 191.1 189.6 186.8 185.6 185 180.6 175.7 172.8 168.6 165.3 158.9 151.7 146.2 141.7 137.5 133.9 130.8 129.1 129.4 130.1 130.8 130.8 131.8 122.7 102.3 101.2 109.7 125.6 130.6 135.9 148 160.8 172.7 185.1 198.8 212.4 224.8 234.8 244.2 251.1 259 266.6 272.5 280 287.2 292.8 296.7 296.1 296.5 298.7 299.4 299.4 299.4 299.5 299.6 299.7 297.2 292.3 280 266.7 255.7 238.9 221.7 203.1 188.2 162.9 175.2 190.8 211.2 222.8 232.3 247.2 253.5 257.6 259.6 259.3 263.3 264.4 261.4 259.3 255.9 253.6 254.1 245.8 241.1 232.3 220.2 206.9 195.7
415.4 402.3 390.1 382.1 379.7 382.8 391.4 401.8 412.5 425.8 439.3 451.6 460.5 464 464.6 462.4 459.5 452.4 446 439.3 435.3 436.1 433.4 427.7 418.6 409.7 392.6 380.1 365.7 369.5 377.9 380.3 381.7 381.5 378.2 373.3 367.5 360.3 353.3 346.3 339.6 332.3 325.5 320 315.1 311.3 308.6 306.4 304.5 302.8 304.4 305.7 309.4 311.7 313.9 317.4 320.2 321.2 321.1 320.5 317.9 313.3 309.1 305.2 301.4 296.4 290 287 284.7 283.2 282.1 280.9 284 290.6 298.5 305.4 310.5 312.4 313.9 313.7 315.4 314.8 313.7 312.5 309.4 304.7 298.3 290.5 281.8 276.4 266.8 256.3 244.4 228.6 223.3 209.7 198.2 192.8 175.4 158.4 162.7 170.7 180.2 184.2 188.2 194.4 197.8 196.2 193.4 189 188 186.7 184.7 182.9 180.5 178 176.7 173.7 171 167.4 163.7 157.6 152.1 144.9 139.6 135.9 132.6 129.4 127.6 128.8 128.6 129.6 129.6 130.8 122.8 100.8 100.9 105.3 116.6 126.7 130.1 142.8 159.7 171.2 182.8 194.8 206.9 217.4 227.2 235.6 244.6 249.3 260.7 269.9 276.5 283.5 285.6 287.8 287 290.1 290.7 291.9 292.3 295.4 298.5 302.1 306 303.1 296.2 285.9 270.7 254.1 238.4 220.4 203.5 189.6 161.6 174.7 186.1 198.8 215.5 231.3 248.2 247.7 248.4 253.6 240.9 248.3 249.1 248.1 244.4 241.1 236.4 233.6 230.4 228 217.8 205.9 198.4 189.5
405.6 393 383.3 374.6 372 376.2 382.6 393.2 402 413.1 426.6 438.6 449.8 454.8 456.3 455.5 449.8 441.2 431.5 422.7 417.7 417.8 417.2 414.4 408.4 401.9 390.2 379.9 367 353 362.4 367.4 369.8 369.2 366.4 362.2 356.6 350.9 344.8 337.9 330.7 325.1 317.9 312.3 307 300.8 298 295.8 294.5 294.7 296.4 298 299.7 302.5 306.9 310.7 312.6 314.6 316.1 317.9 316.6 313.6 308.9 303.6 299.1 294.1 289.9 287.9 281.7 279.5 278 276.7 276.7 284 291.1 297.8 302.5 304.9 306.9 308.9 310.1 311.1 312 312.2 310.5 307.6 302.9 297.1 288.4 282.8 273 260 244.1 228.3 221.4 210 197.9 192.5 173.6 155.5 156.2 159.2 173.5 180.7 184.7 190.4 193.2 192.2 188.6 186.4 182.7 181.7 181.7 178.9 177.3 174 174.8 171.8 167.4 165.7 162.2 156.4 149.9 143.8 139.2 136.4 133.8 131.1 126 128.1 128.7 128.8 128.8 130.9 119.2 101.3 99.5 113.2 127 140.5 149.1 152.5 150.4 160.4 175.1 190.5 201.4 204.1 220.9 231.4 242.3 251.5 259.5 266.2 273.7 275.3 275.9 277.1 278.8 279.5 281.5 280.4 285.1 289.8 295.4 301.2 303.7 301 294.9 283.3 270.8 253.7 236.6 216.4 200 186.8 168.6 169.3 182.2 196.2 208.7 217.7 231.6 236.3 231.6 233.6 222.6 233.1 231.8 230.6 231.8 223.8 218.6 215 214.9 206.8 201.2 191.5 189.2 180.9
395.1 384.3 375.7 369.2 362 365.9 373.7 384.6 393 403 414.3 425.8 435.9 443 445.9 443.5 438.5 431.3 420 405 397.9 397.1 398.6 397.9 394.8 391.6 386.1 376.9 365.1 351.4 347.6 353.5 356.5 356.5 354.8 350.8 346.7 340.4 334.3 328.8 321.6 314.6 309.7 302.7 297.6 292.6 290 288.1 286 286.7 286.7 288.3 292.1 294.4 296.4 299.6 302.9 307.9 311.4 314.3 314.4 312.3 307.7 297.4 295.9 295.7 293.3 290.1 281.5 277 273.8 271.9 271 275.8 282.3 288.5 293.4 296.3 298.4 300.6 303.3 304.5 307.7 309.2 308.6 306.7 302.6 295.7 289.6 283.7 271.1 252.9 233.4 220.7 212.1 204.6 199.3 190.5 176.1 169.2 154.1 154.3 160.6 176.3 180.4 182.6 183.4 186.3 183.3 180.6 179.1 177.5 177.9 175.8 174.9 172.1 169.8 169.9 170.4 169.8 165 157.1 148.7 144.1 141.6 139.7 136.2 131 126 126.8 127.5 128.7 128.8 129.9 113.6 100.5 99.9 117.6 134.9 149.2 159.5 169.8 178 181.4 188.3 194.7 202.9 212.5 225.4 234.9 241.5 249 255.5 259.5 264.2 265.5 267.3 268.6 272.3 269.7 268.2 269.3 275.7 283.1 289.5 295.4 298.4 295.5 288.4 280.2 267.1 250.1 233.1 213.5 196.9 184.2 167.2 158.7 175.5 185.3 194.6 204.3 211.6 210.7 212 213.6 213.9 218.7 214.3 217 218.3 212 208.5 207.2 200.3 189.5 186 179.9 174.3 169.4
382.5 376 369.6 357.6 353.1 357.3 363.5 375.2 385 395.3 405.9 415.2 423.4 429.6 432.7 431.3 428.4 421.7 412.1 397.1 382.9 380.4 379.1 381.2 382.4 382.8 381.1 375 364.8 352 342 341.2 344.4 344.6 342 338.8 335.1 329.3 323.2 316.5 310.5 306.2 298.6 294.2 291.3 287.1 284 281.6 278.9 278 279 278.8 281.9 285.9 287.3 290.6 294.8 300.2 306.4 309.3 302.7 307.7 308.4 308 303.6 299.1 294.5 289.8 282.4 276.3 270.6 265.9 264.7 267.7 272.7 278.4 284.3 287.8 289.9 291.9 295.7 298.1 302.1 301.8 302.5 298.4 289.9 283.2 277.9 270.9 254.2 236.8 220 210.9 204.6 200.6 197.7 189 177.8 169.6 158.9 148.9 150.9 166.5 173.1 177.4 180.7 181.4 179.2 175.3 173.1 172.7 172.1 170.9 170.7 172.6 173 174 175.2 173.4 166.3 162.2 150.5 147.6 146 143.7 138.3 131.6 126.4 121.5 127.4 128.7 128.3 121.8 110.1 99.1 102.7 122.4 141.3 155.5 165.6 173.5 182.8 191.8 198.6 204.8 212.2 219.4 228.4 236.8 240.7 246.3 250 254.2 258 259.9 259.9 259.6 260.3 258.3 255.9 254.6 268.1 275.9 283.3 287.1 289.8 288 280 270.9 260.5 243.9 226.7 210.9 194.3 179.1 169.8 151.5 164.2 176.1 185.8 193.8 198.7 198.2 202.8 201.3 205.5 208.7 199.3 201.3 203.2 198.9 196.2 193.9 184.5 178.2 175.8 170.6 165.9 161.7
376.1 370.8 362 353.5 350.5 350.9 354.9 364 377.2 387.9 397.6 405.1 411.8 416.3 419 419.8 418.6 413.5 404.9 391.4 376.9 369.4 365.7 365.3 369.7 371.9 371.8 369.5 363.3 353.5 342 332.9 332.9 333 329.7 325.7 317.8 311.9 308.1 306 302 298.5 291.5 288.1 285.6 282.3 280.3 276.2 273.3 272.5 272.5 272.7 272.4 276.1 277.9 282 288.1 294 298.2 303.1 309.7 312.2 315 312.8 308.4 302.8 296.9 291.1 284.2 277.2 269.8 261.3 259.6 259.2 262.4 268.4 274.5 278.8 281.2 283.8 287.8 291.3 293.2 293.8 291.6 285.7 272.5 259.5 250.5 242.9 234.6 223.6 212.2 209.5 203.3 199.2 195 189.9 184.8 175 161.1 152.5 146.1 155.4 166.7 170.7 175.9 177.2 175 171.4 170.4 169.6 169.2 168.4 171.4 174 174.7 176.9 176.8 174.4 171.2 165.4 159.1 156.4 152.7 148.1 140.8 134.4 126.4 122 121.7 125.9 118.4 108.6 99.3 98.5 113.9 132.1 148.7 158.5 167.8 174.3 183 191.9 201.2 208.6 214.7 219 226 233.7 236.8 241.3 245.7 247.2 250.3 253.2 251.5 251.5 251.4 248.1 246.9 249.2 260.9 267.8 275.1 278.2 280.7 278.2 271.5 262.5 250.3 237.5 220.9 206.2 194.3 182.8 169.7 151.5 152 166.5 177 183.5 188.7 184.6 192.8 185.7 192.4 191.4 186.6 188.7 191.4 189.7 187.1 186.6 175.7 168.4 166.3 164.8 158.6 152.4
371.3 365.6 356.5 349.9 346.2 344.5 349.3 357.7 369 379.7 389.2 396.6 401.9 403.9 405.4 408 408.9 407.5 400.1 388.9 374.1 361.1 357.3 355.3 356.3 360.1 362.4 362.8 359.2 353.6 344.2 334.4 329.2 319.6 318.4 315.5 311.2 307.3 303.1 298.9 294.7 290.1 286.4 283.9 281.4 277.7 274.2 270.8 267.1 266.1 265 265.4 264.9 268.4 272.4 273.8 277.8 284.9 291.2 301.4 309.4 314.5 317.3 316.5 313 306.8 299.3 293.2 284.9 278.3 269.7 261.8 254.4 249.7 253.6 259.9 265.6 270.5 274.3 274.7 275.6 278.9 281.1 281.5 277.4 270.1 254.1 240 234.3 227.9 220.3 214.6 210.5 205 201.5 196.9 191.8 187.9 184.2 176.7 163.6 153.2 143.6 146.4 159.4 165 171.7 172.8 171.6 169.7 168.7 167.2 165.5 169.2 173.3 175.7 176.3 176.4 175.3 173.9 170.8 168.4 163.6 161.9 156.5 150.1 143.9 136.8 128.6 121.5 120.1 115.8 105.1 97.3 98.2 109.6 128.8 142.1 149.3 157.2 165.4 174.2 182.3 189.8 198.3 204.9 210.5 216.7 222.1 225.9 231.5 235.5 238.4 239.8 240.6 243.9 244.6 244.2 243.6 239.6 233.6 236.5 250.4 258.5 265.3 269.7 270.9 268.1 262.8 254.5 241.9 229.4 214.3 201.6 194.1 187.5 172.8 159.3 144.3 158.4 164 171.4 170.7 167.3 176.2 172.2 177 177.2 174.6 178.7 181 181.7 180.6 175.7 165.4 160.2 157.7 157.7 152.4 148.1
366 359.9 351.8 344.7 344.5 338.2 345.7 352.3 362.4 372.5 380.7 387.1 390 392.3 393.8 396.7 399.1 399.3 394.1 385.3 373.4 359.4 350.9 342.6 343.3 347.3 353.1 354.6 353.7 351.3 345.8 335.3 328.4 323.6 318.7 313.1 301.7 299.6 298.5 292.6 284.1 279.3 275.8 278.1 276.3 273.6 268.3 264.3 260.7 257.3 257.7 257.7 257.9 259.8 264.5 268.3 275.3 280.1 289 299.3 307.6 314.6 316.5 317.3 314.8 309.2 302.4 294.2 285.3 277 269.1 261.2 251.6 242.2 245.9 249.2 256 261.6 262.4 262.6 263.6 264.2 266.6 266.7 257.7 248.1 235.7 228.3 230.8 224 215.1 209.7 204.9 201 196.8 193.9 189.1 187 183.4 176.4 166.5 157.2 146 143.6 152.7 160.5 166.7 167.9 168 166.1 164.9 164.4 162.3 168 172.1 173.1 174.8 174.8 174.1 172.8 171.8 169.4 166.7 162.9 157.5 152.3 146 138.8 129.8 122.5 118.6 103 97.5 96.9 108.9 125.1 133.9 139.5 147 154.1 163.5 171.4 178.7 185.6 192.7 199.6 205.4 213 218.5 222.7 224.5 227.5 228.5 229.9 232.6 232 232.1 232.2 231.6 227.1 215.6 227.3 242.9 250.2 255.6 259.4 259.3 257.8 253.9 248.1 237.8 220.7 208.2 196.5 196.1 186.8 172.3 164.1 146.9 142.3 151 155.2 152.3 161.6 163 164.8 166 166 166.8 168.3 169 170.2 172.4 168.6 162.3 153.5 148.6 151.2 148.3 144
359.9 354.4 346.6 338.6 333.5 328.4 338.7 345.8 357 367.1 373.7 377.3 381 380.9 383.8 387.4 389.7 390 386.7 381.4 373 361.9 348.1 339.9 333.8 334.7 339.3 343.6 346.1 347.2 346.2 341.5 335.8 329.9 324.6 319.3 314.1 307.9 300.7 293.6 288.6 285 273.9 263 263.4 257.8 256.8 255 253.3 252 250.7 250.2 251.7 254.2 257.1 261.6 269.5 276.3 286 296.6 305 310.7 312.9 313.2 311.7 307.9 302.2 293.9 285.3 276.4 269 260.9 254.1 237.7 238.7 241.2 245.2 246.1 247.6 248.5 247.3 246.7 249.3 248.2 239 228.9 223 223.1 225.1 220.4 212.5 205.4 200.9 195.4 191.7 190.8 187.7 185.4 181.2 176 169.3 161 149.4 141.9 143.5 150.2 158.2 161.8 163.6 162.9 161 161.4 157.2 165.8 170.1 171.9 173 173.4 173.4 173.1 173.4 170.5 167.8 164.2 160 153.8 147.6 138.9 131.5 123.9 106.1 97.1 97.1 105.6 119 125.9 132.3 138.1 144.8 153 160.9 167.6 174 180.1 187.5 191.8 198.7 206.3 211.3 214.8 216 217.3 220.1 221.3 223 223.8 223.3 223.8 222.1 219.7 206.7 219.4 236 241.4 245.8 248.9 250.3 250.7 247 242 230.8 214.2 203 203.6 192.1 182.5 173.3 165.7 159.2 146.1 136 140.7 150.1 155.3 151.5 155.9 158.4 157.9 158.5 159.8 161.1 165.1 166.4 162.6 157.6 151 142.6 145 143.6 140.3
354 349.7 342 334.5 326.6 325.7 331.6 339.6 352.9 361.4 367.2 370.2 371.5 373.3 375.5 378.1 380.6 381.3 380.7 376.5 370.4 360.6 350.5 338.3 329.3 325.9 327.3 332.1 336.8 341.8 345 345 344.4 341 336.1 331.2 325.2 318.2 311.9 304.5 294.9 290.3 288.5 277.7 266.4 264.6 259.6 245.1 240.4 238.8 242.8 242.6 240.6 245.2 248.3 255.6 263.6 272.6 281.6 292.7 301 305.1 306.5 306.9 306.7 303.2 296.9 292.7 284.9 276.7 269.2 262.6 258 239.6 230.2 232.7 233.1 232.9 231.1 231.3 231.8 231.6 233.1 233.6 228.8 223.2 219.1 216.2 212.8 206.9 203 199.7 196.1 191.6 189 188 185.1 183.2 178.9 174.2 169.2 160.7 152.9 142.8 138.6 142 151.6 156.6 159.1 158.6 156.2 155.8 154.5 163.6 167.9 169.4 170.9 171.9 172.7 173 171.5 169.4 168.1 165.8 160.1 155.5 148.1 140.2 134.8 128.2 115.2 103 96.4 95.4 115.9 126 129.9 136.4 144.4 150.7 156.9 162.9 168.4 175.1 180.4 186.7 191.8 195.6 200 205.9 210.6 210.5 211.1 212.4 214 212.6 212 211.9 215.4 213.3 197.3 214.8 224.8 232.7 237.3 238.4 239.5 240.2 236 231.2 227.1 220.3 209.7 202 185.2 179.9 171.9 165.7 160.4 156.2 148.2 132.3 132.6 145.3 141.6 147.6 149 148 150.5 151.9 156 159.6 158.7 155.8 152.9 147.5 141.1 138.5 139.7 136.4
347.6 344 337.9 331.3 323.3 320.7 328 335.2 347.9 357.4 361.9 364.8 364.7 364.6 366.4 368.2 371 373 373.5 371 365.8 358.1 348.2 337.2 326.2 313.5 318.7 321.7 326.8 333.8 340.4 344.2 346.5 347 344.9 341.2 334.8 326.3 320.3 312.8 304.1 298.4 296.3 287.7 276.8 269.1 262.7 258.1 251.7 242.7 230.5 231.2 234.6 238.7 242.1 249.5 258.8 267.4 278.1 286.4 293.4 298.5 298.8 300.8 299.3 297.3 294 289.9 285 277.8 268.1 262.1 251.8 236.8 228.8 221.6 224.6 223.8 222.4 221.7 221.1 218.9 219.7 218.3 217.2 216.6 212.6 209.4 206.1 200.5 196.6 194.8 192.5 189.4 185.6 183.7 182.5 179.7 175.4 171.7 168 162.7 156 144.6 138.1 136.1 141.9 149.4 151.7 152.7 151.8 149.7 152.8 159.6 164 167.4 168.8 170.6 171.7 171.4 169.2 168.4 167.7 165.2 161.4 155.4 148.9 141.9 138.5 129.9 126 115.9 95.5 95.1 109.2 123.6 128.5 135.9 142.2 147.5 153 158.1 163.8 168.7 172.1 180.5 184.9 189 190.9 196.9 198.7 199.7 200.5 200.8 201.5 201.1 199.8 196.1 196.4 195.7 187.7 206.7 217.5 220.4 226.1 228.4 227.7 221.5 221.4 221.4 217.4 210.4 197.9 189.4 183.1 175.7 168.1 162.2 157.5 153.1 152.1 144.2 128.5 127.3 138.2 140.6 141.4 140.5 143.1 144.4 150.9 153.2 150.7 148.2 145.5 143.1 139.1 131 133.1 129.7
342 338.8 333.5 327.7 320 315.7 325.2 333.1 344.5 354 358.8 359.2 358 357.9 357.8 358.8 361.6 364.7 366.3 364.6 360.6 353.3 344.5 333.9 322.1 311.9 312.3 313.3 317.1 325.5 334.2 339.6 344.4 347.5 347.3 345.4 342.2 336.6 330.5 320.3 311.6 306.7 300.4 293.4 284.2 275.4 269.3 263.2 256.8 248.6 240.9 229.4 221.6 226.9 235.6 243.9 252.7 262.5 274.5 281.4 288.5 291.8 292.7 293.4 292.3 292 290.7 287.8 283.1 276.5 267.9 259.1 249.5 237.8 227.4 217.3 212.8 216 215 215.4 213.5 211.8 211.7 210.7 209 208.2 207.3 204.2 200.9 196.8 192.8 191.5 189.3 187.3 183 181.1 177.8 174.6 172 168.7 165.1 159.6 152.7 145.8 139.1 135.2 132.5 143.3 146 147.7 147.4 145.8 150.3 156.2 162.1 165.4 168.4 170.1 171 170.6 168.3 168.1 166.2 163.5 160.6 154.9 149.7 147.6 142.3 132 124.7 109.5 94.9 93.6 114.7 123.9 126.5 133.1 138.5 143.7 147.9 152.1 157.3 159.4 166.9 172.3 176 180.5 180.6 185.4 187.2 187.1 186.7 188.1 190.4 188.8 188.6 185 184.6 184.7 184.5 186.2 202.8 209 213.1 213.8 213 211.4 207.8 210.4 207.6 195.3 192.2 186.8 179.1 167.8 162 157.4 154.7 150 138.7 145.8 140 123 128 133.9 133.4 133 137 142.6 145.2 144.5 143 141 138.7 137.4 133.7 126.3 124.9 123.5
337.9 333.4 328.5 322.8 316.5 311.2 320.8 328.2 342.8 350.7 357.2 354.7 351.7 350.6 349.5 349.7 353 356.1 358.3 357.5 354.5 347.6 339.5 329.1 318.2 306.4 306.5 306.8 308.6 317 326.2 333.8 339.4 343.5 345.2 345 342.5 338.7 332.7 327.5 321.2 314.7 306.3 300.9 292.7 281.6 272.8 263.8 256.6 250.4 243.9 236.9 224.9 219.8 228.2 236.9 246.1 257.6 268.8 277.9 283.2 284.4 284.3 285.8 285.9 284.4 283.7 282.2 278.7 274.5 265.1 255.5 245 233.9 224 217.6 212.6 208.2 209.4 207.1 205.9 206.9 207.1 207 204.2 203.4 198.4 197 194.8 192 190.8 189 186.6 184.4 181.4 179 174 169.9 167.5 164.7 160.9 155.1 150.8 145.3 140.2 135.2 131.9 132.9 140.3 141.9 140.6 142.8 148.9 155.3 160.2 163.4 166 167.9 168.8 168.5 167.6 166.8 164.8 162.1 159.4 155.8 149.6 131.8 142.1 134.8 125.8 110.2 94.2 97.3 116.6 120.3 124.6 129.9 134.3 138.9 142.8 146.7 149.7 152.8 158.7 164.1 166.9 169.2 178.3 182.2 184.4 184.6 182.7 178.9 180.7 183.1 183 185.2 182.9 184 180.6 168.1 182.3 192.5 197.8 200.8 201.9 197.5 190.1 196.5 194.8 191 185.6 178.2 168.9 162.2 150.8 152.1 147.8 144.9 135 137.1 136.3 128.1 120 129.2 128.4 127.5 133.6 135.8 139.5 138.2 135.5 133.3 129.6 126.2 121.5 116.7 117.7 116.5
333.3 328.2 323.3 317.8 311.6 307.5 318.5 327.4 339.3 349.8 354.8 352.2 346.5 344.4 342.6 341.4 344.1 346.5 349.6 350.1 346.8 341.4 334.1 324.5 312.4 305.1 301.3 300.9 303.8 309.5 317.6 326.8 332.8 338.1 340.7 340.9 338.9 335 330.5 327.7 323.9 316.7 307.5 302.2 293.3 286.1 275.1 264.5 256.8 251.5 245.4 238.1 227.2 214.8 221.4 230.2 240.4 252 263.9 270.7 276.5 278.5 278.4 277.9 276.3 276.5 274.4 273.7 270.9 266 260.2 250.6 240 230.3 227 221.4 212.7 204.8 202.2 201.8 200.6 201.4 203.2 205.3 202.3 196.2 192.5 192.1 189.9 190.8 190.3 187.8 182.7 180.8 178.2 174.4 170.8 165.4 161.6 158.1 154.7 151.3 148.3 144.7 140.2 133.8 131.8 130.1 132.7 135.5 137.1 141.7 148 154 157.9 160.5 163.8 165.7 167.1 168 166.7 166 164.7 162.5 160.2 157.9 152.5 146.5 141.4 136.5 125.6 114.1 93.5 93.5 108.3 118 120.7 125.8 130.2 133.6 137.2 139.8 142.3 146.2 151.3 155.5 157.4 164.7 171.2 175.1 176.8 177.2 176.3 167.2 174.4 174.6 180 180.9 179 173.5 172.9 160.9 184.6 192.8 191.4 179.9 178.5 187 176.1 182.7 181.6 180.2 170.6 170.9 157.2 151.1 143.9 136.4 134.8 128.1 127.6 126.7 125.4 122.4 118.1 123.5 122.9 121.6 122.7 117.6 115.6 124.1 123.7 120.5 117 114.4 110.6 108.3 111.1 110.6
327.1 323.6 319.3 312.8 308.6 301 314.7 325.2 339.1 348.2 352.8 350.3 343.3 338.9 336.4 333.9 335.3 338 341.6 341.1 340.2 336.8 329.9 320.4 307.4 301.3 296.2 295.9 297.6 302.2 309.8 317.6 325.8 330.9 335 335.3 333.3 331.7 327.8 326.1 322.2 315.3 308.5 299.9 295.4 285.3 275.3 263.5 256.8 250.9 243.7 239 233.4 217.9 212.1 223.4 231.2 244.1 256.5 263.7 268.6 269.5 268 263.2 262.5 261.1 262.7 261.5 258.6 255.6 250.6 243.4 238 232.9 228.5 224.9 215.1 205.8 198.1 197.6 195.7 194.5 196 195 196.3 192.8 189.2 188.1 188.1 187.9 187.4 184.6 181.1 177.1 173.3 169.4 165.9 161.5 156.4 153.5 150.7 148.6 146.4 143.7 140.7 135.8 131 129 128.5 133.4 136.3 140.9 148 152.1 155.6 158.9 162.3 164.7 167.3 167.8 167.2 166.4 165.3 163.4 159.4 155.7 151.2 145.2 141.2 136.2 127.4 114.9 103.5 92.6 91 115.4 117.4 122.3 125.7 128.6 131.4 133.1 135.6 138.6 143 146.1 150.7 157.2 163.2 166.7 168.7 170 170.5 165.3 162.1 160.8 172.9 175.1 169.8 168.7 165.4 150.5 172.8 178 177.8 176.7 162.2 171.8 163.8 168.9 167.6 165 156.9 156.3 148.6 140.5 138.2 135.4 127.5 123 121.4 119.7 117.3 115.6 115.7 116.6 117 116 114.3 112.9 108.5 106.8 111.4 110.9 108.3 105.1 103.7 107.4 110.6 109.3
321.3 318.2 315.1 309.9 305.7 297.5 311.8 324.8 336.5 346.8 351.9 349.8 342.1 334.4 330.3 327.4 326.9 328.9 331.6 333.8 335.1 331.1 325 315.7 304.9 297.9 293.7 289.6 292.1 295.2 302.7 310.2 318.1 324.6 329 329.7 329.1 325.4 323.2 320.8 316.2 310.8 305.3 299.9 291.4 282.3 271.9 263.1 257.7 252.2 245.1 240.1 232.7 222 207.2 218.1 223.3 237.8 247.5 255.4 259.8 259.5 259 255.1 251.2 248.8 247.4 247.5 251.1 248.4 240.9 240.3 237.1 234.2 229.3 223.9 215.8 205.9 199.7 193.4 185.4 187.8 188.3 190.5 190.7 188.9 185.6 184 182.8 183.2 182.8 179.8 176 171.9 168.5 165 161 156.2 153 150.3 147.8 145.7 144 141.5 139.1 137.2 131.1 128.6 126.9 124.7 136.9 143 148.8 153.1 156.4 159.5 162 165.9 167.1 166.5 166.7 165.7 162.9 157.7 152 151.9 151.2 147.8 143.5 139.2 134.8 122.1 109.8 91.3 91.6 110.1 115.1 121.4 122.2 124.6 126.4 128.3 129.8 131.7 135.8 139.9 143.7 149.3 154.9 158.1 158.3 159.3 161 159.1 152.9 151.8 158.6 162.9 160.9 159.8 156.9 144.2 162.7 165.9 166.6 165.2 160.9 157.3 151.6 155.3 149.7 149.9 144.2 137.7 137.4 132.2 129.3 125.7 123.3 120.5 117.5 115.2 117.2 119.3 115.9 112 110.8 112.3 107.8 105.7 103.1 99.6 103.7 105.6 103.6 98 104.1 106.5 106.7 105.2
316.1 312.2 310.4 305.7 301.6 292.9 310.3 322.7 335 344.8 350.1 348.5 341.4 331.9 324.5 320.8 319 319.3 322 325.7 326.3 324.9 319.9 312.3 303.1 294.8 287.7 279.8 286.5 289.2 296 303.5 312.2 317.6 321.8 322.7 320.5 318.1 315.3 312.9 308.7 304.9 301.2 296.7 288.8 278.6 272.4 265.8 259.8 252.5 245.7 238.9 233.3 224.9 206.6 204.1 218.3 232.3 241.3 248.8 252.6 254.4 253 248.5 243.7 236.3 236.2 235.6 232.3 233.3 235 237.1 236.7 231.7 225.9 218.9 212.4 205.6 198.7 194.3 188.6 179.3 182.4 183.9 185.1 184.7 182.1 179.6 178.1 177.4 176.7 174.9 171.2 167.8 165 160.6 155.5 151.3 149.3 147.1 144.3 143 141.3 140 139.1 135.2 131.2 127.9 125.2 123.2 136 146.2 154.1 156.4 158.9 160.1 161.8 164.5 165.4 164.8 165.4 162.5 156 151.4 153.1 151.7 151.9 149.6 145.9 140 132.8 123.6 115 100.8 90.8 93.9 112.9 119.5 121 121.2 121.5 123.3 124.8 126.9 129.4 133.8 136 140.8 145.1 145.8 146.2 149.3 150.7 151.4 143.7 146 147.4 151.6 153.1 151.2 151.7 138.2 155 155.6 158.7 153.7 154.9 143 143 145.8 142.9 141.1 138.1 132.2 127.8 125.5 122.3 119.7 117.9 116 115.4 113.2 118.2 118.8 114.5 110.7 108.5 106.7 105.4 103.3 101.7 99.3 96.9 97.4 95.5 95.3 97.6 97.3 97.4 94.9
309.6 306.8 303.8 300.2 295.8 294.2 307.8 321.2 333.4 342.1 345.7 344.7 337.8 330 320.7 313.9 311.4 310.9 313.8 318.2 319.3 318.1 314.4 308.4 300.4 292.9 285.1 276.9 281.7 283 289.8 298.5 305.6 311.1 315.7 315.8 312.3 308.9 307 303.8 299.8 299.2 297.9 292.7 286.1 276.9 270.2 263.1 257.7 251.8 245 238 233.3 225.6 217.5 202 209.5 225.3 235.5 239.3 245.2 247.8 246.8 241.1 235.6 231.1 231.7 231.4 228 228.8 231.4 235.7 230.2 224 219.9 215.1 210.4 203.1 196.6 192.6 187.9 183.3 174.9 177.3 179.5 179.8 177.3 174.9 171.6 171 170.4 169.5 166.5 163.4 159.9 153.9 151.2 148 145.4 142.9 141.3 140.6 139.9 138.5 137 134.1 130.9 127.4 122.5 126.4 136.5 149.6 154.2 157.3 157.1 158.2 159.5 160.8 160.9 160.4 159.8 154.4 157.9 162.7 160.4 159.2 157.1 151.8 146.6 139.6 132.3 123.9 116.5 105.5 90.4 89.7 106 117.9 113.6 114.6 115.5 117.2 121 122.3 125 127.6 129.8 133.4 135.6 137.5 137.4 139.8 140.6 141 138 137.1 140.6 142.4 144 140.9 141.5 132.3 141.2 144.8 146.8 144.2 146.9 138.7 135.2 135.3 132.8 129.2 125.5 123.9 121.3 119.2 116.6 114.4 112.6 111.6 110.9 109.6 108.5 107.4 109 109.5 109.1 106.7 105.5 104.3 100.6 98.4 96.9 95.3 94 92.9 91.8 90.4 88.7 88.2
303.5 300.5 297.2 293.8 285.7 296.3 306 318.3 331.8 339 341.5 340 334.7 326.5 317.5 310.6 304 303.8 306.4 310.1 311.3 312.3 309.2 303.6 297 290.6 281.8 276.6 276.2 278.5 284.5 292.8 298.5 304.6 306.1 304.2 301.5 300.6 296.8 294.5 293 292.1 291.1 289 284.4 277.6 270.2 264.3 256.8 250.6 246.1 238.6 232.1 225.9 216.6 205.9 204.9 217.1 227.4 233.7 238.5 238.9 237.6 232.2 227.6 225.8 225.6 224 222.5 223.8 228.8 222.9 222.1 219.4 215.8 213.7 206.3 201 194.7 190.4 186.7 180.2 176 168.3 172.3 172.7 172.6 170.2 166.6 165.2 164.7 163.4 160.3 157.2 153.2 149.8 147.3 144.6 141.9 140.8 139.4 138.9 138.1 136.9 135.6 132.9 130.3 126.9 123.5 120.8 137.7 144.1 149.2 152.2 153.8 155.1 157.3 157.5 157.6 156.5 158.9 163.4 165.6 167.8 167.1 164.3 160.2 152.9 147 139.2 130.6 123.3 116 108.6 93.9 89.5 90.4 105.1 106.1 106.3 109.1 112.3 115.3 117.5 119.7 121.5 123.9 127 128.8 130 129.9 131.9 132.4 133.9 133.3 127.1 132.9 136.2 137.6 136.8 134 131.2 124.8 129.9 131.9 131.3 131.2 127.7 128 126.7 125.8 123.8 119.6 118.1 114.5 111.9 111 107.4 105.9 105.4 106.1 107.7 109.8 112 111.9 110.6 109.3 107.4 106.3 104.4 100.1 97.9 96.1 94.7 93.4 92.2 91 89.3 88.1 87.2
297.7 295.5 291.6 289.8 279.7 294.2 307.3 319.4 330.3 335.3 336.4 336.6 331 321.9 312.2 304.5 296.3 298 299.3 302.2 304.4 304.4 303 298.5 293.6 286.1 279.4 271.5 271.6 274 279 286 291 295.3 295.6 292.7 291.2 291.1 288.2 287.2 288.4 287.4 285.8 283.8 280.3 277 271.6 263.7 256.2 249.8 244.7 237.5 232.1 224 215.7 198.8 196.1 209.9 220.7 228.2 230.3 230 228.3 224.2 221.1 220.2 219.7 218.5 217.2 217.3 215.8 213.2 215.6 216 214 210.1 202.8 197.9 193.5 189.7 184 180 175.4 169.9 166.3 166.3 167.2 165.5 162.7 160.5 158.4 157 154.5 151.1 148.5 146.3 144 141.5 139.2 138.6 138.2 136.2 136.3 135.5 134 131.8 129.1 126.3 122.3 118.6 132.9 139.6 144.5 147.4 149.7 151.2 154 155.2 155.6 159.2 164.6 169.2 171.7 174.6 173.9 168.3 164.3 156.3 147.4 138.9 129.8 122 115.2 105.9 99 88.9 88.4 93.8 99.3 102.4 104.8 108.2 109.8 111.9 115 116 118.3 120.9 122 123.2 123.6 124.5 126.1 126.7 127.3 122.5 124.9 129.3 130.5 128.5 124.8 123.2 120 119.6 120.1 121.1 120 120.7 121.3 120.2 119.5 118.7 116.9 116.3 115.4 108.1 102.9 103.1 109 110.7 110.7 110.4 110.9 110.6 109 107.7 105.9 104.5 103.1 101.5 98.9 96.4 95.1 93.7 92.5 91.5 90.9 89.7 89.3 86.9
291.9 289 286.4 279.8 282.6 296.3 308.6 319.7 330.9 338.6 340.2 335.5 328.5 317.6 311.5 302.3 295.2 291.5 292.2 293.9 297.2 298.9 297.1 294.2 289.3 283.6 277.5 264.6 265.3 269.8 272.8 279.3 283.2 285.7 285.8 285.5 282.5 281.3 281.1 280.9 282.2 283.3 280.3 277.3 276.7 275.3 270.5 264.2 257.9 250.9 244.5 238 231.6 224.7 215.5 207.3 198.6 196.5 214.6 222.1 223.9 225.5 224.2 220 216.5 214.6 214.1 212.9 211.5 209.8 209.9 209.8 209.6 208.6 207.1 204.3 200.8 197.4 193.4 187.5 182.1 177 172.7 168.9 159.3 161.4 162.4 162.5 159.6 156.2 152.8 151.5 148.8 146.8 145.1 143.1 140.9 139.3 136.9 136.5 135.7 135.8 135.2 134.2 132.3 130.5 128.7 125.3 121.5 118.6 129 135.6 139.7 142.8 145.7 148.2 150.8 153.9 156 161.8 168.9 172.8 177.9 180.7 176.4 169.8 164.1 158.4 145.6 138.5 129.4 120.1 109.9 102.1 99.5 89.8 87.5 86.4 94.3 100.1 102.8 107.4 108.7 108.6 110.9 112.6 114.1 115.3 116.1 116.5 116.1 116.5 118 118.5 120.8 118.9 116.8 118.3 119.1 118.3 116.6 115.3 115.2 113.4 113.4 113.6 113.5 114.8 115.7 115.2 115.1 114.8 114.8 113.6 110.3 100.6 104.4 110.9 109.9 108.6 108.6 108.3 108.2 107.1 104.8 103.1 101.1 100.6 99.5 98.4 97.1 95.4 94 92.7 91.8 91.2 90.6 89.2 87.7 85.9
285.8 284.3 279.4 272.9 284.7 294.5 308.4 321 332 339.1 342.3 337.5 331.5 323.7 313 302 293.2 285.5 286.6 287.5 289.2 290.2 291.2 288.8 285.9 281.1 274.1 266 255.3 263.7 267.9 271.8 275.5 277 277.4 277.8 276.4 274.1 273.6 274.1 274.1 275.8 273.3 272.3 272.3 271.1 268.8 265.6 261.5 256.3 248 239.3 232.2 224.5 215.8 208.5 201.4 189 206 216 221 223.8 220.6 215.8 211.9 211.2 210.3 208.1 206.1 204.5 204.3 203.7 203.7 203.6 203.7 201.6 199.1 195 189.6 184 179.8 173.7 169.7 166.2 160.2 157.2 159.4 158.4 155.6 152.1 149.6 146.8 145 143.7 142.1 139.8 137.4 136.3 135.1 134.8 135.1 135.5 134.1 132.4 131 128.7 126.5 124 119.8 116.2 126.5 132.1 135.6 138.7 141.9 145.4 150.3 154 159 164.6 171.8 178.3 182.9 181.5 176 169.3 160.3 152.5 144 137.7 128.2 119.3 108.2 102.5 99.3 94 88.5 87.1 89 96.2 101.4 106.2 107.4 106.8 108 109.4 108.9 110.2 110.8 111.3 110.9 110.5 110.9 110.3 111.9 111.7 110.3 110.8 110.3 110.3 110.6 109.5 110.1 109.5 108.2 108.1 108.7 109.8 110.1 109 109.3 109.8 108.3 107.3 100.9 101.2 107.4 107.7 107.1 106.8 106.5 106 104.5 102.9 99.9 98.9 98.7 98.2 96.9 94.9 94.1 93.4 93.4 92.5 91.6 91.1 90.3 89.2 87.1 86.3
280.5 280.2 276 270.6 285.1 300.1 314.7 326.2 335.3 341.8 344.7 341.9 333.8 324.5 313.1 303.5 292.5 286.6 280.5 281.1 282.3 284.2 284.7 283.6 282.1 277.4 270.9 265.4 254.9 257.5 262.2 267.1 269 270.8 270.7 270.4 270.6 268.6 267 267.4 267.1 267.9 269 267.6 267.3 267.4 265.8 264.4 262.1 258.3 250.9 240.5 234.1 224.5 216.8 207.5 200.2 189.8 194.2 208.4 217.9 219.5 216.8 212.4 208.4 207 205.9 204.3 201.8 200.5 200.8 200.4 200.3 200.1 201 199.4 195.7 191.5 185.4 182.1 176.6 171.7 168.2 163.7 159.6 152.6 153.2 153.1 150.4 148.3 146.2 143.6 142.4 140.6 138.8 136.4 134.8 133.7 133.7 133.6 133.7 132.5 133.6 131 129.5 127.6 125.9 120.4 117.8 114.2 124.7 128.9 132.2 136.4 140.4 145.3 151.8 157.3 162.5 166.9 176 180.5 182 179.9 173.7 166.2 157.1 150.7 142.7 135.1 126 118.8 108.5 102.2 99.8 95.5 89.1 86.5 85.8 89.3 98.4 101.5 103.8 103.6 103.2 104.1 105 105.6 105.9 106.2 105.9 106.2 106.7 107 106.7 107 106.1 105.5 105.1 105.2 105.7 105.2 105.5 103.7 103.2 102.4 104.3 105.8 105.8 104.4 104.8 104.3 102.4 97.8 100.5 106.1 105.4 105.5 105.3 104.7 104.2 103 100.2 98.8 96.8 95 93.7 91.4 91.5 93.3 92.6 92.4 92.8 93.1 92.8 92.8 91.8 90.5 89.2 88.7
276.5 275.9 268.9 271.5 288.7 306.7 318.4 330 338.6 345.1 347.3 345.5 338.7 327 317.2 306.1 294.7 286.3 279.8 276.9 275.8 276.3 278.6 278.7 277.3 274.3 268.5 262.8 256.1 251 254.9 261.5 263.4 265 264.8 264.3 264 263.9 260.7 259.6 259.4 261 262.9 263.3 261.4 262.9 263.3 262.1 260.4 257.3 251.4 242.4 234.7 226.2 217.5 209.9 203.5 196 186.1 200.3 211 213.5 213 209.2 205.6 203.3 200.2 199.1 198.9 198.6 197.6 197.4 197.4 197.3 195.3 194.1 190.3 187.1 182.5 178.7 174.5 170 165 160.6 155.4 151.5 146.2 147.2 145.6 144.7 142.5 140.6 139 137.6 136 134.3 132.7 131.9 133 133.1 132.5 131.9 131.4 129.9 128.1 126.3 124.6 121.7 118.1 115.6 125.2 129.5 131.9 136.2 140.8 147.8 154.3 161.4 166.1 173 178.8 180.4 179.6 176.2 170.3 162.5 155.9 147.7 139.6 130.9 123.9 118.9 112.2 101.2 97.4 96.2 92.9 87.2 86.5 84.5 93 96 96.4 97.9 99.5 101 101.8 102.4 102.7 103.2 102.8 103.6 103.8 103.8 105 104.8 101.8 100.4 101.3 102.7 101.8 100.7 100.8 101.1 99.3 98.9 101 102.2 101.7 100.7 100.3 100 95 98.4 103.7 103.5 102.8 102.3 102.2 102.3 101 98.1 96 93 90.3 88.6 88.9 90.2 91.9 91.6 92 93.3 93.3 93.4 93.4 92.6 91.5 90.6 89.6 88
271 271.7 260.8 273 289.6 307.9 323 333.4 342.6 349.9 350.3 348.2 342.2 334.4 323.8 311.2 298.6 286.1 278.8 270.5 270.5 271.1 270.6 272 270.3 268.1 265.4 259.9 254.5 239.9 246.1 253.6 258 259.5 259.7 259.1 257 256.2 255 252.8 252.6 252.3 254.1 253.9 254 255.9 259.1 258.6 257 254.5 249.5 242.8 234.2 226.9 219.1 210 203.4 196.9 179 191.2 204.6 207.4 207.6 204.6 202.1 198.9 196.2 195 194.6 193.4 192.3 193.5 194 192.5 189.9 187.4 184.4 182.3 179.4 175.8 171.5 167.6 162.8 157.5 153.2 149.1 144.6 141.5 141.3 141.5 140.6 138.4 136.3 135.3 133.8 132.1 130.8 130.7 132 131.9 131.1 130.6 129.9 128.8 127.4 125.6 123.2 121.6 115.8 114.8 124.7 129 132.3 138.2 145.2 150.9 158.9 165.2 169.4 174.6 180.2 179.6 176.5 171.5 165.6 158.9 151 142.9 135.7 127.2 120.9 117.4 109.5 101.2 96.8 95.5 94.2 86.6 86 85.1 83.1 87.8 94.2 96.9 97.3 97 99.1 99.9 99.2 99.7 99.6 99.5 99.6 99.9 100.9 99.6 98.2 97.3 99.6 98.1 96.9 96.4 96.6 97.8 96.7 97 97.5 98.5 98.7 99.3 95 94.9 91.4 95.8 98.2 97.9 98.6 98.9 98.6 96.1 92.5 90.4 87.9 86.4 85.5 86.9 89.6 90.3 90.8 91 93 93.1 93.6 92.9 92 91.4 89.9 88.4 88.2 87.7
265.9 263.1 261.6 273.2 291.3 311.2 326 335.4 344.6 350.1 353.1 352.1 345.5 339.6 329 317.2 304.3 290.3 280.8 272.9 263.3 264.8 265.3 265.3 264.2 263.4 261 256.6 251.4 239.7 237 247.6 252.2 253.4 253.9 253 250 248.2 247.6 246 245.6 245.1 245.7 246.2 245.7 247.8 251.2 251.2 251.2 251.2 248.5 243.3 237.3 228.4 220.9 212.6 204 195 188 182.3 195.9 200.6 202 200.9 198.8 195.6 193.3 190.6 189.2 186.9 187.9 190 187.3 186.3 184 180 177.9 177 173.1 171 167.6 164 159.5 155 150.5 146.3 142.4 139.9 137 137.4 137.1 135.1 133.6 132.4 131.9 130.6 129.1 129.9 130.8 130.4 129.7 129.3 129.6 128.8 127.1 125.4 124.2 122.1 118.7 113.6 124.4 128.4 132.7 140.3 147.9 156.5 164.3 167.5 171.9 174.5 176.7 176.6 172.2 166.8 160.5 153.4 145 136.9 129.1 123 118 116.4 107.8 99.9 95.8 95 94.5 88.3 85.6 85 83.6 82.2 93.7 95.2 94.9 94.3 96.2 97.8 96.3 95.2 95.3 95.4 95.2 94.4 95.1 94 93.9 94.6 93.8 91.9 92.4 93 93.7 94.6 94 93.6 94.4 95.1 92.9 91.7 89.9 88.1 90.4 92 91.9 89.8 92.3 93.3 89.7 85.3 84.1 83.8 83.7 84.1 85.2 87.3 89.2 90.6 90.9 90.8 92.3 92.2 91.7 91.2 90.6 90 89.2 89.5 89.4 88.4
262.3 251.3 265.9 278.3 296.2 313.5 324 334.7 341.5 347.1 349.9 350.9 346.2 340.8 331.7 321.7 310 297.5 284.4 275.4 267.7 260.6 260.2 259 258.6 257.7 256 252.8 249.1 243.3 230.6 242 245.7 246.7 247.6 246.4 243.5 239.2 238.9 236.8 234 234.6 237.3 238.2 237.3 240.3 243.1 246.6 248.3 249.2 249.5 247 241.3 231.3 222.7 213.1 204.4 194.4 186.2 173.3 186.6 193.8 196.4 196.4 194.9 192.3 189.1 184.2 183.1 180 181.2 183.5 181.5 179.6 176.7 174.7 172.3 168.6 166.3 164.2 161.9 159.7 156.2 151.7 148 144.3 140.6 137.2 135.4 133.6 132.8 132.4 131.2 130.5 129.1 127.5 126.4 127.4 127.8 127.9 127 127.1 127.9 127.3 125.2 123.7 122.3 121.7 117.9 111 123 127.2 133.3 142 152.8 162.6 167.1 169.7 172.5 174.6 172.9 171.4 167.2 161.6 154.7 146.1 137.1 128.8 120.3 116.5 116.7 110.9 104.5 97.9 95.3 95.5 94.5 89.7 85.1 85.7 84.5 84.8 90 90.6 90.4 91.1 92.3 91.8 91.6 91.7 90.6 92.3 90.4 88.8 91.2 90 90.8 91.7 91.3 89.4 89.6 90.6 91.1 92.2 91.4 91.1 91.2 90.2 88.6 87 86.6 87.2 89.6 90.7 90.1 84.2 83.8 82.7 83.1 83.2 84.7 88.4 88.7 89.4 89.9 89.9 89.3 90.3 91.2 92 91.9 91.1 90.8 90.6 89.6 89.4 90.1 90.3 89.7 88.5
256.9 253.3 267 285.1 296.8 311.1 319.7 328.1 332.6 337 341.2 344.1 343.3 339.5 333 325 314.3 303.8 293.3 280 270 262.4 249.6 255 254.2 252.1 250 248.1 245.2 240.8 230.3 235.2 238.6 241.8 241 238.3 235.9 231.3 230.2 228 224.5 225.9 226.8 228.5 232.2 234.4 237.1 240.8 244.8 250.4 252.9 250.6 245.1 236.9 226.2 217.4 205 195.1 186.6 175 176.6 182.5 189.1 189.8 189.4 187.4 184.9 178.6 177 175.2 173.2 173.3 173.5 171.8 170.3 167.1 165 162.4 159.8 157.3 155 153.3 150.5 148.5 145.3 141.4 138.2 135.4 133.3 131.3 130.5 130.4 130.2 128.5 126.8 126.1 124.4 123.5 123 123.3 121.7 122.5 123.6 123.4 123.1 122.4 121.5 121.4 116.3 109.6 121.3 126.6 134.4 144.7 156.6 163 166.7 169.3 171.1 170.7 169.2 166 158.7 155 147.8 138.8 128.4 120.4 112.5 103.9 104.2 102 99 95.9 94.1 94.4 93.6 88.4 84.8 84.2 84 83.7 81.5 88.3 88 88.8 88.5 88.3 88.6 87.5 88.2 85.6 84.1 84.3 85.1 86.9 88 87.3 88.6 88.2 88.4 89.7 90.9 90.8 90 88.8 88.4 88.1 86.5 85.2 85.5 85.8 85.3 84.3 83.3 82.3 82.7 82.7 83.4 89.1 91.1 91.6 91.4 90.9 90 89.2 89.4 89.8 91.5 91.3 90.7 90.1 90.1 89.2 88.8 89.3 89.6 89.4 88.3 87.2
244.3 257.2 272.5 284.7 297.4 303.7 310.3 317.8 322.8 327.9 334.5 337.8 338.4 336.3 331.1 324.9 316.9 308.7 297.7 287.5 276.2 265.4 258.7 243.7 246.1 247.9 245.6 241.9 240 238.1 234.1 220.1 231 233.7 233.5 230.3 227.5 224.6 223 220.4 213.2 216.7 219.2 219.6 224.5 227.2 229.7 235.9 243.6 250.2 254.2 253.4 247.8 238.1 227.9 216.6 207 197.2 187.7 177.6 163.5 172.2 179.1 183.1 183.1 181.7 178.3 173.9 171.1 169.3 167.2 166 164.8 163.7 163.4 161.1 157.5 155.6 153.5 151.2 149.9 148 146 143.4 140.9 138.8 136.2 133.1 131.2 129.7 127.8 128.2 128.3 126.6 126.5 125.9 124.8 123.9 122.6 120.9 118.2 117.8 115.1 114.8 119.3 120.4 120.2 120 116.1 108.6 120.3 125.4 135.9 147.8 154.7 159.6 163 166.5 168.3 165.8 162.4 158.8 153.9 146.9 137.7 128.6 119 112.6 104.7 100.7 94.2 92.3 92.4 94.1 93.4 93.2 90.3 88 86.1 83.8 84.5 84.1 82.8 82.7 85.5 86.5 85.6 86.7 86.2 86.3 84.2 83.2 83.2 83.9 85.6 86.5 86.4 86.6 88.3 88.4 88.9 90.3 91.2 91.5 90.2 87.5 86.6 86 84.5 83.6 84.2 84.5 84 83.2 81.8 81.6 81.7 83.2 88.9 92 91.9 90.2 90.8 90.5 89.6 89.4 89.3 89.5 90.1 89.7 88.6 88 87.9 87.8 87.9 88.1 87.3 86.7 86.2 84.7
250.2 260.9 272.1 282.4 290.3 293.4 299.8 304.9 310.5 317 323.4 327.4 331.3 330.7 329.7 324.6 317.3 308.3 299.5 291.5 283.8 278.1 265.9 255.1 243.1 244.7 232.7 230.2 227.4 219.8 219.6 218.4 220 224.5 224.8 222.4 220.1 218.7 215.2 211.7 205.8 208.9 212.7 213.4 217.3 219.8 224.9 230.6 240.3 248.1 250.6 250.8 245.7 238.6 226.9 216.4 205.2 196.9 188 179 164.2 165 170.7 176.8 177.3 175.9 173.6 170.1 167.8 164.8 162.4 161.9 159.3 158.3 157.2 154.5 152.4 150.6 148.5 146.6 146.4 144.1 141.3 138.6 137.2 135.8 132.9 129.7 128.5 127.6 125.7 125.6 126 126 126.2 124.3 123.7 123.2 123.2 122.9 121.6 122.9 122.2 117.7 112.8 116.2 116.2 116 115.2 107 118.7 126.8 139.8 148.3 151.6 156.2 160.4 165.2 163.8 161.2 156.6 153.6 144.3 135.5 124.9 118.2 113 106 105.9 107.1 92.1 89.4 88.5 88.1 88.5 88.5 87.7 87.2 86.1 83.6 84 83.5 83 82.3 82 82.2 82.6 82.8 83.6 81.4 82.6 82.1 83.1 84.6 85.8 86.5 85.9 87 87.8 88.9 88.8 88.8 89 87.1 85.6 85.2 85 83.4 82.6 82.1 82.9 83.3 82.8 82.1 81.2 81.8 85.5 88.6 92.1 93.1 89.5 88.9 90 89.8 89.1 89.7 89.8 89.5 88.3 87.7 86.6 85.6 85.7 86.4 86.1 85.5 84.9 84.1 81.9 80.6
251.3 259.6 267.7 275 282.9 286.3 290.3 294.5 301.3 309.9 314 320.3 326.9 328.9 330 325.8 318.2 308.4 300 293.2 287.4 286.4 277.6 257.9 255.5 252.4 248.4 243.4 239.5 234.1 229 222.6 218.5 203.9 214.3 210.4 212.4 202.6 206.8 203.2 198.6 200.5 201.2 205.3 208.8 211.7 215.5 223.2 232.6 240.5 243.9 245 242.5 234.6 224.8 215.2 204.6 197.4 187.8 179.1 170.6 160.1 163.1 168.2 170.2 169.5 167.7 166.5 163.2 159.7 159.1 157.9 154.5 152.7 151.4 149.4 147.9 146.1 144.7 144.5 142.2 140.4 137.8 135.9 133.4 132.1 128.2 127.7 127.2 125.2 124.9 122.5 122.7 123.8 124 123.9 123.1 124.1 123.9 123.7 120.7 120.6 121.9 121.3 117.6 109.8 113.5 114 110.1 104.8 117.7 127.2 135.9 141.8 148.1 152 157.1 160.4 159.4 155.4 148.6 140.1 130.5 124.3 116.7 112.1 106.7 100.4 101.5 96.8 89.4 88.8 90.5 87.4 87.1 86.8 85.6 85.4 84.2 83.7 83.4 83 82.5 82.1 81.4 81.7 81.4 80.9 81.3 83.7 82.1 82.5 84.2 85.9 86.1 86.5 86 86.3 86.9 87.1 86.7 85.1 82.9 82.1 81.9 82.9 83.4 82.2 80.7 81.3 81.8 81.9 81.4 81.6 82.2 83 86.2 89.1 90.1 87.9 87.5 88.8 88.7 88.5 88.2 87.8 88.5 89.2 87.3 85.7 84.7 84.3 84 83.7 83.9 83.1 82.3 81.3 79.5 78.8
248.5 256.8 265.4 270.5 276.1 279.6 281.8 285.5 292.6 301.6 309 313.6 323.1 326.5 327.9 324.5 316.7 309.9 294 291.6 286.1 283 274.7 274.4 264.3 257.7 255.9 252.9 247.4 241.2 235.2 232.2 227.8 223.3 217.8 208.4 191.9 189.5 184.9 187 186.4 189.1 188.2 195.3 202.4 204.1 209 215.3 224.1 231.2 235.5 235.5 233.6 227.9 219.2 211.3 205.2 197.4 189.1 180.1 172.1 165.5 154.7 158.8 162.3 163.2 163.2 162.1 159.6 156.4 152.7 153.2 150.5 148 146 145.3 143.4 142.4 141.6 141.1 138.7 136 134.6 132.6 130.4 129 127.4 126.2 125.6 123.7 122.1 121.4 121.3 122.6 122.7 122.9 123 124 123.7 123.5 121.5 119.3 120.1 120.9 120.3 115.5 106.6 106.1 103.6 115.9 119.2 125.6 130.2 136.4 144.3 149 152.6 153.5 150.2 144.4 137.3 125.6 119.8 113.1 109.2 106 102.4 97 93 90.3 87.3 87 87.4 85.9 86 86.1 86.2 85.4 83.3 83.3 83.1 82.8 82.3 81.8 81.2 80.9 80.5 79 80.1 82.8 81.4 83.6 85.6 86.6 87.6 87.4 86.4 85.4 83.6 82.9 81.1 80 79.7 80 80 80.1 80.5 81.1 80.8 81.1 81.5 81.4 81.1 81.5 82.2 83.8 85.3 87.3 86.5 87.5 87.5 87.3 86.2 86.4 86.1 85.9 87 87.3 85.5 84.3 83.3 82.9 82.9 82.6 82.1 81.4 80.8 80.2 78.4 76.9
243.5 251.9 258.8 263.3 267.9 271.3 275 279.4 285.4 291.5 300.5 309.4 314.9 316.1 317.4 313.4 311.4 308.5 302.1 295.7 289.9 285.5 279.2 281.3 274.4 270.4 270.7 267.3 260.5 251 244.8 240.2 236.1 233 232.3 218 208 204.5 195.3 190.8 178.5 176.5 172.5 185.6 191.5 195.8 200.3 205.7 214.6 222 224.3 226 227.6 224 217.5 211.1 204.9 197.7 189.2 179.2 171.7 165.8 158.3 151.5 153.7 157.3 158 157.6 156 151.6 147.9 146.1 145 144.1 142.8 141.3 139.6 138.4 138.2 137.2 134.1 131 127.9 127.7 126.8 127.5 125.4 124.7 124 122.9 121.2 120.3 118.2 121.6 121.9 121.7 121 122.1 122.3 122.2 121.4 119.4 117.3 118.6 119.4 117.6 102.8 102.5 112.4 119.2 119.6 123.2 125.8 132.7 139.3 146.4 147 145.4 137.8 132.7 121 115.3 110.6 107.6 103.5 99.9 96.8 92.8 89 87.3 85.3 84.4 83.4 84.5 86.7 86.4 86.4 86.2 82.2 82.8 82.6 82.4 81.9 81.3 80.7 80.3 79.9 79.3 78.8 81.2 80.7 83.8 84.3 84.8 88.8 88 85.1 81.2 80.3 80.5 79 79.7 79.9 80.6 81.1 81.9 82.1 81.2 82.1 82.1 82.1 82.5 82.5 83.3 84.4 85.4 86.4 86.1 85.9 86.5 85.5 84.3 83.7 83.8 83.9 83.9 84 83.5 82.7 82.2 82.8 82.8 81.9 81.6 81 80.3 80.1 79.5 77.1 75.5
236 242.7 249.4 255.6 259.5 265.3 270.7 276.5 281.5 286.9 295.9 308.1 317.7 323.1 326.2 324.4 317.9 310.1 304.1 296.8 292.7 287.2 282.1 286.2 281.4 282.5 282.7 280.9 273.3 265.1 256.6 252.5 248.8 246.2 241.4 237 230.8 225.5 225.1 216.1 206.3 196.8 178.2 171 180.2 186.6 190.7 197.4 204.2 212.9 217.6 220.7 221.2 217.2 212.8 208.4 201.9 196 188.4 178.9 171.1 165.7 158.7 151.7 144.8 151.4 152.6 152.4 151.4 148.1 144.4 141.8 139.7 140.3 137.6 137.9 136.7 134.7 134.9 134 131.4 128.6 126.6 125.3 124.7 124.5 123.4 123.6 123.4 123.2 120.9 119.6 117 119.7 120.7 120.3 119.4 120.1 121.2 120.9 120.1 119.6 117.8 116 117.3 116.6 102.8 101 111 117.7 120.6 119.1 121 126.9 136.5 141.5 139.7 132.3 123.6 120.3 111.7 108.8 104.9 101.7 98.3 95.4 93.3 89.4 87.5 84.8 82.9 83.6 84.7 84.7 86.5 86.3 85.7 84.3 81.4 81.9 82.2 82 81.6 80.8 80.2 79.7 79.4 79.7 78.6 78.7 80 83.2 84 82.8 82.3 81.4 79.9 78.4 78.7 79 79.2 80.1 82 83 83.1 83.6 83 85.4 85.2 85 85 84.8 84.1 84.7 85.5 86.4 86 85.4 84.5 83.4 82.3 81.9 82.3 82.6 82.5 81.3 80.1 78.7 78.7 81.2 81.9 81.3 80.9 80.3 79.7 79.2 78.7 78.2 76.2 74.3
