ncols 200
nrows 82
xllcorner 360000
yllcorner 140000
cellsize 50
98.8 99.7 100.2 106.1 118.2 125.2 132.7 138.9 140.8 134.1 132.9 134 134 135.9 138.4 139.1 140.4 140.4 136.3 131.3 128.5 126.8 125 122 116.3 119.5 116.9 111.8 111 112.2 116.1 124.3 130.3 133.7 136.9 139.7 139.8 138.8 132.6 139.8 158 161.1 162.2 164.3 167 169.2 171.3 173.2 175 176.6 177.6 178.7 181.8 184.1 186.1 188 189.2 189.9 190.1 190.4 191.4 192.6 194.8 197.2 199.4 200.8 205.7 209.6 211.1 211.2 210.6 213.5 214.4 214.5 214.1 213.2 211.3 213.7 216.6 218.3 220.8 222 222.8 224.4 226.1 228 229.2 229.9 228.6 225.5 222.7 221 219.7 219 218.9 218.8 219.4 221.1 221.9 222.1 221.5 223.5 225.1 225.9 226 227.6 228.2 228.2 227.6 226.8 226.5 226.2 226 225.6 224.9 224.3 224.2 224.4 223.9 222.8 221.2 219.2 218.2 218 217.6 217.1 216.5 216 215.5 214.8 214.4 213.6 212.3 210.8 208.7 206.3 204.5 202.8 201.1 198.8 195.6 192.5 189.3 187.6 187.6 185.4 186.6 186.5 187.6 189.6 189.7 191.2 193.8 194.8 194.7 194.6 194.4 193.4 193 191.8 192.5 193 193 192.2 191 189.7 187.8 186.5 185.9 185.4 185.5 184.9 186 187.6 189.7 194.3 199.9 207 213.2 224.6 237.6 238.1 235.2 223.9 190.7 193.5 184.7 183.7 182.5 182.1 178.2 177.8 176 163.2 176.2 180.2 186.9 199.5 197.6 190.9
91.1 91.1 91.6 94.5 99.1 105.5 111.2 117.5 120.2 121.9 124.7 126.3 126.3 128.3 130.2 131.1 132.3 131.3 128.5 125.7 120.9 117 113.8 113.5 110.8 111.1 109.3 112.7 117.1 119.8 112.8 115.3 123.4 129.3 133.1 134.6 132.8 130.4 133.4 141.8 147.8 152.6 157.6 161.5 163.1 166.3 168 169.9 171.5 173.1 174.4 175.4 177 179.2 180.9 181.1 181.6 182.4 182.9 182.8 183.9 185.4 188.9 190.4 195.8 199.2 203.8 206 206.6 206.2 206.4 208.8 209.4 209.6 208.4 206.3 207.6 211.4 214.3 216.5 218.8 219.5 221.4 223.2 224.2 226.5 226.9 226 224 221.9 220.6 219.2 217.9 217.5 217.4 217.6 219 221.2 223.1 224.7 225.3 225.6 226.3 227 227.6 227.9 227.5 227.1 226.5 225.2 224.5 224.3 224.6 224.3 223.6 223 223.1 223.2 223 221.8 220.1 218.1 216.2 216 215.9 215.2 214.7 214.3 213.9 213.3 212.4 210.8 208.8 206.3 204 201.6 199.3 197.6 196.1 194.1 192.1 189.5 186.5 186 184.7 185.3 185 185.5 186.3 186.7 187.2 188.8 191.5 191.8 191.7 191.5 191.1 190.4 189.7 189.2 189.5 189.7 189.3 188.4 187.2 185.7 183.4 178.8 181.5 180.7 180.4 179.9 180.1 180.9 182.8 184.3 187.9 191.2 196.8 207 216.2 226.3 233.1 227 215.6 203.5 190.2 184.4 184.2 183 172.9 179.3 164.9 162.1 177.2 197.4 203.3 183.2 189.6 187.5
87 88.2 87.5 87.6 88 91.4 92.2 96.1 100.1 104.6 109.9 114.3 113.3 117.7 120.3 121.3 122.4 122.1 120.7 116 109.1 104 106.1 107.5 108 109.6 116.5 123 124.6 125.9 124.6 115.6 117 125.6 129.9 130.9 128.4 125.7 131.9 138.4 141.9 146.1 151 156.5 158.8 161.1 164.3 165.7 167.8 169.7 170.7 171.4 171.7 173.8 174.8 174.8 174.6 175.2 175.8 175.1 175.4 177.1 180.8 187.4 191.7 195.2 198.4 200.6 201.2 200.8 202.1 204.2 203.5 201.4 201.8 206.7 210.9 212.4 216 217.7 218.5 220.3 222.2 223.5 224.5 225.4 226 223.8 222.4 219.9 218.7 218.3 217.4 215.4 215.4 217.3 219.9 223.1 224.9 226.8 227.9 227.9 227.6 227.6 227.2 226.8 226.5 226 225.4 224.1 222.8 222.4 222.9 222.9 222.4 222.1 222.1 222.1 221.3 220.1 218.6 217.1 215.1 213.5 214.3 213.3 212.7 212.3 211.9 211.7 210.1 208.3 205.4 202.1 199.4 196.9 195.1 193.4 191.7 189.3 187.9 184.9 184.3 184 184.8 184.8 184.5 183.9 183.8 184.1 184.5 186 187.7 188.3 188.7 188.7 188.6 188.2 187.8 187.2 186.5 186.4 185.6 184.6 183.2 181.7 178.8 178.8 177.6 176.8 176.2 175.9 175.5 175.7 176.6 178.5 179.6 181.6 184.6 190.9 198.8 205.6 212.9 223.1 222.7 216.5 211.5 184.8 183.3 165.7 161.6 165 163.8 163.3 200.5 201 175.1 162.2 191.1 179.1
91.4 92.3 95.8 99.3 100 98.2 95.3 93.4 92.1 94.6 93.6 94.4 96.9 97.4 99 101.9 103 104.4 105.3 103.1 103.9 108.6 115.8 115 111.2 119.2 126.5 128.2 129.3 129.8 130 126.4 116.3 119.9 127.5 129 124.3 127.9 131.5 134.1 137.9 141.1 145 151.4 155.2 157.1 158.8 160.7 163.9 165 165.6 166 166.3 167.1 168.1 168.9 169.2 169.3 169.2 167.8 167.8 170.6 177.3 182.3 185.9 189.2 192.2 194.9 195.3 194 195.8 195.5 196 198.2 203.8 208.1 211.5 215 219.1 221.8 223.5 224.6 226.2 227.3 228 228 228.3 226.6 224.3 222.6 221.5 220.1 218.4 215.9 213.1 218.9 222.8 225.2 226.2 227.5 227.3 227.4 226.7 226.1 225.7 225.3 224.7 224.1 223.7 222.7 221.5 220.7 221.5 221.3 220.7 220.8 220.4 219.6 218.8 217.9 216.5 215.2 213.9 211.1 211.4 211.4 210.9 210.3 209.9 209.6 207.8 205.4 202.1 198.6 196.1 193.6 191.5 189.4 187.4 187.4 187.2 186.9 185.6 184.7 183.6 183.6 183.1 182.7 182.3 182.1 181.9 182.8 184.1 185.3 185.8 186.6 186.6 186.3 185.9 185.4 184.3 183.3 182.6 181.5 180 178.8 178 175.9 174.7 173.9 173.4 172.4 172 171.6 171.3 171.8 172.7 174.2 176.4 180.2 178.2 189.8 197.9 206.9 213.4 217.8 208.5 193.4 166.2 165.6 165.2 168.1 185.7 199.5 207.1 180.4 163.4 161.5 183.1 198.2
102.2 109.8 123.5 129.5 128.3 126.8 118.8 106.2 101.3 101.7 107.6 106.7 102.8 100.5 101.7 102.7 104.9 105.4 107.3 110.3 117.3 121.6 124.1 124.6 115.7 119.4 129.4 130.8 131.4 132 132.3 130.7 122.4 117.8 118.3 120.6 120.8 125 129.7 131.6 134.3 136.7 140.4 144.2 148.9 149.1 152.6 154.7 157 159.2 159.9 160.1 160.3 161.5 163.3 163.9 164.4 164.4 163.2 161.6 162.3 166.7 172 176 179.2 183.1 185.5 186.4 186.7 186 187.3 191.6 196.9 201 205 209.6 216.4 221.5 225.9 227.9 229.4 230 229.7 230.4 230.6 230.5 229.9 228.5 227.1 225.8 224.7 222.9 220.9 216.9 214.5 219.4 222.3 223.6 224.5 224.8 226 226.1 225.2 224.6 224.1 223.6 222.7 221.8 221.8 221.1 220 219.1 219.7 219.2 219 218.6 218 217.1 216.3 215.4 214.2 212.9 211.6 209.8 208.1 209 208.6 208.2 207.7 207.1 205.4 202.3 198.7 195.4 192.8 190.7 190.1 190.9 191.1 191.6 190.5 188.9 190.1 189.3 188.1 185.1 183.4 181.7 181.3 180.8 180.5 180.5 181.1 182.3 182.7 184.1 184.7 184.4 184.1 183.5 182.2 180.9 179.9 178.7 177.4 176.5 175.4 173.7 172.1 171.6 170.9 170.3 169.6 169.1 168.8 168.9 168.8 168.9 170 172.6 176.7 180.9 185 192.5 196.6 200.6 199.2 178.6 165.3 165.4 165.9 197.6 204.4 207.9 176.6 174.1 162.2 161.4 170.7 193.9
130.2 130.1 133.6 135.2 136.4 135.3 132.6 126.3 116.3 116.3 118.1 118.5 118.3 114.3 122.3 124.2 126.5 126.3 125 126.9 128.1 128 128.8 128.8 122.1 115.2 131.7 132.8 133.4 134 134 133.2 132 128.4 119.3 119.5 120 121.5 123.2 123.3 128.3 131.7 135.7 138.7 141.1 143.2 145.9 147.7 150.1 151.8 151.8 155.7 156 157.7 159.1 159.6 159.9 159.7 157.6 155.9 158.6 162.6 165.9 169.7 172 175.2 176.2 177.8 180.2 185.1 191.2 194.1 197.9 201.3 206.2 213.6 222.1 227.1 229.4 230 230 229.6 229.4 229.6 229.5 229.1 228.5 227.8 227 226.1 225.3 222.5 221.1 216.8 213.9 219.2 220.9 222 222.4 221.9 222.4 222.4 222.9 223.2 222.1 221.7 219 220.1 220 219.4 217.9 216.8 217.5 216.9 216.1 215.9 215.5 214.7 213.8 213 212 210.6 209.2 207.5 205.6 206.2 206 205.1 204.3 203.4 201.9 199.3 196.2 192.9 191.4 193.2 194.1 194.9 194.2 194.7 194.2 193.9 193.5 192.5 190.9 189.4 187.7 185 182.9 181.4 179.5 178.6 178.3 178.6 179.8 181.4 182.8 182.5 182.3 181.3 180 178.8 177.5 176.4 175.8 174.5 173.2 171.6 170.2 169.3 167.6 168.7 169 169.3 169.7 169.4 168.5 166.4 167.5 167.8 170.8 174.9 178.1 182 186.3 186.9 179 165.3 165.7 165.7 182.9 203.5 190.4 176.5 163.7 162.4 164.6 162.5 169.9 180.2
132.4 133.6 136.5 139 140.9 141.3 140.2 136.3 131 133 134.8 134.3 132.6 127.1 129 130.2 130.3 131.6 131.8 132.1 132.3 131.9 132.7 133.1 132.4 119 131.8 134.4 135.3 136 136.1 136.4 135.4 134.5 130.9 132.7 132 130.5 129.2 124.8 123.6 126.2 128.6 131.7 134.1 137.4 140.2 142.7 144.5 145.7 146.3 148.3 156.6 154.2 154.9 155.6 156.2 156 153.1 152.5 155 157.8 160.7 163.6 166.1 169.3 175.6 178.5 181.4 185.5 188.8 193.4 197.2 203.1 210 220.6 225.9 227.8 228.6 228.7 228.4 228.1 227.9 227.3 226.8 226.2 225.6 225.2 224.6 224.1 223.3 221.6 217.7 213.5 214.6 220 220.4 221.2 222.2 220.2 221.1 220.4 215 221.1 215.9 215.5 217.6 218.5 217.8 216.9 215.8 214.7 215.3 214.5 213.8 213.5 213.3 212.3 211.5 210.8 209.8 208.4 206.8 205.5 204 203.9 203.1 201.9 200.8 199.2 197.4 195 192.7 194.5 196.1 196.4 197.2 196.8 196.2 196.1 195.3 194.8 193.9 193.2 192.2 190.8 189.2 187.7 186.3 184.4 182.5 180.5 178.8 177.6 176.8 178.5 180.1 180.6 180.4 179.5 178 176.7 175.5 174.8 174.3 172.2 171.2 170.4 169.9 170.4 170.9 171.4 172.1 173.4 174 173.2 172.2 170.6 168.1 165.5 167.3 170.4 173.9 174.8 178.1 177 165.4 167.6 167.9 176.9 199.7 202.6 191.2 173.8 165.1 162.4 164.9 170.2 174.7 185.7
132.4 133 137.1 140.5 142.3 143.4 143 142.7 141.4 140.3 139.7 138.2 136.1 132.8 130.5 133 133.6 133.9 134.5 135 134.6 134.5 135 135.3 135.7 127.4 123.8 135.2 137.5 138.5 138.2 137.9 137.7 136.9 135.8 136.3 134.9 133.9 133 133 128.8 125.2 126.2 126.7 127.9 130.7 136.2 138.6 140.6 141.6 141.7 144.4 146.6 153.8 150.8 151.7 152.4 151 148.3 149 151.4 154.4 157.6 162.4 167 171.3 174.7 177.2 179.9 183.7 188.6 193.7 199.8 208.8 217.9 224.1 226.4 226.8 227 226.8 226.3 225.8 225.1 224.4 223.9 223.3 222.8 222.5 222.1 221.4 220.4 217.9 216.4 210.4 216.1 219.5 220.2 219.9 221.3 219.5 218.7 218.7 219.4 219.5 218.4 218.1 217.7 217 215.9 215.1 214 213 213 212.4 211.8 211.2 210.9 210.2 209.2 208.6 207.6 206.2 205.2 204.1 203.1 202.9 202.5 200.7 199.9 198.8 197.9 197.3 197.2 198.4 198.6 198.1 197.9 196.9 195.8 195.2 194.4 193.6 192.2 191.4 190.5 189.9 189.4 188.9 187.6 186.3 184.9 183.5 181.5 179.7 178.1 176.3 177.2 179 178.8 177.6 176.3 175.3 174 173.2 172.3 170.8 170.4 170.7 171.9 173.5 175.3 176.1 176.6 176.4 176.2 175.9 175 174.1 172 169.1 166.7 167.4 169.3 171.1 171.2 170.5 168.5 170.8 192.6 199.9 199.5 199.8 197.5 174.7 174.7 174.8 174 173.4 185.7 187.1
135.3 134.2 137 139.8 142.4 144.8 145.2 144.2 143.1 142 141.2 140.3 138.3 135.6 133 134 135.5 136.4 136.8 137.1 136.7 136.6 136.8 137.3 137.1 134 122.8 134.4 138.3 139.1 139.3 139.5 139.2 138.9 138.4 138 137.4 136.2 134.6 136.4 134.8 128.5 130.5 133.9 134.5 130.9 130.2 132.7 134.1 138.1 139.9 142.1 141.8 147.1 153.3 147.9 147.7 145.7 144.9 147.5 150.9 154.2 158 162.1 166.4 169.3 172.7 175.5 178.6 183.7 189.7 196.3 206.3 214.1 220.4 224.2 225 225.2 224.7 224.2 223.7 223.2 222.5 221.6 221 220.4 220 219.5 219.2 218.7 217.4 215.8 213.7 207.9 217.8 218.3 218.6 218.9 218.9 218.1 218.4 218.7 218 218.4 217.9 218 217.4 216.4 215.1 214 212.3 211.1 210.7 210.2 209.8 209.4 208.7 208 207.2 206.5 205.5 204.8 204.1 203.6 203 203 202.9 202 201.3 200.4 199.4 199.7 199.7 199.1 198.5 198.5 197.4 196.2 195.1 194.2 193.5 192.2 190.8 189.6 188.8 188.1 187.6 187.2 186.5 185.3 184.4 183 181.9 180.5 179.1 177.5 175.8 177 177.1 175.7 174.6 173.8 172.3 171.7 169.9 170.7 171.1 171.4 173.4 177.1 178.1 178.5 178.6 177.9 177.3 176.3 175.5 174.7 173.9 172 169 166.4 166 166.9 167.2 167.9 168.5 172.7 193.8 199.6 199.1 196.4 196 174.8 181 187.7 190.3 185.4 184.3 183.4
138.7 138.5 138.3 139.3 141.9 145 145.9 145.7 144.6 143.6 142.6 141.6 139.7 137.3 135.4 135.9 137.4 137.9 138.3 138.8 138.7 138.9 139 139.2 138.3 136.1 124 135.4 139 140 140.6 140.8 140.4 140 140.2 140.7 140 138 138.5 138.2 137.7 133.4 133.7 135.8 137.5 137.3 133.9 133.3 133.4 134.5 134.7 135.8 137.4 140.2 141.3 142 141.8 141.5 144.4 147.8 151.1 154.3 158 161.8 165.1 168 171 174 178.6 184.1 191 198.4 206.4 214.8 219.4 222.4 222.9 222.5 221.9 221.5 221.1 220.6 219.9 219 218.2 217.6 217.1 216.5 216.3 215.7 214.4 212.8 204.4 212.4 217.4 216.9 217.2 218.2 217.6 217.3 215.9 215.2 215.3 217.1 217.8 217.9 217 215.8 214.5 213.6 211.9 210.6 209.1 208.4 208.1 207.8 207.1 206.4 205.6 204.9 204.7 204 203.4 202.9 202.7 202.8 202.9 202.8 201.8 201.3 200.9 200.3 199.6 199.4 198.8 197.7 196.6 195.6 194.5 193.5 192.1 190.7 189.3 187.9 187.1 186.4 185.9 185.3 184.6 183.7 182.9 182.2 180.8 179.6 178 176.7 175.3 174.5 174.4 173.5 173.5 172.5 172.6 172.2 171.8 172.1 172.1 172.5 174.1 177.2 178.6 178.6 178.1 177.5 176.6 175.6 175.1 174.9 174.5 173.3 171 165.7 165.7 165.8 165.9 165.7 167.4 169.6 180.7 189.1 194.9 192.3 191.8 191.2 190.4 188.3 186.2 184.3 182.5 180.6
140.2 139.7 140 140.4 141.8 145.2 146.9 146.7 146.1 145.1 144 142.9 140.9 139.1 138.1 138.9 139 139.4 139.5 139.5 139.5 139.5 139.5 139.4 138.6 133.2 126.5 137.4 139.7 140.9 141.2 141.4 141.5 141.2 141 141.6 141 140.3 141 140.5 138.8 137.6 134.4 136.3 138.4 138.9 139.1 139.6 139.4 134.7 134.5 133.7 134 136.5 136.2 137.4 139.2 141.4 143.5 146.5 149.7 153.5 157.4 160.7 164.2 167.3 170.4 173.6 177.3 181.9 187.5 194.5 203.1 212.6 217 219.6 219.8 219.4 218.9 218.1 217.7 217.7 217.1 215.9 215 214.4 213.9 213.7 213.8 213.3 211.6 203.5 204.1 214.8 216.6 217 217.3 217.5 215.9 214.8 214.3 213.7 212.7 212.9 216 215.8 215.7 214.8 213.9 213.1 211.8 210.5 209 207.5 206.5 206.2 205.6 204.8 204 203.5 203.6 203.3 202.7 202.4 202.1 202.3 202.3 202.4 202.1 201.5 200.4 199.9 199.7 198.8 197.8 196.6 195.5 194.5 193.2 191.7 190.4 188.9 187.4 185.8 184.6 184 183.8 183.3 182.7 182 181.1 180.3 179.3 178 176.5 175.3 174.4 173.7 173.7 173.8 174 174.3 174.4 174.2 174 173.9 173.7 174.4 174.7 176.5 178 177.2 176.4 175.6 174.8 173.9 173 173.4 173 173.1 171.6 165.9 166.2 165.4 164.7 164.5 164.7 167.2 172.5 176.9 183.3 185.5 185.7 185.8 184.7 183.8 182 181.4 180.2 178.8
141.7 140.9 141.4 142.3 143.8 145.9 147.9 148 147.6 146.8 145.9 144.4 142.8 141 140.4 139.8 140.5 140.6 140.5 140.2 140.1 140.1 139.9 139.7 138.5 126.5 131.6 139.7 141.1 141.4 141.7 141.7 141.7 141.7 141.8 142.6 141.8 141.9 142.7 142.4 142.5 141.6 138.9 136.6 136.2 138.7 140.1 140.5 140.8 141.7 140.6 137.5 139.7 141.5 141.2 137.8 138.2 140.2 142.8 145.5 148.9 153 156.2 159.2 162.9 167.1 169.8 172.9 175.5 179.3 184.5 191.2 199.2 209.7 214 215.6 216.3 216 215.3 214.6 213.8 213.6 212.8 212.1 211.8 211.1 210.9 211 211.2 210.5 202.7 198.4 210.6 215.6 216 216.3 216.6 216.1 215.3 210.9 216.1 209.8 212.3 211.8 212.4 214.7 214.4 213.6 212.8 212 211 209.9 208.9 207.4 206.3 205.2 204.4 203.3 202.4 201.8 201.5 201.5 201.4 201.9 201.6 201.7 201.7 201.5 201.1 200.5 199.7 199.2 198.6 197.6 196.7 195.5 194.5 192.9 191.2 189.8 188.3 186.6 185.1 183.6 182.2 181.5 181.3 181.3 180.7 179.9 179.2 178.3 177.4 176.1 175.1 175.8 176.1 175.7 175.5 175.8 177.1 178.8 179.5 178.4 178.4 177.8 177 177 176.6 176.8 176.7 175.6 174.5 173.6 172.8 171.8 169.1 169.1 171.9 172.5 166.3 166.7 166.4 165.3 164.8 164.7 164.8 165.5 169.5 172.5 175.2 177.6 178.9 178.7 178.9 179.1 179.8 180 179.7 178.3
142.6 142.8 143.4 144.8 146.4 148.8 149.4 149.3 149.3 148.1 147 145.7 144.2 142.9 142.7 142.7 141.5 141.5 141.5 141.2 140.7 140.2 140.1 139.7 137.7 127.9 138.4 140.2 141.2 140.5 141.3 141.6 141.8 142.4 142.9 143.4 143.4 143.4 144 144.5 144.7 143.8 142.3 139.8 137.2 138.9 141.2 141.4 141.7 141.9 141.5 140.3 140.6 141.2 142.3 139.4 138.5 139.7 142 144.4 148 151.4 154.7 159.2 163.9 167.5 169.5 171.4 174 176.8 182.2 188.2 195 201.6 209.1 211 211.5 211.1 210.5 209.9 209.1 208.5 208.1 207.9 207.5 207.3 207.4 207.4 208 205 195.2 202.6 210.5 213.5 215.4 215.8 216.1 214.5 214.1 213.2 209.9 203.4 212.5 212.5 211.2 213.7 213.6 213.1 211.7 210.8 210 208.9 208.2 207.3 206.1 205 204 203.9 203.6 202.8 201.4 199.9 198.8 199.3 199.7 200.4 200.4 200.2 199.6 199.1 198.7 198.3 197.4 196.5 195.6 194.3 192.5 190.8 189.1 187.8 186 184.1 182.6 180.8 180 179 178.8 178.8 178.8 178 177.1 176.4 175.5 175.2 176 177.4 178.1 178 179.3 182.5 183.6 183.5 182.7 181.8 181.3 180.1 179.1 178.2 177.6 177 175.1 174.1 172.9 170.7 169.1 169.1 169.1 169.1 169.1 166.5 167.3 167.2 166.5 166.1 165.3 165.2 165.3 166 166.9 168.7 170.6 172.5 172.7 174.7 176.7 178 179.7 180.7 180.8 180.3
144.9 145.4 146.2 148 148.6 149.7 150.2 150.4 150.2 149.3 148.5 146.9 145.8 144.8 144.7 143.7 141.7 141.9 141.7 141 140.3 140.1 138.9 138.5 135.8 128.9 135.2 138.6 139.4 139.1 140.6 141.7 142.3 142.9 144 144.5 144.7 144.7 145.8 146.1 146.2 145.5 144.3 141.9 138.4 140.4 142.5 143.2 143.3 142.8 142.5 141.9 141.2 141.7 142.5 142.2 140.3 139.2 140.1 143.4 147.2 151.4 155 160.8 163.9 166.6 168 169.7 172.6 175.7 179.3 184.2 189 194.5 199.1 205.2 206.6 206.2 205.7 204.8 203.7 202.6 201.7 201.1 200.9 201 200.8 203.4 205.1 197.6 191.9 204.7 209.4 212.6 213.8 214.7 214.7 214.3 213.3 215.1 209.4 206.2 202.8 208.8 209.7 213 211.7 210.9 210.3 209.6 208.9 208 207.4 206.9 206.1 205.1 204.7 204.7 204.7 203.8 202.9 201.6 199.9 198.1 196.9 197.6 199 198.8 198.3 198.4 197.4 196.9 196 195 193.8 192.7 190.6 188.7 187.2 185.6 183.8 181.4 179.8 177.6 177.2 176.9 176.7 176.5 176.5 176 176 175.8 175.6 176.3 177.6 179.4 181.7 183.6 184.4 184.6 183.8 182.9 182.2 181.6 180.7 179.8 179 177.9 176.8 175.5 174.4 169.1 169.1 169.1 169.1 169.1 169.1 170.4 167.8 167.9 167.7 167 166.7 166.4 166 165.8 165.9 165.9 166.4 167.1 167.9 169.5 172.4 175.7 178.8 179.4 181.2 182.6 182.8 182.4
148.7 149.3 149.2 149.8 150.1 150.7 151.4 151.6 151.2 150.5 149.7 148.4 147.4 146.7 145.7 144.6 142.1 141.7 141.1 139.9 139.2 137.8 137.7 137.4 133.2 131 133.8 135.7 138.8 140.5 142.4 143.3 143.1 144.4 145.3 145.6 146 146.3 146.9 147.1 147 146.7 145.2 142.6 141.5 143.8 144.7 144.8 145.1 145.1 145 144.3 142.3 143.2 144.6 144.7 143.9 142.5 140.6 141.6 146.1 151.4 156.6 160.3 162.5 164.5 166.3 167.6 170.1 172.9 175.5 179.6 183.3 187.1 190.9 194.4 198.6 200 197.9 196.6 194.4 192.6 191.7 191.7 191 191.5 193.1 198.8 200.5 188.6 192.2 203 208.4 211.9 213 213.8 213.8 213.5 212.8 212.2 212.6 206.2 206.7 210.9 208.4 210.8 210.1 209.3 209 208.3 207.6 206.9 206.3 206.2 206 205.4 205.3 204.8 203.9 203 202 201.1 200.2 199 197.8 194.6 195.9 197.2 196.3 197.3 196.4 195.1 193.8 193.2 192 190.8 188.6 186.7 185 183.4 180.6 179 178.9 179.9 179.8 179.2 178.2 178 177.2 177.8 176.6 176.4 176.2 177.3 179.1 183.6 185 184.8 184.1 183.2 182.2 181.3 180.6 179.8 179 178.2 177.5 176.6 175.5 174.1 169.1 169.1 169.1 169.1 169.1 169.1 169.1 168.6 168.5 168.2 168.4 168.1 167.4 167.2 166.9 166.4 166.8 167.4 168.1 169 169.7 169.5 170.4 172.9 176.6 179.1 181.9 183.4 183.4 183.1
151.9 151.1 150.3 151.3 151.5 151.7 152.4 152.5 152.1 151.1 150.3 149.4 148.3 147.1 145.9 144.1 142.6 142.2 141.5 140.7 139.8 137.2 135.6 133.3 132.1 136 138 138.9 139.8 141 144.2 144.6 144.8 145 145.2 146.6 147.5 147.4 147.9 147.8 147.7 147.1 145.6 142.3 143.8 146.5 147.5 148.2 148.3 148.3 148 147.6 145.5 144.4 145.2 146.1 146.6 146.2 145.5 142.3 143.5 149.4 156.6 158.9 160.5 162.8 164.8 166.5 167.6 170 172.4 174.8 177.7 180.2 183.8 186.1 188.4 189.9 189.8 188.1 185.8 183.6 182.3 182.8 182.6 184.2 187.8 194.4 193.4 181.1 192.1 202.4 207.6 210.8 212.3 213.1 213.2 213 212.1 211.1 209.7 208.4 207.1 208 208.8 209.5 209.4 208.5 207.8 206.8 205.6 205.6 205.4 205.3 205.1 205 204.7 203.9 203 202.1 201.1 200 199 197.9 197 194.5 193.4 193.8 194.3 195.1 195 193.5 192.2 191.3 190.4 188.9 187.4 184.8 182.9 180.3 179.4 180.7 182 182 181.4 180.5 179.7 179.2 178.4 177.5 176.8 176.9 176.7 178.3 182.5 184.9 184.7 183.7 182.5 181.5 180.5 179.6 178.8 178.1 177.2 176.6 175.9 175.1 174.2 172.3 169.1 169.1 169.1 169.6 169.1 169.1 169.4 169.2 169.1 168.8 168.9 169 169.1 169 168.4 168.4 168.5 169.4 170.5 171.5 171.8 172.2 172.4 172.1 173.5 177.5 181.4 183.5 183.3 182.9
151.5 150.2 150.2 150.4 151.5 152.5 152.9 153 152.4 151.4 150.6 149.2 147.6 146.3 144.5 144.1 143.6 143.2 142.4 141.3 140.2 138.2 135.9 133.5 135.9 138.5 139.6 140.8 141.5 141.8 141.8 144.9 145.3 145.5 145.5 146 148.5 148.3 148.6 148.5 148.3 147.2 145.5 143.3 145.9 148.6 150.2 151.2 151.4 151.4 151.2 150.6 147 146.5 146.1 146.5 147.7 148.6 149.2 149.5 143.9 144.6 154 156.5 159 161.5 163.6 165.3 166.2 166.6 167.2 171.1 172.7 174.6 177.2 179.7 181.7 183.2 182.4 180.6 178.3 175.8 174.2 175.3 176.4 178.6 183.3 188.6 183.9 183.5 193.5 202.9 206.8 209.9 211.9 212.4 212.5 212.4 211.4 210.2 209 207.8 206.3 207 207.7 208 207.7 206.9 205.8 204.7 203.7 204 204.5 204.4 204.3 204.1 203.9 203 202.2 201.1 200.2 199.3 198.8 197.6 197.2 196.3 194.2 192.2 191.9 192.1 192.4 191.3 189.6 188.6 187.6 186.7 185.5 182.6 180.5 180.2 181.7 182.9 182 182 181.6 181 180.3 179 178 176.9 176.6 176.6 177.5 180.5 183.9 184.2 183.5 182.2 181 179.9 178.9 177.9 177.1 176.3 175.6 174.9 174.3 173.6 172.8 169.1 169.1 169.1 169.1 169.1 169.1 170.7 169.5 169.4 169.1 168.7 169.3 170 174 173.8 171.8 173.4 174.7 175.3 175.6 174.7 175 175.7 175.9 175.6 173.7 177.9 180.5 182.1 182.8 181.9
150.7 150.5 150.7 151.1 151.7 152.6 152.8 153.7 152.7 151.7 150.7 148.5 146.9 145.5 145.5 145.8 145.1 144.3 142.9 141.7 140.6 138.9 137.3 135.1 137.5 139.4 140.4 141.6 142.3 144.4 144.9 145.9 145.9 146.2 147.8 148.6 149.3 149.3 149.2 149 148.5 147.4 144.8 144.8 147.9 150 151.6 152.7 153.3 153.1 152.9 151.4 149.7 148.9 147.9 147.5 149.1 151.4 152.3 153.5 152.5 143.8 145.7 154.1 157.8 160.3 162.1 163.9 164.7 164.9 165.8 167.7 169.4 170.7 171.9 173.1 175.1 175.3 174.6 173.6 171 168.7 167.8 168.2 170.2 172.9 176.9 178.2 179.9 184.8 194 202.8 206.2 209 211 211.2 211.1 211.6 210.9 209.6 208.3 206.8 205.9 206 206.7 206.6 206.5 206.1 204.4 203.2 201.8 202.4 203.1 203 203.5 203.2 202.9 202 201.3 200.9 200.1 200.5 199.7 198.5 197.9 196.7 195.3 193.4 192.2 190 189.7 189.1 187.1 185.8 184.7 183.7 183.2 181.2 180.1 181.7 183.7 183 182.1 181.9 181.5 181 179.9 178.7 177.6 176.8 176.8 177.1 178.7 181.5 183.9 183.1 182 180.8 179.6 178.5 177.4 176.3 175.4 174.7 174.1 173.7 173.3 172.6 171.9 169.4 169.1 169.1 169.1 169.1 171.6 170.3 171.8 170.6 169.8 169.4 169.3 171 173.3 172.2 175.7 174.7 174.6 175.9 178 178.1 176.1 178.4 181 177.4 174.4 179.5 180.2 180.7 182.2 180.7
151.6 151.7 151.5 151.8 152.1 152.9 154.1 154.1 153.1 152 150 148.2 147.2 147 147.6 147.8 146.5 144.7 143.4 142.2 141 139.3 137.4 136.1 136.8 143.6 140.3 141.7 143.4 145.4 146.2 146.9 147.7 147.6 148.1 149.8 147.3 150.1 149.7 149.3 148.6 147.3 145.3 146.4 149.4 151.2 152.8 153.8 154.8 154.7 154 153.2 152 150.2 149 149.7 151 154.1 154.7 154.8 154.4 146.7 146.4 153.5 157 159.1 160.6 162.3 163 163.2 163.6 163.9 165.7 166.6 167.2 168.9 168.8 168.1 167.8 166.7 164.7 167.5 171.8 176.5 178.9 180 179.7 180.6 183.6 188.2 196.2 202 206.1 207.8 209.7 211.2 211.7 211.2 210.7 209.9 208.7 207.4 205.8 204.6 205.6 205.4 204.8 204.2 203.3 201.9 200.2 201 201.3 201.4 201.7 201.9 201.6 201.8 198.7 198 198.2 200.6 200.1 199.1 198 196.1 194.5 194.2 193 192.4 190.9 189.6 187.6 186.7 185.4 184 182.4 180.8 180.9 183.6 183.9 183 182.1 181.8 181.4 180.4 179.5 178.4 177.3 177 177.1 178.2 180 182.1 182.7 181.9 180.6 179.4 178.2 177.1 176 175.2 174.6 174.1 173.4 172.7 172.2 171.7 171.2 169.1 169.1 169.1 169.1 171.6 170.8 175.6 175.8 170.9 170.3 172.9 172.3 171.8 173.8 175 175.8 176.2 178.7 181.4 183.6 184 183.1 181 178 180.6 179.8 181 181.1 182 181.3 179.5
153.5 152.9 152.8 152.7 153.7 155 155.5 154.8 153.5 151.2 150.3 149.9 149.2 149 149 148.5 147.4 146.1 144.9 143.4 141.8 140.3 139.4 141.9 137.3 138.1 139.8 141.3 143.2 145.1 146.4 147.6 148.3 149.2 149.9 150.9 151.2 151.2 150.5 150.2 149 147.5 146.7 147.7 150.4 151.9 153 154.2 155.5 155.5 154.6 154.1 153.2 151.6 151.1 152.5 152.9 155.4 155.3 156.6 156.3 152.3 144.9 150.9 155.8 157.9 159.7 161.3 161.7 161.8 161.4 161.4 162.2 162.6 163 163.6 163.6 163 162.3 161.5 166.6 172.3 177.6 182.2 186.8 193 192.7 192.7 192.9 194.9 198.1 202.8 205.5 208.2 209.5 211.1 211.3 210.8 210.4 210 209.6 208.3 206.4 203.9 204.1 203.7 203.1 202.4 201.4 199.9 198.7 199 199.4 199.6 200.1 200.6 200.9 201.6 192.8 197.6 197.5 199.6 198.7 197.7 196.6 195.5 193.7 192.6 192.1 191.6 191 190.4 189.4 188.3 186.7 185.7 183 181.1 183.7 184.5 183.8 183 182.2 181.7 180.6 179.7 178.8 177.9 177.3 177.2 178 179.7 181.4 182.1 181.6 180.7 179.4 178.1 176.9 176.1 175.3 174.6 174.1 173.6 172.9 172.5 172.2 171.9 171.6 169.1 169.1 172 171.6 173.1 173.6 172.4 172.3 170.8 170.2 170.3 171.2 173.8 176.2 177.6 178.7 180.1 185 188.1 188.5 187.8 186.5 183.3 181.8 179.2 181 182.7 183.1 182.6 180.3 178
154.7 153.8 153.8 153.7 154.8 155.9 156.1 154.6 153 152.5 152.8 152.4 151.4 150 149.6 148.7 147.8 146.9 145.2 143.8 142.7 141.3 144.9 140.1 139 138.2 139.9 141.5 142.8 144.7 146.5 147.7 149 149.8 150.9 151.8 151.8 151.8 151.4 151.1 149.6 147.8 147.1 148.9 150.7 152.3 153.4 154.5 155.3 155.6 155.3 154.8 153.8 152.9 153 154.3 155.5 155.7 155.9 156.4 154.9 155 150 145.6 152.3 156 157.8 160 160.4 160.3 159.8 159.5 159.4 159.2 159.2 159.4 158.9 159.3 157.7 166.1 171.3 177 182.8 189 199.4 200.9 200.6 201 201.9 202.5 202.6 204.2 205.9 209.2 210.4 210.8 211 210.6 210.2 209.9 209.3 207.6 205.6 204 201.7 201.3 200.7 200.2 199.4 197.7 196.7 196.9 197 197.5 198.6 199.5 201.1 201.3 197.2 198.3 199.3 198.2 197.2 196.2 195.2 194 192.8 191.3 190.9 190.7 190.1 189.7 188.9 187.7 186.9 184.3 182.1 185.1 184.3 184.4 183.9 183.2 182.1 180.9 179.8 179 178 177.6 177.7 177.7 179.2 182.1 182.5 181.6 181 179.4 178.4 177.3 176.3 175.5 174.7 174.1 173.6 173.1 172.8 173.6 173.4 172.4 172.6 172.4 173.6 173.8 174 174 174 173.8 172.9 171.6 171.3 171.5 173.1 174.7 178.6 182.1 183.8 185.3 189.5 191.4 189.9 194.3 188.2 186.6 179.9 180.9 182.7 183.3 183.2 181.1 178.9 176.4
155.2 154.7 154.7 154.5 154 154.4 153.5 152.4 152.8 154.1 154.4 154 152.5 150.9 149.8 148.8 147.9 146.6 145.4 145.1 142 143.3 142.1 141.4 140.4 139.9 140.6 142.3 143.4 144.7 146.3 147.7 149 150.5 151.6 152.3 152.7 152.8 152.4 151.9 150.3 149.1 148.4 148.8 150.5 152.4 153.9 154.8 155.8 156.1 156.7 156.1 155.3 154.4 154.4 155.5 155.5 155.6 155.8 156.8 156.1 155.8 154.9 146.8 149.1 154.4 156.3 158.5 158.8 158.5 158 157.5 157.2 157 156.8 156.7 156.6 158.3 165.1 171.2 176.3 182 193.1 200.7 204 205.3 205.2 205 205.4 205.4 205.6 206.2 207.8 210.2 211 211.2 210.9 210.5 210.1 209.5 208.3 206.6 204.7 203 200.9 199.7 198.9 198.6 198.5 197.8 197.2 196.4 195.5 195.1 196.3 198.5 199.8 199.7 199.3 198.6 197.6 196.7 195.7 194.7 193.7 192.5 191.3 190.1 189.7 189.6 189.9 189 188.1 187.3 185 182.8 182.9 183.2 183.8 185.4 184.1 182.5 181.2 179.7 178.8 177.7 178 178.8 179.3 179 180.6 182.7 182.8 181.6 180.3 178.8 177.7 176.7 175.7 174.9 174.2 174.2 175.3 174.9 174.4 174.5 174.4 174.1 174.2 174.8 174.9 175.2 175.3 175.2 174.8 174.7 173.6 172.1 173 174.4 175.9 179 183.3 187.5 188.8 188.8 192.1 192.8 190.6 194 190.4 185.4 179.1 183.9 185 183.1 181.7 179.6 177.2 174.5
155.3 155.7 155.4 154.7 154.1 153.2 152.6 153.2 153.8 154.6 154.9 154.4 152.8 151.7 150.3 149.1 148.4 147.9 147.2 146.4 145.3 144.1 143.3 142.5 141.8 142 142.6 143.9 145 146.3 147.3 148.7 149.8 151.1 152.4 153.2 153.6 153.7 153.5 153 151.9 150.6 149.9 150.3 150.5 152.3 154.3 155.7 156.6 157.9 158.3 158 157.2 156.6 157 156.1 155.9 155.7 157.1 157.1 156.7 156 155.2 151.7 146.8 148.8 154 155.9 156.3 156.4 156 155.5 155 155.4 155.4 155 157.8 162.4 167.9 173.2 180.5 190.1 199.8 204.6 206.8 207.4 207.4 206.9 206.4 207.1 207.5 208.4 209.8 210.5 211.2 211.1 210.9 210.4 209.2 207.9 206.6 205.6 204.5 203.1 202.4 202.2 201.5 200.8 200.9 200.2 199.3 198.4 197.1 193.9 193.9 196.3 198.1 198 198 197.1 196.1 195.1 194.2 193.2 192.2 191 189.7 188.6 188.6 188.4 188.2 188.1 185.1 183.7 182.6 182.9 185.5 186.6 186.2 185 183.6 182.1 180.3 179.3 178.8 178.3 177.9 178.1 179.1 181.4 183.9 184.1 182.5 180.8 179.4 178.3 176.8 176.1 175.1 174.2 173.6 173.1 173.8 174.2 175.1 175.6 175.8 175.8 176.5 176.8 176.6 176.5 176.5 176.3 176 175.6 173.4 172.9 176 178.6 180.7 185.5 189 191.4 192.7 193.2 193.9 193.1 194.8 197.7 187.5 184.5 185 185.8 184.8 182.2 180 178 175.7 172.9
151.5 155.6 155.7 154.9 154.1 153.1 153 152.9 154.1 154.5 154.5 154.5 153.2 152.2 151.1 150.2 149.8 149.5 148.9 147.9 146.6 145.5 144.5 144.8 144 144.2 144.7 145.5 146.7 147.4 148.6 150 151.3 152.4 153.7 154.3 154.8 155 154.5 154.2 153.3 152.2 151.6 152.3 152.9 153 154.5 156.4 157.8 159.1 160.3 159.7 158.9 158.3 158.6 157.8 156.4 156.1 157.5 157.4 156.8 156.1 155.2 154.6 149.6 148.9 149.5 151.5 153.4 153.6 153.4 152.8 153.2 153.7 153.5 156.3 160 164.6 170.6 177 184.7 195.2 202.8 206.6 207.8 208.3 208 207.8 208 208.6 209.2 210.3 210.6 210.9 211.6 211.3 210.9 210.5 209.4 209 208.6 207.4 206.2 205 204.8 204.1 202.7 201.5 200.7 199.9 199 198.7 198.2 195.8 192.7 193.4 195.4 195.9 195.9 195.6 194.5 193.6 192.6 191.7 190.7 189.4 187.9 187.2 187.2 186 185.5 184.4 183.6 182.9 184 186 186.6 186.6 185.9 184.5 183.1 181.6 180.2 179.6 179.3 179 178.7 179.7 181.6 183.7 184.3 183.2 181.9 180.6 179 177.6 176.3 175.3 174.5 173.5 173.3 173.3 174.3 175.4 176.1 176.6 177.2 178 178.8 178.8 179.1 179 178.3 177.2 176.7 176.3 173.5 175.3 178.4 182.5 186.7 191.4 193.5 195.2 195.4 195.2 195.2 194.7 192.9 189.7 189.5 186.9 187.3 186.1 183.9 181.1 179.2 176.1 174 171.1
146.8 152.8 155.3 155.1 154.4 153.5 153.8 154.5 154.9 154.9 154.4 154.7 153.9 152.6 151.9 151.7 151.6 151.3 150.4 149.5 147.6 146.3 145.7 146 145.4 145.9 147.1 147.5 148.6 149.7 151.2 151.9 152.8 153.7 154.7 155.5 156.1 156.9 156.4 156.1 155.2 154.1 153.1 154.5 155 155.2 155.4 157.5 158.8 160.1 161.4 161.1 160.4 159.9 160 159.3 156.7 156.3 157.5 157.2 156.7 156 155.5 155.1 152.2 150.7 151.7 150.8 150 151 151.3 152 152.6 153.6 154.6 157.3 161 166.1 172.4 179.6 187.2 197.4 202.4 205.4 206.8 207.8 208.5 208.3 208.6 209.4 210.8 211.5 211.7 211.9 211.9 211.4 211.4 211.1 210.7 210.4 210.1 209.2 207.9 206.9 206.1 204.3 202.6 201.2 200.3 199.4 198.2 197.8 196.9 196.2 193.6 191.7 192.1 193.5 193.4 193.4 193 192.1 191.1 190.1 188.9 187.5 186.7 186.4 186.3 185.8 184.5 183.4 185 185.8 186.5 186.6 186.3 185.9 185.2 183.7 182.2 181.2 181 180.2 180.1 179.9 180.7 181.7 183.2 184.5 183.5 182.2 181 179.8 178.5 177.5 175.7 174 173.1 172.6 172.5 174 175.1 176.2 177.4 178 179.1 180.2 180.9 181.3 181.6 181.7 180.8 179.3 177.7 176.1 175.1 179.3 183 187.8 192.3 195.6 197.2 197.9 198.1 198 197 195.3 193.6 192.7 190.3 188.8 187.9 185.9 183.4 180.8 178 175.2 172.5 169.5
137.9 148 153.7 155.5 154.8 154.4 156 157.8 158.1 156.2 154.3 154.6 154.1 153 153 153.3 153.4 152.8 151.7 150.5 148.7 147 147 147 146.8 147.5 148.3 149.7 151.3 152.5 153.6 154.4 154.7 155.6 156.4 156.9 157.8 158.2 158.5 158.3 157.2 156.1 154.7 156.4 157.6 158.4 157 158.4 159.7 161.1 162.2 162.5 161.7 161.3 161.4 160.8 156.9 156.6 157.5 157.2 156.1 155.8 155.4 155.1 152.2 153.5 154.3 154.7 154.1 153.5 151.9 151.7 152.5 153.6 155.1 159 161.6 166.7 173.1 180.7 187.6 195.8 199.9 202.8 205.3 207.1 208.4 208.4 209 210.7 212.2 212.1 212.1 212.1 212 211.8 211.9 212 212 211.6 211 210.4 209.3 208.1 206.6 204.4 202 200.6 199.3 198.3 197.4 196.5 195.9 195.4 194.3 192.6 190.9 190.3 190.7 190.9 191.2 190.6 189.6 188.2 187.3 187.7 187.9 187.8 187.4 186.4 184.4 184 186.4 186.4 186.3 185.8 185.5 185.1 184.3 183 182 182 182.9 184.5 183.9 183.3 183.5 183.4 183.3 183.7 182.7 181.3 180.1 178.6 177.7 176.1 174.5 172.8 171.5 171.1 172.1 174.7 175.9 176.9 178.4 179.9 181.4 182.4 183.5 184.3 184.6 184.6 183.2 181.8 179.7 176.1 177.7 182.1 187 192.5 196.1 198.9 200 200.6 200.8 199.6 198.2 197.1 195.6 194 192.1 190 187.8 185.3 182.4 180.1 177.4 174.3 170.8 168
134.3 142.7 153 155.3 154.6 154.8 157.5 159.5 159.1 156.9 154.6 154.4 154.6 154.8 154.7 154.9 155.2 154.3 153.2 151.6 149.9 148.8 148.2 148.3 149.2 150.5 152.4 153.6 154.3 155 156 157 157.2 158 159 160.1 160.7 161.2 160.7 160.3 159.1 157.7 156.3 157.5 159 159.6 158.3 158.9 160.6 162.2 163.4 164 163.2 162.7 162.6 162 161.2 156.7 158.1 157.3 156.7 156.1 155.4 155.3 151.7 155.3 156 156.4 156.1 155.3 154.6 153.3 152.6 153.9 155.6 157.6 160.7 165.5 172.6 179.8 186 192.9 196.5 199.5 202.3 204.8 206.7 207.6 208.8 211.1 212.1 212 211.9 211.7 212 212.6 212.4 212.5 212.7 212.2 211.3 210.4 209.5 208.3 206.6 204.2 201.5 200 198.6 197.3 196.4 195.5 194.7 194.3 193.7 193.5 192 190.3 188.5 188.4 189 188.7 188.1 187.7 187.3 186.8 186.7 186.3 186 185.3 183.8 184.8 186.2 186 185.9 185.3 184.7 184.2 183.4 183.4 183.2 184.7 186.5 187 185.8 185.1 184.8 184.2 183.3 182.3 181.2 180.3 178.6 177.1 176.7 175.5 174.4 172.8 170.8 169.1 170.9 172 173.8 175.9 178.9 180.7 182.8 184.7 185.7 187 188.1 188.5 186.5 183.6 180.6 176.6 180.6 186.2 190.2 195.4 198.8 200.6 202 202.7 202 200.9 199.9 198.8 197.6 195.7 192.9 190.2 187.7 185.2 182 179.4 176.3 173.4 173.1 167.1
131.7 139.3 151.1 154.3 154.2 154.8 156 156.9 155.8 154.7 154.4 154.5 156.5 156.7 156.3 156.9 156.7 156.2 155.4 153.9 152.8 151.7 151.4 152.2 154 155.5 157.4 158.5 159.5 159.4 160.1 160.5 161 161.6 162.2 162.9 163.6 163.8 163.2 162 160.6 159.2 157.6 158.6 160.6 160.7 159.5 159.4 161.3 163.1 164.3 165.1 164.9 164.4 164 163 162.4 156.7 158.3 158.2 157.6 157 155.9 153.9 152.7 155.9 157.2 158.1 157 156 155.2 154.1 152.9 153.8 154.9 156.9 160.5 165.8 170.9 176.2 182.2 189.3 193.3 196.3 199.1 201.8 204.3 206.2 207.9 210 211.3 211.2 211.1 211.1 211.5 212.1 212.7 212.5 211.9 211.4 211 210.1 209 207.7 205.9 203.6 200.9 199.2 197.8 196.3 195.4 194.5 193.6 193.1 192.2 192.3 192 191 189.4 187.1 187.3 187.4 187.4 186.8 186.4 186 185.5 185.1 184.8 184.3 184.3 185.1 185.8 185.8 185.8 185.6 185.1 185 184.8 184.8 185.5 188.2 188.3 186.8 185.7 184.7 183.6 182.8 181.9 180.7 179.7 178.9 178.8 177.7 176.7 175.3 173.3 171.9 169.6 167.9 168.4 169.6 171 175.8 179.7 182.3 184.4 186.4 187.9 190.1 194.4 192.5 188.3 185.2 180.9 177.5 182.5 188.6 193.7 197.8 200.3 202.1 203.4 203.7 203 202.2 201.3 200.4 199.2 196.6 193.4 190.4 187.8 185.2 181.8 178.3 175.1 172.4 172.5 166.3
129.8 136.4 148.3 153.1 154 154.9 154.5 154.4 154.8 155.1 154.8 155.3 157.6 158.8 158.8 158.8 158.8 158.4 157.6 157.1 155.7 154.7 154.7 155.3 158.6 160.7 162.5 163.7 164.3 164 164.4 164.5 164.2 164.3 165 165.7 166.4 166.1 165 163.5 162.2 160.9 158.4 159.7 161.5 161.8 161.1 160 161.8 163.7 165.1 166 166.2 165.7 165.4 164.5 163.4 157.5 158.2 159.1 158.6 157.6 156.4 154.6 154.1 155.8 158.1 158.4 157.3 156.2 155.5 155.1 153.9 153.8 154.1 156 160.1 164.3 169 173.3 179.4 185.2 190.1 193 195.9 198.6 201.4 203.4 204.9 207.3 209.8 210.4 210.3 210.2 210.9 211.5 211.9 211.6 211.1 210.6 210.2 209.7 208.3 207 205.1 202.8 200.3 198.6 197.1 195 194.5 193.5 192.6 191.7 190.8 190.4 190 189.3 188.5 187.4 187.1 186.7 186.7 186.5 186.2 185.8 185.5 185.3 185 185 185 185.3 185.7 186.5 187.1 187.1 186.9 187.3 188.2 188.2 189.2 190 188.4 186.5 184.9 183.7 182.4 180.8 178.9 177.4 177.3 177.6 176.9 176.2 175.2 174.1 172.1 170.2 166 167.7 170.1 172.6 174.5 178.5 181.4 183.9 185.9 187 190.9 195.5 197 194.8 189.5 185.5 180.2 179.6 184.4 190.3 195.6 199.3 201.6 203.4 204.4 204.5 204.3 203.5 202.5 201.6 199.6 197.3 194.1 190.8 187.5 184.8 180.7 177.4 174.1 171.3 168.9 165.8
128.2 132.1 140.8 150 153.4 154.5 154.7 155 155.3 155.3 155.7 156.9 158 159.8 160.1 160 160.2 160.3 160.9 159.9 158.5 158.1 157.9 158.3 161.7 164.5 165.9 167.1 167.6 167.5 167.8 167.8 166.8 167 167.6 168.3 168.5 167.7 165.7 164.9 163.9 161.9 159.3 160.9 162.5 163.4 162 161.1 162 163.9 165.5 166.6 167.2 166.7 166.5 166.3 159.8 158.3 164.8 163.4 158.8 157.7 156.6 155.7 153.7 156.5 158.6 158.7 157.6 156.5 156.1 156.5 156.5 156.5 156.3 156.1 157.4 162.4 167 170.7 176 180.8 185.9 189.5 192.5 195.5 197.9 199.8 201.5 203.7 206.3 208 208.5 208.5 209.7 210.9 210.9 210.7 210.3 209.8 209.2 208.7 207.5 206.2 204.3 202.2 199.7 197.4 196 194.6 193.4 192.4 191.4 191.7 190.1 189.8 189.3 188.8 188.3 187.5 186.8 186.7 186.8 186.9 186.2 186.2 186.7 186.6 186.2 185.9 186.1 187 187.7 189.7 190.8 192 192.4 192.8 193.4 192.7 192.1 190.6 188.4 186.2 184.5 182.8 181.5 179.8 177.4 173.9 171.4 175 174.8 174 172 168 163.1 162.9 168 170.7 169.8 172.2 176.2 180.4 183.6 186.1 188.8 191.2 196.1 200.3 198.7 195.5 190.3 185.4 181.7 184.1 188.6 193.2 197.7 200.8 202.9 204.5 205.1 205.1 205 204.4 203.3 201.6 199.1 196.8 193.5 190.4 186.9 183.4 179.8 176.8 173.8 170.7 168.5 165.9
125.4 128.1 134.6 144.8 152 153.7 155.2 155.8 156.2 156.6 157.3 158.7 159.7 160.5 160.9 161.7 162.5 162.5 162.3 161.8 162.8 163.1 162.6 161.7 164.2 167.7 169.1 170.3 170.5 170.2 170 169.2 168 168.8 169.9 170.1 168.4 166.6 164.9 163.8 163 161.7 160.2 162.3 164 164.7 163.5 162.6 162.3 164.1 165.7 167.2 167.8 167.6 167.1 166.6 164.7 162.6 160.3 160.3 163.6 158.1 157.5 157.4 153.7 157 159.1 158.9 157.9 156.9 157.1 159 159.3 159.1 159.5 159.6 158 160 163.8 166.6 170.9 175.9 181.1 185.5 188.5 191.4 193.7 195.3 196.9 199.2 202.3 204.8 205.6 205.4 207.8 209.2 209.8 209.6 209.1 208.6 208.1 207.6 206.5 205.2 203.2 201.4 200 198.5 195.7 195 193.5 192.2 191.6 190.8 190.1 189.4 189.2 188.7 188.2 187.7 187.4 187.2 187.3 187.4 188.4 189.2 189.3 188.6 188.1 187.6 188 188.8 191.3 194.1 195.9 196.2 195.8 195.1 194.2 193.4 192.4 190 187.4 185.2 183.5 182.1 180.5 178.7 176.7 174.2 166.4 168.3 172.7 170.3 163.4 157.5 162.5 169.1 171.7 173.5 174.3 175.9 176.5 181.8 185 188.4 191.7 197.5 201.1 202.2 199.8 196.3 191.4 188.3 184.7 189.3 191.6 195.6 199.8 203.1 204.4 205.4 205.3 205.4 205.3 204.5 203.2 201.2 198.8 196.1 193.2 190 186.5 182.7 179.6 176.6 173.6 170.6 167.6 164.9
121.5 125.2 130.8 139.3 149.6 153.2 154.7 156.1 157.1 157.8 159.1 160.4 161.5 162.2 163 163.8 163.6 163.5 164.7 166.2 167.1 166.7 165.7 165.6 166 168.6 170.5 172.1 172.4 172.5 172.2 171.1 170.3 170.6 171.6 170.3 168 166.2 164.5 163 162 161.3 161.7 163.6 165.5 165.4 165 164.1 163.5 164.6 166.1 167.6 168 167.8 167.3 166.7 165.2 165.7 160.1 159.9 159.8 159.6 158.6 156.8 153.7 157.7 159.8 159.9 158.8 159.3 160.4 161 163 163.1 163.3 164 162.9 162.1 162.1 162.5 163.6 169.6 174.4 179.8 183.2 186 187.4 188.8 190.6 193.2 197.3 200.7 203.4 202.5 205.4 207.5 208.5 208.2 207.5 207.1 206.6 206.4 205.3 204.1 202.2 200.5 197.8 197.3 196.4 195.1 193.7 193.1 192.2 192.1 192.2 191.9 191.1 190.1 190 189.1 188.8 188.8 188.8 190.7 194.3 195.2 194 191.7 190.9 190.1 189.3 190.4 193.9 195.8 196.1 196.3 195.7 194.9 193.9 192.9 191.3 188.8 185.5 182.7 181.2 179.6 178.2 176.5 175 173 165.7 162.2 167 162.7 157 160.5 168.7 170.4 172.7 174.8 176.2 177.8 179.8 181.1 185.7 189.3 194.8 204.9 206.4 203.9 200.9 197.9 193.8 188.7 188.6 192.8 195.3 198 202.1 204.5 205.2 204.8 204.5 204.4 204.9 204.4 202.9 200.8 198.1 195.5 192.8 189.7 185.6 182.5 179.3 176.3 173.3 170.3 167.3 164.8
120.6 124.5 128.9 136.5 145.9 150 152.1 153.5 154.9 155.1 158.8 159.5 161.5 163.5 165.2 165.2 164.7 165.3 166.7 167.9 168.7 168.7 169.4 169.4 169.4 169.4 170.4 172.5 173.7 174.3 174.3 174.2 172.5 171.4 172.4 170.9 168.2 166 164.9 163.9 162.7 162.3 163.5 165.7 166.7 166.3 166 165 164.1 164.5 166.4 167.5 167.8 167.9 167.4 166.8 165.6 160.5 160.1 159.9 159.7 159.5 156.9 158.8 159.5 159.3 160.4 161 160.7 162.3 164.4 165.5 167.3 167.6 168.3 169 169.2 171.4 173.7 173.2 170.8 167.1 168.6 173.6 177.7 180 180.5 181.8 183.8 187.1 190.4 195.2 197.8 200.5 202.2 205.4 207.2 206.7 206.1 205.5 205.3 205.2 197.8 203.3 204 202.8 202.2 202.2 200.3 198.2 195.1 194.6 195.8 196.4 197 194.9 195.3 193.2 191.8 190.7 190.4 190.5 191.2 194.7 196.3 195.9 194.5 193.7 193 192.3 192.3 193 194 195.8 196 196.2 195.7 194.7 193.7 192.7 191.4 189.3 185.6 180 177.2 176.9 175.8 174.3 172.9 170.9 164 156.3 157.4 155.4 155.4 166.5 167.8 168.1 170.2 172.1 174.7 177.2 180 183 186.2 189.9 198.3 207.3 208.4 205.1 202.1 199.5 195 188.6 193.6 196.4 198.9 202.7 205.2 205.5 203.6 202.7 202 202.4 203.7 203.7 202.4 200.3 197.5 195 192.5 189.3 185.6 182.4 179.1 175.9 172.9 169.9 167.3 166.3
120.6 124 127.5 132.5 137.4 141.6 145 147.7 149.4 151.4 153.8 157.4 159 160.6 161.8 162.2 161.7 165.6 167.1 167.4 168.3 170.1 171.5 171.4 171.9 171.4 171.1 171.8 173.1 175.1 175 174.2 172.1 170.6 170.6 169.1 167.2 166.7 166 165.2 164.2 163.7 166 167.1 168 167.6 166.7 165.7 164.7 164.9 166.2 167.1 167.4 167.5 167.6 167 165.3 160.4 160.1 159.9 159.7 159.4 157 156.4 159.2 160.3 162.6 167.5 166.3 164.9 167.4 170.6 173.4 175.9 176 176 177.1 180.6 184.4 182.7 178.5 176.7 172.1 167 171.4 173.3 175 180 183.6 187 194.9 198.8 201.1 206.3 202 202.3 204.2 205.1 205.1 205.7 207.4 208.5 210.3 210.4 209.6 210.4 210.6 209.6 207.1 203.2 198.6 198.5 201.8 202.7 202.4 201.2 199.5 197.2 194.1 193 192.5 192.6 194.2 195.7 196.5 196.4 195.5 195.5 195.3 194.8 194.6 195.2 195.7 196.1 196 196.2 195.4 194.4 193.5 192.5 191.2 189 185.3 180.1 173.3 173.4 172 171.1 170 165.7 158.5 153.1 152.1 154.4 162 166.4 166.6 166.3 167.6 169.5 172.1 174.8 177.9 183.1 186.9 191.6 197 208.9 210.3 206.8 204 201.2 197.6 192.2 196.8 198.9 201.5 204.6 205.8 204.5 202.3 200 199.2 199.7 200.9 202.7 201.8 199.7 197.1 194.3 191.7 188.5 185.4 182.2 178.9 175.6 172.6 170.2 167.6 166
119.9 122.2 125.9 129.3 133.1 136.3 141 143 144.5 148.8 151 152.3 153.5 154.8 154.3 153.6 155.8 159.5 162.3 163.4 167.6 170 172.2 173.6 174.2 173.2 172.7 172.3 173 173.3 173.4 171.9 170.9 169.9 169 168.2 167.5 167.2 166.5 165.8 164.6 165.1 167.2 169.2 169.2 168.3 167.4 166.4 165.5 165.3 166.4 167 167 167 167.3 166.4 165.2 162.2 160.1 159.9 159.8 158 157.3 157.3 159.6 160.8 162 163.8 166.2 168.2 170.9 175.1 179.8 183.9 186.8 185.9 186.6 189.9 192.1 191.9 189.9 186.4 181 177.8 179.9 180.6 180.8 187.9 194.6 198.8 201.9 203.8 206 207.6 205.9 203.2 203 203.6 205.2 207.1 210.3 215.2 216.3 215.8 214.5 213.6 212.1 210.5 208.7 206.2 202.4 202.4 204.2 204.1 203.1 201.9 200.6 198.8 196 195.6 195.2 194.7 196.1 196.9 197.1 197 196.7 196.5 196.4 196.2 195.8 195.8 196 196.1 196.1 195.9 195.1 194.1 193.2 191.9 190.2 187.9 183.6 178.4 171.3 168.2 168.5 166 164.1 158.7 153.8 150.2 156 162 166 165.3 165.3 165 165.4 166.9 168.8 173.8 178.9 182.7 187.1 191.5 197.2 205 211.2 208.4 205.9 203.3 199.9 194.6 198.6 201 203.6 205.4 204.8 203.4 201 198.6 196.7 196.3 198.5 201 200.6 199.1 196.7 193.9 191.2 188.2 185.1 182 178.8 175.4 172.6 170.3 168 166.6
117.8 121.3 125.8 130 133.4 136.7 139.4 143.3 144.7 147.9 149.8 149.6 149.6 149.2 148.3 147.9 148.5 151.2 156.1 165.6 168.5 170.5 172.3 173.9 174.5 174.5 173.6 172.8 173.2 172.5 172.2 172 171.3 170.5 169.8 168.9 168.1 167.7 167 166.4 166.5 166.5 168 170 169.9 169 168.1 167.3 166.4 165.8 166.5 166.6 166.6 166.4 166.4 166 164.7 162.4 160.5 159.2 159.1 157.9 157.6 158.2 160.6 161.8 163.1 165.5 168.3 170.9 174.4 179.2 185 193.8 197.7 196.9 197.1 198.5 198.7 196.8 195 192.2 188.5 183 179.5 177.8 183.9 191.7 197.6 201 204.1 205.9 206.9 207.4 207.2 204.7 204.5 205.6 207.2 210.8 214.9 216.6 216.1 215.4 214.5 213.4 211.8 210.1 208.7 207.2 205.2 204.7 204.1 203.6 202.6 201.7 200.6 199.1 198.6 197.9 197.1 196.2 197.1 197.5 197.6 197.5 197.1 196.6 196.5 196.4 196.3 196.1 196 195.8 195.4 195 194.3 193.4 192.4 190.6 189 186.7 182.5 177.2 170.8 161.2 167.1 162.4 157 152.9 149.4 152.7 161.7 165.4 165.2 164.2 164.1 163.7 163.3 164.1 168.6 173.6 178.1 182.1 186.5 191 196.5 204.9 211.4 209.8 207.6 205 201.9 197.5 200 202.5 204.6 205.4 204 202.3 199.9 197.5 195.1 194 196.3 198.9 199.5 198.3 196.3 193.7 190.9 188 184.9 181.8 178.4 175.2 172.2 170 167.8 167
115.1 120.4 125.9 130.8 134.8 138.1 139.9 142 143.4 145 146.7 146.7 146.4 144.9 143.7 143.3 144.1 147.7 153.5 164.2 169.2 170.4 172.2 174 174.8 175.1 174.3 173.5 173.4 172.6 172.2 171.9 171.6 171.4 170.5 169.6 168.7 168.2 167.7 167.4 167.7 168.1 168.8 170.7 170.6 169.4 168.5 167.8 167 166.3 166.1 166.2 166.1 166.2 165.9 166 164.5 163 161.3 159.8 158.7 158.6 158.3 158.5 161 162.6 164.1 166.3 169.1 173 177.3 182.9 190.5 199.9 204.6 205 205.2 204.8 203.3 201.1 199 197.1 194.7 188.8 184.6 182.6 184.5 192.1 198.5 202.5 205.4 206.3 206.4 207.2 207.1 206.8 207.1 209.1 212.3 215.1 215.6 216 215.5 214.7 213.8 212.6 211.4 209.8 208.3 206.8 205.4 204.5 203.8 203.1 202.3 201.6 200.9 200.2 199.5 198.7 197.9 197.4 197.7 198.1 198.3 197.7 197.1 196.3 195.4 195.2 195.1 195.3 195.3 194.9 194.6 194.1 193.4 192.6 191.1 189.2 187.5 184.8 180.7 176 169.9 159.9 157 155.9 151.8 147.4 148 157.8 164.1 164 163 163.1 162.8 162.4 161.9 163.6 168.4 173.5 177.5 181.6 185.9 190.4 196.1 203.8 212.3 210.3 208 205.8 203 201.5 202 203.7 204.4 204 202.9 201.2 199 196.6 194.1 192.7 194 196.9 197.8 196.7 195.4 193.2 190.7 187.7 184.9 182 178.5 175.1 172.7 170.2 168.1 165.9
112.3 117 122.2 127.5 131.7 135 137.6 139.9 141.3 142.4 142.5 143 142.4 140.7 140.6 139 141.8 145.6 151 161.4 168.3 170.6 172.1 173.5 174.1 174.5 174.6 174.1 173.6 173.3 173 172.7 172.3 171.9 171.1 170.2 169.3 168.8 168.4 168.5 169.1 170 170.8 171.5 170.8 169.7 168.9 168.1 167.3 166.5 166.4 168 169.1 165.7 165.4 165.5 165 164.1 162.6 160.8 160.6 160 159.7 158.7 160.7 162.6 165.1 167.1 170.7 174.7 179.4 185.5 194.4 205 208.5 209 208.5 207.8 206.7 204.6 202.7 200.8 199.1 195.2 191.1 190.2 187.4 191.5 199.3 203.5 205.8 206.5 206.7 208 209.5 212 214 215 216.1 216 215.7 215.3 214.7 213.9 213 211.8 210.6 209.4 207.9 206.2 203.8 202.4 202.8 203 202.2 201.5 201.2 200.7 200.1 199.5 198.7 198.5 198.8 198.7 198 197.3 196.2 194.8 194 193.8 194.1 194.3 194.4 194.1 193.8 193.2 192.5 191.4 189.7 187.9 185.9 182.6 178.8 174 169.1 163 155.2 149.4 147.4 145.5 152.4 160.8 162.3 161.6 159.9 161.2 161.4 161.3 162 165.6 169.6 173.6 177.3 179.9 183.5 187.7 193.7 202.9 211.2 210.7 209.3 207.4 205.5 203.7 202.3 203.3 203.1 203 202.1 200.2 198.1 195.7 193.3 191.9 192.2 193.5 194.7 194.7 193.5 192.7 190.2 187.8 185.1 182.4 179.1 176 173.2 170.7 168.3 166.2
107.3 110.5 116.6 122.7 128.7 131.5 134.5 137.2 138.7 139.2 138.2 138 137.3 136.7 136.4 136 139.3 142.9 147.7 155.6 163.1 168.2 171.2 172.5 173.1 173.4 173.7 173.5 173 172.7 172.7 172.2 171.7 171.4 171.2 170.7 170 169.3 168.9 169.2 169.3 169.4 170.1 171.4 171.1 170 169.2 168.4 167.6 166.8 166.4 166.4 167.9 165.9 165.7 165.6 165 164.4 163.8 163.1 162.1 161.3 160.2 159.5 160.5 162.8 165.3 167.9 171.4 175.3 180.7 187.2 196.7 207.5 211.3 211.6 211.1 210.5 209.8 208.3 206.5 204.6 202.8 200.3 198.6 198.4 194.6 192.5 199 204.1 206.1 206.5 207 210.4 217.6 218.2 217.9 217.3 216.4 215.5 215.1 214.4 213.8 213.2 212.3 211.1 209.9 208.7 207.4 205.6 203.2 199 199.6 201.8 202 201.6 201.4 200.9 200.3 199.8 199.3 199 198.8 198.2 197.4 196.5 194.8 193.3 192.6 192.6 193.1 193.2 193.4 193.3 192.6 191.6 190.5 189.6 188 186.6 184.4 180.7 176.2 172 167.2 161.9 154.3 149.2 145 144.1 152.2 158.2 155.2 155.8 159.4 160.8 160.4 157.1 161.6 165.4 169.3 173.3 176 178.3 181.8 186.8 192.4 199.3 207.6 210.5 209.3 208.8 207.2 205.1 203 202.9 202 201.8 201.1 199.5 197.2 194.9 192.5 191 190.5 191.6 191.6 193.8 193.6 191.8 189.5 187.3 184.9 182.5 179.6 176.7 173.9 171.3 168.7 166.4
101.2 104.4 111.7 119.8 124.9 128 131.1 132.9 133.8 133.9 133 132.5 132.5 132 132.7 133.1 136.6 140.6 144.9 149.1 154.7 161.4 167 169.8 171.2 172.1 172.6 172.8 172.3 171.8 171.3 170.5 169.8 169.5 169.3 169.2 169.1 168.6 169.1 169.7 169.6 169.5 169.9 171.1 171.4 170.4 169.6 168.8 168 167.2 166.4 165.9 165.8 165.7 165.4 164.8 164.6 164.2 163.8 163.7 163 162 160.2 161.3 160.9 163.2 165.7 168.3 171.8 175.9 181.3 188.2 198.6 209.5 213.1 213.2 213.2 212.6 212 211.3 209.8 208.2 206 203.8 202.8 203.1 201.7 198.9 198.2 203.7 206.1 206.3 207.7 213.2 219.1 219 218.2 217.3 216.4 215.2 214 211.6 211 211.3 210.9 210.5 209.3 208.3 206.8 204.7 202 196.5 194.8 199.2 201.7 201.7 201.6 201.1 200.5 199.8 199.3 199.1 198.2 197.4 196.6 195.8 194.3 192.4 189 191.2 191.4 190.9 190.4 190 188.4 186.5 184.5 184.9 184.7 184.8 182.8 178 173.3 169.9 166.4 160.1 152.8 148.1 143.8 142.9 146.9 150.2 152.1 159 159.6 160 157.6 161 163.9 166.1 169.4 171.8 174.2 176.6 180.3 185 189.8 195.9 206.2 209.5 208.8 208.5 207.9 205.6 203 202.6 201.6 200.6 200 199.1 196.8 194 191.9 190.3 189.3 188.8 190.3 191.1 191.4 190.9 188.9 186.6 183.8 181 178.7 176.1 174.1 171.7 169.4 166.9
100.9 101.1 105.8 117 121.5 123.3 125.8 127.4 127.4 126.8 126.4 126.2 126.2 127.9 129.3 131.3 135.6 139.7 142.9 145.8 148.8 151.9 157.6 163.5 167.9 169.7 170.3 171.3 171.4 170.9 169.6 168.8 168.2 167.9 167.7 167.6 167.5 167.6 169.1 170.1 169.9 169.4 169.7 170.3 170.8 170.7 170 169.2 168.3 167.5 166.8 166.2 165.7 165.1 165.2 164.4 164.6 164.3 163.9 163.2 162.3 161.7 161.5 162.1 162.8 164 166.3 168.7 172.2 176.6 182 189.6 200 210 214 214.8 214.8 214.7 213.9 212.7 211.4 209.5 208.2 206.1 205.6 205.8 205.7 204.5 201.5 201.5 205.1 206 207 212.1 218.5 218.9 218.2 217.3 216.4 215 213.1 207.1 202.9 204.7 206.9 207.9 208.2 207.8 204.9 199.5 195.1 191.2 192.2 198.2 201.8 202 201.7 201.1 200.5 199.7 199.4 198.4 197.3 196.6 195.8 195 193.7 191.1 187.6 186.3 187.7 185.3 183.6 183.2 181.2 178.1 174.8 176.4 177.2 178.9 179.6 176.8 170.4 167.3 165.7 162.7 155.4 147.6 142.7 142.1 144.3 149.6 157.6 158.7 158.7 158.2 152.6 160.5 163.7 165.9 168.1 169.4 171.9 174.7 177.9 181.8 186 192.6 203.4 208 208.2 207.4 207 205.9 203.3 201.3 199.8 199.3 198.9 198.2 196.4 193.8 191.7 189.7 188.6 188.2 188.3 190 190.4 189.9 188.1 185.3 182.5 179.6 177.3 175.6 173.9 170.3 167.9 166.3
107.5 108.4 102.5 109.3 112.5 116.3 118.5 120.4 120.6 120.4 121.4 121.5 123 124.7 126.7 129.9 134.6 138.3 140.6 143 144.7 146.9 149.6 153.8 159.3 164.8 167.9 169 169.6 168.7 168 167.2 166.7 166.3 166.2 166.1 166 166.3 167.2 168.7 169.1 168.9 169.2 169.3 169.8 170.9 170.4 169.4 168.6 167.8 167 166.3 165.7 165.3 164.8 163.9 164.3 164.1 163.5 162.9 162.1 161.7 162.4 163 163.7 164.6 166.6 169.4 172.9 177.2 183.1 190.8 201.2 210.3 214.6 215.7 215.8 215.7 214.6 213.6 212.4 210.9 210.1 208.8 208.5 208.4 208 207.4 206.3 203.6 203 204.5 206.2 209.3 216.5 218.3 217.8 217 216.2 215.2 213.7 210.3 200.9 197.6 199.7 202.9 204 204.2 200.1 193.9 189.9 188.4 192.4 198.8 202.1 202 201.4 199.9 198.9 198.1 199.7 197.4 196.5 195.7 195 194.2 193 192 190.2 184.9 180.6 177.7 175.1 173.6 171.8 169 167.4 165.7 167 170.1 173.1 173.1 165.3 163.7 165.6 162.9 155.9 148.2 142 141.7 147.6 155.5 157.3 157.3 157.2 155.7 155.5 159.2 161.8 164 165.7 167.2 169.4 172.8 175.3 178.9 182.6 189.4 199.6 205.1 206.4 205.9 205.5 204.8 203.2 199.8 198.4 197.9 197.5 197.5 196.2 193.8 191.5 189.5 187.7 186 187.1 188.7 189.7 189.5 187.5 185.3 183.2 180.8 178.3 175.9 173.5 169.6 166.9 164.9
106.8 110.2 108.6 105.8 107.1 109 111.4 114.4 117.8 119.5 120.7 121.9 122.2 122.7 125 128 131.6 135.2 137.8 140.4 142.4 144 146.1 149 151.1 155.8 163 166.2 167.8 167.5 166.6 165.8 165.1 164.5 164.5 164.4 164.6 164.8 165.5 166.8 168.4 168.5 168.8 168.9 169.1 170.3 170.3 169.5 168.7 167.9 167.2 166.5 165.8 165.1 164.2 163.4 164.1 164.1 163.2 162.5 162.1 162.2 163 163.9 164.5 165.5 167.1 170.2 173.7 177.5 184.4 193.4 202.7 211.5 215.1 216.3 216.6 216.1 215.1 213.6 213.1 212.3 211.5 210.9 210.4 209.1 208.1 207.4 206.4 204.7 203.7 204.6 205.2 206.7 210.7 215.9 216.9 216.4 215.8 215.3 213.7 207.8 199.6 195.4 194 195.1 195.9 196.2 193.2 190.6 187.5 188 193.9 200.5 201.9 201.3 200.3 199.5 198.9 197.6 198.2 196.4 195.6 194.7 193.8 192.5 192.3 191.8 191.1 189.7 186.7 182.9 179.7 176.8 175.1 174.4 174 170.3 162.9 159.5 162 162.2 158.8 161.5 164 161.9 155.4 147.7 140.9 142.3 150.1 155.5 155.8 155.8 155.4 153.6 154.3 157.2 159.9 161.7 163.8 165.4 167.2 170.8 172.9 176.6 180.4 186.9 196 203.3 204.9 204.5 203.7 202.7 201.9 199.9 197.8 196.4 196.1 195.8 195.8 193.7 191.4 189.2 187.5 186.3 186.1 187.9 189.2 189 187.4 185.5 183.3 180.9 178.5 176.3 173.4 171.2 169 166.3
110.9 112 112.5 111.6 113.2 113.5 117.4 121.1 124.8 127 127.2 127.6 128 128.5 127.5 125.9 129.4 132.9 135.3 138.1 140.2 141.5 143.3 144.6 147.1 149.6 154.3 162.1 165.4 166.2 165.4 164.6 163.7 162.5 162.5 162.4 162.6 163.3 164.1 164.9 166.6 167.9 168.4 168.4 168.5 169.6 170 169 168.5 168.1 167.4 166.7 165.9 165.2 164.2 162.7 163.8 164.2 163.6 163.2 162.5 162.7 163.5 164.5 165.4 166.6 168 170.9 174.9 180.1 187.7 196.9 205.5 212.9 215 216.3 216 215.1 214.2 213.5 213.1 213 212.7 211.9 210.5 209.5 208.5 207.4 206.3 205.6 205.1 205.2 204.8 204.2 205 209.8 215 216 215.5 215 213.7 207.8 199.6 195 191.2 190.4 191.2 191.7 190.4 188.5 186.5 188.4 195.6 201.4 201.2 200.2 199.1 198.3 198.3 197 194.9 194.4 194.4 193.6 192.4 190.7 191.6 191.2 190.8 190 189.3 188.8 188.2 186.5 185.6 184.9 182.3 177.4 170.3 159.5 152.9 153.7 153.1 159.4 162.3 161.1 155.4 147.4 139.4 142.1 150.5 153.6 153.6 154.3 153.3 151.1 152.1 155.5 157.4 159.2 161 162.9 166.1 168.8 171.3 174.1 178.1 184.9 193.7 200.3 203.4 202.6 201.6 200.3 199.4 197.8 197 195.5 194.5 193.9 193.9 193.5 191.3 189.1 187.3 185.9 185 186.3 188.1 188.4 187.6 185.6 183.4 180.9 178.3 177.5 175.1 172.3 169.5 166.9
115.7 114.3 114.9 114.8 116.7 119.3 124.7 130.3 137.2 138.2 137.8 136.6 135.9 134.3 131.8 129.6 127.7 131.7 134.1 136 138.1 139.2 140.4 142.2 143.9 146.1 148.8 155.8 162.3 163.8 163.9 163.4 162.5 160.8 160.1 160.2 160.3 161.4 162.5 163 164.5 165.9 167 167.4 167.7 168.6 169.1 168.3 167.9 167.6 167.5 166.9 166.2 165.5 164.2 162.9 163 163.9 163.5 162.9 163 163.2 162.8 163.9 165.6 167 169 172.5 177.8 183.6 192.7 202.6 208.9 213 214.4 215.1 215 214.1 213.3 213 212.9 212.8 212.7 211.8 210.4 209.2 208.2 208.1 207.9 208 207.2 206.3 204.8 203 203 205.6 214.8 215.7 215.2 214.1 213 207.4 198.8 194.6 192 188.3 187.3 189 188.9 186.4 184.5 187.9 194.7 199.5 200.2 199.1 198.1 196.5 193.9 192.5 189.7 189.8 192.2 192.4 190.6 189 190.9 190.7 190.5 189.8 189.1 188.6 188.1 187.6 187.2 186.3 185 179.8 172.9 160.8 153.2 149.5 148.6 153.2 157.4 160.1 156 147.7 139.5 140.3 146 149.2 152.1 153.1 152.1 149.5 150.3 151.8 154.9 156.5 158.1 161 163.9 166.4 168.9 171.5 175.3 181.9 189.8 197.1 201.1 200.9 199.7 198.5 197.3 196.5 196 194.7 193.6 192.5 192.1 193 191.1 189.1 187.1 185.6 184.3 184.8 186.8 188.4 187.6 185.8 183.3 180.2 178.8 177.8 175.4 172.6 169.8 167.2
121.1 117.9 117.5 118.2 120 125.8 131 134.3 136.7 138.4 139.1 139.7 140 138.9 135.5 133.2 130.7 130.2 131.5 133.2 134.9 136.3 138.5 140.2 141.6 143.1 146.6 152.3 159.1 161.2 161.7 161.4 161.1 159.4 157.7 157.6 157.8 158.2 159.5 160.5 162.7 163.9 165 165.8 166.3 167.9 168.2 167.6 167.2 167.2 167.2 166.8 166.4 165.4 164.1 162.8 162 162.7 163.1 163 163.5 163.7 165.2 167.2 168.8 170.9 172.8 175.2 181.4 188 197.3 205.4 209.8 211.7 212.5 212.7 212.3 211.3 210.2 211.1 211.5 212 211.9 211.5 210.3 208.9 209 210.8 212.3 212.9 212.7 210.4 205.4 202.9 201.8 203.2 209.7 211.4 209.8 207.7 206.4 202.4 199.9 199.3 195.7 190.8 186 185.4 187.3 186.4 182.4 184.7 189.1 193.8 197.7 198 195.8 191.6 188 186.4 183.6 186.6 190.2 188.9 186.8 187.5 190.1 190.3 189.6 188.9 188.1 187.7 187.4 187.1 186.6 185.4 184.3 179.9 171.7 164.4 160.3 154.3 147.9 145.2 149.7 155.1 157.7 150.1 141 136.4 141 147.9 151.9 151.9 150.1 144.9 147.9 151.2 152.3 151.1 155.4 158.4 161.5 164 166.3 168.8 171.7 177.4 185.2 193.6 198.6 199.1 198.4 197.2 196 194.6 194.3 194.3 193.5 192.1 190.9 192.1 191.1 189.1 187.1 185.5 184.1 182.3 185.5 187.4 187.6 186 183.7 180 176.5 177.5 175.4 172.9 170.1 167.4
127.1 124.1 120.8 120.6 122.5 124.1 124.9 126.3 129.4 131.4 133.5 135.7 136.9 138 137.5 135.5 133.1 133.1 133.2 132.9 134 136 137.7 137.9 140.1 142.7 147 153.1 157.1 158.1 158.9 159.2 158.8 157.6 155.5 154.3 155 155.5 156.3 158.2 160.4 162.5 163.6 165.2 166.3 167 166.8 166.8 166.9 166.9 166.9 166.6 166.4 164.9 163.7 162.1 161.7 162 162.7 163.5 164 166 168.7 171.6 174.2 177.6 179.8 182.2 187 193.8 201.9 206.4 208.5 208.6 208.4 208.2 207.9 207.6 206.8 207.5 208.8 209.9 210.2 209.9 209.3 208.7 211.1 215.2 216.3 217.5 216.5 213.4 205.7 201.9 200.3 200.7 201.6 202.3 202.1 201.8 202.7 205.9 207.4 206.6 198.8 192.5 188.2 183.1 183 185.3 181.3 180.5 184.4 189.6 195.7 196.9 194.3 187.5 181.1 179 178.9 180.7 183.8 183.5 183.8 188.4 189.9 189.7 188.7 187.9 187 186.4 186.1 185.9 185.6 184.6 183.3 180.2 175.3 172.2 168 161.7 154.8 146.1 143.2 147.4 152.4 153.2 144 134.2 136.7 143.9 149.8 150.2 148.2 137.4 147 148.2 149 151.6 155 156.9 159.1 161.6 163.2 165.3 168.2 173.8 180.2 188.8 195.9 197.3 196.9 196 194.6 193.2 192.4 192.7 193.2 192.5 191.5 191.1 190.6 188.9 187.1 185.4 183.8 182.5 184.1 186.9 187.5 186.5 184.3 180.3 176.1 175.4 174.3 171.8 169.2 166.3
123.5 126.1 125 122.6 123.2 122.6 122.5 122.8 123.4 124.8 126.3 129.4 132.1 134.8 135.7 134.9 135.1 136.7 136.7 135.3 137.7 140.3 141.3 141.9 143.9 146 149.5 153.8 154.9 155.4 155.8 155.9 155.5 154.7 153.1 151.4 151.3 152.6 154.7 157.7 160.4 162.4 163.5 165.3 165.8 165.6 165.5 165.8 166.2 166.3 166.4 166.6 166.2 164.6 163 161.7 160.3 161.4 162.3 163.4 165.2 167.8 171.9 176.1 181.7 186.3 187.7 189.7 193.4 199.2 203 204.3 203.4 202.3 201.7 201.6 201.2 201.4 202.3 202.8 204.7 206.9 208.3 208.3 207.5 206.5 209.5 214.4 215 213.1 210.1 206.2 203 200.5 199.6 198.9 199.4 199.2 198.7 198.4 203.5 209.7 209.7 208.2 201 193.7 189.4 185.1 177.1 180.9 181 173.9 181.6 188.6 194.5 196.4 191.9 184.5 178.3 175.6 176.4 176.7 177.2 180.6 185.2 189.4 189.5 188.7 187.7 186.8 185.8 185.2 184.9 184.9 184.5 183.8 182.6 181.1 177.3 172.6 168.4 165.5 160 151.8 142.7 141.1 145.2 150.8 147.9 138.7 131.1 139.2 147.2 148.6 146.2 134.4 143.4 142.8 145.1 150.7 152.8 154.7 157 158.7 160.3 162.5 165.1 170.5 176.1 182.9 191.4 194.9 195.2 194.7 193.4 192 190.7 190.7 192.3 193.3 192 189.9 189 188 186.3 184.9 183.5 182 183.2 185.9 187.5 186.1 183.7 180.3 176.1 172.7 172.2 170 166.2 161.6
118 120.4 123 123.8 122.7 122.1 121.1 121.2 121.7 121.5 122.4 123.7 126.1 128.8 130.8 131.8 134.1 136.5 136.7 137.4 139.9 143 144.9 145.7 147.3 148.2 150.2 151.5 152.1 152.3 152.5 152.7 152.1 151.2 150.1 148.7 149.6 151.8 154.2 156.8 160.2 161.5 162.1 163 162.5 162.7 163 164 164.2 165.3 165.5 165.6 166 165.1 162.6 161.2 160 160.3 162.2 163.8 166.4 170.2 175.1 180.6 187.7 193.8 196 197.5 199.2 200.6 199.9 196 190.2 188.5 187.4 187.4 188.5 193.1 195.5 197.1 201 204.2 205.7 206.1 205.2 204.1 204 205.9 206.2 205.2 204 201.9 200.6 199.5 198.4 196.9 197.5 197 196.2 197.3 202.2 209.1 209.6 208 201.6 194.5 189.8 186.7 181.9 169.5 170.2 167.7 181 187.9 194.1 194 187.7 180.7 176 173.1 173.7 174 176.5 182.7 188.1 189.3 188.5 187.6 186.5 185.5 184.5 183.6 183.7 183.9 183.4 182.8 181.7 179.7 176.5 171.6 167.8 165.1 160.6 153.3 147.1 141.1 138.8 143.9 150.8 142 132.3 134.5 143.4 147 144.2 136.3 134.4 142.6 146.1 148.9 151 152.5 154.3 155.9 158.3 160.5 162.8 167.2 171.3 176.3 186.5 192.3 194 193.3 192.4 191.1 189.7 189.2 190.6 192.2 191.6 190.4 188.5 187.2 185.5 184.1 183.2 181.3 182.1 184.6 186.1 185.2 182.6 178.8 174.3 169.4 167.9 165.8 159.7 155.8
115.2 117.4 118.9 120.8 121.3 121.4 120.1 120 119.5 119.6 119.8 120.7 122.4 124.4 126.1 128.5 131.1 133.5 134.9 137.3 139.7 141 142.6 143.9 145.6 146.4 147.5 148.7 148.8 149 149.2 149.1 148.4 147.7 146.8 145.4 146.3 149.4 153.1 155 157.3 159.2 160.1 159.7 159.2 159.3 160.2 161.1 162.1 163.6 164.1 164.5 164.5 164.6 162.5 161.4 160.4 160.6 162.2 163.9 167.3 172 178.3 185.2 192.5 200 201.5 201.4 199.7 196.4 190 182.7 180 178.3 177.1 177.7 177.4 181.3 184.8 190.3 196.3 201.1 203.1 203.4 203.1 202 201.1 201.8 202.1 201.3 200.6 199.6 198.8 197.7 196.6 194.6 195.7 194.9 194.1 196 199 206.7 208.8 207.3 201.8 194.2 189.1 186 182.8 177.4 162 167.9 180.3 186.8 192.9 190 183.6 178.3 174.6 171 172 173.6 180.3 185.8 188.6 188.3 187.4 186.5 185.3 184.2 183 181.7 181.7 182.8 182.6 181.9 179.8 177.1 173.7 169.8 167.2 164.3 161.8 158.9 154.1 146.4 139.2 137.4 144.7 142.6 133.3 131.3 141 145 143.7 136.4 138.2 142.6 145.2 147.1 148.7 150.3 151.8 153.8 156.4 158.4 160.3 162.8 167 174.4 182 189.5 192.4 192.2 191.1 190.1 189.3 187.6 188.9 190.5 191.4 190.1 188.8 187.7 186.5 185.3 183.8 182.1 180.5 183.1 183.8 180.9 178.1 173.5 168.6 163 162.3 158.1 163.1 165.2
112.5 114.5 116.6 117.2 117.3 116.9 117.1 117 118.4 119.1 118.7 119.8 121 122.2 123.9 125.9 128.6 131.9 134.5 136.4 137.9 138.7 140.2 141.7 142.5 143.6 144.7 145.4 145.4 145.7 145.9 145.5 145.6 145.6 144.9 143.5 145 147.8 149.5 149.6 153.1 154.5 155.1 155.5 155.3 156 157.6 158.1 160.2 161.5 161.8 162.2 162.8 162.9 161.6 160.8 160.3 160.2 161.5 163.3 167.4 172.8 180.2 187.9 197.2 203 201.5 198.2 194.4 190.8 181.1 177 174.2 171.7 169.6 169.4 170.4 171.1 176.7 185.4 193.7 198.7 200.1 200.5 200.9 200.2 198.6 199.7 200 199.3 198.5 198.1 197.2 196.1 194.2 192.7 194.1 193 192.9 194.8 196.8 203.6 207.3 205.7 199.8 192.1 187.7 184.3 180.8 175.3 159 168.1 179.3 184.5 188 185.2 179.4 176.4 173.3 169.5 170.6 177.2 183.4 187.5 187.9 187 186 185.2 184.2 183.2 182.2 180.3 179.5 181.5 181.7 180.7 178.3 174.8 170.3 166.9 164.6 163.3 161 158.9 155.9 148.3 140.7 135.5 140.5 142.8 134 129.3 139 144 142.3 129.7 134.6 141.3 143.6 144.9 146 147.9 149.3 152 153.8 155.4 157.9 161.4 164.9 169.8 177.9 186.2 190.7 191.3 190.4 187.9 187.1 186.8 188.2 189.3 190.7 190.2 189.2 188.3 187.4 186.3 184.9 183.1 177.9 179.6 179.7 176.2 173.1 174 172.5 170.3 169.2 169.2 170.8 170.6
117.4 119.1 119.5 118.7 119.4 119.1 121.1 120.9 121.1 121.5 121 120.9 120.8 120.7 122.5 124.9 127.4 132.3 132.9 134.1 135.1 136.4 137.9 139.2 140.2 141.7 143.4 143.8 143.2 143.8 144.5 144.4 144.2 144.2 143.2 141.5 144.7 146.4 148.1 148.2 149.7 151 151.5 151.6 152.3 153.5 155 155.5 157.9 158.8 159.1 160.1 161.1 161 160.8 160.8 160 158.7 159.7 162.6 167.1 173.1 180.8 188.9 198.2 200.9 196.6 193.1 189.5 185.3 175.8 170.8 168.2 166.6 165.4 166.1 164.7 166 173.4 183.8 192 195.7 197.2 197.7 198.1 197.8 196.3 197.7 197.9 197.2 196.6 196.2 195.4 194.2 192.9 189.8 191.5 190.5 191.9 194.1 197.2 204.1 205.7 203 195.3 188.7 185.1 181.4 176.2 169.5 157.3 166.4 177.6 179.8 180.7 179.1 177.1 174.2 171.9 167.2 171.5 178.8 185.4 186 184.7 183.6 183.2 183.4 182.9 182.1 181.3 180.3 176 180.3 180.2 179.4 177 173.4 169.3 164.8 161.2 161.9 160.1 157.2 151.6 145.2 138.9 134.2 140.4 144.1 134 127.2 134.4 139.2 130.7 125.7 137.3 140.1 141.7 142.8 143.3 144.9 147.7 149.2 151.3 153 155.6 158.8 162.6 168.9 175.4 182.7 188.5 190.1 188.8 186.5 180.6 185.4 186.1 188.3 190.7 190.8 189.9 189.1 188.1 187.1 186.1 184.3 182.1 176.9 175.6 179.5 182.1 183.3 181 178.4 176 175.9 176.2 174.7
121.5 123.5 124.4 125.8 125.3 125.5 125.8 125.9 126.1 126 125.5 124.6 123.9 122.2 122.1 123.5 126.1 127.6 129.5 130.8 132 133.4 135 137.3 138.8 140.1 141.2 142.2 141.6 142.5 143.7 143.3 142.9 142 140.7 140.1 142.9 144.1 145.4 145.8 146.5 147.7 148.3 148.5 149.2 150.7 152 152.7 154.7 155.6 156.6 158.2 159.2 159.6 159.5 159.3 158.7 157.1 156.3 162.2 167 171.6 178.6 186.2 193.8 195.4 192.2 188.8 185.3 180.5 170.4 165.4 161.3 159.9 159.4 159.1 158.6 165.5 173.9 183.9 189.2 192.4 193.6 194.3 195.2 195 194 195.5 195.7 194.7 194 193.8 193.2 191.1 189.2 187.4 188.1 190.9 193.3 196.1 200.9 203.4 203.4 198.3 191 186.4 182.8 178.9 172.9 162.1 152.8 167 176.2 177.3 177 176.1 175 171.8 167.8 166.5 172.2 179.2 183.3 181.4 180.6 179.4 180.2 180.7 181.6 180.9 180.3 179.3 172.9 177.5 178.7 177.5 175.3 172 167.9 163.2 156.8 154.8 154 151.5 146.8 141 134.9 132.9 140.8 145.7 136.4 124.6 128.3 128.9 123.4 133.2 137.4 138.5 139.6 140 139.8 141.9 144.7 146.7 149 150.5 153.5 156.3 159.5 165.2 170.9 178.7 184.5 187.4 185.4 182.9 177.9 182 185.7 188.2 190.6 191.2 190.7 189.8 189.1 188.5 187.4 185.7 184.3 182.1 182.3 185.6 188 188.1 186.3 184 182.2 181.4 180.9 179.7
122.9 125 127.5 129.3 130.2 130.6 131.8 131.5 131.5 131.2 130.6 129.7 128.2 126.4 125.4 124.4 124.7 125.3 126.3 127.6 128.4 129.7 132.4 135.4 137.5 138.4 138.9 140.1 139.2 140.3 141.7 141.8 141.5 139.6 137.7 138.7 140.6 141.6 142.7 143.2 143.8 144.3 145.1 145.6 146.2 147.1 148.1 149.6 150.8 152.3 153.9 155.8 157.3 157.6 157.2 158.1 157.8 155.9 154 160.6 164.3 168.5 174.4 179.4 185.6 188.2 188.2 184.9 181 175.6 167 160.8 156 153.6 153.6 153.8 160.3 167.7 176.7 182.7 186.8 189 190.2 191.1 191.9 192 191 193.3 193.4 192 190.7 191.2 189.7 187.7 186.5 187.6 190.8 193.3 197.2 201.3 203.4 201.9 197.8 192 187.6 184.1 180.5 175 168 155.7 151.4 167.5 174.2 175.2 174.4 173.5 172.7 169.1 162.9 168.1 170.4 172.6 175.3 175 174.3 176.1 179.7 180.8 180.6 179.9 179.2 177.9 171.9 170.5 176.1 175.2 172.8 170.1 167 163.9 158.7 153 148.7 145.6 141 137.7 134.5 131.1 135.6 141.6 143.1 131.7 121.4 120.9 127.2 135.8 135.8 136.5 136.5 135.7 135.7 138.3 143.3 145.3 140.7 148.6 150.6 152.4 154.9 162 168.1 173.8 179.7 182.4 181.7 179.3 174.9 180.1 184.6 187.4 190 191.8 191.4 191.1 190.5 189.7 188.6 187.1 186.3 185.6 185.7 188 190.7 191.1 190.5 189.8 188.3 187.5 186.9 186.1
122.3 124 126.5 126.7 127.1 128.2 128.7 131.6 134.9 136.1 135.4 134.5 133.1 131.7 130.3 129.3 128.3 128.4 128.4 128.5 129 129 130.8 132.8 135.4 136.5 137.2 138 138 138.4 139.6 140.1 139.8 138.5 135.2 137.1 138.5 139.4 140.3 140.7 141.1 141.6 142.3 142.8 143.4 144.1 145.3 146.6 148.6 150.1 151.7 153.6 155.3 155.4 154.6 155.4 156.2 153.7 151.7 156.4 160.6 163.3 168.3 172.6 177.2 179.2 178.8 178.9 174.3 168.8 164.3 156.4 150.2 146 148.8 156.1 163.4 170.4 176.8 180.5 183.8 185.5 186.6 187.8 188.6 188.7 188.1 190.4 190.6 189.2 186.5 186 179.3 178.6 187.5 191.6 193.7 198.1 202.7 203.4 200.9 196.8 191.4 188.2 185.1 181.7 178.2 173.2 163.4 150.5 151.5 166.5 172.2 172.9 171.9 171 170.1 164.7 161.2 168.5 168.8 168.7 169.3 169.6 172 177.5 180.9 180.1 179.4 178.9 177.5 176.3 173.3 165.4 169.1 172.7 170.8 168.7 166.2 163.6 161.4 158.2 154.1 149.7 147.5 144.4 140.5 133.8 129.9 133 139.9 141.1 130.5 117.5 126 133.6 134.3 133.8 133.1 126.1 135.9 138.8 140.5 140.5 143.2 146.6 148.1 151.5 155.2 160.1 165.2 168.7 173.4 178 178.8 176.1 170.7 178.1 182.7 186.7 189.8 192.8 192.8 193.2 193 192.1 190.7 190.2 189.6 189.2 189.2 189.5 191.6 193.8 194.6 195 194.7 193.9 192.8 190.8
120.1 122.6 125 126 125.6 123.7 123.4 124.9 128.3 131.6 134.4 137.2 138.5 137.1 135.7 134.8 134 133.5 133.3 133 132.8 132.7 133 133.8 134.1 135.4 135.8 136.9 137.7 137.5 138 138.4 138.3 137.2 136 136.7 137.7 137.8 138.1 138.4 138.8 139.4 140.1 140.8 141.5 142.4 143.3 144.4 146.6 148 149.5 151.1 152.9 153.8 152.5 154.6 154.4 152.3 150.7 152.5 157.3 160.2 162.3 164.8 168.6 170 170.5 170.4 167 161 158.4 153.6 142.8 138.9 148.6 157.2 164.8 170.6 175.1 178.4 180.6 182.2 183.2 184.3 185.1 185.2 184.9 187.1 187.2 185.5 182.4 169.7 174.7 188.7 190.9 193.8 198.7 202.4 201.4 198.6 194.9 190.8 188 186.1 183.4 179.9 176 170.9 160 146.8 149.8 163.6 169 170.1 169.4 167.5 166.2 159.2 160 166.6 166.8 166.8 165.9 166.8 173 178.8 179.7 179.1 178.3 176.9 174.3 174.4 173.9 166.6 160.6 163.7 167.9 167.1 164.9 162.6 159.9 158.2 156.3 154.1 152.1 149.9 145.4 139.6 133.1 128.3 131.2 138.5 135.5 124 118.4 125.4 132.2 132 125.1 130.9 133.8 133.2 130.1 136.1 139.1 144.7 148.1 150.8 153.7 157.7 162.4 166.1 170.4 175.3 176.5 173.7 170.9 176 181.7 185.9 189.8 193.1 195.5 196.7 196.3 195.5 194.4 193.2 192.6 192 191.5 192.5 192.4 194.1 196.8 199.7 200.1 199.9 199.1 196.5
117 118.1 120.4 122.5 123.5 122.5 120.4 121.6 124.1 126.3 128.6 130.3 133.6 136.3 137.6 137.4 137.1 137.5 137.5 137.2 137.2 137.2 137.2 136.9 136.8 136.7 136 136.8 137.4 137.2 137.8 137.8 137.8 135.8 131.2 132.4 135.3 133.7 131.4 132.8 134.1 136.1 137.7 138.2 138.9 139.6 140.4 142 144.1 146.6 147.7 149.2 150.7 151.2 152.3 153.3 152.6 151.2 149.2 150.3 154 154.8 156.6 158.1 161.4 161.3 161.3 160.9 158.3 153.7 149 147.6 141 137.1 147.1 156.2 164.3 168.9 172.7 175.6 177.3 178.9 179.8 180.8 181.7 182.3 181.7 183.7 183.4 181 172.6 163.2 183.6 188.1 192.4 199.5 202.3 199.1 195.7 192.3 189.4 187.6 186 184.1 181.1 178.4 174 168.9 159.5 146.1 145.5 156.5 164.2 166.6 166.3 163.3 160.3 148.3 162.2 164.7 165 164.2 163.3 164.4 170.5 175.5 177.9 177.6 176.5 173.3 170.1 172.5 172.8 169 160.6 156.1 157.3 158.8 157.2 155 153 152.3 152.5 152.4 151 149 147.1 142.8 134.9 128.6 126.5 133.1 136 131.3 121.2 116.8 122 129 118 127.5 122.3 133.9 137.8 140.3 142.1 144 145.8 147.9 151.7 155.9 160.2 163.7 168.5 173.5 174.9 171.9 163.3 171.7 180.2 185.8 189.7 193 196.8 199.5 200 199.2 196.2 193.9 192.5 192.3 190.6 190.1 190.5 193.1 196.7 201.1 204.3 204.5 204.6 202.2
112.6 113.4 115.2 117 118.7 118.6 118.6 123.3 124 125.3 126.3 124.9 125.2 127.3 129.4 131.8 134 135.5 135.9 135.5 135.8 135.6 135.7 136 136.5 136.6 136.7 137.4 136.7 136.7 137.1 137.4 137.1 134.1 127.6 130.2 129.5 126.5 127.7 129.9 131.4 132.5 134.2 135.5 136.5 137.5 138.9 140.4 141.9 144 145.9 147 148.1 149.2 150.5 151.3 151.2 149.7 148.1 145.9 148.8 150.8 151.2 152.7 154.6 155 154.6 152.6 150 147 141 139.7 138.4 133.9 145 154.2 162.6 166.5 169.7 172.2 173.8 175.4 176 177.5 178.7 178.8 177.8 179.4 178.9 172.5 165.9 166.9 181.8 187.3 193.6 199.6 196.8 193.3 189.5 187.3 186.3 185.5 184 181.8 180.2 177.6 173.3 168.8 161 148.2 140.6 148.6 158.4 161.9 162.2 159 150.9 149.3 162.1 162.6 162.9 163.3 160 161.1 166.9 172.3 176.6 176.6 172.3 168.2 166.4 170.1 171.1 170.2 164.7 158 152.5 149.8 150.1 147.5 144.5 143.1 143.1 144.3 144.7 143.9 141.9 139 133.3 128.4 124.2 127.6 131.1 132 127.1 118.1 114.6 118.8 115.3 122.2 130.1 134.1 136 138.3 140.5 141.3 142.2 145.2 149.5 153.3 157 161 166.4 172 173.9 171 160.2 175.2 182.2 185.4 188.8 192 196.4 199.2 200 200.6 196.7 192.4 189.3 187.6 186.3 187.1 189.5 192.2 195.8 201.3 206.5 208.6 209 207.1
106 107.5 108.9 110.4 111.8 112.9 116 119.8 122.1 123.1 123.7 120.8 119.6 119.7 121.1 123.5 127 130 132.3 133.1 133.9 132.9 133.1 133.7 134.8 135.1 135.5 135.4 132.1 128.9 128.5 129.9 131.1 130.8 124 124.3 124.7 129.7 134 136.1 136.3 133.8 132.9 133.9 134.9 136.1 137.8 139 140.5 142 144 145.3 146.5 147.9 149.2 149.9 149.2 148.1 147 144.2 142.8 145.6 144.8 145.6 148.2 148.4 147.2 145.3 142.3 139.3 136.9 134.1 134.1 132.2 141.4 151 159.1 163.1 166.6 168.6 170.3 171.6 172.3 174 175.1 175.7 172.7 172 171.7 165.6 159.9 167.4 181.1 186.7 188.9 190.8 189.9 187.5 186.3 185.2 183.7 182.8 181.6 181.5 180.2 176.8 173.1 168.8 163.4 152.3 142.1 140.7 151.5 156.2 156.9 153.5 141.3 153.8 159.9 160.4 160.9 161.6 157.8 160.2 167.3 172.8 175.8 173.2 167.8 163.1 164.1 169.5 170 169.2 167.9 163.9 157.5 150.5 145.3 143.8 143.6 141.5 136.9 136.9 137 137.1 135.3 132.9 129.3 124.8 122.1 121 121 120.8 119.9 117.9 114.4 111.9 114.8 124.5 128.8 131.8 133.8 136 138.5 138.1 139.9 143.8 147.3 150.5 153.5 158.2 165.3 171.6 172.1 168.2 159.4 170.3 177.4 182.4 186.8 191 193.9 196.5 198.8 201 196 191.2 186.3 183.1 183.1 186 188.5 191.4 195.2 199.8 205.5 210.5 212.3 210.9
101.8 103.3 103.9 105.3 106.9 108.7 110.4 112.7 115.2 117.1 117.8 117.1 114.1 113.7 114.5 116.2 119.4 121.7 124.2 126.3 126.7 127 127.6 129.8 131.9 133.6 133.8 131.7 124.9 119 117 118.7 121.8 123.2 120.3 125.6 131.9 133.6 136.3 138.4 139.2 137.4 134.5 136.6 137.2 137.1 137.6 138.1 139.3 140.7 142.2 143.8 145.7 147.3 147.9 148.4 148.1 147.3 145.8 142.8 140.1 140.7 139.8 139.6 142.4 143.2 140.7 139.9 138.7 135.5 132.3 129.8 128.3 128.2 140.1 147.5 153.6 158 162.8 164.8 166.8 167.8 168.6 170.2 171.5 171 168.4 164.9 163.4 160.3 155.9 169.4 182.5 185.9 186.9 186.8 186.2 185.1 184.9 182.5 179.7 179.1 178.8 180.6 179.9 176.6 173.2 169.4 163.5 154.3 144.5 134.8 141.7 149.7 150.6 145.8 140.8 153.4 157 158.2 159.5 157.6 155.1 160.1 166.2 172.2 174.3 168 161.8 158.3 163.3 168.2 168.5 168.1 166.9 165 160.5 152.7 146.4 150.6 154.5 150.5 143.7 138.5 134.4 131.9 130.1 127.5 126.3 128.1 128.2 127.7 125.1 122.1 118.3 114.5 112.2 109.4 112.1 119 126.4 128.2 131.7 134.1 136.1 131.8 136 143 147 148 150.9 153.8 160.8 163.4 160.7 154.4 162.2 174 181.5 186.5 190.7 193.9 195.3 195.8 196.6 200.1 196.2 190.8 185.2 179 184.4 186.6 187.9 190.9 193.6 198 203.4 210 214.2 213.6
97.8 99.7 101 102.6 104.1 105.5 106.5 107.5 108.6 109 109.8 110.3 109.4 108.8 108.3 109.5 111.4 113 115.1 117.3 118.2 118.4 120.1 122.8 125.5 127.6 129.1 123.2 113.6 111.3 113.7 118.5 122.4 124.4 131.1 134.8 136.6 136.2 136.9 140.2 143 138.9 134.1 136.4 138.1 137.8 137.5 137.9 138.4 140.7 141.5 143 144.9 146.6 147.2 148.4 148.9 147.1 145 141.5 138.8 138.6 136.4 134.9 137 137.8 135.9 135.2 136 133.8 129.6 125.7 123.2 127.7 134.8 141.5 148.4 153.8 158.8 161.4 163 163.8 163.8 165.6 166.7 165.9 162.6 156 155.8 152 158.6 174.5 182.4 186.3 186.8 185.8 184.7 183 181.9 179.9 173.4 173.6 178.9 179.7 179 176.6 173.2 170 166.1 160.9 150.5 140.3 133.8 138.9 143.5 137.9 140 152.5 154.4 156 156 150.5 153.1 159.6 163.9 169.8 169.9 163.2 158 155.4 160 164 166.5 166.6 165.6 163.5 159.7 153.8 148.8 159.2 158.2 156.9 154.6 150.4 142.5 134.4 130.1 133.4 132.1 137.1 137.6 139.2 136.3 133.2 128.5 124.8 120 112.8 110 112 114.9 117.6 126.8 131.8 133.7 126.4 137.4 141.8 144.6 142.8 141.1 145.1 149.3 150.5 148.7 160.3 172 182.1 188.1 191.1 194.2 196.5 197.3 197.1 194.8 196.4 195.9 190.8 181.5 181.3 185.1 186.6 187.7 189.6 192.6 195.3 200.9 207.2 213 215.1
95.2 96.6 98.1 99.7 101.5 103 103.5 103.4 102.8 102.6 102.8 103.5 102.6 102.8 103.1 104.4 105.4 106.5 107.8 109.8 109.9 110.6 112.3 114.9 117.7 120 119.8 112.9 109 113.3 127 132.2 134.4 138.7 138.9 139.9 140.1 140 140 140.4 139.6 137.8 134.5 134.4 135.5 136.5 136.4 137.2 138.1 140 141.2 143.1 144.9 145.6 146.8 148.2 150.3 148.1 144.7 141.1 137.8 136.9 135.3 133.4 132.5 131.7 130.8 130.7 132.9 131.2 127.8 122.7 121.1 126.9 131.9 136.1 143.2 150.2 154.7 156.2 157.9 157.7 157.5 159.1 159.2 157.6 155.3 148.7 146.3 153.1 164.4 178.4 183.5 186.8 187.5 186 183.8 179.4 175.7 173 166.7 173.8 177.3 177.6 177.3 176.1 173.6 170.8 166.9 162.7 155.4 146.3 136.1 130.1 132.1 131.8 141.8 150.1 151.6 153.4 151 145.9 153.9 156.4 158.7 161.8 162.4 158.7 154.2 152.5 154.4 157.8 162.1 164.7 164.8 162.7 161.4 159.6 151.4 158.6 158.4 156.3 154.8 152.6 142.8 133.9 135.8 145.1 140.8 144.3 144.3 145.2 144.2 142 138.8 133.8 130.1 122 111.9 109.7 121.9 129.5 120.5 119 121.6 125.3 128.8 134.2 135 141.2 144.8 146.2 147.6 146.6 159.8 170.9 185.1 189.9 192.5 194.8 196.9 198.5 199.1 198 195.1 191.1 189.7 189.3 175.7 180.9 183 183.8 186.2 189 191.6 194.4 197.5 204.5 210.6 215.8
89.5 90 91.1 93.6 95.9 98.4 100.6 100.2 99.4 98.6 97.8 97.5 97.5 98 98.2 99.3 99.9 100.5 101.8 102 102.2 103.2 106.3 108.6 110.9 112.5 112.3 107.6 109.3 121.4 128.7 133.8 137.4 139.4 140.9 141 143.3 143.4 143.5 142.5 140.6 138.3 136.5 134.9 135.4 136.7 136.9 137.5 138.9 139.8 140.3 141.9 143.3 144.5 146.8 150.9 153.7 152.7 149.3 145.5 141.7 138.1 135.2 133 131.6 128.8 126.5 126.9 127.5 127.3 125.8 122.1 119.5 126.2 127.1 132 139.4 145.3 149.1 150.4 151.2 150.2 149 151.3 150.9 148.5 143.2 145.1 153.7 161.9 175.2 181.3 185.7 188 188.3 185.9 182.3 177.9 171.9 163.8 162.1 171.2 173.7 175.1 175.4 174.8 173.3 170.9 167.9 163.6 158.4 151 142.6 136.8 125.3 131.9 140.9 145.4 148.3 149 141.1 143.7 151.9 152.4 152 154.3 155.3 153.9 151 150.1 152.3 154.9 158.7 163.1 163.9 163.3 162.1 157.7 157.4 159 156.7 152 147.2 142.2 137.3 138.4 148.7 152.1 152.2 151.8 152.2 152.9 152.4 150.6 146.9 141.2 136.4 129.3 110.9 113.6 127.6 133.9 136 133.2 133.4 137 138.9 141.5 145.9 150.5 156.4 158.9 160.7 164.1 172.2 183.8 190.4 192.5 194.5 196.7 198.1 199 198.3 196.8 194 189.9 184.9 183.8 173.9 177.3 181.2 181.7 183.9 183.5 186.6 190.1 196.2 202.7 209.4 216
84.1 84 85 86.2 88.4 91.9 95.2 96.4 96.3 95.5 94.9 94.9 95.1 95 94.3 93.6 94 94.6 95.8 96.5 96.9 98.3 101.2 103 105 105.9 105.6 107.6 116.4 122 125.8 130 133.3 134.9 136 138.5 142.2 144.4 144.8 143.5 141.5 140.2 138.7 137 137.2 138.5 139.2 139.8 141 141.9 142.7 143.8 144.7 145.2 147.1 150.8 155.5 157.6 153.7 150.9 147.2 144.8 141.3 136.3 132.9 130.1 127.4 124.7 123.2 122.4 121.7 119.5 118.2 123.4 125.1 128.6 133.9 139.2 141.6 140.8 142.1 142.8 139 141.8 139.6 133.3 146.9 154.5 162.4 175.1 182.1 186.1 188.2 190.3 189.5 185.9 180.8 174.5 167.2 160.6 158.3 165.8 169 171 171.2 172.9 172.7 171 168.6 164.1 159.6 156.2 151.5 141.9 132.5 128.3 135.9 139.5 143.1 141.9 134.5 140.9 145.8 144.4 144.8 148.4 151.8 149 148.1 153.1 155.1 157.9 160.6 163 164.6 163.1 161.6 158.1 160.1 160.1 157.6 155 153 150.3 150.6 155.8 158.6 160.2 160.6 160.7 160.9 161.8 161.4 160.2 156.6 149.7 139.9 128.4 112.8 114.3 124.9 133.2 139.8 142.4 145 147.1 149.1 150.8 153.7 157.5 165 171.3 174.6 179.5 186.7 191.5 192.8 193.9 195.1 196 196.8 196.9 196.4 195.1 192.5 189 182.6 176.4 171.7 166.9 168 177.8 180.8 187.1 190.8 194.1 197.8 202.7 209.3 216.3
80.2 80.1 81.9 83.1 85 87.5 90.4 92.2 92.8 92.5 92.6 92.7 92.9 92.4 91.4 90.9 90.3 90.7 93.5 95.5 95.4 96.1 97.9 99.8 101.1 102.5 105.1 110.5 115.3 119 121.9 125 128.2 130 130.9 133.6 137.5 140.1 141.5 141.9 139.9 138.7 137.5 136.6 136.2 137 138.8 140.6 140.6 148 148.6 149.2 148.8 148.6 148.4 150.1 154.1 156.5 155.9 155.3 152.8 151.3 147.6 142.6 138 133.5 129.1 126.1 123.9 121.2 119.2 117.2 116.4 119.6 121.5 124.3 128.3 132.8 133.9 131.7 133.3 134.5 131.9 132.1 139.3 145.4 152.7 162.9 172.3 181.9 186.9 191.9 194 193.2 192.4 187.9 181.6 175.2 167.7 160 153.9 159.1 162.7 164.5 165.6 169.4 171.1 171.8 170 167 164.6 160.9 155.6 144.7 133.7 123.5 128.8 132 135.5 131.9 129.5 132.7 132.4 134.5 136.2 139.7 144.2 144.6 153.1 157.3 161.5 165.4 166.4 167.5 167.4 165.1 162.3 161.2 164.3 164.8 163.9 162.5 162.6 161.7 161 164 168.3 169.6 170.7 170.9 171.7 174.3 175.7 174.3 166.1 155.1 142.7 130.1 115.4 111 122.2 130.1 140.8 147 151.7 154.3 156.1 157.5 160.5 167.5 175.8 180.8 187.3 188.4 189.5 190.1 191 191.8 191.8 192 192.9 193 192.5 192.3 190.6 187.1 181.3 174.3 164.4 171.3 180.1 180.4 183.2 186.4 190.5 193.9 197.9 202.8 209.8 219.1
75.1 76.4 79.1 80.5 82.3 84.3 86.5 87.7 88.3 88.8 89.4 89.6 89.6 89.6 88.6 88.3 89.1 90.7 93.5 96.6 98.5 100.1 101.5 102 102.1 102.6 104.5 107.8 109.8 112.1 114.4 116.6 119 121.5 123.4 126.4 130.1 133.4 136.9 138.9 138.5 137.4 136.2 134.1 133.9 134 136.2 138.4 140.6 146.1 145.7 151.7 152.5 152.6 152.4 152 153 154.1 154.8 153.8 154 154.1 151.7 147.8 142.7 137.7 133 128.1 124.7 121.3 119.3 117.1 115.3 116.9 118.2 120.7 123.8 124.8 125 124.9 127.4 127.2 134.4 144.2 151.2 155.9 159.5 164.7 171.5 180.7 189 199.5 202.6 202.7 197.8 189.4 183.1 176.6 169.7 162 152.2 151.4 155.7 157.3 161 168.2 172.5 174.7 174.6 173.2 170 164.4 158.9 152.2 138.5 129.6 123.2 125.9 127.1 125.1 125.3 130.7 134.9 141.4 147.2 147.5 146.8 150.6 157 165.6 171.1 173 173.8 173.9 172.4 170.6 167.6 167.9 171.1 170.6 170.5 170.5 170.7 172.3 174.9 177.1 181.2 185.4 186.4 185.9 186.3 184.6 182.1 179.6 170.2 155.4 143 126.7 110.5 107 121.6 130.2 140.1 150 156.8 165.3 169.8 171.8 174 176.5 179.8 183.2 184.2 184.1 184.5 184.9 184.6 185.8 186.8 188.2 188.9 189.1 188.3 186.6 184.3 180.3 172.4 163.1 157.1 166.7 173.1 176.2 181.3 185.2 189.2 193 195.9 200.4 206.4 218.5
71.1 71.5 73.2 76.1 78.4 79.6 81.7 83.8 84.3 85 85.7 86.4 85.9 86.3 85.5 86.8 90.2 93.6 96.4 98.8 101 103.1 104.8 105.9 107.2 106.7 106.5 105.7 106.6 108.2 109.6 111.1 112.6 114.2 116.4 118.9 122.2 125.8 130 134.1 136.6 136 134 130.7 129 130 133.1 136.1 139 142.2 144.3 145.6 146.9 149.6 151.3 154 155 157 156 152.7 149.6 150.6 148.1 144.8 141.2 138.6 133.9 128.4 125.2 122.8 119.1 115.6 113 114.4 115.9 118.1 119.9 120.6 121.5 127.7 131.6 137.6 145.1 154.1 160.6 168.4 173.1 176.1 179.2 180.1 188.7 199.9 206 202.8 195.5 185.3 177.1 170.6 165.3 160.9 152.8 145.4 148 154.3 161.5 169.8 174.9 179.2 179.9 178 173.4 166.9 160 153.7 147.5 137.2 127.7 119.9 120.6 127 133.2 137.1 140.9 147.2 152.3 156.7 159.8 162.7 168.7 174.5 178.5 180.4 181.5 181.6 179.9 177.9 175.9 176.2 179.8 182.2 183.1 184 183.9 184.5 184.6 185.3 188.2 191.6 193 191.7 189.3 186.5 183.8 179.2 167.4 154.6 141.4 125 106.9 109.3 127.2 133.7 142.4 151.6 160.6 171.7 175.3 176.4 177.1 177.6 178.3 179.3 179.5 178.9 179.3 180.6 181.8 183.7 184.9 186 186.7 186.7 185.9 183.2 179.5 171 162.2 157 167.8 173.6 171.9 170.3 174.9 182.4 188.2 191.8 194.2 198 202 209.9
76.8 75.7 75.9 76.2 75.7 76.8 77.6 80 80.4 81.1 81.9 83 82.6 83.8 86.4 89.2 92.1 93.9 96.6 99.5 101.7 104 106.3 108.5 109 108.9 107.9 108.1 108.2 108.1 108.7 109 110 111.1 112.6 114.4 116.8 120.1 122.9 125.6 128.7 131.8 131.9 126.7 122.9 128.6 132 133.7 137.2 139.8 140.8 141.6 142.9 143.7 145 146.8 147.8 148 147.8 145.4 143.3 143.1 140.6 138.5 136.3 131.8 127.5 123.8 120.5 118.6 117.3 111 118.2 120.6 119.3 119.2 120.4 124.2 126.6 131.4 138.1 144.3 152.3 160.8 167.9 177.3 183.3 185.5 188.9 190.1 197.3 204.7 203.3 196.8 190 181.5 173.2 164.8 158.3 153.1 147 141.6 148.7 156.8 166.2 170.8 176.1 181.4 182.9 179.3 172 164.2 158.1 152.1 147.4 142.5 130.8 120.2 120.7 131.3 137.4 142.2 146.6 150.8 155.1 160.9 168.3 173.8 181.2 186.1 189.5 190.6 191.1 191.4 191.4 191.7 186 190.4 193.5 194.8 192.7 191.9 190.7 188.4 188 188.5 189.4 189.8 190.5 189.7 187.1 184.5 181.6 177.9 172.4 151.4 137 120.7 104 116.7 130.7 136.5 144 151.5 160.4 171 175.2 176 176.7 176.9 177.3 177 174.3 172.1 176.8 179.8 181.5 182.9 184.3 185.4 186.4 186.5 185.6 183.8 180.7 164.9 153.1 168.6 177.2 179.3 179.8 178.7 182.6 185.2 187.3 190 192 194.6 197.9 201.9
81 82 83.1 83.5 83 81.1 80.7 81 80.3 81.4 82.5 83.7 86 87.9 90.7 93 94.9 96.3 97.9 100.3 102.4 104.7 106.9 108.9 110.3 110.4 110.2 109.7 109.3 109.5 110.4 110.5 110.3 110.4 111.4 112.3 113.5 114.7 117.1 119 120.7 122.2 121.8 119.5 117.4 121.4 125.1 133 135.7 136 136.3 137.5 139.4 139.4 140.6 141.1 141.1 140.7 140.4 138.9 138 138 136.6 135.6 132.5 128.2 122.4 118.6 115.3 113.7 110.9 114.3 121.3 125.2 123.9 123.3 123.6 125.6 130 133.7 138 144.5 152.6 162 171.5 180.3 188 190.8 194.8 198.1 201.6 202.6 198.3 192.8 186.1 177.4 169.2 161.6 155.1 149.4 143.6 140.9 149.8 157.4 164.4 169.2 172.5 175.6 176 172.9 168.8 161.5 154.6 148.2 141.8 136 127.5 117.9 125 132.6 138.6 143.5 148.3 153.5 159.6 165.6 168.3 178.5 192.6 200.5 206.6 210 210.2 209.6 210.4 204.4 195.4 197.5 198.8 198.9 198 196.4 194.2 192.2 190.5 189 190.3 190.8 190.1 188.5 186 183.6 180.7 177.4 170.9 149.2 131.3 110.9 105.7 124.6 130.5 134.6 140.1 147.5 155.6 167.4 173.6 175.3 176 176.4 176.5 173.5 164.4 168 176.2 180 182 183.3 184.5 185.5 186.6 186.4 185.4 184 173.1 154.9 155.7 174.3 183.4 182 182.2 181.5 183 184.4 185.9 186.8 189.2 191.8 194.7 198.4
86.1 86.4 86.9 88.8 90.2 90.4 89.1 88.1 88.6 88.2 88.6 90.5 92.1 93.9 95.2 96.4 97.9 99.8 101.2 102 103.1 105.3 107.3 109.3 110.4 111.2 111.3 110.9 110.4 110.9 111.9 112.3 112 111.9 111.7 111.6 111.9 112.1 112.2 113 114 114.7 114.3 113.8 113.4 116 119.6 123.8 128.8 135 137.7 139.2 139.7 139.8 139 136.3 135.2 134.7 134.3 133.8 134.3 134.5 134.5 132.9 131.2 128.2 123.2 118.7 115.3 112.1 110.5 113.5 121.2 126.6 127.8 128.1 127.5 127.9 130.5 135.8 143.4 149.4 156.6 163.6 171.4 177.6 183 188.1 191.3 193.9 195.6 195.3 193.2 189.4 183.1 174.8 167.4 158.6 151.3 146.4 140.8 140.1 148.5 154.4 160 165.4 168.8 171.3 172.7 170.4 164.5 157.5 151.2 145.7 139 132.1 124.4 116.7 125.3 132.2 138 143.3 148.4 153.9 160.5 167.5 173.6 183.7 197 214.2 218.8 220.4 219.3 217.5 214.3 209.6 201.7 197.9 196.9 195.8 195.1 195.3 196.2 194.2 191 187.8 189.8 191.5 190.3 188.6 185.5 183.4 180.8 178.2 171.2 149.2 130.5 110.4 103.8 118.6 126.5 129.6 133.4 141.8 151.2 162.5 170.7 174.7 175.5 172 166.9 158.1 155.1 168 178.4 180.8 182.5 183.8 185.2 186 186.8 186.5 185.8 176.1 160.7 147.8 158.8 178 185.5 184.1 181.8 180 180.9 182.2 183.3 184.1 185.4 188 191.6 195.6
89.4 89.6 90.3 91.6 92.9 94.5 95.6 96.8 96.8 97 96.8 98.3 99.8 100.8 101.1 101.4 102.3 103.2 104.1 104.9 105.2 106 107.7 109.7 110.4 111.1 112 112 111.6 112.3 113 113.8 113.6 113.5 113.3 112.9 111.7 110.8 109.7 109.2 108.7 109 109.3 109.8 110 112.3 114.9 118.2 122.7 125.7 128.9 132.1 136.1 138 136.9 134.6 133.1 131.6 131.6 132.3 132.8 133.1 133.8 131.9 130.6 128.6 124.3 120.7 117.1 114.7 110 113.3 120.8 126.1 131.2 133.1 132.6 133.7 135.5 138.4 145 150.1 156.1 161.6 166 170.8 175.8 181.3 183.7 185.7 186.9 186.4 185.1 182.4 177.5 171.7 165.8 158.5 151.2 144.1 137.3 139.3 145 150.7 155.7 161 164.8 167.2 168.7 164.9 159.5 154.5 148.8 143.3 137 129.9 122.1 115.7 124.9 130.7 135.9 141.8 147.3 153.5 160.2 166.9 175.4 184.1 196.2 206.9 213.2 214.3 215.6 214.1 210.5 207.9 203.3 198.9 195.6 192.4 190.5 189.9 190.2 189.6 185.6 183.6 186.4 189.3 188.4 187.3 185.3 183.4 181 178.3 174.1 153 135.4 117.5 104.8 106.1 120.5 124.8 129.7 137.9 149.7 161.8 171.2 171.7 163.9 155.5 151.6 147.5 157.5 173.6 180.4 182.3 183.6 184.6 185.8 186.9 187 186.3 175.3 161.2 149.8 147.5 162.5 178.5 184.2 184.9 181.9 178.9 178.4 179.8 180.1 180.7 181.7 185.1 188.7 193.3
91.8 92.4 92.5 93.4 94.8 96.7 97.8 98.9 99.9 100.2 101.1 102.4 103.5 104 104.7 105.4 105.5 106.2 106.7 106.9 107.2 107.7 108.7 109.7 110.3 111 111.9 112.7 112.7 113.4 113.8 114.4 115.2 115.2 115.5 114.7 112.8 111.2 108.5 106.2 105.5 105.3 106.2 107 107 108.6 110.9 113.3 116.5 119 120.8 122 124.2 126.4 130.2 131.6 131.3 129.2 130.2 132.2 132.9 133.3 132.7 129.8 127.8 126.7 124.6 121 118.4 115.8 109.6 112.9 118.5 124.1 128.8 134.2 136.8 136.8 139 140.5 144.2 149.1 153.9 158 160.8 164.1 168.8 173.5 176.4 177.8 178.8 178.7 177.6 176.4 173.5 167.9 163.5 156.7 148.1 140 134.4 137.5 143.7 148.3 152.6 155.6 159.2 160.4 160.9 159.4 154.6 149.7 145.4 141 135 129.3 118.8 116.8 124.7 130.4 135.8 141.3 146.3 152.2 158.7 166.1 173.8 186.4 194.2 200.2 203.1 204.2 204.7 204.3 204.9 207.8 203.8 198.9 195.6 192.2 188.3 186 184.7 183.4 180.3 177.9 178 179.6 180.1 182.4 183.9 183.3 181.2 178.9 176.6 160.9 143.3 128.6 109.9 100.5 110.6 121.1 127.8 138.8 148.5 157.6 159 155.8 149.5 144 141.7 148.5 163.1 178.7 181.6 183.1 184.4 185.5 186.6 187.4 187.3 180.4 163.3 151.5 141.5 151.8 169.7 177.2 180.2 184.9 182.4 179.3 175.9 177.2 176.8 177.6 179.6 182.7 186.1 189.1
93.6 93.6 93.6 94.8 96.2 97.9 99 100 100.9 101.8 102.7 103.7 104.8 105.5 106.5 107 107.5 107.7 108.3 108.5 108.5 109 109.1 109.6 110.2 110.6 111.3 111.7 112.2 113 113.4 113.8 114.6 115.9 115.4 112.6 109.6 107.1 104.7 103.2 103.1 103.3 104 104.6 105.4 105.9 107.5 109.3 111 112.7 114.5 116 117.9 120.1 121.8 122.8 122.3 122 125.3 128.1 127.5 126.1 124.7 122.6 121.3 121 120.4 118.3 116.6 114.8 108.3 111.5 115.9 120.6 125.9 130.8 136.2 137.9 139.1 140.6 143.1 147.1 151.3 154.2 156.7 158.8 163.2 166.9 169.6 170.3 171.7 172 171.5 170.4 167.8 164.7 160.8 155.6 148.8 143.5 136.5 133.4 140.5 144.6 148.6 150.8 153.6 154.3 153.9 151.9 147.6 144.3 141 136.2 132 125.2 115.6 115.8 124.7 130.2 134.9 139.8 145.1 151 157.7 164.5 172.6 182.8 190.9 193 193.5 194.1 194.4 196.1 200 205 203.2 198.2 193.2 191 188.5 184.2 180.3 178.2 175.4 171.8 171.1 171.6 171.2 171.6 174.4 179.6 181.5 179.8 177.7 169.6 151.3 138 122.7 103.3 104.6 119 126 133.8 142.4 147 147.1 144.9 138.7 135.3 141.4 154.1 171.1 180.6 182.4 183.7 185 186 186.8 187.3 187.2 170.1 154.5 141.8 142.8 157.8 174 176.4 175.4 178.4 180.8 178.6 173 174.1 173.1 174.3 176.8 180.5 183.5 186.3
93.5 94.8 94.9 96.1 97.6 99 99.8 100.6 101.3 102.2 103.5 105 105.8 106.3 106.7 107.4 108.2 108.9 109 109.1 109.2 109.3 109 109 108.6 108.3 107.8 109.1 110 110.6 110.8 110.9 111.1 112 108.5 106 103.6 102.6 100.6 101.1 101 101.6 102.3 102.9 103.1 104.1 105.3 106.2 107.6 109.2 110.1 111 112.4 114.3 115.5 116.8 116.6 115.9 119.2 120.1 119.9 119.8 118.9 117.1 116.9 117.2 117.7 116.4 114.4 111.9 107.4 110.2 112.6 117.3 122.2 127.5 132.6 137.2 139 140.5 142.1 144.8 147.3 149.9 151.8 153.5 157.6 160.9 162.4 164.2 165.5 166.6 166 165 162.8 160 155.6 153.7 149.2 144.6 139.6 129.7 135.4 140.7 144.4 146.5 148.4 148.8 148 145.9 142.7 139.5 137.1 133.7 129.3 123.1 118.2 115.4 124.4 129.5 133.7 138.2 143.1 149.8 156.1 162.8 170.1 177.3 186.7 188.4 187.5 186.1 186 189.8 195.7 200.4 202.3 197.8 192 188.1 186.3 185.2 180.8 176.5 172.1 167.4 161.9 156.2 157.2 161.8 166.9 169.8 176 179.1 178.8 171.1 154.3 141 126.7 106.9 103.4 118.7 125.2 128.7 133.5 135.7 135.9 134.4 129.9 134.8 146.1 159.6 176.5 181.3 182.6 184 185 185.9 186.7 186.9 183.4 163.2 147.4 136.9 148.7 160.7 175 174.7 173.2 170.9 171.8 170.8 166.9 169.9 169.7 171 174.7 177.9 180.2 182.4
92.1 93.6 95.3 96.5 97.5 98.4 99.3 100.3 101.4 102.5 103.4 104.9 105.8 106.2 107 107.9 108.7 109.4 109.2 108.7 109.1 108.2 106.8 107.4 105.7 103.2 103.1 104.2 103.6 103.6 103.6 103.1 102.8 102.2 100.9 98.9 97.5 98 98.5 99 99.3 99.1 99.9 101.3 101.3 102.1 102.8 103.7 104.7 105.9 107.1 108.4 109.6 110.6 111 112 111.6 112.2 114.2 114.3 114.1 113.9 114.2 113.8 113.9 113 113.3 113 111.8 109.2 105.8 107.4 109.9 114.2 118.7 124.3 129.8 135.7 138.4 139.8 140.8 142.5 144.8 146.9 147 149 153.3 154.9 157.4 159.5 161.1 161.8 161.3 160.5 158.2 155 153.1 150.1 147.8 144 138.8 129.1 128.2 135.6 140.6 142.1 143.5 144.3 143.3 141 138 135 132.1 129.4 126.7 121.4 116.4 114.3 122.9 127.3 130.6 136.1 142.1 147.9 154.5 161.1 167.6 174.5 181.4 186.3 184.2 181.6 182.6 186.4 191.4 197.7 201.8 198 193.9 189 185.3 183.1 181.8 180 176.7 173.2 168.7 157.8 145.5 144.3 150.2 159.2 166.7 170 167.6 159.2 150.4 138.2 123.7 105.2 103.8 119 125.4 128.3 128.8 127.3 126.4 126 128.8 138.4 150.5 164.5 178 181.2 182.8 183.8 184.7 185.5 185.9 185.8 179.7 157.9 142.5 134.7 149.2 159.9 173.2 173 171.1 168.2 164.6 162.2 161.5 164.5 165.6 169.3 173 175.5 177.4 179.7
89 90.7 92.2 94.4 95.9 96.3 98 99.3 101 102.2 103.2 104.2 105.2 106 106.6 107.9 108.9 109.9 109.7 108.9 106.9 104.4 99.2 97.5 95.2 93.6 93.7 93.8 94.6 95 95.4 95.5 95.8 96 95.1 94.6 94 96.1 96.9 97.1 97.6 98.3 98.9 99.5 100.1 100.8 101.5 102.3 103.4 104.7 105.6 106.5 107.1 107.9 108.2 108.8 109.1 109.3 110.1 110.2 110.2 110.7 112 111.8 111.1 110 109.9 110.1 108.8 106.8 104.6 105.8 106.9 111.1 117.5 121.2 127.4 133 137 138.4 138.9 140.4 142.5 143.5 143.5 146.5 150 150.3 153.3 154.9 156.1 157.3 156.5 155.9 153.9 151.2 148.6 146.6 145.6 143.1 138 128.6 124.6 129.7 136.1 137.5 139 139.9 139.1 137.4 135.2 132.2 128.6 127 123.1 119.7 113.6 114.2 120.5 123.3 127.6 133.4 140.3 146 151.3 157.9 164.9 172.1 179.1 183.1 182.3 179.7 178.7 182.4 187.5 194 201.9 201.1 197 193.3 189.6 185.3 178.2 173.4 172.2 169.9 163.1 154.3 144.8 136.5 138.7 143.5 150.2 156.2 156.8 150.2 142.6 133.6 118.1 101.9 102.7 119.6 124.4 126.8 125.4 122.8 121 124.5 132.2 142.7 154.1 169.4 178.4 180.8 182.2 183.5 184.3 184.9 185 184.5 175.1 155 139.3 133.6 147.2 156.7 169.8 170.7 169.2 166.7 163.4 158.5 158.3 160.9 163.8 167.5 171.1 173.2 175 176.8
86.6 87.3 88.7 90.3 90.7 91.5 94.1 96.6 99.1 100.8 101.8 102.9 103.5 103.9 105.5 106.9 108.1 108.8 107.7 104.6 98.7 92.5 89.1 87.9 87.9 87.4 87.5 87.7 89.5 89.3 89.8 90.5 91.4 93 93.7 94.4 95.3 95.8 95.9 96.2 96.7 97.2 97.8 98.1 98.8 99.4 100.2 101.3 102.3 103.4 104.4 105 105.2 105.3 105.8 106.6 106.9 106.8 107 107.2 107.5 107.8 108.7 111 110.5 109.7 108.4 107.6 106.1 105.1 104.2 103.7 104.4 107.4 112 118.5 124.3 129.6 133.1 134.6 137.3 138.3 140 140.4 141 143.7 146.2 146.4 148.7 150.4 152.3 153.8 153.5 153.1 152 150.2 147.5 145.6 143.9 142 138.3 129 122.8 124 130.1 134.1 135.9 135.9 135.5 134 131.9 129.5 126 123.9 121 117.3 110.8 111.5 117.8 123.6 129 133.7 138.5 143.5 148.5 154.2 161.1 170.6 177.2 181.2 180.8 178.9 176.3 178.8 182.8 189.3 198.1 203.3 200.5 196.9 193.4 189.7 185 173.6 158.9 154.6 150.4 144.7 139 132.6 130.7 133.5 139.1 143.6 142.2 136.3 129.6 127.4 114.9 97 104.4 116.1 120.4 123 119 115 122.1 127.6 134.7 146.2 156.9 172.3 178.2 180.5 181.6 182.6 183.6 183.9 183.5 182.8 173.7 155.6 139.2 130.6 143.5 153.2 165.5 169 167.1 165.1 162 156.2 154.7 158.4 162 165.7 169.1 170.8 172 173.2
82 81.9 82.7 84.2 84.7 86.4 89.3 91.4 94.1 96.8 99 100.5 101.2 101.8 103.5 105.1 106 106.4 102.4 96.4 90.1 85.1 83.5 82.1 82.1 82.3 83.8 85.3 87.3 88.9 90.3 91.3 92.4 93.5 94.2 94.9 95.4 95.7 95.8 95.8 95.8 96.2 96.5 96.8 97.6 98.3 98.9 100 101.1 102 102.4 102.9 103.1 103.5 104.2 105 105.8 105.5 105.2 105.2 105.6 106 106.4 106.8 108 107.8 106.4 105.6 104.4 103.6 102.6 102.1 102.4 104.6 109.4 115.1 120.7 124.4 127.9 130.5 134.8 136.2 137.6 137.8 139.1 142 142.3 143.7 145.9 147.4 149.1 150.6 151.2 150.8 150.2 148.5 146.9 145.1 143.1 142 138.3 130.9 123.1 119.9 124.8 130.7 133.1 134.1 133.2 131.7 130.1 127.8 125.3 122.1 118.8 114.5 108.7 111.5 118.9 123.1 127.5 130.4 135.1 139.5 144.6 150.4 158.2 168.5 176.3 180.5 179.9 178.6 176.4 175.4 174.8 182.9 192.4 202.8 203.4 199.7 196.2 193.1 190.2 183.4 169.2 156.7 149.6 144.9 140.4 135.2 130.4 127.6 129.5 134.5 133.2 124.6 117.4 116.9 116.3 98.3 100.8 106.1 111.9 111.3 111.5 117.7 124.4 128 135.4 146.9 159.6 173 177.9 179.9 180.9 181.9 182.9 182.7 181.9 181.2 175.7 156.6 139.6 129.2 139.4 149.6 161.8 167.3 165.1 163 160.5 152.7 151.2 156.1 160.3 163.9 167.2 168.5 169.7 170
76.3 76.5 76.8 78.1 78.7 81 83.9 86.4 89 91.5 93.4 95.2 96.2 97.1 99.2 101 102 99.6 94 88.2 82.3 79.1 77.1 78.2 80.9 83.3 85.2 86.9 88.6 90.1 91.3 92.3 93.4 94.3 94.8 95.1 95.2 95.4 95.3 95.2 95 94.9 95.6 96.2 96.8 97.4 98 98.6 99.5 99.8 100.2 100.7 101 101.6 102.2 102.7 103.4 103.4 103.4 103.4 103.5 103.5 103.7 104 104.5 105.4 105.3 103.8 102.8 102.3 101.5 100.9 101.5 103 106.9 111.8 116.4 119.5 122.1 125.3 129.4 132.9 134.2 135.4 137.7 138.9 139.9 141.8 142.9 144.2 145.8 148.1 148.7 148.6 148 146.4 144.8 144 140.9 140.8 136.7 130.9 123.6 117 120.3 126.2 131.6 132.6 132.1 130.9 128.7 126.1 123.4 119.8 116.5 111.5 106.8 112.3 118.6 122.1 124 126.4 131.1 134.2 139.7 146.4 156.4 167.6 176.1 180.7 180.9 178.8 175.7 171.9 170.5 176.4 186.5 195.1 204.4 201.7 198.8 196.1 193.4 190.1 184.6 175.9 168.6 161.8 153.9 144.5 135.6 130.5 126.2 125.7 123.8 117.9 118.7 111.3 107.7 101.6 97.8 96.9 98.5 103 113.7 122.1 122.5 125.4 135.4 147.4 160.5 173 177.4 179.4 180.3 181.3 182.2 181.5 180.5 179.6 176.4 158.2 139.8 128.9 132.3 143.6 154.6 164.5 163 160.8 158.3 151.3 148 154.1 158.8 162.4 165.6 166.5 166.8 167.1
70.8 70.7 71.3 72.1 72.9 75 78 80.4 82.9 84.7 86.3 87.9 88.4 89.3 91.5 92.7 91.4 87.7 84 79.7 77 75.7 77.3 79.3 81.8 84.1 86.5 88.1 89.5 90.9 92 92.7 93.4 94.1 94.1 94.1 94.1 94.3 94.1 93.9 93.8 93.6 94.3 95 96.1 96.6 97.1 97.7 98.1 98.2 98.4 98.6 99 99.5 100 100.5 100.8 100.8 100.9 101 100.8 100.8 101 101.2 101.2 102.4 102.8 102.2 102 101.2 100.4 99.7 99 100.9 104.8 108.5 111.9 114.6 116.6 120.1 123.8 126.4 129.3 133.1 134.7 136.2 137.8 139.1 139.9 141.9 141.9 142.2 142.5 142 141.8 140.3 139.9 139.5 137.8 135 131.7 127.4 121.6 115.4 116.4 122.4 126.9 129.5 130.7 129.6 127.4 124.7 121.3 117.1 112.4 108.3 105.4 110.8 115.8 117.6 119.9 122.9 126.3 133.2 140 145.8 154.4 166.5 176.5 181.3 181.4 180.1 176.2 171.7 164.7 170 177.9 188.1 197.8 203.4 201.3 198.6 195.9 193.2 190.9 188.3 185.6 179.4 167.9 155 144.4 138.1 133 127.5 124.4 125.7 126.1 123 116.8 112 109 104 97.3 98.8 111.9 117.8 119 124.5 135.6 147.3 160.5 172.3 176.7 178.7 179.8 180.7 181.4 180.5 179.7 178.4 176.2 160.7 144 131 122.8 132.4 144.1 155.2 161.2 158.9 155.1 147.5 144.2 153.2 157.6 160.7 164.4 164.6 163.9 164.2
66.4 66.7 67.3 68.2 69.5 70.9 72.7 73.9 74.9 76.5 78 79.3 80.2 80.1 81.8 82.3 80.7 78.7 77.4 75.6 74.4 76.6 78.3 80.2 82.7 85 86.7 88.5 89.5 90.3 90.9 91.6 92.4 93 93.1 93.2 93.2 93.2 93.1 92.7 92.5 92.4 93.5 94.7 95.6 96 96.4 96.9 97.2 97.2 97 97 97 97.5 97.9 98.3 98.7 98.3 98.3 98.5 98.3 98.1 98.3 98.8 98.5 99.2 100.9 101.2 101.2 100.1 99.2 98.6 98.1 99.2 101.8 105.1 107.7 108.8 111.4 115 117.8 119.4 123.7 126.2 128.3 131.4 133.7 133.2 135.3 135.8 135.1 134.7 135.1 134.8 134.4 133.2 132.9 132.5 130.4 128 127.1 123.2 118.7 113.8 114 118.5 122.1 124.2 126.2 126.6 124.6 121.3 117.7 113 108.3 104.5 105.4 109.7 114.3 117.9 121.1 124.2 128.1 132.5 138.6 144.7 151.8 162.8 174.7 180.1 180.3 178.7 175.2 170.3 160.2 160.9 170.7 180.8 189.5 199.7 201.9 200 197.4 195.1 193 190.5 188 185.4 181.7 169.5 158.1 150 144 139 137.5 136.7 134.8 132.7 130 126.1 119.8 112.8 103.6 94.2 103.4 112 117.5 123.5 135 147.6 161.8 171.6 175.8 178 179.2 180.3 180.6 180 179.1 177.5 174.9 166.7 151.2 137.1 126.9 125.4 134 143.7 157.9 157.3 153.1 140.4 144.9 152.4 153.6 160.3 163 163.1 161.4 160.3
63.3 64.3 65.8 66.5 67.1 67.8 69 70.7 71.9 71.8 72.5 73.3 74.1 74.7 75.2 75.3 74.5 73.8 73.2 73.1 75.5 77.8 79.5 81.4 83.3 84.7 86.5 87.6 88.5 89.2 89.8 90.5 91.4 91.8 92.1 92.2 92.2 92.2 92 91.6 91 91.9 93.1 94.3 95.2 95.5 95.8 96.1 96.4 96.7 96.5 95.8 95.6 95.4 95.7 96.1 96.4 96.2 96.2 96.3 95.6 96.2 96.3 96.5 96.8 97.3 98.4 99.4 99.2 98.6 98 97.4 97 97.8 99.8 101.7 104.4 105 108.1 110 112 115.5 118.2 119.7 121.5 125.5 127.2 127.5 128.1 127.9 127.7 127.4 127.9 128.2 128.2 126.9 126.6 126.2 124.4 122.6 121.1 118.6 115 111.7 110.9 115 117.9 118.8 120 120.3 119.4 117.3 113.5 108.9 104 103.7 106.7 113 116.3 118.2 120.6 124.1 127.4 131.9 136.7 143.1 148.5 156.3 166.3 171.5 174.9 174.8 171.2 165.2 154.4 154.1 164.1 172.7 182.1 190.3 201.4 200.4 198.7 196.7 194.4 192.3 189.6 187.2 185.3 182 174.5 165.6 157.5 152.8 149.7 147.1 146 144.1 142.1 135.8 127.3 115.9 108.5 96 98 109.4 118.5 123.6 134.7 147.5 162.1 170.4 174.3 177.3 178.7 179.6 180 179.5 178.4 176.8 174.1 170.6 158.7 145.7 132.2 121.4 127 136.4 150 156.2 151.6 136.4 142.5 150.6 155.5 161.4 163.4 162.1 159.9 156.1
