ncols 200
nrows 82
xllcorner 290000
yllcorner 912300
cellsize 50
427.1 425 419.2 407.7 409.9 411.7 410.2 408.9 409.3 411.5 413.6 415.7 418.7 424.4 428.5 434.8 441.5 448.1 455.7 463.4 470.6 477.9 486 493.2 499.4 505.7 510.2 513.5 515.5 516.3 517.3 517.5 516.4 514.7 511.6 505.8 498.7 496.4 495.5 506.7 517.6 527.2 535.9 543.8 551.7 559.5 567.6 575.7 583.5 590.3 597.7 604.1 608 610.1 612.4 612.3 612.6 610.4 605.5 599.1 587.3 556.3 512.1 474.5 449.6 431.9 422.7 409.4 398.9 388 383 373 359.3 352.3 339.2 334.4 330.9 329.4 316.6 313 317 318.8 318.9 319.3 318.6 314 316.9 324.6 330.1 330.9 335.8 339.9 342.2 343.1 345.1 346.4 349.8 348.3 346.5 344.8 342.6 338.8 335.1 333 331.2 329.8 328.5 325.6 324 322.7 319.6 317.7 316.8 318.5 321.4 328.1 333.9 336.2 336.1 336 334.8 334.1 332.7 329.1 325 317.5 308.5 301.7 295.9 293 290.2 291.3 293.5 294.2 296.3 295.8 293.3 283.8 277.9 306 328.5 347.1 359.4 359.6 352.3 342 333.3 315.5 298.2 287.6 279.9 285.2 303.5 320.8 336.1 339.1 340.3 343.1 345.7 346.3 345.1 344.7 348 350.2 348.2 349.6 349 349 354.5 356.8 359.6 360.6 362.2 368.6 374.4 377.3 377.4 375 372.3 371.3 368 364.3 359.2 353.2 340.7 325.2 311.9 304.6 302.6 300.1 301.3 306.6 308 304.6 311.6 311.9 310.4 310.3 310.1 306.7
410.5 405.5 399.5 403.5 404.8 404.4 405.2 405.1 407 410.5 413.9 416.7 420.9 425.3 430.7 437.4 444.2 451.7 459 466.5 475.4 484.2 492.3 499.9 508.1 515 520.8 524.6 526.9 527.1 527.1 526.7 525.9 524.3 521.6 518.7 511.8 508.2 505.3 505.9 514.8 525.4 533.4 541.2 549.3 557.8 567.6 576 584.7 591.8 599.2 604 606.8 607.4 605.7 603.5 599.7 596.4 592 582.7 574.5 549.9 504.2 468.8 439.7 425 417 406.5 391.4 381.5 374.7 366.2 355.8 346.7 337.8 326.3 318.7 317.3 308.7 306.5 305.9 309.2 310.8 313 312.4 310 310.9 319.4 324 326.1 331.6 330.9 339.7 344.6 345.5 343.9 344.8 345.6 347.7 346.2 344.9 344.1 342.2 341.3 340.7 339.3 337.4 334.9 333.4 330.8 328.7 327.1 329.7 332.9 339.1 347 353.3 355.8 356.3 354.9 354 353.3 351.5 347.3 342.3 333.4 324.5 316.8 310.5 306.1 304 305.8 309.8 311.8 311.1 309.7 304.3 294.3 278.3 306.6 328.8 348 360.2 360.6 357 345.9 336.2 324.8 307.6 291.8 284.4 288.5 304.3 321.8 335.3 340 342.7 347.5 347 347.8 348.3 349 348.7 347.8 347.2 349.8 347.2 344 344.7 348.5 352.8 356.1 357.2 358.3 358 359.7 362.8 359.5 356.3 357 355.1 352.2 345.2 340.6 332.3 319.8 309.8 303.1 300.3 295.3 291.5 289.4 290.6 295.7 301.1 304.5 307.8 306.2 302.1 300.9
397.1 394.3 394.4 396.3 396.7 397.1 398.4 400.4 403.2 409 412.9 416.8 420.5 425 430.4 437.6 445.5 453.6 461.4 469.2 478 487.4 496.2 505 513.9 521.9 529.2 536.5 541 539.7 537.7 535.9 534.9 533.5 531.1 528.4 525.8 520.9 515.5 514.5 513.9 524 532.5 539.8 548.1 556.6 567 576.3 585.1 593 599 602.8 604.5 602.4 598.8 593.8 588.1 581.5 574.1 564.3 553.9 525.9 483.7 452.8 425.9 411.6 405.2 399.7 383.4 371 365.3 356.9 349 339.6 333 326.1 316.3 305.7 298.5 298.2 297.1 299.1 300.8 301.5 306.1 306.3 309.2 317.2 320.7 321.8 323.9 327.7 332.7 337.6 340.1 342.8 344 346.2 348.3 348.5 348.6 348.6 349.6 348 348 346.3 344.2 341.8 338.9 338.2 337.2 337.2 341.1 346.3 353.5 362.4 368.3 371.1 371.7 372.2 371.5 370.7 368.4 364.2 357.4 349.9 340.7 332.1 324.5 320.4 317.9 314.5 323 325.8 326.7 322.6 314.3 299.7 284.8 308.2 328 346 357.6 360 355.4 347.9 340.7 327.2 314 299.7 293.6 295.3 308.4 327.9 337.6 342.1 345.5 346.9 349.7 349 351.8 351.6 348.6 346.4 345.6 344.7 343.1 345 341.2 343.1 344 345.5 347.6 351.7 353.4 352.8 350.1 345.8 342 338.4 338.2 334.5 329.5 326.1 320.5 310.7 299.8 297.2 295 288.2 285.3 284.7 280.9 277.3 284.3 290.7 300.8 301.6 298.6 292.8
391.2 385.6 389.8 391.2 391.4 392.5 394 397.7 399.5 403.7 409.6 413.9 418.6 424.7 430.6 436.6 444.8 453.4 461.9 470.5 479.2 489.1 499.1 508.5 518 526.8 535.3 542.7 549.5 553.1 548.8 544.7 543.2 542.1 539.7 538.1 536.1 533 529.6 525.4 523.1 525.9 531.2 539.2 547.7 556.2 566.9 576.6 585.3 592.4 597.1 599.3 598.8 595.2 590.6 584 577.1 567.6 555.5 544.1 533.8 504.1 461.7 436.9 412.3 399.5 393.9 392 375.8 362.1 354.8 347.6 338.6 335.6 328.4 320.2 311.8 303.5 296.8 292 288.9 292.6 294.1 293.3 300.7 302.6 305.4 311.6 318.4 323.8 327.2 327.5 332.5 336.5 340.1 343 344.3 347.7 349.4 350.2 351 352.1 353 354.5 354.4 352.5 350 347 344.8 344.8 344.7 346.6 351.3 359 368.1 376.4 382.1 384.8 385.6 388 388.8 386.8 384 378.7 370.9 362.7 355.7 349 340.9 335.3 329.7 327.8 330.8 335.4 336.2 332.1 322.8 306.4 287.6 306.2 324 341.6 352.4 356.5 351.8 346 339.3 330.7 319.7 308.2 298 301.6 317.9 333.7 341 345.3 348.4 348 349.6 349.4 349.7 351 348.7 347.5 344.1 342.3 341.2 340.1 339.5 339 338.9 339.5 339.7 340.1 345.3 346.2 346.3 343.7 339.5 334.4 328.5 323.7 318.5 314.8 310.7 309.2 304.8 298.6 290.6 283.7 283 280.9 272.6 272.2 269.2 274.2 286.2 290.8 287.1 283.2
379.8 380.6 387.2 388 388.5 389.4 390.5 393.4 395.2 398 405.6 411.1 416.9 422.7 428.9 434.9 442.7 451.7 460.2 468.8 477.8 488 498.9 509.9 519.2 527.8 536.8 545.3 552.5 557 558.7 551.7 549.6 547.6 546.6 545.1 544.1 542.8 540.8 538.1 535 533.2 534.6 540 547.5 556.1 566.8 576.8 585.1 592.1 594.3 594.4 591.9 586.9 580.2 571.9 562 547.9 536.1 525.4 511.7 486.8 441.9 420.7 398.7 389.6 385.1 382.2 368 352.6 343.7 339.7 331.7 324.1 321.6 313.5 308.8 299.8 296.6 288.8 284.7 283.5 283.6 286.5 293 300.5 305.2 306.9 313 322.9 323.8 325.7 330.1 334 339.4 342.3 345.6 347.1 349.2 351 353 354.8 355.6 354.9 357.5 356.4 354.5 352 351.4 350.5 351.9 355.7 364 372.9 382.1 391 396.4 398.8 401.5 403.5 403.6 401.7 397.1 391.9 385 377 370.1 364.4 357 350 343.1 340.1 339.6 343.8 344.1 341.6 331.8 314.9 300.2 303 319.4 336.1 347.4 350.6 350.4 345.7 338.7 331.2 321.6 311.8 302.1 312.2 328.2 338 343.4 347.9 349.9 349.9 350.3 350.4 349.7 350 349.5 347.7 346.8 342.7 340.2 338 336.9 336.3 337.5 335.1 333.2 333.6 335.8 337.2 339.3 337.7 333 328.3 324.8 319.8 316.6 313.1 309 304.9 298.4 295.8 292.1 285.8 276.3 269.5 268.9 268.3 268.8 271 264.7 272 276.1 270.4
375.2 378.8 384.3 386.1 386.4 387.2 388.4 389.8 391.7 394.7 400.4 407.9 413.6 419.2 425.4 432.1 439.7 448.3 457.2 466.4 475.5 483.9 495.2 506.3 516 524.7 533.9 542.9 550.4 555.3 557.2 554.2 551.3 550 549.5 549.8 550.2 549.7 549.1 548.4 546.1 544.1 543.9 545.3 550.9 556.8 567 577 585.2 590.2 591.6 589.8 585.6 578.3 569.4 559.4 545.6 532.6 519.6 505 490.9 456.2 424 403.5 387.9 380.5 376.4 372.9 360.8 344.9 332.7 327.7 322.9 315.7 310.2 305.4 301 294.8 291.4 287.5 283.5 281.4 281.8 283.5 287.3 294.7 298.6 303.9 304 309.8 318.1 326.6 330.7 332.8 335.2 340.4 342.3 346.8 349.5 351.6 353.9 355.7 356.5 358.1 358.5 358.4 356.7 355.8 355.9 356.3 357.8 366.8 375.8 385.4 396.6 405.1 410 413.2 415.5 416.5 416.1 413.7 409.7 404.1 397.3 392.6 384.9 378.3 372 365 359.2 353.6 351.7 354.8 354.6 350.9 341.5 327.5 310.1 299.5 314.6 330.2 341.8 346.9 345.8 341.7 334.9 331.3 324.3 312.5 312.4 322.5 335.2 341.5 348.4 351.6 353.5 351.8 353.1 353.1 351.9 351.2 349.8 348.6 347 345.8 343.4 342.7 337.2 334.6 332.4 328.4 328.5 328.2 326.3 329.4 329.7 330.9 327.7 321.8 317.2 312.9 312.1 309.4 305.5 304 301.1 295.8 288.4 282.6 275.4 268.1 261.8 258.5 259.6 261 260.1 255.1 251.3 253.1
373.7 376.1 380.4 382.6 383.3 383 385.8 387.2 389.2 391.7 397.4 403.8 410.1 415.8 421.7 428 435.8 444.8 453.6 462.3 471.6 479.9 489 499.3 507.8 516 524.5 534.1 541.8 547.8 549.8 550 549.4 548.6 549.5 551.6 553.3 554.3 555 555 554.6 554.8 554.5 554.6 556.5 559 569.5 578.2 585.3 588.9 588.1 587 580.1 570.6 558.7 543.5 529.2 513.5 500.4 483.9 463.5 434.7 408.9 391.1 380.8 374.3 368.5 361.5 354.7 336.6 323 317.2 314 309.1 303.8 298.7 295.5 290 287.2 285 282.6 279.7 281.4 283.5 285.9 291.1 296.7 300.5 299.4 312.7 320.1 326.8 330.9 333.9 336.3 340.1 344.2 346.6 349.5 352.4 354.5 356.5 357.8 358.9 359.4 359.9 358.7 357.5 358.7 359.8 364.3 374.2 385.2 395.9 406.2 414.6 420.9 424.6 426.9 428.2 426.6 424 419.9 416.5 411.1 404.4 398.4 390.1 383 377 371.3 367 365.2 366 364.4 358.9 350.5 339.1 323.2 311.1 313.5 320.1 335.5 347 350.2 346.5 339.5 333.9 328.6 319.3 319.3 329.8 342.2 347.6 351.2 353.4 354.1 354.5 355.4 357.5 356.9 353.5 352 350.7 350.9 348.3 346.9 348.2 344.5 339.9 336.1 332.6 328 320.4 320.4 321 321.2 321.4 318.8 317 311.9 309.2 306.6 304.1 301 299.4 296 292.6 290.3 285 280.9 273.2 261.4 248.5 241.7 242 241.6 243.4 242.8 243.4
367.3 371.2 376.5 379.8 379.6 378.8 382.2 383.7 385.5 388.4 394.2 400.4 405.8 411.1 416.2 423.1 431 439.4 448.3 457.3 465.8 474.5 482.9 491.6 499.9 507.7 515.2 523.8 529.5 535.9 539.6 541.5 541.4 542.7 545.4 549.4 553.9 556.9 558.3 559.5 560.5 561.5 562.3 562.9 564.1 567.7 574.8 582.1 587.3 587.8 588.2 583.9 575.6 563.3 545.5 528.3 508.9 495.4 479.7 461.2 437.3 418.8 401.7 386.2 375.9 367 361.2 353.7 344 331 316.1 309.2 305.1 302.3 297.3 292.9 287.8 283.1 282.7 281.2 280.6 278.6 281.4 284.2 286.8 290.2 294 297.8 299.5 311.4 315.8 323.4 327.3 331.6 334.2 338.6 341.9 347.7 351.2 352.8 355.4 357.2 358.7 359.6 360 360.7 360.5 359.6 361 364.4 369.5 380.3 391.3 402.3 412.7 421.5 428.2 432.6 434.9 436.4 434.9 432.8 429.9 426.7 421.7 416.1 409.2 401.2 393.9 389.1 383.2 377.5 374.8 375.6 372 365.8 358.3 347.4 333.7 320.1 324.7 338.1 341.6 343.7 354.9 353.4 347.2 340.4 334.2 327.7 326 335.8 345.9 350.3 353.2 354.8 354.8 355.5 356.2 358.4 359.4 358.4 356.2 351.8 349.5 348.6 348.8 348.4 342 340.7 335.9 330.5 326.6 319.8 309.8 312.1 313.2 312.2 313.8 313.3 307.4 304.8 302.6 299.7 298 294.6 292.9 289 286.1 282.1 277.2 273 265.8 252.8 239 231.4 228.5 228.7 231.9 234.7
365.6 366 372.1 375 374.2 374.4 377.3 379.7 381.9 385 388.9 394.7 399.8 405.3 410.9 417.5 424.7 433.2 441.5 450.6 459.6 467.7 476.1 483.8 491.8 499.5 507.1 514.2 519.5 524.6 527.7 529.9 532.3 534.1 538.9 544 548.8 553.4 558 561.3 563.9 566.3 568.8 570.8 572.6 573.9 580.3 587.3 591.2 592 588.8 583 574.7 554.5 536.1 512 495.1 482.5 464.3 441.5 423.5 412.3 400.4 387.7 374.4 362.7 351.6 345.6 336.1 323.9 310.6 301.8 297.5 294.9 291.2 285.3 282.9 277.1 275.9 275.2 279.2 280.7 281.1 287 290.2 292.4 293.3 292.5 297.4 302.3 310.2 314.3 320.8 327.4 330.1 334.4 339.3 345.5 349.1 351.2 353.7 355.6 357.5 359 359.7 360.4 360.8 361.8 364 368.6 375.8 386.9 397.5 408.4 419 427.4 434.5 439.9 442.3 443.7 442.8 441.1 437.8 435 431.4 425.3 418.4 411.7 404.6 399.3 393.2 388.5 384.6 382.9 379.6 373.3 363 354.1 343.4 326.1 333.9 348.7 353.6 352 355.4 357.5 352.1 346.7 339.7 333.6 332 341.1 349 353.3 356 356.3 356.7 358.2 358 359.2 360.9 360.9 357 354 348.7 348.6 349.1 348.1 344.6 340.1 337.4 333.6 331.3 321.8 315.7 313.5 308.1 298.7 306.3 307.2 304.2 301.7 299.5 296.8 294.4 289.7 287.2 284.8 281.6 278.4 268.7 261.8 253.7 243 231.9 231.3 226.5 217.9 223.8 227.7
359.3 362.5 368 368.7 367.4 368.2 370.3 374.5 377.6 380.6 384.3 388.5 393.5 399 404.7 411.6 418.6 424.9 432.9 442.9 450.7 459 467.7 475.7 483.1 489.9 496.8 502.7 508.7 512.8 516.2 518.5 519.8 524.9 530.6 536.4 542.6 548.4 553.9 559.1 563.8 568.3 572.4 576.3 579.1 583.2 588.2 592.6 595.5 596.4 593.8 588.4 579.4 563.8 540.7 518.9 498.3 479.5 458.8 440.4 424.2 413 401.9 389.6 374.9 363.2 351 340.3 327.1 316.6 306.7 297.4 291.9 287.7 284.6 278.7 277.4 271.6 272 271.4 272.6 274.6 285.6 289.3 292 291.8 293.3 295.6 298.2 300.2 306.5 313.6 320 324.9 327.2 331.7 333.7 338.8 341.6 345.8 350.3 352.4 354.3 355.9 357.3 358.6 360.2 363 366.8 372.3 381.6 391.7 400.8 413 423.7 432.8 439.5 445.7 448.7 450.4 449.7 447.4 445.3 442 438 433 426.8 420.2 413.3 407.5 403 397 392.4 389.4 385.5 378.6 370.4 359 352.9 334.7 342.6 356.5 360.3 358.7 358.6 360.5 356 352.3 346.3 341.5 342.1 347.4 355 357.8 359.4 359.2 358.4 359 358.6 359.2 359.1 360.8 361.1 356.4 352.6 348.2 347.4 346.5 342.2 339.2 339.9 335.9 331.2 322.6 315.4 310.7 307 301.4 294.4 300.3 300.5 298.2 297 295 292.5 287.7 283.4 279.8 275.4 267.3 248.9 245.4 246.6 252.1 252.2 247.2 236.8 227.1 214.7 214.3
354 358 363.1 359.6 358.8 358.3 361.3 366.6 370.2 374.5 378.2 381.8 386.5 391.9 398.4 403.3 412.1 418.8 426.3 434.1 442.3 448.9 457.6 466.2 474 481.3 487.1 492.7 497.1 499.9 502.7 505.3 508.5 514.7 520.9 527.3 533.4 541.9 547.9 554.3 560.5 567.5 574.4 580 585.4 590 593.7 598.4 600.7 602.1 599.7 594 585.7 573.6 554.9 534.5 511.9 492.1 473.7 454.1 435.5 426.7 414 400.5 385.7 373.6 359.1 345.4 330.2 312.4 303.4 294 288.5 282 277.8 272.7 271.1 270.3 269 269.5 270.7 282.8 285.5 290 292.8 291.9 294.4 298.7 300.5 299.7 306.5 314.9 317.8 322.1 324.1 325.2 327.4 330.2 335 340.9 344.8 346.2 348.2 350.9 352 354.4 358.5 363.9 368.2 374.5 386.3 396.8 407.8 419.1 430.8 439.2 446.7 451.4 455.2 455.9 455.9 454 451.4 448.6 444.4 440.1 434.4 427.6 420.6 416.1 411.4 406.3 401 396.7 391.2 384.1 376.5 369.7 362.9 344.2 352 362.5 363.7 361.7 362.2 363.6 361.4 356.9 352.8 347.6 350.3 355.1 359.9 362.6 363.1 361.6 360.4 359.8 358.8 358 357.7 358.3 357 358.1 352.8 348.2 346.3 342.3 339 338.5 337.2 330.5 325.3 322.4 315.3 311.7 307.6 303.4 297.7 288.5 296.4 295.6 294 292.3 291 287.7 283.2 278.1 270.4 258.1 261.1 265.8 266.9 268.4 265 252.6 247.5 236.4 218.8 209.7
349.4 352.6 354.7 351.3 349.3 350.8 352.6 357.5 361.6 366.5 371.1 374.7 379.9 385.2 391.1 396.3 403.4 409.8 416.9 425.5 434.5 440.9 449.3 457.2 464.5 471.8 477.1 482 486.2 489.1 492.2 495.1 498.6 504.5 511.1 517.8 524.9 532.2 539.6 547.8 555.6 563.6 574.4 582.2 588.2 596.2 600.7 604.9 608.7 608.9 607.7 602 593.3 582.9 569.4 550 528.6 509.7 491.7 476.1 463.7 448.9 430.4 413.3 396.5 381.9 363.8 349.1 335 314.4 301.9 294 286.9 278.8 273.6 270.7 268.6 268.5 268.5 268.5 274.6 283.3 283.7 284.6 286 290.4 295.1 298.2 300.4 298.2 302.7 314.3 318.4 320.3 318 317.6 321.8 325.7 328.7 333.8 337.2 340 342.2 343.9 347.3 351.9 358.2 363.8 371.2 380.2 391 402.6 413.9 426.1 437.1 446.8 454.3 459.4 461.9 463.7 463.4 461.7 459.9 455.9 452.3 447.9 442.1 434.8 429.6 423.6 418.6 414.2 408.4 403.8 398.8 391.7 384.4 377 369.4 351.3 360 367.6 369 367.5 367.5 369.1 367.9 363.9 359 357 359 361.3 364.7 366.9 367.5 364.7 363 361.6 359.2 358.1 356.7 356.2 355.4 353.3 352.7 350.3 346.1 340.5 340.6 335.5 331.9 330.9 330.4 323.7 320.1 313.2 306.9 301.9 298.4 294.7 285.3 290.5 290.4 290.4 289.2 287.2 282.6 276.2 264.8 258.4 272.5 276.7 283.3 283.2 278.6 269 258 239.8 225 211.8
341.1 343.8 346.9 344.9 344.2 341.8 344.5 349.7 354.3 358.8 363.3 367.3 372.4 377.8 383.5 390.1 395.8 402.4 409.7 417.7 425.1 432.9 441.2 449.2 455.4 461.7 466.9 471.8 475.8 479.2 482.6 486.1 489.6 495 500.6 507 513.4 521.5 530.1 540.4 549.9 560 570.8 582.1 592.1 600.4 607.9 613.1 616.3 617.7 616.3 611.2 603.4 593.6 581.5 567.4 548 530.4 513 498 485.9 470.3 451 429.3 407.3 389.8 369.9 352.7 337.8 320.4 304.2 293.4 285 275.9 271.6 269.2 268.5 267.5 268 270 279 281.7 281.9 282.2 283.7 290.2 295.9 296.5 296.7 295.2 296.9 306.4 314.8 314.3 313.5 313.7 315.7 316.2 320.3 323.7 329.3 332.5 336.3 338.8 343.5 351 358.2 365.9 374.4 385.1 395.9 407.8 419.3 429.1 442.1 452.2 460.7 467 468.9 470.9 471.9 471.7 468.6 464.5 459.4 454.8 450.1 444.3 438.6 430.9 426.3 422.2 417.3 411.9 405.4 397.9 388.8 381.8 370.9 362.6 365.2 371.9 373.8 373.3 373.4 374.3 373.9 372.1 368.5 366.6 367.8 368.9 370.5 371.7 372.3 371 369.3 365.4 362.3 358.6 357.2 354.6 353 351.7 347.3 344.2 342 339.1 337.4 335 333.2 331.9 328.1 323.2 317 311.2 299.5 292.7 288.7 283.8 278.6 273.6 275.2 278.7 276.6 273.2 271.1 263.4 274.5 281.9 287.8 295.5 299.1 298.1 292.5 283.3 272.8 258.4 241.2 219.8
333.2 334.7 339.1 338.1 335.9 335.3 339.2 343.4 348.8 351.8 355.7 359.6 364.6 369.9 375.5 382.4 388.7 394.4 402.7 409.9 417.4 425 431.3 439.3 445.8 451.3 456.5 461.4 465.8 469.4 472.9 476.4 481.1 485.8 491 496.6 503.2 511.5 520.5 532 543.3 556.1 568.8 580.9 592.3 602 609 616.6 621 623.7 623.8 620.6 614.3 604.8 592.7 579.8 566.5 548.3 532.5 517.8 502.1 486.4 468.8 447.9 420.6 397.6 376.1 356.2 339.7 324.9 308.3 295.5 284.3 276.1 270.8 267.8 267.1 267.1 265.7 270.6 276.5 281.2 281.2 277.9 277.3 282.4 284.7 286.3 290.7 290.8 292.9 298.6 302.1 304 306.7 307.9 309.7 309.7 311.5 315.2 320 326.1 330.5 336.3 342.9 350.7 358.9 368.8 379 390 400.6 412.3 423.6 435.2 448.1 459.4 469.4 476.2 479.8 481.9 483 482.3 479.1 475.3 470.5 465 457.7 453.3 448.6 443.2 436.9 432.2 427.1 421 413.3 405.6 397 387.9 380.9 374 373.7 377.4 379.4 377.4 378.5 379 379 380.2 379.2 378.1 376.6 377.4 378.6 378.5 378.9 376.3 374.5 371.9 368.1 363.6 360.5 356.6 353.5 349.4 344.2 339.5 338 336.4 335 333.1 331.1 331 328.6 322.3 309.3 314.6 312.3 308.8 305.8 302.7 298.6 292.7 288.8 285.8 283.8 281.2 281 286.3 292.1 296.7 304.3 308.2 311.4 310.6 305.9 297 283.9 265.8 251 230
325.4 327.7 333.3 331.1 329 330.3 334.4 338.6 343.7 347.6 350.6 353.1 356.6 361.9 367.3 372.1 378.4 385.5 392.5 399.7 408.3 415.1 421.7 428.2 434.1 439.7 445.6 450.6 455.1 459.4 463.2 467.8 472.4 477.1 482 488.1 495.2 504.3 514.7 525.7 537.8 550.8 564.8 578.4 589.3 599.4 608 616.3 623.5 625.9 628.1 626 621.6 615.3 605.1 592.9 580 565.7 550 534.3 518 501.8 483.3 463.7 435.6 406.8 383.2 359.8 343.2 327.8 309.9 297.6 286.1 276.6 270.8 268.1 266.5 266 266.3 268.3 277.6 283.6 281.7 275.2 271.8 274.1 274.6 276.4 278 280.5 286.3 290.3 295.8 297.2 297.6 299.2 301 302.5 308 313.3 318.9 320.9 328.6 335.6 343.3 352.3 360 370.9 382 395.4 407.3 418.4 431.5 442.7 456.5 467.6 477 484.4 489.8 492.8 493.9 493.6 490.5 485.4 481.2 476.4 470.4 463.5 458.5 453.8 448.4 442.4 436.3 429.2 422 413 404.6 397.3 390.9 384.2 382.1 382 384.5 381.9 384.1 385.9 387.5 388.6 387.8 388.6 388.6 388.5 388.5 387.4 386.2 383.3 380.2 377.4 373 368.1 364.3 359.9 356.1 352.1 348.5 345.6 343.1 337 333 332.4 329.2 327.8 326.8 322.5 323 323.4 320.6 317.7 313.5 311.1 306.4 301.4 297.4 298.4 297.5 300.2 299.5 300.6 304.2 308.5 312.9 316.7 320.1 319.4 313.7 306 295.3 275.9 254.7 237.3
319.1 323.1 324.2 323.4 322.7 325.5 329.1 334.9 338 343.9 346.3 347.4 350.9 354.2 359 364.6 368.6 375.3 383.4 390.8 397.7 404.1 410 416.5 422.3 428.6 434.2 439.1 443.5 448.2 453.2 457.7 462.7 468.3 473.5 480.4 489.1 498.3 509.5 520.5 533.5 546.5 559.3 572.9 584.5 595.6 605 612.9 619.3 623.6 626.4 627.4 624.9 619.7 613.3 603.6 592.6 580.4 567.6 550.6 532.9 513.8 496.5 476.8 449.9 417.5 386.6 365 346.5 330.5 313.9 299.1 289 280.9 271.7 267.7 266.5 264.3 266.3 268.4 278.3 283.2 280.3 274 271.4 271.1 270.8 271.4 272.3 275.7 280.1 283.6 286.8 289.4 290.4 292.5 297.4 303.9 310.6 316.8 321.3 326.1 329.8 335 343.6 353.1 360.9 372.4 386.3 399.3 412.4 425.3 437.5 450 463.7 474.6 484.4 492.5 499 504 506.5 505.7 505.1 502 495.4 489.1 481.5 473.3 466.7 461.5 457 451.2 444.7 437.9 429.3 421.7 415 407.9 401.7 395.6 391.8 389 388.9 387.6 389.3 393.1 395.3 396.5 396.3 396.5 396.8 397.8 397.9 395.9 392.5 389.2 384.1 380.4 375.3 372.1 368.2 363.9 359.7 357.7 355.9 352.9 349.6 345.6 342.4 339.8 336.9 334.4 331.3 326.4 329.3 329.8 327.8 324.6 321.5 320.8 318.2 315.9 312 311.7 312.7 312.4 311.9 311.4 311.9 314.9 316.7 319.9 323.2 321.4 316.2 308.5 298.7 280.4 261.8 230
313.5 317.4 317.5 316.3 316.8 321.1 323 327.4 332.1 337.2 339.8 341.4 344.9 348.2 351.6 356.9 361.2 368.1 374.6 381.5 387.4 392.6 398.9 405.8 412.4 416.6 422.3 427 431.7 437.1 442 448.4 454.2 460 466.9 474.3 483.5 493.6 504.8 516.4 528.4 540.7 553.4 566.5 578.7 590.5 600.8 608.7 615 619.4 621.1 622.3 622.4 619.3 615.4 608.7 601.4 591.3 580.3 565.9 546.8 526.3 507.9 487.5 461.5 424.6 391.5 368.5 348.7 332.9 316.8 298.6 289.1 279.7 274.2 267.4 265.6 263.3 265.2 267.5 273.8 282 279.5 273.6 268.7 266.4 265.6 266.2 268.3 269.9 277 278.8 282.1 281.8 287.6 291.9 295.9 302.5 310.7 317.8 325.8 331.1 336 340.6 344.9 353.2 362.5 374.2 387.1 401.3 415.7 428.4 443 455.6 468.9 480.5 490.8 501.7 510.9 517.6 520.6 520.1 517.9 514.2 509.7 502.7 494.3 485.8 477.4 469 464 459.1 451.8 445.2 437.5 431.8 425.7 419.9 411.8 405.4 400 397 395.4 393.1 395.5 399.2 401.4 402.5 404.5 404.8 404.1 405.4 404.6 402.1 397.9 392.8 386 381.7 377.5 374.7 371.5 366.9 366.3 364.9 362.2 358.7 353.5 349.9 346.6 344.9 342.3 339.6 335.9 333.1 334 335.1 335 334.9 333.4 331.6 329.8 327 324.3 322.9 321.1 318.9 316.2 314.5 312 313.3 315.3 317.8 317.3 315.3 310.2 302.3 293.3 278.3 257.4 231.7
306.7 308.5 310.6 308.3 311.6 314.5 315.5 319.9 324.6 328.2 331.4 334.3 337.4 339.8 343.9 349.2 353.9 360 366.5 372.4 377.6 383.5 387.8 394.1 400.6 405.7 410.3 415.1 420.2 425.6 431.9 438.8 444.8 452.2 460.2 468.1 477.9 488.1 498.9 510.3 521.9 534.2 546.8 559.9 572.4 585.5 595.9 604.6 611.1 613.6 614.2 614.4 615.4 616.5 615.1 613 608.7 601.3 591.9 578.9 560.1 538.9 518.6 496.7 469.2 430.8 395.9 370.4 348.4 334.4 314.5 297.7 290.1 280.4 271 267.6 265.7 264.2 264.4 264.8 268.2 274.2 276.6 272.6 265.3 262.4 260 260 262.5 264.4 268.1 270.6 279.2 285.8 291.5 295.2 297 303.7 311.4 320.3 329.1 337 343 346.3 349.7 355.1 363 375.2 387.1 401.9 416.2 431.6 445.4 458.3 472.6 485.4 496.8 509.7 521.2 529.5 532.9 533.4 531.8 529.2 524.3 517.2 506.3 495.8 486 476 470 463.8 457.9 451.5 446.2 440.3 434.3 428.4 421.7 415.6 409.2 406.3 403.3 401.4 402.1 406 408.2 410.7 412.6 413.7 412.1 411.3 409.9 406.7 401.8 396.2 386.3 380.3 376.6 374.7 370.4 371.7 372.5 370.9 368 363.8 358.8 354.2 349.9 347.3 345.3 342.3 339.1 339.7 342.3 342.8 343.3 342.7 341.1 339.4 336.6 334.1 331.1 328.9 326 323.1 319.6 316.8 312.9 306 310 310.9 307 303.6 298 288.1 280.9 267.5 255.2 229.5
301.4 302.3 304 303.7 306.6 309 310.8 316.6 317.5 320 321.7 326.3 327.6 332 336.6 340.7 345.7 352.6 357.8 363.8 369 373.8 378.3 383.8 389.4 394.2 399.8 404.3 409.8 415.3 421.4 428.4 436.3 444.4 452.5 460.9 470.1 479.9 491.1 503.1 514.9 527.8 539.9 553.5 567.7 580.5 590.5 599.7 604.8 606 605.7 605.1 606.1 608.9 613.1 615.2 615.9 614.1 604.7 590.5 573.2 550.5 528.2 506 474.1 434.3 396.9 370.4 347.8 332.4 312.2 298.6 288.1 281.8 274.3 266.4 268 264.9 255.7 261.7 263.2 268.8 270.1 268.6 260.4 257.3 254.5 255.4 258.6 260.8 266.6 272 279.1 287.6 292.6 299 303.5 307.6 315.6 323.5 332.5 340.6 346.6 351.3 356.4 360.6 366.5 371.3 387.6 401.2 415.8 431.1 447.2 460.1 474.3 487.2 502.2 516 528.8 537.7 543.9 546.2 545.9 541.9 536.3 529 519.9 508.1 495 483.4 475 468.7 462.9 458.8 453.7 448.3 442.8 436.1 429.8 424.6 420.3 416.8 412.3 408.6 411.2 413.3 417.1 420.6 423.1 421.7 420.5 417.2 414.4 410.4 404.9 398.3 390.5 381.4 379 376.3 375.8 376.6 376.7 375.5 372.1 367.6 363.4 358 353.6 349.2 346.4 344.5 343.2 343.6 345.3 348.1 349.1 348.4 346.5 343.8 340.4 337.6 334.8 331.2 328.4 324.3 320.4 316 311.9 305.9 301.1 303.8 302.1 299.1 292.4 287.3 274.3 259.9 246.5 226.1
295.9 296 297.2 297.9 299.5 302.4 306.6 309.6 310.7 310.9 312.7 315.4 318.6 323.8 329 333.5 338.8 345.1 350.2 355.1 359.8 364.8 368.5 374.6 379 384.8 389.8 394.7 400.8 406.4 411.5 418.5 428.2 437.5 445.5 453.7 463.2 473.1 483.6 495.6 507.9 521.4 534.1 548.3 561.9 574.4 583.8 590.6 595.1 596 596.5 595.7 596.3 600.7 606.3 612.6 616.6 618.9 612.9 600.4 580.6 559.6 535.8 510.2 470.8 421.7 392.1 364.9 340.8 326.2 309.3 296.6 285.8 279.7 274 265.9 265.9 263.6 251.7 254 255.4 259.6 263.4 260.9 255.9 252.1 249.8 251.2 255.9 262.4 268 273.2 280.8 288.7 295 301.5 306.7 313.2 322.4 328.1 337.8 345.2 350.8 356.1 362.3 367.5 374.6 383.2 393.1 394.5 413.1 428.3 443.3 458.7 474.2 488.8 503.1 516 529.1 539.2 546.8 552.6 553.9 550.7 546.4 539.4 530.8 518.9 504.3 490.9 481.5 475.8 470.8 466 460.5 454.9 450.8 444.1 437.8 432.6 430 426.4 422 417.5 419.9 422.2 427.2 430.3 431.1 430.5 427.8 422.9 419.3 414.6 407.9 401.3 394.8 385.2 382.4 379 378.9 379.3 379.7 378.5 375 370.4 365 361.1 356.7 351.7 348.8 346.9 346.6 347.8 349.3 350.7 352.7 351.5 349.1 346.1 342 338.1 335.3 332.3 329.2 325.1 318.9 314.2 308.5 303.2 296.3 294.6 294.1 288.4 280.4 267.9 256.2 245.2 235.8 223.6
289.3 288.1 289.8 290.2 292.1 295.3 296.5 302 303.7 302.2 304.7 307.5 309.8 314.6 321 327.3 332.5 337.8 343.5 348.9 353.3 357.6 362.3 365.1 369 373.2 379.9 385.9 391.5 397.2 402.4 412.5 421.1 429.4 437.5 446.3 455.6 466.4 476.9 488 500.6 513.9 528.1 541.1 554.1 566.2 574.6 581 583.7 583.8 583.8 584.6 587.2 591.1 596.5 604 608.6 611.3 609.9 599.2 576.4 548.6 521.2 486.9 444 408.8 381.1 354.6 332.4 317.4 300.2 290 283.4 277.1 271.9 266.5 257.4 256.5 245.3 245.8 247.6 251.8 253.3 252.3 246.8 245.7 245.1 249.5 256 261.7 266.5 272.5 278.2 285.4 296.4 304.4 310.6 318.5 327 336.5 344.6 351.3 357.2 362.5 368.4 374.4 381.9 394.5 403.8 412.3 421 430.2 434.9 452.2 469.6 484.8 501.1 514.9 528.2 538.7 547.7 554.6 558.8 558.9 555 548.4 541 529.7 513.3 499.6 488.7 483.3 478.1 472.6 466.8 461.6 456.5 452.2 446.7 442.4 439.3 434.8 430.5 428.3 430.3 433.2 436 438.6 439.8 438.2 435.2 429.5 424.6 418.1 410.4 403 397.2 387.9 383.9 382.6 381.3 380.8 381.1 379.9 376.2 369.4 365 361.5 357.6 354.2 351.6 349.4 348.2 349.8 351.7 353.6 354.8 354.5 352 348.1 343.7 339.6 335.4 331.1 327.2 323.5 317.7 310.6 303.8 296.7 292.4 286.2 285.6 281.1 273.4 261.4 252.2 242.5 232.3 222.1
285.9 286.4 283.9 284.5 285.2 287.5 288 291.7 292.2 295.8 294.7 297.7 301.7 306.7 312.2 318.4 323.8 330.2 336 341.3 345.4 350 353.2 357 360.4 364.1 368.9 377.9 382.8 387.1 395.2 404.8 413 421.2 429.9 438.8 448.2 458 469.7 481 493 506 519.7 531.8 544.7 554.9 562.5 567.8 570.7 570.7 570.2 573.5 576.4 579.8 584 588 592.5 595 594.3 580.5 550.6 518.7 488.4 450.7 421 395 366.9 341.5 326.6 311.1 295.3 287.5 280.1 275.5 271.9 267 257.5 245.5 239.9 239 239.4 240.8 246.2 240.7 240 238.9 239.9 245.8 256 262.3 264.7 268.4 273.8 284 293.9 306.4 315.3 324.7 336.8 346.4 354.4 360.8 364.9 370.1 377.6 385.5 395.7 404.5 413.1 421.7 429.4 440.3 449.2 458.7 466.5 479.5 497.1 511.7 524.3 536.9 547 555 560.7 562.5 561.1 556.5 549.8 538.7 522.7 505.7 498.4 492.9 486.4 479.5 473.3 468.4 462.9 458.2 453.2 448.7 446.2 442.6 438.2 436.9 439.4 441.6 443.3 445.9 446.9 444.9 441 435.2 429.6 423.9 416.8 409.9 402.3 392.5 386 383.3 383.4 383.1 382 379.9 376.1 369.9 364.1 361.1 358.8 355 351.5 349.4 348.5 350.3 353.3 354.4 355.6 355.1 353.6 350.5 346.2 341.3 335.8 331 327.5 320.9 314.6 306.2 298.7 291 285.4 282.2 277 274.5 269.5 261.1 253.5 247.7 238.3 219.4
280.4 281 279.8 279 279.7 279.8 281.5 282.4 284.3 283.7 284.5 288 291.9 297.2 301.5 307.4 313.7 321.4 327.7 333.3 338 342 346.3 349.3 353 357 359.7 367.3 373.1 381.1 388.5 394.6 403 412 421.7 431.3 441.3 450.4 460 472.7 484.9 497.4 509 521.6 533 542 549.8 554.5 556 556 556.9 559.2 563.1 567.7 571.2 573.6 576.6 577.4 574.8 556.9 526.9 495.4 457.7 428.8 404.5 379.7 353.3 331 318.7 302.6 287.6 280.6 276 272.9 268.8 266.3 255.7 245.9 239.6 233.1 232.8 232.2 235.2 234.3 234 233.9 237 242.3 251.3 258.3 260.3 263 271.5 283.4 296.1 309.5 322.9 336.5 348.3 358.1 366.3 372.7 378.3 383.9 391.9 401.3 409.1 416.2 424.1 432 441.2 450.2 460.2 470.7 479 488.6 499.7 511.9 523.2 534.4 547.5 556.2 562.3 566.1 565.6 562.8 557 546.5 529.7 517.2 510.6 504.2 498.6 491.3 483.4 476.3 469.2 463.9 459.9 456.1 452.9 449.1 447 445.2 447.7 448.8 449.8 451.6 451.5 450.2 447.2 441.9 436.6 429.9 422.4 416.1 409.3 400.4 389.9 386 385.3 384.7 382.5 379.7 374.5 366.3 360.8 357.4 355.9 352.9 350.4 347.5 347.3 348.9 351.3 352.6 352.9 352.5 351.9 349.6 346.3 341.2 335.1 330.3 325.7 319.3 312.5 306.5 300 292.2 285.4 280.3 274.5 266.6 264.4 257.7 249.4 236.9 221.8 211.7
280.7 277.8 276.6 275.7 274 274 273 272.6 275.5 277.2 274.5 276.7 282.4 288 292.4 297.5 304.2 312.7 319.4 325 330.6 334.2 338.5 341.7 345.9 349.1 353.3 359.2 367.4 376.4 382.5 387.7 394 403 411.6 421.6 432.3 442.9 452.9 462.8 474.1 487.4 499.4 510.6 520.5 528.6 535.4 539.4 540.2 539.3 539.9 542.9 547.6 551.7 555.5 558.5 560.1 558.3 554.1 537 507.8 465.1 431.8 408.6 385.7 365.5 341.3 326.1 310.3 295.9 283.5 275.6 269.5 265.2 262.2 259.5 254.7 246.1 240.7 234.4 229.7 227.4 226.3 228.5 228.4 230.4 234.9 241.9 249.9 254.6 259.1 260.6 269.7 283.2 296.3 313.4 330.8 344.8 357.8 367 374.7 381.9 388.7 395.9 404.4 412.1 420.5 428 436.5 443.6 451.1 459.7 471.3 480.6 489.6 498.7 507.2 516.3 525.7 539.9 551.2 559.1 565.8 569.7 570.3 567.8 562.7 554.8 542.6 533.3 527.7 521.7 514.1 503.8 496 486.5 476.4 470.5 467.3 464.2 461.3 458.9 456.5 455.1 454.6 456.4 456.5 456.8 456.5 455.8 453.4 449.7 443.9 436.9 428.7 421.4 414.9 407.4 398.1 392 388.7 386.8 384.4 380 373.9 365.5 358.4 353.5 350.9 350.3 347.1 344.5 342 343.7 345.8 347.2 348.4 348.8 348.5 346.9 343.9 339.8 334.3 329.7 324.2 318.5 312.6 306.9 299.5 292.8 287.7 283.2 277.7 271.4 265.4 257.5 249.6 239.4 224.4 213.4
287 284.8 281.3 278.6 276.8 271.3 272.2 270 265.1 267.8 269.6 267 271.4 277.2 281.9 289.3 295.5 304.5 312.1 318.5 323.5 327.1 330.7 335.1 338 341.9 346.5 353.5 360.7 369.4 376.5 382.3 387.5 395.4 405.8 414.1 424.2 434.8 446.3 456.6 466.9 478.2 490.2 499.8 507.8 516.8 521.7 523.7 524.7 524.2 525.2 528.4 532.8 537.4 541.1 543.5 542 538.4 531 516.4 491.1 434.3 408.7 388.5 369.8 350.1 330.8 315 302 288.3 274.9 268.3 264.4 260.3 255.5 252.8 251.6 246.1 240.8 234 227.8 225.8 223 224.8 226.5 227.8 231.9 241.8 250.1 253.1 253.6 258.7 268.5 285.2 296.1 314.6 332.1 347.6 361.1 371.7 380.9 388.2 396.7 404.6 411.8 420.1 428 435.9 445 453.7 461.3 470 480.9 490.5 499.3 507.7 517.8 527.7 537.4 546.8 556.7 565.2 571 574.2 575.2 573.7 569.5 563.1 556 547.7 540.8 534.6 526.2 515.8 505.1 495.3 484.9 479.7 475.6 472.4 469.1 467.2 463.1 462.7 462.7 463.4 463.9 464.9 464.5 462.9 460.9 457.7 452 444.4 436.5 428.3 421.3 414.7 407.2 401.4 395.6 391.3 387.8 382.4 377.1 369.2 359.2 352 345.4 346 342.4 339.6 335.5 335.9 337.6 340.3 341.4 342.5 342.6 341.5 340.1 336.7 333 327.7 321.8 315 309 303.4 296.9 290.4 287.3 284.5 281.2 275.9 269.6 262.4 250.4 242.1 231.3 218.1
295 291.1 287.1 283.8 282.7 279.8 276.5 274.5 272 262.8 262.7 259.2 262.2 264.2 273 279.8 289 297.9 305.9 312.9 319.1 323.2 326.2 328.8 331.6 333.7 340.2 347.6 354 361.5 368.1 375.5 381.8 389.7 400.1 410.6 418.5 428.5 438.9 449.8 460.1 469.9 480.4 490.4 497.7 504.1 506.8 509.4 510.2 510.2 510.1 513.9 518.1 522.1 525 524.7 520.9 515.6 507.5 492.1 448.3 409.9 386.6 365.6 346.8 332.4 316.5 303.6 289.1 276.7 265.1 261.5 253.9 250.7 249.9 248.2 247.3 244.9 241 234.2 231.7 230.4 221.4 222.5 224 224.6 227.2 231 240.3 238.2 249 254.6 267.9 280.7 295.8 315.7 333.7 349.1 362.3 373.7 382.6 391.3 400.6 408.6 416.6 424.7 433.3 441.7 450.6 460.1 469.4 478.5 489 498.7 508.2 517.2 528.1 536.7 547.6 558.2 567.1 571.8 576.3 579.1 580 578.9 575.6 570.8 565 558.3 551.7 544.7 536.1 525.5 514.2 505.6 497.1 488.6 482.6 478.3 476 473.5 471.7 469.6 469.6 470.8 471.8 471 471.8 470.3 468.4 465.2 459.2 451.3 442.7 434.2 427 420.6 413.7 407.9 402.2 397.8 393 386.8 380 371.8 361.6 355.5 346.6 339.2 336 333.4 330.7 329 331.9 333.6 332.9 333.7 334.4 334.5 334.1 332.1 329.1 324.8 318 309.9 303.6 299.7 293.9 288 284.8 283.4 281.6 277.4 272 265.3 256.3 247 239 223.4
305 299.7 294.8 291.5 288.2 286 282.9 279.5 275.6 271.8 268.5 262.9 258.4 255.8 263.2 271.8 279.3 289 297.9 305.5 312.5 317 320.2 321.4 319.3 326.5 334.5 341.2 347.6 354.1 361.3 368.7 376.8 382.8 393.1 404.8 414.4 421.9 429.9 440.9 451.5 461.1 470.9 478.8 485.4 490.7 493.6 495.2 495.4 495.1 495.9 500.1 503.3 507.1 509 507.2 504.1 496.4 478.2 443 408.6 384.4 362.6 340.4 328.1 314.6 295.6 290.3 278.7 262.7 253.7 250.3 247.1 244.9 243.4 243.1 243.4 243.9 240.9 235.1 234.4 233.2 223.4 221 221.8 222.2 227 232.1 232.5 236.6 242.9 250.2 260.2 274.9 293.5 312.4 328.8 346.7 361.8 373.6 383.1 391.5 401.8 411.4 420.2 427.6 435.3 444.2 453.6 462.6 473.5 483.8 493.5 505.8 516 526 537.3 547.1 559.2 568.1 574.5 579 582.2 584.4 583.9 582.7 580.3 576.4 571 564.7 558.3 551.5 543.3 532.4 522.1 513.4 505.5 497.4 489.2 484 482.6 481.2 479.1 477.4 475.4 476.3 476.6 476.9 476.5 476 474.2 470.4 464 456.2 447.9 439.4 432.8 427.3 420.8 414.3 407.6 402.8 398.2 392.4 385.1 377 367.3 359 352 343 335.5 328.3 325.6 322.9 324.1 324.9 323.7 321.5 321.2 320.4 321.4 319.7 320.6 318.1 312 304 297.4 293.6 289.9 285.3 283.1 281.5 279.9 277 272.6 266.8 261.1 250.5 241.7 228.1
315.5 308.6 302.7 298.3 295.2 292.5 288.3 284.1 280.4 276 272 269.1 265.9 259.5 253.4 261.6 272.7 281.6 291 299.1 305.6 308.9 310.7 310.5 308.7 318.5 327.9 335.1 341.1 348.1 354.8 363.3 370.5 377.5 386.7 399.6 410 418 424.1 433.4 443.2 452.6 460.8 467.1 472.7 476.9 479.7 481.4 482.2 480.4 482.8 487.8 491.5 494.2 495.6 494.4 488.7 481.1 455 414.7 388.3 363.6 339.2 319.2 308.7 290.9 280.7 273.1 258.8 249.4 245.4 243.1 241.6 241.4 239.1 239.9 240.2 241.5 237.6 234.7 231.1 231 223.6 219.8 219.5 218.9 222.5 228.9 229.2 234.3 239.3 248 255.4 274 291.7 308.7 328.3 345.7 361.5 372.5 383 391.5 402.1 411.7 419.4 426.8 434.3 442.7 451.7 461.9 472.9 483.6 494.3 507.5 518.7 531 544.9 558 568.8 576.2 581.9 586.1 588.2 588.2 587.3 585.5 583.1 579.6 574.8 569.2 562.9 556.4 548.5 539.2 529.5 520.8 512.2 503.4 495.4 490.6 487.3 486.3 485 483.1 481.8 480.4 481.2 481 479.7 478.5 476.8 473.1 467.4 459.3 451.2 443.8 437.5 431.7 426.2 419.5 412.8 407 402.8 397 389.1 381.6 374.3 365.3 357.8 349 340.5 330.2 321.3 318.3 316.8 316 313 309.8 307.1 305 304.9 304.5 306.9 304.2 303.8 296 291.6 287.7 285 283.1 281.5 281.1 279.4 276.3 273.3 268.9 262.8 252.4 238.2 228.2
324.6 317.3 311.3 306.4 304.6 301.6 295.7 289.8 283.2 277.8 274.3 271.1 267.6 263.8 257 252.4 263.5 273.9 284.9 292.6 297.8 298.2 295.1 297.1 308.1 313.5 320.5 328.9 336.2 344.4 351 359.2 365.5 372.5 381.3 393.8 405.5 413.3 419.5 427.8 435.4 443.9 451.3 457.3 461.3 465.2 468.4 469.2 468.4 468.9 471 475.4 479.2 481.9 482.9 478.8 472.8 464.3 444.7 404.6 369.5 342.5 319.3 300.6 287.4 275.7 267.6 256.8 246.6 240.2 236.9 236 236.6 237.2 234.8 235.7 236.7 236.5 234.8 231.9 227.6 225.6 225.7 220.7 218.8 218.9 225.1 226.1 228.1 230.1 235.5 251.7 263.1 275.8 290.9 306.9 324.1 344.9 360 371.6 381.7 390.8 400.3 409.8 416.8 423 430.3 438.1 447.9 458.3 470 480.9 492.4 505.8 519.6 533.8 547.5 561.9 573.5 583.2 587.8 590.6 590.8 590 588 585.5 583.4 580.5 576.8 572.3 565.8 559.3 551.4 542.4 533.5 524.4 515.8 507.8 500.8 495.1 491.6 488.9 486.3 484.7 483.5 483.2 483 482.5 480.4 477.2 474.3 471.2 465.9 457.9 450.8 444.4 438 432.3 426.2 420.8 415.1 410.3 405.2 399.2 393.4 387.2 381 374.2 365.9 354.8 344.4 334.7 323.6 313.1 308.4 307 301.1 295.8 291.8 287.1 288.3 292.7 293.9 297.6 294 288.7 286.4 282.2 280 280.1 280.7 281.5 280.2 276.5 272.5 268.1 262.1 253.8 236.2 224.7
338.5 329.5 321.5 318.9 317.2 312.2 306.1 298.5 288.9 280.6 276.2 272.4 268.8 265.3 258.7 253.2 253.5 264.8 274.5 282.8 278.1 290.8 301.1 309 314.3 314.9 316.3 322.8 331.5 339.6 346.6 354.9 363.1 370.3 378.7 389.8 400.4 407.7 413.8 422.7 429.9 435.7 442.7 448 451.5 454.9 456.6 456.4 455.7 456.5 459.5 463.7 468.2 470 468.8 464.7 458.7 452.9 438.5 408.2 361.1 326.1 303 285.1 273.4 263.1 254.6 245 236.3 230.8 227.6 227.2 229.2 231 229.9 230.4 230.5 231.7 230.8 229.4 226.2 224.7 223.5 221.9 223 214.5 224.6 224.1 225.6 228.5 239.1 250.8 263.7 276.1 292.9 308.5 327.4 344.7 357.9 368.5 378.8 387.5 397.2 405.8 413.2 417.3 421.1 433.2 444.3 454.8 466.4 476.3 488.6 502.6 516.1 529.9 544 558.8 571 581 587.3 589 588.1 586.8 584.9 583.2 580.9 578.2 575.7 571.7 566.6 559.6 551.9 543 533.9 525 516.9 509.6 503 497 491.7 489 485.9 482.8 480.9 480.2 479.9 479.4 477.5 473.4 468.2 465 460.3 453.2 444.8 438.5 431.9 427.1 422.7 418.4 414.6 410.8 406.9 402.2 398.3 393 387.3 381.1 372.8 362.6 351.4 339.8 328.9 318.1 304.3 298.3 295.4 286.4 278.7 275.6 276.7 282.7 283.2 285.5 283.2 281.9 280.9 276.9 276.6 275.6 276.4 278.5 278.9 275.9 271.7 266.1 257.5 247.5 233.6 221
354.7 345 330.5 335.3 332.8 329.4 322.7 309.6 295.8 283.6 277.2 272.8 268.6 264 257.7 254 247 255.3 262.8 277.5 290.5 301.8 310.2 317.8 323.3 323.9 323.1 322.9 326.2 332.6 340.5 350.5 359.8 367.6 376 386.9 396.2 402.8 410 416.5 422.8 429.9 435.2 440.5 443.7 446.6 447.4 447.1 445.8 446.5 450.6 451.3 454.2 456.3 454.3 450.6 446.9 437.6 424.8 404.2 343.6 308.1 285.4 273.1 265.5 255.7 246.2 236.1 228.4 221.3 218.3 218.8 221.5 224.4 224.4 224.2 225.1 227.5 227.5 227.2 226.5 223.9 222 222 221.7 209.9 216.2 217.2 227.4 229.7 240.4 252.7 265.7 278.5 295.5 310.8 329.4 344.3 355.5 366.4 375.3 383.3 393.3 400.9 407.2 412.3 416.8 427.2 438.5 448.9 460.3 471 484.3 497.1 510.3 523.6 537.7 551.1 562.6 572.3 577.8 580.6 580.4 579.6 578.8 577.3 575 572.9 571.1 568.3 563.5 557 548.9 540.9 531.3 522.6 515.1 507.3 500.5 494.9 489.6 485.2 481.9 478.8 475.7 474.4 473 472.9 470.5 465.9 459.8 454.7 447.8 437.7 431.4 427 422.8 418.8 414.9 411.3 409.1 407.9 406.6 405.2 402.3 398 392.3 386 377.7 367.9 357.1 346.1 334.1 322.3 311.5 301.9 292.6 285.6 273.1 269.5 266.2 270.2 271.9 273.4 274.7 274.5 274.2 273.5 271.9 269.6 271 274.6 275 272.2 265.9 260.9 253.3 240.9 228 219.9
369.1 359.7 347.9 353.5 353.8 349.1 340.2 325.4 305 289 279.8 272.7 268.2 261.4 255.8 252.2 245.5 252.9 264.9 283.6 297.1 306.9 317.4 324.2 329.3 331.4 332 331 331.1 331.4 335.5 344.5 355.5 366 374.3 382.3 390.9 399.8 407 414.2 419.5 425.3 429.5 433.6 436.8 439.4 440.6 440 438.5 436.9 438.5 439.1 441 438.6 435.9 431.8 428.3 418.9 406.4 382.5 323.4 286 268.2 264.5 264.5 252.5 240.3 230.4 221.9 216.4 212 213 215.7 217.6 217.6 218.9 219.8 222.8 224.3 224.5 227.5 223.4 220.1 219.9 216.8 211.6 210.4 215.2 224.7 233 245.4 255.8 270.2 282.9 297.3 313.2 328 342.4 352.8 362.2 370.5 378.3 386.6 393.1 399.7 404.4 410.8 419.7 430.9 440.7 451.8 463 475.3 488.5 501.7 514.9 526.5 539.7 548.6 556.5 563.6 567.4 569.9 570.4 569.5 568.9 567.3 565 563.5 561.2 556.9 550.9 544 534.7 525.6 515.5 508.7 500.9 493.4 487 482.1 479.1 475.7 472.6 469.6 467.5 464.7 462.8 459.6 452.7 441.2 431.4 422.9 418.6 414.4 411.2 407.4 403.6 401.1 398.7 399.2 400.1 401.1 401.9 401.8 398.1 392.9 385.4 377.6 367 356.9 346.9 337.3 326.5 315.2 305.6 299.8 293.3 284.9 274.6 261.8 255.8 259.9 260.2 261.7 265.6 268.6 267.6 265.4 264.3 262.9 268.3 268.3 263.8 258.8 251.5 245.3 233.6 221.6 212.8
379.4 373.6 367.9 371.7 372.1 370.2 361.3 345.5 323 298.4 283.1 273.5 269 260.5 254.1 249.8 243.9 249.3 264.8 285.1 300 313 325.8 334.2 338.3 338.7 339 340.9 339.9 339.1 340.1 344.3 349.8 361.6 372.4 381 388.5 396.3 404 411.6 417.9 422.8 426.3 430.1 431.6 433.3 434.4 433.7 430.2 426.9 427 426.1 425.6 422.8 418.5 414.9 408.9 399.6 388 361.5 302.5 273.8 259.4 255.6 257.5 246.5 235.3 226.4 217.6 212.4 208.5 209.1 209.5 210.7 212.1 214.1 217.3 219.5 221 222.6 226.1 223.4 218.9 215.9 211 209.6 213.1 217.1 225 237 248.5 257.8 272 282.1 298.4 313.4 323.9 337 347 355.9 364.4 371.5 378.3 384.1 391.2 396.6 403.1 412.9 422.3 431.5 443.1 453.7 463.3 475.8 487.3 499.5 509.9 520 527.5 535.3 542 547.9 552.4 556.2 556.6 556.8 555.4 554 553.4 552.1 549.2 543.7 536 525.4 513.1 502.8 493.3 485.6 477.3 473.4 470.3 468.7 465.5 463.9 460.8 458.4 455.2 449.6 442.2 435.5 422.3 410.2 403 401.1 397.5 393.4 389.5 385 381 377.5 379.1 384.7 390 393.5 394.7 391 383.8 377.3 368.5 358 350.4 343.1 335.8 327.8 318.7 310.1 303.4 297.2 288.9 278.7 269.9 257.5 241.1 247.1 252.2 257.3 258.9 260.8 259.9 258.2 255.6 258.6 258.8 253.5 249.1 244.2 237.8 229.1 219 207.5
391.1 385 384.8 390 393.1 389.9 382.7 369.5 342.6 312 290.6 277.5 268 260.8 252.6 247 243.7 248 261.3 283.8 302.1 317.3 332.6 346 351 350.7 350.1 350.4 351.4 350.8 350.5 353.1 357.4 360 368.9 380.1 388.5 395.3 402.9 409.9 416.4 420 423.7 426.5 428.5 429.1 430.1 429 425.7 421.6 416.6 413.6 411.5 407 402.1 397.3 389.6 378.8 367.7 339.9 296.5 267.1 256.5 251 250.2 240.9 229.1 220.3 213.7 208.7 205.2 204.5 204.6 206.2 209.2 212 214.8 218 219.9 223.5 225.9 222.6 216 211.6 210.5 206.8 210.9 217.3 225.5 238.6 247.2 259.4 271.6 280.9 296.2 308.7 319.6 329.1 339.4 347 356.1 361.1 367.2 375 381.8 387.9 394.7 403.9 413.5 421.7 431.6 442.6 450.9 460.2 472.9 482.7 492.5 501.9 510.3 516.3 521.1 526.8 532.1 536 538.9 541 541.3 541.6 541.4 542.1 539.5 533.3 523.3 513.3 499.8 489.9 482.9 475.7 467.9 462.7 458.5 457.3 451.5 451.4 451.1 448.6 444.2 438.8 427.9 413.7 401.4 386.7 377.6 382.7 383.2 379.8 374.4 367.9 362.9 359.9 358.2 364.1 371.6 376.1 379.7 376.2 367.4 359.7 352.7 344.5 339.5 333.8 327.9 324.5 319.5 313.9 307.4 300.3 291.1 283.5 275.4 265.8 251.1 230.7 238.7 246.1 250.9 253.2 253.4 251.5 248.8 248.1 249.8 245.8 240.5 236.9 228.5 222.5 214.3 203.2
401.5 394.7 396 402.4 406.6 405.3 399.7 389.4 365.4 331.7 302.2 282.3 268.7 257.6 248.8 241.9 241.6 244.1 256.2 281.7 301.8 320.8 339.8 357.9 363.5 365 365.6 365.9 365.4 363.9 362.1 363.3 368.4 372.1 374.8 379.9 390.7 396.4 403.1 409.8 416 419.4 422.8 426 428.6 428 426.1 420.9 414.5 408.3 402.8 401.5 396.4 391.6 385.5 378.6 368.3 357.8 343.3 326.6 295.3 271.9 260.8 249.9 239.5 234.2 222.7 214.4 206.8 203.5 201.8 200.9 200.9 202.3 207.2 210.3 212.8 216.1 219.5 223.9 225.5 221.1 214.3 211.2 207.2 203.1 208.1 221.6 227.4 237.8 247 260.2 269.9 278.8 288.9 301 311.6 319.3 328.5 336.6 344.5 350.5 354.7 363.7 370 377 384.3 392.6 401.8 409.6 416.5 427.6 437.3 445.9 454.7 462.4 472.5 479.9 487.4 493.9 501.5 506.4 509.4 513.6 517.3 518.7 522.9 524.7 526.1 527.1 524.3 518.3 509.7 502.6 492.2 484.1 476.1 468.6 462.1 456.4 451.6 448.2 445 443.7 442.7 440.3 436 427.8 409.4 393 394 394.7 387.9 373.1 358.3 355.5 352.6 346 341.1 338.1 339.2 343.2 352.4 357.1 359.5 359.4 351.7 341.9 333.2 327.8 325.3 322.6 317.1 315.7 315.4 314 309 302.2 295.1 288.3 279.6 270.3 258.1 239.9 220.9 231.8 239.5 242.9 245 244.3 241.4 239.7 238.2 233.7 228.4 225.3 219.7 209.9 204.5 195
411.7 403.5 406.9 415.8 421.4 425.6 419.5 402.5 383.3 350.7 316.5 291.5 271.7 255.9 244.2 240.7 239.4 241 252.8 277.5 301.1 323.3 346.2 370 376.9 379 379.4 378.1 377.6 375.4 374.4 373.2 378.1 382.1 384.5 388.7 393.1 398.7 404.3 409.8 415.5 419.2 422.6 426 428 429.1 426.9 424.3 420.5 415.2 408.4 401.8 391.6 376.1 368.6 357.4 339 327.9 320.3 307.5 292.9 276.5 259.1 249.8 242.4 223.9 214.7 210.6 201.3 199.5 198.8 197.1 197.3 199.9 204.5 207.5 210.8 213.9 217.1 221.3 223.1 220.9 214.4 209.3 200.7 201.7 208.2 220.6 228.5 238.2 248.3 259.3 266.2 273.6 279.9 289.9 301 309.6 317.5 324.9 331.6 337.2 342.1 351.4 357 363.6 372.2 379.4 387.7 394.6 400.8 409.7 418.4 428.7 438.6 445 454 459.9 466.3 470.3 477.7 481.9 488.3 493.6 498.9 502.3 504.1 506.7 508.8 508.3 507.4 504.7 500.9 492.6 486.7 479.1 470.1 463.9 458 451.8 448 441.6 439.2 437.2 435.2 432.1 428.7 409.6 413.3 413.4 412.5 409.1 403.1 393 378 366.3 357.8 350.6 343.1 332.9 316.5 316.3 329.1 336 339.6 339.5 333.2 327.4 320.8 311.1 305.4 303.9 300.8 301.4 305.5 309.4 307.6 303.5 297.4 291.7 282.4 273.4 262.9 246.5 226.8 210.2 227.9 232.6 234 233.7 232.7 231.1 229.1 224.7 219.6 211.4 203.8 195.4 189.5 186.5
424.4 412.5 417.7 427 437 445.5 442.1 424.3 398.1 366.8 332.1 301.2 280.2 257.3 242.8 238.7 238.5 238.9 248.9 273.2 299.7 324.1 350.8 377.7 387 391.2 392.5 391.7 390.4 388.8 387.2 385.9 384.5 388.6 392.1 395.1 397.2 401.1 407.4 411.9 416 420.1 423.5 426.9 429.3 430.5 430.8 428.9 427.2 424.7 419.6 413.8 407.7 396.4 387.8 379.6 370.9 361.1 351.4 340 325.9 304.7 274.3 247.3 240.1 225.2 214 205.2 198.8 194.2 194.3 194.7 193.4 196.5 200.9 202.8 207.4 209.6 213.3 217.7 219.2 218.1 215 206.3 198.3 203.5 209.4 220.2 228.2 240.4 251.2 259.3 265.1 270 274.9 281.1 290.8 299 306.6 313.1 320.9 326.3 329.3 333.5 340.8 347.2 355.8 362.7 371.7 378.8 385.8 395.9 403.5 411.7 419.5 426.4 432.4 438.9 445.4 449.9 458.3 467.1 472.8 479.8 485.5 488.7 489.6 491.7 493.9 495.8 497.8 496.9 493 487.3 480.6 469.1 465.6 460.7 454.6 449.7 444.9 440 436.3 433.3 429.3 420 418.7 425.8 428.2 427.6 425.5 421.3 414.8 406.4 397.3 386.1 377.1 369.1 360.7 350.3 337.8 321.6 302.2 310.4 318.1 321 317 310.9 305.8 296.6 289.8 284.3 280.6 280.6 289.7 301.5 305.9 304 300.6 293.4 285.4 274.4 264 250.4 225.7 201.3 215.4 223.6 227 227.7 224.7 220.7 217.7 213.4 208.8 202.4 193.5 186.6 182.2 178.5
438.9 421.9 429.1 441.2 453.8 467.2 464.5 439.7 412.2 382.1 346.7 311.8 288.8 262.4 245.8 237.6 237 237.1 246 268.7 297.1 322 353.6 379.9 392.7 398.9 401.1 401.5 401.8 399.6 397.4 396.6 396.3 395.7 398.8 401.1 403.3 407 410.7 414.2 418.4 421.8 425 428.5 432 433.3 433.9 434.8 433.9 431.4 428.7 424.3 419.3 412.4 407 401.2 394.4 386.4 378.3 367.2 353.3 326.2 288.9 250.5 236.7 223.4 210.9 201.6 195.8 190.7 189.5 191 191.5 193.6 196 198.1 203.3 205.9 209.6 213.9 215.8 216.9 212.9 204.3 198.2 201.4 212.7 223 231.6 245.6 251 258.9 264.3 267.6 272.5 278.1 286.3 293.7 299.5 305.3 311.7 315.9 317.9 321.2 326.7 334.4 340 348.1 353.6 363.5 372.4 380.9 389.2 397.9 404.7 412.3 419.6 425.9 430.7 438.5 444.1 452.1 459.5 464.5 469.2 473.4 476.5 476.9 480.8 484.9 487.5 487.2 484.8 480.9 475.2 468.5 465.5 458.2 455.7 452.1 448 446.5 444.6 443.1 441 437.9 437.1 438 436.7 435.8 433.3 429.2 424.8 419.7 412.1 403.7 393.3 385.1 375.8 364.4 353.3 337.9 321.6 309 291.4 293.5 291.3 287.3 283.2 277.2 267.7 261.1 263.1 264.9 268.2 284.7 298.8 303.9 301.8 295.5 287.2 276 264.9 250.4 230.6 203.2 200.5 211.6 217.4 218.7 217.5 214.6 211.7 207.8 203.9 197.5 190.4 183.2 178.5 174.7
457.1 436.9 441.3 457.4 472.6 487.4 487.8 456 426.3 396.8 362.4 325.6 297.2 269.9 249.3 235.8 235.6 235.7 241.1 265 292.8 319.3 351.9 376.4 394.6 405.9 410.2 412.2 412.2 409.6 407.4 405.5 404.2 406.9 407.5 408.3 409.5 411.6 414.3 418 420.9 424.3 427.5 430.7 433.9 436.3 437.7 439.2 440.1 438.3 435.8 432.7 428.3 425.5 421.7 419 415.6 409.7 400.8 389 369.1 335.2 301.3 257.2 239 226.3 212.1 201.9 193.9 188.6 185.7 186.5 187.9 189.5 191 194.5 199.4 202.7 206.5 210.1 212.1 212.7 207 201.4 197.1 198.7 215.2 224.2 235 245 247.6 255.4 262 266.4 270 276.2 282.3 288.9 293.4 296.4 300.1 302.5 302.4 306.9 316.2 323 329.1 334.9 343.9 352.1 360.5 369.2 377.9 385.4 393.5 399.6 403.9 412.7 418.6 426.3 432.8 438.5 445.8 451.1 457.1 461.4 465.3 468.1 472.4 476.2 479.8 480.7 480.9 478.9 474.8 470 464.3 460.1 458.4 455.5 453.4 452.4 451 449.1 447 445.8 445.1 445.4 444.6 443.6 441.3 438 434.2 428.9 422.6 414.8 406.5 398.1 389.5 377.2 366.8 356.4 342 328.6 316.7 305.6 296.7 291 283.5 278.7 275.5 267.6 253.9 241.7 250.2 268.3 289.6 300.3 300.1 294.1 285.3 274.9 262.5 248.5 231.9 214 189.7 197.8 204.1 206.5 208.5 208.1 206.2 203.2 199.7 194.3 188.9 181.3 175 170.3
471.8 452.8 453.4 469.5 487 500.5 500.7 471.2 438.9 407.3 377.5 336.8 311.3 278.1 255.5 236.2 233.8 234 237.5 257.5 288.6 316.9 348.5 374.3 394.8 407.7 414.9 419 421.3 419.4 417.7 416.1 414.3 414.9 415.2 415.3 415.9 416.8 418.2 421 423.5 426.9 430.1 433.3 436.6 438.9 440.8 442.1 443.3 442.4 440.3 438.2 435.9 434.3 432.4 431 429 424.8 417.1 404.6 378.6 344 303.9 267.1 243.7 227.2 212 202.6 193.1 185.3 181.5 181.3 185.1 184.8 185.6 191.4 196.5 198.3 203.5 206.3 207.4 206 202 199.9 197.8 198.2 213.4 228.3 236.6 242.2 242.2 248.5 254.9 260.3 265.8 272.4 279.1 282.3 285.2 282.3 284.1 280.5 284.9 286.4 297 306.5 316.4 322.5 330.7 340.2 349.9 359.1 368.1 376.2 384.5 391.7 398 405.7 411.6 418.6 422.9 430.4 435.7 442.4 448.9 455 459.3 464.5 468.4 473.2 476.8 479.3 479.2 479.2 475.8 473.2 470.1 467.9 465.2 462.8 460.5 459.9 458.4 455.8 453.2 452.8 452.8 452.3 451.4 450.2 448 444.6 440.8 436.4 430.8 424.3 417.3 409.6 401.1 392 382.2 371.5 362.7 351.9 340.9 332 324 316.4 310.6 303.4 293.2 278.5 257.6 237.5 237.7 250.4 280.7 295.4 294.9 287.6 280.5 269.8 258.4 245.4 231.6 217.2 197.9 181.5 192.8 196.1 201 201.3 200.4 199.1 196.9 193.5 188.8 182 174 167.5
485.9 468.4 460.9 479.4 496.1 507.8 509.3 483.3 449.4 413.6 382.1 349 317.9 289.3 264.3 241.1 232.5 233.7 236.1 253.6 283.9 314.8 346.7 372.9 393.3 406.6 416.2 423.7 428.8 430 427.6 425.2 423 420.9 420.2 420.7 420.8 420.8 422 423.3 426.4 429.4 432.6 435.8 439.1 441.2 443 443.9 445 444.8 444.6 442.6 440.8 440.1 438.4 438.8 438.6 435.7 429.7 418.4 386.3 350.4 312.9 273.8 244.3 226 212.1 200.7 190.3 183 178.4 178.9 178.7 177.9 181 187.1 192.2 194.6 201.2 205.4 202.5 199.6 200.5 197.5 189.7 199.3 217 229 237.2 240.2 238.5 244.7 249.2 254.1 260 265.7 269.1 272.7 266.2 275.2 285.9 295.5 303.1 308.6 311.2 309.3 312.2 318.6 315.7 323.2 338.7 349.6 358.8 367.8 377.3 385.8 392.6 399.5 405.2 411.4 416 424 429.6 435.4 441.5 449 453.9 460.2 465.7 471.4 476.6 479.9 482.4 481.9 481.2 478.2 476.4 474.6 472.1 469.3 467.2 464.7 463.4 461.9 459.4 458.3 457.6 456.7 455.6 455 453.2 450.1 446.1 441.4 436.1 430.4 424.8 418.6 412.6 404.2 395.8 388.5 382.5 374.5 365 355.7 349.1 341.2 332 319.5 296.8 272.8 252.1 239.1 230.3 243.4 277.6 289.2 287.3 280.6 273.1 262.7 252.9 241.1 229.2 216.5 201.6 187 175.4 187.4 192.1 195.1 195.6 191.9 192 191.7 188.2 181.2 175.1 167.9
498 484.8 476.1 484.7 499.1 509.1 510.4 489.8 456.5 421.1 386.4 357.1 320.4 298.6 268.6 246.9 231.2 231.6 234.5 250.6 280 312 344.3 371.5 389.4 404.8 418.4 431.7 440.6 441 438.1 433.1 429.4 426.8 425.4 424.9 425.2 424.9 424.8 424.9 428 431.6 434.4 437.7 440.4 442.4 444.1 444.6 445.2 444.9 444.5 444 443.7 442.7 441.9 443.2 443.4 442.5 437.2 424.5 390.9 354.9 319.3 277.1 247.2 221.7 209.9 198.9 187.3 179.6 175.7 175.9 174 173.4 174.8 181.8 187.5 191.1 197.5 200.8 195.7 194.6 194.6 192 189.8 201.8 215.4 226.2 233.9 236.4 235.8 239.5 243.6 248.2 251.4 255.7 255.9 270.7 279.5 288.7 299.1 307.4 313.2 317.5 321.5 323.5 329 334.1 336.2 337.5 335 335.2 347 360.3 370.5 379.4 387 393 399.2 403.9 410.9 417.4 426.2 432.7 438.7 446.6 453.1 459.4 465.8 472.3 478.4 483.2 485.8 486.3 485.5 482.9 480 476.5 474.5 472.8 471 469.8 468.2 467.1 465.3 462.5 460.4 459.3 457.9 457.2 455.3 452.3 448.5 444.3 439.7 434.5 428.9 424.4 420 415.1 409.5 404.5 399.2 392.7 385.3 377.4 370 360.7 346.6 322.8 293.7 269 248.8 233.8 226.8 246.3 265.4 274.5 275.2 269.1 262.3 254.3 245.4 235.6 225.3 212.2 201.1 190.6 179.5 170.1 180.8 182 182.8 183.6 182.9 184.3 181.7 177.3 173.4 167.3
506.5 500.5 495.5 491.3 499.8 507.6 509.2 495.4 459.6 424.4 389.5 359.6 325.4 300.1 276.2 249.8 231.1 230.3 230.9 245.2 275.3 306 338.9 365.3 386.1 404.2 421.8 443 462.8 456.4 449.3 442.4 435.8 433.2 430.4 430.1 429.7 427.8 426.3 424.7 426.7 429.9 434 438.3 440.7 442.3 443 443.5 443.8 442.7 442.2 442 442.7 442.8 442.7 443.4 444.5 443.4 438.2 424.8 393.8 357.7 319.5 278.3 245.7 219.6 206 198.1 187.4 180.3 174.5 171.8 169.8 170.8 171.7 177.1 180.1 185.8 189.7 187.8 186.7 182.3 184 185.6 190.2 204.4 216.2 227 231.1 232 233.4 236.8 235.7 246.8 256 267.8 278 287.4 296 303.5 312.4 316.8 321.1 325.7 330.6 334.7 340.8 345.8 348.7 349.4 350.4 350 349.6 352.7 364.3 372.9 380 385.4 385.9 398.6 412.7 422 429.9 437.1 443.3 450.2 454.7 459.6 465.8 472.4 478.4 483.8 486.4 487.9 487.4 484.8 481.3 477.6 475.6 473.7 472.9 472.1 470.5 469.3 468.1 465.2 462.6 460.4 459.2 457.8 455.2 451.7 448.3 444.7 439.3 436.2 432.5 429.1 424.9 421.9 419.1 416.6 412.5 407.2 400.4 393.9 385 373.1 353.7 320.5 293 267.5 247.3 230.9 222.8 235.3 249.7 256.9 256.8 251.9 248.4 242.8 235 226.8 217.2 206.3 198.3 191.5 182.1 172.1 165.5 168.7 168.7 165.7 167.5 173 174.4 173.7 170.1 163.7
512.6 511.5 507.9 504.2 504.3 507.1 508.3 501.1 464.6 426.4 390.1 358.4 332.3 303.7 282.6 252.9 236.5 229.3 228.8 240.3 268.1 298.2 330.2 356.5 379.4 398.9 423.9 457.8 476.7 473.2 463.9 453.9 446 440.4 436.9 435 433.8 430.5 427.8 424.3 421.4 425.3 429.8 434.8 438.1 440.2 440.3 440.6 440.3 439.6 438.6 439 439.4 439.3 439.2 438.4 439.7 439 433.8 422.4 396.2 356 319.6 272.9 241.3 216.4 202.3 192.1 187.3 180.3 173.7 169.2 168.9 166.9 169.1 171.4 174.3 176.9 177.3 178.9 175.1 185.8 189.5 190.7 194.1 208.5 217.7 223.9 228.2 229.2 229.2 235.3 244.1 252.7 268.1 281.6 292.1 299.6 304.7 311.8 318.3 323.7 328.6 333.4 339.5 345.5 350.9 355.5 358.9 360 360.8 361.6 362.2 361.7 357 362.3 371.8 383.2 395.5 405.7 419.4 429.1 437.3 443.3 447.9 452.9 457.5 460.6 465.3 470.6 477.1 481.5 483.3 484.8 484.8 483.7 479.9 475.8 474.7 473.2 471.9 471.6 469.8 467.5 467.8 467.1 464.9 461.3 459.2 455.7 452.2 448.6 445 441.6 438.3 435.2 433.9 431.6 428.6 426 424.6 422.9 420.5 416.3 410.2 403.4 394.3 379.2 354.4 320.8 292.9 271.2 248.6 230.8 219.2 223.8 232.9 240 241.8 238.9 234.3 228.1 219.9 212.9 206.1 199 192.7 187.4 181.1 175.1 164.5 155.9 154.4 150.6 150.8 151.1 157.6 162.7 158.4 152.4
517.9 518 516.9 513.3 510 508.7 506.5 501.2 466.1 427.4 392.2 356.3 334.7 311.1 281 255.6 238.2 228.3 227.7 237.4 263.8 291.2 318.3 345.6 369.6 394.3 422.3 456.3 476.9 478.8 472.5 463 454.5 448.1 444.1 440.3 437.4 433.4 428.9 423.1 414.5 419.4 424.9 428.7 431.9 434.9 436.5 436.4 435.4 433.8 433.8 434.3 435.1 434.9 434.1 432.7 433.1 432 426.9 416.1 392 351.4 310.8 265.2 234.9 211.8 193.9 186.8 186.2 177.8 168.8 166.2 166.1 165.2 167.6 169.6 172.3 174.2 173.2 172.7 173.4 185.3 187.8 189.6 197.1 209.7 219.7 222.9 223.6 222.8 232.8 240.6 251.2 261.9 278.1 291.2 300.6 308.2 312.3 317.9 324.1 330 333.6 339.1 345.9 352.8 359 364.2 367.8 370.1 372.4 373.1 372.6 372.6 374.2 379.3 386.8 397.1 405.5 416.3 428.3 437.7 445.1 450.3 454.3 456.7 459.7 461.5 463.9 468.7 473 476.5 477.9 479.4 479.8 478 474.4 470.7 469.9 468.4 467.2 466.6 465.2 463.3 465.5 467 465.5 462.2 456.6 452.3 448.3 444 440.7 438 434.1 432.6 431 429.7 427.7 425.3 423.5 422.6 421.1 419 412.6 407.2 397.1 381.3 359.4 325.9 299.5 276.7 255.1 235.8 222.1 213.9 213 223.9 224 222 220.1 213.3 206 199.2 193.8 188.5 182.8 174.2 168.9 165.9 164.3 171.2 173.3 169.5 163.6 147.5 141.7 139.2 135.2 132.8
524.3 526.6 525.7 522 516.2 513 508.9 499.7 462.9 422.9 388.9 357.8 333.7 309 280.6 258.2 243.6 233 227 231.9 257 284 307.8 335.7 358.8 386.8 416.8 449.5 473.4 480.6 476.6 468.4 460.6 454.8 450.9 445.2 439.4 434.6 429 423.1 410 407.4 415.1 420.7 424.1 427.4 428.3 428.6 428 427.7 428.3 428.9 430.1 430.1 428.8 427.4 426.5 424.4 419.3 409.6 381 342.5 300.7 257.1 228.5 207.8 189.3 178 178.9 173.1 164.7 164 163.4 166.3 168 170.2 173.5 169.5 170.3 176.3 181.3 178.7 182.9 188.3 196.3 206.7 207.3 210.3 219.7 230.5 237.5 248.7 258.5 272.1 287.7 299.2 308.4 315 318.2 323.2 329.4 334.7 338.1 345.2 353.4 360.3 366.6 371.9 375.6 379.2 381.6 383.2 383.6 383.5 385.8 390.8 398.9 408.4 418 430.5 439.4 446.2 451.8 456.2 458.7 461.1 462.8 462.9 461.9 464.7 468.4 471.2 472.6 474.2 472.3 469.4 465.8 463.2 461.3 459 457.9 457.5 457 457.9 460.9 463 462.1 459.3 454.5 448.8 443.7 438.8 435.2 431 428.4 425.7 423.6 422.5 420.9 419.5 417.8 417 415.5 412.8 409.1 403.5 393.6 379.3 361.7 332.9 305.3 282.6 262.5 244.2 228 216.8 209.8 205.4 209.9 207.7 205.1 199.8 195.6 190.2 183.5 178 177.1 178.9 182.1 185.6 192.2 198.5 197.5 193.2 184.6 174.2 164.4 157.7 153.7 149.6
530.5 533.6 532.1 527.9 522 518.7 514 498.5 464.7 422.8 389.6 358.9 332.2 306.6 282.5 262.8 246.6 231.7 225.2 230.1 248.1 274.2 298 324.6 348.8 378.1 408.1 441.1 467.9 478.5 478 470.9 463.9 459.3 455.8 450 443.1 436 429.5 423.5 411.4 394.6 405.1 412.7 417.1 419 419.6 420.2 420.1 420.3 421 422 424 424.6 423.2 421.8 420.1 417.6 412.7 403.1 372.2 329.2 287.3 248.1 222.6 204.3 184.2 176.7 172.6 170.7 165.1 160.7 161.8 166.8 165.9 174.5 172.9 167.9 172.1 181 184.4 188.4 189.6 191 196.8 203.4 207.6 218.5 224.6 232.5 242 253.9 263.7 280.4 294.6 305.4 314.4 319.7 323.1 327.9 334.5 338.7 344.6 353.6 360.4 367.9 373.8 378.8 383 386.5 389.7 391.8 393.9 395.4 396.8 401.4 409.3 422.4 431.8 440.7 447.6 453.1 457.8 460.7 462.8 463.2 463.8 461.3 459.3 460.7 462.6 465.5 467.3 467.5 466.1 463 457.8 454.3 450.9 448.4 446.8 447.7 448.4 450.6 454.6 456.9 457.2 454.8 450.4 443.7 438.2 433.8 427.7 423.2 419.1 416 413.3 410.3 408.5 407.5 407.7 407.1 406.2 403.9 399.5 393.3 384.7 372.9 359.6 340.5 314.3 293 273.9 258.2 243.2 229.1 219.3 212 205 199.1 198.5 198 199.2 197 198.9 200.1 199.6 204.2 208.3 213.6 219.4 222.4 220 216.2 209.2 200.8 188.7 180.6 173.4 174.9
533.4 535.5 533.6 529.2 524.6 521 517.1 501.8 470.5 434.6 401.6 367.9 336.9 309.6 282.9 260.2 246.8 232.1 224.5 227.7 244.1 265.8 289.3 313.6 338.8 367.9 397 430.9 457.6 472.4 474.2 470.4 464.2 460.2 457.8 454 447.2 440 431.7 425.6 414.4 399.3 392.1 402.6 409.4 411.5 413.2 413.1 412.7 412.1 412.9 415.1 417.4 418.6 417.3 415.6 413.3 410.8 406 394.3 355.5 313.9 275 243.6 217.9 199.1 183 175.2 168.1 168.8 163.7 159.4 161 159.6 166.9 169.6 169 165 176.6 183.3 185.3 188.8 192.3 194.3 197.9 208.1 215.9 220.8 223.8 235.3 246.5 257.5 270 287.1 299.8 310.4 318 323.1 326.2 332.1 338.7 346.5 353.6 360.9 367.8 373.5 379.8 385.2 389.4 393.5 397 399.3 401.7 404.8 407.5 414.7 424 434.2 442.6 449.1 454.3 458.6 461.8 464.1 465.6 465 462.6 459.7 455.4 456.9 458 459.6 460.7 461.2 459.8 456.7 451 444.3 438.6 436 435.7 437.4 439.1 442.9 446.7 450.3 450.6 448.7 445.8 440.2 434.3 427.6 420.6 415.2 411 406 402.2 398.3 395.3 393.6 393.6 393.4 392.1 390.2 386.7 382.1 374.6 366.1 356.2 343.7 325.7 307 290.5 274.6 260.1 248.4 241.9 238.2 233.1 229.4 226.1 227.3 227.3 226.9 227.7 227.8 228.7 232.2 236.2 239.4 242.8 241.6 238.7 235.5 229.9 222.1 212 204.2 198.5 199.5
533.7 534.3 531.4 527.4 523.8 521.5 518.2 508.6 482.4 451.7 418.2 383.7 348.1 317.7 287.5 260.8 247.9 234.2 223.2 226 239 258.2 280.8 303.1 328.2 354.7 383.9 416.1 443.9 462.7 467.6 466.1 460.7 458.6 457.6 456 451 444.3 434 426 417.2 400.3 378.8 391.1 400.2 403.2 405.1 405.6 405.1 404.8 406.6 408.3 411.1 412.6 411.4 408.7 405.6 403.7 398.2 385 347.4 310.6 268.6 237.8 213.7 194 177.8 169.4 162.8 159.5 159.1 158.4 156.3 157.7 160.2 165.7 163.4 163.2 179.8 184.5 187.4 190.1 193.9 199.2 207.8 207.6 216.1 223 226 235.7 249.2 260.1 275.4 292 303.2 312.7 319.9 324.7 328.9 334.9 344.9 353.5 361.5 368 374.1 379.6 385.7 390.5 396.5 400.7 404 406.3 408.6 413.1 418 428.4 437.1 443 448.9 454.7 458.5 461.8 463.8 464.8 464.4 462.5 459.7 455.4 451.8 453 454.2 454.7 455.5 454.6 452.5 449.8 444.3 435.2 426.8 423 423.5 426.9 429.5 433.8 438.3 441.1 442.1 441.8 439 434.1 427.6 420.1 412.8 407.3 402.4 396.7 392.3 387.3 384.1 379.9 379.1 377.4 377.1 375.7 374.6 372.2 366.8 362.5 355 344.7 332.1 318.8 307.2 292.5 277.4 267.6 264.9 263.3 260.9 257 252.3 250.2 250.4 249 248.6 250.8 252.9 256.9 258.8 258.4 257.4 255.1 252.3 249.6 244.6 238.6 232.4 225.1 219.9 218.7
532.3 530.4 527.5 524.5 519.1 517.1 516.6 513.2 498.8 470.8 437.6 401.8 362 326.9 294.5 267.4 247.7 236.1 222 224 234.7 251.1 273.1 295.3 316.9 340.8 368.5 398 428.8 450 458.2 458.7 456.4 454.8 454.4 452.5 448.8 444 432.7 423.1 406.6 392.2 382 371.8 386.3 393.6 396.6 397.6 397.5 397.9 400.4 401.9 404.2 406 404.9 402.3 398.2 396 390.3 374.5 335.1 300.4 264.4 228.2 203.2 185.1 172.6 166 157.5 156.7 157.6 157.6 154.5 157 157.6 160.4 162.5 178.2 184.6 185.8 189.6 192.5 196.5 204 212.4 218.6 220.3 224.8 230 237.4 251.3 264.2 281.7 295.7 305.3 313.4 319.9 324.9 330.2 336.7 348 358.3 366.2 373.2 378.9 385 390.7 396.8 402.2 406.4 409 411.5 416.1 421.9 430.9 439.4 446.5 450.8 455 459 461.3 462.2 462.8 461.9 459.6 457.9 455.1 451.5 447.2 447.4 450.4 450.8 451.4 449.6 446.9 442.9 437.3 425.6 417 414 413.3 415.8 420.4 425.6 428.5 431.5 432.2 432.3 431.3 426.9 420 412.5 405.1 397.8 393 388.3 383.4 377.4 370.6 364.2 364 364.3 364.8 364.6 363.8 362.8 361 358.2 352 343.8 334.3 324.4 313.9 302.8 294.1 286.3 284 283.3 281.7 278.1 273.6 267.4 263.9 261.5 260.8 261.9 263 264.7 264.8 264.7 264.3 262.9 262.2 259.8 255.3 250 245.2 239.1 234.3 230
529.7 526 521.5 515.9 509.3 508.8 510.8 512.3 505.2 486.3 454.1 415.3 371.1 334.2 300.7 269.4 250.1 236.3 229.7 219 228.4 246.5 265 284.8 305.3 329.3 354.4 381.9 410.9 435.8 446.9 446.9 446.7 446.8 446.8 445.5 441.4 435.4 419.1 400.1 386.3 378.6 373.4 363.2 372.6 383 386.9 389.1 390.4 391.5 393.8 395.6 397.7 399.9 398.8 395.4 391.1 387.9 380.5 357.5 319.1 285.8 253 222.7 201.5 186.8 174.6 166.5 160.2 155.7 155.3 153.1 154.9 157.2 159.1 161.1 170.3 184.6 188.8 190.8 194.8 198.6 202.9 209.2 217.6 224.4 228.5 230.4 233.5 240.7 254.4 268 284.9 296.6 306.7 313.9 318.5 323.5 328.9 337.1 347.9 358.6 367.5 375.1 382 387.9 394.1 400.2 405.7 409.8 412.7 415.9 422.2 430.2 438.8 446.8 452.7 457.2 460 460.5 461.7 461.5 459.9 458 453.9 451.3 448 444.7 443 443.3 446 447.5 448.3 446.6 442.9 437.4 430.1 420.1 409.4 405.7 405.2 407.3 410.2 416.2 420 421.3 423.8 423.7 421.7 418.9 412.8 405.3 397.7 389.1 383.6 378.5 372.4 363.7 356.7 350.9 352.3 354.3 354.8 354.8 353.7 353.1 351.7 350.1 346.4 340.7 333.3 322.8 314.7 306.2 299.7 296.5 294.1 293.8 291.9 288.9 284.1 277.7 272.3 265.7 261.7 261.3 260.4 259.8 260.7 261.2 262 265.1 266.3 265.5 261.7 257.8 253.7 248.4 243 239
524 518.5 510.5 499 489.9 494 502 506.2 505.9 495.5 464 432.6 391.3 338.5 304.8 274.9 252 238.8 228.5 218.2 218.9 241.5 257.5 275.4 295.5 318.7 341.2 369.6 398 425.7 436.5 435.1 427 427.6 429.8 428.1 418.9 405.7 392.5 373.9 367.9 364.7 360.6 357.4 356.8 372.2 378.1 380.7 383.7 384.7 386.2 388.4 391.3 393.4 392.3 388.7 384.3 378.5 368.6 343.4 305.7 273.7 241.3 216.1 199.2 186.7 177 168.5 162.3 155.2 153.9 151.6 153.3 160.4 161.9 165.8 175.2 186.2 194.4 199.7 203.7 207.8 210.6 216.2 224.6 231 235.1 237.5 230.8 242.9 256.9 268.4 283.6 294.9 306.1 311.7 317.3 321.3 325.9 335.5 345.2 355.1 363.9 372.9 381.8 388.5 395 400.8 407.1 412 416 420.3 427.4 435.8 444.3 452.1 457.6 460.8 463 462.6 461.3 458.8 455.4 453.1 449 444.6 440.7 436.8 436.5 439 441.9 443.7 444 442.4 439.2 433.3 425.3 416.5 406.1 401 395.6 397.4 400.8 406.4 411.9 414.3 414.9 415.1 415.1 411.4 405.6 399.9 393.1 385.3 374.5 366 358.8 349.8 342.4 337.2 338.5 341.2 340.6 340.6 339.6 340.3 339.7 338.8 337.4 334.3 327.4 319.1 312.5 305.7 302.2 301.4 300.5 297.8 295.2 291.1 285.9 279.9 273.5 265.7 258.5 252.9 252.9 252.3 252.3 251.6 252 257.9 262.7 265.1 264.2 261.7 258.3 253.4 248.2 243.6
516.6 509.4 494.7 477.4 469.3 480.2 491.1 497.5 501 497.3 473.5 442.9 402.9 344.6 308.4 279.8 257 239.2 227.7 219.3 216.7 235.1 251 266.7 286.2 307.8 333 358 385.3 409.3 423.5 409.8 395.1 397.2 397.9 393.6 387.7 375.3 362.4 353.9 353.2 351.5 347 346.2 348 361.9 369.3 372.3 376.5 377.2 378.6 381.8 384.3 385.7 384.1 381.1 376 367.5 356.7 328.4 291.2 257.8 229.9 208.5 197.9 187.1 175.3 166.8 162 157 151.2 152.2 156.5 158.4 162.6 167.7 177.6 190.2 196.2 208.6 213.5 218.5 222.1 230.1 236.3 242.1 244.6 247.7 245.8 244.7 256.2 269.1 282 294.8 303.4 308.8 314 318.3 323 330.9 340.4 351.3 360.5 369.5 378.2 386.7 393.6 400.6 406.6 413.1 417.3 423.7 431.6 439.8 447.3 455.3 460.2 463.4 464.3 462.8 459.6 455.2 450.3 445.4 440.3 436.9 433 429.4 428.7 433.1 436.7 439.3 439.8 438.4 435.8 431.4 424.5 417 405 399.7 392.7 388.5 393.2 398.4 404.6 407.5 409.8 409.8 409.8 406.7 401.8 396.6 389.3 381.3 370.4 358.1 343.4 330.4 327.4 322.9 323.5 326.4 325.6 325.7 325.5 325.4 326.2 325.9 327.2 325.6 320.8 314.8 308.9 303 300.3 299.7 298.4 296.3 292.7 288.7 283 277.2 270.1 261.2 252.6 243.4 239.4 239.7 240 240 240.2 246.3 253.9 260.3 262.2 261.9 258.4 254.4 249.4 244.1
507 494.6 478.3 462.6 454.6 469.1 480.2 487.1 490.3 493 481.9 453.7 415.5 354.5 315.1 287.3 262 240.4 228.4 221.3 215.4 227.8 244.7 259.9 278 297.9 321.9 346.3 371.1 386.7 391 380.3 369.9 367.1 361.3 358.1 353.2 344.1 338.5 336 337.6 336.8 334.6 335.1 342.2 351 360 364.2 368.8 370.3 371 374.4 376.8 377.6 376.3 373.4 366.4 357.7 344.8 311.5 272.7 244.4 222.3 204.5 195.1 185.3 174.2 161.4 157.8 153.3 150.3 150.4 152.6 158.2 163.2 170.9 183.3 195.4 205.5 217.6 222.8 229.2 237.7 243.1 249.3 252.9 256.1 257.6 254.3 242.3 255.5 267.8 278.7 290.9 298.2 306.2 310.6 314.6 320.3 326.6 334.9 345.8 355.2 364.2 374.6 383.4 390.9 398.1 404.8 411.9 419.3 426.6 434 441.9 449.2 456.4 461.4 463.4 462.8 460.2 456 449.1 442.4 436.7 431.5 428.1 424 421.7 423.6 428.6 431.8 434.1 434.7 434.2 432.4 429.5 423.7 417.1 408.2 399.7 392.2 376.1 386.9 390.5 396.3 400.9 404.9 407.1 407.5 406.2 402.3 397.8 390.9 381 371 357.3 344.1 324.8 304.8 307.1 306.7 309.4 307.6 307.8 308.6 309.2 310.7 312.8 315 316.5 313.8 310.3 304.3 298.9 295.5 293.7 292 290.6 286.7 283 277.6 271.3 262.5 251.9 243.9 235.8 227.8 224 223.8 224.2 225.5 231.6 242.6 251.7 256.6 257 254.2 249.8 245.6 240.3
504.8 479.2 459.1 449 443.2 456.4 468.2 475.7 481.1 485.7 480.6 463.1 428 384.3 323.6 291.5 268.3 243.5 228.4 221.7 213.7 221.7 233.8 252.6 269.4 288.7 310.2 332.2 355.2 370.4 371.1 354.2 341.8 324.5 320.9 320 319 320.9 319 318.8 320.5 321.5 323.4 328.9 335.3 339.7 348.2 355.7 358.9 361.1 362.9 366 367.6 368.6 367.8 364.2 359.1 349.7 332.8 302.4 260.8 232.5 217.1 199.1 192.2 183.4 170.9 158.6 152.9 149.3 149.2 150 155.6 159.9 165.1 173.2 185.8 199 212.7 224.7 235.3 243.1 249.1 254 260.1 264.1 266.5 268.8 266.2 260.7 251.2 265 277.4 287.6 295.6 303.7 308.2 311.9 316.6 321 329.1 338 348.7 358.3 368.4 378.8 387 393.8 401.8 409.8 418.6 426.8 435 442.3 450 454.9 458.3 459.5 457.3 454 447.9 438.3 430.6 423.7 420.9 418.1 413.6 411.6 417.9 423.2 426.4 427.6 428.8 428.9 428.1 425.7 421.7 416.5 408.3 399.9 392.5 382.5 374.1 384.2 390.4 396.3 402.2 404.9 407.3 407.2 405.8 400.7 393.8 385 375 363.6 349.8 333.5 313.8 293.8 287.9 292.8 292 291.8 291.1 291.7 294.8 300.4 303.6 306.4 307.2 304.6 299.5 293.8 288.8 286.7 283.8 281.4 278.5 274.5 270.1 262.5 254.1 244 233.3 223.1 214.1 209.1 207.5 208.1 212.4 219.9 231.2 242.2 247.8 247.4 245.7 242.9 238 231.8
503.3 473.6 450.1 433 430.5 441.3 453 463.6 470 475.1 474.1 463.5 435.8 390.3 329.9 295.6 271.8 246.7 230.3 219.9 213 218.3 228.7 245.4 259.6 276.7 295.6 311.9 327.8 335.5 336.9 319.7 304.7 297.8 296.4 298.6 300.7 302.6 304.5 305.5 308.4 312.3 315.1 319.3 324.1 330.5 339.7 343.9 345.9 350.2 354.4 357.3 359.7 360.7 360.1 356 350.6 339.4 322.1 291.6 253.2 223 205.2 191.7 188.8 180.6 170.5 159.4 152.7 147.8 149.1 149.7 154.9 157.4 165 173.4 188.9 205.6 220 234.1 245.6 253 258.7 263.8 268.6 273.9 278.1 279.4 275.9 272.7 266.9 260 277.2 288.4 295.1 302 307.7 310.6 313.5 318.3 325.9 333.4 342.7 353.4 364.6 374.4 381.9 389.1 397.1 406.9 417.3 425.7 432.6 439.5 445.9 450 451.9 452.1 449.9 444.7 435.4 426.2 418.5 411.9 407.9 403.4 401.9 396.1 410.9 416.3 419.1 420.4 420.8 421.7 421.2 419 416.5 412.1 405.3 396.8 390.1 381.9 357.2 377 386 393.7 400.7 404.2 407.3 409.9 407.6 404.1 397.3 388.1 378.1 365.9 351.9 336 317.1 300 282.2 275.6 277.6 275.9 276.3 277.2 280.4 286.7 292 297 300.1 299.3 294.5 288.7 283.3 280.4 276.7 273.2 267.5 263.8 259.7 253.2 245.8 235.5 220.4 211.9 203.7 196.5 193.3 195.6 201.7 211.2 222.1 232.6 237 236.5 234.4 230.2 224.7 217.5
499.4 469.1 442.8 427.1 418.7 425.7 436.7 447.8 457.2 462.9 462.5 458.2 434.5 397.5 344.8 301.9 275.5 250.1 230.9 219.3 212.3 211.3 222.4 237.8 253.6 264.7 279.6 296 303.1 304.4 299.6 290.6 285.5 282 279.5 281.5 286.7 290 293.6 296.6 299.6 304.4 309.1 312.8 316.9 321.3 327.1 331.8 334.8 338.9 342.7 346.8 351.5 353.4 352.1 348.8 341.5 330.4 307.3 275.8 246 219.3 204.1 187.3 184 177.8 169.5 158.4 154.2 150.3 148.1 151.7 154.7 157 165 176 188.5 204.2 221.9 242.6 253.1 260.9 264.1 269.2 274.7 280.1 285 286.6 283.8 281.8 279.1 268.4 279 287.5 294.9 302 306.8 309.1 312.6 316.9 326.5 331.4 340.2 348.5 360.8 369.6 377.7 384.6 393.6 402.9 411.7 419.7 426.2 431 436.3 439.6 443 441.8 437.8 430.4 424.3 416.9 408.3 400.1 394.9 391.4 389.4 391.7 401.7 407 409 408.9 410.9 411.2 410.9 409.8 406.8 403.9 399.1 391.4 384.7 377.1 350.7 368.9 382.3 392.4 399.9 405.9 410.3 412 411.4 407.1 400.3 391.4 379.7 366.7 352.2 336.3 318.7 301.7 285.4 269.5 265.4 264.9 265.6 265.1 267.9 274.2 281.2 288.1 292.7 293.6 290.4 284.3 278.3 273.6 269.9 265.4 257.9 252.7 246 240.1 233.5 222.8 208.5 201.4 194.6 188.4 181.7 184.9 192.8 202.3 214 222.2 225.2 223.2 219.8 213.8 206.8 198.7
494.8 465.8 440 425.2 402.7 411.6 420.4 429.6 441.5 449.3 452 450.8 441.4 403.1 360.8 310.7 277.3 252.5 231.1 218.9 213.1 209.6 219.2 229.6 242.1 253.4 263.2 274.5 278.4 275.7 273.8 270.5 270.2 269.5 267.9 267.7 274.4 279.8 285.1 289.1 292.9 296.9 302.7 308.2 311.8 313.9 316.7 320.5 325.7 328.3 334.1 339.6 343.3 345.5 344.8 341.2 332.3 319.4 289.5 265.5 244 218 201.6 185.4 180.9 175.6 165.2 157.7 155.6 151.3 150.4 152.1 152.1 156 165.9 177.7 191.6 208.3 225.9 244.3 257.3 263.7 266.4 271.5 277.3 282.7 288 290.6 289 288.2 287.9 279.3 281.1 287.4 293.4 299.1 302.3 306.4 310.8 314.3 324.9 329.7 336 344.3 355.1 363.9 373.9 381.4 389.1 398.1 406 412.6 419.2 424.4 429.9 432.6 433 430.2 426.5 419.2 413.2 405.7 396.4 390 384.2 380.9 375.8 381.3 389.2 393.2 395.6 398 398 398.7 398.3 397.9 394.8 392.3 388.5 381.6 371.5 364.6 345.7 361.4 379.1 391.8 400.3 408.2 413.3 415.5 414 409.5 402.6 393.3 381.5 368.2 352.7 337.6 321.9 305.2 288.2 275.8 264.3 253.4 255.7 255.9 257.3 263.4 271 277.8 284.6 288.3 286.7 281 275 269.7 265.2 259.2 252.4 245.3 237.6 228.2 218.1 208.2 198.7 191.7 186.2 182 173.2 174.3 184 194.7 205 211.3 214 212 206.9 198.1 188.8 177.3
488.6 465 443.2 423.8 399.4 396.9 403.6 413.7 427.1 435.3 440 442 441.2 417.4 365.1 319.4 284.6 257.3 232.3 222.7 213.4 208.9 214 221.3 231.9 240.2 247.7 251.3 250.5 252.6 254.9 256.6 257.5 258.1 259.2 260.6 265.1 271.7 277.7 282.4 287.9 292.1 296.6 303.2 304.9 307.2 309.8 311.6 313.9 318.3 325.6 330.5 335.2 337.6 336.4 331.4 323 308.8 281.9 262.9 240.7 214.8 199.3 185.6 180.6 173.4 161.4 158 155.7 152.1 141.7 149.7 149.2 155.6 166.5 179.2 194.4 208.6 229.8 242.6 257.1 263.3 265.9 271.3 278 283.3 287.8 290.5 290.2 291.9 292.4 287.7 281.3 286.6 293.1 298.7 299.6 303.5 306.8 311.3 320 326.4 332.9 341.4 351.5 360.6 370.4 379.4 387 395.3 403.4 410.1 416 420.1 423.9 425.1 422.9 419.8 414.7 409.3 401.6 393.6 386.6 380.2 375.9 370.4 363.8 368.1 374.1 377.5 381.9 383.9 384.4 384.3 384.4 383 381.6 379.1 373.4 359.9 352.9 348.5 335.2 352.5 376.7 390.8 402.1 410.7 415.4 417.2 415.4 410.2 403.1 393.6 382.5 369.3 354.4 340.2 325.9 309.4 296.2 281.1 270.6 257.7 242.7 242.4 244.5 248.6 257.6 267.3 276.3 281.6 282.5 278.6 272.5 265.6 260.5 253.6 245.7 237.9 228.7 219.4 210.4 201.5 191.6 184.6 178.8 175.9 168.8 162.7 174.3 183.9 193.9 199.7 200.4 197.5 191.3 182.5 169.8 155.4
480.9 463 443 422 395.2 382.6 385.8 397.9 411.8 421.5 427.7 430.3 429.7 422.9 378 320.1 284.5 262.3 236.8 223.2 214.1 206.5 210.9 214.8 224.1 231.6 235.5 235.4 237.2 239.6 243 246.8 250.3 250.4 251.5 253.9 258.4 264.1 270.7 276.6 282.1 287.1 291.7 296.7 298.4 300.7 303.6 305.6 307.8 309.5 317.1 325.9 330.1 331 327.7 321.8 312.9 301.1 278 265.3 239.2 217.6 198.3 184 179.6 170.3 162.3 158.6 154.9 152.2 147.2 139.8 145.9 153.2 165.6 179.3 194.2 207.6 226.8 240.9 251.2 258 263.8 269 276.1 281.4 286.1 287.9 290.6 293.8 295 294.1 290.3 283.6 290.6 294.4 297.5 299.9 302.3 308.7 317.3 325 331.2 339.9 349.1 358.5 368.2 378.1 386.6 395 401.8 408.4 412.5 414.7 416.4 416.9 414.6 409 403.2 397.7 390.9 383.9 377 371.4 366.3 358.1 342.3 356.8 363.3 365.3 368.4 370 370.4 371.1 372.1 371 368.1 364.5 356 337.4 322.7 317.5 316 348.6 375.3 392.5 405 412.6 416.3 417 414.7 409.8 402.9 393.4 382.3 369.3 355.5 341.6 327.9 313.7 302.4 289.9 277.2 266.9 258.2 248.4 240.4 228.1 241.7 255.2 267.5 275.4 278.3 275.8 269.2 262 255.6 247.5 239 230.5 221.7 211.9 203.7 193.2 183.6 173.8 167.9 167.2 161.6 144.1 161.9 169.7 180.3 184.7 185.4 184.2 178 162.9 151.1 138.8
471.5 456.1 442.2 419.6 391.2 369.3 370.8 380.2 395 406.4 414.5 418 419.4 415.9 386.8 320.5 286.1 267.2 243.7 223.6 214.1 206.1 205.2 211.2 216.6 221.2 225.6 226.8 229.1 233.5 238.4 241.7 245 246.3 246.6 248.7 253 259.3 266.1 271.9 276.8 281.7 286.3 290.1 291.8 293.2 296.1 299.8 303 305.7 310.8 317.9 320.6 321.7 318.2 311.7 302.1 290.7 276.9 259.7 240.8 222.1 195.2 187.5 179 169.3 162.2 159.4 153 150 144.3 132.1 143.1 151 162.8 176.4 191.5 205.2 220.8 237.2 249.4 253.2 256.5 261.8 269.2 275.8 281.6 287.9 292.9 296.9 298.7 298.6 295.1 292.8 293.4 294.2 295.3 296.4 301.9 308.9 317.6 324.4 332.8 340.8 349.9 357.9 369 377.8 386.4 393.4 400.3 405.6 409.6 411 410.4 409.6 406.7 402 395.4 386.8 377.6 370.3 365.5 360.6 355.4 344.7 330.9 345.7 351.5 352.8 354.2 355.5 358.6 358.3 359.2 357.3 352.4 342.9 323.5 309.4 300.3 293.6 320.2 351.4 376.8 394.5 405.8 412 415 414.5 411.4 406.8 399.9 391.5 381.1 368.2 356.1 341 328.7 317 308.1 298.2 287.1 276.6 268.5 258.7 247.2 237.1 226.2 240 256.2 267.7 273.7 274 268.8 260.4 251.6 243.7 234.7 225.1 214.3 204.5 195.6 186.8 176.2 166.9 161.2 157.8 152.7 142.6 148 156.7 163.9 167.3 167.9 166.5 158.2 146.4 132.2 118.7
458.8 443.7 429.7 413.2 392.8 366.1 355.3 362 376.2 390.8 398.7 403.2 405.5 402.5 382.4 319.6 286.7 267 249.9 225.4 215.9 210.1 204.2 203.6 209.7 214.7 218.7 220.8 223.7 228.5 234.2 238 241.1 243.1 243.7 245.1 248.3 254.2 259.1 265.6 271.2 276.1 280.3 282.5 284.6 287.7 291.6 295.6 298.7 300.2 304.5 310 312.5 310.8 307.5 299.4 289.5 277.9 271.2 255.7 238.4 223.7 201.8 185.9 177.3 165.5 158.3 157.5 148.8 150.3 140.8 127.7 140.7 149.7 158.7 172.5 186 200.4 213.9 228.4 237.9 244.7 250.7 256.8 264.9 274.8 285.6 293.6 299.1 303.4 304.3 306.4 303.8 299.6 301.2 301.7 301.4 299.6 302.1 309.6 319.1 326.7 333.7 341.7 349.3 357.3 367.7 376.9 385.2 392.4 398.4 402.8 405.4 406.6 405.2 402.8 399.8 394.4 385.9 377.2 368.4 361.4 355.2 349.1 342.8 332.4 318.2 332.7 337 338.5 338.3 340.6 341.9 344.7 345.4 344.3 336.3 313.2 293.9 286 281.1 305.3 331.7 358.9 380.4 395 404.2 409 411.2 410.3 407.2 401.5 394.8 387.1 377.5 366.6 353.3 340.9 328.4 320.7 313.3 303.4 295 286 276 265 253.2 241 218.2 228.8 245.5 260.8 268 270.8 267.5 261 251.3 241.6 232.3 221.7 211 200.4 188.9 181.1 171.4 160.1 154.5 147.8 144 135.6 134.3 143.9 147.5 149.4 148.7 147.1 138.4 127.7 115.8 98.5
443.8 428.7 414.7 407.3 395.1 363.4 348.5 345.9 357.3 372.4 382.2 385.7 387 377.9 354.6 316.7 285.4 266.9 253.4 229.3 216.6 212.7 208.1 201.5 204.4 210.3 213.7 217 218.9 223.4 229.5 234.2 237.2 239.7 240.7 241.4 244.7 249.1 254.5 259.9 264.5 269.1 274.2 276.8 279.9 283.4 287.1 290.1 293.2 296.3 301.1 304.2 303.7 300.6 292.1 284.5 277.9 266.8 258.1 249.7 235.9 225 201.5 184 178.1 166.2 155.7 152.3 145.3 144.2 136.3 123.5 138 146.2 158 168.5 182.6 193.8 205.4 220.5 228.5 236.8 248.6 258.6 267 277.1 288 295.4 302.3 306.6 308.5 310.8 310 307.6 310 308.9 307.2 305.3 307.6 312.4 318.3 328 335.1 342.1 348.4 357.8 365.9 375.4 383.1 389.3 394.4 397.5 399.7 398.5 396.5 394 390.8 385.3 377.6 369.5 358 350.3 342.7 337.6 330.3 320 302 319 322.9 323.2 324.8 327 328.9 330.2 331.7 327.5 314.2 286.7 272.9 268.8 290.3 312.4 336.8 362.9 380.8 392.1 399.6 403.7 405.8 404.4 400 394.3 387.6 380 371.1 361.2 349.6 338 327.5 320.5 314.7 306.8 299 290 279.4 267.5 255.2 241.4 223.8 217.6 235.3 252.9 262.3 266.8 265.5 259.9 250.2 239.2 229 222.5 213.1 202.1 190.8 175.4 159.4 153.2 144.5 133.9 133.4 125 113.4 127.1 129 134 131.1 126.7 118.4 106.8 96.6 83.7
429.5 418.7 406.3 399.7 388.7 361.7 344.4 334.4 339.7 354.1 363.6 367.9 366.8 361.1 333.9 303.6 280.6 266.4 252.9 232.2 219.4 214.4 207.4 200.8 200.9 204.9 207.7 211.1 215 218.7 224.1 228.6 232 234.8 236.3 237.7 241.3 244.4 249.1 254.4 258.6 263.1 267.5 272 275.7 279.3 283.5 286.2 289.1 292 296.7 299.5 297.4 292 287.2 275.2 266.3 257.6 247 237.2 227.3 218.9 204.8 188.3 174.7 169.2 156.3 150.6 148.2 141.1 133.9 125 134.7 143.8 153.5 164.5 178.1 189.8 202.1 213 227.4 239.4 251 260.2 269.8 278.4 289.7 297.7 304.7 310.2 313.1 314.4 315.2 314.1 315.9 314.9 313.1 311.2 314.3 317.1 321.3 327.9 335.5 342.2 348.2 354.6 363 371.6 378.9 384.2 388.9 390.4 392.6 391 388.6 386.3 381.5 375.8 365.5 357.5 348.9 337.3 325.8 320.6 316.1 307.8 295.2 306.8 311.4 312.5 311.6 312.7 314.7 316 319.5 315 297.8 267.3 251.4 271.1 291.7 311.6 332.2 357.5 374.2 385.1 392.7 397.6 399.1 397.2 392.8 386.8 379.4 371.2 363.8 354.1 344.5 334.5 324.6 317.4 312.4 306.8 299.7 291.2 280.3 268.8 256.9 241.3 223.4 205.2 227.2 242.8 253.2 260.2 261.2 256.5 247.1 236.5 227.7 221.2 213.4 203.5 194.5 183.2 171.4 157.2 149.5 139.2 126.3 104.7 110.7 112.2 115.2 115.5 114.3 106.8 98 87.2 79.7 70.2
422.1 409.6 398.6 392.7 382.5 365.4 346.3 335.5 322.2 335.8 346 350.6 346.6 335.1 318.3 294 277.8 263.6 252.1 238.7 224.1 215.9 210.1 199.9 199.5 200.2 201.5 206.4 212.2 215.2 217.8 222.5 226.1 228.9 231 234.2 238 240.1 245.1 250.1 254.7 259.1 263.5 266.9 271.9 276.1 280.2 282.7 285.4 288.4 290 291.8 289.5 284.9 278.4 268.7 256.6 247.5 236.9 224.1 221.8 213.7 202.5 190.6 175.7 168.8 156.8 151.5 149 142.9 133.2 124.5 129.6 137.5 147 158 172.5 185.5 197.4 211.6 225.9 241.5 252.4 263.7 273.6 282.5 292.3 301.1 308.8 314.1 317 316.7 318.2 319.8 321.1 320.9 319.7 316.7 320 321.9 327.1 331.8 335.7 342.1 347.5 353.9 361 368.1 374.4 379.4 382.8 383.6 383.8 382.7 380.5 376.5 370.4 361.3 348.1 337.3 328.8 321.3 313.1 307.7 302.6 297.2 289.1 291.7 296.1 295.3 291.2 291.7 292.4 294.4 298.4 298.8 283.2 251.6 247.9 266.4 286.8 303.9 322.4 345.4 363.3 376.2 384.6 389.5 391 389.7 385.2 378.9 370.7 363.4 355.3 346.4 336.9 327.9 317.9 311.1 305.8 302.2 295.9 288.4 279.1 268 256.9 244 224.7 194.2 215.8 233.5 245.4 252.7 254.9 252.2 242.8 234.1 226.2 219.5 211.4 204.4 196.3 186.4 174.8 162.6 155 146.3 130.8 117.3 107.8 91 98.9 97.8 95.5 90.2 81.8 73.9 67.8 60
414 402.9 392.9 383.7 375.9 364.2 345.4 333.6 330 314.2 327.1 330.9 327.4 315.1 301.1 284.9 271.3 259.7 249.1 239.6 224.3 213.5 208.2 201.3 198.1 196.9 196.4 199 204.2 209.7 212.4 216.9 219.7 222.7 226.4 230.6 234.9 238.1 242.5 247.4 251.9 256.5 260 263.5 268.5 272.8 276.9 279.4 281.9 284.3 285 282.9 279.6 274.4 266.8 256.9 248.2 236.4 231.5 220 213.3 208 198.6 189.4 178.4 172 161.4 152.3 148 142.3 130.8 124 126.1 131.2 141.3 152.2 166.7 180.2 191.8 202.3 218 237 251.7 266.2 277.3 287.7 295.3 303.7 311.3 316 319.6 320.3 322 324.1 326.2 325.7 325 324.2 326.6 328 331.2 336 339.1 343 348.1 353.7 360.9 365.8 372.1 375.8 378.9 380.4 381.6 380.4 377.8 372.6 364.7 350.8 335 332 323.7 308.7 291.8 284.8 286 283.3 277.3 274.7 277.1 276 270.7 267.9 267.5 270.6 275.9 278.1 270.7 234.8 237.4 256.7 275.5 291.4 308.6 329.9 349.6 364.4 373.6 379.6 382.5 381.3 377.2 370.7 363.4 356 347.4 338.6 329.4 319.8 311.1 303.6 298.6 293.2 288 281.5 273.4 263.9 254.9 244.6 227.1 199.8 204.6 223 237.9 245.6 249.3 246.3 240.5 233 224.5 217 210.7 203.8 196.1 187.2 175.2 162.4 154.1 144.4 131.6 117.3 104.8 95.5 76.7 85.6 81.2 76.2 68.3 62.1 56 48.4
406.1 395.9 385.8 375.6 363.6 354.5 341.2 332.7 330.3 300.9 306 309.2 304.3 293.4 284.5 271.2 260.4 252.9 243.5 230.6 213.2 207.2 205.7 201.9 199.7 197.1 195.8 195.4 196.8 201.9 208.5 211.2 213.8 215 222.2 227.4 231.6 235.8 241.2 246.8 250.5 253.6 256.4 260.1 265 269.4 273.4 277.4 279.5 280 279.3 275.6 268.3 263.2 256.8 246.3 236.2 230.2 221.4 212.8 203.5 199.4 193.9 184.6 178.3 172.4 164.1 155.6 150.3 146.1 133.7 125.5 120.3 125.2 133.2 146.1 158.9 171.5 185.3 195 211.7 222.8 247.5 265.1 280.4 291.8 300.9 308.5 315.5 320.7 324.6 326.4 328 329.5 330.4 332.3 331.9 332.3 333.6 335.2 337.3 340.8 343.4 348.6 353.2 356.9 360.9 365.7 370.9 375.2 377.7 378.8 379.9 379.2 378.4 373.7 365.1 360.2 355.3 348.4 340.6 332.6 321.2 308.1 299.1 289.1 277.2 260.9 251.9 251.5 246.2 241.3 239.8 241.5 245.7 252.6 253.1 228.9 220.2 239.8 259.4 276.4 292.4 312.2 332.2 348.1 360.3 367.6 372.3 371.8 368.3 363.2 356.4 348 340 330 318.9 309.8 302.1 294.3 287.8 282 277.6 272.1 264.6 256.6 248.9 240 228.6 204.8 184.3 208 225.6 238.2 242.5 240.3 235.8 230.2 223.5 215.8 207.1 201.1 194.4 185.6 172.4 157.7 147.7 135.3 120.6 109 97.3 86.9 80.6 68.8 66.9 61.9 57.1 51.7 45.8 41.4
402.5 391.7 383.2 374.4 365.5 356.7 341.6 333.6 330.3 307.1 285 284.3 283.5 275.3 265.3 254.2 246.8 243.1 239.9 230.1 227.5 220.3 211.1 202.9 199 196.6 194.8 194.1 193.2 193 202.3 204.6 205.5 210.6 216.9 222.3 227.8 232.5 238.7 244.4 248.5 250.4 252.4 256.6 260.2 263.9 267.9 273.1 276.9 278.1 274.4 268.8 260.9 253 246.7 236.5 228.4 215.8 210.3 204.4 196.8 190.7 186.7 180.2 176.5 170 165.5 158.1 149.8 145.1 136.3 129 119.1 118 128.9 141 151.5 164.4 174.6 185.7 195.5 216.5 239.8 258.8 279.8 294.7 304.7 311.2 319.3 325 329.9 331.2 333.1 334.8 336.3 336.4 337.9 340.7 341.7 343.3 343.2 345.7 348 353.3 357.7 362.1 366 369.3 372.1 375.3 377.2 378.9 380.7 380.5 379.3 376.2 373.3 370.3 364.9 358.8 353.5 347.4 337.4 325.8 316.6 304.6 293.6 282 273.6 265.1 257.6 248.5 236.7 223.2 210.5 221.4 226.5 224.8 195.6 217 236.6 255.2 272.8 293.2 314.1 332.5 346.4 355.8 361 361.9 359.3 354.7 348.5 340.8 332 321 309.4 300.5 291.5 283.4 276.5 269.9 265.3 260.6 255.9 247.6 239.7 231.4 223.4 208.6 179.3 193.3 212.4 227.5 233.9 233.7 230.9 226.3 220.1 211.2 203.6 197.2 189.5 180.5 166.8 150.1 136.3 119.6 103.2 89.9 79.7 74 67.8 62.8 56.7 52.4 50.6 47.5 42.2 38.5
402.7 394.8 388 380.8 371.8 361.3 347.5 339.3 328 304.5 282.3 269 261 254.7 249.4 246.2 242.9 243.8 246.2 244.8 237.6 227.3 218.1 210.6 205 201 195.3 194.2 193.1 192.3 191.5 196.4 200.9 206 211 217.1 222.5 229.5 235.3 240.7 244.4 246.4 248.7 251.4 253.1 257.1 262.3 267.7 273.6 275.4 271.3 263.3 254.2 245.1 237.8 226.5 218.3 206.9 201.1 195.9 189.7 184.5 180.1 176.4 169.7 162.8 158.7 152.9 148.9 144.4 138.1 127.2 118.8 113.3 126.4 135.5 143.2 155.1 164.6 170.8 184.5 205.5 227.7 254.2 278.7 296.2 309.1 317.9 325.2 330.3 334 336 337.6 338.6 340.7 342.5 344.8 345.7 348.2 350.3 351.2 352.7 355.9 361.2 365.5 368.8 371.7 373.8 375.9 378.4 381.1 381.5 382 382.2 382.3 381.1 379.4 377.5 374.8 371 366.1 360.8 354 345.6 334.9 322.8 312.9 302.8 294.2 289.3 281.8 271.2 258.2 242.9 228.1 207.7 193.4 185.5 184.8 191.4 209.6 230 252 273.8 296.9 316.5 331.2 341.8 348.4 350.9 349.2 345.2 339.4 331.7 321.2 310.6 298.8 288.5 279 270.8 263.4 256.1 250.9 248.4 243.7 236.1 229.6 222.5 216.2 205.6 183.3 170.4 189.5 212.2 225 227.2 224.4 221.8 215.7 205.2 197.6 191.4 182.4 170.1 159 143.8 122.9 104.3 88.2 75.4 66.9 61.3 55.2 50.9 51.7 48.9 46 42.7 39.5 36.1
405.6 400.1 394.1 388.5 382.3 372.1 359.5 347.7 334.8 317.7 301.2 284.5 267.3 255.7 249.5 250 259.1 266.2 268.7 268 257.8 243.3 228.6 218.9 211 206.4 201.5 196.3 193.4 192.6 190.2 191 195.5 200.5 204.1 212.4 218.8 224.3 230.3 235.2 239.1 241.7 241.7 242.6 245.4 248.6 255.9 264.1 270.7 271.1 265.6 256.7 244.9 237 231.8 221.8 209.1 201 194.4 186.6 182.9 177.3 172.6 169.2 169.8 163 160 156.2 150.8 146.3 135.7 122.4 117.6 115.6 125.2 130.3 136.1 142.2 153.1 161.5 172.9 196.3 215.9 246.5 273.3 295.3 309.5 321 328.7 333.5 336.6 338.8 339.4 341.7 344.3 345.6 347.9 351.9 354.6 357.1 359.1 360.4 364.8 368.6 371.9 375.2 378.5 380.8 382 383.7 385.6 386.3 385.9 386.9 387.7 386.9 385.6 384.4 382.4 379.5 376.1 371.6 366.3 359.8 351.9 343.3 333.4 325.3 320 313.9 304.8 293.4 279.8 264.2 248.5 236.4 223.1 208.3 191.7 170.1 181.4 203.8 227.6 253.3 278.6 302 317.5 328.8 335.6 338.5 338 334.9 329.3 321.1 309.8 298.6 286.4 273.7 264.5 256.9 249.7 243.7 238.4 234.8 231 226.9 220.3 213.7 207.1 191.1 165.6 134.3 172.7 203.7 215.3 218.3 217.9 213 206.7 199.4 190.1 180 170.5 159.5 148.4 131.8 112.5 91.9 73 64 55.1 51.3 48.2 46.3 47.3 46.7 44.1 41.8 39.2 35.8
406.9 404.4 399.9 393.7 387.5 381.4 371.2 360.6 349.6 335.2 317.8 295.4 273.6 256.9 250.7 268.4 283.4 293.6 298.5 294.6 284.4 266.9 246.2 229.1 219.3 211.9 206 202.6 198.8 193.9 189.4 189.4 188.5 195.3 199.3 207.2 213.9 219.8 223.6 228.4 231 234.3 234.3 233.3 235.7 239.5 249.3 259.6 265.8 266.3 259.9 251.7 241 228.5 217.5 210.2 201.1 193.3 186.3 177.5 174.5 170.8 169.6 167.6 165.9 163.9 162.9 159.2 152.2 149.6 145.2 124.4 116.2 113.8 121 126.3 129 134.6 142.3 153 160.3 184.9 200.1 230.3 262 284.8 303.9 319.7 328.8 335 338.3 341.2 343.5 345.6 347.3 349.8 351.5 356 360.1 362.3 366 368.9 372.8 377.1 381.2 383.6 386.1 387.8 388.5 390.1 390.8 391.4 392.1 393.1 394 394.2 393.8 392.2 391 389.8 386 382.3 377 372.2 367.1 359.4 353.2 347.1 340.9 334 323.9 311.4 298 286.4 273 261 248.7 233.5 211.7 189.5 164.3 181 206.8 235.4 263.4 287.4 304.3 315.6 322.3 325.5 326.2 323.4 318.9 310.4 299.9 287.2 275.3 261.1 251.8 243.1 238.1 233.5 228.3 222.7 218.7 215.2 210.7 204.9 197.2 178.3 145.8 133 165.2 188.2 198.5 200.5 202.8 199.7 190.9 185.2 178.6 169.9 159.2 150 136 120.9 100.9 79.3 66.3 54.1 48 44.5 42.6 43.3 43.6 43.4 42.3 40.5 38.7 33.6
404.5 403.7 401 397.8 391.4 384.1 375.4 362.6 344.8 328.6 311.3 289.6 268.2 257.7 267.5 288.4 308.7 324.1 329 325.5 307.2 288.7 267.7 245.3 229.7 218.2 211.5 206.8 202.3 199.2 194.3 190 189 187.7 195 200.1 207.5 213.6 217.6 220.6 224.4 225.8 225.8 225.5 224.4 232.1 240.8 252.8 257.3 256.9 248.7 241.2 233.9 221.2 207.1 201 191.8 183.3 176 172.5 168.9 168.9 166 165.1 166.6 166.8 163.5 159.2 157.1 150.9 147.4 136.8 122.6 111.5 117.6 122.2 123.4 124.9 133.4 146.1 150.8 172.1 191.2 214.1 243.9 267.3 294.1 311.2 325.8 333.1 338.4 342.2 345.4 347.7 349.6 352.2 354.6 358.2 362.7 366.9 371.1 375.1 379.5 384.8 387.8 390.7 392.9 394 394.9 395.8 396.3 396.6 398.3 400.3 401.8 402.4 402 401.1 400.2 399.2 396.7 392.5 388.8 384.3 379.2 373.4 368.7 363.3 357.3 350.9 342.7 330.6 316.7 305 294 283.3 270.9 252.9 228.6 202.2 178.5 157.2 188.1 219.3 249.1 273.3 290.2 302.6 310 314.5 315.9 313.9 308.9 301 290.9 278.2 265.5 253.1 243.2 233 226.7 223 218 210.6 206.5 202.7 200.4 196.3 188.6 172.4 144 123.8 153.3 172.6 180.9 184.7 184.1 181 177.1 169.6 167.3 156.8 146.5 134.1 121.4 105.9 88.4 67.4 55.3 47.4 42.4 39.9 37 41.4 41.5 41 39.7 37.9 34.8 32.4
400.2 400.4 398.6 396.9 392.4 384.1 372.6 342.6 323.3 307.9 293.9 278.6 264.3 266.7 283.1 307.3 329.6 346.4 354.1 350.3 336.5 309.7 286 261.5 240.7 227 217.6 213 207 203.6 200.2 193.1 189.4 186.1 191.6 196.6 199.9 206.4 211.4 215.1 218.2 218.7 218.8 216.9 216.2 222.5 231.6 239.1 244.9 246.8 241.4 229.9 219.1 206.4 195.5 187.7 181.2 177.3 171.5 167.9 165.4 165.1 164.1 163.3 166.4 164.7 158.3 155.6 153.8 146.7 143.4 136.3 131.1 121.3 109.2 111.9 111 113.9 118.9 130.2 142.6 159.7 179.4 197.8 227 252.9 283.5 303 317.8 330.3 337.6 341.6 345.8 349 351 354.7 356.7 360.5 365.4 369.9 375 379.2 384.1 388.9 392.6 395.8 397.5 398.8 399.8 400.9 402 403.7 405.7 406.8 407.6 408.2 407.9 408.1 407.9 406.3 404.3 402.4 398.5 394.2 389.6 385.4 381.1 375.5 369.4 363 355.3 345.5 333.5 318.8 308.5 296.4 281 264.2 237.9 211.1 185.4 159 171.2 202.8 233.3 255 273.2 288.1 297.8 303.2 304.6 304.4 300.9 293.1 281.4 270.3 259.1 250 240.5 227.5 215.1 210.2 207.8 202.8 195.7 191.1 189.9 185.9 179.3 168.4 143.9 116.4 137.8 157.1 165.7 167.9 168.1 165.9 161.5 151.6 147.4 140.4 130.9 118.5 105.3 92.4 75.8 59.1 49.1 43.1 39.4 38 32.2 40.3 39.3 38.4 36.6 36.1 34.3 31.7
392.2 393.6 394 392.4 388.3 379.5 357.5 328 307.6 287.6 275.5 269.9 275.2 279 299.3 323 344.8 362 371.4 370.6 357.1 335.5 299.9 278 251.8 236.2 225.9 218.7 212.4 207.1 202.2 196.8 191.6 186.8 185.8 191.3 195.4 199.5 203.2 208.8 213.8 211.3 210.6 208.9 208.7 211.5 217.4 223 230 230.9 225.7 215.5 202.6 193.8 183.3 178.2 174.3 172.2 168.9 168.3 164.6 162.8 163.5 163.2 166.2 161.8 159 156.7 155.6 152.5 151.1 139.9 122.4 109.8 108.1 104.4 103.2 103.2 107.3 111.3 125.5 146.9 167.7 187.5 210.2 245 277.2 299 311 325 334.6 341.3 346.5 350.1 353.1 356.2 358.8 363.3 368.1 372.8 377.1 381.6 386.4 390.8 395 396.8 399.4 400 401.3 403.8 405.6 408.5 410.1 411.3 412.1 411.2 410.6 411.3 411 410.3 408.9 406.8 404.2 399.9 396.6 391.9 387.3 381.7 375.8 368.9 361 351.8 339.7 325.7 310.5 291.5 274 257.9 242.5 215 188.8 165.4 155.4 186.2 213.7 236.8 256 272.7 284.3 292.8 296.6 296.6 293.5 287 277.5 268.2 260.1 249.9 241 230.3 216.6 202.4 195.5 190.3 181.8 175.2 175.2 171.2 166.7 160.1 145.9 120.1 121.3 136.7 149.7 154.3 154.2 148.7 141 133 128.2 120.3 111.7 100.7 85.4 76.3 61.5 49.7 43.3 40.3 38.3 37.3 39.2 39.3 38.9 38.1 32.8 34.1 34.7 30.9
373.3 378.3 379.8 379.5 376.2 366.1 341.6 317.1 293.6 277.5 286.4 290.9 293.1 287.8 310.2 335.1 355.4 373.8 383.1 380.4 370.7 352.7 312.5 287.8 262.9 244.8 232.6 224 218.1 212.1 206 200.8 194.2 189.7 185.4 186.1 190.9 193.7 198.8 205.2 206.7 206.2 203.3 201.7 201.3 201.4 200.5 207.5 211.2 207.2 203.6 196.4 188.3 182.1 177.8 173.9 169.6 167.3 165.6 163.5 162.4 158.7 160.8 162.3 161.5 159.8 159.2 159.9 157.8 156.8 139.7 117.4 111.3 119.9 124.5 125.5 120.1 113.9 104.3 104.2 109.3 132.4 156.5 176.8 202.5 236.3 268.2 293.4 307.6 317.8 326.6 336.5 344.7 349.1 353.4 357.3 361.4 366.5 371 375.3 379 382.3 387 391.2 394.5 396.5 398.3 399.6 401 403.5 405.7 407.8 410.2 412 412.8 411.9 409.5 409.5 408.6 407.8 406.9 405.3 403.7 400.8 396.3 391.2 387 382.7 376.5 369.5 361.1 351.5 338.7 322.7 302.9 286.2 273.9 250.8 235.4 215.8 192.4 169.5 140.4 166.6 190.9 215.4 237.5 257.9 274.5 282.9 288.2 288.7 286.4 280 274.6 267.8 260.5 252.1 244.4 233.9 223.9 211.9 199.1 188 175.3 159.4 159.3 154.9 146.8 141.2 135 124 103.1 118.2 130.5 135.1 135.8 130.8 122.8 112.1 108.4 101.7 93.4 80.6 72.5 60.4 52.8 44.9 40 38.8 39.3 39.1 30.5 38.5 46.3 40.4 34.3 27.4 34.7 21.8
348.3 355.1 357.4 357.7 355.9 351.2 335 310 282.9 294.8 309.6 316.2 314.1 298.7 318.9 342.5 361.4 377.5 386.8 386.7 376.6 359.4 332.9 303.8 277.1 256.7 240.7 230.4 224.2 218.1 212 205 199.4 191.8 184.4 183.4 181.7 190.8 197 198.7 202.3 204.6 200.1 195.7 193.7 191.2 189.9 192 188.9 187.3 186.1 180.6 176.8 173.6 172.9 168.7 164.6 151.6 153.1 160.5 158.9 158.3 150.2 157.2 158.2 159.4 161.3 162.1 152.7 149.5 129.1 113.5 130 140.3 141.9 135 128.5 119.6 111.3 102.5 99.1 119.7 140.8 166.2 194.6 225 254.2 278.7 294.5 307 316.7 327.8 339.2 346 351.6 357.6 362.2 367.8 373.1 377.1 380.7 383.7 385.6 388.5 391.8 394.1 395.2 396.6 397.9 399 401.4 403 405.2 406.7 408.4 408 406.5 404.2 402.8 401.2 400.6 399.2 396.9 394.2 389.9 386.5 382.9 378.9 372.9 365.8 357.8 346.9 333.2 316.4 296.7 276.4 261.1 246.6 228.6 215.8 197.9 175.6 149.1 146.2 171.2 197.4 224.7 249.3 265.7 274.5 278.2 279.3 277.6 274.9 270.6 265.9 258.9 252.7 245 237.5 228.1 218.2 207 195.7 187.7 177.1 168.5 160.4 147.4 123.9 117.7 109.4 103 102.1 113.1 121.3 121.9 117.2 110.1 103.2 94.1 84.2 76.4 66.6 61.6 49.9 44.4 40.1 38.9 38.8 40.1 39.7 23.3 36.9 44.5 44.6 36.6 23 17.8 7
322.4 329.6 330.9 335.2 333.6 331.4 323.6 302.1 293.1 314.2 330.9 335.7 329.9 317.2 324 346.9 364.6 378.5 387.1 389.5 380.7 367.9 356.6 325.6 294.8 269.1 249.3 237.7 230.4 224.2 218 210.1 203 195.4 191.7 188.6 183.8 181.7 192.6 196.2 196.2 199.3 197.6 190.9 185.7 183.3 180.7 181.2 175.4 165 174.2 167.6 165.3 165.3 152.2 145.9 146.2 143 141.9 150.2 148 136.3 133 133.7 154.4 159 161.5 142.6 125.8 117.1 115 135.3 148.1 158.2 159.3 145.6 134.3 124.2 113.7 105 100.8 107.3 129 154.3 182.9 211.9 239.1 263 273.9 295.2 308.8 318.2 332.5 341.6 348.3 356.6 363.1 368.7 373.8 378.1 380.9 382.7 384.1 385.8 387 389.1 390.6 391.8 392.1 393.3 393.9 396 397.5 399.2 400.7 400.5 399.9 397.3 395 392.3 390.4 389.3 387.4 384.5 381.5 377.6 374.3 369.1 363.2 357.4 350.3 339 325.1 309.4 292.9 272 253.9 234.9 220.3 210.2 195.9 179 154.7 131.7 159.7 188.6 219.7 244.2 256.6 263.7 266.9 268.4 267.7 265.4 262.4 260.6 256.7 251.4 245 237.6 229.2 219.4 210.1 200.3 194.1 186.2 180.1 171.7 157.6 145.6 133.8 121.2 109.3 91.4 96.1 104.2 111.4 109.3 105.1 98.8 88.4 79.8 68.1 63.7 51.8 45.2 40.9 41.7 40.7 37.6 36.5 38.1 33.9 36.2 45.1 40.3 32.5 22.2 7.5 3.2
337.3 316.5 320 317.5 310.6 309.2 304.5 294.1 307.2 329.6 346.5 351.2 345.6 331.4 328.7 348.5 365.4 377.7 386.2 388.7 385.7 377 365.8 344.7 311.6 282.6 259.8 245.8 236.7 230.4 223.1 215.7 208.6 201.2 194.1 189.2 185 180.9 185.3 193.3 194.3 192.2 189.9 186.1 180.4 179.3 176.6 166.3 161.2 162 157.4 158.3 159.6 157 149.3 154.5 154.7 163.8 148.7 138.7 136.9 135.9 133.2 128 128.7 125.4 134.5 124.9 121.3 131.9 145.3 159.8 170.4 177.5 174.6 157.3 140.4 126.9 117.4 106.3 100.8 96.6 119.5 143.3 167.9 193.7 219.7 246.7 268.1 283.5 292.4 307.9 322.6 334.1 345.2 355.5 362.6 368.4 374.6 379.1 381.1 382.4 383.6 383.1 383.9 383.6 384.5 385.5 384.1 384.7 383.8 384.1 386.5 388.5 390.2 390.3 389.6 388.1 385.1 381.9 379 376.7 375.8 373.4 370.2 367.3 363.1 357.9 352.3 347.1 339.4 327.2 314.8 299.9 283.3 267.2 249.5 229.6 215.3 205.5 193.1 180.1 163.2 135.4 146.1 177.2 207 232.1 245.6 251.7 253.6 253.7 253.2 253.2 250.8 250.8 248.7 244.8 240.7 234.5 226.1 216.2 207.3 200.3 192.6 184.2 177.5 170.7 158.8 149.8 139.7 128.1 116.6 103 85.9 98.9 99.9 98.4 93.7 86 79.3 74.1 64.7 55.9 48 43.3 40.7 41.6 40.2 37.5 34.5 34.7 30.4 32.7 35.6 27.4 10.1 6.4 5.6 1.3
350.3 326.4 327.7 322.4 318.7 313.7 306.4 308.1 324.4 342.7 359 362.6 357.1 341.7 334.2 349.1 364.8 375.5 382.4 384.7 383.9 379.8 371.1 349.9 320.6 293.4 271.8 254.5 242.8 235.9 227.7 220.2 213.2 206.8 201.2 196.4 191.5 179.8 177.7 187.5 190.6 183.7 177.8 172.4 169.2 166.4 167.8 163 175.4 177.8 177.1 170.8 154.1 152.5 157.7 168.9 169.7 169.7 165.6 157.1 151.6 159.9 142.6 137 138.3 132.4 124.4 123.6 140.6 153.2 166.2 179.3 189.2 190.7 182.2 166.6 146.8 130.5 117.3 111.5 99.9 97.8 109.3 134 159 177 205.5 228.7 246.9 262.1 277 299.1 313.7 326.4 341.4 352.5 360.5 368.6 374.9 379.7 382.1 382.6 382.7 382.2 381.1 380 378.8 376.9 375.1 373.6 370.9 368.1 371 375 376.4 376.7 376.4 375.7 372.8 370 365.7 362.4 360.7 360 357.4 354.1 350.2 345.5 338.6 332.4 325 315.5 304 292.2 279.7 265.4 247.9 230.8 217.2 204.7 192.3 178.2 162.3 138.2 133 163.4 192.4 218.1 231.4 236.4 239.7 239.6 239.3 239 235.7 235.2 234.5 232.8 231.3 226 215.8 206.3 197.9 188.2 182.8 174.7 167.4 160.1 151.9 143.6 132.9 121.6 115.5 105.2 95.4 87.1 88.1 85.9 80.9 75.2 69.6 64.3 59.1 55 49.7 44.5 41 40.2 37.1 35.9 34.3 34.5 35.8 12.6 12 7.9 6.5 1.7 1.2 0.4
353.8 354.6 353.4 343.8 341.9 335 330.4 333.1 340.2 355.7 370.9 373.4 367.1 349 337.7 348.6 361.8 372.1 378.3 380.5 380.1 376.7 370.5 354.8 331.8 307.8 289.2 263.7 251.4 241.4 233.3 225 217.6 212.1 206.6 201 195.2 188.8 183.2 176.7 180.4 181.4 178.3 169.1 171.9 175.7 173.3 182.1 194.3 202.2 201.8 199.1 188.9 175.8 171.9 172 174 172.6 170 167.5 163.9 163.5 160.5 159.7 160.4 140.7 148.8 144.9 155.4 165 178.9 193.4 201.5 202 196.1 180.4 158.5 143.4 125.1 111.4 104.5 96.8 101.3 121.4 144.5 162.2 188.1 213.6 231.2 253 271.3 289.3 305.9 316.7 333.3 346.4 356.9 367.2 375.9 381.4 381.9 380.4 380.5 379.6 377.9 376.1 374.1 370.3 366.1 360.8 355.4 350.1 352.3 355.8 356.6 357.9 358.4 358.9 358.5 356.4 353.6 350.7 346.9 344.9 342.2 338.6 334.4 329 323.9 319.3 313.3 305.6 294.6 284.3 272.5 257.4 243.6 229.5 216.4 207.9 193.1 179.2 160.4 140.7 120.2 150.8 181 207.2 217 221.5 222.9 224.2 225.2 225.9 223.7 222.1 221.1 218.8 217.4 211.1 199.9 193.5 182.6 174.7 168.9 164.4 154.2 149.8 141 134.6 126.5 115.6 109.7 100.7 93.2 86 78.8 74.9 73.2 69.1 63.6 59.7 55.4 52 49.3 45.8 42.3 38.6 35.7 34.6 35.2 28.4 33.4 10 7.1 3.2 0.9 -0.1 -1.3 -1.3
375.5 378.1 377.4 371.3 366.7 359.4 354.1 356.5 359.8 372.6 380.7 382.4 375.7 358.4 348.6 347.3 358.3 369.1 375.8 377.9 377.6 373.9 367.4 353 334.9 311.9 295 272.8 257.9 248.2 238.8 229.6 222.1 217.3 211.7 205.5 199.1 194.8 188.7 183 175.2 174.1 172.8 180.5 182.5 189.5 201.9 211.3 220.6 226.9 229.3 226.8 219.4 204.4 188.2 181.9 179.9 176.9 174.6 172.2 168.1 165.3 163.3 162.5 162.3 139.4 160.1 165.5 167.5 173.1 190.4 201.7 207.7 211.1 210.4 195.6 174.1 152.4 136.4 118.8 105.3 95.1 97 106.3 132.4 152.1 174.1 195 221.3 240.7 261.4 277.6 293.6 305.9 322.6 336.2 348.6 361.9 372.2 378.3 379.5 377.7 375.7 374.7 373.6 369.5 366.6 362.5 356.4 349.5 341.8 334.8 334.4 335.8 338.7 340 340.6 342.5 344.3 344.4 343.5 340.5 336.9 332.2 328.2 324.1 320 315.1 308.9 305.8 300.9 294.3 286.1 274.6 263.6 252.2 239.4 226.2 216.5 205.7 192.1 180.5 160.8 140.5 113.6 143 170.9 191.7 199.7 204.9 206.2 210 209.8 210.6 211 209.1 205.3 202.1 198.6 190 183.3 178.7 169.5 161.4 153.8 150.9 142.7 137.2 131.2 125.6 118.7 111 103.5 97.5 87.8 81 74.1 64.5 66.9 61.1 56.9 53.1 49.8 47.3 45.6 42.9 40.5 37.1 35.4 35.8 34.9 29.4 17.2 8.3 3.2 0.6 -1.3 -1.3 -1.3 -1.3
396.4 395 392.8 390.5 388.5 383.7 380.2 383.4 385.6 387.4 388.4 388.4 385.9 372.6 360.2 358.3 360.4 369.9 376.6 378.2 378 374.4 367.2 353.5 337.2 317.7 300.2 281.8 266.4 253.8 243.9 234.2 226.7 221.3 216.7 210.9 206.9 203.2 196.6 189.3 188.1 188.5 193.3 199.2 204.9 214.1 228.5 240 245.7 249.8 250.8 248.3 244 232.2 214.7 196.7 189.3 185.1 181.7 177.6 172.4 169.2 166.8 165.7 152.4 162.7 164 167.4 170.2 174.5 195.7 207.6 217.7 224.1 224.7 212.1 188.7 165.1 144 125.9 109.6 100.6 94.8 99.4 117.7 139.3 163.5 185.3 206.9 228.8 248.2 269.3 284 295.7 308.8 322.4 336.1 351 362.2 368.1 369.7 367.5 365.8 364 361.3 357.1 354.1 350.1 344.6 337.6 329.9 324 321.4 322 323.2 325 327 328.5 331.2 333 333 331.2 327.5 322.5 316.8 311.6 305.9 301.5 297.1 294.5 290.4 283.3 275.6 268.1 257.3 247.6 235.9 225.4 214.5 202 188.7 176.8 163.5 140.4 103.6 134.7 160.3 176 186.5 190.4 190.1 192.2 194.5 196.6 195.5 193.5 187.2 182.5 177.3 169.8 163.7 159 151.2 149 141.4 133.9 123.4 117.5 114.1 110.2 106.2 96.6 88.9 80.2 77.9 71.2 65.1 60.6 53.7 55.8 51.5 48.2 44.8 43.3 41.7 40.8 38.1 36.3 35.3 34.6 34.1 29.4 9.9 5.4 1.3 -0.2 -1.3 -1.3 -1.3 -1.3
