ncols 200
nrows 82
xllcorner 260000
yllcorner 832000
cellsize 50
41.2 37.3 33.6 32.5 33.5 35.6 40.2 41.2 41.3 42.5 43.5 47.2 52.8 59.6 65.9 69.7 73.4 76.9 79.9 84.2 88.7 92.8 96.5 100.2 107.8 118.1 123.9 129.3 137.1 143.9 150.3 154.4 163.7 163.1 171.1 166.7 166.3 165.2 164.4 164.7 166.2 169.4 171.8 172.8 174.7 178.9 186.4 193.3 198.7 203.4 207.6 212.3 218 224.8 229 232.3 234.9 235.2 235.8 236.2 235.6 232.9 228 227.5 226 228.2 223.1 222.9 227 224.6 223.2 220.9 221.3 221.8 222.6 222.6 221.2 220 218.7 217.6 218.8 220.9 220.6 221.7 222.3 222.8 223.2 223.8 224.3 224.3 224.2 224 223.9 223.8 223.6 223.5 223.7 224.5 225.3 226.6 227.8 229 230.2 231.4 232.6 233.8 234.8 235 235.3 235.5 235.7 235.9 236.1 236.3 236.3 236.3 236.3 236.3 235.6 235.7 235.8 236 236.1 236.2 236 235.9 235.7 235.6 235.5 235.4 235.3 235.2 235 234.7 234.5 235 235.9 236 235.6 235.2 234.5 234 233.4 232.9 232.4 231.7 230.3 229 227.5 226.5 225.9 225.3 224.6 223.4 220.4 218.2 217.1 215.4 212.9 209.9 208.2 206.8 201.6 202.5 202.6 197.3 196.6 193.7 192.4 189.2 187.6 186.9 187.7 188 187 187.5 185.8 183.7 181.7 179.4 179.1 175.4 173.4 172.8 172.7 172.6 172.4 172.2 171.9 171.4 171.5 175 178.3 180 178.9 179.6 189.8 187.2 188.4 198.3
37.7 33.2 32.7 33.1 34.3 35.7 38.2 39.3 39.7 42.2 44.1 49.5 55.8 63.7 69 73.8 77.6 80.9 83.8 87.6 91.5 95.8 99.8 104 111.2 122.5 126.9 133.7 139.8 146 152.8 157.8 163.8 164.8 167.3 166.5 166.1 165.5 164.9 166.3 169.1 171.3 172.2 176.8 180.2 182.7 186.4 195.5 202.4 206.7 210.7 216.6 222.2 228.1 231.4 234.2 235.7 234.6 235.1 235.7 231.6 227.8 225.9 224.2 225.4 223.1 225.7 222.8 221.1 224 220.3 220.1 220.4 221.2 221.8 221.3 220.7 219.6 218.2 217.8 219.7 222.8 222.2 222.8 223.3 223.8 224.2 224.8 224.7 224.7 224.8 224.8 224.6 224.5 224.4 224.2 224.4 225.2 226.4 227.8 229.2 230.4 231.6 232.8 234 235.2 235.9 236.4 236.5 236.6 236.8 237 237.2 237.4 237.4 237.4 237.4 237.3 236.3 236.4 236.5 236.7 236.8 236.2 235.8 235.6 235.4 235.3 235.1 235 234.9 234.7 234.5 234.3 234.1 235 235.9 235.6 235 234.2 233.5 232.8 232.3 231.7 231.2 229.9 228.6 227.2 225.8 225.4 225 224.4 223.3 221.9 219.7 217.1 215.5 214.3 212.7 211.1 207.8 206.7 201.3 200.1 200.8 197.1 194.7 192.5 190.6 189.1 187.6 187.9 188.4 188.1 187.1 185.5 185.1 183 180.4 177.7 174.7 174 173 172.6 173.3 172.7 172.2 172.2 171.7 172.2 174.4 177.4 179.4 180.5 180.3 183.8 186 187.2 197.8 206.1
33.8 31.7 33.9 34.7 34.7 34.8 35.5 37.3 39.3 41.9 44 51.9 59.3 67.2 72.7 77.1 81.7 84.9 87.7 91 94.3 97.7 102.8 108.3 118.1 126.1 132.5 137.8 143.2 148.9 155.2 161.8 162.6 165.8 171.8 166.3 166.1 166.3 166.5 168.5 170.2 170.9 174.4 180.2 185.8 190.8 193.7 196.4 204.7 209.8 213.7 220.8 226.3 230.3 233.3 234.9 234.8 234.5 234.3 232.7 228.3 226.2 223.8 223.3 225.2 225.6 221.4 222 222.8 219.3 219.2 219.1 220 220.8 220.7 220.1 219.6 219.6 218 218.6 221 224 223.9 223.8 224.3 224.8 225.3 225.2 225.1 225 225.1 225.2 225.3 225.2 225.1 225 225.2 226.1 227.5 228.9 230.4 231.7 232.9 234.1 235.3 236.4 236.9 237.4 237.9 238.3 238.1 238.2 238.4 238.5 238.5 238.5 238.5 236.9 237 237.1 237.2 237.1 236.6 236 235.6 235.5 235.2 235 234.8 234.6 234.5 234.3 234.1 234.1 234.1 235.3 235.4 234.7 234 233.3 232.6 231.9 231.2 230.5 229.4 228.1 226.8 225.4 224.5 224.2 224.1 223.1 222 220 218 215.8 214.3 213.5 214.7 210.4 206.8 205.8 202.1 199.9 200.4 198 195.4 192.7 190.4 189.1 188.5 188 188.5 188.2 186.7 184.8 183.6 180.4 176.8 173.6 171.1 170.9 173.3 173.4 173.4 172.3 171.8 172.2 171.3 174.1 177.1 177.7 178.6 179.9 183.4 188.5 186.2 191.1 206.7 200.9
31.5 31.8 34.2 34.3 34.4 34.3 34.1 37.5 40.2 43.7 46.4 54.1 61.8 70.6 77.3 81.7 85 87.7 90.4 93.7 97.4 100.7 109.5 114.7 125.9 131.2 135.9 141.2 146.6 152.3 158 161.7 162.8 170.1 171.3 166.3 167.2 169.3 171.5 171 169.5 173.3 178.4 184.3 190.3 195.6 200.5 203.7 208.3 213.4 218.7 224.7 229.7 232.8 233.8 235.1 234.2 233 231.7 228.1 225 225 222.6 224.5 223.2 221.8 221.1 223.5 219.3 219.6 219.6 219.3 220 220.6 219.9 219 218.2 218.8 219.6 220.1 221.2 224.4 223.8 224.3 225 225.7 225.6 225.6 225.5 225.4 225.4 225.6 225.7 225.7 225.8 225.7 225.9 227.2 228.5 230 231.5 233 234.3 235.5 236.7 237.4 237.9 238.4 239 239.5 240 239.8 239.6 239.6 239.6 239.5 238.8 237.6 237.7 237.8 237.4 236.9 236.3 235.8 235.3 235.3 235.1 234.8 234.6 234.3 234.2 234.2 234.1 234.1 234.1 235.3 234.7 233.3 233.2 232.3 231.1 230.4 229.2 228.2 227.7 226.3 225 223.8 223.1 222.2 222.2 220.8 219 217.3 215.3 214.9 213.9 214.9 216.3 210.4 207.3 205.2 202.5 199.8 199.7 197.9 196 193.3 190.6 189.6 189.3 188.6 188.6 188.3 186.2 184.1 182.8 177.6 174 171.8 173.6 173.8 173.2 173 173.2 171.6 172 172.7 173 176 177.9 180.5 180.4 180.6 187.6 186.5 187.6 201.3 202.3 202.6
33.2 33.3 35 34.9 34.4 34.4 35.2 38.3 43 47.2 52.6 58.8 67.1 74.2 81 84.1 86.8 88.9 91.4 95.2 100.3 104.2 116.1 121.8 128.7 135.2 139.8 144.5 150.1 154.9 159.2 162.8 167.2 170.1 166.5 166.4 166.4 168.1 171 169.6 171.5 176.7 182.5 189.1 196.2 199.7 203.9 207.3 212.1 217.2 222.6 228 231.7 234.2 233.9 235.1 231.8 232.8 227.6 225.5 223.8 223.3 223.6 221.6 220.9 221 221.5 220.3 219.6 219.6 219.6 219.6 219.6 219.6 219.6 219.6 219.2 219.1 220 221.6 222.8 223.4 223.9 224.5 225.2 225.7 225.9 225.9 225.9 225.8 225.8 225.9 226 226.1 226.2 226.2 227.1 228.3 229.6 231.1 232.6 234.1 235.5 236.9 237.9 238.4 238.9 239.5 240 240.5 241 241.6 241.5 240.6 240.6 240.6 238.3 238.3 238.3 237.8 237.2 236.6 236.1 235.5 235.1 235.1 234.9 234.7 234.4 234.2 234.2 234.5 234.6 234.5 234.2 234.2 232.8 231.2 230.7 230.7 229.3 228.2 227 225.7 224.8 224.6 223.8 223 220.4 218.1 218.9 217.6 216 214.8 214.4 213.9 213.8 215.3 215.1 210.2 206.5 203.9 202.6 199.6 198.3 196.6 195.2 193.6 191.2 190.4 190.1 189.4 188.8 188.1 185.7 183.4 179.7 174.1 173.3 174.3 174.2 174 173.3 172.6 172.7 172.3 171.6 173.1 173.5 175.3 181.4 182 182 185.1 186.8 188 189 209.5 203.5 204.1
34 34.5 35 35.2 34.9 35.4 36.3 40.3 45.7 50.1 57.3 63.6 70.5 77.7 83.1 85.9 88.4 90.2 92 96.1 100.8 108.6 119.2 126.9 131.6 138.3 143 147 151.9 156.2 160.6 166.5 170 166.9 166.7 166.8 167.2 170.5 169.3 171 175.7 182.2 187.8 194.2 200.8 203.3 206.1 212.2 217.8 222 226.7 230.7 233.6 234.3 233.5 233.2 231.4 226.9 224.8 223.4 223.2 222.8 220.8 220.8 221.8 219.3 219.6 219.6 219.6 219.6 219.6 219.6 219.6 219.6 219.6 219.6 219.3 218.9 220.5 222.3 223.1 223.5 224 224.7 225.6 225.8 226 226.2 226.2 226.1 226.1 226.2 226.3 226.4 226.6 227.4 228.5 229.6 230.8 232.3 233.8 235.2 236.7 238.2 239.1 239.6 240.1 240.7 241.2 241.7 242.2 242.7 243.3 242.1 241.7 240.2 238.9 238.6 238.1 237.5 237 236.4 235.9 235.3 234.9 234.9 234.8 234.6 234.3 234.2 234 234.2 234.5 234.7 233.9 232.5 231.1 229.5 227.6 227.4 226.6 225.8 224.6 223.4 222.1 222.4 224 223.3 220.2 219.1 216.6 215.2 214.3 213.9 213.6 213.4 215.2 214.2 213.9 209.6 204.8 203.8 203.1 199.9 197.5 195.7 194.7 193.8 191.9 191 190.5 189.8 189.1 187.8 185.3 182.4 176.8 171.7 174 174.4 174.8 174.2 173.4 172.7 172.2 172.6 172.7 173.3 173.7 182 183.9 183.2 183.7 187.4 190 191.6 194.7 211.1 204.9 205
34.2 34.5 34.8 35.2 34.9 36.1 37.2 43.7 49.4 52 58.9 66.7 72.3 79.8 84.6 87.5 89.9 91.7 93.8 99 105.2 114.1 124.3 131.8 135.2 139.5 143.7 148.2 153.4 159.8 167.2 168.1 167.4 166.4 166.7 167.1 170.8 169.2 170.7 174.3 180.4 187.5 190.8 198.7 205 208.6 207.4 216.1 222.4 225 229.6 232.3 234.2 234.6 232.4 230.9 227.1 224.9 223.2 222.6 223.3 221.4 220 219.8 219.1 219.6 219.6 219.6 219.6 219.6 219.6 219.6 219.6 219.6 219.6 219.7 219.3 219.2 222.3 222.9 222.8 223.7 224.2 225.4 225.7 225.9 226 226.2 226.4 226.5 226.4 226.5 226.7 226.8 227.4 228.5 229.6 230.7 232.4 234 235.5 236.9 238.4 239.9 241 241.7 242.2 242.7 243.3 243.8 244.3 244.5 244 243 241.3 239.7 239 238.4 237.8 237.3 236.7 236.2 235.6 235.1 234.6 234.7 234.7 234.4 234.2 234.1 234 234 234.1 233.4 232.4 231.1 229.4 227.7 225.7 224.6 223.4 221.8 221.1 220.4 220 221.2 222.8 222.3 218 214.9 214.2 213.9 213.6 213.2 213.2 213.4 214.9 213.7 212.5 209.9 203.4 202.4 201.8 199.3 197 195.5 194.6 193.2 192.2 192 191.1 188.1 187.3 186.6 185.7 179.7 172.3 173.9 174.3 174.7 174.5 174.1 173 172.4 171.8 173.7 173 174.7 180.9 184.5 184.3 183.9 185.6 191.8 191.3 195 198.3 209.4 205 205.5
34.6 34.5 34.8 35 35.5 37.9 41.9 45.2 50.8 55.5 59.5 69.4 74.1 81 86.2 87.7 90.2 93.4 96.3 102.5 111.9 119.9 127.6 135.5 139.1 142.8 148.2 152.9 157.2 162.4 166.9 168 166.4 166.7 167 172.7 172.3 171.7 174 179 184.8 192.5 195.8 199.8 209.7 214 211.6 221.5 226 227.1 230.9 233.6 233.6 233.3 228.2 225.4 222.2 223.4 223.4 221.3 221.8 220.4 219.3 219.6 219.6 219.6 219.6 219.6 219.6 219.6 219.6 219.6 219.6 218.7 219 219.7 221 219.7 224.1 222.8 222.9 223.7 224.9 225.6 225.7 225.9 226.1 226.3 226.5 226.6 226.8 226.9 227 227.2 228.4 229.5 230.6 232.2 234 235.9 237.2 238.6 240.1 241.6 242.6 243.6 244.3 244.8 245.3 245.9 245.7 245.2 244.6 243.3 241.5 239.7 238.8 238.2 237.6 237.1 236.5 235.9 235.4 234.8 234.4 234.4 234.5 234.3 234.2 234 233.8 233 233.2 232.2 231 229.4 227.7 226 224 221.8 220.2 218.4 218 218.2 218.8 220.4 221.8 219.5 215.3 213.9 213.6 213.2 212.9 212.9 213.2 213.5 213.8 213.5 212.3 206.4 204.6 202.9 200.5 198.9 197.1 195.7 194.6 193.5 193 192.8 191.7 188.6 185.6 184.8 184 178.2 172.4 174.2 174.7 174.8 174.3 173.7 173.2 172 173.9 174.7 173.9 178.7 182.2 184.7 185.6 188.6 191.6 189.7 194.8 198.3 200 208 205.4 206.3
33 34.2 34.3 34.7 36.8 40.3 44.8 47.1 51.8 58.7 62.6 71.7 77.6 85.6 86.8 87.6 90.6 93.8 98.7 106.5 118.5 127 130.2 138.3 142.1 146.3 151.6 156.1 161 166.1 168.2 166.1 166.8 167.4 170 174.7 172.6 174.2 179.8 186.8 191.2 196.4 203.8 207.4 213.6 216.3 217.5 225.6 228.8 229.3 232.7 234.4 233.1 231.5 225.1 222.5 222.4 222.4 222 221.8 221 218.9 219.7 219.6 219.6 219.6 219.6 219.6 219.6 219.6 219.6 219.6 219.6 218.8 219.2 219.5 219.7 221.6 221.8 223.1 223.8 224.6 225.4 225.6 225.8 226 226.2 226.4 226.6 226.8 227 227.2 227.4 228.2 229.5 230.6 232.2 233.8 235.7 237.7 239.1 240.3 241.8 243.3 244.2 245.2 246.2 246.9 247.4 246.9 246.4 246 245 243.3 241.5 239.8 239.1 238 237.4 236.9 236.3 235.7 235.2 234.6 234.2 234.2 234.1 234.4 234.2 234 233.6 231.8 229.9 229.6 229 227.4 226 224.3 222.2 220.2 218.5 217.4 217.3 217.5 217.7 218.2 217.3 214.8 213 213.1 212.9 212.5 212.5 213 213.3 213.5 213.5 213.4 212.6 205.2 204.5 203 200.4 198.5 197.2 195.8 194.8 193.9 193.8 193.7 192.3 189.2 186.2 183.1 181.6 175.8 174.1 174.6 175 174.5 174 173.4 172.9 173.3 175 175.8 174.6 181.3 182.3 186 189.9 189.4 189.3 189.9 196.7 200.3 201.8 206.4 205.8 207
30.1 31.6 32.8 35.2 37.3 41.3 45.9 49.4 54.6 60.5 68.8 78.5 82.1 86.2 86.8 87.5 90.5 95.7 103.1 111.2 123.8 131.6 135 139.4 144 147.1 153.5 157.9 162.6 166.1 166.2 165.9 166.8 168.3 171.1 172.6 174.3 178.2 187 194.2 198.8 202.1 207.9 210.2 214.9 216.8 222.1 228.6 231.1 231.9 233.5 233.5 231.4 226.6 222.8 221.6 222.2 221.4 221.9 220.1 218.6 219.6 219.6 219.6 219.6 219.6 219.6 219.6 219.6 219.6 219.6 219.6 218.5 219 219.4 219.7 220.1 220.8 221.4 223.5 224.8 225.1 225.4 225.8 226 226.2 226.4 226.6 226.8 227 227.6 227.8 228.3 229.3 230.5 232.1 233.7 235.4 237.4 239.3 241 242.2 243.5 244.9 245.9 246.8 247.8 248.8 248.5 248.2 247.7 246.3 244.9 243.3 241.5 239.8 239.3 238.2 237.2 236.7 236.1 235.5 235 234.4 233.9 233.7 233.6 233.6 234.5 234.3 233.8 232 229.9 228.9 226.5 224.7 223.3 222.4 221 219.1 218.5 217.9 217.3 217.5 216.8 216 214.3 212.3 212.1 212.2 212 211.6 212.4 212.9 213.3 213.5 213.5 212.7 210.1 205.8 203.8 202.1 200.7 200.2 198.1 196 195.4 194.7 194.6 194.2 192.8 189.8 186.7 183.7 178.8 174.9 174.5 174.5 174.8 174.4 174 173.5 172.3 176 178.5 176.2 179.2 180.8 183.5 187.9 189.3 189.5 190 193.7 198.9 201.1 203 205.5 206.7 207.8
28.7 28.9 30.9 34.1 37.8 41.9 46.9 52.3 58.7 63.5 74.9 81.5 83.9 84.5 84.2 87.4 92.6 100.8 111.7 115.1 126.8 134.6 135.8 139.8 145.2 149.3 154.3 159.2 163.5 165.6 165.7 166.8 169.5 170.2 172 174 175.9 185.2 192.5 197.7 204.6 208 210.7 213.9 219.4 221.2 226.3 231.1 232 234.4 233.5 232.3 227.3 222.9 223.2 222.3 222.3 220.4 220.7 220 219.6 219.6 219.6 219.6 219.6 219.6 219.6 219.6 219.6 219.6 219.6 219.6 219.6 218.9 219.6 220 220.5 221 222 224.3 224.7 225 225.4 225.8 226.2 226.4 226.6 226.8 227 227.3 228.3 228.4 229.4 230.5 232 233.6 235.2 237 239 241 242.9 244.2 245.4 246.6 247.8 248.9 250.1 250.1 249.9 249 247.6 246.2 244.9 243.3 241.6 239.8 239.6 238.5 237.4 236.5 236 235.6 235.1 234.6 234.2 233.6 233.2 233.1 233.4 234.6 234 232.1 229.8 226.9 224 222 221.3 221 220.3 219.5 218.3 217.3 216.4 216.2 217.6 218.1 214.1 212.1 211.2 211.3 211.1 211.4 212.3 212.8 213.3 213.8 214.2 210.8 209.8 204.8 203 201.3 200.1 199.6 198 195.9 196.1 195.5 195.4 194.6 193.4 190.4 187.4 182.8 175.9 175.2 175 175 174.5 174.2 173.8 173.4 173.9 180.5 182.5 179.1 179.2 181.8 184.4 186.7 190.9 190.4 190.9 196.9 201.4 202.1 203.9 206.2 207.5 208.7
27.7 28.5 29.5 33 38.2 43 47.7 53.5 62.4 71 77.5 80.4 82 81.7 83.4 90.5 100.6 107.8 116.3 124 125.9 133.2 138.6 143.4 147.2 153.4 158 162 164.5 165.3 166.6 169.4 171.4 172.4 174.2 178.6 184.5 194.2 200 202.4 208.7 211.7 213.1 215.5 222.6 224.9 228.7 231.4 232.1 233.5 230.8 228.5 222.8 222.3 222.1 222 220.1 219.2 219.9 219.3 219.6 219.6 219.6 219.6 219.6 219.6 219.6 219.6 219.6 219.6 219.6 219.6 219.6 219.1 219.7 220.4 221 221.5 222.5 223.4 224.3 225 225.3 225.7 226.1 226.6 226.8 227 227.2 228 228.9 229.4 230.5 232.1 233.6 235.2 236.8 238.7 240.7 242.7 244.7 246.1 247.3 248.6 250 251.2 251.6 251.3 250.4 249.1 247.7 246.4 244.7 244.2 242.2 239.9 239.9 238.6 237.3 236.5 236.2 235.8 235.3 234.8 234.4 233.8 233.2 232.6 232.5 233.5 233.2 230.8 227.9 224.9 221.6 220.4 220.3 220.3 220.4 219.7 219.6 219.3 216.8 215.6 216.2 214.5 212.7 211.7 210.6 210.3 210.2 211.5 212.1 212.7 213.6 214.7 212.9 209.7 208.3 205.2 202.6 201 199.9 199.5 198 196.6 196.2 196.2 195.5 194.5 193.4 191 186.3 180.3 175.4 174.2 174.6 175.1 175.3 174.7 174 173.5 175.5 181.1 182.2 182.9 180.5 184.5 186.5 188.7 190.4 191 193.7 199.7 202.2 202.5 204.7 206.9 207.8 209.3
27.3 28.5 29.6 32.4 38.2 44.8 49 56.8 62.8 72.8 75.4 77.7 79.8 79.1 86.6 96.3 104.5 113.2 122.5 126.7 131 135.1 140 143.8 149.3 154.5 159.3 163.4 165.7 167.6 169.7 172 172.9 175 179 183.8 190.4 201.9 206.6 209.6 212.9 213.9 215.6 220.2 225.3 227.1 229.8 231.9 233.7 231.5 228.6 223.3 222.9 221.8 221.2 222.5 219.8 218.5 219.6 219.6 219.6 219.6 219.6 219.6 219.6 219.6 219.6 219.6 219.6 219.6 219.6 219.6 218.9 220 221 221.6 222.2 222.4 222.4 223 223.6 224.3 225.2 225.6 226.1 226.5 226.9 227.2 227.8 228.7 229.6 230.6 232.1 233.7 235.2 236.7 238.4 240.4 242.4 244.3 246.3 248 249.3 250.6 251.9 252.8 252.7 251.8 250.4 249.2 248.1 247 245.4 243 242.2 242 239.7 238.4 237.2 236.5 236.2 235.9 235.5 235 234.5 234 233.4 232.8 232.1 232.4 231.1 228 225.1 220.6 217.3 219.4 219.6 219.8 219.9 220 219.6 218.9 218.9 214.4 214 212.6 211.8 211.4 210 210.5 210.1 211.5 212.2 213.2 214 213.6 211.2 210 208.5 205.7 202.3 201 199.7 199.1 198.3 197.4 197 196.9 196.1 194.5 193.3 188.3 181.4 174.5 175.1 174.9 174.6 174.7 175.1 175.5 174.9 174.3 175.5 179.6 182.7 186.6 185.1 186 186.5 186.5 190.3 191.4 197.3 201.8 202.5 203 205.6 207.8 208.5 209.3
27.7 28.3 29.9 33.4 37.5 43.4 50.8 59.5 66 72.7 73.8 75.5 74.4 82.4 92.5 102.9 111.7 119.3 127.8 132.4 137.1 140.5 144.8 148.9 153.9 156.9 160.9 164.2 167.6 171.6 171.6 172.7 174.1 178.6 185.8 194.1 201.6 207 211.9 214.2 215.8 215.4 217.5 223.3 227.4 229.1 229.7 231.4 231.9 228.2 223.7 223.2 223.3 224.6 220.6 221.3 220.7 219.6 219.6 219.6 219.6 219.6 219.6 219.6 219.6 219.6 219.6 219.6 219.6 219.6 219.6 218.6 219 220.1 221.2 222.8 222.9 222.5 222.7 223.3 223.9 224.5 225.1 226 226.6 227 227.5 227.9 228.7 229.6 230.6 232.2 233.7 235.3 236.8 238.4 240.3 242.3 244.3 246.2 248.2 249.9 251.2 252.5 253.1 253.3 253.4 252.5 251.4 250.2 249.2 248.4 246.7 245.1 244.3 242.3 239.7 238.2 237.3 236.6 236.2 235.9 235.5 235.2 234.7 234.2 233.6 233 232.3 230.8 227.8 224.5 220.4 217.3 216.5 219 219.2 219.4 219.5 219.5 219.6 217.6 217.3 213.2 212 211.5 210.4 209.6 210.6 210.7 210.7 210.5 210.7 210.6 211.7 211.5 209.7 209.1 208.2 206.5 203.4 200.8 199.7 199 198.7 198.3 197.9 197.8 197.4 195.3 192.4 186.7 179.7 174.7 175.3 175.5 175.3 175.3 175.4 175.5 175.6 174.2 175.3 179.7 181.7 187.6 189 188.6 186.5 188.9 191.1 192.9 199.1 202.7 202.6 203.9 206.5 208.6 209.3 210.2
27 27.2 30.9 34.2 39.1 44.9 53.4 62.8 67.1 66.8 68.3 68 77.2 86.8 98.4 109.5 118 123.6 130.3 133.9 138.5 144.7 149.8 151.6 158.7 160.6 164.2 168.6 172.9 176.3 174.9 173.9 178.8 186.3 195.3 202 207.3 212.2 216.5 218.4 218.8 218.1 220.4 226 228.2 229 229.4 228.4 227 225.7 224 223.4 223.6 224.1 221.2 220.7 219.8 219.6 219.6 219.6 219.6 219.6 219.6 219.6 219.6 219.6 219.6 219.6 219.6 219.6 219.6 219.3 219.7 220 221.9 223.5 223 222.6 223 223.6 224.2 224.8 225.8 226.6 227.3 228 228.7 229.1 229.7 230.7 232.2 233.7 235.3 236.9 238.4 240.4 242.4 244.4 246.4 248.4 250.2 251.8 253.2 253.5 253.7 253.8 253.9 253.3 252.4 251.3 250.4 249.2 248 246.9 244.9 242.3 239.6 238 237.3 236.7 236.2 235.8 235.5 235.2 234.9 234.5 233.8 232.1 230 226.6 223 219.6 216.3 214.5 216.2 218.4 218.4 218.9 219.4 219.7 219.5 217 213.9 211.8 211.5 211 209.6 210.8 211.1 211.3 211.4 211.2 210.7 210 210 209 209.7 208.5 207.1 204.3 203.4 202.4 199.5 198.9 198.5 199 200.2 198.5 197.2 194.3 190.2 182.9 177.6 174.6 175.1 175.7 175.9 175.3 176 176.1 175.9 174.1 175.2 177.4 179.7 181.7 189.3 189 186.9 193.8 192.5 194.2 199.9 201.5 202.5 204.8 207.3 209.2 209.4 209.8
26.6 27.3 29.5 34.1 41.8 47.6 53 60.5 61.6 62.4 65.1 73.4 83.1 95.1 107.1 115.7 121.5 126 129.9 136.9 141.3 146.6 153.2 155.4 159.7 164.6 166.7 173.7 175.8 174 175.3 179.1 185.4 196.2 202.4 207.7 211.2 216.2 218.7 219.4 220.7 222.1 221.8 226.6 228.6 228.6 227.8 226.9 226.3 226.6 224.5 223.7 224 221.8 220 219.9 219.6 219.6 219.6 219.6 219.6 219.6 219.6 219.6 219.6 219.6 219.6 219.6 219.6 219.6 219.9 219.9 220 220.1 222.9 223.6 223.1 222.7 223.3 223.9 224.6 225.5 226.5 227.3 228 228.7 229.4 230.1 230.7 232.2 233.8 235.3 236.9 238.5 240.5 242.5 244.5 246.5 248.6 250.4 252.1 253.6 253.8 254 254.1 254.3 254.4 253.8 253.2 252.3 251 249.8 248.6 246.9 244.5 242.2 239.6 238 237.4 236.7 236.2 235.8 235.5 235.2 234.6 233 230.4 229.3 226.9 223.8 219.6 215.8 213.5 214 216 217 218 218.6 219.2 219.7 218.8 215.7 212.9 211.6 211.5 210 211 211.2 211.5 211.9 212 211.9 211.5 210.4 209.9 208.7 207.9 208 208.3 204.2 204.4 203.4 199.5 199.3 199.8 200.3 200.8 200 196.3 192.4 185.6 181.6 175.5 174.7 175 175.3 175.8 175.9 176.4 176.5 175.8 175.4 175.4 175.8 177 180.5 183.7 183.3 183.2 193.6 192.2 195.9 200.3 201.7 203.5 205.7 207.8 209.3 209.4 209.5
22.4 26.4 28.1 34.5 40.4 46.9 52.1 56.7 58.1 58.5 69.1 76.8 87.7 101.5 114.6 121.2 124.6 128 131.2 139.2 145.4 149.5 156 157.3 160.1 167.7 173.6 177.5 174.8 174.6 178.8 186.1 195.3 202 208.3 213.2 216.6 219.4 219.7 220.5 221.9 224.9 225.2 227 228.5 227.7 226.8 226.5 225.1 225.8 224.6 223.8 223.5 221.3 219.3 219.6 219.6 219.6 219.6 219.6 219.6 219.6 219.6 219.6 219.6 219.6 219.6 219.6 219.6 219.9 220.6 220.2 220.2 220.4 222.3 223.1 223.2 223 223.6 224.4 225.3 226.2 227.2 228 228.7 229.4 230.1 231.1 232.7 234.4 235.6 236.9 238.4 240.4 242.5 244.5 246.5 248.6 250.6 252.4 254 254.6 254.6 254.6 254.7 254.8 254.9 254.3 253.8 252.7 252.1 250.8 249.6 247.2 244 241.6 239.3 238.3 237.4 236.8 236.2 235.8 234.8 233.8 231.6 230.5 227.8 226.2 223.7 220.9 215.6 214.1 214.1 214.1 215.4 216.8 218 219.6 219 218 217.1 215.2 212.6 211.4 210.4 211.6 211.6 212 212.2 212.3 212.6 212.5 212.5 210.1 207.4 208.1 205.9 206 206.7 206 204.2 201.9 199.3 198.6 198.4 198.9 200.5 199.1 193.9 186.5 182.3 177.8 174.9 175.1 175.3 175.6 175.7 175.8 175.9 175.9 175.1 175.1 175.4 175.9 176.7 178.9 181 182.4 185.2 194.3 196.2 198.7 200.4 202.4 205.5 207.7 207.9 209.4 209.5 209.8
21.9 24.4 27.1 31.5 33.9 37.1 44.1 48.2 55.4 62 71.7 82.6 96 106.5 115.7 120.1 123.6 128.3 135.5 142.9 149.4 152.4 157.4 159.5 167 171.6 176.9 177.8 174.3 178.2 185.1 194.3 204.3 208.5 214 217.5 219 220.1 220.7 222.2 225.1 228.3 227.9 226.1 227.4 226.9 226.1 225.7 224.6 225.6 226.4 223.9 223.4 221.7 220 219.6 219.6 219.6 219.6 219.6 219.6 219.6 219.6 219.6 219.6 219.6 219.6 219.6 219.6 220.4 221.4 221.4 220.4 221.1 222.7 222.6 223.2 223.3 224.2 225.1 226 226.9 227.8 228.7 229.4 230.5 231.6 233.1 234.7 236.4 238.2 239.4 240.6 242.3 244.4 246.5 248.6 250.6 252.6 254.3 254.9 255.6 255.7 255.7 255.7 255.7 255.4 255 254 252.7 252.3 252 251 248.8 244.6 240.9 239.7 239.1 238.5 237.6 235.2 234.2 233.3 231.3 230.5 227.7 225.3 223.1 220.3 216.9 214.1 214.1 214.1 214.1 214.7 216.7 218.8 219.5 217.7 215.7 215 214.4 212.3 210.9 211.4 211.9 212.5 212.9 213 213.2 213 215.4 213.9 209.2 206.2 205.5 205 205.5 205.5 205.2 203 202.2 200 198.9 198.8 196.6 196.6 193.9 188 183.8 180.7 179.1 175.4 175.5 175.6 175.9 176 176.1 176.1 176.3 175.7 175.4 175.4 176.7 178 179.4 187.7 185.9 184.9 189.9 195.4 200.6 202.5 204 208.1 209 209.1 209.1 209.6 211.1
22.2 24.1 27.7 30.1 36.8 41.8 46 53.9 62.1 68.4 76 85.2 97.8 108.3 116.3 122.4 126.8 131.6 138 143.7 150.5 156.3 158.3 166.4 171.7 177 176.8 174.3 177.1 185.5 194.3 202.9 208.7 213.6 217 218.2 219.7 220.4 222.1 224.1 227.1 228.9 229.2 226.5 226 226.4 227.6 226.1 224.3 226.5 226 224.9 222.8 220.4 219.6 219.6 219.6 219.6 219.6 219.6 219.6 219.6 219.6 219.6 219.6 219.6 219.6 219.6 219.6 220.8 221.5 222.3 221.2 222.3 223.2 223.2 223.3 224 224.9 225.8 226.7 227.6 228.5 229.8 230.9 232 233.6 235.2 236.8 238.4 240.2 242 243.2 244.6 246.4 248.5 250.5 252.6 254.4 255.2 255.9 256.5 256.9 256.7 256.5 256.1 255.8 255.6 254.1 253 252.2 252.2 251 249.2 246.1 242.2 241 239.8 239.4 237.3 234.1 232.6 232.3 230 227.9 224.9 222.5 218.9 215.6 214.1 214.1 214.1 214.1 214.1 214.5 216.3 217.7 218.6 217.2 214.5 213.1 212.5 211.4 211.5 212.2 212.6 213.1 213.6 213.8 213.8 215.6 214.8 212.2 209.8 207 206.9 205.6 203.5 202.7 202.7 203.1 202.5 202 200.6 201 197.3 195.5 194 187.1 182.6 178.8 175 178.7 176.2 176.1 176.2 176.3 176.4 176.5 176.7 177 175.8 175.6 177 182.6 183.2 184.4 184 184 189.9 195.1 202.5 203.9 207.4 208.6 209.6 210.1 209.8 210.9 212.5
22.9 24.9 27.8 35.4 40.5 43.7 50.9 59.7 68.3 75.4 83.6 92.7 101.6 110.2 118.5 125.8 130.6 135.3 140.7 145.3 152.1 157.7 164.6 171.8 176.1 175.4 174.3 176.3 183.3 194.9 204.4 204.7 212 216.9 217.8 218.9 220 221.8 223.6 225.4 228.2 228.7 228.9 226.9 225.9 225.8 228.3 227.5 224.5 225.2 225.2 224.1 222 219.6 219.6 219.6 219.6 219.6 219.6 219.6 219.6 219.6 219.6 219.6 219.6 219.6 219.6 219.9 219.5 219 220.6 221 221.4 223.2 223.4 223.6 223.9 224.7 225.6 226.5 227.4 228.7 230 231.3 232.4 234 235.6 237.2 238.8 240.4 242.1 244 245.8 247.1 248.6 250.5 252.5 254.3 255 255.7 256.5 257.3 258.1 257.3 256.8 256.5 256.2 255.7 254.9 252.7 252.1 251.9 251.2 249.1 246.9 245.2 242.9 240.6 240.2 236.6 233.7 231 230.3 228.5 223.2 221.9 219.1 215.4 214.1 214.1 214.1 214.1 214.1 214.1 214.3 216.5 216.5 217.1 216.4 214.3 212.9 211.4 211.1 212 212.9 213.3 213.9 214.1 214.8 214.8 215.2 214.1 211.7 209 208.8 208.7 206.8 204.7 202.3 200.9 199.7 196.4 201.7 200.4 199.2 194.1 190.9 191.1 184.3 179.8 175.7 175.7 176.4 177.1 176.8 176.6 176.7 176.7 176.9 177.2 177.4 177.6 177.3 177.1 178.1 182.4 186.4 187.8 189.6 191.9 196.5 203 206.1 208.3 209 210.7 210.3 209.9 211.5 212.6
23.2 25.1 29 35.3 42.1 46.8 55.2 64.5 74.1 81.8 89.6 99.6 108.4 115.6 123 128.4 133.8 139 144.1 149.2 156.7 165.7 171.6 175.5 175.4 174.5 175.4 181.7 193.8 204.7 205.9 212.7 217.1 218.1 218.9 219.7 221.4 223.2 225 226.8 228 228.5 228.6 227.4 226.2 225.7 227.1 227.9 225.4 224.5 223.9 224.3 220.7 219.6 219.6 219.6 219.6 219.6 219.6 219.6 219.6 219.6 219.6 219.6 219.6 219.6 219.6 218.8 219.4 219.8 220.9 221.8 223.4 223.9 223.9 224.1 224.7 225.5 226.3 227.6 228.9 230.2 231.5 232.8 234.4 236 237.6 239.2 240.8 242.4 244.1 245.9 247.8 249.6 251.1 252.7 254.3 254.9 255.5 256.2 256.9 257.5 259.3 257.9 256.4 256.9 256.3 255.9 255.8 254.3 252.2 251.4 251 249 247.6 246.2 244.6 242.6 239.8 236.5 231.8 230.4 229.3 227.8 221.9 219.2 216.4 214.1 214.1 214.1 214.1 214.1 214.1 214.1 214.6 215.8 215.9 215.4 214.7 214 212.8 211.2 211.9 212.7 213.5 214 214.2 214.5 217.4 219 215.1 212.2 210.5 209.1 209.2 209.7 209.2 206.3 204.4 204.4 201.4 197.6 198.7 197 195.1 192 187.5 184.9 180 175.3 176.5 176.7 176.7 177 177.7 178 178.5 178.4 178.1 177.8 177.7 178.5 180 181.6 181.4 186.1 187.4 188.9 190.7 194.6 200.6 204.5 206.7 208.4 208.6 208.5 210.4 210.5 212.3 214.5
23.3 26.7 29.2 31.7 43 46.4 62.6 71.5 79.2 86.9 94.2 103.2 112.2 118.7 125.7 131.1 136.4 141.7 146.7 152.7 160 171.2 175 175.6 174.4 176.4 180.8 191.9 205.5 207 211.2 216.4 218.2 219.1 219.8 221.3 223 224.8 226.6 227.6 228.4 228.9 228.6 227.6 226.4 226.3 227.8 229.2 227.3 226.2 223.4 223.2 220.1 219.6 219.6 219.6 219.6 219.6 219.6 219.6 219.6 219.6 219.6 219.6 219.6 219.6 219.6 219.6 219.6 219.9 222.3 224.6 224.7 224.7 224.8 224.6 225.3 226 227.5 229 230.3 231.6 233 234.8 236.5 238 239.6 241.2 242.9 244.5 246.1 247.9 249.7 251.8 253.5 254.8 255.2 255.8 256.4 257.7 257.2 258.5 260.3 259 257.3 257.1 256.3 255.8 255.3 255 252 250.1 249.8 249.1 248.1 248 246.5 241.6 237.5 234.1 230.3 229.3 229.3 226.5 220.7 217.5 213.6 214.1 214.1 214.1 214.1 214.1 214.1 214.1 215.2 216.6 216.6 214.8 214.2 213.5 211.9 212.5 213.4 214.2 214.4 215.1 215.1 216.4 218.6 217.6 214.9 211.9 211 209.8 209.9 210.7 210.3 208.2 205.9 205.9 204.4 200.3 194.9 192.7 190.3 188.9 184 181.3 176.5 175.5 177 176.9 177.1 177.4 178.5 179.1 179.5 179 178.6 178.3 178.2 178.8 181.6 184 187.6 191.4 190.3 191.3 192.4 196 200.9 205.3 204.5 210 209.2 209.2 210.4 210.6 214.6 215.6
25 30.1 33.1 38.8 40.5 57.8 68.2 77.1 84.3 92 98.9 106.6 114 120.9 127.5 133.9 138.6 144 150.2 158.1 167.5 174.4 176 174.9 175.1 179.1 190.7 203.2 207.6 208 216.5 217.5 217.4 218.6 220.3 222.9 224.7 226.1 227 227.9 228.8 229.3 228.5 227.6 227 226.9 228.7 230.4 228.2 225.7 221.9 220.8 219.6 219.6 219.6 219.6 219.6 219.6 219.6 219.6 219.6 219.6 219.6 219.6 219.6 219.6 219.1 219.6 218.7 220.6 223.4 227.9 227.5 224.8 224.7 225 225.7 226.9 228.5 230.2 231.7 233.1 234.9 236.7 238.6 240.3 241.8 243.4 244.9 246.5 248.1 249.8 251.7 253.8 254.9 256.5 256.7 257.1 258.4 258.4 258.6 258.7 258.2 258.5 258.3 257.5 256.7 256 253.9 253.4 253.8 251.6 250 249.2 250 248.3 245.5 240.5 234.9 232 231.1 227.5 225.2 223.2 219.2 215.7 214.1 214.1 214.1 214.1 214.1 214.1 214.1 214.4 215.3 216.4 216.1 214.7 213.8 213.2 212 213.4 214.9 215.5 214.8 216.4 217.9 220 218.6 216 213.5 212.4 211.5 210.6 211.2 211.9 210.5 207.5 206.4 205.9 204.1 199.1 193.7 190.1 185.5 184.3 181.2 178.3 177.2 177.2 176.3 177.2 177 178 179.1 180 180.2 179.5 178.9 178.6 178.9 179.8 182.3 186 189.1 192.2 194 194.1 196 198.2 202.5 205.2 205.3 208.1 210.3 209.9 209.8 211.5 215.3 217.7
27.5 32.7 38.9 47.1 48.4 59.4 72.2 82.6 89.4 96.7 104 111.3 117.8 123.5 129.3 136.5 143.6 147.8 155.5 164.8 174.3 175.7 174.6 174.6 178 188.5 201.2 207.8 206.2 214 217.2 216.5 216.7 218.5 221.3 223.9 225.6 226.5 227.4 228.3 229.2 229.5 229.4 228.9 228.3 227.8 230.3 230 227.5 224.2 219.4 219.6 219.6 219.6 219.6 219.6 219.6 219.6 219.6 219.6 219.6 219.6 219.6 219.6 219.6 219 219.6 219.6 219.3 221.9 224.5 225.9 224.8 224.7 224.8 225.4 226.2 227.9 229.6 231.3 233 235 236.8 238.6 240.5 242.4 244.1 245.6 247.2 248.7 250.2 251.7 253.6 255.2 255.8 257 258.4 257.9 259.7 261.1 262.4 259 258.3 258.4 258.2 259.1 258.3 256.2 253.6 253.4 253.8 250.7 250.8 251.2 252.4 248.2 242.3 242.6 236 230.3 230.6 226.1 221.4 219.2 217.7 214.6 214.1 214.1 214.1 214.1 214.1 214.1 214.6 214.4 215.1 215.8 215.7 214.6 213.5 212.1 214 215.2 216.5 216.6 216.3 218.1 223.9 220.9 218 215.4 214.1 213.2 212.7 212.2 212.8 211.3 208.5 207.4 206 204.2 200.9 199 192.8 187.8 187.7 183.7 180 178.3 176.5 176.4 177.4 176.7 177.3 178.6 179.7 180.6 180.7 180 179.3 179.2 179.5 181.5 184.4 187.5 189.5 191.9 194.9 197.2 198.6 200.6 203.2 205.7 206.1 208 211.6 211.1 212.3 214.1 217 221.4
30.3 35.7 42.9 56.4 61.2 64.2 77 87.7 96.1 101.1 108.5 116.1 122.1 128 133.4 140.4 147.1 153.2 161 171.7 175.9 173.3 174.1 177.4 187.2 199.2 206.9 205.9 210.2 217 216.9 215.5 217 219.3 222.2 224.6 226.5 227.4 228.3 229.2 231.1 231.3 229.5 230.3 229.5 230.6 230.8 229.2 226.2 222.9 219.6 219.6 219.6 219.6 219.6 219.6 219.6 219.6 219.6 219.6 219.6 219.6 219.6 219.6 219.6 219.6 219.6 219.6 219.9 223 224.6 225.3 225.7 225.8 225.8 225.9 227.2 228.9 230.6 232.8 235 236.9 238.7 240.5 242.4 244.3 246.2 247.9 249.4 251 252.5 254 255.8 256.8 257.4 257.8 260.1 259.1 259.6 263.1 262.3 260.7 258.9 258.2 260.7 259.4 258.5 257.8 255.5 253.9 252.9 250.5 251.8 253.6 254.3 243.9 240.8 238.4 234.2 230.1 228.5 222.2 219.7 218.6 214.8 213.8 214.1 214.1 214.1 214.1 214.1 214.3 215.2 214.6 214.9 215.6 215.3 213.7 213.1 213.7 216.7 218 219.1 218.7 218.8 219.8 222.3 220.3 217.6 215.6 214.6 214.1 213.6 214.1 212 209.8 209.6 208.1 207.8 206 196.7 193.5 191.5 188.2 185.9 182.8 179.4 177.2 177.1 177.6 177.5 178 177.6 179 179.9 180.4 180.8 181 180.9 180.7 181.7 183 186.3 188.8 189.9 192.7 195.5 198.5 200.9 201.9 203.2 205.8 207.9 210.4 212.1 212.3 215.5 218.6 222.1 227
35.1 42.9 48.5 57.8 69.8 74.3 79.4 89.7 100 105.6 112.9 120.4 124.5 131.6 137.8 144.4 151 156.9 167.2 176.7 172.6 173.8 176.5 186 198.5 206.4 204.8 210.3 215.6 216.9 215.6 217.3 218.9 222.3 223.9 224.6 226.6 228.2 229.3 231.3 233.3 232.8 231.5 231.3 231.4 231.5 230.3 227.9 224.9 220.5 219.6 219.6 219.6 219.6 219.6 219.6 219.6 219.6 219.6 219.6 219.6 219.6 219.6 219.6 219.6 219.6 219.6 219.2 221.8 223.3 224.8 225.8 226.3 226.5 226.6 226.7 228.1 230.4 232.6 234.9 236.8 238.7 240.6 242.5 244.3 246.2 248.1 250 251.7 253.3 254.8 256.4 258.1 258.5 258.7 259.3 261.1 261.3 262.4 263.9 263.3 260.1 258.6 259.7 261 259.3 261.1 260.7 255.9 255.5 256.5 254.6 251.7 253.1 251.3 245.1 237.6 236.2 231.1 229.8 225.6 220.3 217.4 215 214.3 213.5 214.1 214.1 214.1 214.1 214.1 214.5 214.5 214.6 214.8 214.3 214.3 216.2 216.6 217.5 219.4 220.5 221.3 220.7 221.2 221.2 221 219.6 217.8 216 215.3 215.7 216.1 213.8 212.6 210.8 209.6 208.7 208.4 206 196.2 192.1 189 187.6 184.7 182.3 177.7 176.4 176.3 177.2 177.6 178.2 179 177.3 179.8 180.4 180.9 181.3 181.4 181.3 185.5 186.2 188.5 190.2 191.9 193.4 196.3 199.7 202 202.9 203.7 205.7 208.1 210.6 212.1 216.9 222.1 224.3 228.1 232.8
38.5 49.3 56.9 63.2 71.3 81.4 90.4 93.5 101.5 110.4 117.4 123.5 127.6 135.5 142.4 149.2 154.9 161.3 177.8 171.2 172.4 176.4 183.6 197.2 205.4 203.5 208.9 214.9 216.5 215 215.7 218.5 223.8 224.9 224.7 224.8 227.4 229.4 231.5 233.5 235 234.4 233.3 232.5 232.2 231.1 229 226.1 222.7 219.6 219.6 219.6 219.6 219.6 219.6 219.6 219.6 219.6 219.6 219.6 219.6 219.6 219.6 219.6 219.6 219.6 220.7 220.1 221.9 223.4 224.7 226 226.4 226.5 227.1 227.8 230.2 232.5 234.7 236.8 238.7 240.6 242.6 244.7 246.7 248.6 250.5 252.3 253.9 255.5 257.1 259 261.6 260.4 260 261.2 262.2 263.4 262 263.9 264.6 260.5 259.7 260.6 261.9 258.9 261.3 260.5 257 258.5 258.3 255 253.1 249.9 249.1 244.8 240.7 234 229.2 226.3 222.5 218.9 217.5 214.9 214.3 213.7 213.9 213.6 213.5 214.1 214.1 215.3 215.3 214.8 214 214 216.6 219 220.3 220 221.9 223.2 223.1 222.3 221.2 221 220.7 219.2 217.5 216.2 216.7 216.8 215.1 213.2 212.6 211.8 210.5 210.5 210.5 206.5 196.9 192.9 190.6 186.8 183.7 180.2 176.5 177.4 176.1 177.5 177.8 178.3 179.5 179.2 178.1 180.5 180.9 181.4 181.8 183.8 190.2 188.5 189.7 191.4 193.3 195.8 198.3 201.5 202.5 203.5 204.6 205.8 208.8 211.7 215.3 222.3 228.1 230.8 234.6 238.4
41 51.8 63.9 72.2 79.9 88.6 93.4 100.1 105.9 113.2 121.5 126.3 132.5 140 147.2 154.4 158.8 169.9 167.7 170 175.7 182.1 196 202.7 203.1 208.1 214.2 215.2 214.2 213.9 218.9 222.1 223.9 221.9 223.4 226.1 229 232.5 233.9 235.7 236.5 235.8 234.9 233.8 232.4 230.3 228.4 224.2 220.4 219.6 219.6 219.6 219.6 219.6 219.6 219.6 219.6 219.6 219.6 219.6 219.6 219.6 219.6 219.6 219.6 220.8 221.9 221.8 222.7 224.3 225.6 226.4 227.3 228 228.6 229.7 232.1 234.5 236.8 238.7 240.7 242.8 244.9 247 249.3 251.2 253 254.9 256.1 257.7 259.3 261.2 262.6 261.3 261.2 261.9 263 263.2 262.3 263.1 263.3 262.6 261.5 262.3 260.2 260.6 261.9 258.8 258.2 260.6 259.1 254 251 251.9 248.9 242.5 236.8 232.1 227.4 222.4 221.6 218.1 216.3 215.3 214.6 214.1 213.8 213.5 213.6 214.1 215 215.4 214.6 213.8 213.4 216.4 219 222.1 223.1 223.1 224.2 224.1 223.7 223.6 222.4 221.2 220.2 218.8 217.5 217.5 218.2 217.5 215.7 213.4 212.8 212.1 211.9 212.8 213 205.5 196.1 194 191 186.1 183.1 177.6 176.7 177.4 175.9 176.7 177.4 178.3 179.4 180.2 178.3 180.3 180.9 181.4 181.8 187.1 190.5 188.1 191.3 193.5 195.7 197.9 200.1 202.1 203.4 204.5 205.6 207.1 209.8 215.5 221.9 228 234.3 237.6 241.2 244.3
49.9 52.1 64.3 75.4 84.7 93.1 97.5 104.5 111.3 115.9 124.8 131.8 137.9 144.4 151.1 157.4 161.9 165.5 168 172.5 180.9 194.7 202.1 202.3 208.8 212.5 213.9 215 213.5 216 219.8 223.5 222.3 221.5 224.2 228.6 233.3 235.7 238.2 238.7 237.9 237.1 235.9 234.5 232.8 230.2 226.9 222.4 219.6 219.6 219.6 219.6 219.6 219.6 219.6 219.6 219.6 219.6 219.6 219.6 219.6 219.6 219.6 219.6 219.6 221.6 221.5 222.4 225.6 226.4 226.8 227.6 228.5 229.4 230.1 231.6 234 236.4 238.8 240.9 243 245.1 247.2 249.3 251.3 253.7 255.6 257.5 258.3 259.9 261.5 262.9 264 263.8 262.7 264.2 264 263.8 264.4 263.6 265.3 263.5 261.9 262.3 260.6 262.1 259.9 259.1 259.2 261.7 259.1 254.7 252.4 249.9 246.7 239.1 235 230.1 224.8 221.1 220 218.7 216.7 215.6 215 214.6 214.3 214 213.7 214.2 214.4 214.5 214.1 213.2 214.7 218 221.4 225 226 226.3 226.5 224.8 223.9 224 223.3 221.4 219.9 218.7 218.6 218.5 218.6 218.5 213.6 213.1 213.3 212.9 214.8 215.6 215.1 202.8 195.6 193.1 190 184.6 180 177 178 177.9 178.9 177.9 178.7 179.1 178.5 181.1 180.8 178 180.7 181.3 184.4 188.8 190.9 190.2 191.3 193.3 195.5 197.7 199.9 201.8 203.7 205 206.4 209 213.8 220.3 228.6 236.1 242 245.1 247.6 250.2
63.7 64.6 67.4 80.6 89.7 97.6 102 109.3 116.6 122.2 128.4 137.1 142.8 148.5 154.7 159.6 163.9 166.6 170.8 180.4 192.2 200.5 201.6 205.1 210 213.5 214.4 213.2 215 219.1 223 220.9 219.8 222 226.3 231.2 236.8 240.6 239.5 237.8 238.7 238.3 237 235 232.4 229.5 225.4 220.1 219.6 219.6 219.6 219.6 219.6 219.6 219.6 219.6 219.6 219.6 219.6 219.6 219.6 219.6 219.6 219.6 220.9 221.6 221.7 224.5 227.5 227.4 227.8 228.7 229.7 230.6 231.6 233.6 236.1 238.6 241.1 243.2 245.3 247.4 249.5 251.5 253.6 256 258.2 260.1 260.5 262.1 263.5 264 266 264.7 264.6 265 264.6 265.2 265.2 265.2 264.2 263.3 263.5 262.4 261.8 261.9 261.2 260.9 260.8 261.1 257.8 254.2 250.8 246.5 239.9 236.9 232.9 227.5 222.9 220.3 219.3 218.3 217.2 215.9 215.4 215.1 214.7 214.4 214.2 214.4 213.8 213.9 213.6 214.2 219.7 222.3 224.9 226.7 227.9 228.4 228.5 226.7 225.4 225.8 224 222.1 221.2 220.2 218.7 218.7 218.1 216.4 213 212.4 212.6 214.7 218.4 220 213.5 198.8 193.7 191.7 188 182.9 178.9 178.3 178.5 175.9 179 177.6 179.9 179.8 179.3 179.7 181.8 180.4 179.5 180.9 187.3 191.2 191.2 190.8 191.7 193.3 195.2 197.4 199.5 201.4 203.4 205.2 210.1 216 221.3 227.5 236.7 244.2 248.3 251.1 253.2 255.6
66.7 77.8 78.6 81.1 94 101.7 107.8 114.8 121.8 128 132.3 142.1 145.8 151.8 157 161.6 165.4 169.1 178.5 189.9 199.2 200.8 205.6 210.1 211.2 213.6 214.5 214.9 217.9 222.4 222.4 219.4 220.2 225.4 231.8 237.1 240.2 241.5 238.3 237.9 238.9 239.6 237.3 234.6 231.4 228.3 224 219.6 219.6 219.6 219.6 219.6 219.6 219.6 219.6 219.6 219.6 219.6 219.6 219.6 219.6 219.6 219.6 220.3 221.4 221.4 223.9 227.2 227.3 227.6 228.9 230.4 231.3 232.3 233.2 235.6 238.2 240.8 243.3 245.5 247.6 249.7 251.8 253.8 255.9 258 260.8 262.5 262.7 264 265.1 265.4 265.9 265.5 266.3 265.4 266.1 266.7 266.1 264.9 263.7 263.1 262.8 263.1 263.2 263.6 263 263.4 260.9 258.3 256.9 252.5 247 242.4 238.6 234.1 229.6 225.4 222.1 219.5 218.6 217.6 216.7 216.3 215.9 215.5 215.6 215.7 215.8 215.9 215.1 215.6 216.1 219.7 224.6 227.3 228.8 229.5 229.6 229.6 229.7 228.1 228.1 227.3 224.7 223.3 222.6 221.6 220.4 218.8 217.1 212.8 212.4 211.7 214.2 217.3 221.6 224.5 211.4 192.9 192 189.7 182.5 180.4 180.2 178.4 178.9 178.8 179.1 178.6 180.6 180.6 179.8 179.5 181.6 182.3 180 180.1 186.5 191.1 191.2 191.3 192.1 193.7 195.4 197.2 199.2 201.4 203.9 207.2 213 223.6 228.9 236.5 245.8 249.2 252.9 256 258.8 261
68.7 79.8 88.1 92.8 94.1 103.9 112.3 119.5 125 131.3 137.7 143.8 150.6 155.7 158.8 162.2 167.6 176.6 187.9 194.9 198.1 203.2 209.5 211.3 211.1 213.2 214.3 217.6 222.6 223.7 216.6 218.3 223.1 229 238.1 244.1 240.9 241.9 239.6 240.5 241.3 240.6 236.7 233.2 230.1 226.4 221.7 219.6 219.6 219.6 219.6 219.6 219.6 219.6 219.6 219.6 219.6 219.6 219.6 219.6 219.6 219.6 219.7 221.5 220.7 223.4 226.1 227.7 227.7 228.1 229.7 231.2 232.7 234 235 237.6 240.2 242.8 245.7 248.2 250 252 254 256.1 258.2 260.3 262.7 264.6 265.2 266.3 267 266.4 268.3 266.4 267.4 266.1 266.9 267.7 266.7 265.2 264.2 262.9 262.1 263.4 263.9 264 264.2 262.4 258.4 255.4 253.3 250 245.1 242 238.8 232.8 226.6 223.5 220.5 219 218 217.4 217.2 217 216.9 217 217.1 217.2 217.6 217.9 217.2 217.4 221.3 223.7 228.1 231.1 233.1 234 233.2 232.2 231.2 230.9 231.4 228.8 225.9 224.2 223.9 223 222.2 220.7 214.4 212.1 211.5 211.6 213 222.4 225.9 230.7 203.4 190.8 189.5 184.9 179 178.4 178.3 178.8 179 179.8 180.6 179.8 180 181 180.2 180.4 182.2 182.3 181.9 180 183 191.7 191.8 191.9 192.2 193.6 195.3 197.2 200.4 203.6 206.6 212.7 221.3 230.8 238.4 246.5 250.3 254.1 257.6 261.1 264.7 266.8
75.9 84.5 91.8 97.8 103.1 107.5 112.9 120.3 127.2 135.1 141.8 147.9 155.9 159.1 161.9 167.2 173.2 181.2 192.1 196.3 202 206.9 211 211 210.3 212.3 213 217.3 214.9 213.3 214.1 218.6 225.4 233 242.3 240 241.6 241.5 240.1 242.6 242 239.7 235.9 232 227.5 223.5 219.6 219.6 219.6 219.6 219.6 219.6 219.6 219.6 219.6 219.6 219.6 219.6 219.6 219.6 219.6 219.8 220.1 220.7 222.8 224.5 227.3 228 228.3 229.2 230.8 232.4 233.9 235.4 237.1 239.8 242.5 245.5 248.7 251.6 253.4 254.8 256.7 258.7 260.7 262.6 264.7 266.2 267.7 267.9 267.6 267.8 269.6 267.1 267.4 267 269.5 267.8 266.4 265.8 264.2 262.9 263 264.4 264.2 265.3 263.7 259.8 255.8 252.6 251.7 248.6 244.4 242.9 238.8 233.1 225.5 222.3 220 218.6 218.3 218.5 218.4 218.2 218.1 218.6 218.9 219.9 220.6 220.2 219.8 222.6 227.1 228.6 231.5 233.5 236 238.7 238.4 236.2 234.4 234 234.2 228.6 226.8 224.9 225 225.9 223.6 221.9 212.8 211.5 211.6 212.3 221.7 228.1 225.5 215.2 195 188.7 185.9 179.4 178.2 177.9 176.5 178.4 179.5 181.2 181.4 179.9 181 181.1 180.2 179.4 182 182.9 182.8 182.5 181.1 189.4 192.1 192.8 193.3 193.6 195 197.8 202.4 205.7 209.4 218.7 229.8 238.5 248.2 252.4 255.8 259.8 263.9 267.3 270.9 273
82.3 89.3 95.1 101.2 107.3 113.6 119.2 125.1 131.1 140.4 146.9 154 156 161.5 165.6 172.6 181.7 188.3 193.7 200.5 205 206.7 208.8 210.5 206.5 207.7 204.4 203.8 203.4 209.8 215.1 223.2 230.2 234.2 238.5 241.8 243.6 242.5 243.5 244 241.8 238.8 234.6 230.3 225.6 221 219.6 219.6 219.6 219.6 219.6 219.6 219.6 219.6 219.6 219.6 219.6 219.6 219.6 219.6 219.6 220.1 220.5 222.5 224.6 226.5 228.4 229.1 229.5 230.6 232.6 234.6 236.2 237.8 239.8 242.1 245.2 248.4 251.6 254.8 256.8 258.5 259.9 261.5 263.5 265.4 267.1 268.2 268.8 268.5 268.2 269 269.1 267.9 268.3 268.5 270.4 266.9 267.3 266 263.7 264.2 264 265.7 267.1 263.5 260.6 257.4 253.7 251.7 250.8 247.5 242.5 240.8 236.3 230.6 224.6 221.7 219.6 218.7 219 219.3 219.4 219.3 219.5 220.8 222.3 223.2 222.9 222.7 224.2 228.2 232.5 234.7 235.6 235 235.5 241.9 242.1 239.9 237.4 235.9 231.6 228.6 227.2 226 229 228.4 224.9 220.7 211.1 209.8 209.1 217.3 227.2 223.6 217.3 204.8 191.8 187.7 180.8 178.5 178.6 178.5 178.4 179.5 180.8 181.7 180.5 180 181 181.4 180.4 179.6 181.7 185.1 185.2 185.1 182.2 183.4 190.8 192.2 192.8 193.5 196.1 200.3 206 212.5 218.1 226.8 238.3 246.6 253.2 257.2 261 265.8 270.4 273.7 277.1 279
87.3 93.4 99.3 105.5 111.6 118.3 124.2 131.2 138.8 144.6 152.1 158.6 158.2 162.8 168.2 175.4 186.7 191.7 196.6 199.3 202.7 205 202.9 202.3 196 198.4 194.4 196.3 202.3 210.9 220.1 228.8 234.3 238.9 242.6 244.3 243.7 244.1 245 243.9 241.4 237.8 232.9 228.6 223.6 219.6 219.6 219.6 219.6 219.6 219.6 219.6 219.6 219.6 219.6 219.6 219.6 219.6 219.6 219.6 219.6 220 220.6 223.2 225.8 227.3 228.8 230.3 230.7 232.1 234.1 236.1 238.5 240.3 242.7 245.6 248.6 251.5 254.7 257.6 259.8 262.1 263.7 265 266 268.2 269.3 269.8 269.7 269.6 269.7 270.2 269.2 268.9 269.7 271.5 268.5 266.6 266.3 265.5 263.9 264 264.8 268.1 266.6 261.5 257.6 255.3 254.8 252.7 248.9 245.9 240.6 236.6 232.1 228.4 224.3 221.9 220.2 218.8 219.6 219.9 220.1 220.3 221.6 223.4 225.7 226.4 226.3 227.3 230.3 234 237.1 238.2 239.2 239.7 238.9 241.3 243.7 243.1 240.8 237.5 232.7 229.6 228 228.2 229.2 227.8 224.6 218.5 209.7 206.7 207.8 213.6 216.6 215.4 209.9 198.1 190.8 185.2 178.6 178.8 178.5 177.5 179.2 181.3 182.5 180.8 180.8 179.7 180.6 181.4 180.8 180.2 181.7 185.9 186.7 187.4 182.3 183.6 190.3 191.2 192.4 195.9 201.8 200.3 211.3 217.5 225.5 236.4 248.8 254.1 258.7 262.4 267 271.8 276.6 280.2 283.3 286
90.5 97.2 103.4 109.6 115.8 122.6 129.3 136.4 144.4 149.3 155.2 162.1 160.4 166.7 174.4 180.7 188.2 194.5 192.9 197.8 200.8 197.8 195.3 194.2 191.7 190.3 192.9 194.6 207.9 217 225.7 234.3 239.1 243.1 244.1 244.6 244 247.2 245.4 243.9 240.3 235.7 230.8 225.3 219.6 219.6 219.6 219.6 219.6 219.6 219.6 219.6 219.6 219.6 219.6 219.6 219.6 219.6 219.6 219.6 219.2 221.6 222.7 224.9 226.1 227.6 229.3 231.3 232 233.5 237.2 239.3 241.3 243.4 246.3 249.2 252.2 255.1 257.9 260.4 262.6 264.7 266.2 266.9 267.8 269.3 270.5 270.8 271 271 271.3 270.6 269.9 271.4 272.1 269.1 268.6 266.3 267 266.1 264.4 263.2 265.4 265.7 262.2 258.6 256.6 256.4 255.3 252.9 251 248.1 243.9 236.8 231.4 227.7 224.8 222.7 221 219.4 219.2 220.6 220.8 222.7 223.7 226 228.4 230.5 231.3 234.2 238.4 242.3 243.2 243.8 244 244.2 245.2 245.2 245 244.5 242.3 239.4 234.7 230.6 229.2 229.1 228.7 226.6 223.8 218.5 209.4 205.5 206 210.2 210.4 210.8 204 192.4 187.7 178.9 178.9 179 179.1 178.1 179 181 181.5 180.7 180.8 180.9 181.3 181.7 185.4 182 183.1 187.7 189 188.7 182.7 183.9 190.4 191.4 192.7 198.9 197.2 208.6 216.3 222.3 235.9 245.6 254.4 260.7 264.2 267.7 273 278.3 282.7 286.6 289.6 292.3
93.7 101.1 107.5 113.8 120.1 127.4 133.3 142 149.1 153.9 157.7 162.2 164 170.5 177.4 183.7 190.8 192.1 191.1 193.9 192.3 189.2 189.6 189.6 189.4 190.8 199.3 207.6 216 226.7 233.6 240 243.2 245.8 246.8 244.5 249.7 247.6 245.2 242.1 237.7 232.9 228.1 222.6 219.6 219.6 219.6 219.6 219.6 219.6 219.6 219.6 219.6 219.6 219.6 219.6 219.6 219.6 219.6 219.8 220 221.4 223.6 225.9 226.7 228 229.8 232.2 234.6 236 239.1 241.5 243.9 246.6 249.3 252 254.7 257.4 260.1 262.7 265.2 266.7 268.2 269.3 270 270.7 271.9 271.9 272.1 272.2 271.9 271.4 272.6 272 271.2 269.5 268.1 266.7 267 267.5 265 263.5 263.2 263 260.3 258.8 257.7 257.7 257.3 253.3 251.9 249 243 235.4 230.3 227.7 225.4 223.5 221.8 220 219.9 222.2 225.7 225.8 226 228.6 230.8 234.3 237.5 240.6 244.8 247.3 248.3 248.4 249 247.8 247.8 247.7 246.8 245.6 243.7 241 236.6 232.7 230.7 230.5 228.8 226.2 223.5 217.9 207.5 203.8 204.2 207.5 206.5 201.9 195.2 188.9 183.5 178.8 179 179.4 179.4 179.9 180.2 181 180.5 181.9 183.3 184.7 184.7 186.2 188.5 187.1 184.6 186.6 191.7 190.7 184.7 182.3 188.9 190.9 192.1 197.6 200 212.2 220.3 232 243.2 251.8 258.9 265.3 268.9 273.4 279.1 284.5 288.3 293.2 296.2 298.4
98.3 104.7 111.1 118.4 125.6 132.9 141.8 148.8 152.9 156.9 160.8 164 167.1 171.1 180.1 183.5 184.7 183.7 183.6 184.4 185.6 186.6 187.7 190.1 191.4 199.2 208.2 215.6 225.1 234.6 240.2 244.5 245.6 247.7 246.1 250.6 250.7 246.1 243.4 239.5 236.2 230.9 225.4 220.3 219.6 219.6 219.6 219.6 219.6 219.6 219.6 219.6 219.6 219.6 219.6 219.6 219.6 219.6 219.6 220.6 220.3 222.5 224.9 226.6 227.5 228.7 231.1 234 236.8 239.1 241 243.6 246.4 249 251.6 254.3 257 259.7 262.4 265 267.5 269.4 270.5 271.6 272 272.2 273.5 273.2 273.3 273 272.9 273 274.7 273.4 272.4 269.7 268.4 267.1 266.7 267.4 265.7 264.1 263 262 261.2 259.8 258.9 258.8 257.1 255.9 253 248.7 242.8 235.5 231.4 228.6 226.4 224.1 222.4 221.2 222.4 226.2 229.4 229.2 229.6 233.7 238 241.5 244.6 247.6 250.8 252.4 252.9 253.9 253.8 252.5 251.1 250 249.5 247.5 245.4 242.3 238.4 236.2 233.7 232.9 230.9 227.3 224.4 215.3 206.4 201.8 201.2 199.8 197.2 192.6 188.1 185.2 180.4 179.3 179.2 179.2 179.9 180.8 181.1 181.6 183.9 185.3 185.5 185.4 185.5 186.7 190.3 191.9 186.6 188.8 193.5 190.4 186.2 183.2 186.7 190.7 197.5 193.8 207.4 216.1 228.7 240.9 248.5 258.3 263.6 269.1 273.2 279 284.9 290.6 295.9 299.8 302.8 304.1
102.2 108.3 114.5 122.8 131.8 139.1 147.3 152.7 156.5 160.2 163.8 166.4 169.3 170.3 173.5 177.7 178.9 177.9 180.1 183.8 187.4 189.4 191.6 196.2 202.7 210.5 215.8 224.6 234 240.6 244.9 246.6 245 246.8 251.1 251.2 248.2 245.7 242.5 238.3 234.1 228.9 222.5 219.6 219.6 219.6 219.6 219.6 219.6 219.6 219.6 219.6 219.6 219.6 219.6 219.6 219.7 219.6 219.6 218.8 220.8 224 225.6 227.7 228.5 230.9 233.1 235.2 237.8 240.2 243.3 246.2 248.9 251.4 253.9 256.5 259.2 261.9 264.6 267.2 269.7 272.1 272.4 272.7 273.4 274.1 275.1 274.8 274.5 273.6 274.7 274.5 275.3 274 272.7 270.3 269 267.7 266.4 266.5 265 264.5 263.4 262.4 261.8 260.6 259.1 258 257.8 255 250.1 245 239.9 236.3 232.6 229.8 227.4 225 223.6 223.2 223.9 226 230.3 233.6 235.8 240.2 245.1 248.6 251.7 254.8 257.6 258.7 258.8 258.9 258.6 257.3 255.8 254.3 251.6 249.3 246.5 243.1 240.9 237.8 236.4 234.1 231 227.9 221.6 214.1 206.3 198.9 195 190.7 188.7 187.4 186.3 182.9 181.4 180 180 179.5 181.4 182.2 182.9 183.2 184.2 186.1 187.5 189 187.4 190.7 190.7 193 187.9 187.4 192.8 188.5 183.1 185.3 187.1 193.3 194.1 196.8 210.3 223.6 235.6 247.6 258.4 265 267.8 272.3 279.9 285.3 290.8 296.4 301.8 307 309.7 310.3
106.1 112.6 120.3 126.9 135.8 144.3 150.5 155.3 158.7 162.5 166 168.5 170.6 172.6 173.4 176 177.7 178.8 182.4 187.3 189.2 191.9 197.1 202.3 209.4 217.7 223.5 230.9 235.8 242.9 246 243.9 244.3 247.6 248.7 248.6 245 244.2 240.6 237.5 233.1 226.8 219.7 219.6 219.6 219.6 219.6 219.6 219.6 219.6 219.6 219.6 219.6 219.6 219.6 219.9 220.8 219.9 219.6 219.7 223.2 225.1 225.9 228 230.8 233.2 235.4 236.9 238.8 242.8 246 248.8 251.3 253.9 256.4 258.9 261.5 264.2 266.9 269.4 271.8 273.5 273.2 273.6 274.4 275.2 276.5 275.1 274.6 274.6 275.2 275.4 275.8 274.5 273 271.2 269.5 268.3 267 265.7 265.5 264.9 264 263.7 263.4 262.3 260.2 259.9 261.3 259.4 254 247.9 242.8 238.9 234.9 232.6 229.2 225.5 224.7 226.1 226.8 228.9 234.7 240.2 241.9 246.1 250.6 255 257.9 259.8 261.7 263.3 263.6 263.7 262.5 259.5 258.1 258 255.4 249.8 248.3 246.4 246.8 240 237.4 234.5 228.3 223.4 217.6 210.9 203.4 196.9 193.3 188.6 186 184.9 180.5 179.7 181.6 180.4 180.8 180.6 182.5 183.2 183.8 184.9 187.5 188.1 188.5 190.3 192.6 192.4 194.6 193.1 189.8 188.8 190 186.8 182.8 185 186.9 193.8 195.8 201.3 214.3 229.7 242 253.7 263.5 269.1 272.6 278.3 287.2 292.6 298.1 303.9 308.8 313.8 317.4 318.4
110.8 118.5 126.7 133.9 140.2 148.7 153.7 157.7 161.1 165 168.1 170 172.4 174.3 175.3 179.2 183.4 186.2 185 189.9 193.1 197.9 202.5 207.1 213.3 221.2 226.9 231.9 235.5 237.9 239.9 241.3 244 247.7 248.2 246.5 245.7 242.9 239.8 237.1 230.5 223.8 219.6 219.6 219.6 219.6 219.6 219.6 219.6 219.6 219.6 219.6 219.6 219.6 219.6 219.6 219.6 220 219.3 220.7 224.8 225.4 226.2 228.2 231.6 235.6 237 238.5 242.1 246.2 248.6 251.3 253.8 256.3 258.9 261.4 263.9 266.4 269.1 271.3 272.9 274.6 275.1 274.7 275.5 276.7 277.7 277 275.6 274.9 275.6 277.2 276.1 274.6 273.1 271.6 270.2 269.1 268 267 266.2 265.6 265.4 264.9 264.6 264.4 263 263 263.9 258.2 253.1 250 245.8 241.5 238 234.6 230.9 227.9 226.2 228.3 232.3 237 241.7 244.4 247.8 253.3 257.7 261.4 264.2 264.9 265.7 267.6 268.3 267.8 266.1 261.7 261.1 260.9 256 250.9 250.4 249.7 247.4 246 242.6 238.2 234.4 225.5 215.5 208.5 202.1 195.4 191.7 187.6 183.6 183.1 180.6 179.7 180.6 180.5 181.1 182.5 184.8 187 185.8 187.5 189.9 189.5 188.8 192.4 193.7 193.9 194.5 194.6 192.1 189.6 188.3 187 184.1 183.7 186.9 193.7 196.6 208.8 220.3 235.7 246.8 259 267.6 272.9 276.8 285.3 292.8 299.7 305.7 311.5 316 320.8 324.1 326.7
116.1 124.8 133.2 140.9 147.3 152.6 156.3 159.9 164.6 168.1 170.1 170.9 172.6 176.7 179.6 184.9 189.3 190.7 189.9 192.6 197.6 202.8 207.7 211.6 218.3 225.3 230.3 234.5 237.2 239.6 240.4 242.6 244.8 247.1 248.6 247.6 244.6 242.4 239.5 235.5 227.5 221.6 219.6 219.6 219.6 219.6 219.6 219.6 219.6 219.6 219.6 219.6 219.6 219.6 221.5 219.4 219.4 219.8 220.6 224.2 224.4 225.6 227.1 229.5 233.4 237.4 238.4 241.5 245.6 248.7 251.1 253.6 256.1 258.7 261.2 263.7 266.2 268.7 270.7 272.4 274.1 275.7 276.7 276.8 276.8 278.3 278.6 278 276.8 276.3 277.3 277.2 275.8 274.3 272.8 271.5 271.4 270.6 269.4 268.7 268.1 267.4 268 267.6 266.7 265.7 265.9 266.9 264.2 259.3 255.3 252.5 248.7 244.3 240 236.3 232.7 229.6 227.9 233.3 240.6 244.1 245.9 247.9 253 259.4 263.6 267.6 270.4 271.6 272.3 272.9 272.9 272.2 269.9 265.1 263.4 260.6 254.1 253.4 251.9 251.5 251.7 251 244.7 241.6 235.4 225.3 215.4 205.8 199.4 195 189.7 185.8 184.1 182.1 180 180.9 181.3 181.5 180.5 184 191 188.1 186.7 191.1 191 191.4 191.8 193.4 193.7 194.4 194.1 194.4 193.8 191.9 187.9 186.5 185.4 184.9 187.8 193.1 198.3 214.8 228 242.4 254 263.7 271.1 276.3 282.4 292.3 299.6 306 312.1 318.1 323.2 328 334.5 335.2
120.4 129.5 138.7 145.5 150.9 155.1 158.7 163.6 168.1 170.5 171.1 172.4 175.9 180 184.8 190.5 192.5 194.4 196.3 198.1 202.1 206.4 211.7 217.1 223.3 228.8 232.8 236.9 239.5 240.7 241.6 243.7 246.8 249.7 249.5 247.4 244.1 242.5 239 232 225.7 222.8 220.5 219.6 219.6 219.6 219.6 219.6 219.6 219.6 219.6 219 219.6 220.5 219.9 219.9 220 220.2 220.7 224.4 225.3 226.4 228.9 231.7 235.3 237.9 241 245 248.3 250.8 253.2 255.6 258.2 260.7 263.2 265.7 268.3 270.3 271.9 273.6 275.3 276.7 277.8 277.8 278.6 279.4 279.6 279.6 278.3 278.8 278.3 276.3 275.5 273.9 272.4 272.3 272.2 272.2 271.2 270.8 270.2 270.4 271.6 273.2 270.4 267.5 267.8 269.7 266 261.3 258.8 254.6 250.7 246.8 243.6 238 234.4 231.4 231.9 238.5 244.1 247.4 249.6 251.5 257.5 263.6 267.3 271.6 277.2 278 277.6 277.5 277.8 276.6 274.1 268.9 266.4 258.1 255.2 256.9 255.3 253.3 254.7 255.5 246.9 242.9 233.8 224.4 214.9 206.2 199.9 194 188.3 187.1 186.4 182 181.8 181.5 181.2 180 183.5 187.5 191.9 189.1 186.7 193.1 193.6 192.4 193.3 193.2 193.7 194.1 194.5 194 193.7 191.2 187.4 186.3 184.9 184.6 190.2 195.1 204.7 221.2 233.5 247.9 259.7 268.3 274.8 280.2 288.3 298.3 306.2 314.4 318.9 324.5 331.1 340.3 344.8 340.6
126 135.6 143.3 149.3 153.8 157.5 161.6 166.7 170.1 171.1 172.1 175.8 180.7 186 189.1 193.5 196.3 198.2 201 203.8 207 210.1 215.3 221.9 227.2 232.3 236.1 239.1 240.6 242.1 242.6 244.7 248.8 251.2 249.3 246.5 243.6 241.1 236.2 231 224.9 223.5 222 219.6 219.6 219.6 219.6 219.6 219.6 219.6 219.9 219.9 219.8 222.1 220 220.2 220.4 220.6 223.2 223.6 226.4 227.4 230.6 235.1 237.2 238.9 244.5 247.8 250.6 252.9 255.3 257.7 260.2 262.7 265.2 267.8 269.8 271.5 273.1 274.8 276.4 277.5 278.7 278.9 279.9 280.4 280.6 280.7 280.2 279.7 277.6 276.5 275.1 273.6 273.2 273.1 273 273 272.9 272.9 273 273.4 274 277.7 272.4 268.5 272.8 273.2 269.3 265.6 263.2 259 254.5 249.5 246.1 240.5 237.5 236.1 238.5 242.8 248.8 249.9 252.7 255.1 262.4 268.4 271.9 277.4 280.4 282.9 282.1 282.3 282.2 280.8 278.2 272.8 266.3 261.1 261.3 261.4 259.4 256.6 256.5 260.9 251.2 242.4 233.1 224.9 217.1 207.5 200 192.9 187 185.3 183.1 181.5 182.2 181.7 179.5 181.1 185 188.4 191.8 188.3 187.4 191.6 192.3 193.3 193.7 193.4 193.8 194.2 194.5 195.7 194.2 188.2 187.3 186.6 186.1 191.6 191.8 196.8 213.3 228.3 239.4 252.7 264.9 272.6 278.7 284.8 294.9 306.8 315.2 321.6 325.6 332.9 340.2 348 349.4 346.1
131 140.2 147.4 151.9 156.6 160.3 163.8 168 170.2 171.7 175.2 180.1 185.7 191 193.2 196.5 199.3 202 205.1 207.3 209.3 213.9 220.9 226.5 230 234.1 237.8 239.5 241.2 242.7 244.8 249 251.3 252.1 249 246.5 242.1 237.2 232.7 230.3 227.9 224.5 222.4 220.4 219.6 219.6 219.6 219.6 219.9 220.9 221.5 219.9 221.7 221.4 220.1 220.4 220.6 222.4 223.3 225.3 228.1 230.4 233.5 235.9 237.9 242.4 246.5 249.8 252.5 255 257.4 259.8 262.2 264.8 267.3 269.3 271 272.6 274.3 276 277.2 278.3 279.5 279.9 280.8 281 280.9 280.8 280 279.9 278.4 276.6 274.8 274.2 274.1 274 273.9 274.2 274 276.3 277.1 277.8 278.1 278.2 271.8 274.4 279 276.9 272.9 270.6 266.5 262.2 256.2 252.4 248 244.3 240.9 241.5 246.8 249.6 253.4 252.4 253.6 260.4 269 273.8 278.2 281.5 284.6 286.6 287.9 288.7 287.9 284.4 278.8 269.3 264.9 265.3 266.9 266.4 263.6 260.6 259.2 259.6 251.4 241.8 233 226.7 223.2 209.4 199.7 192.8 187.9 184 181 181.1 179.5 180.9 182.3 184.5 186.8 190.4 188.2 187.8 188.7 192.6 192.6 194 194 193.8 194 194.3 194.7 195.5 191 185.7 187.4 187.3 187.8 191.6 194.4 201.2 221.7 233.6 246.9 258.8 269.1 275.8 283 290.5 300.9 314.1 323.5 326.7 330.6 338.3 349.9 353.8 355.1 351.7
136.3 143.3 148.6 153.8 158.7 163.2 166.6 169.9 172 174.2 179.7 184.8 190.4 194.1 196.7 199.9 202.7 204.2 206.5 208.4 211.7 219.2 226.2 230.8 232.9 235.3 238.2 239.5 241.2 244.9 248.6 251.7 253 253.1 248 245.5 240 236.2 234 232.8 231.5 229.4 226.1 220.5 219.6 219.6 219.6 219.6 222.1 221.4 221.1 220.4 223.5 221 220.8 220.5 221.6 222.3 223.8 227.3 230.9 232.9 234.3 236.7 239.5 245.3 248.6 251.5 254.1 256.7 259.3 261.9 264.3 266.8 268.8 270.5 272.2 273.8 275.5 276.8 278 279.1 280.3 281 281.5 281.4 281.4 280.8 280.2 279.3 277.8 276 274.8 274.1 274.2 274.3 276.3 276.7 277.9 281 281.9 282 279.9 280.2 277.2 281.7 284 281 277.9 274.8 270.6 264.6 258.7 255.5 252.8 249.4 246 247.3 252.9 258.4 256.6 253.5 259.1 267.6 275 282.8 283.3 286.1 288.4 288.9 290.2 295.7 295 285.8 275.1 267.5 265 267.3 270.7 270 267.3 265.4 263.9 259.5 251.6 239.8 234.6 229.4 226.5 203.8 197.1 193.6 187.8 183.4 181.9 182 181.8 180.8 183.7 187.1 191.2 188.7 188.5 187.8 191.6 192.1 194 194.2 194.3 194.1 194.1 194.5 194.4 193 186.6 188 187.9 188 189.3 189.5 194.9 208.2 227.4 240.4 250.3 262.3 272.2 278.8 286 296.1 308.9 325.1 329.4 330.4 334.3 345.6 358.5 363.3 362 358.2
141.1 147.1 152 156.3 160.4 165.5 169.2 172.8 176.5 179.7 184.7 189.6 194.4 196.9 199.9 203.4 205.5 206.6 208 209.8 216.1 223.4 229.8 233.6 235.5 237.4 238.7 240.7 244 249.2 252.5 254.4 254.1 251 251.3 243.7 238.8 236.6 235.3 234.2 233 231.8 226.8 221.1 219.6 219.6 219.6 222.8 223.1 223 222 222.7 223 220.8 220.7 221 221.7 222.5 227.2 229.9 233.2 234.6 236.2 237.7 242.8 247.3 250.6 253.2 255.8 258.4 261 263.6 266.2 268.3 270 271.7 273.3 275 276.5 277.8 278.9 280.1 281.2 282.3 282.3 282.5 282.6 281.3 280.2 278.9 277.3 276.5 275.6 275.3 276.6 278 280.5 281.7 282.8 284.6 284.8 284.2 283.1 284.1 285.3 288.5 288.4 286.6 284.2 279 274.8 268 263.4 261.5 258.4 254.8 250.9 252.8 258.6 262.4 254.9 254.4 262.5 270.3 277.6 284.1 288.6 292.6 293 289.8 290.9 299 295 281.8 271.8 265.1 263.8 267.4 271.5 273.1 273 270.4 264.6 259.5 250.9 241.1 236.3 225.8 213.4 200.2 196.1 190.6 185.3 182 182.2 182 181.8 183 184.8 187.9 188.7 188.6 188.5 189.7 190.9 192.1 194.2 194.4 194.4 194.3 194.1 193.9 193.7 187.7 187.3 188.2 188.3 188.4 191.3 193.4 196.3 213.4 232.1 245.4 255.5 265.7 274.4 281.8 288.9 299.8 314.6 336 333.2 333.3 338.9 350.2 371.1 369.9 368.8 364.1
145.3 151.3 156.3 160.8 164.2 168 172.2 177.1 182.1 185 189.2 194.1 197.8 200.2 202.5 206.8 207.7 208.5 209.2 216 221.6 227.2 231.7 235 237.6 239.3 240.5 244.7 248.1 252.8 254.7 256.9 253.4 253.4 248.6 241.7 238.8 237.8 237.1 235.8 234.4 231.7 226.4 220.6 219.6 220.1 222.6 224.8 224.2 222.2 222.4 224.4 221.2 221.1 221 221.5 222.5 225.8 229.2 231.3 234.7 236.3 237 240.2 245.8 249.3 252.3 254.9 257.5 260.1 262.7 265 267.1 269.3 271.1 272.7 274.4 275.8 277.1 278.2 279.8 281.4 282.7 283 283.1 283.2 283.1 281.5 279.8 279.6 278.2 277.5 277.7 279 280.3 282.3 284.6 286.9 288.7 288.9 287.5 286 286.6 289.8 292.1 293.8 293.5 292.2 290.4 285.3 279.4 274.1 270.6 269.5 265.3 259.2 255.1 257.9 264.8 263.1 254.2 256.9 262.1 264.9 273.4 282 290.3 294.6 290.7 290 293.4 296.8 291 277.5 267.9 260.4 259.5 265.6 273.1 280.4 281.9 270.5 263.4 257.7 249 246.5 240.8 217.3 204.2 199.3 194.7 190.9 185.5 182.2 182.2 182.4 183 185.5 188.1 189.1 188.9 188.7 189.8 190.5 191.4 193.4 194.1 194.4 194.4 194.3 193.6 194.3 189.9 188.9 188.5 188.5 188.6 188.8 192.7 194.7 199.9 218.7 236.5 248.9 258.5 269.5 277.9 285.4 293.4 305.3 318.8 333.3 334.2 334.7 341.6 354.3 373.4 374.9 375.1 367.2
149 154.3 160.4 164.7 168 172.3 177.3 181.8 186.4 190.6 194.5 198.1 201.1 204 206.2 208.6 208.1 209.4 215.1 219.2 224.2 229.6 232.3 235.7 239.1 241.1 244.7 248.7 251.6 253.7 257 257.7 253.3 251 246.9 240.9 239.3 238.8 238.8 237.6 235.8 230.4 223.1 219.4 220.7 223.3 225.4 225 223.7 224.6 223.6 222.3 221.4 221.2 221.2 222.2 223.4 227.8 229.7 233.5 235.8 237.2 237.7 242.7 247.2 251.3 254 256.6 259.2 261.7 263.7 265.8 268 270.2 272.1 273.8 275.5 276.2 277.9 278.7 279.9 281.6 283.1 282.7 282.4 283.1 282.7 281.1 279.4 279.2 278.9 278.4 279.4 281.3 282.9 285.6 289.1 292.5 294.3 292.9 291.1 289.3 291.1 295.7 298.9 300.9 300.3 299.9 299 294.1 285.5 281.4 277.7 276.9 270 262.4 256.8 261.4 264 260.5 253.3 255.4 257.9 261.7 269.4 278 289.8 289.1 285 287 293.8 290.8 283 270.6 261.7 258.4 258.4 262.7 272.7 280.4 285.8 268.3 259.3 253.3 248 255.3 247.1 213.4 198.7 201.2 193.5 189.6 182.6 183 183 182.5 186.3 193 191.1 189.6 189.3 189.1 190.5 191.9 191.6 194.1 193.9 194.3 194.4 194.1 193.3 192.6 187.4 189.4 189.3 190 190 191.8 194.1 196.2 200.9 217.5 238.4 251.5 261.1 272.2 280.4 288.3 296 308.6 320.6 330.4 332.9 335.4 341.3 354.8 373 374.9 375.4 363
153.3 158.8 164.9 168.4 172.3 177.4 182.3 186.8 191.4 194.9 198.5 202.1 205.1 207.8 209.9 209.6 209.2 213.1 218.1 222.6 226.6 230.2 232.8 236.2 239.5 244.2 248 250 252.2 254.9 256.9 258.1 251.5 248.4 245.1 241.9 240.6 241.5 240.9 239 235.4 228.6 223.4 220.7 222.5 225.5 226.6 223.4 225.5 224.5 223.4 222.2 221.5 221.4 221.5 222.1 225.6 227.8 230.2 233.8 236.3 237.6 239.6 244.4 249.1 252.6 255.7 258.3 260.4 262.4 264.5 266.7 268.9 271.1 273.1 274.9 275.5 277.1 278.6 279.4 280.2 281.9 283.3 283.2 282.4 282.6 283.2 282 280.4 279.7 279.4 279 282.1 283.7 285.7 290.2 294.7 296.3 294.7 294.7 293.5 293 296.7 303 307.8 311.1 308.9 306.7 308.8 303.6 295.7 289 287.8 284.1 275.4 264.2 255.3 249.7 249.5 249.3 249.2 251.4 255.6 262.7 267.3 274 278.5 279.4 281.3 283.9 284 280.7 273.8 260.1 254.7 254.6 256.5 261.1 270.7 277.1 279.4 264.7 251.3 246.1 250.4 252.7 243 216.5 196.8 195.3 193.2 184 182 182.6 181.6 184.9 190.8 194.4 194.3 190.1 190 190.2 192.6 193.4 192.5 194.5 194.4 194.3 194.4 193.8 192.9 191.4 188 189.6 189.7 189.9 191.5 194 196.1 199.8 205.7 215.6 234.6 251.5 262.8 272.7 282.4 291.1 299.5 309.8 319.6 327.2 331.2 334.1 341.3 352.3 367.5 367.4 368.4 356.5
158.3 164.3 168.7 173.1 178.5 183 187.3 191.8 196 199 202.5 206.1 209.7 212.1 211.3 211.4 212.9 217.1 221.2 225.9 229.3 230.9 233.4 237 242 246.2 249.5 251.5 254 257 257.3 255.6 251.7 248.2 244.3 243.6 243.3 244.4 245.5 239.5 234.3 227.6 223.5 222.7 224 227.8 227.2 227.1 226.3 223.8 222.5 221.9 221.9 221.7 221.7 223 226.9 228.8 231.7 234 235.5 238.1 242.3 246.3 249.9 253.5 257 259.1 261.1 263.2 265.4 267.6 269.8 272 274.1 275.2 275.5 277.2 279.1 279.8 280.6 281.9 283.3 283.5 282.6 281.6 282.3 282.6 282.2 280.7 280.3 282.4 288 289.3 289.9 294.4 298.3 298.4 296.7 295.4 294.9 301 305.2 311.6 318.4 322.1 319.9 316.2 318.2 315.9 309.4 305.5 304.4 299.3 282.1 268.9 252.8 245.4 242 242.1 249.4 246.9 254.7 262.5 265.5 269 271.6 274.4 276.5 274.6 273.7 265 259.8 254.6 250.5 249.7 250.4 258.6 265.2 268.4 269.4 255.4 241.6 241.9 244 237.4 233.5 212.6 197.5 190.6 187.5 182.2 180.6 180.8 188.1 191.4 194 195.1 195 192.8 193.3 193.4 192.9 192 192.3 192.9 194 194.1 194.7 193.5 193.4 191.7 189 189.8 190 188.9 191 193.5 198.2 205.8 212.3 221.7 235.7 253.2 265.2 275.4 285.3 294.1 302.7 311.2 318 324.9 329.1 333.5 341.5 350.8 355.8 360 354.8 348.2
163.8 169.1 173.2 179.4 184 188.7 192.6 196.8 200.2 203.2 206.6 210.2 213.2 212.7 213.4 215.5 217.6 221.2 225.2 229 231.6 232.1 233.7 238.8 244.7 248.1 251.6 254.4 256.6 258.9 257.2 256.2 250.3 247.9 246.9 246.8 246.6 246.5 244.8 237.1 231.8 226.9 223.6 224.9 226.3 228.4 227.4 225.9 225.5 223.6 222.2 222.2 222.2 222.1 222 224.8 228.4 230.5 231.4 233.6 235 238.5 243.5 247.6 251.2 254.8 257.1 259.5 261.8 264 266.2 268.4 270.6 272.8 274.7 275.1 275.4 276.3 278.9 280 281 282.3 282.9 282.7 282.1 281.4 281.4 281.8 282.2 282.5 283 284.2 290.1 294.6 296.4 298.2 299.4 298.6 297.7 297 297.8 305.4 313.7 321.5 331.7 333.2 332.5 328.4 329.2 327 322.7 317.1 312.6 305.7 292.3 267.4 249.8 242.4 236.7 236.2 242.3 244.8 250.6 254.9 259.1 262.7 264.3 266.2 264.5 263.1 259.9 252.1 248.3 248.7 248.3 245.9 245.1 253.2 255.9 255.9 253.9 243.2 234.3 237 231.6 225 213.3 205.6 200.4 187.4 182.1 182.6 179.5 185.4 193.1 195.3 196.2 196.9 195.6 194.9 194.9 194.1 193.2 193.9 195.1 194.5 194.5 194.8 195.3 195.8 195.2 194 188.8 190.5 190.5 190.5 191.2 194.7 199.7 211.5 216.2 228.6 242.5 253.3 264.8 276.7 287.3 295.6 305.1 311 317.6 322.6 327.2 332.1 339 344.7 349.2 349.4 346.7 342.7
169.3 173.6 179.3 184.4 188.9 193.5 197.6 201.4 204.4 207.4 210.6 214.2 213.9 213.4 214.3 218.1 221.8 225 228 231.1 232 233.1 235.6 241.9 248.3 251.8 255.2 256.4 259 261.8 258.1 253.5 251.2 249.2 250.2 250.2 250.1 249.4 242.3 235.6 230.9 227.1 227.3 227.5 229 229.8 228.4 227 224.9 223.8 222.5 222.5 222.9 223.1 222.5 226.6 229.4 232.2 230.4 232.4 237 241 244 248.3 252.6 255.4 257.3 259.5 261.6 263.7 265.9 268.1 270.3 272.4 273.8 274.7 275.3 275.7 277.9 280.2 281.2 281.9 281.7 281.9 281.5 280.9 280.8 280.9 281.1 282 284 286.5 291.8 296.4 299.8 303.1 302 301.1 299.3 299.2 302.9 313.7 324.7 337.8 342.8 345.4 343.4 341.6 341.3 345 336.3 320.7 314.1 312.9 292.6 266.6 251.7 237.5 231 234.4 240.3 243.3 246.4 245.8 249.4 255.3 256.9 255.8 253.9 249.6 247.7 241.3 238 239.3 242.8 242.2 240.5 246.7 248 245.7 242.4 231 225.9 223.6 221.1 215.2 198 198.9 191.2 182.6 182.4 183 179.6 194 197.6 201.1 200.4 198.5 198.2 197.9 196.2 195.8 195.3 195.7 195.6 195.6 195.7 195.8 196 196.5 196.4 195.6 189 190.6 190.9 191.2 192.5 199.5 207.6 216.2 222 231.7 244.2 255.7 266.7 277.8 288.6 297.4 305.1 311.9 316.4 320.8 325.2 329.6 334.8 339.4 341.5 340.4 337.9 336.5
173.5 179.5 183.5 189.2 193.8 198.1 202 205.4 208.5 211.6 214.7 215.2 214.7 214.1 215.8 219.4 223.9 227.9 230.1 233.1 233.7 237.9 242.5 247.1 251.9 255.5 257.5 259 263.1 262 259 257.1 254.6 254.4 254.3 253.9 253.7 248.3 238.7 235 230.3 227 228.7 231.1 232 231.9 229.1 226.1 224 223.4 222.7 223.1 223.5 223.8 225.1 228.1 230.1 231.9 231.4 233.1 240.4 242.5 245.5 249.6 253.9 255.8 257.7 259.4 261.5 263.6 265.7 267.8 269.9 271.8 272.8 273.7 274.7 275.6 277 279.4 280.6 280.7 280.4 280.7 280.9 280.5 280.4 280.5 281.1 282.8 284.5 288.6 293.4 297.7 301 304.2 304.3 302.4 301.3 302.2 310.6 324.4 338.3 350.6 351.5 352.7 351 353.1 357.3 356.6 335.4 319.2 315.3 306.4 283.4 268.1 250.1 231.5 228.8 237.7 238.7 235.7 237.1 237.3 241.1 248.1 248.2 246.1 244.3 239.1 232.9 230.7 231.4 233.3 234 232.9 229.1 232.7 237.3 239.8 232 220 218.7 213.2 208.3 202.2 189.3 185.2 182.7 182.4 181.7 181.9 187.9 205.2 204.9 205.2 202.3 203.2 200.8 199.1 197.4 197.6 197.3 197.2 197.4 196.8 196.9 197 197.2 197.2 196.7 196.3 188.4 190.9 191.6 191.9 196.3 207.7 217.4 219.7 225.1 235.9 248.2 258.1 267.1 280.2 289.3 298.9 304.4 310.5 313.9 316.9 321.2 325.2 329.7 332.2 332.1 331 327 330.6
179 184.9 189.3 193.8 198.5 202.3 205.8 209.3 212.4 215.2 216.2 215.6 215.1 216.4 219.1 221.7 226.4 230.8 234 234.1 235.7 241.1 248 251.9 255.9 259.1 261.3 262.7 264.2 261.5 260.2 259.1 257.5 258.6 257.8 257.4 253.4 244.6 237.7 233.5 228.7 228.6 231 233.3 233.4 232.1 229.2 226.1 223.3 223 223 223 223.6 225.9 228.3 229.4 229.7 229.7 230.7 236.3 240.7 243.4 247.8 250 254.5 257.2 257.3 258.5 260.3 262.6 264.9 267.5 270 270.9 271.8 272.8 273.3 273.5 275.8 278.2 279.7 279.5 279.3 279.3 279.7 280.2 280 280.4 281.2 283.1 285.2 290.1 295.1 298.7 301.1 304.3 304.5 303 302.5 305.8 319.7 333.7 348.4 358.4 359.8 360.8 361.4 361.1 358.6 348.8 331.2 316.5 305.5 302 293.9 268.6 241.3 225.1 230.2 241.7 231.8 228 230.7 232.1 235.2 241.2 242.3 240.7 237.9 230.5 218 216.2 219.3 222.8 227.3 227 223 224.5 225.2 229.9 223.6 211.7 211.8 206.6 195.7 187.8 183.4 181.2 180.5 180.3 183.8 185.2 195.4 201.4 205.7 205.8 206.1 207.7 202.2 200.7 199.6 197.5 197.5 199.9 199 198.4 197.6 197.6 197.7 197.5 196.8 194.6 190.1 192.2 192.3 192.9 201.8 216.6 220.3 224.1 228 238.3 249 259.2 271.4 281.8 289.2 298.1 302.5 307.2 311.5 314.5 317.5 320.8 322.6 323.5 322.1 320.5 320.6 322.1
184.6 190.4 194.7 199 202.7 206.2 209.6 213.1 213.9 215 216.1 215.7 216.1 220.3 220.7 223.2 228.5 231.5 234.6 234.7 240.4 246.1 251.9 256 259.1 262.3 264.8 264.9 264.1 262.9 261.6 260.1 261.4 263 261.5 259.8 251.2 241.4 236.2 231.6 229.5 230.8 232.3 233.5 232.3 230.1 227 224.2 223.3 223.4 223.3 223.4 223.4 227.5 228.9 230.4 229.2 229.1 231.9 237 241.9 242 245.3 250.9 254 257.2 256.7 258 259.2 261.2 263.5 265.8 267.5 268.8 269 269 269.2 271.5 274.3 277.1 279 279.2 278.3 277.7 278.5 279.7 279.7 280.5 281.4 283.4 286.5 291.6 296.6 300.2 302.2 303.9 304.9 304.1 302.8 307 321.7 334.9 346.2 356.4 358.7 362.1 358.6 355 347.2 345 331.4 315.5 310.9 314 304.3 266 239.1 220.2 220.3 221.6 221.1 222.7 225 226.1 228.4 232.6 237.4 240.2 233.3 222.9 209.2 205.9 205.3 205.9 212.4 216.8 214.7 218.4 218.4 218.7 215 209.3 203.3 196.3 186.5 183.7 182.8 180.2 182.6 184.5 186 201.2 205.1 203.4 208.9 205.5 209.2 208.1 205.2 202.9 202.1 197.5 197.2 201 199.7 198.9 198 196.8 197.2 197.1 197 190.7 191.6 192.3 193.2 197.3 209.1 220.3 223.4 227.8 232.1 239.2 248.7 262.3 274.2 282.8 289.6 296.1 299.9 303.7 308.3 311.4 313.4 314.1 315.3 314.5 313.9 312.2 314.1 318.4
189.6 195.3 199.7 203.9 206.3 210 213.7 216.8 217.5 217 216.5 216.3 220.4 221.6 222.8 225.1 229.6 230.9 234.1 240.5 246 251.5 255.5 258.5 261.4 264.5 266 266.2 265.6 265 265.8 265.7 266.8 268.9 260.8 255.2 247.3 240.3 235 231.5 232.9 234.1 234.9 232.9 231.5 227.6 224.7 223.8 223.8 223.8 223.8 223.8 225.6 228.2 229.1 228.7 227.7 229.2 234.4 237.9 241.2 240.8 246.4 251.5 254.3 254.1 255.5 256.8 258.1 259.9 261.3 262.3 264.3 265.5 265.6 265.6 266.4 269.2 272.2 275 276.9 276.8 276.3 276.1 277.2 278.3 279.7 280.6 281.5 283.6 287.7 292.5 299.3 302.5 304.1 304.5 304.4 303.1 302.6 306.7 318.2 333.4 341.8 348 352.4 354.5 354.1 353.8 355.3 354 325 311.3 313.4 312.6 303.5 255.1 240.8 220.8 210 209 207.7 211.6 212 218.2 221.3 225.4 232.6 237.1 231.7 216.3 205.6 197.2 196.8 195.4 195.9 200.9 205 210.9 214.1 212.7 206.7 205.9 198.7 188.4 183.9 181.2 182.9 182.5 184 186 199.1 201.7 205.5 205.2 208 205.7 207.3 207.7 204.1 202 208 197.3 198.8 201.1 200.2 199.6 198.7 197.1 196.2 196.4 190.8 191.7 192.9 193.5 194.4 200.8 215.2 222.8 226.8 229.1 235 241.1 249.1 262.9 274.4 283.7 290.2 294.3 298.3 302.1 306.1 307.4 308.8 310.1 311 310.7 309.8 309.6 310.3 318.2
194.2 199.8 204.7 208 210.3 214.3 217.5 218.3 216.3 216.1 216.1 222.3 223 223.2 224.1 225.9 228.5 229.6 239.3 246.1 251.5 255.7 258.2 260.9 263 264.9 265.3 265.3 267 269 271.2 271 272.1 268 258.9 250.5 246.1 238.1 234.8 234.4 235.2 235.7 235 234.4 230.1 225.2 223.9 223.8 224.1 224 224 224.6 226.5 228.1 228.9 228.5 228 233.2 235.5 238.1 240.2 241.5 248.8 252.1 252.2 252.4 253.5 254.9 256.4 257.4 258.1 259 261.9 263.4 262.4 262.6 263.7 266 269 272 274 274.1 274.8 275.1 275.5 277.2 279.3 280.5 281.8 284.2 288.8 295.5 301.9 304.4 304.1 302.9 300.8 300.9 301.2 306.4 316.1 331.5 338.5 346.5 347.3 352.8 352.2 352.8 356.6 343.3 320.6 303 310.2 308.4 275.7 259.5 250.5 217.1 206.3 204.5 202.3 201.7 203.7 209.9 214.7 221.3 229.7 232.7 225.4 213.5 201.5 196.8 196.8 191.7 190.5 193.1 196.4 201.9 205.9 206 198.5 198.9 193.3 185.4 182.9 183.1 183.1 185.1 184 196.7 202.6 207.4 205.5 211.4 207.5 205.8 207.7 204.2 203.1 204.2 204.1 198.8 200.1 201.5 200.5 200.4 199.9 197.8 196 193.4 193.3 193.3 193.3 194.4 196 208 220.9 225.5 226 229.1 236.3 244.5 257 265.2 264.8 269.4 281.1 292.8 296.8 300.9 303.8 305.6 306.9 307.7 308.7 309.3 308.8 309.9 312.3 319.2
199.6 204.6 209.7 211.3 214 218.1 218.5 217.2 214.9 215.5 223.1 225.2 224.3 224.2 226.3 227.7 229.6 237 244.7 250.3 254.4 258.3 258.4 260.2 263.2 264.7 265 268.6 271.5 273.4 273.8 274.5 275.3 264.4 255.9 251.9 244.3 236 234.6 235 235.8 235.4 234.8 233.9 228.1 224.1 223.5 223.8 224.2 224.5 225.1 227.4 227.3 227.1 227.4 227.2 230.1 232.3 234.7 237.3 239.5 241.6 247.2 249.8 249.1 250.8 251.9 253 254.3 254.9 255.4 257.4 260.1 261.8 260.7 260.4 261.2 263 265.7 267.9 270.9 273.6 274 274.1 273.8 276.3 278.4 280.5 282 285.3 293.4 300 304.3 303.5 301.9 300.4 297.4 297.8 298.7 302.4 312.3 322.4 332.2 336.4 343.7 347.5 346.7 348.2 344.5 338.3 311.9 292.1 295.1 287.6 264.3 256.4 243.9 212.9 206.2 203.1 199.4 199.2 199.6 202.9 207.3 215.1 226.4 224.8 218.6 209.6 201.1 197.3 193.6 190.5 189.1 189.8 190.7 196.9 199.8 199.5 196 194.9 187.8 182.9 183.7 183.1 185.5 185.6 186.7 201.8 208.7 208.8 211.8 213.9 207.6 206.2 205.6 201.5 202.6 205.3 202.2 200.2 199.8 200.9 200.4 199.6 198.6 197.6 194.7 193.6 192.5 192.2 194 195.1 199.2 214.8 225.7 228.9 227 229.1 238.7 247.9 261.3 270.8 279 286 289.5 289.2 294.4 294.8 303.2 304.5 306.4 308 309.2 309.3 311.8 315.7 315.4 323.1
205.4 209.4 211.1 212.3 215.6 216.3 215.1 214.6 215.2 224.2 226 225.1 225.8 227.6 229.4 230.4 234.2 241.5 248.2 253.6 256 257 258.7 260.7 263.5 266.1 268.1 271.2 274.7 275.1 275.1 272.8 267.8 259.2 254.5 249.7 241.9 235.1 235.3 237.1 236.6 234.8 234.2 230.8 225.4 224.1 223.6 223.9 224.3 224.6 227 227.6 227.1 225.5 226.2 227.2 229.5 233.1 234.1 235 236.9 242.3 246 245.4 247 248.9 250.4 251.4 251.5 249.5 252.6 255.6 258.2 260.2 260.5 260.2 259.9 260.4 262.4 265.2 269 272.5 272.7 271.6 272.1 274.8 278.2 280.3 282.8 287.8 296.4 300.4 304.2 300.8 298.6 297.5 294 293.3 294.1 297.6 308.2 315.5 325.6 329 335.8 333.8 337.5 339.9 333.1 305.1 285.6 274.4 274.9 269.8 251.3 232.7 219.3 211.8 207.4 200.4 196.3 195.9 195.9 198.2 200.9 206 214.1 215.6 212.5 206.7 201.2 196.3 193.6 191.2 188.6 187.6 189.6 197.9 195.7 191.7 194.4 190.1 185 181.1 183.3 184.9 185.6 186.1 186.6 199.4 204.6 208.9 207 210.5 205.4 205.3 201 201.5 203.6 201.6 201.5 201.8 201.2 200.6 200.3 198.7 198.1 198 195.9 194.2 193.7 193 193.9 196.3 205 221.1 228.5 230.7 226.7 230.3 242 251.2 260.7 271.5 281.7 286.6 291.9 294.4 298.4 301.3 303.8 306.4 308.5 310.4 310.8 311.9 315.8 320.9 324.1 325.5
210 210.3 210.2 213.1 213.1 211.7 213.8 216.7 223.3 229.6 227 225.9 229.6 229.8 229.6 231.7 236 243 249.8 253.8 255.1 257.8 261.2 263 265.3 270.2 272.4 274.6 275.5 274.1 271.8 265.8 262.1 257.6 252.3 246.4 238.5 238.1 238.4 239.6 238.3 235.3 232.8 228.1 224.1 224 224 224.3 224.5 225.8 227.7 229 225.8 226.2 226.7 227.9 229.2 232 232.1 234.3 237.6 240.1 241.1 241.8 244.3 246.5 248.5 247.9 247.1 247.3 249.8 253.7 256.1 258.3 258.1 257.8 258.8 258.3 260 264 267.9 270.6 270.1 269 270.2 274.1 277.9 281.5 284.4 289.2 295.4 298.2 300.9 295.6 294.6 293.3 289.8 287 287.8 294.9 302.9 308.8 314.5 318.7 321.9 322.1 323.9 326.4 319.5 304.9 286.2 263.5 263.8 243.9 230 215.2 209.9 209.7 207.9 196.4 193.7 192.8 192 194.2 195.2 195.4 196.8 202.8 204.6 200.4 200.8 196.6 193.1 189.7 185.7 186.5 190.1 193.7 191.2 187.3 191.3 185.3 183.5 183.7 183.4 184.5 185.8 186.2 188 196 204.2 208 205 202.8 202.7 200.7 201.1 202.2 202.5 201.5 202 200.9 199.9 200.4 199.7 198 199.4 197.7 195.5 195 194.5 194 193.5 196.3 208.3 223.3 230 227.3 226.6 234 245.5 255.5 265 275.6 283.2 288.1 293 297.8 300.6 304.3 307.3 309.6 311.8 311.8 312.5 315.6 320.3 325.3 330.5 330.4
213.2 209.2 208.2 209.8 210.3 214.7 218.9 223.9 228.5 229.2 228.4 227.9 229.5 231.4 231.6 233.7 236.9 245.5 250.6 253.6 256.4 259.4 262.7 264.8 271.3 272.2 273.3 275.4 273.3 271.6 268.7 265.4 262.7 254.8 248.6 242.1 239.1 239.4 239.9 240.3 240.7 236.1 231 226.1 224.9 224.7 224.2 224.3 225.8 227.3 230.8 225.3 224.3 224.2 226.2 228.3 229.7 230 230.5 232.9 235.6 235.5 237.2 239.1 241.5 243.9 245 244.7 242.6 243.9 246.3 251.2 254 256.1 255.2 254.2 255 256.4 258.2 262.5 266.8 268.6 267.6 266.6 268.5 273.3 277.7 282.4 286 287.8 290.5 291.2 292.3 290.4 290.8 288.9 285.7 284.2 287.2 292.6 300.3 304.6 309.4 307.2 307.8 310.6 314.7 315.5 306.7 297.4 285.9 256.2 247.3 229.4 214.7 206.3 204.5 206 203.4 195.6 191.8 193.3 190.3 189.4 187.1 186.7 186.5 187.3 195.4 197.8 198.2 196.2 192.5 189.2 185.3 183.5 187.1 188.2 184.5 182.9 193.4 182.9 182.8 183.2 182.5 184.1 184.8 186.5 188.3 195.7 201.9 202.6 200.6 200.3 198.5 198.6 199.2 200.3 201.7 198.8 198.6 198.8 198.3 197.8 197.4 198.5 199.1 197.3 196.4 195.9 195.4 194.9 194.3 199.5 210.4 222.9 226.2 223.9 228.9 238.4 248.3 259.2 270.4 279.5 286.2 291.2 296.2 301 304.9 308.1 310.9 313.3 315.6 316 315 321.5 325 329.8 332.5 338.8
208.6 204.7 208.4 211.6 216.7 220.6 223 226.5 228.7 228.5 228.7 229.3 229.4 231.1 233.9 234.8 239.5 246.5 251 254.9 258 260.8 263.5 271.1 272.5 273.6 274.6 274.9 272.4 270.5 268.3 264.9 259.4 251.2 247.6 240 239.9 239.8 240.9 240.8 240.1 234.1 228.4 224.7 224.4 224.2 224.4 225.5 227 230 227.1 225.5 223.2 222.6 225.4 227.1 226.7 227 227.8 230.8 230.9 231.4 234.4 237 238.8 240.2 241 241 238.5 240.3 243.7 247.7 250.6 252.1 251.6 250.9 250.8 253.5 256.3 260 263.8 265.1 264.3 264.3 267.5 271.9 277.2 282.8 286.6 288 285 284.3 284 284.7 286.9 285.7 283.5 282.3 284.6 291.5 298.6 311.5 311.8 300.4 296.4 294.7 296.2 299.4 293.1 286.6 267.6 241.1 230 220.6 212.5 205.3 204.5 205.3 203.7 199 194 191.4 190 190.6 190.1 186.9 186 186 186.5 193.7 195.6 195.4 191.4 187.9 184.2 182.7 182.3 183.6 182.5 182.1 182 182.2 182.6 183.6 184.5 184.1 184.2 184.6 187.2 195.3 202.2 199.4 199.1 199.2 195.8 197.2 199.3 198.1 201.4 196.8 195.4 195 195.5 195.7 195.9 196.4 197 197.7 197.2 196.7 196.2 195.7 195.2 201 213.6 220.2 222.2 223.9 232.5 244 253.3 263 273.8 281.4 288.8 294.4 299.5 304.1 308 312 314.6 317 319.3 320.5 322.4 328.3 334.3 334.2 338.2 343.3
206.1 207.5 211.7 220.3 220.6 221.1 224.6 228.2 228.6 228.9 229.3 229.7 229.8 232.1 233.8 235.5 243.8 247.6 251.8 254.6 259 262.9 268.5 272 273.5 274 274.3 274.2 271.5 269.7 267 263.2 254.9 250.7 243.7 240.4 240.2 240 240.7 241.9 237.8 232 225.9 224.5 224.4 224.7 227.8 228.5 229.3 226.4 223.9 222.9 222.3 223.3 224.2 225 224 223.9 224.6 226.7 226.1 227.2 230.5 233.3 235.1 236.5 237 236.2 235.4 236.4 239.7 243.2 246.4 247.4 249.8 248 247.5 250.2 253.9 257 259.9 261.5 260.9 263.3 266.6 270.5 275.8 280.9 284.5 283.8 280.5 277.5 278.5 279.1 282.5 281.6 280.8 279.8 281.6 288.8 296.1 302.8 304.6 300.8 289.5 280.4 279.6 277.4 273.5 267.9 254 230.5 221.8 215.2 210.7 204.8 202 199.1 197.8 196.9 193.1 194 194.3 193.3 192.3 188.8 187.7 185.4 192 192.6 194.8 197.1 193.3 185.6 182.7 182.5 182.3 182 182 182.4 182.4 182.6 182.7 184.4 184.8 184.2 184.2 182.1 184.6 185.2 189.6 192.9 192.4 191.8 192.6 193.5 194.1 194.9 196.3 196.4 195.5 195.4 195.5 195.7 196 196.2 196.4 196.5 196.3 196.1 195.9 195.9 196 202.3 212.8 217.3 219.9 226.1 238.5 248.9 258.3 267.1 277.4 284.7 291.9 298 303.2 309.5 313.2 316.9 320.8 322.8 323.8 325.1 331.4 336.8 343.4 342.6 343.1 352
203.8 206.9 213.6 218.4 219.5 223.7 227.2 228.9 228.8 229.1 229.5 230.1 230.7 233.7 235.9 241 243.8 245.9 249.2 256.2 260.2 265.9 270.1 271.6 271.3 271.8 272.2 272.6 270.1 268.6 266.3 258.9 252.7 246.6 239.9 239.9 239.9 239.8 240.5 238.9 233.7 229.2 224.5 226.2 228.1 226.1 229.1 229.2 228.1 225.2 222.7 222 222.5 224.3 222.9 222.4 221.4 220.7 221.2 219.8 221.1 224.1 226 228.6 230.6 232.3 231.6 230.9 230.5 232 235 238.7 242.1 243.9 245.5 245.8 244.4 246.3 249.1 253 255.8 255.4 257 261.9 265.2 269.3 273.1 276.7 279.2 278.4 275.1 272.4 274.5 273.9 274 273.8 276.8 276.9 279 285.2 289.1 293.9 287.4 290 280.1 271.9 269.7 260.6 252 243.3 242.6 230 218.6 211.7 207.3 203.6 200 204.7 205.9 203.4 201.9 205.4 195.7 194.2 193.3 192.4 189.7 185.1 186.2 186.5 192.7 197.4 192.9 184.1 182.6 182.4 182.2 182 181.8 182.4 182.4 182.7 184.5 185.9 185.7 185.3 185.7 185.6 184.3 184.2 183.6 187.5 188.5 191.2 191.9 192.9 194 193.6 195.2 195.3 194.8 195.1 195.6 195.8 196.1 196.3 196.4 196.4 196.3 196.5 196.6 196.8 197 200.8 209.1 214.5 221.6 233.2 244.3 252.5 262.1 271.8 281.2 288.8 296.4 301.6 308.7 314.2 318.3 322.1 326.2 329.9 332.1 334.1 340.2 345.2 353.1 352.4 355.4 360.5
204.9 212.3 215.8 218.1 223 226.1 229.7 229.4 229.2 229.3 230.1 231 232.6 236.3 240 241.6 242.9 244.6 248.7 258.1 263.3 267.6 269.9 270.1 268.9 269.5 270 269.7 268.2 266.8 260.8 255 248.1 239.8 239.8 239.7 239.7 239.8 240.6 236.5 230.1 226.5 226.8 228.8 228.2 228.5 229.8 227.9 225.3 222.1 221.8 221.7 223.4 220.8 219.2 218.3 217.5 217.1 215.3 216 217.1 221 222.9 224.5 226.9 227 226.2 225.4 225.7 227.7 231.4 235.1 238.2 240 241.7 242.2 238.5 242 245.4 247.8 248.9 249.2 254.7 259.2 262.7 268.6 271.5 272.8 273.7 271.1 268.3 266.8 269.2 268.6 266.9 268.7 269.3 271.2 276 278.3 279.9 282.6 282.5 272.9 266.4 261.4 254.3 246.3 236.6 232 228.4 222.8 215.9 210.8 209.2 202.9 205.6 201.2 200.2 199.9 196.9 198 196.4 196 194.5 192.8 191.3 186.8 184.6 185.7 186.9 196.2 193.9 183.7 182.6 182.5 182.5 182.2 182.2 182.5 182.6 185.9 186.1 184.8 186.7 187.7 188 187.9 186.5 185.9 185.4 186.4 188.4 190.2 190.9 192.3 193.6 194.2 194.9 194.3 193.4 195 195.6 195.9 196.2 196.5 196.5 197.5 197.8 198 198.2 197.8 197.5 199.3 209 217.5 228 241.6 250.8 258.1 266.7 276.9 285.5 293.1 300.7 306.4 312.8 318 323.5 327.4 332.7 336.7 340.3 344.4 348.9 359.3 368.7 374.3 374.3 387.6
205.4 213.2 217.4 221.5 226 228.2 228.4 229.5 229.6 230.4 231.3 232.3 234.5 239.9 241 240.9 242 243.9 252.9 261.4 265.5 267.7 267.4 266.8 265.7 269 269.9 268 265.4 259.9 255.6 249.8 242.4 239.3 239.3 239.3 239.3 238.8 237.7 233.8 226.2 226.5 227.2 227.5 229.5 229.6 228 225.7 221.7 221.5 221.4 220.5 222.8 218 215.4 214.7 214.7 214.7 214.7 214.7 214.7 217.1 218.6 220.8 220 220.6 221.4 221.6 222.4 224.5 228 231.5 234.2 236.1 238.2 236.7 235.1 238.9 240.6 241.7 243.7 245.8 252.4 256.5 261 266.3 266 266.1 266.9 265.4 262 260.2 261.7 261 259.5 263.6 267.8 270.2 272.9 274.9 278 281.5 282.2 267.5 254.5 252.3 247.1 241.8 233.5 232 227.1 220.2 214.2 209.7 203.5 207.8 201.3 201.8 202.4 200.9 199.7 197.7 197.2 196 194.2 193.2 191.5 188.4 186.1 184.9 186 195.1 193.2 183.8 182.5 182.5 182.5 182.6 182.9 187.5 186.8 189.8 190.4 190.2 186.2 189.1 189.2 189.1 189.1 188.4 188.2 187.5 187.9 188.9 189.9 192.3 193.2 194.3 194.4 193.8 194.2 194.4 195.5 196 196.4 196.7 197 198.3 199.4 199.1 198.6 198.2 197.9 199.8 211.7 221.6 234.5 246.6 255.7 262.1 270.2 279.8 289.3 297.3 304.8 312.1 317.6 322.7 327.9 333.6 339.2 343.6 350.2 353.8 352.8 375.9 377.3 394.5 397.6 401.7
209.9 216.3 220.9 224.5 226.6 228 231.5 229.9 230.7 231.5 232.3 233.3 238.1 239.6 240.6 240.4 242.5 247.3 258.9 263.3 264.7 264.9 264.9 264.3 264.7 267.5 267.4 265.2 260.4 255.7 250.5 245.6 239.4 238.5 238.5 238.5 238.3 236.4 234.2 229.8 227.4 226.8 226.9 230.8 230.2 229.6 227.7 222.6 220.8 220.7 220.5 221 219.7 214.7 214.7 214.7 214.7 214.7 214.7 214.7 214.7 214.7 214.7 214.7 214.7 214.7 215.6 217.1 219.2 222.4 226.9 229.5 232.2 234.1 236.5 234.9 232.9 235 235.9 236.7 238.3 242.4 248.9 253.7 257.6 262.3 259.5 259.2 257.2 256.9 255.2 253.1 254 253.8 254.9 260.3 266.8 275.5 275.9 275.9 277.9 280.2 279.2 267.2 252.9 247.6 246.2 241.2 237 240.8 228.8 219.7 211.5 206.4 210.3 207.7 204.5 207.5 207.2 202.3 199.6 198.8 198.6 197.7 195 193.4 191.6 189.8 188.3 185.3 185.9 193.2 191.1 187.2 182.5 182.5 182.5 182.7 183.5 192.9 193.7 190.5 187.5 188 186.1 189.3 191.8 190.6 193.6 191.4 191.6 189.3 189.3 189.6 190.3 191.7 193.7 193.9 193.7 192.7 195.2 195.6 195 195.2 195.7 196.4 196.7 200.8 199.7 199.5 199 198.5 198.6 203 211.5 224.4 238 250.4 259.1 264.8 273.6 283.1 292.5 299.9 309.8 316.7 321.7 327.1 333.5 340.7 346.6 356.4 368.2 362.5 360.1 380.4 397.9 414.7 412.3 415.7
209.7 217.6 223 224.5 228.1 232.2 231.4 230.8 231.5 232.4 233.8 235.9 237.7 238 239.2 240.2 244.8 250.3 257.5 260.2 262.1 262.5 262.6 262.2 263.9 264.5 263.6 259.9 253.5 247.9 244.4 241.3 237.8 237.6 237.7 237.6 236.8 234.7 232.2 229.6 229.2 227 228.1 230.2 228.5 227.3 224 222 220.9 221.3 221.3 219.5 214.7 214.7 214.7 214.7 214.7 214.7 214.7 214.7 214.7 214.7 214.7 214.7 214.7 214.7 214.7 214.7 216.3 220.3 224.2 227.1 229.1 231.8 234.4 233.1 231 229.3 231.2 232.3 234.2 239.1 244.9 250.5 254.9 253.8 250.8 251.2 247.4 248.7 245.1 245.6 248.5 250 253.6 259.3 266.9 276.5 278.2 276.9 278.4 277.7 274.1 263.4 252.3 248.6 246.7 243.4 235.4 236.7 229.2 213.4 208.8 211.2 210.2 206.9 208.5 207.1 202.7 200.5 200.2 201 199.6 201.3 198.9 194.9 190.9 188.8 186.1 185.5 186.1 187 185.7 182.9 182.7 182.6 182.5 183.4 192.6 186.9 186.4 187 187.2 187.2 187.2 191.5 192.2 193 196.8 196.5 194 191 190.9 190.7 191.2 191.4 192.6 193.3 193.4 192.8 195.9 196.2 196.5 196.8 197.2 197.4 200.5 201.4 200 199.8 199.5 199.9 199.7 206.3 213.7 230.5 244.2 252.9 260.3 267.5 277.8 287.5 296.1 306.2 314.3 320.6 327.4 333.8 339.9 348.2 358 374.6 381.4 374.4 366.5 387 416.9 422.6 428.6 426.8
214.3 220.5 225.9 229.2 230.6 231.3 231.4 231.6 232.3 233.3 235.3 237.5 238.2 237.4 238.2 241.6 246.1 250.3 255.2 256.8 258.6 260.1 260.2 260.6 261.6 261.8 259.6 252.4 243.9 242.5 240.7 237.8 236.4 236.5 236.7 236.5 235.1 233.1 230.9 229.8 227.2 227.4 229.4 229.8 227.6 224.2 221.9 221.3 220.6 221.8 218.5 214.7 214.7 214.7 214.7 214.7 214.7 214.7 214.7 214.7 214.7 214.7 214.7 214.7 214.7 214.7 214.7 214.7 214.7 217.2 220.9 224.6 226 228.6 230.6 229.8 227.4 224 227.4 227.3 230.8 236.4 242.1 245.3 248.3 248.9 245.3 242.6 240.7 238.4 236.7 240.5 245.5 247.9 254 260.4 271 278.5 279 278.7 278.8 275.8 270 263.6 252.7 253.4 250.3 246.8 233.1 238.9 218.8 211.9 210.6 213 210.5 209.4 208.2 204.8 202 200.4 200.4 200 199.8 203.1 201.5 197.5 193.8 189.3 185.7 186.1 186.5 196.6 188.4 187 185.7 186.8 189.6 186.7 185.6 185.6 186.9 187.6 187.5 187.6 191.7 193.1 196.6 199.1 201 198.5 199.2 194.4 192.7 192.2 192 193.2 193.4 192.8 193.3 196.5 199.1 201.1 196.2 196.4 197.5 198.1 200.5 200.7 200.8 200.6 200.3 200.4 200.8 206.6 216.7 232.7 246.1 256.5 261.7 270.9 281.7 290.6 300.4 310.8 318.1 324 331 340.6 347.1 356.2 372.3 394.1 391.8 382.3 372.9 387.4 426.6 434 447.8 448.4
220.8 226.4 229.7 229.7 230.7 230.8 231.7 232.2 232.9 235.1 237.4 238.2 237.8 237.5 238.3 241.7 246.4 249 252.6 253.7 255.6 257.2 258.1 258.7 258.9 257.7 253.6 243.4 240.8 238.2 234.9 234.7 234.9 235.5 236 236 235.2 231.8 230.3 227.9 226.9 228.4 228.4 229.3 225.3 222.7 221.7 220.3 220.9 222 214.7 214.7 214.7 214.7 214.7 214.7 214.7 214.7 214.7 214.7 214.7 214.7 214.7 214.7 214.7 214.7 214.7 214.7 214.7 214.7 218.6 222.6 223.7 225 225.8 225.6 223.2 221.4 221.2 223.2 227.2 233.7 236.9 240 240.7 242 239 236.3 234.2 231.4 231.5 236.4 243.1 249.6 256.4 265.6 275.3 276.8 281 285.9 282.8 277.9 268.7 258.2 251.1 255.2 253.5 239.3 225.6 220.6 210.3 208.8 208.8 208.8 213.9 218.7 211.4 205 201.6 200.8 201 200.6 201.8 205.1 201.9 200.4 197.8 193.8 191.4 202.3 195.3 199.7 199 197 193.5 196.2 192.3 186.6 188.6 186.5 188.3 187.7 187.2 194.4 196.5 198.4 200.8 203.5 204.6 204 202.8 197.6 194.3 192.9 192.6 193.4 191.5 192.9 194.1 200.3 200.5 203.4 202.8 201.6 199.3 201.7 201.6 201.5 201.4 201.5 201.5 201.1 201.8 206.3 218.2 235.4 249.4 258.8 263.4 275 284.9 295.8 305.2 315.2 321 326.8 339.3 346.6 354.6 373.2 390.5 405.8 397.5 391 387 387.6 429.5 447.7 459.1 457.4
225.8 228.8 231.2 230.6 230.3 230.7 231.6 232.6 234.7 237.1 238.3 237.2 236.8 237.5 239.1 242.4 246.4 248.7 248.6 249.8 250.7 253.7 253.6 253 251.2 249.3 243 237.1 236 232.4 231.6 233.3 234.6 235.1 235.2 235.5 233 230.4 229.1 228.1 228 228.1 228.5 227.4 223.8 222.2 221 220.3 221.4 218.2 214.7 214.7 214.7 214.7 214.7 214.7 214.7 214.7 214.7 214.7 214.7 214.7 214.7 214.7 214.7 214.7 214.7 214.7 214.7 214.7 216.4 220.1 220.2 220.2 220.7 221.1 218.7 216.2 216.5 219.5 223.5 227.6 231.2 234.3 235.7 232.8 230.6 229.5 227.1 224.8 229 234.9 242.1 249.3 256.6 267.7 280.5 276.6 287.8 289.8 288.1 290.7 279.9 268.9 244 242.3 244.5 229.3 221.1 209.7 208.8 208.8 208.8 208.8 214.4 214.5 212.2 205.3 201.8 201.9 202.2 201.1 204.3 203.7 204.5 202.5 201.9 198.4 200 202.9 202.3 201.1 199.7 198.7 194.3 192.3 191 191.2 190.5 190.5 189.6 187.7 187 198.7 201.7 206.4 206.5 210.7 208.4 204.2 201.5 198.4 195.3 193.4 193.3 193.8 192.5 193.3 199.6 202.5 203.5 203.6 202.7 202.3 204.6 202.8 203.1 202.2 202.1 202 202.4 202.4 202.2 208.9 225.2 236.6 250 257.7 268.3 278 287.2 296.6 309.4 318.4 324.2 331.5 347.2 352.3 368.1 398.9 408.1 407.3 401.1 412.9 406.9 395.7 431 453.8 466.2 466.2
229.7 231.1 229.4 230.2 230.7 231.4 232.5 234.6 237.7 237.9 236.8 236.8 236.8 236.8 240.5 244 246.1 245.8 245.3 245.5 246.4 244.3 243.9 243.1 240.2 235.2 232.2 231 230.3 228.8 230 232.1 234 234.8 235.6 234.7 231 227.8 226.4 226.6 227.2 228.6 227.4 225.1 221.8 220.3 219.1 220.3 220.3 214.7 214.7 214.7 214.7 214.7 214.7 214.7 214.7 214.7 214.7 214.7 214.7 214.7 214.7 214.7 214.7 214.7 214.7 214.7 214.7 214.7 215.1 220.1 215.5 215.5 216.3 216.4 214.7 214.7 214.7 214.7 219.7 223.2 225.4 228.4 230.7 224 221.5 220.7 219.7 222.1 226.3 231.3 240.3 249.3 257.4 269.2 279.8 279.9 291.6 282.8 288.1 294.2 287.7 280.2 237.6 223.6 225.6 220.1 208.8 208.8 208.8 208.8 208.8 208.8 218 211.4 209.5 205.1 203 202.6 202.3 203 206.2 207.4 205.9 204.6 202.2 201.8 200.7 203 202.7 201.3 199.8 198.5 195.6 191.8 194 197.9 189.2 188 187.7 188.1 195.9 202.5 207.9 214 212.8 214.8 211.2 204.4 201.7 198.8 195.9 193.3 193.3 192 193.6 195.2 203.6 203.7 203.5 203.4 202.1 203.2 204.3 205.5 205 203.1 202.3 202.6 203 203.2 203.2 212.6 227.2 236.1 251.1 259.9 269.4 278.9 289.7 300.1 313.4 320.4 326.9 339 350.5 356.7 388.6 412.9 412.7 410.8 411.2 423.3 420.9 403.5 430.4 457.5 464.2 470.8
231.8 228.4 229.3 230.5 231.1 232.1 234.9 237.8 238 237.2 236.8 236.8 236.8 237.2 241 242.7 243.7 243 241.7 239.5 237.7 235.6 233.9 232.4 229.5 225 223.9 223.4 224.5 226.7 229 231.4 233.7 234.8 235 233.7 230.1 225.8 224.5 224.9 225.5 226.9 226 222.3 220.6 219.1 219.3 216.2 214.7 214.7 214.7 214.7 214.7 214.7 214.7 214.7 214.7 214.7 214.7 214.7 214.7 214.7 214.7 214.7 214.7 214.7 214.7 214.7 214.7 214.7 214.7 216.8 214.7 214.7 214.7 214.7 214.7 214.7 214.7 214.7 216.7 220 222.5 224.7 222.9 215.5 214.7 214.7 216.5 219.4 223.6 227.9 236.8 247.6 256.7 266.3 276.7 278.6 286.9 282.6 282.3 285.3 284.9 274.7 228 208.8 208.8 208.8 208.8 208.8 208.8 208.8 208.8 209.5 216.8 212.7 210 205.1 204.3 205.1 206.6 207.7 210.5 216.3 214 215.1 209.8 209.9 201.2 202 201.6 200.2 198.2 194.2 198.1 198 192.5 195.7 188.6 188.5 191 195.8 201.3 207.5 211.1 216.3 216.7 212 211.3 204.9 201.6 198.8 195.6 193.6 193.8 193.4 194.5 200.7 204.1 203.8 203.5 203.1 201.8 206.6 207.1 208.7 208.1 205 202.7 203.1 203.6 203.9 203.8 212.3 224.5 235.5 248 262.1 270.8 280.8 291 303 313.2 322.1 328.9 344.1 351.6 367.4 402.3 419.5 417.7 418.5 424.5 424.7 420.4 408.4 436.6 459.6 467.8 471.7
227.3 227.8 229.1 230.9 231.5 233.7 237.2 238.5 238 236.8 236.8 236.8 236.8 237.8 241.3 241.8 241 238.1 233.2 229.5 227.2 225.2 226.4 222 220.8 220.8 220.8 220.8 221.2 224.6 228.7 231.8 234.1 234.5 233.2 231.6 228.5 225.2 223.4 224.8 226.3 225.1 223.2 221.5 220.1 219.1 219.4 214.7 214.7 214.7 214.7 214.7 214.7 214.7 214.7 214.7 214.7 214.7 214.7 214.7 214.7 214.7 214.7 214.7 214.7 214.7 214.7 214.7 214.7 214.7 214.7 214.7 214.7 214.7 214.7 214.7 214.7 214.7 214.7 214.7 214.5 216 217.9 219.5 214.7 214.7 214.7 214.7 214.7 216.8 221 227.1 234.5 243.6 252.6 258.8 269.1 275 283.4 286.8 275.1 277.5 270 257 229 208.8 208.8 208.8 208.8 208.8 208.8 208.8 208.8 208.8 215.6 212 210.7 208.2 207.8 208.6 213 212 215.9 224.1 224.9 225.5 218.1 214.7 208.5 197.8 196.1 195.6 194.8 194.6 199.1 200.1 196.9 192.6 189.9 193.4 196.4 203.2 206.3 211 215.1 220 215 209.9 208.7 205.6 201.9 200.1 196.1 193.8 191 195.3 197.6 204.7 204.4 203.8 203.3 202.8 205.2 209.6 213 213.6 212.4 207.2 204 204.2 204.4 204.7 204.7 212.1 222.5 232.1 247.8 260.1 271.5 280.7 292.2 303.8 313.1 322 331.1 340.9 353.9 383.5 407.8 419.2 421.9 424.7 425.2 427.3 422.2 410.8 432.3 459.9 466.7 470.9
227.1 228 229.1 230.7 232.6 236.1 237.8 238.9 237.4 236.8 236.8 236.8 236.8 238.9 241 240.4 237.9 231.7 223.6 220.8 220.8 220.8 220.8 220.8 220.8 220.8 220.8 220.8 220.8 225.7 229.3 231.9 233 232.6 230.9 229.1 227.3 223.9 222.8 225.3 224.9 223.5 222.1 219.7 219.5 219.8 214.7 214.7 214.7 214.7 214.7 214.7 214.7 214.7 214.7 214.7 214.7 214.7 214.7 214.7 214.7 214.7 214.7 214.7 214.7 214.7 214.7 214.7 214.7 214.7 214.7 214.7 214.7 214.7 214.7 214.7 214.7 214.7 214.7 214.7 214.7 214.7 214.7 214.7 214.7 214.7 214.7 214.7 214.7 214.7 217.6 225.3 232.5 239.3 253.6 258.8 263.1 270.2 283.3 277.3 269.4 264.4 252.3 252.1 224.1 208.8 208.8 208.8 208.8 208.8 208.8 208.8 208.8 208.8 217.6 211.9 212.2 211.8 213 214.7 217.5 217.3 222.5 223.3 228.1 235.4 232.9 216.1 213.4 203.8 198.2 198.6 196.5 194.1 194.2 195.4 195.5 191.1 191.4 195.8 200.8 210.5 213.6 215.1 221.9 213.9 209.7 208.8 205.4 204.2 202.4 199.6 195.7 193.7 191.2 196.1 203.1 205.1 204.6 204.2 203.7 203.3 208.8 212.7 215.4 219 217.2 210.2 206.3 204.9 205.1 205.3 205.5 208.4 220.3 229.1 246.3 260.7 269.5 281 293.1 303.5 313.3 322.4 330.6 339 354.8 382.1 403.1 411.1 418.9 423.7 421 420.9 417.3 414.4 428.8 452.5 461.4 466.4
227.3 228.4 230.2 232.2 235.9 238.6 238.8 238.1 237 236.8 236.8 236.8 237.1 239.6 239.7 239 234.7 227.4 220.8 220.8 220.8 220.8 220.8 220.8 220.8 220.8 220.8 220.8 222.5 226.3 229.5 231 231.5 231.2 229.1 226.7 224.8 222.6 222.9 225 222.3 220.6 219.1 219.1 216.7 214.7 214.7 214.7 214.7 214.7 214.7 214.7 214.7 214.7 214.7 214.7 214.7 214.7 214.7 214.7 214.7 214.7 214.7 214.7 214.7 214.7 214.7 214.7 214.7 214.7 214.7 214.7 214.7 214.7 214.7 214.7 214.7 214.7 214.7 214.7 214.7 214.7 214.7 214.7 214.7 214.7 214.7 214.7 214.7 214.7 214.7 218.3 227.9 238.1 247.8 258.1 261.2 276.3 279.7 265.3 264.8 257.1 243.1 238.5 215.3 208.8 208.8 208.8 208.8 208.8 208.8 208.8 208.8 208.8 215.9 212.2 210.1 213.9 216.5 218.8 219.7 223.6 226.2 228.4 239.1 240 240 223.1 221.3 208.6 200.9 201.8 197.7 194.8 194.4 196.2 196.7 195.1 196.3 202.5 208.3 213.9 213.1 218.8 217.4 210.6 208.3 208 203.5 200.7 199.5 197.5 194.5 193.8 193.7 199 205.9 205.4 204.9 204.5 204.1 207.8 212.1 215.3 218 220.7 219.9 214.5 209.6 206.8 205.8 206 206.2 209.1 218.1 226.9 244.9 261.3 269.9 282 292.6 301.3 312.9 320.6 328.7 338.1 353.9 367.6 387.1 397.1 407.5 417 417.2 418.4 417.4 416.9 429.8 439.4 452.1 461.4
227.5 229.2 231.5 234.6 238.6 239.2 238.5 237.6 237.5 237.2 236.9 236.8 237.3 239.4 238.7 235.9 229.2 220.8 220.8 220.8 220.8 220.8 220.8 220.8 220.8 220.8 220.8 220.8 225 227.3 229.5 230.7 230.4 229.8 228.3 225.9 223.5 221.2 221.8 222.2 221.9 218.6 216.4 214.7 214.7 214.7 214.7 214.7 214.7 214.7 214.7 214.7 214.7 214.7 214.7 214.7 214.7 214.7 214.7 214.7 214.7 214.7 214.7 214.7 214.7 214.7 214.7 214.7 214.7 214.7 214.7 214.7 214.7 214.7 214.7 214.7 214.7 214.7 214.7 214.7 214.7 214.7 214.7 214.7 214.7 214.7 214.7 214.7 214.7 214.7 214.7 214.7 221.7 232.3 233.8 246.7 255.6 276.3 274.2 261.9 255.8 236.2 236.3 220.4 215 208.8 208.8 208.8 208.8 208.8 208.8 208.8 208.8 208.8 214.7 216 214.1 213.9 217.8 220.1 225.1 230.3 238.5 244.9 248.4 244.6 247.7 238.8 227.2 214.7 212.6 209.6 199.7 195.8 195.9 197.6 199.9 199.9 207.2 210.7 213.2 210.4 210.8 219.6 210 207.3 207.1 207.3 201.3 198.8 196.7 194.7 193.1 191.3 197.4 206.8 207.5 205.8 205.3 204.9 204.9 210 214.7 218.2 220.8 223.4 224.3 218.7 212.4 206.5 206.4 206.6 206.8 208.4 217.5 225.9 237.1 257.9 268.7 282 290.9 300.9 310 317.2 325 336.1 350.7 362.3 373.4 385.2 397.9 407.3 410.4 413.2 415.4 416.1 427.1 440.2 443.7 450.6
229 231.9 235.6 238.5 239.2 239.1 238 237.5 237.6 237.5 237.6 237.1 238.6 238.7 236.9 229.8 226 221.3 220.8 220.8 220.8 220.8 220.8 220.8 220.8 220.8 220.8 222.1 224.8 226.8 229.2 229.9 229.1 228.4 227.5 225.1 222.4 220.2 220.5 221.2 221.3 218.5 214.7 214.7 214.7 214.7 214.7 214.7 214.7 214.7 214.7 214.7 214.7 214.7 214.7 214.7 214.7 214.7 214.7 214.7 214.7 214.7 214.7 214.7 214.7 214.7 214.7 214.7 214.7 214.7 214.7 214.7 214.7 214.7 214.7 214.7 214.7 214.7 214.7 214.7 214.7 214.7 214.7 214.7 214.7 214.7 214.7 214.7 214.7 214.7 214.7 214.7 214.3 227.3 227.7 235 253.1 269.1 261.2 246.9 235.3 235.3 228.6 216.6 211 208.8 208.8 208.8 208.8 208.8 208.8 208.8 208.8 208.8 210.4 214.4 218 218.8 222.2 223.5 231.9 238.1 250.6 254.4 256 249.8 251.5 244.9 227.5 217.5 224.8 212.1 201.7 198.3 200 203.2 205.1 207.3 213.2 217.1 210.3 209.9 209.5 209.7 207.1 205 203.9 201.4 199.5 197.2 194.8 194.6 193.7 199.6 210.7 210.9 208.6 205.9 205.5 205.1 206.3 212.1 217.1 221.9 224.4 225.4 226 221.7 214 207.6 207 207.2 207.5 209.1 217.6 226.2 235.5 253 267.7 278.7 289.6 297.8 305.7 312 319.7 331.9 346.7 357.3 365.4 373.9 387.1 395.6 405.1 409.1 413 416.4 419.7 432.3 436.9 440.9
230.3 235.1 238.2 239.3 239.4 238.5 237.5 237.4 237.4 237.5 237.6 237.8 238.2 237.1 232.2 228.8 227.1 220.8 220.8 220.8 220.8 220.8 220.8 220.8 220.8 220.8 221.2 222.6 225.2 227 228.9 229 228 227.2 226.5 224.1 220.9 219.7 219.8 220.2 220.7 214.7 214.7 214.7 214.7 214.7 214.7 214.7 214.7 214.7 214.7 214.7 214.7 214.7 214.7 214.7 214.7 214.7 214.7 214.7 214.7 214.7 214.7 214.7 214.7 214.7 214.7 214.7 214.7 214.7 214.7 214.7 214.7 214.7 214.7 214.7 214.7 214.7 214.7 214.7 214.7 214.7 214.7 214.7 214.7 214.7 214.7 214.7 214.7 214.7 214.7 214.7 214.7 219.8 226.4 219.2 233.5 244.9 242.8 236.6 226.1 226.4 222.5 214.4 211.1 208.8 208.8 208.8 208.8 208.8 208.8 208.8 208.8 208.8 212.4 219.9 221.8 227.4 225.8 227.1 240.1 251.1 256.9 262 260.7 262.3 258.1 251.7 230.6 222 231.8 218.9 206.9 205.7 207 210.8 214.5 213.5 215.4 211.4 210.3 209.8 209.3 207.5 205.8 204.8 201.9 200.2 198.6 195.9 193.4 194.3 198.7 209.1 216.5 213.8 207.8 206.1 205.2 205.6 208.4 212.9 220.3 224.7 227.2 227 224.2 221.4 216.6 209 207.4 207.8 208.3 207.3 219.1 226.8 234.9 251 266.6 274.1 286 295.1 302.5 307 313.3 327.5 341.5 351.1 356.7 362 374.2 389.8 400.2 408.4 412.7 416.7 420.1 424.8 433.2 435.5
233.6 237.3 239.4 239.9 239.3 238.4 237.6 237.3 237.2 237.4 237.5 238 237.1 234.2 232.4 229.5 225 224 220.8 220.8 220.8 220.8 220.8 220.8 220.8 220.8 222.1 223.8 225.5 227.1 228.4 228 226.9 226.1 225.2 222.2 220.7 220.5 219.9 219.8 215.8 214.7 214.7 214.7 214.7 214.7 214.7 214.7 214.7 214.7 214.7 214.7 214.7 214.7 214.7 214.7 214.7 214.7 214.7 214.7 214.7 214.7 214.7 214.7 214.7 214.7 214.7 214.7 214.7 214.7 214.7 214.7 214.7 214.7 214.7 214.7 214.7 214.7 214.7 214.7 214.7 214.7 214.7 214.7 214.7 214.7 214.7 214.7 214.7 214.7 214.7 214.7 214.7 214.7 216.7 215.9 216.3 220.1 238.5 227.4 222.6 221.8 217.9 211.3 211.7 208.8 208.8 208.8 208.8 208.8 208.8 208.8 208.8 210.9 221.8 223.9 228.2 231.2 229.4 234.7 248.1 257.1 265.6 268.4 272 272.6 263.9 249.8 234.7 231.5 235.4 228.5 215.1 216.6 213.6 214.9 216.9 214.9 212.2 211.4 210.3 209.7 208.9 207.4 205.4 203.7 200.8 198.1 196.5 194.2 195.1 195.6 207.1 211.2 214.7 211.2 206.8 205.7 206.7 210.2 211.9 216.3 222.6 227.8 228.5 228.1 225.3 220.8 216.3 208.9 208.3 208.8 209.2 209.5 214.8 223.2 232 247.4 260.9 272.2 282.6 291 296.6 300.8 309.3 324.2 336.4 344.9 350.5 355.1 364.3 384.3 399.1 411.2 411.9 421.1 422.7 424.2 428.4 432.8
237.9 240 240.4 239.8 239.3 238.5 237.8 237.5 237.6 237.2 237.3 237.3 235.7 234.4 231.7 227.4 228.8 228.9 220.8 220.8 220.8 220.8 220.8 220.8 221.3 222.2 223.1 224.7 225.5 226.5 227.2 226.9 225.8 225 223.3 220.2 219.8 220.1 220 219.3 214.7 214.7 214.7 214.7 214.7 214.7 214.7 214.7 214.7 214.7 214.7 214.7 214.7 214.7 214.7 214.7 214.7 214.7 214.7 214.7 214.7 214.7 214.7 214.7 214.7 214.7 214.7 214.7 214.7 214.7 214.7 214.7 214.7 214.7 214.7 214.7 214.7 214.7 214.7 214.7 214.7 214.7 214.7 214.7 214.7 214.7 214.7 214.7 214.7 214.7 214.7 214.7 214.7 214.7 215.6 213.2 213.4 214.1 224.4 221.7 217.5 216.5 213.5 209.8 209.4 208.8 208.8 208.8 208.8 208.8 208.8 208.8 208.8 219.5 226.3 228.9 235.4 234.9 237.2 240.9 257.5 265.2 268.9 276.5 282.5 278.4 261.7 246.2 238.5 243.5 242.6 239.9 237.6 227.5 226.4 222.5 219 216 214.6 214.7 210.7 209.2 209.7 207.4 205.5 203.5 199.6 197.1 196.3 195.6 195.5 201.7 208.1 210.4 209.3 206.8 205.6 206.7 208.1 212 214.9 218.6 222.8 224.6 227.4 225.9 223.3 218.7 214 209 209.4 209.8 210.2 210.4 213.8 223.4 231.8 241.2 254.8 266.8 278.5 287.1 292.1 297.1 308.6 321.6 332.1 339.8 346.6 356 369.7 382.3 398.2 410.4 413.4 419 422.2 423.1 425.7 430.8
