ncols 200
nrows 81
xllcorner 300000
yllcorner 790900
cellsize 50
937.2 918.3 904.1 888.2 877.6 864.4 848.7 835.6 820.8 814.9 814.5 807.8 791.5 751.3 701.5 665.6 636.1 610 587.4 569.2 558 552.6 546.3 536 532.9 544.9 550.3 561.5 581.6 604.1 629.8 653 673.1 689.9 705.7 722.2 737.6 753 769.2 789.4 810.1 829.7 845.4 857.3 863.7 848.2 822.4 806.3 796.3 786.5 775.6 764.5 756.9 750.9 747.1 742.7 739.6 737 738.7 741.4 744.2 746 744.5 741.3 737.9 725.4 716.9 703.9 690.6 677.2 667.6 656.3 642.9 627.2 609.6 588.2 567.5 548.2 531.6 513.2 495 479.7 465.4 459.6 453.7 456.5 456.3 454.7 469.3 481.6 493.5 506.4 517 527 537.8 548.6 560.1 573.1 584.5 597.1 608.4 618.7 626.7 635.5 644.3 652.6 660.7 668 675 680.5 684.9 690.3 696.5 703.1 708.8 716.4 724.1 732.7 742.3 752 763.4 770.9 769.8 768.9 769.1 766.2 762.2 753.4 744.3 733.3 716.1 692.6 673.7 658.8 645.5 631.2 616.4 603.3 591.3 580.7 571.1 559.4 548.4 536.9 531.1 527.6 521.2 509.6 498.2 489 481.9 474.9 468.4 464.6 461.4 454.8 452.9 458.3 458.4 459.9 460.9 461 460.7 460.4 461.9 461.5 456.8 452.5 453.3 461.3 468.6 473.6 477.1 489.8 499.2 509.9 521.1 529.9 531.3 533.6 532.7 531.3 529.4 528.3 531.6 532.9 533.8 534.7 534.4 535.2 534.4 533.3 534.7 537.4 539.9 541.4 543.4 546.4 547.9 551.2
926.7 913 896.8 882.6 867.9 856.6 844.2 826.3 810.6 803.5 802.5 795.7 786 742.2 699.1 661.2 632.5 609 586.1 568.5 557.2 550.5 544.6 532.7 530.9 544.1 549.2 559.5 580.2 602.3 627.8 651.4 672.3 689.7 704.4 720.6 735.2 750.4 766.5 784.8 806.2 826.3 842.9 854.1 855.7 842.3 810.8 799 785.2 774.5 764 754.2 744.9 738.9 734.7 731.2 728 726.1 727.7 730.5 734 738.2 739.7 738.1 732.7 723.3 714.9 703.9 692.4 681.2 670.6 660.1 648.9 632.5 616.1 595.8 572.2 550.8 531 514.1 497.1 481.2 466.2 461.2 456.6 452.9 450.7 455.8 470.3 479.1 492.4 508.8 517.7 526 534.9 545.7 559.8 571.7 584.7 596.2 606.4 615.6 626.5 635.6 644.5 653.2 660.4 667.7 674.5 680.1 685.2 690.7 697 703.5 711.1 717.5 725.1 735 745.9 756.8 768.1 774.3 773.9 773.6 774.4 773.2 769.5 760.8 751.5 740.4 726.2 702.4 683.7 667.5 653.2 639.3 625.5 612.6 600.6 586.7 576.5 567.2 557.3 545.4 537.4 532.9 526.7 517.3 506.3 496.7 487.7 480.4 473.3 466.9 464.4 459.4 453.4 451.9 452.1 457.1 458 458.4 458.3 458.1 457.6 457.6 450.5 451.3 455.3 469.8 473.8 478.6 485.5 493.6 502.1 512 524.2 535.6 540 542.5 543.3 542.8 542.8 543 543.3 545.2 545.6 546.1 544.4 546.1 544.1 544.4 547.7 549.6 551.6 553.8 555.8 557.8 560 563.9
917.6 905.6 892.1 876.5 864.7 852.4 839.2 819.9 807.6 796.8 790.8 785.5 769 725.8 688.6 657 629 606.6 586.2 567.5 555.5 548 542.8 533 527.6 542 549 557.9 577.4 602.3 626.2 649.6 671.3 690 704.5 718.7 732.2 746.7 762.6 780.6 800.8 820.9 837.4 848.3 846.1 820.2 802.5 785.9 773.5 763.2 752.8 742 732.5 725.5 722 720 716.8 715.7 715.7 718.2 721.7 727.1 730 729.2 724 717.8 708.3 699.1 688.8 680.1 670.5 661.3 649.6 632.7 617.9 595.9 575.5 551 531 514.5 498.2 483.4 466.2 459.7 455.4 452.9 449.3 452.6 468.5 477.6 486.2 497.8 511.7 524.9 534.7 547.5 559.2 570.7 583.8 594 604.9 615.2 627.1 636.6 645.3 653.8 660.3 666.9 673.4 680.1 685.5 690.8 697.7 704.5 712.3 718.8 725.2 735.8 747 758.5 769.3 774.8 776.5 777.2 776.7 775.7 772.9 767.7 760.6 748.4 734.8 713.7 694.4 675.5 661 647.1 634.1 621 607.7 594.5 583.8 572.8 562.2 552.2 542.2 534.9 528.9 522.3 512 503.1 494.5 486.4 478.9 474.4 467.5 461.7 456.8 451.1 451.3 453.8 455.1 455.4 455.7 455.5 448.6 449 450.4 450.1 465.2 470.6 474.5 480.2 485.5 493.5 502.5 513.4 526.9 537.4 542.4 547.2 554.7 559.6 561.7 560.1 556.9 556.9 556.6 556.6 556 556.4 555.8 557.4 560.3 562.2 564.3 566.4 568.5 570.5 573.2 577
913.3 898.8 885.6 874.2 861.6 849.3 834.4 819.3 804.3 791.4 782.4 773.2 751.2 712.5 676.1 650.5 626.6 602.6 585.1 567.1 553.6 546.5 541.4 535.9 527.2 528.6 545.2 554.2 575 601.5 625.1 649.1 670.4 689 703.1 715.8 729.1 743.7 758.2 777.2 797.6 815.7 831.7 846.4 832.8 807.5 794.8 774.5 763.6 751.1 740.5 728.1 719.2 714 710.1 708.1 704.1 704.1 704.6 705.7 708.6 715.6 719 718.8 714.1 708.6 701.7 693.7 684.8 676.9 669.3 660.3 649 632.2 614.3 595.6 573.6 552 530.1 512.7 496.6 479.6 465.5 459.5 455.3 451.3 447.9 459.4 471.2 480 489.6 502.1 513.1 525 535 547.8 561.6 574.2 585.5 596.1 606.6 619.2 628.9 637.6 646.7 655.5 661.8 668.2 674.4 681.7 686.1 691.4 697.8 704.4 710.9 717.1 723.4 732.5 745 755.8 764.2 772.2 774.3 776.6 775.4 774.9 773.9 768.6 762.1 753.4 740.2 722.5 704.1 685.6 669.2 654.9 641 628.8 614.8 603 591.2 580.4 569.7 559.3 548.3 540.2 530.7 523.8 518.4 510.8 502.3 494.6 486.8 480 471.2 464.6 459.8 455.5 449.3 450.1 452.6 452.6 453.5 452.3 447.7 448.2 455.9 461.5 468 470.5 474.6 479.4 484.8 492.5 502.6 513.9 526.8 533.7 540 553.3 563.7 568.7 573.2 572.7 572 571.8 571.1 570.4 569.7 570.2 571.2 571.5 574.4 576.8 578.8 580.1 582 583.4 586.4 589.7
906.8 892.4 883.5 870.1 859.5 848.2 837.1 822.7 805.7 792.1 778 759.4 732.8 700.1 667.3 644.9 622.6 598.8 582 566.7 555 546.3 541.3 539.9 522.6 523.7 540.6 554.1 573.7 598.8 623.6 647.7 669.1 687 701.2 713.6 726.1 739.3 754.1 773.8 792.9 808.7 824.3 836.8 811.2 797.3 780.1 764.4 751.1 737.8 722.9 713.2 707.1 701.9 696.3 693.3 690.9 692.2 692.1 693 696.9 703.3 706.7 706.7 703.2 698.6 692.5 686.2 679.4 672.7 665.7 658.4 648.3 631.1 610.9 593 571.4 550.3 526.5 508.6 492.5 476.9 464 461.4 453 449.7 447.4 457.2 469.3 480.7 491.2 503.5 514.3 524.2 536.1 549.4 561.9 576.3 587.6 600.2 610.4 620.9 630.2 639.6 648.5 656.6 664 670.5 677.4 683 687.8 693.2 698.7 703.5 708.3 713.7 720 726.2 736.9 748.5 759.4 767.3 771.7 773.9 774.1 773.5 771.4 766.2 761.1 753.2 741.4 727.1 713 694.5 676.7 660.5 646.2 635.6 621.7 610.1 598.3 587.8 577.1 566.1 555.1 545.4 533.3 525.6 520.8 517.7 510.2 501.1 494.3 485.4 476.1 468.9 462.3 457.4 451.6 448.4 448.1 450.5 451.2 448.7 447 447.3 456.3 461.7 467.5 470.9 474.6 478.7 483.8 491.1 502.5 514 521.8 528.8 544.8 558.9 567.6 572.6 576.9 579.8 583.1 585.7 586.2 586.3 585.9 584.7 585.2 586 587.5 589.4 590.9 593.8 595.3 596.6 599.1 601.4
900.7 891.3 879.7 867.6 858.5 848.5 838.7 827.6 810.2 793.5 777.9 754.2 721.2 690.1 659.9 638.2 619.2 598.9 581.8 570.3 559.4 551.4 540.9 541 529.5 519.5 534 551.1 571.5 596.2 619.4 644.1 664.3 682.4 696.5 710.5 722.7 735.2 750.4 768.3 787.5 802.1 811.7 816 801.5 789.3 769.6 754.3 738.5 723.1 706.7 695.3 689.4 683.4 681.1 677.9 673.7 674.1 675.8 679.4 683.3 690.1 693.8 694 691.9 688.8 682.8 678.2 673.1 666.7 660.5 654.9 646.1 630.3 609.4 585.4 565.8 545.8 523.7 503.4 486.9 473.3 463.3 459 452.1 447.3 447 454.6 468 482.2 495.6 505 516.8 524.2 537.1 551 564.1 578.2 589.6 602.1 612.6 621.5 630.9 641.3 650.3 658.1 665.8 673.1 679.2 684.5 689.5 694.6 699.3 702.5 705.4 709.3 716.8 723.2 731.8 743.4 755.1 761.9 765.3 765.7 766.6 766.5 764.9 761 756.1 748.8 739.8 728.4 715.6 697.4 682.1 667 651.4 636.7 626 616.2 604.2 593.1 583.1 573.8 563.5 550.3 538.9 529.3 523.2 520.3 517.2 509.5 500.9 492.4 481.8 473.7 467.3 460.4 455.1 447.1 446.5 446.1 445.2 445.8 445 450 456.1 462 467 470.5 473.5 477.2 483 489.7 501.3 509.7 516.7 532.8 551.5 559.4 566.2 574.1 578.9 584.4 590.4 595.8 598.8 601.1 601.6 600.9 599.3 600.1 599.3 601.3 602.9 606 607.6 608.3 609 609.7
901.2 889.9 878.5 867.5 857.6 849.6 840.9 829 818 800.5 781.2 754.6 720.2 682.4 655.2 637.4 616.8 600.3 588.7 575 565.2 553.9 545.6 541.8 529.1 516.4 530.1 549.3 567.7 592.6 615.8 639.8 659.9 677.5 694 706.6 719 731.3 745.4 762.7 781.2 795.7 808.7 810.3 796.1 776.2 755.5 739.9 722 703.7 690.9 678.9 671 662.6 658.6 657.8 654.6 655 657.2 660.3 668.2 673.9 678.8 680.5 680.3 677.4 675.1 670.6 665.5 660.2 654.4 649.3 640.1 626.5 607 584.7 557.7 538.5 519.5 497.9 481.7 469 460.5 455.2 448 447.7 444.2 450.5 466.8 482 495 504.7 515.1 524 537.6 551.5 564.5 577.3 589.8 601.6 613.5 621.7 632.8 643 652.1 660.2 667 673.7 679.4 683.4 689 694.6 697.9 700.7 703.1 707.4 713.3 719.8 728.4 736.7 747.9 754.7 757.9 758 757.8 757.1 755.8 753.6 750.6 744.9 737 726.4 715.4 701.6 686.6 673 658.6 643.2 630.7 620.4 609.3 598 589.5 581 570.2 556.8 546 536.5 527.8 526.2 521.1 513.2 507.2 498.3 490.6 480.6 471.3 464.2 457.7 452 445.9 444.9 443.9 444.3 449.7 452.9 456.7 461.1 465.8 469.7 472.1 476 482.3 488.7 497.5 504.3 517.5 538.3 551.4 559.2 565.6 571.2 577.1 584 592.2 598.4 603.8 609 611.3 613.5 612.7 613.1 612.8 614.5 616.5 618.1 618.2 616.9 615.7 614.4
901 885.3 873.7 864 855.8 847.5 840.7 833.2 824 807.8 788.2 755.5 714.9 680.1 654.4 633.1 618.5 600.8 590.8 578.9 568.1 558.9 550.5 545.9 527.5 514.4 528.4 545.8 565.4 588 610.3 634.7 654 672.4 687.7 701 713.8 725.5 738.8 757.8 775.7 790 799.8 802 786.3 764.1 740.2 725.1 705.5 688.6 675 663 654 645.2 642.1 640.2 640.5 639 639.2 645.5 648.6 653.4 660.6 664.6 666.6 667 666.4 662.9 658 654.1 649.1 643.2 631.9 618.8 599.4 577.1 549 529.9 511.8 493.2 477.4 464.9 457.4 451.4 447.1 445.3 442.7 450.6 464.3 478.4 493.2 503.5 514.3 523.7 537.8 550.4 563.5 576.4 588.8 601.1 612 622.5 633.6 644.1 650.5 659.7 666.1 674.1 678.7 682.4 687 693.7 696.4 697.9 699.9 703.3 710 716.9 725.2 732.6 739.6 746.7 749.6 750.5 750.9 750.9 749.8 748 744.9 739.5 733.4 725 715.7 703.9 690.7 677.8 662.3 650.4 637.2 621.5 612.2 603.3 595.1 586.8 576 565.2 554.7 545.7 535.6 529.3 523.7 519.3 514 505.2 497.6 488.7 478.1 468.1 459.3 452.7 448 444.1 442.5 442.5 449.1 452.6 456.3 461.6 466.1 469.6 471.9 475.8 482.5 488.4 495.6 505.6 522.4 540 549.9 558.5 562.8 568.7 575.2 583.4 592 598 603.5 609.5 615.3 620.5 622.1 623.1 625 625.1 624.7 623.8 622.8 621.5 619.1 617.5
888.5 873.7 865 857.6 850.3 845.5 840 834 826.4 816 798.1 764.8 724.3 686.1 649.1 627.3 611.3 599 589.7 580.8 570.3 561.7 553.9 547.9 531.9 512.3 526.3 543.7 562 582.1 605 627.9 647.5 665 680.9 694.6 708 719.3 732.8 751.4 766 779 785.9 787.6 769.4 752.4 721.3 710.8 693.1 674 659.2 646 638.2 631 626.3 623.9 622 622.5 623.1 625.8 630 634.7 642.1 646.1 651.7 654.5 655.7 655 653.3 649.8 644.6 637.9 624.2 609.6 590.6 571.9 549.4 522.6 504.5 487.1 472.7 461.4 454.6 448.3 443.9 443.5 443 448.9 464.1 479.7 492.7 504.9 513.3 525.1 538.7 551.5 563.9 575.9 588.9 599.8 610.8 622.6 634.5 641.3 647.5 656.4 663.3 671.5 677.5 681.5 685 690.1 693.2 695.5 694.6 698.7 704.9 712.7 721.2 728.1 733.6 738.3 742.6 746.1 745.5 743.8 743.6 741.4 738.4 733.7 728.5 722 713.8 703.2 690.4 678.9 665.7 654.7 640.7 627.9 617.1 607.8 599.2 589.9 581.5 571.8 562.4 553 542.9 532.6 528.2 523 516.7 511 502.5 494.9 484.9 473.5 461.5 453.3 447.5 443.2 441.4 442 448.1 451.3 455.6 460.2 464.8 468.6 471.4 475.6 482 488.3 494.9 509.2 525.2 537.7 547.3 556.1 561.9 568.1 574.4 581.9 590.7 597.1 603.5 609.9 615.8 622.9 627.8 629.3 629.6 629.6 628.1 626.4 624.4 620.7 618.3 615.9
865.1 856.4 850.5 845.7 840.3 838.5 834.4 831.9 826.3 818.8 805.5 774.6 723.6 687.6 653.2 625.5 607.5 594.4 587.7 580.3 571.8 563.7 556.1 544.9 530.9 509.9 521.4 537.4 555 574.7 596.1 619.6 641.1 660 677.8 688.8 701.8 713.9 726.1 741.1 753.5 762.4 765.2 766.5 757 725.2 706.1 692.3 676.6 657.5 644.7 633.7 625.6 617.1 613.5 610.6 608.6 607.4 607.7 611.7 612.3 615.2 626.2 633.8 636.5 644.3 648.9 649.5 648 648.3 643.1 634.9 619.3 603.4 583.7 562.9 537.2 515.6 497.2 481.8 467.6 457.6 451.4 444.8 442.5 442.3 440.9 450.8 463.3 479.6 492.6 504.8 512.8 526.4 540 551.6 562.4 575.3 587.7 599.3 610.4 620.3 631.2 638.8 646.2 653.5 660.4 668.2 673.5 677.5 681.5 686 688.4 690.5 691.4 694.6 700.2 707.6 714.6 721 728.4 732.8 735.7 737.4 737.8 736.6 734.3 733 730.4 725.5 722 716.2 708.4 699.3 688.4 676.6 666 656 643.7 631.5 620.8 610.6 601.7 592.4 587.7 577.4 567.1 558.4 549.4 538.5 533.2 525.5 518.5 514.8 507.8 499.9 489 477.6 464.3 455.9 449.5 442.5 440.7 441.2 446.5 450.7 455.8 460.3 464.4 466.6 469.4 474.6 481.2 487.7 495.3 506.4 522.4 532.7 545.1 556.6 563.8 568.6 574.3 580.1 588.2 595 602.4 609 616 623.4 630.6 633.3 632.9 630.7 628.1 626.3 622.5 618.5 614.5 612
836 832.7 833 830.6 829.2 826.6 826.7 824.9 822.6 817.3 805.9 787.2 747.4 692.9 657.4 625.5 612 592.8 585.8 578.3 569.6 561 549.3 539.1 529.8 509.3 515.5 531 548.8 568.1 588.1 610.4 631.7 653 669.5 682.4 695.5 707.4 718.1 730.8 737.8 741 736.4 729.4 717.7 704 689.6 675 659.2 642.6 630.9 618.5 615.1 605 596.3 589.2 588.6 589.7 592.3 594.6 595 599.5 605.5 612.7 620.7 630.5 637.7 642.8 644.8 646.6 641.6 631.8 616.1 595.3 577.1 555.1 530.3 509.5 491.4 475.4 463.2 453 447.4 442.2 441.1 441.1 439.2 449.1 460.4 476.5 491.1 502.3 513.2 526.1 539.6 551.7 562.8 573.3 585.3 596.6 605.9 615.8 624.7 635.2 641.4 649.7 657.2 663.7 669.2 673.3 677.1 680 682.8 684.4 684.9 689.7 696 702.8 709.1 715.1 722.5 726.6 729.3 731.3 731.2 729 726 723.6 722.1 718 713.1 708.2 701.6 694.6 685.4 674.4 665.9 656.2 645.4 633.6 623.8 613.5 603.9 594.9 590 584.4 572.1 561.9 553.7 543.8 535.6 527.9 521.4 517 511.9 502.6 493.3 481 467 456 447.1 441 440.8 440.5 443.7 449.3 454.7 459.9 464.2 465 468.9 473.7 479.6 486.3 494.4 504.5 519.4 530.9 544.6 556 563.6 569.9 574.9 580 586.2 592.4 599 605.8 615.6 623.1 631.8 636.1 634.3 631.5 628.8 624.8 620.5 616.6 612.6 608.6
810.1 808.7 811.3 811.2 810.2 810.6 812 812.9 812.1 807.9 796.1 777.6 744.8 699.6 664.6 632.6 613.3 594.1 583.3 575.1 564.2 552.1 537.1 526.1 520.2 506.4 509.6 523.4 541.8 561.5 579.6 600.1 620.8 642.1 662.9 677.2 688.9 699.1 708.2 718.8 723.1 720.1 717.7 712.5 702.1 680.7 665.4 653.8 640 629.4 615.7 605.8 593.9 585.5 578.5 573.6 572.1 574.4 576.5 579 583.1 586.5 591.9 596.6 603.7 615.4 625.3 633.9 640 643.3 644.6 629.2 611.4 591.7 574.1 553.4 526.3 504.9 487.3 470.5 461.8 452.3 446.6 443 439 440 437.9 449 459.5 475.7 492.1 500.1 512.3 524.8 538.4 550.6 562.7 573.4 584.3 594.5 605 616 622.7 632 638.9 645.8 652.8 659.2 664 668.4 672.1 674.5 676.2 676.9 679.1 686 691.5 698.5 704.3 710.4 716.6 720.6 721.6 724.3 723.8 721.2 718.5 715.4 713.1 710.3 706.1 701.2 694.9 688 681.4 671.8 663.8 654.6 645.2 635.2 624.2 614.1 605.7 596.6 600.8 589.9 574.8 564.9 556.3 547.1 538.6 530 524.3 518.6 513.4 507.6 498.6 484.9 469 456.6 448.1 440.3 439.8 439.9 439.3 449.1 454 459 461.9 462.8 467.5 472.7 478.5 486.2 495.6 506.7 519.7 530.1 543.6 554.5 562.5 567.8 573.3 578.8 584.5 590 595.9 604.8 613.9 623.4 632.1 637.2 634.9 631.6 626.7 622.5 618.6 613.6 608.6 603.6
789.1 787.9 788.5 790.5 791.6 791.3 794.7 797.7 796.7 791.2 780.4 761.6 738.8 704.5 669.6 637.5 615.3 595.5 574.9 567.8 554.5 539.2 526.8 518.3 512.9 509.7 503 515.1 532.3 552.2 571 591 612 629.7 653.1 670.7 680.6 690.5 696.7 704.6 706 695 690.6 678.7 665.2 652.1 641.4 632 619.6 604.2 592.6 581.3 576.1 570.1 563 558 555.7 560.1 564 566.9 569.7 572.3 579.1 584 591.4 601 611.1 624.2 633.6 642.6 644.7 625.8 604.5 587 568.9 549.7 523 501.3 484.6 469.2 454.3 445.8 441.3 455.5 444.8 438.1 437.2 452.2 460 476.2 490.7 499.2 511 523.8 536.5 549.1 562.2 571.9 581.8 591.9 601.9 613.5 621.2 627.4 634.4 642.5 647.7 653.9 658.6 663.2 666.4 668.7 671 670.7 677.2 683.4 688.4 693.9 699.7 705.4 711.6 715.1 716.5 716.9 715.4 714.3 711.2 707.5 706 703.5 699 694.3 689 683.9 676.5 668.2 660.2 653.4 644.3 633.8 621.2 614.3 603.3 600.4 596.1 587.9 580.4 566.7 558.7 549.6 540.1 533.6 527.1 519.2 514.8 511.2 502.4 488.1 471.5 458.9 449.5 440 438.6 438.4 440.5 450 453 457.8 458.8 462.5 467.2 472.2 477.4 486.5 499.1 509 520.7 529.6 542.7 551.3 559.5 565.9 570.4 576.3 582.3 587.4 594.9 604.1 613.7 622.9 631.2 633.6 632.9 629.6 623.1 619.1 614 608.7 603.6 598.5
766.7 765 765.9 767.1 768.2 770.7 773.8 776 774.5 768.6 756.5 742.1 727.2 704.4 674.4 643.8 617.9 596.1 577 560.3 544.9 531.2 520.2 513 509 506.2 495.5 507.8 523 540.2 560.4 578.1 600.6 621.8 641.9 659.9 668.9 676.2 679.7 681.1 680.2 667.1 663.3 646.8 636.8 627.2 616.9 606 591.9 574.7 565.3 557 549.4 547.6 545.5 540.9 539 543.3 547.6 553 554.4 558.6 563.2 566.7 574.8 581.8 596.6 612.1 624.4 635.5 637.4 620.6 599.5 580.6 560.8 542.9 522 497.7 479.7 465.7 452.7 443.5 438.6 451 456.3 438.1 435.7 453.4 462.6 474.8 488.2 500.1 510.2 523.7 536.1 547.4 559.7 570.4 582.1 591.7 598.9 609.3 615.9 622.9 632.2 640.2 644.9 648.9 653.3 658 660.8 664.4 665.5 669.1 675.2 680.2 685.5 690.4 695.5 701.1 706.6 709.4 710.1 710.8 709 705.3 702.2 699.5 696.8 694.2 691.4 687.6 683.2 677.6 670.3 663.7 657.1 650.7 640.1 627.7 619 610.5 602.3 595.6 590.9 586.9 582.5 573.8 561.5 550.8 542.6 536.2 529.4 520.6 515.6 512.6 503.8 490.2 474.1 461.5 449 439.3 438.4 437.6 444.2 449.5 451.9 454.6 456.5 460.7 466.4 471.5 477.9 487.2 500 510 520.1 529.1 541.2 551.8 559.3 565.7 569.3 572.9 579.6 586.2 595.7 604.6 613.3 622.5 628 629.9 629.9 625.8 619.7 615.5 610.7 604.5 599.3 593.8
740.8 739.2 740.7 743 745.2 746 747 747.4 745.6 737.3 730.5 720.7 705.1 690.5 670.6 646 620.5 598.4 579.4 562.2 545.7 531.8 518.5 510.7 506.7 502.8 491.7 500.8 513.3 528.4 548.7 569.1 588.9 611 629 641.6 644.6 652.2 655.1 652.8 645 634.5 629.3 618.9 607.8 598.2 588.5 575.4 562.6 548.9 540.9 533.3 527.2 526.1 522.3 521 520.7 520.8 528.8 532.1 535.6 542.7 544.9 548.6 559 565.7 578.7 596 609.6 621.9 629.5 622.5 595.9 579.4 560.8 539.4 518.9 495.7 477 461.4 450.5 443.1 435.7 439.2 442.9 436.2 435.3 452.9 460.8 471.2 486.7 497.9 510.8 523.5 535.4 545.6 557.1 567.3 580.3 588.2 594.4 602.3 611.6 619.8 628.6 635.3 641.6 644.5 648.7 652.9 656.5 658.7 661.3 667 672.6 677.1 681.5 686.8 692 697.2 701.3 703.7 704.9 703.5 701.1 698.4 695.1 692.2 689.3 686.8 685.1 681.4 677.3 672.5 665.7 659.8 652.4 644.4 629.6 616.5 603.5 599.7 596.1 594 586.4 581.7 577.5 574.5 565.1 553.5 544 538.4 531.4 523.3 517.1 512.3 503.9 490.2 476 461.8 449.9 442.2 437.3 437.5 447.2 450 450.7 451.5 455.1 460 465.5 471.2 478 487.6 498.2 509.1 518.8 529.1 541.8 551 557.6 564.9 567.6 570.6 577.4 583.1 591.5 601.9 612 619.9 627.1 630 627.5 620.5 614.2 611 607.1 600.8 595 589.3
716.9 714.8 715.7 717 717.5 717.1 718.1 716.6 715 709.7 702.9 693.6 682.1 672.8 661.1 644.2 621.8 601.9 581.5 564.5 545.2 531.6 517.9 508 504.4 501.2 487.4 493.6 500.7 513.2 531.4 557.9 577.5 596.7 606.9 612.2 616.3 619.5 618.9 617.2 615.5 608.1 600.3 591.1 578 565.8 557.4 549.8 533.8 524.4 515.7 511.3 505 503.4 501.5 499.7 500.8 500.3 504.7 509.5 514.1 524.4 530.1 535.1 539.8 551 567.7 577.5 592.3 607 619.9 621.1 595 576.9 560 537.6 517.3 494.6 474.7 458.6 449.1 442.8 434.8 434.5 434.3 435.8 440.8 448.4 456.9 468 480.8 495 508.4 523 535.8 545.3 555.3 564 573.3 585.1 592 600.7 609.1 616.8 624.9 632.6 638.5 641.4 643.8 648 651.7 653.6 657.3 663.1 668 672.3 677.1 682.1 687.1 692.1 695.7 696.9 697.8 695.9 692.7 691.1 688.8 685.9 682.8 680.1 677.5 675.7 672.1 667.6 661 654.5 642.5 625.9 624.2 619.5 610 597.2 587.5 582.2 577.1 575.7 572.8 569 559.3 549.8 541.4 535.2 528.9 523.9 518.1 510.4 501.9 490.3 475.8 462.6 450.8 442.8 436.8 435.9 444.7 449.3 449.8 451.7 455 460.2 465.4 471.5 478.4 487.2 498.2 508.8 520.1 531.1 539.4 548.6 555.6 563.3 566.3 569.4 576.6 581 587.3 598.3 609.1 616.7 624.9 631.1 628.6 619.2 610.3 605.7 600.9 595.4 590.9 585.5
693.5 693.8 695.5 697.2 694.8 695.6 694.9 691.4 688.7 681.7 678.2 673.3 666.2 657.5 647.9 636.9 622.6 604.4 585.6 568.2 552.3 533.3 519.8 509.1 504 498.7 492.3 484.4 494 499.7 515.8 541.6 561.6 577.9 585.5 589.2 590.3 588 588.8 587.4 584.6 583.5 574.7 566.9 552.4 540 529.6 521.9 512 501 493.3 490.3 486 485.7 483.8 482.8 482.2 483.1 485 488.4 494.2 501.7 511.3 516.3 526.9 538.9 548.6 564.5 578.5 592.1 606.7 597 579 563.6 550.4 531.6 510.1 491 472.4 455.2 446.1 442 436.5 434.1 434.2 434.1 442.1 448.4 454.9 467.8 480.3 495.9 507.6 520.7 535.2 543.7 552.2 561 570.5 581 589.2 597.7 604.8 613.7 622.7 629.4 635.6 637 638.4 642.7 646.7 649.3 653.6 658.4 661.7 666.8 671.5 676.9 682.1 686.6 689.1 690.2 689.4 688.9 686.5 683.8 682.6 679.9 678.1 675.3 672.1 670.1 666.3 660.9 649.9 640.2 632.1 625.7 622 611.9 596.5 593.5 585.6 583.5 577.3 573.3 565.9 558 557.5 549.3 535.9 531.1 525.9 521.4 515.9 507.8 499.2 489.2 475.6 461 451.5 446 435.4 435.9 435.6 449.2 450.2 451.9 454.4 459.3 465.8 472.6 479.4 487.6 499.1 510 521.8 532.3 539.9 546.2 553 560.2 565.8 567.7 575.5 579.2 585.8 592.7 606.1 611.9 620.2 627.8 626 615 606.7 600.5 594.7 587.8 585.2 582.8
675.7 675.3 674.3 675.5 673.1 672 671 668.1 666.9 663.3 658.1 654.5 650 641.9 635.6 625.9 616.8 603.8 588.2 571.4 559.3 540.8 525.1 514.7 505.9 499.5 490.1 481.7 490.4 492.4 501.9 520.2 543.8 552.3 559.5 562.3 560.9 560.2 558.8 558.4 557.7 555.2 549.2 542.7 531.3 519.7 509.6 502.7 493.9 484.3 479.9 474 474 471.4 468.6 469.7 468.8 470.8 473.8 479.3 484.9 490.2 494.6 501.3 513.2 526.8 535.2 546.1 561.7 576.7 582 575.2 560.9 553.9 540.8 529.1 508.7 489.7 471.1 453.5 445.3 439.3 433.9 432.6 433 432.7 441 447 453.4 466.1 480.2 492.6 505 519.2 531.1 540.6 551 557.2 566.8 576.1 584 596.3 604.3 612.4 619.1 625.9 631.4 632.3 633.9 636.2 639.3 642.7 648.8 653.4 656.2 660.8 666.1 671.2 676.6 680.8 682.8 684.5 682.7 681.8 679.7 678.1 675.5 672.9 671.8 661.6 660.4 662.5 656.5 658.6 651.3 635.7 630.4 624.2 615.8 605 595.6 585.9 589.7 583.6 577.6 571.9 561.4 555.7 561.6 546.6 528.6 523.6 521.5 515.8 508.9 502.2 494.4 485 471.4 459.4 453.8 445.9 437.3 434.7 435 448.4 450 452.1 454.3 458.3 466.7 473.7 480.2 489.4 502.4 512.8 521.8 531 540.1 545 550.6 556.9 562.7 568 571.5 576 583.3 587.7 598.4 606.2 611.9 618.3 616.9 607.3 600.5 595.4 590.5 585.8 581.7 580.5
657.2 656.2 656.1 657.7 654.8 654.4 651.1 650.4 646.8 643.2 640.7 636.8 632.7 628.2 622.6 616 610 601.3 585.7 570.5 559.5 545.4 530.3 519.5 509.8 500.3 490.4 479.4 479 489.4 489.3 500.2 519 529.9 537.6 541.2 538.4 536.6 535.7 533.9 532.1 530.2 527.7 520.9 511.6 501.8 494.3 487.5 481.6 470.6 467.4 464.9 462.2 460 458.8 460.3 462.3 464.5 467.6 471.6 477.3 481.9 487.3 492 496 510.4 522.5 534.5 544.3 553.7 560.8 561.7 549.4 542.8 529.5 518.5 504.3 488.4 469.4 452.4 441.6 434 431.8 431.3 432.1 432.2 438.8 443.4 450 463 478 493.6 505.5 517.7 531.1 539.3 544.9 554.2 562.3 573.6 584.3 595.9 602.2 609 615.8 621 627.8 626.6 628 629.9 634.6 637.1 642.9 646.7 649.7 656.1 660.9 665.6 671 674.8 676.1 677.5 676 674.4 672 669.6 662.2 664.8 665 665.4 664.3 661.7 660.8 656.7 649.7 641.6 631.2 629.1 621.3 610.9 594.3 595.8 588.1 581.5 573.5 564.7 557.2 545.9 550.7 538.9 529.6 514.5 511.2 506.7 498.6 492 483.4 475.9 467 457.8 452.6 444.1 436 433.5 433.5 445.3 449.5 452.4 453.2 457.2 467.2 473.9 480.3 490.1 503.5 513.5 521.3 531.7 539.4 544.4 548.3 552.9 558.2 566.5 566.3 573.1 580.1 584.3 586.1 592.5 595.3 600.6 600.8 596.9 589.7 588.9 584.5 579 577.7 575.3
639.8 641.4 641.5 640.7 640.7 638.4 635.3 634.3 630.7 626.7 623.8 621.8 618.5 613.9 608.1 604.8 599.7 592.7 581.1 567.7 558.9 545.7 529.4 520 511.8 501.8 492.8 480.6 476.5 474.3 479.3 485.2 493.2 506.5 513.1 519.1 516.6 517.7 516.9 513.2 510.4 510.1 507.3 500.9 494 486.1 478.8 470.5 466.3 462.1 459 457 453.4 450 453.2 455.2 457.4 459.5 461.9 464.2 468.9 474.1 477.7 484.8 494.7 510.2 511.2 522.7 529 534.6 539.5 539.8 537.2 525.2 517.9 509.5 499.1 486.1 468.6 452.2 439.9 431.6 431.2 430.6 431.7 432.8 434.9 439.6 448.9 460 473.2 488.2 502.2 515.9 533.7 544.3 544.4 552.2 560.8 572.4 582.2 590.9 601.4 608 613.1 616.7 620.3 620.6 622.3 624.4 629.4 631.2 636.4 639.1 642.2 646.4 655.1 660.3 665.6 668.8 669.5 669.3 668.4 668.4 665.1 662.5 660.5 660.8 661.4 661.2 662 660.5 658.7 654.7 649 642.4 639.8 632.3 623 606.5 599.2 592.5 584.3 576.1 568.4 560.4 551.6 543.1 545.9 546.2 525.1 510.5 498 496 490.1 484.2 476.7 466.7 461.2 455.9 450.4 439.1 433.8 433.2 433.1 441.5 449.9 451.8 452.9 458 466.3 474.2 481.9 492.1 504 513.5 521.2 530.8 539.2 544.4 547.3 550.7 555.3 562 566.4 566.8 574.7 579.8 582.8 581 581.3 581.2 578.7 577.5 575.1 574.3 574.6 571 569.5 568.6
624.9 627.5 628.2 628 626.5 622.7 622.1 620.5 616.4 611.9 608.3 606 603.2 600.2 595.2 593.3 588.4 583.6 573 564.6 554.3 543.3 531.3 520.3 511.3 505.8 498.8 489.2 478.1 474.4 470.8 474.8 477.9 481.7 493.3 496 499.2 500.6 499.1 496 492.2 490.6 489.1 484.1 479.8 472.7 465.3 462.3 459.7 455.1 452.3 449.9 446.5 446.3 449.8 450.6 450.3 451.6 454.2 456.2 460.4 465.6 470.9 475.2 487.5 499.8 502.3 512 514.8 518.3 522.6 521.7 520.8 513.6 507.9 500.2 491.9 481.7 466.7 450.8 437.5 431.3 429 429.7 430.2 431.2 430.5 436.9 445.2 459.5 470.8 485.4 498.7 513.4 531.5 538.1 542.2 551.9 561.8 571.2 583.1 593.7 600.1 606.2 611 614.5 615.3 617.3 617.5 618.7 622.5 626.3 629.5 634.1 636.5 640.9 649.5 655.1 660.8 663.8 664.2 664 664.1 661.7 660.8 661.8 660.6 659.3 658.9 658 659.2 659.2 657.9 655.6 652.4 648.9 644 636.3 626.2 614.8 603 594.3 585.6 576.3 567.3 558 548.7 538 531.2 532.9 517 505.8 494.3 488.2 481.5 477.7 471.9 465.5 460.2 455.7 448 442.2 432.6 433 432.1 441.2 449 451.6 452.4 458.1 466.4 472.8 481.9 491.7 502.9 512.6 520.7 530.2 538.9 543.4 546.5 549 553.4 559.2 564.3 564.6 569.5 573.7 576.3 575.4 574.7 574.1 572.6 571.1 569.7 568 563.4 558.8 562.7 565.6
611.2 612.6 613.3 612.4 609.9 608.6 607.4 606.5 602.6 598.8 596.1 593.1 591.3 588.8 583.7 579.7 575.7 569.3 564 554.7 545.7 536 528.4 517.9 507.6 501.2 495.5 488.9 483.9 476.1 470.1 467.8 466.2 465.7 469.7 476.2 483.4 486.5 483.4 482.3 478.9 476.1 472.8 470.3 465.3 463.2 460.3 454.9 451.7 449.4 446.9 443.5 441.5 440.2 443.7 447.4 442.7 443.7 444.7 447.7 453.2 456.8 460.6 469 479.4 493.5 498.4 502.4 503.3 505.1 507.3 504.9 501.7 499.1 494 488.4 481.9 471.9 462.4 451.2 438 430.2 428.7 428.9 429.5 430.4 430.5 434 442.6 460.1 469.1 484.1 497.1 512.5 528.1 531.5 541.3 551.9 561.4 571.9 582.3 592.3 599.5 606.2 609.3 610.8 610.4 613.2 613.4 613.7 616.4 619 624.3 628.2 630.5 635.6 642.6 650.2 655.9 659 659.1 658.5 658.2 657.1 656.5 656.1 655.4 653.6 654.2 654.8 655.7 657.4 657.6 655.7 653.9 651.5 644.8 636.2 626.9 617.9 607.4 597 587.6 576.7 566.8 557.8 547.9 536.6 526.9 515.4 509.1 498.4 490.6 486.9 481.5 474.7 468 462.7 459.2 453.8 448.2 442.2 432.1 432.1 431.9 441.1 448.7 450.3 451.3 458.2 466.5 473.2 481.7 490.6 500.6 513.1 521.3 530.9 538.5 543.8 546.3 548.2 552 556.7 562.3 567.4 561.6 564.4 570.7 570.3 570.4 569.8 567.2 563.6 560.7 557.9 553.5 550.7 553.4 558.3
595.9 597.4 597.8 598.4 597.1 594.9 593.3 592.2 589.4 586.5 584.3 583.4 580 576.4 573.5 568.7 563.1 557.8 554 545.2 539 532.4 523.9 520.9 508.7 501.3 491.7 486.5 482 476.9 469.3 466 464.4 463.6 462.6 460.4 462.3 468.6 468.4 466.4 467 463.3 462.8 461.9 458.8 457.8 453.5 447.8 445.1 443.6 443.2 443 443.1 442.8 441.2 439.3 437.7 437.7 437.9 439.7 444.8 449.5 454.5 468.2 478.9 483 482.4 485.9 489.6 492.1 491.5 486.9 483.4 482.3 479.8 475 469 461.7 454 444.5 436.8 431.3 428.7 429.4 429.9 428.2 428.3 432.9 441.9 458 469.5 482.6 495.7 509 519.6 528.7 538.3 550.7 562.4 571.9 580 591.2 600.3 605 609.7 610.1 608.6 608.9 610.3 607.7 610.1 615.6 617.9 622.2 624.5 628.2 635.7 644 651 654.3 655.4 654.9 653.1 652.1 651.3 651.2 649.6 647.8 647.5 648.6 651.1 653.9 655.5 654.6 652.3 650 643.2 635.6 628.5 620.9 610.7 598.9 585.8 574.4 565.4 560.7 555.3 537.3 525.7 513.1 501.3 497.1 491.3 486.2 480.7 473.9 466.9 461.4 456.2 447.1 443.7 436 431.7 431.1 431.4 435.9 442.1 447.7 449.9 458.5 467.4 475.1 481.8 490.1 501.4 513.1 522.2 530 536.2 539.8 542.2 546.5 551.4 557.1 562.7 565.4 562.9 558.1 559.4 563.5 562.7 559.9 557.6 554.6 551.3 548 546.6 545.7 545.4 547.9
584.1 584.7 586.7 585.4 583.5 582.6 581.8 580.3 577.6 573.4 574.2 573.2 568.9 564.2 560.4 557.7 552.8 549.1 541.7 536.3 531.6 522.6 515.8 509.1 504 498.1 492.4 483.8 479.1 477.1 474.5 468.1 462.6 461.5 462.3 460.4 458.3 457.3 458.5 458.5 459.8 457.5 455 455 453.3 449.6 446.9 446 444.5 443.7 442.9 442.5 443.1 444.9 448.2 445.3 443.5 437.6 435.4 434.4 440.2 444.9 448.3 457.5 468 469.3 469.2 470.6 475.8 478.9 475.2 472.9 469.4 468 463.8 459.3 454.6 450.7 444.1 437.8 433.6 430.6 427.2 427.7 428 427.5 428.1 435.1 443.9 455.1 467.4 480.7 493.5 506.7 513.8 524.8 540.2 551.5 564.1 570.7 580.6 593.3 601.1 605.9 610.4 611.2 607.1 603.6 601.8 601.1 603.6 609 613.2 616.1 618.2 622.4 628.9 637.2 645.6 648.5 648.1 648.2 648.5 647.5 645.7 644.5 643.6 641.9 641 639.7 641.7 646.2 651.2 652.8 650.1 646.2 640.2 634.6 628.7 620.5 608 596.6 582.5 572 564.7 557.2 544.1 527.4 512.9 502.8 497 494.8 491.8 486.7 478.2 470.8 463.9 458 451.3 440.8 437.8 431.1 430.7 430.3 430.2 432.7 440.5 445.9 448.7 459.3 468.1 476.2 483.7 490.9 502.6 513.4 521.8 527.8 533.6 537.9 542.2 546.4 551.3 557 562.5 566.2 564.9 557.7 551.3 555.3 557.5 557.8 550.1 548.1 546.9 546.6 543.6 544.2 545.6 545.5
573 572.4 574.4 572.7 572.8 572.2 571.4 570.7 568.5 563.3 558.8 561.3 559.5 555.6 552.2 549.9 542.5 537 534 524.9 521.6 516.2 508.7 500.8 500 501.8 492.6 483 476.7 471.1 467.1 464.3 462.7 460.8 460.1 458.5 456.7 456.1 455.6 454.2 453 451.8 450.6 450.2 448.4 446.4 445.9 446.1 445.4 444.5 444 443.9 449 455.5 450.9 448.3 446.1 441.5 436.8 434 433 443 442.7 451.8 457.6 460.7 458.8 459.3 467.3 467.7 461 458.9 458.8 454.1 450 449 444.5 440.8 438.3 432.2 429.9 426.2 426.4 426.8 426.9 426.6 427.9 433 446.8 457.9 468.2 481.2 493.7 501.9 510.9 523.6 535.7 548.1 559.2 569.5 583.8 594.8 602.2 607.1 610.6 609.6 605.9 601.9 601.7 601.2 602.6 603.1 604.3 607.9 612.4 617 622.3 630.1 639.3 641.8 641.9 641.7 642 641.4 640.2 637.9 635.9 637.1 637.3 637.4 636.9 640.4 641 648.3 646 641.2 637 631.8 626.3 617.1 605.6 592.1 578.8 569.5 553.8 535.6 517.3 502.9 496.2 493.4 488.6 492 487.4 479.3 471.8 465.4 458.5 451.1 444.5 438.8 436 432.3 429.2 428.5 429.2 429.4 435 442.1 448.3 459.7 468.5 477 484.2 492.9 504.6 513 521.2 526.8 532.2 537.9 542.1 546.4 551.3 557 562.1 566.6 565.5 561.5 557.8 549.9 549 551.2 550.3 545.6 542.6 539.9 538.5 539.1 545.8 547.1
559.8 559.2 563.4 566 564 561.8 560.8 554.7 551 553.2 551.7 548.4 545.9 542.6 540.8 536.2 531.7 519.2 526.8 511.6 513.8 511.6 502.3 502.3 495.7 491.2 491 490.1 485.5 479.3 473.6 468.1 463.1 460.9 463.7 458.6 455.5 455 454.6 452.8 451.9 450.1 449.7 448.8 447.7 447.1 445.8 445.1 444.6 446.3 448.7 452 463.2 474.6 466.6 454.6 444.2 440 436.3 433.1 431.8 433.8 434.5 441.3 447 453.5 454.9 453.6 460.3 457 450.8 455 453.9 446.5 440.3 442.3 437.7 433.6 432.1 428.2 426.4 426 425.9 426.9 425.8 426.2 427.1 437.8 446.5 458.4 468.7 480.1 491.3 498.9 506.9 518.1 529.2 543.7 554.4 568.1 583.5 594.5 598.7 606.6 608.1 608.1 606.1 602.3 600.8 601.3 600.9 604.2 603.7 604 606.2 611.1 615.7 621.7 630.2 634.2 635.7 637.2 636.3 636.7 635.5 633.9 633.2 634.2 632.8 633.2 633.8 634.7 637.1 641.8 638.6 635.7 631.3 625.1 617.3 609.8 595.6 583.6 568.6 549.1 526.5 507.7 495.7 485.1 478.1 478.2 478.4 485.5 481.9 470.9 466.9 461 454.4 448.1 442.3 439.7 437.5 433.5 430 427.8 429.2 428.9 432.1 439.1 447.1 459.6 468.9 476.9 483.7 492.7 504 511.7 520 525.5 530.8 536.4 542.1 546.2 551.2 555.8 561.3 566.5 566.3 564.1 559.9 554.1 549.3 545.1 546.5 539.8 539.1 536.8 535.4 535 535.9 543
560.2 557.5 555.5 553.2 553.3 551.9 554.2 557.1 553.7 551.1 546.9 548.6 546.3 546.8 543.6 542.1 540.7 537.7 524.9 529 530.4 528.1 521.8 513 509.6 506.2 501.6 497.9 493 488.5 484.7 474.7 467.7 465.8 462.3 458.7 456.6 454.3 453.1 452.7 450.6 450.3 449.7 448.2 447.8 446.4 449.5 446.3 447.7 453.5 457 458.2 460.9 473.8 465.4 453.4 447.3 440.9 437.8 439.7 431 431.1 431.4 433.7 440.1 451.8 455.6 448.2 452.8 452.3 449.7 443.1 447 438.6 432.2 430.9 429.7 428.7 428.4 426.5 425.1 424.9 425 424.7 425.6 426.4 431 436 443.6 455.1 466.4 478.4 487.5 495.8 503.9 513.2 524.3 536.2 550.1 566.3 581.9 590.7 595.3 598.8 601.1 605 605.8 601 600.1 598.8 598.1 598.8 598.8 600.2 602 603.7 607.8 613.5 621.5 624.3 626.5 629.3 630.8 631.7 629 627.4 626.2 626.2 625.6 624.6 627.1 633.3 633.6 633 628.9 625.9 623 616.4 604.4 588.3 571.4 559.3 542.2 521.1 502.6 490.1 482.9 489.2 491.8 490.8 485.8 475.5 471.7 463.1 461.8 456.7 453.4 450.5 445.4 442.5 440.8 436.7 429.3 427.6 427.7 428.4 431 436.4 445 460.3 469.5 477.1 484.9 493.1 503.4 511 519.1 526.3 532.1 535.8 541.2 546.3 548.9 554.6 560.3 565.1 564.7 564.2 562.3 555.3 548.8 541.2 537.6 534.8 533 533.3 532.2 532.5 533.3 537.4
569.6 568.1 567 563 566.6 565.7 565.9 565.8 563.6 560 555.3 553.2 549.4 549 547 547.2 547.1 542.1 540.3 539 536.6 533.8 529.2 523.2 517.9 512.7 507.8 504.1 499.1 496.6 486.9 480.3 481 477.1 473.6 469.2 456.8 455.1 452.6 451.6 450.2 449.9 448.5 448.6 447.6 448.1 451.9 454.3 460.9 463.9 466.3 467.1 468 469.5 467.1 461.6 454.4 449 444.7 443.6 434.7 429.7 430.6 430.8 438.5 451.2 458.6 452.9 444.5 447.1 439.2 432.4 432.4 430.2 427.5 426.3 426.5 425.7 424.9 424.6 424.3 425.3 424.8 425.4 424.7 426.3 434 438.4 442.5 453.1 463.6 473.7 483 491.7 500.4 509 519.1 531.2 545.2 560.4 575.8 586.2 592.4 595.3 597.7 599.9 599.9 599.4 597.2 597.1 596.5 597.1 596.5 593.6 593 595.3 598 604 610.5 615.7 618.4 621.4 621.7 621.1 620.9 618.5 613.9 614.3 611.7 611.1 619.2 632.4 633.7 633.1 626.9 624.9 622.3 608.3 577.2 562.1 549.4 531.4 512.3 497.4 485.3 485.3 497.2 503.8 503.3 495.1 490.7 485 479.5 468.5 466.8 464.3 459.8 455 450.8 446.3 445.5 442 437.9 426.5 426 427.3 427.9 437 445.4 461 469.7 477 484.3 492.9 503.3 509.9 519.1 526.9 532.6 535.7 541.6 547.4 549.4 554.6 560 564.6 565.2 565.3 562.6 556.7 548.3 540.7 536.3 531.8 528.3 527.4 529.3 529.4 530.6 535.5
576 576.1 574.9 576.4 574.4 573.5 573.1 571.9 569.6 567.4 564.8 556.5 554 549.7 550.3 552.1 550.1 549.8 548.5 545.1 541.5 539.2 534.4 529.2 524.8 520.4 516.9 513.1 508.3 499.1 494.5 490.6 489.7 486.2 480.4 476.7 466.1 457.7 456.6 454 452.8 450.8 451.4 452.4 452.7 454.5 456.6 463.3 468 471.5 475 478.1 478.7 477.4 473.2 464.1 456.6 452.4 458.1 448 441.5 430.8 430 430.6 438.1 451.3 456.1 451.2 441.5 443.8 436 428.4 426 424.9 424.4 424 424 424.2 424.3 424.2 421.8 422.4 423 423.8 424.6 430.7 436.8 439.9 442.5 451.3 460.9 469.4 479.7 488.4 497.5 505.3 514.6 526.2 539.4 555.3 567.4 579 588.4 593.7 594.3 594.6 596.2 593.4 589.7 589.5 590.1 591.7 591.5 590.4 586.8 589.7 593.2 595.9 599 605.8 609.5 612.3 614 613.9 613.6 612.8 604.5 608 608.1 612.7 609.3 627.6 634 632.3 625.1 620.2 616 587.3 564.4 537.2 517.9 502.8 491.8 484.3 494.3 512.1 517.9 518.5 513 503 496.3 491.9 487.8 480.8 474.8 470.1 464.7 460.4 456.5 452.4 449.2 445.1 441.4 437.1 425.1 426.1 426.8 436.4 446.5 458.8 470.3 477.5 484.6 492 502 509.2 518.6 525.5 530.2 535 540.4 545.4 549.1 556.5 561.8 567.2 567.4 565.8 563.7 558.8 548 539.6 533 530 526.5 524.6 525 525.4 527.8 531.8
582.2 582.6 583.8 583.5 583.6 582.6 581.7 579.3 577.5 574.5 571.6 565.4 561.8 559.6 559.2 558.5 558.4 557.4 554.9 551.5 547.7 544.5 538.8 533.5 530 526.7 522.8 518.4 513.6 511.3 507.1 501.7 498.4 494.6 489.2 484.5 474.6 464.1 461.8 459.6 459.5 460.8 460.4 458.9 460.6 461.3 463.9 469 474.3 479.4 487.1 488.7 490.3 484.2 476.3 470.1 465.1 465.8 465.7 449.5 440.5 430.3 429.5 430.4 436.9 444.1 447.4 441.7 433.2 439.5 436.7 426.6 425.3 424.8 424.3 424.3 423.8 423.2 422.9 421.9 422.9 422.9 422.8 424 431.1 431 435.7 439.4 441.4 448.3 459.1 466.7 474.7 483.7 493.2 501 511 522.1 533.1 549 560.6 572.7 584.6 595.3 596 594.5 591.5 587.5 584.4 585.6 586.9 588.4 588.3 586.1 583.1 583.3 585 588.6 593.5 596.5 598.9 603.4 605.7 606 605.3 598.8 590.1 586 589.8 592.3 607.5 619.5 621.7 621.7 615.9 606.2 584.6 560.9 538.2 512.3 496.5 486.4 485.2 496.7 517.8 526.6 527.3 526.3 523.1 514.7 505.8 501.6 494.6 486.5 480.7 474.7 469.5 465.8 461.5 456.4 451.7 445.6 442.3 437.8 425 425.4 425.2 435.9 449 459.6 468.8 478.3 486.3 492.9 499.8 508.3 516.5 522.7 528.3 533.2 537.5 548.9 548 559.8 566.7 568.7 569 567.3 564.6 560.1 550 537.7 531.5 528.7 526.5 524.9 521.9 522.4 524.7 527.6
590.1 591.4 593.7 595.4 596.2 595.2 592 589.2 585.2 582 579.1 575.3 571.4 569.4 567.9 567 565.5 563.1 561 558 554 549.8 544.4 538.7 535.2 532.3 528.4 524.4 520.5 518.2 514.4 509.6 506.2 502.3 496.9 490.4 481.5 476.7 467.7 469.4 468.8 464.2 467.1 466.1 471.5 476.2 472.5 475.6 481.1 489 498.5 500.1 498.8 491.3 484.2 475.5 470.6 476.1 474.1 457.6 444.6 434.6 430.1 428.6 428 434.8 439.4 434 429.7 431.5 428.7 425.9 425.2 424.7 424.3 424.6 423.9 423 421.9 421.7 422.1 424.7 434.5 434.8 433.9 431 436.1 439.7 440.2 444.8 454.4 462.3 469.8 477.8 487.7 496.2 506.1 517.8 529.8 543.4 556.6 570 582 592 597.6 597.3 592.2 582.9 581.5 583.4 584.9 585 584.1 581 578.5 578.2 579.2 580.2 584.3 588.4 590.2 592.4 595 595.7 594.6 593.8 598.3 581.3 589.6 580.8 605.6 603.9 602.3 594.8 589 576.5 553.2 532 508.4 491.5 484.3 492.6 507.2 522.7 535.5 538.2 537.3 535.3 531.1 523.2 514.4 508.4 501.5 494.6 487.5 480.4 475 471.6 465 460.3 455.7 448.6 444 439.3 433.9 424.7 424.4 437.1 450 459.9 468.9 478 486.8 492 497.1 506.7 515 519.9 525.1 530.1 535.7 542.5 551.8 561.9 566.7 569.1 568.8 567.8 564.4 560.2 551.4 536.8 531.2 527.3 525.4 524.3 522.7 519.6 519.5 521.5
596.8 597.8 602.1 605.1 606 605 602.8 600.1 595.4 592.9 588.9 584.9 583.3 579.4 578.7 577.1 572 569.2 567 564.5 560.2 555.3 550 544.9 540.9 537.3 533.2 529.3 526.2 523.2 519 515.1 512.2 508.7 504.7 495.1 494.1 486.6 475 479 478.2 473 475.2 475.8 474.4 483.2 482 486.1 494.6 498.7 505 508.2 508.6 500.6 493.3 484.6 477.8 478.1 494 478.3 456.2 437.1 432.1 431.2 426.9 428 432.7 428 426.7 428 430.9 425.3 424.8 423.9 424.3 424.3 423.6 422.8 421.8 421.2 420.6 423.7 425.9 426.1 427.3 429.1 435 440.1 441.2 443.6 449.3 455.8 463.3 470.1 479.7 491 503.9 515.5 526.3 538.2 551.8 565.6 578.5 590.2 596.4 599 593.9 582.4 580.1 581.6 583.7 580.9 576.9 573.9 574.2 574 574.7 575.6 576.4 578.8 581.4 584.3 587 589.2 590.5 590.8 589.5 581.5 572.4 577.8 587.5 584.4 579 570.2 561.7 546.9 530.7 503.3 486.5 484.3 494.7 515.8 534.9 543.4 546.9 548 545.7 543 539.3 532.6 523 516.8 509.4 503.1 495.7 487.5 483.6 477.6 469.7 464.7 458.8 452.5 446.3 439.2 435.3 423.5 423.7 435.3 450.7 459.3 468.1 477.8 486.5 490.6 496.1 504.8 511.3 516.4 519.8 528.4 534.9 543.9 550.9 557.7 565.2 567.4 567.3 567 562.4 556.9 550.3 540.2 533.5 529.8 523.9 522.7 523.2 522.1 516.9 517.7
602.3 604.8 607.5 610.4 612.3 611 609.8 608 605.7 603.7 599.1 597.4 593.9 591.2 590.1 586.4 581.3 576.9 575.9 571.3 563.9 558.4 553.6 550 545.9 542 537.8 534 529.7 526.5 522.4 520 517.5 514.5 510.4 505.2 502.8 495.9 487.4 492.3 493.2 487.5 483.1 485.7 489.9 489.7 492.2 496.3 500.2 508.8 513.9 515.9 515.4 510.1 502.2 494 486.6 479.8 493 492.2 467.3 444.2 434.8 432.4 430.9 427.3 426.1 434 426.3 427.7 433.4 424.9 423.3 423.2 422.8 422.9 423.6 422.5 421.8 420.8 420.4 423.5 424.3 422.8 426.9 430.3 435 440 442.1 443.9 446.2 450.9 455.9 463 474.8 486.7 499.1 509.2 520.5 532.9 547 560.5 574.2 583.4 592.5 597.6 595.9 586.1 581.1 580.3 580.8 579.5 567.1 569.1 570.3 569.9 570 569.4 569.3 571.3 573.6 576.3 579 581.1 582.8 582.8 577.9 576.2 564 572.6 569 565.3 560 547.5 524.7 516.1 497.4 484.3 485.6 502.4 520.4 541.7 550.1 555.3 557.5 557.4 554.3 550.9 546.2 540.4 535 525.2 515.5 509.8 503.2 496.3 488.7 481.9 475.5 468.6 460.7 453.7 447.8 438.1 435 422.9 423.3 435.5 450.7 458.9 466.5 475.8 484.1 488.9 494.7 501.3 508.2 512.7 517.3 520.8 530.2 539.7 548 552.9 562.1 565.3 565.9 565.5 562.7 552.8 546.3 540.5 535.6 531.8 524.5 520.7 519.2 517.3 516.2 516.7
606.9 610.7 614.4 616.1 616.9 617.7 615.4 615.1 614.5 611.8 608.6 605 602.6 600.9 596.8 592 588.3 586.2 585.5 576.5 568.9 562 557 552.9 549.3 545.3 541.2 536.6 533 529.7 526.7 524.4 521.7 518.8 515.7 511.9 508 505.8 497.9 501.4 497.6 497.7 497 495.2 503.8 502.4 497.5 504.5 511.3 515.7 520.2 521.5 520.7 516.9 511 502.2 496.4 487.3 486 485.7 469.6 450.3 440.2 436.5 432.9 427.3 425.9 426.6 425.9 425.6 423.7 430.2 424.7 423.9 423.6 422.8 422.7 423.5 423.3 423.6 420.7 419.3 417.4 419.8 424.2 429.5 433.2 437.8 441.3 443 444.4 447 451.2 457.6 467.7 481.5 493.9 504.4 515.1 527.6 541.9 556.1 569.1 575.9 581.9 586.1 586.9 583.9 579.6 578.2 577.8 576 567.3 566 566.2 565.8 564.5 563.7 564.1 565.2 566.4 568.4 571 573.1 575.2 575.7 573.5 569.1 553 560.1 557.2 552.9 539.7 524.7 508.7 493.2 487.7 501.1 517.4 532.2 547.1 553.8 558.4 563.1 565.3 566.4 563.3 559.4 554.1 547.3 540.7 533.2 523.5 512.8 506.4 501 495.6 488.6 481.4 471.2 462.8 454.7 448.5 441.9 435 422 422 432 449.3 457 462.7 469.4 480.4 485.8 490.3 497 503 508.5 511.7 517.5 524 533.7 540 547.5 555.2 560.2 563.2 562.6 559.2 549 540.2 535.9 530.7 527.5 521 518.9 517.7 515.5 513.8 514.9
612.5 615.6 618.4 620.1 620.9 620.6 620.2 619.8 619 617.7 613.9 612.2 609.4 606.2 601.5 596.6 594.6 592 590 581 572.5 567 560.9 555.8 552 548 543 538 534.4 531.4 528.7 526.8 524.1 521.4 518.3 515.5 513.2 510.3 499.6 503.6 501.3 500.8 501.2 502 504.5 502 504.5 512.9 518.6 521.7 525 527.4 526.8 523.2 519.6 511.3 505.3 502.7 488.9 479.8 469 458.7 448.6 442.7 437.9 435.9 431.6 426.5 426.9 430 430.7 430.7 431.3 425.6 425.2 428.8 431 429.2 428.8 428.1 426.8 425.5 420.6 418.6 423.2 429.4 431.6 435.6 439.6 441.7 442.3 444.7 446.5 452.7 462.6 475.1 486.7 497.5 508.5 522.2 538 551.8 565.2 570.9 575.2 576.3 578 578.1 577.5 575.2 574.6 572 567.3 562.6 562.6 561.9 560.6 558.8 558.9 559.8 561.1 562.3 563.7 565.7 567.8 568.6 567.7 564.7 559.9 543.4 547.3 537.5 532.6 509.5 493.8 494.2 514.1 530 545.8 553.1 559.4 563.6 567 571.2 571.7 571.7 571.6 567.5 562.4 556.7 549.3 537.8 527.8 518.9 512.5 507.1 501.4 495.5 485.9 473.1 463.2 455 447.6 442.1 434.9 421.4 421.7 428.7 445.8 454.9 460.6 466.2 474.8 480.3 485.9 491.2 497.7 506.4 508.9 513.4 517.4 523 529.7 535.9 541.8 544.2 553.2 555.4 551.7 544.3 535.6 528.5 522.6 520.1 517.5 517.1 516.2 513.6 514.3 514.4
615.8 619.6 622.1 623.2 623.4 623.3 623.3 622.7 621.2 619.4 617.6 614.8 612.3 609.5 604.6 600.8 597.7 594.7 590.2 584.3 575.7 570.2 564.6 558.8 554.5 549.4 545.3 539.7 535.3 532.4 529.6 527.2 525.6 523.5 520.3 517.6 514.4 510.6 508.6 509.2 506.5 506.5 506.8 509.3 507.1 511.5 510.8 518.5 524.4 529.1 533 534.8 533.3 529.8 527.8 521.1 514.1 509.7 502.6 489.2 478 467.9 459.6 455.2 450.1 446.4 444.6 441.5 442.9 440 438.9 439.5 440.2 437.2 437.3 439.4 438.8 437.3 433.4 430.1 427.5 424.6 419.5 417.1 427.7 430.8 429.9 432.8 436.9 439.9 440.9 441 443.3 449.1 457.5 468.7 478 488.9 501.7 515.2 531.6 545.4 558.5 564.9 570.7 573.5 575.2 578.1 579 574.8 567.7 565.8 565.6 562.2 559 558.5 557.3 554.8 554.2 554.5 555.6 556.8 558 559.6 560.1 560.7 560.3 554.7 551.5 523.4 535.8 518.7 502.5 492.4 503.3 521.3 540.8 553.6 561.7 564.8 568.4 572.4 575.4 576.7 577.1 576.8 576 574 569 563.4 555.3 544.8 533.5 525.6 516.7 511.1 505.6 498.7 488.2 475.9 465.3 455.1 446.5 440.7 434.5 422 420.6 421.1 440.8 451.7 457.8 463.8 471.7 477.4 481.8 484.6 489.1 495.6 501.9 505.9 511.5 516.6 516.8 524 526.2 530.8 533.1 533.7 533.4 531.8 527.8 519 516.4 514.7 514.4 514.5 514.2 510.4 512.3 512.8
619.2 623.3 624.7 626.1 626 625.4 625.3 624.4 622.2 621.4 619.2 616.9 614.5 611 607.1 603.5 600 597 592.2 585.4 578 572.9 567.6 562.1 556.6 550.7 546.2 541.6 536.4 533.6 531.2 528.3 526.2 524.7 521.7 517.7 515.5 509.2 513.2 514.8 514.6 513.3 512.9 513.9 511.8 518.3 518.3 523.5 527.8 533.4 538.2 539.7 539.7 537.5 534.7 531.7 525.1 517.6 507.3 496.4 489.2 482.4 475.8 469.3 466.9 465.7 461.2 459.9 460 458.4 458.9 457.6 456.5 456.9 451.2 451.1 446.9 444.6 439.1 431.1 427.9 425.7 419.5 417 423.1 426.5 429.2 431 434.4 437.8 437.7 437.3 440.5 446.4 453 462.2 470.5 481.2 491.8 504.6 522.4 539.1 549.7 559.1 566 570 574.1 578.5 582.6 573.4 565.7 561.5 558.9 556.9 553.9 556.7 554.5 550.6 549.9 549.3 549.7 550.9 551.5 553 555.4 555.7 543 521.9 514.2 505.5 507.1 495 492.6 515.1 532.7 547.2 561.6 567.8 570.9 572.5 575.3 578.2 579.5 581 581.6 581.6 580.3 578.8 574.5 568 559.4 549.7 538.5 529.8 520.9 513.6 506 501.3 494.1 481.8 469.1 457.3 445.2 440.8 434.9 426.6 420.3 419.7 432.8 447.3 455.2 461.1 466.4 473.2 476.5 479.8 484.3 486.4 490.4 495.3 501.4 511.1 512.6 513.4 514.2 516.2 519 519.4 517.6 516.4 514.1 511.1 508.6 508.9 509 509 509.4 506.3 507.9 508.8
622.8 625.2 626.7 627.8 627.9 627.4 626.4 624.6 621.8 621.9 619.9 617.4 614.9 612.3 609 605.6 602 598.4 593.4 586.9 580 575.4 569.4 563.4 557.3 550.7 546.6 542.7 538.7 535.2 532.9 529.5 526.9 524.4 521.5 515.8 516.1 515.3 517.1 517.6 518 518.9 519.7 520.6 519.7 518.7 523.9 527.4 530.7 537 543.3 546.3 549.3 547 544.5 543.3 537.9 530.6 521 511 504 499.7 493.8 486.7 484.2 481.3 479.4 477.8 477.6 476.9 480.5 480.3 477.8 475.1 467.7 461.8 456.1 450.5 443 434.4 429.5 425.5 424 416.9 417.1 422.5 424 428.5 431.7 434.2 434.4 432.8 435.4 442.9 448.5 454.5 462.5 471.5 480.5 493.5 507.7 522 536.4 550.4 557.2 564.4 571.7 580.2 574.3 567.5 563.3 561 559.2 552.7 550.6 551.1 550.6 546.7 544.1 543.7 544.2 544.8 546.7 547.5 546.1 537.3 513.7 510.1 517.1 505.6 494.9 492.8 514.5 539.9 556.1 567.3 574.9 575.7 577 578 580.2 582.3 583.7 584.6 585.4 585.3 584.3 581.6 576.8 570.6 563.2 555 545.6 536.6 525.4 517 506.3 502.7 496.5 486.2 472.8 458.2 444.9 440.6 437.5 428.2 431 419.3 427 438.2 452 456.6 459.8 467.6 470.8 474.7 477.3 481.9 482.8 485.3 489.3 498.8 503 504.8 506 507.2 506.6 506.7 504.2 505.6 503.7 502.1 502.9 502.9 503.9 505.2 504.8 501.3 501.5 504.8
623.1 625.9 627.3 627.8 628.6 627.7 626.4 624.4 622.4 621 618.4 616 613.9 612.2 609.6 606.3 602.5 598.5 593 587.8 579.9 576.4 570.7 564.9 557.4 551.5 547.9 544.1 539.8 536.6 533.5 531.7 528.1 525.1 520.3 520.6 519.5 519.5 520 520.6 521.2 522.1 522.9 523.6 523.5 520.5 526.1 529.9 533.7 539.9 546.4 553.1 555.4 558 557.7 555.6 551.8 545.5 540.1 533.4 522.7 515.6 514.3 509.3 507 503.3 498.6 495.9 495 493.9 493.6 492 491.5 487.7 479.7 471 464.7 457.3 448.6 442.6 434.5 427.1 424.6 425.7 416.4 412.3 412.6 426.6 427 429.9 430.5 428.4 427.2 431.4 442.2 447.9 454.4 461.5 469.5 482.8 495.2 505.8 517.9 529.4 536.4 547 560.5 562.7 563.3 559.7 559.4 558.1 554.7 552 542.2 546.2 544.1 541.2 537.4 536.5 536.4 537.4 539.4 542.6 528.7 516.8 503.1 527.2 534.9 524.5 511.2 518.2 537.8 557.9 570.7 577.1 578.7 580 580.9 582.3 583.4 585.9 587.9 588.5 588.1 587.4 586.2 583.5 579.1 573.9 567.5 560.3 551.4 541.1 529.5 519.7 508.4 504.1 497.7 489.3 473.9 457.7 445 439.2 437.7 431.1 425.3 418.4 418.4 434.1 447 451.2 454.8 460.5 466.4 470.3 474.8 474.4 477.1 479.9 481.1 481.9 485.1 489.3 491.6 491.6 492.5 492.4 493.2 494 495 496.8 497.1 497.5 497.3 498.1 496.1 494.8 494.9 499.7
622.3 624.9 627.6 627.9 627.2 626.4 625 623.1 620.8 618.9 616.3 613.9 612.1 610.4 607.8 604.6 601 596.3 590.6 585 579.7 575.9 571.1 566 559.3 552.3 548.2 544.8 540.6 538 535.1 532.9 530.3 525.6 524.9 525.2 524.3 524.6 524.1 524.2 524.7 525.8 526.1 526.4 527.2 525.4 528.6 532.6 536.7 542.3 549 556.1 560 565.2 569.3 569 568.3 564.1 560 552.5 549.4 545.6 540.7 539.9 535.1 529.2 523.9 519.4 517.2 516.4 514.5 511.5 507.2 502.4 493.5 484.7 475.7 466.3 456.4 447.1 442.5 436.7 429.7 429.6 425.7 419.8 412 420.8 421.1 421.7 421.9 421.5 421.2 426.2 436.1 441.3 446.1 451.7 460.2 469.3 480.5 490.9 502.7 512.3 519.8 525 532.8 538.2 544.2 544.8 544.2 545.3 544.7 542.4 542.3 533.5 533.2 532.2 531.1 533.7 531.9 533.7 532.4 529.5 513.1 505.4 511.5 532.8 544.7 548.4 548.3 554.3 565.9 574.5 582.4 582 583.3 583 583.1 584.5 586 588.6 590 589.7 589.5 589 588.3 585.3 581.5 576.3 571 563.9 554.8 544.1 531.3 522.2 512 505.7 499 491.5 476.2 457.3 446.4 439.4 437.4 432.7 424.4 416.2 417.2 432.6 441.2 446.1 450.2 456 459.7 464.3 468.6 472.1 471.9 472 476 477.1 478 477.5 479.5 481.7 482.1 483 484.9 486 487 487.4 487 487.4 489.5 489.2 486.8 486.7 491.5 496.1
621.6 623.8 625.7 625.9 625.5 624.8 622.9 620 616.7 615.3 613.1 610.6 608.9 606.2 603.4 601.1 598.8 594.9 588.6 582.8 578.7 574.9 571.1 565.6 559.9 553.8 548.6 545.4 541.9 539.4 536.6 532.8 527 524.6 528.7 529.6 529.3 528.9 528.8 528.3 528.4 529.4 529.4 529.5 529.8 529 531.9 535.6 540.1 545 552 559.2 566.9 572.7 577.2 580.6 582.8 583.6 583.6 580.5 576.2 570.7 567.3 566.4 561.7 556.3 552.5 548 543.7 540.6 538.2 532.4 527.3 518.1 508.2 498.5 487.7 475.1 464.5 454.3 443.5 434.6 426.7 423.7 420.7 419.1 411.8 415 416.7 415.6 415.7 416.8 419 420.8 429.8 430.7 434.9 441.8 450.1 457.8 466.7 476.5 486.1 494.8 502.7 512.2 516.3 519.8 523.2 527.9 529.5 531.8 533.8 535.4 536 537.1 525.8 527 524.2 525.8 523.4 528.9 531.1 523.9 506.1 504.1 513.1 531.9 546.7 554.2 563.7 571.9 576.4 579.1 582 584.3 584.4 584.5 585.3 585.9 588.4 591.1 591.3 591 590.8 590.5 589.9 587.3 583.9 578.6 573.3 566.1 556.7 546 536.1 526.8 516.7 508 500.9 493.8 478.7 461.3 448.4 439.9 438.5 434.6 426.1 417.4 415.9 428.4 436.1 441.2 445.6 450.6 456 459.1 462 464.5 466.4 470.1 470.7 471.3 468.1 470.5 471.4 472.1 473.8 474.2 475.7 476.8 478.4 478.7 478.5 478.8 478.1 477.4 477.8 483.5 488.2 494.3
620.4 623.1 623.5 624.5 623.3 622.1 620.8 618.2 613.7 610.3 608.7 606.8 604.2 601.7 599 596.6 594.7 591.2 585.9 581.5 577.7 573.2 568.8 564.7 558.8 553.2 549.1 546.3 542.8 538.6 535.2 537.2 536.8 535.4 535.4 535.1 534.4 533.7 533.3 532.9 532.5 532.7 532.8 532.8 532.9 533.6 534.7 539.5 543.9 548.1 553.7 560.9 569.2 577.5 583.6 590.2 596.1 602.8 605.6 606.2 604.8 598.2 594.4 590.8 587.6 582.1 576.4 571.6 567.7 568.8 564.8 558.8 547.3 537.4 524.8 512.3 499.4 485.4 471.4 461 447.9 438.4 430.5 422.5 418.4 418.7 415.1 411.5 413.2 412.2 412 411.7 415.8 418.2 422.5 424.4 424.2 432.5 439.8 447.7 455.9 463.7 468.9 477 486.7 495.4 501.3 506.7 512.2 513 517.6 519.1 520.3 522.7 522.4 521.3 520.4 511.3 512.5 513.9 515.6 519.8 522.1 513.8 502.2 504.8 518.2 533.7 546.3 557.3 570.1 575 576.8 579.2 581.7 584.2 584 584.7 585.2 585.9 589.3 592.3 592.5 592.3 592 591.8 591.5 589.5 585.9 580.5 573.3 565.6 557.9 548.5 538.8 532.3 520.2 509.7 502.3 495.6 488.5 470.1 452.6 444.7 441.7 435.6 429.6 418.8 416.4 423.1 431.1 434.8 439 443.1 448.9 454.4 458.5 458.7 459.9 461.2 462.9 464.5 465.5 463.5 463 463.8 465.2 466.9 468.4 469.4 468.2 470.1 472.9 474 472.7 469.5 473.1 477.4 485.5 491.9
622.2 624.9 624.8 625.8 622.5 620.7 618.8 615.9 610.1 607.3 604 601.5 599.5 597 594.5 592.1 590.5 587.8 583.7 579.5 575.5 571.8 567.1 563.5 558.2 552 549.8 545.9 542 543 543.2 543.1 543.1 542.6 541.3 540.6 539.9 539.2 538.4 537.7 537.3 537 537.2 537.3 537 536.9 537.3 541.8 546.8 551 555.8 563.5 571.8 580.4 588.2 594.4 605.1 614.9 626 629.6 629.4 629.1 623.6 622.5 620.7 615.7 609 604 597 595.9 594.8 584.8 571.6 557 541.8 524.1 509 494.2 479.4 468.9 456.9 444.6 437.6 430.5 422.2 418.5 415.8 415.6 410 410.6 411.2 411.1 409.1 415.4 416.7 417.4 417.7 420.6 429.1 435 440.2 448.9 455 461.8 469.7 478.2 485.1 490.4 495.7 502.3 506.3 510.6 512.5 512.7 513.5 513.6 514.5 504.1 513.8 512.1 515.8 514.7 505.4 501.9 500.7 513.7 529.8 539.6 548.9 560.3 568.1 574.3 577.6 579 580.3 582.6 583.4 583.7 584.1 585.4 588.8 591.3 592.7 592.7 592.7 592.6 592.6 591.3 586.9 582 575.1 568.1 561.1 550.9 541.5 534.2 524.1 514.4 505.7 499 489.1 474.2 460.5 450 441.9 435.7 430.1 416.6 416 412.8 425.5 429.9 432.7 436.2 440.8 445.6 450.2 450.6 454.1 455.1 456.9 454.9 457.3 458.6 460.3 460.3 460.6 460.7 462.3 460.2 460.9 463.4 465.8 467.4 466 463.7 466.4 469.7 477.8 484.9
625.8 628.4 629.9 627.8 624.4 620.8 617 613 607.4 604.6 601.6 598 595.7 593 589.7 587.4 585.7 582.8 580.3 576.8 572 569 564.8 562.1 556.6 552.7 549.2 546.5 547 547.8 548.3 548.4 548.9 548.9 547.2 546.2 545.5 544.8 543.7 542.7 542.5 541.8 542 542.1 541.8 541.1 540.9 543.8 548.3 554 558.5 564.8 572.5 581.8 590.5 598.8 609.9 622.1 633.6 642.6 648.9 648.4 650.8 654.5 647.6 642.6 637.6 632.7 627.5 624.9 621 614.8 598.9 578.2 555.5 533.2 517.1 500.1 487.1 474.8 463.7 452.1 443.8 434.7 427.6 422.2 417.8 415.7 415.3 413.3 410.2 409.3 410.7 409.8 410.4 414.2 415.1 418 420.1 422.4 430.3 436.9 443.8 450.3 456.2 462.5 468.2 475.8 481.8 486.8 493.4 498.7 502.1 504 504.9 507.5 507.2 504.5 498.5 503.9 501.4 500.1 499.5 502.1 510.9 531.1 538.6 545.8 553.1 561.8 569.4 574.1 577.4 578.2 579.4 580.8 582.1 582.6 583.4 584.9 588 590.3 592.6 593 592.9 592.9 592.4 591.7 588.2 584.4 578.3 571.4 564 554.2 545.1 534.6 526.6 519.9 510 502.4 493.6 480.3 466.6 452.4 440.8 437.2 431.9 423.3 415.3 413.6 413.7 425.5 428.1 429.8 432.6 435.3 438.9 440.6 444.4 448.5 451.3 451.9 449.6 450.3 453.6 455.2 455.8 456.1 454.8 454.3 454 455.2 457.7 458.4 458.1 457.9 455.7 462.8 467.8 473.2
632.9 634.7 633.1 630.6 626.2 621.2 617.4 614.3 608.7 604.3 601 596.5 593.5 588.4 584.6 583.2 580.7 578 574.4 571.6 569.6 565.7 562.3 560.2 556.3 552.3 551.5 552.4 552.8 552.7 553.2 553.8 554.5 555.1 553.4 551.7 551 550.3 549.1 547.7 547.7 546.7 546.8 546.4 546 545.5 545.4 546 550 555.7 560.4 566.1 573.2 581.6 590.7 600.7 611.5 622.2 634.4 644.7 653.2 660.6 672.1 676.6 674.3 665.9 659.6 657.3 654.6 652.6 648.6 637.9 619.4 595 566 541.8 525.1 511.4 497.3 484 472.1 459.6 446.8 436.7 429.8 425.2 420.2 416.3 414.7 413.8 414.3 414.9 411.1 410.3 409.8 408.2 409.4 414.2 413.5 416.9 423.1 430.6 434.7 439.3 444.3 448.9 455.6 462 469.7 473.5 479.6 485.7 490.2 493.6 496 496.7 496.7 491.2 495.8 498.5 498.7 497.9 501.6 508.7 521.9 535 541.8 549.6 558 563.1 569.6 573.9 576.7 577.4 577.9 579.3 580.8 581.6 582.4 584.4 586.9 589.3 591.6 593.3 592.9 592.5 592 591.2 589.4 585.8 580.9 574.6 566.6 557.1 547.8 538.4 530.9 524 515.7 507.4 500.2 489.1 473.3 459.2 444.5 438.2 434.1 428.5 414.5 414.2 413.7 418.4 417.5 420.1 424.5 427.5 430 431.1 433.5 437.1 441.6 443.8 445.1 443.8 447.2 448.1 449 449.4 447.5 449.6 447.9 450.1 449.5 450.2 451.3 450.7 449.3 453.8 457.6 462.8
641.4 640.1 637.2 633.5 628.3 623.5 619.7 614.5 609.2 605.4 600.2 595.3 592.4 588.6 585.3 582.2 578.1 574.5 570.9 568.5 566.7 564.6 561 557.6 558.4 558.6 557.4 557.4 557.5 559.7 560.4 560 560.5 561.1 559.5 557.8 557.6 557.3 555.6 553.9 553.2 551.9 551 550.6 550.4 550.7 550.9 551.9 553.3 557.4 562.3 567.4 574.2 581.7 590.8 599.8 609.6 621.4 633 644.9 655.3 665.7 675 682.3 684.4 680.1 675.2 672.3 670.8 669.4 665.5 651.9 631.8 606.3 578.1 555.4 537.1 521.8 507.4 494.2 480.4 465.8 451.2 440.3 432.9 428.6 423.3 419.6 417.1 415.2 413.3 413 411.1 409.9 410 408.7 407.5 411.9 410.6 412.8 420.2 424 429.1 429.8 432.4 436.1 443.3 449.1 455.4 460.6 467.3 472.2 478.4 482.8 484.7 486.9 489.6 476.4 483.2 491.1 494.1 499.8 507.6 514.9 527.1 535.1 543.6 551.3 558.9 564.8 569.6 573.8 574.6 575.2 576.1 577.6 579.2 581.2 581.4 583.6 585.9 588.3 590.8 592.9 592.6 592.2 591.5 590.5 589.1 586.6 582.9 576.4 570 561.9 552.5 544.3 537.3 529.3 520.5 512.6 505.2 494.1 483.5 470.7 449.6 440.1 438.5 432.9 419.2 412.9 413.4 411.3 410.9 411.1 410.4 418.7 422.1 424.9 426.8 428.5 431.2 435.1 437.6 435.5 439.8 440.7 442.3 442.9 443 443.3 443.3 445.8 446.1 444.5 445.1 444.2 442.9 446.3 449.5 453.6
649.5 646.9 642.6 638 632 627.2 621.7 614.7 609.8 604.9 599.9 594.6 591.4 588.7 584.7 581.1 577.1 572.8 569 566.7 564.8 563.6 563.2 563.1 563.5 563.4 563.2 564.3 564.5 566.6 567.3 566.8 566.6 567.2 565.8 565 564.5 564 561.8 560.4 559.1 557.8 556.1 555.5 555.6 555.9 556.2 556.7 556.3 561 563.1 568.6 575.3 582.2 591.1 600.1 610.7 621.7 633.7 645.5 655.9 666 675.6 682.5 686.5 685.2 682.8 683.2 679.4 680.7 676.8 663.8 641.8 617.2 590.1 565.8 546.8 532 517.3 502.7 487.6 472 455.9 444.3 436.7 430.9 426 424.3 421.3 415.6 413.8 413.1 412.5 409.8 409.5 409.2 406.8 408.1 408.4 409.6 413.2 416 420.7 423.3 425.9 428.7 432.1 437.6 443.1 447.9 453.6 458.3 464.6 471.8 475.3 478.2 478.2 462.2 475.3 478.2 492.1 500.9 508.1 516.7 525.9 534.6 543.8 551.9 559.4 565.7 570.8 573.5 572.5 571.4 574.1 576 577.8 579.1 580.4 582.7 585.3 587.9 590.5 592.2 592.2 591.6 590.9 589.8 587.9 586.1 582.5 577.8 572.5 564.6 557.1 549.2 543.8 538.1 531 518.1 507.9 498.4 488.3 473 457.2 446.6 441.5 437.7 432.7 428.5 412.7 412.1 410.1 408.9 408.5 409.8 414.7 416 418.1 422.6 424 426.9 428.8 429.4 430.1 434.8 435.7 436.6 437 436.9 439 440.3 441.1 440.4 439.9 438.8 438.5 439.3 441.7 443.7
661.5 657.2 650.7 645.6 638.8 631.6 625.4 618 611.8 606.9 601.3 595.3 591.2 588.6 584.6 580.4 576.5 573 569.8 569.5 567.7 566.6 566.6 567.2 567.8 568.4 569 571.4 572.1 572.3 573.5 573.9 573.9 573.5 574 572.3 570.7 570.2 568.5 566.8 565.1 563.7 562.5 561.5 561.1 560.5 561.3 561.1 560.3 564.4 568.4 570.2 577.9 583.8 592.3 601.8 609.9 621.1 633.5 645.8 656 665.8 675.3 684.1 689.9 690.3 691.3 689.3 688.8 688.9 685.8 673.9 653.4 630.8 600.8 577.8 559.3 540.8 527.8 513.6 496.3 479.7 461.2 449.7 440.9 434.8 432.5 429 423.2 417.7 414.7 413.8 413.2 411.1 409.4 409.3 407.6 406.5 408.2 407.5 408.7 410.9 417.8 419.7 420.3 423.1 424.9 428.8 431.6 435.2 439 444.2 447.3 454.8 460.7 467.6 466.3 456.1 462.2 478.8 488.8 495.8 505.8 517 526.1 535.4 544.3 553.2 559.9 566.3 570.5 569.3 568.3 567.7 570.9 572.8 575.4 576.7 578 580 583 586 589.3 591.1 591.1 590.9 590.2 588.6 586.8 584.9 582.3 578.6 574.9 568.6 560.7 552.9 548.7 542.5 537.2 525 516 504.6 492 479.4 466.5 455.1 445.7 440.3 435.3 432.7 427.2 417.4 413.6 410.1 409 408.7 407 407.9 406.3 409.5 416.9 422.3 423.8 424.2 427.2 428.2 429.1 429.8 429.9 430.6 433 432.9 433.5 434.6 434.4 433.5 433.8 433.5 434.3 435.3
672 664.7 658 652.2 644.4 634.8 628.4 621.6 614.4 608.7 602.8 596.8 591.4 588.9 585.6 581.6 577.4 574.8 573.1 572.5 570.4 570.2 571.9 571.3 572.1 573.1 574.9 577.8 579.1 579.4 580.3 583.3 583.4 582.1 582.1 580.5 578.7 576.9 575.3 573.8 572.2 570.6 569.5 568.5 567.4 566.5 565.9 566.2 567.5 569.8 571.7 575.6 580.9 585.2 592.9 602.1 611.6 621.7 632.8 644.7 656 665.1 674.1 683.2 692.6 697.3 700.2 696.4 695.6 694.8 696.1 686.4 665.3 640.2 614.5 590.9 570.1 550.3 534.3 519 505 487.5 468.9 456.1 447.3 440.5 436.2 431 425.2 419.8 415.6 414.5 413.3 412.4 410.9 408.6 408.9 407.5 406.6 406.9 407.5 407.3 412.3 417.2 417.2 416.9 417.7 420.9 421.5 423.3 424.8 429.4 434.9 440.8 449.2 455.8 455.5 443.3 463.2 473.1 483 493.7 506.6 517 525.9 535 544.9 554.4 562.1 567 566.2 562 563 565.6 567.2 568.7 571.8 574.2 575.5 576.6 580.7 584.8 588.2 589.6 589.6 589.6 589.4 588 586.5 584.9 583.2 579.5 575.4 570.7 564.1 556.5 552 548.7 540.9 533.8 518.2 507.4 498.7 487.3 476.9 465.9 457.4 446 435.6 432.6 429.7 427.3 426.3 425.7 423.4 420.1 414.1 406.6 405.7 404.4 404.6 404.3 413 418.1 424.7 426.6 423.8 422 424.2 424.7 425.1 424.4 425.2 427.4 427.4 426.9 425.8 426.1 429.6 429.8
686.6 671.7 662.2 655.1 648.9 638.4 630.9 624.8 618 610.9 604.8 599 594 590.3 587 583 579.6 577.5 577.1 575.4 574.8 575.2 577.2 576.9 577.6 578.8 580.3 583.1 586.3 586.7 587.2 591 591.2 590.8 590.1 589.3 587.4 585.2 583.3 581.3 579.7 578.1 576.4 575.4 574.3 573.3 572.1 572.1 572.8 574.7 577.2 581.3 586.3 591.1 595.6 601.4 610.4 621.3 630.1 643 655.5 665.2 674.5 683.2 692.3 698.3 702.8 703.9 702.5 701.1 700.1 694.8 675.1 647.5 624.1 604.8 584.6 567.5 544.6 526.3 507.8 492.9 475 462.5 452.7 443.4 438.5 433 427.2 421.8 416.3 414.3 413.4 412.4 409.7 408.2 407.9 407 406.8 407.6 407.7 406.9 406.7 411.3 414.3 413.8 413.8 416.2 415.5 420.8 416.6 421.1 425 429.6 435.2 441.4 442.5 439 457.9 468.1 479.4 491.3 503.3 515.3 526.2 536.5 546.7 557.6 562.6 562.2 559.6 556.9 560 561.3 563.3 564.7 568.3 570.9 570.8 573.2 578.1 582.2 585.9 587.6 588.2 588.2 588.2 587.4 586.1 584.9 583.6 579.5 576 571.4 567.3 559.9 556.3 552 548.4 537.8 522.7 511 504.2 493.5 484.7 476.9 469.3 456.1 446.1 435.9 432.4 430.6 429.7 428.6 427.3 425.6 422.6 418.3 413.8 405.5 405 405.4 403.4 403 418.6 422.7 418.3 416.6 416.6 418.1 419.1 416.8 414.1 417.6 419.1 417.4 414.7 417.3 420.3 415.9
699.2 674 666.7 659.4 652.3 641 633.4 628.1 621.6 615.1 608 601.3 596.8 593.1 589.5 586.3 583.7 582.2 581.7 579.2 579.3 581.4 581.5 581.5 584.4 586.1 587.1 588.7 592 593.9 595.4 598.6 597.9 598.7 597.8 597.1 595.7 593.3 591.1 589.3 587.2 585.6 583.8 582.4 581.3 580.2 578.8 578.6 578.8 580.7 583.2 587.2 590.8 595.3 601.9 606.5 613.9 621.9 634.1 644 655.7 666.5 676.3 684.4 692.7 701.3 705.8 708.9 708.3 706.6 705.9 705.1 686.3 662.3 638.3 616.2 593.5 576.2 556.1 535.8 513.5 498.7 484 467.6 456.1 447.2 440.6 436.8 431.3 426.2 418.6 415.7 413.7 411.7 409.8 408.2 407.4 407 407.6 406.2 406.5 406.5 405.8 405.6 412.5 411.2 411.4 410.6 411.9 415.2 413.1 416 419.2 423.1 425.6 428.9 428.8 441.6 453.4 462.7 474.3 485.9 497 510.8 523.6 535.1 545.5 550.6 549.7 551.4 552 553.1 555.1 557.1 558.9 561 564.7 565.1 566 569.6 574.4 578.6 582.2 585.5 586.8 586.8 586.8 586.5 585.3 584.1 581.9 579.3 576.5 573.4 569.5 562.9 558.6 555.4 551.7 542.5 528.8 517.4 508.4 498.8 489.3 484.8 476.6 466.8 453.2 443 434.9 432.5 431.1 430.8 428.5 427.2 425.7 422.8 420.6 418.1 413.5 404 403.7 403.1 401.4 417.7 416.2 414 413 413.6 415 413.8 411.9 411.7 411.7 411.7 408.9 409.8 407.9 408.5
693.6 682.6 673.7 666.1 655.9 647.1 637.9 631.2 624.6 618.8 612.9 606.9 600.9 597.3 593.4 590.2 589.1 587.6 586.4 585.7 585.7 586.4 586.3 587.3 590.5 593.3 593.9 595.4 599.5 601.9 604.4 605.7 606.1 606.3 605.7 605.1 604 601.6 599.2 597.7 595.2 592.9 591.2 589.4 588.6 587.2 585.5 585.1 585 587 589.2 592.8 596.8 601.6 607.5 612.4 619.3 627.2 638.4 647.8 657.5 667.7 678.2 686.1 694.7 704.3 710.4 713.5 714.7 712.3 711.7 711.8 699.6 676.7 652.6 623.1 599 578.6 557.6 539.5 518.7 503.8 489.1 470.4 458.8 450.5 444.8 440.5 435 430.4 425.8 424.7 417.2 414.2 411.3 409.1 407.6 407.3 406.8 405.9 407.1 406.1 405.6 405.7 405.1 404.5 405.9 405.5 408 410 409.5 411.1 414.2 418.1 421.4 421.6 424.9 436 446.3 454.8 468.1 479.3 489.9 501.4 513.4 526.3 533.8 535.8 541.1 545 548.1 550.6 552.3 553.6 555.3 557.6 559.5 559.8 561.4 564.7 569.1 574.2 579.1 582.8 584.7 585.4 585.3 585.2 584.5 582.9 582.1 581.1 579.6 576.1 572.1 566.9 562.5 560.1 555.4 546.1 537 528.2 519.5 508.8 499.2 491.2 481.1 472.1 463.7 451.3 445.2 438.1 432.4 432.7 429.6 428.2 426.9 425.5 423.3 422.3 419.7 415.3 404.8 402.5 401.2 404.9 406.2 401.1 397.4 397.3 401.8 411.9 409 409.3 408.1 406.4 404.5 407.6 405.6 405.2
696.7 686.1 677.4 668.8 660.1 650.9 643 635 628 624.1 618.3 612.9 607.3 601.6 597.4 595.2 594.3 593.2 592.1 592.8 591.9 591.2 592.4 593.7 595 598.4 600.2 603.7 607.1 609.7 612.4 613.8 614.4 615.9 614.6 613.5 612.4 610 607.7 606.2 603.6 600.9 597.9 597 596.6 594.6 592.8 592 592.5 594.3 596.4 599 602.9 608.1 613.6 618.9 626 633.6 643.2 652.8 662.8 673 682.3 689.7 697.7 707.1 714.7 718.9 720.7 719.5 717.9 715.3 703.7 688.4 664.5 631.7 606.5 583.6 558.3 539.8 522.4 509.3 493 474.9 464 454.6 449 445.9 441 438.3 435.4 434.2 427.6 420.9 415.8 414 410.5 408.7 408.9 409.1 407.8 405.4 405.4 405.8 405.8 405.7 404.1 404.8 408.9 406.6 406.5 407.3 410.5 413.6 415.8 417.3 424.8 430.5 437.6 447.5 459.9 471.1 481.6 491.1 501.3 512.9 523 529.4 535.4 540.8 545.6 548.6 549.1 549.4 551.5 552.7 554.5 556.4 557.9 559.8 565.2 571.2 576.4 580.4 582.5 584 583.9 583.8 583.7 583.1 582.9 582.1 580.8 579.1 578.6 573.8 568.8 564.5 559.9 552.6 543.3 536.3 529.1 519.3 507.8 497.6 487.9 477.5 469.9 462.1 454.1 446.1 438.8 434.4 432.4 430.5 428.4 427.3 426.2 424.2 422.2 418.9 414.6 417.7 402.9 400.3 399.4 398.7 399.2 398.6 396.4 395.1 395.5 396.7 394.6 400.2 401.3 401.7 397.8 404.6
699.6 691.4 680.7 672.3 662.6 654 646.2 637.6 631.2 627.7 622 616.8 611.6 607 603.9 603 601.8 600.6 599.1 599.3 597.5 596.1 598.4 600.2 599.9 603.6 608.2 611.3 613.9 617 619.5 621.1 623.7 625.9 624.9 624.3 623.2 621 618.1 615.6 612.2 609.4 606 604.8 604.6 601.8 599.7 599.1 600.4 602.5 604.6 606.2 610.3 615.3 620.8 628.3 634.4 642.3 650.6 659.3 668.1 678 686.5 694.2 702.7 711.3 719.4 724.8 725.9 724.9 723.8 719.5 709.1 694.6 674.3 636.8 608.8 582.7 556.2 540.3 524.9 513.3 496.2 480.1 467.6 458.1 453 449.7 445.1 442.7 441.2 438.1 433 427.4 423.1 419.1 416.1 413.2 411.2 413.1 414.6 410.9 407.5 407 413.6 408.1 407.2 405.7 406.1 405.2 404.7 404.9 407.7 409.9 412.7 418.4 420.4 424.2 431 439.1 450.2 461.5 472.3 481.1 489.5 500.9 512.4 521.1 527.9 534.7 540.6 541.9 543.7 544.7 546.5 548.8 551.1 553.8 555.3 557.8 562.4 568.9 574.2 577.5 580 582.4 583.1 583 583 583.1 583.3 583.2 582.8 583.3 582.1 579.4 574.5 567.7 561.4 554.7 548.4 543 535 526.2 516.7 507 495.6 486.5 475.8 468.1 462 456.2 445.6 443.4 438.3 436.3 432.6 429.4 427.6 425.4 423.2 421.5 420.2 417.6 417.6 408.9 401 405.6 400.6 400.2 396.8 397.2 396.1 394.5 393.1 392 392.2 391.1 390.1 389.4
701.2 694.1 684.5 673.9 665 657.9 648.8 641.3 634.8 631.2 626.3 621.9 616.1 610.9 608.7 608.8 607.4 606.2 605.2 605.3 604.1 603.7 605.8 607.7 608.3 611.3 614.4 616.8 620 623.5 626.3 629.2 633.2 635.6 636.4 635.9 634.3 632.5 629.7 626.3 623.9 620.4 616.7 614.4 612.3 609.4 607.7 608.5 608.7 610.7 612.9 615 618.7 623.8 630 637 643.7 651.5 660 667.6 674.4 682.4 690.9 699.7 708.9 717.4 724.5 730.7 734 728.6 725.5 720.4 711.5 699.5 678 641.4 605.7 582.2 560.3 538.6 525.6 514.9 498.9 484.3 472.6 463.2 458.4 453 451.2 448.8 446.5 445.8 439.1 435.6 432.1 430.5 427.6 424.5 421 419.8 417.2 413.6 413.6 412.8 413.7 412.3 411.7 410.2 404.3 405 404.5 404.6 406.7 408.1 410.5 411.2 415.1 419.1 423.2 428 439.4 450.8 461.2 470 478.3 487.5 497.5 507.7 518.8 526.1 531.4 535.9 538.5 540.8 543.1 545.4 547.7 549.9 552.6 557.8 563.1 567.7 571.5 574.7 578.1 580.6 581.9 582.4 582.5 582.3 583 584.3 583.7 584.2 582.5 581.7 575.6 569.6 563.7 557.7 553.1 548.9 542.8 536.8 524.1 518.8 506.1 494 484.3 475.5 467.4 462.4 453.8 451.2 448.1 445.3 439.6 434.9 431.1 428.7 425.8 424.1 423.6 423.4 421.7 420 415.9 413.5 413.1 409.3 408.2 396.7 394.6 395.8 394.6 393.4 391.3 390.6 391.2 388.8
700.1 691.7 685 675.7 666.9 660.8 652.6 644.9 640.8 634.7 631 627 622.1 617.5 615.8 615.4 614.1 612.8 613.2 613 613 612.1 612.4 614.9 614.9 618.1 619.9 622 625.9 630 633 637.1 642.2 644.2 646.2 646.4 645.4 643.8 641.7 639 634.7 632.4 628.6 624.6 622.3 619.8 618.9 618.2 618.3 619.4 621.9 625.2 626.6 633.1 639.5 646.5 653.8 661.6 668.4 675.2 682.9 689.5 697.1 705.6 714.9 722.8 729.8 735.1 739 731.8 725.9 719.8 712.8 702.8 684.6 646.8 609.6 589.1 570.8 543.7 526.9 514.3 500.7 490.1 482.8 477.5 465.9 463.1 458.4 456.9 455.6 453.4 448.7 446.4 443.7 441.1 438.6 436 433.9 431.8 429.1 427.5 423.9 419.1 417.6 416.7 415.5 414.2 410.7 402.9 404.5 403.9 404.6 407.4 407.4 406.5 405.9 409.3 415.7 420.9 428.3 438.9 448.4 458.8 468.6 477.8 486.3 495.8 509.4 516.4 524.2 532.5 536.3 538.7 540.2 542 544.4 546.2 551.8 556.5 560.8 565.2 568.7 572.1 575.6 578.7 580.4 581.2 581.3 581.7 583.5 585.2 585 585.1 584.7 583.8 580.8 576.9 569 561.9 556.7 553.1 547.5 542 535.7 526.1 517.8 507.4 494.6 485.3 477.4 471.3 464.2 461.7 458.4 457.6 455.8 445.8 442.6 437.7 434.2 433.1 432.9 431 429.9 424.9 421.8 420.3 420.3 420.1 418.7 414.8 412.9 396.4 394.8 393.3 392.5 396.3 390.7 388.1
695.4 690.4 685 677.9 670.4 662.9 656.1 650.8 644.8 639.6 635.3 633 629.6 625.7 623.1 623.1 621.2 619.7 618.8 619.3 618.3 618.2 619.2 620.8 622.3 624.4 625.2 628.2 633.3 636.2 641.1 644.2 648.9 652.1 654.4 656.2 655.9 654.9 654.1 651.9 647.8 643.7 641.4 638.1 634.2 631.4 631.4 629.8 629.5 629.2 631.4 634.7 632.3 641.6 649.5 657.8 666.4 672.5 679.1 686.4 693 698.6 704.4 712.6 720.7 728.5 735 739.7 738.9 734.6 727.2 720 713.1 703.4 689.5 661.2 623.2 598.9 576.9 555.2 536.2 521.8 505.4 498.9 499 491.9 483.3 477.9 472 469.7 465.6 460.6 457.2 455.4 453.8 451.5 449 448.3 445.5 444.5 444.1 440.3 436.3 432.3 423.9 422.7 420.9 417.4 413.8 409.8 408.8 404.9 403.6 403.7 403.4 404.9 402.5 403.3 407.5 413.2 418.9 426.7 437.2 446.8 456.9 468.6 475.7 483.7 497.7 509.1 516.7 528.7 533 533.9 534.3 536.7 539.9 543 549.3 553 557.8 562.1 565.8 569.4 573.5 576.5 578.6 579.7 580.2 582.5 584.1 585.7 586.9 588 588.8 588.1 587 582.3 573.7 567.6 561.6 557.8 553.3 549 542.7 537.3 530.1 521.4 506.9 498.5 491.5 484.2 478 475.3 474.2 471.9 470.5 464.2 457.1 454.1 452.7 449.7 446 445.9 443.2 440.4 438 434.9 430.5 430.6 430.7 426.9 425.6 430.1 422.6 417 413 405 401.8 399.8
690.1 685.7 680.7 676.6 670 664.2 660.4 656 650.3 645.7 643 638.6 635.8 633 630.7 628 626.5 625 625.1 626.7 626.1 626 626.9 626.8 629.3 629.7 633.4 636.6 639 643.6 647.1 652.9 656.6 660.2 662.8 664.7 664.8 664.9 665.1 665.4 662.1 658.5 655.7 650 647.8 645.1 643.1 641.1 639.1 640.4 641.2 644.4 646.2 654.8 663.2 671.3 678.2 684.8 689.9 695.4 701.6 706.1 711.4 720.2 726.6 732.2 736.5 738.9 736 733.5 727 718.1 714.2 706.9 695.3 673.2 636.1 610.2 588.6 570.8 554 536.1 526 513.9 508.5 500.8 495.6 488.8 485.7 482.6 476.5 471 467.9 464.7 463.9 461.9 460 460.4 458.2 455.7 455.3 450.6 446.3 445.1 436.3 432.1 426.2 419.8 414.6 412.1 413.3 412.4 410.2 402.6 403.2 402.8 402.9 403.4 402.2 409.3 412 418.2 426.4 433.7 446.1 458.1 465.6 472.8 485.6 498.8 511.3 521.7 527.8 528.5 527.8 528.7 532.8 539.7 543.8 549.6 554.7 558.9 562.7 567.7 571.7 574.1 576.6 577.8 579.8 582.4 586.2 587.9 589.7 590.9 591.7 591.8 589.2 585.1 582.1 574.1 566.4 563.3 560.1 553.7 547.5 542.5 538.8 531.2 521 510.9 507.4 496 489 485 486.5 484.9 482.6 477.8 473.1 471.8 467.1 467 464.2 462.5 458.5 457.9 453.3 450.7 446.7 445.1 441.9 437.9 441.9 444.4 439.9 431.5 427.6 423.7 417.3 412
686.3 680.1 676.6 673.8 669.6 668.4 665.7 661 657.9 653.9 650.1 646 642.7 639 637 636.6 634.1 632.4 632 633.7 634.8 634.4 633.9 634.3 635.9 637.1 640.7 642.9 645.2 649.9 652.8 659.4 663.9 667.4 671.6 673.3 673.7 675.4 678.3 677.7 676.6 674.4 671.1 666.5 663 658.3 655.6 652.7 649.7 650.3 653.1 656.9 659.8 665.6 675.4 682.6 689.6 695.1 700 704.5 707.8 711.9 718.1 726.8 731 732.7 730.8 729.6 727.7 726.3 720.7 717.1 713.2 706.1 700.4 686.6 659.6 629.3 605.3 588.7 572 555.8 537.5 529 521 513.9 505.7 499.6 495.1 491.7 488.3 481.8 478.1 475.7 472.8 470.7 470.6 471.5 468.9 468.6 466.1 461 455.8 452.1 446.5 437.8 439.9 436.6 430.3 420.9 420.7 419.3 415.6 404.8 402.6 402.6 403 403 401.6 405.1 407.6 412.1 417.1 425.5 433.3 447.3 456.9 465.3 473.5 487.2 497.6 513.9 520 518.6 520 523.1 526.7 532 538.2 545.4 550.9 555.1 560.5 565.6 568.5 572.3 574.4 577.2 579.5 581.7 586.3 589 592.1 593.3 593.6 592 590.3 586.8 582.2 576.1 569.8 568.4 564.8 559.5 553.4 547.1 541.7 534.5 530.9 524.6 519.5 509.2 503 496.7 494.6 492.5 490.7 486 483.9 479.7 475.6 476.3 473.9 470.9 467.4 466.9 465.6 464.1 462.7 457.7 455.9 449.8 448.9 451.6 449.2 443.9 439.9 435 427.7 422.9
682.8 678.3 676.5 672.6 672.6 672.4 670.9 668.6 665.3 662.6 658.9 654.4 651.4 647 646.5 644 642.6 642.3 642.4 643.4 642.6 642.4 642.3 642.2 643.8 645.2 647.4 650.2 652.2 657.8 660.7 666.1 670 672.9 678.7 682.7 684.3 687.4 690.7 691.7 690.2 688 685.9 680.8 676.5 672 669.1 665.1 663.2 663.2 665.9 669.4 672.4 676.3 685.2 691.1 698.1 704.6 709.5 710.5 712.1 716.6 721.1 725.1 731.3 732.1 721.8 720 720 718.3 715.1 713.4 711.8 707.5 701.6 694.8 681.2 660.2 634.1 609.7 593.6 579 562.1 547.2 534.4 527.1 518 511.5 505.8 501.4 500.3 491.7 489 486.6 484 482 482.6 480.8 478.9 479 476.4 471.5 465.6 462.2 455.6 448.3 448.2 444 439.8 434.4 433.1 427.6 422.3 412.2 406 403 403 402.9 400.9 404.2 404.8 406.3 410.4 417.2 426.8 435.7 447.9 457.3 467.1 474.4 484 496 503.5 508.6 513.4 519.3 522.3 525 532 541.6 547 550.8 557.7 562.4 567.1 569.9 573.7 577.4 580.4 584.3 587.7 589.9 592 593.8 595.2 593.3 590.6 588.1 584.9 579.4 573.8 570.6 566.9 562.9 559.2 554.5 548.5 543.7 540.3 535.3 530.8 526 519.8 511.6 504.3 500.5 499 496.8 490.5 487.5 485.1 481.9 478.5 475.2 474.7 473.3 472.9 472 470.1 467.6 464.6 461 459.7 457.3 454.7 452.3 448.6 446.1 439.7 434
679.6 678.3 677.7 674.1 675.9 677.1 678 677.8 675.4 672.8 669.8 665.6 662.3 659.7 655.3 653.4 652.6 653 653.5 652.7 652.2 651.6 652.3 653.5 653.5 655.3 655.7 658.7 661.7 667.1 670.5 674.1 677.2 683.2 687.8 692 696.5 701.5 705.2 705.8 702.9 700.9 699.3 693.4 688.4 683.2 679.4 675.6 673.6 673.3 674.7 677.8 681.2 684 691.5 696.8 702.3 708.7 713.6 711.9 712.6 716 720.4 723.7 722.1 719.4 716 714.6 712.7 710.6 708.7 707.4 706 704.6 700.1 694 688.3 679 663.3 642.3 622.9 597.3 584 569.2 550 540.3 530.7 525.3 519.6 512.9 509.8 503.9 500.3 496.5 496.3 497.4 497.4 490.7 490.2 488.8 486.1 481.9 479.3 472.2 460.7 459.1 455.3 450.7 446.8 444.8 440.2 434 427.4 420.4 413.1 406.5 401.3 400.7 402.1 402.3 403 403.2 405.1 411.4 420.4 430.3 438.3 447.1 459.2 465.8 473.6 484.7 494.3 501.6 509.5 516.6 518.5 520.4 526.6 535.1 541.4 546 554 560.3 564.2 567.2 571.9 576.4 581 584.2 587.4 590.2 591.6 593 594.5 593.3 590.6 588.1 584.9 579.5 577.1 574.4 570.9 567.8 565.5 560.1 555.8 552.2 546.8 543.6 540.7 536.6 529.4 522.8 517.3 514.4 511.5 506.5 501.6 496.1 489.7 485.8 486.4 481.9 480.9 478.8 479.8 479.9 478.3 476.9 473.9 471.8 469.5 466.5 462.8 460.2 458 455.6 451.8 445.1
678 677.6 676.9 676.7 679.4 682 684.8 685.8 685.9 685 681.2 678.2 675.3 672.2 668.4 666.2 666 665.3 665.9 665.6 663.3 666.3 664.3 663.7 664.1 665.1 665.5 668.6 671.5 678 682.4 685.6 689.2 693.4 697.7 703.8 709.6 714.5 716.8 717.1 713.6 711.8 710 705.7 700.5 694.2 688.7 686.3 684.5 683.1 682.9 685.1 685.3 688.5 692.9 697.8 701.9 706.5 713.9 709.8 709 711.9 717 716.4 714.2 711.3 709.5 707.4 703.7 703.3 702.4 701 699.8 697.1 696.2 692 689.2 685.4 677 665.6 646.4 632.2 609.2 586.8 574.9 561.5 550 542.7 534.9 527.2 517.9 516.6 514 511.1 512 507.9 507.2 502.1 501.5 498.1 493.7 493.2 490.2 481.3 468.3 469.6 464 459.5 456.3 454.7 450.1 443 435.6 429.8 422.7 414.2 411.1 405 400.7 401.5 401.6 402.1 402.7 406.1 412.9 422.7 430.2 438.9 447.1 455.6 464.8 474.8 485.5 497.2 509.6 511.4 511.5 513.6 522.6 529.1 535 543 551.8 558.4 562.5 566.5 572.3 577.1 581.3 584.4 586.4 587.7 589.1 590.7 592.2 592.1 589.3 586.5 583.8 580.3 579.3 578.6 575.6 573.6 570.8 567.6 564.3 560.2 557 555.5 552.7 550 547.1 543.3 534.9 527.9 528.6 521.4 516.6 508.9 502.8 498.3 495 491.9 488.9 488.8 488.6 487.3 485.6 484.1 483.4 481 477.9 474.9 472.2 470.7 468 465.8 462.1 457.4
678.3 677.9 678.7 680.1 683.6 686.5 690.9 694.9 696.6 697 695.9 693.1 689 686 683.7 680.1 679.3 678.6 679.4 680.3 679.9 678.2 679.8 677.9 677 676.7 678.8 681.9 685.3 691.5 696.1 699.6 701.8 705.3 710.7 717.1 722.4 726.3 729.1 728.1 719.9 717.7 716.3 710 707.1 703.9 697.3 695 692.3 690.8 690.2 689.3 686 687.3 691.5 695.5 698.8 700.8 702.8 701.6 702 703.7 708.7 707.4 702.9 704 698.8 697 696.7 696.8 696.2 694.5 692.9 692.4 692.1 691.1 689.7 686.7 682.6 675.5 661.7 649.9 630.9 613.4 598 587.2 573.3 563.8 551.8 542.5 527.2 531.5 529.8 526.9 522.9 519.8 517.8 515.2 511.8 509.5 505.1 502.2 494.8 483.7 484.7 481.1 475.8 470.8 466.2 460 455.7 450.4 446.2 441.2 431.9 424.1 416.8 409.9 408.4 400.3 400.9 401.8 402.2 402.6 406.3 412.7 420.4 428.6 437.5 447.7 453.9 468 479.8 492.2 500.7 503.2 503.3 512.4 520 525.7 530.5 539.4 549.2 556.5 561.1 566.2 571.6 576.5 580.8 582.9 584.9 585.7 586.4 587.9 589.5 589.1 586.3 583.8 581 580.5 583.3 581.7 580.4 579.1 576.5 574.8 572.1 568 566.9 566.8 568 566.3 563.8 560.1 553.6 547.9 543 538.6 533.4 521.3 517.6 512 507.2 501.7 497.1 494 494.4 495.1 495.4 494.2 492.7 488.5 488 486.2 482.1 479.2 478.1 475.3 473.6 471.5
679.5 680 681.3 682.5 688.5 693 697.6 702.1 706.2 708.1 708.1 706 702.9 698.6 695.9 694.9 692.9 693.5 695.7 698.6 699 699 696.2 694.8 692.6 691.1 693.1 695.1 700.1 704.3 708.9 713.2 715.1 719 723.1 727.9 732.3 734.9 737.2 733.2 721.5 721.9 722.2 711.4 710.4 705.2 703.5 702 698.5 694.5 693.5 690 686.7 687.1 688 690.6 693.9 694 694.2 695.3 696.6 698 700.8 697.5 691.8 691.6 689.6 689.9 689.5 690 690.5 688.7 687.5 687.6 687.9 688.4 688.7 687.2 684.4 679.5 671.9 663.9 652.8 638.4 627.3 614.9 603.5 588.5 573.2 566.3 543.4 547.5 542.5 539.4 535.2 530.1 527.2 524.3 522.6 520.4 514.4 509.4 501.2 494.7 496.6 492.3 486.2 480.9 476.2 470.6 465.1 461.3 456.7 449.8 442.1 432.2 422.4 416.4 410.6 406.8 399.8 400.8 404.9 402.2 402.9 407 412.6 420 427.3 435.3 447.1 459 469.8 483.2 490.4 494.9 501.5 512.1 516.7 521.6 526.8 536.4 546.1 553.8 559.7 565.2 570.5 575.7 578.9 580.3 581.6 582.4 584.4 585.2 585 584.8 582.8 580.1 578.2 577.8 580.2 582.1 581 580.4 581.1 579.7 576.7 575.3 575.6 580 580.5 579 579.5 579.3 574.4 571.4 567.8 565.8 557.1 545.4 535.5 529.1 520.7 516.7 513.1 508.1 506.6 506.1 504.9 502 500.6 498.3 495.8 495.3 490.4 488.1 486.2 484 483 480.6
680.2 680.7 681.7 686.3 692.3 697.5 702.5 708.6 716.2 719.7 721.8 721.1 718.2 714.5 711.9 709.5 709.5 710.8 714.9 720.9 724.3 724.9 721 716.2 709.2 708.5 708.2 709.8 712.3 715.7 719.6 722.8 724 728.3 733.8 737.6 738.1 738.6 733.1 726.9 719.1 718.4 716.1 711 709.7 706.3 704.7 703.2 700.8 697 692.5 689.2 685.9 683.1 684.6 686.8 688.5 688.5 689.4 689.9 690.4 691.9 693.1 687.5 683.7 683.3 682.5 683 682.5 683.2 683.5 682.1 682.7 683.9 684.3 684.6 684.6 684.1 683 679.1 676.9 672.7 665.7 658.5 649.3 637.5 626 611.9 600.5 590.6 563.5 569.6 563.5 555.2 546.9 542.4 539 534.8 530.9 526.7 519.1 508.5 505.9 505.7 506.1 500.9 495 491 485 481.6 479 475.9 469 462.6 454 442.5 431.3 423.1 416.6 410.7 404.1 399.5 400.8 401.8 401.6 403.7 409.3 414.1 419.8 428 438.9 449.2 465.8 478.1 482 488.7 497.2 508.3 513.1 517.5 524.7 533.5 543.5 549.9 557.8 563 567.6 572.9 574.9 576.3 577.4 577.9 578.6 581 581.7 581 579.1 576.6 574.8 574.2 576 578.5 580.9 581 582.1 581.5 578.8 580.3 582.9 586.6 590 592.5 594 592.7 592.9 593.3 593.2 590 582.4 572.4 558.3 547.6 539.6 530.8 524.7 519 516.8 515.4 513.9 512.5 510.2 507.9 505.7 502.7 499.5 496.7 494.4 493.7 492.3 492
681 681.3 684.1 689.3 695.2 701.6 708 717 725 733.8 736.1 739.5 737.5 734.3 732.1 729.3 730.8 732.8 738.7 744.8 750.2 747.6 742.7 735.2 729 726.1 724.4 722.4 723.7 721.1 728 731.5 731 734.7 737.8 743.1 736.5 732.4 728.8 722.5 717.2 713.5 710.5 709 706.8 705 702.7 700.3 696.8 692.2 688.4 685.4 682.5 679.5 679.9 682.3 683.8 684.5 684.2 684 684.6 683.9 682.2 678.9 677.3 676.9 675.6 674.5 675.8 675.8 675.8 675.1 676.3 678.2 680 680.9 680.9 681.4 681.3 679.3 679.3 676.5 671.4 667.4 660.9 652.5 642.3 629.9 618.1 606.5 583.7 586.5 580.9 571 560 555.3 556.3 541.9 534.2 524.1 518.4 518.5 517 515.6 513.3 508.8 505.5 501.6 499.1 499.1 492.7 489.2 485.7 477 469.4 454.3 441.6 431.6 421.8 414.8 409.6 400.9 399 401.8 401.6 402 405.9 408.8 412.3 421.5 432.9 441 453.3 469.1 474.8 484.1 494.3 504.8 509.6 514.5 521.9 531.2 541.1 548.1 555.9 560.2 564.7 566.6 569.2 571.9 574.6 574.4 574.3 575.2 576.9 577.4 576.2 573.7 571.8 571.3 573.3 576.1 578.9 580.6 581.7 581 580.1 581.2 586.4 591.9 597 600.1 602 604 606.5 609.6 612.7 611 604.6 589.8 578.3 564 554.9 544.5 533.3 528.9 525.3 523.3 522.2 520.4 518.7 517.1 514.8 513.4 510 507.6 506.2 505.5 506.1 506.7
681.5 682.7 685.6 690.8 696.8 705.9 714.8 724.7 735.6 745.2 754.3 758 759.2 755.8 754.6 753.1 753.7 756.9 762.6 767.6 769.1 768.5 761.4 750.5 742.5 736.9 734.5 731.2 730 726.5 734.6 734.3 732.3 734.4 735.5 734.3 730.7 725.7 720 715.7 711.6 708.4 706.2 704.1 701.7 699.6 697.7 695.5 693.6 688.6 683.7 681.4 678.3 675.8 674.4 676.1 677.9 678.1 677.6 676.9 676.3 675.4 674.1 674.1 672.2 668.9 667.5 666.6 667.8 668 668.3 668.2 670 671.8 673.7 675.5 676.6 677.7 678.8 678.5 677.6 675.8 674.1 670.5 664.9 659.6 649.1 640.7 630.7 614.6 602.3 595.6 589.3 581.3 570.4 562.1 548.7 539.8 532.1 531.6 528 525.2 523.4 522.2 519.9 517.7 514.3 514.6 513.3 510.9 508.5 503.7 498.9 490.7 482.3 466.8 451.2 440.8 431.2 418.7 412.3 407.5 400.9 399 401.3 398.6 401.7 404.6 407.6 415 425.3 435.5 445.7 461.5 471.4 482 492.8 500.3 506.3 512.7 522.9 530.8 538.8 546.3 553.9 558.3 560.2 561 563.5 569.5 571.7 571 571.2 572.7 572.6 572.9 572.7 570.7 569.5 570.1 571 573.8 576.2 577.8 578.9 580 580.8 582.1 588.4 594.2 599 603.2 605.4 608.9 612.3 617.4 622.2 625.4 625.6 619.8 603 586 577.2 561.5 550.5 542.8 536.6 532.9 530.5 528.3 526.5 525.2 523.6 522.7 519.2 519 518.6 517.9 519.3 519.7
680.9 685.3 688.8 693 700.3 709.6 719.9 729.8 741.2 755.4 769.4 773.8 774.3 773.7 774.8 774.8 775.9 778.6 780 785.3 781.2 776.1 771.5 754.6 748.1 743.3 739.1 736 732.8 724.9 727.6 732.3 729.5 727.6 726.8 728.5 724.9 715.3 713.8 710 707.1 703.8 700.8 698.4 695.3 692.2 690.6 689 686.2 683 678 674.8 671.8 667.6 666.5 667.6 669.2 669.5 668.3 668.4 668.1 666.2 666.2 667.1 664.7 661.3 658.5 659.1 659.4 659.7 660.3 661.2 663.2 665.2 667.1 668.9 670.4 671.9 673.7 674.9 675.2 674.6 672.9 669.9 666.2 660.7 652.2 643.3 636.4 624.3 608.1 597.4 589.5 582.3 570.6 552.9 547.4 541.1 539.1 536.3 533.4 529.4 528.9 528.2 526.6 525 525 524.5 523.6 525.3 527.5 528.1 520.2 515.9 494.7 477.9 460.4 447.3 437.1 423.6 417.5 412.2 403.7 406.3 402.4 398.5 397.8 402.1 405.5 410.3 419.1 429.9 441.3 454.6 467.7 476.3 485.1 495.9 503.3 513.5 521.6 530.4 536.8 542.1 548.9 553.5 555.3 558 561.1 565.5 568.3 567.8 568.5 570.4 571.2 569.9 567.9 567 566.2 566.3 568.4 571 573.3 575.8 576.8 577.8 580.1 583 589.6 594.6 599 603 607.4 611.4 617.8 623.8 630.4 635.3 633.9 628.4 620.2 611.9 598 581.9 569.7 560.7 550.2 542.7 537.5 534.6 533.8 532.9 532.4 531.9 531 529.7 531.1 530.8 532.8 535.4
684.7 686.9 690.8 695.5 703.7 712.6 723.2 733.3 746.6 762.1 775.9 786.4 792.2 790.8 791.7 791.1 792.1 794 793.3 784.3 775.6 766 759.3 751.7 747.9 744.2 739.1 732.6 729.7 723 715.2 719.1 721.6 716.8 715.4 716.8 716.1 708.3 704.5 702.5 701.5 698 695.2 692 688.5 684.9 682.9 681 677.8 673.6 671 667.8 664.5 660.9 658.8 657.6 659 659.9 658.6 659 658 658 657.5 655.5 655 653.7 651.5 651 651.7 652.3 652.9 654.2 656 657.9 659.9 662.3 665 666.6 668.6 670.2 670.9 669.8 668.1 665.7 663.5 659.8 653.2 644.6 636.8 627.1 608.4 597.7 588.8 578.8 568.5 560.5 552 546 543.9 540.4 533 534.3 535.9 535.5 533.4 532.8 531.5 532.4 534.5 535.2 536.2 536.9 532.6 530.4 521.7 491.7 474.7 456.3 444.5 428 420.5 415.5 410 409 409.1 403.7 400.3 400.4 403.1 409.1 417 428.5 438.2 449.3 462.3 471 482.3 492.7 503.1 514.1 521.5 529.8 535 538.6 543.3 548.6 552.2 555.6 558.8 562.3 563.9 564.1 564.2 565.6 567.1 565.9 564.5 563.9 563.4 563.8 566.3 568.6 569.9 573 574.9 576.3 579.2 583.9 589.1 593.6 597.9 601.8 608.1 613 619.9 628.8 637.5 642 640.7 636.8 630.8 622.5 615 601.9 588.7 576.6 565.4 557.4 551.2 545.6 543.8 542.5 542.4 543.7 542.2 543.9 545.7 546 550.2 553.2
688.7 692.8 694 699.8 706.6 714.4 725.4 734.3 749.2 765.4 784.4 798.9 805.9 804.5 806 802.1 802.3 797.9 789.6 780.4 767 756.3 750.4 747 743 737.9 732.5 725.4 719.5 713.6 705.9 708.7 707.7 705 702.1 701.6 704.8 698 697.1 697 694.7 691.5 688.6 684.6 680.7 677.3 674.5 671.7 666.7 664.3 660.9 659.3 656.4 653.7 650.1 648.9 648.2 649.1 649.3 650.5 650.6 649.5 647.5 646.5 645.7 644.9 644.5 644.1 644.3 644.9 645.8 647.2 648.8 650.7 652.6 655.5 658.4 661 663.5 665.5 665.6 665.2 663.5 660.9 657.4 653.1 647 641.2 635.1 629.3 619.1 601.8 589.5 579.1 570.5 563.1 557.3 550.9 544.4 540.6 542.9 542.1 542.4 542.1 539.3 538.8 538.4 538.6 540.2 540.8 540.9 539.3 537.5 534.4 531.8 525.6 484.9 470.5 458.4 439.3 423.9 420 416.7 410.4 409.4 406.1 402.1 397.2 400.8 407.7 416.3 426.4 435.8 446.7 457 470.1 481.6 492 503.6 512.7 520 527.4 532.6 535.1 539.2 543 546.5 550.7 555 557.1 558 560.3 560.3 561.2 562.3 562.1 560.9 560.5 560.7 561.5 563.7 565.2 566.5 570.1 573 575.4 577.9 582.4 587.2 592.3 596.7 602.2 608.4 614.5 622.6 632.5 642.5 648.2 649.1 646.5 640.8 632.4 623.1 615.3 605.6 594 583.6 574.4 566.7 562.1 557.9 553.9 555.1 556.5 557.2 557.4 559 560.6 562.5 568.1
693.8 695.2 698.2 702.1 708.5 716.4 726.4 735.3 750.2 766.7 786.7 802 808.2 810.9 812.9 802.1 802 794.1 784.3 776.7 756.5 744.4 738.4 735.5 732.1 726.2 721.5 713.4 707.7 702.7 700.6 697.4 696.5 694.1 691.1 692.1 693.4 691.6 692.7 692.1 688.6 685.1 682.1 677.5 674.2 668.5 664.7 660.2 657.4 654.5 651.5 649.2 646.4 644.1 641.7 640.5 639 639.7 641 642.4 642.6 641.9 640.4 640.9 639.7 638.4 638.3 637.7 637.1 637.6 639.3 640.1 641.6 643.5 645.7 648.6 651.6 654.6 657.7 659.5 660.1 660.2 658.9 655.2 652.1 648.3 643.7 638.7 631.3 623.8 617.8 586.5 581 576.4 571.9 565.5 562.5 558.4 552.5 549.5 548.5 547.7 548.3 548.4 546.4 546.1 546.4 546.1 545.7 545.1 543.2 540.7 539 536.4 535.1 533.8 517.2 481.5 465.7 448.9 429.9 424.8 416.3 412 410.5 408.4 404.8 399.2 399.4 406.1 414.5 424.2 433.1 443.6 454.8 468.5 481.2 491 499.7 509.3 515.4 524.8 528.7 529.7 535.6 539 544.3 548.7 550.3 549.5 551.7 554.6 555.8 555.8 556.9 557.3 557.6 558.1 558.9 559.7 560.4 561.8 563.5 566.9 570.8 572.9 575.8 579.9 584.7 590.6 595.1 601.6 608.6 614.7 624.7 635.5 645.8 651.7 653.6 653.9 646.8 639 631.5 626 619.5 613.1 604 594.3 586.1 578.2 573.7 570.3 571.2 570.5 571.6 573.7 575.9 579.1 580.8 587.1
697.6 698 699.8 704.2 708.8 717.3 724.9 734.9 748.9 764.3 781 801.1 801.7 804.8 804.4 795.8 789.7 785.7 772.4 757.3 741.7 732 725.2 722 718.5 712.8 707.2 701.6 697.8 695.4 689.8 688 686.9 684.3 683.3 684.7 687.2 687.2 687.1 686.7 684.1 679.9 676 671.2 665.5 660.8 656.4 652.3 649.3 646.8 644.3 640.9 637.3 636.1 634.3 633.3 632.1 631.8 632.5 633.9 634.9 634.1 633.6 634.2 633.8 632 631.4 631.4 630.5 630.4 631.9 633.4 634.7 636.2 638.9 642.2 645.5 648.8 651.9 652.9 652.9 652.8 653.5 652.2 649 644.3 640.4 634.5 627.2 619.2 599.7 598.3 592.3 582.4 578.9 577 574 568.2 562.8 558.9 558.9 558.1 555.9 555.3 554.4 554 553.3 552.3 552 548.3 545.5 542 539.9 535.8 533.5 531.8 514.9 492.3 474.4 456.6 437.1 425.2 418 413.5 410.9 409.8 407 402.3 400.7 404.3 413.4 421.5 431.6 441.7 453.4 466.3 477.9 486.5 492 500.8 507.8 515.2 521.1 525.8 532.6 536.7 542 546.5 546.6 545 548.3 550.7 550.3 550.5 552 553.8 554.4 554.9 555.9 556.9 557.8 559.2 561.4 563.3 567.8 570 573.6 577.4 582.3 588.1 593.4 599.6 606.6 614.4 626 637.7 647 653.4 656.3 655.8 649.8 647.3 646.2 642.6 638.2 632.6 622.2 614.8 606.8 598.7 595 592.3 591.2 588.3 591.5 592.7 596.7 599.6 606.1 617.2
700.5 698.8 698.5 701.6 707 714.5 722.5 734.2 747.5 761.7 774.8 790.6 784.5 785 786 779.8 775.1 766.3 752.8 738.2 725.7 716.3 711.4 709.1 706.1 701.6 696.7 692.7 690.9 686.9 682 678.8 677.9 677.2 678 679 680.6 681.3 681.2 681.1 678 675.3 670.6 666.1 660.3 655.5 650.7 647 643.6 640.7 637.7 634.4 631 629.5 628.6 627.5 626.3 625.6 626 626.3 626.6 626.4 625.4 625.8 625.7 624.7 624.3 625.1 624.2 625.3 626.7 627.8 628.8 630.1 632.9 636.2 639.5 642.8 646.1 646.5 646.8 646.7 649 647.5 645.3 641.8 638.2 632.4 624.8 610.1 608.4 602.8 596.3 589.8 587 585 582.3 578.2 572.7 568.6 571.8 570.4 566.7 565.6 563.5 560.4 559.4 558.6 555.7 551.7 547.7 543.5 539.5 534.4 529.9 525.5 509.9 498.6 481 458 443.5 425.6 419 415.3 412.7 409.9 407 406.1 397.2 403.1 412 422.2 432.1 440.6 449.6 462.8 474.3 481 486.1 492.1 501 508.6 516 521.4 529.3 533.9 537.4 542.2 542.3 540.4 544.9 546 546.4 546.3 548.8 550.2 550.3 551.4 552.8 554.2 555.2 556.5 558.1 560.6 564.8 567.7 571.4 575.1 579.8 585.7 591.5 597.7 605 612.8 625.2 637.3 646.8 655 657.7 657.9 658.2 657.1 658.9 657 653.6 646.9 642.8 634 627 621.7 616.7 614.6 612 607.5 609.7 612.8 615.8 627.5 636.9 642.5
700.3 699.3 698.2 700.6 704.8 712.1 720 732.5 746 757.3 770.2 775.7 772.4 772.5 771.1 766 759.4 750 736.9 724.7 713.2 702.2 697.3 696.9 695.4 691.7 688 685.4 682.5 678.5 676.3 674.3 673.6 673.4 673.5 674 674.9 675.4 674.9 675.4 672.2 669.9 666.3 660.7 655.5 650.9 646.3 642.7 638.4 635.1 632.6 629.1 626.5 624.3 623.4 622.6 621.5 619.7 619.9 620.2 619.2 619 618.6 618.4 618 617.8 617.7 617.6 619.3 620.6 620.3 619.8 622.2 624.3 626.7 630 633.4 636.5 638.4 639.7 640.7 641.8 643.5 642.4 640.6 638.6 635 629.2 617 616 612.5 607.2 601.4 596.6 593.6 592.8 589.9 585 582.2 579.7 580.3 579 577.8 576 573.1 569.9 565.5 563.1 559.4 556 549.3 543.8 537.5 532.7 526.2 518.5 509.9 500.6 483 459.5 441.4 427.5 419.1 416.6 412.7 409.5 407.7 405.9 397.8 400.1 411.5 422.7 431.9 438.7 446.2 458.4 469.1 476.2 480.4 485.9 494.3 502.8 510.4 516.3 524.8 529.1 532.4 535.7 537.2 537.1 540.3 542.3 542.4 542.2 544.8 545.2 545.2 545.8 547.5 549.6 551.7 553.2 554.5 557.9 561.9 565.6 569.3 572.9 577.4 583.2 588.8 595.1 602.5 610.2 622.7 635.2 645.2 653.3 657 657.6 661.1 663.4 666.2 665.9 663.3 654.9 651.5 648.3 641.2 636.6 634.6 631 627.7 624.3 626.8 631.2 640.8 648 650.3 650.2
695.8 694.6 694.9 697.3 700.5 706.8 717.2 728.6 741.6 754.1 761.8 759.4 761.6 757.8 755.3 749.5 742.6 733.4 723.9 713.5 700.7 691.4 687.1 684.5 685 682.1 679.1 676.6 675 671.9 670.9 668.4 668.9 669 671 670.8 670.6 670.6 670.5 668.9 666.5 664 659.1 654.5 651 647.8 642.7 638.1 634.1 630.6 627.6 624.9 622.4 619.9 618 617.3 616.5 614.3 614.1 614.2 613 612.3 611.4 611.4 611.5 611.6 611.5 612.1 613.5 613.3 614.4 614 614.6 618.2 620.7 623.9 626.2 629.5 632.8 635.7 637.5 638.4 639.5 638.9 637.1 635.1 631.5 621.7 622.2 619.3 616.4 612.5 607.6 603.2 600.6 598.8 596.3 594 591.4 589.1 588 587.9 588.3 585.7 582.4 578.9 573.8 568.4 565 557.3 549.3 541.5 535.6 530.7 525.2 518 508.4 499.4 484.6 461.9 446.9 434.1 425.1 420.7 411 407.9 406.8 405.3 400.8 395.1 410.6 420 430.6 437.2 441.8 453.4 464 470.4 474.7 481 488.8 497.3 505.3 512.8 517.9 522.7 527.3 528.7 531.8 533 535.6 537.9 537.9 537.6 539.5 539.6 539.7 540.8 542.3 543.8 546 548.6 551 554.2 557.8 561.6 565.5 569.6 573.8 579.9 585.7 592.3 600.1 607.8 620.9 633.1 641.7 648.1 652.8 656.1 659.9 661.4 665.9 667.7 664.3 659.8 658 653.1 649.9 644.9 641.2 639.9 638.5 635.3 637.9 642.4 645.8 649.3 649.6 648.5
689.3 688.8 689.6 691.7 695.6 704.6 713.8 725 738 745.8 748.7 749 748.7 747 742.9 735.4 728.9 720.2 710.1 699.3 688.9 680.8 675.5 674.7 674.2 672 670.2 668.6 667.5 666.7 665.6 664.8 664.5 665.7 667.1 666.8 666.7 666.5 666.4 663.7 660.7 657.9 653.1 649.7 646.5 643 638.1 633.9 630.2 627.3 624.3 620.6 618 615.4 613 611.8 611.3 609.2 608.2 608.2 607 605.9 605.6 605.4 605.3 605.2 605.7 606.2 607.5 606.5 606.8 603.4 608.9 611.7 615.4 618.7 622.2 625.5 628.8 631.6 633.4 635 635.3 635.5 633.5 630.9 625.8 625.4 624.3 622.2 619.2 616.3 612 607.5 607.7 606.1 603.1 600.5 598.3 596.6 595.8 595.5 596.4 594.8 591.2 586.8 581.6 575.1 567.1 559.2 550.4 541.5 533.8 528.9 522.2 514.7 504.9 495.7 484.5 464.3 451.6 435.8 428.6 417.7 410.9 406.3 404.1 401.9 399 394.9 407.4 417.8 426.6 431.7 440.3 448.8 457.9 465.1 470.2 476.4 483.3 491 497.7 505.7 510.6 515.7 520.8 524 525.6 527.6 530.6 532 532.5 533 534 534.1 534.8 535.2 536.6 538.4 542.1 545.5 547.5 550.6 553.6 557.1 561.9 566.3 570.1 575.6 581.6 588.5 596.6 605.8 617.6 628.9 635.9 641.7 646.5 649.4 652.5 653.8 658.6 661.9 661.3 658.3 654 650.2 647.3 644.5 642.2 640.7 639.7 642.2 643.2 642.3 642.2 646.1 646.7 646.1
680.2 682.1 683.8 686.2 691.4 700.5 709.3 721.1 733 739.9 740.1 741.2 739.8 735.6 730.7 723.9 716.3 706.7 696.8 688 678.9 671.4 665.4 665.2 666.3 664.5 663.1 661.9 661.7 661 660.1 661.1 661.3 662.4 663.2 662.8 662.7 662.6 661.1 658.3 655.4 652.4 648.6 644.9 641.5 637.8 633.7 630.3 627.4 624.4 621.3 616.8 613.6 611 608.7 606.5 605.8 604.4 603.4 602.4 601.3 600.4 599.9 599.5 599 598.7 599.3 601.1 600.5 596.7 599.1 600.1 605.1 608 611.6 614 617.7 621.4 624.9 627.5 629.1 630.8 631.1 630.9 628.8 627.3 626.3 626 625.2 623.4 621.5 618 615.3 614.1 613.4 613 609.9 607 605 602.8 602.3 602.4 603.1 602.6 598.1 593.2 588.2 579.3 570 561.2 552.2 543.5 532.6 525.3 519 509.7 501.2 491.9 477.1 461.3 446.6 437.7 423.9 414.2 407.2 404.3 402.2 401.8 399.1 394.6 405.6 415.7 421.5 428.8 436.4 442.4 451.3 458.2 466.3 474 478.5 482.4 488.3 495.4 502.5 509.1 514 517.3 520.6 523.2 526.3 526.9 527.6 528.5 528.9 529.8 530.4 531.2 531.3 534.7 538.2 540.3 543.1 545.5 549 553.2 558.8 562.4 566.4 572.4 578.4 586.1 593.9 603.8 614.2 622.9 629.4 634.5 638.2 640.5 640 642.4 648.7 653.1 651.4 650.8 645.7 642 640 638.2 635.9 635.1 639.6 643.6 646.7 641.2 639.6 640 640.7 640.5
672 675.4 677.4 681.3 687 697.2 705.6 717.5 728.5 734.3 732.4 732.4 730.7 726.1 720 714.3 707.4 696.3 687.4 678.4 670.2 663.7 657.8 657.7 658 656.5 655.1 655.6 656.3 655.3 654.5 656 655.1 655.9 657 658.5 658.5 657.4 655.4 652.5 649.9 647 643.2 640.2 636.7 633 630.2 627.8 624.8 621.9 618.3 613.3 610.2 608.3 605.3 603.4 601.7 600.8 600 599.4 597.7 596.3 596 596 595.9 595.9 596.8 597.1 595 592.7 593.7 596.1 601 604 606.6 608.8 612.3 616 619.8 623.4 624.9 626.5 626.4 626.5 627.3 625.9 624.9 624.6 625.1 624.7 622.1 619.4 617.7 617.8 618.3 617.2 614.3 612.9 610.6 609.2 608.4 609.1 609.8 608.6 603.5 598.4 591 585.1 575.2 563.2 552.8 543.4 530.5 520.4 513 507.5 497 487.6 475.3 457.1 447.4 437.6 419.7 411.5 405.9 402.4 400.1 401.9 397.1 394.6 403.2 409.8 418.4 425.3 432.4 438.2 444.1 452.4 459.4 468.3 473.3 477.5 482.1 486.8 493.8 502.1 507.3 510.9 514.4 517.1 520 520.6 522.1 523.5 523.7 524.7 525.7 526 526.2 530.6 533.3 536.5 539.2 542.4 544.4 548.5 553.6 558.6 563.1 568.7 574.1 581.2 590.4 600 608.2 616.7 622.5 626.6 629 629.5 631.4 633.5 636.7 634.4 632.9 635.3 633.1 634.1 631.3 629.5 625.9 628.5 631.7 635.6 639 636 633.8 632.9 633.6 633.4
662.1 666.2 670.4 675.3 682.5 692.2 703 713.7 722.3 727.9 724.9 724.9 722.8 718.8 713.3 706 697.3 687.4 678 669.4 662 654.9 652 650.4 649.3 648.3 648.3 649.6 650.2 650.2 650.1 650.8 650.8 650.7 650.7 653.4 653.8 652.5 650.2 647.7 645.2 641.8 637.9 635.5 631.9 629 626.7 624.7 622.5 619.6 615.9 611.9 609.5 607.7 603.7 603 600.2 597.6 597.1 596.7 594.7 593.8 594.5 593.5 592.9 593.3 594.3 593.7 590.6 589.7 590.4 593.1 597.1 598.7 601.3 604 606.2 610 614 618.8 621.2 622.5 623.5 624.3 624 623.5 623.3 623.6 623.6 622.6 621.6 620.3 619.6 620.5 621.2 619.4 617.3 616.8 616.7 615.7 614.3 614.9 615.2 615 611.1 603.3 596.3 587.8 578.2 564.9 548.9 535.5 531.4 511.8 509.1 503.6 494.9 482.4 474.7 460.1 450.4 435.4 417.3 407.8 404.5 400.4 399.7 399.3 395 396.1 399.6 405.6 413.1 419.1 425.6 431.9 436.9 445.7 453.8 459.7 465.4 470.5 474.7 480.6 486.3 493.4 499.4 503.7 506.9 509.4 512.1 513.9 514.7 517.2 518.2 518.7 519.5 519.6 521.7 525.1 528.4 531.3 534.4 538.1 539.8 543.7 549.2 554.5 559.7 565.1 570.6 576.9 585.7 594.5 602.4 610.4 615.7 618.8 621.6 623.1 624.8 624.2 624.4 622.7 620.5 617.6 621.4 622.4 622.2 619.3 617.7 620.8 622.4 626.6 629.8 628.9 628.2 624.6 625.2 624.9
653.1 659.1 663.6 670.9 678.1 688.9 699.6 709 714.8 718.2 717.5 717.8 715.3 712 705.9 699.5 691.4 681.3 671.3 662.9 652.5 647.4 643.9 641.8 640.6 641 641.7 643.1 643.5 642.9 645 646 647.1 646 646.5 648.1 649.2 648 645.9 643 640.5 636.6 633.4 630.9 627.9 625.5 623.3 621.2 619.1 617 614 611.6 609.9 608.2 605.7 603 600.9 598.4 595.8 594.8 593.4 591.3 591.3 591 591 590.8 591.4 590.7 589.7 589.2 588.4 590.8 593.6 594.4 596.1 599.1 600.7 604 608.3 613.5 616.9 617.6 618.7 618.6 619.9 620.4 620.4 620.8 620.9 619.9 618.9 619.1 620.2 622.2 622.3 620.6 619.5 619.2 619.2 619.1 619.2 620.2 620.8 620 616.8 609.7 600.4 590.6 580.4 568.1 550.9 541.3 530.7 515.1 507.4 501.8 491.6 479 466.4 455.2 447 429.4 410.8 401.8 402.8 396.8 395.3 394.9 393.9 396 398.5 402.2 407.8 413.8 420 423.6 428.7 437.4 446 451 456.9 462.9 467.5 474.5 478.6 484 489.8 495.8 499.2 501.2 505 506.7 507.7 509.8 512.2 510.7 512.5 514.3 517 520.5 523.9 526.2 529.3 532.9 534.6 539.1 544.8 550.4 556.1 561.7 567.3 574.3 583 589.1 596.2 602.8 607.7 612.5 614.4 616.3 614.9 614.7 613 611.3 607 606.1 606.1 605.1 605.3 605.8 608 610.5 614.2 616.2 617.4 618.7 619.9 618 615.9 616.8
645 651.5 658.7 666.2 675.4 686 697.3 705.3 709.1 710.5 711 710.8 708.9 705.7 699.8 692.7 683.8 675.4 664.4 654.8 646.5 640.8 636.7 634.1 632.6 633 634.2 635.5 637.8 639.1 640.2 641.3 641.9 642.4 643.6 643.9 644 643.5 641.7 638.9 635.6 632 629.8 626.8 624.4 622 619.8 617.7 615.9 614.7 613.9 611.3 609.7 609 606.1 604.9 602.1 598.6 597.9 596 594.6 592.7 591.9 590.4 589.7 589.6 589.4 588.8 588.9 588 587.7 589.2 589.9 590.7 591.9 594.4 596.2 598.1 602.2 607.4 611.2 612.4 612 612.5 614.4 615.8 616.9 617.5 617.6 617.2 616.5 617.8 619.6 621 621.6 621.2 620.5 621.3 621.7 622.2 622.9 623.5 624.4 623.3 621.5 613 604 593.8 582.5 569.8 551 541.8 523.4 517.7 497.3 495.3 483.8 465.8 458.9 446.6 436.8 419.6 407.8 402.4 397.6 396 394.7 393.4 396.1 396 397 399.9 403.4 407.5 411.4 416 421.6 429.3 436.7 442 448.5 454.5 459.6 464.7 469.1 472.5 478.3 483.7 487.4 492 495.2 499 499.4 503 503.6 504.6 507.4 508.5 511.4 517.7 519.7 521.9 524.5 528.3 530.1 535.1 541.4 547.2 552.7 558.7 564.8 571.7 578.9 583.8 590 595.3 602 604.3 605.3 605.2 605.3 602.8 601.3 599.9 597.1 595.2 596 595 594.2 594.5 596.5 601.1 604.7 606.5 608.1 609.4 612.1 610.4 607.7 607.1
