ncols 200
nrows 82
xllcorner 490000
yllcorner 200300
cellsize 50
191.4 189.5 189 188.9 188.7 187.5 185.9 181.4 178.5 182 184.2 186.3 188.1 188.4 188.4 188.5 188.4 188.3 187.9 187.5 187.1 186.6 185.7 184.4 183 182.1 182 181 179.7 176.7 175.4 174.7 173.7 171.3 169.2 169.8 172.9 175.4 176.7 179.6 180.6 180.8 181 181.1 180.4 179.5 178.9 178.2 177.9 177.5 176.9 176.5 176.5 176.7 177 177.2 176.3 175.2 173.3 171 169.1 167.2 165.4 163 159.2 154.3 149.6 145.7 141.5 137.3 133.3 130.5 132.2 136.1 143.8 152.1 159.2 163.5 167.1 168.2 168.6 169.6 170 168.9 167.3 164.5 163 159.3 155.1 149.5 143.7 137.6 133 132.6 135.4 141.6 148.7 157 162.5 165.6 166.4 167.6 168.8 168.7 168.3 167.8 166.2 165.1 164.1 162.4 160.5 158 154 148.6 144.2 139.2 134.4 129.8 126 121.6 119.8 119.8 119.2 119.3 119.6 117.8 117.1 116.6 118.1 122.5 128.9 136.3 144.9 152.2 159.2 163 165.3 166.2 166.3 165.8 165.4 165.2 166.7 165.9 165.9 166 165.9 165.8 165 164 163 161.7 160.5 159.2 157.4 156.4 155.1 152.7 149.6 147 141.7 138.3 136.2 139.8 141.5 135.6 144.6 151.1 157 158.9 160.2 161.3 161.8 162.1 161.1 162.1 162.8 162.6 162.4 163.2 163.3 163 162.7 162.3 162 161.9 161.8 161.7 161.5 161.4 161 161.5 161.9 162.2 162.5 162.4 162.4 162.3 162.3 162.3
190.9 189.8 189.4 189 188.6 188 186.8 184.2 179.6 178.1 182.1 184.4 186.5 188.3 188.3 188.3 188.3 188.1 187.9 187.4 187 186.7 185.8 184.5 183.8 184.1 183.7 183.2 181.7 179.4 177.5 176.8 176.9 173.8 170.5 167.2 168.5 171 173.6 176.7 179.3 180.3 180.9 180.9 180.1 179.3 178.9 178.7 178.4 178 177.5 177.1 177.6 177.6 177.5 177.4 176.9 176 175 173.2 171.2 169.7 167.6 165.4 163.3 158.6 153.8 149 144.8 140.6 136.6 132.6 129.4 130.3 136.1 145.3 152.6 159.1 163.3 166.1 167.8 168.6 169.2 169.8 168.9 167.3 165.7 162.9 159.1 154.5 148.9 142.9 136.5 132.1 131.4 136.5 143.6 151.8 159.4 164.9 166.9 168 168.7 168.4 168 167.6 166.9 165.7 164.5 163 161.2 159.7 156.6 153.9 150.5 146.3 141.5 137.4 133.4 128.4 125 121 119.5 117.9 118.1 118 116.2 116.6 117.8 121.8 128.1 135.6 144.9 153.7 159.7 163.4 165.6 166.4 166.2 165.6 165.5 165.5 166.4 165.7 165.5 165.4 165.4 165.2 164.4 163.6 162.4 161.1 159.8 158.2 157.4 156.2 154.6 152.3 149.9 146.2 141.8 137 139.1 143.8 145.1 138.8 143.7 151 156.7 158.2 159.4 160.7 160.5 160.4 160.6 161.4 162.5 162.7 163.5 163.5 163.2 162.9 162.5 162.2 162 161.8 161.7 161.6 161.5 161.4 161.3 161.6 161.8 162.1 162.4 162.3 162.3 162.3 162.2 162.3
190.2 189.2 189.3 188.8 188.1 187.4 186.7 185 181 176.7 178.6 182 185.1 187 188.1 187.9 187.8 187.6 187.3 186.9 186.6 186.5 185.5 184.3 184.1 184.3 184.4 184 183 180.6 179.9 179.2 178.5 178.9 177.1 171.4 166.6 167.7 170.2 173.2 176.5 179 180.1 180.4 179.7 179 178.8 178.7 178.7 178.5 178.2 177.8 178 177.9 177.9 177.6 177.1 176.6 175.1 173.2 171.7 171 168.9 167.2 165.4 162.8 158.4 153.7 148.8 143.6 139.2 134.8 131 128.7 130.2 138.4 145.8 152.6 157.9 162.6 165.7 167.5 168.1 168.8 168.7 167.6 166.4 164.5 162.3 158.7 154.1 148.4 141.8 135 131.1 132 139.8 148.9 158.1 163.1 166.1 168.6 168.4 168.1 167.7 167.3 166.6 165.3 163.9 162.8 161.5 159.9 158 155.9 153.9 150.9 147.9 144.7 140.6 136.5 131.8 126.9 122.8 120.5 117.6 118.1 116.6 116.3 117.4 121.5 127.3 136.7 146 154.8 160.2 163.6 165.4 166.3 166.2 166 166.4 166.3 166 165.5 165 164.9 164.8 164.5 163.4 162.3 161.2 159.9 158.2 156.9 156.2 154.9 153 151.2 146.3 141.7 138 137.9 141.7 146.7 148.5 141.2 143.6 150.8 156.1 158.2 159.5 160.7 160 159.7 160 160.6 161.8 162.5 163.1 163.4 163.1 162.7 162.4 162.1 161.9 161.8 161.7 161.6 161.6 161.5 161.3 161.4 161.7 161.9 162.2 162.2 162.2 162.2 162.2 162.8
188.5 188.2 187.8 187.2 186.4 185.7 185.1 184.9 182.4 177.9 175.8 179.6 183.3 185.6 186.8 186.8 186.9 187 186.8 186.6 186.5 186.3 185.2 184.3 183.5 183.9 184.1 184.2 183.8 183.1 182.4 181.6 180.9 180.4 178.7 174.1 169 165.3 166.8 169.8 173 177.5 179 179.9 179.4 178.8 178.6 178.6 178.6 178.5 178.5 178.4 178.3 178.3 178.2 177.7 176.9 176.1 175.1 173.7 173 172.3 170.8 169.2 167.4 165.1 161.3 156.9 151.8 145.3 140.9 136.5 133 130.3 128.3 130.7 137.7 145 151.7 157.6 162.5 165.4 167.1 167.9 168.3 167.5 166.8 165.5 163.1 161 157.5 152.7 146.7 139.8 133 131.4 136.5 147 156.9 162.3 166.3 168.3 168 167.8 167.4 167 166 163.9 162.7 161.7 160.5 159.7 158.9 157.3 155.8 153.7 151.3 148.9 145.9 141.5 136.6 131.7 127 123.2 119.1 116.8 116 116.2 118.2 121 129.2 139.1 147 155.8 160.7 163.6 164.9 165.7 166.2 166.9 167.4 166.6 166.4 166 165 163.7 163.7 162.9 162 161 159.8 158.1 155.7 154.1 153.4 152.4 150.5 146.3 141.1 139.7 140.8 140.1 143.3 148.3 150.4 145.5 143.1 150.3 155.4 158.3 159.6 160.4 159.4 159.2 159 159.6 160.7 161.4 162.5 163.1 162.9 162.6 162.3 162 161.9 161.8 161.8 161.8 161.8 161.6 161.4 161.3 161.6 161.8 162.1 162.1 162.1 162.2 162.8 163.1
186.9 187.5 187.7 185.5 184.7 183.9 183.5 183.9 182.9 179.6 174.8 176.5 180.8 184.1 185.4 185.5 185.7 185.8 186.5 186.4 186.3 186.1 185.1 184.2 183.4 183.4 183.7 183.8 183.9 183.5 182.8 182.1 181.4 180.5 179.1 176.5 171.5 167 164.3 166.7 170.4 174.2 177.3 178.5 179.2 178.6 178.5 178.5 178.4 178.4 178.4 178.7 178.9 178.8 178.1 177.3 176.4 175.6 174.8 173.9 172.8 171.7 171 169.4 167.6 165.6 162.3 157.8 152.1 146 140.3 137.1 134.2 130.9 128.7 127.3 130.9 136.1 143.1 151.4 157.9 162.7 165 166.7 166.7 166.1 165.6 165.8 164 161.5 158.6 155.1 148.6 141.2 133.9 129 134 145.9 156.3 163.5 166 168 167.7 167.4 167.1 166.4 164.8 162.3 160 159.7 159.5 158.7 157.4 157.4 156.1 154.7 153.1 150.9 148.6 145.8 140.9 134.7 130.3 124.9 120.5 116.5 115.6 115.8 119.1 125.7 132.9 141.9 150.4 157.3 161.2 163.5 164.8 165.5 165.9 166.4 167 167.5 166.7 166.4 165.3 163.9 162.3 160.7 159.9 159.6 157.6 155.7 153.9 151.2 149.7 146.5 144.5 144.3 146.4 146.1 146.2 143.1 144.3 150.6 150.9 148.5 144.4 149.3 155.1 157.2 158.2 158.8 158.4 158.1 157.9 158.7 159.9 161.5 162 162.9 162.7 162.4 162.1 161.9 161.9 161.9 161.9 161.9 161.8 161.6 161.5 161.3 161.4 161.7 162 162 162.1 162.6 162.8 163.1
187.7 188.3 188 185.8 183.1 182.2 182.6 183.5 182.8 180.2 176.2 173.4 177.8 181.6 184.1 184.4 184.6 185 185.6 186 186 185.8 185 184.2 183.4 182.8 183.2 183.4 183.4 183.2 182.9 182.2 181.4 180.6 179.1 177 172.8 168.3 164.1 164.6 168.3 172.1 175.4 177.3 178.9 178.4 178.4 178.4 178.3 178.4 178.5 178.8 179.3 178.7 178 177.1 176.3 175.3 174.3 172.7 171.3 170.6 169.9 168.9 167.1 164.5 161.3 157.1 151.2 145.1 139.8 136.7 135.1 133.4 130.2 128 126.5 128.2 134.2 143.7 152.1 157.8 161.8 163.7 165 164.6 165.4 165.5 164.2 161.8 159 155 148.1 141 133.8 128.3 132.4 144.2 155 163.2 165.8 167.6 166.9 166.9 166.8 165.2 163.5 162.2 160.8 158.6 158.2 156.8 156 156 155.2 153.8 152 151.3 149.4 147 143.1 138.1 132.6 126.7 120.5 116.1 115.6 115.8 120.6 128 138.3 146.5 153.6 158.6 161.2 163.4 164.7 165.1 165.6 166 167.3 166.2 166.1 165.8 164.7 164.3 162.5 160.7 159 157.7 156.8 155.8 154.2 152 149.9 145.4 148.1 150.5 151.9 150.9 150.1 145.7 145.7 151.8 153 151.4 146.3 147.7 152.6 155.9 156.8 157.1 156.5 157 156.9 158.2 159.9 161 162 162.7 162.4 162.2 161.8 162.1 162.1 162.1 162.1 162.1 161.9 161.7 161.5 161.3 161.3 161.7 161.9 162.1 162.4 162.6 162.8 163.1
189.1 188.5 188.2 186 183.3 181.1 180.9 181.2 181.3 180.9 178 172.9 173.6 179 182.1 183.2 183.5 184.2 184.6 185.3 185.2 185.2 185.2 184.2 183.4 182.5 182.7 183 182.9 182.8 182.5 182.1 181.3 180.4 178.5 176.4 173.2 168.9 164.6 162.6 166.3 170.1 174 176.1 178.4 178.3 178.3 178.3 178.3 178.4 178.5 179 178.8 178.2 177.7 176.6 175.7 174.7 173.7 171.5 170.2 169.3 168.5 167.3 165.2 162.5 158.7 153.4 148.9 143.4 139.4 137.8 138 137.4 133.7 130.8 128.4 126.1 128.2 136.6 145.1 151.1 156.9 160.5 162.5 164.1 164.9 165.2 163.7 161.8 158.9 153.9 147 140.1 133.2 127.5 131.6 142.5 153.4 163 165.7 167.1 166.6 165.9 165.7 166.2 164.8 163.6 161.6 159.4 156.7 154 152.9 152.8 152.5 151.6 149 148.9 147.6 144.8 142.1 138.1 133.5 127.5 120.9 115.1 114.9 115.5 122.6 130.8 142 150 155.9 159 161.2 163.5 164.4 164.8 165.2 165.5 165.4 165 165 164.4 163.6 163.3 163 161.5 159.7 158.4 158.1 157.3 155.7 153.1 149.1 149.5 152.9 155 155.4 154.3 152.2 146.7 148 152.9 154.2 153.7 149.2 146.8 150 153.4 154.3 155 154.6 154.8 156.5 158.3 159.2 160.3 161.6 161.8 161.9 161.6 161.2 162 162.2 162.2 162.2 162.1 162 161.8 161.6 161.4 161.2 161.6 161.9 162.1 162.4 162.6 162.8 163.1
189.6 188.9 188.4 186.2 184.2 182.3 180.5 179.1 178.7 177.1 176.2 173.7 169.5 173.9 178.5 180 180.6 181.8 183.1 184.4 184.3 184.4 184.8 184.8 183.6 182.5 182.1 181.9 181.8 181.9 181.7 181.6 180.7 179.6 178.4 176.4 173.1 168.7 164.3 161.6 164.8 169.3 173.4 175.4 177.3 178.2 178.2 178.3 178.4 178.5 178.7 178.7 178.2 177.9 177.3 175.9 174.7 173.4 171.6 169.4 167.5 166.6 164.6 163.9 160.6 156.6 152.6 148 145 144.9 145.4 145.4 144.6 142.1 138.2 135.2 131.2 127.3 125.5 130 137.2 143.1 150.6 156 159.4 161.3 163 163.9 163.3 160.7 158.1 152.6 145.8 139 132.3 126.3 130.6 141.9 152.3 161.7 165.7 166.5 166.4 166.1 166.5 166.7 166 164.8 162.8 160.6 157.9 153.7 148.5 147.2 147.4 147.3 145.8 142.7 141.3 140.3 137.5 133.7 130.3 125.9 119.6 114.6 114.8 116.8 124.5 134.4 144.4 153.1 157.9 160.6 161.4 163.6 164.6 164.9 165.1 164.8 164.6 164.1 163.9 163.1 162.6 162.3 162 161.7 160.5 158.9 158.7 157.5 155.2 152.1 149.9 153.6 156.4 157.1 156.9 155.5 153.2 147.1 149.7 153.6 154.7 154.8 153.3 150.1 148.3 150.2 151.6 152.7 154.4 155.3 156.1 157.6 158.3 159.6 160.9 161.5 161.3 161 160.6 161.1 162.3 162.4 162.4 162.2 162 161.8 161.6 161.4 161 161.1 161.7 162 162.2 162.5 162.7 162.9
190.2 189.4 188.4 187.1 185.4 183.5 182.2 180.1 177.9 174.5 173.3 172.5 168.9 168.2 172.3 175.8 175.8 178.8 180.7 183 183.3 183.5 184 184.5 184.4 183.2 181.9 180.3 179.8 180 180.2 179.9 179.6 178.8 177.6 175.8 172.7 168.5 164.3 159.4 161.5 165.6 171.7 175.3 176.6 177.8 178.2 178.3 178.4 178.5 178.7 178.3 178 177.6 176.8 176 174.1 172.7 169.6 167 165 162.6 159.9 157.4 155.3 155.2 153.3 153 152.7 154.6 154.3 154.4 152.9 148.3 143.7 138.8 134.7 130.7 126.5 125.1 129.1 135.8 143.1 149.2 153.4 157.8 159.8 161.7 161.7 159.7 156.3 151 144.3 137.7 130.9 125.1 129.5 140.5 152 160.5 165.1 166.4 166.5 166.9 167.2 167.3 166.6 165.9 164 161.8 159 156.9 152.7 147 141 139.5 136 133.2 131.3 130.7 128.9 128.2 125.7 122.3 117.9 114.5 114.5 117 126.1 137.6 146.8 154.8 159.6 162.2 163 163.8 164.4 163.9 163.8 164.1 163.6 163.1 162.8 162.1 161.6 161.3 161 160.7 160.4 159.4 158.3 156.6 153.8 150.8 153.1 156.7 158 157.9 157.1 154.6 152.2 147.8 150.5 154 155.9 156.1 155.1 152.9 152.6 153.7 154.8 155.7 156.6 157.4 157.5 157.2 158.2 158.6 160.9 161.3 160.8 160.3 160 160.2 161.4 162.6 162.4 162.2 162 161.8 161.5 161.3 160.8 160.5 161.2 161.7 161.9 162.2 162.4 162.7
190 188.4 188.2 187.2 185.5 184.3 182.9 180.3 177.5 174.6 173.4 171.7 168.4 167.7 167.5 168.3 170.5 174.4 177.1 180.4 182.4 182.7 183.2 184 184.3 183.8 182.8 181.3 179.3 177.8 178 178.1 177.9 177.2 176.3 175 171.8 168.5 164.1 158.4 159.1 162.9 169.6 174.1 175.7 176.8 177.4 177.7 178 178.2 178.4 178.1 177.8 177.1 176.3 175.5 174.6 172.1 171.3 171.1 168.5 167.7 166.4 164.6 162.8 162.8 161.2 161.7 161.6 162.9 164.3 161.5 159.9 154.6 148.8 142.6 137.9 133.9 129.5 125.7 124.7 128.3 134.2 140.3 147.3 152.2 156.4 158.6 158.8 157.6 154.5 149.7 142.8 135.3 128.3 124.5 129.6 140.1 151.8 160.2 164.6 166.7 167.5 167.7 167.6 167.2 166.6 166.1 165.1 162.9 160.7 158.2 154.6 151.8 147.3 145.6 142.1 139.1 135.7 131.9 127.5 123.9 121.4 118.8 116.8 114 114.1 117.6 126.6 137.6 147.9 156.9 160.9 163.3 164.1 164.9 164 163.5 163.7 163.4 162.9 162.2 161.6 161 160.6 160.3 160 159.7 159.3 159 157 155.2 152.5 153.4 156.5 157.9 158.8 158.6 156.5 154.2 152.9 151 150.9 155.5 157 157.3 156.3 154.1 154.4 155.1 156.2 157.3 158.2 158.7 159.2 159.6 159.7 159.7 160.5 161.1 160.6 160.1 159.8 159.7 160.8 162 162.3 162.2 161.9 161.7 161.5 161 160.5 159.9 160.6 161.3 161.6 161.9 162.1 162.2
189.7 188.8 187.7 186.4 185.2 183.9 181.6 179.2 177 174.7 172.7 172.5 171.6 170.6 168.3 167.6 164.7 165.9 171.9 176.8 180 182 183.3 183.8 183.8 183.3 182.8 182.2 180.2 177.9 175 175 175.3 175.2 174.4 173.3 170.5 167.7 164.3 158.6 155.5 158.8 165.7 172.1 174.1 174.9 175.4 176.3 176.5 176.7 177.4 177.8 177.4 176.7 175.9 175.6 174.2 173.5 173.2 172.6 171.7 170.7 170.6 169.5 168.8 168.1 167.5 167.1 166.4 167 167 165.7 163.3 159.4 153.3 147.1 141.1 137 132.5 128.1 125.3 124 127.3 131.5 139.1 145.9 150.1 153.3 155.3 155.4 152.7 148 140.5 134.2 127.5 124.2 129.9 140.2 151.8 160.2 164.6 167 167.5 167.5 167.4 167 166.3 165.7 164.6 163.3 161.4 158.9 156.4 154.8 152.7 151.6 148.9 145.9 142.1 137.9 132.1 125.4 121.9 117.8 115.7 113.7 115.3 118.5 127.2 139.6 150 158.3 161.8 164.1 165 165.2 164.4 163.2 163 162.7 162.3 161.7 161.2 159.9 159.6 159.2 158.9 158.5 158.2 157.8 156.1 154 153.6 156 158 159 159.3 158.7 157 155.5 154.8 153.4 151.2 156.8 157.7 158.2 157.1 155.2 155.7 156.4 157.5 158.5 159 159.5 160 160.2 160 159.9 160.3 160.9 160.4 160.1 159.7 159.4 160.4 161.5 161.7 161.8 161.8 161.6 161.3 160.7 160 159.4 160 160.7 161.3 161.6 161.7 161.6
188.3 186.8 185.9 184.4 182.6 180.8 178.8 176.5 176 175.2 176.2 177.6 178.1 177.3 174.8 171.4 167.9 163.6 164.1 169.9 175.7 179 181.2 182.6 183.5 183.1 182.7 182.2 181.4 179.9 177.6 174.8 170 171.3 171.8 171.1 169.5 166.7 163.9 158.9 151.6 153.7 160.1 168 171.6 172 172.7 173.3 174.5 175.2 176 176.6 176 175.2 176.3 176.2 175.5 175.2 174.7 174.3 173.6 173.5 172.9 172 171.5 171.2 170.9 169.7 168.5 168.7 168 166.4 164.6 162.1 157.7 151.5 145.3 140.2 135.9 131.5 127.3 124 123.5 124.2 130.8 136.8 141.5 146.3 149.6 151.1 150.4 145.8 138.8 133.2 126.4 124.3 130.5 140.5 152 159.9 164.8 167 167 167.3 167.1 166.8 166.1 165.4 164.5 163.2 161.8 159.8 158.3 156.8 155.6 154 151.7 149 145.3 141.3 133.8 127.9 122.5 118.1 115.2 113.7 114.3 119.2 130 143.1 152.6 159 162.6 164.9 165.7 165.5 164.8 163.5 163 162.7 162 161.6 161.2 160.4 158.6 158.7 158.2 157.7 157.2 156.2 155.6 154.9 155.7 156.4 157.7 159.5 159.4 158.3 157.7 157.3 156.6 155.5 150.9 157.2 158.1 158.7 158 156.7 156.8 157.8 158.8 159.3 159.8 160.3 160.5 160.3 160.2 160 160.4 160.8 160.4 160 159.7 160.2 160.7 161.4 161.3 161.2 161.3 161.5 160.8 160.1 159.5 158.9 159.6 160.2 160.9 161.2 161.7 161.4
186.6 184 183.1 180.7 180.5 180 180.2 180 180.4 180.2 180.2 181.1 181.2 181.1 180.3 179 174.6 169.8 164.5 164 168.3 172.5 178.1 180.7 182.3 182.6 182.6 182.2 181.6 180.7 179.8 177.7 174.7 170.3 166.5 165.6 164.9 163.3 160.7 157.3 150.9 148.6 156.3 161.5 165.5 167.1 168.4 169.8 171.2 172.7 174 174.9 175 175.1 176.7 176.3 175.5 174.8 174.2 174.3 174.5 174.1 173.3 172.9 173.1 172.7 171.7 170.5 169.9 169.9 169.1 167.9 166.4 164.7 161.4 155.8 150.3 145.2 140.3 135.6 131.5 127.5 123.9 123.2 122.8 126.3 130.7 135.9 141.5 143.6 147.4 143.7 137.4 131.2 125 122.6 131 140.8 151.3 159.8 164 165.8 166.4 166.7 166.9 166.6 165.9 165.2 165 164.3 163.3 161.7 160.3 158.9 157 154.5 152.2 149.6 146.2 142.1 136.4 128.4 122.6 117.3 114.7 113.7 115.2 121.7 132.1 144.7 154.6 160.7 163 165.2 165.7 165.5 165 163.8 163.5 163.2 162.7 162.4 161.7 161 160.1 159.2 158.4 157.5 155.6 155.8 156.7 156.8 157.5 158.3 159 159.7 158.5 158.1 158.3 158.5 157.9 155.9 152.8 157.6 158.5 159.2 158.6 158.1 158 159.1 159.6 160.1 160.4 160.7 161 160.7 160.4 160.2 160.6 160.7 160.4 160.1 160.5 161 161.5 161.8 161.4 161 161 161.5 160.8 160 159.2 158.5 159.3 159.1 159.7 160.3 160.1 161.6
184 183.4 183.7 184.1 184.4 184.3 184.5 184.3 183.6 183.2 183.1 183.2 183 183.4 182.5 181.3 179.2 175 170 164.1 163.3 166.9 174 178.3 180.1 181.3 181.4 180.8 181.8 180.8 179.8 178.3 176.7 174.5 170.9 166.8 163.4 159.7 156.2 153.4 151.3 149.3 151.6 157.6 161.5 163.5 163.7 164.4 164.8 168 170 171.7 174.1 174.9 175.9 175.7 175 174.3 174 174.1 174.4 174.6 174.3 173.9 173.5 173.1 172.5 171.9 170.9 169.9 169.1 168.1 166.6 165.4 163.7 159.8 155.4 150.3 145 140.1 135.9 132.1 128.8 124.2 122.8 121.5 122.7 126.8 132.6 137.7 141.9 140.7 135.6 129.8 124.1 122 131.8 141.1 150.6 158.8 163.1 164.7 165.8 166.2 166.5 166.3 165.7 165 164.8 164.7 164.1 162.1 161.9 159.9 157.4 154.9 152.2 149 144.9 140.6 135.4 128.2 122.4 116.6 114.2 113.1 116.1 124 133.9 146.4 156.6 161.1 163.5 165.7 165.6 165.2 165.2 164.3 164 163.3 162.5 162.3 162.2 161.5 160.7 159.8 158.9 158.5 158.1 158 158 157.8 158.1 158.9 159.6 159.3 158.1 158.3 158.6 158.9 158.4 156 154.1 158.4 159 159.7 159.4 159.2 159.4 159.8 160.1 160.4 160.8 161.1 161.4 161.7 160.9 160.4 160.5 160.5 160.4 160.9 161.3 161.8 162.2 162 161.7 161.3 161 161.5 160.8 160 159.2 158.5 157.6 157.8 158.7 159.5 160 160.6
186 186.7 187.4 187.2 187.2 187 187.3 186.1 185.3 185 184.6 184.7 184.6 183.7 183.1 182.2 181.2 177.6 173 170.3 165.1 161.5 166.2 172.1 177.3 179.2 180.1 180.3 180.5 180.5 179.5 178.6 176.9 175.4 173.4 171.2 168 165.2 160.9 158.7 154.9 149 146 150.9 156.5 159.2 159.8 156.6 157.5 159.6 162.4 165.6 169 172.7 174.5 175.1 174.4 173.8 173.8 173.9 174.2 174.3 174.2 174 173.6 173.2 172.4 171.7 170.7 169.7 169 168.2 166.9 166 165.2 163.2 160.4 155.4 149.8 144.6 140 136.2 132.5 129.1 124.3 121.8 121.2 121.9 124.6 129.7 133.3 135.5 132.6 127 121.2 122.1 131 140 149.7 156.4 161.3 163.1 164.3 165.2 165.7 165.8 165.5 164.9 164.6 164.5 164.4 163.3 162.1 160.1 157.5 154.7 151.4 147.7 143.5 138.2 132.3 126.9 120.9 116.3 113.6 112.6 118 126 136.8 148.6 158.2 161.4 163.9 165.7 165.3 164.9 165.3 164.7 163.9 163 162.3 162.1 162.4 162 161.3 160.4 159.5 159.3 159.4 159.3 159.1 159 158.9 159.5 160.3 159.1 159.2 159.2 159.3 159.4 158.8 157.1 155.4 158.1 158.8 159 159.1 159.4 159.7 160.1 160.4 160.8 161.1 161.4 161.8 162.1 161.8 161 160.4 160.5 161.3 161.8 162.1 162.3 162.4 162.3 162 161.7 161.3 161.5 160.8 160.1 159.3 158.4 157 157 158.5 159.6 160.3 161.1
188.2 189 188.8 188.9 188.6 188.3 187.5 187 186.4 185.6 184.9 184 183.2 183 182.6 181.6 180.2 177.8 176.3 173.6 167.8 162.1 159.6 164.5 171.3 174.6 176.4 177.2 177.9 177.6 178 177.3 176.3 175.1 173.2 171 168.9 166.9 163.7 160.9 156.9 152.6 145.9 144 150 152.5 152 149.1 149.5 150.8 153.2 157.1 162.3 167.3 172 173.9 173.9 173.6 173.7 173.7 173.9 173.5 173.3 173.3 173.2 172.7 171.8 171.3 170.4 169.6 168.8 167.8 167.7 167 166.1 164.1 162.5 160.3 155.3 150.3 144.7 139.8 136.3 132.7 128.9 123.8 121.3 120.6 121.4 123.4 126.3 128.5 128.5 125.4 120.7 122.6 130.9 139.2 148.6 155.1 158.7 161 162.2 163.2 164.1 164.7 164.5 164.3 164.4 164.5 164 163.1 161.1 159.6 157.2 154.5 150.6 145.2 140.2 134.4 128.8 123.3 119.3 116 112.7 112.7 118.1 126.7 138.6 150.4 159 161.9 163.9 165.2 164.9 164.5 165.3 164.5 163.6 162.8 162.1 161.9 162.2 162.5 161.9 161 160.1 160.1 160.4 160.4 160.3 160.2 160 160.2 160 160.1 160.2 160.3 160.3 159.8 159.2 158.4 156.6 157.2 157.9 159 159.4 159.7 159.9 160.3 160.6 161 161.3 161.6 162 161.8 161.9 161.5 160.8 160.5 161.5 161.7 161.9 162 162.1 162.1 162 161.9 161.7 161.5 160.9 160.1 159.3 158.4 156.8 156.2 158.3 160 160.8 161.7
190.4 189.8 189.7 189.1 188.7 187.3 187 186.4 185.8 184.8 184.1 183 181.9 181.3 180.4 179.4 178.7 177.3 174.9 173.6 170.1 164.9 159.3 157.1 162.5 166.6 169.4 172.2 173.5 174.6 174.7 174.4 173.8 173.3 171.6 169.9 168 165.7 162.4 159.2 155.5 151.5 147.5 142.9 143.4 145 143.6 142.4 141.3 142 141.2 145.6 153 161 167.5 171.6 173.3 173.4 173.5 173.6 173.6 172.5 172.3 172.1 171.9 171.5 171 170.8 170.1 169.7 167.9 166.2 167.3 167.4 167.2 165.8 164.4 162.6 159.4 155 149.5 144.4 138.8 134.7 131.2 127.6 124.8 121.6 120.8 120.2 121.7 123.7 124.2 122.9 121.3 122.6 129.5 138.3 146.8 152.2 156.2 158.9 160.2 161.2 161.8 162.8 163.3 162.9 163.1 163.6 163.3 162.5 160.8 158.8 156.7 154.2 149.6 145.1 139.2 133.1 128.5 122.8 118.2 114.9 112.4 114 119.5 128 139.7 151.1 159.7 162.4 163.6 164.6 164.3 164.3 164.7 164 163.3 162.6 161.9 161.7 162 162.3 162.4 161.6 160.7 160.9 161.1 161.3 161.5 161.3 161.2 161 161 161.1 161.2 160.8 160.2 159.6 159 158.9 158.4 157.6 157.9 159.3 159.7 159.9 160.2 160.5 160.8 161.2 161.5 161.8 161.8 161.5 161.6 161.7 161.1 161.8 160.6 160.9 161.3 161.6 161.9 161.8 161.8 161.7 161.6 161.6 160.9 160.1 159.3 158.3 156.7 155.7 158.1 160.3 161.3 162.4
191.4 190.6 189.9 189.4 187.6 186.2 186 184.5 183.6 182.6 180.9 179.9 179.2 178.9 178.1 177.3 175.7 174.1 172.5 170.5 167.3 163.9 159.2 155.9 155.2 158.5 159.5 162.7 166.1 166.8 168 169 169.9 169.4 168.5 166.5 164.4 161.6 157.8 154.2 149.8 146.4 143.4 141.3 140.6 139.7 138.8 139.8 140.2 138.3 136.5 135 143.2 152.3 161.8 168.5 171.2 172.1 172.2 172.2 171.6 171.1 170.2 169.9 169.8 169.3 168.7 168.8 168.2 167.6 166.7 165.4 166.2 168.2 168 167 166 164.8 161.3 157.9 154.6 149.5 143.9 138.3 133.2 129.5 126.8 124.2 121.5 119.7 119.2 119.7 120.6 120.2 119.3 121.9 127.6 137.1 144.2 148.6 152.1 154.8 156.7 158.1 159.3 160.5 160.7 161.6 162.1 162.4 162.1 161.3 160.1 158.9 157 154.5 150.7 145.4 140.4 135.3 129.5 124 117.9 113.9 111.8 113.1 119 129.2 140.3 151.7 160.1 162.4 163.3 164 164 164.3 164 163.3 162.6 162.4 161.7 161.5 161.8 162.1 162.4 162.2 161.5 161.7 161.9 161.9 161.7 161.6 161.4 161.2 161.1 161.2 161.5 161.3 160.8 160 159.3 158.9 159 158.4 158.1 159.6 159.9 160.1 160.4 160.7 161 161.4 161.7 161.7 161.4 161.2 161.3 161.5 161.3 161.1 160.4 160.2 160.5 160.8 160.9 160.9 160.8 160.8 160.8 160.9 160.5 160.1 159.3 158.3 155.3 155.6 158.4 160.6 161.6 162.4
192.2 191.2 190.1 188.3 186.5 185.1 184.2 182.6 180.3 179 177.7 177 176.7 176.4 175.3 173.8 171.4 168.9 167.2 165.3 161.6 160 160.1 160.9 159.3 155.2 153 154 156.3 157.9 158.5 160.2 161.5 163.2 163 160.8 158.1 154.8 151 148.1 144.3 141.1 141.9 143.9 146.5 147 148.3 147 146.3 144 141.8 137.8 136.1 144 153.7 163.2 168.1 170.2 170.8 170.7 170.2 169.7 168.8 167.7 167.4 167 166.5 166.1 165.3 163.9 163 163.6 165.9 167.8 168 167.6 166.8 165.7 163.9 161.2 158 154.2 148.7 143.1 136.9 132.8 130.5 128.1 124.8 122.3 119.6 118.6 118.9 118.3 118.3 120.2 125.3 132.3 139.6 143.7 145.9 148.6 150.6 153.2 155.8 157 157.6 159.7 161.2 161.1 161.1 161.3 160.5 159 156.5 154.4 151.7 147.2 142.3 136.4 130.5 124.3 118.8 113.5 111.5 112.5 120.4 131.3 141.2 153.9 159.4 161.2 162.3 163.1 163.3 163.3 162.8 162.6 162 161.8 161.5 161.3 161.6 161.9 162.2 162.5 162.3 162.3 162.1 161.8 161.6 161.5 161.5 161.3 161.2 161.5 161.7 161.6 161.4 160.7 160 159.4 159.2 159.2 159.1 159.8 160.1 160.3 160.6 160.9 161.2 161.6 161.7 161.4 161.1 160.8 161 161.2 161.3 160.9 160.2 159.6 159.8 159.9 160 159.9 160 160.1 160.2 160.2 159.9 159.1 158.3 157.3 154 156.6 158.9 160.9 161.7 162.3
192.8 191.7 190.5 188.4 186.3 184.2 183.7 183.1 182.4 182.2 180.3 179.4 177.7 175.9 174.8 174.2 173.5 170.9 166.8 166.3 167.8 167.2 167.1 168.1 166 162.9 159.1 156.2 153.4 150.2 149.9 150.7 151.8 152.6 152.7 151.2 151.5 147.3 144.3 143.4 144.4 149 153.4 157.7 159.3 159.7 158.6 155.6 153.8 150.4 145.4 140.6 135.9 136.9 146.1 156 162.8 166.1 168.7 169.3 168.8 168.3 167.5 166.4 164.5 164 163.4 162.5 161.6 159.6 159 163.3 165.8 167.2 167.6 167.2 166.8 166.3 164.7 162.8 160.4 157 153.2 146.7 141.2 138.1 134.6 132.2 128.5 125 122.4 119.8 117.9 117.7 118.7 120.2 121 126 130.9 133.3 136.4 139 141.9 146 149.6 150.9 151.4 156.4 160.2 160.4 160.7 160.8 160.6 159.1 156.4 154.4 152.6 148.7 143.6 135.4 129.5 122.1 117.5 113.7 111.2 113.3 121.6 133.6 141.6 152.6 158.1 160 161.2 161.6 161.8 162 162.1 160.9 161.1 161.4 161.1 161.6 161.9 162.2 162.4 162.4 162.4 162.2 162 161.7 161.5 161.5 161.5 161.5 161.4 162.1 162 161.8 161.6 161.4 160.7 160 159.8 159.6 160 160 160.3 160.5 160.8 161.1 161.4 161.7 161.4 161 160.6 160.5 160.6 160.7 160.8 159.8 158.9 158.6 158.4 158.5 158.8 159 159.1 159.2 159.3 159.2 158.4 157.6 156.8 155.6 153.3 157.8 159.8 160.7 161.5 162.2
193.4 192.3 190.8 188.7 186.5 185.7 186.2 186.3 185.5 184.7 183.3 181.9 180.3 179 178.9 178.5 176.9 173.3 169.6 172 174.9 174.1 174.3 174 172.5 169.3 167 164.8 161.9 157.8 155.2 152.9 150.7 148.1 146.5 146.3 145.8 146.5 148.7 151.4 156.5 161.2 165.7 167.2 168.2 168 167.5 164.2 158.7 154 148.3 143.5 138.5 134.4 139.3 146.9 155 161.3 164.9 166.4 167.4 166.9 166.2 162.5 160.5 160.4 159.9 158.5 157.5 154.5 157.1 161.8 165.3 166.5 167.2 166.8 167.1 166.6 165.5 163.7 161.1 158.4 156.5 151.9 148.2 144.8 141 136.9 132.6 127.8 124.5 121.5 119.2 118 117.9 118.9 119.4 119.7 121 123.2 125.4 128.2 131.4 135.4 139.5 140.7 143.5 153.6 158.9 159.9 160.2 160.3 160.4 159.3 156.6 155.2 153.2 149.5 144.8 135.8 129.3 122.2 117.4 112.8 110.9 113.7 121.6 132.8 143 151.2 156.3 158.8 159.9 160.1 160.2 160.4 160.6 159.6 158.1 159.4 161.1 161.8 162.1 162.1 162.1 162 162.1 162 161.8 161.6 161.4 161.7 161.9 162.2 162.5 162.3 162.2 162 161.8 161.7 161.8 160.7 160.3 160.7 160.9 160 160.3 160.6 160.6 160.8 160.9 160.7 160.5 160.2 160.1 160 160.1 160.2 160.3 159.7 157.9 157 156.6 156.7 157.1 157.7 158 158 158 157.7 157 156.1 155.3 153.7 154 157.4 159.9 160.4 161.1 161.5
194 192.9 191 188.9 187.1 187.6 187.9 187.2 186.3 185.4 184.8 183.8 182.7 181.6 180.6 179.6 177.6 174 172.8 175.9 177.3 177.9 178.2 177.8 176.6 175 173.9 172.4 169.4 166.4 164 161.3 158.8 157.5 156.4 156.2 156.8 158.5 161.2 164.2 166.5 170.3 172.6 172.4 172.8 172.3 170.1 167.7 163 156.7 151.2 146.1 141.1 137 133 136.8 144.1 151.9 157.3 162.4 164.3 165.7 164.5 163.4 161.3 158.3 154.9 151.4 150.9 150.2 155.6 161 163.9 165.5 166.8 167.1 167.4 167.1 166.2 164.7 161.9 161.2 160 157.6 154.9 151.2 148.4 142.3 136.2 131 127.3 124.1 121.5 119.5 117.5 116.9 116.5 116.3 116.9 117.6 118.6 119.8 121.6 125.6 129.4 132.6 144.3 151.4 157.4 158.7 159.7 160.2 160.3 159.3 157.1 156 153.9 150.2 145.4 139.8 132.9 123.4 117.8 112.4 111.1 113.2 120.7 130.2 140.6 148.3 153.9 157.1 158.4 158.5 158.7 158.9 159.4 158 156.1 158.6 159.7 160.5 161.5 161.7 161.7 161.8 161.9 161.7 161.5 161.7 161.5 161.4 161.7 161.9 162.1 162.3 162.4 162.2 162.1 161.9 161.5 161.8 161.8 161.3 160.6 160.2 160.5 160.9 160.2 159.7 159.9 160.1 160.3 160.6 160.4 160.3 160.2 160 159.9 159.7 158.3 156.9 155.6 155 155.5 156.1 156.6 156.8 156.5 156.3 155.5 154.6 153.6 151.9 154.3 157.6 159.2 160 160.3 160.7
194.5 193.2 191.3 189.2 189 189.1 188.8 188 187 186 185.4 184.9 184.1 183 182 179.1 176.2 175.3 176.8 178.4 179.8 180.1 180.4 179.8 178.9 178.3 177.5 176.6 175.7 172.6 170.5 169.6 167.4 166.4 167.4 166.9 168.1 170.5 172.3 174.4 176 176 175.8 175.7 174.1 173.4 171.1 168.4 164.7 159.1 153.7 148.5 143.8 139.6 135.7 133.1 134 139.9 148.2 154.6 159.6 161.5 162.4 161.5 160.9 159.7 156.6 152.5 145 148.9 155.1 160.6 163.2 164.6 165.6 165.9 166.2 166.4 166.4 165.7 164.5 163.8 163.1 160.9 157.5 155.9 154 149 143.3 138.9 133.4 129.4 124.5 121.8 119.5 117.4 116.6 116.2 115.3 115.8 115.8 115 116.4 118.9 122.5 130.9 142.1 151 154.9 157.9 159.8 160.3 160.2 158.9 157.9 156.8 154.4 151.4 147.8 142.6 135.4 126.4 118.5 112 110.2 112 118.1 127.5 138 146.2 151.6 154.9 156.7 157 157.2 157.5 156.9 153.7 150.4 155.4 157.6 157.7 160 161.2 161.3 161.6 161.7 161.7 161.9 162 161.5 161.1 161.4 161.6 161.8 161.9 162.1 162.3 162.3 162.1 161.7 162.3 162.3 161.6 160.9 160.8 160.8 161.1 160.3 159.9 160.2 160.4 160.6 160.6 160.6 160.4 160.2 160.1 159.9 159.8 158.7 157.4 156 154.5 153.2 153.9 154.6 155.1 155.1 154.2 152.7 151.5 149.6 150.8 155 157.1 158.4 158.7 159.3 159.7
195.1 193.4 191.5 190.5 190.3 190.2 189.6 188.7 187.7 186.6 186 185.5 184.9 184.4 181.7 178.8 177.5 176.9 179.7 180.6 180.8 181.2 181.5 181 180.5 179.8 179.3 178.9 178 178.1 177.2 176.4 175.6 174.4 175.3 176 176.4 177.1 177.3 177.7 177.2 177.3 177 176.3 174.5 173.1 171.6 168.8 166.2 161 155.2 149.9 145 140.5 136.4 135.2 132.6 131.6 136.5 144.1 149.2 153.6 157.3 157.5 157.6 157.3 155.8 152.3 144 146.8 152.4 159 162.2 163.3 164.2 164.5 164.8 165 165 165.2 165.6 164.8 164.9 163.7 162.6 160.9 158.9 155.9 151.5 147.4 143.4 138 129.6 125 123.1 120.6 118.1 116.7 116.8 115.5 114.9 114.1 114.2 114.8 118.7 127 139.8 147.4 151.5 155.2 157.2 158.5 158.9 158.8 157.9 157 155.5 152.7 149.1 144.6 137.5 128.2 120.3 112.9 110.1 110.3 116 125.7 135.2 142.9 148.7 151.9 154 153.6 153.8 153.4 151.3 147.2 146.1 149.1 151 153.8 156.4 158.7 160.8 161.9 162.4 162.2 162.2 162.2 161.6 161 161.1 161.3 161.5 161.6 161.7 161.9 162.1 162.3 162.3 162.2 162.2 162 161.3 161.3 161.3 161.2 160.5 160.2 160.4 160.6 160.7 160.4 160.3 160.3 160.2 160 159.8 159.7 159.1 157.8 156.7 155.2 153.2 151.2 151.2 151.5 151.8 151.6 149.4 148.1 148.5 150.6 153.9 156 157 157.4 158 158.6
195.5 193.7 191.9 191.5 191.4 191.2 190.4 189.4 188.3 187.3 186.6 186.1 185.5 183.7 182.5 182.4 181.1 181.4 181.4 181.6 181.7 182.2 182.1 181.9 181.5 181 181.1 181 180.5 180.3 179.9 179.4 177.7 178 178.1 178.8 178.3 178.1 178.1 178.9 178.3 177.4 176.8 176.1 174.8 173.4 171.7 169.7 166.7 162.2 156.1 149.7 144.9 140.9 141.4 139.2 135.6 133.2 130.6 132.4 138.5 143.3 146.7 149.3 150.8 151.8 151.8 150 143.6 141.8 148.4 156.1 160.1 161.1 162.1 163 163.2 163.5 163.5 163.9 164.8 165.7 165.4 164.6 164.8 163.4 162 159.9 157.3 153.6 151.2 146.9 140.1 133.8 130.2 128.4 126.7 122.8 121.4 120.1 117.7 115.1 114.1 113.4 115.1 121.1 131.1 140.9 147.5 151.8 154.6 156 156.4 157.3 157.3 156.7 155.5 153.7 150.2 145.7 140.4 130.7 121.8 115.9 110.1 109.5 114.1 121.9 130.2 138.8 145 148.2 149.4 147.8 148.3 146.3 142.7 139.5 140.4 145.7 148.9 150.8 154.5 156.8 158.4 160.2 160.8 160.9 160.9 161 161.5 161.1 160.8 161 161.1 161.2 161.4 161.5 161.7 161.8 161.9 162 162 162.1 161.9 161.7 161.5 161.3 160.7 160.4 160.6 160.7 160.5 160.2 160.1 160.2 160.1 159.9 159.8 159.6 159.5 158.4 157.3 155.8 154.5 151.7 150.9 148.3 148.2 147.6 146.6 149.1 151.2 152.2 152.5 154.9 156.3 156.1 157 158.3
195.9 194.1 193.1 192.1 192.2 192.1 191.1 190 189 188 187.2 186.7 185.5 183.9 183.4 183.3 182.5 182 182.1 182.5 182.7 182.7 182.2 181.6 182.3 181.8 181.9 182.2 182 181.8 181.7 180.4 178.9 178.4 179.8 179.6 179.1 179.1 179.1 179.1 178 177.2 176.7 176.1 174.9 173.3 171.5 169.4 165.1 160.5 153.7 146.9 146.7 148.1 146.8 143.2 139.9 135.9 132.9 130 129.5 131 133.3 137.1 139.2 142.4 144.8 145.3 141.3 136.3 143.7 151.4 155.8 157.8 158.6 159.6 160.8 161.6 162 162.6 164.7 165.1 165.1 165.3 165.2 164.8 163.7 162.4 160.9 158.7 156.3 153.5 149.9 145.5 142.1 138 136.3 133.6 130.2 126.3 122.6 118.5 115.2 113.2 113.3 115.3 122.8 132.2 140.4 149 151.9 153.4 154.7 156.7 156.7 156.4 155.4 153.9 151.2 147 140.1 133 124.4 118.4 111.5 109.5 111.6 116.3 125.1 134.2 141.1 143.2 140.9 137.5 137.3 136.4 134.5 137.4 145 151.8 157 158.7 158.9 157.9 158.5 158.6 160 160.5 160.8 160.2 160.2 160.4 160.6 160.8 161 161.1 161.3 161.5 161.5 161.2 161.3 161.4 161.4 161.5 161.6 161.6 161.5 161.2 161 160.7 160.8 160.5 160.2 160 159.9 159.9 160 159.9 159.7 159.6 159.4 158.6 157.7 156.7 155.2 153.5 150.9 148 145.2 143.8 146.4 150.9 153 154.4 154.5 155.3 156.3 157 157.9 158.8
196.3 195 193.6 192.7 192.7 192.4 191.6 190.7 189.7 188.7 187.9 187.2 185.6 184.5 184.2 184.2 183.4 182.6 182.8 183.3 183.2 182.7 182.1 181.6 181.9 182.6 182.6 182.5 182.3 181.9 181.5 180.8 180.1 179.6 180 180.2 180 179.5 179 178.5 177.7 177 176.2 175.1 174.3 172.8 170.6 168.4 162.5 157.5 151.1 151.8 154.8 155.3 152.2 147.1 142.6 139.7 136.7 134.4 131 128.7 128 127.8 128.6 132.3 134 137.7 136.9 133.2 138.1 144.8 149.1 151.5 153.6 155.4 156.8 158.1 159.9 160.6 162.6 163.6 163.5 164.4 164.4 164.6 164.9 164.2 162.9 161.5 160.1 158.2 155.4 153.7 151.2 148.6 145.5 141.9 137.3 132.3 127 121.5 118.2 114.4 113.2 112.6 116.2 127.6 136.9 142.6 148 150.8 153.5 155.7 156.3 156 155.1 153.7 150.7 147.7 142.4 136.1 127.2 119.5 112.6 109.3 109.3 111.2 119 128.9 134.2 134.1 128.9 127 129.8 131.1 137.8 145.9 151.2 156.7 159.5 160.3 160.5 160.6 160.3 159.8 160.1 160.7 160.1 159.4 161.1 162 160.7 161.2 161.6 161.8 162 162.1 161.7 160.9 160.6 160.7 160.7 160.8 161.1 161.1 161.1 161 161 160.8 160.5 160.3 160 159.8 159.6 159.7 159.7 159.8 159.7 159.5 159.4 158.5 157.6 156.4 155 153.6 151 147.9 144.4 143.1 148.4 153.6 154.6 156 155.8 155.5 156.4 157.4 158.2 158.9
196.7 195.3 194.2 193.2 193.3 192.7 191.9 191.1 190.2 189.4 188.5 187.3 186.3 185.3 185.1 185 184.4 183.3 183.5 183.4 182.7 182.4 182 181.6 181.6 182.2 182.4 182.6 182.6 182.3 181.8 181.3 180.7 180.1 179.7 180.2 179.8 179 178 177.5 177.3 176.2 175.1 174 173.1 171.7 169.6 166.6 160.8 154.5 156 159.9 161.3 160.8 155.9 150.3 146.4 144.8 142.5 140.2 136.8 133.2 130.7 128.3 128.1 126.5 127 126.9 129 129.6 132.2 137.3 140.1 142.5 145 147.7 151.1 153.1 155.4 157.7 160.1 161.4 162.1 163.3 163.8 164.2 164.8 165.3 164.7 163.5 162.2 160.9 159.7 158.5 156 153.4 150.4 147.2 143 137.1 130.8 123.9 120.1 116.1 112.8 112.2 112.5 119.8 129.9 138.5 141.9 146.7 151.1 154.1 155.9 155.7 154.8 153 150.4 147.5 143.1 137.3 129.8 120.3 113.9 109.2 108.8 108.5 113.1 120.7 124.1 121.8 121.7 123.7 128.5 136.6 147.5 152.7 156.2 159.2 160.1 160.8 161.1 160.6 161 161 161.1 161 160.5 162.9 163.9 163 161 161.4 161.9 162.4 162.6 162.3 161.9 161.1 160.3 160 160 160.1 160.5 160.6 160.6 160.5 160.5 160.5 160.3 160.1 159.8 159.6 159.4 159.5 159.5 159.6 159.6 159.4 159.4 158.4 157.3 155.6 154.2 152.7 149.1 146.7 141.8 143.8 150.7 155.2 156.8 157.6 157.3 157.2 157.1 157.8 158.7 159.7
197.1 195.7 194.8 193.8 193.8 193.1 192.2 191.4 190.6 189.7 188.6 188 186.9 186.1 186 185.9 185.2 183.9 183.4 183.2 182.4 181.9 181.5 181.2 181.2 181.8 182.3 182 182.2 182.5 181.9 181.5 181.1 180.5 180.1 180.2 179.6 179.1 178.2 177.3 175.9 173.6 172.5 171.8 171.4 168.9 166.2 161.2 160.8 162.4 164.5 165.7 165.8 164.2 159.9 154.6 152.2 151.1 147.9 146 142.9 139.9 137 134.2 132.2 129.4 127.3 125.2 126.8 125.8 126.6 129.5 132.4 131.7 134.6 137.4 140.8 145.9 149.1 151.1 155.1 157.9 160.2 161.4 162.8 163.4 164.1 164.8 165.5 164.4 163.6 163 162.1 160.5 158.4 156.5 154.1 150.5 145.2 138.7 131 125.2 121.3 117.8 115 112.1 112.3 112.7 123.9 131.3 136.1 143 147.3 151.6 153.8 155.4 154.3 152.9 150.1 147.1 143.2 138.1 131.4 121.7 116 110.3 109.2 108.5 109.9 113 115.4 117.7 120.7 125.1 135 144.6 151.8 155.1 158.5 160 160.5 161.2 160.7 160 160.4 160.8 161.5 161.8 162.2 162.8 164 164 162.5 161.8 162.2 162.7 162.6 162.5 162.1 161.3 160.5 159.6 159.4 159.5 159.9 160.1 160.1 160.1 160 160 160 159.8 159.6 159.3 159.2 159.2 159.3 159.3 159.4 159.4 158.6 157.8 156.8 154.5 152.8 151 147.7 145.5 140.1 144.3 152 155.7 157.5 158.4 158.9 159.1 159 158.9 158.9 159.7
197.4 196.3 195.4 194.4 194.2 193.4 192.6 191.7 190.6 189.1 188.3 188.2 187.5 186.9 186.6 185.3 184.8 184.2 183.3 182.8 182 181.4 180.9 180.3 180.9 181.4 182 181.8 181.7 182.3 182 181.7 181.3 180.7 180.4 179.9 179.5 178.9 178.4 177.5 175.8 174 171.7 169.5 167.2 166.1 166.1 166.7 168.2 168.8 169.5 169.6 168.8 166.7 163.9 161.3 159.4 157.6 155.3 151.3 150.2 147.3 143.8 140.6 137.8 134.6 131.7 128.2 126.6 123.8 123.7 123.9 124.2 125.3 125.7 126.2 128.1 133.3 138.7 143.3 148.9 152.5 157.4 159 160.6 161.9 162.7 163.4 164.5 164.2 163.7 163 162.5 161.3 159.3 157.9 155.2 151.1 145.5 138.3 131.4 125.9 122.8 120.1 113.8 112.5 112.1 112.8 117.7 124.4 132.3 137.3 142.8 148.3 150.8 153.2 152.8 151.7 149.4 146.3 142.9 137.9 131.7 122.6 115.6 111.1 108.1 108.5 110.2 112.2 114.9 119.5 124.4 133.5 142.7 150 155.4 158 159.5 160.9 161.3 160.8 160.1 159.5 159.8 160.6 161.5 161.9 162.1 162.2 162.8 164 163.2 162.1 162.4 162.5 162.1 161.9 161.9 161.4 160.6 159.8 159 158.9 159.1 159.5 159.5 159.5 159.4 159.5 159.5 159.5 159.4 159.1 159 159 159.1 159.1 158.9 158.5 157.6 156.8 156.1 153.9 151.4 149.6 145.1 142.4 138.6 145.7 153.1 156.3 158 158.7 159.4 159.5 159.5 159.6 160.2 160.2
197.9 196.9 196 195 194.6 193.7 192.9 191.4 189.9 188.4 188 187.8 187.7 187 185.7 184.7 184.2 183.6 183.1 181.9 181.1 180.4 178.8 179.4 180.1 180.8 181.5 181.9 182 182.2 182.1 181.4 180.7 180 180 179.6 179.1 178.6 178.1 177.6 176.7 175.5 174.5 172.3 171 171.1 171.4 171.6 171.7 171.7 171.7 171.5 170.3 169 167.7 166.4 164.9 163.4 161.6 159.7 157.5 154 150.5 148.5 145.2 141.9 138.7 135.3 131 128.3 124.7 125.2 124.8 121.8 121.4 121.1 122 123.1 126.5 130.6 137.9 144.6 154.3 155.9 157.7 158.9 160 161 161.5 162.3 163.4 163 162.4 161.8 160.4 158.9 156.4 151.9 146.1 138.7 133.5 129.9 126.2 122.1 116.8 114.4 111.5 112.7 114.2 117.7 124.8 130.5 137.7 143.3 147.2 149.2 151.2 150.3 148.3 145.5 141.2 136.8 129.7 123 114.7 110.1 107.7 108.7 110.7 114.1 119 126.6 134.3 143.6 148.9 153.7 157.1 159.5 160.4 160.6 160.5 160.1 159.6 158.9 159.3 160.5 161.6 161.9 162 162.1 162.2 162.4 162.4 162.6 162.7 161.9 161.5 161.3 161.4 160.9 160 159.2 158.5 157.8 158.1 158.6 158.3 158 157.4 158.4 159 159.1 159 158.9 158.7 158.8 158.8 158.4 158 157.6 156.8 156.2 155.5 153.6 151.1 148.6 145.1 140.9 138.5 146.1 153.4 155.8 157.5 159 159.7 159.8 159.9 159.9 159.9 160.6
197.7 197.4 196.6 195.6 194.9 193.7 192.2 190.7 189.2 188 187.7 187.5 186.9 186.3 184.6 184.1 183.5 182.9 182.4 181.4 180.1 178.8 177.2 177.5 178.1 178.8 180.1 181.1 181.5 181.6 181.5 180.7 180 179.4 179.3 179.2 178.8 178.2 177.7 177.1 176.9 177 175.9 175 173.6 173.2 173.7 173.2 172.8 172.2 172.1 172.2 171.4 170.3 169.7 169 168 166.7 164.8 162.9 161.6 160.4 157.8 154.9 152.1 148.7 145.8 143.3 139.1 135.4 132.1 130.3 129.8 129.6 127.3 124.4 122.1 121.2 120.7 122.7 128.8 136.9 145.9 152.1 154.2 155.5 156.3 157.5 157.2 159.7 161.1 162.5 162.8 162.3 161.2 159.2 157.4 153.8 149.1 143.4 138.9 135.2 131 126.4 120.3 116.8 111 110.6 111.6 111.7 118.8 122.8 126.5 134.6 139.9 144.8 147.2 148.7 147.3 144.8 140.1 136 128.1 120.1 114.5 109.2 107.4 108.9 113.3 118 125 132.9 143.3 147 150.8 153.8 156.7 158.4 159.3 159.2 159 158.7 158.7 158.3 159.3 160.4 161.5 161.9 162 162.2 162.7 162.4 162.6 162.9 162.4 161.5 161 160.7 160.9 160.5 159.6 158.8 158.4 158 158.1 158.4 157.8 156.1 155 156.8 158.4 158.5 158.5 158.6 158.5 158.2 157.8 157.5 157.2 156.8 156.2 155.6 154.9 153.2 150.8 148.4 145 139.8 140.2 147.6 152.6 154.8 156.6 158.4 160 160.2 160.2 160.2 160.3 160.3
197.2 196.8 196 195.4 194.8 193 191.5 190 188.5 187.7 187.4 187.2 186.4 185.1 183.8 183.2 182.7 182.1 181.6 180.9 179.6 178.2 176.6 175.8 176.1 177.6 179 180.1 180.6 181.1 180.9 180.1 179.3 178.7 178.6 178.4 178 177.7 177.1 176.5 176.3 176.5 176.6 176.4 175.4 175.1 174.5 174.4 173.9 173.3 172.4 172.6 172.6 171.9 171.2 170.5 169.5 168.6 167.9 166 165 165.2 162.9 161.2 158.5 155.6 153 150.7 148.4 144.9 142.4 140.3 138.9 135.7 132.6 129.4 126.5 121.7 120.8 119.2 120.9 126.6 134.1 140.5 147 150.3 151.8 154.6 154.6 156.6 159.1 161.5 161.8 161.9 161.1 160.2 159 156.1 152.5 149.2 144.6 140.4 137.3 130.6 126.5 120.4 114.7 110.3 109.7 110.7 111.2 115.4 118.8 122.6 129.3 137.8 141.8 145.6 145 143.8 139 134.4 126.2 118.2 113.2 107.9 107.4 108.7 113.8 120.1 130.7 138.5 145.4 148.7 151 153.3 156.4 157.8 157 156.9 156.1 156.3 157.1 158.2 159.3 160.3 161.4 161.9 162.5 163 162.4 162.6 162.6 162.7 162.5 162.4 161.7 161.2 160.3 160.5 160.4 159.7 159.3 159.1 158.5 158.2 157.4 154.8 153.3 154.8 157.1 157.2 156.6 157.1 157.5 157.3 156.9 156.4 155.8 155.4 155.6 155 154.3 152.9 150.5 148.1 143.6 137.6 139.1 146 151.8 153.6 155.6 157.6 159.9 160.5 160.5 160.5 160.6 160.8
197 195.9 194.8 194.3 194.6 193.7 191.8 189.9 188 186.7 185.7 185.9 185.4 184.3 183.3 182.3 181.6 181.1 180 178.7 178 177.5 176.4 175.5 175.4 176.6 178 179.1 179.6 180.1 180 179.5 178.7 178 177.8 177.3 176.9 176.7 176.5 176 175.8 175.9 175.8 175.7 175.5 175.6 174.9 174.6 174.7 174.5 173.9 173.7 173 172.5 172.1 171.2 170.2 169.9 169.7 169 168.1 167.1 165.7 164.7 162.7 161 159.4 157.3 156.1 154 151.7 149.4 147.4 142.6 138.6 134.9 131 126.9 123.2 120.6 119 119.9 122.7 128.4 134.1 138.2 141.1 143.4 148.1 151.1 154.8 157.9 160.7 161.6 161.2 160.2 159.2 157.6 155.3 152.5 150.3 146.4 143.6 138.8 131.3 124.2 118.8 113.2 110.6 109.7 110.7 111.2 112 115.4 116.5 128 136.9 141.5 143.6 142.3 138.1 133.6 125.5 117.4 110.7 106.3 107.7 109.2 115.1 124.3 134.4 140.7 145.5 149.2 151.3 153.5 156.1 156.2 154.6 153.1 152.4 156.1 157.4 158.4 159.5 160.6 161.6 162.2 163 163.4 162.4 162.2 162.2 162.2 161.9 161.8 161.8 161.4 160.4 160.7 160.7 160.1 160.2 160.1 159.6 158.9 157.7 155.4 153.2 152.7 153.3 154.1 155.1 155.7 156.1 155.7 155.1 154.5 153.9 153.5 154.1 154 153.4 152.1 149.8 147.5 142.4 136 138.6 144.5 148.5 153.4 155.4 157.9 159.6 160.2 160.8 160.8 161.1 161.6
196.1 195 194 193.6 193.8 193.9 192.5 190.6 189 187.3 185.2 184.9 183.6 183.7 182.5 181.6 180.7 179.3 178 177 175.9 175.3 175.5 174 172.3 175 176.9 178.1 178.2 178.2 178.2 177.8 177.5 177.1 176.6 176 175.6 175.3 175 175 175.1 174.9 174.7 174.6 174.5 174.5 174.9 174.8 174.4 174.4 173.7 173.1 172.7 172.2 171.2 170.3 170.2 169.9 169.6 169.3 169 168.7 168 166.9 165.2 164 163.5 162 160.7 159.9 158.1 156.3 153.8 150.6 144.9 140.5 136 131.9 128.1 124.3 121 119 119.1 119.5 123.5 128.2 131 133.2 136.1 141.2 146.6 152.8 156.8 158.7 160.1 160.5 159.6 158.7 156.8 154.9 153.4 151.4 148.9 144.3 138.4 130 124 118.2 112.8 109.6 109.6 109.4 109.1 109.5 112.1 119.7 129.4 136.2 139.9 140 137.1 131.8 124.7 116.6 110.2 106.2 107.4 109 116.3 125.5 134.5 141 145.8 148.9 151.8 153.9 154.8 153.8 150.5 151.8 154.2 156.7 158.3 159.2 160.1 161.3 161.3 161.9 162.6 163.2 162.6 161.8 161.8 161.6 161.2 161.2 161.2 160.9 160.8 160.8 159.5 159.7 160.8 160.9 160.5 159.9 158.8 157.2 155.4 151.8 150.8 151.2 152.5 154.3 154.2 153.2 152.2 151.1 151.2 151.3 151.4 151.6 151.6 150.7 148.5 146.3 141.9 134.8 138 145.8 150.5 152.8 155.6 158.6 159.2 159.9 160.5 161.2 161.3 161.6
195.3 194.3 193.3 193.2 193.4 193.1 193.3 191.5 190.1 188.7 186.5 184.4 182.7 182.6 181.5 180.3 178.8 177.2 176.1 175.3 174.1 173.3 172.5 171.5 170.3 171.5 173.8 175.2 176.3 176.4 176.4 176 175.6 174.9 174.4 173.8 173.2 172.6 172.4 173.1 173.3 172.6 172 173 173.2 173.4 173.6 173.5 172.7 172.7 172 171.7 171.3 170.9 170.2 169.4 169.2 169 168.7 168.3 168.4 168.3 168.2 168.4 167.9 166.9 165.7 164.9 163.8 162.9 161.3 159.8 158.4 155.2 151.3 146.9 142.5 137.9 133.4 129.2 126 122.1 118.5 117.1 117.3 119.7 122.6 124.1 126.9 131.2 137.5 145.3 151.3 155.6 158.7 160.1 160 159.4 158 156.3 155.5 154.1 151.6 148.4 144.1 138.6 131.1 124.3 117.4 112.7 110.3 108.9 108.3 108.4 109 112.3 119.6 127 134.7 137.5 135.6 131.1 124.2 115.2 108.9 106.1 107.6 109.1 116.6 125.3 132.4 139.6 144.8 148.3 151 151.7 150.9 145 145.7 152.7 156.5 158.7 159.2 159.8 160.8 160.9 161 161.5 162 162.8 162.3 161.7 161.4 161.1 160.6 160.5 160.6 160.4 160.5 159.8 159.2 159.4 160.4 161.3 160 159.3 158.6 157.8 156.6 154.5 151.5 149.4 149 150.5 151.1 150 148.7 147.4 147.5 147.6 148.1 148.5 149 148.5 146.8 144.4 140.7 132.4 138.8 146.8 152.2 154.7 156.6 158.3 159 159.7 160.3 160.9 161.6 162.2
194.5 193.6 192.8 193.2 193.7 193.9 193.4 192 191.1 189.7 188.1 186.4 184.2 182.8 181.1 179.7 179.1 178 177.7 177.5 176.2 175.6 174.7 173.4 171.3 169.5 169 171.2 172.9 173.6 173.7 173.9 173.1 172.1 171.4 170.8 170.2 169.5 168.5 169.7 171.6 171.2 168.5 169.8 170.3 170.1 169.8 169.7 169.4 169.5 169 167.8 168.6 168.6 168.1 167.4 167 166.8 166.3 166.4 166.8 166.8 167.3 167.6 168 167.5 166.7 165.8 165 164 163.2 161.8 160.8 158.9 155.6 153 149 144.6 140.2 135.3 131 126.5 122.3 118.6 116.6 115.5 116.4 117.9 119.5 121.5 125.9 134.8 143.3 150.9 155.6 158.3 159.2 159.9 158.6 157.1 156.3 155 153.1 151.2 148.4 143.9 138.7 130.3 123.2 117.3 112.9 111.1 109.3 107.5 107.4 108.5 113.2 120.9 128.1 132.8 132.4 128.5 122.4 114.3 108.8 105.6 107 108.5 115.8 122.8 130.4 136.3 141.3 145.5 147.7 148 144.7 142.6 147.8 154.6 157.2 158.9 159.7 160.4 160.6 160.3 160.1 159.9 161.5 162.2 162 161.5 161 160.5 160 160.1 160.2 160.3 160.4 160.1 159.5 159.2 159.6 160.7 159.8 159.1 158.4 157.7 157 155.8 154.1 150.9 147.5 146.8 146.7 146.4 145 143.7 142.9 142.4 144 145.2 145.6 145.5 144 142.3 138.7 133.6 139.4 147.5 151.6 154.8 157 158.1 158.9 159.6 159.9 160.5 161.1 161.8
193.6 193.2 193.9 194.2 194.2 194.1 193.5 192.2 190.6 190 188.1 186.1 184.8 183.5 181.6 181.2 180.4 179.3 179.1 179.6 179.1 178.1 177.2 175.9 174.4 172.1 168.9 166.1 167.3 169.3 168.8 168.7 167.3 167.1 166.5 165 163.3 163 162.7 162.8 166.8 167.4 163.9 164 165.4 166.4 166.3 165 166.2 166.2 165.9 164.7 164.2 165.2 164.8 163.9 163.5 163.1 163.3 163 163.5 164.6 164.7 164.9 166.1 166.7 166 166.2 165.2 164.2 163.3 162.1 161.8 160.1 158.4 156.3 154.1 150.8 146.5 142.9 138.5 133.5 127.5 122 118.3 116.5 114.7 116 115.3 115 116.3 121.2 130.6 141.8 150.5 154.6 157.5 159 159 157.1 156.3 155.4 154 152 149.6 144.1 138.6 132.2 124.3 120.3 118.2 115.1 111.2 108.6 107.5 106.8 109.1 113.8 120.5 126.2 127.7 124.5 117.8 114.3 108.5 105.6 106.4 108.9 113.7 119 125.3 131 137.3 141.6 143.7 140.7 137.4 142.1 151.3 154.6 157.6 159 159.9 160.5 160.6 160.6 160.3 160.6 160.9 161.7 161.6 160.8 160 159.4 159.7 160 160.2 160.2 160.3 160.3 159.7 159.4 159.2 159.6 159.7 159 158.3 157.7 156.6 155.9 154.6 151.6 148.6 145.4 145.5 144.6 143.3 143.3 141.4 139.9 137.4 138.7 140.2 141 139.7 138.8 135.5 131.7 140.3 147.4 150.8 154 156.3 157.5 158.4 158.8 159.4 160 160.5 161.1
193.9 194.2 194.3 194.3 194.3 194.2 193.5 192.5 190.9 188.8 187.5 186 184.6 183.5 182.1 181.8 181.5 180.5 180.4 180.6 180.3 179.4 178.7 177.7 176.2 174.7 172.9 169.7 165.6 164 161.6 162.7 162.2 160.4 160.6 159.8 158.5 155.9 156.5 156.4 159.3 159.5 157.7 155.6 158.2 158.2 157.6 156.6 157 157.3 157.4 157.7 158.1 156.8 157.8 158 157.2 156.5 156.9 157.7 158.5 157.9 160.6 162.1 163.1 163.6 163.8 163.9 163.7 163.6 162.6 161.2 161.9 161.1 160 158.2 156.5 155 153.2 149.9 146.9 142.4 135.8 128.5 125 122.7 120 117.6 117 114.7 114 115.3 119.8 130.9 141.1 148.8 152.9 156.7 157.7 157.1 156.3 155.5 154.5 152.7 150.3 145.8 140.6 135.4 128.1 125 121.5 118 114.2 110.2 107.3 106.2 106.3 108.5 112.9 117.6 120 120.6 117.8 112.4 107.1 105.3 106.3 108.1 110.9 114.8 118 124.7 131.4 135.6 133.7 134.4 137 144 151.9 155.1 158.3 159.1 160 160.1 160.2 160.4 160.7 161 161.2 161.5 161 160 159.2 159.4 159.7 160 160.2 160.2 160.3 160.3 160 159.7 159.4 159.4 159.1 158.6 157 155.4 154.4 154.6 152.8 150 149.5 149.5 148.4 147.7 148.4 147.5 145.8 142.7 139.5 137.7 136.6 134.5 134.6 133.2 131 130.6 139.6 146.2 149.8 153.3 155.3 156.6 157.4 157.9 158.7 159.3 159.8 160.1
194.1 194.3 194.6 194.5 194.5 194.2 193.4 192.6 191 188.8 186.9 185.8 184.7 183.6 182.6 182.5 182.3 181.5 181.1 181.3 180.5 179.8 179.2 178.4 177 175.6 173.4 170 166.4 165.7 166.4 166.6 166.3 165.8 165 164.1 162.9 161.3 159.5 155.8 153.2 151.7 150.8 149.6 151.6 148.6 147.6 147.3 146.4 146.4 146.6 147 147.7 148.1 149.1 149 148.6 146.9 148.4 149.7 149.9 151.4 153 154.9 156.6 157.9 159.7 160.8 160.9 160.8 160.4 160 160 159.8 159.5 158.6 157.7 156.6 155.3 154 152 149.2 145.1 140.6 137.4 132.9 129.1 124.8 120.7 117.4 114.5 113.3 114.4 121.2 133.4 142.2 148.9 153.3 156.4 156.8 156.3 155.8 155.4 153.6 151.4 148.2 143.1 140.7 136 132.3 125.5 121.5 116.5 111.7 107.5 106.2 105.7 105.9 108.2 110.2 111.4 112.6 112.4 107.8 106.1 105.2 106.9 108.5 111 114.1 116 119.3 125.9 127.4 129 131.6 140 148.3 153.3 156.2 158.4 159.2 159.9 159.8 159.8 160 160.2 160.5 160.9 161.1 160.2 159.8 159.7 159.8 160 160.1 160.2 160.2 160.2 160.3 160.2 159.9 159.7 159.1 158.1 157.3 156.1 154.2 152.3 151.6 150.6 151.1 152.3 153.5 153.8 153.1 152.2 150.5 148.5 146.6 145.1 143.6 141.7 138.7 137.3 135.3 131.7 128.5 136.1 143.2 146.9 150.6 153.2 154.7 156.2 157.1 157.8 158.5 158.9 159.4
193.3 193.6 194.3 194.2 194.1 194 193.2 192.4 191.2 189 186.9 185.7 185.1 183.2 182.3 182.2 182 182 181.4 181.1 180.1 179.5 178.7 177.5 176.3 174.2 170.9 166.9 168.2 170.6 171.9 172.6 172.3 170.9 170.8 169.7 168.6 165.8 162.2 162.1 160.1 158.6 157.8 156.7 155.9 155 153.6 153.4 151.5 147.3 146.9 145.5 143.2 142 140.7 139.4 138.4 137.9 138.1 137.7 137.3 139.1 142 144.2 146.6 149.8 152.2 153.5 154.3 154.9 155.1 155.2 155.3 155.4 156.1 155.8 155.9 156 155.4 154.2 153.7 152 150.1 147.1 144.4 141.3 137.3 132.3 126.1 121 117.2 113.4 112.3 114.1 122.7 134.6 141.2 149.4 154.5 155.9 156.8 156.2 155.8 154.4 151.7 149.8 147 144.1 139.1 136 131.1 123.9 119 114 109.7 107.3 106 105.2 105.1 106.7 108.6 108.6 108 106.2 105.1 106.7 107.4 110.7 115.3 118.8 119.4 120.8 122.5 125.2 130.3 137.8 146.3 152.2 155.4 157.5 158.5 159.4 159.6 159.5 159.5 159.6 159.8 159.9 160.5 160.7 159.3 158.7 158.7 158.9 159 159.1 158.9 159 159.3 159.8 159.8 159.7 159.6 158.8 158 158 157.5 155.3 153.7 152.4 152.4 153.3 154.9 156 156.5 155.2 153.9 153.1 151.9 149.9 149.1 147.7 146.1 145 144 139.9 136 128 130.3 136.9 142.2 146.5 149.8 152 154 155.3 156.2 156.9 157.3 157.3
193.6 193.5 193.8 193.7 193.7 193.8 193 192 190.9 189.4 187.2 185.7 185 182.7 181.3 181.1 181 181.3 181.2 180.7 179.8 178.9 177.7 176 174.5 170.9 168.9 169.5 172.5 174.8 175.6 175.6 175.5 174.6 173.6 171.9 170 167.2 166.6 166.5 166.4 166.1 165.2 164.4 163.5 162.4 162.1 160.7 158.4 155.2 152.2 151.2 150.8 149.6 147.3 146.3 145.4 143 141 138.2 135.6 133.8 132.7 132.4 135.9 138.8 141.4 144.4 146.4 146.4 146.1 145.8 147.3 147.5 149.3 149.7 151.1 152 151.4 152.4 153 152.1 151 148.9 146.4 144.3 141.3 136.9 131.3 125.7 120.7 116.6 112 112.1 114.6 124.6 134.5 143.3 149.7 154.1 155.6 155.5 155.5 154.6 153.3 151.1 148.8 146 141.3 139.3 134.8 128.3 120 115.5 112.3 108.7 105.7 104.9 104.4 104.5 105.8 106.3 105.2 104.6 104.8 106.1 109.1 115.7 120.8 124.3 124.2 127.3 131.3 134.7 138.5 141.9 151.1 155.1 157.1 158.1 158.7 159.3 159.2 159.2 159.2 159.1 159.3 159.5 159.7 158.7 158.1 157.4 157.1 157.9 158.1 158.2 158.1 158.8 159.3 159.3 159.3 158.9 158.3 159.1 158.6 159.1 158.3 156.6 154.9 154.5 154.7 155.2 156.8 157.5 157.7 156.8 155.5 154.7 154.1 153.3 152 150.6 149.2 148.1 147.6 143.7 139.8 134.3 125.6 129.9 135.3 140.9 145.4 148.5 151 152.9 154.4 155.3 155.6 156
190.6 192.1 193.3 193.4 193.4 193.5 192.7 191.5 190.4 189.2 187.5 185.7 184.9 182.7 180.9 180 180.1 180.4 180.3 179.7 179.2 176.9 175.1 173.4 170.8 170.6 172.4 174.1 175.7 176.7 177.2 177.2 177.1 176.6 174.9 173.3 170.8 170.8 171.1 170.9 170.5 170.2 170.1 170.1 170.1 168.7 167 166.5 164.5 162 158.3 157.8 158.8 158.4 156 154.8 153.9 152.5 150.3 146.9 143.3 141.3 139.7 136.9 132 129.6 130.3 131.9 134 135.7 135.1 134.8 135.1 137.1 139.2 140.8 141.9 143.7 144.8 146.4 147.6 148.7 148.1 146.8 145 142.4 140.8 138.2 134.5 129.9 124.7 120.6 115.5 111.5 111.1 115.4 124.2 135.9 145.2 151.8 153.9 154.9 155.3 154.4 153.2 151.4 149.3 147.1 144.3 140.3 135.6 128.9 123.5 117.1 113.4 110 107.6 105.7 105.4 103.9 103.7 103.8 104 104 104.4 106.9 111.7 117.3 126.3 130.6 130.3 132.8 138.8 143.1 146.4 150.5 154.2 156.7 158.5 159.2 159.2 158.9 158.8 158.7 158.6 158.1 158.2 158.5 158.8 157.1 156.2 155.7 156 157.3 157.5 157.5 157.3 158.6 158.2 157.9 158 157.5 157.1 157.9 159 159.4 159.4 157.8 157.6 157.3 157.1 157.2 158.6 158.8 158.8 158 157.2 156.4 155.7 155 153.5 151.8 150.1 149.4 150.2 147.7 143.8 139.1 133.3 127.5 128.9 134.5 139.1 143.5 147.4 150.1 152 153.6 153.9 154.2
190.2 191.7 192.8 192.9 192.9 193 192.2 191 189.9 188.7 187.6 185.7 184.8 182.6 180.8 179.1 179 179.2 179 178.2 177.5 175.9 173.7 171.3 171.6 173.7 174.8 176.6 177.5 177.7 177.9 177.9 177.4 176.6 175.9 174.8 174.3 174.6 174.5 174.3 174.1 174 173.9 173.9 173.4 172.6 171.6 170.6 169.1 166.7 163.8 164.1 164.4 163.5 163 162.4 161.4 160.4 158.5 155.8 152.5 148.9 146.3 143.7 139.3 136.3 133.3 131.1 128.8 126.8 126.3 125.3 127.4 126.8 125.5 126.6 128.8 131.3 133.6 135.8 137.4 139.4 140.2 139.8 138.3 136.6 134.1 132.9 131 128.6 125.6 123.7 118.6 113.1 110.3 111.3 115.8 128.4 137.9 146.6 151.8 154.4 155 154.1 152.7 151.3 149.4 147.2 145 141.9 138.1 131.9 127.6 122.4 116.4 112 109.3 106.9 104.5 103.7 103.7 104.1 104.6 104.6 106.1 109.2 114.1 122.9 132.3 136.9 134.7 138 143.8 149.5 152.5 154.5 156.9 158.5 159.3 159.5 159.5 159.1 158.5 158.2 157.9 157.1 157.1 157.3 157.4 155.9 154.6 153.6 155.6 157.4 157.5 156.9 156.8 156.4 156.2 156.7 156.4 155.9 155.9 158.1 158.5 159 160 160.2 159.8 159.4 158.8 159 159.2 159.3 159.4 159.1 157.8 156.9 156.2 155.2 154.4 152.7 151 150.4 151.2 149.5 147.8 144.2 140.6 133.2 128.6 127.7 132 136.2 140.6 146.4 149.7 151.4 152.3 152.6
190.5 190.4 190.8 191.2 191.5 191.8 191.5 190.4 189.3 188.2 187.1 185.9 184.4 182.6 181.1 179.5 178 176.9 175.7 175.5 174.9 173.7 174 175.3 176.3 176.9 177.8 178.4 179 178.9 178.7 178.5 178.1 177.7 177.4 177 176.6 176.3 176.4 176.2 176 175.9 175.8 175.7 175.1 174.4 173.6 172.4 171.2 169.1 167.3 166.4 166.8 167.2 166.8 166.2 165.6 165.1 163.6 161.4 158.6 154.9 152.4 150.2 147.4 143.9 141.3 139.3 136.6 133.5 131.6 129.2 128 126 123.9 122.7 121.3 120.7 121.4 122.6 124.1 126.9 129.9 128.9 127.4 125.3 122.6 121.6 121.7 122.6 122.8 123 121.1 114.6 111.2 110.1 111.7 118.8 132.2 141.6 149 152.5 153.9 153.6 152 150.5 149.1 147.2 145.5 142.5 138.6 134.7 129.6 125.1 119.8 114.2 110.6 107.7 105.3 104.5 104 104.6 104.5 104.4 108.5 112.4 119.5 130.1 137.7 141.7 139.8 140.8 147.3 152.6 155.2 157.2 158.7 159.4 159.3 159.6 159.7 159.3 158.7 158 156.4 156.2 155.9 156.4 155.9 155.1 153.7 151.7 155.2 156.5 156.9 156.2 154.6 155.1 155.1 155.4 154.9 154.1 155 157 157.9 159.1 160.8 161.7 161.7 161.2 160.4 159.8 159.8 159.8 159.7 158.7 157.7 156.6 155.5 154.5 154.6 153.7 152 151.5 152.3 150.7 149.2 146.8 144.1 139.7 132.4 126.1 125.4 129 134.1 141.1 146.2 149.1 150.8 151
186.6 188.5 189.6 190 190.3 190.6 190.7 189.7 188.6 187.5 186.4 185.4 184 182.2 180.9 179.8 178.3 177.4 175.1 175.4 176.4 177.4 178.4 178.6 178.9 178.8 178.9 179.2 179.8 179.8 178.8 178.6 178.7 178.7 178.8 178.5 178.2 178 177.4 176.7 176.6 176.4 176.3 176 175.7 175 174.3 173.6 172.4 171.5 169.6 168.7 169.1 168.9 168.7 168.2 167.5 166.4 165.3 164.2 162.2 159.3 156.9 155.5 154.2 151.5 149.5 147.4 145 143 140.4 138.7 136.9 134.9 132.7 129.9 126.7 124.3 122.1 121.5 119.7 118.3 120.5 118.3 117.5 116.5 115.5 115.7 115.8 116 117 118.2 118.3 115.6 112.3 109.4 109.7 114.5 124.5 134.3 143.2 150.4 151.7 152.5 151.5 150.4 149 146.6 145.1 142.4 139.8 136.2 131.6 128 123 118 112 109.1 105.9 104.8 104.1 103.7 103.5 106.4 110.9 116.2 126.4 137.6 141.9 147.1 143.8 145.5 151.1 154 156.8 158.4 159.6 159.4 159 159.4 159.8 159.5 158.7 157.9 156 153.3 155 154.5 154.1 152.4 150.8 152.1 154.8 155 154.8 153.8 152.7 153.5 154.2 153.8 152.6 151.8 154.4 156.1 158.1 160.2 161.6 162.5 162.7 162.5 162 161.1 160.9 160.7 159.1 157.6 156.5 155.8 154.8 153.7 154 154.2 152.9 152.1 152 151.6 150.1 148.5 146.7 142.9 139.7 133 127.5 122.4 127.5 136.7 142.8 147.4 148.7 149.2
185.6 186.1 186.9 188.8 189.1 189.4 189.4 188.9 188.1 187 186 184.6 182.9 181.8 181.1 180 178.9 178.9 179.1 180 180 180.1 180.2 180.4 180.4 180 180.1 180.3 180.5 179.2 178.8 178.5 178.3 178.4 178.5 178.5 178.8 178.6 178.1 177.6 176.9 176.8 176.5 176.1 175.7 175.3 174.7 174.2 173.4 172 172 171 170.9 170.1 169.5 170.1 170.1 168.2 167.1 166 164.7 162.7 161.2 160 158.7 157.5 155.7 153.9 153 151 149.1 146.7 146 142.8 141.1 138.2 135.2 132.6 130.6 128 124.3 122.1 118.8 116.7 115.7 115.1 113.7 113.4 113.9 112.6 112.6 113.7 114 113.3 112.1 109.4 108.9 111.5 117.7 128.1 137.7 146.1 150.1 150.9 151 150.2 148.9 146.2 144 141.5 138.8 135.8 132.7 128.3 124.1 120.4 114.2 109.6 106.7 104.8 104.2 103.5 103.4 108.2 112.4 119.5 130.5 140.4 146.9 149.9 148.7 147.5 152.6 155.3 157.3 158.6 159.3 159 158.6 159.1 159.5 159.5 158.6 157.8 155.8 152.3 151.9 152.1 151.6 150.1 147.8 152.2 154.4 154.8 154.2 152.5 150.3 151.2 151.6 151 149.8 150.7 153.4 155.8 157.9 160.4 162.2 163.4 163.7 163.5 163.1 162.5 161.8 160.4 158.9 156.9 155.3 154.6 154 153.1 153.2 152.1 151.8 152 151.6 151.3 151 149.4 147.4 144.8 141.7 137.5 131.5 123.9 122.1 130.8 139.4 145.7 147.6 148.2
184.1 184.6 188.5 186.6 187.9 187.9 187.7 187.4 186.7 186 185.2 183.9 181.9 181.6 180.6 180.6 181.3 181.7 181.7 181.7 181.8 181.9 182 181.7 181.5 181.2 181.3 181.4 180.4 178.9 178.8 178.4 178 178.1 178.1 178.4 178.8 178.7 178.2 177.7 177.3 176.5 176.2 175.8 175.4 175 174.9 174.3 172.9 172.6 172.6 172.5 172 171.2 170.4 170.9 170.2 170.5 169.2 167.8 166 164.5 163.1 162 160.9 160 159 157.6 156.2 153.6 151.7 150.2 148.6 147.5 147.1 145.4 143.4 140.7 138.8 135.8 132.2 128.2 124.8 123.6 122.3 120.7 119.6 116.7 115.5 113.2 112.6 111.3 111.1 110.6 110 108.9 108.6 109.3 113.9 121.2 132.4 142.8 147.1 149.6 149.6 149.2 148.1 142.9 142.5 140.7 137.5 134.8 131.3 127.8 123.4 119.8 114 109.3 106.5 104.7 104.1 103.6 104.5 110.6 114.7 123.3 135.1 141.9 148.4 152 152.1 151 153.1 155.5 156.9 158.7 158.6 158.5 158.2 158.6 158.7 159.1 158.5 157.4 155.5 152.5 149.1 149.4 148.8 146.4 147.6 151.5 153 153.2 152.3 151.4 150.3 149.1 149 148.2 147.4 149.5 152.6 155.3 157.4 160.7 162.6 164.2 164.5 164.2 163.8 163.1 161.8 160.3 158.4 156.7 154.8 152.8 152.2 151.8 151.1 151.4 151.6 151.8 151.6 151.3 150.9 150.4 148.4 146.4 143.4 138.6 134.4 128.2 121.9 125.2 136 143.1 145.9 147.8
181 179.4 182.7 185 186.4 186.3 186 185.7 185.4 184.6 183.8 182.7 182.5 181.6 181.6 182.2 183.5 183.6 183.6 183.4 183.5 183.4 183.3 182.3 182.3 182.3 181.7 180.7 179.8 178.9 178.7 178.4 177.9 177.7 177.9 178.3 178.7 178.3 177.9 177.4 176.4 175.3 175 174.6 174.2 173.9 173.8 174.1 173.1 172.8 172.9 172.8 172 172 171.5 171.2 170.1 169.8 167.8 166.1 165.9 164.3 163.1 161.7 160.8 160.1 159.2 157.4 155 151.5 148.3 146.2 145.2 145.2 145.7 146.8 147 146.5 144.4 142.8 140.3 136.4 134.2 133.1 131 128.8 125.6 122 119.3 116.8 114.2 112.4 111.3 110.3 109.7 109.5 108.2 108.4 111 117.1 126.4 136.2 143.6 148.3 148.1 148.1 146.8 143.1 142.1 141.2 134.6 131.9 129.1 126.3 122.4 119.1 114.3 107.7 104.9 103.9 103.6 103.1 106.3 112.4 117.4 128 137.8 146.9 152.1 153.8 154.7 154.2 154.3 156.2 158.3 159.7 159.1 158.2 157.8 157.8 157.9 158.1 158.2 156.5 154.7 152.4 147.8 146.1 145.4 143.4 146.9 150.3 152.5 151.4 150.7 149.5 146.4 144.7 145.9 145.7 148.4 150.9 151.7 154.5 157.2 160.3 163.2 164.5 164.7 164.6 164.3 163.1 161.9 160.1 158.3 155.6 154 151.1 149.5 149.5 150.4 151.1 151.4 151.6 151.6 151.2 151.4 151.1 150 147.7 145.2 139.8 136.8 130.6 124.8 120.2 132.2 139.5 143.2 144.9
176 174.2 180.2 183.3 184.7 186.1 185.3 184.6 183.8 183.2 183.3 183.5 183.7 183.3 183.5 184.8 185 185.4 185.5 185.4 185.3 185 184.5 183.8 182.8 182 181.1 179.9 179.1 178.9 178.7 178 177.7 177.5 177.8 178.2 178.2 177.9 177.5 176.5 175.3 174.1 173.8 173.4 173 172.8 172.7 171.9 171.4 171.6 171.5 171.6 171.5 171.4 171.3 170.9 170 168 165.6 164.4 164.7 162.3 160 158.7 157.9 156 152.9 150.2 146.6 143.2 140.3 138.6 136.1 137.1 138.6 140.1 143.5 145 147.3 146.8 146 145.2 143.6 142 139.6 136.5 132.3 127.8 123.8 121 118.2 114.7 113.5 112.5 110.6 109.5 108.3 107.4 107.9 113.2 120.1 127.5 136.1 142.2 146.9 147.1 145.8 143.3 142.5 141.6 136.4 129.7 124.7 121.6 119.1 117.2 111.7 106.2 104.2 103.1 103.1 103.3 107.9 112.9 120.9 131.8 141.6 149.8 153.8 155.8 156.3 156.3 156.6 158.1 159.7 160.5 159.8 158.9 158.3 158.4 158.5 158.1 157.6 155.5 153.5 151 147.5 142.7 140.7 140.8 145.4 149 150 149.6 148.5 147.1 143.8 141.7 143.1 145.8 149.6 152.7 153.5 154.8 156.9 159.5 163.9 164.5 164.7 164.6 164.2 162.9 161.4 159.9 158 154.6 152.2 150.1 147.7 148 148.6 149.9 150.6 151.2 151.6 151.7 151.9 151.6 150.6 148.8 146.8 143.3 139.3 133.9 127.5 119.6 124.5 134.4 140.1 142.1
169.4 176.6 178.3 181.3 183.1 184.3 185.1 184.3 184.3 184.4 184.5 184.7 184.9 185 185.9 186.4 186.6 186.9 187.1 186.5 185.8 185.3 184.6 183.6 182.8 181.7 180.6 179.5 178.6 178.6 177.7 176.9 177.5 178 177.6 177.4 177 176.7 176.3 175.4 174.2 173 172.6 172.2 171.5 170.6 169.6 169.6 169.3 169.3 168.6 169.8 169.7 169.3 169 167.7 166.6 165.5 163.8 162.6 160.9 158.2 156.1 154.1 151.4 147.5 143.6 140.7 138.6 137.3 137.5 138 136.9 133.6 131.2 132 134.1 138.2 142.9 147.1 149 148.9 148.6 147.1 145.2 142.9 138.9 134.9 130.4 125.6 122.5 119.5 116.3 114.8 112.7 111.1 109.6 108.4 107.6 108.5 112.7 118.5 125.8 133.5 139.3 142.6 143.7 143.4 142.5 141 135.3 130.6 125.1 119.2 115.4 113.7 109.3 105 103.6 102.8 102.7 105.6 108.5 111.8 119 134.4 144 152.1 155.1 157.3 157.6 157.8 157.9 159.3 160.5 161.3 160.5 159.7 159.3 159.2 159.1 158.2 157.4 155.5 154.4 152.6 150.2 145.9 140.6 138.8 143 146.3 147.5 146.6 145 141.6 140.2 142.4 145.3 148.8 152.7 154.5 156.5 158.5 158.2 159.1 163.1 163.4 163.9 164.1 163.3 161.9 160.1 158.7 157.4 154.7 150.8 148.8 146.2 146.5 147 148.7 149.3 150 151.1 152.1 152.4 151.9 151.1 149.6 147.6 145.6 141.9 136.3 130 122.3 119.4 128 135.5 138.8
174.5 180.3 181.5 180.7 181.6 183.5 185.1 185.8 185.8 185.8 185.9 186.1 186.3 187.1 187.9 187.9 188.1 188.3 187.9 187 186.2 185.6 184.3 183.5 182.8 181.7 180.6 180.1 179 178.6 177 176.4 177.1 177.8 176.3 176.1 175.6 175.2 174.8 173.9 172.9 171.9 170.6 168.7 166.7 165.7 163.9 163.7 163 162.1 163.6 163.2 164.3 164.4 163.9 163.1 162.2 161.1 160 158.2 155.7 153.3 148.8 145.4 142.7 142.8 143.8 145.8 147.2 147.1 146.5 146.3 144.8 140.7 136.3 132.2 129.3 129.4 133.7 138.7 144.6 148.3 150.2 149.7 148.5 146.4 144.2 140.5 136.3 131.3 126.6 123.4 120.3 117.8 115.9 115 113.2 110.8 108.5 106.9 106.7 110.3 115.2 123.3 129.9 135 138.5 141.6 142.2 139 133.9 130.1 125.5 119.6 114 110.3 107.3 104.6 103.8 103 103.1 107.5 110.5 113.9 123.6 138.2 146.4 154.2 156.5 158.6 159 159.2 159.4 160.2 161.1 161.6 161.7 160.8 159.4 158.9 158.4 157.8 157 155.7 154.8 153.4 151.7 147.8 141.3 136.8 140.3 143.8 143.7 142.5 140.2 138.4 142.9 148.1 150 153 156.2 159 160.5 162.1 161 160.4 162.9 163.1 163.3 163.5 162.1 161.5 159.7 159.2 158.4 154 149.2 147.3 145.7 145 145.4 146.1 148.3 149.5 150.5 151.5 152.4 152.1 151.5 150.4 148.5 146.6 144.2 138.8 133.8 126.7 118.8 121 129.6 135
177 181.1 182.6 182.9 182 184.5 185.7 186.8 187.3 187.2 187.3 187.5 188.1 188.8 188.9 189.1 188.9 188.8 188.6 187.6 186.6 185.3 184 183.4 182.8 181.7 180.9 181 179.3 178.9 178.4 177.4 176.9 177.7 175.3 174.8 174.2 173.8 173.3 172 170 168.5 166.7 165.1 164.4 164.3 163.4 162.7 161.6 159.4 158.5 157 156.6 156.4 157.4 157.1 157.5 156.7 154.7 151.7 149.4 148.5 147.6 149.2 151.6 151.4 153.7 155 156.2 156.2 155.5 153.5 150.9 147.8 143.2 139 134.8 130.4 128.3 129 134.5 141.1 146.9 150 150.3 149.6 147.8 145.1 141.7 137 132.1 129.2 126.3 124.1 120.6 119.3 116.9 114.3 110.8 108 105.8 106.3 108 111.4 118.4 125.4 130.9 135 137.5 136.5 133.1 128.8 124.4 119 113.6 109.3 105.9 102.6 102.6 102.3 103.1 108.1 109.9 119.9 128.1 142.9 151.4 155.6 158.2 159.9 160.3 160.6 160.8 160.8 161.4 162 162.2 161.1 159.7 158.1 157.6 157 156.3 155.6 154.5 153.1 151.5 148.3 142.3 135.1 135.6 138.5 138.3 137.6 136.8 141.9 146.9 151.7 153.6 155.7 158.8 161.5 164 165.4 165.5 163.5 163.4 163.2 163.3 163.2 162.9 162 160.7 160.6 160.3 158.6 154.4 148.4 146.1 144.9 143.3 144.1 146 148.9 149.9 150.9 151.7 152.1 151.8 151.1 149.5 147.6 145.7 142.4 137.7 132 124.9 117.9 120.1 127.2
178.6 181.2 182.4 183.6 183.1 184.5 186.1 187.8 188.5 188.6 188.7 189 189.5 189.5 189.6 189.6 189.4 189.2 188.7 187.8 186.7 185 183.7 183.2 182.8 181.7 181.8 181.1 179.9 179.4 178.6 178.2 177.8 177.3 174.9 173.3 172.2 171.5 170.8 168.9 167.6 166.6 167.3 168.6 169.4 169.7 169.6 168.6 167.7 166.2 164.7 162.8 160.7 159 157.6 156.4 155.8 155.2 155.2 155.1 155.4 155.8 156.2 157.5 158.9 160.1 160.4 160.6 160.5 160 159.5 157.9 155.5 152.8 150.2 145.8 141.4 136.7 132.1 127.4 125.9 131.7 138.9 145.8 149.2 150.1 149.4 146.4 144.6 142.8 139.8 137.1 134.4 131.9 128.8 124.4 120.6 117.4 114.2 110.7 107.3 105.3 105.4 105.2 107.9 114.4 121.3 127.4 131.1 132.3 131.3 127.7 122.5 117.2 112.1 108 103.9 100.8 101.2 101.5 104.6 107.7 110.7 123.3 135.8 147 153.3 156.7 158.8 160.7 161.2 160.8 160.7 161.2 161.7 162.3 162.1 160.8 159.6 158.2 156.8 156.2 155.2 154.3 154 152.5 150.5 148.2 143.3 136.1 130.8 132.4 133 137.4 142.4 147 150.9 154.8 156.2 157.3 161.2 164.1 167.2 168.3 169 169 167.3 165.7 164.6 164.3 163.8 162.4 161.9 161.4 160.5 160 157.3 152.7 148.4 146.1 142.8 141.7 142.2 147 149.4 150.3 151 151.4 151.9 151.6 150.9 149.4 147.5 145.2 141 134.8 129.3 124.1 117 117
179.2 181.6 182.9 184.1 183.9 185.3 186.9 188.4 189.4 189.9 190 190.2 190.2 190.2 190.3 190 189.6 189.2 188.2 186.9 186.3 184.9 183.4 183.1 182.8 182.2 181.3 180.8 180.4 178.9 178.6 178.3 177.7 176.8 174.8 173 170.7 170.2 170.6 171.6 171.6 171.5 172 172.7 172.9 172.6 173.6 172.8 171.6 170.3 169.4 168.1 166.4 164.8 163.4 163.2 162.9 162.5 162.3 162.3 161.5 160.9 161.2 161.5 162.8 162.7 161.6 161.8 161.9 161.6 160.6 159.9 158.2 156.5 154.1 151.3 147.9 143.3 138.4 132.3 126.2 124.1 129.8 137.6 143.5 147.1 148.8 147.7 146.6 146 144.7 143.2 140.8 138.3 135.5 132.4 127 122.1 118.5 114.1 110 107 105.2 104.3 103.4 105.5 111.1 118 123.9 127.8 128.5 125.5 121 115.5 110.5 106.2 101.7 100.8 101 101.2 104.7 109.3 116.8 129.6 141.9 150.2 155 157.3 159.3 160.4 160.5 160.6 161 161.5 162 162.2 161.4 160.2 158.9 157.7 155.6 154.3 153.9 153.1 152.2 151.1 149.3 146.9 142.8 137.2 129.6 130.3 137.8 143.4 148.6 151.8 153.8 155.8 158.3 160.6 163.2 165.9 168.5 169.2 172.1 171.9 171.5 172.2 166.2 164.4 164.5 162.9 162.5 162.1 160.7 159.7 157.8 154.5 150.1 146.2 143.7 141.2 139.7 141.2 148.2 149.7 150.3 150.6 151.3 151.6 150.9 150.8 149.2 147.2 144.5 139.1 135.8 131.1 123.7 116.6
178.4 181.8 183.6 185.1 184.8 186.2 187.6 188.8 189.8 190.3 190.5 189.9 189.8 189.8 190.4 190 189.6 188.7 187.7 186.4 185.4 184.1 182.8 182.8 182.4 181.6 180.8 180.4 179.8 178.3 178 177.8 177.1 175.6 174 172.1 172.1 172.6 173.8 174.3 174.8 174.8 174.9 175.4 175.8 175.3 175 174.6 173.8 173 172.5 171.4 170 169.1 168.6 168 167.4 167 166.6 165.1 165 164.1 164.1 164 163.7 163.5 162.7 162.8 162.4 161.9 160.7 159.8 158.5 157.9 155.7 154.1 151.8 148.4 143.8 137.8 132.3 125.6 123.6 126.7 133.6 139.3 145.6 147.4 148.3 148.2 147.7 146.2 145.2 143.8 141.1 138.2 133.4 127.9 123 118.6 114.3 111 107.3 104.6 103.2 103.1 102.6 110 115.1 119.6 123.1 121.6 118.3 115.3 108.8 104.3 100.8 100.9 101.8 102.9 104.8 110.5 121.1 134.4 146.5 152.7 156.2 157.8 159.1 160.1 159.7 160.2 160.7 161.1 161.5 161.6 160.8 159.5 157.9 155.7 153.3 151.7 151.6 151.1 150.3 149.2 147.5 144.9 140.8 134.1 125.6 133.7 141.2 148.1 150.7 152.5 153.8 155.9 157.4 160.7 163.4 165.4 167 167.8 172.2 172.1 172.3 172.3 168.5 164.8 164.9 162.8 161.8 161.2 158.9 157.2 154.9 151.4 151.2 148.1 147.1 143.7 139.8 138.9 140.8 148.1 149.3 150 150.9 151.5 151 150.9 150.5 148.5 146.5 144.1 142.2 137.9 133.1 125.7
177.6 181.6 183.6 185.6 186 186.7 187.9 189 190.1 190.5 190.5 189.8 189 188.8 190.1 190 189.1 188.2 187.2 186 184.6 183.2 182.3 182.4 181.8 181 180 179.3 178.7 177.7 177.2 176.9 175.4 174.1 172.8 173.2 174.2 175.3 176.1 176.3 176.8 176.4 176.5 176.7 177 176.7 176.1 175.6 175.2 174.3 173.5 173.1 171.8 171.4 170.8 170.3 169.7 169.3 168 166.2 165.6 164.9 164.3 164 163.1 162.8 162.5 160.9 159.7 158.5 157.6 156.7 155.7 155.2 154.3 152 152.3 149.3 145.6 142.5 136.7 130.1 123.7 121.3 123.2 129.8 135.4 142.1 145.8 147.6 148.7 148.4 147.7 146.7 144.9 142.6 139.2 134.6 128.7 124.2 117.8 114 110.2 106.8 104.4 103.5 102.2 102.2 106.3 111.9 115.6 117 114.8 113.3 107.6 102.8 100.8 100.9 102.1 103.4 105.9 110.4 126.1 138.1 149.1 154.2 156.4 157.4 158.1 159 158.5 159.1 159.8 160.2 160.4 160.7 159.8 158.5 156.5 153.8 150.8 148.5 148.9 148.7 148.2 147.3 145.8 142.7 137.9 129.3 128.5 136.2 144.2 148.6 150.9 151.7 152.1 153.1 155.8 158.5 160.2 161.2 162.9 165.7 169.7 172.4 172.3 171.5 167.2 164.3 164.3 161 159.1 157.2 155 152.9 152.5 151.5 150.4 149 147.5 145.9 142.2 139.4 136.7 142.9 147.3 148.9 150.4 151.4 151.2 151.1 151.1 150.4 148.7 146.6 145.2 143.8 139.6 134.4
177.4 181.1 182.9 185.1 187.1 187 188 189 190 190.4 190.5 189.6 188.8 188.1 189.6 189.6 188.7 187.7 186.8 185.6 183.9 182.3 181.5 181.6 181 180.1 179.1 178.2 177.6 177 176.4 174.9 173.9 174.6 175.8 176.3 176.9 177.4 177.8 178.2 178.2 177.1 176.6 176.8 177.1 176.4 175.7 175.8 175.3 174.8 174.4 173.8 173 172.3 171.7 171.2 170.4 169.8 168.7 167.3 165.5 164.2 162 161.3 159.7 157.8 154.4 152.1 151.9 151.7 151.3 149.6 148.5 147.7 146.9 144.8 145.9 147.5 147.1 144.9 140.9 135.7 129.3 123.2 120.1 120.2 126.2 133.3 141.4 145.4 147.6 147.9 148.4 147.9 146.7 145 142.3 139.2 134.5 129.5 122.6 117 113.2 110 106.8 104.3 103.2 102.2 102.2 104.4 107.9 109.4 110.3 111.8 107.3 103 100.7 100.8 101.3 102.5 105.6 111.2 128.2 140.8 150.4 154.5 155.2 155.7 156 156.9 157.2 157.2 157.8 158.4 159.2 159.8 158.9 157.7 155.7 151.7 148.2 146.6 146.2 145.3 144.3 143.6 143.2 140 133.8 126.6 130.1 137.9 144.8 147.7 148.8 149.3 149.8 151 152.8 154.4 155.6 155.3 155.9 159.9 166.6 170 172.4 170.8 168.4 165.8 162.6 159.9 157.5 155.8 154.7 153.9 152.4 151.4 150 148.6 147.1 145.2 142 137.1 137.7 142.5 144.8 146.6 148 149.4 150.3 151 151.4 150.9 150.4 149.6 148.6 147.4 144.7 141.5
174.8 179.5 182.3 184.5 185.8 186.5 187.5 188.5 189.2 190 190.2 189.2 187.9 187.9 189 189.2 188.2 187.2 186.3 185.1 183.3 181.5 181.3 180.8 180.4 179.4 178.2 177.2 176.4 176.3 176.7 177.1 177.4 177.5 177.9 178.2 178.5 178.8 179.2 179.9 179 178 177 176.8 176.9 176.3 175.4 175.7 175.1 174.5 173.9 173.3 172.7 172 171.3 170.5 169.6 168.8 167.4 164.5 162.6 160.8 159.3 156.7 156.1 154.9 152.4 150 148.7 147.3 146.2 144.8 144 141.8 140.3 137.2 136.9 139.2 141.1 142.2 141 138.4 133.8 128.3 123.1 119.1 119.2 125.4 133.9 140.5 144.5 146.1 146.7 147.1 146.6 145.1 143.4 140.8 136.8 133.2 127.9 120.5 115.8 112.5 108.6 105.5 104 102.9 102.7 102.2 103.2 105 105.6 106.2 104.3 102.4 100.8 100.6 100.6 101.8 106.3 110.5 129.2 140.5 148.5 152.3 153.6 154.1 154.3 154.7 155.4 155.5 155.8 156.9 158 158.8 158.1 156.8 155 151.2 147.1 142.8 141.7 140.5 139.5 139.1 139.9 137.2 130.8 124.2 130.1 138.5 143.9 146.1 146.7 145.9 146.1 146.5 147.4 149 150.4 151.3 151.8 154.7 159.9 168.1 170.4 169.8 166.2 163.4 160.9 157.8 156.3 155.6 154.6 153.3 151.1 149.7 148.3 147.3 145.7 142.7 140.9 137.7 135 139.4 141.5 143.2 145.3 147.3 149.2 150 151 151.6 150.8 150.7 150.2 149.5 148.3 146.6
171.5 173.8 181.1 183.4 185.3 186 187 187.8 188.5 189.2 189.7 189.5 188 187.5 188.6 188.8 187.8 186.8 185.7 184.7 182.9 181.5 181.7 180.8 179.8 179 178 177.4 176.5 177.2 177.5 177.8 178.2 178.6 178.8 179.3 179.8 180.1 180.1 179.5 179 178 177.1 176.4 176.4 176.1 175.2 175.3 174.7 174.1 173.5 173.1 171.3 170.3 169.8 170.5 169.6 168.7 165 161.2 159.1 160.1 159.9 159.8 159.4 158.8 158.4 157.3 155 154 152.1 149.5 146.8 145.1 139.9 136.2 132.8 131.1 132 133.8 133.9 134.3 132.5 128.7 124.3 120.6 117 118.4 126 134.1 138.8 141.1 143.2 144.7 144.7 143.7 142.5 140.2 136.7 133.7 130.2 124.9 118.5 113.9 109.9 106.9 105.4 103.9 102.8 102.4 102.2 102.3 103.4 103.1 103.5 102.3 100.8 100.4 100.3 101.4 104.8 110.3 125.4 135.5 142.7 147.7 150.5 150.4 150.6 151.9 152.7 151.3 152.7 154.6 156.4 157.6 157.4 156 154.2 150.5 147.8 143.5 140.6 138.9 135.8 134.1 132.6 133.4 127.4 122.5 130.2 138.8 142.3 143.6 142.5 141.7 142.2 141.7 142.2 143.7 145 145.4 147.9 151.6 156 163 167.8 168.3 164.5 159.8 159.1 155.3 154.3 153.2 151.8 150.5 149.6 148.1 146.5 145.2 141.9 138.6 136.9 135.3 134.5 132.7 134.7 137.1 140.2 143.2 146.9 149.2 150.2 150.9 151.1 150.9 150.6 150.2 149.7 148.8
168.3 175 179.5 182.6 184.5 185.5 186.4 186.9 187.4 187.9 188.9 189.2 188.3 188.1 187.4 188.3 188.1 187.1 186.2 185 183.6 183 181.8 180.9 179.9 178.9 178.6 178.1 177.7 177.9 178.2 178.5 178.9 179.3 179.7 180.2 180.7 180.7 178.8 178.9 178.8 177.9 177.1 176.5 175.9 175.8 175 174.9 174.3 173.7 173.5 173.3 170.8 168.5 169.4 170.2 169.8 167.9 164.2 164.7 164.6 165.1 166.2 166.3 165.9 164.7 164.5 163.1 161.1 160 158.8 157.1 155.5 152.7 148.4 141.5 137.2 133.3 129.3 127.8 127.1 126.6 127.1 124.5 121.9 118.8 117.2 116.3 120.7 127.2 132.3 136.5 138 139.5 140.9 141.2 140.9 138.8 136.4 133.4 130.2 125.9 117.9 115.3 111.2 108.2 106.5 104.8 103.5 102.5 101.8 101.3 101.5 102 102.5 101.7 100.5 100.4 100 99.6 102.5 107 116.8 125.4 135 141.1 145.2 146.7 146.9 148.4 148.5 146.6 149.7 151.9 154.5 156.8 156.9 155.4 153.7 151.8 149.6 146.1 144.7 143.7 138.9 135.9 129.4 126.3 123 122.1 131.4 137.5 139.5 140.1 138.8 137.5 137.4 136.8 137 138.5 139.6 140.8 144.4 148.9 153.7 162.1 165.2 166.5 163.9 159.6 156.6 153.6 152 151 149.6 148.7 148.1 145.9 145 145 142.7 142.6 142.7 142.1 140.3 137.9 132.4 130.8 132.7 136.9 142 147.2 149.1 150 150.3 150 149.7 149.4 148.9 148.7
164 172.5 177.8 181.4 183.4 184.3 184.3 184.6 185.1 186.3 187.8 188.2 188.9 188.4 187.9 187.5 188.7 187.7 186.6 185.3 184.2 182.9 182 181.2 180.2 179.3 179.1 178.9 178.6 178.8 179.1 179.3 179.6 180.1 180.6 180.7 180.4 180.3 178.8 179.1 178.7 178 177.1 176.5 175.9 175.3 175 174.5 174.1 173.9 173.7 173.5 171.3 169 169.1 169.8 170 167.2 166.2 167.3 168.2 168.6 169 169 168.6 167.9 167.1 166.2 165.2 164.2 162.9 161.3 159.3 156.4 152.1 146 143.6 139.5 135.7 131.4 127.9 125.2 123.2 121.7 120 118.4 117.1 116.5 116.5 120.3 125.9 129.5 132.1 133.8 135.5 136.6 137.3 136.2 134.3 131.9 128.9 125.4 119.4 114.6 111.3 108.4 105.8 104.5 103.3 101.9 102.1 101.6 101 101.2 101.4 101.1 100.5 100.2 99.8 99.4 99.3 103.2 107 117.4 124.2 133.4 138 140.5 140.8 143.4 142.9 141.1 146.9 152.3 154.4 156.2 156.5 155.3 153.6 152.2 150.6 148.5 146.7 144.9 142.2 139.4 134.4 128.1 121.6 121.3 130.9 134.8 136 135.5 133.8 133.4 132.6 132 131.7 133.3 134.4 137.9 143 148.1 152.8 157.3 164.2 164.8 162.7 159.5 155.8 153.4 151.1 148.9 147.6 147.2 145.7 145.6 146.2 146.9 147.2 147.4 147.7 147.3 145.6 143.3 139.7 133.9 128.8 131.2 137.8 143.3 145.9 148.9 148.7 148.5 148.2 147.9 147.7 148.4
159.6 169.7 174.9 178.2 181.3 182.7 182.6 182.5 183.5 185.1 186.8 187.9 188.8 189.3 188.8 188.5 188.2 188.2 186.9 185.5 184.1 183.1 182.2 181.4 180.5 179.8 179.5 179.2 179 179 179.2 179.5 179.7 180.1 180.5 180.2 180 179.8 179.5 179 178.5 178 177.1 176.4 175.8 175.2 174.7 174.5 174.3 174.1 173.8 173.6 171.7 169.8 169.9 170.1 170.1 169.1 168.7 169.5 170.1 170 169.8 170 169.9 169.2 168.5 167.8 167.1 166.1 164.8 163.5 161.1 158.1 153.8 151.5 149.8 146.4 142.4 137.6 134.3 131.1 128.3 126.3 126.1 123.6 120 117.2 114.5 115.3 119.5 122.3 125.5 127 128.7 130.3 131.1 131.8 131 129.2 126.3 122.8 117.5 112.4 109.1 106.7 104.4 103.3 102.2 102.1 102.5 102.2 101.8 101.4 101 100.7 100.3 100 99.7 99.3 99 99.4 102.9 105.9 113.8 124.4 130.9 134.2 136.4 137 135.7 140.5 146.1 150.8 152.9 154.1 154.4 154.1 152.6 151.5 150.5 148.7 146.3 144 141.2 138.3 134.7 129.2 120.6 120.3 128 131.9 132.5 130.9 129.2 129 129.1 127.7 127.3 129.6 133.1 137.5 142.4 147.2 151.8 156 163.2 163 160.6 158.5 156.1 153.7 151.4 149.3 147.5 147.3 135 148.2 148.3 149.3 149.4 149.5 150.3 149.9 148.7 146.2 142.8 140 131.9 126.6 131.8 139 142.4 146.8 147 146.9 146.7 146.6 147.3 148
157.1 165.1 171.7 175.9 178.1 179.9 180.5 179 181.6 184.3 186.8 187.7 188.6 189.2 189.7 189.4 189.1 188.3 186.9 185.5 184.2 183.3 182.5 181.6 180.7 179.9 179.6 179.3 179.1 179.1 179.1 179.2 179.4 179.7 180 179.2 178.7 178.7 178.9 178.8 178.3 177.8 177.1 176.4 175.8 175.1 174.7 174.6 174.4 174.2 174 173.8 172.1 170.6 170.8 170.8 170.4 170 169.7 170.7 171 170.8 170.7 170.7 170.3 169.6 168.9 168.3 167.8 166.9 165.6 164.5 163.1 159.9 158.4 156.5 154.7 151.8 148.7 145.1 141.9 138.8 136.3 134 132.4 129.7 125 120.1 115.5 113.7 114.1 116 118.9 120.2 122.1 123.6 123.7 123.8 123.6 123.5 121.4 117.7 114 110.7 107.4 105.1 103.1 103.1 103.4 103.7 105.8 104.4 103.2 102.8 102 101.4 101.2 100.3 99.7 99.2 98.9 98.9 100 102.5 107.3 117.2 124.9 125.2 128.4 129.2 128.7 138.9 145.4 148.9 151.4 152 152.3 152.6 151.7 151 150 149.1 147.1 144.3 139.1 135.9 131.1 126.9 120.9 118.2 123.7 127.9 128 125.4 123.7 123.9 124.3 124.9 127.4 131.7 135.9 140.2 144.5 148.9 151.3 156.9 161.3 161.1 159.3 157.8 156 153.9 151.8 149.3 147.3 147.3 143.6 151.8 150.1 150.3 151 151.6 151.5 150.3 149.1 147.7 144.8 142 136.9 129.2 126.8 134.3 140.2 144.1 145 144.3 143.1 144 145.8 146.5
154.8 160.6 167.1 170.6 172.9 175.8 176.6 173.8 179.3 183.5 186.3 187.5 188.4 189.1 189.4 189.5 188.9 187.9 186.5 185.5 184.7 183.7 182.7 181.8 180.9 180.1 179.7 179.5 179.2 179.1 179.2 179.3 179.3 178.5 177.6 177.8 177.6 177.7 177.9 177.9 177.9 177.5 177 176.4 175.7 174.6 174.5 174.5 174.4 174.2 174.1 173.9 172.9 171.4 171.4 171 170.6 170.8 170.6 171.3 171.4 171.5 171.5 171.1 170.7 170 169.5 169 168.5 167.7 166.6 165.6 164.6 162.5 161.2 159.8 157.7 155.5 153.7 150.7 148.6 146.4 144.1 141.9 138 134.9 129.5 122.1 116.9 113.9 112.9 114 114.9 114.4 116.3 117.3 116.1 116 116.2 116.5 115.2 112.6 109.9 107.5 106.4 104 104 104.7 105.3 108.9 108.9 107.9 106.2 104.5 103.8 103.1 102.1 101.4 100.2 99.2 98.8 98.7 100.2 101 101.2 106.5 113.8 117.6 123.5 122.3 124 137.2 143 146.9 149.1 150.5 150.8 150.8 150.2 149.9 149.4 148.7 147.7 144.7 141.2 137.6 134.4 130.7 123.1 115.4 119.7 123.2 123.5 120.8 118.5 118.9 121.5 125.7 130 134.3 138.7 143 147.2 151.3 154.6 157.6 159 159.9 158.2 156.7 155 153.5 151.1 146.4 147.4 152.2 150.2 150.9 151.1 151.2 151.9 152.3 151.6 150.2 149.3 148.2 145.2 142.3 139.7 132.7 124.9 128.5 135.7 140.7 142 141.5 138.9 140.7 143.2 145.3
149.6 155.3 162.1 165.8 168.3 170.6 170.4 169.2 177.4 182.8 185.7 186.8 188 188.6 188.9 189.1 188.9 187.7 186.8 186.2 185.5 184.4 183.4 182.4 181.4 180.4 179.9 179.6 179.4 179.2 179.3 179 178.6 177.5 177.1 177.5 177.4 176.6 176.8 176.9 177 177.1 176.7 176.3 175.2 174.5 174.4 174.4 174.3 174.2 174 173.9 173 172.1 171.7 171.2 170.9 171.6 171.5 171.7 171.6 171.7 171.2 170.9 170.8 170.1 169.6 169 168.5 168.5 167.6 166.6 165.6 164.4 163 161.6 159.1 156.9 155.4 153.8 150.7 148.3 146 144.9 141.4 137 127.8 121.3 116.6 113.8 112.9 113 113.5 110.9 110.7 111 110.3 110.4 110 110.1 109 108.4 106.7 105.6 105 105.7 105.4 107.7 110.4 111.6 111.1 110.6 109.4 106.8 106.4 105.6 104.1 103.2 102.1 100.8 99.2 98.5 99.5 100.3 98.9 98.3 103.9 109.8 111.6 117.1 126.6 135.4 140.7 144.5 146.6 147.9 149.1 148.9 148.4 148.8 149 148.4 147.8 146.5 144.2 142.6 139.3 133.9 127.1 119.1 114.2 116.6 117.9 116.3 115.4 118.8 122.9 126 129.6 134.6 139.5 145 149.7 153.8 157.2 158.4 158.2 158.2 157.3 156.2 154.5 145.6 141.4 145.1 155.4 153.3 151.2 151.4 152.7 151.7 152 152.4 151.5 150.1 149.2 147.3 144.2 141.6 139.6 134.3 126.8 123.6 130.9 136.2 137.9 137.2 135.4 135.5 138.7 141.2
145.1 150.2 155.8 159.1 160 160.8 162.1 168.7 177.4 182.2 185 186.2 186.9 187.6 188.3 188.6 188.7 188.4 187.6 186.9 186.2 185.2 184.2 183.2 182.1 181.1 180.1 179.6 179.4 179.2 178.4 177.6 176.9 176.4 176.8 177.2 177 175.7 175.8 175.9 176 176.1 176.2 175.9 175.8 174.9 174.4 174.3 174.2 174.1 174 173.6 172.6 172.3 171.9 171.5 171.1 171.8 172.1 172 171.9 171.4 170.4 170.2 170.6 169.9 169.1 168.3 168.1 168.5 167.9 167.1 166.3 164.9 163.6 162.1 160.4 158.2 156.7 154.6 151.3 147.8 144.6 144.4 141.3 133.6 125.7 120.4 115.7 113.9 113.5 113.7 113.6 113 111.7 111.3 110.6 107.9 107.7 107.4 106.8 106.1 106.9 106.7 107.6 109 110.7 114.2 115.5 115.6 114.5 113.5 112.4 110.4 108.9 108.2 106.7 105 103.8 101.4 100 98.6 98.8 99.7 98.4 98.3 101.3 104.4 110.7 113.8 127.7 134 138.8 142 143.9 145.1 146.3 146.6 146.6 147.3 148 148.6 148.9 147.4 145.4 145.2 141.8 137.6 131.6 124.1 116.8 111.6 111.7 111.5 113.1 117.1 120.7 124.9 129.3 134.5 140 145.6 151.3 156.1 158 158.2 157.5 156.9 155.8 154.2 147.8 143.6 153.4 156.7 154.1 151.9 151.1 150.9 151.9 151.8 152.1 151.5 150.8 149.5 147.5 145.2 141.1 138 136.7 132.2 125.8 121.6 124.1 129.5 131.8 132.3 129.9 131.1 134.3 136
141.1 145.1 147.7 149.7 150.8 157.1 164.7 171.4 176.8 181.7 184.4 185 185.7 186.5 187.3 188 187.3 187.3 187.3 187.2 187 186 184.9 183.9 182.8 181.8 180.9 180 179.3 178.7 177.9 175.8 175.1 175.4 176.3 176.7 176.6 175.9 174.7 174.9 175 175.4 175.9 175.6 175.9 175.7 174.5 174.3 174.1 174 173.7 173.2 172.8 172.4 172 171.6 171.3 171.9 172.1 172 171.8 171.6 170.2 169.8 170.2 169.7 168.9 168.1 167 167.1 166 165.7 165.7 165.1 164.1 162.7 161.2 159.2 156.3 153.4 150.3 147.1 143.8 141.6 137.6 129.9 122.6 117.3 114.9 115.1 116.7 117.7 118.3 117.6 116.2 114.8 114.5 113.3 112.3 111.1 110.9 109.5 109.9 110.4 112.3 115.5 117.6 118.5 118.4 117.6 116.5 115.4 114.3 112.7 111.6 110.7 109.2 107.4 103.5 101.5 100.2 99 98.7 98.4 98.1 98.7 99.7 103.3 106.7 112.3 124.3 131.9 136.1 138.7 140.7 142.1 142.9 143.3 143.4 145.1 146.7 147.4 148.3 147.8 147 146.3 144 140.9 136.3 130.8 125.1 118.1 111.9 109.1 110.1 114.9 120.4 124.9 129.9 135.1 140.6 147.5 153.4 157.3 157.6 157 155.1 154.1 153.3 146.5 147 147.7 157.9 156 153.6 152.3 151.1 151.3 151.5 151.8 151.2 150.6 149.5 147.6 145.6 141 137.9 134.4 132 128 126.8 124.1 122.4 120.5 122.6 124.8 124.3 124.8 128.1 131.6
136.6 139 141.3 145.7 153.7 162.2 168.9 173.9 178.3 181.8 183.6 183.9 184.6 185.3 186.2 186.6 186 186 185.9 186 186.5 185.7 184.7 183.6 182.6 181.5 179.8 179 178.2 177.9 177.4 176.3 174.1 173.9 175 176.4 176.3 176.3 175.1 174.3 174.8 175.4 175.1 174.7 175.2 175.7 175.5 174.4 174.6 173.7 173.4 172.7 172.3 171.9 171.5 171.2 170.7 171.5 171.8 171.6 171.5 171.3 170.3 169.9 169.7 169.5 168.7 167.7 166.6 165.7 164.4 164.4 164.4 163.9 162.8 161.3 159.7 157.9 155 152.2 149.3 146 141.7 137.8 132.8 126 119.6 116.6 116.9 118.8 119.9 122.4 125.4 123.7 122.7 122.3 122.7 121.3 118.9 117 116.7 113.8 113.1 113.8 117.9 121.2 124.3 124.4 121.7 120.6 118.4 117.3 116.2 114.7 113.2 111.9 109.9 106.3 106 104.3 101.7 99.4 98.7 98 97.6 98.1 98.4 100.5 105.1 110.8 121.7 129.4 133.7 134.5 136.2 137.9 139.6 139 139.9 142 144.6 145.9 147.2 147.5 147.4 147.4 145.6 143.2 140.5 135.4 130.2 123.3 116.2 110.1 108.3 115.7 121.6 127.5 132.4 137.2 142.8 150.5 154.5 156.6 156.8 155.3 153.6 152.8 152.6 146.1 148.3 155.4 154.1 153.8 154.1 153.9 152.6 151.7 151.9 151.5 150.1 148.8 147.4 144.7 141.1 139.4 137.5 135.2 133.5 134 133.5 131.8 127.5 121.4 117.9 116.6 116.6 116.4 118.2 121.3
133.5 135.1 141.1 149.7 157.9 166 171.1 174.9 178.5 182 182.9 183.6 183.5 184.2 184.6 184.9 184.7 184.8 184.9 185.4 186.1 185.3 184.3 183.2 182.1 181 179.1 177.6 176.9 176.6 176.3 175.7 173.4 171.5 172.9 175.8 176.1 176.1 175.4 173.8 174.3 174.9 175.1 174.3 174.6 175.1 175.6 175.5 175.2 173.5 173.8 172.1 171.7 171.3 170.9 170.2 169.9 170.7 170.7 170.9 171.1 171 170.3 170 169.6 169.3 168.4 167.2 166.5 165.3 163.8 162.7 162.8 161.8 161 159.5 157.8 156.5 153.8 151 148.2 144.5 139.1 133.4 128.1 121.8 118 119.3 120.8 123.5 126.2 129.1 132.9 133.1 133.4 134.9 135.5 133.5 130 127.9 123.5 119.9 116.8 118.5 125.6 130.4 131.7 131.3 128 124.6 122.7 119.7 118.1 116.6 114.6 111.2 108.3 105.8 105.4 105.3 103.4 101 98.6 98.1 99.1 97.7 98.1 98.3 104.6 112.3 118.8 125.8 130.6 132.1 133.3 134.1 134.2 133.2 135.7 139.5 141.4 142.9 145.4 146.8 147.3 147.3 146.5 144.4 141.6 137.8 132.1 125.2 117.8 110.7 106.7 113.8 120.5 127.8 133.9 138.9 144.8 152.6 154 155.4 154.7 153.4 152.6 152.4 152.3 152 152.1 152.4 153.3 154.5 154.5 154.5 153.9 152.6 150.9 150 148.8 147.6 147 143.8 144.3 143.8 142.8 139.9 138.5 139.5 139.5 137.4 133.2 129 124.8 120.6 119 116.9 115 111.7
132.1 135.2 142.4 152.4 160.7 167.1 171.7 175.5 178.9 181.3 182.3 183.2 182.9 182 182.3 182.8 183.6 183.8 184.2 184.9 185.7 184.9 183.9 182.8 181.6 180.4 178.6 176.5 175.5 175.3 175 174.1 172.4 169.9 171.6 174.8 175.1 175 174.9 173.5 173.8 174.6 175.1 174.8 174.5 174.6 175.1 175 174.9 174.1 173.2 171.6 171.1 170.7 170.1 169.1 169.1 169.7 169.7 169.7 169.9 170.3 170.2 169.8 169.5 169 168.4 167.7 167 165.8 163.8 162.1 160.6 159.2 158.6 156.9 155.2 153.9 152 149.5 146.6 141.9 135.2 129.3 124 121.8 120.9 124.2 129.3 133.6 133.7 136.5 140.9 142.7 142.6 142.6 142.8 141.8 139.8 136.8 133.3 125.7 120.6 124.4 135.3 136.4 136.5 135.8 133.5 130.5 127.4 124.4 120.8 116.4 113.2 109.6 108.2 106.2 106.9 106.7 104.9 102.2 99.8 98 99.5 97.2 97.3 97.6 101.1 107.9 115.5 120.9 125.5 127.8 129.1 130 130.2 128.1 131.3 135.9 138.1 139.8 142.4 144.8 146.3 147.2 146 145 142 137.8 132.9 123.4 116.2 110.1 105.7 111.6 121 127.7 135 140.5 146.9 151.7 153.4 153.1 152.5 152.2 152 151.7 151.4 150.5 150.5 151.3 153 154.2 154.5 154.3 154.2 153.1 151.4 149.8 148.3 148.3 148.3 148.1 147.5 146.8 145.4 144.8 144.2 143.6 143.5 142.5 139.4 135.8 133 131.8 130.2 127 122 116.4
131.4 135.4 142.1 151.7 160.4 165.9 170.9 174.7 178 180.3 181.7 182.3 181.7 179.6 178.2 179.6 182.4 183 183.7 184.5 185.3 184.5 183.4 182.2 181.1 179.9 178 176 174.1 173.3 172.6 171.8 170.1 168.3 170.3 172.8 173.3 173.4 173.4 173.3 173.4 174.5 175.3 175.2 175 174.8 174.7 174.5 174.2 174 172.7 171 170.5 170 169 168 168.4 168.7 168.6 168.6 168.6 168.9 169.3 169.1 168.5 167.9 167.9 167.2 166.9 166.5 165.8 163.7 159.8 156.4 154.2 152.4 150.6 149.3 147 145.3 142 137.3 130.8 126.5 121.6 123.2 127 133.6 139 143 142.1 143.9 148.2 149.3 149.1 148.8 148.1 147.4 145.7 142.7 137.3 129.2 124 130.5 138.1 138.8 139.6 137.3 136.2 133.8 130.9 126.7 122.1 116.7 112.3 109.6 108.2 109 111.6 109.1 106.6 104.8 102.8 97.9 100.2 97.9 97 97 98.8 103.2 112 116.9 119.6 123.5 124.7 125.6 125.6 122.4 127.4 131.9 135.2 137.8 140 142.8 143.7 145 145.9 144.6 141.7 138 131.5 123 114.7 108.4 105.8 112.8 121.9 130.2 136.3 141.7 146.8 150.2 151.2 151.2 150.5 150.8 151.1 150.8 150.4 149.2 149.3 150.8 152.6 154 154.5 154.4 153.7 153.1 152 150.3 150.3 150.4 150.3 150.4 150.3 148.4 147.7 147.1 146.5 145.9 146.4 146.4 144.6 141.5 138.5 138.1 137.4 133.7 127.6 122.5
130.7 133.3 140.5 149.4 158.3 166.7 170.3 173.8 176.6 179 181 181.5 180 178.1 176.2 176.7 180 182.3 183.3 184.1 184.9 184.1 182.9 181.7 180.5 179.4 177.5 175.3 172.8 169.8 169.8 170 167.5 163.5 167 169.8 170.8 170 169.9 172.1 173.6 174.5 175 175 174.6 174.3 173.2 173.6 173.4 173.3 173 171.1 169.9 168.9 167.9 167.1 167.6 167.6 167.8 168 168.3 168.2 168.6 168 167.4 166.8 167.3 167 166.8 166.5 165.8 164.2 161.6 157.2 154.8 151.8 148.6 145.2 141.8 137.9 134.3 131.4 127.3 124 123.1 128.1 136.1 143.4 147.3 149.4 149.7 150.8 152.4 153.4 153.4 153.3 152 150.6 148.5 145.1 140.1 131.4 128.7 135.6 141.6 142.8 143.2 141.2 138 135.5 132 127.8 122.9 117.6 112.3 110 111.3 115.3 114.8 112 109.4 106.6 104.9 100.6 101.1 97.5 96.6 96.5 97.6 99.9 104.7 109.1 114.6 117.8 120.4 121.3 120.5 118.8 124.4 128.2 130 133.8 136.8 138.6 140.8 142.6 142.5 142.5 140.5 137.3 130.2 121.9 113.2 106.9 104.3 112.5 121.1 129.6 136.4 141.2 145.6 148.7 148.9 149 149 149.4 149.8 149.9 149 147.9 148.7 150.4 152.2 153.7 154.5 153.9 153.3 152.6 152 151.1 151.2 151.3 152 152.2 151.6 150.7 150.1 149.4 148.8 148.2 147.9 148.5 147.7 146.1 144 142.4 140.5 137.3 131.9 127.2
129.5 131.5 137.6 146.7 155.4 163.1 168.9 172.6 175.8 178.1 179.9 180.3 179.4 177.5 174.7 174.2 178.2 180.9 182.6 183.4 184.2 183.6 182.4 181.2 180.1 178.9 177.4 174.7 172 167.8 166 165.4 164.3 159.5 163.5 164.4 165.3 166 169 172.7 173.8 173.8 174 174.2 173.8 173.5 171.4 172.5 172.6 172.6 172.4 172 170.1 168.4 167.1 166.5 167 167.2 167.7 168 168.2 167.7 167.5 166.9 166.3 165.8 166 165.8 165.6 165.2 164.7 163 161.1 158.1 155.4 152.6 149.3 146 142.5 138.2 134.1 129.7 125.7 125.1 129.8 136 144.9 150.2 153 154.1 154.8 155.3 155.4 156.2 155.9 155.1 153.3 151.9 150 147.6 141.8 132.1 132.4 140.7 145 146.6 144.6 142.6 139.8 136 131.7 127.1 121.1 117 112.4 113.2 116.8 120.1 117.9 114.9 112.7 109.2 106 102.8 99 97.2 96.2 97.2 96.5 96.4 97.1 102.8 107.2 110.6 114.5 116.4 114.1 115.7 121.3 123.6 125.4 129.1 131.7 134 136 137.5 138.4 139.8 138.3 135.7 128.8 120.4 111.6 105.1 103 111.3 120.7 129.2 136 141.3 145.7 147.1 146.3 146.4 147.5 147.9 148.3 148.6 147.3 146 147.6 149.6 151.5 152.8 154 154.1 153.5 152.9 152.3 151.8 152 152.2 152.3 152.5 152 151.7 151.5 151.4 151.1 150.5 149.8 149.9 148.8 147.4 145.9 144.2 142.1 139 134.9 130.3
127.4 130.9 136.1 143.4 152.6 160.5 167.2 171.3 174.6 177.5 178.7 179.1 178.1 175.5 171.4 171.6 177.4 180.5 181.8 182.6 183.2 183.1 181.9 180.8 179.6 178.5 177.4 175.5 173.3 170.3 165.8 163.1 160.6 156.7 157.6 157.7 164.2 170 171.9 173 173.7 173.3 173.1 173.3 173 172.6 171 171.4 171.5 171.4 171.3 171.1 170.8 169.3 167.2 166.3 166.5 166.5 166.7 167.2 167.8 167 166.2 165.6 164.9 164 164.4 164.3 163.9 163.4 162.4 161 159.7 157.6 155.2 152.2 149 145.8 142.4 138.5 134 129.4 126.4 129.7 135.9 144.3 151 154.6 156.1 157.1 157.5 157.4 158.2 158.3 157.8 156.7 154.8 153.2 151.3 148.6 142.8 132.9 139.2 146.3 147.7 148.9 147 143.2 139.8 135.8 131 124 118.6 116.1 114.3 117 122.6 123.3 121.1 118.1 115.3 112.2 108.9 105.6 103 99.1 97.6 97.1 96.2 96.1 96.1 96.2 99.5 104.1 110.5 110.2 109 114 117.3 118.6 121.5 125 127.4 129.4 130.8 132.5 133.9 136.3 135.6 133.7 127.7 118.4 110.3 103.3 103.4 110.6 120 128.4 135 139.3 145.1 145.7 144.4 143.6 145.1 146.3 146.9 146.5 145.2 143.9 146.4 148.7 150.6 151.8 152.8 153.7 153.6 153.4 152.8 152.4 152.5 152.7 152.6 152.4 152.1 151.6 151.3 151.2 151.1 151 150.8 150.2 149.2 148.1 146.7 145.1 143.1 139.9 135.9 131.1
123.1 126.2 131.6 138.5 147.4 156.9 165.7 169.7 173.1 176.3 176.9 176.7 175.2 171.7 167.4 171 177.1 179.6 180.8 181.8 182.2 182.1 181.5 180.3 179.1 178.2 177.2 175.4 173.2 171.1 168.8 165.5 160.5 157.3 155.4 164.2 168.4 171 172 173.1 173.2 172.8 172.4 172.5 172.2 171.9 171 170.4 170.4 170.2 170.3 170.3 169.8 169.2 167.4 166.1 166.1 166 166 165.9 166 165.7 164.2 163 161.8 161.3 162.4 162.3 161.9 161.3 159.9 158.5 157.4 156.2 154.6 150.2 147.2 144.3 140.9 136.3 132.3 128.4 128.6 135 142.5 150 154.6 157.1 158 158.9 159.2 159.5 159.7 159.6 159.4 158.4 156.5 154.3 152.1 147.8 141 138.5 145.1 149.2 150.6 151.1 149.1 145.3 140.1 134.5 127.4 121.4 118.3 116.7 116.2 122.3 127.1 126.8 125.1 121.3 117.5 115 111 108.4 105.4 101.8 98.7 97 96.1 95.9 96 96 96.1 98 102.7 104.4 106.1 111.1 112.3 114.4 117.5 120.4 122.4 123.4 124.5 127.1 130.2 131.3 131.6 130.8 126.7 118.5 109.8 102.1 102.4 109.5 118.7 127.2 134 139.1 143.3 144.1 142.8 141.5 142.4 144.8 145.7 144.8 143.6 141.9 145.5 148 150.5 151.9 152 153 153.2 153.1 152.9 152.6 152.3 152 151.8 151.6 151.6 151.7 151.1 151 150.9 150.7 150.4 150.1 149.2 148.2 147.3 145.9 144.1 141.1 135.5 130.1
121 124 128.2 134.8 145.7 154.7 162.2 167.3 170.9 173.5 174.4 173.7 171.9 166.3 165.4 171.6 176.9 178.6 179.9 181 181.3 181.1 181 179.8 178.8 177.8 176.8 175.2 173 170.3 168.1 165.4 163.3 155.7 154.1 163.1 168.4 170.9 171.9 172.5 171.9 171.8 171.7 171.6 171.4 171.2 170.4 169.4 169.4 169.4 169.5 169.4 168.8 168.6 167.4 165.9 165.5 165.4 165.2 164.8 164.6 164.3 161.6 160 158.5 158.6 159 159.4 159 158.4 156 153.9 152.8 152.3 150.4 146.8 143.9 141.4 138.3 133.4 131.1 128.2 132.2 140 148.6 153.4 157 158.8 159.7 160 160.2 160.5 160.6 160.5 159.5 158.3 156.8 154.3 149.2 145.9 140.7 144.6 149.9 152.3 153.2 152.1 149.8 145 138.9 133.3 125.3 124 122 119.7 119.8 126.5 130.6 130.3 129.2 125.2 121.1 117.2 113.7 110 106.5 103.4 99.6 98.2 96.1 95.7 95.7 95.8 96.3 96.5 96.2 100.9 103 108.7 109.3 109.6 113.3 115.1 115.9 117.1 118.6 120.7 123.4 125.6 127.4 127 124.6 118.1 109.6 102.1 102.2 108.3 117.4 126.4 133.5 138.4 141.6 141.8 139.9 138 140.5 143.1 144 143.4 141.1 140 144.6 147.3 150 151.3 151.9 152.3 152.9 152.7 152.4 152 151.6 151.2 150.9 150.7 150.8 150.8 150.8 150.8 150.5 150.3 150 149.8 149 148.1 147.1 146 144.8 141.5 137.3 134.8
119.8 123.9 128.2 130.8 141.5 150.7 157.2 164 169.2 171.8 173.6 172.3 168.6 160.5 165.9 171.3 176.1 177.6 178.9 180.1 180.3 180.1 180 179.4 178.4 177.5 176.3 174.7 172.8 169.6 167.1 163 158.5 150 155.8 163.2 168.5 170.9 171.7 171.5 170.9 170.6 169.9 169.5 170.7 170.5 169.8 168.8 168.6 168.7 168.7 168.4 168.3 168.7 167.3 165.8 164.9 164.8 164.3 163.9 163.5 163.2 160 156.6 155 153.8 153 153 153 152.7 151 149.4 148.2 147.3 145.4 142.9 140.6 137.8 134.7 133.9 132.8 131.3 135 143.9 151.6 155.8 158.9 160.4 160.7 161 161.2 161.4 161.6 160.6 159.8 159 157.3 153.7 148.6 148.5 146.8 150.3 152.6 154.2 155.2 152.8 150.5 144.3 138.1 131.6 128.1 130.2 127 122.6 123.5 131.4 134.3 133.6 133 130.1 126.6 120.6 114.6 110.9 107.8 104.9 104.3 101.6 98.8 96 95.5 96.1 96.8 96.7 96.6 96.4 100.7 103.7 104.6 106.3 109.1 109.8 109.4 110.5 111.8 114 116.5 118.3 121.3 122.7 121.2 117.8 110 102 100.2 105.9 116.2 124.4 131.5 137.3 139.6 139.7 136.2 135.6 138.8 141.5 142.2 140.9 137.6 138 142.7 146.9 149.4 150.7 151.2 151.8 152.3 152.1 151.8 151.5 151 150.6 150.1 149.6 149.5 149.4 149.3 149.7 149.5 149.3 149.2 149 148.7 147.9 147 145.8 144.5 142.5 140.4 138.3
118.1 120 123.4 128.7 134 144.1 151.3 157.8 164.4 168.9 170.8 170 164.2 156 164.1 168.8 173.2 175.3 176.8 178.5 178.3 178 177.8 177.8 178 177 175.5 173.9 172.1 168.9 165.5 159.3 152.4 145.6 157.7 164.4 168.6 170.5 171 170.4 169 167.7 166.8 167.5 168.8 169.7 169.2 168.3 168.1 168 167.9 168 168.4 168.8 167.1 165.6 164.3 163.8 163.3 162.9 163.1 163.1 160.9 158.4 158.7 157.7 156.4 154.1 152.4 150.6 148.9 146 145.2 143.5 142.7 141 139.4 139.9 140.5 139.5 140.8 136.1 136.7 144.9 152.7 158 160.1 161.3 161.7 162 162.2 162.4 162.2 161.6 160.8 160 157.2 153.9 153.7 152.3 150.4 153.2 155.7 157 156.3 154.4 151.3 145.5 138.7 132.6 134.8 135.4 129.7 124.1 128 135.4 137.5 137.7 136.6 134.2 131.4 124.6 118.6 113 109.3 105.8 104.5 104.3 102.2 99.7 95.6 96.7 97.4 97.1 96.6 96.5 97.7 99.3 100.5 102.4 103.7 103.6 104.2 103.9 105.3 107.2 109.6 111.7 116 118.1 117.2 116.3 110.4 102.4 98.2 103 113.5 123.1 130.6 135.2 138.7 136.1 133 135.2 138.2 139.6 139.9 138 133.6 136 140.9 146.4 148.9 149.9 150.7 151.2 150.9 150.6 150.5 150.4 150 149.4 148.9 147.8 147.7 147.7 148.3 148.6 148.4 148.2 148.1 148.1 148 147.3 146.6 145.9 144.6 143.5 141.5 140.1
118.2 118.6 120.1 123.5 128.2 136.1 144.4 152.2 159.2 163.6 166.7 166.6 160 153.9 161.8 166.8 170.9 173.1 174.7 176.3 176.4 176.3 176.2 175.9 175.7 176.1 174.7 173.2 171.3 168 164.7 157.6 150.4 146.2 157.4 165 168.2 169.5 169 167.3 165.8 164.2 164.1 165.8 167.1 168 167.9 166.9 165.5 164.8 166.6 168 168.5 168 167.4 166.3 164.6 163.6 163.6 164 164.3 163.6 162.6 162.5 162 161.3 160.5 159.3 157.5 156.3 154.4 149.3 146.7 146.2 146.9 146.6 146.5 146.9 147.7 148.4 146.4 139.8 137.5 145.1 152.7 157.4 160.6 161.8 162.4 163 163.1 162.9 162.7 162.5 161.7 160.9 159.1 157.8 156.8 155.6 153.7 156.5 158.5 158.4 157.3 154.4 151 145.7 138.4 137.7 139.9 138.8 132.4 125.8 131.6 139.5 142 142.5 140.2 137.9 134.5 128.3 119.3 113.7 111.2 109.6 107.7 106.1 104.3 101.6 99.3 96.3 96.8 96.8 96.7 96.6 94.6 95.6 96.3 97.2 96.5 96.3 98.2 98.6 99.3 101.6 103.1 105.8 111.3 113.7 114.5 113.6 110.3 103.2 97.8 100.6 111.2 121.9 129.6 134.5 137 134.2 131.5 133.8 136.2 137.5 137.1 134.1 130.6 134.2 140.9 146 148 148.8 149.7 149.9 149.4 149.1 149.1 149.1 148.7 148.2 147.5 146.1 146.1 146.6 147.2 147.4 147.3 147.2 147.2 147.1 147.1 146.7 146.3 146.2 144.9 144 142.6 141
118.9 117.5 118.5 120.9 124.3 129.3 137.3 145.7 152.7 158.2 161.9 163.3 158.6 149.9 156.5 161.7 166.7 170.1 171.9 173.8 174.9 175 174.9 174.7 174.8 174.9 173.8 172.3 170.5 167.3 162.2 154.7 146.4 144.7 156.9 163.3 167.2 168.1 167.4 165.1 163.4 160.9 160.9 162.9 165 165.9 165.7 164.9 164.3 162.8 165 167.1 168.4 168 167.6 166.9 165.8 165.1 164.5 165.2 165.4 164.8 164.5 163.5 162.8 162.5 162 161.2 159.9 157.7 155.4 150.9 149.3 151.2 154 153.9 154.2 154.5 154.9 154.2 149.1 142.8 139.1 144.3 151.5 156.5 161 162.2 162.8 163.3 163.5 163.3 163.1 163 162.6 161.8 160.7 159.8 159.4 158.7 157.1 159.2 159.8 159.7 158.1 155.3 151.3 144.5 141.7 144 145.2 141.8 135.4 128.7 135.2 142.7 145.4 145.9 143.5 141 136.4 129.9 119.7 116.5 117.9 115.1 112.5 109.9 107 104.6 101.6 97.8 94.2 95.4 95.1 96.6 93.6 93.4 93.8 93.3 93.3 93.5 93.6 93.9 95.2 97.5 98.1 101.3 105.2 108.3 109.4 110.6 108.7 104.2 97.7 98.9 109.6 120.6 128.3 133.3 135.6 132.5 127.8 131.6 133.4 134.2 133.3 130.2 127.9 133.5 140.7 145.7 147 147.9 148.8 148.6 148 147.7 147.7 147.7 147.3 146.9 146 144.7 144.7 145.4 146 146.3 146.3 146.2 146.2 146.2 146.1 146.1 146 145.9 145.2 143.8 142.4 140.9
119 117.8 117.6 118.6 121.4 124.5 130.8 138.9 146.5 154.1 158.4 160.6 157.9 149.4 148.2 154.3 161.1 166 169 171.2 172.6 173.5 173.7 173.4 173.1 172.9 172.3 171 168.9 166.1 160.2 152.2 144 142.8 154.7 161.9 166.2 166.3 165.7 163.5 161.2 157 157.7 159.9 162.1 163.4 163.5 162.9 161.5 162.2 163.3 167.2 168.2 168.1 167.7 166.8 165.8 165.1 165.3 165.5 166 166.6 165.5 164.1 163.6 163.4 163 162.4 161.2 159.2 156.1 152.7 152.2 157.5 159.2 159.8 159.8 159.2 158.5 156.7 152.7 147.7 143.4 142.1 151.4 155.5 159.4 162 162.9 163.5 163.8 163.8 163.6 163.5 163.3 162.6 161.8 161.1 161.6 160.5 159.3 160.7 161.2 162.6 159.5 156.1 151 144.9 147.4 149.2 148.6 143.9 137.5 131.3 137.5 145.1 147.9 147.2 145.9 143.5 138.3 129.2 123.7 122.2 125.2 123.6 120.1 116.5 112 107.8 104.5 100.8 97.3 93.8 94.9 94.6 93 93 93.3 91.4 91.7 93.3 93.5 94.1 93.6 93.1 93.6 94.7 98.3 102.1 104.9 106.1 106 102.9 96.4 97.7 108.4 119.8 127.6 132.5 133.8 130 124.9 127.6 129.9 131.1 128.9 124.3 125.9 133 140 145.1 146.4 147.1 148 147.4 146 144.6 145.1 145.2 144.8 144.3 143.4 143.2 142.9 143.6 143.8 144.2 144.6 144.5 144.5 144.4 144.2 145.2 145.7 145.6 145.2 143.8 142.1 140.5
