ncols 200
nrows 82
xllcorner 310000
yllcorner 604250
cellsize 50
324 298.9 281.2 268.8 272 279.6 289.8 302.6 316.5 329.9 340.9 350.2 361.5 364.8 365.6 365.3 370.4 376.8 382.8 390.8 397.8 403.6 409.3 416 422.2 428.9 430.9 430.3 431 429.4 429.2 431 434.2 435.6 434.6 438.4 443.2 450.7 455.8 456.7 457.9 453.7 443.4 429.2 421.3 416 415.4 420.3 424.2 423.6 422.4 418.1 411 404.8 391.5 376.1 360.8 352.6 347.2 341.9 335.7 327.9 319.3 310.1 300.7 291.2 282.8 272.4 262.1 251.7 239.9 225.3 210 192.3 176.4 162.7 149 141.6 136.8 134.2 134.6 134.9 135.3 135.6 136.5 138.5 140.4 144.1 153.9 164 171 179.8 190.7 190.2 194.8 215.8 230.7 240.4 252.2 262 270.9 279.6 290.1 298.4 309.9 321.5 332.9 347.8 364.3 383.6 404.2 421.8 431.8 438.7 434.6 429.8 426.5 424.5 426.6 431.9 442.8 453.7 462.9 476.5 494.6 508.6 522.5 533.3 540.8 552.2 562.6 577.2 589.9 598.3 606 609.5 612.5 619.1 619.7 611.8 602.5 591.9 579.8 565.6 551.9 539.1 527.5 512.2 499.2 486.3 476 466.2 456.4 442.6 426.8 412 409.8 405.4 405.6 403.6 399.6 394.2 386.8 377.8 373.9 375.2 381 387.4 396.1 405.4 417.4 431.8 446.6 464.1 481.9 499.9 519.4 532.4 536.9 538.8 542.8 548.6 557.2 568.2 577.9 587.4 595 601.3 607.6 614.1 620.2 627.3 634.9 641.3 646.7 650.3 652.6 652.4 648.4 641
311.4 290.8 275.3 266.9 273.4 282.7 294.6 308 321.4 331.8 339.7 350.8 359.5 363.6 364.2 362.7 366.7 373.5 382.5 387.3 392.5 401.9 406.7 410.6 415 420.8 423.7 424.4 425.6 425.5 426.6 426.7 423.7 420 419.4 420.8 427.6 431.5 437.2 441 444.5 436 427.8 419.9 414.3 411.9 410.2 410.8 414.7 414.3 415.4 410.8 402.1 394.2 383.7 368.4 353.7 346.3 340.2 334.2 326.3 317.9 309.5 300.8 292.9 285.2 277.1 268.1 259.2 249.1 233.7 217.2 200.9 184.2 167.3 152.5 142.5 136.4 134.7 134.1 134.3 134.5 134.7 134.8 135.7 137.3 142.1 151.1 161.3 168.4 177 188.7 202.2 212.6 221.7 225.8 211.7 233.9 228.8 244.4 246.6 260.2 276.4 290.6 303.3 315.4 329.1 343.6 358.5 375.4 391.4 407.9 421.7 428.5 431.1 431.2 426.3 423.9 425.7 431.9 440.9 452.2 464.6 478.9 493.7 507.8 519.2 527.4 534.7 541.9 552 565.5 579 593 604.4 612.7 618.2 619.9 618.7 612.6 604.1 594.6 582.3 565.9 550.3 536.7 523.4 510.8 499.1 488.2 477.7 467.7 458.2 444.8 428 412.3 401.2 400.6 397.9 395 392.3 388.2 381.2 375 376.5 379.7 384.3 389.9 400.2 411.1 424.4 438 453.9 471.4 488.9 505.8 517.8 520.9 522.5 530.9 540.5 549.7 557.6 566.2 575.3 583.4 590.2 597.3 603.9 610.8 617.3 624.1 632 639.5 646.3 650.8 653.3 653 650.1 643.1
301.1 284.3 267 267.7 275 286.3 299.7 312.9 322.6 331.4 339.8 349.8 355 358.6 359.5 361.6 364.1 370.3 377.4 380.6 388.6 397.3 401.5 406.6 411 416.9 418.5 418.6 420 421 419.7 416 411.2 408 406.1 406.7 410.7 415.9 421 427.5 429.7 422.7 418.3 415.4 412.6 411.3 409.3 405.6 404.5 405.7 407.9 402.6 395.2 386.2 376.7 361.6 348.2 340.6 333.8 326.5 316.9 308.1 300.7 294 287.4 280.5 272.3 263.7 255 242.7 225.8 208.4 192 176.6 160.6 145.6 139 134.8 133.7 133.7 134 134.4 134.7 134.7 135.4 139 149.2 159.5 168 175.8 184.3 198.1 210 219.9 228.1 235.7 243.3 250.8 255.6 260.4 267 272.2 268.2 267.1 291.4 307.4 322 336.7 351.4 363.4 378.4 393.7 404.2 412.6 424.2 427 422.2 419.4 421.9 429.3 438.4 450.3 464.8 479.1 491.3 503.7 511.5 517.5 523 530.3 538.6 547 561.5 579.6 594.9 608.8 615.2 617.9 615.3 611.1 601.3 592.2 576.2 558.7 542.9 530.5 518.4 507.3 496.6 488.1 478.7 468.6 459 446.3 429.7 414.8 404.1 394.5 393.4 390.7 387.6 384.3 378.5 376.5 379.4 383.1 387.2 394 404.4 416 429.2 443.1 459.9 474.4 485.8 493.4 496.5 499.3 503.6 521.2 535.6 543.6 550.9 558.1 566.3 573.5 580.2 587.7 594.9 601.7 609.3 618.3 628.4 638.5 645.8 650.9 654 653.7 650.8 642.7
294 279.9 266.6 268.3 276.3 289.6 303.9 314.1 322.9 331.1 338.2 345.5 350.8 353.7 357.3 359.1 362.4 367.2 371.7 376.7 385 392.6 397.4 403.4 410.7 412.7 413 414 413.7 410.5 406.3 403 398.7 393.1 392.2 392.5 399.6 405.1 407.3 411.7 418 413.3 415 413.9 412.2 409 404.8 400.9 397 398.3 401 396.2 388.5 379.1 367.9 354 343.9 335.9 327.9 318.8 309.2 302 295.5 290.1 284.4 276.3 267.2 257.5 246 230.9 215 198.8 183.1 168.8 155.3 143.7 137.2 134 133.4 133.4 133.5 132.2 134.2 134.8 136.7 146.6 156.7 166.6 175.2 182.5 193.3 205.6 215.2 224.3 232.6 240.4 248.4 255.7 262.4 269.9 275.8 282.4 288.4 291.6 278.1 287.9 309.1 325.1 339.5 352.3 365.9 378.1 388.9 399.8 409.7 413.5 413 412.1 417.2 424.2 434.4 446.5 459.6 471.7 483.3 492.6 498.6 503.2 510.4 516.9 520.5 530.8 549.8 566.1 582.5 598.5 607.8 611.4 614.7 608.2 596.7 581.7 565.7 547.6 533.8 523.7 513.7 504 493.9 485.7 476.8 467.1 457 446.2 431.9 417.9 407.1 398.3 391.6 386.9 384.2 381.9 379.2 379.3 380.5 386.4 391.2 398.7 407.7 417.6 428.7 441.2 453.4 461 465.6 468.1 472.2 478.3 496.4 511.4 522.7 530.9 539.1 546.1 553.3 560 566.5 573 579.9 587.6 599.6 614.8 627 637.3 646.3 652 654.8 653 647.6 637.1
289.2 274.4 263.4 269.2 278.9 292.5 304.8 315.8 324.1 329.9 336.4 342 346.8 349.8 354.1 357.9 360.5 364.7 369.7 376.1 380.6 387.8 394.3 401.3 405.8 407 408.2 409 405.5 400.2 395.6 393 388.9 383.9 381.1 382.7 387.8 392.3 394.5 400.7 404.4 411.6 414.4 414.6 411.2 405.2 400 396.5 392.6 390.5 391.9 387.8 380.3 373.6 361.5 350.9 341.6 333.3 324.3 314 305.6 298.6 293.5 289.1 283.4 275.1 264.3 251.2 236.4 220.5 205.1 188.5 173.2 161.5 151.3 140.9 134.3 133.3 133.5 133.7 131.7 133.5 134.2 135.6 144.2 154.9 163.5 171.8 180.3 189 201.3 211.3 219.1 227 235.4 243.4 251.4 259.4 266.7 274.7 281 287.7 295.6 303.6 309.7 308.7 291.3 310.7 328.6 341.2 353.8 366.2 378.2 387.9 396.3 399.7 402.2 404.5 409.3 415.6 426.5 438.5 449.7 468.1 477.6 482.8 491.4 497.6 502.6 505.9 510.7 522.9 537.5 552.1 569.2 586 596.4 606.4 610.1 601.6 588.1 573.7 555 538.3 526.5 517 507.3 496.8 486.6 477.2 468.1 459.1 450.9 442.6 431.7 419.4 407.8 399.4 393.1 387 382.7 382 379.1 381.4 382.5 388 394.2 400.7 408.1 415.2 424.3 431.9 437.4 438.4 441.3 445.2 453.9 465.9 481.6 495.9 505.6 514.9 524.5 530.9 536.6 540.8 545.4 552.3 572 588.1 603.1 616 629.6 642.6 651.2 656.3 655.7 649.4 639.8 628.2
282.2 269.3 262.1 269.8 281.6 294.3 305.2 317.3 322.6 329.2 335.6 339.7 343.4 347.6 351.2 354.4 358.7 363.6 367.7 372.8 378.2 383.7 390.2 395.3 397.8 398.9 399.3 398.7 395.8 390.6 386.8 383.7 379.7 375.8 371.9 371.2 374.5 380 384.4 392 402.3 411.6 414.9 412.3 407.1 400.8 395.4 392.7 388 380.6 381.2 378.2 371.4 364.4 357.4 347.6 339 332.8 322.9 312 303.5 296.8 292.4 288.4 283.7 275.4 264.4 250.4 232 215.3 199.9 179.4 163.4 154 147 138.1 133.1 133 133.2 133.5 133.3 133.4 134.5 143 152.2 161.4 169.9 175.9 185.1 196.7 207.8 215.5 223.1 230.6 238.5 246 254.4 261.2 269.9 278 287.2 295 303.8 312.9 322.4 329.6 326.6 316.4 298.9 325.9 342.8 354.4 366.3 376.4 382.5 387 390.5 393.3 394.7 417.9 434.6 450 464.2 476.9 485.4 492 497.2 502.1 505.4 508.8 513.6 523.4 534.2 546 561.2 578.2 587.8 597.6 601.6 591.7 580 564.3 546.3 533.4 522.9 513.3 504 493.3 477.1 473.1 462.8 449.6 442.9 436 422.7 413.6 405.4 398.1 393.8 389.7 387.6 384.1 381.5 383.7 387 388.1 392.2 399 404.2 409.4 414.1 418.4 422.3 425.7 424.8 433 444.8 454.5 464.5 475.6 484.7 495.1 503.1 508.6 515.5 533.6 551.4 568.4 583.6 596.3 608.1 621.7 638.2 651 658.7 660.8 656.1 645.7 633.1 621.5
274.4 263.6 260.6 273.1 283.4 294 304.5 315 321.2 327.5 334.5 339.6 343.4 347.4 349.8 351.6 357.9 362.4 368.4 374.2 377.5 381.1 386.6 390.2 391.5 391.6 390.4 390.4 388.7 385.2 381.8 375.8 373.5 368.3 363.7 363.2 364.9 368.7 375.3 383.5 398.5 410.6 411.4 407.2 401.3 395 388.8 384.8 379.9 372.8 370.4 367.6 363.6 358.6 352.2 342.8 335.5 329.3 319.3 309.4 301.7 296 292.7 290 284.7 275.7 264 250.6 231.4 213.3 192.9 171.4 155.4 146 140.7 133.9 132.5 132.1 132.8 133.1 133 133.7 142.3 150.1 158.2 166.6 175 182.1 192.5 203.9 212 219.2 227.1 234.8 242.4 250.2 256.6 265.7 274.1 283.1 293.8 303.2 312.5 322.2 332.9 343.2 346.5 342.7 333.3 325.1 318.7 342.9 356.9 363.1 362.3 367.1 379.3 392.6 408.4 422.4 440.1 458.7 476.7 490.6 500.9 507.1 512.2 516.8 520.4 524.8 531.9 539.7 550.4 557.6 566.4 575.8 584.7 592.4 594.4 587.4 574.5 556.7 542.6 530.6 520.1 511.5 502.1 496.3 493.3 485 472.9 461.9 451.2 440.9 429.7 418.6 409.2 403.8 399.1 394.5 391 386.4 382 386.2 392.8 396.4 397.8 399.3 403.7 405.7 409.4 415.4 417 419.6 433.8 443.3 448.2 451.2 459 469.2 480.5 493.1 505.5 520.1 536.7 553.9 568.7 582.2 596.2 609.4 623.4 637.9 649.8 659.3 663.7 663.8 658.4 646.3 632.1 619.8
268.1 258.6 266.1 277.8 288 297.9 308.1 316.4 323.9 330.5 336 341.7 345.9 349.3 350.5 352.2 355.5 361.5 368.1 373.6 377.7 380 384 384.9 385.1 383.8 382.5 382.7 380.4 378.5 374.7 369.7 366.3 360 358 358.3 360.3 364.4 370.7 382.7 396.9 407.5 406.4 401.5 395.1 388.7 382.4 377.1 371.3 364.5 360.5 358.8 355.7 353.7 349.1 337.5 330.1 321.6 313.1 306.2 300 296 292.8 290.1 284.8 273.8 260.2 245 228.4 208.7 184 163.9 149.8 139.6 134.7 132 132.2 131.9 130.1 132.1 132 137.5 147.6 154.7 162.4 171.6 180.2 188.6 199.7 208 215.2 222.8 230.9 239.3 247 253.7 261.5 271.8 281.6 291.5 301.4 311.3 321.3 331.4 343 354.8 360.2 361.4 355.3 349.2 344.2 337.5 338.4 352.2 371 381.9 389.9 399.3 411.6 426 445.4 465.4 483.7 500.4 514.7 525.8 530.9 535 538.7 545.6 556.1 564.5 572.4 578.7 581 583.7 590.3 597.1 596.1 587.1 571.3 553.8 540.5 528 518.4 505.2 507.6 506.2 504 496.8 483.9 473 461.9 447.6 434.3 423.3 412.5 407.2 402.7 398.1 394.6 388.6 384.6 389.6 396.5 401.5 404.9 410.4 416 420.1 425.3 430.5 433.7 435.1 436.4 437.3 448.7 454 462.7 474.5 491 505.4 521.6 536.2 553.4 568.5 583.3 598.5 614.4 627.8 639.1 649.1 658.3 664.9 665.9 665.8 662.8 652.2 636.5 623.9
261.1 255.4 269.9 281.2 292 301.2 310.6 319.2 326.7 333.5 339.9 345.4 349.7 352 352.4 353.1 354.9 360.4 368.2 373.9 377.7 378.5 380.2 379.1 377.6 374.7 373.6 373.6 372.6 370.8 366.9 363.6 358.3 355.2 354.3 355.1 357.9 363.4 371.7 382 393.4 400.3 399.8 395 388.8 381.9 376.3 370.7 364 359.6 352.3 348.8 347.3 345.8 340.8 329.7 322.7 314.8 308 303.2 299.6 296.6 293.2 289.1 281.6 269.6 254.9 236.2 218.4 199.5 174.2 154 142.7 135.3 131.3 131.2 131.7 131.5 131.8 131.4 133.3 143.3 151.6 160.2 168.2 176.2 184.8 194.7 203.9 210.7 218.8 228.2 235.8 243.8 252.3 259.1 270.8 279.4 288.9 299.2 310.7 320.2 329.6 340.1 351.7 363.6 374.1 377.6 374.6 368.9 365.5 361.8 351.5 346.5 371.3 385.2 392.9 401.2 412.9 427.9 445 462.1 481.6 500.4 519.7 534 540.9 546.7 554.5 565.9 579.8 591.2 596 598.3 598.2 598.7 603.1 605.2 600.4 586.9 570.4 553.3 541.1 530.1 518.5 519 516.7 517.4 514.4 507 495.9 486.1 472.9 455.1 439.4 428.1 417.8 412.9 407.8 402.5 398.2 391 385.4 393 398.8 405 411.7 420.9 429.3 435.9 442.5 449.1 453.4 455.7 454.9 451.8 449.3 452.1 464.2 478 497.1 512.5 527.3 544.9 564 581.6 597.9 612.3 626.6 638.8 648.2 655 661.6 666.9 668.1 668.5 667.4 659.6 649.7 635.9
252.9 259.6 275.3 287.4 297.4 306.8 315.4 324.1 332.8 340.9 347.4 351.3 353.5 353.9 353.4 354 355.9 361.5 367.7 372.5 375.2 373.9 373.8 372.6 370.9 368.5 367.5 366.8 366 363.4 358.5 355.3 352.8 352.2 352.5 353.3 357.2 363.9 372.5 381.6 390.4 395.6 393.1 387.7 381.9 375.5 372.7 364.9 359.2 355.4 348.9 341 339 336.5 329 320.8 315.1 309 305 302.4 300.1 296.9 293.6 288.2 278.5 265.6 249.3 228.6 208.7 187.5 163 144.3 135.8 131.5 131.3 131.4 130.1 132.4 130.5 132 136.9 147.1 158.7 168 175.5 182.6 190.6 199.4 206.8 215.2 224.7 234.2 242.5 250.8 260.1 271.8 277.2 284.3 295.4 306.2 317.7 326.5 335.3 348.7 361.9 374.6 385.8 389.6 389 385 382.4 379.1 375.7 361.8 357.9 381.2 393.5 401 411.4 426 441.7 457.8 476.4 493.9 513.1 526.2 535.2 545.6 558.2 573.6 591.2 603.8 611.7 616.7 616.7 615.8 614.3 613.2 601.5 589.6 577.2 559.8 546.4 534.5 531.2 527.7 529.6 530.2 525.1 519.4 508.6 496 478.8 460.3 443.8 432.6 427.4 421.4 414.3 407.4 401.5 391.8 389.9 396.8 400.8 408.5 419 430.1 440.6 450.8 459.6 467.1 472.8 476.9 476.8 471 463.5 456.5 465.4 480.4 500.7 518.1 532.3 548.9 568.3 587.8 604.4 620.1 633.2 643 649.7 653.4 659.3 664.9 668.4 670.1 670.8 668.2 662.1 649.7
254.3 271.2 279.7 291 301.1 310.7 320.4 332.8 342.3 349.1 353.3 355.8 356.5 354.7 353.9 355.1 356.4 360.8 366 369.2 369.3 369.3 368.3 367.2 365.5 363.1 361.7 361.4 360.2 355.7 349.8 348.2 348.9 349.7 351.4 353.2 357.6 364.1 372.6 380.4 386.9 390.6 386.8 379.8 373.8 371 367.7 362.9 356.3 352 343.7 332.7 329.1 323.9 316.8 312.2 308.7 305.7 304.3 302.8 300.4 297 292.7 286.1 274.4 259.5 239.3 215.9 195.5 173.5 150 134.7 131.3 129.6 131 131 133.8 134.7 135.8 136.9 142.9 157 165.2 172.9 180.2 187.5 195.1 202.3 211.4 222.2 232.1 242.1 250 259.9 270.1 277.7 284 293.3 301 311.2 320.1 330.2 344.2 360.6 375 386.2 395.7 401.5 403 401.3 398 394.1 389.8 383.6 363.4 371.7 393.7 401 411 422.8 435.5 450.6 465.7 480.8 497.4 510.4 524.3 536 550.7 570.8 591.6 607.8 619.8 630.3 630.8 627.8 624 620 611.1 601.2 585.4 565.5 554 547.8 544.6 541.2 545.3 545 538.8 532.1 516 498 480.5 463.1 449.2 442.8 436.6 428.9 420.2 412.7 404.3 390.6 395.2 400.9 406.4 415.1 427.4 438.9 450.8 463.6 474.6 485 492.9 497.9 498.4 491 480.7 469.6 466.6 480.7 500 519.3 536.5 553.6 570.7 588.1 604.4 620.6 631.6 639.8 643.6 647.5 651.6 660.3 667.4 672.1 674.3 673.9 671.5 664.8
265.2 277.2 288.1 298.3 307.7 319.5 331.2 342.4 350.1 355.3 358.2 359.3 357.3 354.3 353.2 353.9 356.6 359.9 362.5 363.5 364.3 364.5 362.9 362.2 360.4 356.3 354 353.5 351.7 349.1 346 345.2 346.5 348.4 351.7 355.2 359.2 365.3 374.3 382.6 384.5 383.9 377.5 369.9 366.8 367.4 366 357.7 348 342 330.9 322.1 314.7 311.2 309.5 307.6 305.5 305 304.7 303.2 300.6 296.8 291.6 282.5 267.2 247.2 224 201.8 182 158.8 135.1 130.6 130.9 130.3 131 132.1 134.7 136.7 139.1 141.6 150.9 162.6 169.2 176 184 191.5 199.7 209.5 219.9 230.2 240.1 249.4 259 268.7 277.1 284.4 292.6 302.5 310.1 316.9 327.9 340.8 356.6 375.1 389.5 399.9 410.4 419.1 422.3 419.7 414.6 409.7 403 395.9 381.4 371.4 395.8 402.7 410 419.1 429.2 442 452.9 465.9 481.4 494.8 508.8 521 537 558.9 584.7 605.9 620.7 631.1 635.5 636.1 632.6 626.1 622.2 610.2 588.7 570.1 562.3 562.6 560.5 559.2 561.8 559.1 553 539.7 519.6 498.2 481.9 470.8 461.2 453.6 444.4 434.4 425.4 416.5 405.3 394.5 401.3 405.3 412.1 422.7 435.4 448.3 461.3 476.7 492.1 504.8 513.8 519.8 520 509.7 495.1 479.7 469.3 482.7 500.3 519.8 536.9 554.4 569.2 583.7 596.5 610.4 620.1 626.5 629.6 634.5 641.4 651.7 662.6 671.5 676.9 678.8 679 676.5
275.7 287.3 296.8 308 320.7 332.1 342.8 351.1 356.6 359.6 361.3 360.5 357.9 354.1 352.4 352.9 355.4 358.2 357.9 358.5 359.5 359.1 357.5 356.6 353.6 350.5 348.2 345 342.3 342 341.5 343.2 344.6 346.6 352.1 356.9 360.8 369.1 378.1 378.6 375.5 373.7 364 360.5 360.1 362.3 358.2 348.6 335 325.7 319 312 305.6 304.5 304.2 304.1 304.7 305.8 306.5 304.2 300.5 296.2 289.3 275 254.2 231.2 207.1 185.9 166.2 144.7 130.5 130.3 128.2 130.5 130.4 132.5 134.9 137.3 139.5 142.6 152.1 164.1 172.1 180.2 188.6 197.3 207.7 217.9 228.3 238.5 248.5 258.2 267.8 276.1 284.6 293.8 303.1 313.8 321 328.5 340.1 355.9 373.1 391.8 407.4 417.2 426.4 436.6 440.2 436.3 433.2 427.4 415.4 404.2 393.2 373.7 391.7 401.7 408.1 414.4 422.6 431.8 442 453.8 465.9 479.2 493 506.8 523.9 545.8 572.2 597.1 612.9 624.7 633.4 638.2 638.3 635.2 625 609.8 589.1 576.7 575.2 575.8 575.5 575.6 575.4 571.5 562.3 545.9 523.5 508 496.5 483.9 474 460.9 449.7 437.6 429.1 419.2 407.3 395.4 404.2 409.2 417.2 428.8 441.5 456.2 471.2 488.6 510.5 524.5 532.8 538.2 535.9 522.2 506.4 490.6 476.3 485 500.3 518 533.2 547.3 561.1 574.4 582.3 594.3 602.8 608.6 614.6 622.9 631.8 643.4 656.5 668.2 676.9 682.8 685.7 684.8
287.4 297.4 308.8 320.7 331.5 341.8 350.7 357.5 361.5 363.9 363.5 361.5 358.8 354 351.6 351.6 353.2 354.5 354.9 354.1 353.9 353.5 351.1 348.2 344.2 341.8 340.2 338.5 338.8 337.9 338 340 341.5 344.4 350.9 357.7 364.7 372.8 373.4 367.8 361.6 356 351.3 351.7 352.5 352.1 345.4 333.5 324.3 312.7 307.7 302.5 300.7 300.3 301.3 303.1 306.7 308.9 308.3 305 301 295 281.9 261.5 238.6 215 191.7 171.2 151.1 132.7 130.1 129.9 130 131.1 130.3 132.5 135.3 136.4 144.3 152.1 159.3 166.7 175.7 185.2 194.3 205.4 216.6 226.9 236 246.2 256.2 266 274.6 283.3 292.5 303.3 313.3 323.3 334 343.5 357.1 373.2 390.3 408.4 426.2 437 445.9 453.4 457.1 455.6 452.9 443 427.7 412.5 400.1 384.9 377.4 391.6 399 404.1 410.1 420.5 432.3 444.3 457.1 469.5 483.1 498.3 514.8 535 557.1 583.9 605.1 618.6 630.3 639.9 642.2 636.2 625 607.4 594.8 586.3 588.1 588.6 589.8 589.6 585.8 580.7 569.6 553.5 536.6 523.6 506.8 492.4 480.9 464.8 450.3 438.5 430.9 422.1 411.8 397.7 408 414.1 421.9 433.5 446.9 464.6 482 499.4 519.8 535.1 543.7 548.2 546.2 533.4 517.6 502.1 488.3 485.3 496.9 511 526.8 540.8 552 557.9 567.9 578.6 585.5 592.7 599.2 612.6 624.2 637.9 651.8 665.7 676.9 686.1 689.2 689.9
299.1 309 320.2 329.9 339.8 348.2 355.1 361.2 364.6 365.4 364.6 362.1 358 352.8 349.3 349.1 350.3 351.6 353.8 350.6 347.4 344.6 343.2 340.2 338.1 335.6 333.9 334.9 335.3 334.9 334.5 334.9 337.7 342.4 349.1 356.8 366.3 369.1 362.4 355.5 349.8 344.9 343.1 343.9 343.2 337.9 330 322.6 310.7 304.7 300.5 297 297 298.2 301 304.9 308.7 310.5 308.7 305.3 300.4 287.3 267.3 245.6 222.5 198.8 178.3 158.9 138.9 129.7 129.9 130 131 131.8 133.1 135.8 138.1 145 153.7 160.7 167 174.7 180.6 190.3 202.5 214.8 225.1 234.4 243.7 253.6 263.2 272.6 280.7 290.3 300.1 310.5 321.9 334.7 347.6 358.8 373.4 389 406.5 424.5 443.7 456.9 464.2 470.8 475.5 476.2 470.8 457.5 438.5 420.8 408.8 402.1 391.7 390.4 397.9 406.9 413.5 418.9 425.3 433.4 450.9 465.3 478.5 493.4 509 527.1 547.5 571.8 595.9 614.3 626 637.1 639.6 634 624 607.8 601 596.5 595.8 597.2 598.5 596.7 591.4 585.5 576.3 564.1 552.5 535.3 516 497.3 481.6 463.4 448.1 439.5 431.8 424.8 414.5 401.7 411.3 418.1 426.6 437.7 453.9 472.2 490.7 508.5 527.1 540.5 549.3 554 554.5 544.7 529.1 514.2 501.7 489.2 495.6 507.5 520.6 532.7 541.3 547.1 554.4 563.6 568.6 578.5 589.7 604.6 620 636.8 652 664.1 675.2 684.8 689.4 689.8
307.9 317.2 325.1 333.8 344 351.2 359.1 365.3 365.7 365.5 364.4 361.2 356.6 351.3 347.4 346.7 347.6 349.2 352.4 347.2 339.2 336.9 336.8 336.8 335.1 332.9 330.6 329.7 329.4 329.2 329.6 330.3 333.8 339.5 346.7 353.8 361.7 360.6 351.5 343.8 339.5 336.7 335.5 333.9 329.2 324.3 317.3 309.3 302.6 298.7 294.8 294.2 295.3 298.4 302.3 306.6 309.6 309.7 307.4 303.4 291.7 272.8 251.2 229.4 207.4 186 167.4 148.7 126.7 129.3 130.9 130.8 131.9 132.6 139.9 141.6 144 150.4 158.4 165.8 173.3 181.3 189.7 197.7 208.5 222.4 232.2 240.3 249.2 258.1 267.5 277 285 294.7 304.9 318.1 332.8 345.5 358.3 372.1 387.8 404.4 421.3 439.3 458.6 474 482.5 490.2 497 497.2 487.2 468.9 448 429 418.4 411.4 404.1 403.6 410.5 418 426.4 433.7 440.3 447.5 458.8 466.1 480.1 493.6 507.7 524.1 542.2 563 587.5 610.8 623.3 634.4 639.9 636.7 618.6 608.1 604.5 600.9 598.2 599.2 600.3 597.3 592.7 588.9 582.5 573.9 562.7 542.4 519.3 496 476.7 458.6 446.2 439.2 433.3 426.9 417.5 408.3 411.5 420.3 430.1 443 461 479.7 498.2 516.6 532.3 544.1 553.5 559.2 562 556.7 540.7 525.7 513.3 503.6 500.1 507.9 516.9 527.4 534.6 541.8 549.5 556.7 563.6 571.9 585.5 602.1 617.6 632.9 647.3 660.3 672.1 680.4 680.7 673.2
311.5 319 326.2 337.4 347.4 353.5 361 366.3 366 365 363.1 359.9 355.7 349.6 345.3 343.7 344.1 344.7 346 340.2 333.6 332.5 333.1 332.8 331.6 330.3 326.4 324.2 324.3 323.5 325.1 327.3 331.3 337.7 345.5 354.5 357.3 349.4 339.6 334.4 330.9 330.2 327.1 322.5 317.1 312.1 307.6 301 296.3 293.5 292.2 292.6 295.9 299.8 303.8 306.6 306.9 305.3 301.5 293 275.9 255.7 235.3 213.6 194.2 175.6 156.9 137.6 129.4 130.9 132.3 133.2 135.1 137 143.2 146.8 151.1 157.6 165.9 171.3 178.6 187.4 198.3 208 217.5 220.8 235.2 244.3 253.9 261.8 271.3 280.3 289.1 297.9 307.8 321.8 332.9 343.4 356.3 372.1 388.6 405.4 422 439.6 460.7 480.1 497.1 504.5 509.7 509.8 497.2 478.7 457.6 438.6 428.6 422.2 416.6 417 424.1 432.8 441.2 449.9 456.1 464.2 472.3 478.8 483.6 496.9 510.5 526.4 541 561.2 583.9 607 621.6 633.5 641.2 626.2 613.1 609.2 604.9 600 594.9 594.6 595 593.1 592.3 589.9 584.5 577.1 560.9 540.6 515.4 490.8 470.9 454.7 445.6 438.2 433.2 428 420.1 414.8 410.4 420.3 432.4 446.6 465.3 484.4 503.6 521.9 536.6 547.8 557.2 564.3 569.6 568.5 552.1 535.5 524.6 515.4 509.8 514.8 522 531.1 538.4 544 549.6 556.5 562.8 572.4 585.6 599.5 613.3 627.7 643.3 655.6 662.5 659 648.7 639.7
310.2 317.9 329.4 338.2 345.1 351.3 358 363.9 365.3 364.5 363.2 358.8 353.1 347.5 343.9 341.2 340.1 339.4 338.1 333.9 330.9 330.2 330.4 329.9 328.9 323.4 319.2 319.7 319.5 319.5 322.2 325.3 329.6 338.3 347.8 354.4 348.1 336.9 331.6 327.8 325.2 323.8 320.8 312.3 307 303.3 300.3 295.9 292 290.7 290.6 292.4 296.9 300.8 303 302.9 301.7 299.4 292.2 278.8 259.2 238.4 218.5 199.7 182.1 163.8 145.5 127.8 130.6 133.2 134 135.1 136.5 140.3 147.7 151.8 156.9 162.5 169.8 176.7 185 194.8 204.3 214.8 224.9 233.2 239.4 246.8 254.3 263.7 273.3 281.3 290.2 298 307.1 318.3 326.9 336.1 349 362.6 377.3 393.2 409.2 425.2 449.2 474.7 495.1 506.1 510.5 511.9 503.8 488 469.6 451.2 438.6 433 429.2 429.9 437.3 445.7 456.5 468.5 479.8 489.5 495.1 499.3 502.4 505.3 514.5 527.5 542.9 563.5 584.5 602.6 620.9 635.9 631.2 616 611.9 607.2 602.3 595.1 588.4 586.2 585.7 586.1 587.2 585.1 580.6 570.6 556.3 538.7 514.4 490 468.1 454.1 445.6 439.3 434.4 429.5 422.8 421.9 417.3 419.4 431.1 444.8 463.8 485 506.4 526.4 542.1 553.4 563.4 573 579.4 578.6 563.3 546 535.8 527.2 520.3 519.3 528.3 535.4 541.5 546.5 551.2 558.6 566.4 576.5 588.6 601.1 613.1 624.7 635.1 636.9 636.3 631.6 621.4 612.8
308.1 319.6 330.6 334.7 339.4 347.6 356.8 361.9 363.6 364 360.8 354.9 349.7 345.3 341.6 338.7 336.7 334.9 332.8 330.1 328.8 327.3 326.9 326.6 321.6 314.4 312.8 313.6 314 315.6 320.4 324.2 331 340.7 347.8 346.5 337.7 331 327.9 325 322.3 321.3 312.3 304.1 301.4 299.2 294.8 291.3 289.6 288.5 289.1 292.1 296.4 299.2 299.2 298 296.2 292.2 282.8 266.8 244.1 221.8 201.8 183.7 167.5 150.6 130.9 128.7 130.9 133 135 136.5 138.9 144.3 150.2 154.6 159.9 167 174.4 182.3 193 202.1 210.9 220.8 230.2 237.9 243.7 250.8 259.5 267.9 275.3 281.2 289.5 296.8 303.6 314 322.3 331.1 344.1 355.6 366.8 379.7 393.6 408.6 430.6 457.4 477.8 490.8 503 510.4 507.5 495.7 479.9 463.6 449.8 442.9 440.6 441.8 448.9 457.4 470.5 487.7 502.3 514.5 520.7 523.1 523.5 523.1 523.2 533.9 549.1 567.7 583.8 602.5 625 633.3 616.4 611.8 610.1 604.4 598.4 591.2 583.4 575.6 571.7 571.5 575.3 576.3 572.7 562.7 551.3 536 513.9 491.1 469.5 455.2 446.8 441.2 436.1 430.6 428.6 427.9 423.8 416.5 428.3 442.7 462.2 486.2 510.2 531.5 548.3 560.6 571.7 581.6 589.7 588.6 573.4 557.9 546.7 537.6 530.9 528.8 533.4 539.2 544.8 549.4 554 563.6 572.2 581.9 593.3 607 615.7 621.2 622 620.3 614.4 605.4 598.1 599.2
306.1 318.2 326.5 328.7 334.2 343.1 353.4 359.2 359.9 358.9 353.8 350.3 346.5 342.1 338.9 335.5 332.7 330.8 329.4 327.3 325.6 323.4 322.1 318.2 313.1 309.7 308 307 307.7 311 316.6 325.1 336.4 342.4 345 340.5 333.7 328.6 327.1 323.4 321.4 313.6 306.1 300.6 298.5 294.4 290.3 288.4 286.6 286.8 288.7 291.4 294.5 294.5 293.2 292.4 289.5 281.8 269.3 250.6 226.7 204.6 185.2 167.7 153.7 140.1 127.8 130.2 132.3 134.4 136.6 137.3 139.8 143.7 151.4 156.7 164.5 171.7 178.7 188.2 197.9 208 217.4 225.6 232.9 240 246.4 254.2 262.9 271.8 279.2 286.7 293.8 301.3 308.1 314.6 317 328 338.1 348.2 359 370.8 383.3 396.2 413 435.5 456 470.4 484.5 495.8 502 500.6 488.5 474.4 463.1 453.7 450.4 451.4 457.1 465.9 482.4 501.3 520.9 538.4 548.1 550.9 549.7 547.7 543.7 548.2 557.1 571.1 589.8 611.2 627.4 617.8 608.5 607.5 605.5 599 593.7 587.4 578.9 568.4 555.9 553.2 558.2 563.2 562.4 555.4 545.9 532.5 511.2 489 470.1 457.5 449.1 443.1 438.3 435.1 435 433.5 428.2 423.2 425.8 439.6 459.9 485.7 511.7 535.5 553.9 567.4 579.4 591.5 599.8 597.2 583.8 566.9 555.4 548.2 541.4 537.6 539 543.9 549.9 555.3 563.6 572.4 580.9 589.5 598.2 605.5 610.6 613.7 608.7 601.8 594.5 587.9 587.4 586.6
301.6 312.1 319.3 324.3 332.2 339.5 348 353 351.7 351.3 349.3 346.9 342.4 338.7 335.4 332.4 329.4 327.6 326.5 324 321.5 318.5 315.6 314.4 309.3 305.4 303 303.5 304.7 307 313.8 326.1 338.3 343.9 344.9 337.6 330.9 328.2 326.7 322.3 319.6 308.2 301.6 297.4 293.2 289.3 286.7 285.4 285.4 286.7 288.6 289.9 289.5 288.2 286.8 284.5 278.2 267.3 253.1 232.4 209.6 188.7 169.5 155.2 145.3 131.2 128.3 130 132.9 135.8 138.1 139.5 139.6 142.5 152.1 162.1 169.1 175.5 184 196 205.1 214.1 223.2 229.8 236.7 243.3 250.1 258.7 266.9 274.8 284.2 293.4 302.7 313.6 322.1 326.9 331.3 332.6 335.7 337.6 350.3 363.9 375.4 388 400.6 417.2 434.7 450.5 465.8 479.4 489.7 497.5 497.5 485.6 474.1 464.6 461 460.9 467 476.8 493.3 510.8 533.9 555.6 570.2 576.7 578.3 576.2 574.1 574.1 571 580.6 598.9 614.3 617.9 605.6 602.2 601.2 597.4 591.2 587.2 581.8 573.1 562.9 547.6 535.9 538.5 545.1 548.9 548.5 542.2 529.9 512.5 489.6 469.6 458.5 452.5 448.4 446.1 447 443.9 439.2 432.5 428.4 423.8 436.6 459.3 485.8 512.5 537.9 558.2 574.9 590.9 602.5 609 605.2 590.1 573.3 561.6 554.2 547.3 544.1 546 551.9 558.3 565.6 576 582.2 587.8 595.2 600.8 601.9 606 606.4 595.7 589.7 587.8 581 577.7 574.6
294.3 304.2 312.7 319.3 325.6 334 341.5 342.2 343.8 345.2 345.8 342.5 337.4 334.2 331.6 328.9 326.2 324.2 322.9 320.9 317.7 314.3 312.2 310 306.2 302.2 299.1 301.1 302 304.8 312.9 324.6 336 344.8 343.3 336 330.9 327.5 324.3 318.8 309.1 302.6 298.2 292.5 288.2 285.4 283.8 283.1 285.1 286.8 287.3 285.7 283.7 281.9 277.8 271 261.1 250.4 234.5 214.4 195.5 175.8 157.8 147.3 140.8 124.1 128 131.3 134.2 136.8 139.7 142.5 144.8 146.1 152.9 162.7 173.3 180.7 191.3 203.2 211.6 219.2 226.6 233.7 240.1 248.1 253.9 261.9 270.3 281.7 291.9 304.9 320.8 332.8 336.8 343.2 345.7 347.4 348.7 350.6 352 355.5 368.1 380 391 403.2 417.3 430.9 447.2 463.4 477.9 491.2 502.2 495.4 483.7 475.5 473.8 474.1 477.8 488.1 502.7 520.1 545 568.8 584.6 594.7 602 604.6 606.2 602.2 599.9 601.3 607 610.9 605 597.3 595.9 592.4 586.4 580.8 579.9 573.5 565.4 555.1 540.3 524.9 520.5 527.5 536.3 541.3 538.4 527.8 512.9 491.8 471.5 465.1 463 463.7 462.9 459.9 454.7 446.2 437.1 434 430.2 435.6 459.8 486.7 513.7 539.5 562.3 582.6 599.5 610.4 614.9 609 595.7 577.7 565.4 557.1 550.1 550.5 554.6 560.3 566.6 574.4 583.6 590 589.2 596.4 598.3 594.5 592.5 588 585.5 580.8 575.2 573.5 569.2 563.4
291.1 299.5 307.4 313.8 319.3 326.5 331.6 333.2 336.8 341.6 341.5 336.7 332.3 329.2 326.9 324.6 322.7 320.8 318.9 316.6 313.7 311.5 308.9 305.9 302 299.3 297 297.8 299.3 303.6 313.5 322.8 333.1 339.6 337.2 334.9 328.4 324.3 316.4 308.1 302.2 297.5 292.5 287.5 284.5 282.3 281 281.9 284.2 284.9 282.8 280.3 277.8 273.6 264.8 254.5 244.3 232.5 216.6 199 182.9 164.7 149.5 140.6 132.4 126.3 128 128.9 129.8 135.5 143 144.6 148.3 152.2 151.8 165.5 177 183.4 194 206.2 215.1 223.4 229.9 236.4 243.3 252.3 258.3 266.3 276.9 288.2 302.4 319.3 336 344.9 354 359.3 364.7 366.8 368.5 366.2 363.4 363.1 359.5 367.7 381.8 394 404.9 417.7 433.2 448.3 464.5 480.8 494.2 502.2 492.1 485.1 485.4 489 494.7 502.9 513.5 531.9 556.5 579.3 596.9 609.3 619.1 625.2 626.6 625.3 623 619.3 612.5 603 595 587.1 582.3 576.8 571.1 570.6 568.3 562.8 555.2 544.7 532.6 519.9 510.5 514.7 526.3 535.2 533.9 526.4 513.5 494.3 479.4 475.2 474.8 476.2 475.9 471 464.4 455.9 445.5 440.4 435.8 437.9 461.7 488.2 515 541.7 565.1 585.9 602 614 618.3 612.7 594.1 575.9 566.9 561.4 556.7 558 563.2 567.8 572.8 580.1 587.8 589.4 584.5 583.8 583.4 580.3 577.8 572.6 568.9 566.4 563.9 563.5 557.3 551.5
291.6 298.5 303.7 309.1 315.1 320.6 325.7 329.2 332.3 336.2 334.9 332 328.7 324.7 322.7 321.9 319.8 317.9 315.6 313 309.9 307.1 304.2 300.9 296.8 293.8 292.2 293.7 297.5 303.9 313.3 320.9 326.1 328.5 328.7 325.6 321.4 316.9 308.1 302.3 296.9 292.1 287.8 284.3 281.9 279.9 280.2 281 281.7 279.5 276.8 273.7 270.7 264.5 253.9 241.9 229.5 215.8 201 186.5 171.9 154.7 142 135.5 127.4 125.6 127.1 127.9 128.8 136.8 141.7 145.9 151.4 156 160.9 169.1 163.2 181.1 188.8 200.4 212.8 221.5 230.5 239.7 247.6 256 263.4 271.3 281.7 294.8 309.8 326.9 343.4 356.9 370.7 381.2 387.7 393.5 395.3 390.1 382 375.7 375.8 378.8 376.8 385.3 398.1 409.2 423.7 435.4 448.1 465.1 481.1 491.6 489.3 488.1 494.5 502.9 512.3 519.1 529.1 546.7 568.3 589.4 607.2 620.6 631 637.4 639.3 637.1 628.7 618.2 604 590.8 580.2 572 566.2 560.5 558.8 557.8 554.4 548.9 541.3 534.1 524.5 513.8 504.5 507.5 518.7 528.6 530.2 524.9 514.3 499.5 489.9 487.5 488.2 488.5 486.7 480.1 471.6 462.6 452.5 444.5 434.6 443.2 463.8 489.4 515.1 540.6 565 585.3 602.4 614.9 620.8 613 595.3 578.4 567.4 564.6 563.9 566.1 569.9 573.5 577.7 584.1 588.2 581.5 574.6 570.6 569.9 569.5 565.3 560.3 558.8 556.1 554.1 551.3 545.1 540.1
291.9 296.8 301.4 307.5 314.1 318.7 323.2 326.3 328.3 330.5 331.2 329.4 326.8 323.7 321 319.9 318.1 315.4 312.3 309.5 306.2 302.8 299.8 297.3 292 291 288.7 291.2 296.5 304.1 313.3 318.6 319.9 319.4 317.5 314.1 310.7 307.1 300.9 295.8 291.6 287.2 284.2 281.5 279.2 278.6 279.5 279.5 276.8 274.1 270.7 266.4 262.6 257.4 246.5 231.9 215.5 199.3 183.8 169.7 156.4 141.2 131.4 127.4 124 126.3 126.7 127.1 127.9 133.7 143.2 151.6 156.8 159.2 168.1 179.4 188.5 195.4 202.7 208.7 211.7 211.5 231.7 241.4 251 259.9 269.5 276.5 286.1 299.3 315 333.8 353.7 371.5 389.8 406.2 415.5 423.1 422.4 416.6 406.7 396.9 390.4 387.5 389 390.7 393 404.4 415.6 425.6 436.5 450.2 464.8 475 478.6 485.9 494.5 509.6 524.1 534.8 544.6 560.3 578.5 597.2 615.6 630.2 642.2 648.2 649.1 641.4 628.5 614.8 598.1 583.6 569.1 560.8 553.8 549.7 548.4 545.2 539.8 533.6 527.6 521.8 514.1 505 498.2 501.8 511.2 520.4 525.9 523.1 515.3 504.9 501.3 501.4 502.5 501.6 496.1 483.4 472.7 464.7 453.2 440.5 436.1 450.6 469.9 491.5 514.4 537.3 560.1 580.8 600.1 615.2 621 612.5 595.9 581.2 570.5 571.5 572.6 573.6 575.2 579.4 581.1 582.1 575.1 567.1 565.2 562.9 559.2 557.3 553.7 549.8 546.4 544 542.5 540 535.3 531.2
292.5 296.3 301.1 308 313.4 317.9 320.9 322 324.3 327.9 329.3 328.8 326.9 324.2 321.4 319.4 316.9 313.7 309.8 305.6 302.5 298.9 295.4 291 287.8 286.5 286 289.1 295.9 305.4 314.9 321.7 317.7 313.5 310.6 305.6 305.2 300.4 294.2 290.2 286.9 283.1 280 277.7 276.5 277.1 278 275.5 271.8 268.3 264.3 260.2 258 252.8 241.1 224 202.2 182.4 166.6 153.6 139.8 127 124 126.6 126.5 126.5 126.5 126.9 127.6 136.2 147 156.7 162.9 170.2 177.4 186.5 196.7 205.6 213.2 218.2 224.2 225.9 223.7 223.7 245.2 259.7 270.5 280.1 288.9 299.8 318.1 341 361.3 379.6 397.9 415.2 433.3 443.8 444.4 440.4 431.1 420.4 412 405.9 401.5 399.6 400.1 398.8 409.1 418.1 426.9 437.2 450.1 460.8 469 477.3 488.9 507.4 526.6 543.1 554.5 568.4 584.1 602.4 621.9 638.5 652.3 657.9 656.3 645.7 630.7 613.8 596 581 566.6 556.2 548.3 542.8 538.9 533.5 526.6 520 514.2 508.8 503 497 493 496 503.8 512.2 518 520.1 514.7 511.7 512.5 513.9 513.8 507.5 495.6 483.2 471.7 462.2 450.2 440.1 444.8 460 477.9 493.3 508.9 528.4 550.9 574.9 596.5 613.4 618.9 614.1 597.9 582.9 578.4 578 579.8 579.3 575.7 577.9 576.2 567.5 561.8 556.6 555.9 554.2 550.4 546 542.3 538.7 536 534.4 532.5 530 527.1 523.9
290.8 296.5 302.4 307.8 312.7 316 317 319.3 322.5 325.2 327 328.3 328 326 323.2 319.6 316.1 312.3 307.1 301.7 297.9 293.8 288.3 283.6 282.3 281.4 282 288.5 297.1 307.6 315.5 319.2 311.9 306.3 303 303.3 298.4 292.1 289.3 285.9 282.4 278.6 275.7 274.1 274 274.3 274.3 271.2 267.4 263.6 259.9 258.2 257.1 252.4 238.4 216.4 192.3 169.7 152.9 139.6 125.8 126.3 126.5 126.3 126.5 126.4 126.3 127 129.5 140.5 155.5 164.7 169.3 178.4 188.2 197.5 205 212.2 218.9 226.3 232.7 237.7 243.1 244.4 226.8 255.9 272.2 281.5 289.8 304.1 320 340.2 358.2 376.7 393.4 409.1 422.8 433.9 441.1 443.2 442.8 439.9 434.8 429.2 425 421.2 418.1 416.1 414.6 411.3 419.8 429.5 439 449.2 459.7 468.3 480.8 500 521.3 540.3 556.1 570.7 586.2 605.1 626.6 645.6 658.7 665.7 661.4 651.4 635.9 618.2 601.6 587.1 574.5 562.6 553.4 545.8 535.2 520.8 512.5 508.7 502.4 499.8 496.5 492.9 490.1 492 497.2 502.7 507.9 512.6 514.5 517.6 519 520.2 515.4 503.5 491.1 479 468.3 457.8 448.5 441.7 455.1 470.8 489.3 507.5 523.9 543.7 563.2 582.1 598.7 611.8 617.5 612.2 598.4 591.8 587.2 584.8 587.8 586.3 576.7 564.4 560.9 555.8 551 549 547.5 544.5 540.1 535.4 531.7 529.1 527.3 526 524.7 523.5 521.6 519.5
288.8 295.9 302.5 308.1 312.4 314 315.5 318.5 321.9 323.7 325.6 327.8 329 328.6 325.1 320.5 316.6 311.2 304.8 298.3 294.2 287.6 281.4 279.5 278 277.5 280.6 289.2 296.3 305.9 310.4 309.2 304 297.2 297.8 296.2 290.2 287.6 284.5 280.2 276.8 274.5 272.4 271.6 271.7 271.7 271.4 269.6 266.8 262.6 260.1 259.3 258.3 251.1 233.7 208.4 182.1 159.1 142.1 124.8 125.9 125.9 126.2 126.1 126.2 126 125.8 129.5 137.8 149.2 162.5 171 176.8 186.2 196.4 206.1 211.8 220.3 228.6 237.3 245.4 251.4 258.3 262.1 257.6 252.7 259.2 276.1 287.3 300.3 317.1 333.7 348.2 362.1 372.6 384.3 396 407.9 419.3 426.8 433.1 434.8 438.3 446.7 448.2 446.7 444.9 441.1 437.1 432.8 431 430.3 433.9 443.1 453.2 461.5 473.9 491.7 511.4 530.4 548 566.3 583.9 602.8 624.5 647 664.3 671.6 669 659.8 646.9 630.4 614.5 602 589.9 577.5 568.3 558.3 545.2 531.4 518.5 508.9 501.7 496.6 490.9 486.4 486.5 486.9 491.1 493.9 497.9 502.3 506.7 510.2 512.2 510.6 504.6 495.9 483.7 472.8 460.8 453.6 442.8 452.7 464.7 482.2 500.7 519.2 537.5 555.8 574.1 591 606.3 617.3 621.5 613.4 604.7 596 592.9 594.1 595.7 587.9 572.5 557.8 546.7 543.9 542.3 541.5 539.8 535.4 530.9 525.5 521.8 520.4 519.3 519.1 519.3 518.2 516.3 515.3
290.1 297.5 303.3 308.5 312 313.9 315.7 319.2 322 324.2 326 327 329.8 329.5 326.8 322 317.6 308.1 301.5 295.1 287.9 281.1 276.7 274.3 273.5 274.9 279.9 285.9 291.7 297.9 301 298.3 293.8 292.5 290.5 288.6 286 282.6 279 274.8 272.1 270.5 269.9 270.2 270.7 270.7 270.9 271.4 270.4 267 264.9 262.9 257 244.7 224.1 197.7 171.2 148.5 132.6 123.7 125.5 125.6 125.6 125.5 126 126 129.8 139.1 145.3 155.1 166.4 175.1 184.1 194.3 204.5 213.1 224.7 235.3 244.6 252.7 262.5 269.7 275.5 278.5 277.9 270.6 256.2 269.2 281 292.5 307.4 320.4 331.6 341.5 350.5 359.9 369.7 380.1 392.6 404.2 412.7 417.8 429 443.5 451.1 462.6 470.4 469 464.4 457.5 453 448.3 446.2 448.5 453.5 460 469 481.8 500.3 516.6 533.2 553.7 572.9 593.7 614.7 640.7 664.3 675.3 675.6 667.8 659 647.6 634.1 623 608.7 597.6 587.1 574.3 557.8 542.1 528.3 516.2 507.1 501.3 497.6 493.5 488.9 485.6 483.8 486.1 489.3 492.7 497.5 500.6 499.8 495.8 490 482.8 473.3 464.8 458.7 451.5 451.4 460.5 474.7 492.1 510.3 528.8 547.5 565.9 583.3 599.3 612.7 624.1 625.5 617.1 608.1 600 597.4 593.2 583.1 575 563.2 551.1 539.1 531.3 532.4 533.5 531.2 527.6 523.1 517.9 513.2 511.3 511.1 511.1 512.2 511.9 510.3 509
291.8 299 304.8 309.7 313.2 315.5 318 321.4 323.7 325.1 325.8 328 330 328.7 323.2 321.8 314.2 304.7 297.7 289 280.9 275.9 271.9 270.1 272.5 275.6 278.9 283.1 288.8 290.6 290 288.2 288 286.8 285.1 283.7 281 276.3 273.1 270.2 268.1 266.7 270 271.4 272.4 273.7 275 276.6 276.9 274.9 272.6 262 247.4 232.3 211.1 185.7 160.1 140.4 125.5 123.7 125.2 125.1 125.1 125.1 125.3 126.8 134.5 143.2 151.7 164.3 173.1 183 193.6 205.2 216.1 224.5 238.1 249.6 260.3 270 282.1 289.7 293.4 294.4 293.8 288.4 277 261.3 271.1 287.7 298.5 307.2 314.5 322.3 328.6 337.1 346.8 356.1 366.5 377.5 387.5 397.4 410.4 426.9 441.7 459.7 480 490.8 487.8 482.6 477 470.5 463.7 460 459.7 462.3 466.8 475.1 485.3 500.5 516.4 535.8 556.3 578 600.5 626.5 654.4 672.7 675.1 672.3 667.1 662.1 654.8 643 629.5 619.6 609.3 591.4 572.6 554.9 537.3 522.9 512.9 506.8 503.8 500.3 496.3 493.4 489.2 484 478 483.5 487.5 488.8 486.7 483.3 478.2 471.9 466.2 460.8 454.2 450.8 457.4 467.6 483.1 500.6 518.2 536 554.5 572.9 590.4 605.9 618.8 627.9 629.3 622.9 613.5 596.4 586.6 577.4 566.4 556.9 551.2 542.6 531.8 520.4 519.7 522.2 521.6 518.9 514.8 510.2 504.9 502.1 502.2 502.9 503.6 504 503.8 502.7
292.2 300.2 305.8 311.3 314.4 317.8 321.7 323.9 326.3 325.4 325.4 327.4 328.2 324.8 319.6 316 307 298.9 291.9 282.4 274.6 269.8 267.3 271 274.3 276.7 279.7 283.2 285 284.7 284 284.7 283.9 283 281.8 278.8 274.6 270.1 267.4 265.7 264.2 267 271.1 274.9 276.2 277.3 279.7 282.2 283.4 281.1 270.5 251.1 234.8 217.1 195.3 171.9 149.9 136.1 125.1 125 125 124.9 125.1 125 125.4 134.2 144 156.7 164.2 173.4 185.7 193.6 206 220.3 230.4 241.5 254 265.2 275.9 290.8 302 306.9 309.7 311.4 311.9 308.9 297.5 286.9 274.8 267.7 283.5 293.2 300.5 305.2 309 315.3 324.4 332.8 341.5 351.2 361 372.9 388.4 405.7 423.4 443.2 466.2 483.1 496.6 503.7 498.1 491.3 482.6 475.5 469.8 462.3 456.2 458.9 468.4 484 499 517.3 538.6 560.7 583.6 609.7 637.9 660.4 670 672.6 671.3 667.4 662.3 653.5 646.5 638.1 627.1 608.5 589.2 567.6 547.5 533.8 523.4 517.4 513.1 509.1 505.7 502.2 497.7 491.6 481.8 475.4 477.4 477.2 475 470.9 466.5 458.2 458.4 454.3 459.7 463.5 467.3 475.1 488.2 506.2 524.9 542.9 559.7 577.3 593.6 608.7 621.9 628.2 629.7 627 612.5 588.3 566.4 557.2 549 542.2 536.4 527.8 520 512.1 505.6 509.2 510.8 508.9 505.8 501.7 497.1 493.6 493.9 494.4 495.1 495.8 497.1 495.8
289.1 297.4 304 309.5 314.5 320.5 324 325.4 326 325.5 324.5 326.7 327.1 322.9 315.6 309.5 300.9 293.9 286.7 274.6 267.8 264.5 268.9 272.4 274.7 276.1 278.2 281.2 283 285 284.8 282.4 280.4 278.6 275.9 272.7 268.8 265.4 262.8 261 264.6 268.6 274.1 278 279.1 279.6 282.2 284.6 286.3 280 260.6 238.5 221 201.5 179.9 158.7 142.2 128 124.3 124.5 124.8 124.6 124.9 125.4 133.3 141.8 153.7 164.4 172.9 183.4 194.5 205.8 222 235.3 245.5 257.2 269.6 282 294.4 305.4 313.4 321.9 324.3 327 329.7 330.3 319.8 311.6 298.6 285.8 278.5 272.3 281.4 286.3 291.8 298 305.5 312.4 320.1 327.6 336.3 349.4 365.1 383 401.9 420.5 442.9 464.6 485.6 499 500.6 500.2 491.6 477.2 457.5 443.5 435.4 436.4 447.3 461.7 479.4 498.9 520.5 544.6 568.5 594.5 620.4 643.5 661.1 669.5 668.4 666.5 659.8 654.3 648 640.2 630.6 621 605.9 581.2 561.5 549.7 540.5 532.1 525.4 519.4 515.2 510.3 503.1 493.7 484.9 477.3 475.4 472.1 471 472.7 469.1 469.9 468.6 468.4 471.4 477.1 481.3 486.1 493.2 510.6 528.9 546.7 561.9 577.6 592.6 607.6 619.9 626.4 628.1 628.3 602.5 575.8 559.4 547.5 536.8 527.6 520.7 514.1 508.8 502.9 495.5 497.5 500.1 498.4 495.8 492.5 489.2 486.9 485.7 486 486.7 487.5 489.4 489.4
282.1 289.5 296.1 302.9 311.1 319 323.8 325.7 325.3 324.5 321.1 321.4 320.7 316.7 308.8 306.4 298.3 288.1 278.6 268.3 261.6 266.6 270.3 272 273.5 275 278 282.1 286 288.8 286.1 280.8 276.3 273.2 270.1 267 264 261.2 257.1 261.9 265.8 270.8 276.3 279.8 280.3 281.3 283.4 285 284.9 271.6 248.2 226.8 207.7 186 164.9 148.9 137.1 123.5 124.1 124.4 123.7 126.2 129.7 134.7 140.5 150.3 160.8 171.5 181.8 194.4 203.7 221.4 235.1 247.5 259.4 269.6 282.4 293.5 302.1 311.8 325.6 330.4 334.5 338.2 344.6 345.2 346 338.2 322 309.4 299 292.8 289.4 286.9 287.6 286.1 284.8 293.7 301.1 308.2 318.8 329.1 341.9 359 378 396.8 417.3 440.3 463.4 476 486.4 490.3 481.3 457.7 434.3 415.6 412.1 430.7 450 459.1 465.2 474.3 504 530.8 556.5 582.2 606.5 629.7 647.9 659 660.8 658 652 647.9 642.8 638.8 633.5 626.5 613 593.3 577.5 564.4 554.4 544.6 535.9 528.2 522.1 513.7 502.9 492.8 484.1 488.7 490.2 489 487.2 485.7 482.1 480.7 481.1 482.8 487.3 493.3 497.2 500.9 503.4 512.7 530 546.9 562.1 576.9 590.8 605.5 618 623.5 627.5 621.5 588.1 565.9 553.1 542.4 532.2 519.4 507.3 499.6 494.5 492.8 488.1 486.7 488.9 488.2 485.5 482.4 480 479.1 477.2 477.6 478.3 479.2 481.6 482.5
272.1 279.4 286.8 295.6 304.4 312 317.2 320 320 317.1 311.4 312.2 313.5 311.3 311.8 302.9 289.4 277.7 267.9 261.8 261.2 266.5 269.5 271.2 273.5 276 279.5 283.5 287 285.6 281 276.5 271.8 267.8 265.2 263 260.2 257.5 255.8 261.8 266.6 272.3 277.8 280.6 281.4 282.7 284.6 285.6 278.4 260.2 236.2 215.7 194.9 170.7 151.8 141.3 122.4 124.9 123.7 125.8 127.2 129.3 136 139.7 146.8 157.1 168.2 178.4 190.5 203.5 214.8 229.4 243.9 256.1 266.2 275.7 286 291.9 303.4 316.1 327.4 337.5 344 350.6 358.2 365 368.3 364.4 352.2 339 327.3 316.7 308.3 303.8 300.6 298.4 297.8 298.1 297.4 292.6 303.9 314.9 325.6 337.8 352.8 370.9 392.8 415.9 439.6 459 469.1 470.3 458.5 433.9 406.2 404.2 424.1 447.8 468.3 486.2 501 508.8 513.9 516.9 548.1 576 603.4 623.8 638 645 645.1 641.4 639 635.9 635.8 639.1 634.2 622.6 607.6 593.8 580.9 568.9 558.4 549.5 541.5 533.7 524.5 511.9 499.7 491.6 497.3 501.8 505.5 505.9 503.7 500.5 498.2 497.5 498.3 501.5 504.7 509.7 512.9 516.6 516.2 520.1 534.2 548.7 562 575.1 588.7 603.9 615.5 623.7 624.4 602.5 578.1 563.3 550.7 537.7 526.1 514 502.8 490.6 485.7 483.4 480.1 476.1 477.6 478 475.4 473.7 472.7 471.9 465.1 468.7 469.4 471.3 474.2 474.9
261.5 270.6 279.8 288.6 297.2 303.5 308.4 311.7 310.3 304.4 305 308.5 309 309.5 305.6 292.5 279.2 268.5 261.9 256.5 262.4 267.1 270 272.3 274.7 277.2 280.4 283 283 279.1 275.3 271.1 266.8 263.7 261.7 259.5 256.5 251.4 256.1 260.1 265.9 271.7 277.4 280.7 281.8 283.9 285.9 283.5 269 246.9 225 204.2 180.9 156.9 142 132.6 122.7 123.3 123.5 125.8 128.7 131.8 134.9 141.8 152.9 163.4 174.9 185.4 198 211.1 223.2 236.5 251 260.4 268.1 275.2 279.9 288.9 301 311.6 325.5 339.4 348.5 355.6 364.8 372.7 381.2 380.9 378.3 371.9 359.7 349.3 338.6 327.8 320.5 315.3 311 307.6 307.2 306.2 308.5 305.5 311.5 320.8 332.8 348.2 369.2 392.4 417.3 436 446 445.5 434 409.3 391.1 415.7 438.2 456.8 477.3 498 520.1 537 545.3 554.2 569.6 586.8 603.2 620.2 627.1 627.6 623.7 618.8 614.9 614.4 630.3 636.3 625.2 611.2 599.4 588.7 576.8 565.6 556.4 549.2 541.8 532.8 521.6 508.8 496.4 503.4 511.1 519.3 525.6 527.1 525.7 523 520.7 516.6 515.2 519.1 523.5 526.1 529.3 530.4 529.1 532.5 540.3 552.8 562.6 574.3 585.9 599.8 615 623.2 612.1 590.6 573.5 561 548.4 533.8 520.9 507.6 497.2 485.3 475.5 472.5 470.2 466 467.5 467.9 467.1 466.4 465.7 464.4 460.2 459.4 460.6 462.4 465 466
252.9 263.2 273.4 281.8 289.3 295.1 299.5 301.1 297.8 302.1 307.6 305.9 303.8 301.6 294 282.2 267 261.4 255.3 257.7 264.6 268.4 271.1 273.5 275.6 277.6 279.6 280.2 277.2 273.5 269.9 265.9 262.7 260.8 259.3 257.5 253.6 251.7 253.3 256.5 262.4 268.7 275.5 280 281.6 284.2 285.2 276.2 255.1 234.1 213.8 191.1 165.7 144.3 130.7 123.4 122.4 122.8 123.2 125.9 130.2 136.8 137.5 147.9 158.4 169.8 180.2 191.8 205.8 218.6 230.9 243.6 253.8 259.8 265.1 271.1 277.5 286.8 295.4 304.4 318.1 329.4 335.6 345 356.8 369.4 381 386.3 394.3 398.9 393.3 384.1 372.9 360.9 350.8 342.6 335.6 327.7 322 318 317.5 317.8 316.4 312.9 321.9 332.2 350.7 373.9 391.8 408.5 418.9 416 403.7 384 402.2 427.9 444.5 463.7 485.6 507.1 530.6 551.6 567.8 580.7 593.3 606.1 616.5 618.7 612.8 604.1 598.4 588.8 586.4 609.4 622.5 620.3 608.6 599.1 590.7 580.3 569.4 560.1 553.1 547.1 539 528.7 517.6 506.4 507.8 516.8 526.7 536.5 544.4 548.2 548.5 545.7 540.5 535.2 533.1 536.4 542 543.8 544.3 542.4 540.7 543.7 549.6 558.1 566.9 574.7 586.4 599.8 613.4 614.5 603.8 589.1 572.6 559.3 545.6 530.7 518 502.7 490.6 480.8 469.6 458.6 459.8 457.7 459.6 460.4 459.8 459.1 458.1 456.3 453.2 449.3 450.9 452.7 455 456.9
243.2 253.6 264.5 273.1 279.3 284.2 285.9 285.9 290.9 300.2 302.5 298.9 295.8 291.5 282.9 270.9 261.5 254.4 251.2 258.6 265.1 268.9 272.7 275.4 276.2 277.6 278.3 276.4 273.3 269 264.6 261.2 259.5 257.7 256.1 254.2 251.4 248.5 251 253.9 259.2 266 273.3 279.2 280 280.4 276 261.2 240.4 220.3 200.2 176.1 151.2 132.6 122.5 122.7 122.2 122.6 123.1 127.6 134.7 142.1 150.4 157.4 164.8 173.6 187 199.2 211.7 224.7 237.5 243 251 258.7 265.2 271.5 277.3 284.7 291.5 300.2 312.5 322.1 326.5 339 348.3 361.3 378.1 392.5 407.3 417.9 420.1 415.9 408.3 396 386.3 376.5 366 356.5 349.3 341.7 335.3 331.7 328.2 324 318.5 321.3 333.7 349.8 365.9 379.7 389.8 382.9 366.6 393.3 417.1 437.9 458.6 475.7 494.5 515.6 541.5 563.5 578.2 594.8 611 616.5 615.7 612 603.4 576 566.8 558.4 578.6 596.7 600.2 596.4 590.8 586.2 579.3 570 560.8 553.4 549 544 534.1 523.9 514.2 509 518.8 529.5 540.7 550.9 560.2 566.8 569.9 568.8 561.6 553.5 550.8 553 559.6 562.4 559.5 554.7 553 556.1 561.2 566.6 574.1 579.9 587.9 601.8 612.7 610.8 597 583 569.3 555.5 545 527.5 512 498.2 485.3 475.1 464.8 452.7 446.7 450 451.5 451.9 450.9 451.3 450 447.9 445 438.7 441 443.2 445.5 447.7
233 242.1 250.6 258 264.4 268 267.5 273.7 286.9 294 293.1 290 287.2 280.8 269.8 260.2 253.5 247.9 250.9 259 266.3 271.5 275.2 276.9 277.6 278.1 276.5 273.9 270.8 265.3 260.8 258 256.2 254.5 252.5 250.3 246.1 250 253.8 258 261.6 266 271.6 275.7 274.3 270.5 261.8 245.8 225.5 205.9 184.9 161.1 139.1 123.8 122.5 122.6 122.7 122.8 123.9 129.9 139.7 149.1 158.3 166.2 174.9 183.5 193 204.3 216.2 228.3 239 247.6 254.9 262.7 271.1 278.3 284.6 289 295.3 302 309.8 315.2 322.9 334.8 345.8 360.3 379.1 402.6 422.3 432.1 440.7 445.2 441.6 434.2 427 413.5 400.7 389.4 379.7 370 359.8 351.6 345.2 339.4 333 329.2 321.7 332.2 344.9 353.2 358.5 368.1 391.2 411.8 432.4 451 467.3 482.8 501.5 523.5 547.3 568 583.2 595.9 609 612.2 607.8 600.4 587.3 567.5 539.5 539.1 558.7 569.8 575.1 575.7 576 573 566.1 558.2 552.2 547.3 543.5 537.4 528.7 519.5 512.1 518.1 528.4 540.2 552 564 574.9 584.1 589.3 589.9 583.3 573 568.3 571.8 579.2 579.3 573 566.8 565.7 567.9 571.9 577.9 584.8 588.7 593.2 598.2 606.6 597.9 584.3 574.8 562.3 548.2 536 523.8 509.3 494.8 481 468.5 459.2 448.9 433.4 441.3 443.5 443.8 443.5 443.2 441.5 440.1 437.8 432 430.8 434.3 436.2 439.5
223 230.2 237.8 245.2 251 250.5 253.4 269.2 279.9 284 283.6 281.3 278.4 270 258.5 251.4 246.1 248 254.2 260.4 268.7 276.6 280.9 282 280.5 279.2 276.2 271.9 267.9 261.8 257.8 255.3 253 251.1 248.2 244.2 247.4 254.4 261.1 265.8 268.2 269.4 270.8 271.1 267.8 262.1 251.7 232.8 211.5 191.3 169.9 147.5 128.2 122 122 122.2 122.3 122.4 127.3 136.7 146 154.2 165.1 173.5 181.9 190.9 201 210.2 221 231.8 241.7 251 261 270.1 279.1 286.5 292.5 299.4 307.2 313.6 320.2 324.1 328.6 336.1 346.9 361.9 382.5 404.6 420.4 439.4 455 465.7 468.5 468.1 463.7 452.6 440.4 426.1 413.3 398.7 385.8 374.1 363.9 355.6 347.3 341.8 337.5 334.1 332.1 348.9 363 376.8 394.2 413.5 431.8 450.7 467.1 485.2 504.5 525 550.2 570.4 589.2 601 606.7 606.1 596 583.2 568.7 554.3 534.4 514.9 529.7 540.6 548.6 554.8 558.9 557.3 551.8 546.2 543.6 542.5 537.3 530.5 523 516.4 517.6 524.9 536.5 549.3 562.3 575.4 589.1 599.9 606.5 609 605.1 595.6 590.8 592.9 595.9 592.6 585 579.8 579.2 580.2 585.5 591 594.5 602.4 604.8 595 592.4 582.3 571.5 563.1 553.5 541.6 529.5 517.1 505.5 492.5 475 461.5 450.9 442.4 436.8 431.5 436.7 437.6 436.9 436 434.2 432.5 430.7 427.3 421.1 425.7 428 430.9
213 219 225.8 232.3 236.2 232 245 261.7 270.3 275.7 275.6 274.1 268.9 257.8 248.3 244.5 243.2 251.4 257.5 264.1 271.6 281.7 288.3 289.5 285.9 281.1 277.4 270.7 265.5 259.3 255 251.9 249.4 246.9 243 239 249.5 258.1 265.8 271 271.8 271.7 269.1 266.1 262.9 257 242.5 218.6 196.1 174.8 154.5 136.1 122.1 121.7 121.6 121.8 121.4 124.8 132.7 142.5 152.4 162.9 171.6 180 189.4 197.6 207.9 218.1 225.7 234.4 244.4 255.2 266.8 277.2 288.4 298.1 303.6 311.6 320.5 325.5 332 336.8 340.8 347.7 353.6 367.4 384.6 404.3 424.4 444 460.3 473.2 482.5 485.8 488.2 488.1 479 465.5 451.1 432.2 411.7 394.4 383.9 373 364 356.1 349.7 346.8 343.4 333.6 351.1 369.4 386.6 406.8 427.3 444.8 461.7 483.4 503.3 521 545.8 568.8 590.5 602.8 603.2 593.1 577.3 563 549.5 535.3 518 495.4 504 513.2 521.5 529.5 538.5 539.9 536.8 534.9 540 535.4 530.1 524.5 519.7 518.6 522.4 531.9 544.3 557.9 572.5 587.4 602.1 613.8 621.8 625.7 624.2 618.7 613.3 612.7 611.7 605.9 597.2 592.9 593.2 596.9 602.9 607.6 608.5 611.5 609 598.9 574.4 565.2 558.3 552.2 544.3 533.1 521.6 511 497.2 484.1 467.4 456.6 446.1 438.4 432.6 421 429.6 430.5 430.4 429.9 428.6 427 424 421.5 417.9 418.6 420.9 423.1
201.1 206.4 211.5 216.8 219.2 223.8 238.2 252.9 262.5 268.4 268.8 265.7 256.1 246.3 241.5 239.6 247 254.8 261.2 267.7 276 287.2 295.3 295.9 289.9 281.8 275.3 269.3 263.4 256.7 251.7 247.9 244.4 241.1 238.1 241.9 252.9 261.3 268 270.2 269.2 267.8 264.2 261.5 257.8 247.6 226.4 201.2 179 158.3 141.3 125.7 121.9 121.2 121.2 121.4 122.3 129.5 140.6 150.1 160.2 167.4 174.9 184.2 193.3 202.5 212.5 221.3 233.4 247.5 253.9 260.3 271.1 282.1 294.6 304.4 312.4 322.6 333.4 344.2 349.1 352.1 358 365.9 371.1 374.3 387.5 403.4 420.3 437.9 458 471.9 481.2 486.4 494 501.1 507.1 500.6 487.5 465.9 439.2 413.2 399.1 388.4 380.6 370.6 364.4 360.4 355.7 352.9 340.3 352.1 373.9 391.2 408.6 428.5 451 477 499.7 516.3 543.9 566.3 590.6 600.4 590.9 575.2 558.2 542.4 527 512.9 498.5 483.2 484.2 488.4 494.7 504.3 515.2 518.8 520.5 529 531.3 527.2 523.9 521.4 520.5 522.9 528.7 539.1 553.1 567.9 584.4 600.6 615.6 626.9 634.4 638.1 639.5 638 634.4 631.9 626.1 618.1 608.5 604.6 605.7 610.6 616.5 618.5 613.4 615.3 611.3 600.7 574.4 551.4 543.7 538 530.4 522.8 514.9 504.4 491.6 476.1 462.4 452.2 443.2 433.5 426.4 414.6 422.8 423.6 423.3 424.3 423.6 421.7 418.9 416.6 412.8 412.6 415 416.7
192.7 196 198.4 202.2 210.4 220.7 233.1 245 254.4 261.3 260.1 252.9 244.3 238.4 234.5 241.7 250.5 257.5 263.9 271.9 281.4 293.9 300.7 298.1 292.5 284.4 276.8 270.4 263 255.7 250.1 244.1 239.2 235.6 236.8 246.9 255.8 264.1 267.8 265.8 264.5 261.9 258.9 256.6 248.5 230.5 206.9 183.2 161.7 144.6 134.8 121.2 121.1 121.6 122 121.6 128.5 138.8 148 156.9 165.2 172 180 189.5 197.7 206.7 216.7 231.1 246 256.6 262.6 269.1 277.5 287.7 299.1 310.5 319.6 332.1 348.5 358.5 365.9 374.8 384.4 390.1 392.4 389.4 389.9 402 416.4 430.4 443.5 453.4 465.3 476 489.6 502.8 511.6 518.1 517.3 494.3 458.6 430.1 411.6 404 394.7 385.5 383.4 378.9 370.7 365.2 362.5 361.9 345.4 366.7 388.4 407.2 430.3 459.5 485.3 506 531.4 552.8 580.4 587.8 573.2 555 538.1 519.7 501.4 487.5 475.5 468.2 469 471.6 476.1 482.6 491.6 506.9 519.8 523.6 522.9 519.7 519.7 520.9 523.2 527.7 536.3 547.4 562.6 578.9 595.9 612.2 625.2 635.7 642.8 647.1 650.3 652.4 649.9 645.9 639.6 630.5 620.4 617 620 624.3 628.2 626.7 617.5 611.4 607.8 595.6 574 552.6 535.8 523.9 520.6 514.4 507.7 498.9 488.7 471.1 457.8 446.4 437.9 428.7 420 410.3 416.3 417.2 417.4 418.9 419.2 417.7 415.2 412.8 408.7 406.7 408.7 409.7
186 188.6 190.7 196.2 205.8 216.4 228.3 238.5 246.6 252.5 248.2 241.4 236.5 232.8 235.5 244.9 252.3 258.9 264.8 275.2 286.1 297.6 301.4 297.2 292.9 287.8 280 272.3 263.8 255.4 248.7 241.7 235.6 233.8 240.6 248.2 256.9 264.1 266.3 263.1 259.3 256.3 253.1 245.8 231.3 210.4 187 165.8 148.9 137.9 127.2 119.5 121.3 120.9 121 126.6 137 146.9 154.1 162 169.1 177.3 185.7 193.8 203.5 214.6 228.9 246 260.5 269.3 274.8 280.7 287.6 294.7 303.8 315 327.1 347.3 363.4 377.8 391.1 400.2 410.8 414.5 415.7 410.1 405.3 405.6 411.8 420.9 430.9 441.6 452.4 465.7 481 496.2 510.8 525.4 526.1 510.5 477.5 446 425.6 418.1 412.3 402.7 402.2 400.7 393.2 383.2 379.8 377.5 372.6 357.3 359.7 382.9 403.2 429.7 459.9 478.3 503.8 530 557.2 564.2 554 533.1 512.9 495.3 477 461.8 469.1 476.3 479.6 483.5 481.5 477.3 490.9 507.5 516.2 517.7 516.2 516.7 519.5 522 525.5 534.5 544.6 557.3 572.5 588.9 604.2 618.5 630.3 640.2 647.4 653.2 658 661.4 659.2 654.9 649.1 640.6 630.1 626.4 627.4 630 630.7 628.3 616.9 605.2 595.5 584.5 565.3 550 536 520.4 511.9 506 499.7 491.6 482.8 469.7 456.6 443.5 433.2 424.2 416.1 401.6 408.4 410.2 410.3 412.7 414.1 413 410.2 407.8 405.7 398.5 401.6 399.4
179.1 181.4 184.9 191.3 200.9 211.6 223.6 232.9 239.5 242.4 238.4 233.3 229.5 230.1 238.9 246.8 254 260.2 267.7 278.7 286.8 294.6 298.6 296 292.7 289.4 283.7 274.4 265 256.1 248.5 240.4 232.7 233.3 238.8 246.5 255.1 261.8 263.4 259.5 254.5 250.1 242.9 230.7 213.4 193 171.3 154.3 144 135.7 126.8 119.2 120.7 120.6 123.6 132.8 143.4 150.9 158.6 167.4 175.3 182.6 190.8 199.3 213 229.6 245.2 263 275.1 279.7 289.2 295.9 301.7 306.8 313.9 324.1 336.5 355.9 375.2 394.1 410 420.4 433 438.4 440.2 434.6 426.7 423.1 424.1 428.5 434 439.4 447.2 458.2 473.1 489.8 506.8 517.4 524 524.8 501.7 464.8 441.8 433.8 430.3 421.8 423.2 420.6 418.4 402.8 406.6 402.5 395.3 392.3 379.7 362 367.5 404.1 425.8 454.4 478.4 503.5 531.6 528.4 521.7 502.9 477.4 465.6 462.4 475.7 487.6 496.6 505.8 512.8 513.1 506.1 488.6 497.4 508.9 512.5 513 517.3 522.2 525.5 533.2 542.9 554.6 568.6 583.2 596.8 609.2 621 631.6 641.2 649.4 656.4 661.7 664.6 664 659.3 654.7 646.9 639.4 633.8 630 628.1 626.3 617.9 605.1 593.8 582 568.7 556.1 545.9 534.1 520.1 507.1 496.4 490.1 483.3 475.6 467.6 457.8 447.1 434.1 423.5 416.1 407.3 396.1 401.6 403.1 406.8 409.1 408.9 405.9 403.9 401.2 397.1 394.1 391.1
174.6 176.2 180 186.6 196.2 207.7 219.3 226.8 230.9 231.9 228.5 223.6 224 232.4 241.9 248.4 255.2 263 271.6 282.4 289.3 293.7 296.2 294.9 293.6 291.9 286.8 277.5 268.6 261.3 250.3 237.4 227.1 227.9 234.5 243 252 258.9 260.3 256.1 249.5 241.1 230.5 215.9 198.3 179.5 160.4 148.8 141.7 136.3 129.1 120.7 120.6 120.5 127.1 137.9 147.9 154.4 162.5 172.9 180 187.7 196.7 209.3 230.6 247.5 264.7 280.8 289.9 291.7 301.6 309 314.6 320.8 327.5 335.2 346.9 361.1 380.6 401.9 419.5 434.1 449.4 453.4 459.7 458.1 452.3 447 446.7 447.5 451.7 452.5 453.2 458.1 468.8 484.4 498.8 511.3 521.5 529.1 523.9 490.9 462.7 450.5 448.1 445.9 450.2 451.9 447.5 430 438.9 434.1 420.6 414 402.8 392.2 381.6 380.4 404.5 431.4 454.7 479.3 499.4 483.1 471.3 462.6 442.9 465.5 481.5 496.8 508.6 519.4 531.1 531.6 531.5 529.7 516.4 494.8 502.4 509.4 516.1 521.2 527.6 531.4 539.7 549.4 562.3 576.1 589.8 600.8 611.2 621.6 631.4 640.8 649 657.7 663.3 664.7 663.4 660 655.7 649.2 641.4 635.4 630.1 620.2 608 595.6 584.3 579.8 568 556.5 548.6 540.6 531 516.8 504.2 491.6 482.9 477 470.9 465.3 457.8 447.9 437.1 425.7 416.9 409.5 402.6 392.2 396.2 399.7 403.3 404.2 401.8 399.2 396.4 393 385.3 389.4
171.5 174.3 176.8 183.3 193.5 204.3 213.5 219.1 220.4 221.3 218.6 216.2 225.5 234.8 243.3 249.2 257.3 265.7 275.5 286.7 292.5 295.1 295.7 295.2 294.3 292.7 287.9 280.7 274.5 266.5 251.1 233.6 219.2 220 228.5 237.9 246.4 253.6 256.3 252.9 242.9 233 219.4 202.8 185.5 168.4 153.7 143.8 138.4 134.4 122 120 120 121.6 132.4 142.9 152.5 159.2 166.9 177 184.5 192.4 204.7 221.8 243.1 266.8 283.3 299.3 305.5 307 314.3 321.7 329.1 336.4 343.2 350.3 359.5 371.5 387.1 404.5 424.4 442.1 453.5 464.9 471.2 475.5 476.7 471.8 470.3 472.1 477.1 475.6 471.9 470.1 471.5 481.3 496.2 510.3 522.7 534.7 541.4 521 490.8 471 461.7 460.6 469.5 479.2 474.9 460.1 470.1 458.9 443 433 424.9 411.3 403.3 394.4 378.9 409.6 432.9 455.2 466.1 438.5 429.5 445.4 467.6 486.6 505.3 518.6 528.6 541.3 547.4 546.6 547.3 545.2 538.3 527.9 508.8 507 520 528 535.6 538.5 541.2 552.7 565 577.8 590.9 602.1 611.4 620.9 629.7 639.1 646.9 653.6 658.7 660.3 658.9 655 650.6 643.2 634.6 626.8 614.7 600 586.7 575.3 566.9 564.2 553 544.1 538.4 529.3 522 512.1 499.8 489.5 480.5 473.7 464.2 460 454.8 447.4 438 425.4 419 410.7 402.3 393.3 388.2 391.7 396.5 399.8 398.1 395.5 392.4 389.1 381.5 386.7
167.2 170.5 174.5 181.4 191.6 200.8 209.7 213.1 213 212.8 209.8 218.2 227.3 236.5 243.6 250.9 260.4 270.2 279.9 289.9 295.3 295.7 295.3 295 294.8 292.1 287.4 283.5 276.5 266.5 249.7 229.9 211.5 212.4 221.9 231.9 240.3 246.9 250.5 247.2 235.3 224.4 208.3 190.1 173.4 159.8 146.5 138.2 132.4 125.2 119.7 119.4 122.6 129.2 137.8 147.8 156.4 164.6 173.2 182.8 191.9 201.2 214.5 233.4 255.9 281.5 297.8 310.7 316.7 320.4 327.2 335.8 344.1 352.5 359.5 366 372.8 382.1 394.6 410.5 427.5 443.4 454.8 467.3 477 484 489 491.1 494.4 497.2 501.2 500.3 495 488.6 483.5 484.2 499.8 516.5 530.4 542.9 552.5 549.9 519.4 492.7 477.8 474.7 481.5 488.1 485.6 483.4 487 477.1 463.5 450.4 445.5 437.8 428.1 411.7 382.5 393.3 416.2 436.5 426.9 417.5 448.2 474.7 490.8 509.5 521.8 535.6 548 558.4 561.4 562 561.9 560.4 555.3 546.5 533.3 505.2 526.9 537.6 547.2 549.7 546.2 552.1 563.8 574.8 585.9 597.7 608.5 617.5 625.5 634.5 640.2 644.6 647.1 644.9 642.2 639.7 634.9 627.1 616 603.1 591.2 580.6 571.1 562.7 554.4 549.5 538.3 534.8 527.4 519.2 512.3 505.3 497.1 488.2 479.4 472.9 466.7 460.7 452 446.2 438.5 430.9 421.9 412.7 403.6 394.7 379.4 384.8 388.9 391.6 393.7 392 389.1 385.3 378.6 381.1
163.2 168 172.6 179.8 189.7 198.7 205.8 206.9 206.3 204.3 211.3 219.4 228.2 237.8 245.2 254.4 264 274.3 284.5 291.7 294.2 294.4 294.4 294.7 294.9 290.6 288.7 285.3 274.2 261.9 245.1 225 203.4 206.1 215.3 227 235.7 240.4 242.7 236.5 223 209.4 193.8 176.6 162.5 149.6 139.5 131.7 127.8 121 118.3 123.6 127.3 134.9 142.7 151 160.5 170.2 178.3 188.7 199.2 209.4 228.2 247.6 268.7 286.9 303 316.1 323 329.7 338.5 348.6 358.8 368.4 376.6 383.6 390.5 396.7 405 415.2 428.5 440.6 452.4 465.3 476.5 487.3 495 503.4 510.5 516.7 520.2 521.8 517.6 509.9 500.4 494.2 503.5 521.2 536.9 550.7 562.2 567.8 548 520.9 500.7 490.4 492.7 494.5 502.2 506.5 508.1 506.6 493.3 480.9 473.8 455.9 443.2 428.8 409.2 390.1 395 410.3 416.4 447 473.6 493.4 509 525.7 540 554.9 567.8 572.9 576.2 577.8 578.4 575.9 568.6 555 536.4 522.2 540.1 550.5 561.3 563.1 556.5 554.5 562.1 571.4 581.5 591.1 600.6 608.4 615.7 622.8 627.5 629.5 625.3 618.2 617.2 617.4 609.6 602.2 592.5 580.9 572.8 567.8 560.6 552.2 542.6 536 529.9 523.4 516.9 510.8 506.1 500.3 494.6 486.5 479.1 473.4 467.6 460.7 454.7 447.9 440.5 432.7 425.3 415.8 406.7 396.2 386.1 374.4 382.5 386.5 388.2 388.1 384.8 381.4 375.9 375.1
161.7 166.3 171 178.1 187.4 196.4 200.9 199.6 198.1 199.1 211.1 220.3 228.9 238.4 247.4 257.7 267.5 278.1 287.4 291.1 291.5 292.8 293.3 293.3 291.9 290.6 291 284.4 270 255.5 238 219.5 203.3 201.4 211 223.2 233 235.9 233.7 223 209.1 194 178.8 164.3 151.4 139.5 130.7 126.8 121.6 118.3 121.7 127 132.2 138.8 146.2 155.4 165.7 176.1 185.8 194.3 204.4 221.1 241.2 260.4 275.5 290.6 305.5 319 329.3 339.1 349.8 360.9 371.8 384.4 397.5 406.9 412.8 416.9 420.4 423.9 431.5 443.3 455.9 467.3 478.9 489.5 500 509.1 520.4 527 533 535.8 535.3 529.9 520.3 510 510.7 524.3 541.4 556.4 569.3 579.4 574.1 551.8 529.8 513.9 505.2 506.1 516.2 523.6 532.3 532.5 529.6 516.2 500.7 471.3 462.7 456.7 438.7 424.7 407.6 414.9 450.1 472.9 491 507 523.6 541.5 560.1 573.8 584.3 590.6 592.6 592.9 591.5 588.6 578.2 560.1 530.3 540.3 553.7 566 573.9 573.2 566 560.8 562.2 568.4 576.8 584.4 588.3 591.2 595.8 601 607.3 610.6 605.9 602.1 596.3 592.9 589.7 582.1 572.1 567.3 562.6 559.1 552.4 543 533.7 525.6 518.7 512.5 506.3 502.8 499.7 495.9 492.2 486.4 480.5 475.1 468 461.6 455.6 448.7 441.4 433.9 426.3 417.3 408.9 399.4 387.7 378.5 375.8 380.5 384.7 383.4 381.7 377.8 371.2 372
160.1 165.1 169.4 176.8 185.7 192.7 193.5 189.3 188.9 201.8 211.9 220.6 229.7 239.9 249.7 260.3 270.6 279.4 285.5 287.6 289.8 291.8 292.3 292.4 292.9 295.4 294.1 282.3 266.2 249.6 230.9 213.9 199.1 202 209.2 220.5 228.5 228.1 220.1 208.6 196.1 182.1 167.2 152.6 139.3 128.5 125.5 121.5 119.4 118.9 124.8 130.3 135.5 142.9 151.8 162.5 171.3 182.2 190.7 199.3 214.5 232.5 251.1 266 280 295.6 313.2 329.4 340.6 351.1 363.2 375.9 389 405.1 420.9 431.3 435.5 437.9 439 439.9 442 448.6 459.2 470.6 480.9 491 501.4 513.2 524.6 534.1 540.1 543.6 543.9 544.7 539.3 530.9 527.4 531.7 547.3 561.6 575.6 587.1 594.6 583.1 560.9 538 525.1 523.5 530.5 541.7 552 553.8 561.5 551.2 525.9 495.3 484.4 473.2 455.5 444.4 439.5 452.1 469.4 486.1 503.2 520 537.7 559.1 579 591.1 600.1 606.4 606.5 605.7 603 596.3 583.9 562.2 529.7 553.8 565.4 574.6 581.3 582.9 575.9 566.6 564.3 561.2 566.5 569.8 572.4 576.2 578 583.1 590.4 589.6 587.1 582 578.7 576.5 568.6 562.9 560.5 557.9 554.9 549.1 543.6 535.9 527.9 517.9 508.4 501.2 496.5 494 492.3 491.1 489.3 485.7 481.3 476.1 469.5 463.6 457 449.8 442 434.4 428.1 419.6 410.9 401.8 390.2 378.3 369.4 373.2 377.7 378.2 377.7 373.5 367.2 367.4
157.7 163.9 170 176.7 182.5 187.5 186.3 181.8 193 203.2 212.4 221.2 231.4 241.7 252.2 263.6 273.8 281.6 285.6 288.2 290.3 291.4 292.2 295.1 299 298.1 289.8 277.9 260.6 242.8 225.8 209.5 197.5 199.5 207.9 217.6 220.7 214.4 203.9 193.5 183.1 170.9 155.9 140.9 126.9 122.8 119.2 119.4 118.5 122.9 129.1 132.9 138.9 146.9 158.6 167.7 177.6 186.9 195.8 209.1 225.3 241.8 257.3 270.8 287.7 308.4 326 339.5 351.2 364.5 378.5 393.8 410.4 426.5 439.3 447 451 453.7 455 456.5 458 460.1 466 473.9 483.3 493.2 504 515.2 525.3 534.8 543.4 547 551.7 553 551.4 548.9 546.8 547.8 556.1 569.1 581.3 594.6 604.9 610.6 593.5 562.5 545.4 546.4 554.3 565.1 573.3 573 577.2 565.9 540.5 511.5 485.1 462.9 447.2 443.6 449.5 462.4 479.1 496.7 513.7 532.5 554.6 577.7 596.5 606 613.4 615.7 616.4 614.2 608.3 598.2 584.1 564.1 539.8 558.4 569.8 578.9 586.3 590.5 589.1 582.6 574.3 569.9 555.9 544.6 548.8 555 559.5 564 567.3 565.4 564 561.1 556.9 554.1 551.4 549.7 548.6 547.6 544.7 541.3 538.7 531.9 523.8 514.5 503.2 491.9 486.2 485.7 484.8 484 484.4 483.5 479.9 476.5 471.6 465.2 458.2 450.2 442.1 435 428.8 421.2 412.4 402.6 392.9 382.1 371.9 366 369.7 372.2 372.2 370.2 366.3 363.7
155.2 163.5 170.3 176.1 179.6 182.6 178.8 181.7 194.4 204.3 213.6 222.7 232.8 243 254.8 266.9 278.1 285.2 287.6 289.8 291.2 292.9 296.9 301.7 300.5 292.3 281.3 268.8 252.3 236.1 220.9 204.8 193.9 198.1 206.1 212.6 209.6 200.4 189.9 181.8 172.8 160 145.7 130.1 119.2 121.3 121.3 118 121.5 127.9 131.1 136.2 142.1 153.1 163.8 172.8 182.4 190.5 202.4 217.8 234.6 250.1 263.7 278.2 302.1 322.8 337.7 349.6 361.8 376.2 393.7 409.8 424.4 438.1 448.7 453.5 457.4 460.8 463.7 466.6 469.3 471.9 475.8 481.1 487.2 496 505.9 515.9 524 532.9 541 548.3 554.1 554.8 555.1 556.5 557.4 559.9 565.5 575.3 587 598.4 609 618.4 609.1 579.6 575.7 576.7 582.5 586.6 588.9 586 568.1 546.8 520.6 494 470.7 450.6 440.7 447 459.2 474.5 491.1 509.6 528 551.2 574.5 593 607.2 616.2 619.4 621.7 622 617.2 607.8 595.5 578.2 560.3 550.7 554.4 569 580.9 589.6 595.6 597.5 594.7 591.7 586.2 572.3 551.5 529 533.9 539.3 542.4 542 539.6 539.1 539.2 539.5 538 535 534.2 534.1 534.8 534.3 535.7 534.6 529.1 521.8 512.3 501 489.5 479.8 475.8 474.5 475.9 478.5 479.2 478.8 476.7 474 469 461.5 452.4 443.3 436.4 429.5 421.9 413.6 404 395 386.2 376.6 365.9 361.3 365.4 367.1 366.3 364.1 358
154.4 163 169.9 174.4 175.9 176 173 182.6 195 205.2 214.7 223.4 232.2 244.3 258.8 271.3 282 287.5 289.6 291.3 293.1 297.9 302.2 302.4 294.5 284.3 274.3 261 245.7 231 216.7 199.9 184.3 196.1 202.3 204.3 196.1 187.8 179.5 172.1 162.8 149.1 134.9 120.4 118.8 122.5 121.5 118.1 123.3 130.2 132.9 139.2 148.2 158.9 168 177.9 187.4 198.2 211.7 227.9 243.4 256.5 270.8 289.4 314.5 335.2 349.6 361 372.2 385.4 402.6 416 427.4 441.9 453.9 458.9 461.9 464.5 467.1 470.6 474.5 477.6 482.3 486.8 491.7 498.6 507.2 515 522.9 530.5 537 543.5 548.2 550.7 553.9 557.1 560.3 564 570.2 579.8 588.9 600.1 608.8 615.2 608.2 608.2 610.2 609.6 606.6 598.8 582.8 563.8 542.3 519.6 495.6 472.3 452.5 438.3 441 455.4 469.8 485.1 504.4 524.5 545.6 566.3 586 607.9 619 623.2 624.5 625.7 624 616.9 607 589.5 571.6 556 564.5 552.9 566 582.1 591.9 599.6 603.5 605.4 605.6 603.1 593.9 569.1 538.7 512.8 516.4 519.6 518.2 515.8 516.3 518.3 522.2 521.8 520 517.9 518.5 521.4 524.9 528.3 529.9 527.1 520.1 510 499.6 489.4 478.5 468.5 465.5 467.8 471.7 475.6 476.1 475.8 475.7 473.3 467.9 459.8 449.6 439.4 430.4 423 414.5 405.7 396.8 387.6 378 369.1 360.3 359.7 361.8 361.7 360.8 356.1
153.4 161.2 167.6 171.2 171.9 168.2 170.6 184.8 196.2 206.4 215.4 222.1 231 245.5 262.1 274.2 282.7 288.8 290.3 293.1 298.6 302.7 302.9 296.5 285.8 275.4 266.3 254.4 240.2 226.1 210.6 192.9 184.7 192.5 195.9 190.9 183.1 176.9 170.7 163.3 153.3 139.2 124.7 118.6 117.1 116.2 118.4 121.4 127.8 130.5 135 144.9 155.1 163.2 172.2 184.5 196.5 208.5 221 235.6 248.7 264.6 286.5 303.8 327.2 347 361.8 371.9 379.7 388.9 401.4 412.3 424.5 440.8 455 462 464.1 464.9 466 468.2 473.6 477 483.2 489.7 493.6 499.8 506.6 512.5 519.3 524.3 528.3 533.1 538.6 543.1 547.2 551.7 555.9 561.9 570.2 580.1 589.2 597.6 605.1 611.3 617.7 628.6 633 625.5 610 583.7 559.3 535.4 514.2 493.4 471.6 451.4 437.2 437.2 449 464.8 480.5 501.2 521.8 541.3 560.6 582 604.9 623.9 629.2 629.6 630.4 628.9 624.5 617.3 605.3 583.4 565.7 575.6 577.2 563.3 566.5 581.8 593.6 602.4 609.3 613.8 615.6 615.8 607.7 581 552.8 524.1 499.6 497.2 497.4 497.4 496 501.5 505.3 504.8 503.4 501.5 504.6 509.8 515.2 520.5 524.1 525.3 519.7 510.6 500.8 489.7 478 466.4 458 458.1 463 468.7 472.1 473.6 476.7 477.4 474.8 468.8 459.7 449.6 436.6 425.5 416.8 409.3 400.2 389.8 379.8 371.6 362.6 356.1 355.2 356.7 356.4 353.4
151.6 158.5 164.8 167.6 167 160.2 171.6 187.9 201.7 209.3 214 219.3 229.4 244.7 260.6 272 280.1 286.4 291.6 296.9 301.6 302.7 298.5 288.1 277.5 267.2 257.7 246.3 232.2 217.1 201.1 185.8 180.1 184.2 183.6 177.7 174 169.4 163.4 154 143.7 131.5 119.7 117.1 117.3 120.2 122.5 124.6 128 133.7 142 151 160.5 170.5 180.7 192.7 207.8 217.2 229.7 243.5 263.2 278.8 299.2 316.4 337.8 356.7 370.7 376.8 379.6 386.9 395.9 406.6 421.4 437.4 449.6 457.5 459.4 460.3 461.6 463.2 467.9 471.7 479.1 485.7 490.2 496.1 501.5 507 511.2 513.1 516.4 521.9 527.4 531.4 536.3 541.6 547.6 554.7 563.2 574 581.9 589.3 602.1 616.2 627.2 634.2 634.3 619.8 589.5 560.9 534.6 509.5 487.9 468.3 448.8 434.9 434.5 445.9 458.6 474 493.9 516 537.6 558.8 579.4 599 617.3 625.7 631.1 632.8 632.5 629.4 624.6 617.4 601.9 581.7 590 593.4 590.8 576 567.3 582.4 596 604.8 613.1 619.2 623.2 624.2 616 587.8 557.7 532.3 507.3 489.9 481.3 481.7 481.7 486.1 488.5 487.5 486.6 487.6 492.5 498.3 504.9 511.5 517.2 520.8 518.5 510.8 501.2 488.8 476.1 464 451.6 446.3 450.6 458.4 461.6 469.3 476.8 481 480.7 476.9 470 457.7 446 434.2 423 413.7 403.8 393 382.7 373.4 365.2 358.6 353.7 352.3 351.6 352.6
150.3 157.2 163.7 164.5 162.6 160.8 174.8 192.7 204.5 209.1 210.7 215.3 226 241.1 254.5 264.9 274.1 281.9 292 299.6 302.9 300.4 292.6 281 270.3 259.9 249 237.1 219.7 203.4 189.2 178.3 172.5 176 173.5 168.8 166.2 162.1 155.1 143.7 133.6 123.1 116 118 118.6 122.1 123.7 126.7 130.6 137.9 146.8 156.3 166.7 178 189.7 203.3 214.9 228.2 246.9 263.6 280.4 288.4 304 325.5 343.3 359 365.6 367.5 372.9 381.8 389.8 400.4 415.6 428.5 437 441.8 444.2 446.1 449.2 452.2 455.6 460.4 467.9 474.6 480.2 484.9 490.3 495.2 496.9 498.1 501.2 507 512.4 517.3 522.7 528.4 533.8 542.3 549.7 553.8 566.3 587.2 604.5 617.1 626.8 632.9 629 601 568.6 538.4 512 487.1 465.9 447.4 433 429.9 444.3 458.8 473.1 489.3 510.4 531.7 554.1 577.4 597.7 613.9 626 630.7 632 632.2 631.5 628.3 624 616.7 602 596.3 602.4 603.7 601.8 589.4 575.1 580.8 597.6 607.4 615.6 623.7 630 631 623.5 590.8 558.7 532.2 509 491.4 476.7 471.5 471.8 472.1 472.1 471.4 471.4 474.6 480.5 487.2 494.6 501.3 506.6 510.1 511.2 507.8 498.6 485.5 472 459 445.8 436 438.2 445.1 450.4 462.9 475.5 483.5 484.9 482.6 477.3 468.4 457.2 446.3 434.8 423.3 411.6 397.5 386.7 376.2 366.7 359.5 354.5 347.7 347.4 350.9
149.7 157.4 162.9 161.3 156.4 160.1 177 193.2 204.2 204.9 206.1 211 221.4 234.8 245.9 256.2 266.9 279.1 294.4 302.5 304.6 300 287.4 274.6 262.9 252.2 240.4 223.7 205.2 190.2 177.5 164.6 165.2 166.7 165 161.5 159 154.2 145.2 134.7 126 115 117.1 117.6 122.5 123.9 125.2 129.3 136 144.7 152.4 162.1 174.3 188.4 201.2 214.4 228 245.3 264.7 277.5 287.5 303 320 332.8 341.8 351.1 352.4 354.8 361.8 371.7 381 391.3 403.1 411.9 418.3 423 425.7 428.2 432.3 436.7 441.2 446.6 453.4 461.3 466.3 469.6 473.7 477.8 479.2 480.4 484.3 489.2 493.9 500.2 506.7 512.5 517.9 522.9 524.9 549.8 569.1 586.4 601.5 612.9 623.1 627.4 613.5 580.9 548.7 518 493.5 470.6 448.5 431.7 426.6 442.4 458.8 474.3 489 507.4 527.9 549.2 572.4 595.4 613.5 628.6 635.3 637.2 635.3 633.9 631.6 628.1 622.9 616.1 605.1 606.1 610.5 612.2 610.1 600.1 584.4 582.5 599.4 610.9 619.5 628.3 635.1 638.2 627.5 592.1 560.9 536.9 511.3 494.1 481 469.7 464.7 463.3 461.9 462 462.4 465 470.6 477.3 484.5 490.6 494.1 496.9 499 497.1 490.8 480.7 466 452.3 439.3 428.6 424.9 430.2 437.6 453.4 470.1 482.5 486.9 485.7 482.7 476.7 468.3 458.2 448.6 437.9 423.7 406.1 391.9 380.2 369.6 360.7 354.2 348.3 343.3 348.5
147.6 155.2 160.7 157.1 149.4 160.4 179 193.1 200.2 199.7 201.3 206.5 215.2 225.3 235.2 247.3 260.4 278.6 292.6 300.3 303.2 298.6 282.6 267.3 254.9 242.4 226 207.7 190.9 177.6 166.9 152.9 150.1 156.6 156.7 153.7 151 146.2 138.9 129.9 118 116.3 116.8 120.7 125.8 126.9 128 134.9 142.4 151.1 160.2 170.5 183.8 198.8 213.6 228.1 241.8 255.6 271.9 282.1 292.8 306.2 319.3 331.7 334.1 336.7 339.2 343 349.3 359.4 369.3 378.4 385 392.7 398.6 403.1 407 410.5 415.2 420.4 425.9 432.1 438.6 446.3 449.7 452.9 456.5 459.8 462.2 464.5 467.3 470.8 476 484.1 488.4 493.1 494.9 504.2 527.1 547.6 564.5 580.2 593.6 605.4 614.8 618.9 597.1 561.1 529.6 499.8 477.4 455.4 432.8 421.7 438.9 456.1 473.7 489.8 506.3 525.8 547 568.3 591.1 613.3 632.5 641.7 644.6 644.9 640.6 637.1 633.3 628.9 622.9 615.7 608.7 613 617.2 618.5 616.3 606.8 587.2 587.6 604.4 615.5 623.6 632.7 640.3 642.1 628.6 595.2 566.9 542.7 516.4 496.8 483.8 470.5 461.8 459.2 457.9 457.3 457.3 460 464.7 468.9 474.2 479.8 483.1 485.9 487.2 483.5 477.5 469.9 457.5 444.4 432.8 423 415.6 415.5 426 443.4 460.8 476.8 486.1 488.9 487.2 482.9 476.4 469.5 461.6 451.5 437.4 418.1 399.1 385.2 373.7 362.8 355.3 346.7 344.2 346
146 152.5 157 152.4 148.2 159.9 177.3 191 194.5 194.7 197 201.8 207.7 215.6 227.3 240.2 255 274 287.9 296.1 299 294 277.3 260 244.6 226.8 207.3 190.6 175.9 166.1 154.9 141.5 149.8 151 150.7 148.7 145.3 140.6 132.1 122.5 116.2 116.5 119.4 124.7 128.3 129.6 132.8 138.8 146.8 157.8 167.3 180.4 194.9 208.9 228.5 243.7 252.1 264.3 274.9 281.7 292.1 301.6 310.3 316 318.9 322 326.5 331.7 339.1 347.8 356.6 362.6 367.4 374.4 380.4 385.4 390.4 394.7 400.3 405.7 411.4 417.4 423.7 429.5 432.2 435.6 438.9 442.1 445.5 448.8 451 453.6 458.2 464.4 467.5 469.1 483.7 504 523.2 539.9 556.6 571.4 583.8 595.8 606.5 610 580 544.6 512.1 483.7 461.1 438.9 423.3 432 450.9 469.4 488.4 506.5 524.5 544 564.9 586.3 608.5 629.9 647.7 654.8 654.4 652.6 648.3 643 636.9 631.1 624.9 617.3 614.5 620 623.5 624.7 621.8 609.4 590.3 592.4 608.7 619.7 627.6 636.8 646.7 645.4 629.8 598.1 564.2 543.6 519.7 499 484.7 470.6 460.6 457.7 456 455.2 455.5 456.5 459.2 461.3 463.9 468.8 472.6 475.3 474 469.9 464 456.4 446.1 435.1 425.5 417.1 409 406.4 414.7 430.8 447.4 464.1 480.6 489.6 492.6 489.9 484.4 479 471.7 462.4 448.8 429 408.1 390.7 377.4 365.7 357 348.8 340.8 341.6
142.4 149.4 150 148.8 148.1 159.2 175.2 186.8 189.3 190.7 194 198.9 204.1 210.1 219 232.5 249.6 268.5 282.4 290.2 291.2 283 267 249.2 228.4 207.3 187.7 172.2 162.8 157.4 140 147.2 148.3 144.9 144.1 143.4 140.7 133.6 121.3 115.2 115.8 118.4 124.9 128.1 131.9 134.1 139.5 145.3 153.2 164.7 176.3 190 204.7 218.8 232.4 246.2 255.7 265.5 269.9 279.6 288.8 293.8 298.2 302.7 306.6 309.7 316.5 322.5 330.1 337.5 345 350.4 354.9 360.7 365.2 369.7 375 380.3 386.3 392.1 397.4 402.8 408.2 413.2 414.8 416.7 419.2 420.5 423.5 430.9 433.2 436.5 439.9 443.7 448.7 468.5 486.3 501.5 518.1 532.4 546.3 559.7 573.2 586.9 598.8 596.5 563.5 529.9 497.5 470.4 446.9 427.1 424.9 442.4 462 481.9 503.5 524.3 542.9 560.9 579.8 601 624.3 644 657.7 663.1 663.3 660.5 655.5 650 643.4 635.3 629.5 622.4 621.8 626.9 629.8 630.1 626.7 612.4 594.4 600 614.6 623.8 632.6 643.5 651 647.7 630.5 593.8 561.6 542.2 520 499.8 486.2 473.3 461.1 456.7 455.1 454.7 455.2 455.6 455.4 456.4 457 459.6 463.8 465.6 464.2 457.8 452.6 444.9 435.8 426.8 417 407.5 397.5 396.7 404 417.3 433.2 449.6 465.9 479.6 488.6 493 490.9 486.3 479.6 471.5 457.5 437.5 417 397.2 380.9 368.5 358.9 350.4 344.5 340.6
140 146 145.8 147.7 146.7 158.2 174.5 182.9 185.3 186.7 190.1 194.6 199 204.9 213.6 225.4 243.6 263.3 277.5 285.2 282.4 273 252.7 231.8 209.5 188.4 171.8 160.3 156 152.2 137.1 143.7 143.7 140.2 143.7 139.9 135.4 123.8 115.3 116.2 117.8 124.1 127.6 130.9 135.1 139.2 143.3 149.9 160.6 175 186.6 201 210.9 223.3 234.6 244.2 253.3 257.8 266.3 272.8 278.1 281.9 286.7 292 297.7 303.7 310.1 316.4 323.1 329.7 335.7 339.7 343.3 346.5 350 354.7 360.5 366.8 373.3 379.4 384.3 389.9 394.8 398.7 400.3 399.7 400.5 402.3 407.9 412.6 417.3 421.2 426.9 435 448.6 466.5 482.2 496 509.4 522 534.2 548.9 564.9 580 590.9 585.4 552.1 517.7 484.7 460 437 418.2 430.1 450.4 471.6 491 513.6 536.5 557.6 576.3 594 613.3 635.2 652.2 662.8 668.2 668.1 666.1 660.7 654.2 648.1 639.3 633.5 627.7 630 633.9 636.1 635.9 629.8 613.2 593.4 608.1 619.9 631.2 642.8 651.2 654.8 648.5 625.9 587.9 560.5 539.7 516.4 499 486.1 473.9 461.3 456.1 454.9 454.5 455 455.3 453.9 453.6 453 452.3 454 456.5 456 448.3 443.6 437.3 429.3 419.7 409.2 399.5 392.7 388.6 395.1 405.6 418.4 433 446.7 459.3 470.7 479.5 485.4 486.6 482.1 477.1 465.6 445.7 425.5 404.5 386.2 373.3 362.8 353.6 347.1 341.2
138.7 141.9 144.9 143.8 146.9 160.2 173.4 179.2 182.4 183.7 188.3 192.5 196.6 202.8 209.9 219.3 238.9 259.8 274 279.9 269.8 254.1 232.8 209.9 188.2 172.4 160.5 154 151.2 148.6 141.5 138.4 139.1 137.6 142.2 136.3 127.2 114.6 116.7 118.8 120.7 123.3 128.2 133 137.5 142.1 147.5 155.9 167.1 183.4 197 205.9 215.2 225.4 232.7 237.7 243 249.4 257 264.8 270.5 276.7 285.8 292 300.8 301.9 304.9 309.2 314.7 316.4 320.2 323.2 326.9 331.2 334.7 339.1 345.1 353.2 360.7 367 372.4 378.4 382.9 384 379.8 381.7 393.6 406.1 416.5 422 427.9 435.3 442.6 450.4 450.6 457.9 470.6 482.9 496.3 508.3 522.2 539.3 558.4 575.9 590.8 580.4 545.7 509.6 476 451.1 429 416.8 433.8 454.5 475.2 495.8 519.9 543.9 567 587.3 604.6 622.3 640.3 654.9 666 670.4 669.6 667.5 662.6 656.1 649.3 641.7 637 634.1 637.6 640.7 642.2 640.8 631.5 611 602.2 616.1 628.3 641.7 653.3 658.1 657.9 647 616.9 581.3 556 535.6 515.7 500.2 486.4 472.1 460.7 456.6 455.3 453.3 453.2 453.3 450.2 448 447.2 447.1 445.7 445.9 445.2 439.4 434.2 428.7 423 414.4 404.8 396.5 388.9 384.1 384.8 393.4 403 412.5 424.3 433.4 442.5 455.7 463.3 469.7 471.7 469.5 469.5 451 428.3 410.6 394.2 379.5 368.2 358 349.5 342.6
135.9 138.1 143.6 139 144.6 161.4 171.5 175.7 179.5 181.9 186.1 190.2 196.3 202.4 207.5 217.3 236.1 255.1 262.7 267.7 255.7 232.8 210.8 188.5 172.3 161.1 152.2 149.8 146.7 143.1 138 127.4 135 134.8 134.8 128.9 113.7 114.8 118.3 121.2 124 126.4 129.8 133.9 137.8 142.6 152.8 162.7 175.6 185.7 198.8 206.7 214 220.5 225.9 234.6 241.7 249.7 261.1 270.1 278.7 287.6 298.4 303.9 308.3 312.7 316.9 319.3 322 326.8 330.3 333.5 337.2 343.8 348.9 351.2 353.2 353.9 352.8 355.4 359.3 364.2 368.9 370.2 380.9 394.7 408.9 421.7 432.6 440.6 447.2 454.1 461.7 472.5 473.8 472.6 476.7 485.1 495.6 508.2 525.2 543.8 562.1 579.8 592.9 577.9 542.7 506.1 472.5 445.8 424.9 415.2 430.1 450.5 470.9 490.9 515.7 541.4 566.5 588.2 607.3 625.9 640.9 653.6 663.4 670.1 670.1 667.5 660.9 654.6 648.1 642.3 639.6 640.9 643.7 647 648.7 645.4 632.5 612 609.9 623.3 636.4 650.6 660 663.9 659.3 642.1 608.1 574.3 552.6 534.8 518.6 502 487.5 473.2 463 458.6 456.4 454.7 451.7 449 444.6 442.2 440.3 439.1 439.1 438.4 436 432.6 428.6 424 417.7 410.2 403 393.6 386.3 381.7 378.5 380 385 393.4 400.6 407.6 412.9 421.3 425.3 434.6 444.6 455.4 461.8 449 430.2 417.1 402.5 387.7 374.1 363.6 353.7 345.1
134 136.9 140.1 132.8 148.1 161.7 168.9 173.2 176.2 180.6 187.3 194.9 198.9 205.1 209.8 217.2 232.6 246.3 245.7 246.4 236.6 211.9 191 174.1 161.8 151.9 147.2 145.2 141.5 137.6 134 128.7 133.8 131.4 126.4 116 113.9 116.3 119.3 121.6 124.3 127.4 132.1 138.5 144.3 152.7 163.7 173.6 181.3 187.6 196.5 206.1 214.5 223.1 232.9 243.6 252.9 264.3 275 285.5 294.3 303.5 308.5 312.7 317.6 321.4 326.4 331.1 336 340.3 344.8 348.7 354.1 361.8 367.1 368.7 370.2 371.5 372.3 372.2 371.5 371.1 374 382 393.4 406.7 421.4 434.3 444.9 455.2 463.7 471.8 480.4 493.4 496.8 496.9 499.7 506.2 512.6 523.8 538 553.7 569.4 584.9 594.7 577.4 544.4 507.7 474.1 448.5 426.4 411.3 423.3 441.1 459.6 478.2 501.1 525.8 549.1 570.4 596 619.9 636.8 648 657.3 665.6 667.9 664.1 657.9 651.9 646.4 641.8 641 644.4 649.1 652.7 653.8 649.3 633.2 613.6 616.7 629.9 642.4 655.6 663.9 665.8 657 634.6 600.2 568.8 550 535.6 520.1 503.7 489.3 476.5 468.4 463.1 459 456.8 455.2 452.1 449.5 447.1 442.4 433.9 432.2 431.1 428.8 426.6 423.8 420 413.6 407.1 400.1 390 383.5 379.2 375 371.7 371.2 373.2 379.8 385.4 391 396.3 402.7 413.1 427.1 442.7 451.9 447.1 433.9 423.2 408.9 394.9 381.5 369.5 359 348.9
132.1 134.7 125.2 137.5 149.1 159.9 165.2 169.3 174.4 184.6 196.7 202 204.7 210.8 214 216.8 227.2 230.3 228.5 226.2 211.6 192 175.6 163.3 152.4 144.9 141.7 138.9 135.1 132.9 126.6 125.2 128.9 123.8 115.3 113 114.4 117.5 119.8 122.8 125.4 129.1 134.5 140.8 150.2 161.6 173.8 184.1 190 196.7 204.8 213.9 223 231.9 242.8 254.6 267.7 280.9 293.6 304.7 315 319.2 320.3 323.7 329.1 332.9 338.8 344.7 350 355.2 359.9 364.1 370.7 380.5 386.2 388.6 390.8 392.9 393.2 392.4 390.1 387.9 389 393.9 403.4 413.8 426.5 440.3 452.4 465.4 477.7 487.9 497.6 510.9 517.8 520 522.1 525.3 531.9 541.5 552.8 565.9 578.7 588.7 587.4 572.4 545.7 511 480.1 456.8 436.4 418.4 415.2 427.1 443.7 461.5 480.4 502.9 525 547.6 576.5 606.3 625.7 638.5 649.4 658 661.2 657.5 652.5 647 641.8 638.5 645 650.2 655.2 658.5 658.8 653.2 635.3 618.1 622.8 635.8 647.1 658.5 667.1 665.2 652.6 625.7 591.3 564.8 549 535.3 520.1 506.5 494.4 484.9 477.2 470.9 465.8 461.8 458.9 454.9 452.1 450.2 446.8 441.7 437.3 432 424.5 418.8 418.6 408.4 404.7 397.5 389.4 387.5 385 378.9 374.3 371.6 367.7 367 367.1 371.6 377.5 384 391.7 399.6 412.9 428.8 440.3 442 435.9 427.1 413.5 400.9 388.2 376.5 364.9 353.9
125.2 127.8 128.5 139.6 147.1 155.2 160.4 167.7 176.5 190.1 205.6 205.3 205.7 213.4 214.3 216.1 218.3 214.2 211.7 203.7 189.5 175.5 162.1 151.2 143.4 139.4 136.3 133.4 129.3 127 121.6 118.6 119.7 115.3 112 112.4 115.8 119.9 125.5 128.6 131.5 134.4 140.8 149.3 157.8 171.2 181.6 190.1 196.2 203 212.1 223.3 234.4 247.7 263.1 273.5 282.9 298.1 312.5 325 332 334.1 334.7 335.4 338 342.7 349.1 354.5 359.7 365.8 372.3 377.7 387.3 399.5 406.4 410.2 412.9 414.7 415.3 414.5 411.9 408.5 404.5 405.4 410 417.6 429.5 443.5 457.3 471.2 486 499.3 511.8 525.2 533.7 539.6 544.5 547.3 553.2 561.3 569.8 578.7 585.7 587.3 579 559.2 535.5 510.1 483.8 465.5 454.9 439.1 418.6 412 426.2 444.7 463.7 480.1 501 524.2 553.7 583.3 605.5 625.1 638.6 647.5 650.5 649 645.4 638.9 634 645.7 652 657 661.3 664 663.4 657.1 640.6 623.9 628.9 641.6 654 664.9 669 662.9 646.6 618.4 587.6 565.4 548 534.9 522.1 509.9 500 492.3 484.6 478.1 472.5 467.7 464.1 458.6 455.3 453.6 450.8 446.2 442.1 438.7 434 429 424.8 420.1 414.3 408.3 402.6 396.2 390.4 384.2 378.9 374.2 369.8 364.2 362.7 364.4 367.9 375.3 381.9 389.8 401.3 415 426.4 434 434.6 428.1 417.6 405.6 393.5 382.6 371.9 360.5
127.2 127.4 132.6 137.8 147 154.7 159.3 166.2 181.1 193.4 204.9 202.9 204.7 211.6 212.4 213.6 207.8 200.5 194.8 184.5 172.5 161.2 151.2 141.6 136.9 134.5 132.1 128.8 124.9 122.2 119.5 113.8 110.8 111.4 111.7 110.7 118.4 127.8 133.9 137 137.1 141.2 147.9 158.7 168.8 181.8 190.4 196.7 202.4 211 224.9 239.7 253.5 269 282.2 290.1 299.4 317.2 330.4 341.8 343.7 342.5 339.7 338.3 340.8 346.1 352.7 359.3 365.3 373.4 382 389.2 402.7 416.9 427.1 431.8 435 436.5 437.5 436.7 434.2 430.1 425.9 422.4 419.8 421.1 430.5 444.2 458.9 474.4 489.9 505 520.8 533.5 543.7 553.1 560.4 566.7 574.6 581.3 586.4 588.4 588.9 582.5 564.7 539.9 516.5 495.9 476.1 465.9 464.2 453.5 432.1 402.6 410.7 428.3 445.3 459.4 478.3 503 531.8 559.3 582.6 606.7 624.8 634.6 639.7 639.6 634.8 626.8 643.2 652.1 658 663.1 667.2 669.5 667.1 660.4 646.4 630.7 637.4 649.2 661.8 669.3 669.6 659.5 638.8 611.7 588.8 566.8 548.7 534.6 522.5 511.1 503 496.7 491.1 484.3 478.2 473.5 469.6 464.8 461.5 458.2 454.8 450.1 445.8 441.9 438.6 433.6 429 423.5 418.4 413.3 408.1 401.8 396.2 390.4 383.8 378.3 373.7 368.8 364.5 361.4 362 369.4 374.9 381.5 393.6 404.5 415 425.1 432.5 430.2 418.4 407.5 397.4 386 376.3 366.3
129.1 131.2 133.1 137 147.7 151.8 155.5 163.6 178.6 193 200.7 199.8 208.4 211 208.6 205.6 197 189 180.5 170.7 160 150.4 142 135 132.2 131.1 127.2 122.4 118.4 117.5 117.2 112 111.2 110.3 111.3 114.6 125.3 136.6 142.1 142.6 146.1 150.5 157.9 168.8 179 188.8 197 203.9 211.2 222.8 240.7 257.2 272.5 289.7 299.3 307.2 315.5 333 344 344.1 344.2 338.7 335.2 335.7 339.6 346.1 353.4 362.4 370.6 380.6 390.7 399.9 415.2 431.9 444.4 451.8 455.9 458.4 459.3 458.8 456.7 452.9 448.9 442.7 432.7 427.7 431.7 443.4 458 474 490.3 507 524.3 537.7 549.1 559.3 569.1 578 586.4 593.4 595 590.7 582.9 565.7 542.5 516.8 494.4 476.2 465 459.2 466.8 464.2 445.1 414.6 397.2 408.9 423.9 439.2 459.6 483.5 511 538.1 565.5 592.2 611.7 622.6 628 626.8 617.1 633.9 646.3 654.7 661 667.1 671.3 672.6 669.8 663.3 650.9 639.8 647 657.4 667.9 672.8 670.5 655.5 632.2 611.6 590.1 565.8 548.7 534.6 522.4 512.2 504.7 499.2 494.6 489.3 483.1 479.2 476.1 472.1 468.5 462.8 458.3 452.9 448.6 445.7 443.7 438.2 432.8 427.4 423.4 419.1 414.4 410 405.2 399 390.8 383.3 377.2 371 366.4 361.6 357.6 365.1 369.6 372.4 383.6 397.3 407.9 417.8 425.7 427.7 418.7 409.2 399.1 388.8 379.1 368.9
128.3 130.4 131.7 135.1 145.3 149.3 153.7 163.4 178.2 190.2 193.7 200.8 212.5 208.9 202.8 193.6 185.4 177.6 167.9 158.3 149.4 141.8 134.4 130.8 129.8 126.1 120.8 116.5 114.1 113.8 110.9 110.6 111.1 111.4 114.6 125.6 138 143.1 144.5 145.7 151.7 158.3 168.7 178 187.4 195.6 204.1 211.8 222.1 236 256.7 275 289.8 305 314.8 323.7 334.1 340 335.9 335.8 332.4 328.3 327.2 330.8 336.4 345.4 355.2 366.2 377 387.4 398.2 405.6 418.8 433.2 447.5 460 468.5 473.8 477.1 478.8 477.8 475.2 470.3 458.9 446.9 440.1 437.5 443.9 456.6 471.9 488 504 521.2 536.1 549.5 561.5 572.4 582.7 591.6 597.7 594.7 582.6 564.4 542.1 517.6 494.1 473.1 459.8 451 452.4 467.2 471.3 456.6 428 401.4 393.7 408.5 425.8 447.4 468.8 494.2 524.4 555.2 582 599.9 609.2 612.9 606.4 617.1 635.1 645.3 654.4 661.7 667.6 671.2 673 671.4 665.7 656.3 653.7 658.6 666.5 673.5 675.6 670.2 652.8 631.5 612.1 588.7 565.9 547.9 533 522.9 512.7 504.9 500.2 495.6 491.4 487.5 485.1 482.1 478.7 474.3 469 463.2 459.1 456.3 453.1 448.8 443 438.4 434.8 431.2 427.3 423.8 420.8 418.3 411.3 401.3 389.8 381.1 374.1 367.4 362.4 357.3 359.5 363.9 365.4 371.6 388.2 400.8 410.3 418.7 425.3 420.7 412.7 402.2 391.1 382.2 373.5
126.5 129.3 131 135.1 142.5 147.1 152.4 161.5 175 184.3 187.3 203 208.8 204.7 196.2 185 174.8 166.1 156.7 147.3 141.3 135.8 130.6 128.3 124.8 119.2 112.7 110.6 110.1 110.2 110.2 110.3 110.9 114.4 123.1 137.2 144 146.1 148.3 151.9 158.5 168.6 175.4 184 192.9 203 215.1 223.9 239 254.4 273.9 289.7 306.1 321.5 331.7 338.3 333 327.7 324.1 321.3 319.1 318.7 322.1 326.9 334.7 346.3 358.1 369.5 379 387.9 396.7 406 419.1 431.5 444.5 456.6 466.8 475.9 482.8 487.6 488.4 487.9 483.2 471.8 463.6 455.8 449.9 449.8 457.3 468.5 481.6 496.3 513 530.6 546 559.6 572.5 583.2 591.3 593 583.1 564.3 541.4 517.9 494.3 472 455.3 444 437.2 450.7 468.7 474.3 463.7 436.9 406.8 383 396.8 418 441.1 463.1 488.8 519 548.6 573.8 588.8 595 591.7 596.5 617.3 630.4 640.9 649.6 656.9 663.2 667.4 670.6 671 668.9 666.9 667.1 671 675.7 678 676.8 667.2 649.6 629.5 610.6 586.6 563.5 544.7 533.7 523.1 512.5 503.6 499.5 495.9 493.3 492.1 490 487.3 483.6 478.8 474.4 470.6 467 463.5 459.5 455 451.1 449 445.9 443.6 442.9 441.6 441.5 439.8 432.1 418.4 401.5 388.4 378.3 370.1 363.2 357.8 357 359.1 360.8 366.6 378.2 393 404.2 412.8 421 421.9 416.8 406.4 394.6 385.1 376.8
125.3 129.2 131.7 136.5 141.6 146.4 151.6 160.5 171 177.2 181.8 198.9 202.6 198.6 189.1 174.4 164.2 155.4 146.4 138 135 131.2 128.3 125.8 119.5 110.9 109.5 109.2 109.6 109.6 110 111.2 119.3 125.5 135.8 143.2 146.2 147.7 151.4 157.4 168.4 174.9 180 188.9 200.2 213.6 227.3 238.9 257.7 272 287.3 303.5 320.4 327.9 335.4 324.9 318.7 315 312.7 311.5 311.5 314.6 319.1 324.4 334.2 345.8 356.5 366.6 374.8 384.1 393.4 403.4 416.1 428 439.4 449.7 460.1 470.9 480.2 486.2 487 487 485.8 481.7 477.8 470.8 465 461.6 463.7 470.1 478 489.5 504.4 523.7 541.6 556.7 569.9 580.9 585.5 579.8 564.4 542.1 518 495 472.8 453.8 438.4 427.9 435.6 452.8 470 476.6 465.9 438.7 405.6 379.6 389.2 412.1 436.1 459.6 484.5 514.2 542.7 565.2 576.1 577.1 567 590.1 608.9 622 632.8 641.7 649.5 656.2 661.9 665.5 668.1 671.1 674 676.7 680.8 682.4 681.9 675.8 661.8 643.7 626.9 607.4 581.7 561.7 546 535.2 524.2 511.5 501.6 497.4 496.4 497.6 496.7 495.5 492.7 488.3 483.2 478.7 475.3 472.3 469.2 466.4 464.4 463.7 463.3 463.2 464 465.4 466.1 467.2 465.3 457.1 439.6 418.3 399.5 385.9 375.2 366.2 359.3 355.3 356.6 356.6 362.1 368 385.5 397.1 407.2 415.5 419.9 418.1 411.5 400.5 389.4 379.8
124.7 128.7 132.6 138.6 144.3 146.9 152 158.6 166.7 170.5 178.1 189.8 194.5 191.3 175.4 162.2 152.9 144.4 136.6 131.6 129.7 127.9 126.1 120.6 111 108.7 108.2 108.7 109 109.1 114.1 123.3 127 134.4 142.6 146.6 147.8 150.1 155.7 165.7 173.3 179.9 189 199.6 212.5 226.4 239.4 253.6 274.9 286.7 301 313.2 322.3 331.7 322.6 313.3 308.6 306.3 305.3 304.1 306.5 310.5 316.7 323.4 333.3 343.4 353.3 362 370.5 379.7 388.9 398.9 410.6 421.9 431.8 440.9 450.7 461.3 471.3 478.8 482.8 482.8 482.4 485.4 487.6 484.5 479.3 476.9 478.8 482.9 486.8 493 501.9 518.2 538.5 554.9 566.9 576.3 576.2 564.2 543.2 519.3 495.5 472.9 454.8 438.8 423.2 416.1 434.5 454.9 470.7 477.2 465.7 439 407.8 377.7 384.2 407.4 432.2 456.8 481.7 510.8 535.5 551.4 558.4 554 545.2 577.3 597.4 611.4 622.5 632.1 639.6 647.1 653.4 658.8 667.6 674.3 680.3 683.1 686.3 686.6 683.3 670.4 655 638.6 622.7 602.1 580.6 561.1 546.7 537.2 523.1 509.2 497.9 492.9 497.2 501.4 503.4 503.4 499.3 493.5 487.8 483.4 480 477.9 476.1 475.7 476 477 479 480.7 482.3 486.3 490.6 491.5 488.8 478.4 459.2 435.7 412.7 393.8 381.1 370.9 361.8 355.9 353.8 355.3 357.5 362.5 378.2 391.6 401.4 410 416.2 417.1 414.7 406.9 396.5 386.2
123.2 129 131.8 142.4 149.8 148.9 151 155.9 161.4 163.2 173.1 182 183.6 176.5 164.2 152.3 142 133.7 129.2 127.4 126.4 125.8 122.7 115.6 108.1 107.9 107.9 108.5 111.3 115.6 123.4 129.2 132.5 140.3 145 148.2 149 152.6 163.5 173.9 182.5 192.3 204.6 215.8 228.3 242.1 257.2 273.4 285.8 301.6 307.4 316 324.2 319.1 308.7 303.9 302 300.5 296.8 301.5 307.3 312 320.6 330.4 334.5 340.9 348.8 357.1 365.1 374.4 383.7 393.6 404.9 414.4 423.7 432.7 442.1 451.6 460.8 468.5 475.2 477.8 478.7 483.6 489.2 493.2 492.8 492.8 496.4 501.6 506 511.2 518.2 529.3 543.5 557.3 565.9 570.5 565 546 522.5 498.9 475.8 455.3 438 422.3 409.6 410.1 431.6 454.1 472.1 477 463.9 436.1 407.4 377.4 379.8 403.3 428.9 454.3 479.2 505.3 522.7 533.9 534.8 526.2 529.8 564.5 582.7 597.7 609.6 619.8 628 635.3 644.5 656.6 667.6 677.8 683.2 686.3 688 685.5 678.2 662.9 647.2 633 616.5 595.5 575.5 557.5 545.1 535.7 520.5 503.4 492.2 486 497.5 508.5 513.6 512.3 506.8 500 493.6 488.8 486.1 485.1 484.7 485.4 487.1 490.3 493 494.6 497.1 502.3 506.9 507.2 504.5 494.2 477.4 452.2 427.1 404.1 388 376.3 366.8 358.4 352.4 353.4 355.2 358.8 370.7 385.2 396.8 404.7 411.6 416.6 418.7 413.8 403.9 393.1
121.4 126.7 132.7 147.4 154.7 150.9 148.8 151.5 153.2 156 167.6 173.9 171.6 163.4 152.5 142.7 133.9 127.9 125.1 124.5 125.3 121.1 116.4 109 107.7 108.4 108.8 111.3 117.5 124.5 129.5 131.3 137.8 144.3 147.2 149.2 152.9 163.5 176.3 185.6 196.8 208.2 220.2 233.8 245.3 266.5 278.6 292.1 304.5 312.1 313.1 314.9 315.2 307.5 300.2 296.9 296.2 292.1 297.3 303.1 309.6 318.8 330.4 342.7 351.7 349.8 346.9 353.9 361 369 378 387.3 398.4 406.7 415.5 424.6 433.7 442.6 451.3 458.5 465.5 470.8 475.1 479.1 484.8 492.6 500.8 506.6 512.6 519.2 524.8 531.3 538.7 547.4 556.1 563.2 566.1 563.3 548.8 525.6 502.2 478.9 457 438.1 421.2 408.3 398.9 407.9 430.8 454.5 472.2 475 458.9 433.4 405.3 376.9 375.2 399.5 426.2 452 475.9 494.3 509.1 517.2 509.8 499.9 518.6 552.1 568.7 582.1 594.3 605.6 615.6 627 640.7 654.6 667.7 677.5 682.4 685.1 684.5 679.3 668 653.5 639.7 625.3 607.9 587.6 568.4 552.5 541 530.3 515.3 496 485.2 482.7 494.8 509.4 519.2 520.2 514.5 507.2 499.9 495.7 494.3 494.6 496 497.6 500.2 502.9 503.9 503.2 504.4 508.5 512.5 512.7 508 499.7 484.9 464.8 440.6 415.7 396.1 381.9 371.7 362.3 354.9 350.6 353 354.2 362.8 379 391.5 399.7 407.3 415.2 422.3 420.1 411.1 400.4
119.7 125 135.8 152.3 155.4 150.5 145.6 146.4 146.3 149.5 161.7 164.9 160 151.3 141.5 133.4 127.9 122.7 120.9 122.3 112.9 103.3 104.9 106.3 108.3 108 109.5 116 123.3 129.2 130.2 134.5 141 144.9 148.4 152.1 161 175 186.5 198.9 211.6 223.6 234.7 244.8 260 275.7 290 303.2 311.6 316.4 316.5 309 302.8 297.6 293.7 291.4 285.1 291.4 298.1 306.9 314.9 327.2 339.6 353.3 366.5 366.9 363.2 359.4 359.6 364.1 369.8 376.7 388.6 399.1 407.4 416.4 425.4 434.3 442.6 449.8 456.4 462.9 468.8 472.9 477.9 487.4 499.4 510.9 519.5 527.1 535.3 543.7 552 559 563.9 566.3 565.2 552.1 529.1 505.1 482.4 460.2 440.1 421.2 407 395.7 395.6 410.1 432.4 455.7 470 471.4 455.3 430.5 404.4 372.2 371 396.6 423.4 447.9 465.8 481.1 494.5 495.5 486.8 483.6 512.3 539.3 554.3 565.9 577.6 589.6 604.7 620.1 635.9 650.4 664.3 673.2 677.1 678.5 675.6 667.3 654.6 642.3 629.7 614.8 597.2 578.9 562.3 547.4 535.4 522.6 507.6 487.1 477.1 475.9 488.1 504 516.8 523.1 519.9 513.1 506.2 502.3 502.3 504.4 506.2 508.1 510.7 511.2 510.6 509 507.7 510.1 512.3 510.9 505.9 497.9 487.4 467.4 445.5 421 403.6 388.1 377 367.2 357.8 351.8 350.9 352.9 356.7 369.7 384.9 396 403.9 412.2 422 424.4 419.1 409.2
118 125.9 139.8 154 155.1 147.9 140.9 140.7 140.5 144.9 154.9 155.9 148.8 141.8 133.8 125.9 120.4 118.3 116.9 106.1 108.4 107.8 106 111.1 109.8 110.7 114.9 122.6 130.2 132.3 130.9 136.7 142 145.8 149.2 160.3 174.2 186.3 197.6 211.6 220 230.8 238.7 249.7 264 277.6 292 299.6 310.3 312.2 308.9 297.4 292.7 288.7 287.2 283.1 282.1 290.9 299.9 308.3 318.8 331.6 344.9 360.4 370.1 380.1 381.9 378.6 376.3 373.7 372.8 372.7 377.2 389.6 400 408.6 417.8 426.4 434.4 441.6 447.5 454.1 460.7 466.7 471.3 481.5 494.5 508 519.5 527.7 536.6 545.7 554.4 560.1 562.7 563.3 553.8 531.8 508.3 485.4 464.5 446.2 426.7 409.5 396 387.5 396.3 410.9 429.9 450.2 459.1 462.5 445.8 422.6 396.6 368.3 369.6 394.4 419.9 438.2 453 466.3 472.6 470.3 466.8 483.6 509.3 527.3 538.2 548.4 559.8 574.9 596 612.8 629.9 644.9 658.2 666.1 668.2 667.9 661.9 650.9 639.5 630.1 617.4 602.1 586 570 555.2 540.9 525.9 509.7 497.8 479.4 469.4 468.1 479.4 495.7 510.9 520.6 520.5 515.7 509.9 505.6 507.2 510.8 513.3 515.1 516 515 512.9 512.3 507.8 505.9 507.9 505.8 501.1 492 479.3 462.8 445.4 426.5 411.4 395.4 382.4 372 361.8 354.9 348.3 352.6 353.8 364.3 378.6 392.5 400.5 409 419.4 428.1 428.5 421.1
117.2 126.6 144 154.2 152.2 144.7 136.4 133.9 132.6 141.3 146.6 146.6 139.3 131.1 126.6 118.3 114.6 113.7 106.7 107.5 109.9 110.8 109.2 115.3 116 112.9 122.6 131.1 136.7 133.7 134.2 137.4 141.9 149.1 161.5 173.9 184.8 194.2 207.1 217.5 224.3 232.4 240.7 252.5 264.5 273.3 281.1 289.7 296.6 297.3 291.2 285.8 281.6 278.4 279.1 274.4 283.8 293.3 300.7 308.2 320.1 333 345.9 358.1 372.4 382.9 388.5 394.3 395.8 393.8 391.1 387 381 382.4 395.1 403.7 411.6 419.1 426.6 432.8 438.6 444.1 450.8 458.1 465.2 475.2 489.1 502.1 513.7 522.8 531.6 540.7 547.2 554.2 554.8 549.5 530 509.1 489.1 468.5 450.6 435 418.6 403.5 388.8 383.8 393.1 407.2 422.8 435.9 443.8 446.7 432.1 413 388.5 363.1 367.8 391.5 409.6 425.1 438 443.5 444.9 446.3 458.5 481.6 503.2 515.6 524.2 532.7 545 565.5 589 607.4 624.9 640.4 651.6 655.8 656.1 653 643.2 634 626.7 617 604.2 590.3 576.6 561.9 547 532.8 516 499.7 487.2 472.9 462.8 460.4 470.9 486.1 502.2 513.4 517.2 514.4 509.3 504.4 509.6 515.5 518.5 519.2 518.4 515.8 512.7 509.9 504 499 499.4 497.7 494.6 483.2 471.3 460.2 447 431.9 417.5 402.8 388.2 377.6 366.8 358.5 351.8 350.2 351.6 358.4 370.5 386.1 397.2 406.6 417.2 429 436 432.1
116.7 129 145.8 151.3 147.5 139.6 132.1 127.9 125.2 135.1 138.3 136.9 130.3 125 116.9 111.4 110 106.5 107.2 109.9 111.6 112.7 111.9 107.9 117.9 123.5 130 137.4 137.8 135.3 137.5 142.4 149.3 163.6 176.9 183.5 195.2 203.8 211.6 217.9 224.4 231.6 240.5 248.3 254.8 262.1 270.7 276.3 279.9 279.4 275.8 273.5 272.1 269.5 267.9 276.4 283.1 290.7 298.9 305.1 316 329 340.8 353.7 367.4 377.3 388.5 397.3 405.2 411.5 414 408.2 396.3 391 390.9 398.8 406.7 413.4 419.7 425.1 429.5 434 441.1 450.7 460.2 470.4 483.1 494.9 505.4 513.9 523.6 532 538 542.7 540.7 525.1 505.8 488 471.5 455.4 440.5 425.6 410.9 397.2 383.7 378.7 386 396.9 407.2 418.4 428.1 430.2 418.1 399.8 377.8 358.7 366.3 383.5 397.4 408.6 417.9 419.6 423.2 437.1 456.9 477.7 495.1 508.1 513.6 521.7 540.4 564.9 588.8 605.1 621.4 635.8 642.4 643.3 642.7 636 628.2 621.7 615.1 604.6 591.1 577.9 565.6 552.6 538.9 525.2 510.2 492.5 478.7 467 456.5 453.3 461.3 476.2 492.2 505.5 509.7 508.4 504 501.2 510.1 516 517.9 517.3 515.7 513.4 509.4 504 498.2 491.9 489.3 488.7 485 473.6 465.9 456.4 445.8 434.3 420.8 408.3 394.8 382.8 372 362.5 354.3 347.6 347.5 353.2 364.4 379 393.5 403.4 414.2 426 436.9 438.6
116.6 130.9 145.4 146.1 141.8 133.5 127.6 123.7 123.2 127.6 130 126.7 123.7 117.9 107.7 106.9 105.6 107.2 111 110.8 111.9 114.1 117 117.2 120 129.1 135.1 140 138.5 139.4 143.6 155.9 160.6 172.7 182.2 190.2 199.9 207 212.8 216.3 220.8 225.7 228.2 236.5 243.8 253.4 258.7 261.8 267.3 266.2 264.9 263.6 257.1 265.1 269.9 273.7 279 285.6 291.1 299.2 309 318.5 329.8 343.4 359.1 372.1 384.3 395.2 410.9 423.1 432.5 430.1 418.3 413.5 405.2 402.2 403 408.5 414.5 416.9 420.3 426.2 434.9 446 456.6 466.8 476.8 487.9 497.3 506.1 516.2 523.4 528 529.2 515.6 499.9 483.6 471.2 459 444.7 429.2 415.7 403.1 389.4 376.7 371.9 374.9 380.2 384.8 397 408.6 411.6 400.5 383.5 365.2 352 360.8 371 381.9 388.8 394.5 401.5 416.3 436.3 454 468.3 481.3 492.3 504 525.6 550 572.4 593.2 607.2 621.3 630.9 633.4 632.6 627.6 620.4 614.8 609.8 603.5 592.5 579.1 567.1 555.2 542.9 530.5 517.4 502.8 485.8 474 462.8 452.9 448.4 453.1 466.6 481.3 495.7 500.5 499.9 496.5 498.5 507.5 512.4 514 513 511.2 506.8 501.6 496.1 490.4 483.6 478.4 478.6 474.3 466.3 458.6 451.5 442.9 432 421.8 410.8 400.8 388.1 376.8 367.1 357.8 350.2 345.5 344.2 359.9 372.8 387 398.2 408.9 418.6 429.1 437.9
118 131.3 144.1 142.7 136.6 128.7 123.8 120.5 120.1 123.3 124.1 119.8 116.8 108 105.5 103.7 107 112.5 113.2 112 113.6 118.5 123.9 120.1 119.6 133.2 140.5 142 140.7 143.8 152.4 160.8 167.9 178.2 187 195.6 201.4 206.9 210.4 207 194.6 202.3 206.9 229.9 237.6 240.7 244.8 250.4 254.7 255.7 255 256.3 259.5 260.5 263.5 264.1 271.5 268.3 278.2 288.9 300 308.8 319.9 334.3 350.3 365.1 379.1 395.4 411.6 425 436.6 439.2 436 434.6 427 423.5 420.2 419.2 417.9 421.1 427.6 435.2 440.9 446.5 453.8 463.9 473.2 482.7 491.9 501.2 509.6 513.8 515.1 507 491.6 477.1 465.2 457.8 446.4 431.6 416.9 404.1 394.2 381.8 379.9 371.6 360 359.3 365.8 376.6 388 390.1 381.1 367 353.8 352 358.2 366.9 375.7 383.4 391.6 402.1 417 436.7 453.7 465.9 480.7 496 516 540.4 564.1 584.4 600.3 613.4 621.3 624.3 623.1 618 611.3 605.8 601 597.1 591.7 581.3 568.5 556.1 544.3 532.9 521.1 509.3 495.3 481 470.6 460.8 451 445 448.3 458.2 471.1 483.4 490.4 489.1 486.5 493.4 501.7 506.4 508.6 506.4 503.1 497.9 492.7 487 480.1 473.3 466.4 467.6 465.9 459.6 452.5 445.8 438.3 430.9 422.3 414.1 405.3 394.8 383.9 373.5 363.5 354.1 346.1 342.8 354.4 366.6 378.7 389.6 399.9 409.5 420.2 430.2
118.1 131.3 139.7 138.5 131.5 125 122.1 117.7 116.1 118.1 116.5 111.9 106.3 105 102.2 106.2 111.1 115.2 115.3 115.9 123.1 126.4 129 130.8 123.2 124.6 138.2 142.9 146 152.8 160.2 166.9 172.9 182.7 189.7 190.3 195 197.2 189 193.4 210.2 219.9 226.6 227.4 234.7 242.2 244 243.8 248.2 254.6 261.7 266.2 270.8 273.9 277.8 282 285.8 288.4 287.9 277.5 293.5 304.4 313.1 326.3 343.4 359.3 375.8 393.4 408 420.2 431.1 433.7 443.7 447.7 445 442.3 438.6 437.5 433.6 434.9 443.4 448.9 455.8 461.8 465.6 469.2 473.1 480.9 491.4 499.1 503 503.3 498.1 482.1 468.6 457.2 449.8 440.8 429.9 418.3 406 396.3 400 400.6 402.5 396.7 378.9 356.8 349.8 363.3 370.2 370.2 363.9 352.4 346.4 353.3 364.3 381.3 396.2 407.8 419.3 429.8 441.4 456 469.3 483.1 502.1 518.6 535.7 558.1 579.8 595.9 608.8 617.1 619.8 618.2 609.7 603.2 596.6 590.7 588.1 584.7 579.8 570 557.5 545.1 534.6 523.5 512.2 501.3 488.3 476.3 467.8 459.3 450.1 442.2 443.3 451.3 460.6 471.5 477.8 477.1 477.3 486.1 493 497.7 499 496.3 493.1 488.4 482 475.2 470 462.7 454.1 456.2 456.4 450.2 443.1 438.2 433.6 430.2 425.5 417.4 409.1 400.4 390.9 379.9 368.9 358.4 349.8 343.6 348.4 359.1 369.6 378.3 389.9 400.7 411.1 421.2
118.8 131.5 137.2 134.3 127.3 121.3 120.7 115 111.7 113.6 109.8 105.6 103.6 99.9 108.9 111.4 114.3 120.2 119.3 121.8 124.8 128.7 133.1 135 137.8 142.1 141.5 139 153.5 161.1 165.9 170.8 173.3 175 181.3 180.8 182.2 194 201.9 209.7 220.3 229.7 236.8 242.9 248.2 253.4 256.6 258.8 262.3 267.2 272.2 276.9 281.2 286.2 291.4 296.2 299.9 303.3 300.8 291.2 281.8 300.1 307.2 320.8 339.1 357 374.9 388.3 402.1 413.8 426.3 439.9 449.9 451.4 451.4 452.6 454.6 455.6 453.1 457 462.5 467.1 472.8 477.3 476.9 473.4 477 484.6 493 495.9 494.5 490 473.9 460 447.6 439.1 431.1 422.1 413.7 403 395.3 402.4 413.8 420.9 425.3 416.6 393.9 367.3 341 348.7 354.2 355 349.4 343.1 349.3 363.2 383.5 405.8 423.9 436.5 448 457.8 467.7 479.2 490.9 503.7 521.1 540.8 557.7 575.3 593.2 606 612.8 617.3 615.8 606 595.6 589.1 581 574.9 575.9 573.6 569.7 561.1 549.3 537.3 526.3 514.7 503.2 492.3 481.4 471.6 464.5 456.9 448.8 440.8 438.5 444.2 451.9 459.5 463.9 464.9 467.1 474.7 481.4 484.4 485.7 484.9 480 474.1 467.8 462.6 456.8 448.4 440.8 443 444.1 439.4 435.8 432.8 430 428.3 425.6 419.2 411.1 402.9 394.6 383.9 373.2 362.8 353 342.1 342.7 351.5 360.2 369.2 380.6 391.8 401.5 411.3
