ncols 200
nrows 82
xllcorner 310000
yllcorner 653700
cellsize 50
514 527 529.7 527.4 523.9 521.2 518.9 518.8 517.5 515.7 514.3 511.9 510.1 507.3 503.8 498.8 488.1 479.4 468 459.6 452.9 446.5 442.3 441.4 443.4 444.8 445.6 448.5 453.3 459.8 467.4 474.7 474.8 460.8 442.1 429.4 426.5 426.8 428.6 424.3 413.5 403.8 396.9 392.9 386.7 378.7 371.6 367.1 374.3 384.9 394.8 404.6 414.2 420.8 425.3 427.2 426.4 424 420.8 417.7 413.5 406.9 400.7 395.6 390.5 382 390.8 400.8 410.5 418.6 424.3 427.5 428.8 430.1 432.3 433.8 434.1 435.6 439.5 445.6 451.7 459.1 469.6 481.2 492.5 497.5 496.1 491.6 487.3 481.5 474.4 465.4 455.3 444.2 434 428.4 422.8 413 407.4 399.1 392.5 384 376 369 364.3 360.3 355.9 349.2 341.5 337.2 326 332.7 362.1 367.5 363.1 370.7 382.8 394.5 412.9 427.5 438 444.2 443.9 443.9 440.2 436.9 424.1 411.2 401.6 394.4 387.5 380.6 374.8 368.4 361.6 355.2 351 350.2 350.8 353.9 355.3 348.4 333.4 325.3 318.2 313.5 306.1 303.1 298 294.7 290.5 293.8 289.6 289.3 287.1 284.7 281.9 279.5 278.1 276.8 275.6 275.6 274.8 275.8 276.8 277.3 277.1 276.9 275.8 275 273.8 272.9 273 273.1 273.2 272.7 272.3 272.1 271.7 270.2 269.8 268.9 267.2 266.1 265.9 265.9 266.3 265.8 261.4 253.9 258.2 254.8 249 233.9 222.7 220.3 215.9 207.8 204.7 210.8
514.8 525.4 526.9 523.2 519.6 517.1 514.5 512.6 510.1 509.2 507.4 504.5 502.2 498.4 494 488.8 480.8 469 462.6 454.1 448.6 442 437.2 436.3 438.5 439.6 440.6 443 448 456.6 464.5 470 469.1 453.2 436.8 429.3 427.4 426.6 425.4 418.5 406.8 400.2 395.1 390 385.5 380.2 372.8 366.5 372.5 382.1 394 403.4 412.8 419 421.7 425.4 422.8 416.6 411.4 405.8 402 399 394 388.1 383.1 380.3 388.6 399.2 408.5 415.8 420 422.1 422.6 422.8 423.9 424 427.2 432.4 438.1 444.7 452.3 460.9 471.8 485.7 498.3 507.7 509.9 508.5 505.7 501.4 494.8 487.3 477 463.9 452.8 447.2 436.8 426.8 416.3 406.5 396.1 385.3 376 367.2 360.8 356.8 354.5 354.3 341.3 336.7 326 331.5 349.5 347.5 358.1 373.1 384.5 395 409.3 419.1 426.4 432.3 438.6 446.3 444.6 434.9 424.3 414.8 405.9 398 391.7 385.9 379.4 373.7 368.6 360.5 348.5 337.9 339.1 340 340.8 334.1 324.9 317 311.7 309.5 305.2 301.7 298.6 294.7 291.9 285.8 285.6 285 284 282 280.2 279.1 278.1 276.6 275.8 274.6 274.3 274.3 274.1 274.9 276 276 274.9 273.6 273.5 273.6 273.7 273.7 273.4 272.8 272.3 271.7 271 270.2 269.6 268.4 267.1 265.2 265.4 264.4 265.7 260.6 247.4 238 237.5 236.5 228.4 216.3 211.8 207.6 206.5 206.8 213.1 222.7
522.7 527.8 526 521.1 516.8 513.2 509.6 505.8 503.6 501.1 498.3 495.3 493.2 489.8 484.4 478.1 469.1 461.7 454.7 449.1 442.8 436.6 433.5 430.3 432.3 432.5 433 435.5 441.1 450.2 460.3 466.8 459 444.7 430.6 426.1 424.1 421.3 416.4 410.4 403.2 398 393.1 387.4 383.1 378.9 372.7 366.3 365.8 376.5 388.5 399.1 409.8 413 415.9 419.7 415.9 409.6 403.7 395.9 394.5 391.4 387 383.2 379 376.3 386.2 396.9 405.6 411.3 415.2 417.9 417.1 415.4 414.6 419.9 424.9 431.3 437.1 444.8 453 462 474 488.5 502.5 514.1 520.6 523.2 522.5 519 513.2 505.2 495.2 482.2 471.1 461.2 449 437.2 424.7 411.6 397.8 384.7 374.5 365.5 360.1 353.2 349 344.1 340.8 337.1 326.4 323.8 331.3 350 370 384.3 396.7 404.7 410.5 415.6 417.2 424.8 438.4 450.2 457.9 456.9 445.9 434.1 421.9 409.7 398.1 390 383.2 376.7 371 362.2 350.2 342.1 331.4 329.5 329.2 321.6 315.2 310.4 306.6 305.4 301.4 298.7 295.5 292.5 289.9 287.1 283 282 281.8 280.3 279 278.1 276.8 275.7 275.5 274.8 273.8 273.7 273.3 273.1 273.6 274.2 274.3 274.2 274.1 274 273.9 273.6 273.3 273.1 272.1 270.9 270.5 269.5 267.9 267.4 266.9 264.9 255.8 250.1 240.6 231.3 222.2 219.6 219 216.6 213 207.6 204.7 212.9 215.4 215 225.9 238.8
529.5 530.3 524.5 518.6 513.5 509 504.1 500.9 498.1 494.4 490.9 487.7 483.7 478.4 473.3 464.3 460.5 454.9 449.6 444.1 437.3 433 430 426.2 426 426.3 427.2 430.5 436.1 444.1 452.6 456 446.4 434.7 425.3 422.1 419.8 416.8 411.6 407.3 401.3 396.6 391.3 385.4 380 374.1 368.5 365.7 363.4 366.4 377.8 387.8 399.6 405.1 409.9 411 408.3 402.6 396.2 389.6 384.3 383.1 379.1 378.1 369.8 377.1 384.4 393.8 400.3 405.2 409.8 411.7 411.4 407.3 413.5 418.5 422.4 429.1 435.7 443.6 452.4 462.7 474.1 489.6 504.4 517.1 526.1 531.9 533.8 531 525.1 517.1 506.1 493 481.4 468.6 455.4 442.9 429.9 415.8 400.1 386 375.9 367.3 360.1 354.9 352.2 348.6 342.1 333.2 329.7 321.5 333.8 363 380.9 393.4 402.7 408.5 410.2 410.1 408.8 419.5 434.6 451.7 463.2 462.4 457.6 452.1 446 431.3 413.2 398.6 386.9 379.5 373.1 362.3 351.8 341.6 332.4 323.6 318 313.4 310.7 308.3 306.3 303.1 299.2 297.6 296 292.4 289.3 286.4 284.6 283.4 280.1 278.5 276.4 275.3 273.8 273 272.9 272.9 272.7 272.4 272.2 272.2 272.4 272.5 272.7 273.5 273.9 273.7 273.8 273.5 273.5 273.4 272 270.1 269.6 268.3 267.5 267 266.7 259.1 242.8 232.5 217.2 208.3 211.2 206.3 207.8 205.6 214.7 217.7 222.7 222.9 223.8 226.4 238.1 240.7
530.7 529.4 522.9 515.6 509.5 504.3 498.5 494 490.4 486.8 483.1 479.1 473.9 468 463.1 458.9 454.8 449 443.9 439.4 435.4 431.1 426.9 423.2 420.6 420.6 422.6 425.7 429.8 434.7 439.9 440 434.9 425.3 422.1 419.8 417.4 413.7 409.4 405.5 400.3 395.2 389.2 380.8 373.3 371 368.9 368.7 367 363.1 364.7 378.3 387.9 396.7 401.9 402.9 399.5 394.7 389.5 383.8 376.1 375.4 374.1 371.8 369.4 375.4 379.7 386.5 391.7 395.6 400.5 403.2 404.6 404.9 410.7 415.9 420.7 426.8 434.7 444.1 455.1 465.1 476.4 490.3 506.2 518.9 528.1 534.2 536.9 534.7 527.7 520.8 510.8 498.2 483.8 470.5 457.9 445.8 433.2 419.1 403 387.5 376.7 369.7 365.6 362 356.5 351.5 345.1 339.6 332.2 321.4 335.1 363.1 387.7 397.7 403.1 404.9 405.1 404 400.5 408.2 422.7 449.6 463.5 465.9 464.9 462 452.5 440.1 423.1 406.6 390.3 379 368.9 359.5 346.4 335.9 328.3 322 316.3 312.7 310 308.6 307.1 301.1 301.4 299.9 294.2 290.5 288.7 287.4 288.2 288.8 283.9 280 278.6 276.1 273.9 273.2 270.3 267.5 268.6 271.2 272.2 271.9 272 272.7 272.8 271.7 272.2 272.8 273.9 274.1 273.5 272.6 270.7 269.6 268.9 268 267.3 265.8 257.6 241.7 224.9 212.5 207.8 216.4 221.1 217.8 219.4 225.9 226.6 233.7 231.2 233.1 235.5 238.4 232.6 242.2
531.7 528.3 520.9 512.8 505.1 499.1 492.2 486.3 481.1 476.5 473.1 470.3 464.6 460.5 456.5 452.5 447.7 444.6 441 437.5 434.5 430.5 425.3 419.3 415.6 416.3 418 419.2 420.2 422.1 426.8 427 423.9 421.2 419.1 417.2 414.9 412 408.1 404.7 399.3 393.1 385.8 378.7 372.1 384.1 377.3 376.3 374.7 369.9 362.3 363.4 378.5 386.8 392.1 392.7 388.7 384.9 380.5 376 372.1 371.2 370.3 361.7 367.4 373.3 376.9 381 385.9 386.3 390.9 395.6 398.1 405.1 409.7 415.3 421.6 428 438.3 449.3 459.6 470.6 480.8 493.5 508 520.8 528.5 530.9 530.5 528.9 522.9 516.2 507.9 496.3 483.1 469.5 458 446.8 433.7 418.3 402.2 394.1 386 378.7 375.8 369.2 360.6 353.4 345.9 340.8 334.7 320.8 335 362.3 386.8 393.4 395.7 395.8 394.2 393.3 392.3 401.9 418.6 444.7 466 471.7 470.4 465.5 456.4 440.2 423.7 404.8 385.3 374.1 365.9 354.9 342.1 334.9 326.4 319.9 315.1 315.4 313.1 309 307.9 305.5 304 300.3 296 292.1 290.9 291.7 291.7 287.4 280.9 279.4 278.5 277.7 276.8 276.7 276.1 273.6 269.7 264.8 271.6 271.6 272.3 272.3 272.4 271.3 271.6 273.2 274.5 274.7 273.2 271.5 270 269.6 269.8 267.9 266.8 253.5 235.2 221.2 211.5 214.2 214.9 223.5 231.1 236.8 239.9 235.4 238.2 234.8 240.8 242.7 244.5 242.8 238.7 239
532.4 526.4 517.4 508.6 501.3 494.4 487.2 479.8 472.8 467.4 463.2 459.6 454.7 452.2 450 446.3 444.9 442.8 439.9 437.2 432.7 428.6 423.2 417 413.1 411.5 411.7 413.8 414.9 415.3 416.6 416.9 417.1 416.2 415.4 414.3 412.4 410.1 406.8 404.6 398.7 390.3 381.8 375.6 386.5 388.1 385.3 381 379.2 377.9 373.1 359.2 358.4 370.1 377.7 378.6 376.7 376 373.1 369.5 368.2 365.7 358.8 365.9 375.2 381 386.1 390 394.2 397.5 399.4 400.3 398.9 403 408.7 415.6 423.2 432.2 443.8 453.1 464.4 475.4 486.1 497.9 511.9 520.9 525.8 524.8 521.8 518.4 512.8 505.6 497.4 489.1 478.7 467.8 458.8 448.4 435.9 419.8 415.2 405.3 395.2 390.3 385.9 376.1 365.7 356.6 350.6 344.7 335.8 322.1 330.8 354.9 378.1 383.3 380.9 380.1 377.9 377 388.8 401.5 421.1 448.7 471.4 474.9 472.6 463.6 452.5 435.4 420.2 398.7 380.2 365.5 354.5 346.4 338.4 331.5 323.6 320.9 322.1 320.2 315.3 311.8 309.9 306.5 303.9 300.3 294.8 293.8 293.9 294.7 290.9 285.1 281.3 280.2 279.1 278.4 278.5 277.7 274.6 273.2 267.3 267.8 271.4 271.3 271.6 271.3 271 270.6 271.5 273.8 274.3 273.6 271.5 270.2 269.7 269.1 268.8 266.7 251.5 232.2 218.2 210 211.6 220.8 229.8 239.1 246.4 253.8 250.5 254.7 255.8 252.7 248.5 246.7 243.7 243.9 244.3 239.1
527.9 522 512.9 503.3 496.9 489.4 481.2 473.8 466.1 461 455.1 450.2 447.4 446.4 445.3 444.5 443.5 441.7 438.9 436.1 432 426 423.3 420.3 416.3 410.9 406.8 409.5 410.8 411.3 411.3 411.4 411.4 411.1 410.3 410.3 409.2 406.6 403.2 402 396.6 388.5 377.6 389.1 395.6 395.4 389.7 385.4 384.1 382.2 378.5 370.7 362.4 355.7 357.4 360.1 366.9 368.6 366.8 365.8 365 358.6 365.1 371.8 379.8 387.4 394.4 400.2 405.2 407.8 407.4 405.5 405.4 407.4 412.8 416.9 424.5 435.9 447 457.8 469.5 481.1 493.4 505.5 514.6 518.8 519.3 516.1 509.9 503.7 499.3 491.5 485.8 480.8 472.8 466.3 461.5 450.9 439.3 434.3 426.4 417.5 408.8 404.4 398.2 386.7 374.7 363.7 354.9 348.7 340.5 325.3 319.8 340 359.4 368.4 365 360.8 363.2 378.9 391.8 406.3 429.6 458.3 474.5 479.8 471.9 459.1 445.8 426.9 411.1 393.1 374.7 358.1 350.7 344.1 335.9 328.5 327.8 328.5 327.6 321.1 317.8 313.2 312 306.2 303 298.5 297 297.9 298.4 293.8 287.8 282.9 282.1 281.3 280.2 279.8 278.4 276.1 272.8 270.1 263.4 271.2 270.5 269.5 270.3 270.3 270 270.6 271.6 273.3 272.7 272 270.9 269.9 269.6 269.2 269 255.4 232.1 216 211.9 221.3 224.8 232.2 242 258.3 262.3 263.4 263.1 260.7 254.9 250 247 245.2 245.2 245.4 246.8 245
523.6 516.2 507 499 492.4 484.2 475.8 467.8 460.8 453.3 448 444.2 443.1 442.8 443 442.5 441.6 440 437.3 434.1 431.3 429 426.4 422.2 415.8 411.5 407.7 404.8 406.8 406.4 406.6 406.5 406 405 405.2 405.8 405 402.1 398.2 396.6 393.8 380.9 390.4 396.2 400.2 399.5 395.8 390.8 387.4 384.9 381.6 376.9 371.1 362.8 353.3 353 354.5 360.9 363 362 355.8 360.2 367.9 376 384 392.7 399.9 407.6 413.4 416.6 417.2 415.3 415.6 416.4 417.9 422.2 427.4 438.2 449.4 461.8 473.9 487.3 499.9 509.7 514.6 513.6 510.4 504.9 496.6 485.6 483.2 475.5 469.4 468.8 465.3 463.7 463.1 454.7 451.5 447 439.7 432.2 425.6 419 410.8 398.6 383.2 371.2 361.9 353.3 343.8 326.5 313.8 328.7 339.7 352.3 347.7 354.6 366.2 381.1 398.6 419.3 444.2 467.1 475.9 477.2 468.4 454.4 436.5 417.4 401.8 386 370 358.8 351.3 343.1 338.9 338.7 338.5 336.7 329.6 319.1 320.8 316.8 310.8 305.1 301.3 299.9 301.5 302.6 295.5 289.4 283.6 283.7 282.9 282.1 281.6 279.7 276.3 273.3 271.8 268.6 265.8 271.1 270.1 267.8 269.4 269.6 269.9 270.9 272.3 272.7 271.5 270.1 269.8 269.6 269.3 268.9 260.5 236.2 215.7 217.5 224.5 229.9 235.2 247.3 261.1 263.3 264.1 263.5 260.7 257.3 254.5 250.1 247 247 247.9 248.9 249.4 248.7
520.5 511.1 503.3 495 487.3 478.2 469.7 462.2 454.7 447.2 440.7 437.9 437.4 438.9 439.7 440 439.8 438.2 437.1 435.3 433.3 431 427.9 424 418.3 411.3 407.1 404.1 401.4 402 401.7 401.3 400.7 400.1 401 400.4 398.6 394.1 389.7 389.8 384.2 393.6 400.1 403.6 404.8 403.1 399.8 395.7 390.1 387.2 383.3 378.2 373.4 369.5 363.5 357.9 352.4 350.6 356.4 356.8 351.9 364.3 371 378.7 388.3 398.1 405.2 413.8 420.7 424.2 425.8 425.8 426.3 426.7 428.9 429.5 434.6 441.3 449.6 464.7 478.2 492.4 503.8 511.4 512.5 508.6 501.3 493.6 483.3 469 466 460.4 452.7 450.7 445.3 461.9 464.1 462.1 464.4 460 452.4 445.3 439 429.7 419.4 407.3 392.7 382.8 371.3 359.9 350.2 336.6 324.8 319.9 328.2 334.6 344 357.3 369 386.2 409.1 432.4 455.1 475 474.8 471.2 459.3 442.3 424.2 404.6 391.8 379.1 365.5 355 347.5 346 347.9 345.3 341.1 335.3 325.5 324.2 320.4 316.4 310.6 304.3 302.6 302.9 305 296.2 288.7 284.8 285.1 284.2 283.9 283.7 281.6 277.7 274.6 273.3 273.8 267.4 267.8 270.1 269.5 267.4 268.5 269.4 269.9 270.5 271.4 271.5 270.4 269.5 269.1 269.3 268.8 266.2 243.4 220.3 216.2 224.3 235 246.6 250.8 254.9 263.5 263 262.3 260.7 256.4 254.3 253.2 249.6 247.6 249.2 250.8 252.3 252.3 249.8
514.4 506.8 497.7 490 481.6 471.9 463.7 455.6 448.5 442.4 436.6 432.8 432.9 434.4 436.7 437.7 438.2 438.2 437.9 436.6 435.3 432.4 429 423.5 417.1 411.4 408 404.7 401.7 399.1 399.2 398.4 397.7 397.2 397.1 396 392.4 386.8 390 390 397.2 402.9 407 409.1 408.3 406.3 402.7 398.1 393.7 389.1 384.3 380 375.9 370.9 365.5 361.1 357.2 349.6 349.8 350 358.1 367.2 373.8 380.7 392.4 402.3 411.1 420 426.2 429.9 431.9 433.4 436.1 437.6 440.4 443.3 445.8 452.5 461 470.1 483.8 496 506.4 511.5 510.4 505.4 493.7 479.9 467.1 457 448.6 445.2 440 434.1 433.6 451.2 464.4 470.1 471 465.2 459.7 452.7 446 435.6 424.9 414.5 403.9 393.1 381.7 368.6 357 348.7 329.7 322.8 314.4 332.6 348.7 361.9 373.7 391.4 410 432.3 457.1 473.8 468.8 460.3 450 429.1 407.6 391.9 380.7 369.9 360.9 354.3 347.1 351.9 351.5 347.3 340.9 327.6 326.5 322.2 317.8 311.8 306.4 304.7 302.9 303.1 295.2 287.9 286.3 285.6 284.7 284.2 284.4 282.9 279.3 276.2 273.6 275.2 273.2 267.8 264.7 269.3 268.6 265.5 269.6 269.2 268.8 268.9 269 268.8 268.8 267.6 268.4 268.9 268.5 255.8 231.7 213.6 217.7 230.4 245.7 257.7 258.2 259.2 261.5 261.5 258.5 256.2 254.1 252.8 251.9 250.7 248.2 250.2 254.2 256.6 255 251.8
509.2 501.9 493.9 485.7 476 466 458 449.5 443 436.3 433.1 428.7 428.8 431.4 433.4 435.5 436.9 437.8 437.9 438.2 435.8 432.4 428.4 421.5 417.7 413.5 408.3 402.4 400.8 399.4 397.3 395.5 394.6 394.1 392.7 390.9 389.4 392.9 395 398.7 403.4 408.8 411 412.6 412.6 409.6 405.6 400.7 395.2 390.9 386.4 383 379.1 374 368.1 362.1 358.4 352.5 347.2 348.8 360.1 369.4 375.9 385.4 396.6 406.1 416.8 424.9 430.3 434.3 436 439.1 444.3 447.2 450.7 454.1 457.4 464.5 472.4 481.7 492.1 501.5 509.8 513.2 509.9 504.2 487.4 462.6 452.7 442.6 430.8 428 425.4 415.3 426.7 437.7 456.6 460.2 460.8 459.2 456.8 453 447 439.5 430.6 420.5 409.1 397 385.8 374 364 355.5 344.4 321.7 315.7 326.1 345.8 360.3 373.5 389.7 406.6 429.8 453.5 468.4 462.5 447.7 433.2 413.9 395 380.5 371.1 364.1 357.5 350.4 350.3 353.3 350.4 344.7 338.2 327.2 324.4 318.8 311.5 307.4 305.9 304.1 301.8 294.9 288.8 286.9 285.9 285.7 285.1 284.1 282.9 280.6 277 274.9 275.3 275.5 272.9 270 257.5 267.9 266.2 267.2 269.7 269.4 268.2 267.5 265.5 265.6 264.7 260 267.3 268.5 267.8 243.1 233 211.6 222.1 235.2 258.7 260.2 260 261.2 260.1 258.9 255.4 254.3 252.9 252.2 252 252 252.4 254.6 257.3 258.9 254.1 254.8
504.9 497.9 489 480.7 470.9 460.7 452.1 444.1 436.6 431.7 428.4 426.8 425.2 428.1 430 432.1 434.4 436.5 438.1 439.1 435.5 423.1 415.5 416.8 411.5 407.4 404.3 404 404.8 404.5 400.5 398.6 398.3 397.2 394.6 395.9 396.6 398.5 400 401.9 405.3 408.7 413 415.4 415.2 412.7 408.5 403.4 396.5 392.5 388.2 385.4 381.4 375.9 370.9 364.5 358.5 352.4 347.5 346.5 363.1 372.9 380.8 391.7 401.7 410.7 420 427.9 433.5 437.1 439.6 444.9 452.9 456.3 458 461.7 466.3 472.9 482.3 491.5 500.8 508.5 513.3 515.8 513.1 506.6 491.1 463.8 450.1 436.6 424.9 414.7 409.3 403 408 422.7 440.5 445 446.3 446.3 446 444.9 442.7 439.2 431.3 421.7 409.9 396.5 386.7 377.5 368 359.3 347 330.7 313.8 320.1 339.6 354.8 367.4 377.9 399.2 424.8 448.7 458.8 453.8 435.5 418.5 402.3 386.4 373 366.8 359.9 352.2 353.3 354.5 349.5 345.8 340.4 331.9 324.6 319.8 313.2 309.4 308.4 305.5 300.5 293.4 289.1 287.5 286.1 285.2 284.7 283.6 283 281.6 278 275.7 275.4 275.3 274.4 270.9 267 252.1 265 263.2 268 269.3 268.7 268.7 268.6 267.3 263.7 260.9 258.1 254.3 258 252.8 248 233 214.8 225.7 239.3 259.6 259.8 261.4 259.9 256.9 255.2 254.2 253.2 253 252.6 253.5 254.6 256 258.4 259.8 257.5 256.5 258.6
501.5 494.3 484.4 475.7 465.2 455.9 447.3 438.5 431 426.8 424.7 423.8 421.3 424.3 426.4 428.9 432 434.4 435.7 435.3 430.7 427.9 426.1 415.7 409.6 410.5 416 412.6 408.4 405.9 401.8 400 399.5 398.2 398.4 398.6 399.3 400.9 403.7 405 407.2 409.7 414 417.3 416.1 413.5 409.2 403.5 397.1 392.6 388.2 385.9 382.6 376.2 370.9 365.9 359.2 351.6 346.1 347.4 366.2 377.4 387.3 397 406.4 415.3 422.8 429.8 436.3 438.6 442.6 450 458.5 462.5 462.9 466.2 471.7 479.7 489 498.8 506.9 513.5 518.9 521.7 518.9 510.5 496.6 483.6 465 446.7 430.3 415.3 402.6 394 393.3 410.9 422.4 426.1 428.2 429.2 432 434 433.1 433.1 428.2 420.8 409.7 397.6 387.9 378.6 370.2 358.5 347.4 333.6 311.7 312.3 333 346.3 358.1 373.3 396.9 422.4 444.2 451 441.3 422.3 406.8 393.7 378.2 368.9 363.9 356.7 351.1 348.6 345 342.2 338.9 329.8 324 319.4 313.3 310 309.9 305.7 300.2 292.4 289 288 286.5 285.6 284.6 282.9 281.6 280.3 278.6 276.9 275.3 275.6 275.9 271.5 269.9 268.6 254.3 257.9 258.8 268.4 268.5 268.7 268.6 268.8 267.9 267.3 268 267.8 266.8 251.8 242.1 241.8 234.3 216.9 228.9 240 259.2 258.4 258.6 255.5 253.9 254 253.5 254.1 254.1 253.6 255.1 256.1 258.8 260.6 259.6 258.6 259 259.8
498.3 490.8 480.5 471.2 460.6 452.2 443.5 435.4 428.2 423.5 420.8 420.1 419.3 419.1 420.5 423.6 427.3 429.1 430.7 431.2 430.1 428.1 425.6 422.5 418.5 416.1 414.7 411.8 408.7 405.8 402.9 401.2 400.7 399.5 399.9 400.2 400.7 401.9 405 406.7 407.9 410.5 415 418.2 416.3 413.3 407 401.7 395.9 391.1 388 384.9 380.2 374.7 369.8 364.4 357.8 348.1 344 352 369 380.5 391.2 401.2 410.2 418 424.7 431.8 437.3 438.7 442.9 450.1 456 459.8 462 466.9 473.7 480.9 490.7 502 511.2 521.1 528 526.7 522.2 515.3 505.7 494.7 479.2 457.1 435.9 417.6 404.2 395.8 383.7 392.5 400.1 408.5 410 411.6 415.1 418.9 420.2 423.7 423 416.3 405.8 397.7 386.5 375.9 367.6 357.7 347 333 319.2 307.2 326.1 347.7 361.4 381.3 405.5 427.7 438.3 438.8 424.5 408.9 395.7 383.7 372.2 364.3 356.6 350.7 346.6 340 335.9 328.9 325.7 321.4 318 314.2 311.3 310.2 303.2 297 290.5 289.2 288.3 286.8 285.5 285 283 281.3 280.7 279.7 277.9 276 276 275.4 272.1 270.3 270 269.2 259.4 251.5 260.8 266.8 267.4 266.5 266.4 266.8 266.5 267.3 267.7 267.8 267.9 266.9 251.1 238.2 232.1 213.4 223.4 242.2 255.6 253.2 251.4 252.7 252.9 253 253.6 254.4 254.6 253.6 254.6 255.9 258.7 260.7 261.4 261 261.6 262.9
493.4 485.7 476.5 465.7 457.6 449.5 441 432.9 426.6 420.6 416.6 412 415.6 413.1 413.6 417.6 420.9 423.7 425.9 428.2 426.9 426.5 423.7 420.8 418 416.1 415 413.1 408.9 405.7 403 401.7 399.4 401 401.2 401.6 402.3 403.6 404.4 406.4 407.3 409.6 414 417.1 414.7 409.8 403.7 398.3 393.1 388.6 386.2 382.8 378.2 372 366.8 359.3 352.3 348.1 343.1 356.1 371.3 382.7 393.9 403.7 412.2 419.4 425.7 431.8 433.8 436.7 440.8 444.9 448.5 452.3 456.9 462.9 470.3 478.4 490.4 503.7 517.5 527 530.9 527.2 522.8 516.4 507.5 496.6 484.1 464.3 442.3 422.7 406.5 395.6 385.6 377.7 379 388.4 391.3 392.7 398.3 402 404.4 410.8 412.8 408 403.1 393.9 381.7 371.8 364.4 356.2 345.6 330.6 316.4 307 340.7 358.4 376 398.6 413.7 428.5 428.1 420.3 407.9 394.2 382.1 373.8 365.6 357.1 349.7 345.5 339.9 334.1 327.7 323.9 318.9 315.9 313.8 311.7 310 304.8 296.6 290.5 289.1 288.6 287.9 286.8 283.8 282.2 280.3 279.8 279.2 278.4 276.5 275.6 275.2 272.7 271.1 270.1 269 267.9 265 248.1 263.7 265.1 265.1 264.1 264.4 264.2 266.4 266 266.2 266.6 267 267.6 255.4 242 241.2 221.4 212.7 227.8 248 247 251.7 252.7 252.8 253 254.2 254.2 253.6 255.6 257.2 258.8 261 264.2 264.1 264.6 266 267.7
489 479.9 471.9 462.5 455.3 447.4 438.7 430.6 425.7 425.1 423 418.1 408 408.4 406.6 409.5 414.1 418.1 420.4 422.5 424.5 424.5 422.9 419.7 417.2 415.1 413.2 412.7 409.1 405.8 403.8 401.6 402 401.5 401.7 401.9 402.2 402.3 402.1 403.2 405.3 408.6 412.1 414.2 411.4 404.6 398 392.6 388.6 386.1 384.2 380.5 375.7 370.4 364.3 356.6 350.1 347.4 341.5 356.8 371.9 384.8 395.8 405.2 413.8 420.1 425.8 428.7 428.7 432.1 435.9 439.3 440.9 445.3 450 459 467.8 478.9 492.8 506.3 518.4 526.3 529.7 525.2 519.8 514.4 505.9 495.1 482.7 468.2 451.7 432.1 412.3 398.7 390.3 380.7 373.7 368 371.7 374.7 380.8 385.1 387.1 395.5 401.1 400.2 398.6 388.7 375.9 367.4 359.8 352.2 342.4 329 310.7 318.2 344.6 364 390.2 408.9 420.2 420.5 415.9 407.1 397.3 382.4 372.3 365.7 357.5 348.7 344.7 338.5 333.9 327.1 321.6 316.6 314 312.1 310.5 307.6 303.8 297.7 290.9 289.6 288.8 288.4 288.3 285.2 282.5 279.8 278.4 278.1 277.9 277.3 275.8 276 273.8 271.4 270.1 268.7 267.4 267.3 266 246.2 258.7 264.3 262.2 262.5 263.1 264.5 266 265.1 265 265.9 265.9 265.2 261.5 260.1 256.5 237.5 216.3 215.7 233.1 248.9 252.4 252.8 252.2 252.8 253.2 254.4 256.5 258.6 260.3 261.9 264 266.1 266.6 268.1 270.6 273.3
486.6 476.5 466.6 459.1 452.1 445.2 436.2 433.2 432.2 431 428.5 421.3 414.4 402.9 400.9 403.1 407 411.6 417.1 420 422 422.3 421.2 418.3 415.4 412.5 410.7 409.7 407.9 405.4 403.6 403.4 402.6 402.1 402.2 401.7 400.9 400.5 400.6 400.9 402 405.5 408.5 409.2 405.5 399.4 392.6 387.9 385.7 383.9 381.6 378.1 373.4 366.8 361.2 354.1 348 342.6 348.4 357.9 371.9 386.2 397.2 406.1 413.4 419.2 424.8 423.9 422 425.9 430 432.6 433.3 439.9 447.5 456.6 465.5 477.9 491.6 504 515.4 523.2 525.7 521.7 515.8 509.2 499.4 489.2 478.1 464.5 451.7 437.5 423.1 404.7 391.7 383.9 378.4 371.9 364.3 359.3 361.9 366.2 371.9 378.9 384.6 389.6 390.6 384.1 373.7 362.3 353.8 344.7 336.6 325 308.8 323.2 347 368.3 394.8 412.2 416.4 412.2 405.1 397.7 386.7 374.7 366.7 358 348.2 343.6 338.4 333.1 326.3 321.8 315.5 312.4 310.5 308.3 306 300.8 295.7 290.8 289.9 288.9 288.6 288.4 286.6 282.3 280.2 278.2 277.8 277.2 277.2 276.7 276.1 274.4 271.1 270.1 267.9 265.4 265.9 265.1 260.2 241.2 261.8 261.3 261.7 261.4 262.6 266.1 266.1 265.8 266.1 266.2 264.6 262.1 261.1 259.5 255.6 249.2 223.1 216.4 231.4 250.2 252.8 252 250.8 253.3 256.1 257.5 259.5 261.7 264.3 265.8 267.7 268.8 270.6 273.3 276 277.4
481.9 471.2 463.8 457.6 450.3 439.1 439.4 438 436.4 433.9 431.5 423.6 415.1 406.9 399.7 399.4 403.2 405.8 413.5 417.4 419.4 420.1 419.5 417.3 414.4 411.2 409.8 408.4 406.5 407.5 406.4 404.1 403.3 402.6 401.3 400.4 399.6 399 399 398.7 399.1 403.5 404.9 403.4 399.3 393.6 388.4 386.1 384.1 381.8 379.7 375.7 370.6 364 357.8 350.8 344.7 338.4 353 358.8 372.8 387.2 397.1 405 411.4 416.9 419.9 417.5 415.4 419.7 423.8 426 431.6 437.2 445.4 452.6 463.3 474.9 489.9 501.4 511.5 518.9 520 517.4 511.4 503.4 491.4 480.1 469.6 459.4 448.2 436 423.4 410.8 398.8 389 380.2 372.9 367.2 360 352.3 350.9 353.7 362.7 365.7 369.9 379.1 379.7 371.4 360.3 348.4 340.8 330.4 318.5 304 324.9 346.5 370.6 396.9 414.2 418.1 412.4 402.6 390.8 378 367.9 359.1 348.8 340.9 336.8 330.6 326 320.2 315.5 310.2 307.1 305.3 302.5 298.4 294.8 291.6 290.6 290 289.3 287.9 286.5 281.9 278.8 277.9 277.7 277 277.2 276.3 275.1 274.4 271.9 270.4 269.1 268.8 267.7 256.4 257.9 256.7 240.6 254.7 253.8 257.8 260.9 263.8 265.7 265.3 264.9 265.6 266.1 263.2 260.7 259.4 257.3 253.7 245 227.7 217 230.2 244.4 244.9 246.7 251.5 254.5 257.6 260.1 262.1 264.7 267.2 269.5 271.2 272.4 275.1 278.4 280.1 280.6
477.7 467.3 461.8 453.2 446.7 448.9 447.3 445.4 440.6 436.1 430.6 419.4 411.1 405.6 399.5 394.7 398 403.3 410.9 414 415.9 417.3 417.1 415.9 412.7 411.2 410.5 410.2 409.4 407.9 405.6 404.2 403.7 402.9 401.2 399.7 398.2 397.1 395.9 395.7 396.7 399 399.4 395.8 391.4 388.3 386.3 384.6 382.2 379.7 377.4 372.1 367.4 360.7 353.8 348.3 340.5 344.9 353.1 360 376.8 387.6 395.8 403.4 408.7 412.7 411.8 409 409.2 413.7 417.4 422.9 428.6 434.6 441.3 449.7 461.1 473 486.5 499.1 508.3 513.5 514.3 512 508.1 498.7 484.1 468.6 455.9 449.9 441.8 431.2 420.5 407.9 397.9 388.4 379.6 370 365.1 366.7 364.5 359.7 348.9 341.3 344.6 352.4 363.3 372.1 366.9 356.6 345.5 337.5 327.6 315.8 303.7 322.5 344.1 369.5 396.2 412.5 412.9 406.2 394.8 382.6 371.5 361.8 351 343.3 337.1 330.2 325.1 319.4 314.3 311.5 306.3 303.2 300 298.2 295.5 292.7 290.8 289.9 289.4 288.7 287 283.2 279.5 278.6 278 277.2 277 276.2 274.5 273.3 271.7 270.8 270.2 268.5 268.8 260.6 254.9 239.3 236.2 232.3 235.8 233.4 238.5 251.6 263.1 265.3 265.6 264.7 264.8 263.8 261.7 257.2 256.9 258.4 254 240.5 219.7 215.4 225.6 232.6 237.1 242.3 249.7 256.4 259.7 262.3 265.3 268.1 270.5 272.9 274.7 277 279.7 282.6 283.7 284.4
474.9 466.1 454.9 458.1 458.1 457 456.8 449.9 442.1 433.6 422.5 415.4 410.3 405.4 400.7 395.2 392.2 400.6 406.7 410.1 412 414 414.5 414.6 413.2 413.1 413.9 413.4 411.7 408.9 405.1 404.6 404.1 403.1 401.6 399.5 397.9 396.1 393.1 392.2 392.1 391.8 391 389.8 388.2 386 384.3 382.6 380.4 377.2 374.1 368 363.3 356.3 350.5 345.8 336.5 345.2 353.2 362.6 379.5 389.2 396.1 400.8 405.3 405.8 403.5 401 403.4 407.9 411.9 416.2 422.7 430.2 436.2 447.9 458.9 471.2 481.9 495.6 504.7 509.1 508.8 507 502.4 492 476.8 461.5 447.6 435.4 432.5 423.1 413.5 402.9 392.4 383.1 372.5 373.9 377.3 375.4 369.9 364.2 358.7 353.5 346.9 333.7 347 358.1 361.5 352.1 342.9 335.1 325.9 313.7 305.5 321.7 345.5 373.1 391 403 398.5 390.6 381.4 371.4 362.5 353.9 346.5 339.6 331.3 325 320.3 314.2 310.3 306.7 303.1 299.8 297.1 296.4 293.2 291.2 290.3 289.6 288.9 287.2 284.2 280.8 278.6 277.8 277.3 276.4 276.3 275.8 272.5 271.3 270.3 268.2 268.1 268.7 257.5 249.4 239.9 231.5 230.5 230.7 228.9 229.9 229.3 236.3 259.8 264.8 266.6 265.7 263.5 263.4 257.4 254.7 254.7 254.5 254.9 239.8 218.1 215.7 227.5 237.5 244.7 250.7 258.1 260.3 263.2 266 269.4 271.9 274 276.2 278.5 281.8 284.4 285.7 287 287
471 463.1 464.7 466.7 465.9 463.1 455.6 444.7 434.3 422.9 415.5 410.9 405.6 401.9 396.5 393.2 390.2 396.5 400.7 405.3 408.2 410.7 412.9 414.9 416.2 417.5 417.5 415.9 413.4 407.1 407.2 407.1 406.5 404.6 402.7 399.9 397.4 395.8 393.9 389.9 388.3 386.9 385.6 385.5 384.9 383.6 382.1 380.1 378.8 375.1 370.7 365 358.9 352.1 347 343.8 340.3 338.1 353.8 368.5 381.9 389.7 395 398.1 399.6 398.4 394.9 392.4 398 400 403.3 410.1 418.1 425.4 433.8 445.6 456.3 468.1 477.5 489.5 501 506.1 505.3 502.5 497.4 484.9 471.9 454.9 439.4 426.5 418.9 412.8 403.6 392.7 382.8 380 383 384.8 384.1 379.5 373.4 366.6 361.3 355.2 350.4 340.1 331.7 341.5 349.7 346.2 340.2 332.2 321.6 313.7 307.2 324.9 349.5 372.5 378 384.1 380.6 367.4 362.9 355.6 350.2 346.8 341.6 334.5 329.5 328.2 321.5 314.5 309.5 303.4 299.2 297 295.4 293 290.8 290 289.5 288.5 287.4 283.9 280.4 279 278 276.8 276.1 274.6 274.8 272.6 271.7 270.3 269 267.7 267.7 263.2 248.1 243.1 231.2 233.7 244.6 247.7 243.6 227.6 227.1 226.6 250.4 265.3 265 263.8 263.4 260.3 257.7 258.5 257.7 254.8 252.3 234 215.5 230.6 240.3 250.3 257.2 261.2 262.4 263.9 266.6 269.9 273.2 275.5 277.6 279.7 283.4 285.2 287.5 288.8 289.3 288.6
469.6 469.6 471.1 473.6 468.9 458 447.1 433.4 422.5 415.9 410.6 406.1 402.5 398.4 395 391.9 386.3 392 395.7 398.9 403.4 408 411.1 414.3 417.4 419.2 418.7 417 409.3 411.1 412.5 411.3 408.6 406.4 404.5 401.8 397.4 394.6 392.9 390.4 385.8 383 380.8 381.1 380.2 380.1 379.3 377.6 375.1 371.3 366.9 362.4 357 351.1 346.6 341.9 336.9 346.1 356.6 372.4 381.9 388.7 391.8 393.5 392.6 388.8 384.9 388.8 390.9 396.1 401.3 407.5 413.9 420.7 431.7 442.2 453.1 464 474.2 484 496.2 503.6 503.4 497.6 492.2 481 466.6 449.8 432.7 419.3 408.3 400.4 392 389.8 392.6 392.8 391.1 390.3 386.8 380.4 374.5 367.5 361.8 353.7 346.6 343.3 336.3 325 334.2 340.9 336.6 328.9 319.6 306.4 314.5 336.6 361.4 381 385.2 373.5 364.3 358 351.4 348.4 342.3 339.7 335.8 332.8 330.1 325.6 318.4 312 305.4 299.1 297.2 294.5 293.5 292.3 290.8 289.3 287.7 285.3 283.7 280.8 279.3 278.1 277.3 276.7 275.5 273.1 271.9 271.8 271.3 269.8 268 267.3 265.8 253.3 243.2 233 235.6 248.7 254 253.6 252.7 247.7 229 226.4 247 264.9 263.5 262 260.2 258.7 257.3 260.3 255.7 250.2 239.2 215.8 218 240.9 247.3 256.6 259.7 263.5 266 267.4 270.1 273.9 276.3 278.1 280.6 284.1 286.9 288.5 290.4 290.6 290.3 289.7
471.1 473.1 475.6 470.5 458.6 446.3 433 422.2 414.9 410.9 405.1 398 396.5 394.5 393 391.3 385 387 390.8 394.4 400.2 404.5 408.8 412.7 415 416.4 415 412.4 415.9 416.6 416.7 415.9 412.2 410.7 412.2 409.8 400.7 395 390.9 388.6 385.3 381 377.3 377.6 376.8 376 375.8 374.8 372.2 368.1 363.6 359.4 354.6 349.6 346 340 335 348.6 363 373.6 381.3 385.1 387.2 386.9 383.6 374.5 382.2 386.9 389.1 393.3 398.5 404.2 409.4 417.2 428.6 438.7 449.9 459.8 470.5 478.2 489.2 497.9 500.5 494.9 487.7 477.4 460.1 444.2 427.2 415 405.2 397.9 401.5 402.8 401.4 399.9 396.9 393.5 386 378.9 372.6 366.8 361.9 357.3 353.5 348.7 343.5 334.7 323.2 322.6 328.5 321.5 312.8 298.4 329.4 350.1 375.1 389.1 389.2 381.9 372.9 365.9 356.4 347.4 341.7 339.3 336.6 333.5 328.3 320.9 314.3 307 297.3 296.8 296.1 293.7 289.6 291.1 290.1 287.5 285.5 284.4 281.8 279.7 279.2 278 277.5 275.5 274.6 271.5 264.9 268.7 270.6 268.4 265.1 259.3 254.4 248 239.3 232.1 245.4 254.9 255.7 256.1 255.1 242.6 228.3 226.2 249.8 263 261.6 260 257.9 257.6 256.5 252.8 252.3 247.4 218.8 219.4 222.1 245.4 256 258.9 264.6 266.6 268.4 270.8 273.8 276.5 278.6 280.7 284.8 287.9 289.8 291.1 291.8 291.4 291 290.5
468.1 468.1 464.6 457.3 444.8 432.5 423.1 415.6 409.4 403.4 397.4 394.9 392.8 390.7 388.6 386.5 386.1 381.7 386.9 390.9 397.3 400.8 405.1 408.9 410.6 411.5 410.4 415.3 417.3 418.7 419.4 418 416.7 423.6 425 417.2 408.7 396.4 390.7 387.2 383.9 381 375.7 373.5 373.8 372.8 372 371.1 369.4 365.6 360.7 355.9 351.7 347.4 344.2 335.9 336.3 351.8 365 373.2 377.4 380.5 381.9 378.5 373.2 373.5 380.5 382 384.6 389.1 395.6 398.9 407.6 415.5 426 435.8 447.1 456.7 466.5 473.4 483.6 492.7 495.6 492.2 482.8 473.4 457.9 442.1 425.2 413.1 406.3 411.2 412.2 411.1 408.8 405.7 402 395.6 386.6 381.5 376.6 371.6 367.5 362.9 357.6 353.3 348.9 344.8 337.2 327.9 313.8 310.5 301.9 310.2 337.3 360.8 382.5 389.5 387.8 382.5 372 362 352.1 345.5 341.9 340.8 338 330.9 322.8 315.3 304.9 292 286 292.7 295.1 292.7 291 289.1 288 286.4 285.3 283.7 281.2 280 279.1 278.6 276.7 273.4 271.5 271 266.7 250.9 252.4 252 250.3 238.8 237.5 236.9 234.7 237.3 253.2 256.6 257.2 256.1 255.5 234.1 226.1 230.3 255.5 260.2 259.3 258.8 248.9 250.8 252.1 252.8 251.8 229.7 216.5 222.7 233.6 249.3 261.9 262 266.8 268.4 271.2 274 276.6 278.4 280.5 283.9 287.5 289.9 291.8 292.5 292.1 291.5 291.3 290.6
454.9 452.8 448.1 439.7 429.4 422 416.3 411.1 405.8 399.5 394.6 392.3 389.6 388.5 386.3 381.4 378 377.7 381 386.6 392 397 399.5 402.4 405 407.7 409.7 412.4 415.4 417.9 420.3 422.3 427 435 433.7 425.1 413.8 401.4 391.3 388.3 385.3 381.4 375.9 365.8 368.9 369 367.4 365.5 365.7 363.4 358.6 353.8 348.8 345.2 342.2 335.5 341.8 356.9 365.7 371.4 372.9 375.5 375.2 370 364.4 372.4 376.9 372.1 380.6 381 390.7 399.2 408.4 417 426.9 435.5 446.1 455.6 462.6 470.8 480.7 488.7 491.3 488.1 478.9 468.1 454 436 423.7 413 415.5 421.9 422.3 420.3 414.9 410.3 405.6 398.9 392.2 388.8 382.4 379.8 376 370.5 363.6 360.3 354.4 350.4 343.5 336.7 328.8 320.3 296.1 311.2 329.1 352.6 375.8 383 382.5 376 365.9 356.9 348.4 343.5 341.8 340.1 333.4 324.6 314.2 295.5 284 276.4 270.9 270.8 274.5 282.8 278.1 281.1 286.2 285.1 285 282.8 279.9 278.7 278.1 277 272.3 263.2 255.1 256.3 257.4 244.3 240.9 239.4 242.6 251.2 251.7 240.4 234.7 247 257.4 258.2 258.1 258.8 253.8 228 224.9 241.2 260.5 259.1 258.3 250 248.9 248.9 252.6 252.9 235.8 219.5 216.8 237.3 239.2 248.3 257.7 266.6 267.9 270.8 273.7 276.1 278.3 280.3 283.3 286.4 289.3 291.5 292.3 292.4 292.2 291.6 291.1 290.3
446.8 439.1 434.9 427.4 420.6 415 409.8 405.6 401.4 396.3 393.3 390.2 385.7 381.3 380.4 378.7 383.8 376.9 374.7 378.1 382.9 391.1 393.3 395.3 399.6 403.4 406.1 408.9 412.1 416.1 420.7 427.4 434.4 443.4 442.8 433.7 418.6 405.6 394.1 388.5 385.6 381.5 376.5 369.1 361.6 364.8 362.9 360.2 359.9 359.3 357.3 352.2 348.4 344.1 337.7 331.3 345 355.4 363.9 368.9 369.4 369.6 366.7 358.5 362.1 369.5 371.8 365.8 378.8 387.6 398.6 404.3 408.2 413.5 424.7 432.9 445.7 453.6 459.7 469.2 478.9 485.3 486.5 482.6 472.6 458.2 441.4 430.7 424.5 425.2 428 432.9 434.1 430.2 420 413.8 409.2 404 399.2 398.6 394.6 389.1 383.9 377.1 369.9 365.9 362.8 356.8 349.2 344.9 334.3 325.9 312.2 297.3 316.2 339.2 358 369.7 372.5 369 360.2 350.8 344.5 341.9 340.2 331.5 322 315.8 291.4 275.6 273.5 275 276.2 275 268.6 264 266.7 276.3 284.7 284.4 283.2 281.3 280 277.7 275.5 271.9 256.8 247.9 243 239.9 243.3 248.5 251.7 252.8 260.2 262.9 253.8 236.5 240.8 256.3 259.1 259.2 258.2 257.4 248.7 226.6 224.1 245.5 258.6 257.6 250.1 248.9 249.3 253 254.4 250 225.4 219 230 255.5 251.6 267.1 267.4 269.5 271.7 272.7 276 278.1 279.7 282.2 285.8 288.2 290.1 291.5 292 292.3 292.5 291.5 290.9 290.6
441.2 432.9 425.7 419.8 413.6 407.9 403.5 400.3 398.5 397.2 396.8 387.4 388.5 387.4 385 383.2 382.2 380.1 376.5 374.3 370.5 378.4 384.5 390.7 393.2 398.2 402.1 404.6 409.5 414.9 424.4 432.5 440.3 449.7 451.9 442.6 425.8 410.6 400.5 393.3 385.8 382.7 378.9 373 363.1 357.2 357.6 355.9 355.5 354.6 353.6 353.1 349.2 344.4 337.6 330.5 345.2 355.7 362.6 366.1 365.5 361.6 357.1 353.6 359.5 364.7 362.3 374 383.4 393.4 401.5 408.9 414.4 422.7 429.3 435.8 443.3 452.4 459.8 468.5 476.3 481.2 483.3 481.7 472.5 449 437.6 444.3 439.5 438 441 445.8 447.1 443.8 433.3 425.3 417.8 411.9 414.6 412.5 406.2 401.1 393.2 386.9 381.8 379 375.1 370.6 362.5 352.8 341.6 333.9 322.9 306.8 292.9 324.2 342.3 350.5 361.9 360.6 351.1 341.5 339.5 337 327.9 318.2 313 297.7 277 283 298.1 295.2 290.6 289.1 284 275.8 269.6 263 279.3 282.2 281.2 280.9 274.8 268.9 265.8 259.4 245.7 253 257.5 257.7 261.8 265.7 268.1 269.1 269.7 265.9 246.2 236.2 247.5 259.4 260.6 259.8 259.7 258.1 246.6 225.7 225.4 245.5 255.1 255.6 255.4 256.6 255.5 256.1 253.3 236.8 219.9 231.7 253.1 259.3 264.8 269.1 270.6 272.8 274.5 276.1 276 278.9 281.3 284.7 287.9 289.3 290.5 290.7 291.1 291.6 291.9 291.4 291.1 290.4
434.1 425.1 418 409.6 403.8 399.8 396 393.7 395.1 392.9 388.9 392.9 390.9 385.8 385.6 384.5 383.3 385.7 380.7 379 373.8 369 368.6 382.2 388.1 391.1 393 398.3 408 415.6 426.2 436.4 445.1 455.4 458.1 449.4 432.3 417.8 405.3 396.4 389.2 383.8 380.8 377 369.4 358.9 352.6 350.3 350.2 350.4 350 350.1 347.7 343.8 337.6 330.4 340.6 351.7 358.5 360.6 357.7 352.4 341.2 347.9 349.8 357 372 381 388.6 396 402.9 408.6 415.7 425.1 431.1 437.2 446 453.7 460.5 468.1 473.7 479 481.6 485.4 486.6 468.1 459 460 454.3 451.8 453 455.2 459.5 458.4 457 451.2 440.4 433.2 436.8 433.6 427 418.9 409.1 403.4 399.5 396.9 389.8 379.8 369.4 356 342.9 333.3 325.9 314.3 296 304.4 320.2 330.7 344.8 346.1 336.4 335 333.8 324.8 315.5 308.1 303.3 286.5 276.2 297.3 296.5 290.1 289.8 290.2 288.3 285.2 280.1 267.3 263.5 273.2 276.3 272.2 263.5 251.5 249.8 252.2 260.2 267 270.2 269.9 270.6 269.3 269.4 265.3 257 250.8 238.8 236.2 253.9 261.1 261.5 261.4 261.3 260.9 255.3 223.3 224.6 232.9 249.9 254.5 256 255.9 254.7 251.3 236.7 218 223.3 241.7 265 266 267.1 270.5 273.4 274.8 276 277.4 278.8 281.2 283 287.8 289.1 289.7 289.9 290.4 290.8 291 290.9 290.5 290 289.3
428.3 420.5 412.4 401.4 397.2 398.8 403.7 400.9 397.3 396.3 397.7 391.1 390.5 398.2 396.1 393.2 388.6 386.4 383.5 380.5 376.7 375.9 367.5 370.7 374 382.3 387.1 394.8 406.4 415.6 428.5 439.4 448 458.5 462.2 454.9 439.2 422.3 410.1 399.2 392.7 386.8 383.9 379.2 371.6 366 359.1 352.3 346.5 343.6 345.4 345.7 344.3 340.7 334.4 330.4 330.5 348.6 350.7 351.5 343.2 342 341.2 347.6 355.4 363.5 374.2 382.8 389.4 395.6 402.9 409.2 416.6 423.1 430.5 438.3 445.8 454.1 460 465 470.4 476 480.3 485.5 490.8 487.7 482 477.2 471.1 468.3 467.6 467.1 469.8 472.5 471.8 467.4 462.1 458.5 457.6 453.5 444.8 437.2 429 417 410.9 404.3 396.2 384.2 370.8 356.8 345 335 327.6 317.2 305.1 289.7 300.3 308.8 325 325.6 323.5 323.1 318.7 312.1 304.8 300.2 289.4 276.1 282.8 292.8 289.9 289.2 289.4 287.1 286 282.8 281.4 277.3 266 261.4 266.1 260.2 260.6 266 265.9 269 271.6 272.1 270.3 269.3 269.1 262.6 251.7 247.7 254.1 249.7 237.5 241.4 260.2 266 266.4 264.7 263.8 263.6 266.4 244.7 222.5 223.3 226.6 234.5 242.6 249.4 241.4 225.2 220.6 228.2 244.2 265 267.9 269.7 270.3 272.9 274.7 276 277.1 279 281 284.8 287.4 288.1 289 289.5 289.7 290.3 290.8 291.1 290.7 290.2 289.8 289.1
417.3 411.5 403.2 398.6 407.6 411.7 411.4 410.7 409.8 408.4 406.7 405.2 404.8 405.9 403.9 399.8 392.9 390.3 387.3 383.7 379.6 378.8 369 366.1 363.2 371.9 383.5 391 398.9 411.4 426.3 438.1 447.9 458.7 463.3 455.9 441.9 425.7 412.9 401.7 394.7 388.9 384.8 379.8 374.3 370.7 364.3 358.5 350.9 346.6 342.2 338.3 336.2 334 330.8 330.4 330.4 341.3 344 343 335.2 332.2 342.8 348.7 356 363.7 368.8 381 387.6 394 401.5 408.4 415.4 420.7 428.7 437.8 445.6 451.5 455 459.7 465.7 470.8 476.6 484.1 492.7 499.2 499.2 496.7 490.2 486.9 482.3 480.9 482.4 481.7 480.1 475.2 472.4 469.5 468.9 464.8 455.3 448.8 441.5 429.6 417.3 405.4 396.7 384.3 371.2 358.9 347.3 337.2 330.6 322.9 315.8 300.9 298.8 289.9 304.9 307.7 309.6 307.2 305.9 302 298 285.6 275.3 273.3 287.4 290 288.4 288.4 286.7 285.9 286 285.7 285.1 281.7 270 264.3 264.3 263.6 272.8 274.6 274.4 272.8 272.4 271 270.8 270.1 255.3 251.6 261.4 266.1 264.1 249 238.3 247 267.9 270.4 271.6 271.2 268.3 269.6 269.4 261.8 240.9 226.5 223.7 222.5 221.6 223.9 222.3 221.5 228.5 249.3 263.8 270.1 271.3 271.6 272.3 275 276.2 277.4 278.8 281.5 284.2 287 288.2 288.7 289.2 289.4 289.8 290.5 291 290.9 290.4 289.9 289.6 289.2
418.9 410.2 400.6 407.3 414.5 414.4 412.8 412.1 413.5 414.6 411.8 410.1 409.4 408.5 406.8 403.6 399.8 396.6 393.1 390.1 380 374.3 370.6 372.3 368.6 366.2 376.5 384.8 392.1 403.2 418 432.6 443.1 453.5 457.3 451.9 440.2 424.2 413.5 403.2 397.2 391.6 386.6 381 377.1 374.1 370.7 362.6 355.6 350.1 347.5 343.7 341.6 337.3 330.6 330.4 330.4 330.4 330.8 330.4 330.4 332.6 334.2 344.5 352.2 357.3 365.4 378.2 384.3 392.2 398 405.9 411.5 417.5 427.1 435.8 442.4 445.6 448.2 452.2 458.2 463.5 471.1 481.2 494.2 502.5 505.6 502.1 497.1 493.3 489.9 488.1 483.8 479.2 474.9 471.2 468.3 468.9 469.1 465.8 458.7 453.4 444.9 432.5 417.8 401.4 392 381 368 357.5 346.5 337.2 331.6 325.8 315.5 317.3 312 304.1 289.7 290 292.3 291 297.2 295.7 284.4 276.7 273.9 278 291.3 291.6 292.6 290.6 286.9 287.2 287.9 286.6 283.4 281.1 275.6 274.4 274.5 275.6 274.3 274.5 273.3 272.6 271.1 271.1 270 260 259 267.7 268.8 269.2 266.9 247.3 238.5 252.6 270.3 271.1 273.1 271.1 269.9 268.6 267.5 263.3 252.2 248.7 240.3 237.8 233.2 228.5 230.4 238.9 251.5 268.9 271.2 273.2 273.4 274.7 275.9 276.9 278.2 279.7 282.2 285 286.7 288.4 289.3 289.4 289.8 289.7 290.2 290.8 291.2 290.8 290.4 290 289.7 289.4
412.7 402.3 403.9 415.7 418.4 417.4 415.5 419 419.3 418.4 416.2 410.2 411.4 412.7 409.6 398.8 398.8 396.7 390.7 385.3 380.9 376.1 375.6 378.8 365.3 360.8 364.4 374.8 383.9 394.5 407.8 424.3 435.1 444.1 447 441.2 431.9 418.8 411.3 403.6 398.6 393.7 388.4 382.9 378.8 375 370.4 365.1 358.1 353.1 349.4 347.2 344.6 340.6 335.7 334.1 331.7 330.4 330.4 330.4 330.4 335.6 342.1 341.8 344.5 346.6 355.3 365.9 378.9 386.6 391.3 403.4 409 415.1 423.3 430.8 436.4 438.7 438.1 442.2 449.2 455.1 464.4 476.9 493.1 500.7 501.8 498.9 493.9 489.1 485.7 481.7 473.4 464.5 455.9 452.9 450.8 454.2 461.3 461.7 458 452.6 443.7 432.5 416 398.3 383.8 373 363.9 354.4 344.3 336.8 330.9 326.5 324.5 321.1 317.3 311.9 304.7 299.9 294.6 290 284.8 278.8 277.7 277 285 290.3 292 292.3 290.9 288.3 287.6 289.1 287.3 285.6 283.6 282.9 281.6 280.3 278.6 275.3 274.2 274.2 272.8 272.7 270.2 268.2 257.3 263 271.9 271.1 270.2 270.6 266.8 248.6 238.9 257.5 270.4 273.2 274.2 273.1 268.5 268.5 269.1 265.6 257.5 262.2 262.6 259.1 260.3 254.2 257.6 264 268.6 271.5 274.3 276.1 277.3 278.6 279 279.2 281 283.3 284.8 287.1 287.2 289.7 290.2 290.3 290.3 290.2 290.7 291.3 291.2 290.8 290.5 290.2 289.9 289.5
408.2 405.3 416.1 424.2 424.7 422.1 425.8 425.7 421.4 416.9 413.9 412.2 407.2 405.5 403.9 406.9 404.3 401.5 397.9 393.4 387.5 384.6 378 373.9 372.5 361.4 358.3 360.9 375.8 387.3 401.1 414.8 425.7 432.4 433 427.8 418.5 411.6 405.3 401 397 393.5 388.4 383.4 379.1 374.8 370.8 365.1 359.4 355.3 352 349.7 346.1 342.1 340.9 338.7 337.3 335.9 330.4 330.4 330.4 341.4 348.1 350.7 354.4 358.9 363.2 360.5 365.4 382.6 392.1 399.1 405.4 411.1 416.8 424.4 429.1 430.5 428.7 431.4 437.8 447.6 459.2 473.9 491.3 497.9 498.8 494.2 487.5 480.2 474.5 468 458.2 449.2 442.3 439.8 437.5 436.4 442.3 453.3 451.3 445.5 437.5 426.3 411.4 395.7 382.4 370 361.1 353.3 342.7 338 333.2 329.4 326.2 322.4 317.4 313 310.6 307.6 303.5 296.6 284.7 284.1 280 285.6 290.8 291.6 291.4 290.9 289.3 288.3 288 287.6 286.1 284.1 283.4 282 280.3 277.9 275.9 274.8 275.1 273.4 271.4 268.8 265.5 257.1 264 272.5 272 270.6 269.9 270.1 260.2 246.3 240.3 258.7 266.8 268.6 270.8 270.9 268 270.1 269.6 264.7 264.8 264.8 265.7 266.7 268.8 269.6 269.5 271.5 270.7 274.9 277.5 279 280.4 280.8 280.3 281.4 284 285.8 286.8 289.1 290 290.1 291.2 290.9 290.8 290.9 291.5 291.7 291.2 291.1 290.9 290.4 290 289.5
409.6 420.6 426 429 428.8 431.6 434.1 433.4 430.5 427.6 421.4 415.4 419.8 418.6 414.2 409.5 404.5 400.8 396.3 390 379.5 375.2 372.4 383 381 372.3 361.2 358.6 359.4 378.4 393.2 403.4 414.7 419.8 418.9 412.2 404.2 401.8 399.3 397 393.9 390.9 389.1 385 379.2 374.5 370.1 364.6 360.8 357 353.6 350.5 346.8 342.4 341.2 340.1 337.7 335.9 330.4 330.4 330.4 344.3 352.1 354.6 357 361.1 367.1 371.6 371.5 367.5 384.4 391.5 399.6 404.6 409.1 416.3 420.9 421.5 421.8 425.2 432.7 442.7 453.4 470.5 489.3 497.1 498.3 492.5 484.1 473.1 462.8 455.8 446.8 438.6 431.5 427.6 425 423.3 426.5 436.2 441.1 436 429 418.5 407 391.7 381.3 372.6 363 353.8 345.8 339.5 333.8 329.6 325.6 321.7 317.9 314.9 312.8 309.4 298.4 284.2 285.4 289.5 293.1 293.6 294.5 293.6 291.9 291 289.8 288.8 288.1 285.7 283.6 281.2 279.4 277.2 276.7 276.2 275.2 273 268.5 262.4 261.5 259.1 257.6 256 268.5 272.3 271.1 270.3 270 262.5 253.2 242.2 242.4 259.9 267.8 270 270.1 268.7 268.1 267.5 266.5 268.5 266.8 266.9 267.9 269.5 270.9 271.9 272.9 273.7 275.8 277.2 279.8 281.4 282.3 282.6 282.6 284.5 285.5 287.6 289 289.8 291.1 290.4 291.8 291.8 291.4 291.7 292.1 291.8 291.6 291.4 291.2 290.8 290.3 289.5
425 429.3 430.7 431.3 434.8 438.7 439.4 437.5 435 429.7 431.8 428.9 424.2 419.5 414.9 409 403.8 398.5 391.8 386.4 385.5 383 376.3 384.9 385.7 382.1 380.5 371.2 355.7 366.1 384.3 393 401.4 406.4 404.6 397.1 393.1 392.7 392.5 393 393.6 394.6 392.7 388 381.9 376.1 371.2 366 361.6 356.8 352.8 346.6 342.2 339 339.3 338.5 336.5 332.5 330.4 330.4 330.5 348.5 356.4 357.5 361.3 365.6 370.6 375.2 376.9 375.5 374.2 379 391.3 396.9 400.4 407.4 410.9 414.6 416.7 421.6 428.8 437.4 448.7 466.4 488.4 499.3 499.5 492.5 483.8 474.4 460.2 446.2 435.8 425 418.4 413.8 412.4 411.1 412.6 419.9 428 424.2 418.5 411.3 400.7 388.4 382.2 371.9 361.9 352.8 344.5 338.1 332.5 328.1 324 320.9 317.7 315.1 311.8 307.8 290.9 283.6 293 296.4 298.2 299 297.7 295.1 294 291.9 290 287.5 284.9 281.2 279.2 278.7 276.8 274.9 273.4 270.5 267.1 263.9 266.1 268 266.1 268.4 272.7 266.2 270.8 269.4 265.6 256.9 252.1 245.4 247.2 242.3 242.8 256.2 270.1 270.2 270.3 269.2 268.4 268.4 267.8 268.3 269 269.6 270.1 270.6 274 276.6 277.4 278 278.7 280 281.5 282.9 283.5 283.6 285 286.8 287.8 290.1 290.9 291.3 292.1 292.9 292.4 292.8 292.5 292.5 292.4 292.1 291.9 291.7 291.4 291.1 290.6 289.7
434 436.1 437 441.5 443.6 444.4 443.8 442.6 440 441.4 439 435.2 428.9 422.5 413.7 409.5 404 399.2 394.8 393 390.4 392 382.4 387.8 388.5 386.4 382.9 376.1 364.7 355.8 371.4 381.6 386.1 388 388.7 385 381.8 387.4 389.6 391.5 394.1 396.5 393.5 389 382.9 376.9 372.1 366.9 361 355.4 348.6 344 339.5 335.6 334.1 334.7 335.1 330.5 330.4 330.4 331.1 348.2 352.5 353.5 357.5 368.8 375 380.7 382.5 381.7 382.7 383.3 384.9 390.5 392.8 396.1 400.3 405.7 411.8 417.8 424.1 432.9 444.9 463.3 491.5 502 501 493.3 485.3 477.6 467.4 452.2 438.3 426.4 416.8 406.6 400.6 399.6 397.5 405.5 412.6 410.5 408.2 402.3 392.5 386 379.5 369.4 359.5 350.4 341.8 336.9 331 326.1 322.6 319.4 316.6 312.9 309.7 305.6 299 284.1 285.7 299.2 300.4 299.2 295.5 293.5 291.7 288.9 284.9 283.6 280.7 274.7 271.4 270.2 268.3 267.2 266.4 266.7 268.5 272.3 273.4 272.2 272.8 274.2 274.2 273.6 270.8 270.8 262.1 269.4 262.6 271.7 263 242.9 242 263.1 271.3 271 270.1 269.8 269.1 269.4 269.6 269.7 270.2 270.6 271.1 272.9 275.4 277.7 280 281.8 280.7 281.3 282.5 283.8 284.5 285.4 288 289.1 291.2 291.9 292 292.1 293.1 293.6 293.9 293.7 293.7 293.2 292.8 292.6 292.5 292.1 291.6 291.2 290.7 290.5
440.5 441.9 444.7 447.1 447 446.4 444.7 446 447.6 445 442.1 438.5 433.8 428.1 420.4 412.3 407.4 403 400.2 397.4 394.7 394.2 389.4 392.2 392.1 390 385.1 380.8 372.9 357.1 356.3 363 371.3 368 372.9 372.6 375.6 381.3 384.6 388.1 391 393.4 393.1 389.8 383.8 376.8 372.8 367.8 362.2 354.6 347.2 341.7 336.6 333.5 330.4 330.4 330.4 330.4 330.4 330.4 332.3 339.1 348.5 356.6 363.5 369.3 376 382.6 385.7 388.1 390.2 393.7 393.5 397.7 402.9 405.4 408 410.4 413.2 419.7 428.3 436.3 447.3 464.8 494.4 505.5 502.7 495.2 487.9 481.4 472.2 459.8 448.3 437.3 427 415.1 403.2 393.2 388.2 388.7 396.3 396.3 396.4 391.6 384.6 381.1 373.5 364.3 353.3 344.8 338.3 333.4 328 323 320.5 317.3 313.7 311 307.8 304.4 300 287.2 283 296.2 296 293.8 290.5 287.7 285.5 282.4 280.7 278.7 275.5 271.2 274 276.2 276.3 275.6 275.6 274.1 273.6 274 272.9 272.2 275.9 276.8 276.4 276.2 272.3 256.2 272.1 272.6 272.2 271.7 270.2 242.7 241 252.1 268.8 271.1 270.6 270.3 270.3 270.6 270.6 270.4 270.5 272.9 274.3 275.7 278.1 280.9 282.4 282.1 281.4 282 282.4 284.7 286.3 287.7 289.3 290.7 292.7 292.9 293.1 293.5 294 294.4 295.3 294.6 294.4 294 293.4 293.1 293.1 292.6 292.1 291.7 291.2 291.2
444.8 446.8 448.9 449.3 449 449.7 452.7 453.4 450.8 448.1 445.1 441.5 436 430.1 424 417 411.9 407.3 404.5 401.7 398.9 396.9 396.6 396.9 397.3 395.4 391.2 383.1 375.4 363.9 348.2 348.4 350.2 348.9 351.7 363.7 368.7 372.6 376 380.1 385.5 389.1 390.5 389.7 385.3 378.1 372.1 366.4 361.7 355.5 347.4 342 337.1 330.4 330.4 330.4 330.4 330.4 330.4 330.4 340.9 347.2 356.5 367.7 373.8 377.3 382.3 386.4 390.4 393.1 397.2 403 404 405.8 412.6 414.7 416.1 418 420.8 424.8 433.4 440.2 452.1 470.9 499.2 507.8 506.9 499.7 491.2 485.2 478.3 471.5 461.8 454.1 442.3 425.1 408.5 395.5 387.7 378 380.3 380.6 383.4 379.5 377.8 373.9 366 356.7 344.8 338.7 334.5 328.5 324.2 321.9 318.6 315.3 311.9 309.7 307 303.4 300.1 294.3 282.3 288.3 293.5 286.2 281 279.8 276.9 275.6 274.9 273.9 272.4 277.4 281.4 277.9 276.6 276.5 275.7 275.1 275.2 275.9 278.7 278.7 279.2 278.1 275.8 272.8 260.1 272.5 273.2 273.7 273.2 273.2 271.4 251.5 242 241.9 248 258.9 267.5 271.5 272 272.4 271.9 271.8 272.9 275.7 277.3 278.8 280.8 282.3 282.3 281.4 281.4 282.9 283.9 285.9 287.7 289.1 290.9 292 293.5 293.9 294.7 295.1 295.1 295.6 295.7 294.7 294.4 293.9 293.9 293.6 293.6 293.2 292.7 292.2 291.7 291.7
447.8 450.5 452.2 452.6 453.7 458.2 462.1 459.4 454.9 451.5 448.8 445.6 439.9 432.7 427.3 421 416.1 413.3 409.3 405.1 403 400.7 401.9 402.1 402.5 400 396 387.5 381.2 373.7 362.8 349.7 350.9 349.2 349.4 342.9 351.5 361.8 366.2 370.3 377.4 383.5 385 385.1 383 379.1 372.5 365 357.5 352.5 347.4 342.6 337.1 331.2 330.4 330.4 330.4 330.4 330.4 330.4 338.1 350.9 364.4 373.6 380.7 385.7 388.4 391.5 395.7 399 402.4 408.2 412.2 414.1 419.3 422.6 423.3 423.9 427.5 431.6 436.6 446.9 459.4 479.6 504.1 512.5 511.3 503.3 495.6 490.4 484.1 475.9 468.5 459.8 448.7 434.8 417.5 400.1 386.9 378.4 368.7 368.1 367.9 369.2 369 364.7 356.4 345.8 339.8 335.7 329.7 324.9 322.6 319.5 316.6 313.8 311.5 308.1 305.9 302.7 300.7 294.4 281.6 281.9 280.2 277.5 277.5 275.9 275.5 275.2 274 276 280.8 283.7 280.5 277.6 277.9 278.3 275.6 274.9 274.8 275.6 282.1 280.8 279.2 275.6 273.6 262 273.6 274.5 274.3 274.4 274 274.4 273.9 267.6 250.9 243 241.5 243.4 256.6 272 273.3 273.3 273.5 274.2 275.3 277.1 278.6 280.7 282 282.4 282.4 282.1 282.5 283.5 284.4 286.4 288.5 290.2 291.9 293.5 294.3 295.5 295.8 296 296.1 296 295.7 294.9 294.4 294.1 294.1 294 293.8 293.7 293.7 293 292.2 291.9
450.8 453.5 455.4 457.2 462 467.7 469 464 459.7 457.2 455.6 451.1 444.1 437.1 430.5 426 421.6 418.2 413.5 409 407.6 400.5 406.3 406.7 406.3 404.4 401.5 395.4 388.7 383.6 373.2 360.3 360.5 364.5 364.6 354.6 338.8 349.9 355.4 359.6 367.6 376.3 378.9 380.8 380.9 379.4 372.6 363.1 357.2 352.2 347.1 343.1 338.2 333 330.4 330.4 330.4 330.4 330.4 330.4 341.4 355 366.7 377.6 385.9 391.4 394.9 397.7 403.6 407.7 410.1 413.4 418 421.1 424.9 429.5 430.7 432.7 433.6 439 443.2 453.7 473.8 493.4 509.5 517.2 515.1 508.8 501.8 494.8 486.4 478 469.9 459.4 448.2 434.2 420.5 403.4 387.2 374.9 368.8 360.4 358.9 359.4 357.9 352.4 344.1 339.2 336 330.4 324.3 318.5 317.2 317.4 315.4 312.3 309.3 304.8 299.5 297.6 292 284.7 280.1 278.7 278.1 287.1 289.7 279.5 283.2 281.2 281.5 283.6 283.5 281.5 279.4 277 276.3 276 276.2 275.4 274.7 274 277.4 280.2 277.5 273 271.3 261.3 272.8 273.7 274.4 274.5 274.4 273.7 264.3 258.3 259.5 251.9 247.1 242.6 251.4 271.5 274.7 275.4 276.4 276.3 276.8 278.4 281.3 281.8 282.3 282.3 282.6 282.9 284.3 285.9 285.1 286.8 288.4 290.2 292.2 293.6 295.4 296.3 296.6 296.9 296.9 296.5 295.6 294.9 294.4 294.1 294.2 294 293.7 293.7 293.7 293.5 292.8 292.6
454 455.6 459.6 465.2 472.3 476.2 476.1 470.6 467.4 465.8 462.8 456.6 449.7 443.2 437.3 433 428.3 423.4 418.4 415.4 413.4 409.6 412.5 412.9 410.8 408.2 406.1 403.7 400.2 395.8 390.6 379.8 366.4 363.1 362.6 362.5 346.4 340.6 343.4 349.7 357.8 366.3 372.7 377.3 380.9 380.9 377.5 366.2 358.7 352.8 347 342.8 339.2 334.3 330.4 330.4 330.4 330.4 330.4 330.4 343.2 356.3 370 381.9 390.8 396.3 400.4 406.3 411.5 416.5 419.6 420.3 424.5 428 431.9 435.9 439 443.3 444.2 446.8 452.7 466.4 485.7 503 516.8 520.5 516.5 509.8 504 495.7 487.1 477.8 467.4 454.7 443.1 429.9 415.2 398.3 380.9 372.3 365.3 359.4 352.8 351.3 347 341 337.9 334.6 330.1 322.4 323.3 321.9 319.1 315.5 300.5 306.6 296.8 288.7 284.9 283.7 282.6 280.7 279.3 278.9 283.1 285.2 281.4 282 283.3 284 285.5 282.6 282.6 279.8 278.3 277.3 276.2 275.6 275.4 275 274.4 273.6 275 276.6 273.5 270.6 268 269.3 271.2 273.3 275.2 275 275.1 268.7 247.3 244.4 243.6 243.1 242.3 243.4 261 273.2 275.8 277.4 278.3 279.2 279.3 279.5 282.2 282.3 282.1 282.2 283.4 284.5 285.6 286.5 286.2 287.5 288.6 290.2 291.5 293.5 295.8 297.1 297.2 297.5 297.5 296.4 295.4 294.9 294.5 294.1 294.3 293.9 293.7 293.7 293.6 293.4 293.3 293.2
455.9 459.1 463.4 471.9 477.2 481.3 481.6 476.8 475.2 472.5 470.7 466.3 458.4 452.8 444.4 441.7 436.4 428.9 425.9 423.6 421.2 417 419.5 419.8 417.9 416.3 415 412.8 407.9 403.9 399.5 393.6 385.1 375.8 367.5 359.6 353.2 337.2 337 336.8 346.9 356.2 363.8 371.9 380.5 383.7 380.1 371.2 359.6 353.3 347.2 343.1 339.4 335.2 330.4 330.4 330.4 330.4 330.4 330.4 345.8 357.8 372 383.8 393.8 399.9 405.5 413.5 418.5 423.1 427.7 430.6 432.3 437 440.9 444.2 449.4 452.9 456.2 457.9 465.9 480.1 497 513.8 523.2 522 516.4 509.7 502.7 494.1 484.1 473.7 460.2 447.1 435.4 421.6 405.3 388.2 377.1 370.8 362.2 356.9 350 344.8 342 340.1 337.2 332.9 331.2 328.3 324.3 321.8 318.1 313.1 302.1 289.7 286.8 284.9 282.9 281.2 281.8 281.9 279.7 283.1 291 285.2 286.3 285.9 285.7 285.4 283.3 283 281.1 279.4 277.6 276.8 278.5 278.4 275.8 275.1 274.1 273.4 272.9 271.1 269.9 270 270.6 271.5 272.9 274.8 276.4 275.9 276.4 268.6 246.8 243.8 243.3 243.6 245.4 251.4 260.3 269.5 276 278.1 280 281 280.4 280.8 282.2 281.8 282 282.6 283.8 284.9 286.1 286.8 287 288.1 289 290.1 291.7 294.1 296.8 298 298.1 298 297.5 296.1 294.8 294.5 294.2 294.1 294.2 293.8 293.7 293.6 293.5 293.3 293.2 293.1
456.9 460.5 467.5 474.8 480 486.1 483.1 481 480.7 480.1 474.6 467.9 465.9 461.8 456.7 450.4 441.5 436.8 435.1 432.6 428.1 423.7 428.6 428.4 427.6 426.8 425.3 422.5 416.3 410.8 404.5 398.6 389.5 383.2 376.8 373.4 371.3 357.6 348.6 332.8 337.3 347.4 355 368.9 380.6 386.3 382.6 373.3 362.5 354.4 348.3 343.2 338.5 330.8 330.4 330.4 330.4 330.4 330.4 330.4 346.8 358.6 372.4 384.2 393 400 408.9 419.6 427.7 433.5 438.7 445.3 448.3 449.9 454.2 458.7 460 464.3 468.1 472 482.6 495.4 514 524.9 525 521.3 514.8 507.2 500.9 491.2 480 465.8 450.7 438.8 425.6 409 394 382.2 375.7 367.5 359.4 357.4 353.5 350.1 346.4 342.9 339.7 335.7 332 327.5 323.3 319.3 313.3 300.6 288.9 287.6 286 284 282.6 289.9 291.4 282.4 283.8 292.6 290 286.2 288 288.6 284.8 285.6 284.1 282.2 281.4 279.3 276.8 276 278 279.1 275.5 274.4 274.7 275.7 274.4 273.6 272.7 273.3 273.8 274.6 274.8 275.7 275.1 276 275.6 267.6 246.4 244 244.1 247.9 254.3 259.4 264.9 274.7 277 278.6 280.4 281.2 280.7 280.5 281.1 281 281.9 283 284.3 285.3 286 286.4 287.1 288.7 289.6 291.1 292.8 294.9 297.9 298.7 298.4 298 296.9 295.3 294.3 294.1 293.9 294 294 293.8 293.7 293.6 293.5 293.3 293.1 292.6
456.8 461.9 467.5 474.6 478.7 480.6 482.4 483.2 486 484.1 476.5 480.8 478.4 474.8 469.6 461.5 455.3 452.3 449.7 444.4 438 435.1 437.5 438.9 437.9 435.6 432.5 428.8 424.2 418.2 407.6 399.6 390.1 385.2 379.5 374.1 366 352 345.1 335.5 332.6 337 347.1 363.5 376 384.2 384.5 376.3 363.6 354.6 348.7 343.4 337.9 330.4 330.4 330.4 330.4 330.4 330.4 334.1 345.2 357.9 370.7 382.3 391.7 399.5 413.5 427.7 441.8 449.1 455.4 462 465.4 468.1 473.2 476.9 477.1 481.1 485.2 489.9 501.2 516.7 528.9 530.8 525.3 518.2 510.9 502.8 494.5 484.5 472.2 457.7 442.5 427.8 412.7 397.9 388.1 381.2 371.8 369.4 365.1 360.4 356.2 352.6 348.7 345 341.3 335.2 328.5 326.1 320.2 309.3 300.6 289.5 287 288.3 285.7 294.5 294.7 298.4 285.3 287 294.3 291.6 287.4 287.3 289.6 287.8 286.5 284.2 283.2 282.9 281.7 278.8 276.7 275.9 276.4 276.3 275 275.2 276.9 278.1 275.6 275.3 275.1 276 276.4 275.9 275.7 275.7 274.8 277.2 275.4 267.5 249.5 244.7 245.4 251.2 260 263.4 274.1 276.7 278 278.7 280 280.8 279.8 279.6 280.2 281 282.3 283.4 284.8 285.8 286.3 286.6 286.8 289 290.3 291.8 294 296.2 298.2 298.8 298.2 297.6 296 294.7 294 293.8 293.8 294 293.9 293.8 293.8 293.7 293.6 293.4 293.2 292.7
454.2 458.7 463.4 465.6 470.2 475.4 480.3 484.8 488.5 488.9 491.1 491.1 489.6 486.5 479.6 472.2 468.6 464.2 460.1 453.2 444.4 446.4 448.2 448.1 446.5 443.8 440.3 435.5 428.2 419.1 406 396.6 389.5 383.7 376.8 372.6 368.1 358 348 341.5 332.2 328.5 339.6 356.1 370.4 378 383 376.8 364.8 355 347.9 342.4 337.6 330.4 330.4 330.4 330.4 330.4 330.4 335.8 344.6 357.7 369.5 381.4 390.4 400.4 417.5 436 448.2 452.4 458.5 466.7 474.7 480.7 485.8 487.4 485.4 490.1 488.8 494.5 507 525.8 534.5 531.4 524.8 514.9 505.3 496.1 486.6 474.3 460.8 446.7 432.1 417.5 404.7 395.3 387.1 382.3 377.4 372.9 368.3 363.6 359.3 354.9 350.8 345.7 339.7 333.8 327.6 320.4 297.7 289.7 288.5 288 302.7 285.5 297.3 299.3 300.5 297 285.1 291.3 292.9 290.6 290.8 288.8 289.7 287.8 284.9 284.1 283.1 282.3 280 277.7 277.5 275.9 276 275.5 275.7 277.1 279.8 280.4 277.8 276.7 277.4 277.9 277.4 277.1 277.4 277.8 277.9 278.1 277 272.4 257.2 247.2 244.4 247.2 260.1 264.5 274.3 276.8 278 279.1 279.8 279.9 278.3 278.9 279.8 280.8 282.1 283.5 284.9 286 286.6 287 287 289.1 291 292.8 295.2 297.1 298.3 297.9 297.4 296.8 295.3 294 293.7 293.8 293.8 293.9 293.9 293.9 293.8 293.7 293.6 293.4 293.1 292.6
449.9 453.4 456.9 460.5 465 470.7 477.6 485.3 491 496.2 499.1 498.9 497.9 495.1 488.9 485.1 481.5 475.7 468.4 462.4 457.4 456.2 454.9 454 452.1 449.6 444.8 436.2 427 415.5 403.1 392.7 385.8 378.9 371.7 367.2 364.7 360.1 354.5 350.5 341.6 329.2 334.1 349.3 362.5 372.1 378.2 376.1 364.4 354.9 347.3 342.8 337.2 330.4 330.4 330.4 330.4 330.4 330.4 336.2 343.9 355.5 367.9 378.1 388.8 401.4 419.7 436.9 442.5 445.3 450.7 458.4 467.2 472.8 475.2 475 473.6 476.3 477.2 486 501.8 522.1 533.2 531.8 523.2 512 501.1 489.7 478.6 465.5 450.4 437 423.6 412 401.7 397 391.9 386.4 380.6 375.4 370.4 365.4 360.9 355.7 349.2 343.5 337.9 329.5 319.4 303.1 290.5 288.8 291.3 300.2 287.5 292.1 305.7 300.9 294.9 287.8 286.6 295 293.2 291.8 291 290.5 288.4 285.6 283.5 282.4 280.1 279.2 278.5 278.5 277 276.6 276.5 276 278.5 280.7 282 282.1 281.9 279.6 279.7 278.7 278.3 278.1 278.6 278.6 279.6 279.1 278.2 275.4 274.3 262.2 246.3 244.5 246.5 259.5 271.7 276.6 278.5 278.2 278.4 279 277.5 278.9 279.1 280.4 281.8 283 284.3 285.7 286.7 287.4 287.6 289.5 291.5 293.7 295.4 296.6 297.8 297.3 296.7 295.7 294.1 293.6 293.4 293.6 293.8 293.8 293.8 293.9 293.8 293.7 293.6 293.4 293 292.5
442.9 447.2 451.4 456.2 461.4 467.9 475.9 485 493.6 499.7 503 504.7 503.8 501.3 498.3 494.2 490.1 483.8 478.5 469.4 466.4 463.3 459 456.1 453.6 450.1 443.2 432.7 422.1 409.5 398.8 389.1 381.5 373 367.8 362.5 359.1 355.2 351.1 346 339.9 327.8 329 344.3 356.2 366.7 373.1 372 362.2 353.7 347.1 341.5 337.1 330.4 330.4 330.4 330.4 330.4 330.4 330.8 343.1 355.1 368 378.9 388.2 403 417.7 428 430.8 433.4 439.6 446.9 454.3 458.6 460.3 459.7 457.7 459.3 457.9 475.9 495.8 517.3 531.8 531.6 523.2 511.1 498.6 486.4 473.4 458.3 443.5 432.3 422.3 414.1 408 402.4 395.6 388 380.7 374.3 370 365.1 359.4 352.5 348.1 340.6 329.5 319.8 312 291.6 288.9 294.8 302.7 288.8 287.2 303.8 297.5 291.2 288.1 288.2 291.4 293.3 292.5 291.4 291.3 289.3 287.2 284.9 282.2 280.1 280.8 280.6 278.2 277.5 276.9 277.3 277.4 277.1 280.9 283.2 283.9 284.7 284.1 281.4 280.3 279.7 279.1 279.1 279.9 280.4 280 279.6 279.1 278.5 278.4 281.2 264.5 248.3 245 245.4 252.3 263.9 275.7 276 276.4 276.5 275.6 274.7 279 280.1 281.1 282.5 283.7 285.2 286 286.9 288 289.9 292.2 294.4 295.4 296.6 296.9 296.6 295.9 294.3 293.2 293.2 293.2 293.6 293.7 293.7 293.7 293.8 293.7 293.7 293.6 293.4 292.9 292.3
435.5 440.5 446.5 451.9 456.8 463.8 473.2 484 493.5 500.5 506.1 508.8 508.1 506.9 504.8 501.2 496.5 491.3 484.5 478.1 471.6 464.2 456.4 451.7 448.9 445.1 437.9 427.3 415.2 403.4 392.7 385.1 376.6 370.5 364.8 358 353.1 347.7 342.4 341.9 337.3 328.9 324.7 333.1 349.8 360.6 367 369.9 362.5 352.4 347.3 341.8 336.2 332.3 333.7 333.4 332.1 331.5 330.4 330.6 344.2 355.3 366.2 378 385.3 396 402 408.5 412.7 411.7 427.4 435 440.7 442.1 443.2 443.3 440.5 439.5 448.4 469.8 492 515.5 530.3 531.3 522.5 511.5 498.2 484 468.8 453.9 442 432.4 424.2 417.7 411.4 402.9 394.3 384.7 377.1 372.4 366.6 359.9 354.3 348.7 340.4 329.5 320 313.4 305.6 288.7 292.6 292.7 288.6 286.7 303.1 294.4 291 290.1 290.3 290.7 291.6 291.6 290.7 287.7 287.7 287 285.5 283.9 281.1 283 285.2 283.7 277.5 277.5 278.3 278.9 279.5 278.4 283 284.8 284.6 284.9 284.4 282.3 281.1 280.4 279.9 280.8 280.8 280.6 280.2 279.9 279.4 279.4 278.6 279.3 275.8 262.8 258.7 252.4 245.9 247.8 258.7 270.6 273.7 268.9 270.2 277.2 280.3 281.2 281.9 282.7 283.7 285.5 286.3 287.4 289.2 291 293 294.7 295.5 296.1 296.1 295.7 294.4 293 292.6 292.7 293.1 293.5 293.7 293.6 293.7 293.7 293.7 293.6 293.5 293.3 292.9 292.4
429.1 433.3 440 446.6 453.1 459.4 468.4 480.8 491.1 500.6 507.3 511.4 512.7 512.6 510.5 507.1 502.6 497.1 489.4 482.4 473.1 467.1 460.2 453.9 445.3 435.2 429.7 419.6 408.1 395.7 387.2 379.9 374.1 368.6 361 358.5 358 354.9 352.7 351.9 348.6 338.8 326.1 324.7 342.7 353 360.6 362.2 358.4 351.1 346.8 342.3 336.2 331.7 325.3 322 314.3 312.8 316.3 328.3 341.9 354.9 368.6 376 378.1 380.6 385.1 390.8 391.6 397.1 415.1 421 420.5 421.5 426.7 427 425.2 430.1 447 469 489.7 513.9 527.5 529 520 508.3 494.5 481.5 465.6 451.9 440.7 430.4 423.5 417.4 409.4 400.7 387.6 377.1 372.4 365.3 360.1 355.2 349.4 338.8 329 321 316 311.1 301.7 289.1 289.7 293.1 286.6 299.6 293.5 293.5 297.3 298.9 290.3 292.3 289.3 287.9 286.6 285.9 284.9 284.9 285.3 284.2 282 281.3 281.5 278.7 278.4 278.7 280.3 281.9 281.8 281.3 283.6 285.6 286 285.2 283 282.3 281.3 280.7 281.4 280.9 280.8 280.6 280.3 279.9 279.5 279.3 278.8 276.3 275.5 272.8 268.9 262.5 258 249.4 249.6 256.1 267.9 274.8 275.7 278.1 280.3 282 282.7 283.4 284.6 285.7 286.6 287.8 289.8 291.7 293.3 294.8 295.3 295.3 295 294.4 293.1 291.9 292 292.5 293 293.5 293.5 293.5 293.5 293.6 293.6 293.6 293.5 293.2 292.8 292.4
424.5 428.6 434.1 441.2 448.2 454.5 462.1 474.4 486.9 498.8 507.2 513.3 517.9 519.5 516.7 511.6 507.4 500.5 497.5 489.8 483 478.6 474.2 465.1 451.6 435.9 419.1 408.2 398 385.2 376 375.6 375 369.3 367.2 365.6 363.4 363.1 360.5 357.7 353.6 347.6 339.9 331.8 326.2 343 352.6 355.6 352 348.1 345.2 340.7 335.7 331.5 326.8 322.4 310.4 307.8 308.5 319.3 332 353 370.5 373.3 370.2 369.7 373.2 376.3 376.2 386 400.8 404.3 398.9 403.1 410.5 411.6 410.8 429.4 450.9 470.8 491.7 514.3 524.4 522.7 516.1 503.2 486.8 474.4 459.2 446.4 436.3 426.8 419.8 411.7 403.3 391.2 376.2 370.2 364.3 358.2 353.6 348.4 338.7 329.3 321.8 316.5 312.9 306.4 294.4 287.4 286.9 287.7 288.9 293.2 300.8 304.4 301.3 292.4 292 293.3 292.9 291.4 290.1 287.5 286.8 285.1 283.9 283.3 282.3 280.5 279.5 279.3 279.3 280.6 282.2 284 284.1 283.6 284.3 286.3 286.3 283.9 282.4 281.7 281.7 282 281.7 281.1 280.6 280.5 280.2 279.8 279.2 278.7 278.1 275.3 273.3 271.7 271.1 268.9 266.7 256.7 247.6 260 275 276.2 277.4 278.9 280.3 282.6 283.4 283.7 284.6 285.5 286.6 288.4 290 291.5 292.9 294.3 294.6 294.1 293.3 293.2 292 291.1 291.7 292.2 292.8 293.4 293.3 293.4 293.7 293.7 293.6 293.4 293.3 293.1 292.6 292.1
419.9 424.4 429.8 436 443.7 451 456.6 466.4 481.4 496.5 506 514.5 519.8 520.9 517.1 513.3 511.6 508.4 504.2 498.9 493 490.6 485.6 476.8 463.3 446.3 427.8 412.2 400.4 388.1 389.1 387.3 383.4 378.1 374 371.4 368.6 366.6 361.9 358.3 354.4 349.3 343.4 334.5 321.2 328.9 343.4 347.8 348.5 343.8 341.3 337.6 334.8 330.9 327.1 322.8 317.4 307.6 306.7 309.9 325.2 345.6 367.4 367.5 362.4 361.6 363.1 365.8 365 370.1 382.8 386.3 383.6 386 392.6 399.5 418.1 432.8 453.2 473.8 496.3 513 519.6 516.4 510 493.8 479.5 466.5 452.6 439.4 427.1 419.1 412.9 402.4 390.6 375.6 368.1 363.9 354.8 350 345 338.7 330.5 322.9 318 313.6 303.8 289.8 287.8 287.7 295.1 299.7 306.6 306.3 301.8 296 292.3 295.7 294.6 293.7 291.5 289.1 287.8 287 286.3 284.7 283.5 283 281.9 281.6 279.9 279.8 281.4 281.8 284.3 286.9 287.3 286.3 286.7 285.7 284.3 283.4 282.7 282.4 282.5 282.2 281.8 281.2 280.5 280.2 279.9 279.5 278.7 276.2 276.5 273.6 269.3 259.6 257.9 258.3 269.5 265.7 247.9 256.7 275 277.2 278.3 279.5 280.7 281.8 283.3 283.8 284.4 285.3 286.3 287.8 289.5 290.9 292.4 293.2 293.5 292.7 292.2 291.9 290.7 290.9 291.5 292.1 292.8 293.4 293.4 293.7 293.9 293.8 293.7 293.5 293.3 293 292.5 292
415.7 420.5 426.1 431.6 439.2 446.1 453.5 464.2 478.7 490.8 501 511.1 515.8 518.4 518.3 517.4 517 514.2 510.4 505.6 501.9 497.6 492.5 485 472.7 458 439.6 422.8 405.2 400.4 399.6 397.5 395.3 390.1 383.4 377.7 373.5 366.7 361.1 356.4 351.3 346 339.3 331.6 324.1 317.3 330.5 339.7 339.8 339.2 337.5 334.8 332.4 328.6 325.4 322.3 319 310 306.5 305.7 318.8 337.9 357.4 359.1 354.8 354.4 355.1 355.4 355.6 356.6 361.7 367.8 375.3 385.6 398 410.9 426.2 440.8 459 476.1 498.2 511 512.9 509.9 499 485.5 468.1 457.5 442.3 429.5 419.6 409.8 400.2 389.6 376.4 368.5 362.7 355.1 349.4 345.2 339.3 331.4 324.6 318.8 315.7 307.5 291.2 288.5 291.7 305.5 308.2 309.1 308 301.1 295.6 301.3 299.3 296.9 292.7 292.9 290.2 288.8 287.6 286.5 286 284.9 283.2 282.2 281 280.7 279.8 281.2 282.6 282.2 285.3 286.4 287.4 287.2 285.4 283.7 283.1 283.3 283.2 282.8 282.3 281.9 281.6 281 280.5 280.1 279.7 279 278 274.8 268.1 261.2 254.5 249.2 249.2 248.9 259.1 266.9 250.2 253.6 274.2 277.7 279 279.9 282.3 283.2 283.3 283.7 284.5 285.1 286.3 287.7 289.1 290.7 291.7 292.3 292.3 291.5 291.5 290.5 290.2 290.9 291.6 292.2 292.8 293.4 293.6 293.8 293.9 293.9 293.8 293.6 293.3 293 292.8 292
412.4 416.4 422.1 427.4 434.5 441.7 450.1 461.7 474.1 483.8 493.7 504.7 512.4 517.3 519.5 520.7 520 517.5 514.4 509.9 505.3 501.8 497.2 490 478.5 464.3 446.8 425.1 411.4 416.1 415.7 415.4 413.3 408.9 402 390.4 378.3 367.2 360.1 354.4 349 344.2 336.6 329.5 324.8 321.2 316.6 326.5 328.6 330.6 329.8 328.6 327.7 325.8 322.6 320.4 318.5 312.7 306.3 305.1 313.2 333.9 350.6 351.3 347.4 346.3 346.5 347.5 346.2 357.4 367 377.4 388.9 399.9 410.3 419.9 431.5 447.4 462.3 477 497.7 506.6 505.9 500 488.6 473.7 459.7 446 433.8 423.9 412.4 402.5 390.3 380.1 371.4 363.5 358.5 351.7 346.7 340.9 333.3 327.3 320.6 317.6 315.3 298.7 289 296.9 310.7 314.2 308.3 313.4 305 297.4 303.2 302.1 296.6 295.2 295.2 292.7 290 288.8 287.8 286.5 285.6 285.1 284.2 282.5 281.2 281 281.7 282.7 283.6 283.3 285.1 286.2 287.1 287.1 285.7 283.6 282.3 283.3 283.1 282.5 282.1 281.7 281.4 280.2 280.2 279.3 278.6 275.9 273.1 264.1 252.1 250.3 249.5 249.5 252.3 249.6 247.9 253.3 248.1 252 270.3 277.2 279.1 281.1 282.6 282.8 282.8 283 283.8 284.6 286.1 288 289.3 290.6 291.2 291.5 291.2 291.1 290.5 289.7 290 290.7 291.5 292.3 292.9 293.3 293.7 293.9 294 293.9 293.8 293.6 293.3 292.9 292.8 292.7
408.9 411 416.2 423.5 429.2 436.6 447.4 458.9 467.4 475.2 483.9 496 508.4 515.5 520.3 522.7 523.2 522 519.2 517.3 514.9 509.2 502.7 494.2 483.1 464.4 441.9 426.2 431.8 435.5 438.5 441 439 431.3 418.4 401.1 381.7 368.3 359.8 353.6 343.7 341 337.6 334.8 330.6 327.1 321.4 314.4 316.4 321.3 322.1 323.4 322.9 322.5 319.2 317 316.1 313.1 306 304 311.7 333 344.4 343.6 340.3 337.5 338.9 337.7 351.1 363.9 377.1 387.2 395.9 405.7 413.6 421.8 432.8 447.3 460.7 475.7 493.1 498.8 496.1 490.6 477.8 464.6 451.6 441.6 426.2 416.1 403.7 394.6 384.1 374.4 367.9 362.2 354.4 350.1 342.9 336.2 328.3 322.1 317.8 313.3 300.9 289.8 295.5 307.3 311.2 309.8 317 311.2 300.8 304.9 302.4 297.9 298.9 297.6 294.5 290.5 289 288.1 287.7 286.5 285.3 284.7 283.1 282.4 282.7 282.5 283 284 284.8 285.1 285.4 286.1 286.9 286.5 285.5 284.1 282.6 282.8 283 282 282.1 280.8 279.8 278.3 278.6 276.4 273.6 266.8 256.2 250.6 251.9 258.2 261.2 262.8 263.3 259.4 254.9 248.2 252.2 260 275.8 278.6 279.7 281.4 282.4 281.8 281.7 282 282.8 284.7 287.7 292.4 289.6 290.4 290.5 290.6 290.5 290.2 289.5 289.2 289.9 290.4 291.4 292.2 292.8 293.1 293.6 294 294 293.9 293.8 293.7 293.3 293 293 293.1
408.7 405.4 410.5 417.5 424.9 432.5 441.4 450 456.7 463.2 474.4 490.9 505 513.2 518.4 522.8 525 525.2 524.5 522.4 518.9 513.5 507 497.9 488.6 473.3 456.3 453.5 453.8 458.2 461 457.8 450.3 437.6 421.1 402.1 383.3 368.7 360.2 354.1 351.8 349.5 345.8 340.2 335.4 330.2 324.9 317.6 313.7 309.6 312.5 313.6 317.1 316.2 314.3 314.7 315.9 312.5 306.8 303.4 311.3 327.9 338.1 338.3 334.1 330.3 330.9 342.4 352.8 368 379.8 389.2 397 403.8 409.1 415.1 427.7 442.7 455.7 470.1 485.8 490.3 486.5 479.9 467.5 457.2 448 437 420.1 407.3 397.2 387.5 377.9 371.5 365.6 358.1 351.4 345.2 337.7 330.2 321.8 315.6 308.5 298.9 290.8 290.5 304.2 307.9 319.6 321.7 317 305.5 305 304.1 302.3 301 298.8 295.4 291.5 289.6 288.5 287.6 287.3 286.7 285.8 284.8 283.5 283.6 283.4 282.7 283.6 285 285.1 285.2 286 286.9 286.8 285.9 285 283.9 283.2 282.1 281.3 282.5 281.2 281.6 279.7 276.9 274.5 271.6 260.3 252.3 257.2 263.7 265.9 267.4 268 268.1 266.9 263.6 260 255.4 256.7 268.7 277.9 280 281.5 281.6 281.1 281.1 281.2 281.4 281.6 283.3 287.5 289.2 288.7 289.6 289.3 289.3 289.3 289.1 288.8 288.7 289.5 290.3 291.3 292.2 292.6 293.1 293.6 293.8 293.9 293.9 293.9 293.7 293.5 293.3 293.5 293.4
409.3 405.3 406.2 411.2 420.3 428.5 433.9 439.8 445.9 456.9 469.5 486.4 499.8 509 517.3 523.3 527.2 527.7 526.4 524 520.6 516.5 511.2 504.5 498.6 490.5 481.2 476.6 473.6 474.2 470.9 463.1 451.1 438 422 401.6 382.6 370.2 364.6 360.8 357.7 354.8 346.9 342 337.9 332.8 328.1 323.6 319.1 310.5 307.6 308.7 310.1 310.7 312.2 315.7 313.4 310 305.9 301.5 308.4 319.3 326 329.7 327.4 323.8 334.8 342.3 355.8 368.4 378.7 385.8 391.7 396.2 398.3 405.7 420.2 435.5 448.2 462.3 477.3 481.3 475.5 469.5 459.1 450.1 441 423.4 411.1 400 390.4 381.4 374.9 368 361.7 355.5 348.4 340 330.5 319 317.1 302.8 294.8 291.5 291 301.7 314.6 321.4 324.6 320 312 303.1 307.7 305.3 302.9 300 296.8 293 291.5 289.6 288.4 287.1 286.6 285.8 285.2 284.2 284.1 284.4 284 283.5 283.9 284.5 285.1 285.3 286.3 287.1 286.4 285.5 284.6 283.6 283.1 282.3 280.8 280.8 281 279.8 277.6 275.5 271 257.4 252.7 259.7 268.4 268.9 269.3 269.7 270.3 270.2 269.1 267.2 265 262.6 266.8 269.3 279.1 281 281.8 280.9 280.7 280.9 281 281.2 281.6 282 282.9 285.6 287.1 287.8 287.8 287.9 287.8 288 288.1 288.8 289.6 290.3 291.2 292 292.6 293.1 293.6 293.8 293.8 293.9 294 293.9 293.7 293.8 293.9 294
409.2 406.5 401.6 406.6 413.1 420.9 424.9 435.4 446.4 457.4 468.8 484.8 499.1 510.2 518.2 522.9 526.9 528.6 527.3 525.9 522.6 519.7 515.5 510.9 505.2 500 493.7 488 483.3 480.3 473.9 463.4 450.6 436.6 418.8 400.5 383.3 376.1 373.2 368.8 363.4 357.6 351.2 345.2 340.2 335.3 332.4 328.6 324 320 315.1 308.8 308.1 306.8 305.7 304.9 303.9 305.7 302.2 300.7 306.3 313.8 318.3 320.8 319.1 322.8 332.5 341.5 353.3 362.9 371.1 376.8 380.8 384.6 386.9 396.7 408.8 426.8 441.4 454.1 469.5 471.5 466.6 460.3 454.6 441.1 428.3 412.8 401.1 392 385.7 379.1 371.5 367.2 361.1 352.1 342.2 327.9 308.4 302.9 298.2 293.5 293 301 305.7 312.2 324.9 326.8 323 316.4 307.1 308.2 307.2 304.8 302.1 297.9 294.6 292.6 291.4 289.9 288 287 285.9 285.1 284.5 284.3 284.7 285.1 285 283.7 283.9 284.3 285 285.4 286.6 286.6 285.7 284.7 283.7 283.3 283.2 282.2 280.1 279.3 278.5 276.3 273.8 268.5 256.9 254.3 266.1 270 269.8 270.2 271.2 272 272.6 272.6 272.7 271.2 269.4 270.7 273.8 276.8 280 280.9 281.1 280.4 280.4 280.5 280.7 280.8 281 281.3 282.4 283.7 285.2 285.8 285.8 286.1 286.1 286.9 288.4 289 289.5 290.2 291.2 291.8 292.4 293 293.4 293.6 293.8 294 294.1 294 293.9 294.2 294.3 293.9
409.9 406.3 402.5 403.2 407.8 414.8 425.5 436 447.9 460 471 486.4 499.7 509.6 516.4 521.9 526.6 529.1 528.9 527.9 525.8 523.7 520.8 516.9 512.1 506.6 501.1 494.9 489.3 482.1 473 461.9 449.7 434.4 418.1 400.3 391.7 391.1 389.7 383.6 371.4 362 355.4 348.7 344.7 340.2 336.8 332.5 327.6 323.6 318 312.8 311.9 307.5 306.1 303.1 301.7 301.4 300.4 301 305 311.8 312.7 315.2 314.4 320.8 325.3 335.9 344.6 353.7 360.3 364.9 368.4 373.4 379.9 392.1 405.3 422.7 436.4 450.2 462.3 464.1 455.9 452.7 444.3 430.6 415.1 403.2 392.8 383.5 377.7 372.2 369.7 362.2 352.3 345.5 332.3 309.2 299.1 300.8 304.4 297.4 296.5 314.5 319.5 326.8 327.7 325.2 318.6 308.7 308.4 308.6 307.6 304.2 300.1 296 293.9 292.7 291.3 289 287.8 286.5 285.7 284.8 285.2 285.3 285.3 285.5 285.5 284.7 283.9 284.1 285 286 285.9 285.8 285 283.9 283.4 283.1 282.9 282.3 281.4 279.7 277.7 274.6 270.1 255.3 263.3 270.7 272.7 272.6 271.6 271.3 272.2 274 275.7 277.3 277.4 276 273.6 274.8 277.8 279.6 280.3 280.3 280.3 280 280.1 280.2 280.3 280.4 280.6 281 281.7 282.8 284 284.3 284.3 284.8 285.8 287.3 288.8 289.6 289.8 290.3 291.2 291.8 292.3 292.9 293.2 293.5 293.8 294.1 294.2 294.1 294.2 294.5 294.6 294.4
410.8 406 402.6 399.3 403.4 410.7 422.3 435.6 449.8 461.4 473.4 486.6 497 505.9 513.2 519.4 524.7 528 529.9 530.7 530.4 528.9 525.9 521.5 516.5 511.2 505.7 498.6 491.1 482.1 471.1 459.6 447.3 432.2 416.6 410.9 408.2 406.1 400.7 393 380.8 367.7 359.7 353.8 348.3 345.2 341.5 337.3 332.8 327.1 320.8 314.5 314.5 314.4 310.9 309.9 307.2 301.1 301.3 302.4 305.4 306.5 308.6 314.7 325.1 331.3 331.2 329.5 336.3 344.6 351.4 357.4 361.2 369.6 377.9 387.5 402.2 419.3 431.3 446.9 454 452.8 445.1 442.7 436.1 419.5 404.5 393.3 382.6 377.4 372.5 364.5 359.8 351.4 343 331.4 309.5 301.1 314 309.1 303 299.2 310 328 323.7 330.6 326 318.6 311.8 309.6 309.9 308.1 305.7 302.2 298 295.8 294.8 292.7 291.2 289.1 287.3 286.6 285.4 285 285.1 285.2 285 285.3 285.9 285.9 285.1 284.1 284.9 285.4 285.2 285.1 283.8 283.2 282.8 282.9 282.8 281.7 280.6 278.9 276.8 271.9 258 265.9 274.9 275.5 275.5 274.7 272.8 272.4 273.8 276 278.9 280.9 281.6 279 276.6 277.5 279.8 280.6 280 279.8 279.7 279.7 279.8 279.8 279.9 280.1 280.4 281 281.6 282.3 283.2 283.7 284.8 285.6 286.5 287.9 289.3 290 290.2 291.1 291.6 291.9 292.3 292.7 293 293.4 293.9 294.1 294.3 294.4 294.6 294.8 294.9 294.9
410.5 405.7 402.5 397.7 400.6 405.3 417.8 433 448.7 460.9 472.2 483.5 492.2 500.1 507.9 515.5 521.6 526.6 530.2 534 535.1 534.5 531.3 525.9 520.1 513.9 507.2 499.5 490.6 481 470.1 459.3 447.6 435 427.1 422.4 417.9 413.7 405.5 397.1 387.9 374.3 363.5 357.8 353.9 351.2 346.9 343 338.3 331.9 324.9 317.2 314.4 313 312.2 311.6 311 300.2 300.2 310.2 309.2 311.6 313.7 321.6 332.6 338.8 341.4 341.5 344.3 347.6 350.7 356.9 362.4 370 381.3 393.3 405.6 417 428.6 439.8 443.1 439.5 432.6 429.8 421.1 408.4 396.8 385.3 377.2 371.9 363.3 356.3 349.9 343.5 336.5 311.3 301 314.5 307.4 302.6 300.8 311.3 329.8 333.6 332.3 329.1 321.1 315.8 314.1 311.8 309.2 307.1 303.7 300.1 297.3 297.4 294.9 292.4 291.2 288.5 287.5 286 285 284.3 284.5 284.9 284.9 284.6 285.8 285.9 284.3 284.3 284.1 284.1 284 283 281.8 281 281.2 281.9 282.3 280.4 277.9 276.2 271.2 260.2 259.2 273 277.6 278.5 278.3 276.6 274.6 273.8 275.6 278.5 281.3 283.6 282.8 280.3 279.2 280.5 281 280.6 280 279.4 279.2 279.3 279.4 279.5 279.7 280.1 280.4 281.2 282 282.8 283.4 284.4 285.5 286.4 287.3 288.7 290 290.9 291.5 291.8 292.1 292.4 292.3 292.7 293 293.6 294.1 294.3 294.6 294.9 295.1 295.2 295.2 295.3
412.8 406.2 402.2 396.4 397.8 402.5 414.1 431.3 446.6 457.2 467 477.1 485.1 492.7 502.1 511.2 517.9 523.4 529.9 533.4 534.7 534.9 532 527.6 521.3 514.4 506.7 497.8 488 478 467.9 457.6 449.5 440.3 433.5 429.1 422.8 416.6 407.7 399.4 390.5 380 368.6 362 358 356.8 354 347.9 341.8 336 328 320.5 316.3 313.8 311.1 308.8 305.9 300.2 303.1 311.7 310.1 311.9 316.5 336.4 345.5 351.3 352.7 352.7 356.7 359.7 363.6 366 369.3 379.4 387.8 397.6 408.1 416.2 425.1 428.5 429.4 424.6 419.8 416.4 409.2 400.8 389.3 378.3 371 361.6 355.6 349.5 343.9 331.7 311.5 301.5 312.5 304.1 301.5 304.7 315.4 333.4 341.1 338.3 327.8 321.4 317.5 316.2 313 310.5 308.4 305.7 301.9 300.9 300.1 296.8 294.9 292.9 291.1 288.5 287.3 286.2 285.2 284.5 284.2 284.6 284.2 284.6 285.2 284.4 284.7 284.4 283.1 282 281.6 280.3 279 277.6 274.9 274.7 278.7 277.8 276 272.6 263.5 257.3 270.3 277.9 279.8 280.6 280.2 279.4 277.6 277.2 278.7 281.4 283.8 284.1 282.9 280.8 283.2 283.4 281.9 280.6 279.5 279.2 278.8 278.9 279 279.4 279.7 280.3 281.3 282.3 283.1 283.7 284.3 285.2 286.2 287.1 288.1 289.4 290.6 291.3 292.1 292.7 293.1 293.1 292.8 292.9 293.2 293.7 294.1 294.6 294.9 295.4 295.6 295.8 295.8 295.6
416.7 407.4 402.7 396.8 394.8 400.1 410 424.9 438.2 448 456.8 466.4 473.5 483.3 494.6 505.3 514.2 521.3 526.7 530 532.1 531.3 528.5 524.6 519.3 512.7 504.6 495.4 483.4 473.2 463.9 456.3 449.1 442.1 435.3 431.4 424.5 416.4 407.6 398.7 389.7 383.1 375 366.5 364.4 357.9 355.8 350.7 342.9 335.8 328.6 321.8 316.3 310.1 307.4 303.2 302.9 299 306.4 310 309.1 312.7 319.7 342.8 356.5 359.7 363 363.8 367.5 371.2 374.3 376 380.9 390.1 396.2 398.2 406.8 414 416.4 416.5 414.7 408.3 410.6 405.3 402.8 392.7 380 370.9 354.7 348 336.6 341.5 319.9 307.7 301.8 302.3 306.7 313.4 318.9 327.7 340.2 344 342 335.1 328.9 321.9 317.1 315.2 311.8 310 306.8 303.6 303.1 301.4 299.2 296.5 295 293 291.4 289.2 287.6 286.9 286 284.8 284 283.2 283.1 283.8 283.4 284.3 284.6 282.7 282.4 282.3 280.6 277.6 275.4 268.2 263.2 263.7 266.4 268.1 268.7 265.8 260.3 270.2 277.5 279.9 280.7 281.4 282.1 281.7 281.2 281.4 282.4 284.4 284.2 283.3 282.6 283.1 284.1 284.2 281.2 280.1 279.1 278.8 278.5 278.7 279 279.3 280.3 281.5 282.5 283.4 284.1 284.8 285.5 285.8 286.8 287.7 288.7 289.9 291.1 292 292.7 293.5 293.8 294 293.9 293.6 293.4 293.8 294.2 294.7 295.3 295.5 295.8 296 296.3 295.8
419.1 408 403.1 397.1 392.3 395.8 405.2 418.1 427.4 436.9 444.4 453.6 461.7 475.4 489.4 500.6 509.7 516.4 521.3 524.8 527.8 528.2 525 520.7 515.7 510.6 502.3 491.6 478 467.7 459.5 452.7 446.3 439.1 431.5 424 418.2 409.8 402.4 395.5 388.3 381.6 375.2 371.5 366 359.3 355.1 345.9 335.4 330.5 321.8 314.8 315.3 314.9 311.1 307.8 298.5 299.1 305.3 308.2 308.9 312.4 321.9 348.7 361.8 368.1 371.7 374 378.2 380.7 382.9 390 395.3 401.3 403.7 403.2 401.5 409.1 404.1 401.3 398.7 396.6 397.7 394.2 392.6 380.6 366.6 363.8 369.2 364.3 352.5 313 305.3 302.1 303.4 312.5 319.1 325.9 333.2 344.3 346.5 344 338.8 332.8 325.2 318.4 315.8 312.9 310.8 308.8 305.3 305.4 305.2 302.9 299.7 297.1 295.1 293.1 291.4 289.1 287.4 286.1 285.6 284.6 283.8 283 282.8 282.9 283.6 283.4 282.3 280.5 282.9 282.7 279.2 270.2 266.3 262.4 262.5 261.7 261.1 261.3 260.6 263.3 276.2 278.4 279.7 280.9 281.6 282.4 283.2 283.4 283.7 284.3 285 284.5 283.5 282.5 281.8 282.6 282.3 281 280 279.1 278.6 278.2 278.3 278.6 279.3 280.2 281.5 282.8 283.8 284.8 285.5 286.1 286.7 286.8 287.5 288.4 289.4 290.5 291.5 292.4 293.2 293.7 294 294.2 294.4 294.7 294.6 294.6 294.6 295.1 295.6 295.8 296 296.6 296.7 296.2
417.9 409.4 402.9 398.5 394.7 391.4 399.4 408.5 419.7 427 432.7 441.7 453.4 469.3 482.9 494.1 503.6 510.4 516.8 519.6 522.7 522.9 521.6 517 511.9 506.5 498.9 485.9 471.5 460.6 450.8 446.3 441.1 434.3 426.8 417.2 408.2 401.6 395.2 388.8 382.6 377.9 373.7 368.2 362.7 355.5 347.4 338.7 326.8 326.7 327.8 326.1 319.3 316.7 312.4 298.8 296 298.8 301.1 305.6 308.9 310.7 322.4 350.2 364.8 374.9 380.9 383.1 384.5 382.9 396.3 404.6 409.1 410.5 409 407 399 398.9 390.4 385.5 382.8 384 384.5 377.2 371.8 367.1 376.3 375.2 369.9 363.7 344.4 318 303.2 304.2 318.3 325.5 329.5 339.4 346.6 348.7 345.4 337.8 334.6 326.9 320 317.3 314.3 312.2 309.9 307.3 307.1 306.9 305.9 303.2 300.7 298.2 295.5 293.3 291.4 289.1 287.7 286.8 285.6 284.6 283.8 283.5 283.4 283 283.7 284 284.1 280.6 274.2 273.4 267.7 263.9 262.9 267.1 264.4 264.6 262.6 263.2 272.5 277.7 276.6 280.7 280.5 280.6 281.9 283.5 284.2 284.6 285 285.5 284.5 283.5 282.5 281.3 280.3 279.5 279.5 278.8 278.5 278 278 277.8 278.3 279.1 280.3 281.3 282.7 284 285.2 285.9 286.7 287.4 287.6 287.8 288.4 289.2 290.2 291.2 292 292.9 293.5 293.9 294.3 294.5 294.8 295.2 295.3 295.4 295.6 295.8 296 296.3 296.4 296.9 296.8 296.9
416.2 409.2 402.9 398.5 394.6 388.5 394.9 402.1 410.6 417.2 423.7 436.5 448.4 461.2 475.2 486.5 496 504.8 510.8 515.1 516.8 517.5 516.5 512.9 508.5 503.1 493.6 478.1 463.3 449.4 439.9 435.3 431.7 426.7 419.8 409.1 399 389.5 385 380.4 376.3 373.2 369.7 362.6 355.8 346.6 337 340.3 339.6 337 333.5 328.9 323.4 320.2 316.2 296.1 296.4 297.6 296.8 297.5 294.1 302.5 324.1 351.4 368.2 382.2 385.6 388 383.6 393.9 405.1 413.4 415.5 413.1 410 408.8 393.9 387.4 379.6 376.5 376.2 375.6 372.9 379.8 384.4 384.5 378.4 371.2 362.2 342.8 322 302.3 306.8 317.9 327.3 333.1 341.3 347.5 351.2 344.5 332.2 334.6 325.6 321 318.4 315.8 313.7 311.4 308.9 308.1 308.2 307 305.8 302.9 301 298.2 295.5 293.5 291.8 289.8 288.7 287.5 285.7 284.8 284.1 283.7 283.5 282.1 283.3 282.1 281.6 279.2 274.2 267.7 265.1 263.6 266.3 267.3 266.7 264.1 267.5 272.4 276.7 278.8 279.5 279.5 279.8 279.1 281 282.5 284 284.8 285.2 285.1 284 283 282 281.1 280 279.2 278.7 278 277.2 277 277.3 277.8 278.4 279.6 281 282.6 283.9 285.1 286 286.8 287.5 288.4 288.5 288.8 289.4 290.2 291 291.8 292.6 293.3 293.8 294.2 294.5 294.8 295.2 295.6 296 296.4 296.7 297.1 296.8 297 296.9 297 297.1 298
416.2 409.2 402.4 398.9 395.4 389.1 390.8 398 403.9 410.7 418.1 428.9 441.2 454 468.1 479.9 491.5 499.4 504.9 507.9 509.5 511.4 510.5 508.9 505 498.2 486.4 470.5 455.5 443.1 431.7 423.2 421.6 416.6 407.9 397.1 387.3 380.5 374.8 370.8 367.6 364.8 361.8 354.8 347 351.8 351.6 348.9 344.5 340.6 336.6 331.3 327.4 323.2 319.3 309.1 294.6 295.9 294.8 293.3 292.7 296.5 328.7 353.2 370.4 381.7 384.1 386.8 379.3 394.3 402.6 407.9 408.3 406.5 405 399.6 384.6 376.7 373.3 369.7 370 372 376.8 382.9 385.8 378.9 370.5 359.7 343 324.2 303.8 312.4 324.8 331.6 336.7 343 349 352 341.5 338.9 337.3 333.1 326.3 320 316.3 314.2 312.5 310.4 308.9 309.4 309.2 307.9 305.9 303.7 301.3 298 296 294.1 292.9 291.5 289.9 288.5 287 285.6 285.1 284.2 283.1 281.6 280.5 279.6 277.4 277.6 272.6 266.7 264.7 263.5 266.8 267.8 269.1 270.7 273.8 275.9 279.2 282.2 281.8 280.6 273.8 278.8 280.3 281.6 283 284.3 284.7 284.3 283.7 283.4 282.1 280.9 279.5 278.5 277.8 277.2 276.5 276.6 276.9 277.8 278.8 280 281.7 283.9 285.1 286 286.7 287.4 288.4 289.5 289.6 290 290.6 291.4 292 292.4 293.1 293.7 294.2 294.4 294.7 295.1 295.5 296 296.4 296.6 297 297.5 297.7 298 298.1 298.1 297.9 298.5
414.2 407.1 402 398.3 394.8 389.7 388.3 394.5 399.3 404.8 411.9 420 431.7 448.4 462.5 475.5 486 493.7 498.3 501.3 503 504.1 505.2 504.1 499.6 493.3 481.1 464.1 447.4 434.6 424.1 414.4 410 407 399.8 389.5 381 374.4 369.1 361.4 359.4 354.9 353.6 357.2 358.1 357.7 355.5 352.5 349.1 345.7 339.9 336.1 332.3 327.8 322.6 318.2 304.8 294.1 293.9 295.2 292.1 303.1 329.7 353.5 369.7 377.7 380.3 379.7 377.8 381.7 391 393 393 393.2 396 387.1 374.1 368.3 363.3 362.6 361.8 366.8 375.2 374.8 376.6 370.6 365.7 346.5 326 304.9 313.9 327.2 333.7 339.1 345.3 350.3 351.4 348.1 343.1 338.6 334.2 327.9 321.7 317.7 314.7 313.1 311.1 310 310.2 309.8 309.3 308.2 305.9 303.7 300.9 299.1 297 295.1 293.9 292.2 290.5 289.2 288.2 286.8 285.5 284 282.1 281.2 279.6 277.7 273.2 269.6 268.5 265.7 264.7 264.3 268 269.3 271.1 272.7 275.8 278.4 280.3 281.5 281.7 281.9 282 281.7 281.6 281.1 282.4 283.6 284.5 284.2 284 283.6 282.4 280.7 279.3 277.6 277 276.3 276.2 276.5 276.9 277.9 278.9 280.4 282.3 284.6 286 286.8 287.6 288.4 289.5 290.6 290.9 291.3 291.9 292.6 293 293.2 293.6 294.2 294.5 294.7 295 295.4 295.9 296.4 296.7 296.9 297.3 297.8 298.2 298.4 298.6 298.8 298.8 298.7
408.9 405.1 401.2 397 393.5 389.1 386.9 390.1 394.6 399.4 405.4 413.2 425 441.7 456.1 469 480.3 486.8 489.9 492.5 495.1 497.3 498.7 498.7 494.6 484.7 469.4 451.7 437.9 428 416.7 409.3 400.6 396.7 391 383.2 376.2 370.4 364.9 366.4 365.2 364.6 364.7 363.7 363.2 362 359.5 357.2 354.2 351 347.4 345.1 338.2 331.5 325.5 320.7 317.2 314.7 309.7 294.1 290.9 303 331 353.2 367.1 371.1 373.5 372.1 372.7 369.1 378.4 381.4 376.2 375.8 376.6 372.6 369.2 358.9 354.5 351.1 355.1 361.5 367.7 367.2 365.3 360.6 344.8 324.8 304.7 310.7 325.5 334.5 340.5 346 348.9 349.9 347.4 341.5 339.5 335.6 329.2 323.4 318.3 314.8 313.1 311.3 310.5 310.6 310.9 310.7 309.9 308.5 305.9 303.7 301.8 299.6 297.7 296.1 294 292.4 290.7 289.3 289.1 290.1 286.1 283.5 281.4 279.6 278.4 276.6 274.3 271.2 267.2 265.4 264.5 266 269.4 269.4 271.1 273.7 276.9 278.8 280.3 281 280.9 280.8 282.6 282.7 281.6 280.9 281.7 282.7 283.8 284.6 284 283.4 282 280.6 278.8 277 276.1 275.9 276.2 276.5 277 278 279.2 280.6 282.8 285 286.9 287.9 288.8 289.7 290.8 291.8 292.2 292.7 293.2 293.7 293.8 293.9 294 294.5 294.8 295.1 295.5 295.9 296.3 296.8 297 297.3 297.6 298 298.3 298.7 298.9 299 298.8 298.7
408.1 402.4 399.4 396.6 393.6 389.7 383.3 386.4 388.7 393 398.9 406.5 418.5 434.8 449.8 461.3 470.3 476.1 480.5 484.8 487.9 490.3 493 492.1 487 476 464.8 451.5 435.3 423.3 411.9 404.8 398.1 389.8 383.3 377.8 370 373.4 374.6 374.7 373.8 372.8 371.4 369.9 368.4 366.4 364.2 362 359.8 356 352.5 347.3 341.3 333.5 326.1 320.8 316.3 315.2 312.2 292.1 291.1 302.3 329.3 351.9 360.3 363.3 364.5 366.1 366.1 362.3 369.8 369.2 363.5 364.2 364.3 360.4 354 347.9 343.6 344.2 351.6 357.5 360.9 362 358.7 340.4 327.2 302.7 310.5 326.3 334.8 341.3 344.8 347.7 348.3 345.9 340.8 341.2 337.7 331.7 324.8 320.5 315.9 313.6 312.5 311.6 311.6 311.8 311.8 311.7 310.6 308.8 306.6 303.4 301.4 299.6 298 296.4 293.6 292.2 291 289.6 288.1 285.8 283.4 281.1 278.6 275.3 274.5 272.2 270.2 268.1 265.6 264.4 264 265.6 268.2 269 272.2 275.5 276.5 278.7 280 279.4 279.5 280.3 282.1 283.5 282.4 281 281.5 282.3 283.4 284.6 284 283 281.3 279.5 278 276.3 275.6 275.9 276.2 276.7 277.2 278.1 279.4 281.4 283.6 285.8 287.9 288.9 289.8 290.8 291.9 292.9 293.5 294.2 294.6 294.8 294.5 294.6 294.5 294.9 295.3 295.6 296 296.4 296.8 297.1 297.3 297.7 298 298.4 298.7 299 299.1 299 298.8 298.5
409.3 406.4 402.4 399.2 395.9 392.7 387.9 382.6 383.2 386.9 393.3 402 414 427.9 442.3 453.4 462.5 468.2 473 478 481.9 485.1 488.8 487.9 483.1 475.8 463.5 447.6 432.5 419.8 410.3 403 396.4 390.4 384.5 376.2 378 381.6 384.6 386.1 385.3 383.4 381.1 378.5 376 373.3 371.3 369.2 365.9 361.6 356.1 350.6 342.5 334.3 326.9 319.3 315.6 314.2 310.2 289.4 290.7 305.4 327 348 355.8 355.8 357.3 358.4 360 356 356 354.4 351.2 352.3 352.2 347.5 342.1 337.7 335.7 340 349.7 353.4 354.7 353.9 345.2 321.7 304.2 310.1 328.5 334.3 342.6 346.6 348.7 348.3 344 346.4 343.9 340.1 333.8 327.7 322.7 317.5 315.1 313.3 312.6 312.4 313.9 313.7 313.2 312.7 310.8 309.1 306.5 303.8 301.8 299.7 297.9 296.6 294.1 292 291.1 289.7 287.5 284.8 282 278.5 276.1 272.3 270.4 268.8 266.4 265.4 264.3 264.4 264.3 266.8 267 269.3 274.3 276.7 275.7 275.2 277 278.3 277.9 279.4 281.2 283.9 283.2 281.3 281.5 282.3 283.4 284.1 283.3 282.2 279.8 278.3 276.8 275.6 275.5 275.9 276.2 276.8 277.3 278.5 280.1 282.5 284.8 287 289.1 289.8 290.7 291.7 292.7 293.7 294.5 295.2 295.9 296 295.5 295.2 295.3 295.6 296 296.3 296.5 296.8 297.2 297.4 297.7 298.1 298.4 298.8 299.1 299.3 299.2 299.1 298.6 297.9
415.4 408.4 405.8 401.2 398.6 395.9 392.9 388.7 381.7 380.2 388.4 398.1 407.5 419.5 433.1 444.1 454.6 461.1 466.8 471.6 476.8 481 483.8 482.7 478.8 471.3 455.6 440.7 428.2 418.1 409.6 400.9 394.5 389 383.3 384.8 388.7 393.3 396.7 397.8 397.8 395.4 392 389.2 386 382.8 379.4 374.3 369.9 365.1 359 351.8 344.7 334.5 326.8 317.7 314.8 311.7 304.4 291.1 289.4 295.2 322 343.2 349.3 348.3 348.7 352.9 354.1 353.6 345.8 344.5 342.9 340 336.3 333.7 330.9 328.9 334 339 345.5 348.9 350 343.6 324.5 302.7 308.8 325.8 333.7 342.2 347.8 350 347.2 348.9 349.6 346 343.4 336.9 330.8 324.5 319.7 316 315 313.7 313 314.7 314.1 313.6 313 312 310.7 308.3 306.1 304 302.5 299.9 297.8 295.8 293.6 292 291 289.1 286.5 283.7 280.5 277.3 274.2 270.8 268.6 267.2 266.3 265 264.3 264.5 264.9 266.9 269.7 272.9 275.1 275.3 273.9 271.9 272.5 276.7 276.3 278.3 281 283.8 284.6 282.4 281.4 282.4 283.4 283.3 282.5 280.7 278.8 277.4 275.9 275.8 275.6 275.9 276.2 276.8 278 279.4 281.5 283.7 285.9 288.1 290.3 291.2 291.6 292.6 293.5 294.3 295.2 295.8 296.5 296.5 296.2 295.9 296.1 296.4 296.6 296.8 297 297.3 297.5 297.8 298.1 298.5 298.8 299.1 299.4 299.5 299.4 299.1 298.3 297.6
421.4 412.1 407.7 405.2 401.5 398.9 395.7 391 385.9 377.7 384.1 393.6 403.6 411.6 423.5 434.9 444.1 452 460.5 467.1 472.4 477.7 479.7 478.9 474 465.5 448 434.5 424 415.5 407.2 399.9 394 387.1 392.7 397.1 402.8 407.2 409.3 409.3 407.5 404.2 399.7 395.8 392.8 387.9 383.1 377.3 371 365.1 358.8 351.6 344.9 335.5 326.2 316.9 313.4 310.9 308.2 297.4 289.9 288.3 313.6 335.3 336.2 337.9 340.1 348 348.2 347.8 340.8 337 333.4 328.6 326.3 323.1 322.2 327.3 334.4 338.8 340.4 341.9 341.5 330.8 305.4 306.6 324 331.3 338.6 345.6 349.1 351.1 354.1 352.4 348 344.8 339.6 334 326.9 322.6 318.1 315.9 315 314.5 314.8 314.5 314 313.5 312.7 311.2 310 307.5 305.7 304 302.1 299.9 297.7 295.1 293.5 291.9 290.6 288 285.2 282.3 279.3 276.6 273.2 270.2 267.7 266.9 265.7 265 264.6 265.1 265.3 265.8 268.2 272.9 274.1 273.1 271.2 269.4 268.9 274.3 275 277.1 280.7 283.6 285.2 283.2 281.6 282.3 282.7 282.4 281.4 279.6 278.2 276.7 275.8 275.9 275.9 276 276.3 277.6 278.8 280.6 282.7 284.7 286.5 288.8 291.3 292.8 293 293.4 294.2 295 295.8 296.5 296.8 296.7 296.6 296.8 297.2 297.3 297.3 297.3 297.4 297.7 297.9 298.2 298.5 298.9 299.2 299.6 300 300 299.7 299.3 298.4 297.6
424.9 415.2 408.4 406.8 403.6 400 396.7 392.3 386.3 375.9 382.5 392.4 400 407.8 415.6 424.8 434.6 443.2 453 461.2 468.2 474 475.6 473.8 469.8 458.9 442.3 430.7 422.4 415 406.3 399.6 392.4 397.5 403.6 410 416.6 419.7 419.1 416.1 412.7 408.4 403.1 398.6 393.8 388.4 383.5 376.6 369.6 364.7 358.8 351.3 342.9 335.6 328.7 317.7 315.7 314 310.7 307.2 292.5 287.4 304.4 318.4 320.6 323.9 332.8 339.7 341.5 337.6 332.8 329 325.7 320.8 319.3 316.8 321 329.5 334.9 337.6 338.9 332.9 328.6 307.8 305.4 320.3 329.3 335.4 343 348.8 350.9 354.3 353.9 350.9 346.8 342.3 336.7 330.4 325.3 320.9 317.5 316.5 315.4 315 315.1 314.5 314 313.4 311.9 310.2 308.9 307.2 304.9 303.1 301.3 299.2 297.4 294.6 293 291.4 289.3 286.8 283.7 280.9 278.4 275.9 273 270.1 267.4 266.7 265.6 265.4 265.7 267.9 265.9 265.5 265.7 268 270.9 270.3 268.7 267.3 266.7 269.3 274.1 276.6 280.6 283 285.1 283.5 281.8 282 281.8 281.3 280.1 278.4 277.2 276.5 275.7 275.9 276 276.3 276.8 278.1 279.9 281.9 283.6 285 286.6 288.8 291.9 293.7 294.5 294.4 294.6 295.4 296.3 296.8 297 297 297.2 297.8 298.1 298 298 297.9 298 298.1 298.2 298.6 298.9 299.3 299.7 300.1 300.5 300.5 300.2 299.5 298.3 296.7
425 416.2 410.1 406.5 404 400.5 396.6 391.5 382.8 375.6 388.7 394.9 398.7 404.6 411.3 416.9 425.6 436.2 446.1 454.6 462.3 468.9 470.2 469.1 466.4 453.5 440.1 429.4 422.9 416.7 408.4 398.3 402.5 407.8 415.8 421.8 425.1 425.1 421.6 415.9 410.4 407.1 400.7 394.6 390.2 386 380.4 374 369.3 364.4 358 349.9 342.1 334.8 328.9 318.9 318.2 313.8 310.7 308.1 306.5 290.4 290.6 299 301.5 305.9 318.1 325.4 326.7 326.2 324.8 319.6 316.4 313.4 311.9 317.9 324.3 330.2 336.2 336.8 330.3 327 308.6 304.1 317.1 324.9 332 340.1 344.9 347.9 351.4 354.2 353.7 350.6 345.5 339.4 333.3 327.8 323.4 320.5 318.7 316.2 315.2 315.1 315.1 314.5 313.5 312.6 310.9 309.3 307.9 306 303.9 301.9 299.7 298.4 295.9 293.9 292.2 290.6 288.2 285.3 282.3 279.6 276.8 274.9 272.1 269.7 267.8 266.1 265.5 266.2 267.6 270.4 268.6 266.2 265.9 266 266.7 267.4 266.9 265.8 265.1 269.1 272.9 275.5 281.3 283.4 284.9 283.8 282 281.7 280.7 279.7 278.6 277.7 276.8 276 275.7 275.6 276.1 276.7 277.3 278.4 280.6 282.1 283.1 284.3 286.4 289.3 292.4 295.3 296.2 295.9 295.5 295.9 296.9 297.2 297.3 297.9 298.6 299 299 298.7 298.7 298.4 298.3 298.3 298.5 299 299.4 299.7 300.1 300.5 300.8 300.6 299.9 299 297.3 295.6
423.7 415.4 411.1 407.2 402.3 398.7 395 389.8 375.5 377.3 390.8 397.7 400.2 403.1 407.5 412.6 418.3 428.9 439.2 448.1 456.4 463 464 462.9 456.2 447.1 437.6 429 423 418.1 412.5 405.7 411.1 418 425.6 428 426.9 424 419.4 413.4 407.8 403.5 397.3 391.7 387.9 383 377.3 372.2 367.1 360.9 354.2 348 341.7 334.9 326.6 320.1 318.9 314.4 310.6 307 303.3 292.7 287.7 293.3 286.7 286.7 293.2 307.3 311.3 314.3 311.6 310.3 309.3 307.8 308.6 316.4 323.1 330.2 333.3 327.4 323.6 312.2 300.6 311.7 321.4 327.9 334.7 339.8 343.9 345.9 347.8 354 353.3 347.9 341.9 336.6 331.2 326.4 323.6 321.1 317.3 315.5 315.2 315.1 314.4 313.5 312.3 311.1 309.7 308.3 306.4 305 302.7 300.2 298.4 297.1 293.9 292.5 291 289.3 286.4 283 281 278.5 276.8 274.5 271.3 269.9 267.8 266.7 266.7 267.4 270.5 272.3 271.7 266.2 264.8 265.5 264.8 264.9 265.2 264.4 264.1 267.4 268.7 275.5 280.8 283.6 284.3 283.9 282.4 280.9 279.6 278.8 277.9 276.6 276 275.5 275.2 274.9 275.7 276.6 276.9 277.8 279.6 281.2 282 283.6 285.9 289.1 293.1 296.9 297.8 297.2 296.6 296.6 297.4 297.5 297.7 298.2 300 300.5 300.1 299.3 299.1 298.9 298.4 298.3 298.4 298.9 299.5 300.1 300.4 300.4 300.3 299.8 299.1 298 296 294.4
421 414.9 411.2 406.8 401.5 397.7 393.4 385.2 375.1 376.8 389 396.9 398.6 400.4 403.5 407.6 412.3 420.9 431 440.7 449.1 455.7 454.8 447.7 443.8 438.5 432.5 427.7 424 419.9 416.4 414.3 419.2 424.4 427.3 426.2 423.4 419 414.2 407.9 403.4 399.1 393.6 388.3 382.7 378.2 372.6 366.5 360.5 355.3 350.9 344.9 339.9 331.4 321.8 323.2 319.2 312.7 308.1 303.5 296.3 291.2 285.5 291.4 287 283.4 283 286 293.2 297.2 299.5 301.1 298.2 302.5 306.9 315.5 322.5 329.7 322.2 318.1 308.9 299.5 305.7 317.6 323.4 328.9 334.4 339.1 342.6 344.3 346.5 351.1 349.5 343.2 339.1 334.8 329.5 327.1 323.6 319.2 316.2 315.4 315 314.1 313.3 311.8 311 309.7 308.3 306.9 305 302.8 301.1 299.2 296.6 295.2 293.6 291 289.1 286.6 283.3 281.2 279.3 277.3 275 272.2 270.2 269.2 267.5 266.8 267 269.2 271.6 272.6 272 267.3 264.9 264.3 264.2 262.8 263.5 262.6 263.8 269.6 270.1 276 280.6 282.7 283.6 283.1 281.3 279.9 279.5 279 278.3 276.6 275.9 275.8 275.6 274.6 273.7 273.1 274.8 276.4 278 279.4 281 283.1 285.7 289.7 294.6 297.9 298.4 297.9 297.3 297.7 297.7 297.9 298 298.6 300.1 301.4 302.3 300.5 299.6 298.9 298.3 298.2 298.3 298.9 299.4 300 300 299.9 299.9 299 298.2 296.8 294.7 293.5
422.3 415.8 411 406.5 401 396.3 393.9 387.5 376.3 370.6 381.6 389.1 392 396 399.1 403 406.4 413 422.2 430.7 438 437.8 436.9 433.2 431 429.1 427 425.8 423.9 420.9 416.1 421.1 421.9 420.6 421.8 422.1 417.2 412.6 408.3 404.4 399.7 394.9 388.7 383 377 370.5 365 359.5 354 348.8 346.4 343.1 336.3 329.7 322.8 322 316.7 308.5 304.1 300.4 299.4 303 287 284.9 285.1 283.9 286.9 285.2 280.4 281.7 285.4 289.8 290.6 298.6 304.9 312.4 316.4 315.8 312.6 305.8 297.2 301.9 309.5 317.1 322.9 328.8 335.3 340.3 343.6 345.3 346.5 346.6 344.3 341.1 337.2 333.3 330.4 326 320.5 316.7 315.8 315.3 313.9 312.9 311.8 310.3 309.4 307.7 306.5 305.2 302.5 300.9 299.5 297.6 295.1 293.7 291.4 287.3 285.3 283.7 282 279.9 278.2 276.3 273.3 270.7 269 267.4 266.3 267.4 268.9 270.5 272.5 272.5 270.9 267.4 264.8 263 262.4 261.4 261.9 260.6 263.3 267.6 271.7 275.7 279 281.4 282.2 281.5 280.1 279.8 279.7 279.1 278.6 277 276.2 276.5 276.8 277.9 276.6 273.8 270.8 272.7 275.4 278.4 280.8 283.1 286.1 290.6 295.1 297.9 298.4 298.3 298.3 298.6 298.8 298.6 298.1 298.1 298.5 298.7 299.1 298.5 297.6 297.3 297.5 297.9 297.9 298.3 298.7 299 298.9 299.8 299.6 299.7 299.2 296.2 294.5 292.6
421.5 416.2 410.9 406.3 400.9 395.8 393.1 389.4 380.4 369.8 368.5 378.3 385.7 390 394.5 397.8 400.8 403.9 411.3 416.8 420.2 421.6 421.9 420.4 421.2 419.1 419.8 421.1 420.5 418.3 421.7 424.9 424.2 419.6 414.3 413.9 409.7 407.4 403.9 399.3 393.1 388.5 383.1 377 369.9 361.4 355.2 351.5 345.6 344 340.2 333.8 329.1 324.1 319 317.1 316.6 313.1 311.4 310.2 307.1 306.4 289.2 285.2 285.9 294.8 300.3 300.3 293.2 282.9 279.4 280.3 280.3 291.4 300.3 308.6 309.3 307 301.6 296.9 296.7 303.5 310.4 318.1 323.7 331.2 337.7 342.1 344.3 345.6 346.2 345.1 342.7 338.9 335.2 332.7 327.5 322.5 318.1 316.2 315.7 313.7 312.4 311.3 310.2 308.9 307.5 305.2 303.9 302 300.1 298.7 297.3 295.3 293.3 290.9 288.6 286.1 284.8 283.4 280.7 279.3 277.5 274.4 271.5 269.4 268.8 267.8 268 269.6 270.8 272.1 272.9 271.2 268.4 265.5 263.6 262.2 258.8 260.3 259.7 260.9 263.9 264.1 271.9 275 277.4 278.9 279.9 279.7 279.8 279.9 279.8 279.3 278.4 277.7 277.3 277.5 278.1 279.2 277.4 275.3 272.7 271.3 274.2 277.6 281.1 283.1 285.9 290.2 294.4 297.1 297.7 297.2 297.8 298.3 299 298.8 297.8 296.3 295.5 295.3 294.6 295.1 295.1 295.1 295.3 295.2 295.4 296.3 296.9 297.3 298.8 300.1 299.8 300.7 299.8 296.9 294.2 291.4
420.8 415.5 410.4 405.1 400 395.4 392.6 389.9 386.7 380.5 366.7 368.6 378.2 385.9 390.2 391.9 393.7 395.4 399 402.3 406 408 409 407 410 409.7 412.9 416.9 417.9 422.2 426 426.1 422.7 415.5 409.2 407.1 403.3 398.1 397.3 391.8 385.5 382.4 378.6 370.3 361.8 355.7 350.2 345.4 345.5 339.9 339.5 332.2 327.8 325 323.2 321.1 316.6 316.2 312.9 310.7 310 309.6 308.8 302.9 304.6 305.2 304.8 304.9 304.2 293.7 280.4 277.7 278.7 277.1 294.3 301.2 300.5 299 296.8 293.3 296.1 301.9 311.3 317.1 324 331.9 337.5 339.8 342.5 344.5 344 342.3 339.4 335.6 332.8 329.3 323.8 319.3 316.5 315.6 314.4 312.2 310.3 309.7 308.2 306.8 305.1 303 301.3 299.9 298.4 296.6 295.1 293.3 288.7 287.6 286.4 283.8 281.4 281 279 277 275.5 272.2 270.2 269.3 269.2 269.7 270.4 271.6 272.3 272.8 271.6 269.2 266 263.4 261.1 258.9 257.9 256.2 257.7 261.4 265.2 269.5 269.8 273.8 275.6 277.7 278.5 279.4 279.8 279.9 279.8 279.4 278.9 278.5 278.2 278.7 279.8 279 276.4 275.1 272.6 270.3 271 277 281.3 283 285.5 289.3 293.4 295.8 296.1 295.8 296.4 297.3 298.1 297.9 296.3 294.6 293.9 293.3 292.7 293 293.2 293.3 293.1 292.4 292.1 293 294.2 295.2 296.7 303.1 301 298.9 294.9 295 293.3 290.5
418.1 414 408.1 402.9 398.1 393.6 390.9 389.4 387.4 381.7 369.6 364.6 376.7 385.5 386.4 387.1 387.9 389.6 391.4 392.4 395.7 397.2 398.2 398.3 400.1 400.9 406.7 412 418.1 424.8 427.2 426.2 421.8 415.2 407.7 399.8 395.7 392.3 391.6 386.3 378.9 374.4 370.1 363.9 357.2 353.8 350.7 350.7 348.3 345.7 342.1 335.5 329.7 324.6 322 321.3 319.3 316.4 314.5 312.8 312.9 312.1 311.2 310 308.6 306.8 305.8 306.6 306.6 302.4 286 275.1 277.8 276.6 286 289.2 290.1 290.3 290.4 289.9 295.6 300.3 308.9 315.5 323.1 329.8 333.4 334.4 337.1 338.1 338.8 336.2 332.9 331 328 324.2 319.3 316.3 314.7 313.9 311.9 309.9 307.9 306.6 305.8 304.4 302.9 300.9 299.5 298.7 297.1 295 292.6 290.4 284.5 286.1 282.8 280.5 280.5 277.3 276.4 275.8 272.8 271.5 270.6 269.7 271.1 271.3 272.7 272.7 272.7 271.6 269.6 266.9 263.8 261.6 258.6 256.7 255.6 255.3 257.5 261.8 264.4 267.6 270 272.7 275.5 277.5 277.4 279.3 279.7 279.7 279.5 279 278.5 278.2 278.9 279.7 279.4 277.3 274.8 274 272.9 270.9 268.3 275.7 280.8 283.2 285.1 288.1 290.5 292.1 292.6 293.1 294.6 295.8 296.4 295.8 294.6 293.1 292.3 291.7 291.7 291.9 291.8 291.6 290.9 289.8 288.8 289.8 290.5 291.2 293 299.9 298.4 297.1 292.1 292.9 293.3 292.7
416 410.7 404.9 400.4 395 390.5 388.6 386.7 383.7 379.2 372.5 362.3 375.8 383.9 384.6 384 383.5 384.6 385.5 386.7 386.3 389.1 390.6 391.5 392.2 395 400.8 407.9 417.5 425.5 430.8 427.2 421.9 416.4 408 399.4 393 387.7 384.2 379.4 372.6 368.9 363 359 358.3 358.8 358.9 356 352.2 347.5 344.1 339.7 332.1 327.7 327 324.1 321.7 319.9 320.7 318.2 316.3 315 313.8 311.9 309.7 307 307 309.3 308.5 306.7 303.3 296.4 282.3 276.5 275.9 279 277.3 276.1 277.9 281.4 292.4 297.3 303.6 311.7 319.9 323.5 324.7 325.9 328.6 329.1 328.8 326.8 325.2 323.7 321.3 318.7 316.5 313.9 312.4 310.8 308 306.3 304.5 304 303.2 301.5 300.3 299 297 296.7 293.3 290.4 288.2 289.9 288.1 286.6 285.3 283.1 281.6 279.9 277.5 275.2 274.4 272.4 271.4 271.3 272.7 273.8 274.1 272.9 271.6 269.5 267.2 264.6 262.3 260.4 257.7 255.9 254.3 255.5 258.3 261.9 263.8 267.7 270.4 272.9 276 277.5 276.6 279.3 279.3 279.2 279 278.5 278.1 278.6 279.5 279.8 278.1 275.5 273.7 272.7 272.9 271.2 267.6 274.4 278.7 281.5 283.4 284.9 286.7 288 289.1 290.8 292.8 294.1 294.6 293.9 292.7 291.8 291.3 290.7 290.7 290.9 290.7 289.6 288.7 287.7 287.2 287 287.5 288 287.9 289 292.2 296.5 292.1 289.4 288.9 288.3
