ncols 200
nrows 82
xllcorner 220000
yllcorner 812000
cellsize 50
463.6 458.9 454.5 450.3 447.2 445.1 441.9 439.3 438.1 435.7 432.7 430.1 432.4 432.2 432.9 434.1 433.7 439.1 444.2 447.5 444.3 443.7 444.7 441.8 438.8 436.1 439.2 439.2 436.7 437.5 438 438.5 438.1 436.9 435.7 434.7 433.5 431.6 429.5 425.9 419.8 417.4 413.6 408.3 407.2 407 407.3 409.7 412.1 411.2 415.8 420.6 424 430.2 434.4 437.4 440.6 449.6 449.3 449.2 448.3 451.5 452.1 454.7 454.4 453.7 455.7 452.5 450.1 449.2 447.6 444.8 445 444.2 440.7 437.4 435.4 434.4 434.4 434.2 433.3 431 429.2 428.8 428.6 428.1 428 427.7 428.3 427.8 429.1 432 432.5 437.7 441 446.6 457.7 470.5 479.7 490.4 493.4 487.8 484.2 479.4 470.7 463.2 454.5 444.5 433.5 425.5 417.6 408.7 400.4 392.5 384.8 379.5 370.8 374.9 374 382.7 392.7 396.4 399.1 402 403.4 400.9 401.8 403 398.6 396.8 401.3 396.4 397 396.1 398.5 400.8 400.6 397.9 392.3 387.4 383 378.8 375.7 373.7 366.5 361.7 357.9 356 354.3 351.3 343.8 339 335.1 332.8 331.1 332.3 334.7 343.8 350.8 348.7 347.9 345.4 342.3 347 346.3 344.7 341.4 337.4 337.2 339.3 342.2 343.8 345.8 346.9 347.2 347.9 348.1 354.1 353.6 352.9 351.6 353.9 351.3 349.9 351.9 353 350.2 349.2 347.3 348.9 350.1 350.1 347.9 341.8 337.3 337.5 339.2 337 335.6 336.1
461.9 456.8 449.1 445 443.5 440.6 440.1 436.4 435 433.1 431.7 428.6 430.2 429.8 429.7 428.4 429.5 434.5 437.7 439.5 440.5 439.3 439.4 436.5 435 432.6 433.4 433.8 434.2 434.4 435.9 435.2 434.8 433.9 432.8 431.9 430.4 428.8 426.8 424.1 419.2 416.4 413 409 407.4 403.8 404.2 408.9 411.3 408.8 411.2 413.8 417.3 422.9 431.4 435 436.9 439.8 443.4 443 442.4 443.4 443.5 443.6 442.6 441.6 442.4 442.8 441.1 441.2 442.2 440.6 439 437.8 436.8 436.2 435.9 434.6 434.7 434.1 432.6 429.5 429 428.4 428 427.8 427.8 428.1 430.9 431.8 437 442.1 447.3 452 463.5 465.1 466.8 474.7 483.9 495.6 495.1 490.2 487 477 467.8 459 449.7 437.8 428.3 422 415.3 405.3 398.3 390.9 380.5 377.2 372.7 355.1 364.4 383 389.3 391.5 394.2 397.3 401.4 395.5 394.8 393.4 390.3 387.2 387.5 390.3 389.9 387.4 390.3 394 389.6 388.6 386.3 385.3 379.7 373.2 369.4 368.2 364.1 359.5 357.8 354 349.6 343.9 339.3 337.3 333.6 330.8 329.7 329.3 329.3 331.6 334.9 337.9 337.9 336.6 338.4 345 343.7 339.6 336.7 333.1 329.9 330.2 334.9 336.8 338.4 339.4 339.8 341.8 348.3 345 343.9 345.5 346.5 346.9 344.4 345.3 345.2 343.5 343.8 341.8 341.6 338.4 342 343 340.5 335.3 330.9 331.4 333.5 334.2 332.2 330.6
460.1 452.1 445 441.9 441.2 438.6 437 434.1 432.8 432 429.8 427.6 428.9 428.9 425.3 424.4 427.5 430.2 432.8 434.3 437 434.6 432.8 432.9 431.8 430.7 430.9 431.1 431.8 432.8 432.5 432 430.9 429.9 429 427.6 425.9 425.2 423.3 420.5 417.4 415.1 410.2 406.7 405.5 403.5 401.7 405.8 402.6 407.2 413.3 412.5 413 416.9 423.5 429 431.2 433.4 438.8 438.5 439.6 440.1 439.9 440.3 439.8 439.1 439.1 440.1 439.3 437 436.1 435.1 434.3 433.6 433.2 432.3 433 432.6 432.1 431.1 430.8 428.5 428.1 427.9 427.9 429.3 431.4 431.7 436.1 442 449.3 453.6 459 464.6 479.3 486.1 486.9 480.8 484.3 488.5 488.8 483.8 476.3 468.9 459.1 451.2 442.7 432.6 424.7 418.6 411.3 402.7 393.1 385.2 378.5 372.5 368.7 358.7 359.1 380.5 384.2 387.2 391.2 394.6 392.9 391.5 388.5 386.2 385.1 382.1 382.5 383 378.8 380.5 379.6 383.6 382.8 381 379.1 373.5 367.1 363.9 360.5 359.4 358 353.5 353.8 348.4 343.8 339.7 336.8 333.8 330.8 329.3 328.2 327.7 328 328.6 328.7 329.7 334.5 332.4 331.9 333.9 338.8 335.1 333 330.3 328.7 324.8 330.2 333.2 332.8 333.4 334.3 337.2 338.4 337.1 345.8 340.4 342.4 342.8 341.8 342.2 340.2 339.9 338.8 339.6 338.1 335.8 335.1 336.1 332.6 330.1 328.9 328.2 327.9 329.5 328.3 328
455 447.6 442.3 439.6 438.3 436.8 432.7 432.1 431.4 430.9 429 427.1 427.1 428 424.9 423 425 427.4 429.4 431.6 433.6 429.4 429.4 429.5 429.5 428.7 428.3 428.3 429.3 430.2 429.4 428.5 426.8 425.7 424.9 423.2 421.5 421.4 418.9 417.3 415.6 411.9 406.6 402.2 400.5 398.2 400.8 399 404.3 405.9 411.6 414.6 415 417.9 418.8 422.9 427.8 431.4 433.8 434.8 436.3 436.6 437.5 439.3 441.3 442.9 444.8 445 444.2 444.1 436.9 437.1 437.1 436.5 434.8 433 431.5 430.3 429.6 429.1 428.4 428.1 428 430.1 429.8 434 436 439.8 448.4 458.3 467.5 471.2 468.9 482.6 495.1 499.4 502.6 502.4 495 491.3 482.5 474.7 467.8 461.3 453.5 445.2 437.6 430.4 423.8 414.4 405.5 396.5 389.8 382.5 377.7 371 364.5 360 355 372.6 378 383.2 388.3 392.5 391 388.6 388.5 388.5 382.9 378.2 377 375.8 375.6 373.3 371.9 372.2 374.5 371.9 370.1 366.9 363.3 359.9 356.2 350.4 347.8 348.2 345.7 342 339.6 336.8 333.5 331.1 329.1 328.3 327.2 326.4 326.5 326.9 327.1 328.3 330.2 330 327.8 328.8 330.1 331.7 331.3 331 330.3 327.4 322.8 326.5 326.3 327.2 329 331.1 332.6 334 339.9 340.6 338.1 340.2 340.9 340 338.2 336.9 336.1 334.6 334 333.2 332 331.4 330.4 330.6 331.1 330.6 329.8 328.4 327.1 325.9
449.2 444.3 440.6 437.5 435 432.7 430.6 430.4 430.3 429.9 428.7 426.2 424.7 424.9 424.8 422.6 423.6 424.6 427.8 426.5 425.7 424.4 426.4 425.9 426.7 425.9 425.3 425.5 426.1 426.4 424.7 422.6 421.7 420.5 419.9 418.2 415.6 414.9 412.9 412.6 411.8 406.4 401.3 399.8 398.1 397.3 399.8 399.5 401.6 406.3 408.6 411.8 414 419 421.8 423.3 427.3 428.5 429.4 431.8 434.3 436.4 438.4 439.5 441.1 441.6 440 437.8 437.4 436.5 435.8 435.4 435.8 434.8 434.6 434.9 434.8 432.3 430.9 429.8 429.1 429 432.2 434.5 436.1 437.4 438.8 450.3 457.9 471.4 477.5 480.8 483.2 489.8 497.9 500.6 502.8 497.8 486.6 479.9 473.2 467 462.2 457 448.8 440.1 435.1 430.4 420.3 408.5 400.9 392.6 385.3 378 374.5 373.2 363.8 354.8 351.8 364.8 370.8 378.2 385.1 390.1 387.3 386.7 391 388 381.7 373.5 369.6 367.6 367.1 366.3 364.2 364.8 366.6 363.7 360.9 357.9 354.4 351.9 349.2 345.2 344 344 340.7 338.2 335.8 333.4 330.9 328.6 326.6 326.3 325.4 325.4 326 325.7 325.6 326.4 326.5 326.5 326.4 327.5 329.9 334.1 334.4 334.4 331 327.6 323.5 318.1 323.1 320.8 321.6 324.4 326.9 330.7 332.1 334.4 334.2 335.8 337.7 337.8 335.2 334.7 335.9 334.2 333.2 332.1 331.3 331.9 332.5 332.2 331.7 330.7 329.8 329.2 328.7 327.2
447 443.7 439.7 435.8 432.3 430.9 429.5 428.8 429.3 428.8 428.2 426.1 425 423 423 422.1 421.8 422.5 424.5 423.5 422.2 421.4 422.5 421.6 421.8 422.2 422.2 422.1 421.5 420.3 417.8 416.2 415.9 415.2 413.6 411.2 409.3 408 406.7 405.7 402.5 400.5 398.5 398 396.9 399 403.5 402.9 406 409.9 412.3 414.5 416.3 419.7 422.9 426.4 429.2 429.4 432 433.4 435.6 437.9 441.1 441.8 440.6 440.4 439.7 438.3 437.4 437.5 437.9 439.4 440.8 441 439.2 438.7 437.5 437.3 436.2 434.2 431.5 430.9 433.9 437.9 437.6 441.3 457.3 467.8 474.7 485.2 488.4 491.7 491.7 496 493.5 495 497.8 486.9 475.6 469.7 464.6 461.4 457.2 451.1 441.2 433.9 431.8 424.4 413.4 404.3 397.1 391.4 383.4 376.1 369.9 366 360 353.3 350.1 362.6 367.5 374.4 381.6 382.5 379.8 384.4 386.4 381.3 374.5 369.3 366.7 365.1 361 357.5 356.4 356.5 356.7 357.7 352.8 350.3 351 347.8 345.6 342.2 340.9 339.5 337.1 334.6 332.6 330.8 328.1 325.8 324.7 324.9 324.4 324.3 324.9 324.6 324.3 324.5 324.8 325.7 326.3 328.9 335 339.9 338.2 335.5 331.9 327.8 322.5 317.1 316.3 316.9 318.1 320.8 321 326.4 330 331 332.4 333.2 334.6 334.4 332.7 333.5 333.5 335.3 334.4 333.7 332.9 332.3 332.3 332.2 331.9 331.2 330.4 329.8 329 328.3
444.8 441.3 438.9 433.6 430.9 429.4 428.3 427.7 428.4 428 427.5 426.4 425.1 423.7 421.9 421.1 422.5 421.8 420.9 421.2 419.7 419.5 420.7 418.8 417.9 418.4 418 417.1 415.7 413.3 411 410.2 409.1 407.2 405.5 404.8 402.3 400.1 397.7 398 395.3 397 395.7 397 397.6 399 402.1 406.1 409.2 412.7 415.4 418.3 419.9 421.9 422.6 426.2 431.2 431.2 434.6 434.2 434.2 438.3 440.3 442.2 441.5 441.7 441.7 440.6 440 442.3 443.5 445.3 446.7 446.3 445.4 442.4 441.4 441 441.3 440 439.3 439.4 439 440.7 443.2 454.3 464.8 476.8 480.5 489.3 493.1 491.5 491.7 490.7 488.5 486.9 485 477.5 470.5 465 458.4 453 449.8 443.8 436.9 432.3 429 419.3 410.9 402 394.9 387.6 380.1 374.2 366.5 362.2 354.2 350.8 346.6 359.5 364 367.2 370.4 373.9 370.8 371.3 373.1 370.7 365.8 360.8 358.5 359.4 354.8 352.3 350.8 352 351.3 348.7 346.7 345.6 344.2 343 342.6 339.9 338.2 336.6 334.2 331.7 329.5 328.2 325.1 323.5 323.6 323.9 323.2 323.3 324.1 325.4 323.8 323.2 323.4 324.8 326.8 330.4 337.4 347.4 342.1 337.8 333.2 327.8 322.2 317.1 314.1 315.1 315.8 318.4 319.4 320.3 324.6 328 329.6 330 330.3 330.5 330 330.3 330.8 332.2 334.4 333.9 333.8 333.3 332.3 332.1 331.5 331.4 331 330.2 329.1 328.6
441.3 438.2 435.2 431.8 429.1 427.5 428 426.6 427.4 427.4 427.2 425.4 424.6 423.6 422.5 421 418.4 419.3 418.5 417.5 416.5 416.9 417.9 415.8 414.4 413.7 411.9 410.3 408.8 407.7 405.8 405.8 404.7 402.3 400.6 399.3 397.9 394.6 396.3 397.1 397 397.6 398 399 401.5 403.3 405.9 409.6 412.6 415 418.2 423.1 424.5 424.5 423.8 424.8 428.2 431.2 434.6 434.2 434.2 438.9 441.8 443.8 443.4 442.8 442.8 442.6 442.6 444.4 446.7 450.5 451.6 451.4 450 447.9 446.6 446.5 448.8 447.5 451 450 446.6 447.2 448.9 458.1 466.7 475.8 480.2 488.7 489.9 487.4 486.7 486.6 483.5 478.8 476.6 471.6 466.4 462.2 455.5 450.5 446.2 440.5 433.5 428.5 422.5 414.4 405.9 400.5 393.3 385.3 379.6 371.1 362.7 356.7 351.1 348.2 346.6 348.7 358.9 356.9 357.9 362.1 358.2 358.4 360.6 359.6 356.3 352.3 349.9 349.8 348.6 347.3 345.6 346.2 347.4 344.3 344.7 342.8 340.9 339.3 339.7 336.8 336 335.1 332 328.9 326.2 325.3 323.9 322.5 322.3 322.3 321.8 322.4 323.9 325 323.2 322.4 322.7 325.3 327.9 333.9 349 348.6 344.8 340.7 332.5 326.3 319.7 317.1 313.7 313.4 313.8 315.1 316.7 318.3 320.3 325.4 328 328.4 328.1 329.1 328.8 328.4 330.1 331.5 332.1 333.2 334.2 334.2 335.1 334.5 333.6 333.3 331 330.9 330 329.5
438.5 435.4 432.7 430.3 427.6 425 424.8 425.4 426.3 426.1 426.2 425.2 423.9 422.8 422.1 421.1 419.6 417.8 414 414.8 414 412.2 413.3 411.1 409.6 408.4 406.3 404.3 403.1 403.7 402.9 402.1 400.2 399.7 398.6 397.5 397 397.3 397.9 398.3 397.5 396.6 397.8 400.7 404.2 406.9 409.6 412.3 414.3 417 421.4 425 427.6 427.6 427.7 427.3 427.4 429.4 433 435.3 437.2 440.1 445.5 444.6 443.7 442.8 443.4 444.6 446.5 448.5 450.7 452.1 453.3 454.3 453.6 451.3 449.5 449 450.4 454.5 455.3 451.3 450.8 449.8 452.6 456.8 466.5 473.8 479.1 480.2 480.3 480.3 480.7 479.7 478.3 470.1 468.8 465.2 460.9 456.8 454.9 451.4 444.8 436.6 429.4 423.4 417.1 410.4 406.2 398.3 391.1 384.5 375.6 368.8 364.1 360.8 354.3 346.9 346.4 340 352.7 353.7 352.8 352.7 352.2 351.7 352.7 351.4 348.8 347.9 346.5 345.4 343.3 342.7 341.3 341.1 343.6 342.3 341 340.6 338.4 341 335.6 333.6 332.3 332 330.5 326.1 324.1 322.5 323.3 321 320.8 321.3 320.8 323.2 323.4 325.4 322.8 321.6 322.2 324.3 328.2 335.3 355 353 345.8 339.4 330.4 323.4 318.6 316.1 313.7 311.6 311.7 311.5 314.2 316.5 319.2 323.3 327.1 326.8 325.2 327.2 328.7 330.6 332.2 332.9 335.8 341.1 343.5 344.4 342.6 340.7 336.9 332 330.8 330.4 329.5 328.9
436.3 434.1 430.6 427.9 425.9 423.7 422.9 423 424.5 424.8 424.7 424.1 423.1 422.3 420.6 418.8 416.8 414.9 411.6 411.6 409.3 407.7 406.9 405.4 404.9 403.7 403.3 401.4 400.6 401.1 401.9 401.5 399.5 397.6 397.3 397 397.8 399.3 401.3 400.8 398.8 396 399.3 403.1 406.9 409.2 411.5 413.8 416.2 418.2 421.5 426.3 429.3 430.3 430 430.1 430.9 431 430.9 433.8 437.5 440.2 444.5 443.4 443.8 445.3 446.8 448.2 449.2 450.7 451.5 452.9 454.9 455.6 454.8 452.4 451 451.8 452.7 452.9 452 449 446.3 449 453 455.2 464.7 470.8 474.4 471.8 473.4 476.9 476.8 471.6 468.9 466.9 464.2 458.5 453.5 450.6 450.7 448.3 441.8 433 425.9 422.3 416 410.4 402.4 396.5 389.7 382.1 377.7 371.1 364.3 357.9 348.7 345.3 345.4 332 345.2 348.6 352 351.9 350.2 346.7 345.3 345.2 345 344.5 343 340.5 339.2 338.3 338.2 337 341.1 339.5 338.4 337.9 337.5 336.5 334.2 330.5 329.2 327.7 324.8 323.9 321.6 320.3 320.9 322.6 324.9 325 325 324 323.8 324.4 322.3 321.3 321.1 322.6 328 338.2 356.7 353.1 342 333.2 327.1 320.3 316.8 314.4 311.6 311 310.4 311.8 313.2 315 316.4 318.3 322.1 330.1 334.3 339 339.4 336.9 337.6 339.1 341.6 347.3 347.8 345.7 342.3 339.3 336.4 333.4 330.7 332.6 336.1 343.9
434.9 431.5 428.2 426.1 424 422 420.8 420.5 422.8 423.6 423.5 422.7 421.9 420.7 417.6 415.6 414.3 410.8 408 404.4 404.4 404.9 403 402.6 401.9 401.8 401.5 401.3 400.3 398.9 398.8 398.6 397.6 396.7 397.2 398 399.6 402.7 404.3 403.5 401.2 393.9 400.3 403.8 407.8 410.6 413.4 415.6 417.4 419 420.9 425.3 429.2 430.4 432.6 434.1 435.5 433.4 434 434.4 437.7 439 441.4 443.4 444.7 447.5 450.7 451.9 451.2 451.1 452.8 456.8 457.9 457.2 457.8 454.4 452.5 453.3 455.8 455.3 451.6 447.5 444.1 446.8 450.9 454 459.3 465.1 465.9 464.7 469.1 472.8 469.4 466.7 467.5 463.4 459.1 453.2 448.4 446.1 445.7 442.1 437.5 429.5 423.9 420.9 414 406.8 402.1 394.5 390.1 386.4 380.7 374.5 364.9 354.5 345.1 342 343.7 337 329.4 344.1 346.6 349.1 347.7 343.3 341.7 342.8 341.9 341.3 339.3 337.2 336 336.2 335.5 333.5 332.7 336.6 336.2 335.4 334.9 333.7 332.5 329.3 329.9 324.6 323.5 322.8 321.6 318.4 322.3 322.8 323.1 323.3 322.5 322.9 322.6 322.4 321.8 320.4 319.3 319.7 326.1 337.5 348.5 345.5 334.5 326.8 321.1 316.4 312.3 311.1 310.6 310.5 310.5 311 313.4 314.5 320 324.5 332.8 336.6 339.6 343.5 341.7 339.9 340.6 342.5 344.2 344.8 345.1 340.7 339.3 339 337 337 337.4 340.7 346.9 353.6
430.6 427.2 426.1 422.3 421.3 419.8 417.4 419.5 422.5 421.9 420.7 420.2 419.5 416.8 414.7 411.8 407.1 405.6 403.8 402.8 402.9 403.1 402.5 401.2 400.5 400.1 400 400.5 400 398.6 397.5 397.4 396.9 400.5 397.9 399.4 402.9 406 405.6 403.7 402 392.8 398.8 403.5 407.7 410.2 413.3 416.1 418 419.6 421.2 424 426.5 432 435.1 436.7 437.7 436.2 436.8 437.7 439.4 439.7 440.2 443.4 445.3 448.5 451.9 452.9 452.9 452.9 453.8 453.8 456 457.6 457.2 452 449.3 454.5 458.2 455.4 452.1 447.6 441.7 443.4 447.3 449 453.8 456.6 455.2 455.1 458.6 462.4 462.1 461.6 461.3 458 455.7 451.7 446.7 443.2 441.1 438.3 434.1 428.2 419.7 417.1 412 407.6 404.3 400.3 396.5 393.1 386.7 378 366 355.3 346.5 342.8 339.9 330.7 329.1 339.1 341.9 343.5 342.7 339.7 338.5 339.7 338.7 338 337 336.2 334.5 333.6 333 330.8 329.9 330.5 331.4 332.7 334.1 333.2 330.8 327.7 326.3 323.3 320.5 319.6 319.2 318.2 322.1 322 321.5 321.7 321.1 321.7 322.1 322.2 321.5 320.4 318.5 318.5 318.8 326.4 327.7 324.3 320.9 318.5 315.8 312.5 310 309.1 309.1 309.7 309.8 311.1 312.3 316.9 321.8 325.7 333.9 338.2 341.9 344.2 343 343 343.5 343.8 344.5 344.8 343.9 341 339.3 338.6 338.7 340.7 344.1 348.6 355.2 362
425.1 423.7 422.6 420.1 419.9 418.4 416.3 418 419.7 419.6 417.6 416.6 416 412.3 409.3 405.5 404.1 403.1 401.9 401.6 401 401.3 401.4 399.8 399.6 398.7 399.4 399.2 399.2 398.7 398.2 397.7 399.3 399 400.4 402 406.5 407.3 405.5 403 401.1 395.4 395.8 401.9 407.5 410.5 413 415.3 417.9 418.9 421.4 423.6 425.6 432.9 435.7 437.6 438.5 437.8 439.3 442.5 446.2 444.8 444.8 446.6 448.5 451.1 452.4 453.2 452.8 452.7 448.9 452.5 452.7 455.9 455.1 447.9 450 453.5 454 456.5 446.8 439.4 436.1 438.8 442.8 442.7 446.1 449.8 445.8 446.3 450.3 455.4 454.9 456 456.4 456.2 450.7 446.5 444.7 440.5 437.1 433.5 429.9 422.3 418.2 416.4 412.8 410.8 408.2 403.5 400.8 399.2 387.1 373.5 362.9 358.9 349.1 342.6 337.6 327.4 327 337.3 340 341.5 339.4 337 335.8 335.8 335.5 335.3 335.5 334.9 331.8 332.1 332.9 329.6 328.2 327.8 327.8 327.7 327.3 327.3 329.2 326.9 324.1 321.4 319.7 318.5 317.8 317.8 319 319.9 319.7 319.9 320.9 322 323.2 324 322.5 319.8 317.3 317.3 316.5 320.1 317.6 313.7 310.2 310 308.9 308.9 308.4 307.9 307.9 309.1 310.7 311.9 312.4 317.9 323.5 328.5 335 343.2 349.9 352.8 353 353 349.5 346.6 345.4 345.9 347.2 343.7 341.2 339.4 339.9 343.5 347.4 351.7 358.1 363.8
423.1 420.3 419.6 419.3 418 416.8 415 415.6 416.5 415.8 414.6 413.4 407.3 405.6 404.9 403.8 404 405.1 403.3 402.4 401.3 399.9 398.3 398.3 398.5 398.2 399.3 399.6 399.4 398.2 399.3 400 402.8 402.7 405 407.1 409.2 407.9 405.5 402.6 399.8 395.1 392.6 399.6 406 409.2 412.3 414.3 416.7 418.7 421.1 422.3 425.1 431 434.6 438.9 443 444.5 447.6 452.4 454 450.6 451 454.6 457.3 455.4 456 453.5 451 448.9 449 450.3 450.4 449.9 447.1 447 447.2 451.1 451.6 446.5 440.1 431 430.1 433.7 436.3 435.6 438.3 440.1 438.1 440 444.2 446.7 447.9 450.3 451.4 448.4 445.7 444.6 442.7 437.8 435.5 431.7 426.3 420.7 416.8 416.7 415.3 414.3 406.7 402.5 398.4 392 378.6 367.9 360.4 356.2 348.5 342.4 340.5 325.2 326.1 328.8 338.3 338.8 337.6 336.5 335.1 335.1 335 335.3 335.8 334.7 330.2 328.5 327.8 327.7 326.9 326.2 326 325.4 323.3 323.9 325 325.2 323.3 321.1 319.9 317.3 316.6 317.3 314 317.4 318.1 319.5 321.4 324 326.3 325.1 322.5 319.6 316.7 315.6 315 317.8 314.7 311.4 309.1 307.4 307 307.6 308.1 307.5 308.2 310.5 311.7 314.4 318.8 323 329 332.2 337.3 345.9 354 362.1 357.1 349 349.4 350 345.1 345.3 344.6 342.2 341.2 340.2 340.9 345.1 350.4 353.5 359.8 363.2
421.2 418.7 417.9 416.8 415.2 414.1 411.8 411.1 412 410.1 409.6 407.8 405.5 406.1 404.8 404.2 406 404.7 405.6 405.3 403.8 403.4 403.2 402.2 400 398.7 398 398.7 399.1 400.4 402.3 405.3 407.3 408.5 409.8 411 410.4 407.8 405.5 402.5 400.3 395.4 388.7 397.5 403 405.7 409 412.3 414.6 416.3 418.7 422.3 424.9 429.5 436.7 445.3 453.3 452.8 452.1 455.1 456.9 457.4 456.1 460.9 466.9 464.6 459.6 451.7 448.9 452.4 449.7 449.6 449.3 448.3 447.5 447.2 446.8 446.7 445.2 442 432.9 427.1 426.6 427.6 427.5 429.6 431.6 433.2 432.9 434.9 436.9 438.5 439.6 442.3 443.8 445.8 443.2 439.8 439.7 439.3 436.5 431.4 424.5 420.9 417.6 415.9 414.5 412.8 409.1 406 393.7 382.1 371.7 363.5 357.3 350.3 345.8 341 336.9 324.1 324.3 334.5 336 337.5 337 336.2 335.2 334.9 335.2 336.4 335.2 332.1 328 326.3 325.6 325.4 325.3 324.2 322.8 321.7 320.7 321 320.8 321.7 322.5 321.8 319.5 316.5 315 315.3 313.4 314.7 316.3 319.5 322.1 325.4 327.7 324.4 322.4 319.5 314.7 313.8 312.5 313.3 312.8 310.9 309.1 307.7 307.2 307.5 307 307.4 308.8 310.8 314.7 321.1 326.9 328.4 334.9 337.9 338.9 346.5 352 353 352.4 344.5 346.1 347.6 344.9 343 342.1 339.2 339 340.3 343.5 348.4 351.8 354.3 360 364
418.6 416.5 415.9 413.9 413.1 410.4 408.5 407.4 409.2 409.4 408.5 407 406 406.7 406.5 405.7 406 404.8 408.2 407.3 406.8 407.5 406.9 405.8 403.9 401.9 401.7 404.1 403.2 404.9 407.8 411.5 413.9 412.9 413.6 412.8 410.6 407.8 406 403.3 400.8 397.4 387.2 392.3 397.7 401.8 405.5 408.7 411.4 414.2 418 422.3 425.9 431.8 440.9 452.3 459.3 459.8 461.6 463.9 468.3 467.4 463.3 463.4 468.9 468.3 458.9 452.2 451.3 449.9 443.9 447.4 449.7 448.3 450.2 451.6 449.6 446.4 439.5 437.1 428.9 424.2 423.4 417.8 417.5 422.5 425.1 423.5 425.6 428.6 427.5 428.9 432.2 436.4 439 438 436.3 436.8 439.2 441.1 434.4 427 422.9 421.6 421.4 424.5 421.2 412.5 409.1 401 389.2 378.4 368.3 363.3 355.3 347.4 342.6 338.9 336.4 323.1 322.7 331.8 335.4 336.4 335.9 335.5 334.3 334.3 335 334.7 333.4 329.8 325.8 324.4 323.7 323.9 323.9 321.9 321.1 320.8 321.1 319.4 317.8 318.4 320.3 320.7 316.7 313.7 311.9 313.2 312.4 313.9 316 319.9 323.4 322.9 324 323.1 321.4 317.9 314.5 312.5 310.7 312 312.3 310.9 308.8 308.9 307.3 306.1 306.1 307.6 308.7 310.8 317.2 323.4 330.5 333.8 335.8 341.9 346.7 351.7 347.3 347.6 346.6 343.2 345.4 346.9 344.2 341.1 339.8 338.4 339.3 340.7 345.8 351.9 352.9 354.8 361.3 365.3
415.3 414.7 410.3 408.9 408.5 406.8 406.6 407.6 408.5 408.5 407.6 406.8 409.1 408.7 407.7 408.7 410.1 406.6 407.9 409.5 409.9 410.4 410 410.8 409.6 407.7 407.9 408.2 408.9 410.1 412.8 418.3 419.5 417.4 414.9 413.3 411 408.5 406.1 405.8 402.5 398.8 391.3 385.8 391.5 396.9 402.1 404.8 407.4 412.3 417 422.2 428.5 435.7 445.3 454 463.3 469.9 477.5 478 478.6 479 478.2 471.5 468.3 469.6 460.5 451.3 443.9 443.9 443.9 443.9 449.3 454.5 459.1 460.3 453.3 441.3 434.2 428.3 424.9 419.3 413.2 407.7 407.6 412.1 415.8 414.8 414.6 415.3 420 422.8 427.6 431.1 434.6 433.7 433.4 435.4 437.6 433.5 428.6 426.1 424.9 426 428.3 428.1 422.2 416.7 408.6 401 391.5 383 374 367.2 355.7 344.6 338.8 335.2 334.6 319.7 321.2 331.6 334.9 335.9 335.5 334.9 333.2 333.5 333.8 332.9 330.3 325.5 322.9 322.3 322.5 322.2 321.8 321.7 322.4 322.5 323.9 322.3 319.6 317.1 316 318.8 312.7 310.6 309.1 310.1 310.4 309.2 315.2 319.5 321.7 319.7 318.3 319.3 318.7 317.5 315.9 315.7 312.9 309.7 309.4 309.2 307.9 306.8 305.9 305 306.4 308.1 308.1 310.4 316.1 323.5 330.5 334.8 338.5 341.9 345.5 344.1 345.3 345.8 341.1 339.8 342.2 344.4 344.6 341.2 338.9 336.7 336 337.4 342.6 351.3 350.4 356.5 366 370.5
409 409 406.2 405.4 405.2 405 405.7 407.3 408.5 407.7 407 407.5 407.8 409.3 411 411 409.3 407.7 410.1 412.3 413.2 413 412.8 413.1 412.9 413.5 414.3 415.3 413.5 414.8 418.9 423.6 423.8 419.2 415.9 414.1 412.1 410.1 408 406.1 404.3 397.9 393.4 386 388.2 392.5 396.6 401.4 405 411.2 416.6 424 432 440.1 449 456.8 467.2 474.1 481.5 481.8 484.4 486 485.5 475.9 470 470.3 460.6 451.7 443.9 443.9 443.9 445.1 458.4 465.2 466.8 462.6 451.8 438.6 433.8 433.6 424.7 415 404.5 399.4 399.4 402.6 406.8 408.8 406.1 405.5 410.3 418 422.4 426 429.3 430.3 431 432.7 432.6 430 429.5 429.9 431.3 431.1 432.5 430.1 424.6 413.9 405.2 400.8 393.7 384.4 374.3 364.3 351.9 344.2 338.2 334.6 332.9 330.7 322 330.9 334.5 335.7 335.2 333.5 332.7 333 332.1 329.5 326.9 323.7 322.6 321.7 320.9 320.8 320.8 320.9 323.7 327 326.9 325.4 322.8 320.2 317.5 314.8 311.1 309.5 307 306.1 307.1 309.5 313.4 317 317.1 316.9 316.4 316.7 317.5 317.4 318.1 317.5 313.8 311.7 309.5 307.7 307.2 306.3 305.1 304 305.8 307.9 307.2 308.1 314.3 321.3 328.1 332.9 336.1 333.1 338.6 340.1 339.5 336.9 337.3 339.1 340.5 343 347.8 346.5 339.2 334.3 335.7 337.1 341 346.7 352.7 358.3 362.2 368.5
402.3 402.7 402.6 403 403.1 405.7 407.6 408.9 408.8 407.7 408 409.5 409 414.7 412.8 413.1 410.1 409.8 411.4 414.1 415.1 416 416.9 416.5 417.7 419.8 419.9 420.7 418.5 419.8 421.8 424.3 424.9 420.8 417.5 414.9 412.7 411.4 409.5 406.7 403.4 399 394.5 387.8 383.8 387.6 392.2 397.9 403.6 409.8 418.1 426.1 433.4 442.6 451.7 458.8 467.5 476 483.4 489.6 492.9 495.1 489.5 486 475.5 470.2 464.6 455.4 443.9 443.9 443.9 443.9 455.9 462.6 460.3 454.1 441.8 434.2 433.9 428.5 419.7 409.7 395.7 389.7 392.4 396.5 399.8 401.9 401.8 403.6 407.5 414.6 419.8 423.4 425.7 427.2 428.3 429.1 429.3 430.2 433.5 435.6 434.2 433.7 441.4 432.2 420.5 409.9 406.6 404.4 397.4 385.1 372.1 360 349.5 340.4 337.2 338.1 332.5 327.5 319.4 329.6 333.5 334.8 333.7 331.8 332.1 333 328.6 325.7 324.3 322.4 322.8 321.4 320.8 320.8 320.8 321.1 325.6 328.8 329.7 328.7 325.5 322.6 318.9 316.4 314.2 312.6 309.5 307.5 305 307.3 311.2 314.6 315.3 316.1 315.9 315.7 316.8 317.5 319 317.7 315.2 312.4 309.8 310.2 307.7 305.7 304.5 303 307.4 307.6 305.6 305.2 312.6 320.4 329.2 332.9 331.6 329.8 330.8 334.1 331.9 333 338.2 338.9 336.2 340.3 346.1 347.9 339.5 332.8 333.7 336.1 340.1 346.9 346.2 353.1 356.9 360.4
402 402.7 402.4 403.6 405.5 408 409.7 413 411.9 411.9 411 411.6 414.3 416.1 418.1 418.2 414.7 416.5 417 417 418 418.6 420.1 421.2 423 423.2 425.3 425 421.9 424 423.6 423.5 424.4 421.8 419 416.3 413.6 411 409.1 405.2 401.4 398.6 394.1 389.3 379.4 384 390.8 396.7 403.2 409.9 419.1 428.1 434.9 444.3 454.1 460.9 467.7 475.9 489.3 497 500.1 497.8 494.9 489.4 477.8 472.6 463.6 454.1 447.6 446.7 443.9 444.5 443.9 455.3 448.3 440.6 436.8 433.1 426.5 422.1 411.2 399.2 391.3 387.9 387.7 390.4 394.6 395.5 396 398.7 403.5 409.8 415.2 418.6 421.1 424 425.7 426.8 428.4 431.3 433.2 433.1 434 436.2 434.6 427.9 418.5 413.3 407.7 401.3 393.5 380 364.6 354.5 351.6 346.6 341.3 334.6 331.9 326.3 317.9 331.3 331.9 332.8 332.1 331.1 329.9 328.6 326.8 324.7 323.6 322.6 321.7 321.1 320.8 320.8 320.8 323.4 328.8 330.2 330.8 328.6 325.8 321.4 318 318 316.7 315.7 312.2 307.7 306.4 304.4 309 313.4 314.7 315.3 315.4 315.5 316.6 317.5 317.4 316.4 315.2 314.1 315.3 312.1 309.5 304.6 302.1 304.4 308.9 307 304.8 304.1 308.2 316.4 324.6 328.6 327.6 325.6 329.6 333.8 334.4 334.6 336.7 335.1 333.7 341 338.6 340.6 334.3 329.9 328.8 329.6 334.2 335.5 339.3 345.5 351.6 356.7
402.6 402 402.3 402.8 404.3 408.2 412.3 419.7 420.8 419 420.2 419.9 421.9 422.8 423.5 423.2 425.7 429.4 426.7 423.7 421.5 421.3 423.3 425.3 425.8 426.5 426.4 425.3 425.2 425.4 424.6 423 421.7 422 420.9 418 413.4 410.3 409.1 401.4 399.3 397.7 393.6 387.4 378.6 381.8 388.9 395.2 401.9 409.3 419.2 427 435.2 444.7 453.3 459.4 467.9 476.5 488.1 496.5 499.2 504 499.5 487.2 481.6 477.2 465.7 453.6 453 452 456.7 456.5 450.3 440.1 438.5 434.6 438.8 426.8 421.8 413.9 401 388.4 382.5 381.8 383.4 387.4 386.5 386.7 389.9 392.8 398.1 404.4 409.2 412.9 416 419.1 422.5 428 429.6 430.7 431.1 441.9 440.3 433.3 430.9 427.9 421.4 413.7 402.1 391.9 383.3 369.7 364.2 362.6 356.6 348.9 341.9 336.7 333.1 331.2 312.8 331.2 332 331 331 329.9 327.6 326.4 325.8 324 323.5 322.6 322.4 323.1 320.8 320.8 320.8 324.7 327.5 330.9 330.9 328 324.9 319.9 316.4 316.7 317.1 317.2 312.8 307.8 306.3 304.6 306.8 311.5 314.1 314.5 314.4 316.4 317.7 318.5 319.7 319.4 322.3 320.8 319.6 316.1 309.9 304 301.2 304.6 306.5 304.2 303.5 303.2 306.5 311.4 318.1 325.1 325.9 325.1 328.1 329.6 335.1 332.5 334.5 330.7 332.3 336.4 336.6 336 334.4 331 329.9 328.4 329.6 331.6 336.2 342.5 348.3 354.9
404.8 403.5 402.7 402.7 408.7 412.6 418.2 426.6 431.7 435.5 435.8 433.8 430.1 432.4 432.3 434 436.3 437.3 436.5 432.2 429.8 428.7 429.7 430.4 429.3 427.8 426.8 426.4 427.2 425.9 424.8 421 418.9 419.2 422.2 419.3 412.7 407.7 403.4 399.2 398.3 394.9 389.7 384.9 380.4 375.2 386.2 393.3 400.7 407.8 415.2 422.8 430.8 440.1 448.7 456.8 466.1 474.4 482.3 492.1 497.6 502.8 499.3 495.8 487.4 481.1 468.3 459.7 458 461.7 466.6 463.8 454.9 443 430.4 429 426.2 417.1 410.8 401.9 393.5 384 377.6 377.1 378.5 380.2 380.1 378.9 382.1 386.4 392.9 398.1 403.3 407.9 411.6 417.8 421.7 425.2 425.1 432.3 439.2 443.2 440 438 434.4 425.5 415.7 404.8 392.4 381.4 375.9 381.9 374.3 365.8 355.2 348.7 345.3 338.9 334.8 336.4 311.6 327.9 329.5 330.2 330.9 331.3 327.3 325.2 324.5 323.9 323.2 323.6 324.1 324.5 324.3 327.3 323.9 324.6 326.9 329.7 330.9 327.9 323.8 319.3 316.3 315.7 315.8 317.3 312.9 307.7 305.6 304.7 305.1 309.1 312.9 313.4 317.2 320.2 320.9 321.4 323.2 324.3 327.8 327 323.5 318.2 308.9 298 299.1 305 302.3 300.7 301.4 303.3 306.7 309.7 315.7 322 326.1 328.1 328.4 328.8 332.1 329.4 329.3 328.7 335.3 340 338.1 334.6 333.6 332.2 329.7 327.8 329 330.3 335 340.2 347 354.4
407.2 406.5 406.6 407.1 411.2 414.3 424.8 433.1 442.6 446.5 451.1 443.2 437.5 440.8 442.2 443.6 443.9 442.8 441.9 439.2 439.2 436.2 435.9 433.4 432.3 430.3 429.6 426.5 422.2 420.8 420.1 417.6 416.6 419.2 420.8 417.6 410.5 404 399.1 397.2 394.8 391.3 387.4 383.3 379.6 374 384.1 391 398.5 404.4 411 418.5 426 434.7 444.2 453.8 462.2 469.3 477.3 487 495.9 506.4 505 498.3 488.4 479.6 473.4 468.7 468.1 468.3 469.4 466 457.1 446.6 434.3 422.3 414.5 407.4 401.4 392.3 383.6 376.6 371.3 368.4 370.4 369.8 370.9 371.1 374.4 378.8 385.6 390.9 397.1 402.8 409.8 414.7 417.6 424.4 436.2 440.7 440.1 439.3 435.5 429.4 419.6 413.7 405.4 395.2 387 388.9 391 385.1 375.8 365.3 354.7 348.1 342.9 340.4 337.3 333.2 312.5 322.9 327.2 330 330.6 330.7 328.5 327.1 325.1 325.1 324.7 328 328.1 327.7 327.5 327.2 327.6 327.6 328.9 330.8 330.9 328.7 323.5 319.4 317.3 316.5 316.7 316.6 311.1 307.4 305.8 304.9 302.7 307.3 311.1 313 319 321.2 321.7 322.9 324.4 333.5 338.4 331.8 324.3 317.2 306.6 297.3 294.4 301.7 301.1 299.1 299.1 300.7 307.4 311.3 314.6 320.3 321.6 320.8 322.6 327 325.1 324.8 325.8 326.9 336.5 340.8 335.4 333.1 330.9 330.8 327.9 322.9 323.1 326.8 331.7 337 342.1 347.5
410 411.2 411.6 412.7 414.7 421.3 431.9 439 447 452.7 455.5 456 453.2 449.5 451.3 451.1 449.8 449.5 447.1 445 446.5 444.7 439 436.7 435.6 434.8 433 428.7 422.7 419.1 418.1 417.1 416.2 416.9 416.5 413 407.7 401.5 395.3 392.3 390.5 388.4 385.5 381.2 377.2 372.3 381.2 388.1 394.7 400.3 406.4 413.4 421 429.6 439 448.8 456.4 463.8 472.5 480 489.7 495.9 494.1 491.3 487.6 486.4 486.2 480.4 480.1 473.6 468.3 462.6 456.1 448.5 433.9 418.4 404.2 398.5 390.6 383.3 371.7 370.2 365.5 362.5 359.2 360.6 362.1 364.5 367.5 371.2 378.4 385.2 391.4 397.4 404.6 409 418.8 424 423.8 426.9 430.4 432.9 427.7 418.9 411.3 403.9 395.6 396.2 397.7 396.1 389.5 380.6 370.4 361.5 352.9 347.6 342.4 338 335.5 332.2 309.2 320.3 324.6 329.3 329.2 328.5 328.5 327.7 325.7 326.8 327.4 330.8 330.5 329.4 328.6 328 330.7 332.8 330.6 331 331 328.5 323.1 320.2 319.6 318.3 320.3 315.2 309.2 307.8 306.2 304.6 302.6 306.1 309.7 310.8 316.3 320.1 322 324.2 325.2 335.6 335 330 321.2 312.9 304.3 293.8 293.8 298 296.9 291.6 295.4 297.4 300.6 305.2 307.8 308.5 311.3 313.4 314.6 316.9 315.6 315.9 318.8 322.7 327.4 330 326.9 326.3 325.9 325.2 321.6 317.1 318.6 322.6 327.8 332.7 337.6 342
412.5 412.2 414.8 416.9 420.8 430 440.5 443.1 452 462.7 471.8 477.9 470.2 463.8 459.5 457.3 456.7 457.8 452.4 449.3 449.5 447.6 441.5 439.5 438.5 438.6 436.1 430 424.1 418.8 416.4 414.5 412.6 411.4 411.2 407.5 402.5 397.5 391.4 387.7 385.7 383.7 380.7 376.8 372.9 370.3 375.7 382.8 389.7 395.1 400.8 406.7 414.8 423 432.7 441.8 448.5 455.7 463.7 470.4 475.9 479.3 482.2 485.8 490.2 491.6 489.7 489.6 490.6 481.8 471.7 462.5 454.2 441.8 426.7 412.3 396.9 381.2 373.4 368.9 363.7 363 362 358.6 357.6 354.9 357.1 360.5 361 364.5 371.6 379.7 389.4 391 396.5 406.1 408.8 410.8 413.7 417.1 422.2 418.7 409.4 401.3 399.3 402.6 400.4 400 397.2 391.4 382.5 373.8 365.3 357.4 350 342.4 337.3 333 330.6 329.9 305.8 320 322.7 326.4 328.1 328.2 328.1 327.4 326.4 327.9 327.7 326.8 329 329.4 329.5 329.2 330.3 331 331 331 331 323.8 320.7 320 320.1 319.7 322.1 316.6 309.5 306.4 304.6 302.9 302 304.7 307.9 308.8 313.4 320.4 320.8 323 323.2 326.9 331.1 324.3 317.6 310.3 304.1 298.2 289.8 291.1 293.2 293.3 293 293.5 293.5 296 299.3 300.9 302.9 305.7 308 307 306.8 308 309.6 313.7 312.6 316.8 317.1 318 318.7 318.5 315.7 313 312 317.3 322.1 326.6 330.1 333.4
408.9 410.8 413.9 427.2 434.5 440.7 446 449.6 462.1 474.2 485.7 484.5 483.2 482 471.4 466 464.8 464.7 458 455.9 450.2 446.5 448.2 445.9 440.7 440.6 437.4 431.3 425.1 418.7 415.3 411.2 408.5 405.8 404.8 400.3 396.6 392 386.9 382.3 380.5 379.1 377.2 374.4 371.2 368.4 372.9 377.9 384.6 390.1 395 399.5 406.8 415.3 424.3 431.8 439.2 445.7 451.7 458 464.1 468.1 474 483 492.7 493.3 488.5 489.5 490 482.6 470.4 459.8 446.5 432.9 418.6 405.7 389.5 375.9 366.4 362.4 355.3 354.5 354.8 352.3 350.6 348.5 352.5 354.7 357.1 358.6 362.7 371.9 380.8 378.6 384.6 391.6 398.4 399.1 398.7 396.5 395.8 392.4 390.2 399 400.2 400.4 394.8 389.6 387.7 381.6 373.7 367.6 361.7 356.9 348.8 339.7 333.7 329.1 327.2 326 301.6 318.8 324 326 328.9 327.7 327.6 326.9 325.1 324.1 322.7 325.9 328.6 328.6 329 327.3 329.9 330.9 330.9 330.6 325.1 320.5 319.3 319 318.7 317.8 317.4 314.8 308.7 304.6 302.5 301.4 301.4 303.2 306.1 309.4 317 322.4 321.8 321.6 321 321.9 326 321.2 315.1 309.8 305 298.5 293.3 288.5 290.9 291.6 290.5 290 288.7 292.5 293.3 295.5 299 301.7 303.2 302.2 302.8 303 303.6 305.1 303.2 307.3 306.5 309.6 311.7 311 309 307 306.4 311 315.6 318.8 322.4 324.3
408.9 413.1 422.1 435.7 440.3 443.2 447.7 454.2 460.1 467.6 479.3 485.1 491.1 488.8 484.4 479.7 473 468.3 462 460 456 450.8 451.2 449.2 443.5 440.3 434.9 429.2 422.7 415.6 410.6 406.5 403.1 400.3 396.5 395.1 391.4 385.6 379.9 376.6 374.7 373.8 372.9 372 369.9 364 370.5 375.3 379.5 384.9 390.2 392.4 398.9 407.4 414.2 421.6 428.2 435.3 441.9 448.3 453.7 459.3 469.4 477.9 485.2 485.8 482.6 482.2 485.1 476.2 460.6 447.1 435 423.2 408.2 393.4 380.6 367.5 361.8 357.4 351.9 348.3 347.2 344.3 343 342.2 347.6 349.1 350 351.4 353.5 357.3 363.4 367 370.6 374.2 377.7 380 379.1 376.5 376.6 381.1 388.3 392.2 392.5 390.1 386 380.5 377 371.6 366.6 362.1 357.3 353.4 346.2 338.2 332.2 327.9 324.3 321.4 305.9 315.7 322.2 324.6 329.6 329.9 328.7 324.3 322.8 322.4 323.3 328.9 327.8 327.6 325.9 324.2 327.2 329.4 325.6 322.5 319.1 314.6 313.2 314.1 313.1 311.4 312.2 311 307.1 303.4 300.9 300.7 300.8 302.8 304.4 310.2 319 323.2 322 320.5 322.5 320.5 325.1 317.5 314.1 309.5 304.6 297.4 293.3 288.4 283 289.4 288.1 287.1 287.3 288.3 289.3 291.4 293.7 297.9 299.3 297 297.9 299.1 298.6 298.1 299.3 298.1 300.2 302.2 303.4 302.9 302.3 300.4 300 303.9 308.4 311.2 314.4 316.9
409.4 412.8 428.2 433.7 441.8 445.7 449.7 450.5 455.7 462.2 469.8 475.6 481.8 483.8 480.7 478.6 473.6 471 466.7 463.7 460.9 456.4 451.1 447.1 442.7 438.1 432.1 426.3 419.2 411.8 406 401.2 396.8 390.8 390.6 391.4 383.9 378.3 373 370.9 369.1 368.5 367.6 366.3 363 361.9 368.2 372.1 375.2 379.4 385.7 389 390.5 398.1 403.9 410.2 417.2 427.1 431.5 438.1 445 453.3 464.2 469.4 469.3 469.9 467.6 469.9 470.4 460.3 447 433.6 421.6 414.3 399.7 381.7 368.6 356.2 352.2 350.3 347.9 343 338.5 334.8 335.9 336.8 340.1 341.7 344.6 345.2 346.7 346.5 349.9 353.9 358.9 361.5 362.2 364.7 365.2 367.3 370.3 372.2 376.9 381.1 381.3 379 375.5 373.1 370.7 366.9 362.4 356.9 351.7 346.6 340.2 334.7 329.1 326 321.8 319.6 304.3 314.2 319.7 328.4 329.7 330.8 329.6 324 322.1 321.1 320.3 326.2 327.2 325.2 322.5 320.5 321.8 322.4 318.9 317 314.7 310.2 307.8 308.5 309.3 309.2 310.2 310.5 305.6 300.4 299.5 300.7 300.4 303.2 307.3 309.3 312.7 318.9 320.1 320.2 319.4 319.1 317.1 315.3 312.1 307.2 301.7 295.2 290 285.3 282.5 285.8 286.5 286.3 286.2 287.6 289.4 289.5 288.5 290.1 290.1 289.9 291.3 292.9 292.6 293.9 293.4 291.4 290.9 289.8 291.7 293.7 299.7 299.2 295.4 297.1 300.7 301.8 308.4 310.5
409.3 417.8 424.1 429.6 437.7 442.1 445.8 449.5 453.4 458.8 463.1 470.5 481.2 484.2 483.4 476.3 470 469.2 468.4 470.3 467.6 458.8 450 444.2 439.9 435.6 429.8 422.8 413.5 406.1 400.8 395.2 389 383.7 390.1 387.3 376.5 370.9 368.3 365.1 362.8 363.4 362.7 361.4 356.1 360 365.2 368.2 371.5 375.7 381.6 385.1 380.6 388.6 394.9 399.9 405.8 411.9 418.3 425.8 432.7 441.1 453.9 456.9 459.3 456.7 451.9 453.5 449.3 438.2 429.9 419.2 407.6 397.4 385.2 368.7 357.4 348.9 341.4 338.2 337.5 334.4 338.7 331.5 330.8 330.7 330 333.7 337.3 338 338.8 338.8 341.6 345.6 347.7 349.8 351.7 353.4 356.1 358.4 359.3 361.7 365.5 368.6 367.4 364.9 361.3 361.8 362.7 362.9 358.2 350.5 344.7 340.2 336.7 332.2 328.7 329.1 328.7 321 297.1 310.8 318 320.5 324.2 326.5 329 322.2 319.1 316.6 317.8 321.8 322.8 321.6 319.4 317.8 318.8 317.6 314.5 312.3 310.3 306 303.3 303 303.5 304.6 308.5 306.5 302.5 299.8 298.2 300.5 301.3 304.3 308.7 310.4 310.6 315.7 318.6 315.6 313.2 312.3 310.7 311.3 306.6 302.4 298.6 291.6 285.5 283.4 278.7 283.6 285.7 285.5 286.1 286.1 288.5 288 286.2 286.5 289.3 288.8 289 289.3 289.8 290.9 286.7 285.2 282.4 282.3 284.6 286.3 287.8 290.1 294.2 297.9 295.6 299.5 303.3 303.7
408.6 417.5 422.6 425.7 431.7 435.7 437.2 443.7 450.3 453.3 454 465.5 476.5 480.7 473 469.1 467.1 470.9 473.4 469.6 463.8 457.7 450.9 444 436.6 432.8 426 417.5 408.3 401 394.5 387.2 380.6 377.2 380.4 376.1 369.4 365.6 362.6 358.6 357.3 357.8 356.1 354.1 351.7 354.3 359.9 362.8 367.5 372.1 376.5 381.5 379 378.6 382.5 387.5 392.6 399.8 406.7 409.7 414.9 425.7 438.2 442.4 443.5 439.8 433.6 431.2 428.4 422.8 409.4 399.7 385.9 379.2 368 357.3 351.3 345.9 339.8 333.2 329.8 327.9 328.7 326 325.7 327.7 322.1 330.1 332 331.8 329.7 331.8 336.1 338.3 339.9 341.1 342 343.7 345.3 345.1 347.3 349.9 353.5 357 355.5 353.7 349.8 347.7 349 349.8 350.6 343 338.5 335.7 334.2 330.3 326.6 330.9 328 321.2 297.5 307.1 310.7 310.5 315.8 315.5 314.7 313.1 312.2 310.8 315.2 318.8 321.1 321.1 317.4 313.5 311.1 311.7 310.5 308.2 305.6 301.8 298.7 298.2 296.2 297.4 299.2 299.8 298.9 295.3 292.7 297.5 301.9 304.9 307.9 310.5 309.7 309.8 313 311.7 308.5 306.9 305.1 302.9 300.5 298 295 287.6 281.3 278.2 277.8 276.4 281.9 284.9 284.8 285.2 288.5 287.5 286.3 282.4 286.6 288 288.3 287.9 287.9 286.2 282.4 279.5 277.8 276.3 278.2 280.6 284.2 290.9 296.4 298.4 292.2 292.4 294.9 293.5
404.3 412.9 418.1 418.4 425.9 424.7 429 436.7 443.3 442.3 444.8 454.1 464.5 467.5 464.2 464.2 468.2 473.5 473.4 467.3 460.4 456.7 452.3 446 434.9 428.6 419.6 410.8 401.5 392.7 386.8 380 373.1 370.5 371.1 367.3 363.2 358.5 354.4 350 352.4 351.3 349.1 347.3 345.6 348.4 351.1 355.1 359.2 364.4 368.3 371.4 373.9 373.4 375 378.9 383.5 390.7 397.3 401.5 400.9 411.8 420.7 424.7 420.5 415.5 412.2 411.1 409.4 399.6 392.2 379.4 369.6 363.1 357.7 352.5 347.1 343 338.4 329.3 324.2 322.6 323.9 321.4 319.7 318 319 326.7 328.8 325.9 328.3 326.9 329.3 330.9 332.6 331.6 329.5 333.1 336.5 336.2 336.6 338.2 341.4 345 343.2 341.3 337.7 337.4 337.2 336.5 336.7 336.7 334 331.3 331.5 326.1 319.5 320.6 319.6 310.9 290.4 302.8 304.1 303.3 306.2 305.6 302.8 304.2 304.5 304.7 308.6 313.4 316.6 316.1 311.1 306.2 303.8 304.2 305.6 302.8 300 296.6 295 293 290.9 291.3 294.5 295.3 292.7 288.7 290.5 298.3 300.7 301.5 303.3 304.2 301.9 304.6 307.2 304.9 303.1 301.2 300.4 297.2 298.1 294 289.8 284 278.7 278.5 278.9 277.7 276.4 278.5 282.3 289.8 287.1 282.8 283.8 281.9 285.7 287.2 287.6 286.9 286.1 280.3 279.7 275.8 272.9 271.2 269.5 273.2 279.1 287 292.6 286.8 285.6 286.4 287.4 287.8
393.7 403.1 410.6 409.6 413.8 414.3 420.5 426.7 431.9 430 435.7 445.2 451.7 453.9 456.4 459.4 463.9 466.5 464.4 456.7 452.5 449.9 449.7 443.3 428.9 420 411.2 402.2 392.5 383.3 375.8 368.3 365.3 363 361.7 358.1 353.4 350 348.1 345.2 346.8 347.9 343.9 340.9 341.8 342.7 344.7 347 352.1 356.3 358.7 361.6 364.9 368.8 373.5 373.4 377.3 382.5 387.1 389.7 391.2 397.3 407.1 405 401.6 396.7 395.2 393.1 386 377.3 372 365 357.8 353.2 350.5 345.7 339.9 336.8 331.6 324.5 319.3 319.2 320.7 318.1 313.9 312.6 318.1 322.4 323.4 320.9 321 319.8 322.2 324.1 327.6 325 323.8 325.9 326.1 328.5 327.9 325.1 328.8 333 330.7 328.7 327 327 326 324.5 327 328.6 328.6 323.8 320.4 317.2 314.7 307.8 304.1 297.9 283.1 295.3 297.4 297.8 298.4 298.3 296.6 297.7 298.7 300.2 303.6 306.8 308.8 308.4 300.9 296.4 294.2 296.8 298.8 295.9 293.3 291.7 290.9 289.8 286.6 289 291.7 290.8 287.4 286.5 289.6 296.6 298 297.1 298.3 298.4 298.5 300.6 299.5 298.9 296.8 293.1 293.8 292.4 291.9 290.5 287.3 282.9 279.3 279.5 279.8 280.1 275.2 275.1 287.9 289.4 286.6 282.2 279.7 279 284.7 286.1 286.8 284.9 283.6 280.9 278.3 273.6 270.6 271.6 271.5 266.7 272.1 277.8 278.1 280.2 281 282.2 286.5 286.6
381.2 388.9 401.6 402.8 405 406.7 412.4 417.7 421 421.7 426.2 434.8 439 441.9 445.5 449 452.1 457.6 453.1 449.1 443.8 439.8 436.6 429.3 420.1 410.5 401.3 388.8 379.3 372.7 366.9 361.8 357.4 354 353.1 349.3 346.2 343.8 340.8 339.6 340.5 341.5 338.2 336.8 337.9 337.1 340.7 340.1 342.1 345.1 348.1 351.7 356.2 361.5 363.5 369 370 371.5 376 378.7 379.7 380.1 384.2 381 384.1 383.1 381 377.5 374.1 366.1 357.4 352 344.9 345.2 343.6 338.6 332.4 329.5 325.6 319.8 317 317.2 316.6 312 309.3 311.9 317.8 319.8 320.8 320.9 320.4 319.5 319.2 316.8 319.1 318.1 318.7 319.9 317.5 318 316.7 314.6 317.1 319.4 319.3 319.1 318.3 316.1 314.7 314.9 318.8 319.2 316 313.3 308.5 306.5 302.1 297.4 295.3 293 280.4 289.3 291.4 292.8 290.7 288.2 291.1 293.4 295 297.7 299.4 298.4 297.7 297 292.3 288.8 285.5 288.9 291 288.2 286.4 285.2 284.5 282.9 280 284.4 284.3 285 282.6 283.4 286.5 289.5 289.8 289.6 293.4 294.1 295.3 292.7 291.1 289.1 288.1 287.9 288.7 287 287.6 287.5 285.3 282 279.9 280.3 280.7 280.7 277.7 274.6 286.1 288.4 283.5 280.3 277.6 275.4 279.6 284.2 285.2 281.1 280.4 279.1 276.7 271.9 270.4 270 270.5 270.1 263.4 266.1 270.8 274.5 278 279.9 284.8 284
373.1 381.3 391.8 396.5 398.7 398.4 406.3 406.3 409.5 413.1 417 420.3 424.6 428 430.4 434.4 438.5 440.8 439.8 437.4 434 429.5 427 423.5 411.3 396.5 387.4 377 370.3 366 361.1 355.8 349.3 346 344.1 341 340.2 335.7 334.6 334.1 334.5 335 337.2 336 335.6 333.6 334.5 336.1 337.2 340 343.4 346 348.5 354.5 357.2 357.8 362 364.7 365.5 367.5 368.9 370.7 373.7 371.5 371.3 370.8 366.9 362.9 357 354.5 348.8 344.9 339.3 335.7 335.8 331.1 325.5 321.9 320.6 317.1 314 313.4 311.3 307.6 307.6 313.5 318.1 319.3 320.7 321.1 321.2 319.1 315.4 312.4 312.9 312.5 313.1 313.7 313.2 312.2 310 307.9 308.7 311.1 311.7 310.6 308.1 306.8 306.4 308 308.5 308.1 307.2 303.9 299.9 298.1 294.6 292.2 290.5 288.7 276 284.1 287.2 288.1 285.2 284.5 287.8 290.5 292.1 294 294.3 293.6 291.3 288.4 285.2 280.8 278.8 283 285 280.4 279.5 279.7 279.7 277.9 276.1 278.4 276.7 276.7 279.1 280.4 280.7 280.3 280.6 285 290.3 289.8 287.8 286 284.7 282.8 281 281 282.1 281.3 281.8 282.5 281.5 278.6 278.7 280 280.7 280.7 277.3 272.9 288.5 288 284.6 281.2 275.6 274.5 280.4 279.5 279.2 280.1 280.1 278.9 274.4 270.5 269.1 267.6 267.2 265.4 263.1 259.8 263.5 268.6 275.3 281.7 282 280.7
363.7 374.8 380.1 386.7 390.2 392.7 397.8 395.9 398.8 403.1 404.5 407.4 411.1 414.2 414.9 415.5 421.2 422.2 422.5 421.2 422.6 419.1 415.6 406 394.7 385.1 375 367.5 361.5 358 353.2 347.8 342.4 340.5 336.8 334.7 330.8 334.7 336.2 330.4 330.3 329.2 331.3 338 333.3 330.8 329.1 331.6 331.8 334.6 338.1 339.6 342.6 345.9 349.8 351.3 354.1 356.2 356.1 356.9 359.6 361.3 361.8 361.7 359.8 357.4 354.6 353.6 350.4 346.4 343.4 338.9 333.2 329.6 329.9 326.2 321.1 317.6 314.8 314.3 310.9 309.8 306.7 302.6 303.4 309.7 316.4 316.3 319.5 320.3 320.6 317 313 309.7 310.5 310.4 310.1 309.7 310.4 308.4 306.3 301.9 300.1 300.8 303.5 301.6 298.5 296.2 296.3 299.8 299.6 300.9 301 296.7 293.9 294.1 296.5 291.4 287.8 281.6 271.2 278.9 282.8 283.3 281.2 281.1 285.2 290 288.6 288.6 286.7 289.2 285.9 282.6 279.3 275.3 275.5 277.1 276.9 273.5 274.5 275.4 274.8 272.1 271.2 270.9 270.5 269.9 268.6 274.5 274.6 275.8 276.3 282.2 285.1 285.8 282.9 280.4 279.1 277.7 278.5 278.9 281.4 279.8 279.4 280.2 279.9 272.5 272.1 278.5 280.9 280.2 273.6 268.1 282.7 283.5 278.2 275.5 271.6 270.7 280.1 277.7 279.7 280.4 278 271.7 269.5 266.5 266 261.1 262.8 262.1 263.6 260.8 257.7 265.3 270 275.7 278.9 275.5
355 365.2 373.6 377.5 381.5 384.7 388.1 385.6 390.5 392 393.9 394.3 396.7 399.7 400.3 401.1 404.8 406.4 407 406.8 408.4 407.1 396.8 387.9 379.8 372 366.3 357.5 351.9 348.4 345.4 341.2 335.1 335.6 329.8 327.3 333 332.4 331.6 331.1 329 326.3 328.7 330.7 329.4 327.4 326 327.7 328.4 329 330.1 333.6 336.6 339.8 342.1 342.7 344.6 346.3 347.2 348 349.6 350 350.3 350.8 349.6 350.2 347.6 345.1 343.3 340.3 336.8 333.4 327.7 323.5 321.2 320.7 316.8 313.3 309.8 309.3 305.7 301.4 303.1 299.8 300.3 304.9 311.3 312.7 315.6 317.4 316.1 313.5 312.6 313.7 311.9 312.4 310.8 310.2 305.9 299.9 300.5 293.7 291.1 292.1 292.4 292.1 289.2 287 286.1 289.1 291.7 292.1 290.6 289.7 291.8 288.3 285.5 282.5 279.4 276.3 272.9 278 279 280 280 280.7 289.9 288.9 283.2 281.6 278.5 282.4 279.2 275 270.7 270 270.5 270.1 268.1 266.1 268.2 270.9 269.5 269.7 270.3 269.5 270 266.3 269 269.7 271.9 271.9 272.8 277.2 279.9 281.8 279.4 277.2 275.5 274.8 277.6 279.5 281.1 280.2 278.7 278.6 275 270.6 269.5 271.3 278.1 273 269.1 264.8 270.6 272.8 273.8 271.2 270.9 270.9 270.2 273.4 273.4 271.6 270.2 268.6 266.2 264.9 263.2 261.4 258.3 259.2 260.8 261.5 251.8 257.4 262.5 268.2 269.5 268.6
349.3 357.5 364.3 370.8 372 375 376.3 377.4 382.1 380 382.4 382.5 383.7 386.9 390 391.2 393.1 393.1 396 391.7 390.8 389 380.8 375.2 368.7 362.6 358.9 348.7 345.5 339.2 337 333.4 329.2 330.5 324.7 326.2 327.3 326.4 326.5 325.2 324.2 325.9 320.3 326 327.6 325.4 324 325.4 325.8 326.5 327.3 329.4 332 336.3 340.7 338.3 339.6 339.8 341.4 342 341 341.3 340.9 340.8 341.1 341.9 339.1 336 333.5 331.4 330.9 327.4 320.7 318.6 315.8 313.3 310.5 306 304.1 299.9 298.5 298.9 300.5 296.7 297.8 299.9 307.5 309 309.5 310 310.5 311.7 313.2 313.3 313.9 316.6 311.2 311 309.3 308.8 305.1 294.4 289.8 288.1 283.6 282.2 281.2 280.9 280.1 279.1 281.4 282.7 281.9 280.8 282.4 280.7 277.1 274.1 271.9 266.2 268.8 272.1 274.9 275 278 280.1 284.1 281.1 273.6 268.6 268.7 272.1 269 265.8 261.6 262.2 261 258.4 257.7 258.7 259.5 261 263.3 267.5 269.7 269.5 269.2 263.2 264.5 268.8 271.3 270 268.2 272.1 275 277.3 275.4 272.6 272.1 271 274.8 280.1 280.5 279.8 279.2 278.4 270.8 268.8 267.2 266.5 268.2 267.7 267.6 264.9 263.8 267.8 269.2 270 270.7 269.3 269.6 268.5 266.4 265.4 265.6 264.6 262.5 262.1 263.3 261.1 256.9 252.3 253.7 254.4 251.7 247.4 254.3 258.4 259 260.1
342.2 349.3 358.2 363.4 362.7 365.1 366.2 370.1 372.3 371.7 372.7 372.7 375.4 379.4 380.9 381.8 383.4 384.3 383.2 381.7 380.6 376.1 368.1 364 359.3 354.2 349.2 341.4 338.7 333.5 330.3 327.6 324.5 323.6 322.7 328.4 324 319.7 320.7 319.7 319 322.5 317.3 319.7 323.8 323.6 321.9 322.5 322.8 324.2 324.5 325.7 328.9 330.9 331.4 333.4 332.1 334.2 337.3 340.7 338 335.9 335.5 334.9 334.5 333.6 330.7 327.5 323.4 322.3 323.2 317.2 314.8 313.9 313.1 309 303.1 298.8 298.7 294.9 292.6 291.7 295.1 294.2 295.7 297.8 301.7 303.2 303.3 304.9 307.4 309.2 311.2 312 313.1 313.9 316.9 317.4 313.9 311 303.1 297.4 290.8 284.2 279 274.4 274.2 275.1 274.1 273.2 273.8 272.4 273.3 271.6 270.2 269.7 269.9 267.7 265 260 263.9 266.9 269.8 271 273 272.5 272.6 270.4 263.9 262.5 262.1 260.9 260 258.5 257.8 255.5 253.9 251.5 251.9 253 254.1 255.2 258.9 263.1 267.8 269 266.4 260.3 264 266.1 268.9 265.9 263.4 265.5 269.4 271.4 269.6 268.7 268.9 269.7 274.9 281.3 279 278.1 275.5 272.9 264.5 260.2 261.2 265.5 266.8 268.5 269.4 266.5 263.6 262.6 267.2 269.1 269.4 268 265.8 264 261.9 262.1 262.3 261.1 259.2 260.4 262.9 258.3 254.5 251.6 249.8 248.9 249.1 241.1 243.6 248.5 251.3 253.4
335.6 340.1 352.1 357.7 353.5 355 356.1 363.8 365.8 364.2 362.7 364.4 368.1 373.4 372.8 372 374.8 375.8 375.4 371.4 370.7 362.1 356.3 353.1 349.1 345.8 341.8 337 334.1 328.5 324.5 320 320.4 319.2 318.5 319.6 315.7 316.3 318.5 324.3 316.4 316.6 315.8 317.2 322.7 321 318.4 319.6 319.8 321.1 327.5 323.8 322.1 326.6 326.4 327.4 329.6 330.1 330.1 335.6 334 331.9 331.8 330.9 329.1 327.2 324.9 321.7 318.2 318.4 317.8 314.5 309.8 306.4 304.5 299.2 295.9 291.7 295.2 289.9 288.2 288.5 292.3 292 292.6 295 295.6 298.2 298.1 299.3 302.5 304.3 306.1 309.9 311.1 311.6 313.2 319.1 313.4 307 300.6 294.5 287.5 283.6 277 269.8 268.4 270.3 269.4 267.3 265.8 264.4 263.4 263.4 261.7 260.7 262.6 262.1 259.6 253.2 258.9 260.3 261.7 270 269.3 265.4 261.6 258.9 257.3 256.8 254.5 252.7 251.7 250.1 251.3 249.2 247 245.3 248.6 248.9 249.2 250.8 255.1 258.9 261.4 263.5 260.5 257.7 259.7 262 263.8 260.3 258.3 257.5 259.5 260.4 259.1 259.3 261 265.6 270.7 272.9 280.3 278.2 273 266.9 257.6 255.7 264 273.5 277.8 278.8 271.9 265 260.6 252.7 262.9 267.5 270.3 269.7 265.8 261.1 258.6 258.8 259.4 257.7 257.3 257.4 260.4 256.3 253.6 250.9 250.5 247.1 247.3 245 234.4 235.8 242.5 246.4
329.3 334 340.9 344.6 346.3 346.4 346.9 353.1 353.5 354.4 355.4 358.5 361.4 365.7 364.2 363.7 367.8 371.5 368.1 362.3 357.6 352.3 346.8 343.9 340.6 338.3 334.9 330.8 327.3 322.8 319.9 318.8 317.4 316.2 315.7 314.9 315 313.5 315.7 317.9 316.1 315.8 315.4 313.1 317.5 318.7 318.1 317.1 318.1 319.4 321.1 323.8 325.2 320.2 324.4 321.3 321.8 325.8 321.9 324.8 327.1 327.2 326.7 325.3 323.3 321.2 317.8 314.9 314.8 315.2 312.5 309 305.2 301 295.2 293.9 289.4 287.8 287.6 286.2 284.1 286.8 288.3 290.1 290.6 290.6 291 292.4 293.5 294.7 299.1 300.2 300.3 303.9 307.6 307.8 308.7 309.3 306.5 302 298.6 289.6 284.5 280 273.4 265.3 265.2 267.2 261.6 260.8 258.6 256.2 256 255.8 253.6 254 255.7 256.2 255.1 251.2 251.3 254.3 259.3 263.9 258.5 253.2 251.2 250.2 250.8 248.8 246.9 245.7 243.8 247.6 244.6 242.2 240.4 240.7 242.8 241.7 242.9 248.7 251.6 252 255.6 260 259.4 253.5 254.9 258.6 258.6 254.8 253.6 252.3 253.6 254.8 254.7 255.3 257.2 260 262.9 265.7 270.3 273.6 269.4 261.8 252.1 254.6 264 273.7 279.1 273.2 264.8 257 243 262.5 267.6 275 272.4 270.5 267.4 262.3 259.3 257 256.4 255.9 255.6 256.6 258.1 253.7 250.9 248.9 248.1 246 245 238.4 235.7 226.7 230.1 238.8
325.9 331.3 333.5 336 338.9 341.1 343.3 345.8 349.1 348.3 349.1 350.4 353.3 356.1 359.5 359.9 360.9 363.1 359.1 354.4 347 342.8 340.1 337.2 333.6 331 327.7 325.2 321.1 317.8 315.6 313.5 314.2 313.2 313.3 312 311.7 311.2 311.1 314.9 316 315.8 315.4 313 311.6 313.5 315.3 316.2 316.9 318 318.7 319.3 319.5 323.4 319 317.6 316.3 318.9 318.6 316.5 318 319.5 320.1 318.4 316.6 314.6 310.6 309.3 308.8 307.8 306.2 302.7 298.2 290.4 287.9 287.3 286.6 284.5 284.9 282 280.1 285.6 283.5 287.3 290.9 289.4 288.8 290.3 291.9 291.8 295.1 295.5 296.2 297.5 299.8 301.5 302.7 302.7 305.1 300 287.5 282.4 277.9 274.3 269.2 262.7 262.2 264.7 258.8 256.4 257.2 258 256.5 250.3 250.2 250 250.3 251.3 251.7 249.1 247.9 248.9 251.2 251.7 247.6 246.6 244.1 242.9 243.3 240.4 240.1 236.5 237.5 238.8 238 233.5 231.5 235.8 237.8 235.1 239.5 244.7 246 244.1 247.2 253.3 256.1 248.3 248.4 252.1 249.2 248.9 250.3 247.2 248.5 250.7 251.3 251.7 251.3 253.1 257.2 260.9 267.3 270 261.3 255.2 249.5 249.1 263 268.4 268.2 257.5 244.6 240.1 261.4 264.1 267.4 270.8 271.4 266.7 265.3 260.9 258.8 258.3 258.6 258.2 257.4 254.9 253.3 253.6 251.2 249.3 249.1 246.1 242.7 237 230.6 225.2 219.6 222
319.8 326.3 329.7 331.3 337 339.3 339.3 341.9 344.5 343.4 344.1 345.4 346.8 349.1 351.4 353.6 359.1 354.1 348.6 342.7 341.7 338.9 335.9 331.9 329.6 329.8 320.2 319.6 318.1 314.7 313.3 311.8 311.3 312 312.3 311.2 310.6 310.1 312.2 315.6 317 315.1 312.2 310.4 309.6 311.8 311.6 313.8 314.8 315.7 315.9 316.4 317.7 320.3 322.3 315.7 314.1 312.5 312 311.3 311.5 308.9 309 310.3 308.4 307.4 308.9 301.5 298.2 294.7 292.9 290.7 288.5 288.4 288.3 287.9 287.1 280.4 278.9 279 279.3 279.3 279.5 282.5 287.6 286.6 287.5 287.8 287.9 288.4 289.3 290.1 290.9 292.9 294.1 296.1 296.6 297.1 294.2 291.9 284.6 278.1 272.7 270.3 264.2 259.1 260.1 258.5 256.3 257 259.4 259.7 258 254 250.7 248.9 248.9 248.4 249.3 246.2 244.6 243.9 241.9 243.3 240.4 240.5 238.8 234.3 231.4 231.8 230 230 232.7 234 231.4 230.8 229.4 229.2 229.5 229.4 232.2 237.2 239.3 238.6 242.5 246.1 245.5 242.1 245.6 246.5 244.8 245.5 244.9 241.8 244.5 247.2 248.1 248.4 249 249.6 250.2 252.7 254.9 258.7 250.9 246.1 244 244.4 248.1 247 245 238.5 249.2 258.7 262.9 262.7 264.6 267.1 262.3 260.4 260.1 256.2 255.1 254.2 256.2 259.1 258 255.5 253.7 250.8 249.5 248.6 248.5 245.4 240.2 234.3 229.5 227.6 220.3 219.3
316.2 322.1 328 331.7 336 337.2 335.8 337.8 338.1 339.6 340.8 341 342.8 343.8 345.5 354.5 354.2 345.1 339.6 336.6 334.5 333.3 331.5 328.1 325.9 323.9 318.4 316 315.1 312.4 311.2 310.8 310.9 311 311.4 310.6 310 309.4 309.9 311.8 314.5 312.5 308.4 306.8 308.2 309.3 309.2 310.7 312.2 312.9 313.5 313.4 314.5 317 317.8 316.3 316.1 315.9 312 310.1 308.6 307.6 306.6 303 300.3 299.1 297.1 292.7 289.7 288.7 287.9 286.2 284.3 282.8 281.2 278.7 278.1 276.9 273.7 272.9 272.9 275.2 280 280.4 283.8 284.6 286.3 284.8 284.6 286.2 287.3 287.4 289.4 289.2 289.6 290.7 290 289.4 287.2 284.1 279.2 273.4 269.1 263.9 259.2 259.3 258.5 256.9 257.6 258.5 261 262.1 260.8 257.6 255 251 249.2 248.7 248.1 243.6 241.1 240.7 237.5 234.6 232.1 228.6 225.4 226.4 225 223.7 223.6 228.1 228.5 227.2 224.5 223.4 224.5 224.9 228.3 227.1 225.5 228.9 228.7 231.3 237.6 238.9 235.9 234.4 240.2 242.6 240.4 237.3 238.9 239.8 240.8 243 245.5 250.2 249.4 250.5 250.5 249.6 246.2 243 243.9 241.1 237.8 236.8 237.7 237.3 236.2 237.5 250.8 259.8 258.5 257.8 263.2 261.2 258 256 254.4 253.2 253.3 250.6 251.9 254.9 257.6 254.6 251.2 247.6 248.6 247.9 249.4 245.5 240.3 236.7 230.2 230.9 229.2 221.2
312.9 319 324.9 328.8 334.3 334.6 332 332.4 334.4 336.3 337.7 339.1 339.8 340.4 342.7 346.5 344.3 339.1 334.7 333 330.5 329 327 324.5 321.4 319.7 316.7 314 311.7 310.3 310.4 310.8 310.7 310.6 310.8 310.3 309.8 308.8 309.6 309.9 309.8 309.9 305.1 307.4 307.9 309.2 307.7 308.8 309.9 310.2 310.9 311 312.6 316.6 318.9 319.3 319.9 319 316.2 312.7 311.1 309.3 307.9 304.1 300.4 299.2 297.2 294.9 290.6 290.6 290.7 290.6 290.1 286.3 287.6 287.6 283.3 280.8 274.6 269.8 269.7 270.7 279.6 280.9 280 285.2 285.2 283 281.2 281.1 282.4 284.3 287 285.5 285.2 284.4 283.5 282.7 281.1 279.2 275.1 270.8 266.1 259.5 258.8 257 256.5 257.9 258.7 262.7 267.6 268.9 265.8 260.8 257.5 257.4 255.4 250.3 248.8 241.4 240.1 237.6 233.6 225.7 221.9 217.7 217.4 220.1 219.5 218 220.4 221.3 221 220.7 219.3 218 218.4 218.8 218.6 219 220.1 221.8 221.3 225.8 231.1 229.9 228 229.8 234.7 234.8 233 229.1 234.1 241 240.6 239.7 239.9 242.8 245 248 247.6 245.7 243.1 240.5 236.9 235.2 232.6 229.4 230.6 230.3 227.7 238.9 247.2 251.7 249.3 250.1 255.8 253.3 250.2 251.8 252 254.1 253 251.2 250.8 254.1 256.3 253.4 249.9 246.5 247.3 248.7 246.5 244.4 244.3 239.8 233 230.9 230.1 220.5
308.1 313.9 321 323.8 326.8 329.3 329 329.1 330.7 331.9 333.2 335 336.5 337.1 340.1 339.1 337.9 335.4 333 331.4 329.6 325.1 322.5 320.3 318.5 317.6 314.1 312.5 310.5 310.4 310.7 310.9 309.8 308.1 308 309.8 309.3 308.1 307.5 306.5 302.9 303.7 307.5 308.1 307.5 308.9 306.2 308.5 310.5 310.6 310.2 310.1 311.6 318.5 319.4 320.4 327.5 328.5 323.5 318.5 314.6 312.3 310.3 309.3 303.6 300.7 296.1 290 289.7 290.6 290.7 290.6 290.4 289.1 288.4 286.9 285.4 281.3 276.9 269 268.6 269.3 272.3 277.8 278.5 280.9 284.3 283.8 281.9 277.4 280.5 282.4 284.1 284.2 281.4 279.4 280.2 279.9 280.3 280.7 278.1 273 270.8 268.8 262.6 255.2 256.3 259.4 260.3 269.1 275.4 269.9 269.5 266.2 266 261.3 260.5 253.9 246.7 240 235.3 229.8 229.1 219.9 214.8 210.8 210.4 211.9 213.8 214.9 216.4 216.7 216.8 216.7 214.8 213.4 213.8 214.1 213.8 213.4 215 216.2 217.8 218.6 218.3 219.4 225.1 221 225.3 226 223.7 220 224.7 228.9 231.8 228.4 227.8 232.3 239.9 243.4 242 240.1 237.6 232.7 230.3 229.1 227 226.7 226 228.2 223.7 231.7 236.2 240.3 241.4 244.7 247.8 248 247.9 250.3 251 252.3 252.6 251.2 250.3 251.2 254.1 252.1 248.5 247.2 246.5 245.5 246.9 243 241.7 239.4 231.5 230 228.3 219.8
303.6 308.2 314.5 317.9 318.8 320.8 323.5 325.1 326.3 329.3 330.7 331.7 332.7 332.8 335.4 334.9 332.8 329.7 329.4 327.6 325.1 320.9 319.2 318.4 316.2 314.1 312.8 311.5 310.6 310.5 310.8 311 310.1 308.5 306.9 305.8 303 303.4 303.7 302.3 299.7 306.8 308.9 308.7 307.9 308.6 304.7 309.6 310.9 310 309.3 310 314.5 319.6 320.6 326 331.2 334.1 331.5 327.5 320.8 317.2 311.3 306 300.3 294.2 289.6 287.8 287.9 289.5 290.6 290.6 290.1 288.3 286.4 281.8 276.1 272.2 270.6 268.5 268.5 269.7 269.1 274 275.6 276 281.8 284.7 281.2 275.3 279.4 282.2 284.2 283.7 281.3 277.2 278.2 278.2 278.4 276.4 276.7 276.9 273.2 268.3 263.7 253.8 252.2 255.6 258.6 263.6 268.8 269.7 269.7 268.6 265.6 262.1 259.2 250.7 244.2 238 230.1 221.1 216.2 212.4 210.5 207.2 203.7 206.2 207.7 210.3 211.8 212.3 212.5 212.7 210.4 208.7 209.1 209.5 208.7 209.6 209.9 211.1 213.9 214.1 215.4 213.8 211.2 212.6 215.1 216 210.6 208.7 216.3 218.2 220.1 220.2 222.5 224.4 228.6 234.8 235.1 232.7 229.6 226.7 225.4 223.3 222 222 223.5 227.9 220.9 227.5 229.4 233.6 235.4 240 242.7 244.5 246.1 248.5 250.8 253.1 252.8 250.9 249.9 249.2 251 249.9 248.8 248.1 248.4 248.5 248.5 244.7 239.9 240.1 236 229.4 226 221.2
294.2 299.5 304.7 308.9 310.7 312.7 318.1 319.5 320.2 325.3 328.6 327.7 328.5 328.4 331.3 331.7 327 323.6 323.8 323.9 320.9 319.5 317.2 316.5 314.8 312.5 311.7 310.9 310.4 310.5 310.3 310.7 311.8 308.6 306.2 304.3 302.9 301.7 300.8 299.7 298 303.5 304.8 304.3 305.3 307.5 301.7 310.3 309.9 309.5 309.9 312.7 317.7 321.5 327.4 329.3 330.6 338.6 337.3 330.9 324.1 315.7 304.6 298.6 294.1 287.9 286.1 284.5 284.6 284.4 286.9 286.1 286 283.3 276.6 271.8 270.6 269.1 267.4 268.1 266.5 267.8 269 271.2 274.1 276.9 280.7 281.9 279.5 274.2 275.6 281.3 282.1 281.2 278.3 276.6 278.7 274.8 276.8 271.2 271.4 273.1 269.1 265.5 259.1 254.4 252.9 251.9 254.5 257.6 261 265 263.6 260.6 257.7 257.4 253.4 246.6 240.7 234 227.1 218.4 213.4 209.9 208.6 203.9 199.6 200 200.8 204.1 207.1 207.9 208 207.5 205.2 203.2 203.8 204.2 202.1 204.7 206.1 205.1 206.9 210.1 211 210.9 210.6 206.8 207.7 206.5 201.8 202.7 212 212.2 210.3 209.2 213.9 219.9 218.6 221.4 221.9 221.3 221.6 221 220 216.4 213.7 216.6 219.4 221.2 215 222.8 224.1 227.9 232.1 236.6 240 241.1 242.6 244.9 245.8 254 251.9 249.9 249.4 248.6 249.9 249.5 249.4 249 248.8 247.7 245.3 242.7 240.6 240.2 234.9 228.7 223.9 220.2
283.5 290.6 294.9 299.1 302.2 302.6 306.3 307.9 312.3 318.4 321 322.9 326.4 324 322.1 320.3 320 318.6 317.8 318.8 320.3 318.5 315.7 314.6 313.4 313.8 313.2 313.6 314.1 315 314 312.7 312.1 308.7 309.7 306.1 303.2 300 299.1 298.4 296.8 298.5 297.6 299.1 299.9 303.4 300 306.8 308.5 310.3 311.2 316.2 320 321.4 326.6 329.5 330.7 335.1 332.8 323.9 313.9 303.3 296.9 293.7 290.4 284.6 282.9 281.6 280 279.4 280 277.6 274.9 273.3 271.6 270.3 268.2 265.1 264.6 267.6 269 266.3 267.2 268.8 269.1 270.4 274.8 277.6 279 272.8 269.1 274.6 278.9 279.4 278.2 276.9 278.6 276.5 273.2 270 264.5 259.1 261.1 259.5 255.2 252.4 251.1 249.4 249.4 252.1 254 255.1 256 253.4 249.9 248.5 246.3 239.6 232.8 225.6 219.3 215.2 211.4 206.6 202 200.2 199.2 195.3 195.2 196.3 201.3 202.1 200.5 200.4 200.8 198.1 198.1 198.6 198.8 197.9 199.3 198.6 199.2 208.5 208.4 205.5 203.8 201.3 201.6 201.8 199.3 200.1 206.1 208.3 205.2 202.7 204.1 211.7 212.6 214.5 215.7 215.9 215.5 213.7 209.7 208.8 206.5 206.7 208.3 209.9 206.9 211.7 218.9 223.9 229.6 232.7 234 235.4 236.3 237.9 240.4 248.2 244.2 245.1 245.4 245.4 249.6 249.8 248.1 244.8 246.4 244.6 242.1 239.8 239.9 236.8 229.2 228.8 225.6 219.7
275.5 280.4 285.2 289.3 292.9 295.1 298.3 301.3 303.7 307 313.3 315.8 318.5 318.2 315.7 314.1 313.9 313.4 312.1 313.3 315 313.3 312.3 313.8 317.6 319.9 319.1 319.4 320.3 319.2 318.4 316.2 313.2 310.9 309.1 307.4 303.9 299.2 297.8 296.9 296.1 296.5 296.7 297.6 297.7 297.4 299 304 308.8 310.6 312.5 315.8 318 319.3 321.6 323.5 324.9 324.1 320 311.4 300.7 295.8 294.4 289.3 287 281.1 279.8 274.8 271.5 271.4 272.3 269.7 267.7 269.5 274.5 267.4 264.2 263 263 265 266.7 266 263.2 262.4 263.7 266.6 269.5 272 273 269.6 267.2 269.1 272.3 274.1 274.3 276.9 271.7 270.2 265.8 261.1 258.8 253.5 252.7 254.2 252 249.4 245.8 241.1 242.1 244.6 246.4 245.8 245 244.8 241.9 237.2 235 229.4 223.6 219.1 215.1 211.2 207.3 204.2 200.6 195.7 194.1 193.6 191.9 191 196 197.1 194.1 195.7 196.4 194.5 191.3 189 188.4 189.5 192.3 192.1 191.9 197.4 201.3 197.3 199.2 193.6 194.7 195.6 192.3 191 197.9 200.2 197.9 197.3 200 204.9 207.5 209.6 211.6 210.3 211 208.9 204.3 202.3 200.4 199.4 201.2 203.6 201.3 204.5 211.1 217.7 224.9 227.5 227.6 227.9 228.2 228.9 232.4 236.1 239.5 240.2 241.5 240.8 244.5 246.4 242.1 241.4 243.2 241.8 241 240 237.8 232.7 232.1 230.3 227.7 220.1
267 271.1 275.2 279.5 285.1 286.6 288.5 291.2 293.8 297.4 303.6 308.6 309.7 309.8 309.1 308 307.8 307.9 307.8 307.9 308.5 309.2 311.2 313.9 318 320.1 322.5 329 327.9 324.2 320.7 317.9 314.4 312.3 310.3 308.3 304 299.8 299.6 298 296.2 294.8 296.9 296.9 295.3 295.8 298.1 300.7 305.6 310.6 310.7 309.8 310.2 314.1 315.3 315.4 315.6 312.3 306.5 300.2 294.5 296.1 295.5 291 284.5 280.9 275.8 269.4 267.1 266.2 265.9 265.7 265.2 266.2 266.1 266.2 262.5 261 261 263.3 263 261.8 260.7 259.8 259.6 261.5 264.5 265.4 268.2 269.1 269.1 261.9 262.6 265.7 267.5 269.6 265.4 261.9 257.6 254.4 253.4 251.2 246.1 246.1 245.2 240.6 239.5 235 234.4 237 236.6 236.7 234.4 234 233 228.1 224.8 220 217.3 213.8 209.2 206.4 203.2 199.5 195.2 191 190.9 190.4 190.4 189.3 190.3 188.9 189.7 191.3 192.9 192.2 189.5 182.5 180.7 181.3 185.2 183 183.7 187.9 191.3 191.8 189.2 187.2 186.3 187 186.2 186 189.4 191.5 191 190.4 194.7 199.7 201.4 201.9 201.6 201.3 202.4 199.9 196.9 195.2 191.2 193 195.3 197 194.5 200.5 204.9 213.6 219.6 221.7 220.2 219.1 221.2 223.6 225.4 228.8 236.2 238 238.3 237.9 239.4 240 238 239.2 240 241.1 240.1 239.6 238.3 236.4 233.4 237.7 226.7 220.9
263 267.6 269.7 275.1 279.8 279.9 281.6 285.1 287 288.8 293.9 300.7 300.9 301.5 302.2 302.3 303 304.1 304.1 303.2 304.4 306.5 309.3 312.7 316.5 318.8 322.2 326 328.7 327.6 321.8 317.6 314.4 311.2 308.9 306.3 302 300.4 300.6 299.4 298 294.1 295.5 295.8 295.9 296 297.2 297 299.3 303.2 307.3 308.2 305.3 305.7 307.3 307.5 306.3 304.8 301.5 295.7 292.5 293.3 291.5 289.4 283.1 277.2 272.4 272.1 262.9 261.9 261.3 262.8 264.5 266.7 266.1 263 260.5 259.8 259.4 262.3 262.9 262.2 258.9 258.3 259 258.1 258.4 260.7 269.5 269.7 268.9 261.4 253.7 256.8 260.2 262.2 259.6 256.2 253.4 246.7 249.5 247.9 240.9 234.3 230.5 230 232.2 229.2 228.2 229.2 229.2 229.1 224.9 222 220.7 218 214.6 212.3 208.8 204 200.8 197.9 195 192.1 188.8 189.9 191 191 189.2 181.3 183.5 182.9 184.2 190.4 190.1 186.2 180 175.2 172.4 174.9 179.9 175.7 175.3 177.6 180.8 180.9 179.2 176 179 179.3 179.8 180.5 182.9 184.7 185.1 186 190.4 195 196.1 196 194.8 192.7 195.4 195.9 191.4 189.4 188.5 187.9 189.5 191.2 190.1 196.7 198.4 208.7 215 217.2 217.3 216.6 219.3 221.4 221.5 218.9 230.7 231.6 232.3 232.7 234 231.9 233.1 234.4 235.5 234.8 231.6 233.5 233.9 234 230.9 231 225.2 223.7
259.2 262.4 269.3 268.9 272.8 275.5 277.1 279 280.2 281.8 286.9 290.9 291.8 292.9 295.3 297.8 300 300.5 301 300.1 300.9 305.3 308.9 311.4 313.7 316 319 321.5 324.3 325.6 321.6 316.3 311.5 309 307 302 301.4 300.8 300.7 299 294.5 290.9 294.1 292.6 294.8 295.5 294.3 293.5 296.1 299.4 302 301.3 299.9 302.1 303 301.9 300 300.7 297.7 294.8 291 289.4 288.5 285.3 281.9 281.3 271.5 265.9 260.2 258.8 260.7 262.3 264.6 265.2 264.6 261.4 259.9 259.4 259.2 262.1 265.6 262.9 258.7 255.6 254.6 254.2 255.5 258.6 267.8 268.6 269.6 261.7 251.8 244.9 252.5 254 253.4 248 241.9 237.9 239.8 239 233 228.3 222.9 221.8 225 223.8 222.6 221 220.6 220.1 215 212.1 206 200.3 196.6 195.5 198.6 194.7 192.4 189.5 187.2 184.9 181.1 179.7 189.5 190.4 186.9 179.9 173.5 175.4 179.9 183.1 182.7 176.1 171.2 168.2 166.7 168.7 172.8 169.1 169.7 170 167.8 165.5 168.1 165.5 169.1 173.2 174.7 175.5 176.8 178.4 178.4 179.9 184.5 189.3 186.4 189.1 188.6 187.7 189.9 190.7 188.8 184.5 183.9 183.5 183 190.6 186.6 188.8 189.2 198 209.1 210.7 211.7 212.1 213.6 215.6 213.7 214.5 219.7 225.6 226 227.8 228.6 228.6 230.5 228.5 228.7 228.8 230.3 230 230.6 230.1 230.2 229.7 225.2 226.6
259.8 263.3 263.7 262.6 267.8 269.9 272.6 273.8 275.2 277 281.5 283.2 284.2 286.7 291.1 294.3 295.5 297.3 296.7 298 300.3 303 306.2 308.6 310.1 312.9 314.9 316.9 320.3 322.4 321 312.9 307.5 307.2 302.5 298.4 296.3 295.8 297.5 295.5 291.5 290.9 290.4 288.7 289.6 289.1 289.3 290.5 293.7 296.2 297.8 298.1 301.1 302.1 305.4 305.1 302 298.1 295.3 292.7 290.1 291.9 290.6 290.1 281.4 273.3 265.9 260.4 258.5 257.7 262.1 263.6 264.8 267.6 264.5 260.6 259.6 259.2 259.8 261 269 265.5 258.2 254.4 253.9 253.7 252.8 255.4 263.1 267.8 261.8 256.9 251.6 245.2 243.1 243.4 239.9 231.7 227.3 226.3 225.7 225.7 225.6 223.1 219.2 217.7 218.8 217.7 216 213.7 207.9 201.6 201.4 200.5 201.3 200.1 194.6 189.6 184.7 187.8 184.5 182.7 180.5 178.2 174.5 169.9 176.8 180.9 178 169.9 165.9 166.4 168 173.4 175.2 169 165.7 163.2 161.9 163.1 164.7 160.6 160.7 159.5 157.4 156.8 158.2 160.2 166.9 168.9 172.1 173.8 175.6 173.7 172.9 174.9 178 179.9 178.4 182.2 184.1 183.3 185.1 185.5 180.8 179.9 179.1 178.6 179.2 185.1 183.6 182.9 185.6 192 203.1 205.6 209.8 209.3 207.8 208.2 207.1 209.1 211.9 218.4 219.2 220.6 219.9 222.1 225.1 220 222.5 223.5 224.1 223.9 226.4 229.2 228.4 220.5 221.7 228.9
256.2 258.2 258.1 259.7 262.1 264.9 267.7 269.6 271 271.7 274.8 276.9 279.1 283.8 288.3 291.9 291.9 290.5 291.2 295.2 299 300.8 302.7 304.4 305.7 308.2 310.2 314 319.1 320.7 317.7 311.2 303.9 299.3 295.9 293.9 291.1 290.1 291.3 291.2 286.7 287.1 286.2 284.8 287.7 289 289.7 290.9 293.6 296.8 299.8 305.1 308.7 310.2 310 310 304.7 298 292.6 289.8 288.8 288.4 284.1 282.3 275.7 267.6 262.6 258.9 258.4 259.5 262.7 268.3 272.9 270 264.4 259.8 259.3 259.3 260.5 259.9 265.5 262.7 256.9 254 253 252.6 251.6 253.1 260.5 266.2 257.3 252.1 246.8 240.9 239 238.8 239.2 235.5 233.5 231.8 230.1 228.3 225.5 222.7 221 220.1 218.2 214.7 210 209 209.7 213.3 214.3 213.2 210.9 206.9 199.7 193 185.2 177.1 177.6 175.4 173.5 171.9 169.6 166.9 167.3 166.9 164.8 160.1 159.8 158.6 159.8 162.9 166.1 161.9 159.1 159.4 157.2 157.3 155.1 153.1 159 157.9 153.1 152.2 152 157.1 162.5 165.7 169.3 173.4 171 169.1 168.5 171.1 172.7 174 172.1 176.3 179.9 177.7 178.5 177.7 175.3 174.8 174.2 174.3 177.2 179.9 180.5 180.9 181.6 188.6 196.5 196.1 201.7 199.1 201.9 201.3 201.3 203.4 205.4 210.2 212.5 213.7 213.2 213.2 218.2 214.1 217.4 219 217.3 218.1 219.4 225.2 226.8 218 218.1 223
252.7 252.4 252.9 257.1 258.4 260 263 265 266.8 268.1 269.3 270.8 274.9 279.5 284.3 287.2 287.9 286.1 288.4 289.6 292.3 295.1 297.7 298.6 300.6 303 306.7 309.6 313.9 313 311.9 309.1 300.1 296.2 292.1 289.3 287.7 285 286.1 286.8 275.8 281.3 281.3 281.3 285.1 288.9 289.9 293.5 298.7 301.9 308.5 316.7 319.2 315.4 311.1 308.7 301.8 295.1 289.6 284.8 281.9 278.8 273.9 271.4 268 262.9 259.6 259.5 259.2 260.9 268.6 276.9 275.3 268.6 260.2 259 258.9 259.2 259.8 260.2 260.5 259.7 256.5 255.1 252.8 251.6 251 250.7 255.2 258.9 251.7 245.9 241.3 239.6 239.1 239.6 243 245.3 244.7 240.4 239.2 237.3 233.3 229.7 227.3 227.3 223.6 217.9 212.4 214.9 219.4 221.4 222.9 220.1 214.3 210.4 199.9 191.4 186.1 182.7 175.6 169.5 168.4 167.8 167.2 163.8 163.4 162.6 161.4 158 155 153.4 153.7 153 157.4 153.4 150.6 148.9 149 149.4 148.1 148.7 150.8 150.6 148.9 147.7 147.3 152 159.6 159.7 164 166.7 165.4 162.5 165.7 169 169.5 167.7 167.4 168.4 170.3 171 172 170.3 169.9 169.4 169.2 171 174.3 175.7 178.2 179.1 179.8 181 186.7 188.7 189.5 189.9 191.4 192.6 196.1 199.2 200.6 203.2 204.5 206.5 206.5 205.7 206.7 209.8 212.3 210.8 209.3 213 215.3 216.6 213.6 210.2 213 212.8
253.1 252.1 251.5 252.5 254.5 257 259.6 261.4 263.1 264.5 265.9 267.6 271.1 273.3 277.1 281 281 282.1 286.1 288 287.9 289.4 291.5 293 295.4 297.8 300.6 303.7 306.3 305.7 307.7 304.3 294.3 289.2 288.2 283.6 281 280.7 277.9 277.7 273.9 278.6 279.2 279.2 282.4 287.2 290.4 295.4 300.2 305.2 309.3 314.1 318.3 313.3 308.3 303.2 299 292.2 288.2 281 276.5 272.1 267.6 263.5 261.4 261.4 261.1 258.5 258.6 261.7 273 277.6 272.3 264.8 259.7 258.7 258.6 258.8 259.2 259.6 259.6 259 255.7 252.1 251.2 250.4 250.2 250.3 248.9 248.6 249 245.9 241.7 242.5 242.8 243 251.1 253.9 258.9 252.8 247.2 242.4 238.7 236.8 238.6 237.4 232.4 225.5 218.7 220.7 224.1 228.2 227.4 220.2 211.4 204.6 196.2 188.6 185.1 182.4 180.6 178 176.9 174.5 169.5 161.5 158.8 158 157.2 154.7 151.6 150.5 150.4 148.7 148.2 147.9 146.7 144.8 144.9 144.4 144.2 144.7 146.1 144.8 143.6 141.7 141.5 147.6 152.5 155.1 159.5 159.9 159.3 156.3 158.7 163.7 165.6 164.1 162.6 164.4 166.7 166.2 165 163.5 163.1 163.4 167.3 173.6 170.8 171.7 176 177.9 179.1 179.6 181.1 183.3 183.8 183.8 183.5 184.2 187.8 196.4 193 194.9 197.4 199 198 199.5 198.2 199 198.5 202.5 201.7 207.9 209.8 206.3 200.8 200.6 206.4 207.3
253.3 251.7 250.8 251.2 253.1 253.6 259 257.8 259.4 260.6 262.2 267.3 266.7 267.6 269.2 271.6 275.6 279.6 280.7 281.6 283.5 285.7 288.8 288.8 289.5 290.7 293.6 296.5 297.8 298.8 298.3 295 288.3 285.2 282.2 278 276.5 275.9 272.8 273.2 276.7 277.4 276.7 276.9 280.6 280.8 283.5 291.2 297.1 303.2 307.4 307.8 309.5 306 302.1 299.5 295.9 287.3 281.3 277 271.9 269.6 264.8 261 259.7 265 266 259.1 259.3 264.1 272.3 274.8 270 264.2 260.1 259.1 258.2 257.4 258.1 256 255.1 254 251.6 251 250.5 251 249.9 248.7 249.2 249 247.5 247.8 245.6 249.7 248.7 250.4 258.2 260.4 260.7 259.1 252.3 246.1 243.5 252.6 255.4 253.6 245 237.3 229.8 224.9 228.8 230.4 223.3 215.2 207.7 200.1 192.2 187.1 185.9 182.8 183 182.4 177.3 173.3 167.6 159.3 157.5 155.7 153.9 151.7 149.3 147.7 146.9 145.3 144 144.7 145.4 143.2 142.5 141.7 141.5 141.3 140.7 139.7 139.7 137.6 138 141 147.3 150.7 153.3 153.3 153.5 151.2 153.2 158.4 159.1 157.2 155.5 154.6 158.1 160.1 159.1 157.5 156 158 166.5 169.3 165.2 169.1 173.9 173.5 173.8 177.2 179.4 181.6 181.1 178.8 178.3 178.3 180.3 185.6 188 189.6 190 192.5 192.9 193.2 191.5 192.7 190.6 191.9 193.4 196.6 200.8 195.1 189.6 191.2 192 192.2
250.8 250.3 249.4 249.2 247.8 248.9 254.1 256.2 256.2 257.6 260.1 264.9 260.1 259.9 262.9 266.2 273.9 276.4 278 277.3 279.3 281.7 283.3 283.5 283.5 284.1 286.5 290.3 290.2 291.1 290.2 288.2 283.2 279.6 275.5 272.7 268.5 268.9 269.9 274.1 275 273.1 272.5 275.1 279.2 279.3 279.7 286.8 292.8 298.3 300.9 299.9 297.5 296.1 298.4 293.3 288.4 282.4 274.2 269.1 269.5 268.1 263 259.5 260.1 268.8 262 259.1 259.4 263.4 268.9 270.7 269.9 264.8 260.4 259.1 256.7 255.7 257.7 253.6 251.5 251.7 252.2 250.9 251.7 251.1 250 249.8 251.6 252.2 251.5 251.6 252.4 256.2 259.8 261.3 261.7 263.7 264.9 266.1 263.4 261.7 262.5 265.6 272.7 273 257.7 245.3 236.6 230.9 228.9 226.9 215.2 207.8 202.6 195.2 188.4 185.8 182.9 181.8 183.7 182.7 175.1 170.2 162 157.8 155.8 154 152 149.7 147.2 144.5 144.2 142.1 141.4 141.7 141.6 141.7 140.5 139.6 138.8 139 137 136.9 136.4 134 135 136.6 140.5 143.2 146 146.9 148.4 147.4 150.8 151.9 152 150.2 148.5 149.1 151.4 153.6 153.7 152.2 149.4 155.3 160.8 160.2 161.1 165.2 171.3 170.4 168.1 170.4 175.2 177 176.3 175.2 174.6 174.8 177.2 180.2 183.3 186.4 189.2 189.4 189.4 187.8 185.6 187 185.4 183.9 184.7 188.1 189.6 183.4 181.8 184.8 188 189.8
249.9 251.1 250.6 250.4 250.7 247.3 248.6 251.6 254.3 256 258.4 257.8 256.8 255.6 258 265.6 271.2 273.2 275.1 273.8 274.3 277.2 277.3 277.8 277 278.4 280 281.5 281.3 282.5 280.5 277.7 275.6 272 269.5 268.3 266.6 265 268.8 271.6 272.9 269.5 272.1 276.3 272.7 275.1 279.1 284.1 288 291.8 292.8 292.2 290 283.8 284.6 283.8 280.9 279.9 272.3 267.7 262.3 261 259.3 259.4 259.8 263.5 259.2 259.1 259.3 261.5 265.3 269 269.6 266 259.8 256 253.2 252.1 255.9 256.4 252.8 252.1 254.6 255.2 255 251.3 248.6 250.7 257.3 258.7 259 260.8 260.2 260.8 261.9 261.7 262.1 263.9 267.2 265.6 265.4 270.2 270.3 269.1 272.5 275.6 264.1 248.9 238.7 230.2 227.6 220 212 204.3 199.3 195.4 190.7 187.6 181.1 178.8 180.3 178 172.7 164.4 158.1 155.6 154.2 153.1 150.6 147.2 144.3 141.4 140.4 139.6 139 138.4 138.8 137.8 137.1 137.2 139 137 133.7 133.1 132.7 130.6 131.9 132.1 133.1 135 138.7 139 140.8 143.6 145 145.6 146.1 143.5 141.5 144.2 145.8 146.3 146.3 145.9 144.9 151.7 153.2 155.3 163.8 167 164.1 161.3 162.7 166.5 170.1 172 172.8 174.2 172.1 170.1 171.8 176 180.2 185.9 190 189.7 183.6 180.7 180 181.4 179.7 178.1 179.4 183.4 179.8 175.9 180 180.7 183 187.2
251.6 252.6 251.8 251.5 250.9 251.8 245.1 246.7 246.3 248.5 252.7 252.3 251.6 252.4 256.3 259.7 265.4 270.3 271 270.8 269 269.6 271 269.4 269.2 270.9 271.1 271 272.2 270.9 268.3 264.3 263.7 263.5 263.9 262.9 261.2 260.9 261.5 268 263.1 266.9 270.8 270 269.6 270.1 275.3 277.7 282.9 286.2 288.6 287.6 284 278.8 274.3 274 270 269.3 265.7 262.7 259.7 259.8 259 259.9 260.6 260 258.1 255.3 258.2 260.2 262.1 265.8 268.7 262.6 257.6 253.2 250 253.1 257.4 257 256.1 257.4 262.7 261.2 256.1 252.5 248.8 250.6 258.5 260 259.1 261.7 261 261.6 262 260.7 260.2 260.7 258.9 259 262.7 268.2 269.3 263.1 265.8 268.6 261.6 244.6 240.8 235.1 226.4 215.1 209.9 202.8 199.6 197.4 192.6 186.4 179.9 177.1 175 172.9 168.8 160.8 156 153.8 153.2 152.3 148.4 143.8 141.3 138.4 138.5 135.2 135.6 134.7 134.1 133.5 133.1 135 136.7 134.1 129.5 128.5 128.8 127.8 127.9 128.4 126.2 127.3 127.7 128.4 131.5 134 136.4 138.9 139.3 137.7 138.9 141 142.5 140.9 139.6 140.8 142.7 145.4 148.3 154 158.7 157.6 154.7 154.4 157 163.7 169.5 169.3 169.9 169.6 168.2 169.9 169.5 172.2 176.2 180.7 188.1 188.6 180.6 174.6 174 172.9 171 170.1 174.2 178.3 175.3 170.7 173.8 175.6 173.6 177
253.1 254 253.1 252.6 252.1 252 252.8 252.7 251.2 247.7 244.8 250.7 250.9 250.8 252.8 255.9 258.9 263.2 264.6 265.1 265.1 263.6 262.1 261.2 262.1 264.2 267.3 264 265.6 264.6 260.5 257 256.1 257.6 259 259.4 255.9 254.2 260.3 261 259 261.3 264.8 265.9 269 267.1 267.6 270.3 272.5 276 278.3 281.9 280.1 275.5 270.9 271.6 270 268.9 263.3 258.8 255.2 259.5 259 259 260 259.1 257.8 256.2 258 261.4 259.4 260.2 260.8 258.1 255 251.1 250.4 256.8 259.4 260.5 261 260.3 259.1 258.3 255.8 252.4 248.2 252.2 256.2 258.7 259.7 259.8 259.4 260 261.9 259.7 257.9 256.7 256.2 256.4 257.5 256.3 255.5 255.6 255.6 260.4 257.2 239 237.7 237.7 225 211.3 206.2 203.3 200.6 198.8 193.8 187 179 174.7 169.9 170 160.2 152.3 151.9 150.9 151.2 148.7 144.7 140.4 138.6 136 134.9 134 132.3 132.6 132 131.1 130.5 130 131.2 129 125.7 124.4 125.3 124.9 124.2 124.8 124.5 124.3 123.6 124.8 126.6 127.4 129.1 131 131.4 130.3 133 135.9 135.5 135 134.2 135.3 137.8 139.7 141.8 147.4 148.7 146.8 146.2 148.7 152.6 157.7 162.2 164.3 164.3 163 164.2 165.3 166.1 167.5 170 173.2 178.8 181.1 177.1 170.2 165.6 162.9 164.3 165.3 167.4 170.7 166.5 162.2 166.5 163.9 162.8 166.2
253.1 255.5 254.6 253.2 252.3 252.1 252.7 254.1 251.2 251.8 244.9 243.6 247.1 246.8 248.9 250.5 253.2 257.3 256.1 256.7 257.5 259.1 257.8 257.1 257.5 258.7 259.4 259.1 259.8 261.4 255.7 253.8 254 254 256.2 251.2 248.2 255.3 257.1 255.1 250.7 253.7 260.1 261.2 261.8 259.1 257.5 257.8 263.2 267 267.5 269.4 269.3 270.5 266.1 270.3 269.1 263 257.1 247.5 247 248.8 251.5 255 258.1 254.8 250.5 257.6 259.4 258.5 260 259.4 259.5 255.6 252.2 251.2 249.5 253.7 259.8 260 260.8 259.5 256.1 254.1 252.3 250.6 248.3 250.4 252.3 254.6 259 255.7 252.9 254.9 255.2 255.7 255.2 250.8 247.9 248.5 246.4 245 244 246.6 248.7 249.4 245.9 235.2 231.4 226.9 216.9 205.9 201.8 200 200 199.2 189.1 181.6 175.9 172.6 168.1 160.1 152.2 146.4 144.8 146.8 148.3 145.7 142.4 139.3 139.1 134.6 131.3 130 131.3 131 130.3 129.2 128 127.1 126.1 125.8 123.1 122.3 122.8 122.7 123.5 124 122.9 122.7 121.9 121.6 121.2 122.7 122.6 123.9 122.7 125.5 128.2 129.3 129.6 128.8 129.5 130.3 131.2 132.5 139.2 139.6 139.8 139.3 140.3 143.5 147.9 149.8 152.4 154.7 156 157.4 158.3 160.3 159.6 161.3 162.2 164 169.5 175.2 172.1 165.3 159.8 156.8 158.1 159.4 161.6 163.5 160.1 156.5 159.4 155.5 156.1 159.7
252.9 253.9 254.2 253.3 253.2 252.9 251.9 250.8 249.3 248.2 248.8 244.3 243.3 239.7 246 246.1 248.2 248.9 248.3 248.4 250.3 251.1 253.2 253.4 254.1 255 255.1 255.1 255.2 255.9 255 253.3 251.6 246.3 250.5 244.3 242.5 249.6 249.4 249.3 246.3 249.5 251 253.4 253 251.4 251.3 254.3 259 261.2 261 261.6 260.9 260.1 258.3 262.8 258.8 249.8 245.8 248.9 249.5 249.6 250.6 253.6 250.9 249.8 248.8 252.7 259.4 259.2 257.6 256 254.8 251.9 250.7 250.8 250.3 251.7 254.1 256.2 255.9 253.5 250.9 249.8 248.1 246.3 245.9 248.6 247.9 254 253.7 249.8 249.7 250.7 252.2 253.8 252.6 249.1 243.6 241 240.9 240.3 235.2 236.2 240.3 240.3 238.4 231.2 225.9 216.5 209.9 201.6 196.1 195.9 195.8 192.2 184.2 177.2 172.6 170.8 163.7 153.3 145.6 140.5 140.6 143 144.3 142.6 139.8 139.6 139.7 136.4 131.4 129.4 130 129.6 128.6 127.2 126 124.3 124.4 124.9 121.6 121.2 121.4 122.1 122.9 123.2 122 121.1 120.8 121.3 121.2 121 120.8 120.9 120.5 121.5 122.2 122.9 123.6 125.4 125.9 125.7 128.8 129.8 133.2 134.2 133.4 136.7 139.1 139 141.7 144.9 147.4 147.8 149.9 152.3 149.3 152.8 152.9 154.3 154.9 156.1 159.3 162.8 160.5 155.7 149.3 150.6 151.5 152.3 154.5 156.8 155.9 150.1 148.3 146.9 151.6 154.2
251.3 252 252.3 252.7 253.9 250.5 250 249.8 249.7 249 247.6 246.7 247.1 241.3 240.5 242.3 242.5 242 242.4 249.2 247.3 249.4 250.2 250.7 251.5 250.5 250.9 251.1 252 253.1 253.4 251.4 244.2 236.2 237.8 235.1 238 242.3 240.3 238.8 240.1 245.2 248.3 246.4 246.4 245.7 245.6 247.2 252 255.7 253.7 256.6 259 252.8 249.9 251.2 253 245.6 247.2 254.3 250.7 249.5 250 250.6 249.5 249.9 249.9 253.3 256.8 257.1 255.3 250.8 249.2 247.7 246.9 247.1 249.6 246.2 246.8 248.4 248.2 245.7 243.1 241.5 241 241.9 241.2 242.1 243.7 244.4 243.8 243.6 244.7 244.1 247.3 249.9 250.4 244.7 238.6 234.2 232.7 232.2 229 230 235.3 235.7 235.5 232.1 229.7 220.7 210.6 198.6 192.9 192.1 192.1 186.7 178.8 173.4 168.9 164 156.4 148 140.7 138.7 139.9 140.8 140.9 139.5 137.8 139.4 138.8 133.6 130.2 127.6 127.8 128.2 127 125.6 124.5 124.2 124 123.7 120.6 121 121.4 121.6 122.3 122.4 121.6 119.6 119.8 120.3 120.3 120.1 120.2 119.9 119.1 118.8 119.1 119.1 120.9 123.3 122.4 123.1 126.2 127.3 129.8 129.9 129.3 130.6 132.9 135.8 139 140.9 142.4 143.2 145.2 147.2 148.1 143.9 144.7 145.3 142.2 145.7 148.8 148.7 147.5 145.3 142.9 141.4 143.1 144.8 145.9 144.6 141.9 138.1 137.5 138.3 140.5 141.6
249.8 250.1 250.3 250.8 248.7 249 248.6 248.1 248.2 248.3 248.6 246.9 246.5 242.4 237.9 242.4 240.5 239.2 246.1 248.4 245.9 246.2 246.3 245.8 244.9 244.4 244.3 246.3 247.7 250.2 250.7 243.4 234.7 230.1 228.6 228.6 232.4 236.9 233.4 234.7 237.2 243 241.4 241 241 240.8 241 243 244.8 246.4 249 248.4 248.2 245.4 243.1 242.4 241.9 241.1 249 250.9 247.8 244.1 243 245 250.3 250.5 255 250.9 253.4 254 251.7 249.2 246.7 243.8 241.5 240.1 242.9 241.1 239.5 240.8 243.1 240.7 237.4 236.2 233.1 239 237.9 236.6 238.7 239.9 237.4 237.2 238.2 238.8 240.7 244.7 244.9 240.1 232.7 229.6 222.3 223.4 226.8 229.8 231.8 234.1 235.3 238.8 234.2 223.4 207.7 193.2 189.1 187.5 187.2 181.9 174 168.5 162.5 156.3 149 142.1 138.9 138.7 140.3 140.2 138.3 136.7 135.1 134 133.6 129.5 127 125.5 126 126.4 125.4 124.1 123.4 122.9 122.6 122.3 120 120.4 120.9 121.3 121.6 121.6 121.1 119.2 119.2 119.6 119.9 119.3 120 119.3 118.5 118 118.2 118.6 119.1 119.6 119.6 120.9 122.9 123.5 125.4 126 126 126.9 128.9 132.6 133.8 136.2 138.3 138.6 140.3 141.7 142.5 141.3 139 137.4 138.2 140.7 138.1 137.8 136 137.3 133.7 132.9 135 136.6 137.9 132.4 130 129.4 129.2 127.4 126.6 126.3
251.6 251 250.2 249.6 244.6 246.5 247.2 246.7 246.5 246.4 246.2 244.1 242.8 241 238.9 238.7 238 237 245.5 242.7 240.1 240.4 241.1 240.6 239.6 239.8 238.4 239.2 238.9 239.2 237.7 234.7 228.4 225.6 223.8 221.3 227.8 231.6 227.9 231 232.3 238.8 237.6 236.2 235.9 235.8 237 237 236.6 235.9 240.7 241.8 240.9 238.3 237 234.8 235.2 238.1 243 244.1 238.7 238.4 242.7 249.1 250.6 256.8 259.6 254.4 249.9 249.9 248.3 244.5 241.7 240.8 238.8 237.5 235.9 234.4 232.7 231 235.6 234.3 231.8 229.9 227.1 228.5 230.2 230.9 233.3 235.7 233.8 232.2 231 232.8 239.2 234.4 230.9 229 223.8 221.2 218.4 219.8 224.2 229.6 230.8 231.5 233.7 235.1 228.6 216.8 202 187.8 183.1 182.5 180.5 177.7 170.7 164.4 156.9 149.1 142.8 136.9 135.1 139.2 139.8 139.6 137 134.4 132.3 130.4 128.4 125.9 123.6 123.6 124.1 124.6 123.9 122.8 122.3 121.9 121.3 120.6 119.4 120 120.6 121.3 121.1 120.5 119.9 119.2 119.2 119.2 119.4 119.5 119.5 119 118.1 117.1 117.5 117.9 118.2 118.6 118.7 119.6 120.6 121.1 121.7 121.8 122.6 123 125.5 128.4 128.9 129.9 130.9 132.4 134.7 137.2 138.5 137.2 134.2 131 131.5 131.3 129 127.8 128.4 127.9 125.4 125.6 127.2 126.9 126.4 124.2 122.5 120.8 120.6 120 118.8 117.7
251.3 250.5 249.5 249.6 248.1 244 245.3 245.5 245.6 245.1 244.2 241.4 240.1 239.2 239.2 238 237.3 235.8 234.9 235.7 234 234.4 234.9 235.7 234.9 233 232.5 232.2 230.4 227 226.5 224.9 222.7 219.9 219.8 216.9 223.6 227.3 227.8 227 229.9 234.3 232.3 232.1 232 232.7 233.5 233.9 232.9 233 233 234.3 233.6 232.4 232.3 231.5 232.4 234.6 235 235.2 235.9 237.6 240 243.7 248.6 252.6 251.9 246 244.1 243.7 239.1 237.2 236.3 235.6 233.9 231.4 229 227.5 226.3 221.8 224.1 224.9 222.8 224.1 221.3 223.8 227.7 229.2 230.1 231.6 229.7 226.4 226.6 228.4 229.8 227.2 222.6 221 219 217.1 217.2 219.4 220.9 224.3 222.8 223.4 225.3 225.7 219 212.7 197.5 184.4 177 177.7 176.6 176.2 166.5 158.4 149.3 143.2 139.4 133.1 131.3 136.1 140.6 139.4 134.9 131.4 129.4 128 125.7 123.4 122.2 122.1 122.2 122.7 122.3 121.7 121.2 120.8 120.3 118.6 121 121.7 122.4 123 121.3 119.8 119.2 119.2 119.2 119.2 119.5 119.1 119 118.9 117.9 116.7 116.6 117 117.4 117.7 118.1 118.7 119.4 119.3 119.7 120.8 121.2 122.6 124.2 124.7 125.1 126.1 127.6 129.6 129.1 131.4 132 130.9 128.9 127.1 126.4 125.1 126.3 124 124.4 123.3 123.1 122 121.5 121.4 119.3 118.1 118.4 117.6 117 117.2 116.4 116.3
248.6 249.2 248.9 247.8 246.8 245 244.2 244.6 244.7 243.5 242.8 242.6 243.2 243.3 241.5 240.8 239.7 238.8 237.2 233.2 230.3 228.4 230.2 229.8 228.9 226.6 226.4 226 223.8 219 219.9 217.2 214.7 214.2 212.9 213.4 220.2 223.1 227.6 223.1 226 228 227.9 227.7 229 229.4 229.9 230.1 229.6 229.7 227.2 226.7 224.6 224.2 224.2 224.8 229.5 230.5 231.9 230.6 235.5 236.2 238.1 241.5 245.4 247 243.7 236.8 237.4 236.3 233.9 232.7 231.6 230.8 228 225.3 223.8 222.1 220.3 216.5 214.3 212.3 211.7 214.9 218.7 221.2 224.8 224.2 223.2 219.6 218.4 221 222.6 223.4 221.1 219.8 216.4 214.9 214.9 215.2 215.3 215.3 216.1 214.7 214.3 215.1 216.8 217.7 212.9 205.4 189.9 176 171.5 177.2 179.2 166.5 158.5 152.2 146.4 140 134.5 130.6 130.6 135.9 137 134.8 130.7 127.3 125.8 124.7 122.8 122.2 121.2 121.2 121.2 121.1 121 120.6 120.1 119.7 119.2 123.3 123.5 123.1 123.9 120.5 121.5 119.4 115.6 119.2 119.6 120.1 120.2 119.1 118.9 118 117.4 116.3 115.7 116.1 116.6 117.3 117.1 117.5 118.2 118.3 116.7 118.4 118.5 120.2 122.4 123 123.4 123.8 123.8 124.8 125.1 125.3 125.4 124.7 124.9 123.6 122.5 122.6 122.3 122.9 121.4 120.5 120.3 119.9 119.2 117.4 116.9 116.7 116.3 116.2 115.8 115.4 115.2 115.1
247.4 249 248.1 246.7 245.6 244.5 244.2 243.8 243.6 243.4 245.4 246 246.8 247.5 245.5 243.5 242.1 241.6 239.4 235.9 232.2 227.6 222.4 221.7 222.4 221.8 221.4 219.5 218.2 214.3 212.8 212.3 209.5 208.7 209.1 205.9 215.1 219.4 220.3 216.7 214.6 220.4 222.8 222.8 228.4 225.5 226.4 226.4 226.6 225.5 223.8 221.2 216.8 220.2 219.2 219.6 225.1 225.4 224.8 227.7 231.8 233.1 235 237 241.3 241.3 237.3 235.1 232.9 231.7 229.1 227.6 228.2 227.4 223.7 220.4 218.7 216.7 214.4 207.3 207.3 206.5 205.5 207.9 212.2 216.1 214.2 213.7 213.5 212.7 210.5 215.5 219 217 211.8 212.4 210.2 210.3 211.7 210.3 208.5 208.7 206.6 204.3 203.5 207.7 209 211.6 208.2 198.9 183.8 167.8 165.6 170.3 172.7 154 152 150.5 143.4 133.5 129 128 129.5 128.9 128.8 128.1 125.1 123.3 121.9 121.3 121.1 121.1 120.3 120.3 120.3 120.5 120.1 119.9 119.4 118.9 118.2 117.8 122.1 123.2 115.4 111.9 111.8 112.1 112.2 121.1 121.1 120.9 120 118.2 117.1 115.7 114.5 115.2 115.9 116.6 117.4 117.2 116.6 116.7 117 117.3 114.2 114 114.3 114.5 118.8 119.8 120.9 120.4 119 119.8 120.1 120.3 120.6 120.5 120.9 119.4 119.8 121 121.1 121.5 119.3 117.6 117.9 117.9 116.9 115.7 115 115.6 115.1 115 114.8 115 115.7 115.1
248 249.1 247.5 246 244.7 243.9 244.1 242.9 244.1 246.7 249.3 250.6 250.7 252.1 250.3 247.5 246.4 242.4 239.4 238.5 234.1 231.8 226.6 221.6 218 218.9 217.3 213.4 212.3 210.9 209.9 208.8 208.8 209.9 206 204 204.6 212.4 216.1 211.4 209 215 220.5 220.3 220.9 221.9 223.5 223.3 223.4 222.3 221 217.3 210.4 211.4 213.3 216.4 218.9 215.2 218.2 219.9 223.7 226.7 229.3 233 238 239 236.4 233.4 231.1 226.5 224.2 222.9 224.6 223.2 220.8 217.9 213.2 211.2 207 199.9 201 201.6 199.9 198.7 203.3 206 208.7 208.3 206 205.2 203.1 207.6 210.9 208.7 207.1 210 207.9 204.2 205.2 203.6 201.8 198.3 195.9 194.6 193.5 199.1 197 199.6 197.8 190.3 177.8 164.6 157.4 158.6 158.1 147.1 145.5 144.3 135.5 128.9 126.5 124.1 123.6 122.5 123.1 122.9 121.7 120.2 120.4 120.4 120 119.6 119.5 119.6 119.8 119.2 119 118.9 118.5 117.9 117.2 116.5 114.4 111.8 116.1 115.4 113.8 114.7 112 117.9 120.4 120.5 117.1 116.1 115.5 112.9 112 111.9 112.2 115.4 117.7 117.1 116.5 116.3 116.3 115.4 113.8 113.8 113.8 113.8 113.8 115 117.5 115.3 114.4 114.9 115.1 115.3 115.7 116.2 115.7 115.3 117 119.1 119.7 118.8 116 115.1 114.2 115.7 115.9 114.3 114.3 115.7 115.4 115.1 115.1 115.2 115.2 113.2
248.6 248.5 247 245.6 245.5 248.7 247.4 243.1 245.9 248.9 251.2 256.8 261.8 259.3 255.4 249.2 246.9 244.5 241 238.6 236.1 234.3 230.5 225 222.7 219.8 216.8 215.7 214.3 212.8 211.7 211.7 212.1 214.4 213.9 211.3 206.9 198.3 201.4 203.4 203.2 212.4 216.5 218.2 218.2 219.5 220.7 221.2 219.6 217.3 215.4 208.2 205.4 209.8 210.8 213 211.7 210 209.2 213 217.7 222.1 225.7 229.8 236.4 236.5 235.3 231.7 229.4 223.9 219.7 220.3 220.7 218.7 216.7 212 208.3 206 202 197.1 196.4 196.9 195.3 194.5 193.3 196.4 196.7 197.9 198.9 199.7 198.6 200.4 203.2 204.3 203.9 203.1 200.5 197.4 198.7 194.8 190 187.9 183.9 184.2 184.6 184 184 185.6 190 181.8 167.9 158.9 151.2 146.9 144.8 138.6 134 137 129.7 125.8 123.9 122.2 121.5 121 121.6 121.8 120 119.5 119.6 119.3 119.1 119.1 119.2 119.2 118.9 118.1 117.8 117.5 116.9 116.9 116.1 114.3 111.8 115.7 115.8 115.9 115.3 113.2 111.8 112.1 114 114 112.8 112.1 111.8 115.1 114.1 113.9 113.1 112.1 116 116.7 116.4 115.9 115.8 113.6 114.4 113.1 114 114.3 113.8 113.3 114.5 112.4 112.2 112.2 112.4 113.3 113.8 114 113.9 113.8 114.6 114.8 114.4 114.3 114 113.5 113.2 113.6 114.1 113.9 112.5 113.9 112.6 113.3 114.7 113.1 114.9 112
249.1 249.4 249.6 249.6 249.5 250.4 247.4 243.7 247.1 250.3 253.9 259 269.7 269.5 258.3 252.8 252.9 248.7 247.4 246.4 243.3 238.4 233.5 229 227.9 225.2 221.5 218.2 216.7 215.5 215.1 214.7 219.4 221.4 219.7 216.2 213 208.4 199.6 193.3 198 210.2 211.3 213 214.4 217 220.2 217.9 211.1 209.6 204.8 199.5 197.7 203.2 202.5 201.8 201.5 204.9 210.3 208.7 215.1 219.6 223.7 227.6 231.3 232.7 231 225.9 221.6 219.4 218.5 218.1 216 211.6 208.6 205.8 204.8 201.7 197 194.1 192.8 192.4 190.6 188.1 186.3 190.3 189.7 189.6 191.1 192.6 193.5 194.5 196.7 200.7 198.3 195.5 194.8 193.7 195.4 187 182.7 177.9 174.1 172.3 172.9 172.3 171.4 171 173 168 154.9 150.8 144.9 141.2 140.2 135.1 128.9 127.5 125.4 124.2 122.9 121.1 120.5 120.3 121.5 120.6 119.6 119.1 118.7 118.7 118.6 118.5 118.8 118.2 117.9 116.9 116.5 116.2 115.6 114 112 112.9 118.5 118.7 117.8 117.8 118.3 119.1 116.7 116.4 114.9 113 115.1 115.6 117.3 120 117.8 119.9 119.4 114 113 115.9 115.7 115.2 113.4 112.3 112.4 112.2 112.6 112.9 112.7 113.4 112.2 112.2 112.9 114.7 112.2 112.3 113 114 113.2 113.1 113.5 113.2 112.9 112.7 112.5 112.2 112.4 112.4 112.2 111.7 111.9 111.7 111.7 111.7 111.8 112 111.9 115.8
249.2 249.4 249.6 249.7 249.8 252.1 247.4 244.6 247.7 249 252.2 260.2 268.4 266 254.8 257.9 265.2 259.6 257 256.7 253.5 244.1 238 234 229.7 228.5 224.9 221.6 219.3 219.2 219.8 223.3 229 229.3 225.6 220.7 213.8 207.9 202.1 188.2 195.8 202.7 206.3 207.5 208.7 207.8 208.6 208.9 205.2 201.7 194.9 191.2 190.9 192 192 194.4 195.5 200.2 205.9 207.3 210.3 214.7 219.1 224 226.5 226.4 224.6 219.2 215.5 213.6 212.7 211.6 210.3 206.4 203.2 202.7 203.4 202.6 194.8 189.8 188.7 186.5 182.8 180.6 180.1 186.9 189.4 189.3 189.7 190.5 190.7 190 187.7 189.4 193.3 192.2 190.4 192.4 188 180.4 175 168.9 165.1 161.4 160.4 159.5 158.7 158 159 154.6 145.6 142.3 139.3 140.3 137.2 129.7 125.8 123.1 122.8 122 120.9 120.2 120.4 120.7 120.6 119.8 119.1 118.5 117.6 117.9 117.8 117.7 117.9 117.1 117 115.9 115.4 114.9 114.4 113.9 122.4 120.5 120.5 119.9 120.2 120.1 120.6 121.7 121.6 121.8 121.1 122 122 121.6 122.1 121.2 120.8 121 120.9 114.8 112.2 112.2 112.8 112.2 112.2 113 113.1 112.8 112.4 112.3 112.4 112.2 112.5 112.6 112.8 113.4 113.5 112.2 112.3 113.7 112.6 112.3 112.2 112.2 112.2 112.2 112.2 112.5 112.9 113.9 116 117.3 118.5 117.8 116.2 117.4 116.5 112.9 113.9 115.2
248.9 249.3 249.5 249.7 251.3 252.3 249.1 250.6 247 249.1 253.4 258.9 261.8 260.1 255.8 259.7 269.2 280.7 278.4 267.2 258.2 250.4 244 240 237 232.9 228 224.7 226.1 230 230 230.5 234.3 230.3 223.2 220.2 213.4 207.9 202.9 192.8 190.9 196.1 199.2 201.7 201.2 198.7 197.6 196.3 191.1 193.7 191.6 190.6 189.6 189.2 190.3 189.3 192.8 197.1 201.2 204.7 207.5 212.1 212.3 216.4 219.4 216.8 213.8 210.5 210.1 209.9 210.4 210.1 208.5 205 202.7 201.3 203.2 198.5 192 185.9 181.4 180.8 178.8 179.2 181.3 186.6 189.9 190.1 189.8 188.7 189.8 188.1 184.5 181.5 187.4 187.7 187.1 183.7 179.1 175 169.6 162.3 158.2 154.4 150.3 146.6 145.9 146.9 145.2 144.5 141.4 137.4 135 133.4 131.3 126.7 123 120.9 120.5 121.1 120.8 120.6 120.9 120.6 120.2 119.6 118.3 117.9 116.7 117.1 117.1 117.8 116.9 115.9 116.1 115.1 114.5 114.2 116.4 121.3 121.1 121.8 122.8 123.6 123 123.7 123.7 123.9 124.3 125 125.4 125.5 124.9 124.5 124.5 124.2 123.7 122.8 120.8 117.7 115.8 113 113.1 113.6 114.4 115.1 114.6 114.2 113.7 113.2 113 113.2 113.3 113.1 113.3 113.6 114.9 114.1 112.2 112.2 112.2 112.6 113.5 114.1 114.2 114.1 114.4 114.9 114.7 115.2 117.1 118.1 119.4 119.4 117.7 118.7 120 116.9 117.8 118
251.1 249.8 247.7 249.2 251 250.5 251.4 249.8 248.4 251.9 255.9 261 262.8 261 258.1 260.2 268.5 277.1 279.9 270.4 261.6 252.7 248 247.3 241.9 240 232.8 227.7 228.3 229.9 230.3 230.4 230.9 224.2 221.1 219.5 213.2 206.7 199.2 191.6 187.5 192.1 195 195.1 194.3 191.7 189.7 188.2 190 191.6 191.1 190 184.7 182 183.6 186.5 191.2 194 195.8 198.8 200.4 204.2 207 208.3 209 206.9 207.1 206.1 207.7 207.7 209.1 209 207 204.5 201.7 200.9 198.1 192 185.9 181.5 177.9 175.3 174.5 178.1 179.8 181.9 184.8 188.8 185.9 185.8 186.2 187.9 180.2 172.4 173.3 174.8 174.8 170.1 170.3 169.7 164.3 156.9 153.5 147 142.4 138.3 137.8 139.5 140.4 141.1 139 134.1 132.2 128.3 127.5 130.1 123.5 119.5 119.2 120.1 120.7 120.6 120.2 119.8 119.8 119.4 116.7 117.3 116.1 115.4 116.5 117.9 115.9 114.5 114.5 115.1 118 120.2 121.3 122.3 123.2 124.3 125 125.8 126.8 130.3 130.3 135.4 134.5 138.8 134.2 129.4 128.3 127.7 126.9 126.6 125.5 123.2 120.5 119.2 119 116.8 116.3 116.4 116.6 116.7 116.1 115.6 115.1 114.9 114.7 114.5 114 113.8 113.9 114.9 116.9 118.5 117.9 114 114.7 115.8 116.4 117 116.1 116.1 116.5 117.5 116.4 116.9 118.2 119.2 119.2 119.5 119.1 117.7 120.8 121.1 121 121.3
255.6 253.9 251.6 251 251.3 252.4 253.4 251.6 254.1 257.9 260.3 264.7 267.3 261.9 258.9 260.2 268.4 276.8 275.2 265.2 260.3 255.6 252.3 252.6 250 245.4 237.3 231.5 228.3 230 230.5 230.5 222.4 219.6 220 220 211.2 202.9 195.8 191 184.4 186.2 190 189.1 188.6 191.5 191.1 190.6 189.5 185.6 186.9 183 178.8 175.2 177.6 183.3 189.2 190.3 188.8 191.2 194.5 196.4 199 200.1 201.5 201.7 202.1 202 203.5 205.1 209.1 208.8 206.5 202.4 198.8 194.5 186.9 182.9 180 177.2 174.1 170.6 169.2 174.4 176.8 179 179 180.5 183.3 180.9 181.8 180.2 175.6 172.2 167.4 163 163.7 161 161.2 162 158.5 150.6 145.2 140.8 136.1 134.8 134.7 135 144.3 144.7 135.8 131.1 128.7 124.5 124.8 128.4 120.2 119.8 119.2 120.2 120.6 120 119.2 119 118.6 119.1 116.7 115.2 114.7 114.8 114.8 114.7 114.9 119.3 123 123.8 125.1 127.2 127.5 129.2 129.8 130.1 130 132.5 134.3 138.8 141.4 142.5 141.4 143.3 145.2 141.7 137.7 133.8 128.9 128.1 127.1 125.8 123.4 122.6 120.8 120.3 119.4 119.2 119 118.3 117.6 117 116.7 116.6 116.5 117 116.4 116.2 116.7 118 120.3 121.1 120.4 117.3 117.9 118.9 119.3 119.9 118 118.1 119.1 120.1 118.8 118.8 120.3 119.8 118.6 117.9 118.9 120.3 122.3 122.7 124 125
260 258.4 255.9 253.5 252.4 254 255.6 254.9 259.3 260.3 263 268.4 269.6 265.7 259.4 258.9 266.8 269.9 269 267.4 262.4 259.8 258.2 256.1 254.2 251 244 238.4 231.9 228.5 227.2 220.7 217.1 214.6 212.6 207.8 204.5 200 195.1 191.6 187.4 182.9 179.1 177.9 185.1 191.3 191.4 190.2 186.3 181.4 178.3 174.2 170.7 170.4 170.3 179.7 179.4 183.2 183 186.3 189.3 190.8 193.5 194.7 196.6 197.1 195.5 196.9 198.7 200.1 206.7 206 198.9 192.9 189.8 183.7 176.6 177.7 177 174.4 171.5 169.2 169.3 170.8 173.1 175.5 175.3 177.9 179.5 176.6 179.5 179 173.1 171.7 164.8 161.1 157.1 147.9 153 154.8 149.3 143.3 137.2 133.5 130.6 131.2 129.7 134.3 139.8 145.7 134.8 129.2 125.7 121.3 118.7 118.9 118.8 118 117.9 118.9 118.1 117.1 117.5 117.3 116.7 116.7 114.6 114.6 116.5 118.9 122 123 125.2 129.8 134.9 138 139.1 139.4 138.5 137.4 137.2 137.1 137.1 141.9 144.3 146.5 147.7 147.5 148 149.8 149.7 146.5 144.2 139.7 136.6 130.9 130.6 130.2 128.5 126.8 126.4 125.3 124 123.4 123 121.6 120.5 119.5 118.9 118.4 118.2 118.6 119.3 119.7 120.1 120.8 122.9 122.5 121.7 120.6 121.1 122.1 122.3 122.3 122.2 122.6 122.3 122.6 122.3 122.3 121.6 120.8 120.8 120.9 121.4 122.5 121.6 123.3 126.2 128.3
262.1 261 259.9 257.3 257.2 256.8 257.7 258.7 259.3 259.7 265.3 269.7 270.5 268.3 260.8 259 266.4 268.8 269.3 268.2 265.9 263.8 261.2 259.8 258.3 257.7 258.1 245.6 232.7 228.1 224.1 217.9 210.1 208.4 204.8 200.9 201.2 200.4 199.2 192.3 191.4 189.4 183.4 175.9 169 183.6 186 183.9 181.2 177.4 172.2 167.8 165.1 165 168.8 175.1 176 177.2 180 181.4 183.6 186.6 189.5 191.3 192.6 192.4 189.7 190.8 193.1 194.5 199.3 200.4 192.3 184.9 181.3 175.2 171.9 173.3 175.8 172.7 170.2 167.8 166.9 167.2 170.1 172 171.6 172 171.8 176.5 172.2 171.1 167.9 164.9 161 156 151.6 143.4 141.8 141 137.4 135.9 130.6 128.2 125.6 126 126 130.6 134.1 137 132.6 124.5 121.3 118.6 117.3 117 118.2 117.4 116.5 114.3 115 117 115.7 116.2 114.8 114.5 117.4 119.7 122 125.7 127.8 130.6 134.1 139.1 146.6 146.2 143.6 144 143.5 141.7 142.4 145.2 148.5 151.1 150.2 151.6 152.1 152.9 154.2 152.7 152.2 149.9 147.1 143.7 139.7 137.2 139.3 142.2 142.5 143.5 139.7 136 133.1 129.9 129.8 127.7 125.6 123.8 123.1 122.5 122.4 120.5 122.7 123.3 123.5 123.5 123.6 125.6 127.1 128.5 130 130.9 130.4 132 131.5 128.7 129.9 129.9 129.9 129.2 126.5 122.5 122.6 123.1 122.5 123.6 124.9 126.8 131.7 137.2
263.4 261.5 261.4 261.2 259.2 259.6 260 260.7 260.8 262.9 266.9 269.3 270.1 267.5 259.2 259.8 265.2 269 269.9 269.3 267.9 266.2 264.9 263.8 265 270.1 260.7 246.7 241.1 234.4 224.8 214.8 207.4 201 199.3 200.4 202.9 200.3 198.2 193.1 191.3 190.8 187.8 183.9 179.6 170.7 172 169.7 172.7 173.3 168.1 163.6 160.7 161.6 167.2 169.9 170 172.7 177.4 180.5 180.5 183.9 187.1 189.9 191 190 189.2 190.7 186.7 185.4 187.4 186.5 180 177.9 177.1 173.8 170.9 169.5 168.6 168.9 170.2 166 163.3 162.7 165 165.4 164.2 164.4 169.4 168 166.4 163.6 161.5 155.8 154.2 149.8 143.7 138.7 134.7 135.9 129.1 127 124.5 122.4 120.7 120.6 120.7 123.1 125.9 128.9 129.2 121.9 118.5 117.3 116.1 115.2 114.5 116.1 116.5 114.5 114.7 114.5 114.6 114.6 115.4 119.6 123.1 125.8 128.6 132.8 136.4 138.5 141.7 145.4 149.6 149.7 147.8 148.1 147.8 145.6 146.3 150.3 153.6 155.8 155.1 156.7 157.5 156.2 156.7 158 156.6 152.9 149.1 148.2 145.5 147.8 149.6 151.4 150.7 152.5 149.9 147.1 144.7 139.8 139.7 137 134.9 134.2 130.1 127.7 129.6 127.5 133.8 139.6 143.3 149.9 152.1 149.6 149 146.2 149.7 148.6 143.2 144.4 142.9 137.7 140.1 139 138.6 136.3 137.4 134.9 131 129 130.2 130.1 133.7 137.9 146.6 150.2
261 260.4 264.5 264.1 260.3 261.4 262.2 262.3 264.4 267.7 269.3 269.3 270.3 262.3 257.9 261.4 265.3 268 270 269.9 269.6 269 268.4 269 270.4 265.7 256.5 251 248.1 239.4 227.6 215.3 209 201.3 199 201.3 201.5 200.8 197.6 197.9 191.8 190.9 189.9 189.2 187 180.8 171.1 167.2 164 163.4 167.1 159.9 159.8 159.9 162.5 165.5 167.9 170.3 175.6 180 180.8 182.6 188.5 191.5 191 188.6 183.5 180.3 179.2 179.3 176.1 173.2 172.2 172.2 172.9 170.9 169.5 166.4 169.7 166.3 162.4 161.5 159.7 159.3 159.6 156.1 153.7 161 164.3 158.5 157.8 156.5 155.3 150.1 145.7 141 137.2 133.1 130 127.3 123.9 122.4 120.5 119.6 119.6 119.2 118.9 119 119.1 121.7 121.6 118.9 117.6 116.4 115.1 115.5 116.4 114.7 114.5 115 114.7 114.4 115.9 118.2 121.8 125.2 128.4 133.2 137.8 140.3 144.9 146.9 147.7 148.6 149.9 150.1 151.1 153.3 152.1 150.6 151 156 162 160.2 159.2 162 161.7 159.4 160.5 162.4 162.8 157.7 154 156.9 154.5 154.4 155.9 158.9 159.8 160.3 158 155.4 152.8 150.4 148.8 146.3 144.5 145 144.5 142.7 142 145 148.7 150.6 156.4 159.1 161.2 162.8 161.1 163.4 166.8 166.2 158.4 157.1 156.8 153.8 153.7 151 149.7 150 153.4 152.6 150 147.8 143.9 143.9 151.5 156 158.3 162.4
259.4 259.6 264.5 267.3 259.2 259.3 260.7 267.3 269.8 269.2 270 270.6 267.7 260.5 259.7 260.3 262.5 266.8 268.8 269.5 270.3 270.5 270.6 270.2 269.2 262 259 256.9 253.2 243.1 229.3 217.3 208.7 200.5 198.3 199.5 199.9 201.5 203.6 199.2 194.5 190.9 190 190.4 188.5 184 176.5 172 169.3 147.5 158.1 160.9 156.9 156.6 159.7 161.6 166.3 169.4 174.3 179.6 181 181 186.1 189 190.5 181.6 176.1 172.6 172.8 172.8 170.4 166.5 166.9 167.5 168.1 167.4 166.1 162.8 159.9 159.3 160.7 160.6 155.5 153.9 153.4 151.7 149.4 155 152.5 148.2 148 148.8 146.1 143 138.8 134.5 132.1 126.6 125.9 123.3 121.2 120 119 119.1 118.7 118.3 118 117.8 118 116.9 117 117.4 116.5 115.6 115.4 115.3 115.1 115 114.6 115.1 114.4 117.8 122.3 124.6 128 133.6 138.3 143.1 146.9 147.7 153.1 154.6 154.8 155.4 157 159.5 159.4 158.7 158.1 159.1 158 161.9 165.9 166.4 167.1 167.5 166.2 164.6 162.9 162.3 162.6 161.3 163.4 163 162.9 162.5 163.8 165.6 166.1 168 166.1 162.8 160.5 159 157.1 155.5 156.9 157.3 158.1 157.2 156.9 153.8 158.6 162.8 165.9 170 171 172.2 171.8 175 176 174.5 171 169.3 166.5 164.3 164.8 162.7 164 165.6 170.3 167.5 170.7 171.2 169 168 166.8 170.2 172.9 175.4
258.3 257.4 262.4 260.9 258.4 258.2 261.1 268.7 271.7 268.7 271.6 269.6 264.2 261.7 259.7 259.8 260.5 264.6 266.2 266.8 267.5 268.2 270.1 273.6 270.5 267.7 264.3 262.9 259.7 245.2 233.1 222.4 209.7 203.3 197.3 195.8 200.9 205.5 205.1 198.9 193.1 190.7 189.8 189.9 190.8 186.9 176.5 169.7 165.6 160.6 145.8 144.3 148.5 153.7 156.4 157.6 163.2 167.3 172.3 176.3 178.9 180 179.9 177.9 176.4 172 169.8 166.5 166.9 166.3 164.8 162 161.3 162.6 163.1 162.8 162 158.9 155.6 153.5 154.3 153.1 149.2 146.7 149.8 146.9 143.7 143.4 142.3 138.8 139.8 137.5 135.2 133.4 131.1 128.6 127.5 121.7 120.4 121.5 119.7 118.9 118.6 118.2 117.8 117.5 117.3 117.1 116.9 116.6 116.4 116.1 115.7 116.6 115.6 115.4 115.3 116 115.9 115.2 119.5 124.1 126.6 131.5 137.6 143.1 147.9 150.6 151.4 153.8 160.3 161.3 162.9 166 167.3 166.8 165.5 164 164.7 165.1 164 169.3 173.2 174.2 175.2 174.1 172.9 172 169.8 167.4 164.3 164.1 168 168.9 172.3 179.1 179.2 178.5 175.2 175.4 174.1 171 169.8 167.7 166.6 165.8 166.1 167.3 167.8 166.3 164.3 164.2 167.7 171.3 175 179.4 178.7 179 183.1 183.2 184.8 184.4 179.2 177.7 175.1 174.9 176.5 176.4 179.1 180.9 181.9 180.8 179.9 183.7 182 183.5 187.1 185.2 192.4 192.7
