ncols 200
nrows 87
xllcorner 560000
yllcorner 163000
cellsize 50
92.3 97.3 102.3 106.8 108.6 108.9 109.5 109.9 109.3 108.7 108.2 107.8 108.4 108.9 109.5 108.5 107.1 105.3 104.7 102.1 98.5 95.7 100.4 101.7 103 104.8 106 106.1 106.1 106.5 106.4 106.1 105.8 105.3 102.6 98.6 93.6 87.6 79.8 74.6 73.9 77.2 82.7 89.1 93.9 98.6 101.5 103.1 104.7 106.1 105.7 104.4 103 101.2 99.4 98.2 96.9 96.9 97.4 95.4 91.8 87.3 81.8 75.9 71.6 73.2 76 76.9 78.1 81.4 84 86.7 90.2 92.1 93.6 95.6 97.5 98.8 98.7 98.8 98.5 93.9 92.2 92.7 92.8 91.6 90.6 92.4 95.5 95.5 95.6 95.2 93.9 93.4 94.3 96.4 97.3 98.6 99.7 100.8 101.4 101.4 99.6 98.6 98.6 98.7 98.9 98.5 98.1 97.7 96.8 96.1 97.6 97.4 97.4 97.3 97.2 97.2 97.2 96.6 96.1 95.2 94 92.3 89.9 86.2 83.5 81.4 83.2 83.4 83.5 84.9 84.9 85.8 87.1 88.5 89 89.6 89 88.4 86.9 86.3 85.8 85 83.5 82.1 80.8 79.6 77.9 75.6 72.9 69.8 65.8 61.6 58.8 54.5 51.8 49.5 46.1 41.2 37.6 35.8 34.6 33.5 33.3 33.7 32.8 33.3 32.6 31.6 30.8 29.5 29.2 28.8 28.5 31.1 39.6 47.4 48.2 42.2 40.6 49.8 53 56 55.7 54.2 52.3 49.2 45.6 43 40.5 38.1 33.3 28.9 25.9 22.7 20.4 19.9 22.1 23.1
87.3 92.9 98.6 104.2 108.1 109.9 110.5 111.2 111.2 111.1 111 110.6 109.6 110.2 110.3 110 108.8 106.8 104.5 102.1 97.8 101.5 103.7 104.6 105.4 106.6 107.2 107.7 107.3 107.1 106.7 106.4 106.1 105.6 102.8 96.5 90.6 83.8 76.7 74.1 75.3 79.8 83.9 89.9 94.4 99.1 101.9 103.9 105.9 107.6 106.9 105.7 104.4 102.8 101.3 99.7 98.5 99.9 98.6 95.7 91.3 86.2 79.8 73.9 74 76.9 79.6 81.6 81.3 81.7 84.7 87.6 91.9 92.2 94.8 96.5 98.7 100.2 100.8 100.4 98.8 96.2 94.2 95.1 95.2 93.7 92 93.4 97 97.1 97 96.9 95.9 95.6 97.5 97.1 98.4 99.6 100.8 101.9 102.6 102.9 101.7 100.3 99.8 99.9 99.8 99.4 98.6 97.7 96.8 97.1 98.5 98.5 98.3 98 97.9 97.8 97.5 97 96.2 94.8 93.4 91.6 89.5 86.3 82.4 77.4 79.8 79.6 80.1 81 80.6 81.7 83.1 83.6 86.5 86.3 85.1 83 81.8 81.2 81.1 81.8 80.5 79.3 77.5 76.9 75.7 72.9 69.8 66.5 62.1 57.7 54.9 51.3 49.3 46.7 43.6 39.5 36.8 35.5 35.4 34.8 35.4 36.2 36.8 38.2 38.6 37.4 34.7 32.4 31.3 30.5 28.9 28.1 31.4 40.8 44.3 39.5 41.2 48.2 50.8 51 49.6 48.5 45.7 42.7 39.5 36.5 33.3 29.8 26.3 23.1 19.8 17.4 16 16.2 16 16.6
86.2 91.8 97.4 102.9 107.4 109.5 111.5 111.9 112.2 112 111.8 111.4 110.8 111.2 111 110.9 109 105.8 104.5 101.1 98 104.5 106 106.8 107.7 107.6 108.3 109.1 108.7 108.1 107.2 106.7 106.4 105.9 102.5 97.4 90.8 82.9 75.5 74.5 75.8 81.1 85.7 91.1 95.6 100.1 102.8 105.1 107.3 109.4 108.4 107.1 105.9 104 102.3 100.3 100.8 101 98.6 95.3 90 84 77.1 73.1 75.6 79.7 83.1 85.5 85.6 84.3 85.5 89 92.6 95.3 96.7 97.2 99.7 102.1 102.1 101.4 99.9 97.3 96.2 96.5 97 95.5 93.9 94.5 96.8 98.9 99.1 98.4 97.7 97.8 99 99.9 98.6 101.1 101.7 102.9 103.6 103.9 104.2 103.5 101.7 101.1 100.4 99.5 98.6 97.9 97.8 98.4 99.4 99.5 98.8 98.1 97.9 97.7 96.8 96.1 95.3 94.1 92.6 90.3 87.2 83.6 80.6 76.7 75.1 75.1 77 77.1 76.5 77.1 77.5 78.4 80 79.7 77.6 75.7 75.4 76.2 76.4 77.3 77.3 76.4 75.3 74 72.8 70.3 67.2 63.6 60.1 56.1 51.9 48.2 45 41.8 39.5 37.4 36.4 37.6 38.3 39.9 43.6 45.5 46.1 46.2 44.5 41.8 39.1 36.5 34.2 32.2 30.3 27.9 27.9 31.2 38 34.8 39.1 46.4 47.3 47.4 45.1 42.7 39.7 36.6 33.5 30.1 27.2 24.3 20.7 16.8 16.4 18 17.2 16.3 15.4 15.1
85.1 90.6 96.2 101.1 105.6 109.1 111.3 112.7 113.1 112.9 112.5 111.9 111.4 111.5 111.3 110.9 108.9 104.8 102.8 100.9 103.7 107 108.3 109.2 109.3 108.8 109.7 110.7 110 109.4 108.7 107.9 106.9 106.2 102.8 97 89.4 81.7 75.5 74.8 77.7 82.7 87.9 91.7 96.3 101 103.8 106.4 108.9 111.1 109.7 108.4 107 104.7 102.3 102.5 103.1 102.2 98.4 93.9 87.4 79.8 75.3 75 79.3 83.3 85.9 88.8 89.4 87.5 86.4 89.4 93.3 98.3 98.6 98.1 101.1 102.3 102.9 103.8 101.4 98.8 97.7 98.6 98.6 98 95.3 95.4 97.5 100.1 100.3 101.1 100 99.8 100 100.6 101.5 101.9 102.7 104 104.7 104.8 104.9 104.2 103.6 102.2 100.7 99.5 98.9 98.7 99.1 99.8 100.4 100.2 99.6 99.2 98.2 97.3 95.6 95.1 93 91.3 89.4 86.4 84.6 81.6 81.7 79.9 77.7 72.2 71.6 72.2 72 71.6 73.4 74.3 74.5 74.4 72.9 70.8 71.5 71.6 73 74 73.7 72.3 71.5 70.9 69.9 67.5 64.4 60.9 57.4 53.4 49.1 45.4 42.2 39.2 37.4 39.3 39.9 42.5 45.6 51.4 54 52.8 50.4 48.4 45.9 43.3 41.3 38.6 35.9 33.6 31.6 29.2 27.1 27.5 30 32 40.1 43.7 44.6 43.9 41 37.9 35 31.8 28.6 25.5 24.3 20.2 17.5 17.6 19 20 19.3 17.8 17.6 16
84.6 89.5 94.8 99.6 104.6 108.6 111.6 112.8 113.6 113.6 113 112.5 112 111.1 109.6 108.5 107.1 103.9 102.1 103 105.2 108.5 110.7 111.2 111.2 111.1 112.3 112 111.2 110.6 110 109.4 108.5 106.3 103.3 96.2 88.4 80.6 75.7 75.6 78.5 84.4 89.4 93.4 97.5 102.4 105.1 107.8 110.5 112.3 110.7 109.2 107.7 106.3 104.2 104.8 104.7 102.4 98.2 92.2 84 76.9 74.9 78.8 83 85.2 87.1 90.1 90.7 89 89 91 93.7 99.1 99.2 98.5 102 103.4 105.4 104.2 102.8 100.3 99.2 100.3 101 100.1 98 96.9 97.9 100.9 101.7 102.4 102.4 101.4 101.5 101.6 102.7 103.8 103.7 104.3 105.4 105.8 105.8 105.4 104.5 103.5 102 100.5 100.2 100 100.4 101 101.5 101.9 100.6 100.3 99.4 97.8 95.5 93.3 91.4 89.5 88.2 87.5 87.6 87.7 86.6 83.6 80.5 77.4 74.1 69.7 68.2 67 66.7 66 65 65.7 65.1 67.3 67.5 67.6 67.8 69.2 69.5 67.5 66.6 66.3 65.7 64.4 61.6 58.3 54.8 52.3 48.2 43 39.1 37.7 38.9 43.2 46.6 50.1 53.6 57.2 60 58.8 53.9 49.7 47.1 44.2 43 40.5 38.2 36.1 34.7 30.8 28.4 26.5 27 31.8 37.8 40.7 41.2 41.2 37.9 33.5 30.2 27.1 24.9 22.8 19.3 18.9 18.5 19.7 20.2 22.3 21.7 21.6 20.7 18.9
87 90.5 94.2 99.7 104.2 107.6 111.4 112.6 113 113.1 112.9 112.7 112.4 110.2 109.6 107.4 106.1 104.6 105.3 106.7 109.1 109.7 111.8 112.9 113.5 113.9 114.1 113.3 112.5 111.9 111.3 110.6 109.2 106.6 103.3 95.3 87.5 79.6 76 75.4 80.9 86.1 91.4 95 98.7 104.8 107.3 109.8 112.4 113.5 111.6 109.7 107.9 106.4 106.6 106.3 104.6 101.6 96.9 88.7 80.7 75.7 76.8 82 85.9 87.7 88.9 90.8 92 91.1 92.4 94.2 94.8 98.5 99.2 100.6 102.2 104.4 105.9 105.2 103.3 101.7 100.7 101.8 103 102.6 100 97.9 98.7 102.1 103.3 104.1 104.1 103.7 103.6 103.5 103.5 105.3 105.3 105.7 105.7 106.6 106.9 106.2 105.3 103.8 102.8 101.9 101.6 101.4 101.6 102.1 102.5 102.6 102.4 101.5 99.6 97.6 95.3 94.5 93.5 93.1 93 92.7 91.8 91.9 90 86.8 83.4 79.8 75.2 73.2 73.7 72.8 70.7 68.6 66.5 62.4 61.5 60.2 60.5 60.3 62.3 63.5 63.1 61.8 61.1 60.5 61.2 60.1 58.1 54.9 51.4 49.6 45.8 41.2 39.3 38.8 44.3 49.6 51.6 54.8 58.5 61.6 62.3 61.3 57 50.3 48.1 45.3 43.7 42.2 40.8 39.1 38 33.7 29.2 27.4 25.8 27.4 32.5 35.6 35.6 34.9 32.7 29.1 26.9 24.1 20.7 19.9 19.4 20 21.4 21.9 21.3 24 24.1 23.9 23.1 21.8
87 90.5 94 100 104.2 108.5 111.2 112.8 113.7 113.8 113.6 113 112 109.2 109.4 107.5 107 106.7 108.9 111.6 112.8 112.7 114.7 114.9 114.7 114.9 114.9 114.6 113.8 113.2 112.3 111.3 109.4 107.5 103.7 95.4 86.9 79.7 76.3 75.6 82 87.5 92.2 97.1 101.9 106.7 109.2 111.7 114.2 114.9 113.5 112.1 110.6 109.2 108.1 107.3 103.9 100.4 94 85.6 77.9 75.8 78.9 83.9 88.5 90.3 92 94.3 94.5 93.6 94.9 96.5 97.7 98 99.7 101.8 103.6 106 106.3 106.6 104.8 102.8 102.2 103.3 104.2 104.2 102.3 100.1 99.8 102.7 104.1 105.8 106.2 106.1 105.4 105.4 105.4 105.9 106.5 107.3 107.5 107.8 108 106.9 105.7 104.6 103.9 103.3 103 102.8 102.7 102.6 102.6 102.7 102.7 102.1 99.9 97.7 97.1 97.5 97.9 98.2 98 95.9 95.1 92.9 90.8 87.6 83.3 78.7 76.8 78.7 78.7 77.4 76.6 73.8 71.2 68.2 65.2 62.2 57.8 56.6 55.7 55.6 57.8 54.5 53 53.2 55.3 55.7 53.7 51.2 48 44.9 41.3 40.4 40 40.6 47.4 52.3 55.1 58.2 62.3 64.9 65.4 63.5 57.5 51.2 46.6 48.6 47.5 45.6 43.8 42.5 41.3 37.4 31.4 27.1 26 25 25.8 26 29.7 30 27.8 24.8 22.9 21.5 20.6 20.5 21 22.4 24.2 23.5 22.9 25.3 26.6 26 25.1 24.2
87.6 90.4 94.1 99.9 104.4 108.9 111.8 113 114 114.4 113.6 112.9 112.1 111.2 109.6 109 109.2 109.3 111.7 114 115.9 116.4 116.5 117.3 117.2 116.6 116.2 115.7 114.9 113.9 112.9 111.7 109.7 107.6 101.7 94.8 86.9 79.5 77.1 76.4 83.4 88.6 93.7 98.9 104.3 108.5 110.9 113.2 115.6 116 114.7 113.4 112 110.8 109.6 106.6 102.6 98.7 91.2 83 77.4 77.7 82.5 85.2 89.6 93.2 94.8 96.2 96.5 95.9 96.3 98.4 100.6 100.6 100.7 103.1 105.2 106.3 108.1 107.8 106.5 105 103.5 104.3 104.7 105.2 103.2 100.6 100.5 102.4 104.2 106.5 108.1 108.1 107.4 107.2 107.2 107.8 107.7 108.5 109.2 109.2 108.7 107.7 106.6 105.6 104.9 104.6 104.1 103.9 104.2 103.9 103.6 103.3 102.9 102.5 101.1 99.8 99.5 99.7 100.4 101 100 98.1 96 93.9 91.8 88.1 82.2 80.4 83.8 85.8 83.8 82.8 83.3 78.9 75.6 72.4 69.2 66.4 63.4 59.5 55.1 54.5 56.1 53.7 50.7 48.8 49.5 50.6 49.1 46.3 43.5 41.6 40.3 40.6 41.3 42 48.2 53.3 57.5 61.5 65.6 67.6 67 64.4 57.9 50.6 48.6 52.1 51.5 49.7 48.1 46.2 44.3 41.1 34.4 27.6 26.1 24.9 24.3 24.4 23.9 23.7 23.4 22.9 22.3 21.6 21.5 24.1 24.9 25.7 26.1 24.6 24.6 28.4 29.3 28.7 27.3 25.6
92.9 92.1 93.3 98.2 104.4 108.4 111.9 113.7 114.6 114.7 114.1 113.4 112.6 111.8 111.5 111.7 111.4 111.5 113.2 115.5 117.5 118.1 119.1 119.9 119.6 118.5 118.1 116.9 115.7 114.6 113.5 112 109.7 105.6 99.5 93.5 86.7 78.7 77.1 79 85.2 90.3 95.3 100.2 105.8 110.2 112.5 114.7 117 117 115.9 114.7 113.5 112.1 110.8 107.1 102.8 97.5 89.6 81.5 77.6 80.6 86.5 89.1 90.3 94.2 96.4 97.8 97.8 97.9 99.3 101.5 102.9 103.1 103 104.1 106.2 107.9 108.8 106.7 106.6 105.5 104.9 105.5 106 106.6 104.8 102.3 102.5 103.9 105.4 107.7 109.6 110.1 109.5 110.3 110.9 110.3 109.8 109.6 109.8 110 109.4 108.6 107.5 106.6 106.1 106 105.2 105 105.2 105.6 105.2 104.9 104.6 104.5 103.3 101.9 101.9 102.2 101.5 101.6 101.1 99.1 97 94.9 91.9 86.2 83.9 87.2 90.9 90.5 89.8 87.9 87.5 86 82.9 78.7 75 71.7 69.2 66 63.4 60.7 58.1 55.5 55.2 49.9 45.9 46 44.5 43 42.1 42.2 42.4 44 42.6 42.7 49.9 55.3 60.8 65.1 68.7 69 68 64.3 55.3 50.9 56.9 57.4 56.2 54.3 52.5 51.2 48.6 44 37.5 29.9 26.4 25.2 24.6 24.3 23.6 23.1 23.5 21.8 21.4 24.8 28 30.4 30.5 30.6 27.7 25.7 27.7 31.1 31.5 31.6 30 27.1
99 97 94.7 97.9 104.3 107.5 112.1 113.9 114.8 114.7 114.6 113.9 113.1 113.8 114.4 114.8 114.5 114.2 114.7 116.9 119.1 119.8 121.7 122.2 121.3 120.4 119.1 117.8 116.6 115.4 113.7 112.2 109.5 102.6 96.7 91 84.3 76.9 77.1 82.7 87.6 93.6 98.4 103.6 109.2 112 114.1 116.2 118.4 118 117 116.1 115.1 113.4 111.1 107.6 102.3 96.4 89.3 82.4 78.3 83.6 89.4 93.6 94.5 96.5 98.5 100 100.6 101.3 102 104.1 104.8 104.9 105 106 106.8 109.1 109.4 108.8 107.2 106.4 106.7 107.3 107.7 107.6 106 104.9 105.2 105.3 106.3 108.7 110.8 111.9 112.2 112.5 112.8 112.7 111.8 110.9 111.1 111.2 110.8 109.5 108.3 107.8 107.6 107.3 106.4 106.2 106.3 107.2 106.9 106.5 106.4 106.4 105.4 104.3 104.2 103.5 103 102.1 100.8 99.2 97.7 95.1 91 86.5 89 93.3 94.7 94.6 95 93.5 91.8 89.7 87.2 84.9 81.5 79 76.2 72.5 68.4 64.4 60.6 57.4 51.7 46.5 44.2 43.4 43.1 43.4 44.1 43.6 48.6 45.7 43.2 44.7 51.4 58.3 64 68.5 71.4 70.8 68.8 65 53.5 56.9 62.9 64.6 63 61.4 59.7 56.7 54.6 49.8 43.9 37.2 30.5 26.8 25.9 25.2 24.2 24 24.2 26 27.7 31.3 35.6 35.5 35.1 33.6 28.5 27 31.8 35.9 35.3 34.1 31.8 27.8
102 102.9 100.6 98.8 101.2 106.8 111.5 114 114.9 114.7 114.6 114.8 115.2 115.6 115.9 116.3 116.1 115.8 116.7 118.6 120.5 121.2 123 123.2 122.7 121.5 120.2 118.8 117.4 115.3 113.6 112.7 107.3 100.9 94.2 87.8 81 76.8 79.2 84.6 89 95.3 100.3 105.7 111.3 113.9 115.9 117.8 119.8 119 118 117 115.9 113.4 111 107.1 101.3 95.4 89.5 82.8 79 85.1 91.4 95.3 97.4 99.4 101.2 103 103.5 103.5 104.3 105.9 107.2 106.9 106.7 107.1 109.1 110.7 110.9 109.7 107.9 107.6 108.4 109.2 109.1 108.6 106.7 106.5 107.7 107.6 108.3 110.1 111.8 112.9 113.7 114 114.3 114.2 113.5 112.4 112.3 112.4 112.2 110.9 110.5 109.8 109.1 108.7 107.6 107.3 107.4 108.8 108.5 108.2 108.3 108.3 107.4 106.6 105.9 105.4 105 103.8 101.8 100.3 99 94.8 90.5 91 94 97.7 97.8 98.5 98.4 97.4 96 94.9 93.2 90.7 87.9 83.5 78.2 73.3 68.1 63 57.5 52.7 46.5 44.5 43.8 44.5 46.1 48.1 50.5 50.4 48.7 45.4 44.1 47.6 56.1 61.7 67.1 72.1 73.5 72.3 70 63.8 55.9 62.6 68.5 68.7 66.9 65.1 64.1 63.1 60.3 55.1 50.3 44.2 38 32.2 28.8 27.6 29.4 32.2 36 38.1 38.9 40.1 40.3 39.5 37.1 34.3 28.3 28.7 36 38.3 38.4 36.4 31.6 27.7
104.8 107.3 105.4 102.2 103.5 107.2 111.6 115.1 115.5 115.6 115.8 116 116.4 116.8 117.2 117.5 117.7 117.3 118.8 119.8 121.2 122.9 124.1 123.9 123.6 122.3 120.9 119.5 118.1 115.5 114.8 112 105 98.1 90.9 84.8 77.7 77.3 82.4 86.6 90.3 97 102.2 108.1 114 116 117.7 119.4 121 120 119 117.9 116.7 114.4 111.2 106.4 100.3 94.5 88.6 82.2 79.7 85.8 92.1 96.8 100.1 102.6 104 105.9 106.5 106.5 106.6 107.8 109 110 109.9 110.1 110.9 112.3 112.2 110.5 108.7 109 110.2 110.2 109.4 108.9 107.4 109 110.3 110.8 111 111.4 112.6 113.8 114.9 115.3 115.2 115.2 115 114 113.6 113.6 113.6 113.4 113.2 112 110.8 109.8 108.9 108.5 108.5 110 110.1 110.1 110.2 110 109.6 109.3 108.7 107.8 106.8 105 103 100.7 99.2 94.7 93.4 97 99.8 100.1 100.8 101.8 101.6 100.9 99.7 98.8 97.7 95.7 92 85.8 79.6 73.4 67.5 60.1 52.3 46.8 45.2 45 49.2 51.9 54.2 54.5 54.2 51.2 47.2 45.4 46.2 50.2 57.4 63.1 68.6 74 75.3 73.5 71.2 63.6 58.2 65.5 70.4 73 72 71.2 69.3 67.4 64.2 59.2 53.5 46.8 40.9 34.6 31.2 32.9 38.7 42 44.7 46.4 44.5 42.3 42.5 41.5 38.5 33.4 29.4 32.3 39.7 42.4 40.5 36.9 31.4 28.3
107.4 109.6 109.8 108.1 107.2 108 111.7 116.4 116.9 116.9 116.9 117.2 117.6 118 118.4 118.7 119 119.2 120.2 121.1 122.1 123.7 124.8 124.6 124.1 123.2 121.6 120.2 118.8 117.2 113.5 109.6 101.7 93.7 86.2 81.4 78.4 81.4 85.2 88.9 93 99.4 104.6 110.7 116.5 117.9 119.4 121 122.1 120.9 119.8 118.8 117.2 114.4 111 104.6 98.8 93.5 88.3 82.4 80.6 87.2 93 98.3 102.9 105.9 107.3 108.7 109.5 109.7 109.7 110.1 111.3 111.8 112.1 112.2 113.4 113.8 113.1 112 110.4 111.1 112 111.3 110.5 109 109.2 111.5 112 113.1 112.5 113.6 114.6 115.5 116.5 117.3 117.3 117.5 117 115.6 115.4 114.6 115.3 115.2 114.9 113.5 112 111.3 110.5 109.8 109.9 111.3 111.7 111.5 111.1 110.9 110.7 110.5 109.6 108.7 107.5 106.2 104.1 102 98.4 96.1 98.7 100.7 101.8 102.9 103.5 104 103.5 102.5 101.5 100.6 99.8 97.8 92.5 85.5 78.5 72 65.7 57.2 48.8 45.5 47.8 51.8 56.6 57.8 58.2 56.9 52.2 48.1 46.2 46.8 49.6 55.3 59 64.3 70 75.4 76.2 74.7 71.6 66.6 61.7 67 72.4 75.5 76.4 74.2 71.9 68.4 64.9 60.8 52.7 44.9 40.2 37 37.9 44.1 49.7 52.2 52.7 52.3 50.6 48.5 45.3 43.4 38.6 32.6 31.6 37.4 43.1 44.2 42 37.2 30.9 33.3
109.3 112.3 112.9 113.1 112.2 113.1 114.7 117.1 118.4 118.4 118.4 118.7 119 119.2 119.6 120 120.2 120.8 121.6 122.5 123.4 124.6 125.4 125.3 124.7 124.1 122.5 121 119.4 116.7 112.7 106.7 98.3 88.4 82 79.2 80.9 85.1 88.7 92.1 95.5 102.1 107.2 113.3 118.7 119.9 121.2 122.5 123 121.8 120.6 119.5 116.7 113.3 109 103.3 97.1 91.7 86.3 82.3 81.4 87.3 93.5 99.3 104.5 108.1 110 111.4 112.6 113.1 112.8 112.5 113.3 113.5 113.7 113.9 115 114.9 113.8 112.6 111.9 113.4 113.5 113 112 110.5 111.4 112.5 114.9 114.4 114.2 115.1 116.1 117 118 118.8 118.7 118.3 117.7 116.6 116.1 116.4 117 116.8 116.6 115.2 114.1 113.1 113.2 112.3 113 112.8 112.7 112.4 112.2 111.8 111.8 111.8 110.9 109.6 108.3 107.1 104.4 102.6 99.2 98.9 101.5 102.4 103.5 103.6 103.7 103.2 102.1 100.5 98.7 97.7 95.9 93 88.8 81.2 74.5 68.8 62.1 54.3 45.8 46.5 52.9 59.6 62.1 61.2 57.6 52.5 48.4 47.4 49.2 51.9 53.5 58.4 63.2 67.3 71.5 76.8 77.3 77.2 74 69.9 65 69.4 74 78.3 78.8 75.6 72 66.9 61.4 54.4 48.1 44.9 42.3 42.3 50.4 56.7 58.7 59.9 59.1 56.7 53.8 49.8 46.5 43.3 38.7 32.4 32.9 39.8 44.7 45.1 41.7 36.8 30.7 32
111.4 114.8 115.8 115.3 115.8 117.4 117.8 119.3 119.8 119.8 119.8 119.9 120.7 121 121.2 121.5 122 122.6 123.4 124.2 125 125.8 126 125.9 125.3 124.6 123.2 121.6 119.7 116 110.4 102.9 93 84.5 80 79.3 84.5 88.3 91.7 95 98 104.4 109.7 115.8 120.5 121.6 122.7 123.8 123.9 122.7 121.4 120.2 117.1 113 108 100.5 94.5 89.3 84.1 82.4 82.3 87 93.4 99.3 105.2 109.6 112.6 113.6 114.6 115.3 115.1 114.8 115.3 115.2 115.4 115.5 116 115.9 115.4 113.8 114.7 115.6 114.9 113.9 112.9 111.7 112.3 113.8 116.4 116 115.9 116.7 117.6 118.5 119.5 120.2 119.6 119.1 118.6 117.8 117.9 118.4 118.8 118.5 118.2 117.6 116.5 115.4 114.9 114.7 114.6 114.3 114.2 113.8 113 112.7 112.8 112.7 111.9 110.5 109.3 107.6 104.7 102.3 100.3 101.3 102.6 102.8 101.9 100.8 99.8 97.1 95.1 93.1 90.6 89 87 84.6 80.7 76.1 70.6 64.9 58.5 50.2 47.6 52.7 60.1 63.8 61.7 56 51.9 48.9 49.3 51 52.7 55 60.5 62.7 67.3 71.6 75.7 79.6 80.6 80.1 76.8 72.2 68.3 73.8 77.6 81.3 80.8 76.9 70.3 64.6 57.1 54.3 53.8 56.1 58.6 62.1 64.7 65.1 65 64 62.2 58.2 52.8 47.1 44.3 40.9 33 32.6 36.8 43.2 46.3 44.9 41.4 36.8 32.7 34.5
114.5 117.2 117.7 117.3 117.7 119.3 119.6 120.8 121.4 121.3 121.2 121.2 122 122.7 123 123.3 123.7 124.3 125.1 125.9 126.7 126.6 126.5 126.5 125.9 125.1 123.6 122 119 114.8 106.6 98.3 89.9 82.5 80.7 81.1 87.8 91.2 94.5 97.4 100.4 107 112.2 118 121.9 122.9 124 125.1 124.3 122.6 121.4 120 116.1 111.4 105.5 97.8 92 86.6 84.7 84.2 83 85.7 92.7 98.9 104.7 110.7 113.8 115.3 116.7 117.4 116.4 116.7 117.3 117.8 117.7 117.6 117.4 116.6 117.1 115.9 116.8 116.9 115.9 114.8 113.8 112.9 114.1 115.8 118 117.6 117.5 118.4 119.3 120.1 121 121.2 120.6 120 119.5 119.4 119.8 120.3 120.6 120 119.8 119.5 119 117.9 117.5 116.8 115.9 115.7 115.4 115.1 114.7 114.1 113.6 113 112.2 111.4 110.1 106.8 103.4 101.7 100.3 100.2 98 96.2 94 90.2 88.1 86.5 84.4 82.7 81.3 79.9 78.3 76.8 73.3 69.1 64.8 59.3 53.9 48.1 47.1 58.6 62.6 60.6 55.8 51 50.3 50.9 52.5 56.1 57.6 62.5 66 69.1 72.4 76.5 80.8 83.6 84.3 83.2 78.7 73.2 72.8 77.7 81.5 83.3 82.2 77.6 71.6 66.5 63.4 65.3 67.2 70.9 72 69.8 70.4 68.3 66.4 64 60.6 55 48.8 42.8 38.5 35.6 34.5 37 42.9 47.7 48.6 45.4 41.4 36.4 36.1 37.4
116.8 119.5 119.6 119.5 119.8 121.1 121.5 122.3 123 122.8 122.7 122.6 123.1 124 124.7 125 125.4 126 126.8 127.6 127.4 127.2 127.1 126.9 126.2 125.5 124 120.9 117.5 111.2 102.7 93.7 87.2 81 80.4 84.8 90.3 93.1 95.6 99.4 102.9 109.6 114.7 120.1 123.2 124.3 125.2 126 125.3 123 120.9 118.7 114.6 109.6 102 95.5 89.3 86 88.1 87.3 84.2 84.4 90.9 97.3 103.6 109.9 115 117.6 118.2 118.7 119.4 118.7 119.1 119.9 120.4 120.1 119.7 119.1 118.4 117.7 118.3 118.9 117.8 116.7 115.6 115 117 117.5 119.6 119.3 119.2 120.1 120.9 121.8 122.6 122.5 122.2 122.2 121.8 121.3 121.8 122.1 122.4 121.9 121.3 121 120.7 120.4 119.2 117.8 116.8 116 115.6 115.3 115 114.5 113.9 113.2 112.4 111.7 110.9 106.3 103.4 100.1 98.1 95.7 90.5 86 79.7 75.2 73.9 73.7 72.8 71.8 71.9 71.3 69.9 69 67.2 63.2 58.7 52.6 48.4 50.4 55.6 61.2 61.2 56.4 52.1 51.4 52.4 54.4 57.2 60.9 62.4 67.6 71.6 75.5 78.9 83.6 87.3 89 86.3 82.2 77.3 73.2 78.8 84.1 87.6 87.1 82.1 78 74.4 73.5 72.9 74 76.6 77.6 76.7 75.7 72.1 68.2 63.4 58.6 54 47.5 40.9 38.3 36.6 36 37.7 41.5 47.1 50.4 48.2 45.1 40.9 37.8 39.5 41.2
119.1 121.8 121.7 121.7 122 123 123.3 123.8 124.6 124.4 124.3 124.1 124.3 125.2 126.1 126.8 127.1 127.7 128.5 128.3 128 127.8 127.6 127.1 126.3 125.6 122.9 119.6 116.3 108.2 99.6 91.8 87.1 81.3 81.2 87 91.9 95.1 96.5 99.7 106.9 112.1 117.1 122.2 123.8 124.5 125.3 125.8 125.4 124 121.4 118.2 112.5 106.2 100.6 95 88.3 87.6 91 90.4 86 84.6 88.7 95 101.5 107.9 114.3 117.8 119 119.4 120.1 120.8 121.4 121.5 121.6 121.4 121.1 120.5 119.8 120.2 120.9 121.4 120.6 119.4 117.7 116.8 118.9 119.1 120.7 120.8 120.8 121.8 122.6 123.4 124.2 124.1 123.8 123.8 123.7 123.6 123.7 123.9 124.2 123.9 123.4 123.5 123.5 122.1 120.4 119.1 118 117.8 116.9 116 115.2 114.8 114.2 113.5 112.8 112.7 110 107 102.4 96.7 92.4 88.6 80.6 73.8 65.7 62.4 60.9 60.5 60.6 60.4 60.5 60.5 61 59.7 58 55.5 51.3 49.6 48.5 51.3 60.2 62.1 60.2 55.3 52.2 54 56.4 57.3 59.9 62.8 66.3 71.7 77 80.9 86.3 90.6 92.6 91.9 90.7 83.5 77.9 77.8 86.2 91 92.3 90.7 86.3 81.9 79.7 79.2 79.2 82.2 83.9 82.6 79.2 75.6 70.6 65.1 58.7 52.2 46.4 40.9 39.7 40.1 40.1 41.1 42 46.1 50.7 50.6 48.8 45 41.6 35.5 35.9 41.3
122.1 123.6 123.8 123.9 124.2 124.7 125.2 125.6 126.2 126 125.8 125.5 125.6 126.4 127.2 128.1 128.8 129.4 129.1 128.8 128.5 128.3 127.7 127.2 126.4 125.1 121.5 117.7 113.2 107.4 99.4 92.3 87.8 81.3 82.2 86.7 93.7 96.5 99.2 101.8 108 114.4 119.3 124 125 124.7 125.4 125.5 125.4 124.1 121.2 117.3 110.6 104.3 98.1 91.9 88.7 92.6 96.3 93.3 89.1 86 86.9 92.8 99.3 105.9 112.5 117.6 119.7 120.1 120.8 121.2 121.6 122.5 122.7 122.6 122.4 121.9 122.2 122.7 123.3 123.9 122.4 120.3 118 117.6 120.7 120.5 122.2 121.9 122.4 123.4 124.2 125 125.9 125.7 125.4 125.3 125.3 125.2 124.9 125.4 125.8 126.1 125.8 125.6 125.4 123.5 121.7 120.3 119.2 118.7 118.7 117.8 116.9 116.2 115.6 115 114.6 112.6 109 105.2 99.8 93.4 86.3 77.3 69.3 61.7 58.8 58.1 58.6 57.6 57.1 56.8 55.4 54.8 54.1 53.1 52.5 51.8 50.2 49.3 48.9 53 60.6 62.3 59.1 54.3 53.8 59.7 63 61.6 60.5 63.4 68.4 75.3 81.1 86.6 91.9 95.3 95.6 94.7 91.6 84.4 78.8 85.6 92.3 96.1 96.7 94.6 91.5 88 86.6 85.8 87.5 87 85.8 83.6 79.2 74.2 68.3 60.7 54.2 48.1 42 42.1 44.5 44.3 45.3 46.7 47.2 48.9 51.8 52.9 51.2 49.5 48.6 41.5 37.6 41.4
124.1 125.1 125.5 125.8 126.1 126.4 126.9 127.5 127.7 127.4 127.1 126.8 127 127.8 128.6 129.3 129.8 130.3 129.9 129.6 129.2 128.5 127.9 127 126.2 123.3 119.3 113.6 108.9 103.5 97.1 93.4 83.8 82 84 88.8 93.8 96.7 100.1 105.4 111.1 117.3 122.6 125.2 125.4 125.7 125.9 125.9 125.9 124.4 121.5 116.8 110.9 104 96 91.3 91.2 97.3 101 97.6 92.9 87.3 86.6 91.1 97.6 104.2 110.7 116.3 118.2 119 119.6 120 121.3 122.1 123.2 123.1 123.1 123.7 124.2 124.6 124.5 124.4 122.8 120.5 118.5 118.3 119.9 122.2 122.4 123 124 125.1 125.8 126.7 127.6 127.4 127 126.9 126.6 125.8 126 126.8 127.1 127.3 127.3 127.1 126.4 125 123.2 121.6 120.5 119.9 119.8 119.6 118.7 118.1 117.5 116.4 115.2 111.5 107.2 101.7 96.3 88.6 77.8 68.9 61.7 59.1 60.7 61.6 61.3 60.8 59.9 59.2 58.5 56.6 55.4 53.4 53.6 53.3 53.3 51.1 50.6 53.8 61.7 62.2 58.5 54.5 56.1 63.4 65.8 64.6 63.3 66.2 70.1 77.2 84.2 90.7 96.5 99.5 99 97.1 91.8 85.2 85.5 92.6 96.8 98.8 101.1 100.6 94.3 93.8 92.4 94.8 92 89.8 86.5 83.2 77 72.2 65.1 57.8 50.2 44.7 42.7 47.9 51.2 50.1 50.5 51.7 51.6 51.7 54.2 55.9 55.9 52.9 47.7 44.3 42.5 42.4
125.6 126.4 126.6 127.2 127.5 127.7 128.3 128.8 129.1 128.7 128.4 128.1 128.4 129.2 129.9 130.6 130.7 131.2 131 130.6 129.7 128.7 128.4 126.6 123.5 120.6 116.4 110.4 105.4 99.3 95.1 91.9 83.5 82.6 83.4 89.8 93.4 96.7 101.4 108.7 114.1 119.9 124.9 126.9 127.2 127.3 127.4 127.7 127.4 125.6 122.1 117 111.3 103.3 96.2 91.4 94.5 101.2 104.8 102.3 96.3 90.1 87.1 90.6 96.7 102.7 109 113.5 114.4 114.7 115.4 116 118.2 120.5 122.9 123.1 123.3 124.1 125.2 125.5 125.5 125.1 122.9 120.8 119.7 119 120.5 122.1 123.5 124.5 125.6 126.7 127.7 128.5 129.2 128.9 128.6 127.5 127.1 127.4 127.8 128 128.1 128.3 128.4 128 126.6 125.6 124.6 122.9 121.7 121.1 120.7 120.8 120.5 119.8 118.4 116.3 113.2 109.2 104.1 98.6 91.4 82.1 71.5 63.1 60.7 62.1 66.4 66.5 66.4 65.1 63.9 64.2 62.2 61.3 59.9 58.5 58.2 58.1 57.6 54.4 51.9 54.9 62 62.4 60.2 55.2 56.8 64.9 68.8 67.6 67.3 69.6 72.8 77.6 85.6 92.9 99.3 103.5 102.6 99.5 93.9 87.7 91.5 96.7 100.1 102.3 104.3 104 103.4 101 97.8 95.7 91.8 87.6 83.9 78.2 71.2 65.2 59.2 52.5 45.7 44 46.6 53.3 56.4 56.3 56.4 54.9 54.3 56.4 60.1 63.1 60.6 56.6 48.5 44.7 44 44.4
127.2 127.7 127.8 128.5 128.9 129.1 129.6 130.2 130.6 130.1 129.7 129.5 129.8 130.5 131.2 131.8 132.1 132.2 132 131.1 130.3 129.5 129.2 126.8 125.4 123.2 118.3 114 108.6 101.5 95.7 90.5 84 82.3 85.3 89.8 93.4 97.6 102.7 110 117.1 122.4 126.7 128.4 128.7 128.8 128.9 129.3 127 124.1 120.8 116.7 110.2 103.3 96.3 93 98.2 104.5 107.3 106.4 100.3 93.9 87.9 88.5 93.2 100.4 106.8 109.1 107.9 107.2 106.8 108.8 112.5 116.1 119.7 122.1 123.5 124.3 125.3 125.6 125.6 124.8 123 121.9 120.8 120.1 120.1 121.6 124.6 126.1 127.1 128.2 129.2 129.1 130.1 130.1 129.9 129.3 128.5 128 128.2 128.1 128.2 128.2 128.3 127.9 126.6 125.3 124.9 124.3 123 122.4 121.8 121.7 121 120.2 117.7 114.9 111 105.8 99.6 92.1 84.5 76.7 69.3 62.6 60.6 66.8 71 71.4 70.9 70 69.9 70.7 69.6 68.8 67.9 67.2 65.9 61.8 59.1 55.9 53.1 57.3 64.7 63.1 59.9 56.1 57.2 64.5 70.1 71.4 71.8 75.5 80.8 83.8 90.9 96.7 103.4 106 105.5 102 95.9 90.2 95.2 100.7 105 106.6 108.7 108.1 106 102 98.2 92.2 87.2 82.2 76.8 70.9 64.3 56.6 49.9 46.3 45.5 47.7 51.5 57.1 61 62.7 61.5 59.5 60.6 62.6 65.4 68 65 60.6 51 45.6 42.6 45.3
128.6 128.7 129 129.7 130.3 130.5 131 131.5 132 131.6 131.2 131 131.1 131.8 132.5 133.1 133.3 133.3 132.8 132.2 131.4 130.7 129.3 127.3 125.8 124 121 116.5 110.4 103.3 97.2 92.3 86.5 83.7 85.8 90.1 93.9 98.7 104.7 112.1 118.6 123.6 128.1 130.1 130.3 129.9 129.5 129.9 126.5 123.8 120.4 115.5 110.2 103.5 97.4 95.1 100.8 106.8 109.9 108.4 105.2 98.3 90.7 89.1 91.3 97.2 102.4 103.1 101 101.5 100.1 103 103.5 109.1 115.5 119.2 121.8 123.8 125 125.4 125.7 125.8 124.1 122.9 121.8 121.4 121.8 122.7 125.7 127.3 128.6 129.8 130.7 131.1 131.1 130.5 129.7 129.5 129.4 128.9 128.7 128.3 128.3 128.4 128.1 126.6 125.8 124.7 124.2 124 123.5 122.7 122.3 121.7 120.8 119.3 116.6 111.4 106.9 100.2 95.1 87.9 80.3 74.1 70 62.9 65.6 73.5 75.9 76 77.7 76.9 75.4 72.9 72 71.6 70.1 68.9 66.8 64.7 62 56.1 54.2 59 65.8 65.5 60.6 57 57.5 65.5 71.8 75.8 76.5 82 87.3 92.1 97.2 102.7 107.6 109.2 110.1 106.7 97.1 93.7 99.5 106.4 109.8 110.5 111.5 109.6 105.6 100.4 94.1 86.4 80.3 75.3 69.9 64.1 57.3 49.9 47.9 48.2 50.5 53 56.6 62.5 67.7 67.6 66.4 65.7 67.4 69.3 70.9 70.7 68.2 63.5 54 46.5 43.3 46.8
129.9 129.5 130.2 130.9 131.5 131.9 132.4 132.9 133.1 133.1 132.6 132.6 132.7 133 133.3 133.6 134.1 134.2 133.6 132.8 131.8 130.7 129.4 127.8 126 124 121.2 118.3 111.1 104.7 98.6 92.9 85.3 83.6 86.3 90.4 95 99.9 107 114.4 120.3 125.2 129.3 130.8 130.9 130.3 129.8 129.4 126.4 123.5 118.8 114.3 109.7 103.6 97.1 96.3 102.3 108.5 111.9 111.6 107.9 100.8 94.4 90.1 91.6 94.2 95.9 96.1 99.4 103.5 107 108.4 109 107.6 108.5 112.4 118.6 121.9 123.5 125.3 125.9 126.5 125.4 124.1 122.8 123.1 123.6 124.4 127.7 128.8 130 130.7 131.2 132 132.4 131.3 131.1 130.8 130.4 129.7 128.9 128.7 128.4 127.8 126.5 124.9 123.6 122.9 121.8 121 120.8 120.5 119.5 117.9 115.9 113.7 110.9 105.8 99.6 94.7 89.1 84.3 78.5 73.2 66.9 63.3 67.8 78.4 80.8 82.5 81 80 78.6 76.8 75.8 73.6 72.1 69.2 67.1 66.2 61.5 56 56.6 61.6 67.8 67.8 61.5 57.6 58.6 66.2 73.1 80 82.5 86.4 92.4 98.5 105.2 108.7 111.1 112.8 113.3 107.3 99 98.9 105.6 112.2 114 114 113 110.9 102.9 94.2 87.8 81.3 76 70.9 64.5 57.9 51.5 49.6 53.3 55.1 56.2 59.8 63.6 68.7 73.6 73.1 72.3 72.4 74.1 75.6 73.4 71.8 68.8 61.9 56 48.8 45.9 48.6
130.9 130.7 131.4 132.1 132.7 133.3 133.7 134.2 134.1 134.1 134 133.9 133.8 133.7 133.8 134 134.6 134.6 133.6 132.6 131.5 130.8 129.7 128.2 126.2 123.9 121 117.8 113.3 106.9 100.8 92.5 84.4 83.5 86.3 91.3 95.9 101.7 109.1 116.5 122.4 126.6 130 130.9 131.5 130.6 129.4 128.1 126.2 121.9 117.7 113.4 107.9 103.1 97.7 97.1 103.1 109.2 112.3 113.6 110.5 104.8 98.9 92.5 90.8 92.4 95.1 99.4 104 108.3 111.8 115.1 115.8 114.4 111.7 111.2 113.4 117.5 123.4 125.4 127 127.1 126.6 125.4 126.1 126.7 127.3 126.6 129.2 130.4 131.3 131.8 131.9 132.2 133.1 132.6 132.6 132.1 130.8 129.6 128.6 128 126.1 125.7 123.6 121.1 118.9 116.9 115.8 115.2 114.4 113.6 112 109.7 105.2 101.4 99.4 98.6 93.7 89.5 85.2 82.1 78.1 72.6 66.9 63.5 69.4 80.6 85.7 85 84.1 82.8 81.4 79.7 77.5 74.9 72.4 69 66.3 65 58.1 56.6 57 64.6 69.4 69 61.7 58 60 66.5 73.4 82.9 86.7 92 98.1 104.2 110.8 113.7 114.5 115.6 113.6 109.2 102.5 107.4 112.7 116.5 117.4 117 115.4 108.7 98.7 90.7 83.4 76.9 71.6 66.6 60.4 53.7 51.5 54.5 60.1 61 62.1 67.5 73 78.6 79.5 79.5 78.7 78.9 79.4 77.4 75.1 71.6 65.7 58.7 53.8 49.1 48.6 51.5
131.8 131.9 132.6 133.3 133.9 134.6 135.1 135.2 135 134.7 134.8 134.9 134.8 134.7 134.6 134.5 134.3 134 133.8 132.8 131.6 131.2 130 126.7 125.2 122.4 119.7 117 112.6 107.4 102.5 94.5 85.6 84.6 89.4 90.8 97.2 103.2 111 118.5 124.2 126.9 129.9 130.7 131 130.5 129 127.6 124.5 120.6 116.6 111.8 106.2 101.1 98 98.6 103.8 109.8 113 114.2 112.5 108.2 101.7 96 93.1 93.6 98.8 103.2 107.2 110.3 114.5 118.9 120.7 120.4 118.6 114.4 114.3 118.9 123.5 126.2 127.9 128 127.4 127.2 128.1 128.8 128.7 129.5 130.5 131.9 132.5 132.7 133.1 133.4 133.6 133.4 131.4 132.1 130.6 129.4 126.6 124.7 122.5 120.1 116.1 112.1 110.2 107.3 110.3 109.2 107.5 106.2 101.9 94.9 88 84.6 84.5 87.9 88.9 85.9 81.7 79.5 75.5 71.4 66.7 64.4 72.4 80.8 85.2 86.6 85.9 84.4 82.5 80.1 77 73.3 69.1 65.2 62.3 59.2 57.2 57.4 59.6 67 71 69 61 58.9 61.6 67 73.5 81.9 89.3 97.2 103.6 109.6 113.9 118.2 119.4 119 116.4 110 108 113.4 117.6 119.7 120.2 119.5 115.5 105.7 95.3 87.7 80.1 73.3 67.3 62.8 57.3 52.9 53.5 58.6 63.3 67.7 72.7 79.6 85.9 87.8 86.5 85 83.3 82.2 80.6 77.8 75.5 68.9 60.9 54.6 52.2 51.5 52.3 56.1
132 133.2 133.9 134.6 135.2 135.9 136.1 135.8 135.5 135.3 135.5 135.6 135.7 135.6 135.1 134.2 133.3 133.5 133.2 132.5 130.3 129.4 127.2 124.2 122.8 118.4 115.5 111.4 108 106.8 103.2 95.3 87 85 88.6 91.2 103.8 105.5 113.5 121.3 125.9 127.8 129.8 130.2 130.4 130.1 128.8 127 124 119.3 113.7 109.5 103.6 100.9 98.7 99.7 104.9 110.5 114.2 115.4 114.7 110.5 105.7 98.9 94.4 93.4 100.8 105.8 108.7 112.4 116.9 121.2 123.9 123.8 122.7 118.1 115.1 118.8 123.9 127.1 128.7 128.9 128.6 128.2 128.7 129.9 130.4 130.5 131 132.2 133.1 133.6 134.1 134.4 134.4 134.1 132.7 130.7 128.7 126.8 125.1 123.5 118.7 115.1 111.2 106.4 101.1 98.3 97.7 97.3 94.6 92.9 88.8 84.2 79.7 76.5 74.8 77.1 80.1 81.3 79.6 77.4 73.7 67.9 66.8 66.3 77.2 84.6 87 86.9 85.7 84 80.6 77 71.5 68.1 63.4 60.7 59.5 58.2 57.8 58.8 62.5 69.5 69.2 64.9 59.8 61.5 64.5 70.1 75 83.9 91.7 100.8 108.8 114.5 119.1 122.3 122.5 121.5 119.9 115 113 119.3 121 122.5 123.1 119.9 113.9 102.7 92.8 84.6 76.9 70.3 65 60 56 54.5 59.2 64.3 69 75.9 83.4 87.9 91.3 92.1 89.3 85.8 87.6 84.2 82.1 78.4 72.2 64.9 58.1 55.1 58.5 58.4 58.1 61.7
133.3 134.9 135.6 136.1 136.4 136.7 136.6 136.4 136.1 135.8 136.3 136.4 136.3 135.7 134.9 133.9 132.6 132.1 131.7 130.4 128.6 125.4 122.8 120.1 115.5 111.3 108.1 104.7 102.2 101.2 98.9 92.9 86.1 85.7 90.4 95.8 104.6 108.1 115.6 123.3 127.5 128.9 129.8 129.5 129.7 129.4 127.8 125.1 122.5 116.2 111.2 107.1 105.1 103.9 101.6 101.4 106.2 112.1 115.8 117.7 116.8 113.5 108.4 102 96.7 94.4 98.9 104.6 108.9 113.9 118.8 123.5 125.6 126.2 125 120.3 116.4 119.6 124.6 128 129.5 129.9 129.8 129.5 130 131.4 132.5 132.3 132.7 134.7 135.2 135.7 135.6 135.4 135.1 133.6 132.6 131.6 129.5 127.5 125.9 123.9 120.4 117.6 114.3 106.8 101.8 95.3 90.9 88 86.6 84.2 81.1 76.8 73.5 71.6 70.8 70.3 71 74.3 74.7 72.7 68.7 66.3 65.6 71.6 82.3 87.4 87.4 86.3 82.1 78.5 73.8 70.1 65.7 63 62.3 60.8 59.6 58.8 59.7 61.7 67 71.7 68.2 63.1 59.8 62.9 67.6 71.9 76.6 85.9 94.2 104.3 114.2 120.4 124.6 125.6 125.1 124.2 121.1 117.5 119 121.8 123.8 125.3 123 118.5 111.5 100.5 90.4 82.1 74.4 68.1 62.7 58.3 55.7 59.9 65.4 71.5 77.7 84.3 91 94.9 95.9 95.6 93.3 91.3 90.1 86.9 83.9 77.5 68.8 60.9 58.7 61.3 67.1 67.1 70.2 76.6
134.4 136.1 136.5 136.8 137.1 137.4 137.1 136.9 136.6 136.3 137 137 136 134.2 134.7 133.5 132.3 131.1 130.2 126.8 122.3 118.5 114.4 111.8 107.6 104.4 101.7 99.7 96.4 94.5 94.1 88 85.5 87 92.2 98.3 104 110.1 117.4 125.2 129.3 130.4 130 129.4 129.1 128.6 126.4 122.7 119.6 114.5 110.7 109.3 109.6 106.3 103 104.8 111 114.9 118.5 119.2 118.8 115.7 111 105.1 99.4 96.2 98.8 103.8 110.2 115.3 119.9 124.8 127.7 126.7 125.8 122.4 117.6 120.6 125.6 128.8 130 130.2 130.5 130.8 131.6 133 133.9 134.4 135.2 135.9 136.4 136.9 136.7 136.4 135.6 134.6 133.5 132.5 130.5 128.7 127.2 125.3 124 119.2 114.3 109 102.6 98.5 92.6 85.6 81.3 78.5 75.8 73.9 73 72.2 71.5 70.7 69.6 69.5 68.5 67.7 66.9 66.9 69.5 79 87.2 88.5 86.2 81.6 75.7 70.4 67 64.6 64.8 63.8 63.2 63.3 62.5 62.4 63.1 65.3 72.3 74 67.3 61.8 60.8 65.2 70.7 73.5 78.5 87.1 95.8 105.9 116.8 125.1 128.2 128.3 127.4 125.4 122 120.5 121.9 123.7 125.7 126.3 124.4 118.8 109 99.6 87.2 78.7 72.4 66.1 60.4 57.5 58.5 65.5 72.3 79.1 87.2 94.3 97.7 99.8 99.6 98.4 96.4 93.5 90.7 88.3 82.5 73 64.6 60.4 60.3 66.3 73.4 78.4 82.3 85.9
135.1 136.4 137.3 137.7 137.9 137.9 137.6 137.4 137.1 136.9 137.7 136.3 135.3 134.8 134 133.1 131.8 130.2 127.3 121.1 115.2 112 108.8 104.5 102.4 100.8 97.7 95.8 94.9 92.2 90.1 86.5 85 88.7 93.4 98.1 104.6 112.2 119.7 126.5 129.4 130.9 130.3 129.7 129 127.3 124.5 120.5 117.6 113.8 113.8 115.3 115.1 109.4 102.8 107.8 114 118.9 121.3 121.5 120.9 117.6 113 107.3 101 97.3 99.1 105.1 111.6 116.9 121.5 126.1 128.9 128 127.2 124.5 119.4 120.9 125.7 128.5 129.8 129.9 130.2 131.1 132.3 132.6 134.6 135.5 136.4 136.9 137.4 137.4 137.2 136.9 136.7 135.9 134.8 133.2 131.5 129.8 128.2 125.9 122 115.8 110 104.5 98.9 93.4 89.9 85.6 79.2 75.8 75.1 74.9 75.9 74.7 74.3 73.6 72 70.9 69.4 68.8 69.3 72.8 78.4 86.3 89 84.8 79.7 73.6 68.6 66.6 66.6 66.5 66.4 66.9 66.6 66.6 66.7 66.2 67.1 71.5 78.1 74.4 67.1 62.3 61.9 66.6 72.5 76.9 82.3 88.5 97.4 109.4 122.3 128.8 130.2 129.7 128.6 127.3 124.9 122.8 124.4 126 126.5 126.5 124.4 116.7 106.4 95.2 83 74.4 66.7 61.5 59 59.8 63.2 68.2 76.7 85.4 96.1 103.1 104.6 104.1 102.8 101.4 98.3 94.5 90.5 86.2 78.6 70.7 64 61.2 64.5 72.2 82.4 89.7 96.3 96.2
135.8 136.8 137.6 138.4 138.7 138.6 138.5 138.2 137.8 138.1 137.5 136.4 135.4 135 133.2 131.9 130.8 125 120.3 114.2 110.5 108.1 104.2 104.8 102.5 100.2 98.5 97.4 97.2 94.9 90.8 87 85.4 89.5 94.2 98.9 106 114.6 121.9 127.9 130.1 130.9 131.3 130.6 129.1 126.4 124.3 121.2 117.9 119.3 121.3 120.3 117.5 109.8 104.7 110.2 116.8 122.5 123.7 123.5 122.1 117.9 113.6 109.1 101.5 98.3 101.7 107 113 118.6 123.2 127.3 129.8 128.6 127.6 126.8 122 121.6 125.2 126.9 129.3 129.6 130.4 132 133.4 134.5 135.5 136.6 137.5 137.9 137.9 137.8 137.6 137.2 136.7 136.2 134.6 131 129.9 128.8 125.2 121.6 116.8 110.5 104.9 97.9 91.7 87.1 82.6 79.3 77.7 77 78.2 82.4 80.9 78.8 76.9 76.5 76.7 76.2 75.6 75 76.4 82.3 86.9 88 85.3 79.6 72.7 68.8 68.6 69 69.3 69.8 70.9 70.8 70.5 70.2 70 70.6 72.9 81.1 82.7 74.9 67.3 63.3 62.3 65.6 71.1 76.6 83 90.1 99.1 112.3 126.2 130.4 131.9 131.3 129.8 129.1 127.5 126.1 126.5 128 129 127.2 122.4 113.2 101.2 88 77 68.5 62.7 61.5 62.2 64.5 67.3 73.1 81.9 93.3 104.6 108.1 108.9 108.1 106.3 103.6 99.6 95.2 89.5 82.5 74.3 66.1 59.6 64.2 69.5 82 91.8 96.9 99.5 98.5
136.3 137.1 138 138.9 139.2 139.2 139.4 139.1 138.3 138.2 137.4 136.5 135.5 134.2 132.5 130.7 126.4 121.2 116.2 111.4 110.4 110.8 111.6 112 109 105.6 104.8 104.1 102.3 97.5 91.6 86.2 87 90.8 95.3 100.1 106.8 114.7 122.6 129 131.1 131.6 130.3 129.4 128.4 127 126.4 123.4 123.5 124.4 123.8 122.5 118.8 112.3 106.5 112.5 119.3 124.4 125.6 125.5 123.3 119.3 115.2 109.5 102.2 98 102.9 109.7 114.9 120.3 124.4 127.7 130.6 129.8 129.2 128.3 124.1 121.5 124.8 126 127.4 128.6 129.8 132.2 133 134.3 135.9 137.4 138.2 138.2 138.2 138.2 138.1 137.5 136.7 135.4 132.8 128.8 127.5 124.2 116.3 110.3 103.8 97.7 91 86.5 81.8 79.6 78.8 78.1 79.3 82.9 85.9 87.5 85.8 83.5 81.2 81.1 80.9 80.8 80.4 81.2 84.7 89.1 90.4 86.7 78.8 72.5 70.6 71.3 73.7 73.2 72.3 72.8 73.8 74.7 74.4 74.1 74.4 77.8 84.7 87.8 83.5 74.9 69.3 64.9 63.2 65 70 75.4 82.5 90.6 101 115 128 132 133.2 132.6 131.1 130.2 130 129.4 129.8 130.1 131 129.2 118.8 109.4 94.7 80.9 71.7 65.5 63.2 64.5 66.1 68.5 72.1 78.6 90 102.8 109.5 111.9 112.1 109.8 107.1 104.6 99.9 93.5 85.1 77.6 66.8 56.8 62.6 68.6 74.9 86.3 97.6 98.8 98.8 95.3
136.7 137.6 138.5 139.2 139.4 139.7 139.6 139.4 138.3 138 137.2 136.4 135.3 133.4 131.3 126.5 122 117.5 114 116.3 117.9 120 119.4 118.2 115.3 113.2 110.8 108.9 105.2 99 92.4 88 87.9 92.7 97.1 101.4 107.8 115.7 123.5 129.5 131.3 131.3 131 130 128.5 127.6 128.6 126.7 126.4 126.3 125.7 124.1 120 113 107.7 113.8 121.4 126.2 127.1 127.2 125.2 121.4 117 109.8 101.6 99.5 105.8 111.6 117.4 122 125.8 129.1 130.8 130.4 130.4 129.4 126.7 123.4 123.6 125.4 126.7 128.5 129.9 132.5 133.6 134.7 136.2 137.8 138.7 138.5 138.3 138.4 137.9 137.6 135.3 132.3 127.6 124 115.4 106.2 101.1 96 90.1 84.4 82.5 81.1 80.2 80.1 81 82.9 84.2 86.6 89.3 91 89.5 87.2 86.1 85.8 85.7 86.2 86.8 87.7 92.4 93.9 90.9 83.4 74.7 70.8 72.5 76.4 78.6 76.9 75.6 75.6 77.5 79.3 81.1 82.6 86.2 92.4 98.9 94 83.6 75.3 70.9 67.2 64.3 65 69.1 74.4 81.8 90.7 103.3 117.9 130.5 132.9 134.2 133.4 132.2 131.7 131.6 131.8 132.4 132.6 130.2 126.1 114.7 102.1 87 76.1 69.4 65.3 67 68.6 70.3 72.6 76.6 86.5 100.1 110.4 112.6 114.3 112.5 110.6 108.1 105.1 97 89.7 79.1 69.3 57.5 54.3 65.2 72.7 81.5 94.1 99.7 96 95.8 93.5
136.8 138 138.9 139.5 139.8 140.1 139.7 139.4 138.7 137.9 137 136.1 134.4 130.9 126.8 121.9 118.3 117.3 119.8 122.5 123.6 123.2 123 122.3 120.6 118.4 115.5 112.5 106.7 98.5 93.7 89 88.5 93.8 98.3 102.6 108.8 116.6 124 129.3 130 130.3 130.4 130.5 130 129.5 129.3 128.6 128.1 128.8 128.3 125.6 121 113.7 108.8 115.5 123.2 127.4 128.6 128.4 126.6 123.5 117.8 109.9 101.8 101 109.1 115.1 120.4 123.9 127.9 130.5 131.2 131.3 131.2 130.4 128.7 125.7 123.5 125.3 126.8 128.5 130.1 132.1 133.5 134.9 136.4 138 139.2 139 138.8 138.2 136.1 133.9 129.7 126 119.3 108.4 98.6 91.4 87.8 85.3 84 83.7 84 84.5 84.4 85.7 86.7 88.7 88.8 90 92.8 93.7 93.2 92.1 91.3 90.6 90.6 93.1 94.9 96.5 96.9 96.5 88.5 77.6 72.6 72.5 78.2 82.8 82.6 80.9 79.2 79.7 82.3 84.8 89.4 95.7 98 106.2 107.4 97.2 83.3 76.8 73.6 70.3 66.9 65.5 68.2 73.4 81.4 92.3 106.2 120.4 132.3 134.3 135.3 134.3 133.9 133.4 133 133.5 134 132.5 130.2 123.5 110.9 96 84.4 76.4 69.2 67.3 70.1 72.6 75 77 83.8 95.7 110 113 114.7 116.2 113.2 111 108 101.7 93.8 83.7 71.1 60.2 54.7 57.1 70.6 79.6 91.3 100.1 92.8 84.9 86.9 87.7
137 138.2 139.3 139.8 140.2 140.5 140.8 139.5 138.4 137.5 136.6 135.7 133 129 124.3 119.7 119.6 121.8 124.4 126.4 127.5 127 126.3 125.1 122.8 120.8 118 114.5 109 101.9 94.8 89.6 89.3 94 98.7 103.7 109.6 117.1 124.5 128.4 130.8 130.8 130.8 131 130.3 130.7 130.8 130.3 129.8 130.5 129.9 126.9 122.4 113.8 110.4 117 124.6 128.4 129.5 129.8 127.8 124.3 119.1 110 102.5 103.3 112.4 117.9 124.2 128.3 130 130.5 131.8 132.1 132.1 131.1 129.1 125.7 125.5 126.9 128.6 129.5 130.7 131.9 133.8 135.7 137 138.4 139.8 139.7 139.5 137.3 133 127.1 124 114.8 102.7 92 87.9 85.7 85.5 86.6 87 88 88.9 89.7 91.6 92.9 92.9 94.7 93.2 95.5 98.7 100.1 99.7 97.8 96 95.6 95.8 98.6 101.7 103.1 101.2 96.6 84.3 74 74 78 81.3 85.1 86.5 84.8 83 83.4 86.2 93 99.9 106.6 110.4 116.2 112.2 99.2 85.4 79.6 76.4 73.2 69.9 67.1 68 72.7 83.5 93.7 111.3 125.1 132.9 135.3 136.6 135.4 135.3 134.9 133.8 134.2 134.6 133.8 128.3 121 108.8 95.3 84.1 75.6 69 69.9 73.9 77.3 79.8 82.8 93.8 107.1 114.7 118.6 120.2 117.7 114.4 109.6 101.1 94.5 88.1 74 62.5 59 62 69.8 79.2 89.9 97.5 90.7 87.4 79.9 77.5 82.1
137 138.3 139.4 139.8 140 140.3 140.6 140.4 139.1 137.8 136.3 134.6 130.9 127.1 122.4 121.4 123.5 125.6 127.7 129.2 128.8 128.3 126.8 125.2 123.2 120.4 117.3 114.2 109.2 104.9 94.7 90.4 90.3 94 98.4 103.7 109.9 116.5 124 127.5 131 131.1 131.1 131.6 132.1 132.6 131.8 131.7 131.5 131.2 130.2 127.4 123.2 114.7 112 118.5 125.9 130.4 131.1 130.5 128.7 124.3 118.9 110.5 104.2 104.8 114.4 120 126.8 130.5 132 132.4 132.3 132.7 132.2 131.8 129.3 126.4 127.8 129.1 130.5 132.4 132 132.8 134.5 136.1 137.7 139.1 139.3 139.6 138.6 134.9 129.5 121.2 109.8 99.8 92.6 88.1 86.4 87.2 88 89.2 90.8 93.5 94.3 95.8 98.8 100.5 100.9 99.8 98.7 102.9 105.3 107.1 106.7 105.2 104.2 104.9 104.1 106.3 107.6 106.7 101.7 93.4 79.2 74.6 77.5 81.9 87.2 91.1 92.1 89.3 86.9 87.6 93 100.8 108.8 115.7 120.9 121.1 116 103.3 87.4 82.1 78.4 75.1 71.9 68.6 68.1 71.4 81.8 94.8 114.7 126.5 133.9 136.2 136.9 135.8 135.2 134.8 134.5 134.4 134.1 131.8 126.7 119.6 108.3 95.4 83.7 75.8 71.6 71.8 77.8 83.2 87.3 93.5 104 114.5 118.9 121.6 121 118.4 112.6 103.3 91.9 85.8 77.9 67.5 63.9 69.2 74.5 81.6 91.6 98.2 94 82.6 77.4 73.4 65 65.5
137.4 138.7 139.4 139.9 140.1 140.3 140.6 140 138.5 137.3 135.8 134.3 130.2 125.3 123.8 126 128 129.1 130.2 130.1 129.7 128.7 126.8 125.2 122.8 119.9 115.5 112.5 108.6 104.6 94.9 89.6 90.6 94.9 99.5 103.1 108.1 114.5 121.2 125.5 129.4 129.9 130.4 132.3 132.6 132.8 132.6 132.5 132.3 131.4 129.7 127.8 124 116.1 113.4 119.9 126.9 131.3 132.2 131.6 129 125.1 119.6 111.6 105.8 107.2 115.9 122.3 128.4 132.1 133.9 134.6 134.5 133.8 132.9 132.4 129.8 127.4 129.5 131.4 132.8 133.3 133.5 134.6 136.3 136.7 138.1 139.7 139 139.1 136.6 131.2 122.6 110.9 99.5 92.6 88.6 87.2 88.4 89.8 91.1 92.2 95 97.5 98.8 100.3 103 106.4 107.2 107.6 104.1 108.8 111.4 113.7 113.6 113.6 113.6 111.8 111.5 111.8 110.1 107 100 89 76.7 76 80.9 86.6 93.3 97.2 99.6 95.1 92.6 94.3 101.1 110.2 117.1 123.1 126.1 125.7 118.5 108.6 92.1 85.9 81.2 76.4 72.9 69.7 69.1 72.2 82.2 94.3 113.3 127.2 135.7 137.1 137.2 136.5 136.1 135.6 134.7 134.1 133 130.1 124.6 117.4 106 93.8 83.6 76.4 73.2 74.1 83 89.8 99 108.1 116 119.9 123 123.6 121.8 117 109.7 94.8 87.9 85.5 82.5 77.5 77.3 81.7 89.4 97.3 104.6 95 86.4 78.8 66.6 62.2 56.7 51.6
137.8 138.8 139.3 139.9 140.1 140.4 140.6 139.2 137.8 136.1 134.5 133 129.1 127.1 127.4 129.2 130.1 131 130.7 130.2 129.9 129 126.8 125.1 122.2 119.4 113.8 109.2 105.6 100 93.8 90 92.3 96.6 100.3 104 108.6 115.5 121.3 125.6 127.9 128.6 131.1 132.1 132.8 133.3 133.4 133.2 133 132.5 130.8 128.7 125.1 119.5 114.9 121.1 128 132 133 132 129.1 126.2 120.7 112.5 105.9 107.8 116.7 123.5 129.7 133.8 135.2 136.1 136 135.2 133.9 132.9 130.3 128.9 131 133.4 134.2 134.7 135.2 135.7 137.2 138.7 139.9 140.1 140.1 138.7 134.2 126.3 111.5 101.5 94 89.9 88.4 90.6 92.4 93.4 94.5 95.3 97.1 99.8 102 103.6 106.9 110.8 113.8 110.8 110.8 115 116.6 119.1 121.2 120.2 118.3 117.1 115.4 113.9 109.2 103.8 95.7 82.4 76.5 79.8 84.5 91.7 99.1 105.3 108.5 107.6 104.6 106 111.1 117.9 124.9 128.8 130.2 129 121.4 110.9 97.1 89.4 83.2 77.6 74 70.5 69.9 73.6 82 93 110 127.3 136.4 137.7 137.5 137.3 136.9 135.9 134.9 133.3 131.5 126.5 120.2 113.5 104.1 91.9 83.9 76.2 74 78.8 88.9 100.2 109.9 117.3 121.4 123.5 124.6 124.1 121.8 114.8 105.6 92.8 92.3 92.6 90.7 89.1 94.2 101.6 105.3 106.8 99.3 83.2 74.8 67.7 59.1 54.1 50 44.1
138.1 138.7 139.3 139.8 140.2 140.4 139.8 138.4 137.1 135.7 134.1 132.1 130.4 128 129.9 130.8 131.5 132.5 131.2 130.2 129.4 129 127.1 124.8 121.7 118.9 114 108.8 103.3 97.4 91.7 90.5 92.9 97.7 101.5 105.3 111 117.8 123.6 127.9 130.3 131.6 133.3 133.5 133.8 134 133.9 133.9 133.7 133.2 132 129.9 126.9 121 116.4 122.5 129.1 132.9 134 133.6 130.2 126.4 121.8 113.5 108.7 108 117.3 124.1 129.9 134.4 136.4 137.1 136.9 136.4 135 133.4 130.5 130.5 132.6 135 136.1 137.1 137.6 138.1 138.4 139.8 140.4 140.8 139.3 137.1 130.3 120.7 105.2 95.8 91.1 90 92.9 95.3 96.5 97.9 98.5 98.4 99.4 101.7 104.4 107.9 111.6 115.6 119.6 117 119.1 122.3 123 124 125.8 124.8 122.8 120.1 116.9 112.1 106 99 89.1 78.6 77.2 83 87.8 94.3 103.4 112.5 116.9 118.5 117.1 118.6 123.2 127.7 130.5 132.6 132.5 130.6 123.8 115.1 104.6 91.7 85.5 79.4 75.3 72.3 70.2 74.5 82.3 92.1 109.4 126.8 136.1 137.7 137.5 137.4 137.3 135.8 133.5 130.4 127.4 121.4 115.4 109 99.4 89.5 82 75.2 75.5 83.4 93.6 106.2 117.3 122.3 124.7 126 124.9 123.8 121 113.2 104.3 94.2 98.5 104.9 104.7 108.8 110.1 110.8 111.5 111.4 99.4 78.8 69.6 62.3 55 50.4 44.3 38.3
138.1 138.7 139.2 139.8 140.2 140.4 139 137.6 136.3 135 133.6 130.7 130.2 130.5 131.6 132.4 133 132.9 131.7 130.7 129.8 128.8 126.8 124 120.7 118.5 113 108.4 103.2 98.9 93 90.9 93.9 98.2 102.5 106.9 113.4 119.8 124.7 128.6 131.6 132.2 133.6 134.3 134.5 134.6 134.5 134.4 134.4 133.6 132.5 131 128.6 123.5 117.8 123.8 130.2 133.5 135 134.6 132.2 128.2 122.7 114.7 108 107.6 117.8 124.4 130 134.9 137.1 138 137.9 137.7 135.5 133.6 132.1 134.1 135.4 136.7 137.7 138.8 139.9 139.9 139.7 141.3 141.9 141.1 138.2 133.6 126.5 115 99.3 92.8 91.9 94.7 97.6 99.8 101.5 103 103.6 103.6 104.5 105.2 108.8 112.9 117.2 121.3 124.6 125.3 125.2 127.6 128.1 130.1 129.5 125.8 122.3 117.8 112.7 106.6 100.7 92.8 81.8 77.8 77.9 81 89.7 95.7 106.1 117.3 123.5 127.2 129.5 130.3 131 132.9 134.2 134.3 134.2 131.6 125.7 117.9 103.9 91.7 85.6 80.9 77 74.4 71.8 75.6 82.9 93.9 111.9 127.9 135.3 137.8 137.6 137.4 135.6 133.1 128.9 125 118.3 112.5 106.8 101.3 95 86 78.8 76.6 79.1 86.8 97.3 110.4 120.6 125.1 126.4 125.9 124.7 123.3 120 111.4 101.4 96.7 106.4 111.4 114 115.3 115.9 116.4 115.1 111.5 100.8 80.7 71.6 61.2 55.3 48.4 42.1 36.3
138.4 138.8 139.2 139.7 140.3 139.6 139 139.1 136.3 134.6 133.8 130.9 130.9 132 133.3 133.9 134.5 133.2 132.2 131.3 130.3 129.3 127 124.2 120.9 117.8 113.7 108.8 103.9 97 91.9 92.1 95.1 98.7 102.7 107.1 112.9 118.4 123.8 127.4 131.1 132.2 133.8 135 135.3 135.2 135.1 135 135 134.7 133.9 132.1 129.6 125 118.9 124.6 130.7 134.8 135.9 135.2 133.7 129.8 124 117.3 110.1 108.2 116.4 124.4 130.5 135.5 137.6 138.5 139.2 138.5 136.6 134.1 132.2 134.7 137 139 140 141 141.3 141.5 141.6 142 142.4 140.9 136.5 130.5 119.5 108.4 97.4 92.9 95.3 100.4 104.2 106.5 107.8 110.6 111.6 109.8 109 110.1 114.1 118.4 122.8 126.9 129.2 128.8 128.4 131.1 132.8 131.3 129.6 125.9 120 114.1 107.8 101 95.9 84.9 80.3 79.3 82.2 83.6 91.1 97.6 109.8 121.5 128.1 131.8 133.4 134.4 135.3 136.2 136.4 136 135.7 133 128.2 119.1 104.4 93.8 87 82.1 77.1 74.3 72.8 76.5 83.8 98.3 115.1 130.1 137.4 138 137.1 135.4 132.4 128.6 122 114.4 107.1 101.6 97.2 92.4 87.5 82.4 78.8 79.3 82.8 89 100.2 113.1 122.8 127 127.3 126.4 125.2 123.5 120.9 109.7 103.5 102.3 112.9 116.7 118.5 119.7 117.4 115.6 112.2 103.8 96 90 79.5 63.4 54.3 47.5 36.9 34.4
138.9 139.4 139.8 140.3 140.4 140.1 139.2 139 136.9 135.3 133.9 133 132.5 133.3 135.1 135.3 134.8 133.8 132.8 131.9 130.9 129.2 126.8 124.1 120.6 117.4 113.6 109.5 103.6 95 92.2 92.7 96.7 100.3 102.5 106.4 111 118 123.3 128.2 131.6 133.1 134.4 135.8 135.9 135.8 135.7 135.7 135.5 135.3 135.1 133.2 130.6 126.4 120.1 125.3 131.4 135.9 136.4 135.8 134.8 131.4 125.8 120.1 113.2 110 114.6 123.5 130.1 135.5 138.3 139.4 140.6 139.2 137.5 135 135.2 136.6 138.3 140.5 141.5 142.5 142.5 142.9 143.3 143.5 142.9 139.2 133.9 125.1 112.9 102.4 96.3 94.8 100.1 105.6 110.1 112.7 118.3 119.3 119.4 117.2 115.5 115.4 119.3 123.8 128.7 132.3 134.2 133.2 132.1 134.1 134.2 131.7 127.7 122.6 114.9 109.9 102.9 94.6 87.8 81.4 81.2 84.7 88.2 88.3 91.8 100.6 112.2 124.4 132.1 135.9 137.2 138.2 138.4 138.9 138.4 137.9 136.8 133.3 128.6 121.1 109.3 99.2 88.9 82.9 77.9 73.3 73.4 79.8 86.1 104.1 119.9 133.3 138.5 137.9 136.1 132.5 128.5 122 113.8 105.2 98.7 92.3 88.9 86.5 83.8 83 83.2 82.7 85.9 92 104.1 116.3 126 126.3 126.6 126.5 125.8 123.9 121 113.7 106.1 110.7 118.1 120.4 121.2 117.6 114.2 111.2 101.8 92.5 84 76.2 68.7 57.5 48.9 42.3 31 27.7
139.4 139.9 140.3 140.5 140.6 140.6 139.2 138.7 137.4 135.9 135.5 134.6 134.4 134.9 135 135.4 134.9 134.5 133.4 132.5 131.5 129.2 126.6 123.5 119.4 116.3 113.8 109.8 102.7 94.1 92.1 93.6 98.2 101.2 104.1 107.2 111.9 116.3 122.4 127.3 131.3 133.9 135.4 136.1 136.5 136.4 136.4 136.3 136 135.8 135.5 134.2 130.8 127.1 121.5 127 132.9 136.4 137 136.7 135.8 133 128.1 122.3 115.6 110.7 113.6 122.6 129.8 135.5 139.1 140.2 140.9 139.1 137.5 135.4 136.3 138.6 140.2 142.1 143 144 144 144.4 144.7 144.2 142.6 137.3 130.5 119.5 107.6 100.4 95.5 96.9 101.4 107.4 112 117.1 121.5 124 125.8 125.4 124.3 122.4 125.2 130.2 133.3 135.5 135.9 136 135.3 135.5 131.2 126.6 121.4 113.1 106.3 102.4 95.5 87.9 83 81.6 85.6 89.7 92.8 94.1 94 102.7 113.8 125.5 134.5 138.7 140.6 141.1 141.1 140.7 140.3 139.8 137.3 133.6 127.5 116.8 107.8 97.9 90.3 83.9 77.2 74.1 75.6 83.3 92.6 111 124.1 135.6 137.9 136.6 133.2 130 123 113.2 104.7 98.5 93.4 90.5 89.8 88.2 89.3 92.4 88.8 86.9 89.1 95.6 108.7 121.6 125.9 125.8 125.9 125.8 126.1 124 120.4 113.7 109.8 117.6 121.8 123.3 119.9 116.5 109.9 99.3 88.7 78.6 70 63.1 56 50.7 45 33.4 11 20.7
139.7 140.1 140.4 140.5 140.6 140.8 139.2 138.4 137.6 136.7 136.5 136.4 135.8 136.3 136.3 136.1 135.6 135.2 134.3 133 131.7 129.1 126.2 122.8 118.8 114.2 110.6 106.6 100.3 93.6 92.7 95.3 99.2 102.7 105.8 111 116.2 121 123.5 126.4 130.4 133.5 135.4 136.2 137.6 137.3 137.2 137.2 137.2 137.1 136.2 134.9 130.9 126.9 122.8 127.9 132.9 136.8 138.1 137.7 137.3 133.9 130 123.9 117 111.4 112.7 121.8 129.9 136.1 139.6 141.1 141 139.3 137.3 137.1 138.3 140.2 141.3 143.4 144 144.8 145.3 145.6 144.8 143.4 140.1 134.2 125.4 114.9 105.6 97.8 94.9 96.1 100.2 106.2 112.9 118.9 124.3 128.4 131 131.8 130.5 127.4 131.3 134.3 136.8 136.9 137.1 137.2 136.9 132.4 125.5 118.4 110.5 103.9 97.8 88.4 87.8 83.4 83 85.1 89.2 93.9 99.8 99.6 98 100.5 111.6 124.9 138 141.3 143.2 143.1 142.9 142 141.4 140.6 136.8 131 123.4 114.4 103.1 94.4 88.2 82.1 75.4 74.2 79.3 85.5 100 116.9 128.5 136.4 135.6 134.8 129.7 124.1 114.7 103.9 99.7 97.2 96.3 94.8 95.5 99.4 102.3 101.3 92 91.2 93.5 104.3 117.2 124.3 127.6 127.1 127.1 126.9 126.3 123.3 120.3 111.6 117 120.7 123.9 121.9 110.9 83.3 96.7 85.2 74.2 66.4 59.6 52.9 48.3 40.4 6.1 3.9 7.9 11.6
140.3 140.3 140.5 140.6 140.9 141.1 139.6 139.7 138.9 137.8 137.2 137.4 137.5 137.7 137.5 137.1 136.5 135.9 135 133.9 131.8 129 125.7 121.6 117.3 112.2 107.5 103.9 95.5 93.4 93.3 96.6 100.1 103.9 108.6 113.5 119.3 125.9 128.5 129.8 131.6 134.7 135 136.3 137.8 138.6 138.5 138.6 138.9 138.9 137.8 135.9 132 128.1 124.2 129 134.4 136.9 139.1 139 139.2 136.4 132.3 128.2 120.9 113.9 112.8 120.1 129.1 136 140.3 141.6 141 140.4 137.6 138.8 140.6 141.7 143.1 144.1 145.1 145.8 146.3 146 145.3 142.8 138.1 130.3 121.7 112.1 104.3 96.8 95 98.6 101.6 105.1 111.7 119.9 127.3 132.5 134.2 135.8 134.6 133.3 135.1 137.9 138.6 138.8 138.5 136.7 133.7 126.3 113.4 103.7 97.2 91.6 88 85.4 85.2 85.4 87.1 89.3 92.5 97.8 106.2 107.8 101.9 103 110.5 123.8 137.3 143.7 145.1 145 144.2 143.4 142.6 139.6 135 125.6 117.6 107.8 98.7 91.3 85.2 79 75 75.1 82.7 90.6 107.4 123.6 134.1 137.1 135.9 132.6 126 114.1 104.7 100.5 100.8 101 102.2 106.6 111.6 116.4 115.5 107.6 93.5 93.1 103.4 115.3 123.4 127.2 129.9 129.2 129.2 128.1 125.5 122.8 118.4 117 122.2 124.1 122.6 107.2 69.4 50.5 66.9 72.2 63.8 57.1 50.7 47.5 27.1 3.2 3.1 1.9 4.5 14.2
140.6 140.5 140.8 141.1 141.4 141.2 140.5 140.1 140.1 139 138 138.9 138.6 138.9 138.5 138.1 137.6 137.3 136.1 133.8 131.1 128.3 124.5 119.8 115.1 110.1 104.4 100.1 94.4 93.6 95.3 98.8 101.8 104.3 110 115.4 120.8 127.3 132.5 133.5 134.7 135.7 136.8 137.2 138.5 139.1 139.6 139.8 140.1 140.4 139.3 136.8 133.1 129 125.7 129.8 135.7 137.6 139.5 140.3 140.9 139 135.5 131.7 124.6 117.4 113.7 119 128.2 135.9 140.7 141.5 141.8 141 138.8 140 142.3 143.2 144.7 145.6 146.4 147.1 147 146.6 145.4 140.8 135.9 127.2 118 109 101.2 96.7 96.6 102.3 107.3 107.1 111.1 120.4 128.5 135.3 137.4 139.3 138.8 137.9 139.5 140.2 140.2 140.2 136.8 134.6 126.1 110.3 102.2 93.2 89.5 90.3 89.5 88.8 89.3 90.2 91.3 93.6 96.7 104.1 114.2 115.9 109.6 107.6 111.5 124.3 138.9 145.2 146 146.2 145.7 145.2 144.4 139.1 131.1 120.4 110.6 101.7 95.9 89 82.2 77 75.6 79.7 87.7 98.3 115.2 130.1 136.5 137.5 134.1 128.5 118.8 105 104.8 108.8 111.8 111.7 117.3 121.6 124.1 125.1 119.6 106.2 97.3 99.6 112.9 122.3 126.7 130.3 130.9 130.5 129.6 127.6 125.3 121.3 119.3 123.2 124.6 125.9 118.5 103.2 57.9 42.9 44 62.4 55.2 48.4 45.6 23.6 2.9 2.8 1 23 23 14.9
140.9 141.3 141.4 141.7 141.8 141.4 140.9 140.5 140 139.5 139.1 140.2 139.3 139.5 140 140.1 140 138.3 135.8 133.2 130.5 127.8 123.5 119.3 112.7 107.2 101.3 99.2 94.8 94.9 96.8 99.5 102.3 104.3 109.1 115.5 121.1 126.4 130.7 133.3 135.5 137.8 138.8 138.2 138.8 139.5 140.2 140.8 140 140 139.8 137.3 134.7 130.1 127.1 131.4 136 138 140 141 141.7 140.7 137.3 134.8 128.2 120.9 116.5 118.4 127.3 136.2 140.8 142.3 143 141 139.8 141.6 143.6 144.5 145.5 147 147.6 148.1 147.7 146.9 144.3 138.9 132.8 123 114.2 107.1 99.9 97.8 101.2 108.4 115.8 115.4 113.3 120.7 129.9 138.1 140.3 141.3 141.7 141.2 141.7 142 141.7 141.3 137 125.1 108.7 100 93.5 91.6 93.8 94.6 94.6 94.3 95 95.3 95.6 97.6 103.6 114 121.5 124 119.6 112.4 114.9 128 140.1 146.4 147.3 147.1 146.5 146 144.1 135.1 126.1 114.3 104.6 98.3 92.5 86.8 79.8 77.3 80.8 84.8 91.7 104.9 121.9 133.9 138.4 137.7 132.7 124.2 111.7 110.6 116 119.3 122.3 126.6 129.1 131 132 128.2 118.3 105 102.5 110.6 121.8 126.6 129.9 131 131 131 128.8 126.8 124.8 121.9 122.9 125.1 125.7 120.9 113 98.1 81.5 44.5 42.4 41.6 47.1 43.8 28.2 2.6 2.6 2.4 23 23 23 20.5
142 142 142 142.2 141.9 141.5 141 140.6 140.5 140.4 140.8 141 141.4 142.1 142.7 141.9 140.8 139.2 136.2 133.3 130.6 127.7 122.8 117.6 111.3 105.1 100.4 95.9 94.5 96.5 99.2 100.2 102.3 104.2 108.2 112.5 117 123.1 127.4 131.2 136 138.8 140.3 139.6 140 140.4 141.1 141.7 141.4 140.2 138.8 138.2 136 131.7 128.2 132.1 136.5 138.5 140.5 141.6 142.4 142.1 139 136.9 131.7 124.1 118.2 119.1 127.5 137 141 143.5 143.6 141.4 140.9 142.8 144.6 145.7 147.4 148.4 148.8 148.6 148 146.6 143.6 136 129.5 120.8 112.8 105.9 99 100.8 106 115.2 123.8 122.4 115 124.8 133 141.1 143 143.4 143.3 143.1 143.2 143.8 142.5 138.8 130.7 111.8 101.7 94.9 93 95.7 97.8 99.4 99.8 100.8 102 105.4 101.6 102.9 112.1 121.4 129.6 132.6 128.2 118.9 122.9 133.8 142.8 147.4 148.4 148 147.4 146.8 140.8 131.3 119.3 108.3 100.5 95.1 89.5 83.8 79.4 78.3 83.7 88.7 98.1 115.6 129.1 138.4 139.6 137.5 131.2 120.2 112.9 117.3 124.7 129.6 132.9 133.5 133.8 133.6 132.9 129.8 113.6 107.4 112.9 122.2 127.1 129.9 132.5 132.3 131.6 130.4 128.2 126.3 124.5 125 126.2 124.6 120.4 112.1 101.8 88.6 70.5 59.8 51.3 45.7 41.4 36.1 2.1 2.4 2.3 23 23 23 23 23
142.8 142.7 142.6 142.8 142.5 142.2 142 142 142.1 142 141.9 142.2 142.9 143.4 142.9 142.2 141.4 140.1 136.9 133.4 130.7 127.1 122.7 116.9 112.2 106.4 101.1 95.6 97.5 101.9 104 106 106.5 107.4 108 110.1 114 117.6 122.9 128.9 133.6 138.3 140.8 141.2 141.5 141.9 142.2 142.6 142.6 141.6 140.4 138.9 136.9 134 129.2 133.3 136.8 139 141 142.3 143.1 143.6 140.9 138.5 134.5 127 119.5 121.7 127.2 136.8 141.2 143.8 143.4 142.5 141.9 143.3 145.3 146.5 148.5 151.4 148.7 148.5 148.2 145.6 140.6 133 125.6 118.3 109.1 103.2 98.9 100.4 109.6 121.5 129.6 128.3 118.7 127.3 135.5 142.8 144.9 145 144.9 144.8 144.6 145.2 142.7 136.3 120.2 107.4 98.3 95.3 97.5 99.8 101.7 103.5 107 112.4 117.9 121.4 106.9 107.8 120.1 129.2 136.1 138.8 134.5 127.9 134.4 141.3 147.1 149.1 149.4 149.3 148.7 145.7 138.3 125.8 113.2 102.6 97.5 92.8 87.8 82.2 79.8 80.5 87 93.8 106.2 121.7 133.8 139.2 139.9 136.5 128.9 116.2 116.1 123 130.6 133.9 135.7 137.4 135.9 134.5 132.6 125 114 121.1 125 128.7 130.8 132.6 133.4 133.1 131.9 129.9 128 125.7 124.6 126 126.1 123.6 112.6 102.8 90 76.1 61.1 51.5 45.7 41 36.1 3.1 2.3 2.3 6 23 23 23 23 23
142.7 142.5 143.1 143.7 143.5 143.2 143.3 143.3 143.4 143.4 143.4 143.6 143.9 143.8 143.1 142.4 141.7 141 137.7 134.2 130.8 127 122.8 116.8 111.6 105.8 99.1 97.3 102.5 107.6 109.9 112.4 113.3 114.1 114.6 114.7 113.1 114.7 119.7 126.2 132.4 136.6 140.9 142 142.4 142.8 143.1 143 142.7 142.1 141.3 140.5 139.1 134.6 130.3 133.6 137.1 139.3 141.5 143 143.9 144.7 143 140.4 135.7 129.1 121.7 118.6 125.5 135.7 141.9 144 144.1 143.5 142.9 144.6 145.8 146.6 148.2 148.8 149 148.6 147.9 146.5 141 133.4 124.1 115.2 108 101.3 100.6 103.4 113.4 127.7 134.6 132.6 122.7 132.4 139.8 144.2 146.1 146.6 146.5 146.4 146.2 145.6 141.7 132.1 115.1 104.3 96.7 98.8 104.7 105.8 104.3 113.3 121.6 129.1 134 128.4 113.8 114.5 126.8 134.6 140.3 143.7 141.1 136.8 142.3 146.8 149.3 150.3 150.3 150.2 149.6 146.2 137.2 123.7 108.5 99.6 94.2 89.6 85.4 81.7 81.9 84.9 91.8 99.8 116.1 130.4 137.6 140.5 139.4 135.5 124.6 117.2 120.7 127.9 134.6 136.4 137.9 139.8 138.4 136.4 132 120.6 123 130 132.3 132.8 133.4 134.5 134.2 133.5 131.7 129.8 127.8 125.9 125.3 125.9 125.7 118.2 104.2 92.9 77.9 62.7 52.4 47.3 42.5 37.4 19.5 2.1 2.1 1.5 23 23 23 23 23 23
143.3 143.1 143.9 144.5 144.5 143.9 143.9 144 144.1 144.2 144.3 144 143.8 143.7 143.3 142.6 141.9 141.2 138.1 134.6 132.7 128.6 123.1 116.4 109.8 104.5 98.5 97.4 105.1 110.5 113.1 116.8 119.3 121.5 120.8 120.1 118.4 117.5 118.4 124.1 130.7 136.1 140.3 142.3 143.2 143.6 143.6 143.3 143.6 143.6 142.7 141.5 140.4 136.9 132.6 134.1 137.7 140.4 142.6 143.8 144.7 145.6 144.1 142 136.8 131.1 124.4 119.3 123.3 133.1 141.9 144 144.8 144 144.2 145.8 147.1 147.5 148.5 149.3 149.7 149 148.1 145.1 139.7 131.5 121.8 112.6 106.1 101.3 101 106.8 118.8 132.8 139.3 136.3 129.4 138.4 143.5 146.1 147.2 147.9 147.8 147.8 147.7 145.5 140.1 127.8 111.6 102.5 96.5 105.5 107.6 114.4 118.8 126.8 132.2 137.7 139.2 135.9 120.3 119 131.8 139.7 145 146.9 146.9 146.5 148.4 150.2 151.3 151.3 151.4 150.5 149.8 145.4 134 120.2 105.1 97.4 91.3 87.2 83.2 82.3 85.8 90.8 98.4 109.9 127.2 135.6 140.3 142.1 140.4 132.3 122.3 122.6 128.8 134.3 138.3 139.1 140.1 141.2 139.5 136.4 130.6 124.7 132.3 134.7 134.9 136.3 136.1 135.1 134.7 133.7 131.8 129.8 128.9 128 127 125.5 120.9 109.5 94.3 79.1 64.6 54.6 48.2 43.4 39.6 34.8 2.1 2.1 2.1 23 23 23 23 23 23 23
144.4 144.3 144.2 145 144.6 144.2 144.3 144.3 144.4 144.5 144.4 144 143.3 143.1 143 142.9 142.2 141.3 139.1 136 133.3 130 125.3 117.6 108.9 103.2 98.3 98.4 105.1 109 112.1 117.3 122.4 125.2 127.1 126.3 124.1 123.1 121.8 122.4 128.7 135.5 139.4 141.6 143.7 144.2 144.4 144.6 144.8 144.8 143.8 142.6 141.4 139.1 134.4 134.7 138.4 141.9 143.8 144.8 145.6 146.5 144.9 143.2 139.7 133.8 127.4 122.2 122.6 131.1 140.6 144.8 146.6 144.7 144.9 146 147.2 148.4 149.6 150.5 150.4 149.1 148.3 143.8 138.8 128.2 118.1 109.3 104.1 100.8 104.1 111.4 125.4 138 141.9 137.8 133 141.8 145.7 147.4 148.7 149.1 149.2 149.1 149.1 145.5 138.6 123 109.5 100.8 98.9 108.7 117.3 122.6 128.4 133.9 139.2 143.1 143.7 139.7 126.5 124.7 134.2 146.1 147.6 149.5 149.4 148.9 150.7 151.9 152.4 152.4 151.9 150.5 149.3 143.6 130.7 117.2 104.5 95.8 90.2 86.1 83.8 84.5 88.9 96.6 105.4 119.8 134.1 139.8 142.2 141.8 138 128.6 121.5 128.5 135.1 138.7 141.1 141.3 141.9 142.1 139.7 137.7 128.8 131.4 135.9 138.5 137.9 137.3 137 135.8 136 135.7 133.9 132.2 129.7 129 125.8 123 110.9 99.5 83 66 56.7 49.4 44.9 40.5 36.6 8.3 2.2 2.1 23 23 11 23 23 23 23 23
144.9 145.1 145.1 145.3 144.9 144.6 144.6 144.6 144.7 144.6 144.5 144 143.3 142.5 142.3 142.2 142.2 140.8 138.6 136 133.4 129.5 124.7 118 109.5 103.2 98.8 99.7 104.8 108.7 113.2 118.4 123.9 127.8 129.9 130.4 130 128.9 126.8 124.2 126.6 133.9 138.7 141.4 143.8 145.2 145.4 145.6 145.7 145.5 144.8 143.7 142.6 140.8 137.1 136.2 139.7 143.2 144.7 145.7 146.5 147.4 145.8 144 141.8 137.1 131.5 123.8 122 130.4 139.2 145.4 146.7 145.4 145.6 146.6 148.1 149.3 150.3 150.9 150.9 150.8 148 142.8 136.6 123.2 113.6 107.1 102.5 103.3 107.5 118.4 132.8 142.5 144.1 139.7 137.2 143.9 146.9 148.4 149.6 150.1 150.5 149.6 147.8 145 136.6 120.2 108.8 101.5 99.7 109.1 118.2 126.5 133.9 139.6 144.4 146.4 147 143.4 132.5 129.6 139 148.4 150.1 152.2 151.8 151.3 152.3 152.9 153.5 153.2 152 150.1 148.1 140.4 128.3 114.4 102.7 94.5 89.1 85.2 84.6 87.3 92.9 100.5 113.2 129.3 139.8 142 142.7 141.7 135.4 127.1 127.2 136.2 139.6 141.5 143.3 143.7 144.2 143.9 141.3 137.4 131.9 136 138.5 139.3 139.1 138.5 137.9 137.1 136.5 136.4 136.3 134.6 130.2 126.8 122.8 114.3 98.7 84.4 71.2 58.7 52.3 47.5 42.8 38.3 30.4 2.1 2.2 23 23 23 2.6 23 23 23 23 23
145.1 145.6 145.6 145.7 146.4 145.7 144.9 144.9 144.8 144.7 144.6 144 143.3 142.5 141.8 141.6 141.5 140.2 138.2 136 132.2 128.3 122.6 117.4 110.1 102.4 99.9 101.2 105.5 109.8 114.9 120.5 126 131.1 133.3 135 133.7 133 132.6 128.5 127.3 132.4 138.7 141.8 143.9 145.2 146.3 146.5 146.5 146.2 145.9 144.8 143.8 142 138.7 137.4 141.3 144.6 146 147 147.4 148.3 146.7 145 143 139.8 135.2 126.6 123.1 127.7 137.5 144.5 146.9 146.4 146.3 147.4 148.7 149.4 150.4 151.1 151.7 151.2 146.8 140.4 132 119.8 111 105.3 103.1 106.2 111.3 125 140.3 146.1 145.8 140.4 141.9 146.6 148.7 150.1 150.7 150.6 151.3 150.1 148.4 144.9 135.6 120.1 109.3 102.7 101.1 109.3 118.8 129.6 139.1 144.3 148.2 150.5 148.8 147.4 136.2 136.8 145.9 149.7 153 153.6 154.4 154.6 154.1 154.1 154.7 154.2 151.7 148.4 145.7 135.9 123.8 111 101 94.4 88.3 86.9 86.7 90.6 97.1 106.5 120.7 136.1 142.4 145.3 143.7 141.2 132.3 128.6 134.1 140.9 142.5 143.4 145.3 146 146.2 145.6 141.9 137.4 136.6 139.1 140.5 140.6 140.2 139.6 139 138.2 136.9 136.7 137 136.9 131.9 124.6 118.8 105.3 89.2 72.5 60.7 54.9 50.3 46 40.9 36.2 2.8 2.3 4.9 23 23 4.3 12.9 2.4 23 23 23 23
145.3 145.7 146.2 146.2 146.1 146.3 145.7 145.1 144.9 144.9 144.7 144 143.3 142.7 142 139.9 140.2 139.4 137.4 135 131 126 120.2 115.3 108.1 101.5 99.9 102.6 106.9 111 117.2 122.8 128.3 134.1 136.8 138.5 137.9 136.9 136.4 133.6 130.1 131.9 137.5 141.5 144 145.3 146.6 147.5 147.2 147 146.8 145.8 144.8 143.1 139.5 138.7 143.3 145.7 147.5 147.8 149.1 149.2 147.7 146.1 144.1 141.3 137.1 129.5 125.8 126.3 135.2 144.1 146.4 146.8 147.1 148.2 149.8 150.1 150.4 150.6 153.3 150.8 145.5 136.7 127.2 115.9 108.5 104.5 105.4 109.8 116.4 131.9 144.1 148 147.5 143.7 145.7 149.1 150.7 152 152.5 152.1 151.9 150.8 148 144.6 136.5 122.2 110.5 103.8 102.7 109.9 120.1 131.6 142.7 147.3 150.7 152 150.6 146.3 142.2 143.4 148.4 152 153.7 155.1 155.7 155.9 156 155.6 155.8 155.2 152.1 148.3 139.8 129.3 116.8 106.6 99.7 92.6 87.3 86.8 89.9 95.4 102.1 112.2 125.9 138.9 144.7 145.8 143.9 139 130.9 136.1 139.6 143.2 145.5 146.3 147.2 147.9 147.2 146.5 144.3 138.5 141.4 142.2 141.7 140.4 140.6 140 139.4 138.2 137.4 137 136.6 135.6 127.7 121.7 111.9 94.4 79.3 64.2 57.1 52.6 48.3 44.6 39 16.7 2 1.6 23 23 3.4 4.7 23 23 23 23 23 23
145.5 145.9 146.4 146.3 145.9 145.6 146 145.3 145.2 144.9 144.3 143.9 143.5 143.1 141.9 140.2 137.3 137 134.8 133.1 129.1 123.7 118.4 114.1 108.1 100.7 100.7 104.1 108.2 112.4 118.4 125.1 130.7 135.9 139.5 141.1 140 140.1 139.6 138.5 137.3 133.2 135.6 140.2 144.1 145.4 146.7 148.1 147.8 147.8 147.6 146.7 145.7 143.8 140.2 141 145.1 147 148.7 149.5 150.1 150.1 148.8 147.2 144.5 141.5 136.9 131.4 127.6 125.5 134.3 144.6 147.2 147.7 147.9 149 150.5 150.5 151.1 152.7 153.8 150.4 142.9 130.2 118.4 112.1 106.4 105.8 108.6 113.7 124.3 137.9 146.7 150 148.7 146.1 148.3 151.4 153 153.6 153.4 152.9 152.4 150.9 148.5 144.9 137 125.4 113.5 105.4 103.3 111.3 122.4 134.3 147.1 150.3 152.6 153.1 152.3 149.2 146.3 147.4 150.5 153.4 155.2 156 156.3 156.6 156.8 156.9 156.7 156.4 151 144.7 131.8 120.6 110.3 103.4 96.9 91.1 88.6 89.3 92.7 97.6 105.3 116.9 131 142.1 146.7 145.6 142.4 135.3 134.4 142.9 145.9 147.3 147.4 148.2 149.1 148.9 148.1 147.2 145 143.4 143.5 143.8 143.3 141.6 140.8 140.2 139.1 137.7 137 136.7 134.4 126.6 119.5 108.9 98 82.2 69.6 59.4 54 49.9 46.8 44 33.7 2.8 2.1 23 23 23 5.9 8.4 23 23 17.7 23 23 23
146.2 146.1 146.5 146.4 145.7 146.2 145.9 145.1 144.6 144 143.5 143.1 142.7 142.3 141.2 139.9 138.6 135.1 132.4 129.6 123.7 120 116.1 111 106.4 100.4 102.3 105.2 109.5 113.7 119.5 126.2 132.5 136.9 141.3 142.1 141.9 141.6 142.1 140.8 140 135.8 136.2 139.6 143.3 145.7 147.1 148.4 148.6 148.6 148.2 147.5 146.5 144.1 141.4 143.1 146.3 148.3 150.1 150.7 150.6 150.5 149.4 147.5 145.2 141.2 139.4 135.1 129.1 127.3 134.7 144.9 148.3 148.6 149 149.6 150.9 151.1 152.9 154.2 153.5 149.8 140.4 125.2 114.2 108.2 107.1 108.9 112.9 119.4 133.1 144.3 150.7 151.5 150.4 149.5 151.8 153.8 153.8 153.8 153.8 153.4 152.4 151 148.8 144.2 136.4 126.3 115.5 106.5 104.6 113.2 125 140 150.2 152.6 153.5 154.4 154.1 152.3 150 149.7 152.5 155.4 156.2 156.4 156.6 156.9 157.3 157.4 156.2 154.9 148.5 135.9 123.7 113.9 107.2 100.7 94.8 90.1 89.6 92 95.1 100.1 108.8 117.9 134.9 145 147.7 146.2 143 136.4 140.4 146.2 148.6 148.6 148.4 149.2 149.7 149.5 149 148 145.8 145.3 144.7 144.3 144.3 142.7 140.9 140.5 138.7 137.2 136.7 131.5 121 116.3 110.3 98.8 81.4 72 62.8 55.5 50.8 48 45.7 40.3 36 7.5 3.9 12 23 3.1 26.3 29.5 23 23 23 23 23 23
146.8 146.8 146.7 146.5 146.7 145.8 145 144.3 143.3 143 142.6 141.5 140.4 139.3 138.4 137.7 137.4 135.9 132.4 127.1 121.1 116.4 111.7 107.5 103.3 101.7 104.5 107.3 110.4 114.4 120.1 126.4 134.2 138.9 141.9 142.3 142.7 143.1 143.5 142.7 141.9 139.2 139 141.8 145 146.3 147.6 148.8 149.2 148.9 148.6 147.9 147 145.3 142.1 144.1 146.9 149.6 150.6 150.9 150.7 150.6 149.5 147.7 145.7 144.5 143.4 138.8 130.4 128.3 136.2 146.3 149.4 149.7 150 150.3 152.1 152.9 153.3 153.7 152.4 148.9 137.3 122 111.9 108.2 110 113.7 117.4 126 142.3 149.8 153.5 153.3 152 151.4 153.4 154.3 154.8 154.1 154.1 153.8 152.5 151.1 147.6 141.6 133.3 122.2 112.1 106.1 105.7 114.6 126.9 141.1 150.8 153.5 154.4 154.5 154.3 153.8 152.6 152.3 154.4 155.6 156.4 156.6 156.9 157.2 157.6 157.8 155.3 150.7 142.3 128.3 116.9 109.4 104.4 98.1 93.7 90.8 91.6 94 98 103.9 110.7 121.7 138 146.3 148.4 146.1 142.5 139.1 144.5 148.1 150.1 149.9 149.1 150.4 150.2 150.1 149.6 149 148.2 147.3 146.6 145.9 145.2 143.6 142 140.2 138.1 128.9 121.2 113.6 105.8 97.4 89.7 82.1 72.8 62.4 58.6 52.4 49.6 48.1 43.4 40.6 29.9 21 16.7 11.6 4.8 5.7 39.3 36.5 0.4 23 23 23 17.8 16.1
146.4 146.6 146.8 147 146.8 145.4 144.2 143.5 142.3 141.5 140 138.5 137.4 136.3 134.2 133.5 134.3 132.9 129.8 126 121.2 117 110.1 105.1 101.7 103.7 106.6 109.4 112.7 116.2 121.7 127.2 135 140.2 142.1 142.5 142.9 144 145.1 144.6 144.5 143.8 141.8 144 146.2 147.2 148.4 149.4 149.6 149.2 148.9 148.2 147.2 145 143 145.7 148.4 150.2 150.8 151.1 150.9 150.7 149.7 149.2 148.8 147.6 146.2 140.4 131.6 128.8 138.8 148.2 150.3 150.4 150.7 151.5 152.5 153.2 153.4 153.8 150.8 146.8 131.9 116.5 110.8 109.4 113.4 117.1 122 135.2 147.2 152.6 154.4 155.3 154 153.5 154.6 154.8 155.8 155.7 154.7 154.1 152.8 148.6 144.6 138.7 126.2 118.3 113 107 107.4 115.4 127.1 143.3 150.5 153.7 154.5 154.5 154.1 153.8 153.5 153.3 154.5 155.6 156.6 156.8 156.6 156.7 157 154.6 150.6 144.6 133.3 124.1 112.5 106.7 101.8 97.8 93.5 91.7 93.4 97.2 101.6 107 112.9 128.1 141.5 146.6 149.2 146.9 142.8 139.8 144.4 149.4 150.5 150.6 151.6 151.3 150.9 150.6 150 149.3 149.3 148.8 147.8 146.9 145.9 144.5 142.1 139.4 136.5 119.8 102.4 94.1 86.8 82.2 77.1 70.8 63.4 58.3 55.3 51.7 47.9 48.3 41.8 40.3 37.6 35.7 29.3 26.5 18.6 20.6 35.4 34.8 34.2 33.9 34.7 35.2 35.3 35.4
146.2 146.5 146.9 147.3 146.5 145.2 143.8 142.6 141.4 138.1 136.1 135.1 131.8 129.3 128.4 128.5 127.3 125.1 122.7 120.2 117.9 112.6 106.2 103.5 102.8 105.5 108.4 112 115.4 119.3 123.9 128.8 136.8 141.5 142.3 143.3 144.5 145.6 146.8 146.4 145.6 145.3 143.9 146.1 147.5 148.3 149.1 149.7 150.1 149.6 149.2 148.6 147.4 145.1 143.9 147.2 149.1 150.4 151 151.3 151.1 150.9 150.3 150.3 150.1 149.1 146.4 141.5 133.1 129.3 142 148.2 150.8 151.5 151.3 151.8 153 153.6 153.7 153.9 149.6 141.9 125.5 114.4 111.1 112.6 116.6 120.4 127 142.4 149.6 155.7 156.7 156.9 156.2 155.4 155.4 155.8 156.8 156.7 156.4 153.8 151.3 146.8 141.9 137.6 132.9 120.9 112.9 107.7 108.5 116.1 125.6 139.7 148.7 152.4 154 154.4 154.2 154 153.8 153.5 154.6 155.7 156.8 156.8 156.5 156.1 154.2 151.5 144 133 123.3 116.9 109.1 104.4 100.4 96.7 93.6 92.6 94.3 99.2 104.5 110.1 119.8 134.6 145.4 147.8 150 147.8 144.2 142.8 147.1 150.4 151.8 152.6 152.6 152.3 152 151.6 151.5 151.2 150.6 149.6 148.5 147.6 146.5 144.6 141.7 135.7 130.4 114.2 94 84.2 78.5 73.8 70.4 64.1 58.3 54.1 52 47.8 45.2 42.4 41.7 40.3 39.3 38.5 37.8 36.5 34.5 32.2 29.5 27.2 26.1 26.4 26.4 26.7 25.9 26.6
147 146 146 146.4 146 144.7 143.3 142.1 139.2 135.5 129.4 126.2 123.8 122.7 122.1 121.6 119.2 117 114.9 113.3 111.8 107.4 104.7 103.6 104.4 107.3 110 114.4 118.3 123 127.7 132.8 138.4 142.8 143.9 145 146.2 147.3 148.5 148.2 147.4 146.5 145.9 147.9 149.1 149.5 149.7 150.1 150.5 150.1 149.7 148.8 147.6 145.8 144.9 147.8 149.4 150.6 151.2 151.7 151.7 151.5 151.5 151.6 151 150.2 146.9 142.2 133.4 130.8 142.5 149.5 151.7 152.1 151.6 152.5 153.5 154.3 154.5 154.1 149.4 139.4 120.8 112.8 111.8 115.9 119.9 124.5 134 145.8 153.2 157 157.5 158.2 157.5 156.8 156.4 157 157 156.3 156.3 154 150.9 146.3 143.5 145.5 138.3 125.4 114.5 109.2 109.7 118.6 123.2 134.5 145.4 150.5 152.2 154.7 154.4 154.3 154.1 153.9 154.8 155.9 157 156.6 156.1 153.6 150.1 143.3 133.1 126.4 120.8 114.5 108.6 104.2 100.4 96.8 94.2 93.6 98.7 104 114.4 120.6 128.2 143.7 149.8 152.7 151.8 149.9 146.2 144.4 148.8 152 152 152.8 153.3 153.3 153 152.7 152.6 152.5 151.3 150.3 148.6 147.6 145.2 142.5 135.5 125.6 116 95.6 83.6 77.8 72.7 69.2 65.1 60.6 55.2 51.8 48.8 46 44.2 42 40.4 40.9 40.3 37.5 12.3 15.6 15.9 14 13 22.5 22.6 20.6 19.3 17.9 17.1 16.6
147.2 146.8 145.6 144.9 144.6 143.9 143.1 140.7 137.3 129.8 126.1 125 123.4 121.9 118.7 116.9 114.8 112.2 110.1 108.8 106.6 105.2 104.3 106.7 108.5 111.1 113.4 116.4 122.1 126.8 131.7 137 141.7 144.8 146.1 147.1 148.1 149.1 150.2 149.9 149 148 147.9 149.8 150.2 150.5 150.8 151 151 150.6 150.1 149.3 147.9 146.6 145.9 148.1 149.4 150.8 151.5 152 152.2 152.4 152.7 152.7 151.9 151.1 147.9 142.7 134.1 132.4 144.8 150.9 152.9 152.5 152.1 153.2 154.3 155.1 155.2 154.4 149.6 130.6 118.1 112.6 114.9 119.4 123.3 128.7 140.3 149 155.1 157.1 158.9 158.7 158.8 158.1 157.5 157.4 157.1 156.5 155.7 152.6 149.6 149.6 147.3 146.6 141.5 129.7 117.6 111.2 110.9 120.6 122.6 129.6 139.2 148.2 151.4 154.7 154.8 154.6 154.5 154.5 155.5 157 156.7 156.3 154.4 150.7 148.3 143.1 140.2 135.6 127.1 116.9 111.9 105.8 100.9 97.1 94.9 94.7 100.9 109.7 122.8 132.6 142.7 148.9 154.7 154.6 153.9 151.6 147.7 146.8 151.5 153.4 153.3 153.3 153.8 153.8 153.8 153.7 153.5 153.3 152.7 151.2 148.4 141.7 134.1 127.3 119.7 114.3 98.6 84.5 78.1 73.1 68.9 64.8 60.8 57.7 54.3 52.2 50.5 48.7 45.9 43.3 43.3 23.9 12.3 13.1 9.3 18.8 33 26 25.2 24.8 24.5 25.2 18.8 17.4 16.2 15.2
147.5 147.7 146.4 145.7 145.7 145 142.2 139 134.3 128.7 129 129.9 128.4 126.4 123.6 120.9 119.1 115.5 113 109.8 105.5 105.3 107 110.3 112.5 115.7 117.9 119.9 124.9 130.1 135.8 141 144.3 146.7 148 149.3 150.3 151.5 153.1 151.7 150.6 149.9 149.9 151.2 151.8 152 151.7 152 151.6 151.1 150.6 149.9 148.5 147.5 147.1 146.9 147.8 150.3 151.8 152.3 152.5 152.9 153.5 153.4 152.8 152 148.6 142.2 135 134.4 147 152.4 153.7 153.2 152.9 154 155.1 156.2 155.6 154.8 148.4 127.9 116.9 113 117 122.4 127.9 136 145.4 151.7 156.8 158.8 160 159.7 159.6 159.3 158.6 158.2 158 156.8 154.7 152.6 151.9 150.6 150.1 147.6 142.5 132.3 120.7 113.8 113.1 120.9 126.9 132 138.6 147.1 151.9 154.3 155.4 156 156.6 156.6 157 157.9 157.1 155.8 154.7 152.1 152.2 150.6 148.3 145.6 134.7 123.3 113.7 107.6 102.8 98.3 95.6 95 102.6 113.8 126.5 138.7 151.4 156.5 157.4 157.3 155.4 152.7 148.6 150.5 154 155.9 155.6 155.2 154.6 154.2 154.1 154.1 154 153.9 153.8 150.4 140.6 125.3 113.2 106.9 102.4 95.8 86.7 80 74.9 70.4 66 62.2 59.9 58.4 56.4 57.1 54.6 52.3 49.7 46.3 28.6 20.8 10.2 9.3 16.8 16.2 18.6 19.6 20.4 21.1 15.6 15.8 16.1 20.8 19.7 16.4
147.7 147.7 147.1 146 146 143.4 141.1 136.8 132 131.7 135.1 136.5 135.8 132.9 130.2 128.2 126.1 122.5 115.4 109.4 106 105.5 109.4 112.1 115.6 119.7 123.6 125.6 128.2 133.1 139.6 142.9 146 148.1 149.5 151.4 152.8 154 155.2 153.8 152.4 151.8 151.9 152.7 153.1 152.8 152.6 152.6 152.1 151.6 151.1 150.4 149 149.1 148.4 148.2 148.6 149.8 151.7 152.6 153.1 153.6 154.2 154 153.4 152.5 149.4 142.7 135.5 136.5 149.1 152.9 153.9 153.6 153.8 154.9 155.8 156.7 156.3 153.6 144.6 124.8 116.9 114.2 118.7 126.5 133.8 145.3 150.4 154.1 158.4 159.9 161.1 160.4 159.9 159.7 159.6 159.2 158.2 157 155.4 155.1 154.4 153 151.1 148 143.6 133.9 122.5 115.2 113.4 119.2 127 134.2 144.5 151.8 154.3 156.6 156.9 158 158.6 158.8 159 159.3 158.9 158.3 157.1 156.5 155.5 154.6 150.7 146.4 138.2 124.9 116.6 109.9 104.9 100.8 96 94.9 103 113.4 125.3 141 157 158.6 159.6 158.9 157 153.8 149.7 153 156.6 157.6 157.1 156.4 155.9 155.3 154.9 154.4 154.2 154.1 153.4 144.5 126.6 108.5 103 98.3 93.1 88.3 82.2 77.5 72.5 68.2 65.3 63 62.4 62.5 61.9 60.1 56.1 54.4 52 45 23.3 18.2 9.6 9.3 10.9 15 20.6 36.4 33.2 24 11.5 10.5 9.8 10.9 17.2 14.9
147.8 147.7 147.1 146.4 144.6 142.4 140.1 135.2 133.7 136.5 138.7 140.4 139 137.8 136 133.6 130.5 124.2 116.1 108.8 106.5 107.2 111.1 113.7 119.3 124.6 128.6 132.9 131.3 135.9 140.1 144.2 147.5 149.2 151.1 153.5 155.2 156.1 157.1 155.7 154.4 153.6 154.2 154.2 154.1 153.7 153.5 153.1 152.6 152.1 151.6 151 150.6 150.4 149.6 149.5 149.8 150.6 151.9 153.3 153.8 154.4 154.9 154.6 154.1 152.8 149.9 143.1 136.3 140.2 150.7 153.7 155 155.3 154.1 154.9 155.8 156.3 156.1 152 141.5 125.2 117 115.3 120.3 128.3 138.7 150.8 154.7 157.2 159.6 160.6 161.1 160.6 160.3 160.1 160 159.8 159.4 158.2 157.3 157.3 156.4 154.6 152.7 149.2 145.3 134.3 126 119 113.9 119 125 135.9 147.2 153.1 156.4 157.7 158 159 160 160.2 160.4 160.6 160.3 159.8 159.3 158.5 157.6 156 152.5 148.4 139.9 129.3 118.4 111.7 107.1 103.2 99 96.5 105.4 113 124.2 138.9 153.1 160.2 161.6 160.4 158.7 154.4 153.2 156 158.5 159.2 158.3 157.8 157.2 156.6 156.1 155.5 155 154.6 150.1 133.6 115.2 103.1 97.3 92.4 88.1 84.3 79.2 75.2 71.1 67.4 65.5 65.4 66.1 64.3 62.4 60.7 57.6 55.8 53.5 51 39.9 24.7 13.9 23 12.9 38.5 56 57.5 56.9 41 22.9 10.9 9.2 9.1 12.9 17.2
148 147.7 147.1 146.4 144.6 142.6 139.2 135.4 136.3 139.9 141 142 141.4 140.2 137.8 135.5 131.3 125.5 117.1 108.4 106.8 108.8 113.1 115.6 122.7 128.6 135.1 138.2 137.9 139.3 142.6 145.6 147.9 150.5 153 155.6 157.5 158.3 158.8 157.6 156.3 155.2 155.3 155.3 155.1 154.7 154.2 153.6 153.1 152.6 152.1 151.9 151.7 151.5 150.7 151 151.5 152.6 152.6 153.9 154.7 155.1 155.6 155.3 154.9 152.9 149.7 143 137 144.6 151.8 155 156 155.2 154.3 155.1 156 156.1 154.7 150.1 138.9 125.1 117.2 116.2 121.5 131.4 142.8 153.2 157.9 159.9 160.5 160.9 161 160.9 160.7 160.6 160.4 160.3 160 159.7 158.8 158.5 157.5 156.1 154.2 151.6 147.5 139.2 129.2 122.8 117.2 117.2 127.4 138.2 147.3 153.1 157.1 158.3 158.7 159.6 160.9 161.1 161.3 161.5 161.6 161.4 160.9 159.9 158.3 156.9 153.7 148.6 143 131.2 120.6 114.2 108.3 103.9 100 97.4 104.3 111.3 122.8 133.9 149.6 161 163.9 161.8 159.9 154.7 154.7 157.9 160 160 159.5 158.9 158.3 157.6 156.8 156.6 155.4 150.8 139 120.1 105.5 99.2 93.2 89 84.9 81.2 78.5 75.3 71.2 68.6 68.6 68.7 67.3 65.3 63.3 60.8 58.3 55.7 53.5 49.7 47.3 42.9 34.9 35.8 36.7 57.9 62.6 63.8 58.8 32.7 10.2 9.5 9.7 9 10 15.2
148.2 147.7 147.1 146.3 144.4 142.1 138.4 137.1 138.9 142.1 142.3 142.8 142.5 141.3 139 136.6 131.7 124.2 115.7 109.6 108.5 110 113.2 118.4 124.5 131.2 137.7 141.8 144.9 144.2 144.6 146.7 149.7 152.3 154.8 157.4 159.2 160.6 160.4 159.5 158.2 157.2 156.3 156.3 156.1 155.4 154.7 154.2 153.7 153.3 153.4 153.1 152.7 152.5 152.1 152.7 153.6 154.2 153.9 154.2 155.6 156 156.3 155.8 155.8 153.2 149.3 142.3 138.2 149 153.1 156.4 156.9 156.1 154.9 156.1 156.2 156 154.5 149.4 139.9 126.7 119 117.4 122.9 135.7 147.2 154.6 159.4 160.8 161.4 161.5 161.4 161.3 161.2 161 160.9 160.8 160.5 160.2 159.9 159.5 158.7 157.7 156 152.8 148.9 142.8 134.2 126.5 120.2 118.2 127.9 138.6 147.5 152.1 155.6 158.3 159.2 160.4 161.8 162 162.2 162.4 162.5 162.6 162.2 160.6 159 157.5 154.5 150.5 144.9 132.5 121.9 115.2 109.4 104.4 101.1 98.7 104 110.3 120.9 129.4 147.9 159.9 165.2 163.8 161.6 155.7 156.7 159.9 161.3 160.9 160.2 159.4 158.7 158 157 156.5 151.3 141.6 126.4 114.3 104.2 98 94.2 89.7 87.1 82.4 78.3 74.8 73.4 73.9 71.9 70.4 68.4 65.9 63.1 60.4 58.2 55.6 51 48.2 46.8 44 47 54.4 58.4 63.7 64.7 61.3 54.2 21.9 21.8 23 10.3 9.5 11.4 16.2
148.4 147.7 147 146.1 143.9 140.9 139.4 138.6 141.5 142.7 143.6 143.6 143.6 141.4 139.3 135.5 131.9 122.6 114 109.6 107.9 109.8 112.8 119.1 125.4 133.4 139.8 143.7 146.3 147.3 148 148.3 151.5 154.1 156.5 157.9 159.2 160.4 160.2 159.7 159.2 158.7 158.3 157.4 156.8 155.9 155.2 154.7 154.5 154.5 154.4 154.2 154 153.6 153.8 154.4 155 155.4 155.1 154.8 156 156.6 156.9 156.1 155.4 153.6 148.6 140.5 140.1 150.4 154.4 156.5 157.7 156.7 155.7 156.3 155.7 155.2 153.6 148.3 138.3 126.3 118.4 118.8 127.8 140.3 148.8 155.4 159.2 161.6 162 162 161.9 161.8 161.7 161.5 161.4 161.2 160.9 160.7 160.3 159.4 158.9 157.8 156.3 153.3 149.5 145.3 138.3 127.6 120.4 119 127.3 137.7 147.8 152.6 155.1 158.1 159.9 161.4 162.6 162.9 163.1 163.3 163.4 163.2 162.5 161.2 159.6 158.1 154.8 150.6 145.6 133.6 123.6 116.1 110.4 105.6 101 100.2 104.8 110.6 121.2 130.4 146.1 159.9 165.1 165.3 161 157.9 160.1 161.6 162.8 161.8 160.9 160.1 159.2 157.1 155 150.3 140.8 131.1 120.9 110.5 105.5 102.5 98.9 96.7 91.8 89.6 84.8 82.8 84.5 79.1 75.3 71.8 69.4 66.8 64.1 61.5 58.3 54.6 50.6 49 48.6 52.2 56.3 59.6 64.5 65.7 64.7 58.4 50.8 27.3 19.8 24.8 20.9 12.3 12.1 14
148.2 147.4 147 145.7 143.3 141 139.3 140.3 142 143.6 144.4 144.4 143.3 141.4 139.3 134.4 127.8 120.3 112.7 108.8 108.1 109.1 112.9 118.9 125 134.1 140.8 146 147 148.1 149.1 150.2 152.6 155.4 156.6 157.8 159.2 159.7 160 159.6 159.1 158.6 158.8 158.5 157.9 156.5 155.7 155 155 155 154.8 154.6 154.4 154.3 155.2 155.9 156.5 156.6 156.4 156.5 156.6 156.8 157.5 156.8 155.8 154.1 148.3 140.7 141.2 152.1 155.8 157.3 158.2 157.6 156.8 156.6 156 155.4 152.9 146.4 136.6 125.5 119.3 122 130.3 142 149.8 156.2 160.5 162.2 162.4 162.4 162.3 162.2 162.1 161.9 161.8 161.7 161.4 161 160.4 159.3 158.5 158 156.1 152.1 148.4 143.3 133.8 126.2 122.6 120.9 127.1 137.2 146.7 153 156.4 158.5 160.6 162.4 163 163.3 163.6 163.9 163.8 163.2 162.5 161.6 160.1 157.7 154.2 150.3 146.2 135 125.6 117.1 111.7 106.4 102.1 101.3 106.7 113 122.2 133.3 149.9 165.7 166.8 164.4 160.7 159.6 161.7 163.3 164.6 163.5 162.3 160.1 157.9 155.3 149.2 145.6 137.8 129.5 122.6 119.2 118.9 116.6 110.3 113.5 113.5 95.3 90.1 88.9 85.1 78.6 74 70.5 68.8 66.9 65.4 62.8 59.8 55.9 55.4 54 55.8 58.3 61.4 66.4 68.7 67 61.2 55.3 47.1 25.3 26 33.8 36.8 22.2 22 21.5
148.2 147.4 147.4 145.2 143.3 141.7 141.1 142.5 143.6 144.7 145.1 145 145.1 142.2 139.2 134.2 126 118.7 112.9 108.7 108.3 109.4 110.9 116.8 123 132.2 139.4 144.8 147.8 148.9 150 151.8 153.4 154.9 156.2 157.4 157.7 158.2 158.8 159.7 160.3 160.5 160.2 159.4 158.8 158.3 155.9 155.5 155.5 155.5 155.3 155.1 154.9 155.6 156.5 157.3 158 157.9 158 158.1 158.2 158 158.3 157.6 156.5 155 147.9 141.6 146.2 154.4 157 158.6 158.7 158.6 157.7 157 156.2 155.2 151.9 144.1 133 124.7 119.6 122.8 131 142.2 150.5 156.9 161.3 162.5 162.7 162.7 162.7 162.7 162.5 162.4 162.3 162.1 161.8 161.2 160.4 159.2 157.8 156.7 155.4 150.2 145.7 136.2 130.3 131.4 127.1 123.1 127.1 137.4 146.8 153.8 158 159.8 162.1 162.7 163.1 163.4 163.8 163.9 164 163.2 162.5 161.8 160.5 157.1 153.6 149.8 145.7 135.8 126.4 117.9 110.6 105.6 102.5 102.9 109.7 116.3 127 141.1 160.9 168.7 166.4 164.8 162 161.6 163.3 165.1 165.7 164.8 163.6 161 158.8 157 156.2 155.2 153 150.3 148.1 142.7 138 137.4 131.8 131.8 126.2 99.8 88.5 88.6 83.4 77.4 72.7 69.3 67.6 66.3 65.3 63.7 60.6 58.3 58.5 57.6 60 61.9 67.6 71.1 70.2 67.2 60.5 53.9 25.2 31.5 33.4 34.9 32.8 25.9 24.2 23.6
148.7 147.9 147.1 145.4 143.6 143 142.5 143.5 144.6 145.8 145.8 145.6 145 142.5 138.7 132.1 123.8 117.7 110.8 109.4 111.1 110.8 111.4 114.2 120.7 127.8 134.3 139.7 144.8 146.9 148.9 150.2 152 153.8 155.2 155.9 155.3 155.9 155.6 158.3 160.9 161.6 160.5 159.5 158.9 158.3 156.6 155.9 155.9 155.9 155.8 155.6 155.9 156.9 157.8 158.6 159.3 159.5 159.6 159.7 159.8 159.4 159 158.6 157.7 154.9 147.4 143 151.3 155.8 158.3 159.3 159.2 159.1 158.4 157.5 156.6 154.6 151.7 144.5 133.9 125 120.8 123.1 131.8 139.7 151.4 157.9 161.7 163.1 163.1 163.1 163.1 163.2 160.9 162 162.6 162.5 161.6 161 160 158.5 156.9 155 150.8 145.4 139.4 135.5 137.2 137.8 130.6 125.1 126.6 137.6 148.4 155.5 160 161.8 162.4 162.8 163.2 163.5 163.8 164 164.2 163.2 162.5 161.9 159.9 156.3 152.7 148.2 142.6 133.3 124.4 117.6 108.4 104.6 104.3 108.5 114.5 123 137.4 156 166.8 169.5 166.1 165.5 163.7 164.5 165.5 166.1 166 165.9 164.9 162.3 159 159 157.5 157.5 155.6 153.1 149.5 148 145.5 145.4 140.8 136.7 127.2 96.9 83.1 88.8 81.3 75.6 71.2 67.9 65.8 64.9 64.3 63.9 61.4 60.7 59.4 60.3 62.4 64.4 69.1 71.6 68.4 65.4 57.3 48.4 32.1 33.1 32.4 30.8 30.4 29.9 27.2 25.5
149.2 148.5 147.4 145.8 144.9 144.4 143.9 144.6 145.7 146.8 146.5 146.2 144.2 141.8 138.3 131.4 122.2 115.9 110.6 110.4 114.1 114 113.2 113.3 116 121.5 127.5 133.1 138.3 141.5 144.8 146.3 147 149.5 152.2 153.7 153.2 152.3 153.9 156.8 159.5 160.2 159.8 159.4 158.9 158.3 156.9 155.6 155.7 156.4 156.3 156.2 157.2 158.2 159.1 159.8 160.4 160.5 160.9 161 160.8 160.3 160 159.3 157.7 153.3 145.5 145.1 154.8 157.1 159.5 159.8 159.6 159.3 159.2 158.4 157.6 154.8 151.7 143 133.1 124.9 121.3 123.3 130.4 138.7 151.1 158.1 161.9 163.6 164 164.4 164.7 164.7 164.1 163.5 163.7 162.9 161.8 160.5 159.7 157.7 155.8 151.6 145.6 141 141.5 142.9 145.1 143.5 135.9 127.5 127.7 138.4 147.9 156.2 160.6 162.3 162.7 162.9 163.3 163.7 163.9 164.3 164.4 163.1 162.5 161.9 158.3 153.9 149.3 143.9 133.7 125.9 117.8 109.3 104.4 105.6 108.7 114.2 121.3 134.6 152.5 164 169.6 168.2 166.3 165.6 165.5 165.7 166.5 167 166.5 166.1 166 163.5 160.8 160.8 158.9 157.4 154.5 153.1 147.1 135.5 131 130.5 130.7 125.4 106.6 79 73 84.5 78.1 72.9 68.8 65.8 62.7 62.2 61.9 61.7 60.9 60.8 26 49.8 61.7 63.4 66.2 69.4 65.9 60.3 52.7 44.8 36 31.6 31.7 30.6 36.1 33.1 29.6 28.5
149.9 149.1 147.8 146.6 146.2 145.8 145.2 146 146.8 147.5 146.8 145.9 145 142.4 137.7 130.6 119.9 114.8 110.7 112.6 119.2 119.5 117.6 114.9 114.9 116.6 120.3 125.2 129.7 133.5 137.6 140.6 142.7 145.3 148 149.5 149.1 148.5 150.7 154.1 156.4 157.2 156.9 156.6 157.2 156.5 157.3 156 155.4 157 156.8 157.4 158.5 159.5 160.3 160.9 161.4 161.4 161.7 162.1 161.8 161.3 160.8 160.1 158.1 153.1 146.5 148.3 157.1 158.9 160.4 160.2 160 159.8 159.6 159.1 158.5 156 150.7 139.8 130.6 123.7 121.7 123.6 128.3 137.1 150.5 158 162.2 164.2 164.6 165 165.4 165.4 165.2 164.7 163.1 162.8 161.1 159.4 159 157.3 153.4 148.2 146.2 146.9 148.5 150 148.6 144.8 138 131 128.6 136.5 146.2 155.8 160 162.8 162.9 163.2 163.4 163.7 164.1 164.5 164.6 163.1 161.8 159 155.3 149 141.6 132.6 121.7 114.1 109.2 107.9 107.6 111.6 118 123.1 135.2 149.2 160 167.5 169.4 167.9 167.9 167.3 167.2 167.4 167.6 167.9 167.4 166.9 166.3 164.2 162.8 161.6 159.7 156.6 154 152 142.9 123.8 115.6 112.8 113.5 108.4 92.2 72.7 71.4 80.8 75.4 70.2 68.1 53.8 61.4 58 58.7 30.8 23.1 22.2 19.4 20.1 58.4 61.7 64.5 64.8 64 58.8 56.1 53 49 48.7 46.8 42 39.6 35.3 32.1 31.1
150.2 150.6 148.8 147.9 147.7 147.4 147 147.5 148.4 148.2 147.3 146.4 145.4 142.1 136.4 127.9 119.7 114 111.5 114.9 122.6 124.5 122.5 117.7 116.8 117.3 117.1 118.3 121.3 125.1 128.8 134 137.2 140.4 143.1 143.9 144.9 144.1 147 150.7 151.4 152.1 152.8 153.6 154 153.8 154.6 155.6 155.2 156.7 156.8 158.5 159.6 160.6 161.2 161.9 162.4 162.4 162.4 162.1 161.7 161.8 161.2 159.9 158 151.1 147.6 151.9 158.7 160.3 160.8 160.5 160.2 160.6 160.6 159.9 159.2 155.1 149.5 136.7 129.1 123.8 123.6 125 126.3 134.5 145.5 155.7 162.9 164.9 165.1 165.4 165.8 165.3 165.4 165 163.6 162.9 161.2 159.5 158.2 156 151.3 149.7 151.3 153.1 154 152.1 148.9 143.6 136.7 130.3 129.5 135.9 146.3 154.8 159.2 162.2 162.9 163.1 163.5 163.6 163.9 164.1 163.7 162.3 158.6 155.8 151.2 144.3 131.2 121.1 114.7 109.7 109.8 111.2 113.6 119.2 122.3 133.7 147.2 156.8 166.1 168.9 169.6 169.2 169.2 169.1 168.9 169.1 169.1 168.4 167.5 166.8 165.7 163.9 162.5 161.3 156.5 151.2 150.7 150 143.6 120 109.5 103.2 101.5 97.2 92.1 82.1 77 74.5 62.5 68.4 25.4 20.7 42.6 54 56.5 26.3 19.4 28.6 24.6 19.9 33.8 59.8 63.1 67.5 68.7 67.9 66.2 63.8 62.5 58.5 53.4 48.1 42.7 36.2 33.4 31.9
148.9 151.9 149.8 149.4 149.2 148.9 149 149.3 149 148.9 148.3 147.3 145.6 142 135.3 127.1 119.5 113.1 112.4 117.6 125 129.8 128.6 124.6 121.2 120.5 120.2 119.3 120.5 119.4 123.5 127.2 130 133.1 136.1 136.9 137.5 138.1 142.1 143.7 143.6 144.9 146.3 147.7 149.2 150.2 150.8 151.8 153.1 155.3 156.4 158 159.9 161.2 161.9 162.5 162.8 163 162.9 162.8 162.3 161.9 161.3 159.4 156.1 149.3 148.4 156.3 160 161.3 161.2 161.1 161.1 161.6 161.8 161 159.8 154.5 146.3 135.3 128.7 124.4 128.1 128.5 127.4 131.6 140.7 152.4 163 165.9 165.8 165.8 166.2 165.2 164.9 164.6 164.1 163.1 161.4 159.7 157.9 155 153.6 154.5 155.1 155.4 154.3 152.5 145.8 140.4 137.9 135.2 132.2 134.2 145.6 154 159.2 161.7 162.9 163.3 163.4 163.5 163.5 162.6 162.2 160.6 156.2 152.7 147.2 133.1 122.3 115.3 111.4 111.7 113.2 117.7 121 125.9 133.8 144.7 154.1 163.5 168.8 170.3 170.5 170.5 170.5 170.6 170.6 170.1 169.6 168.9 168.1 166.7 165.5 160.5 157.3 151.4 144.5 135.3 133.5 131.4 130.5 120.9 104.5 96.3 91.2 89 85.5 80.2 75 71 68.5 53.5 36.4 19.8 19.1 21.3 46.1 33.8 29.7 30.7 29.9 28.4 53.8 57.1 64.2 68.8 71.5 71.3 70.3 67.8 63.9 58.6 52.9 47.6 42.2 37 34 32.2
148.9 152 151.6 151.3 150.8 150.6 150.7 150.4 149.8 149.6 149.2 147.8 145.3 141.8 134.2 126.2 117.2 113.8 113.6 119.8 127 130.7 132.3 129.4 126.2 125.7 124.9 124.1 121.3 121 122.8 124.2 125.5 127.7 129.3 129.7 130 131.9 134.6 135.5 136.7 138 140.5 141.8 143.5 144.2 145.3 146.9 148.8 152.4 155.8 157.4 159.3 161.2 162.4 162.8 162.8 163.2 163.2 163.7 162.9 161.7 160.5 158.5 152.4 149.6 154.1 159.6 160.9 161.9 161.9 161.9 161.9 162.3 162.9 161.9 158.3 153.8 144.4 135 130.7 127.8 135.1 135.1 130.7 130.8 136.7 150.1 161.3 165.6 165.9 166.3 166.5 166.1 165.5 164.8 164.1 163.3 162 160.7 158 155.7 155.4 157.3 157.5 156.2 153.8 146.1 142.8 143.2 144 142 135.4 135.5 145 154.3 159.3 161.9 163.1 163.3 163.5 163.6 162.8 162.1 161.1 158.9 154.3 149 140.7 127.1 119.9 113.4 114.7 119.4 120.7 123.6 129 135.8 144.6 153.2 161 167.4 171.7 171.7 171.5 171.3 171.1 171 170.6 170.3 170 169.7 169.6 167.4 160.2 152.2 144.6 131.7 125.7 120.4 117.2 114.5 110.9 104.6 96.1 89.7 86.4 83 79.5 75.7 71.7 68 47.9 21.9 19.2 18.5 20.5 35.1 39.1 27 22.8 24.6 30 28.5 31.9 54.7 63.9 68.9 68.3 71.2 70.3 67.6 63.1 58 52.2 47.1 43.1 37.5 34.6 32.8
149 152.9 152.3 152.2 151.8 152 151.9 151.3 150.7 150.4 149.5 148 145.2 141.2 134.1 125.1 115.2 113.7 115.5 122.2 129 134.7 136.3 135.8 132.3 131.5 131.3 126.7 123.6 124.1 125.5 124.3 124.9 126.5 127.7 129.8 130.6 131.2 132.7 134.8 135.6 137.2 138.8 139 140.7 143.1 146.7 148 149.7 149.7 152.8 155.8 158.4 160.4 161.9 162.8 162.8 163.2 163.5 163.6 163.2 162.1 160.1 155.1 150.5 152.4 158.2 160.7 162.1 162.3 162.6 162.9 163.1 162.8 163.4 162.2 159.6 152.2 142.1 134.6 128.5 130.9 138.8 140.8 135.4 131.1 134.5 146 158.6 164.5 167.5 167.8 167.7 167.5 166.8 165.9 164.9 164 162.5 160.9 159.1 159.5 159.4 158.9 158.2 156.1 152.8 146.7 147.7 150.5 149.3 145.4 138.1 137.1 144.4 153.8 159.4 162.1 163.2 163.5 163.7 162.9 162 161.7 160.3 156 150.7 145.4 134.2 123.7 116.9 116.2 121.2 126.4 128.5 131.7 137.4 146.3 153.3 159.5 165.5 170.2 172.3 171.8 171.3 171.1 170.9 170.9 170.5 170 169.6 169.7 167.1 160.1 148.3 134.3 124.8 117.6 111.9 107.9 104.5 101.1 98.1 94.4 89.2 84.6 82.3 79.9 76.2 72.6 69 64.9 51.8 22.6 21.7 33.3 44.9 44.4 43.7 41.8 39.3 35.1 23.8 24.4 25.9 28.2 55.2 60.1 59.1 60.2 63.2 64.8 62.7 57.8 52.4 48 43.6 38.9 35.8 33.6
153.9 153.8 154.4 153.8 153.2 153.5 152.9 152.3 151.6 151.2 149.8 148 145 140.3 133.9 123.1 114.2 114.7 118.1 125.3 132.7 138.9 141.6 140.9 140.4 137.7 135.3 128.7 126 128.1 131.7 132.8 132.7 132.5 132 132.5 134.6 137.1 138.7 139.8 138.9 140.9 144.4 143.8 142.5 145.9 149.8 152.6 154.2 153.6 151.8 153.1 155.5 158.1 161 161.6 161.9 162 163.9 163.6 163.4 162.1 158.9 154.1 151.8 156.1 160.6 162.5 163.8 163.9 164.2 164.4 164.4 164.1 164 162.2 159.2 153.7 141 134.5 129.9 132.6 140.6 144.2 138.6 133.7 134.2 142.9 158.4 163.7 168.4 169 168.6 168.2 167.3 166.5 165.6 164.7 163.3 161.7 160.9 160.4 160.1 159.9 158.7 156.4 151.2 149.6 152.5 154.4 153.5 149.1 143.1 138.6 143.6 153.8 159.9 162.7 163.4 163.7 163 162.2 161.3 161 157.7 153 148.3 142.1 131.5 122.9 117.2 118.7 127.9 132.8 135.9 141.2 147.2 153.9 159 164.3 168.4 172 173.4 172.8 171.7 170.9 170.8 170.1 169 168.7 168.5 166.8 162.3 148.7 131.2 117.5 110.4 105 102.6 99.5 96.1 93.9 91 88.2 83.8 80.9 78.2 76.2 74 70.5 66.7 62.7 58.7 52.5 48.2 50.1 47.7 45.5 42.7 40.7 39.7 40 37 29.5 28.4 26.1 25.9 30.4 40 38.3 39 35.4 55.9 57.4 54 49.9 46.1 41.2 36.9 34.5
155.6 155.7 155.8 155.9 155.2 154.3 153.3 152.8 152.3 151.7 150 147.7 144.7 139.1 130.7 120.3 114.2 115.8 121 128 135.6 142.4 143.9 144.6 143.9 141.9 137.3 129.5 126.8 132.8 138.7 137.8 137.8 137.4 136.7 137.8 141.4 143.6 145 146 143.8 145.1 148.1 148.7 144.5 146.3 151.6 155.5 157.3 156.8 155.3 155.3 154.7 157.2 159 159.7 160.4 162.5 164.4 164.1 163.7 161.5 157.9 153.3 155 159.9 163.3 164.7 165.2 165.5 165.7 165.7 165.6 165.3 164.5 162.7 160.1 153 142.9 134.9 130.8 139.9 149.2 148.9 143.7 136.3 135.1 141.4 155.2 163.9 168.9 169.5 168.9 168.9 168.3 167.3 166 165.2 163.9 162.9 162.5 162 161.5 161 159.5 156 151.4 153.6 156.4 157.1 155.6 152.8 144.7 139.6 144.9 154.4 160.4 162.8 163.4 163.4 162.4 161.6 160.7 157.4 154.2 150 145.4 139.3 130.7 121.8 118.3 123.8 132.8 139.3 143.4 148.2 152.8 158.8 163.1 166.1 170.2 173 173.4 173.1 171.8 170.7 169.5 168.1 165.4 163.4 162.9 161.4 152.4 135.2 115.6 104.3 101 98.1 96 93.1 90.4 88.1 85.3 82.5 80.1 77.1 74.5 73 71.5 68.3 64.4 60.8 57.4 54.4 51.1 48.2 46.3 43.4 41.8 40.9 39.4 38.7 36.2 35.3 36.2 30.7 27.2 27 28 29.8 30.9 32.1 35.9 43.1 53.4 49.3 45.9 40.5 35.7 33.7
156 156.7 156.8 156.9 156 155 153.8 152.9 152.4 151.3 149.6 147.3 144.4 137.4 127.6 116.8 115 118.3 124.6 130.6 138.2 145.1 146.3 147.2 146.7 143.6 138.2 130.3 128.5 136.1 141.7 142.9 142.4 141.6 140.9 141.8 146 149.9 150.6 150.1 148.4 147.5 151.3 151.6 148.5 147.9 151.7 156.8 159.1 158.9 159.2 159.1 157.6 157.1 158.8 160.3 161.5 163.4 164.9 164.5 164.1 161.4 156.9 154.7 159.6 163.4 165.4 166 166.6 167 167 167 166.8 166.2 165.3 163.5 160.4 152.7 143.5 133.7 132.2 142.7 152.2 153.6 149.1 138.5 136.5 143 153.9 163.4 170.1 170.7 170.3 169.5 169.1 168.1 167.2 166.1 164.9 164.4 164 163.5 162.9 161.4 159.5 156.2 155.1 157.9 158.2 158.4 157.2 155.5 148.4 142.6 146.8 156.4 161 162.4 163.5 163.5 162.1 161.1 159.5 155.6 151 145.9 141.4 136.6 130.3 123.4 119.4 128.1 138.5 145.3 149.2 152.9 157.8 162.6 166.6 167.8 170.8 173.6 172.7 172.2 170.9 169.6 168.1 163.6 160.1 156.2 153.1 148.1 140.1 124.1 106.5 98.1 95 93.3 91.5 89.2 86 83.1 80.5 78.5 76 73.3 71 69.4 68.1 66.3 62.9 59.4 56.1 52.8 49.7 46.9 46.1 43.6 42.3 41.9 40.9 38.8 36.2 35 35.2 33.6 33.3 28.5 29.1 30.6 33.6 34.8 33.3 31.9 33.8 35.9 41.8 34.7 32.8 31.9
156.2 157.1 157.8 157.7 156.8 155.8 154.4 153 152.5 150.9 149.2 146.8 142.6 134 124.2 116.6 116.8 121.7 128 133.1 139.9 144.8 147.2 148.5 148.9 145.1 139.6 131.4 131.5 138.2 143.3 146.9 147.3 145.4 146.3 147.9 151.7 152.6 153.1 152.7 152.3 152.1 153.2 153.9 151.3 149.2 152.5 157.8 159.8 159.6 160.1 160.6 158.9 158.4 160.3 162.2 163.3 164.2 165.3 165 164.3 160.8 155.8 156.6 162.4 165.4 166.9 167.4 168 168.2 168.3 168.3 167.8 166.9 166.1 164.2 161 152.9 143.9 135.8 134.8 146.6 156.9 157.9 153 144.2 138.6 140.2 150.7 162.9 169.6 170.5 170.3 170.2 170 169.1 168.1 167.1 166.6 166 165.5 164.5 163 161.6 158.8 155.5 157.4 159.2 159.1 159 158.3 156.2 150 143.5 148.6 156.3 160.9 162.1 163.4 163.6 162.5 160.7 157.5 153.6 148.9 141.8 136.5 132.6 128.2 122.3 121.1 129.3 140.1 148.4 152 156 161.6 168 170.2 171.4 172.5 172.9 172.1 171.3 169.8 167.2 162.9 156.9 150.6 141.9 135.9 138.1 136.8 113.9 100.3 92.9 89.9 88.3 86.7 85.1 81.7 79.2 76.8 74.5 72.2 69.9 67.7 65.7 64.2 62.4 60.2 58 54.7 51.4 48.5 47.5 46.4 45.3 43.3 41.5 40.2 38.1 37 35.3 34.8 33.5 32.4 32.2 31.2 32.4 37.4 35.4 34.3 33.5 34.3 31.9 31.6 30.9 29.6 28.3
156.4 157.3 158.2 158.3 157 155.7 154.6 153.5 152.2 150.5 148.6 145.1 140.4 131.9 122.9 118 117.3 123.9 131.2 138.8 143.6 148.5 149.9 150.5 151.1 145.8 140.4 132.5 132.6 139.2 144.3 149.8 150.6 150.6 151.7 152.9 153.9 154.8 155.5 154.9 153.6 154 155.4 155.8 153.1 150.9 154.1 158.3 160.5 160.5 160.5 160.5 160.2 159.8 161.7 163.3 164.3 165.5 165.9 165.7 165.2 160.7 156 159.8 165.5 167 168.2 168.8 169.2 169.4 169.5 169.6 169.6 169.1 167.6 165.4 162.2 154.3 143.3 137.9 139.3 150 160 160.9 156 149 139.7 140.4 148.6 160.4 168.1 170.5 170.8 171 170.7 170.1 169.1 168 167.2 166.7 166 164.7 163.2 161.4 158.9 158.2 159.3 160.3 160.3 160.3 158.5 156.2 149.9 145.8 152 159.1 163 163.6 163.5 163.6 162.6 160 156 151 143.9 137.5 132 129 124.5 121 122.7 130.1 140.5 147.3 152 158.6 166.2 171.5 172.5 172.7 173.8 172.3 171.1 169.3 166.6 163.7 157.4 147.6 137.4 121.7 113.8 115.9 121.7 107.3 95.1 89.5 86.7 84.5 82.6 80.6 78.4 76 73.6 71.4 69.1 66.8 65.2 63 60.3 58.5 56.6 54 51.5 48.9 49.5 49.6 48.4 45.4 43 41.2 40.3 42 41.7 39.7 39.1 36.2 34.8 33.7 31.8 29.8 31.9 35.7 34.5 33.3 30 30.2 29 26.4 25.1 25.1
156.6 157.5 158.6 158 156.9 155.6 154.4 153.3 151 149.8 147.1 143.3 139.1 130 122.9 118.5 118.1 124.8 132.9 140.7 146.5 151.3 152.2 152.6 152.3 147 142 134.5 133.1 139.4 146.4 152 153.1 153.5 154.2 155 156 156.7 157 157 156.4 156.9 157.3 157 154.5 151.9 156 159.3 161.5 161.7 161.8 161.8 161.8 161.9 162.9 164 165 166 166.7 166.4 165.1 160.8 158.8 162.8 167 168.5 169.5 170.1 170.4 170.7 170.8 170.9 170.9 170.6 169 166.8 163.3 155 142.3 136.8 143.5 152.3 160.9 164.3 158.7 153.3 142.9 139.8 148 158 166.8 171.4 171.8 171.6 171.3 171 170.1 169 167.8 167.1 166.2 165 163.5 160.9 159 159.8 162.1 161.8 161.8 161.2 158.8 156.5 148.7 149.2 155.5 162.5 163.1 162.7 162.3 162.2 161.9 158 153.8 147.3 140.1 133.2 129.5 126.3 126.3 125.1 123.8 128.9 138.3 146.4 153.7 160.5 168.1 173.8 175.1 174.8 174.2 172 168.5 165.3 161.8 156.2 147.7 134.5 119.8 111.2 105.5 104.4 107.5 99.3 92.1 86.7 83.9 81.5 79.3 77.3 75.1 72.8 70.5 68.2 65.9 64.1 62.9 60.9 57.8 55.7 53.6 52 50.9 52 54.2 52.4 48.9 45.9 44.7 44.9 45.5 46.5 46.4 46.2 45.8 42.9 40.6 38.3 35.5 32.7 30 35.4 34.4 29.9 25.4 25.4 24.8 22.9 21.8 30
157.2 158.2 158.7 157.7 156.6 155.5 154.3 152.1 150.9 149.2 146.7 141.8 136.4 129.1 123.2 119 118 124 133.2 142.1 148.3 152.4 153.5 154.2 153.3 149 144.2 136.9 133.1 138.5 145.1 151.7 154.4 155.2 156.3 157.2 157.8 157.9 158.3 158.6 158.2 158.3 158.7 158 156.1 154.4 156.5 160.8 162.3 163 163.1 163.1 163.1 163.4 164.9 165.6 165.9 166.5 167.2 167.8 165.5 160.6 159 165.7 168.5 169.8 171 171.4 171.6 171.9 172.1 172.1 171.3 171.5 170.3 167.6 163.8 155.6 143.8 137.3 141.2 153.5 163.1 166.5 164.1 157.2 149.1 142.4 142.7 154.9 165.2 171.4 172.3 172.2 171.9 171.6 171.1 169.9 168.5 167.6 166.9 165.8 164.3 161.8 161.7 163.8 164.9 164.4 162.9 161.5 159.5 154.2 149.7 153.2 159.1 163.2 162.9 162.7 162.4 162 158.8 155.1 150.7 143.4 136.2 131.5 130.9 133.5 134.5 130.7 127.1 130.1 138.3 146.8 155.3 163.2 170.7 175.9 177.6 176.7 174.6 169.9 166.3 162.6 158.2 151.4 138.8 125.1 113.4 105.3 98.8 93.9 95 93.7 87.7 85.4 83 80.2 77.4 74.2 71.8 69.6 67.3 65.5 63.2 61.8 60.7 58.8 57.7 58.3 57.5 56.2 53.9 56.9 57.5 54.6 52.4 52.7 52.8 52.2 52.6 51.9 50.9 50.6 48.8 46.7 44.1 41.3 38.4 35.2 31.8 34 34.1 25.7 23.5 22.5 21.7 20.8 20 29.1
158.3 159.1 159 157.3 156.1 155.1 152.8 152.4 150.7 148.8 146.8 142.9 135.7 128.2 122.4 118.8 119.5 123.6 133.1 140.1 148.8 153 154.6 155.3 151.8 152.8 146.7 141 135.8 137.3 142.9 148.9 154.6 156.1 157.5 158.6 159.2 159.1 159.5 159.9 160 159.8 160.1 158.8 157 157.3 159.4 161.4 163.2 164.4 164.4 164.4 164.3 164.5 165.4 166.4 167.3 168.1 168.1 168.6 164.7 159.9 161.1 167.8 170 171.2 172.2 172.6 172.9 173.1 173.3 172.4 171.9 172.3 171.3 168.4 164.5 155.1 146.6 138.9 144.1 154.4 165 168.6 167.3 161.6 155.3 146.2 145.1 150.3 160.8 170.1 172 172.6 172.5 172.2 171.9 171.1 169.7 168.2 167.5 167.1 165.2 163.8 164.4 164.6 164.6 165.6 165.2 163.2 159.5 155 153.4 157.4 160.8 163 162.4 162 161.5 161 157.4 153 147.1 139 134.7 134.6 138.7 142.8 143.6 137.1 129.6 130.2 140.6 149.7 158.4 167.9 173.2 177.5 179.3 177.4 173.8 167.7 163.4 159.6 153.8 147.8 142.6 133.5 124.7 110.6 97.9 88.7 84.1 83 84.1 82.3 81.9 79.4 75.9 72.5 70.3 68.7 66.4 65 63.7 63 62.3 62 63.4 63.4 61.4 58 56.4 58.5 60.8 59.3 58.5 58 56.8 55.8 55 53.6 52.4 50.9 49.6 48.5 46.4 43.5 40.1 36.5 32.9 29.6 26.4 23.4 22.4 21.2 20.1 19.6 19.8 22.5
159.2 159.1 159 157.6 155.9 154.2 151.4 150.1 149.3 148.4 146.5 143.4 137.6 129.6 122.8 120 119.7 124.8 132.6 140.5 148.2 153.2 155.4 156.2 155.6 154.2 149.5 143.8 138.3 136.2 139.3 145.5 152 156.6 157.3 160.2 160.2 160.3 160.7 161.2 161.3 161.4 161.4 159.6 157.7 158.8 160.9 162.7 164.2 165.6 165.6 165.6 165.5 165.6 166.6 167.6 168.6 169.7 169.8 169.4 165 160.5 164.3 169.5 171.2 172.5 173.4 173.8 174.2 174.3 173.9 173.5 173.2 172.9 171.5 170.1 163.3 157.2 148.3 140.3 142 153.8 164.7 170.3 170.3 166.2 160.6 155 147.1 147.3 156.7 168 171.7 172.3 173 173 173.2 172 171.3 169.4 168.6 167.9 166.6 165.6 165.8 165.9 166 165.7 165.9 163 157.7 154.3 157.5 160.9 162.9 164.5 163.9 163 162.4 159.2 155.8 150 142.5 137 137.2 142.2 148.1 152.4 150.1 141.5 133.3 134.2 141.9 150.3 160.1 169.5 172.6 177.9 180 175.7 170.6 165.2 160.3 154.5 150.6 142.2 138.2 133.7 123.2 109.7 98.9 88.3 80.3 80.2 77.7 76.9 76.2 74.7 72.9 69.9 69.2 71.2 71.5 69.6 68.3 68 67.7 66.9 66.6 64.4 61.4 58.4 58.2 62.8 63.3 61.9 60.6 59.4 55.8 54.1 50.5 41.8 41.6 47.6 47.9 47.7 46.8 44.8 41 37.3 34.3 30.8 27.4 23.8 22.4 20.5 19.1 18.7 18.5 18.4
159.3 158.7 158.6 157.1 155.4 152.4 149.9 147.6 146.3 146.2 145.1 142.8 138.6 132.6 122.6 120.8 120.6 125.7 131.7 139.6 148.1 153.2 156.1 156.9 156.4 154.5 152.4 145.7 141.2 139.4 138.4 142.8 148.7 156.1 157.9 160.6 161.3 161.6 162.1 162.4 162.5 162.7 162.4 160.4 158.7 160.3 162.9 163.9 165.4 166.6 166.7 166.8 166.7 166.8 167.7 168.7 169.7 170.7 171 170 165.1 162.6 166.6 170.6 172.6 173.9 174.4 174.3 174.3 174.2 174.2 174.3 173.5 172.9 171.2 169.9 166.1 160.5 150.5 142.8 142.7 152.4 163.4 170 170.5 169.2 163.5 158.7 152.6 148.2 154.8 165.6 170.6 171.4 172.5 173.5 173.5 172.2 171.7 171.2 169.3 168.6 167.9 167.9 166.9 167 167.1 167.1 166.2 163.2 157.4 158.1 162.2 164.1 165.1 165.9 165.8 164.8 163.4 158.8 154.2 146.7 141.5 140.1 144.3 150.3 155.8 158.8 155.2 145.8 137.2 134.7 141.4 149.4 156.7 164.5 171.5 176.6 177.2 172.3 167.5 162.4 156 145.7 133 125.2 121.5 120 110.7 100.3 92.2 84 80.8 80 80 77.1 75.6 74 73.2 74.6 78.6 77.9 76.7 75.2 74.3 73.6 72.8 72 70.1 65.6 62.2 60.6 62.2 65 64.8 63.3 61.8 60.1 57.3 53.5 46.9 36.9 27.2 22 20.7 36.8 46.5 45.1 42.1 38.2 35.6 32 28.4 25.4 23.4 20.6 18.8 17.7 17.3 16.1
