ncols 200
nrows 82
xllcorner 270000
yllcorner 925650
cellsize 50
328.4 324.8 320.5 310.7 302.7 299.4 294.1 293.3 291.2 289.9 289 287.5 286.8 286.1 283.1 280.2 277.7 274.8 273.2 274.9 275.7 276.3 276.2 274.8 273.9 270.5 266.7 266.3 268.9 266.6 265.1 263.5 259.8 252.6 256.2 257.8 260.8 264.7 268.6 272.7 276.9 280.5 284.4 288.4 290.2 292.2 293.5 293.2 291.9 290.9 291.7 289.1 286.1 278.8 266.8 261.7 256.4 251.9 248.6 246.3 244.6 242.8 241 241.1 241.4 240.4 240.5 252.4 259.1 263.9 269.2 275.5 278.5 284.5 292 299.6 306.9 311.4 315.9 319.9 322.7 326.9 332 337.4 341 340.7 333.8 325.7 315.9 311.1 308.5 306 302.9 303.9 311.9 319.3 325.6 332.4 340.9 346.5 351.2 353.8 352.3 351.7 352.1 353.3 354.3 356.2 356.7 357.3 358.9 359.3 358.7 357.6 356.2 352.6 352 348.9 342.2 336.7 331.9 328.8 322.9 320.6 320 318.1 315.9 314 314.8 315.3 320.7 319.7 320 320.5 323.8 325.7 326.9 324.3 319.4 313.4 305.9 298.6 293.6 288.1 282.7 277.5 272.3 265 253.9 246.5 254.8 254.8 254.2 253.1 251.3 247.3 240.1 237.3 233.3 228.6 227.9 226.1 225.6 225.2 227.5 227.6 227.6 227.9 227.8 227 226.6 226 225.5 224.5 224.1 223.3 222.6 223.3 224.7 224.4 223.7 222.1 218.7 218.5 217.8 215.9 214.4 213.6 213.5 212.8 213.1 213.7 214.4 215.5 218.2 220.2 222.1 223.6 226 228.6
336.1 327.8 319.5 313.1 305.8 301.4 296.2 296.6 295.7 293.5 292.1 290 288.6 287.8 286.7 282.9 279 278.2 275.1 279.3 280.3 281.2 281.1 281.6 282.9 281.8 279.9 274.5 270.2 269.4 267.1 266.9 263.6 258.1 258.3 259.7 263.7 266.8 269.5 273.1 276.8 279.7 282.3 284.9 287.3 290 292.5 291.4 291.7 293.4 297.7 297 293.8 291.3 281.2 270.3 261 255.3 252.5 249.7 247.3 245.4 243.4 242.1 243.9 248.2 239.6 251 260.5 263.8 269 275.6 278.9 283 291 298.1 305.3 310.3 314.7 317.8 321.5 324.8 329.1 333.5 337.2 339.2 334.1 327.3 319.3 313.5 310.8 307.1 305.1 302.5 312.5 319.7 325.2 331.7 339.4 344.3 347.8 350.1 348.9 346.5 347.8 350.1 352.4 355 356.3 358.9 361.6 363.1 365.1 364.8 364.1 367.9 368.2 365.4 356.6 348.6 342.1 336.9 332 328.2 327.3 325.6 322.7 322.6 323.6 325.4 326.8 324.9 325.5 327.6 331.5 334.4 332.7 330.1 324.6 318.9 312.3 303 295.8 291 286.6 279.9 275.4 267.3 259.3 250.8 256.2 257.7 257.4 255.4 254.3 250.8 244.9 242.4 238.5 232.2 229.1 228.3 228 227.3 227.1 225.9 226.7 225.7 226 225.7 225.3 224.4 223.8 222.2 222.6 222.1 221.2 222.2 221.5 220 219.1 216.9 217.2 217.6 216.9 214.7 214.3 212.2 211.8 212.2 212.9 213.3 213.6 214.2 216 218.9 221.8 222.7 225.4 228.2
341 327.3 322.8 316.1 308.2 303.1 299.4 300 298.4 296.8 295 293 290.3 289.2 287.5 285.5 283.1 282.1 279.5 283.2 285 286.1 287.4 289.5 290.2 290.1 289 283.7 283.1 281.1 275 270 268.5 264.3 263.1 264.6 265.3 268.4 272.3 273.5 276.6 279.2 280.8 282.8 285 287.1 289.7 290.5 291.2 293.4 299.8 302.3 301.4 298.4 294.5 286.3 271.9 261 256 252.3 249.9 247.9 246.2 243.7 245.1 245.8 243.6 255.1 262.1 267.1 271 274.2 277.4 282.1 288.5 296.7 304 309.4 313.2 316.8 320 322.7 325.6 329.9 333.7 335.2 331.4 326.9 320.6 314.8 310.4 305 304.3 304.9 312.6 318.5 324.6 331.2 337.8 340.9 343.5 345.6 344.4 342.2 346 347.7 350.8 352.8 355 358.2 362.2 366 368.1 367.9 373.6 377.1 376 370.8 365.2 358.2 352.4 346.7 339.2 335.2 333.4 330.6 328.5 331.1 331.2 332.2 329.8 328.4 329.1 330 336.1 337.7 336 333.5 331.1 322.7 316.4 306.5 299 293.1 289.3 281.8 279.1 273.7 264.3 255.2 259.4 260.7 258.1 259.3 257.3 253.3 246.3 242.4 240.4 235.1 231.2 230.1 229.1 228.4 227.8 226.2 224.3 223.1 223.1 222.6 223.5 223.2 221.9 222.3 220.8 221.8 220.1 220.2 218.3 216.6 215.2 214.5 214.3 214.4 214.6 213.4 212.4 210.9 210.6 210.4 211.1 211.3 211.8 212.6 215.5 218.4 221.1 222.3 224.7 227.7
337.5 326.3 321.4 316.5 308.6 302.2 303.6 301.9 300.2 298.6 297.2 295.6 292.7 290.6 288.4 285.2 287.2 286.9 283.6 286.6 289.3 290.7 293.1 295 296.6 297 296.5 294.3 293.1 289.6 283.3 279.4 276.2 267.5 268.8 268.5 270.5 272 273.2 275.1 275.7 277.7 280.6 282 283.4 285.2 287.8 289.3 290.2 292.6 298 302.8 305.1 304.5 299.9 297.3 281.8 268.4 261.7 255 252.6 249.2 248.4 245.7 248.1 248.5 247.7 256.3 262.9 267.9 272 275.3 278.7 281.4 287.7 295.5 303 308.2 312.5 316 318.7 320.8 323 325.4 328.5 330.1 327.9 323.6 321 316.8 314.1 310.9 308.4 308 311 316.4 322 328 336.1 338.5 340.6 342.6 342.9 343.1 344.7 346.1 347.7 349.9 353.8 357 361.2 367.2 369.3 374.5 381.1 382.8 381.8 381.7 374.7 370 361.8 353.4 348 341.5 337.3 333.3 336.8 337.3 336.3 334.5 332.6 329.5 330.6 332 335.3 337.7 337.2 335.8 332.6 324.3 318.2 307.9 301.9 296.3 291.1 286.2 282.1 276.5 263.5 259 262.6 262.9 260.9 261.5 259.8 254 246.7 243.6 240.6 238.3 234.7 232.1 230.6 228.6 227 226.5 224.2 225 225.5 224.4 221.8 221.7 222.2 222.2 221.9 220.8 219.3 217.6 215.9 215.1 214 213.3 214 212.9 211.9 210.9 209.5 209.5 209.2 208.9 209.1 209.8 210.5 211.5 214.3 217.1 219.7 222 224 225.7
336.3 327.6 321.1 312.8 307.7 302.4 304.9 303.2 301.6 300.2 298.9 296.7 294 291.1 290.3 289.5 289.6 289.4 287.8 290.1 293 295.2 297.6 299.6 301 302.4 303.5 302 300.4 296.1 292.2 288.8 284.9 274.9 273.3 272 273.7 275.2 276.5 277.3 278.4 279.5 280.7 282.1 283.5 284.4 286.6 287.5 288.5 289.6 292.5 297.4 301.9 305.7 304 301.9 295.3 277.3 264.9 257.7 254.1 250.4 245.7 250.1 250.6 251.9 251.2 256.9 266.1 268.4 273.1 275.9 279 282.8 286.5 294.2 301.9 306.9 311.5 315.3 317.5 319.6 321.1 321.4 324.4 325.5 324.2 322.6 321.1 318.9 316.1 315.4 312.5 312 312.9 315.1 320 326.8 333.1 335.3 337.5 338.3 341.7 343 344.4 343.7 343.1 345.8 351.4 356.5 360.9 367.8 370.6 378.5 384 387.1 389.6 388.6 384.4 379.9 371.4 365 358.5 351 344.5 342.6 342.9 341.8 338.5 336.9 333.7 332.1 333 334.5 336.5 338.4 337.7 337.1 331.3 325 316.9 309.6 303.5 297.5 293.8 287.8 282 276.6 264.7 263.3 265.8 264.5 262.6 262.7 259.5 252.1 246.5 243.1 240.6 239.8 235.9 233.5 231.8 228.7 227.5 225.6 225.5 226.4 226.4 225.1 223.1 221.2 221.5 221.6 221.9 221.3 220.5 218.6 215.3 214.2 213.5 212.4 211.4 210.6 209.6 208.7 208.2 208.2 207.9 207.7 207.9 208.6 209.3 211 211.6 214.1 216.9 219 221.2 222.6
340 332.1 322.4 313.3 307.7 303.6 305.2 304.6 303.2 301.8 299.7 296.7 293.8 294.1 293.2 292.5 292 289.6 291.1 292 295.2 298.5 301.2 304.6 306.5 308.5 309.5 308.1 307.6 302.8 300.1 296.4 291.2 285.2 281.2 276.9 276.9 278.1 278.7 278.7 279.8 280.9 282 283 283.6 284.1 285 285.9 286.8 288 289.2 290.5 293 297.5 299.2 301.3 301.4 282.6 268.4 259.7 255.4 250.5 249.6 252.9 253.3 253.8 252.2 259.6 268.9 271.3 274.6 277.7 280.2 282.8 286.2 293.5 300.8 305.8 310.4 314.3 316.4 318.6 319.6 320.3 322.6 322.9 322.4 321.6 320.3 319 317.4 315.4 314.5 314.1 314.3 315.1 318.8 326 330.7 333.1 334.3 336.2 339.4 342.9 342.2 341.6 341.1 343.5 348.1 353 358.5 364.2 369.8 379.7 385.9 391.6 395.5 399.9 398.5 394.6 385.6 380.2 372.2 364.9 357.9 351.2 346.2 344 341.4 339.2 337.6 336.5 336.3 337 338.3 338.9 338.3 337.6 332.5 325.9 318.1 312 305.4 299 293.7 289 282 276.6 269 267.6 267.9 267.3 265.4 263.2 259.1 253.1 247.3 244.1 241.2 239.2 235.5 233.7 231.6 229 227.5 225.4 225.9 227.1 226.3 225.5 223.6 222.5 219.2 220.3 221 220.9 220.5 218.7 214.1 212.5 211.9 210.5 208.1 208.8 207.4 206.3 207 206.9 206.7 206.4 206.4 207.3 207.9 208.6 209.1 211.2 212.8 215.3 218 219.5
341.3 333.4 320.9 313 308.6 305.2 304.8 304.7 304.3 302.8 300.6 296.9 296.2 295.6 295.1 294.4 293.9 291.6 293.6 295.6 298.3 301.5 305.5 309 311.7 312.6 314.7 315.3 313.7 312.4 312.1 307.9 299.4 295.2 289.5 284.1 279.8 280.1 280.1 280.2 281.2 282.1 283.2 283.6 283.3 283.4 284.6 285.5 286.1 286.5 287 287.9 288.5 289.8 291 293.9 296.3 287.1 270.6 262.8 257.5 253.4 250.7 255.6 255.4 254.9 254.1 257 269.3 272.4 275.8 278.9 281.7 284.4 286.2 293.2 299.2 305.4 309.9 313.4 316.3 317.5 318.4 319.4 320.4 320.5 320.8 320 319.4 318.3 316.2 314.7 314.4 314.3 313.2 313.2 316 322.5 327.3 329.6 332.3 336.5 339.9 343.3 342.4 340.1 339.8 340.6 345.6 350.2 355.4 360.8 368.4 377.5 387.1 394.3 401.2 407.9 409.9 405.7 400.7 393.8 385.3 374.7 365.7 357.4 350.2 346.9 343.4 343.2 342 340.4 340.5 339.4 338.6 337.8 336.7 334.8 331.9 325.7 319 312.8 307 301.2 295.6 291.6 286.4 279.9 275.5 270.8 268.5 269.9 267.8 265.1 260.3 253.8 251.1 247.4 243.5 238.2 235.2 233.1 230 227.7 226.8 226.7 227.1 226.8 226 225.3 224.3 223.4 222 221.4 219.2 219.2 220.2 216.6 216.4 214.4 212.4 209.4 206.8 206.2 205.4 204.4 205.7 205.6 205.4 205 205.7 207.5 208 207.7 207.2 206.4 209.2 212.3 214.9 216.4
345.8 333.8 324.2 315.8 312.3 308.1 304.4 303.8 303.4 301.9 298.5 299.7 299.7 299.3 298.8 298.3 296.5 294.6 293.9 298.7 301.4 304.1 307.8 313 316 318 319 320.4 322 320.8 322.1 318.3 311.9 305.7 299.3 292.3 285.6 281.8 281.8 281.7 282.5 283.4 283.6 283.4 283.3 283 284.1 285 285.5 285.8 286.3 286.5 287 286.9 286.8 286.7 287 283.1 273.7 265.6 261.1 257.5 255.1 258.1 256.9 255.7 255.3 266.1 266.1 272.9 277.2 280.7 282.4 285.6 288.8 293.2 298.7 304.9 308.9 312.4 314.4 315.3 316.3 317.9 318.6 319.1 319.4 317.9 317.5 316.3 315.2 314.6 314.2 313.4 313.2 313.2 313.9 317.4 324.5 328.7 332 337.2 340.1 343.1 341.6 338.8 337.1 337.9 340.5 348.3 353.6 356.8 364.7 377 388.5 395.2 405.6 414.9 420.1 412.5 408.5 401.7 392.2 380.7 371.5 362.8 355.2 352.1 350.2 350.6 348.9 346.7 343.3 340.8 338.3 335.1 333.4 333 329.4 324.2 319.4 314.8 307 300.9 298.3 293.4 289.5 285.8 279.4 272.2 270.8 271.6 269.6 266.6 260.7 255.3 252.5 249.8 245 239.2 237.5 234.4 230 229 225.4 227.2 227.4 226.5 225.6 224.9 224.4 224 223.4 222.2 220.9 219 217.9 217.7 217.7 215.7 212.3 209.6 208.2 205.9 206.2 204.4 203.5 203.3 203.4 202.6 205.1 206.4 207.3 207.1 206.3 205.3 205.7 208.7 211.9 215
347 339.7 332.1 320.4 316.9 311 306.4 304.3 302.2 302.2 300.8 302.3 302.7 303.1 302.7 302.3 300 298.1 296.7 300.8 304.7 307.1 311.5 315 318.2 321.7 324.4 327.2 328.8 330.1 331.9 327.4 325 316.9 311.5 303.7 292.3 285.7 283.9 283.8 283.5 284.1 283.7 283.6 283.5 283.1 283.2 284 284.2 284.9 285.6 285.8 285.8 285.9 285.7 285.1 283.8 281.2 275.6 267.5 263.2 258.6 258.4 261 259.6 256.6 261.5 271.4 271.6 274 278.9 282.1 284.2 286.9 289.7 293.3 299.6 304.2 307.2 310.3 312.1 313.6 315.5 317.2 317.2 317.2 318 316.4 313.6 313.7 313.8 314 313.5 312.9 312.5 312.4 310.8 314.7 321.2 327.1 331.8 336.1 338.6 339.4 339.6 337.6 337.2 337.3 339.8 346.9 351.3 354.9 363.8 377.8 388.8 395.6 410.6 422.3 424.3 418.7 414.3 405.7 398.1 388.8 379.3 372.7 367.8 360.6 358.4 355.5 354 351.4 344.7 343.9 340.3 337.4 333.4 331.2 327.6 322.6 318.7 315.6 310.7 304.8 300.1 297.7 293.6 288.3 281.6 278.5 274 273 271.1 265.1 259.2 256.4 253.6 250.5 245.2 239.6 238.3 233.5 230.6 229.7 227 227.4 227 225.9 225 224.6 224.1 223.6 223.2 222.7 221.4 221.1 220.5 220.3 216.8 215.3 212.4 209.7 208.9 207.7 206.6 205.6 204.7 204 202 200.7 204.5 205.4 206.1 205.9 205 203.5 204.3 204.5 206.1 209.6
350.2 345.1 338.7 331.2 322.2 314.5 308.8 307.1 305.6 303.4 303.3 304.8 305.6 305.9 305.7 303.8 301.8 302.3 300.2 303.8 307.2 310.7 312.8 316.7 321.6 324.9 329.3 331.5 335.2 337.5 340.1 336.2 332.7 327.2 319.6 313 303.1 293.7 287.4 285.2 284.6 284.6 284.2 283.8 283.7 283.2 282.9 283.3 283.5 284.2 285 285 284.9 285 284.8 284.3 283 279.4 274.5 270.5 265.5 261.1 262.3 263.8 262.4 258.7 269.2 274.3 275.8 277.8 279.7 280 285 288.3 291.8 294.1 300.2 304 307.5 309.3 311.3 313 314.9 315.7 315.7 314.9 314.5 313.9 312.4 312.5 312.5 312.5 312.2 311.7 310.8 309 307.4 311.2 317.4 323.7 329.3 333.1 335.6 335.2 335.8 336.2 337.6 337.8 340.9 344.2 349.1 355.3 364.9 377.5 389 399.6 413.6 426 425.6 422.5 418.4 412.4 409.1 398.3 392.7 388.2 380 369.9 365.2 360.1 357.3 353.2 348.6 347.3 345.2 341.2 336.5 333.1 328 321.6 318.2 318.1 312.5 307.5 302.9 301.5 295.9 290.1 284.9 282.4 276.7 275.7 273.2 265 260.2 257.4 255.2 251.3 245.3 242.9 237.7 232.8 229.8 228.9 228.2 227.8 226.5 225.4 224.2 223.4 223.8 223.3 222.9 222.5 222.1 221.9 221.9 222.6 217.9 215.9 212.7 210 208.9 207.9 206.7 205.8 204.6 203.8 202.1 201.2 203.7 205 205.1 204.5 203.8 202 202.5 202.7 202.5 203.7
354.4 347.3 342.5 337.3 329.7 323 315.1 309.4 308.3 305.3 303.7 305.9 308.6 308.6 306.1 303.7 307.7 306.8 305.3 307.2 309.2 313.5 316.2 320.5 325.1 328.8 333.2 336.7 340.5 343.8 345.3 343.9 340.6 333 322.2 318.8 312.6 305.7 292.6 286.3 285.6 285.2 284.8 284.4 284 283.8 283.6 283.4 282.6 283.6 284.3 284.2 284.1 284 283.5 283 281.5 278.2 275.1 272.3 267.3 264.3 266.2 267.1 265.3 265.4 272.6 276 277.9 281.3 284.6 285.7 283.9 288.6 293.2 294.2 300.2 304 307.3 310 311.3 312.6 314.1 314.3 314.1 312.5 311 310.6 310.5 310.1 310.2 309.9 309.5 308.9 307 305.3 305.2 308.6 313 319.7 326.6 329.8 332.5 332.9 332.7 335.7 337.3 338.6 340.6 343.4 348.7 356.9 366.1 379.5 390.2 402.2 417.2 427.2 428.4 427.4 424.6 419.5 416.1 406.4 401.9 397.9 386.5 378 370 365 360.1 356.1 354.1 352.5 350.2 345.2 338 333.7 330.5 324.9 323.1 320.1 314.6 308.4 306 304.2 298.6 293.3 289.7 286 279.8 278.8 275.1 268.6 262.4 259.9 255.3 251 246.4 243 236.4 234.5 232.9 227.7 229 226.6 224.6 223.1 222.2 222.1 222.4 222.8 222.3 221.8 221.4 221 222 221.6 218.2 216.3 212.4 209.6 209.2 209.9 207.3 205.4 204.5 203.7 201.9 199.2 202.5 203.9 203.5 202.9 202.7 201.3 200.2 200.9 201 201
359 352.6 345.9 341.5 339.5 330.7 322.9 316.2 312.1 309.4 308.8 306.6 311.1 310.3 311.6 310.8 312 310.8 310.1 309.3 312.9 316.9 320.3 324.6 328.7 332.7 337 340.9 344.1 348.4 350.7 349.5 345.8 335.7 328 320.7 315.7 312.2 301.6 289.1 285.7 285.2 284.6 284.2 283.6 283.1 283.1 283.1 282.8 282.5 283.6 283.8 283.8 283.6 283 282.4 280.7 277.7 274.5 272.4 269 269.9 267.7 269.6 269.2 267.8 275.9 278.6 281.5 285.2 288.6 289.9 290.4 290.2 295.8 299.8 302.7 305.1 308.1 309.8 311.3 312.6 313.2 311.5 311 309.8 308.3 307.3 307.5 307.8 307.6 306.8 305.7 304.9 304.1 303 303.6 305.6 309.9 316.2 322.5 326.8 329.5 329.8 332.9 335.2 337.3 338.9 340.8 344.5 350.5 358.8 369.7 382.8 391.8 405.3 419.3 428.2 430.9 428.9 426.7 423.7 417.7 412.4 407.1 401.4 391.6 381.9 374.2 366.4 364.3 360.7 359.9 357.4 354.1 348.4 342.8 339.8 333.5 329.6 325.7 321.6 317.3 312.4 307.7 304.3 300.1 296.5 292.6 287.9 282.3 280.6 278.1 271.8 266.2 263.5 256 249.3 247.2 244.4 238.3 234.8 232.1 232.1 228 224.9 223.7 223.8 223.3 222 221.1 221.3 221.1 219.7 219.9 219.6 219.7 217.4 214.8 211.8 209.6 208.2 207.4 209.2 208.5 205.6 204.4 203.6 199.4 198.5 199.8 200.4 201.8 201.4 201.2 200.3 198.4 198.7 199.5 199.5
361.9 358 351.6 344.9 340.5 335.7 327.9 321.3 316.4 312.9 311.6 313.5 315.4 313.7 314.2 317.5 317.6 316.9 315.3 313.4 315.8 320.9 323.2 327 331.2 336.5 340.6 344 347.3 351.6 353.5 352.5 348.4 342.1 335.3 327.9 320 313.7 307.7 294.6 285.5 284.7 284.3 283.9 283.2 282.2 282.2 282.2 282.2 281.9 283 283.3 283.4 283.2 282.7 281.9 280.2 276.9 274 272.3 271.7 271.3 269.6 272.2 272.1 271 279.4 281.6 285.2 288.9 292.1 294 296.5 299.4 299.6 302.2 305.2 307.2 308.9 310.1 311.4 312.1 312.7 311.5 310.1 308.7 306.3 304.1 302.8 302.6 301.4 301.2 301.8 303.1 302.6 301.3 301.8 303.1 306.1 312.4 319.3 323.6 328.3 329.6 332.3 334.8 337.7 339.8 342.1 347 354 362.5 372.3 383.9 395.7 409.1 421.5 428.7 431.3 430.2 428.4 425.5 419.1 416.1 409.3 404.1 394.6 385 376.4 375 370.3 367.6 364 359.1 355.9 353.3 350 345.1 340.2 335.2 329 324.2 320.5 314 309.6 305 300.9 297 293.7 289.2 282.6 281.2 279.3 274 268.9 262.7 256.1 251.2 249 244.4 239.5 236.7 235.9 234.1 229.5 225.3 226.1 227.3 224.9 223.2 221.6 221 220.8 219.3 218.8 217.6 215.8 214 212.5 212.5 210.6 208.6 207 204.7 205.2 206.3 204.3 202.4 199.6 196.2 196 197.1 198.2 198.7 198.3 199 198.7 197.5 197.1 197.8
362.2 359.5 357.4 349.8 343.4 338.8 334.4 325 320.4 316.1 314.1 316.4 318 318.9 320.8 321.9 321.8 321.4 319.6 316.7 319.5 322.7 324.6 329.8 333 337.8 342.4 346.5 350.2 354.2 356.7 354.1 349.6 343.9 339.7 332.7 327.4 317.1 310.9 301.2 288.8 283.8 282.8 282.2 282.3 281.7 281.3 280.6 281.2 282.1 282 282.8 282.8 282.8 281.3 280.1 278.3 276.2 275.3 273.5 273.5 272.5 270.9 273.8 276.1 273.5 282.8 285.9 288.3 291.7 295.3 298.9 303.2 306.3 308.4 309.1 311.6 311 310.3 311.6 311.5 310.8 310.4 309.5 308.4 307.1 304.6 301.6 298.6 297 298.1 298.6 299.8 300.8 300.9 300 299.2 301.5 303.1 306.9 310.3 321.1 326.5 329.6 331.3 334.3 337.3 340.9 344.7 351.5 359.7 367 375.7 386.9 399.1 411.1 422.9 428.4 430 429 428 426.2 421 418 412.5 405.7 396 389.9 383.9 379.8 375 372.7 368.5 366.8 363.3 359.8 356.1 351.2 344.9 338.1 331.5 326.3 322 317.2 311.3 306.3 301.6 296.8 293.7 288.9 281.4 282.5 280.5 275.5 271.4 265.4 260.9 254.2 250.1 244.6 242.4 239.3 237.7 233.4 230.2 229.4 229.1 229.3 225.9 224.3 222.6 221.6 221 220.6 218.5 219 219.2 217.4 216.2 214.6 212.4 210.3 208.2 207 204.2 203.2 203.8 201.4 198.4 196.5 194.7 195.7 193.8 194.3 195.6 196.7 197.5 198.1 195.7 197.2
368.9 361.9 357.2 350.9 345.4 340.5 335.8 331 324.4 319.3 316.7 317.7 322.1 323.5 323.6 324.1 324.3 325.1 323.9 321.2 321.9 325.5 327.3 332 334.8 338.5 341.7 346.5 351.1 355.1 357.7 355.7 349.2 344.9 341.9 336.5 331.3 321.6 311.8 304.4 292.1 283.4 282.1 280.6 280.8 280.3 280.1 278.6 279.8 280.9 281.4 282 281.9 281.9 280.4 278.8 278.1 276.5 275 275.6 275.4 273.6 274.6 274.8 278.1 280.8 286.2 289.7 292.5 295.5 299.8 304.3 309 313.1 315 316.3 317.5 317.1 312.7 311.3 310.6 310 308.9 307.2 306.1 304.2 301.8 298.2 294.5 293.3 295 296.6 296.9 297.4 296.8 294.4 296.6 298.1 299.6 304.4 311 318.6 324.2 328 330.5 334 336.7 341.8 348.5 353.6 363.4 370.1 379.6 389.7 402.1 411.8 420.8 426 427.3 425.5 424.7 424.2 422.2 420 414 408.2 400.5 397.6 391.9 385.9 382.6 379.1 376.9 372.9 369.3 365.2 361.3 354 346 339.2 331.9 326.5 322.7 317.8 312.1 306 300.2 295.4 291.7 287.3 282.4 283.3 281.4 276.8 274 268.7 264.3 256.1 250.2 250.4 246.5 242 240.1 235.7 232.4 233 231.3 230.2 227.3 225.2 223.6 221.9 220.7 220.1 219.3 219.8 220.2 219.5 218 216.1 214 211.8 209.7 207.5 204.2 201.7 203.5 201.6 198.5 196.3 192.9 193.1 190.9 191.2 192.2 194.8 195.8 196.3 196.8 197.8
379 368.5 365.1 358 351.1 343.2 337.1 333 327.9 323.7 319.1 320 324.8 325.5 325.5 325.8 327.7 329.6 330.1 327.3 326.6 329.1 331.5 333 335.3 338 340.6 345.4 349.9 353.6 356.3 354.7 349.6 344.6 341.8 337.5 333.1 323 313 304.3 293.8 283.7 281.3 279.9 279.8 279.3 279 278.1 278.5 279.7 280.9 281.3 281.2 281.1 279.8 278.4 278.1 278 277.6 277.2 277.2 276.8 276.6 276.2 280.2 285.7 289.3 292.4 294.9 298.3 304.2 310.2 315.8 318.5 320.1 320.7 319.9 318.9 313.3 311.8 310.6 309.3 307.8 305.5 303.4 300.7 297.9 295 292.6 290.6 291.9 293.5 292.9 293.3 292.1 292.3 294 294.8 297.8 303.2 307.8 316.1 321.8 326.3 330 333.8 337.3 344.2 351.6 357.2 365.6 372.9 382.3 391 402.2 411.4 416.8 421.5 423.2 421.7 421.5 421.5 422.2 421.3 416.5 412.5 409.6 404.4 399.4 393.5 391.5 388.5 383.9 377.5 372.9 368 361.7 354.2 345.8 339.6 333.1 328.1 322.7 316.9 311.4 305.2 298.9 294.2 291.3 287.6 282.8 283.8 281.1 277.7 273.6 267.3 261.7 256.4 254.7 253.6 248.6 245.7 242.5 238.1 237 235.7 234.5 232 229.4 226.4 223.9 222 221.4 220 220.9 221.5 220.9 220.1 218.5 215.8 213.8 211.8 209.8 207.4 202 201.9 202.3 201.2 198.4 195.5 194.5 189.4 189.8 189.9 190.8 191.6 192.4 194.2 196.4 195.6
385.5 380.1 366.7 364.1 353.4 351.8 341.4 333.5 326 321.3 322.5 324.2 326.3 327.4 327.4 328.7 331.2 333.5 332.6 331.4 329.6 332.3 333.1 334.6 336 337 338.8 342.5 346.1 349.7 351.3 351.8 348.5 343.5 339.4 335.6 331.7 323.3 313 303.1 295.7 286.7 280 278.8 278.1 277.9 277.8 277.1 278.5 279.3 280.2 280.6 280.4 280.3 279.4 278 277.8 277.6 277.5 277 277.6 278.5 279.4 279.8 285.3 288.9 292.2 294.5 297.7 302 309.1 315.8 321 323.7 324.3 323.9 322.7 321 316.1 312 310.3 307.5 305.3 303.5 300 295.9 293.4 291 290.2 289.4 288.3 289.1 289.4 288.7 288.7 291.2 292.4 292.9 297.2 301.5 305.6 313.6 319.7 324.4 329.5 333.8 338.2 346.1 353 360.4 368.3 375.7 385.6 391.3 401.5 409 414.3 417.7 418.9 417.6 419.1 420.3 421.4 422.5 422.1 418.1 414.5 411.9 408.2 402.7 397.7 393.8 390.1 382.2 374.9 367.5 360.1 350.1 344.3 338.7 333.1 328.5 320.6 314.9 309.5 301.2 296.4 293.6 289.1 287.4 282.9 284 280.9 276.8 275.9 269.3 263.6 262 258.5 255.3 251.2 248.7 244.5 241.5 239.2 237.4 235.7 233.7 231 228.1 225.3 222.4 221.3 220.4 221.7 222.1 221.2 220.4 218.5 215.8 213.5 211.5 209 206.3 200.6 201.4 202.3 198.8 196.3 195.6 194.7 189.1 189.3 189.4 189.7 190.5 191.2 192.6 195.3 193.5
389.6 384.4 376.5 367.9 359.9 354.2 348.1 336.8 327.7 324.2 326.3 327.1 329.7 329.6 329.4 331.4 334.1 335.4 335 333.4 332.9 334.2 334.8 336.2 336.9 336.7 337.3 338.6 341.8 344.9 345.7 346.2 344.7 341 336.6 332.3 327.4 321 313.3 305.2 295.7 288.4 280.9 276.8 276.5 276.2 275.7 277.9 278.5 279.1 279.5 279.9 279.8 279.5 279.3 277.6 277.5 277.4 276.6 276.2 276.2 276.5 280.9 285 288.3 291.4 293.2 295.3 300.5 306.5 313.8 320.7 325 327.6 327.6 326.4 325.2 322.7 318.2 312.2 310 306.3 304.8 302.9 296.9 294.5 291.1 289.4 288.1 286.6 286.1 286.2 286.5 287.7 287.4 289.4 289.9 291.8 296 300.7 303.7 310.5 317.9 323.3 329.5 332.6 339.1 346.7 354.7 361.8 370.3 379.5 386.4 390.7 399.9 406.1 411.2 414.2 415.8 415.6 416.5 417.1 421.2 423.6 424.3 423.4 421.4 419 414.7 409.3 403.1 397.3 391.2 381 372.4 364.4 355.4 347.4 341.6 337.4 332.2 325.9 318.2 313.1 306.4 297.4 294.4 291.9 287.7 287.5 284.4 283.6 282.6 280 276.6 272.6 267.5 267.9 262.4 257.7 254.6 250.6 246.1 243.9 241.4 238.4 236.5 234.6 232.4 229.1 226.3 222.2 221 221.9 222.2 222.2 221.6 220.7 217.9 215.8 213.2 210.5 208.3 204.3 200.6 200.1 199.8 196.9 196 195 191.6 187.8 189.1 189.1 189 189.6 190.5 190.8 191.1 191.3
393.3 386 379.7 375 368.6 360.2 352 342.2 334.2 329.5 327.9 328.7 330.4 332.8 333.5 334.1 336.3 337 336.3 334.5 335 335.9 336.7 337.4 337.8 336.8 336.7 337.2 338 339.3 340.1 339.5 338.8 336.1 332.8 328.9 323.2 315.6 310.6 305.7 296 290 282.7 277.5 275.1 274.9 276.2 277.5 278.1 278.7 278.2 279 279.1 278.9 278.4 278.1 277.3 276 276.3 276.2 277.8 278.2 283.5 287.2 290.5 292.8 294 298.8 304.3 309.5 317.7 325.2 328.1 330.2 329.2 328 326.9 322.9 317.6 312.4 308.3 304.9 303.2 299.4 294.6 292.9 289.5 287.9 287.4 286.3 286 285.6 284.9 284.9 285.4 287 288.7 290.6 293.9 297.8 302 308.4 315 322.3 328.3 332.7 339.2 346.2 354.9 363 371.6 380.2 385.3 390.5 395.5 401.1 407.6 411.2 411.7 411.7 413.6 415.9 420.1 423.1 425.8 427.9 427.2 423.9 420.2 415.5 409.5 397.6 389.9 377.6 367.6 358 349.3 342.9 339.2 335.1 329.5 322.6 315.5 309.8 303.5 298.4 294.3 291.2 290.8 288.1 284.3 283.6 283.3 281.6 281.2 276.4 271.4 271.5 268.2 261.6 256.2 252.5 250 248.6 245.3 241.6 237.9 235.5 233.8 230.5 226.3 224.2 223.1 221.7 222.6 222.3 221.4 220.5 217.3 214.5 212.7 210.1 207.4 204.1 200.7 198.8 198.9 196.7 195.2 193.3 190.3 186.2 188.4 188.9 188.5 189.3 190 190.6 190.5 191.9
393.9 387.4 382 377.5 371.6 362.7 353.6 347.4 340.4 333.6 331.8 330.1 331.4 333.4 334.3 335.3 334.6 335.1 335.9 334.9 335.3 335.6 336.3 337.9 337.4 336.8 337.7 337.3 337 335.9 334.7 333.7 333.6 330.1 326.8 324.3 319.6 312.1 305.2 300.9 295.5 288.7 282.8 277.9 275.3 273.9 276 276.7 276.7 277.1 277.4 278.1 278.5 277.9 277.4 277.1 276.8 276.1 277.1 276.3 277.4 281.1 285.1 288.6 292.1 293.8 296.7 303.3 307 312.7 319.3 324.9 329.6 331.1 329.5 328 326.8 322.5 318 309.7 305.9 303.3 300.8 295.1 291.8 290.5 288.1 287.1 286.4 284.6 284.7 285 284.5 283.5 284.8 285 287.4 289.5 292.4 296 300.4 306.2 313.2 320.3 325.1 331.5 338.7 346.5 356.3 364.3 371.8 379.2 384.6 388.2 391.8 397.9 402 405.8 406.2 409.2 412.4 412.8 418.7 420.5 426.6 430.3 430.4 426.3 424 419.5 411.7 397.6 385.4 374.2 363.2 352.9 345.4 339.6 336.1 332.1 327.2 319.9 312.8 308.6 304.5 299.3 296.8 293.8 290.5 286.4 284.7 285.4 284.1 283.5 283 278.8 275.7 275 271.3 264.8 259.3 255.1 254.3 251.9 247 242.7 240.2 235.9 234.7 231.8 228 225.1 223.8 223.3 223.2 222 220.1 219.6 216.4 214 212.4 210.4 206.3 203.2 201.5 198 197.1 194.8 194 190 188.3 185.2 187 187.1 186.9 189.2 189.9 189.9 190.1 191.8
390.7 386.3 382.3 380.2 374.5 367.2 358 347.9 341.5 335.8 332.5 332.6 331.9 331.9 332.9 333 332.9 332.4 333 333.9 335 335.3 335.8 337.4 337.2 336.8 336.6 335.9 335.5 334.3 332.5 329.7 327.6 323.6 321.7 318.5 314.1 306.8 302.9 296.3 291.4 287.2 281.7 279.4 275.1 273.3 275.2 276.3 276.1 275.5 276.8 277.5 277.8 276.7 276.4 276.2 275.9 275.3 275.9 276.8 278.1 279.5 284.1 289.7 292.5 295.2 297.8 304.8 310 315.7 320.3 325.1 329.3 331.1 330.1 328.4 326.8 322.3 315.2 309.8 305.2 300.9 297.8 294.6 290.8 287.8 286.8 286.2 285.3 283.5 282.9 283.8 283.2 282.3 283.9 283.8 286.2 289.1 290.5 294.3 298.5 303.4 310.9 317.2 323.8 330.9 338.2 348.4 357.1 363.9 370.2 377.3 381.9 385.5 389.2 393.1 396.1 399.4 400.5 404.9 409.4 409.8 416.8 419 424.7 429.2 430.3 428.2 425.3 418.8 408.3 395 380.5 369 360.2 349.8 342.7 338.2 332.5 330.1 325.1 319.2 312.9 310.8 306.6 301.2 299.3 295.8 292.9 290.2 287.4 286.7 285.1 285.4 284.6 281.4 278.7 276.8 273.2 268.1 259.8 256.9 256.1 253.6 248 244 241.5 237.2 235.7 233.1 229.1 225.6 223.9 223.9 222.7 221.1 219.7 218.2 215.5 213.2 212 210.4 205.4 202.9 201.6 197.2 194.3 190.9 190.8 187.5 186 184.7 184.1 185 186.7 188.8 189.4 188.7 189.3 191
385.4 381.1 377.5 374.2 371.6 365.8 359 351.1 342.6 336.5 332.3 330.4 329.8 329.6 329.8 329.4 329.2 330 330.7 331.5 333 334.3 335 335.6 335.1 335.3 335.4 334.8 334.1 332.6 331.1 328.9 325.1 321.7 318.3 315.3 309.1 303.1 298.8 293.6 289.3 285.1 282.6 280 276.7 272.3 274.2 275.3 275.6 274.9 275.7 276 276.7 276.5 275.7 275.5 274 275.2 276.3 277.1 278.2 279.4 284.4 288.4 292.7 295.5 298.9 305.6 310.6 315.7 320.2 323.6 327.2 329.8 330.3 329.3 327.1 322.5 316.2 310 305.4 300.7 296.8 294 290.7 286.1 285.1 284.7 284.8 284 282 281.9 281.3 282.3 283.6 285.1 286.9 288.1 289.2 292.8 297.8 301.2 308 314.5 322 330.3 338.9 347.5 356 362.6 368.7 373.9 377.8 381.5 385.3 388.2 391.8 392.9 397.2 401.9 405.9 406.2 413.5 417 421.9 425.8 427.6 425.7 423.4 415 404.4 390.7 377.1 368 357.4 347.8 342.6 335.7 330.6 329 325.1 318.8 313.9 310.4 309.9 304.8 300.9 297.3 296 293.6 288.9 287.3 288.3 287.7 286.1 283.8 281.1 279.4 275.4 268.8 260.6 258.2 254.9 253 249.9 245.6 243 239.6 236.7 234.6 230.6 227.5 225.3 224.4 223.2 222 218.8 215.9 213.9 212.4 211.4 209.8 205.2 202.3 200.3 196.6 192.8 189.8 187.6 184.7 184.9 184.1 183.2 183.8 186.2 186.7 187.4 187.7 188.7 189.8
379.6 372.6 370.1 367 363.8 359.5 355.6 350.5 344.6 337.6 332.6 330.4 328.2 327.2 327 327.1 327.2 327.7 328.4 329.2 330.5 332.1 332.9 333.6 333 333.1 333.3 333.9 333 331.6 330.1 327.6 324.7 320.4 317.3 312.5 307.9 301.3 296.3 291.7 287.6 284.2 282.7 280.9 277.8 274.3 273.2 274.5 274.3 274.4 274.2 275.2 275.8 275.6 275 274 273.5 275 275.8 276.7 277.4 279.2 282.6 287.6 292.5 295.7 299.5 305.4 309.8 314.4 318.4 321.5 325.1 328 328.8 328.5 326 322.2 317.1 310.8 305 300.1 297.4 295 289.9 285.5 281.9 283.3 283.1 283.3 281.7 281.3 281.3 281.4 282.6 284.2 286.4 287.8 288.6 291.9 296.3 300.3 305.6 312.4 319.4 327.8 336.2 344.9 353.6 359.3 365.1 370.2 373.8 377.4 381.4 384 387.6 389.7 393.8 397.2 402.6 405.7 410.1 413.2 418.1 422 422.9 422 418.8 410 399.9 386.2 374.4 365.2 355.9 347.4 340.4 333.7 330.9 328.8 325.9 321.3 317.6 313.6 311.8 307.3 303.6 300.3 299 295.8 290.2 289 289.6 288.9 287.2 285 282.8 279.2 272.7 269 263.7 258.9 255.5 253.1 250.9 246.4 244.7 240.2 237.5 235.4 230.8 228.2 226.8 226.2 225.1 223.6 220.7 217.9 214.9 213.2 211.4 207.2 204.2 200.5 198.6 195.1 192.5 191 187.5 182.9 184.4 183.6 182.7 183.2 184.9 186 186.1 186.4 187.5 188.7
379.4 371.9 369.1 363.8 357.8 353.1 348.9 345.2 344.4 339.4 332.5 329.9 327.4 326.2 325.3 325.5 325.6 325.6 326.3 326.9 328.2 329.6 330.3 330.9 331 331.1 330.9 331.7 332 330.5 329.2 326.5 323.5 319.4 315.6 311.3 306.6 299.5 295.5 292.6 290.1 285.7 283.1 281.6 279.8 275.8 273.8 273.6 272.1 273 272.8 274.7 274.6 274.4 273.3 272.8 273.2 275.1 275.1 274.4 276.6 278.4 281.7 286.4 291.3 296.6 299.7 304 308.3 312 315.7 319.1 322.3 324.9 326.3 326.4 324 321.5 316.4 311.2 305.1 299.3 296.8 293.8 290 284.1 282.3 281.9 280.8 280.1 281 282.9 282.5 282 282.2 283.6 286.2 287.4 288.5 291.7 294.8 298.8 304.3 310.9 317.4 325.2 333.7 341.9 350.6 356.1 361.5 366.4 369.6 374.4 377.5 380.8 383.1 386.8 390.2 394.5 399.2 402 406.8 409.9 413.6 418 418.8 417.1 412.9 403.3 393 380.5 369 359.8 351.4 345 339 334.6 331.4 329.1 326.6 323 318.2 313.6 311.9 310.8 306.9 304.5 302.3 298.9 292 291.2 291.4 290.3 288.3 286.1 283.9 280.8 271.6 267.6 264.1 262.4 257.5 252.5 250.9 248.5 245.7 241.5 238.5 236 232.7 229 228 228.6 227.1 225.6 222.7 219.7 216 213.4 210.1 208.4 204.6 201 197.2 193.5 190.7 190 187.8 183.4 183.4 183.7 183.1 183.3 184.1 184.9 184.1 186 186.5 187.9
374 372 367.4 360.4 356.1 351.3 346.7 343 337.5 335.2 332.5 328.4 326.7 325.9 323.5 323.6 323.7 324.6 325.2 325.6 325.9 327 327.6 328.2 328.3 328.8 329.6 331 331.5 330.2 328.5 326.6 324.2 320.6 314.6 310.2 305.7 301 296.4 293.5 290.6 286.9 284.4 281.6 279.7 276.6 272.8 272.8 272.8 271.5 272.6 273.9 273.7 273.5 271.7 272.5 274.4 275.4 275.3 274.5 275 278 280.6 284.2 288.8 294.3 298.8 302.1 305.7 309 312 315.2 318.3 320 321.7 323.1 324.1 321.7 316.7 311.4 304.6 298.7 294.5 289.2 288.2 283.4 281.5 278.8 279.7 277.9 281.3 283.6 283.6 283.3 283 284.2 285.7 286.9 288.8 291.4 294.8 298.6 303.1 309.1 316.5 324 331.6 338.6 347 351.6 358 363 366 371.3 375.1 377.8 380.4 383.5 386.7 391 393.9 399 403 405.9 409.1 412.9 413.3 412.1 406.8 396 385.2 372 363.1 354.3 348.8 343.8 339.3 335.3 332.6 329.6 328.4 325.1 322.8 317.6 315.5 313.8 309.4 307.2 304.8 302 294.3 292.5 292.5 291.7 289.5 287.2 285 282.2 275.2 271.2 265.1 263.2 258.5 253.5 250.7 248.3 244.9 242.2 238.5 236.2 232.6 230.8 230.4 230.7 229.4 227.5 224.4 221.3 216.9 215.5 212.9 212.3 207.2 204 199.6 193.2 190.8 188.8 186.4 182.3 182.8 182.9 182.4 182.4 183.3 183.8 183.5 184.8 185.2 185.9
366.4 363.8 361.4 356.4 351.8 347.9 345.2 342.5 335.4 331.7 330 327.7 326.1 324.6 323.2 321.7 322.5 323.5 323.9 324.3 324.6 324.9 325.1 325.5 326.4 326.1 328.7 329.4 330.3 329.5 328.7 326.7 324.4 321.4 316.3 311.5 305.3 301.4 297.5 293.8 290.8 285.8 283.8 283 280.1 278 275.4 274.8 274.4 272.9 271.4 273.1 273.2 271.9 271.9 273.8 275.1 275.5 275.5 275.5 275.8 277.9 279.6 283.2 286.4 291.6 295 298.8 301.7 304.7 307.7 310.7 313.6 315.5 316.8 318.2 319.5 320.5 317.2 311.7 304 298.4 293.9 291 285.4 281.3 280 277 276.5 276.8 281.3 283.8 284.6 284.5 284.7 284.5 285.2 286.7 289.4 291.2 294.8 298.8 302.2 307.6 314.7 321.4 328.8 335.7 343.6 348.7 354 359.5 363.3 367.6 371.4 373.8 376.4 378.6 382.8 386.8 391.2 394.5 398.1 401.5 404.2 407.4 408.2 405.7 400.1 390.3 377.4 366.4 358.6 350.7 346 343 338.8 335.6 333 331.3 330 328.8 324.6 322.1 320 317.9 311.9 309.9 308 304.1 296.9 294.1 293.6 293.1 290.7 288.3 286.1 283 277.5 272.6 270.6 267.3 260.1 255.7 252.6 249.5 247 243.2 239.1 236.9 234.8 233.2 232.8 231.8 230.8 228.6 225.7 223 221.4 220.2 217.1 214.2 209.3 205.7 201.9 195.7 191.7 189.8 185.7 181.6 181.7 181.6 181.4 181.3 182.1 182.6 182.9 183.5 184 184.9
361 357.9 354.4 353.3 350.6 347.4 343.3 337.8 333.1 330.7 328.5 327.3 325.7 324.1 322.5 320.6 321 322.3 322.7 323.1 323.5 322.9 322.5 323.6 324.2 325.8 326.7 327.6 328.7 328.6 328.5 326.8 324.5 321.9 316.1 311.5 306.7 302.4 297.9 294.1 290.9 285.9 284.8 283.1 281.5 279.8 277.2 276 274.8 272 269.8 271.8 272.1 270.3 271.8 273.6 275.1 275.5 275.6 275.9 277.1 278.3 279 281.1 284.2 288.1 291.2 294.8 298 300.9 303.9 306.3 309 310.5 311.9 313.2 314.2 313.8 312.8 309 302.2 297.4 293.8 290.2 285 279.7 278.8 277.6 275.3 278.4 281 283.8 286.5 287.1 287.4 286.8 286.4 285.2 286.8 291.7 293.6 296.7 299.7 304.2 310.8 318.2 325.4 331.7 339.1 345.2 351 354.7 358.8 363.1 366.1 369.7 371.5 374.3 377.2 382.5 386.2 389.5 393.1 395.9 398.3 401 401.7 398.7 392.9 384 373.6 365.4 357.1 348.9 344.5 341.6 338.7 336.4 335.7 334.5 332.8 331.3 329.9 327.5 326.7 320.9 313.8 311.3 308.2 305.1 299.9 295.3 294.9 294.1 291.6 290.1 288.4 284.4 280.8 275.7 273.2 270.5 265 258.1 256.9 250.8 246.8 243.1 239.8 238.4 237 235.7 234 233.6 232.1 231.1 228.1 226.7 227.2 225.2 221.8 218 212 207.3 203.8 197.5 192.1 190.2 184.6 181.8 180.6 180.5 179.9 180.5 180.8 181.3 181.8 182.1 182.9 183.9
357.6 354.6 350.8 346.6 345.9 345.1 341.4 336.7 331.8 329.3 326.9 325.3 324.2 322.7 321.5 320.3 319.7 320.2 321.9 322.3 322.5 321.6 320.5 321.9 323.2 324.2 325.1 326.1 327.3 328.1 328.1 326.5 324.4 321.8 316.2 312.4 308.1 303.3 298.3 293.8 291.8 290 285.1 283.5 282 280.3 278.8 277 275.7 274.1 273 271.6 269.8 269.8 271.6 273.3 275.1 275.7 276.2 276.5 276.9 277.6 278.4 279.4 282.3 284.7 287.8 290.9 294.4 297.3 299.3 301.9 303.8 305.4 306.8 308.2 308.3 308.8 306.7 303.4 299.7 295.5 292 288.2 283.9 279.4 276.1 274.1 275.6 276.3 278.6 282.3 287.3 288.2 289.3 289.1 289.1 289 289.6 292.2 293.5 294.7 297.2 302 306.5 313.8 320.1 327.2 334 339.6 346.5 351.3 354.7 358 362 365.2 368.4 370.9 374.7 377.6 380.9 384 387.9 389.9 391.1 393.5 394.2 391.1 385.9 377.1 369.7 362.6 353.9 346.1 343.1 340.8 339.5 338.8 338 336.9 336.5 336.9 333.7 332.5 329.8 322.7 315.8 311.5 307.9 304.8 298.3 296.6 295.9 295.3 293.6 292.3 290.9 288.5 283.2 278.4 276.4 274.4 268.3 261.5 257.7 251.7 246.5 242.5 241.3 239.9 238.5 237.4 236.5 235.6 234.8 233.3 231.9 231 231.9 229.5 226.2 219.2 215 210.5 207.3 199.5 191.2 189 184.8 182.3 180.9 180.2 178.3 178.9 179.4 178.9 179 180.5 180.3 180.9
355.6 351.3 346.9 343.9 342.3 341.5 338.4 336.5 330.9 329.5 326.5 323.6 322.1 321.5 320.5 319.4 318.9 319.3 320.6 321.4 321.6 320.4 319.6 319.4 321 322 323 324.6 326.2 327.1 327.5 325.9 324.1 321.1 316.3 313.2 310.1 304.2 299.8 296.4 294.8 292 287.9 283.9 282.1 280.8 279.3 277.7 276.6 275.4 274 271.1 270.7 271.5 271.5 273.7 275.1 275.6 275.9 276.2 276.3 277.1 277.8 278.5 279.8 281.7 284.4 287.5 290.6 293.1 295.1 297.7 299.2 300.5 301.9 303.2 303.4 303.2 300.7 298.1 295 291.9 288.8 285.7 282.4 279 275.1 271.9 274.3 274.5 276.5 280 284.4 287.6 290 290.4 290.5 290.7 291.5 292.6 293.4 294.2 295.1 299.3 303.8 309 315.4 322.2 328.3 334.2 340.6 346.1 350.4 353.9 357.4 360.5 363.8 367.3 370.7 374 377.1 379.9 382.2 383.8 384.5 385.5 385.9 383.3 377.7 369.6 364.2 357 349.9 343.5 341.2 338.6 338.7 339.2 339.3 339.6 341.3 340.2 339.8 336.9 333.1 326.4 319.7 313.1 309.3 305.8 299 297.7 296.4 295.8 294.6 293.4 291.4 288.3 286.2 282.2 279.9 277.9 271.5 265.6 257.7 250.9 246.4 243.5 242.4 241.3 240 239.1 238.3 237.6 236.8 236.7 236.1 236 235.6 233.4 229.2 224.3 218.3 214.9 209 201.5 192.9 189.7 184.5 182.5 181.7 180.6 178.5 178 179 178.3 177.3 178.3 178.5 178.8
352.7 350.3 346.5 343.1 341.4 340.5 339 336.8 331.5 327.3 325.2 322.2 321.3 321 320.2 319.2 317.9 318 319.6 320 320.6 319.9 318.8 318 318.9 319.8 321.1 322.7 324.6 326.1 327 325.8 324.1 320.7 316 313.3 311.1 306.8 302.4 299.6 296.5 292.9 289.9 286.3 282.5 281.3 279.8 278.6 277.5 276.4 275.1 273.4 271.6 270.6 272.1 273.8 274.9 275.4 275.7 275.9 276 276.5 277.2 277.8 278.1 279 280.8 284.1 286.9 289.4 291.9 293.9 295.6 296.8 297.8 298.2 298 297.1 295.5 294 291.6 288.7 285.9 282.8 281.3 278.8 275 273.2 270.9 273 276.5 278.9 284.4 286.5 290 291.1 291.2 291.5 292 292.5 293.1 293.7 293.9 295.8 300.1 305.3 310.6 316.7 323 329 335 340.3 344.7 348.7 351.8 355.6 358.7 362.8 366.4 369.2 371.9 374.4 376.4 378.4 377.5 378 377.4 375.2 369.1 361.8 356.5 352.7 346.1 340.6 338 337 338.9 339.7 340 341.4 342.6 345.8 345.1 342.2 337.8 331.3 324.1 316.8 312.1 306.5 301.9 298.7 296.9 296.3 295.1 294.2 293.1 290.2 288.1 284.5 281.7 277.3 273.7 266.1 257.5 251.2 247.4 244.5 243.4 242.3 241.7 241.4 240.6 239.9 239.1 239.7 241 240.7 240.4 235.9 231.4 226.8 221 216.3 211.1 202.7 193.5 189.3 184.3 182.9 182 179.9 178 176.8 178.1 177.8 176.8 176.6 176.1 176.9
351.7 350.4 348.4 343.9 340.9 339.9 338.7 337.4 332.2 326.3 324.2 321.4 321 319.4 319.9 319.3 318.4 317 318.4 319.1 319.7 319.2 317.5 316 315.3 317.7 319.2 320.9 323.4 324.3 325.7 324.9 324.1 319.9 315.8 313.6 311.1 309.3 305.9 304.1 300.4 296.5 292.3 288.5 284.6 281.8 280.5 279.4 278.3 277.2 276.1 274.6 272.5 270.1 271.7 273.2 274.4 275.3 275.4 275.6 275.6 275.9 276.5 277 277.3 277.6 278.5 280.2 282.9 285.4 287.5 289.5 291.5 292.7 293.4 292.8 292.8 292.9 292 290.1 288.2 285.7 282.9 281 279.8 277.5 275.1 273.6 271.7 270.2 274.7 276.4 279.7 284 287.6 289.6 290.4 290.5 290.8 291.3 291.8 292.7 292.6 293.7 296.6 301.3 306.3 312 318.6 323.8 329 333.8 338.1 342.1 347.1 350.3 353.7 357.5 360.9 364.1 366.7 368.1 370.4 371.9 371.4 370.5 368.2 367 361.5 355.1 349.1 346.1 341.3 336.8 335.2 334.6 337.9 340.2 342 343.3 347.3 350.7 348.9 345.1 340.2 334.9 328.4 322.3 315.9 310.8 304.2 299.8 297.7 296.8 295.9 295.2 294.4 292 289.2 285.8 283.9 277.8 272.5 265.1 258.6 252.1 249.3 245.2 244.4 243.6 243.3 243 242.7 242.2 241.9 242.7 244.1 245.3 242.4 238.2 233.2 228.2 224.5 217.8 211.3 203.4 194.9 189.7 185 183.2 181.5 180.1 178.8 179 177.9 176.7 177.3 176.4 174.5 175
349.2 347.6 348.4 343.4 340.3 338.9 337.6 339.7 331.4 326.3 323.3 321.7 321.3 320.7 318.4 319.3 318.7 316.1 317.5 318.2 318.7 317.9 316.8 314.7 314.3 315.8 316.3 320.3 321.6 321.9 322.4 323 321.7 319.1 315.4 313.3 311.3 309.8 308.8 307.5 305.9 300.6 295.1 291.4 287.6 283.8 281.1 280 278.9 277.9 276.8 275.4 272.5 269.2 269.6 272.5 273.5 274.2 274.8 275 275.1 275.2 275.8 276.2 276.5 276.8 277.1 277.7 279 280.9 282.9 284.8 287.1 288.2 289.2 289.5 289.6 289.7 288.7 287.1 285.3 282.7 280.6 279.4 278.2 277.4 275.3 273.9 272.4 270.3 273.1 275.1 278 281.7 285.4 287.8 289.1 289.4 289.4 289.7 290.4 291.9 291.7 291.9 294 298.4 303.1 307.9 313.7 319.6 323.7 328.4 331.2 334.5 339.2 344.6 347.8 352.9 355.8 358.9 360.2 361.8 364.5 364.9 364.7 362.8 359.8 358.2 354.5 349.6 344.1 339.5 336.6 332.8 331.7 333.1 334.9 339.5 342.1 345.6 352.5 354.9 352.7 347.8 343 337.9 331.4 327.7 321.3 315.8 308.5 299.9 298.3 297.1 296.6 295.8 294.4 292.6 290.8 287 284.2 278.3 269.6 265.1 257.6 254.1 251.4 245.8 245.2 244.7 244.4 244.1 243.8 243.6 244.3 245.5 246.6 247.7 243.7 238.8 233.7 227.8 224.4 218.5 212.5 204.3 195.9 190.1 185.5 183.5 182.3 180.9 179.6 179 178.7 178.5 178.3 177.7 177 175.9
349.6 346.5 344.3 342.2 339.3 337.2 335.6 335.3 328.9 322.7 320.7 321.8 321.3 321.1 318.1 318.6 318 316.2 315 317 317.6 316.6 315.3 313.7 313.6 314.5 314.6 317.3 318.7 318.6 319.1 319.8 319 316.9 314.8 312 309.4 309.1 308.6 308 307.8 303.7 298.6 293.9 289.9 286.2 282.7 280.7 279.7 278.5 277.3 275.9 273.8 270.8 270.7 271.8 272.9 273.6 274.1 274.3 274.5 274.7 275 275.4 275.7 275.7 275.9 276.3 276.8 277.1 278.3 279.8 282.3 284.1 285.3 285.9 286.4 286.4 285.5 283.9 282.5 280.5 278.8 277.7 276.5 275.9 275.4 273.6 272.8 269.9 271.3 275.6 277.6 280.7 283.4 285.5 286.3 287.4 288.4 288.4 289.1 290.6 290.7 289.8 293.4 295.2 299.9 305.4 308.2 313.4 318.5 323.5 325.5 328.7 333.7 339.2 342.5 345.3 350.2 352.6 353.7 355.1 357.2 357.3 356.9 355.4 350.9 349.1 347.1 343.5 338.8 333.9 330.9 327.9 329.2 330 332.4 336.9 343.7 348.9 354.8 358.3 355 351.6 347.1 343.1 338.3 334.5 328 318.1 308.8 301.5 298.5 297.1 296.4 295.8 293.4 291.2 288.7 285.8 280.4 275.7 270.1 264.3 257 253.2 250.4 246.5 246 245.5 245.2 244.9 244.9 244.9 245.6 246.6 246.9 249.3 243.8 237.5 234.3 227.7 224.3 218.7 212.6 205.1 198.6 191.6 186.1 183.9 183 181.7 180.5 180.1 179.8 179.1 178.5 178.1 177.7 177.3
355 350.5 349.5 345.5 339.3 336.2 334.9 333.8 325.8 320.3 318.3 318.5 320 319 315.3 316.4 316.3 314.5 312.8 315.8 315.6 315.3 313.9 312.6 311.2 312.9 314.1 315.2 315.7 315.1 315.1 315.9 315.7 314.7 313 311.3 309.1 307.4 306.9 306.3 304.3 301.9 299.8 297.3 292.8 288.3 285.4 281.9 281.1 279.5 277.9 273.3 270.9 269.5 269.2 271.1 272.2 273 273.4 273.7 273.9 274.1 274.3 274.1 273.8 274.1 275 274.7 275.5 275.7 275.8 276.8 278.1 280 281.2 281.9 282.5 283 282.6 281.5 280.3 278.6 277 275.9 274.9 274.3 273.8 273.3 272.2 271.1 273.8 274.6 276.2 278.6 282.2 283.1 283.8 284.8 285.7 286.5 288.3 289.1 290 291.1 292.9 294.5 297.7 301.9 304.5 307.7 311.8 316.6 320.9 324.8 330.5 332.9 336.1 339.5 344 346.5 347.5 347.9 349.6 350 349.6 347.9 342.4 339.7 338 337 332.7 327.3 323.6 323.8 324.8 327.9 329.9 335.7 343.6 350 355 357.5 356.8 354.3 351.7 349.4 345.6 340.7 332.6 322.1 315 307 298.9 297.1 296.2 294.5 291.6 288.5 284 284.2 278.6 273 268.3 263 257 252.9 249.7 247.3 246.8 246.3 246 246.1 246.1 246.1 246.3 246.6 246.9 248.7 243 236.8 233.9 227.1 222.8 216.5 210.8 205.2 198.9 192 185.9 184.4 183.4 182.4 181.8 181.4 180.9 179.4 178.8 178.7 178.9 177.9
361.2 357.7 355.2 349.6 341.7 338.2 334.7 330.3 324.6 320.7 318.5 319.5 317.7 318.3 317.1 314.3 312.5 312.9 311.6 314.1 313.5 314.1 313.1 312.2 309.8 311 312.4 313.2 313.4 311.8 310.9 311.5 312.7 312.2 310.9 309.2 307.6 305.9 305.6 305.1 305.2 301.9 298.9 297.4 294.2 290.5 287.1 284.7 283.1 280.7 279.1 276.3 273.5 270.9 268.8 269.1 271.1 272.3 272.8 273.1 273.3 273.1 272.3 271.8 272.3 273.2 274.2 273.7 274.1 274.4 274.5 274.6 274.9 276.2 277.1 277.9 278.7 279.7 280.6 279.5 278.2 276.7 275.2 274.1 273.5 273.7 273.1 272.6 270.9 269.1 273.4 273.8 275 276.8 278.9 281.7 281.4 281.8 282.7 284.3 287.5 288.9 288.6 290.4 292.6 294.3 296.1 297.7 300 302.7 305.5 311.9 315.7 319.6 325.4 328.4 330.8 334.2 336.8 338.7 339.6 340.8 342.4 342.6 342.2 340.7 336.4 332.4 330.1 329.2 324.5 320.4 319.2 320.6 322.6 325.8 329.8 333.9 343 348.2 352 354.8 356.8 356.1 354.6 353 350.9 345.5 338 328.2 319.1 311.6 302.5 297.7 294.4 291.3 288.9 285.2 279.7 279 276.1 270.1 264.5 260.3 256.7 252.6 249.3 247.8 247.1 246.4 245.9 245.9 245.9 246.4 246.1 246.1 246.5 247.5 241.4 236.7 230.6 225.7 221.8 215.5 209.6 204.7 199.6 192 186.9 185.6 184.7 183.8 183.1 182.6 182.4 181.2 180.9 180.5 179.4 178.4
380.2 365 360.5 353.9 344.4 340.1 336 327.1 322.4 321.3 320.9 320.4 320.3 319.8 319 317.2 312.7 311.9 309.6 312.3 312.7 312.7 311.6 310.5 309.3 308.3 310.3 311 311.1 310.1 308.2 308.2 308.8 309 308.3 307.1 305.4 303.9 302.8 303.8 304.8 303 299.7 297.3 294.2 291.7 289.6 287.7 285.1 283.1 281.2 278 275.1 272.9 270.8 266.8 270.4 271.4 272.2 272.5 271.8 271.1 270.7 270.4 271.4 272.3 273.3 272.6 272.4 273.1 273.3 273.5 273.6 273.4 274.3 275 275.7 276.7 277.2 276.6 276 274.7 273.4 272.8 272.2 272.2 272.5 271.5 270 265.7 270 271.3 272.7 274.4 276.2 278.4 279.6 277.5 278.9 283.2 286.6 287.1 286.9 290 292.2 294 295 296 296.8 298.4 301.8 307.6 311.6 315.4 318.6 322.7 326.2 328.9 331.1 332.5 333.9 334.1 335.1 334 333.3 332 330.3 326.4 322.8 321.7 317.7 314.8 314 317.2 318.3 323.7 328 331.8 339 344.1 346.3 349.8 353 353.9 355 355 353.4 348.3 341.4 334.4 325.1 315.3 307.2 299.2 294.4 287 285.4 280.7 274.6 274.1 270.3 265.3 261.3 257.9 254.7 252.2 248.9 247.6 247.1 246.5 245.9 245.7 246.1 246.8 246.7 245.4 244.7 245.6 241.4 234.9 228.6 224.3 221.4 215.7 210.7 205 199.6 191.5 189.7 187.9 186.1 185.3 184.7 186 185.2 184.2 182.3 181 179.9 179
395 391.5 371.6 361.3 351.8 339.7 337.4 328.1 324.6 320.6 319.4 320.8 320.9 320.5 320 317.3 314.6 313 311.5 309.2 312.4 312.1 311.9 310.8 308.7 306.7 308.7 308.3 309.2 307.7 306.3 306.1 305.4 305.2 304.6 304.5 302.7 302 301.4 301.7 303.2 303.8 300.9 297.9 295.1 292.5 290.9 288.9 287.2 285.9 283.2 280.6 277.5 273.6 271.3 266.5 269.1 270.2 271 271.6 271.3 270.9 270.4 267.3 270.6 271.5 272.4 271.5 270.6 272 272.3 272.5 272.6 271.9 272.4 272.7 273.3 273.3 273.6 273.6 273 272.5 272.1 271.5 270.9 270.6 271.1 271.3 270.1 266.4 267.3 268.5 269.7 271.1 273.8 274.5 276.9 274.4 276.1 283.1 285.5 286.1 285.9 288.6 291.2 292.2 293.1 293.8 293.9 296 298.8 303.8 307.5 310.8 313.4 315.4 317.6 322.1 323.6 325.1 326.5 328.2 328.3 328.1 326.7 323.6 323.4 320.2 317.9 315 312.2 310.3 311.6 311.8 315.1 319.5 324.6 328.5 332.2 337.4 341.3 344.4 347.8 351.5 353.9 354.6 354.5 350.7 344 335.9 327.1 318.8 310.8 300.9 292.5 286.4 281.3 275.1 269.6 267.5 264.1 261.1 258.1 255.5 254 251.3 248.1 247.3 246.7 246.2 245.7 245 245.3 245.8 246.3 243.6 242.3 242.4 237.5 234 228.3 225 219.8 212 210.1 205.6 199.8 191.9 192.3 190.2 189.1 187.8 187.1 187.8 187.1 185.5 183.6 181.9 180.4 179.3
406.3 391.2 378.2 370.3 361 346.8 335.6 330.2 326.4 322.6 320.3 322.1 322.9 322.2 321.1 319.9 318 313.9 310.4 311 313.1 313 312.5 311.2 309.5 306.6 307.1 307.5 307 306.8 305.8 304.2 302.2 302.1 302.1 301.7 300.4 300.2 299.8 299.9 300.3 301 300.5 297.8 295.9 293.3 291.7 290.1 288.7 287.2 285.3 283.5 278.9 274.8 271.4 267.7 266.7 268.4 269.3 270.7 270.9 270.8 269.6 266.7 269.3 270.7 271.4 270.5 269.3 270.6 271.2 271.5 271.4 270.4 270.3 271.1 271.7 271.4 271.4 271.4 270.9 271 270.7 270.2 269.6 269 269.7 270.4 270.4 267.9 264 267.4 268.6 270.4 271.8 272.5 273.1 272.3 273.8 280.6 283.6 282.5 285.9 288.8 290.7 291.1 291.7 290.6 294.6 295.3 297 300.1 303.2 307.1 309.7 311.6 312.3 317.1 319.4 320.2 320.3 321.1 321.1 320.7 320.1 316.9 315.9 315.1 313.1 310.4 306.9 305.3 307 307.3 310.5 315.3 320.5 324.4 326.8 330.6 335.8 338.9 343.3 347.3 350.2 352.5 354.2 350.4 345 339.1 332.3 323.2 312 298.6 290.6 285.2 278.9 269.1 265.4 263.3 261 258.8 256.7 254.3 252.8 249.9 246.9 246.2 245.9 245.3 244.3 243.7 243.4 243.7 244.2 242.5 240.3 238.3 235.6 232.6 227.5 223.1 218.7 211 208.3 205.5 197.9 193.1 192.8 192.7 191.3 191.5 190.4 189.2 187.7 186 185.4 184.8 181.5 178.9
409.8 397.8 384.6 379 367.6 355.4 347 334.3 328 326.9 324.6 324.2 326.3 326 325.3 323.4 321.6 314.9 311 311 313.2 313.8 313 311.6 310.2 308.2 305.7 303.9 305 304.9 304.1 303.3 301.5 299.7 299.4 298.9 298.1 297.6 296.8 296 296.7 297.5 298 297.6 295.9 294 292.3 291.2 290.9 289.8 289.1 286.2 280.5 276 272.1 270.1 266.9 266.9 267.9 269.1 269.8 269.9 269 266.6 268.5 270.1 270.5 270.1 269.2 269 270.2 270.5 270 269.5 268.9 269.8 270 269.7 269.4 269.2 269.4 269.5 269.3 268.8 268.2 268.2 268.9 269.6 269.6 268.2 265.2 265.7 267.7 269.3 270.2 271.2 271.5 271.7 272.4 274.7 279.1 281.5 283.4 286.5 289.4 290.1 290.5 289.7 293.1 293.6 295.8 298.5 300.9 303.4 306.2 308.3 310 311.5 314.7 316.2 315.9 316.5 315.3 314.5 313.6 312.1 311.2 310.4 308.3 305.6 302.4 302.8 301.9 303.3 306.6 311.2 316.4 320 323.1 324.9 329.3 333.2 337.5 341.5 345.8 348.2 351 350.7 346.1 342.8 336.2 325 313.7 299.2 288.9 283.5 276.7 269.7 265 261.7 258.6 256.1 255.1 253.2 251.5 248.5 245.7 245 245.1 243.8 242.8 242.4 242.1 241.7 242.1 241.1 238.3 236.5 234 232.1 226.6 219.6 215.9 210.5 209.3 205.6 197 193.7 193.3 193.1 192.5 192.5 193.3 190.2 188.6 187.4 186.1 184.9 182.9 179.7
415.9 402.2 389.6 383.5 374.1 361.3 348.8 338.4 330.4 326.7 324.8 323.1 326.4 327.6 326.9 325.2 322 316.5 312.2 309.3 312.4 313.2 312.6 312.3 310.8 308.2 306.2 302.4 303 302.8 302 301.2 300.4 297.8 296.6 296.1 295.5 294.9 294.3 294 294.4 295.5 296.3 296.3 295.2 293.9 292.5 292.3 293.2 292.9 292.7 289.8 282.6 277.5 272.7 270.6 268 265.1 267.2 268.2 268.4 268.5 268.2 266.4 267.6 269 269.4 268.9 267.7 269 268.9 268.7 268.7 266.5 267.6 268.5 268.4 268.1 267.9 267.8 267.9 268.1 267.9 267.4 266.8 267.4 268.1 268.8 268.9 267.4 264.6 263.8 264.9 267.6 269.1 269.8 269.8 270 270.7 271.5 275.4 276.9 281 283.8 286.6 288.7 288 288.4 288.9 291.3 294.1 296.5 298.5 300.4 302.1 304 304.6 306.6 308 310 309.8 311.1 310.9 310.4 308.2 308.3 307.3 305.7 302.9 300.5 300.1 298.3 297 300.4 303.2 306.9 311.8 315.9 318.6 320.5 323 328.3 331.8 336.2 340.6 343 346.6 346.7 345.1 342.4 336.6 323.4 313.8 297.8 288.3 282.6 277.3 271.1 266.6 263.3 260.3 258.2 256.2 253.9 250.7 248.9 246.2 243.6 243 241.9 241.5 241.1 240.2 239.1 238.7 238.1 237 234.9 232 230.1 223.5 216.9 214.3 210.2 209.1 203.9 196.6 193.2 193.1 193.4 193.8 193.8 192.9 190.5 188.8 187.6 186.3 185 182.7 179.5
423.8 402.7 393.8 384.2 375.2 363.7 352.1 342.5 334.3 330.2 325.2 323.9 325.4 330.4 330.3 327.4 323 317.9 313.2 310.1 307.5 312.3 312.4 312.1 311.7 309.1 305.6 303.2 300.1 300.6 300 299.2 298.1 296.7 294.9 293.9 292 291.9 291.1 292.8 292.9 292.9 293.1 293.9 293.2 292.4 291.7 291.2 291.3 292.8 294 289.6 283.5 278.5 274.1 271.2 268.4 265.9 265.6 265.9 265.8 266.7 267.2 266.5 267 268.1 267.9 267.2 266.7 267.7 267.5 267.3 267.1 266.8 266.4 267.1 266.9 266.7 266.5 266.4 266.5 266.6 266.6 266 265.9 266.6 267.4 268 268.4 266.6 264.3 261.6 264 265.2 268.1 268.2 268.1 268.4 267 272 273.9 274.2 275.3 280.5 284.1 286.5 287.4 285.6 286.9 290.1 292.1 294.2 296.4 298.4 300.3 301.2 301.9 303.1 303.9 304.5 304.8 305.8 306.6 305.9 303.8 304 302.8 299.7 297.2 296.1 295.8 296 294.8 296.9 300.5 303.2 307.2 311 314.7 316.7 318.7 323 327.3 330.9 335.3 337.7 340.5 343.3 341.5 338.3 331.1 320.7 313.2 299.2 287.2 283.1 277.9 273.4 270.2 266.5 262.4 258.8 256.5 254.2 251.6 249.7 247.5 245.4 243.2 239.2 239.2 236.9 236.7 235.9 235 236.9 234.7 231.9 229.3 226.4 219.5 216.6 212.3 209.7 208.5 201.2 194 192.9 193.2 193.4 193.7 194.2 193.1 190.8 188.7 187.7 186.5 185 182.1 180.1
430.7 407.9 396.3 387.2 378 363.4 354.4 346.1 336.8 332.8 329.7 327 326.5 331.5 332.1 331.1 324.7 319.4 314.7 311.3 306.1 306.4 311.6 311.9 311 308.5 304.7 302.5 300.9 297.3 297.9 297.2 296.3 294.9 292.3 292.5 291.2 290.1 289.6 290.6 290.8 290.6 291.3 290.9 291.4 291.1 289.7 289.5 289.7 291 291.1 286.4 283.3 279.8 275.7 272.1 269.6 268.2 266.4 266.4 263.7 265.4 264.9 265.3 266.6 266.8 266.2 265.3 265.3 266.7 266.5 266.3 265.8 265 265.3 265.6 265.3 265.2 265.1 265 265.1 265.2 265.2 264.5 265.1 265.8 266.3 266.8 267.4 266.3 263 260.2 261.6 263.6 266.1 266.8 266.4 264.7 266.9 270.2 272.9 272 273.2 276.7 280.4 284.3 285.4 283.9 285.3 288.9 290.7 292.4 293.6 295.9 298.5 299.3 299.8 300.5 300.8 301.3 302.3 301 301.8 299.7 299.6 299.4 297.7 295.6 293.8 292.2 292.1 293.6 292.3 294.6 296.4 298.1 301.9 306 309.6 312.9 314.9 318.6 322.9 326.5 330.1 332.4 335.3 338.2 338.4 335.5 329.9 321.2 311.6 297.8 286.8 282.8 279.9 277 273.5 269.3 265.2 260.3 256.8 254.4 252.5 250.4 248.2 246.1 243.8 239 236.7 232.4 233.5 232.7 231.8 232.8 231.5 228 225.7 222.3 217.6 216 209.9 207.9 205.7 199.1 192.8 192.2 192.6 193 193.4 193.8 192.4 190.3 188.7 187.7 186.6 184.6 182 181
441.8 416.3 400.7 388 373.8 360.9 353 345 337.2 334.6 330.3 328.4 326.3 332.2 333.9 332.5 330.6 324.5 318.2 313 309.8 307.2 310.2 311.4 310.4 307.9 303.4 301.8 300.2 298.3 296 295.1 294.5 292.7 290.6 289.5 289.4 288.1 286.8 288.2 288.3 288.4 288.6 289 289.4 289 288.3 288.1 288 288.1 287.3 287.2 285.1 281.4 276.6 273.4 271.1 269.8 267.5 265.6 264.9 262.4 263.5 263.4 265.2 264.5 263.8 263.7 265 265.6 265.6 264.9 264.4 264 264.3 264.2 263.7 263.5 263.7 263.9 263.4 262.1 262.6 263.6 264.1 264.6 265.2 265.7 266.2 266.6 264.2 261.6 259.9 262.6 263.8 264.9 264.7 262.4 265.8 266.8 269.3 270 270.3 273.3 276.5 281.8 283.5 282.4 284.1 287.1 288.8 290.4 291.1 292.7 295.4 298.5 299.2 299.6 299.6 299.7 300.3 299.3 298 296.9 295.5 294.6 293.2 291.2 289.7 287.6 288.3 290.8 290.5 292.6 293.3 294.5 297.7 300.9 304.6 308.3 311.6 314.4 317.4 321.3 324.3 327.1 329.8 332.5 334.5 333.6 329.2 320.5 309.8 298.1 287.1 283.1 281.1 279.4 276.2 272.1 267.7 262.1 258.5 255 253.4 251.2 248.9 246.8 244 241 237.7 232.4 229 229.5 228.7 227.2 227.5 225.6 222.6 218.7 214.5 213.2 208.1 204.9 202.5 195.8 192.2 191 191.8 192.1 192.5 192.5 191 189.4 188.4 187.4 186 183.8 182.2 181.1
454.3 425.7 399.8 385.9 368.6 356.9 348.5 345 339.4 334.5 332 330 328.2 332.7 337.2 334.9 332.3 329.4 323.5 316.9 313.2 311.3 310.4 305.1 307.3 307.2 302.5 301 299.5 297.4 296.5 295.2 293.6 292.6 290.9 289.8 286.3 285.9 286.1 286.5 285.6 287.3 287.3 287.6 287.4 287.5 286.9 286.5 286.2 286.7 287.1 286.6 285.5 281.1 276.6 275.1 272.9 271.6 269.6 266.9 265.6 264.9 262.5 263.5 264.7 264.2 262.4 263.1 263.2 264 264.3 264 263.5 261.2 262.5 263.2 263.1 262.8 263 263.2 263 262.8 261.2 262.7 263.3 263.8 264.3 264.9 264.9 264.9 263 261.8 260.1 261.5 262.3 263.3 261.2 263.6 265.5 266.6 268.5 269.2 268.9 269 270.9 277.7 280.8 280.3 280.6 285.5 287 288.4 289.2 291.1 294.4 297.4 298.6 298.7 298.9 298.7 298.5 298.2 296.8 293.8 291.1 290.2 288.7 287.2 286.5 284.9 284.6 287.3 287.8 289.4 290.2 291 293.7 296.4 299.6 302.7 306.1 308.3 311.8 315.9 318.2 321.2 324.1 326.9 329.3 329.2 325.9 316.7 306.9 296.6 287.3 284.2 283.6 281.5 279 274.6 269.8 263.9 260.3 257.2 253.6 250.9 248.7 247.1 244.3 241.2 238.9 234.8 229.6 226 224.2 223.6 223.4 221.2 219 216.3 212.6 211.4 205.5 203.1 199.7 193.4 191 190.3 190.3 191.3 191.4 191.1 190.1 188.9 187.8 186.6 184.8 183 182.5 181.6
468.3 437.2 404.4 386 375.3 365.1 351.6 344.4 338.8 337 332.8 330.5 333.3 335.4 341.1 338.5 335 331.8 327.6 322.7 317.5 314.2 313.1 311.5 308.6 300.6 300.5 299.1 296.6 296.5 293.6 294.7 293.9 293.7 292 290.9 289.9 288.4 287.2 283.8 285.1 286 285.9 286 285.9 285.7 285.4 285 284.6 284.1 283.6 284.1 283.3 280.7 277.6 276 273.5 272.9 271.7 269 266.7 265.6 262.4 262.8 263.9 262.5 263.1 260.4 260.7 261.5 261.9 262.3 262.1 260.2 261.6 261.7 261.7 262.4 262.4 262.5 262.3 261.8 261.8 262 262.4 263 263.1 263.4 263.7 263.8 263.7 261.9 258.9 260.6 261.4 261.1 261.6 263.7 264.5 265.9 267.3 267.9 267.6 267.3 270.8 274.5 277.4 277.6 279.5 283.9 285.2 286.6 287.6 288.4 292 296.1 298 298.2 298.3 297.6 295.8 296.7 295.5 293.2 290.4 288.6 287.5 285.3 283.4 282.5 283.3 284.5 285.9 286.7 287.5 288.3 289.9 291.7 293.7 296.6 300.4 302.3 306 310.4 312.9 315.1 317.5 320.4 323.3 323.9 322 315.5 304.4 293.5 288.6 284.3 284 282.3 280.4 276.7 271.4 264.7 260.9 257.9 254.4 251 248.5 247.4 246 242 239.4 236.5 229.9 229.1 227.5 224.3 219.9 216.7 216.1 213.1 209.8 208.9 203.5 201.4 196.7 191.3 190 189 188.9 190 190.7 190.5 189.2 188.1 186.9 185.7 183.6 182.9 182.4 181.8
472.1 443.6 409.3 397.1 385.5 380.7 364.4 344.6 338.9 334 330.8 330.9 333.5 337.3 339.5 341.3 339.2 335.5 331.5 328.1 324 318.4 314.9 312.8 308.8 303.3 299.4 300.5 297.1 295.4 294.6 291.7 289.7 292.9 292.2 291.2 289.5 288.3 286.5 282.5 284.6 284.7 284.7 284.5 284.3 284.1 283.9 283.3 282.8 282.2 282.1 281.5 280.9 279.3 276.5 274.3 273.4 272.6 271.9 270.3 268.7 267.1 264.5 261.2 261.7 261.1 262.4 262.5 262.4 260.8 258.6 258.8 259.5 259.6 260.1 259.6 260.1 261.2 261.3 261.2 261.1 261.1 260 259.9 261.6 262 262.3 262.6 263 262.8 262.8 261.4 258.3 260.1 260.1 258.3 261 262.7 263.4 264 264.7 265.7 266.7 266.6 268.8 271.5 274.7 275.9 278.2 282.4 282.8 284.5 285.9 286.7 290.6 295.1 297.4 298.1 298 297.2 296.6 295.6 295 292.6 289.7 287.2 285.2 283.2 281.5 280.1 281.4 281.8 283.7 284.4 284.4 284.7 285.6 287.4 288 290.6 293.4 296.5 300.1 304.5 308 310.2 312.9 314.7 316.7 318.2 312.6 309.4 299.9 289.4 285.9 283.9 283.2 282.1 280.5 276.3 271.5 264.9 261.1 257.8 254.6 250.7 249.2 247.9 246.5 243.8 240.7 238.5 231.6 230.8 229.1 224.9 221.3 217.6 214 209.5 206.8 207.2 202.4 198.4 194.2 191.7 189.1 187.7 187.6 188.8 190.3 190 188.7 187.2 186 184.5 183.4 182.8 182.3 181.8
491.2 445.4 413.9 403.5 397.1 390.2 378.7 355.5 344 330.8 330.8 330.8 330.8 331.9 337.7 340.9 341.5 339.7 336.5 331.6 328.3 323.9 320.1 317 312.9 307.8 303.8 300.7 299.4 297.2 297.1 294.6 293.7 288.1 292.3 291.4 289.2 287.8 286 281.9 283.1 282.5 283.1 282.8 282.5 281.9 282.4 281.9 280.9 280.4 280.5 280.3 278.4 277.1 274.9 274.2 273.3 272.5 271.8 270.2 268.7 267.4 264.3 261.9 262.7 263.3 263.4 262.9 262.5 262.5 262 260.8 259.6 256.3 257.4 258.4 258.2 259.3 259.3 258.6 259.3 259.6 258.3 258.7 260.6 261.2 261.6 261.9 262 261.8 261.5 260.7 256.8 259.2 259.1 258.9 259.8 261.8 262.6 263.4 264 263.4 263.9 265.1 266.7 268.7 271.9 273 277.2 281.2 280.8 282.9 284.1 284.8 287 293.1 295.6 297.4 297.1 296.5 294.8 293.3 294.2 292.1 290.1 286.4 284.9 281.8 279 277.5 278.7 279.9 281.1 281.9 282.2 281.6 281.4 282.4 283.3 284.7 287.6 290.7 294.2 298.5 302.4 305.4 308.6 310.9 312.9 313 307.9 299.4 294.6 286.3 282.5 280.7 280.9 280 279.1 275.3 270.1 265.1 261.4 257.6 253.8 251.3 249.9 248.7 247.3 245.4 242.7 238.6 234.4 232.5 230.3 227.4 222.8 218.4 214.8 209.6 205.6 206.1 202.4 196.5 192.1 188.9 186.7 186.2 186.4 188.1 189.8 189.5 188.2 186.4 185.2 183.8 183.3 182.7 182.2 181.7
519.3 474.5 423.7 407.3 402.4 395.6 383.3 367.2 349.3 336.7 330.8 330.8 330.8 330.8 330.8 336.9 339.3 341 340 335.9 331.1 327.8 325.2 321.5 317.5 312.9 308.3 303.7 301.5 302 299.8 297.1 295.1 289.3 290.5 291.5 289.1 287.3 285.5 282.4 280.2 280.3 281 280.7 279.6 278.9 280.3 280.7 280.5 278.9 279.5 279.2 277.2 275 274.4 273.6 272.3 271.5 271.5 270.2 268.9 267.7 266.5 264.4 263.8 264.4 263.9 263.4 262.9 262.8 262.7 261.2 260.2 259.3 256.9 255.7 255.3 257.1 255.9 255.9 256.5 257.1 257.6 258.2 259.4 260.4 260.9 261.2 261 260.8 260.6 260.5 259.1 257 259 257.8 259.8 261.3 262.2 263 263.3 262.9 262.7 264 265.4 266.6 269.7 270.9 275.8 279.4 278.6 280.8 282 281.1 284.3 289.4 293.6 296.2 296.2 296 294.6 294 293.9 291.8 290.7 288.7 284.9 281.7 279.4 274.3 273.6 277.5 278.1 279.1 278.8 278.2 278.1 278 278.3 279.5 281.7 285.6 288.4 292.7 296.6 300.3 303.5 305.8 307.6 307.7 304.8 296.6 290.2 283.2 279.4 277.6 277.6 277.3 276.6 272.9 269.1 264.1 259.5 257 253.5 252 250.6 249.3 247.4 245.1 243.7 239.1 236.2 235.1 232.6 230.2 225.7 219.1 215.7 210 206 204.6 202.5 196 191.3 186.9 185.2 184.7 184.4 186.6 188.7 188.3 187.2 185.8 184.3 183.8 183.4 182.9 182.5 182.1
534.1 482.1 442 415.9 406.3 399.8 387.2 371.7 354.4 338.2 330.8 330.8 330.8 330.8 330.8 330.8 332.9 338.3 339.2 337.3 333.3 328.8 326.3 324.5 321.2 316.7 312.7 309.2 307.1 306.2 303 299.1 297.2 293.9 289.7 285.4 283.5 285 284.8 281.7 282.8 279.9 278.4 277.2 274.9 276.3 278.6 279.1 279.3 278.8 278.4 276.5 275.7 274.4 273.8 273.2 272.3 271.2 270.6 269.9 269.2 267.9 266.9 265.1 265.2 264.8 263.7 263.2 262.7 262.6 262 261.1 260.3 259.7 259.2 258.2 257.2 253.7 253.6 254.3 254.6 254.3 255.7 256.3 257.8 259 260.1 260.2 260 259.9 259.7 259.8 259.6 257.6 258.6 256.2 259.3 260.6 261.9 262.3 262.7 262.5 262.6 263.3 264.5 265.2 266.1 269.8 272 275.1 275.2 278.3 280.3 278.5 280.4 286.1 290.7 293.7 295.4 295.2 294.4 293.2 293.6 292.2 291 289.7 286.4 281.4 278 274.5 271.7 274.7 275.3 275.6 275 273.4 273.9 273.7 273.8 274 275.8 279 282.8 287 289.9 293.7 298.3 300.9 302.5 302.9 300.4 295 288 279.2 276 274.3 274.5 273.8 272.4 269.2 266.2 261.6 258.2 256.4 254.2 252.7 251.2 250.1 248.2 246.5 244.6 239.5 238.1 237.5 234.6 233 227.9 221.3 216.4 209.8 206.8 204.3 200.4 194.9 187.7 184.5 183.7 183.1 182.4 184.6 186.9 187.2 186.1 184.5 183.5 183.6 183.5 183.3 183.1 182.7
539 487.9 449.9 418.3 401.9 391.9 389.3 371.7 353.5 344.3 330.8 330.8 330.8 330.8 330.8 330.8 332.1 337.9 337.9 338 334.8 330.8 327.4 325.9 323.7 320 315.7 312.5 311.1 308.3 304.3 302.1 299.5 296.7 294.5 292.2 288.9 287.3 286.1 284.8 282.1 279.9 276.5 274.7 276.1 273.2 276.4 277.7 277.3 277.8 277.3 276.2 273.3 273.6 273.1 272.5 272 271.5 270.2 269.5 268.8 267.9 266.7 265.4 265.5 265.5 264.3 263 262.3 261.9 261.2 260.4 260.5 260 259.5 259.1 258.3 257 256.1 251.8 251.1 251.9 252.3 256.4 257.5 258.3 259.2 259.3 259.2 259.1 259 259.2 259.3 257.7 255.6 257.8 258.7 260 260.9 261.1 261.5 262.3 262.4 262.6 263.4 264.3 263.8 268.5 270.6 271.8 273.9 275.2 278.6 277.9 277.2 282.3 286.6 290.7 293.4 294.1 293.6 293 293.3 292.5 291.4 290.1 285.6 281.8 278 274.6 269.6 271.2 271.3 271 271 270.1 269.5 269.5 269.5 269.7 270.4 273.7 277.5 281.4 284.1 287.8 292.1 295.4 296.9 297 295.4 292.2 285.3 275.2 271.4 270.8 270 269.4 267.5 264.8 263 259.4 257 255.3 254.3 253.2 251.7 250.4 249.3 247.5 245.5 242 240.9 239.9 236.7 235 228.5 223.9 216.8 211.2 208.2 204.8 199.7 193.8 185 181.6 180.3 179.9 180 182 184.6 185.4 184.6 182.9 182.6 182.7 182.8 182.9 182.7 182.5
543.6 500.7 470.5 430.1 407 391.4 377.6 364.5 353.5 342.9 330.8 330.8 330.8 330.8 330.8 330.8 333 337.4 337.8 337.8 334.8 331.6 327.6 326.2 324.3 321.5 318.5 313.7 313.2 310 307.7 304.2 301.2 298.6 296.8 295.4 290.9 288.3 287.1 285.9 284.1 282.7 281.1 279.2 276.9 276 272.5 274.7 274.6 275.9 275.8 275.2 273.2 272.5 272 271.7 271.5 271.5 270.2 268.8 268.3 267.8 266.4 266.2 266.1 266 265 263.6 262.1 261 260.3 259.5 259.8 259.8 259.4 259.1 258.7 257.9 256.7 254.7 252.9 250 252.2 253.5 256.1 257.3 258.3 258.1 258.3 258.2 258.4 258.5 258.7 258 256.9 257.8 258.5 259.3 259.8 259.6 259.9 261.8 262.1 262.8 263.5 264 263.1 266.3 268.3 270.3 273.2 274.5 275.4 275.9 274.9 280.2 283.6 287.5 290.5 291.4 292.4 292.3 291.9 292.8 291.9 290.2 287 282.9 278 274.2 270.6 267.1 267.2 268.3 267.4 266.2 264.9 265.4 265.4 265.5 266.1 268.5 272.2 275.1 278 281.6 286.1 289.5 290.7 290.8 289.9 287 281.9 272.7 267.4 264.9 265.4 264.9 262.8 260.5 258.5 256.8 255.3 253.8 252.5 251.7 250.8 250.3 249.2 247.8 246.1 244.4 243.4 241.9 238.2 235.1 230.4 225.7 218.6 212.2 208.4 204.5 199.8 194.4 186.4 181.1 178.3 177.8 176.4 178.8 181.9 183.4 183 181.6 181.7 181.8 181.9 182 182 182.4
547.2 517.6 475.3 440 412.8 398.3 386.1 368.7 347.5 342 330.8 330.8 330.8 330.8 330.8 330.8 330.9 337.2 338.6 337.6 333.1 328.8 327.5 325.9 324.1 322.4 320.7 315.4 314.3 314.4 312.9 310.5 304.8 301.9 300.2 299.4 296.3 290.5 288 286.2 284.4 283.8 281.7 280.4 278.5 276.7 274.4 272 274.4 274.5 274.6 273.6 272.9 270.6 269.4 269.4 270 269.8 269.3 268.7 268.2 267.7 266.7 266.8 266.4 265.8 264.9 263.2 261.8 260.8 259.7 258.7 258.8 259 259.1 258.7 258.3 258 256.9 255.6 253.8 250.7 249.8 250.9 254 255.4 255.4 256.5 257.1 257.6 257.8 258 257.6 255.3 257.5 257.9 257.6 257.4 258.5 258.8 260 261.1 262.1 263 263.8 264 262.3 262.8 265 269.5 271.4 272.3 271.9 273.1 272.9 274.6 281.2 284.5 287.1 288.7 289.6 290.8 290.4 290.6 291.4 290.3 287.3 282.6 276.5 273.4 270.4 267.4 263.2 265.1 264.2 262.8 260.9 261.5 261 261.6 261.8 263.5 266 268.9 271.9 275.6 278.6 281.1 283.7 283.9 282.4 280 276.8 270.9 265.3 261.5 261.1 260 259 256.1 255.5 254 252.5 251.2 249.5 248.7 248.8 248.9 247.7 246.3 245.7 245.8 245 242.8 240.3 235.6 231.4 227.2 221 214.8 212 206.9 199.5 194.1 186 180.7 177.2 174.8 173.9 176 179.2 181.5 181.4 180.7 180.8 180.9 181.2 181.4 181.8 182.5
555.2 526.9 482.3 452.9 422.6 403.9 393.4 376.1 357.6 337.8 330.8 330.8 330.8 330.8 330.8 330.8 330.8 337.5 338.8 337.6 333.1 328.9 327.9 327.3 325.9 324.4 322.4 320.1 317.9 316.9 316.9 313.9 310.1 306.3 305.4 304.3 301.2 293.7 289.8 287.7 285.5 284.6 283.3 281.5 279.4 277.4 275.8 275 270.4 272.7 272.1 271.3 270.1 267.3 266 265.8 269 269.2 268.9 268.5 268.1 267.6 267 265.5 265.9 265.1 264.4 262.7 261.6 260.5 259.5 258.4 257.9 258.1 258.3 258.4 258 257.8 257.1 256.1 254.6 251.6 249.5 251.3 251.5 253.4 254 253.7 255.4 255 255.7 255.6 256.1 255.4 256.9 256.2 257.5 259.1 260.3 260 261 262.2 262.6 262.6 263.4 263.7 262.6 261.1 261.2 265.8 267.9 269.5 269.9 269.7 268.7 271.2 276.8 280.9 284.4 286.5 287.6 287.7 288.6 288.3 290.9 289.5 286.6 281.7 275.8 271.8 269.1 266.8 264.3 259.9 260.3 260 257.5 258.7 257.7 257.2 257.6 259.1 261.1 263.5 265.7 268.4 271 273.4 276.8 276.5 275.2 273.9 271.4 267.4 262.2 259 256.7 255.7 254.7 253.5 252.9 251.4 249.7 248.7 247.1 246.3 247.1 247.6 246.7 246.2 245.7 245.9 245.5 243.9 240.1 236.4 232.8 228.9 223.3 219.3 216.7 211.3 201.7 194.6 186.6 180.9 176.9 173.6 171.8 173.7 176.9 178.3 179.3 180.1 180.3 180.6 180.9 181.2 181.7 182
556 526.8 489.1 461.3 428.6 406.8 397.1 382.3 362.5 342.1 330.8 330.8 330.8 330.8 330.8 330.8 330.8 332.2 338 337.1 332.9 329.4 328.6 328 327.3 326.1 323.2 323.9 321.4 319 319.3 317.2 314.2 311.1 310.9 308.7 304.4 297 292.4 289.8 288 285.7 283.8 281 278.9 277.2 276.6 276 275.3 273.2 272.1 271.1 271.9 270.7 269.5 263.4 266.5 268.7 268.3 267.9 267.5 267.1 266.4 265.6 265 264.5 263.8 262.4 261.4 260.4 259.4 258 257 257 257.2 257.4 257.1 257 257.1 256.2 254.9 252.9 249.6 248.5 251.1 252.1 251.3 251.9 252.9 251.3 252.3 255.3 256.7 256.3 258.2 256.8 258.1 259.9 261.3 262.2 262.1 263.3 263.2 263 263 263.2 261.5 260.9 259.2 261.6 263.8 264.6 265.1 265 265.4 266.7 271.4 276.3 280.5 282.9 283.8 284.3 284.7 285.2 288.5 288.1 284.7 278.9 273.8 269.4 267.5 265.3 262.9 260.7 259.8 256 254.2 254.2 254.3 252.8 253.4 253.9 256.7 258 259.5 261 263.4 265.6 269.2 269.1 268.2 267 266 262.1 259.3 256.6 254.2 252 252.1 251.2 250.3 248.9 246.9 246.2 245.1 244.3 244.3 245.3 245.8 246 245.6 245.5 246.6 243.9 241.1 238.1 234.7 230.2 225.1 221.3 219.2 213.8 205.8 198.4 187.3 181.4 176.8 173.9 171.3 172.2 174.5 176 177.4 178.7 180 180.3 180.6 180.9 180.9 181.6
556.3 523.7 490.9 467.8 432.7 413.2 401.6 386.1 366.2 344.3 334.3 330.8 330.8 330.8 330.8 330.8 330.8 330.8 336.4 337.2 334.3 330.8 329.3 328.6 328 326.3 326.2 326.2 325.3 322.3 321.5 319.9 317.2 315.2 313.9 311.1 307.3 301.3 296.4 293.7 290.9 285.7 283.4 280.6 278.8 278 277.3 276.7 276.1 275.1 274.5 273.9 273.1 271.7 270.1 265.8 265.7 268.3 267.6 267.2 266.8 265.7 265.2 264.2 263.4 263.2 263.1 262.3 261.3 260.3 259.3 257.7 256.4 255.8 256.6 256.4 256.4 256.1 256.3 256.3 254.9 253.2 251.8 249.1 251.1 250.5 249.2 250 251.3 253.9 254.9 256.9 258 258.3 259.5 259.2 259.8 260.4 261.7 262.7 263.4 264 263.8 263.6 263.4 263 262.5 262.7 259.7 259.9 261.8 262 261.1 260.2 258.8 261 265.9 270 274.8 278.5 280.2 280 279.7 279.4 282.6 284 280.8 276 271.3 267.6 266 263.8 261.5 259.9 259.2 257.8 255.1 247.6 249.7 248.8 249.7 250.1 251 253.1 253.3 254.4 256.4 258.3 260.7 261.9 261.2 260.7 259.8 257.1 254.6 253 249.7 248.1 248.9 249.1 248.1 246.2 244.1 244 242.9 242.1 241.9 242.7 242.7 243.6 244.2 245.3 247.1 245.4 242.6 239.6 236.9 234.5 227.5 223.1 220.4 215.9 209.2 199.4 189.7 184.1 177.2 173.8 171.3 171.9 173.6 174.8 175.7 177 178.2 179.5 180.1 180.1 180.2 181.2
548.4 520.1 495.4 467.9 437.4 416.6 404.5 386.3 368.1 347.3 340.8 337.3 330.8 330.8 330.8 330.8 332.3 330.8 335.8 337 333 329.8 329.2 328.9 327.9 327.4 328.4 328.4 328.1 325.2 323.2 321.2 319.6 317.5 314.8 312.9 309.7 304.9 300 296.8 293.4 288.3 283.8 281.1 278.9 277.8 276.3 276.4 276.3 275.8 275.1 274.3 273.2 272 270.2 262.7 264.7 266.6 266.9 266.2 265.1 264.4 263.9 262.9 262.7 261.9 261.7 260.9 260.3 259.6 258.9 257.9 256.4 255.5 255.9 255.9 254.7 254.5 254.8 255.3 255.1 253.5 252 249.8 248.4 248.6 251.2 251.8 253.6 254.8 256.7 258.2 259.4 260.7 260.8 260.8 261.5 261.7 262.1 263.2 264.5 264.7 264.5 264.2 263.4 263 262.9 262.7 260.7 258 260 256.4 258 257.9 256.6 257.6 260.2 262.8 267.3 272.8 274.6 274.9 275.2 273.6 276.2 278.6 276.9 272.7 268.1 265.2 264.4 262.3 259.6 259 258.2 257 253.7 250 246.7 241.8 246.1 246 247.5 247.8 248 248.1 249.1 250.9 252.5 253.1 254.2 253.9 253.3 251.4 250.1 249.1 246.3 242.7 244.5 245.7 244.7 242.7 241 239.3 240 239.3 239.6 240.2 240.1 240.2 241.4 244.6 247.5 245.9 243.4 241.2 238.9 235.6 230.4 224.5 221.1 217.5 210 201.2 192.2 185 177.8 173.9 171.1 171 173 174.2 174.9 175.6 176.9 177.6 177.2 178.5 179.7 180.6
538.3 506.8 490.2 464.4 438.5 421.3 408 388.7 370.2 356.9 348.3 344.1 340.9 332.1 333 337.5 337.5 335.4 335.7 336.7 332.3 328.7 328.1 327.6 327.3 327.4 327.6 328.3 328 325.9 324.6 323.1 321.9 320 318 315.1 312.9 309.4 304.9 301 296.3 291.1 286 281.7 278.7 277.3 276.2 274.8 275.9 275.6 275 274.3 273.3 272 269.8 265.3 262.6 264.8 264.9 264.5 263.6 263.1 262.6 261.5 261.9 261.7 260 258.8 258.6 258.2 257.8 257.7 256.6 255.8 255.3 253.2 252.8 253 253.7 253.6 253.6 253.5 252.5 251.4 248.3 250.6 251.2 252 254.7 256.2 257.9 259.4 261.8 264 264.6 264.6 264.5 264.4 265.9 266.4 267.2 266.4 265.1 264.4 263.5 263 263.7 262.9 262 261.2 260 258.9 255.1 254.8 253.1 256 257.8 258.6 259.8 263.9 267.5 269.7 270.2 270.4 270.4 272.5 272.6 269.1 265 262.7 261.9 260.6 258.2 257.8 256.2 254.6 252 248.3 244.5 236.8 242.4 242.1 243.1 243.3 242.8 242.1 242.6 243.4 243.9 245.1 246.3 246.4 246.1 244.4 244.1 244.3 240.8 237.2 239.9 241.3 241 239.2 237.6 236.1 235.4 235.2 236.6 237.6 237.6 237.5 238.9 243 246.8 245.3 243.5 241.8 239.5 235.9 228.5 224.8 223.7 219.3 211.7 200.9 191.1 185.4 178.9 174.9 171.4 169.5 172.5 173.6 174.3 174.8 175.5 175.5 176.5 177.6 178.9 180.7
529.9 504.6 484.1 457.6 441 424.3 408.3 392.6 376.9 364.1 359.5 353.5 349.9 339.9 344.4 346.1 341.7 339.3 335.7 335 329.9 326.9 327.3 327.1 327.9 327.6 327.6 327.6 328.8 327.7 326.4 326.5 326 323 322.4 320 318.9 315.6 311.2 307.1 301.9 296.8 290.9 285 279.6 276.9 276.3 275.6 274.7 275.4 274.5 273.9 272.9 270.9 269 266.3 263.7 259.8 262.6 262.6 262.3 261.9 261.3 259.9 261.1 260.8 259.8 258.6 258.3 257.1 256.9 256.4 255.8 254.2 253.8 254.3 253.5 251.9 252.4 252 252.3 252.9 252.9 252.1 251.2 249.1 250.9 251.2 253.9 257.4 259.5 261.5 264.3 267.6 268.5 271.8 272.5 272.4 273.6 274 272.4 271.7 269.3 266.1 265.2 264.5 264.1 263.5 263.1 262.7 261.4 260.2 258.7 256.8 255.7 253.8 256.3 256.9 256.9 258.4 260.4 262 265.4 265.2 265.6 267.1 267.9 265.2 262.6 258.5 258.9 257.7 255.7 255.7 254.1 251.9 248.9 245.1 241.2 231.8 237.4 237.9 238.6 237.9 237.3 236.6 236.2 236.7 237.1 238.1 239.6 240.8 240.1 238.8 238 239.2 237.2 234.2 234.8 236 236.8 236.2 234.9 233.1 232.4 231.6 233.8 235.1 235.6 235.2 234.5 239.6 244.3 242.6 241.8 240.6 236.6 233.2 227.1 225.1 225.8 219.5 211 200.2 191.7 185.6 180.7 176.1 172 170.2 171.5 173 173.2 173.4 173.6 174.8 175.9 177 178 181.3
518.5 495.9 474.4 453.9 440.9 423.9 412.7 398.7 384.4 373.3 369.4 361.6 358.5 347.4 349 350.5 346.1 342.7 337.7 335.2 332.7 329 328.3 329.8 330.3 330.9 328.9 327.6 327.6 328.9 328.9 330.4 329.8 325.2 324.6 322.7 320.1 318.4 315.8 312.7 307.6 302.7 297.4 289.2 283 279.4 275.6 275.7 275.4 273.6 274 271.6 272.5 271.4 269.8 267.9 266.5 264.7 258.6 257 260.3 259.2 258.2 258.5 259.2 258.9 258.6 258.7 258 256.3 255.1 255 254.6 254.4 255.5 254.8 254.6 253.1 251.7 250 251.8 252.5 252.5 252.4 251.8 249.7 247.5 249.2 255.4 258 260.8 263.9 267.2 270.9 271.8 276.7 279 279.9 282.7 282.3 279.4 280.3 278.3 275.3 271 268.3 266.5 264.7 264 263.6 262.5 261.3 259.9 258.5 257.2 255.2 252.6 253.9 254.7 254.3 255.2 255.3 257.3 259.3 258.9 261.5 263 261.8 259.2 255.5 255 254.2 253.7 253.5 251.4 249.1 245.6 241.8 238.3 235.3 228.3 234.5 234 233.3 232.6 232 231.2 231.8 231.6 232.2 233.7 234.7 234.9 234.9 234.3 234 234 230.6 229.6 231.1 231.9 232.4 231.5 229.6 227.7 228.8 230.1 230.8 232.2 232.5 231.5 235.7 239.9 239.5 238.7 237.9 232.3 229 223.6 224.5 222.9 217.5 209.6 199.8 191.6 185.2 181 177.3 172 169.8 170.7 171.6 171.9 172.8 173.1 173.3 174.5 175.6 176.8 180.2
505.7 488.4 471.8 455.9 443.2 428.5 417.9 405.7 391.3 381.5 377 370.9 364.2 352.5 353.9 353.9 348.6 345.7 340.9 335.7 336.7 335.7 330.7 329.7 329.5 330.3 329.6 328.4 327.1 328.6 330.2 331.8 330.1 325.2 324.7 324.2 321.4 320.2 318.5 316.7 312.8 307.8 301.4 293.8 286.8 281.9 277.5 276.8 276 275 273.1 274 273.4 272.3 270.7 269 267.4 265.9 263.7 260.8 258.2 255.1 255.2 254.6 256 254.5 255 255.8 257.4 257 256.7 256.3 255.6 255.8 255.8 255.6 255.3 254.8 252.5 250.2 250.1 252 252.1 252 252 251.7 251.1 248.8 255.5 259.3 261.6 265.5 269.7 273.1 275.2 279.6 283.9 286.7 288.6 287.1 284.8 284.1 284 282.6 276.7 274.4 269.5 268.3 266.9 265.7 263.8 262.5 261.1 259.7 258.1 255.7 254.5 250.6 250.6 251.6 251.6 251.4 252.7 253.1 253.3 254.1 257.6 257.7 255.3 251.9 251.4 250.9 251.4 251 247.8 246.3 242.6 239.3 235.7 232.2 224.2 230.5 229.9 229.2 228.6 228 227.5 226.2 225.8 226.6 227.9 228.3 228.6 228.8 229 229.2 228.8 226.4 225.6 226.5 226.7 227 227.4 225.3 224.2 225 226.4 228.2 227.2 227.8 227.7 229.8 233.8 234.7 235.2 233.9 227.6 224.1 219.9 220.2 219 214 206.1 198.5 191.3 184.5 179.7 176 171.8 169.6 168.9 171 171.9 172.2 172.6 172.6 173 174.1 175.3 178.6
496 482.4 470.1 457.2 445.6 432 420.8 410.6 398.1 387.5 378.2 374.6 369.7 362.3 358 354.1 354.5 350 343.7 337.1 336.9 335 332.5 329.5 327.6 328.3 328.7 327.4 325.6 327.2 327.5 328.9 327.9 324.6 323.1 321.8 321.5 320.8 319.3 317.8 316.6 310.8 304.7 297.7 290.4 284.5 278.6 277.5 276.6 275.5 274.6 274.4 273.6 272.7 271.5 269.8 268 266.2 263.8 259.5 261.4 259.7 257.1 256.9 259 255.5 253.9 254.6 256.7 256.6 256.4 256.1 255.9 256 255.9 255.9 255.6 255.3 253.8 251.8 250.3 249.5 251.5 251.4 251.6 251.4 251.1 248.2 255.6 259.9 262.4 267.1 271.6 275 278.4 284.5 288.4 291.1 292.5 291.8 289.4 287.2 286.3 285.7 280.4 277.4 273.3 272.6 272.4 270.8 267.5 265.3 263.9 261.2 259.2 257.2 256.1 253.7 253.6 251.8 249.4 248.7 249 250.1 250.3 248.7 250.8 252.6 251 249.3 248.6 248.3 248.9 248.7 245.8 243.2 239.8 236.2 232.7 229.2 222.3 225.5 225.8 225.2 224.6 224.1 223.6 222.6 221.1 220.5 221 221.6 222.2 222.4 222.5 222.7 222.6 221.5 218.8 220.9 221.1 222.1 222.9 221.6 220.3 221.2 222.2 223.7 222.9 223.3 222.9 223.6 227.2 228.7 229.3 228.7 223 217.8 214.9 214.7 213.3 209.8 202.8 194.6 187.7 182.5 178 174.5 171.9 170.1 168.3 171 171.3 171.7 172.1 172.1 172.2 172.6 173.8 176.9
490.3 476.7 464.9 455 443 432.2 421.4 412.3 403.2 393.3 384.5 381.4 376.3 369 360.9 358.4 358.1 354.7 348.9 340.1 336.8 333.7 331.1 328.5 326.1 326.1 325.6 325.2 323.1 323.4 323.8 324.2 323 320.9 319.9 319 318.9 319 318.4 317.1 315.4 312.3 305.8 298.6 292.2 286.1 279.4 278.1 277.2 276.3 275.3 274.6 273.2 271.9 271.2 269.8 268 265.9 261.1 262.4 262.7 262.2 259.1 260.7 260.5 258.2 256.9 252.9 256.5 256.2 256 255.9 256 256.1 256 255.9 255.9 255.2 253.2 251.6 250.7 247.7 250.2 250.9 251.2 251 250.7 249.7 254.6 259.2 263.6 267.5 272.6 276.9 281.6 287.5 291.7 294.4 295 294.7 292.6 290.5 288.3 285.6 281.7 280.4 277.6 277.5 276.5 275.4 271.9 268.6 266.8 265 261.1 260.5 258.5 257.2 256.3 254.4 253 249.4 247.3 246.4 246 246.7 246.9 247.2 247.1 245.8 245.3 246.1 246.5 244.7 243.2 240.1 237.9 234.7 231.1 226.4 222.1 220.9 221.3 221.1 220.7 220 219.3 218.2 216.5 215.8 215.7 216.7 215.7 215.8 216 216.2 216 215.5 213.2 213.9 215.2 215.7 217 217.9 217 216.9 217.3 217.7 218.6 218.3 217.9 218.1 220 221.6 222.3 221.2 217.9 212.9 208.6 207.9 205.8 203.2 197.5 190.9 184.7 180.4 176.7 173.5 171.2 170 169.2 169 170.8 171.2 171.5 171.6 171.6 171.7 172.2 175.2
487 471.2 459.2 449.6 441.4 431.8 423.1 415 408.2 400.4 391.7 384.6 379.2 372.3 366.7 362.9 360.4 357.2 351.8 342.9 337.9 333.6 330.7 327.8 325.3 324 322.2 322 320.3 319.3 319.3 319.3 318.8 317.3 316.2 315.1 314.7 315.4 315.4 316.1 312.3 310.2 304.5 299 293.8 286.5 280.7 278.5 277.1 276.2 275.3 274.9 273.8 272.4 270.8 269.8 268 263.6 262.9 264.2 264.1 263.6 261.2 262.7 262.2 260.5 258.5 255.9 252.6 255.5 254.8 253.4 255.3 255.7 255.5 255.1 255.5 254.9 253.5 252 250.5 248.5 249.2 250.3 250.6 250.6 250.1 248.8 254.7 259.5 263.9 268.3 273 277.8 282.3 287.8 294 296.9 297.4 296.7 295.1 292.9 290.6 288.1 285.4 282 280.8 281.3 280.4 278.8 276.1 272.1 270.3 268.4 265.6 265.1 263.6 261.3 259.6 256.8 255.2 252.8 250.4 248.3 247.2 243.8 244.7 244.5 243.1 242.7 242.2 242.7 242 242.1 240.6 238.3 235.8 233.1 229.3 225.4 222 216.8 215.8 216.9 215.7 214.6 213.9 213 212.3 212.1 211.8 210.7 209.7 208.3 209.1 209.6 209.7 209.7 207.7 208 209 209.7 210.6 211.5 210.8 210.9 211.2 211.8 212.7 211.9 211.7 212.2 212.5 213.6 214.4 215 213 208.3 203 199.9 199 196.5 192.4 187.6 182.8 179.3 175.4 173.2 171 169.5 167.5 168.5 170.1 170.4 170.6 170.7 170.7 170.9 171.2 173.5
483.3 466.3 454.3 446.7 438.6 429.7 423.7 415.5 409.3 403.9 397.7 389.2 382.2 375.5 373 369.8 364.6 358.6 354.3 347.1 338.2 333.9 330.7 327.7 325.4 322.2 319.4 318.6 317.2 315.4 314.5 314.8 315.1 313.5 311.8 310.2 309.9 310.6 311.7 313 311 307.2 302.3 298.6 293 286.4 281.8 279.3 277.3 276 275 274.5 274.1 272.9 271 269.4 266 262.6 265.6 266.1 265.6 265 262.9 263.5 263.1 261 259.5 256.1 257 254.5 251 250.9 250.6 253.8 254.3 254.1 254.4 253.5 253 251.9 250.5 249.2 248.3 249.3 249.9 250.3 249.8 249.3 254.8 259 263.6 268.1 272.7 277.7 283 288.3 293.3 297.6 299 298.4 296.9 295.1 292 289.9 288 285.7 285 284.1 283.2 282.3 279.6 276 273.8 271.4 270.9 269.5 267.7 265.5 263.4 260.9 258 255.3 252.5 251.4 249.3 245.8 245.7 244 240 239.1 239.4 239.7 239.9 238.6 238.1 236.2 234 229.8 227.2 223.3 220.2 216.3 211.8 211.9 212 210.7 209.5 209.3 208.3 207.9 207 205 203 202.9 202.9 203.4 203.5 204 202.7 202.8 203.6 204.1 204.6 205.1 205.1 205.2 205.5 206 206.2 206.2 205.8 206.6 207.1 207.3 206 205.6 205.6 202.6 198 194.4 192.4 190.9 187.3 184.9 180.6 177.8 175.6 173.2 170.7 168.8 167.4 166.9 168.3 169.4 169.6 169.6 169.9 170.2 170.5 171.6
479.3 463.2 450.1 442.9 436.1 428.9 422.9 416.4 410.1 405.2 399.8 393.1 386.4 380.7 377.6 372.5 366.9 361.5 357.8 348.1 338.3 333.5 330.7 328.2 326 323.1 317.8 316.5 314.9 312.9 309.8 310.1 310.1 308.9 307.2 305.6 305.2 305.2 306.1 307.3 307.2 304 299.9 296.7 293 287.3 283.1 280 278 276 274.7 274.8 273.8 272.8 270.6 265.9 267.2 268.7 268.3 267.4 266.6 266.1 265.3 264.1 263.1 260.4 258.7 257.5 258.1 257.6 256.7 254.4 252.6 250.3 253.4 253.7 252 252.2 251.8 251.1 250.5 249.4 247.7 248.6 248.4 249.9 248.8 250.1 254.4 258.5 263 267.8 272.1 276.7 281.1 286.6 292 296.3 299 299.4 299.1 297.7 295.4 292.3 290.5 288.5 287.6 286.9 286 285.2 282.9 279.6 276.8 274.4 273.8 273.3 271.5 269.5 266.7 264.2 261.4 258.2 256.1 253 249.9 248 246.5 244.3 243.9 240.4 237.5 234.9 234.9 234 233.5 232.5 230.9 228.5 223.6 221 217.7 214.9 211.8 208.2 207.7 206.7 206.2 206.3 204.7 203.3 202.3 200.5 198.6 197.8 196.8 197.3 197.6 197.8 197.8 198 199 200 200.7 200.8 200.8 201.5 201.2 200.5 200.4 199.9 199.8 200.7 201.6 200.9 199.8 197.9 197.8 195.8 192.4 189.3 187.2 185.1 183.4 181.6 178 175.9 173.8 172.4 170.2 169.4 168.3 166.3 167.1 168.2 168.7 169 169.3 169.6 169.9 170.1
477.3 459.6 447.9 441 434.2 428.5 421.5 414.7 411.5 405.7 399.7 394.9 389.4 385.2 380.7 375.7 371.2 364.2 357.2 348 338.5 334.3 333.6 328.9 324.8 321.8 315.9 314.2 312.6 310.7 306.8 305 305 304.3 302.6 301.9 301.2 300.8 300.8 301.2 301.6 299.8 297.2 294 290.8 288.5 285.3 281.8 279 277 275.3 274.5 273.2 271.2 267.7 270.8 270.7 270.4 270 268.9 267.7 267.1 266.4 265.4 263.3 262 260 259.3 259.8 259.1 257.3 256.9 255.1 252.4 250.3 252 251.1 248.1 249.7 250.6 250 249.3 248.8 247.3 248.8 249.3 246.9 250.3 254 257.9 262.6 267.5 271.8 275.7 280.2 284.2 289.4 294 296.7 298.6 298.7 298.5 297.5 294.5 292.6 290 289.5 289.3 288.8 287.5 285.9 282.8 280.1 277.4 276.1 275.1 273.9 271.9 268.2 265.8 262.6 260.5 258 254.3 252.6 250.6 246 246.8 245.7 242.9 239.2 235.8 231.9 230.4 228.4 228.3 226.5 224.1 221.4 217.3 214.3 212.3 210.1 207.3 204.6 203 204.2 203.1 201.6 199.3 198.1 197.6 195.9 193.2 191.9 192.3 192.8 193.2 193.7 194.5 194.9 196.4 196.8 196.8 196.8 196.8 197.6 196.7 194.8 194.1 194.1 195.3 194.8 194.3 194.5 192.1 191.3 188.2 186.3 184.2 182.1 179.9 179.6 178.3 176.2 174.1 172.9 171.4 170.1 169.7 168.2 165.1 168.8 168.2 168 168.3 168.6 168.7 168.7 169.1
474.8 458.9 447.3 438.9 432 426.4 418.4 413.6 410.3 405.5 400.8 395.9 392.8 388.3 384 379 372.6 365.5 354.8 347.4 339.1 335.6 332.8 328.3 323.2 319.9 315.8 313.7 310.5 307.3 303.8 301.4 301.7 301.3 300.4 300.1 299.4 299 299.1 298.2 297.3 295.8 294.2 290.9 289.5 288.5 286.5 284.1 280 278.1 276.3 274.6 273 272 269.3 272.6 272.3 272 271.6 270.8 269.2 268.1 267 265.8 264.7 263.3 262.1 261.3 261.1 260.3 259.4 258.5 257.3 255.1 250.4 249.1 251.9 251.9 247.3 248.2 249.6 249 249 248.7 247.9 248.5 245.7 250 253.6 257.4 262.2 267.2 271.5 275.3 279.5 283.1 286 290.7 294 296.1 298.1 298.4 297.9 295.5 293.6 292.5 291.8 291.5 291.2 289.5 287.9 285.4 282.3 279.2 277.4 276.5 275.1 273.3 270.1 266.3 264.5 262.5 257.4 255.8 253.6 251.2 250.4 249.2 247.7 244.6 240.9 238.8 236.4 233.6 230.3 226.6 221.4 218.6 215.6 213.8 210.6 209.2 206.5 204.8 203.2 200.7 200.7 199.7 198.4 196.3 195.2 195.6 193.6 192 189.4 189.2 189.6 190.3 190.5 191 191.3 192.2 193 192.8 192.7 192.5 193.5 192.9 189.9 189.1 188.5 190.1 188.9 188.8 189 187.9 184.9 182.5 180.5 178.8 176.8 176.2 175.7 175.4 174.4 173.3 172.2 170.5 170 169.6 168.4 165.2 167.9 167.8 167.2 167.4 167.4 167.4 167.4 168.1
470.1 457.3 446.9 437.8 430.1 423.6 415.6 411.7 409.1 405.3 401.8 397.6 393.8 390.5 386.2 380.6 372.8 364.8 353.3 344.6 338.4 335.6 332.5 327.1 324 319.4 315.2 311.7 308.1 304.4 300.5 297.2 296.8 297.7 298.1 298.3 297.5 296.7 295.7 294.7 293.8 292.4 290.7 289.6 288.6 287.6 286.7 284.8 281.6 279 277 275.1 272.9 269.4 272 272.5 273.1 273.6 273.2 272.7 271 269.5 268.1 267.1 267.1 266.3 264.3 263.9 263.1 261.7 260.6 259.7 258.1 255.4 255.4 255.1 253.7 252.8 250.1 247 246.9 248.7 248.7 248.3 246.7 247.9 248.3 249.7 252.8 255.8 261.2 266.2 270.7 274.8 278.7 281.9 284.6 287.4 290.4 292.9 295.5 296.6 297.4 296.4 295.4 294.3 293.3 293.4 292.9 291.3 289.7 287.1 283.9 280.9 278.1 277.8 276.5 275.1 270.7 267.3 265.4 263.2 258.5 256.8 253.5 253.5 253.4 251.6 249 245.4 242.6 241 238.3 235.4 232.5 230.2 228 224.2 220.1 216.8 214.7 211.6 205.6 204.1 200.8 198.9 197.9 197.8 195.8 193.6 192.5 192.2 192.3 191.1 187.9 187.1 187.6 187.7 187.9 188 188.4 188.6 189.3 189.2 189 188.4 188.7 187.7 186.2 184.1 182.8 183.9 184.9 184.3 183.1 182.5 178.5 177.2 175.2 173.7 172.5 171.3 170.5 170.4 172.7 172.6 171.4 170.4 169.7 168.9 168.1 165.5 164.6 165.4 165.1 165.3 165.7 166.1 166.4 166.8
467.7 455 445.9 437.1 428.5 418.3 413.1 410 407.4 403.3 400.3 397.3 393.6 390 385.7 378.8 371.3 361.1 350.1 341.3 338.2 335.1 330.3 326.9 323.8 319.8 313.5 310.1 307.6 304.7 301 296.1 292.3 294.1 294.3 295.1 294.9 294 292.9 291.9 291.2 290.6 289.7 288.7 287.6 286.8 286 285.1 282.7 279.5 277.6 275.8 273.8 270.2 273.1 274 274.1 274.4 274.7 274 272.6 271 269.8 268.6 268.4 268.4 268.7 268.3 267.2 265.9 263 261.5 258.8 260.1 259.7 258.5 255.2 254.1 253.2 250.7 246.3 246.2 245.7 245.2 245.7 245.1 248 249.7 251.1 253.3 258.7 264.2 268.8 273.2 277.1 280.2 283.3 284.7 287 289.7 292.4 294.8 295.9 295.5 295.8 294.8 295 295.5 294.1 293 291.2 288.6 285.5 282.5 279.5 278.4 277.1 275.9 271.1 268.4 266.4 263 259.6 256.9 255.8 255.7 255.7 253.2 249.5 246.2 243.7 242.5 240.2 237.3 234.1 232.2 230.2 226.8 222.8 218.8 216.5 212.9 209.4 206.1 204.8 202.2 198.1 195.6 192.9 192.2 192.4 190 188.2 186.2 184.8 185.8 184.8 185.3 185.1 186.4 187 186.7 186.3 185.9 186 185.5 183.3 182.9 180.3 179 178.1 178.1 178.5 178.3 177.3 176.6 174.7 172.9 171.9 169.8 168.4 168.5 167.1 166.4 169.3 169.9 169.5 169.2 168.4 167.6 166 164.1 162.2 163.6 163.3 162.8 162.4 162.9 164 164.5
461.9 452 442.9 433.6 426 417.1 411.8 407.8 404.1 399.9 398 395.5 391.8 388.1 383.3 374.6 367.3 356.7 346.6 339.9 336.2 332 328.8 326 323.2 317.9 312.2 309.2 306.9 304.3 300.1 296.8 294 291.5 291.3 292 292.5 291.4 290.6 290.3 289.3 289 288.7 287.8 286.9 286 285.2 284.4 283.5 280.4 278.4 276.7 274.4 271.7 273.4 274.9 275.1 275 275.3 275.2 274.1 272.5 271.6 270.7 270.7 270.8 270.9 270.2 269 267.1 264.2 262.6 262.5 263.4 263 261.5 258.5 256.6 255.8 252.6 250.4 249.4 247.2 245.3 244 244.5 246.3 248.6 250.5 251.4 254.9 260.9 266.2 270.7 275.2 278.3 281.3 283.1 285.2 286.4 289 291.3 293.8 294.9 295.4 295.9 295.9 295.9 295.1 294.2 292.6 290 287.1 284.1 281.1 278.8 277.5 276.1 273.2 269.8 267.5 264.9 262.4 259.2 257.9 257.7 257.2 253.7 250 246.5 244.9 243.4 241.5 238.5 234.8 232.8 230.5 228.3 225.4 221.1 217.4 213.9 210.8 207.9 205 203.6 201.9 200.3 198.4 196.9 195.3 192.5 192.5 190.9 188.8 185.8 184.4 182.3 182.6 184.7 185.4 185.1 184.6 183.8 183.1 182.2 178.7 178.6 177.7 176.5 175.5 175.2 174.8 174.2 173.3 172.4 171.6 168.9 167.9 168.1 171.5 173.2 172.9 170.7 167.3 165.9 167 166.9 164.9 163.7 164 162.6 163.3 162.7 162.7 162.3 162.3 161.9 161.1 162.2
455.3 446.8 438.4 429.5 422.3 415.2 408.8 404.5 400.2 396.2 393.9 393 389.3 384.6 378.7 370.9 362.7 354 344.3 336.9 333 330.3 327.1 323.7 320.1 315.1 311.2 307.2 304.9 302.5 299.1 297.2 294.5 292.1 290.2 291.7 290.8 289.1 287.2 288.3 287.2 287.1 287.2 286.8 285.9 285 284.1 283.2 282 281.3 279.3 277.1 274.9 273.2 271.4 275.1 276 275.3 276 275.9 275.5 274.1 274.7 274.6 273.5 273.3 272.7 271.5 269.3 268.5 266.2 262.5 265.5 265.7 265.2 264.5 262.5 259.9 257.8 254.7 251.1 250 249.4 248.7 248.1 246.8 244.9 246.9 248.4 250 251.6 256.4 263.3 268.2 272.9 276.1 279.1 281.1 283.8 285.8 287.5 289.2 291.2 292.1 294.2 296.3 296.1 295.9 295.9 294.9 293.9 291 288 285 282.2 279.7 278.1 276.7 274.2 270.5 268.1 265.5 263.4 261.2 259.7 259 258.5 254.5 250.8 247.3 245.6 244 242.1 238.7 235.4 233.1 231 229.1 226.4 223.1 219 214.9 210.9 207.9 205.9 204.8 203.7 201.6 199.1 197.3 196.2 194.9 193.8 192.5 190.9 190 188.4 183.6 180.3 181.7 182.3 183.4 182.9 182.1 180.6 178.5 175.8 174.8 176.3 175.5 173.9 172.8 170.9 169.8 168.9 168.5 171.5 172.4 173.1 173.6 174.7 175.6 175 173.3 171.7 166.9 165.9 164.6 164.1 164.1 163.5 164.5 164.7 164.4 164.5 163 162.4 163.3 162.4 161.4
448.2 441.3 434.6 427.1 419.4 413.5 406.1 400.1 396.6 394 391.4 389.1 384.9 379.4 373.4 365.9 358.6 349.7 342.7 333.5 332 328.6 325.4 321.6 317.4 313 310 305.8 302.9 300.6 298.5 297.8 295.4 291.9 290 290.2 289.4 287.7 285.3 286.6 286.7 286 285.5 284.9 284.7 283.9 283 281.4 281.4 280.5 279.1 277.5 275.9 274.2 270.2 275.5 276.4 276.8 276.9 276.9 276.7 278.1 278.7 278.6 276.8 275 273.6 272.5 271.4 269.1 268.1 264.8 267.4 267.9 268.1 269.9 267.5 263.5 260.5 256.3 252.7 250.5 249.4 249.1 248.6 247.5 244.1 244.6 246.2 247.8 248.9 251.3 259.2 264.5 268.5 273.3 276 276.6 279.5 284.1 286.3 287.9 288.8 290.9 293.2 295.2 295.9 295.9 295.9 295.1 293.5 291.6 288.9 286.2 283.6 281 278.7 276.9 274.3 271.6 268.7 266.5 264.5 262.6 261.2 260.3 259.2 255.5 251.6 247.6 245.8 244.4 242.7 238.8 236.1 234.1 232.2 229.7 227.2 224.5 220.5 216.5 211.3 209.2 207 205.9 204.6 203.3 200.8 198.6 197.4 196.1 194.8 194.3 192.5 190.9 190.3 188.5 186.1 178.9 179.9 180.5 181.1 179.6 178.1 176.5 175.3 173.7 174.3 173.7 173.5 171.9 169.3 171.8 173.7 174.7 175.2 176 176.2 176.8 177.3 177.9 176.8 175.6 174.5 172.2 170 169.5 168.7 167.3 166.7 166.3 166.8 167.3 167.4 166.3 166.3 165.4 165.1 165.4
439.3 435.4 429.3 423.4 417.7 410.3 403.6 398.2 395.2 392.2 388 383.6 379.8 374.3 369.2 361.8 355.9 349.1 343.5 333.4 329.4 326.5 324 320 315.2 310.5 309 304.2 301.5 298.4 297.4 296.3 295.5 292.5 289.4 288.2 287 286.5 284.5 285.6 284.5 281.3 281.8 281.6 282.8 282.6 281.8 280.8 280.6 279.7 278.5 276.1 274.4 273.8 270.8 273.8 276.2 277.1 277.2 277.9 277.9 278.9 280.9 280.5 279.7 277.5 275.3 274 273 271.8 270.5 267.7 267.9 270.5 271.7 272.9 272.7 270.2 264.8 258.4 254 251.2 248.9 248.5 248.5 248 246.8 245.1 243.6 244.7 245.4 247.5 254.1 260.7 266.3 270.2 274.2 275.4 278.1 281.3 285 286.5 287.8 289.8 292 293.8 294.7 295.4 295.9 294.8 292.9 291.2 289.4 287 284.6 282.1 279.7 277.1 274.5 271.9 269.8 268.1 266.2 264.3 262.8 261.2 260 256.5 253 248.3 246.1 244.7 242.9 239.7 237.5 235.3 232.8 230.8 228.5 225.5 220.9 216.1 212.1 210 208.1 206.9 205.5 204.1 201.9 200.6 199.4 198.2 197 195.8 194.1 192.3 190.8 189 187 184.5 180.2 177.3 177.4 178.4 176.8 176 175 173.8 172.6 171.6 170.8 169.6 171.3 174 177.3 178.2 178.6 178.9 179.7 180.3 180.4 180.9 179.9 178.9 177.6 176.2 174.5 173.6 172.6 171.5 170.9 170.5 170.6 171.3 171.1 171 169.8 169.2 168.7 167.7
430.5 427.8 424 419.1 413.8 407.2 401.4 396.1 391.6 387.6 384.9 380 374.7 370.5 365.6 359.2 351.4 345.5 339.4 332.1 327.5 324.5 322.1 318.7 314.7 310.7 308.7 305.2 301.1 297.3 296.2 295 292.7 291.8 289.8 287.4 285.3 284.2 282.8 283.4 284.8 284.7 282.9 281.5 280.3 279.1 278.3 279.5 277.7 277.1 275.1 272.6 271.9 273.6 274.5 271.9 275.8 277.1 277.6 278 279.2 279.8 281.7 281.4 281.2 280.3 277.9 276.7 276.2 274.7 272.8 269.8 270 271.9 273.2 274 274 273.5 269.4 262.8 255.5 252 249.5 248.6 248.3 248.7 248.2 247.2 243.7 243.8 243.5 246 249.9 258.4 264.1 267.5 271.3 273.8 275.4 278.2 283.4 285.4 287 288.6 290.6 292.4 293.5 294.3 295 294.7 293.1 291.4 289.5 287.1 284.7 282.3 279.9 277.7 275.2 272.6 270.8 269.1 266.9 264.5 263.2 261.8 260.5 257.5 254 249.3 245.7 244.1 241.9 240.2 238 235.8 233.3 230.7 228.6 225.8 222 217.5 213 210.7 209.2 207.8 206.4 205 203.9 202.6 201.4 200.2 199 197.8 196.1 194.5 191.4 189.5 187.3 184.7 182.6 180.5 178.1 175.7 175.6 175.3 174.7 172.6 171.9 171.1 171.8 175 176.2 176.9 180 182.1 182.4 183.2 184.3 184.8 184.8 185 184.3 182.9 182.1 181.3 180.5 179.5 178.7 176.8 176.3 176.9 178 177.3 178.3 177.9 176.5 175.6 173.5 172.2
421.9 419.8 417.5 413.6 408.3 403.7 398.9 393.7 388.7 384.3 380.4 376.2 371.7 366.6 361.3 354.8 347.9 342.4 336.6 330.5 327.2 324.3 319.9 316.5 312.2 307.9 307.3 305 301.9 298.9 296.4 295 292.8 289.9 287.4 286.5 285.5 283.5 282.4 285.8 286.2 285.6 284.7 283.5 282.5 280.5 281.4 281.3 280.4 280 279.1 277.9 276.7 276.1 275.7 274.2 276.3 276.4 277.5 278.3 279.3 280.7 282.2 282 282.2 282.8 282.4 281.2 280 279.2 275 270.9 272.1 273.7 274.6 275 275.3 275.4 271.8 267.3 260.8 255.8 251.3 249.2 249.3 248.6 248 247.8 246.6 243 243.1 243.4 247.3 255.5 262 266.3 269.5 271.8 273.6 277.8 281.8 283.7 285.5 287.3 289.1 290.9 292.4 293.2 293.9 293.9 293 291.6 289.5 287.1 284.7 282.3 279.8 278 275.7 273 271.4 269.7 268 266.2 263.4 261.6 260 257.4 254.6 249.8 245.2 243.8 242 240.3 238.5 236.3 233.9 231.3 228.7 225.5 222.2 218.5 213.9 211.5 210.1 208.8 207.4 206.6 205.9 204.7 203.5 202.3 201.3 200.2 198.6 196.7 193.3 189.9 187.4 184.8 182.3 179.2 178.2 176.4 174 173.5 172.6 172.6 170.8 172.3 174.7 177 178.7 180.5 182.5 184.7 186.9 187.9 188.9 189.7 190.5 191.2 191.4 191.4 190.3 190 188.4 186.5 186.9 186.7 187.7 187.2 186.7 184.8 185.4 186 185.5 183.4 181.3 179.1
414.7 412.7 409.7 407.2 403.2 400.2 396.2 390.7 385.8 381.8 377.1 372.4 368.8 362.6 356.9 348.9 343.5 339.3 334.1 330.4 325.6 322.4 319.8 315.2 311.8 307.2 303.8 302.3 301.2 298.7 295.8 294.8 291.9 289.4 287.2 285.5 283.4 281.7 283.5 285.8 286.4 286.5 285.8 284.8 284 283.4 284 283 282.5 281.9 281.3 280.2 279.1 276.5 276 276.5 276.7 277.5 277.4 277.4 279.6 281 282.9 283.1 283.3 284.2 285.3 285.4 283.2 282 279.1 273.7 274.3 275 276 276.5 277.3 275.6 273.5 271.1 266.7 260.5 254.6 251.5 249.5 248.6 247.9 247.6 247.4 245.4 242.2 242 246.2 252.3 261 264.7 266.8 270.7 272.7 276.4 280.6 282.7 284.5 285.5 286.5 288.2 290.4 291.2 292.4 292.6 292.6 291.1 289.3 287.1 284.6 282.2 279.8 277.9 275.9 273.3 271.6 270 268.3 264.8 263 261.5 259.6 256.7 253.7 249.4 245.6 243.9 242.2 240.4 238.7 236.8 234.5 231.9 229 225.1 221.8 218.1 214.7 212.1 211.2 209.9 208.8 208.3 207.8 206.7 205.6 203.9 202.2 200.2 198.4 195.9 192.7 191.5 187.3 184.7 181.5 178.1 177.5 176.3 175.3 174.1 172.3 171.2 173 176 178.5 180.7 182.5 184.9 187.5 190.7 192.8 194.6 196.4 197 197.4 199 200.1 200.5 201.1 199.5 197.9 197.2 196.7 198.4 201.4 199.8 197.7 194.1 195.8 195.8 195.4 193.5 189.9 186.6
406.7 404.7 401.8 400.2 398.1 395 392 387.8 382.8 379.7 376.7 372.5 366.8 360.7 353 346.3 341.2 336.1 331.7 328.8 326.6 323.1 319.8 315.4 311.6 308.6 305.1 301.8 300.3 297.2 292.4 293.8 291.6 288 286.6 285.6 284.4 283 284.9 283.8 286.5 286.6 286.7 286.2 285.4 284.6 284.5 283.2 284.1 283.6 282.9 281.8 279.5 276.6 274.5 277.5 278.1 278.9 279.4 278.4 278 281 283.4 284.2 284.6 285.6 286.3 287 285.3 283.6 281.8 276 276.6 276 277.8 278.4 276.9 275.6 274.9 272.4 269.8 264.3 257.7 252.7 250.2 248.7 247.9 247.3 247.4 246.6 245.1 243.2 245.3 249.9 257.2 262.7 266.7 270.8 272.6 275.3 278.4 281.7 282.9 284.1 285.4 286.8 288.2 288.7 290.1 291.3 291.4 290.4 288.8 286.6 284.4 282.2 279.8 277.8 275.7 273.5 271.8 270.2 268.6 265.5 263.2 261.7 260.1 255.7 252.1 247.6 244.6 243.2 241.7 240.3 238.8 237 235 231.8 228.5 224.8 221.3 218.2 215.1 212.8 212 211 210.4 209.5 208.5 207.4 205.9 204.2 202.2 200.1 198.2 195.3 192 190.6 187.5 184 180.3 177.5 174.5 174.8 172.3 172.1 172.2 175.1 176.9 179.6 182.5 186.1 187.9 191 194.2 197.4 199 201 203.9 206.8 208 209.8 210.7 209 212 209.9 209.1 208.7 206.5 208.7 210 209.9 209.9 209.2 207.9 206.5 205.7 202.6 199.5 195.8
397.5 396.6 395 392.9 391.3 389.2 386.5 383 380.6 378.4 376.2 370.8 365 358.6 351.8 345.3 339.7 334.2 332 327.6 325.9 322 319.7 314.8 311.3 308.6 304.5 300.5 298.4 296.8 293.4 291.8 289.4 286.6 286 284.4 282 284.8 285 284.6 286.7 287 286.9 286.8 286.2 285.6 285.2 284.6 283.7 284.2 283.5 281.7 279.9 277.5 278.6 279.6 280.1 280.5 281 280.5 279.9 280.9 283.9 284.8 285.5 286.2 286.9 287.7 287.1 285.4 282.7 280.1 279.9 279.2 279.7 279 278.2 277.5 276.3 273.4 271.1 267.2 261.4 255.8 250.1 249.3 248.6 248.3 247.4 247.3 245.7 242.7 242.7 248.1 254.2 260.3 266.2 270.7 271.8 275.4 277.8 280.4 280.2 282.7 283.7 284.7 285.6 286.3 287.6 289 290.1 289 287.8 286.2 284 281.9 280.1 278.5 276.5 273.8 272 270.3 268.7 266.8 263.4 261.8 260.1 257.4 253 248.1 243.6 242.3 240.9 239.5 238.1 236.7 234.9 231.9 228.5 224.8 221.4 218.7 215.3 213.2 212.3 211 210.1 209.1 208 206.7 205.5 204.5 203 200.1 198 194.7 191.6 190.1 186.5 182.8 179.8 176 175 175 173.5 174.7 176.2 178.4 180.9 184.4 187.6 192 194.3 197.4 201.1 204.8 207.9 210.4 215.7 220.1 225 228.7 230 231.4 229.1 222 218.6 217.6 216.8 216.3 217 217.8 218.6 219.4 218.4 216.8 215 213.2 211.6 206.7
386 386 386.3 384.1 381.9 382.3 380.4 378.7 377.4 376.2 373.8 368.8 363 356.7 350.2 343.9 339.3 333.7 331.1 327.1 324.9 321.9 318.7 313.2 309.5 306.6 302.8 297.4 295.5 293.7 292.6 288.9 287.4 284.1 283.1 283.8 285 285.9 285.7 285.4 286.4 287.6 287.2 287.1 286.7 286.2 285.8 285.2 284.9 284.7 283.8 282.4 280.7 276.3 280 281.2 281.9 282.4 283.9 283.8 283 284.1 284.6 285.4 286.1 286.9 287.8 288.8 289.3 287.2 283.7 283.4 282.8 281.5 281.9 281 280.1 279.3 278.1 276.6 272.9 267.9 264 259 253.7 250.9 249.6 249.1 248.3 247.5 245.7 244 242.9 247 253.6 259.1 265.3 268.3 271.6 273.1 277.5 279.3 280 281.7 282.7 283.6 284 284.6 285.6 286.3 286.9 287.2 286 284.5 282.9 281.3 280 278.7 277.2 274 272 270.3 268.6 266.9 263 261.3 259.7 258.1 252.4 247.4 243.1 242.2 240.8 239.4 237.9 236.3 234.3 231.9 229.2 225.3 221.3 217.9 215.2 213.2 212.1 210.6 209.6 208.8 207.8 205.6 204.6 203.7 202.7 200.3 197.4 193.6 190.7 188.5 184.7 181.8 179.5 175.7 176.3 177.2 176.4 177.1 178.8 181.5 184.9 189.1 193.2 197.6 200.8 204.9 210.4 214.7 219.4 225 234.1 242.9 248.3 250.8 250.5 247.5 241.6 237.8 232.4 228.7 227 226.6 227.3 227.8 228.5 226.9 225 224.4 223.5 223.7 222.5 218.8
374.8 376.5 377.1 374.9 373.1 374.1 374.7 373.5 372.6 372.2 369.4 366 360.1 354.1 349.1 342.7 339.3 333.7 330.7 327.9 324.4 320.5 316 311.3 307.9 303.9 302.5 299.7 295.9 295 292.5 290.2 286.7 285.1 284.1 283.6 285.5 286.5 286.6 286.4 286.1 286.8 287.4 287.3 287.2 286.7 286.1 285.6 285.2 285 284.3 283 281.7 278 280.1 281.7 283.6 285.3 287.1 287.9 287.3 286.9 286.3 286 286.9 287.8 288.7 289.7 289.7 288.7 286.1 285.3 285.4 285 284.5 284.3 283 281.6 280.3 279 276 269.1 266.5 262.2 255.8 252.9 250.5 249.7 248.9 247.9 247.1 246 244.6 245.3 251 257.8 263.5 266.5 269.8 273.1 276.6 279.1 280.2 280.7 281.5 282 282.5 282.9 283.9 284.1 284.2 284.3 284.3 282.8 281.2 279.9 278.7 277.6 275.8 273.9 271.9 270.2 268.5 266.7 263.3 260.9 259.4 257.8 253.3 247.6 243.1 241.5 240.7 239.1 237.4 235.8 233.6 231.4 228.7 225.4 221.1 217.2 215.2 213.2 211.7 210.2 209.2 208.5 207.5 205.1 203.4 202.4 201.2 198.8 195.8 193.1 190.4 187.1 183.8 181.3 178.9 175.4 177.3 178.7 178.4 179.2 181.6 185.6 190 195.1 199 203.1 207.4 213.2 219.9 227.6 233.9 243.8 255 261.4 263.5 268.1 268.9 264.6 259.5 254.7 252.9 250.9 248.1 247.8 247 245.7 245.8 242.9 243 241 237.8 235.2 234.9 231.3
363.8 366.1 365.9 364.7 365.2 363.8 366.3 367.2 365.9 364.8 363.3 361.9 357.2 351.5 346.8 339.1 336 334.3 330.6 327.7 324 319.8 316.4 312.4 307.6 304.9 302.3 300.1 298.1 294.7 292.5 288.8 286.1 285.5 285.7 284.6 285.8 286.9 287.1 287.3 287 286.7 287.4 287.3 287.2 287 286.4 286 285.6 285.3 284.6 283.5 282.2 280.4 281.1 283 284.8 287.1 289.6 291.2 291.2 289.2 288.1 287.7 288.2 288.9 289.6 290.6 290.3 289.9 289.8 288.4 289 288.8 287.7 287.9 287.2 283.4 282.1 279.7 277.5 271.9 267.9 265 257.6 254.3 251.5 249.8 248.8 247.9 247.1 246.2 244.9 243.9 249.8 255.2 260.9 266.2 269.5 272.7 275.5 277.9 278.8 279.2 280 280.4 280.9 281.4 281.9 281.9 281.4 281 280.5 279.4 278.3 277.7 276.7 275.7 274.9 273 270.5 269.3 267.8 266.4 263.3 260.1 258.3 256.7 254 247.7 243.1 241.3 239.9 238.7 237.1 234.9 232.7 230.4 227.1 224 220.6 216.5 214.2 212.4 210.9 209.1 208 207.6 206.7 204.6 202.1 200.9 199.6 198.3 195.6 192.1 188.6 185.3 182.6 180.3 178 176.6 178.8 179.7 180.6 182 185.9 190.4 195.4 200.6 205 210.1 215.7 222.5 229.9 241.2 248.6 261.1 271.1 276.4 285.6 288.4 284 281.9 282.1 280.3 281.3 277 274.9 272.6 275.7 277.9 276.1 273.8 269.5 263.3 259.8 252.5 248.2 247.1
348.5 349.9 354.2 356.9 355.4 353.8 356.4 357.2 357.3 357 356.2 354.9 352.5 349.1 344.8 337.8 333.3 335.8 332.4 329.2 322.2 318.6 315 310.3 307.4 305.9 304 301.1 298.5 294.9 293.4 288.9 287.3 286.8 286.1 285.6 286.5 287.3 287.5 287.5 287.4 287.1 287.4 287.2 287.1 287.3 286.8 286.4 285.9 285.6 284.3 283.4 281.8 278.8 282.5 284.4 286.2 288.6 290.9 293.5 295.4 292.4 290.6 289.7 289.7 290.5 291.2 291.7 291.5 290.9 291.7 292.1 291.9 291.7 290.6 290.3 290.5 286 283.7 280.4 279.1 275 268.9 265.6 258.3 256.1 253.7 250.1 248.7 247.9 247.1 246.3 244.1 242.4 247.3 254 259.6 264.6 267.8 271.2 274.3 276.5 276.9 277.3 278.8 279.2 279.6 280 280 279.7 279.4 279 277.9 276.2 275.9 274.9 274 273.4 272.3 270.5 268.4 267.7 266.6 265 262 258.5 256.9 255.6 253.9 248.1 243.2 240.9 239.1 237.6 236.3 233.8 231.7 228.9 225.2 222.2 219.6 216.1 213.4 211.6 209.8 207.9 206.6 206.3 205.2 203.2 200.3 198.5 197.1 195.7 192.8 190.4 187.4 184.3 181.3 180.1 178.4 177.6 180.1 181.9 183.4 185.8 190 195.7 201.2 206 212.4 218.8 226.6 231.7 241 251 264 275.6 283.2 289.7 294.5 296.2 296.3 296.6 301.1 304.4 306.6 307.9 308.2 311.5 312.6 311.7 308.4 303.3 293.7 287.8 283.9 275.8 268.7 259.4
