ncols 200
nrows 83
xllcorner 310000
yllcorner 370300
cellsize 50
221.6 219.7 217.4 214.6 212.2 208 206.7 204.1 201.5 198.6 194.8 192.5 189.8 186.3 183.4 182.6 181.2 181.1 180.6 181.1 182 182 182.6 182.3 181 179.6 179 177.9 178 177.8 177.6 178.2 178.2 178.5 176.7 175.8 175.5 174.9 175.2 175.2 175.7 176.7 177.3 177.8 178.8 180.5 183.1 186.2 186.4 187.2 186.7 186.4 186.3 184.8 185.1 184.9 184.3 185.1 185 185.6 186.3 187 188.3 190.4 191.6 194.9 197.1 198.6 198.7 198.6 198.4 198.6 199.8 200.1 200.8 199.4 198 197.1 194 190 188.4 187.4 186.2 188.3 190.7 191 190.9 189.8 185 181.4 179.7 179.4 180.8 180.6 175.1 172.5 171.4 173.2 173.8 176 181 186.5 192.2 197.7 203.9 203.3 203.5 203 202.9 202.2 200.3 192.7 184.5 183.4 186.8 187.8 198.7 200.3 201.9 203 205.1 206 207 208.6 209.7 210.5 211.5 213.4 216.3 219.7 224.2 227.2 229.7 232.6 234.9 236.4 237.6 240.4 240.5 238.8 237.9 236.6 234.9 235.3 233.9 233.2 230.3 230.8 230.6 229.7 228.6 228.2 226.9 224.1 224 228.3 229.4 230.3 230.4 233.1 234.7 236.7 237.3 240.2 243.5 246.1 247.5 247.2 246.4 247.5 244.8 242.9 242.1 237.4 233.3 230 225.2 216.8 209.3 200.7 196.5 191.9 187.3 184.8 184.6 180.1 177.7 176.4 174.4 169.3 168.3 166.8 165.1 155.8 145.5 140.8 133.9 132.6 138.6 137.9
221.7 221 218.9 214.4 214.2 212 209.5 205.7 203 199.2 195.4 194 191.6 187.7 184.5 183.2 182 181.7 181.6 182.3 183.5 183.5 182.8 183.8 182.2 179.7 179.5 178.7 178.2 179.3 178.9 179.1 179.5 178.8 176.8 175.6 175.1 175.7 175.1 174.9 175.4 176.8 177.4 177.8 178.8 180.4 183.1 186 186.8 187.5 187.2 186.9 186.6 185.4 185.4 184.4 184.3 185.5 185.8 185.4 185.8 187 188.3 189.4 190.7 193.3 195.1 196.4 196.9 196.6 196.5 196.8 197 196.6 197.8 197.9 197.5 197 196.5 196.4 194.1 191.3 189.2 187.4 184 186.3 185.5 185.1 182.6 179 177 176.8 176.4 175.2 172.5 170.4 169.9 171.5 173.5 177.2 183.5 190.7 194.8 199 203.8 204.3 204.4 203.5 203.1 202.6 200.8 198.3 191.7 185.3 182.2 187.6 187.4 198.3 199.9 201.6 202.6 204.6 206.8 207.7 208.6 209.9 211.7 213.8 216.8 221.4 225.7 230.5 233.1 235.2 236.9 238.2 238.8 238.4 240.9 239.1 237.7 235.8 234.5 232.8 233.2 232.9 231.2 229 230.3 230 228.9 228 226.9 222.2 224.5 229.1 229.6 230.6 231.7 234.1 236.3 238.6 240.2 243.8 245.8 248.7 248.7 248 249.2 251.9 248.5 243.9 244.1 241.8 239.7 234.1 232.6 224.8 218.2 210.4 208.7 205.3 200.5 195.6 193.2 188.2 183.4 179.8 176.2 173.4 168.9 164.5 165.9 161 157.5 153.3 138.5 134.6 134.1 136.8
223.5 222 220 218.5 216.5 213.3 210.3 208.1 205.7 199.6 196.4 194 191.2 187.8 185.8 184.5 183.7 183.6 184.4 185.2 184.5 184.3 183.5 183.1 182.1 180.3 179.6 180 178.5 178.5 178.5 178.8 178.9 178.5 176.9 175.9 175.4 175.3 173.3 174.7 175.2 176 177.9 177.8 179.1 180.9 183.9 185.9 187.3 187.8 187.2 186.6 186.1 185.8 184.7 184.2 185 185.7 185.9 185.6 185.8 186.8 187.1 188.8 189.6 190.5 193.6 194.9 195.2 195.3 195.3 195.4 195.4 195 194.9 196.3 196.2 196.3 197 196.1 194.8 194.7 192.2 190.5 186.2 182.8 180.2 180 180.9 178.1 176.2 174.5 173.5 171.9 170 169.4 170.5 172 177.9 183.9 190.8 193.6 195.6 198.3 202.3 204 204.3 204.3 203.3 202.2 201 199 195.6 190.4 183.5 184.6 187.2 192.6 196.4 198.6 199.9 202.9 205.1 207.8 208.9 210.3 213.1 215.5 218.8 222.2 225.2 230.9 234.4 236.8 237.9 238.7 237.6 236.1 234.6 233.1 232.2 232.2 231.3 230.3 230.8 230.7 230.8 228 229.2 229.3 227.9 226.3 223.1 223.6 228.3 230 231.2 233.1 233.1 234.1 234.9 239.3 243.7 243.3 250.9 252.1 250.8 249.9 249.3 250.9 250.7 250 245.9 242.8 244.2 241.8 235.7 232.2 226 221.8 219.2 217.2 212.3 206.4 201.1 198.4 190.2 185.6 181.2 175.4 172.1 167.7 161.9 162.6 160.5 156.3 146.7 137.9 135 140.9
225.7 224.2 221.8 219.1 216.5 214.9 210.8 208 204.3 199.9 196.8 193.7 190.2 189.1 187.5 187.4 187 187.1 187.1 187.1 187.6 186.2 184.6 183.2 181.8 181.3 179.7 179.9 178.9 178.2 177.3 176.8 176.6 176.9 176.4 175.6 174.6 174.9 174.8 174.7 173.9 175.7 178.1 177.7 179.5 181.1 184.1 186 188 188.1 187.4 186.9 185.7 186 185.3 184.2 183.8 185 185.9 185.8 185.9 186 186.3 188.1 187.9 189.3 190.8 192.5 193.1 193.7 195 195.4 195.4 194.4 193.5 194.3 194.8 194.4 195.8 195.7 193.8 193.9 192.1 190.9 188.3 185.6 181.5 179 177.9 176.9 175.2 172.7 171.5 171.3 169.5 170.3 171 173.5 181.1 188.4 192.2 193.6 195.8 198.7 200.6 202.4 204.1 204.2 202.9 201.4 200.1 199 197.1 194.2 187.4 181.9 188.4 189.6 191.3 195.1 198.4 201.2 203.2 204.5 207.1 209.1 212 214.9 217.9 221.3 223.8 229.3 233.7 235.9 237 237.3 236 234 232.9 231.2 230.1 229.5 228.7 227.9 227.9 227.6 226.6 225.9 227.2 226.7 226.1 224.5 221.8 227.4 229.3 231 232 233.1 234.7 235.5 237 239.7 246.1 246.9 254 254.9 252.6 252.2 252.2 250.3 250.9 250.6 247.8 246.7 247.4 246.6 241.2 236.5 236.4 229.4 227.9 222.5 220.1 215.9 210.6 203.3 196.8 192.7 185.1 178.3 172.7 168.4 164.7 155.4 154.8 151.7 142.4 137.4 137 146.3
227.8 225.4 222.2 219.1 216.5 212.4 209.5 206.8 203.6 200.1 197 195 193.5 191.1 191.4 190.6 190.7 190.7 190.8 189.8 187.6 185.9 184.3 182.9 183 181.3 180.3 179.6 179 178.5 178.2 177.5 176.4 175.4 175.3 175 175.1 175.6 175.6 175.6 174.6 174.8 177.2 177.6 178.6 181.8 184.2 186.8 188.3 188.5 187.8 187.3 186.4 185.4 185.7 185.6 184.5 183.9 184.9 185 185 184.7 185.5 186 186.3 187.6 188.8 190.9 191.3 192.4 194.3 195.2 195 193.8 192.8 193.3 192.7 193.8 192.3 193.3 192.6 192.4 192.1 190 187.2 186.6 187 181.3 177.5 173.8 170.8 168.7 168.4 169.1 168.6 170.2 172.7 175.9 180.7 186.8 190.4 192.9 195.7 198 199.9 202.1 203.2 202.5 201.7 200.6 199.8 198.4 197.5 195.7 191.9 184.7 182.3 185.8 189.7 196.6 196.2 197.5 199.2 201.4 203.9 206.8 209.6 212.2 215 218.1 221.3 226.3 230.8 233.9 237.2 237.4 236.2 235.1 232.9 231.3 230.2 229.5 228.5 227.4 225.8 224.9 224.3 224.2 224.7 225.2 223.6 222.4 222.1 226.5 228.4 230 231.7 233.4 234.6 236 236.8 244 247 250.4 257 254.4 253.2 256.1 253.7 253.4 251.7 250.5 247.2 251.9 251.4 249.8 244.9 241.4 239 235.7 233.4 230.8 225 219.9 216.5 207.3 205.9 197.4 189.9 183.8 176.7 169.5 168.5 162.1 153.5 146.7 141.7 138.2 139.6 153.3
228.8 225.5 221.7 218.8 215 210.9 208.7 206.3 202.9 201.2 198.8 197.1 196.5 195.8 194.3 193.7 193.9 191.6 190.7 188.7 187.7 187.1 185.7 184.6 184.6 182.7 181.8 181.4 180.8 180.1 180.2 178.8 177.8 176.8 176.7 175.9 176.9 176.5 175.7 175.3 174.9 174.3 175.7 177.2 178.6 180.8 185 186.7 188 187.9 187.5 186.4 186.3 186.8 186.5 186.7 184.9 182.8 183.7 184.1 184 183.8 184.5 184.8 185.5 186.5 187.7 188.2 189 191.1 192.3 194.1 193.1 193.1 192 191.3 192.1 190.6 190.7 190.5 188 188.4 189.4 187.1 186.7 187 187 180.6 176.3 171.7 167.3 165 165 166.7 167.3 169.8 171.9 175.7 179.4 182.5 186.7 190 193.7 196.8 197.7 199.5 200.1 200.3 199.6 198.3 197.7 197.5 197.1 196.4 194 187.9 182.9 182.7 186.4 191 195.5 193.8 195.4 198.5 200.8 203.4 206.5 209.6 212.4 214.8 218.1 222.6 228.7 234.1 237.6 238.4 237.6 236.8 235.4 233.4 232.3 231.2 228.9 228.2 226.8 224.9 224.2 223.8 223.3 224.6 222.1 219.9 222.7 227.9 229.6 231.1 232.7 235.4 236.4 236.7 237.9 240.8 245.1 251 253.9 254.4 254.5 256.5 255.7 255.6 253.2 251.1 248.4 249.1 251.4 250.6 248.4 246.8 243.4 242.2 235.4 234.4 230.5 224.2 217.4 211.5 205.8 200.2 193.8 190.2 179.1 174.8 172.3 167 160.6 151.7 143.3 140.1 143.1 157.5
230 225.9 221.1 217.3 212.6 209.2 206.5 205.3 203.6 202.3 201.1 198.8 198.8 197.7 196 194.9 193.4 193.3 192.5 191.4 190.1 189.7 188.2 187.1 186.4 185.6 184.2 183 182.9 182.3 180.9 179.7 179.5 178.5 178.2 178.6 178.3 177.1 176 175.4 174.8 174 174.7 176.8 178.5 180.5 183.8 185.6 186.7 186.9 186.6 186.4 186.1 186.8 187 186.4 185.2 183.1 181.4 182.3 183 183.5 183.6 183.9 185.1 185.4 185.9 186.1 186.7 187.9 188.5 190 189.2 187.9 186.7 185.9 186 186.6 186.9 185.7 183.8 183.8 181.1 185.6 186.4 183 180.4 174 169.4 167 163.3 162.9 162.7 164.5 166.9 169.8 172.3 174.6 176.5 180.9 184 187.8 190.2 192.5 195.1 195.8 195.7 196.8 196.3 195.1 194.5 195.4 194.7 197.2 195.5 191.4 184.3 181.1 181 183.8 188.2 188.6 193.1 195.9 199 201.7 204.6 207.4 208.5 212.2 214.8 220.7 227.4 232.6 236.4 237.6 236.5 234.6 233.8 232 230.7 230.3 228.3 228.1 226.7 226.1 224.9 225.4 226 224.9 219.5 219.2 222.8 228.1 229.8 231.7 233.3 237.2 238.2 238 239.4 241.4 244.4 249.3 252.4 252.8 255.2 257.3 258.8 259 256 252.2 248.6 247.9 248.4 248.8 249.3 249.7 250.4 251.9 246.9 235.7 233.3 226.4 221.2 215.9 209 202.6 194.4 190.5 184.4 179.3 174.1 172.2 165 158.2 145.5 144.2 145.1 160.3
231.7 225.3 221.2 216.9 212.9 210.3 207.9 205.6 203.8 200.8 199.9 200.8 200.6 199 197.8 197.1 196.3 196.2 195.3 194.4 193.4 191.9 190 187.6 188.1 187.7 186.2 184.9 184.5 182.5 180.9 179.9 180.7 179.7 178.4 178 178.6 178.1 177.1 176 175.2 175.4 173.8 175.4 177 180.3 182.5 183.2 184.7 184.6 185.2 185.6 184.6 185.9 185 184.9 184.1 182.9 181.5 181.3 181.5 182.3 182.6 183 184 184 184.1 184.3 184 184.6 185.4 186.3 185.7 184.9 183.7 182.7 181.5 181.2 180 178 174.3 172.4 170.7 173.5 180.1 176 169.4 164.5 162.5 161 160.5 162.2 163.3 165.8 168.1 171.3 172.9 175.5 178.7 183.1 185.2 186.8 188.6 190.7 192.2 192.4 191.5 192.2 191.6 191.3 190.2 190 189.8 190.7 188 185.5 186.1 184.1 180.4 178.9 180.7 184.9 191.6 195.9 198.3 200.1 202.1 204.9 207.3 210.3 213.3 219.4 227.3 231.9 235.9 237.5 236.3 236.5 232.8 231.2 229.4 229 227.9 227.9 227.3 225.9 225.6 226.6 227.4 226.6 223.2 218.3 224.3 229.3 229.8 231.5 233.1 235.5 237.1 238 240.3 242.4 244.4 247.4 250.7 253.2 254.9 258.7 257.8 259 256.8 253.1 248.9 248.6 248.2 250.6 250.7 249.2 251.2 253.4 252.3 242.7 234.4 229.5 225.8 217.4 209.4 203.1 197.9 191.7 187.8 182.9 179.1 174.2 167.9 159.7 149.9 144.4 142.4 147.3
233.7 227.8 222.6 219.3 215.6 212.1 208.6 205.2 202.1 200.6 201 201 202 201.1 201.1 201 200.7 199.8 198.4 196.9 196 193.6 190.5 190.7 190.6 189 188 186.6 184.8 182.6 180.8 180 179.9 178.9 179.3 178.5 179.2 176.2 178.7 177.4 176.3 176 175.2 174.1 176.1 179.4 180.9 181.9 182.9 184.1 185.5 186.1 184.9 184.6 184.1 183.5 183 182 181.8 180.4 180.5 180.8 181.5 182.6 183.2 184.1 183.6 183.2 182.6 182.5 183.6 184 182.6 181.3 178.8 177.8 176.9 176 174.9 170.9 168.4 166.3 165 165.2 168.5 165.7 162 160.5 159.7 161.5 165.9 167.4 167.4 168.8 169.3 173.8 176.2 178.7 181 184.7 188.7 191.1 191.5 191.9 192.8 192.2 191.7 191.7 192.9 194.2 194 193.5 192.3 192.6 192.4 191.8 190.6 187.9 183 180 178.9 182.6 190.4 195.6 196.9 198.7 200.8 202.7 205 207.8 211.6 216.7 226.2 233 236.3 238.1 238.6 238.1 236.4 235.3 232.4 230.3 228.7 228 227.1 225.9 225.8 226.4 225.9 225.4 222.9 218.6 221.3 227.1 229.1 231.6 233.9 236 237.4 239 240.8 242.6 245 247.5 251.1 254.1 257.1 259.7 261.7 259.3 254.4 253.2 249.4 247.4 247.2 250.4 251.7 250.4 248.9 248 245.4 244.8 236 233.5 226.3 219.5 212.3 208.6 201.8 195.2 188.8 188.9 181.8 177.2 172.2 167.6 154.2 147.5 144.2 140.9
233.8 230.5 227.5 223.6 218.6 212.2 209.3 205.4 201.3 201.1 201.3 202.8 204.1 204.3 204.2 203.7 203.3 201 199.6 198.9 196 193.2 193.6 193 191.9 190.6 189.5 188 184.8 183.3 182.7 181.4 180.8 180.4 181.2 180 179.8 179.4 179 179 177.6 177 175.2 174.1 175.2 177.7 179.6 180.6 181.6 183.9 185.7 185.8 184.3 185.2 184.6 183 182.5 182.3 180.7 180.7 180 180.9 180.3 181 182.1 181.4 180.9 181.1 180.8 181 181.4 181.1 180.3 177.4 174.9 173 171.7 170.2 167.2 164.7 161.8 159.8 158 158.7 160.2 159.5 158.1 158.5 160.6 164.9 181.7 182.5 177.9 177.6 179.3 177.7 182.6 185.7 188.5 188.9 194.1 196.2 195.9 195.2 194.4 193.9 195.1 196.9 196.9 197.5 197.3 196.2 195.7 195.9 198.2 196.8 193.8 192.2 186.8 182.6 178.2 181 193 195.9 196.5 197.9 199.7 201.3 203 205.6 210.2 215.2 223.1 229.8 234.3 236.2 237.3 237.1 236.5 236.6 234.6 232.4 230.6 229 227.5 226.4 225.6 224.8 224.4 223.7 221.7 216 215.2 223.1 228.7 231.7 233.8 235.7 236.7 238.6 241.1 242.9 244.4 247.5 252.2 257.6 263.5 262.6 263.2 260.4 257.9 254.2 249.5 248.1 247.8 248.9 251.4 251 249.6 247 245.7 243.3 238.2 233.6 232.2 224.8 216.7 210.3 204.3 199.6 192.4 188.1 184 178.2 173.8 168.5 157.7 153.4 150.6 141.3
234.6 231.1 227.2 223.2 217.9 212.9 207.5 204.5 201.9 201.4 203.8 206.5 206.5 206.9 206.5 205.6 203.8 201.8 200.2 198.5 197.6 196.7 196.1 195.9 194.1 192.1 191 188.7 186.2 184.8 183.4 182.6 181 181.2 179.6 181.5 181.9 181.3 181 180.8 180 178.7 177.4 174.8 175.4 176.4 179.1 180 180.9 182.5 185.5 184.1 183.7 183 183.3 182.5 182.7 182.2 180.8 180.2 178.3 180.4 179.7 179.3 179.5 179.9 179.6 178.3 177.9 176.5 177.1 178.7 178.1 176.8 173.8 171.2 168.6 163.3 160.8 157.7 155.2 154 153.4 154 155 155.9 156.7 160.4 165.6 176.2 182.9 184.4 183.8 184.9 183.3 183.1 186 191.2 193.5 194.5 195.6 199 199.8 198.2 198.4 198.4 198.8 199.1 199.7 200.3 199.5 198.2 198 197.3 198.1 197.6 195.2 192.3 188.2 184.3 179.2 184.3 196.2 195.5 195.3 196.5 197.6 199.5 201.2 203.9 209.1 214.6 219.4 226.8 231.8 233.3 233.5 233 232.6 231.2 230.4 228.4 227.1 226.3 225.1 225 224.2 222.9 221.9 222.2 219.7 215 217.9 223.6 226.2 229.7 231.3 233.9 236.3 238.8 241.2 242.5 244.3 247.3 253.7 264.1 266.7 264.8 265.5 263.9 260.6 255 250.6 248.6 249.3 248.3 250.4 253.3 257.8 257.4 250.9 246.2 241.5 236.1 232 230.6 221.7 214.4 207.4 202.8 196.9 189.8 185.5 175.3 173.8 174.7 163.5 166.1 163.6 147.1
232.4 230.4 227.2 222.8 218.7 214.1 207.5 204.1 203.5 204.6 208.7 209.7 209.2 208.2 207.1 205.4 203.5 202 201 200.5 200.4 198.8 199.2 198.2 196.6 194.5 192.5 190.3 187.9 185.8 184.9 183.4 182.4 182.8 182.6 182.4 183.7 183 182.8 183.2 181.4 180.4 177.5 174.2 175 176.3 178.2 179.4 181.4 182.2 182.6 182.5 182.4 182.2 184.4 183.6 183.7 183.1 182 180.2 178.9 175.8 178.7 178.7 178.7 178 177.6 176.6 175 172.4 172.6 171.8 174 174.9 170.6 167.6 161.2 156.9 154.3 152.9 152.3 151.4 152.8 154.2 154.7 156.4 159.9 165.5 173.6 178.6 182.4 184.9 188.7 190.9 189.8 187.3 189.1 192.4 196.1 198.3 199.2 201.2 203.5 202.1 202.4 203.5 204.2 204.1 204.6 203.8 201.8 200.8 198.9 198.2 196.9 196.8 195.2 193.1 189.8 185.4 181.1 182.1 193.8 193.2 194.2 195.8 196.7 198.1 199.5 202.1 207 213.6 217.2 224.3 228.8 231.4 230.3 228.9 227.6 226.5 225.7 223.4 222.8 222.1 221.9 221.6 218.9 219.5 219.6 220.1 217 213.6 217.8 221.3 224.4 226.2 229.8 231.9 234.4 236.7 239 242.1 244.8 247.2 253.7 263.7 265.1 265 263.4 264.3 261.5 256.3 252.6 250.1 248.4 248.6 249 255.1 264.5 262.3 257.3 248.8 245.1 237.9 233.3 229.4 228.7 219.2 210.8 204.5 197.4 191.9 184.6 183.7 180.7 175 171.2 169.1 165.2 151
224.1 227.3 227.9 223.5 218.3 215 208.9 206.4 205.5 208.7 210.9 210.7 208.8 207.7 206.4 205.5 204.2 202.9 202 202.8 203 203 202.4 200.3 198.3 195.1 192.7 190 187.9 186.1 185.3 185.4 184.8 184.1 183.5 184 184.3 184.4 184.3 183.6 183.2 181.9 179.2 174.3 176.4 177.7 176 177.4 180.4 179.4 180.2 179.5 180 181.2 183.6 184.8 183.7 182.7 182.1 180.6 178.4 175.1 171.7 177.6 178 177.6 176.9 176.2 175.3 171.8 168.3 166.6 164.7 165.7 161 158.9 155 153.3 151.7 151.3 151.5 152.6 154.3 156.4 157.8 164 168.7 175.3 178 180.5 182.4 184.2 186.4 190.2 193.1 191.9 193 195.5 198.5 201.1 203.3 203.2 205.5 205.5 206.5 209.7 209.3 208.6 207.7 205.9 204.1 201.6 199.3 198 196 196.4 195.7 193.3 190.1 185 183.3 177.2 184 190.9 195.3 195.8 196.1 196 197.7 200.6 205.1 210.8 215.7 222.1 226.8 229.5 229.4 227.6 224.9 223.1 221.6 220.3 218.1 216.6 215.9 215.5 214.8 215.3 216.3 217.4 214.1 214.4 214 218.6 222 225.9 228.7 231 234 235 236.6 239.2 244 246.4 252.7 261.3 265 263.3 262 260.4 259.6 257.4 255.8 251.2 248.6 249.2 249.6 254.7 265 266 262.4 254.3 246.3 240 235.6 232.5 228.6 218.9 214.6 206.2 196.5 193.3 190.4 186.9 182.4 177.7 177.1 173.2 166 155.3
215.9 223.7 225.2 222.9 219.5 216.6 212.4 207.7 209.1 210.5 211.1 210.4 209.3 208.2 207 206 205.2 203.9 203.1 203.2 204.3 204.9 202.3 200 197.2 195 192.6 189.5 187.7 186.9 186.3 186.7 186.1 185.3 184.3 184.3 185 184.8 184.2 183.6 183.1 182.8 180.5 173.6 175.1 178.7 180 175.4 175.7 177.5 178.6 179 179.1 180 182.2 183.4 184.6 183.9 182.6 180.8 179.1 177 173 169 175.8 177.5 176.2 173.9 173.1 169.8 163.9 160.9 159.2 158.1 156.1 154.4 152.6 151.4 151.8 151.9 154.8 158.8 160.5 161.8 168 172.6 175.1 177.6 179.4 182 182.6 183.8 185.4 188.1 190.8 192.5 197.3 199.9 200.2 201.9 203.2 203.7 205.8 208.8 212 213.4 213.7 211.1 209.3 206.9 204.3 201.4 199.8 198.3 197 195.6 194.7 192.1 188.9 183.6 181.8 176.2 184.3 195.7 194.5 195.1 194.7 194.5 196.8 199.5 202.8 210 215.4 220.1 226.7 228.5 227.6 226.4 224.6 223.4 220.5 218.2 216 214.4 213.2 212.6 212.4 213.1 214.4 216.5 214.3 212.5 215.6 218.9 221.6 226.1 228.5 231.3 233.5 234.9 236.1 237.8 241.1 245 252 258.6 260.3 258.9 258.3 258.5 257.7 256.8 254.8 253 250 249 250.8 255.2 264.6 265.4 262.8 256.5 250.5 245 237.5 231.3 225.7 224.1 214.7 208.1 203.8 199.2 194.9 189.3 185.1 182.2 180.9 176.3 168.5 158.6
205.2 215.9 222.9 224.8 221.3 216.7 213.1 209.5 209 210.7 211 210.5 209.7 208.5 207 205.8 205.3 204.5 202.7 203.6 203 203.3 201.7 200.1 197.6 195.2 192.8 190.4 188.8 187.8 187.4 186.8 186.2 185.9 185.1 185 185.3 184.6 183.5 183.3 181.7 181.7 179 173 172.1 177 181.1 179.4 175 176.1 177.1 177.7 178.3 178.8 181.4 182.5 182.9 183 182 180.9 179.6 177.6 174.6 168.4 166.4 175.8 176.7 174.4 169.2 164.3 159.8 156.6 155.2 154.8 153.3 151.7 150.5 151.7 154.4 163.2 169.5 170.1 169.9 166.7 172 175.6 177.5 178.9 180.4 181.4 182.7 183.7 185.1 187 189 191.4 196 198.9 201.1 201.1 202.4 203.7 206.6 210.2 213.5 214.9 213.9 211.1 208.3 206 203.7 200.3 199 197.2 195.7 195.3 196 191.7 187.1 182 179.2 176.7 185.7 192.4 193.6 194.1 192.7 194.3 195.4 198.1 202.4 208.9 213.9 220.3 225.1 227.6 227 225.7 223.9 221.8 220 217.8 216.2 214.3 213.4 212.1 211.8 210.9 212.5 214.2 213.8 210.1 214.6 216.5 220.1 224.7 227.2 229.8 231.9 233.7 235.5 237 240.8 244.2 248 251.3 252.2 252 252 253.8 254.6 255.3 255.7 254.6 252.2 249.9 250.6 257.5 264.7 262.6 260.2 257.4 252.1 247.4 239.2 232.2 226.7 223 222.9 214.9 209.1 203.2 197.6 192.1 187.9 185.8 183.2 179.3 167.9 170.6
190.9 204.9 215.3 220 222.2 217.5 213.9 211.6 211.1 211.8 211.9 211.1 209.4 207.6 206.1 204.9 205.1 203.8 203.7 203.5 203.4 201.7 200.1 199.7 198.2 196.5 194.3 192.2 190.1 188.6 187.2 186.6 186.5 186.1 184.7 183.8 183.8 183.1 183 182.5 182.2 181.5 181.3 173.4 168.7 176.7 180.8 181.5 180.5 175 175.6 176.5 177.3 177.8 180 181.5 181.6 181.7 180.8 179.8 178.7 177.4 174.5 167.1 162.7 167.9 172.7 172.9 166.8 160.7 156.9 153.5 152.1 151 150.7 149.6 149.7 153.6 160.7 171 174.4 175.1 174.3 173 170.1 175.8 177.7 179.3 180.4 181.3 182 182.5 184.1 185.6 187.8 190.3 193.6 196.5 198.3 199 199.3 201.1 205 208.9 211.3 212.2 211.2 209.2 205.9 204.1 201.7 199.7 197.1 196 195.8 195 194.1 189.8 185.4 182.1 176.5 177.3 184 190.1 190 192.1 191.9 193.2 193.8 196.7 200.3 204.8 209.8 215.6 221.4 224.7 225.6 226 224.1 222.4 219 216.8 215 213.6 213.6 212.3 211.3 211.7 210.9 212.1 210.3 210.4 213 215.7 218.9 221.8 224.3 225.1 230.2 232.2 234.1 236.1 239.3 241.2 245.6 246.1 247.8 246.3 247 250 252.6 257.3 256.9 255.9 254.8 252 251.5 253.8 258.2 259.7 257.4 254.2 251.8 244.7 242.1 237.1 232.7 225.6 223.4 217.8 211.9 206.5 200.9 195.9 192.7 188.6 185.1 180.6 178.4 177.7
178.4 189.7 200.3 208.9 216.2 215.5 214.9 212.3 211.2 210.6 210.9 209.2 207.4 205.6 205.1 205.5 203.8 203.4 203 201.2 200.6 199.4 199.4 199.2 198.8 196.5 194.1 191.5 189 188.3 187 186.7 186 185.3 184.2 183 181.8 182.2 182.2 182.4 182 181.6 181.1 173.8 174.1 171.2 181.6 180.8 181 178.4 174 175.9 175.5 176.9 179 181.9 182 182 180.2 178.9 178 177.9 175.9 170.1 162.5 160.3 159.2 162.1 160.4 156 153 150.7 148.7 148 148.1 150.7 155 164.2 170.9 175 177.9 178.7 177.6 176.2 176 176.6 177.2 178.2 179.5 181 181.8 181.2 182.7 184.6 186.7 188.6 191.2 193.6 195.2 196.2 197 198.6 202.3 205.3 208.6 209.3 207.8 207.7 204.2 201.8 199.7 197.5 196.4 195.1 193.6 194.3 190.8 186.8 181.8 183.7 173.9 180 184.3 185.1 187.1 186.7 190.2 191.9 191.8 192.8 197.2 201 205.4 207.6 216.5 217.9 219 218.7 219.1 219.2 217.5 216.1 214 212.5 211.7 211 211.1 209.6 210.2 208.5 209.1 212.3 216.5 219 223.7 226.7 227.3 229.3 228.5 229.5 231.4 233 236.1 238 240.1 242.4 242.6 241.9 244.8 248.5 252.9 258.4 259.6 259 256.4 253.7 253.2 254.8 255.8 256.3 256.3 253.6 249.7 251.3 250 243.4 237.3 231 224.1 221 214.5 209.1 203.3 199.6 195.7 190.3 185.2 182.9 181.3 180.1
177.9 173.5 185 193.5 198.5 203.4 207.1 210.5 211.1 211.4 210.5 207.9 205.1 204.6 205.1 206.9 202.8 200.4 199.1 198.2 197.9 198.7 198.3 197.6 196.4 194.7 193.7 191.3 190.1 187.5 186.6 186.2 185.1 184.2 183.9 182.6 182.4 182.4 182.7 182.9 182.2 181 179.6 177.7 170 163.5 178.3 179.3 179.3 179.7 173.9 172.8 174.2 176.4 177.3 180.9 182.2 181.9 180.3 179 178.4 178.7 177.3 173.2 166 160 156.2 153.8 150.9 148.7 149.2 146.3 146.5 147.9 151.4 157.3 164.6 171.9 175.5 178.1 180.3 179.5 178.7 177.8 177.7 178 179 179.5 180.3 181 181.5 181.6 182.5 184.3 186.4 187.3 189.4 191.5 193.2 193.8 195.2 195.9 199.1 201.2 204.1 205.2 205.2 203.8 202.3 200.8 198.6 196.1 194.2 192.1 190 187.7 186.4 184.9 180.7 178 173.7 182.5 190.2 191.9 192.3 190.2 188.1 188.3 190.2 189.9 194.5 197.6 201.1 204 208.1 210.8 211.7 213 211.8 211.8 211.4 209.6 209.2 208.9 207.6 207.8 207.2 205 208.2 210.1 212.2 214.9 218.9 222.6 226.8 229 230 231.9 231.2 230.5 230 231 232.7 233.7 237.7 240.3 240.4 241.7 244.8 245.5 249.4 254.5 261 261.4 260.4 256.4 256.3 260.5 262.7 260.8 256.2 253.7 252.3 253.2 254.6 248.6 241.5 235.8 229.6 222.9 218.4 209.8 205.6 202.8 197.2 192.8 188.4 187.4 184.3 181.6
173.9 171.6 175.2 180.1 184 190.1 196.7 204.9 211.2 212.9 209.8 206.5 204.2 203 201.6 201.3 199.5 197.8 197.6 196.7 195.9 195.4 194.6 195.7 195.8 194.6 193.2 191 189.9 188.1 187.3 186.5 184.1 183.6 183.2 183.1 182.7 182.9 183.3 182.9 181.8 181 179.4 176 173.3 168.1 160.1 160.6 172.4 177.4 173.5 173.2 174.2 175.8 177.3 179.7 181.3 181.4 180.7 179.5 178.9 180 179.9 177.1 172.9 166.8 158.5 153.2 149.2 147.3 146 148.7 153.7 159 163.9 167.5 171.9 175.4 177.5 179.3 180.6 180.3 179.5 179 179.3 179.7 180.2 180.9 181.9 182.6 182.5 182 182.2 183.9 185.7 186.6 188.3 189.6 191.4 192.6 194 195.8 198.1 199.3 201.7 203 202.3 200.9 200.2 198.5 197.3 193.9 191.9 188.8 186.4 185.7 185.5 182 177.6 171.7 178.3 185.2 190.9 191.7 191.8 192 194 198.1 195.9 193.8 193.6 195.6 198.7 202.4 209.3 211 210.9 211.1 209 207.6 208.8 204.6 204.3 203.3 202.6 203.4 203.6 206.8 210.6 212.4 213.4 216.8 222 226.3 229.3 230.9 231.9 232.4 233.5 232.9 232.2 232.6 233 233.6 235.4 237.2 239 239.8 242.1 245.5 250.4 259.2 261.5 268.5 264.5 268.8 268 268.1 263.9 261.5 259.2 256.2 255.5 255.8 255.5 251.9 243 239.3 234.6 228.1 220.2 215.5 206.5 202.8 198.6 194.5 191.4 190.5 187.3 182.9
168.7 166.8 170.7 176.1 180.4 184.9 187.2 194 204 210.2 209.3 206.8 205.4 203.6 201.4 198.8 198.7 196.6 194.6 193.2 192.5 192.9 193.8 194.4 194.2 193.8 191.8 190.3 188.7 187.1 185.9 184.8 183.9 184.2 184.3 184.2 184.4 184.6 183.5 182.4 181.4 180.6 179.2 174.2 177.8 175 171.8 160.3 158.2 174.6 172.1 171.7 173.4 174.6 176.4 178.6 180.7 181.2 180.8 179.9 180.3 181.4 180.5 179 175.1 167.9 158.8 151.8 147.8 146.4 151.4 159.3 169.8 172.7 172.8 174.6 175 177.9 179.3 180.2 181.5 181.1 180.6 180.1 180.5 180.9 182.2 182.9 183.8 183.3 183.5 182.4 182.8 183.9 185.4 186.2 186.7 187.8 189.6 190.9 193 195.4 197.7 198.8 199.9 200.9 200.1 198.7 197.4 196.2 194.3 191.9 189.5 186.6 185.1 183.6 183.2 180.1 170.3 177.1 184.7 187 189.7 191.7 191.6 191.2 192.5 194 199.3 196.9 195.4 197.5 199.7 202.2 208.2 209.4 209.5 209.1 205.8 202.8 203.5 202 200.7 200.9 201.4 202.4 204 205.2 208.5 212.2 214.5 219.3 223.9 228.7 232.5 234.3 234.7 236.6 237.7 237.6 235.7 234.4 237 235.5 236.6 237.1 238.2 243.6 247.1 252.1 264.3 266.1 265.6 271.2 275.4 275.3 276.3 273.5 269 261.7 258 256.9 258.1 259.7 259 254.2 245.9 239.9 237 233 225.9 216.4 211.8 205.2 199.4 196.4 194.7 192.1 188.5 185
165 166.3 167.7 171.5 176.3 181.5 183.9 188.4 194 203 210.5 207.9 206.6 204 200.1 197 194.5 192.8 193 193 192.8 190.8 193.1 192.2 192.4 191.9 191.1 189.5 188.4 186.3 184.9 183.9 184.5 185.5 185.5 185.4 185.7 184.4 182.9 181.9 181.6 181 178.9 171.9 177.4 177.1 179.3 172.4 157.5 169.5 170.8 172.6 173.1 175 176.9 179 180.4 180.9 180.7 180.2 180.7 181.7 181 178.4 171.1 162.9 156.3 146.9 144 150.8 159.2 170.3 174.6 176 177.7 177.9 178.1 178.1 179.7 180.7 180.8 181.9 181.6 182.2 182.9 183.4 184.3 184.8 184.9 184.7 184.1 183.6 183.7 184.7 185.4 185.8 185.7 186.9 188.1 190.2 191.9 194.2 196.8 198 198.1 199.9 199.7 197.8 195.9 194.3 192.4 190.7 187.7 184.8 184.2 181.8 181.9 180 169.5 185.5 186.3 187.5 189 191.2 191.5 191.3 191.1 192.8 193 193.4 194.3 195.8 197.8 201.5 204.8 206.4 207.4 207.1 204.8 203.1 202.5 200.9 199.4 199.9 201.3 205.7 209 204.8 207.9 213.6 216.7 221.9 227.2 233.1 233.6 236.6 239.1 241.4 242.7 242.9 242 241.3 239.6 237.3 236.3 237.2 240.2 251.4 255.3 257 265.9 265.4 264.9 263.3 256.4 251.1 255.4 263 268.6 261.2 260.1 258.7 258.8 261.5 262.9 258.8 254.3 245.9 240.1 234.9 230.2 221.5 213.3 209.9 204.4 201.1 197.9 192.3 190.2 185.4
164.3 162.8 165.2 168.8 173 178.6 182.1 185.4 189.4 193.4 202.2 208.4 204.6 201.4 196.6 194.7 193.1 192.8 193.5 192.7 191.7 189.5 190.4 190.5 191.3 191.1 190.3 188.7 187 184.6 183.7 182.9 184.8 185.7 185.9 185.4 184.9 184 182.5 181 180.3 179.7 179.1 170.8 174.6 177.2 178.2 177.7 157.1 162.6 168.4 172.5 174 176.6 178.2 178.3 180 180.5 180.4 180.3 180.2 181.2 180 175.8 166.8 159.3 151.5 143.5 148.7 154.8 161.1 172.6 175.4 177.1 177.4 178.2 178.6 178.6 179.4 180.1 181.8 182.7 183.9 184.4 185.3 185.6 185.7 186 186.1 185.8 185.4 184.5 184.8 185.2 185.4 185.7 185.4 186 187.2 188.5 190.5 193 195.8 196.8 196.9 197.8 198.9 197.5 195.8 193.4 191.5 189.1 185.7 183.5 182.6 179.2 178.6 176.1 168.8 180.6 184.4 186.9 187.6 191.3 191.7 191.8 191.4 192.4 192.9 193.4 193.6 195.1 197.3 200.1 203.3 204.9 205.8 205.2 203.3 203 202.2 200.2 198.6 199.1 201.7 204.4 205.2 206.1 208.3 212.8 217 225 231.4 233.6 237.3 239.5 241.8 244.4 246.4 247.2 247.4 246.3 244.1 241.3 238.2 240.1 249.5 256.7 258.4 255 263.6 264.7 260.2 268.6 264.7 243.8 237.7 266.4 270.5 264.8 260.4 259.7 261.4 263.3 265.8 251.8 261.7 252.9 244.4 235.9 230.8 225.5 218.7 211.2 208 204.2 199.1 193.8 190.6 187.6
168.2 161.8 156.8 164.8 168.9 173 178.8 183.7 185.8 187.8 192.9 201 199.1 198.1 196.8 195.3 194.7 192 190.4 189.7 189.3 188.9 190 189.1 189.3 188.9 187.6 186.1 184.6 183.5 183 182.9 184 184.3 185.5 184.7 185.8 183.7 182.2 181.3 180.4 178.6 177.2 171.1 167.3 175.7 175.9 175.4 164.8 157 171.9 173.2 176.8 179.4 179.8 178.9 179.1 181.1 180.4 179.7 179.1 178.4 175 169.2 162.5 155.1 144.8 145 153.6 162.1 172.8 173.5 175.7 175.9 177.2 179 179.9 181.2 180.9 180.6 182.8 185.2 185.3 185.8 186.2 186.4 186.7 186.6 186.2 185.9 185.4 185 185.1 184.5 184.8 184.8 184.7 185.1 186.1 187 188.8 191.7 194.5 195.7 195.7 196.5 197.4 196.6 194.6 192.3 189.5 186.2 184.4 181 180.4 174.8 167.8 167.2 174.4 180.8 183 185.7 187.5 189.4 190.8 191.4 191.3 192.8 193.9 193.6 193.7 195.8 198 201.6 206.3 207.8 206.6 206.4 204.9 204 202.5 201.3 198.3 198.8 201.7 202.8 204.4 206.6 210.1 212.9 217.5 226.4 231.5 238.1 240.8 242.2 244.5 246.8 249.6 251.3 251.7 250.7 248.1 246.5 243.8 246.9 251.3 255.6 260.4 263.1 263 260.3 256.6 238.2 241.4 235.9 239.1 257.9 272.6 269.3 264.2 261.6 262.7 263.8 263.1 257.3 260 255.6 249 240.8 230.7 226.4 220.4 215.7 209.8 205.5 198 195.1 193.1 188.2
170.4 167.2 165.1 152.6 154.5 163.8 169.7 174.3 176.6 179.3 186.3 196.1 197.5 194.9 195.4 195.8 193.5 191.9 188.7 187.1 187.2 187.3 186.6 187.4 186.4 186.3 184.7 184.2 183 182.8 181.6 181.4 181.4 182 183.2 184.3 184.6 183.3 182.5 181.6 180.7 179.6 176.1 171 168.4 163.5 173.9 162.6 154 164.8 172.7 176.5 179.6 180.6 180.5 179.7 178.8 179.4 179.5 179.5 179 177.8 173.7 166.7 159.4 152.4 139.2 149.5 163.1 173 175.7 175.4 176.1 176.9 177.8 179.2 181.6 182.9 183.4 183.5 183.1 184.2 185.4 186.4 186.2 186.5 187.3 186.3 185.9 186.5 185.1 185.5 185 184.5 185 184.9 185.2 185.2 185.5 186.4 187.6 190.3 193.2 194.9 195.1 195.7 196 195.2 194.2 191.4 187.7 183.5 179.1 173.1 171.2 164.5 168.5 174.7 178.3 183.1 186.3 189.7 193.7 193.6 193 192.5 193.9 197.3 199 197.6 196.9 197.1 199.2 203 206.5 207.4 206.6 206.5 205.6 204 202.9 201.5 197.3 199.9 203.3 204.6 206.2 207.9 211.4 214 220.2 227.8 234 240.2 243.6 245.5 246.5 248.6 252 255.1 255.1 253.5 251.2 249.5 247.1 251.3 256.7 256.8 257.7 259.7 263.8 266.2 254.2 218 226.6 227.2 221.5 246.2 274.2 271.3 267.4 264.9 265.1 265 262.8 259.4 255.3 252.9 249.1 243.2 235.7 228.8 222.4 216.7 213.6 209.6 195.8 198.3 195.7 192.5
175.1 170.9 166.9 161.4 148.6 147.5 159.6 164.1 167.1 169 178.6 187.3 191.7 192.7 192.9 192.8 191.7 190.5 188.1 185.3 184.4 184.8 183.6 185 184.6 184.7 184.2 183 181.8 179.9 181 180.2 181.1 182.4 183.8 184.3 184.8 183.6 182.9 182 181 179.4 177.9 175.4 172.3 166.9 161.7 151.2 163.7 171.8 176.6 178.9 179.7 180.5 180.8 180.2 179.4 178.7 178.7 178.8 179.2 179 176 167.1 158 150.7 137.2 157.5 174.4 177.9 176.9 176.5 177.3 178 178.4 179.3 182 183.4 184.2 185 184.7 184.1 185.4 186 186.4 186.8 186.6 186.1 185.8 185.6 185.8 185.5 185 184.6 184.7 185.4 186 186 185.6 185.7 188.1 190 192.2 194.2 194.8 195.5 196.1 194.4 193.2 190 185.4 179.1 165.1 160.4 165.2 174.3 176.2 176 177.5 184.4 187.2 191.2 194.5 194.6 195.8 198.8 197.4 197.6 199.6 198.8 199.1 198.7 200.4 205.1 209.2 209.3 208.1 208.2 206.4 205.2 203.2 201.3 197.8 201.1 203.9 205.6 208.1 209.5 211.1 214.4 220.2 227.9 233.5 238.9 243.5 246.1 247.4 249.3 252.2 255.3 258.6 256.4 253.8 251.8 250.6 251.1 256.8 257.7 255.1 256.2 257.8 263.6 256.9 212.8 208.7 214.6 214.6 256.1 276.2 272.1 268.7 268.5 267 265.1 263.6 256.3 252.5 247.9 245.7 242.6 240 232.7 226.4 219.4 215.7 209.9 195.8 199.6 198 193.9
181.5 177.1 172.3 167.3 161 149.2 146.8 152.6 156 158.6 168.2 178.9 185.6 189 190.8 191 190.5 188.3 185.9 184 183.4 182.5 182.1 182.2 182.5 183.3 183 182.5 181.8 180.9 180 181.1 182.1 183.3 184.3 185.1 184.1 183.2 182.2 182.3 180.5 178.9 178 176.5 174.7 168.2 165 146.4 164.7 176.4 179.3 180.2 180.4 181.3 180.6 179.8 179.3 178.8 178.3 178.6 178.8 178.7 175.6 164.8 157.2 146.3 137.2 158.8 175.6 178.4 178 177.7 178 178.3 178.7 179.5 181.8 183.5 185.3 185.7 186.1 185.9 185.6 185.7 185.3 185.2 185.8 186.2 186.1 186.1 185.8 185.8 185 185.8 184.7 185 185.6 185.4 185.4 186.1 187.7 190.4 192 194.1 195 195.7 196.6 195.7 194.1 190.7 178.4 162.3 160.5 167.2 172.3 172.5 176.6 175.2 177.4 184.7 187.4 190.1 193.2 192.6 192.5 194.2 194.7 196.8 199.9 199.5 198.3 199.3 201.3 206.3 210 210.1 209.2 208.2 206.5 205.4 204.9 203.2 197.2 202 204.6 206.2 209 210.6 212 214.3 218.7 226.8 232 238.2 241.7 244 246.6 249.4 252.4 254.8 260.4 260 255.7 254.3 251.9 250.3 253 253.6 253.4 254.5 255.3 260.4 269.4 237 208.7 232.1 242.1 269.5 278.1 274.2 271.5 270.2 269.6 265.6 262.9 255.2 249.9 248.3 242.6 239.1 236.1 232.9 230.5 224.1 218.3 211.2 203.9 195.8 196.6 195.9
189.3 183.2 178.4 173.4 169.3 162.2 143 138.9 145.3 147 158.5 169.5 180.6 186.2 188.9 188.9 187.8 186.6 183.9 182.3 182 181.7 181.8 182.4 183.3 184.8 184 182.6 183.1 182.9 182 181.7 181.4 182.9 184.2 184.1 183.2 182.3 181.5 181.1 179.5 178.3 177.4 176.3 173.5 166.9 155.1 142.8 169.1 177.2 179.7 181.3 181.9 182.1 182.3 181.2 179.7 179.3 177.3 178.7 179.7 179.1 177.2 165.6 155.6 142.8 138.6 161.4 178.9 179.4 178.3 178.2 178.3 178.6 179 179.8 182 183.5 185.2 186.4 187.2 186.4 186 185.1 183.4 184.2 184.8 185.3 185.5 186 186.8 186.6 186.4 186 185.9 185.1 185 185.4 186.1 186.3 188.7 191 192.9 193.4 195 196.1 197.2 196.4 193.6 188.2 173.7 160.8 169.7 175.1 176.7 176.4 175.2 173.3 173.5 184.9 187.1 190.3 192.8 193.3 197.2 195.3 195 196.7 199.4 198.5 198.9 200.7 201.9 205.9 209.8 208.8 207.6 205.7 204.3 204.3 204.9 203 197.3 201.3 204.7 206.5 209.7 211.8 212.7 214.9 221.3 225.6 231 235.5 238.8 241.2 244.2 247.3 250.8 253 256.9 262.4 258.2 255.5 253.1 250.9 250 251 249.7 249.6 251.5 254.1 260 270.4 248.8 253.7 282.2 283.4 280.5 277.5 274.5 271.8 269.2 265.5 261.6 254.4 247.4 247.4 243.6 238 234.6 230.5 229 224.7 218.4 212.4 208.1 199.5 194.8 192.6
197.4 190.6 184.8 179.3 172.2 167.5 152 137.3 131.3 135.7 145.5 161.6 175.5 182.9 186.7 187.7 186.5 185.3 183.4 182.3 180.9 181.6 182 183 183.7 184.6 185.5 185.1 183.7 182.3 182.5 181.5 181.2 182.1 183 183.3 182.5 181.6 180.9 180 178.4 177 175.9 174.1 171.7 165.1 145.4 150.2 170.9 175.9 179.4 181.7 182.9 183.3 182.9 180.9 179.6 178.1 177.5 178.1 179 178.5 174.4 165.5 155.3 143.8 136 155.4 176.7 179.8 179 179 179 178.8 180 181.3 183.1 184.9 186 186 186 185.2 184.4 184.4 183.8 183.2 183.3 184 184.8 185.3 187 187.9 187.5 187.9 187.2 187 186.6 185.4 186.7 186.5 188.2 191.1 192.4 192.9 193.9 196.4 196.7 196 193.1 187.4 170.5 158.2 165.4 184.1 189.7 190.8 185.9 175.6 174 182.8 186.2 187.8 192 197.3 200.1 204.3 203.5 201.6 200.6 199.9 202.6 204.2 205.8 208.8 211.6 209.3 207.1 204.6 202.6 201.9 202.6 198.7 195.1 202.3 205 206.7 210.5 211.9 212.8 214.3 220.1 223.3 228.5 232.6 235.6 238.3 241.8 244.7 247.6 250.7 254.3 259.8 261.2 257.4 254.8 252.1 250.5 249.7 249 249.1 249.5 250.2 254 261.3 268.9 268.2 280.8 281.6 284.4 263.9 260.2 269.7 262.6 254.3 259.3 250.9 244.7 242.7 242.1 239 234.8 227.3 225.3 221.3 217.4 212.2 205.6 201.3 198.9 196.5
204 197.6 190 182.7 175.5 167.8 162.6 143.6 137.6 128.4 134 150 165.8 176.9 181.3 183.2 184.5 183.9 182.2 182.4 182.3 183 183.2 184.7 185.5 185.5 184.8 183.7 182.3 180 182.3 182.8 182.5 182.5 182.4 182.6 181.7 181.3 180.9 179.5 178.7 177.5 175.3 173.6 169.9 159.4 136.7 151.8 170.9 176 179.3 181.7 183.6 183.4 182 180.6 180.1 178.3 176.1 176 178.1 176.1 174.1 167.2 154.3 144.5 136.6 148.7 170.4 178.4 180.1 180.1 180 179 180.9 182.8 184.6 185.7 185.9 185 184.7 184 183.2 182.3 182.5 182.9 182.6 183.6 184.1 185.7 187.6 188.6 188.7 189.2 188.6 188.3 187.4 187.5 187.5 186.8 187.6 189.6 191.9 193.1 194 194.8 195.3 194.5 192.6 186.8 171.2 156.5 166.3 185.5 194 196.9 196 193.9 183.2 180.4 184.4 186.3 187.8 190 196.2 202.3 204.7 204.5 204 202.8 203.8 206.3 207.9 210.3 212.8 211.5 207.6 204.7 201.9 200.1 199.5 194 199.7 203.8 204.8 207.3 208.9 211.2 211.7 213.3 218.6 221.8 225.9 228.5 231.7 235.1 238.9 242.3 245.1 247.4 251.5 254.8 258.6 258 256.2 253.1 251.4 251.1 249.9 249.4 248.8 249.5 249.8 255.5 264.4 269.4 275.2 281.4 277.2 253.1 245.1 266.2 261.8 253.6 257.5 250.6 241.9 238.2 240.4 239.1 234 226.4 219.8 217.4 214.5 212.4 205.3 206.9 202.1 197.6
210.1 201.3 191 182.9 175.4 165.1 156.4 150.2 139.8 133.3 121.2 138.2 155.2 170.7 176 178.9 181 182.8 178.9 183.3 183.3 184 184.9 185.6 184.3 183.7 182.5 181 181.1 180.9 180.6 182.1 182.7 181.7 181.2 181.7 182.7 182 182.4 181.2 180.3 178.7 176.1 172.8 156 152 129.4 156.7 173 177.4 180.1 182.7 184.4 182.4 184 182 180.5 178.6 177.5 175.5 176.5 177 175.9 166.8 155.4 142.5 135.5 144.7 168.4 178.2 180 180.6 180 179.6 180.8 183.4 184.6 185.1 184.5 184 183.4 182.7 182.2 182.1 182 182.1 182.2 183.6 185.4 186.3 187.3 188.5 188.9 188.9 188.9 188.3 188.2 188.2 188 186.8 187.2 188.7 192 192.5 193.1 193.9 193.4 193 192.2 185.9 170.1 157.1 160.3 173.8 189.7 198.8 202 202.5 195.5 186.1 185.4 185 185.3 186.6 187.8 191.5 196.9 201 202.7 202.3 201.8 202.3 204.5 208 210.3 209.7 206.5 201.6 199.2 196.4 193.2 192.8 199.1 202.1 203.9 205.8 207.3 209.2 211.2 213.6 216.3 219.9 223.4 225.4 227.3 231.3 235.6 239.4 243 245.7 249.6 254.6 259.1 259.4 257.4 255.3 254.4 253.3 251.1 249.7 249.8 250 250.8 254.3 259.3 264 271.3 281.1 271.7 257.4 253.1 247.7 245.7 238.4 246.2 248.3 240.8 235.7 233.7 235 232.2 222.8 216.6 213.2 212.7 210.7 208.5 208.9 204.8 200
213.2 201.7 190.9 177.3 169.4 160.8 151.2 143.2 134 129.8 124.1 125.3 142.6 158.5 168.1 174.4 177.3 177.6 182 182.7 183.6 183.7 183 182.7 181.8 181.3 182.3 181.3 181.4 181.3 180.4 179.8 180.4 180.8 181.1 180.8 180.6 180.5 183.1 182.2 180.4 178.5 176 170.7 152.7 127.9 140.8 161.9 174.4 177.8 180.8 183.1 183.3 182.1 182 181.3 179 177.9 177.1 175.4 173.8 173.6 170.6 166.3 151.2 139.4 133.5 142.5 161.2 172.2 177.5 179.2 179.7 180.3 180.9 182.2 183.9 184 183.7 183.1 182.3 181.9 181.9 181.8 181.6 182 182.3 184.8 185.7 186.6 186.9 189.2 189.6 190 189.5 189 188.9 188.9 188 187.9 187.2 188 190.8 191.5 192.1 192.6 192.1 191.8 190.3 185.9 173.4 158.2 152.3 172.1 180.1 196.5 203.4 205.2 204.6 201.5 191.7 187.7 185.6 184.7 185.3 186.9 189.2 191.9 198.1 202.3 200.4 198 200 203.8 207.9 206 202.7 198.3 194.7 190 193 196.4 198 199.6 200.2 202 206.3 209.9 211.2 213.5 217.1 219.2 219.9 220.6 224.4 227.4 231.1 235.7 240.6 244.4 250.8 255.6 261.6 265.4 262.6 259.9 260.4 258.6 255.2 251.3 250.7 251.8 254.8 256.1 257.6 261.2 267.3 275.4 276.1 263.6 263.4 262.6 237.9 244.7 253.8 248 241.2 235.5 230.5 230.4 225.5 217.3 214.6 212.6 209.2 209.2 210.1 208 206.4 202.9
214.6 203.6 185.3 172.4 165.7 158.2 147 139.9 129.6 125.8 122.2 116.1 128.2 137.6 137.8 151.3 173.8 176.9 178 179.2 179.4 179.1 179.3 179 180.5 181.1 181.8 180.6 179.1 178 178.2 178 178.6 179.3 179.3 178.4 177.9 178.8 180 179.6 178.1 177.2 174.2 168.1 147.2 119 137.7 163.4 174 177.4 180 181.4 181.3 181.2 181.3 181 180.2 178.8 179.6 178.6 176.1 170.9 168.6 159.2 149.8 137.5 132.6 144.6 161.7 172.6 176.5 179.2 179.5 180.3 181.6 181.6 182.1 182.3 181.7 181.3 180.6 180.7 180.8 181.2 180.9 181.6 183 184.1 185.2 186.1 187 188.4 190.1 189.9 190.2 189.4 189.4 189 188.7 188.4 188 186.7 188.7 190.2 191.4 190.9 190 190.3 187.3 184.3 177.5 161.2 151.9 158.9 175.9 192.4 200.3 205.3 206.2 207.7 205.3 197.3 192.7 187.3 185.4 185.5 187.2 188.9 192.4 193.9 192.9 193 195.4 199 205.1 203.5 199 194.7 188.7 193.4 198 199.7 202.4 203.7 202.6 202.4 203.5 205.8 208.4 210.9 216 216.9 222.5 221.7 224.3 226.9 229.9 233 238.8 244 248.9 254.9 259.7 263.5 264.4 262.6 263 262 259.5 255.8 251 252.5 255.7 258.3 259.7 259.7 263 271.1 280.4 274.6 279.1 251.6 241.7 239 258.1 247.1 241.2 236.1 229.8 225.1 222.2 221.3 216.6 213.3 214 211 209.6 206.5 205.2 203.6
211.8 195.8 180.5 174 164 155.5 145.1 135.2 128.9 126 123 118.1 114 126.8 145.9 162.2 170.3 173.9 175.1 175.6 175.6 175.1 175.2 175.7 177.7 178.7 178 176.1 175 175 175.3 176.9 177.3 176.9 176.1 175.1 173.5 173.6 175 175.8 176 175.6 167.7 148 122.8 114.2 142.8 164.8 173.8 176.7 179.8 180.3 180.3 181 180.5 180 179 178.1 178.2 178.3 177.1 173.4 169.2 166.9 154.8 135.4 130.5 140.9 161.9 170.5 177.6 179 179 180.5 180.3 180.2 180.1 180.4 180.1 180.2 179.6 180.3 180.6 181.5 181.6 181.6 183.3 184 185.1 185.9 186.8 188.3 189.8 190 190.8 189.5 189.1 188.8 189.6 189.5 188.5 186.6 187.4 188.8 189.1 189.1 187.8 187.5 185.8 182.4 177.1 168.1 154.4 149.5 166.9 187 194.2 198.1 201.8 204.2 203 201.2 199.5 191.6 187.5 185.9 185.1 186.5 189.1 190.7 189.8 190.2 191.5 195 198.4 198.1 193 188.4 189.7 195.2 199.4 201.8 203.7 206 207.7 208.9 207.6 207.8 210.6 215 214.5 216.9 224.1 224.7 227 229.7 232.2 236.8 240.5 244.6 248.8 254.1 256.7 259.2 260.7 261.2 262.5 262 259.9 256.1 251.1 251.1 253.4 255.9 260.4 261.7 260.9 265.3 272.9 277.4 253.5 245.4 240.8 246.5 258.3 246.5 240.6 239.1 229.8 232.7 224.9 220.8 216.3 216 216.1 216.2 212.5 209.5 209.3 204.3
209.4 188.9 179.7 172.1 163.2 146.9 144.6 139.4 133 131 127.8 123.5 114.5 109.6 130 149 163.6 171.5 172.4 172.4 172 172.4 172.5 172.8 174 174 172.6 171.7 172.6 173.6 174.3 174.6 175.5 174 172.5 171.1 168 166.7 170.5 171.3 171.8 169.3 159.6 133.8 109.8 124.9 148.7 167.8 173 175.9 178 179.8 179.7 179.6 178.2 177.2 176.6 176.5 177 177.5 178.2 177.2 171.1 165.2 143.6 133.4 131 131.8 140.3 152.4 158.1 165.4 174.7 176.7 178.2 179.6 180.6 181.4 182.1 181.8 181.9 182.3 182.9 183.5 183.6 182.2 183.5 184.7 185.4 186.1 186.8 188.3 189.7 190.7 190.7 189.6 189.1 189.7 190.2 190.6 189.4 186.1 184.4 185.4 186.5 186.5 186.4 185 183.6 180.5 177 171.3 158.6 147.6 165.2 184.5 190.1 193.3 196 198.4 197.7 198.7 199.6 195.9 190.3 187 184.8 184.8 185.8 186.9 187.2 188.4 189 190.5 192.4 189.6 185.6 187.4 192 195.8 199 202.1 204.8 206.9 208.4 210.4 211.2 211.4 213 215.8 219.6 221 223 226.6 228.9 231.9 235.5 239.2 242.3 245.5 248.4 252.5 255.7 257.8 258.4 258.7 260.8 260.1 257.8 255.3 250.5 250 252.9 257.5 262.4 265.5 263.1 262.9 266.6 274.5 266.3 270.1 254.5 240.9 243 246.1 240.6 235.3 231.5 234.1 227.3 225.1 218.5 216.3 219.7 222.7 215.8 210.9 209.7 203.8
198.6 188.1 180.5 171.8 158.2 155.7 151.4 148.1 144.2 138.2 130.3 125.8 122.1 117 104.3 133.3 152.3 163.6 168 168.3 168.8 170 169.7 169.2 169.4 169.3 169.2 169.9 171 172.1 172.3 172.5 170.9 169.7 167.3 163.9 160.6 156.1 162.2 166.3 166.6 163.2 147.8 121.7 108.8 132.8 159.4 169.1 170.3 174.8 177.4 180.2 180.4 178.5 177.3 175.4 174.4 174.8 175.5 176.7 177.3 176.5 171 163.2 147.8 133.6 129.7 134.7 143 149.5 158.1 172.7 177.2 178.5 179.6 180.8 182 182.7 183 183.8 184.4 184.4 184.9 184.9 183.9 183.7 182.4 183.5 184.7 185.9 187 188.2 189.7 191 190.8 190.6 189.4 190.1 190.2 190.1 188.6 186 183.8 182.9 183.7 183.9 184.5 183.2 181.4 179.3 175.8 164.6 149.6 146.3 164.6 180.4 186.1 189.4 191.7 194 194 194.7 197.4 199.4 195.8 188.3 185.4 183.7 184.4 184.7 185.7 187.8 188.1 188.4 188.6 184.9 184.8 188.2 192.7 195.3 198.6 202.2 206 207.9 209.5 211.5 213.5 215 215.7 217.2 219.3 221.7 224.7 229.3 230.8 233.4 237.1 241.1 244.5 247.3 250 252.6 256 257.4 257.5 257.2 259.1 258.8 256.6 254.2 250.1 249.5 255 259.9 264.6 268.6 268.6 263.8 264.4 268.5 272.3 267.5 261 255.9 253.6 244.6 240.4 235.2 232.7 235 230.6 228.7 225.8 223.2 224.4 223.4 219.7 213.7 206.7 203.4
196.3 188 179.8 172.8 169.6 166.8 163.4 157.9 150.7 145 137.8 128.2 122.6 114.8 105.2 112.9 135.9 148.8 156.7 166.3 165.4 167.4 166.9 166 166.4 166 167 168.4 169.3 170.3 169.1 168.1 166 164.3 159.8 153.3 150.4 142.3 153.4 157.7 158.4 151.8 135.7 112.2 109.7 136 163.2 166.5 169 172.5 174.1 179.1 179 178.1 176.5 174.9 173.4 173.1 174.1 175 175.2 176 173.3 163.5 153 143.4 128.8 133.4 140.4 148.3 159.6 173.3 176.1 178 179.5 180.1 181.1 181.2 181.4 181.3 182.3 183.7 184.4 183.4 183.3 183.4 182.4 182.4 183.9 185.4 186.9 188.5 190 191.4 191.4 191.5 190.8 190.1 189.9 189.5 188.3 186.6 183.5 181.5 181.2 181.6 181.3 181.1 180.5 177.5 165.1 146.4 151.9 159.8 178.8 181.3 183.3 184.8 186.6 189.5 189.6 190.6 193.6 195.6 196.5 190.4 186.2 183.5 184.3 184.5 184.5 184.9 184.8 185.6 184.2 183.5 187.6 190.3 192.7 196 199.6 204.1 207.8 209 211.2 213.4 215.6 216.7 217.3 218.4 220.3 222.8 227.7 231.3 233.8 235.9 239.2 242.6 245.8 248.2 250.6 252.6 255.2 256.1 256.3 255.7 256.8 257.6 256.4 252.8 249 249.9 256.8 261 266.2 269.4 268.2 265 260.3 260.6 260.9 263.9 256.6 253.5 249 247 240.8 237.2 236.8 235.2 232.1 231.7 231.6 231.3 229.3 225.5 222.4 217 212.1 210.4
197.9 190.7 186.5 185.4 181.9 178.4 172.6 166.6 157.7 150.4 145.2 134.8 123.6 111.7 105.3 98.6 120.6 132.3 144 151.8 158.7 163.1 163 162.7 162.4 163.9 163.3 165.1 163.8 163.6 162.6 160.8 159.4 157 151.2 141.9 138 131.6 132.7 140.9 143.5 133.2 120.6 106.2 113.4 138.1 160.4 165.5 169.2 171.1 174.2 174.5 175.9 176.1 174.1 173.7 171.9 171.9 172.4 172.4 172.7 174.2 167.1 150.1 132.7 128.7 130.5 134.1 138.8 147.3 162.9 172.6 175.3 177.2 177.8 178.9 179.2 178.9 178.8 180.1 181.1 181.9 182.5 182.9 182.8 182 182.3 181 183 184.4 185.8 187.7 189.3 190.9 192.3 192.4 191.1 189.6 189.7 188.7 187.8 185.8 182.9 180.9 180.3 179.2 179 177.4 176.6 174.1 158.8 141.8 152.4 164.7 178.9 179.6 178.6 177.8 177.9 181.1 184.6 187.6 188.9 190.7 195.8 192.4 186.4 183.6 182.9 183.6 182.6 181.5 180.6 181.4 180.8 186.2 190.2 193.1 196 199.6 202.5 206.5 209.8 212 214.8 216.3 217 218.3 218.5 219.7 221.9 225.7 232 234.3 237.8 240.1 243.1 245.8 248.1 250 252.4 254 255.5 255.9 255.7 254.9 255.2 253.9 252.7 252 248.1 251 255.4 260.5 264.4 265 265.3 264.1 260.5 256.5 254.7 252.3 251.2 252.4 252.1 254.4 247.1 242.5 239.7 242.8 238.3 236.4 235.2 234.1 230.3 229 225.8 220.4 216.2 213.9
199.4 197.5 196.4 194.8 192.2 186.8 179.2 173.5 165.3 157.1 150.1 135.5 123.1 115.2 103.9 99 105.2 118.9 128.6 136.9 144.8 152.8 155.6 154.1 154.6 155.7 156.4 157.4 156.9 156.4 156.1 154.9 153.2 150.5 149.3 142.4 124.9 115.3 114.4 107.2 107.8 108 103.5 109.5 124.4 138.9 157.4 165.6 168.6 170.8 171.9 173.2 174.2 174.6 173.7 172.8 172.2 172 171.4 172.2 170.5 169.2 159.7 135.9 128 129.1 130.8 133.4 139.5 145.2 163.9 171.5 174.3 176.7 177.7 177.8 177.9 178.6 179.5 179.2 180.2 182 182.9 182.8 182.8 182.1 181.2 180.3 181.7 182.7 184.4 186.2 188.6 190.3 191.6 192.9 191.7 191.1 189.8 188.6 186.8 185.2 183.3 181.7 180 179.7 178.6 176.8 173.1 159.9 145.2 139.4 152.8 172.3 180.1 177.6 174.9 174.7 176 177.9 182.4 185.4 186.5 187.1 190.9 192.2 186.5 183.4 179.8 179.2 177.5 176.9 177.4 178.1 182.3 188.1 191.5 195.4 199.8 203 205.6 208.7 210.3 212.8 216.2 217.7 218 220 220.6 221.1 223.9 230.4 233.7 237 240.1 243.4 246.2 248.3 250 251.9 253.8 255.5 256.6 255.5 255.4 254 253.1 253 251.3 250.4 247.2 252.6 255.5 257.9 261.4 264.2 265.6 264.1 262.1 257.2 253.9 251.7 254.4 257.9 259.8 257.8 252.7 247.9 246.5 244.7 245.5 242.4 238.5 237.4 234.2 230.7 229.2 225.2 220.4 214.5
209.6 207.4 205.1 202.1 197.4 190.1 182.5 177.3 171.5 162 153.2 137.1 121.6 113.5 107.1 100.5 94.1 110.4 115.7 121.4 130.9 139.5 143.6 143.4 144.9 146 146.5 148.1 148.7 149.9 150.8 150.2 149.3 146.1 144.2 141 122.2 111.6 99.7 102.5 108.6 105.4 109.8 121.5 131.8 150.3 160.7 164.9 166.7 169.4 171.5 173.2 173.1 173.4 172.2 172.1 171.9 171.2 171.9 172.5 169.9 163.2 149.1 128.5 127 128.3 131.5 135 138.9 142.9 158 170.7 173.2 175.2 176.8 176.9 177.9 178.8 179.7 179.6 179.8 180.4 181.2 182.1 182.1 180.9 178.8 179.8 181.4 182.8 184.5 186.2 188.1 190.2 191.8 193.4 192.8 191.5 190.3 189.1 186.7 185.8 183.4 182.2 179.4 178.9 178.7 175.7 168.1 146.3 135.6 140.9 158.4 167.8 172.7 171.4 172.8 172.8 175.3 179.6 184.4 183.7 181.7 181.9 186.7 185.3 185 182.7 179.2 178 177 176.8 176.7 177.6 181 187.7 192.5 196.3 201.1 204.2 208.3 210.1 210.4 212.6 215.6 216.8 218.6 220.3 221.2 222.2 228.6 232.1 235.5 239 242.3 245.5 247.2 250.3 252.5 254.4 255.7 256 256.7 256.2 254.5 253.6 252.6 251.4 251.4 249.6 247 254.5 258.4 257.8 261.8 264.6 270.2 271.1 268.4 262.8 257 254.1 260 265.7 266.7 261.4 258 254.7 251.5 249.7 250 248.3 242.6 238.3 236.9 233.8 230.7 227.2 222.4 216.3
214.6 212.7 209.2 204.6 199.8 193.5 186.6 179 170.9 161.9 151 136.2 123.7 113.4 105.8 100.5 94.7 94.9 101.7 105 112.7 120 125.6 126.8 130.5 132.4 134.5 136.8 140.9 142 143.5 142.9 142.3 141 137.8 134.1 125.2 109.1 98.2 113 127.7 124.8 124.6 130.9 143.4 155.8 159.2 161.1 163.6 166.3 170.2 171.5 171.3 171.1 171.5 171.8 171.3 170.9 170.8 173.1 171.4 157.9 135.9 126.4 126.8 127.1 134.3 150.7 151.2 154.3 149.4 155.2 168.2 174 174.4 176.2 177.5 179 180.1 180.3 180 179.6 179.5 180.2 180.3 179.2 179.1 181.5 183.1 183.7 185.7 186.9 188.1 189.5 191.4 193.2 193.1 191.9 190.5 189 186.2 184.3 182.9 181.7 178.6 177.3 176.5 163.1 149.1 134.6 139.8 138.3 144.4 152.7 168.3 170.4 170 165.9 177.1 182.2 182.6 180.3 178.4 177.4 179 179.5 181.8 181.9 181.6 178.8 176.9 176.9 176.8 176.8 177.4 185.4 190.6 195.1 202 204.9 208.8 210.5 210.5 212.2 214.4 217 219 219.6 221.9 223.9 229.2 232.3 237.6 240.3 243.1 246 249.5 252.9 254.2 256.3 257.8 257.6 256.7 256 254.6 253.6 253.2 252.2 249.9 247.1 246.5 254 265.7 267.7 266 264.6 266.1 273.6 274 270.2 263.2 258 264.6 269.5 267.6 265.1 263.3 260.3 256.8 253.4 251.4 251.6 251 243.2 238.3 234.7 229.8 226 221.7 216.7
218.8 215.2 210.7 204.4 198.8 191.3 183.1 171.9 162.6 155.2 145 136.2 126.7 114.7 105.4 97.8 93.4 89.9 87.8 91.7 96.7 106.4 112.3 110.3 115.4 117.1 122.2 124.9 130.1 132.7 133.4 131.5 130.5 130.7 129.9 126 118 93.5 107.3 121.3 134.2 137.6 138.1 141.2 146.9 150.4 154 156.4 158.5 162.4 167.5 169.4 169 168.8 169.2 170.2 172 171.5 172.2 174 170.9 156.4 131.6 126.2 126.3 126.5 137.1 155.3 162.3 163.5 165.8 166.8 161.5 167.2 173.3 175.5 177.3 179.2 180 180.4 179.8 180.9 180.3 180 179.3 178.1 180.1 182.9 183.8 184.9 186.1 187.3 188.3 190 191.3 193.2 193.4 192.2 190.6 188.4 185.8 183.7 182.1 179.2 174.3 171.5 158 148.2 134.8 139.1 145.8 147.8 142.4 144.2 152.3 157.3 160.7 163 180.2 181.9 181.6 180.4 177.6 174.9 175.1 178 180.6 181.4 182.2 181.9 177.4 177 176.8 176.6 177.9 182.4 188 194.7 200.4 205.8 210.6 210.2 210.6 212.9 215.3 219 220.5 220.2 219.6 223.6 230.2 233.2 236.8 239.2 242.8 246.7 250.1 254 256.9 257.6 258.7 258 257.8 256.2 255.2 254 253.4 253.1 250 247.3 245.9 249.6 265.4 278.9 279.4 268.5 269 269.9 272.2 271.1 266.8 262 260.3 266.9 265 265.6 265.9 264.8 261.6 259.7 256.4 253.8 249.4 246.1 239 237 231.5 227.2 225.2 221.1
218.8 213.6 206.5 200.3 191 180 172.1 162.7 155.6 147.1 138.5 130.3 121.4 113.2 107.8 101.2 95.5 92.9 86.5 88.3 91.9 105 104.8 100.1 100.6 103.7 109.4 113.9 116.6 121.1 118.3 118.3 118.5 116.5 118.3 120.1 112 94.4 115.5 124.4 129.8 133.6 134 135 139.9 145.5 148.3 146.9 152.2 157.5 163.1 166.3 167.2 167 168 170 172.3 171.3 171.6 172 170.8 154.6 133 126.3 125.8 126.6 133.1 148.3 164.1 167.5 168.7 169.7 169.3 170.5 172.9 175.6 177.1 178.6 179.7 180.9 181.4 181.5 181.5 181.5 180.9 178 178.5 181.5 183.5 185.1 186.1 188.1 188.9 189 190.4 192.7 193.3 192.6 190.8 188.7 185.9 183.2 182 176.9 164.5 158.2 145 135.8 136.3 145 159.5 168.4 157 148 146.7 147.4 158.2 173.7 181 180.2 181.9 181.8 180.2 176.1 174.8 177.4 180.3 181.6 181.6 177.6 178.4 179.2 178.2 178.7 179.1 181.2 186.3 192.5 199.6 204.7 208.5 209.9 210.9 213 216.7 221.3 222.5 221.8 220.2 225.1 229.5 232.9 235.7 239 243.3 247.1 251.4 255.1 258.8 259.4 261 260.7 259.8 259 257.7 255.6 253.5 253.1 249.7 247.5 245.5 247 259 276.4 278.5 273.1 278.7 280 278.4 274.9 269.4 264.8 258.9 259.5 262.2 265.2 267 268.4 269.2 266.1 262.9 256.7 253.2 247.8 245 238.4 234.4 229.8 226 223.6
215.6 206.6 197.5 185.4 174.3 164.1 158 152.6 145.9 136.8 129.2 122.3 114.9 110.7 105.8 105 101.8 95.6 91.7 84.2 82.8 93.1 96.7 92.4 92.4 96 98.6 103.6 104.8 106.5 106.4 108.9 111.3 113.9 114.9 115.2 113.7 96.8 103.9 117 129.2 127.4 127.5 129.3 134.5 141.3 142 141.3 146.5 152.2 155.7 161.1 161 165.2 167.6 169.1 172.2 171.2 172 171.5 167.4 152.9 135.8 125.6 126 126.6 129.5 142.9 161.3 169.4 171.5 172.2 172.4 172.7 174.5 175.4 176.9 178.4 179.2 180 181 181.7 182.4 182.6 182.1 179 176.5 178.9 182.1 185.2 186.6 189 190.2 191.1 191.4 192.5 193.6 192.9 191.9 189.6 186.5 184.3 182.9 174.5 157.4 143.5 135.6 133.3 140.7 152.3 168.5 171.8 171.2 160.8 155.2 148.4 158.4 180 181.9 181.5 181.7 182 181.4 174.3 172.8 175 178.5 177 175.6 178.1 180.7 183 183.8 183.8 183.5 184.5 184.8 190.1 196.7 201 204.8 208.9 210.6 211.9 216.2 220.7 222.9 220.9 219.8 224.2 227.5 231.7 235.6 239.3 243.2 247.1 252.5 256.5 260.9 262.3 262.9 262.6 261.2 259.3 257.6 255.8 254 252 249.6 246.9 247.7 246.7 253.8 267.5 263.3 266.5 267.9 275.3 277.9 275.6 270.4 266.9 258.1 262.5 270.8 268.4 270.8 273 275.2 271.3 266.2 259.9 255.4 252.1 246.8 243.3 237.9 233.5 228.3 224.9
205.4 195.6 178.5 165.5 157 150.4 145.6 140.1 131.7 128.6 122.6 115.1 111.7 111.8 112 108.8 103.4 101.2 100.5 94 78.7 81.2 79.5 76 83.5 92.6 98.9 100.7 102.6 104 105.6 106.7 104.5 110.2 109.9 108.7 107.3 97 96 112.9 113 115.9 117.1 121.5 128.6 133.5 134.5 135.4 140.2 143.4 148.2 150.4 152.3 158.8 162.2 162.5 169.9 172.5 170.9 171.1 165 156.2 135 125.5 126.5 125.8 126.9 137.5 161.2 171.6 173.1 173.3 173.5 173.8 174.4 175.9 177.2 178.4 179.6 180 180.5 181.7 182.2 182.4 182.1 180 176 177.1 181.7 185.4 186.8 189.1 189.9 190.5 191.3 192.3 193.3 193.2 191.8 189.8 187.1 186 184.6 177.4 156.1 131.1 134.8 138.7 147.6 159.8 167.7 172.7 173.5 170.2 162.2 159 166.2 180.3 181.9 181.5 172.1 173.8 172.2 172.5 173.8 175.2 175.5 177.6 180.2 182.6 185.6 188.4 188.8 190.2 189 187.6 186.7 187.1 192.4 197.1 201.5 207.6 208.8 210.5 214.9 218.9 220.1 219.3 218.5 220.3 225.7 230.5 234.7 238.5 242.3 247.7 251.8 256.9 261.1 264.4 264.5 263.8 261.9 259.9 256.7 253.1 252 251.1 250.1 246.8 244.8 247 260.6 257.3 244.9 246.9 253.8 258.3 258.4 255.1 254.9 254.9 256 255.5 269.1 276.1 273.7 276.9 277.8 274.2 266.7 261.4 257.1 253.5 248.4 244.2 242.3 237 232.8 226.2
187.4 172.1 159.7 151 143.4 141.2 135 128.4 123.4 121.8 118 116 115.9 117.2 113.1 107.2 99.5 91.8 84.6 81.6 83.4 74 73.2 74 71.7 80.7 87.5 85.8 87.8 86.8 90.2 95.7 101.6 99.2 102.4 101.5 100.6 94.6 86.8 98.3 103.4 105.9 106.5 111.5 119.6 126.5 125.5 126.2 130.2 132.8 136.8 138.8 143.3 145.9 150.5 154.6 158.3 163.2 165.3 165 158.1 149.7 132.1 124.5 124.9 125.5 126.3 136.7 158.2 169.9 174.5 174.8 174.4 174 174.9 176 177.7 178.6 179.8 181.3 182.5 182.9 182.5 182.1 181 179.8 176 175.6 179.8 184.2 186.7 187.3 188.8 189.6 190.5 192.1 192.3 192 191.3 189.6 187.3 185.4 183.7 174.8 145.7 130.3 138 146.2 154.5 159.5 163.9 171.3 173.6 172.2 168.2 165.8 161.3 162.6 170.6 173.3 168.5 169.2 171.3 176.2 177.9 179.1 181.1 183.4 186.7 189.8 192.5 196.2 197.8 195.9 196.3 194.1 192.1 190 188.9 195.2 198.2 202.4 206.4 209.7 213 216 217.7 217.7 218.6 221.2 226.7 230.8 234.9 238.7 243 247.8 252.2 256.1 259.9 264.5 264.2 263.7 260.9 258.1 255.4 253.7 251.5 249.6 246.6 244.6 240.9 248.6 257.9 254.9 241.9 223.7 229.8 235.3 246.9 252.9 254.9 255.2 254.8 255.3 268.2 279.9 276.3 280.6 282.2 277.5 269.1 262.3 258.4 255.1 250.9 247.2 241.4 239.5 234.6 231.2
168.5 155.5 146.7 140.7 137.9 136.3 131.2 126.9 123.4 121 118.7 119.5 121.8 116.7 109.6 103 95.7 83.2 74.6 69.4 69.2 72.4 72.8 71.7 71.7 71.7 76.7 75.9 78 78.8 81.2 87 91 93.7 94.3 95.3 93.5 88.8 86.6 92.7 94.5 96.2 96.6 100 104.9 113.2 114.3 117.1 121 124.7 127.6 127.6 133.3 135.4 137.8 141.3 144.4 144.5 149.3 149.7 145.7 141.6 131.1 122.2 124.4 125.1 129.3 136.4 153.2 170.2 175.9 175.1 175.2 174.8 175.9 177.3 178.1 178.9 179.9 181 183.7 183.6 183.1 182.2 180.5 179.9 176.6 175.1 179.4 184.7 186.3 187.4 188.3 188.4 190.1 190.7 190.4 190.2 190.1 188.7 186.8 184.5 181.3 164.1 137.4 131.9 137.2 144.6 158.3 161.7 168.1 170.6 173.8 174.5 175.2 175.6 175.6 176.1 177.6 177.4 174.6 178.5 179.1 180 181.7 185 186.8 189.1 192.1 195.1 198.9 200.8 204 203.8 201.7 198.7 197.7 195.9 193 192.2 194.2 198.3 202.2 208.6 211.5 213.9 214.1 216.6 217.5 222.3 226.8 230.1 234.7 239.2 243.6 248.8 253.1 256.5 260 263.1 263.8 262.1 258.6 255.6 255.9 252.6 249.1 247.6 246.1 244.3 238.7 248.7 254.5 229.9 205.6 217 223.9 216.8 217.3 242 253.9 254 255 254.9 262.3 280.2 276.7 284 285.5 282.1 274.2 265.4 261.3 258.6 254.2 250.8 247.1 242.8 239.1 233
153.7 145.3 141.3 136.9 132.1 129.8 127.5 124.2 122.3 121 119.2 117.8 117.5 109.4 97.4 88.9 83.3 75.8 68.9 64.8 66.2 71.2 75.6 76.3 75.3 75.6 76.4 75 67.2 67.2 67.2 74.5 83.2 88.9 87.8 86.4 86.2 81.8 83.2 84.1 84 88.5 92.3 94.5 94.8 98.1 100.9 104.7 108.9 111.5 114.8 118 122 126.8 127.9 129 131.2 131 130.7 137.5 135.8 132.1 124.9 120.4 123.3 124.3 130.5 138.8 154.9 168.1 174.9 177.2 176.3 176 177.3 178.3 179 179.4 179.4 179.6 181.8 182.8 183.5 181.7 180.5 179.6 177 174.2 178.3 184.5 186.6 187.1 187.5 187.7 188.5 188.4 188.7 188.7 188.2 187.2 184.9 182.2 176.1 156.9 134.1 131.9 140 150.1 165.4 170 173.7 175.1 177.2 178.3 179.5 179.5 180.2 180.8 181.5 181.7 180.4 183.3 184.5 185.7 185.7 187.9 189 191.9 196 198.1 201.4 204.4 206.8 207.9 208.7 206.9 203.8 202 199.7 197.4 195.8 197.3 199.2 204 209.1 211.6 213.5 216.2 218.3 221.1 226 231.2 233.9 238.9 243.6 248.5 252.6 256.5 260.3 263.1 263.7 262.7 260.9 256.3 251.4 249 247.1 245 243.9 242 237.4 245.9 229.9 188.2 162.4 187.1 190.1 204.9 213.9 227.1 233 253.2 254.6 253.6 259.6 275.8 276.7 284.1 288.5 284.6 279.4 272.6 263.9 261.6 259 254 251.1 248.1 241.3 237.3
145.1 140.6 138.5 133.7 129.1 123.9 120.9 121.6 121.5 121.4 118.4 114 109.3 98.6 86.3 76.1 74.7 68.4 64.8 65.8 68.7 75 75.2 69.4 83.4 83.2 84.6 73.9 67.2 67.2 67.2 67.2 83.8 86.9 85.8 83.8 82.6 80.1 77.6 80.5 80.5 76.6 82.7 87.7 91.3 95.2 97 98.8 95.1 91.2 100.1 107.9 116.1 118 115.7 115.6 116.6 118.3 120.2 122.4 123.3 121.2 118.1 121.1 123.3 126.3 134 143.6 158.2 169.2 173.2 176.6 177 177.1 178.5 178.1 178.9 178.7 178.6 179 180.8 182.5 182.9 181.5 180.1 179.1 176.6 173.2 175.9 182 185.8 186.2 187.1 187.6 187.4 186.8 186.7 187.9 187.2 186.2 183.7 181.1 174.1 154.3 136.1 132.5 138.1 151.6 171.7 175.5 178.3 179.2 180.9 180.1 181.2 182.3 183.2 184.5 185.2 186.4 184.8 186.2 187.4 187.6 187.7 189 190.6 192.4 196.7 199.2 202.7 205.9 208.2 209.3 210.4 210.5 207.2 206.8 204.7 201.5 199.8 201 203.8 207.9 211.4 211.6 213.3 214.8 216.3 220.2 225.1 230.1 234 238.3 242.9 249 252.5 256.1 259.7 262.6 263 262.5 260.9 257.8 252.9 248.8 245.4 243.7 241.9 240.9 237.2 240.7 210.6 144.6 130.9 146.5 161.2 162.8 182.1 194.9 219.5 218.6 242.5 251.2 261.5 272.4 275.7 280.8 289.7 288.7 285.2 280.5 271.4 265.1 264.9 259.1 255.6 254.6 248.3 244.6
139.8 136.1 134.1 130 127.5 123.8 119.3 121 120.5 121.2 120 114.5 107.5 92.3 78.4 72.9 73.4 64.8 66.7 75.7 79.7 76.4 67.4 68.4 67.8 67.4 71 74.8 75.9 73.5 71.5 77.8 83.2 81.3 81.4 81.6 79.8 79.9 72.5 73 77 77 74.7 74.7 78.3 81.1 86.3 88.9 85.8 78.7 83.4 103.1 114.9 114.3 110.4 106.4 106.8 109.3 106.9 109.6 119 120 118.2 121.7 125.9 130.8 138.1 144.7 160.6 168.3 174.4 177.1 177.8 177.4 177.8 178 178.2 178.3 178.4 179.7 181.1 182.5 182.9 182.5 180.8 178.6 176.6 172.6 172.9 177.9 181.8 183.4 184.8 185.5 186 185.2 185 185.6 185.8 185.3 182.2 178.7 168 150.6 130.5 133.7 140.5 151.9 175.7 180.4 180.8 182 181.5 181.2 182 183.2 184.9 185.5 186.2 186.5 186.9 187.1 187.9 188.4 188.2 190 191.8 193.5 197.4 200.3 203.4 206.8 208.8 209.6 209.4 210.2 208.7 207.8 207.4 205.1 203.3 203.7 206.4 209.4 211.8 211.8 214.8 216.9 217.8 220.5 225.2 230 234.1 238.6 243.7 248.4 252 255.3 259.8 262.9 263 262.6 260.8 256.7 253.1 248.8 244.6 240.8 239.5 237.3 232.2 236.6 215.8 147.2 138.9 123.5 122.2 145.8 164.5 170.1 209.8 217.3 218.9 236.3 261.1 273.2 271.6 278.1 287.1 290.4 290.4 289.8 279.8 275.7 271.5 267.3 262.6 260.3 254.8 250.9
137.9 132.8 129.8 127.5 124.9 121.5 120.1 114.6 114 115 116.1 111.4 104.3 99.6 84.3 72.2 73 64.8 72.4 75.9 71.2 65.7 66.8 66.8 66.3 66 68 67.3 68.7 69.4 73.9 76.7 77.7 79.5 80.2 79.2 78.5 79.3 72.5 72.5 72.5 72.5 73.5 74.7 74.3 74 79.2 78.6 79.4 80.2 82.3 101.8 110.1 113 108.4 102.9 102.5 98.2 99.6 106.5 113.2 114.7 111.3 124.1 128.5 132.9 139.7 148.9 158.4 168.5 172.9 178.3 178 177 177.2 177.7 177.2 177.7 178.4 180.1 182.8 183.1 183.1 182.8 180.8 178.5 176.2 173.7 166.6 169.1 176.1 179.5 181.5 183.9 184.6 182.9 181.7 181.1 182.3 182.5 172.9 167.6 157.2 140.6 128.3 136.3 141.8 152.5 174.2 180.4 180.4 180.8 181.2 182.3 183.5 184.5 186 186.6 187.1 186.9 188.5 187.9 188.4 189.4 189.9 191.1 191.7 193.9 197.2 200.2 202.7 205.5 207.8 209.7 210.1 210.6 211.1 209.4 208.2 207.4 206.1 205.2 206.1 207.3 210.4 212 213.6 216.6 218 222.5 226.6 230.9 234.1 239.1 243.6 248 251.8 254.9 259.3 263 264.6 262.7 260.4 256.8 251.9 246.9 242.9 239.4 237.7 234.9 231.1 233.3 228.3 167.6 136.7 126.2 110.5 116.3 164.5 177.4 202.3 218.6 226.9 253.4 272.2 271.4 274.5 275.6 278.6 288.3 290.2 291.7 284.8 280.6 277.1 274.4 269.7 266.9 262.2 258.4
136.1 130.4 128.3 126.4 123.9 122.4 119.1 113.7 107.1 103.1 111.1 110.4 102.9 102.2 96.6 80.7 73.2 76.7 78.3 66.1 64.7 63.9 65.7 65.7 65.1 65.4 65.6 65.9 66.2 67.9 68.1 69.5 71.1 72.3 73.3 76.2 76.6 77.5 72.5 72.5 72.5 74.3 72.5 72.5 74.3 74.4 75.5 77.2 79.7 80.9 88.3 106.7 103.6 112.9 108.3 101.1 94.4 95 102.3 108.6 112 112 109.7 117 125.8 134.5 141.6 149.3 154.2 158.1 162.4 171.2 173.7 174 175.5 175.8 176.6 177.5 177.1 179 182.4 182.8 182.6 181.8 181.3 179 177.2 175.4 171.3 156.7 163.6 171 177.8 181.2 183 181.2 175.4 169.8 175.1 165.4 146.8 146.5 138 129.3 130.9 138.6 145.1 156.1 172.1 177.3 179.4 180.8 181.6 182.6 184.7 185.7 186.3 186.8 186.8 188.7 190.5 189.9 189.1 190.1 190.5 191.7 192.5 195.3 197.1 199.1 200.9 204.5 206.5 209.4 209.1 210.6 210.8 210.3 209.4 208.7 208 207.3 207.7 209.1 210.7 212.5 214.6 216.2 219.5 224.4 228.2 232.4 236.1 239.3 244.7 249 252.1 255.9 258 261 262.1 259.3 256.6 253.5 249.8 244.1 241.6 238.7 236.7 233.5 230.7 230.5 234.9 182.5 150.8 129.3 110.8 110.7 155.1 185.7 196.3 217.6 237.8 276.3 276.5 274.2 274 274.3 275.8 279.8 288 293.6 289 285 282.2 277.5 274.7 271.4 267 263
135.4 129 126.1 124.7 122.5 119.2 115 110.3 102.9 94.7 98.8 91.4 89.3 83.3 82.2 74.2 71.2 73.5 64.5 63.2 63.2 63.2 63 63.3 63.6 65 65 65.3 66.2 66.2 67.5 67.5 68.2 69.3 71.7 72.8 73.9 74.8 73.5 74.7 72.5 72.5 72.5 73.2 74.7 74.7 74.7 76.9 78.2 86.7 100.7 101.2 99.8 107.5 103.3 97.6 90.9 96 105.5 108.1 111.3 110.8 109.3 111.3 118.4 132 138.1 142.7 146.4 151.2 153.7 160.1 165.9 169.2 172.4 174.9 178.2 179 176.7 177 180.2 180.8 180.8 181.2 180.8 179.4 177.5 175.6 172.5 161.5 147.1 156.1 169.8 176.8 182.1 179.5 165.4 151.6 158.6 144.8 130.6 125.6 127.1 132.2 136.3 141.2 147.1 155.6 165.5 174.8 179 181 182 183.1 184.9 185.5 185.9 186.6 187.3 189.4 190.7 190.5 190.3 190.3 190.2 191.2 193.3 195.4 197.7 199.8 202 203.9 207 209.4 210.4 211.1 211 211.1 210 209.7 209.3 208.7 209.2 209.8 211.1 213.6 215.6 217.5 223.1 226.6 230.4 233.9 236.8 240.4 246.2 250 253.8 255.3 256.6 256.3 251 250.8 249.4 246.7 244.2 241.8 239.1 236.7 235.1 233.4 228.2 226.8 233.6 211.9 154.9 135.3 110.3 110.6 134.2 172.2 191.1 217.7 271.9 272.7 273.9 274.2 273.2 273.4 274.6 277 281.7 285.6 290.2 290.4 287.1 282.4 277.1 274.2 270.3 266.7
132.6 127.8 127.2 124.3 119.7 118.2 115.8 106.1 93.2 86.4 79.9 71.5 69.1 70 68 66.4 66.1 63.8 62.4 62.3 61.5 64.1 67.8 70.1 68.1 67.6 67.2 67.4 67.6 67.3 68.6 68.3 67.9 68.3 69.1 70.7 72.1 72.4 73 74 74.6 75.4 76.6 78.2 79 76.6 75.3 76.1 81.9 92 102.3 105.3 97.9 102.9 96.6 88.7 93.5 100.4 97.6 102.3 108.9 102.2 106 108.9 115.8 121.7 124.3 130.2 133.8 137 138.8 146.9 152.2 156.2 164.5 169.5 174.1 179.5 177 173.5 175.7 178 179.1 181.1 181.8 180.5 178.4 175.4 167.6 158 146.5 142.5 160.8 172.2 178.6 166.6 147.3 131.8 138.4 127.1 124.7 127.5 135.8 139 145.8 149.6 157.5 169.5 170.7 175.3 178.8 182.1 183.1 183.6 185.8 185.9 185.8 186.5 188 189.1 190.8 191.3 190.9 190.5 190.5 192.1 194 196.1 197.1 198.7 201.7 203.1 205.6 208.7 209.2 210.9 212 210.9 210 209.7 209 209.5 209.3 210.5 212.2 213.4 216.3 220 224.1 227.3 230.6 235.1 239 242.2 247.5 250.5 254.3 255.8 255.1 256.4 251.6 248.7 246.8 245 242.5 238.8 235.3 234.2 233.4 232.7 229.6 224.1 230.8 232.9 193.1 161.5 126 110.8 124.3 175 190.1 216.1 267 268.1 270.2 272.1 271.1 271.3 274.7 276.4 278.4 281.1 287.3 291.7 290.8 286.7 281.4 277.8 271.8 268.9
130.8 122.9 120.6 120.3 119 120.5 112.2 102.6 91 84.3 84.1 81.7 71.4 64.1 62.7 64.4 62.3 61.7 60.8 60.8 65.2 70.8 76.2 80.7 84.4 77.8 77.1 73.4 72.8 71.6 70.4 70 70.4 71.6 72.2 70.5 70.5 72.2 72.7 73.3 73.8 74.6 75.4 76 75.8 77.5 78.6 81.8 88.3 93.5 95.1 94.5 103.3 101.7 89.7 87.8 93.3 95.2 88.3 90.6 104.6 96.5 103.4 111.8 114.2 118.8 120.6 120.7 121.7 126.6 127.9 129.4 136.1 140.6 152.8 159.4 164.9 171.4 175.5 173.6 171.3 174.8 178.4 180.5 181.4 182.8 181.1 176.6 169 149.5 139.4 134.5 151.1 166.8 166.5 148.1 125.6 122.3 123.1 124.4 125.8 129.1 135.2 142.7 152.6 169.8 173.4 174.9 176.6 177.6 179.4 183.2 185.4 186 187 188 186.7 186.4 189 190.3 191.2 192 191 190.5 191.6 193.6 195.3 196.5 198.3 198.7 199.9 201.6 203.1 205.2 207.7 209.1 208.8 209.3 209.1 208.9 208.7 207.9 209.1 210.8 213.2 213.8 215.3 221.5 225 227.9 232 236.4 239.8 243.8 246.8 250 254.1 253.7 252.8 252.5 250 246.4 242.5 239.1 237 234.1 231.9 231.1 230.7 231.2 229.2 222.7 228.3 231.4 228.5 166.9 158.1 112.3 134.4 176.5 194 257.9 262.8 264.9 266.5 267 268.5 269.9 273.6 278.1 279.4 278.9 284.3 288.4 290.8 289.9 284.4 280.2 275.8 269.9
128.5 121.6 115 111.9 112.3 109.9 105.2 96.4 90.4 95.3 88.3 70.3 62.2 61 60.9 60.7 64.1 59.8 61.1 64.5 71.6 77.4 82.5 86.7 91.4 95.7 101.1 94.1 86.3 85.2 80.4 76.6 75.6 77 77.7 74.7 72.1 71.8 72.6 73.7 73.6 74.5 75.4 75.9 76.8 77.1 77.6 78.4 79.1 79.8 83.6 88.2 98.2 92 87.4 92.9 95.1 97.9 99.9 101.8 101.3 92.6 97.8 105.8 110.5 113.2 114.3 114.4 114.9 117.8 119.7 120.3 124.1 129.2 137.9 147.4 153.8 161 164.8 169.2 169.4 171.6 176.3 179.2 180.5 182.5 182.9 180.2 166.5 142.9 130.1 127 144.4 157.1 153.3 138.8 122.3 122.3 123.3 124.8 128.3 135.2 144.6 158 173.1 175.6 178.9 178.7 179.3 179.4 180.4 183 185.6 187.3 188.4 189 187.6 186 189.2 191.3 191.6 189.6 189.8 191.6 193.5 194.8 195.4 197.2 198 199.7 200.3 200.3 201.2 202.5 204.2 206.9 207.3 207.3 208.1 208.3 207.7 207.1 206.6 209.6 212.7 214.4 217.1 220.9 225.6 229 232.9 237.8 241.6 242.3 245.1 246.4 251 249.7 245.5 245.3 243.3 240.5 237.5 234.8 231.5 228.4 227.3 227.2 227.9 228 227.3 223.8 226.2 228.9 232.4 202.3 168.1 135.8 155.7 175.5 202.5 258.3 259.7 261.1 263 264.3 266.1 268.3 272.3 279.2 280 278.8 280.8 288.5 290.4 289.8 287 283 276.6 272.3
131.3 123.6 117.5 112.7 105.2 100.2 94.4 96.7 103.7 104.4 82.9 63.1 59.4 59.3 58.5 60 60.3 60.2 64.3 71.2 77.7 82.8 86.6 92.3 99.1 102.7 107.4 109.6 104.6 99.4 94.7 89.5 85.3 82.8 82.2 76.4 72.2 72.6 73.2 73.8 74.6 75 75.4 75.9 76.6 77.2 77.6 78.6 79.2 80.1 81.9 83.6 86.6 86.6 88.9 89.3 90.4 90.3 92.2 95.9 96.8 91.4 94.2 102.5 103.1 105.3 107.3 108.8 110.3 112.5 114.6 115.3 119 122.5 128.1 131.7 137.3 139.6 149.4 156.4 163.7 169.5 173.3 176 178 181.2 180.7 178.5 159.5 135.1 123.6 122.3 128.4 131 129 122.3 122.3 122.3 133.1 131.4 135.4 148.2 163.5 170.4 176.7 178.6 179.7 180.2 180.3 180.9 181.7 183.2 185.3 187.3 189.9 189.4 188.4 186.8 187.4 186.8 188.7 189.4 191.5 192.8 194.3 194.7 196.3 197.4 198.4 199.8 200.7 200.4 200.7 202.2 203.5 205.9 205.7 206.7 207.3 207.8 207.3 206.1 206.6 207.8 210.4 211.8 216.9 220 223.5 228.5 233.2 237.3 241.4 242.6 242.8 243.2 244.6 242.4 240 239.6 237.5 235.6 232.4 227.5 225.2 222.9 222.3 221 223.5 223.9 223.7 220.9 219.7 227.8 229.5 232.3 192.7 171.2 173.2 174.5 212.7 253.2 257 258.8 259.9 263 265.3 267.2 271 282.2 281.8 280.3 278 283.2 289.8 290.5 286.8 283.3 278.6 273.8
131.1 123.6 118.5 115 105.8 103.9 103.3 105.6 104.9 103 76.8 59.7 58.6 58.3 59.2 59 60.3 61.6 69.3 76.3 85.3 96.5 93.3 98.9 106.2 109.1 112.1 113.4 114 113.7 108.6 100.4 92.9 88.8 88.6 83.9 77.4 72.9 72.7 73.3 74.2 74.6 75.5 76 77.5 77.5 77.7 79.4 79.2 80.5 81.2 81.9 82.9 81.6 83.9 85.4 86.2 87.6 88.2 90.9 93.1 92.5 91.6 94.5 100.1 102.4 104 105.9 107.3 109.4 111 112.1 116.3 117.9 120.7 120.5 119.7 128.4 134.1 139.2 147.6 157.3 162.7 169.5 174.6 175.7 176.1 168.1 149.1 128.3 122.3 122.3 122.3 122.3 122.3 122.3 122.3 130.7 146.5 148.3 146.5 157.7 169.9 176.5 179.4 180.3 181.2 181.3 181.8 182.1 183.1 184.7 186.1 188 189.5 189.7 188.9 187.2 185.9 186.9 188.8 190.3 191.1 191.7 193.4 195.5 196.5 197.7 198.7 199.8 200.8 200.7 200.3 200.9 203.7 205.4 204.9 205.4 206.6 207.1 205.8 205.2 205.3 206.2 207 211 214.8 218.8 223 227.3 232.3 237.1 242.5 243.6 241.7 236.8 237.2 234.4 233.4 234.1 233.2 230.7 227.6 222.2 220.7 217.4 214.8 215 215.6 218.5 219.3 217.4 217.9 223.7 227.5 230 231.7 177.2 189.4 188.7 226.2 250.5 253.8 254.8 258.6 261.2 264.5 266.5 270.2 278.1 282.8 280.7 276.7 279.5 287.7 290.4 287 283 279.9 274.8
128 123 116.6 113 110.5 111.1 110.4 108.4 103.8 97.3 71.3 56.9 58.1 58 58.8 59.5 60.5 63.2 79.3 87.3 94.3 102.4 99.9 104.7 111.1 114.8 116.2 118.2 120.2 119.6 116.1 107.3 98.3 95.3 95.3 95 91.8 85.8 82.7 74.5 74.3 74.3 75 76 77.1 78.1 78.4 79.1 79.8 81.2 81.3 81.9 82.3 83.4 83.2 83.8 84.5 85.5 86.2 88.5 89.5 89.5 90.3 101.8 100.9 101.4 105.7 107.7 107.1 108.3 109.2 110.2 111.1 113.1 113.4 115.1 116.4 118.1 120.7 127.4 132.8 139.2 145.6 152.6 159.8 161.6 157.5 148.3 133 119.4 122.3 122.3 122.3 122.3 122.3 122.3 127 144.2 163.5 163.2 162.1 171.1 176.9 178.8 183.2 183.8 183 182.7 183.5 183.4 184.1 185.2 187 188.3 189.5 189.4 188.7 186.7 185.2 186.1 188.3 189.2 190.5 192.1 194 194 196.3 197.8 198.8 200.2 200.7 200.1 199.9 200.3 203.3 205.1 204.9 205.5 205.5 206.3 206.3 204.3 204.4 205.3 206.1 208.8 212 217.5 221.7 225.4 231.6 236.9 242 243.4 243 239.3 232.5 232.1 229.7 226.9 224.6 221.6 219.4 218.2 215.7 214.3 211.4 209.4 211 212 214.5 214.7 217.2 220.2 225.5 229.1 233.2 215.8 187.6 186.7 225.9 248.1 250.6 253 256 258.6 262.4 266.4 270 271.2 274.5 277.1 274.4 274.4 282.6 286.8 286 283.7 280.2 274.5
126 123.8 118.3 114.7 107.3 111.1 117.1 111.3 104.5 89.4 66.2 56.4 57.3 58.6 59.2 61.3 62.5 71.2 85.8 89.1 96.1 104 107.4 111.8 116.4 120.2 122.6 124.1 126.1 125.4 120.9 112.5 110.5 104.4 104 107 107.5 104.5 100.1 89.3 82.7 74.9 75.1 76 76.8 77.5 77.9 78.5 79.2 79.4 79.9 80.4 81.3 82.2 83.2 83.6 84.1 84.9 85.2 86.3 87.3 88.4 88 88.6 88.5 91.4 99.2 106 110.1 109.7 108.9 112.4 113.1 112.9 110.9 118.9 118.6 116.5 117.8 120.5 124.7 130.8 134.6 140.7 143.5 141.5 135.1 127.4 118.8 118.5 121.9 122.3 122.3 124.6 127.6 135.9 145.2 159.1 175.1 175.7 173.9 174.8 178 180.1 184.1 184.2 183.5 183.6 183.8 184 184.6 185.7 187.6 188.5 189.5 189 188.1 186.4 185.2 186.2 187.9 189.4 190.7 192 193.7 194.6 196.5 198.3 199.4 200.1 201.1 200.4 199.7 200.4 202.7 203.7 204.8 203.7 204.3 204.7 205.8 204.2 204 205.1 205.4 210.2 211 215.1 220.1 225.4 229.9 235.7 240.9 243.8 242.6 239.8 235.9 228.9 229 225.9 221.7 218.8 217.6 216.6 216.2 212.6 209.6 209 210 210.4 212 212.6 214.3 217.1 219.9 227.4 229.4 233.3 238.5 241.4 246.3 243.2 246.2 249.1 252.4 255.7 259 262.1 265.5 268.1 267.2 268.1 272.2 273 276.6 282.3 286.1 283.9 279.6 275.2
120.8 111.1 106 102.8 97.4 100.9 102.8 103.4 96.2 78.5 58.2 57.1 57.4 58.2 59.3 63.7 67.7 77 82.6 92.7 100.1 106.5 114.5 121.7 124 125.5 129.1 131.3 131.5 132.6 129.3 125.3 121 111.5 114.8 117.3 120.4 116.9 107.6 100.2 95.9 82.7 77.7 75.9 76 77 77.6 78.1 78.5 79.3 79.9 80.3 81.8 82.1 82.2 83 85.1 84 85.2 85.6 86.3 87.3 86.9 87.4 88.4 88.2 88.7 90.3 97.3 108.6 113.1 118.6 123.1 111.3 105.8 107.9 116.6 118.4 120.8 118.1 120 124.6 128.4 130.6 127.9 122.6 121.7 118.1 117.7 118 119.8 123.9 136.2 143 144.2 152.6 165.1 172.5 178.7 178.5 177.3 177.1 178.9 181.7 184.1 184.7 184.5 184.8 185 184.6 185.8 186.8 187.8 188.8 189.9 189.8 188.7 185.8 184.9 187.3 189.8 189.6 190.6 192 193.5 194.1 196.3 197.7 199.1 200.6 200.1 199.4 198.4 198.8 199.8 201.2 201.6 202.1 202.7 203.1 203.9 202.6 202.9 202.2 204.4 206.1 208.9 214.1 218.6 223.7 228.7 234.1 238.6 243.6 241 238.5 234.7 232 225.8 223 220.8 217.7 216.7 219.8 221.2 222.6 217.6 210.2 212.4 217.3 212.9 211.3 212.7 215 218.8 223.9 228 231.1 235.2 235.1 237.5 238.6 241.8 244.5 248.3 252 256.6 260.8 262.9 264.7 265.2 263.4 267.5 270.4 270.7 276.7 280.3 282.9 280.1 276.7
120.3 115.4 105.3 95 90.3 100.4 90.3 88.3 84.3 63 56.4 56.5 57.4 58.1 60.5 67.2 73.4 79.9 91 99.6 104.9 112.8 120.4 129.5 133.7 135.8 137.7 137.9 140.3 139.6 138.5 136.4 133.5 126.2 119.5 136.3 137.5 129.2 121.8 113.4 106.2 96 90 85.2 82.1 76.6 76 77.5 78.9 78.7 79 89 89.8 88.3 84 81.6 84.7 84.2 85.5 86.6 91.3 87.2 87.3 87.9 88.3 88.9 89.4 89.7 89.5 90.5 96.9 104.8 112.6 115.8 112.5 111.2 117.2 121.4 119.7 115.8 115.8 118.5 120.5 119 118 119.1 118.4 117.1 117.6 119.4 124.8 133.9 146.2 156.8 166.3 170.4 171.7 175.1 177.6 177.8 180 179.4 181.8 183.7 185.1 185.6 186 186.2 186.4 186.1 186.4 186.8 188.3 189.7 190.3 189.8 188.7 185.5 184.5 188.3 191.5 191 190.2 191.1 192.9 194.1 195.9 196.7 198.5 199.4 199.3 198 197 197.6 198.4 199.5 199.2 198.8 199.1 201.4 200.5 198.6 201.5 203 204 206 208.9 212.8 217.4 222.6 227 231.8 235.5 237 236.7 234.2 232.3 228.8 225.1 220.5 217.5 216.5 214 216 222.6 218.8 216.8 211.9 209.6 216.9 216.5 210.8 214.3 219.3 223 225.1 227.3 230.3 232.7 233.4 233.9 236.6 238.2 240.6 243.2 245.9 252.3 255.7 258.2 259.7 261.9 259.5 260.4 268.8 267.2 270.5 276.7 281.3 279.5 276.5
115.2 110.3 109.1 100.4 84.8 85.7 79.3 71.6 65.7 56.6 55.5 56.9 57.4 58.9 63.7 76.3 83.7 86.1 95.2 106.4 112.1 118.6 130.8 136.1 142.3 144.6 145.8 147.4 148.7 149.1 148.4 148.2 149.5 148.2 131.9 128.9 154.5 148.4 145.6 135.5 125.1 112.7 108.8 103.3 97.2 98.3 89.5 87.4 89.1 91.2 96.8 102.2 102.9 102 106.2 104.5 97 91.1 91.2 91.6 90.8 89.9 90.1 88.8 89.7 89.2 89.9 90 90.4 90.5 90.8 91.6 95.9 100.6 103.3 110.9 117.3 112.8 109.3 108.8 107.8 108.4 110.8 111.2 109.5 111.9 113.8 117 123.8 130.5 137.7 143 155.4 166.7 169.6 171.7 175.3 177 177.8 179.9 182.1 178.4 182.8 183.6 184.7 185.1 185.7 187 186.5 186.2 185.8 186.1 188.5 190.3 190.3 190.2 188 185 184.6 189 191.9 191.8 189.7 189.4 190.7 192.6 193.9 196.3 198 198.7 198.5 196.9 195.6 195 195.1 196.9 197.7 196.4 196.8 197.8 196 197.1 200.3 203 204.2 206.2 208.5 211.8 217.5 222.5 225.5 229.6 231.6 232.8 232.3 230.2 227.8 224.6 220.9 217.9 213.4 210.1 210.6 212.9 212.5 212.9 212.2 203.3 210.4 212.2 213.5 210.1 216.3 218.7 220.9 223 226.3 229 231.4 232.5 232.5 233.1 236.4 237.3 239.8 242.9 248 250.4 253 254.3 253.8 253.1 254.2 256.9 262.7 266 274 277.6 279.9 276.5
102.6 98.7 97.2 93.8 82.8 71.6 66.4 62.5 59 55.3 54.5 57 58 64.6 70.8 74.8 85.4 95.5 104.3 111.4 117.2 130.7 139.4 144.4 148.1 151.7 153.4 155 157.4 159.3 160.9 162.5 163.6 164.3 150.4 142.4 153.6 164.8 164.6 156.2 146.5 135.7 127.2 121.7 112.1 108.7 98.7 99.7 106.1 109.8 113.5 114.2 115.6 115.3 116.5 118.9 118.3 118.4 104.8 96.8 100.3 100.4 101.1 105.4 100.7 93.6 90.1 89.6 90.8 91.6 91.2 91.9 93.1 94.4 96.6 100 105.5 106.9 102.8 102.8 103.7 104.3 106.7 111.2 112.2 113.5 120.6 126.6 138.2 148.6 159.3 156.9 155.6 163.9 169.4 171.7 173 175.3 177.5 179.8 179.1 183.8 184.6 183.5 184 184.8 186.7 187 187.3 186.3 185.5 186.2 187.8 190 190.8 189.2 186.9 184.5 184.3 189.2 191.5 191.6 190.3 189.1 189.5 192.3 193.3 195.1 196.4 197.8 197.6 195.8 193.8 194.8 193.2 192.9 193.4 194.3 194.3 193 193.3 200.1 199.5 200.6 203.3 204.5 208.6 211.2 217.5 220.7 225.1 228.2 230.5 230.3 229.5 227.1 224.1 220 217.8 214.2 210.3 205.3 205.7 205.5 205.6 206 206.6 201.2 202.9 205.5 207.8 202.3 214.3 216.9 217.9 220.8 224.1 226.2 229 230.6 229.5 230.5 232.9 235.5 238.7 239.5 242.2 246.7 246.6 246.5 246.8 247.3 248.9 251.6 257.4 265.3 269.7 272.6 275.8 277.9
98.8 88.9 82.3 88.7 77.5 66.4 56.8 56.3 56.2 54.9 54.4 55 62.4 72.1 79.8 89.2 91 102.8 113 122.9 128.9 137.1 145.2 150.7 154 157.5 159.9 163.1 168.1 169.7 172 173.8 175.3 175.4 169.5 155.7 155.1 174.3 177.6 173.6 165.3 156.2 147.2 139.7 130.3 123.7 116.5 120.6 126.2 128 129.3 128.2 128 128 127 127.5 125 121.2 111 104.2 110.2 110.1 111.4 118.7 118.4 118.8 108.3 109.2 106.5 92.5 91.7 92.2 92.6 93.7 94.3 96.2 99.9 101.5 99.4 101.7 102.6 103 101.9 106.6 112.4 116.7 123 132.2 146.9 158.7 163.7 157 151.7 159.5 160.8 170.4 171.5 172.3 173.3 176.8 175.1 182.1 183.3 181.5 181.1 184.7 186.8 188.3 188.5 186.1 184.6 185.9 187.8 189.2 188.6 187.9 187 183.9 184.4 189.4 190.5 190.4 189 189 190.3 191.4 192.6 194.4 195.6 196.7 196.3 194.3 191.7 191.9 192.5 189.9 191 191.2 189.8 192.1 195.4 198.5 198.3 200.3 200.7 202.1 206.2 212.3 216.7 220.3 224.8 229.2 230.8 230.9 229.1 226.1 222.2 215.8 213.2 210.3 205.4 203 201.2 201.4 201.4 201.5 201 197.5 198.1 199.7 199.4 205.9 212.4 213.3 215.2 217.5 221.2 223.7 224.9 224.7 229.3 231.8 233.5 236.9 239.2 241.9 243.5 245.2 245.6 246.1 247.3 245.9 248.4 249.7 255.3 260.1 267.5 274 275.9 277.5
101.1 95 81.6 73.9 69.6 57.6 54.1 54.2 53.8 54 54.4 58.5 64.7 72 82.5 92.9 110.1 114.1 120.6 131.7 139.3 144.1 151.6 156 160.8 165.1 169.7 171.9 177.9 181 181.5 184.5 186 188.1 184.1 168 163.2 180.7 191.2 188.3 180.1 172.6 166.6 157.2 148.8 142.5 139.2 140.6 143.1 145.1 142.1 141 141 138.6 137.7 136.4 132.5 126.6 114.4 117.4 119.6 120.6 122 128.8 129.1 129.5 123.3 126.4 117.7 112.8 104.2 100.8 93.8 94 95.5 98 95 100.2 100.2 101.2 102.7 105.1 107.1 109.6 113.7 118.9 127.2 134.6 140.6 149.6 153.3 151.5 144 150.9 156.3 163.6 168.4 170.7 171.4 172.3 171.8 180.3 180.6 181 178.7 184.1 185.6 187.9 188.7 186.6 184.1 185.4 188.3 188.7 187.5 187 185.3 183.8 183.6 188.2 189.4 188.3 186.9 188.2 189.9 191.4 192.4 193.5 194.9 195.7 195 193.2 188.7 190.8 191.6 188.3 183.1 179.4 181.9 191.7 195.1 196.6 197.3 198.6 200.3 203.1 210.6 214.8 218.5 222.5 227.4 233.8 237.3 234.5 230.3 226.2 220.8 214 207.3 204.9 202 200.1 198 198.2 197.6 198.4 197.2 196 195.9 197.2 200.2 201.8 206.3 209.4 211.4 213.8 218.2 220.7 221.3 225.3 227.9 230.6 233.8 236.9 240.1 244.8 248.6 251.1 249.8 249.2 250.1 248.7 247 249.9 252 255.4 262.7 270.6 277 278.7
89.2 85.8 82.8 66.1 60.5 53.9 53 53.5 53.3 53.9 55.7 60.5 68.1 78.7 86.4 95.8 106.9 121.7 130.8 139.1 146.7 152.7 157.8 162.9 169.1 173.4 177.5 180.7 187.2 191 191.7 198.7 203.8 206.4 201.1 182 169.5 190.2 198.3 204.6 194.4 187.8 183.4 176.1 169 165.4 163.1 165 163.9 160.1 156.8 152.7 151.1 147.6 146.1 139.7 131.6 125.5 121.5 123.5 127.6 129.3 132.2 136.8 138.3 139.8 137.4 137.6 134.7 131.9 126.2 123.8 112.1 99.8 94.3 95.2 96.5 98 98.7 101.8 102.8 104.3 107 110.9 113.7 114.4 114.4 124 129.8 137.2 140.1 142.4 140.7 143 153.3 166.5 165.9 167.4 170.1 170.8 171.2 173.5 175.5 174.2 174.5 179.5 181.1 184.1 185.7 185.1 182.1 185.1 188.2 188.1 187 186.3 185.1 183.8 184.7 188.4 188 186.1 187.4 188.6 189.8 190.6 191.5 192.7 194 194.3 193.8 192.9 189.9 185.4 189.3 188.5 178.1 178.3 185.9 190.6 193.3 195.5 197 200.4 204.8 210 214.9 219 223.3 228 233.3 236.8 237.4 235.7 231.4 226.6 220.4 210.9 205.4 201.5 199.3 198 196.5 195.2 194.3 195.6 194.6 193.6 195.6 196.5 201.1 204.9 205.9 205.8 208.2 211.2 213.6 215.9 219.9 223.3 226.8 230.4 233.7 238 242.1 248.3 253.6 258.8 259.4 255.4 251.7 249.9 248.1 250.4 252.5 255.1 258.5 265.5 274 279.3
83.7 75.2 68.6 58.8 54.2 52.2 53.1 52.1 53.2 54.2 55.6 68.4 73.4 85.5 93.2 100.6 113.2 122 133.2 144.9 152.9 158.9 164.7 170.2 176.2 181.7 184.1 189.3 196.1 201.3 202.5 214.4 220.7 221.2 219.8 196.9 180.7 197.6 206.4 215.5 208 200.6 196 193.1 190.7 187.3 186.7 184.6 181.4 176.1 171.4 165.7 160.9 157.1 150.3 141.4 134.4 133.1 128.5 130.6 140.5 147.7 150.3 151.9 153.7 154.3 153.2 153.9 151.4 149.1 146.6 142.6 135.5 121.8 107.9 97 96.2 96.5 97.6 98 99.2 100.3 104.2 106.5 108.8 111.1 114.2 118.3 123 125.5 128 129.5 135.4 142.1 148.4 164.3 163.1 167.1 168.5 166.4 169.9 170.3 171.5 172.4 172.5 172.6 172.8 174.9 177.1 176.2 181.1 184 186 186.9 186.5 186.1 184.4 183.3 178.7 185.3 185.4 184.7 188.4 187.9 188.6 189.2 190 191.2 192.3 192.5 192.4 191.8 189.4 184 185.4 182.8 176.2 177.9 185.4 191.2 193.6 195.3 197.2 202.8 208.6 212.9 217 220.9 225.4 229.5 234.6 239.5 239 236.7 231.9 227.2 219.8 211.6 205.1 199.6 196.4 196 194.5 193.1 190.9 191.3 192.3 193.6 193.7 196 201.3 207.6 208.8 208.1 208.4 211.1 213 216.1 219 223.1 226.2 230.7 233.9 239.2 243.8 249.5 254.7 259.2 263.4 259.9 254.1 252.9 250.9 254.1 255.9 257.5 258 260.3 267.3 277.5
79.7 71.4 59.4 50 51.6 52.7 52.6 52.4 53.5 53.9 59.7 84.5 80.5 96.9 107.8 108.7 117 129.5 138.5 149 158.6 165.6 172.3 177.9 182.8 187.9 194.2 197.8 205.7 210.4 213.5 222.1 236.3 238 232.8 208.7 191.1 209.5 216.2 222.4 225.2 216.1 213.3 209.8 206.9 205.4 204.4 201.5 196.8 191.6 186.5 177.9 171.6 165.9 157.7 149 139.2 136.5 138.4 142.7 154.1 165.3 171.5 172.3 170.4 172.5 170.3 169.7 168.7 166.3 165.1 163 155.6 145.3 130.8 116.4 104.6 99.8 99.8 100.4 99.7 100.4 100.9 103.6 104.3 105.6 108.4 115.4 119.7 122 123.8 127.4 134.5 139.6 139.1 153.1 161.5 169.5 169.5 168.7 169.4 168.6 169.2 171.4 171.6 170.4 170.5 172.5 173.4 172.9 174.4 179.7 183.2 185.3 185.1 184.3 183.4 182.6 180.6 184.2 182.5 185.8 186.7 186.9 187.9 188.5 188.5 188.9 189.6 190.3 190.6 190 188.5 184.8 180.7 177.4 174.9 176.6 186.8 190.1 192 195.1 197.2 203.8 206.4 213.7 216.6 221.1 226 230.9 235 235 235.2 232.7 229.5 225.5 220.4 213.3 207 201.5 194 191.3 190.1 189.8 190.6 192.3 192 192.4 193.5 196.5 200.5 205.1 207.8 208.5 208.8 212.6 216.3 216.7 218.8 222.2 226.2 229.1 234.8 239.5 244.7 250.2 256.4 260.8 262.8 260.9 259.1 254.3 255.5 257.7 257.8 258.4 258.6 259.8 262.3 274.9
76.6 64.9 57.6 49.9 51.5 52.3 51.7 52.3 52.9 54.1 73.1 96.3 89.7 98.9 110.5 119.7 122.5 131.9 143.8 157 163.9 176.8 180.2 184 190.2 197.1 204.8 210.1 217.5 222.4 225 229.9 239.6 247 242.6 220.6 196.2 223.5 228.8 234.7 235.4 226.5 223.9 222.9 222.3 220.5 217.3 214.5 212.6 206.4 199.4 191.1 183.5 175 165.6 156.2 147.1 145 145.5 153 163.3 173.4 186.3 190.4 187.1 185.5 184.3 183.7 182.8 182.1 185.2 184.1 177.2 164.7 150.4 135 119.4 109.5 103.7 102.2 101.6 101.5 106.8 101.4 102.4 102.3 104.2 106.8 114.5 118 119.8 125.8 125.7 127.6 142.6 150.1 154.1 169.3 171.2 169 168.2 168.8 167 168.9 169.4 167.7 168.4 171 172.5 171.7 171.6 171.5 177.7 181.6 183.3 182.3 180.6 175.9 181 182.5 181.4 185.8 187.3 185.3 185.8 186.9 185.7 186.4 187.3 187.9 188.2 188.1 188.6 189 185.6 175.8 174.1 181.2 188 190.4 191.6 194.2 196.9 200.9 203.6 210.7 214.5 219.1 225.4 227 228.6 230.8 230.9 228.4 225.1 223 218.2 212 207.7 202.5 191.4 188.6 189 190.4 193.3 194.1 194.4 192.8 193.7 193.7 199.1 202.5 204.8 205.9 208.5 211 214.9 216.5 217.8 219.6 223.9 229.2 232.8 238.1 244.6 250.1 256.6 260.5 260.8 254.3 257.1 255.3 255.9 257.6 256.8 257.7 259.1 258.8 258.6 269.8
66.2 58.6 51.5 51.2 50.9 51.4 51.6 52.2 53.2 65.2 87.6 106.4 97.6 105.4 112.3 123.1 131.7 138.3 150.2 161.8 168.5 180.3 190.3 195.5 201.6 212.4 217.5 225.9 233.7 237.4 244.1 244.6 249.1 252.1 253.3 234.6 211.8 231.1 250.1 247.9 244.7 240.7 236.1 235.5 235 234.8 234.6 230.1 224.1 219.6 212.5 205.9 196.3 185.8 175.5 163.7 155.3 152.8 153.3 158.8 172.7 181.4 191.4 200.1 200.9 200.1 198.4 196 196.3 197.6 198.4 199.2 195.6 181.2 166.2 150.9 133.5 123.1 109 103.8 103.3 105.8 104.1 101.5 101.8 101.3 102.3 102.1 106 109.6 116.9 123.6 132.6 129.6 152 150 153.1 162.7 169.6 167.9 167.9 168.5 167.9 166 168 168.8 168.3 167.4 168.7 169.3 169.6 170 171.9 175.8 179.9 180.3 177.7 171.6 174.8 177 182.7 184.8 184.6 184.3 184.7 184.1 183.9 184.8 185.7 185.7 185.2 185.6 187 187.9 179 174.3 174.3 186.2 188.6 190.4 192 191.9 195.3 197.6 203.5 207.6 210.4 213.7 219.3 220.8 222.6 224.1 223.1 223.8 221 217.1 214.6 209.6 205.9 199.8 187.5 189.7 190.8 193.3 195.4 199 197.3 195.4 194.6 194.2 196.2 201 204.4 205.5 206.5 208.4 210.4 212.4 214.8 217.6 221.7 226.9 231.7 236.4 242.6 248.4 255.4 257.9 259 253.9 254.8 253.7 255.3 250.8 256.4 256.4 255.8 255.7 253.1 260.8
58.7 54 49.2 50.3 50 50.3 51.6 52.2 61.8 84.2 102.8 111.9 107.2 111.7 122.6 131.6 140.7 152.1 155.7 162.5 169.5 179.2 197.3 208.1 216.6 230.4 238.2 241.2 247 252.1 258.4 260.2 262.3 259.5 255.2 246.4 238 232.5 262.9 270.1 262.4 256.2 252.2 250.5 248.2 246.1 244.6 243.6 237.8 231.8 224.1 217.8 211.2 201.7 189.5 179 167.9 160.9 158.4 165.7 178.2 188.1 195.7 202.5 208 208.6 208.1 208.9 209 209 209.9 206.4 202.5 197.6 182.8 163.6 143.4 127.3 113.7 105.6 106.5 110.4 113.3 107.7 103.3 102.2 102.6 104.8 103.1 103.9 105.3 113.5 119.6 124.2 135.1 134.2 135.3 137 150.4 168.5 168.4 168.4 160.3 154.7 157.5 163.8 166.5 166.1 166.6 166 167.4 168.6 169.2 170.4 172.1 175.3 172.9 171 172.1 177.2 181.9 183.5 183 182.9 181.9 181.3 182.1 183.5 184.2 184.8 182.4 180.4 183.5 181.7 176.2 173.1 182 187.5 188.9 190.6 191.4 194.4 196 195.3 198 200.6 203.3 205.9 211 213.1 215.8 219.3 219.5 217.1 214.1 212.5 209.6 205.9 201.9 188.4 188.3 192.5 195.1 196.4 198.6 202.9 204.4 200.1 197.9 195.4 195.4 199.1 202.6 204.5 206 206.9 208 209.9 211.1 215.7 220 227.3 229.3 234.6 239.3 246.7 252 256.2 256.3 255.5 252.1 251.1 253.9 253.3 257.4 256.3 254.1 253 251.2 249.9
54.8 49.9 48.9 50 49.6 50.6 53.2 67.8 83.7 99.2 120.6 120.8 120.2 120.7 134.2 144.1 151.3 160.3 164.7 171.1 176.6 186.3 199.5 216 235.8 250.2 256.9 264 268.1 269 272.3 274.3 270.9 266.4 262.4 258.3 257.8 246.9 261.3 280.9 281.3 278.5 274.2 269.5 264.4 259.3 254.4 251.3 246.2 240.8 234.7 230.2 222.1 215 205.6 193 175 169.1 163 171.2 182.5 191.8 200.1 205.6 210.4 214.5 217.6 221 221.4 222.1 220 218.1 210 201.6 188.9 170.7 152.6 133.2 117.7 107.1 111.1 114.1 120.3 122.1 118.6 117.8 113.9 113.2 116.8 112.4 104.5 105 107 107.1 109.5 117.3 125.2 128.8 140.2 153.9 167.4 167.2 153.3 142.6 144.6 155.4 154.9 161 161 162.1 163.7 165.4 167.4 169.6 170.1 169.8 170.2 169.3 170.7 173.4 178.7 181.9 181.3 182.7 181.9 181 183.3 181.6 181 181.9 179.7 177.9 177.8 176.5 174.1 171.8 180.5 185.3 188.9 188.5 189.6 192.1 192.6 194.3 194 194.5 193.1 196.9 201.5 205.1 208.5 209.3 211.6 209.2 206.8 203.1 200.7 198.5 195.7 185.8 191.8 203 205.2 205 204.7 205.4 208.7 205.8 202.7 199.9 198.3 197.3 198.1 202.2 203.5 205.1 206 207.7 210.8 214.3 218.5 224.5 227.9 231.8 236.9 239.3 247 251.6 252 248.7 249.4 250.2 254 255.1 256.3 256 254.6 253.6 249.8 250.6
50.5 48.8 49.1 49.4 54.4 65.9 78.7 92.6 104.2 112.1 120.6 127.2 134.1 135.4 147.4 156.1 165.2 172.6 178.7 186.6 192.5 203 216.6 228.5 251.4 265.6 276.8 285.6 287.3 289 289.4 290.7 284.6 277.3 270.3 265.8 268.6 253.6 268.7 285.5 291.9 295.5 295 291.5 286.5 274.7 267.8 263.2 257.8 253.1 246.4 239.3 231.9 225.6 218 204 185.3 177.1 174.2 178.7 188.2 196 202 209.2 213.1 217 220.5 226 227.6 226.6 224.6 219.7 214.4 205.9 191 173.1 154.6 136 119.9 108.9 113.9 116.6 122.7 129.3 130.3 130.7 129.1 122.4 123.1 127 112.2 105 106 105.6 105.3 108.4 110 113.3 125.6 137.7 155.1 159.9 151.5 139.2 135.4 144 141 149.5 150.4 156.8 150.5 160.2 163.1 168.1 170.7 170 170.8 169.1 168.8 170.9 176.7 179.9 180.8 183.2 184.1 183.1 182.9 182.5 179.3 179.4 178.2 176.2 175.6 175.2 172.6 170.9 174.3 179.9 187.4 187.2 188 187.2 189.6 191.5 192.3 192.8 191.9 193.7 197 197.9 201.6 204.5 204.5 200.7 195.8 194.5 194 192.9 186.8 186.7 194.6 204 210.7 210.9 209.2 210.6 210.3 208.2 205 202.4 201.6 200.6 198.6 198.2 201.2 203.2 204.5 206 209.5 212.7 217.3 222.6 226 230.7 235.4 239 242.5 244.5 245.3 244.1 244.9 248.9 252.9 254.3 254.5 255.8 254.6 253.6 251.3 249.8
49 48.5 49 60.5 62.6 65.5 79 90 98.7 113.2 123.6 136.8 153.6 153.7 162.1 173.7 186.4 194.3 199.7 203.6 209.1 222.3 236.8 244.1 262.8 280.8 295.3 298.7 305.9 310.7 308.9 305.5 295.6 287.1 279.9 275.3 278.1 266.1 278 291 299.5 305.8 307 305.7 300.9 294.2 287.2 277.2 269.8 266.5 258.7 251.1 242.7 234.9 226.7 218.3 197.1 192.3 187.2 185 193.9 202.1 207.5 211.7 215.3 218.2 221.9 226.4 230 229 226.5 221.1 214.1 207.4 194.3 174.1 157.3 137.8 121 111.4 118.3 120.2 127.2 130.5 135.1 136.5 133.2 130.5 133.4 132.7 123.5 120.9 114.5 106.5 106.5 106.6 107.6 109.2 112.2 122.5 133.3 137.3 148.3 146.9 141.4 137.1 128.8 136.4 142.5 146.9 150.6 150.8 150.5 151.2 159.5 167.1 167.1 169.1 168.2 168.7 174.6 176.7 180.2 182.9 185 185.5 185.4 185.8 182.2 176.9 174.9 173.6 172.7 173.3 170.6 170.8 176.6 178.5 183.7 186.4 187.6 189.1 192.7 193.1 192.5 190.7 190.3 193.3 194.4 191.6 194.3 198.3 197.8 195.3 192.2 192.6 191.9 190.1 185.3 187.3 194.4 203.1 209.3 210.7 210.5 210.5 209.4 208.5 207 204.6 203.6 201.9 199.5 198.5 198.9 200.9 202.4 204.5 205.4 211.7 216.2 221.2 224.6 228.1 231.5 236.9 241.1 244.6 243.5 242 242.5 245.5 252.2 254.3 254.7 255 254.3 252.6 250.4 248.4
48.1 47.2 48.5 54.7 66.6 66.9 76.3 87.3 97.1 110.1 123.9 140.8 161.4 170 182.4 195.4 211.6 219.6 225.2 228.6 230.5 236 251.4 261.4 275.1 292.8 306.6 311.5 315.9 323.6 323.8 323.8 312.6 299.6 291.3 282.5 287.1 280.4 282.2 294 308.9 314.9 317.3 315 312 306.6 301.9 294.1 285.3 276.5 267.1 260.5 253.1 243.6 234.9 227.9 209.6 200.4 194.7 191.7 200.7 207.3 211 214.3 216.7 217.9 220.8 225.2 228.6 228.5 226.5 221.7 215.7 207.6 195.3 177.8 160.8 142.4 119.1 115.3 123.4 124.5 129.4 133.5 137.9 140.8 140.2 138.8 138.8 138.2 134 133.9 129.9 122.6 120.2 107.1 107.7 108.4 109.4 110.3 113.1 119.4 128.1 131 138.5 134.4 123.8 128.4 132.8 138.5 146.2 145 149.2 148.5 144.6 146.5 148.7 155.7 166.9 166.5 169.8 176.5 181.2 183.9 185.2 185.7 185.9 186.1 182.3 177.7 175.5 172.9 170.1 169.6 168.4 172.7 181.9 185.7 186.4 186.4 188.6 189.2 190.6 191.8 191.8 191.9 191.3 189.6 188.7 187 186.1 186.8 188 188.2 187.4 187.4 185.6 185.3 185 187.6 191.4 195.9 202 205.2 205.7 207.3 206.3 207.3 207.1 206.4 204.7 203 200.5 199 198.4 200.6 202 202.7 205.7 208.7 214.3 218.1 222.1 225.1 229.1 233.7 239.6 241.3 241.9 240.8 233.8 245.9 251.9 253.5 253.2 252 251.5 250.8 248.2 246.8
47.6 47.7 47.9 60.9 66.2 70.1 76.4 87.3 101.3 117.2 130.2 149.9 168.1 181.9 199.3 217.5 235.7 250.1 252.6 257.1 260.6 260.3 266.1 282.1 293.3 305.5 319.3 331.6 327.7 337.9 338 336.3 329.3 310.8 299.9 294.5 294.2 285.9 287.3 297.8 313.5 324 327.8 327.8 323.4 316.6 310.3 302.7 297.4 290.6 278.2 270.6 262.8 253.4 243.4 235.9 226.7 209.8 204.1 201.7 207.8 214 217.7 218.6 220 218.7 215.2 219.3 225.1 225.1 224.1 222 217.3 206.9 193.1 178 165.1 147.1 123.2 119.3 127.8 129.1 131.6 136.6 143.7 144.1 147.1 146 147.2 145.1 143.3 137.6 131.7 121.2 116.8 111.9 107.2 108.2 109.1 109.4 111.4 111.5 112.3 117 120.6 122.1 121.1 127.7 134.9 138.1 143.6 145.2 146.3 152.5 145.3 143.3 143.5 148.3 155.4 163.5 164.1 174.6 178.8 184.6 185.5 185.8 186.4 185.6 181.4 178 175.2 172.4 167.6 166 169.5 179.6 185.5 187.9 186.6 184 187.2 188.3 191.8 192.1 194.5 195.6 193 195.7 194.7 188.8 187.2 185.3 184.5 184.3 184 184 184.1 183.5 185 188.8 190 191.4 195.9 198.8 199.8 203.2 204.3 205.8 206.5 206.9 206.2 204.7 202.6 201.2 199.5 200.6 202.5 203.6 204.6 206.8 210 214.4 218.9 222.1 224.9 229.9 234.6 236.9 238.4 237.2 241 245.1 246.5 249.9 248 246.2 246 245.5 245.2 246.2
46.7 47.1 52.2 60.6 63.8 69.5 74.5 83.2 98.3 114.1 133.9 150.6 168.9 190.4 209.5 225.7 248.5 269 278.9 285.7 289 292.2 283 301.1 313.6 327.1 336.3 344.2 343.1 354.1 350.3 349.7 334.5 318.2 307 302.2 297 295.3 295.8 310.1 321.3 329.4 334.3 337.1 333.4 327.1 319.8 309.8 303.9 296.6 288.2 278.5 269.1 261.3 250 239.7 232.3 224.5 211 210.1 214.8 218.7 221.6 223.1 223.3 222.6 220.9 211.3 218.9 219.5 219.1 217.8 212.1 197.3 187.1 175.6 164.3 154 130.1 124.5 131.5 133.1 135.3 140 148.3 155.7 156.4 156.4 157.9 152.7 150.9 143.5 134.2 123.6 126.9 123.7 120.7 108.5 109.5 112.5 111 110.1 111.6 112.4 113 113.5 116.3 123 134 141.4 134.6 141.6 145.5 152.5 150.4 144.3 143.8 154 151.5 151.3 165 162.5 173.3 180.5 183.7 185.6 185.9 183.6 180.9 177.7 175.4 170.7 164.9 168.5 174.9 177.1 179.3 180.2 181.7 185.1 186.1 187.3 188.1 190.7 195.9 201.7 204.9 201.7 200.5 194 189.8 186.6 184.8 183.2 183.2 182.9 182.8 182.2 183.5 188.9 186.8 186.1 188.7 192.6 197.8 203.7 203.3 203.1 204.7 205.8 206.5 204.9 204.1 203.4 201.2 200.3 201.4 204 205.2 206.6 207.9 210.4 215.5 217.2 219.6 224.7 226.7 230.8 231.9 234.9 238.8 243.5 245.7 244.4 241.9 239 241.4 242.5 245.1 245.8
46.6 46.6 49.4 54.8 62 65.3 68.6 83.6 97 114.1 133.6 152 170.6 195 223.1 242.7 256.4 272.5 295.5 305.5 310.5 307.4 306.3 321 335.6 344.7 354 360.5 358.6 370 360.8 359.2 345.7 332.4 320.2 309.3 301.8 301.8 311.7 322 329.7 336.8 339.8 340.2 338.5 336 330.2 320.6 311.3 303 294.1 284.6 275.2 268.6 257 248 239.3 232.1 224.7 220.7 224.3 225.9 227 227.1 226.2 223.8 221.5 216.3 205.6 212.2 208.1 207.4 202.4 189.4 179.2 169.6 162.7 151.7 127.7 128.1 135 139.1 141.7 145.6 151 157.1 161.9 164.6 163.2 158.9 155.3 142.2 137.3 139.2 143 144.3 126.7 118.3 127.1 129.8 117.6 113.7 115.5 114.1 114 113.8 114.5 115.7 117.7 129.2 129.5 142 144.4 145.3 144.5 144.8 148.1 162.5 157.6 149.2 152.3 151.5 167.4 171.1 178 183.7 185.7 184 180.1 176.7 173.5 169.3 163.3 166.9 173.6 176.7 177.6 181 183 184.8 185.1 189.2 187.5 188.4 195.2 200.4 203.7 205.3 203 199.6 195.1 189.5 185.6 183.8 183.3 182.7 181.9 181.2 182 183 183.1 183.3 185.4 191.2 198.3 205.2 204 203.4 204.3 206.7 207.7 207.8 206.3 205.4 204 201.9 201.3 203.6 204.2 205.8 207.6 209 211.5 213.9 216.4 219 219.9 222.1 225.7 230.1 232.2 237.7 241.5 241.4 240.1 232.9 235.1 241 240.5 242.6
45.9 46.3 48.1 55.4 62.8 65.2 71.3 83.6 95.9 109 129.5 151.5 173.8 192.9 220.7 247.6 268.3 281.4 292.5 312.2 319.4 314.1 328.5 337.7 347.1 356 366.1 371.8 374.4 377.5 371.9 362.5 356.3 343.8 334.3 319.4 310.9 314.2 329.4 335.2 339 342.2 343.7 343 341.6 339 335.4 328.2 316.6 308 299.2 290.2 280.4 272.1 261.5 252.7 243.4 237.4 232.1 229.5 231.7 231.6 231.7 230.4 228.1 226.7 221.2 215.7 206.4 199.1 200.2 196.4 187.3 181.9 172 162.5 156.9 137.4 125.8 134 135.7 145.4 152.3 154.6 156.8 160.6 164.1 165.8 165.3 161.7 150.8 147.9 151.7 151 146.1 145.5 130.3 128.8 139.2 142.3 136.4 131.8 125.7 128.2 125.1 123.6 119.2 116.3 116.1 115.9 123.5 133 141.7 142.9 145.6 144.6 150.7 154.2 154.4 146.6 146.8 148 158.8 165 168.3 177.1 182.4 184.8 180.5 176.8 172.8 168 160.5 166.3 173.5 176.2 177.4 180.6 184.2 185.1 185.3 186.2 188.6 189.7 196.5 201.5 204.7 207.5 206.9 203.4 199.2 193.9 189.2 186 184.7 184 181.1 180.8 181.5 181.6 182.2 183.9 187.2 194.8 197.7 202.7 205.1 206.4 204.7 207.2 210.4 213.9 212.8 210 208.5 205.2 202.7 203.6 204.3 206.5 209.1 210.1 212.3 215.7 220.2 221.1 222.4 223.1 224 224.2 226.6 231.8 231.8 234 236.9 246.6 239.5 238.9 238.8 238
45.7 45.6 46.2 52 60.4 66.2 72.2 84.9 98.5 113.8 132.1 148.2 173.4 194.8 217.9 239.2 262.2 280.6 296.1 309.5 320.6 320.2 334.7 346.3 353.9 360.6 371.3 378.4 386 385 376.6 370.2 360.7 351.7 346.3 333 330.5 331.9 340 345.5 346.6 346.9 346.8 345.5 343.3 341.2 337.1 330.1 322.8 314.6 306.3 294.9 284.6 276.3 266.6 258.8 248.8 242.5 239.9 236.3 236.5 237.4 237 232.7 230 226.6 218.6 212.4 203.1 195.3 187.4 187.2 181.5 171.4 162.6 153.9 134.6 132.4 135.9 138.5 140.3 146 159.6 162.7 165.6 168.3 170.7 168.1 168.5 165.6 161.2 157.3 157.1 156.7 152.3 155.2 141.2 132.9 151.2 157 153.9 147.4 138.7 141.6 138.5 135.2 132.1 125.7 118.1 117.8 117.6 121.8 126.4 131.6 136.6 135 133.7 138.8 142.2 146.7 144.9 146.6 141.6 153.7 159.4 165 177.9 182 179.5 175.9 174 169.8 159 166.9 175.8 176.8 177 182.7 183.9 184.9 185.4 188.8 190.1 190.8 197.6 201.8 207.4 210.2 209.4 206.1 202.6 198.1 193.4 189.4 186.7 184.4 182.1 180.6 182.5 184.2 183.3 187.5 188.2 188.9 194.4 200.3 204 207.4 205.3 207.6 211.8 216.6 218.9 215.6 213.4 210.2 207.3 205.6 205.8 206.4 208.1 210.4 213.8 216.8 219.8 223.1 226.4 228.3 229.3 229.8 229.2 230.8 234.3 240.6 245 249 239.2 239.2 237.7 237.1
45.2 45.2 45.7 51.3 60.7 68.1 71.8 80.5 96.9 114.8 133.3 145.7 161.5 183.2 210 232.6 250.3 271.6 293.7 310.4 316.9 320.8 338.2 348.1 355.4 364.5 375.4 382 390.2 389.2 382.3 373.2 365.3 363.3 356.7 352.8 352.5 349.4 348.2 351.6 352.1 351.9 350.8 349.5 346.2 342.7 338.1 331.4 325.4 318.2 309.4 300.5 289.9 281 273.8 264.9 253.6 246.7 245.5 241.7 241.5 240.7 239.1 235.8 230.6 223.9 215.8 207.6 198.5 189.6 179.4 176.3 171.9 162.9 154 131.8 138.5 147 141.1 143.6 144.9 151.1 161.8 167.9 172.5 175.8 175.5 173 171.4 173.8 171.3 167.2 167.5 171.9 167.5 161 157.5 139.7 155.7 165.8 166.3 165.7 156.4 155.7 151.7 148.8 145.5 141.3 128.8 117.8 117.4 119 119.1 119.4 121.3 121 121.5 123.5 126.6 130.5 141.7 147.2 135.7 146.3 149.7 150.7 164.1 176.8 177.8 175.9 173.4 167.1 155.6 164.6 174.7 176.9 177.1 182.5 180.8 185.4 184.6 187 189.2 191.7 196.5 202.7 208.7 210.3 209.7 206.5 204.4 200.9 196.8 193.4 189.7 185.9 182.1 179.7 184.3 185.5 184.7 186.7 185.7 186.7 190 196.3 203.9 205.5 203.2 205.6 210.3 216 218.7 219.3 217.2 214.8 212.4 209 207.5 207.8 209.2 211 215.8 220 222.6 224.8 226.4 229.3 231.2 233.5 235.8 236.3 245 252.5 244.8 238.8 234.4 224.3 238.1 236.7
44.5 45 45.3 51.2 58.3 63.4 69.8 83.8 96.6 110.6 127.2 144.9 158.8 173.9 196.1 220.3 239.3 259.1 280.3 299.7 307.2 315.2 328.8 340.8 351.3 363.8 374.1 384.3 388.6 389.4 383.2 376.5 372 369.1 365.3 363.6 363.3 364 359.8 357.2 356.4 357 357 355.2 350.9 345.3 339.3 333.8 327.4 319.2 311.5 302 292.8 284.1 276.8 268.5 259.7 252.6 248.8 246.1 244.7 243 240.4 236.2 232.9 219.9 211.7 202.6 191.4 178.7 169 162.8 158.3 147.6 132.8 149.7 153.8 149.3 147.3 150.5 152.2 156.1 168.9 176.4 183 184.6 183.4 182.4 179 175.4 174.1 174.3 173.4 173 171.1 168.8 167.2 145.2 153.8 164.4 167.4 167.3 164.4 171.7 168.2 164.2 160.7 154.5 148.4 133 120.1 119.7 119.7 120.4 120.2 119.9 120.4 121.7 122.8 123 124.7 129.6 127.8 128.1 132 138.8 148.2 167 171.4 167.8 169.3 163.3 154 158.7 171.7 175.2 176.2 176.7 178 177.8 182.9 184.6 188.3 191.7 197.7 203.2 206.2 208.4 207.7 206.3 204.7 201.1 197.6 195.3 191.8 188.7 185.5 181.1 181.7 184.6 184.6 184.2 184.6 187 190.4 195.1 201.3 200.1 201.1 203.2 206.8 211.2 216.7 219.1 220.8 218.4 217.2 214.1 210.9 210.9 210.8 212.8 217.5 222.6 224.9 227.5 229.7 230.9 232.5 235.4 239.5 247.9 247.3 239.5 225.1 217.7 207 207.3 216.6 231.7
44.7 44.8 45.8 52.9 57.3 63.1 70.4 81.2 92 107.3 121.8 136.3 156.4 167 185.1 206.5 229.5 249.4 268.2 287.9 303.8 308.6 319.4 327 337.7 349.5 366.2 380.3 389.9 389.3 385.1 381.6 378.1 375.3 374.7 372.2 370.3 370.3 369.5 363.9 361.8 360.1 359 357.9 352.7 346 340.9 335.9 328.9 320.2 310.5 301.8 293.5 286 278.6 270.7 262.6 256.1 250.3 247.8 245 243.9 240.2 234.5 229.9 213.9 202.6 194.4 183.2 168.3 158.9 147.4 138.2 143.2 154.8 166.2 161.4 154.7 155.3 157 161.7 166.6 178.4 186.7 194.2 198 198.5 194.3 189.2 185.4 179.9 175.9 173 171.2 171.1 169.4 155.2 154.9 156.5 166.3 173.5 174.5 168 176.8 177.4 175.9 174.6 167.9 156.2 150.9 130.2 124.1 119.9 120.5 120.6 120.3 120.7 121.4 122.7 123.8 124.2 125.4 126.6 127.7 127.9 128.8 141.4 152.7 159 159.4 159.1 159.5 157.2 152.2 160.3 167.4 175.1 175.1 176.8 177.3 182.3 183.7 187.3 191.6 196.9 200.6 204.8 205.9 205.4 204.3 203.3 200.2 197.6 193.8 190.9 187.4 185.4 182.2 179.2 183.2 182.8 182.9 184.8 188.2 191.3 196.4 198.4 198.5 200.8 203.1 206.1 209.7 213.6 219.7 223 224 223.5 221.9 218.1 214.4 214.6 215.6 219.5 225.2 228.4 232 233.6 234.7 236.6 243.5 251.1 252.6 244.3 220.7 199 193.1 174 170.9 176.2 175.1
