ncols 200
nrows 83
xllcorner 220000
yllcorner 113750
cellsize 50
-2.3 -2.3 -2.3 -2.3 -2.3 -2.3 -2.3 -2.3 -2.3 -2.3 -2.3 -2.3 -2.3 -2.3 -2.3 -2.3 -2.3 -2.3 -2.3 -2.3 -2.3 -2.3 -1.4 0.3 2 20.3 48.1 57.2 74.2 96.6 108.2 114.2 118.3 120.3 121.1 120.6 117.4 112.9 108.1 113.6 122.4 127.3 129.3 131.8 133.2 135.9 137.8 138.8 139.6 140.8 141.8 143.1 144.6 145.5 146.4 147.2 146.9 145.7 143.1 138.5 137.5 141.2 148 152.1 155.1 157.8 159.8 161.8 163.3 164.4 164.1 164.4 162.9 162.7 161.3 155.6 150.1 150.9 154.7 158.3 162.4 165.6 169.4 173.7 175.3 177.3 182.5 186.7 190.5 193.3 196.2 198 200.1 203.8 207.8 209.4 212.3 213 213.5 213.4 212.5 208.9 204.3 189.9 177.2 173.5 176.4 181.7 186.9 190.4 194.1 197.7 201.2 203.6 205.1 206.4 207.5 208.2 208.8 210.3 211.6 212.9 214.9 215.6 216.4 217.1 217 216.1 214.5 212.6 211.7 210.9 209.8 208.8 207.7 206.6 205.5 204.4 203.8 203.6 203.2 203.5 204.5 205.8 207.1 207.6 208.6 208.5 208 207.6 207.5 207.4 207.3 206.3 206.3 205.8 205.2 203.5 201.9 199.4 197.3 195.1 193.9 191.9 189.9 189.8 189.7 189.2 188.3 186.2 182.1 174 168.7 175.2 180.2 183.5 185.5 187.5 189.7 191.1 192.5 193.9 195.6 196 195.7 195 193.6 191.7 188.8 185.3 180.9 177.1 173.8 171 170.4 170.2 169.3 169.9 169.9 171.2
-2.3 -2.3 -2.3 -2.3 -2.3 -2.3 -2.3 -2.3 -2.3 -2.3 -2.3 -2.3 -2.3 -2.3 -2.3 -2.3 -2.3 -2.3 -2.3 -2.3 -2.3 -2.3 -0.7 1 2.8 34.3 63.6 75.9 87.2 107.1 114.3 119.2 122.2 123.8 125.4 126 125.4 124.4 123.3 118.7 121.1 126.2 127.8 130.9 134.2 136.8 139.4 141.2 142.6 144 145.2 146.5 147.7 148.9 150 150.5 150.3 149.1 147.3 144 141.1 143.3 147.4 151.9 155.2 158.2 160.5 162.2 162.9 163.5 161.4 158.9 150.3 146.9 144.9 135.8 141.8 148.7 155.6 159.7 160.6 164.2 167.9 172.1 177.3 182.8 187.9 191.3 194.4 196.5 198.6 199.8 201.5 204.9 207.2 206.5 211.8 212.8 213.2 213.2 212.2 209.6 204.8 188.3 177.1 173.4 170.5 177.1 180.3 183.5 188 192.4 195.6 199.1 200.8 201.6 202.5 203.1 203.8 205.7 207.9 210.2 212 213.3 215.2 216.1 215.3 215.4 215 213.2 212.2 210.9 209.6 208.6 207.5 206.4 205.3 204.7 204.9 204.2 204.4 203.8 204 204.2 205.1 205.5 205.5 205.3 204.9 204.4 203.6 203.8 203.1 203.7 203 203.8 203.9 203.4 202 200.3 197.6 195.6 193.8 192.7 191.2 190.3 189.2 188.4 186.7 184.1 178.3 170 169.8 175.7 179.7 182.8 184.9 186.5 188.2 190 192 193.6 195.1 195.8 195.6 195.3 193.3 190.9 187.8 185.1 180.7 178.7 176.1 174.5 173.4 173 171.9 172.5 172.2 172.7
-2.3 -2.3 -2.3 -2.3 -2.3 -2.3 -2.3 -2.3 -2.3 -2.3 -2.3 -2.3 -2.3 -2.3 -2.3 -2.3 -2.3 -2.3 -2.3 -2.3 -2.3 -2.3 0.1 1.9 6.3 45.6 86.8 96.1 102.5 111.4 117.1 121.7 124.7 127.1 128.9 129.9 130.6 129.8 130 129.5 129 129.2 131.2 133.4 135.9 138 141 142.8 144.5 146.1 147.7 149.5 150.8 152.1 153.5 154.1 154.1 153.1 151.3 148 145.3 145.8 149.2 152.3 155.7 158.1 160.3 161.9 162.4 161.7 159.3 152.8 135.2 123.5 140.7 155.9 157.1 159.9 162.1 165.2 168.7 173.6 178.1 181.8 185.2 189.4 193.2 195.8 197.6 199.6 201 202.3 203.9 206.6 208.3 210.1 211.5 212.1 212.2 212 210.8 207.5 202.4 188.5 174.4 167.4 165 170.2 171.7 175.6 182.5 187.4 191.2 194.1 196.3 197.5 199.2 199.1 199.7 202.2 204.6 207 209.5 212 214.5 215.9 216.7 215.9 216.1 214.2 213 211.8 210.3 208.8 207.3 206.2 205.5 204.9 203.8 203.5 203.3 203.9 203.7 203.4 203 202.4 202.1 201.8 201.2 200.6 200 199.7 199.7 199.3 199.5 199.7 201.8 201.7 200.7 199.3 197.7 196.2 194.4 192.5 190.4 188.6 187.1 185.5 183.3 180.6 175.4 167.9 169 175.6 178.1 181 182.5 185 186.6 188.2 190.2 191.9 193.7 195.7 195.8 195.5 193.9 191.4 189.1 186 183 181.4 179.3 178 176.8 175.6 175 174.7 174 174.2
-2.3 -2.3 -2.3 -2.3 -2.3 -2.3 -2.3 -2.3 -2.3 -2.3 -2.3 -2.3 -2.3 -2.3 -2.3 -2.3 -2.3 -2.3 -2.3 -2.3 -2.3 -2.3 0.7 3.3 40.1 64.1 96.7 101.1 105 110 115.2 120 124.6 128 130.3 132.2 132.8 133.4 133.2 133.1 133.5 134.8 135.9 137.5 138.6 139.8 142.4 144.1 145.7 147.5 149.1 150.7 152.7 154 155.4 156 156.1 155.5 153.7 151.7 150.3 150.1 150.1 153 155.5 157.9 160.1 161.6 161.6 159.8 155 139.6 122.9 132.7 155.6 158.7 162.7 165.9 168.3 172.1 176.8 181.2 185 189 192.1 194.8 196.6 199.3 200.9 202.1 202.9 204.2 205.4 206.8 208.2 209.4 210.1 210.3 210 209.6 208.1 204.8 198.9 184.2 167.7 156.3 152.4 150.7 157.9 164.6 171.6 178.9 183 186.1 189.2 190.8 192.2 192.9 194.8 197.7 200.3 203.2 207.7 212 215 216.7 217.6 217.5 217.1 215.8 214.6 213.6 212.6 210.7 209.1 207.5 205.6 204.6 203.5 202.5 202.5 202.2 201.8 201.6 201.2 200.7 199.7 198.8 198.3 198 197.4 197.1 197.2 196.9 196.7 198.2 198.7 199 198.2 197.7 196.7 195 193.3 190.8 188.9 185.4 182.9 181.2 178.9 175.6 170.2 169.1 169.7 173.6 176 179 180.9 183.3 185.4 186.9 189.6 191.9 194.2 195.8 196.7 197 196.2 194 191.4 189 186.5 184.4 183 181.1 179.4 178.1 178.1 176.9 177 176.3
-2.3 -2.3 -2.3 -2.3 -2.3 -2.3 -2.3 -2.3 -2.3 -2.3 -2.3 -2.3 -2.3 -2.3 -2.3 -2.3 -2.3 -2.3 -2.3 -2.3 -2.3 -1.1 0.5 2.2 33.9 68 94.5 101.5 105 108.1 111.9 115.8 119.2 125.4 129.7 132.4 134.7 135.8 135.9 136.1 136.5 137.4 138.6 140.1 141.3 142.4 143.9 145.4 147.1 149.3 150.7 152.6 154.2 155.4 156.4 156.9 157.2 157.6 156.7 155.3 153.9 152.4 152.3 154.1 156.4 158.7 160.1 161.2 159.8 155.8 151.7 124.1 115.7 145 160.1 163.6 168 172.2 176.4 180.1 183.4 186.2 188.5 191.4 194.9 197.2 199.4 201.2 202.6 202.8 203.2 204.1 205 205.9 206.6 207.5 207.9 207.3 206.4 205 201.9 197.1 191.4 180.3 160.6 145.3 150.8 157.4 161.9 159.5 161.6 170.2 174.1 173.8 176 176.5 183.6 188.6 192.4 194.8 199.2 203.9 208.4 212.7 215.6 217.7 219 219.1 218.6 217.3 216.4 215.1 213.6 212.2 211.2 208.9 206.4 204.2 203.1 201.8 200.8 200.7 200.6 200.4 200 198.8 197.7 196.6 195.7 195.4 194.7 195 195.2 195.2 194.9 195.9 196.3 196.6 196.5 196 195 193.6 191.6 189 186.5 182.1 179.6 177.1 175.6 172.1 169.4 169.9 170.2 172.1 174.5 177.1 179.9 181.7 184.5 186.7 189.7 192.4 194.6 196.3 198 198.6 198.3 197 195 192.6 190 188.3 186.7 185.1 183.3 181.7 180.5 178.7 178.6 178.4
-2.3 -2.3 -2.3 -2.3 -2.3 -2.3 -2.3 -2.3 -2.3 -2.3 -2.3 -2.3 -2.3 -2.3 -2.3 -2.3 -2.3 -2.3 -2.3 -2.3 -2.3 -1.9 -0.3 2.2 33.7 53.8 84.6 101.1 101.8 101.8 101.9 104.2 109.6 115.9 125.3 131.3 134.3 135.9 136.6 137.9 138.6 140 140.6 142.3 143.7 144.8 146 147.8 149.5 151.3 152.6 154.5 155.2 156.1 157.1 157.5 157.5 157.4 157.3 156.7 155.8 155.3 154.6 155.9 157.3 158.9 159.9 158.5 153.6 149.8 130.5 104.5 128.6 153.8 161.7 167.4 171.7 176.2 180.1 183.3 186.1 187.8 190 192.9 196 197.8 199.8 201.1 201.9 201.9 201.7 201.9 202.4 203 203.3 203.7 204.1 202.1 200.7 197.8 192.7 184.8 176.2 172.5 151.2 142.5 157.1 165.6 168.3 169 169.2 170.3 170.2 174.6 181.7 185.3 188.6 191.9 194.7 198.5 201.8 205.6 209.6 214 216 218.5 220.2 219.1 218.7 216.8 215.8 213.9 212.4 211 210.2 207.8 205.6 203.6 202.6 201.3 200.1 199.1 199.3 199 198 197 196 194.9 193.5 192.5 192.5 192.6 193 193.1 193.2 193.5 193.9 194.3 194.1 194 193 192 190.2 188 185.6 181.9 177.7 174.5 172.3 169.6 168.9 169.4 170.5 171.8 174.8 177.5 179.4 181.9 184.4 187.1 189.7 192.5 195.1 197.1 199.2 200 200.4 199.1 197.9 195.7 193.6 192.1 189.9 187.8 186.3 184.9 183.3 181.6 181 180.7
-2.3 -2.3 -2.3 -2.3 -2.3 -2.3 -2.3 -2.3 -2.3 -2.3 -2.3 -2.3 -2.3 -2.3 -2.3 -2.3 -2.3 -2.3 -2.3 -2.3 -2.3 -2.3 -0.9 1.6 14.8 52.1 80.3 78.3 74.5 71.4 71.9 75.9 82.6 93.4 107.6 120.5 130.2 134.1 135.5 135.6 137.1 139.9 141.2 142.9 144.8 146.5 147.8 148.8 150.1 151.1 152.9 154 155 155.9 156.4 156.9 157.3 157.4 157.5 157.3 157.2 156.5 155.6 155.6 156.3 157.3 156.7 150.6 133.1 120 102.4 114.7 137.6 154.9 162.4 168 172.4 176.6 180.1 183.5 185.7 188.4 190.3 192.4 194.7 196.5 197.8 198.1 197.8 197.1 196.9 196.7 196.9 197.6 198.5 199.1 198.1 196.1 192.7 186.9 183.8 172.2 160.8 149.3 134.6 149.8 164.7 171.3 175.5 176.3 176.7 176.9 180.3 180.7 184.1 189.4 192 195.6 198.4 202.2 206.7 210.7 215 218.3 219.4 221.3 221.2 220.5 218.8 216.8 215.1 212.7 211.1 209.9 208.4 206.1 204 202.4 201.6 200.5 199.1 197.6 197.5 196.9 196 195.2 194.3 193.1 191.3 190.7 190.1 189.9 190.6 190.9 190.6 190 190.8 191.1 191.3 191.4 190.7 189.8 188.6 186.6 184.1 180.5 175.8 173.3 171.5 169 169 170.3 172.1 173.9 175.2 177.1 178.9 181.3 184 186.7 189.8 192.6 195.4 198 200.3 201.3 202.2 201.9 200.9 199.1 197.5 195.4 193.5 191.5 189.7 187.9 186.3 184.7 183.9 183.2
-2.3 -2.3 -2.3 -2.3 -2.3 -2.3 -2.3 -2.3 -2.3 -2.3 -2.3 -2.3 -2.3 -2.3 -2.3 -2.3 -2.3 -2.3 -2.3 -2.3 -2.3 -2.3 -2.3 0.4 2.8 46.3 50.5 46.9 43.2 40.4 42.5 46.7 54.6 65.6 80.7 94.9 108.6 120 126.6 131.3 130.9 132 135.6 140.5 142.7 143.9 145 146.1 147.4 148.8 150.1 151.4 152.6 153.6 154.2 155.1 155.9 156.2 156 155.6 155.3 156.3 155 152.4 152.5 153.7 152.4 136.9 114.5 97.3 104.2 124.1 140.1 153.8 161.5 166.7 171 175 178.3 180.8 182.3 184.8 187 189.6 191.8 193.6 193.8 192.5 191.9 189.7 188.9 186.1 184 184.3 189.3 187 183.5 180.5 175.9 166.8 163.4 153.1 143.4 131.9 150.4 163.5 170.4 176 179.4 182.2 183.6 184.7 186.2 188 190 193 196 199.1 202.9 205.9 209.4 212.7 215.8 218.7 220.5 221.6 221.7 220.2 218 215.8 213.7 211.7 210.1 209.3 206.8 204.7 202.4 201.3 200.3 198.4 197.3 196.2 195.5 194.7 193.9 193.1 192.3 191.9 190.1 188.4 187.7 187.7 188.1 188.6 188.5 188.4 188.4 188.3 188.3 188.2 187.5 186.8 185.6 183.9 181.4 178.1 174.4 172 169.7 169.8 170.7 172.1 173.9 175.7 177.3 177.7 178.4 180.7 183.7 186.9 189.7 192.7 195.6 197.9 200.5 202.7 203.9 204.3 204.3 202.5 202 199.7 197.9 196.5 194.6 192 190.1 187.6 186.7 185.4
-2.3 -2.3 -2.3 -2.3 -2.3 -2.3 -2.3 -2.3 -2.3 -2.3 -2.3 -2.3 -2.3 -2.3 -2.3 -2.3 -2.3 -2.3 -2.3 -2.3 -2.3 -2.3 -1.9 1 8.3 26.1 16.7 19.8 25.9 27.5 23.4 30.6 34.3 44.7 57.4 70.9 85.5 98 109 117 121.9 122 122 123.4 126 125.8 124.8 126 132.1 136.4 139 142.7 145.8 147.5 148.5 149.5 151 152.5 152 150.9 150.7 149.9 147.7 144.9 144.2 146.2 144.5 126.9 101 93.4 111.9 127.7 140.2 150.3 157.3 162.2 166 170.3 174.4 176 176.8 179.2 180.3 181.8 184 184.1 183.7 182.7 180.7 175.5 169.1 165.8 163.9 165.1 168.2 165.9 163 160.4 156.6 149.1 142.7 132.9 131 147.1 157.9 170.3 176.2 179.7 182.4 184.6 186.4 188.1 190 191.8 192.8 194.8 197.1 199.4 202 204.9 208.7 211.7 214.6 217.5 219.6 220.9 221.6 220.2 218.5 215.7 213.6 211.5 209.7 208.9 207.6 205.7 203.8 202 200.3 197.4 196.2 195.2 194.2 192.7 191.9 191.1 190.8 190.6 189.2 187.5 185.8 185.8 185.9 186 186.3 186.4 185.8 185.4 185.3 184.9 184.3 183.6 182.8 181.2 179.3 176.2 172.9 171 169.1 170.7 172.1 174.2 175.8 177.5 179.2 180.1 180.5 181.7 184.5 187.7 190.3 192.2 195.5 198.9 202 204.5 206.2 206.7 207.2 206.7 206.5 205.3 204 201.8 200.1 198 195.9 192.9 189 187
-2.3 -2.3 -2.3 -2.3 -2.3 -2.3 -2.3 -2.3 -2.3 -2.3 -2.3 -2.3 -2.3 -2.3 -2.3 -2.3 -2.3 -2.3 -1.2 -0.7 -0.3 0.6 1.5 -2.2 17.5 11.6 27 28.7 26 22.5 28 30.2 32.9 34 38.4 49.4 62.2 75.6 88.9 99.5 108.3 109.3 111.6 111.9 109.5 108.3 107.7 107.7 110.5 115.7 119.6 123.7 128.7 132.7 134 134.3 136.4 136.4 135.6 135.5 138.6 141.1 139 136.5 131.4 130.3 128.1 110.5 86.3 101.9 116 124.4 136 143.5 148.4 154.7 158.1 160.1 162.3 165.1 166.7 168.9 165.9 163.2 163.5 164.1 164.8 164.1 161.5 156.5 149.2 144.3 144.3 145.8 146.5 144.9 142.7 140.3 136.5 131 126.8 136.3 147.8 163.2 169.9 174.9 179.1 182.2 184.9 186.6 187.5 188.4 188.7 190.3 191.9 192.8 194.9 197 199.2 200.8 205.3 208.6 211.4 215.1 218 219.6 221.2 220.3 219.3 217.1 215.6 213.4 211.7 211.2 210.1 208 206 204.2 201.2 198.4 196.3 194.6 194.3 191.3 190 189.7 189.6 189.4 188.4 186.7 185 183.1 183.7 183.6 183.5 183.7 183.1 182.5 182 182.5 181.4 181.1 180.3 179.1 177.6 174.1 171.5 170.9 172.3 172.5 173.4 175.6 177.1 179.3 181 182.3 182.6 183.5 185.6 188.5 191.1 193.8 196.7 200.4 203.4 205.9 207.7 208.7 209.2 209 208 207.1 205.8 203.6 201.5 199.6 197 194.6 191.8 188.6
-2.3 -2.3 -2.3 -2.3 -2.3 -2.3 -2.3 -2.3 -2.3 -2.3 -2.3 -2.3 -2.3 -2.3 -2.3 -2.3 -2.3 -0.6 0.4 1.1 1.6 3.6 21.8 21 19.9 27.8 31 34.2 37.3 41.8 48.6 51.1 46.1 31.9 34.6 36.3 41.2 52.5 67.5 79.1 87 92.3 97.2 98.7 98.4 95.2 92.9 91 89.8 94.9 100.7 106.7 110 112.1 112.2 112.8 113.8 114.6 114 116.1 116.1 119.3 122.1 117.6 112.9 108.7 100.9 90.4 81 93.1 103.1 112 121.2 132.7 137.5 141.9 145.5 145.9 146.2 147.3 147.7 149.7 146.6 145.1 141.6 141.2 142.6 145.7 142.4 138.6 131.5 125.9 127.2 126.5 126.8 123.9 122 120 116.5 122.8 136.5 152.1 161.1 168.3 173.7 178.3 181.1 183.7 185.4 185.9 187 186.1 186.1 187.1 187.7 186.9 188.5 191.5 194 196 199.1 203.6 208 211.8 215.6 218.6 220.4 221 220.6 219.7 218.3 216.7 215.1 213.4 212.4 210.6 208.7 206 202.8 199.5 197.3 194.7 193.2 192 190.3 188.6 188.1 187.7 187.1 186.3 185.1 183.6 181.1 181.4 181.2 180.8 180.7 180 179.2 179.8 178.7 178.1 177.3 175.8 174 172 171.4 172.2 173 173.4 174.7 176.6 178.4 180.7 182.9 184 184.7 185 186.9 189.5 191.7 194.6 197.6 200.6 203.5 206.4 208.5 210 210.6 210.6 209.6 208.3 206.5 204.4 202.3 200.1 197.9 195.7 193.2 189.4
-2.3 -2.3 -2.3 -2.3 -2.3 -2.3 -2.3 -2.3 -2.3 -2.3 -2.3 -2.3 -2.3 -2.3 -2.3 -2.3 -1.1 0.5 1.9 2.7 18.1 41.1 46.7 47.9 48.7 47.9 48 48.8 54 60 66.8 67.3 65.4 56.8 43.5 35.1 36.9 38.9 46.4 56.8 65.6 72.7 79.4 80.6 78.9 76.2 73.9 72.8 71.7 76.1 82.9 88.3 89.7 90.5 90.5 91 91.1 93.2 93.7 94.6 94.3 96.4 100.6 98.4 90.1 87.7 74.8 73.9 77.2 82.2 89.3 95.5 104.5 113.5 119.7 124.8 128.6 128.3 127.2 128.1 128.5 130.4 127.8 128.7 125.5 126.8 125.7 129 133.1 132.6 122.3 117 114.4 111.1 112.7 117.8 122.6 125.7 130.1 123.9 133 146.9 159.3 167.2 173.2 177.4 180.5 182.2 183.8 184.4 184.3 183.7 183.2 182.8 182.3 181.1 182.8 185.6 188.2 191 193.1 197.8 201.9 207.3 212.1 216.3 219.1 220.8 221.2 221.3 220 218.7 216.9 215.9 214.4 212.5 209.7 207.1 204.1 200.8 198.2 195.7 192.8 191.1 189.5 188 187.5 184.4 184.7 184 182.5 180.8 179.2 178.6 178.7 178 177.3 177.3 176.4 176.4 175.5 175 174.3 172.8 172.1 171.1 172.1 173.8 175.3 175.6 176.7 178.6 180.3 182.1 184.3 185.6 186.9 187.5 187.9 190.1 191.9 194.5 197.5 200.4 203.2 206.1 208.6 210.3 210.3 210.1 209.3 208 206.1 204.1 201.9 199.4 197 194.7 192.2 188.7
-2.3 -2.3 -2.3 -2.3 -2.3 -2.3 -2.3 -2.3 -2.3 -2.3 -2.3 -2.3 -2.3 -2.3 -2.3 -2.3 0.3 1.5 17.6 33.3 57 67.4 74.7 73.2 69.3 66.3 66.9 70.9 75.8 80 83.5 84.9 82.8 74.4 63.9 47.3 36.5 37.9 39 42.6 49.7 57.2 60.8 61.9 59.9 59.6 55.7 54.5 53.6 58 63.2 64.8 66.2 67.4 68.7 68.9 68.4 70.4 73.1 73.1 72.9 74.5 79.1 78.4 72.5 67.1 68 70.2 74.8 73.6 75.6 78.8 86.6 96.2 102.1 108 111.8 111.3 108.9 108.9 109.3 111.2 110.5 112.3 112 113.2 114.5 115.5 120.7 121.1 113.3 108.3 111.9 117.5 132.2 140.5 145.4 145.9 149.9 145.7 124.9 135.8 147.5 159.9 168.6 174.5 177.3 179.1 180.3 180.2 179.9 179.1 178.8 177.5 175.7 177.5 177.2 178.9 182.9 185.7 189.4 192.8 198 203.4 209 214.2 218 219.5 220.7 221.2 220.4 219.2 216.8 215.1 213.4 211.8 209.3 206.6 203.8 199.8 196.9 194.6 192.4 190.9 189.4 187.9 186.5 184.6 183.6 182.2 181.4 181.1 180.6 180.1 179.4 178.5 177.6 176.7 176.1 174.9 174 173.6 173.2 172.5 172.5 172.6 174 176.3 177.6 177.8 177.3 179.7 181.5 183.1 185.6 186.7 187.9 188.7 189.4 190.4 192.5 194.5 197.3 200.1 202.8 205.4 207.7 209.2 209.3 209.1 208.5 207 205.1 202.6 200.3 198 195.4 192.9 189.8 186.9
-2.3 -2.3 -2.3 -2.3 -2.3 -2.3 -2.3 -2.3 -2.3 -2.3 -2.3 -2.3 -2.3 -2.3 0.5 1.1 2 5.2 37.9 71.9 80.5 90.8 90.6 90.9 89.4 89.8 90.9 92.1 94.4 96.5 98 99 98 90.6 80.2 68.1 56.6 46.7 39.6 40.9 41.5 42.8 43.9 44.9 45.6 48 48.9 48.3 49.4 51.5 53.7 53.2 53.9 54.8 55.5 55.9 56.3 57.6 58.4 59.8 61 62 63 64 65.3 66.3 68.4 70.1 71.7 84.5 90.9 89.8 82.9 78.6 85.2 91.1 95 94.3 91.5 89.7 90 92 94.8 97 98.4 99.7 100.6 101.9 108.3 108.7 114.1 124.7 133.1 133.1 144.8 158.4 161.8 162.2 161.9 159.8 142.2 131.3 135.1 147.3 155.6 162.1 167.6 171.7 173.6 173.9 173.4 173.3 172.7 170.2 168.9 173.9 177.5 179.3 181.3 185.5 190 194.2 198.2 202.6 208.1 213.3 216.9 218.7 220 220.3 219.5 218.5 215.6 213.4 212.9 210.8 206.7 205 202.1 199.1 196.3 194 192.2 190.7 189.2 187.7 185.6 184.7 183.6 182.8 182.7 182.3 182 181.6 180.6 179.6 178.7 177.7 177 176.1 175.7 175.1 174.5 173.6 173.7 173.2 174.5 177.2 178.4 179.2 179.9 180.3 183 185.4 186.8 187.8 188.8 189.2 189.7 190.8 192.2 194.3 196.4 199 201.6 204.3 206.4 208 208.5 208.8 208.5 206.2 204.6 202.5 199.6 196.9 194.2 190.7 189.9 190.2
-2.3 -2.3 -2.3 -2.3 -2.3 -2.3 -2.3 -2.3 0.9 -2.3 -2.3 2.8 2.3 2.2 11.9 10.5 45.2 73 88.9 93.8 94.7 101.7 101.5 102.7 103.6 104.5 103.8 103.3 104.7 106 107.7 108.8 109.3 106.6 98.9 88.6 79.1 69.9 61.1 53 44.8 43.4 43.9 44.7 47.1 48.6 67.7 66.5 61.7 53.3 56.6 59 61.8 60.5 61.1 64.1 63.9 60.8 58.6 60.7 61.2 61.9 63.5 64.1 71.6 73.2 69.3 70.5 72.1 76.9 93.7 106.8 100.2 100.4 91.5 85.5 89 91.5 94.3 97.2 102.3 105 105.4 107 107.4 108.6 109.5 111.4 117.1 123.5 132.2 142.9 153.5 153.4 144.9 164.4 170 172.7 172.6 170.9 163.9 151.1 140 133 139.9 145.4 148.6 152.2 153.8 155.2 157.7 161.6 161.2 162.8 166.2 171.1 174.9 178.5 181.9 186.5 190.9 194.9 200.1 204.3 208.9 212.8 216.3 218.4 219.5 220 219.4 217.8 215.8 214.2 212.8 209.7 205.7 202.6 200.2 197.9 195.8 193.5 191.8 190.4 188.9 187.6 186.3 184.7 184.5 184.3 183.7 183.4 183 183 182 180.9 179.8 178.8 177.9 177.5 177.2 176.7 175.8 174.6 174.1 174.1 175.1 176.7 178.2 179.9 181.4 182.1 182.8 185.6 187.2 187.9 188.5 189.2 190.1 191.3 192.5 193.8 195.8 198 200.5 203 206.1 207.9 208.9 209 208.1 206.8 205.3 203 200.3 197.4 193.9 195.6 195.8 195.4
-2.3 -2.3 -2.3 -2.3 -2.3 -2.3 -2.3 -2.3 -2.4 -2.3 -2.3 1.1 2.3 7.6 29.6 72.4 88.5 93.2 96.1 101.6 105.1 107.3 109.3 110.1 111.2 112.1 112.8 113.6 112.9 112.4 114.1 115.2 115.9 116 114.1 107.7 100.1 92 84.2 73.9 67.3 65.1 63.6 63.4 68.3 82.4 88.5 89.5 87.5 68.9 59.1 73.2 82.1 80.5 81.2 81.8 82.2 80.8 77.5 68.9 72.7 75.5 78.7 81.9 88.2 91 86.6 76.3 72.7 75 84.8 108.1 119.8 123.5 111.5 106.4 107.9 106.9 110.4 113.2 119.8 123.7 125.1 128.7 134.2 133.5 132.6 134 140.2 147.1 153.1 160.4 165.9 167.6 162.5 164.3 175.1 179.5 182.4 183.4 181.8 175 162.3 151.6 143 142 145.2 145.4 146.5 148.2 148.2 150.6 149.7 149.5 160.6 166.3 171.9 175.4 179.1 183.9 189.7 194.6 198.9 203.7 209.1 211.9 215.6 217.9 218.7 218.6 218.5 217.7 216 214.7 211.8 208.7 205.6 202.8 200.2 197.7 195.4 193.1 191.3 190.1 189 187.7 186.6 186.2 185.8 185.5 185.2 184.6 184.7 184.4 183.5 182.4 181.3 180.2 179.3 178.9 178.5 177.6 176.4 175.2 175.1 175.1 175.6 175.9 177.2 179 181.3 183.1 183.7 184.8 186.9 188.2 189.3 190 191.2 192.6 193.9 196.3 198.1 200.2 201.9 204.7 207.1 208.3 209.4 208.9 207.9 206.7 205.3 203.5 200.9 196.6 197.6 199.2 199 198.7
-2.3 -2.3 -2.3 -2.3 -2.3 -2.3 -2.3 -2.3 -2.3 -2.3 -2.3 -2.3 -2.3 0.5 2.4 48.1 80.7 88.8 94.9 99.7 103.4 107.3 109.4 111.1 113.5 115.6 117.1 117.8 118.4 118.8 119.2 119.3 119.5 120.4 120 117.8 113.3 109 102.5 94.7 89.9 86.8 85.2 85.6 92 98.6 103.6 105.4 103.9 82.4 60.4 74.5 93.2 98.1 98.9 99.4 101.2 101.9 99.3 85.4 91.3 95.2 98.8 102.3 107.8 108.3 103.1 92.3 78.7 74.7 80.6 100.8 121.4 129.2 129.3 127.2 124.7 122.7 121 126.4 136.3 142.5 144.5 147.2 148.7 147.9 148.3 151.9 155.2 158.4 165 171.1 174.7 176.8 176.1 172 179.3 184.6 188.3 189.9 190.7 188.9 185 174.5 163.1 161.6 166.7 166.4 168.6 168.4 166.3 162.5 160.6 160.7 157.1 157.4 168.6 172.4 176.1 181 187 193.5 197.6 202.3 206.2 209.9 212.8 214.7 216.4 217 217.6 217.3 216.4 214.7 211 207.7 205.3 202.6 199.8 197.3 195.6 193.1 191.5 190.4 189.3 188.4 187.7 187.4 187.5 187.7 186.3 186.2 186.2 185.7 184.9 183.9 182.7 181.3 180.6 180.1 179.2 178.1 177 176.1 176 176.6 176.7 176.7 176.5 178.4 180.9 183.3 185.2 186.8 187.9 188.9 190 191.1 192.8 194.7 196.6 198.8 200.9 202.5 204 206.2 207.5 208.7 209.2 208.5 207.6 206.3 204.4 203.2 200.3 198.6 200.3 201.7 202.2 202
-2.3 -2.3 -2.3 -2.3 -2.3 -2.3 -2.3 -2.3 -2.3 -2.3 -2.3 -2.3 -2.3 -0.4 2 32.2 66.9 81.6 91 96.9 101 104.5 107.4 109.6 112.3 115.5 117.8 119.6 120.5 121.2 121.8 122.4 123.1 123.6 123.6 123.2 120.7 118.2 116.1 114.5 111 106.5 104.8 106 112.6 115.8 116.9 116.4 113.9 93.8 69.3 68.6 91 109.8 113.2 114.8 115.1 114.6 111.4 99.5 97.4 111.7 116.7 119.7 122.1 121.8 117.7 108.6 89.2 76 80.3 96.3 118.2 132 136 136 134.2 132.6 134.6 137.8 142.2 146.8 150.9 154.6 157.7 159.5 160 161.4 164.2 167.7 174 178.1 181.2 182.8 183.2 183.8 184.7 189.3 193 195.7 196.4 196.2 192.8 185.1 178.5 176.1 176.7 176.3 176.1 175 172.8 169.5 171.1 171.1 169.2 164.3 161.6 170.9 173.1 178.2 184.6 189.5 194.3 198.4 202.1 204.8 207.8 210.7 212.2 213.5 215.4 215.6 215.2 212.8 210.1 206.7 204.1 201.4 199.3 196.9 195.2 193.9 192.5 191.2 190 189.3 188.7 188.5 188.6 188 187.8 187.8 187.3 186.7 185.9 185.1 183.7 182.3 181.9 181 180 178.9 178.1 177.3 177.4 177.7 177.6 177.7 177.8 178.4 180.1 182.2 185.2 187.5 188.2 188.7 189.7 190.4 192.5 195.5 198.5 200.2 201.9 203.3 204.8 206.2 207.5 208.4 208.9 208.1 207.3 205.7 204.2 203.3 202.5 201.8 202.7 204.9 207 207.5
-2.3 -2.3 -2.3 -2.3 -2.3 -2.3 -2.3 -2.3 -2.3 -2.3 -2.3 -2.3 -2.3 -0.3 2.3 34.5 42.1 57.8 75.3 89 95.3 99.6 103.5 107.2 109.3 112.8 115 116.9 119 120.1 121.8 122.8 123.6 125.1 126.2 126.3 126.4 126.7 126.2 123.9 121.9 119.4 118.5 119.7 121.5 124 124.5 123.7 119.8 104.3 75.8 70.2 94.9 119.5 122.9 124.2 123.6 122.4 119.8 115.7 97.1 112.6 121.9 125.6 128.8 130.3 130 123 100.4 77.2 84.5 102.9 121.6 134.5 139.1 141.2 143 143.7 146.2 149.1 151.1 154.4 158.7 162.7 165.8 168.1 169.2 169.9 171.9 175.8 179 182.5 185 187.2 189 189.8 191.1 193.9 197.4 200.5 201.4 201.2 198.9 193.4 188 185.4 183.2 182 182.3 180.5 177.3 173.7 178 177.8 176.2 173 170.2 168.2 170 172.4 177.1 183.6 190.4 193.3 195.5 198.7 201.5 205.2 207.5 210.4 212.7 214 214 212.1 209.1 206.4 203 201.3 199.4 197.8 196.3 194.9 193.5 192.1 190.8 190.3 189.8 189.5 189.3 189.4 189.1 189.4 188.7 188.1 187.5 186.2 184.8 183.6 182.7 181.7 180.7 179.3 179 178.2 178.5 178.7 178.7 178.6 178.9 178.7 178.8 180.5 183.5 186.5 187.6 188.3 188.7 189.7 192.2 195.6 198.7 200.2 201.1 202.2 203.9 205.9 207 207.7 208.2 208.7 207.9 206.6 205.6 205.1 204.9 204.6 206.6 209.1 211.4 212
-2.3 -2.3 -2.3 -2.3 -2.3 -2.3 -2.3 -2.3 -2.3 -2.3 -2.3 -2.3 -2.3 1.2 3.5 45.4 36.5 41.7 53.1 68.2 83.9 90.9 96.1 101.3 104.9 106.3 107.3 111.4 114.6 117.7 120 121.8 123.8 125.4 126.4 128.4 129.2 130.1 130.9 131.6 130.6 130.3 130.6 130.6 130 130.3 130.7 129.3 124.8 108.4 79.8 73 98.2 121.5 127.6 129.7 129.6 128.5 127.3 125.5 119.6 116.4 125.7 130.9 134.5 137.6 138.9 129.6 104.7 80.9 93.6 108.9 126.5 137.6 142.6 146.2 149.1 150.9 153.2 155.6 157.6 160.3 164.3 167.5 170.4 172.9 175.2 176.5 177.9 181.2 183.5 186.6 188.6 191 192.6 194.5 196 197.4 200.1 202.6 203.8 204.3 203.6 200.2 196 194.2 192.4 190.3 188.1 185.4 181.3 181.8 183.1 183.7 182.1 179.2 177.1 174 172.9 172.6 175.5 180.5 184.1 188.6 192.4 193.5 197.9 202.7 206.2 209.6 212.6 214.3 213.8 212.5 209.5 207.6 205.9 203.7 201.5 199.4 197.8 196.3 194.7 193.2 192 191.4 190.9 190.9 191 190.9 191.3 191.5 190.9 190.5 189.2 187.7 186.3 184.7 183.5 182.5 182 180.8 180.1 179.7 179.8 180 180.3 180.7 181 180.5 181.3 180.5 181.4 184 186.3 187.2 187.7 189 191.8 195.2 198.3 198.2 200.2 201.1 203.6 205 206.2 207 207.4 207.9 208.3 207.9 207.5 207.5 207.2 207.5 210.3 212.5 214.1 214.9
-2.3 -2.3 -2.3 -2.3 -2.3 -2.3 -2.3 -2.3 -2.3 -2.3 -2.3 0.5 2 7.5 46.4 67.9 59.8 51.5 44.7 49.9 69 83.8 92.5 98.1 100.1 99.8 100.8 103.9 110.7 114.9 117.8 120.4 122.6 124.7 125.7 127.1 128.6 130.1 131.6 132.6 134.2 135.3 136.3 136.8 136.9 136.1 135.5 133.2 128.4 116.4 83.2 80.3 106 124.1 130.6 133.8 134.1 133.4 132.3 131.1 128.1 127.7 131 135 139.3 143.1 144 134.4 108.3 80.8 94.8 114.2 131.6 138.5 143.7 147.7 150.8 153.2 155.5 158 160.8 163.2 167 170.8 172.8 177.6 179.7 181.6 183.6 185.9 187.8 189.9 192 194 195.8 197.7 198.8 200.6 203.1 204.3 206 206.6 206.7 205.4 202.4 200 198.7 196.6 193.7 191.5 190.4 189.3 189.7 189.7 188.3 187.1 185 182.8 180.9 179.6 181.6 187.9 192 194.8 197 196.3 202 206.1 208.7 211.6 214.3 214.3 213.9 213.1 212 211 209.2 207 204.4 201.7 199.5 197.9 196.2 194.7 193.6 192.8 192.5 192.5 192.8 193.3 193.6 194.4 194.3 193.8 192.3 190.3 188.3 186.5 184.8 184.1 183.7 182.3 181.8 181.1 180.9 181.6 182.2 182.3 182.1 182.7 182.5 182.5 181.8 182.3 184.1 185.4 186.4 188.7 191.5 194.7 197.2 198.8 200.2 202.1 203.3 204.5 205.7 207.2 207.6 208.2 209.3 210.2 210 210.4 211 211.8 213.3 215.2 216.5 217.4
-2.3 -2.3 -2.3 -2.3 -2.3 -2.3 -2.3 -2.3 -2.3 -2.3 0.4 2.7 14.1 42.1 79.6 87.2 81 70.8 57.1 48 60.3 82.8 92.1 96.4 94.3 93.6 94 98.2 105.6 111.6 115.2 117.6 119.2 120.5 123.1 124.5 126.4 127.5 129.5 131.7 134 136.3 137.8 138.9 139.5 139.8 139.4 138.3 135.5 125.1 87.3 91.8 117.1 128.4 134 137.1 138.2 138.2 137.6 136.5 135.6 135.2 137.7 139.8 143.1 145 146.5 139.8 117.3 87.5 96.8 115.3 133.4 139.7 144.7 148.6 151.9 154.4 156.6 159 162 165.3 168.8 172.3 176.5 179.9 182.2 184.5 186.3 188 190 192 193.6 195.5 197.1 198.9 200.4 202 203.7 204.9 205.6 206.9 207.3 207.4 206.5 204.7 202.9 200.4 198.2 195.2 195.2 195 195.2 194.9 194.8 193.7 192.9 192.2 191 189.2 185.1 191.3 196.5 199.7 201.5 202.6 206 208.4 211.5 213.4 215.8 215.4 215.3 215.1 214 213.1 211.7 210.3 207.8 204.7 202 199.8 198.4 196.5 195.2 194.3 194.1 194.4 194.9 195.5 196.2 197.1 197.3 196.3 195.2 193.8 191.6 189.4 187.9 186.4 185.2 184 183.3 182.4 182.9 183.8 184.5 184.8 185.2 184.9 184.4 183.8 183.5 182.9 182.8 184.8 187.6 189.4 191.5 194.6 196.5 200.1 202.3 204 204.3 205.5 206.4 207.5 208.5 209.4 210.3 210.9 211.4 211.9 212.6 213.5 214.7 216.2 217.5 218.8
-2.3 -2.3 -2.3 -2.3 -2.3 -2.3 -2.3 -2.3 -0.6 0.6 2.8 35 63.2 91.2 96.4 96.8 93.9 88.2 74.8 58.7 58.5 80.2 86.7 85.2 81 75.1 74.1 87.3 99.3 106.6 110.9 113.7 115.1 115.4 117.9 120.5 122.7 124.4 126.2 129.2 132.4 135.3 138.2 139.9 141.6 142.8 143.3 143.1 140.4 123.2 92.4 100.8 128.6 133.8 137.3 139.6 140.5 140.2 140 139.4 139.6 139.8 141.9 143.6 145.8 146.8 148.3 144.7 123.5 96.2 90.3 108.4 127.2 140.1 144.9 148.2 151.4 153.2 155.5 158.6 161.9 165.3 168.6 171.7 176.2 179.4 182.7 185.4 187.5 189.3 190.6 192.3 194.1 195.1 196.7 197.9 199.2 201.4 203.1 204.2 205.3 205.6 206 206.1 206.4 205.7 204.8 203 201.6 201 199.8 199.9 200.1 199.6 200.1 200.1 200.1 199.2 199.2 199 198.9 196.5 202.9 205.8 206.7 208.5 210.2 212.9 214.6 216 216.8 216.9 217.1 216.9 216.1 215.6 214.4 213 210.8 208.2 205.5 203.2 201.3 199 197.3 196.6 196.8 196.9 197.4 198.2 198.9 199.6 199.8 198.8 198.4 197.7 197.5 195.6 191.9 189.5 188 186.1 185.1 184.3 184.8 186.6 186.9 187.1 187.3 187 186.4 185.7 185.3 185.2 184.9 184.7 187 189.1 191.8 194.7 197.4 200 202.2 203.6 204.6 205.1 205 205.8 207.3 208.4 209.1 209.6 210.3 211.4 212.5 213.5 214.7 216.8 218.3 219.3
-2.3 -2.3 -2.3 -2.3 -2.3 -2.3 -2.3 -2.3 -0.2 2 11.5 54.8 85.9 94.8 100.2 99.8 98 95.2 91.5 72.9 58.7 55.2 58 63.2 72.5 81.5 88.8 91.6 83.2 97.9 103.6 108.1 110.6 112.4 114.2 116 117.8 119.9 122.8 126.4 129.4 133.4 136.6 139.1 141.8 144 145.1 145.5 142.2 127.9 94.8 110.5 130.1 136.3 138.8 140.9 142 142.2 141.8 141.7 142.3 143.5 145.1 146.6 148.6 149.9 150.8 147.3 138.3 117.9 92.6 99.5 118.6 138.6 143.2 146.3 148.7 150.7 153.8 156.6 160.3 163.9 168.1 171.2 174.4 178.5 181.8 184.8 187.5 189.2 190.5 191.7 192 192.8 193.8 194.2 195.2 197.1 199.8 200.9 201.2 201.4 201.5 202.2 203.4 204.6 204 203.1 202.1 201.5 202.7 203.1 202.9 204 204.3 204.5 205.3 206 206.3 206.3 205.9 204.3 206.7 209.1 210 211.5 213.1 213.8 215.2 216 216.5 216.9 217.1 217.5 217.3 216.8 215.7 214.7 213.1 210.5 206.9 204.8 203 201.4 200.6 200.3 200 200.6 201.1 201 201.5 202.2 202.1 201.9 201.8 201.7 201.2 200.3 198.3 195.1 192.1 189.2 187.4 186.3 186.7 188.9 190.2 190.1 189.2 189.1 188.5 188.1 187.9 187.7 187.5 187.2 186 188.2 190.6 193.5 196.2 198.8 200.2 201.4 202.3 201.6 201.9 204 204.4 205.9 207.3 208.1 209 211.1 212.3 213.4 214.7 216.8 218.2 219
-2.3 -2.3 -2.3 -2.3 -2.3 -2.3 -2.3 -0.5 1.3 4.6 62.7 95.1 100.6 103 102.7 100.3 96.3 91 88.6 86.9 82.6 71.8 65.1 84.4 89.5 98.4 100.9 102.6 102.2 87.2 91.1 97.7 97.2 99 101.8 104.8 108.6 111.7 115.6 120 124.6 129.8 133.6 137.7 140.4 143.1 145.2 146.5 145.6 137.4 109.3 106.4 127.8 134.9 137.9 139.8 141.1 141.8 142.6 143 144.1 145.3 147.3 149.6 151.7 153.4 154.4 152.6 149.6 133.5 107.8 88.6 107.9 126 137.6 142.1 145 147.3 150.3 153.7 157.4 161.2 165.8 169.8 172 177.3 180.4 183.2 185.5 187 188.2 189.3 189 188.4 188.7 189.1 190.1 192.1 195.3 197.3 197.7 198.1 197.3 197.9 199.3 200.7 200.2 201 201.1 201.8 202.3 203.2 204.4 206 206.9 207.5 208.3 208.9 209.5 209.9 209.2 208.8 208.9 211 212.6 214 213.8 214 214.9 215.5 216.2 216.8 217.3 217.5 216.7 216.2 215.8 214.5 212.8 210.5 207.6 206.3 204.8 203.6 203.7 203.4 203.4 203.6 203.6 204 204 204.1 203.9 204 203.9 204.8 204.4 203.5 202.3 200.2 197.1 192.8 190.4 188 189 192.3 193.8 193.9 192.6 191.3 191 190.9 190.6 190.2 189.9 189.4 188.1 187.2 189.1 191.6 194.1 195.9 197.6 199.2 199.5 199.9 200.5 200.6 201.8 203.2 204.5 205.7 208 209.9 211.6 213.1 214.7 216.7 217.9 218.7
-2.3 -2.3 -2.3 -2.3 -2.3 -2.3 -0.5 2 5.7 51.4 98.3 102.2 104.5 104.8 103.1 100.8 99.4 99.1 98.4 97.1 94.9 91.3 72.2 87.2 94.3 99.6 104.3 107.2 107.4 104.2 100.1 91.9 99.1 100 98.5 98.4 100.2 100.2 105 113.1 120.4 126.6 131.3 135.1 138.9 141.5 144.3 146.5 147 143.5 128.2 107 117.7 130.1 134.9 136.8 138.3 139.6 141 142.1 143.9 146.1 148.3 150.9 153.4 155.6 157 157.1 153.8 144.4 125.1 105.4 99.2 125.3 135.4 138.6 141.3 143.3 146.1 150.4 154.5 158.2 162.1 167 170.1 174.5 178.1 180.6 184.4 185.1 185.3 185.3 184.8 184 183.2 183.9 185.2 186.9 189.7 192.3 194 194.2 193.5 193.7 195.6 197.6 197.4 198.5 199.2 200 201.1 202.3 205.3 207.5 209.7 211 211.9 212.4 212.7 212.3 212.1 212.9 211.8 212.4 214.1 213.8 214.2 214.4 214.7 214.7 215.1 215.6 215.8 215.5 214.5 214.3 213 211.6 210.2 208.6 206.3 205.4 204.6 204 203.8 203.7 204.6 205.3 205.5 205.9 206.2 205.7 205.6 205.6 206.6 207.6 207.5 206.8 204.7 203.9 201.4 196.3 193.2 190.4 190.6 195.1 197.3 198.3 198 196.9 194.7 193.9 193.4 192.9 192.4 191.7 190.5 189.1 188.3 189.7 191.9 192.8 194.3 195.5 196.2 196.6 196.8 198.3 200 201.7 203.5 205.4 207.7 209.5 211.7 213.8 215 216.7 217.6 218.4
-2.3 -2.3 -2.3 -2.3 -2.3 -0.1 2.5 15.4 60.3 85.7 102.3 104.8 107.5 108.5 107.1 104.8 104 104.2 104.3 102.9 98.8 92.5 79.8 88.5 92 99.2 105.6 108.6 110.5 109.7 107.4 103.9 101.8 106.7 108 107.9 109.8 110.7 108.5 104 113.1 121.2 127.2 131.5 136.3 140 142.8 145.8 147.1 146.5 142.9 125.5 108.7 121.5 128.3 132.3 133.8 135.8 137.9 139.8 142.4 145.1 148 150.5 153.8 156.9 159.3 160.2 159.3 154 144.8 118.4 96 117.9 130.6 131.8 135.8 138.6 141.7 145.3 150.9 154.2 158.1 162.6 166.6 170.6 176 179.8 182.5 183.7 182.8 181.7 180.5 179.6 178.8 179.8 181.3 183.1 186.4 189.2 190.2 190.2 190.1 190.1 190.6 191.9 192.9 194.2 196 196.8 199 200.5 203.7 207.2 209.6 211.5 212.7 213 213.1 213.1 213.4 213.1 212.6 213.2 213.5 214.4 213.9 214.2 213.8 213.5 213.2 213.2 213.5 212.7 211.7 210.8 209.6 208.1 206.8 205.5 204.4 202.9 202.9 202.9 202.8 203.7 204.8 205.7 206.5 207.2 207.4 208 208.3 208.3 209.3 210.1 210.4 209.5 208.1 206.8 204.9 201.6 197.4 193.1 192.7 197.9 200.4 202 202.5 200.6 198.3 196.7 196.1 195.5 194.9 194.3 192.6 191 189.4 189 189.6 190.6 191.5 192.7 194.4 195.4 196.8 198.6 200.4 202.3 204.2 206.2 208.3 209.8 211.8 213.9 215.2 216.3 216.9 217.4
-2.3 -2.3 -2.3 -2.3 -2.3 0.7 8.9 42.7 76.3 107.8 112.7 113 112.7 111.8 110.5 108.9 108.4 108.3 107.9 106.3 102.1 95.7 86.8 94.7 97.8 102 106.8 110 112.8 112.9 111.3 107.5 104.6 109.6 111.9 113 115.7 118.3 118 116.6 107.4 115.6 124.4 129.9 134.7 138.9 142 145.1 147.3 147.8 145.5 142.3 128.8 124.3 117 122.9 126.2 128.9 131.4 135.4 139.5 142.8 146.3 149.8 152.5 155.8 158.8 160.9 160.8 157.7 150.9 132.2 111.2 97.7 115.3 122.1 126 129.6 133.4 137 141.3 146.9 151.6 155.3 160.1 166.5 173 178.2 181 181.5 180.8 179 177 175.4 174.2 175 176.9 179.1 182.6 185.2 185.7 185 184.2 184.7 186 187.3 189 190.5 191.9 193.6 195.5 198.6 202 206.4 209.4 211.4 212.5 213.3 213.3 213.1 212.7 212.3 212.5 212.3 212 212.6 212.9 212.8 212.5 212.2 211.8 211.5 211.1 210.1 209.3 208.5 207.3 206.2 204.9 203.7 202.8 201.6 201.6 201.5 202 202.9 203.8 204.8 205.9 207.1 207.5 208 208.6 209.8 210.4 210.8 210.9 210.4 208.9 207.3 205.9 203.7 200.6 196.3 194.5 199.5 202.3 204.5 205.2 205.1 202.7 200.3 198.6 198.3 197.7 196.5 194.4 192.8 191.2 191 190.7 191.3 192.2 193.7 195 196.4 197.8 199.3 201.1 203.3 205.4 207.4 208.7 210.8 211.9 213.7 214.6 215.6 216.1 216.9
-2.3 -2.3 -2.3 -2.3 -2.3 -2.3 0.6 26.8 71.2 116.6 117.6 117.5 116.7 115.8 115.7 115 114.9 114.6 112.7 109.6 105.2 99.3 98.2 101 103.9 106.7 110.2 113.5 116.2 116.5 115.1 111.9 108.8 113.4 116.5 118.2 119.7 122.1 121.9 122.6 119.6 111.5 122.7 128.7 133 137 141.2 144.3 147.2 148.9 147.2 144.9 140.6 138 135.8 130.3 121.5 124 128 132.6 136.3 140.1 143.7 147.4 150.9 154.2 157.3 159.3 159.8 157.5 151.4 142.5 126.3 106.9 101.7 110 113.3 118.5 122.5 126.3 131 136.4 142.6 147.7 153.6 160.7 170 175.6 178.4 178.2 176 173.2 170.1 168.1 167.2 168.7 171.8 175.3 178.7 180.1 180.5 179.9 179 180.5 182.6 184.2 185.2 187.1 188.9 191 192.5 196.6 201.6 206.1 209.2 211.2 212.4 212.4 212.2 212 211.6 211.3 210.8 210.6 210.5 210.8 211.4 211.1 210.8 210.5 210.2 209.9 209.7 209 208 206.9 205.5 204.2 203.1 202 201.1 200.3 200.1 200.1 201 201.8 203.1 204.3 205.5 206.7 207.6 208.1 209.3 210.7 211.1 211.4 211.6 211.3 209.9 209.4 207.9 205.9 203.4 199.8 196.4 200.8 203.8 206.7 208 208.6 207.9 206.9 205.2 202.8 200 198.5 196.5 194.6 193.2 192.7 192.6 192.9 193.9 194.8 196 197.9 199.7 200.8 202.1 204.5 206.6 208.6 210 211 212.1 213 213.9 214.8 215.1 215.4
-2.3 -2.3 -2.3 -2.3 -2.3 -2.3 -0.8 1.9 55.6 119.7 120.6 120.6 120.6 120.2 119.7 119.7 120 119.7 118.6 115.6 111 104.7 106.7 109.3 111.8 113.8 116.7 119.3 120.9 121.3 121.7 119.4 115.3 119.8 122.3 123.9 125.2 125.8 126.9 126.6 124.2 114.4 120 126 131 135.7 140 143.8 146.7 148 148.1 146.6 143.7 140.6 136.5 134.6 131.4 128.6 124.9 128.9 133.5 138.1 141.5 145 148.7 152.6 155.5 157.4 158.8 156.5 151.1 141.2 131.4 121.7 103.1 100 101.6 105.6 108.8 113.8 119 124.3 129.9 137.3 145.6 155.3 165.2 170.8 172.9 171.8 168.5 164.9 160.7 158.9 159.1 159.6 163.9 168.5 172.2 175.2 175.3 173.6 173.5 176.9 179.1 180.9 183.3 183 186.1 190.2 192.4 196.5 201.5 205.9 209.3 211.3 212 211.5 211.1 210.8 210.4 210 209.5 209.3 209.3 209.4 209.9 209.5 209.2 208.9 208.6 208.4 208.1 207.6 206.9 205.9 204.1 202.7 201.4 200.3 199.4 199 198.8 199 199.7 200.9 202.5 203.7 204.9 206.2 207.4 208.8 210.2 211.3 211.8 212.1 212.2 211.9 211.4 210.2 208.3 206.2 204.2 201 198.8 202.1 204.8 207.4 209.7 210.9 211.2 210.5 209.3 207.6 204.1 201 198.8 196.8 195.2 194.5 194.5 195 195.8 196.8 198.3 200 201.1 202.2 203.2 205.3 207.5 208.7 210.1 210.9 211.8 212.5 212.9 213.2 213.5 214
-2.3 -2.3 -2.3 -2.3 -2.3 -2.3 0.1 2.2 37.7 101.3 123 123.3 123.8 123.3 123 122.9 123 122.9 121.7 119.4 116.5 112.4 113.1 114.4 116.5 119.8 122.3 123.7 125.1 126.3 126.9 125.8 122.8 124.3 127 128.7 129.4 129.7 130.6 130.8 128.2 119.6 121.9 128.2 133.3 136.5 140.4 144 147 148.5 149.4 147.6 146.5 142.5 138.8 137 134 131.3 125.8 128.5 132.3 136.6 139.3 142.8 146.5 151.2 154.6 157 158.5 156.5 150.6 141.3 129.8 119.8 113.2 112.7 110.6 103.4 108.2 107.1 111 113.5 119.9 129.5 138.3 150.1 160.7 166.4 167.2 162.8 156 153.6 146.5 148.3 159.4 157.4 156.3 162.1 165.7 169.3 168.2 171.7 176.5 181.5 184 186.3 187.9 189.3 190.3 191.1 192.9 196.9 201.6 206.6 209.8 211.5 211.1 210.6 210.1 209.5 209.5 209.1 208.7 208.2 208.2 208.3 208.3 207.9 207.6 207.2 207 206.8 206.6 206.2 205.5 204.2 202.2 201.1 199.7 198.8 197.9 197.6 197.6 197.6 198.4 200.2 201.8 203 204.3 205.5 206.6 208 209.8 210.9 211.9 212.4 212.6 212.2 211.6 210.1 208 206.1 204.3 201.7 200.7 202.6 205.1 207.7 210.6 212.6 213.5 213.4 211.8 209.9 207 203.9 201.5 199.4 198 196.9 196.5 197.8 198.6 199.3 200.3 201.4 202.4 203.5 204.6 205.8 207.1 208.4 209.6 210.6 211.3 211.5 211.7 212.1 212.6 213.1
-2.3 -2.3 -2.3 -2.3 -0.2 0.9 2.1 12.2 63 125.2 125 125.6 127 126.5 126.8 126.6 126.9 127.2 127.4 126.8 125 121.9 121.1 121.9 124.2 125.9 127.7 129 129.5 130.1 131 128.9 126 127 131.1 132 133.1 134.1 134.5 134.3 131.2 123.8 123.1 131.7 135.5 138.9 142.4 145.7 148.8 150.4 151.3 150.6 149.4 147.1 144.9 142.3 139 134.7 129 130.3 135.7 138.7 141.7 144.5 148.3 152.1 154.9 157.8 160 158.2 153.7 146 137.6 130.1 122.4 118.6 116.8 112.6 112.1 109.7 109.2 109.9 111.9 121.4 130.8 145.4 156.1 159.9 153.6 146.1 141.3 144.2 157 166.4 167.8 168.8 168.6 166 165.5 161.5 171 176.4 180 183.2 186.3 188.4 190.4 192.4 193.6 195 196.1 199.7 203.6 207.3 210 211.5 211.4 211 210.1 209.4 209.1 208.8 208.4 207.6 207.5 207.3 207 206.5 205.9 205.6 205.4 205.2 205 204.7 203.7 201.9 200.1 198.7 198.2 197.2 196.3 196.1 196.2 196.3 197.8 199.3 201.1 202.3 203.6 204.8 205.8 207.1 208.8 210.5 211.9 212.3 212.6 212.5 211.8 209.7 207.6 205.6 203.5 201.9 201 202.7 205.4 208 210.3 212.4 213.3 213.5 212.1 210.4 208.3 206.4 203.7 201.7 200.8 199.9 199.5 199.7 200.3 200.9 201.3 202.4 203.5 204.5 205.2 205.5 206.7 207.9 208.9 209.5 209.7 210 210.1 210 210.3 211.2
-2.3 -2.3 -2.3 2.3 2.7 2.8 34.2 72.7 108.3 118.3 121.2 123.7 126 127.9 130 131.3 131.7 132.6 133.5 133.3 131.5 129.1 128.3 129.7 132.3 134.5 135.9 136.5 136.5 136.8 137 136.1 132.6 133.3 136.7 138.2 138.6 139.9 140.1 140.1 136.7 127 124.4 133 137 140.7 144.5 147.7 150.7 152.4 153.3 153.7 152.5 150.5 148.3 146.3 143.8 139.8 134.3 132.5 137 141.9 144.4 146.9 150.7 153.9 157.1 160 161.2 160.6 157.7 152.1 145.7 139 131.3 125.1 122.6 120.8 117.3 113.7 110.4 110.9 112.4 115.7 123 137.8 148 142.7 135.3 145.6 154.3 162.9 167.5 172.2 175.2 177 177.2 175.9 174.2 170.4 168 176.4 180.7 184.9 187.6 189.9 192.2 194.9 196.5 198 199.4 202.2 205.3 208.3 210.3 211.5 211.8 211.3 210.2 209.3 208.9 208.6 208 207.3 206.5 205.5 205.3 205 204.3 204.3 204.3 204.1 203.8 203 201.6 199.5 197.9 196.7 195.9 195.6 194.7 194.7 195.1 196.3 197.3 198.3 200 201.5 203.3 204.9 205.9 207.5 209.2 211 212.7 212.5 212.8 212.4 211.3 209.4 207.3 205.1 203.7 203.5 202.7 203.3 205.8 207.7 209.7 211.3 211.9 212.1 211.7 210.3 208.9 207.3 205.6 204 202.6 201.2 201.3 201.9 202 202.4 202.8 203.4 204.5 204.9 205.1 205.5 206.2 207.2 207.7 208.3 208.1 208.4 208.4 208.2 208.1 208.2
-2.3 -2.3 1.5 37.6 54.4 55.2 86.1 97.6 104.5 111.4 116.7 119.7 122.4 126.2 129.1 132 134.4 135.9 136.5 136.6 135 133.6 133.1 135.3 137.4 140.2 142.1 143.5 143.9 144.4 143.3 142.1 139.4 138.2 140 141.2 142.9 143.7 144 143.8 141.3 133.3 120.6 132.4 138.2 142.4 146.4 149.5 152.4 154.7 156.1 157 155.9 154.7 153.3 151.5 149 145.7 139.7 134.5 139.2 144.7 147.4 150.2 153.5 157.1 160.5 162.8 164.3 163.7 161.4 158 152.2 146.6 140.9 135.1 132.2 130.2 126.7 121.7 114.2 118.7 117.2 114.4 120.3 130.4 133.7 129.9 147.1 159.4 165 169.1 172.9 177.1 179.8 181.3 181.1 180.6 180.7 179.5 175 175.9 181.9 185.7 188.6 191.4 194.1 196.8 198.4 199.7 201.5 204.8 207.8 209.7 211.1 211.7 212.3 211.9 210.8 209.9 208.9 208.3 207.7 207.3 206.5 205.2 204 203.1 202.7 202.5 203 202.8 202.1 200.9 199.1 197.1 196.2 195.4 194.6 194 193.5 194.5 195.2 196.2 197.5 199.5 201.2 202.9 204.4 205.8 207.3 208.8 210.4 212.2 213.6 213 213 212.6 210.9 209 207.3 205.9 203.9 204.4 203.5 203.7 205.5 207.2 208.9 210 210.8 210.7 210.4 209.3 208.3 207.3 205.7 204.7 203.8 202.4 201.5 201.9 202.6 203.3 203.9 204.4 204.6 204.7 204.8 205.2 205.5 205.9 206.5 206.9 206.6 206.5 206.6 206.5 206.3 206.3
9.8 18.4 8.1 46.3 66.1 69.8 78.8 90.3 103.6 110.8 116.5 120.2 124.6 128 130.1 134.1 136.2 138.3 139.6 140.5 141 140.8 141 142.1 143.9 145.8 147.4 148.5 148.8 148.7 148.4 146.6 144.3 141.7 142.4 143.8 145.6 146.4 146.9 146.8 144.7 140.6 129.7 130.5 139.3 143.5 147.1 150.5 153.8 156.3 158.7 159.6 160.1 159.8 158.5 156.9 154.5 151.4 147.8 140.4 140.2 147.1 150.3 154.1 158 161.4 164.8 167.3 169.7 168.9 166.5 163.5 158.5 154.2 150.9 146.9 144.2 141.9 136.7 134 120.7 132.3 133.8 132.5 123.1 121.5 133.1 148.4 156.9 162.5 167.3 171.9 175.7 179.8 183.3 184.9 185.3 185.2 185.4 185.1 181.8 177.7 177.3 182.7 185.9 189.7 192.9 196.1 198.5 200.6 202.7 205.1 207.7 210.1 212.2 213.1 213.1 212.5 211.5 210.3 209.2 208.1 207.6 207.2 206.4 205.2 204 202.4 201.6 201.5 201.4 200.5 199.3 198.2 196.5 195.3 194.9 194 193.4 192.8 192.7 193.9 195 196.8 198.8 200.8 202.9 204.9 206.3 207.7 208.9 210.8 212.5 213.5 214.5 213.8 213.4 212.7 210.9 209 207.8 206.8 206.4 204.4 204.1 204.1 205.1 206.2 207.5 208.9 209.2 209.4 208.9 208.3 207.5 206.6 205.7 205.2 204.4 203.6 202.7 201.9 202.6 203.2 203.8 204 203.8 203.9 204.1 204.3 204.3 204.5 204.9 204.6 204.9 204.5 204 203.6 203.2 204.2
19.9 63.3 69.7 82.4 91.3 94 89.5 84.7 94.9 105.5 112.8 118 123.2 127.5 131.1 134.6 137.5 139.8 141.8 143.2 144.2 144.5 145.2 145.9 147.5 148.7 150.1 150.9 151.3 151.5 151.3 149.6 147.2 145.3 145.9 147.2 147.4 147.6 147.9 147.6 146.3 142.5 136.1 128.9 138.4 144.3 147.5 150.9 153.9 156.8 159.3 161.1 162.6 162.3 162.1 160.2 158.2 155.4 152.2 146.4 139.9 148.9 153.1 157.3 161.1 164.5 167.8 170.2 172.1 172 171.3 168.8 165.9 162.2 159.1 155.9 151.7 148.6 145.6 143.7 127.7 132.6 142.8 145.3 140.9 126.5 134.6 150.5 157.8 163 167.6 172.1 176.3 180.3 184.3 187 188.4 189 189.1 188.7 187 185.3 182.2 180.5 181.7 185.9 189.8 193 195.4 198.2 200.7 203.3 205.9 208.6 211 213 213.3 212.9 211.7 210.8 209.7 208.6 207.9 207.1 206.4 204.9 203.4 202.1 200.4 200 199.6 198.1 197 196.7 195.1 193.6 192.4 192.6 191.4 191.2 192.6 193.8 195.1 197.2 199.7 202.1 204.4 206.2 207.7 209.4 211.8 213.5 214.8 214.7 215.4 214.7 213.9 212.7 211 209.2 208.1 207.2 206.5 206 204.2 204.6 204.8 204.9 206.3 207.3 207.3 208 207.3 206.6 206 205.4 204.7 204.3 204 203.6 203.3 203 202.5 202.9 203 203 203 203 203 203.1 203.1 203.2 202.9 202.8 203.4 202.6 201.9 201.8 201.6 202.4
21.7 50.7 72.5 94.8 100.3 103.4 102.8 100.4 99.4 100.4 104.5 109.3 116.1 122.1 127.4 131.7 135.8 138.6 141.7 144.1 145.6 146.5 148.2 148.7 149.6 150.5 151.4 152.1 152.5 152.7 151.5 150.5 149.5 148.3 147.8 148.8 149 148.9 148.7 147.8 147.1 144.5 138.6 130.4 140.5 144.5 147.6 150.4 153.9 157 159.5 162.1 163.8 164.7 164.5 163.3 161.1 159.2 156.4 151.4 145 148.2 154 158.1 161.6 165.2 168.6 170.6 172.4 173 172.4 170.7 168.4 165.3 162.1 159 155.7 152.7 149.2 146.6 141 133.3 144.5 148.5 148 134.7 136.8 152.4 158.1 162.4 166.5 170.6 175.4 179.7 184.1 187.4 190.5 191.7 192 191.9 190.3 189.2 188.9 188.4 188.3 188.8 190.4 192.4 193.6 195.5 198.2 201.3 204.2 207 209.8 212.7 213 213 212.1 211.1 210.2 209.2 208.5 208 207.1 206.3 204 203.3 202.1 200.1 199.3 198.3 197.2 196.5 195.3 194.6 193.4 192.8 191.5 190.9 192.5 193.8 195.6 197.6 199.8 202.4 204.9 207.5 209.8 212.1 214.4 215.8 216.6 216.9 215.8 214.6 213.4 212.2 210.9 209.5 208.4 207.2 207 205.6 204.3 204.3 204.4 204.6 205.6 206.2 206.5 206.3 206.4 205.7 205.2 204.7 204.2 203.7 203.3 203 202.6 202.3 202.1 201.7 201.7 201.8 201.8 201.7 201.5 201.5 201.6 201.5 201.2 201.6 201.9 201.1 200.1 198.9 199.9 203
46.6 59 80 98.6 104 107.4 108.4 106.8 106 108.2 109.9 114.8 121.4 128.3 133.3 136.9 139.1 140.3 142 143.4 145.8 147.3 148.5 149.7 150.6 151.5 152.1 152.9 153.1 153.3 152.3 151.5 151.4 151.1 150.7 150.6 150.1 149.3 147.3 145.5 143.3 139.8 135.1 130.9 139.6 144.3 147.1 150.3 153.9 157.2 160 162.7 165.1 166.6 167 166.4 165.1 163.5 161.4 158.5 151.2 151.5 156.2 159.8 162.9 165.4 168.5 170.7 172.3 173.8 172.9 172 169.7 167.6 165.5 162 159 156.6 153.7 150.3 146.7 141.6 149.1 152.9 154.3 144.2 135.4 154.5 160.3 164.6 168 170.9 174.5 179.1 183.6 187.2 191 193.4 194.2 194.8 193.6 193.3 193.4 193.4 192.4 192.3 193.3 195 196.9 198.3 200.4 203.2 205.8 208.1 210.6 212.7 213.4 213.7 212.9 211.9 210.9 210.1 209.5 208.8 207.7 206.8 205.5 204.1 203.3 201.7 200.5 199.3 198.2 197.1 195.6 194.7 193.7 192.4 190.7 190.6 192.4 194 196 198.1 200.2 202.4 204.5 207.3 209.5 211.7 213.8 216 216.8 216.6 215.2 214 212.9 211.7 210.6 209.3 207.9 206.5 205.8 205 204.3 203.8 203.9 204 204.5 205.2 206 205.9 205.7 205.2 204.8 204.3 203.7 203.3 202.8 202.4 202.1 201.9 201.6 201.3 200.9 200.6 200.5 200.4 200.1 200 200 199.6 199.9 200.5 200.5 199.2 197.8 199 201.3 204.1
85.4 89.4 103.1 110 116.6 117.3 118.2 118.3 118.3 117.3 118.2 121 123.8 129.9 134.2 138 140.8 142.4 143.8 145.2 146.3 147.6 148.2 149.7 150.9 151.7 152.4 152.8 153.1 153.4 153 152.6 152.4 151.8 151.7 151.8 151 149.1 146.9 144.9 143.1 140.4 136.7 129.8 139.8 144.5 147.7 150.2 153.8 157.4 160.5 163.3 165.9 168.1 169.5 169.6 169.1 167.8 165.3 161.4 155.2 151.9 155.1 158.7 161.8 165 167.9 170.5 172.4 173.9 174.6 174.3 172.7 171 168.6 165.5 161.2 159.8 158.3 155 149.8 143.9 152.5 155.3 156.5 152.9 131.9 153.6 161.1 165.9 168.7 171.8 175.1 179.2 183.4 188.2 191.5 194.9 196 196.7 197.3 196.4 196.2 196.5 196.1 195.7 196.8 199.4 200.8 202.4 203.7 206.8 208.9 211.2 213.1 214.6 215.7 215.1 214.2 213.2 212.1 211.4 210.6 209.7 208.9 207.9 206.6 205.5 204.2 202.6 201.1 199.2 197.5 195.9 194.8 193.8 193.2 191.7 189.6 190.3 192.2 194.6 196.7 198.8 200.9 201.3 203.4 206.3 209.2 211.3 213.5 214.8 215.1 215.1 214.2 213.1 211.8 210.5 209.2 208.1 207.2 205.9 205.6 204.4 203.9 203.8 203.7 203.3 203.5 204.1 204.9 205.5 205.4 204.9 204.4 203.9 203.3 202.8 202.4 201.4 201.7 201.5 201 200.2 199.9 199.9 199.6 199.9 200 199.6 198.9 198.3 198.9 199.3 198.9 197.8 196.6 198.7 202.2 204.9
118.3 119.2 122.1 125.1 127.8 129.8 128.7 128.2 127.3 127.9 128.7 129.1 131 134 136.8 139.6 142.4 144.2 145.3 146.2 147 147.8 148.5 150 151.2 151.9 152.6 152.9 153.3 153.6 153.8 153.7 153.6 153.5 153.3 153.2 152.8 152.1 150.5 149 147.1 145 142 133.1 139.5 144.4 147 149.7 152.3 155.7 159.5 162.6 165.3 168.9 170.5 171.5 170.9 169.7 167.3 163.6 159 155.6 152.5 155.6 159.3 162.5 165.5 168.5 171.2 173.8 174.8 175.5 175 173.2 170.4 166.9 163.2 159.9 156.6 152.2 148.6 143.7 152.3 155.6 157.7 156.8 140.8 150.8 160.8 166.2 169.1 172.2 175.4 179.5 184.3 189.1 193.3 196.2 197.8 199 199.8 199.6 198.9 199.3 199.5 199.6 201 203.1 204.4 206.6 207.8 210.5 212.4 214.4 216.2 217.4 217.8 217.5 216.3 215.4 214.2 213.8 212.6 211.7 210.7 209.1 208 206.7 204.5 201.6 199.9 198.2 196.3 195.1 194.2 193.4 191.7 190.6 189.4 190.1 193.4 196.5 198.8 200.2 201.7 203.4 205.1 207.6 209.4 211.8 213.1 214 213.7 213 212.4 211.4 210.2 208.9 207.7 206.8 205.8 204.9 204.6 204 203.6 203.5 203.1 203.2 203.1 203.5 203.7 204.4 205 204.5 204 203.5 202.9 202.2 201.3 200.8 200.4 200.4 199.8 199.5 199.3 199 198.5 199 198.9 198.5 198.1 197.2 197.6 198.1 197.6 196.3 194.8 199.2 202.4 205.1
130.8 132.1 132.9 134.4 136 137.6 137.1 136.5 135.9 136.4 137.2 138.2 138.7 139.7 141 142.5 144.3 145.6 146.3 146.9 147.6 148.3 149.5 150.3 151.3 152.4 153.6 154.1 154.7 155.1 155.6 155.7 155.7 155.1 155.1 155.1 155.2 154.7 153.1 151.1 148.5 145.8 142.7 137.2 137.6 141.8 144.8 147.5 150 153.2 157.4 161.1 165.3 169.3 171 172.8 172.3 171.3 170 166.9 163 159.8 155.9 154.1 156.7 159.9 163.1 166 169 172.6 175 175.9 175.4 173.9 170.7 166.5 163.4 160.9 158.9 156.1 152.2 145.7 151.2 155.5 159.6 159.8 149.6 146.9 158 163.6 167 170 173.8 178.4 184.2 189.2 193.8 197.3 199.6 201.3 201.8 201.7 201.8 201.5 202.2 202.3 203.9 206.2 208.1 210.4 211.3 213.3 215 216 217.5 218.6 219.3 219.2 218.5 217.5 216.6 215.4 213.8 212.2 210.9 209.4 207.8 206.2 204.2 200.4 199.4 198.8 197.7 196.1 194.9 193.9 191.8 189.6 188.6 190.5 195.1 198.1 200.9 203.8 205.4 206.3 208.1 210 210.9 211.7 212.2 212.8 212.1 211.3 210.7 209.6 208.5 207.3 206.6 205.9 205.2 204.3 204.1 203.5 203.1 202.5 202.5 202.6 202.6 203 203 203.7 204.5 203.8 203.1 202.3 201.7 201.3 201.2 200.5 199.8 199.4 199 198.8 198.4 197.5 197.4 197.8 197.8 197.5 197 196.1 195.9 195.7 195.5 194.9 194.4 198.4 201.6 204.7
136.4 137.7 138 140 141.3 142.3 142.6 142.1 142.9 143.3 142.8 142.5 142.1 141.9 141.7 142.4 144.2 145.5 146.3 147.1 147.7 147.9 148.7 149.7 150.5 151.8 152.9 154.1 155 155.8 155.9 156.3 156.3 155.8 155.5 155.6 155.9 154.8 152.2 149 145.8 142.5 139.2 135.1 134.9 137.5 140.5 143.4 148.8 153.1 157.7 162.1 166.4 169.9 171.7 173.5 173.9 173 172 170 167.5 164.7 162 158 156.1 157.9 162.3 165.4 168.5 172.2 175.1 176.4 175.9 174.8 172.2 169.1 167.8 165.7 163.5 160.8 157.5 153.6 154.2 155.8 160.3 162.4 158.8 142.9 148.5 156.8 161.5 167.4 171.6 177.3 182.4 187.4 192.3 196.9 198.9 200.3 201.4 202.5 202.9 203.6 204.1 205.2 207 208.4 210 211.5 213.3 214.8 216.3 217.8 219.3 219.9 220.5 220.3 219.6 218.6 217.1 215.8 213.5 211.5 210.1 207.8 205.6 204.4 203.4 203.4 202.4 201 199.5 198.1 197 196 194.1 191 188 193.3 197.7 201.4 204.4 206.4 208.2 209.5 210.6 211.6 212 211.8 212.5 211.6 210.4 209.6 208.9 207.8 207 206.5 206 205.4 204.8 204 203.9 203.5 202.8 202.3 202 201.2 201.6 202.2 202.4 202.6 203.6 203.9 203.3 202.7 201.7 201.1 200.5 199.9 199.2 198.6 198.3 198.1 197.5 197.1 196.7 196.5 196.7 196.1 195.5 194.9 193.8 193.1 192.5 192.8 193.1 195.8 199.2 202.7
136.9 137.2 138.5 139.2 140.2 140.6 141.4 142.1 143.7 143.7 143.8 143 140.6 139.9 140.1 141.9 142.9 143.8 144.6 145.1 145.2 145.7 147.2 148.3 148.9 150.4 151.6 152.6 154.2 155.1 155.7 156.3 156.2 155.7 155.8 155.4 154.6 153.1 150 146.8 142.9 139.9 137.1 137.4 137.4 136.9 139.7 143.3 149.5 154.6 159.3 164 168.1 172.3 175.2 177.4 178.5 178.2 176.4 175.2 173.2 170.3 167.2 164.1 159.9 160.2 164.3 167.6 170.7 173.4 175.9 177.8 178.2 178 175.6 174.5 173.8 171.7 168.3 165.7 162.4 157.8 156.2 158.8 163.1 165.9 165.9 156.1 145.9 148.9 152.6 160.8 166.7 174.3 178.5 184.9 189.1 193.8 196.6 197.8 198.8 199.2 199.8 201.1 202 204.7 206.4 208.8 210.6 211.9 213.9 215.8 217.2 218.7 220.2 220.9 221.3 221.2 220.5 219.2 217.5 215.3 213.5 212.2 210.1 208.3 207 206.5 206.1 206 206.1 204.9 203.2 201.9 200.3 199 196.7 193.8 188.5 192.6 199.1 202.7 205.1 207.1 209 210.7 211.7 212.3 212.5 212.5 211.5 210.3 208.9 208 206.9 206.3 205.7 205.4 205 204.5 204.1 203.7 203.1 202.5 202.1 201.8 200.9 200.2 200.2 201 201.3 201.7 202.1 202.4 203 202.9 202.2 201.2 200.7 199.9 199.3 198.6 198.3 198.3 197.5 197.1 196.6 196.1 195.7 194.8 194.4 194.1 194.8 194.6 193.7 192.1 191.3 192.6 196.3 199.8
128.3 133 134.3 136 136.7 137 137.4 138.2 138.7 138.5 138.9 139.2 138.5 137.5 136.3 138 139.2 140 140.1 140.2 140.1 141 141.5 143.3 144.9 146.2 147.5 150.6 152.3 153.8 154.8 155.3 155.7 155.3 154.7 153.6 152.5 150.6 148.1 145.1 141.5 140.4 139.6 140.2 141.3 141.9 140.7 142.7 149 155.3 160.9 165.8 170.1 174.6 178.2 180.9 182.6 182.3 181.3 179.8 177.9 175.3 172.1 169.3 166.5 162.5 166.3 169.2 172.1 175.2 178 180 182 182.6 181.9 180.6 179 176.7 173.1 170.1 167 163.8 159.6 163.1 167.5 170.5 171 169.1 154.5 158.4 167.6 168.8 166.2 171.8 172.9 179.1 182.7 188.8 190.8 192 193.4 196.2 198.6 201.9 203.3 205.2 206.8 209 210.9 212.9 215 216.4 217.9 219.6 221.4 221.8 222 222.1 221.6 220.3 219 218.1 216.4 213.4 211.6 210.6 210.1 209.5 209.8 210.8 211.7 211.8 210 208.4 206.6 204.4 201.9 197.7 189.2 191 199.4 202.8 205.4 207.4 208.9 210.4 211 211.4 211.7 211.6 210.1 208.7 208 206.5 204.6 204 203.9 203.8 203.5 203.1 202.7 203 202.6 202 201.5 201.2 200.6 199.8 198.6 199.6 200.1 201 201.9 202.5 203.2 203.2 203.4 201.9 200.9 200.1 199.3 198.6 198.2 197.9 197.5 197 196.5 196.2 196.3 195.8 196 195.6 195.9 195.7 195 193.5 191.5 190.9 192.9 196.9
118.1 122.7 125.2 126.7 129.1 131.3 132.4 133.1 133.4 133.1 133.1 133.4 133.6 133.3 132.7 132.8 134.2 135.4 135.3 135.1 135.1 135.4 135.8 137.4 139.6 140.5 142.3 145.1 148.6 150.9 151.8 153 154.1 153.9 153.4 152.4 151.5 149.5 147.6 144.7 145.9 145.4 145.4 145.3 146.3 146.7 145.4 144.3 148.5 153.3 159.5 165.3 170.6 175.3 179.4 182.3 184 184.7 184.5 183.2 181.2 178.1 175.7 173.2 170.5 167.8 166.2 170.7 173.6 176.4 179.2 181.6 183.4 184.6 184.8 184.7 183.4 181.6 178.6 175.2 172.2 169.1 164.9 168.6 172.5 174.8 175.4 173.4 153.6 166 172.5 174.8 174.9 175.2 178.4 181.9 184.2 186.9 190.1 193.6 197.2 199.3 201.7 203.7 205.9 207.3 209 210.6 213 215.4 217.3 219 220.4 221.3 222.6 222.7 222.9 223 222.6 221.8 221 219.5 218 215.5 214.1 214.6 214.4 215.3 216 217.1 217.5 217.7 217.2 216.4 214.4 211.4 207.8 203.5 195.6 187.3 197.7 202.1 204.7 206.6 207.9 208.4 208.3 208.3 208.6 208.4 206.8 206.6 205.6 203.5 202.6 202.3 202.2 202 201.8 201.6 201.8 202.2 201.9 201.8 201.8 201.8 201.3 200.1 198.9 197.8 199.5 200.8 201.6 202.7 203.5 204 204.3 203.5 201.2 200.3 199.5 198.8 198.3 198 197.6 197 196.5 197 197.4 197.1 197.2 197.2 197.1 197 196.6 195.4 192.9 190.8 190.6 193.1
94.2 98.8 106.4 113.9 119.1 120.8 122.6 124.2 126.4 126.8 127.4 128.5 128.9 129 128.9 130.5 131 131.4 131 130.1 129.2 129.8 130.7 132.2 134.1 135.9 138.2 140.2 144.4 148.1 149.7 151.1 152.1 152.3 152.2 151.2 150.7 149.9 147.7 146.6 149.1 149.5 150 149.6 150.1 150.1 150.4 149.3 149.8 153.9 157.2 163.1 168.8 174.3 178.2 182.1 184.2 185.5 185.9 185.1 183.1 181 178.7 176.5 173.5 170.8 168.3 169 172.6 176.4 178.9 181.8 184 185.7 186.8 187.5 187.2 185.6 183.8 181.3 178.2 174.3 171.1 173.2 177.1 179.1 178.9 172.7 153.1 171.4 172.9 176.3 178.8 180.8 183.6 186.4 188.8 190.8 193.7 196.8 199.1 200.8 202.7 204.9 207.1 209.6 211.5 213.2 215.5 217.8 219.7 221.4 222.9 223.6 223.7 223.8 224 223.8 223.5 223 222.4 221.2 219.7 218.5 218.4 218.4 219.3 220.7 221.6 222.1 222.3 222.3 222 220.4 218.4 215.8 211.7 206.2 196.2 186.9 196.1 201.3 204.1 205.3 206 205.8 205.3 204.4 203.9 204.2 203.3 202.6 201.9 201 200.8 200.4 200.3 200.4 201 201.1 201.4 201.8 201.8 202.1 202.1 202 201.3 199.6 198.3 196.7 197.3 198 198.5 199.9 201.5 203.3 204 204 201.6 200.7 199.7 199 198.4 198 197.8 197.2 196.9 197.7 198.4 198.3 198.4 198.4 198.5 198.3 197.5 196.2 194.3 191.4 190.4 190.6
63.8 69.3 76.9 85.8 92.5 97.6 104 110.1 113.5 116 119 120.8 121.6 121.8 122.3 124.6 126.9 127.4 125.8 120.7 119.7 122.3 124 125.9 128.5 131.5 134.2 137.3 140.9 145 147.5 149.8 150.5 150.9 151 150.6 150.2 150.2 150.1 149.1 151 151.9 152.7 153 153.6 154 154.9 154.2 153.2 153.5 157.2 163.5 169.1 174.1 179.2 182.8 185 186.7 187.3 187 185.2 183.7 181.8 179.1 176 174 171.6 169.5 172 174.3 178.5 181.8 184.7 186.9 188.4 189.2 189.8 189.2 187.3 185.1 182 179.5 178.3 178 181.5 183.2 180.5 172.7 155.8 168.8 170.9 173.3 174.9 179.3 182.1 183.8 186.3 190.7 193.4 196.6 198.7 200.5 202.7 205.3 207.8 210.2 212.4 214.8 217 219.3 221.2 222.3 223.5 224.5 225 225.1 224.9 224.3 223.8 223.9 223.7 222.8 221.9 221.2 221.3 221.9 223.3 224.6 225.5 225.9 225.9 225.4 224.4 222.7 220.5 218 213.7 206.8 196.5 186.5 192 199.4 202 202.3 201.6 200.8 200.4 200.3 200 200.5 199.7 197.1 197.6 196.5 198.2 198.8 199.6 200.2 200.7 201.1 201.4 201.7 202.1 202.3 202.1 201.9 201.5 199.5 197.6 195.5 193.9 195.4 196.5 197.8 199.4 201.6 202.4 202.7 202.3 200.8 199.9 199.2 198.5 198 198.2 198.2 197.7 197.9 199 199.9 200 200.1 200.5 199.2 198.1 196.9 195.1 193.4 191.2 188.3
53.6 54.7 56.6 58.4 63.7 69.7 75.3 82.4 92.9 104.3 108.5 112 113.1 111.8 113.6 118 118.6 119.1 111.5 107.5 112.4 112.9 117.4 119.9 123.3 126.9 129.1 132.2 136.6 141.3 144.7 147.9 148.2 148.8 149 149.3 149.4 149.9 150.4 151 152.3 153.8 154.7 155.9 156.9 157.6 158.6 159.1 158.3 156.1 159.2 165.3 170.7 175.4 180.1 183.4 186 188 188.7 188.5 187.8 186.3 184.7 182.3 179.9 177.3 175.4 172.9 172.6 175.8 178.5 182 184.9 187 189 190.4 191.4 191.5 190.3 188.2 186.4 184.6 183.1 183.1 184.2 184.4 180.8 172.3 163.5 172.4 172.5 174.2 178.7 182.4 184.7 186.2 188.3 188.2 190.1 194.7 196.5 198.8 201.6 204.5 207.5 210.8 213.7 215.9 217.9 220 221.7 222.7 223.6 224.8 225 225 224.7 224.2 223.7 224.1 224 223.2 222.9 223 222.8 223.8 225.1 226 226.8 227 226.9 226.3 225 222.8 221.3 218.5 214.2 207.3 199.3 190.1 186.3 193 195.8 196.3 196.6 196.1 195.8 194.8 193.8 193.7 194.8 196.1 197.9 198.7 199.5 200 200.2 200.3 200.7 201.1 201.6 202.1 202.5 203 202.3 201.8 201.6 199.7 197.8 195.2 191.8 192.9 193.9 195.2 197.2 199.8 200.9 201.1 201.3 200.8 200.2 199.5 198.8 199.1 200.2 200.4 199.7 199 199.7 201.2 201.6 202 202.5 200.5 198.4 196.8 195.1 193 191.4 189.1
73.5 69.7 67.8 67.6 69.1 68.5 71.5 71.3 73.5 86 99.3 100.4 103.4 101.4 103.7 102.3 98.9 100.2 109.5 116.3 120.6 119.2 117.6 117.6 119.2 121.1 123.5 127 131.9 136.1 139.1 141.4 142.7 143.2 145.1 147.8 149.7 150.9 152.1 153.2 153.6 155.2 156.4 157.4 158.8 160.2 161.3 162 162.6 161.6 158.4 164.3 170 175.2 179.5 182.9 185.6 187.8 189.1 189.9 189.9 189 187.3 185.3 183.1 181 179 176.4 175.4 177.2 180 182.6 184.9 186.8 188.7 190.4 192.3 192.9 192.6 191.6 190.3 189 187.1 186 185.8 184.3 180.5 171.6 166.3 177.4 179.1 180.9 184 186.7 188.5 190.3 192 192 194.1 195.4 196.6 200.8 202.3 204.6 208.4 212.1 214.9 217 219 220.7 222.1 223.1 223.5 223.3 223.2 222.9 222.9 223.1 223.3 222.8 222.4 221.8 222 222 222.9 224.5 224.6 224.9 226.8 226.4 226.2 225.7 224.4 222.5 220.4 217.1 213.1 208.4 203.9 194.8 185.5 185.6 189.8 190.9 190.1 189.6 190 190.6 193.9 196.3 198.6 200.3 201 201.4 201.8 201.9 202 202 202 202.7 203 203.6 204 204.2 203.6 202.9 201.7 199.9 198 195.1 192.3 189.9 191.5 193.7 195.7 198.1 199.5 199.8 200.5 200.9 200.7 199.8 198.9 200.3 203.8 202.4 201.3 200.6 200.8 202 203.3 203.6 203.3 202.1 199.9 196.6 194.6 192.4 190.8 188.5
93.7 93.8 91.9 91.1 89.7 86.7 90.2 93.4 88.5 81.7 81 81.1 83.9 87.2 90.3 95.7 103.9 110.6 116.4 121 124.5 125.7 126 125.6 125.9 128.3 129.9 129.5 129.1 131 133.4 137.4 141.2 145 147.1 149.3 152.4 154.3 155.3 155.9 157 157.5 158.1 159 160.1 161.3 162.2 163.1 164.2 163.8 158.4 164.5 169.2 173.4 177.2 180.2 183.1 186.2 188.3 189.2 190.6 191.2 190 188.2 186.4 184.2 181.7 179.9 179.4 179.7 181.2 182.6 184.3 186.2 187.8 188.9 190.3 191.2 191.4 191.6 190.8 190.2 190 188.9 187.1 185 179.6 169.8 170.9 180.7 183 184.8 187.4 189.9 191.7 193.4 195.2 196.2 197.2 198.9 200.8 202.7 204.1 207.9 210.9 213.3 216 218 220 220.8 221.7 222.1 221.5 221.5 220.7 220.7 220.6 220.7 220.7 220.9 220.4 219.9 220.6 220.8 221.7 222.1 223.4 224 225 225 225.2 224 223.3 219.7 217.8 215.1 212.5 209.1 205 197.3 188.6 182.6 185.1 185.7 186.4 187.8 191 193.3 196.2 198.6 201 202.1 202.9 203.4 203.6 203.7 203.8 203.9 203.9 204.3 204.5 205 205.6 205.1 204 202.8 201.4 199.9 196.9 195.4 191.7 188.7 190 193 195 196.8 198.6 199.8 200.8 201.3 200.8 199.9 199.2 199.1 201.8 201.7 201.6 201.1 202 202.9 203.7 203.8 203.6 202.8 200 197 194.3 191.8 190.3 188.2
104.7 105.2 104.7 102.8 100.5 98.4 99 101.7 102.9 100 95 97.2 99.9 102 104.7 107.4 110.1 116.6 121.1 124.6 127.5 129.2 130.6 130.8 131.7 133.9 135 135.3 135.6 136.1 138.1 140.8 143.9 147.7 149.6 151.5 153.9 155 156.2 157.4 158.3 159.1 159 159.8 160.5 161.6 162.6 163.9 165.3 165.6 163.9 163 167.1 170.3 173 176.2 179.3 182.9 186.1 189 191.3 192.1 191.6 190.3 188.9 186.8 184.6 181.7 180.7 181.1 182 183.4 184.9 186.3 187.1 188.2 188.7 189.6 190.5 190.9 191.1 191.2 191 189.7 188.4 185.6 180.1 171.4 176.7 183.2 186.2 188.4 190.3 192.3 194.4 196.2 197.3 198.3 199.5 201.4 203.4 205.5 207.8 210.6 213 215.4 217.1 219.1 220.1 220.8 220.2 219.3 219.2 218.3 217.3 217.4 217.7 217.9 218 218 217.6 216.8 217.1 217.6 219.2 220 221.7 223 223.4 223.5 222.8 222.3 220.3 218.2 215.1 213.3 210.8 206.9 202.6 198.1 191.2 182.7 182.5 183.4 185 188.6 192.6 195.7 198 200.2 202.1 203.6 204.6 205.2 205.5 205 204.6 204.9 205.2 205.2 205.8 206.1 205.8 204.6 203.2 201.5 200 197.5 195 191.9 190.3 188.8 190.3 192.3 194.3 196.2 198.2 200.1 200.9 201.2 200.5 199.9 199.8 200.1 200.4 200.6 201 201.6 202.4 203 203.8 203.9 203.7 202.4 200.7 198 195.2 193.3 190.7 189.3
108.7 108.8 109.1 107.6 107.4 106.4 106.7 109.2 110.5 108.5 106.3 104.8 105.5 107.9 111.2 114.2 116.3 120.4 123.7 127.5 130.1 131.9 133.7 135.7 136.3 139.1 140 141.5 142.7 143.9 144.9 145.4 147 150.5 152.3 154.1 155.7 157 158.1 158.8 159.8 160.4 160.1 160.1 161.1 161.9 163.1 164.5 165.8 166.5 166.4 164.5 165 167.8 170.5 173.2 176.3 179.9 183.8 187 190.3 191.7 191.9 190.8 189.4 186.9 185.6 184.1 183.6 183.6 183.1 184.4 185.7 186.1 186.9 187.4 187.6 188.6 189.5 190.5 191.1 191.9 192.6 191.4 190.4 187.7 186.9 180.1 170.3 184.2 187.7 190.1 191.8 193.3 195 196.5 197.6 199.2 200.8 202.8 205.1 207.8 210.1 212.6 214.9 216.8 218.3 219.4 220 220 219.2 217.7 216.1 215.4 214.9 214.2 214.5 214.9 215 214.8 214.6 213.6 213.5 213.9 216.2 217.8 218.8 219.8 220.9 221.3 221.2 220.8 219 216.9 213.8 210.6 208 204.3 200.8 196.8 190 183.4 181.1 182.7 186.1 189.3 192.2 195.1 197.5 200.1 202.1 203.4 204.2 204.1 204.4 204.6 204.6 204.5 204.4 204.4 204.9 205.3 204.8 203.7 201.8 199.7 197.1 194.8 191.4 188.9 187.4 186.1 188.4 189.9 191.8 193.9 196.1 198.2 199.4 200.6 200.8 200.7 200.9 201.2 201.5 201.8 201.9 201.9 202.7 203.3 203.9 203.8 203.7 202.9 201.5 199.4 197.4 195.2 192.4 190.7
113.4 114.8 114.8 115.7 114.9 116.2 116.7 117.2 118 117.5 116.7 116.3 115.2 117.3 117.8 119.8 122.2 124.6 127.4 129.8 132.4 135.3 137.8 140 141.8 143.4 144.9 146.1 147.7 148.8 148.4 150.3 152.7 154 155.7 157.6 159.6 161.4 162.5 162.4 161.9 161.5 161.8 162.6 162.6 163.3 164.6 166.4 168.4 169.7 169.7 169.8 169.6 169.2 169.6 172.1 174.5 178 182.6 185.7 188.6 190 190.3 189 187.6 186.6 185.1 183.9 182.7 182.1 182.9 183.6 183.9 185.7 186 186 186.4 187.4 188.5 189.5 190.6 191.7 192.8 193.2 192.8 191.1 190.2 186.4 176.6 182.4 186.5 189.3 191.1 192.9 194.2 195.3 196.7 199.2 201.4 204 206.4 209.6 212.3 214.4 216 217.3 218.3 219.3 218.3 218.2 216.5 214.5 213.2 211.9 211.1 210.7 210.8 211.2 211.8 212 211.6 210.3 210 210.4 212.1 214.7 216.1 217.4 218.6 218.9 218.7 217.9 216 213.8 211 208.4 205.1 201.2 197.2 194 189.8 184.3 180.7 181.8 185.5 188.3 190.8 193.8 196.4 198.4 199.6 200.7 201.7 202.2 202.4 202.7 203 202.9 202.8 202.8 203.3 204 203.5 202.1 199.9 197 194.7 192.4 188.1 185.5 183.9 185.3 187.1 189.1 191.1 193.5 195.6 197.8 200 201 201.7 202 202.2 202.3 202.6 202.9 203.2 203.3 203.2 203.6 204.1 204.5 204.8 204.4 202.8 200.9 199.2 196.8 194.5 193
119.4 120.7 121.9 122.3 122.7 122.7 122.5 122.9 123.3 123.8 124.4 124.6 125.8 126.3 126.7 128.3 129.6 130.7 131.9 133 134.7 138.7 141.6 143.3 144.8 146.5 147.9 149.6 151 152.5 154.6 157.5 159.5 161.4 162.5 163.4 164.3 165.7 165.8 165.5 165 163.7 164.6 166 165.5 166.7 167.8 168.8 170.4 171.8 171.8 171.9 172.7 172 172.3 173.8 175.6 178 181.4 184.7 187.8 188.7 188.7 187.1 185.5 184.6 182.6 181.9 181.2 180.2 180.1 181 181.5 183.2 183.4 183.1 184 185.5 187.1 188.9 190.7 191.8 193 193.8 193.7 193.6 191.8 188.6 181.7 180.8 183.4 186.2 187.8 190 191.7 193.3 195.7 198.7 201.2 203.8 206.7 209.7 212.3 214.1 215.4 216.6 216.9 216.3 215.6 215.8 213.8 212.3 210.8 209.4 208 207 207.2 207.9 207.5 208.5 207.8 206.9 206.7 207.7 210 211.9 213.6 215 215.8 215.8 215.5 214.1 211.9 209.5 207 204.2 201.7 198.1 195.2 192.5 189.6 185.9 181.3 181.9 183.8 186.7 188.4 190.7 192.9 194.7 196.1 197.6 198.8 199.8 200.5 200.8 201.2 201.4 201.3 201.2 201.6 201.7 201.3 200.4 198.1 195.4 192.7 190.2 186 183 184.5 186.7 188.4 190.5 192.6 195 197.5 199.2 200.6 201.9 203.1 204.1 204.8 204.8 204.8 204.7 204.7 204.6 204.8 205.1 205.3 205.7 205.9 206 204.6 203.8 202.7 202.6 201.6 197.6
121.8 123.8 125.1 125.2 125.6 125.6 125.2 125.8 126.8 127.2 127.6 127.7 129.6 130.2 131.7 133.5 134.9 136.2 136.9 137.9 139.3 143.3 145.7 147.2 148.2 149.2 150.4 151.9 153.2 154.9 156.8 158.9 161.6 164.2 166.1 167.7 169.1 169.7 169.8 169.5 168.9 168.9 169 169.3 170.4 171.4 172 172.6 173.3 173.5 173.8 174.1 175.4 175 176.2 177 177.7 180.5 182.7 184.6 186.3 188.2 187.5 185.7 183.9 182.3 180.5 179.1 178.1 177.7 177.5 177.7 178.3 179.7 180.6 180.7 183.1 184.7 186.5 188.5 190.8 192.3 193.1 193.8 193.2 192.4 190.7 189 184.6 179.6 178.4 181.9 184 186.1 188.7 191.9 194.8 198.3 201.4 204.6 207.5 209.8 211.2 212.6 214.2 215 215 214.3 213.6 213.2 211.5 210 208.5 206.5 205 204.1 203.7 202.9 203.9 203.8 204.5 204.5 204.5 205.8 207.4 208.6 210.1 211.3 212.1 212.5 212.4 211.2 209.4 206.8 203.9 201.4 198.8 195.7 193.2 190.2 188 184.8 181.9 179.3 180.2 183.2 185.3 186.9 188.6 190.4 192.5 193.9 195.5 196.6 198 198.9 199.4 199.8 199.7 199.5 199 198.8 198.3 197.3 195.2 192.5 189.9 185.8 182 181.8 185.8 188 190.8 192.9 194.9 197.1 199.1 201.1 202.6 203.8 205 206 206.3 205.9 206.7 206.6 206.5 206.5 207.2 207.5 207.4 207.2 207.9 208 208.1 208 207.9 207.4 206.4 204.3
121 123.5 125.1 126.7 127.2 127.8 127.6 128.4 129.1 129.4 130.4 130.9 131.3 132.7 134 135.9 138.1 140.3 140.3 142 144 146.2 148.2 149.1 150.2 151.3 151.6 153.4 155.3 157.3 158.9 160.4 162.5 164.7 166.2 167.8 169.4 170.9 171.7 171.6 169.9 170.9 171.6 171.8 171.6 172.6 172.7 173.5 174.4 175.1 175.4 176.7 177.9 178.7 179.1 179.4 180.1 181.7 184.3 186.8 188.7 189.5 187.2 184.9 182.6 180.6 178.6 177.3 176.4 175.6 175.3 175.3 175.9 176.3 177.1 178.3 180.1 182.4 184.6 186.6 188.4 189.3 190.4 191.9 191.8 191.2 189.8 188 185.1 182.3 177.3 181.3 183.4 185.5 188.3 191.4 195.1 198.4 201.7 204.1 206.4 208.2 209.3 210.4 211.7 212.6 212.9 212.3 211.6 210.7 209.2 207.6 205.8 203.5 202.1 201 199.6 199.7 203.4 201.4 206.4 200.7 201.9 203.4 204.7 207 207.2 208.5 209.5 209.7 209.3 208.2 206.3 203.8 200.9 198.5 196.1 193.2 190.2 187.2 184.8 182.6 179.8 178 177.9 179.8 181.9 183.5 185.5 187.8 189.6 190.1 191.8 193.4 194.8 196.1 197.4 197.6 197.1 196.2 195.3 194.8 194.6 193.5 190.4 186.8 183.8 181.5 180.3 182.4 186.1 189.1 191.5 194.5 196.8 198.4 200.4 202.7 203.9 205.2 206.6 207.2 207.5 207.8 208 208.2 208.1 208.9 209.3 209 208.8 208.5 209.2 209.5 209.6 209.5 209.7 209.3 208.6 206.8
120.5 123.6 126.1 127.4 128.7 129.3 130.1 130.6 131.3 131.9 132.1 132.5 132.3 133.1 134.2 135.1 137 139.9 142.4 143.3 144.3 145.9 147.7 149.2 150 150.7 151.6 152.9 154.8 157 157.7 158.8 160 162.1 163.7 165.2 166.6 167.8 168.7 169 169.4 170.1 170.9 171.2 171.3 171.6 171.4 172.2 173.5 174.9 176.7 178.3 180.1 181.9 182.6 183.1 183.7 185.7 188 190.1 191.9 191 188.6 186 182.2 179.8 178.4 176.3 175 174 173.4 173.5 173.8 173.9 174.8 176.2 178.1 180.1 182 183.4 185.1 186.2 187.8 189.4 189.6 189.5 188.4 186.7 183.7 181.6 179.7 180.7 183 184.7 187.8 191 194.1 197.2 200.2 202.2 204.3 205 206.1 207.2 208.5 209.6 210.1 210.1 209.2 208.2 206.8 205.2 203 201.2 199.6 198.3 198 198.2 198.9 198.8 199.3 199.5 199.8 201 202.3 203.5 205.3 206.3 206.9 206.3 205.9 204.7 202.5 200.1 197.7 194.5 191.4 189.1 186.4 184.5 182.2 180.1 178.6 177.1 176.9 177.9 179.6 181 182.8 185.3 186.3 186.5 187.9 189.3 191 193.2 195.1 195.5 194.4 191.7 190.5 190.5 190.5 188.6 185.4 183.5 180.4 178.4 180.2 182.2 186.3 189.3 192.3 195.2 198.3 199.8 201.8 204 205 205.7 206.5 207.8 208.2 208.6 209 209.2 209.7 210.3 210.5 210.4 210.1 209.9 209.9 210.2 210.7 211 211.1 210.8 210.1 208.6
120.9 123.8 125 127.9 129.6 130.4 131.1 132.3 132.9 133.4 133.4 133.2 133.4 132.8 132.7 132.6 133.3 135.5 138.4 141 141.8 143.6 145.2 146.8 148 148.4 148.8 150.1 152.3 154 155.5 156.9 157.8 158.9 160 161 163.1 164.3 165.2 165.9 166.2 166.9 167.9 168.5 168.6 169.6 169.6 170.5 172.3 174.6 177 179.1 181.1 182.9 184.3 185.1 187 189.3 190.9 192 192.5 190.6 188.9 186.7 182.5 179.6 178.3 176.3 174.6 172.9 171.4 171.8 171.8 171.8 172.7 174.4 176.4 178.3 179.4 180.7 182.3 183.7 185.6 187 187.1 188.3 187.6 185.6 183.4 181.4 180.1 181.1 182.6 184.6 188.5 190.9 193.2 196.1 198.7 200.4 201 201.3 201.4 202.8 204.4 206 207.2 207.4 206.8 205.6 204.3 202.7 200.8 198.9 197.4 196.6 196.2 196 195.6 196.6 197.1 197.2 197.9 199 200.2 201.1 202.1 203.6 203.7 202.9 201.9 200.6 198.4 196.1 193.7 191.4 188.2 186.2 185 182.7 180.6 179.1 177.5 176.1 175.4 176.6 178.5 179.9 179.2 180.8 181.8 182.7 184.1 185.8 188 190.4 191.9 191.4 189.9 187 183.7 185 185.6 185.5 184.2 181.6 178.2 178.1 180.1 181.8 185.7 188.6 191.8 195.4 198.5 200.9 202.6 203.9 204.7 205.7 206.6 207.6 208.2 208.9 209.6 210.4 211.1 211.5 211.5 211.4 211.3 211.1 210.4 210.9 210.4 210.7 210.5 210.1 209.3 207.7
116.6 119.4 122.2 124.8 127.8 129.4 130.6 131.9 132.9 133 132.8 132.2 131.6 129.7 128.8 128.4 128.6 130.8 132 135.1 137.9 140 142.2 143.8 145 145.5 145.7 147 148.8 150.8 152.1 153.2 153.6 154.4 155.3 156.8 158.9 160.7 161.7 162.4 163 163.5 163.6 163.9 164.3 166.1 168.2 169.8 172 174.7 177.4 180 182 183.5 184.4 185.3 187.4 189.5 191.2 191.9 191.5 190.7 188.9 186.3 183.6 180.9 178.1 176.5 174.9 172.8 170.6 169.9 169.3 169.4 170.4 171.9 174.2 175.6 177.1 177.6 178.9 180.6 183.1 185.8 187.1 187.6 187.4 185.8 183.8 181.9 181.4 182.3 184 186 188.7 190.8 192.8 195.2 196.5 196.4 195.6 195.8 196 198.2 200.6 202.1 203.6 204.3 204.3 203 201.7 200.3 198.5 196.7 195.4 194.3 194.2 194.1 194.4 194.6 194.4 195.4 196.7 197.9 199.1 199.9 200.6 201.2 201 200.7 199.3 197.8 195.6 193.6 191.4 188.7 186.3 184.6 182.9 181.2 179.3 178.4 177.6 176 174.6 174.9 174.7 175.2 175.9 177.3 177.9 179.5 180 182.3 184.7 186.8 188 187.3 185 182.1 178.4 180.4 181.4 181.1 179.6 178.8 176.4 177.1 179.3 181.4 184.4 187.3 190.5 193.6 195.9 197.7 199.5 199.8 201.4 202.5 204.9 205.8 207.2 208 209.3 211 212.3 212.6 212.1 211.4 211.2 210.9 209.3 208.8 208.8 208.7 208.7 208.4 208 206.6
110.6 112.4 115.8 119.8 123.8 126.4 127.9 129.1 130.1 130.4 129.1 127.2 125.1 123.7 122.4 120.8 119.9 121.1 124.7 128.2 131.7 134.7 137.2 139.2 141 142.2 142.3 143.9 145.4 146.8 147.9 149.1 149.1 150.3 151.1 153.5 155.7 156.9 157.7 158.8 158.2 158.9 158.9 159.9 161.7 164.8 168.1 169.9 172 174.5 177 179.6 181.7 183.2 184.7 184.7 186.7 188.1 189.6 189.7 190.2 189.5 187.6 186.1 183.7 180.9 178.4 176.6 175.2 172.5 170.1 168.9 167.8 167.6 168.5 169 170 171.3 172.9 174.4 176.9 180.6 182.7 185.1 187 187.3 187.6 186.3 184.8 183.2 182.9 184.1 185.1 186.3 188.8 190.2 191.6 192.8 194 193 191.2 190.7 191.1 193.3 195.4 197.4 198.7 200 200.9 199.6 199 198.8 196.8 195.1 193.9 192.8 192.5 192.7 192.5 192.6 193.1 194.5 195.8 197 198 198.9 199.6 200.2 199.9 199 197.3 195.7 194 192 189.8 186.9 184.6 182.9 181.3 180.3 178.6 177.1 176.2 175.5 174.2 173.8 173.1 172.7 172.5 173.4 175 176 176.6 177.5 178.5 179.6 180.2 179.4 176.6 174.6 173.9 174 175.7 176.4 174.6 174.1 176 178.4 179.3 180.7 182.7 185 187.6 189.6 191.2 194.1 195.9 197 198.6 200.3 202.5 205.1 206.5 208.2 210.1 212 213.3 213.5 213 212.2 211.3 210.2 208.6 207.4 207.9 208 207.9 207.5 205.6 204.2
88.1 88.8 93 100.7 108.5 117.7 122 123.3 123.9 124.2 119.3 115 112.3 110.3 107.6 105.8 105.9 108.8 111.2 116.6 122.4 126.6 130.1 132.4 134.5 135.6 137.2 139.5 141 142.4 143.5 144.7 144.7 146 147.2 149.4 151.4 152.2 152.5 154 154.7 154.7 154.5 158.2 161.3 164.3 167.7 170.1 172.1 174.6 177 178.1 178.5 182.3 183.3 183.6 183.8 184.2 187.1 187.3 186.8 186.6 185.4 183.5 181.1 180.2 178.8 177 174.6 172.7 171.1 168.8 167.1 166 166.8 167.7 168.8 170.1 172.1 174.5 178.4 181.8 184.4 186.4 187.9 187.9 188 188.1 187.9 186.2 184.5 185.2 186 187 188.7 190.1 191.3 192 192.3 190.8 189.3 188 187.4 189 191 193.1 195 196.8 198.1 198.1 198 197.3 195.6 194 192.5 191.4 190.8 191.3 191.3 191.1 192.1 193.4 194.7 195.5 196.1 196.9 197.8 198.4 197.9 197.5 195.9 193.9 192.2 190.2 187.8 185.4 184.3 182.9 182.2 180.8 179.8 179 177.9 177.1 175.3 173 171.9 171.7 171.3 171.3 172.4 173.2 173.5 173.5 173.2 172.5 172.2 171.1 170.6 171.1 170.9 171.6 172.5 171.7 173.1 175.9 178.1 180.3 181.4 183.4 186 187.6 188.8 189.9 192 194.3 196.6 198.6 200.9 202.5 203.9 206.5 208.7 210.4 212.2 214 214.2 214.4 213.9 212.9 211.7 209.7 207.3 205.2 206.3 207.1 206.7 206.1 203 200.9
59.5 61.1 65.5 75.5 85.1 96 103.1 110.2 111.8 112.5 103.6 96.7 93.2 90.3 93.5 98.7 101.5 103.2 104.7 104.9 107.1 115.7 122.1 126.7 129.8 129.6 131.7 134.4 136.6 138.2 138.8 139.7 140.4 141.2 142.5 144.4 145.1 146.1 148.1 149.4 149.7 149.8 153.4 158 161.2 163.9 166.9 169.7 171.9 173.4 174.9 175.9 176.6 177.6 178.4 177.6 178.8 180.9 181.5 182.7 183.1 182.4 181.4 180.6 180.1 179.7 178.9 176.9 174.6 172.5 170.6 168.1 165.6 164.4 166.1 167.2 168.6 170.1 172.5 175.9 180 183.4 186.2 188.5 190.1 190.4 190.4 190.6 190.5 189.3 187.9 187.2 187.9 188.5 189.7 190.1 189.9 190 189.3 188.4 186.2 185.6 185.2 187 188.5 190.2 192.7 194.9 197 197.3 197.1 196.1 194.7 193.3 191.9 190.4 188.6 189 189.7 190.2 190.8 192 193.6 194.1 194.5 195.1 196.2 196.5 196.1 195.7 195.3 193.7 191.1 189.2 187.5 187 186.7 186.6 185 183.3 182 181 179.9 178.9 176.9 175.6 174.3 173.3 172 170 170 169.9 170.1 170 170 169.4 168.9 168.2 167.6 168.5 169.3 170.1 171.4 172.9 174.8 177.5 179.8 182.2 184.5 187.5 189.6 190.4 191.1 192 193.5 196.9 200.4 202.6 204.7 205.7 206.1 208.7 211.2 212.9 214.6 216.4 216.7 216.8 215.9 214.1 212.2 210.5 208.2 205.1 202.4 203.5 203.4 201.9 198.5 196.5
64.5 69.1 70.5 71.1 65.6 71.8 81.6 92.9 99.1 93.8 80.8 88.8 97.4 104.2 107.9 110.9 113.4 116 117.7 119.5 120.4 113.5 107.7 111.2 114 117.9 122 125.7 128.3 129.8 131.9 132.6 133 133.3 135.3 136.7 138.4 141.1 143.6 144.6 145.1 149.3 153.8 157.8 161.1 163.9 166.6 169 170.7 172.4 173 173.5 172.4 172.8 173.8 173.6 174 175.2 177.2 178.8 179.1 178.9 178.9 178.8 178.4 179.1 178.6 177.9 175.5 172.7 169.5 167.3 165.9 163.6 166 167.9 169.7 172 174.6 177.8 181.7 185.1 187.8 190.3 192.4 193.6 194.5 193.9 193 192 190.7 189.6 188.8 189.7 189.5 188.8 188.7 188.3 187.5 184.7 184 184 183.6 184.9 186.4 189.1 191.6 194.2 196.4 196.5 195.9 194.5 192.9 191.4 190 188.6 187.4 187.5 188.2 189.3 189.4 191.2 192.5 192.7 193.2 194.2 195.3 195.6 195.5 195.5 195.2 194 192 190.6 190.3 191.3 191.1 190.2 188.7 187.3 185.8 184.7 183.5 182.2 180.9 179.1 177.6 175.4 173.7 172.6 171.1 169.4 168.9 168.5 168.4 168.3 167.2 167 168.8 171.3 171.5 172.9 174.1 177 178.3 178.6 181.5 184.2 187.9 191.7 194.1 195.1 195.4 197.2 200.1 202.1 204.5 206.5 208 208.6 209 210.8 213.8 216.7 219.1 219.7 219.5 218.4 216.8 215.7 213.7 211.2 208.3 205.7 202.8 200 199.3 198.3 197.6 196.9
88 95.3 98.1 95.7 89.2 78.8 73.3 72.8 79.7 76.5 88.4 99.6 111.2 114.9 117.6 118.6 119.2 121.2 122.6 124.1 124.9 123.9 120.6 116.8 118.5 121.3 123.5 119.9 120.3 121.4 125.3 128.9 127.5 128.9 131.4 132.6 135.3 137.7 140.4 143.2 147.3 150.4 153.5 157.7 160.9 163.6 166.1 168 169.5 170.1 169.7 169.8 167.4 168.3 168.5 168.1 167.5 168.6 173 175.7 175.2 174.8 175.3 174.5 174.9 175.1 177.1 177.6 176 172.6 169.4 167.9 166.1 163 166.4 168.7 170.7 173.5 176.7 179.9 183.4 186.8 189.4 191.7 193.5 195 196 195.2 194.2 192.9 191 189.3 188.2 187.2 186.9 185.2 183.6 182.5 183.1 182.8 182.6 181.8 181.9 183 185.2 187.8 191.4 194.1 196 195.4 194.4 193.3 192.1 190.7 188.7 187.3 186.8 186 187.4 187.8 188.6 189.9 191.7 191.8 192.7 193.7 194.6 194.8 195 195.2 194.9 194.5 194 193.8 193.8 194 193.4 193.1 191.8 190.6 189.1 187.5 186.3 185.4 183.9 182.2 180.3 178.2 176.4 174.8 172.9 171.4 170.4 170.4 169.6 167.7 166.5 166.8 170.4 173.7 176 178.1 180.6 182.7 183.4 183.3 183.1 186.6 189.5 194.3 197.5 198.8 198.9 199.2 204.4 206.5 207.5 209.3 210.7 212.3 213.1 214.3 217.6 220.6 221.4 221.5 221.4 220 218.3 216.9 214.3 211.1 208.2 205.9 202 202.8 203.5 203.6 203.9 203.1
105.3 109.4 112.1 111.6 106.7 97.4 87.2 86.7 86.3 87.3 95.8 106.3 113.7 118 121.1 122.3 123.4 124.3 125.7 127.2 128.4 127.7 126 124.1 123.4 127.4 128.7 129.1 128.3 127 124.4 127.6 129.6 132.3 134.7 136.5 138 140.4 143.3 145.7 148.5 151.2 154.1 156.7 159.3 162.6 164.9 166.5 167.5 167.9 167 166.3 165.7 164.7 163.8 161.8 161.1 162.2 164.2 166.4 167.2 166.2 165.7 164.2 165.7 167.5 169.9 172.3 175.1 173.4 170.8 168.2 166.7 162.9 166.2 169.3 171.5 174.4 177.6 181.8 184.9 187.5 188.7 191.2 193.1 195.1 196 195.3 193.5 193 191.1 188.5 186.3 182.9 181.5 181.2 180.5 180.7 180.8 181.1 178.8 176.9 177.4 180.2 183.8 186.8 189.6 193.2 194.9 195.1 194.3 193 191.4 189.5 187.7 186.9 186.3 185.5 187 188.3 189.4 190.2 191.5 192.1 192.6 193 193.3 193.8 194.3 194.6 195.3 195.2 194.8 195.1 195.3 195.4 194.9 194.8 194.9 193.4 192.3 190.6 188.8 187.2 185.3 183.8 182.5 179.8 178.6 176.7 176 174.4 174.4 174.3 172.9 170.6 167.6 166.1 169.4 175.1 178.7 181.4 184.2 186.3 187.7 187.5 186.5 189.3 192.2 196 200.2 202.5 203.8 203.6 205.8 208.4 209.8 210.8 212.2 214.2 217 218.5 221.3 222.6 223.1 222.7 222.5 221 219.2 217.4 214.3 210.9 208.1 205.5 205.7 208 208.8 208.8 208.3 206.8
110.1 113.1 115.1 115.4 112.7 108.9 104.6 101.6 103.6 103.9 91.9 106.9 113.6 118.2 122.5 124.4 125.3 127.1 128.4 129.4 130.9 131.4 130.8 129.9 129 130.4 131.6 131.8 131.6 130 129.3 131.2 132.5 134.7 136 137.9 139.9 141.8 144 146 148.4 150.9 153.4 155.9 158.5 161.3 163.1 164.1 165.2 164.7 163.1 161.6 162.5 160.4 158.2 156.2 154.9 155.8 158.9 160.9 160.9 158.8 156.2 156.2 157.4 160.7 163.3 166.3 169.3 171.2 169.7 167.7 164.7 161.3 166.1 169 171.8 175.5 178.1 182 184.4 186.2 187.4 189.7 192.5 194.4 195.2 193.9 192.1 190.3 188.3 185.8 182.7 179 178.1 178.2 177 175.8 176 175.4 173 174.4 178.3 181.5 184 187.1 189.5 191.5 193 193.5 193 191.9 190.3 188.1 186.6 185.6 185.3 186.3 187.4 188.3 190.1 190.9 191.3 191.6 192 192.4 192.8 193.3 194.1 195.1 195.8 196 195.7 196.2 196.3 196.6 196.4 196.6 197.4 197.3 196.5 195.6 192.9 190.2 187.6 184.8 182.5 179.8 177.2 175.4 174.1 173.7 173.3 172 170.8 168.7 166.3 166.2 170 175.5 180 184.8 187.2 190.5 191.4 191.2 190.2 191.6 194.4 197.7 202.3 205 205.8 205.7 207 208.2 209.6 211.8 214.3 217.1 220 221.9 222.6 222.9 223 222.2 221.3 219.6 217.9 216.5 214 211.1 208.8 206.7 207.7 209.9 211.1 211.3 210.9 209.7
108.3 111.7 114.7 116.2 116 113.8 111.2 106.3 111 111.4 106.9 99.3 109.8 116.1 119.8 122.1 124.5 126.8 128.1 130.7 132.3 133.1 132.9 132.6 132.5 133 133.8 134.2 134 133.2 131.1 130.7 130.2 131 133.5 136.2 138.8 141 142.9 144.8 147.2 149.7 152.2 154 155.9 159.5 161.3 162.3 162.5 161.5 159.4 156.4 153.6 152.1 151.4 150 149.7 150.5 152.4 153.8 151.8 146.9 145 147.2 150.2 151.2 152.7 157.4 163.3 166.7 165.4 164.7 161.8 162.2 165.8 168.6 171 174.2 177.6 180 182.4 184.1 185.3 187.4 189.5 191.2 190.4 190.2 188.7 186.5 184.6 182.5 179.7 175.5 173.3 171.2 168.5 168.8 170.2 171 174 178.4 181.9 184.5 186.2 187.9 189.6 190.8 191.3 191.2 190.5 190.4 188.3 186.9 185.8 184.8 185.5 187 187.4 189.3 189.8 191.1 191.8 191.4 191.6 192.4 193.2 193.1 194.4 195.5 196.2 196.6 196.7 196.7 196.5 197 197.5 198.6 199.8 200.7 199.9 197.6 194.4 191.2 188 184.5 181.3 178.4 176.2 174.3 172.5 170.7 170.3 168.3 166.6 165.4 164.8 166.4 171.4 177.5 184.1 188.7 191 192.6 193.3 192.9 193.2 193.6 196 198.8 203.3 205.5 206.4 207 208.4 209.2 211.4 213.1 215.5 219.1 221.3 222.2 221.9 222.1 221.4 220.3 219.1 217.3 216.3 215.3 213.3 211.5 209.6 209.1 209.5 211.1 211.6 212.3 211.5 210.3
106.5 109.7 113 115.1 117.4 117.7 116.6 114.1 117.8 118.5 117 113.8 109.8 112.9 115.9 118.6 121.2 124.8 126.8 129.5 132 133.3 134 133.7 134.6 135.3 135.7 135.8 135.5 134.2 132.6 129.8 131.1 132.8 134.5 136.2 138.8 139.7 141.6 143.7 146 148.6 150.6 153.6 155.7 157 158.9 159.9 159.8 157.8 154.6 149.7 146 144.9 143.6 142.1 139.1 136.6 137.4 141.9 144.7 145.9 153.9 157.8 159.4 158 155.1 154.1 154.6 158.4 159.6 160.1 158.1 160.2 163.5 166.4 170.3 172.7 176.1 178.7 180.7 181.9 182.1 185.2 185.6 186.1 185.8 185.1 183.9 182.6 179.9 177.4 174.5 168.5 165.7 163.3 165.5 169.7 172.6 175.7 179.1 182.3 184.7 186.4 188.3 188.8 189.1 190.1 190.2 189.9 189.3 188.7 187.3 186 185 183.7 185.3 187.3 188.6 189.9 190.2 190.7 191 190.3 191.1 191.3 191.3 191.4 192.7 194 195 195.8 196.7 196.7 196.6 197.3 198.4 199.8 201.1 201.4 200.5 198.1 194.8 190.8 186.3 185.4 183.2 180.8 178.5 175.8 173.4 171.1 168.6 166.7 165.5 165.3 165.3 167.4 175.6 181.2 185.7 189.4 192.2 193.7 194.9 195.3 195.3 195.2 197.1 199.4 202.9 205.4 206.3 207.9 209.3 210.5 211.8 213.2 215.2 218.2 220 220.7 220 219.8 218.9 217.7 216.4 215.2 214.8 214 212.7 212.1 212 211.3 211.2 211.6 211.8 211.8 211 210.3
106 109.5 112.9 116 118.7 120.2 120.2 119 121.3 123.2 122.5 120 117.8 116.2 117.4 119.9 122.2 124.3 128.1 129.6 132.3 133.8 135.1 136 136.7 137 136.8 136.8 136 135.3 133.6 131.4 132.3 135 136.6 138.4 140.5 141.8 143.2 145 146.7 148.2 150.3 152.9 155.1 156.5 158.4 158.7 158 155.3 150.4 144.2 139.3 136.5 134.7 131.8 134.5 134.7 138.2 142.2 147.2 154.7 161.2 164.8 167 167.2 166.6 163 157.5 154.6 155.2 157.4 158.8 160.1 162.4 163.7 166.2 169.5 171.7 174.4 177.1 178.4 180.5 182.7 183.3 183 181.4 179.9 178.5 176.6 174.3 171.1 167.1 162.4 160.9 164.8 168.6 172.4 175.7 178.4 181 183.3 185.7 187.2 188 188.1 188 188.2 188.4 187.6 187.2 187.1 186.1 185.2 184.5 183 185.4 187.3 188.9 188.1 189.6 190 189.5 189.8 189.4 189.4 189.2 189.7 190.9 192.2 193.3 194.3 194.2 194.7 195.6 197 198.4 199.8 201.2 201.5 200.4 198.5 195.7 192.3 189.9 188.6 186.4 183.8 181.1 179.8 177.5 173.1 169.3 167 165.4 164.9 165.9 171.4 176.6 181.1 185.7 189.2 192.5 193.8 195.8 196.6 196.9 196.9 198.4 199.8 201.2 203 205.7 207.4 208.6 209.3 210.6 212.2 213.5 215.9 217.6 217.7 216.7 216.6 216 214.9 213.7 213.3 213.3 213 212.5 213 213 212.8 212.3 211.4 211.4 210.9 210.4 209.6
106.6 109.6 113.6 117.1 119.6 121.9 122.2 122.6 123.8 125.4 124.5 123.3 122.2 120.3 120.7 122.8 124.7 126.5 129.1 131.3 133.9 135.5 137 138 138.6 139.1 138.8 137.7 136.7 136.3 135.2 133.8 134 135.7 137.5 139.3 141 143 145.5 146.5 148 149.5 151.3 152.8 154.8 156.7 158.1 158 157.6 155 149.9 144.7 137.9 131.1 129.5 132.7 138.7 141.1 144.7 147.4 150.4 156.2 162.8 166.6 168.8 169.5 168.9 168 165.1 163 161.6 162.2 161.6 162.8 163.7 164.9 166.9 168.9 170.7 172.5 174.5 177.3 179.5 181.3 181.7 180.7 179 176.8 174.9 173.1 170.9 166.9 161.2 159.7 164.1 167.5 170.6 173.4 176.8 179.6 182.2 184.3 186.2 186.7 187.9 188 188.1 187.6 187.2 185.7 185.4 184.6 184.4 183.4 182.1 182.5 184.8 185.9 186.4 187.1 187.8 187.9 188.6 187.6 187.3 187.3 187.1 188 189.2 190.2 189.5 190.5 192.4 194.5 196.5 197.5 198.8 200.1 201.2 201.3 200.2 199.6 197.8 195.8 193.5 191.4 189.6 189 187.2 184.7 181.4 177.3 171.6 170.1 170.7 166.5 166.3 169.3 174.9 179.3 183.5 187.7 190.9 194.7 196.8 197.5 197.8 197.6 197.7 198.9 199.7 201.5 203.7 205.4 207.1 208.1 209.5 210.8 212.1 213.3 214.6 214.6 214.6 213.2 213.6 212.8 211.8 211.7 211.7 211.7 212.2 213.1 213.4 213.3 212.8 211.9 211 210.2 209 208.1
105.4 110.2 116 119.5 122.3 124.3 125.4 125.9 126.4 127.3 127.1 126.6 125.6 123.7 123.8 124.7 127.2 128.6 130.8 133.1 135.3 137.3 138.5 139.6 140.2 140.7 140.3 139 138.1 137.4 136.3 135.9 136.8 137.5 138.9 141 143.1 145.1 147.6 148.8 150 151.7 152.8 153.8 155.4 157.1 157.6 158 156.9 154.3 149.4 143.4 135.9 127.8 128.8 135.4 141.8 144.9 147.7 151 155.4 159.7 164.4 167.8 169.2 169.9 169.8 169.5 168 167.1 166.1 164.3 163.9 164.2 165.2 166.6 168.6 170.5 172 173.4 174.7 176.9 179.3 180.8 180.6 178.9 177.6 175.5 172.1 169.4 166.6 161.3 161.2 164.7 168.2 170.6 172.5 174.6 177 179.4 181.9 183.7 185.3 186.2 186.8 186.9 186.4 185.5 184.8 184.6 184.9 183.5 182.4 181.9 181.9 182.6 183.6 184.7 185.3 185.9 186.9 186.9 185.9 185.1 184.9 184.3 184.9 185.6 186.3 186.6 187.9 190.7 192.8 195.2 197 198 199.3 200.6 201 201.1 200.5 200.1 199.7 197.9 195.6 195.5 193.6 191.4 188.6 185.6 182.6 178.2 172.4 176.9 175.9 171.2 168 165.5 170.3 174.6 180.1 185.6 189.5 194.8 197.5 198.4 198 197.6 197.2 197.2 197.8 199 201.5 203.2 205 207 208.4 209.6 210.5 211.1 210.8 211.1 210.7 211.1 211.4 210.4 209.9 209.4 210 210.5 211.9 213.1 213.5 213.1 212.4 211.6 210.4 208.7 207.4 206.1
109.4 113.4 117.4 122 124.6 126.3 127.6 128 129 130.1 131 131.9 132.2 131.6 131.3 131.4 133.1 134 134.6 135.9 137.5 139.1 140.5 141.3 141.4 141.6 141.1 140 138.7 138.1 137.7 137.5 137.7 138.9 140.5 142.4 144.4 146.7 148.7 150 151.6 152.8 153.9 155.1 156.2 157.5 158.4 158 157.5 156.3 153 149.2 142.5 127.5 131.2 139.7 146.7 150.7 152.5 154.7 158.2 161.3 166 168.3 169.5 169.4 168.9 168.3 167.4 166.6 165.6 164.6 164.8 165.5 166.3 167.7 169.9 171.6 172.9 173.9 176.2 177.7 180.1 180.7 180 178.1 176 173.6 170.2 166.4 161.2 157.4 161.9 164.3 166.2 168.4 171.2 173.9 176.2 178.5 180.8 182.5 184.5 185.6 185.7 185.5 185.1 184.4 183.6 183.8 182.7 182 181.6 180.5 181.3 182.7 183.2 183.7 184 184.5 184.6 184.1 183 182.5 182.2 182.6 182.6 183.5 184.5 186 188.5 191.3 193.4 195.9 197.2 198.4 199.1 199.8 199.9 200 200.1 199.9 199.4 199 197.3 195.4 194.1 191.8 188.9 185.8 182.1 175.9 177.4 179.9 178.6 174.1 167.5 164.3 164.8 167.6 176.8 183.1 189.5 194.4 197 198.2 198.1 197.7 196.5 195.6 195.9 196.8 199.3 201.9 204.5 206 207 208 209 208.7 208.4 208.2 208.8 208.6 208.6 208.2 207.3 207.5 208 209.7 211.1 212.3 212.5 212.3 211.9 211.3 209.8 207.4 206.2 204.9
113.4 116.9 120.2 123.2 126 128 129.5 130.3 131.6 132.8 135 136.9 138.8 139.4 139.7 138.1 138.7 139 139.9 140.6 141.1 141.8 142.3 142.4 142 141.9 141.3 140.2 139.7 139.2 139.5 139.3 139.4 140.7 142.5 144.5 146.6 147.9 150.3 151.3 152.5 153.8 155 156.1 157.3 158 159.1 159 159 159 157.2 154.4 149.7 134.1 125.6 134.5 148.5 153.6 156.8 158.9 160.9 164 167.3 168.1 167.9 167.2 166.2 165.5 165.2 164.2 162.5 161.5 161.6 162.8 164.5 166.2 170.1 172 173.5 175.2 176.9 179.1 179.7 179.4 179 176.3 173 170.2 166.3 161.8 155.1 155.6 159.5 161.2 163.2 165.8 169.2 171.1 174.7 177.1 180 182.2 183.9 184.9 184.9 185 184.4 183.4 182.5 182.3 181.3 180.9 180.7 180 181.1 181.8 182.5 182.9 182.1 182.4 182.5 182.5 181.7 181.1 180.7 180.3 180.9 183.5 185.5 187.1 189.5 192.3 194.1 195.6 196.5 196.9 197.6 197.6 197.7 198 198.7 199.1 198.9 198.6 196.9 194.9 192.6 189.6 186.6 183.7 178.8 180.8 181.8 182.1 181.1 178.7 173.1 166.6 163.8 164.3 174 181.9 187.8 192.9 195.9 197.5 198.1 197.1 195.4 193.1 192.3 195.2 198.7 201.4 203.8 205.6 206.8 207.4 207.3 207.2 206.4 206.1 206 206.2 206.5 206.2 205.5 205.5 206.6 208.4 209.9 210.6 211.2 211.1 210.6 210.1 209 207.2 205.5 204.1
119.3 120.3 121.5 123.9 127.5 129.3 131.6 132 134 135.9 137.4 138.9 140.5 140.7 140.9 141 140.9 140.7 140.9 140.6 141.4 142.2 142.3 141.6 141.1 141.3 141.5 141.3 141.3 141.2 141.4 141.7 142.6 144.4 146.2 147.4 149.4 150 151.6 152.5 153.3 154.7 156.1 157.2 158 158.7 159.6 160.7 161.5 161.5 160.9 159.6 155.9 148.4 124.9 127 146.6 156.6 160.1 162 164 166.8 167.9 167.4 166.7 165.1 164.1 162.8 162 161.1 158.4 157.4 157.1 159.6 161.1 165.1 166.1 168.7 171.4 174.2 176.2 177.9 177.3 175.9 173.7 170.8 168 165.6 162.3 157.3 152.2 154.2 156.5 158.1 160.1 163.1 166.4 169.1 172.5 175.5 178.2 180.5 182.4 183.8 184.3 184.3 183.6 182.8 181.6 180.4 180 179.4 179.2 179.5 180.3 180.4 180.8 181.3 180.8 180.8 180.8 180.7 180.4 180.3 179.1 180.3 181.8 183.9 185.6 187.7 190.4 192.3 193.6 194.6 195 195.2 195 195 195.7 195.9 196.5 197.6 198 197.4 195.5 193.4 190.8 187.8 184.6 183.3 182.7 183.4 184.5 185 185.1 183.6 181.3 176.6 168.1 162.9 165 178.1 185.4 191.5 194.8 196.6 196.8 195 192.4 191.2 191.3 195 198.3 201.2 203.4 205.1 206.5 206.5 206 205.2 204.4 203.9 203.6 204.1 204.3 204 203.6 203.5 204.2 205.7 207.5 208.3 208.9 209.3 209.3 208.7 208.1 207.1 205.5 204.7
123.8 125.8 126.3 128.3 129.2 130.6 132.5 133.5 135.5 136.7 138.3 140.1 141.2 141.6 141.4 141.5 141.6 141.5 141.7 141.4 141.1 141.4 141.3 140.8 140.3 140.5 141.2 141.9 142.1 143.4 144.5 145.5 145.9 147 147.4 149 150 150.8 151.2 151.3 152.8 154.2 155.2 156.3 156.8 157.4 157.2 158.3 159.3 159.7 159.7 159.8 158.5 153.2 141.8 126.8 147.2 160 163.4 166.1 166.8 167.5 166.6 165.2 164.1 162.7 161.4 160.1 158.8 158 155.6 153.3 154 155.4 157.3 160.7 162.5 165.2 168.8 172 174.6 175.7 175.4 173.9 170.9 166.6 162.6 160 156.3 153.1 150.4 150.4 152.7 154.8 157.6 160.6 163.8 166.5 169.3 173.1 176.1 179.2 181.2 183.1 184.2 184.1 183.7 182.6 181.4 180.2 179.7 179.5 178.3 178.6 179 179.1 179.4 179.8 179.5 179.4 179.3 179.5 178.9 177.2 178.3 179.8 181.3 183.9 185.7 187.7 190.1 191.7 192.7 193.2 193.1 192.8 192.6 192.9 193.3 194.1 195.3 196.1 196.7 196.6 195 192.9 190.9 187.9 187 186.5 186.5 187 187.4 187.8 188.1 187.5 185.5 182.7 178.2 170.8 160.7 173.4 184.2 190 193 194.3 194.4 193.3 191.7 188.9 192.1 195 197.6 200 202.7 204.5 205.2 205.2 204.6 202.8 202 201.2 201 201.8 202.1 201.9 202 201.3 202 203.2 204.5 206.2 206.8 207.2 208 207.9 207.7 207.1 205.9 204.7
124.2 127.2 129.5 131 131.8 132.3 133.4 135 136.5 137.6 138.6 140.2 141.5 141.5 141.4 141.6 141.6 141.6 141.2 140.6 140 140.3 140.2 139.9 139.4 139.9 140.9 141.8 142.4 144 145.6 147.4 148.4 148.2 147.7 148 148.2 148.6 147.9 149.4 150.1 150.7 151.2 151.8 151.5 150.7 150.7 151.8 154 154.9 156.1 156.2 147.9 140.7 134.7 127.9 143.8 158.5 165.7 165.5 164 163.1 161.7 160 158.6 157.9 155.9 153.3 152.1 151.9 151.6 149.7 149.5 150.2 152.7 155.9 158.4 161.6 165.5 168.8 171.8 173.2 172 170.8 167.1 162 157.9 154.7 152.4 150 145.3 147.5 149.6 152.6 155.4 159 163 165.8 169.2 172.5 175.8 178.5 180.9 182.8 183.9 184.9 184.1 183.2 181.9 180.6 179.8 178.8 177.5 177.5 177.7 177.8 178.1 178.2 178 177.9 177.4 176.6 176.4 177 178.1 179.4 181.7 182.8 185.1 187.5 189.3 190.8 191 190.7 190.9 190.9 190.9 190.9 191.7 192.6 194.1 195.1 196.1 196.2 195.9 193.8 191.5 190.3 189.7 190.1 189.8 190 190.2 190.6 190.6 189.4 187.5 185 182 176.4 165.7 169 179 186 189.6 192 192.6 191.4 188.1 184.9 190.5 192.8 195.9 197.8 199.5 201.6 202.5 202.1 200.5 198.4 197.6 197.3 198.8 200.7 201.2 201.2 201.2 200 199.9 201.2 202.3 203.8 205 206 206.7 207.2 207 206.7 205.5 204.3
124.3 127.7 130.2 131.8 133.4 134.3 135.2 136.5 137.4 138.6 139.4 140 141.3 141.8 141.8 142.1 141.7 141.3 140.9 139.8 138.9 138.7 138.7 138.7 139 139.4 140.2 141.2 142.4 143.8 145.3 147.7 148.7 148.2 147.2 146.5 146 145.7 145.2 145 144.9 144 142.9 141.2 142.4 142 143 144.1 143.3 144.5 147.7 147.8 138.2 123.5 116.3 130.7 145.8 155.7 158.8 158.1 158 157.4 157.6 156.8 155.8 154.7 152.5 149.6 148.1 146.4 144.5 143.2 142.7 143.8 144.4 147.6 152 156.8 162.2 166.2 169.2 171 169.8 167 162.4 157.9 153.6 149.8 148.6 147.6 143.4 145.6 147.3 151.4 154.9 159 162.3 166.1 169.2 171.8 174.8 177.5 179.7 181.8 183.6 184.8 184.7 183.7 182.4 181 179.6 178.6 177.5 176.3 176.3 176.5 176.5 176.6 176.4 175.5 175.3 174.9 176.1 177 177.7 179.8 181.3 183.7 185.6 186.9 188.3 189.8 189.6 189.3 189.3 189.2 189.1 188.5 189.7 191.7 193.4 194.5 195.4 195.7 195.8 195 193.7 193.2 192.5 193.2 193.1 193.1 192.8 192.4 191 189.8 187.1 185 181.5 176.9 167 164.2 175.4 181.8 186.2 188.6 188.7 186.7 181.8 184.9 186.8 189.1 192.6 194 195.8 197.1 198.8 198.7 197.5 197 195.7 198 199.8 200.8 201.2 201 200.9 200.1 197.3 199.3 200.3 201.4 202.7 203.5 205 205.9 205.7 205.3 204.5 203.1
125.9 129 131.1 132.6 134.2 135.5 136.4 135.7 137.4 138.8 140.2 140.4 141.9 142.1 142.3 142.5 142.4 141.6 140.5 138.5 137.6 136.9 137 137.7 138.3 138.9 139.9 140.6 141.8 143.3 145 146.6 147.3 145.9 144.6 143.7 143.5 143.5 143.1 142.2 141.1 140.1 139.4 139.3 138.8 136.5 137.3 136.8 136.2 135.7 134.8 128 118 115.3 127.3 137.9 143.7 148.3 150.1 152 152.6 153.9 154.6 154.1 153.2 151.7 148.5 145.9 143.7 142.1 140.9 138.3 136.1 138.4 139.5 141 144.5 150.9 157.2 162.4 166.5 169.1 168 164.3 158.7 152.6 145.3 140.5 140.7 140.5 142.4 147.2 149.8 152.1 155 158.7 162.4 165.5 168.3 171.1 174.2 177.1 180 182 184.1 184.6 184.6 184.4 183.2 182 180.5 179.9 178.6 177.6 177 176.6 175.7 175 175.1 174.5 174.3 174.6 175.5 177.1 178.5 180.8 182.8 183.9 185.6 187.1 187.9 188.7 188.4 188.2 188 187.8 187 186.4 188.3 190.4 192.2 193.1 193.7 194.3 195.2 196.2 195.4 194.7 193.4 194.2 193.9 193.4 192.6 191.3 189.7 188.1 185.8 183.4 180.1 175.9 168.6 162.5 173.1 179.3 182.8 184.2 182.6 179.1 178.1 182.5 185.4 187.1 190.1 191.9 193 194.2 194.9 195.3 194.6 194.3 195.2 198.1 200.1 201.1 200.9 200.7 200.2 199 196.7 195.6 197.5 198.8 200.9 202.4 203.9 204.5 204.5 204 203.4 201.5
126.5 129.4 131.4 134.2 135.5 135.9 135.1 134.2 135 134.8 136.4 138.5 140.4 141.1 141 141.3 141.8 140.9 138.9 137.8 135.6 134.8 136.1 137.2 137.8 138.5 139.5 140.2 140.2 141 143.2 143.9 144.5 143.4 142.2 141.6 141.4 141.2 141 140.1 138.1 136.2 134.3 133 132.4 131.9 131 130.4 129.8 128.4 119.9 107.3 113.5 123.2 131.1 137 140.3 142.9 145.1 147.7 149.7 151.1 152.2 152.2 151.8 150.3 148.6 144.7 142 139.7 137.5 134.4 132.8 131.6 131.7 135 142.2 149.4 156.7 161.7 166.2 168.6 167.6 163.4 156.8 149.1 137.7 138.7 140.7 141.7 145.5 148.8 151.5 154.4 156.7 161.1 163.8 167.3 170 173.4 175.2 178 181.1 183.1 185.2 185.7 185.7 185.6 184.4 183.2 182.3 182 180.5 179.8 179.4 179.5 178.5 176.8 176.7 174.9 173.8 174.3 176.3 177.9 179.5 181.4 183.9 185.4 186.9 187.8 188 187.6 187.2 187 186.7 185.9 184.2 184.4 186.5 188.5 190.3 191.5 192.2 192.9 194 195 194.4 193.7 192.4 192.5 192.3 192.6 191.8 190.1 188.3 186.3 184.1 181.5 178.5 172.9 166.5 160.9 167.3 173.1 175.6 176.4 174.8 173.8 179 181.9 183.6 185.7 187.5 188.8 189.5 189.3 189.4 190.5 190.9 190 193.7 197.1 199 199.8 200 199.3 198.1 196.9 195.3 192.8 194.3 196.3 198.3 200.4 203.5 203.3 203.3 202.9 201.1 200.4
123.7 126.5 128.9 131 133.8 134.1 132.9 132.3 130.9 130.2 132.4 135.1 137.2 138.5 139 139.2 139.3 138.6 137.5 136.6 132.7 134.3 136.4 137.9 138.1 138.6 138.4 137.8 137.7 137.4 138.3 140.4 141.1 139.9 139.9 139 139.1 139.2 138.9 138.8 136.2 133.8 130.7 128.4 128 126.1 124.9 122.7 120.3 117 104.4 107.4 116 122.6 126.8 131.7 135.5 138.7 143.1 145.3 147.2 148.9 150.7 151.1 151 150.6 149.4 147.2 145 143 141.8 139.7 137 133.5 125.9 130.8 140.7 148.7 155.4 160.3 165.7 168 167.8 164.6 156.5 138.9 139.1 143.9 145.3 145.6 145.3 148.4 152.3 155.3 158.6 162.1 165.7 168.4 171.1 173.2 176 179 182 184.5 186.6 187.7 187.9 188.1 187.4 186 184.6 183.2 182.4 182.2 182.6 182 180.8 179.5 178.3 176.1 174.2 174.4 177.4 179.2 181.1 183.3 184.9 186.6 187.7 187.5 187 186.5 185.9 185.3 185 184 182.3 182.4 184.6 186.6 188.4 190 190.7 191.6 192.7 193.1 193 191.4 191.5 191.9 192 191.4 190.2 188.5 186.4 184.6 182.9 179.5 175.7 170.5 166.7 159.8 166.8 169.1 170.9 171.6 170.7 174.9 178.3 180.4 182 184.2 184.4 184.3 183.3 183.1 184 185.2 185.9 188.5 192.3 195.4 197.5 198.4 198.8 198.2 196.4 194.8 193 190.8 191.9 194.7 197.3 198.8 200.8 201.7 201.1 200.5 199.2 197.9
118.9 122.5 124.2 125.9 127.5 129.4 128.1 127.1 127.9 128.3 130.2 131.7 134.1 135.8 136.9 137.3 136.7 135.4 135.9 133.9 129.7 135 136.4 137.4 137.2 136.9 136.1 135.4 134.6 134.4 134.9 137 137.5 137.3 137.1 136.2 135.5 137.3 138.3 137.4 136.3 133.2 130.2 126.3 121.4 116.5 112.6 114 113.7 103.9 103.4 111.3 115.8 119.5 124.2 129.6 133.5 137.7 141.1 144.4 147.4 149.9 151.2 151.9 151.9 150.1 149.4 149.4 148.4 146.2 144.6 143.2 143 142.4 136.2 123.9 139.7 149 154 157.9 160.1 162.5 162.1 159.9 154.2 132.3 144.6 149.2 149.2 149 148.7 148.8 151.5 155.6 160.1 163.1 165.4 167.4 169.7 172.7 175.2 178.7 181.8 184.2 186.5 188.2 188.9 189.2 187.9 186.9 186.8 185.4 184.4 184.5 184.7 184.6 183.1 181.5 180 178.7 176.8 173.4 177 179.4 181.4 183.1 184.1 185.2 185.4 185.6 185.4 184.8 184.1 183.3 182.5 181.7 180.5 180.7 182.8 184.7 186.6 188.4 189.2 190.5 191 191.7 190.9 189.2 189.1 188.4 187.3 188.6 187 184.9 183 181.1 180.5 179.1 177.6 174.2 167.1 159.4 164.2 165.6 166.4 168.3 170.6 174.6 176.7 177.9 179.2 179.6 179.4 178.4 176.9 178.3 179 180.7 183.1 187.1 190.3 193.4 196 197.2 197.4 197.3 195.9 194.2 192.5 189.4 189.3 193.8 196.6 198.7 199.1 199.1 198.7 198.3 197.1 196.5
115.6 118.7 120.9 122.9 123.4 124.1 124 122.5 123.3 124.1 127.1 128.9 131.3 133.8 134.6 134.2 133 130.4 126.5 129.1 132.3 135.1 135.8 136.6 136.2 135 133.2 130.9 129.1 130.5 131.3 132.5 133.8 134.3 134 133.2 133.4 135.7 137.1 136.7 136.8 134.6 132.5 128.1 123.5 118.2 113.8 108.6 99.1 100.7 105.6 112.4 117.7 122.1 127 131.5 136.1 140.8 144.6 148 151.3 154.1 154.4 153.5 151.8 149.4 147 145.6 145.7 145 143.2 142.8 142.1 139.8 135.5 122.4 135.7 146.9 149.5 150.3 147.8 148.4 147.7 147.1 141.6 136.9 149.2 153 153.7 153.1 152.4 152.8 153.5 154.7 157.6 160.4 162.4 164.7 167.2 170.1 173.5 176.8 180 182.9 185.6 187.5 188.6 189.2 188.8 188.6 188.5 187.7 187 186.8 186.8 186.8 185.8 184.3 183 180.5 179.5 173.6 172.6 177.2 179.7 181.8 182.8 183.6 183.1 182.7 183.1 183.2 182.4 181.9 181.2 179.6 178.3 180.1 181.9 183.7 185.3 186.8 188.3 189.6 189.9 190 188.6 187.1 186.3 184.9 187.8 183.7 182.6 180.5 178.5 177.1 176.2 176 175.3 170.4 161.7 161.8 166.6 168.7 169.1 169.3 171 173 173.4 173.1 173.5 173.2 173.3 174 177.8 181 184 186.3 187.7 191.2 192.5 195 197.2 198.2 198.2 198.2 196.7 195.7 194.6 191.7 187.6 192.7 195.9 197.5 198.1 197.7 196.9 196.1 194.8 193.6
114.7 117.8 119.9 120.9 120.6 117.9 117.5 117.5 119 121.5 123.5 127.1 129.8 131.8 132.1 131.5 127.8 123.3 127.1 130.6 133 134.3 134.6 135.3 133.5 131.4 129.3 127 124.2 124.6 124.9 124.9 126.8 127.2 127.9 128.6 131.4 133.9 135.1 136.5 136.7 135.6 133.7 130.9 127.5 124.2 121.2 117.3 102.6 100.1 108.5 112.5 117.8 122.2 127.5 133.2 138.5 142.9 147.1 149.7 152.1 152.8 152.2 149.6 148 145.5 141.2 137.2 136.8 136.4 133.2 129.5 126.4 122.3 119 117.8 122.5 125.4 127 128.1 129.2 129.3 129.5 130.2 134.3 147.2 153.8 155.2 155.7 155.4 155 155.3 156.2 157.6 158.9 160.4 162 164.3 166.4 169.1 172 175.6 179 182.5 185.3 187.3 189 189.6 190.1 190.4 190.2 190.2 190 189.2 189.5 189.3 188.9 187.7 186.2 183.7 180.7 177.6 171.9 173.5 178.1 180.5 181.4 181.8 181.1 181.7 181.8 182.3 182.8 182.3 181.2 178.2 177.9 180.8 182.3 184 185 186 187.5 189.1 189.2 189.2 187.3 185.2 182.4 179.6 178 177.2 176.3 174.6 173.9 172.7 171.9 172.3 172.2 167.8 162.4 162 165.5 167.2 169.2 169.9 170.4 169.9 168.5 168.5 168.3 169.4 172.7 177 181.5 185.5 188.6 191.6 193.7 195.5 197.5 199.1 200 200.1 200 200 199.1 198 196.4 193.2 187.3 191.4 194.2 195.7 196.4 196.4 195.4 193.1 191.5 190.4
