ncols 200
nrows 82
xllcorner 240000
yllcorner 894300
cellsize 50
301 300.9 302.4 304.4 307.8 310.8 313.5 314.8 315.5 315.4 313.9 313.5 312 309.6 305.4 301.3 297.9 296.1 293.3 289.8 286.2 283.2 279.1 271.1 264.4 258.4 254.8 249.1 247.6 242.1 234.4 231.8 233.5 232.9 230 224.7 223 226 225 222.9 220.9 219.9 225.6 228.8 230.4 236.8 240.4 242.6 242.1 241.7 241.1 241.5 239.8 238.7 237.3 236.2 235.8 239.1 239 238.3 238.3 239.2 237.3 237.3 237.2 234.3 235.8 237.8 239.9 240.8 239 237.6 235.7 233 235.2 237 238 236.5 235.3 235.1 240.1 243.3 240.7 238 239.6 238.4 237.6 236.7 237.2 236.6 235.3 234.4 233.6 231.5 229.2 227.1 227.5 228.2 228.7 227 223.6 219.6 220.9 222.1 223.5 222.7 222.3 213.3 214.2 215.2 215.2 213.8 212.5 211.1 210.7 209.5 208.1 204.7 204.8 203.9 202.3 201 199.3 198.2 196.4 194.2 193.8 192.6 191.8 191.2 187.3 186.2 184.4 183.2 182.6 180.9 180 181 181.7 181.3 177.6 172.5 173.2 172.2 171.1 169.4 169.3 166.3 161 160.5 159.7 158.3 157.1 155.9 154.2 152.1 150.9 149.1 147.1 146.5 145.3 143.5 141.3 139.1 136.1 134 133 132.2 131.5 129.9 127.7 127.7 124.8 121.8 118.7 115.2 112.2 108.4 107 107.6 108.7 107.7 104.7 101.3 98.6 95.9 91.7 89.4 86.4 83.7 80.6 76.8 74.7 72.9 71 69.1 67.2 65.5 62.8 60.3
304.6 306.4 308.3 310.6 313.4 316.7 319.5 320.4 320.6 318.9 317.1 315.4 313.2 310.3 305.9 301.6 297.3 293.3 290.3 287.5 284.5 281.3 275.4 268.6 261.6 257.7 253.5 251.7 250.4 245.3 235 236.7 237.4 236.2 234.2 233.2 231.8 233.6 231.5 229.4 229.4 230.1 230.8 235.6 238.7 244.9 248.9 250.5 250.4 249.9 250.8 250.8 249.2 247.3 245.9 244.1 245.4 246.1 246 244.4 245.1 245.9 243.8 244.3 245 242.3 242.7 246.5 247.8 246.6 244.7 244.2 242.4 240.6 240.4 241.9 243.8 242.1 242.6 244.2 244.4 246.7 242 242.6 243.6 243.5 243.4 242.3 240.7 239.2 237.8 236.8 236.1 234.4 232 229.9 230.8 233.1 233.7 232.6 228.6 225.8 226.7 227.8 227.6 223.7 217.8 218 219.5 220.8 219.6 218.1 215.9 215.4 215.9 214.5 211.5 209.2 209.5 209.5 208 206.6 205.2 203.5 200.2 199 198.2 197.8 196.5 193.8 191.9 189.8 187.8 185.9 184 182.5 183.7 185.9 185.3 182.8 175.1 176.7 177 175.8 175.8 172.7 170.9 169.3 166.3 163.8 162.1 160.5 158.8 156.8 155.9 154.5 152.4 151.3 149.6 149.6 150.2 151.3 145.1 142.6 139 135.5 134.5 134.8 133.9 131.6 130.3 129.2 127.5 125.5 122.2 118.3 118.2 114.5 114.3 114.3 116.5 113.1 108.9 104.4 100.8 98 93.1 91.2 88.6 85.8 82.6 79 76.1 74.3 73.1 71.7 69.4 66.6 63.8 61.2
314.6 317.9 318.5 319.9 320.3 320.9 323.1 324.3 323.9 322 319.6 316.5 313.7 310.8 306 300.3 295 290.7 287 283.8 280.4 274.5 270.9 266.1 260.8 258.5 256.2 254.3 252.2 241.5 240.5 240.4 242.3 241.6 240.2 240.3 238.2 240.1 240 238.8 239.8 239.4 240.9 244.2 248 251.2 257.2 258.2 258.4 258.5 257.9 258 257.4 255.4 253.4 252.1 253.5 253.5 253.4 251.2 252.3 253.5 251.4 251.3 251.6 250.1 250.6 253.8 254.3 252.8 251.2 252.2 251.6 251.8 250.7 252.3 253.8 253.1 252.8 253.9 253.7 252.5 248.8 248.2 248.2 248.1 248.7 247.2 244.7 242.5 240.8 239.2 238.6 237.5 235.3 235.8 237 238.4 237.3 230.4 228.6 230.5 231.9 231.7 229.9 226 222.2 223.2 225.5 226.4 224.8 220.3 219.8 220.4 221.1 219.5 216.4 216 215 213.8 212 210.8 210.6 208.9 205.4 204.9 203.2 201 198 195.7 193.9 192.1 189.6 187.6 186.2 186.8 188.6 189.1 187 180 176.8 178 178.5 179.1 178.1 174.3 172.5 171.2 169.1 166.2 164.3 162.4 160.7 159.2 156.7 154.9 155.2 153.4 152.3 151.7 152.1 150.4 146.1 143.7 141.4 138.4 137.8 137.8 135.3 133.5 131.9 130.8 129.1 127.3 124.8 122.1 123.4 120.4 120.1 119.9 120.8 118.4 111.8 107.4 106.7 100.6 96.3 93.2 90.6 87.8 84.5 81.3 78.4 75.7 75.2 73.6 71.3 67.9 64.9 61.9
322.7 324.5 324.4 325.2 326.2 326.4 327 327.3 326.7 324.9 321.9 317.9 313.9 311.2 305.3 299.8 294.3 289.2 285.1 281.9 277.4 273.9 267.3 263.2 261.8 260.7 256.5 252.8 246.6 248.2 248.4 245.6 247 246.3 247.1 247.3 244.9 247.7 248.4 247.3 246.8 248.2 250.5 248.6 254.3 256.4 263.5 266 266.1 265.7 265.3 265.4 264.8 262.8 264.1 261.5 261.8 261.7 261.5 258.9 259.8 261.1 259.3 259.1 259.3 259 258 259.9 260.5 259.9 260 260.3 260.9 261.8 261.8 262.2 263.7 263.8 263.5 263 262.4 260.2 257.3 254.6 253.5 253.2 253.8 251.4 248.8 246.1 244.3 242.9 241.9 241.1 241.4 242.4 242.7 241.9 241.6 233.5 234.2 235.7 236.5 235.5 232.8 229.8 227 230.2 231.7 231.1 228.5 225.7 225.1 226.4 226.6 225.8 221.8 223 221.3 217.1 216.3 216.2 216 213.7 212.4 209.9 208.1 205.9 203.1 200.3 197.1 194.4 191.9 190 189.7 190.7 191.5 191.7 185.8 179.2 180.9 181.6 182 180.2 177.7 175.3 174.2 172.9 170.8 168.6 166.4 164.3 162.8 162 160.4 158.5 158.4 156.8 156.6 155.3 153.6 150.2 147.1 144.8 142.4 141.2 141.2 139 137.2 136 134.7 132.1 130.8 129 127.2 126.8 124.8 122.2 123.2 123.6 123.8 121.7 117 113.7 109.9 105.1 101 95.3 92.5 89.8 86.7 84.4 82.4 81.7 77.2 74.8 71.7 68.9 66.1 63.1
327 329.8 328.5 329.4 329.8 330.4 330.4 329.7 328.1 326.8 322.9 318.6 313.4 309.6 304.7 299 293.4 286.6 283.2 280.7 277.1 271.9 265.7 264.5 262.3 257.2 260.3 256.3 255.2 254.9 253.7 252.8 252.7 252.5 254.1 254.3 253.8 254.3 254 253.1 255.4 255.7 257.3 257.7 260.8 265 269.5 272.8 273.2 272.4 273.7 274.3 273.3 272.9 273.9 274 271.5 270.8 269.3 268.8 270.2 269.2 268.4 267.6 266.9 267.1 265.7 268.5 268.5 269.1 269.5 270 270.8 272 272.7 273.3 273.8 273 271.7 270.8 269.3 267.2 264.5 261.4 259.3 258.8 258.3 255 252 251.3 249.8 248.2 247.7 247.8 247.3 247.4 247.6 245.9 243.7 236.9 239 241 240.3 239.6 236.8 234 231.9 236.1 237.2 234.8 232.1 230.3 230.9 232.3 232.6 231 228.1 229.3 225.8 222.3 221.8 220.9 219 217.2 215.8 214 213 209.3 207.9 206 201.1 197.6 196.2 195.8 195.4 193.3 194.7 193.7 183.6 182.2 182 183 183.1 178.7 177.4 176.4 175.3 174.3 173 171.8 170.4 168.8 165.9 163.1 162 162.2 160.1 160.4 160.4 160.8 155.1 151.2 148.3 145.9 143.5 143.3 142.7 140.9 139.7 138.4 137.2 135.2 132.4 130.8 128.8 126.8 125 124.2 125.5 126.5 126.3 124.1 121.9 118.4 113.9 109.4 105.9 101.3 97.3 93.2 89.9 86.6 84 82.4 79.6 76.2 73.9 70.1 65.7 61.4
329.7 331.6 332.6 333.9 334.4 334.5 334.2 332.9 331 329.1 324 319.3 313.9 308.4 303.7 298.4 292.5 285.6 282.4 280.2 276 270.6 267.6 266.9 263.8 262 263.2 261.7 261.5 261.4 259.9 258.7 260.2 259.2 261.9 262.5 260.2 261.9 263 260.8 263 263.5 264.8 265.2 269.2 273.3 275.3 279.3 279.7 279.5 280.6 281.5 281.1 279.8 279.9 280.4 278.8 277.9 277.9 278.3 279 278.3 278.3 279.6 278.7 276.5 274.7 276.8 275 276.5 277 277.5 279.1 281.2 281.7 282.1 282.6 281.4 279.6 277.3 275.5 274 270 267.9 266.7 265.8 263.7 260.5 260.5 259.8 257.9 255.6 254.3 253.4 252.6 252.3 251.3 249.9 243.9 241.9 242.5 244.5 244.2 244.3 238.8 238.8 238.6 236.3 239.1 239.4 238.1 236.3 237.1 238.3 238 236.9 231.7 234.1 231 228.8 227.7 225.5 221.3 221 219.2 217.6 214.5 212.2 211.3 210.1 206.6 202.3 201 199.2 197.9 196 195.7 193.6 186.9 185.9 185.2 184.4 183.4 181.3 179.2 177.3 175.9 175.4 176.5 175.3 172 169.7 167.3 168 165.2 163.1 162.9 163.5 161.5 158.8 154.8 153 151.1 147.8 145.8 145.3 144.7 143.8 142.5 141.1 139.6 138.2 136.1 133.5 130.6 127.6 126.1 126.3 127.6 128.6 128.4 127.5 125 122 118 113.7 110.1 106.3 101.9 97.4 93 89 87.5 83.5 80.9 78 71.5 71.2 68.3 65.5
331.1 333.3 335.2 337.3 339.1 339.4 338.8 337.4 335.9 334.3 328.9 322.4 318.3 313 307.9 302.4 295.3 288.7 282.9 279.6 276.1 270.7 270 269.6 264 268.1 266.7 266.5 266.8 267.1 266.4 266 266.3 266.1 268.9 268.5 266.9 266.9 267.7 269 269.9 271.7 272.2 273 275.5 279.8 281.1 283.4 285.9 287.6 289 290.1 290.1 288.8 287.8 286.3 287.7 288.9 288.6 287.3 289.8 289.6 289.9 291.3 290.1 288.7 288.3 289.3 287.8 285.8 284.4 285.5 288.3 289.4 289.9 290.6 289.9 288.8 286.5 283.2 281.1 279.4 277.2 275.7 275.2 273.9 272.7 270.3 268.1 266.6 264 261.1 259.5 258.2 257.7 256.8 255.2 252 248.8 248.3 246.7 248 247.7 244.1 244.5 244.2 243.6 240.7 241.7 244.7 244.4 242.7 242.7 242.8 242.7 240.3 236.5 238.5 237.6 236 233.2 229.6 229.3 229.1 225.8 222.1 219.5 218 216 214.3 212.1 207.7 204.5 202.1 200.7 199.7 201.8 199.4 191.9 189.5 189.4 188.9 186.1 183.2 181.1 179.4 179.9 180.4 178.8 177.9 175.6 171.1 169.5 169.2 165.2 164 164.5 163.5 160.4 158.6 155.1 153.5 151.8 152 149.7 148.3 147.1 145.7 144.3 143 142.4 140.4 138.8 135.2 132.4 129.8 128.4 129.4 129.6 130.5 130.5 130.3 127.3 124.3 121.2 117.6 113.3 109.3 105.8 100.9 96.2 91.8 88.7 85.6 78.7 76.1 77.8 73.4 68.8 68.4
331.2 335.2 337.8 340 342.1 343.1 343 341.4 339.9 337.9 334.1 328 322.8 319.3 314.3 308.5 302 295.3 287.2 282.8 276.8 274.3 274 270.3 272.3 272.4 271.6 271.3 271.6 271.9 272.6 271.5 272.2 273.4 275.1 274.2 272.8 273.3 275.6 274.4 274.7 279.7 280 280.6 281.7 284.7 287 289.6 292.9 294.9 296.6 297.9 298.3 297.4 296.1 296.2 299.2 300.5 300.7 300.2 300.6 301 303.9 303.9 303.6 302.4 302.6 302 300.7 299.5 298 295.8 297.7 297.5 297.9 297.6 297.4 293.4 293 291 288.6 287.1 284.8 284.4 284.8 282.5 279.7 276.8 273.9 271.6 268.8 266.5 264.8 263 262.9 261 259.1 257.8 255.6 253.4 251.9 251.7 250.7 251 248.5 248.9 247.6 244.6 247.6 249.2 246.3 245.8 247 247.1 246 241.8 242.3 243.3 243.3 242.2 239.7 236.7 237 236.4 232.9 227.5 225.5 223.7 221.4 219.5 217.1 213 209.3 206.5 206.4 205.1 207.6 201.7 192.6 192.3 194.1 191.7 188.8 186.3 184.8 184.3 182.9 181.7 179.6 177.1 174.8 170.4 169.7 168.9 166.3 164.8 162.7 161.1 159.8 157.7 155.4 153.8 153.2 151.8 151 149.8 148.7 147.7 147.4 146.3 144.3 142.3 139.9 135.8 134.7 134.2 131 132.3 133.5 133.4 133.9 132.6 130.3 127.1 123.8 119.9 115.7 111.9 108.5 104.1 99 94.3 92.5 88.2 82.2 81.8 78.8 73.3 72.7 73.3
342 342.6 342.8 344 345.2 347 347.6 345.8 343 340.5 337.7 331.9 327.3 324.7 319.8 313.3 307.3 301 294.8 289.1 282.8 280.5 277.5 276.7 275.2 276.6 276.4 276.2 276.3 276.9 277.3 276.6 277.9 278.6 279.2 279.4 279.4 280 280.7 279.7 281.4 283.2 285.5 286.5 288.5 290.4 293.7 294.7 298.2 300.8 303.1 304.4 305.7 305.8 303 305 307.5 309.8 311.5 312.2 313 315.5 318.1 317.3 317.2 317.3 315.8 314.9 313.8 312.8 311.7 310.5 308.7 308.1 305.7 304.2 303.6 301.7 302 299.3 296.7 296.2 294.5 296.2 294.9 292.1 288.9 285.4 283.2 278.9 274.8 271 270.2 269.7 268.5 265.3 264.3 262.9 261.1 258 257.4 257.4 256.1 253.9 252.9 253.7 252.2 249.3 251.4 251.7 249.7 249.9 250.8 251.5 248.3 244.2 247.1 247.4 247.9 247 245.4 241.3 241.2 240.3 237.7 234.4 232.2 229.7 226.3 224.6 221.8 218 214.3 212 211.1 211.6 210.5 202.4 196 196 193.8 191.6 190.3 189.2 190.1 187 181.5 179.8 177.9 175.5 172.7 171.3 170.6 169.9 167.3 164.9 162.9 160.9 159.7 158.7 156.9 155.2 155.4 153.4 153.8 152.2 150.2 149.8 149.9 147.9 146 144.2 142.3 139.8 137.5 135.2 134.8 136.8 138.8 138.6 137.8 134.9 132.3 128.9 125.5 121.8 117.7 113.8 110.6 107.6 101.4 96.5 91.3 86.6 87 85.3 81.8 78.2 78.7 78.2
354.4 354.2 354 352.5 353.4 354.4 353.9 350.5 345.9 344.1 340.1 335.3 329.7 325.5 320.4 316.1 310.9 305 299.4 293.8 288.5 284.7 281.7 280.2 279.9 280.1 280.3 281 281.2 281.2 280.8 281.1 281.9 282.4 282.8 283.3 283.5 284.8 285.7 285.6 286.9 288.7 290.5 292.5 294.2 294.9 298.5 300.6 303.2 305.7 308.2 310.6 312.1 312.3 312.6 313.7 315.4 318.1 320.2 322.7 325.5 327.2 328.8 328.9 330.3 329.3 327.3 326.9 326.4 325.6 324.8 322.6 320.5 319.5 317.5 315.1 313.3 312.6 310.2 307 303.9 304.8 301.8 303.6 302.4 300.6 296.8 294.3 293.3 289.9 285.1 281.1 277.9 276 272.7 270.2 269.6 267.8 266.6 264.3 264.1 263.9 261.8 259.1 257.9 259 256 255 256.1 255 255.1 255.4 255.8 256.4 253.5 250.2 251.4 252.5 252.2 250.7 250.6 246 246 245.4 243.8 241.2 238.6 235.4 231.3 229.9 228.1 224.9 222 219.8 216.9 215.5 211.7 199.6 197.9 198.5 198.2 196 193.9 193.2 190.9 185.7 182 180.6 177.8 174.9 173.5 172.2 170.5 170 168.2 165.6 163.4 161.4 159.7 159.3 159 157.5 155.7 154.5 152.9 151.9 151 150.4 150.7 148.7 147.3 146 143.7 141.6 140.7 141.1 138.3 138.2 139.9 137.8 137.9 135 132.2 129.9 127 123.6 119.7 115.8 112.5 108.5 101.4 98.5 91.2 93.9 96.3 87.5 82 84.2 86.4 85.4
367.4 365 363.2 363.9 365.2 363.7 361.7 358.2 354 349.7 344.2 338.7 332.5 326.5 320.9 317 312.5 307 301.8 296.7 291.9 286.9 282.3 283.5 282.8 282.3 282.8 283.4 283.8 283.4 283.2 284.5 285.4 286 286.4 286.9 287.7 289 289.2 289.7 291.8 293.8 295.7 297.5 300.3 300.5 302.5 305.2 305.7 310.5 312.6 314.6 316.5 318.3 319.7 320.6 322.1 324.8 328.3 331.5 334.6 336.9 338.6 340 342.7 343 341.9 342 341.2 339.4 338.5 335.6 333.1 331.9 329.8 327.7 325.2 323.4 319.5 316.7 313.3 313 309.2 308.8 308 305.6 303.2 301 298.7 295.6 292.3 288.3 285 283.3 277.9 275.7 274.8 272.7 270.9 269.2 269.6 267.4 262.4 263.6 263.7 262.6 259.2 259.2 258.9 258.1 259.7 260.6 260.3 258.8 254.8 256.2 256.9 257.1 255.9 254 252.3 248.9 250.7 250.8 250.3 247.9 245 241.7 238.5 236.5 234.8 231.2 227.9 224.6 220.9 218 213.3 202.3 204.2 203.3 201.2 198.6 196.4 194 189.8 185.9 184.4 182.4 179.2 175.8 174.6 173.5 171.4 169.8 168.1 166.1 163.9 161.8 159.9 158.8 158.3 157.1 156 154.4 152.8 152.4 152.2 151.3 151 150.4 149.2 147.6 147.4 145.8 142.8 141.4 140.1 138.9 137.5 136.3 135.5 133.3 131.3 129.3 126.7 123.7 121.1 117.4 113.3 108.5 104.3 103.2 98 99.6 95 91.2 92.5 91.5 90.8 89.6
374.7 372.6 373.2 375 373.8 372.6 369.4 366.1 363.2 360.9 354.1 346.7 339.2 330.7 324.8 319.5 314 308.5 303 297.9 293.1 288.4 288.1 287 286.3 285 285.6 285.5 285.8 285.7 286.6 287.6 288.5 289.4 290 290.8 291.9 292.6 292.8 293.7 295.7 297.5 299.6 301.7 303.9 305.2 306.5 309.9 311.2 311.5 315.4 317.8 320.8 323.3 325.6 327.5 328.8 332.1 335 337.7 340.4 343.1 345.9 349.4 352.8 356.3 357.9 358.1 357.3 354.9 354.2 351.6 347.6 346.2 342.4 340 337 332.3 328.8 325.9 323.1 320 317.3 315.1 312.4 309.2 306.4 303.9 302.2 299.7 297 294.4 290.8 288.2 285 282.1 281 278.6 275.9 274.3 271.7 267.9 267.6 269.2 268.3 265.8 264.3 263.9 264 264.2 264 262.7 259.1 257.9 259.1 260.2 260.6 260.5 259.7 257.2 257 253.7 255.2 256.9 256.2 253.7 250.9 248.1 245.3 242.9 239.8 234.7 230.7 227.4 223.4 218.4 214.9 211.8 209.7 207.3 204.6 202 199.8 196.5 193 189.1 187 184.3 180.7 180 180.5 176.6 173.4 171.8 169.9 168 165.4 162.6 160 159.2 158.1 156.9 155.7 154.1 153.4 153 152.6 151.6 149.8 148.8 148.3 147 146.3 145.4 143.4 141.5 140.1 139 137.1 135.4 134.9 132 130 128 125.8 124.8 120.8 116.4 111.7 107.8 110.9 107.6 100.4 94.8 95.9 98.1 99.4 97.6 95.4 93.3
380.8 377.4 377.1 376 375.3 375.7 376.9 377.5 373.9 367.6 359 350.6 341.5 333.6 326.7 319.8 312.1 306.9 301.8 297.1 294.3 289.2 289.8 289.5 289 288.8 288.6 288.5 288.4 288.8 289.7 290.6 291.5 292.5 293.3 294.1 294.8 295.4 296.4 298 299.5 301.4 303.4 305.3 306.9 308.5 310.1 312.4 315.1 316.3 319.5 322.5 325.7 328 330.3 332.5 335.1 338.1 340.9 343.5 346.2 349 353 358 362.8 366.6 369.1 370.2 369.5 367.7 365.6 363.2 360.9 357.8 354.7 351.1 347.3 343.1 339.8 336.5 332.9 330.3 326.2 322.1 317.6 314.6 311.4 308.1 304.6 302.6 300.8 297.6 295.9 292.9 290.6 286.7 285.2 283.9 281.7 278.9 275.6 273.5 274.2 274.1 272.1 271.4 269.4 267.5 266.7 267.2 266.4 263.5 264.5 264.1 263.2 264.5 263.7 263.8 263.5 261.3 261.5 260.2 261 261.4 260.6 258.6 256.5 254.6 251.8 247.7 244.1 239.3 234.5 230.2 225.7 224.3 222.1 218.9 216.9 213.1 210.2 207.4 204.7 200.8 194.8 192.3 189.5 186.4 182.8 183 181.5 178.1 175.6 173.8 172.7 170.9 167.5 164.6 162 160.2 159 156.7 155.5 154.4 154 153.6 153.2 151.2 148.7 147.7 146.9 145.7 144.7 143.4 142.3 141.3 140.1 139 136.7 134.5 134.9 130.7 129.2 127.6 126.2 123.3 119.3 115.5 112 111.2 112 105.3 98.6 100.3 101.4 103.2 103 101.4 98.8 96.5
387 383.4 377.1 375.4 373.2 371.4 374.5 374 367.6 358.3 351.4 344.9 338.7 331.2 324.4 317.9 310.9 305.1 301 295.2 294.2 291.5 292 292 291.5 291.6 291.3 291.4 292.3 292.6 292.7 293.2 294.6 295.4 296.1 296.9 297.7 298.4 300.1 301.8 303.4 305.2 307.1 309.4 311 311.6 313.5 315.9 318.7 321.1 322.4 326.2 330.2 332.8 335 337.5 340.4 343.8 346.7 349.3 352.1 356 361.4 366 371.5 377.1 380.3 383 383 382 378.5 375.8 371.7 367.9 362.6 358.9 356.1 352.6 349.3 345.7 341.8 338.4 339.5 335.2 330.2 322.5 322.1 316.5 310.4 305.6 302.9 300.3 298.8 296.7 295.3 292 289 287.9 286.5 285.9 286.5 283 280.8 279 277 275.1 272.5 270.3 269.9 269.6 268.1 267.6 268.1 268.4 268.4 267.9 266.7 266.6 264.9 264.9 265.1 265.4 265.2 265 264.3 263 262 259.8 256.8 253.1 250 245.8 240.9 234.6 232.8 231.2 227.8 223.8 221.6 216.4 214.8 212.8 209.1 201.7 196.7 193.4 191 188.5 184.7 182.7 181.5 179 177 175.5 173.1 171.6 169.7 166.8 164.4 161.9 158.8 156.8 155.4 155 154.6 154.2 153.8 151.2 148.6 146.8 145.5 144.3 142.9 141.3 140.4 139.6 138.6 137.3 136.2 135.5 139.5 139 136.6 132.1 128.8 126.6 121.6 117.8 114.2 111.7 106.6 106.1 106.8 107.3 108.5 108.6 107.7 104.5 100.6 98.9
383.2 381.8 375.7 373.8 371.4 366.9 363.7 360.1 354.5 349.1 345.1 339.3 333.6 326.9 320.5 315.1 308.8 305.9 301.3 300.2 296.1 293.3 294 293.8 293.9 294.1 294.4 294.6 294.9 295.2 295.8 297 297.8 298.8 299.8 300.2 301.1 302.6 304.3 306 307.5 309.4 311.2 312.5 314.1 315 317.2 319 322 325.6 325 329.8 334 337.5 339.8 343 345.7 349 352.5 356.8 359.3 363.4 368.7 374.1 381.5 387.6 392.3 394.8 394.8 394.1 390.3 385.9 380.7 376.5 371.7 367.9 364.5 360.4 357.1 355.4 354.8 349.3 346.4 343 338.1 335.4 330 325.3 321.8 315.2 309.1 306.8 303.1 301 296.6 294.8 291.6 291.4 290.6 293.7 295.6 289.1 285.6 282.6 280.2 277.9 275.7 275.9 276.8 273.8 273.3 272.4 271.9 271.8 271.6 270.5 269.3 267.7 267.4 267.6 267.9 268.1 268.2 267.6 267 266.3 265.1 263.2 261.3 258.2 255.2 251.5 246.4 242.9 242.2 236.5 231.3 227.4 224.3 220.9 217.2 215.3 210.4 205.5 201.2 197.7 194.9 191.7 186.4 186.7 183 181.4 178.5 177 174.5 172.2 170.1 167.7 165.2 163.1 160.8 158 156 155.6 155.2 154.7 153.9 151.2 149 147.5 146.3 145.1 144.4 142.7 141.2 139.9 138.6 137 137.2 136.7 138.4 137.6 136.8 133.9 131 128.5 124.5 122.2 116.2 109.3 113.1 113.7 114.9 114.7 113 113.2 110.8 107.7 104.2 102.2
376 377.6 373.6 372.6 369.3 364.9 359.1 351.8 345.5 341.7 338.8 334.1 329 322.1 319.3 316.9 312.7 309.1 305.8 302 298.6 297.5 297.4 297.4 297.5 297.9 298.8 299.3 299 299.4 300.5 301.9 301.6 304.3 304.9 304.9 305.9 307.5 309.2 310.8 312.1 313.9 315.4 316.7 317.9 319 319.1 322.7 324.2 328.3 328.1 332.3 337.5 341.3 344.9 347.6 350.4 353.6 356.9 361.3 366.8 370.7 376.6 383.2 390.6 397.1 403.2 406.3 406.8 404.2 401.8 396.8 393.1 387.4 382.9 377.8 373.5 369.7 367 364.6 362.6 361.3 356.9 353.9 348.4 343.5 337.5 333.5 329.4 326.7 322.3 318 311.5 307.1 301.9 297.8 296.5 294.5 293.5 296 291.8 290 287.7 285.5 282.9 281.5 280.8 280.9 278.1 275.6 275.5 275.5 275.2 274.6 274.1 273 271.3 269.6 270.5 270.4 270.6 270.8 270.6 270.1 269.5 268.8 267.8 266.4 264 261.2 258.9 255.5 251.7 247.8 245.6 239.4 234.1 230.7 228 224.8 220.3 217 214.2 211.3 207.9 201.2 197.5 193.4 190.7 188.4 185.5 184.9 180.9 179 176.8 174.1 171.3 168.4 166 163.8 161.6 159.3 157.4 156.3 155.7 155.3 153.9 151.6 149.6 148.2 147.1 146.3 146 144.5 143 141.7 140.1 137.9 136.3 135.5 135.5 135 133.5 132.4 131 128.4 126.9 121 110.5 113.9 118.1 119 119.9 119.7 117.2 115.7 113.5 111.9 110.3 111.3
368.5 369.9 368.5 363.3 362.4 357.9 350.8 345.9 341.8 339.1 335.8 331.3 327.5 325.9 323.3 320 316 312.3 308.3 305.8 303.6 302.7 302.3 301.9 301.5 302.3 303.3 304.1 304.2 305.3 305.8 306.4 307 309.6 309.7 309.7 310.7 311.6 313 315 316.7 318.2 319.2 319.6 320.6 322.2 323.4 325.6 326.2 330.3 332.1 333.8 339.6 343.6 347.5 350.3 353.8 357.3 361.3 366.9 372.9 377.6 383.6 391.3 400.1 407.6 413 415.8 416.6 415 413.4 411 405.9 400.7 395.1 390.5 387.4 382.5 378 372.2 368.7 367.4 364.8 362.2 358.4 352.9 349 342.5 339.7 333.6 329.6 324.7 320.3 314.6 310.8 305.2 302.7 301.9 301.9 300 292.5 293.4 288.7 289.6 284 285.6 284.8 281.1 278.5 277.7 277.4 277.4 277.3 277.2 276.5 275.1 273.4 271.9 273 272.9 272.8 272.7 272.6 272.5 271.7 270.9 269.7 268.4 266.3 263.4 260.9 257.6 254.3 251.5 247.2 244.4 240.1 236.3 232.1 227.1 222.8 220.3 218.5 216 212.5 206 201.8 198.1 195 191.3 188.4 186.5 183.4 181.4 178.5 175.7 173 169.8 167.2 164.8 162.4 160.8 159.3 157.7 156.7 155.8 154.2 152.4 150.7 150.4 148.4 147.5 147.1 146.3 144.9 143.4 141.2 137.6 135.5 135.1 134.5 131.7 130.4 129.3 122.6 117.4 115.9 119.2 125.5 124.9 125.7 125.3 125.7 124.9 123.1 121.5 121.2 119.4 118.8 119.8
363.9 361.8 360 356.8 353 348.9 347.1 342.5 340 337.5 335.9 334 331.1 328.5 325.9 323.1 319.4 315.9 312.6 309.8 308.5 308.1 307.8 307.4 307.3 307.7 308.2 308.6 308.7 308.9 309.1 310.2 311.1 312.1 314.9 313.9 314.7 315.7 316.7 318.8 320.1 320.9 321.4 322.2 323.3 325 326.4 327.2 328.2 332.6 336.1 339.3 341.9 345.4 349.3 353.2 356.9 362 364 372.8 377.2 384.4 392.1 400.2 408.7 415.8 421.9 426.5 427.7 427.9 424.6 421.3 417.7 411.8 406 399.4 393.5 389.3 384.5 379.6 378.5 377.7 375.7 370.7 366.4 362.4 358.7 355.8 350.1 347.1 341.9 336.2 331.3 327.6 319.5 316.5 312.7 310 308.7 305.4 298 296.6 294.3 294.8 290.3 288.9 285.1 285 282.7 281.8 280.7 279.6 279.2 278.5 277 276.2 275.1 274 274.8 274.7 274.6 274.5 274.4 274.6 273.5 272.6 271.4 269.9 268.4 265.6 262.7 260.1 257.7 254.9 251.3 249.2 245 240.2 235.1 229.9 224.9 221.2 218.5 216.1 214.7 210 206.6 201.4 197.2 193.2 189.4 186.6 184.4 183.6 180.2 177.4 174.4 171.2 168.4 166 164.3 162.8 161.2 159.5 158.2 157.2 156.7 154.2 152.4 151.2 149.9 148.7 148.1 146.7 145.4 142.4 139.2 135.2 133.8 131.8 129.4 127.8 127.6 125.4 125.7 126.6 127.6 128.8 132.1 130.2 129.2 129.3 130.4 130.5 130.2 129.7 130.4 128.1 128.8 129.1
358.4 356.4 352.1 350 345.9 344.9 343.4 341.8 340.6 339.8 339.6 337.6 334.8 332 328.8 325.9 322.9 319.5 316.6 314.7 314.3 313.7 313.4 313 312.9 312.5 312.3 312.7 312.4 312.2 312.4 314.1 314.6 315.1 316.1 317.6 318.1 318.4 319.5 321 322.4 323 323.7 325 326.2 327.5 328.1 329.3 331.2 335.4 338.5 342.9 343.1 346.8 351.3 355.4 360.7 364.4 370.9 375.6 382.9 389 398.6 407 415.2 422.9 428.7 432.8 433.3 432.5 431 427.3 422.4 417 411.6 406.1 400.4 394.3 390.3 389 387.2 385.6 384.1 381.7 377.9 375.5 370.5 365.6 360 354.7 350.2 342.1 340.1 334.1 327.9 323.2 319.1 315.7 312.4 310.7 304.7 302.8 300.9 298.5 294 291.4 291.7 289.9 287.6 285.9 284.2 282.4 280.6 278.3 276.3 276.6 276.1 275.4 276.2 276.5 276.4 276.3 276.1 276.1 275.3 274.4 272.8 271.1 269.5 267.8 265.2 262.6 260.4 258.4 255.4 252.6 248.3 245.1 240.7 236.1 231.3 227.4 222.3 220.3 216.8 213 209.4 204.8 200.5 196.3 192.7 189.3 186.4 186 182.5 179 175.8 172.7 169.7 167.8 166.3 164.7 163 161.3 159.7 158.8 158.8 156.2 154.3 152.1 150.9 149.7 148 145.4 145.3 143.3 141.6 137.6 135.4 135.8 135.9 134.2 134.8 135.4 133.4 133.6 134.4 135.6 136.7 135.4 133.9 133.9 134.2 134.7 135.3 138.2 137.2 136.3 136.4 137.3
346.7 348.6 346.2 342.5 341.5 343.2 343.5 344.4 343.8 343.5 343.2 341.4 338.6 335.8 332.9 330.1 326.9 324.4 323.2 321 320 319.4 318.9 318.3 317.3 317.3 317.6 316.8 316 315.6 316.3 318.5 318.9 319.2 319.5 321.5 322.2 321.9 322.2 323.6 324.9 326 326.9 328.1 329.4 330.4 331.3 332.7 334.9 336.9 340.1 345 346.9 349.2 351 355.4 361.5 366.5 373.5 378.8 385.7 392.2 400.7 409.6 418.1 426.2 432.9 436.1 436.6 434.5 431.2 427.5 421.2 417.9 411.6 408.6 404.6 400.7 398.4 395.2 394.2 393.9 391.5 389.3 387.9 386.3 382.9 378.3 372.6 366.5 360.6 355.6 348.4 342 337.2 332 325.2 322.2 317.3 316.6 315.3 312.5 306.1 302.1 302.1 296.7 296.5 294.2 292.7 289.4 285.7 284 281.9 279.3 279.6 278.3 276.7 276.6 277.8 277.7 277.7 277.8 277.9 277.4 276.7 274.2 273.6 272.3 270.7 269.2 267.5 265.2 262.6 260.9 258.3 254.9 252.4 248.9 245.3 240.9 236.1 232.3 228.8 225.1 220.7 215.4 211.2 207.1 203.5 199.8 195.9 192.8 189.3 188.1 186 181.6 178 174.6 172.4 170.2 168.3 166.6 165 163.2 161.5 160.4 158.6 156.7 154.5 153.4 150.8 149.2 150.4 150.1 148.8 147.2 144 140.3 140.4 140 140.3 138.3 139.3 139.7 139.8 140.8 142 143.1 143 141.7 141 140.2 141.2 141.7 141.1 141.6 141.5 142.3 144.8 146.9
335.8 340.1 340.8 338.3 338.8 342.1 343.9 346.7 347.6 346.8 346.1 345.7 342.9 340.1 337.3 334.4 332.2 330.8 329 326.8 325.3 324.4 323.7 322.7 321.8 322.1 322.2 321.1 320.1 320.8 321.5 323 323.3 323.5 323.7 325.3 326.3 325.8 326.3 326.9 328.2 329.3 330.3 331.3 332.4 333.2 334.3 334.9 337.4 339.2 341.7 346.6 349.2 352 355.5 359.9 362.6 369.1 374.4 380.3 386.9 394 400 406.4 413.6 421.7 428.5 431.8 432.9 432.4 430.8 427 423.1 418.1 415.2 410.7 408 406 405.9 405.5 404.5 403.9 402.3 402.8 400.6 397.7 394.2 391 384.5 381.4 373.3 365.5 356.2 348 341.4 339 335.9 330.3 326.1 324.4 321.6 312.3 309.2 307.9 305 301.8 301.1 298.6 297.5 293.6 289.8 285.6 283.7 282.3 280.8 278.7 277 278.1 278.1 278.8 278.9 279.4 277.9 277.5 276.1 273.9 273.3 272.7 271.6 270.4 268.7 267 265.1 263.1 261.2 258.9 256.2 252.7 249.1 245.6 241 237.1 233.5 229.5 224 218.5 214.3 209.1 205.3 202.2 199.3 196.8 193.2 189.9 187.4 184.4 181 177.8 174.7 172.8 170.8 168.9 167.1 165.3 163.6 161.7 159.4 157.3 154.6 154.1 154.4 155.6 153.5 151.9 151.3 146.1 147.8 146.4 145.8 146.1 144.5 143.2 143 144.5 145.4 147.7 149.5 150.6 149.8 147.1 147.8 150.4 150.9 153 150.9 148.8 149.2 148.3 154.2 156.1
327.3 329.3 332.6 335.2 337.6 341.1 344.7 348.1 349.7 349 348.7 348.8 347.5 344.7 341.9 339 338.3 336.6 334.4 332.2 330.3 329 328.1 327.5 326.6 326.5 326.8 327.1 326.3 326.2 326.7 327.4 327.7 328.2 328.6 329.6 330.7 330.4 330.7 331.4 332.2 332.9 333.8 334.8 335.9 337 338.1 338.2 339.2 341.6 343.6 347.6 352.7 354 359.9 363 367.8 371.9 379.5 384 390.8 396.6 400.9 405.7 411.1 418.9 427.2 431.5 431.4 431.7 428.4 425.5 420.9 419.4 418 416.2 415.1 413.2 413.8 414.1 414 414.3 412.4 411.9 410.6 408.2 404.8 399.6 392.9 387.3 380.9 374.6 366.5 356.7 352.1 346 342.5 337.5 335.9 331.1 326.8 320.6 316.6 313.4 310.1 308.1 305.5 303.8 301.8 297.3 293.2 287.7 285.2 283.2 281.1 281 280.8 279.3 277.7 277.8 280.3 278.3 277.6 276.6 275.2 273.6 273 272.4 272.4 271.9 270.2 268.5 266.6 265 263.7 262.1 259.4 255.9 252.2 248.5 244.6 240.8 236.8 233 228.1 222.9 218.3 212.3 207.6 205.5 205.9 202.2 197.5 193.4 190.4 187.3 184.4 181.1 177.2 175.1 173.1 170.5 168.3 166.5 164.9 163 160 158 157.5 156.5 155.9 157.8 155.9 152.9 150 150.8 150.3 148.8 150.6 150.1 148.8 145.6 146.9 149.6 151.2 154.2 157 157.5 156.7 153 155.5 156.3 157.6 160.5 159.5 159.6 159.4 159 165.6 165.2
320.5 324.6 329.8 335.4 338.4 342.8 346.9 349.5 351.7 351.1 351.3 351.6 351.4 349.3 346.5 344.6 344.4 342.6 339.7 337.5 336.1 335 335.3 334.5 332.1 331.6 332 332.3 332.6 332.6 332.5 332.1 332.6 333.1 333.5 334 335.3 335.2 335.4 335.7 336.4 337.1 337.8 338.7 339.7 340.8 341.9 341.8 343.5 345.4 346.9 351.7 357.4 358 362.9 366.5 373.8 380.5 383.4 388.3 394.2 398.3 402.3 406.9 413.3 421.1 426.5 429.9 431 431.7 430.7 428.1 424.9 422.1 421.8 421 420.7 420.6 420.8 421.8 422.1 421.6 420.5 420.6 419.2 416.9 413.2 407.9 400.7 393 384.3 377.7 369.3 362.9 357.2 352.6 348.2 345.6 340.7 338 335.7 330.7 326.5 322.4 318.7 315.4 310 307 303.8 299 293.8 289.2 286.4 284.5 282.7 283 282.5 279.1 277.8 277.3 278.3 277.6 277 273.7 273.1 272.3 272.6 272 272 272.6 271.4 269.5 266.9 265.8 264.8 262.9 260.9 258.4 254.7 250.9 246.9 243.2 239.5 235.8 232.1 227.4 222.3 216.1 210.9 209.2 209.1 206.5 201 196.8 192.6 190.6 187.7 184.3 180.4 177.4 175.4 172.4 169.7 167.1 164.3 163.8 161.5 159.1 159.1 158.4 157.8 157.4 155.3 153.5 154 154.6 153.2 153.9 153.2 153.1 151.9 149.2 151.7 154.4 157.4 160.8 163.8 165.9 164.5 162 160.4 161.8 164.7 167.6 168.3 168.6 168.9 169.3 172.5 172.7
315.6 322.1 325.7 333.7 337.8 342.5 347.8 351.4 353.6 353.7 353.9 354.2 354.1 353.9 351.1 350.6 349.6 347.8 345.9 344.4 343.1 342.8 342.2 340.1 337.7 336.9 337.2 337.5 337.9 337.8 337.4 337 337.3 337.8 337.4 338.6 339.7 340 340.1 340.4 340.7 341.3 342.1 342.9 343.7 344.6 345.5 346.4 347.8 350.1 350.5 356 361.9 364.4 367.1 370.9 380.2 382.4 388.7 393.9 398.9 402.4 408.1 414 420.4 426.4 429.6 431.7 433.1 434 432.6 429.5 426.5 425.3 423.5 423.4 423.7 423.8 425.6 427 428.3 429.1 428.1 426.7 424.8 421.4 415.4 409.5 402 394.7 386.4 377.7 371.1 364 360 356.1 353.3 350.8 347 343.4 341.4 338.4 335.6 333.1 330.1 325.5 320.3 314.5 309.8 304.2 296.1 291.9 287.8 286 284.3 281.2 279.6 279 277.7 277.1 279.3 280.5 272.9 270.1 270.6 270.7 271 271.3 271.7 272.8 272.3 269.7 267.5 266.5 265.5 263.8 261.5 259.1 256.5 252.9 249.2 245.3 241.5 237.6 234 230.6 225.6 220.4 216.2 212.3 210.8 207.8 204.6 200.2 195.8 192.3 191.1 187.6 183.7 179.8 177.3 173.4 170.1 168.2 165.5 164.2 161.7 162.2 161.5 160.3 160.2 160.2 159.1 157.1 157.9 157.8 156.7 157.7 158.3 158.9 155.7 156.4 157.9 159.8 162.9 166.5 170.5 172 170 166.8 166.8 168.1 172 173.8 174.6 175.3 176.5 176.7 181 181.1
314.7 319.6 325.9 331.7 335.6 341.3 348 351.6 354.6 355.7 356.6 356.8 356.8 356.6 356.5 355.6 354.3 352.4 350.7 350.1 348.8 348.3 347.4 345.3 343 342.2 342.6 343.1 343.2 342.6 342.2 341.9 342 341.6 342 343.1 344 344.3 344.6 344.7 345 346 346.5 347.3 348 348.8 350 351.1 353.2 354.6 358.6 360.9 364.3 369 373.5 377.1 384.1 386.2 393.5 398.9 404.9 411.2 416.9 423.1 428.2 431.5 434.8 436.4 438.3 437.1 433.8 431.6 428.5 425.8 424.2 424 426.2 429.1 431.4 433.8 433.8 433.5 432.4 430.3 427.2 422.9 416.2 409.8 402.6 394.1 384.7 377.9 371.3 365.9 362.8 359.5 358.6 355.4 353.3 351.9 349 346.1 342.1 339.2 335.8 332.3 326.7 318.3 314.5 312.1 304.9 297.6 291.4 288.1 286.9 283.5 280.9 280.3 277.9 277.2 279.6 278.7 270.9 267.3 267.1 268.7 269.2 269.2 269.7 271.3 272.5 269.6 268 266.9 266.3 264.5 260.4 257.4 255.5 252.9 249.7 246.1 242.8 239.5 236 232.6 228.9 224.1 219.1 215.4 212.5 210.7 206.8 203 198.9 194.4 192.7 190.7 186.8 182.1 177.6 175.4 173.9 172 168 165.9 165 166.3 165.8 163.6 163 163.1 162.2 161.4 160.4 162.2 160 160.9 160.8 159.7 159.6 161.2 163.7 165.5 167.5 169.3 171.3 173.9 174.8 174 174.6 175 179 179.8 180.4 180.9 182.6 184.2 187 187
313.4 318.6 323.8 328.6 335.2 341.4 347.7 351.7 354.8 357.1 358.2 359.1 359.8 361 361.3 360.6 358.9 357.8 357 356.6 354.3 353.7 352.6 351.1 348 347.4 348.2 348.6 348 347.4 347 346.7 345.9 345.5 346.5 347.1 347.8 348.8 349.6 348.8 349.9 350.9 351.5 352.7 353.3 354.5 356.4 357 357.1 360.3 363.9 366.9 366 374.8 380 383.8 388.1 393.3 397.8 403.6 410.8 418.2 424.4 428 434 436.8 440.1 444.2 444.6 443.2 438.3 433.7 430.7 428.6 429.6 430.9 434 438.2 440.9 440.7 439.2 437.9 436.5 433.5 428.8 422.4 416.6 408.6 399.7 391.9 383.1 375 370.6 367.4 365.5 363.9 362.7 362.6 360.7 359.8 356.4 354.6 351.8 348 341.8 336.2 330.9 326.8 320.2 314.2 308.3 304.2 297.7 292.2 288.4 284.8 280.6 278.6 277.4 277.6 278.8 276.4 269.4 267.2 265.7 264.3 264.9 265.8 267.2 268.6 269.6 268.5 266.7 266.7 266.2 264.1 258.7 255.3 253.8 251.5 249.2 247.6 245.6 241.3 237.9 234.6 230.9 225.9 221 217.4 214.6 210.7 207.8 205.1 201.8 197.6 193.7 191.6 188.6 185 181.5 179.1 176.1 171.9 170.2 170.2 171.4 172.3 172.1 169.5 168.4 167.4 165 163.9 165 164.9 163.2 163.1 163 162.4 163.6 166.4 168 171.3 172.5 173.4 175.2 178 178.9 183.9 181.9 181.1 184.6 186 187.2 189.3 190.5 193.2 192 192.2
311.5 316.6 321.7 327.5 334.4 341.2 346.8 351.4 354.4 356.7 359.2 361.9 363.6 365.6 366 365.4 365 364.1 363.3 362.4 359.8 358.9 357.9 357 353.1 353 353.3 353.8 352.8 352.2 351.7 350 349.7 349.7 350.3 351 351.7 353.2 354.2 354.5 355.1 356.5 357.6 358 358.2 359.4 361.7 362.2 362.2 365.5 369.8 371.8 373.6 380.2 384.2 389.1 392.7 397.9 403.9 409.6 415.7 422.6 428.4 433.4 439.8 443.7 446 450.6 450.3 449.9 445.8 440.8 436.8 435.1 437.5 441.3 445.9 450 452.1 452.3 451.5 447.5 444.3 440.2 436.4 428.8 420.1 410.1 399.9 390.5 381.9 374.3 370.9 368.1 366.6 367 367.8 367.9 366.9 365.4 363.3 361.4 358.5 354.8 349.2 342.7 336.7 331.9 323.8 317.6 311 308.4 304.1 297.5 291.4 284.7 280.7 278.3 277.7 276.7 276.6 272.8 268.9 267.1 265.4 263.8 262.2 261.9 263.2 264 264.5 264.9 265.1 264.7 264.2 261.5 257.8 255.2 252.7 250.6 249.2 248.1 246.2 243.2 239.8 236.4 232.5 228 222.9 219 216.5 213.2 210.1 206.9 203.5 199.4 195.1 192.2 189.7 189.9 186.3 181.1 174.7 176.3 176 173.6 175.2 176.4 177.2 175.7 173.4 170.9 168.9 167.5 167.5 166.8 165.8 165.7 166.8 166.3 169.2 173.8 173.6 174.2 176.4 179.7 184 186.2 186.6 188.9 188.7 187.9 189.5 192.4 195.4 197.4 199.7 200.8 200.5 198
309.5 315 320.5 325.8 332.4 340.2 345 349.5 354.1 356.8 359.5 362.4 364.9 367.1 369 368.3 369.3 369.9 370.8 370 366.8 366.1 365 362.6 360.3 359.7 360 361 360 358.2 355.9 355 355 355.1 354.3 354.8 356.3 357.7 358.7 359.6 360.5 361.9 363.2 364 363.6 366.1 366.6 368.2 368.8 371.9 374 378.1 382 385.7 389.8 394.4 399.1 403.1 409.3 416.4 421.4 427.3 433.8 440.8 448.3 454.2 458 463.6 463.8 462.2 457.6 451.8 448 444.7 448.3 452.1 455.3 458.5 461.9 464.3 464.7 462.3 456.7 452 447.8 440.6 430 416.2 402.9 389.6 379.6 373.4 370.8 367.2 367.7 367.3 368.2 368.3 368.8 367.5 366.3 364.5 362 359.1 354 347.3 341 336 328.8 320.4 315.2 311.9 309.5 303.4 295.8 288.9 284.6 281.3 278.6 277 276.8 272.8 270 267.9 266.5 265.5 264.5 262 259.6 260.2 260.8 261.5 261.5 261.2 260.8 259.7 257.1 255.2 253.1 250.2 249.2 248.1 246.8 243.9 241.3 237.4 234.2 230.1 224.9 220.5 217.9 215.3 212.6 207.4 204.5 201.3 197 193.7 188.2 186.1 179.5 182.1 181.2 181.4 181.2 174 181.2 181 181 177.2 175.6 173.6 170.2 172.2 172.6 170.6 168.8 171.4 174.4 171.6 175.6 178.3 176.7 178.9 182.6 188.2 194.4 192.9 190.4 195.2 195.4 196.5 197.4 200.5 203.7 204.8 206.4 207.2 209.4 207.1
306.1 311.1 316.6 322.8 330.6 337.8 342.8 346.7 351.6 355.6 358.7 361.2 363.8 365.7 368.7 369.8 370.4 371.2 371.9 372.5 371.3 370.3 369.7 369.3 367.5 367.7 366.4 367.4 365.6 363.2 360.8 360.2 360 360.4 358.9 357.5 359.3 360.9 361.9 362.9 365.5 366.9 367.8 369 370.2 371.8 372.7 373.7 376.1 377.1 381.5 385.6 390 393.3 396.8 400.9 405.9 409.8 415.4 421.7 427.5 433.4 439.6 447.3 455.7 463.9 470.9 478.5 480.2 477.1 473.4 467.5 465.9 462.9 463.3 467.1 467 469.4 471.1 473.2 473.6 472.8 471.5 465.6 457 447.7 439.2 428.6 414.8 399.2 383.7 375.5 370.7 367.7 365.9 366.9 366.8 367.2 367.8 367.3 365.9 364.4 362.3 359 355.1 349.8 343.5 336 328.1 321.4 316.5 313.3 310.4 307.3 298.1 292.6 288 283.9 280.9 278.7 275.1 271.1 272 266.6 265.8 266.1 266.6 266.4 258.2 257.1 257.7 258.1 257.8 257.7 257.4 255.8 254.3 253.6 251.6 249.8 248.7 247.2 245.1 242.3 239 234.5 230.9 227.7 224 220.5 217.5 213.1 208.4 207.5 205 199.4 198.1 195.6 193.1 190.6 188.9 186.7 185.3 185.9 184.4 178.2 182.2 186.6 183.8 177.6 177.6 180 176.9 180.8 178.6 176.3 179.7 183.2 179.1 177 181.7 182.7 182.7 186.1 190.6 195 200.2 192.9 196.9 200.8 202.8 203.2 204.4 206.5 212.6 211.6 211.9 212.6 212.8 213.5
303.6 309.2 315.1 320.8 327 333.3 339.7 342.6 346.7 352 355.2 358 360.7 363.2 366 368.1 370.1 371.5 372.3 373.7 375.9 377.5 375.3 374 375.9 376.8 375.1 372.4 370.7 368.4 366.1 363.6 363.1 362.4 361.4 360.4 361.7 363.3 365.4 367.4 369.7 370.8 372.7 374 375.3 376.9 379.4 380.8 382.4 385.5 388.2 392.2 397 402 405.7 410.8 415.9 420.3 425.1 429.4 435.8 440.6 446 453.4 462 472.8 477.7 481.5 487.3 490.9 487.8 485.4 482.3 480.1 479.8 480.5 481.6 480.5 480.7 481.6 482.5 484.1 482.3 475.8 468.2 459 449.2 437.4 423.3 407 391.9 379.5 370.4 366.7 364.7 364.4 365.4 365.8 366 364.4 362.3 359.9 356.6 353.9 349.5 345 339.8 334.5 327.5 319.7 315.8 313.6 307.9 302.8 295.8 291.5 288.3 286.9 286 285.9 281.6 272.6 268 266.3 266.3 266.4 266.8 260.4 257.4 255.2 254.3 254 253.4 253.8 253.1 251 250.3 250.7 249.7 248.7 247.9 245.4 243.4 241.3 236.4 234.3 231.7 227.2 224 220.4 216.6 212.9 212.5 211.2 208.5 202.7 201.3 200.7 197.9 195.9 194 190.7 190.6 191 191.3 184.9 186.2 189.7 184.9 182 184.2 186.2 180.3 186.8 184.8 184.6 189.7 190.2 185 183.7 188.1 188 189.7 193.8 200.5 201.5 201.6 200.6 204.1 208.2 210.4 210.3 210.8 212.5 214.5 215.7 217.1 217.6 216.5 216.5
300.1 307.9 313.9 320 325.6 330.1 334 338 341.6 346.5 350.8 353.7 357.4 359.6 361.2 363.9 366.6 369.2 372.6 375.3 378.6 377.4 376.3 376.1 383.2 384.8 382.5 379.1 377.5 374.4 371.6 368.7 366.6 364.6 364.9 365.2 364.8 369.2 371 372.2 373.6 374.3 377.2 378.5 380.7 381.5 385.1 387.5 390.1 392.7 395.4 398.8 404.3 409.5 412.8 420.2 425.6 431 436.2 441 444.9 449 453.4 459.9 468.5 477 483.5 487.9 490.7 492.5 491.8 489.5 487.1 484 483.4 485.9 489.3 489.6 490.2 488 487.5 487.8 489.2 486.6 480.3 471.8 460.5 448.2 432.9 415.6 399.2 385.4 373.5 366.5 362.8 361.7 363.2 363.1 361.4 358.9 356.1 353.3 351.8 347.3 343 338.7 335.5 330.5 324.2 318.5 314.1 308.8 301.5 296.5 291.7 289.7 286.3 283.4 279.4 283.1 275.8 270.9 268.2 267.2 267.3 267.6 266.3 257.3 255.5 255.2 253.7 252 251.3 249.2 248.9 248.9 247.1 248.1 248 247.2 245.4 244.4 242.7 239.3 236.2 233.3 228.2 226.6 224.9 222.7 221.1 219.1 216.9 214.6 211 207.6 207.3 206.6 206 200.9 199.9 197.4 200.1 200.5 199.7 190.6 188.7 188.2 186.6 188.4 189.5 190.6 186.5 190.3 185.9 192.5 193.5 190.2 190 189.4 191.6 195.8 198.2 203 207.4 206 203 207.6 212.9 216.4 219.8 217.4 220.5 219 218 219.2 221.3 224.1 224.8 223.4
298.7 306.2 313 318.7 323.3 326.2 330.1 334 338.2 341.3 345.8 349.5 352.3 355.7 357.7 359.8 362.5 366.1 369.6 370.7 371.4 370.2 372.4 375.7 379.9 383.7 381.2 378.4 376.3 375.9 376.2 371.3 369.3 368.2 368.9 368.6 369.3 373.1 373.9 374.7 375.6 377.3 381.2 383.4 386.1 388.4 391.2 394.8 396.8 398.5 401 403.5 408.7 415.6 421.2 426.5 433.5 439.5 445.8 451.2 454.8 457.8 462.3 465.5 472.1 478.9 483.7 489.4 490.6 489.6 485.6 482.3 480 478.4 476.8 480.4 484.8 488.8 489.2 488.7 489.1 489.1 487.2 483.8 482.1 475.4 464.7 452.3 437.4 423.4 406.8 392.5 380.6 373 365.1 361.8 358.3 358.3 356.6 354.9 351.1 348.9 347.3 343.2 337.6 335.6 330.8 328.6 322.1 317 311.3 304.8 300.7 296 291.8 291.8 288.5 280.7 275.7 275.2 271.2 270.7 268 268.1 269.1 268.1 261.4 258 260.2 258.3 254.1 254.4 254.8 254 252.6 251.1 249.5 246.8 244.9 242.6 240.7 242.8 240.6 235.2 235.6 234.6 233.5 232 230.1 228.4 226 223.5 220.1 216.9 212.7 210.1 210.6 210.7 208.7 207.3 206.5 205.3 205.6 202 200.3 189.7 192.5 192.5 193.2 193.9 194.9 197.2 191.7 193.6 193.6 194.8 194.4 193.9 194.1 194.7 195.2 199 202.8 206.8 208.7 209.4 210 212.7 218.5 224.6 223.1 226.3 229.8 229.4 224 224.9 226.8 228.2 228.4 229.4
296.3 303.7 310.7 315.6 319.8 323 326.2 329.9 333.9 338.1 340.5 342.9 346.1 349.5 351.6 353.1 356.2 359.5 360.9 361.9 362.7 363.1 367.4 372.5 376.5 377.6 375.3 373.7 371.7 371.9 372.1 370.5 371 373.4 374.5 374.4 374.6 373.2 373.8 374.8 376.1 379.6 383.5 385.7 388.8 392.2 395.8 399.2 402.5 405 407.2 409.6 414.1 421.5 426.7 433.3 439.7 446.1 452.4 458 463.4 468.2 471.3 473.2 476.2 477 480.3 482.6 483.5 483.3 479.5 475 472.3 468.2 466.7 464.7 474.7 476 481.3 482.9 485.4 485.5 484.9 485.1 482.2 476.8 466.8 455.5 441.4 426.2 411.9 398.6 387.9 379.6 373.6 367.4 359.8 353.8 352.4 351.1 348.9 346.5 344.4 339.3 333.9 328.5 326.1 325.3 318.6 312.8 307.7 303.6 301.1 294.2 289.5 292.1 287.3 284.4 283.2 280.2 278.2 275.1 269.7 265.2 264.4 262.1 259.5 260 261.4 258.2 255.8 256.4 257.5 256.9 253.8 252.3 250.3 250.1 251.3 247.1 243.4 240.7 238.4 236.8 238.1 237.2 236.4 235.8 234.5 232.5 229.4 225.7 222.4 218.6 213.4 215.3 214 213.9 211.6 209.4 208.7 208.2 204.7 196.6 199 192.9 197.3 198.5 198.5 199.1 201.2 200.3 199 200.6 201.2 201.6 202.4 200.5 200.5 200.6 201.1 203.6 209 213.8 215.8 215.7 217.4 217.2 222.2 224.8 227.2 231.6 234.7 235.4 231.9 231.4 230.7 230 229.3 229.6
293.9 300.8 306.4 311.4 315.6 318.4 322.2 325.9 330.6 335.6 338.2 339.6 340.2 343.1 344.9 345.3 347.6 349.7 350.3 352.5 354.1 356.3 360.1 366.8 371.2 371.2 369.7 367.5 367.1 367.3 366.6 366.7 369.3 372.2 374.2 374.6 373.9 373.4 373.7 374.3 375.4 378.9 383.2 387.3 390.5 393.6 398.7 403 406.2 409.8 412.1 416.6 420.9 427.6 433.5 438.8 444.2 450.9 457.1 464.3 471.2 475.9 479.4 480.3 478 478.4 477.8 476.6 478 477.7 474.5 468.9 463 458.7 455.4 452 460.5 465.6 473.1 482.5 487 485.2 484.9 485.6 484.3 482.5 479.1 470.6 458.8 444.1 423.1 405.6 395.5 387.3 379.7 371.5 364.6 357.3 352.6 349.8 348.7 345.8 340 337.8 335.6 331.5 325.4 321.7 316.2 308.1 307.8 301.9 296.2 296.3 291.9 286.8 286.9 288.5 288.1 284.2 279.3 273.7 267.3 265.5 263.6 263.3 263.6 263.5 261.7 257.2 258.3 259.2 258.5 257.2 252.9 252.9 252.8 252.4 251.1 246.8 245.4 243.3 241.6 240.8 240.7 239.7 239 237.5 235.9 234.3 231.4 227.5 224.7 220.4 219.2 220.1 218.7 216.8 214.6 211.1 204.6 205.6 197.8 203.9 201.9 199.9 204.1 205.6 206.5 205.8 205.4 205.1 205 207.6 208.2 208.6 209.4 210.2 210 210 211.1 209.7 216.9 219.2 217.1 217.4 221.1 220.1 220.4 226.9 231.8 236.3 238.9 238.2 237.1 236.4 234.4 232.7 231.5 230.7
290.7 296.2 301.1 305.7 309.8 313.7 317.3 321.2 325.6 330.9 334.9 334.1 334.9 336.8 338.1 338.3 339.2 340.3 343.6 345.9 347.7 349.9 350.6 355.6 362.1 363.9 362.4 362.3 363.1 362.6 362 364.5 369.2 372.5 373.1 373.4 372.8 373.1 373.3 373.7 375 379.7 384 386.9 390 394.6 398.8 403.5 408 411.9 416.9 422.4 427.2 432.2 436.8 441.3 446.5 451.3 458.5 465.5 473.3 479.6 483.8 483.5 480.6 478.1 477.3 474.4 475.7 474.7 470.4 465.6 459.1 451.7 447.2 444.1 447.9 454.8 461.6 470.2 476.5 481.9 485.6 487.1 487.4 480.6 476.9 471.5 462.3 451.9 437.5 422.1 406.3 396.4 388.8 378 367.4 362.4 355.8 350.5 348.4 347.4 342.6 340.7 336.6 332.3 325.5 322.9 321.2 320 319.5 312.6 305.7 301.3 296.1 291.8 292.7 291.1 288.4 282.1 276.1 272.4 270.9 270.1 269.4 268.8 267.8 266.3 264.4 259.2 262.6 260.4 257.4 254.9 254.5 254.6 253.6 252.3 250.7 248.9 247.4 245.1 245.2 244.7 243.7 242.4 240.7 238.4 236.2 235.1 232.5 229.3 227.6 223 223.4 222.6 219.9 218.2 216.6 210.1 214.2 210.7 207.1 208 206.4 204.8 210.3 211.8 214.2 210.1 208.6 204.2 211.2 212.3 213.4 215 215.7 217.5 220.5 219.1 217.8 216.9 221.5 220.5 219.1 219.9 221.8 222.4 225.2 228.3 233.6 239.8 242.6 241.2 240.5 239.7 238.6 236.9 234.9 233.9
285.2 290.2 295.2 299.7 303.6 307.6 311.9 316.4 319.7 323.4 327.4 330.5 330.9 331.3 331.4 331.8 332.7 333.6 335.8 338.3 340 340.8 343.9 348.8 351.7 351.7 353.4 354.5 355.5 355.8 359.9 364.7 367.8 368.5 369.6 371 370.6 370.6 371.6 371.9 377.3 380.3 382.9 385.5 390.9 395.2 397.4 401.1 408.2 415.4 421.6 426.5 431.6 434.3 438.3 441.8 445.7 449.7 456 462.4 467.5 478.3 483.1 482.1 479.2 478.8 476.9 472.3 468.7 468.8 466.4 460.8 453.8 446.5 441.6 438.6 439.3 444.1 451.5 458.4 469.4 476.4 481.3 484.8 484.1 480.3 472.2 464.9 456 445.1 434.8 421.7 407.7 397.4 387.5 378.8 370.7 362 356.5 350.5 351.4 348.9 346.4 340.4 338.7 333.8 330.2 325.2 327.4 326.4 324 316.7 310.5 305 299 298 296.4 294.4 292.3 282.8 280.9 277.5 277.2 276 275.3 272.5 271 265.2 261.2 262.5 264.4 261.6 257.8 257 258.2 257.9 257.2 255.9 254.2 252 249.6 247.3 247.7 247.1 244.9 242.7 241.8 241.3 238.3 237 234.1 231.6 227.1 226.5 227 225.3 221.4 219.8 218.5 213.1 215.4 212.1 212.6 213.9 213.6 208 212.9 215.8 214.3 211.7 211.5 207.5 214.5 217.3 220.3 221.8 222.4 224.7 224.1 220.9 219.5 224 227.1 222.8 223.9 226.1 225.5 227.1 230.7 233.9 236.8 242.7 243 244.6 245.3 245.1 245.1 241.4 238.9 237.1
278.8 283.7 288.3 292.1 296.6 301.4 306.3 310.4 313.6 316.7 319.5 322.7 325.1 324.9 325.5 326.5 327.5 328.1 328.8 329.3 330.7 332.3 335 337.3 340.9 343.3 345.8 347.8 349.1 351.9 356.7 362.2 363 363.2 365.1 368 370.2 367.8 369.6 371.5 374.7 377.2 381 385.1 391.7 394.4 397.1 401 410.3 418.8 424.6 429.4 433.9 437.7 440.8 443.6 446.5 450 454.7 459.3 463.1 466.9 471.1 474.5 475.1 473.6 470.5 468.6 465.5 462.3 459.4 455 448.8 444.9 439.3 436.2 432.5 435 445.5 454.8 464.4 470.7 475.3 477.2 478.2 478 471 460.3 449.3 437.8 427.8 418 404.8 393.1 383.4 374.5 366.9 359.7 358.3 354.8 352.6 349.6 346.8 344.6 340.9 338.5 334.7 328.6 328.8 325.5 322.6 316.3 311.7 309 306.7 303.8 300.1 300 294.1 288.7 285.1 285 283.5 281.9 278.6 275.4 272.1 267.2 267.3 267.5 266 264.5 261.6 262.3 262.8 261.8 260.8 259 256.5 254 251.5 250.5 250 248.7 247.4 246.2 245.6 244.1 240.4 237.5 235.2 230.9 230.7 229.9 229.7 228.7 225 223.6 221.8 217.3 218.8 216.9 218.1 220.9 221.5 218.3 215.8 219.3 218.8 218.5 218.6 216.8 221.5 223.9 226 227.5 227.8 226.7 224.7 227.2 225.1 228.8 233.4 226.9 231.2 235.5 230.7 232.8 236.7 240.3 243.3 242.3 245.7 247.6 247.4 247.2 246.5 245.5 243.7 242
270.7 275.3 279.7 284.1 288.6 294.2 299.1 303.3 306.6 309.4 312.5 315.6 318.8 320.7 321.7 321.3 321.8 322.3 322.8 323.7 325.1 326.1 328.8 331.9 334.9 337 340.2 343.7 345.9 346.8 350.2 354.9 356.1 356.7 361.1 363.5 364.8 364.4 366.9 371.3 373.4 375.2 381.7 386.3 388.9 393.9 399 405.9 415.4 423.3 432.3 436.3 440.5 442.9 444.1 446.9 448.9 450.2 454.9 457.5 459.4 462.3 464 464.8 465.5 466.4 465.5 462.8 459.6 456.7 452.8 448 443.2 440.3 437.2 434.1 432.5 432.5 443.4 453.3 459.8 463.8 468 469.6 470.2 469.9 467.9 459 449 437.6 426.9 416.6 405.6 396.7 387.7 376.8 366.7 362.6 360.1 357.6 353.4 352.2 347.3 344.2 346.1 340.6 338 337.3 332.9 326.6 324.3 324.3 320.3 315.7 308.3 305.5 307.4 305.9 300.4 297 294.8 292.9 289.9 285.4 281.4 279.1 274.4 271.7 272 271.3 270 268.3 265.5 263.8 263.9 263.6 262.6 260.7 258.5 256.2 253.9 253.4 252.5 251.5 250.6 249.7 247.3 244.4 237.6 234.1 234.8 235 234.5 232.3 232.6 232 229.6 227.1 223.6 221.4 221.2 221.7 223.6 225.7 223.5 217.8 218.7 223 225.9 225.7 219.1 224.5 226.8 227.9 230 230.7 229.9 230.6 230.7 233.3 235.1 233.2 233.5 233.1 235.3 236.4 237.8 239.8 241.3 245.5 245.9 245.1 248.3 249.6 250.1 248.7 248.1 247.5 246.3 245.4
260 265.3 270 274.7 279.6 284.4 289.4 294.1 298 301.5 305 308.8 313.7 319.6 318.6 317.1 317.8 318.4 318.9 319.5 320.5 322.9 325.2 327.9 330.7 333.4 336 339.4 340.6 342.1 344.5 347.8 349.9 351.9 355.2 355.5 356.7 357.1 362.9 368.2 370.3 374.5 379.4 382.6 387.3 393.1 401.1 409.3 421.7 431.6 439.6 444.9 447.1 448.7 450.9 452.1 451.2 451.2 451.5 453.7 455.1 457.2 457.9 457.5 461 462.2 461.2 459.8 457.1 453.5 450.5 445.2 441.4 437.4 435.6 433.8 432.5 432.5 438.8 448.1 454.9 459.1 461.5 463.8 465.7 465.3 462.6 456.1 450.9 441.2 429.8 419.3 409.8 400.6 390.6 382 371.2 364.7 359.4 358.3 356 354.6 352.3 347.2 346.8 340.6 337.8 341 337.6 336.2 332.7 327.3 319.8 315.1 311.6 313 311.9 308.2 304.3 302.9 301.4 298.5 294.8 290.3 288.1 285.3 280.7 278.2 276.3 274.3 272.1 271.5 269.3 267.7 266 265.4 263.9 261.7 259.7 258.6 256.8 255.8 254.8 253.9 252.7 250.8 248.5 241.6 239.8 240.8 239.6 238.6 237.7 235.1 235 235.4 233.5 228.6 223.6 226.5 224.2 226.5 227.7 228.9 224 219.5 224.5 227.1 230.3 233.2 222.8 229.4 230.8 232.8 234.2 234.6 234.5 236.5 238.3 240.1 239.4 240 241.3 240.8 241.7 243.5 245.9 248.2 248.9 249.5 250.2 253.1 251.3 252.8 253.2 253.3 252 252.2 251 251.1
250 254.9 258.2 262.9 267.8 272.3 278 282.9 286.8 290.4 294.2 300.5 302.9 308.6 312.9 312.4 312.5 312.6 314.4 314.7 317.1 319.8 322.2 324.5 327 329.7 331.7 333.7 335.5 339.9 341.7 342.8 344.6 346.9 347.3 347.1 347.9 352 356.3 358.8 363.6 367.6 373 377.5 382.4 388.3 399.2 410.6 421.3 432.8 443.8 450.7 453.7 455.8 459 458.5 454.7 453 452.3 451.6 450.7 450.5 452 453.2 457.5 459.5 460.2 459.9 460.5 456.2 457.7 456.3 453.3 448 439.4 436.1 435.6 435.3 434.1 439.7 446.3 450.4 453.7 457.8 460.1 459.7 457.7 453.2 448.1 442 433.5 423.5 414 402.9 390.5 381.4 373.6 369.8 365.4 361.1 358 355.4 353.2 350.5 347.8 343.4 341.6 347.3 343.1 340.7 336 330.8 325.8 320.5 319.8 320.5 313.7 311.7 309.8 307.7 304.4 301.1 297.7 295.2 293.4 291.2 286.6 283.2 281.1 277.8 275.3 274.7 273.2 271.5 269.8 267.6 265.8 263.5 262.4 261 259.2 257.9 256.9 255.9 254.4 252.1 245.3 244.1 243.6 244.8 242.4 241.8 240.9 239.6 238.8 239 235 226.3 229 229.3 228.6 231.9 234.4 232.6 226.9 224.3 230 232.6 235.4 233 232.3 234 236.6 238.6 240 239.7 239.7 241.1 244 243.4 242.4 243.8 246.3 250.3 249 249.7 253 255.2 257.3 256.1 262.7 260.8 257.6 258.2 260.3 261.4 262.3 263.1 262.2 263
240 243.4 245.3 249.3 254.8 260.8 266.4 270.4 275.3 279.3 283.1 288.7 291.4 294.3 299.3 303.6 304.2 305.5 309.6 311.2 313.7 316.2 319.2 321.7 323.6 325.3 328.1 330.7 333.1 336.9 339.7 340.9 342.7 342.1 341.7 341.9 343.6 347.3 349.3 352.4 356.2 361.2 365.1 371.7 377.8 386.9 397.9 408.7 418.6 428.6 437.2 446.2 454.8 459.4 463 463.9 461.2 458 454.9 451.8 450.5 448.2 448.6 448.5 451.6 457.7 459.3 461.3 464.6 465.7 464.7 461.2 457.4 450.2 441.1 437.5 436.3 436.4 434.5 430.4 433.2 437.3 443 446.9 450.5 454.4 454.3 452.4 447.2 441.3 434.8 426.6 415.9 404.3 391.9 387.8 378.8 374.8 369.5 364.5 359.1 355.7 350.8 348.5 345 344.7 343.5 346 341.8 341 337.6 335.1 331.2 325.6 325 322 317.8 315.8 313.8 310.4 307 303.6 301.6 299.7 298 294.3 290.3 287.8 286.2 283.2 280.5 278.6 276.9 275.1 272.9 270.2 268.8 266.9 265.6 263.9 262.2 260.4 258.7 257.7 255.6 250.3 245.9 247.7 248.2 247.3 244.4 244.6 244 243.3 242.6 240.9 231.8 230 233.3 231.9 232.4 235.3 237.4 234.6 224.6 229.3 233.3 235.4 238 229.5 236.9 238.4 241.1 243.9 245.3 244.4 245.1 247.8 249.8 249.2 250.1 250.3 254 257.9 255.2 256.6 260.1 265.3 265.3 266.1 268.3 268.5 267.3 266.3 267.8 270.4 271.4 272.4 273.8 274.3
222.8 227.4 230.4 233.7 237.7 241 249 252.9 256.1 263.5 270.7 274.8 277.6 279.3 285.4 291.5 295.9 299.3 304 306.8 309.8 312.7 315.2 316.8 318.1 321.7 325.3 328.4 330.6 333.3 336.4 337.8 337.7 337 336.3 336.5 339.7 341.3 342.9 346.7 350.6 354.6 361.2 372.2 379.1 386.4 395.4 405.8 414.7 422.3 429.2 435.2 443.5 450.4 455.4 455.2 457.6 457.7 456.2 454.1 452.4 449.5 446.7 446.4 446.1 448 453.3 458.2 463.9 467.5 465.6 463.3 457.8 449.2 441.7 434.6 431.7 429.1 428.7 425.3 424.2 426.2 429.4 433.1 436.3 440.3 445.3 448.3 445.7 441.2 433.6 427 418.4 409 399.6 390.5 380.4 376.7 372.5 366.9 363.1 358.9 354 352.1 350.6 349.2 343.7 346.1 342.4 342.3 338.9 336.8 333.6 329.4 327.2 323.3 322.3 319.8 317 314 310.8 307.7 305.7 303.8 301.7 297.3 295 292.6 291.1 289.2 286 283.1 281.2 279.9 277 274.4 272.4 270.4 268.5 266.9 265.3 263.5 261.5 259.8 255.1 251 249.5 249.4 250.5 248.9 246.7 247 246.3 245.5 242 232.8 234.7 235.4 235 235.8 235.9 238.1 240.3 228 228.9 233.7 235.8 237.4 231.7 237.3 241.9 244.1 246.9 249.1 250.7 250.3 249.6 251.7 253.1 253.3 254.2 254.4 257.3 261.2 260.9 265.1 268.9 273.3 275 274.6 275.4 275.1 275.8 275.4 276.1 279.5 280.8 282.9 285.6 286.8
205.5 212.1 213.9 214.8 218.3 220.7 225.9 229.2 231.7 242.1 250.9 257.5 261.5 265.5 271.7 278.3 286.9 293.8 298.3 301.6 303.1 305.5 307.1 309.1 313 318 321.7 324.5 327.2 329.1 329.9 331.2 330.6 331.9 331.1 332.2 333.8 335.8 338 341.8 346.4 350.9 358.1 367.4 373.2 382.3 390.6 398.9 407.7 415 421.1 426.2 431 435.6 438.8 443.8 447.8 449.7 450.5 450 449.3 448.8 447.6 446.5 445.5 445.9 447.8 454.6 460.8 463.2 460.7 456.6 452 445.3 439.6 432.5 427.8 422.3 417 413.5 411.3 415.8 418.8 421.6 422.4 425.1 429.4 431.3 436.2 434.7 433.8 429.1 422.4 415.8 408.2 397.5 390.9 383.2 376.4 370.1 367.1 363.5 355.7 356 353.8 351 345.6 346.5 344.2 343.5 341.1 337.8 333.7 333.5 329.1 326.4 324.3 322.7 320.4 317.4 314.6 311.6 309.6 307.6 305.3 301.5 299.6 297 295.4 293.5 290.5 288.3 287.5 285.2 282.9 279.6 277.2 275.2 273.2 270.8 268.3 266.6 264.7 261.8 255.3 254.5 253.4 251.7 252.4 249.6 248.9 249 248.6 243.2 236.8 238.8 240.2 238.2 237.6 239.2 240.5 241.4 242 230.2 233.6 237.8 239.2 238.9 237.9 242.9 247 249.9 252.1 253.9 254.7 254.7 253.6 255.4 256.3 257.1 258.6 261.4 261.2 264.3 270.4 273.8 276.7 281.4 283.3 282.1 282.5 282.6 284.7 285.2 285.6 288.5 291.8 293.4 294.1 296.4
194.4 196.3 195.6 196.4 198.9 201.7 203.3 204.1 206.9 220.2 227.1 235.9 242 248.3 256.3 263.2 272.3 281.9 290.1 294.3 296.3 299.2 300.1 300.9 304.9 311.8 315.2 318.6 322.1 323.5 323.6 323.6 323.7 324.8 325.3 326.6 328.7 330.7 334 336.9 341.8 348.4 356.3 362.8 371.4 378.9 385.7 392.5 400.2 407.2 412.7 417.9 423.1 427.3 430.2 434.2 441.1 445 447.3 448.4 447.9 446.9 445.1 445.1 443.4 444.9 447.5 455.4 461.2 465.9 462.5 456.7 449.6 441.2 432.9 427.6 423.2 417.4 411.1 406.2 404.3 408.7 406.3 409.1 410.5 413.3 415.8 417.3 418.9 422.9 424.3 425 422.2 416.8 409.6 405.6 397.3 389.4 385.6 378.6 372.3 365.1 361.2 359.4 355.2 350.4 348.2 347.8 346.9 343.9 342.2 340.4 337.2 335.8 333.6 330.1 328.3 326.1 323.8 320.9 318.1 315.6 313.4 311.5 308.9 305.7 303.5 301.5 299.5 297.6 294.6 293.7 291.6 289.5 287.2 285.3 282.5 280 278 275.4 272.8 270.2 266.6 261.5 259.1 259.1 255.6 255.7 253.6 252.6 251.8 251.1 243.6 240 241.5 244.5 244 241.2 240.4 242.6 244.6 244.4 237.6 235 238.6 242.5 243.2 236 242.5 247.6 251.8 255 256.4 257.8 257.7 258.6 259.3 260.1 262.3 264.1 265.7 266.3 266.9 269 273.3 278.1 283.7 289.2 291.4 291.8 290.8 292.1 294.9 296.7 296.9 299.7 301.3 303.2 305.7 307.9
185 183.4 180.7 184.5 185.7 186.6 186.2 187.1 192 200.7 204.5 213 222.8 230.3 235.2 246 254.7 264.1 271.2 279.4 284 290.1 292.1 293 296.5 301.3 304.9 309 313.3 315.5 317 316.9 317.9 318.4 318.5 319.9 322.4 326.8 330.1 331.8 337.4 344.6 349.2 358.7 366.6 372.2 379.6 387.7 395.1 400.7 406.1 410.7 415.4 420.3 424.3 428.1 432 435.5 440 443.3 445 445.2 444.4 441.5 442.5 445 451.9 460.1 464.2 463.6 460.7 457.3 452.8 444.7 435 428 422.1 412.9 406.2 404 399.9 400.8 399.7 399.1 399.3 399.7 402 404.7 406.1 408.7 410.9 411.7 412.9 409.5 407 406.6 400.5 396.5 392 382.9 377.2 371.6 369.7 361.6 358.4 356 353.1 349.7 347.5 345.6 344.8 342.7 340.3 338.5 336.2 334 332.2 330 326.8 324.3 322.3 320.1 317.6 315.4 313.3 310 307.9 306.3 304.6 301.1 299.6 297.8 295.8 293.8 291.7 289.7 287.9 285.4 282.3 279.3 276.5 273.7 268.1 264.9 263.5 261.3 260.4 258.6 256.5 257.1 255.8 252.7 246.2 247.4 247.6 248.1 245.7 243.9 244.6 247.3 249 247.2 235 242.2 245.6 245.1 238.2 243.6 249 251.1 254.4 257.6 259.5 261 261.9 263.8 265.5 266.1 269.2 270.2 270.2 270.7 273.7 276.2 278.9 284 289.7 293.5 296 298.2 298.9 300.4 302 304.2 306.2 306.9 309 313.1 317.1 319.9
172.7 169 171 173.1 173 171.8 172.4 172.9 177.9 184.5 188.1 193.4 203.3 208.2 216.9 228.5 238.4 246.1 254.6 260.4 266.6 274.2 279.4 281.6 286.4 291.2 295.1 299 302.1 305.4 307.9 308.4 311.9 312.5 312 314.2 318.1 323.5 324 327.8 333.4 339.4 347.2 355.1 361.2 367.3 376 382.3 388.8 396.4 401.4 406.7 411.9 415.7 419.5 423 426.6 428.5 430.7 432.4 434.5 437.5 439.7 441.3 443.7 446.2 456 464.9 469.4 471 468.6 463.1 455.3 446.8 437.9 428.5 421.3 415.5 409 403.5 398.7 397.4 394.6 394.4 392.9 393.6 394.1 395 394.8 398.7 396.8 400.5 398.4 400.7 398.8 402.7 396.8 395.4 390.7 384.6 379.6 376.4 368.6 369.5 365.8 360.2 357.4 354.5 351.7 349.7 349.8 346.7 344.2 342.1 340.6 339.4 335.8 334.3 332.1 329 327 324.6 322.1 319.7 317.5 314.7 312.4 310.2 308.7 305.6 303.7 301.6 299.4 297.4 295.6 293.7 292.5 289.5 286.1 283.2 279.9 275.8 271.1 270.5 266.3 265.8 265.6 262.4 261 260.2 257.8 249.4 250.5 249 249.8 248.8 246.5 247.7 249.5 248.4 248.9 243.8 238.9 247 248.1 244.2 241.4 241 250.8 254.5 256.9 260.2 262.6 264.1 265.7 268.5 271 271.6 273.6 274.5 274.8 277.2 280.7 283.6 286 289.9 294.4 298.7 300.7 303.9 305.2 307.1 308.4 309.9 311.4 314.3 318 321.8 325.6 330.2
160.9 159.8 162.1 162.3 164.9 163.2 163.3 164.1 167.3 171.4 174.5 178.7 184.5 187.1 197 207.8 218.7 225.8 236.7 242.5 251.6 257 262.1 268.7 274.2 279.1 284.7 289.2 292.2 295.7 298.5 299.3 301.3 303.8 305.3 308.2 313.7 315.8 319.9 324.7 330.1 335.6 341.8 351.1 357.2 364.4 374.4 379.8 384.8 390.9 397.4 403.1 408.6 413.7 417.8 421 424.3 427.1 429.2 431 430.5 431.7 434.7 438 443.9 450.9 457.7 465.5 472.2 475.9 475.7 470.9 463.2 455.1 444.1 433.7 424.6 418.1 411.5 404.1 401.1 397.3 396.6 393 390.5 389.9 389.7 389.7 392.2 390.9 392.9 390.7 391.7 393.7 394.5 399.3 394.4 392.3 388.2 384 378.5 377.6 376.6 373.7 370.4 367.1 364 362.4 361.4 360 356.5 354.6 352.8 350.6 348.2 346.7 343.5 340.6 337.9 334.4 331.6 329.2 326.6 324.2 321.9 319.5 317.3 314.9 312.1 309.6 307.7 305.5 303.2 301.1 299 297.2 295.2 292.9 290 287.2 282.5 277 276.9 274.1 268.8 269 270.1 267.9 265.6 261.8 256.8 250.3 254.9 253.2 252 250.6 248.4 251.2 251.6 249.3 247.2 244.3 247.9 251 248 247.7 246.4 251.8 250 253.8 257.1 261.6 266.7 269.4 271.6 273.7 275.6 276.8 277.6 279.3 280.9 283.5 286.8 289.5 294 298.6 302.7 305.7 307.7 309.9 312.5 314.9 315 316.1 317.1 318.5 322.8 327.9 332.6 338.6
151.1 152.4 155.4 153.3 155.1 155.1 155.8 156.5 157.7 161.5 167.6 169.9 175.5 173.2 179.8 188.5 198.3 206 214 224.4 231.9 240 248 254.9 261.1 265.7 272.5 278 282.4 284.7 286.7 288.2 292.5 295.7 296.4 301.8 306.2 309.9 314.4 320.3 325 330.1 337.8 344.5 351.5 361.6 370.5 376.4 380.5 387.5 394 399.5 404.8 409.8 415.2 419.6 423.7 428 432.6 433.6 433.6 435 436.6 442.1 445.4 452.3 459.4 466.1 472.3 477.7 478.8 475.7 469.2 461.4 452.5 442.3 431.7 423.3 416 409.9 404.9 403.5 399.2 395.1 393.5 391.1 391.3 388.1 389.2 387.4 385.7 385.7 385.7 385.7 385.7 391 388.3 388.6 384.6 382 380.6 380.2 378.9 376.9 374.6 371.2 368.6 368.7 366.9 364.9 361.4 361.1 360.5 358.6 356.4 356.1 352.1 348.9 345 340.5 337.4 333.7 331.1 328.7 326 323 321.1 319 315.5 313.5 311.6 309.4 307.1 304.8 302.8 300.9 298.3 295.6 293.4 288 287 284.1 280.9 277.5 272 276 275 270.7 267.1 261.5 254.7 258.5 258.5 256.9 255 253.3 251.9 256.3 255.7 253.2 251.3 244.8 253.6 252.7 248.1 247.4 251.5 255.8 251.5 258.6 259.3 265.5 270.9 274.4 276.6 278.7 281 283.2 284.4 286 287.6 290.1 293.2 296.9 301.6 306.4 310.7 315.7 319 320.9 323.1 324.4 324.8 327 324.8 325.6 328.9 333.3 337.3 343.9
151.1 150.1 149.7 149.2 149 153 151.6 151.6 152.2 155.2 158.8 160.8 166 162.6 167.1 173 180.5 188.2 195.1 202.5 212 219.3 230.4 237.9 247.1 251.2 259.6 267.2 270.9 274 276.6 278.6 283.2 288 287.8 295.4 299.7 304 310.1 314.9 319.3 325.3 333.1 341.5 348.1 355.7 363.1 368.5 374.9 381.4 388 394 399.9 404.6 409.4 414 419.2 424.7 429.1 432.1 434.7 436 436.6 440.6 445.6 452.9 458 465.7 471.4 475.9 477.9 477.7 472.2 465 456.9 449.2 439.1 430.4 422.8 416.8 412.1 407.9 404.2 401.5 397.6 394.8 391.2 389.5 388 386.2 385.7 385.7 385.7 385.7 385.7 385.7 388 383.6 381.9 380.1 381.8 381.2 379.6 378.1 377.5 374.6 374.7 372.3 369.5 368 366.4 365.1 365.1 365.4 364.1 363.8 360.7 356.9 352.6 347.8 344.2 341.8 337.5 333.1 329.6 326.3 324.8 322.7 319.5 317.5 315.5 313.3 311 308.7 306.6 305.3 302.9 300.1 292.9 294.3 291.1 288.5 285.2 279.6 278.4 280.3 279.3 273.6 267.1 265.3 257.5 262.2 261.8 260.3 258.4 256.7 257.2 261.2 260.5 256.4 253 246.5 255.1 253.2 248.1 250.9 255.2 256.1 255.1 262.8 263.3 269.9 275.2 279.1 281.1 284.5 287.2 290.5 291.7 292.6 295.1 297.9 301 304.8 309.4 314 317.7 323.4 329 332.3 334.8 338.3 339.5 339.2 335.9 335.4 337.3 338.9 344.4 350.1
150 151.6 149.8 148 147.1 146.8 148.5 147.7 147.8 150.2 151.2 154 156.4 157.5 158.7 165.6 168.9 170.9 178.9 186.4 189.2 204.2 211.6 219.5 229.4 236.2 243.2 252.4 258.1 262.3 266.4 269.5 273.9 280.1 283.5 288.3 292.8 298.1 303.6 308 315.8 323.2 329.6 336.1 343.8 350.1 355.9 363.1 369.5 376 382.5 387.4 394.4 400 405.4 409.8 414.9 419 423.8 427.7 430.3 434.5 436.8 440.2 443.7 449.9 456.3 464.9 471.5 476.5 479.5 479.5 475.5 469.9 462.2 456.8 453.1 447.6 438.5 430.1 420.4 415 407.1 403.1 399 395.1 392.8 391.1 389.2 386.7 386.4 385.7 385.7 385.7 385.7 385.7 387.6 386.5 384 385.7 386 385.5 384.5 382.7 381.4 380.9 378.7 375.5 375.5 376.3 375.2 374.8 374.1 373.1 371.5 369.2 366.4 362.7 359.3 354.8 351 347.3 343 338.6 334.2 329.9 327.7 325.4 322.3 320.4 318 315.6 313.8 311.6 308.5 306.4 303.5 301.6 299.9 297.8 294.3 291.7 287.7 279 282.7 282.8 280 274.8 270.4 268 264.8 266.3 264.4 263.7 262 260.4 262.8 264.3 261.5 256.6 251.6 252.1 258.3 255.9 249.8 253.8 259.2 255 259 265.9 264.8 271.8 278.1 282.1 286.5 290.2 293.4 296.8 299 300.9 304.2 307.8 310.7 312.7 316.8 321.2 325 330.4 335.5 340.6 344.1 348.1 349.9 350.8 351.4 351.3 353.3 355 358.6 363.1
153.8 154.6 153.9 151 150.3 146.6 146.6 145.7 145.2 144.8 145.4 147.9 149.5 149.4 151 156 158.2 159.1 163.3 171.1 180.2 188.6 195 201.1 211.1 220.2 227 235.3 242.9 248.7 255.4 258.5 266 271.1 276.2 282.8 286 290.7 297.7 303.1 310.2 318.8 325.1 331.7 338.9 346.9 352.7 358.9 364.4 370.1 379 386.3 392.7 397.9 403.1 407.2 411.2 414.9 418.8 422.7 427.2 430.8 434.1 437.4 440.8 446.4 454.2 462.4 469.3 476.1 479.3 479.7 478.5 474.7 469 463.5 461.7 456.1 450.3 441.8 434.2 426.1 418.9 411.3 404.4 399.7 395.7 391.8 393.7 394.7 396.3 389.3 387 392.2 393.9 392.2 393 390.3 392.9 394.6 394.6 393.5 390.9 389.4 387.7 385.9 384.9 384.2 382.4 382.2 381.4 378.5 377.2 376.2 374.1 371.4 368.4 365.3 361.9 358.3 354.2 350 345.1 341.3 336.6 332.3 329.4 327.2 324.8 322.6 320.2 317.5 315.2 312.8 309.4 306.2 306.1 305.1 302.4 299.9 296.4 292.7 286.7 287 285.9 282.9 279.6 277.5 274.4 265.6 268.6 269.9 268.9 266.6 265.6 265.5 266.8 264.2 261.1 256.9 252.2 255.9 262.4 257.2 255.8 256.6 261.7 256.6 261.4 268.3 268.1 275.2 279.3 283.9 288.5 294.4 298.6 302.6 307 310 314.2 317.3 319.7 322 324.2 328.4 332.8 338.1 343.2 346.8 352.6 356.8 359.8 360.6 361.7 364.4 367.2 373.7 374.5 375.5
160.7 158.2 156.3 156.7 154 150.9 145.7 145.1 144.6 144.2 143.7 142.7 144.8 144.8 146 150 151.9 152.2 155.7 161.6 168.6 175.3 180.3 185 193 202.4 211 219.1 228 235.2 241.2 248 254.3 258.2 269 275.8 281.5 285.5 293.2 298.1 305.5 313.7 322 328.9 335.4 339.7 347.4 355.4 362.4 368.7 376.5 383.5 390.2 395.9 401.2 405.1 408.7 411.8 414.7 419 422.2 424.9 429.3 432.5 434.6 441 449.5 457.2 465.7 472.6 478 480.6 480 476.9 472.8 468.4 465.1 460 454.1 446.7 439.8 432.2 424.3 417.1 411.1 405.2 401.6 403.3 402.1 400.2 396.4 392.3 394 397.7 398 397.4 398.8 398.5 401.6 405 405.9 404.1 400.8 398.1 394.6 392.2 390.4 390 387 385.9 382.6 379.5 376.7 374.4 372.1 369.9 367.5 364.1 361.7 358.2 354.5 350.4 346 341.5 337.1 333.2 330.3 328.8 326.9 323.4 321.9 318.2 316.2 312.9 308.5 309.1 306.5 305.6 303.9 300.9 298.5 294.3 292.4 290.4 287 284.5 281.7 280.2 276.2 271.3 271.8 272.8 271.5 269.4 268.3 268.9 269.5 266.2 261.1 260.5 256.5 258.2 263.1 259.8 259.3 259.3 261.5 259.1 261.6 268 272 277.6 281.4 285.3 291.3 298.3 302.5 308.2 315.3 321.8 323.8 326.3 328.7 330.9 332.7 336.6 341.2 346.3 351.1 356.1 361.8 366.2 369.9 370.4 371.6 373.4 375.9 380.3 386 388.5
178.3 175.1 169.1 162.9 157.5 154 150.4 148.6 147.2 145.1 143.5 143.1 141.9 142 142.5 145.9 145.1 147 149.7 151.5 156.8 162.4 167.9 171.6 176.2 184.3 194.9 203.9 213 220.7 227.6 233.6 239.7 249.2 256.7 268 275.8 282.1 290 296.7 303.6 310.1 315.9 320.1 328.4 335.6 344.6 350.7 357.6 365.1 373.7 380.6 386.3 391.7 396.7 400.1 403.4 406.3 409 411.5 414.4 417.2 422.3 425.4 428.8 434.1 441.9 450.5 457.8 464.9 470.3 473.5 475 474.9 473.6 470.4 466 461.2 453.8 446.5 439 430.8 422.9 417.5 412.7 411.2 406.5 408.9 408.7 406 400.6 405.3 401.8 404.7 405.4 403.9 407.1 410.9 412.9 414.6 414.2 413.7 410.6 407.2 403.5 400.4 397.7 395.4 392.5 389 384.1 380.6 376.6 372.5 370.1 367.7 364.9 361.9 359.4 357 353.2 348.9 345 340.2 336.6 333 330.6 328.2 327.3 325.3 322.2 317.8 317.4 315.1 313.6 311.4 309.5 307.3 304.9 301.3 299.8 297.6 295.2 291.9 288.7 287.9 285.8 284.6 273.8 277.4 277.3 275.7 274.5 274.2 273.9 273.3 270.3 265.8 266.3 265.4 263.5 259.3 263.8 263.8 265.1 263.6 265.1 263.5 260.9 270.6 276.4 279.3 282.7 287.9 293.9 299.9 305.2 311.3 325.6 334.3 335.5 336.1 336 337.6 340.5 344.6 349.5 354 360.5 365.5 370.5 376.8 378.6 380.2 382 382.2 383.4 387.2 390.9 391.9
196.8 194.2 188 177.3 167.6 161.9 158.6 154.8 150.5 147 145.3 143.2 142.8 141.7 141.7 140.8 141.2 143.2 146.8 146.6 148 152 157.4 161.1 163.5 167.9 177.4 187.4 197.3 204.7 211.9 219.3 224.6 237.4 247.9 256.4 266.8 275.6 283.1 289.6 297.5 304.7 310.2 317.2 323.3 332.1 340.5 345.2 353.1 360.6 367.9 374.7 380.2 385.7 390.5 394.1 397.6 401.6 404.3 406.3 408.2 411.5 415 417.1 422.3 426.9 432.4 441.1 448.8 457 462.6 466.6 469.5 470.9 471.2 470.3 466.3 460.3 454.8 447.6 440.7 433.5 425.3 420.2 417.5 413.9 410 412.2 412.5 406.8 407 409.2 409.2 408.2 410.3 410.4 413.6 419.2 421.9 423.3 424 422.9 420.5 415.6 411.6 407.4 405.4 402 397.9 392.7 387.1 381.3 376 370.9 367.1 363.2 362.1 359.5 356.9 354.1 351.3 347.4 342.9 340 335.8 332.7 331.6 328.4 325.3 326.4 324.1 322.4 319.8 317.2 314.8 312.8 310.5 308.6 306.7 305 303.2 299.5 296.3 293.8 291 291 290.7 288.3 282.3 283.6 282.3 280.1 278.8 277.6 276.6 274 275.5 275 271.7 270.7 268.4 265.6 266.5 267.8 268.2 267.1 264 265.8 267.4 267.2 276.5 279 283.6 288.6 295.3 301.5 307 311.9 320 331.8 339.7 343.7 344.7 345.6 348.8 352.4 357.3 362.5 368.4 375.3 381.6 386.3 390.4 392.3 392 393.3 394.8 399.4 403.3 402.3
199 201.7 198.7 186.2 177.5 172.9 167.6 163.4 156.6 150.6 146.5 145.1 142.4 141.9 141.3 140 140.6 140 139.8 141.8 140.2 142.6 147.5 148.2 153.7 158.4 165.3 172.7 181.5 190 198.5 205.5 214.5 224.3 233.2 244.8 254.9 260.9 271.5 280.9 289.2 296.9 304.5 312.5 321.7 329.3 335.3 340.1 347.9 355 361.2 367.7 373.7 379.8 384.2 387.8 391.2 394.6 398 399.4 403.4 405.5 407.9 410.7 414.6 419.1 425.5 431.9 439.1 447.1 453.2 458.2 461.5 465 466.2 465.2 462.4 457.9 453 447.1 440.6 434.5 426.1 420.2 416.7 412.1 411.2 410.7 410.7 406.9 408.3 411.1 410.9 414.2 413.5 416.2 421.5 425.1 428.9 431.5 432.6 432.1 428.8 424.4 420.4 415 412 408.3 404.2 396.7 390.3 383.7 377.3 370.5 364.5 359.8 358.7 356.6 354.4 351.9 348.9 345.3 342.1 339.3 336.6 333.8 332.3 330 328.8 325.5 325.9 323.6 320.8 318 313.5 313.5 312.4 308.9 309.2 309 306.5 302.2 300.5 297.8 295 294.7 292.7 286.2 288 287.8 286.6 286.8 285.8 282.9 280.4 279.9 280.4 279.9 276.1 275.8 271.1 269.8 272.8 272.2 271 269.6 268.2 266.8 273.3 267.2 273.3 278.2 283.4 288.8 294.7 301.4 306.4 311 318.2 326.5 334 341.8 348.9 352.7 356.4 359.6 363.2 371.2 377.5 384.3 393.2 399.8 403.2 406.3 405.7 404.3 405.3 402.6 403.1 402.7
202.9 203 200.3 193.1 186.8 182.4 177.7 172.6 167.3 163 153.9 147.5 143.2 141.9 141 140.2 139.9 140.1 139.4 139.1 138.3 139.9 138.7 140.2 145 150.2 154.2 160.5 167.8 177.8 184.9 186.7 201.6 210.2 219.2 232.4 242.2 251.5 261.2 269.9 278.7 289.2 300.8 308.6 315.9 323.4 330 334.6 341.3 347.9 354.3 360.5 366.5 370.9 376.6 380.4 385.9 389.2 392.3 396 397.9 400.9 404 406.1 409.4 412.1 416.3 422 428.1 435.4 442.1 448 453.1 455.9 458.3 458.2 456.4 452.5 448 443.3 437.8 431.9 424.4 419.2 414.6 412.1 413.4 410.5 410 409.2 412.1 413.6 415.3 418 419.2 422.3 427.7 432.1 435.4 438 439.6 439.1 436.8 432.5 426.6 422.3 419.2 415 410 402.6 394.1 386.6 378.8 372.3 367 361.3 356.2 353.9 350.3 347.6 346.9 344.4 341.8 339 337.1 335.3 332.9 330.1 330.5 329 327.2 323.7 321 317.5 316.6 315.6 314.4 312.1 312.7 310.8 308.7 306.4 305.2 303.2 299.6 298.5 293.7 293.4 292.1 291.9 292.3 293.6 292.7 289.8 287.7 286.2 284.6 283.9 283.7 282.1 274.6 278 278.8 276.2 273 272.8 272.5 270.1 271.9 270.2 272.3 277.8 282.6 289.5 296.8 300.8 305 309.9 317 325.4 333 341.5 348.7 355.4 361.4 365.8 369.7 375.3 383.3 392.5 402.8 412.2 419.9 422.4 422.3 416.4 411.9 412.1 404.6 400.1
209.4 209.1 205.3 202.4 195.4 190.6 186.9 183.5 178.3 173.6 167.1 160.6 152.7 146.8 142.8 141.3 140.6 139 139.5 139.4 138.3 137.3 141.8 137.4 138.1 141 144.6 150 157.7 164.8 168.4 177.5 185.2 195.7 205.5 217.4 225.9 237.9 245.7 255.6 270.2 282.5 292.5 299.8 307.5 315.5 322.6 328.7 334.4 340.6 346.3 352.1 357.3 362.3 366.4 372.9 377.4 381.6 384.5 387.6 390.7 393 395.6 398.4 402.9 405.5 409.4 413.1 419.4 425.3 432.2 438.4 443.3 447.4 449.5 449.4 448.1 445.4 441.6 436.1 431.1 426.5 420.9 416.1 415.1 413.7 410.7 410.7 410 412.9 416.6 416.3 419.4 419.5 423.8 428.9 433.6 436.9 438.9 441.7 442.1 443.1 440.5 437.1 432.5 427.8 423.3 419.2 413.7 405.6 399 390.2 382.6 374.6 367.8 361.2 355.9 353.5 351.2 348.3 345.5 342.7 340.6 337.1 336.7 333.4 333.5 332.3 329.9 330.5 327.9 325.9 323.2 321.7 320 318.8 317.3 316.2 314.9 312.6 310.4 309.4 306.5 305.3 303.6 299.5 298.4 297 297 297.3 298.5 299.4 299 296.3 294 292.9 290.4 293.1 290.8 279.9 283.5 284.5 282.5 277.3 277.8 277.7 275.5 274 274.3 274.7 272.3 278.6 283.2 289.1 295.3 300.2 303.5 308.2 314 322.5 331 339.6 348.8 358 364.8 369.9 375.2 380.5 387.7 395.5 408.9 420.8 424.6 425.7 424.7 423.5 417.1 408.7 405.3 400.7
217.5 216.3 214.3 213.3 206.9 203.8 198.8 193.5 191.8 187.4 181 173.2 165 160 152.3 146.7 143.4 140 138.8 138.9 138 137.9 137.1 136.7 136.5 135.6 139.4 141.8 149.8 154.2 160 164.2 171.6 178.8 189.6 198.9 211.1 221.4 233.7 246.5 258.3 270.1 280 289 297.1 304.9 312.3 319.5 325.9 331.8 337.5 343.2 347.9 352.1 356.4 362.7 367.6 371.1 375.5 380.1 383 385 389.1 391.8 394.3 399.2 401.6 405.1 410.7 416 421.3 426.9 433.8 438.4 442.2 443.3 441.6 439.2 435.8 430.9 427 422.6 418.5 412.3 412.7 409.8 409.1 409.8 411.5 415.5 416.5 417 422.2 423.4 427.6 431.8 436.3 439 442.2 444.1 446.2 445.8 444.3 440.8 434.9 431.3 426.8 423 417.1 409.9 401.5 393.2 385.2 377.1 370.5 363.9 358.9 353.6 350.9 348.8 346 342.7 339.6 336.6 337.5 334.9 333.6 332.4 331.8 331.6 330.5 325.6 326.3 324.3 322.9 322.4 321.4 319.2 317.6 314.6 312 311 309.2 307.6 304.9 297.7 302.4 302.2 301.3 302.7 303.6 304.6 304.3 302.9 300 298.7 296.8 297.5 293.2 285.8 292.7 291 286.5 287.7 286.2 281.4 278.4 278 278.2 278.6 276.7 278 282.6 287.3 290.7 294.8 300.6 306.3 312.2 320.3 328.5 337.2 348.5 357.1 364.6 370.7 375.1 380 385.2 393.3 406.4 417 421 420.8 418.1 415.6 412.1 408.4 404.5 399.6
227.2 225.6 224.4 224.6 219.1 214.9 213.4 207.1 202.1 199.3 194.4 187.6 180.1 174.3 166.2 159 150.5 145.7 141.3 137.7 137.7 137.5 137.6 137.4 136.2 135.4 135.9 137.1 140.9 144.9 147 154.3 161.9 167.7 177.4 184.6 196.9 210.4 222.6 232.5 243.9 254.3 264.6 274.3 282.8 292.1 301.4 309.2 315.8 322.2 327.9 332.9 337.4 341.6 346.3 351.3 356.3 360.9 365.7 370 373.1 376.9 380.8 382.8 387.9 391.3 393.4 397.7 402.8 407.1 412.1 416.7 423.4 427.4 432.5 435.1 435 432.9 430.8 427.7 422.9 419 415.4 410.9 408.3 407.5 409 410.4 412.4 415.3 416.3 420.8 422.5 425.4 428.9 434 437.7 441.2 445.3 447.6 449 449.3 446.8 443 438.4 432.2 426.4 421.8 416.6 410.1 402.7 393.4 386.2 379 372.4 366.1 359.8 354.7 351.2 346.8 345.1 341.8 337.8 338.7 337.6 336.4 335.6 334.1 334.1 332.6 331.6 328.2 328.2 327.2 325.9 323.9 323.8 322 320 316.4 315.5 313.8 311.2 309 305 301 305.4 306.8 307.3 307.4 308.2 309.2 308.1 306.3 305.6 302.7 302.6 302.2 296.1 294.5 298.6 297.3 295.5 293.2 289.4 286.2 284.3 283.4 284.4 284.2 281.6 280 281.9 285.2 287.1 291.2 296.6 303.9 309.7 317.7 325.7 334.4 344.9 354.8 363.2 370 375.8 381.6 387 392.6 400.4 408.7 412.4 414.2 413.5 411.5 410.7 407.7 403.2 400.4
232.9 232.8 232.3 233 229.5 225.5 222.4 217.6 213.2 210.7 207.5 201.2 193.5 187.3 180.5 172.1 162 154.9 150 139.7 137.8 137 137.3 137 136.7 136.1 136 135.3 137.5 140.4 140.1 148.8 151.8 160.7 169 173.5 183.4 195.6 206.9 219.5 229.8 241.5 251 262.2 271.9 281.3 289.8 297.8 305 311.2 316.9 321.8 326.5 331 334.5 339.4 345.9 349.2 352.1 357 362.4 367.4 370.9 374.3 378.6 382.3 386.8 390.6 394 399.1 404.1 408.3 413.7 418.6 422.9 424.7 426 424.7 424 421.3 417.1 413.7 409.3 407.1 407.7 408.7 408.9 410.1 415.1 416.5 419.1 422.9 425.6 428.7 431.4 435.8 440.6 444.4 448 451.5 452.6 452.7 449.3 445.8 441.3 435.9 430.1 425.3 416.9 409.8 401.2 393.8 385.9 378.9 372.8 367.2 360.6 355.8 351.2 348.7 344.7 344.4 342.2 339.3 339.6 338.5 338 336.8 337.2 336 333.7 332.5 332.2 330.9 329.1 327.6 326.2 323.6 320.8 320 318.2 315.2 314.3 311.5 309.7 306.9 308.4 309.9 311.1 311.8 312.2 312.5 311.6 310.1 308.9 307.5 307.5 305 303.1 300.3 303.4 303.4 301.3 299.9 298.7 297.5 295.8 293.2 291.6 291.3 288.5 286.4 286.1 285 288.2 291.4 295.9 302.8 309.2 314.1 321.7 329.2 337.8 349.7 359.8 366.9 373.1 378.9 384.2 391.7 401.2 407.3 413.7 414.2 418.8 420.3 417.6 413.8 410.8 408
240 240.1 240.4 238.3 235.8 234.8 232.7 228.7 225.9 222.2 220 213.3 205.6 198.9 191.9 184.3 176.5 166.4 157.2 146.2 138.7 136.3 136.9 136.6 136.5 136.1 135.1 135.4 134.9 136.1 137.2 141.2 144.1 151.6 158.1 168.3 173.8 184.3 195 207.4 215.7 225.9 236.3 247.9 258.3 269.1 278.3 286.1 294.3 301.6 308.3 312.7 317.7 322.1 325.8 330.3 335.4 337.6 341.6 346 349.9 354.1 359.3 365.2 369.2 373.6 377.7 382.2 386.1 391.2 395.7 401.3 407.1 411.6 415.8 417.7 419.8 418.9 418.2 417.9 415.9 412.2 407.7 405.5 406 405.7 410.1 412.3 417.2 418.9 422 425.4 427.3 429.9 433.4 436.5 442.6 446.6 450 453.9 456.3 454.6 452.3 450.2 446.9 443.4 438.5 432 423.7 415.1 404.4 395.3 386.4 378.8 373.3 368.3 362.3 357 352.8 349.1 347.5 345.4 342.9 341.7 340.3 339.3 339.6 339.8 339.7 338.3 335.9 337.4 336.7 335 333.7 331.8 328.5 325.3 323.1 320.9 317.5 317.5 315.7 313.7 312.4 310.1 309.6 312.9 314.1 315.1 315.6 315.4 314.2 313.2 310.6 311.7 312 304.3 305.4 305.8 307.8 307.3 307.6 306.9 306.9 306.3 305.5 303.9 302.5 298.8 293.6 288.6 287.7 288.5 290.9 294.1 296.1 303 309.6 315 320.1 326.5 335.9 347.6 360 368.6 377.9 383.3 387.8 397.7 408 412.9 418.3 420.5 421.7 419.6 420.8 422.4 421.7 419.3
249.2 248.8 248.7 246.4 244.3 243 240.1 238.3 236.1 232 228.1 221.7 213.4 211.8 205 194.7 186.8 178.6 169 160.6 151.2 140.3 136.1 136.3 136.2 135.8 134.5 134.4 134.4 134.2 135.1 135.4 138.1 143.4 149.3 162 161.1 170.8 182 192.8 205.3 215.1 226.3 237.4 247.7 257.8 267.4 276.2 285 294 300.6 305.9 310.9 314.6 318.8 322.8 327 329.4 333.4 337.1 341.1 344.9 349.1 352.2 358.6 361.9 370.8 375.1 381.5 388.4 394.5 399 404.3 409.5 413 414.9 416.3 415.8 414.8 414.6 412 409.3 405.4 403.3 403.9 406.8 409.2 414.2 415 418.6 422.5 426.2 427.8 429.8 433.3 437.8 443.5 447.6 451.1 454.3 455.3 454.6 454.2 453.4 452.3 448 442.2 436.1 428.2 418.9 410.1 399 390.5 383.9 376.7 370.3 364.4 358.5 355.4 350.7 348.2 345.3 344.3 342.5 341.8 341.6 341.6 340.9 341.7 339.8 338.9 340.1 340 339.2 337.8 335.1 331.3 327.2 324.5 321.4 319.9 318.1 316.2 314.7 311.9 313.2 314.6 315.6 317.2 318.3 318.8 317.8 316.5 315.2 313.1 315.1 314 309.2 310.2 310.1 311.1 311.2 311.9 314.3 313.4 313.7 313.2 311.3 309.2 303.2 296.9 291.5 292 293.7 293.5 295.3 296.8 301.8 308.4 315 320.6 326.3 332.9 341.8 353.5 366.2 375.8 383.8 394.8 401.1 412.1 419.2 424.4 426.4 424.3 423.1 419.3 419.3 419.3 425.2
259.6 257 256.9 255.3 253 250.5 247.6 245.7 243 238.5 233.2 226.8 220.9 217 209.7 203.5 195.8 188.3 180 172.4 165.8 156.6 145.1 137.5 136 135.4 134.8 134.1 134.1 134.1 134 134.3 136.8 139.7 139.8 147.3 152.1 159.5 167.9 179.8 189.3 201.3 212.4 224.3 236.6 245.3 256.2 265.4 274.6 282.7 290.5 298.5 304.5 309.2 314.2 317.7 320.7 323.1 326.9 330 334 338 339.3 347.6 354.6 361.1 368 375 381.1 387.4 392.6 397.6 402.6 407.2 410.7 412.5 413.4 413.4 412.6 410.1 409 406.4 403.2 399.7 402.6 404 407.2 409.2 414.1 418 421.6 425 427.3 430.2 432.8 437 442.1 446.7 449.9 452.9 455.2 454.1 454.8 455 454 451.9 447 440 432 424.2 414.6 404.9 394.9 386.9 380.6 373.5 367.4 362.5 358.2 353.6 349.4 348.2 344.9 345.2 344.2 343.5 343.1 342.2 342.4 341.6 341.7 341.5 341.5 340.3 338.9 336.7 333.4 329.1 325.6 323.9 320.9 318.5 318.8 316.3 315.1 316.8 317.6 319 320.3 321.1 321.2 320.1 318.9 316.9 316 317 313.3 313.2 311.9 312.8 313.8 315.6 317.1 319.3 320.3 320.4 319 315.1 311.4 306.2 300 298.2 297.1 296.8 295.7 297.1 298 301.9 308.2 314.5 320.8 325.5 331.8 339.5 348.7 358.3 369.8 381.3 392.9 404.3 416 423.6 439.7 450.1 443 432.9 425.9 428.5 432.5 433.3
268.1 265.7 264.2 264.7 263.4 261 258.8 255.6 250.8 243.5 238.1 232 226.9 222.3 218.2 212.6 205.3 197.9 191.6 185.3 178.5 168.9 160.5 150.9 140.5 135.5 134.5 133.8 133.5 133.2 133.3 133.4 133.8 135.8 136.2 141.6 145 153.1 160.4 168.9 178.5 189.7 199.8 212.6 223.4 234.2 244.7 253.9 262.6 272.1 281.4 290.3 297.3 303.1 309.3 314 318.4 321.4 324.5 326.9 329 334.4 342.2 346.4 352.3 358.2 364.4 370.7 376.6 383 389.2 394.1 398.9 403 406.5 408.7 409.9 409.9 409.4 408.5 406.2 402.4 398.4 400.5 399 401.1 403.1 408 410.3 414.5 419.1 422.9 425 428.2 431.1 435.6 440.1 445.2 448.1 449.4 450.9 453.8 454.3 456.3 457 455 450.4 445 439.1 430.2 420.3 411.4 400.7 391.9 383.4 376.8 371.4 365.1 361.3 356.1 353.2 351.5 349.4 348 345.9 345.4 344.6 343.9 343.5 342.4 343.2 342.4 341.1 340.4 339.2 336.7 333 331.7 329 326 323.5 322.6 320.2 318.3 319.8 318.8 319.5 321.1 322.4 322.5 322.5 321.6 319.9 318.4 319 318.7 315.3 313.7 313.3 314.4 317.1 319.8 323 324.6 325 324 322.3 317.7 313.9 309.7 303.8 303 301.6 297.1 296.6 297.8 300.8 303 307.7 314 320.6 326 331.9 338.4 346.8 357.2 366.8 377 386.1 399.4 424.8 437.6 447.8 457.4 457.1 447 436.3 437.1 443.1 447.3
273.5 272.4 270.9 270.3 269 268.8 266.3 262.4 258.1 253.3 246.7 239.4 236.4 230.6 225.1 220.2 214.8 208.4 200.4 193.4 187 178.8 170.1 164 158.4 145.4 136.7 134.2 134.1 134.2 133.4 133.2 133 133.7 134.6 135 139.6 150.2 152.7 160 169.5 179.7 189.4 200.3 211.5 223 232.5 242.2 252 262.3 271.7 279.9 288.7 297 303.4 309.2 314.5 318.6 322.5 325.5 330.1 334.8 339.6 345 349.8 355.5 361.4 367.3 372.3 377.6 383.9 389.5 394 397.8 400.8 403.2 404.9 405.5 405.6 405.5 403.5 400.2 395.9 396.3 397.2 395.6 398.9 403.4 407 410.3 415.7 419.4 422.9 425.8 428.7 432.5 437.6 441.7 445 447.3 449.5 451.2 454.7 456.7 458.4 456.4 452.4 448.8 443.5 436 428.2 418.8 408.5 398.6 388.6 381.4 374.2 369.7 364.5 359.4 357.5 354.4 353.5 351.5 348.7 347.3 346.6 346.6 345.7 344.9 344.4 344.3 343 341.2 338.4 336.6 336.1 334.8 331.8 328.7 326.6 323.6 323.8 322.3 323.3 321.8 322.8 323 323.3 323.6 323.2 321.8 319 320.4 321.1 319.3 315.5 316 315.9 316.5 318.6 322.5 325.9 329.2 329.6 328.7 325.2 321.4 317.9 312.7 306.3 304.6 299 299.5 298.6 301.5 305.2 307.6 309.5 314 320.5 327.4 333.7 340.6 348.2 357.5 369.1 378.9 386 401.6 429 439.1 447.7 456.9 461.6 457.4 450.7 450 451.1 454
278.8 277.7 276.3 275.2 274.2 273.4 269.9 267 264.4 259.8 254.6 248 241.6 237 233.4 228.4 224.1 215.8 208 200.9 194.4 187.3 179.2 172.5 166.5 157 144.2 137.9 134.2 133.9 133.9 132.5 132.8 133.2 133.9 133.9 134.5 145.1 143.4 151.8 159.6 169.8 179.4 188.6 199 210.4 220.3 231.3 242.1 252.5 261.5 269.6 278.7 287.7 294.1 301.4 307.1 308.3 317.8 322.7 327.4 331.5 336.4 341.5 347.7 353.5 358.3 362.8 368 372.8 378.7 384.3 388.7 392.2 394.5 397.5 398.6 399.7 401.1 401.3 400.3 396.3 392.1 393.1 393.7 391.8 395.4 399.3 401.5 407.6 411.9 414.5 416.4 422.2 425.6 428.3 433.1 438.2 441.5 444.2 446.6 449 453.3 456.4 457.5 455.5 453.6 449.5 444.8 439.6 433 424.3 415.5 405.9 396.8 387.7 380 373.3 366.9 363.1 359.9 357.7 355 353.9 353 351.7 350.1 348.5 347.9 347.5 347 345.5 344.5 341.3 340.6 338.6 338.3 337 333.8 331.9 328.8 326.5 326.2 325.3 325.1 325.3 325.9 325.8 325.6 325.5 323.9 321.1 320.7 320.1 321.8 317.8 317.1 318.1 317.8 318.4 320.1 323.3 326.7 330.9 332.6 331.3 331.1 328.7 324.8 317.8 307.9 301.5 301.2 301.3 299.4 302.8 308.5 311 314.3 317.6 322.3 327.1 334.6 342.8 352.8 364 373.2 384.9 396 406.8 427.7 441.2 445.5 454.1 462.1 462.3 460.5 460 462.2 458.3
284.1 283.1 281.7 280.6 278.4 277.3 276.3 273.3 269.2 264.1 259.2 256.2 250 243.6 241.2 235.5 230.4 226 219.1 210.1 201.6 193.9 188.5 180 174.3 164.4 153.4 145 139.9 134.9 133.2 133.3 132.6 131.7 133.1 132.7 133.6 134 135.8 143 155.4 159.1 170.1 182.1 191.4 200.7 210.6 221.3 232.5 242 250.8 260.3 268.9 277.5 285.8 292.2 297.2 306.2 311.6 317.4 321.5 326.8 331.4 336.8 341.2 348.4 352.9 358.1 362.4 367.3 373 377.9 383.1 386.6 388.7 389.9 391.2 392.2 393.9 394 393 390.9 388.9 389.9 389.4 389.2 390.9 395.8 399.5 404.1 407.3 409.5 414.2 417.5 421.5 423.8 428.1 433.3 437.1 439.5 444 447.9 451.1 453.5 455.4 454.7 452.2 448.8 445.3 440.8 435.9 429.3 422.8 414.7 406.8 397.3 389.7 381.2 373.6 368.8 363.6 360.6 357.6 355.9 356.4 354.4 353.5 351 350.5 350.5 350 348 345.1 344.3 342.1 341.8 339.9 336.9 336.2 334.4 331.3 329.5 328.5 326.3 327.8 327.9 328.1 328.4 328.6 327.6 324.5 324.5 322.7 322.5 321.4 318.5 319 318.7 317.8 320.5 322.2 325.6 328.2 331.1 333 333.6 332.5 330.9 326.7 318.8 311.3 305.3 305.7 303.6 306.6 305.4 306.8 311.9 315.8 320.7 325.5 329.5 336.8 345.6 357 368.5 381.3 392.6 403.1 412.3 425.6 438.6 448.9 455.9 461.2 464 463.3 461.6 460.8 458.3
286.3 287.1 287.1 285.7 282.1 280.1 278.7 276.6 273.5 268.1 263.3 259.5 256.5 252.3 248.1 241.8 236.3 231.8 226.5 220.8 212.5 202.8 195.8 188.5 180.9 171.3 159.6 151.2 146.1 142.7 136 132.7 131.9 131.3 132.2 133.1 132.8 133.2 137.6 140.4 142.9 152.3 163.2 173.8 182.1 194.6 203.1 213.1 223.3 231.3 242.7 252 260.6 269.2 276.1 283.5 290.8 297.6 304.6 310.5 315.8 319.5 326.8 331.7 336.4 340.2 345.2 350.2 355.3 360.7 366.3 372 376.9 380.9 383.3 384.5 385.2 386.7 387.7 387.4 387.5 385.8 383.2 384.9 386.5 389 390.2 394.5 397.8 401.5 404.8 408.1 411.9 415.8 419 421.1 424.8 427.8 431.8 436.5 439.3 445.6 448.9 451.4 453.4 453.8 452.9 449.5 445.2 441 437.1 431.6 425.1 418.4 410.6 402.5 395.1 388.2 381.6 375.6 369.8 365.5 362.7 359.9 359.1 357.7 356 354.1 353.9 352.8 352 350.3 347.7 346.4 345.2 343.7 341.8 339.7 338 335.1 334.9 332.8 330.8 328.5 330 329.6 330.4 330.7 331.4 329.8 328.5 327.2 325.7 324.6 323 320.2 320.6 320 319.3 321.6 324.3 327.8 330 331.6 333.4 334 333.5 332.7 328.1 321.9 315.7 309.8 307.5 308.3 307.2 307.5 310.5 312.2 315.5 322.4 327.6 334.4 340.9 348.2 359 368.8 380.9 396.9 408.1 417 430.3 439.8 447.8 453.3 455 456.5 456.6 455.4 458.5 461.6
288.8 288.6 288.1 287.4 284 281 278.9 276 274.9 271.8 266.1 259.8 257.8 255.2 251 247 241.4 235.7 230.5 225.4 220.3 213.3 203.6 196.9 187.2 172.9 163.4 158.1 152.3 148.2 143.7 135.8 132.9 132.9 132.3 130.6 132.6 132.6 133.8 133.4 136.6 149 157.4 166.6 177.5 187.3 196.8 206.8 215.5 222.3 231.4 240.9 249.4 256.7 260.5 274.8 280.5 286.8 294.2 300.9 308 313.7 320.6 325.1 330.1 332.9 338.3 343.3 348.2 353 359.1 364.3 369.7 373.8 376.6 378.7 379.2 381.2 383.2 384.1 383.3 381.4 379.8 383.4 386.4 384.3 388.8 390.3 394 399.9 401.9 405.9 410.2 412.6 416.3 418.5 421.7 424.7 427.6 431.8 436 440.9 445 449 452.7 453 451.3 447.8 444.1 440.3 436.2 431.7 424.3 418 411.3 404.3 397.4 391 384.1 379.4 374.4 371.4 366.5 364.3 362 360.8 358.2 357.7 357.4 355.6 355.1 350.9 349.6 348.2 347.5 344.3 343.5 341.1 338.3 336.7 336.7 334.7 331.7 330 331.6 332.1 332.9 333.1 334.1 332.4 331.5 328.5 328.7 328.4 326 324 323.3 321.2 322.1 322.7 325.2 328.2 330.1 331.6 333.3 334.7 334.5 334.4 331.7 327 321.3 319.4 319.4 312.8 306.7 305.5 312.3 316.4 318.7 324.2 331.5 338.7 348.6 356.5 362.4 370.3 381.2 394.1 406.7 419.8 429.5 436.7 440 443.8 448 450.2 452.4 453.7 459.1 461.2
289.5 289.2 288.8 288.4 285.4 282 279 275.7 273.3 270.3 265 261.1 258.2 255.3 253.9 250 244.3 239.4 233.7 229.1 222.7 214.4 209.4 203.5 194.2 185.2 172.5 163.2 156.1 152.8 150.7 146.7 138.8 134.1 132.6 131.3 132.8 130.8 132.1 132.2 135.5 142.1 152.9 158.9 169.9 179.1 189 197 205.5 216.2 224 231.9 243.1 249.9 258.7 265.1 272.7 279.6 287.6 294 299.3 310.8 316.9 319.7 323.5 326.5 330.5 335.4 339.7 344.2 350.2 356.2 360.5 364.9 367.9 371.5 373.4 376.8 379.5 380.2 378.9 376.5 378.2 381.7 382.5 381.9 384.8 388.5 393 394 398.5 403.6 405 410.3 412.9 416.9 419.1 420.6 423.4 425.9 431.7 435.7 440.3 444.9 449.5 450.4 448.6 445.9 442.2 438.6 433.9 428.1 422.8 416.7 410.8 404.1 398.1 392.3 386.6 381.3 378 374.7 371.4 368.7 366.1 364.7 362 360.6 360.9 359.4 356.5 355.2 353.1 351.2 348.2 346.8 344.4 343 340.3 340.4 339.4 334.9 334.5 333.4 333.2 335.2 336.2 335.3 336.2 335.7 334.9 333.9 332.1 330.9 330.6 329.4 329.4 327.6 326.3 324.6 325.5 326.5 326.8 327.8 329.8 331 332.1 331.9 332 330.6 325.5 319.4 317.8 312 303.9 308.2 315.2 316.6 323.7 329.4 335.8 343.9 353.7 361.4 368 374.4 382.6 389.8 402 411.3 422.1 426.5 430.7 433.9 441.7 445.8 449.6 449.9 449.9 450.2
288.4 287.9 287.3 286.2 283.9 281.1 278.4 275.1 271.8 269 265.7 262.7 258.8 254 251.9 250.3 244.1 238.9 234.1 229.6 224.1 217 211.2 206.4 199.3 193.4 181.9 173.1 162.9 157 155.7 145.8 141.4 140 133 132.2 131.5 132.2 132.3 131.9 134.7 139.7 147.4 154.1 161.9 171.6 183.4 190.3 196.3 204.9 216.7 225.4 232.9 243 250.6 259.8 267 273.4 278.8 284.3 290.8 299.2 308.3 314.1 318.3 320.4 323.6 325.7 329.6 334.7 341.2 347.5 351.4 356.6 360.1 363.6 366.2 369.1 373.3 374.4 373.5 371.8 375.1 378.1 377.9 379.4 382.6 388.4 387.4 390.2 395.4 399.8 402.8 406.8 409.3 413.4 415.1 417.8 420.6 422.6 426.8 431.3 435.8 440.2 444.4 445.7 445.2 442.9 439.5 436.7 432.3 427.5 422.5 415.6 409.7 403.8 397.9 391.5 386.8 382.9 379.6 376.9 374.6 371.4 369.2 367.1 365.9 364.5 362.7 361 358.3 358.1 356.3 352.9 351 349.2 346.6 346.5 343 343 342.7 338.7 337 336.8 336.5 336.6 339.2 338.7 340 340 338.8 337.1 335.1 333.8 333.9 333.9 334.7 332.9 329.8 328.1 327.7 327.1 325.4 324.7 324.7 325.1 327.7 327.6 326.2 325.5 325 317 309.7 303.8 300.5 304.2 319.3 319.5 323.2 331.4 341.5 349.1 357.4 363.4 369.7 377.2 385 391.3 392.8 402.3 409.8 416.8 422.4 428.4 436.6 442.4 442.7 443.2 444.1 442.1
287.2 286.3 285.5 283.6 280.9 277.9 275.5 273.5 271.6 268.5 265.6 261.6 256.2 251.4 248.3 245.6 241.6 237.1 232.9 228.7 225.1 220.1 213.4 207.6 201.9 197.6 189.1 179.1 167.9 158.9 156 147.7 144 142.5 139.3 132.3 132.1 132.1 132.5 133 134 139.1 146.7 152.1 159.7 166.3 171.9 181.7 190.5 200.9 209 216.7 226.4 234 240.5 251 259 265.8 271.8 277 282.1 291 301 310.8 315.2 316.3 316.1 317.4 320 324.1 329 334.8 341.2 346.9 351.1 356.1 360.2 362.8 366.2 367.3 367 367.7 370.1 372 372.6 374.4 377.7 380.8 381.6 386 391.8 393.8 397.1 400.5 404.9 407.7 411.1 413.8 416.6 418.5 422.4 426.8 430.7 435.2 438.1 440.1 439.5 436.9 434.1 431.3 427.8 423.4 420.1 414 408.4 403.4 397.6 392.3 387.4 382.5 380.3 378 376.2 373.9 371.5 369 368.4 366.9 364.5 362.9 361.5 360.6 359 356.1 355.1 352.9 349.7 348 345.9 347.1 345 343.8 342.5 342.3 340.4 341.3 342.2 344.2 345.1 345.4 345 343 341.7 339.5 337.8 339 339 336 332.9 331.7 329.5 328.5 326.9 324.4 323.6 321.9 322.1 322 321 320.6 319.1 313.6 305.1 299.9 293.7 296.4 302.9 311.1 321.6 331.8 342.4 356.2 361.4 364.7 367.7 373 379.3 383.8 388.4 394 401.6 411.5 419.6 427.2 432.5 435.8 437.1 438.4 438.1 436.3
285.6 284.7 282.9 280.9 279.1 277.8 275.8 274 272.1 268.2 263.9 260.5 254.9 249.6 246.2 242.4 236.6 232.7 230.1 227.1 225.2 220.9 216.8 210.3 205.5 198.7 193.8 187.4 174.8 162.7 155.3 149.9 147 142.5 135.9 131.5 132.4 130.1 132 133 135 136.9 141.5 147.8 153 160.5 168.8 177.2 184 194.8 201.6 210.5 218.2 228.4 236.8 245.7 253 258.7 265.5 270.6 274.6 283.6 290.1 298.6 308.7 309.1 308.3 309.7 312 315 318.9 323.2 329.6 335.2 342.6 347.7 352.1 357.2 359.4 360.1 362.4 364.4 365.8 364.7 365.4 370.7 372.9 374.4 377.8 380.9 386.3 386.6 389.2 394.5 399.4 403.1 405.1 408.8 411.4 414 416.7 421.5 425.5 429.5 432.7 433.4 433 432.8 430.2 427.8 423.3 418.3 415.1 411.8 406.5 402 397.2 391.9 387.7 383 380.5 377.1 377.1 374 372.3 371 370 368.3 366 365.3 364.3 362.8 359.7 358.8 357.6 354.9 353 349.9 349.3 350.9 350.4 351.1 351.7 352.1 350 348.7 349.7 351.3 351.5 351.7 351.9 350.1 348.5 347 344.5 343.7 341.6 338.2 337 336.6 335.1 333.4 329.9 326.2 324.9 322.9 319.1 317.1 314.5 314.9 314.2 304.7 298.6 293.8 290.4 287.8 289 298.7 315.5 327.4 338.5 350.7 357.5 362 366.8 369.4 373.5 377.6 381.9 389.5 399.9 406.4 415.5 420.8 427.1 429.4 428.9 430.4 431.7 430.4
283.5 283 282 280.3 279 277.5 275.2 272.9 270.4 267.4 261.9 259.6 254.9 249.5 246 240.3 236.7 231.6 228 224.3 222.5 218.5 215 209.5 205.1 200.2 194 188.8 181.8 168.6 162.4 159.9 154.5 147.1 139.3 132.8 132 132 132.3 133 134 137 140.2 145.1 152.1 156.7 166.7 173.8 181.1 187 196.1 201.4 212.3 218 225.6 235.3 241.2 252.5 257.9 263.7 268.3 275.2 282.5 287.2 293.2 295.7 299.7 302.1 304.8 306.6 309.9 313.5 319.3 325.3 332.7 338.8 344.3 347.9 351.6 355.4 357.4 359.5 361.5 360.7 362.6 366.3 366.8 371.1 375.7 378 380.1 381.1 384.5 386.8 390.5 393.7 398.1 402.7 405.2 408.5 413.9 417.2 421.4 424.7 427.4 428.1 429.6 428.8 427.4 425.4 420.5 416.4 413.3 409.1 405.3 400.1 394.6 390.5 386.8 383.8 381.7 378.9 377.1 375.5 373.4 370.9 368.6 369 366.4 367 365.5 362.7 362.4 360.4 359.4 358.2 358.2 357.9 355 355.3 355 360.5 364.6 365 365.3 365.4 364.1 362.9 364.5 364 363.5 363 358.8 355.3 349.2 346.6 343.1 341.1 340.1 339.4 338.2 335.8 333.5 329.2 325.4 322.2 319.2 317.5 310.5 310.3 304.4 300 293.8 292 289 288.1 284.9 292.1 305.6 308.1 316.1 326.4 333.9 344.4 359.1 363.1 365.2 371.6 376 384.2 395 401 405.5 413.1 417.8 420 418.6 418.3 419.3 424.2
282.6 281.3 281.1 279.4 278.4 276.1 273.9 272.1 269.6 266.5 260 256.3 253.2 249 244.1 239.5 236.7 232.8 228.8 225.2 221.3 216.6 213.9 207 204 200.5 196.1 190.6 181.8 175.2 171.3 166.6 158.8 152 143.9 135.6 134.8 133.2 131.5 131.6 132.1 135.8 138.3 142 146.4 153.7 162.5 170 175.6 183 189.9 198.1 203.8 211.4 218.9 224.9 234.8 243 249.8 258.2 263 269.1 275.2 276.1 279.5 282 287.5 292.1 295 297.1 302.6 306.7 310.2 314.3 321.8 328.7 334.8 341 345 349 351.9 354.1 356.2 356.2 359.6 363.6 367.1 370.5 375.2 377.2 378 378.2 381.7 383.4 386 389.7 390.9 395.4 400.5 405.2 409.7 413.6 416.5 420.1 421.5 423.4 424.8 424 423.4 421.4 418.7 415.2 411.9 408.2 405.1 400.6 394.6 391.7 389.1 385.2 382.7 380 378.4 375.7 374.9 374.1 372.6 369.8 369.5 368 367 365.5 364.8 363.2 363.8 362.5 362.3 362.2 360.6 360 365.8 372.8 375.8 378.8 380.9 381.3 381 380.7 379.2 377.9 375.6 375.7 373.5 367.4 360.2 350.7 346.3 345.1 346.2 343.9 338.6 334.8 331.6 329.3 327 324 319.3 315.9 313.5 314.4 310.8 305.6 300.9 298.7 294.2 289.8 284.7 282.9 285.9 291.8 297.8 305.7 312.1 319.5 332.9 346.2 349.2 354.9 357.8 371.1 379.2 386.5 390.3 397.2 403.6 402.5 406.6 407.2 409.8 420.2
283.5 283.1 280.4 278.9 276.1 273.8 271.3 270.4 268.7 266.1 259 254.6 251.7 249 242.7 238.7 235.3 230 226.5 222.6 215.7 215.1 212.4 205.1 199.2 193.5 188.9 186.4 180.5 174.6 170.7 166.8 157.9 149.6 145.2 138.2 134.7 132.5 131.7 132.3 131.4 133.7 134 139.4 146.4 152.7 159.1 165.6 171.1 177.2 184 190.1 196.9 204.1 211.4 219.1 226.3 232.5 241.1 249.4 256.6 260.9 265.1 267.2 269.9 271.8 275.7 279.1 283.6 286.7 294.6 298.1 301 303.8 309.7 317.1 323.4 331.8 338 342.4 345.2 348.5 350.4 352.4 357.8 362.6 366 369.7 372.4 373.9 375 376.1 375.6 377.2 376.8 383.2 388.5 393.1 393.6 398.4 403.5 407.2 411.2 414.5 417 417.9 419.6 418.6 418.1 416.6 414.4 412.8 410.2 406.9 404.2 400.6 397.1 393.3 390.6 386.8 383.9 382.2 379.9 378.6 377.9 375.2 375.3 372.5 371.1 371 369.4 368.5 367.1 366.3 368 367.7 366.9 366.9 366.5 371.5 380.4 386 392.5 395.8 399.3 405.3 405.8 405.6 401.6 396.5 394.2 390.7 386.6 383.5 378.4 370.4 359 352.3 351.2 350.8 346.2 339.9 331.6 329.4 326.9 323.5 320.5 318.9 317.5 316.1 314.5 311 308.1 307.4 301.7 292.8 286.3 284.4 280 281.5 284.7 290.8 294.1 298.8 307.5 314.6 325.4 334.7 337.8 343.7 353.7 368.2 373 375.4 380.6 379.6 384.8 389.8 400.8 408.6
285.8 283.1 281.4 279.4 275.3 271.5 269.6 268.9 267.5 265.5 262.5 257.5 250.1 246.4 242.9 237.8 230.9 233 228.5 230.1 226.3 224.4 219.8 214 207.1 200.4 193 186 181 176.8 169 165.5 157.2 151.2 144 140.6 136.9 132.7 131.2 132 131.4 131.4 132.2 137.6 147.9 149.4 154 161.5 167.2 172.3 178.6 184.1 191.2 199 207.6 214 220 226.2 233.7 240.7 248 253.2 256.2 260 263 264.9 267.9 270.4 273.8 278.2 285 289.5 292.5 295.9 302.2 308.1 315 321.9 328.4 333.5 338.3 342.8 344.5 349.1 354.9 360.6 364.8 367.7 370.8 372.7 373.2 373.3 372.6 371.8 375.1 377.1 383 384.2 388.8 393.2 397.6 402.1 405 407.9 409 410.8 412.5 412.3 412 410.5 409.5 409 406.9 404.9 402.7 400 397.1 393.9 391.4 388 386.1 383.8 381.5 380.3 379.4 377 376.9 374.2 374.2 372.5 372.2 370.4 370.5 370.1 371 372.1 374.4 377.6 380.5 384.7 391.7 400.5 407.7 414.4 420.1 425.8 428.7 427.7 425 421 415.9 410.9 403.2 399.5 391.5 384.3 377.6 372.9 364.8 357.7 352.1 346.2 340 331.8 329 326.8 326.7 324.6 321.9 319.9 318.4 317.4 315.7 315.4 307.9 299.4 295.5 288 282.1 278.2 279.4 281.1 280.9 281.8 288.2 292.1 297.5 304.8 313.6 322.7 332.4 343.4 352.4 357.3 359 357.9 363 368.9 381.5 396
286.5 284.5 282.2 280.2 276.8 272.5 270.6 268.9 264.2 264.8 260.7 254.3 249.3 245.2 242.8 234.9 245.7 245.1 241.3 238.6 234.1 229.7 224.6 219.1 212.3 205.8 198.3 191.3 185.4 178.9 172.9 166.8 161.7 153.6 146.6 142.9 140.1 137.2 132.2 132.1 131.6 131.3 131.6 135.2 143 147.7 148.4 154.8 160.6 167.3 173.5 179.7 185.9 192.7 201.3 207.3 213.6 219.5 225.5 232.5 239.5 245.4 248.4 252.4 254.8 257.3 260.3 262.9 265.9 269.1 275.5 281.3 281.2 288.3 295 301.1 308.4 313.4 319.8 323.1 330.9 338.3 341.2 344.9 351.4 357.9 362.5 365.5 369.2 371.7 370.7 370.2 368.3 370.5 370.4 372 373.4 379.7 381 386.2 391.1 394.4 397.7 400.2 401.9 403.1 403.5 405.1 405.2 404.5 405.4 404.4 403 400.9 399.7 398 396 393.5 391.3 389.9 388.2 385.7 384 382 381.1 379.6 377.9 377.9 376.8 376.7 375.3 374.7 376.8 376.1 377.2 379.3 382.7 384.5 389.6 396.6 405.7 414.7 426.3 435.1 444.1 448.8 450.1 448.5 446 442 436.9 429.9 419.7 411.1 403.6 398.7 392.2 383.3 377.5 373.2 368 356.1 349.3 342.8 336.4 331 329.3 326.4 324 322.6 321 320.2 319.4 318.3 312.8 307.3 304.5 296.5 289.3 284 273.8 277.1 277.3 273 273.5 275 281.5 286.8 292.8 298.1 310.8 326.9 333.6 333.5 339.3 340 345 350.6 362.2 375.5
292.7 290.6 285.2 279.5 275.9 273 271.9 267.8 265.4 260.3 255.8 250 247.4 245.3 242.1 252.3 252.7 249.8 248 244.8 241.1 234.5 228.7 224.4 219 211.5 203.4 197.1 187.7 180.9 175 169.7 164.5 156.8 149.8 145.3 139.8 136.5 131.7 131 131.8 131.6 131.8 131.4 136.3 143.8 146 150.8 157.9 164.5 170.1 175.5 180.7 187.5 193.9 201.1 207.4 212.9 218.5 224.4 231.2 237.5 240.9 244.8 247.1 250.4 253.9 257 259.5 262.6 265.4 270 274 279.4 285.6 294.2 300.1 305.1 309.9 320.1 326.5 330.4 337.4 342.8 348.6 355.9 361.3 364 367.4 368.2 368.4 367.5 367.7 367.1 367.3 366.5 366.5 372.5 373.4 380.7 383 386.6 387.6 390.6 393.1 395.2 396.2 397.9 398.7 399 399.3 399 398.1 396.9 395.2 394.6 393.1 391.9 389.9 389.6 388.8 388.8 386.5 384.6 384 383.2 380.9 381 380.6 380.6 380.4 380.2 381.7 382.1 383.6 386.5 390.4 392.3 398.6 406.7 418.9 428.8 443.1 456.1 465.8 472.9 475 472.4 467.4 460.2 453.6 446.9 437.7 428.1 416.7 408.9 401.5 390 379.6 375.4 371 365.5 361.3 355.1 346.4 337.7 334.2 331 328.6 326.4 324.2 323.2 322.9 323 320.7 317 309.1 302.5 296.9 291.3 283 275.1 270.2 269.2 267.2 267 270.6 274.8 278.5 280.5 295.2 308.6 313.7 314.7 316.1 321.1 326.4 333.6 348.6 365.3
305.2 295.8 287.7 280.2 276.1 272.3 266 265.2 259.3 256.3 253 251.7 250.3 247.3 254.1 256.3 254.1 253.6 253.9 252.8 246.6 240.6 236.5 230.7 225.7 219.5 213.9 206.6 197.4 189.9 182 177.2 171 162.8 153.9 148 140.8 136.4 131.2 131.3 131.8 131.8 131.8 131 131.9 135.7 141.7 147.5 154.2 159.8 164.6 169.6 176 183.2 188.6 195.6 201.2 206.7 212.2 217.8 223.4 229.6 233.3 237.2 240.5 243.9 247.5 251.1 253.6 256.1 259.2 262.5 265.9 272.7 277.3 284.5 292.1 298.9 308 314.5 319.6 325.6 333.5 340.4 348 354.4 359.8 362.1 364.1 365.7 366.6 366.2 364.3 363.2 361.6 361.8 363.4 364.4 367.8 372.6 375.2 378.7 379.2 383.6 385.5 387.7 388.7 389.5 389.5 391.4 392.5 392.2 392.4 392 390.2 389.5 388.5 388.3 386.6 387.2 388.1 388.1 386.2 386.3 386.7 385.9 385.4 384.9 385.8 386.4 387.9 389.2 389.4 390 391.4 394 397.4 400.1 409.1 423.5 435.2 447.2 460.7 473.8 485.3 491.7 492.6 490.6 486.1 478.7 468.8 462.1 455.2 443.8 431.5 421 409.4 395 382 373.3 364.6 360.7 358.5 357.3 352.1 343.9 340.6 337.8 333.1 329.7 328 327.3 325.5 325 324.4 322.7 316.8 310.3 301.3 296.1 294.6 287.6 279.8 276 267.7 261.2 262 263.1 262.7 266.1 272.5 281.7 287.9 290 290.7 300.2 307.7 317.9 332.3 344.8
314.9 305.5 292.6 285.1 272.7 268.8 266.1 262.8 260.6 259 256.6 253 253.4 254.1 259.4 260.2 255.6 257 257.1 256.5 253.1 248.9 244.7 239 233.5 226.8 221.5 215.9 209 201.3 193.5 186.6 178 168.6 159.3 152.4 145.6 138.4 132.6 131.7 131.9 132 131.6 131.1 130.8 131.6 137.6 144.1 149.5 154.3 158.9 164.3 171.8 177.5 183.4 189.9 195 200.5 206 211.6 217.1 222.4 226.2 230 234 237.4 241.2 245 247.6 250.1 254 257.2 260.4 266.9 273.2 277.8 284.4 295 302.8 306 314.7 321.1 327.9 334.8 344.3 350.9 356.3 359.4 362 365.4 366.6 364.9 362 358.9 357.5 354.7 354.7 359.5 361.2 364.5 366 370.2 374.9 376 376 379.6 380.1 380.5 382.3 383 383.8 384.1 384.9 384.8 384.6 383.5 382.3 382.6 382.9 383.3 383.2 383.2 382.7 383.9 387.2 388.8 387.5 388.4 389.3 390.2 391.3 393.6 396 399.4 400.6 403.2 409.7 418.2 427.6 437.4 448.3 458.8 471.6 487.5 497.5 504.2 504.5 501.3 496.3 489.3 482.7 474.5 466.4 452.2 437.2 424.5 409.3 390 374.3 362.2 353.2 347.4 344.8 344.6 347 344.5 341.4 339 336.3 333.2 330.8 328.8 327 325.7 324.2 322.1 319.8 317.4 309 305 298.5 290.9 285.3 279.8 272.2 266.6 263.1 256.5 257.7 258.2 260.3 263.2 266.6 269.4 273.9 280.4 291.6 302.9 315.8 326.8
324.5 306.9 291.7 280.9 275 272.6 271.6 268.6 265.7 264.4 261.3 261.5 264.7 262.3 262 260.2 261 261.6 260.5 258.6 256.9 254.7 250.8 246.8 239.9 234 228.4 222.9 217.3 210 203 195.5 187 176 164.6 158.8 152.5 145.6 137.8 133.2 132.1 132.2 131.7 131.4 131 130.6 133.4 140.8 148.4 149 154.5 161.9 166.6 171.6 177.9 183.7 188.8 194.3 199.8 205.1 210.4 215.2 219.8 223.5 227.2 231.2 235 238.8 242.2 245 250 253.1 256.1 261.7 270.9 273.6 280.1 289.8 291.9 302.5 310.7 317.5 323.8 330.3 339.4 346.8 352 355.5 358.6 362.5 364.4 363.4 361.7 360.3 354.7 354.7 354.7 354.7 360.4 361.3 361.1 364.5 363.2 365.7 367.9 370.9 370.5 372 373.6 374.1 375 376.1 376 375.2 375.3 375.3 374.6 375 376.2 376.5 376.5 377.1 377.2 379.1 382.5 386 388.6 389.1 389.4 390.5 392.1 394.6 397.7 401.5 404.8 410.5 418.2 424.7 432.3 441.7 452.2 460.6 473 488.3 494.1 501.7 504.7 502.2 497 492.2 488.8 481.7 471 455 438.6 420.3 402.1 388.5 368.6 356 346.8 338.2 333.3 334.7 337.7 339.2 337.4 335.5 333.1 331.2 330.1 329.1 328.1 327.2 326 323.8 322.5 321.2 316.7 311.2 306.1 300.7 291 285.1 278.8 271.2 267.1 265.2 256.1 250.7 251.3 253.3 255.7 258.7 264 270 280.5 287.6 299.2 310.5
