ncols 200
nrows 82
xllcorner 400000
yllcorner 454650
cellsize 50
446.3 441.8 437.5 434.5 429 422.1 416.6 414.5 412 415.5 416.3 418.2 419 419.4 420.7 422.3 422.9 423.9 424.9 425.8 426.1 425.5 424.7 424 426.4 426.9 428.9 430.2 430.8 430.5 430.8 431.4 429.2 426.5 424.9 422 416.9 413.8 408.2 403.4 395.8 391.4 385.6 380.6 376.6 374.3 370.1 367.8 364.9 362.2 356.2 349.1 342.2 335.8 329 321.4 314.5 302.7 294.5 290.1 286.7 282.8 276.9 276.6 278.7 279.3 280.3 283 285.7 284 280.8 277.7 274.8 272.3 271.1 267.3 265.8 264.1 262.5 261.1 259.5 256.6 255.1 251.9 248.1 242.1 237 228.4 221.9 214.2 207 204.6 206 205.4 201.1 194.9 189.4 177.3 171.9 167.7 164.6 155 146.1 138.6 130.7 127.1 126 126 127.4 127.6 125.3 121.3 125 127.5 139.4 148.5 153.1 163.5 171.3 177.3 188 199.7 212.1 216.4 223.9 233.5 240.8 248.6 260.4 271.9 279.6 287.9 294.2 300.4 310.5 324.9 337.7 349.5 359.5 368.1 376.6 388.1 398 404 406.2 409.6 413.3 416 419.3 420.9 418.2 414.2 409.2 402.3 393.2 383.3 378.4 369.2 362.1 381.8 392.5 397.4 399.1 401.4 403.4 404.6 402.4 400.6 397.2 392.6 388.1 383.4 376.5 370.4 364 358.9 353.7 347.3 342.1 338.8 340.1 339.7 342.9 342.4 345.6 354.3 355.4 354.6 357.4 359 359.1 362.3 368.5 372.3 374.4 374.9 374.2 375 377.2 379.1
442.8 438.7 434.2 430.5 426.6 420.2 411.4 409.1 402.1 409 408.7 410.7 410.6 412.1 413 415.1 416 416.5 417.4 418.3 418.9 419.5 418.9 420.5 421.2 423.7 424.5 425.7 426.5 427 427.5 427.7 427.2 425.4 423.2 420.9 417.8 413 408.6 402.9 396.9 391.5 385.7 379.9 375.5 371.6 370.9 367.9 364.2 359.8 355.8 351.4 344.9 339.9 332.4 324.9 317.4 308.5 299.8 294.3 286.9 282.3 277.1 270.9 270.7 272.9 272.7 273.7 278 278.5 277 275.1 272.9 270.5 269.1 265.5 265.4 263.5 262.8 260.6 259.2 256.4 254.4 253.2 248.9 242.4 236.1 229.4 221 212.3 206.4 204.2 205.3 205.4 202.1 197.4 191.4 179.9 173.4 169.7 165.7 155.5 147.3 135.5 129.9 126.2 125.2 125.3 126.9 124.3 121.3 125.1 124.4 135.9 143.3 150.7 161.2 169.2 173.2 180 194.3 207.9 221.7 234.2 244.9 251.3 257.2 265.3 274.6 284.1 290.8 296.6 301.8 310.9 321.7 334.8 347.7 359.7 372.1 381.7 390.3 398.1 404.3 408.9 412 414 416.8 418.9 420.6 419.1 416.5 413.1 406.1 397.2 390.1 380.2 366.8 357.5 366.1 384.2 391.4 395.6 397.7 398.7 400.7 401.5 399.2 395.9 391.1 386.1 381.8 375.7 369.7 363.9 358.2 355.1 349.5 343.7 339.2 334.1 334.4 336.8 338.1 339.8 347.1 351.9 349.6 351.9 353.6 354.1 354.2 355.6 362.3 366.1 368.1 370 370.4 370.5 371.9 375
439.1 433.5 429.7 425.7 421.4 416.3 410.3 406.1 398.5 402.4 401.2 402.6 402.7 403.3 404.5 406.2 408.8 410.4 410.3 411.8 412.2 413.1 413.6 415.2 416.9 418.3 421 421.7 422.5 423.3 423.7 423.6 423.9 423.2 422.2 420 416.8 413.6 408.7 403.3 397.6 391.7 386.2 379 373.3 369.8 367.9 366.1 364.8 360.5 356.2 352.3 345.8 340.8 333.7 327.1 322 313.1 302.8 297.9 291 285.1 278.3 272.4 266.5 263.2 265.1 265.9 267.2 270.8 272.5 271.4 269.6 268.3 266.4 263.8 262.5 261.2 261.5 258.9 257.9 255.3 253.3 251.9 248.9 241.8 235.7 231.9 220.9 211.1 205.1 202.9 204.6 206.4 203.1 198.1 193.1 181.8 175.2 169.9 165.9 154.1 146.2 141.4 130.9 125.9 124.5 126.4 126.5 123.6 124 124.7 129.1 139.6 147.9 157 167.2 168.2 175.1 187.4 201 214.5 231.8 244.5 259.4 273.4 281.2 284.3 288.8 295.6 301.6 304.9 313.3 323.7 333.5 348.3 362.8 375.2 384.8 394.8 400.3 405.4 409.7 414.8 418.7 422.7 421.1 421.7 422.1 417.9 414.3 410.7 404.2 386.8 383 370.8 359.2 355.6 372.2 382.7 388.3 391.9 394 397.5 397.9 399.6 394.7 390.1 384.5 379.9 374.5 369.5 362.9 357.2 354.6 351 346.7 340.5 335.4 329.3 324.6 332.2 333.4 339.5 345.9 347.5 347 350.1 350.2 349.3 349.6 350.2 355.7 359 362.1 364.1 364.5 365.4 367.2 369.7
436.1 430.5 426.5 420.5 416.7 413.2 408.3 404 395.3 392.8 394 393.1 393.1 395 397.2 398.7 399.6 402 402.5 404.6 406.2 408 408.8 409.9 411.6 414.1 417.3 417 418.8 418.6 419.4 419.9 420 420.6 419.8 419.1 416.8 413.3 408.5 403.6 398.3 392.2 385.2 378.4 371.7 367.5 365.7 364.4 361.6 360.8 356.9 351.6 345.8 340.6 335.3 329.2 323.5 315.3 304.8 298.2 292.8 284 277 273.3 270.3 266.4 264 258.6 260.2 262.1 266.3 266.6 266 264.1 262.9 261.7 259.5 258.2 258.2 257.2 255.8 254 251.4 249.8 247 240 234.1 231.8 220.1 213.4 205 202.1 203.1 206.4 203.6 199 193.7 183.2 176.9 170.3 164.6 152 143.5 141.5 136.3 126.4 124.5 125.7 125.7 121.2 123.9 126.5 134.5 142 151.9 164.9 168.5 170 182 195.3 206.2 224.1 239.9 253.5 268.9 284.5 297.7 305 308.9 312.1 318 323.7 330.8 341.2 354 364.6 374.9 387.7 397.4 404.9 409 414.7 419 424.3 429.1 430.7 429.8 426.3 422.7 418.2 415.2 411.1 404.6 387.9 372.4 365.9 349.8 354.7 371.4 379.8 384.3 388.6 391 392.8 395.2 392.1 388.9 384 377.7 372.6 366.7 363.1 357.7 352.8 350.3 347 343 336.8 331.1 318.5 321.2 329.2 333.9 341.4 343.2 342.4 345.2 346.2 346.4 345.6 345.5 345 348.7 352.9 356.8 358.7 358.7 360.7 366.8 372
435.3 429.7 424.1 418.5 413 408.6 406.9 404.4 396.9 397.9 386.6 383.6 381.6 385.6 388.6 391.4 392.3 394.2 395.7 396.7 399.2 402.6 404.1 405.9 408.2 411.1 413.1 414 413.2 414.5 415 415.7 417 416.9 416.7 416.3 414.7 412.2 408 403.2 398 391.3 384.8 377.1 370.8 366.5 363.2 361.5 359.6 357.4 353.7 350.5 345.4 340.8 335.6 327.8 322.6 314.7 305.1 297 293 283.7 277.7 274.1 271.5 268.1 265.7 262.4 252.7 256.4 257.6 260.9 261.3 258.7 256.9 256.1 255.7 253.5 253.7 253.9 252.4 251 247.9 246.1 243.6 237.5 233.2 228.6 219.3 210.2 202.9 200.5 200.4 204.3 202.7 198.7 193.9 183.5 177.9 172.9 162.6 151.2 140.4 139.5 133.4 125.7 123.8 124 123 121.2 126.5 128.1 139 146.9 155.5 164.7 168.6 173.9 187.3 200.2 214.3 230.8 247.4 262.6 276.4 290.1 303.5 313.5 324.2 330 336.2 343.1 348.3 359.7 371 379.8 388.2 397 403.6 408.6 413.7 420.5 425.6 430.9 433.4 434.8 434.4 432.4 426.8 422.1 416.4 411.4 404.4 393.1 374 356 346.6 350.1 371 378.6 380.4 385.2 387.2 388.3 386.5 384.3 381.5 375.1 371.1 365.8 360.1 355.8 350.8 347.8 344.8 341.7 338.4 333.1 324.1 308.5 324 327.3 336.1 339.3 339 340.6 342.4 342.9 342.9 342 341.8 341.5 342.9 347.7 350.9 353.2 354.8 364.5 370.6 377.2
433.7 429.9 426.2 420.6 417 413.7 410.1 407 404.4 403.1 401 398.6 394.6 376.5 381.5 385.4 388.4 389.7 391.3 393.2 394.7 398.7 401.9 403.5 404.9 406.1 407.7 408.9 409.3 410.4 410.9 412.3 412.9 412.8 413.1 412.1 412 410.1 407.7 403.4 396 389.2 382.9 375.6 369.7 364.6 360.8 359.1 357.4 354.7 350.2 350 345.8 340.3 333.7 327 320.5 312.8 303.6 296.2 291 286.7 278.6 274.2 271.9 269.6 266.7 262 255 250.9 252.9 251.4 251.3 253.4 251.6 250.7 249.6 248.3 248.9 248.4 246.4 246 242.6 241.4 241.1 234.7 229.7 227.9 217.6 209.1 202.1 199 198.9 202.4 201.2 198.4 193.1 184.2 178.2 173.1 161.4 151.3 140.9 136.8 126.2 123.9 125.3 124 121.2 121.6 128.3 131.1 138.4 150.5 159.1 165.7 173.1 180.3 192.1 206.4 221.9 237.5 253.2 269.2 283.1 295.4 307.1 318.3 330.2 339.7 348.7 358.3 367.8 376.8 382.1 388.2 395.8 403.9 409.3 413.4 419.7 426.7 433.4 437.2 438.7 438.6 437.2 434.6 429.1 424.5 418.2 411.1 403.1 394 372.2 356.6 343.9 348.4 370.1 375.6 376 380.5 383.3 384 382.1 379.1 375.1 369.3 365 360.7 354.7 350.4 347.3 343.5 340.1 337.4 333.9 328.6 317.2 310.5 320.1 327.4 333.4 335.4 336.1 338.7 339.4 339.4 339.1 338.2 338.2 338.3 340.2 342.8 346 349.9 359.9 368.2 374.4 380.3
433.8 431.1 428.3 424.6 420.4 416.2 411.7 409.7 405.8 401.8 398.8 396.6 393.8 391.1 375 377.9 384.4 386.6 388.3 390.4 391.4 395 395.6 398.1 399.9 401.1 403 403.7 404.3 405.2 405.8 407.6 408.1 408.9 408.3 407.8 407.2 405.5 404.3 400.7 394.7 387.5 381.7 375.4 369.4 363.1 358.2 355.4 353.5 349.4 347.8 347.2 343.3 339 333 325.5 318.3 312.4 304.3 296 290.5 285.3 281.5 277.8 272.3 269.6 266.1 261.4 256.4 247 245.3 245.2 245.9 245.8 245.5 243.6 243.2 241.3 240.9 240.5 240.4 238.2 237.8 237 235.1 230.5 226 223.6 215.1 207.2 200 197.6 197.9 200.6 200.7 198.1 192.5 185.3 179.1 171.7 160.3 150.8 140.5 132 123.3 123.6 122.9 121.5 123 126.1 129.1 136 146.6 155.1 164.8 171.2 176.7 186.6 198.1 211.5 228.8 243.3 260.2 276.1 290.1 302.1 314.1 325 336 349 358.6 366.3 376.4 383.4 389 394.9 401.6 409.3 413.1 418.8 429.4 435.7 439.5 441.6 443.7 443.1 439.6 435.8 430.4 425.1 419.1 411.4 403.1 394.1 373.6 355.7 341.8 345.2 367.5 371.1 373.3 376.5 380.3 379.9 377.7 374.4 370.2 364.6 359.8 355.4 349.7 344.5 341.8 337.4 335 332.5 328.8 325.1 317.1 304.3 314.6 325.2 329.4 331.3 335.4 336.2 337 336.9 336.4 336.3 335 336.6 337.8 339.6 345.4 352.5 362.4 369.7 377.9 383.6
434.3 430.2 427.1 424 420.1 416.9 412.8 409.2 405 400 396.1 393.4 390.9 388.6 383.1 378.7 380.1 382.3 384.7 386 387.1 388.8 390.2 392.1 393.5 395.7 397.1 399.2 399.7 400.6 400.5 402.3 402.6 403.5 403.3 403.5 402.7 401.2 399.7 398 393.4 385 379.2 374.1 367.7 359.2 354.7 352.1 349.3 346 343.9 342.6 340 337.4 331.8 323.8 318.5 310.8 304.8 297.4 291.4 287.2 282.4 278.1 273.5 268.7 262.6 258.9 255.4 251.4 246.3 242.1 235.8 235.7 234.6 234.8 236.6 234.4 232.9 232.5 232.4 232.8 231.3 230.9 229.9 226.2 222.1 221.2 213.7 205.1 198.7 196.3 196.1 199 199 197.7 193.8 186.3 179.4 172 159.8 149.4 137.8 124 123.1 124.1 121.8 121.5 123.9 126.7 132.5 139.7 151.3 160.1 169 176.1 184.7 193.8 206.3 218.6 233.7 247.4 260.3 277.5 296.3 308.8 319.8 331.7 344 354.6 363.6 372.2 378.4 386.6 395.1 399.9 404.1 410.9 417.7 423.4 432.6 440.6 443.6 447.2 449.1 444.6 443.4 438 432 425.5 418.6 412.1 405.1 395.7 375.7 355.4 340.2 342.9 360.9 365.8 369.4 373.7 374 374.5 372.5 368.9 363.5 359.7 354.5 348.9 344 339.8 335.8 332.2 329.1 327.5 324 319.4 313.7 302.9 313.8 321.4 326.6 329.2 333 333.7 334.3 333.2 333.1 333 332.2 333.2 338 341.7 347.3 354.8 363.9 373.3 380 386.1
432.6 428.4 425.2 421.6 419 415 412.2 408.1 403 398.2 394.4 390.3 388 384.1 381.3 372.1 374.5 378.5 380.4 381.6 383.1 384.2 385.5 386 387.1 389.9 391.3 392.4 393.5 394.5 395.1 397.4 397.8 398.4 398.1 398.6 398.1 396.5 395.9 393.9 390.3 382.4 377.2 371.7 365.7 358 352.4 348.6 345.8 342.2 339.2 338.6 336.8 333.5 329.4 323.5 317.6 310.8 305.6 299.2 293.9 289.6 284.9 279.5 274.5 269.2 263.5 259.5 255.5 251.7 247.8 246.9 244.5 242.4 239.7 233.5 227.7 225.3 226.4 225.8 225.3 225.7 223.8 223.2 221.3 220.5 218.3 218.4 210.8 203.5 197.9 194.9 194.3 198.2 199 197.5 194 187 179 171.9 159.8 148.5 132.4 123.4 123.9 122 122 123.7 123.7 127.1 132.8 144.7 157 165.4 175.1 182.2 191.2 201.6 211.9 226.4 240.1 254.7 266.9 282 299.3 314.2 325.5 336.6 347.9 358.9 368.2 378.5 383.8 389.5 400.4 404.3 409.1 415.3 420.5 426.9 436.8 441.5 446.1 446.2 445.3 444.3 443 437.8 432.4 425.6 418 411.4 404.7 396.2 378.3 359 343.3 333.4 349.3 359.5 365.1 367.5 369.8 368.5 365.3 361.7 358.1 353.5 348.2 342.6 338.4 334.7 331.8 327.9 323.8 321.8 317.7 316 302.6 302.7 313 318.7 323.7 326.2 329.7 330.2 331.2 330.7 330.4 329.5 330.5 335.1 338.5 342.3 349.7 356.4 365.9 376.2 383.1 388.6
431.6 427.1 423.5 420.6 417.8 413.8 410.1 406.2 402.4 397.7 393.9 390.9 388.8 383.8 378.7 375.5 366.4 374.4 376.6 376.8 378.2 377.8 379.4 379.9 381.5 383 385.1 385.9 386.7 388.3 390.3 392 392.7 392.4 393.7 394.1 392.9 393 391.8 390 386.8 380.2 374.7 369.2 362.7 357.1 348.5 343.7 340.7 338.8 336.2 335.3 334 331 326 322.5 317.2 309 304.9 299.4 295.3 290.7 287 280.8 276.9 272.5 267.6 262.9 257.6 254.3 251.2 248.8 246 244 241 236.5 231.8 227.4 223.5 220.5 220.6 215.8 215.7 213.7 212.6 214.1 214.2 215.2 208.8 202 197.4 193.5 193.7 196.2 197.5 196.5 193.4 187.5 179.6 171.5 158.6 147.5 127.5 123.3 124.5 120.8 123.9 123.4 123.1 128.4 137 152.4 161.5 171.8 180.6 187.5 199 209.2 218.7 231.8 247.2 260.3 273.9 288.9 304.1 316.6 328.5 338 349.7 360.6 369.6 378.7 386.8 392.3 399 405 412.2 418.8 422.8 427.9 435.2 441.3 443.5 443.6 442.8 440.9 439.4 437.5 429.6 421.3 415.7 409.7 403.2 396.5 385.6 365.6 350.5 333 341 354.9 360.1 361.4 363.1 362.4 358.9 355 351.2 347.1 341.9 337.4 333.7 330.4 326 322.5 320 317.5 313.8 309.9 297.3 301 310.8 317.4 318.4 323.2 325.1 327.4 328.1 328 326.3 329.3 331.8 336.1 339.1 344 350.5 358.4 368.4 379.2 385.3 390.8
430.7 427.1 423.5 419.6 415.6 410.9 407.1 404.4 400.6 397.5 393.1 389 385.9 383.1 377.2 373.2 370.2 368.6 372 373.2 373.1 372.5 372.3 373.3 375.1 376.8 378 377.6 379.4 381.8 383.7 386.2 386.4 387.6 388.6 388.5 388.6 388.2 387.3 385.8 383.1 378.6 372.8 365.7 361.1 353.6 345.3 341.2 336.1 334.5 331.1 330.8 332 329.8 325.6 322.1 314.6 309.2 303.8 300.3 297.1 292.8 289.1 283.9 278.7 275.7 271.6 267.5 261.3 257.2 254.5 251.9 248 244.8 242.6 240.6 236 231.6 225.8 220.9 219.2 217.7 214.6 213 212.4 210.3 211.4 212.4 206.8 202.3 196.2 192.6 192.4 195 196.6 195.8 192.8 187.3 178.5 169.5 160.7 143.3 129.8 124.5 121.3 123.7 123.3 122.9 123.4 132.6 146.4 157.1 165.3 178.4 185.8 195.1 203.9 214 225.1 237.3 252 266.6 279 292.9 306.1 317.6 330.4 341.6 352 361.6 369.2 376.8 386.3 391.9 397.9 405.5 413.2 419 422.3 425.8 430.7 437.8 439 437.6 436.6 435.4 432.2 428.3 422.3 417.1 412.2 406.6 401.4 395 386.3 373.5 353.6 347 327 346.7 351.9 354 353.3 352.9 349.9 346.2 342.8 340.3 334.8 331.5 328.5 325.2 321.2 318.2 315.3 312.1 308.6 303.8 290.2 300.1 310.3 312.9 313.6 312.9 315.5 318.1 318.2 320.8 326.9 331.9 334.6 337.3 340.9 345.7 352.9 361.9 373.1 381.1 387.3 392.5
429.3 425.4 421.3 417.7 413.2 407.7 405.2 401.6 399 396.5 393.8 390.5 387.3 382.6 378.4 373.6 367.7 364.1 363.5 365.5 368.6 367.1 368 369.2 368.4 369.5 371 372 373.8 376.1 377.9 379.1 381.6 382.5 382.3 382.6 383.1 383.7 382.5 380.8 379.5 375.8 370.5 363.5 357.7 349.4 342.9 337.1 332.5 329.8 326.5 327.8 328.7 326.6 323.4 318.7 313.2 308.9 304.6 300.6 297 294.2 289.5 286.3 281.9 278.4 275.7 271.9 267.4 261.7 257.9 253.4 250 246.7 244.7 242.1 239.2 235.4 230 223.3 218.8 216.3 214.6 211.5 210.6 210.1 209.5 210.1 207.5 201.1 196.2 192.5 190 193.1 195.1 194.5 191.7 186.4 176.5 168.1 158.7 144.4 130.5 124.5 120 123.3 123.6 122.9 124.9 139.1 151.6 162.9 173 183.3 191.1 199.2 208.6 219.5 230.7 240.8 255 269.6 280.7 293.2 306.3 318.4 331.5 343.1 350.9 360.1 370.1 375.7 383.6 391.7 398.2 405.4 412.5 416.4 418.3 421.8 423.9 428.9 430.9 430 429.3 429.3 425.7 421.6 417.4 413.5 408.8 403.8 398.2 392.5 384.4 375.7 353.5 346.7 325.9 329.9 345.6 345.1 344.4 343.1 340.3 338.9 336.1 332.3 329.8 326.3 323.5 320.2 316.5 313.5 310.5 308.9 305.2 297.2 289.9 298.5 304.2 300 306.8 313.1 317.2 324.6 326.1 326.6 330.8 333.5 335.6 338.6 342.1 348.2 354.7 364.1 375.7 383.7 388.6 393.2
428.7 425.5 420.1 415 409.7 406.1 402.8 400.5 398.1 393.6 390.7 389.5 387.4 383.6 380.1 374.6 370.9 365.4 360.8 358 358.8 359.3 359.1 360.8 361.2 364 366.2 367.6 367.2 370.1 372.2 373.5 374.9 376.1 376 377.4 377.1 378.2 378.6 376.6 375.6 372.9 367.4 362.4 354.7 346.6 340.7 332.5 328.8 324.5 322 322.3 324.6 324 321.5 318 313.6 309.9 306.6 302.7 298.1 295.7 291.9 287.7 283.9 280.8 279 275.1 270.1 265.5 261.5 256.5 251.5 248.4 246.3 243.7 240.5 237.5 233.2 225.4 220.7 217.2 214.4 212.4 210.6 208 207.9 206.4 205.1 199.8 196.4 192.5 188.6 190.8 193.6 192.6 190 184.6 175 166 157.8 139.5 126.8 123.3 122.8 123.4 122.8 122.9 128.3 142.6 153.7 162.5 178.1 188.2 195.7 204.2 214.1 225.7 235.5 244.1 259 272.2 282.2 293.6 306.1 317.3 329.9 342.5 350.2 356.7 368 376 383.8 391.1 398.1 403.5 410.3 414.2 416.3 417.5 419.6 421.2 422.8 423.1 420.9 418.6 417.4 414.5 412.3 410.1 405.9 399.8 394.4 387.8 381.1 374 361.9 345.4 329.4 314.9 336.8 335 335.4 335.1 333 331.4 327.7 325.6 324.1 321.3 319.2 315.4 311.8 308.2 305 306.3 301.4 292.5 291.6 292.1 298.6 306.4 310.9 315.9 324.9 327.5 328.5 329.5 331.1 333.8 336.6 341.8 346 351.7 358 365.5 376.7 384.3 389.6 393.9
426.6 422 417.5 412.2 406.9 403.4 401.6 399.4 397.3 394.7 392.2 388.9 385.6 382.7 379.9 376.3 371.8 368.5 365.2 359.5 358 358 358 358 358 358 358 359 362.4 365.4 366.4 368 370 369.8 370.8 371.9 372 372.8 373.3 372 370.6 368.6 364.6 359 349.6 343.4 332.6 327.9 323.7 321.4 318.8 317.8 318.5 321.6 318.9 317 314.1 311.2 307.7 304.7 300.6 297.7 293.1 289.3 286 283.8 281.1 277.9 273.1 267.2 262.5 258.3 254.1 250.5 247.5 244.7 240.9 237.8 233.8 227.5 222.6 219.3 215.5 212.5 210.1 206.6 205.3 205.2 200.6 195.7 192.4 189.6 187.5 188.9 191.7 191 188.5 182.8 174.7 164.6 157.2 144.1 127.1 123.2 122.4 122.9 122.8 124.1 129.3 146.4 156.3 170.3 183.6 192.5 199.3 208.1 217.3 227 236.8 246.8 258.9 271.3 282.4 292.9 305.5 318.2 329.1 340.2 349 356.2 364.1 376.3 383.5 390.8 396.9 400.5 406.9 411.8 413.8 415.3 415.9 416.8 416.7 414.6 412.6 411.3 409.9 408.3 406.6 404.6 400.4 395.8 390.4 383.1 377.2 368.8 359.4 347.1 331.7 315.6 320.9 325.9 327.2 326.7 325.7 321.7 319 317.5 315.2 314.3 313.3 310.5 307 302.4 301.6 297.8 292.5 282.6 291.9 301.6 304 308.9 312.7 318.5 325.5 327.3 328.6 329.8 332.3 336.4 341.2 346.5 352.1 358.3 364.4 371.4 378.2 384.5 389 392.5
421.9 419 414.1 408.1 403.9 401.8 399.8 397.9 395.8 393.9 390.1 388 384.9 381.9 378.2 375.3 372.7 371.2 368.9 358 358 358 358 358 358 358 358 358 358 358.9 362 362 363.1 363.1 364.2 364.7 366.4 367.1 367.1 367.4 365.4 363.8 360.9 356.4 342.7 335.1 322.4 320.8 317.5 317.6 316 315.1 313.6 315.1 317.1 315.8 314 311.3 308.7 305.6 302.2 298.2 294.8 290.7 287.8 285.6 282.4 279.7 275.3 268.2 262.5 258.5 255.1 252.6 249.7 245.9 242.4 238 234.4 229.9 224.7 222 218.1 212.9 209.7 207.3 201.3 198.9 195.7 189.2 184.6 180.2 181.1 182.2 185.8 188.2 186.1 181.6 174 163 153.9 142.5 128.2 123.5 119.7 122.4 122.5 124.2 132.8 149.4 158.4 171.4 186.7 194.7 203.5 211.7 220.2 229.9 240 249.5 258.8 270.5 280.3 294.1 305.2 317.9 329.2 337.6 346.9 355.7 363.9 373 378.8 387.5 393.7 399.6 403.8 408.4 411 412.2 412.6 412.5 411.3 409 407.6 406.2 404 402.5 400.9 399.1 396.5 389.8 382.6 377.3 371.4 363.3 354.1 344 330.2 317.8 311.6 308.9 316.3 317 316.9 313.4 311.2 308.4 308.5 308.9 308.2 305.4 301 299.2 293.6 290.7 279 292.1 302.2 308.3 310.7 312.2 313.9 319.3 325.4 325.9 328.4 329.8 334 339.3 345.5 351.4 356.6 362.1 367.8 373.2 379.2 385 388.1 390.1
418 413.7 410.2 405.7 402.5 399.4 397.8 395 394.1 393.5 390.7 388.5 385.6 381 376.4 372.5 370.3 369.5 367.8 366.3 358 358 358 358 358 358 358 358 358 358 358 358 358 353.8 360 357.6 360.2 360.2 360 360.4 358.5 357.2 356 352.3 344.6 328.3 320.7 317.4 313.2 315.2 315.6 313.3 312.1 311 311.9 313.4 312.4 310.6 308.7 305.1 301.7 299.4 296.2 292.7 290.2 286.9 284.3 281.1 277.1 271 264.5 260 257.2 254.6 251 247.7 243.8 239.3 235.3 230.3 226.9 224.1 221.5 218 212.5 208.3 206.6 204.4 201.1 197.8 193 188.5 183.4 176.6 173.6 179.2 180.5 177.3 173.7 162.1 152 143.6 129 125.2 122.9 119.6 122.6 123.8 132.9 149.5 159.6 171.5 187.5 197.2 204.6 214.3 222.3 232.9 241.4 250.8 260.1 270.5 280.4 291.3 304.1 315 327.1 335.7 344.4 352.9 361 368.4 374.5 383.3 389.1 395.7 399.4 403.5 406.5 407.6 408.6 407.5 404.9 403.5 400.8 398.8 398.1 397.9 394.8 391.2 386.2 382.1 377.1 372.1 365.3 357.3 346.5 335.5 325.1 314.8 308.1 304.6 302.7 306 305.7 304.6 302.3 300.7 303.1 303.3 301.7 297 297.2 292.9 289.2 277.4 289.3 300.9 304.3 308.6 313.7 319.4 318.9 325.1 324.7 326 328.1 330.7 336.3 342.7 348.9 354 358.2 364.3 369.3 373.9 378.2 384.2 386.9 387.9
414.1 411.5 408.8 405.2 402.5 399.1 396.3 393.7 392.4 390.9 389.9 387.7 384.5 380.5 372.6 367.5 366.1 365.5 364.6 362.4 358 358 358 358 358 358 358 358 358 358 358 358 352.6 355.2 350.6 352.5 354.1 353.5 353 353.1 352.7 351.5 350.4 347.9 344 329 320.5 313.4 310.6 312.9 313.9 312.6 310.2 309.1 310 311.7 310.5 309.5 307.2 304.1 301.7 299.4 296.7 294.6 291.9 288.5 284.8 282 278.2 272.8 265.9 261.5 258.4 256 253.6 250 246.4 242.4 237.7 233.2 229.8 226.9 224.4 222.3 216.4 210.6 208.1 205.8 203.4 200.6 197.7 192.2 188.8 186.5 180.6 167.1 161.6 161 164.3 155.4 137.6 130.1 129.9 125.9 123.1 120.8 122.6 124.1 139.9 149.2 159.1 173.2 188.9 198.2 208.6 216.9 225.3 234.6 242.9 251.1 259.6 270.8 281.5 290.7 301.2 311.7 322.4 334.1 342.5 348.1 358 364.6 370.2 380.3 385.3 392.2 395.8 397.3 401.3 402.7 402 402.7 398.9 395.5 394.4 392.6 391.7 389.5 388.2 385 380.2 375.9 371.5 365.6 357.7 349.5 339.5 326 317.6 309.9 301.9 297.5 289.5 294.5 292.8 290.3 291.4 291.5 293.4 295.5 292.8 294.5 292.1 289.2 277.6 281.8 293.4 300.1 305.6 311.6 316.6 321.1 324.6 325.3 325.8 327.6 329.3 333.1 338.8 344.8 349.2 354 357.9 362.3 367.2 371.6 374.7 379.5 380.6 383
412.2 409.3 405.6 403.4 400.2 397.5 395.3 392.9 391.1 389.1 387.6 385.8 383.4 379.9 372.3 364 362.6 364.3 361.5 358 358 358 358 358 358 358 358 358 358 358 358 359.4 344.4 347.2 347.4 345.7 347.5 346.8 346.4 345 345.6 345.3 344.1 344.2 338.8 333.1 315.2 308 306 309.6 311.3 311.6 308.4 306.9 307.7 309.7 305.9 307.9 306 304.3 301.2 298.7 296.3 294.2 291 288.5 284.9 281.9 279 273.7 267.6 262.8 259.6 257.5 255.3 253.2 250.1 246.9 242 238.4 234.8 231 228.3 226 222.4 215.9 211.5 208.7 206.2 203 199.6 194.3 191.7 188.5 185.1 182.1 177.1 171.9 159.3 156.6 150.2 140.6 132.5 127.2 122.4 122.1 119.4 122.5 135.1 149.5 159.8 176.5 191.4 199.8 208 217 225.2 235.7 244.9 252.7 262.2 272 281.4 290.4 296.8 308.2 318.6 331 341.6 346.6 351.3 359.3 367.1 375.1 383.1 388.2 392.9 393.4 395.2 396.2 396 393.8 391.5 388 386.3 384.3 382.8 381.2 381.2 377.9 373.8 368.9 363.9 357.8 351.2 341.6 331.7 319.2 310 304.3 298.3 293.4 287.9 285.1 286.6 286.6 289.2 287 284 289.3 289.3 289.8 287.7 277.4 269.1 290.5 297.8 303.3 309.6 315.7 320.2 325.2 325.1 324.6 326.2 327.9 330.7 336.6 340.4 345.3 348.2 351.3 355.2 358.7 362.5 366.7 369.5 372.9 376.2 378.4
409.1 405.3 403.1 400.7 397.6 393.3 391.6 388.1 385.6 385.4 384.4 384 381.7 378 373.5 365.4 362 358.7 358 358 358 358 358 358 358 358 358 358 358 358 358 349.1 339.3 340.4 341.2 339.6 341.1 340.4 339.6 338.2 339 338.2 337.3 337.9 335.1 328 313.2 305.2 303.8 308.3 309.1 309.8 306.3 304.3 305.1 304.4 301.1 303.4 303.8 301.8 299.8 298 295.4 293.8 290.6 287.3 284.4 282.2 279.2 274.8 268.4 264.5 260.4 258.3 256.1 256 255.1 251.4 247.6 245.1 240.7 237.5 233.3 230.5 225.7 220.9 215.9 212.9 209.8 205.7 201.6 196.5 192.9 190.8 189.2 186.9 184.1 181.7 169 158.1 151.9 141.4 133.4 126.1 122.1 120.1 119.4 123.2 139.9 149.6 161.3 178.6 192 200.3 209.2 218.1 228.2 236 243.9 252.3 261.2 272 279.2 289.5 295.1 304.2 313.1 323.9 335.2 342.3 347.2 352.7 358.6 366.8 377 380.8 386.5 388.5 388.2 389.4 387.9 386 383.7 380.6 378.8 377.1 374.4 372.8 371.2 368.3 365.5 361 357.3 351 344 335 324 314 305.4 302.6 297.3 292.3 283.9 273.6 278 281.1 284.3 280.3 277.1 279.4 283.3 284.1 280.3 269.4 282.6 291.1 298.9 308.7 312.2 318.8 326 325.1 323.3 324.4 327.2 330.4 332.6 336.9 340.8 343.6 345.8 348.6 352.2 355 358.4 360.8 363.5 367.8 369.9 371.4
403.9 401.2 399.2 395.7 392 388.7 384.5 381.7 381.7 380.3 378.8 379.7 378.2 368.5 363 362 357.9 358 358 358 358 358 358 358 358 358 358 358 358 358 352.6 341.2 333.9 334.9 336.2 329.8 334.6 335.1 333.8 332.5 331.4 331.3 330.9 329.8 328.2 323.4 312.5 303.6 302.4 305.3 307 307.9 305.1 301.6 302.6 303.1 301.1 298.2 299.6 299.7 298.4 296.7 294.4 292.4 290.2 287.2 283.5 281.6 279.7 275.1 270.4 265.7 261.5 258.7 256.9 256 256.3 254.4 251.1 248.4 245.4 242.5 240.3 238 232.5 224.5 221.5 216.5 213.2 209.5 205 199.8 196.1 192.5 190.9 189.5 187 182 172.2 158.1 149.8 138.1 135 126.1 123.3 122.1 119.4 124.8 144.5 151 162.6 180.4 193 201.7 209.2 218.6 227.5 235.1 241.2 250.9 261.1 267.7 275 283.3 292.6 298.5 308.4 318.8 329.5 337.7 342.1 348 352.8 357.8 367 374.6 378.6 380.3 381.2 381.8 379.6 377.3 375.5 372 369.9 368.2 367.3 364.2 362.6 359.9 357.8 353.9 349.6 342.2 336.7 327.4 317.2 308.1 302.4 298.6 294.8 290.1 284.6 278.1 267.7 274.3 276.9 276 276 276.4 277.5 276.3 263.4 270.7 285.8 292 299.5 307.2 308.6 318.4 323.2 322.9 321.4 324.4 327.7 329.8 332 335.6 338.4 340.8 342.9 345.2 348.7 351.4 353.4 356 359.3 361.7 363.3 365.7
402.2 399.3 391.9 390.6 388.4 384.5 385.9 385.8 385.3 382.7 381.2 375.7 372.7 371.8 374.2 370.9 366.3 360.6 360.1 358.3 358.3 358 360.1 361.7 360.9 358 358 358 358 358.9 343.3 333.5 325.2 318 326.7 323 329.2 329.5 327.9 326.8 326.1 324.8 323.6 323.7 320.3 318.4 313.3 302.5 300 302.4 304.7 306.9 305.5 299.9 297.2 298.2 301.6 299.2 294.8 296 296.3 295.4 293.7 291.4 289.1 286.3 283 282 280 276.1 271.3 267 264.1 259.6 257.1 255.8 255.9 253.5 251.5 249.8 247.4 245.3 242 240.4 236.9 228.1 224.7 221.6 218.8 214.2 210.4 204.7 199.6 195.4 192.2 190.5 188.2 181.8 172.6 159.8 151.8 138.3 130.6 125.6 123 121.5 118.6 128.4 142.1 151.8 165.5 180.8 193.2 202.3 209.7 219.3 228 234.5 239.8 249.8 257.9 264.6 269.9 278.4 287 293.1 301 312.9 322.5 331.8 337.9 344.6 347.4 353.2 355.8 363.8 368.5 371.2 371.5 372.3 370.3 370 368.2 364.5 362.2 361.3 358.4 355.7 353 351.5 348.3 345.7 340.5 333.7 327.7 320.2 312.3 302.8 299.3 297.3 297.1 290.2 283.4 274.6 267 270.7 272.7 273.3 273.7 271.5 270.3 259.3 266.5 282.7 289.9 295.6 299.7 304.9 309.9 319.3 321.1 319.6 319.7 323.6 325.4 327.5 329.3 332.4 335.1 336.8 339.2 341.5 344.4 347 349.2 352.1 354.1 357.4 362.4 368.3
397.2 393.3 390.2 388 386.6 388.4 389.3 388.9 386.8 387.2 385.3 386.9 386.9 382.9 378.7 375.8 371.4 366.7 363.5 362.3 359.8 358.1 362.6 362.5 361.9 360.8 358 358 358 348.6 339.2 336.3 332.8 328.4 322.3 310 307 319.8 321.3 318.7 316.5 315.2 316.3 315.8 314.1 312 308.5 298.5 295.1 298.3 302.2 304.8 305.2 299.1 295.7 292.9 298.1 297.4 294.1 292.3 293.6 293.4 292.3 290.2 288.2 286 283.1 282.7 280.6 277.1 273 268.3 265.1 260 257.3 255.3 255.2 254.4 251.6 250 248.1 245.5 242.9 240.3 239 231 227.1 224.7 222.5 219.4 214.8 210 203.1 197.6 194 191.7 188.3 180.7 170.4 159.9 150.4 136.1 127.4 125.1 123 122.1 118.5 128.4 144.7 154.3 168.5 183 194.1 205 211.3 219.6 228.1 234.8 239.2 247.7 255.7 260.2 266.6 272.6 281.8 287.9 295.8 305.2 314.8 321.4 328.3 334.9 341.4 346.5 350.2 352.7 358.6 361.3 361.6 360.5 361.2 361.7 360.8 357.1 355.1 351.8 349.7 347.4 344.6 341.8 339.4 335.6 331.6 326.6 321.8 315.5 307.7 301.7 297.2 294.2 289.2 281.2 277.3 270.1 265.1 267.3 269.4 270.9 270.5 267.3 259.7 261.6 268.9 284.6 292 295 300.2 305.7 314.6 316.8 317.4 315.8 320.2 322.8 323.1 323.8 324.9 327.7 330.1 332.1 334.7 337.4 340.2 342.3 346.7 350.3 355.3 361 366 370.8
395.4 393.5 389.7 388.6 390.9 393 395.8 398.4 401.7 403.2 401.3 399.2 396 392.4 385.5 380.6 375.8 370.3 366 364.1 362.1 359.5 361.6 362.4 362.6 360.5 359.1 358 353.8 349.9 344.8 340.1 335.5 330.5 326.2 324.2 320.1 300.4 309.6 311.5 310.6 309.2 308.4 308.2 307.1 305.4 303 296.9 292.2 293.9 298.8 302.8 302.8 298.9 294.5 287.8 290.5 292.3 290.7 289.4 290.7 290.6 290.3 288.5 286.7 284.8 283.6 282.7 280.4 277.3 273.4 268.9 264.9 260.7 257.9 255.8 255.3 253.2 250.8 249.5 248.8 245.7 243.5 240.2 235.5 230.9 227.9 227.3 224.6 224.1 219.6 215.2 207.1 200.5 196.4 193 188.3 181.5 172 159.3 144.4 129.6 126.3 123.6 122.7 121.2 123.2 136.4 149.6 160.2 173.6 185.5 195.9 205.8 213.2 220.1 226.4 232.1 238.9 244.5 252.1 256.7 263 268.9 275.2 280.8 288 296.8 306 311.8 318.4 323.8 330.5 334.1 340.8 345.7 349.6 351.6 352.3 353.3 354.3 354.5 353.6 350.8 347.7 341.9 339.1 337.3 335.3 333 330.2 326.7 324 320.2 315.3 311.5 304.1 298.3 294.4 290.3 284.5 277.3 272.7 267.6 257.5 265.2 266.5 266.9 268.6 253.8 272.3 276.3 276.2 280.4 290.2 293.2 299.1 304.2 312.3 313.6 312.3 315.9 319.1 319.4 318.4 319.8 320.6 322 324.1 326.7 329.2 332.7 337.1 341.3 347.8 353 358.5 364.1 369 374.2
392.4 391.7 390.3 396.6 403 410 415.2 416.7 416.8 415.3 412.7 409.8 406.6 402.6 396.9 390.1 383.5 377.1 370 367.3 364 362.4 361.9 361.9 360.7 361 361.1 357.6 359 357.3 354.5 347.5 340.3 334.9 329 325.1 321.9 318 301.1 289.9 304.8 303.3 301.9 300.2 300.4 299.8 297.1 294 287.2 288.8 295.5 298.9 298.6 297.4 292.2 282.3 285.8 288.4 288.7 286.2 285.4 287.2 287.7 286.6 284.8 283.5 283.5 282.3 279.3 276.7 272.6 268.6 264.1 259.6 257.7 255.7 255.1 252.9 250.3 248.3 247.5 244.5 243.6 236.9 232.7 230.3 229.2 228.6 226.8 225.5 224 219.4 211.3 202.9 198.4 194.8 189.6 182.4 173.4 159.9 148.6 131.9 125.9 122.4 122.4 118.3 129.9 147.7 155.8 168.8 179.3 186.6 196.1 204.8 212.1 218.2 224.3 230.5 236.4 240.7 247.2 252.1 258.1 264.6 268.7 273.7 281 287.8 296.2 300.7 306.5 313.5 318.2 323.9 329.5 335 340.2 343 344.5 345.1 344.3 343.6 344.7 342.3 337.1 333.9 329.1 327.1 326.1 324.3 322.7 320.9 318.6 316.6 313.7 307.9 302.6 295.3 290.3 285.3 279.7 271.3 267.1 264.8 252.9 261.8 260.7 256.4 253.1 270.4 276.5 283.6 286.8 277.3 285.1 291.9 297.7 303.2 308.7 310.4 311.6 314.1 315.5 316.2 316.1 314.2 315.9 320 323 326.7 330.1 335.2 340.1 345.6 350.9 357.2 363.9 367.1 374.4 380.1
395 395 398.7 413.3 419.5 421.5 422.3 422 421.9 420.5 418.7 417.4 415.3 412 407 400.6 393.4 388.2 380.3 371.8 367.2 365 363.5 361.8 361.1 360.8 362.4 361.2 361 359.8 358.2 354.8 347.9 340 333.7 325.8 323 317.7 311.7 310.6 293 294.9 296.1 293.5 294.3 293.4 292.5 290.1 283.5 284 289.2 292.5 293.6 290.3 287.4 285.3 279.4 282.6 286 283.6 282.6 283.6 284.6 284 282.6 282.1 282.3 281.3 278.3 275.6 272.8 268.2 263.6 259.1 256.5 255.2 253.1 250.9 247.9 245.6 244.4 243.2 240.3 233.6 231.3 230.8 230.3 229.1 228.9 225.2 224.9 222.2 214.7 205.9 200.7 197.8 191.7 183.5 174.8 160.3 148.9 138.5 127.5 121.7 121.9 118.3 135.8 151.3 158 173.2 180.9 185 195.2 202.7 209.8 216.1 222.1 226.9 231.2 236.9 242.3 247.5 252.5 257.1 262.2 265.6 272.1 279.5 286.3 293.1 297.2 302.6 304.7 309.5 316.3 321.2 327.5 330.4 331.5 330.5 330.1 330.5 329.8 328.6 324.6 322.1 318.2 315.8 314.6 315.5 314.2 314.2 313.9 311.5 308.8 304.2 298.2 292.7 289.3 282.9 275.9 266.8 265.8 263.4 251 258.3 246.3 260.4 267.3 273.5 282.6 289.4 291.1 293.6 290.5 290.9 296.8 300.3 304.5 304.1 309.1 308.1 307.3 309.4 314.3 316.8 319.2 321.6 325.5 329.2 333 337 342.7 350.4 358.6 363.4 367.6 374.3 379.2 383.2
402.4 411.5 418.4 421.8 423 423.6 424.1 424.4 424.6 424.7 423.5 421.9 420.8 418.4 414.6 409.3 403 396.2 389.2 381 371.4 368.3 366 362.5 361.4 361.1 360 361.9 360.8 359.4 358.1 356.4 352.9 345.2 339.2 331.5 323.2 315.6 314.4 312 305.5 294.2 281.7 275.9 287.2 288.5 288.3 285.9 280.7 282.1 285.1 286.5 285.5 286 285.9 281.7 279.6 274.8 279 281 278.8 280.9 281.5 279.7 276.2 280.1 280.9 278.9 276.4 274.4 271.7 267 262.4 258.4 253.8 254.3 251 248.9 247.4 243.7 241.4 240.5 235.7 232.2 231 229.5 230 229.8 230.4 224.4 225 222.6 216.4 210.7 202.4 199.2 192.5 183.6 174.5 161.3 151.7 139.4 129.4 122.3 118.7 121.7 134.4 149.5 158.5 170.4 177.4 182.5 191.2 198.3 204.8 210.3 217.8 223.3 226.5 233.3 238.7 241.8 246.5 250.2 253 256.6 260.9 266.9 274.9 281.5 286.7 290.7 294.4 298 301.2 306.4 310.3 315.2 318.6 317.1 315 317.1 317.3 315.1 314.7 310 305.2 305.7 305.4 304.9 305.4 307.1 306.6 306.6 304 300.5 295.1 291.8 286.8 281.6 273.8 266.4 263.4 261.1 259.4 246.2 244.2 260.7 268.9 279.5 286 289 291.1 293.8 295 291.2 290.3 293.7 298.9 301.2 299.5 309.6 313.2 315.5 319 321.8 321.4 325.2 328.5 332 335.7 339.2 347.4 355.3 361.6 367.4 373.9 378 382.1 386.7
413.7 418.3 421.2 423 423.7 423.4 424.1 425.2 426.7 431.1 428.1 425.9 424.1 422 418.7 414.2 409.3 402.4 396.1 388 381 373.5 369.5 366.5 363.8 362.1 363.2 361.4 360.2 358.9 357.2 355.8 353.1 349.8 343.3 335.2 320.1 315.9 312.3 306.2 309.4 301.3 295.9 292.2 271 281.4 283.8 282.5 272.5 278.2 279.8 277.9 278.2 281.3 279.2 279.2 276.2 272.9 272.6 275.7 274.4 276.3 277.4 275.1 273 274.9 278.6 277.2 274.8 272.2 270.5 265.7 261.6 256.7 252.3 251.8 248.7 247.6 246.2 243.2 237.5 235.9 232.8 230.3 228.9 227.5 229.3 229.4 228.9 223.4 224 222.2 217.7 212.1 207.9 201 193.1 183.5 175.2 165.3 153.7 143.8 126.7 123.2 118.3 122.2 132.8 147.8 156.8 166.4 173.8 178.6 185.9 191.6 197 202.6 212.2 219.4 223.9 226.3 231 233.2 236.6 240.3 243.5 245.8 250.4 256.1 261.3 268.1 270.6 276.1 279.7 284.2 289.2 294.1 297.1 299.7 302.1 304.3 305.2 305.3 304.2 302.2 302.6 301.2 298.6 299.8 298.3 295.2 297.8 299.8 303 300.9 299.3 296.6 293.4 289.5 284.3 278.8 272.6 264.2 263.7 260.9 255.5 237.7 253.3 263.6 271.5 282.9 289.3 292 293.3 296.2 295.5 296.2 292.3 297.3 298.3 303.6 311.1 312.9 315.3 317.1 320.5 323.6 325.6 327.4 331.2 334.9 339.7 344.6 352.6 360.5 368.1 374.7 378.2 381.2 387.2 392.7
416.7 418.8 419.4 419.9 420.7 421.9 423.5 426.1 429.6 431.5 431.9 431.2 430.7 425.1 420.9 417 412.4 407.5 400.2 397.3 391.3 384.7 378 373.3 369.3 366.7 364.6 361.8 360.5 357.9 355.9 353.9 352 349.6 345.3 336.9 325.9 321.8 311.6 305.9 306.9 301.4 297.9 292.1 287.9 269.6 266.2 274 263.2 271.9 273.1 272.5 274 273.7 274.3 273.7 275.2 274.5 266.9 271.8 269.9 272 271.4 270.8 270.1 271.9 275.2 275.3 272.6 270.7 269 264.7 259.4 255.1 249.3 247.4 247 245.5 244.2 241.6 235.5 233.4 231.5 228.8 226 224 228.4 229 227.7 222.7 221 221.2 217.8 212.1 209.1 205.3 195.7 184.9 173.3 163.5 153.4 142.9 130.8 121.8 118.1 122 130.9 144.3 153.6 162.3 169.3 173.9 178.9 185.5 189.3 193.9 204.8 209.7 216 218.4 220.6 223.4 227.3 230.4 234.3 235.4 238.1 242.3 246.4 251.2 254.5 258.8 265.2 267.7 271.2 277.2 283 284.5 290.4 288.5 291.3 295.1 294 293 291.9 292.4 292.3 292.5 293.8 292.7 294.9 299.1 300.1 298 295 292 289.5 287.1 281.9 277.9 269.4 264.4 262.4 258.2 245.8 236.7 256.6 266.2 274 284.6 291.5 295.3 296.7 301.5 302.7 304.1 303.5 302.7 306.1 312.6 314.1 315.1 316.9 319.3 323.1 325.6 327 331.2 336.6 344 349.3 355.2 361.7 368.5 375 378.7 381.8 386.2 390.5 394.2
416.4 416.4 416.7 417.9 419.4 421.8 424.6 427.4 429.7 430.9 432.5 433 432.5 428.3 422.5 418.5 414.5 410.6 405.7 401.8 397.9 392 387.7 381.4 376.1 371.2 367.2 364.1 360.5 357.6 355.1 352.5 350.3 348.2 344.4 338.8 331.2 322 316.5 306.7 303.3 303.2 301.3 294.5 290 283.1 273.2 266.7 256.4 254.2 261.9 267.5 269.5 268.4 272 269.7 270.6 272.1 267.6 266.3 265.6 264.9 266.3 266.7 267.4 268.3 270.8 272.5 270.5 268.8 266.1 261.8 256.9 253 247.9 246 245.5 243.8 242.8 240 233.9 230.7 229.7 227.3 223.1 221.3 226.7 228.1 224.3 221.1 219.2 218.1 216.5 211.8 209 206.8 197.4 187.3 176.2 163.1 150.7 142 136 123 119 121.5 128 142.8 148.5 158.5 166.2 169.8 173.4 179.2 183.9 185.3 194.7 200.7 206.4 210.3 212.5 214.9 216 220.2 222.5 225.1 225.5 230.7 231.8 235.8 238.2 242.1 247.7 253 259 263.6 268.9 270 274.5 277.1 280.3 281.3 281.3 280.6 281.8 284.7 284.2 283.7 284.9 285.8 290.1 294.3 294.7 293.1 290.2 287.7 285.7 283 277 273.3 267.3 261.9 264.7 256.5 231.5 245.2 261.3 269.8 276.8 286.1 290.8 292 296.2 300.3 304.2 308.6 311.3 310.9 312.7 312.5 315.9 318.5 319.2 322 325.8 327.5 331.6 336.3 345.1 350.9 356.8 361.9 366.7 372.6 378.7 382 386.4 393 397 398.8
415.6 414.2 414.9 416.8 419.4 422 425 426.7 427.7 429.1 430.9 433.4 433.6 430.7 424.9 420.1 415.9 412.4 409.2 406.1 402.3 397.9 393.9 389 382.5 376.9 372.5 366.5 361.8 357.6 354.5 351.9 349.9 346.7 342.5 337.8 332.4 325.8 319 309 304.5 300.9 300.8 297.4 292.6 288.4 283.6 276.3 272.8 265.9 252.7 252.4 262.4 264.3 268.2 267.1 266.4 268.3 266.8 263 262.5 260.1 261.9 262.2 262.8 264.6 266.8 268.6 268.3 266 264.6 259.2 254.6 250.9 246.8 242.7 243.2 242 241.7 238.6 232.4 228.4 228.9 227.2 221.4 218.5 223.1 225.3 222.7 219.1 216.3 216.3 215.1 212.3 208.8 206.4 201.6 189.1 177.8 162.9 151.1 143.5 139.3 125.2 118 121.7 124.3 136.9 144.2 152 161 167.7 169.1 170.6 174.7 178.9 186 194.6 197.8 202.8 204 204.5 206.3 208.4 211.2 214.4 215.4 218.2 221.5 223.2 227.1 228.7 233.2 239.1 246.2 250 253.4 259.1 262.3 266.9 267.7 269.5 269.7 271.1 271.2 274 275.9 279.2 284.7 288.1 288.8 290.4 289.5 287.9 285.5 284.5 283.1 281.4 274.4 270.8 264.4 256.3 257.5 251.1 231.5 249.1 262.6 270 274.1 285.3 289.6 290.6 293.2 296 305.1 307.3 309.6 315.1 316.3 315.1 317.3 320.3 321.8 325 327.1 330.7 335.8 342.4 349 354.6 359.4 363 369.1 374.1 381.1 386.1 391.3 395.5 398.9 400.7
411.2 412 413.1 415.7 417.9 418.9 421.1 422.8 423.8 425.8 428.6 431.6 433.2 431.5 427.9 423.1 418.3 415 412.6 410.4 408 404.1 398.9 394.2 389.1 382.3 377.3 371.1 364.7 359.5 354.9 351.7 349.3 346.4 343.2 339.4 334.6 326.3 324.5 320.1 313.5 307.7 300.6 295 295.4 291 286.2 283.3 280.6 273.6 268.3 261.3 248.5 247.4 250.7 263.1 261.9 260 260.8 261.8 257.8 256.3 257.4 257.2 257.3 257.8 259 261.2 263.5 263.3 260.9 257.3 252 248.4 244.7 240.5 240.7 242.1 241.1 237.3 230 228.2 228.1 227.6 222.2 215.2 217.8 219.2 218.1 217.8 214 214.8 213.4 211.3 208.1 205.4 202.4 191.3 180.3 164.1 152.3 148.6 147.7 127.5 117.8 121.6 121 131 141.6 143.6 161.6 161.4 165.3 167.3 169.6 172.1 178.7 185.9 189.7 191.9 193.4 194 196.2 196.9 201.2 202.6 206.5 210.1 212.2 213.5 216.4 219.8 225.8 232 234.9 241.1 245 247.1 249.8 253.2 253.1 254.3 257.1 260.7 263 267.6 273.8 279.5 285.3 286.9 283.1 281.9 281.2 281.2 280.9 280 280 277.2 271.3 266.7 262 256.6 253.8 248.7 229.2 242.6 260.8 269 273.5 284.5 286.7 286.2 287.2 292.2 300.3 302.7 306.6 311.1 317.3 316.9 318.3 321.7 323.4 326.2 329.8 333.6 339.4 346.4 351.4 355.5 360.2 365.6 371.2 378.5 383.8 388.7 393.3 396.2 398.8 399.1
407.4 408.7 411 413.6 415.2 416 417.6 419.8 422.6 424.4 427.2 431.7 433.7 431.5 429.1 426.2 423.5 420.8 417.5 415.3 414.8 410.6 405 399.1 393.2 387.9 381.5 375.8 368.2 362.6 356.3 351.5 348.6 346.5 343.8 340.5 335.1 333.3 329.8 324.6 317.7 315.8 309.4 301 290.2 288 287 283.7 284.2 277.4 276.3 273.8 269.4 263.8 246.1 240.4 253.2 254.5 253 251.7 248.5 250.4 252.1 252.5 249 252.7 253.5 252.9 252.7 257.1 255.9 254 249.5 245 242.4 239.3 239.7 241.3 241.8 238.4 228.2 227.1 227.9 225.9 221.2 213.6 212.8 212.8 213.8 214.8 211.9 211.4 211 210.3 206.8 204.4 202 192 183.1 166.9 153.3 151.8 147.9 136.1 118.3 121.2 120.7 124.1 138.5 143.2 150.3 158.6 162.4 163.9 165.8 168.7 171.2 177.6 179.5 181.7 183.5 184.7 185.7 188 191.2 191.9 196.6 199 201 205.6 207.7 211 216.9 223 225.2 227.8 232.1 234.6 237.3 240 242.9 246.6 250.5 252.4 255.3 261 269.9 275.4 278.9 277.3 275.9 274.5 274.7 276 276.7 274.8 272.3 270.5 264.8 262.1 259.5 246.6 248.1 247.9 226.2 242.1 256.1 266.9 273.4 282 281.9 283.1 284.7 289.2 293.3 298.6 304.8 308.7 313.3 317 318.3 321.7 324.6 328.9 332.1 336.9 342.1 347.7 352 357 362.1 367.2 374.7 379.8 385.4 390.9 395.3 398.4 397.1 394.7
403.9 406.2 408.5 411.1 412.5 413.4 416.6 419 421 423 425.2 428.4 430.6 431.1 430.6 428.7 427.4 425.1 422.9 421.5 419.9 415 409.7 403.4 397.6 391.5 385.3 379.2 371.8 364.7 358 352.8 349.3 346.8 344 341.2 338.8 336.9 332.9 326.5 323.3 319.9 315.6 308.7 300.8 295.5 289.8 284.1 279.7 276.9 269.7 275.2 272.6 267 260.6 258.9 238 238.1 245.9 238.3 235.6 239 245.8 245.2 242.9 244.4 244.1 242.6 242.9 242.3 243.7 245.2 244.3 242.2 240.2 237 238.3 239.5 241.1 235.6 226.8 225.7 225.6 223.6 219.1 212.6 210.4 209.6 210.4 211.4 210.1 209 208.1 207.5 205.8 202 199.8 194.1 184 170.2 157.8 149.7 145.7 141.7 125.6 117.8 121 120.6 135.8 142.3 143.2 157.2 158.4 160.2 160.7 159.4 165.3 169.8 170.7 170.6 171.5 173.5 174.1 177.6 180.3 182.8 187.7 191.2 193.2 195.8 200.6 203.8 207.9 213 214.6 217.4 220 222.9 225.9 227.4 235 238.8 243 247.9 254.6 260 266.6 271.1 271.9 270 269.4 268.6 268.8 270.6 271.5 270.9 268 262.5 259.9 257.3 253.4 241.9 244.7 240 226.6 245.2 260.3 264.1 271.8 278 279.7 280.1 281.5 287 290.7 296.6 299.6 303.4 310.7 316.4 317.6 320.3 325.7 331.7 334.5 339.6 343.9 349.4 353.5 358.4 363.4 370.2 376.3 381.4 387.2 393 397.2 397.7 394.5 389.5
401.5 403 405.2 407 409.5 411.8 414.2 416.1 418.2 420.2 423.1 425.8 428.3 429.3 431.4 430.2 429 427.5 425.5 424.2 422 418.6 413.1 408.1 401.8 395.4 389.6 382.8 375.7 366.5 359.3 354.2 350 347.2 344.5 342.1 339.9 337.4 334.1 330.4 326.3 322 318.3 313.9 308.6 301.9 295.8 291.4 288.2 286.4 277 264.8 265.5 262.9 256.9 251.7 251.2 246.1 231.4 231.6 226.6 226.6 227.4 235.8 235.7 236.8 235.4 234.7 233.1 233.2 233.1 234 233.5 233.9 236 233.6 237 237.2 239.9 229.5 224.8 223.5 222.9 220.5 218.2 212.9 208.3 207.8 208.1 209.2 208.8 206.2 205.1 204.5 203.2 200.3 198 194.7 184.3 173.6 160.9 150.6 144.3 141.9 128.4 120.1 117.1 121 126 132 138.1 148.5 150.9 151.7 151.8 154.4 157.5 162.2 161.7 160.8 160.9 163.1 165.4 169.2 172.3 175.7 179.8 183.2 186.7 190.4 196.5 200 204 205.7 207.5 210.5 212.2 215.9 220.4 224.6 229.5 235.2 241.1 245.1 249.2 254.3 260.3 263.5 262.9 263.4 262.5 261.2 261.6 264.2 264.2 262.5 261.5 258.5 254.8 249.9 244.6 239 247.4 223.4 227.4 243.2 258.1 264.5 270.3 275.2 276.5 278.7 282 284 288.6 292.2 297.6 302.6 306.5 313.7 317.9 322.4 328 332.2 335.2 341.2 346.3 350.7 355 359.7 366 371.6 377.7 383.8 389.2 393.3 395.9 393.6 389.9 383.5
399.7 401.2 403.6 405.9 408.5 411 413.2 414.5 416.2 418.4 420.3 421.6 424.1 425.5 426.5 427.9 427.9 426.6 425.3 424.6 423.2 421.5 415.6 410.1 405.1 397.9 391.9 385.4 378.3 366.9 359.7 354.9 350.8 349.7 346.6 343.1 340.4 338.9 335.2 331.4 328 325.5 321.3 316.6 311.3 306.1 299.5 293 288 285.8 284 277.6 268.1 263.4 261 260.4 251.1 247.9 237.3 233.8 231.8 229.4 221.3 223.1 227.4 228.8 229.1 225.8 224.5 226.7 227.4 226.4 226.1 225.4 229 228.8 232.6 235.7 235.1 226.3 223.8 219.8 218.6 217 215.2 212.9 208.4 205 205.4 205.8 205.4 203.4 203 201.1 199.6 197.2 195.4 193.6 187.5 176.2 165.2 151.4 143.3 140.8 133.5 125.7 117.1 121.2 120 126.7 134.4 139.2 143 144.4 146.4 150 151.3 153.8 154.2 152.5 154.4 155.6 158.5 161 164.6 167.7 172.9 175.7 181 184.2 192.7 195.9 198.5 200.9 202.6 205.4 209.5 213.5 218.2 223 227.6 232.5 237 240.3 244.9 248.8 251.9 255.3 255.8 256.6 257.2 256.2 257.4 259.1 259 256.5 255.1 251 247.1 242.3 229.9 242.2 226.5 219.6 235.3 251.3 258.3 263.5 268.2 270 270.7 276.1 282.1 285 290.3 294.4 297.9 302.9 308.1 313.5 319 323.6 327.7 331.5 336.1 341.1 347.2 351.1 357 361.9 368.2 374.4 379.5 386 389.5 392.2 391.1 387.5 383.1 376.5
398 400.2 402.8 405.1 407.4 410.1 412.6 414 416.1 417.3 418.8 420.8 422.8 424.1 425.3 426 426.1 425.1 424 422.6 420.6 419.6 415.8 410.9 406.5 400.9 394.2 386 378 364.9 362.3 360 355.6 351 348.8 345.2 341.4 340.5 336.6 332.7 329.5 327 323.7 319.7 314.7 309.1 302.8 293.9 288.2 285.8 283.8 281.7 276 271.9 267.5 261.8 257.4 254.3 250.4 240 231.1 226 225.3 216.4 217.7 213.3 221.4 221.9 224.2 220 217.9 217.1 216.7 217.9 219.7 221.4 226.4 231 230.6 223.3 221.2 217.9 215.4 214.8 213.8 211.2 206.7 203.6 202.5 203.1 202.5 201.4 200.1 198.3 196.8 195.6 192.7 189.3 187.7 178.5 168.1 154.4 150.8 140.9 138.5 130.2 124.3 117 120.4 119.8 130 134.9 137.4 139.1 141.3 142.3 142.9 145.7 149.7 146.5 145.7 146.2 150.8 152.6 157.9 162.9 166.7 169.1 172.9 176.9 183.5 187.1 191.2 196.7 201.7 205.9 209 212.5 215.9 220.4 225.3 229.4 233.5 237 241.3 243.7 246.1 249 249.3 250.9 252.6 252.4 253.1 254.3 253.1 250 248 245.7 241.5 233.8 223.6 237 229.2 224.2 244.7 251.5 255.3 256.9 259.7 256.9 269.9 280 285.6 290.7 294.4 298.5 301.6 305.9 310.4 317.6 320.3 327.2 329.6 333.1 338.1 342.5 346.6 353.5 358.9 364.2 369.9 376.1 382.6 386.8 389.7 389.6 386.3 380.8 375.7 369.1
397.4 400 401.8 404.4 407.6 409.9 411.6 414.2 415.7 417.4 418.7 420.7 422.5 424 425.1 425.7 425.2 424.5 422.8 420.8 418.4 416.6 415 411.4 407.4 402.6 396.4 388.1 374.5 378.5 374 359.8 358.8 356.1 352.5 347.2 342.9 339.6 336.4 334.1 330.1 326.9 323.2 319.4 315.6 310.9 306.3 296.5 289.5 286.5 284.1 281.6 277.3 273.4 271.1 269.2 265.9 260.2 257.1 248.8 241.6 233 223.8 217.9 217.1 211.7 211.7 211.7 211.7 211.7 211.7 211.7 211.7 211.7 211.7 211.7 211.7 218.3 222.6 219.6 216.4 213.9 211.9 211.8 211.8 209.1 204.2 201 200.4 200.3 198.9 199 198.4 196.7 193.4 190.9 190.2 187.2 184.2 181.3 171 158.2 154.7 145.2 138.1 132.9 127.9 121.1 117.2 120.4 119.6 129.1 129.3 131.7 137.4 139.3 139 140.6 141.6 143.4 140 141.9 143.7 147.8 149.5 155.3 160.4 163.4 167.2 170.4 175.6 179.6 185.1 192.9 199.9 203.5 206.6 210.4 214 217.6 221.6 225.4 228.9 234.1 236.8 239.8 242.4 243.1 244.2 245.8 248.1 248.9 249.2 248.9 245.6 243.1 239.3 238.4 234.7 224.7 220.5 228.9 207.6 233.7 242.7 243.5 242.8 247.5 258.5 266.9 276 280.2 286.1 292.4 298.3 303.4 308.6 310.7 314.8 319.3 323 327.2 331.2 335.1 337.9 343.4 350 356.5 361.2 366.9 373.5 379.7 384 386.9 388.7 386.1 380.2 373.8 368.3 362.5
398.2 400.6 402.6 404.9 407.5 409.7 412 414.4 416 417.8 419.7 422.2 424.9 425.6 426.3 426.9 427.1 425.6 423.6 421.7 419.6 415.9 412.9 410.7 406.8 403.7 397.6 388.3 388.7 385.4 381.6 376.2 367.6 355.6 353.8 348.4 343.4 339.2 336.2 333 330.1 326.3 322.1 318.7 314.6 310.2 305.2 295.7 289.9 287.3 285.7 283.9 281.7 279.1 276.6 273.9 268.2 264.1 255.8 247.3 242.2 241.4 236 230.3 223.4 217 211.7 211.7 211.7 211.7 211.7 211.7 211.7 211.7 211.7 211.7 211.7 211.7 216.8 215.3 212.2 210.6 209.9 208.8 209.4 207 201 198.9 197.8 197.1 196.8 196.8 196.7 195.9 191.9 187 184.9 185.5 182.2 179.5 175.1 164.6 155 150 143 136.6 134 128.7 121.8 116.9 120.4 119.4 122.3 124.9 125.7 133.7 134.2 134.2 134.8 136.7 135.7 138.8 141.5 143.8 147 150.5 154.1 158.4 160.5 164.9 169.1 174.2 183.8 190.4 192.9 200.8 205.1 207.8 210.8 215.7 220.2 224.6 228.8 232.8 234.7 234.4 236.1 238.4 240.4 241.5 244.7 244.6 244.7 240.6 236.4 234.1 232 231.9 226.5 217.5 200.3 200.9 206 216.1 227.7 241 246.8 258 266.7 277.7 284.2 288.9 289.6 292.8 300.4 307.5 311.6 314.7 318.7 321.4 324.8 329.2 331.5 336.2 339.5 346.5 352.7 358.7 364.8 369.4 375.4 381.1 383.2 385.5 385.9 381.1 374.3 366.3 360.7 355.2
400.4 402 403.3 405.6 408.4 410.3 412.8 415.5 416.9 418.9 421.4 425.3 425.7 426.6 427.7 429.2 429.4 427.5 425.2 423.9 421.2 417.6 414 410.5 407.6 404.8 401.9 398.1 395.2 392.1 386.2 381.4 376.4 366.7 355.2 350.5 345.9 341 336 330.4 326.8 323.1 319.4 316.3 313.9 309.1 304.1 294.6 289.9 287.4 284.9 283.8 282.8 281 278.1 275.9 273 267.1 260.6 252.3 244.4 243 242.3 237.4 230.8 223.6 215.1 211.7 211.7 211.7 211.7 211.7 211.7 211.7 211.7 211.7 211.7 211.7 211.5 208.8 208.3 207.4 207.7 205.7 204.7 202.8 199 196.6 195.8 195 194.8 194.9 195.3 196 192 186.6 183 181.5 182.1 179 175.4 170.5 160.4 153.7 149.8 145.8 141.9 136.4 131.5 126.8 116.5 119.2 120.2 119.5 121 121.4 127.6 134.9 134 132.4 133.9 135.4 139.5 140.4 142.7 146.6 148.5 152.3 155.9 159.3 165.9 170.3 178 186.8 194.7 197.4 201.5 205.1 209.6 214.6 219.5 223.9 227.7 231.4 233.4 234.2 234.8 236 237.9 238.7 241.2 240 237.4 231.9 229.2 226.9 224.7 224.1 218.7 202.2 194.6 221.8 231.6 239.7 248.2 256.4 262.3 266.8 274 281.8 289.1 294.9 297.7 300.9 305.8 308.1 312.2 316.7 320.4 322 327.4 329.9 332.9 336.5 341.9 349.1 356.5 361.6 367 370.9 375.5 378.7 379.9 381.4 381.1 375.6 367.2 359.2 354.4 349.7
401.7 403.1 404.9 407.4 409.4 412.3 414.2 416.5 418.1 420 422.8 424.9 425.9 427.2 429.3 431 431.3 428.8 426.2 424.7 421.8 418.3 414.1 411.6 409.6 407.4 405.4 402 397.9 394.8 390.3 383.9 379 372.7 362.9 355.7 353.5 345.3 335.5 329.6 323.8 321.2 317.8 312.8 310.4 305.7 300.6 291.6 289 285.9 284.1 283 282.3 281.8 280.2 277.7 275.1 270.9 265.6 257.4 248.9 244.7 244.7 242.7 239.1 227.3 223.4 211.7 211.7 211.7 211.7 211.7 211.7 211.7 211.7 211.7 211.7 215.2 205.6 204.4 204.6 203.2 202.9 201 200.1 199.1 196.2 194.6 193 192.1 193 192.6 193.1 193.7 191.5 186.2 182 180.1 179.6 178.6 175.9 171.2 165.4 158.5 153.9 150.1 148.1 142.8 137.8 132.4 127.6 120.8 116.6 115.8 115.6 115.4 116.2 123.4 133.7 131.5 131.6 133.3 138.4 136.8 140 140.9 142.6 145.4 150.3 155.2 161.7 167.8 177.1 183.9 190.5 193.9 197.4 201.8 207.1 212.8 218.6 223 226.3 229.1 231.6 232.4 233.1 234.1 234.1 234.5 235.5 233.6 228.3 223.1 219.1 216.9 216.9 214.7 208.8 193.6 207.4 226.8 240 248.2 259.1 266.2 272.8 276.8 282.9 288.3 292.7 296.4 301.6 307 310.1 312 314.9 317.8 320.6 324.6 327.8 329.6 332.2 340 347 353.5 358.1 363.1 367.3 369.8 372 373.6 373.6 375.9 374.7 368 360.9 353.3 348.1 344.7
403 404.3 406.4 408.7 411.1 414.4 416.2 418.1 419.8 422 424 424.8 426 427.4 430.1 432 430.6 428 425.7 423.6 421.9 419.4 417 414.8 413.1 412 408.2 402.9 399.4 396 393 388.5 382.7 377 370.9 358.9 354.1 348.6 339.7 333 325.8 317.3 313.3 309.6 306.1 302.7 295.5 291.3 285.8 283.2 281.9 281.5 281.4 281.2 280.8 278.9 276 271.2 268.2 259.5 251.3 247.7 245.2 243.3 240.3 229.6 224.9 219 211.7 211.7 211.7 211.7 211.7 211.7 211.7 211.7 211.8 213.5 201.7 200.5 200.3 198.6 197.1 197.2 196.3 195.1 194.4 192.8 192.3 191.9 192.1 190.3 190.5 191 189.4 185.5 180.9 178.5 177.4 177.5 176.1 173.1 168.6 162.1 159 153.8 149.8 147.5 140.9 130.7 125.4 126.7 125.4 131.3 131 124.6 119.2 115.4 116.5 129.7 129.3 131 135.6 133.4 137.7 136.9 137.1 140.2 146.6 151.3 158.4 166.5 174.3 181.1 187.2 190.6 193.7 198.3 203.2 210.3 216.9 221.4 224.7 227.7 229.8 230.6 231.6 231.9 231.6 230.9 229.8 226.3 219.8 213.5 210.5 208 205.3 205.3 193.7 189.8 217.2 235.4 248.9 258.4 273 277.7 279.3 281.6 287.8 291.7 295.1 297.5 303.5 309.1 312 314.1 315.3 317.6 320.8 325.8 326.8 331.1 337.3 342.3 347.9 354.5 358.2 360.2 363.3 365.9 366.8 368.2 370.4 371.1 369 362.5 352.7 346.6 343.3 340
404.5 405.8 408.2 410.7 413.2 416.2 417.9 420.8 424.1 425.4 425.1 425.5 426.4 427.7 429.2 429.3 427.5 425.3 423.9 422.6 421.6 420.5 420 418.1 416.4 413.9 408.9 404.6 400.8 397.8 395.3 392.2 387.6 380.8 374.4 367.7 361.7 355.5 349.8 337.4 327.6 323 314.2 307 303.5 298.9 293.8 288.4 284.6 281.1 278.6 277.8 278.4 278.3 278.7 278.7 275.6 270.7 267.7 263.2 255.8 249.1 245.4 242 238.9 230.5 226.4 221.5 211.7 211.7 211.7 211.7 211.7 211.7 211.7 211.7 214.4 202.9 198.6 197.4 195.9 194.4 194.1 194.7 193.4 192.6 191.1 190.4 189.5 190.7 190.7 188.7 188.3 188.1 187.2 184.9 180.5 177.1 175.5 175.4 175.8 174.1 170.4 167.1 162.7 157.3 151.7 149.1 145.2 132.5 127.2 127.6 129 131.7 131.3 130.3 127.7 119.8 117.8 115.4 124.5 127 122.3 117.8 116.2 123 131.1 136.3 141.6 147.4 153.9 162.8 171.3 178 183.2 186.9 190 194.3 200.2 205.7 212.5 219.4 223.6 226.2 227.6 229.1 230 229.9 229.4 226.8 225.6 218 211.3 206.7 203.4 201.5 199.5 200.8 186.9 203.4 225.8 244.4 256.3 270.2 281 284.9 287.9 291.1 295.4 298.5 298.2 300 306.4 310.2 312.2 314.3 316.2 317.1 317.4 323.8 325.5 330.6 335.2 335.2 339.1 342.7 349.4 353.9 353.6 355.3 359.6 362.4 366 365.2 360.8 353.8 345.7 341.3 337.8 334.4
407.1 408.3 410 413.1 416.8 418.1 420.8 423.1 425.1 425.7 426.1 425.8 426.7 428 427.1 425.1 424.1 422.2 422.1 421.6 420.6 422.2 420.2 418.2 416.1 414.4 411.4 408.4 404.3 401 399.3 397.7 392.5 385.5 378.9 372.3 366.5 361.7 353.6 346.7 331.2 326.9 315.5 312.2 303.3 296.8 292.6 288.6 286.3 282.7 280.3 275.2 274.2 274.1 274.8 274.7 275 272.2 267.3 261.9 256.4 252.5 246.5 240.9 236 230.3 226.2 221.6 211.7 211.7 211.7 211.7 211.7 211.7 211.7 215.3 213.6 197.9 197.1 194.7 193.1 191 191.6 192 192.1 190.6 189.8 187.8 189.3 189.4 189.4 186.7 185.1 184.9 185.2 183.9 180.5 176 174.3 173.8 174.3 173.9 172 168.8 166.5 162.8 157.2 152.6 148.9 136.9 129.4 128.5 128.2 130.7 133.2 132.5 127.4 117.6 120.8 120.4 115.5 112.7 112.3 123.2 120.9 112.6 124.9 135.8 138.4 142.8 148.4 157 165.6 173.4 180.1 183.3 187.6 192.4 197.6 203.5 210.3 216.2 220.6 223.1 224.1 225.8 226.7 228.5 228.1 225.8 220.2 214.2 204.5 196.7 192.9 194.4 192.3 181.3 198.4 220.2 240 252.6 262.9 274.8 285.1 290.6 293.8 296.7 301 304.1 306.4 307.7 311.6 313 315.1 316.9 317.7 311.3 317.1 319.6 323.1 325.5 327.2 330.1 332.9 336.8 338.6 341.7 346.9 336.6 350.7 355.4 357.1 357.4 350.4 344.7 339.8 336.5 332.4 329.7
410.3 410.7 412.8 419 419.6 421.5 422.6 426.7 425.6 425.2 425.4 425.4 426.7 427 424.4 422.6 420.8 419.3 419.2 419 418.8 418.6 417.7 417.3 416.2 415.9 414.4 411.8 408 405.9 404 402 396.1 390.5 383.8 379.2 373.9 366.1 358 351.2 343 331.6 322.6 312 305.5 300.3 296.6 292.9 291.1 287.4 284.2 280.9 276.5 272.3 270.9 273.3 274.7 271.9 266.2 262.5 257.5 253.4 248 239.1 235.3 229.8 224.6 219.4 214.5 211.7 211.7 211.7 211.7 211.7 211.7 214.5 201.7 191.6 193.5 193.1 191.7 190.5 189.9 189.7 189.8 189.3 187.6 188.1 187.8 188.3 187.4 185.1 182.4 182.1 183.5 182.5 179.7 176.2 173.3 172.2 172.7 172.7 172 170.1 168.1 166 162.9 158.4 153.8 146.9 137.7 130.9 132.3 133 134.2 134.4 121.5 124.3 126.8 123.2 122.6 126.7 130.2 131.4 127.1 120 112.2 132.5 137.5 139.4 142.8 151.3 160.3 167.9 175.1 181.2 185.5 189.8 195 200.7 208.5 212.9 216.5 217.3 219.6 224.2 227.7 230.3 229.2 225.2 216.8 206.4 193.7 190.4 189.3 188.1 184.3 190.3 208.6 229.3 250.8 263.6 271.8 279.9 286.7 292.2 297.3 303.3 306.1 307.6 310.4 313.8 315.1 315 317.4 316.9 313.8 306.8 311.6 313.9 319.5 319.7 321.6 324.1 325.9 327.9 332.4 333.1 334.8 335 340.2 346.7 348.9 347.9 342.6 337.7 334.5 331 327.1 325.1
414 414.8 419.8 422 422.7 424.4 424.2 425 425.3 424.4 424.3 425.4 426.9 424.9 422.1 419.8 418.1 416.9 416.5 416.5 416.6 416.1 415.2 414.4 415 417.1 416.1 413.9 411.2 408.4 407.4 404.3 398.8 393.9 391 388.6 380.6 371.8 362.3 354.2 346.8 338.6 328.3 322.9 315.1 309.4 303 301.5 300.4 297.5 292.7 285.5 280.1 275.9 271 270.5 272 267.7 264 260.1 256.1 252.4 247 238.7 234.6 231 226.8 224.2 216.3 211.7 211.7 211.7 211.7 211.7 216.8 210.5 192.1 189.5 186.9 187.3 189.7 189.8 188.9 187.7 187.5 186.9 185.8 185.1 185.9 185.3 184.5 184.1 181.2 180 180.5 180.4 179.7 176.8 173 171.6 171.1 171.6 172.1 171.3 170.4 167.7 166.5 163.4 160.1 152.9 147.6 137.8 135.1 135.2 133.8 129.4 126.1 131.2 130.3 130.2 132.2 130.4 131.4 132.6 131.4 128.9 114 113.8 133.9 135.4 139.2 147.3 154.4 161.8 168.9 177.2 181.8 187 192.6 199.4 205.6 209.3 210.4 215.3 219.8 227 231 231.9 229.2 221.8 210.6 195.2 181.8 172.3 166.6 167.3 177.3 201.3 213.7 231.5 257.1 272.9 280.7 286.2 290.1 295.5 300.1 307.9 308.8 310.4 312.5 316.7 316.6 315.8 317 313.4 304.7 304.1 305.2 307.9 310.2 312.3 316.3 319.8 323.1 324.9 328.5 330.7 332.6 329.9 328.8 329.6 340.8 339.1 335.1 332.9 329.5 325.8 322.6 318.9
419 419.6 421.8 422.4 425.1 424.1 422.6 423.8 423.7 423.4 423.4 424.7 425 421.7 419.4 416.3 414.8 413.7 412.8 413.5 414.3 413.1 412 411.3 413 415.5 413.9 411.3 409.5 407.3 406.2 403.8 399.5 395.6 392.8 389.7 384.2 374.6 366.2 357.6 349.5 341.1 335.1 330.5 324.9 319.4 314.4 310.1 306.7 302.5 295.7 289.3 281.6 276.3 272.6 269.6 267.1 268 262 257.9 254.4 250.4 245.4 237.6 230.7 223.7 225.2 222.2 218.9 211.7 211.7 211.7 211.7 211.7 213.7 197.5 194.6 191.4 187.1 187.7 184.2 182.8 182.4 181.5 183 184.5 183.8 184.6 184.3 184 180.9 181.1 180.4 178.8 178.3 178 177.9 176.3 173.3 171.5 169.7 170.6 171.1 170.7 170.1 168.4 166.8 164.4 160.6 154.4 149.8 143.1 136.9 129.5 127.1 130.2 135.7 133.4 133.9 132.4 133.8 135.4 134.9 137.5 134.5 135.6 133.8 115.8 114.3 133.1 139.4 145.8 149.6 154.4 163.2 171.4 177.7 183.6 190.6 196.1 202.9 205.4 209.7 214.2 220.1 225.6 227.7 228.9 223.3 212.1 196.1 174.4 148.5 153.2 154.1 158.7 184.3 198.9 215 233.5 257.4 281.6 286.8 291.1 294.7 298.8 303 308.9 314.5 316.4 319.3 317.6 314.6 308.8 304.3 304.2 302.9 301.4 301.8 304.4 307.1 310.1 314.3 318.2 321.1 323.1 324.9 324.8 326.8 328.6 331.6 331.6 325 327.9 328.3 325.9 323 321.9 318.1 314.3
421 419.2 421 422.8 423.7 421.2 420.8 422.3 423.4 422.9 422.5 424.5 423.1 419.3 416.1 413.3 411.9 410.6 410.3 410 410.9 408.9 408.2 407.7 409.6 411.2 410.4 407.6 405.4 403.9 403.2 401.4 398 394.9 391.6 387.8 383.2 376.7 369.2 362.2 355.5 349.9 344.1 338.2 332.2 326.5 320.2 315.3 310 304.2 297.3 288.8 281.5 275 271.3 268.4 261.6 267.2 266.3 257.8 251.6 244.6 245.4 241.3 237.8 235.8 229.6 226.7 222.8 215 211.7 211.7 211.7 215.3 203.5 198.3 194.3 195.9 193.9 193 191.5 189.3 187.2 186.9 185.1 182.4 177.6 178.8 180.2 181.3 178.9 179.4 178.8 178.7 176.5 174.8 175.4 175.8 176.3 173.1 170.3 167.7 168 168.2 167.8 166.7 159.7 139.3 143.3 144.2 136.5 130.3 129.8 132.7 134.3 138.8 140.4 139.5 136.7 136.4 134.3 136.3 137.6 137.2 136.3 136.7 135.4 135.9 111.9 122.1 139.3 143.5 147.6 149 153.6 163 172 179.4 187.3 192.4 196.3 201.7 207.5 213.3 215.1 219.6 220.4 219 211.9 200.6 184.1 152.3 162.8 171.9 169.4 173.2 183.6 196.8 214.7 231.6 250.7 276.8 285.5 291.3 294.7 298.5 302 307.3 313.2 318.8 317.1 312.2 306.9 299.9 297.5 299.7 298.7 299.5 299.4 303 306.3 308.7 312.3 315.7 318.6 320.1 323.1 323.1 323.3 326.6 331.7 330.3 325.4 321.8 322 321.6 318.5 316.5 313.5 308.2
419.1 417.9 420.3 421.4 419 418.4 419.1 420.4 421.5 421.8 421 424.7 422.3 416.1 412.8 411.1 409.5 408.6 408.1 406.6 406.4 405.2 404.1 404.1 405.4 406.4 405.4 402.8 401.4 400.3 399.5 398.9 396.7 393.3 389.4 385.3 380 374.7 370.5 365.6 360.3 356.6 351.5 346.4 339.7 330.3 324.6 319.2 312.4 304.1 296.9 288.3 278.9 274.4 269.6 266.5 263.8 257.4 255.7 252.8 254.5 250.7 247.3 244.2 241.6 239.1 232.4 228 224.7 224.4 219.1 211.7 211.7 209 202.8 197.9 198.4 196.1 195.3 193.6 191.5 189.6 188.4 187 184.1 182.9 180.8 172.5 171.6 169.8 168.5 170.7 175.5 176.7 176.9 173.2 175.9 177.1 175.6 172.1 169.8 168.3 166.3 164.5 163.6 161.7 141 144.3 144.8 144 143.8 146 145.4 139.1 142 141.6 142.4 143.3 140.3 141.7 140.5 140.1 138.9 136.6 137.2 137.4 135.4 135.4 122.5 110.9 135.8 142.2 145.9 151.1 147.6 148.9 158.7 169.4 179.8 186.6 188.5 191.4 198.2 205 205.4 207.2 206.4 205.6 201 192.3 177.6 146.9 164.1 172.3 168.8 175.1 183.6 197.5 214 228.6 242.6 261.1 270.3 277.7 285 292.1 298.1 301.6 307 311.5 311.3 307 299.8 293.4 293.8 294.8 295.4 295.4 298.4 302.4 304.7 307.9 310.3 315.5 316.4 317.6 319.5 319.5 321.4 322.5 323.7 323.8 321.7 319.5 318.1 316.5 314.2 310.6 307.4 302.3
417.7 417.2 418.2 416.9 416.1 416.1 416.9 418.6 419.1 419 419 421.8 418.2 412.8 409.8 408.3 406.8 405.6 404.9 402.5 402.3 401.2 400.3 400.2 401 400.9 398.9 397.8 397.3 397 396.3 396 394 391.1 387.5 383.5 375.2 372 367.3 362.9 359.7 356.2 352.4 348 343 336.8 327.7 321.4 313.3 304.6 296.3 287.3 279 273.5 268.5 265.2 265.5 265 264.2 259.7 257.8 253.6 252.2 248.7 245.9 242 237.5 232.9 226.2 228.1 227.3 219.6 215.7 210.4 206.5 201.2 202.4 201.7 197.8 197.1 193.9 190.9 189.6 186.7 185.6 191.1 189 187.5 184 182.6 178.8 173.7 168.6 167.5 174 172.2 172.6 175.1 174.1 173.7 171.5 171 169.4 161.5 160.8 157.1 144.7 152.6 152 152.5 155.6 156 155.8 152.1 150.3 145.7 146.7 145.7 145.4 143.5 144.3 143.5 142.4 136.3 137.7 137.2 136.1 135.5 123.5 114.1 119.8 137.1 138.6 142.2 142.9 142.6 145.1 153.9 166.9 177.3 181.9 182.5 187.6 190.7 192.1 191.2 190.4 189.6 187.8 185.2 171.7 142.2 166.6 170.1 170.1 175.5 183 197.6 211.7 224.7 235.9 250.2 260.5 270.8 279.4 286.4 294.9 301 307.9 312.4 307.6 301.8 296 288.9 288.4 286 290 290.6 296.2 301.2 304.6 307 310.5 311.3 311.7 312.6 314.6 317.9 319.1 320.7 321.7 324.1 320.5 315.9 314.2 311.8 309.5 308.5 305.3 298.4
416.3 416.1 415.5 414.7 414.3 414.3 415.5 416 415.9 416.1 417 418.2 413.4 408.6 406 404.6 403.5 402.3 400.8 399.5 398.9 397.6 396.8 396 395.6 394.8 394.4 394.4 393.9 394.3 393.3 392.1 390.5 388.6 385.4 380.9 376 369.5 365.8 361.3 356.9 353.8 350.3 346.1 341.1 336.1 327.6 319.8 311.1 303.7 295.1 284.9 276.9 271.5 267.5 267.7 267.8 265.9 263.9 261.5 260 256.1 255.5 254.3 252 243.7 240.7 234.9 233 232.9 230.4 226.4 216.6 212.6 208.7 207.9 207.1 205.7 203.5 200.2 196.9 194.1 193.3 191.4 192.7 197.1 194.4 194.3 190 186.8 183.9 180.1 174.1 166.5 167.4 169.1 170.9 170.3 172.1 171.4 172.4 169.3 164.9 160.3 157.9 149.7 152.2 160 159.1 161.9 164.2 164.8 165.3 162.4 157 151.6 151.6 150.2 149.3 147.9 148.6 147.5 144.7 140.5 141.1 139.1 136.4 135.7 119.2 115 110.2 131.5 132.2 132.5 132.1 138.5 138.7 141.9 150.6 161.6 168.7 170.4 171.2 177 179.4 179.4 179.7 178.7 176.5 173.5 161.6 142.1 165.1 167.7 177 183.7 191.3 195.1 204.6 218.9 232.4 244.6 255.1 266.7 275.7 283.3 291.2 300.7 308.8 310.4 305.3 297.2 290.5 284.1 282.5 282.3 281.2 283.7 291.7 297.1 300.7 302.9 303.6 304.2 305.7 304.8 310.6 315 314.7 319.9 319.2 316.5 313.4 311.3 306.8 304.4 304.9 298.4 298.4 293.7
414.8 414.1 413.8 412.4 412.9 412.5 412.5 412.4 412.6 413.3 414.2 414.7 408.3 403.5 401.8 401.5 401.2 399 396.4 395.9 395.4 393.9 393.4 392.2 391.6 390.6 390.3 390.2 391 391 389.9 388.2 386.6 385.1 383.3 379.2 374.5 368.2 365 361.2 356.6 350.7 345.7 342.1 338 333.5 324.5 314.9 308.7 301.1 290.9 281.1 278.9 274.4 271.7 271.9 268.8 264.2 262.4 261 259.9 258.2 255.9 255 253.1 247 240.6 240.1 240.4 235.2 231.2 226.6 219.8 215.5 212 211.2 209.7 207.8 206 202.3 200.5 198.9 198.5 197.3 199.1 200.2 198.9 197.7 195.6 194.3 186.9 182.7 177.5 172.7 169.7 162.4 163.8 165.5 167.1 168.8 168.4 167.5 164.1 160.6 150.5 156.3 161.8 168.5 169.7 171 172.7 170.4 170.9 167.6 162.6 161.7 157.8 157.3 154 152.4 149.4 148.3 146.5 146 144.4 144 140.7 135.6 122.1 120.3 111.7 113.4 116.2 106.7 106.6 105.6 107.9 119.1 130.6 141.8 152.8 160 159.6 161.1 164.5 168.5 169.3 171.3 169.1 166 147.9 140.7 163.6 173.2 181.2 190.7 200 202.8 210.6 224.2 234.9 246.1 257 267.1 275.7 283.9 293.1 301.1 306.8 304.8 297.7 289.9 283.4 279.2 276.1 275.8 275.4 277.8 282.4 288.2 290.7 292.8 292.7 296.1 299.5 303.2 306.8 309.6 312.7 316.8 316.8 310.9 305.9 303.9 301.7 296.5 294.6 292.6 290 283.4
412.8 412 410.9 410.1 409.8 408.8 409.3 409 408.8 409.5 410.8 406.6 403.1 399.6 397.1 398.8 397.7 396.3 393.9 392.5 391.2 390.1 389.6 389.1 388 387 386.8 387.1 387.3 387 385.7 383.8 383.1 381.9 380 376.9 371.8 368.1 363.2 359 354.1 349.6 343.2 339.8 335.3 330.2 323.7 317 302.4 295.2 294 290.6 285.1 278.3 273.8 271.1 266.4 264.1 262.8 261.5 258.8 258 257 254.4 250.2 250.7 248.6 247.3 243.2 238 232.4 228.6 222 218.5 215.1 212.6 208.9 207.4 206 206.2 205.3 203 202.6 199.9 199.8 202.2 202.7 201.4 200.1 198.9 193.1 185.4 182.5 179.6 172.3 170.2 166.5 162.4 160 159.9 164.6 166.3 160.4 151.1 162.9 167.9 168.4 173.3 174.4 175.6 175.7 177 176.7 170.7 172.1 168.8 166.5 165.2 163.4 159.5 152.7 151.3 148 147.3 146 144.7 140.7 138.5 140.7 136.6 124.7 116.6 116.6 117.9 114.3 113.2 113.2 105.7 105.5 114.5 134 152.1 156.9 156.9 156.2 158.7 161.8 163.6 163.2 160.6 135.6 143 161.2 168.7 179 187.7 199.6 203.6 209.9 225.6 239.9 252.7 263.4 272.1 280.6 286.5 293.5 300.3 303 294.9 286.1 278.7 275.9 271.5 267.3 269 268.9 272.2 276 277.3 281.5 285.3 287.5 289.1 291 297.6 303.6 307.5 311.7 314.9 310.3 306 301 295.6 297 289.1 285.8 284.9 273.9 280
408.9 408.5 407.8 407.2 406.7 405.9 405.9 405.1 405.8 406.8 404.9 400.1 398.8 397.2 395 396.8 395.4 392.5 390.4 388.4 387 386.6 385.8 385.1 384.5 383.5 383.4 383.6 384.4 383.2 381.3 379.4 378.6 377.2 374.7 370.9 367 363.6 359.7 356.2 349.5 346.4 343.7 338.1 329.5 323.6 322.6 308.6 307.6 303.8 297.5 293.3 284.3 279.9 277.4 274 269 265.6 262.8 260.6 259.1 257.2 254.8 249.6 254.4 252.5 250.8 247.6 242.7 238.5 234.4 227.7 224.6 220.9 218.9 214 209.8 208.7 209.3 209.8 208.7 205.8 204.7 202.7 201 202.6 203.3 203.2 200.8 198.9 195.9 191.6 184.2 178.5 175.5 173.1 172 170.3 169.6 166.5 160.6 155.4 156.9 168 172.3 174.5 173.9 177.3 178 179.5 181.2 183.1 181.8 176 178.8 177.2 174.4 174.3 175.8 171.3 165.6 159.6 154.2 150 148.6 145.4 143.7 143.6 139.8 144.9 144.4 142.7 139.4 132.3 125 117.5 113.2 113.3 113.3 105.6 113.7 130.8 150.2 154.8 155 151.2 151.7 156.5 157.8 152.4 128.9 145.5 165.5 172.1 179 185.6 193.9 201.7 207.9 223.4 243.9 257.9 268.7 279.6 287.5 293.2 298.7 300 290.9 280 275.9 273 268.7 262.9 260 260.8 259.2 265.2 268.6 269.5 274.8 279.3 284.4 283.9 289.4 295.5 302.4 310.1 313.8 310.9 305.4 299 296.7 290.1 287.5 282.2 280.1 270.2 288.2 293.6
405.4 403.8 404 403.2 401.8 401.3 401.7 402.5 402.7 399.1 396.6 395.4 394.4 394.6 393.1 394.6 391.8 388.4 386.4 384.7 383.5 383.1 382.5 382.6 381.4 381.2 380.8 380.7 381.3 379.1 377 375.3 373.8 370.8 367.3 364.1 361.7 359.4 358 356.1 354.5 352.2 348.3 343 333.1 324.6 321.8 320.5 315 309.5 302.7 299.3 290.6 287.9 283.1 278.5 273.1 269 265.2 261.5 260.2 258.8 257.7 255.6 254.2 252.8 249.3 245.6 242 238.7 237.2 232.1 225.8 222.9 222.6 218.7 215.3 211.4 212 213.1 212.5 210.1 207.8 205 203.6 203.7 201.6 200.6 200 198.3 196.2 192.7 188.9 184.8 181.1 178.3 177.9 175.3 176 175.5 174.6 176.1 174.9 176.4 177.6 180.5 180.9 181.6 182.2 183.4 187 188.7 182.4 184.1 185.6 186.6 184.8 184.5 184.8 186 179.1 170.2 162.1 156.4 153.1 149.6 148.5 147.6 145.4 145.5 147.6 149.2 148.4 146.5 139.8 131.3 123.9 118.6 113.7 112.9 106.5 112.7 123.6 141.8 149.4 145.2 150.7 148.9 152 147.8 129 149.7 161.9 169 176.4 180.2 187.4 196.5 199.5 211.1 230.2 254.7 277.6 287.3 292.7 296.6 302.8 294.7 277.9 269.3 270.4 267.5 260 254.2 252 251.8 254.4 260.8 264.4 266.5 269.7 271.7 274.3 279.1 284.3 295.3 306.8 317 316.2 304.7 301.7 294.5 286.7 279.9 275.7 273.3 268.5 279.9 289.1 295.1
403.1 401 400 399.1 398.2 397.7 398 399.4 396.1 392.8 392 391 390.9 391.7 390 389 387.1 383.8 383 382.1 380.3 380.1 379.2 379.6 378.2 378.8 377.7 377.6 378 376.4 375.1 374.9 373.3 369.8 365.4 361.6 359.4 357.6 355.4 354.2 352.2 350.4 348.1 341 331.3 333.4 328.5 323.9 317.8 313 308.8 305.1 298.7 294.2 289 282.8 274.4 268.4 266 266.3 261.9 261.1 259.5 258.2 255.2 254.6 252.3 250.2 246 242.7 240.9 236.2 230.9 228.8 224.5 223.2 223.1 217.4 216.5 216 216.7 215.7 210.6 207.9 205.8 204.8 203.6 200.7 199.4 198.2 197.5 196.7 196 195.2 191.2 187.6 184.7 183.4 182.2 181.7 178.9 179.7 180.8 181.5 183.9 185 186.4 186.9 188.2 190.8 190.6 192.1 189.1 195.7 194.5 193.3 193.1 191.8 194.1 191.7 187.1 181 169.5 161.6 156.9 154.5 152.5 151.1 150.1 148.9 154 154.3 154.1 152.1 149.3 147.6 142.9 134.4 126.1 121.4 112.5 106.5 111.7 116.3 125 127.7 138.4 141.8 150.6 143.6 126.1 146.5 154.9 161.5 169 175.2 180.5 189.7 194.1 203.7 216.1 236.7 260.7 284 294.6 286.1 283 272.4 262.6 260.1 262.2 255.8 250.7 245 244.2 245.5 252 259.1 263.1 266.3 267.2 266.2 266.8 275 282.7 300.1 310.3 317.4 311.2 301.8 295.4 287.4 281.5 274.1 262.8 269.6 279.5 285 292.5 296.2
404.6 400.1 397.4 396 394.6 393.5 393.8 392 390.4 389.8 388.2 387.7 388.2 389 387 384.5 384.4 382.3 381 379 377.6 377.1 376.7 376.2 375.7 375.3 375 373.8 373.8 372.9 372.8 373.1 370.7 368.2 364.4 359.7 356.5 355.3 353.4 352.2 350.9 349 346.3 339.8 339.5 336 330.6 324.3 320.3 315.9 312.6 309.8 305.6 299.8 291.9 285 273.7 270.5 270.6 268.1 265.6 263 260.7 259 257.3 255.1 254 251.5 249.1 246.6 243.6 238.6 235.1 232.1 229.7 229 224.7 221.9 221.3 219.8 218.8 218.4 214.5 213.1 210.7 207.7 205.8 205.2 202.6 201 200.9 201.9 202 201.8 202.8 200.7 196.1 192.8 191.9 190.3 186.9 184.6 184.9 185.9 188.6 190.1 192.9 194.5 195.1 198 205.2 208.9 206.8 208.5 207.5 202.9 199.8 198.5 199.8 198.6 196.6 190.9 181.7 168.9 162.5 158.9 157.2 155.7 155.9 155.2 157.5 160 160.4 159.6 158.2 155.5 151.8 149.1 145.7 141 132 111.5 105.7 108.5 111.8 110.8 115.3 126 142.8 137.9 122.1 141.6 147.3 154.4 161.1 167.3 173.3 181.5 188.5 197.8 206.4 217.8 239.1 262.4 279.1 271.5 257.1 251.3 247.1 246.9 245.8 245.1 238.5 238.1 234.3 245.6 254.6 257.4 262.3 265.1 262.9 257.9 260.1 268.7 282.4 296.5 306.7 311.7 304.4 298.3 291 282.2 278.3 269.8 265.2 273.9 281.5 289.7 295.8 300.2
407.7 402.7 397.9 395.2 393.1 391.6 390.3 389.3 387.8 386.6 385.5 384.5 384.7 384.8 383.5 382.7 383.1 383.3 382.8 379.4 376 374.6 374.9 373.8 372.5 371.9 371.5 370.1 369.7 369.1 369.7 370.1 368.4 365.5 360.6 357.7 354.9 352.7 351.1 350.7 350.6 350.8 348.8 345.2 341 335.4 331.5 326.6 322.1 318.3 317 314.2 309.9 301.5 293.2 283.2 276.8 275.8 274.1 271.9 269.5 267.6 264.8 262.4 259.4 257.2 254.5 252.3 250.8 249.1 248.3 246.7 242.5 238 235 234.4 232.5 229.2 224.3 221.7 221.6 220.6 219.6 218.5 215.7 210 209.2 209.9 207.7 206.5 206.4 207.8 209.8 210.8 210.4 210.4 209.9 208 206.1 202.3 200.1 196.2 193.2 193.6 195.1 197.4 199.2 202.7 208 211 216.8 222.6 221.2 218.2 216.7 212.2 206 204.4 205.6 206.6 204.4 198.4 190.9 181.1 169.1 165.3 162 161.1 159.7 160.1 162.3 163.2 165.2 166.1 164.6 162.1 157.4 156.4 155.4 153.4 149.1 141.8 124.1 111.1 105.7 106 111.2 111.4 123.8 120.8 131.8 142.2 143.7 147.2 150.6 156 162.5 172.6 178.6 189.9 198.1 205.9 219.1 241.3 256.6 249.1 239.2 233 231.2 233.5 233.2 233.6 233 226.6 237.4 244.6 251.5 256.7 260.1 261.5 260.7 256.1 255.6 264 276.8 290.5 303 306.2 301.5 295.3 287.1 274.8 268.9 257.7 270.4 276.5 282.8 293.7 299 302.5
406.4 402.5 398.3 395.1 392.4 388.9 387.7 385.8 384.3 382.6 381.6 381.4 381.4 380.6 380.3 379.4 381.5 382.4 381.8 379.4 375.3 372.2 371.5 370.2 368.5 367.6 367.5 366.7 367.3 366.6 365.9 366.4 364.1 360.3 356.6 353.2 351 350.4 349.3 349 350.7 351.3 349.7 345.6 340.1 337 332.8 327.8 324.6 322.5 319.7 317.6 311.4 302.6 290.7 285.7 285.5 281.8 279.6 278 275.2 273.2 269.3 267.6 264.7 260.7 259.2 256.6 254.5 253.4 253.6 251.6 247.8 246.2 244.3 241.6 238 234 228.7 227.6 225.3 222.7 221.4 222.6 221 218.4 217.1 215.4 214.8 213.9 214.2 216.4 218.6 220.4 220.3 220.7 219.7 218.9 219.2 218.4 215.1 210.3 207.2 204.5 203.2 203.6 207.6 212.9 218.1 220.3 221.8 224.7 226.4 224 223.3 218.3 212.3 209.7 210 211 210.1 204.3 196 185.2 180.6 173.5 169 167.5 165.5 164 166.1 167.1 169 170.9 170.3 166.4 164.9 164.2 163.9 163.6 158.9 154.4 149 141.2 128 110.7 105.7 111 113.5 120.2 134.2 140.7 142.2 143.7 145.3 148.6 156.8 163.9 169.6 178.4 189.6 196.8 203.6 222.4 230.1 225 222.5 218.8 218.6 220.7 222.8 224.2 223.7 228.1 232 243.8 251.1 254.8 256.4 258.2 258.4 253.2 251.3 258.6 268.2 287.1 297.4 298.8 295.5 289.9 282.2 274.2 263.7 261 274.5 277.4 285.5 295.3 300.9 304.1
404.3 401.8 398.9 396 391.8 387.3 383.8 381.3 380.5 379.1 378 377.7 376.4 376.8 376.8 377.2 378.1 378.7 379.6 378.2 375.4 372.9 370.3 364.2 362.2 362.5 363.2 363.1 366.3 361.6 361.3 360.8 358.8 355 351.5 349.4 348.1 347.9 347.5 348 348.4 350 348.9 343.8 341 336.8 333.6 329.2 326.3 325.2 322 317.4 309.2 299 293.4 292.2 291 288.8 285.3 284 283.1 280.9 274.7 272.7 269.5 267.9 264.2 262.1 260.8 258.8 257.9 257.4 255.2 253 248.7 245 242.2 239.7 236.8 234.9 232.1 230.2 225.9 224.2 223.6 222.4 222.2 223 222.2 222.1 221.2 224.2 227.1 229.2 230.9 230.9 231.5 232.8 233.2 233.3 230.1 227 221.9 219 216.1 212 215 218.1 222.9 225.4 225.6 225.8 226.8 227.2 227 225.8 218 212.2 211.4 211.5 210.9 207.7 200.2 196 189.4 181.4 177.4 173.9 174.3 169.6 170.4 171.6 173.4 174.3 174.1 171.3 172.5 171.1 171.9 171.1 165.3 165.9 159.3 150 141.6 124 108.3 107.9 110.8 120.8 131.4 137 141 144.1 144.4 146.9 150.3 155.7 160.4 167.6 176.8 186.5 193 200.8 205.5 210.1 209.7 208.2 210.7 212.7 216.5 216.8 210.3 222.4 230 240.5 245.8 247.4 251.2 251.6 252.8 246.2 247.7 251.9 259.8 278.1 286 289.1 286.9 282 276.4 270.5 252.4 269.3 272.7 280.6 287.2 294.4 300.2 305.4
401.9 400.2 398.4 395.3 391.6 386.8 381.3 377.6 376.1 374.9 373.6 373.3 373.3 373 372.8 373.5 374.5 375.6 376.3 376.8 375.5 374.3 372 365.1 357.4 357.1 358.7 358.1 357.5 357.4 355.5 354.5 352.6 350.1 347.5 346.2 345.8 346.2 346.3 346.8 347.9 348.9 346.9 344.1 342 337.2 331.4 327.9 324.8 322.4 320.8 315.6 306.3 300.6 296 296.7 295.4 294 292.1 292.2 289.1 285.6 283.2 280 277 274.5 270.9 269.1 268 268.7 269.4 266.7 266.5 262.1 257.1 251.9 246.7 244.3 242.6 240.9 242.3 238.5 230.6 229.1 228.4 228.2 228.1 227.8 229.1 231.6 231.1 232 234.1 236.6 240 242.3 243.9 244.5 245.9 246.2 243.1 238.7 233.4 227.6 226 221.2 220.6 221.8 224.8 227 227.1 226.9 227 226.5 226.1 225.4 221.6 216.2 212.3 211.5 209.5 208 204.8 200.7 194 189.4 183.7 182.3 181.4 179.7 179.2 178.5 178.6 178.4 177.9 176.9 178.2 176.9 175.4 173.9 171.2 166.7 165.9 155.5 148.5 132.8 115.1 105.7 110.2 116.9 130.6 135.8 138 140.6 142.6 146.4 149.6 153 157.8 160.6 165.1 173.1 182 188.1 194.4 198.7 199.3 201.4 204.9 206.3 208.2 207.8 212 215.4 222 229.5 235 237.2 241 242.2 243.5 238.8 241.7 246.2 257 271.1 275 277.9 275.3 271.2 268.4 259.6 249.3 266.4 272.2 280.7 288.8 295.9 300.4 305.4
399.4 398.2 396.2 393 389.3 385.1 379.6 375.1 372.1 370.1 368.7 369.1 368.6 368.5 369 369.8 371.3 371.4 372.7 373.8 375.3 375.9 371.8 366.5 359.8 352.9 354.3 355.3 353.8 353.2 351.1 350.2 348.1 345.3 344.3 343.6 344.3 345.6 343.8 344.7 345.4 345.9 344 342.9 340.2 334.1 329.9 326.7 324.6 323 319.8 314.5 311.2 303.3 304.7 303.6 301.4 299.8 300.1 299.4 297.1 294.6 292.8 289.2 285.5 282.8 281.5 277.7 277.6 276.9 279.2 279.5 277.8 272.2 267.5 263 257.4 250.9 247.2 245 246.4 241.5 239.1 235.1 236 235.7 235.4 237.4 239.4 240.9 240.8 241.2 244.5 248.3 251.8 253.5 254.7 256.3 255.7 256.9 254.1 246.9 240.8 235.1 231.1 228.4 226.5 226.2 226.2 226.8 227.2 227.1 225.8 225.1 224.7 223.4 222.1 218.4 214.5 211.8 208.8 206.8 205.2 201.7 195.8 190.9 190.5 187.6 186.5 186.3 185.6 184.2 183.7 183.1 182.2 181.1 179.6 177.9 175.6 174 173.9 168.9 167.8 158.9 152.6 144.2 121.7 110.3 105.7 110.6 124.7 133 137.4 141.8 143.6 145.4 148.5 150.5 153.4 157.4 160.1 164.9 173 177.5 181.7 187.1 192 193.3 199.2 199.3 200.3 199.9 206 208.8 215 220.7 225.4 229.9 232.2 234.9 233.9 226.5 236.5 240.5 250.1 261.2 265.9 265.2 260.7 262.4 261.4 245.7 262.1 265.7 273.3 280.1 288.8 296.2 300.4 306.4
396.2 394.6 392.3 389.6 386.8 383.3 378.2 372.5 368.2 366 363.5 363.9 364.7 364.5 365.3 366.6 367.7 368.4 369.8 372 374.4 373.9 368.8 364.7 360.1 355.2 349.6 351 350.9 349.3 347.7 345.8 342.9 342.3 341.1 341.9 342 340.7 341.3 342.5 342.4 342.9 342.9 341.6 335.4 331.6 328.9 326.1 324.3 322 319 315.7 310.9 310.4 310 309.5 307.6 307.8 308 306.1 304.1 302.3 300.1 297.4 293.4 290 287.7 286.1 285.6 287.3 288.4 288.2 286.6 283.7 281.8 276.3 269.4 264.5 256.8 255.8 252.5 247.2 248 248.2 244.1 243.9 244.4 246.3 247.2 249.2 250.5 252.7 257.9 262.7 265.6 266.2 265.5 265.9 265.8 263.7 257.3 253.1 247 241.9 237.2 234.4 233.2 232.1 231.5 230 227.8 226.6 226.3 224.7 223.8 223.1 221 219.4 217.1 213.3 213 212.2 209.7 208.1 206.6 202.4 197.9 193.8 191.2 190.6 190.2 189.7 190.7 191.5 189.7 185.7 181.6 177.6 175.2 174.7 173.5 170.3 168.6 158.3 152.6 147.8 133.3 113.4 107.5 105.7 111.5 132.2 135 141.9 144.1 144.9 147.3 149.1 148.8 154.4 157.6 161.5 165.9 170.6 174 177.4 181.5 184.6 191.6 192.1 193 197.7 199.1 204.1 208.4 213.5 219.4 223.7 225.8 224.1 222.3 218.8 220.8 228.5 237.8 248 250 254.2 253.3 248.8 239.9 256.5 261.6 268.9 274.7 284.6 288.2 294 300 308.8
389.9 387.4 385.7 385.3 383.1 380.2 376.7 371.9 367 357.6 359 358.9 360.8 361.2 362.3 363.7 364.9 366.1 368.6 370.5 372.8 369.1 364.6 360.5 357.4 354.5 351.9 346.3 347.5 343.7 344.2 341.4 338.8 338.3 336.3 337 336.8 337.8 338.8 338.6 338.7 340.3 341.4 338 332.8 330.1 327.9 326.3 324.1 322.8 319.7 314.3 317.3 317.5 315 314.8 314.4 315.9 314.6 313.1 311.7 309.7 307.3 304 300.5 298.1 296.5 295 292.3 293.3 292.9 294.7 295.1 294.6 290.7 286.7 279.3 275 270.8 267 260.5 262.6 258.8 258.7 254.7 255.6 255.8 257.3 257.4 259 261.7 264.6 268.5 272.9 275.7 277.1 275.1 272.7 270.2 267 261.3 256.4 255.2 251.2 245.5 246.2 243.7 240.7 238.7 237 232.6 230 228.5 226.8 226.6 225.5 224.3 221.9 221.1 218.4 217.1 218.3 219.8 222 220.9 216 207.9 200.5 195.9 195.1 194.8 195.9 197.2 198.7 196.6 189.1 182.4 177.6 175.4 175.3 171.2 168.4 164.6 156.6 151.7 148 139.9 120.1 109.1 106.3 105.3 114.7 134.4 140.8 143.4 144.9 146.3 146.9 146.6 151.6 153.3 156.2 160.9 164.5 168 172 175 178.1 182.7 185.5 187.7 192 196.1 200.3 203.7 208.1 213.6 216.6 216.6 209.1 210.8 208.9 214.3 219.8 218.7 217.7 227.2 236.6 229.3 231.6 240.8 259.6 266.1 271.6 275.9 287.5 292.2 296.3 302.2 313
374.4 373.3 370.9 368.9 368.6 368.1 368.1 366.7 362.4 358.4 353.5 355.1 357.4 358.7 360.1 361.8 363.1 364.7 366.4 367.7 366 362.1 358.8 355.7 353.8 352.2 351.4 347.8 343.4 345.8 343.3 329.8 324.7 330.5 330 330.7 332.8 334.6 334.9 335 335.9 338.2 338.7 334.5 330.8 328.9 327.1 325.8 323.3 321.1 319 320 320.5 321.3 320.8 321.4 321.9 322.2 320.9 320.5 318.8 316.7 314.4 311.9 309.6 307.4 306.5 304.3 304.3 305.1 307.4 306.5 304.3 302.8 300 294.2 289.7 283.9 278.7 276.4 275 272.3 271.7 268.6 267.5 267.3 268.7 269.3 269.2 270.4 272 274.9 276 280.7 282.9 282.6 279.5 275.6 272.2 268.3 263.8 259.1 258.3 255.6 257.6 258.3 256.4 252.2 248 243.3 238.4 233.1 231.1 231.6 230.4 226.8 225.9 224.6 225.3 229 231.2 233.6 236.2 234.8 231.2 225.1 213.8 204.8 200.8 201.1 201.4 200.8 199.4 197.2 194.3 188.2 182.7 178.4 177 174.7 168.2 166.2 162.2 156.2 151 147.7 144.1 127 112.8 108.3 104.9 104.3 124.1 138.3 142.6 144.1 144.7 145.1 144.5 147.6 148.8 151.3 157.3 160.2 163.6 166.4 169.8 174.6 177.7 179.3 182.6 188.1 193.9 197.6 200.2 203.6 207.1 207.7 201.3 201.9 205.3 213.4 203 206.7 223.8 230.3 232.1 232.1 240.9 247.5 256.4 264.9 269.9 277.2 281.6 289.2 294.6 300.3 309.5 316.8
365.9 365.6 364.3 363.2 361.9 360.7 359.1 356.9 354.4 351.1 348.7 352.6 355.5 356.9 359 360.1 362 363.7 364.1 361.7 358.7 355.9 353.4 350.2 348.7 349 349.8 349.5 347 338.2 342.7 336.2 324.1 316.7 315.8 320.9 326.8 330.9 330.3 331.8 333.4 336.8 334.8 332 330.4 328.2 326.5 324.6 324.2 323.2 323.1 323.8 324.6 325.7 327.4 327.3 327.3 327.7 327.2 326.5 324.1 323.6 323.7 321.9 319.8 317 315.5 314.3 315.2 316.9 315.9 315 313.2 309.2 305.6 296 294 291.6 288.6 285.7 281.8 280.3 278.3 279 279 281.5 281.3 280 280.4 279.6 280.9 281.1 281.2 283.1 283.9 282.7 280.5 276.4 273.6 269.2 267 268 265.7 262.3 262.8 264.1 265.3 263.1 255 248.9 243.8 241.4 242.4 244.6 241.7 235 229.1 228.3 230.6 235.2 240.7 242.6 241.3 238.7 233.8 226.6 216.7 207.6 203.5 204 201.7 199.8 196.7 193.6 190 185.9 181.8 178.5 175.4 169.3 167 166.8 164 158.7 154.4 151 147.6 140.1 125.3 111.4 104.6 103.7 116 131.7 140.4 142 142.8 142.6 142.7 143.8 145.7 147.4 149.9 154.5 158.5 160.8 165.1 170.2 171.7 175.1 179.1 184.4 190.9 194.6 196.6 197.9 198.1 194.6 189.9 194.4 201 199.1 209.6 224 235.4 241.2 244 247.6 254.7 259.7 264.6 269 274.3 279.7 284.9 290.9 296.4 304.2 314.9 320.7
355.3 355.4 354.3 354.1 354.4 353.7 353.7 352.7 351.7 349.7 347.4 350.6 353.5 356.3 358.5 360.4 363.3 363.4 357.4 355 352.9 349.7 347.9 344.7 344.3 345.5 348 349.5 348.3 343.2 330.9 332.9 323 321 315.5 310.7 323.2 326.2 327 329.8 331.8 333.5 332.3 330.5 328.9 328.1 326.5 326.9 326.3 326.5 326.7 328.1 329.8 330.2 331.6 332.4 332.6 332.8 332.4 334.1 334.3 334.4 333.1 333 327.2 324.9 323.6 323.6 322.4 322.2 321.2 321.2 320.4 317.7 310.1 306.2 293.9 296.2 293.5 290.4 287.9 285.8 285.2 286.1 288 288.8 289.8 289.8 289.7 288.1 285.4 283.5 282.3 282 281.9 281.7 279.3 277.8 276.2 279.6 282.4 281.2 273.8 265.2 264 266 267.9 266.6 258.3 252.7 248.7 249 249.7 248.4 245.9 241.1 236.2 233.8 232.2 232.8 235.7 237 237 234.1 229.4 223 216.7 208.6 202.3 200.2 198.9 197.1 194.3 190.7 186.9 184.6 182.4 176.1 170.2 167.5 168.1 169.4 167.4 163.3 159.1 155.7 152.8 149.1 143.8 130.7 110.9 103.7 105.4 108.8 128.2 137.4 139.6 138.8 134.4 133.6 137.1 140.3 146.2 152.2 154.2 157.3 161.5 165.7 170.4 174.9 178.7 182.6 187.3 190.9 192.5 191.3 187.9 181.9 186 195.7 207.5 213.7 227.8 243.4 254.3 258.8 255.2 255.3 259.9 267.2 271 274.1 278.9 283.1 288.8 294.3 299.6 308.9 317.4 323.3
349.4 349.2 349.3 348.4 347.1 346 346.4 345.5 345.3 343 347 350.8 354.2 357.2 358.3 359.9 363 360 352.5 349.4 347.2 345.1 342.3 340.1 340.3 342.7 344.6 347.4 344.2 339.4 338.3 335.6 333.3 331.6 328.3 311.8 311.4 321.1 324.8 326.9 330.1 330.3 329.9 328.7 327 327.2 327.2 326.8 326.9 327.4 329.5 332 333.7 335.3 336.7 335.6 337 339.9 340.4 343.4 345.3 344.7 342.4 339.1 336.2 335.8 331.9 329.1 328.2 326.7 327 325.8 323.4 319.2 314.8 306.6 286.8 297.7 297.8 294.1 290.7 288.5 286 286.9 288.1 287.6 288.3 289.9 291.1 290.3 287 284.4 282.1 281.8 281.4 282 283.3 286.1 289.8 293.7 295.1 290.4 278.7 268.6 265.7 267.3 270.8 269.8 264.6 256.8 251.5 251.6 251.3 249.3 246.1 243 239.7 237.3 233.3 232.9 228.7 230.6 230.9 229.6 225.3 219.9 214 208.6 202.1 195.7 194.6 194 192 188.6 185.1 181.3 176.6 173.1 168.7 165.7 167.1 169 168.5 164.2 161.5 159.3 156.8 154.5 150.2 145.5 127.5 110.2 102.5 106.4 107.2 119.1 127.1 123.4 133.6 141.1 145.8 149.1 151.8 154 155.1 157.4 160.2 164.5 169.9 174.6 177.9 181.5 184.4 186 185 182.9 175.8 180 196.6 207.2 214.8 224.2 238.5 255.8 262.8 267.4 267 264.6 268.5 271.8 277.8 281.4 284.3 288.7 292.9 296.9 303.8 313.5 319.8 322.8
343.1 343.9 343.5 342.5 342.3 342.2 342.1 342.1 338.8 343.4 348 352.3 357.5 360.5 362.7 363.6 359.4 353.3 347.4 341.9 340.3 337.8 335.2 335.7 336.9 338.6 341.1 343.8 337.6 334.8 336 335 334.7 333.2 330 324.4 305.3 312.4 321.4 324.7 327.4 326.6 326.1 326.1 325.9 325.9 326.5 327.6 328.5 330.6 333.3 335.5 337.3 338.9 341.1 343.6 345.6 347.6 350.2 351.1 351 349.5 348.4 346.9 343.6 341.8 338.3 334.3 331.5 328.1 327.3 323.7 321.6 317 312.8 307.9 295.6 284.6 295.1 292.7 287.5 285.7 284.1 282.3 282.4 282 282.8 284.7 287.6 289.8 289.9 287.9 285.1 283.4 284.3 289 293.1 298.1 301.9 303.2 301.8 292.5 282 272.2 271.2 274 276.7 277.6 269 258.8 249.4 246.3 247.6 246.8 244.3 242.8 240.5 238.3 235.8 235.8 230.7 225.7 222.8 222.5 219.9 216 212 206.2 199.5 194.3 191.9 191.4 190.3 188.8 185.4 179.9 176.3 170.6 168 166.2 165.1 166.2 166.8 164.3 162 159.9 157.8 155.5 153.2 150 136.5 117 107.8 102.5 106.1 107.7 116.2 132.9 137.1 140.9 143.6 145.6 148.6 151.7 153.7 155.2 158.2 162.5 167.2 172.8 176 180.1 180.9 181.6 177.8 173.5 174.1 190.1 203 213.1 221.2 232.5 251.2 263.3 272.1 275.9 277 275.5 277.4 280.3 282.3 287 289.4 293 296.3 300.7 307.9 317.8 323.6 318.8
337.5 338.2 337.7 335.3 333.5 334 335.8 332.3 341.6 346.6 350.8 354.9 359.6 363.5 364.1 362.7 359.5 349.5 339.9 335.1 333.7 332 330.4 332.1 333.2 334.1 335.5 334.3 331.7 330.7 332.6 333.9 334.1 333.8 332.3 325.4 308.9 302.3 314.3 320.2 321.9 322.1 322.8 322.7 323.3 324.2 326.2 328.8 331.4 334 336.1 338.9 341.4 343.3 345 347.1 348.1 350 351.7 353.9 354.4 354.9 352.9 351.2 348.1 344.3 337.8 335.4 332.3 325.6 320.2 313.4 312.5 309.4 308.8 307.9 300.4 291.5 278.3 286.3 283.9 280.7 277.4 273.5 274.8 275.5 276.7 280.3 285.1 289.3 292.4 293.4 291.9 290.4 292.9 296.2 300.9 303.5 304.6 303.5 299.5 289.2 281 275.6 278.5 285.1 284.4 281.2 271.3 257.3 248.8 242.1 240.9 243.1 242.3 241.1 239.6 237.9 236.2 236.1 233.7 226.7 220.9 217.1 216 213.3 210.1 205.1 198.8 194.6 191.9 190.3 188.3 186.5 184.5 180.6 178.1 174.8 171.8 169.9 168.1 165.6 163 163.6 161.4 158.9 156.6 153.4 150.7 142.3 130.1 121 114.7 107.1 102.5 107 108.2 119.4 132.1 136.6 139.3 141.9 146 150 151.4 153.6 156.3 160.8 165.7 170.7 175.5 177.1 176.5 174.4 164.6 170.8 184.7 197.1 210.8 219.1 227.3 242.1 258.4 273.7 282.8 285.2 284 285.1 284.1 286.4 288.6 291.2 293.3 296.8 300.6 306.4 313.4 319.4 321.1 312.9
330 326.7 323.1 321.3 319.3 314.8 329.2 338 344.1 349.1 353.5 357.7 360.6 360.3 356.7 351.3 340.8 332.4 327.6 324.9 327.3 323.9 328.2 328.6 328.6 329.3 328.7 325.5 324.3 327.5 329.8 331.9 333.1 332.8 330.8 326.8 311.5 296.8 305.3 314.8 316.2 317.8 318.9 320.3 322.1 324.7 327.3 330.5 334 337.5 340.1 342.6 345 346.1 346.9 347.4 348.3 349.8 350.6 353.4 354.5 356.3 355 351.4 344.8 339.7 335.7 334.3 333.9 325 307.7 305.6 304.1 302.4 300.2 296.7 293 289.6 286 277 276.2 271.8 270.7 269.1 263.8 268.3 270.9 274 280.5 287.4 292.8 295.9 295.8 292 289.6 287.6 286.8 290.5 291 289.7 285 280.4 279.8 281.4 283.5 285.2 281.4 272.1 260.8 253.5 247.3 241.6 237.8 237.9 238.9 237.8 237.5 236.3 235.2 233.5 231.9 227.9 222.2 215.3 211.8 209.7 208.2 204.4 200.5 196.8 192.2 188.8 186.5 185.6 185.5 183 180.2 177.8 174.5 171.4 169.4 167.1 165 164.2 161.4 158.5 156.9 155.1 152.1 148.8 145.5 142.1 132.8 113.5 106.7 102.5 105.1 111.6 118.3 131.3 135.3 139.3 143.9 146.5 149.6 152.4 155 158 162 167.6 171 170.5 164.8 158.4 173.3 184.2 195.2 205.6 215.4 223.9 234.9 251.4 268.6 282.2 290.2 291.1 290.4 289.2 292 292.7 294.3 296.2 298.2 301 305.7 311.3 316.6 322.8 316.7 302.4
316.4 314.3 310.2 301.4 301.7 323.7 337 342.7 347.6 351.4 353.5 352.1 347.4 341.6 341.1 338.5 326.5 320.3 316.8 315.3 314.4 316.5 322.3 323.9 322.9 323.3 321.3 316.8 318.7 324.3 327.6 329.4 330.4 329.7 327.4 322.4 312.9 293.1 299.9 307.1 312.8 315.2 317.5 319.8 322.1 323.8 327.2 331.7 336.8 340.6 343.8 346.2 347.8 347.6 347.6 347 345.4 347.5 349.6 351.7 354.4 352 349 344.7 329.7 321.3 317.4 317.4 323.3 306.1 300.7 299.7 299 297.3 295.1 291.4 287.4 282.2 271 267.2 265.2 264.2 263.1 262 260.2 260.6 263.2 267.3 271.4 284.5 292.3 297.8 295.9 288.7 279.7 272.2 269.1 266.4 265.1 268.1 269.9 273.4 278.2 282.5 278.1 275.4 267.6 259.4 254.1 248.4 243.9 240.5 236.6 235.3 234.6 234.6 234.6 234.2 233.2 231.7 229.7 225.6 221.4 217.1 211.7 207.8 204.7 201.7 198.4 196.2 193.4 189.2 187.6 188 185.3 182.8 180.3 179.2 177.5 172.5 169.7 167 165.3 164.3 162.4 159.8 158.7 155.4 151.2 148.8 148.3 147.1 141.4 129.3 110.2 106.3 102.5 106 112 118.8 131.9 137.4 141.8 145.1 147.3 149.5 152.5 155.3 158.3 159.7 158.6 152.7 151.6 170.4 183.5 193.1 202.3 211.8 222 232.6 245.9 261.6 277.4 289.4 294.7 294.6 295.8 295.7 296.7 297.6 299.7 302.3 304.3 307.8 312.1 315.6 320.7 317.3 305.9 294.4
301.7 298.6 294.7 281.1 308.3 330.7 344.9 351.2 354.6 356.5 356.1 352.7 338.2 329 327.6 323.4 317.6 311.1 309.1 307.1 305.2 306.8 311.6 316.5 313.9 315.7 311.1 314.1 317.4 318.5 321.8 323.2 322.6 321 316.9 313.2 300.3 293.5 302.8 307.1 312.2 316 316.4 320 322.3 324 326.5 332.8 337.1 341.2 343.9 344.3 345 347.5 347.3 347.3 344.5 340.6 342.9 344.1 344.2 338.4 333.6 320.1 309.8 305.2 301.2 301.6 299.4 296.2 295.1 294.5 293.7 292.8 290.5 285 276.8 268.1 264.6 262.9 261.7 261.4 260.2 259.1 255.2 257.3 257 259.4 263.1 268.1 277.7 285.3 285.8 275.9 267.2 259.1 254.6 251.7 250.8 252.3 258 265.3 271.1 272.7 267.8 260.9 257.5 253.1 247.8 244 240.2 237.5 235.2 233.8 232.7 232.8 233 232.5 231.3 229.4 226.8 224 221.5 218.2 213.5 208.4 204.5 199.6 197 195.3 193.1 190.1 189.3 189.3 188.8 186.1 179.1 175.7 175.2 172.6 169.1 166.9 165.6 163.4 160.9 158.5 156.8 153.5 149.2 147.5 147 146.1 144.3 137.7 127.5 111.9 105.7 101.3 107.6 114.1 125.1 135.9 139.9 142 142.7 143.9 145 145.2 142.2 142.6 144.5 151 166.6 182.8 192.6 200.5 208.4 217.9 229.6 241.4 256.1 269.7 283.2 292.1 296.5 298.5 299.8 302 302.6 300.2 304.1 308.3 311.6 315 317.9 316.9 314.9 306.7 295 290.9
281.5 280.1 267.1 289.8 307.1 321.1 340.2 358.3 361.5 364.4 363.6 344.9 324.1 318.6 315.2 311.9 305.7 303.8 302 300.7 298.5 301.5 303.3 303.8 303.7 308.4 302.6 307.4 308.7 311.7 312.5 312.8 312.6 309.3 307.4 306.4 294.3 290.6 302.8 307 311.8 313.9 315.1 318.6 323.8 327.5 330.4 333.4 336.4 338.5 337.6 336.2 336.7 335 337.2 336.1 330.8 325.6 322.5 321.9 317.2 310.3 301.8 296.8 293.7 292 291.6 292.5 294.1 293.4 292 291.1 287.6 287 281.7 272.2 267.8 263.5 262.1 260.3 258.8 257.5 256 255.7 253.9 254.4 255.5 255.4 255.3 256.2 256.3 257.4 259.3 258.6 254.9 252.4 250.1 249.6 249.2 249.1 251.7 255.5 258 254.4 253.4 252.5 250.2 246.5 242.5 238.8 236 234.4 233.6 232.8 231.7 231.8 230.9 231 229.9 227.5 225.5 223.8 221.3 218.6 216 210.9 205.8 202.3 198.7 195.1 191.7 191.8 191.4 190.5 189.9 185.9 179.8 174.5 171.1 168.7 166.4 165.7 164 161.7 155.6 151.5 151.3 151 148.6 148.3 145.9 141.7 139.8 136.8 132.4 127.1 111.4 105.1 101.3 109.5 124.7 134.9 135.7 129.5 127.8 133.8 128.4 134.9 142.5 152.2 161.1 170.9 179.2 190.3 199.5 208.2 215.4 226.5 239.1 251.9 263.4 274.8 285.1 292.6 294.5 299.6 303.6 306.1 302.2 305.6 310.7 314.6 316.9 319 318.8 310.1 305.6 296.7 289.2 288.1
266.6 264.1 267.4 277 286 298.9 318.1 339.1 362.5 370.7 349.5 326.2 313.6 308.5 303.8 298.9 297.1 293.9 292.9 292.3 291.4 294.3 295.2 294.4 293 295.8 293.8 296.9 298.5 300.1 302 302.9 302.8 302.3 301.2 300.8 293 285.7 299.3 305.9 310.4 311.7 316.4 322 327.1 330.7 330.4 330.3 331.1 327 315.5 307.3 303.6 304.5 305.1 307.7 310.8 307.8 304.5 300.7 296.9 292.4 290.7 286.6 286.9 288 290.4 292.5 293.9 294.1 293.2 286.4 283.2 280.4 271.5 267 263.3 259.2 255.3 252.4 252.1 252.5 251.7 251.4 249.8 252 253.1 250.1 250.3 250.8 250.6 250.1 249.3 249.5 248.7 247.3 245.9 245 246.1 245.1 245.1 244.5 243.5 244.2 245.4 244.6 243.8 241.1 238.2 234.8 233 231.6 231 230.9 229.8 229.9 229.4 228.9 228.2 227.7 226.2 223.9 221.2 218.6 215.8 211.8 207.4 204.9 201.9 197.4 194.4 194.3 193.2 191.9 189.3 185.3 180.2 173.9 169.5 166.1 164.5 161.5 161.3 158.5 152.1 153.1 151.1 149.9 150.5 149.1 146.6 142.3 134.7 131.4 128 126.3 123.1 106.3 101.3 105.9 125 127.9 119.5 126.5 137 142 148 151 158.5 166.3 172.7 182.7 193.2 196.8 205.9 218.1 223 234.5 245.6 257.4 268.9 278.4 287.1 292.6 295.1 299.9 304.3 304.7 297.6 310.9 315.4 319.3 321 321.1 317.6 308.2 296 289.2 285.3 286
258.4 254.4 263.2 270.7 279.5 292.7 305 324.9 345.9 346.3 333.7 322.8 310.1 301.2 295 290.7 286.7 284.2 283.6 284 282.1 285.7 286 284.6 282.7 284.3 280.7 286.9 290.6 292.6 294.5 296.7 297.5 297.3 297.1 293.8 288.5 274 298.4 303.2 305.8 307.7 315.6 321.8 325.3 325.4 323.2 320.5 312.2 301.1 293.9 291 289 291 291.7 292.4 292.3 291.7 290.4 288 285.8 283.2 279.1 278.2 277.2 278 280.4 283.6 282.1 278.5 276.6 273.5 271.7 265.4 263 260.9 257.2 254.4 251.3 248.4 246.3 243.8 241.9 240.5 240.9 247.3 245.4 242.8 244.5 245.6 245.7 246.3 246.3 246.1 245.8 245.3 244.4 243.5 242.4 241.1 239.8 238.8 238.5 239 238.4 237.6 237.1 235.8 234.3 232 230.3 229 228.5 228.1 227.3 228.1 227 225.6 224.8 223.7 223.3 222.3 219.7 217.3 215.5 212.5 208.6 206.5 203.6 200.1 197.6 196 194.4 191.5 190.5 187.2 181.8 174.6 169.7 166.4 162.5 157.8 154.8 154.4 152.2 156.9 156 152.9 150.3 147.9 145.2 141.8 137.7 131.4 119.8 120.1 118.3 108.9 104.3 101.3 114.1 109.6 123.6 141.5 148.3 153.9 158.7 162.5 168.1 175.9 185.1 193.8 200.3 205.2 211.6 222.5 232.3 245 257.3 265.9 273.2 278.5 287.1 291.5 297.1 299.6 302.1 294.9 304.1 313 318.2 322.6 325.2 317.8 314.3 303.7 289.3 283.6 283 283.8
250.9 256.1 260.5 268.3 277.4 288.6 302.1 314.4 323.6 327.6 328.9 315.2 301.7 292.4 285.9 282.6 279.9 278.7 275.9 277.7 273.6 275.3 275.5 274.8 274.2 274.3 271 277.5 279.4 281 281 285.4 289.3 291.7 289.6 282.1 274.2 270.4 287.2 295.8 297.4 302.6 309.7 315.3 318.4 321.7 321.8 315.6 301 289.1 287.5 285.5 285.3 286.2 286.8 286.6 288.1 288.6 283.6 277.6 274.3 271.7 268.7 266.5 266 264.2 261.8 261.8 260.7 259.9 259.3 258.3 257.4 256.5 255.3 253.4 251.5 249.7 247.6 244.6 242.7 240.6 238.4 236.6 235.8 236.8 237.8 237.6 239 240.3 240.9 242.1 242.5 243.2 243.7 243.6 242.6 241.6 239.3 238.9 237.8 236.8 236.5 235.7 235.7 235.1 234.4 233.5 232.1 230.8 229.1 227.8 226.6 225.2 224.3 223.7 222 221.7 221 221.4 221.4 221.3 218.8 216.1 212.8 210.9 208.5 205 202.1 198.5 195.7 194.2 192.3 190.5 190.9 187.4 182 175.4 176.2 170.2 161.1 153.3 150 151.3 155.3 157.3 155.3 151.9 148.1 145.1 143.5 141.9 138.4 128.8 118.9 113.7 110.1 110.4 103.9 101.3 108 121.7 136.1 143.4 152.2 159.5 166.5 173.6 179.7 184 192.1 199 206.1 213.5 222.5 235.4 242.3 250.9 261.1 268.8 274.3 282.1 289.2 288.9 297.2 298.6 297.9 291 305 312.5 318.5 321.7 321.3 314.5 308.2 297.1 283.2 280.2 280 283.5
251.8 257.6 261.9 267.5 278.6 289.4 302 309.2 314.3 313 306 295.8 288.4 281.3 277.3 275.3 273.6 271.7 270.6 269.5 264.7 267.9 267.2 266.9 264.9 265.7 260 267.8 268.8 269.5 269.8 272.3 277.7 276.5 270.2 260.6 254.5 271.3 281.5 287.6 290.4 298 306.3 314.8 321.1 323.7 310.1 289.6 283.5 283.2 281.3 280.8 282.9 284.6 286.8 283.2 278.4 275.1 272.9 269.5 266.1 261.7 260.5 257.7 257.1 256.9 255.7 253.7 252.4 250.9 250.9 250.6 248.5 247.7 248.1 248.2 247.3 246 245.2 243.9 242.5 238.8 235.9 233.2 231.9 231.5 231.3 231.3 232 233.6 235.2 236.6 238.6 239.7 240.1 239.8 239.2 237.8 236.7 234.9 233.7 233.2 233.3 233.1 233.1 233.4 233.6 233.5 232.5 230.9 229.6 227.8 225.5 223.4 221.2 219.7 218.1 217.5 217.3 219.1 220.6 221.5 220 217.3 214.1 210.9 207 203 198.9 196.5 193.6 191.5 190.5 189.9 190 187.4 183.6 179.1 175.2 166.5 156 147 147.4 153.5 158.5 157.7 153.5 148.2 144.8 142.3 141.4 141.1 138.3 126.4 112 110.4 109.7 106.8 101.6 102.8 112.2 130.8 138.1 147.1 157.8 166.6 178.2 182.6 186.8 195.5 201.5 207.4 213.6 225.2 239.4 248.2 255.6 264.6 270.3 273.6 279 286.3 290.7 287.8 295.8 293.2 290.3 291.9 301.6 309.6 314.7 317.4 316.3 312.8 302.9 290 279.5 278.1 278.2 280.6
248.2 257.5 263.9 270.4 278.1 285.7 292.7 295.9 293.7 289.8 285.6 278.7 273.4 269.9 268.3 267.1 265.6 265.8 264.9 264.6 253.7 261.2 259.1 258.4 257 256.7 249.8 256.6 257.9 259 259.1 259.2 257.2 258.5 256 247.3 258.1 264.7 272.2 277.5 280.3 288.3 288.8 285.6 285.9 283.5 277.4 272.2 272.3 271.4 271.5 276.6 283.4 283 279.3 273.4 270.2 267.1 264.1 262.2 258.8 255.2 252.9 251.4 249.8 247.1 244.8 245.7 245.7 245.3 244.5 244.5 244.5 244 243.5 243.4 242.8 242.1 241.1 240.9 239.8 238.4 236.2 233.6 230.1 225.4 225 224.3 223.3 226.4 228.8 230.9 233.7 235.4 236.4 236.3 235.8 235 232.9 231.2 230.3 230 230.5 230.6 231.1 232.5 234.1 234.4 233.5 231.6 229.6 227.8 225.8 223.3 220 216.9 215.8 214.6 214.2 214.9 217 217.8 217.4 215.9 213.9 211.6 208.5 204.2 200.3 196.8 193.4 188.7 186.7 186.7 186.3 184.2 181.4 178.8 174.5 160.4 145.1 143.6 152.5 157.2 160.5 158.2 151.7 145.3 141.4 139.3 138.9 139.1 136.8 120.3 110.3 109.5 108.7 103.6 100.5 102.6 121.8 133.2 141.7 153.2 167.3 179.1 184.4 188.2 196.2 203.6 211.1 217.4 228.3 240.7 249.9 259.4 267.8 276.5 279.8 282.9 287.3 289.4 286.5 289.4 291.8 287 282.7 289.7 296.3 303.4 307.5 310.4 313.2 310.5 298.9 285.5 277.3 275.3 275.3 277.3
238.3 247.4 257.5 249.2 266.6 269.7 272.5 272 270.5 270.4 267.5 265.1 263.4 261.2 259.8 259.5 258.9 259.8 259.3 258.6 251.5 250.5 252.3 250.5 248.5 247.9 242.7 246.8 249.8 250.1 250.7 250.7 249.1 248.7 248.1 238.3 248.6 255.7 256.5 260.8 260.2 257 255.3 258.2 257.8 258.3 255.8 258.3 258.6 263.1 265.2 270.4 271.4 272.5 268.9 263.7 261.1 258.4 255.3 254.7 252.4 250 248.4 245.9 244.1 243.3 242.4 242.1 242.2 241.4 241 241.1 240.9 240 239.8 239.5 238.5 237.4 236.9 236.8 236.4 235.7 235.1 233.5 230.3 225.6 220.9 218.8 218.6 220.6 222.7 225 227.3 229.6 231.3 232 232.1 231.2 230.2 227.8 227.1 227.3 227.8 228.5 230.3 232.7 234.7 235.2 233.8 231.3 227.9 226.3 225 222.9 220.4 217.4 213.9 212.4 211.5 212.1 212.3 212.9 213.3 213.2 212.6 212 209.9 206.5 202.7 198.6 194.6 190.5 186 182.4 181.5 180.5 179.8 177.3 171 155.1 141.6 153.9 157.6 159.3 159.8 158.3 151.9 144.5 139 136.2 135.9 135.9 134.7 120 109.2 109.1 103.2 103 100.2 102.3 126.8 136.6 147.6 162.6 179.1 186.7 191 195.3 204.5 212.9 223.5 235.1 242.7 250.4 259.3 268.3 274.2 283.5 286.7 289.7 291.4 289.8 285.8 287 285.7 284.2 275 282.7 292.8 295.9 298 301.3 308.7 305 295.8 283 275.1 272.9 272.9 276.2
228.7 230.1 234.9 239.6 243.5 246.7 251.2 254.4 255.7 257.8 259.2 258.1 257.2 255.9 254 252.7 251.4 251.7 252.3 252.4 249.7 243.1 246.8 245.5 242.8 242 236.5 238.6 241.1 241.8 242.6 241.5 240.1 240 237.2 231.7 240.4 240.3 240.6 238.2 238.4 237.7 237.1 237.6 239.1 239.7 243.6 246.5 249.8 253.1 259.3 263.2 265.9 264.5 259.3 254.6 252.9 253.5 253.8 255.8 253.7 249.6 244.6 241.7 238.3 236.9 237.6 237.7 237.4 237.2 237.2 237.9 237.7 237.3 237.3 236 235.2 234.1 233.2 232.3 232.6 232.2 231.2 229.8 226.8 224.9 221.1 218.8 214.7 215.3 215.9 218.2 219.7 222.4 223 224.8 226.1 226 225.2 223.7 222.7 223.7 224.2 225.6 227.9 230.1 232.9 234.1 233.4 230 226.3 224.2 223.1 221.4 218.9 216 213 211.4 210.1 210.4 210.2 210.7 211.5 212.3 212.8 212.1 210.1 206.9 203 198.3 193.6 188.2 184.4 179.6 178.6 177.3 175.5 173.2 163.2 148.7 142.6 153.4 156.5 155.5 155.8 155.8 151.8 145 137.9 133.8 132.8 132.2 130.5 116.6 108.3 108 102.4 102.1 100.3 104.4 131.2 139 153.1 171.2 184.6 196.4 203.2 205.5 212.5 224.7 242.6 252.6 253.4 262.4 270.4 275.7 284 288.1 290.5 292.7 292.7 281.5 285.3 282.7 279.3 278.8 269.9 271.7 285.3 288.1 288.8 293.5 303.1 301.8 292.7 281.7 272.8 270.6 270.7 274.4
219 221.6 223.8 226.6 228.5 233.6 237.7 242.5 246.9 249.6 251.7 253 252.7 251.3 248.3 244.3 243.9 246.6 243.9 245.5 245.6 228.8 237.4 242.5 238.4 237.4 234.2 230.3 234.2 233.8 233.7 234.4 233 231.8 222.5 231.5 231.2 230.5 231.8 228.3 228.1 228.4 227.1 227 227.8 230.9 235.1 238 242.7 245.9 250.9 254.3 253.4 248.4 244 242.5 244.9 246.9 247.6 245.6 237.6 236.9 234.8 234.2 231.7 229.9 230.7 231.2 230.1 231 231.7 233.1 233.5 233.3 233.4 232.9 231.3 230.7 229.5 228.3 228.4 227.7 226.4 225.9 224.6 223.7 222.5 219.8 216.7 212.6 210.1 210.7 212 213.8 215.1 216.3 216.4 216.5 217.2 217.9 218 219.3 220.2 222.4 222.9 224.8 227.1 229.1 229.3 228.6 226 223.6 220.9 218.4 215.1 212.2 210.3 209 207.9 207.4 207.7 208.2 208.8 210.5 211.1 211 209.1 205.9 202 198 193.5 188.3 182.9 179.7 175.7 173.1 170.5 167.7 156.6 143.2 142 152 154.3 151.7 151.9 152.6 149.4 143.8 137.2 133.3 130.2 128 125.9 109.4 108.1 102.1 102.6 102.4 100.2 111.9 133.3 144.1 157 179.6 196.1 203.9 206.8 211.7 221.7 237.1 254.5 262.5 257.8 272 277 282.6 287.1 290.7 292.3 292.7 287.8 278.5 279.9 278.3 275.4 268 262.8 272.5 272.2 280.7 281.7 285.3 295.4 296.7 289 278.8 271.3 268.8 268.6 270.8
213.1 213.3 218.2 220.9 223.3 225.6 227.6 232.1 235.6 239.4 243 244.3 244.7 240.6 233.3 228.3 226.1 233.8 233.4 239.5 239.8 225.9 229.9 237.4 235.3 231.9 230.5 221.9 229.7 229.4 228.7 227.9 226.8 224.7 209.9 224.6 223.8 222.7 223.2 222.4 220.7 219.9 220.5 221.2 222.8 225.4 230.3 233 235.2 238.3 240.1 239 237.7 235.1 234.4 233.2 231.9 232.2 229.5 227.8 227.5 226.9 226.9 225.5 224.7 224 224 224 224.8 226.4 227.1 228.6 229.4 230.1 230.5 230.4 230.2 228.4 227.1 225.6 223.6 223.2 222.5 222.3 221.4 221.4 220.5 218.9 215.7 211.8 206.7 203.1 203.1 205.9 206.9 208.4 209.4 210.5 211.1 212.6 212.6 215.6 218.6 219.8 220 220.4 220.2 220.8 223.6 226.1 227.2 226 222.6 219.2 215.1 210.9 207.9 206.5 206 206.3 205.3 205.7 206.5 208.1 209.4 210.1 208.4 205 201.2 197.4 194.5 189.1 184.1 179.6 175.1 170.5 166.2 161.8 151.8 139.6 138.8 150.5 152.4 149.6 148.5 148.4 145.5 140.6 136.2 132.4 128.3 124.2 120.2 107.9 107.8 101 102.6 100.1 103.2 126.5 136.3 149 165.7 183.3 198.8 205.7 209.6 216 227.7 247.4 259.6 258 266 277.2 282.3 287.4 289.4 291.3 291.9 290.1 284.5 275.8 275.5 273 271.2 264.9 255.8 264 268.9 272 274.1 278.3 289.5 290.8 286.2 276.8 271.1 267.5 265.8 266.1
