ncols 200
nrows 86
xllcorner 250000
yllcorner 114600
cellsize 50
71.9 73.9 75.5 76.8 76.5 75.5 74.2 70.7 67.6 71.1 72.2 74.2 77 80.8 88 94.5 99 101.6 102.2 99.6 94.8 83.8 87.8 98 102.6 106.8 107.6 108.7 111.7 115.1 118.8 122.1 125.5 126.8 127.7 128.5 129.6 128.8 127.3 125.3 122.6 120 116.6 115.9 112.2 107.5 97.7 82.6 85.1 91.2 85.6 90.4 100 105.1 109.2 112.4 115.2 117.8 118.8 120.2 121.1 122.5 123.6 124.3 123.8 122.7 120.8 118 114.8 111 104.6 96.8 103.2 107 111.6 115.3 119 122 124.7 127.2 131.3 134.7 137.6 140 142.4 144.3 145.9 145.7 142.6 136.3 116.6 98.5 90.2 102.9 111.1 118.4 125.4 129 128.8 127.9 126.7 127.8 128.2 128.4 130 131.6 134.1 135.5 137.4 139.9 142.1 144.5 146.1 147 147.7 147.7 147.5 147.2 145.6 142.1 137.5 131.5 129.1 131.4 140.7 145 149.1 153.4 158.4 161.8 164.8 166.7 167.5 167.8 168.1 168.1 170.9 173.8 176.8 179.7 182 184.2 186.7 188.9 189.7 189.2 187.8 185.9 184.6 183.8 183 181.9 180.9 179.7 178.1 176.2 174 172.1 173.7 176.1 178.5 180.9 183.3 185.3 186.4 186.7 186.5 185.4 183.9 181.9 179.7 177 174 171.6 169.5 168.1 166.5 165.7 164.9 164.8 162.7 161.7 160.5 159.6 158.5 157.2 156 153.4 149.2 146.9 149.9 151.4 149.3 152.9 157 160.2 163.2 165.2 166.3 164.7
72.7 75.4 76.6 76.8 77.1 77 74.7 70.9 69 65.6 70.5 72.6 75.4 79.4 84.4 90.6 96.2 100.6 101 97.6 89.8 76.1 88.5 95.4 99.1 102.9 104.2 106.9 109.7 113.8 117.7 120.9 123.4 125 125.5 126.6 127.2 126.1 125.1 123.4 120 117.1 113.6 111.7 108.9 105.3 101.2 91.3 80.4 82.4 86.2 89.4 98.9 104.8 108.9 113.2 116.1 118.4 120.5 122 122.8 123.4 123.4 123 121.3 119.5 117.4 115.1 113.9 111 106.1 97.1 98.6 102.8 107.3 112.8 117.2 121 123.6 126.2 129.9 133.9 136.8 139.4 141.4 142.4 142.2 140.9 138.1 130.6 107.4 89.3 95.6 111.4 121.7 126.1 127.9 127.4 126.7 126.1 124.3 126 128.3 128.7 130.3 133.1 135.9 137.7 140.3 142.8 144.3 146.4 147.7 148.9 149.2 149 148.9 148.7 148.5 145.6 140.9 131.3 127.9 136.4 142.9 146.9 151 155.3 158.2 161.3 163.5 163.9 163.4 163.3 164.4 167.9 171.4 174.3 177.3 180.2 182.7 185 187 188.3 189.2 187.9 186 184.1 182.1 180.7 179.4 179.7 178.9 177.1 175.3 174.1 172.2 170.1 172.5 175.2 177.6 180 182.4 184.5 185.9 186.3 185.5 184.4 182.3 180.3 177.9 175.4 172.1 169.1 166.4 164.1 162.8 161.8 161 160.3 160.1 158 157 156.2 154.8 153.1 149.8 148.3 149 151.8 155.1 155.4 153.8 152.8 156.9 160.3 163.4 165.7 166.6 166.2
72.3 75.2 76.6 77.2 77.1 76.9 74.7 70.7 68.3 60.1 68.4 71.4 74.1 76.7 81.8 87.8 94.6 99.9 100 95.8 82.8 75.9 82.2 87.5 94 99.7 103.9 108.5 110.4 113.8 116.6 119.5 121.2 122.7 123.9 125.1 125.4 125.2 123.8 120.8 117.4 113.8 108.3 105.3 103.7 102 98.3 89.4 78.9 85.2 92.3 98.4 99.2 99.8 106.3 110.8 114.6 117.1 120 122.1 123.5 124.1 123.7 122.5 120.9 118.4 114.8 111.3 109.8 108.4 105.9 100.4 92.8 99.2 106 112.5 115.3 118.1 121.1 123.3 125.2 130.3 133.6 136.5 137.9 137.8 136.6 133.2 129.7 116.3 96.5 87.7 103.4 116.8 124.5 126.6 126 125 123.8 123.9 121.9 124.1 126.5 129 131.9 134.8 137.6 140.1 142.5 144.1 146 147.5 148.3 149.1 149.6 149.8 150 149.9 148.7 144.8 141.1 129.7 130.8 139.6 143.5 148 152.5 155.9 158.4 159.7 159.8 159.2 159.8 161.7 164.7 168.2 171.6 174.7 177.8 180.5 182.4 184.3 185.2 185.6 185.3 184.2 182.2 180.1 177.9 175.7 174.7 173.8 173.2 172.7 172.5 171.6 169.9 167.7 170.5 173.4 176.1 178.6 180.6 182.6 184.2 183.9 183.4 182.3 180.3 178.2 175.2 172.5 169 166.5 164.7 162.5 161.2 159.3 158.5 157.7 156.3 155.1 153.7 152.5 151 148.7 148.9 150.5 153.8 156.9 158.4 158.9 158 153.8 156.2 159.3 162 164.6 166.7 167.4
71.8 75.2 77.2 77.8 77.2 76.8 74.4 71.9 68.1 56.7 62.2 70.3 72.6 75.3 78.5 86.3 93.5 97.8 98.3 93.8 77.4 73.8 88.5 94.3 99.5 103.3 107.2 110.1 111.7 113.2 115.5 116.6 118.4 120.6 122.6 124.5 125.6 124.8 123.1 120.6 116.2 113.4 106.8 100 92.9 91.1 88.8 80.4 80 89.6 96.8 101.8 105.2 108.3 109.3 109.4 112.3 115.9 119 122.1 124.2 124.9 124.7 123.8 121.9 118.8 114.6 110.7 106.9 102.5 101.1 98.8 93.3 93.4 100.6 105.8 109.4 112.4 114.3 115.4 117.1 122.1 127.5 131.7 133 132.4 130.3 125.3 113.5 101 87.8 91.3 106.5 119.4 123.8 123.9 121.7 120.6 119.6 119.3 120.4 123.4 126.3 129.2 132.8 136.9 139.5 142.1 143.9 145.5 146.4 146.4 146.3 146.7 147.1 145.4 145.4 145 144.2 142 138.7 125.9 132.6 139.8 144.2 148.3 152.3 156.5 158.1 159 157.4 157.3 159 161.8 164.7 168.4 171.3 174 176.3 177.6 179.5 180.9 181 180.9 180.4 179.2 178 176 173.8 171.5 170.6 170.2 169.6 169.4 169.3 168.9 167.1 165.5 168.4 171.3 174.2 176.9 178.8 180.7 182.3 182.4 181.7 179.7 177.9 175.9 172.8 169.6 166.8 164.9 163.1 161.3 159.6 158.3 156.2 156.6 155.3 154.4 153.2 151.8 150.6 150.8 153.1 155.3 157.7 159.3 160.8 160.8 159.2 156.6 157.8 161.2 163.5 166 168.1 169
73.5 76.8 78.3 78.7 78 76.5 74.2 72.2 69.7 65 56.8 68 71.6 73.5 76.3 81.1 87.4 91.6 91.5 85.1 68.5 74.9 94.9 100.4 104 107.2 109.5 111.8 112 110.4 109.6 110.6 114.4 118.3 120.9 122.7 124 123.4 121.5 119.5 115.9 111.3 105.2 98.1 91 84.2 78.3 76.1 82.2 93.1 99.1 104.3 108.5 112.7 115.1 116.6 119.2 120.1 121.2 123.1 125.3 126.6 126.6 125.9 123.3 120.4 116.5 112.6 108 104.7 102.5 101.8 99.1 95.1 91.4 98.4 102.4 104.9 107.9 108.1 109.2 113.9 122.9 126.8 127.6 126.3 121.7 116.2 98.8 88.4 84.3 93.7 108.6 118.8 120.6 119.4 116.7 115.5 115.3 118.1 121.4 123.9 126.7 129.5 133.7 138.5 141 142.9 143.6 144 145.1 143.2 141.4 141.2 140.5 139.7 139.4 139.2 137.2 133.2 124.8 122.9 133.5 138.9 143.6 148.2 152.1 155.7 157.5 158.3 157.4 156.4 159.1 161.9 164.7 167.5 169.5 171.9 174.1 174.7 176.5 176.5 176.5 176.2 175.6 174.5 173.3 171.9 169.8 167.4 166.7 166.5 166.1 166 166 165.8 164.3 163.3 166.3 169.1 172 175 177 178.9 180.5 180.7 179.2 178.1 177 173.8 170.8 168.5 166 164.2 162.6 161.5 160.3 159.2 158.2 157.8 157.4 156.2 154.8 153.5 152.3 153.8 155.7 158.2 160.6 161.6 163.2 163 161.3 158.8 160.1 163.1 165.4 167.5 169.5 170.4
72.8 76.4 77.2 77.7 77.6 76.4 74.1 72.2 69.2 61.6 47.7 65.2 69.8 71.6 72.9 76.2 79.3 80.5 77.1 68.8 63.5 79.7 95.7 102 106.2 108.9 110.2 110.4 109.4 106 103.3 101 107.2 112.5 116.6 119.5 120.7 120 120 119 117.3 113.3 107.8 102.5 98.9 96 78.3 75.3 84.1 94.3 102.4 107.6 112.9 116.6 119.6 121.5 123.5 124.5 125.1 126.6 127.7 128.7 128.8 127.9 126.3 123.6 120.2 115.8 111.9 109.2 106.7 104.6 102.4 99.3 96 88.3 94.9 98.8 99.8 102 103.2 107.1 113.4 120.2 120.7 117.5 110.4 98.7 85.7 81.9 84.8 100.5 110.9 114.8 116.4 115.4 113.5 112.6 114.7 119 122 124.5 127.1 130.1 134.5 137.2 139.9 141.1 141.3 141.7 140.7 138.8 137 135.9 135.1 133.8 133.2 132.1 129.6 125.3 119.5 125.8 132.1 136.8 141.8 147.2 151.6 154.9 156.9 158.2 156.1 155.1 159.1 161.9 164.1 165.3 165.8 167 168.6 170.2 171.6 171.4 171.6 170.9 170 169.2 169 166.1 164.2 163.7 163 162.7 162.7 162.9 162.9 162.3 162.8 162 164.2 167 169.9 172.7 175.3 177.3 178.8 179.8 179 178.8 178 174.3 171.3 169.5 167.1 166.1 164.9 163.6 162.3 161 160.8 160.4 159.9 158.5 157.1 154.9 153.7 156 158.1 161.2 164 165.2 165.8 165.4 163.9 161.8 161.6 165 168 169.4 170 170
63.2 73.4 74 75.6 77.9 74.9 73.4 71 66.4 59.9 43 55.8 63.9 69.2 70.8 71.6 69.7 66.2 61.8 58.4 69.6 86.5 96.5 101.5 105.8 108.3 109.6 108.3 106.2 101.5 97.5 91 100.3 106 109.9 113.1 114.1 114 113.8 113.6 113.7 106.4 97.9 93.6 89.7 83.6 78.8 82 98 97.1 100.1 106.8 113.7 118.6 121.8 124.4 126.6 127.1 128.5 129.1 130.4 130.8 131.2 130.4 128.8 126.6 123.3 120.4 117.6 114.8 110.9 108.3 105 100.8 94.3 87.5 87.2 91.3 93.1 97.7 100.4 105.2 109.5 113.4 115.4 111.5 98 82.2 80.9 82.9 89.8 103 108.8 111.6 112.5 112.2 110.5 111.2 114.3 117.9 120.9 124.2 127.7 131.2 133.7 135.1 136.9 137.9 137.8 138.1 137.5 135.3 132.2 128.5 127.3 125.8 123.7 120.2 119.5 117.8 120.4 126.3 130.2 135.4 140.4 146.3 150.8 154.2 156.7 157.1 154.8 152.2 155.6 157.2 157.3 158.4 159.1 160.5 162.3 164.5 165.9 166.7 165.8 165 164.5 164.1 162.3 161.6 161.8 160.7 160 159.3 158.9 159.2 158.4 158.5 159.5 162.5 164.2 166 168.6 171.5 173.9 176.4 178.3 180.7 180.5 180.3 178.9 176.7 175.1 173 170.4 168.4 167 165.7 164.4 163.6 163.5 163.3 162.8 161.4 160 158.2 155.4 157.8 162.5 164.6 166.5 167.8 168.1 167.7 166.2 164 163 166.2 168.3 169.2 169.5 168.8
52.9 67.2 70.7 71.8 73.3 73.6 72.5 70.2 65.8 61 46.8 40.7 60.6 64.4 65.9 63.4 53.4 47.1 49.7 65.5 80.5 90.9 96.8 101.7 105.3 107.5 107.8 106.3 102.8 97.8 92.8 87.8 96.1 100.9 103.5 105.3 105.3 104.1 102.6 102.3 99.3 88 80 73.4 70.3 73.6 77.2 91.7 103.4 107.1 108.6 108.6 112.5 118.2 122.2 125.5 128.6 130 131.6 131.9 133.2 133.5 133.5 132.2 130.3 128.3 125.5 123.3 120.3 117.2 114.7 111.1 107.9 103.3 97.3 90.1 83.9 84.1 87.4 90.9 96.4 101.9 105.8 107.7 107.6 98.7 81.9 79.1 80.8 87 98.6 102.2 104.5 106.6 107.1 106.3 105.2 110.5 113.8 117.5 120.5 123.7 127.3 129.9 132.5 134.9 134.9 134.6 134.3 134.4 134 131.6 126.8 121.9 120 118.5 114.8 114.2 113.7 115.7 119.6 124.8 129.9 134.4 139.6 145.2 150.2 153.7 155.3 154.9 152.8 147.6 148.4 150.5 152.3 152.6 153.9 155.9 158.1 160.2 161.8 162.7 161 159.8 160.9 160.1 159.4 159.5 159.9 159.1 157 156.4 156.4 156.6 157.7 160 162 163.9 166.1 168.2 170.9 173.7 176.4 178.6 180.7 182.6 182.5 182.6 181.6 180.6 178.8 177.1 175.4 172.1 170.2 168.3 166.5 166.2 166.1 166 165.7 164.3 162.9 161.2 156.8 160.3 164.4 166.9 168.6 169.7 170 169.1 167.9 166.3 165.2 166.3 167.6 168.1 168.6 167
41.9 57.6 64.2 65.9 68.4 70.7 71.9 70.5 68.3 64 52.9 35.5 43.6 52.2 53.1 47.2 39.3 54.1 61.1 71.4 81.4 87.4 92.6 97.3 100.5 101.7 101.9 100.4 96 91.5 86 81.7 90.1 95.3 97.9 98.5 97.8 93.5 85.8 80.2 75.7 69.9 68.1 71.9 78.8 84.1 93.9 102.5 108.2 113.1 115 115.5 114.2 117 121.9 126.2 129.2 132 133.6 134.5 135.4 135.6 135.1 132.9 130.9 128.5 125.9 123.1 120.1 118.4 115.9 112.9 109.3 104.8 99.1 91.2 86.6 83.2 81.4 85.3 91.8 97.5 100.2 100.4 99.4 82.9 76.3 78.5 85.8 93 96 99 100.8 101.5 101.8 102.2 106.5 110.3 114.2 116.9 120.9 124 126.2 128.4 130.5 131.8 132.1 131.2 130.2 129.8 129.3 127.6 122.1 117 116.7 113.3 110.8 110.2 112.7 117.2 120.5 124.9 129.6 133.4 138.8 144.1 149.5 152.6 153.9 152.4 149.3 145.6 145.9 147.4 148.9 149.3 150.8 152.9 155.2 158 159.2 157.9 155.6 154.5 155.5 154.5 153.5 152.7 153.7 154.4 153 153.8 156.1 156.9 158.4 160.6 162.8 164.7 166.7 168.9 172 175.1 178.1 180.5 182.7 184.7 184.8 185 184 183.2 182 180.5 178.5 176.4 174.1 172.1 170.2 168.6 168.5 167.9 167.1 165.5 164 162.7 159.2 161.5 165.5 167.5 169.6 170.9 170.9 170.3 168.2 166.5 166.1 166.6 166.9 167.6 167.2 165.2
23.9 36.3 51.6 59.5 65.6 70.4 73 72.4 70 66.3 48.7 32.3 31.1 35.2 37.5 44.5 53.1 51.9 52.5 63.5 70.7 74.9 82.1 86.5 90.4 92.1 91 89.1 85.4 81 77.2 70.9 78.5 84.7 89.4 91.7 87.9 76.5 66.9 65.3 63.2 70.9 79.6 88.8 95.7 100.5 104.7 109 112.8 115.7 118.9 120.3 119.9 122 125.3 128.7 131.8 134 135.8 136.8 136.2 135.9 134.3 131.6 129.1 126 123 120.3 118 115.7 113.1 109.2 104.7 98.6 93.6 89.8 88.4 87.9 86.3 80.5 78.6 85.1 88.9 91.9 76.3 75.9 76.8 83.2 85.9 89 93.4 93.3 95.9 97.1 99.4 102.4 106.1 110 113.7 117.2 121.3 124.2 126.4 128.3 129.2 128.5 128.8 125.9 123.8 121.5 120.4 118.1 113.9 111.4 110.1 109.6 109.9 112.6 116 120 123.2 126.4 129.8 133.2 138.3 143.5 147.9 150.9 150.8 149.5 145.9 142.3 142.6 144.6 147.8 147.7 148.8 151.9 154.3 156.3 155.5 152.4 150.2 150 151 150.4 149.8 149.4 148.9 148.8 150.6 152.7 155.9 157.5 159.5 161.5 163.5 165.5 167.5 169.5 172.1 174.6 178.2 181.4 184.2 186.2 187.1 187.3 187.1 186 184.6 182.5 180.3 178 175.7 173.8 172 170.3 168.6 168 167.4 166 164.1 161.9 159.8 161.6 164.7 167.6 169.7 171.4 171.7 170.4 169.5 168.3 168.4 168.4 167.6 166.7 165.4 162.7
18.4 23.4 40.1 55 63.4 69.2 70.9 70 67.5 53.8 33.3 32.6 38.3 37.5 35.5 36.1 39.3 41.3 38.2 44.7 51.9 61 68.9 75.2 74.9 72.3 70.1 68.2 64.1 59.2 59.5 59.3 64.9 71.5 81.1 84.2 80.2 65.2 65 67.3 71.1 73.2 85.6 91.2 95.9 101.1 105.2 110.6 115.4 119.4 122.3 124.1 125.4 127.2 128.8 130.7 134 136.2 137.4 137.9 137.4 136.3 133.6 130.3 126.5 122.8 118.8 115.6 112.7 109.5 106.3 102.7 100.4 97.9 95.6 93.5 92 90.3 89.2 87.1 85.6 79.8 76.4 75.8 75.5 74.7 81 86.8 90.8 97.4 100 99.2 98.5 98.4 99.1 101.5 104.5 108.1 112.4 117.3 120.4 123 125.4 127.4 127.6 126.9 125.2 122.2 119.2 117 114.9 112.8 108.1 105.2 106.8 110.1 115.5 118.1 120 122.5 125.7 128.8 130.9 134.3 137.6 141.6 145.8 148.9 148.1 146.5 143.3 139 137.6 141.7 146 147.2 147.9 151 153.2 152.7 149.8 146.1 145.5 146.4 147.4 147.7 147.2 146.2 147.1 149.2 152 153.9 156.1 158.2 160.2 162.3 164.5 166.2 167.7 169.1 171.1 173.8 177.7 181.4 184.6 187.7 188.4 188.9 189.2 188.4 185.9 183.6 181.3 179 176.6 174.6 172.8 171.1 169.2 167.5 166 164.6 162.9 162.1 160.5 162 164.9 167.6 170.4 172.3 172.8 172.7 172 171.6 170.9 169.8 168 166.5 164 162.6
19 21.1 24.3 39.4 53.8 56.5 56.5 58.7 51.9 38.2 29 39 48.7 53.4 53.3 49 48.5 48.7 49.5 45.5 41 48.1 54.7 55.1 53 48.9 53.6 54.8 58.7 61.1 62.7 62.9 60 60.6 67.2 71 66.8 66.8 70.4 76.3 80.9 81.3 80.9 88.3 93.8 98.6 106.3 111.9 116.8 121.2 124.3 126.8 129.1 130.8 132.3 134.7 137.5 139 139.7 139.7 138.8 137.3 134.8 131.3 127.8 124 120.9 117.5 115.6 113.9 111 109 107 104.5 100.6 98.1 95.4 93.9 92.4 91.4 92 90.9 85.7 81.3 74.5 72.7 79.6 90.5 94.8 97.9 98.7 99.1 98.9 97.9 97.3 100.3 103.9 108.8 113 116.7 119.8 122.2 124 125.3 125 123.5 121.8 120 115.5 110.8 108.3 104.2 106.3 110.5 113.5 117.4 118.9 119.4 121.9 124.8 127.7 130.6 133.4 136.5 139.5 142.1 144.9 146.5 145.8 143.6 141.5 139.3 135.7 135.9 140.4 143.9 145.8 149 148.7 144.6 140.7 141.9 141.9 143.1 145.2 145.6 145.8 146.5 147.6 148.7 150.2 153.1 155.3 157.7 160.1 161.8 163.3 163.7 164.9 166.6 169 171.6 175.4 180.6 184.3 186.8 188 188.9 188.7 187.9 186.5 184.3 182 180.5 178.7 176.5 174.3 172.1 170.2 168.5 166.5 164.2 162.2 162.2 162.2 163.2 165.9 169.1 171.9 173.9 174.8 174.6 174.4 174.4 173.4 172.4 171.1 169 165.8 164.1
26.8 36.9 24.9 23.2 33 32.1 32.2 31.9 28.9 28.2 39.7 49.4 54.4 58.6 63.3 66.4 66.8 64.9 62.7 57 50.8 49.1 48.8 51.3 54.1 58.8 62.4 65.4 69.4 73 74 73.9 73.2 67.2 63.2 62 71.1 75.1 80.5 84.5 87.2 89.4 88.1 96.4 101.3 105.5 108.3 115.4 119.9 123.8 126.9 129.6 132.1 134.3 136.2 138.4 139.1 141.3 141.6 141.8 140.4 139.1 137 134.5 131.6 128.4 126 123.5 121.4 118.8 116.1 113.8 112.2 110.1 106.8 103.3 101.1 100.3 98.7 97.3 98.4 99.1 99.4 98.4 86.8 71.7 75.9 86 91.3 94.2 95.9 96.4 96.4 94.9 94.8 98 101.4 106.5 111.3 115.8 117.5 118.7 119.6 119.9 119.6 118 117.1 116.1 113.4 107.6 100.5 105.9 111.1 114 116.1 117.6 118.9 119.4 121.9 124.8 128.1 131.5 134.9 137.5 140 142.5 145.6 146.2 144.9 142.7 140.5 139.1 134.7 133 135.1 137.5 138.3 139.2 142 146 147.2 147 146.8 146.2 146.9 146.6 147.2 148.1 149.1 149.9 150.6 152.1 154.7 156.7 158.7 160.2 161.2 161.4 162.1 164.3 166.7 169.5 172.8 177.3 180.2 182.5 184.4 185.8 186.3 185.8 185 184.1 182.8 181.4 180.3 178.5 176.3 174.3 172.3 169.8 167.4 165.2 164.2 163.6 163.6 164.2 167.4 170.6 173.4 175.6 176.7 176.8 176.9 176.9 175.9 174.7 173.7 172.3 169.8 166
35.5 50.8 43.4 33.9 27.8 24.7 26.8 28 33.2 41.2 51.4 56.9 61.3 63.7 68.4 74.5 78.5 79 78.3 72.8 65.1 60.3 54 67 71 73 73.7 74.3 77.1 79.7 81.8 82.7 81.8 81.3 74.9 71.5 83.2 89 92.9 95.1 96.9 98 98.2 102 108 112.5 116 118.5 122.6 127.3 130.6 133.5 135.5 137.6 139 140.4 141 141.9 142.6 143.1 142.5 141.8 139.7 137 134.7 132.8 130.1 128.2 125.9 123.7 121.3 119.1 116.9 115.7 114 112.6 111.7 110.3 107.5 104 101.2 100.1 101.3 103.7 101.8 82.1 70.1 75.2 83.1 88 90.2 91.6 91.5 89.3 89.6 92.3 95.8 100.9 105.8 110.1 110 110 110.9 108.9 109 110.4 110.9 111.7 110.2 99 105.9 108.1 111 113 114.5 115.7 117.2 118.7 120.4 123 126.5 130 133.5 136.5 140 143 145.9 146.2 145.5 143.2 140.7 136.9 130.4 130.7 132.8 135.3 138.4 142.2 148 149.9 149.9 149.9 150 150.1 149.5 150.2 150.5 151.6 153.5 153.6 153.8 153.9 155.2 157.1 158.1 158.4 159 158.9 159.3 161.6 164.5 166.9 170.2 173.2 176.6 179.1 180.9 182.6 183 182.7 183.2 182.5 181.5 181.5 181.2 180 178.4 176.7 174.3 171.7 169.1 168 166.9 166 165.5 165.8 169 172 174.8 177.4 178.6 179.3 179.3 179.4 178.5 177.2 176.3 175 173.1 168.2
32.9 48.7 59 55.7 49.3 46 45.3 48 50.4 54.4 58.7 62.6 65.6 68.8 76 81.4 84.7 85.5 84.4 82.5 79.7 73.9 66.8 69.9 77.8 79.9 80.8 81.7 83.8 86.6 89.5 91.7 94 91.2 82.9 76.2 89.4 94.3 98.3 101 103.1 105.6 107.7 109.3 114.1 118.7 121.6 124.1 126.2 129.4 131.9 134.3 135.3 135.6 138.5 140.2 141.4 142.3 143.7 144.1 144.4 143.4 141.6 139.7 138.1 136.3 133.9 132.1 130.8 129.4 127.9 125.5 122.4 119.8 117.9 115 113 109.3 106.4 103.4 100.7 99.1 99.7 100.9 101.8 93.6 77.3 69.4 71.5 80.6 83.4 82.2 79.5 77.6 80.1 84.5 89 93.3 99.2 103.3 101.7 100.7 101.7 99.9 100 101.6 103 105.1 100.2 96 103.1 104.9 106.9 108.8 110.3 111.4 112.8 115.1 117.9 120.6 124.1 127.4 130.7 135.2 138.4 141.5 144.1 145.9 146.1 144.2 141.6 134.1 129.5 135.5 137.7 141.6 144.7 146.3 148.4 150.5 151.3 152.3 152.5 153.5 153.8 154.3 154.4 155.9 156.2 156.3 155.6 155 156.1 157.1 157.4 157.6 157.4 156.2 157.2 159.7 162.4 164.7 167.5 170.3 173.3 176 177.7 179.4 179.5 180.1 180.6 180.9 179.9 180.4 180.2 180.6 180 179.1 176.7 174.2 172.9 172.4 170.3 168.7 167.6 167.9 170.5 173.5 176.4 178.9 180.4 181.8 181.9 181.7 180.9 179.7 178.8 177.5 175.9 169.1
33.1 39 58.6 63.9 66.8 65.1 61.9 65.3 65.8 65.8 67.1 68.6 72.5 78.2 84.5 87.3 89.9 90.9 89.6 88.9 87.2 84.7 80.1 73.5 84.6 90.1 94.9 98 99.1 102 103.6 104.9 103.9 100.3 94.4 79.3 85.7 96.4 102.4 105.5 108.6 111 113 114.8 117.1 120.9 124.1 126.1 128.5 131 132.3 133.1 134.1 135.4 137.2 139.1 140.4 141.8 143.3 143.6 143.9 143.4 142.1 140.7 139 137.3 135.9 134.8 133.3 131.4 129.5 126.7 123.4 119.8 116.7 112.4 108.9 105.9 102.9 101.5 99 97 97.4 97.7 98 100 90.1 75 66.6 71.3 75.1 70.3 71.7 76.2 73.4 76.5 80.9 85.1 88.7 90.1 91.2 92.6 92.4 90.7 91.3 92.6 94.2 95.3 93.5 96.4 97.1 99.7 102.2 104.4 106 107.1 108.3 111.5 114.6 118.2 121.5 124.9 128.2 132.6 135.7 138.4 141 142.8 144.5 145.8 144.5 132.5 129.7 139.1 140.8 143.2 144.8 147 148.6 150.7 152.1 153.4 154.6 155.6 155.6 156.4 157.2 157.6 157.8 157.4 157 156.5 155.9 156 156.2 156.4 156.2 154.8 155.6 157.8 160.1 162.4 164.7 167.3 169.7 172.9 174.7 176.3 176.9 177.5 178 178.5 178.4 179.6 180.7 181.2 181 180.8 179.5 177.1 177.1 174.4 173.7 172.2 171.1 170.7 171.9 174.9 177.8 180.4 182.1 183.1 183.8 183.5 182.7 181.3 179.1 175.7 171.9 169
33.3 38.7 53.6 64.6 73 72.9 73.4 72.8 72.1 72.6 74.9 78.1 83.3 87.7 91.3 93.9 95.8 95.7 95.3 94 92.2 90.6 88.6 86 85.2 95.4 102.1 107.8 110.6 112.2 112.3 110.8 108 104.6 99.8 89.6 83.8 94.9 104.2 108.5 111.8 113.8 116.3 118.8 120.6 123.5 126 128.6 130.6 131.1 131.6 131.5 131 132.1 134.5 136.7 138.6 140.2 141.5 142.2 142 141.3 140.2 138.9 137 135.5 134 133 132.1 130.6 128 125.2 122 119.1 115.8 111.4 107.9 104.5 101.8 99.8 96 90.7 90.7 91.6 93.5 95.7 98.6 93.4 72.1 64 68.7 77.3 82.2 86.8 88.6 82.7 77.9 77.1 78.5 82.2 86.1 89 90.5 94 95.9 97.2 97.1 95.9 94.5 96.5 96.2 97.7 98.1 99.9 101.9 104.3 107.3 110 112.9 116.2 119.6 123 126.6 130.1 133.3 136.1 139.2 141.6 144 145.6 145.6 137 128.3 136.2 139.6 141.2 142.4 144.9 147.6 149.8 151.1 152.7 154.4 155.7 156.4 157 158.3 158.5 157.5 156.4 155.7 155.8 155 155.1 155.2 155.3 154.9 153.1 152.9 155.8 157.4 159.7 162.4 165.1 167.9 170.6 172.3 173.9 174.4 174.9 175.5 176 177.2 178.1 179.8 181 182.1 181.5 181.3 180.1 179.2 177.9 176.9 175.3 173.6 173.6 174.3 176.2 179.1 181.5 182.8 184 184.3 183.7 182 180 178 174.7 170.6 171.6
34.2 40.3 50.8 67.3 75.6 80.9 80.9 80.8 80.4 82.3 84 87.7 91.7 94.9 97.9 100.2 101.7 102.3 100.4 100.1 97.4 96.9 96 95 96.8 97.3 105.9 110.8 114.7 115.8 114.7 113.3 110.3 107.5 103.7 99.6 89.4 96.9 103.5 109.4 113.5 116.7 119.3 121.1 122.9 124.1 125.7 127.3 127.9 128.5 128.8 128.2 127.2 128.9 130.7 133.5 136 137.5 138.9 139.5 139.2 138.6 137.6 136.3 133.9 132.3 130.9 130.4 129.8 128.5 126.6 124.2 123.1 119.8 117.4 113 108.4 103.9 96.8 94.4 90.4 86.4 84.6 85.1 87.6 89.7 94.2 93.8 73.5 64.3 73.6 85.8 90 93.1 96.5 96 92.5 90.5 89.7 90.6 93.2 95.3 99.6 103.3 104.5 105.2 105.8 104.5 100.8 99.1 100.3 101.4 100.9 100.9 101.7 104.6 107.9 110.1 112.9 116.7 119.9 123.6 128.3 131.9 134.2 136.8 139.9 142 143.6 145.2 144.9 142.5 126.8 131.6 135 137.5 140.5 143.1 145.9 148.2 150 151.7 153.3 154.3 155 154.8 155 155.2 154.8 154.3 153.7 153.9 154.2 154.2 154.1 152.8 152 150.1 151.6 154.7 155.7 158.5 160.9 163.5 166.1 168.4 169.7 171 170.7 170.9 171.7 173 174.4 178.1 179.4 180.5 181.4 182.3 182.1 181.9 181.7 180.8 179.7 178.3 177.4 177.6 178.1 178.1 180 181.4 182.5 183.5 183.7 183.7 182.2 180.6 179.1 176.1 172.2 174.4
35.6 41.1 50 71.5 79.3 85.4 88.7 90 91 91.7 93.8 96.2 99.1 102.4 104.5 106.7 107.6 107.4 106.1 106.9 106.5 105.8 103.1 102.2 104.7 107.5 111.5 113.7 116.1 117.2 116.6 115.3 112.4 109.2 105.6 101.4 90.8 101.1 105.1 109.5 114 117.3 119.7 121.1 121.4 122.2 122.7 122.5 122.1 123.1 123.9 123.9 122.4 122.8 125.3 129.1 131.8 133.9 135.2 136.1 136.2 135.6 134.2 133 131.2 129 128.1 127.2 127.2 126 125 123.6 122.1 119.4 114.8 110.1 104.7 99.1 92 86.4 81.9 77.5 74.8 77.2 79.7 82 82.1 73.2 63.4 65.5 75.7 87.5 92.7 95.6 100.4 104.8 108.3 109.1 107.7 107.9 107.2 106.9 109 113 114 113.3 112.9 109.8 104.2 103.6 104.8 104.8 104.6 105 103.3 103.9 106.5 109.2 111.5 115.2 119.5 124.3 128.7 133.8 137.2 138.6 140.7 143.2 144.6 144.8 144.3 140.2 123.5 129.9 134 137.1 139.7 141.9 144.2 146.8 148.6 150.4 152.2 152.8 152.7 152 151.6 151.3 150.3 149.5 148.9 151.6 152.8 152.2 151 149.7 148.7 146.4 149.5 153.5 156.3 158.7 161.1 163.3 165.9 166.4 167.1 168.1 168.6 168.5 168.4 170.5 173.9 174.9 178 179.2 180.7 181.7 182.5 183.1 183.5 182.4 181.2 180.5 180.6 180.5 180.8 180 180.9 182.4 183.6 183.9 184.5 184.6 183.6 182.1 180.5 178.6 173.3 177.4
38 41.5 51.9 70.6 81.8 90.9 93.8 95.8 97.7 98.5 99.9 102.1 103.8 107 109.8 112.2 113.1 112.8 113.3 112.9 112.2 111.8 110.8 110.8 111.8 112.5 115.8 117.2 117.8 118.2 117.3 115.1 112 108.1 105.3 99.6 96.9 103.4 106.5 110 113 116.3 117.5 118 117.6 117.1 116.6 116.2 117.2 120.2 120 120.6 119.7 118.9 121.2 124.1 127.3 129.6 131.2 132.8 131.9 131.2 129.9 128.4 126.2 123.7 122.1 121.5 121.3 122.1 120.8 119.6 118.1 114.5 112.1 107.2 102.8 96.1 89.5 83.5 78.9 75.1 69.8 67 68.1 62.7 63 64.4 65.1 71.7 82 88.4 92.9 97.1 102.4 110.2 116.7 117.3 117.2 116 114.3 114.6 115.2 117.4 118.5 117.8 114.9 111.3 107.6 108.3 107.7 107.6 107.4 106.5 105 105.7 107.7 110.6 111.3 113.9 118.1 122.8 128.8 134.1 138.8 141 142.5 143.8 144.9 143.8 142.6 134 124.1 134 138.3 139.6 140.5 142 144 145.4 147 148.9 149.7 149.9 149.5 149 147.7 146.3 144.8 143.5 144.7 147.3 149.3 148.8 147.5 146 144.6 144.9 150.5 153.4 156.2 159.1 161.6 163.7 165.1 165.6 165.9 166.6 166.6 166.1 166.1 168.4 171.1 174.3 176.4 177.6 178.8 180.5 181.7 182.6 183.4 183.6 182.8 182.4 182.6 182.6 183 182.7 182.4 183.6 184.3 184.7 185.1 184.8 184.1 182.6 181.1 177.5 172.5 177.1
39.8 43.8 58 71.4 83.1 90.9 95.2 98.1 100.5 102.3 103.5 105.7 108.7 111.3 114 115 113.4 113.4 113.7 113.8 114.8 116.7 117.5 117.8 118.5 119 119.2 119.2 119.3 118.9 117.5 114.9 112 108.1 106.6 104.1 103.7 104.7 107.5 109.6 112.7 114.4 114.2 113.7 113.2 112.7 112.4 112 112.9 115.5 116.5 116.4 114.5 114 116.1 119 121.9 124.8 127.2 128.3 128 127.3 126 124.7 122.3 119.6 116.5 114.1 114.4 115.4 116.7 115.7 114.9 113.2 110 105.6 101.1 96.3 90.8 86.6 82.9 78.2 74.9 68.5 62.4 62.1 65 67.5 71.6 80.4 84.5 89 94.1 97.8 103 108.1 116.5 121.3 122.2 122.3 122.3 122.7 123.4 123.4 122.5 119.9 116.6 113.2 112 111.3 110.5 109.6 109.1 107.9 108.1 109 110 113 114.7 116 117.7 121.3 126.8 132.2 137.4 140.2 141.9 143.4 143.9 142.5 139.1 126.1 123.6 132.6 137.9 140.6 141.7 142.8 143.4 144.4 145.3 146 146.2 146 145.8 145 142.6 140.4 139.1 137.8 140 141.4 141.8 142.7 142.8 141.9 142.1 146 149.4 152.2 154.9 157.8 160.8 162.3 163.9 164.6 164.9 164.9 164.6 163.3 164.1 166.4 168.7 171.7 174.2 176.3 177.1 178.4 179.7 181.2 182.4 183.3 183.7 183.9 184.1 184.3 183.7 183.4 183.9 184.4 184.8 184.7 184.5 184 182.9 181.9 179.9 176.7 174 177.5
40.4 45 56.6 70 81.9 89.6 94.4 97.1 99.1 103 104 106.1 107.8 110.6 112.1 112.3 112.3 112.6 113.7 113.9 114.6 116.2 117.7 118.3 118.9 119.2 119.5 119.8 119.8 118.8 117.5 115.6 113.6 111.7 110.3 108.6 108.1 109.2 110.4 111.7 111.9 112.4 111.7 110.2 109.9 109.9 109.6 109.2 110.1 112.5 113.9 113.5 111 109 112.8 115.5 118.2 120.3 121.9 122.8 123 122.2 120.8 119 117 114.9 111.5 108.3 109.5 111.4 111.4 111.7 112.1 110.8 108.3 105.5 101.9 98.6 93.6 87.6 79.1 74.8 69.1 61 61.4 66 72.9 76.5 80.7 81.9 84.5 89.1 92.4 95.9 102.6 107.8 115.2 123.6 127.5 128.5 128.5 128.2 127.8 126.2 125 122 118.7 116.2 115.6 115 114.2 113.2 111.3 110.4 109.9 111.4 113.3 116 118.1 118.7 119.3 121.5 124.8 129 133.8 136.8 139 141.4 143.1 142 138.7 122.4 122.8 130.5 134.6 138.4 140.6 141.2 139.5 140.5 141.8 141.3 141.3 141.7 141.6 138.2 134.4 134.5 133.9 133 135 136.4 136.8 137.2 138 138.2 140.4 144.3 147.1 150.3 153.5 156.4 158.8 161.1 162.6 162.8 162.5 162.3 162.3 161 162.2 164.8 166.9 169.2 172 173.7 174.7 175.7 176.6 178.5 180.1 181.6 183 183 183.2 183.7 183.4 183 183 183.3 184.2 184.1 183.6 182.9 181.9 180.6 179.3 176.4 174.5 178.8
44 48 53.6 65 75.1 81.1 87.1 91.7 95 97.4 99.6 102.1 105.5 108.7 109.5 109.4 109.5 110.5 112.1 112.8 113.6 114.9 116 117.1 118 118.7 118.9 118.3 118.9 118.7 119 119.7 118.8 117 116 115.9 114.5 114.7 114.3 113.8 112.6 111.3 109.1 107.6 106.7 107.1 107.1 106.5 108.1 110 111.2 111.7 108.5 99.9 110.1 113.1 116 117.9 118.9 118.7 117.9 117.2 116.5 115 113.3 110.6 107.2 104.6 105.6 106.5 106.8 108.2 108.4 108.4 107.2 105.5 103 98.8 93.3 86.5 78.2 69.2 57.9 59.6 65 71 76.4 80.8 84 87.1 90.2 92.7 95.6 99.5 105.3 111.4 117.4 124.3 130.9 132.8 133.3 131.8 130.9 129 127.3 124.1 121.1 120 119.2 118.7 118.1 117.1 114.5 113.4 112.9 114.5 116.7 119.3 121.3 122 122.8 124.1 126.4 129.2 131.5 135.1 137.3 139.5 141.6 141.6 139.2 125.4 119.2 126.1 130.6 134.6 137.1 137.2 135.7 134 133.2 132.9 134.9 137.2 135.8 131.3 129.2 127.8 129.1 129 130.4 132.1 132.6 133.6 134.4 135.5 137.1 141.1 142.7 144.4 150.5 153.7 156.8 159.9 161.1 161.3 161.2 160.1 160 159.2 159.5 162.7 164.9 167.2 169.1 171 171.3 172.3 173.5 175.1 177.2 179.3 181.1 182.1 182 183.2 182.8 182.8 183 183.4 183.8 183.1 182.6 181.9 180.6 179.3 178.1 175.5 175.9 179.2
46.5 50.5 56.9 63.9 70.9 76.5 81.2 86.8 90.8 94.3 97.8 100.9 103.8 104.6 103.6 103.5 103 105.7 107.6 109.1 110.6 112.4 114 115.3 116 116.8 116.7 116 116.3 117.2 118.7 119.8 121.2 120.6 120.2 119.2 118.6 117 116.6 115.9 115.1 113.4 110.3 104.9 101.1 102.2 102.3 103.7 106.8 108.8 109.1 109.2 106.2 91.6 104.9 108.9 112.5 114.8 115.5 114.8 114.1 111.9 111.2 110.1 107.4 105.7 102.4 98.4 98.6 100 102.3 104.5 105.6 106.3 106.8 105.4 103.9 100.8 96.1 88.4 78.5 59.2 57 64.3 71.5 82 89.1 96.1 94.3 98.6 105.6 107.5 110.4 110.7 112.7 116.5 120.9 126.8 131.5 134.9 135.1 134.2 133 131.6 129.5 126.6 124.9 124.8 124.5 123.9 122.9 120.8 117.8 116.5 116.2 117.7 120 122.8 124.5 125.3 126.3 127.2 130.4 131.7 133.4 134.2 136.7 139 141.1 140.9 138.3 129.4 113.9 121.2 126.1 128.4 129.9 129.3 123.2 120.8 123.4 122.6 125.4 126.9 126.4 129.3 131.6 131.2 132.5 133.6 133.1 131.8 131.4 133 133.3 133.8 134.9 137.1 140.8 145 148.5 151.7 155.6 158 159.4 159.9 159.7 158.4 157 156.6 157.6 160.5 162.7 164.8 166.3 168 168.4 168.7 170.2 171.8 174.3 176.6 178.4 179.2 181.1 182.8 183.1 183.3 183.3 183.6 183.9 183.2 182.4 181 179.4 178.1 177 175.7 175.7 178.4
50.5 53.1 57.9 68.1 75.9 81 83.9 86.9 87.9 91.8 95.4 97.8 98.9 93.5 89.2 91 93.3 99.8 102.5 105 107.8 110.2 112 113.4 114.2 114.5 114.2 113.6 113.3 114.1 116 119.1 121.4 122.8 122.6 123.1 122.4 121.5 120.5 119.1 117.4 115.2 111.4 103.4 97.2 93.3 99.4 104.2 107.3 109.1 108.5 104.9 100.7 90 99.4 104.9 109.4 111.7 113.1 112.6 110.3 107.3 105.4 104.3 102.5 101.2 99.4 95.8 89.6 97.1 101 103.4 105.2 106.7 107.3 106.7 106.2 103.2 99.3 93.9 79.5 58.8 58.2 71.3 85.4 92.1 100.4 105.5 110.8 115.3 118.5 120.8 121.7 121 118.3 120.2 124.7 128.3 131.4 134.1 135.2 134.9 133.4 131.8 130.3 128.2 127.9 128.2 128.1 127.5 126.5 124.3 121 119.7 119.6 121.5 124 127.2 128.5 129.9 131.7 131.4 133.2 134.3 135.4 135.6 137.9 140.4 141.2 139.1 135.3 126 113.5 114.2 116 115.8 115.6 118.1 122.7 130.4 133.6 133.9 130.6 131.6 134.1 135.5 135.8 135.5 137.6 138.9 138.3 137.4 135.8 134.4 135.3 137.1 138.4 136.4 137.6 142.7 146.1 150 153.1 155.6 156.9 157.7 157.6 156.7 155.2 153.6 156.1 158.1 160.3 162 163.5 164.9 165.9 166.3 167.6 169 171.1 173.3 176.1 178.8 181.3 182.6 183.6 183.9 183.9 183.7 184 183.3 182.2 180.8 179.1 177.5 176.5 176.2 177.2 178.3
51.8 55.3 59.6 68.4 78.4 82.9 78.9 73.4 69 67.7 73.7 81 87.7 80.2 75.5 80.2 90.1 97 101 104.6 107.9 110.5 111.5 112.7 112 110.5 109.9 109.5 109.9 110.6 111.9 115.1 120 124.2 125.8 125.9 124.7 123 120.5 116.8 115.6 112.9 108.7 102.9 93.8 93 102.7 107.1 109.9 109.5 105.8 101.4 95.5 83.3 97.3 103.6 107.2 110 110.9 110.5 108.3 106 102.9 98 93.6 92.7 94.2 86 88.3 98.2 102.2 104.7 106.7 108.9 110.1 110.4 109.5 107.7 105.6 102.8 91.7 57.8 58.4 74.6 88.1 98.3 105.7 111.1 115.6 119.8 122.1 124.5 125.7 125.6 126.2 127.6 128.7 130.4 131.7 132 133.9 133.2 132.3 131.3 130.2 130.1 130.5 131 131.5 130.8 129.8 128.2 126.5 126.9 126.7 127.1 131 133.2 134.8 135.9 136.2 135.4 134.7 135.8 137.5 139.2 141.9 143.2 143.2 141.1 135.2 116.9 111.7 113.6 113.5 116.9 120.2 124.8 130.8 133.5 136.1 137.3 136.7 137.3 138.2 139.4 140.3 141 141.4 142.2 141.4 140.3 139.2 137.9 138.3 139.9 141.4 142.5 140.8 139.4 141.8 147.2 149.9 151.9 153.1 154.1 154.5 154.9 153.1 151.2 153.9 155.9 157.9 159.3 160.7 161.7 162.7 163.7 165 166.4 168.1 171.2 174.2 177.3 179.8 181.1 182.5 183.9 184.5 184.3 184.1 183.1 182 180.8 179.5 178.2 176.9 177.2 178.2 179.5
52.9 57.3 59.8 67.1 77.6 71.3 53.1 48 38.9 42.1 43.9 56.7 67.7 66.7 64.1 80.8 90.7 97.3 100.9 105.1 109.6 111 111.1 109.5 106.8 104.5 102.5 100.7 101.3 105 107.6 110.2 116.7 122.7 125.2 124.7 123.7 120.8 118.1 114.9 111.9 108.8 104.3 98.9 83.9 92.8 99.4 105.1 106.3 104.9 101.8 97.4 90.3 77.6 95.1 101.8 106.4 108.9 110 110 108.5 105.8 102.9 100.2 97.2 89.5 79.6 74.6 80.5 96.2 101.7 105.4 108.4 110.9 112.6 113.8 113.1 110.6 106 97.8 77.7 55.7 54.7 73.4 87.4 101.6 111.2 116.6 120.4 124.5 127.1 128.8 130.1 130.5 130.3 130.9 130.5 129.7 129.3 128.5 128.4 129.5 129.7 130.3 129.9 131.2 132.7 133.5 134.2 134.7 133.7 132.6 132.2 134 134.6 135.3 136.1 137.9 139.3 139.6 138.8 138.3 138 139.1 141 143.1 145.1 147 147.1 146.2 139.1 114.6 109.6 116.1 125.6 129.6 132.2 135.3 138.6 139 140.2 142 141.3 141.7 142.3 143.4 144.1 143.6 144 144.3 144.6 143.8 143.1 142 142.3 142.8 144.4 145.8 146.7 145.4 142.2 141.4 145.5 147.4 149 150 150.3 150.5 149.4 149.5 151.8 153.7 155.4 157.5 158.6 159.7 160.4 160.8 161.6 162.6 165 168.8 171.4 174.3 178 181.3 183 184.3 185.5 185.3 184.8 183.8 182.6 180.8 179.6 179.3 178.6 178.6 179.2 180.7
54.3 56.8 58.1 58.6 58.1 39.1 24.5 19.2 19.2 22.4 27 34.4 46 51.2 57.6 70.7 82.6 93.1 90.7 94.3 99.1 103.4 104.3 102.9 100.2 96.4 92.2 91.9 94.8 98.4 102.3 104.1 108.1 117.8 121.3 122.1 121.2 118.2 115.3 111.9 107.9 102.8 97.2 91.3 79 83.2 92.5 98.7 101.2 100.8 99.1 95.5 88.4 72.7 87.7 99 104.8 108.5 110.7 111.6 110.8 108.9 106.5 104.5 100.4 96 90.2 74.8 67.9 82.1 95.6 103.4 107.1 109.7 112.6 114.6 115.6 113.1 108.1 98.9 79.2 55.7 55 72.5 91.8 108.5 119.6 125.4 129.4 132 133.8 133.6 133.5 132.5 131.5 131.1 129.2 127.9 127.2 126 124.5 125.2 126.7 128.1 130.2 131.5 132.9 134.1 134.8 136.2 136.8 136 136 137.8 138.4 138.9 140.1 141.3 141.7 142.6 141.3 141.1 141.8 142.6 145.4 147.8 149.6 150.6 150.3 147.8 142.5 120.4 107.8 118.4 133.1 140.4 143.5 145.1 146.5 146.7 146.8 146.4 145.7 145.9 146.5 147.3 147 146.6 147.1 147.6 148.5 148 146.8 146 146.2 146.5 147.9 149.3 150.5 150.3 147.7 143.9 141.8 142.5 144.4 147.3 147.2 147.3 146.9 148.5 149.5 151.1 152.8 155 156.4 157 157.3 157.7 158.9 161.1 163.7 166.8 169.4 172.3 175.7 179.2 182.5 184.8 186.1 186.4 185.4 184.4 183.3 181.7 181.1 180.7 180.3 180.3 180.2 181.9
54.3 57.2 60.7 60.9 37.8 19.2 20.9 22.1 21 21.4 21.1 19.2 24.9 36.7 48.3 59.3 65.9 67.8 72.4 77.4 81.4 85.4 89.8 89.1 83.8 81.8 83.4 86.2 87.4 92 96.2 99.4 104.6 110 116.8 118 117.1 114.5 111 106.9 102.1 95.8 89.4 83.4 75.2 68.9 86.6 93 95.1 96.1 94.3 89.6 82.4 67.8 87.8 100.5 106.2 110.1 111.3 111.4 111.4 110.7 109.4 108.6 107.5 104.8 97.8 79.9 59.8 67.5 87.6 95 99.2 104.4 111 115.4 118.4 117.5 111.8 100 80.2 57.6 53.5 73.9 97.2 116.4 124 129.3 132.2 134.6 136.8 136.5 133.8 131.2 129.2 127.8 125.7 123.7 122 121 119.4 119.9 120.9 125.4 128 130.8 132.8 133.9 135 136.8 137.7 138.6 139.1 140.7 141.3 142.8 144 144.9 145.5 146.4 146.1 145.9 146 148.3 150.8 153.4 154 153 148.6 135.9 126.8 117.6 106.2 120 136.2 146 149.2 150.3 150.7 151.2 151.4 151.7 151 151.6 152.3 153.1 153.9 153.6 152.7 152.7 153.3 152.8 151.5 150.8 150.8 151.1 151.8 153.1 154 152.9 150.4 149.4 147.5 145.9 144.7 146.7 147 147.1 147.1 148.3 150.2 150 151.9 153 153.9 155.3 157.2 158.3 159 160.9 162.8 164.9 167.7 171 174.4 177.8 181.2 183.9 186.8 187.5 186.5 185.5 184.4 183.6 183 182.4 182.1 182.1 182 182.4
54 55.9 59.2 60.8 29.6 22.3 21.8 22 24.6 25.9 23.8 21.6 21.4 24.3 36.6 42.7 47.5 50.2 55.8 59.4 63.1 67.4 72.2 74.2 75.6 76.1 76.5 78 80.4 85.3 90.4 95.7 101.2 107 112.5 113.8 113.2 111.1 107.7 104.1 98.8 93.5 89 83.8 75.1 59.4 80.8 89.1 87.6 88.7 88.4 84.4 72.7 62.8 81.8 96.6 105.2 107.4 106 105.6 106.6 105.4 104 102.6 100.5 97.6 90.3 82.7 64.3 51 71.4 79.5 86.2 95.3 104.2 111.2 115.8 113.7 104.1 91.5 69.9 53 57.1 78.1 101 120.7 126.9 131.1 134.6 138 138.6 136.4 132 126.2 121.6 119.6 118.4 116.8 116.8 116.8 114.7 114.5 116.6 122.3 127.2 129.8 130.9 133.8 135.5 137.3 138.7 140.1 141.9 143.6 144.7 145.8 146.8 148 149 149.7 149.9 150 150 151.1 153.1 154.3 153.7 145.4 131.6 117.6 106.8 104.9 111.6 127.7 142 147.3 151.6 153.3 154.7 155.3 155.8 156.2 156.7 157.2 157.8 158.4 158.7 158.7 158 157.5 157.8 157.2 156.2 156.6 156.6 156.7 157 157.5 157.1 155.9 154.3 153 151.6 149.9 148.4 149.4 149.8 150 150.1 149.9 150.5 151.7 152.8 154.7 156.6 158.5 159.6 160.4 160.8 161.7 163.5 165.7 168.3 170.7 173.4 177.2 181.1 184.1 187 188.5 188.3 187.3 186.4 185.6 185 184.6 184.3 184 183.9 184.4
53 55.7 58.5 50.7 25.7 21.4 21.3 24.3 27.6 29.1 29.9 24.4 22.4 20.4 25.6 34.3 38.9 43.3 46.7 49.3 51.3 53.2 57.8 63.8 64.4 65.2 66.2 70.4 78.3 83.3 88.9 92.9 99.8 105.8 110.5 111.7 111.5 111 109.2 107.5 103.2 98.5 94.8 89.1 71 57.6 78.7 80.1 77.8 82.2 85 84.9 75.3 55.8 71 82.8 90.5 91.9 91.6 91 88 87.8 86.8 84.7 83.6 74.3 62.8 60.9 52 44.2 45.6 58.1 69 79.9 88.8 98 103.9 98.8 90.2 75.3 52.5 51.2 62.9 84.7 104.7 125.2 131.2 133.2 134.5 134.9 133.4 129.5 122.9 116.5 113.9 111.7 110.3 110.7 111.1 110.3 109.8 110.3 113.7 117.7 123.8 127.5 130.8 133.5 135.9 138.8 140.9 142.6 144.4 146.3 147.8 148.7 149.7 150.9 151.6 152.3 152.9 152.8 153.2 154.2 153.9 151.9 142.5 128.9 112.1 104.4 108.2 117.1 127.7 137.1 144.8 149.3 153 155.2 156.7 157.9 158.7 159.6 160.4 161.4 161.8 161.6 162.1 162.6 162.5 162 161.4 160.9 161 161.9 162.2 162.4 162.6 162.7 162.6 160.9 159 156.9 155 153.1 152 152.1 151.9 151.8 152.4 152.5 153.1 154.4 155.6 157.5 159.6 161.2 161.8 162.4 163.5 164.6 165.6 167.9 171 174 177 179.1 181.3 184.2 187.1 189.4 190.1 189.2 188.4 187.7 187.3 186.9 186.5 186.1 186 186.8
49.2 51.7 54 49.6 29.6 22 21.4 27.4 30.2 32.3 33.4 33.8 21.3 22.4 19.2 28.5 33.4 37.4 40.3 42.6 45 47 48 50.5 53 58.3 68.2 76.3 82.6 87.1 91.6 96.5 101.7 106.6 110 111.2 111.6 109.9 108.1 103.9 98.3 91.4 86.6 78.4 62.3 55.6 67.1 67.6 68 71.6 78.8 79.7 73.9 54.9 62.8 71.1 74.2 75.1 75 74.9 71.5 70.9 69.7 67.7 61 49.9 40.5 41.7 41.4 40.8 42.7 43.6 44.5 57 69.8 80.6 86.1 80 69.6 51.5 51.5 54.9 71 90.4 112.8 124.9 127.5 127.2 125.6 124.5 123.5 119.8 114.6 109.6 106.7 105.3 104.6 103.6 103.4 102.9 103.6 108.4 112.9 118.4 123.1 128.2 131.1 136 138.5 141.3 143.3 145 146.7 149.4 151.3 152.3 153.4 153.7 154 154.8 154.7 154.1 154.3 151.5 148 137.6 126.5 112 102 108.4 118.3 130.9 137.4 142.4 147.1 151.6 154.6 156.9 158.5 160 162 162.7 164.7 165.8 165.7 165.5 166.2 166.1 166.3 165.8 165.4 165.5 165.7 166.7 167.1 167.4 167.6 167 166.9 165.6 164.5 162.4 160 157.9 156.3 155.1 154.9 154.7 155.1 156 156.7 157.8 159.1 160 162.2 164.7 165.2 165.6 166.5 167.7 169.6 171.3 174.7 177.6 179.8 181.7 183.8 185.6 187.8 189.6 190.8 190.1 189.7 189.3 189 188.6 188.2 187.8 187.8 188.5
45.9 46.3 47.3 42.8 28.9 17.7 21.5 29.8 33.2 35.6 36.8 36.4 29.6 22.8 21.4 23.1 27.2 32.3 34.9 37.6 40.4 40.8 42.9 43.6 46.9 53.3 66.2 78.1 87 93.1 97.9 102.4 106.7 110.3 110.7 108.4 106 102.8 99 91.9 85 75.9 70.7 63.8 49.7 51.9 60.1 59.9 60.7 64.2 69 69.4 67.8 56.1 49.2 56.1 56.7 57.3 54.8 54.5 53.3 51.5 50.2 45.3 40.3 38.9 40.8 42.9 43.1 48.8 42.6 41.9 43.1 45.3 46.4 54 61.2 55.3 48.8 49.4 53.9 65.5 82.1 99.9 112.2 116.9 117.7 116.7 116.6 115 113.6 110.8 106 101.9 99.6 99 97.9 96.8 97.5 99.4 103.7 108.8 112.5 117.3 121.1 126.3 131.7 137.2 142.2 144.7 147.1 150.4 153 154.8 154.5 155.2 155.3 154.5 153.2 151.4 149.3 147.5 145.3 140.2 131.4 120.9 105.7 98.9 109.3 117.7 127.5 134.2 139.6 144.2 149.3 152.7 155.7 158.1 160.8 162.9 165.5 167.3 168.9 170.2 170.7 171.7 172.9 172 170.7 170.3 170.5 170.9 171.7 170.6 171.3 171.6 171.7 171.2 171.1 170.4 169.3 168 165.5 162.9 161.4 160.3 158.9 158.1 157.8 158.1 160.4 161.6 162.6 165.2 166.4 168.7 170.3 170.5 170.6 171.9 173.8 176 177.9 180 182.2 184.2 186.4 188.7 189.4 190 191.3 191.4 191.1 190.8 190.6 190.3 189.9 189.5 189.4 189.9
38.2 34 32.8 29.4 22.6 17.7 21.2 32.2 35.7 38 39.3 40.3 37.2 23 22.3 22.7 22.3 25.6 31.5 33.3 36.7 37.6 37.8 39.6 43.4 47.3 59.4 76.3 89.4 97.8 103.4 107.5 109.1 109.6 107.8 103.7 97.7 93.4 89.2 82.3 69 61.3 53.8 38.4 39.6 45.1 50.5 51.4 51.7 54.1 51.2 46.4 43 40.3 37.6 34.9 36.2 35.4 36.2 36.4 37.3 38.2 39 38.8 39.6 41.6 47.8 51.8 55.4 55.5 55 51.3 45.2 42.3 44.3 46 46.6 48 54.3 59 64.9 75.1 91.2 99.7 100.6 102.7 104.4 103.5 102 99.9 99 96.4 94.3 94.9 94.6 94.2 94.1 93.9 95.7 100.9 104.8 108.2 111.7 114.5 118.6 122.6 129.4 138 145.5 149.3 151.9 154.2 156.3 157.9 157.5 153.7 152.4 150.5 148.4 145.8 142.8 139.3 133.3 125.6 113.3 99.6 99 107.7 118.7 127.5 132.4 137.3 141.8 146.4 150.1 153.6 156.8 159.8 162.6 165.6 168.4 169.3 170.5 172.8 174.7 176.1 175.6 175.9 174.6 173.9 174.2 173.8 173.6 173.7 174.2 174.7 174.8 174.9 174.7 174.5 173.6 172.1 170.7 168 167.1 166.5 165.3 163.6 162.5 161.4 163.6 165.9 167.8 169.9 171.9 173.2 174.2 175 174.8 175.9 177.3 178.9 180.3 182.4 184.5 186.1 187.9 189.6 190.3 190.9 191.4 191.8 192.1 192 191.8 191.5 191.1 190.8 190.5 190.7
28.8 22.4 21.7 21.2 22 17.7 20.7 34.4 38.7 41.6 44.5 46.4 42.2 24 22.7 22.8 22.9 22.8 22.5 27.7 31.4 33.8 34.4 35.8 40.5 45 52.6 68.9 84.2 96.2 101.9 105.5 106.2 104.9 102.2 96.7 90.7 84 78.4 68.2 53.4 41.7 34.4 32.5 29.5 30.8 32.1 32.6 34.3 33.2 32 31.7 33.6 33.3 34.4 34.6 34.9 35.4 34.8 35.7 37 37.7 37.4 38.9 44.9 52.8 57.9 64.1 71.4 72.6 70.4 70.9 67.7 58.9 48.3 45.3 47.9 57.4 65.1 69.6 72.5 82.5 84.2 86.3 87.9 88 89 90.9 89.5 89.8 89.8 89.2 89.2 89.9 90.8 90 89.1 91.2 97 100.2 103.5 106.2 108.7 111.4 116 119.9 125.7 136 144 148.4 151.6 154 155.9 155.6 154 150.2 146.7 144.4 141 137.3 131.3 127.9 122.2 112.2 96.2 94.9 103.9 117.3 125.3 130.6 135.1 139.6 143.9 147 150.3 154 157.8 161.1 164 166.3 167.9 168.2 168.9 170.3 172.5 173.4 174.5 175.1 175.2 175.5 175.4 174.7 174.8 175.7 176 175.8 176.7 177.4 177.6 177 176.6 176.2 175 173.3 171.9 171.3 169.9 169.8 170.7 170.1 171.1 172.4 174.3 175.6 176.3 176.8 177.9 178.2 178.3 178.8 179.6 181.4 182.8 184 185.2 186.6 188.6 189.2 189.5 190.1 190.1 190.1 190.8 191.6 192.3 191.6 191.3 191 190.8 190.9
21.4 20.9 21 20.8 20.8 17.3 28 39.7 44.2 48.1 50.2 52.2 46.2 25.8 23.6 22.9 23.3 19.7 23.1 23.3 24 25.3 29.3 30.5 34.4 40.8 45.7 54.6 76.1 84.3 89.5 95.7 97.7 96.4 93.3 88.3 81.8 74.8 63.2 50.3 37.4 29.5 27.5 27.9 29.5 30.9 31.2 30.2 29.4 30.5 30.5 32.4 33.5 33.5 35 34.7 37 40.4 43 48.1 57.3 58.9 61.2 64.8 62.3 64.2 77 82.7 86.5 88.4 89.5 88.8 84.3 75.1 66.5 51.9 45.1 50.3 62 62.4 65.1 64 64.6 65.9 65.9 68.8 71.7 74 77 78.9 80.9 83.2 84.5 86.2 86.5 86.6 83.6 89 93.2 97.2 100.7 103.1 105.9 109.1 113.9 119.1 123.9 131.4 138.3 143.5 147.4 150.8 152.7 152 149.6 146.1 141.9 136.9 130.7 126.7 125.4 121.6 115.9 104.8 91.5 97 111.1 120.8 127 131.7 136.4 140.6 144 147.2 150.6 154.1 157 159.5 162.2 162.7 164.1 164.9 165.3 166.6 169.1 171.1 172.6 173.6 174.5 175 175.7 175.5 175.2 175.8 175.9 176.8 177.2 177.3 177.7 177.9 178 178.1 178.5 177.7 176.3 176.1 175.7 174.7 174.3 174.1 174.1 175.1 176.3 177.3 178.2 179 178.9 178.5 178.3 178.6 179.3 180.6 181.9 182.8 184.1 185.3 187.2 188.5 188.8 189.3 188.9 188.4 189.2 190.1 191 191.7 191.5 191.2 191.1 191.1
21.4 20.2 20.7 21 21.1 16.2 29.6 44.8 50.3 53.7 56 57.3 54.5 35.1 30.8 27.1 23.1 23 21.5 23.2 23.1 22.6 24.9 24.7 27.2 29.7 33.4 39.2 53.7 55.4 62.7 66.4 66.5 69.6 72.1 73.5 68.9 57.7 43.6 33.9 26.5 26.1 30.4 36 38.9 42.1 43.2 43.1 45.3 42.6 39 40.2 40.9 42.6 43.5 45.8 50.5 54 60.2 69.6 74.5 78.4 81.1 81.9 80.7 72.2 83.3 88.9 91.9 93.7 95.8 95.7 95.6 91.8 83 68.7 58.4 51 48.9 49.2 50.4 50.3 51.4 51.6 50.8 50.9 56 63.1 68.6 73.4 76.7 79.2 81.6 82.6 82.2 78.2 82.1 87.3 90.3 93.7 97.1 100.9 104.1 107 111.8 117.4 121.8 127.8 131.6 137.7 143.3 147.1 147.7 145.8 142.5 139.4 133.9 128.2 122.8 118.7 118.2 117.1 113 101.7 92.9 97.5 108.5 118.5 125.2 131.4 136.9 140.3 141.5 144.9 148.7 151.4 153 154.5 155.3 155.7 157.1 158.8 161.1 163.9 166.7 169.4 170.5 171 171.6 171.7 171.8 171.3 170.7 171.2 173.1 174.8 173.9 174.7 175 176.6 178.5 179.2 179.5 180.1 179.3 179.4 177.9 176 174.7 174.5 174.8 175.5 176.5 178 177.8 176.7 176.3 175.9 176 176.3 176.4 177 178.6 180.1 182 184 185.7 187.4 188.1 188 187.6 187.3 188.2 189 189.8 190.1 190.3 190 190 190
21.6 20.2 20 20.8 20.8 15.8 34.9 48.7 54.9 59 61.3 62.1 61.5 48.6 30.5 37.1 28.6 23.1 22.5 23.2 23.6 21.4 20.5 20 20 20.2 20.3 20.7 22.1 25 28.9 35.4 38.2 44.9 48.2 51.9 50.2 43.6 29.2 26.6 27 33.1 40.1 45.6 52.5 55.2 58 61.7 64.4 63 59.6 60.2 59.6 56.1 54.5 55.5 59 64 69.9 75.2 82.9 85.7 86.9 88.4 86.4 77.7 84.7 89.7 92.5 95.7 98 98.8 98.6 95.6 89.8 79.4 77.9 71.4 65 61.3 62 60.5 59.8 57.9 56.2 53.4 52.4 51.2 62.3 67.9 70.8 75.4 77.8 77.6 74.1 80.3 85.2 88.2 91 93.9 96.6 98.7 102.3 107.1 110.3 115.5 119.1 122.5 123.9 126.7 135.2 140.4 141.3 138.9 136.2 133.8 130.2 125.1 119.2 111.9 109.6 109.5 108.4 104.4 91 95.7 102.7 111.4 119.2 126.8 133.4 136.5 137.1 140.6 143.6 145 146.9 148.5 150.4 152.2 153.8 155.7 159.3 163.6 166 166.4 167.1 167.6 167.5 166.6 165.3 164.6 163.3 164.5 165.4 167.5 169.6 170 171.2 174.6 177 178.1 178.3 178.8 178.8 178.4 177.1 175 173.7 173.3 173.6 173.9 174.6 174.5 174.9 173.8 173.3 172.9 173 173.1 173.3 173.5 174.7 176.4 178.5 181.2 183.9 186.1 186.2 185.9 185.3 184.8 186.4 188 188.2 188.1 188 188.4 188.4 188.5
21.7 20.2 20.6 20.9 20.6 24.2 49.2 56.7 60.4 64.4 66.6 67.5 67 62.7 43.9 34.8 42.1 40.3 24 23.2 23 22.9 23.4 23.4 23.2 23.1 23.2 23.7 23.5 22.7 22.8 22.9 21.9 22.2 21.3 27.3 33.1 29 26.1 26.2 35.2 43 49.3 57.8 67.8 73.6 78.8 80.7 81.8 81.1 79 78.6 78.7 75 70.5 70.2 72.2 74.1 77.3 81.3 85.3 84.8 83.8 85.4 86.2 85.2 84.1 88.3 91.9 95.3 97.9 99.5 99 96.7 92.7 88.4 85 79.2 72.8 70.2 70.9 72.4 67.9 69.9 67.4 63 59.6 55.4 53.4 61.2 68 71.4 73.7 73.7 74.7 81 84.4 87.5 89.9 92.1 94.5 96.6 100 104.6 108.7 111.7 112.4 113.6 113.5 114.6 121.8 128.8 130.3 130.4 130.8 129.3 126.5 121.9 115.7 106.9 101.4 102.5 104.9 109.3 94.9 92.5 96.2 108.7 117.4 122.1 128.6 131 132.6 134.6 138.1 141.4 143.2 145.4 147.2 149.6 152.7 155.1 157.7 162.7 163.2 161.9 161.6 160.1 159.2 155.9 152.1 151.9 153.4 154 157.7 160.9 164.3 165.8 167.5 171 173.6 174.5 175 175.1 175.1 174.8 173.8 172.5 171.1 170.4 171 171 171 170.9 170.9 170.6 170.2 169.6 169.3 169.1 168.7 167 168.4 170.3 174.3 178.1 180.9 182.6 183 182.9 181.9 181.3 182.8 183.9 185.5 185.9 185.9 186.1 186.5 186.5
19.5 19.4 19.9 19.6 15.6 44.4 61.5 64.8 66.8 68 69.5 70.6 71.6 69.6 62.4 45.6 39.1 52 53.7 49.7 46.1 36.7 23.6 24.2 24.1 23.8 22.7 24 23.8 23.8 23.9 24.1 24 24.4 24.4 21.5 26.5 25.9 24.6 33.9 44.9 55.5 65.1 76.6 83.8 86.8 89.7 91.6 93 92.8 92.1 92 84.9 81.6 76.6 75.7 75.4 76 78.3 81.2 82 79.1 78.7 81.3 84.3 86.9 88.2 91.6 95 97.2 99.8 101.1 100.5 99.1 97.4 94.9 90.3 84.9 77.8 76.9 80.3 78.9 73.5 76.4 77.6 75.6 71.7 65.1 54.8 54.4 61.9 67.2 66.3 68.8 75.9 78.9 81.6 84.7 86.5 87.2 88.8 92.8 95.9 99 101.7 101 99.5 100.8 100.5 102.7 107 112.5 120.6 124.4 126 125.2 122.4 117.8 110.4 97.4 91.1 89 94.7 99.2 100.2 91.7 97.1 113.7 121.5 121.9 123 126.2 129.2 132.3 135.1 138.4 141.5 144.7 146.6 149.4 152.4 155 157.5 159 156.7 152.9 150.5 148.7 145.1 143.1 143.3 144.8 146.7 150 151.4 154.7 158.4 160.7 163.8 166.2 168.2 168.6 169.7 170.3 170.4 169.8 170.1 169.3 167.9 167.4 167 166.8 166.6 166.2 166.6 165.7 165 164.5 164.1 164.1 163.7 162.9 163.6 165.7 169.4 173.4 175.1 176.9 176.9 176.9 176.5 176.8 178 179.6 181.5 182.6 183 183.1 183.5 183.1
21.5 20.7 24.1 28.8 40.5 64.7 67 68.8 69.1 70.8 73 74.1 74.4 74.1 71.3 60 45.5 46.6 63.3 73.9 70 59.8 46.4 34 31.9 31.9 30.9 29.2 27 24.8 24.5 24.6 24.3 24.8 24.5 21.5 24.6 24.2 27.9 39.7 53.2 62.7 78.3 85.4 89.8 95 99.9 102.1 101.2 95.2 89.8 82.3 73.6 65.8 63.6 60.7 61.5 63.3 65.9 70.5 76 75.2 75.3 77.9 83.8 88.6 91.4 95.4 98.9 101.8 102.9 103.9 104.3 103 101.6 99.1 94.9 89.1 82.7 85.4 86.5 83.6 80.3 81.6 84 83.7 81.5 74.9 63.5 52.8 55.2 60.2 64 68.9 72.7 75.5 78.3 81.2 82.1 81.5 82.9 87.8 90.9 94.7 93.9 90.6 87.8 88.2 90.9 93.6 97.9 101 110.8 117.2 120.4 119.2 113.3 105.8 93.3 82.4 81.9 83.3 82.5 84.4 88.7 96.2 107.5 117.4 123 124.6 127.4 129.4 131.2 133.2 135.9 138.8 143.9 145.7 147.6 149.9 151.7 151.7 152.6 150.8 147.6 143.9 141.6 138.9 137.3 138.3 139.3 141.4 142.7 145.2 147.3 149.9 152.4 153.4 156.1 159.8 161.7 163.1 164.3 165.5 165.6 164 164.9 164.7 163.6 162.5 161.3 161.1 159.9 159.7 161.2 160.2 160.1 159.5 158.9 158.6 158.4 159.5 160.6 162.6 164.8 167.3 169 170.2 171.5 172.1 172.8 173.6 174.9 176.6 178.2 179 178.5 178.6 180.3 184.4
48 51.4 55.3 60 68.4 69.5 70.8 72.7 73.2 75.4 75.7 77.3 78.1 77.5 76 71.6 54.2 48.7 67.9 80.4 83.1 78.6 64.7 51 38.7 36.8 35.9 34.4 33 31.4 29.9 29.5 25.4 25.2 24.6 22.3 24.8 24.5 25.1 39.7 59.1 69.3 76.6 87.5 95.6 100.9 104.7 103.9 96.3 83.1 75.3 62.6 54.6 52.9 51.2 50.6 51.8 53.1 55.2 58.9 64.4 64.8 68.5 76.2 81.5 89 95.1 99.6 103.5 106.3 108 108.4 108.2 107.2 105.6 102.7 98.7 94.2 89.5 91.6 91.4 88.5 85.9 87.8 90.1 89.7 87.6 83.6 75.9 61.9 51.1 56.5 60.6 64.3 67.7 71 73.9 77 76.9 74.5 77.2 83.5 87.4 89.9 86.1 83.9 83 83.1 84.4 85.3 89 91.1 97.7 106.9 109.5 105.8 97.9 88.9 79.1 80.5 87.3 89.2 84.2 86.7 96.5 107.1 115.9 121.7 126.7 129.9 132 134 135.8 137.1 139.1 141.8 143.3 146.1 148.1 148.8 146.5 143.5 143.7 141.6 139.5 138.2 136.5 133.7 133.4 133.7 134.2 135 136.5 139.8 143.4 146.5 147.5 147.6 149.8 152.7 155.6 158.3 159 159.9 160.1 158.7 158.1 157.9 155.8 154.3 153.8 153.6 153.5 153.6 154.2 154.6 154.3 153.8 153.9 153.6 154.1 154.9 156.1 157.9 159.6 161.6 163.6 166.2 165.8 167.2 168.6 170.6 171.6 172 172.6 175 177.6 179.8 182.3 185.6
69.9 75.1 81.5 81.7 84.2 85.5 85 85.3 87.1 87.1 84.8 84.3 83 80.2 78.4 67.7 50.5 58.4 72.8 82.3 84.8 83.1 76.5 65.8 50 43.6 40.8 37.3 36.3 35 33 31.5 28.4 25.3 24.7 22.5 25.1 25.2 25.1 43.9 60.4 70.3 78.3 87.5 95.1 102 105.2 96.5 80 69 57.4 51 47.1 44.3 44.5 44.4 45.9 47.4 49.4 51.5 54.3 56.1 63.4 72.3 82 90.1 97.3 103.3 108 110.4 112 112.4 112.1 111.2 110.2 108 104.1 99.8 96.9 95.9 96.1 93.8 91.3 92.7 94.7 95 93.8 92 85.1 73.8 61.2 54.7 55.2 58.6 63.9 67.6 70.9 73.2 71.1 66.2 73.2 78.6 80.3 80.3 77.8 75.5 74.2 74.4 76.4 76.7 79 82.8 88.3 98.6 98.2 90.9 82.2 78.5 81.5 89.6 94.4 94.9 92.9 86.1 95 107.2 117.2 123.9 130.3 134.3 136.4 136.9 137.9 139.2 139.7 141.3 140.2 139.9 136.7 132.7 130.7 131.8 132.6 133.3 132.9 130.1 126.6 124.7 124.2 127 127.5 128.8 135.7 140 143 143.7 141.8 138.9 142.7 144.5 149 152.4 153.4 153.8 153.1 150.2 146.8 146.8 146 145.4 145.6 146.5 148.3 148.5 149.4 149.3 149.4 149.5 150.2 151.8 153.7 156.2 158.4 161.6 163.1 165.2 167.2 168.9 169.5 170 169.7 169.8 172.1 174.7 177.6 178.7 179.9 182.3 184.3 186.4
100.2 104.1 105 102.4 98.1 97 95.3 96.4 95.2 91.9 88.6 83.4 81.7 80 72 53.6 54.7 71.6 81.4 86.2 87.7 87.1 82.3 72.1 56 49 45.1 42.4 40.5 37.9 36.4 34.1 32.1 30.1 25.5 22.3 25.2 25.3 25.2 45.9 65.2 73.1 79.1 86.3 94 100.5 101.2 82.3 65 51.8 44.6 41.1 39.6 38 38.8 40 41.5 43.4 44.1 45.7 48.2 52.4 58.1 68.5 81.5 91 99.7 107.2 112 114.6 115.8 116 115.9 115.4 114.4 112.7 109.9 106.8 103.7 101.6 101.7 99.2 97.7 98 99.8 100.5 100.2 98.4 94 86.9 74.8 62.3 57.6 55.8 57.3 60.1 61.6 58.6 59.3 62.4 62.3 65.8 67.3 67 67.2 66.5 66.9 67.8 69.5 71.2 73.1 73.6 80.5 88 84.6 79.7 78.4 84.1 86.4 94.7 98.1 100.6 102.9 94.7 88.4 100.9 115 124.5 132.3 137.2 138.4 136.8 135.4 135.2 135.8 130.7 126.5 122.1 119.3 116.5 116.7 117.4 121.6 121.3 116.9 115.4 118.8 120.4 122 121.7 122.7 125.3 132.3 137.4 137.4 136.4 130.7 131.1 133.6 136.8 142.5 145.5 145.3 140.5 136.8 138.1 139.6 141.9 142.5 143.2 144.6 143.9 144.3 146.5 147.6 147.1 148.6 150.5 152.6 153.5 156.6 159.9 164.2 167.8 170.7 172.5 175.9 177.3 177.6 176.9 175.8 174.1 177.1 180.7 182.3 182.9 183.5 185 187 189
110.1 109.6 108.3 104.7 100.7 97.1 88.6 81.8 76.5 71.3 70.7 68.1 64.1 59.8 56.7 58.7 74.2 81.5 85.3 88.9 90.6 88.9 82.9 72.5 69.4 61.3 50.2 46.7 44.3 42.2 40.8 39.7 35.8 33 27.2 22.3 24.9 25.5 25.5 50.2 70.1 77.6 81.2 85.8 88.5 86.1 76.5 63.1 46.4 35.4 35.4 35.2 34.1 33.3 33.6 35.5 37.5 39.7 41.4 42.6 46.4 51 56.8 61.9 77.4 91.4 101.7 109.7 115.8 119.1 120.6 120.1 119.4 119 118.2 116.4 114.7 112.7 110.9 111.9 108.2 105.9 104.3 104.4 106 106.2 105.5 103.5 100.2 95.7 91.6 78.6 67.6 62.4 61.1 59.7 60.7 63 64.6 64.2 62.4 63.8 64.7 66.8 68.5 68.7 70 70 70.1 70.5 70.9 71.8 73.7 76.2 76.3 79.2 83.9 88.7 93.2 98.1 102.4 107.5 110 109.1 100.4 91.9 106.1 119.8 125.9 128.8 128.8 126.5 125.5 127.1 121.5 114.4 108.5 110.6 113.6 115.5 115.9 116.2 114.5 114.7 118.6 124.4 130 131.4 130.5 128.4 124.4 123.2 126 130.7 129.7 132 135.7 139.5 138.5 133.1 134 135.9 135.7 139.4 144.1 147.3 149.7 151.6 152.3 153.2 152.7 149.7 145.9 145.3 146.5 149.2 153.4 155.3 156.7 156.6 159 164.4 167.9 171 174.4 178.2 180.3 182.2 183.1 182.9 182.5 180.3 183.3 185.3 185.7 186 186.3 187.6 189.6 191.6
105.4 103.1 99.2 96.7 91.1 86.8 91.8 91.2 89 87.8 84.7 81.2 76 71.9 69.4 62 80.4 87 90.8 93.3 93.5 91.3 85.7 83.2 79.5 76.3 68.7 59.5 51.3 46.9 45.7 43.6 39.9 34.3 28.1 22.3 25.3 25.5 32.3 56 76.8 82.9 86.5 87 75.4 62.4 49.1 30.8 29.7 29.7 30.3 29 29.5 30.6 31.5 32.6 34 37.1 38.2 40.5 45 49.6 54 60.7 71.1 86.9 98.9 108.1 116.5 121.7 122.5 122 121.3 120.8 120.5 119.4 118.1 116.5 115.4 115.6 115.6 114.5 112 112.5 112.8 112.7 111.1 110.2 107.1 104.2 100.1 93.4 83.9 71 67 65.8 66.7 68.2 69.8 71.3 70.4 64.6 64.9 69.5 73.2 75.2 75.3 74.8 75 77 76.7 77.7 77.1 77.3 80.6 84.4 89.2 95.4 101.8 108.7 113.1 117.7 122.5 123.7 116.5 105.3 95.7 108 114.5 115.8 113.3 104.7 105.5 103.1 105.3 107.9 114.2 120.1 125.8 126.8 128.8 127.8 126.9 128.1 132.1 135.5 139.5 140.3 140.7 138.9 133.1 130.7 131 131.4 134.8 140.7 146.4 147.8 146.9 145.1 142 138.3 136.2 142.7 146.8 150.6 153.1 155 156.6 156.1 154.9 152.4 150.9 150.1 151.4 154.4 158.1 160.1 162 162 160.6 167.2 171.1 174 178.1 182 184.6 185.9 186.5 186.6 186.6 186.5 186.7 188.5 188.8 189.1 189.3 190.4 192.2 192.8
108.3 104.6 100.7 95.4 89.5 99.4 99.5 97.3 94.5 93.7 91.9 89.1 86.9 84.1 81.7 70.9 80.2 92.3 95.2 97.2 96.9 94.3 91.5 89.8 88.9 86.1 81.6 75 67.3 55.3 49.5 46.5 42.8 36.9 29.9 22.3 25.5 25.5 42.6 67.2 85.8 89 90.8 82 60.3 40.3 25.6 28.5 29.1 29.4 28.1 28.2 29.6 30.5 30.8 30.7 31.9 33.9 36.9 38.7 41.5 47.6 53.1 59.4 67.3 81.2 94.2 104.4 113.7 119 121.5 120.9 120.5 120.4 120.6 120.9 121.4 122.2 122 117.7 121.4 121.1 121.7 122 121.6 120.8 118.8 117 113.8 109.6 104.9 99.3 92.1 79.3 71.4 70.7 70.9 71.6 73.6 74.6 74.2 71.3 66.2 67.7 76.4 79.6 81.5 81.7 82.7 86.3 89.5 88.3 88.6 85.9 91.4 96.9 103.2 111.5 116.2 121.2 125.7 129.8 134.4 136.2 128.8 116.7 100.2 95.2 96.8 98.4 99.8 103 106.8 108 106.7 114.7 123 128.2 132.4 134.8 136.5 137 136.5 140.6 143.7 146.1 146.8 147.1 146.4 144.5 138.8 132.2 140.5 143.4 145.6 146.9 147.9 149.4 150.3 149.3 147.2 144.6 142.1 140.3 143.2 148.7 152 156 158.3 159.6 159.1 157.4 156 153.8 153.6 158.5 162.3 164.6 166.6 167.7 165 168.8 173.1 176.4 180.2 181.8 186.3 187.6 189.3 189.2 189.4 190.1 190.6 190.8 191.2 191.2 191.3 192 192 192.4
105.9 101.7 99.4 98 101.2 102.1 101.9 99.6 99.1 98.9 97.3 96.5 95.2 93.9 93.1 81.8 79.9 95.6 98.9 99.4 99.5 97.8 97.3 97.5 96 92.9 90.1 83.5 74.3 62.6 53.1 48.8 45.3 40.6 32.1 22.7 25.1 27.2 53.4 77.9 89 90.6 86.2 66.4 38.3 25.6 29.9 29.8 30 29.3 31.3 29.9 28.2 29.4 29.5 30.4 30.3 30.9 34.7 36.7 39.7 44.6 51.6 57.3 65.3 72.6 85.2 98.4 107.5 115 117.8 117 115 114.1 115.1 117 119.1 120.5 120.4 119.5 119.3 119.3 118.9 119 119.6 119.9 119.8 117.8 114.1 110.6 105.9 101.9 91.1 82.6 85.2 81.9 77 78.7 80.4 81.1 80.1 78.4 69.8 68 75 83 86.8 88.7 90.3 92.6 95.2 96.2 97.2 96.9 98.4 104.8 113.3 121 126.3 130.7 135.1 139.7 141.7 141.2 136.2 126 111 103.5 102.7 104.9 106.7 112 117.6 121 118.1 116.9 128.5 133.7 137.1 139.8 142.7 144.5 147.2 149.8 151.1 151 151.4 151.5 150.3 148.1 141.6 133.4 139.7 143.5 145.3 147 148.1 149.8 151.5 152.5 150.8 148.9 146 144.7 145.6 145.3 150.1 155.8 160.2 161.9 162.3 162.3 161.5 160.2 156.5 161.7 165.6 167.7 169.8 171.8 171.7 168.8 173.9 177.5 181.5 182.9 186.4 188.1 189.5 191 191.5 191.7 191.9 192.1 192 192 191.6 191.5 191.6 192
112.1 107.8 105 104.9 105.3 105.8 104.7 103.5 103.2 103.7 103.8 103.6 103.1 102.4 101.4 91 85.4 102.9 106.1 106.9 105.9 104 104.5 105.8 104.2 99.9 96.3 90.4 83.4 72.2 58.6 51.4 47.1 42.7 25.8 22.7 25.6 35.5 56.9 81.7 90.9 88.6 73.5 47.5 25 29.6 29.8 29.7 29.5 32.2 37.5 42.2 35.1 27.8 30.8 30.2 30.4 30.3 30.2 35 38.1 41.8 49.6 55.1 61.6 68.6 77.7 89.6 101.4 108.4 109.9 109 107 106.2 106.8 107.9 110 110.7 111 110.5 110.8 111.9 113.8 114.7 116.6 117 117.5 115.5 112 107.6 102.8 97.9 89.6 92.8 92.7 88.9 86 89.2 91.5 92.4 93 88.8 81 70.3 71.5 86 90.9 93.7 96.2 98.5 100.8 102.8 104 104.4 105 108.6 115 123.9 131 137.6 141.7 144.8 145.3 144.2 140.1 135.2 128.4 119.6 117.1 116.3 118.7 124.9 129.9 130.6 127.2 122.3 128 134.5 139.9 144.1 147.6 150.5 152 152.8 153.3 155.2 155 154.1 152 149.3 145.8 139.8 135.8 141.1 143 146.1 148.7 151.1 153 154.4 154.5 153.3 151.1 150 151 149.9 151.4 157.4 161.7 164.2 165.5 166 165.8 165.6 164 161.8 168 170.6 172.6 175.1 176.3 173.1 171.8 176.2 179.7 181.6 183.2 186.9 188.9 190.4 191.6 191.8 191.9 192.1 192.4 191.7 191.1 191.1 191.2 191.6
117.9 114 111.8 110.8 110.3 110.1 109.1 108.1 108 109.2 110 110 109.6 109.5 104.9 91.1 94.9 108.4 112.3 113.5 112.8 112.2 113.6 113.3 111.7 108.8 103.7 99 89.5 77.9 66.8 54.9 49.1 41.8 25.6 25.2 29.1 38.8 60.5 83.5 89.7 80.6 58.5 28.5 29.1 29.6 29.3 29 31.3 37 42.6 47.1 49.8 39 29 27.8 27.8 28.8 30.3 30.7 35.1 41.4 46.6 53.9 59.2 64.8 73.9 85.3 92.9 100.4 99.8 97.1 95.8 95 95.1 97.2 97.5 99.4 99.5 102.2 103.7 106.3 108.9 111.3 113.7 116.5 116.6 115.5 112.6 108.9 101.4 99.4 96.2 99.9 99.2 97.1 93.9 97.1 100.5 101.6 102.8 102.6 96.3 79.3 72.3 85.7 93.7 97.7 100.7 104.1 106.6 108.3 109.4 108.7 110.6 112 116.6 122.2 131.6 137.8 142.9 145.4 146.7 146.5 144.1 142 138.9 134.9 134.4 133.6 133.8 135.2 136.2 137 134.4 126.2 125.1 133 139.5 144.9 148.4 151.1 153.3 154.9 155.8 157.1 156.7 155.4 153.6 149.8 146.9 143.9 138.5 138.9 142.9 146.7 150.6 153.1 155.5 157 158.1 157.9 156.9 156.3 155.9 155.5 150.2 157.5 162.5 166 167.8 169.4 169.9 170 170 166.6 169.3 172.7 175 177 178.1 177.9 175.3 174.9 177.7 182 182.4 185.4 188.7 189.9 190.8 191.3 191.5 191.1 190.8 190.7 190.7 190.7 190.8 191.3
125.4 122.7 120.7 120.3 119.4 117 116.4 115 113.9 114.1 114.2 114.6 114 110.2 97.8 100.7 110.5 114.9 117.4 118.7 118.3 117.4 116.1 116.6 114.9 110.9 105.4 96.6 87.4 74 62.5 56.9 46.2 35.1 22.8 25.5 31.9 42.2 62.6 83.9 81.7 65.9 45.1 24.8 29.4 29.3 29.1 30.3 35 41.7 46.3 48.6 52.4 55.3 54.3 39.6 29.2 29 27.9 27.8 30.4 34.2 43.1 53.3 59 64.2 71.2 80 84.3 84.9 82.8 83.4 83.4 83.3 84 85 87.4 90.9 94 97.1 100.1 102.5 107 112.2 115.7 117.8 119 117.6 115.9 113 109.3 103.4 105.6 106.9 105.9 104.5 104.2 102.5 105.6 108.6 109.5 107.2 101.6 83.8 72.4 83.3 95.6 100.8 105 107.9 109.5 111.6 113.6 114.8 114 115.5 117.1 121.8 128.6 136.3 141.8 145.6 148.3 149 148.8 146.7 145.3 144.1 142.7 141.6 141.5 141.3 139.9 142.6 140.1 135.6 132.8 129.8 136.9 143.5 147.4 150.1 152.4 154.4 156 157.3 157.3 155.7 153.2 149.3 146.5 143.8 141.5 139.2 142.9 148 152 155.1 157.5 159.7 160.9 161.1 161.1 160.3 159.9 159.4 153.5 159.9 163.8 167.3 169.6 171.8 173.2 174 174.3 173.8 171.9 172.2 175.1 178.1 179.8 180 180.3 179 181.4 183.9 185.4 188.1 189.4 191 191.2 191.5 191.3 191 190.7 190.3 190.3 190.3 190.4 191
135.2 132.6 130 128.7 127.7 127.5 127.8 125.3 123 121.2 119.4 118.5 114.4 105.4 104.6 114.7 118.1 120.6 122.2 122.3 120.7 118.9 115.7 113.8 109.7 104.7 98.5 86.9 79 71.4 60.2 43.2 29.6 25.3 25.3 31 36.2 48.4 64 80 76.5 55.4 32.2 25.3 29.1 28.9 29.3 30 38.1 43.8 47.3 50.6 55 60.5 68 69.8 49.2 36.3 30.1 29.7 28.1 27.8 35.3 47.7 57.7 63.9 69.3 75.1 75.8 74.1 73 71.9 71 71.6 75 79.3 82.8 87.2 93.1 98 103.7 109 113.1 116.5 119.2 120.8 121.9 121.4 119.5 116.9 112.8 111.4 112.6 113.4 113.3 112.4 112.8 114.4 114.7 114.9 114.3 111 99 80 74.4 81.3 96.8 102.7 108.2 111.3 113.4 116 117.2 118 118.5 118.9 120.9 124.7 128.4 134.3 140.2 145 147.9 149.3 149.9 149.3 148.5 147.6 146.4 144.7 145.2 146 145.9 146.3 145 142.5 139.7 135.3 136.3 141.3 145.7 148.7 150.9 152.9 155.1 155.6 156.4 155.9 152.4 149.1 147.5 146.4 145 143.6 145.4 149.1 153.5 157.1 159.6 162 163.7 164.2 164.4 164.3 163.8 163.1 158.5 161.5 165.2 168.7 171.6 174.1 175.6 176.4 177 176.8 176.4 175.5 177.1 179.4 181.4 182.4 183 184.2 185.5 187 188.5 190.5 191.4 192.6 192.5 192.4 191.9 191.2 190.8 190.1 188.7 188.7 189.8 190.5
143.4 140.8 139 136.7 134.8 133.3 132.5 131.7 128.6 125.3 121.6 115 112.9 114.3 113.3 119.2 121.3 122.5 123.5 123.6 121.6 119.5 117.2 113.4 108.6 106.4 102.3 98.9 91.3 80.8 63.7 40.5 22.9 24.9 26.7 34.7 38.8 50.1 67.4 81.2 85.7 58 28.5 29.3 28.9 28.8 28.9 32.7 39.2 44.9 50.2 55.3 63.3 71.4 77.2 80.2 79.9 59 41.5 30.7 30.5 30.3 27.8 36.9 48.3 59.9 63 62.8 63 62.5 61 60.5 71.6 82.8 86.7 90.4 96.3 101 105.1 108.6 111.8 115.3 118.2 120.7 122.8 124.1 125.3 125.2 124.5 122.6 120.9 120.2 119.9 120 120.2 120.4 120.7 120.7 120.7 120.3 118.5 114.3 102.6 81.8 74.9 84.9 100.4 105.2 110.6 113.8 116.7 119.1 120 121 121.7 122.4 124.7 127.5 130.4 134.4 138.2 141.9 144.6 146.7 148.2 148.9 149.3 148.6 147.8 147.9 148.5 149.2 149.4 149.3 149 148 145.7 143.1 141.3 139.6 143.4 146.7 149.7 152.2 154.1 155.5 155.6 156.1 154.9 152.5 151.3 150.3 149.9 148.9 146.9 152.5 155.8 158.9 162 164.4 166.3 167.5 167.7 168 167.3 166.3 163.4 162.3 167.3 170 172.4 175.7 177.8 178.5 179.6 179.1 178.6 179.8 180.8 182.7 183.2 184.5 185.7 186.9 187.5 189.3 191.3 192.3 193.2 193.9 193.5 193.1 192.5 191.8 190.9 189.6 188.3 186.7 187.5 188
148.6 146.9 144.8 142.6 139.9 137.8 135.1 131.8 127.9 124 119.7 119.9 119.7 119 121.1 122.5 123.4 124.6 125.2 125.1 123.9 122.8 119.6 116.5 113 113.3 111.6 107.3 97.5 73.7 51 26.5 26 25.8 32.8 37.5 42.5 51.7 66.4 80 87.2 61 28.8 29.6 28.6 28.4 28.8 36.1 40.9 48.7 59.8 66.5 73.5 79.1 83.5 85.7 86.7 78.4 57.9 35.1 31.1 31 31.3 27.8 35.6 44.4 43.3 45.6 50.2 54.1 62.8 75.9 83.5 89 94.2 98.1 102.4 106.3 110.3 113.8 116.8 119.6 122 123.9 126.2 127.7 128.6 129.6 129.1 128.5 127.7 127.9 128 128.2 127.6 127.8 127.5 127.3 126.1 124.4 121.3 116.6 106.1 83.5 74.6 88 101.5 108 113.1 116.4 119.5 121.7 123.8 125.2 126.8 127.4 128.5 128.5 130.7 132.5 135.3 137.3 140.9 143 145.2 146.2 146.9 146.4 146 146.3 147.8 149.2 148 148.3 149.7 149.2 148.6 147.5 146.1 145 144.5 146.8 149.4 151.6 153 155.5 156.7 156.7 157.1 155.5 155.8 156.1 156.1 155.2 153.4 151.7 157.9 160.9 163.8 166.8 168.6 170 171.1 170.2 169.3 168 165.7 163.2 168.6 170.9 173.6 176.9 179.9 181.1 182 181.6 181.2 182.7 183.9 185.1 185.6 187.1 188 188.7 189.6 191.4 192.5 193.5 194.5 194.8 194.2 193.6 193.1 192.3 190.9 189.6 187.8 185.7 185.6 188.9
152.9 150.3 147.3 144.2 140.8 137.8 134.5 130.7 128 124.9 124.8 123.9 121.7 122.1 123 124.1 125.5 126.5 127.4 127 126.6 126 125.3 122.9 121.1 117 113.9 109.8 86.2 59.6 31.8 22.7 26 29 35.9 41.5 46.4 51.7 63.4 77.2 85 60.8 28.8 29.2 29 28.5 30.2 40.1 44.2 55.8 64.3 71.5 78.8 84.8 88.7 91.1 91.6 87.9 64.9 44 33.5 30.3 31.2 30.7 28.7 32.7 47.7 62.8 70.9 74.4 73.9 83.2 88.6 92.2 97.1 101.3 106 111 114.8 118.1 121 123.8 126.1 128 130 132 133 133.8 134.1 134 131.6 133.5 133 133.2 133.2 133.2 132.5 131.3 129.2 126.1 121.7 115 105.5 84 76.6 87.4 100.8 109.2 114.7 118.7 121.9 124.1 126.1 126.8 127 126.6 126.2 126.2 127.4 128.6 130.3 131.7 134.4 137.8 140.5 141.7 142.4 142.5 142.4 142 143.5 145.6 145.8 145.9 146.3 147.8 147.9 148 147.8 146.9 148.5 148.9 151.1 152.8 154.9 157.4 158.2 159.6 159.7 160.3 160.7 160.9 160.3 159.8 158 155.2 158.1 163.4 166.6 169.2 170.9 172.3 172.1 171.4 170.4 168.2 166.1 166.9 168.1 171.7 176 178.9 181.5 182.9 184.1 184.2 183.6 184.7 186.5 187.4 188.2 189.1 189.9 190.6 191.6 192.3 193.5 194.3 194.7 195.1 194.7 194.1 193 191.7 190.4 188.7 185.8 184.9 185.5 187.2
154.7 151.6 148.1 143.8 140.3 137.1 133.8 130 128.1 126.9 126.3 125.9 125.6 124.3 124.9 127.5 128.1 129.3 129.6 129.6 128.6 126.1 123.7 120.5 116.3 112.1 106.4 95.9 72.4 43.7 23 25.5 26.5 32.9 39.2 44.6 48.1 53.7 63 74 80.1 64.5 29 29.3 28.6 29.2 33.6 41.7 50.6 58.7 66.8 73.5 82.1 88.9 92.9 95.8 95.5 90.9 69.4 47.2 34.5 30.6 30.9 31.1 30.5 30.7 29.5 48.8 67.9 80.3 85.8 86.7 94 97.6 101.6 106.5 111.2 115 119.5 123 125.9 128 130.3 132.7 134.5 136 137.4 138 138.3 138.2 137.2 136.4 137 136.7 136.9 136.5 135.3 133.1 130.8 126.6 121 115.2 108.1 87.7 76.6 85.9 97.7 105.9 111.6 114.9 117.2 119.8 120.8 120.4 118.8 117.4 117.2 118.8 119.4 121.5 123.5 126.2 127.9 130.5 134.1 136.8 137.4 137.5 136.7 136.7 137.5 139.6 140.3 142.2 142.6 144.5 146.3 146.9 148.3 149.4 151 152.2 154.3 156 157.6 159.2 161 162.3 163.1 164.3 164.3 164.7 164.1 164 164.4 162.9 158.8 164.3 168.1 170.1 171.4 173 172.7 172.4 171.8 170.5 170.6 169.5 171.4 172.1 175.7 178.4 181.3 183.4 184.6 186.3 186.6 186.4 187.9 189 189.9 190.9 191.7 191.6 192.4 193.1 194.1 194.5 194.8 195.1 194.6 193.5 192.4 191 188.7 185.6 182 186.1 187.4 188.5
155.5 152.2 148.7 143.7 141 137.9 135.3 133.1 130.9 129.9 129.1 129.5 129 127.5 127.7 127.9 127.9 125.9 123.6 122 118.6 113.3 110.5 104.8 101.1 98.5 92.9 80.8 59.7 28.9 26.5 25.3 28.7 35.9 41.2 45 49.5 54.6 60.5 69.9 74.8 57.6 29.6 29.3 28.4 28.6 37.7 45.3 54.6 61.1 66.5 74.4 83.7 91.7 96.1 98.5 97 91.7 75.5 59.1 38.7 32.3 31.9 30.6 31.2 31 30.9 27.8 52 78.8 91.3 94.1 98.5 103.5 107.8 113.3 119.1 123.6 126.1 128.1 130.5 132.4 133.6 135.7 137.5 139.1 140.4 140.7 140.3 140.2 140.6 140.3 139.1 138.9 138.4 136.7 134.9 132.3 129.1 123.7 118.3 112.4 104.5 88.8 78.4 82.4 89.5 94.4 99.5 103.7 106.4 108.2 110.6 109.8 103.7 103.1 104.4 105.9 110.6 114.4 116.4 118.9 121.9 124.1 127 130 131.3 130 130.7 130.8 130.9 132.8 136.2 138.4 139 141.3 143.9 146.6 148.5 150 152.6 155 157 158.8 161.3 162.8 164.4 165.2 166.8 167.2 167.7 167.6 167.7 167.9 167.9 167.7 165.7 163.9 167.9 169.4 171.2 173.2 173.4 173.9 174.5 173.7 174.6 174.3 173.6 173.4 175.1 177 179.8 183.2 184.7 186.4 187.9 188.2 189.1 190.3 191.1 191.5 191.5 192.1 192.9 193.4 193.8 194.2 194.5 194.5 193.5 192.5 191.2 189 186.4 181.2 181.8 185.3 186.3 187.7
157.4 153.6 150.5 146.7 143.2 140 137.5 135.2 132.6 130.8 128.7 126.7 124.6 123.4 121.4 118.3 115.5 111 105.5 102 99.4 95.4 91.8 87.9 82.7 78.5 73.1 64.3 40.8 24.3 26.2 25.4 31.3 38.9 42.1 45.8 50.1 55.3 59 66.5 67.4 53.7 28.5 28.7 29.1 29.9 39.9 49.8 57.7 63.4 67.5 79.3 86.2 93.2 97.9 98.8 96.7 90.6 77.9 62.4 45.3 35.5 32.8 31.4 33.6 33.1 33.1 32.3 31.7 62.3 86.6 100.1 104.6 110.8 116.7 122 125.9 128.9 130.9 132.6 133.9 135.5 136.4 138.3 139.7 140.7 141.2 140.4 139.6 139.1 138.6 138.8 138 136.2 136.3 134.6 132.7 130.3 126.4 120.9 114.2 107 99.5 95.7 80 79.1 82.5 84.4 85.4 89.5 91.3 93.1 96.6 99.4 103.8 110.9 115.5 114.5 112.2 109.3 109.9 113.6 115.8 117.5 119 121.3 122.3 123.4 124.5 125.9 127.5 129.6 132.3 134.4 136.1 139.6 143.1 146.1 148.4 150.7 153.9 156.5 158.9 161.5 163.8 165.9 166.3 167.3 168.5 169.4 168.9 169.8 170.2 170 169.7 168.8 167.9 167.2 166.3 168.4 170.7 173 174.1 176 176.7 177.7 178.2 178.6 178.4 178.5 178.6 180.3 182.4 184.3 185.8 187.1 188.4 189.4 190 190.8 190.9 191.1 191.3 191.7 192 192.2 193 193.4 193.6 193.1 192.4 191 189 186.6 183.1 179.3 181.5 183.7 185.3 186.9
158.3 155.1 151.4 148.5 144.9 141.5 137 133.5 129.9 125.8 121.9 117.7 114.3 110.6 104.3 99.8 95.9 90.4 84.9 83.7 80.9 76 71.5 67.8 60.5 54.4 55.7 45.7 29.8 23 25.9 26.5 32.8 39.8 43.6 46.8 51 55.6 58.5 62.9 59.3 46 28 27.7 29 32.9 42.4 51 58.5 64.3 68.8 74.5 85.6 92.9 98.2 99.9 98.9 95.6 88.8 78.2 67.9 48.2 36.5 34.6 34.6 34.1 34.1 34.3 28.9 41.4 78.2 101.6 109.6 116.3 121.9 126.9 129.4 131 132.4 133.8 134.7 135.8 136.8 137.9 139.1 139.1 138.5 138.1 136.4 135.4 135.9 134.4 133.8 133.7 133 131.7 130.4 128.3 125.5 120.8 115.9 111.7 106.5 98.6 84.6 79.4 85.5 90.6 97.1 100.6 104.1 105.9 107.2 110.5 115.1 118.9 122.3 122.9 122.4 120.4 116.7 114.9 114.6 116.2 117.2 119.3 120.8 121.7 123.6 126.3 129 130.2 130.3 132.4 134.7 138.8 142.3 145.5 148.1 150.7 152.6 155.9 158.5 162.2 165.2 166.1 167.1 167.5 168.4 169.6 170.5 171 170.3 169.2 168.5 168.1 167 166.8 167.8 169.9 171.8 173.6 175.5 177.8 180 180.8 181.3 181.7 182 182.2 182.4 183.6 184.7 185.6 186.7 187.6 188.5 189.2 189.8 189.8 189.4 189.5 189.5 189.9 190.3 190.5 190.9 191.8 191.7 191.6 191.3 190.5 190 187.9 185.2 178.8 181.6 185.4 186.9 187.6
156.8 154.5 151.8 149 145 140.7 134.9 129.5 124.2 117.5 110.7 103 95.3 90.1 83.8 79 75 69.2 67.9 63.1 58.9 54.6 49 45.8 38.6 35.9 34.2 31.3 27.1 23 26 27.8 33.5 40.3 44.6 48.3 52.3 55.2 57.8 59.6 52.4 36.5 28.9 27.8 28.2 35.4 43.9 52.4 60.2 65.2 70.1 74.8 86.5 89.7 100.5 103 103.7 101.6 96.8 90.5 80.5 63.4 44.3 39.3 36.6 34.5 34.5 34.3 33.9 27.8 61.1 93.4 112.7 117.5 122 125.5 128.2 128.7 129.5 130.4 132 133.1 134.4 135.1 135.3 135.1 134.2 132.9 131 129.9 130.4 129.9 129.5 129.7 129.5 129.1 128.1 127.1 125.3 122.6 118.6 113.3 107.1 96.7 88.4 84.9 80.1 88.8 96.5 102.5 106.6 110.9 114.7 118.4 122.2 124.5 126.5 127.7 127.7 126.1 124.6 122.4 122.5 125.1 125.8 126 125.8 125.6 126.5 131.1 134.9 136.4 135.8 134.1 133.6 137.7 141.4 144 146 149.3 150.9 154.4 157.2 161.5 164.2 165.4 165.4 165.8 167.5 168.7 168.7 169.8 169.8 169.6 168.6 168.5 168.5 168.3 169.7 171.6 173.5 175.4 177.4 179.5 181.7 183.4 183.8 183.8 184.1 183.9 184.2 184.8 185.8 186.6 186.7 187.4 188.1 188.1 188.3 188.3 187.9 187.8 187.6 187.5 187.9 188.1 188.7 189.4 189.9 189.8 190.3 190.3 189.8 189 186.1 178 180.8 183.9 185.4 186.4
155.6 153.2 150.6 147.9 144 139.6 133.4 127.7 121.3 112.6 99.8 89.2 79.5 72.1 64.2 59 56.7 56.1 53.9 51.4 53.1 52.9 53.6 53.7 53.7 49.4 49.2 48.2 29.7 23.1 25.2 27.9 33.9 40.4 44.5 48 51.9 54.5 55.9 53.3 38.3 28.6 28.6 27.8 28 36.2 48.4 52.1 59.4 65.4 71.5 76.7 82.1 95.9 102.2 107 108.1 106.6 103.5 97.9 88.7 71.2 53.7 43.3 42.6 38.2 36.3 35.5 35.4 30.8 40.1 81.7 112.1 116.5 118.9 119.9 121.9 124 125.5 127.2 128.2 129.7 131 131.5 131.6 130.7 127.8 126.4 125.6 125.6 125.6 125.3 125.7 126 126.5 125.8 126.2 125.9 124.6 122.7 119 114 108.1 96.7 98.2 94.3 81.6 86.6 94.2 100.5 106.5 111.4 116.2 120.6 124.3 126.9 129.3 131.3 132 131.2 130.3 129.2 129.5 130.6 130.7 130.5 130.3 130.7 131.9 136.2 139.3 141.4 141 139.3 137.3 136.1 137.9 140.9 142.9 146.3 148.6 151.4 154.4 157.1 161 162.1 162.8 164.2 166.3 167.4 168.1 168.1 168.7 168.7 169.2 169.7 169.8 169.9 171.6 173.3 175 177.2 179.2 181.4 183.4 184.8 184.9 185.3 184.7 185 185.3 185.6 186.3 186.9 187 186.4 186.4 186.5 186.7 186.3 185.9 185.8 185.6 185.2 185.4 185.9 186.6 187.2 187.8 189 189.5 189.6 189.6 189.2 186.6 179.9 176.5 180.5 183.5 183.9
151.3 148.9 147.4 144.5 141.6 136 130.1 123.3 117.4 107.9 99.3 83.4 71.9 76.4 78 77.5 75 74 74.9 74.1 73.6 70.8 68.6 66.9 65.4 63.5 64.4 56.1 32.4 23.1 25.8 27 32.4 37.7 43.5 47 51.7 51.7 49.2 40.6 28.1 28.7 23.7 27.8 29.4 40.2 52.3 55.9 59.2 65 71 76.5 81.5 93.9 101.3 106.5 109.2 108.7 105.4 99.6 89.7 74.7 56.8 47.4 45.2 40.6 38.4 36.7 35.9 34.4 32.5 71.6 97.4 111.6 114.3 115.9 116.9 119.3 121.2 123.4 124.5 125.5 126.7 127.4 127.7 127 125.1 123 122.7 122.4 122.7 123.1 123.1 123.5 123.6 123.7 124.6 124.3 124 121.8 119.3 114.9 108.8 98.5 104.6 102.6 92.7 83.8 88.6 97.8 104.4 110.7 115.8 120 125.2 128.8 131.4 133.4 135.1 136.1 136.1 134.8 135.5 136.7 136.7 137.4 137.8 137.8 137.4 138 141.8 143.3 143.1 142.4 141.6 140.3 143.2 143.7 145.3 147.1 149.3 152.6 154.3 155.5 158.1 160.2 162.3 163 165.1 166 167 167.6 168 168.2 168.4 169.3 170.1 171.4 173.2 174.9 176.6 178.7 180.8 182.7 184.6 185 185 185.2 185.6 185.9 186.3 186.6 186.9 186.8 186.8 185.5 184.8 184.9 184.5 184.1 183.6 183.4 183.4 183.2 183.1 183.8 184.4 185 185.6 187 188.4 188.7 188.8 188.5 187.3 182.7 174.8 175 179.2 178.7
144.1 142 138.6 136.5 133.7 130.5 125.7 120.6 113.4 106.4 96.3 80.4 79.1 89.3 89.3 88.3 88.2 87.5 85.6 83.4 83.2 80.7 78 77.5 78.3 79 77.8 60.2 34.3 23.7 26.4 26.6 27.6 33.4 37.8 43.4 44.8 42.1 36.2 27.9 27.9 28.3 23.7 27.4 30.4 43.5 54.5 60 62.1 66.1 70.2 75.8 81.3 89.4 97.6 103.9 108.4 109.2 105.1 98 87.2 74.5 57.1 49.2 47.1 43.2 40.7 39.1 37.4 35.4 27.8 64.9 88 105 108.4 111.4 113.6 115.8 117.7 119.5 121.5 122.8 123.8 124.4 124.6 123.8 122 120.5 120.3 120.1 119.9 120.4 121 120.9 121.4 122.3 123 124.1 123.5 122.3 119.3 115.7 109.1 102.8 109.1 108.3 100.5 90.1 84.2 91 100 106.6 112.6 116.5 122.6 127.2 130 133.6 137.3 140.1 141.2 142.5 143 143.4 143.5 143.2 142.8 142.5 141.8 141.7 143.2 145.4 145 144.6 144.2 143.7 144.5 146.9 148.9 150.4 152.6 155 157.8 159.1 161.2 162.9 164.4 165.1 165.3 165.1 166.1 166.7 167.3 167.6 167.8 168.8 170.2 171.6 173.3 175.7 178.1 180 181.7 182.4 183 183.2 183.4 184.6 185.7 186 186.3 186.6 186.6 186.6 186 184.7 183.9 183.1 182.5 182 181.4 181 181.1 181.3 181.5 181.8 182.2 182.6 183.4 184.8 186.3 187.3 187.7 187.4 186.2 183.7 177.3 168.4 175 179.5
135.8 132.7 130.4 129.3 128.1 124.9 120.4 115 106.9 99 90.3 82 93.5 94.6 94.4 94.4 94.2 93.3 92.2 91.1 89.7 89.6 88.4 81.4 76.9 79.8 79.1 58.6 31.6 27.3 26.3 26.3 26.8 26.2 31.4 34.2 34.5 32.8 27.1 27.8 28.6 28.5 27.3 27.6 35.2 49.8 59.6 63.5 66.6 71.5 73 76.5 80.8 84.9 93.9 101 106.4 107.9 103.1 95.7 86.2 72.4 56 51.7 48.5 46 43.8 42 39.4 36.3 27.8 60.4 81.2 93.9 99.5 103.6 108.8 112.6 115.3 116.9 118.6 120.2 121.5 122 121.6 120.5 119.3 118.7 118.1 117.6 117.3 117.2 118.7 120 121.1 122.5 123.9 124.8 125 123.4 120.1 115.6 109.6 109 112.8 112.1 107.4 100.5 88.4 87.6 94.4 102.2 108.4 113.6 117.8 123.3 128.1 132 136.6 141.1 144.4 146 146.5 147.1 147.2 147 146.8 146.4 146.1 146.2 146.4 147.7 147.6 147.5 147.1 147.2 147.8 149.6 151.9 153.6 155.9 158.2 160.8 162.7 164 165.4 166.2 166.6 166.1 165.6 165.1 165.8 166.3 166.8 166.9 168.5 170.4 171.9 173.5 175.2 177.8 179.4 180.1 180.6 181.1 181.6 182.8 184 186 186.1 186.4 186.4 186.4 186.5 185.1 183.8 182.7 181.4 180.7 180 179.3 179.2 179.3 179.4 179.6 179.7 179.4 179.4 180.6 182.6 184.2 184.9 185.4 185.3 183.5 181.2 176.5 167.4 172 178.3
131.4 125.5 119.5 119.8 120.8 116.1 109.6 99.9 92.7 88.2 89.5 96.1 101 101.9 101.9 101.9 102.3 102.7 101.5 97.8 88.1 77.7 74.5 70 58.3 55.5 52.6 43.3 26.9 27.1 26.2 26.4 26.6 26.6 26.6 26.8 26.9 27 27.7 28.1 28.6 23.7 27.4 32 44.5 54.5 62.8 65.8 72.4 79 80.7 79.8 82.1 85.6 91.8 97.7 102.8 104.3 101.5 94.8 85.2 71.7 60.5 53 48.1 46.9 44.6 41.4 37.9 35.8 29 55.3 71.8 94.7 107.4 110.4 111.6 111.9 112.6 114.7 116.7 118.5 120 120.8 120.1 118.5 116.5 115 115.1 115 115.9 117.8 119.3 120.3 121.6 124 125.1 125.9 125.9 124.7 121.2 115.8 110.6 113.6 116.3 115.8 113.9 108.8 98 87.1 89.3 98.3 104.7 110.8 115.5 121.1 126.2 131.2 136 140.8 144.7 147.4 149.1 150.3 150.3 150.3 150.1 149.8 149.4 149.2 149.3 150.9 151 150.8 150 149.9 150.1 152 154.3 156.5 158.7 161 163 164 165.3 166.5 166.9 167 166.5 165.9 165.4 164.9 164.3 165.2 166 167.6 169.4 171.1 172.6 173.6 175.5 176.9 177.8 178.5 178.9 181.1 182.4 183.7 184.9 185.9 186.4 186.2 186.3 186 184.5 182.8 181.4 179.8 178.4 177.7 177.6 177.2 176.6 176.3 176.9 176.7 176.2 176.3 178.3 179.4 181.7 182.7 183 183 180.8 178.6 173.1 165.6 171.4 176.8
138.9 133 125.5 115.5 107.9 102.9 102.9 101.4 104.3 106.1 106.5 106.9 108 108.2 107.6 108.1 105.7 97.5 90.7 83.1 76.1 65.8 54.5 39 37 34.2 32.7 32.7 28 27.4 27.1 26.4 27 26.6 26.8 27 27.4 27.8 27.9 28.1 23.7 29 31.6 41.9 53.6 61.7 65 70.6 79.1 84.6 87.2 86.6 85.8 87 89.8 94.8 99.3 102 101.2 95.4 85.5 72.3 61.4 52.1 48.5 44.5 41.8 37.8 37.5 34.2 30.7 54 80.6 102.2 108.7 111.3 113.2 113.8 113.3 115.2 117.4 119.2 120.8 121.3 120.6 118.7 115.2 111.2 112.8 115.2 116 117.7 119.4 120.5 122.2 123.6 125.3 126.3 126.4 125.2 121.5 116.8 114.1 118.2 119.7 119.3 116.6 111.7 104.3 92.8 87.9 93.8 101.5 108 112.9 119.3 125.3 130.3 135.4 138.9 142.9 147.2 149.2 151.1 152 152.7 152.5 152.1 152 151.9 152.1 153.2 153.8 153.4 153.2 153 154.3 154.8 156.9 159.2 161.1 162.9 164.3 165.3 166.5 167.2 167.4 167.4 166.8 166.3 165.3 164.3 163.2 162.8 164.3 165.6 167.1 168.6 169.4 170.4 172.6 174.1 175.1 175.6 177.4 179.8 182.2 183.5 184.7 185.9 187 186.3 186.1 185.3 183.9 182.1 180.3 178.5 176.3 175.4 174.8 173.8 172.7 173.3 174.1 173.2 173 173.5 175.6 177.1 179.1 180.7 181.1 181.2 180 177.8 174 166 168.1 174.8
139.3 133.5 127.5 122.8 117.8 115.2 112.6 111.2 110.7 110 108 105.6 105.3 103.8 102 99.1 92 82.6 72.8 63.3 53.7 42.2 42.2 46.6 49 46.2 44.5 42.7 35.7 23.7 28 27.4 27.2 27.2 27.3 27.5 27.8 27.9 27.3 23.7 28.4 31.7 41.7 51.3 59.7 63.3 70.6 78 84.8 89.8 93 92.6 90.6 88.6 72.8 69.8 75.7 83.5 87.7 88.3 83 72.6 60.8 52.9 46.3 42.4 39.8 38 36.2 34.1 27.8 61.8 97.5 107.2 107.1 108.4 110.4 111.5 112.1 114.7 118.1 120.8 122.4 122.8 120.7 118.5 112.6 110.9 114.1 115.5 116.1 116.9 118 119.5 120.7 122.6 124.7 126 126.5 126.8 125.6 123.3 122 122.5 123 121.4 118.4 112.7 103.5 96 93.3 91.2 97.7 106 112.6 118.7 124.3 129.3 133.9 137.5 142 145.8 148.3 149.9 151.1 151.7 152.8 152.4 153.2 154 154.5 155.1 155.9 156.1 156.5 156.9 157.3 157.8 159.4 161.1 162.4 163.8 165.1 166.3 167.5 167.7 167.9 167.4 166.2 164.9 163.6 162.6 161.6 160.3 162 163.2 164.3 165.4 166.2 167.4 169.1 170 172.9 175.3 177.5 179.4 181.4 183.3 184.6 185.8 187.1 187.1 186.1 184.7 183.3 181.4 179 176.5 174.8 173 172.3 171.5 170.5 169.9 169.6 168.8 168.7 169.6 171.8 173.5 175.9 179 179.5 179.4 178.2 177 173.3 167.1 161.7 167.4
140.9 135.6 130.3 126.1 122.3 119.3 116.3 114 112.1 108.9 106 102.1 97.1 92.8 89.8 85.4 73.8 61.1 52.1 48.1 49.6 50.4 55.6 59.7 60.7 57.2 54.1 52.1 49.5 40 27.4 26.5 28.1 27.7 26.8 27.6 27.6 27.4 26.8 26.9 30.4 40.5 50.8 59.5 64 72.5 80.3 86.5 90.7 95.6 98.6 98.4 87.8 71.7 52 43 43.9 46.7 53 61.8 66.5 63.8 56.2 50.5 42.9 40.3 37.8 35.3 33.9 31.3 32.5 78.9 99.5 98 97.7 98.9 101.7 104.3 106.2 110.3 117.7 121.3 121.3 120.7 118.1 115.4 107.4 110.3 111.3 112.1 112.7 113.8 115.4 116.7 118.8 121.9 124.4 126.9 128.5 129.2 128.3 126.8 126.4 125.8 125.6 123.1 119.1 112.4 99.8 105.2 103.8 92 95.5 104.4 111.7 117.6 123.4 128.1 132.8 137.1 140.8 143.6 145.1 146.8 148.3 149.7 151.5 152.3 154 154.2 154.3 155.1 155.3 156.2 156.9 157.6 158.3 159.5 160.6 161.7 163.1 164 165 166.2 166.7 166.6 166.6 165.8 164.5 163.1 161.8 160.8 159.2 157.8 159.1 159.8 160.7 161.3 162.7 165.2 168.1 169.9 171.3 174.5 178.1 180.3 182.1 183.8 186 187.2 187.1 186.5 184.9 183.8 182.2 179.5 177 175.1 173.4 171.2 170 169.3 168.5 168.4 167.8 166.4 165.9 166.9 168.9 171.4 174.1 176.6 178.2 178.5 177.6 176.6 174.5 170.7 162.7 158.9
140.7 135.2 130.2 125.4 121.3 117.4 114.4 111.8 108.4 103.1 93.8 84.8 78.6 75 70.8 65 57.6 53.3 58.7 61.1 61.1 56.6 66.9 73.5 74.3 71.8 64.2 63 62.7 58.7 47.1 32.3 29.9 26.9 27.8 26.2 23.7 23.7 28.9 34.5 38.9 48.4 59.1 66.8 73.5 81.1 88.7 93.7 98 101.8 102.8 91.1 66.3 46 30.3 32.4 33.9 29.9 31.5 32.9 35.5 35.7 37.2 37.3 34.9 34.8 34.2 33.1 32.1 28 53.4 88.6 88.6 88.9 88.6 89.6 92 95.4 96.4 100.2 107.3 112.2 111.6 109.9 108 106.7 100.2 102.8 101.3 104.8 106.8 110 112.4 114.8 117.8 121.4 124.6 127.8 130.5 131.9 131.6 130.2 130.8 129.5 127.6 124.7 117.6 107.8 106.9 113.7 111.9 101.4 94.4 101.6 110.1 116.3 121 124.9 128.4 134.3 137.4 139 141.3 143.5 144.9 147.2 150.1 151.7 152.2 153.6 153.9 154.3 155.1 155.6 155.9 156.5 158 159.8 161.2 162.4 163.2 163.8 164.8 165.4 164.8 163.9 164 163.5 162.5 161.4 160 158.7 156.9 155.8 156.7 158.5 160.6 163.1 165.2 167.1 170.6 172.6 173.5 174.6 176.9 180.2 182.2 183.9 185.6 187.1 186.2 185.7 184.9 183.7 182.4 180.2 178 175.9 174.2 172.7 171.6 170.5 169.5 168.6 168.1 167.7 165.9 163.7 165.5 170.2 173.5 175.7 176.8 177.2 177.3 176.2 174.1 171.6 167.3 158.1
138.2 131.9 126.2 120.3 115 110.8 107.5 104.5 99.1 86.7 71 67.6 63.5 60.2 62.9 64.5 57.4 66 74.7 78.9 78.1 65.7 74.9 84.8 84.4 81.3 74.1 70.2 71.7 69.4 51.5 48.1 49.7 44.8 45 46.4 47.5 47.4 50.6 54.6 50 54.2 67.3 79.2 86 92.2 97.4 101.7 105.1 105.4 103.7 74 39.1 31 33.4 33.7 33.5 33.2 33 32.7 30.2 29.5 31.4 32.1 32.3 32.8 31.6 31.1 29.1 49.2 69.1 75.3 72.2 73.1 71.5 69.4 72.6 78.2 84.2 89.7 92.7 96.7 95.4 96.8 95 96.7 102.9 108.1 110.3 110.7 111.8 112.6 115.1 116.9 119.1 121.7 125.4 129.2 131.7 134 134.3 133.8 132.8 131.2 128.4 124.2 117.6 106.8 115.4 119.5 117.7 109.5 93.1 99.3 106.1 110.8 115.5 119.7 122.7 127.5 132.1 133.3 136.7 138.5 141.7 144.1 146.6 148.9 150.1 151.7 152.7 153.2 153.9 154.2 154.6 155.2 156.7 158.5 160.3 162.1 162.9 163.4 163.7 163.9 162.9 162 161.3 160.8 159.9 158.9 158.6 157.4 155.1 155.3 157.8 159.7 162.6 165.2 167.3 169.2 172.4 174.6 176.1 177.2 178.5 179.8 181.6 183.7 185.5 187.3 187.3 186.8 185.8 185 184.4 182.3 180.1 177.8 175.7 174.4 173.4 172.4 171.4 170.5 170.2 170 168.9 166 163.7 169.8 172.9 174.9 175.9 176.8 176.7 175.8 173.5 171.1 167.9 161.3
133 126.2 117.8 109.1 102.7 97.3 94.1 90.9 85 69.6 78.3 81.8 82.2 73.1 73.3 79.5 70.7 74.3 85.4 86.7 85.7 75.1 81.4 90.7 91.1 88.4 82.8 78.4 78.3 67.2 53.9 61 63.2 62.3 62.4 63.7 66.1 67.3 69.1 70.1 60.9 66.3 81 88.7 95.2 99.9 104 106.4 107.9 107.3 87 56 30.4 34.7 34 33.7 33.8 34.1 33.6 33.3 34.1 33.8 33.8 32.6 32.3 32.2 32.7 36.3 50.3 57.1 56.6 52.5 52.4 58.4 66.2 73.5 77.2 81.5 83.9 84.9 84.2 89.2 92.5 95.5 99.7 104.6 109.7 113.2 114.2 115.6 117.2 117.8 118 120.6 122.8 124.2 126.7 130.1 133.3 135.8 136.8 136.2 135.8 133.4 128.9 124.5 119.2 110.8 118.6 123.9 122.8 114.6 100.4 96.3 100.2 103.9 108.7 113.2 116.7 120.9 124.6 126.9 129.9 132.9 135.9 140.9 142.1 145.4 148 149.6 150.6 151.4 152.5 152.9 153.5 154.3 155.4 157 158.8 160.5 161.4 162.3 162.6 162 161 160 159.2 158.5 157.7 158 158.2 155.6 153.6 154.9 158.1 161.1 163.5 166.2 168.9 170.9 173.6 175.9 177.5 178.7 180.4 181.6 182.8 184.7 186.6 187.8 188.1 188.2 187.9 186.8 186 184.3 182.1 179.8 177.7 176.4 175.3 174.3 173.3 172.3 172.2 171.6 170.7 167.7 162.5 169.2 172.2 172.8 173.9 174.4 173.8 174.5 173 170.5 166.8 160
131.4 120.5 111.9 107 100.2 93.6 85.2 78.3 72.6 77.4 84.6 88.8 88.1 81.2 76.4 84.5 81 72.9 87.1 91.7 91.5 81.4 85.9 96.8 96.9 93.9 87.8 83.2 82.6 69.7 70.7 75.3 78.8 81 82 81.9 84.6 85 84.7 83.8 72.7 74.1 89.7 99.6 103.6 106.2 108.9 110 110.4 110.8 72.7 38.7 33.3 34 34 36 37.1 36.9 37.1 37.4 38.1 38.6 38.7 39.6 40.2 41.8 42.4 39.4 40.2 44.9 52.7 62.3 68.5 76.2 82.5 88.3 93.1 96.5 99.8 100.6 99.8 102.1 108.9 111.4 114.8 117.8 119.5 120.3 121.2 122.8 123.2 122.5 121.2 123.3 125.6 126.8 129 133.3 135.8 138.5 139.4 139.1 138 135.7 131.8 127.9 123 113.7 121 125.8 125.6 119.2 108 98.5 99.3 105.8 112.7 117.4 120 124.2 128.1 131.4 133 136.1 141.2 144.5 145.8 145.9 146.5 147.6 148.9 149.8 151.2 151.8 152.6 153.4 154.3 155.7 156.9 157.5 158.3 159.8 160.4 160 159.1 158.1 157.1 156.1 154.7 152.7 153.8 152.6 151.9 153.5 157.2 160.5 163.8 166.7 168.9 171.7 173.2 175.4 176.8 178.7 180.6 182.4 184.2 185.9 187.2 188.4 189.1 189.5 189.9 188.9 187.8 186.3 184.1 181.9 180.7 179.5 177.9 176.4 175.2 174.2 173.8 173.2 172.5 169.2 161.1 166.1 168.3 169.2 169.4 170.9 170.3 171.5 171.9 169.2 165.2 158.3
132.1 125.4 120.4 116 109.1 101.5 92.9 80.6 77 85.1 90.1 93.9 94 87.2 81.5 90.7 89.8 82.3 86.4 95.8 97.2 93.3 88.9 98.5 101.3 99.3 94.2 91.7 90.6 76.9 84.6 92.8 95.1 98.1 99 98.6 99.2 99.8 101.2 91.7 77 82.6 96.3 105.3 109.3 112.2 113.3 112.2 111.2 102.7 67.4 36.6 35.4 33.7 37 39.4 39.9 39.7 39.8 40 40.8 41.1 41.5 42.8 43.9 44.2 45.9 53.8 53.3 59.6 68.1 75.8 81.2 85.7 90.3 93.9 99.2 104.3 108 111 113.1 113.9 116.8 119.8 123.2 124.9 125.9 126.5 126.8 127.2 127.1 125.8 125.1 126.3 128.9 131.2 133.5 135.4 138.9 141.4 142.2 142.4 141.2 138.8 134 130 124.2 121.1 124.8 129.3 130.8 129.4 122.9 109.9 98.3 103.6 112.9 120.2 124.6 127.7 130.4 132.9 136.3 139.9 143.2 145.8 147.3 147.9 147.7 148.2 149 149.8 150.9 151.5 152.2 152.8 153.3 155 154.7 154.5 155.2 156.4 157 156.9 156.1 155.2 154.4 152.8 150.2 149.3 148.6 149.7 150.3 151.2 155.9 159.6 162.7 165.4 168.4 170.6 172.3 174.8 176.8 178.8 180.6 182.4 184.6 186.9 188.5 189.7 190.5 190.9 191.4 191.2 190 188.7 186.7 184.6 183.6 182.5 181 179.5 177.7 175.4 174.3 173.1 172 169.9 164.7 159.2 160.4 161.6 162.3 165.1 166.7 168.6 169.6 168.2 163.3 155.6
132.7 129.3 124.2 119.1 111.8 102.7 91.4 78.6 85.6 94.5 99.9 101.9 99.7 91.7 86.3 95.7 96.2 90.7 87.1 98.9 101.9 100 90.5 100.3 106.6 106.6 102.9 101.1 97.3 90.3 96.9 103.4 108.2 110.3 112 111.7 110.2 107.6 106.3 95.9 83.9 90.5 105.2 110.5 115.1 116.3 115.7 112.2 105.6 93.1 73.6 34.5 35.2 34.4 40.2 42.4 42 41.8 42.3 42.4 43.1 43.8 44.6 46.5 47.4 48.6 52.8 64.6 71.3 74.4 77.8 81.1 82.7 84.8 89.6 97.1 105.7 110.6 113.7 116.6 119 120.3 120.1 122.5 124.8 126.2 127.6 128.6 128.9 129.6 129.9 129.2 128.7 130 131.9 134.8 137.4 139.2 141.9 143.3 144.3 145.2 144.5 142.9 138.6 134.6 127.9 127.1 131 133.7 135.3 135.7 134.3 123.8 106.9 101.8 107.5 117.5 122.4 125.8 129.4 132.1 135.7 139.8 143.6 145.9 147.4 148.1 148.2 148.6 149.5 150.7 151.9 152.7 153 153.1 153.2 154.2 153.9 151.3 152.3 152.6 153.2 153.6 152.5 151.4 151 149.1 146.5 148.3 151.5 153.3 154.6 153.7 155.5 158.3 160.2 163.5 166.5 168.5 170.3 173.7 176.9 178.8 180.8 183.2 185.5 187.9 189.5 191 191.8 192.4 192.9 192.6 191.9 190.6 189.2 187.5 186.3 184.4 182.6 180.7 177.9 174.9 172.8 170.3 169.5 168.3 166.5 162.8 158.9 155.7 155.3 158 163.5 165.5 165.5 164.9 161.9 155.4
136.7 130.9 125.6 118.9 111.2 103.4 89.4 79.5 92.9 104.1 106.4 107.3 104.2 94.7 95.6 101.4 101.8 98.4 92.8 103.8 106.8 106.3 100.6 106.3 110.7 111.4 111.1 110.6 104.6 107.8 109.2 112.9 118.7 120.2 120 118.7 117 113.7 105.7 96.3 89.7 99.9 112.3 116.1 118 117.9 115.4 110.7 101.4 86.8 73.9 36.8 30.8 34.8 41.7 44.4 44.3 44.2 44.2 45.2 45.9 46.8 47.6 48.9 50.3 52.1 57.3 69.7 79.2 82.5 83.1 82.8 73.2 69 67.9 77.3 88.8 103.9 111.2 114.9 118.2 119.1 119 120 121.8 124.5 126.6 128.5 130.5 131.7 132.6 132.3 132.6 134.5 137.8 140.2 141.4 142.7 144.8 146.6 148.2 148.5 148.3 146.9 143 138.5 132.9 130.2 135.3 137.6 138.8 139.6 138.7 135.8 122.2 107.4 102.8 108.2 114.5 120.9 125 129.6 134.1 138.9 142.7 145.3 146.9 147.5 148.6 149.2 150.3 150.9 151.7 152.7 153.1 153.2 153.2 153.4 153.1 152 148.1 147.4 147.4 146.7 146 145.5 144.2 144.9 148 152.3 154.5 156.3 157.2 156.6 154.5 158 159.7 162.9 165.6 168.4 171.7 174.4 176.9 179.1 181.4 183.8 186.1 188.4 190.2 191.8 193.1 194 194.3 193.7 193.1 192.2 190.7 189.6 187.4 185.4 183.3 180.5 177.6 174.2 171 168.7 167.5 166.7 166 165 163.2 160.9 157.2 152.2 158.9 160.5 161 159.8 158.9 155.9
139.5 133.8 126.4 118.4 109.2 99.9 87.7 85.4 98.6 109.4 112.5 112.9 109.5 100.1 97.9 106.4 107.3 104.7 99.8 106.6 111.8 112 109.8 111.7 117.1 119.6 119.6 116.2 113 115.4 117.7 120.1 123.3 125 124.7 123.1 120.5 114.2 105.9 97.6 99.1 109.7 116.8 118.7 120.4 119.8 118.7 116.3 111.2 96.4 72.2 38.7 33.2 34.3 43.6 46.5 46.2 46.4 47 47.3 48.4 48.9 49.9 51.1 52.6 54.5 60.2 72.3 82.9 89.5 81.8 53.9 36.2 35.4 36 42.7 63.9 79.9 94.5 105.3 111.1 113.8 114.8 116.8 117.7 120.3 123 125.4 128.9 131.4 133.6 134.9 137.3 140.2 142.1 143.7 144.9 146.4 147.1 148.7 149.6 150.2 150.5 149.4 146.5 141.8 138.2 132.8 137.1 139.2 141 141.7 142.2 138.9 135.6 121.7 108.3 104.1 106 112 120.2 127 133.1 138.4 141.5 144.1 145.2 145.7 146.9 148.1 148.9 149.9 151.4 152.3 152.7 153.4 153.6 153.3 152.1 150.2 145.3 140.3 141 143.8 144.2 145.4 146 150.8 153.6 154.8 156.4 157.9 158.8 158.3 155.4 158.1 161 163.1 165.8 168.7 171.5 174.5 177 179 181.4 183.7 186.1 188.3 190.2 192 193.2 193.7 194.2 194.4 193.9 193 191.9 190.4 188.2 185.8 183.3 180 175.9 173.1 169.9 167.2 166 164.8 164.3 163.6 162.1 159.4 156.4 151.9 151.6 153.9 153.5 153.1 151.9 150.4
139.1 133.5 125.5 114.7 105.6 95.7 87.1 90.1 105.2 116 120 120.3 116.7 106.8 102.1 111.7 114 111.1 104.8 112.1 117.8 119 117.4 118.7 120.8 123.1 124 122.8 121.9 123.2 125.1 126 127.4 128.8 128.2 125.1 122 117.2 110.5 104.7 109 116.3 119.9 122.5 123 123.8 124.3 122.8 112.6 95.1 71.6 46.2 34.7 34.7 43.3 48.9 49.3 49.6 49.4 50.3 51.4 51.6 53 54.1 55.9 58.7 67.6 77.4 85.9 88.3 56.9 35.1 38.9 38.8 38.9 39.3 36.1 46.4 67.2 85 101.4 106.3 109.7 111.4 111.4 113.5 115.6 120.7 124.6 128.9 133.1 137.1 140.5 142.8 144.6 146.1 147.3 148.6 149.6 150.9 151.1 151.8 152 150.4 148.7 144.6 141.3 137.9 136.7 138.9 139.9 143.2 143.9 142.7 139.9 134.2 122.4 113.1 107.1 108.4 113 124.9 132.4 136.8 139.7 141.7 143.5 143.8 143.9 144.1 147.3 150 151.4 150.9 150.2 148.3 147.4 147.3 147 145.4 138.2 141.5 146.5 151.6 154 153.6 152.7 156.2 157.2 158 158.4 159.5 160.3 159.9 157.7 157.5 160.4 163 165.8 168.5 170.7 173.4 176.6 178.9 181.3 183.7 186 188.2 189.8 191.1 192.4 192.8 193.2 193.7 193.2 192.3 190.6 188.8 186.6 184.2 181.9 178.2 174.3 171.5 168.9 165.6 163.6 161.2 160.9 160.3 156.5 153.3 152.3 150.8 147.7 147.3 148 145 141.8 141.7
130.8 122.8 112.1 98.6 96.6 94.1 97.8 105.4 118.3 124.5 127.4 127.7 124.8 118.7 113.7 118.3 121.5 120.1 113.4 113.4 120.7 121.9 122.7 123.2 125.6 127.2 128.3 129 129.9 132.7 133.8 134.8 134 133.2 130.6 126.8 122.4 118 111.2 111.6 114.7 118.9 123.1 124.9 125.4 126.4 127.2 125.7 109.6 92.9 71.5 47.9 35.2 31.4 40.9 51.2 51.6 51.3 52.7 53.6 54.2 54.7 56.2 58.7 63.2 68.3 72.2 81.6 87.8 77.3 39.8 39.2 38.6 38.7 38.6 38.4 39 36.1 39.4 53.6 80.4 92.7 99.6 102.3 102.7 104.7 108.2 113.5 116.5 123.4 129 133.8 139 143 145.7 147.4 148.2 148.9 150.1 151.1 152 152.4 152.2 150.9 148.7 146.3 142.8 140.4 138.7 139.9 143 144.5 145.3 145.2 144 140.1 135.3 129.8 119.3 109.1 110 120 132.6 136.6 138.4 140.4 140.9 141.2 139.8 139.9 141.7 145.6 147.9 146.2 138.5 135.2 134.9 136.1 135.4 137.2 139.9 146.7 151.6 154.4 157.2 158.4 159.4 160.4 160.9 160.5 161 161.7 161.5 160.7 159.1 159.1 161.4 162.4 165.4 168.3 170.6 172.5 175.8 178.8 181.2 183.6 185.9 188.1 189.1 190.1 191.3 192.1 191.7 192.5 191.8 191.1 189.4 187.5 184 181.1 178.5 175.1 171.8 168.3 165 163.2 161.4 159.3 158.4 157.2 158.8 160.8 160.3 159 156.3 154.8 154.1 152 149.8 148.1
114.8 112.9 110.4 107.1 103.6 100.1 105.4 119.1 125.3 130.8 133.4 133.2 132.6 129.9 122.7 124.4 126.5 123.2 117.8 113.7 121.3 125.1 127.3 130.3 133.6 135.2 134.8 135.4 136.4 137.9 138.6 138.4 137.5 135.8 132.2 127 121.2 118.5 115.9 115.8 117.9 121.3 123.6 125.1 126.1 126.6 126.5 120.1 105.4 87.8 67 48 38.8 34.6 36.1 52.3 54.2 55.2 57.8 59.1 60.8 63.1 68.2 72.4 74.9 75.2 79 85.2 90.1 76.9 39.9 38.6 38.2 38.9 42.4 42.8 40.2 38.6 36.1 38.9 58.4 75.4 88.2 93.3 95.5 97.2 100 106 108.7 114 121.3 127.7 135.2 141.5 144.8 147 147.7 147.9 148.2 148.3 149.6 150 150 148.7 148.4 146.2 144.7 143.4 141.2 143.9 144.8 146.1 146.7 147.7 146.5 145.3 141.1 137.8 133.4 122.7 111.4 118.1 132.3 137 137.8 137.6 135.2 137 133.5 132.3 135.3 136.5 133.6 130.8 131 135.4 139 142.7 145 146.3 143.5 151.5 154.4 157.2 158.9 161.4 162.5 164.1 163.7 163.1 163.6 163.3 162.9 161.9 160.7 161.4 161.9 162.4 164.9 168 170.6 172.6 175.4 178.6 181.1 183.7 186 187.9 188.9 189.9 190.6 190.9 191.1 191 190.2 189.5 188.3 186 182.2 178.8 176.6 176 169.4 167.4 167.2 166.4 165.8 164.9 163.9 166.2 166.3 167.5 166.4 166 164.8 163 161.5 160.1 157.1 153.7
124.5 119.8 116.1 111.6 109.3 108 115.5 123.2 130.2 135.1 138.2 139.3 137.3 133.6 130 129.1 129.4 127 122.2 120.6 123.6 131.4 136.6 139 140.7 141.5 142 140.8 140.4 141.6 141.6 141.1 139.3 136.2 132.7 128.2 123.3 120.8 118.2 117.4 119.1 120.5 122.2 123.7 124.9 125.4 124.6 116.2 99.4 79.6 62.1 50.4 41.6 34.7 33.7 44 57.7 61.4 63.8 66.4 69.9 73.1 76.5 80.2 82.2 82.8 84.9 90 94.8 86.7 50.5 38.7 38.6 41.8 45.3 47.2 46.9 43 38.9 36.1 39.5 57.5 71.6 81.9 86.9 90.7 93.6 99.6 104.4 111.2 117.8 125.4 133.1 138.3 142.5 143.7 144 144 143.7 143.5 144.9 146.2 146.2 146.6 145.9 146 145 144.5 144.4 144.5 146.5 147.7 148.5 149.3 149.3 148.1 145.9 142.5 138.5 131.3 112.8 118.6 129.8 133.6 133.5 132.9 126.5 125.7 124.5 125.2 126 125.6 129.9 134.3 140.6 146.2 149.2 152.1 152.3 153.2 152.5 148.5 155.8 157.6 159.2 161.9 165.4 165.8 166.2 165.3 164.9 164.5 164.1 163.6 163.2 163.6 164 164.5 165.6 168 170.4 172.7 175.5 178.3 180.9 183.2 185.4 187.4 188.1 188.8 189.5 189.5 189.7 189.4 188.7 187.9 187.2 184.5 181.5 177.2 176.1 176.2 171.9 171.4 171 170.6 170 169.4 169.3 169.9 170 169.5 169.2 169 167.9 166.2 164.5 162.7 160.6 157.4
134.5 130.9 126.6 119.6 116.4 115.8 118.4 127 134.2 140 142.8 142.1 140.7 139.1 136.7 134.6 135.4 131.7 132 131.4 134.8 139.8 143.3 144.9 146.3 147 146.1 144.6 143.7 143.6 144.5 142.7 140.1 135.9 131.3 126.2 122.8 120.6 119.2 119.2 119.8 119.7 120.6 121.9 123.6 125.1 124.4 113.3 94.9 76.9 59.8 52.2 44 37.1 32.1 31.6 51.8 63.8 66.3 69.7 73.1 76.7 79.8 82.6 85.1 86.5 88.7 92.5 95.8 91.2 64.8 34.2 38.6 39.1 47.3 51.9 54.3 51.9 44.2 36.1 38.7 43.8 53.5 67.5 74.2 82.6 90.6 96.9 101.3 106.3 111.1 124.1 132.3 135.6 136.7 137 137.5 137.6 137.4 137.3 137.5 140.1 141.9 142.6 144.2 144.7 145.4 145.4 146.1 146.7 146.8 148.6 149.6 150.1 150.3 149.5 147.3 143.4 138.4 132.4 120.3 115.4 121.8 125.1 125.6 121.2 119.4 121.2 121.2 124.8 128.2 131.5 134.8 138 145.5 150.7 154.8 157.2 158.3 158.2 156.1 152.8 153.8 157.9 159.5 161.9 164.4 167.1 166.9 166.2 166.9 166.7 166 165.3 165.1 165.4 165.9 166.5 167.1 167.2 169.5 172.1 174.4 176.9 179.8 182.2 184.4 186.1 187.1 187.7 188.3 188.2 188.2 187.8 187.1 186.6 186.1 183.8 182.1 180.2 178.2 176.2 174.7 173.9 173.4 172.8 172.3 171.8 171.4 171.2 171.4 170.9 170.4 169.6 168.2 167.3 165.1 163.2 160.5 157.8
143.8 139.5 132.5 126.6 124.4 124.5 123.4 133.2 141.5 146.7 148.9 150.3 147.9 147.1 145.9 145.8 144.3 141.3 143.8 144.5 145.7 147.8 150 150.9 151.4 150.9 148.4 145.6 143.6 142.4 142 141.5 138.1 133.6 128.5 123.3 120.5 117.8 116.8 116.9 117.2 115.6 117.3 119.2 119.9 120.7 118.8 108.6 92.2 73.1 58.6 53 45.1 39.3 35.1 31.6 42.7 63.5 67.9 70.6 74.2 78.5 81.7 83.8 85.7 88.1 91.2 94.4 97.4 97.2 70.3 42.3 37.2 38.3 47.8 54.5 59.7 59.7 51.9 39.6 34.5 39.2 47.1 54.5 69.1 78.5 87.6 93.1 98.1 103.1 109 121.4 127.7 130.1 129.7 129.9 130.7 130.1 129.9 131.3 132 134.7 137.9 140.5 143.5 144.2 145 145.4 146.5 147.6 149.8 149.1 150.6 150.7 150.7 149.2 146.5 141.4 132.9 126.3 126.1 120.1 116.1 118.5 118.3 120.5 123.4 126.7 127.3 126.7 133.7 139.4 141.4 144 148.8 152.2 155.7 159.5 161.2 160.3 158.6 155.8 153.2 154.9 156.5 158.9 160.6 164.2 166 167.2 167.9 168.7 168.5 167.2 166.9 167.3 167.9 168.5 168.2 168.6 169.7 171.3 173.8 175.9 178.5 181.2 183.2 184.8 186.2 186.7 187 186.9 186.8 186.3 185.9 185.5 185 183.2 181.6 179.8 178 176.2 175.2 174.5 173.9 172.6 171.3 170.5 170 169.3 169.2 169.3 168.7 167.8 166.8 165.8 164.1 162.3 159.5 156.8
149.6 144.7 139.8 136.5 134.7 135 133.4 143.3 148.8 153.5 156.1 157.2 157.3 154.2 152.8 151.4 151.7 150.9 151.9 152.5 153.1 154.3 155.9 155.8 154.5 151.5 147.1 141.4 140.5 138.4 138.6 139.8 136.7 131.1 126.2 121.7 115.5 112 107.5 105.1 105 104.7 106.2 108.5 110.6 112.1 109.4 101.8 88.5 70.9 56.7 50.6 44.1 38.6 35.4 32.5 35.2 56.5 69.7 73.3 76.6 78.9 82.5 84 86.2 88.6 91.3 94.2 96 93.2 70.2 47.6 34.2 38.4 46.8 55.7 61.4 66.9 64.8 54.5 36.3 39.2 42.6 48.4 58.4 72.9 81.9 88 94 99.2 107.2 118.1 123.1 125.8 125.7 124.1 124.6 121.9 123.2 126.4 130.6 134.2 137.7 140.8 142.8 144 144.9 145.3 146.3 147.6 149.2 150.3 150.9 151 151 149.1 146.1 138.7 136.8 139.1 136.9 130.9 127.4 126 124 126.1 126.6 133.3 136.7 133 131.8 141.6 145.9 148.5 151 153.7 157 160.5 161.3 162 161.2 159.3 157.6 156.5 157.4 159.7 161.3 162.4 165.5 167.2 169.4 170.2 170.7 169.3 169.2 170 170.6 170.8 170.8 171.1 172.5 173.4 175.5 177.8 179.6 181.4 182.8 183.6 185.1 186.1 186.7 186.6 185.9 184.7 184.4 184 183.5 181.9 180.1 178.1 176.5 174.8 173.4 172.2 172.1 171.1 170.1 168.6 167.4 167.4 167 167.7 166.9 166.2 165.6 164.1 163.6 161.5 159.3 158.1
154.9 150.8 147.8 146.5 147.4 145.9 146.7 152.6 156.1 159.2 159.3 159.6 158.4 157 155.1 154.8 155.4 156 156.7 156.9 157 156.7 156.5 155.2 152.3 149.2 144.9 141 136.4 136.5 135.4 136.8 134.9 130.4 124.5 118 110.9 101.6 95.9 91.2 89.6 90.8 94 98 101.5 101.4 97.2 90.7 80.8 67.6 55.7 46.8 42 38.1 36.5 32.5 34.9 47.2 69.4 74.9 77.3 79.6 82.3 84.3 86.3 88.3 90.5 92.7 92.8 88.4 69.1 46.7 38.5 38.3 41.4 54.8 60.1 67.3 72.6 61.1 46 34.3 39 45.5 49.5 64.7 72.8 84 92 95.5 100.8 110.8 117 118.4 118.3 114.4 112.7 119 127.4 131.5 133.6 136.7 138.8 141.2 142.8 143.8 144.5 145.2 145.9 146.8 147.9 148.2 149.7 150.9 151.3 148.9 146.2 143.9 144.5 144.5 142.9 139.1 137.5 136 133.7 135.5 137.5 141.5 144.3 143.6 136.2 140.6 148.6 152.1 154.4 157.1 159.7 161.9 163.4 163.2 163.2 162.5 162 161 161.7 162.4 163.8 165 166.2 167.8 170.4 171.7 172.1 172.3 171.5 172.9 173.4 173.3 173.4 173.6 175 176 177.1 179.4 181.6 182.8 184 185.6 186.1 186.3 187 186.2 184.9 183.2 182.2 182 181.7 179.9 177.6 175.2 172.6 170.2 169.2 168.6 168.8 169.1 167.5 165.9 164.2 164.1 164.1 164.6 164.8 164 163.2 162.9 162.9 162.7 162.4 161.1
160.3 159.1 157.2 155.6 154.4 154.7 156.9 159.1 159.5 159.7 159.5 158.2 156.5 156.2 155.5 154.9 155.1 156.8 156.9 156.4 155.1 154 153.4 153 151.5 148.8 143.4 140.2 136.4 134 131.3 131.8 132.1 129.6 122.1 114.4 102.7 91.4 85.8 81.9 81.4 81.5 83.7 86.4 89.4 88.6 85.3 77.3 69.4 60.1 49.3 44.1 43.2 39.7 37.3 33.2 35.2 37.6 59.7 72.8 75.4 76.9 80 83 86 88.4 89.7 90.6 89.7 85.2 68.3 43.9 38.7 34.4 37.5 52.7 58.3 64.5 72.8 69.7 54.9 38.7 39 43.6 48.2 57.7 71.5 81.5 87.7 88.6 90 99.1 105.1 104.6 103.7 107.1 117.4 123.9 129.4 133.3 136.3 138.2 139.9 141.6 142.6 143.6 143.8 143.8 143.6 144.3 145 146.1 147.7 149.2 151 151.5 150.8 150.4 150.5 150.4 149.5 148.1 146.7 145.5 145.3 147.4 149.2 150.4 150.6 150.1 143.2 138.8 151.4 154.6 157.7 160 162.2 164 164.8 164.8 164.9 164.5 164.3 164.2 164.7 165 166.5 167.7 168.9 169.7 171.2 172.9 173.4 173.6 173.8 174.4 175.1 175.6 175.2 175.7 177 178.4 179.6 181 183.3 184.2 185.4 186.5 187.1 187.3 186.5 185.2 183.9 182.4 179.1 178.9 178.4 176.6 173.9 171.1 168.5 167.2 165.8 165.6 166.4 166.4 164.8 163.1 161.4 160.4 160.3 160.9 161.4 161.7 161 161.1 162.9 163.6 163.6 163.7
162.4 162.3 160.1 160.5 159.7 159.8 159.6 159.4 158.7 157.5 155.4 153.5 150.5 148.9 149.1 150.4 152.2 153.8 153.6 152.3 151.2 151.4 151.1 151.2 150.5 147.9 143.9 140.6 136.1 131.5 127.3 126.8 127.1 126.2 118.5 107.6 94.4 85 78.4 74.8 72.3 71.8 70.9 72.5 72.9 73.4 69.3 64.2 58.1 50.2 48.4 51.2 45.9 40.6 37.3 35.4 35.1 34.5 48.2 63.2 67.3 73.8 79 83.4 86.9 89.6 90.6 91 88 80.8 63.5 41.6 37.5 33.7 37.2 48.7 55.3 61.3 70 74.8 61.6 43.2 37.8 39.2 46.1 52.4 66.2 74.9 81.4 80.4 81.9 87.1 92.8 99.4 107.4 114.9 120.3 125.6 130.3 134.9 137.2 138.9 140.6 142 142.2 142 141.7 140.2 139.5 140.4 141.5 143.7 146.8 149.9 151.7 154 154.7 155.3 155.3 155 154.6 154 153.4 152.1 153.2 154.6 155.7 156.7 156.6 156.1 150.9 142.2 153.9 156.7 159.4 162.4 163.4 164.3 165 165.4 165.9 166.5 166.3 166.6 167.4 167.9 169.1 170.3 171.6 172.3 172.4 173.9 174.6 174.8 174.8 175.4 176 176.4 176.7 177.7 179 180.4 181.9 183 184.2 185.5 186.6 187.5 187.9 187.6 186.4 184.6 183.1 180.8 177.7 175.6 174.4 172.7 170.9 168.6 168.5 167.6 166.3 163.7 162.7 162.8 161.1 159 158 156.6 156.5 157.1 158 158.8 158.8 159.5 161.7 163.7 164.9 165.7
