ncols 200
nrows 89
xllcorner 290000
yllcorner 141950
cellsize 50
43.4 44 43.7 43.9 42.9 51 58.9 59.3 58 53.5 42.2 34 32.9 33.1 35 36.7 38 39.5 41.5 43.1 44.8 46.7 48.4 50.8 52.9 55 56.3 58.9 59.6 62.6 64.4 66.4 68.4 72 74.7 76.2 77.4 80.5 84.3 88.1 92.8 97 102 107.2 114.4 123.5 130.1 135.9 141 142.9 146.6 147 147.5 153.1 157 158.1 159.2 161.1 162.5 162.6 162.9 163.1 163.2 163.8 163.9 164.2 164 163.4 161.3 157.9 155.1 148.4 144.1 141.6 138 133.6 128.2 123.1 118.6 112.7 105.6 100 94.1 93.7 92.6 88 83.5 80.4 77.8 75.2 72.4 69.1 66.3 63.2 60.2 58.5 57.2 57.9 63.5 66.6 65.7 62.4 57.5 52.7 51 49 45.4 43.4 42.4 41.1 40.3 39.4 38.9 39 39.4 37.8 35.9 34.7 32.4 31.1 30.7 30.6 34.6 43.3 47.5 50 49.1 49 48.2 41.9 34.1 32.3 27.4 29.7 28.6 38.2 29.8 23.9 16.9 13 12.1 11.6 10.9 10 9.7 8.8 7.6 7.8 7.1 7.1 7.6 6 5.3 5.8 6.6 4.4 4.5 4.9 5.9 6.1 7.1 7.5 6.9 5.7 6.2 6.1 6.6 5.4 6.7 6.1 7 6.4 4.6 6.7 7.4 7.8 6.9 7.6 7.8 7.2 8.2 8.2 9 4.2 3.4 2.7 2 1.2 0.4 -0.2 -0.7 -1.2 -1.8 -2.4 -3.1 -3.1 -3.1 -3.1 -3.1 -3.1
43.2 44.6 44.6 44.5 46.7 56.3 60.7 60.7 56.3 51.4 42.7 34.4 33.5 33.5 35 36.4 37.9 39.4 40.9 42.4 44.2 46.1 49.4 49.8 51.4 52.6 53.3 56.3 59.6 62 64.8 66.6 65.8 68.2 70.8 72.9 75.3 77.3 81.6 87.8 93.2 99 104.2 109 116 119.9 123.9 128.5 133.4 136.8 139.6 138.7 141.4 145.5 148.3 152.2 152.4 155.3 157 159.2 161.5 164 166.2 167.2 167 169 168.7 168.9 167.2 164.2 161.6 159.5 156.5 153.2 147.3 139.3 133.6 127 121.8 116 108.1 105.1 102.7 100.2 96.9 92.3 88 84.8 81.3 78.1 74.7 71.4 68.2 66.3 64.7 60.6 56.5 54.8 56.4 60.4 60.2 56.2 51.8 48.4 46.5 45.3 44 42.9 42.6 44.6 44.1 44.1 41.7 41.1 40.1 38.4 37 34.9 33.8 31.4 30.2 29.3 28.4 28.5 31.9 36.6 37.6 37.8 36.6 32.8 28.9 27.9 25.8 27.7 23.1 26.5 26.2 25.3 13.7 12.9 11.9 11.4 11.4 10.2 9.5 8.6 8.4 8.1 6.9 6.2 6.3 7.4 7.7 7 8 7.9 7.8 7.9 7.5 7 6.5 6.2 5.5 5.6 6.6 5.9 6.2 5.1 5.5 5.1 5.1 7.3 8 7.7 8.2 7.9 8.7 8.2 7.6 8.2 7.2 8 8.2 7.9 9.1 3.8 3 2.1 1.4 0.8 0.2 -0.4 -1 -1.6 -2.4 -3.1 -3.1 -3.1 -3.1 -3.1
45.8 45.8 45.5 46.1 55.4 61.2 61.7 60 54.4 48.4 41.9 35.5 33.7 34 35.4 36.4 37.8 39.4 41.1 42.3 44.4 45.7 48 48.9 50 50.4 52.6 57.5 59.8 62.8 68.3 71.2 72.7 73 73.9 73.9 75.5 76.5 78.9 82.6 88.1 92.8 97.9 102.4 106 108.7 111.9 121.5 128.2 131.5 133.3 131.1 135.8 138.9 141.8 143.5 141.1 142.9 143.9 148.8 153.9 157.7 162.7 167 170.3 171.7 171.5 172.4 171.4 169.9 168.1 165.3 163.3 159 153.2 146 139.2 132.5 126.3 120.6 115.8 112.2 109.6 106.3 102.5 97.9 92.1 87.6 82.8 79.3 75.9 72.1 68.1 65.5 65.1 64 60.4 55.5 53.1 52.2 52.1 49.9 48.1 47.4 46.5 45.5 44.3 44.4 44.8 48.5 51.9 51.7 45.4 43.1 42 40.5 38 35.5 33.1 31.6 29.7 28.4 27.1 27.2 26.7 26.8 27.4 27.5 28.4 27.4 25 23.7 21.8 23.9 19.4 18.4 16.1 14.7 13.4 12.9 11.9 11.3 11.4 10.5 9.9 8.9 8.7 7.4 7.1 6.6 6.2 6.7 8.4 8.5 8.5 8.3 8.8 7.5 6.2 6.4 6 6.2 6.1 5.8 5.9 5.8 6.2 6.1 6 5.7 5.3 4.9 6.6 6.4 6.9 9.6 9.2 7.6 7.3 7.2 7.6 6.6 6.5 6.2 5.4 7.2 5.9 3.1 2.3 1.7 1 0.4 -0.3 -1.1 -2 -2.8 -3.1 -3.1 -3.1 -3.1
46.7 46.6 46.4 50.9 61.9 63.3 62.5 58.8 52.6 46.9 41.1 36.1 34.5 34.6 34.7 36.1 37.6 38.5 40.5 41.8 43.1 44.6 45.6 47.1 48.3 48.8 49.3 49.7 51.6 53.9 57.2 64.6 70.9 75.1 80.2 82.1 85.6 84 84.2 83.5 84.7 87.2 90.1 93.4 98.4 103.6 109.4 115.8 122.2 125.3 127.1 123.8 128.2 130.1 133 132.2 128.6 130.7 131.2 137.3 142.5 149.7 155.5 163.8 167.5 172.4 173.2 173.6 174 173.4 172.1 168.5 166.4 163 158.4 152.1 145.2 136.9 130.9 126.9 123.4 119 114.8 111 106.8 102 96.1 88.8 82.3 76.8 72.2 68.4 64.2 62.3 62.1 60.6 60.4 56.7 52.9 51.5 50.4 49.9 49.5 48.1 46.9 46.6 46.7 46.7 47.6 53.6 55.9 52 47.3 45.4 47.7 47.9 41.5 36.8 34.5 31.6 30 28.7 28.3 26.6 25.6 25.3 24.6 23.7 23.6 22.7 22.5 20.9 20 18.5 16 15.2 15.2 14.3 13.8 13.4 12.9 12.6 12.3 10.3 10.1 8.7 8.6 7.8 6.9 6.5 6.3 6.2 6.4 8.3 8 7.7 8.7 8.6 5.7 6.1 6.3 6.3 6 6.3 6.3 5.8 6.2 6.2 5.9 5.8 6.8 6.4 5.5 5.4 7.7 5.8 6.4 5.7 6 6.5 6.9 5.9 6.8 6.6 5.7 5.4 6.2 5 3.2 2.4 1.7 1 0.2 -0.7 -1.5 -2.4 -3.1 -3.1 -3.1 -3.1
46.9 48 49.1 57.5 64.6 65.1 62.8 59.1 53 45.8 41.1 36.4 34.5 34.8 34.4 35.3 36.6 37.9 39.8 40.9 42.4 43.8 45.1 46 46.3 46.7 46.8 46.1 46.4 47.7 50.2 54.5 57.6 60.9 68.9 75.6 82.6 90.5 92.6 92.9 91.5 91 94.6 98.9 101.4 109.1 113.3 116.1 118.2 120 120.6 116.4 121.5 122.6 124.5 123.4 117.3 118.2 120.5 125.1 131.1 140.1 145.7 154.4 162.3 166.8 168.8 171.1 171.8 171.6 171.4 168.5 165.4 162.5 159.8 157.5 153.5 144.2 137.8 134.5 131.9 130.2 125.1 119.2 111.8 105.1 98.5 93.3 86.1 78.3 69.5 64.8 61.9 60.4 59.8 59.2 56.9 55.7 54.8 54.6 55 54.8 53.2 51.2 50.1 49.5 49.3 49.7 50.2 56.5 58.5 51.8 48 48.9 54 53.3 48.2 41.9 36.5 32.7 30.4 28.7 27.3 26.6 25.1 24.4 23.8 22.9 22.2 21.4 20 19 18.8 17.3 17.5 17 17.1 16.2 15.9 14.6 13.5 12.6 12 11.1 10.6 9.3 8.9 7.4 7.2 7.1 6.3 6.6 6.7 6.4 8 7.9 8.2 6.3 5.6 5.6 5.7 5.8 6.7 6 5.6 5.9 5.7 6 6.2 5.7 6 5.9 5.1 4.9 5.2 5.4 5.7 5.2 4.6 4.9 5.8 5.4 5.6 5.6 5.6 5.6 5.2 6.2 4.3 3.1 2.3 1.4 0.6 -0.3 -1.1 -1.9 -2.4 -3.1 -3.1 -3.1
48.7 49 55.3 64.3 66.7 66.3 62.5 56.1 49.7 43.8 39.8 36.4 35 34.6 34.7 36.2 36 37.2 38.9 39.8 41.2 42.4 43.5 44.4 44.6 45 45.3 44.4 43.9 44.7 46.3 49.2 52 55.6 59 62.7 70.9 81.9 91.8 100.2 102.9 102 103.9 107.6 110.7 111.3 113.5 113.7 114 115.3 116.7 112.3 114.2 114.7 114.1 111.6 107.3 108.8 112.4 117.4 121.6 126.7 135.8 144.2 152.4 160.9 161.4 161.4 160.7 158.7 157.9 155.3 153.7 151.1 151.1 150.6 151.8 149.2 144 141.8 139.9 137.5 133.3 127.5 118.8 111.4 102.3 95.1 88.9 80.3 67 63.6 62.8 63.6 64.6 64.4 63.4 63.8 65.1 62 61.5 61.6 60.2 59 57.2 54.6 51.7 51.3 51 54.5 56.9 53.2 49.8 51.5 54.5 51 44.9 40 35.4 32.5 30.1 28.6 27.6 26.6 25.7 24.8 24.1 23.2 22.7 21.1 20.3 19.7 19.5 18.7 19.9 20.1 18.7 17.4 17.7 16.4 15 13.9 12 11.5 9.8 9.3 8.7 7.8 7 6.9 6.2 6 6.6 6.2 6.2 7.9 8.2 6.3 6 6.7 6.1 5.9 6.7 5.9 6.2 5.5 5.6 5.8 6 6.2 5.5 5.7 5.8 5.2 5.1 5.7 5.8 5.2 5.7 6.3 5.1 4.9 5.4 5.5 5.4 5.4 5.5 5.9 7.1 3.6 2.7 1.9 1 0.2 -0.6 -1.1 -1.7 -2.3 -3.1 -3.1
49.7 50.1 58.3 67.5 68.3 67 61.4 55.8 48.8 43.4 39.9 36.8 35.4 35 35.3 35.7 35.8 36.5 38.1 39 39.9 41 42 42.8 43.2 43.6 43.4 42.7 42.8 43.4 44.1 45.8 48.6 50.8 53.7 57.1 61.9 69.1 80.4 91.3 97.7 102.3 103.8 104.5 104.3 105.4 106.7 106.2 107.2 110.4 111.3 108 105.6 108.4 106.5 103.3 100 101.1 104.9 109 113.9 117.3 124.1 133.4 139.9 146.2 148.2 147.7 145.9 143.3 141.4 138.9 136.6 134.2 133.1 133.9 135.6 138.1 135.8 136 137.6 140.5 140.5 134.3 125.9 115.1 103.1 96.4 87 71.8 65.6 67.3 70.8 71 72 72.9 75.1 77.8 76.3 74.3 68.3 68.2 67.6 65.4 63.4 59.7 53.7 53 52.9 53.7 54.3 53.1 52.2 52.5 52.1 49 43 37.5 34.1 31.7 30.2 29.5 28.9 28.8 27.9 26.8 26.2 25 24.5 23.7 22.3 21 22.8 23 21.8 21.6 20.3 19.1 18 16.8 16.1 13.9 12.5 11.1 9.6 9.2 8.3 7.4 6.3 5.9 6.2 6.2 5.8 6.2 6.9 6.5 6.3 5.6 6.4 6.3 6.3 6.2 6.5 5.6 5.6 5.6 5.6 5.7 5.6 5.8 5.4 5.5 5.5 5.4 6.1 5.8 5.8 5.8 5.8 5.3 5.8 5.5 4.7 4.9 4.9 5.4 5.1 5 6.5 6.5 3.2 2.3 1.4 0.6 0.1 -0.5 -1.1 -1.7 -2.3 -3.1
50.6 51.7 57.2 65.7 68.7 67.7 63.3 57.5 51.3 46.5 42.7 39.3 36.7 36.1 35.4 35.7 36.1 36.3 37.4 38.1 38.9 39.5 40.3 41 41.9 42.3 42.3 42.5 42.9 43.1 43.2 44.2 45.4 47.1 49.8 52.8 56.8 62.6 70.5 78.5 83.8 87.8 87.9 91.2 93.1 94.5 95.7 96.8 95.6 100.5 101.9 100.1 99.7 102.7 99.7 95.6 93.5 93.5 97.7 102.3 106.3 107.1 111.6 120.2 127.1 134.5 134.4 134.2 130.2 128.8 127.6 125.9 124.4 123.2 121.7 120.6 120.4 120.1 118.9 120 122.6 127 130.8 131.8 130 120.5 102.9 94.7 79.5 68.8 73 76.3 80.4 85.4 86.4 88.4 88.9 89.2 87.4 82.2 80.8 77.9 75.5 71.6 65.9 58.5 56.5 56.6 58.2 57.2 56.5 54.8 53.6 54.4 53.4 50.4 44.2 38.9 35.7 32.7 31.7 31.2 31.6 30.7 33.9 37.6 37.2 32.8 34.2 33.7 31 27.2 25.8 25.4 24.5 24 22.9 20.3 19.3 17.6 15.8 14.2 12.2 11.2 9.8 8.3 7.8 6.9 5.8 5.9 6 6 5.8 5.6 6.5 6.8 6.5 6.3 6.6 6.3 6 5.9 5.6 5.9 5.5 5.7 6.1 6 6.1 5.8 6.2 6.2 6.1 5.9 5.6 5.8 5.8 5.8 5.8 5.2 5.5 5.5 5.3 4.9 5.6 4.3 4.8 5.3 5.1 7.1 3.5 2.7 1.9 1.4 0.7 0 -0.6 -1.2 -1.7 -2.4
52.2 53.1 56.4 63.9 68.9 68.3 65 58.3 53.8 49.1 46.1 41 38.1 36.6 35.9 35.9 36.5 36.5 37.5 37.2 38 38.4 39.4 40.6 40.8 41.2 41.8 42.2 42.6 42.7 43 43.6 44.6 45.7 46.5 48.8 52.2 56.9 62.3 67.5 71.6 73.4 77.2 79.9 81.2 82.5 84.9 87.4 86.7 89.8 91.2 90.8 93.9 95.8 95 91.9 88.5 87.3 90.2 94.7 97.2 99.1 102.2 107 113.7 122 127.6 124.6 122.6 120.5 119.8 118.7 117.2 115.5 114.2 113.2 111.6 109.6 108.3 107.2 106.4 107.5 112.1 114.8 115.6 111.8 101.1 86.2 73.5 72.4 79.3 84.6 93.1 97.6 101.9 102.9 100.9 99.4 95.9 90.7 89.5 88 81.9 74.6 63.2 60.4 59.4 61.2 62.7 61.9 60.3 57.2 55.6 56.7 55.5 52.1 47.5 42.8 39.1 35.8 34.6 33.1 33.2 34.7 41.5 45.9 45.2 44.9 46.7 45.7 44.1 38.8 30.7 28.5 26.5 25.6 23.7 22 19.8 18.4 16.2 15 12.8 11.6 10 9 7.3 6.2 5.8 6.1 5.8 5.6 5.5 6.2 5.9 6.3 5.8 5.8 6.4 6.9 6.1 5.9 5.7 5.5 5.8 5.6 6.2 5.8 6 6.2 5.8 6.2 6 5.9 5.4 5.5 6.2 5.9 5.8 6 5.9 5.8 5.3 5.1 4.2 4.5 5.2 5.1 5.2 5.9 6.3 3.2 2.5 1.8 1.2 0.5 -0.1 -0.6 -1.4 -2.1
53.4 53.6 55.2 65.3 69.1 67.7 64 59.2 54.7 50.1 46.4 43.2 40.1 38.2 37.4 36.8 36.8 37.1 37.4 37.3 37.2 37.5 39.1 39.7 40.1 40.7 41.3 41.8 42.2 42.6 42.7 43.4 44 45 45 47.3 48.9 52.1 57 61.1 64.1 66.5 69.5 71.8 73.8 75.9 77.6 79.4 79.8 80.3 82.4 83.2 86 87.6 87.7 88.8 86.6 82.8 84.2 88 90 92.2 94.4 97.4 101.3 106.6 112 113.2 113.5 114.2 115.6 115.9 115.9 113.9 112.8 109.2 107.4 103.9 101.2 99 96.4 94.7 95.7 96.7 96.9 95.6 87.8 77 73 81.2 88.8 94.9 98.3 101.2 104.3 106.6 105.4 105.9 99.8 96.4 96.1 94.6 86.2 71.2 67.1 71.4 69.5 68.9 68.2 66.5 63 58.7 58 59.6 57.9 53.2 48.8 44.2 42.2 39.3 37 35.1 35.5 37.9 46.6 49.9 51.2 49.9 51.1 49.1 46.9 41.9 33.4 29.8 27.7 26.2 24.9 22.6 21.1 19.2 17.2 15.6 14.1 12 10.4 8.9 7.9 6.6 6.2 6.2 5.9 5.7 5.6 6 5.6 6.1 5.9 6.6 5.9 6.2 6.3 5.7 5.8 5.5 5.7 5.6 5.5 5.8 5.5 5.5 5.8 6.1 5.8 5.9 5.6 5.2 5.3 5.7 5.6 5.7 5.8 5.3 5.8 5.3 4.5 5.1 5.2 5.3 5.4 5.5 6.7 3.7 3 2.3 1.7 1.1 0.5 -0.3 -1.2 -1.8
54.9 54.7 55.6 64.2 73.5 71 68.1 65.4 61.8 56.3 51.8 47.2 43.8 41.9 39.7 38.1 37.2 36.9 37 37.3 37.6 37.9 38.5 39.1 39.7 40.3 40.9 41.4 41.8 42.2 42.6 43.2 43.8 44.4 45 45.6 46.7 49.4 53.2 55.8 59.1 61 63.7 66.5 68 69.8 71.9 72.5 73.1 74.1 75.8 77 78.1 78.4 78.8 79.7 80.5 78.5 78.7 82.2 84.5 85.7 87.4 90.1 93.7 98.5 101.6 105.4 108.5 111.4 116.9 119.5 120.4 118.4 115 112.9 111.4 108.6 107 102.7 100.3 97 92 87.7 85.1 82.2 78.6 76.6 76.8 77.5 83.4 92.3 94.8 97.8 100.1 101.9 101.1 99.8 96.6 94.5 94.4 97.7 85.8 68.8 76.5 83.5 85.1 82.4 76.2 72 67.6 60.8 61.7 62.7 59.6 54.8 49.7 46.7 45.8 43.5 40.8 37.5 38.1 41 48.7 52.5 53.7 54 52.7 50 45.6 39.1 33.3 31.1 29.2 27.7 26.3 24.3 22.3 20.4 18.3 16.6 14.9 13 10.9 8.9 7.4 6.1 6 7.3 7 6 6.1 5.9 6 6.5 7.2 6 5.4 6.1 5.9 6.3 6 5.3 5.4 5.3 6.8 5.6 5.9 5.3 6.5 6 5.8 6 6 5.6 5.3 5.6 5.8 5.4 5.7 5.6 5.8 4.9 4.7 5 5.4 5.6 5.7 5.8 5.6 8.3 3.4 2.8 2.2 1.5 0.8 -0.1 -0.9 -1.4
56.4 56.2 56.4 62.7 74.4 81.5 79.8 76.7 74 68.1 61.9 54.3 48 45.5 43.2 40.7 39.3 38.2 37.6 38.7 38.1 38.4 38.8 39.1 39.6 40.2 41 41.5 41.9 42.2 42.5 43.2 43.9 44.3 44.7 45.6 46.4 47.1 49.7 51.4 54.4 56.8 58.9 61.4 63.4 65.4 66.4 68 68.8 69.5 71.4 72.7 73.2 72.4 72.6 73.2 74 74.4 75.3 76.6 78.6 80.8 84.5 88.7 93.1 97.1 102.5 108 112.8 117.5 121.7 125.7 126.5 126.9 123.5 120.2 118.3 116.1 112.9 108.4 105.2 103.6 100.4 97.3 93.4 88.7 86.8 84.6 82.9 83.7 84.1 85.4 87.1 91.6 96.2 98.1 97.8 95.2 92.2 90.8 89.6 89.2 80.4 69.4 83.3 95.8 94.1 91.9 85.7 79.1 70.2 62.1 65.3 65.1 61.7 56.6 52.8 51.3 51.1 49.7 46.8 43.6 41.3 43.7 51.5 55.7 56.5 56.4 53.6 48.9 41.5 36.6 34.9 33.2 31.4 29 27 24.8 22.8 21.1 19.7 17.5 15.3 13.1 11.6 9.5 8.3 6.5 6.2 6.9 5.6 5.8 6.2 6.7 6.1 6 6.2 6.1 5.4 5.4 5.4 6.1 6.1 5.3 5.6 5.9 6.7 6.7 6.1 6.4 5.8 5.8 5.9 5.6 5.9 6 5.5 5.7 6 5.5 5.4 5.1 5.2 5.6 4.6 4.8 5.6 4.7 4.9 5 5.2 6.5 5.2 3.2 2.6 1.8 1 0.1 -0.6 -1.1
57.5 57.1 58 61.6 74.4 85.5 89.3 88 84.9 78 69.5 61.3 53.6 49.4 46.7 44.2 42 40.4 39.7 39.3 38.6 38.7 38.8 39.2 40.1 41 42 42.7 43.3 44 44.3 43.8 43.9 44.1 44.4 45.6 45.6 46.7 48.1 49.8 51.8 52.6 54.4 56 58.1 59.9 61.3 62.2 63.7 67.5 66.4 67.9 68.5 68 68 68.7 70.6 70.7 72.3 74.3 77.2 80.2 86.1 91.4 92.4 104.6 109.4 114.4 122.4 129 133.2 133.9 135.1 138.3 138.2 132.9 126.7 123.3 119 115.2 114.6 113.8 111.5 106 103.2 98.7 93.9 89.9 88.9 88.7 89.4 89.3 89.9 91 94.1 96 96.1 93.3 88.7 85.2 83.5 80.8 74.5 72 82.3 91.1 91.5 90.3 84.8 78.9 68.7 64.4 67 66.6 64.8 59.7 57.8 56.5 55.7 54.4 50.6 46.8 44.8 46 55.7 58.4 59.9 57.7 52 44.9 40.2 38 35.9 35 32.3 29.5 27.9 26.2 23.9 22.4 20 18 15.7 13.4 11.2 9.6 8.1 6 6.5 6.2 5.7 5.8 6.2 7 6.8 5.9 5.7 5.9 5.4 5.4 5.6 5.8 5.2 6.1 6.3 5.9 5.6 5.5 5.4 6.2 5.4 5.6 5.9 5.6 5.8 5.3 5.9 5.6 5.8 5.4 5.7 5.1 5.3 4.9 4.6 4.8 5.5 5.2 5.1 4.9 4.9 5.4 7 3.6 2.9 2 1.1 0.3 -0.3 -0.7
58.6 58.3 59.2 61.6 72.4 88.2 96 95.1 90.6 85.9 78.9 71.2 65.6 59.2 53.7 49.2 46.3 44.2 42.4 41.1 40.5 40.2 40.6 41.2 41.1 42 43.8 42.9 43.8 44.8 45.1 45.1 44.9 45 44.6 45.4 45.6 46.4 47.2 49 50 50.3 52 53.9 55.8 57 58.9 60.1 62.3 63.3 64.8 65.4 66 65.2 65.2 67.3 68.8 70.9 72 73.3 76.6 80.9 86.7 93.1 100.4 107.3 113.7 121.5 132.6 140.8 146.6 147.5 148.6 150.8 151.5 146.7 139.4 134.4 128.6 122.5 126.2 127.9 128.7 123.2 116.2 111.2 107.3 105.7 101.8 99.1 95.2 94.8 94.7 94.5 95.4 97.3 95.4 93.2 88.5 84.8 81.6 78.1 75.7 76.3 80.5 85.5 85.5 83 79.4 74.6 67.7 67.3 69.5 68.7 67.1 65.2 64 61.7 60.7 57.5 53.7 50.3 47.4 48.2 56.9 60.4 60 55.4 49.1 43.6 41.5 40.1 38.4 36.2 33.5 31.1 29.1 27.5 26.1 23.6 20.2 18.6 15.8 14.6 11.1 9.7 7.9 6.7 6.9 5.8 6.3 5.9 6.5 6.7 6.2 6 5.9 6.7 5.9 5.8 5.3 5.7 5.7 5.3 5.5 6.3 5.7 5.4 5.4 6.4 5.4 5.3 5.8 5.5 5.4 5.3 5.6 5.1 5.7 5.2 5 5.3 5.7 5.2 5.5 5.1 5.5 5.4 5.2 5.1 5.1 5.1 5.4 5.8 3.1 2.2 1.3 0.6 0.1 -0.4
59.9 59.8 60.4 64.1 76.9 91 99.6 100.6 96.6 92.3 87.8 81.9 75.8 70.8 65 57.9 55 50.1 47.9 47.6 45.9 43.3 42.9 43.3 43.7 43.3 43.6 44 44.9 45.8 46.2 45.8 45.9 46.4 46.2 45.9 45.7 46.3 47 48.2 48.7 49.3 50.4 51.8 53.2 54.3 55.8 57.6 59.5 60.5 61.5 61.6 62.5 63.3 63.3 65.4 67.1 68.6 70.5 73 76.4 82.3 87.3 93.7 100.9 109.7 117.4 127.3 139.5 150 157.1 159.9 161.6 163.2 163.3 161.6 154.3 147.3 139.2 132.1 143.5 142.6 140.5 138.7 134.6 125.3 121.7 122.3 116.6 109.9 105.2 102.9 99.4 98.1 100.5 101.9 100.1 98.7 96.1 91.6 85.2 78.4 80.4 84.1 85.3 86.4 84.7 80.9 77 71.8 69.5 71.2 71.5 71 70.5 70.1 69.6 67.4 64.2 60.1 55.2 51.4 49.2 51 60 62.6 59.3 54.5 48.4 44.9 43.7 41.4 38.9 36.5 34.7 32.8 31.7 30.1 28.3 25.6 21.9 17.7 15.2 13.7 12 9.6 8.1 7.5 6.9 6.1 6.8 6.1 5.7 6.7 6.3 6.5 6.2 6.5 6.2 6.5 6.2 5.5 5.5 5.3 5.3 5.2 6.1 6 5.3 5.7 5.8 6 5.9 5.8 6.1 5.8 6.1 5.9 5.5 5.3 5.6 5.7 5 5 5.1 5.1 5.7 5.5 5.4 5.3 5.3 4.8 5.4 7.1 3.3 2.4 1.6 0.9 0.4 0
61.5 61.5 62.3 67.4 80.3 94.5 102.3 104.5 102 99.5 95.1 90.3 83.9 79 74.6 71.2 67.8 63.5 60.2 57.5 54.1 50.6 47.1 45.2 45.8 44.6 45 45.6 46.1 46.6 47.2 47.3 47.1 46.9 46.9 47 46.5 46.4 46.6 47.3 47.9 48.6 49.7 51.2 52.5 52.9 54.5 55.5 57.3 58.3 58.8 59.9 60.8 61.9 62.8 64.7 66.4 69.1 71 73.6 77 80.8 86.2 92.5 101.2 111.8 124.4 134.9 149.9 159.6 166.7 172.1 173.9 175.4 175.5 173 168.3 162.4 152.3 145.7 157.6 160.2 156.3 151.9 148.4 145.9 140.5 135.3 126.8 117.7 112.5 112.3 104.8 104.5 105.8 107.8 107.6 105.3 101.7 94.4 82.7 82.2 96.1 95.1 92.1 90.9 89.2 85.8 81.6 74.8 72.8 75.5 75.6 74.4 74 74.4 72.4 71.4 65.7 61 56.4 53.4 52.3 55.4 61.3 63.3 60.5 54.2 50.1 47 45.1 43.8 41.2 37.3 36.1 35.5 34.7 32.7 30.4 27.8 23.8 19.5 16.5 13.3 11.6 9.1 8.4 7.4 7 6.6 6.2 5.9 5.6 5.5 6.2 6.7 6.9 5.9 5.7 5.9 6.2 5.6 6.1 5.9 5.4 5 4.9 5.9 5.9 5.4 5.5 5.6 6.5 6 6.2 6.1 5.5 5.4 5.2 5.7 5 5.1 5 4.8 4.9 5.5 5.7 5.3 5.4 5.5 5.1 4.8 6.4 7.4 3.5 2.6 1.8 1.3 0.8 0.3
62.7 63.3 68.2 71.5 82 97.4 101.1 101.8 103.3 103.5 98.3 93 88.1 84.4 81 77.3 73.1 69.3 65.7 62 58.3 55.5 51.6 48.7 48.3 47.4 46.7 47.1 47.6 47.5 48.6 48.8 48.5 48.3 48.5 48 47.3 46.9 47.2 47.8 48.3 48.8 49.7 50.8 51.8 52.3 53.5 54.6 56.3 57.2 58 59.1 60.1 61.6 63.6 65.5 66.5 70 72.1 75 78.5 82.5 86.7 93.5 101.8 114.7 129.1 144 159 170.3 177.8 182.4 183 184.4 184.8 184.7 182.5 180.4 166.8 161.5 171.5 175.6 172.3 169.4 165.9 160.2 153.9 146.3 135.2 124.5 119 117.6 111.4 111.2 115.6 114 114 107.6 93 86.4 93.4 93.9 103.3 107.2 102.4 98.9 95.4 91.2 86.6 75.9 80.4 80.9 82.7 81.2 77.2 77.3 76.5 71.5 67.5 63 60 58.6 56.6 58.7 61.1 61.4 58.3 53.3 51.5 50.9 49.5 47.8 45.6 39.8 39.9 38.9 38 35.9 33.1 30.2 25.8 21.1 18.4 16.8 12.2 9.5 8.6 8.2 8.1 7.8 7.4 7 6.7 6.3 6.7 6.9 6.3 6 5.9 6.4 7.1 6.2 6.9 6.1 5.5 5.3 5.5 5.8 6 6.2 5.6 5.7 7 5.9 6.1 5.9 4.9 5.6 4.9 5.3 5.3 5.1 5.2 5 4.8 5.2 5.5 5.4 5.5 5.1 5.4 6.4 6.1 6.6 3.6 2.8 2.1 1.6 1.1 0.7
64.3 65.8 77.8 76.2 81.1 91.2 97.1 98.5 98.1 96.8 94.7 92.6 89.5 87.5 84.1 79.7 76.5 71.9 68.8 65.9 63.3 59.7 56.3 52.6 52.3 50.2 49.2 48.9 48.6 48.3 49.5 50.2 50 49.8 49.6 49.1 48.4 47.7 48.5 48.2 48.5 48.9 49.4 50.4 51.5 52 53 54 55.8 56.7 57.5 58.4 60.8 63.2 64.9 66.6 68.9 71.2 73.6 76.7 79.2 83.7 87.3 94.7 103.8 113.5 129.6 146.8 163 177.6 185.7 190.5 192.5 194.2 194.3 194.2 194.3 190.8 182.3 178.9 188.2 190.7 186.2 182.7 180 175.8 166.3 155.4 143.4 132.5 126 119.6 115.6 119.3 118.8 112.2 100.1 93 93.2 99.5 108.5 99.3 109.8 114.8 115.1 110 105.4 100.6 92.9 78.5 88.2 87.2 89.1 94.8 87.3 83.9 79.9 77.6 69.6 66.4 65.3 63.8 60.5 61.1 62.5 61.8 58.4 55.8 55.7 55.6 54.1 52.3 50.5 45.3 45.3 43.2 40.8 38.5 37.5 33.8 28.1 24.1 22.1 18.8 14.7 11.4 9.8 8.4 8.2 8.8 9 8.8 8.5 8.3 8.6 7.4 7.1 6.6 6.6 6.6 7.2 6.7 6.9 7.2 5.9 5.9 5.5 5.5 5.8 5.7 6.2 6.1 5.8 7.1 5.9 5.7 5.1 5.5 5.8 5.3 5.1 5 5.2 5.7 5.5 5.2 5.4 5.6 5.2 5.4 5.7 5.2 6 6.6 3.8 3.1 2.5 2 1.5 1.1
65.6 66.9 69.9 75 81.6 89 97.1 98.8 97.3 95.6 93.9 90.8 88.6 86.2 83.5 81.2 76.5 72.9 70.7 68.1 65.7 62.8 59 57.1 56.2 54.1 51.6 49.9 51.6 51.4 50.2 51.1 51.2 51.2 50.7 50.2 49.6 48.9 48.8 48.6 48.8 49.1 50 50 51.1 52 52.7 53.6 55.2 56.2 57.6 60.1 61.9 63.8 65.9 67.7 69.4 71.9 75.4 78.2 81.6 85.4 89.2 94.2 103.2 112.6 126.8 142.7 159.5 178 188.4 194.3 198 202.9 204.1 204.1 203.6 202 197.7 195.3 200.1 201.2 197.9 193.4 189.6 183.4 175.4 165.8 154.6 143.5 131.5 121.9 125.3 127.1 125.8 105.7 103.3 107.5 107.6 113.2 114.3 105.9 122.9 124.4 124.3 118.4 115.7 107.4 93.9 80.8 93.1 94.2 95.6 101.3 97.8 87.4 83.3 78.4 74 71.2 70.5 66.2 63.9 66.3 66.6 68.6 63.5 59.2 60.6 62.7 60.9 56.7 55.3 51 50.6 48 44.5 42.3 38.5 33.4 29.9 26.6 24.1 20.6 15.9 12.7 10.6 10.9 10.2 10.4 10.5 9.7 10 9.7 9.5 9.5 8.9 9 8 7.4 6.6 7.3 7 6.1 6.6 6 6 5.5 5.5 5.4 6 6 5.7 6.5 5.3 5.1 5.8 5.8 5.7 5.6 4.9 4.9 5.5 5.6 5.5 5.2 5.4 4.8 5.2 5 4.9 5.3 6.1 6.4 6.1 3.4 2.8 2.3 1.8 1.5
69.3 69.9 69.2 72.3 78.4 86.6 95.2 99.5 100.6 101 98.9 95.2 90.8 87.5 83.9 81.3 78 75.4 72.4 70.3 67.3 64.5 62 59.2 57 54 52.8 51.9 54.7 54.5 52.1 51.9 52 52.4 51.9 51.3 50.7 49.6 49.9 49.4 49.5 49.6 50 50.6 50.7 51.6 53.2 53.6 55.4 56.4 59 60.2 62.5 64.2 66.5 68.6 70.4 73.1 75.9 79.3 83.2 87.1 90.9 95.3 102.6 111.3 122.3 135.2 157.7 174.8 187.6 195.4 202.3 208.3 211.3 212.4 214.1 212.9 211.2 210.4 211.4 210.3 207.5 203.7 199 191.9 183.1 175 165.7 146.7 129.6 126.4 136.6 132.6 117.7 105.4 115.7 122.8 120.6 119.3 116.8 112.4 122.1 126.3 121.8 114.1 106.6 100.6 91.9 82.8 101.7 101.4 100.3 100.8 100.2 93.3 85.1 80.4 78.1 76.3 74.9 71.2 67.6 71.3 72 71.5 64.9 63.7 75.6 70.3 69.5 65.7 62.9 58.6 55.1 52.4 51.1 48 42.9 36.7 33.5 30.8 22.5 20.2 16.7 14.5 12.9 11.1 11.8 12.4 12.3 11.7 12 12.1 11.2 11.2 10.6 9.6 9.1 7.8 7.2 7.4 6.9 7.3 6.1 6.4 5.6 5.4 5.5 6.2 5.3 6 6 6.2 6.1 6 5.8 5.7 5.6 5.8 5.7 5.4 4.9 5.3 5.3 5.2 4.5 4.9 5 5.2 5.3 5.7 5.8 5.8 6.6 3.7 3.1 2.6 2.2 1.9
76.6 74.8 72.1 71 74.2 81.4 93.9 101.5 102.2 101.8 99 95.9 92.9 88.2 84.8 82.3 81.4 80.2 75.7 72.7 69 64.9 62.4 60 57.6 55.1 54.2 53.8 55.2 54.8 53.7 53.7 53.5 53.6 53 52.3 51.6 50.5 50.8 50.9 50.8 50.6 50.6 51.2 51.7 52.3 53.1 53.4 55.2 57.3 59.4 61.1 63 64.8 67 68.7 71.5 73.6 77 80 83.8 87.5 91.9 96.9 103.7 110.9 120.9 132.9 152.4 171.6 185.3 196.2 204.6 211.6 215.8 219.8 221.7 222.8 222.8 222.3 222.1 221.1 218.6 214.1 207.1 199.6 189.8 181.7 166.4 145.5 128.1 139.4 144.5 135.7 118 111.8 129 136.1 134.4 129.7 124.2 118 119.3 121.6 118.3 115.5 116.6 114.5 94.1 89.8 108.2 108.5 106.5 105 101.6 96.2 88.9 85.2 82.5 79.5 78.8 75.3 72.6 76.5 77.5 77.4 67.4 70.4 88.9 86 82.4 78.9 71.1 65.2 60 59.1 58.3 53.4 46.5 41.2 38.1 32.4 25.7 22.6 17.5 16.4 15 13.1 12.7 13.5 13.4 13.8 14 14 13.1 12.5 12.3 9.2 10 8 7.5 6.9 6.6 6.6 6.7 6.4 5.6 5.5 6 5.7 5.4 5.6 5.6 5.6 6 6.2 5.7 5.6 5.8 6 5.5 5 5.1 4.9 5 5.1 5.3 4.6 5.1 5.3 5.7 5.8 5.6 5.8 6.9 6 3.5 3 2.5 2.3
82.3 79.7 75.8 74.8 74.8 77.8 86.1 100.2 104.4 104.4 100.9 96.9 93.5 90.1 86.6 83.4 80.9 77.9 74.8 73.4 70.8 66.1 66.8 64 60.8 58.1 57.2 57.7 58.2 56.5 55.2 54.8 55 54.7 53.9 53.2 52.5 51.5 51.7 51.8 51.4 52 51.3 51.8 52.3 52.7 52.9 54.1 55.4 57.3 58.8 60.6 62.6 64.6 67.8 69.6 72.6 75 78 80.7 83.6 86.9 92.6 98.1 103.7 110.2 118.8 129.2 145.3 165.6 182.3 194.7 204.9 211.9 217.3 221.5 225.4 228.2 229.4 229.9 228.6 227.2 223.2 217.1 210.2 202.1 190.1 177.7 159.9 141.6 137.7 150.8 150.9 141.3 120.9 123.8 145.1 147 145.2 138.4 130.6 126.4 125.3 124.8 122.5 120.9 121.4 105.9 89.5 104.4 119 118.9 119.2 113.1 106.8 100.7 95 91.3 87.4 84.8 81.8 77.9 78.1 81.9 85.3 83.4 68.6 82.2 98.4 97.4 94.5 90.4 80.2 75.9 69.1 73 65.2 58.6 53.5 49.7 44 31.2 27.1 25 21.1 20.7 18.2 16 15.5 13.8 16.2 15.9 16.2 15.8 15.2 14.2 12.9 11.6 12.2 10.3 7.7 6.8 6.8 6.6 6.9 7 5.6 5.4 6 5.8 5.6 5.5 5.4 5.4 6.1 6.1 5.6 5.7 6.1 5.8 5.4 4.9 5.1 4.9 5.1 5.4 5.9 5.3 4.6 4.7 5.8 5.7 5.4 6 6.4 6.9 3.8 3.3 2.9 2.7
90.2 84.7 81.4 78.7 77.4 76.2 81.3 91.1 107.5 107 104.4 100.8 96.7 93.3 90.4 87 83.6 78.4 75.2 72.3 70.1 69.6 69.6 68.4 64.5 62.6 61 60.7 61 57.9 56.5 56 56.3 56 54.8 54.1 53.4 52.6 52.6 52.7 52 52 52.7 52.3 53 53.1 53.5 54.9 55.5 57.2 59.3 61.2 63.3 65.4 68 70.2 72.7 75.8 78.1 80.8 84 88.5 92.7 97.7 104.2 111 119.6 129.9 145.4 166.3 183 193.2 201.9 210 215.5 220.8 225.5 229.4 232.3 233.7 233.8 230.6 225.5 219.2 212.9 201.5 186.6 170.3 153.5 140.5 150.5 159.7 156.6 145.8 121.5 134.9 152.4 155.3 153 147.2 139.1 136.3 134.3 131.3 128.7 124.7 112.3 94.2 103.6 119 127.7 128.4 127.3 121.3 114.3 110.1 104.3 97.7 93.2 88.8 84.7 82 82.8 84.9 86.2 78.2 75.4 87.8 99.5 97.8 97 90.2 83.5 72.8 77.6 85.7 75.1 65.1 61.1 56.7 51.6 47.8 45.2 33.6 28.7 26.7 22.5 19.6 17.6 16.5 16.2 18.1 18.2 17.9 17 15.9 15.3 13.4 12.4 11.9 8.8 7.2 6.5 7.2 7.2 6.8 6.2 5.8 6 5.9 5.6 5.6 5.6 5.6 5.6 5.8 6 6.2 6.1 5.8 5.2 5 5.3 4.9 5.1 5.4 5.6 5 4.8 5.1 5.6 5.7 5.3 5.3 5.8 6.9 7.5 3.7 3.2 3.1
100 92.6 87.5 84.1 82.5 80.4 80.9 86.3 101.6 110.7 108.9 106 103.7 99.3 95.5 92.5 87.5 82 78.8 74.5 72.6 72.9 72.9 71.3 69.3 67.9 66.3 64.4 61.7 59.5 58.1 57.4 57.6 57.2 55.7 55 54.2 53.5 53.3 53 53 53.1 53.2 53.9 53.5 53.7 54.3 55.8 55.9 58 59.8 62 64.2 66.4 68.7 71 73.3 76.6 79.1 81.8 84.6 88.8 93 97.4 103.3 111.3 122.6 133.9 150.4 169.3 183.6 191.1 197.7 205.6 211.2 217.1 222.8 228.4 232.9 235.2 236.1 233.1 227.1 221.4 213.6 200.6 187.3 165.5 148.4 151.9 162.1 166.7 160.8 143.5 122.1 146.1 160.4 164.7 162 155.4 147.3 144.3 140.6 138.9 138.6 129.1 104.6 101.8 118.8 130.4 134.9 136.8 136.3 127.3 124.9 121.6 111.8 104.9 100 95.1 90.9 88.7 87.6 87.2 84.5 75.1 81.7 91.3 103 98.6 93.7 87.9 82.6 78.2 78 79.7 76.8 72.2 68.5 64.2 60.2 56.4 52.8 46.6 41.1 33.4 27.5 23.1 20.1 19.3 19.6 19 19.5 19.6 18.9 17.8 16.1 15.6 14.1 12.6 9.9 8.5 6.6 6.9 7.5 7.1 6.5 6 5.6 5.4 5.4 5.6 5.8 6.1 5.9 5.8 5.8 6.2 6.2 5.7 5 4.9 4.7 5.1 5.1 5.4 5.5 5 5 5.1 5.2 5.4 5.7 5.3 5.3 6.2 7.6 7.9 3.6 3.5
110.9 100.8 95.4 90.6 88.9 87.6 84.8 83.5 91.3 105.6 113.5 111.5 112.1 110.3 104.9 99.4 93.8 88.9 84.9 78.5 78.8 79.6 78.5 75.6 73.6 72.4 73.8 69.2 65.5 61.2 59.5 59.5 58.8 57.7 57 55.6 54.9 54.6 54.8 54.2 54 53.6 53.8 54.3 54.6 54.5 55 56.2 56.7 58.3 60 62.2 64.5 66.7 69.2 71.8 74.2 77.1 79.3 82.1 85.2 88.9 92.1 96.2 101.2 109.8 124.4 136.1 148.8 161.2 172.7 179.5 190.5 195.4 198.1 209.9 218.8 225 231.7 233.5 234.6 232.8 226.9 220.1 209.3 196.8 180.7 161.5 153.5 163.9 172.7 171.9 161.9 141 133.4 155.9 168.9 168.9 167 162 155.5 151.4 148.6 146.4 143.7 122.7 98.6 114.3 128.4 137 144.3 145.4 144.2 141.4 136.5 131 120.5 114.7 109.5 102.2 99.4 96.5 93.5 90 84.2 77.4 89.7 105.4 113.3 112.1 102.2 94 89.5 87 84.1 84.4 81.4 77.8 73.8 70.5 67.9 63.8 60.1 54 46.5 39 30.8 26.3 23.4 21 21.4 22.3 21.1 20.7 20.5 19.2 18 16.2 14 12.6 11.4 9.4 8.6 7.5 6.7 6.8 6.5 6.5 5.6 5.4 5.6 5.8 5.6 5.9 5.8 5.9 5.7 7.4 7.5 6.5 5.9 4.8 5.2 5.3 5.2 5.4 5.4 4.9 5 5.2 5.5 5.7 5.9 5.4 5.2 5.3 5.7 7.9 5.6 3.8
122.3 108.6 102.1 98.4 97.5 94.3 92.5 91.8 89.4 94.7 106.1 115.5 120 120 115.8 110.1 104.5 99.6 92.4 82.3 86.9 87.8 86.7 83.7 80.3 77.8 76.2 72.3 69 64.5 61 60.2 59.3 58.3 57.4 55.9 55.3 55.5 55.7 55.3 55.3 54.7 55.2 55.2 55.1 55.4 55.9 56.7 57.3 58.6 60.2 62.4 64.4 66.4 69 71.6 74.1 77.1 79.7 82.5 85.9 88.9 93.2 96.2 100 105.7 109.8 123.8 134.9 148.4 155.7 161.6 172.9 176.3 185.3 201.3 212.1 221.8 228.9 232.8 233.3 230.6 226.1 217.2 205.4 193 179.1 163.2 164.4 176.6 181.1 171.8 155.1 135.7 143.2 163.3 174.9 172.6 169.5 164.9 159.8 156.9 154 149.8 140.6 115.7 103.8 124.5 138.2 145.5 152.7 152.2 151.3 147 143.4 137.4 130.2 123.9 117.3 109.9 105.7 103.6 98 91.6 83.9 80.5 94.8 102.3 109.7 115.1 113.3 107.4 102.6 94.9 90.9 90.2 87.2 83.3 79.5 77.1 74.6 69.9 64.1 57.3 46.3 40.5 34.3 29.3 25.4 22.8 23.4 24.4 23 23 22.6 19.9 18.5 16.8 15.2 13 11.5 10 8.4 7.6 6.7 6.9 6.5 6.6 5.3 5.4 5.8 5.8 5.8 6.7 5.5 5.5 6.6 8.1 6.8 6.6 6.8 6.5 5.5 5.6 5.8 5.3 5.4 5.4 5.2 5.5 5.7 5.8 5.6 5.3 5.2 5.4 5.3 8.6 7.3 4.2
130.1 118.3 110.8 107.7 107.3 103.8 100.7 98.5 96.6 94.8 100.9 113.2 119.4 120.8 115.1 108.9 102.1 97.9 88.1 89.5 99 95.9 93.2 90.8 88.3 86.1 81.4 77.2 72.2 65.9 62.2 61 61.4 61.2 59.1 56.8 56.6 56.8 56.7 56.6 56.4 55.8 55.7 55.7 55.7 56.2 56.7 57.2 57.7 58.3 60.1 62 63.9 65.8 68.4 70.8 73.1 75.4 78.6 81.3 86.8 90.3 93 96.4 99.9 106.5 111.2 113.8 118.8 130.3 137 144.9 152.5 154.8 168.4 186 204.1 216 224.1 230.1 232.1 231.4 225.4 217.6 209.6 204.9 186.1 168 176.3 184.3 180.4 162.3 138.9 132.8 152.3 169.3 176.2 171.9 167.5 161.8 161 158.1 154 147.4 133.5 110.5 112.2 132.4 145.6 153.3 157.7 157.8 159 157.2 153.8 146.9 139.9 131.6 123.1 115.7 113.5 109.8 100.1 96.7 81.8 91.3 99 105 113.4 119.7 117.4 115.8 113.2 101.6 99.2 99.6 98.4 95.9 90.8 84 78.9 73.6 64.8 53.9 47.3 40.4 34.8 30.3 27 25.2 25.3 26.1 25.1 23.9 23 21.9 18.4 17.1 15.6 14 11.8 9.9 8.3 7.4 7.1 6.5 6.5 6.6 5.8 5.7 5.6 5.2 5.4 5.6 5.6 5.5 5.6 6.6 6.2 6.3 6.6 6.4 6.7 6.6 6.1 5.6 5.5 5.7 5.4 5.7 5.8 6 5.6 5.3 5.8 5.6 5.5 6 8.6 3.9
140.9 133.7 127.7 122.6 118.7 114.7 109.2 105.4 102.2 99.7 98.8 106 113.4 112.1 108 101.8 95.9 92.8 94.1 96.2 100.9 105.4 103.8 96.9 92 85.5 76.3 70.8 66.7 63.7 64 66.3 66.8 66.1 63 58.8 58.1 58.3 58.1 57.9 57.4 56.7 56.2 56.1 56.5 57 57.3 57.5 58.4 59.1 59.8 61.9 63.8 65.8 67.8 69.4 70.3 76.2 81.4 83.8 87.9 90.6 93.7 95.4 100.7 106.6 113.4 121 126.1 128.8 132.4 133.1 137.3 144.2 155.1 167.5 189.6 204.6 213.9 225.9 232.9 232.2 229.8 223.1 213.2 204 186.9 181.2 187.3 188.2 172.3 147.7 144.6 135.5 157.6 171.9 173.2 166.4 159.7 155.8 153.7 152.6 142.3 128.3 114.4 108.1 111.8 132.9 146.4 154.5 158.7 163.7 164.6 163.7 160.5 155.1 149.2 142.8 135.4 124.9 118.5 109.8 101.1 88.8 89.9 101.3 109.1 117.7 124.6 128.2 123.1 118.7 113.7 107.6 120.2 119.8 117.1 112.8 103.9 94 85.9 77.2 65 53.9 47.1 40.1 36.5 31.9 29.8 27.7 27.3 28 26.8 25.4 24.2 22.2 20.3 18.5 16.1 14.7 12.8 10.7 9.1 7.8 7.6 6.9 7.5 7 6.2 6 5.7 6.1 5.5 5.9 5.8 5.6 5.3 5.6 5.6 6.1 6.1 6.4 6.1 6.4 7 6.1 6 5.7 5.6 5.8 5.9 6.1 5.8 6.2 6.1 6 5.6 5.3 7.7 6.6
152.2 149 143.2 139.6 133.3 126.5 119.6 111.9 107.5 105.1 102.7 103.4 108.3 107.7 103.4 100 97.9 98.8 100.3 99.4 99.4 96.1 90.9 84.8 79.1 72.4 68.8 66.8 66.4 65.5 69.1 73.3 72.5 70.7 67.3 63 61.5 59.4 59.4 59.3 58.6 57.9 57.7 57.4 57.3 57.7 57.9 58.2 59.1 59.8 60.4 61.4 63.1 64.8 66.4 68.4 71.5 77.6 83.5 89.1 90.4 90.8 91.9 93.3 99 104.5 110.6 121.7 137.4 151.1 159.2 155.5 155.7 160.9 161.7 159.9 171.8 183.2 206.1 223.7 231.3 233.5 231.4 226 216 203.7 198.6 196.1 196.8 181.9 159.1 152.9 152.2 139.9 159.8 172.8 169.7 159 151.9 146.7 142.6 136.2 126.3 113.4 123.6 127.2 117 125.9 139.4 149.3 155.9 164 165.9 166.6 165.7 159.9 154.5 149.8 144.1 136.6 125.4 115.4 101.4 88.6 95.9 108.5 115.9 124.9 132.4 136.6 131.5 124.2 116 114.6 121.4 129.6 129.3 126.8 118.1 106.4 93.7 83.6 72.3 61.3 52.7 49.2 42.7 41.9 39.5 34.7 29.8 28.4 27.1 26.1 23.3 21.7 20.2 18.7 16.3 15 13.6 12.4 10.3 10.2 8.7 8.1 7.8 7.1 5.7 6 5.7 5.8 5.6 5.7 5.4 5.4 5.6 5.5 5.4 5.9 6 5.6 5.5 5.6 6.6 7.4 7 6.1 5.8 5.9 6.2 6.3 6.6 6.4 6.7 6.7 6.4 5.3 6.9 8.4
166.7 161.2 155.6 149.9 145.4 136.2 128.3 119.6 113.9 111.5 109.6 109.1 111.3 108.6 105 101.7 101.9 103.9 106.2 107.8 104.5 98.5 85.9 76.5 72.7 71.3 69.1 68.6 68.5 69.1 71.7 75.2 74.7 74.8 73 69.3 64.3 61.7 60.6 60.2 59.7 59.6 60.4 60.3 60.9 60 58.7 58.9 59.1 60.1 60.8 61.5 62.5 63.6 65.3 67.5 71.5 76.3 81.5 90.5 97 98.7 96.3 96.5 98.6 103.1 107.9 117.5 134.8 152.8 165.4 170.9 174.9 179.5 180.8 177.8 179.1 181.3 200 220.5 230.9 235.2 233.8 229.2 222.4 215.3 208.7 206.5 198.2 174.8 160.6 163.5 158.5 144.2 160.6 176.7 172.2 163.4 150.7 142.5 135.9 127.7 119.1 127.8 138.5 135.9 128.5 125.2 132.5 141.5 148.9 155.1 162.5 161.4 156.1 150.4 147.8 150.4 148.5 141 129.9 113.5 95.9 93.4 100.5 110 118.1 126.1 133.4 137.8 134 127.8 119 116.9 119.8 125.6 127.7 127.5 123.1 115.6 103.5 91.3 82.8 74.5 64.1 58.5 54.7 54.9 48.6 40.7 31.2 33 34 31.8 25.7 22.7 21.3 19.7 18.3 16.5 15.2 13.9 13.4 12.1 10.9 9.9 9.4 9.4 6.1 5.6 6 5.6 5.4 5.6 5.6 5.5 5.4 5.5 5.6 5.8 5.6 5.4 6.1 6.7 6.6 6.2 7.4 7.4 6.2 6.6 7.3 7.3 6.7 6.8 7.3 7.5 7.2 5.4 5.8 8
177.1 173.5 170 164 157.1 144.4 138.2 126.6 123.7 121.8 117.9 115.7 113.9 110.8 106.4 103.9 103.6 108.2 112.3 116.2 107.4 86.7 77.5 74.5 72.8 73.3 75 74.6 74.7 74.6 75.9 76.6 75.7 73.4 71.6 69.3 65.4 62.8 61.7 61.1 60.7 62.9 64.9 65.4 65.2 63.7 60.7 59.8 59.2 60.3 61.2 62.1 63.1 63.8 65.2 68.1 70.9 74.9 80.8 87.2 95.7 99.4 99.2 98.1 97.1 99.7 104.1 109.9 129.2 147.3 162.2 171.7 179.6 185.2 189.6 194.6 198.2 201.1 206.1 220.7 230.5 236.5 236.4 233.9 228.6 222.8 218.8 212.1 195.5 170.7 171.4 173.6 165.2 146.6 166.6 180 179.8 173.5 161.6 148.1 141.1 133.1 123.7 130.6 146 145.5 138.5 136 138.3 142.9 147.6 151.6 152.7 148.5 142 138.9 137.7 135.8 129.8 123.1 113.9 102.5 95.4 99.7 105.2 111.8 121 128.6 135.3 138.4 133.4 127.6 122.8 120.6 119.4 116.3 113.8 113.4 116.1 113.5 106.2 96.7 89.9 85 80.3 72.4 63.6 58.4 54.5 37.6 31.3 38.7 43.5 38.2 34.2 26.7 23.6 22.4 20.7 19.4 17 15.6 15.4 14.8 14.4 13.9 11.1 9.5 7.8 5.5 6 5.6 5.4 5.5 5.9 5.7 5.4 5.4 5.4 5.7 5.3 5.5 5.9 6.3 6.7 6.6 6.9 7.8 8 7.9 8.2 7.5 7.1 6.9 7.9 7.9 7.8 7 5.3 6.1
186.7 184.7 180.6 175.9 167.8 156.6 142 139.5 137.1 132.5 127.5 120.9 115.1 110.1 106.1 103.5 101.4 109.5 112.5 114.6 99.5 80.5 77 75.8 79.3 84.5 91.1 87.1 82.4 79.6 79.3 78.6 75.8 72.9 70.1 67.1 64.5 63.6 63.2 62.8 62 66.2 69 70.1 69.9 67.9 64.6 63 60.9 60.6 62.5 62.8 64.1 64.8 66 67.8 71.2 76.9 82.9 89.8 95.5 98.2 97.4 94.7 94.3 96.8 100.2 106 122.9 144.3 160.9 170.8 178.2 185.1 193.9 200.9 206.6 210.5 217 224.4 232 237.8 239.1 237.3 234.5 230.7 224.7 214.5 193.9 177.1 184.6 182 168.7 153.6 174.6 186.9 188.3 184.7 174.4 161.4 150.7 139.6 128 133.8 153.2 153.1 151.1 149.7 153.5 154.6 155.5 154.6 149.9 142.4 137.2 131.6 126.1 117.4 112.5 108.8 105.6 106.3 103.8 106.7 111.7 115.7 127.1 135.4 140.9 139.9 136.2 131.4 127 124.9 122.4 115.6 110.8 103.9 100.2 98 92.9 90.9 85.6 76.5 69.3 62.8 55.8 49.7 42.7 36 37.6 47.1 52 49 44.3 36.8 31.9 25.4 24.5 21.6 19.5 19.1 18.7 18.1 17.8 16.3 14.4 11.6 8.8 6.5 7.2 5.9 5.9 6 5.4 5.2 5.7 5.9 5.7 6 5.7 6.2 6.3 6.6 6.8 7.1 7.2 7.3 7.5 8.5 8.5 7.6 7.5 7.5 8.2 8.7 8.7 8.3 6.5 5.3
193.8 191.6 187.9 182.7 172.2 160 151.6 152.6 149.7 142.7 134.7 125.8 117 111.4 104.8 99.2 98 107.8 106.6 100 90.2 79.3 78.1 82.6 87.6 94.5 104.1 100.1 93.3 84.8 82.2 80.4 77.5 73.5 70.5 67.3 65.6 65 64.5 64.1 64.5 67.2 72.1 77.2 78.3 74.4 70.4 68.3 64.8 62.5 62.9 63.6 65 65.8 66.5 68.9 71.9 78.1 85.8 92.2 94.1 91.5 89.7 90.3 92.6 96.4 104.2 106.2 115.2 136.8 153.9 164.7 169.2 175.8 187.6 197 205.8 213.9 220.7 226.6 232.9 238.7 241.2 240.3 238.3 234.2 227.5 217.4 198.8 192.8 197.1 184.7 165.8 165.2 183.5 195.9 196.8 192.1 184.8 172.5 160.5 147.1 133.1 140.2 159.3 163.5 162.3 161.6 165.1 167.1 165.9 161.6 154.4 147.8 142.4 135.2 126.5 123.4 127.3 125.1 122.4 125.1 118.2 114.4 118.5 122.2 130.6 140.1 147.9 147.2 144.4 138.9 135.6 136.9 133.2 122.8 110.9 101.7 92.8 84.6 79.4 76.1 77.4 72.4 67 59.8 50.2 42.1 40.2 43.2 44.9 48 51.8 50.7 45.8 38.8 34.3 32.1 27.7 25.8 24.4 23.6 21.9 21.4 20.3 18.3 15.8 13.3 10.9 7.7 6.2 5.8 7 6 5.5 5.7 5.9 5.4 5.6 6.6 6.2 6.8 7 7.3 7.6 7.9 8 7.6 7.8 7.9 8.6 8.6 8.2 8.1 8.4 9 8.9 9.1 8.4 6.6
201.7 198.4 193.6 188.6 176.6 164.3 158.9 158.8 154 146.1 136.5 127.3 118.8 112.5 105.4 98.8 93.8 95.5 98.2 98 88.3 80.3 83.7 88.8 94.8 105.2 109.6 106.3 97.7 90.7 87.6 83.7 79.4 75.3 72.5 68.7 67.2 66.5 65.9 65.4 66.1 68.1 72.8 81.6 87.1 81.8 81.4 75.7 69.2 64.9 64.3 64.2 65.5 66.6 67.8 68.8 71.9 78.4 83.7 86.5 86.1 85 86.9 89.7 92 94.9 106.2 114.9 110.4 118.8 131 141 150.7 165.3 179.7 194.7 205.7 214.7 221.7 227.5 232.8 238.2 243.4 243.3 241.5 237.4 231.3 224.2 214.7 210.8 203.4 185.6 165.9 174.4 193.6 205.7 204.5 200.5 193.8 182 169.4 155.1 139.5 146.2 165.7 177.9 176.9 175.9 176.9 177.2 176.4 173.4 169.6 163.2 155.7 149.9 133.1 136 140.8 139 134.8 133.1 129.7 124.7 129.7 128.8 133.6 142.5 149.2 150.9 150.4 148.5 145.7 143.8 138.9 131.1 118 103.9 93.7 91.9 84.3 74.3 63.8 66.4 63.9 53 44.2 44.8 47.9 55.3 60.9 59.5 55.6 50.7 47.1 43.2 39.7 37 33.6 29.2 28.5 26.7 26.1 25.3 22.7 20.1 17.6 14.3 11.9 9 7.3 5.7 5.8 5.6 6.6 5.7 5.7 5.6 6.7 6.9 7 7.4 7.5 7.8 8 8.1 8.2 8.5 8.8 8.5 8.3 8.7 9 9.3 9.1 9.8 9.1 9.4 9.3 8.7
208.1 204.6 198.7 192 183.3 175.5 168.7 163.2 151.1 140.7 129.9 121.7 115.2 111 105.2 96.9 92.2 89.6 86.8 86.2 83.9 81.5 86.2 95.2 103.4 114.7 116.6 109.2 101.2 95.8 92.5 87.4 82.8 78.9 75.6 72.4 69.1 68.3 67.2 67.7 67.9 69.4 71.7 78.6 84.7 89.7 91.1 81.4 73.2 67.6 65.6 65.7 66 67 68.3 69.6 71.5 75.3 78.8 80.6 81.1 84.4 90.2 95.8 100.8 99 100.4 112.9 118.2 118.1 119.1 125.3 143.5 162.9 178.4 194.7 205 211.8 219.4 225.7 231.6 237.3 241 243.2 244.2 239.8 237.6 233.7 227 223.2 210.8 188.6 168.4 185.4 205.3 216.2 214.6 209.4 202.6 191.3 179.7 162.7 143.1 149.9 171.7 186 190.1 190.1 190.4 189 188.6 187 184 179.1 173.2 159.8 138 149.9 157.6 155.8 154 150 140.8 142.7 143.8 140.5 139.5 144.4 149 152.6 152.3 150 147.8 144.8 138.1 128.7 117.3 105.8 107 106.2 96.1 81.1 67.3 58.3 52.3 47.7 49.1 59.8 59.8 65.5 68.4 67.6 62.3 62 61.7 57.6 50 46.3 42.4 37 32.4 29.4 29.3 27.2 24.5 21.8 18.7 15.7 12.6 9.7 7.3 6 6 5.6 5.6 5.7 5.6 6.3 7.1 7.1 7.1 7.4 8.1 8.7 8.1 8.2 8.5 9 9.1 9.2 9.3 9.3 9.3 9.1 9.2 9.6 9.4 9.5 9.8 9.6
212 208.9 203.9 197.3 189.7 180.7 169.8 157.8 143.9 132.2 122.8 117.3 111.5 105.6 100.5 95.3 93.2 90.4 88.6 86.6 85.6 85.3 83.8 96.7 109.5 118.4 118 112.6 107.1 101.4 97.4 93.5 90.2 85.3 82.2 78.2 71.8 69.1 67.7 69.5 69.9 70.5 72.4 78.6 86.7 97.2 95.3 85.5 75.5 68.8 67.2 67.2 67.5 67.6 68.8 70 71.1 73.8 76.1 79 83.3 88.8 94.1 99.4 104.3 107 100.3 104.3 109 118.2 127.2 124.7 133.7 156.3 173 189.2 201 209 214.7 219.9 226.5 232.7 237.3 241.4 245.3 244.9 244.1 242.8 238 232.4 217.3 193 180.5 200.7 218.5 228.4 224.3 219.3 212.7 202.1 189.6 166 145.6 151.9 172.2 190.1 198.1 201.5 201.9 200.8 200 198.1 195 188.5 178.9 158.8 148.3 164.8 170.6 168.3 164.5 159.6 154 159.8 159.8 153.5 151 150.5 152.8 154.6 153.9 151.4 149.2 145.7 140.7 132 119.7 114.7 113.9 110.5 99.9 87 78.1 71.7 61.8 49.3 65 83.5 80.6 79 77.4 76.1 70.4 68.5 79.2 78 69.6 65 59.9 51 40.9 34.6 31.6 29.6 26.6 22.9 19.3 16.3 12.8 10.8 9.5 7.6 6 5.9 5.8 6 6.3 7.2 7.1 7.6 8.1 7.6 8.1 9.1 8.9 8.7 9 9.5 9.4 9.7 9.7 9.7 9.7 9.7 9.6 9.9 9.6 9.7 10.1 9.9
216.5 212.6 207.9 202 195.2 182.3 169.2 156.7 142.6 132 123.7 118.3 112.9 106 102 99.9 97.8 96.4 96.4 96.1 94.6 89.7 85.2 98.5 116.4 124.3 123 118.2 112.4 106.3 101.7 97.5 93.8 90.2 86.9 80.7 72.6 71.4 71.3 76 76 73.1 74.4 79.3 87.9 97.8 101.4 90.3 79.4 71.4 69.2 68.9 69.4 70.1 69.4 69.8 71.1 72.7 74.9 77.6 82.1 84.6 90.7 98.9 111 115.9 106.9 102.8 106.8 109.7 118 129.5 129.3 141.8 161.4 182.9 195 200.8 205.8 211.5 219.9 226.4 233.6 240 246.4 249.3 249.8 249.9 246.3 238.6 222.3 195.9 197.9 218.5 232.1 238.5 233.8 229.2 222.3 213.2 194.6 169 150.6 165.4 174 187 204.7 211.7 211.3 210.4 208.8 206.7 202.4 196.6 178.2 159.9 163.1 179 180.7 178.3 173.4 168 166.1 165.8 167.4 167.5 164.6 162 158.4 157.6 155.5 152.9 150.1 145.2 137.5 130.9 127.3 127.8 126.7 117.7 105.5 92.8 86 80.9 63.5 50.9 72.5 95.2 95.1 91 87.7 83.6 79.3 74.9 76.3 82 83.8 79.9 76.6 68.4 48.8 37.2 35.2 33 28.6 24 20.1 16.5 14.1 12.7 11.5 9.3 7.6 6.2 6.7 8.4 7.7 7.4 7.7 7.6 8.6 8.3 8.6 9.1 9.8 10 10.2 10.6 9.6 10.2 9.8 10.2 10.2 10.1 10 10 10.2 10.2 9.8 10.1
219.5 215.6 211.7 206.2 198.8 189.6 178.3 164.8 153.1 141.5 131.5 121.8 116.7 111.1 108.6 106.7 106.2 104.4 102.3 99.1 95.7 90.9 87.7 97.1 113.3 126.5 126.8 121.6 114.9 108.4 103.5 98.7 94.9 89 82.3 75.7 71.7 71.1 81.8 83.2 82.2 78.5 77.2 81 88.1 95 97.4 90.7 81.4 74 71.6 71 72.4 74.5 76.4 74.9 73.7 73.7 74.4 77.1 80.3 84.9 88.4 92.6 102.7 107.4 106.4 109.3 113.4 112.8 113.2 123.3 135.8 136.2 153.5 174.8 181.8 185.6 189.4 198.7 209.9 219.9 228.3 238.1 246 252.5 255 255.3 252.6 244.4 226.1 207.5 220.5 236.5 245.2 248.8 245.7 242.2 235.1 225.3 198.7 172.3 165.7 181.9 190.7 197.9 212.9 218.2 221.7 218.7 217.1 214.3 208.5 198 180.2 165.3 176.6 192.6 192.4 190.5 185.7 180.8 177.5 174.3 174.3 175.4 174.6 172 167.2 163 158 154.8 150.9 144.1 135.4 132.8 135.2 137 133.2 125.4 115.3 104 96.4 90.3 68.9 53.6 75.9 103.2 106.7 101 93.2 88.6 84.5 81.5 82.1 84.6 83.2 81.1 77 67.5 46.5 42.9 42.4 36.7 31.9 26.7 22.2 18.9 17 16.2 14.5 12.7 9.9 9.2 9.4 10 10 10.3 8.5 8.9 8.4 9.5 9.2 9.8 10.2 10.8 10.9 10.9 10.7 10.6 10.2 11.6 11.5 10.6 10.4 10.3 11 10.6 10.8 11
222.9 218.8 215.2 210.7 204 195.9 186.5 177.1 165.2 151.8 140.1 132.3 125.9 121 117.3 115.5 113.8 109 102.5 98.8 96.5 91.7 90.6 95.3 112.9 129.1 128 121.6 115.1 108.9 104.6 100.3 94.7 89.2 80.3 76.2 78 78.4 86.1 91.2 89.7 85.8 80.9 86.1 91.3 94.1 94 89.4 82.5 74.8 73.5 72.6 75 81.9 90.8 88.5 81.5 76.2 75.6 77.7 81.2 88.5 101.2 95.5 92.2 98.5 102.7 108.4 117.9 121.3 121.7 119.1 130.4 137.6 143.6 156.3 161.8 171.1 182.6 195.9 204.9 212 222.5 233.8 246.6 253.6 259.6 260.4 258.7 249.6 237.9 227.4 238.9 250.2 258.2 258.4 256.1 252.1 246.6 233.8 202.6 178.8 179.1 196.4 209.4 214.1 220.8 227.4 229.2 227.1 225.3 221.8 215.1 202.2 182.9 171.6 189 204 204.8 203 198.8 194 190.5 185 180.9 183.5 181.1 175.9 172.2 167.5 161.2 156.2 151.2 141.3 133.5 135.4 143.7 142.9 137.5 131.2 125.1 114.9 105.5 98.7 70.9 54.6 77.9 105.6 116.9 111.9 104.4 96.5 93.6 88.7 88.4 87.9 83.3 78.9 72.9 60.5 44.7 55.2 58.2 43.4 35.7 29.8 25.4 22.7 20.7 19.7 18.5 16 14.1 13.4 13.8 14.5 14.9 13.1 10.9 10 9.3 9.9 9.8 10 10 10.2 10.3 10.9 10.9 10.7 11.4 12 11.8 11.3 10.9 11.1 11.2 10.5 11.5 11
226.5 222.4 218.3 214.6 208.6 202 193.9 184.9 176.7 165.6 153.4 147.8 139.9 131.4 126.2 123.3 117.8 110.5 104.4 100.5 96.9 94 93.4 94.4 104.7 116.5 121.6 118.4 113.8 108.9 105.1 101.7 97 89.9 78.9 77.7 86.9 85 90.2 93.7 94.5 90.9 86.9 94 95.7 96.9 94.6 89.2 82.6 76.5 75.3 74.9 79.8 89 102.5 104.6 92.9 81.5 77.3 77.4 81.8 89.1 103.3 107.1 106.7 105.8 108.3 113.2 124.6 129 129.3 129.7 131.2 136.9 145.7 146.2 153.7 165.4 177 183.4 189.9 197 211.4 229.5 246.4 254.4 259 264.9 264.6 259.8 251.6 244 254.5 264.7 268.9 268.8 265.8 261.1 253.8 240.2 216.5 189.4 191.9 208.7 226.1 230.1 232.7 235.1 236.5 234.9 232.8 228.3 221.2 205.8 188 185 204.4 213.9 214.7 212.6 208.9 205.2 201 195.9 191.2 188.8 183 177.5 172.2 166.4 158 145.1 134.7 126.3 123.4 128.8 131.9 136.2 138.8 134.7 128.6 118.9 108.9 98 71 57.1 77.3 105.3 115.3 120.2 116.4 107.8 102 100.1 97 94.8 89.5 81.8 68.8 53.9 52.2 67.8 70.5 55.1 39.1 33.1 29 26 25.2 24.9 23.5 20.8 19.7 18.6 18.4 19.1 18.9 17.4 15.6 13.7 11.4 10.4 10.3 10.3 10.5 11 11.6 11.1 11.5 12 11.8 11.9 11.7 11.6 11.7 11.6 11.5 10.9 11.8 11.9
230.3 225.9 221 217.1 213.6 208.1 201.5 194.2 186.1 178.2 168.9 161.2 153.7 145.7 137.9 129.9 123.3 112.6 107.4 102.2 98.8 96.5 96.3 97.2 101.1 104.9 109.9 111.4 110.1 109.1 106.3 102.2 95 82.6 78.3 90.1 93.9 92.2 94.7 95.2 96.2 92.8 91.7 98.4 101.2 100.5 98.4 94.3 87.5 78 77.7 83.6 88.9 95.5 105.5 108.8 102.2 88.1 78.9 79.2 83.3 89.9 101.8 112.7 124 120.9 117.6 122.3 130.7 138.9 138.5 140.9 144 145.2 157.8 159.7 163.6 161.8 164.5 169.5 175.1 183.8 198.3 220.2 242.1 252.7 261.7 269 270.8 268.1 266 264.8 271.1 275.2 278.2 278.4 276 270.2 262.6 250.7 228.3 203.7 210.6 225.8 238.9 242.3 242.9 242.3 242.4 241.2 238.3 235.1 228.1 210.5 194.1 200.5 216.3 221.4 222.4 222.1 216.8 212.3 208.8 203.8 197.8 191.1 183.4 169.7 156.7 145.7 134.7 124.1 113.3 103.1 99.3 102.3 106 111.3 120 127 124.8 115.7 103.9 87.7 68.4 58.2 72.4 89.4 105.1 117.1 121.9 117.4 112.3 112.4 113.6 108.3 98.8 70.2 59.7 54.5 66.1 72.7 73.5 64.5 43.7 38.2 34.6 32.3 30.7 29.9 30.1 28.4 27.9 26.5 25.3 24.3 24.1 24.1 24.5 22.8 18 15 12.7 12.1 11.1 11.7 12.4 11.7 12.6 12.4 12.8 12.4 12.2 12 11.8 12 11.8 11.7 12.5 12
232.1 229.3 225.9 222.1 218.5 212.1 208 202.1 194 188.4 182.7 175.4 168 160.6 150.6 138.1 127.9 115.8 109.6 105.5 101.8 99.6 99.6 99.2 101.6 102.6 102.9 101.7 101.4 102.1 101.5 97.4 85.5 81.3 88.9 100.9 99 98.9 100 99.6 98.9 96.2 96.5 100 103.8 105.2 103.7 98.1 80.1 80.1 86.2 93.6 100.1 103.5 108.1 107.8 102.3 93.2 79.3 81.5 86.1 92.7 101.8 117.7 133.6 137.5 132.9 135.6 138.7 147.2 151.8 154 153 154.4 158.9 162.9 175.1 182 184.7 185 187.7 193.8 196.5 211.3 235.5 251.1 263.7 271.3 274.9 275.5 275.4 275.7 279 282.9 285.3 285.5 285.1 280 272.1 262 243.1 221.1 227.8 244.7 251.5 252.7 252.4 251.5 250.3 248.4 244.3 241.5 235.9 225 206.9 214.4 225.9 228.2 230.1 227.1 223.9 219.5 214.3 207.2 200.3 192.5 174.8 159.2 139.1 123.2 112.5 107.2 106.9 105.2 101 92.1 85.2 87.3 94.3 101.5 105.2 99 87.4 75.4 62.9 63.9 77.8 81.8 92.5 107.2 114.9 117.6 119 120 116.7 108.1 88.6 66.8 60.7 69 73.1 75.9 73.8 63 51.6 45.5 43.5 42.4 39.1 36.5 42.8 43 41.2 37.2 34.9 30.9 34.3 39.9 40.5 38.5 34.3 29.5 23.2 17.5 12.9 12.6 12.6 13.2 13.2 13.9 12.9 13.3 13 12.8 12.6 12.4 12.4 12.3 12.6 13.1
231.4 230.3 229.1 228 224.7 219.9 215.4 208.1 202.4 197.5 192.4 186.8 179.6 172.1 162.5 147.6 129.2 118.3 112.3 107.6 103.9 102.5 102.3 102 102.1 102.5 101.1 97.5 94.5 92.3 89 87.4 83.7 90.2 101.6 106 105.7 105.6 105.1 104.5 102.6 99.9 101.3 103.8 108.8 110 107.4 89.7 83.2 86.8 100.4 104 108.6 111.6 113 110.7 105.2 93.5 80.1 83.3 93.5 96.8 109.8 126.1 143.2 159.8 157.7 156.7 160.4 161.8 164.1 168.7 167.3 165.5 172.2 177.7 185.1 200.3 210.5 211.4 212.2 215.9 217.2 213.2 227.6 246.6 259.5 270.7 277 281.2 283.6 284.8 286 288.3 290 290.9 291.3 287.3 281.5 272.9 260.4 247 247.2 260.5 263.1 263.3 262.7 261.1 259.9 256.3 252.4 248.4 241.2 231 219.8 226.6 234.5 237.7 235.2 232.5 229.9 225.2 218 208.5 200 181.5 162.4 143.9 122.5 125.5 126.6 124.6 121.9 119.8 113.5 99.4 89.1 82.5 78.6 75.6 74.1 73.5 69.2 64.5 66 70.9 71.7 83.1 90.6 105.2 114.5 117.1 121.1 123.2 109.6 93.6 75.3 64.2 78.8 84.4 85.2 84.9 79.7 76.2 62.3 54.8 56.5 61.7 46 54.1 61.5 60.7 55.9 51.8 46.5 37.9 45.7 60.4 63.6 59.2 50.7 45.3 39.1 31.2 22.4 14.3 13.9 13.9 14.1 13.6 13.6 13.3 13.8 13.7 13.7 13.1 13 12.8 12.8 12.8
219.4 225.7 228.7 230.8 230.7 226.1 222.4 217.1 210.5 205.3 199.9 195.2 189.8 181.5 170.7 149.8 129.3 117.6 114.8 109.8 108.9 107.9 107.4 106.1 105.6 105.8 103.9 99.9 95.5 91.4 90.3 88.7 87.3 97.3 109.7 111 111.4 111.2 110.7 110.4 106.8 103.7 105.4 107.6 112.1 115.4 107.4 87 90.4 99.5 106.5 110.8 113.9 116.5 116.9 115.2 110.3 102 84 86.7 105.8 108 112.5 129.2 147 163.3 174.7 180.9 186.1 185.2 188.9 188.1 185.6 186.3 190 199.7 209.8 219.2 226 230.9 234.9 238.9 241.3 238.1 234.1 238.6 252.9 266.9 277.4 282.8 286.1 288.8 289.9 291.5 292.3 293.8 294.4 292.1 287.2 281.9 275.6 268.7 267.7 273.6 272.8 271.8 269.4 268.3 266.8 263.1 259.1 254.7 247.4 239.8 235.2 237.3 244.1 242.9 240 234.9 227.1 218.3 212.8 203.6 186.7 167.9 149.5 130.9 136.2 144.3 144.9 138.9 134.3 127.5 114 101.7 89.9 88.2 90 85.2 77.3 71.6 76.7 80.3 86.7 87.5 84.9 80 87.5 103.6 113.2 114.6 114 107.3 92 78.8 75.1 72.8 77.6 85.2 92.2 95.1 94.2 90.1 78.3 71.1 66.5 62 54 65.5 71 71 68.5 65.7 57.7 42.7 52.5 69.3 83.2 83.8 78 68.9 59.6 47.2 38.2 25.9 14.8 14.4 14.1 14 13.6 13.5 14.4 14.4 14.1 13.9 13.7 13.4 13.4 13.3
196.7 212.4 222.9 229.9 231.8 232.4 230.6 227.1 220.9 213 207.2 203.3 196.5 187.6 172.7 148.4 131.5 127 120.7 115.5 114.7 112.7 111.6 111 111.2 112.1 107.9 103.5 99.1 94 91.7 90.7 87.9 97.1 108.5 113.1 115.7 116.7 117.5 116 112.4 107.7 109.4 110.8 113.5 116.4 107.1 87 95.8 109.8 111.8 114.9 117.5 120 120.4 118.9 115.9 97.8 86.7 86.5 107 122.3 123 132.9 144.2 160.7 173.6 183.3 192.8 199 202.6 206.5 204.1 203.7 210.3 220.6 230.3 239 244.2 247.8 251.7 254.5 255 254.4 256.2 257.4 263.4 272 280.2 285.2 288.4 291.2 293.9 294.6 293.7 291.3 291.2 289.6 287.7 287.8 285.6 282.4 278.9 281.1 280.4 279.8 277.3 274.5 273.5 270.6 265.8 260.1 254.3 248.3 247.1 246.9 247.3 245.5 240.9 230.3 215.6 203.6 197.3 185.3 168.7 150.9 141.8 148.1 151.2 153.6 153.6 148.1 140.2 127 114.1 102.3 102 102.8 101.9 97.6 85.1 76.2 83.3 91.3 97.2 99.2 96.5 92.9 91.9 97.7 105.1 109.8 106.6 93.7 90.9 95.4 96.1 84.5 93.6 91.5 97.5 100.9 100.8 95.2 86.6 82.4 75.4 69.6 66 65.5 70 69.6 65.5 60.7 54.9 47.4 53.2 65.2 79.2 89.6 93.8 87.7 81.2 71.6 56.7 38.1 21.9 16 15.1 14.6 14.5 14.8 15 14.9 14.8 14.6 14.2 14 14 13.8
175.3 196.3 211.6 225.3 231.6 235.4 235.8 232.5 229.3 224.7 216.7 207.4 200.5 191.6 167.8 144.4 137.7 137.3 132.9 124.9 121 119 119.5 119.4 118.1 114.5 111 107.6 103 95.6 94.4 93.6 91.4 95.3 103.5 111.7 118.9 121.5 122.6 121.7 117.6 113.3 114.3 114.8 114.2 112.7 108.1 88.9 102.8 117.5 116.7 117.8 120.7 123 124 122 119.2 101.6 89.1 85.6 99.2 120.6 128.6 135 144.8 154.9 167.1 179.3 191 200.8 206.7 213.1 217 218.9 226.8 235.4 242.6 250.9 256.1 259.8 262.7 265.1 265.1 265.5 267.7 269.6 274.6 279.4 282.7 287.3 290 293.1 295.7 294.6 285 277.5 279.1 278.8 281.3 286.5 289 289.1 286.5 287.6 288.5 288.3 286.2 281.6 280.1 276.8 272.6 266.3 260.2 257.1 254.8 253.5 250.9 247.1 243.2 234.1 221.7 201.4 181.1 166.3 157.4 159 163 164.7 167.1 168.3 166.4 159 145.6 128.3 111.8 106.6 112.6 110.5 105.1 96.5 90 83.9 98.6 105.7 109.2 108.6 106.7 104.1 101.4 102.7 105.1 107.9 105.4 98.1 109.5 116.4 107.8 98.1 104.3 103.8 109.6 114.6 113.5 109.3 100.7 93.3 87.2 81 77.2 74.5 73 69.8 65.4 60.8 54.7 50.5 54.6 63.3 69.9 75.9 81.5 86.6 94.1 95.9 65.2 37.3 32.9 18.4 15.4 15.3 15 15.2 15.3 15.5 15 14.9 14.7 14.6 14.5 14.3
155.7 178.4 198.4 215.8 227.6 234.2 236 233.8 231 227.5 220.2 212.9 203.9 187.3 164.3 145.7 153.4 153.1 146.8 135.3 129 133.9 136.3 135.6 130.9 127 118.2 113 105.8 98.1 95.9 94.6 92.8 97.7 110.4 118.7 124.5 127.1 127.7 126.3 122.7 118.9 118.6 117.2 114.3 111.6 106.7 92.1 102.5 116 117.6 118.9 122.6 126.8 128.1 125.6 120.6 106.9 92.5 87.5 95 110.1 122.3 131.9 140.7 148.1 157.6 169.9 183.5 194.8 203.5 211.3 217.1 222.5 231.4 239.7 248 255 260.5 264.8 267.4 268.7 269.3 270.5 273.5 278 281.4 283.6 285.4 288.6 290.1 289.3 289.6 288.4 272.6 255.3 257.2 262.7 269.9 279.6 284.9 288.7 288.9 288 289.1 290.5 290.3 288.7 286.1 281.8 277.4 272.2 266.3 261.9 259.7 256.5 255.3 251.1 244.9 238.5 228 210.9 194 184.8 183.9 184 184.9 186.8 185.1 183.1 179.4 171.6 154.8 138.8 122.2 123.2 121.5 116.1 107.5 101.7 99.5 91.1 99.4 110.1 120.4 124.1 122 121.8 117.2 115.8 115 114 106.7 103.2 121.5 131.4 112.6 116.1 118.1 114.9 120.4 133.3 133.2 127.6 118.9 106.8 99.4 92.6 88.3 84.7 80.6 77.1 72.7 67 61.6 57.8 57.3 61.6 66.9 70.7 73.8 76.1 82.5 91.2 86.1 64.8 40.1 24.4 19.1 16.6 15.3 15.5 15.5 15.6 15.3 15.3 15.3 14.8 14.8 14.4
144.8 163.3 183.4 205.4 221.1 230.7 234.2 233.9 232 226.9 221.5 215.8 206.6 185.5 162 169.2 176.7 172.8 158 141.6 146.1 156.8 159 159.3 154 139.7 126.7 119.6 106.7 100.7 97.8 96.1 96 101.5 119.5 124.6 125.8 132.3 131.2 130.3 125.7 122 120.4 117.1 112.8 106.4 97.2 93.7 99.3 113.5 117.6 120.4 123.5 127.2 130.3 127.8 123.3 114 98.5 90.2 91.1 109.1 119.1 128.1 135.6 140.7 147.1 158.4 175.6 188.7 198.4 203.3 213.3 221.9 229.7 239.5 247.3 255.5 261.1 263.7 263 263.4 266.6 271 277.8 283.4 286.1 287.2 288.5 287.9 285.8 269.3 262.6 264.8 261.6 240.9 234.9 241.1 254.1 269.4 278.2 281.9 283.1 283.5 285.3 287.2 288.4 288.6 287.6 285.1 279 274.7 270.2 265.8 261.9 259 255.7 250.7 245.4 238.8 231.1 221.1 212.1 206.9 205.4 205 205.2 203.1 200.4 197 192.2 186.2 177.6 155.9 141.7 142.9 136.8 127 117 111.6 108.7 102.6 104.6 108.6 114.9 120.8 127.2 133.8 126.5 125.7 126.2 124.2 118 111.6 120.4 136.8 120.6 128.5 138.5 134.6 130.6 142.3 145.9 143.4 135.1 117.3 111.9 105.2 100.7 94.8 89.3 83.9 79.6 73.7 68.5 65.5 64.1 63.6 63.7 64.8 65 67.4 69.1 69.9 65 53.2 39.9 27.8 19.3 17.9 15.7 16.1 16.3 16 15.7 15.4 12.6 14.9 15.4 14.9
140.5 162.9 189.8 211.9 223.9 230.7 232.4 232.3 230 224.1 219.5 214.3 207.4 184.8 180 186.1 186.2 180.3 166.3 149.3 165.4 170.1 171.7 169.5 165.6 154.8 134.5 124.5 107.1 104.4 102.4 98.9 97.6 98.6 112.9 121.7 127.3 130.8 130.7 129.7 126.6 122.6 119.1 114.7 109.3 101.9 101.3 96.8 97.4 108.4 119.2 122.1 123.6 126.7 127.8 126.3 123.8 114.9 102 95.1 90.8 104.8 114.7 119.8 123.6 131.4 138 147.6 164.3 177 180.5 193.6 212.7 219.1 224.3 233.4 243.3 250.8 254 254 246.6 247.2 258.2 269 277.7 283.8 287.2 285.8 285.1 284 276.1 254.9 234.5 232.9 239.3 236.2 217.9 217.7 235.1 256.6 272.1 274.5 274.6 275.3 277.7 281 282.7 284.1 283.9 281 277.9 274.2 269.2 264.6 260.5 256.5 252.1 248.4 243.7 238.7 232.5 227.2 224.2 221.3 219.1 217 214.6 211.4 211 209 205.5 200.2 191.2 169.6 167.9 167.5 159.5 146.9 135.6 132.2 124.7 116.3 114.8 117.6 123.3 126.4 129.9 133.9 138.3 135 133.9 132.6 128.3 124.3 124.4 133.2 134.9 134.8 146.7 147.9 146.7 150.2 152.9 152.5 146.6 132.6 120 114.7 109.4 102.4 97.1 92.1 85.3 79.6 74.4 70.3 68 65.1 61.6 58.8 57.5 58.2 58.6 57.8 51.7 43.2 34.7 26 19.2 16.7 16.4 17.4 16.5 13.2 16.2 16.3 16.1 15.8 15.3 15.3
142.3 168 197.6 220.5 228.7 232.7 233.8 230.6 227.5 222.6 218.2 208.9 203.7 185.8 195.8 197.8 195.4 186.8 169.9 159.2 176.4 180.2 179.1 176.4 170.1 161.3 143.3 123.6 112 109.1 107.1 104.4 101.9 101.7 105.2 116.8 126.6 131.1 131.8 130.2 128.4 124.7 119.6 113.7 107.8 104.2 104.9 98.9 96.6 102 111.1 115.6 120.3 124.3 128.8 130 126.3 118.5 111.9 101 92.4 100.4 106.9 111.4 116.2 122.5 130 139.3 150 159.6 173.9 192.6 199.8 207.2 217.6 226.6 236.3 241.1 235.8 229 225.7 236.7 258.1 268.4 276.4 281.7 283.4 281.2 279.8 277 271.4 252.8 226.5 202.6 212.6 222.9 211 204.1 223.3 249.3 263.3 262.1 259.6 261.1 264.8 269.8 273.8 275.4 275.1 274.5 272.7 269.4 264.7 259.8 254.8 249.9 246 243.3 239 235 232.9 230.8 229.3 227.2 226.1 224.5 223.6 221.6 220.3 218.9 215 211.3 206.6 198.8 195.2 191.1 183.1 168.3 160 157.7 144.7 133.1 131.1 130 133.9 137.4 139 139.8 142.4 146.5 148.3 143 141.8 134.4 133.6 137.5 140.9 139 150.9 155.5 155.3 157.1 159.2 159.1 156 147.8 133.9 123.2 111.8 105.1 98.8 92 85 80.5 75.6 69.5 67.1 64.4 61 57.1 53.3 52.5 51.4 49.4 44.7 38.1 31.2 25.6 20.1 17.4 16.7 17.5 17.6 17.2 16.5 16.6 16.5 16.5 16.1 15.5
144.1 170.3 197.9 218.8 232.3 234.8 234.7 232.2 227.1 221.9 215.3 204.6 197.3 189.6 203.6 203.6 198.7 191.1 175 172.2 184.6 187.1 185.3 181.2 173.8 163.5 150.8 127.3 118.1 113.5 112.1 111.9 109.3 105.2 104.1 111.1 124.3 132.5 133.7 133.3 130.7 127.3 122.1 115.9 110.5 107.8 105.3 102.5 99.3 100 103.5 107.4 115 121.3 123.5 126.5 125 120.4 112.9 104 95.7 94.4 100.4 105 109.8 116.2 123.7 132.3 141.3 152.7 163.3 171.8 182.6 201.5 213.3 220.8 228.3 228.6 213.2 204.9 209.5 232.5 254.1 266.5 273.8 275.3 276.6 276.4 271.8 268.6 263.7 250.1 222.6 197.2 187.8 195.9 188.4 201.2 222.8 247.5 255.6 245.6 234.7 240 247.4 256.7 262.4 263.9 263 262.7 262.4 260.5 254.5 248.5 243.4 239.9 238.5 233.5 229.3 228.6 228.7 230.1 230.5 230.9 230.3 230.6 229.8 229.5 228 225.9 223.1 220.1 215.7 211.7 208.8 205.4 198.9 192.5 187.4 181.5 167.5 159.2 155 150 152.9 155 151.3 150.5 150.7 151.5 156.3 157.9 156.9 152.7 147.9 149.1 151.1 149.9 154.4 159.2 162 163 163.8 162.9 160.2 153.8 144.9 137.1 123.8 104.5 96.8 89.3 81.6 76.1 71.9 67.1 66.5 65.2 62.9 59.3 56.7 49 45.2 42.3 41.2 37.8 33.1 29.2 22.8 17.7 16.4 17.7 17.3 18.3 17 16.7 16.7 16.8 16.6 15.9
146.6 175.9 206.8 224.7 232.9 237 237.3 235 229.6 223.1 218.5 212.9 203.7 201.1 207 207.4 201.1 192.5 181 185.8 190.8 192.4 188.1 180.1 169.2 156.7 143.7 131.7 126.9 120.4 119.6 119.9 114.9 112.4 109.8 110.4 113.9 123.8 133.8 135.4 133.4 128.6 123.1 117.7 114.2 111.6 108.2 106.6 108.7 106.6 105.7 105.9 109.6 116.5 118.7 119 115.6 115 108.1 101.9 96.4 93.9 97.8 102.9 108.8 113.3 119.1 128.3 136.1 141.7 150 167.5 186.7 201.2 209.5 215.5 219.4 215.9 196.1 185.3 204.7 229.4 251.3 259.5 265.7 267.8 266.3 265.7 261.7 260 255.8 241.4 217.6 192.3 170.2 170.9 182.1 205.6 231.5 248.4 248.9 231.6 216.3 220.5 232 239.5 245.4 248.7 250.8 251 250.3 247.3 239.7 230.5 223.9 221.8 220 216.1 211.2 214.2 218.5 220.5 226.3 230.1 231.4 232 232.5 232.6 231.7 230.9 229.3 226.6 223.2 220.8 219.5 217.3 211.1 206.6 202.5 198.5 190.3 185.7 183.5 176.7 177.2 174.5 172.5 171.6 169.6 165.7 165.9 166.9 166.5 166.5 163.8 162.5 160.1 158.6 158.9 163.2 166.5 167.7 167 164.3 159.4 151.1 143 136.7 123.2 109.3 100 90 79.9 74.2 68.3 63.7 61.1 59.8 60.4 57.2 54.7 49 39.9 41.5 40.8 39.6 37.6 32.2 19.3 17.8 16.9 17.7 17.6 17.7 18.2 17.9 17.4 17.4 17.1 16.6
149.9 181.4 214.6 228.4 237.2 240.5 240.7 239 234.4 229.5 223.8 219.8 211 211.4 213.7 211.8 206.6 198 195.2 196.7 197.5 197.6 191.8 181.4 175.8 169.8 158.9 145.9 136 130.1 130.6 129.2 121.7 118.5 114.7 115 116.6 118.6 127.3 136.8 136.7 133.6 128.3 123.2 118.9 116.1 112.8 111 116.5 114.9 111.4 112.2 110.3 113.6 116.3 116 114.2 109.3 103.8 99.7 98.1 97.5 96.9 100.8 105.8 110.2 114.8 121.4 127.3 133.9 146.8 163.2 178.9 194.9 203.8 209.6 213.5 206.9 187.7 175.1 194.8 219.1 242.3 249.5 255.1 257.4 256.9 251.6 250.9 247.9 242.9 228.3 208.5 185.8 163.1 167.5 190.3 216.8 236.1 247.9 240 219.7 200.7 209.7 218.6 224.8 226.9 229 232.9 234.5 234.1 232.4 224.4 209.2 200 195.7 191.9 190.8 186.3 192.9 197.5 200.7 211.4 223.5 227.8 230 231.4 233.6 234.2 233.8 233.7 232.7 230.3 229.5 228.4 225 220.7 217 212.1 210.6 205.5 199.4 197.8 194.3 192.7 188.7 184.8 183.5 182.9 179 176.7 173.9 174.7 173.9 172.1 170.1 168.3 166.1 165.5 167.7 171.1 172.2 171.3 167.7 162.9 160 157.1 148.3 135.4 115.9 104.8 93.8 82.2 75.3 69.3 64.2 59.1 54.4 54.3 53 48.3 45.8 40.5 35.8 34.5 33.1 31 25.6 19.3 18.2 17.7 17.9 18 18.1 18.4 18.6 18.6 17.9 17.7 17.2
150.2 181.4 210.5 230.4 241.2 245.1 245.5 244.6 240.1 236.3 231.6 225.8 220.7 218.6 219.4 218.5 213.6 208.9 206.1 206.1 204.2 202.9 198.8 195.4 189 181.1 169.3 157 144.5 140.3 138.8 132.2 132.9 123.3 119.7 122.2 130 131.7 126.9 133.3 139.8 139.5 135.2 130.5 126.1 121.9 117.9 118.4 120.8 119.2 116.2 116.1 114.5 112.9 115.1 116.4 113.4 109.4 104.7 102.8 101.6 100.3 100.1 100.4 103.4 107.7 112.4 118.3 123.6 130.4 141.7 156.5 173.7 189.4 199.1 203.5 206.2 201.1 178.1 164.6 181.8 207.1 227.8 236.1 240.4 241.7 239.3 235.5 230.3 225.1 220.6 213.6 198.9 178.6 152.4 163.8 191.5 216 236.2 245.3 236.6 208.7 188.7 196.2 203 207.8 208 207.9 210.1 213.8 215.6 217.1 209.1 185.4 171.9 165.3 165 163.1 163.7 169.8 173.1 181.6 200.4 213.1 219 223.2 226.8 229.6 231.4 232.5 233.9 233.8 233.6 234.6 234.8 232.4 229.9 225.6 222.1 218.8 214.9 209.2 206.2 203 200.1 199.2 197.9 193.3 191 187.5 185 183.3 181.9 181.5 180.1 180.5 179.3 177.2 173.9 173.4 174.9 169.8 173.9 175.5 174.9 172 169.2 162 148.9 130.3 113.2 98 86.6 78.7 72 65.8 60.7 55.4 49.7 47.9 45 43.4 40.1 34 31.1 28.5 26.5 22.4 19.6 18.7 18.5 19 19.5 18.8 18.9 18.6 19.1 18.1 17.6 17.3
148.9 178.4 206 228.5 244.6 249.5 250.8 248.7 245.7 242 238.5 235.2 233.3 228.4 229.9 228.6 223.1 219.8 216.3 214.6 211.7 208.8 206.1 202.7 198.1 192.8 183.2 167.6 156.7 151.3 144.6 140.6 136.2 129.7 125 132.9 143.2 145.8 138.2 138.3 143.5 146.1 144.2 139.7 134.9 126.1 126.3 127.8 127.6 122.9 122.4 119.3 116.9 114.7 116 118.2 116.6 112.5 108.9 107.7 105.7 103.8 102.8 101.5 104.2 107.2 111.3 119 126 132.7 140.5 152 168.5 184.5 192 196.8 200.1 194.6 171.8 155.1 171.1 194 211.5 217.3 220.9 221.2 219.7 216.8 206.6 198.2 197.4 198.2 184.6 162.8 142.9 158.1 187.9 209.4 234.6 241 234.9 207.7 182.2 181 182.6 185.1 186.1 185.1 185.8 187.6 191.2 200.9 201 186.3 158.7 142.5 140.4 140.8 140 142.8 144 165.4 195.4 206.3 204.5 204.9 217.4 224.1 226.9 229.1 229.9 231.4 233.2 234.4 234.8 233.5 232.6 230.2 227.8 224.9 222.1 217.4 212.5 210.7 207.6 206.6 204.5 201 197.8 194.3 192.7 191 189.1 188.2 187.3 186.6 185.8 185.7 172.5 170.5 161.4 146.4 156.5 179.8 182.3 179.5 175.8 169 157.3 142.1 125.9 106.8 92 81.5 73.6 66.5 60.1 55.4 50.6 45.9 44.2 41.5 38.4 35 33.4 30.2 23.7 21.4 20.5 19.6 19.3 19.7 19.6 19.1 19.1 19.3 18.5 18.6 17.7 17.4
146.2 176.7 205.8 229.5 247.3 254.9 255.4 255.7 252.3 250.4 247.4 247.5 247.1 243.8 241.9 240.6 238.3 231.3 228.1 225.5 220.2 217.8 214.7 211.8 208.1 202.3 196.5 184 174.3 161.6 151.3 147.8 144.9 136.7 130.3 146.3 158 159.9 148 147.8 152.2 153.1 151 147 141.8 132.1 135 135.4 134.1 130.5 127.6 122.9 119.8 117.3 117.2 120.2 120.8 117.3 113.7 111.4 110.8 108.1 104.8 104.4 105.3 108.8 113.1 119.1 125.1 132.7 139.4 147.6 158.4 173 181.4 185.6 188.7 187.3 171.7 149.2 160.7 184.8 195.6 197.6 198.7 199.2 199.7 201.5 188.5 175.7 176.9 184.4 173.4 148.5 131.6 154.1 185.3 208.9 230.1 235 231.2 208.4 182.7 170.2 169.4 168 167.1 165.6 165.4 164.6 170.6 180.5 186.7 183.9 166 136.8 122.8 121.8 120.7 120.7 127.3 159.4 184.1 189.4 178.5 183.2 202.2 214 218.8 223.7 224.5 225.3 229.9 233.1 233.9 234 233.1 231.9 229.7 227.6 223.9 221.4 217.5 214.8 212.7 209.8 207.3 204.7 200.9 197.3 195.1 191.9 183.3 176.5 173.9 170.2 166.8 169.7 151.1 141.7 137.7 121 133.9 151.3 158.6 167.8 178.8 175.3 167 153.2 136.1 118.4 101.4 86 75.1 66.2 60.6 54.1 49.6 44.5 41.5 41.8 42.9 39.8 36.8 30.1 23 21 20.7 20.4 19.6 20.2 19.7 19.8 19.3 19 18.7 18.2 18.2 17.6
154.5 169 200.3 228.3 250.2 261.6 263.2 262.1 261.7 261.1 260.7 260.1 258.3 257.4 255 254.8 249.8 247.1 241.6 235.3 231.6 229.1 225.7 222.9 218.2 213.5 209 198.6 187.6 170.6 164.8 160.3 156.9 143.5 142.1 162.3 167.4 167.3 156.6 158.7 160.9 159.8 158.3 153.4 148.3 143.7 145.4 143.9 141.5 138 133.9 127.7 122.9 120.3 119.1 122.3 124.1 120.7 116.7 114.9 113.2 109.9 105.5 107.2 110.9 110 114.2 122.3 124 130.3 136.8 142.9 151.6 159.1 166.8 172.4 174.2 172.2 166.2 144.3 151.2 168.1 176.8 179.4 178.9 177.6 177.4 182.1 174.5 158.2 157.7 168.7 159.8 137.4 126.8 151.8 180.7 206.5 221.4 226 228.5 210.5 190.6 173.4 159.1 155.4 153.5 149.5 148.8 144.6 151 156.4 162.6 164.5 151.5 128.7 111.9 107.3 105.5 105.1 119.3 139.6 164.2 165.6 151.9 163.1 182.3 197.5 205.6 210.7 213.4 212.1 222.8 226.5 229.4 230.4 230.7 230.3 228.3 226.4 220.6 217.7 215.2 214.3 212.7 209.4 205.9 200 186.1 180.3 174.5 172.1 157.7 150.6 146 140.7 138.3 138.4 122.7 110.6 106.9 95.2 105.7 116.2 125.3 139.3 151.6 164.9 171.2 164.7 148.9 131.2 112 94.1 76.6 66.7 58.9 52.6 46.7 42.4 38.6 43.8 47.9 44.6 39.5 29 22.2 21.1 20.6 20.2 20.1 20.5 20.3 20.4 19.7 19.4 18.9 18.3 18.1 17.5
172.6 158.8 194.9 225.2 251.2 267.2 269.8 274.2 276 275.7 272.6 273.6 272 270.5 268.9 266.1 262.6 258.3 256.5 250.9 244.7 242.2 240 234.3 229.9 224 219.5 212.7 201.6 189.9 180.6 172.9 165.4 144.8 154.3 170.2 173.1 172.5 169.4 170.8 169.5 167.7 165.1 160.7 157.9 152.8 154.4 151.5 148.3 144.1 140.3 134 126.9 124.1 120.8 122.5 123.6 121.4 117.8 114.9 112.4 108.9 109.1 113.3 117.6 114.9 112.1 125.1 125.2 128.5 132.6 138.3 143.4 147 150.3 152.3 153.6 154 150.2 136.8 141 151.1 157.3 164.3 161.9 160 157.7 160.3 156.9 144.7 142.1 159.6 154.9 131.1 121 144.1 170.1 194.5 206.3 213.2 216.8 219.3 207.2 190.3 171.5 155.3 146.2 138.8 135.1 130.4 129.5 132.3 138.1 145.1 130.8 112.5 102.7 98.6 95.9 91 102 120.1 131.8 133.2 129.5 143.2 160.2 176.7 188.5 193.8 191.4 195.3 210.9 219.2 221.9 223.1 222.6 221.8 220.3 216.9 209.8 202.5 203.9 206.5 203.5 203.6 199 185.8 164.6 158.4 150.7 152.6 135.7 125.9 119.7 113.5 110.4 107.9 94 80.6 73.3 67 73.1 81.6 93.9 108.6 119.6 129.7 138.2 141.6 147.3 143.4 123.9 105.9 84.8 68.1 59.6 51 44 37.5 42.4 56.8 66.6 64.9 48.5 27 22.3 21.1 21 21 20.9 20.9 21 20.6 20 19.5 19 18.5 18 18
186 160.8 192.9 224.6 252.3 269.9 278.7 283.9 284.8 286.4 287.1 285.9 285.9 282.8 281.6 278.3 276 270.2 266.1 261.1 257.3 255.1 252.4 246.9 242.2 236.6 231.2 225.3 217.4 204.5 194.9 185.5 170 153.5 167.3 177.8 179.2 179.1 178.4 178.1 175.4 173.4 172.2 168.8 164.3 162.1 161.9 158.2 154.8 150.4 144.7 138.5 132.3 129.1 125.6 122.7 121.8 119.7 116.6 115 112.3 112.3 113.7 117.3 120.3 117.7 114.8 119.7 126.8 128.1 130.6 133.5 137.1 137.8 136.9 135.4 133.1 131.9 135.4 124.4 130.6 137.7 141.8 149.9 146.6 145.9 140.7 142.8 139.9 132.5 135.4 154 160.7 135.6 114.1 134.8 159.9 178.2 190.6 195 202.8 207.9 209.9 203 193.6 178.2 164.5 155.5 150.5 142.8 132.5 123.7 119.8 120.5 113.1 107.6 118.3 117.6 108.6 94.2 86.2 98.4 113.7 112.8 116.1 128.4 141.6 154.8 164 173 167.7 175.5 192.3 203.8 208.8 211.9 211.6 210.3 208.6 198.4 194.1 179.7 181.1 190.8 181.3 183 179 168.8 148.9 134.3 130.8 131.5 117.1 101.5 95.4 88.3 82 76.7 64.4 51.5 41.8 38.3 40.6 43.7 57.7 76.4 86.4 94.3 103.3 108.8 121.1 135.3 132.5 111.7 91.5 70.6 57.3 48.1 40.4 34.4 49.8 70.9 84 66.7 47.4 22.9 22 21.8 21.8 21.7 21.7 21.6 21.2 20.7 20.3 19.9 19.5 19.1 18.6 20
190.5 164.7 196.3 225.1 251.3 273 285.5 291.6 295.5 297.3 298.3 297.3 296.8 294.9 294.2 290.8 288.2 282.6 280.5 275.7 271.9 266.8 262.9 259.1 254.6 248.9 242.8 235.8 227.7 220.6 209.4 194.6 173.9 166 177.5 184.3 185.7 185.9 185.2 184.6 182.7 180.1 178.6 175.5 169.3 169.7 168 164.6 160.5 154.9 147.8 140.3 135.4 132.7 126.3 122.8 121.3 119.7 117.2 116.8 115.6 116.3 118 119.6 120.2 119.4 117.6 116.7 120 122.6 125.1 127.6 129.4 130.6 130.9 129.8 128.5 125 120.6 117.4 120.4 124.7 130.3 129.5 127.8 128.1 124.5 124.8 124.7 120.4 127.4 141.2 151 135.1 108.9 127.6 146.3 153.1 168.1 184.6 191.1 196 199.6 201 198.3 193.4 185.6 177.6 176.2 168.8 155.3 143.9 129.7 118.2 113 116.6 121.3 120.2 113.7 100.9 88.3 84.4 93.4 99.6 110.4 120.3 132.6 143.2 144.4 150.7 145.6 154.2 171.6 185.5 194.3 197.1 196.5 197.2 190.1 173.1 170.6 163.9 159.6 175.2 163 155.9 150.8 141.5 130 110.2 111.9 106.3 95.7 82.2 75.4 67.6 56.5 45.1 38.6 37.6 37 36.4 36 36 35.1 41.6 48.3 59.5 68.1 77.1 91.6 104.1 105.5 98 86 73.4 52.4 41.4 33.6 31.7 57.3 76.1 77.4 59.4 28.6 22 22.7 22.6 22.6 22.5 22.1 21.8 21.3 20.9 20.5 20.1 19.7 19.9 22.6 27.6
186.7 177.1 207.5 231.7 258.3 279 290.3 298.8 304.3 305.8 307 307.5 306.9 305.8 305.3 303.4 298.1 296.8 292.6 289.6 285.4 280.6 275.3 271.1 266.4 259.6 253.5 246.4 237.4 230.9 218.9 200.6 194.7 182 190.3 193.7 194.6 194.6 193 191.2 189.1 185.8 182.5 181 178.1 177.6 173.8 171.7 167.6 162.5 153.3 145 138.3 132.9 128.5 125.7 124.4 122.4 121.2 120.4 119.5 119.4 122.5 122.4 120.6 119.3 119.1 118.3 118.5 118.8 119.8 122.1 122.3 123.7 124.9 125.8 121.7 121.1 116.9 111.9 112.6 115.1 116.3 116.6 115.9 115.8 115 112.7 114.5 111 110.3 123.8 128.7 126.8 106.7 116.9 126.5 142.1 164.9 176.9 179.6 181.5 186.3 191.8 189.6 186.9 183.2 176.2 175.5 172.7 166.1 157 139.3 125.1 113.8 110.7 112.4 113.8 114.1 103 86.7 83.3 94.2 105.2 117.7 125.1 132.9 138.7 127.8 124.8 125.7 136 148.1 160.6 171.5 174.6 177.7 180 173.4 153.1 149.4 142.7 142.3 158.4 149.4 132.5 123.9 113.9 104.4 93.3 94.5 86.2 77.3 67 57.1 48.7 40.1 38.4 37.7 37.5 37 36.8 36.3 34.9 34.5 33.9 35 36.4 37.6 46.5 62.3 71.5 73.1 67.3 59.3 50.4 34.7 31.7 30.7 29.5 41.8 54.4 48 25.9 23.1 23.2 23.2 23.3 23 22.6 22.3 21.9 21.5 21.2 20.8 20.5 25.6 30.4 37.5 44.1
174.3 200.5 225.1 250.9 273.2 289.3 297.2 304.4 309.7 313.3 315.9 318 318.1 317.7 316.4 313 312.2 308.8 305.3 301.8 297 294 288.1 283.4 277.4 272 264.9 257.3 250.6 241.8 231.8 220.5 211.4 204 203.7 203.5 202.4 200.9 199.3 198 195.4 192.4 188.8 186.8 183.7 182.9 179.3 177.3 175 170.6 163.1 154.7 145.7 138.5 132.9 129.5 127.5 126.7 124.8 124.5 124.3 122.7 124.5 123.8 121.8 119.4 119.1 119.3 118.8 117.7 114.7 117.1 117.7 118.2 119.1 117.4 116.3 115.6 111.3 106.5 107.7 106.5 107.3 107.6 107.9 106.4 106 105 104.2 103.5 107 110.3 111.1 110.7 101.1 102.9 125.2 142.1 153.6 162.4 162.6 164 171.4 179.6 175.9 172 168.8 159.2 160.7 152.4 148.8 134.3 123 115.5 105.2 100.1 102.3 104.2 107 93.7 80.2 83.1 97.2 109.8 117.9 123.4 133.2 140.6 125.5 108.8 107.7 115 127 137.8 145.3 149 156 155.8 148.6 133.5 121 117.6 132.1 150.7 145.4 131.5 120 111.5 98.5 81.3 73.7 70.1 64.2 54.8 42.4 39.4 39 38.5 38 37.7 38.1 38.2 37.9 36.8 35.7 35 33.3 33.3 33.4 34.3 34.7 39.6 42.2 38.9 33 31.6 30.5 30.2 29.6 29 26.5 25.1 24.7 24.3 24 23.9 24 23.6 23.5 23 22.6 22.4 22.1 21.8 22.5 28.3 39.3 49.9 49 44.4
188.1 217.7 243.3 267.7 285.1 297.8 305 310 316.1 320.2 323.8 325.6 326.6 327.6 327.8 327.1 324.5 320.7 317.7 313.8 309.4 305.1 299.7 294.2 288.1 281.4 275.2 267.8 260.3 252.9 245.3 234.4 225.5 219.5 215.3 213 210.5 208.2 206.1 203.7 201.4 198.1 195.5 191.9 189.2 188.2 186 182.8 180.1 177.4 173.1 164.1 154 146.2 138.5 133.2 131.5 129.9 128.5 127.6 128.5 126.2 126.4 126.8 123.6 120.8 118 118.7 119.4 118.6 117.3 114.1 112.5 114.1 115 113.8 109.7 107 105.2 101 101.1 100.6 99.9 99.2 99 98.5 98.2 97.5 97.1 96.3 99.5 100.9 101.2 101.2 96.6 94.4 115.3 127.2 135.3 141.8 143.4 146.8 156.4 161.2 157.3 154.3 152.3 140.9 137.7 130.6 122.2 112.8 108 103.6 96.8 91 93.4 96.4 101.3 87.8 76.2 85.6 107.6 115.1 110.7 116.1 127.7 129.1 124.5 105 95.1 99 106 114.8 121.7 125.9 137 130.8 120.5 111.4 100.7 112.1 134.8 148.5 146.7 143.4 133.2 117 103.8 85.5 67.9 58.7 54.2 43.8 40 39.7 39.1 39.2 39 39.5 40.1 39.9 39.6 38.6 37.5 36.5 33.7 32.6 32.6 32.2 32.2 32.8 32.7 32.3 31.8 30.7 30.4 29.5 28.3 26.9 24.9 25 24.8 24.5 24.4 24.4 24.4 24.1 23.7 23.7 24.7 28.3 29.6 31.5 32.5 40.1 53.5 53.2 45 39.4
199.1 227.9 255.5 277.7 292.2 303.6 309.9 315.5 321.1 327.5 331.9 335.8 338.2 339 339 339.1 337 335.1 330.2 324.8 321.2 314.8 309.6 304.1 298.2 292.7 285.7 276.5 269.4 261.7 254 246 238.2 231.4 227.6 222.7 219.5 216.1 213.7 210.7 208.3 203.6 200.3 197.1 194.8 192.8 190.7 188.3 185.3 180.6 176.3 170.9 163.1 156.1 145.1 139.7 135 133.2 132.7 131.4 131.5 130.4 128.7 128.8 126.4 122.1 119.8 118.1 118.4 118.4 117.6 113.9 111.8 107.6 106.7 107.2 104.3 102.7 101.8 98.7 97.6 96.2 95.7 94 93 92.2 90 89.9 90.4 90.1 90.6 91.9 91.8 92.7 90.4 89.2 102.6 109.8 116.3 122.5 123.8 129.9 138.8 141.7 137.7 136.2 132.1 123.7 115.6 109.6 105.5 101.2 98.3 94.9 90.3 84.1 85 87.4 94.3 89.7 74.8 86.6 115.4 115 102.6 107.9 115.5 112.6 112.5 107.9 90.4 85 92.8 95 102.4 120.6 142 132.1 103.8 88.8 94.7 115.7 134.1 136 129.5 129.9 125.5 111.5 93.6 74.8 58.7 47.9 44.2 40.4 39.6 40.2 39.9 40.5 41 41.2 41.4 41.4 40.9 40 39.1 37.9 35.7 33.9 32 32.1 32.7 31.6 31.9 31.8 31.1 30.2 28.8 27.9 26.7 26.2 25.6 25.5 25.3 25.4 25.6 25.4 25.2 25.1 26.1 37.6 51.3 54.2 50.9 52.2 52.9 53.7 50.3 45.4 39.1 34.7
214.6 234.3 258.3 279.9 295.7 307.2 314.3 320.4 328.4 335.7 342.5 346 350.1 351.4 352.5 350.4 347.4 344.9 341.9 336.4 331.9 325.9 319.7 313 306.2 300.2 293.6 285.7 277.9 272.5 263.9 258 249.7 243 238.3 234.8 230.7 226.2 222.9 218.8 215.8 211.8 207.5 204.8 201.7 199.6 195.7 193 189.4 185.3 179 173.3 166.9 156.5 147.6 143.8 140.1 137.8 137.9 139.4 137 134.4 132.7 131 128.6 124.7 122.2 118.2 116.5 116.6 115.5 113.1 109.4 106.4 104.8 104 101.2 100.5 101.3 100.4 99.3 98.4 96.4 95.6 93.4 92.8 91.5 88.1 88.8 86.9 86 84.9 84.7 84.2 84.6 85.2 92.1 96.6 99.5 104.4 106.6 112.3 117.3 120.4 119.2 119.3 115.6 107.9 102.8 99.3 97.6 94.5 92.5 89.4 85.7 79.9 78.7 81 91.6 93.5 74 93.1 118.6 113.1 96.6 97.6 101.4 97.4 97.6 97.2 94.4 76.2 80.4 87.5 104.4 125.7 129.7 129 103.3 78.5 85.6 104.7 116.9 117.3 106.6 101.2 95.8 84.8 72.8 57.4 44.5 42.1 41.8 41.1 40.8 41.6 41.7 42 42.2 42.3 42.6 42.8 42.3 41.7 40.8 41.7 40.5 37.9 35.2 31.6 30.8 30.1 29.9 29.5 28.9 29.4 28.1 27.7 27.9 27 26.5 26.1 26.2 26.4 26.7 26.6 29.5 38.9 49.1 61.8 77.4 79 71.2 66 61.2 58.2 46.2 39.4 36.7 33.9
232.8 253.7 262.9 283.4 299.7 311.2 320.1 328.8 335.9 343.8 350.8 355.8 360.9 362.8 362.8 361.8 359.4 356.1 351.6 347 341.4 335 329.1 322.6 317 311.6 304.1 295.3 289.5 280.9 274.9 268.5 262.2 256.1 251 247.2 242.3 237.2 231.6 227.1 223.6 219 215.1 211.2 207.3 204.2 200.6 197.3 193.8 189.3 183.4 177.1 170.1 157.7 148.9 152.7 148.3 140.2 143.3 144.6 143.1 138.4 136.2 132.7 129.3 126.3 122.4 118.5 115.4 114.7 113.3 109.8 108 106.2 106.6 107.9 108 107.8 107.1 106 104.6 103.1 101.3 99.9 99 97.2 95.2 93.9 92.1 90.8 88.5 86.1 84.1 83.1 81.9 81.1 81.3 83.9 87.7 91.2 94.8 99.4 101.9 103.7 102.8 103.5 100 96.3 94.5 92.7 89.9 87 88.7 86.8 83 78.4 73.4 76 80.3 84.3 71.3 87.6 105.8 109.2 92.7 87.1 87.3 83 82.7 83.2 82.3 73.2 72 86.1 105.6 110.2 106.6 108.2 100.2 77.8 70.7 84.7 98.7 92.7 80.6 71.2 65.1 56.1 46.5 44.5 42.5 42 41.7 41.5 41.3 42.7 43.2 43.3 43.4 43.8 44.3 45 49.7 54.2 56.5 57.8 52 46.2 43.3 38.1 31.9 30.6 30.2 29.5 29.5 29 28.6 28.1 28.2 28.4 28.4 29.3 29.3 30.6 31.3 31.9 38.7 45 54.6 64.4 69.3 65.8 61.6 56 50.5 46.1 41.1 39.1 36.7 34.3
249.9 270.9 279.4 290.7 305.1 315.4 324.7 333.7 341.2 349.8 358.4 366 369.6 370.6 372.1 371.4 369.3 366.7 362.2 357.9 351.4 344.8 338 331.8 326.3 319.7 312.7 306.1 299 292.1 285.8 279.9 273.5 267.6 262.4 257.8 253 247.3 241.5 234.8 231.4 226.6 221.9 217 214.3 211.2 205.8 200.7 196.3 191.9 186.8 180.9 170 161.1 158.3 163.1 155.5 146.8 147.7 147 145 140.6 136.7 133 129.5 126.8 122.8 118.8 115.7 113.2 111.7 110.9 109.9 108.7 112.1 113 112.2 112.2 112.3 112.1 110.9 110.7 109.7 108.3 107.2 106.7 105.3 99.9 97.4 96.3 94.6 92.2 88.2 85.4 82.3 80.5 79.9 78.4 77.9 80.4 83.1 85 87.5 91.9 90.1 90.6 89.3 86.9 86.9 86.9 82 81.2 85.3 84.3 79.6 75.6 71.1 70.8 72.6 72.4 67.4 71.9 83.1 84.7 79 74.1 72.9 71.4 70.2 70 69.7 67.2 66.3 77 82.7 84.1 81 80.1 82.7 78.9 63.3 66.3 73.2 64.3 54.9 49.3 46.7 45.1 43.8 43.2 42.6 41.9 41.8 41.9 42.8 43.8 44.5 44.8 45.2 45.4 45.9 47.4 57.7 68.3 73.1 69.5 60.5 56.1 54.9 52.7 45 35.9 30.8 30.6 30.5 29.7 29.7 29.9 34.1 34.4 38.1 39.5 38.9 39.4 39.7 39.4 42.6 49.7 59.8 67.5 66 61.1 55 48.4 44.4 42.9 42.5 42.7 42.9 40.8
263.2 281 292.2 296.8 308.9 320.3 328.7 337.6 344.9 354.5 363.3 371.4 378.2 381.8 382.1 380.8 378.5 374.7 370.5 365.3 358.6 352.2 345.4 338.2 333 326.8 319.9 312.8 308.1 302.8 297 290.5 285 278.9 273.8 268.8 262.7 256.3 250.7 244.5 239.3 235 229.6 224 219.4 215.3 211.1 204.6 198.4 194.3 189.5 180.6 171.7 165.3 169.1 168.5 160.4 155.1 149.6 147.3 144.2 140.3 136.2 132.3 129 126.8 123.1 119 115.5 114.1 113.7 113.1 113.5 113.3 116.3 117.9 118.6 119 120 120.1 121 121 120.7 118.4 117.8 115.7 114.6 111.4 105 103.9 101.6 97.8 92.4 88.8 86.6 82.9 80.2 79.3 77.1 75.8 75.3 74 73.7 76.8 77.8 76.7 78.5 77.3 81.1 82.9 77.8 77.5 81.2 81.4 77.1 72.3 68.7 66.1 66.5 66.2 64.4 65.1 68.8 69.9 69.9 65.5 63.7 62.1 61.1 60.3 60.6 61.1 61.2 62.1 61.3 59.6 55.9 57.1 56.3 59.6 56.4 52.7 48.5 46.9 46.2 45.6 44.8 43.9 43.6 43.1 42.8 42.1 42.6 43.3 44.4 45.4 45.3 46.2 46.2 46.3 47.1 51.2 60 73.4 84.2 80.5 74 73.3 74 73.4 69.8 64.3 56.8 55.1 53.4 51.6 55 58.3 56.3 40.1 47.5 52.9 52.7 50.9 49.8 49.6 51.8 55.1 60.9 63.3 60 55.3 50.8 47.2 47.4 48.1 46.6 47 48.1 45.7
263.8 283.5 296.4 302.4 313.4 324 333.1 341 348.6 358.4 370.7 379.8 386.8 387.7 389.2 390.9 390 385.7 380.2 374 366.4 359.3 353.7 346.8 341.5 335.9 329.9 322.7 317.5 311.7 306.7 300.3 294.6 287.5 282.5 276.8 272 265 260 254.3 248.2 242.4 237.3 232.2 225.4 220.3 213.7 207.9 202 194.9 189.8 180 171.9 172.6 176 175.2 168.5 160.9 152.3 147.8 143.4 139.6 136.1 132.8 128.7 125.1 121.9 118.5 116.6 116.4 116 115.9 117.2 117.8 121 123.4 125.3 126.9 127.1 127.2 127.6 127.3 124.1 121.9 120.8 119.8 118.4 116.3 112.9 110.2 107.6 103.7 97.2 94.2 93.4 91.2 86.3 81.3 78.6 76.4 74.6 73.1 72.3 71.2 70.2 70 70 70.2 71.1 75.6 73.3 72.8 74.8 75.6 72.5 69.6 66 63.7 62.3 62 61.7 61.6 64 61.3 58.5 56.6 56.1 53.8 54.9 53.4 54.3 55.1 54.3 53 51.8 50.3 50 49 48.4 48 48 47.2 46.6 46.3 45.6 45.1 44.3 44.2 44.2 43.6 43 43.3 44.8 49.9 58.9 52.3 47.5 47 47.7 47.9 48.3 57.9 66.7 74.7 91.4 93.6 91.5 91.2 90.2 87.5 85.8 85.3 82.4 79.8 79.6 81.8 85.9 83.1 64.1 47.6 64.2 78 74.8 64.5 60.6 63.7 66.7 65.2 64.4 62.5 58.4 54 50.8 49.7 52.8 55.5 56.2 55.2 55.2 51.5
258.5 273.7 291.1 303.6 315.2 327.6 337.9 346.6 354 364.6 377.6 389.6 394.5 398.3 399.1 400.2 398 395.6 390 384.3 376.1 369.6 362.5 357.5 351.4 346.2 340.7 333.9 327.3 321.1 314 308.9 302.6 296.2 291.3 285.4 280.4 274.2 267.4 262.2 256 250.2 243.7 236.9 231.1 223.7 217.6 211.5 205.3 196.5 188.2 180.7 176.5 177.1 179.5 179.8 173.3 159.9 155 150.5 145.1 138.5 137.1 135.3 131.3 125.3 121.1 118.9 118.3 118.6 118.6 120.1 121.2 121.8 124.6 125.4 129.4 130.6 131.7 131.2 130.3 127.3 123.6 121.9 121.1 121.5 120.2 117.8 114.9 113 109.7 105.2 100.9 98.1 98.5 96.8 93.3 87.5 83.4 79.6 76.5 74.6 73.3 71.1 70 68.6 68 67.3 66.9 67.1 66.7 68 68.7 69.9 68 64.1 62.2 61.2 59.9 59.1 58.9 58.4 57.9 56 54.8 54.4 53.9 53.3 53.2 52.3 52.4 51.9 51.4 50.8 50.3 49.9 49.5 48.9 48.4 47.8 47.3 46.9 46.5 46 45.3 45 45.3 44.4 44.8 45.8 46.3 50.9 55.9 62.4 66.3 58.4 51.9 47.6 48.6 49.4 50.5 71 79.1 80.9 98 109.1 109 111 112.1 111 111.4 110.8 109.2 107.3 107.2 107 108.3 96 66.8 55.7 78.3 95.1 86.2 77.8 72.9 81 83.5 73.5 68.8 64.6 60.4 55.4 53.4 53.8 57.9 62.9 66.1 65.6 63.3 60
250.7 264.8 282.5 295.3 310.4 328.5 340.7 350.1 358.3 370.3 385.1 397.9 402.5 406 408 408.7 407.3 404.6 399.2 394.1 387.4 379.2 373.5 367.8 362.9 356.2 349.9 341.5 335 328.1 322.3 316.7 310.2 303.9 297.8 292.8 287.8 282.4 275.5 268.7 263.3 256.7 248 241.3 235.2 227.6 221.3 215.3 208.4 200.6 193.2 186.9 181.9 180.8 185 184 174.9 165.6 158 150.7 145.3 139.7 134.2 131.7 129.9 125.1 122 120.9 121.1 121.5 123.7 126.6 126.8 127.1 123.6 123.7 125.4 128.6 129.1 125.7 122.5 120.8 118.1 118.5 118.7 120 119.2 116.1 112.4 109.4 107.2 103.5 99.7 97.7 97.6 95.7 93.2 90 87.5 83.4 79.9 76.9 74.4 71.8 70.7 69.2 68.6 66.9 65.6 64.8 64.6 64.7 64.4 63.9 62.4 60.9 59.3 58.6 57.9 57 56.6 56.3 56 54.9 54.7 54.5 54.2 53.4 52.8 52.7 52.3 51.8 51.4 50.8 50.3 50.1 49.5 48.9 48.4 47.9 47.6 47.2 46.7 46.3 46.6 47.5 47.7 49.5 51.6 54.6 58.8 63.5 68.4 73 73.5 68 56.5 52.3 49.7 50.5 54.1 88.1 91.6 87.9 105.1 118 122.5 124.8 128.9 130.7 133.2 133.5 132.8 131.7 129.1 122.7 115.2 94.1 66.7 61.5 81.2 105.1 100.1 90.3 91.7 98.6 97.2 82.8 72.4 66.6 61 57.8 57 56.6 60.7 68.1 71.6 70.8 67.7 64.2
274.8 279.8 283.3 294.8 304.8 323.8 342.1 355 364.9 377.4 392 405.3 409.7 414.1 415.7 417.4 415.6 411.3 406.5 402.1 398.3 390.2 384.5 377.4 370.7 363.3 356.5 349.9 343 335.8 329.4 322.7 315.9 309.3 304.2 298.3 292.3 285.2 279.4 272.5 266.8 260.3 253.5 246.6 240.4 233.9 226.2 218.2 211.4 203.5 195.8 189.1 181.5 177.1 182.5 184.8 177.1 167.5 163.3 152.9 147.1 141.7 134.9 128.2 127.6 124 124.4 125.4 127.7 129.6 133.2 134.9 131.7 129 124.9 120.3 118.1 118.9 119.7 116.3 112.5 110.8 109.5 111.1 112.1 114.6 115.6 114 110.4 106 102.9 100.7 97.1 94.2 92.7 91.3 89.5 88.3 86.8 84.1 80.7 77.9 75.2 73.2 72 69.8 69.2 67.4 65.8 64.5 63.7 63.8 62.7 62.2 60.6 59.8 58.5 58.3 57.9 57.3 56.8 56.1 55.7 55.3 54.8 54.4 54.2 53.6 52.8 52.7 52.1 51.7 51.5 51.2 50.3 50.1 50 50.7 50.4 50.5 50.8 53 56 60 61.6 61.7 62.7 62.9 63.9 66.9 70.3 74.7 81.2 86.1 83.9 73.8 59.2 55.4 51 51.6 59.6 92.6 107.4 103.6 111.8 123 131.3 135.4 141.3 145.2 147.1 148.6 147.6 144.1 137.5 126.3 111.8 88.4 65.3 77.7 81.8 98.7 107.8 106 104 104 97.3 84.7 73.5 67 64.1 61.5 60.4 60.2 64.4 70.1 74.9 74 69.2 64.7
307.1 308.4 313.1 322.4 333.6 338.3 344.3 360.8 372.1 382.9 395.4 409.3 416.2 419.8 420.8 422.8 421 416.4 413.4 409.7 404.5 397.9 390.1 385 377.5 370.6 363.8 356.7 348.9 341.3 335 327.2 319.5 312.6 306.7 300.7 294.7 288 282.5 275.4 269.5 263.8 256.4 250 243.9 237 228 220.5 212.2 202.3 195.2 184 177.2 169.9 171.6 177.6 178.2 173.1 164.9 155.5 148.5 141.7 135.8 130 126 126.4 132.9 137.2 140.3 141.1 141.8 141 136.2 130.9 125.9 120.2 114.7 111.2 109 106 103.4 101.2 99.7 99.5 101 103.9 107.3 107.2 105.4 103.7 99.8 98.8 98.5 96.2 92.7 88.3 86.1 85.1 84.1 82.1 79.9 77.4 75 74.3 74.7 71.3 69.3 68 65.8 64.2 63.3 62.6 62 60.8 59.8 59.4 58.7 58.2 57.9 57.7 56.8 56.2 56.2 55.7 55.5 54.6 54.8 54.6 54.9 53.6 54 54.3 53.5 52.5 52.1 52.3 52.7 53.5 53.3 55.5 54.9 57.3 67.5 75.7 79.3 77.6 75.3 73.5 73.6 77.3 81.6 87.2 96.9 102.6 95.5 78.7 62.7 57.6 53.2 53.1 62 95 117.7 114.9 118.6 126.9 136 142.4 150.2 154 158.4 159.3 157.6 154.5 144.7 132.6 109.1 82.8 79.1 99.4 95.5 97.7 104.5 106.3 102.6 97.9 90.8 81.8 73.8 72.2 72.6 68.4 65.4 65.3 67.5 73.3 77.4 76.1 70.2 64.1
331.3 335.3 338.7 343.4 349.1 354.6 359.5 368.1 379.2 388.2 399.5 409.2 419.2 422.9 424.8 425.2 423.3 420.7 417.3 412.8 407.1 401.5 396.1 390.6 382.9 375.3 368.2 361.6 353.8 346.5 338.9 330.3 322 313.6 307.7 302.3 296.4 289.7 284 278.2 271.8 264.7 257.9 252 245.8 238.1 231.6 222 214.9 208.1 198.9 187.1 178.5 171.7 166.5 163.6 170 173.3 168 156.8 148.6 140.4 134.5 129.1 128.8 135.1 143.7 146.7 147.8 147.3 146 139.7 137.4 130.6 124.1 118.4 113.8 108.3 104.1 101.1 98.6 96.3 94.1 93 92.5 92.6 93.6 94.8 96.3 97.4 94.3 92.4 91.3 91.7 90.4 87.6 83.8 82.3 81.5 79.6 78.2 76.2 74.4 73.3 72.5 71.3 69.1 67.9 65.8 63.3 61.8 61.3 61 60.3 60.2 59.6 59.2 58.5 58.7 58.4 57.6 57.3 56.6 57.7 57.9 58 58.5 58.9 59.6 59.2 58.6 58.9 58.1 55.2 55.1 55.8 56 56.6 57.5 59.5 59.8 61.6 75.5 89 98.2 100.3 94.1 91.7 91.6 91.6 94.4 97.9 102.9 105.9 102 84.1 66 59.7 55.1 54 62.8 95.8 120.3 119.2 122 130.5 141.2 150 156.7 161.6 165.2 165.1 162.7 157 145.8 128 99.2 80.5 93.4 110.5 104.9 104.5 105.7 104.4 101.1 95.8 87.4 81.7 79.5 83.6 80.3 75.1 70.7 70.1 71.8 76.4 79.6 76.6 71.3 64.7
345.4 349.9 354.4 358.1 362.1 366.1 372.1 378.1 387.2 395.3 403.2 411.8 419.2 422.7 424.8 426.2 425.2 422.7 418.8 413.8 409.2 404.4 399.7 394.6 388.5 380.6 374 365.5 359.6 349.6 341.3 331.5 323.5 315.6 309.5 304.8 298.3 291.5 285.4 280.2 273.2 265.8 259.4 252.2 246.4 239.6 233.7 226.7 219.9 213.9 205.8 197.4 189.2 180.1 174.6 164.9 154.7 156 154.6 149.3 146.4 138.4 132.5 130.5 133.9 147.6 151 151.5 150.6 148.9 145.5 139.5 133 127.7 122.6 117.3 111.2 105.5 101.6 99.9 97.5 94.5 93.2 91.6 90.5 89.1 88 87 85.9 86.4 86.6 86.1 83.8 83.2 82.8 81.6 80.2 79.4 79 77.8 76.9 75.1 73.2 71.8 70.7 69.7 68.3 66.5 65 62.3 61.7 61.4 60.9 60.5 60.4 62 65.6 62.2 61.5 61.5 62.4 62.4 62.6 63.4 63.7 63.9 64.1 64.6 65.1 64.9 63 66.5 64.3 61 60.6 59.3 59.6 60.7 60.6 60.8 63.1 64.6 77 96.7 110.4 115.4 114.5 110 108.1 107 107.3 110.3 110.4 106.9 99.7 84.9 70.5 61.6 56.4 55.4 61.9 88.2 104.7 111.3 119.1 130.2 142.4 155.2 161.8 166.4 169.1 168.2 163.5 155.3 140.1 122.3 98.4 99.3 94.9 98.8 109.2 111.4 110.3 108 102.4 96 90.6 86.9 85.1 84.3 81.4 78.2 74.7 73.9 76.2 79.4 80.6 77.2 69.8 64
359 363.8 368.4 372.3 374.8 378.8 383.2 389.2 395.8 401.7 408.1 414.3 418.5 421.9 423.6 425 425.1 422.9 419.1 414.5 410.6 406.4 401.7 396.1 390.8 384.2 377.2 369 361.3 352.6 342.6 332.8 325.3 318.7 311.8 305.6 299.2 293.1 287.4 280.8 274.2 268.4 260.5 253.5 247.2 241 235.3 228.5 222.6 217.5 211.1 205.1 196.2 188.6 182.2 175.4 164.6 152.3 144.1 139.4 139 135.2 133.6 134.4 143.4 154.6 154.6 153.2 150.9 146.2 140.3 134.5 127.5 122.2 118.4 115.2 108.5 104.2 100.8 98.6 97.2 95.5 94.5 92.5 91 89.5 87.7 86.5 85.3 84.6 83.5 82.7 81.3 80.5 79.7 78.5 77.6 77.3 76.4 75.7 74.5 73.4 72 70.5 69.1 68.1 67 65 64.1 62.8 62.7 62.5 62.9 67.4 71 71.5 71.7 75.4 76.7 71.7 70.1 69.2 68.9 68.7 69.3 69.6 69.1 70.5 71.7 72.8 69.5 74.6 72.7 69.5 67.3 67.1 62.9 64.3 64.1 64.6 65.6 66.6 73.9 92.9 104.5 114.2 121.9 125.1 121.7 120.4 121.1 123.1 122.7 116.5 105.2 88.4 71 63.3 57.3 56.9 64.6 93.1 111.4 114.3 117.8 128.7 141.1 156.6 165.4 170.1 172.3 169.9 164.7 154.8 140.3 124.6 105.8 112.6 112.3 105.1 111 114.8 113.8 109.7 103.9 96.9 92.2 89.7 88 84.9 83.6 82.6 79.8 78.8 81.5 83.8 81.7 78.7 72.9 66.1
372.4 378 382.5 386.4 388.7 393 396.6 400.1 403.8 407.2 411.8 416 418.4 421.3 422.7 423.5 423.2 421.2 418.1 414.6 410.5 406.5 402.4 396.6 391.1 385.7 378.7 370.4 361.3 353.1 343.9 335.8 327.7 320.7 313.4 306.8 299.5 293.5 287.6 281.8 275.5 268.9 262.3 255.6 250 244 237.7 231.2 225 218.9 212.8 208 199.8 190.4 182.4 175.5 168.4 156.7 146.8 139.3 136.7 135.6 136.3 140.2 151 155.7 154.4 151.6 146.8 141.7 135 129.2 122.8 116.6 112.8 108.9 105.4 102.7 100.7 98.3 97.8 96.8 95.5 94.4 92.8 91.1 89.5 88 86.3 85.8 85.1 83.3 82.2 80.7 78.6 77.2 76.5 75.9 75 74 72.8 71.6 70.4 69.4 68 66.9 65.3 64.2 63.9 63.6 63.6 65.3 70.1 74.6 83.6 81.3 80.9 86.3 93.1 87.6 82.9 78.8 77 77 76.2 75.3 74.6 75.7 77.5 81.6 82.8 80.9 84.2 80.7 77.6 76.3 69.4 68.6 69.2 70.1 69.5 71 72.5 77.8 89 101.4 109.8 120.2 128.5 128.9 130.1 130.1 129.8 126.2 116.2 96.4 76.1 65.7 59.3 58.1 66.8 96.2 116 124.1 119.4 125.2 137.4 152.1 163.3 170.1 173.5 171 165.2 153.8 139.7 122.8 112.4 118.5 119.3 114 112.4 115.7 115.2 112.9 106.5 103.5 96.9 92.4 90.3 89.4 89.2 86.7 84.6 84.1 87.3 88.3 85.7 80.4 74.1 67.3
387.5 391.5 395 399.1 403.2 405 407.4 409.1 410.3 412 415.1 417.7 419.3 420.5 420.9 421 420.4 418.5 415.8 412.8 409.2 405.6 401.6 396.5 391 385.6 378.9 370.8 361.9 353.1 345.3 336.5 328.3 320.9 313.6 306.6 299.8 293 287.6 281.3 276.1 269 262.6 256.2 251.4 245.7 239.6 233.3 228.2 221.5 214.7 207.3 199.9 192 183 175.1 167.2 156.1 144.3 138.6 137.2 137.1 140 145.5 151.3 153.4 150.6 147.1 142.4 137.3 131.5 127 120.8 115.9 111.8 107.9 104.6 102.3 100.7 100.6 100.1 99.1 98 97.3 95.9 94.1 92.8 91.4 89.6 87.3 86.5 85.6 84 82.9 81.3 79.5 76.6 74.9 74.4 73.5 72.4 71 69.6 68.7 66.8 65.5 65.5 64.5 64.7 64.7 65.6 71 80 98.1 102.9 101.5 98.4 94.7 103.7 107.6 104.8 93.5 85.7 82.8 83.1 85.4 83.6 84.8 87.3 90.9 92.4 91.5 92 88.4 85.1 82.7 77.3 74.7 74.9 75.3 74.7 75 76.4 79 83.6 93.2 101.5 110.9 121.5 129.1 132.9 134.1 132.4 130 121.7 104.4 82.9 69.2 61.5 59.8 61.5 77.5 93.7 105.5 112.9 118.9 129.3 142 154.8 163.1 167.9 167.4 157.6 147.4 135.1 127.3 124.5 125.3 125.4 122.3 118.1 119.5 121.4 119.5 115.7 113.5 107.9 101 94.5 97.2 95.4 92.2 90.2 91.4 93.8 93.4 89.1 83.3 74.9 68.1
399.7 405.2 408.3 410.9 413 416.1 415.7 416.1 416.4 418.4 419 420.1 420.4 419.3 417.9 417.5 416.8 414.9 412.4 409.3 406.3 403.1 399.6 395.9 389.8 384.5 379.1 371.8 364.4 354.6 346 337 327.8 319.7 313.2 306.5 298.5 292.1 286.6 280.7 275 268.9 262.1 257 251.2 246.1 240.4 234.4 229.3 223.5 216.7 207.9 198.2 190.1 181 171.9 163.6 150.5 141.5 143.9 145.7 144.3 143.5 148.5 152.1 150.8 146.9 143 138.2 133.4 128.9 122.9 118.1 114.1 110.9 108.9 105 102.7 102.2 102.3 102.7 102 101.3 100.2 98.7 97.1 95.5 93 90.4 88.3 85.8 84.3 83 81.2 79.4 77.9 76.1 75.3 74.5 72.8 71.9 70.6 69.2 69 67.5 65.7 65.2 64.7 65.3 66.2 67.4 77.9 91.2 105.4 114.1 116.4 112.9 107.3 111.1 113.2 110.8 99.6 92.4 90.1 91.6 94.7 99.5 102.5 99.3 100.6 100.2 100.1 98.9 94.8 91.3 85.4 82.1 80.6 80.8 80.6 79.3 79.7 81.2 84.7 87.3 90.6 97.1 104.9 112.4 118.7 126.5 131.2 132.6 130.2 121.7 104.1 84.9 68.6 62.2 61.3 64 75.6 81.7 89.2 98.5 110.4 117.4 130.2 142.3 153.5 162.7 166 160.2 153.4 145.4 137.5 134 132.7 132.3 129.6 125.2 125.3 126.3 126.1 126.1 121.5 113.2 106.3 104.7 103.6 101.1 97.6 96.4 99 100.4 98.1 93 85.3 77 70.5
413.3 416.8 419.1 419.5 421.7 422.1 422.9 422.4 422.5 422.5 421.7 421 420.2 417.2 415.5 413.9 412.4 410.3 408 404.5 401.4 398.6 395.8 392.5 387.9 382.9 377.1 370.2 362.4 354.4 346 336.3 327.1 317.1 310.5 303.4 296.8 291.9 286.4 281.1 275.4 269 262.5 256.3 250.9 245.5 240.6 234.9 227.9 222.3 216.6 208 196 185.5 175.4 165.4 156.5 144.1 146.8 155.2 156.8 153.3 149.5 152.2 153 149.2 146 141.4 135.9 131.5 127.2 121.4 116.4 111.8 109 107.3 104.9 104.7 103.8 104.5 104.3 104.2 103.7 102.7 101.2 98.4 95.6 93.7 91.9 90.3 87.2 84.5 82.4 81.3 80.8 78.6 77.2 75.8 73.7 72.2 71 71.2 69.1 68 67.4 66.3 65.7 65.9 65.9 66.8 68.6 79.3 95 106.1 116.6 122.6 119.4 113.4 113.7 116.2 118.1 110.5 102.5 101.3 105.2 110 117.2 120.1 117.2 113.8 112.1 110.5 108.5 104 90.9 89.8 87.8 88.1 86.8 85.6 84.5 85.5 88.5 92.4 95.5 98.3 101.3 102.6 110 115.2 119.7 122.8 124.6 126 114.3 95.2 74.3 67.4 63.5 62.8 67.8 90.8 103.9 102.3 98.5 104.7 114.6 128.4 141.3 153.9 163.2 170 173.5 170.6 160.6 152.7 147.3 142.8 141.5 140.2 136.3 133.2 133 132.2 130.8 123.3 120.4 116.2 112.3 109.6 107.2 104.4 104.3 106.2 108.5 102.2 96.8 88.1 81 72.1
423.7 425.9 426.4 426.4 428.4 429.7 430.9 430.5 428.2 426.3 423.2 421.8 419.4 414.4 411.5 409.3 407.6 405.6 402.8 399.4 395.8 393.4 391.2 388.3 384.1 380.1 374.2 367.4 359.7 353.1 344.8 335.3 326 314.5 306.4 300.6 295 289.5 283.8 278.1 272.9 266.9 261.3 255.4 250.3 245.5 240.5 235.2 229 221.6 215.3 206.2 192.6 178.9 167.3 159 150.7 147.3 157.9 167.1 167.2 161 156.4 151.8 154.6 151.3 146.6 141.8 136.9 132.6 128.1 122.3 117.1 113.6 110.9 107.7 106.3 106.1 105.9 106.4 106.3 106.5 106.6 105.8 103.1 99.5 99.1 97.7 95.8 93 89.7 88.1 86.7 84.9 82.8 80.6 78.6 76.7 74.4 75.4 75.5 75 74 73.5 71.3 66.8 66.3 66.7 66.9 67.9 69 73.5 88.9 103.2 117.7 124.9 121.5 117 115.7 117.8 121.9 120.5 114.7 113.3 119.6 124.2 132.1 136.5 133.4 129.5 127.2 125 121.2 111.1 98.4 95.4 94.2 94.4 92.8 92.4 93.6 96.3 99 103.1 105.7 105.7 107.1 107.7 109.7 114.6 118 118.8 115.5 111 97.2 80 76 73 66 64.4 67.8 89.6 109 115.6 113.1 116.8 122.3 132.7 146.2 156.8 168 174.6 180 178.2 174.6 171.3 169.4 161.5 152.1 149.8 147.1 144.3 140.9 137.8 134.9 132.2 129.9 123.8 119.6 117.2 114.5 112.3 113 113.6 110.9 105 99.1 90.7 82.5 70.7
435 437.2 437.1 435.1 435.6 436.4 436.3 434.8 432.1 429.3 426.5 422.2 416.7 411.5 408.3 404.9 403 400.5 397.5 394 390.3 388.6 386.2 383.8 380.4 376.9 370.5 364.3 355.8 350.6 341.1 332 323.9 311.2 302.6 296.4 291.2 285.7 280.1 275.6 270.1 265.2 260.3 255.3 250.8 245.6 240.1 234.7 228.2 221.4 213.3 201.8 188.3 175 161.6 151.7 148.6 156.9 167.8 174.3 174.4 171.2 163.9 157.7 158.6 152.2 147.7 142.6 136.1 132 127.2 122 119.4 116.1 112.6 109.7 108.1 107.9 107.5 108.7 109.1 109.5 109.9 109.4 106.2 103 102.7 102 99.6 96.8 95.1 92.2 89.4 87.3 85.6 82.6 79.5 76.7 77.2 79.4 80.3 80.3 79.1 75.6 69.3 67.3 67.2 67.3 68.3 69 70 70.7 80.8 93.4 110.6 124.1 120.9 118 118 120.5 123.8 128.7 125.9 125.2 128.9 133.6 139.8 143.8 145.1 144 143.4 140.9 132.1 118.7 106 101.5 101.7 100.5 98.4 101 107.1 113.9 117.4 118.9 116.9 113.3 111.8 111.8 112.4 115.2 116.6 115.3 111.2 100.2 84.5 85 91.2 90.4 75 66.8 66.7 70.9 87.1 102.5 110 119 131 137.4 147.8 159.1 170.6 178.7 185.2 185.9 184.3 181.7 180.7 175.9 164.8 160.4 162.9 158.8 148.8 145.7 143.1 139 135 130.9 127.6 123.8 121.4 119 118.1 117.5 113.9 108.4 100.3 91.2 83.3 70.2
445.3 446.9 447.1 445.1 442.8 442.3 440.7 438.5 435 431.7 427.5 421.5 414.9 409.5 405.2 401.2 398.4 395.4 391.9 388.4 384.6 383 381.2 379 376.3 372.8 366.6 359.9 352.1 344.4 336.2 328 320 310.7 298.7 289.4 286 280.6 274.6 270.1 266.3 262 257.9 253.7 249.5 244.2 238.8 232.8 226.3 219.5 207 191 179 168.3 154.2 150.8 157.1 165.6 176.5 181.2 180.8 177.4 172.5 164.6 159.5 153.8 149.1 142.3 136.2 131.5 127.7 124.8 121.1 117.3 113.6 110.7 110.1 110 108.9 113.8 114 114.6 116.4 114 108.9 106.4 105.7 103.9 100.2 98.1 95.7 92.8 90.1 87.3 84.4 81.6 78.8 78 80.9 84.5 86 83.6 78.6 70 68.7 68.2 68.1 68.7 70 70.3 71.7 71.4 73.9 87.1 101.6 116.3 118.7 119.4 120.6 122.7 127.3 131.8 133.8 134.4 137.9 141.1 146.3 148 150.3 151.2 150.7 148.2 140.9 127 114.5 109.6 108.9 107.6 106.3 112.4 120.1 127.8 130.5 130.2 125.5 120.1 116.9 116.3 115.4 115.5 115.5 113.7 105.2 92.1 92.4 100.4 104.2 101.3 83.2 69.8 69.2 68.6 70.4 75.6 88.6 102.7 120 131.6 139.2 152.5 170.2 182.3 188.9 191.4 191.7 190.6 188.9 187.2 183.3 176.7 175.6 170.7 159.4 154.3 150.2 147 143.4 139.3 134.1 130.3 126.6 124.2 122.6 120 116.1 109.5 100.5 91 82.2 77.5
453 454.8 454.7 453.8 450.2 447.3 444.7 441.3 436.8 433.2 428.1 420.5 414.6 408.3 403.4 399 394.5 390.4 386.9 381.8 378.5 377 373.9 371.9 370 367.8 362.3 355.6 348.1 338 330.2 322.9 316.3 307.7 295.5 285.4 278.4 272.1 267.1 262.2 258.8 256.3 254.1 250.6 246.9 241.6 235.9 229.5 223.2 214.5 196.3 179.6 167.3 156 151.9 159.6 166.6 176.6 183.7 187 185.1 181.6 175 167.7 162.4 156.3 150.6 145.3 138.6 133.9 130.4 126.9 122.4 118 115.4 113.2 112.1 111.9 112.7 117.5 120.6 120.8 121.3 117.3 113.3 109.8 107.7 105.3 100.7 96.3 93.3 89.7 86.7 84.5 82 80.7 79.2 78.6 79.7 82.2 82.5 79.5 71.8 70 68.7 68.7 68.9 70 71 71.1 72.7 72.4 72.9 77.8 91.5 106.9 116.1 120.6 124.8 129.3 131.4 132.6 136.2 138.7 142 145.9 150.9 152.9 155.1 156.5 155.6 152.1 143.8 130.5 119.7 118.7 117.8 116 118.2 122.6 129 133.3 136.6 135.7 132.5 127.4 123.4 120.7 119.5 118.2 116.9 113.2 98 99.6 108.1 113.6 114.7 105.2 89 73.8 73.1 73.2 71.4 72.4 74.7 82.6 94.2 105.8 115.1 129.4 149.5 172.5 191.3 195.5 198 198.9 197.3 194.3 192 188 183.5 181.3 175.2 165.7 154.8 151.4 149.2 146.5 142.1 138.6 134.8 129.3 126.4 124.4 119.7 110.4 99.5 90.6 82.3 82.1
460.2 461.2 460.7 458.1 454.6 450.7 447.3 443.1 438.4 434.1 427.7 420 413.8 408 402.2 395.9 390.8 386.1 380.5 374.7 370.8 367.8 366 364.7 362.5 360 357 349.7 341.9 332.2 325.4 316.5 310.3 301.4 293.3 281.3 271.7 264.2 259.3 253.1 248.9 246.4 243.1 241.1 241.5 238.1 232.3 224.8 218.1 206 186.9 168.6 157.4 157.3 164.9 173.4 180.5 187.7 191.9 192.6 189.8 185.2 178.3 170.5 162.5 156.7 151.7 148.2 142 136.6 133.2 130 124.2 120.2 119.4 116.6 114.6 114.3 118.5 122.2 126.2 126.7 123.2 119.4 115.3 112.2 108.5 103.9 97.6 93.7 90.1 87.8 85.5 84.3 83.3 80.6 79.1 77.8 77.8 78 75.3 73.9 71.4 70.1 69.6 69.9 69.8 70.4 71.1 71.8 72 74 74.3 74.8 85.2 103.7 118.7 121.7 120 123.8 129.2 133.7 138.5 142.7 146 150.9 155.8 158.3 159.8 161 159.5 155.4 147.8 134.7 126 130.3 128.3 126.4 127.1 131.4 134.5 138.4 141.2 142.2 139.9 136.9 133 128 123.5 121.3 118.5 113.9 103.3 114.9 116.8 117.5 118.6 110.2 93.7 76.7 80.6 88.2 87.8 83.1 77.5 76.5 78.4 80.5 88.4 98.6 121 146.6 175.3 194.2 203.1 204.4 203.2 201.5 198.5 195.5 192.3 187.9 182.8 176.8 163.9 158.9 157 156.4 155.3 153.8 149.8 140.7 132.9 127.6 120.3 111.6 104.6 94.8 89.3 88.5
465.9 466.2 464.5 461 457 452.6 448.8 444.3 439.6 433.8 427.4 420.1 413.5 407.5 401.2 394.2 387.4 382.5 367.9 359.9 356 358.1 358.2 357.1 355 352 347.8 343.1 335.7 326.7 318.6 310.2 303.1 297 289.5 274.9 266.1 257.8 249.5 242.4 238.5 234.2 231.8 232.1 232.5 231.7 227.7 219.3 207.9 195.1 177 162 160.9 168.7 180.6 188.6 194.2 197.5 199 198.1 194.8 190.5 184.2 175.5 165.6 157.1 154 150.6 145.6 140.4 137.1 133.2 128.3 126.8 124.4 120.1 116.3 116.9 122.9 128.2 131.1 127.5 121.5 116 111.8 109.1 105 99.6 96.2 94.3 92.2 89.6 87.5 86 85 82.7 80.2 77.8 77 75.7 74.1 72.2 71.6 70.6 70.1 72.1 71.3 72.6 73 73.5 74 73.2 74.4 75.6 80.2 97.1 112 107.3 114.8 124.1 130.8 136.2 142.1 146.7 151.8 157.3 160.3 163 163.5 163.2 161.6 159.2 152.1 141.2 138.3 139.3 137.9 137.6 137.2 138.6 140.7 144.1 146.2 148.1 147 146.2 144.3 139.8 129.7 125.5 122.8 118.3 108.7 123.7 126.3 125.8 124.3 120 97.2 80.5 86.5 100.4 103.4 101.3 97.5 97.1 91.6 85.3 81.9 84.3 101.1 122.7 152.6 183.1 201.4 207.4 207.6 206 204.7 201.9 197.7 193.2 188.2 182.6 173 167.4 166 165.7 166.2 163.9 160.4 151.7 140.7 133.6 127.1 119.5 108.8 101.4 96.2 94.3
469.1 469 466.5 462.1 458.4 454.3 450 444.8 439.9 433.6 427.1 420.4 413.8 407.4 400.1 395.1 388.2 376.3 363.2 357.7 342.3 337.2 346.5 347.2 345.6 343.9 338.9 333.1 326.9 317.3 310.4 304.1 296.2 289.3 282.8 268.7 259.3 249.3 242.2 233.6 225.6 220.9 220.1 219.7 219.1 221.6 220.1 214.5 204.7 186.5 170.2 162.8 168.2 183 196.4 201.8 203.6 204.2 204.8 202.7 199.5 194.2 188.4 179.5 169.5 161.3 157.9 155.4 150.2 145.2 141.5 137.2 131.6 131.2 126.3 120.1 118.5 120.2 125 132.3 130.5 125.5 119.6 114 109.8 105.3 101.7 100.5 101.8 98.9 93.4 92.8 91.5 91.1 91.3 89 85.9 84.5 78.8 78.4 78.2 72.6 72.2 70.8 71.8 74.3 75.2 75.6 76.6 77.6 76.6 78.5 79.1 76.2 77.7 88.6 93.2 108.7 127.1 134.1 138.9 144.1 148.9 153.5 158.7 162.3 164.2 166.1 166.3 165.4 163.7 162.5 158.5 150.4 147.3 148.9 148.9 147.3 146.2 146.3 148.8 150.2 152.1 153.6 153.4 153.3 152.8 150.7 140.6 131.6 126.6 120.2 113.4 129.5 131.9 131.2 130.2 126.2 101.2 84.9 87.9 109.2 120.9 120.5 121.2 120.7 116.1 108.5 98.1 88.5 86.4 108.6 133.4 162.5 187.1 206.4 210.4 209.7 208.7 206.4 202.4 197.4 192.4 188.4 183.9 177.8 174.2 173 172.2 171.6 168.3 161 152.1 147.4 139.5 129.5 120.8 113.3 105.5 99.6
470.1 469.4 467 463.7 459.3 455.4 450.6 445.4 440 435.3 428.8 422.2 415.6 409 403.3 397.7 391.6 384.9 378.6 369.8 358.2 333.4 324.5 333.9 336.5 334.2 330.2 325 318.4 310.9 303.3 296.6 288.7 281.7 273.5 258.9 249.9 241.6 232.1 222.1 213.2 208.5 205.5 205.9 206.3 208.8 208.4 205.1 196.3 180.1 166.4 166.8 181.7 196.7 206.7 209.6 209.9 209.4 208 204.6 201.6 196.4 189.9 182.8 174.4 167.2 165 161.7 155.9 151.3 146 141.3 138 133.9 126.4 121.1 120.4 122.6 126.4 131.3 129.5 124.7 118.7 112.9 109.7 106.2 103.9 102.4 100 97.3 102.1 102.1 100.3 99.8 97.5 95.6 91.5 90.5 87.6 81.4 74 73 72.8 72.8 75.7 79.5 81.5 81.4 81.1 82.3 83 84.6 84.4 77.8 77.9 82.8 95.7 110.7 133.7 141.4 146.5 152.3 156.8 160.8 164.5 166.9 167.7 168.7 169 168.4 167 165.7 163.7 155.8 157.2 157.7 155.3 152.6 153 154.1 155.2 156.1 157.4 158.5 158.2 157.7 157.1 155.8 148.7 138.4 130.7 119.2 122.3 132.4 135.1 134.4 133.7 130.4 108.6 89.9 88.1 112 127.2 132.7 134.5 136.2 135.2 130.3 115.7 101.5 88.2 98 122.9 146.4 174.7 200.3 207.1 208.4 209 208 204.6 199.4 195.1 190.9 187.7 183.7 180.5 178.2 177.6 177 175.7 169.4 164 158.3 149.2 139 131.5 122.6 115.6 106.5
469.9 469 466.5 463.2 459.8 455.6 451 446.3 441.7 436.4 430.8 424.8 418.3 412 406.4 400.3 395 389.4 382.8 374.5 365.7 352.5 332 309.9 322.2 323.5 321.8 317 310.2 304.8 294.7 286.3 278.7 271.1 257.6 245.2 235.5 227.9 218.7 209.1 200.5 195 191.1 189 188 191.9 191.6 191.8 185.7 171.2 168 180.7 197.2 209.7 213.8 214.8 214 212.2 208.9 205.6 201.8 196.8 192.8 186.9 180.9 174.5 170.7 167.6 161.6 157.6 152.3 147 143.1 138 127.7 124.8 123.3 128.5 130.7 131.9 129.2 123 118.8 116.4 114.8 109.6 106.8 105.5 103.6 104.6 109.1 108.9 107.8 107.3 106.8 104.3 99.1 95.6 84.3 75.1 73.8 73.2 74.8 79.3 83.5 86.3 88 89.2 87.7 87.3 88.1 89.2 88.2 80.5 78.5 82.5 97.2 118.1 136.4 145.3 152.6 157 161.1 164.8 168 169.9 171.5 172.4 172.8 171.4 170.1 168.8 167.6 162 164.3 165.2 163.4 161.5 161.9 160.3 160.5 161.5 161.5 162 161.5 160.4 159.7 158.2 151.1 138.3 129 130.3 126.5 135.1 137.8 137 135.8 134.3 115.8 93.6 90.5 113.7 132.9 140.5 140.5 141.7 142.9 141.4 135.8 118.6 91.6 91.4 114.9 138 166 189.8 196.6 199.8 201.8 204.1 203.4 199.5 196.2 193.3 189.4 186.2 184.3 182.8 182.6 182.6 183.4 178.2 171.5 167.3 158.8 148.4 139 129.7 122.7 113.9
