ncols 200
nrows 94
xllcorner 320000
yllcorner 485050
cellsize 50
87.5 113.8 125.4 136.2 143.8 147 139.9 138.9 141.2 149.5 155.2 153.3 157.3 165.6 173 175.2 159.3 135.3 114 93.4 66 43.3 26.8 13.9 11 11.1 11.3 11.6 12 12 14.7 21.1 33 40.9 49.3 60.4 73.1 86.2 97.4 105.5 107.4 107.7 106.4 105.5 110.2 119 130.3 141.4 147 147.7 148.7 141.1 123.5 110.9 104.1 97.1 92.7 93.5 90.9 94.9 93.9 82 64.7 66.4 69.5 69.9 70.5 70.7 66.1 58.6 58.8 47.2 35.1 24.6 16.2 11.3 10.2 10 10.1 10.4 10.6 10.5 10.6 10.6 11.2 11.9 11.9 14.4 17.3 18.1 20 24.8 27.1 27.2 27.2 24 19 19.1 23.1 31 37.3 40.3 43 47 47.9 54.6 63.5 67 61.6 57.8 61.4 62.7 61 58.7 62.4 66.2 69.3 70.2 72.4 78.3 81.1 83 88.4 87.4 92.3 98.7 102.3 109.8 118.9 128.9 142.7 149.1 161.5 165.9 180.4 192.3 198.1 200.1 198.6 200.7 203.7 207.4 208 205.5 198.3 197.4 197.6 182 172.3 175.7 170.3 162.8 155.6 147.8 137.9 135 137.1 146 156.5 167.4 172.2 170.4 163 153 140.2 129 122.1 114.5 113.3 110.8 107.6 109.9 101.9 89.1 71.2 63.5 58 52 46.7 44.9 46.5 44.5 43.2 43.4 44.8 45.2 46.8 49.6 54.9 77.8 101 111.3 110.3 108.3 132.8 166.7 181.3 185.7 187.1 184.5
82.1 101.1 120.4 136.1 142.6 150.6 149.9 144.2 141.9 141.6 151.6 154.6 157 162.7 162.3 149.8 127 102.5 85 66.8 49.3 34.2 20.5 11.7 10.4 10.6 10.9 11 11.7 11.9 15.5 24.4 32.6 39.7 48.3 61.3 78.9 95.1 103.8 110 111 108.1 105.1 105.5 111.1 121.6 133.5 143.1 144.9 147.4 144.4 128.2 116.1 107.2 100 93.8 89.3 90.6 87.6 84.8 79.5 67.9 59.4 67.2 66.7 66.8 68.2 65.7 58.1 51.3 43.7 33.4 23.2 16.7 11.7 9.4 9.6 9.3 9.5 9.8 10.1 10.3 10.4 10.5 11 11.5 12.5 15.2 17.2 19.9 23.7 26.8 27.2 25.8 26.5 22.3 19.9 19.8 24.7 33.1 38.2 41.3 43.7 44.6 49.1 53.7 58.4 53 49.9 58.3 60.6 57.4 55.4 56.2 59.7 64.7 68.1 72.3 78.3 84.4 89.7 94.1 104.5 102.4 103.2 109.2 117.3 127.2 133.7 134.9 145.4 147.1 149.3 159.7 177.3 182.3 186.3 187.2 188.4 188.6 193.5 200.2 201.3 199.2 200.2 207.6 210.8 191.1 176.8 178.2 169.6 163 153.4 144 137 133.6 138.8 149.1 157.2 171.5 171.6 169.8 162.9 150.7 140 128.6 116.9 118.4 121 118.5 115.3 119 107.6 90.1 77.2 66.1 57.3 50.6 46.5 44.7 44.6 44.5 43.2 43.6 44.8 45.3 46.3 47.3 51 64.2 82.4 91.7 95.2 101.9 111.5 131.2 144.2 152.7 160.6 166.7
77.5 94.2 113.2 126.8 136.8 145.7 152.1 147.3 151.7 146.9 146.9 153.5 158.5 156.8 148.5 128.8 104.5 83.1 66.3 51 39.2 28.8 17.1 10.3 10 10.3 10.6 10.7 10.9 11.3 14.1 24 30.6 38.8 48.9 67.1 88.6 101.8 107.2 112.6 110.2 105.9 104.3 105.1 109.8 119.8 133.2 138.9 143.6 142.4 130.2 121.7 110.2 100 93.7 92.2 84.6 83.9 81.2 77.1 65.9 60 52.5 60.5 62.3 65.5 65 55.1 42.8 40.7 31.4 21.6 15.4 11.6 8.8 8.6 8.8 8.8 9 9.3 9.7 9.3 10.2 10.4 10.7 11.1 12.7 14.9 19.3 26 28.5 30.2 28.6 25.9 24.1 19.5 18.9 22 29.3 35.8 38.2 39.3 40.5 42.2 47.9 50.8 46.9 42.7 48.2 53.8 52.7 51.6 51 53.6 59.5 65.7 72.5 81 87.4 95.3 99.7 101.8 110.2 119.9 121 124.4 132.7 140.3 144.2 146.5 143.6 144.6 149.2 158.2 169.4 171.3 176.9 180.2 181.8 183.3 186.6 195.2 196.4 198.7 207.2 218.2 214.3 191 179.1 177.7 170.4 161.3 151.3 137.9 135.6 132.5 146.6 157.1 159.9 160.4 165.9 173.6 160 152.3 136 129.9 129.5 130.1 129.8 127.8 124.5 121.8 104.5 95.1 85.2 70.8 53.9 47.6 45 44.9 45.1 47.2 43.8 43.7 44.9 45.5 46.4 47.4 49.2 51.4 62.9 80 85.2 88.3 95.4 110.8 126.8 136.3 147.6 156.5
75.2 86 100.6 118.7 139.8 151.9 156.3 156 156.5 156.6 153.2 153.7 155.8 148 134.7 106.6 86.4 69.1 54 42.7 32.5 22.8 13.6 9.4 9.7 10 10.3 10.4 10.6 10.6 13.7 20.5 28.8 39.4 53.7 76 96.8 104.6 106.4 108.8 108.1 104.5 104 104.7 109.5 119.3 130.6 135.4 137.2 131.2 122.5 113.8 104.9 96.1 92.6 87.1 80.9 77.2 73.3 63.5 58.6 53.7 47 55.3 61.3 61.8 54.5 38.6 34.8 28.4 20.6 14 11.6 10.1 8.2 8.1 8.1 8.5 9 9.4 8.1 10.4 10 10.3 11.5 12.6 13.9 18.3 25.9 31.2 32.4 33.3 30.6 27.4 22.6 19.5 19.7 24.9 33.2 35.9 35.6 36 37.5 38.6 40.8 39.9 38.9 42.1 46.9 46.1 45.5 47.4 48.4 53.6 63 73.9 84.6 87.8 96.5 104 109.1 112.1 119.3 129.8 138.2 144.9 148.5 155.4 155.1 151.2 150 154.7 154.1 155.6 160.6 166.1 171.3 173.6 176.5 178.9 182.8 188.8 194.8 196.6 212.7 214.1 206.8 185.7 175.6 171 163 155.5 144 135.5 130.6 130.7 138.1 147.7 152.9 153.7 159.4 169.4 160.1 146.7 133 131.2 133.2 133.8 134.1 127.9 121.4 116.9 105.7 98.8 91.7 70.1 53.2 45.9 44.8 44.9 49.9 49.3 45.8 43.9 43.9 45.2 46.6 48.3 49.6 50.8 53.2 59 67.1 75.1 86.4 101.6 119 134.8 147.2 158.9
73.2 82.7 95.8 114.3 139.3 156.3 164.6 164.3 160.1 162 166.6 165.7 159.4 147.3 128.9 102.2 76.7 60.5 48 39.9 26.2 13.9 9.4 9.2 9.2 9.4 9.8 9.9 10.4 11 12.8 19.5 29.9 42.7 59.6 82.7 98.4 103.5 108.4 108.9 108 104.8 104 104.8 109.8 119.7 123.7 124.6 127.4 124.3 115.6 104.9 97.2 94.3 88.8 83.9 75.6 71.8 61 57.8 52.3 45.1 42.6 57.3 58.6 49.9 32.8 26.7 22.4 16.7 12.8 10.5 8.5 7.6 7.6 7.8 8.1 8.4 8.9 8.8 9.3 9.5 9.7 11.8 14.3 15.6 18.7 25.4 33.1 35.6 34.9 34.3 31.2 27.6 23.7 20.5 21.1 27 31.2 32.3 33.5 34.3 35.1 35.4 35.9 37.4 37.5 39.7 40.7 40.5 43 45.4 52.4 65.7 79.5 85.6 93.1 95.1 102.4 107.5 112.9 123.1 133.2 142.2 153.9 157.4 164.9 168.5 160.3 157 162.8 162 159.6 158.7 160.3 159.3 161.6 163.6 169 173.4 176.4 184.5 192 197.1 207.9 203 194.1 173.7 166.9 161 156.4 148.6 136.8 141.3 128.1 126.7 129.4 136.9 140.7 143.7 154.1 162.8 153.2 138.1 130.4 125.7 130.3 137.8 131.5 120.4 117 118.5 113.1 104.8 95.2 78.9 55.4 46.8 44.9 48.2 49.4 50.3 51 43.5 44.2 46.3 47.6 49.6 50.1 51.2 52.8 58.7 69.9 79.8 94.8 113.9 134.4 153.6 166 175.8
73.4 83.2 96.7 116.2 149.7 164.4 168.1 167.2 167.4 163.4 165.6 164.1 160.2 137.2 116.9 94 68.9 55 40.4 27.9 21.1 11.5 8.3 8.7 8.8 8.9 9.2 9.6 10.1 10.6 11.7 19.7 30.8 42.6 62.1 86.1 96.1 103.8 110.1 110.1 108.1 105.9 104.5 104.4 109.1 112.4 117.3 123.2 123.5 116.1 103.7 98.9 93.8 88.5 86.2 81.2 71.2 62.2 54 50 42.5 39.9 42 51.9 45.8 32.7 26.4 20.2 13.5 10.6 9 7.8 7.2 7.5 7.6 7.9 8.2 8.5 8.7 8.6 9.1 9.6 10.3 14.8 18.9 23.7 27.8 33.3 37 38.7 36.8 34.4 30.3 26 26.1 24.3 20.6 24.7 27.2 28.7 30.8 30.3 31.5 34 36.2 36.5 36.2 36.3 37.8 39.2 43.3 51.6 65.6 78.4 86.7 94.8 99 101.4 102.8 112.3 124.4 136.8 143.4 154.7 165.1 165.3 170.9 170.2 170.6 174.5 172.8 168.2 163.6 160.9 159.7 157.7 155.4 160.3 168.7 165.6 168.2 180.3 190.2 199.5 196.4 190.8 174.6 158.9 155.1 152.6 147.4 139.7 137.7 135.3 123.8 118.4 119.9 126.5 128.7 137.2 148.2 156.9 148 130.7 122.1 118.2 123.3 139.2 126.5 113.7 113.1 123.3 117.8 110.3 100.7 88.8 64.1 50.8 44.7 48.9 50.6 49.8 50 44.8 46.8 49.7 49.6 50.3 50.3 51.8 53.8 60.3 69.9 83.5 100.9 121 142.9 162.6 177.9 187.3
78.1 85.3 97 117 144 164.9 165.2 163.7 169.6 165.9 161.6 160.8 153.1 130.8 107.4 82.5 62.3 49.3 35 24.4 18 10.6 8.3 8.4 8.4 8.5 8.7 9 9.4 10.1 14.2 22.2 32.2 46.4 66.8 85.6 95.2 103.7 109 109.5 107.8 105.2 104.2 104.3 107.3 113.5 118 121.5 115.1 105.6 98.2 93.5 89.8 85.5 83.1 75.7 65.2 56.3 45.9 39.9 37.1 35.4 37.6 36.8 30.1 27.6 21.3 12.7 7.7 7.2 6.9 6.9 7 7.7 6.7 7.1 8.3 8.5 8.3 10.4 13.2 13.8 14.4 18.7 28.7 34.1 36.7 40.3 36.4 34.3 33.8 34 31.5 28.7 29.7 25.8 20.2 25.4 26.3 25.2 26.8 29 32.3 35.2 35.7 35.4 34.5 35.9 37.6 43.1 50.2 61.1 76.1 86.4 96.2 98.4 99.9 104 112.4 119.4 135.3 143.8 152 159.1 164.4 165.8 171.3 181.6 183.5 186.4 180.1 172.5 169.4 163.9 157.2 153.4 154.5 157.1 160.3 158.8 163.6 176.2 185.6 185.7 189.3 178.9 157.9 143 144.8 146.6 140.6 132.3 135.8 127.1 115.9 111.4 112.4 118 122.9 127.1 135.3 140.7 138 122.8 115.3 112.1 118.5 135.9 134.3 109.8 103.7 115.3 104.4 97.9 99.6 83.3 59.2 47.6 44.7 46.7 49.6 50.1 48.2 44 44 47.1 46.7 48.5 49.5 51.5 55.1 61.9 73.7 88.9 108.4 130.5 149.9 166.4 179.6 189
81.2 87.2 95.8 115.5 136.3 151.3 156.8 160.8 167.6 168.6 163.4 155.9 146.1 120.8 96.4 75.1 55.6 43.5 34.4 23.7 15.7 10.3 8.3 8.2 8.1 8.1 8.3 8.6 9.7 10.1 15.8 25.8 39.1 52.5 70.7 85.9 94.5 102 106 107.3 105.8 104.2 102.7 101.6 108 118.4 116.6 114 107.9 99.2 94.1 91.1 86.9 84.3 79.7 70.4 59.9 52.4 38.1 34 32.3 26.4 27.3 27.7 26 20.8 12.1 7.6 6.7 6.4 6.6 7 7.1 7.2 7.8 8.1 8.3 9.6 11.1 14.2 16.8 17 17.7 24 32.8 39.1 42.7 40 32.2 30.1 28.2 31 33.7 37.1 30.5 27.2 20.4 24.8 25.4 24.3 27 31.4 33.4 33.2 34 33.3 33.8 39.6 41.6 50.8 60.9 70.5 79.1 91.3 96.8 97.2 99.6 109.6 122.2 131 142.2 148.1 153.2 160.2 170.1 178 183.7 188.5 191.1 188.5 183.2 180.1 176.4 166.2 156.3 153 151.9 150.9 155.1 154.9 162 166.8 171.6 174.4 174.4 166.8 144.8 136.2 135.8 134.5 131.8 130.6 128.8 124.2 114.1 109.4 106.7 110.4 113.9 120.7 122.7 119 126.2 118.7 110.3 101.7 110.5 134.9 129.2 109.7 94.3 103.1 96.4 91.5 85.2 78.6 55.7 46.1 44.7 44.9 48.2 50.2 45.2 44 44 44.3 45.3 46.9 50 54.5 62.1 70.4 82.1 100.6 117.5 138.3 155.3 168 180.5 190.3
82.5 88.1 96.1 113.5 128 138.6 146.5 159.2 167.6 167.4 160.8 150.1 128.3 106.5 85.8 63.3 51.1 39.2 29.9 21.9 11 8.1 7.9 8.1 6.9 8.1 8.7 8.9 8.8 14.2 22.8 33.6 46.1 61.4 76.7 88.1 95.4 100.4 103.8 104.9 103.9 103.2 101.7 101.5 107.4 113.2 111 107.1 100.9 95.7 90.8 86.8 85.2 82.3 73.1 62.9 53.6 40.9 34 30.5 22 19.3 25.7 23.6 17.6 11.8 7.6 6.4 6.2 6.5 6.9 7.1 6.1 7.5 7.3 7.8 9.4 12 15.4 17.1 18 17.9 20.6 27.9 33.8 37.7 37.6 33.9 32.7 30 28.7 29.4 33.9 38.3 33.4 26.8 20.1 21.3 22.1 23.8 29.5 32.8 33 31.5 31.5 32.4 35 42.7 48.9 58.1 66.3 74.9 83.8 89.8 93 98.6 109.4 117.3 128.1 137.7 145.8 154.2 164.9 173.6 180.3 187.2 192.8 195.7 193.1 187.7 186.1 184.3 174.3 165.2 162.7 156.4 150.7 150.7 151.9 154.3 160.2 164.5 163.3 162 164.2 155.8 138.5 129.6 126.3 123.1 123.9 122.6 121.7 116.6 112.5 110.7 102.9 99.2 105.8 111.3 106 101.6 99.2 109.8 100.8 86 104.1 115.4 107.6 93.2 81.7 93.5 92.1 88 81.4 71.5 56.1 48 46.3 46.4 49 49.4 44.3 43.7 43.3 45.2 46.8 46.7 51.9 59.1 67.1 73.9 91.1 114.5 132.8 148 158.2 171.3 181.9 189.2
83.5 90.2 98.9 114.1 126.1 136.6 142.7 151.5 164.1 163.4 154.3 138.4 117.5 99.9 79.8 57.4 45.5 33.7 28.5 17.1 8.2 7.3 7.6 8.1 7.9 8.2 8.2 8.5 11.3 19 29.4 41.9 55.2 67.2 80.6 89.3 94.9 98 101.7 103 101.7 101 100.7 101.2 107.8 109.9 107.3 101.8 96.3 91.5 87.6 85.5 82.2 75.3 65.6 58.3 49.3 35.7 32 22.4 16.1 17.5 23 15.7 8.5 6.6 6.3 6.3 6.3 6.3 5.3 7.3 7.4 7.3 7.5 9.3 11.9 14.6 18 18 18.8 24.1 27 30.5 33.5 35.1 35.4 35.6 34 30.6 28.8 29.2 32.3 34.8 29.8 22.7 19.7 19.7 22.2 25.4 28.5 30 31.9 30.6 31.2 35.4 40.2 48.7 58.1 59.4 70.8 77.8 82.4 85.3 95.6 106.7 112.8 122.1 132.9 144.1 159.8 172.2 176.1 182.8 189.4 194.2 201.7 200.8 194.4 189.6 190.9 180 174.9 176.4 170.9 165.3 151 150.5 150.6 152.6 163.2 160.2 155.9 155.8 155 145.1 133.3 125.3 119.1 119.2 117.1 112.4 113 111.6 113.7 115.6 107.3 95.6 98.7 98.5 93.8 91 91.7 94.7 93.6 80.4 89.9 97.4 87.4 82.8 79.8 80.9 77.1 73.6 70.6 62.2 57.6 51.7 47.6 49.6 49.5 48.3 44.7 43.9 43.4 44.4 45.3 49.5 55 64.4 68.2 82.3 96.5 126.8 145 157.2 167.7 179.1 184.8 188.1
84.2 93.4 103 114.3 122.2 132.7 141.2 150 158.6 157.2 145.2 130.5 108.9 88.6 69.1 49.6 40 26.5 18.7 10.3 7.5 5.8 7.7 7.9 7.8 8.2 8.6 10.1 15.2 23.6 35 51 62.4 71.2 80.1 87.4 92.2 96.5 100.4 100.8 100.4 100.9 101.2 102 106.7 108.2 104.8 99.2 92.7 87.4 86.5 83.6 78.6 68 60 54.2 44.5 32.4 24.9 19.1 13 13.4 12.6 8.6 6.5 5.9 6 6.2 6.5 6.7 7 7 7.3 7.4 8.7 10.8 12.5 14 16.7 18.7 28.6 37.8 32 31.9 34.9 35.1 36.5 37.2 37.7 31.6 28.2 27.5 28 29.6 25.4 22.1 19.5 19.5 22.5 25.7 27.6 29.9 32.6 29.8 31.9 38.9 47.3 57.8 64.4 69.4 71.6 81.3 81.9 90.1 98.8 105.3 111.5 123.8 141.9 158.1 171.2 178.8 185.4 190.9 197 202.5 203.9 201.8 192.2 192.1 185.8 182.9 180.9 181.5 179.1 163.5 153.2 150.4 150.5 152.7 157.8 154.3 154.8 151.8 145.3 135.6 124.6 118.8 116.2 115.4 111.1 108.4 107.2 109.1 119.8 119.9 111.1 96.1 93 91.2 90.2 83.8 83.5 85 83.9 74.2 76.7 78.3 74.2 77.6 73.7 66.9 62.7 61.1 61 59.8 56.5 53.7 50.3 48.9 46.9 45.8 44.8 44 43.2 45.1 49.5 52.3 59 63.1 73.9 82.4 96.4 132.4 151.8 164.9 179.8 188.1 191.2 189.6
86.6 96 105.7 113.2 118.1 127.2 137.9 147.7 156.2 150.2 139.9 123 96.9 74.2 54.5 39.7 28.6 17.1 10.3 8.1 7.5 7.4 7.6 7.7 7.7 8.2 8.9 12.4 20.6 33 44.4 59.3 66.4 71.2 78.2 85.4 90.9 95.7 98.9 100 100.9 102.8 103.7 103.6 107.7 109.5 103.7 95.5 91.2 87 84.2 81.9 77.6 66.2 59.4 54.1 43.3 29.6 20.1 13.2 11.2 10.3 8.1 7 6.5 6.2 6.1 6.1 6.3 7 6.7 6.9 7.3 7.7 9.1 11.6 13.1 14.2 17.5 22.5 32 33.9 29.5 34.7 36.5 36.9 39 42 38.7 32.8 29.3 27.9 27.5 25.8 25 22.1 19.4 20.2 22.7 24.4 27.9 30.8 30.1 31.1 36.4 44.3 54.3 60.9 68.2 73.3 74.3 78.5 82.8 90.2 98.5 108.1 118.8 135.1 152.1 170.5 177.7 183.7 193.4 195 198 201.7 202.1 198.4 192.2 191.6 190.8 190.2 189.4 182.1 170.7 162.3 158.5 155.2 149.9 147.3 150 149.6 150.9 140.2 136.3 129.9 120.4 116.2 113.7 110.9 107.9 104.5 102.8 106.3 110 108.6 104.6 94.5 91.3 88.7 81.5 76.6 74.2 73.7 73.9 69.5 68.6 67.1 66.8 67.8 62 59.7 58.3 60.8 56.5 57.1 54.3 52.2 50 47.8 46.8 45.7 45 44 44.6 49.9 51.7 54.2 61.6 67.1 78 81 104.6 137 157.5 175.2 189.5 195.3 196.2 194.4
90.7 98.8 105.8 114.6 120.2 132.5 144.8 151.1 152 150.2 130.9 102.1 81.2 60.2 43.5 30.8 19.9 10.3 7.3 6.8 6.3 7.3 7.4 7.5 7.8 8.4 10.2 15.9 27.3 40.3 47.8 58 66.3 72.3 77.8 84 91.4 96 99.6 100.6 101.3 103.2 104.8 107.6 111.6 109.3 100.2 91.9 87.6 86.4 82 78.1 73 64 60.1 53.2 41.6 30.5 14.1 10.9 9.8 8.6 7.3 7.2 8.5 6.9 6.8 6.6 7 6.9 6.5 6.8 7.3 8 8.9 11.1 14.1 16.3 18.8 21.4 26 26.8 30.9 38.4 40.4 43.1 46.1 44 37.9 33.4 31.2 28.7 25.3 21.9 23.8 21.3 20.6 23.2 22.5 23.4 25.4 29.2 33 35 39 45.5 55.7 63.1 70.3 73.2 73.9 77.7 82.5 95.5 106.9 113.6 127.4 140.5 159.6 172.9 183.1 186.9 195.2 201.1 198.6 200.3 199.1 192 195.4 194.2 198.5 196.5 190.3 180.9 174.1 169.5 165.4 158.5 150.3 145.4 143.1 142.6 138.3 131.7 130 127 119.4 119.9 116 116.3 110.9 105.7 97.1 101.3 98.9 96.7 93.6 90 87.9 88.9 86.4 83.5 77.7 73.7 70.6 66.5 64.3 63 61.9 61.7 59.6 57.3 56.5 59.8 55.3 53.6 52 50 49.3 47.7 46.7 45.7 44.7 43.4 49 50.2 51.2 57.5 64.4 70.3 79.9 83.6 115.2 146.6 166.3 185.6 197.4 202.4 201 197.5
94.7 101.7 111 121 127.2 134.3 148.1 156.7 162.8 142.3 110 88.9 67.3 46.8 34.3 24.2 13.7 8.4 6.9 7.1 7 7.1 7.2 7.4 7.9 8.6 11.7 20.5 33.7 43.3 51.3 57.9 65.8 72 78.7 86.1 92.1 96 98.4 99.7 100.8 103.3 105.5 111 113.2 106.5 94.6 89.5 86.8 82.5 77 72.5 71.7 66.2 56.1 47.4 35.4 23.1 11.1 9.3 8.3 7.2 6.8 8.1 10 5.7 6.4 5.7 6.9 7.1 6.7 7.1 7.8 8.3 8.9 11.3 15.4 16.8 18.4 18.9 20.4 28.9 35.5 36.6 42.6 48 49.6 44.3 38.2 34.8 32.9 30.1 23.4 18.7 19.4 21.5 21.7 22.2 22.2 23.1 24.8 28.7 35.5 37.7 43.1 51 58 63.4 67.4 71.1 75 82.5 90.5 100.1 111.4 120.5 130 142.8 154.9 171.4 183 188.9 199.5 201.5 201 199.3 192.8 193.3 195.5 200.1 202.7 196.6 190.6 186.1 180 176.2 171.9 161.6 154.3 148.4 143.3 139.1 135.7 132.4 129.3 125.6 124.3 120 119.3 118.8 113.9 110.2 102.7 95 93 91.1 92 96.3 98.5 97.5 99.4 90.6 87 83.6 77.4 69.4 65.7 65.7 68.2 67.5 66.8 62.8 59.2 56.6 53.3 54 54.6 51.4 49.4 47.9 46.7 45.6 44.4 43 49.3 46 48.7 56.8 65.2 66.9 72.5 85.6 117.1 143.8 171.7 192.3 204.4 207.7 204.1 199.2
97.3 105.2 113.4 121.2 127.6 133.2 148.1 156.7 155.9 119.3 90.1 71.8 51.7 37.1 28.7 19.6 11.4 7.8 6.4 7 6.9 7 7.1 7.4 7.9 9.8 14.9 25.6 36.6 44.2 52.7 60.6 68 73.8 81.5 89.4 95.6 99.5 101.1 100.6 101.1 102.5 107.8 112.7 109.5 100.2 93 90.8 86.4 78.8 76 75.9 71.8 59.5 47.4 38.2 26.5 14.2 8.3 9.2 7.5 6.9 6.4 6.4 6.6 5.7 5 6.7 6.8 7 7 7.1 7.7 8.2 8.5 11.4 14.1 14.6 17.5 18.6 21.7 32 36.2 39.5 47.7 50.7 48.9 44.7 41.2 35.9 34.2 31.8 24.1 17.5 17.8 19.6 19.3 20.6 21.8 24.3 27.2 30 34.2 39 46.3 53 58.8 62.9 66.8 72.4 83 91 102.4 110.3 113.5 123.3 132.3 146.1 157.7 176.5 187.8 195.9 202.2 203.6 204.1 196.8 192.9 195.2 197.5 197.6 198.2 193.4 188.8 183 179.7 173.8 170.1 164.8 157.7 152 150.8 147.5 144.9 138.4 133.3 127.9 123.9 120.4 120.3 117.5 114 111 107.8 101.4 99.7 95.6 97.1 104.9 105.7 100.6 105 97.1 88.3 84.5 80.2 73.6 66.3 70.8 76.7 75.4 76.6 70.5 66.8 64.2 62.1 63.8 66 55.8 50.2 48.8 46.8 45.5 44.4 47.5 47 45.2 51.3 55.3 60.4 59.3 67.7 82.9 107.2 143.5 178.8 195.1 204.4 206.6 203.6 199.7
98.4 103.9 112.9 121.9 132.6 140.6 147.8 145.6 131.5 94.4 72.5 54.5 38.7 28.8 23.8 16.5 9.8 7.4 6.8 5.3 6.6 6.8 7.1 7.4 8.2 11.5 19.4 29.1 37.3 45.6 55.4 62.9 69.1 75.5 84.4 93.5 100.8 105.7 106.4 103.3 102 103.4 111 111.2 102.9 95 91.9 87.4 81 79.2 77.9 73.6 63.9 53.1 42.6 28.5 16.6 7.1 6.9 10.5 7.6 6.7 6 5.6 5.6 5.9 6 6.8 6.5 6.6 6.7 7 7.6 8 8.2 8.4 8.8 10.6 15.4 21.7 25.9 32 34.4 38.9 50.7 50.5 46.2 43.7 42.3 36.6 32.2 31 24.5 17.9 17.4 18 19 20.4 24.8 28.7 34.2 35.1 34.8 40.8 47.3 51.6 58.3 61.9 70.5 78.4 92.3 96.6 108.6 112.7 119.9 125.9 135.7 151.6 162.3 181.9 195 206.5 207.3 207.8 202.7 194.1 194.2 196.2 195.8 195.1 194.1 190.2 185.8 187.4 185.6 181.2 180.1 175.5 168.4 166.5 162 158.3 153 144.1 137.7 130.4 126 129.7 120 116.1 113.9 110.9 108.7 107.4 104.1 101.6 102.5 103.4 102.3 97.6 99.6 95.4 88.2 84.8 82.3 76.1 64.2 69.5 74.5 76.8 76.8 77.7 72.2 70.5 70.8 73.2 68.4 54.3 48.4 49.6 49.7 47.9 43 46 45.8 45.8 51.5 57.8 63.1 58.2 65.8 83.3 112.6 150.7 179.7 187.7 196 200.9 199.8 197.9
98.2 106.1 118.9 129.4 137.2 137.1 133.2 118.5 99.9 72.9 56.9 42.1 30.1 23.8 18.8 12.4 7.5 6.8 6.8 6.6 6.7 6.8 7.1 7.4 9.4 15.2 26.3 34.4 39.3 45.7 54.4 62.7 68.6 78 87.3 96.3 104.8 111.2 108.8 105 102.8 104.8 110.3 104.8 96.5 89 85.6 81.5 80.1 77.7 69.4 63.6 58.7 48.3 35 19.3 8.2 6 6.8 6.8 6.2 5.9 5.6 5.7 5.9 6.1 5.3 6.5 6.4 6.6 6.7 7.1 7.6 7.8 7.8 7.9 8.3 10 18.2 24.6 29.6 32.7 33.4 38.8 49.3 50 44.6 42.7 40.2 36.5 30 25.6 24 18.2 16.9 17.2 18.5 21.3 26.6 33.1 37.5 39.6 39.8 44.1 52.1 56 58.4 65.5 76.2 85.6 93.9 102.5 108.2 116.5 123.7 132.1 144.3 157.6 169.9 186.5 202.3 210.5 211.3 205.8 199 196.2 194.7 196 195.3 195.8 194.8 188.9 192.9 194.1 198.7 197.7 193.3 184.8 178.3 175.8 170.4 163.2 154.9 152.1 142.4 133.7 130.1 129.4 123.6 121.8 116.2 113.2 110.2 106.9 108 107.8 106.2 104.2 98.7 95 95.6 90.9 87.2 85 84.5 80.1 66.4 66.1 72 75.8 74.5 77.9 76.4 73.1 76.1 73.8 63.2 55.7 50.9 49.4 49.7 47.2 43.3 47 46.8 46 51.9 63.3 64.1 55.4 63.1 86.1 118.4 163.2 168.7 175.9 185.2 192.3 194.3 193.8
98.6 113.7 125.3 131 133.3 123.7 115.2 95.2 75.1 61.8 43.2 31.2 24.2 20.4 14.3 8 6.3 6.6 6.9 6.8 6.9 6.9 7.3 8.1 12.2 19.8 31.4 37.6 41.8 46.6 52.1 59.6 67.3 77.1 88.6 98.6 108.9 110.4 106.4 105.1 102.1 104.6 105.7 97.4 90.7 84.1 82.1 82.8 73.8 66.3 59.4 61.4 51.9 35.8 20.7 10.6 6.8 6 6 5.7 5.7 5.9 6.2 6.2 6.3 6.4 6.3 6.2 6.2 6.5 6.8 7.1 7.5 7.6 7.7 8.9 11.6 15.2 22.6 28.8 32.2 35 40.4 47.8 51.1 49.2 45.8 43.3 38.1 34.5 27.5 23.5 22.2 17.8 16.3 16.3 18.1 22.1 28.7 35.7 38.4 38.6 41.9 47 53.6 58.8 64 72.2 82 91.4 102.9 109.2 112.3 116.6 125.4 132.2 145.4 161.4 172.6 189.2 211.1 215.6 211.7 202.6 197 195.5 195.6 197.5 207.4 206.7 197.4 195.2 198.6 203.1 205.7 208.5 204.3 190.5 181.7 176.3 172.2 172.3 167.4 158.6 152.4 137 134.3 133.3 129.7 125.3 120.4 113.8 112.3 107.2 105.2 106.6 105.5 103 98.6 89.2 90 86.7 85.2 86.6 83.5 78.5 67.7 62.7 69.1 71.8 72.3 75.1 80.7 73.7 71.8 66.9 59.7 56.4 51.3 50.1 49.3 47.4 43.7 47.8 49.1 48.9 50.7 54.1 53.6 53.1 62.2 86.5 120.1 141.7 152 162.6 173.7 182.9 187.3 188.8
102.5 115.2 126.6 127.9 120.7 104.8 86.8 73.3 62.5 46.5 29.1 23.5 19.9 14.4 8.5 6.2 6 6.2 6.4 6.7 6.7 7 7.7 9.5 15 23.9 34.4 40 44.3 46 49.1 57.2 65.7 75.6 88.9 99.9 107.4 105.1 103.3 100.9 100.5 102.7 98.1 86.5 84.6 82.9 83.2 73 64 53.6 54.6 51.6 39.9 22.1 11.6 7.5 5.8 5.7 5.5 5.5 5.4 5.8 6.1 6.3 5.9 6.5 6.7 6.7 6.6 6.7 7 7.4 7.7 7.4 8 11.4 14.9 21.1 26.7 30.5 34.3 41.1 52.5 55.3 53.8 51 50.2 45.9 37.5 32.2 27.7 22.8 21 18 15.6 15.7 17.6 23.1 29.2 35.1 40.8 40.6 45.1 50.1 55.6 63.1 75.5 85.3 91.1 102.9 110.3 113.8 116.9 120.2 126.7 135.8 147.9 166.2 178.5 196.2 211.6 215.5 207.7 198.4 196.9 197.7 202.5 210.2 212.8 204 200.3 206.4 210 208.8 208.9 206.9 201.1 191.3 184.1 179.4 179 178.3 173.4 170.4 152.1 140.1 137.4 136.7 134.4 129.2 122.3 111.3 112.7 108.9 101.7 100.6 100.6 97.6 93.3 83.5 83.1 82.4 85 85.6 80.9 79.7 73.3 59.9 64.2 66.8 73.8 74.5 74.1 67.7 63.7 61.9 61.7 59.7 57.4 53.1 49.8 49.1 44.3 46 48.8 47.6 49.8 50.8 51.8 51.4 59.1 85.2 104.5 121.1 135.5 149.4 162.6 172.5 177.5 181.7
105.5 123.5 133.2 118.5 100.3 79.1 64 54.8 45.7 32.9 22.3 18.4 12.7 7.6 6 5.9 6.5 6.6 6.4 6.4 6.5 7.3 8.5 10.6 16.9 26 35.4 41.7 44.9 45.7 48.3 56.3 68.6 76.6 83.3 93.7 99.7 100.8 99.8 97.7 99.8 96.8 90.5 79.6 78.8 75.4 69.9 56.2 48.3 43 42.9 35.6 23.2 12.9 8.1 6.1 5.7 5.6 5.4 5.6 5.5 5.8 6 6.2 6.6 6.6 6.8 6.9 7 7 7.1 7.3 7.6 7.5 8.9 13.8 20.4 27.7 31.9 34.5 38.5 43.4 59.3 62 55.9 53.6 52.1 46 37.6 32.4 27.5 20.5 20.1 19.1 15.2 15.2 16.7 22.7 30.7 35.8 40.9 41.7 47.1 52 61.3 69.1 79.1 91.3 104.2 107.9 115.4 119.3 120.5 123.8 128.1 135.9 151 168.8 187.8 198.5 209.6 208 203.1 205.4 201.5 198 205.9 205.5 202.7 205.2 210.3 213 215 218 210.4 209.6 198.1 194.4 189 186.2 185.8 183.4 177.8 163.6 149.1 145.7 146.1 143.8 139.7 134.4 122 110.4 107.3 99.6 96.2 95.1 91.7 89.8 86.6 80.2 79.7 80.8 82.3 82.8 81.6 76.5 74.4 59.5 60 63.5 68.8 71.2 68.7 63 61 62.5 63.6 61.1 56.2 52.1 50.3 49.8 45.3 44.4 47.3 47.6 48.3 49.4 50.6 51 61 78.5 93.3 105.4 115.9 131.5 148.8 160.2 166.2 172
95.7 116.5 127.7 104.3 80.5 60 44.5 35.6 30.6 20.8 13.9 12 7.5 6.6 6 6.2 6.5 4.8 6.4 6.6 7 8.2 9.5 13.2 19.5 27.1 35.1 43.2 46 45.5 51.2 61.1 71.2 77.1 81 88 99.2 99.4 97.2 98.9 97.6 90.9 84.9 75.9 71.9 61.7 54.5 45.5 38 35 28.9 21 15.8 10.2 6.6 5.7 5.6 5.4 5.4 5.4 5.5 5.8 6 6.3 4.8 6.6 6.8 7 7.1 7.2 7.4 7.4 7.8 8.7 11.8 18.2 27.6 33.6 34.6 43.1 46.1 53.3 65.5 62.5 58 55.4 51.5 46 38.8 31.2 25.2 20.2 18.3 16.4 14.7 15 17.5 25.3 32.6 38.8 40.5 43.9 50.2 58.9 65.4 76.9 83.9 95.5 108.8 112.7 119.9 124.3 125.1 127.4 131.5 143.4 155.5 173.4 189.8 200 213.2 206.3 209.4 206.9 204.6 199.9 200 200.4 204.9 212 217.7 221.3 222.6 220 210.9 205.3 198.2 192.1 196.3 198.4 190.5 183.7 174.7 167.6 153.4 151 157.2 154 143.1 133 119.8 107.3 100.1 94.6 91.6 89.1 85.9 83.6 79.4 78.9 78.3 78.9 80.4 81.5 79.6 75.5 70.3 63.6 57 58.8 63.7 66.3 67 62.7 61.3 65.3 64.6 59.3 54.3 52.6 50.1 51.1 46.3 43.5 47.9 47.5 47.7 48.3 50 51.1 60.2 75 86 96.1 105.9 118.5 134 149.4 157.4 161.9
83.7 100.3 96.9 80.8 60.1 43 29.9 21.1 18.1 12.2 7.8 7.1 6.5 6.6 6.3 5.7 6.1 6.4 6.8 7.1 7.5 9.2 11.7 15.5 21.5 27.7 35.8 45.2 45.9 44.8 52.4 65.3 70.5 75.4 80.4 90 98.2 96.2 97 99.8 94.4 87.7 81.4 71.8 60.1 56 46.1 36.3 29.7 29.1 15.1 14 11.3 7.2 5.9 5.7 5.5 5.5 5.5 5.3 5.4 5.6 5.8 6.5 4.4 6.7 6.9 7.2 7.4 7.5 7.7 7.6 8.3 9.7 12.2 23.5 33.5 37.5 45.8 53.6 58.2 69.2 66.7 64.1 59.8 57.1 51 45.6 39.2 30.8 25.4 20.5 15.3 14 14.8 17.3 18.8 23.3 33.2 37.5 41.7 45.8 54.5 65.8 74.5 79.6 91.3 100.9 112.7 121.2 124.5 122.8 124 124.3 135.1 151.2 170 188.7 195.1 204.6 215.1 207.9 210.2 204 200.6 200 201.4 204.1 212.2 216.8 219.6 218.4 217.3 213.6 214.8 204.9 199 199.7 208.9 210.2 200.9 190.5 183.6 169.1 160.2 160 162.1 154.4 140 125.6 113.8 100.9 95.5 90 86.7 83.4 80.9 80.3 78.2 77.3 77.1 78.1 78.4 77.7 77.6 73.4 68.9 62.4 57.4 56.1 57 61.3 62.4 60.2 60.6 63 60.2 55.4 52.3 50.3 48.2 48.1 47 42.7 45.8 46.1 46 47.5 49.3 51.1 57.6 69.9 79.5 89.3 101.9 112.9 123.9 137.6 146.8 152.3
68.8 80.7 76 60.5 42.8 29.2 21.4 15.8 11.8 7.9 6.4 6.5 6.4 6.4 5.5 6.3 6.3 6.5 7 7.3 7.9 10.5 13 16.8 21.2 28 37.1 44 44.6 45.4 53.7 62.7 67.2 76.4 88.9 94.4 93.3 94.7 98.3 94.8 89.4 84.4 76.6 63.4 50.7 45.9 38 27.1 23 17.7 13.1 11.9 8.3 6.4 5.9 5.7 5.5 5.6 5.4 5.3 5.4 5.5 5.8 6.7 6.3 6.6 7 7.6 7.7 7.8 7.8 7.8 8.1 8.9 17.9 30.3 38.8 47.2 55.4 60.9 69 69.2 64.1 62.9 58.7 55.5 49.5 42.9 34 29.8 22.2 18.5 14.1 14.6 16.8 18.2 19.6 28.2 38.2 42.9 46.7 52.1 62.5 70.5 77.8 88 99.4 107.1 117.3 123.1 121.4 117.8 121 125.1 139.3 157.9 179.8 193 205.8 215 220.5 207.4 204.5 204 202.1 202.4 205.4 211.3 213.6 216 220.8 215.1 218.2 222 211.9 204.8 203.6 212.4 222.4 216 208 198.2 187.2 172.5 170.4 162.7 158.5 151.6 138.5 123.6 109.2 98.9 90.6 84.7 80.8 80.8 78.3 77.9 77.4 78.3 79.8 76.8 76.4 75.6 75.2 72.6 68.8 63.4 58.2 54.8 54.8 55.9 55.8 54.8 56.2 56 53.6 52.1 49.8 47 45.6 46.3 45.7 43.4 43.3 43.3 45.2 48.3 50.4 52.2 55.5 63.7 72.9 83.4 96.9 106.7 117.8 129.1 137.8 144.8
60.9 70.7 64.9 49.4 32.6 20.9 15.4 11.2 8.5 6.7 6.2 6.2 6.2 6.2 5.8 5.9 6.4 6.6 6.9 7.3 9.5 12.8 16 18.7 23.3 33.6 41.8 44.6 45.1 46.9 53.7 60.2 69.8 84.1 95.3 97.6 90.5 87.7 90.6 88.3 84.4 79.2 68.1 52.4 42.2 33.9 27.1 23.2 17.6 12 11.4 9.5 7 6 5.8 6.1 6.2 5.8 5.3 5.2 5.2 5.4 5.6 5.8 6.4 6.5 6.7 7.6 7.9 7.9 7.8 7.9 9.1 14 25.5 34.5 43.3 51.2 59.4 72.8 74.9 66.5 64.6 61.2 54.9 52.7 47.2 40.2 33.1 26.9 20.4 15.5 14.1 14.6 15.8 17 23.7 35.6 44.1 43.8 49.1 52.8 66.2 78 86.1 95.2 108.3 115.8 116.6 114.2 113.6 109.5 115.5 131 148.1 164.3 184.9 207.6 217.9 222.9 215.8 213.8 209.5 206.2 206.1 206.6 209.5 211.5 211.2 211 210.6 213.4 212.9 216.4 214.1 210.7 211.8 221.3 229 225.3 215.3 204.2 188.8 179.2 175.9 164.6 164.2 155.9 141.7 122.4 107.9 98 89.8 85.4 80.8 78.8 78.6 79 81.2 80.5 78.3 77 76.4 75 73.4 71.1 67.3 62.6 58.8 54.8 53.5 54.1 51.1 50.4 50.1 50.6 50.6 49.2 46.1 45 44.5 44.2 43.7 43.3 43.2 43.5 46.8 49.6 52.3 53.9 54.1 59.1 67.2 77.2 88.6 99.2 111.6 122.1 130.6 141.9
59.6 68.5 58.7 41.8 25.4 15.6 10.6 8.6 6.9 6.2 6.1 6 6.3 6.4 6.5 6.3 5.6 6.5 7.1 7.5 10.7 15.1 19.1 21.3 26.3 36.8 42.8 44.8 45.2 47.7 51.6 58.8 75.2 90.7 98.5 97.7 89.4 80.8 80.4 79 78.7 71.8 58 41.5 32.2 26.3 22 17.3 12.1 10.9 9 7.1 6.7 6.1 6.1 8.1 6.2 5.8 5.4 5.2 5.3 5.4 5.6 6.2 5.9 6.6 6.6 7.3 7.7 7.9 7.8 8.7 12 20.6 30.6 37.8 49.2 56.4 65.2 76 73.6 66 66.7 61.1 51.9 48.9 46.3 40.9 36.2 26.2 22.5 15.2 13.1 13.4 14.1 15 23.3 40.3 46.6 47.2 50 57 72.9 81.7 87.6 94.8 102.6 111.9 102.9 99.7 102.3 103.4 115.4 131.8 153.1 168.9 193.8 210.1 218.2 222.2 217.3 223.3 219.6 212.9 211.3 212 209.2 205.4 204 202.2 203.7 204 208.3 215.5 213 214.5 218.4 227.3 234.2 230.7 217.2 205.6 187.9 180.5 175.8 167.2 168.7 158.4 135.5 121.3 107.1 97.2 91.8 88.4 84.5 78.7 79.2 84 84.8 82.3 79.5 76 75.6 75.2 74.2 71.7 68.7 66.1 62.8 58.2 57.5 60.8 51.7 48.7 48.3 46.8 47.1 45.6 45.6 45.1 44.7 44.8 47.3 45.6 44.5 42.1 47.6 49.8 53.5 55.1 52.7 58.7 64.8 72.1 81.9 91.2 104.6 117.4 127.1 135
53.3 56.7 49.4 34 18.4 9.9 7.4 6.8 6.1 5.9 5.9 5.9 6.1 6 5.7 4.3 5.5 6.6 7.2 8.3 11.8 16.2 20.5 22.1 28.3 37.5 42.3 42.6 46 47.5 49 60.3 79.2 93.7 98.1 95 86 73.5 67.2 67.6 67.4 60.9 48 31.5 24.6 19.9 17.7 12 9.8 8.4 7 6.8 6.6 7.1 9.3 6.7 6 5.8 5.5 5.3 5.4 5.5 5.7 6.1 5.9 6.4 6.4 6.9 7.3 7.4 7.7 9.7 17.6 28.3 41.2 54.5 58 62.9 67.5 76.1 72.2 70 66.4 58.3 52.2 45.1 41.2 37.2 33.2 25.1 19.9 12.3 12.3 12.9 13.9 18.2 25.3 39.4 47.4 49.2 51.7 58.6 68.4 80.3 90.3 90 95.4 95.1 90.9 90.2 90.1 95.9 113.8 131.1 148.4 167.5 186.6 205.5 211.1 216.7 231.1 233.4 232.7 228.9 224.4 215.3 208.6 202.9 199.1 197.6 195.5 193.5 197.3 198.7 203.9 215.5 224.6 228.1 229.9 224.8 214.9 199.1 184.2 174.5 169.6 171.8 169.6 154.3 134.8 119 106.5 95.6 91.3 85.6 83.7 79.4 80.8 85 82 82.5 78.8 78.1 75.9 76.4 75.9 73.5 72 68.9 66.4 62 59.1 62.3 54 47.9 49 46.8 46.4 46.2 45.9 45.4 45.1 45.5 46.9 47.1 45.1 43.6 46.7 49.9 55.7 57.6 53.6 63.2 65.1 67.2 75.6 84.9 96.5 111.8 118.6 125.9
36.5 45.6 41.2 23.1 11.8 7 6.7 6.1 6 5.8 5.8 5.7 5.9 5.8 5.9 3.5 5.5 6.7 7.8 10.9 14.4 17.8 20.2 22.2 27.8 36.2 40.1 40.1 45.7 45.7 51.4 67.2 83.3 92 93.3 91.1 84 72.4 65.3 61.5 50.2 44.7 32.9 20.2 15.9 14.8 12.8 9.7 8.1 7 6.9 6.8 7.4 7.5 7.1 6.3 6 5.9 5.6 5.4 5.5 5.6 5.6 5.9 4.4 6.2 6.3 6.6 6.9 7.4 8.1 14 31.6 46.9 57 65.2 61 65.9 70.2 70.8 71.7 70.8 66.8 59.4 49 38.2 33.6 31.7 28.3 22 14.8 11.7 12.9 14.3 16.3 19.6 28 37.9 44.7 48.3 53.3 55.6 68.2 75.6 77.7 81.2 83.6 82.6 78.8 80.4 83.1 97.5 109.5 130.8 145.7 168.7 185.4 200.6 211.8 225.1 238.6 242.6 241.4 237.1 231.6 221 210.6 202.9 195.2 190.6 185.5 184.6 186.8 193.2 204.8 211.6 217.4 219.9 217.9 209.2 203.9 183.2 174.4 169.5 176.2 171.7 162.9 147 129.8 113.1 98.7 93.7 90.2 83.4 80.5 78.9 82.9 81.7 80 78.5 78.2 80.2 79.8 80.4 78.5 77.4 74.8 71.4 69 65.9 56.6 53.4 50.1 46.8 47.1 47.3 46.8 46.6 46.9 47.6 45.4 44.5 44.1 44.7 44.2 43.6 43.3 48.8 55.5 54.5 52.9 65.2 64.2 64.3 68.8 76.9 88.4 103.5 110.8 116
33.9 34.4 27.4 13.6 6.8 6.2 6.1 5.9 5.8 4.9 5.1 4.3 6.1 6.4 4 5.6 6.5 7.8 11.6 15.8 18.9 20.3 21.1 24.2 28.4 32.3 35.3 39 42.1 42.9 52.3 69.9 83.4 87.5 88.2 83.3 75.8 64.9 59.1 53.3 40.1 29.7 21.3 13.7 11.8 11.5 10.2 8.6 7.2 6.7 6.7 7.8 7.7 6.9 7 6.5 6.3 6.1 6 5.6 5.5 5.6 5.4 5.5 6.8 6.2 6 6.3 6.5 6.8 9.6 27.3 46.9 60 68.5 72.3 60.7 64.1 65.9 67.5 68.9 70.6 63.6 55.7 44 35.4 29.8 24.4 22.6 16.8 12.1 10.8 14.5 15.9 17.3 19.8 26.2 35.5 42.7 46.9 50.6 55.9 64.8 65 64.8 72.8 74.4 72.5 70.8 78.1 82.7 98.2 110.5 128.8 150.2 176.9 196.9 212.4 220.2 233.9 241.5 246.2 244.7 242.6 232.1 225 217.5 206.2 193.1 185.2 181.7 177.1 178.4 183 192.1 197.3 204.8 206.3 199.4 192.8 188.4 178 168.2 174.8 176.7 169.9 157.2 141.6 124.7 107.7 98.4 92 88.7 82.1 79.8 79.5 81.6 82.4 81 82.5 83.6 85.5 87.7 87 86.8 82.8 78.9 75.4 70.6 67.6 61.8 57.1 52.5 47.2 47.2 47.8 47.2 47 48.1 48.6 47.9 47 44.9 46.3 45.8 44.5 43.6 41.9 42.5 48.8 50.2 60.6 60.9 67.4 66.4 70.3 83.8 94.6 105.9 117.4
20.8 24.3 17.2 7.6 6.2 5.9 5.8 5.7 5.7 5.8 5.6 6.5 7 6.8 6.9 6.6 7.5 9.3 13.5 17.6 21.1 22.9 24.5 29.8 34.1 33.6 34.8 38.4 38.7 43.2 52.3 68.2 79.6 78.8 76.2 71.3 65.8 60.1 49.9 41 33.6 23.1 15.9 11.6 11 10.6 9.4 7.4 6.7 6.7 7.2 7.9 7.6 7.1 7 6.9 6.7 6.5 6.4 5.9 5.4 5.4 5.3 5.8 6.5 6.1 6 6 6.1 6.8 17.9 39.8 56.4 64.8 73.8 64.5 63.9 62.9 68.6 66.3 66.2 67.8 63.2 52.5 41.5 33.8 27.6 21.2 17.1 13 10.3 10.8 14.2 16.2 17.6 19 22.4 30.5 40 44.2 47.4 51.5 53.8 55.7 58 63.9 65.2 64.5 70.5 78.6 84.8 100 114.1 141.9 162.4 190.5 206.8 214.4 226.9 236.7 239.2 237.7 234.9 231 230.9 228.7 216.6 206.9 193.7 179.6 177.4 172.2 169.2 171.4 176.1 181.5 191.1 189.6 180.5 176.4 174.4 168.4 167.6 175.7 175.7 160.7 145.7 132.5 121.2 105.5 95.6 89.7 86.6 81.8 79.7 82.1 83.8 83.4 85.9 90.9 92 94.6 94.6 94.5 93.2 87.2 76.7 73 70.1 69.5 68.3 60.1 56.9 50.9 50.5 48.4 48.3 49 48.6 48.5 48.3 47.4 47.3 47.6 47.1 47.2 43.6 45.1 40.9 46.3 49.1 52.2 58.4 69.5 65.6 69 83.9 99 110.7 121.6
11.2 13.5 8.7 6.4 6.2 6 5.8 5.7 5.6 5.7 4.2 6.6 7.1 7 7 7.4 8.3 10.3 14.6 17.9 20.1 23.3 29.2 33.7 34.4 33.8 35.1 36.4 38.3 45.2 57.8 65.5 69.1 66.4 65.4 62.7 55.7 56.4 45.8 33.9 29.4 22.8 16.3 11.2 11 11.1 9.2 7.2 6.8 6.8 7.2 7.8 7.4 7.4 7.5 7.6 7.4 7.3 7.3 6.6 5.8 5.5 5.5 5.4 6 6.2 5.8 6.3 6.6 7.6 27.4 43.9 53.4 72.9 71 57.4 61.2 67.5 68.9 67.1 60.6 62.9 57.6 47.1 35.8 27.1 23.5 18.5 13.5 9.5 9.2 12 14.1 15.8 17.6 18.4 20.4 25.5 37.9 45.8 43.2 47.5 48.7 49.5 50 56.9 62 67.1 73.2 81.5 92 104.6 123.5 150.3 172.6 190.9 204 211.2 223.3 230.7 227.1 224.6 224.1 223 228.2 224.7 217.4 206.9 195.9 183 174.5 165.8 163.1 163.5 164.8 167.4 171.1 166.2 159.7 157.8 162.2 161 166.5 173 170.5 160.4 140 130.2 115.9 102.3 94.9 90.5 85.7 84.9 83.2 83.5 83.4 85.3 90.7 97.9 100.8 101.7 97.4 98.4 93.6 84.5 77.9 70.8 69.7 75.9 71.6 62.6 58.2 54.6 50.7 48.5 51.2 51.1 51.7 53 49.1 48.4 49.6 50.9 48.1 47.9 43.4 44.5 43.3 42 48.2 48.5 56.3 63 61.2 71.1 86.8 100.6 110.8 122.2
6.4 6.5 6.6 6.5 6.2 6 5.8 5.6 5.8 6 5.1 5.8 6.2 7.1 7.9 9.2 9.4 11.7 15.6 19.6 21.7 27.6 33.8 36.1 36.5 34.5 33.6 35.2 38.8 42.8 50.6 58.9 62.8 67 63.1 55.5 43.5 41.1 36.3 32.5 28.8 22.8 15.3 12.4 13.1 11.8 9.4 7.7 7 7.2 8.5 8.4 7.6 7.3 8.1 8.2 8 7.6 7.7 7.1 6.1 5.8 5.4 5.2 5.9 6.2 5.8 6.4 6.9 7.2 24.5 39.2 55.1 65.1 58.5 58.5 59.8 66.7 63.9 60.3 58.6 56.1 50.3 40.7 29.5 22.6 18.8 14.5 9.1 8 9.9 13.7 14.8 15.9 16.7 17.2 18.4 24 33 43.5 39.4 38.3 39 41.6 48.3 60.2 65.4 68.9 73.1 79.8 96.7 111.1 130.9 151.9 172.4 186.6 194 201 201.2 204.7 209.2 210 212.4 214.3 223.8 221 220.6 211.3 193.5 181.8 169.5 163.9 159.7 159.6 156.8 152.9 153.7 153.9 147.7 149.3 152 152.8 158.4 162.8 164.2 158.6 144.2 126.2 113.3 103.6 95.1 91.5 89.8 86.3 91.6 91.5 87.5 90.7 98.1 103.5 106 105.9 100.7 96.4 88.1 83.3 76.9 69.9 69 70.8 71.7 63.5 60.4 54.6 50.2 53.5 56.1 55.4 55.2 52.9 52.1 51.5 54.9 54.7 47.2 46.1 45 43.1 41.5 40.8 46.7 46.6 51.7 56.2 58.6 71.6 89.2 101.7 110.6 123.9
5.6 6 6.3 6.3 6.6 6.3 5.6 5.5 5.8 6.2 6.5 6 6.3 8 11.7 12.1 11.8 15 19.2 22.5 26.3 33.1 35.7 37.9 37.8 35.4 34.2 35.5 37.7 40.1 47.9 60 64.2 59.9 50.9 41.1 32 29.6 28.8 27.7 26.4 21.2 17.6 16.4 15.8 12.7 9.9 8.4 7.3 8 9.6 8.7 7.9 7.3 9.2 10.4 9.8 8.8 7.6 6.8 6.3 6 5.2 5.5 6.1 4.8 6.1 6.3 6.3 7.1 17.3 34.4 52.6 55.8 56.6 63.3 57.1 61.1 57.5 55.5 53.1 48.8 38.4 28.3 23.7 19.1 13.3 9.5 6.8 7.4 11.3 15.4 16.3 16.8 14.1 15 19.5 21.2 29 33.1 33.8 31.4 34.7 41 53.8 60.8 63.6 68.7 77.2 90.8 102.4 119.5 134.5 150.7 167.6 177.8 175.2 175 176.3 178.5 189.8 197.9 206.4 206.8 213.7 217.5 215.6 208 190.7 183.5 170 162.9 159.5 155 152.6 148.8 145.6 142.4 140.7 142 140.8 142.3 146.6 162.1 159.6 151.8 136.5 123.4 111.9 103.6 95.5 92.4 91.6 89 91.9 95.1 94.1 95 103.4 107.9 106.3 103.7 100.2 99.3 90.9 81.6 73.1 68.3 68.1 69.7 70.1 62.2 59 50.5 55.2 58.6 61.1 60 57.9 54.7 52.7 53 56.9 54.7 46.5 45.2 44.6 41.8 40.2 43.6 44.8 46.8 48.8 53.1 60.4 72.1 89.4 102.2 113.8 127.1
4.5 5.5 6.1 6 6 6.3 6.6 5.5 5.9 5.8 5.7 6.7 6.8 11.7 12.6 13.7 17.6 20.7 24.2 28.4 32.2 34.8 35.6 35.5 34 34 34.1 33.8 36.4 45.1 52 60.8 60.2 50 38.2 30.4 25.3 25.3 26.5 26.8 24.4 20.4 20.3 19.9 17.7 13.2 10.3 8.4 7.5 9 11.1 9 8.5 10.5 11.8 13.8 13.4 8.5 7.6 7.2 6.7 6.1 6 5.3 5.6 5.6 6.7 6 6.1 6.4 11.8 26.8 44.5 49.6 59.8 61.2 56.5 53.1 47.1 47.7 44 35.6 25 19.5 19.5 14.6 9.4 6.5 6.5 8.3 12.4 15.8 15.3 13.7 12 16.4 16.1 18 22.7 21.4 24.4 29.4 41.7 45.4 50.4 58 69.2 77.6 86.7 99.2 107.3 124.8 138.1 152.1 159.7 154.8 151.9 151 157.2 164.6 178.8 187.4 193.1 196 199.4 194.4 195.1 195.8 185.4 173.3 166 160.2 154.8 150.3 146 144.8 140.7 135.9 133.4 130.6 129.9 134.9 142.2 152.7 148.6 142.7 129.7 115.9 107.3 101.5 94.5 91.3 90.1 89.9 92.2 94.1 96.3 100.4 103.9 104.5 102.6 103.6 102.4 100.1 94.9 87.9 76.7 67.2 66 62.3 63.5 60.8 50.6 55.2 62.3 63.3 66.4 64.8 62.1 56.8 53.4 52.1 56.4 52.9 45.4 43.8 42.8 41.8 38.3 41.1 43.5 45.4 47.8 52.6 60.7 73.5 89.6 103.2 117.4 130.8
6.7 3 5.9 6.2 6.3 5.9 5.6 5.8 3.6 5.6 6.4 6.1 7.2 11.5 12.9 15.9 23.6 27.4 32.8 37.5 38.2 37.4 36.2 33.4 32.7 33.4 34.6 36.9 42.6 44.7 50.3 53.6 51 39.5 29.6 25.3 25.3 26.5 28.3 28.2 22.1 19.8 23.4 23.5 18.6 12.6 9.7 8 7.7 9.8 13 13 12.3 12.2 15.4 15.5 9.9 8.7 10 8.8 9.8 6.8 6.7 5.1 5.3 5.6 5.2 5.6 5.8 6 7.2 16.8 33 45.8 56.8 55.8 44.5 43.6 41.9 42.5 33.5 22.5 17.3 14.9 13.4 10.4 7.4 6.3 6.9 9.9 14.4 15.3 12.3 9.8 12.3 15.5 14.3 15.2 18 20.1 25.4 36.2 46.4 49.5 57.4 66.6 76.3 86.6 96.1 107.5 117.5 130.1 142 148.7 144.5 140 139 141.4 149.9 156.7 170.1 171.7 173.4 178.1 178.4 180 174.9 170.2 168.2 162.7 157.4 153.1 149.7 144.6 138.4 134.3 130.7 126.7 122.2 121.7 120.5 128.7 132.4 140.4 137.4 133.3 124.4 110.9 102.7 97.5 92.9 91.2 89.2 89.3 90.8 92.5 95.1 99.3 104.2 101.8 105.9 108.1 101.3 98.4 98.4 88.3 75.7 66.9 64.9 59.3 57.8 54.9 51.1 57.9 64.3 66.1 68.3 67.7 64.6 61 55.3 51.5 54 50.7 44.5 43.7 42.4 41.5 40.1 40.1 44.3 45.7 48.3 51.9 60.3 72.9 88.8 106.3 121.2 135.9
6.1 6.4 3 5.6 6.3 5.7 5.7 5.9 5.5 6.2 6.3 6.5 7.7 11.3 14.1 22.7 29.7 36.3 43.7 46.2 42.8 39.5 32.9 32.1 31.6 35.4 43.8 49.3 45 43.4 42.9 43.5 38.5 30.7 25.4 26.8 29.5 31.1 33.2 27.3 20.7 23.2 27.6 27.7 18.2 11.6 8.9 8.1 8.2 11.1 14.8 15.9 14.6 13.9 13.9 13 9.8 11.9 11.3 12.4 10 10.5 9.2 5.6 5.7 5.7 5.3 5.9 5.7 5.8 6.1 14.2 27 42.9 49.6 41.5 40 45.1 41.7 33.8 23.7 15.4 12.2 11.1 10.2 8.3 6.4 6.1 6.7 10 13.4 12.7 10.5 8.6 10.7 11 12.1 13.9 16.4 24.2 30.8 40.4 50 56.8 68.7 75.7 83.9 95.2 103.7 112.8 123.9 132.7 142.5 144.5 138.7 138.3 138.2 138.5 144.4 150.2 155.9 154.9 155.4 164.4 161 155.6 155.6 154 153.5 153.6 152 149.4 146 140.7 134 127.5 123.2 119.9 117.6 115.7 115.7 117.5 118.5 124.4 129.4 125.6 115.8 105.3 100.7 95 91 92.1 90 88.1 87.8 88.5 93.6 96.6 96.3 101.7 104.9 109.2 105.1 94.4 95.4 89.4 75.5 66.9 66.5 61.7 55.7 53 51.7 56.1 63 65.6 70.6 70.1 65.8 61.1 58.5 52.8 51.7 47.8 44.8 44.6 44.7 41 39.9 38.7 44.1 46.4 47.8 51.7 60.7 72.9 90.7 109.4 125.1 138.7
5.7 5.9 5.2 5.6 5.7 5.6 5.6 5.2 5.6 3.2 6.3 6.7 8.8 12 17.6 30.5 37 46.6 48.9 47.8 42.6 34.4 30.4 30 32.8 40.5 49.3 48.8 43 38.3 35 34.9 30.2 26.5 25.4 26.2 31.7 35.3 35.5 25.7 22.4 25.6 30.6 33 19.7 10.9 9.3 8 9 12.7 15.7 15.9 17.3 18.4 15.3 15.4 12.9 11.2 14.6 14.3 11.3 11.5 8 5.2 5.5 5.6 5.4 6.4 5.8 5.8 6.3 10.2 26.2 42.6 42.7 36.7 41.9 40.4 34.2 20.7 14.5 12.8 9.7 8.8 8 6.8 5.9 5.9 6.5 8.3 9.1 8.8 8.4 8.1 7.9 9 11.8 17.7 20.2 31.7 39.9 45.6 57.7 67.7 83 89.9 96 102.1 110.4 118.3 123.4 128.2 134.8 139.1 137.9 138.3 139.8 140 142.6 144.6 145.1 146.1 148.3 147.9 144.8 144.2 144.3 146.4 151.3 151.8 149.7 146.8 142.6 138.4 131.4 125.5 121.5 119 117.6 116.6 114.9 113.2 114.6 117.8 119.8 114.2 107.5 99.8 96.4 94.5 90.2 91.7 89.7 87.6 87.5 88.3 89.8 90.4 96.6 100.8 107.1 110.5 104.2 92.5 90.1 83.7 74.8 69.8 69.7 61.6 61.1 55.4 52.7 59.7 64.6 67.1 72.4 71.4 68.1 63.4 58.4 55.1 49.6 46.8 45.7 44.9 44.4 41.7 39.1 39.1 44.3 47 49 52.2 62.3 75.6 94.1 112.5 127.9 140.3
5.2 5.4 6.3 5 5.7 5.4 5.3 5.5 5.8 5.6 4 7.1 11.1 16.3 24.2 34.2 42.6 50.9 49.1 43.2 32.7 28.8 30.3 36.2 40.1 45.8 49.3 48 43.5 36.1 33.6 31.8 28.9 25.5 24.6 27.5 34.6 38.9 34.2 24.5 25.4 30.6 33.6 32.3 19.8 11.8 10.4 9.7 10.7 14.3 15.5 17.6 19.2 17.4 14.7 15.5 13.7 15.7 16.8 15.5 14.7 12.2 9.6 5.4 5.4 5.5 5.8 6.6 6 5.4 5.7 7.9 25.3 35.4 35.4 35.4 37.6 35 24.4 11.6 8.6 8.4 8.6 7.7 6.6 6.3 5.8 5.7 6.1 6.7 7.5 7.3 7.3 7 7.4 8.4 14.8 21.3 30.2 38.8 46.7 54.3 67.9 79.8 89.7 99.2 105 109 112.4 120 123.1 126.1 133.4 137.6 139.1 146.2 145.1 143 143.3 143.1 142.9 140.4 140.9 141.4 141.9 142.5 143.4 146.7 151.7 151.6 149 145.5 141.4 137.4 131.3 126.3 123.4 121.9 120.9 120 116.8 112.9 110.9 111.9 112 106.2 102.4 100.5 97.6 94.5 89.8 89.6 89.2 87.8 86.6 85.9 85 85.6 91.8 104.6 106.6 104.8 99.9 93.6 88.8 80.7 73.4 69.7 69.2 64.9 60.8 55 56.1 66.9 67.2 72.1 74.7 75.3 70.7 66 59.5 53.8 50.4 47.1 46.2 45.5 44.8 42.1 39.4 38.8 44.7 47.3 48.6 54.2 65.1 79.4 97.8 115.7 130.9 142.7
5.2 5.4 6.2 4.9 4.7 5.3 5.5 5.3 5.4 -2.6 -2.6 10.4 13.9 20.5 31 40.4 49.6 50.2 45.2 35.9 28.4 28.1 33 39.9 45.9 50.5 49.2 46.4 41.4 33.4 31.1 31.5 28.5 24.2 27.2 31.1 36.2 37.8 31 27.8 28.8 29.9 38.6 31.2 21.6 13.2 10.8 10.4 11.9 15.9 18.5 16.7 18.9 16 16 14.6 15.7 17.3 15.7 17.4 15.6 12 9.3 5.9 5.6 5.7 5.7 6.3 6.3 5.6 5.7 7 17.8 28.6 32.3 31.3 30.6 23.7 13.2 6.9 6.7 6.9 6.8 6.4 5.9 5.6 5.7 5.8 5.7 6 6.5 6.3 6.2 6.5 7.1 10 19 28.7 36.7 45.1 55.5 65.2 77.5 88.5 98.3 103 109.9 116.8 123.1 125.6 126.8 133.3 138.8 143.1 146.1 149 146 146.4 144.4 141.4 140.6 140 140.2 140.8 142.5 145.8 150.5 155.1 153.5 150.9 148.3 144 141 136.3 133.6 129.7 127.8 126.1 123.5 119.4 115.2 112.9 110.7 111.8 107.5 105 104 99.5 98.3 95.2 91.1 90.1 90.7 92.6 87.3 84.8 82.3 80.9 88 95.8 97.8 94 91.2 91.4 85.6 79.6 73.6 75 71.1 68.3 63.5 54 63.3 69.3 75.2 77.8 78.9 76.1 73.1 68.2 62.2 57.2 50.7 47.6 46 45.3 44.6 43 38.8 38.1 44.7 46.7 49.2 56.6 67.7 83.6 102 119.3 133.9 145.7
5.3 5 7.2 4.5 5.2 6.4 6.1 5.6 5.8 -2.6 -2.6 15.4 18.6 24.7 34.7 45.2 49.8 47.2 40.3 32.6 27.8 29.1 35.2 44 50.4 52.9 46.3 41.7 35.7 29 27.4 28.1 27.4 27 30.1 33.4 34.2 32.6 31.7 33.1 29.5 32 31.3 30.8 18.7 11.8 10.1 10 11.2 15.7 19.1 20.4 19.5 18.3 16.5 19.5 18.9 16.5 18.6 18.5 15.3 12.1 8.4 5.9 5.4 5.5 5.7 6 6.3 6.4 6.1 6.8 12.4 22.8 27 24.8 19.4 13 7.1 6.3 6.1 6.2 5.8 5.5 5.4 5.4 5.5 5.6 5.8 6 6.3 6.1 6.4 6.8 9 14.5 24.6 36.3 44 55.8 64.1 72.1 86.4 92.4 102.8 109.6 116.5 124.2 129.4 133 136.4 145.5 147.3 150.8 155.6 151.6 149.2 148.2 145.9 144.6 141.4 139.9 139.9 142.1 142.8 148.9 152.7 152.8 149.9 147.6 145.2 141.8 140.4 138.6 135.8 133.6 130.7 127.1 124.6 118.8 114 112.6 110.8 110.8 105.5 103.5 100.8 98.8 97.3 95.7 92.1 92.9 96.4 92.4 87.5 86 85.1 79.5 83.9 87.8 92.9 90.1 87.9 85 86.1 83.1 77.9 75.4 73 68.7 60.7 54.9 70.8 76 81 84.3 82.7 77.6 76.4 71.5 65.5 58.7 51.9 48.9 46.4 45 44.3 43.7 39.4 38.4 44 46 50.8 59.1 71.6 89.5 107.8 124.2 137.4 147.7
5.5 4.9 4.8 5.5 6.1 6.6 6 5.8 5.9 -2.6 8.6 18.4 22.3 27.1 38.3 46.5 47.4 42 35.6 30.4 27.2 31.1 39.5 48.8 49.5 44.9 38 33.2 28.4 23.8 24.2 26.9 25.2 29.2 33.1 34.5 30.9 29.6 32.5 32.2 31 34.6 31.2 28.3 13.9 9.9 9.1 9.4 10.8 15.5 18.6 18.8 18.9 19 21.4 21.9 18.9 20.8 21.5 18.3 16.7 10.1 7.8 5.5 5.4 5.5 5.7 6 6.4 6.4 6 6.3 8.8 15.6 19.3 16.7 11.5 7 6.1 5.8 5.5 5.3 5.3 5.8 6 5.9 5.9 6.3 6.4 6.4 6.5 6.6 6.5 7.9 16.5 25.6 31.9 43.1 51.4 61 74 84.2 96.5 100.9 110 117.6 121.9 129.9 136.9 140.4 147.3 152.6 157.9 158 162.4 161.3 159.8 154.7 148.7 142.8 140.2 139.6 140 142.3 143.1 146.7 149.4 150.4 146.1 144.4 142.9 143.3 143.7 140.2 135.5 134.4 130.7 125.9 121.4 114.5 112.9 113.8 113.3 112.4 108.8 104.8 102.8 101.2 99.3 101.1 98.1 100.4 100.9 96.2 88.9 86.5 85.4 79.2 80.5 80.7 81.3 82.6 82.6 81.6 83.1 78.2 74.4 74.8 72.1 67.2 60 58.6 77.4 84.6 91.5 91.9 86 82.5 81.4 75.3 68 59.5 52.3 49.3 48.1 47.4 44.5 43.1 40.6 37.5 42.5 46.1 53.4 63.1 76.4 95.6 114 130.3 141.4 150.4
5.1 4.9 3.1 5.4 5.3 5.3 5 5.5 5.4 -2.6 8.7 18.5 26.5 31 42 45.5 43.8 37.1 30 26.7 27.2 30.8 38.4 45.7 39.6 34.4 29 24.4 21.3 26.8 26.5 25.9 26.6 32.1 34.1 31.7 28.5 29.5 31 32.2 38.6 42.1 36 23.8 15.1 9.1 8.4 8.6 10.2 13.7 16 19.7 22 23.7 24.1 21 22.4 22.1 19.7 19.7 14.8 10.6 7.8 5.6 6 6 5.9 5.7 6.1 6.4 5.9 6.3 7.3 8.2 10.1 9.3 7.3 5.8 5.6 5.4 5.5 5.4 5.6 6.6 6.9 6.8 6.8 6.8 6.8 6.7 7 7.1 7.1 11.6 22.4 31.7 40 47.5 60.6 72.5 82.7 91.5 104 109.7 118.4 123.4 128.4 136.4 142.5 148.7 154.3 160.9 161.4 164.2 162.9 160.9 154.6 149 144.8 139.6 138.5 137.7 138.7 139.8 142.4 146.1 147.9 146 144.2 143.4 143 142.8 143.7 137.8 133.7 131.6 127.5 123.9 118.9 112.8 113.3 116 115.8 116.1 112 107.7 106.4 108.6 108.9 109.6 106.3 107 106.7 100.1 95.1 89.3 83.7 77.2 76.4 76.1 77.3 77.4 78.1 76.5 76.4 72.4 69.9 74.3 69.7 63.4 58 63.9 82.4 93.7 92.1 94.3 89 88 85.1 76.7 68.8 58.4 51.9 49.1 48 48.4 47.2 43.1 40.4 36 40.6 46.4 55.7 67.4 83.5 101.8 118.4 134.1 145.8 154.4
4.8 5 3.1 4.7 5.3 5 5.1 5.4 5.4 -2.6 10.3 19.5 27.5 37 42.3 43.4 39.3 33.2 26.7 24.6 25 28.8 30.7 31.7 30 27.3 22.2 18.4 18.8 23.1 26.5 23.9 29 32 31.6 28.4 27.1 29.1 35.6 39.1 45.6 46.9 38.3 26.5 15.6 8.4 7.7 8 11.9 18.2 21.4 19.1 24.1 26.4 25.1 24.5 25.4 22.7 19.1 19.2 13.8 10.9 7.8 5.6 5.9 5.9 5.8 5.6 6.4 5.8 5.9 6 6 6.4 7.2 6.6 5.8 5.4 5.2 5.5 6.2 6.4 6.4 7 7.2 7 6.8 6.9 6.9 7 7.2 8 12.2 20.3 30.9 39.9 49.9 57.3 69.6 82.3 93.1 101.1 115.4 120.5 124.9 129.2 135.1 144.2 148.7 153.9 160.9 166.9 168.2 160.8 154.2 147.8 142.9 141.3 137.7 133.4 133.6 134.4 138.4 139.8 143.4 145.9 147 145.3 147 146.2 143.2 139.5 137.9 135.2 132 126.9 123 120.8 114.9 112.5 114.9 118.6 117.3 118.2 116.4 112.5 115.5 114.4 115.8 116.4 114.8 118.1 116.6 108.4 98.9 89.9 84.4 79 77.2 75.2 74.2 74.7 72.8 74.3 72.9 70 67.3 67.9 66.1 62.2 60.8 64.9 72.5 85.1 89.3 90.5 90.9 89.5 87.3 75.9 67.7 57.5 51.9 48.8 48 49.7 47.9 42.6 39.1 37 39.2 45.9 57 72.1 89.9 107.6 123.3 137.7 149.1 157.1
4.2 4.3 4.4 5.1 5.2 5.5 4.8 5.1 5.2 -2.6 9.4 20.3 34.1 39.5 42.5 40 34.9 30 24.8 22.1 23.7 27.5 27.3 25.2 24 22 18.4 17.1 17.2 24.7 22.7 25.3 29.6 29.8 27.9 25.2 28.1 36.9 46 51.4 53.5 50.6 38.1 24.9 12.4 8.1 7.4 7.9 12.8 18.9 19.2 22 24.4 26.6 28 26.4 25.4 22 18.7 16.3 13.6 11.1 8.5 6.3 5.7 5.8 5.9 6.2 4.1 6.3 5.9 6.1 6.3 5.9 6.4 5.4 5.8 6.6 6.8 6.6 6.7 7.2 7.8 7.4 7.3 7.2 7 6.9 7.3 7.3 10.1 17.2 25.9 33 36.4 42.6 55.7 68.5 82.6 91.2 97.2 107 120.4 127.4 130.7 135.3 140.5 150.2 158.3 161.3 167.6 169.9 162.4 152.9 145.6 141.1 137.6 135.7 133.6 131.3 133 133.9 137.9 141.1 142.4 144.7 148.5 150.7 147.9 145.2 142 138.7 133.7 130.3 128.8 124.2 120.5 117.5 114.3 112.8 117.4 122.8 123.1 122.2 120.4 118.8 121.3 122.6 123.3 120.8 120.4 128.5 122.7 111.6 101.9 92.8 85.9 81.1 79 77.9 74.2 73.7 71.4 68.9 67.1 66 62.6 60.9 62.9 62.6 63.1 66 68.8 80.3 85.9 89.1 92 89.1 83.5 73.9 64.7 56.9 51.8 48.2 48.1 48.2 46 41.4 37 36.7 37.9 46.4 60.6 78.9 99 114.6 129.5 142.8 151.2 157.8
4.8 4.8 -2.6 -2.6 4.8 6.1 4.9 5 5.2 -2.6 14.3 26.7 36.7 40.7 40 37.5 33.8 28.1 20.4 21.2 24.5 24.9 23.3 20.9 19.9 17.9 14.5 14.3 18.2 20.8 22.6 27.3 28.3 25.8 24.1 27.1 39.3 49.6 57.7 61 60.5 60.1 37.7 21.9 9.8 8 7.4 8.4 12.9 15.3 19 23.4 24.9 26.6 29.3 26.3 22.6 18.3 17.6 17.4 14.4 12 7.4 5.6 5.6 5.7 5.7 6.4 4.8 6.4 6.2 6.3 6.4 4.1 6 6.4 6.8 7.3 7.6 7.2 7.2 7.5 8.9 8.6 7.3 6.9 6.7 7.1 7.8 10.3 13.7 28.9 33.5 40.9 46.9 51.2 61.5 79.2 91 97.1 101.5 116.2 125.1 130.6 134.6 139.7 147 152 158.6 163.1 165.2 164.8 156.2 148 140.1 136.2 132.8 134.2 131.6 130.1 130 131.6 137.2 139.2 143.4 155.2 155.1 148.6 141.9 138.9 138 133 130.8 126.7 124.6 122.6 119.4 117.1 113.6 113.2 122.2 128.7 125.9 124.7 122.9 123.6 129.8 128.1 125.6 127.7 132.2 135.2 126.3 118.1 106.3 94.7 88 79.7 77.9 75.7 73 74.1 74.6 68 63.1 61.8 61 60.9 61 61.2 64.1 65.7 70 80.5 83 88 91.4 90.4 83.5 73.4 62.7 55.7 51.6 47.7 46.3 46.3 44 39.9 36.5 37.3 38.2 49.1 66.2 88.7 109 123.1 137.2 150 155.9 158.8
6.1 5.8 -2.6 -2.6 -2.6 4 -2.6 -2.6 -2.6 -2.6 20.2 29.6 37 38.7 37.2 34.9 31.3 23.8 17.1 18.2 20.6 20.2 18.2 16.3 14.9 13.1 11.8 13.8 16.2 21.2 27.1 26.6 27.3 22.7 22.7 33.8 49.4 59.1 62.6 64.1 61 61.3 35.2 19.5 12.1 8.3 7.1 8 9.8 13.7 18.4 23.6 24.8 27.9 27.7 24.8 20.7 19.6 20.1 14.3 12.7 10.2 7 5.4 5.4 5.5 5.6 5.9 6.5 5.7 6.4 4.4 5.8 6.4 6.8 7.2 7.4 8.3 8.8 8.2 8.3 9 9.3 8.9 7.3 6.7 6.8 7.1 12.9 20.7 24.1 27.8 35.3 44.4 51.1 54.8 71.3 80.9 97.5 102.9 109.2 124.1 130.1 133.3 140.1 146.1 153.2 160.6 166.5 172.4 170.1 161 151.2 144.7 136.9 133.7 131.1 131.5 130.4 128.9 128 128 130.1 138.8 143.8 147.5 147.2 143.6 136.5 132.2 129 127.1 126.7 125 123.1 119.5 117.9 117.1 113 117.4 123.7 129.1 127.3 124.7 124.3 128.7 132.4 139.6 138.5 134.8 141.1 141.2 133.1 123.9 109.6 96.5 88.1 82.9 77.9 74.6 72.3 71.2 69.9 64.4 62.9 62.6 61.6 61.6 60.9 61.9 64.9 65.7 70.1 77.6 84 89.4 86.6 86.1 81.1 72 62.8 55.7 51.9 47.9 44.4 44.3 41.7 38.3 36.9 36.9 41.8 55.5 76.2 99.5 118.6 132.5 144.7 154.1 159.3 159
6 5.6 5.5 -2.6 -2.6 -2.6 -2.6 -2.6 -2.6 14.1 24.6 31.4 36.2 35.9 34.5 31.2 25.9 17.5 13.4 14.9 18.9 18.3 14.9 12.2 11.1 10.4 11 13.4 20.6 26.9 27.7 25.8 24.7 21.1 27.7 42.3 55.9 62.7 65 62.2 62.8 46.4 29.7 18.8 15 8.7 7.7 7.4 8.2 13.8 20 23.3 26.2 26.7 24.4 22.7 18 18 14.2 10.8 10.6 8.7 5.7 5.8 5.5 5.7 5.8 6.2 6.7 6.2 5.2 5.8 6.2 6.7 7.2 7.6 7.5 8 8.4 8.9 9 9.1 9.1 8.8 7.6 6.8 6.9 7.5 14.2 26.6 30.2 34.8 39.8 44.2 50.9 60.9 75.7 90.9 104 106.2 115.6 125.8 130.1 135.2 144 155.4 162.6 165.1 172.7 170.9 163.5 152.4 146.2 140.6 134.8 132.8 131.1 130 129.5 130.2 128 126.3 126.7 129.6 132 138.7 141.4 135.8 131 126.4 126.8 126.4 124.7 121.7 119.7 117.1 113.4 109.7 107.2 120 124.7 128 126.6 125.7 128.8 134.4 137.2 145.6 146.9 145.1 143.7 137.5 132.7 124.3 113 103.1 90.5 82.6 77.6 74.2 71.5 68.5 65.5 64.1 64.1 64.5 62.8 62.2 62.2 63.5 64.7 65.2 70.5 82.2 85 84.6 83.7 81.3 78.9 69.6 62.4 55.6 51.2 46.6 43 42 39.9 37.1 36.1 36 45.2 62.9 88.2 112 130.1 144.2 154.1 158.2 160.2 158.1
5.4 5.4 5.4 5.6 -2.6 -2.6 -2.6 -2.6 7.4 16.3 26.8 31.3 33.8 32.7 31.5 26.5 18 11.6 11.3 13.2 17 14.6 10.8 9.2 9.1 9.3 10.3 16.3 25 26.8 26.1 21 18.9 24.6 42.7 54.5 62.3 61.9 61.1 62.2 47.8 35.9 24.5 17.8 14.5 8.9 7.6 7.3 8.3 12.4 20.4 23.3 23.2 20.9 21.7 19.2 20.6 15.5 8.4 7.3 5.5 6.4 5.8 5.8 5.7 5.7 5.9 6.1 6.2 4.1 5.6 6.3 6.7 7.3 7.9 7.3 7.2 7.2 7.2 7.6 8.3 8.7 8.6 8.1 7.4 6.7 6.9 10.4 23.5 32.3 37.1 39.1 41.2 51.4 60.8 73.2 86.2 97.9 106.8 110.1 121.1 128.9 133.4 140.8 152.4 161.1 163.5 170.9 170 161.7 153.8 147.1 144.7 140 135.5 131.5 130.4 131.5 130.8 129.2 127.5 128.3 124.9 124.1 125.9 127.1 127.1 122.4 122.4 122.4 120.4 121.5 121 118.9 114.6 113.4 111.4 105.1 105.5 110.2 120.8 124 124.5 127.3 134.9 145.3 142.2 149.2 149.1 150.7 140.2 137.6 133.4 125.9 114.3 104 90.2 79.9 76.1 72.8 69.8 66.7 65.2 65.2 64.7 64.8 64 64.4 64.6 64.9 64.5 64.7 69.3 81.1 81.2 80.5 78.9 78.6 77.6 69.9 61.2 54.4 49.3 44.5 42 40.6 38.6 37.2 34.6 38 47.8 76.9 96.4 120.5 141.1 151.8 157 158.4 157.7 156.1
5.2 5.1 5.1 5.1 5.1 5.1 -2.6 -2.6 10.6 17.9 26.3 30.8 31 31 27.2 21.5 12.8 9.1 10.3 11.8 12.3 8.9 7.1 7.5 8.3 9.2 13.4 21.9 26.6 25.6 21.8 16.4 17.4 29 52.4 60.5 61.3 57.6 54.4 46.6 35.6 26.5 19.7 17.7 13.9 8.7 7.6 7.7 10 13.5 21.2 24 21.4 19.6 14.7 13 20.1 13.5 6.8 6 6 5.9 5.9 5.9 5.8 5.8 5.7 6.1 6.4 4.1 5.7 6.2 7.2 8.1 8 7.4 7.1 7 7 7 6.9 7 6.9 6.8 6.5 6.8 14.2 19.2 27.4 35.2 35.5 38.3 46.4 55.9 68 82.5 94.6 102.1 108 118.3 126.6 134.4 140.2 149.5 155.5 156.7 159.9 162.4 161.1 158.2 152.8 148.2 145 140.8 134.5 131.1 131.5 132.6 130.5 132 129.5 127.3 124.9 123.4 120.7 120.5 120.3 119.4 119.6 117.5 115.9 113 112.5 112 110.9 108.5 105.7 104.7 104.6 104.7 108.3 114.7 122.5 128.4 131.7 135.6 137.8 146 147.7 146.3 136.5 131.5 127.4 121.4 109.8 98.5 83.3 77 73.3 69.9 67.6 68 66.6 65.4 65.3 65 65.6 66.1 66.8 67.9 67.3 64.7 67.2 68.6 67.2 71.7 77 76.3 77.7 70.3 59.4 52.6 47.3 44.1 42.4 41 39.2 37.3 35.9 38.8 51.9 84.5 101 123.4 143.6 152 151.3 152.4 151.4 149.5
5.1 5 5.1 5.2 4.5 5.2 4.2 -2.6 10.2 19.1 27.1 31.4 30.6 28.4 23.4 16.2 8.4 7.7 8.3 8.3 7.8 6.6 6.6 7.7 9 11.9 16.5 22.8 25.7 23.6 16 12.9 19.7 36.2 48.3 55.2 53 49 41.8 32.3 23.1 20.6 20.9 19.2 14.2 9.6 7.5 8.1 13.5 16.3 23.6 21.8 19.4 16.4 11.5 15.4 11.1 7.7 6.2 6.1 6 6 6 6 5.9 5.9 5.9 6 6.2 6.2 5.8 6 6.7 7.6 7.7 7.4 6.9 6.9 6.8 6.8 6.8 6.7 6.6 6.2 6.9 12.1 17.4 25.2 30.4 31.9 36.8 41.7 49.5 60.3 73.8 86.5 94.9 104.3 111.4 128.6 131.7 140.3 149.9 154.9 152.6 152.1 153.8 153.3 152.5 154 152.2 149.3 144.4 139.8 138.5 133.6 130.9 130.9 133.6 133.7 130.4 127.9 126 125.6 123.6 121.5 122.4 122.3 119 118.7 120.1 118.4 114 110.1 107.9 106.6 105.7 104.8 104.3 104 103.8 105.2 109.3 113.1 116.7 116.3 121.3 129 136.1 129.4 130.7 123.4 115.7 107.3 100.3 88.6 76.7 73.1 70.2 68.7 68.5 70.7 69.4 68.1 67.9 68.6 67.6 68.3 67.9 68.8 66.9 64.4 65.3 67.4 65.3 65.3 65.9 68.7 70.7 63.9 55 50 48 46.5 43.9 42.5 39.8 37 35.8 39.1 58 86.2 105 120.4 137.4 142.4 142.4 141.6 141 139.6
5 5 5 5.3 4.6 5.3 -2.6 -2.6 12.9 22.4 29.6 32.6 29.4 23.8 17 10 7 6.7 6.5 6.4 6.2 6.2 6.8 8.7 12.6 15.7 19 24.3 25 18.2 12.3 14.1 23.1 39.2 43.7 44.8 43.8 37.7 27.5 22.1 18.9 23 25 22.5 17.8 11.4 7.8 6.9 10.7 16.8 22.4 21.2 16.9 11.8 12 12.8 6.6 6.3 6.3 6.3 6.3 6.5 6.5 6.4 6.4 6.1 6.1 6.1 4.1 6.2 5.8 5.7 6 6.8 6.9 6.7 6.6 6.6 6.4 6.4 6.3 6.2 6.2 7.8 14.3 18.9 23.4 31 33.9 33.6 39.7 43.7 54.7 67 76.7 86.9 97.8 107.8 117.8 132.3 145.1 152.9 154.4 150.6 149.5 149.3 149.5 149 149.3 153.3 150.6 149.2 144.2 140.9 137.3 134 131.3 137.7 132.1 129.5 128.1 127 126.7 126.7 126.5 122.4 121.4 121.7 122.6 125 126 125 118.6 114.7 111.1 108.9 106.2 105.6 104.7 104.7 104.2 103.9 104.5 108 110.6 111.6 110.9 109.6 112.7 116.3 117.4 112.2 106.1 92.3 87.1 79.3 73.4 71.9 70.9 70.8 70.4 69.3 69.2 68.7 70.8 69.8 68.4 66.6 66.5 68.1 64.7 64 63.9 65.2 66.1 68 65.8 66.8 65.1 60.3 53.7 51.1 51.5 49.8 47.1 45.2 40.7 36.8 35.3 39 63.5 83.9 97.1 112.6 119 128.3 130.8 130.6 131.6 131
5 5.1 5 5.1 3.6 4.7 -2.6 -2.6 14.9 26.4 29.9 29.9 23.5 18.6 13.6 8 6.6 6.4 6.2 6 6.1 6.4 6.8 9 13.9 17.7 26.1 28.6 24.2 12.7 12.2 16.4 31.3 38.9 40.2 40.1 38.7 28.6 21.1 19 21.6 27.3 28.6 26.5 21.8 12.6 7.6 6.8 11.6 14.2 15.6 18.8 12.4 16 8.8 5.7 6.3 6.5 7.1 6.8 6.9 7.2 7.3 7.4 7.4 6.3 6.1 6 5.8 5.9 5.8 6 5.9 6 6.1 6.1 6.1 6 5.9 5.9 5.8 6 9.5 18.6 22.8 28.8 31.1 34.9 36.6 37.7 42.4 47.4 56.6 67.9 76.4 88.7 95.7 110.7 123.7 139.8 156.8 154.8 147.9 146.4 147.2 147.3 148 149.3 150.4 154.6 151.6 148.1 146 140.8 136 131.1 132.5 130.4 129.9 128.3 127.4 127.2 126.8 124.8 123.6 126.3 127.9 128.5 128.7 128 127.8 125.8 126.2 122.9 120.5 117 110.5 108.2 105.7 104.7 104.4 104.1 104.4 105.8 107.6 108.6 108.3 105.1 100.3 101.9 103.5 100.8 93.8 86.6 80.9 76.3 74.3 75.6 74.7 72 70.5 69.6 69.4 68.9 68.1 68 67.4 65.1 64.1 64.1 62.8 62.9 61.9 63.8 69 73.2 71.7 69.5 64.5 59.8 55 53.7 54.4 52 48.1 44.7 39.9 35.9 34.1 41.1 57.8 69.4 71.3 82.8 104.4 109.6 118 120.7 123.8 124.1
5.1 5.1 5.1 3.9 4.7 -2.6 -2.6 -2.6 19.5 29.5 30.1 25.8 19.4 14 9.6 6.4 6.4 6.2 6 5.9 6.1 6.3 6.9 8.2 14.9 26.7 30.8 27.9 18 12.1 12.7 20.3 26.8 33.9 38.7 35 32.1 19.3 18.7 22.4 27.1 31.9 33.7 31.1 21.3 12.6 7.3 6.3 7.1 7 10.3 12.5 15.9 10.2 6 6.2 6.5 7 7.7 8.1 8.3 8.4 8.1 7.7 7.5 7.2 6.8 6.3 6 5.8 4.6 6 5.8 5.9 5.8 5.8 6 6.2 6.5 6.5 7.8 9.6 14.8 21 24.7 34.7 37.2 38.8 40.6 42.5 47.8 53.8 62.8 71.7 81 88.2 96.4 109.9 127.6 140.8 151.9 144.6 141.8 146.2 147.9 149.2 148.7 147.9 154 156.2 150.3 147.4 140.8 132.6 134.4 131.4 127.8 127.6 127.6 127.3 127.7 127.9 127.1 125.8 127.5 131.3 133.9 133.5 132.6 132 133 129.9 127.6 125.4 125.1 124.5 117.6 113.8 110.8 110.2 109.4 107.8 107.4 106 104.1 102.9 103.5 101.6 97.8 92.7 90.9 88.2 86.3 82.5 77.4 79.4 80.8 80.4 78.4 74.1 72.7 70.8 70.6 68.3 69.9 70.6 66.1 64.4 64.5 63.7 63.1 62.4 62.3 65.2 70.8 77.7 77.2 71.2 64.5 58 55.8 56.9 53.2 50.8 48.5 41.4 39.4 35.5 35.1 39.9 47.1 52.4 56.1 67.2 82.2 88.5 103.7 112.3 117.3 118.7
5.2 4.9 4.1 5 4.9 -2.6 -2.6 13 25.2 28.5 26.8 21.9 15.6 9.1 7.1 6.4 6.1 5.9 5.9 5.9 6.1 6.3 6.9 9.2 21.6 34 31.5 24.4 15.4 12.6 12.4 17.8 24.7 33.8 33 30.5 22.1 15.3 20.6 26.4 32 38.4 40.5 30.1 21.1 14.6 7.8 6.2 6 6.1 7 14.2 11.1 6.7 6.7 7 7.4 7.9 8.5 9.1 8.9 8.7 8.5 8.2 7.7 7.1 6.5 6.1 5.7 5.6 5.3 5 5.9 5.8 6 6.2 6.5 6.8 7.2 8.2 10.2 14 20.4 26.9 35.1 44.3 43.7 43.3 47.6 49.9 54.4 60.1 67.5 73.8 81.4 95.6 103 116.1 131.6 143.7 146.2 137.1 144.1 147 152.4 150.2 147.8 148.4 153.1 152.7 145.7 136.7 131.5 132.9 137.8 132.4 127.6 127.8 126.6 126.9 127.2 127.7 126.3 126.8 127.9 129.8 132.8 135.3 136.3 137.6 137.2 134.3 129.4 130.3 129.6 126.8 123.7 122.2 119.5 117.1 117 114.4 111.7 110.5 109.5 107.2 102 97.7 93.7 90.9 88.1 85.1 81.8 81.3 83.4 86.3 86.1 82.3 78.2 75.3 73.6 71.1 69.7 68.5 67.1 67.1 65.7 65.1 66 67.2 65.1 62.2 64.1 67.4 70.2 75.5 73.9 68.4 62.4 56.7 57.9 58.5 53.8 49.2 46 40.7 38.5 36.6 33.8 37.6 42.5 48 52.7 58.3 69.7 80.6 92.7 103.7 110.2 116.2
4.8 4.1 5.1 5.1 5.2 -2.6 -2.6 18.4 25.5 26.4 24.9 17.1 9.6 7.3 6.4 6.3 6 5.9 5.9 5.8 6.1 6.4 6.8 15.4 30.2 34.1 30 22.2 17.4 12.8 13.9 15.1 24.1 32.6 26.8 23.5 15.4 13.3 22.2 31.2 39.7 46.1 39.3 29.3 21.3 15.9 8.4 6.4 6 6.2 7.1 8.1 6.2 5.3 5.9 7 8 8.5 8.9 9.1 9.1 9 8.8 8.6 8.2 7.4 6.4 6 5.6 5.2 5.1 5.9 5.9 6 6.4 6.8 7.2 7.6 7.6 9 12.4 17.7 26.8 37.6 44.4 48.8 48.6 48.2 52.3 57 60.1 62.7 67.5 73.2 82.2 93.4 104.5 115.4 129.9 139 134 140.8 144.7 146.2 148.3 147.4 150.1 153 151.6 148.8 134.2 130.4 137.1 136.4 133.9 130.2 126.9 126.5 125.1 127.2 126.7 125.8 125.2 125.6 126.2 126.8 130.4 135.8 139.4 138.2 139.7 136.5 136.7 136.8 135.6 132.2 129.3 127.5 124.7 123.1 121.7 119.5 117.2 116.3 113.9 110 105.5 100.8 97.2 93.4 87.5 87.4 89 89.7 87.7 85.3 83.5 80.8 77.8 74.3 72.9 71.5 71 69.9 68.6 67.5 66.8 66.4 65.8 66.7 63.5 64 67.1 66.7 67 68.5 67.2 63.9 60 56.9 62.6 58.3 53.3 47.5 44.5 41.2 38.6 38.2 33.7 36.3 42.9 53.9 56.5 55 63.9 75 86 97.5 106.1 114
4.2 5 5.1 5.1 4.9 -2.6 -2.6 15.3 23.1 24.5 19.8 10.9 6.9 6.4 6.1 6.2 5.9 5.9 5.9 5.9 6.1 6.4 7.9 19.9 35.5 34.8 28.7 20.5 14.6 12.3 13.6 14.5 20.1 25.9 19.8 14.2 11 12.5 25.3 37.3 48.1 48.2 40 26.7 18.2 16.4 12.3 6.7 6.2 5.9 5.6 5.6 5.8 5.7 5.6 6.4 7.4 8.2 9 9.2 9.1 9.2 9.1 8.9 8.4 7.3 6.5 5.8 5.6 5.2 5.9 6 6.2 6.4 6.8 7.3 7.8 8.2 9.1 11.8 16.4 23.3 34.3 45.8 49.4 54.8 53.8 55.4 58 62.4 63.2 65 70.4 76.9 84.2 94.8 104.8 115.8 124.8 128.4 136.6 147.1 152.4 148.3 146.2 142.2 145.4 146.1 137.9 130.1 129.1 136.4 138.2 131.7 127.8 126.3 123.2 124.6 122.9 126.1 125.5 124.5 124.5 124.6 125.1 125.7 128.4 131.5 137.7 146 148.5 147 143 142.1 139 136.2 135.4 133.4 131.1 128.8 127.8 126.1 123.5 121.5 117.5 110.3 105.4 100.2 95.3 90.6 93.9 98 98.8 95.3 90.1 86.7 82.4 79.2 76.6 75 72.8 71.7 71.3 70.7 68.8 68 67.6 66.9 65.4 64.2 64.2 66.7 67.5 64.6 62.7 61.4 61.2 60.7 58.7 57.8 59.9 55.3 48.3 45.6 43 41 37.4 35.6 33.7 37 48.6 58.7 56.2 56 62.9 71.1 80.2 89.9 101.8 116.3
6.1 5 5.1 5 3.8 -2.6 -2.6 15.5 19.6 19.7 12.4 7.7 6.1 5.9 5.9 6 5.9 5.8 5.8 6 6.3 6.6 9.7 28.1 36.1 32.5 26.2 20.8 12.9 11.2 10 14.6 17.6 19.5 11.4 8.7 9.9 16.8 29.6 42.9 47 41.5 33 20.7 18.7 25.1 16.8 6.7 6.3 5.9 5.5 5.3 5.1 5.5 5.9 6.5 7.9 9.2 9.5 9.6 9.2 8.9 9.2 9.1 8.5 6.7 5.9 5.5 4.9 5.9 5.9 6.3 6.7 6.9 7.2 7.7 8.3 9.4 12.5 16.7 22.7 30.4 40.9 51.4 56.1 59.4 61.9 65.4 65.1 63.8 63.7 68.2 74.6 79.5 84.8 94.6 103.6 111.9 118 140.1 153.7 159 159.6 155.5 145.9 139.4 140.9 135.1 129 128.8 128.8 130.5 129.6 127.1 124.5 121.9 120.2 121.5 120.4 120.8 122.8 121.4 123 122.1 123 124.7 129.9 138.3 145.1 153.2 156.5 160.7 151.1 144.8 141.4 139.8 141.5 137.2 135.7 137.2 135.9 133.3 128.2 122 116.4 111 102.7 98.4 94.7 96.1 98.1 96.5 98.3 97.2 95.7 89.9 82.8 77.7 75.1 73.1 72.8 71.7 71.2 70 68.6 68.4 68.8 68.6 64.3 62.4 63.7 67.4 66.1 62.6 59.5 55.2 56.9 58.6 58.6 58.5 59.3 53.2 46.1 43 41.1 37.4 35.4 34.7 34.3 40.3 50.7 58.3 56.4 58.4 62.3 68.2 78.2 88.7 102.2 118.7
4.8 5 4.9 4.9 4.1 -2.6 -2.6 9.1 14.6 11.6 8.1 6.1 6 5.9 5.9 5.9 5.8 5.9 5.9 6 6.3 6.8 19 36.1 36.7 28.7 22 20.5 14.5 10.2 9.3 12.2 13.3 12.7 8.1 8.6 13.9 23.7 36.6 45.3 41.9 36.2 28.7 20.3 25.2 28.1 18.8 6.7 6.3 5.9 5.5 5.3 5.6 5.7 6.2 7 8.7 9.5 9.8 9.7 9.4 9.2 8.8 8.6 7.6 6.1 5.6 4.1 6 5.8 6 6.3 6.8 7.2 7.6 8.1 9.6 12.3 16.6 22.5 30 38.5 48 52.9 61.6 64.6 68.8 70.8 67.4 66.7 68.2 73.7 78.5 81.7 86.9 94.4 101.8 110.9 127.9 147.4 163.4 162.7 162.1 154.1 143.1 136.2 133.8 129.7 129.1 129.1 128.8 130.1 131.6 127.7 124.1 122.3 118.4 118.9 119.3 119.9 120.7 121.2 121.5 121.9 122.3 125.6 128.3 139.4 149.6 156.5 164.3 165.3 154.8 149.4 145.3 145.2 142.6 140.7 139.8 141.1 137.7 130.4 122.4 117.1 112.8 107.1 99.4 100.3 96.6 96.1 96.1 91.6 89.1 88.1 88 87.9 84.1 77.3 74 72.1 71.3 70.5 70 69 69 69.5 70.7 67.9 64 59.6 60.5 64.5 63.7 60.3 56.3 53.6 55.8 58.8 59.9 58.5 54.4 50.9 45.5 40.7 37.9 35 35 34.8 35 40.6 49.4 53.9 53.1 54.3 59.6 69.2 80.5 91.9 103.3 114.2
4.8 4.9 4.9 4.6 -2.6 -2.6 -2.6 7.2 8 7.2 6.1 5.9 5.9 5.8 5.8 5.7 5.7 5.9 6 6.2 6.6 10.3 27 36.7 30.7 24 20.4 18 13.6 10 8.4 8.8 8.7 8.4 8 9.5 18.8 29.5 42.2 43.4 39.8 35.1 26.7 21.3 31.6 21.4 14.1 7.4 6.3 5.8 5.5 5.6 5.6 5.7 6.2 6.9 8.8 9.4 9.8 9.6 9.5 9.2 8.1 7.5 6.5 6 5.5 4.1 6 6.1 6.2 6.4 7.1 7.4 7.7 8.7 10.8 15.3 21.5 28.6 36.9 47.5 54.8 57.2 63.8 68.3 71.4 71.4 68.7 70.4 74.1 78.1 80.4 84.6 91.7 99.6 104.3 115.9 135.6 156.1 169.3 166.2 158 148.1 140.1 134.8 130.1 130 132.3 135.1 132.1 130.8 129.6 121.6 116.4 116 116.2 117.1 119.1 118.2 120.6 122.2 122.6 122.6 123.6 128.4 139.2 146.8 152.1 158 164.6 164.9 154.4 150.9 148.4 148.6 144.6 141.6 140.1 137.5 132.3 125.1 117.1 113.5 110.8 105.5 105.4 99.9 96.6 92.5 91.2 89.9 88.7 87.9 87.5 86.9 84.8 76.5 74.3 72.1 70.7 70 69.5 69.7 70.1 70.8 70.8 67.4 62.7 58 56.1 59.4 60.5 57 53.4 53.1 56.4 59.5 59.2 52.9 48.5 45.5 43.1 39.1 35.9 34.8 34.9 32.9 36 40.5 46.5 49.2 50.1 52.7 61.7 74.6 86.9 99.4 110.3 116.6
4.8 4.8 4.4 3.9 -2.6 -2.6 -2.6 5.4 5.7 5.9 5.9 5.8 5.7 5.7 5.7 5.6 5.7 5.9 6.3 7.4 8.3 15.5 34.7 37.3 24.8 21 20.2 17.2 10.3 7.2 7.3 7.4 7.2 7.5 8.8 15.1 25 36.8 42 41.6 38.9 34.2 24.5 23.6 23 21.5 16.9 6.8 6 5.7 5.5 5.6 5.6 5.7 6.1 6.8 8.1 9.3 9.5 9.4 9.3 8.8 7.4 6.9 6.4 5.9 4.1 5.9 6.2 6.3 6.4 6.6 7.3 8.1 9 12 16.3 21.5 28.6 35.8 45.9 56.2 60.5 64.2 68.3 71.2 72.3 73.7 73.7 75.3 78.2 80.7 82.9 87.3 95 100.1 107.7 122.5 143.2 168.2 179.4 168.3 156.6 150.8 138.9 131.4 133.8 142 146.3 142.6 132.6 128.1 123.7 116.7 115.3 115.9 115.3 115.6 116.3 117.7 122.5 123.1 123.8 126.6 133.9 144.6 154.5 157.2 159 164.1 167.7 164.8 154.7 149.6 147.5 148 143.8 139.3 135.3 131.4 126.7 119.8 113.3 110.1 109 110.1 107.6 100.3 96.6 92.9 90.9 90.6 88.9 88.5 87.8 86.8 83.6 78.8 76.6 71.8 70.5 69.8 69.5 69.8 71.3 70.9 70.1 67.1 62.1 56.4 53.2 54.2 56 53.6 51.7 54.3 58.6 58.7 55.7 51 45.7 43.5 42 39.5 36.9 34.6 34.4 34 36.3 40.8 44.8 47 48.8 53.5 65.3 79.6 94.9 108.9 117.4 122.1
4.7 4.8 4.8 -2.6 -2.6 -2.6 4.8 5.1 5.2 5.4 5.5 5.6 5.5 5.6 5.8 5.8 5.8 6.2 6.7 8.3 15.4 25.2 33.1 30.6 24.2 21.7 20.9 11 6.8 6.7 6.7 7 7.7 8.7 13.2 22.5 31.6 41.8 42.4 41.2 39.1 31.1 24.7 25.1 21.8 24.3 17.2 6.5 5.8 5.7 5.5 5.6 5.6 5.6 6 6.4 6.9 8.3 9.2 9.2 8.9 8 6.7 6.2 5.7 4.1 5.8 5.8 6.1 6.4 6.7 6.8 8.1 10.5 14.6 21.2 27.1 31.7 37.7 46.9 55.4 60.2 64.6 67.8 70.4 73.7 74.3 76 78.6 81 81.3 83.2 86.1 91.6 97.1 103.5 109.8 130.8 156.6 170.3 174 163.7 154.6 149.2 136.6 132.2 134.8 139.3 137.3 134.9 134.6 129.6 121.5 115.5 115.6 115.9 115.2 115.8 119.2 125.5 127.1 129.6 133.1 142.1 151.9 165.6 169.2 169.6 169 171.1 169.2 163.4 150.5 146.7 143.9 140 134.6 130.6 126.2 122.9 118.2 113.5 109.9 108.5 111.6 112.2 107.3 100.4 98.5 94.9 92 90.8 89.9 90.5 88.4 87.2 83.4 79.2 75.5 71.5 70.4 70.4 70.5 69.7 71.7 70.6 67.9 65.7 60.1 53.7 51.3 50.2 51.3 50.3 50.9 56.8 58.9 56.9 53.4 49.9 44.7 42 41.4 39.6 37 34.4 34 35.1 37.3 39.4 42.7 46.5 47.9 56.7 70.7 86.8 103 116.5 124.5 128
4.7 4.7 3.8 -2.6 -2.6 1.9 4.8 5.1 5.2 5.3 5.2 5.3 5.3 5.5 5.7 5.9 6 6.1 6.4 8.9 19.2 29.9 31.1 27.9 24.4 21.7 15.6 7.1 6.6 6.6 8 9.8 14.2 18.2 20.1 30.1 38.2 42.1 41.9 40.9 37.4 29.4 27.4 24.8 22.2 25.7 16 6.1 5.8 5.7 5.6 5.6 5.6 5.7 5.7 6.1 6.4 7.2 8.4 8.8 8.2 7 6 5.4 4.2 6.2 6.1 5.9 6 6.2 6.5 7.9 12.6 17.8 23.1 33.2 40 44.7 48.9 57 63.2 66.4 71.7 75.2 76.1 77.6 79 81.1 85 87.6 86.4 85.7 89.5 95.2 100 105.1 122 146.7 168.2 177.8 178.2 168.9 157.2 142.2 136.6 131.1 139.8 135.8 127.4 122.1 120.2 120.8 117.4 113 114.4 114.8 117.9 118 122.6 128.1 131.8 143.9 154.2 164.6 172 178.2 185.4 188.7 183.5 177.3 172.2 164.8 152.3 144.4 139.4 134.2 127.5 121.9 118.3 114.4 112.4 110.6 109.1 110.4 113.1 111.4 105.1 99.5 97.6 95.8 93.8 92.1 90.7 89.3 89.2 90.7 83.9 78.6 74.3 72.6 69.6 71 72.8 68.7 75.7 72 64.3 60.1 54.3 50 48.8 48 47.4 47.7 51.2 58.9 58.6 52.8 49.6 48.7 44.7 41.2 40.3 38.6 36.4 34.2 32.8 36.2 37.7 38.2 40.9 44.1 48.7 60.9 77.3 93.6 110.7 122.7 131.5 134.4
4.7 4.7 4.3 -2.6 -0.5 2.6 4.9 5.1 5.2 5.2 5.1 5 5.1 5.3 5.6 5.9 6.1 6.2 6.4 11.1 22.6 29 29.4 25.5 23.8 16.9 8.2 6.6 6.9 7.8 13.6 19.2 27.1 30.2 28.1 32.7 40 41.4 42.3 40.6 36.4 32.1 30.7 26.3 24.2 26.6 15.8 6 5.6 5.5 5.5 5.6 5.6 5.6 5.6 5.8 6.2 6.4 6.8 7.3 6.6 6.1 5.7 6.1 5.6 6.4 6.3 6.2 6.1 6.1 7.4 13.8 24.3 31.6 34.1 44.3 53.3 58.7 57.9 62.9 69.2 72.9 78.7 82.1 79.6 80.6 82.7 85.7 88.3 90.4 90.1 89.8 93.9 97.8 102.6 107 132.2 158 167.1 169.8 171.3 158.6 140.9 137.7 131.2 122.5 125 120 114.7 109.2 111.3 111.4 112.1 111.8 112.6 114.2 115.8 117.2 122.9 126.3 135.4 152.6 165.8 176.5 188.4 197.1 201.9 200.5 191.6 183.9 172.4 163.8 154 147.8 140.4 134.7 128.8 122.5 117.1 113.5 111.6 110.4 109.4 109.9 110.5 106.8 101.7 99.7 97.6 95.5 94 92.1 90.2 88.9 90.8 87.9 83.2 78.4 76.1 72.8 70.9 69.4 71.3 69.1 75.1 69.1 62.1 55.2 49.6 48.1 47.2 46.3 45.3 45.9 51.4 58.6 54.8 48.5 47.2 46.7 43.8 40.6 39.6 37.3 37.1 34.5 33.5 35.2 37.6 40.2 41.8 44.7 51.3 65.7 83.5 100.1 114.2 128.3 136 141.6
4.7 4.6 4 -2.6 -0.1 3.1 4.9 5.1 5.2 5.2 5.2 5.1 5 5.2 5.6 5.9 6.1 6.2 6.4 14.3 21 26.6 25.7 21.5 18.5 12.3 6.4 6.4 7.2 16.8 24.9 28.8 36.8 38.4 32.3 36.6 40 41.9 42.4 40.3 35.8 31 27.6 27.9 25.2 19.2 7.4 6.3 5.5 5.3 5.6 5.6 5.6 5.6 5.6 5.7 5.9 6.1 6.2 6.3 6.2 6 4.8 6.3 6.5 6.5 6.4 6.3 6.2 6.8 13.1 25.1 37.4 44.4 44.2 50.1 60 67.3 69.9 71.3 78.1 83.1 86.3 87.1 83.6 84.2 88 90.1 90 90.3 94.1 95.3 99.2 99.1 105.1 109.5 131.3 140.8 142.3 141.4 148.2 130.9 126.3 124.2 118 112.2 106.6 105.7 106.1 107.2 108.5 110 111.2 112.1 113.3 116.2 118.8 120.3 124.3 131.9 146 162.6 181.5 195.7 204.4 208.3 210.4 200.6 192.2 183.9 174.4 167.9 159.1 152 143.8 137.6 130.9 124.5 119 115.8 113 111.3 110.1 109 106.9 103.7 103.7 103.3 101.7 99.5 96.4 92.1 89.5 88.5 88.2 84.7 81.6 79.5 77.7 76.2 71 68.7 71.5 68.3 69.6 65.5 60.6 54.2 47.8 46.4 45.9 44.9 44.2 43.7 50 53.6 49 46.2 45.4 42.8 40.5 39 38.3 36.5 35.5 34.5 32.4 35.1 38.4 43 40.4 44.6 52.8 68.6 87.1 105.7 119.4 131.7 142 151.4
4.9 4.2 -2.6 -2.6 -2.6 2.5 5 5.1 5 5.1 5.1 5.2 5.1 5.2 5.5 5.7 5.9 6.1 6.1 14 20.8 24.3 23.3 23 16.6 7.4 6 7 14.6 27.3 36.2 40.1 43.5 37.7 34.9 40.3 42.5 42.4 42 39.6 34.1 28.8 28.9 30.7 28 8.1 6.4 6.6 5.6 6.2 5.6 5.7 5.6 5.6 5.6 5.7 5.7 5.9 6 6 5.6 5.3 6.1 6.3 6.6 6.6 6.3 6.2 6.9 11.7 22.7 34.7 46.1 53 53.4 57.1 65.4 73 76.5 79.6 88.4 93.4 93.3 90.6 89.1 89.7 92.5 95.9 95.4 94.7 93.9 94.7 95.8 96.8 106.4 104.9 120.4 122.8 129.2 125 115.5 112.8 109.5 111.9 114.5 107.4 104.7 104.2 106.1 107.3 110.2 112.5 113 115 115.8 117.8 119.6 122.4 127.4 141.1 154.9 171 185.5 194.9 208.4 212.3 207.3 201.7 193.7 182.2 177 171.9 162.1 154.4 146.6 141.2 134.9 127.2 122 118.6 115.2 112.4 110.7 108.7 106.6 107.2 108.9 107.9 105.8 103.3 99.7 95.7 93.4 90.7 89.2 88.6 84.6 80.6 79.2 75.9 70.6 67.8 67.7 66.6 65.2 59.7 55.8 50.4 47.3 45.5 45.3 44.2 43.6 43.5 44.7 46.1 44.3 44.1 42.4 41 39.8 37.8 36.6 35.8 35.2 35.5 33.8 34.4 40.3 41.8 43.1 44.5 54.4 71.4 90.2 109 126.1 137.5 149.7 160.3
4.9 4.2 -2.6 -2.6 -2.6 -2.6 5.1 4.9 4.9 4.9 5 5.2 5.2 5.1 5.3 5.5 5.7 6 6.4 13 20.9 22.2 23 21.6 11.1 7.3 6.2 8.6 20.7 32.1 42.4 44.9 43.6 34.9 39.1 43.7 45.4 44.1 41.9 37.2 29.6 30 32.8 21.5 12.6 5.6 5.9 6.2 5.9 6.7 6.8 6.1 6 5.9 5.6 5.6 5.7 5.8 5.9 6 5.9 5.5 5.2 6.3 6.6 6.4 6.2 6.5 10.8 19.8 29.7 40.3 49.2 57 58.6 64 70.6 79.9 84.6 83.6 93.1 96.3 96.5 95.3 94.3 95.3 100.2 101.2 99.1 98.9 95.4 88.6 88.9 92.2 96.6 99.7 108.2 111.3 118.1 111 107 101.2 102.4 108.4 106.6 101.4 102.3 106.4 109.5 112.3 113.8 115.9 116.3 117.7 118.4 120.6 122.5 128.8 138.2 148.1 160.1 178.3 190.9 198.2 208.1 211.9 206.9 198.2 190.7 182.5 179.7 177.8 164.8 156.1 150.2 143.2 138.2 129.9 123.8 120.2 116.8 114 111.6 110.2 109.2 110.9 111.1 108.3 105.7 105.1 103.1 99.5 96.9 93.7 90.5 91.2 88.6 83.1 80 76.5 73.6 71.8 66.5 63.4 58.4 55.4 50.8 47.9 47.6 47.8 45.4 43.6 43.1 42.8 42.6 42.4 42.2 41.6 41.1 40.4 39.4 37.9 37.8 40.2 37.9 38.5 34.9 32.1 36.9 38.6 42.1 44.4 56.6 74.2 93.6 112.8 128.9 140 152.6 163.3
4.9 3.4 0.9 -2.6 -2.6 -2.6 -2.6 5 4.9 4.8 4.9 5.1 5.1 5.1 5.2 5.3 5.6 5.9 6.2 12.4 19 19.8 20 14.9 7.4 6.4 6.4 12.9 26.7 35.1 39.6 41 37.1 38.8 47.6 49.4 46.8 43.8 38.9 33.2 31.3 31.8 31.9 13.7 5.8 5.6 5.8 6 5.4 6.1 6.3 5.9 6.3 6.7 6.1 5.8 5.7 5.8 6 6.1 6 5.6 5.3 6.2 6.5 6.2 6.2 7.6 19.6 32.1 40.4 48.3 49.7 55.2 62 70.2 81 89.8 92.7 90.3 95.2 98 98.5 100.8 101.2 102.7 105 102.6 101.2 99.6 95.4 86 82 85.9 88.6 94.2 98.8 101.6 107.1 105.8 100 95.4 97.5 98.4 98.5 100.6 103.7 108.5 112.6 115.1 117.8 120.1 121.1 120.6 122.8 124 128.5 136.7 150 160.9 172.3 184.8 194.3 199 204.4 208.5 205.6 199.1 191.1 187.5 185.3 181.3 169.5 159.6 152.6 146 139.3 131.5 124.6 121.6 119.6 118.8 117.5 117.5 115 115.6 113.5 110.6 107 105.2 104.5 102 97.1 95 93.2 89.5 88 82.9 79.8 77.3 73.7 71.4 67.6 61.2 53.9 51.1 49.4 49.9 49.2 48.5 46 44.9 43.4 42.9 42.6 42.4 42.1 41.5 41 40.4 39.2 37.9 39.8 41.1 41.4 39.1 37.8 31.7 32.2 32.7 41 45 57.8 75.4 95.4 113.1 128.6 141.4 154.2 164
5.5 1.9 -0.1 -2.6 -2.6 -2.6 -2.6 5.1 4.9 4.9 4.9 5 5.1 5.1 5.1 5.2 5.6 5.9 6.2 13.4 18.5 19.2 17.9 8 6.6 6.2 6.8 14.5 23.8 29.6 32.8 34.5 36.2 47.2 54.9 50.4 47.1 41.6 33.7 30.9 33.2 30.8 16.5 10.6 5.5 5.5 5.7 5.9 5.7 5.6 5.6 5.7 5.6 6.2 6 6 5.8 5.9 6 6.1 6 5.9 5.2 6.1 6.1 6.2 6.7 13.1 29.7 40.6 47.9 53.3 52.7 55.9 64.7 73.3 89 98.1 98.3 95.7 98.9 102.6 104.7 107.4 106.4 106.9 106.4 104.1 103.1 99.6 95.4 84.3 76.7 78.4 83.9 87.4 93.5 99.4 104.1 101 93.2 91 95.2 98.8 102 104.7 108.7 113.5 119.2 123.1 125.8 125.1 126.4 126.2 126 128.7 136.2 144.1 154.6 168 181.9 197.7 206.8 205.9 205.3 207.3 203.6 197.2 194.3 191.7 189.5 182.8 171.2 162.1 154.8 148.5 139.9 131 128.3 123.5 122.3 123.4 125.8 123 119.8 119.5 118.3 117 112.1 109.5 104.3 102.8 99.5 96.8 94.8 92.5 87.8 85.2 81.3 78.1 74.9 71.5 66.9 62.6 56.2 52 53.3 53.5 53.1 50.3 47.8 46.3 44.3 43.4 43 42.9 42.6 42.1 41.6 40.5 39.4 39.5 41.2 40.2 40.6 38.5 37.6 36.1 32.5 31.5 39.1 44.3 55.3 73.3 94.1 112.1 126.2 137.3 152.7 159.7
3.3 1.9 0.2 -1 -2.6 -2.6 -2.6 4.5 5 4.9 4.9 5 5.1 5.1 5.1 5.2 5.6 6 6.2 12.4 14.2 18.3 10 6.5 6.3 6.5 6.9 13 16.7 21.1 29.4 36.2 43.7 51.6 55.8 50.4 47.8 41.3 35.2 31.2 30.2 29 8.9 6.2 5.5 5.5 5.7 5.8 6 5.9 6.5 5.9 5.9 5.7 5.8 5.8 5.8 5.9 6 6.1 6.1 5.9 5.6 6.1 6.2 6.1 8.3 21.5 36.3 48.6 56.6 58.5 58.4 58.5 66.2 76.5 93.9 104.6 103.6 101.1 104.2 106 107.1 106.6 103.6 102.5 101.7 102.8 101.6 99.5 93.1 79.1 73.1 75.1 79 84.3 94.6 103.1 104.3 96.6 88.6 92.8 98.4 102.7 106.9 110.9 114.4 124 128.5 130.8 130.8 130.9 129.7 128.9 131.1 138.1 148.7 156.1 168 180.8 195.9 205 209.9 210.2 208.3 206.4 204.2 204.4 204.8 199.5 196.6 187 171.7 165.4 157.1 148.2 139.1 138.1 133.8 126.5 128.6 129.6 131.3 128.7 127.6 126.2 125.6 124.5 119.7 113.7 110 109.3 105.2 100.9 98.5 95.7 91 86.8 82.3 80.7 78.5 71.3 66.5 64.1 61.3 58.2 57.2 57.6 56 52.9 51.3 48.3 45.6 44 43.5 43.3 43 42.5 41.8 40.8 40.7 42.3 42.7 43 44.1 41.1 39.6 36.9 33.2 31.9 35.5 42.5 50.6 67.5 88 105.4 117 129.1 145.6 155.9
3.3 2.4 1.2 0.2 -0.9 -2 -2.6 -2.6 5 5 5 5 5 5 5.1 5.2 5.6 6.1 6.8 9.3 10.2 13.7 6.7 6.4 6.3 6.3 6.7 7.1 12.1 25.3 33.9 44.5 51.1 56.7 53.9 51.3 50.8 41.6 36.2 30 24.3 10 6.3 5.8 5.6 5.5 5.9 6.2 7 7.2 7.4 7.6 6.8 6.1 5.9 6 5.8 5.9 6 6.1 6.1 5.9 5.8 6.1 6.3 6.5 14.4 30.7 44.1 58.8 67 65.3 60.7 56.5 65.5 77.9 90.9 100.5 104 105.3 105.4 103.5 102.3 100.4 98.3 98.3 97.1 96 94.5 92.6 82.2 72.8 70.2 72.3 76.8 87 95.7 103.8 99.7 90.6 87.5 94.4 100.2 105.8 112.2 117.9 124.7 133.2 136.5 137.2 136.5 133.9 131.1 132.4 142 153 164.2 175.4 183.6 194.1 207.2 212.9 214.5 213.6 212.5 212.7 213 212.9 208.7 202.8 197.4 188.1 170.1 166.2 159.2 150.9 144.8 143.9 136.3 133 137.7 139.8 139.9 137.4 138.7 135.3 136.1 134 129.1 124.9 118.7 115.6 109.1 103.8 99.8 96.8 89.9 87.4 87.5 80.8 77.6 71.1 68.6 66.6 64.8 62.9 61 60.4 57.4 54.7 53 50.8 48.3 46.3 44.8 43.8 43.3 42.6 41.1 41.6 44.2 45.8 45.6 51.9 50.5 44.9 41.9 38.1 35.5 31.8 33.2 40.2 45.7 55.5 73.6 88.2 102.7 122.2 138.2 147
4.1 3.3 2.1 1 -0.1 -1.2 -2.6 -2.6 5 5 5 4.9 5 5.1 5.2 5.3 5.8 6.5 7.2 6.3 6.9 7 6.5 6.5 6.6 6.4 6.6 10.6 21.6 34.6 40.3 53 57.2 55 50.6 52.5 51.6 40 34 27.5 17.3 7.2 5.7 5.9 5.8 5.7 5.9 6.3 8.3 9.2 9.4 9.2 8.4 7.6 6.8 6.2 5.9 5.9 6.1 6.2 6.2 6 5.9 4.6 6.6 12.3 25.5 41.7 53.1 65.9 70.7 63.5 56.5 53.4 64.7 73.5 82.3 97.6 103.2 102.2 99.3 96.2 94.9 93.2 94.5 94.9 93.5 87.1 84 81.3 75 69.9 69 71.1 78.5 90.1 98 95.5 90.5 86.9 90.9 96 101.2 107.9 115.1 124 136.5 142.6 144.4 142 140.5 134.7 133.2 135 146.3 156.7 176.2 188.5 200.9 208.3 217.7 217.4 217.7 219 218.8 224 222.8 219.2 214.2 206.7 197.7 184.4 174.3 168.6 161.4 153.7 152.9 148.3 140.6 140.5 143.7 149.8 151 152.7 152.2 149.2 147.4 144.3 139.7 133 124.3 118.2 111.4 104.3 98.3 92.9 88.3 83.6 82.5 78.3 75.6 72.5 71.9 69.1 66.8 65.7 64.7 62.6 60 57.3 54.6 52 49.8 49.1 47.5 44.6 43.7 43 42.2 42.8 48 48.5 50.2 54.6 53.5 46.1 44.5 38.5 36.2 32.7 29.8 38 41.4 46.5 55.5 69.1 86.5 108.3 123.7 131.8
4.9 3.9 2.5 1.3 0 -1.2 -2.6 -2.6 4.9 4.9 4.9 4.8 5 5.1 5.2 5.3 5.7 6.4 7 7 8 7.6 6.3 6.3 6.3 6.4 9.2 20.7 32.8 44.4 49.4 59.4 57.5 49.8 50.3 54.2 49.5 34.5 29.9 22.1 9.7 6.2 5.7 5.8 5.9 5.8 5.9 6.7 8.8 9.7 10.1 10.2 9.9 9.3 8.5 7 6.3 6 6.1 6.1 6.1 6.1 5.7 5.7 8 19.9 37.1 49.6 57.5 62.1 61.1 54.8 47.4 47.1 61.5 72.6 83.7 93.9 95.4 92 89.6 90 90.1 90.2 91.8 89.5 87.2 81.4 76.3 72.3 69.2 68 69.7 72.9 82.9 90.1 89.5 86.2 87.4 92.4 98.6 100.9 106.5 114.3 120.4 131.2 141.5 149.5 143.8 141.3 140.5 135.6 135.9 145.4 152 169.5 183.5 196.7 217.3 224.1 228.7 229.1 229.3 228.6 232.5 230.1 226.1 221.5 216.6 207.9 197.5 183 176.9 168 163.5 162.4 158.9 151.2 148.1 148.6 155 159.1 164.2 167.9 161.8 161.5 158.4 153 143.7 137.4 127.9 120.9 112.9 106.6 100.5 92.9 86.8 82 78.2 76.2 74.8 74.9 73.8 71.3 69.1 69.4 67.3 63.6 60.7 58.9 56.3 52.7 51.3 50.6 46.8 45.2 44.9 44.2 43.2 43.2 46.6 49.3 52.7 54.3 48.2 47.3 44.9 38.5 36.3 33.9 31.1 32.7 37.2 40.5 47 55.8 67.8 87.8 105.3 115.5
4.8 3.7 2.6 1.3 0 -1.3 -2.6 -2.6 4.7 4.7 4.8 4.8 5 5.1 5.3 5.4 5.8 6.3 6.7 7.8 11.2 9.6 6.5 6.2 6.2 6.5 13.7 25.9 38.8 47 56 60.7 53 48.5 49.5 51.2 44.2 28.8 19.1 12 7.8 6 5.6 5.7 5.8 5.9 6.1 7.1 9 10.1 10.4 10.4 10.3 10.2 9.6 8.3 6.8 6.1 6 6.1 6.1 6.1 6.2 4 11.8 29.7 43.4 56.8 52.7 53.6 47.4 38.3 33.2 41.4 58.8 73 82.8 87.5 84.6 81.1 82.1 87.2 88.9 88.3 88.4 87.1 81.5 77.7 71.3 67.2 67.3 69.2 73.2 77.7 82.7 87.1 87.3 89.4 92.8 98.4 103.8 107.3 110.3 119.5 129.3 137.5 143.6 147.8 146 146 146.4 148.2 148.4 154.5 163.5 177.2 190.2 218.6 232.7 239.2 241.9 246.4 245.1 241.7 244.1 240.2 232.5 228.6 219.5 212.2 198.4 186.3 175.1 171.7 170.7 170.3 165.4 160.1 159.8 161.2 164.8 168.8 172.9 174.8 173.8 170.2 165.8 158.3 150.1 142.2 131.6 122.7 115.3 105.8 98.2 91 84.3 80.7 77.3 77.3 76.9 74.4 73 71.8 70.9 69.3 67.3 64 62.7 60.1 56.6 53.9 52.4 50.5 47.4 47.1 47.1 46.6 45.8 46.6 48.1 49.8 52.8 50.7 49.5 49.4 44.2 38.2 35.7 34.8 32.2 29.4 30.9 35.3 39.1 46.6 54.8 67.8 85.8 99.1
4.6 4 2.3 0.5 -0.6 -1.9 -2.6 -2.6 4.8 4.8 4.7 4.8 5 5.1 5.3 5.6 5.7 6 6.5 9.7 13.4 10.6 6.9 6.5 6.3 10.3 23.4 36.7 50.9 52.5 59.6 54.3 48.6 48.3 46.7 44.9 34.5 27.1 14.8 7.1 6 5.7 5.7 5.8 5.9 5.9 6.1 7.9 9.3 10.3 10.6 10.6 10.4 10.3 10.2 9.5 8.1 6.9 6.2 5.9 6 5.9 4.7 8.2 16.4 36.7 48 49.1 45.6 43.1 35.6 28.7 27.3 38.8 57.5 71.3 76.4 77.4 76.1 75.3 79.9 86.9 89.9 89.8 83.5 84.2 78.2 72.7 66.3 66 70.4 78.4 86.9 94.4 94.2 90.9 92.9 96.1 99.3 102.9 107.1 110.3 116 126 131.4 137 142.1 144.7 146.8 149.7 151.2 156.4 152.9 161.1 176.6 193.3 212 232.4 242.8 246.9 251.8 259.3 255.3 255 250.8 243.9 239.1 232.7 223.2 207.9 192.9 185.1 177.2 176.6 176.3 173.8 169.6 167.9 170.5 173.7 177.1 180.6 183.5 184.9 182.7 177.5 172.2 161.6 151.4 143.6 133.2 124.4 114.9 102.8 95.6 87 81.4 79.5 77.9 79.2 77.8 74.3 72.6 71.7 70.4 69.3 68.9 65.4 64.7 63.5 60 57.1 52.5 50.2 49.7 50.1 49.9 49.3 49.2 49.6 50.5 49.9 49 48.1 50.6 49.7 44.1 39.1 36.5 34.6 33.9 31.9 29.5 29.6 34.8 39.8 46.6 53.4 66.2 80.7
4.2 3.7 1.9 -0.4 -2.6 -2.6 -2.6 4.6 4.8 4.8 4.6 4.8 5 5.3 5.6 5.8 6 6.1 7.2 11.4 12.6 9.6 6.4 6.3 6.6 12.8 31.4 38.9 52.7 57.2 55 48.1 48.5 49.3 40.7 37.6 26.2 17.7 7.5 6.3 5.9 5.9 5.9 5.9 6 6 6 7.5 9.2 10.3 10.7 10.7 10.5 10.4 10.4 10.1 9.2 8 7.1 6.2 6 6.1 4.3 7.7 23.6 40.6 42.7 36.4 33.8 33.8 30.9 27.8 27.2 41.2 57.4 69.4 73.3 71.3 71.1 74 77.9 83.3 88.6 81.3 77.1 80.1 72.2 65.5 65.5 71.8 82.1 91.5 99.1 102.5 98.8 94.2 98.1 104 103.1 105.3 108.7 114.8 124.1 132 142.4 146.8 145.3 146.7 152.4 150.4 154.6 152.9 155.3 167 190.1 210.9 230.4 249.9 254.7 258.9 263.6 264.3 264.8 262.1 254.4 249.2 245 235.3 219.3 199.3 190.5 184.7 182.3 180.8 179.1 177.3 177.5 179.3 188.2 192.9 192.5 194.9 193.7 189.9 186 180.7 174.6 163.2 152.8 143.4 134.1 124.1 113.7 103.7 93.2 84 81 80.9 79.1 82.3 79.3 73.5 71.6 71.5 70.6 69.8 69.6 67.8 65.8 64.4 60.4 55.7 53.6 52.9 52.6 52 51.7 52 52.6 53.2 52.5 52.1 48.5 44.9 47.4 48.6 43.8 39.3 37.3 35.9 35 34.4 32.9 27.9 28.8 35.5 38.6 46.4 55.5 65
3.8 3.2 0.2 -2.6 -2.6 -2.6 4.8 4.6 4.8 4.6 4.6 4.8 4.9 5.2 5.7 6 6.5 6.8 7.9 13.3 12.7 7.8 6.1 6.2 7.6 15.1 32.6 49.9 55.9 52.7 44.7 45.1 48.4 44.1 37.7 35.3 18.8 9.4 6.5 5.9 5.9 6 6 6.1 6.1 6.2 6.6 7.3 8.9 10.3 10.5 10.6 10.6 10.5 10.3 10.1 9.9 8.4 7.4 6.6 6.1 6.3 5.6 7.3 22.4 36.9 26.9 21.6 21 24.2 26.7 28.9 31.5 44.8 59.4 68.9 72 69 68.5 70 70.4 77.8 80 71 70.8 68.4 65.2 66.2 73.5 83.1 93.3 100.8 106.2 105.5 101.5 100.2 102.1 103.8 105.4 107 108.7 118.1 128.4 138.9 147.8 150.3 148.2 153.7 154.8 152.3 151.7 155.7 159.4 172.3 198.5 219.1 241.9 257.3 265.3 272.6 275.1 272.3 272.7 270.2 264.1 256.3 245.2 229.8 214.5 201 191.4 187.3 185.8 184.7 183.9 185.5 189.1 195.8 203 206.1 204.8 200.8 196.3 192.2 187.3 183.7 173.4 165.6 155.4 145.8 136.2 124.9 113.8 101.8 91.4 83.6 83.4 83 79 79.8 75.4 72.7 72.4 71.5 70.4 68.9 68.2 66.6 65.1 62.9 58.2 55.9 55.3 55.4 54.9 54.3 54.3 54.7 55.3 55.5 55.1 54.4 50.8 44.3 44.1 45.1 42.5 42.5 41.7 41.5 37.5 33.6 33.6 31 28 33.2 35.9 41.3 48.6 57.1
3.4 0.4 -2.6 -2.6 -2.6 4.7 4.7 4.8 4.8 4.6 4.8 4.8 4.9 5.6 5.8 6.1 6.2 6.9 10.1 14.6 11.2 6.3 6.3 6.3 7.9 21.8 38.2 52.9 49.4 45 39.6 42.2 42.1 40.6 38.4 30.1 11.8 7.1 6.2 6.1 6 6 6.1 6.2 6.4 7.2 8.1 8.8 9.2 10.3 10.5 10.6 10.6 10.5 10.4 10.2 10 9.3 8.2 7 6.4 6.5 5.8 7.8 25.6 26 18.7 20.7 19.8 23.9 28.4 31.6 37.2 50.7 61.1 69.6 71.2 69.3 66.5 66.2 65.5 68.6 69.9 65.9 62.4 62.3 68.6 75.6 84 93.3 101.7 106.9 108.2 106.5 101.6 102.8 104.5 105.4 107.1 110.5 120 130.2 139.8 150.9 154.8 155.3 151.3 150 150 150.1 151 151.8 156.7 168.4 187.9 220.5 247.8 260.5 273.5 282.2 280.4 283.7 282 279.2 271.5 257.4 242.1 229.7 214.7 202.9 195.3 193.7 192.6 192.1 193.1 197.8 202.9 209.1 212.6 210.5 208.6 202 196.1 190.9 188 180.8 170.4 163.1 155.1 147.7 133.1 122.4 109.1 98.1 89.1 84 84 81.4 76.7 73.8 71.8 72 71.7 70.1 69 67.6 66.7 65 62.1 59.4 56.9 56.5 57 57.5 57.4 56.7 56.5 55.6 56.5 58.2 57.9 56.9 52.7 43.6 41.7 42.4 44.8 41.4 40.4 39.1 38.4 34.9 33.1 30.7 27.3 29.8 36.5 43.1 45.5 51.9
-2.6 -2.6 -2.6 -2.6 3.6 4.8 4.9 4.9 4.9 -2.6 -2.6 6.4 6.4 6.3 6.2 6.2 6.4 7.3 12.2 14.3 8.7 6.4 6.3 6.4 9.3 25.4 43.3 46.1 43.6 38.1 38.9 41.1 39.7 41.4 34.1 19.7 6.9 5.9 6 6 6 6.2 6.5 6.7 7.4 8.9 9.5 9.9 10.2 10.6 10.6 10.6 10.6 10.5 10.4 10.3 10.1 9.8 9.5 9.2 6.6 6.4 4 8.1 18.1 20.8 19.4 23.3 25.2 29.4 29.7 35.3 42.4 54.9 65.1 71.5 72.6 67.6 63 65.6 66.5 66.1 64.8 59 62.8 71.8 78.2 85.7 94.2 101.5 106.2 108 108 104.9 103.1 103.8 105.1 108.4 109.6 117.2 129 141.5 152.2 153.3 152.3 150.2 150 150 149.5 150 150 150.3 157.5 165 189.8 223.2 244.9 262.7 276.3 283.4 288.1 292.3 290 280.6 264.8 253.6 240.5 226.3 212.8 203.4 201.7 200.8 199.8 201.6 209 216.1 217.1 216.5 214.6 211.8 207.6 199.4 192.5 190.8 186.2 179.4 170.5 163.1 152.4 143.4 130.8 119.2 106.9 97.1 90 85.3 82.2 79.1 75.8 72.8 71.6 70.4 69.7 68.9 68.2 67.3 66.4 63.9 60.6 58.5 57.5 57.8 59.3 59.1 59.3 60 59.7 56.9 57.3 59.9 58.6 54.9 48 43.2 41.2 40.9 40.9 39.1 37.7 39.7 38.6 37.8 35.2 31.2 27 27 35.6 40.4 42.6 48.8
-2.6 -2.6 -2.6 2.8 4.8 4.7 4.7 4.8 -2.6 -2.6 -2.6 11.3 7.1 6.4 6.4 6.5 6.6 7.8 13.3 12.3 6.4 6.4 6.4 6.6 14 29.7 43.1 35.2 34.4 35.5 41.6 40.6 39.8 38.9 24.2 8.3 5.8 6 6 6 6.2 6.7 7.3 7.8 8.3 8.8 9.9 10.3 10.6 10.5 10.6 10.6 10.6 10.5 10.4 10.3 10.1 9.9 9.6 9 6.9 5.9 3.8 7.6 11.7 17.4 18.9 20.8 24.2 29.7 33.1 39.2 49.7 59.1 69.5 71.9 70.7 62.7 57.9 66.9 65.8 59.9 55.7 63.6 72.8 80 88 96.8 102.5 106.9 108.1 106.5 106 105 105 106.4 107.5 108.5 112.2 121 136.8 148.2 151.8 151.1 150.9 152.1 152 150.3 150.4 150.4 151.7 150.8 158.9 171 189.5 216.2 228.2 240.8 262.2 284.5 294.8 297.3 286.1 272.9 261 248.8 234.6 222.1 212.2 208.7 208.1 207.8 210.5 222.3 227.9 230.6 230 224.3 217.2 206.8 200.8 195.5 192.6 189.1 183.2 177.1 167.9 158.3 149.7 138.9 128.2 119.3 107.1 99.3 90.7 84.8 81.2 78.2 74.9 72.6 72.2 69.9 69 68.4 68.2 67.5 65.7 62.7 60.8 59.3 58.9 61 62.2 59.9 59.2 60.4 60.5 57.4 56.4 57.5 56.9 52.7 47.7 42.2 41.3 43.9 45.8 39.8 37.1 38.5 41.3 41.2 35.3 30.9 27 29.5 34.2 37 41.2 44.7
-2.6 1 2.9 4.8 4.5 4.3 4.2 -2.6 -2.6 13.2 13.6 9.9 6.6 6.1 6.2 6.2 6.5 9.3 12.6 8.3 6.3 6.4 6.5 6.8 16.2 27 32.8 35.2 35.6 36.2 40.5 38.4 38.3 31.4 16.1 6.3 5.7 6 6.1 6.1 6.6 7.1 7.7 8.3 8.6 8.8 9.5 10 10.4 10.4 10.5 10.6 10.6 10.4 10.4 10.3 10.2 10 9.7 9 6.7 6.7 6.7 7.1 13.6 16.5 19.7 23.6 26.5 33.1 36.9 46.5 55.5 60 69.7 71.1 61.2 55 56 60.4 56 53.3 64.2 74.9 82 90 99.2 104.8 106.8 109.6 107.9 105.2 103.2 104.7 106.5 108.4 107.3 108.7 116.7 130.3 144.1 150 151.2 151.8 151.1 150.5 153.9 153.3 154 155.8 152.2 154.2 161 169.8 187.6 199.1 209.9 223.2 244 269 284.7 291.1 285.4 268.5 258 244 229.1 219.8 215.2 214.7 215.3 216.7 228.4 237 241.9 240.9 236.1 222.9 215.1 208.1 199.5 195.9 192.1 187.6 181.9 175.4 166.4 157.3 148.6 139.8 130.2 120.4 111.9 103.8 90.7 84.6 80.8 77.2 73.9 72.2 70.7 69.3 68.7 68.3 68.1 67.7 65.6 62.6 62.2 61.7 62.7 63.2 64.4 61.3 59 59.1 59.1 57.9 55 54.3 53.7 52 46.1 44 41.9 49.2 47.7 39.3 35.7 36.6 41 40.3 34.8 29.4 26.7 28.3 31.9 34.6 38.3 40.2
-2.6 1.4 3.3 4.8 4.2 3.7 -2.6 -2.6 10.8 19 13.9 8.8 6.6 6.2 6.2 6.3 7 9.2 9.3 6.3 6.3 6.6 6.8 7.8 16 28.2 34.5 40.3 36.3 38.3 37.9 34.6 32.6 20.2 8.7 5.6 5.7 6 6.2 6.4 6.6 7.8 8.5 8.8 8.8 8.9 9 9.2 9.5 9.8 10.3 10.4 10.4 10.4 10.3 10.2 10.1 10 9.6 8.6 6.9 6.6 6.4 6.6 12.7 17.5 23.1 28.9 33.6 39 47.6 53.2 59.2 66.6 73.4 68.5 55.9 51.5 50.6 50.5 50.6 63.8 75.7 84 92.6 100.7 107.9 111.1 110.6 110.1 106.5 103.1 103.6 106.7 110.4 112.4 109.5 111.9 123 134.8 140.8 143.9 150.7 152.5 153.6 153.9 152.1 151.5 151.6 152.6 151.1 150 151.9 158.5 169.8 182.5 197.5 214.4 233.8 262.8 279.9 282.3 276.2 265.4 252.6 237.7 225.8 220.8 219.8 220.6 223.6 231.8 242.1 252.2 250.3 244.5 235.7 226.7 219 209.3 202.4 197.6 193.4 185.9 179.6 174.2 166.6 159.3 150.6 141.4 133.9 124.9 114.3 100.6 92.5 86.5 80.5 76.4 74.1 72.3 70.3 68.9 68.5 68.4 68 66.7 65.1 64.4 66.2 65.9 64.5 63.6 64.5 62.3 59.9 59 58.4 56.6 54.7 53.2 52.3 53.1 50.6 46.4 44.4 50 45.9 38.2 35 35.3 39.5 39.3 35.4 31.3 26 26.9 29.1 30.4 33.8 37.3
-2.6 0.5 3.3 4.7 4.8 4.2 -2.6 -2.6 13.4 21.1 12.8 7.6 6 6.1 5.9 6.3 6.9 6.6 6.6 6 5.9 6.4 6.9 11.1 19.1 34.5 37.2 38.4 37.2 36.2 32.9 29.2 22.7 8.5 7.2 6 6.2 6.3 6.5 6.8 7.7 8.8 9.5 9.7 9.4 9.1 8.8 8.9 9.1 9.2 9.2 9.6 10 10 10.1 10.2 10.1 10 9.5 8 6.9 6.7 6.4 6.7 11.8 19.4 26.2 32.8 39.1 45.5 55.1 60.5 66.2 73 70.8 67.2 58.3 46.4 44.3 48.7 62.1 74.9 85.1 93.7 103.5 111.7 116.3 114.8 113.5 109.3 102.8 101.8 103.8 107.1 111.5 111.7 110 113.3 121 129.2 131.5 141.2 152.6 155.8 160.5 160.1 161.7 159 151.9 145.9 143.2 141.3 145.4 153.3 159.9 176.4 189.6 207.9 232.6 261.6 277.4 278.2 274.4 261.9 246.2 229.8 222.6 222.3 223 225.5 238.7 250 258.7 257.5 251.2 246.7 239.8 231.7 224.1 214.2 207.7 201.7 198.4 190.9 182.2 173.5 165.9 161.2 152.7 144.9 135.6 125.7 111 101.3 95 87.3 81.7 76 73.4 72.3 70.6 69.2 69 69.1 68.4 67.9 67.9 66.7 67 66.7 65.1 64.6 68.3 67 62.6 60.7 57.9 56.4 57.7 56.8 53.5 53.9 51.3 47.5 45.8 47.3 43.4 35.6 34.7 35.2 34.9 35.6 33.6 31.3 25.5 26.2 26.6 27.5 28.6 31.3
-2.6 -2.6 -2.6 -2.6 -2.6 -2.6 -2.6 -2.6 11.1 7.9 6.9 6.9 6.2 6.9 6 6.4 6.5 6.4 6.2 6 5.9 7.1 16.9 19.9 26.7 43.3 46.2 42.5 35.3 29.2 22.5 19.6 8.5 6.2 6.4 6.5 6.7 6.9 7.1 8.1 8.9 9.3 9.7 9.9 9.8 9.4 9 8.9 8.9 9 8.9 8.9 9 9.4 9.6 9.8 10 9.9 8.3 6.9 6.5 6.2 5.6 6.4 12.2 22.8 31.5 39.4 43.9 52.3 63.3 67 71.5 71.9 70.7 63.1 50.8 39.3 42.6 58.3 73.3 84.9 96.1 108.4 115.4 120.4 120.1 118.6 116.5 108.3 100.6 96.2 97.4 99.6 103.9 105.7 106.2 111.9 118.5 125.3 134 145.5 153.5 155.1 155 153.1 153.9 150.8 148.4 143.6 140.8 140.1 143.7 153.6 161.6 171.3 183.5 201.1 234.1 264 274 278.6 265.1 249.6 231.8 222.3 220 224.1 223.4 235.1 252.2 257.9 257.1 253.7 249.3 249.6 243.7 236.2 226.3 219.3 210.7 206.8 199 192.9 184.3 174.6 166.8 161 153.7 145.7 135.4 121.9 111.6 103.2 96.5 87.5 81.6 75.4 73.7 72.5 72.4 70.1 72.1 70.9 68.2 68 69.7 66.6 65.9 65.4 66.4 68.4 72 69.3 62.4 60.7 60 60.9 60.8 55.9 52 51.5 49.1 49.7 47.6 43 40.7 38.9 37.2 36.1 33.9 32.6 31.2 30.1 28.6 24.4 24.7 23.7 25.3 24.5
-2.6 -2.6 -2.6 5.2 3.3 3.2 3.3 3.3 11.8 15.5 9.9 5.9 6.1 6.4 6.6 6.9 6.8 6.6 6.4 6.3 6.1 8.7 30.2 25.2 42.2 51.8 48.8 44.3 30.4 23.2 13.2 7.5 5.1 6.3 6.5 6.7 7.3 7.6 7.8 8.5 8.8 9.2 9.6 9.9 10.1 9.7 9.2 9.1 9.1 8.9 8.9 8.9 8.6 8.7 8.8 9 9.7 9.1 7.6 6.7 6.4 6.3 5 6.7 20.7 29.8 39.6 44.7 51 57.8 65 72 71 75 66.6 56.7 41.4 34.3 51.7 67.6 80.3 94.4 108.8 119.6 126.2 124.4 123.7 124.1 119.6 108.5 95.3 87.2 88.2 90 94.8 99.6 106.9 115.6 121 128.1 139.4 149.3 152.7 154.7 153.5 154 147.5 145 144.8 142.2 140.4 141.7 147.5 156.3 164.8 174.8 187.1 201.3 221.5 257.6 276.3 266.6 249.7 239.1 226.7 216.7 215.9 219.4 224.3 241.3 250.4 248.5 241.1 240.1 248.6 249.8 245.9 238.5 229.7 217.7 214.9 209 197.6 191.7 186.4 177.6 170.6 163.2 155 146.8 134.3 122.3 113.9 103.6 96.8 88.3 81.8 76.2 75.4 75.1 74.1 73 73 69.1 67.6 67.1 66.4 66.2 65.8 66.4 70.8 73.8 74.3 70.8 66.6 63.6 63.5 63.3 61.6 57.9 54.1 53 54.7 51.6 47.8 43.5 40.2 38.9 38.4 37.3 35.9 34.1 33.2 33.2 32.4 31.3 33.6 34 28.3 24.3
-2.6 0.6 2.3 2.5 2.5 2.6 2.8 3 3.2 7.3 7.2 6.5 5.6 6 6.4 6.6 6.9 6.8 6.7 6.5 6.1 12.3 28.1 43 53.7 52.9 45.7 32.6 27 18.4 8.1 5.4 6.1 6.3 6.4 7.4 8.3 8.2 8.3 8.8 8.7 8.7 9.1 9.1 9.6 9.4 9.3 9.4 9.5 9.5 9.1 8.7 8.4 8.4 8.4 8.4 8.7 8.2 6.8 6.7 6.1 5.2 5.4 10 26.7 35.8 41.9 47.5 57.3 68.3 68.7 71.5 75.6 75.7 64.9 49.3 33.4 39.3 54.1 71.6 85.3 101.8 118.1 127.8 128.1 126.3 126.7 124.8 116.4 99.4 89.8 81.9 80.4 83.5 85.9 91.2 103.6 113.8 121.7 129.2 137.5 142.6 145.7 153.6 152.1 146.9 143.1 141 140 139.3 142.2 147.2 152.8 159.3 173.1 186.2 196.4 208.1 224.3 255.3 268 253.5 243.8 232 217.1 212.3 210.1 214.6 220 225.7 236 233.4 227 232.1 242.3 248.5 245.3 236.9 231.2 224.3 218.6 209.9 198.6 192.9 188.8 181.1 173.8 164.9 155.6 142.7 131.9 120.4 112.9 105.4 99.9 89.6 80.6 77.3 76.3 75.6 75.1 77.7 74.3 68.7 67 66.7 66.2 66 66.1 68.6 72.5 78 79.7 75.5 68.8 67.3 67 64.1 63.3 61.1 58.1 57.3 56.5 51.5 45.8 43 41.4 40.1 39 37.2 36.9 35.9 38.3 39.4 37.9 35.4 32.7 36 34.2 26.8
-2.6 0.4 1.5 1.7 1.7 1.9 2.1 2.3 2.7 3.2 5.5 8.4 6.3 5.3 5.4 5.7 6.4 6.8 6.6 6.3 6 11.6 29.4 51.3 55.5 49.7 35.8 26.7 19.1 8.6 5.7 6.2 6 6.3 7 8.4 9.8 9.4 8.8 8.9 8.6 8.6 8.7 8.9 8.9 9 9.1 9.2 9.3 9.3 9.1 8.3 8.3 8.3 8.3 8.1 7.6 6.7 6.6 6.6 6.5 5.7 6.1 9.5 26.8 40.4 49.7 57.6 66.6 71.5 68.5 75 73.5 67.8 56.4 39.4 28.6 39.4 49.5 69.3 93.6 107.6 120.9 124.7 123.6 128.7 129.5 122.6 110.8 101.3 88.6 82.6 76.7 77.5 80.2 91.3 99.4 107.4 114.5 120.3 125.6 132.3 137.2 140.5 140.5 139.1 138.3 138.6 140 142.8 149.3 155.2 160.1 167.5 176.3 190.9 207.4 219.7 241 253.4 250.2 240.9 229.7 221.4 211.6 207.7 205.7 212.2 214.2 215.9 217.3 220 218.4 222.7 233.2 243.1 240.6 239 232 227.1 218.9 210.7 201.6 194.6 188.4 181.6 174 166.1 154.9 141.7 131.6 118.9 113.6 108.7 100.3 90.7 82.2 80.1 77.5 78 78.1 75.4 69.7 67.9 67.2 66.7 66.6 66.8 68.4 71.7 76.3 85 86.4 76.3 71.7 69.8 68.8 68.7 69.8 65.3 61.2 59.2 56.1 50.4 47.6 46.3 44.6 43.9 43.1 40.5 38.8 39.2 41.9 43.3 41.7 39.7 36.2 33.3 33.6 26.9
-1.8 0.1 0.7 0.9 1 1.2 1.4 1.8 2.2 2.7 3.2 6.7 3.3 3.3 4.2 4.3 5.3 6.2 6.3 6.2 6.2 18 33.7 52.1 51.7 40.7 21.8 19.8 9.7 5.6 6.6 6.3 6.3 6.4 7.7 8.9 9.9 9.5 9 9 8.6 8.6 8.8 9.2 9.1 8.9 8.9 9 9.1 9.1 9.2 9.2 8.4 8.3 8.1 7.5 6.5 6.4 6.3 6.2 6.2 6.1 5.5 17 29.8 45.1 53.7 63.3 66.3 64.5 71.4 74.2 70.9 62.4 44.3 31.5 24.7 36.2 44.9 60.4 78.2 95.4 107.8 107.9 116.5 131.3 128 122.6 112.3 98.4 85.7 81 73 75.6 77 84.6 92.6 98.4 103.7 106.4 111.6 117.4 121.4 124.5 126.9 130.1 132.9 137.1 142.2 147.3 151.8 159.2 166.9 173.9 182.6 199.2 211.9 232.6 249.1 248.1 241.1 229.9 220.7 213.6 207.8 201.3 202.6 207.5 206.2 209.7 210.9 211.5 211.9 219.8 227.4 235.2 238.8 232.3 229.1 226.7 222.7 214.3 203.2 194.3 187.7 179.2 173.1 164.2 154.2 141.3 131.9 121.2 117.3 112.3 98.4 92.2 86.9 84.7 82.9 82.7 77.5 72.6 70.3 68.8 67.7 69 71.4 69.9 73.1 76.7 81.3 87.6 85.5 76.2 75.4 74.2 74.7 74.7 74 70.6 65.4 62.4 59.3 55.9 52.8 51.2 49.8 49 46.7 42.4 39.3 40.1 45.8 47.1 44 43.4 40.8 34.2 31.5 27.3
-1.9 -0.5 -0.1 0.2 0.4 0.6 0.9 1.3 1.8 2.2 2.3 2.6 2.4 2.4 2.5 3 5 5.9 5.2 6.3 7.6 19.5 31.5 46.8 43 28.5 18.8 10.2 6.2 6 6.2 6.3 6.3 7.1 8.1 8.8 8.9 9 8.3 8.2 8.5 8.6 9.6 9.5 9.4 9.1 8.8 8.9 9 9 9.1 9.3 9.2 8.6 8.1 7 6.2 6.2 6.2 6.2 5.8 5.5 7.7 18.6 38.2 46.2 54.6 59.2 63 70.5 73.6 71 65.8 46.8 29.7 24.2 22.6 34.7 45.4 56.7 66.8 80.8 88.3 94.6 109.4 119.3 120.2 116.5 108.6 92.7 80.4 73.1 66 71.7 73.7 81.2 86 89.6 94.8 97.3 102.2 106.6 110.4 112.7 115.6 120.6 126.6 132.9 140.9 149 153 161 171 177.9 185.4 195.5 218.4 239.4 240.9 238.9 229.8 220.6 212.3 212.3 207.3 199.2 198.6 201.1 200.1 202.9 203.5 203 206.8 218.5 227.4 235.4 230.7 226.2 224.5 226.3 223.7 215.9 205.9 192.8 185.4 181.5 170.8 161.7 151.7 143.2 133.1 125.6 120.9 113.1 99.9 95.7 91.7 89.6 89.5 81.9 78.7 75.2 73.3 71.8 73.6 74.8 75.4 76.7 79 81.7 85.1 87.4 82.2 80.2 81 80.9 80.9 78.6 78.1 75.4 71.7 67.9 65.7 61 58 57.5 54.2 51.1 48 45 41.9 40.3 46.6 48.5 44.4 43.3 41.4 37.9 32.6 27.6
-2.6 -1.3 -0.8 -0.5 -0.3 0 0.4 0.8 1.3 1.3 1.2 1.4 1.3 1.3 1.5 2.1 2.7 3.8 6.2 5.9 10.9 22.4 37 37.2 33.3 17.9 9.5 6.2 5.8 5.9 6 6.4 7.1 7.8 8.3 7.6 7.5 7.9 8.4 8.6 8.5 9 9.6 9.8 9.6 9.3 8.8 8.4 8.5 8.7 8.7 8.7 8.7 8.7 7.6 6.5 6.1 6.2 6.2 6.2 6.3 5.2 10.2 17.1 31.5 45.4 49.6 54.8 64.8 72.5 67.5 64.7 52.9 31.7 22.3 17.3 24.3 33.3 45.6 56.3 63.5 67.3 73.7 83.7 91.9 97.3 98.1 101.5 95.2 84.7 76.7 66.8 62.7 67.7 73 79 82.3 84 87.4 92.1 96.8 100.6 103.9 107.3 112.1 117 125.2 134.2 142.4 148 154.3 163.4 172.4 180.7 186.9 193.1 207.5 222.6 225.9 222.2 213.7 207.3 210.9 212.9 201.7 194.8 191 192.5 193.3 194.6 196.7 198.6 202.9 215.1 226.9 227.9 221.8 217.1 218.5 219.5 216.9 211.5 202.7 194.4 184.7 180.8 172.5 162.4 152.7 142.8 135.5 128.8 122.5 111.8 101.1 98.2 95.7 92.7 85.5 81.4 79.3 79.6 77.6 76.5 78 79.7 81.6 84 87.2 88 85.5 85.8 83.1 85.6 87.5 86.1 84.4 82.7 81.8 79.8 77.5 75.5 72.3 68.4 64 59.9 58.9 57.6 55 52.7 46.5 42.4 47.2 47 43.5 41.5 39.8 37.5 33.9 29.1
-2.6 -2 -1.5 -1.2 -0.9 -0.5 -0.1 0.3 0.2 0.2 0.1 0.3 0.2 0.2 0.5 1.1 1.7 2.5 4.3 6 12.6 25.5 38 26.1 19.3 8.6 6.3 6 5.9 5.9 6 6 6.4 7.3 7.2 6.9 6.6 7.2 8 8.4 8.9 9.2 9.7 9.9 10 9.4 8.7 8.4 8.3 7.9 7.6 7.7 8 8 7 6.4 6.5 6.3 6.1 6.1 6 5.5 8 21.3 32.9 39.4 45.6 53.8 60.6 65.4 50.4 52 37.6 24 15.9 16.4 23.8 33.1 46.5 55.2 62 61.2 65.5 76.1 74.5 76.9 79.5 86.8 85.1 75.4 64.6 62 62.6 69.2 74.4 76.3 77.4 80.5 86.6 92.7 97.8 102.6 105.2 108.2 114.1 119.5 127.1 136.8 144.8 147.4 156.5 168.2 177.7 181.1 182.3 182.7 191.5 199.6 205.3 204.6 201.5 207.3 205.5 202 194.6 189.5 188.5 187.7 187.6 188.9 191.3 192.6 198.1 211.5 211.3 209.1 208 208.2 208.7 209.1 209.3 207.4 202.8 197.2 189.6 178.7 170.4 163.8 154.8 144.7 135.8 129.4 122.5 113.3 102.7 100 96.1 89.3 84.3 83 83.4 84.3 83.4 82.8 83.1 86.1 91.8 92.8 91.4 88.1 86.2 87.4 88.4 91.1 91.9 93.6 91.5 90.9 88.4 88.3 86.1 83.5 80.5 74.1 70.4 64.3 65.5 65 63.9 58.9 52.5 50.5 51 51.7 47.4 41.6 38 35.1 33.1 33.4
-2.6 -2.6 -2.6 -1.8 -1.4 -1 -0.7 -0.8 -0.8 -0.9 -0.9 -0.9 -0.9 -0.8 -0.4 0.1 0.8 1.6 2.6 6.8 9.9 25.9 21.2 14.8 8.2 6.1 5.8 5.7 5.7 5.8 5.9 5.9 6 6 6.1 6.1 6.4 6.8 7.5 8 8.5 9.3 9.8 10 10.1 9.5 8.8 8.6 8.5 8.1 7.5 7.4 7.4 7.3 7 6.8 6.5 6.2 6.1 6 5.8 5.5 7.2 17.4 29.2 33.5 45.4 50.9 53.6 50.4 39.9 30.5 20.6 15.4 11.7 14.4 22.3 34.1 45.2 54.5 59.2 57 59 60.2 59.8 65.2 66.4 73.5 74.3 66.7 57.6 56.3 62.7 68.1 71.8 72.9 77.3 82.6 92.2 97.7 105.7 110.3 110.4 110.1 115.4 121.4 127.6 133.6 139.4 148.4 162.7 170.5 173.9 175.5 176.5 177 180.7 183.7 192.6 193 198.9 202.9 200.5 196.9 188 187.3 186.6 185.7 185.2 185 186 188.6 191.3 198 195.9 196.6 196.8 198.3 200.1 201.5 203.5 204.1 204.1 198.9 186.3 180.5 171.9 164.2 154.8 145.9 135.5 130.2 123.1 114.3 106 100.8 94.7 88.3 85.9 85.6 86 85.2 86.5 87.7 90.8 93.5 94.8 93.1 91.3 88.3 90.2 92.4 93.8 95.2 95.4 97.2 98.1 98.5 97.5 93.6 91.6 88.2 85.3 79.7 71 72.7 75.9 73.7 68.4 62.9 57.5 55 53.3 46.9 44.2 43.1 39.7 38.2 37.6 35.3
2.6 -2.6 -2.6 -2.6 -2 -1.7 -1.8 -1.8 -1.9 -2 -2 -2.6 -2.6 -1.9 -1.5 -0.9 -0.2 0.7 1.6 3.3 6.3 10.3 9.2 8.2 6.3 6.2 5.8 5.6 5.5 5.5 5.8 5.8 5.8 5.9 6.1 6.2 6.7 7.2 7.5 7.8 8.2 9.2 10 10.2 10 9.6 9.1 9 8.8 8.5 7.6 7.5 7.5 7.3 7.1 6.8 6.4 6.1 6 5.8 5.5 5 5.1 7.3 18.9 31.5 40.4 47.6 47.4 45.2 25.7 14.2 10.5 9.3 9.8 13 23.2 34 42.6 45.6 51.6 51.7 49 46.8 48.2 48.2 52.7 59 60.4 57 54.6 57.1 61.6 66 69.1 74.2 81.6 87.8 94.6 100.4 106.1 111.4 114.6 116.2 116.1 122.2 125.1 131.5 138.9 150.7 155.1 162.4 167.6 170.7 172.7 173.1 175.2 178.2 182.7 188.5 192.5 189.1 190.3 188 186.3 185.7 185 184.3 184.1 184.3 184.5 185.1 186.1 187.1 190.3 192.3 192.4 193.3 193.1 195 197.9 197.8 196.8 190.3 185 179.3 170.9 161 153.5 145.4 137.5 131.7 124.3 114.6 107.7 99.6 93.8 90.2 86.9 86.8 87.7 86.9 89.7 94.8 98.2 95.4 95 94.1 92.3 94.3 99 98.3 98.8 99.8 101.7 104 104.6 107.2 101.6 98.9 96.5 92.3 89.3 80.8 76.8 81.6 78.9 76.5 74.2 69.6 65.3 59.8 54.3 52.9 52.7 50.3 44.1 42.8 42.5 38
4.7 2.8 -2.6 -2.6 -2.6 -2.6 -2.6 -2.6 -2.6 -2.6 -2.6 -2.6 -2.6 -2.6 -2.6 -2.6 -1.3 -0.4 1.3 3 10.2 6.3 6.4 6.1 6.2 6.1 5.8 5.6 5.3 5.4 5.5 5.7 5.7 5.9 6.1 6.3 7 7.5 7.7 7.9 8.1 9.3 9.8 9.7 9.7 9.2 9.3 8.8 8.4 8.5 7.6 7.7 7.5 7.3 7.1 6.7 6.4 6 5.9 5.8 5.6 5.4 5 6.2 16.3 22.9 32.3 28.8 24.4 21.5 13.1 8.5 7 7.3 9.5 13.3 22.8 30.8 35.8 39.6 45.3 44.4 41 37 37.4 40.4 45.7 49.2 50.9 51.2 54.7 59.9 64 67.8 73.6 81.7 88.1 92.8 98.4 103.3 108.3 112.2 116 120.7 124 126.3 132.3 140.1 149.2 157.1 161.8 167.3 166.6 168.7 170.4 171.4 173.1 174.5 177.8 178.1 178.1 179.5 183.7 184.4 184.7 184.3 183.8 184 184 184.2 184.5 185.1 185.7 185.4 189.8 189.1 189.3 190.2 188.4 190.2 190.2 190.2 189.4 186 183.4 161.8 160.8 158.3 151.2 145 138.6 132.3 123.3 114.8 107.7 99.3 94 89.9 87.3 86.9 87.9 89.6 94 97 97.4 96.2 95.9 94.9 95.2 102 102.3 104.6 105 105.6 108.3 110.4 110.5 107.1 106.7 105.1 100.7 96.9 89.1 82.8 87.5 85.2 84 81.8 79.6 77.7 69.6 60.8 55.4 58.9 58.1 53.3 47.1 46.7 45.8 42.6
4.6 4.7 2.6 -2.6 -2.6 -2.6 -2.6 -2.6 -2.6 -2.6 -2.6 -2.6 -2.6 -2.6 -2.6 -2.6 -2.6 -0.9 1 5.7 8.2 6 6.4 6.1 6.2 5.9 5.6 5.6 5.5 5.6 5.7 5.8 5.8 5.9 6.1 6.4 7.2 7.6 7.8 8 8.3 9.1 9.8 8.6 8.2 7.7 7.7 7.8 7.4 7.8 7.6 7.5 7.5 7.4 7 6.6 6.3 6.1 5.9 5.9 5.8 5.8 5.3 6.5 10.6 15.1 17 17.1 14 9.7 6.8 6.5 6.5 6.7 9.2 13.6 16.1 23.4 29.6 36.2 40.8 37.2 33.6 31.3 39.2 41.9 44.5 46.3 49.1 53.3 59.3 65.3 71.7 75.1 81.7 89.3 94.2 98 103.2 107.1 112 116.9 120.3 124.7 129.5 133.2 139.4 148.9 159 164.2 167 169.4 169.6 168.5 169.1 170.1 171.5 173.1 174.4 176 177.5 178.6 180.1 182.1 184.2 184.1 183.9 184 184.4 185.2 185.5 186.5 185.5 185 185.1 186 186.4 185.2 184.4 183.9 182.9 186.1 186 184 176.7 162.4 165 156 149.6 144.6 138.2 130.7 121.9 113.9 106.6 99.7 92.6 89 88.3 87.8 89.4 91.5 94.7 96 97.3 97 94.7 97.2 101.1 103.4 107.2 110.1 108.9 110.2 112.4 113.1 113.3 113.8 113.8 111.6 105.3 99.4 92.9 93.7 91.4 91.1 88.3 85.9 85.6 82.3 73.1 60.3 60.1 64.1 60.7 54.9 50.6 51.7 50.2 49.3
4.4 4.5 4 4.2 2.5 -2.6 -2.6 -2.6 -2.6 -2.6 -2.6 -2.6 -2.6 -2.6 -2.6 -2.6 -2.6 -2.6 0.9 5.7 4.7 5.2 6.2 6.1 5.9 5.8 5.5 5.5 5.6 5.8 5.9 6 6.1 6.1 6.4 6.8 7.3 7.6 7.9 8.1 8.3 8.1 8.6 7.6 7.3 7.2 7.1 7.2 7.2 7.3 7.4 7.4 7.4 7.4 7 6.6 6.3 6.3 6.2 6 6 5.7 4.8 6.5 7.2 8.9 10.7 8.6 6.8 6.5 6.8 7 6.8 7.4 9 12.2 14.5 17.7 20.8 25.6 27.4 22.2 33.3 44.5 50.7 52.9 53.4 53.7 56 61.9 67.2 72.7 78 84.4 90.9 95 100 105.1 107.8 111.2 117.5 122.3 126.9 131.6 134.5 139.4 147.6 159.6 165.5 168.3 171.8 172.2 172.1 172.7 172 171.6 173.2 176.3 177.5 179.6 180.8 181.3 181.3 182.9 184.7 185.3 184.5 185.2 188.3 186.6 186.3 186.3 185.4 185 184.1 183 182.2 181 179.8 179.3 180.4 184.3 183.3 180.5 177.1 168.3 161.1 153.7 146.5 143 137 129.9 120.6 112.3 104.4 96.3 90.9 89.6 89.6 91.2 94.3 95.6 95.7 94.5 94.5 95.6 97.8 102.1 103.5 106.4 112.2 113.9 112.1 112.2 115.7 119.8 121.7 119.6 118.4 115.6 109.2 103.1 99.6 96.5 94.9 96.6 94.6 92.2 90 79.7 68.2 64.4 68.4 66.4 62.4 58.6 57 56.9 55.9 54.7
