ncols 200
nrows 89
xllcorner 140000
yllcorner 721500
cellsize 50
-1.3 -1.3 -1.3 -1.3 -1.3 -1.3 -1.3 -1.3 -1.3 -1.3 -1.3 -1.3 -1.3 -1.3 -1.3 -1.3 -1.3 -1.3 -1.3 -1.3 -1.3 -1.3 -1.3 -1.3 -1.3 -1.3 -1.3 -1.3 -1.3 -1.3 -1.3 -1.3 -1.3 -1.3 -1.3 -1.3 -1.3 -1.3 -1.3 -1.3 -1.3 -1.3 -1.3 -1.3 -1.3 -1.3 -1.3 -1.3 -1.3 -1.3 -1.3 -1.3 -1.3 -1.3 -1.3 -1.3 -1.3 -1.3 -1.3 -1.3 -1.3 -1.3 -1.3 -1.3 -1.3 -1.3 -1.3 -1.3 -1.3 -1.3 -1.3 -1.3 -1.3 -1.3 -1.3 -1.3 -1.3 -1.3 -1.3 -1.3 -1.3 -1.3 -1.3 -1.3 -1.3 -1.3 -1.3 -1.3 -1.3 -1.3 -1.3 -1.3 -1.3 -1.3 -1.3 -1.3 -1.3 -1.3 -1.3 -1.3 -1.3 -1.3 -1.3 -1.3 -1.3 -1.3 -1.3 -1.3 -1.3 -1.3 -1.3 -1.3 -1.3 -1.3 -1.3 -1.3 -1.3 -1.3 -1.3 -1.3 -1.3 -1.3 -1.3 -1.3 -1.3 -1.3 -1.3 -1.3 -1.3 -1.3 -1.3 -1.3 -1.3 -1.3 -1.3 -1.3 -1.3 -1.3 -1.3 -1.3 -1.3 -1.3 -1.3 -1.3 -1.3 -1.3 -1.3 -1.3 -1.3 -1.3 -1.3 -1.3 -1.3 -1.3 -1.3 -1.3 -1.3 -1.3 -1.3 -1.3 -1.3 -1.3 -1.3 -1.3 -1.3 -1.3 -1.3 -1.3 -1.3 -1.3 -1.3 -1.3 -1.3 -1.3 -1.3 -1.3 -1.3 -1.3 -1.3 -1.3 -1.3 -1.3 -1.3 -1.3 -1.3 -1.3 -1.3 -1.3 -1.3 -1.3 -1.3 -1.3 -1.3 -1.3 -1.3 -1.3 -1.3 -1.3 4.1 6.9
-1.3 -1.3 -1.3 -1.3 -1.3 -1.3 -1.3 -1.3 -1.3 -1.3 -1.3 -1.3 -1.3 -1.3 -1.3 -1.3 -1.3 -1.3 -1.3 -1.3 -1.3 -1.3 -1.3 -1.3 -1.3 -1.3 -1.3 -1.3 -1.3 -1.3 -1.3 -1.3 -1.3 -1.3 -1.3 -1.3 -1.3 -1.3 -1.3 -1.3 -1.3 -1.3 -1.3 -1.3 -1.3 -1.3 -1.3 -1.3 -1.3 -1.3 -1.3 -1.3 -1.3 -1.3 -1.3 -1.3 -1.3 -1.3 -1.3 -1.3 -1.3 -1.3 -1.3 -1.3 -1.3 -1.3 -1.3 -1.3 -1.3 -1.3 -1.3 -1.3 -1.3 -1.3 -1.3 -1.3 -1.3 -1.3 -1.3 -1.3 -1.3 -1.3 -1.3 -1.3 -1.3 -1.3 -1.3 -1.3 -1.3 -1.3 -1.3 -1.3 -1.3 -1.3 -1.3 -1.3 -1.3 -1.3 -1.3 -1.3 -1.3 -1.3 -1.3 -1.3 -1.3 -1.3 -1.3 -1.3 -1.3 -1.3 -1.3 -1.3 -1.3 -1.3 -1.3 -1.3 -1.3 -1.3 -1.3 -1.3 -1.3 -1.3 -1.3 -1.3 -1.3 -1.3 -1.3 -1.3 -1.3 -1.3 -1.3 -1.3 -1.3 -1.3 -1.3 -1.3 -1.3 -1.3 -1.3 -1.3 -1.3 -1.3 -1.3 -1.3 -1.3 -1.3 -1.3 -1.3 -1.3 -1.3 -1.3 -1.3 -1.3 -1.3 -1.3 -1.3 -1.3 -1.3 -1.3 -1.3 -1.3 -1.3 -1.3 -1.3 -1.3 -1.3 -1.3 -1.3 -1.3 -1.3 -1.3 -1.3 -1.3 -1.3 -1.3 -1.3 -1.3 -1.3 -1.3 -1.3 -1.3 -1.3 -1.3 -1.3 -1.3 -1.3 -1.3 -1.3 -1.3 -1.3 -1.3 -1.3 -1.3 -1.3 -1.3 -1.3 6.5 22 21.1 21.1
-1.3 -1.3 -1.3 -1.3 -1.3 -1.3 -1.3 -1.3 -1.3 -1.3 -1.3 -1.3 -1.3 -1.3 -1.3 -1.3 -1.3 -1.3 -1.3 -1.3 -1.3 -1.3 -1.3 -1.3 -1.3 -1.3 -1.3 -1.3 -1.3 -1.3 -1.3 -1.3 -1.3 -1.3 -1.3 -1.3 -1.3 -1.3 -1.3 -1.3 -1.3 -1.3 -1.3 -1.3 -1.3 -1.3 -1.3 -1.3 -1.3 -1.3 -1.3 -1.3 -1.3 -1.3 -1.3 -1.3 -1.3 -1.3 -1.3 -1.3 -1.3 -1.3 -1.3 -1.3 -1.3 -1.3 -1.3 -1.3 -1.3 -1.3 -1.3 -1.3 -1.3 -1.3 -1.3 -1.3 -1.3 -1.3 -1.3 -1.3 -1.3 -1.3 -1.3 -1.3 -1.3 -1.3 -1.3 -1.3 -1.3 -1.3 -1.3 -1.3 -1.3 -1.3 -1.3 -1.3 -1.3 -1.3 -1.3 -1.3 -1.3 -1.3 -1.3 -1.3 -1.3 -1.3 -1.3 -1.3 -1.3 -1.3 -1.3 -1.3 -1.3 -1.3 -1.3 -1.3 -1.3 -1.3 -1.3 -1.3 -1.3 -1.3 -1.3 -1.3 -1.3 -1.3 -1.3 -1.3 -1.3 -1.3 -1.3 -1.3 -1.3 -1.3 -1.3 -1.3 -1.3 -1.3 -1.3 -1.3 -1.3 -1.3 -1.3 -1.3 -1.3 -1.3 -1.3 -1.3 -1.3 -1.3 -1.3 -1.3 -1.3 -1.3 -1.3 -1.3 -1.3 -1.3 -1.3 -1.3 -1.3 -1.3 -1.3 -1.3 -1.3 -1.3 -1.3 -1.3 -1.3 -1.3 -1.3 -1.3 -1.3 -1.3 -1.3 -1.3 -1.3 -1.3 -1.3 -1.3 -1.3 -1.3 0.5 1.1 -1.3 -1.3 -1.3 -1.3 -1.3 -1.3 -1.3 1 2.1 4.4 8.3 14.6 22.6 27.3 31.3 31
-1.3 -1.3 -1.3 -1.3 -1.3 -1.3 -1.3 -1.3 -1.3 -1.3 -1.3 -1.3 -1.3 -1.3 -1.3 -1.3 -1.3 -1.3 -1.3 -1.3 -1.3 -1.3 -1.3 -1.3 -1.3 -1.3 -1.3 -1.3 -1.3 -1.3 -1.3 -1.3 -1.3 -1.3 -1.3 -1.3 -1.3 -1.3 -1.3 -1.3 -1.3 -1.3 -1.3 -1.3 -1.3 -1.3 -1.3 -1.3 -1.3 -1.3 -1.3 -1.3 -1.3 -1.3 -1.3 -1.3 -1.3 -1.3 -1.3 -1.3 -1.3 -1.3 -1.3 -1.3 -1.3 -1.3 -1.3 -1.3 -1.3 -1.3 -1.3 -1.3 -1.3 -1.3 -1.3 -1.3 -1.3 -1.3 -1.3 -1.3 -1.3 -1.3 -1.3 -1.3 -1.3 -1.3 -1.3 -1.3 -1.3 -1.3 -1.3 -1.3 -1.3 -1.3 -1.3 -1.3 -1.3 -1.3 -1.3 -1.3 -1.3 -1.3 -1.3 -1.3 -1.3 -1.3 -1.3 -1.3 -1.3 -1.3 -1.3 -1.3 -1.3 -1.3 -1.3 -1.3 -1.3 -1.3 -1.3 -1.3 -1.3 -1.3 -1.3 -1.3 -1.3 -1.3 -1.3 -1.3 -1.3 -1.3 -1.3 -1.3 -1.3 -1.3 -1.3 -1.3 -1.3 -1.3 -1.3 -1.3 -1.3 -1.3 -1.3 -1.3 -1.3 -1.3 -1.3 -1.3 -1.3 -1.3 -1.3 -1.3 -1.3 -1.3 -1.3 -1.3 -1.3 -1.3 -1.3 -1.3 -1.3 -1.3 -1.3 -1.3 -1.3 -1.3 -1.3 -1.3 -1.3 -1.3 -1.3 -1.3 -1.3 -1.3 -1.3 -1.3 -1.3 -1.3 -1.3 -1.3 -1.3 -1.3 2.3 2.3 1.1 0.9 2 4.7 5.1 6.2 -1.3 6.5 10.2 14.6 23.1 26.9 29.7 34 34.9 36.1
-1.3 -1.3 -1.3 -1.3 -1.3 -1.3 -1.3 -1.3 -1.3 -1.3 -1.3 -1.3 -1.3 -1.3 -1.3 -1.3 -1.3 -1.3 -1.3 -1.3 -1.3 -1.3 -1.3 -1.3 -1.3 -1.3 -1.3 -1.3 -1.3 -1.3 -1.3 -1.3 -1.3 -1.3 -1.3 -1.3 -1.3 -1.3 -1.3 -1.3 -1.3 -1.3 -1.3 -1.3 -1.3 -1.3 -1.3 -1.3 -1.3 -1.3 -1.3 -1.3 -1.3 -1.3 -1.3 -1.3 -1.3 -1.3 -1.3 -1.3 -1.3 -1.3 -1.3 -1.3 -1.3 -1.3 -1.3 -1.3 -1.3 -1.3 -1.3 -1.3 -1.3 -1.3 -1.3 -1.3 -1.3 -1.3 -1.3 -1.3 -1.3 -1.3 -1.3 -1.3 -1.3 -1.3 -1.3 -1.3 -1.3 -1.3 -1.3 -1.3 -1.3 -1.3 -1.3 -1.3 -1.3 -1.3 -1.3 -1.3 -1.3 -1.3 -1.3 -1.3 -1.3 -1.3 -1.3 -1.3 -1.3 -1.3 -1.3 -1.3 -1.3 -1.3 -1.3 -1.3 -1.3 -1.3 -1.3 -1.3 -1.3 -1.3 -1.3 -1.3 -1.3 -1.3 -1.3 -1.3 -1.3 -1.3 -1.3 -1.3 -1.3 -1.3 -1.3 -1.3 -1.3 -1.3 -1.3 -1.3 -1.3 -1.3 -1.3 -1.3 -1.3 -1.3 -1.3 -1.3 -1.3 -1.3 -1.3 -1.3 -1.3 -1.3 -1.3 -1.3 -1.3 -1.3 -1.3 -1.3 -1.3 -1.3 -1.3 -1.3 -1.3 -1.3 -1.3 -1.3 -1.3 -1.3 -1.3 -1.3 -1.3 -1.3 -1.3 -1.3 -1.3 -0.1 -1.3 -1.3 -1.3 3.3 3.2 5.8 6.4 4.4 8.2 9 8.1 10.1 7.2 15.3 20.1 31.4 37.7 37.7 39.5 42.3 44.5 53.9
-1.3 -1.3 -1.3 -1.3 -1.3 -1.3 -1.3 -1.3 -1.3 -1.3 -1.3 -1.3 -1.3 -1.3 -1.3 -1.3 -1.3 -1.3 -1.3 -1.3 -1.3 -1.3 -1.3 -1.3 -1.3 -1.3 -1.3 -1.3 -1.3 -1.3 -1.3 -1.3 -1.3 -1.3 -1.3 -1.3 -1.3 -1.3 -1.3 -1.3 -1.3 -1.3 -1.3 -1.3 -1.3 -1.3 -1.3 -1.3 -1.3 -1.3 -1.3 -1.3 -1.3 -1.3 -1.3 -1.3 -1.3 -1.3 -1.3 -1.3 -1.3 -1.3 -1.3 -1.3 -1.3 -1.3 -1.3 -1.3 -1.3 -1.3 -1.3 -1.3 -1.3 -1.3 -1.3 -1.3 -1.3 -1.3 -1.3 -1.3 -1.3 -1.3 -1.3 -1.3 -1.3 -1.3 -1.3 -1.3 -1.3 -1.3 -1.3 -1.3 -1.3 -1.3 -1.3 -1.3 -1.3 -1.3 -1.3 -1.3 -1.3 -1.3 -1.3 -1.3 -1.3 -1.3 -1.3 -1.3 -1.3 -1.3 -1.3 -1.3 -1.3 -1.3 -1.3 -1.3 -1.3 -1.3 -1.3 -1.3 -1.3 -1.3 -1.3 -1.3 -1.3 -1.3 -1.3 -1.3 -1.3 -1.3 -1.3 -1.3 -1.3 -1.3 -1.3 -1.3 -1.3 -1.3 -1.3 -1.3 -1.3 -1.3 -1.3 -1.3 -1.3 -1.3 -1.3 -1.3 -1.3 -1.3 -1.3 -1.3 -1.3 -1.3 -1.3 -1.3 -1.3 -1.3 -1.3 -1.3 -1.3 -1.3 -1.3 -1.3 -1.3 -1.3 -1.3 -1.3 -1.3 -1.3 -1.3 -1.3 -1.3 2.5 4.1 3.1 2.4 1.9 0.9 -1.3 2.3 5.3 8.8 13.5 14.5 13.9 14.9 13.5 13.9 13 17.2 26.4 27.9 36.2 38.5 44 51.4 55.6 59.1 60.5
-1.3 -1.3 -1.3 -1.3 -1.3 -1.3 -1.3 -1.3 -1.3 -1.3 -1.3 -1.3 -1.3 -1.3 -1.3 -1.3 -1.3 -1.3 -1.3 -1.3 -1.3 -1.3 -1.3 -1.3 -1.3 -1.3 -1.3 -1.3 -1.3 -1.3 -1.3 -1.3 -1.3 -1.3 -1.3 -1.3 -1.3 -1.3 -1.3 -1.3 -1.3 -1.3 -1.3 -1.3 -1.3 -1.3 -1.3 -1.3 -1.3 -1.3 -1.3 -1.3 -1.3 -1.3 -1.3 -1.3 -1.3 -1.3 -1.3 -1.3 -1.3 -1.3 -1.3 -1.3 -1.3 -1.3 -1.3 -1.3 -1.3 -1.3 -1.3 -1.3 -1.3 -1.3 -1.3 -1.3 -1.3 -1.3 -1.3 -1.3 -1.3 -1.3 -1.3 -1.3 -1.3 -1.3 -1.3 -1.3 -1.3 -1.3 -1.3 -1.3 -1.3 -1.3 -1.3 -1.3 -1.3 -1.3 -1.3 -1.3 -1.3 -1.3 -1.3 -1.3 -1.3 -1.3 -1.3 -1.3 -1.3 -1.3 -1.3 -1.3 -1.3 -1.3 -1.3 -1.3 -1.3 -1.3 -1.3 -1.3 -1.3 -1.3 -1.3 -1.3 -1.3 -1.3 -1.3 -1.3 -1.3 -1.3 -1.3 -1.3 -1.3 -1.3 -1.3 -1.3 -1.3 -1.3 -1.3 -1.3 -1.3 -1.3 -1.3 -1.3 -1.3 -1.3 -1.3 -1.3 -1.3 -1.3 -1.3 -1.3 -1.3 -1.3 -1.3 -1.3 -1.3 -1.3 -1.3 -1.3 -1.3 -1.3 -1.3 -1.3 -1.3 -1.3 -1.3 -1.3 -1.3 -1.3 -1.3 4.8 2.7 2.5 5.7 7.7 10.4 9.2 11.8 8.6 9.7 11.4 12.3 15 15.7 16.2 17.3 19.6 19.8 21.4 25.9 28.3 31.4 35.1 46.7 50.8 54.4 62.1 62 60.6
-1.3 -1.3 -1.3 -1.3 -1.3 -1.3 -1.3 -1.3 -1.3 -1.3 -1.3 -1.3 -1.3 -1.3 -1.3 -1.3 -1.3 -1.3 -1.3 -1.3 -1.3 -1.3 -1.3 -1.3 -1.3 -1.3 -1.3 -1.3 -1.3 -1.3 -1.3 -1.3 -1.3 -1.3 -1.3 -1.3 -1.3 -1.3 -1.3 -1.3 -1.3 -1.3 -1.3 -1.3 -1.3 -1.3 -1.3 -1.3 -1.3 -1.3 -1.3 -1.3 -1.3 -1.3 -1.3 -1.3 -1.3 -1.3 -1.3 -1.3 -1.3 -1.3 -1.3 -1.3 -1.3 -1.3 -1.3 -1.3 -1.3 -1.3 -1.3 -1.3 -1.3 -1.3 -1.3 -1.3 -1.3 -1.3 -1.3 -1.3 -1.3 -1.3 -1.3 -1.3 -1.3 -1.3 -1.3 -1.3 -1.3 -1.3 -1.3 -1.3 -1.3 -1.3 -1.3 -1.3 -1.3 -1.3 -1.3 -1.3 -1.3 -1.3 -1.3 -1.3 -1.3 -1.3 -1.3 -1.3 -1.3 -1.3 -1.3 -1.3 -1.3 -1.3 -1.3 -1.3 -1.3 -1.3 -1.3 -1.3 -1.3 -1.3 -1.3 -1.3 -1.3 -1.3 -1.3 -1.3 -1.3 -1.3 -1.3 -1.3 -1.3 -1.3 -1.3 -1.3 -1.3 -1.3 -1.3 -1.3 -1.3 -1.3 -1.3 -1.3 -1.3 -1.3 -1.3 -1.3 -1.3 -1.3 -1.3 -1.3 -1.3 -1.3 -1.3 -1.3 -1.3 -1.3 -1.3 -1.3 -1.3 -1.3 -1.3 -1.3 -1.3 -1.3 -1.3 -1.3 -1.3 -1.3 4.1 5.3 6.3 5.3 7.6 11.8 12.1 12 12.5 12.9 13.9 15.4 16.6 17.4 19.4 19.7 22.2 23 28.2 32.9 36 40.4 43.8 44.7 42.4 47.6 48.6 53.9 57.1 56.7
-1.3 -1.3 -1.3 -1.3 -1.3 -1.3 -1.3 -1.3 -1.3 -1.3 -1.3 -1.3 -1.3 -1.3 -1.3 -1.3 -1.3 -1.3 -1.3 -1.3 -1.3 -1.3 -1.3 -1.3 -1.3 -1.3 -1.3 -1.3 -1.3 -1.3 -1.3 -1.3 -1.3 -1.3 -1.3 -1.3 -1.3 -1.3 -1.3 -1.3 -1.3 -1.3 -1.3 -1.3 -1.3 -1.3 -1.3 -1.3 -1.3 -1.3 -1.3 -1.3 -1.3 -1.3 -1.3 -1.3 -1.3 -1.3 -1.3 -1.3 -1.3 -1.3 -1.3 -1.3 -1.3 -1.3 -1.3 -1.3 -1.3 -1.3 -1.3 -1.3 -1.3 -1.3 -1.3 -1.3 -1.3 -1.3 -1.3 -1.3 -1.3 -1.3 -1.3 -1.3 -1.3 -1.3 -1.3 -1.3 -1.3 -1.3 -1.3 -1.3 -1.3 -1.3 -1.3 -1.3 -1.3 -1.3 -1.3 -1.3 -1.3 -1.3 -1.3 -1.3 -1.3 -1.3 -1.3 -1.3 -1.3 -1.3 -1.3 -1.3 -1.3 -1.3 -1.3 -1.3 -1.3 -1.3 -1.3 -1.3 -1.3 -1.3 -1.3 -1.3 -1.3 -1.3 -1.3 -1.3 -1.3 -1.3 -1.3 -1.3 -1.3 -1.3 -1.3 -1.3 -1.3 -1.3 -1.3 -1.3 -1.3 -1.3 -1.3 -1.3 -1.3 -1.3 -1.3 -1.3 -1.3 -1.3 -1.3 -1.3 -1.3 -1.3 -1.3 -1.3 -1.3 -1.3 -1.3 -1.3 -1.3 -1.3 -1.3 -1.3 -1.3 -1.3 -1.3 -1.3 7.5 11.5 8.2 7.5 9.2 10.3 12.5 17.1 19.5 19.1 17.5 17.3 17.1 16.6 19.3 24.1 31.4 38.8 40.6 41 41 44.8 46.9 47.1 45.9 47.7 50.2 52.9 54.3 53.6 52.6 54.5
-1.3 -1.3 -1.3 -1.3 -1.3 -1.3 -1.3 -1.3 -1.3 -1.3 -1.3 -1.3 -1.3 -1.3 -1.3 -1.3 -1.3 -1.3 -1.3 -1.3 -1.3 -1.3 -1.3 -1.3 -1.3 -1.3 -1.3 -1.3 -1.3 -1.3 -1.3 -1.3 -1.3 -1.3 -1.3 -1.3 -1.3 -1.3 -1.3 -1.3 -1.3 -1.3 -1.3 -1.3 -1.3 -1.3 -1.3 -1.3 -1.3 -1.3 -1.3 -1.3 -1.3 -1.3 -1.3 -1.3 -1.3 -1.3 -1.3 -1.3 -1.3 -1.3 -1.3 -1.3 -1.3 -1.3 -1.3 -1.3 -1.3 -1.3 -1.3 -1.3 -1.3 -1.3 -1.3 -1.3 -1.3 -1.3 -1.3 -1.3 -1.3 -1.3 -1.3 -1.3 -1.3 -1.3 -1.3 -1.3 -1.3 -1.3 -1.3 -1.3 -1.3 -1.3 -1.3 -1.3 -1.3 -1.3 -1.3 -1.3 -1.3 -1.3 -1.3 -1.3 -1.3 -1.3 -1.3 -1.3 -1.3 -1.3 -1.3 -1.3 -1.3 -1.3 -1.3 -1.3 -1.3 -1.3 -1.3 -1.3 -1.3 -1.3 -1.3 -1.3 -1.3 -1.3 -1.3 -1.3 -1.3 -1.3 -1.3 -1.3 -1.3 -1.3 -1.3 -1.3 -1.3 -1.3 -1.3 -1.3 -1.3 -1.3 -1.3 -1.3 -1.3 -1.3 -1.3 -1.3 -1.3 -1.3 -1.3 -1.3 -1.3 -1.3 -1.3 -1.3 -1.3 -1.3 -1.3 -1.3 -1.3 -1.3 -1.3 -1.3 -1.3 -1.3 -1.3 6.1 14.7 17.2 17.1 18.4 16.6 16.7 19 18.7 21.9 26.9 25.9 26 26.5 27.2 27.5 36.7 45.4 52.4 52.1 55.3 54.3 54.9 54 51.3 55.6 58.1 57.8 58.4 57.7 58.4 59 60.4
-1.3 -1.3 -1.3 -1.3 -1.3 -1.3 -1.3 -1.3 -1.3 -1.3 -1.3 -1.3 -1.3 -1.3 -1.3 -1.3 -1.3 -1.3 -1.3 -1.3 -1.3 -1.3 -1.3 -1.3 -1.3 -1.3 -1.3 -1.3 -1.3 -1.3 -1.3 -1.3 -1.3 -1.3 -1.3 -1.3 -1.3 -1.3 -1.3 -1.3 -1.3 -1.3 -1.3 -1.3 -1.3 -1.3 -1.3 -1.3 -1.3 -1.3 -1.3 -1.3 -1.3 -1.3 -1.3 -1.3 -1.3 -1.3 -1.3 -1.3 -1.3 -1.3 -1.3 -1.3 -1.3 -1.3 -1.3 -1.3 -1.3 -1.3 -1.3 -1.3 -1.3 -1.3 -1.3 -1.3 -1.3 -1.3 -1.3 -1.3 -1.3 -1.3 -1.3 -1.3 -1.3 -1.3 -1.3 -1.3 -1.3 -1.3 -1.3 -1.3 -1.3 -1.3 -1.3 -1.3 -1.3 -1.3 -1.3 -1.3 -1.3 -1.3 -1.3 -1.3 -1.3 -1.3 -1.3 -1.3 -1.3 -1.3 -1.3 -1.3 -1.3 -1.3 -1.3 -1.3 -1.3 -1.3 -1.3 -1.3 -1.3 -1.3 -1.3 -1.3 -1.3 -1.3 -1.3 -1.3 -1.3 -1.3 -1.3 -1.3 -1.3 -1.3 -1.3 -1.3 -1.3 -1.3 -1.3 -1.3 -1.3 -1.3 -1.3 -1.3 -1.3 -1.3 -1.3 -1.3 -1.3 -1.3 -1.3 -1.3 -1.3 -1.3 -1.3 -1.3 -1.3 -1.3 -1.3 -1.3 -1.3 -1.3 -1.3 -1.3 -1.3 1.9 5.8 9.1 13.6 13.5 17.2 19.3 19.7 22.5 29.6 29.4 31.8 30.5 30.9 31.1 34.3 38.3 38 46.6 60.6 64.9 64.5 67.9 69.4 66.2 62 58.1 61.6 63.7 61.5 64.5 63.4 63.9 67.9 70.5
-1.3 -1.3 -1.3 -1.3 -1.3 -1.3 -1.3 -1.3 -1.3 -1.3 -1.3 -1.3 -1.3 -1.3 -1.3 -1.3 -1.3 -1.3 -1.3 -1.3 -1.3 -1.3 -1.3 -1.3 -1.3 -1.3 -1.3 -1.3 -1.3 -1.3 -1.3 -1.3 -1.3 -1.3 -1.3 -1.3 -1.3 -1.3 -1.3 -1.3 -1.3 -1.3 -1.3 -1.3 -1.3 -1.3 -1.3 -1.3 -1.3 -1.3 -1.3 -1.3 -1.3 -1.3 -1.3 -1.3 -1.3 -1.3 -1.3 -1.3 -1.3 -1.3 -1.3 -1.3 -1.3 -1.3 -1.3 -1.3 -1.3 -1.3 -1.3 -1.3 -1.3 -1.3 -1.3 -1.3 -1.3 -1.3 -1.3 -1.3 -1.3 -1.3 -1.3 -1.3 -1.3 -1.3 -1.3 -1.3 -1.3 -1.3 -1.3 -1.3 -1.3 -1.3 -1.3 -1.3 -1.3 -1.3 -1.3 -1.3 -1.3 -1.3 -1.3 -1.3 -1.3 -1.3 -1.3 -1.3 -1.3 -1.3 -1.3 -1.3 -1.3 -1.3 -1.3 -1.3 -1.3 -1.3 -1.3 -1.3 -1.3 -1.3 -1.3 -1.3 -1.3 -1.3 -1.3 -1.3 -1.3 -1.3 -1.3 -1.3 -1.3 -1.3 -1.3 -1.3 -1.3 -1.3 -1.3 -1.3 -1.3 -1.3 -1.3 -1.3 -1.3 -1.3 -1.3 -1.3 -1.3 -1.3 -1.3 -1.3 -1.3 -0.9 -1.3 -1.3 -1.3 -1.3 -1.3 -1.3 -1.3 -1.3 0.9 1.2 2.4 -1.3 4.7 7.9 9.5 13.2 23.1 26.3 28.3 31.1 34.9 35.6 36.4 36.6 34.8 34.7 41.6 46 49.1 63.6 72.9 81.5 79.7 79.6 79.7 74.8 72.4 65.1 67.5 69.5 69.6 73 72 71.4 74.2 76.7
-1.3 -1.3 -1.3 -1.3 -1.3 -1.3 -1.3 -1.3 -1.3 -1.3 -1.3 -1.3 -1.3 -1.3 -1.3 -1.3 -1.3 -1.3 -1.3 -1.3 -1.3 -1.3 -1.3 -1.3 -1.3 -1.3 -1.3 -1.3 -1.3 -1.3 -1.3 -1.3 -1.3 -1.3 -1.3 -1.3 -1.3 -1.3 -1.3 -1.3 -1.3 -1.3 -1.3 -1.3 -1.3 -1.3 -1.3 -1.3 -1.3 -1.3 -1.3 -1.3 -1.3 -1.3 -1.3 -1.3 -1.3 -1.3 -1.3 -1.3 -1.3 -1.3 -1.3 -1.3 -1.3 -1.3 -1.3 -1.3 -1.3 -1.3 -1.3 -1.3 -1.3 -1.3 -1.3 -1.3 -1.3 -1.3 -1.3 -1.3 -1.3 -1.3 -1.3 -1.3 -1.3 -1.3 -1.3 -1.3 -1.3 -1.3 -1.3 -1.3 -1.3 -1.3 -1.3 -1.3 -1.3 -1.3 -1.3 -1.3 -1.3 -1.3 -1.3 -1.3 -1.3 -1.3 -1.3 -1.3 -1.3 -1.3 -1.3 -1.3 -1.3 -1.3 -1.3 -1.3 -1.3 -1.3 -1.3 -1.3 -1.3 -1.3 -1.3 -1.3 -1.3 -1.3 -1.3 -1.3 -1.3 -1.3 -1.3 -1.3 -1.3 -1.3 -1.3 -1.3 -1.3 -1.3 -1.3 -1.3 -1.3 -1.3 -1.3 -1.3 -1.3 -1.3 -1.3 -1.3 -1.3 -1.3 -1.3 -1.3 -1.3 1.9 -1.3 -1.3 -1.3 -1.3 -1.3 4.3 8.2 7.9 7.4 9.7 8.4 8.4 9.1 7.9 14.2 16.3 22.4 31.8 37.8 38.6 35.3 36.7 40.3 43.2 38.1 40.7 45.3 48.7 55.4 68.5 74.9 81.6 84.5 82.4 78.7 76.1 73.5 72 72.2 76.4 78.5 77.5 75.1 78.3 80.8 82.2
-1.3 -1.3 -1.3 -1.3 -1.3 -1.3 -1.3 -1.3 -1.3 -1.3 -1.3 -1.3 -1.3 -1.3 -1.3 -1.3 -1.3 -1.3 -1.3 -1.3 -1.3 -1.3 -1.3 -1.3 -1.3 -1.3 -1.3 -1.3 -1.3 -1.3 -1.3 -1.3 -1.3 -1.3 -1.3 -1.3 -1.3 -1.3 -1.3 -1.3 -1.3 -1.3 -1.3 -1.3 -1.3 -1.3 -1.3 -1.3 -1.3 -1.3 -1.3 -1.3 -1.3 -1.3 -1.3 -1.3 -1.3 -1.3 -1.3 -1.3 -1.3 -1.3 -1.3 -1.3 -1.3 -1.3 -1.3 -1.3 -1.3 -1.3 -1.3 -1.3 -1.3 -1.3 -1.3 -1.3 -1.3 -1.3 -1.3 -1.3 -1.3 -1.3 -1.3 -1.3 -1.3 -1.3 -1.3 -1.3 -1.3 -1.3 -1.3 -1.3 -1.3 -1.3 -1.3 -1.3 -1.3 -1.3 -1.3 -1.3 -1.3 -1.3 -1.3 -1.3 -1.3 -1.3 -1.3 -1.3 -1.3 -1.3 -1.3 -1.3 -1.3 -1.3 -1.3 -1.3 -1.3 -1.3 -1.3 -1.3 -1.3 -1.3 -1.3 -1.3 -1.3 -1.3 -1.3 -1.3 -1.3 -1.3 -1.3 -1.3 -1.3 -1.3 -1.3 -1.3 -1.3 -1.3 -1.3 -1.3 -1.3 -1.3 -1.3 -1.3 -1.3 -1.3 -1.3 -1.3 -1.3 -1.3 -1.3 -1.3 1.6 2.3 3.7 4.8 6.3 8.3 15 21.3 20.4 16.2 16.4 17.1 18.4 23.7 16.5 9.1 9 14.4 24.1 27.3 30.7 32.9 35.1 36.8 41.4 40.8 39.7 42.9 47 52.4 62.2 73.1 79.7 83.3 90 81.7 78.6 78 74.5 76.6 77.3 77 78.1 79.7 80.2 82.7 84.4 92.8
-1.3 -1.3 -1.3 -1.3 -1.3 -1.3 -1.3 -1.3 -1.3 -1.3 -1.3 -1.3 -1.3 -1.3 -1.3 -1.3 -1.3 -1.3 -1.3 -1.3 -1.3 -1.3 -1.3 -1.3 -1.3 -1.3 -1.3 -1.3 -1.3 -1.3 -1.3 -1.3 -1.3 -1.3 -1.3 -1.3 -1.3 -1.3 -1.3 -1.3 -1.3 -1.3 -1.3 -1.3 -1.3 -1.3 -1.3 -1.3 -1.3 -1.3 -1.3 -1.3 -1.3 -1.3 -1.3 -1.3 -1.3 -1.3 -1.3 -1.3 -1.3 -1.3 -1.3 -1.3 -1.3 -1.3 -1.3 -1.3 -1.3 -1.3 -1.3 -1.3 -1.3 -1.3 -1.3 -1.3 -1.3 -1.3 -1.3 -1.3 -1.3 -1.3 -1.3 -1.3 -1.3 -1.3 -1.3 -1.3 -1.3 -1.3 -1.3 -1.3 -1.3 -1.3 -1.3 -1.3 -1.3 -1.3 -1.3 -1.3 -1.3 -1.3 -1.3 -1.3 -1.3 -1.3 -1.3 -1.3 -1.3 -1.3 -1.3 -1.3 -1.3 -1.3 -1.3 -1.3 -1.3 -1.3 -1.3 -1.3 -1.3 -1.3 -1.3 -1.3 -1.3 -1.3 -1.3 -1.3 -1.3 -1.3 -1.3 -1.3 -1.3 -1.3 -1.3 -1.3 -1.3 -1.3 -1.3 -1.3 -1.3 -1.3 -1.3 -1.3 -1.3 -1.3 -1.3 -1.3 -1.3 -1.3 -1.3 2.4 4 6.1 5.4 9 13.7 15.7 18.1 24.8 21.6 20.7 24.1 26.9 30.9 29.8 30.2 23.5 13.4 14.2 22.3 26.2 30 35.1 35.9 36.4 38 38.8 40 43.8 52.2 59.6 63.5 70.4 75.2 79.9 80.3 84.5 91.5 82.9 77.7 76.8 78.7 80.6 89.1 83.3 84.2 84.6 87.9 99.4
-1.3 -1.3 -1.3 -1.3 -1.3 -1.3 -1.3 -1.3 -1.3 -1.3 -1.3 -1.3 -1.3 -1.3 -1.3 -1.3 -1.3 -1.3 -1.3 -1.3 -1.3 -1.3 -1.3 -1.3 -1.3 -1.3 -1.3 -1.3 -1.3 -1.3 -1.3 -1.3 -1.3 -1.3 -1.3 -1.3 -1.3 -1.3 -1.3 -1.3 -1.3 -1.3 -1.3 -1.3 -1.3 -1.3 -1.3 -1.3 -1.3 -1.3 -1.3 -1.3 -1.3 -1.3 -1.3 -1.3 -1.3 -1.3 -1.3 -1.3 -1.3 -1.3 -1.3 -1.3 -1.3 -1.3 -1.3 -1.3 -1.3 -1.3 -1.3 -1.3 -1.3 -1.3 -1.3 -1.3 -1.3 -1.3 -1.3 -1.3 -1.3 -1.3 -1.3 -1.3 -1.3 -1.3 -1.3 -1.3 -1.3 -1.3 -1.3 -1.3 -1.3 -1.3 -1.3 -1.3 -1.3 -1.3 -1.3 -1.3 -1.3 -1.3 -1.3 -1.3 -1.3 -1.3 -1.3 -1.3 -1.3 -1.3 -1.3 -1.3 -1.3 -1.3 -1.3 -1.3 -1.3 -1.3 -1.3 -1.3 -1.3 -1.3 -1.3 -1.3 -1.3 -1.3 -1.3 -1.3 -1.3 -1.3 -1.3 -1.3 -1.3 -1.3 -1.3 -1.3 -1.3 -1.3 -1.3 -1.3 -1.3 -1.3 -1.3 -1.3 -1.3 -1.3 -1.3 -1.3 -1.3 -1.3 8.9 18 22.4 16.7 16 17.2 14.9 16.7 20.3 25.4 27.4 29.7 39.2 41.3 37.6 38.3 33.5 25.4 18.3 16.4 21.5 25.9 27.2 29.6 34.4 35.3 38.5 42.1 43.4 47.9 58.3 63.4 64.6 66.7 72.4 82.3 89.1 94.3 92.6 88.7 80.2 78.8 80 85.1 87.8 83.6 84.5 86.2 102.1 107.6
-1.3 -1.3 -1.3 -1.3 -1.3 -1.3 -1.3 -1.3 -1.3 -1.3 -1.3 -1.3 -1.3 -1.3 -1.3 -1.3 -1.3 -1.3 -1.3 -1.3 -1.3 -1.3 -1.3 -1.3 -1.3 -1.3 -1.3 -1.3 -1.3 -1.3 -1.3 -1.3 -1.3 -1.3 -1.3 -1.3 -1.3 -1.3 -1.3 -1.3 -1.3 -1.3 -1.3 -1.3 -1.3 -1.3 -1.3 -1.3 -1.3 -1.3 -1.3 -1.3 -1.3 -1.3 -1.3 -1.3 -1.3 -1.3 -1.3 -1.3 -1.3 -1.3 -1.3 -1.3 -1.3 -1.3 -1.3 -1.3 -1.3 -1.3 -1.3 -1.3 -1.3 -1.3 -1.3 -1.3 -1.3 -1.3 -1.3 -1.3 -1.3 -1.3 -1.3 -1.3 -1.3 -1.3 -1.3 -1.3 -1.3 -1.3 -1.3 -1.3 -1.3 -1.3 -1.3 -1.3 -1.3 -1.3 -1.3 -1.3 -1.3 -1.3 -1.3 -1.3 -1.3 -1.3 -1.3 -1.3 -1.3 -1.3 -1.3 -1.3 -1.3 -1.3 -1.3 -1.3 -1.3 -1.3 -1.3 -1.3 -1.3 -1.3 -1.3 -1.3 -1.3 -1.3 -1.3 -1.3 -1.3 -1.3 -1.3 -1.3 -1.3 -1.3 -1.3 -1.3 -1.3 -1.3 -1.3 -1.3 -1.3 -1.3 -1.3 -1.3 -1.3 -1.3 -1.3 -1.3 1.5 6.5 14.3 23.1 24.8 19.1 18.6 17.5 17.3 21.1 27.7 40.9 41.7 43.9 48.7 57.3 54.7 42.4 36.4 32.2 24.6 25.9 26.2 25.6 26.4 27.4 29 37.2 40.4 41.5 45.4 48.8 55.8 60.7 63 66.9 76.2 86.4 98 95.2 94.3 92 81.7 81.3 81.8 82.9 85.8 91.5 85.5 93.1 103.1 109.3
-1.3 -1.3 -1.3 -1.3 -1.3 -1.3 -1.3 -1.3 -1.3 -1.3 -1.3 -1.3 -1.3 -1.3 -1.3 -1.3 -1.3 -1.3 -1.3 -1.3 -1.3 -1.3 -1.3 -1.3 -1.3 -1.3 -1.3 -1.3 -1.3 -1.3 -1.3 -1.3 -1.3 -1.3 -1.3 -1.3 -1.3 -1.3 -1.3 -1.3 -1.3 -1.3 -1.3 -1.3 -1.3 -1.3 -1.3 -1.3 -1.3 -1.3 -1.3 -1.3 -1.3 -1.3 -1.3 -1.3 -1.3 -1.3 -1.3 -1.3 -1.3 -1.3 -1.3 -1.3 -1.3 -1.3 -1.3 -1.3 -1.3 -1.3 -1.3 -1.3 -1.3 -1.3 -1.3 -1.3 -1.3 -1.3 -1.3 -1.3 -1.3 -1.3 -1.3 -1.3 -1.3 -1.3 -1.3 -1.3 -1.3 -1.3 -1.3 -1.3 -1.3 -1.3 -1.3 -1.3 -1.3 -1.3 -1.3 -1.3 -1.3 -1.3 -1.3 -1.3 -1.3 -1.3 -1.3 -1.3 -1.3 -1.3 -1.3 -1.3 -1.3 -1.3 -1.3 -1.3 -1.3 -1.3 -1.3 -1.3 -1.3 -1.3 -1.3 -1.3 -1.3 -1.3 -1.3 -1.3 -1.3 -1.3 -1.3 -1.3 -1.3 -1.3 -1.3 -1.3 -1.3 -1.3 -1.3 -1.3 -1.3 -1.3 -1.3 -1.3 -1.3 -1.3 -1.3 -1.3 1 5.7 10.2 14.3 20.8 23.6 24.5 26.7 34.3 36.7 32.1 34.4 42 41.9 45.6 46.7 56.6 49.4 37.8 34.5 26.4 27.9 32.6 29.7 26.9 29.5 33.3 37.2 42.8 43.6 46.1 51 60.5 59.9 65.1 70.9 77.8 86.6 97.1 93.4 85.3 83.8 83 83.3 85.1 90.6 95.3 94.8 97 96.1 100.5 110.3
-1.3 -1.3 -1.3 -1.3 -1.3 -1.3 -1.3 -1.3 -1.3 -1.3 -1.3 -1.3 -1.3 -1.3 -1.3 -1.3 -1.3 -1.3 -1.3 -1.3 -1.3 -1.3 -1.3 -1.3 -1.3 -1.3 -1.3 -1.3 -1.3 -1.3 -1.3 -1.3 -1.3 -1.3 -1.3 -1.3 -1.3 -1.3 -1.3 -1.3 -1.3 -1.3 -1.3 -1.3 -1.3 -1.3 -1.3 -1.3 -1.3 -1.3 -1.3 -1.3 -1.3 -1.3 -1.3 -1.3 -1.3 -1.3 -1.3 -1.3 -1.3 -1.3 -1.3 -1.3 -1.3 -1.3 -1.3 -1.3 -1.3 -1.3 -1.3 -1.3 -1.3 -1.3 -1.3 -1.3 -1.3 -1.3 -1.3 -1.3 -1.3 -1.3 -1.3 -1.3 -1.3 -1.3 -1.3 -1.3 -1.3 -1.3 -1.3 -1.3 -1.3 -1.3 -1.3 -1.3 -1.3 -1.3 -1.3 -1.3 -1.3 -1.3 -1.3 -1.3 -1.3 -1.3 -1.3 -1.3 -1.3 -1.3 -1.3 -1.3 -1.3 -1.3 -1.3 -1.3 -1.3 -1.3 -1.3 -1.3 -1.3 -1.3 -1.3 -1.3 -1.3 -1.3 -1.3 -1.3 -1.3 -1.3 -1.3 -1.3 -1.3 -1.3 -1.3 -1.3 -1.3 -1.3 -1.3 -1.3 -1.3 -1.3 -1.3 -1.3 -1.3 -1.3 -1.3 -1.3 0.5 3.9 8.1 14.9 18.5 21.5 28.3 32.1 35.8 31.7 29.9 34.4 37.3 44 44 44.8 46.7 45.2 39 32.7 28 27.8 36.6 35.6 36.5 40.2 38.9 42.2 46.6 45.1 47.4 50.1 53.8 60.2 65.7 72.5 75.3 79.1 83.9 87.1 85.8 85 87.7 89.2 95 91.2 92.3 95.3 99.2 98.6 104.7 111.7
-1.3 -1.3 -1.3 -1.3 -1.3 -1.3 -1.3 -1.3 -1.3 -1.3 -1.3 -1.3 -1.3 -1.3 -1.3 -1.3 -1.3 -1.3 -1.3 -1.3 -1.3 -1.3 -1.3 -1.3 -1.3 -1.3 -1.3 -1.3 -1.3 -1.3 -1.3 -1.3 -1.3 -1.3 -1.3 -1.3 -1.3 -1.3 -1.3 -1.3 -1.3 -1.3 -1.3 -1.3 -1.3 -1.3 -1.3 -1.3 -1.3 -1.3 -1.3 -1.3 -1.3 -1.3 -1.3 -1.3 -1.3 -1.3 -1.3 -1.3 -1.3 -1.3 -1.3 -1.3 -1.3 -1.3 -1.3 -1.3 -1.3 -1.3 -1.3 -1.3 -1.3 -1.3 -1.3 -1.3 -1.3 -1.3 -1.3 -1.3 -1.3 -1.3 -1.3 -1.3 -1.3 -1.3 -1.3 -1.3 -1.3 -1.3 -1.3 -1.3 -1.3 -1.3 -1.3 -1.3 -1.3 -1.3 -1.3 -1.3 -1.3 -1.3 -1.3 -1.3 -1.3 -1.3 -1.3 -1.3 -1.3 -1.3 -1.3 -1.3 -1.3 -1.3 -1.3 -1.3 -1.3 -1.3 -1.3 -1.3 -1.3 -1.3 -1.3 -1.3 -1.3 -1.3 -1.3 -1.3 -1.3 -1.3 -1.3 -1.3 -1.3 -1.3 -1.3 -1.3 -1.3 -1.3 -1.3 -1.3 -1.3 -1.3 -1.3 -1.3 -1.3 -1.3 -1.3 -1.3 0 2.4 5.7 10.9 14.1 18.3 21.2 24 26.5 27.9 28.5 36.8 41.5 50 52.4 47.8 41.6 36.6 37 35.6 35.9 28.3 39.1 42.8 47.7 50.4 48.7 45.6 45.6 47.1 48.1 52.5 53.7 57.2 65.8 70.7 71.1 78 85.6 87.3 87.2 88.3 99.7 98.8 96.3 94.1 93.1 95.3 97.4 101.2 109.1 114.5
-1.3 -1.3 -1.3 -1.3 -1.3 -1.3 -1.3 -1.3 -1.3 -1.3 -1.3 -1.3 -1.3 -1.3 -1.3 -1.3 -1.3 -1.3 -1.3 -1.3 -1.3 -1.3 -1.3 -1.3 -1.3 -1.3 -1.3 -1.3 -1.3 -1.3 -1.3 -1.3 -1.3 -1.3 -1.3 -1.3 -1.3 -1.3 -1.3 -1.3 -1.3 -1.3 -1.3 -1.3 -1.3 -1.3 -1.3 -1.3 -1.3 -1.3 -1.3 -1.3 -1.3 -1.3 -1.3 -1.3 -1.3 -1.3 -1.3 -1.3 -1.3 -1.3 -1.3 -1.3 -1.3 -1.3 -1.3 -1.3 -1.3 -1.3 -1.3 -1.3 -1.3 -1.3 -1.3 -1.3 -1.3 -1.3 -1.3 -1.3 -1.3 -1.3 -1.3 -1.3 -1.3 -1.3 -1.3 -1.3 -1.3 -1.3 -1.3 -1.3 -1.3 -1.3 -1.3 -1.3 -1.3 -1.3 -1.3 -1.3 -1.3 -1.3 -1.3 -1.3 -1.3 -1.3 -1.3 -1.3 -1.3 -1.3 -1.3 -1.3 -1.3 -1.3 -1.3 -1.3 -1.3 -1.3 -1.3 -1.3 -1.3 -1.3 -1.3 -1.3 -1.3 -1.3 -1.3 -1.3 -1.3 -1.3 -1.3 -1.3 -1.3 -1.3 -1.3 -1.3 -1.3 -1.3 -1.3 -1.3 -1.3 -1.3 -1.3 -1.3 -1.3 -1.3 -1.3 -1.3 0.9 2.4 6.3 14.7 24.9 35.9 40 30.9 30.4 38.3 33 31.3 42.4 50 50.8 49.3 48.4 43.3 41 41.4 39 35.9 37 43.4 47.9 51 50.4 48.7 51.1 51.8 54.8 59.3 56.9 59.4 64.9 70.4 75.6 78.4 84.6 90.6 101.5 99.9 98 97.3 96.9 96.6 97 97.1 100.4 101.6 107.5 112.7
-1.3 -1.3 -1.3 -1.3 -1.3 -1.3 -1.3 -1.3 -1.3 -1.3 -1.3 -1.3 -1.3 -1.3 -1.3 -1.3 -1.3 -1.3 -1.3 -1.3 -1.3 -1.3 -1.3 -1.3 -1.3 -1.3 -1.3 -1.3 -1.3 -1.3 -1.3 -1.3 -1.3 -1.3 -1.3 -1.3 -1.3 -1.3 -1.3 -1.3 -1.3 -1.3 -1.3 -1.3 -1.3 -1.3 -1.3 -1.3 -1.3 -1.3 -1.3 -1.3 -1.3 -1.3 -1.3 -1.3 -1.3 -1.3 -1.3 -1.3 -1.3 -1.3 -1.3 -1.3 -1.3 -1.3 -1.3 -1.3 -1.3 -1.3 -1.3 -1.3 -1.3 -1.3 -1.3 -1.3 -1.3 -1.3 -1.3 -1.3 -1.3 -1.3 -1.3 -1.3 -1.3 -1.3 -1.3 -1.3 -1.3 -1.3 -1.3 -1.3 -1.3 -1.3 -1.3 -1.3 -1.3 -1.3 -1.3 -1.3 -1.3 -1.3 -1.3 -1.3 -1.3 -1.3 -1.3 -1.3 -1.3 -1.3 -1.3 -1.3 -1.3 -1.3 -1.3 -1.3 -1.3 -1.3 -1.3 -1.3 -1.3 -1.3 -1.3 -1.3 -1.3 -1.3 -1.3 -1.3 -1.3 -1.3 -1.3 -1.3 -1.3 -1.3 -1.3 -1.3 -1.3 -1.3 -1.3 -1.3 -1.3 -1.3 -1.3 -1.3 -1.3 -1.3 -1.3 -1.3 1.9 6.5 15.4 23 33.9 40.8 43 39.9 36.4 35.6 35.6 34.7 40.7 49.6 53.6 55.3 55.5 54.5 50.2 49.1 47.3 44.6 43.2 44.3 40.5 51.2 53 53.6 53.5 54.1 57.2 62.7 62.4 63.4 67.6 70.1 72.5 81.3 89 101.3 104.2 102.8 99.7 97.8 98.1 98.4 100.3 100.4 101.5 105 108.1 114.6
-1.3 -1.3 -1.3 -1.3 -1.3 -1.3 -1.3 -1.3 -1.3 -1.3 -1.3 -1.3 -1.3 -1.3 -1.3 -1.3 -1.3 -1.3 -1.3 -1.3 -1.3 -1.3 -1.3 -1.3 -1.3 -1.3 -1.3 -1.3 -1.3 -1.3 -1.3 -1.3 -1.3 -1.3 -1.3 -1.3 -1.3 -1.3 -1.3 -1.3 -1.3 -1.3 -1.3 -1.3 -1.3 -1.3 -1.3 -1.3 -1.3 -1.3 -1.3 -1.3 -1.3 -1.3 -1.3 -1.3 -1.3 -1.3 -1.3 -1.3 -1.3 -1.3 -1.3 -1.3 -1.3 -1.3 -1.3 -1.3 -1.3 -1.3 -1.3 -1.3 -1.3 -1.3 -1.3 -1.3 -1.3 -1.3 -1.3 -1.3 -1.3 -1.3 -1.3 -1.3 -1.3 -1.3 -1.3 -1.3 -1.3 -1.3 -1.3 -1.3 -1.3 -1.3 -1.3 -1.3 -1.3 0.8 -1.3 -1.3 -1.3 -1.3 -1.3 -1.3 -1.3 -1.3 -1.3 -1.3 -1.3 -1.3 -1.3 -1.3 -1.3 -1.3 -1.3 -1.3 -1.3 -1.3 -1.3 -1.3 -1.3 -1.3 -1.3 -1.3 -1.3 -1.3 -1.3 -1.3 -1.3 -1.3 -1.3 -1.3 -1.3 -1.3 -1.3 -1.3 -1.3 -1.3 -1.3 -1.3 -1.3 -1.3 -1.3 -1.3 -1.3 -1.3 -1.3 -1.3 2.3 9.1 16.7 25.2 38.1 47.7 47.5 43.7 41.1 40.3 40.2 41.3 44.8 53.6 57.9 60.1 61.1 57.2 56.9 55.8 52.1 50.8 50 48.3 48.2 43.6 51.7 55.1 56.9 56.4 58.9 62.9 65.4 66.5 72.2 74 78.8 84.3 90.3 95.6 99.3 95.3 99 107.4 101.4 101.4 101.3 100.2 101.5 106.7 112 118
-1.3 -1.3 -1.3 -1.3 -1.3 -1.3 -1.3 -1.3 -1.3 -1.3 -1.3 -1.3 -1.3 -1.3 -1.3 -1.3 -1.3 -1.3 -1.3 -1.3 -1.3 -1.3 -1.3 -1.3 -1.3 -1.3 -1.3 -1.3 -1.3 -1.3 -1.3 -1.3 -1.3 -1.3 -1.3 -1.3 -1.3 -1.3 -1.3 -1.3 -1.3 -1.3 -1.3 -1.3 -1.3 -1.3 -1.3 -1.3 -1.3 -1.3 -1.3 -1.3 -1.3 -1.3 -1.3 -1.3 -1.3 -1.3 -1.3 -1.3 -1.3 -1.3 -1.3 -1.3 -1.3 -1.3 -1.3 -1.3 -1.3 -1.3 -1.3 -1.3 -1.3 -1.3 -1.3 -1.3 -1.3 -1.3 -1.3 -1.3 -1.3 -1.3 -1.3 -1.3 -1.3 -1.3 -1.3 -1.3 -1.3 -1.3 -1.3 -1.3 -1.3 -1.3 -1.3 -1.3 9 11.2 -1.3 -1.3 -1.3 -1.3 -1.3 -1.3 -1.3 -1.3 -1.3 -1.3 -1.3 -1.3 -1.3 -1.3 -1.3 -1.3 -1.3 -1.3 -1.3 -1.3 -1.3 -1.3 -1.3 -1.3 -1.3 -1.3 -1.3 -1.3 -1.3 -1.3 -1.3 -1.3 -1.3 -1.3 -1.3 -1.3 -1.3 -1.3 -1.3 -1.3 -1.3 -1.3 -1.3 -1.3 -1.3 -1.3 -1.3 -1.3 -1.3 -1.3 3.3 7.5 14.6 23.2 30.1 38.6 46.6 47.4 44.7 47.2 49.1 49.8 50.2 52.5 58.2 64.2 66.4 66.5 63.2 61.5 59.5 55 53.2 55.2 54.7 53.4 49.3 46.7 57 61.1 60.4 68 71.8 69.1 71.8 76.4 81.4 82.1 85.7 89.4 93.3 98.2 108.8 112.7 104 102.8 103.1 103.2 103.1 106.1 114.2 120
-1.3 -1.3 -1.3 -1.3 -1.3 -1.3 -1.3 -1.3 -1.3 -1.3 -1.3 -1.3 -1.3 -1.3 -1.3 -1.3 -1.3 -1.3 -1.3 -1.3 -1.3 -1.3 -1.3 -1.3 -1.3 -1.3 -1.3 -1.3 -1.3 -1.3 -1.3 -1.3 -1.3 -1.3 -1.3 -1.3 -1.3 -1.3 -1.3 -1.3 -1.3 -1.3 -1.3 -1.3 -1.3 -1.3 -1.3 -1.3 -1.3 -1.3 -1.3 -1.3 -1.3 -1.3 -1.3 -1.3 -1.3 -1.3 -1.3 -1.3 -1.3 -1.3 -1.3 -1.3 -1.3 -1.3 -1.3 -1.3 -1.3 -1.3 -1.3 -1.3 -1.3 -1.3 -1.3 -1.3 -1.3 -1.3 -1.3 -1.3 -1.3 -1.3 -1.3 -1.3 -1.3 -1.3 -1.3 -1.3 -1.3 -1.3 -1.3 -1.3 -1.3 -1.3 -1.3 -1.3 -1.3 13.2 11.6 -1.3 -1.3 -1.3 -1.3 -1.3 -1.3 -1.3 -1.3 -1.3 -1.3 -1.3 -1.3 -1.3 -1.3 -1.3 -1.3 -1.3 -1.3 -1.3 -1.3 -1.3 -1.3 -1.3 -1.3 -1.3 -1.3 -1.3 -1.3 -1.3 -1.3 -1.3 -1.3 -1.3 -1.3 -1.3 -1.3 -1.3 -1.3 -1.3 -1.3 -1.3 -1.3 -1.3 -1.3 -1.3 -1.3 -1.3 -1.3 -1.3 -0.6 7 14.7 22 31.6 41.4 46.7 51.1 47.2 51.1 51.4 52.6 51.9 52.5 57.5 63 67.2 70 67.5 66.5 65.3 61.8 58.6 58.3 60.2 61.7 63.8 59.6 60.1 58.1 60.5 64.3 68.9 74.8 75.3 81.8 81.2 82.7 85.8 91.9 97.6 106.5 110.5 111.1 106.3 104.2 105 105.4 104.9 106.5 114.3 117.1
-1.3 -1.3 -1.3 -1.3 -1.3 -1.3 -1.3 -1.3 -1.3 -1.3 -1.3 -1.3 -1.3 -1.3 -1.3 -1.3 -1.3 -1.3 -1.3 -1.3 -1.3 -1.3 -1.3 -1.3 -1.3 -1.3 -1.3 -1.3 -1.3 -1.3 -1.3 -1.3 -1.3 -1.3 -1.3 -1.3 -1.3 -1.3 -1.3 -1.3 -1.3 -1.3 -1.3 -1.3 -1.3 -1.3 -1.3 -1.3 -1.3 -1.3 -1.3 -1.3 -1.3 -1.3 -1.3 -1.3 -1.3 -1.3 -1.3 -1.3 -1.3 -1.3 -1.3 -1.3 -1.3 -1.3 -1.3 -1.3 -1.3 -1.3 -1.3 -1.3 -1.3 -1.3 -1.3 -1.3 -1.3 -1.3 -1.3 -1.3 -1.3 -1.3 -1.3 -1.3 -1.3 -1.3 -1.3 -1.3 -1.3 -1.3 -1.3 -1.3 -1.3 -1.3 -1.3 -1.3 -1.3 10.3 9.4 -1.3 -1.3 -1.3 -1.3 -1.3 -1.3 -1.3 -1.3 -1.3 -1.3 -1.3 -1.3 -1.3 -1.3 -1.3 -1.3 -1.3 -1.3 -1.3 -1.3 -1.3 -1.3 -1.3 -1.3 -1.3 -1.3 -1.3 -1.3 -1.3 -1.3 -1.3 -1.3 -1.3 -1.1 -1.3 -1.3 -1.2 -1.2 -1.3 -1.3 -1.3 -1.3 -1.3 -1.3 -1.3 -1.3 -1.3 -1.3 2.4 6.7 11.4 15.8 20.8 30.6 34.6 47.8 50.9 51.7 52.2 52 58 57.4 58.2 68.9 69.9 72.1 72.6 73 74.4 69.2 66.8 64 60.2 61.7 67.9 65.8 63 66.3 72.4 69.7 57.8 65.3 69.1 73.2 79.7 82.3 82.9 86.2 96.5 98.6 101.3 109.5 111 106.7 106.1 107.8 107.7 107.7 109.2 116.4 117.7
-1.3 -1.3 -1.3 -1.3 -1.3 -1.3 -1.3 -1.3 -1.3 -1.3 -1.3 -1.3 -1.3 -1.3 -1.3 -1.3 -1.3 -1.3 -1.3 -1.3 -1.3 -1.3 -1.3 -1.3 -1.3 -1.3 -1.3 -1.3 -1.3 -1.3 -1.3 -1.3 -1.3 -1.3 -1.3 -1.3 -1.3 -1.3 -1.3 -1.3 -1.3 -1.3 -1.3 -1.3 -1.3 -1.3 -1.3 -1.3 -1.3 -1.3 -1.3 -1.3 -1.3 -1.3 -1.3 -1.3 -1.3 -1.3 -1.3 -1.3 -1.3 -1.3 -1.3 -1.3 -1.3 -1.3 -1.3 -1.3 -1.3 -1.3 -1.3 -1.3 -1.3 -1.3 -1.3 -1.3 -1.3 -1.3 -1.3 -1.3 -1.3 -1.3 -1.3 -1.3 -1.3 -1.3 -1.3 -1.3 -1.3 -1.3 -1.3 -1.3 -1.3 -1.3 -1.3 -1.3 -1.3 4.1 6.4 11.6 2.3 -1.3 -1.3 -1.3 -1.3 -1.3 -1.3 -1.3 -1.3 -1.3 -1.3 -1.3 -1.3 -1.3 -1.3 -1.3 -1.3 -1.3 -1.3 -1.3 -1.3 -1.3 -1.3 -1.3 -1.3 -1.3 -1.3 -1.3 -1.3 -1.3 -1.3 -1.3 7.2 2.4 1.3 1.6 2.1 1.4 -1.3 -1.3 -1.3 -1.3 -1.3 -1.3 -1.3 -1.3 2 6 8.7 15 21.5 25 25.8 32.1 41.8 49.8 50.6 51.9 54.5 58 63.6 69.7 66.9 70.3 73.1 78.9 77.5 78.5 79.3 75.5 67.6 63.6 62 68 67.5 66.1 70.2 69.1 74.3 66.1 67.2 68.5 70.8 73.3 80.1 80.8 92.9 96.2 97.5 98.3 99.2 103 106.7 109.5 110.2 109.2 109 110.5 114.4 116.6
-1.3 -1.3 -1.3 -1.3 -1.3 -1.3 -1.3 -1.3 -1.3 -1.3 -1.3 -1.3 -1.3 -1.3 -1.3 -1.3 -1.3 -1.3 -1.3 -1.3 -1.3 -1.3 -1.3 -1.3 -1.3 -1.3 -1.3 -1.3 -1.3 -1.3 -1.3 -1.3 -1.3 -1.3 -1.3 -1.3 -1.3 -1.3 -1.3 -1.3 -1.3 -1.3 -1.3 -1.3 -1.3 -1.3 -1.3 -1.3 -1.3 -1.3 -1.3 -1.3 -1.3 -1.3 -1.3 -1.3 -1.3 -1.3 -1.3 -1.3 -1.3 -1.3 -1.3 -1.3 -1.3 -1.3 -1.3 -1.3 -1.3 -1.3 -1.3 -1.3 -1.3 -1.3 -1.3 -1.3 -1.3 -1.3 -1.3 -1.3 -1.3 -1.3 -1.3 -1.3 -1.3 -1.3 -1.3 -1.3 -1.3 -1.3 -1.3 -1.3 -1.3 -1.3 -1.3 -1.3 -1.3 -1.3 2.4 9.2 10.5 2.4 -1.3 -1.3 -1.3 -1.3 -1.3 -1.3 -1.3 -1.3 -1.3 -1.3 -1.3 -1.3 -1.3 -1.3 -1.3 -1.3 -1.3 -1.3 -1.3 -1.3 -1.3 -1.3 -1.3 -1.3 -1.3 -1.3 -1.3 -1.3 -1.3 -1.3 -1.3 -1.3 1.8 9.4 6.3 7.5 2 0.3 -1.3 -1.3 0.8 1.4 2.3 3.6 7.4 7.4 13 17.6 26.3 28.9 31.5 27.9 43.7 48 50 55.4 58.5 61.4 64.7 69.1 69.4 69.6 77.9 85.1 86.6 81.1 80.3 78.5 69 71.5 66.3 71.9 68 70.5 70.8 71.2 73 73.4 74.6 72.3 71.5 70.2 75.7 80.7 87.7 91.1 97.6 100.1 99.8 100.7 102.5 106.4 113.7 114.4 114.5 112.7 114.9 118
-1.3 -1.3 -1.3 -1.3 -1.3 -1.3 -1.3 -1.3 -1.3 -1.3 -1.3 -1.3 -1.3 -1.3 -1.3 -1.3 -1.3 -1.3 -1.3 -1.3 -1.3 -1.3 -1.3 -1.3 -1.3 -1.3 -1.3 -1.3 -1.3 -1.3 -1.3 -1.3 -1.3 -1.3 -1.3 -1.3 -1.3 -1.3 -1.3 -1.3 -1.3 -1.3 -1.3 -1.3 -1.3 -1.3 -1.3 -1.3 -1.3 -1.3 -1.3 -1.3 -1.3 -1.3 -1.3 -1.3 -1.3 -1.3 -1.3 -1.3 -1.3 -1.3 -1.3 -1.3 -1.3 -1.3 -1.3 -1.3 -1.3 -1.3 -1.3 -1.3 -1.3 -1.3 -1.3 -1.3 -1.3 -1.3 -1.3 -1.3 -1.3 -1.3 -1.3 -1.3 -1.3 -1.3 -1.3 -1.3 -1.3 -1.3 -1.3 -1.3 -1.3 -1.3 -1.3 -1.3 -1.3 -1.3 3.5 7.8 12.9 15.4 8 7.5 6.1 1.9 2.2 4.4 2.6 2.6 2.6 2.4 1.3 0.4 -1.3 -1.3 -1.3 -1.3 -1.3 -1.3 -1.3 -1.3 -1.3 -1.3 -1.3 -1.3 -1.3 -1.3 -1.3 -1.3 -1.3 -1.3 -1.3 -1.3 1.4 3.1 5.3 5.9 3 2.2 4.2 4.8 4.8 4.9 14.8 10.8 15.3 17.9 19.3 22.7 27.9 33.8 34.5 32.8 36.6 36.7 44 54.9 61 66.2 67.8 68.6 70.1 71.8 78.7 88.6 85.2 75.2 72.5 70.5 71.5 72.3 70 70.6 71.5 70.4 71.9 73.1 73.1 78.1 78.4 75.9 73.7 77.3 77.5 78.1 85 88.8 92.6 97.8 101.5 101.8 105.6 106.9 107 112.3 112.5 112.5 112.9 118.9
-1.3 -1.3 -1.3 -1.3 -1.3 -1.3 -1.3 -1.3 -1.3 -1.3 -1.3 -1.3 -1.3 -1.3 -1.3 -1.3 -1.3 -1.3 -1.3 -1.3 -1.3 -1.3 -1.3 -1.3 -1.3 -1.3 -1.3 -1.3 -1.3 -1.3 -1.3 -1.3 -1.3 -1.3 -1.3 -1.3 -1.3 -1.3 -1.3 -1.3 -1.3 -1.3 -1.3 -1.3 -1.3 -1.3 -1.3 -1.3 -1.3 -1.3 -1.3 -1.3 -1.3 -1.3 -1.3 -1.3 -1.3 -1.3 -1.3 -1.3 -1.3 -1.3 -1.3 -1.3 -1.3 -1.3 -1.3 -1.3 -1.3 -1.3 -1.3 -1.3 -1.3 -1.3 -1.3 -1.3 -1.3 -1.3 -1.3 -1.3 -1.3 -1.3 -1.3 -1.3 -1.3 -1.3 -1.3 -1.3 -1.3 -1.3 -1.3 -1.3 -1.3 -1.3 -1.3 -1.3 -1.3 -1.3 0.8 6.6 12 15.1 28.2 31.9 31.2 7.2 7.1 9.1 8.8 10.7 9.8 8.1 3.7 2.4 2.3 2.9 3 4.4 3.7 -1.3 -1.3 -1.3 -1.3 -1.3 -1.3 -1.3 -1.3 -1.3 -1.3 -1.3 -1.3 -1.3 -1.3 -1.3 2.1 3.6 6.9 12.1 8.5 10.3 8.9 12.2 12.1 13.1 21 17 20.1 21.7 23.5 32.8 31.3 36.4 36 37.5 46.1 50.3 40.2 46.4 53.6 60.9 66 67.4 74.5 80 78.8 81.5 78.2 74.3 71.6 73 75 75.8 73.9 72.1 72.5 76.6 72.2 72.9 73.4 79.3 78.8 79.1 82.3 81.3 81.6 81.3 85.2 87 90.5 92.1 96.8 98.6 104.8 107.8 110.4 112.7 110.6 113.1 121.7 120.8
-1.3 -1.3 -1.3 -1.3 -1.3 -1.3 -1.3 -1.3 -1.3 -1.3 -1.3 -1.3 -1.3 -1.3 -1.3 -1.3 -1.3 -1.3 -1.3 -1.3 -1.3 -1.3 -1.3 -1.3 -1.3 -1.3 -1.3 -1.3 -1.3 -1.3 -1.3 -1.3 -1.3 -1.3 -1.3 -1.3 -1.3 -1.3 -1.3 -1.3 -1.3 -1.3 -1.3 -1.3 -1.3 -1.3 -1.3 -1.3 -1.3 -1.3 -1.3 -1.3 -1.3 -1.3 -1.3 -1.3 -1.3 -1.3 -1.3 -1.3 -1.3 -1.3 -1.3 -1.3 -1.3 -1.3 -1.3 -1.3 -1.3 -1.3 -1.3 -1.3 -1.3 -1.3 -1.3 -1.3 -1.3 -1.3 -1.3 -1.3 -1.3 -1.3 -1.3 -1.3 -1.3 -1.3 -1.3 -1.3 -1.3 -1.3 -1.3 -1.3 -1.3 -1.3 -1.3 -1.3 -1.3 -1.3 2.8 7.7 12 22 25.5 28.1 26.3 20.2 18.2 20.8 18.5 14.7 11.6 9.9 8.2 7.3 8.5 9.1 9.8 10.2 9.8 4.1 8.8 14.9 16.6 13.2 6.9 -1.3 0.3 -1.3 -1.3 -1.3 -1.3 -1.3 -1.3 1 3 5.8 8.8 15.3 18.2 23.9 23.7 22.9 20.3 19.9 23.6 20.4 23.1 26.5 32.6 41.2 39.4 38.3 40.5 40.8 44.2 50.8 49.2 42.9 44 51.1 55.7 60.9 66.9 70.8 70.7 69.8 71.5 74.8 73.3 73.5 77.3 79.3 77.7 75.6 75.1 75.9 78.6 75.8 75.9 77.4 79.4 82.7 84.5 85.3 88.6 87.6 85.7 83.3 89.5 93.2 95.2 96.7 103.9 106.2 109.3 110.5 117.9 123.1 126.5 128.3
-1.3 -1.3 -1.3 -1.3 -1.3 -1.3 -1.3 -1.3 -1.3 -1.3 -1.3 -1.3 -1.3 -1.3 -1.3 -1.3 -1.3 -1.3 -1.3 -1.3 -1.3 -1.3 -1.3 -1.3 -1.3 -1.3 -1.3 -1.3 -1.3 -1.3 -1.3 -1.3 -1.3 -1.3 -1.3 -1.3 0.7 1.4 1.8 1.8 1.7 1.4 0.7 -1.3 -1.3 -1.3 -1.3 -1.3 -1.3 -1.3 -1.3 -1.3 -1.3 -1.3 -1.3 -1.3 -1.3 -1.3 -1.3 -1.3 -1.3 -1.3 -1.3 -1.3 -1.3 -1.3 -1.3 -1.3 -1.3 -1.3 -1.3 -1.3 -1.3 -1.3 -1.3 -1.3 -1.3 -1.3 -1.3 -1.3 -1.3 -1.3 -1.3 -1.3 -1.3 -1.3 -1.3 -1.3 -1.3 -1.3 -1.3 -1.3 -1.3 -1.3 -1.3 -1.3 -1.3 -1.3 2.1 7.4 15.3 21.6 22.5 26.1 29.4 26.5 25.2 26.7 29.5 25.6 16.7 14 11.7 11.9 11.9 13 12.9 14.5 16.2 12.5 17.7 18.3 28.5 24.7 15.7 9 2.1 -1.3 -1.3 -1.3 0.1 0.5 1.8 2.3 5.1 9.6 18.4 21 31.1 36.1 45 42.3 36.4 28.7 27.4 26.4 34.2 35.5 40.7 44.3 44.9 44.5 51 51.2 47.9 46.9 47.7 48.8 46.2 48.5 51.8 55 59.4 61.7 62.9 64.7 65.9 69.3 73.7 73.6 73.7 77.8 78 80.3 77.8 77.3 77.4 77.8 77.5 81.3 84.9 89.4 94.7 94.9 95.2 96.1 94.8 90.5 87.2 89 90 93.3 93.3 100.6 108.6 111.6 115.9 123.4 130.2 130.9
-1.3 -1.3 -1.3 -1.3 -1.3 -1.3 -1.3 -1.3 -1.3 -1.3 -1.3 -1.3 -1.3 -1.3 -1.3 -1.3 -1.3 -1.3 -1.3 -1.3 -1.3 -1.3 -1.3 -1.3 -1.3 -1.3 -1.3 -1.3 -1.3 -1.3 -1.3 -1.3 -1.3 -1.3 -1.3 -1.3 2.1 7.9 8 9.3 9.4 16.7 8.3 4.5 2.1 -1.3 -1.3 -1.3 -1.3 -1.3 -1.3 -1.3 -1.3 -1.3 -1.3 -1.3 -1.3 -1.3 -1.3 -1.3 -1.3 -1.3 -1.3 -1.3 -1.3 -1.3 -1.3 -1.3 -1.3 -1.3 -1.3 -1.3 -1.3 -1.3 -1.3 -1.3 -1.3 -1.3 -1.3 -1.3 -1.3 -1.3 -1.3 -1.3 -1.3 -1.3 -1.3 -1.3 -1.3 -1.3 -1.3 -1.3 -1.3 -1.3 -1.3 -1.3 -1.3 -1.3 -1.3 7.3 17.8 21.5 23.2 26.5 30.3 31.9 30.3 28.9 30.1 31 29.4 22.3 17 13.3 13.5 15.2 15.1 16.1 17.8 16.1 18 23.4 33.3 31.2 24.7 16 8.1 3.3 -1.3 -0.3 1.3 1.9 4.7 6.5 14.3 16.4 19.4 24.9 33.5 41.5 48.5 45.8 39.6 39.1 34.8 34.1 42.2 39.3 45.9 49.8 48.9 55.6 55.8 54.7 53.3 52.5 50 48.5 47.2 47.3 48.3 50.6 54.3 59.4 60.9 62.8 64.5 65.9 65.3 67.7 73.2 75.1 77.3 78.2 78.4 79.8 82.7 79.2 80.3 84.6 86.9 89.8 99.5 102.6 104.9 109.3 103.5 94.4 93.5 92.4 94.3 103.1 103.9 106.2 110.2 113.8 116.6 118.6 127.4 134
-1.3 -1.3 -1.3 -1.3 -1.3 -1.3 -1.3 -1.3 -1.3 -1.3 -1.3 -1.3 -1.3 -1.3 -1.3 -1.3 -1.3 -1.3 -1.3 -1.3 -1.3 -1.3 -1.3 -1.3 -1.3 -1.3 -1.3 -1.3 -1.3 -1.3 -1.3 -1.3 -1.3 -1.3 -1.3 1.6 9.6 12.4 14.6 15.9 16.3 17.7 19.5 20.8 19.8 10.6 2.7 -1.3 -1.3 -1.3 -1.3 -1.3 -1.3 -1.3 -1.3 -1.3 -1.3 -1.3 -1.3 -1.3 -1.3 -1.3 -1.3 -1.3 -1.3 -1.3 -1.3 -1.3 -1.3 -1.3 -1.3 -1.3 -1.3 -1.3 -1.3 -1.3 -1.3 -1.3 -1.3 -1.3 -1.3 -1.3 -1.3 -1.3 -1.3 -1.3 -1.3 -1.3 -1.3 -1.3 -1.3 -1.3 -1.3 -1.3 -1.3 -1.3 -1.3 -1.3 -1.3 7.4 19.3 23.4 28.7 29.4 31.2 31.9 32.9 33.2 35.1 34.4 35.8 39.4 32.3 26.5 16.9 17.1 18.8 18.1 18.2 18.5 22.4 24.4 32.1 38.3 39.1 26.2 16.6 10.2 -1.3 -1.3 3.1 4.7 7.4 10.3 15.6 18.8 23.7 27.7 34.1 43.6 52.9 53.4 51.7 45.1 40.9 37.5 45.4 45.7 46.8 50.6 54 58.7 61.6 59.3 56.2 52.9 51 50.4 49.4 50.1 52.9 51.5 55 55.5 59.8 60.2 63.3 65.9 66.3 67.6 77.7 83.9 86.3 83.9 85.2 84.7 83.3 81.8 82.1 85.2 88.6 91.3 95.2 100.8 106.4 109.5 104.8 99.3 98.6 100 102.6 106.1 113 112.1 112.2 114.1 115.7 117.1 125.7 129.2
-1.3 -1.3 -1.3 -1.3 -1.3 -1.3 -1.3 -1.3 -1.3 -1.3 -1.3 -1.3 -1.3 -1.3 2.9 -1.3 -1.3 -1.3 -1.3 -1.3 -1.3 -1.3 -1.3 -1.3 -1.3 -1.3 -1.3 -1.3 -1.3 -1.3 -1.3 -1.3 -1.3 -1.3 -1.3 3.8 11 12.7 14.7 16.9 18.4 19.9 20.7 22.4 22.2 23.1 22.1 8.4 -1.3 -1.3 -1.3 -1.3 -1.3 -1.3 -1.3 -1.3 -1.3 -1.3 -1.3 -1.3 -1.3 -1.3 -1.3 -1.3 -1.3 -1.3 -1.3 -1.3 -1.3 -1.3 -1.3 -1.3 -1.3 -1.3 -1.3 -1.3 -1.3 -1.3 -1.3 -1.3 -1.3 -1.3 -1.3 -1.3 -1.3 -1.3 -1.3 -1.3 -1.3 -1.3 -1.3 -1.3 -1.3 -1.3 -1.3 -1.3 -1.3 7 3.3 10.9 20.4 26.7 28.4 30.8 34 38.1 37.7 42.8 44.4 47 42.5 50.2 45.6 43.5 38.6 28.6 23.2 22.6 22.2 23.3 25.1 27.4 30.9 39.7 39.7 34.6 24 18.5 11.7 -1.3 1.2 6.6 11.2 14.1 16.8 21.4 26.6 31.2 36.4 44.5 52.8 50.4 55 47.9 40.9 38.9 47.5 47.1 48.4 56.4 62.4 63.8 66.8 63.6 58.5 54 53.3 53.8 53.9 55.4 56.1 57.5 57.9 57.8 58.8 60 64 68.8 67.1 68.4 74.4 82.5 87.1 87.2 87 88.3 86.7 85.8 89.3 93.4 95.7 97.1 100.9 105.5 108.9 112.8 108.8 105.3 106.7 107.2 110.5 113.9 114.2 112 111.9 114.3 116.6 118.4 124 126
-1.3 -1.3 -1.3 -1.3 -1.3 -1.3 -1.3 -1.3 -1.3 -1.3 -1.3 -1.3 -1.3 -1.3 -1.3 -1.3 -1.3 -1.3 -1.3 -1.3 -1.3 -1.3 -1.3 -1.3 -1.3 -1.3 -1.3 -1.3 -1.3 -1.3 -1.3 -1.3 -1.3 -1.3 -1.3 11.3 12.5 13.6 15.8 21.9 25.9 26.9 25.4 25.4 29.5 24.4 21.3 18.1 5.2 -1.3 -1.3 -1.3 -1.3 -1.3 -1.3 -1.3 -1.3 -1.3 -1.3 -1.3 -1.3 -1.3 -1.3 -1.3 -1.3 -1.3 -1.3 -1.3 -1.3 -1.3 -1.3 -1.3 -1.3 -1.3 -1.3 -1.3 -1.3 -1.3 -1.3 -1.3 -1.3 -1.3 -1.3 -1.3 -1.3 -1.3 -1.3 -1.3 -1.3 -1.3 -1.3 -1.3 9.7 9.8 9.1 4.6 4.8 7 9.6 15.3 23.9 31.2 32.1 33.9 35.8 37.6 43.4 46.9 45.5 53.7 48.5 48.5 52.8 54 50.7 46.5 38.3 39.8 36.6 40.2 32.6 30 32.6 38.3 44.4 39.3 34.6 24.3 20.4 16.4 10.5 6.8 4.4 13.5 17.5 22.2 26.3 30.2 34.4 40.9 44.1 43.6 43.2 42 41.5 40.3 43.6 49.7 50.9 60.2 64.1 65.8 66.2 67.9 61.5 57.3 56.7 58.9 60.9 61.8 58.5 62.7 60.4 61.2 65.8 65.4 66.6 72.3 74.8 77.8 81.6 84.7 88.1 89.2 90.3 89.9 92.5 91.1 97.6 100.4 104 105 106.3 109.9 109.9 113.9 112.1 117 116.7 116.3 118.8 121.5 119 115.5 112 113.7 113.6 118.4 122.1 126.9
-1.3 -1.3 -1.3 -1.3 -1.3 -1.3 -1.3 -1.3 -1.3 -1.3 -1.3 -1.3 1.3 -1.3 -1.3 -1.3 -1.3 -1.3 -1.3 -1.3 -1.3 -1.3 -1.3 -1.3 -1.3 -1.3 -1.3 -1.3 -1.3 -1.3 -1.3 -1.3 -1.3 -1.3 2.4 11.9 14 18.8 25.8 29.9 36.6 41.5 41 33.2 35.1 30.5 23.5 17.9 9.8 2.1 -1.3 -1.3 -1.3 -1.3 -1.3 -1.3 -1.3 -1.3 -1.3 -1.3 -1.3 -1.3 -1.3 -1.3 -1.3 -1.3 -1.3 -1.3 -1.3 -1.3 -1.3 -1.3 -1.3 -1.3 -1.3 -1.3 -1.3 -1.3 -1.3 -1.3 -1.3 -1.3 -1.3 -1.3 -1.3 -1.3 -1.3 -1.3 4.3 5.2 4.8 5.6 10.9 11.9 13.9 15.1 14.6 15.2 12.3 17.8 22.1 27.2 38.9 44.6 48.7 51.4 51.8 51 50.2 51.3 54 52.4 54.5 56.4 59.4 53.8 49.7 50.4 52.6 57.6 48.9 37.7 33.9 37.6 44.3 44.3 39.8 30.8 25.3 20.1 16.6 13.5 10.4 3.6 14.9 17.7 22.3 25.6 29.2 32.1 35.5 35.6 36.2 36.5 42 38.7 42.9 48.9 52.8 59.6 63 65.9 66.5 66.6 62.6 60.8 62.2 63.9 65.9 66.9 66.9 68.3 70.1 72.5 67.6 70 76.2 77.7 74.7 83.5 86.4 87.6 91 89 90.3 95.8 98 97.8 102.5 106.1 110.3 116 119 118.6 115.5 120.1 121.1 125.5 124.9 125 128.7 124.4 121.4 117 117.4 115.9 115.7 116.9 120.1 123.1
-1.3 -1.3 -1.3 -1.3 -1.3 -1.3 -1.3 -1.3 -1.3 -1.3 -1.3 -1.3 -1.3 -1.3 -1.3 -1.3 -1.3 -1.3 -1.3 -1.3 -1.3 -1.3 -1.3 -1.3 -1.3 -1.3 -1.3 -1.3 -1.3 -1.3 5.2 4.6 5.9 6.6 6.5 8.2 14.1 20.8 27.7 29.9 33.2 35.1 34.2 33.3 32.2 29.8 22.9 20.1 17.7 16.5 3.9 10.1 13.2 -1.3 -1.3 -1.3 -1.3 -1.3 -1.3 -1.3 -1.3 -1.3 -1.3 -1.3 -1.3 -1.3 -1.3 -1.3 -1.3 -1.3 -1.3 -1.3 -1.3 -1.3 -1.3 -1.3 -1.3 -1.3 -1.3 -1.3 -1.3 -1.3 2.1 2.3 3.3 2.6 3.2 6.8 12.8 9.8 8.6 9.3 11.6 12.9 15.8 20.2 23.8 29.1 19.4 24.7 24 34.4 43.4 48.7 54.4 61.3 60.7 59.4 55.6 51.5 54.3 58.9 57.4 62.9 65.7 65.6 59.6 60 66.2 68.6 63.9 47.1 37.2 38.4 44.7 49.2 47.1 40.1 34.4 25.8 21.7 19.4 15.1 13.1 7.3 13.5 16.1 18.3 20.8 24.7 28.6 30.3 31.4 32.9 35.5 41.2 49.1 50.8 55.2 56.9 64.6 69.9 73 72.8 68.6 67 66.4 68.7 69.3 68.7 69.3 70.3 73.2 77.1 78.6 74.1 81.2 81.8 82.9 82.3 86 87.7 87.8 92.2 97.8 101.8 106 112.9 114 112.1 120.9 127 126.3 128.4 129.7 127.6 127.3 134.6 130.5 131 129.6 129.8 126.3 121.1 118.2 119.9 115.9 117.3 123.5 124.1
-1.3 -1.3 -1.3 2.3 3.1 1.8 4.5 -1.3 -1.3 -1.3 -1.3 -1.3 -1.3 -1.3 -1.3 -1.3 -1.3 -1.3 -1.3 -1.3 -1.3 -1.3 -1.3 -1.3 -1.3 -1.3 -1.3 0.3 2.3 8.6 17.9 23.8 34.2 34.8 19.4 11.8 13.1 19.3 26.7 26.5 30.2 32.5 37.2 32.9 28.6 29 21.7 21 19.6 20 20.6 15.2 12.3 13.1 13.1 -1.3 -1.3 -1.3 -1.3 -1.3 -1.3 -1.3 -1.3 -1.3 -1.3 -1.3 -1.3 -1.3 -1.3 -1.3 -1.3 -1.3 -1.3 -1.3 -1.3 -1.3 -1.3 -1.3 -1.3 -1.3 -1.3 -1.3 2 9.7 17.5 19.4 22 15.2 18.6 18.4 15.4 19.1 25.3 27.3 26.1 23.9 25.7 25.8 21.4 23.8 27.7 32 46.4 52.2 67.9 70 71 69.8 57.1 52.8 55.4 66.3 69.3 66.1 71.7 73.6 78.8 71.3 73 73.9 79.2 63.3 43.5 45.1 46.4 50.4 56.5 49.4 40.3 33.2 27.3 23.2 18.5 16.7 10.4 5.4 12.4 16.2 16.9 20.3 23.3 27 29.5 32.1 35.9 42 47.1 50.6 53.4 56.6 65.5 70.8 74.2 71.8 70.6 69.1 71.1 72.8 69.8 71.4 72.4 74.3 78.8 81.6 81.3 79.2 82.2 84.4 86.4 87.1 91.3 92.4 99.2 103.5 103 108.7 113.1 116.7 117.1 118.1 122 124.8 126.2 131.2 128.5 128.7 131.5 133.8 134.3 135.7 133.7 133.2 130.5 125.5 124.3 123.1 122.3 120.9 122.2 121.2
-1.3 6.7 10.8 13.1 17 7.2 13.2 12.5 0.4 -1.3 -1.3 -1.3 -1.3 -1.3 -1.3 -1.3 -1.3 -1.3 -1.3 -1.3 -1.3 -1.3 -1.3 -1.3 -1.3 -1.3 -1.3 -0.1 2.2 8 17.4 28.1 35 37 35.8 16.1 19 18.3 21.8 30 31.6 38.6 40.5 39.2 29.2 24.7 21.5 20.4 20.2 20.7 21 18.9 12.9 13.2 14.4 11.9 1.4 2.9 -1.3 -1.3 -1.3 -1.3 -1.3 -1.3 -1.3 -1.3 -1.3 -1.3 -1.3 -1.3 -1.3 -1.3 -1.3 -1.3 -1.3 -1.3 -1.3 -1.3 -1.3 -1.3 -1.3 -1.3 3.4 13.7 15.2 19 20 22.8 26.4 31.4 35.8 38.9 43.3 45.9 43.6 38.7 32.1 33.2 30.1 28.5 32.4 44.1 46.7 56.5 68.5 71.2 72.9 73.5 65.6 60.7 70.4 79.2 84.5 80.2 79.3 84.6 84.5 79.5 75.7 75.2 75 68 52.6 47.7 49.1 51.8 53.7 57.7 48.9 43 35.8 31.7 27.8 20.4 18.4 16.3 5.9 11.5 14.3 16.7 19.9 23.8 26.4 28.5 33.9 39.2 46.1 53.8 53.7 57.1 62.3 67.6 69.1 71.4 70.8 73.6 72.5 71.7 72.9 74.3 75.4 76.9 79.3 80.4 81.3 83.3 84.8 88.5 92.5 96 95.3 97 99.6 105.7 109.5 112.4 117.2 119.5 124.7 125 125.2 128.2 131.3 131.4 133.8 134.4 136.1 136.4 137.2 137.6 137.6 136.7 133.5 127.4 128.4 128.1 129.9 128 127.9 131.4
-1.3 -1.3 4.5 8.2 13.9 15.3 14.7 8.4 2.7 -1.3 -1.3 -1.3 -1.3 -1.3 -1.3 -1.3 -1.3 -1.3 -1.3 -1.3 -1.3 -1.3 -1.3 -1.3 -1.3 -1.3 -1.3 -1.3 -1.3 1.8 6.6 11.6 29.9 34 34.9 26.2 19.5 25 18 24.9 36.1 37.3 38.6 39.4 29.7 25 22.3 21.3 20.7 21.1 21 20 17.4 14.4 15.6 20.7 21.9 9.5 3.7 2.5 -1.3 -1.3 -1.3 -1.3 -1.3 -1.3 -1.3 -1.3 -1.3 -1.3 -1.3 -1.3 -1.3 -1.3 -1.3 -1.3 -1.3 -1.3 -1.3 -1.3 -1.3 -1.3 2.1 6.1 17.2 21.9 25.9 29.8 36.8 40.7 44.6 53.3 60.9 67.1 62.7 51.7 42.1 40.4 35.5 34.6 44.4 48.8 51.7 57.1 69.5 73.3 76.9 78.1 78.9 88 88.1 81.5 102.1 101.3 84.9 84 86.2 89.1 82.5 78.9 78.4 71.7 59.4 50.8 52.7 53.6 53.9 54 58.2 53.1 49.4 42.9 38 29.5 26.2 24.1 20.5 11.5 14.2 11.7 18.3 21 23.1 26.8 31 39.2 42.8 45.4 52.4 54.5 61.7 63.4 65.8 67.2 70.6 72.4 73.5 72.6 74.5 75.9 77.1 78.6 80.4 85 87.7 89 89.2 90.9 93.9 98.7 99.8 98.7 110.6 108.9 111.6 115.3 119.3 123.4 126.8 127.8 128 128.1 131.4 134.6 136.6 137.6 139.7 142.3 142.8 142.2 142 140.4 138.3 132.2 130.6 134.8 133.7 134.3 136.8 138.4
-1.3 -1.3 2.3 11.6 11.8 12 9.6 8.6 2 -1.3 -1.3 -1.3 -1.3 -1.3 -1.3 -1.3 -1.3 -1.3 -1.3 -1.3 -1.3 -1.3 -1.3 -1.3 -1.3 -1.3 -1.3 -1.3 -1.3 -1.3 -1.3 3.4 5.4 15 28 28.2 16.6 24.9 16.6 16 22.4 25 25.2 28.8 30.2 28.7 23.9 22.4 21.6 21.5 20.4 19.5 19.8 18.3 18.9 18.9 24.9 20.9 12.1 4 -1.3 -1.3 -1.3 -1.3 -1.3 -1.3 -1.3 -1.3 -1.3 -0.2 -1.3 -1.3 -0.7 -0.6 -0.2 -1.3 -1.3 -1.3 -1.3 -1.3 -1.3 -1.3 1.3 6 12.4 24.7 31.1 34.2 38.9 43.2 62.8 79.2 80 83.3 82.1 64.7 49 44.6 39.7 40.7 46.7 54 60 67.3 68.6 76.9 89.2 91.7 100.7 102.9 101.1 93.1 98.1 106.1 99 89.8 90.1 100.1 94 87.4 81.1 74.9 65.2 54.7 56.2 58.4 58.4 57.8 57.4 58.9 56.7 51.9 48.2 43.2 39.7 34.6 33.5 26.8 19 14.7 13.8 19.6 24.6 27.6 30 36 39.6 41.3 44.1 53 57.6 59.3 62.4 66.1 69.6 73.6 73.8 73.9 75.8 77.5 78.9 82.2 86.8 89.5 91.9 93.7 93.6 94.9 100.9 101.5 103.4 109.9 113.7 115.1 116.2 117.1 123 128 129 129.6 130.4 131.4 132.7 136.9 139.6 143.2 146.3 147.8 148.7 149.9 149.4 148.3 144.9 141.4 135.8 138.8 144 143.9 147.1 146.1
-1.3 1.2 2.4 2.7 4.1 7.4 6.7 6.2 4.1 2.7 1.3 0.8 -1.3 -1.3 -1.3 -1.3 -1.3 -1.3 -1.3 -1.3 -1.3 -1.3 -1.3 -1.3 -1.3 -1.3 -1.3 -1.3 -1.3 -1.3 -1.3 -1.3 -1.3 2.8 5.5 7.4 8.3 13.4 14.3 14.2 14.7 17.6 25.4 29.3 30.4 30.5 29.6 26.1 22.6 22.4 21.8 21.9 23.3 22.2 23.5 22.5 25.2 22.2 22.3 17.4 7.8 7 -1.3 -1.3 3.7 4.2 2.2 -1.3 3.8 9.4 5.1 7.8 8.4 8.7 7.5 4.5 -1.3 -1.3 -1.3 -1.3 1.5 -1.3 3.2 7 14.8 20.7 26.7 34.6 39.3 42.8 57.1 68.2 74.1 76.6 77.8 69.3 56.9 51.6 44.1 43.2 53.8 69.7 78.9 82 81.7 84.1 88.5 103.2 110 110.4 110.6 109 99.9 105 106.3 96.8 95.3 98.6 100.7 91.7 88.1 84 74.9 65.4 63.7 67.3 66.9 68.1 66.6 64.8 69.1 61.9 53.9 51.3 46.6 42.1 37 32.8 26.7 21.8 15.6 21.1 23.7 25.9 28.3 32.9 37.6 38.2 39.7 46.1 53.4 57.3 61 65.9 69.6 75.8 74.9 75.5 77.3 79.3 83.7 86.3 89.8 92.2 95.9 98.1 104.7 107.5 110 108.9 107.6 114.4 114.9 116.8 118.3 121.4 124.2 127.9 131.4 132.7 133 135.2 134.2 139.2 143.3 146.4 148.4 150.7 154.8 155.6 155.6 154.9 151.7 150.2 151 149.7 148.3 149.3 150.6 151.9
1.8 3.6 3 5.7 7.6 9.2 6.3 5.5 3.7 2.3 2.4 2.4 2.4 3.1 -1.3 -1.3 -1.3 -1.3 -1.3 -1.3 -1.3 -1.3 -1.3 -1.3 -1.3 -1.3 -1.3 -1.3 -1.3 -1.3 -1.3 -1.3 -1.3 -1.3 -1.3 1.3 1.6 6.1 11.9 12.3 12.8 14.1 19 28.9 32.3 30.9 29.2 27.7 26.3 24.3 22.9 28 24.3 28.3 29.6 29.4 32.3 31.8 30.3 30.4 27.7 25.2 23.8 25.7 28 31.2 29.6 25.3 18.9 28.9 24.6 23.2 22.3 26.9 26.4 29 26.4 23.5 9.1 8.9 9.8 9.9 11.4 13.5 16.1 20.2 24.1 28.3 34.2 37.7 44.7 55.6 70.8 79.6 82 81.9 75.6 60.8 53.8 42.9 62.6 76.7 81.6 87.3 92.1 92.6 98.8 98.3 106.6 110.2 117 124 111.8 105 104.5 104.2 97.4 99.3 97.3 95.8 96.1 96.5 92.7 72.5 70 71.7 76.8 78.8 80.1 82.3 71 66.4 65.9 61 54.7 51.2 47.4 42.9 40.4 33.6 17.6 19.9 22 23.8 26.2 28.9 34.3 37.1 40.8 42.3 50.4 55 58.4 64.1 70.9 75.9 78.8 78.1 78.7 81.4 86.4 89.7 91.5 93.6 97.4 101.8 109.2 112.7 114.2 114 114.9 119.1 120.3 120.4 122 124.3 127.3 128.9 134 135.2 135.9 138.1 139.9 142.5 146.5 148.9 153.3 154.7 156.5 159.1 157.8 161.7 160.1 157.5 156 160 159.4 153.6 155.8 155.7
3.5 5 8.9 10.8 12.7 12 11.1 9.2 9.6 5.7 2.4 2.4 2.4 0.4 -1.3 -1.3 -1.3 -1.3 -1.3 -1.3 -1.3 -1.3 -1.3 -1.3 -1.3 -0.1 -0.8 -1.3 -1.3 -1.3 -1.3 -1.3 -1.3 -1.3 -1.3 -0.7 0 1.5 9 10.4 9.9 9.3 10.3 12.9 16.9 21 24.7 25.8 26.4 26.4 21.2 22.5 24.1 28.9 36.8 36.9 37.5 50.7 57.1 50.9 49.7 51.9 53.3 54.7 54.3 51.8 47.9 47.5 43.9 38.2 32.2 30.6 32.3 35.6 40.7 41.3 39.7 32.1 23.8 14.1 15 17.6 17.3 20.4 19.1 22.5 24.7 27 30.1 33.3 36.8 45.8 59.9 75.2 83.2 85.8 85.5 73.7 59.6 54.3 74 83.6 93.9 104.3 112.2 110.7 109.4 116.6 114.3 114 120.5 122.4 120.8 113.5 111.9 105.7 103.6 103.2 100.8 105.6 107.4 100.3 97.7 86.5 72.3 78.7 82.7 85.4 89 86.9 85.4 74.8 67 67.1 65.1 60.7 54.1 49.2 48.3 40.8 31.9 17.1 20.2 22 26.2 29.2 34.7 39.2 43.9 48.5 48.9 52.6 62.3 69.9 72.3 77.3 82.2 83 81.8 83 85.5 89.2 92.9 95.6 100 105.7 109.4 114 115.5 117.3 121.1 123 125.3 127.9 128.3 129.9 132.2 135.3 138.1 139.8 141.2 141.5 146.7 147.3 148.7 152.1 156.4 157.7 159.9 162.7 165.8 167 165.2 162.8 164.3 166.2 167.8 166.9 167.2 167.3
5.1 8.9 14.4 15.3 14.8 13.3 12.8 11.2 10.3 7.7 5.5 4.7 2.3 1.2 -1.3 -1.3 -1.3 -1.3 -1.3 -1.3 -1.3 -1.3 -1.3 -1.3 -1.3 2.6 1.2 -1.3 -1.3 -1.3 -1.3 -1.3 -1.3 -1.3 -1.1 -0.8 -0.7 -1.3 -1.3 8.3 7.7 7.9 8.7 10.6 11.6 14.7 17.2 18.8 18.8 18 21.4 22.8 29.8 34.7 37.6 38.8 43.2 61.8 67.6 76.2 65.5 68.5 80.6 81.5 72.1 72.3 71.8 61.9 56.4 50.1 39.3 35.8 37.5 45 50.8 52.2 48.8 42.4 30.8 28.6 26 26.2 26.4 27.4 25.9 27 27.3 29.1 31.4 33 35.6 37.3 43.3 60.3 70.8 78.2 83.7 85.9 64.4 56.4 79 100.4 114.3 123.5 133.4 137.3 136.9 127.9 146.9 140.4 124.9 126.7 126 124.3 125.8 123.7 118.4 121.3 117.1 117.9 116.9 113.5 109.6 88.7 82.1 80.9 89.6 90.3 95.2 97.5 94.9 85.5 78.1 73.2 69.3 69.4 64.5 56.2 51.3 46.7 36.5 28.3 17.7 24.3 28.7 35.4 40.4 42.3 45.6 48.8 49.2 52 60.2 70.3 73 76.3 82.6 86.1 85.3 86.9 89.4 91.9 94.2 98.1 102.1 105.3 108.6 112.2 116.3 118.6 121.9 126.6 132.4 135.5 136 135.6 137.7 141.3 142.2 146.1 148.8 149.4 150.7 154.4 155.9 157.6 159.4 163.1 167.6 169.5 174.8 173.4 176.5 175.7 177 177.9 177.4 179.3 182.7 180.7
5.9 10.7 14.3 19.4 26.8 25.9 15.9 14.7 13.4 10.7 6.1 5.2 3.8 4.4 3.4 -1.3 -1.3 -1.3 -1.3 -1.3 -1.3 -1.3 -1.3 -1.3 -1.3 11.5 2.4 1.5 1.2 -1.3 -1.3 -1.3 -1.3 -1.3 0.4 0.7 1.1 0.6 -1.3 5.5 7.9 8.1 8.5 9.9 11 12.4 15.4 14.7 17 18.3 20.9 31.4 37.8 49.8 62.3 68.6 64.2 70 75.4 77.6 72.5 79 81.2 83.2 83.6 82.6 84.4 79.6 64.6 59.7 51.2 45.9 45.1 47.6 51.8 54.6 49.6 42.2 39.9 38.1 38.7 42.4 43.9 43.7 40.2 36.6 35.1 34.4 35.9 35.2 35.9 36.9 41.4 56.2 72.8 81.4 83.9 86.5 70.7 62.4 84.2 109.1 127.1 137.5 140.1 142.2 145.9 146.7 141.6 144.4 145.8 147.1 131.5 130.2 131 134.9 132.8 132.6 125.6 123.1 124 121.6 114.7 103.5 89.6 88.5 89.1 91.3 92.8 97.1 98.3 93.6 87.3 81.7 76.3 72.7 72.6 64.2 54.6 50.4 43 35.5 28 18 28.3 36.8 38.8 41.1 43.3 46.9 51.3 51.9 60.1 72.1 75.7 75.6 79.6 83.3 85.6 89.4 93 93.9 95.8 99.9 100.9 108.8 111 114 117.2 121 124.8 128.9 135.6 139.4 140.8 142.6 143.8 146.9 148.6 151 155.7 156.5 157.8 158.9 159.5 161.5 166.5 171.7 173.7 177.2 181.1 182.5 182.4 182.7 183.5 184.7 184.2 184.1 187.5 189.7
7.4 10.5 14.2 23.2 23.9 20 20.8 21.4 21.2 18 14.3 11.7 10.9 15.8 9.4 4.9 -1.3 -1.3 -1.3 -1.3 -1.3 -1.3 -1.3 -1.3 1 5.7 8.7 12 12.8 7.2 3.1 2.6 1.5 1.4 1.7 2.3 5.8 3.5 3.2 5.6 7.7 8.6 9.5 10.6 12.2 15.1 14.9 18.4 21.8 26.9 37.5 47.5 68 80.5 83.2 83.6 83.6 76 77.8 79.2 77.1 80.1 81.1 82.4 84.9 87.9 83.1 82.1 75.3 77.4 68.6 57.3 55 57.2 54.1 52.2 50.1 43.8 50.5 51.1 52.4 58.6 66.9 70.5 62.7 61.5 47.8 41.5 36.7 35.4 36.5 38.3 51.2 69.1 77.7 87.1 91.5 88.3 82.4 68.7 85.9 115.4 130.8 132.4 137.5 142.8 144.8 140.5 144.6 146 149.7 151.1 148.1 135.4 137.1 137.8 139.4 137.1 135.9 132.4 124.6 122.8 123.6 114.7 96.9 93.3 91.2 93.1 93.4 96.5 99.3 102.2 91.8 86 81.7 77.3 73.5 71 62.8 56 48.1 41.8 31.6 26.6 21.6 32.2 39.4 41.2 44.4 46.6 48.7 51.9 57.8 64.6 66.2 72.4 76.6 81.7 84.8 90.8 93.4 95.5 97.4 102.6 105.8 108.9 112.6 117.8 121.8 127 132.1 133.1 137 140.3 142.1 147.6 149.2 152.6 155.1 156.6 160 162 164.9 167.8 164.1 169.3 175.7 180 180 181.9 185.4 190.3 189.7 189.9 190.5 191.8 193.5 192.1 197.6 198.8
10.2 11.7 13.6 21.9 21.8 19.9 21.3 21.4 17.5 16.2 16.9 18.3 17.5 19.3 19 15.6 7 7 2.1 -1.3 -1.3 -1.3 -1.3 -1.3 3.8 13.3 13.1 22.7 27.9 19.6 16.7 10.1 8.9 5.9 7.8 10 12.8 12.6 14.3 11.8 8.8 12.4 12.8 12.7 14.6 21.5 24.9 33.3 33.7 35.1 50.5 70.9 74.2 80.1 83 84.1 87.4 86.4 75 78.7 81.8 81.3 82.5 83.7 86 88.6 85 86.9 85.5 87.3 80.8 67.5 67.9 68.6 69.7 64.2 52.8 53.6 52.5 57.2 60.1 64.2 67 69.2 68.4 65.3 60.9 51.1 41.1 39.1 40.4 46.6 63.9 76.2 87.9 95.3 99.7 98.6 89.4 74 86.1 111.1 126.5 135.8 133.3 134.7 138 142.6 146.1 151.5 154.8 159.1 160.4 156.5 145.5 146.7 146.1 152 149.3 140.3 132 126 125.1 117.7 104.2 98 103.5 97.3 95.2 96.7 99.3 102.3 104.4 95.6 86.5 82.3 75.8 73.3 70.4 59.9 52.3 46.1 38.7 29.9 22.6 26.6 37.5 43.6 47.5 46.2 50.7 56.8 62 66 70.9 73 75.8 80 87.6 92 95.2 97.4 99.7 104.2 108.8 111 116.8 121.5 127.8 132.7 135 136 139.2 142.9 144.9 148.3 152.4 156.7 158.8 161.2 162.8 168.8 171.2 170.7 174.4 178.3 179.4 180.7 182.9 186.2 190.2 194.1 196.6 196.9 198.2 198.9 203.4 199.4 202.9 205
16.9 20.9 20 21 20.4 18.6 18.7 18.5 17.7 18 19.1 21.5 21.9 26.8 31.3 24.2 27.1 23.4 17.6 7.2 -1.3 -1.3 0.7 2.5 6.4 13.5 22.4 27.4 26.3 27.2 27.5 23 21.4 17.2 14.6 17.6 17.1 14 19 16.5 11.4 15.5 19.5 22.9 25.4 30.2 38.3 42.7 56.4 69 66.9 71.5 74 77.8 81.2 83.6 86.7 87.2 80.2 78.4 81.1 82.7 83.6 86.1 86.9 87.7 88.8 84 82.4 81.2 81.2 73.5 78.5 84.8 81 74.2 63.1 62.5 59 59.7 72.5 71.8 75 77.1 74.6 71.1 71.8 62.5 53.5 60 64 72.6 77.5 87.1 94.1 97.9 102.7 105.8 102.1 84.2 85.9 106.6 121.9 130.4 137.8 145.3 150.8 159.7 162.1 162.2 158.4 165.3 169 169.5 165.1 151.6 154.7 158.9 158.1 152.1 146 140.8 129.1 126.7 114.7 101.4 104 104.3 97.3 99.3 100 102.3 106.4 108.3 98.1 87.9 82.8 75.2 73.9 68.2 56.7 47.6 40.9 32.7 29.1 31.4 31.2 39.4 44.5 50.5 54.9 55.2 61.5 67.1 72.5 74.7 75.8 83.8 88.2 94.4 94.6 98.5 102.3 104.5 106.4 109.6 115 122.3 127.7 132.1 133.8 137.9 140.2 142.2 146.1 151.7 157 159.7 162 166.1 169.1 171.6 172.6 176.3 177.5 179 182.3 184.3 186.4 190.1 192.4 195.9 200.1 204.2 206.7 212.6 213.8 207.6 211.3 213.3
18.9 19.7 18.6 18.3 18.8 18.6 18.7 18.3 18.8 21.1 22.1 22 29 28.8 30.5 26.2 29.1 29.4 28.7 23.9 10.2 -1.3 3 9.9 10.7 15.2 22.9 28.1 29.2 29.3 28.7 27.4 23.4 18.8 18.4 18.9 19.9 18.7 17 19.1 19.1 30.8 32.8 32.6 38.6 57.4 65.1 60.2 65.4 68.7 67.7 69.9 73.6 77.4 80.2 83.6 85.9 87.2 86.7 86.6 82.1 83.7 85.1 87.2 88.2 88.4 88.7 84.4 84.4 81.7 89.2 91.8 91.5 96.7 93.5 81.7 71 79.9 81.1 72.8 64.2 81.2 86.3 87.5 84.8 83.4 80.7 77.9 73.5 76.2 81.6 85.2 87.7 94.3 103.5 108.8 111.8 110.5 105.8 92.2 91.7 110.4 128.2 133.1 145.5 148.3 160 164 171.1 172.4 163.9 172.5 178.7 181.6 183.2 169.5 158.2 168.7 175 166.6 156.6 151.4 144.3 128 119 108.7 107.2 108.4 107.6 101 100.7 101.5 104.3 107.3 109.3 94.8 84.7 80.7 73.3 71.5 64.1 49.5 44.2 35.6 26 33.2 34.4 34.9 48.9 54.1 59.5 62.5 62.2 66.1 70.9 75 78.2 81.6 85.4 87 95.1 99.5 101.8 103.7 106.4 109.2 116.2 120.9 125 127.4 131 137.6 140.7 145.1 150.3 156 160.4 163 166.4 172.2 173.3 173.9 178.5 183.3 183.6 185 189.2 191.7 194.6 194.8 202.4 204.3 206.4 213.2 218.6 220.7 218.5 222 224.3 223.4
14.1 15.2 15.5 15 17.6 18.1 18.5 18.2 19.9 23.2 28.4 30.3 30 29.3 28.4 30 30 30.8 30.7 27.5 23.2 16.1 13.2 12.4 15.3 21.8 31.6 33.3 31.9 29.5 28.7 27.4 25.2 26.5 26.1 24.9 26.3 28.3 30.3 25.9 21.3 26.6 34.1 36.6 36.5 46 56.7 67.4 62.6 68.7 71.8 71.7 76.8 79.4 81 84 85.5 87.9 89.4 89.1 86.3 87.4 90.6 89.2 89.3 91.2 92.4 91.7 95.7 98.7 99 99.7 98.5 101.9 102.5 91.2 89.3 84.2 83.3 84 81 82.6 90.8 98.3 106.3 113.7 98.3 91.1 84.9 84.5 88.3 92.2 95.6 99.9 105 111.3 115 112.9 108.1 97.9 97.9 115.6 135.4 155.9 158.8 160.4 164.8 167.6 170.6 172.7 169.8 172 182 184.9 185.9 181.2 174.5 170.5 180.1 182.2 171.1 161.7 153.5 136.4 123.4 114.8 115.6 112.6 111.4 103.1 102.3 102.3 102.9 105.9 108.6 101.7 86.4 77.4 71.8 67.7 62.8 52.7 44.1 36.8 27.1 35 33.8 38.5 46.9 57.7 65 66.6 68.5 67.6 70.7 78.7 81.6 84.3 86.9 90.9 92.9 98.7 101.8 104.8 108.1 114.3 117.3 119.8 123.9 128.7 133.7 139.2 142.5 147 152.1 156.8 161.5 166.3 170.1 175.8 179.5 178.4 181.1 184.6 188 191.1 193 196.4 199.5 203.5 204.8 208.1 215 218.9 221.8 225.9 227.5 231.1 230.6 229.6
14.2 14.6 13.4 14.9 15.3 20.8 19.8 19.7 19.2 23.7 27.1 27.9 28.1 29.7 32.7 35 33.4 35.8 37.3 35 33.6 28.2 19.4 16.8 19.4 23.4 32 34.3 34.8 33.9 34.6 33.2 33 34.3 37.3 34.6 32 34.8 33.9 31.5 31.3 28.9 33 41 42.9 47.5 64 68.4 70.9 69.3 73.3 76.3 80.2 82.1 84.2 86 88.3 88.7 90.1 90.9 93.3 100.8 99.4 94.8 96.9 98.2 102.7 112.4 114.1 118.1 118.3 113.1 103 102.8 101.2 97 95.4 89.7 89.9 92.8 90.6 89.2 93.2 98 110.8 116.1 116.6 112.1 98 96.9 96.2 100.5 103.4 109 112 111.2 116.3 120.6 114 104 103.8 126.5 143.2 155.5 158.1 162 164.6 167.2 172.2 175.3 177.6 179.7 184.7 199.4 197.7 193 188 177.2 180.5 183.3 177.3 170.5 161.2 150.8 130.8 121.3 119.2 119.5 112.5 111 102.5 101.7 103.1 105.6 105.2 104 87.2 76.5 69 63.2 57.4 49.3 44.3 38.4 30.1 36 31.6 40.2 43.1 52.9 65.4 71.3 73.7 71.8 78.2 79 82.4 85.3 89.3 95.3 94.8 100.5 104.2 107.1 110.2 115.7 116.9 120.9 125.6 130 135.3 143.2 146 151 153.8 157.3 162.3 168.5 173.3 178.7 184.1 187.5 185.8 188.2 191.8 196 197.3 201.9 203.7 209.1 209.2 215.1 222.3 225.7 227.6 234 239.3 240.3 240.2 241.1
11.7 12.6 13.1 14.4 16.8 18.6 18 18.7 20.5 28.5 26.4 25.5 27.4 33.2 35.7 44.3 45.4 43.4 44 43.6 41.1 38.2 32.8 31.7 26.7 25.1 31.6 33.4 35.1 34.8 35.2 41 39.7 43.7 45.2 43 40.2 37.3 37.8 38.8 38.1 39.6 39.3 42.2 48.8 54.7 59.2 66.7 70 72.5 80.6 86.6 87.8 91.9 91.6 92.9 98.1 97.4 91.5 93.1 94 97.1 99.2 99.1 102.6 110.7 113.9 115.5 117.5 119.6 120.6 120.5 113.7 105.4 105 105.8 102.3 102.1 103.5 102.4 98.9 98.4 88.5 99.7 110.5 113.3 116.6 115.6 116.1 120.9 119.4 115.7 116 119.9 119.7 118.7 119.3 121.6 117.5 111.5 99.4 126.2 144.7 154.8 158.1 161.8 164.8 167.6 171.1 177 185.5 186.2 182 201.3 204 201.3 198.9 192.1 182.3 181.5 179.9 176.7 172.8 157.7 143.8 125 118.7 121.8 112.8 109 101.1 101.5 102.9 105 105.5 94.4 85.1 74.9 66.9 61.9 55.6 48 43.2 40.2 37.9 41.6 42 37.1 42.6 46.5 59.8 70.2 76.9 76.9 81 82.9 83.6 87.1 93.5 100.3 99.4 101.6 106.6 109.8 112.9 115.3 117.7 122 127.9 133.1 138.4 143.7 149.2 154.6 157.2 160.2 163.6 169.2 174.6 179.4 182.1 186 190.2 192.4 195 199.6 203 208.7 210.9 216.2 217 223.5 227.2 233.4 237.1 242.8 243.3 243.6 246.3 248.7
10.7 10.6 10.5 12.9 17.1 19.1 24.4 19.3 21.4 24.7 25.3 26.6 35.5 39 39.3 46.1 53.3 58.5 51.6 53 58.4 52.9 45 34.7 39.5 38.4 30.4 37.3 37.4 36.6 37.7 41.3 46.2 45.3 47.5 51 46.3 44.6 44.6 47.8 44.8 47.5 49 47.3 53.3 55.9 61.6 68 72.2 81 87.7 94 94.3 98.3 99.1 100.9 102.4 104 101.7 102.2 104 106.3 102 106.2 116.6 117.5 118 119.2 121.1 122 121.8 121.2 121.7 115 116 115.7 114 117.9 114.5 112.7 111.1 110.5 109.6 97.8 110.4 113.4 116.1 121.7 134.7 128.2 124.4 125.2 130.2 132 131.7 131.4 127.9 121.7 121.4 117.9 111.4 122.8 140.2 154.5 158.1 162.1 165.5 168.1 171.4 178.6 193 199.8 198.5 192.9 201.9 204.2 204 202.9 187.8 185.1 188 188.2 176.1 163.2 146.8 127.8 121.4 113.3 109 102 98.9 100.5 102 102.5 97 89.1 79.4 72.3 64.7 60.1 53.5 45.5 42.4 43.2 41.1 43.8 44.9 46.4 40.8 44 52.5 63.1 75 80.8 91.2 92.4 96.3 93.6 95.5 100 101.4 104.4 110 113.4 114.5 116.2 118 123.8 131.5 136.4 140.4 145.7 151.3 156.5 161.3 166.8 170.4 171.8 175 178.9 183.3 188.5 192.6 196 199.2 203.9 207.9 210.3 213.6 216.7 221.2 226.7 235.2 243.6 250 250.1 252.5 252.1 254.6 252.7
10.5 10.3 9.6 11.9 15.8 24.7 18.4 19.4 28.2 31.6 31.1 37 40.3 45.6 55.4 52 64.4 69.7 63.9 66.5 69.3 69.4 65.9 58.6 50.1 50 37.2 38.4 38.1 39.6 41.1 51.7 53.1 57.4 56.7 58.4 56.2 54 53.3 62.4 57.1 57.5 56.2 57.7 59.3 70.5 69.7 71.6 79.6 83.1 92 95.6 98.5 99.9 100.8 102.8 104.2 105.2 104.7 106.7 108.6 109.7 113.5 118.9 129.1 131.9 135 135.4 134.7 133.6 130.2 128.3 128.3 123 122.6 123.7 122.7 124 126.6 123.5 121.6 119.4 118.7 117.5 111.3 114.4 119.4 124.5 131.1 133.9 137.7 135.7 136.2 140 145.4 147.8 139.1 133.7 129.9 126.4 120.8 120.5 135.4 153.4 158.5 162.1 166.1 169.2 174.7 184.3 195.5 201.8 210.6 204.2 199.7 206 209.1 207.9 194.5 191.3 194.7 190.6 177 164.8 155.2 132.3 123 114 102.1 98.6 97.3 98.5 100.6 98.3 93.1 84.3 76.9 69.7 61.1 55.5 53 50.3 49.5 51.1 45.7 51 48 49 46.5 45 49.1 56.1 69.9 78.3 86.5 94.2 101.8 101.8 102.4 106 107.3 112.8 113.1 115 116.3 118 124.6 131.9 137.6 139.3 141.5 145.7 151.8 157.8 162.4 167.6 173.5 175.6 178.4 181.3 186.5 191.2 195.7 200 204.4 210.5 213.9 217.6 219.2 219.4 221.2 227.2 240.2 247.4 255.8 260.3 261.9 260.2 258.9 260.2
9.2 9.5 9.8 14.9 14.8 17.6 19.9 21.6 25.6 28.7 37 38.4 45.1 61.6 68.8 60.4 65.4 74.8 80.2 80.8 75.3 77.9 71.8 71.4 68.2 71.9 53.7 42.7 47.6 43.7 49.3 51.3 60.8 66 67.9 72.1 72.4 70.6 68.2 73.6 75.9 72.2 73.2 72.1 73.5 78.2 79.8 78.9 85.9 91.1 94.4 98.2 101.8 103.8 105 107 106.4 107.5 108.5 108.6 113.3 116.5 120.2 124.5 132.3 152.2 151.5 151.2 151.5 151.4 150.4 142.2 141.3 136 139.2 136.7 133.3 131.8 132.8 133 132.1 135.8 129.8 123.9 120.8 113 125.4 131.7 132.4 139.9 146.9 146.9 144.4 145 152.9 153.1 152 154.1 147.1 140.3 129.8 121.8 132.7 148.3 158.5 162.3 166.1 177 191.3 197.5 201.1 207.7 217.1 214.7 210.9 208 218.1 209.8 201.4 191.5 193.3 192.4 175.4 164.2 157.6 137.3 123.9 112.3 101.1 95.5 95 96.2 96.2 96.1 84.7 76.9 67.4 65 62.6 60.2 58.2 57 57.4 55 54.2 57.3 53.7 55.3 52.9 44.8 47.1 56.1 61.4 75.3 86.6 102.3 108.3 111.1 111.5 111 112.1 114.6 117.9 116.1 121.7 125.8 135.5 137.4 140.2 142.8 144.9 148 152.5 156.8 160.5 166.1 172.7 176.4 182.1 185.1 190.5 193.2 197.7 203.2 208.3 215.8 222.2 224.8 225 226.5 234.8 240.4 242.9 256.2 262.9 268.6 270.2 265.1 265.6 266
13.6 15.9 25.1 25.1 21.9 25 24.9 24.4 26.1 32.1 38.7 40.1 49.3 67.1 67 68.2 77.9 86.1 90.5 92.2 89.6 89.5 88.5 84.8 77.1 76.6 70.5 53.1 50.8 55.5 51.4 57.5 66 70.8 72.6 75.3 78.8 76.9 76.1 77.4 78 77.7 76.7 81.7 86.2 81.5 89.5 93.4 92.9 94.7 99.7 101.8 103.7 107.6 113.7 114.7 114.7 113.3 111.1 113.9 116.1 122.2 123 134.6 154.4 160.6 162.9 163.8 162.7 159.2 159.8 156.2 155.9 150.9 152.2 148.2 146 143 142.6 141.1 139.8 144.7 144.3 140.5 134.2 129.6 121 143.9 144.7 146.9 149.3 153.3 151.6 154.8 155.8 157 158 161.5 161.1 148.5 145.5 131.2 130.8 144.9 158 162.7 173.1 187.2 196.6 206.6 211.8 211.5 224.5 226.2 220.1 218.2 209.3 207.8 201.2 190.8 190.5 187.9 174.1 162.2 155.7 140.3 124.9 111.6 100.7 96.2 95.6 94.1 89.5 84.1 76.6 73.2 73.4 72.3 69.8 67.9 65.8 61.6 59.3 59.2 60 59.4 60.5 57.5 59.1 52.7 46.9 55.8 61.7 68.9 81.9 95.3 108.8 112.8 113.6 111.2 112.3 116.9 121.2 121.7 128.2 133 135.5 139 141.6 144.6 146.7 150.6 155.3 159.4 161.6 168.1 175.2 178.9 184.3 190.8 195.3 197.7 200.8 205.7 211.5 217.4 227.1 230.8 231.2 234.7 245.6 253.5 256.6 262.1 268.4 273.3 275.2 275.8 275.8 273.9
19.7 25.6 30.9 31.3 30.6 33.1 33.9 32 34 32.9 36.1 42 54.9 66.2 67.1 72.6 87.1 95.3 103.1 103.8 102.5 100.3 96.9 99.5 91.1 82.5 79.6 68.5 58 65.8 64 66.2 68.4 74.6 80.8 82.8 84.6 86.9 83.6 88.7 88.7 88.3 91.2 90.2 93.5 94.6 91.5 107.9 106.4 107 108.9 112.8 114.9 125.1 131.6 133.1 133 130.9 130.4 130.4 138.3 148.6 150.3 154.3 162.6 171.3 174.4 174.8 175.1 173 171.6 170.2 161 159.9 158.9 158.6 162.2 156.1 157.7 157.2 151.8 150.9 156.3 155.4 150.3 144.8 146.8 144.5 150.7 152.1 152.6 153.2 155.3 157.4 159.2 162.9 165 164.1 163.3 156.7 151.7 145.4 136.5 141.3 154.4 163.5 171.6 190.6 202.6 205.4 214.1 216.6 218.2 221.8 222.6 224.3 213 203.9 199.6 188.9 186.8 183.4 173.2 161.2 151.1 139.5 125.3 113.2 102.3 96.9 94.5 94.5 88.5 83.1 80 78.5 79.8 80.9 75.9 73.5 70.6 66.9 62.4 61.5 61.7 60.2 65.3 64.3 62.3 58 50.9 57.8 61.3 66 75.6 87.3 98 113.3 114.3 114.5 116.2 117.3 119.7 122.6 128.2 137.9 139.5 141.5 142.4 144.7 148 151.5 156.8 161.6 164 169.4 176.1 180.4 186.6 195.7 201.1 203.9 204.7 208.6 212.5 218 226 234.4 237.6 244.1 250.6 256.8 261.2 262.8 268.7 275.1 276.5 279.1 282 279.7
28.9 27.2 30.3 31.9 32.5 34 35.2 35.2 35.5 35.3 38.3 45.9 60 64.7 66.3 76.8 90.4 101.7 116.3 121.3 118.4 110.1 107.5 105.6 103.1 95.7 91.1 85.1 73.8 70.9 76.4 73.4 76.4 81.5 85.2 85.4 86.5 85.4 88.5 90.7 90.1 91 91.7 93.4 95.1 100.2 111.4 112.6 128.4 138 140 141.8 144.5 141.9 146 149.6 156.3 152 148.5 148.5 152.4 158 159 166.2 168.9 174.5 176.4 177.3 176.1 175.7 178 177.9 179.6 167.6 172.8 175.6 175.1 168.4 166.3 164.4 164.3 165.1 163.7 174 174 171 170 160.2 150.4 164.5 163 159.6 159.8 162 164.4 168.2 171.1 171.4 168.5 167.4 163.4 154.5 144.3 143.5 156.9 164 168.6 180.6 199.6 209.1 211.9 215.1 217.1 220.5 222.7 224.6 223.6 206.5 198.8 191.4 184.6 182.5 170.8 161 147.4 134.7 124.1 114.6 106.7 98.7 94.7 91.2 89.4 91 87.4 86.8 85.5 86.1 86.6 82.8 77.9 70.7 67.4 65.5 63 64 67.6 69.9 65.4 63.9 49.9 55.4 62.1 66.7 71.7 78.2 92.1 102.6 110.9 113.1 115.9 125.7 128.9 130.2 128.9 134 138.8 141.1 143.2 146.7 148.7 153.7 159 163.8 166.8 171 176.2 182.9 190.4 198.1 206.7 208.8 208.2 208.8 213.3 219.7 226.7 234.2 240.3 249.3 255.7 258.4 261 265.5 270.1 273 275.3 278.6 286 286.6
27.4 29.4 29.4 30.2 31.9 33.7 36.5 39.6 44.8 47.3 47.2 49.2 58 63.7 64.8 75.6 89.4 101.8 121.9 132.1 127 123.4 122.8 119.5 113 105.9 95.8 93.7 86.7 73.8 84.6 84.5 83.4 85.1 87 91 92.8 93.5 94.1 98.4 99 101.4 103 103.1 104.1 112.2 114.7 118.3 140.4 150.7 154.9 162.8 162.4 163.3 168.6 166 165.6 167.2 161.6 158.2 159.7 164.8 169.5 176.5 173.8 175.2 177.9 180 178.1 187.7 187.1 181.4 178.3 175.9 184.7 184.8 182.4 180.9 182.4 187.1 181.5 178 178 173.7 182 174.4 173.1 172.8 171 157.4 174 174.1 168.7 167.9 176.6 181.7 189.2 189.6 178.1 172.1 168.9 164.2 157.4 148.5 153.2 163.8 170.3 176.4 191.1 200.7 211.4 214.4 216.4 218.8 222.2 224.4 220.3 206.6 202.2 191.2 180.4 176.4 166.6 159.9 148.4 132.6 123.8 115.2 110 99.3 94.7 92.2 90 92.5 90.6 92.8 94.2 88.3 88.8 90.1 83.4 74.7 69.5 69 64.1 65.5 67.8 66.3 63.2 59.5 51.4 57.6 63.5 67.4 73 77.1 83.3 98.5 104.8 111.1 123.3 127.2 132.9 132.7 130.5 131.1 132.8 134.8 144.3 150.7 151.2 153.8 159.4 164.7 169.4 173.6 179.5 185.1 193.1 200.4 207.7 209 208.7 210.4 214.8 220.4 227.8 231.9 237.5 247.4 255.4 256 259.4 266.2 271.2 273 274.7 277.8 282.5 289.5
26.4 29.1 29.6 30.2 31.4 36.4 41.1 47.1 48.6 48.3 49.3 54.5 63.6 64.1 66.2 78.6 87.5 98.2 112.4 123.7 126.5 128.9 130.1 127.9 127.5 121.8 110.1 106 97.6 91.8 89.3 94.8 93.3 93.9 97.1 103.6 109.6 108.2 110 109.5 116.1 114.2 115.5 116.1 117.3 120.6 130.6 134 140.4 156.3 165.9 169.8 171.8 173.1 176.4 177.5 177 177 177.9 170.4 171.7 172.2 180 180.7 177.8 178 181.5 190.3 188.6 195 193.5 186.6 179.3 179.8 183.3 186.4 188.9 190.9 191.9 193.6 194.2 190.2 192.8 181.3 182.1 183.3 191.2 181.7 177.1 174.9 171.3 173.6 175.8 180.4 183.9 193.3 204.7 206.7 191.6 179.5 173.1 170.1 165.9 158.5 157.5 166.7 173.5 191.7 196.5 204.6 210.9 213.8 216.6 218.3 221.7 222.9 214.7 206 199.6 189.1 176.5 169.4 163.7 154.9 145 130 121.8 114.3 109.2 100.3 96.2 92.6 92.1 93.5 93.1 95.3 97.4 91.4 89.3 89.4 83 79.7 73.1 71.7 71.7 69.8 68.3 69.6 66.4 62.2 55.3 53.4 59.3 66.2 75.2 78.6 82.1 92 102.4 112.6 123.6 128 132.8 134.8 134.9 131.9 133 137.9 142 150 151.9 152.7 157.6 164.4 170.5 175.4 180.7 186.6 195 202.4 206.4 207.5 209.6 212.2 214.2 218.6 225.2 231.2 237.6 241.3 249.6 254.5 257.6 261.4 265.5 271.1 274.1 277.5 282.5 289.2
23.3 27.5 28.3 29.3 31.5 39 44.8 47.1 48.7 51.5 51.9 57.6 63.4 70.3 75.6 80.2 88.1 96.7 111.7 126.5 131.6 133.5 140.7 142.8 144.2 133.7 125.6 113 106.7 100.8 90.7 105.8 105.8 107.9 110.6 118.8 127.9 134.4 134.1 128.8 131.2 133.1 137 139.5 138.3 139.3 141.8 147.5 145.3 158.3 169.2 174.1 176.4 178.1 179.3 185.2 191.6 192.1 189.3 187.7 183.9 189.8 190.8 194.2 195.4 193.4 184.6 192.5 198.5 205.7 208 196.6 187.1 184.7 184.8 187.7 196.4 208.2 217.7 215.2 202.1 194.1 195.2 192 184.8 189.3 192.6 192.9 183.6 179.8 181 181.5 179.8 190.7 202.8 203.6 204.7 207.7 202 190.2 180.5 177.4 174.7 166.8 160.8 167.6 176.3 192.7 197.9 204 211 213.8 216.5 218.2 220.6 216.1 210.5 205.6 195.6 187.5 175.9 165.4 159 153.1 142.6 128.1 121.1 112.4 107.4 103 99 94.1 92.8 94.5 97.2 96.6 94.5 90.9 88.4 87.1 83.8 83.4 78 77.4 73.2 73.2 72.7 72.4 68.3 64.9 61.6 56.8 58.7 65.7 70.8 77.8 82.2 86.7 100.1 113 127.5 128.2 131.6 135.4 137.1 135.9 135.7 136.7 139.4 143.7 154.7 153.9 155.9 162.7 169.4 174.9 179.6 186.3 194.3 200.8 200.9 205.2 210.3 213.7 214.3 216.9 222 227.7 232.6 235.9 241.7 250.5 253.5 258.3 262 267.5 273.8 276.9 280.7 287.4
19 25.2 27.9 28.6 31.3 38.9 45.9 48.7 51.6 56.1 57.3 58 62.8 71.7 81.3 84.3 91.4 98.8 111.8 127.9 138 142.1 144.6 148.9 152.8 153.1 149.4 132.1 120.7 113.1 104.3 107.4 114.7 117.2 134.9 141.2 144 148.3 148.4 141 143.1 148.5 152.8 154.7 157.9 159.4 156.9 157.9 158 159.6 172.6 179.8 185.2 191.3 186.4 185.9 204.5 208.5 206.8 206.2 193.2 203.6 203.6 209.5 212.4 211.8 199.2 196.7 212.8 211.1 210.9 206.4 196.2 188.3 190.8 188.7 194.8 207 216.9 226.7 223.8 205.3 198.2 197.5 191.1 199.1 200.9 202.4 191.7 185.8 184.4 185 187.2 188.6 202.6 204.1 204.5 203.9 204.1 191.7 187.9 181 178.7 172.5 167 167.9 175 187.9 203.6 206.7 211.7 214.7 217.8 216.5 213.7 211.1 208.1 203.8 193.3 183.8 170.5 162.4 157.4 146.3 139.7 126.5 118 110.4 107.2 104.5 95.4 97.1 95.7 96.6 100.6 100.2 95.6 93.7 92.4 89.5 88.2 86.3 82.7 82.4 80 79.1 81.4 77.4 73.9 72.5 70 62.6 56.3 64.4 70.3 76.8 83.9 87.2 94.4 108.7 113.8 120.1 123.5 129.6 136.1 137.1 138.1 138.2 140.5 143.7 151.5 154.8 157.1 163.5 167 172.5 180 187.9 194.3 195.3 198.2 204.2 208 210.2 215.1 215.9 218.7 223.6 231.4 232.9 236.4 245.5 254.9 258 261.3 265.7 270.6 277.5 279.7 283.5
20.2 24.7 26.6 28.7 31.1 40.1 44.4 49.5 56.3 61.4 62.2 58.9 63.2 67.4 78 86.3 93 100.1 108.7 122.3 139.7 149.5 154.7 160.4 164 168.6 167.4 156.4 135.5 127.3 120.9 108.7 120.3 138.2 154.4 158.6 158.4 160.6 163 160.2 152 159.6 161.6 164.1 166 167.6 167.6 169 172.7 165.5 173.5 193.9 191.8 192.8 194.3 194.1 208.9 211 210.7 211.1 209.1 210.8 213.2 214.2 216.3 216.5 215.3 209.3 214.3 216.2 213.4 216 213.6 198.1 199 202.2 203.1 208.2 215 223.8 226.7 215.9 216.9 205 197.2 210.2 215.2 211.5 210.2 201 197.9 193.8 193.9 199.7 191.5 209.9 206.1 205.5 204.3 197.9 196.4 191.9 184.4 178.9 175 172.2 175 180.7 190.3 202.2 211.2 215.2 218.1 218.4 212 208.1 203.4 198.1 191.3 179.5 170.1 162.1 153.2 143.8 134.1 125.4 117.3 110 103.4 104 101.5 102.6 100.8 100.3 102.4 101.3 100 97.6 96.2 94.7 91.8 88.6 86.6 86.9 89.4 87 88 87.7 85.9 76.9 72.6 68.6 63.2 66.9 68.8 75.6 83.7 88.4 91.5 101.8 111.4 115.1 121 125.8 131.4 136.4 138.9 140.1 142 145.6 147.1 156.3 160.3 163.7 165.5 171 179.6 184.4 190.2 189.3 191.5 199.1 204.4 207.1 216.8 217.2 220.7 222.9 224.6 232.2 235 241.1 247.3 254.9 261.1 265.4 267.3 276.5 277.8 279.2
24.1 26 26.3 28.6 33.6 41 47 51.8 55.4 61.4 63.6 63.2 63.3 66.4 74.3 82.4 88.2 97.2 106.3 116.6 134.6 149.7 161.8 169 171.1 170.2 171.8 172.3 160.5 141.3 138 121 141.6 151.5 159.6 160.5 161.6 162.6 165.6 166.1 167.3 166.4 168.9 170.9 175.7 183.2 188.8 188 184.9 181.9 171.9 194.1 200.3 201.6 200 197.5 205.8 213.3 214 215.3 215.3 215.8 217.1 216.4 220 217.8 215.2 221.1 217.7 217.1 218.8 216.7 211.7 212.3 207.7 217.3 219.5 218 216.4 216.8 231.2 232.3 234.2 232.7 214.4 214.2 221.5 232.1 224.9 214.3 212.1 213.7 212.5 203.9 204.8 201.6 211.4 211.5 213.7 215 217.7 202.6 193.5 186 187.9 177 180.5 182.5 183.6 189.1 201.1 207.6 210.7 209.5 206.4 200.2 193.4 188.5 184.5 174.6 167.6 156.9 151.2 142.3 132.9 125.1 116.2 110.8 103.5 105.2 106 106.3 106.2 105.2 106 110.4 108.4 105.4 102 99.7 96.2 94.1 90.3 90.5 91.6 96.1 99.6 93.5 89.9 84.4 76.9 71.8 67.8 74.2 70.4 74.8 83.1 87.8 91.1 93 102.5 111.3 118 124.1 130.3 131.8 136.9 142.4 143.9 147.1 147.6 154 163.5 166 170.4 173.1 175.9 178.7 183.4 189.1 189.6 197 200.1 204.8 206.8 214.2 221 226.6 230.2 233.5 238 241.7 245.3 252.7 259.4 263.7 265.9 271.2 274.8 274.6
26.8 26.1 26.9 29.5 34.2 40.2 47.4 56.5 55.6 62.4 67.9 74.2 68.6 68.8 72.7 79.3 85.5 92.4 103.5 116.1 128.3 140.6 157.1 165.7 170.2 170.1 172.5 174.1 172.7 159.7 149.1 137.2 137.4 158.2 160.7 162.4 163.1 164.8 170.2 169.7 168.6 170.1 176.5 177.6 181.8 197.1 198.5 200.1 197.6 201 192.7 188.3 202 205.7 203 201.3 203.9 212.3 219.6 221.3 219.8 222.8 221.5 222.8 222.6 220.4 225.1 227.5 225.6 223.3 222.7 222.2 215.3 212.7 214.2 225.9 226 229.2 232.5 227.6 232.7 235.3 235.8 236.6 232.3 223.5 223.9 234.6 234.5 234.2 227.8 223.6 223.9 222.5 213.2 206.4 203.8 212.8 214.5 215.6 217.7 219.2 207.1 196.3 191.5 188.2 179.2 181.7 183.1 184 190 197 200.5 200.3 197.6 193.8 187.4 180.5 176.2 171.3 163.1 153.6 146.5 141.6 132.5 126.9 116.7 111.4 109.4 108 109.4 109.3 109.6 110.7 112 113.5 113.9 111 105.6 102.3 99.5 99.3 93.9 93.7 94.8 97.4 99.9 96.8 92.5 89.9 84.1 81.2 76 75.4 83.5 75 80.5 86.2 90.3 93.3 97.1 105.9 118.7 122.6 125.9 132.2 136.8 142.9 144.1 147.5 150 152.6 166 169.7 171 172.2 174.2 180.1 184.2 186.6 189.1 197.1 200.7 202.5 209.7 217.7 224.2 229.1 234.4 237.9 239.8 241.8 243.8 250 257.5 260.7 261.7 264.8 269.2 271.6
29.9 28.3 29.1 31.5 36 40.9 45 52.7 54.2 58.6 64.1 73 73.1 71.8 75.3 81.2 89 93.8 104.7 113.7 124.6 137.7 147.4 163.3 167.4 168.8 170.7 173 174.6 174.4 155.2 152.1 143.9 160.5 162.5 164.7 163.7 168.3 180.6 188.4 181.4 183.7 185 185.2 188.4 198.8 200.3 201.9 201.6 204.3 207.6 191.6 201.4 207 208.3 210.5 211.4 215.4 220.2 223.2 224.1 225 229.5 233.5 235.8 232.5 234.8 237.2 236.4 236.8 231.7 225.4 219.3 215.1 214.9 223.3 228.5 232.7 234.3 233.2 234 235.7 236.8 237.6 241.7 244.9 240.9 234 236.4 236.3 237 238.3 237.7 230.3 224 212.7 207 209.5 214.6 215.5 217.3 218.6 218.9 219.3 199.1 192 187.9 181.8 182.6 183.3 184.6 193.3 195.1 193.3 192.1 186.6 184.5 176.2 172.4 168.8 160.8 149.5 145.4 141.5 131.7 128.1 122.1 118.5 117.7 113.6 113.5 113.4 114.8 115.5 115.6 115.2 114.7 114.2 111.2 104.2 102.3 103.2 97.7 94.8 96.4 98.7 104 101.5 98.9 95.8 88.6 84.7 76.3 78.1 82.1 80.4 80 85.5 91.1 93.1 95 101.5 115.1 122 128.3 133 137.3 142.3 143.7 147.3 150.9 154.2 162.8 169.7 172.2 172.3 174 178.9 186.8 191.6 189.9 197.7 201.1 205.5 213.9 218.3 222.6 228.6 233.8 237.8 240 241.2 242.5 247.4 252.2 254 253.9 258.5 265.5 268.7
33.2 35.6 30 34 36.4 38.6 43.8 51.1 53.7 55 59.2 65 71 73.1 78.4 85 92 94.8 101.5 110.1 121.5 135.7 139 152.9 162 168.4 170.3 173.5 175.5 175.7 170.7 157.5 149.9 160.7 180.4 181.9 173.9 178.7 181.2 191.3 193 194.4 190.9 191.4 193.9 197.3 200.8 205.5 210.8 207.2 208.9 208.1 202.3 208.3 214.8 220.5 217 218.8 224.3 231.3 233.4 230.7 233.2 240.5 239.7 240 240.7 247.5 249.4 250.3 244.2 238.6 229.6 221.4 221.6 226.6 230.2 232 235.9 235.8 235.9 236.8 244 246.2 251.8 250.1 246.4 243.1 244.3 247 249.2 248.6 249.6 236.4 225.2 214.4 209.1 208.6 210.4 214.6 216.6 218 219.8 223.2 213.8 195.7 192.5 186.4 183.7 183.3 183.9 184.6 186.5 184.1 183.4 182 175.9 170.9 167 162.4 155.1 149.8 145 142.3 133.6 128.9 120.8 122.7 122.6 118.7 119.8 118.2 117.6 117.9 117.9 117.4 116.8 116 113.2 107.2 106.9 107.3 101.1 98 98.5 102.5 105.3 108.6 112.5 106.1 95.4 87.4 84.5 79 79.4 79.1 78.9 84.4 90.8 91.1 94.1 97.4 113.6 124.6 130.3 133.3 137.3 142 143.8 145.9 149.4 153.5 159 163 162.8 163.4 169.1 180.1 183.5 184.7 187.4 200.2 202.1 207.5 212.8 218.3 221.1 226.3 231.9 236.6 239.7 241.1 241.4 242.2 243.9 245.8 251.9 256.1 263.2 267.4
35.6 36.5 34.4 34.1 35.9 38.8 41.5 45.9 52.7 55.7 59.2 67.2 72.3 76.4 81.8 87.1 92.3 95.6 100.7 108.7 114.4 127.7 136.9 150.5 161.1 168.2 171.2 175.7 183.7 183.2 174.6 167.3 160.9 161.5 184.5 189.1 180.3 186.9 188.4 183.8 185.9 188.1 193.1 196.2 195.2 201.7 210.5 213.7 219.2 224.9 219.1 212.6 206.8 211.2 220.2 225.2 227.9 229.7 230.6 235.1 238.9 237.3 237.4 240.2 242.7 245.1 246.7 250.4 253.7 256.3 255.2 247.5 244.4 229 227.3 230 231.6 232.6 241.6 243.9 241.5 238.1 241.5 248.1 253.8 253.7 254.8 253 246.7 251.7 251 249.5 249.7 245.6 228.5 222 217.1 210.3 209.8 212.1 215.6 216.7 218.5 221.5 222.9 203.9 197.3 194.5 187.6 183.9 182.5 181.1 181.2 181.5 179.1 179.5 173.8 168.2 163.1 159.8 154.6 149.8 143.7 139.8 133.4 123.7 126.9 126.5 127 130.3 132.4 132.9 125.3 121.5 121 121.2 120.4 118.4 112.8 109.9 108.9 108.8 102.6 99.9 100.6 103.3 106.5 110.1 115.2 110.9 98.4 93.9 83.1 80.1 78.2 79.1 78.9 83.2 85.5 89.5 93.9 97.2 102.6 116.6 129.6 134.2 141.1 144.5 145 146.5 148.9 153.4 156.1 157.4 157.7 158.6 161.2 164.1 172.5 177.3 187 194.3 199.7 205.8 211.2 217.7 220.4 225 230.2 235.1 237.6 240.3 240.4 240.2 241.9 246.7 251.1 256.5 262.7 266.3
38.7 36.6 35.3 34 36.1 37.4 39.7 43.6 50.4 56.9 61.3 65.9 73 79.9 84.9 88.7 90.1 92.3 95.7 105.6 112.3 130.4 143.8 149 158.7 168.7 173 181.4 187.1 195.3 179.6 169.9 170.6 164.9 177.1 190.9 184.9 187.5 189.2 189 190.9 193.4 194.7 200.2 199.1 202.1 215.4 219.3 227.1 233.4 232.8 227.5 218.4 212.2 223.3 235.8 237.1 239.9 240.6 236.7 240.2 248.2 242.7 243 245 245.5 247 249.8 257.6 261.9 256.6 252.2 248.2 236 239.6 241.6 240.6 240.1 248.3 251.7 249.6 246 247.6 251.3 254.2 258.9 257.8 258.9 257.1 257.5 257.8 256.1 254.2 251.7 246.5 227.9 223.6 216.8 214 212.5 213.5 218.4 218.9 221.4 224.6 212 198.1 197.5 192.5 186.6 183.6 181 180.7 179.8 177.7 174.3 172.3 167.2 163.9 159.6 155.7 152.9 147.7 144.1 133.8 132.9 132.3 132.2 133.2 137.2 140.9 144.9 140 131 127.5 125.6 124.6 121.2 116.1 112.9 111.6 110.8 104.3 107.1 103.5 105.1 110.4 110 113.6 105.4 97.7 92.7 86.3 83.1 81.3 80.4 80.3 82 86.4 89.2 93.7 97.2 101.9 110.2 121.8 133.6 143.3 146.1 148.4 150.2 151.5 152.1 154.2 156 158.8 162 162.7 166.2 167.8 172.6 185.7 192.1 198.1 202.6 208.5 216.9 220.5 222.3 225.4 230.6 236 237.4 239.5 240.3 241.9 243.7 247.7 252.7 258.2 265.8
39.2 37.1 36.7 34.7 35.2 36.6 38.4 41 47 54.4 60.6 65.4 73.3 79 82.9 86.7 87.8 88.8 91.2 98.9 108 128.8 140.4 149.9 160.8 168 171.6 185.8 190.2 193.8 196 173.4 170.9 165.6 172.7 186.3 188.6 190.3 191.1 190.3 191.8 194.4 197.4 201.1 203.4 206.8 213.4 225.1 229.9 234.4 232.9 230.9 222.2 217.2 222 241.4 248 250.2 246.8 237.5 238.8 245.2 246.2 245.9 249.9 255.8 248.3 257.9 260.9 262.3 256.2 253.2 251.5 245.5 246.6 247.7 245.4 249.3 251.9 253.7 256.8 251.8 250.1 258.2 260.7 262.4 265.2 265.5 264.9 258.7 261 262.1 261.4 258.9 255.5 246.3 230.8 220.1 221.5 217.1 217.3 219.9 223.6 224.7 226.4 225.4 205.9 200 196.7 190.7 185.6 182 180.4 179 178.5 173.6 172.8 170.4 168.6 166.4 162.1 156 151.1 146.6 141.6 142.5 140.4 141.3 140.1 139 141.2 143.4 144.6 143.8 135.5 128.7 126.8 125 121.1 117.3 114.4 111.2 107.9 108.9 110.3 107.7 111.4 108.5 106.3 103.4 97.6 94.8 93.7 89.1 85.8 83.8 81.8 83.9 86.2 88.7 92.1 97.4 101.4 104.1 116.1 129.8 143.1 147.8 149.7 150.1 151.9 152.5 155.1 157.9 162.7 166.3 165.4 164.3 166.4 168.2 176.8 185.1 190.8 197.4 202.6 209.2 217 221.3 227.9 236.9 237.6 239.3 240.4 241 241.7 242.3 245.6 251.8 259.6 266.7
41.3 38.7 37.1 34.8 35.7 36.4 37.2 39 43.3 50.4 57.5 64.6 70.7 78.7 80.1 82.5 83.4 84.5 89.7 102.6 107.2 119.2 134.2 148.3 165.4 168.6 171.3 182.9 188.2 192.9 194.9 181.5 171.7 168 169.1 183.7 191.5 197 196.5 195.7 195.6 200.6 202.2 203.1 208.3 211.4 216.2 227.2 230.2 231.9 233.2 232 231 228.7 225.9 242.1 249.7 246.7 245.9 241.1 247.3 243.2 244 244.4 257.3 253.8 255.8 257.1 258.2 255.9 256.1 255.3 255.2 251.4 252.1 252.6 252.4 256.2 257.7 259.2 261.3 257.7 257.8 262.8 266.9 272.2 273.8 270.1 268.6 267.8 262.8 264.1 264.5 265.4 260.3 251.6 237.8 233.3 231.7 229.7 227.1 222.2 226.7 232.6 227.6 227 218 207.6 202.4 195.4 189.7 183.5 182.3 179.9 177.7 176.6 175.5 172 171.9 171.3 170.7 160.1 155.3 148.4 147.8 147.8 144.7 144.9 145.3 145.1 143.8 143.2 145.3 146.6 145.1 134.3 130.8 128.7 125.5 119.2 115.3 113 109.5 111 110.7 109.1 109.3 106.9 105.5 105.8 99.2 99.7 100.1 97.5 94.5 88.2 83 83.9 85.8 89.2 92.1 96.3 101 103.5 106.9 123.9 137.3 144.9 146.4 147.9 151.7 153.2 155.1 156.3 163.7 166.5 166.8 167.5 166.6 169.6 182 180.5 180.7 183.1 198.7 203.9 214.7 220.5 225.6 234.1 235.6 241.5 242.3 241.3 242 244.3 246 247.9 254.3 263.4
43.4 39.9 39.7 37.4 36.5 35.8 36.8 38 42 46.6 53.8 59.3 66.7 76.3 76.3 78.3 79.4 80.5 85.4 99 105.4 119.1 129.6 144.1 164.1 168.2 172.1 187.9 188.4 191.8 195.5 195.6 173 168.2 170.7 185.3 191.7 195.9 199.8 200.3 199.6 201.4 206.3 211.3 216.7 215 220.7 221.1 222.8 231.9 233.1 233.1 232.5 233.3 232.1 230.3 239.6 243.3 245.9 244.9 253.4 254.9 248.8 248.4 260.1 259.1 260 262.1 259.1 257.5 257.7 260.5 261.6 254.9 260 256.7 255.7 261.1 268.6 271 265.1 265.5 267.7 269.5 275.7 280.3 286.7 288.8 285 277.3 270.4 267.7 266.2 266.2 263.1 253.1 241.5 248.6 251.1 244.6 240.4 231.6 230.7 233.4 233.3 233.2 229.7 214.6 208.3 203.8 195.1 187.7 184.3 180.9 179.1 177 175.5 173.2 173 173.7 171.2 165.7 157.2 153.2 154.2 155.2 152.6 156.6 156.8 158 157.5 150.2 153.1 154.4 156.5 151.4 137 133.6 130.4 124.8 117.2 115 112.9 113.2 112.9 111.3 111.6 110.1 108.4 107.7 104.5 105.7 105.1 104.9 100.5 97.9 88.5 83.8 87.7 89.5 92 96.1 100.8 103.6 106.9 116 128.8 134.9 140.7 147.4 152.1 153.3 154.5 155.6 161.8 166 167.6 167.4 168.2 171.1 176 179.1 181.6 188 201.5 204.2 215.2 216.9 221.6 226.8 230.8 235.3 238.5 241.5 243.7 244.3 245.7 247.6 249.2 255.7
42.5 41.5 40.4 41.2 40 38.2 37.8 38.4 40.4 44.2 47.6 51.9 60.1 73.1 75.4 75.3 76.3 78.2 81.7 92.4 102.8 123.3 134.4 144 155.9 167.9 170 180.9 189.4 192 194.2 195.4 179.5 171.1 172 182.4 192.1 196.7 204.3 203.1 201.7 206.3 210.7 215.6 219.8 218.2 220.3 223 224.8 227.6 235.1 241 235.8 239.8 244.4 234.8 239.8 243.1 245.2 250.3 253.2 253.4 251.9 253.9 256.6 263.4 264.1 265.8 266.9 267.4 261.8 264.9 265 259.3 260.8 266.2 268.7 269.1 272.5 274.9 272.9 274.7 280.3 284.1 284.2 289.1 293.8 295.7 295 291.6 286.4 276.5 272.5 266.7 261.5 256.2 252 260.7 262.8 260.1 251.1 248.5 243.4 238.9 240.1 235.7 231.3 226.2 216 210.6 205.3 195.6 187.4 186.1 181.8 179.3 176.8 175.2 174.3 175.3 171.4 164.7 159.5 155.3 156.3 157.6 155.3 160 162.9 166 162.6 158.8 156.6 158.7 160.3 160.6 151.5 139.3 137.2 132.3 125.9 122.2 118.9 115.9 114.7 114.4 114.9 113.6 111.9 110.4 110.7 112.3 107.5 107 102.2 100.9 99.7 90.1 89.4 91.3 94.6 98.5 101.4 103.4 106.2 110 117.3 130.7 142.2 152.2 155.4 155.4 154.8 155.7 158.8 162.6 164.9 166.8 168.6 172 172.4 177 185.1 191.2 195.6 200.3 205.9 212.1 215.4 218.4 223.7 228.7 237.4 237.4 239.3 240.2 240.5 244 247.4 248.7
42.4 41.9 41.7 41.8 41.5 40.7 39.6 37.5 38.8 41.4 44.2 46.5 52.1 63.7 73.8 73.5 74.4 77.5 80.9 88.4 102.3 114.2 130.1 139.2 148 167 168.1 176.1 190.4 191.6 193.3 194.4 193.9 176.8 171.2 181.8 189.3 194.6 200.5 201.5 198.5 205.9 215.6 220.1 222.3 222.1 223 224.4 226.1 227.6 235.1 240.2 236.3 238.3 244.2 247.4 240 246.4 246.5 252.4 255.2 256.1 259.9 260.8 259.4 266.4 269.7 274.5 272.8 265.8 264.6 268.2 266.9 262.2 262.1 269.5 276.1 275.1 277.7 283 281.6 282.6 286.8 287.7 290.6 299.2 298.9 300.3 302.4 297.3 289.7 286.2 281.3 282.5 275.4 262 266.7 269.5 269.5 273.6 268.3 266.5 268.1 256.8 247.1 241.5 237.5 236 230.4 217.9 213 204.8 196.2 190.5 188.6 182.5 178.3 176.6 174.2 172.3 170.1 166.3 162.3 159.2 158.2 158.7 158.1 162.2 165 166.7 164.2 162.8 160.2 159.8 162.3 164.7 159.7 149.7 141.5 136 129.1 123.4 121.9 119.5 117.8 118.2 115.9 115.9 115.2 113.3 114.1 111.6 107.5 104.6 102.3 102.8 101.3 92.5 86.5 90.6 93.6 97.5 103 106.5 106.5 109.6 114.7 125.4 137.1 151 156.6 155.8 155 154.4 156.1 159.4 164.2 165.5 168 171.4 172.3 176.4 184.6 187.5 191.2 193.3 196.2 205.2 207.8 209.6 215 221.4 226.5 231.2 234.6 232 231.9 236 237 242.8
42.6 42.4 42.7 41.8 41.2 41.2 39.9 38.7 39 40.8 43.4 45.4 48.2 54.2 62.3 69 70 73.3 77.5 85 97.2 105.3 116.2 132.7 143.1 160.2 165 173.5 189.4 189.3 188.3 192.7 195 184.2 173.1 176.5 186.1 190.5 193.7 194.1 196.6 206.3 214.5 218.9 220.9 222 222.7 224.5 225.7 227.1 230.7 231.7 232.7 233.3 239.7 248.4 252 250.4 253.7 255.5 257.1 257.9 260.2 264.2 266.3 270.2 278.4 283.7 277 268.8 266.7 268.5 271.2 266.6 264.5 269.4 276.3 276.2 276.6 279.5 285.2 285.8 291.5 293.5 293.9 296.1 309.7 308.2 299.1 297.7 296.3 294.2 289.7 286.3 282.1 275.4 273.9 276.3 277 276.8 279 280.1 277.4 279.1 274.4 258.9 250.3 246.3 236.7 228 219.1 214.7 206.5 197.8 196.3 189.7 184.5 181.1 179.7 175.7 173.1 165.4 165 165.6 164 161.4 161 163.2 164.6 166.3 164 162.8 161.4 161.9 164.7 166.7 167.6 161.5 152 143.2 135.3 127.1 127 122.5 120.2 118.2 117.3 118 117.9 116.8 114.9 112.7 108.5 107.7 105.6 103.5 100.6 98.8 91 88.3 95.6 98.9 102.8 104.9 108.2 108.7 114.3 119.7 130.1 140.3 146.6 150.5 153.7 152.1 152.4 160.9 163.9 165.6 168.7 171.4 174 177.5 184.9 187.7 189.8 190.2 194.6 196.9 200.6 203.7 215.3 217.3 219.4 223.5 226.2 227.1 227.4 229.2 232.2 237.2
42.8 42.4 42.3 41.9 41.3 41.3 40.6 39.5 40.5 41.7 43 43.9 46.7 50.2 53.4 58.9 66.1 70.1 75.1 82 90.4 97.2 106.4 120.5 139 147.7 164.4 171.6 185 185.3 189.7 193 192.1 182 179 173.9 184.6 187.7 188.8 190.3 193.5 198.1 205 216.5 218.8 219.9 221.9 224.1 224.6 226.7 228.7 231.3 233.1 237.9 241.2 246.2 252 254.2 258.8 263.3 262.6 262.4 263.6 267 269 271.8 281.3 282.5 280.9 273.8 268.8 269.3 270.4 265.8 265.8 265.8 276.2 283 282.5 287.4 295 294.6 294.3 295 297.6 305.4 321.7 321.5 309.7 301.4 304.3 305.6 296.1 296.7 291 287.6 291 294.9 299.8 298.7 288.7 289.2 290.2 288.9 288.8 282.7 264.7 255.8 246.8 236.7 230.5 220.7 214.1 206.9 204.3 196.9 190.8 186.4 183.2 180.2 174.2 169.2 168.8 169.5 170.7 165.2 163.7 164.4 166.6 167.5 167 163.1 164.2 164.6 165.9 166.5 166.3 163.8 159.2 152.8 137.3 132.2 130.9 126.8 121.3 119.7 119.4 119.2 119.7 119.5 116.5 114.9 112.3 114.8 115.4 113 106.4 102.1 95.7 88 96.1 99.8 102.7 105.3 110.3 109.6 111.9 119.6 125.9 133.8 139.2 143 144.8 146.6 151.7 160.9 169.1 172.4 172.8 173.3 174.5 180.8 189.2 186.6 187.7 188.9 192.5 195.7 199.2 202.2 209.3 211.2 210.4 217 222.6 224.6 222.9 224.2 228.1 234.7
43.6 42 41.6 41.2 41.9 41.8 41.4 41 41.4 42.7 43.3 44.5 46 49.6 50.8 55.1 61.7 67.1 72.9 79.2 86.6 92.1 102.5 115.4 133.9 144 156.2 180.1 185.7 189.1 193.3 194 183.1 186.9 192.1 173.7 180.9 185.3 185.2 187.7 191.8 195 205.7 215.1 218.3 214.4 220.9 224.8 224.5 227.6 228.1 231.3 234.1 241.9 244.1 246.3 252.6 256.8 259.3 265.8 268.5 271.2 270.5 269.4 267.6 268.2 280.6 279.3 274.7 271.8 270 269.1 268.3 265.8 265.8 265.8 271.5 284.7 293.4 297.7 298.2 297.6 300.6 309 311.1 307.2 319.4 325.5 323.8 314.1 315.7 313.4 312.8 307 303.2 307.3 305.7 310.3 315.8 317 312.1 301.2 297.5 296.2 291.7 291 285 267 259.2 244.1 236.7 229.2 221.9 214.3 207 202.1 196.5 189.7 186 181.2 177.1 173.8 172.8 173 175.3 171.1 167.4 165.9 166.4 168.8 168.1 164 165.7 166.1 167.4 168.3 167.6 164.2 162.2 157.3 149.5 139.7 134 127.6 122.8 121.8 121.4 120.2 119 117.8 117.3 118 117.4 118.1 117.3 114 110.5 108.4 99.2 93.3 91.6 100.3 103 107.8 111.2 110.8 112.6 117.8 122.3 127.6 133.6 138 141 146.4 151.9 159 163 170.3 175.4 175.8 175.9 176.9 182.6 182.4 186.4 188 190.4 193.4 197 199.6 201.3 205.5 205.1 208.1 216.7 220.8 219.2 219.9 226.3 227.1
43 42.9 41.1 40.5 41.9 42.2 41.7 40.9 41.4 43 43.7 44.9 46 48.5 51.2 54.4 57.2 64.2 70.1 75.6 80.2 87.5 97.7 110.3 123 136.7 147.4 175.1 185.6 188.3 189.1 181.2 181.2 191.8 193.1 180.1 172.6 182.1 181.5 183.9 188.9 193.9 198.8 217.4 218.1 214.4 218.9 221.8 223.7 225.6 223.3 227 237.9 243.9 245.5 250.3 255.4 257.3 258.6 262.5 269.3 275.1 276.3 272.3 266.9 266.5 269.8 266.7 260.7 260.2 264.9 268.7 270.2 266.2 265.8 265.8 276.4 285.7 297.1 301.9 301 309.1 312.2 315.4 316 314.5 316.8 326.5 326.9 332 330.3 328.2 322.8 318.5 312.5 314.6 318 315.6 317.5 318.8 320.2 314.5 307.5 301.7 299.4 293.2 290.9 280.8 265 250 240.6 235.6 226.4 223.3 216.6 206.3 201.1 195.7 187.6 183.8 178.6 177.7 176.5 177.3 176.5 176.7 173.3 171.1 168.9 169.7 169.7 167.3 166 167.1 168.7 169.1 167.8 166.1 166.9 163 157.5 148.5 137.1 131.4 125 122.4 121.1 119.9 118.9 118.6 118.8 121.9 120.9 120.5 119.9 114 112.8 108.9 105.4 99.2 92.1 98.4 103.8 107.3 111.3 111.3 112.5 116.4 123.9 128.8 132.6 137 140.1 147.1 151.1 156.8 159.1 164.1 172.9 177.1 176.6 176.7 177.1 176.5 178.4 184.4 190.8 191 193 195.2 197.4 200.9 202.3 203.6 207.4 210.9 212.4 214.6 221.5 222
43 41.7 40.9 40 41.2 41.9 42.5 41.6 41.5 42.1 44.1 45.1 46 47.1 50.8 54.1 57.5 61.6 67.7 72.5 76.5 80.5 92.9 104.2 114.5 124.9 140.1 159.6 185.7 189.6 182.6 177.9 183.1 188.7 195.3 188.4 172.6 176.6 180.8 184.1 189 192.3 196.8 211.7 211.6 214.5 219.7 221.8 222 223.1 218.5 228.2 237.3 243.8 245.9 251.5 255.9 256.8 258.2 258.2 266 272.3 274.9 270.2 264.4 261.1 259.2 257 256.4 256.6 264 269.4 267.5 267.3 273.5 277.6 280.4 283.4 292 303.2 311 311.2 313.1 317.7 320.8 320.5 321.3 329.5 335.1 337.4 339.4 340.2 339.1 330.7 325.9 318.4 319.9 322.4 326.5 328.6 327 325.9 323.6 316.7 315.7 301 293.7 287.3 274.3 258.4 247.1 242.2 233.2 228.1 220.7 216.7 203.2 198.5 194.6 186.6 182.4 182.7 181.5 180.1 179.9 179 178.7 174.8 172.5 171.8 171 169.9 169.1 168.8 169.9 170 169.4 174.2 176.3 168.3 162.3 155.6 150.2 133.5 128.1 123.8 121.4 120.3 119.4 119.5 120.6 124.6 121.8 121.2 119.4 116.8 113.6 112.3 109.3 107 100.1 94 101.3 108.8 111.7 113.8 111.9 116.5 126.6 134.1 134.6 135.5 138.3 144.1 149 152.8 156.3 159.7 163.2 165.1 168.5 170.2 172.3 174.2 175.1 178.4 180.2 184.1 188.4 191.8 191.8 194.6 197.7 198.8 199.6 201.3 201.1 202.7 211.1 217.8
39.9 39.6 39 38.7 39.9 40.6 42.3 42.5 41.8 42.1 43.1 44.6 45.4 45.9 47 53.4 58.6 61.8 65.3 68.7 72.6 76.9 85.8 95.1 105.6 116.1 132.3 148 175.8 186.4 174.2 181.2 186.9 188.9 192.5 185.2 174.1 172.6 181.5 185.9 188.1 191.1 194.8 204.4 209.4 215.6 218.1 220.1 217.5 214.4 224 230.2 234.8 240.1 242.4 244.2 249.3 254.7 257 257.2 259.1 267.5 269.3 267.1 268.6 253 251.3 252.7 246.7 255.1 262.4 264.1 262.6 269.4 270 273.4 278.6 281.4 290.3 303.1 306.7 312.7 315.7 318.7 319.9 322 323.3 332.5 336.8 342.4 344.4 344.7 341.6 338.7 333.4 329.9 328.1 326.2 330.6 342.6 345.1 344.9 343.6 333.8 327.4 319.9 305.1 295.2 284.3 271.2 257.5 247.1 239.3 230.7 225.9 219.9 207.9 202.6 198 190.6 187.6 188.4 185.6 185.5 184.4 183.3 182.1 178.8 175.7 175.9 177 175.3 172.3 170.9 170.2 170.2 171 171.6 171.3 169 164.5 159 153 142.6 131.3 126.5 122.1 120.7 120.1 120 121.7 122.8 121.3 122.5 120.7 119.5 116.3 116 112.6 110.5 106.6 97.4 97.5 105.6 110.1 115.4 113.5 115.5 123.6 128.7 132.5 135.8 138.2 142.2 146.9 149.7 153.4 156.3 158.9 160.9 162.8 162 169.4 172.1 173.9 175.7 177.3 177.9 179.6 181.7 186.8 188.4 192.1 193.1 194.1 195.2 195.1 197.3 205 213.7
37.4 38 37.2 37.2 38.7 40.2 40.6 41.6 41.8 41.8 42.5 43.2 44 44.2 45.6 51.5 59.9 65.9 67 68.1 69.4 74.6 80.5 89.3 98.3 109.5 124.7 137 162 168.6 171 186.7 190.3 191.3 191.6 186.4 180.9 172.6 172.9 184.9 187 189 193.2 202.3 211.8 216.4 208.1 207.4 209.1 216.3 223.4 230.8 232.3 236 237.1 237.9 240.8 246.4 252.5 255.9 255.8 258.5 258.9 256.8 254.2 251.9 250 244 241.1 249.1 258.1 257.5 256.1 266.5 269.3 272.1 273.3 280.1 286.8 302.1 310.4 315.5 317.7 318.8 319.2 321.5 329 336.8 345.1 350.5 354.8 354.8 351.2 348.2 343.4 342.9 344.7 341.6 340.7 342.6 347.6 349.6 348.8 346 342.3 332.3 315.2 296.7 292.5 284.1 265.4 253 245.6 234.9 229.7 224.6 214.9 205.1 201.9 194.5 192.7 192.6 192.4 190.3 190.9 189.1 189.4 187 182.2 180.1 179.7 179.4 176 176.5 173.2 172.1 172.2 172.2 171.5 170.2 166.3 159.8 153.8 145.2 134.4 130.5 124.4 122.5 121.7 121.5 122.7 123 123.2 123.6 122.2 121.3 119.5 116.8 114.6 114.4 108.9 102.9 100.6 96.1 107.1 111.9 112.1 112.2 120.5 126.7 131.5 136.4 141.5 144.4 141.2 144.4 151.2 154.4 156.2 158.4 159 158.6 160.7 166.2 170 171.3 174.9 175.5 175 179.5 184.7 184.4 185.8 187.1 188.7 190.5 189.9 192.6 197.1 205.3
34.5 36.3 34.8 34 35.9 38.7 39.6 39.7 40 40.6 41.4 43 43.5 43.8 44.9 48.5 55.2 64.9 71.4 67.5 68.9 72.9 77.7 86 93.2 101.8 115.6 128 141.1 161.1 171.6 186.3 188.6 186.9 190.1 188.2 182.5 172.6 172.6 180.6 185.8 188.4 192.9 195.5 200.7 202.2 200.7 205.6 216.7 212.1 212.9 223.9 232.2 233.4 235.1 235.8 237 241.7 249 252.6 252.4 250.6 252.6 253.4 248.8 251.1 248.1 238.4 236.1 245.6 250 250.7 249.4 254.8 267.2 269.9 271.5 276.8 283.6 293 306.9 314.2 315.3 316.8 319.5 331.2 336.1 339.9 348.7 356 363.8 367.8 363.8 357 349 348.2 348.8 348.2 349.6 350.3 350.1 351 351.4 350.7 347.4 341.1 324.4 303.7 292 283 270.7 259.2 246.4 239.5 234.7 228.8 220.5 209.3 204.2 202.3 200.7 198.1 197.7 196.8 194.7 195.4 195.6 194.3 190.8 187.3 183.4 183 182.7 180.9 177.2 173.9 172.9 172.7 171.7 170.5 165.6 161 154.5 148.4 140.8 130.1 129.9 128.7 129.4 121.9 123.6 124.2 124 122.3 121.6 120.9 119.6 116.6 113.6 113 106.9 103.6 105 104.4 103.8 109 109.7 110.1 118 127.4 131.2 133.6 137.1 137.4 138.3 140.9 145.6 152.4 154.1 154.3 155.7 157.1 159.9 161.3 164 168.3 171.4 173.1 172.8 175 181.5 184.3 180.5 181.6 182 185.4 184.2 188.3 190.9 195.1
30.3 31.6 31.1 31.7 32.2 35.9 36.4 38.3 38.9 39.3 40.4 41.6 43.1 43.4 43.8 45.6 51.8 59.2 65.3 66.5 68 70.2 76.6 81.2 89.1 95.5 106 119.5 137.1 151.7 167.5 180.8 184.9 183.8 183.9 182.9 183.7 175.1 172.6 172.6 182.4 187 190.4 192.6 193.5 194 197.6 205.1 212.3 214.2 210.3 214.6 223.2 233.5 232.4 235.1 237.2 237.4 239.3 243.9 248.3 248.5 248.4 249.8 250 239.9 237.2 235.3 234.4 237.6 245.1 245 244.5 250.4 258.3 262.9 269 276.4 285.9 293 306.7 314.7 313.7 315.8 324.9 332.7 336.5 342.4 353.1 362.6 372.4 375.6 373.2 362.5 355.3 350.9 352.1 353.5 356.5 358.1 358.1 355 353.6 353.6 354.7 348.4 331.4 312 297.8 289.6 275.9 262.2 249 240.2 237.5 232.2 224.7 214.1 206.9 203.3 203.1 202.8 200.2 200.1 199.1 198.7 197.8 198.3 197.7 195.6 189.9 188.3 189.8 191.1 184 180.9 176 172.9 171.3 169.9 166.6 160.2 155 145.9 140.8 132.8 131 134.5 135.2 131.6 124.6 124 123.6 122.1 121 120.2 118.5 116.7 113.4 111.8 107.3 106.9 106.6 105.6 104.5 103.1 106.2 108.8 113.9 124.1 130.9 134.7 136.6 137 136.1 138.5 142.7 148 150.8 151.6 157.9 156.8 157.6 157.6 159.5 162.3 165.4 167.7 168.9 170.1 170.7 173.1 174.9 175 177.7 179.3 182.2 185.4 188.9 191.4
35.8 33.1 36.1 32.6 31.6 32.8 35.6 36.8 37.5 38.4 39 39.9 41.8 43.1 43.4 45.4 48.8 55.5 60.2 64.9 65.6 66.8 73.3 77.4 84.2 90.9 98.3 111.9 131.1 141.8 156.7 176.1 181.7 180.8 180.1 180.2 183.8 183.6 172.6 173.9 179.4 185.2 188 189.6 191.3 194.8 197.1 197.7 199.8 203.1 208.3 213 214.2 220.4 219.6 222 232.4 238.2 236.4 241.5 246.3 249 242.8 246.4 246.4 235.5 233.7 232.8 233.2 235.2 239.2 243.2 239.6 239.1 244.4 256 271.1 275.1 283.9 297.2 301.4 303.2 309.7 320 328.1 333.6 337.6 344.3 357.1 368 372.2 375.6 372.2 364.9 358.3 354.7 357.4 361.3 363.3 363.7 364.7 362.5 358.6 354.6 349.4 350.7 335.2 315.2 299.6 292 283 266.7 255.9 239.9 236.7 232.9 227 216.7 209 207.5 206.7 203.9 203.8 204.4 204 205.2 203.7 202.5 204.5 201.6 197.5 194 192.9 194 194.1 185.2 179.6 174.5 172.6 171 169.3 164.1 158.7 153.8 148.6 141.2 133.4 134.1 135.4 133.5 127.9 126.7 123.1 122.7 122.1 120 117.6 115.8 117.5 112.2 109.6 109.7 109.4 108.3 107.3 105.8 106.1 108.6 111 117.8 126.2 135.2 138.9 136.4 135.7 138.8 139.2 141.9 144.9 150.1 151.6 153.1 156.7 156.2 156.5 160.1 162.2 163.5 163.6 162.2 165.7 168.3 169.9 171 174 175 180.6 181.6 184.2 185.7
37.4 35.7 36.1 34.5 33.6 32.6 34.5 35.2 36.7 38.1 38.7 39.9 40.7 42.1 43.5 45 47.8 51.5 59.1 62.2 64.3 65.8 69.8 74 79 87.1 94.1 103 120.4 136.6 149.4 156.2 172 178.1 175.4 178.4 181.7 184.1 182.7 172.6 176.6 183.2 184.6 187.8 190.7 193.1 194.4 194.1 194.7 196.6 201.4 207 207.6 205.9 204.9 208.3 214.7 219.2 222.9 233.7 244.2 247 236.6 243.1 240.1 230.5 230.4 231.4 232.1 233.4 236.3 236.5 234.5 235.3 245.1 251.9 261.2 272.3 275.2 289.6 293.8 297.6 314.1 319.7 327.5 332.8 340.6 344.4 352.8 360.4 368.5 372.4 371.8 369.1 363.3 358.1 359.5 363.3 366.1 366.9 367.4 366.5 362.1 361.1 357.2 344.8 331.7 314.7 306.7 301.2 292.3 274.3 262.1 247.3 238.2 233.8 229.3 223 211.8 213.9 210.7 207.9 207.6 208.2 205.7 207.8 207.7 208.6 209.4 207.3 206.2 199.9 196.7 195.8 199 189.1 179.9 176.6 175.4 173.9 170 165.9 163.2 161.1 152.3 146.6 137.2 134.3 135.1 134.2 128.4 126.3 122.8 122.6 120.7 119.4 117 117.2 119.1 114.5 111.5 110.9 110.9 111 110.2 108.5 104.9 107.5 109.1 114 123.6 130 132.5 134.6 134.8 138.5 137.1 142.7 142.1 145 148.7 152.6 155.6 154 153.8 156.5 156.7 157.8 159.2 161.6 162.4 163.2 165.9 167.1 169.1 172.4 173.4 176.8 180.1 178.1
37.9 36.5 36.6 35.7 35.4 34.5 34.7 35.7 36.5 38.5 39.6 40 41.1 42.6 44.1 45.6 47.6 49.1 56 59.3 61.6 64.1 67.1 70.9 76.3 84.1 92.1 100.6 110.6 129 141.7 151 155.4 160.9 165.2 178.8 180.1 182.6 184.1 172.6 176.7 175.4 180.8 185.3 188.3 190.6 193.7 196.1 198.3 199.8 196.8 198.5 199.4 201.3 202 202.2 203.4 205.3 209.3 217.6 225.8 233.4 239.1 231.4 230.4 226.8 227 230.1 230.2 230.9 234.9 235.7 229.6 230.6 234.8 244.8 255.8 263 271.8 278.7 287.3 295.1 313.6 322.4 326.6 333.3 339.4 342.5 346.5 355.4 363.5 370.4 370 368.4 366.8 361 359.5 361.7 367.5 374.1 369.4 364.9 363 361.9 356.4 347.6 333.4 313.5 307.9 304.5 296.6 282.8 264.9 255.9 242.4 233.1 233 232.6 223.6 220.1 217.2 215.5 211.9 214.4 213 216.8 212.2 210.6 211.6 211.8 210.5 206.9 201.9 198.2 194.8 190.4 186.7 179.4 176.8 175.4 172.5 169.2 167 162.6 155.2 146.5 142 139 135.5 137.8 129.6 127 122.6 121.7 120.5 120.2 118.3 118.9 118.6 117.1 112.7 112.3 112.3 112.2 111.8 110.3 106.6 107.8 108.4 111.7 118.7 126 128.4 129.9 130.5 132 134 136.3 140.4 142.1 144.2 148.4 154.7 152 151.4 151.9 152.3 154.8 156.9 157.5 159.5 161.3 162.3 163.1 165.3 168 168.8 172.7 175.1 179.6
38.3 36.9 36.6 36.5 36.3 37 36.9 39.1 39.4 37.7 39.3 41 41.9 43.1 44 44.7 45.3 47.7 54.2 58.6 61.2 62.8 66.3 70.7 74.5 79.5 88.3 102.1 105.4 112.2 128.5 138.5 149.2 151.7 155 165.7 179.8 187.2 189.8 183.8 173.3 182.7 172.9 179.9 186.3 190.1 192.1 195 198 201.2 202.1 198.1 200.9 205 204.3 203.5 204.3 206 207.2 210.6 216.4 220.1 223.7 222.9 224.1 222.1 228.4 231.8 228.9 227.7 228.5 229.3 226.9 228.5 233.7 239.2 256.5 267.7 267.3 278.5 285.8 294.3 302.5 317.2 323.1 331 335.8 340.3 345 351.2 359.2 365.5 369.7 367.7 366.1 360.4 359.6 360.5 363.6 366 366.7 364 362.4 360.3 363.9 350.2 340.5 323.1 310.9 302.3 296.3 290.3 270.9 261.6 249.7 237.5 233.9 234.7 234.8 232.8 224.9 222.7 219.4 218.8 221.1 220.2 220 216.1 215.8 215.4 214.2 214.3 209.1 202.9 198.6 194 187.4 181.8 180.5 178.6 177.6 173.3 169.8 162.4 153.6 148.2 143.3 139 134.1 134.3 129.1 126.9 122.3 121.6 119.4 118.9 118.9 119.2 119.4 118.6 114.6 112.9 112.8 112.7 112.5 111.9 109.3 106.4 107.7 109.6 113.8 122.4 127 128.6 130.6 129.9 134.1 139.4 141.4 141.6 140.8 142.5 144.9 152.1 150.4 148.8 149.4 151.8 153.8 154.7 156.2 158.1 160 160.6 162.3 165.1 167.4 169.7 173.7 175.8
