ncols 200
nrows 82
xllcorner 260000
yllcorner 712050
cellsize 50
665.1 684.5 699.4 697.8 685.7 666.5 654.5 638.7 606.2 565.2 542.8 517.2 494.6 478.3 473.4 471.9 473.1 479.9 486.5 488.6 491.3 493.8 487.2 488.2 491.5 495.9 499.9 506.4 516.6 531.6 547.4 568.4 592 614.5 630.6 639 644.5 648.4 644.3 635.6 625.8 614.4 603.8 593.9 600.3 608.4 618 631.1 645.2 664.1 685.2 704.3 719.2 729.9 734.9 735 732.8 730.3 726.9 722.7 718.4 711.6 707.5 707.7 714.2 722 723.1 705.7 670.2 643.2 617.7 593.2 570.8 558.4 550.2 543.5 537.2 532.7 528.8 525.2 520.7 515.6 509.3 503 496.7 490.8 484.9 479.6 473.8 469.5 464.3 460.3 455.8 451.4 446.7 440.9 435.7 431.8 428.9 425.7 421.4 417 411.8 406.7 402.1 395.4 396.2 385.7 387.5 391 393.2 397.3 398.4 393.9 388.6 385.8 379.3 390.8 399.3 404.9 412.4 418.8 425.3 437 445.8 457.6 464.1 468.2 470.3 472.4 473.9 477.1 481.2 485.8 490.1 493.2 497.7 502.6 505 503.3 507.5 514.2 520.4 525.3 529.9 534.7 540 543.1 544 542.4 529 506.5 481.7 459.3 437.2 419.7 401.8 386.2 372.9 359.7 347 335.8 323.8 313.8 307.4 302.9 301.3 299.4 293.8 285.5 277.3 270.2 263.3 257.3 250.6 243.6 236.4 229.5 223.2 217.1 212.4 216.7 224.4 231.8 236.8 240.9 245.4 251.9 255.6 258.8 261.6 263.9 264.9 264.4 261.1 258.3 250.5 243.9 241.9 239.6
675.9 694 706 701.4 690.3 674.3 668 637.2 602 562.3 525.7 505.8 487.1 477.1 472.1 469.4 470.5 474.9 483.8 487 486 482.9 477.1 473.8 474.9 473.8 481.9 489 499.8 512.8 526.7 546 568.7 588.6 606.2 615.7 623.5 629 633.8 632 623.1 613.7 601.7 589 584.5 591.9 601.5 615.3 628.1 646.3 666.2 684.4 699.7 711.6 717.3 719.5 720.7 719.1 717.2 714.4 711.3 706.6 702.4 702.7 705.2 713.5 717.4 706.7 672.5 639.6 616.5 592.1 570.9 557.9 550.2 544.7 541 538.3 533.4 530.1 526.7 522.3 516 509.9 503 496.6 490.8 484.8 479.4 474.5 469.4 463.8 460.3 455.9 450.2 444.5 439.2 434.8 430.9 426.8 423.4 420.2 415.5 410.3 404.5 399.5 397.5 394.3 388.2 385.4 375.8 388 386.4 383.5 381.2 379.9 371.1 384.5 394.7 399.2 405.2 409.4 415.6 424.6 436.3 445.9 452.4 457.3 460.5 462 465.7 469.9 472.7 475.7 479 484 488.8 493.8 496.7 500.1 506.9 513.8 521.2 527.9 534.7 540.2 545.5 549.1 553.3 552.7 536.4 513.2 486.8 466.7 448.5 430.6 408.1 390.3 376 362.7 353.4 344.1 331.9 318.9 308.9 304.5 303 302.2 295.8 287.7 280.7 274.8 268.3 262.3 256.4 248.4 240.6 232.9 226.8 221.7 215.7 210.9 218 222.9 227.3 232.1 237.2 242.5 247 250.6 253.7 255.1 256.3 253.8 250.1 243.8 236.4 233 228.9 225
684.2 695.2 707.1 701.6 696.5 685.7 657.9 630.5 599.7 561.9 522.4 505.7 490.7 483.6 475.1 470 467.9 471.6 480 480.2 474.2 469.5 463.2 460.3 460.3 458.4 462.9 468.8 483.6 495.1 507.8 524.6 545.6 565.1 581.1 594.6 603.1 608.2 613.8 615.6 614.2 606.3 597.8 587.8 572.8 569.1 580.9 594.6 610.8 626.2 643.4 661 676.5 688.6 697.7 702.6 705.9 707 707.2 705.1 701.4 696.2 692.1 694.8 702.3 710.8 714.5 700.6 661.1 633.8 612.3 589.5 571.1 559.2 552.5 548.5 545.5 542.7 538.7 535.6 533.9 529.5 523.4 517.3 510.7 503.8 496.7 490.1 484.5 479.6 474 469.3 463.4 459.1 454 448.8 443 438.6 434.1 429.6 425.6 421.9 418.4 414.7 411.1 406.1 399.8 394.7 390.3 386.1 380.4 371.3 376.7 375.2 374.3 371.5 372.5 381.4 385.4 391.4 395.2 398.1 406.3 417.5 426.8 436.7 443.6 449 451.9 451.7 456.3 460.8 464.2 467.2 470.8 475 480.6 484.6 487.2 497.2 503.9 512 521.7 531.6 539.5 544.9 549.2 552.5 558 557.8 545.4 524.1 496.2 473.4 457.1 438 417.1 398.4 383.1 370.1 358.1 350.3 337.4 324.5 314.2 308 305.6 304.7 300 291.5 285 279.5 273.3 266.8 259.8 252.2 244 237.3 231.4 225.2 218.1 213 210.7 215.7 220.1 225.5 230.2 234.2 239.4 241.9 243.1 243.7 242.5 239.3 232.9 226.1 224.1 220.5 216.6 212.9
697.8 713 718.2 724.3 720.8 703.6 667.7 627.5 584.6 553.4 524.7 509.1 500.5 490.5 481.4 474.7 467.1 466.9 472 470.9 462.3 456.9 453.4 449.1 447 445.1 448.8 452.5 466.1 481.6 494.2 509.3 524.9 540.7 553.3 563.7 574.7 581.8 587 592.4 595.9 591.8 585.8 580.1 568.3 545.7 560.5 575.3 592 608 621 635.9 650.8 663.4 674.7 683.9 689.8 692 693.2 690.7 687 682.5 682.3 687.9 696.7 705.5 710.4 702.8 660.1 630.7 608.2 588.1 573.2 562.7 557.2 553.4 550 547.5 545.3 543.1 540.9 537 532.3 526.6 519.3 511.7 504 496.5 490.3 484.5 478.7 472.8 466.9 462.1 458 453.2 446.8 441.8 437.5 433.4 428.9 425 420.6 416.6 414 410.7 405.6 400 394.2 388.5 381.5 379.2 368.6 366.9 368.1 367.2 365.2 371.2 374.8 380.4 388.8 391.8 397.8 408.2 416.1 424 429.5 434.6 437.9 439.7 444.3 449.8 454.7 459 463 465.9 470.2 473.8 481 491.2 499.5 509 520.4 531.1 539.4 546.5 550.1 552.8 554.7 555 552.3 537.8 505.7 480.5 464.1 445.6 425.7 408.9 391.4 378.1 368 355.9 343.1 330.3 320.5 313.1 308.9 305.5 299.6 292.4 286.8 281.6 275.8 270.5 263.5 254.8 246 240.6 236 229.2 222.5 216.2 210 210.8 213 217.8 221.5 225 229.5 231.6 232.9 229.6 225.7 217.9 214 208.4 206.9 202.2 203.4 201.4
712.7 732.2 749.4 759.5 748 715.4 670.1 628.9 591.6 553.3 530.4 518 510.2 499.5 491 484.4 476.3 466.3 461.1 459.6 455.3 451.1 445.5 441.9 439.6 436.7 437.2 441.1 452.5 467.5 482.3 491.8 501.4 515.3 526.7 534.4 542.7 550 558.1 565.4 574.4 572.8 571.5 564.9 553.1 534.1 535.9 556.3 571.2 586.8 600.2 613 626.1 640 653.2 664.6 671.9 674.3 674.1 672.5 671.4 670.3 673.6 681.4 691.1 699.4 704.5 698.3 661.4 630 608 589.8 575.7 565.7 561.3 558.5 556.4 553.9 553.1 551.1 548.7 545.6 541.2 536.4 528.6 520.7 512.4 503.1 495.6 489.7 482.5 476.8 471.4 465.2 460.9 455.9 451.6 447.2 442.8 436.6 431.3 427.4 423.6 420.1 416.6 413.6 410.1 405.2 399.6 393.9 387.6 385.6 384.5 379.7 370.6 364.1 362.9 366.2 372.6 379.1 382 385.2 389.5 393 398.3 404.8 412.9 419.8 424.4 427.7 433.4 439.9 445.3 449.6 454.9 457.5 460.5 464.1 473.5 484.3 494.7 504.2 516 527.8 538 545.1 550.2 552.5 552.9 554 552.1 541.7 512.8 489.3 473.9 453.3 434.1 416.4 402.2 390.4 379.2 367 347.8 335.8 326.1 319 311.8 305.6 298.9 292.5 286.9 282.9 278.6 272.9 264.3 255.6 248.3 244.5 240.6 235.5 229.2 223.3 218.4 210.6 206.7 208.5 211 216.5 218.7 219.7 220.3 215.8 209.5 206.2 204 202.1 188.4 188.1 185.9 187.1
732.6 756.4 775.7 777.2 753.4 713.9 671.1 639.1 604.2 572.7 546.6 529.8 520.4 510.3 503.1 497.7 488.1 480 469.7 460.1 453.8 449.9 449.2 443.7 432.2 430 427.5 434.6 443.8 456.1 463.1 475 478.6 490.9 504.7 508.7 514.4 519.3 525.8 534.8 543.7 548.2 549.6 546.6 536.1 516.4 510.8 539.5 552.4 565 580.6 592.7 605.2 618.3 630.7 641.6 649.9 653.2 653.6 654.2 656.6 657.8 663.8 675 686 695.2 701.1 700.9 677.4 644.4 620.1 597.5 579.8 568.7 565.9 563.4 563.6 561.9 559.4 557.8 556.8 553.9 550.3 546.8 540.8 532.6 522.3 511.1 501.7 494.4 487.5 481.5 475.8 469.5 464.6 459.8 456.5 453.5 446.9 440.7 435.4 430.4 426.4 422.7 418.9 416.1 413 409.3 404.4 398.8 393.7 388.7 385 381.8 376.6 375.7 365.7 361.7 367 369.4 368.9 372.3 377.4 380 385.3 392.7 401.6 407.4 412.5 416.1 422.4 427.7 433.2 438.8 443.3 447.5 450.9 456.9 464.9 474.4 486 496.9 509.3 522.8 535.3 543.3 549.4 551.1 552.6 556 553.1 547.2 524.7 500.8 483.4 464.6 444.2 424.7 411.9 400.5 386.1 369.7 353.4 340.8 331 322.4 314.8 307.4 299.3 292.6 287.8 283.9 279.6 274.5 267.1 257.9 251.4 247.6 244.8 241.2 236.9 233.2 226.7 220.2 213.6 209 196.7 203.9 206.1 205.6 203.6 202.4 201.2 201.5 200.6 193.6 189.8 190.8 190.1 189.1
757 776.5 791.7 791.2 764.7 736.3 707.8 677.3 628.5 586.5 554.2 540.4 531.3 522.9 516.5 511.1 502.5 495.4 485.1 474.3 465.1 461.3 455.2 450.6 445.8 440.2 424.4 427.1 432.7 442.4 448.1 454.2 460.1 467.9 476.2 484 489.4 494.3 496.9 502.5 511.8 517.8 520.9 520.3 514.5 491 501.1 521.8 535.2 545.6 555.9 568 581.5 594.6 607.1 617.3 625.6 630.6 633.3 637.5 642.3 646.8 653.8 667.9 681 690.8 699.7 705.7 697.5 670.2 640 613.3 594.3 580 571.2 570.4 572.3 570.6 569 567.5 566.6 565.8 564 563.8 559.8 550.8 535.5 519.3 508 498.8 492.4 485.5 479.9 475 468.9 463.6 462.2 458 451.6 445.6 439.6 433.7 428.7 424.6 422 418.8 415.2 411.8 407.7 403.6 398.6 393.7 388.6 383 379.9 379 375.8 372.8 364.7 361.4 357.7 362.7 366.9 370.8 374 381.2 386.7 394.1 399.6 406.1 413.2 417.5 421.9 429 433.7 436.9 441 448.2 456.5 464.4 475.7 487.8 500.3 516.2 530.1 540.9 546.9 549.4 551.6 553.6 555.9 554.5 540.3 518.4 496.4 477.3 458.1 437.9 420.2 405.7 389.5 373.4 359.2 346.1 335.2 326.5 318.6 310.5 302.2 294.6 289.6 285.7 281.8 276.2 268.5 260.7 254.6 251.1 248.5 245.3 241.6 237.2 232 226.7 221.2 215.4 210.9 207 195.4 193.5 194.5 194.1 192.5 192.6 192.2 190.7 192.4 191.9 192.2 194.2
772 788 796.2 802.7 791 761.3 729.6 683.9 638.5 597.5 571.8 553.2 543.7 537.4 531.5 523 514.5 509.5 496.2 484.3 475.2 469.8 465 462 459 453.2 444.2 432.7 421.3 421.6 431.1 436.3 439.5 444 453.9 457.8 464 468.5 473.7 480.2 484.6 490.4 492.9 493.1 490.2 471.6 479.4 505 514.6 523.2 532.7 544.8 557.3 569.7 582.3 593.6 603 609 614 620.4 629.3 636.2 644.9 659.6 674.9 687.4 697.8 703.3 704.8 693.9 660.6 632.7 612.6 595.7 578.9 582.9 587.2 584.2 580.5 579.6 579.6 580.7 581.4 583.1 581.7 572.3 550.9 529.1 512.5 503 495.7 489.5 484.5 479.2 472.7 469.1 466.5 461.5 455.6 449 443.3 436.6 431 427.3 423.9 420.7 417.5 414.2 411 407.5 403.4 399.4 395.5 387.7 381.9 378.4 375.9 374.4 373.3 370.6 360.4 357.8 358.6 361.4 364.8 369.3 374.3 382.1 389.3 397.7 403.5 409.5 413.8 417.7 421.2 424 429 436.9 445.6 453.5 464.3 478.1 490.9 507.1 523.4 535.1 542.8 546.7 549.5 551.5 555.7 559.4 551.5 535.2 515.6 493.6 473 450.3 428.4 411.5 394.9 377.4 365 352.9 342.3 332.1 322.1 314.3 306.4 298.7 291.7 287.7 283.7 276.6 269.1 263.3 260.1 255.8 251.9 248.5 245 241.2 237 233 227.7 220.2 213.7 209.3 206.9 204.7 204.1 200.8 200.7 199.7 195.7 191.9 194.6 198.3 204.6 208.9
769 775.8 782.5 788.6 786.5 764.8 734.4 688.5 652.7 606.1 590.5 571.5 563.1 556.5 549.1 536.5 524.1 513.1 501.6 492.7 486.4 484.7 482.1 481.2 478.1 472.6 466 455.1 433.8 413 427.7 428.3 427.3 428.4 433.5 438.6 442 448.4 453.7 460.6 464.8 466.7 470.4 474.8 468.8 452.3 459.5 486.7 495 503.4 510.8 520.9 532.7 545.1 557.3 568.7 579.4 588.4 595.9 604.9 612 625.1 637.8 653.2 670.2 684.1 694.6 701.8 700.9 688.7 665.9 643.8 627.6 603.9 584.7 592 598.8 596.8 590.8 590.4 591.3 594 596.4 593.6 587.5 581.8 559.3 537.7 515.6 505.8 499.5 492.3 485.5 479.1 476.5 475 470.7 464.7 458.3 452.7 447.3 442.4 437.3 432 427.7 424.2 421.2 417.7 414.4 410.9 407.1 402.5 397.8 392.6 386.5 380.7 377.5 373.5 372.1 369.2 364.6 354 353.2 355 358.3 361.9 366 372.2 380.3 388 393.2 398.9 404.4 407 408.6 411.2 418.1 426.2 433.8 442.2 452.5 465.9 479.3 493.3 510.1 525.4 537.2 541.9 545.2 547.6 552.2 555.7 548.6 539.3 530.3 514.6 487.3 462 439.9 418.8 400.5 382.5 370.9 357.9 345.5 333.5 323.2 316 309.4 301.2 293.2 288.4 283.6 276.8 269.7 266.1 263.8 258.9 254.8 251.4 248.4 245.2 241.3 235.4 228.4 220.9 215 212.2 209.4 207.3 204.8 203.1 203.6 199.9 191.9 195.6 203.5 210.8 215.9 217.3
758.1 763.1 770.3 775.9 776.2 768.9 752.9 710.7 661.8 621.8 610.7 589.8 579.1 575.8 567.3 554.7 534.7 517.8 513.1 509.4 506.7 503 503 502.8 499.7 487.8 473.3 454.3 426 412.2 415.3 412.2 410.1 412.6 415.9 420.9 421.7 427.6 431.2 434.5 438.4 444.5 449.7 453.8 448.4 432.3 459.5 466.9 476 482.7 490.2 498.9 509.2 521.1 532.9 544.7 556.6 568.3 578.3 587.1 591.8 612.3 629.6 650.1 667.9 682.2 692.8 698.3 695.4 682 661.5 645.7 623.8 600 585.2 591.2 599.2 596.8 589.7 590.3 588.2 587.6 588.5 584 577.8 570.6 556.8 537.7 519.4 510.6 502 493.4 489.3 486.4 483.4 479.4 473.6 468.5 463.7 458.5 452.2 446.5 441.8 436.8 432.8 429 424.9 420.8 417.1 413.2 409 404.8 400.3 396.1 389.6 383.3 380.4 374 370.2 367.9 365.1 359.1 352.6 348.9 354.9 356.5 359.8 362.5 369.4 375 380 387.1 393.8 398.1 400.1 401.7 408.2 414.2 421.7 431.8 442.4 452.6 465.4 480.3 495.9 512.2 527.5 535.6 539.3 543.7 548.7 548.2 544.7 539.6 534.9 524.2 501.1 476.1 451.6 428 407.9 389.2 376.2 361.5 349.2 337.5 325.9 317.9 309.7 301.4 293.6 287.4 282.7 277.7 272.8 268.9 265 260.4 257.2 254 250.7 247.3 241.5 234.7 227.7 220.6 216.4 213 210.5 207.6 206.7 207.4 205.1 194.2 195.4 202.3 213.9 217.2 221.1 223
754 756.2 755.1 757.6 755.7 751.6 739.9 710.5 660.4 636.1 622.3 602.1 595.9 592.5 579.5 557.8 540.8 538.4 535.2 533.4 529.6 526.9 530.4 522.4 507.5 491.6 470.5 446.7 429.8 416.9 405.7 394.1 394.9 397.5 401.3 402.2 405 406.9 405.1 412.2 420.5 426.3 431 434.7 427.6 427.8 444 447 455.4 461.2 467.5 479.2 488.1 497.8 511 523.7 535.8 547.4 554.8 563.7 579.5 600 623.9 647.5 666.6 681 690.7 694.1 687.8 673.8 655.1 635.9 613.4 591.9 582.4 583.7 589.1 587.1 583.7 580.3 578.6 578.7 579.7 574.1 564.3 556.8 547.4 535.7 522.3 512.1 503.6 502.1 498.6 493.4 488.5 483.1 478.9 474.2 469.5 464.3 458.1 451.4 445.4 440.9 437.4 433.5 428.7 424.1 419.7 415.4 411.2 407.6 403.8 399.5 393.6 387.1 381.9 375.8 371.2 368 364.1 358.1 353.8 350.9 348.8 350.8 351.7 354.5 357.5 363.8 369.7 376.1 383.7 389.6 389.6 389.1 396.3 401.7 408.5 418.4 430.3 441.9 455.2 469.9 485.5 500.5 517.6 528.6 532.6 539.3 543.3 543.8 540.3 536.8 533.8 525.9 512.2 488.3 463.4 439.1 416.3 395.9 381.4 365.1 352.4 340.5 329.8 320 310.3 301.8 293.3 286.5 283 280 275.8 271.8 267.6 263.5 259.7 255 251 246.6 240.2 233.5 227 221.6 217.7 213.3 210.7 209.7 209.4 210.4 205.2 195 198.8 210.9 220.5 223.2 226.5 230.3
734.8 737.1 736.1 735.5 734.2 735 728.7 707.9 675.7 647.1 624.8 611.2 605.8 592.1 574.8 567.4 560 556.8 557.6 557.2 554.9 559 559.8 540.7 510.9 491.2 471.3 457.4 446 433.2 418.2 402.1 391.9 385.9 387.3 387.9 387.1 384.8 388.6 395.3 402.2 407.9 415.3 417.3 408.5 417.1 420.6 426 434 441.2 451.6 460.6 464.8 474 486.9 499.7 513 525.7 532 548 570.6 594.7 617.6 642.2 662.7 676.7 684.7 684.2 678.4 666.7 647.5 621.2 599.1 583.4 580.7 578.5 576.2 573.8 571.7 570.9 571 573.8 575.1 572.8 565.8 554.3 544.3 533.6 524.9 519.5 515.3 510.1 503.7 498.5 493.1 489.2 485 480.1 476 470.7 464.1 457.5 452.7 448.2 443.2 438 432.6 428.2 423.8 419.5 415.3 411.4 407.6 403.4 398.9 394.6 389.9 381.7 373.3 370.1 365.4 360.4 356.3 352.2 344.7 344.6 346.9 348.9 349.2 353.3 357.6 363.3 369 371.7 373.1 374.1 382.8 391.5 397.8 407.4 419.2 431.2 444.2 461.3 476 490.9 504 516.4 525.7 532.5 536 537.4 536 534.9 531.5 524.3 512.3 493.8 473.1 450 426.4 403.3 386.5 369.7 355.8 343.9 330.9 318.5 310.1 303 295.8 289.9 287 283.3 278.9 275.2 271.2 266.6 261.6 256.6 251.1 245.7 239.2 233.1 228.1 223.2 218.4 215.7 215.2 214.8 214.1 212.5 204.9 198.4 204.2 219.1 227.3 231.3 235.5 239.9
712.8 714.8 717 719.3 719.4 720.4 717.8 703.6 685 646.8 628.5 618.8 606.8 598.5 595.9 588.6 583.3 580.2 579.5 577.5 576.6 576.5 563.5 540.6 510.2 492.2 475.5 462.1 450.3 435.3 419.7 405.1 391.8 379.9 377.5 378 375.9 374.8 375.7 380.3 383.4 391.6 393.5 395.7 392.3 398.8 405.4 410.4 417.4 427.7 434.7 436.5 439.9 451.9 464.3 478.9 491.2 500.8 518.1 540 564 589.1 609.8 628.1 648.3 661.7 671.7 672.3 668 656.4 639.7 613.1 592 579.1 576.6 571.9 566.5 566.4 565.2 565.2 567.2 569.6 572 573.4 569.1 564.5 557.9 545.8 535.5 527.5 520.9 514.8 508.4 503.1 499.9 495.7 491.7 486.6 480.7 475.9 470.6 465 460.9 455.4 449.1 443.2 438.8 433.9 429.2 424.2 419.4 415.2 410.7 406.7 402.7 398.6 394.4 389.8 383.5 378.7 371.9 365.6 359.5 355.3 350.2 345.5 340 342.4 341.3 341.7 344.7 347.8 349.5 348.9 350.4 360.9 369.6 379.1 387.1 397.3 407.4 417 431.1 449.2 464.8 479.8 496.3 509.5 519.2 526.1 531 533.3 533.6 532.8 529.8 522.3 511.3 496.9 478.9 461.4 437.9 413.3 391.6 373.9 357.6 344.5 331.8 320.8 314.4 308.5 302 297.2 292.5 287.4 281.8 278.5 274.9 269.5 263.9 258.1 252.3 245.4 239.2 233.9 229.2 225 222.2 221.4 220.1 216 213.9 209 203.4 203.1 217.6 226.3 232.9 239.1 244.1 248.9
690.6 693.9 698.5 699.3 700.8 706.4 711.1 703.3 676 649.5 632.2 622.2 619.6 620.1 620.7 607.6 605.4 601.3 597.2 596.3 591.7 582.9 563.4 534.1 507.2 496.5 485.2 468.3 450.1 430.9 415.1 400.6 390.2 381.1 374.7 370 369 368.3 366.9 367.9 370.1 372.7 376.6 377.1 381 384.2 390.1 395.9 402.7 408.6 411.6 415.8 421.1 433.9 445.2 458.4 469.9 484.3 506.9 528.9 548.3 566.7 584 601.1 617.7 632.2 645 654.5 653.6 643.6 628 610.2 588.3 574 572.9 566.1 559.1 559.5 558.9 559.7 563.2 566.4 569.5 572.3 575.1 576.1 572.3 562.7 550.7 539.5 527.7 518.5 513.5 510.1 507.1 505 502 496.7 491.2 484.9 478.6 473.1 466.8 460.7 455.9 451.1 446 439.7 434.8 429.6 424.7 419.6 413.9 410.3 406.2 402 397.8 393.4 388.3 384.3 377.2 370.6 366.8 360.5 354.2 349.4 344.2 336.3 335.2 334.5 338.2 340.1 340.8 338.1 342.7 348.3 354.2 362.6 373.7 386.5 395.4 405.5 419.2 434.8 452.6 468.1 485.2 502.5 513 521.2 527.1 530.2 531.6 532.3 529.9 520.7 510.4 499.2 484.5 467.1 443.5 416.7 394.5 374.4 358.3 344.9 332.7 325.4 320.1 313.7 306.4 301.2 296.1 290.9 284.9 280.4 276.8 271.4 265.3 259 251.2 243.9 238.2 233.1 229.2 226.4 225.8 226 222.2 217.3 212.9 206.4 196.3 207.7 223.7 232.7 239.4 246.2 252.8 258.5
666.1 671.7 674.3 678.9 688.6 698.5 704 695 675.9 661.1 652.5 637.9 639 635.8 633.7 629.9 623.4 617.4 614.4 603.7 589.8 575 552.5 530.7 512.5 509.8 496.9 476.8 452 431.1 415.2 399.4 388.2 380.2 377.2 374.5 371 365.8 363.2 362.7 362.3 364.2 365.1 366.8 371.9 372.8 375.6 379.6 383.1 386.9 390.4 397.1 405.9 417.5 429 441.6 454.8 471.1 489.8 505.1 520.4 538.3 552.9 570.2 586.1 599.8 614.4 626.1 630.3 625.2 613.4 597.6 579.8 570.6 567.1 560.6 554.8 553.1 552.9 554.4 557.5 562.7 566.7 572.7 580.2 586 587.8 583.6 571.8 557.1 542.9 532 525.1 520.7 518.1 516.4 514 508.1 501 494 487.4 480.6 474.7 470.2 465.9 456.7 450.1 445.6 440.1 435.6 430.8 424.6 418.6 413.5 409.8 405.2 400.9 396 390.1 382.7 381.7 381.2 376.6 366.5 361.2 356.5 349.5 344 341.3 336.5 331.6 334.5 334.7 333.3 335.5 340 343.6 351.8 363.4 375.8 385.6 395.4 408.4 422.8 438.9 455.7 472.1 489.8 505.6 516.3 524.4 529 533.1 534.2 530.9 524.7 515.2 502.7 489.6 471.8 443.5 420.3 398.8 377.6 361.3 347.1 338.1 330.8 324.2 315.6 308.9 304.3 299.4 294 287.7 281.4 276 270 264.2 257 248.9 242 236.5 232.1 228.2 225 223.6 224.3 223.4 222.1 215.4 205.9 202.8 215.5 230.3 238.9 245.9 254.6 261.9 268.3
649.3 650.1 652.7 668.6 681.1 687.4 696.5 701.3 695.7 690.6 679.3 662 659.4 655.5 654.3 648.4 637.9 633.2 618.4 597.1 582.9 565.9 542 528.5 514.3 501.8 487.1 467.4 444.8 426.4 411 396.3 390.1 386.5 384.1 381.8 377.2 371.1 367.1 365.2 361.3 360.6 360.7 361 362.9 362.9 362.7 361.6 366.9 372.3 375.8 383.9 393 403.9 415.1 426.4 437.6 455 471.2 482.5 494.5 506.3 520.8 535.8 551.7 566.2 582 594.9 600.8 601.1 595.5 589.2 569.1 567.2 563.7 554.7 550.4 549.3 548.9 549.8 553.4 559 564.6 572 582.2 590.1 596.6 602.5 593.9 578.4 563.8 551.6 545.9 541.3 537.3 534.6 530.4 523.6 514.8 506.9 499.3 492.5 485.7 480.2 472.1 464.9 458.8 452 446.6 442.8 437.4 431.7 425.1 419.2 413 408.1 403.1 397.1 389.3 389.6 386.7 382.4 378 376 369.8 362.3 356.2 348.6 342.4 338.7 335 324.9 330.3 330.5 331.4 333.5 336.5 343.5 353.5 367.2 378.5 387.7 398 410.7 426.6 443.4 459.6 476.3 495.2 513.1 524 530.6 535.5 536.2 534.5 528.4 518.7 506.9 492.9 475.3 450.7 428.7 403.7 380.8 365 350.9 339.4 331.8 323.5 316.1 311.8 306.5 300.5 295 288.4 280.5 274.5 268.4 261.9 254.1 247.7 240.8 235.1 230.8 228.6 229.7 231.5 231.6 230.5 226.7 215.4 199.9 211.6 228.2 237.3 245.4 255.1 264 270.7 277
627 630.8 644.5 655.4 669.5 683.8 694.1 698.9 700.8 707.9 702.1 687.9 684.5 681.6 683.5 679.7 673 651.1 622.1 595.7 578.9 562.5 542.5 524.9 505.6 484.1 467.7 452.8 436 421.3 408.8 403.9 396.2 395 392.4 388.4 384.1 380.4 377.1 372.9 365.4 354.1 355.2 354.7 354.1 353.4 353.4 354.6 355.5 359.2 365.8 373 382 392.9 403.3 413.1 423 437.5 449.9 459.4 466.5 478.2 490.3 503 517.6 533.1 549.2 562.9 570 571.7 571.9 567.2 555.1 557.5 556.6 549.2 543.9 542.8 542.6 543.5 548.5 554.8 560.7 569.1 584.2 598.4 610.3 619.2 615.3 598.9 581.4 570.8 567.4 562.8 559.7 557.3 551.1 543.6 532.7 521.6 512.2 504 495.8 487 480.2 472.8 465.4 457.6 453.5 447.2 441.1 435.9 429.4 423.5 417.1 409.8 403.8 397.7 398.1 393.9 388.2 388.1 384.6 382.2 377.7 370 362.8 355.2 345.7 341.5 336.8 332.2 326.6 326.8 327.2 328.8 331.4 336.4 344.7 356.1 368.1 378 386.5 398.6 414.1 431.2 447.6 463.3 482.2 505.6 525.6 534 538.2 537.9 534.9 529 516.7 503.9 492.7 477.3 458.4 431.6 402.5 381.9 365.7 352.6 341.1 332.2 324.4 317.5 312.2 306.2 300.1 293.7 286.1 278.5 272.8 266.8 259.1 251.3 245.8 239.6 235.9 236.6 237.3 238.4 239.5 237.2 234.1 226.2 213.2 204.5 222.2 235.2 245.9 254.6 263.5 272.3 279.6 285.4
617.9 628.4 640.8 654.5 668.4 678.5 685.8 692 701.8 709.9 716.1 711.7 706.4 705.9 703.6 704.8 689.1 658.4 634 609.4 592.9 574.8 559 544 523.4 497.6 465 447.6 435.1 426.9 419.6 412.5 408.1 405.4 402.3 398.2 394.7 391.7 388.3 383.4 377.9 372.1 365.7 359.3 354.9 350.7 345.2 349.1 349.9 355.5 362.2 366.4 373.7 380.5 390.9 400.5 411.7 423.3 432.9 438.3 445.3 453.6 464.2 474.5 487.8 502.8 517 530 537.2 540.4 542.2 540.3 536.1 543.9 544.2 537.4 533.5 534 533.6 536.9 543 550.3 557.7 570.8 589.1 604.4 618.7 631 627.9 617 602.6 591.7 590.8 586.9 584.3 576.8 566.6 558 546.6 532.7 523.8 513.7 503.3 495.8 488.6 481 471.4 464 457.4 451.4 444.1 437.7 431.7 426.7 421.5 413.2 408 407.3 403.2 399.3 393.4 390.8 387.1 383.9 380.6 376.6 373.1 361.8 353.2 347 341.3 335.2 329.1 322.2 324.2 324.5 325.6 330.3 336.9 346.5 357.5 368.4 377.3 388.5 404.2 419.7 434.7 450.3 470.9 492 515.6 534.4 539.2 538.3 532.8 525.9 509.6 495.6 486.7 470.6 450.7 422 396.3 379.2 363.8 351.6 343.1 335.9 327.3 318.7 311.4 305.4 298.7 291.7 284.9 278.1 271.1 264 256.2 248.4 245.7 244 244.7 246 245 245 243 237.9 232.1 221.2 209 202.9 226.5 241.3 252.7 263.1 272.6 280.8 287.7 292.7
608.9 627.7 643.3 658.4 669.9 676.1 682.5 695.6 706.9 714.2 720.8 723 722.3 724.5 725.4 724.1 699.8 668.4 642.4 623.4 604.6 592.9 578.8 568.1 541.7 508.3 478 454.6 444.6 437.5 429.7 423.6 420.1 416.8 413 409.5 406.3 403.3 400.1 395.9 392.4 385.6 376.1 369.3 362.7 355.4 349.3 344 345.4 349.5 353.4 358.5 363.5 368.5 381.3 392.7 402.7 407.9 415.6 421.1 424.6 432.1 438.9 449.7 463.5 474.5 487.7 498.1 505.9 509.5 512.8 514.6 517.3 525.9 527.7 524.1 522.3 522.6 524.6 530.5 537.1 544.9 555.8 574.1 593.9 608.6 625 638.2 640 631.9 626.2 615.1 611.1 607.3 598.9 584.9 573.7 564.1 553.1 540.3 531.6 521.8 511.6 503.3 495.7 487.4 478.7 469.8 461.9 454.8 446.8 440.1 434.1 429 423.2 418.1 416.7 411.8 406.9 401.8 397.5 393.8 389.7 387.5 386.7 382.4 377.3 371 364 352 346.2 340.2 335.5 329.5 324.4 320.4 321.1 324.1 329.8 337.7 347.7 358.3 367.9 381.1 393.6 405.1 418.4 434.4 454.1 470.9 493.3 519.1 534.6 535.7 526.3 515.8 501.7 484.9 468.4 448.2 427.8 406 385.4 371.8 360.7 349.8 341.7 333.6 326.1 318.3 310.8 303.6 296.6 290.7 284.9 279.2 270.9 261.6 254.1 253.4 253.4 253.7 254.6 253.3 250.3 247.4 241.2 234.6 224 209.6 206.1 209.4 232.4 247.7 260.4 271.5 281 288.4 293.9 299.1
613.7 629.3 642.9 655.2 662.6 669 679.3 696.5 704.8 711.7 719.5 726 731.9 739.4 747.7 746.6 706.9 671.4 648.3 631.3 622.3 610.5 602.8 591.3 559.6 524.6 490.7 466 456.8 448.9 441.7 437.2 433 428.9 425 421.4 418.3 415.6 412.7 408.5 401.6 391.8 384 376.4 368.2 360.7 353.4 347.5 343.1 341.9 350.7 355.2 354.1 360.1 373.9 381.9 390.4 397.7 401.1 403.9 405.9 411 419.3 430.7 439.9 448.3 458.6 468.7 477.4 482.5 488.2 491.2 497.5 508.8 513.9 511.9 509.9 511.1 516.7 523.8 531.9 541.4 556.6 572.6 592.5 609.5 626.1 638.7 642.9 637.1 634.5 631.5 624 614.7 602.1 588 574.7 564.6 555.5 543.4 534.4 526.5 516.5 508.1 500.1 493.5 484.3 474.4 465.4 456.9 449.5 443.2 436.5 430.8 426 425.2 420.5 414.7 410 405.6 401.1 396.6 393.7 391.5 389.3 384.6 379.6 374.6 370.9 363.6 351.1 343.2 339 334.2 330.7 326.3 322.9 317.9 323.6 329.2 337.7 347.7 358.6 370.9 380.6 390.2 403.1 415.8 430.7 449.6 470.2 495.2 516.7 520.7 514.7 502 487.3 468.6 448.2 426.7 406.6 390.6 374.7 363.2 355.2 347 338.9 330.8 323.2 315.9 307.7 301.4 295.7 289.5 283.1 277 270.3 261.4 260.3 261.7 261.7 262.1 260.9 257.6 252.3 245.4 237.1 227 215.3 206.7 209.8 227.3 242.6 255.4 268.3 279.3 287.8 295.2 300.9 308.2
616.9 628.4 634.1 647.7 658 663.9 676.2 688.1 698.7 709.3 720.5 732.1 738 750.8 756 758 731 694.6 666.7 652.3 650.5 644 631.3 593.4 553.1 523.3 497.1 481.5 469.5 460.3 455.3 451 446.4 442.5 439.6 435.4 432.5 429.5 425.3 418.5 410.5 400.5 392.6 383.5 374.1 364.3 358.5 351.2 346.1 341.7 343.7 345.9 346.9 352.8 361 370 375 378.3 383.7 390.3 395.4 397.9 400 405.5 413.3 422.4 431.9 441 452.3 457.5 465.9 468.2 478.6 490.5 494.1 495.5 497.4 502 510.2 517.4 528.1 542 557.7 569.5 590.3 610.3 624.7 632.8 638 640.3 640.4 637.9 627.6 615.6 601.8 587.2 572.5 562.7 553.7 544.1 534.8 527.7 518.8 510.4 503.5 498.3 490 478.9 468.6 459.4 452.6 446.4 438.8 433.6 432.4 429.5 424.2 418.7 414.2 409.1 404.6 401.4 397.9 394.5 391 387 383.7 378.9 368.9 365.5 362.3 353.9 344.8 337.6 332.9 328.1 324.4 320.9 318.4 322.2 327.2 335.4 346.4 355.6 365.7 377.9 389.9 402 415.7 431.9 451.3 470.9 491.2 499.6 494 482.7 466.7 449.6 430.7 409.5 390 378.7 369.3 362.6 354.5 345.8 337.6 329.5 320.8 312 304.7 299.8 294.1 286.7 278.8 272.6 267.5 264.5 268.2 269.6 269.2 267.8 265 258.6 251.1 243.5 234.5 221.8 207.8 210.5 224.3 239.6 251.8 264.4 276.3 286 294.2 302.5 310.1 316.1
607.9 618.3 629.1 641.6 647.8 660.8 670.9 684 694.6 704.8 718.1 728.5 741.1 749.3 752.8 758.5 751.7 717.6 698.2 688.3 690.7 681.4 638.8 597.2 560.1 528.2 505.7 489.4 480.3 472.7 468.9 465 460 457 454.4 451.9 450.9 446.5 442.5 437.1 425.8 414.9 404 393.6 382.6 371.4 362.4 352.3 348.4 343.8 339.9 340.5 341.8 342.4 349 356.5 359.7 368.1 375.4 380 381.7 381.5 380.7 383.5 389.8 397.8 409.4 419.5 432 436.2 440.5 447.4 458.7 468.2 473.5 481.2 484 492.4 503.1 512.9 523.8 540 556 567.7 587.1 605.1 617.2 626.9 629.4 637.6 641 636.3 627.9 616.6 598.6 582.7 568.5 557.7 547.2 540.7 533.6 525.4 518.4 511.1 504.8 498.6 491.8 483.1 471 461.7 453.7 446.3 441 438.7 436.4 432.9 428.5 423.8 420.2 416.5 412 407.5 402.8 396.2 391.9 389.2 384.6 381.2 376.8 363.8 360.8 352.7 349.6 337.4 333 328.8 325.7 321.9 319 315.9 319.6 323.8 331.9 339.1 349.6 363.1 375.9 388.8 400.8 414.9 431.8 446 459.8 468.8 467.9 458.5 446.3 431.4 416.8 400.2 384.7 375.9 369.1 361.6 352.8 344.7 336.6 327.7 318.6 309.4 302.8 297.9 291.7 284.5 276.4 275 275.6 276.6 276.3 275.9 274.8 272.1 265.4 256.8 248.8 240.7 229.5 208.9 211.2 219.9 236.4 249.7 260.7 272.3 283.6 293.7 301.8 310.4 317.9 323.6
599.9 610.1 622.8 630 642.1 654.3 666.3 681.3 694.4 704.9 716.3 725.9 734.8 742.3 746.9 752.1 755.1 751.2 744.2 729.4 727.1 697.8 655.7 612 571.6 543.7 523.2 502.7 491.5 488 485.5 482.3 478.1 476 474.4 472.5 470.3 466.3 461.9 455.3 442.7 430.9 421.1 408.5 396.5 387.6 377.7 367.4 358.8 355.4 345.7 338.2 337.9 335.9 337.4 341.1 350.4 358.4 363.5 365.6 363 362.3 361.1 365.6 371.5 378.8 392.1 403.1 409.3 414.4 415.5 425.9 439 450.2 458.9 466.2 469.2 480.7 495.2 507.9 519.9 533.8 553.6 570.3 586.3 603.6 613.1 622.7 633.5 639.4 644.5 639.2 627.8 616.3 597.2 579.7 565 553.1 543 535.8 530.3 524.3 517.7 511.2 504.6 497.9 491.7 483.3 472.1 464.4 458.8 453.1 448 444.3 441.1 437.6 432.6 428.1 424.5 420.7 416.7 411.8 405.6 402.3 393.6 387.8 383.6 376.6 375.1 370 366.8 357.2 346.2 347.3 346.8 337.5 331.1 326.2 320.9 317.5 311.9 315.8 321.7 329.1 337.7 349.8 361.4 373 385.8 398.2 411.2 422.6 433.9 441.9 442.5 436.1 428.1 416.1 405.7 395.8 385.4 375.3 366.5 356.8 349.1 343.5 335.4 325.8 316.1 308.6 302 296.2 289.9 284.1 281.1 280.9 285.3 284.9 282.6 281.1 278.4 271.6 263 254.9 248 239 224.3 210.4 216.1 232.9 245.9 257.2 269 280.4 291.1 300.6 309.2 318 325.7 331.5
597.8 604.4 609.6 617.9 640.6 656.1 668.5 676.9 689 702 715.6 724.9 734 738.2 741.5 744.7 750.9 754.7 749.4 744.2 735.8 705.1 660.6 623.4 587.9 558.5 539.5 525.6 508.7 506.4 505.7 501.7 498.2 497.5 496.2 494.1 490 487 481.8 472.7 460.4 449.6 437.4 425.9 414.7 401.9 390 379.3 373.1 368.3 364.1 354.8 350.2 346.6 331.5 330.6 338.4 346 347.7 346.5 342.1 341.8 342.5 347.8 356.4 364.2 370.1 373.7 380.6 390.8 395.3 409.5 423.1 433.1 440.3 448.6 457.4 472 485.9 500.4 515.3 529.2 548.1 569.6 587.7 604.2 612.7 625.3 637.5 642.4 643.6 637.3 627.3 616.2 596.5 579.2 564.8 552.2 542.1 534.4 529 522.6 515.9 508.8 502.4 497.5 491.2 484.2 476.4 469.2 464.4 458.7 452.8 450.4 446.8 442.4 437.9 433.8 430.9 427.4 422.1 413.6 410.2 408.1 405.2 398.2 389.2 376.6 370.9 366.1 360.3 354 352.3 355.2 350.4 343.1 336.5 330.8 325.2 321.5 315 308.8 312.9 318.4 325.7 337.4 348.8 356.4 370.2 383.8 393.7 401.9 410.6 418.2 419.6 416.2 410.7 407.1 398 390.3 380.1 371 361.7 354.7 348.6 340.8 331.4 321.1 312.2 305.8 300.9 295.6 290.2 288 288 289.8 291.6 289.6 287.2 283.5 277.4 269.4 261.4 255 248.8 239.3 224.2 216 219.4 239.9 251.9 264.4 276.9 288.1 297.9 307.2 317 326.2 333.1 339.3
592.3 594.7 597.6 614.3 633.8 652.8 664.9 674 684.1 701.5 714 719.8 726.6 733.5 737.8 742.4 746.2 745.1 744.3 743.2 739 720 680.9 638.5 598.9 569.5 558 543.9 525.8 522.8 524.1 524.7 519.6 518.2 520.6 518.2 513.5 507.2 501.3 492.6 485.5 476.5 460 444.9 431.2 416.5 401.4 391.6 388.8 381.8 377.1 368.5 364.8 356.9 344 335.3 331.7 328.5 331.1 330.6 331.5 332.8 333.1 333.1 335.3 340 343 351 359.9 369.3 377.5 394.7 409.9 418.3 423 429.2 446.8 460.4 475.6 491.6 507.9 524.5 542.7 562.7 584.7 603.3 612.8 626 637.7 643.3 642.9 638 628.6 615.2 600.1 583.1 569.2 555.3 543.3 535.4 529.8 523.1 517.6 513 508.2 502.5 495.3 488.1 480.3 473.1 467.4 461.7 458.2 455.4 451.4 447.4 444.2 440.9 437.3 432.6 426.1 416.4 419.2 415.6 412 406.4 399.8 394.9 385.2 381 375.4 371.1 364.7 357.6 351 345 340.5 335.5 329.1 323.4 319.3 315.3 309.5 310.7 315.3 323.4 333.3 341.6 353.2 367.7 376.8 383.9 392.2 401.5 403.8 400.3 397.9 392.7 386.4 380.3 373.5 365.1 358.5 354 346.4 334.6 324.1 316.2 307.6 302.1 298.3 295.6 295.2 296.3 294.9 295.6 295.1 292.4 288.5 281.6 274.1 266.2 260.1 254.8 249.2 240.8 226.1 216.3 220.8 241.8 256.7 270.8 283.4 293 303.4 314.3 324.6 331.8 339.8 349.5
577.7 580.1 601 613.7 632.6 647.4 660.6 672.5 687 698.1 709.6 719.9 726.9 730 732.9 737.2 737.8 735 735 734.8 730.6 717.3 685.5 641.7 607.1 583.8 575.2 563.2 552.1 544.4 543.9 544.6 542.1 544.1 545.1 542.9 538.8 533.2 524.1 516.9 509.4 499.2 485.2 464.4 448.9 432.6 414.4 406.1 403.4 397.1 385.8 377.7 368.6 359.6 348 337.6 331.6 327.5 326.6 325.4 325.5 327.5 327.3 327.2 321.5 322.9 329 338.7 347.5 354.2 361.3 379.1 393.3 398.8 402.5 416.1 430.7 446.1 463.8 482.1 499.7 518.8 539.3 559.6 580.5 597.6 609.4 623.4 634.6 639.9 642.4 635.1 625.1 617.6 605.6 589.7 574.3 558.6 545.7 537.3 532.6 528.6 525.8 521.2 515.7 509.5 500.6 493.7 486.4 478.8 471.2 466.4 464.2 460.1 456.7 454 449.7 445.6 441.5 435.5 424.1 427.9 423.4 418.6 414.5 409.7 406 401 395.4 388.6 383.2 377.3 369 361 354.8 348.1 342.8 337.9 331.6 325.6 321.5 317.9 313.9 303.8 308.2 313.1 320.2 328.7 335.5 346 360.5 370.3 376.9 385.6 388.3 385.6 382.7 379.4 375.2 372.6 366.5 357.7 353 350.7 343.1 330.8 319.7 312.5 307.6 304.8 303.8 303.7 303.6 301.8 300.1 299.2 297.8 293.1 285.4 277.5 270.3 264.1 259.1 254.4 249.4 242.3 230.2 214.3 221.5 244.6 261.1 275.9 288 298.2 310.3 320.4 329.1 338.3 348.6 358.9
565.9 580 601.5 613.5 627.4 643.2 658.2 670.5 685.6 698.4 710.3 721.6 724.3 723.6 725.9 725.7 724.6 725.5 723.5 719.9 714.7 710.5 698.1 657.2 624.4 603.2 596.1 586 576.9 565.8 563.7 566.5 568.2 571.5 570.3 566.7 562.2 556.8 549.8 538.1 529.4 519.8 500.6 479.5 459.7 441.2 425.2 420.6 415.8 406.6 391 381.4 372.1 360.8 348.6 338.2 334.1 331.5 328.3 327.5 325.3 323.9 323.5 322 321.4 319.4 323.9 333.7 339.3 343.8 349.2 361.8 372.4 379.4 388.1 401.1 416.8 433.3 451.8 471.1 491.5 511.7 533.8 554.2 575.6 593.2 609.6 624.6 635 638.9 637.8 633.8 628.2 621.3 611.4 596.9 579.5 563 549.4 543.3 539.5 537.4 534.4 530.3 524.2 515.7 507.6 499.6 491.8 483 476.7 473.4 469 465.3 462.1 458.2 453.2 448 443.1 435.9 435.6 432.3 429.2 425.7 421.6 417.6 413.3 407.9 401.1 394.7 387 380.3 374.7 367.8 360 352.6 346.6 340.7 334.3 328.8 323.1 318.4 315.3 312.6 305.6 305.5 310.6 316.9 323.3 331.7 345.3 358.1 364 369.5 371.5 370.2 370.3 369.1 368.1 366.3 356.4 351.4 346.7 343.4 337.1 326.7 319 316.1 314.8 313.4 312.5 311.6 307.5 305.1 303.6 301.8 297.5 290.7 282.2 275 268.8 262.8 257.8 253.8 249.9 245.2 234.2 228.9 216.4 243.9 264.4 279.8 292.9 303 314.2 324.7 334.9 344.6 354.9 363.8
556.3 577.5 594.3 606.9 620.8 636.7 655.5 673.5 688.7 699.8 710.2 714.3 715.9 716.3 715.2 712.5 711.3 708.7 706.9 702.7 702.7 702.1 694.5 675.7 646.7 630.1 618.3 604.2 593.4 581.4 582.9 594.7 597.1 599.2 595.1 592.2 589.2 579.7 568.2 558.7 545.7 528.6 510.3 488.3 465.9 448.4 439.1 431.9 423.2 411.8 399.7 384.6 372.8 361.3 351.3 346.5 341.9 336.6 334.9 331.5 327.2 323.4 322.1 323.6 322.7 319.3 322.6 326.9 330.8 332.4 335.7 346.3 352.9 363.2 375 392.6 407.1 422.9 440.5 460.8 481.7 504 527.3 548.1 570.2 589.8 606 620.8 633 638.6 638.8 634.5 629.7 622.4 613.6 599.8 583 567.5 555.1 550.4 547 545.8 542.5 537.8 531.1 520.4 513.9 506.7 496.8 488.4 485.3 479.6 474.6 469.7 464.2 459.5 454.7 449.6 442.8 444.4 441.8 438.3 434.9 431.3 427.6 422.9 417.7 412 405.4 398.1 390.2 383.6 376.7 371.2 365.5 358.8 350.1 341.7 336 334.2 327.4 320.4 316.3 313.4 309.6 303 304.3 308.8 313.7 319.7 329.8 343.8 350.5 353.1 353.6 358.4 363.6 362.7 359.9 355.1 349.8 345.4 340.1 335.1 329.1 324 322.3 322 321.7 319.7 317.5 312.8 309.8 307.5 305.4 301.2 294.8 286.1 279.1 272.8 266.9 261.4 256.5 252.8 248.4 243.4 238.5 230 217.8 245 267.9 283.6 295.7 306.1 317.4 328.8 338 346.1 355.5 364.6
552.6 571.1 585.9 601.3 621.9 640.2 657.5 676.5 693.2 705.9 706.3 708.1 710.9 707.9 705.1 703.1 698.4 694.6 691.6 691 691.8 688.5 683.9 678.3 673.6 665.8 650.9 637.5 629.3 614.2 617.8 629.8 631 631 626.6 626.5 621.8 607.4 593.1 579.7 564.2 543.6 521.5 496.4 475 459.1 451.7 439.6 428 414.9 400.6 386.5 375.7 366.3 358.8 353.8 348.5 343.8 340 335.9 333 330.9 327.9 325.9 322.2 319.1 319.8 322.6 323.5 323.6 327.7 334.5 343.2 352.7 365.3 383 397.9 411 429.3 449.6 471.1 494.5 519.3 540.8 564.5 586.8 602.4 616.8 627.6 634.7 635.5 632.3 628.5 623.1 613.2 601.7 589.3 577.3 564 557.4 556.4 555.1 553 547.7 540.5 531.9 524.4 513.1 502.5 495.1 489.5 483.4 476.9 472.1 468.4 462.9 458.1 454.7 452.7 451.4 447.6 443.3 439.7 436.8 433.1 427.8 421.3 414.8 407.8 400.6 392.9 385.7 378.6 372.5 366.7 362 353.5 344.5 335.9 335.5 331.1 324.3 318 314.8 311.9 308.3 301.8 301.2 305.9 309.6 318.3 329.3 340.1 340.9 342.8 350.2 357.3 356.7 353.5 350.7 344 338.8 333.5 329.4 327.3 326 325.6 325.3 324.2 321.5 317.6 314.3 311.4 308.9 304.8 298.5 290 283.1 277 270.4 264.3 259.6 255.2 252.2 250.2 247.9 234.4 219.8 230.3 253.7 271.1 286.1 296.9 308.1 320.2 330.3 337.8 345.7 354.9 362.8
547.9 563.4 582.7 601.1 623.3 644.2 663 681.2 697 706.5 708.1 704 698.6 694.7 689.6 686.6 682.5 677.1 678.6 679.6 677.2 675.6 674.4 669.9 664.7 659 657.2 662 661.2 660.3 659.2 662 658.6 657.3 656.8 657.7 653.1 641.8 620.5 601.4 582.7 554.3 528.1 507.1 485.3 472.9 461.4 447.3 434.9 421 407.2 395.1 382.5 375.1 369 363.2 356.7 351.5 348.6 344.4 340.7 336.6 330.8 327.5 325.8 321.9 318.1 319.5 320.2 318.7 321.3 328.2 338.1 346.4 360.2 373.2 386.1 401.1 418.5 437.8 458.9 481.8 507.5 530.6 554 579.1 599.6 614.1 624.8 631.1 631.7 628 626.9 625.4 619 610.5 601.5 590.3 577.8 568.3 567.7 567.4 564.8 560 552.4 541.6 528 516.8 506.3 498.6 492.4 487.1 481.4 476.7 472.2 466.9 465.5 462.3 461.9 459.8 455.5 450.9 445.8 441.3 438.4 432.8 426.5 419.2 412.7 405.9 397.7 389.6 381.6 375.2 370.2 365 359.6 351 340.8 333.7 331.6 326.5 320.3 316.3 312.7 309.4 306 299.9 298.9 303.2 306.9 315.7 327 331.3 334.2 342.7 350.1 349.4 346.8 343.9 337.5 333.2 331 330.4 329.5 329 328.7 328 325.5 321.7 318.5 315.5 312.3 307.7 301.6 295 287.6 281.6 274.3 267.2 262.2 258.3 256.1 254.4 253 238.5 221.3 227.7 245.2 260.3 273.2 287.4 298.9 310.5 321.9 330 337.3 345.7 355 362.3
546.3 562.7 580.3 604.1 626.8 645.5 665 683.1 696.1 704.7 707.6 698.2 690.1 680.8 675 671.5 666.4 664.1 665.2 667.4 667.7 666.8 660.5 654.3 651.6 654.3 654.4 659.9 665.6 670.2 678.8 682.8 679.1 679.2 684.1 686.8 680.5 665.9 643.5 619.1 588.1 558.2 535.5 512.8 496.7 483.6 470.3 457.2 444.1 431.3 421.4 407 394.9 387.4 380.3 374.1 367.5 362.8 357.1 352.3 348.3 342.7 336.4 333.7 330.3 324.8 319.7 317.9 319.8 315.3 319.2 325.5 334.8 341.5 353.7 366.5 378.5 393.4 407.8 423.4 443.2 466.1 491.6 513.8 540.3 570.5 596.2 611.2 618.7 621.1 622.2 624.7 627.7 630 627.7 621.4 611 598.9 585.4 579.3 580.1 577.9 573.9 567.9 559.5 548.1 536.4 524.9 513.5 505.4 499.3 492.4 485.7 479.5 476.2 474.3 471.3 470.3 470 468.6 463.5 457.8 452.5 448 443.3 437.8 431.7 424.4 417.6 409.9 400.4 391.8 384 376.5 370.6 364.7 361.1 353.3 345.5 335.5 330.3 324.8 319.3 316.6 313.4 310.2 307.5 303.6 296 295.6 300.1 303.1 310.7 320.9 323.8 333.3 339.4 340.3 337.4 334 331.8 331.6 332.3 332.8 332.1 331.4 331.1 329.7 326.9 323.6 320.6 316.9 311.2 304.9 298 292.2 286.4 279 271.5 265.4 262.1 259.8 259.5 257.6 244.9 222.5 230 227.5 251.1 263.7 275.8 287.7 298.1 309.5 320.9 329.4 337.3 344.8 351.1 355.3
543 558.2 575.5 596.2 622.2 645.2 664.3 679.3 690 693 698.9 696.8 682.6 672.4 662.5 658.3 653.8 654.6 657.2 657.2 653 645.6 644.5 639.9 640.7 644 644.7 652.2 660.7 668.7 675.3 682 684 687.2 683.8 684.7 681.1 673.9 662.1 637.9 598.8 566.2 540.6 524.4 508.7 494 481.5 469.5 455.9 444.6 432 417.3 406.7 399.3 392.3 385.7 380.4 372.2 367.1 362.5 356.8 350.3 344.9 339.9 335.2 329.7 323.3 318.3 317.3 312.8 318.7 323.8 329.5 336.9 347.8 359.6 370.4 383.3 397.6 411.2 427.8 449.9 474.8 498.6 527.2 555.6 584.8 605.2 610.8 612.7 614.1 618.4 625.3 630 629.6 623.4 614.8 603.2 590.3 584.6 583.9 582.4 579.1 574.2 566.4 559.7 550.2 536.7 524.4 515.7 506.1 497 488.7 485.6 482.9 479.6 476.8 476.7 477.6 476.3 470.4 463.1 457.7 453.1 447.8 442.2 436.3 431.7 423.6 413.4 402.7 393.4 385.7 377.7 371.9 364.5 357.6 351.7 346.7 340.6 330.7 326.7 324.8 317.2 312.7 310.7 307.6 303.8 300.6 294.5 293.5 297.5 300.6 305.7 314.8 322.2 328.4 328.3 325.3 324.9 329.6 332.1 333.1 334.1 334.4 333.7 332.4 331.1 329.2 326 321.4 315.2 308.9 302.1 295.7 289.8 284 276.9 270.7 265.4 262.9 261.8 262.3 250.6 230.6 228.4 243.3 254 254.5 267.1 278.2 287.4 296.3 307.2 319.4 327.8 335 341.4 347.1 351.7
537.1 549.7 565.5 586.6 612 633.1 648.5 664.2 681.5 691.6 694.5 685.8 670.3 662.4 654.5 648.9 648.1 650.3 652.7 648.4 633.1 630.1 629.5 627.9 626.2 627.8 631.9 638.5 648 659.2 668.4 675.5 678.4 681.2 677.3 672 668.9 663 656.9 647.9 613.5 578.5 552.6 537.2 517.1 505.3 495.7 485.3 474.9 460.9 443.3 428.1 421.3 413.5 405.4 399.1 391.1 383.8 376.9 372.9 366.7 359 352.8 345.8 338.5 331.4 324 318 308.9 310 315.4 320.4 325.3 329.4 339.6 350.4 361.8 374.8 388.2 400.9 415.6 436.1 461.5 483.6 510.8 536.6 560.3 581.2 591.4 593.8 604.3 610.6 619.2 625.6 622.9 620.5 615.6 603.8 593 585.9 584.7 584.4 583.3 580.2 574.8 567.4 557.4 547.1 534.5 521.4 511.7 503.3 496.2 492.5 488.5 485.1 486 488 487.9 483.9 475.6 468.3 462.9 457.7 451.6 446.6 442.2 438.5 427.8 417.1 406.3 396 386.4 378.1 371.4 363.8 357.1 351.5 346.7 341.3 337.8 335.7 331.1 325.4 314.2 310.3 307.4 303.4 299.5 295.8 290.3 293.2 295.5 298.3 310.8 310.3 317.5 318.5 318.7 324.3 329.7 333.5 335.2 336.3 336.4 335.1 333.9 331.8 329.3 325.9 319.4 312.1 305.7 299.8 295.1 289.3 283.2 276.2 270 264.8 264.7 260.1 247.9 231.3 226.7 240.2 253.6 261.6 267.4 273.4 278 286.8 295.1 306.1 317.7 326.1 331.6 337.3 342.6 346.7
530.2 540 555.8 574.3 596.5 618.5 642.8 659 670.8 679 686.1 684.3 670 658.1 651.5 643.7 640.5 640.8 636.7 629.9 621.6 616.4 615.2 613.2 614.2 616.9 618.4 622 635.4 646.2 654.3 658.2 664.2 669.4 667.7 660 655.1 651.1 648.1 641.4 625.8 594.5 571.1 551.3 533.9 526.2 513.6 503.4 494.5 477.5 455.5 445.9 436.1 427.6 419.1 411.6 404.4 396.8 389 383.4 377.2 369.4 360.4 353.2 343.7 333.5 324.5 319.3 311.8 308 313.3 318.2 321.9 324.1 333.4 343 354.2 364.4 377.6 391.5 405.4 423.3 444.4 465 488 511.3 532.7 553.4 567.9 575.1 589.7 602.5 612.5 617.5 614.6 609.5 604.6 597.7 590.3 585.8 583.3 582.2 580.6 578.1 573.5 566 557.6 548.5 536.9 525.1 517.5 509.1 503.5 498.4 494.6 493 499.2 500.1 498.8 489.9 477.9 471 466 460.3 453.7 450.2 447 443.7 433.1 422.5 410.1 398.8 389.4 380.3 372.1 362.2 356.8 350.9 343.5 340.7 339 335.1 330.6 325.4 318.4 309.9 305.1 301.6 297.9 294.3 291.8 285.7 292.3 293.1 296.8 301.2 309.9 313.3 317.5 323.8 331.1 337 337.8 337.9 338 336.8 334.2 331.1 326.7 321.2 315.3 307.9 303.1 299.1 293.4 286.5 279.8 274.2 269 265 258.2 244.9 227 231.9 241.9 252.9 262.2 269.5 275.8 279.4 281.1 284.4 294.8 305.3 316.4 323 328 334.3 340 345.5
520 533.5 551.6 573.8 595.8 614 630.5 644.1 655.3 664.2 672.3 675.7 673.1 669.8 663.9 651.8 639.6 630.8 622.6 617.5 611.8 606 600.4 597.9 600.3 601 602.6 606.7 615.4 626.5 634.4 637.7 648 652.3 650.6 645.2 641.8 638.9 635.9 629 625.9 615.5 603.5 582.6 565.3 551.3 539.1 529.6 518.2 494.5 471.3 461.8 451.7 442.4 434.2 426.4 419.4 411.3 401.3 393.3 387.8 380.4 371.8 364.3 353.5 340.6 329.2 320.4 312.8 305.7 311.9 315.5 317.8 321.5 330.3 339.8 346.2 354.6 366.6 378.7 391.3 406.1 424.4 444.9 467.7 490.9 514.2 536.5 550.2 561.3 577.7 587.9 594.3 597 598.6 596.9 598.8 595.7 588.6 584.3 583.6 582.1 578.1 575.5 571.7 566.4 562.8 554.4 542.1 529.8 520.7 511.6 505.5 502.4 497.9 499.7 509.6 510.7 505.2 489.9 479.6 470.7 463.1 458 452.2 450.8 448.8 445.4 439 426.1 411.4 400.4 391.8 383 372.5 359.6 354.6 345.9 338.6 333.5 331.9 330 327.4 323.4 318.7 313.2 307.4 302.3 297.3 293.1 288.6 283.7 283.6 286.5 291.4 294.6 301.1 308 316.9 325 331.1 335.5 336.7 338 337.2 335.6 332.9 328.1 322.6 316.5 310.2 305.9 302.3 298.4 289.5 281.3 276.4 271.2 266 259.5 246.7 228.7 236 246.5 256.8 265.2 271.6 278.1 282.1 285.1 288.8 285.6 293 303.4 312.2 318 324.5 332.1 338.5 343.9
513.3 526.9 544.9 564.8 586.1 604.6 618.5 631.1 641.5 652.4 663 676 679 674.8 668.9 659.9 645.6 628.3 619.1 610.5 604.2 598.4 592.9 587.2 584.2 584.7 588.6 593 596.8 602.3 609.8 618.1 626.2 630.8 630.4 630.7 629.5 629.4 625.9 624.7 621.5 618.1 618.6 617.5 606.3 591.6 575.2 557.2 532.9 508.4 487.1 476.2 465.2 456.6 448.9 441.1 433.3 424.7 414.8 405 399.3 391.3 384.1 375.5 363.7 350.5 338.7 326.1 311.8 307.3 309.8 312.3 314.2 317.9 327.6 335.4 338.8 346.4 354.6 366.9 378.8 391.9 411 430 450.9 472.4 498.7 523.6 535.2 544.8 558 569 580.7 581.1 584.9 587.7 591.7 589.3 580 580.4 578.5 579.9 579.1 572.4 570.7 566.8 563.6 555.3 544.7 530.3 520.6 512.8 503.7 501.1 493.2 495.3 508.1 508.1 493.4 483.2 476 460.8 456.3 449.2 445.3 444.8 446.3 442.1 436.2 426.5 410.9 400.6 392.4 381.3 367.4 355.9 352.1 344.8 337.7 332.2 329.4 327.6 325.8 323.5 320 315 308.6 303.5 298.6 293.1 288.8 284.5 281.1 279.7 285.5 293.8 294.6 306.5 316.6 325.3 329.9 333 335.4 335.3 333.6 332.5 328.3 322.9 317.3 311 307.1 304.1 299.2 292.6 286.9 279.6 272.4 265.7 259.3 248.1 235.8 233.6 249.8 259.5 269.1 276.1 281.3 286.5 290.4 293.9 296.5 296.5 291.2 298.5 306.4 315.9 322.9 330 335.9 340.6
507.4 519.7 535.9 553.8 574.3 592.1 604.8 614.5 629.1 647.3 664.8 675.7 680.4 682.7 677.1 662.4 646.6 635.7 617.4 605.4 596.3 588.3 585.4 578.4 573.8 575.2 576.5 578.8 583.4 588.9 595 602.1 609.5 613.3 615.1 615.9 619 619.1 620.2 620.9 615.7 612.8 614.2 621.4 622.3 617.6 603.3 575 540.3 517.2 499.9 488.6 477.9 468.1 461 453.3 445 436.7 427.6 418.3 411.1 403.3 395.1 386 375.1 361.8 345.6 326.6 317.6 307 308.5 310.5 310.1 311.9 322.3 326.4 332.4 339.7 346 355 365.5 378.2 393.9 410.8 435.5 458 478.3 498.4 515.5 527.3 534 545 559.5 566.1 570 574.9 577.9 574.2 566.6 573.8 572.4 572.5 571.4 564.2 558.5 555.4 554.1 547.4 535.5 522.4 511.7 505.2 499.2 491.8 481.8 483.4 491.7 484.2 472.6 466.9 458.2 446.6 445.2 438.8 436.5 435.4 433.7 431.7 431.6 423.3 407.3 397.3 388.1 373.9 360.4 355.1 346.7 340.6 336.6 334.2 331.1 327.1 326.2 324 321.5 317.4 311.3 305.9 301.3 295.4 290.8 288.1 283.2 278.6 280.4 288.1 291.8 302.8 314.7 321.8 327.2 331 332.2 331.4 330.9 327.9 322.6 316.6 311.6 307.8 303.6 298.9 293.4 287.4 286.9 277.9 265.8 253.6 243.8 233.6 232.9 252.7 262 271.2 279.8 285.2 290.2 294.8 299.3 302.5 302.9 301.5 294.2 298 304.4 312.3 319.2 325.5 331.5 337.3
500.1 512.6 528 546.2 560 578.2 595.6 612.7 630.3 650.9 665.9 678 686.3 685.4 675.9 662.2 650.8 636.5 618.4 603.3 593.8 584.8 574.3 569.9 565.1 563.8 564.6 567.1 571.1 574.9 581 587.2 591.7 597.3 601.9 606.2 607.9 609.1 611 608.5 604.3 604.2 607.9 615.9 623.1 625.3 610.8 578.7 552.4 528.2 510.5 500.1 490.5 480.1 472.2 465.8 457.5 449.3 440 431.2 423 415.2 406.1 398.2 387.6 371.3 349 329.6 314.6 307.2 309.1 309.8 306.2 306.1 313.6 320.2 327.8 334 338.5 345.9 352.1 365.1 383.1 401.5 424.2 442.4 461 477.1 490.9 501.9 512.1 526.2 535.4 540.8 547.6 555.6 558 556.7 553.5 564.3 565.7 561.5 555.7 551.8 543.3 536.9 532.8 527.9 519.6 507.8 495.6 489.1 484.2 475.7 467.5 465.8 467.3 457.5 446.6 443.2 435.2 427.3 427.2 424.7 419.1 419.2 417.7 414.9 417.2 415.1 399.4 388.4 377 365.5 358.9 353.1 344.5 333.3 333.9 335 332.5 326.9 328.7 327.8 324 319.7 315.5 310.5 305 299.7 295.6 292.3 286.7 280.6 276 280 289.9 299.5 311.2 319.2 323.7 326.5 328.3 328.7 326.4 321.7 315 311.7 308.2 304.4 299.1 293.5 287.7 281.6 274.5 265.6 249.5 236.7 233.4 244.3 253.2 264 273.3 282.5 289.3 295.5 299.8 303.1 305.4 306.6 305.7 303.7 298.9 296.8 302.7 308.6 314.7 322.6 327.4 333.7
495.1 505.3 521.5 542.2 558.9 577.7 595.5 612.7 634.2 651.5 667.6 680.4 690.5 690.8 678.8 664.2 651.5 636 623.5 607.9 595.6 584 573.7 565.7 557.7 554.7 555.8 557.4 559.1 561.7 566.3 572.8 577.9 582.8 588 592 595.2 598.4 599.2 598.3 598 598.4 603.5 611.1 619.9 626.3 622.1 600.6 566.5 540 521.4 513.9 503.5 492 485.4 479.2 472.5 462.4 451.5 442.1 432.8 423 415.6 408.3 393.6 372.2 347.3 325.8 310.9 304.5 305.6 303.7 302.6 304.8 308.6 314.2 320.3 327.1 333.1 339 346.8 356.5 375.7 394 412.6 428.3 444 459.8 471.2 480.9 489 497.3 508.6 518.8 523.8 529 534.6 536.4 540.5 551.4 550.3 550.6 542.7 534.3 526.2 516.7 512.4 506.4 495.6 484.5 474 470.5 470.1 459.2 446.1 439.1 438.6 430.6 422.7 418.3 405 402.1 401.3 398.6 398 398 397.9 398.1 398.3 393.6 384 377.5 369.8 362.9 356.3 348.9 339 330.3 329 329.3 327.6 324.1 327.1 329.6 326.2 321.3 318.5 314.8 309.5 304.6 300 294.9 290.1 284.8 279.6 273.8 283.4 294.2 308.1 315.8 320.2 324.2 326 323.8 320 314.6 311.4 307.8 304.5 302.6 298.3 289 281.2 272.9 262.9 248.5 235.8 245.4 257.7 263.8 268.4 277.5 286.1 294.8 299.3 304.3 308.4 309.3 309.5 310.1 308.5 306.1 303.6 298.9 303 305 313.7 320.5 323.9 329.3
489.6 502.8 519.1 536.5 558.8 579.4 597.3 615.6 634 651.8 668.9 683.4 694.9 695.9 685.2 668.1 655.3 640.8 628.7 616.6 603.3 589.6 578 567.4 558.5 552.6 548.5 549.7 550 550.9 554.1 559 563.9 569.1 573 576.8 581.8 586.2 589.9 590.4 590.5 593 598.5 606.5 617.7 627.1 633.2 620.6 585.4 557.5 537.8 526.1 515.2 505.2 500.2 493.1 486.3 477.7 467.7 456.6 444 429.5 414.1 399.1 382.4 364.2 342.3 325.5 312.5 307.9 305 305.9 300.2 302.9 304.6 309.7 315.2 321.4 327.5 332.6 341.1 353.8 369.8 383.8 400.3 415.4 427.7 440.3 451.5 462 471.7 480 487.3 495.1 501.6 506.5 513.8 517.3 528.1 535.9 533 533.8 525.7 513.7 505.7 493.3 484.8 477 467 456.7 456.1 455 444.7 432.4 422 414.6 409.7 406.5 401.7 395.4 388.9 387.1 383.1 383.5 381.6 381.4 378.7 380 380.3 375.1 372.5 368.3 364 356.6 351.4 343.8 333.4 326.7 325.5 326.3 325.9 322.8 321.7 325.8 326.9 324 322.2 318.5 313.9 309.3 304.4 299.9 298 293.2 286.5 278.5 272.2 288.4 302.8 311.8 316.8 319.7 317.9 315.2 312.5 310.6 307.5 302.9 298.5 296.9 293.4 284.2 271.7 260.1 246.1 237.5 249.1 263.8 268.3 273.5 281.3 289.5 297.9 305.9 309.8 314.8 317 315.1 315.1 314.6 311.7 309.1 307.7 305.9 304.9 304 307.5 316.1 321.2 326.2
486.1 498.9 515.6 532.7 552.4 571.9 593.8 612.9 631.9 649.9 666.4 679.3 688.2 691.7 686.5 673.8 664.8 654 645.6 632 617.2 597.9 584.6 572.9 563.7 558.1 551.5 542.8 541.3 543 544.9 546.6 551 556.6 561.2 565.7 570.6 575.7 579 581.6 584.6 588.3 595.3 603.7 615 624.9 630.4 629.4 612.7 582.6 557 542.3 532.8 522.6 515.5 509.1 502.6 496.1 488 478.4 463 443.4 420.2 399 379.9 360.9 340.5 324.4 316.4 311.7 308.5 306.4 303.7 302 298.8 306.5 311.9 315.6 319.6 325.5 334.7 349 361.7 373.8 388.1 401.6 413.3 424.3 436.5 446.7 455.4 462.8 469.2 476.9 484.3 489.8 495.8 503.4 513.7 518.1 519.7 516.5 500.4 491.2 481.7 474 460 449.9 436.9 432.5 429.7 426 418.4 406 400.3 395 392.5 389.1 385.8 380.1 378.1 377 374.6 372.1 368.5 367.9 367.3 369 368.1 366.8 365.8 364.8 358.3 351.4 346.7 335.9 328.8 324.9 323.6 324 324 321.7 319 319.2 320.5 320.7 321.9 320.3 317.6 315 310.4 308.6 309.4 303 296.1 289.4 270.7 280.7 295.5 306.9 311.6 311.7 310.9 310.4 309.8 308.7 306.3 304.4 299.1 287 282 272.3 257.2 239.5 243.8 254.8 266.6 272.6 277 285.1 293.3 301.1 309.1 316.2 320.5 324.1 323.7 321.8 320.4 317.6 314.7 313.2 312 310.7 310.4 308.4 308.7 313.6 317.1 324.6
483.3 495.5 511.3 529 545.6 563.7 584.8 604.7 621 641.7 659.1 670.3 676.8 681.2 681.6 677.9 670.3 667 660.9 649.6 632.9 608.7 593.6 580.2 569.6 562.5 555.8 548 538 533.8 535.9 536.3 539.1 543.1 548.1 553.1 558.2 564.8 570.3 574.6 579.3 584.5 593.5 602.1 612.1 621.3 626.3 632.6 630.8 613.6 588.5 568.1 557.3 548.3 538.1 529.6 523.1 517.6 513 503.4 485.7 463.4 439.3 411.3 386.8 366.8 348.4 329.3 321.1 317.1 310 306.4 303.8 301.7 300.3 304.9 309.1 310.6 312.8 320.5 327.8 339.8 352.3 364.2 376.5 388.9 401.1 411.4 422.2 430.4 438.6 447.9 453.5 459.5 468.5 476.8 481.5 489.2 498.3 503.5 503.1 492.7 482 473.4 460.9 448.2 436.3 423.4 411.5 406 404.9 403.5 395.2 389.8 387.2 381.8 376.3 373.8 374.3 369.9 369.9 368.8 365.7 361.7 358.7 357.6 357 358.6 359.4 357.9 356.3 354.7 350.9 346.1 339 330.3 326.1 324.3 322.2 321.6 322.1 321.5 319 314.7 314.5 313.4 315.5 318.6 318.5 317.1 314.6 314.7 315 312.2 306.1 302.2 278.9 273.9 287.4 298.2 302.5 304.8 307.5 308.2 308.9 308.3 306.4 294.7 289.5 278.9 269 255.7 242.2 248.1 263.3 271.1 276.2 281.1 288.9 298.1 306.1 313.5 320.5 326.5 330.8 332 331.1 328.8 326.6 323.2 320.1 318.1 317.1 316.3 314.4 312 309.9 314.1 317.8 320.3
479.2 490.1 505 521.9 541 558.5 576.3 594.4 610.6 629.2 645.6 657.8 666.5 671.9 677.3 678.2 676.8 677.5 669.9 657.5 638.4 619.6 603.9 588.1 576.4 567.2 560.1 552.8 543.3 532.2 525.6 528 530.6 531 535.7 540.1 547 553.9 558.5 563.9 572.1 580.4 591.3 601.4 611.4 619.5 624.1 627 629.8 625 610 594.7 581.4 570.5 561.4 552.9 545.5 540.8 536.9 525.2 510.5 484.8 457.1 422.5 394.2 373.3 350.5 330.9 324.6 318.8 312.3 307.7 303.8 301.3 299.3 301.2 305.4 306.5 309.6 315.9 321 331 344.3 354.7 365.5 376 387.3 399.8 410.8 419.1 426.7 434.5 440.3 445.1 450.7 458.4 464.5 470.8 476.7 479 479.4 469.4 464 451.2 432.5 422.5 412.4 403.6 394.9 387.7 388.4 388 381 377.6 374.5 369.3 366.1 364.7 362.8 362.4 361 358.5 355 352.8 349.8 349.6 348.8 347.9 348.1 348 345.1 343 340.4 336.9 331.3 327.1 324.3 322.4 320.8 319.3 320.1 320.1 320.2 319 319.4 317 310.7 309 310.3 315.6 316.1 316.3 316.3 311.4 308.8 304.1 281.6 270.9 278.1 281.8 282.4 284.1 292.7 295.2 299.5 300.5 291.3 283.4 274.5 265.2 252.3 243.7 251.1 266 273.3 279.9 284.6 292 301.3 310.7 319 326.7 333.7 338.6 341.2 341.3 339 338.3 335.3 330.9 327.2 324.7 323.1 321.2 318.5 316.4 309.3 312.6 316.4 318.8
474.8 485.8 498.8 513.7 532.5 550.1 567.7 584.5 600.9 617.9 628.5 640.7 652.6 660 667.4 673.5 677.3 675.1 669.1 658.4 643.4 627.6 610.1 594.7 583 572.9 565.2 555.4 547.4 538.6 527.3 517.7 520.5 522.7 522.3 526.8 533.5 541.5 542.7 550.8 564.5 574.4 587.3 600.4 611.3 618.8 623.3 627.6 628.1 624.9 617 608.9 595.6 588.4 579.9 573 562.7 560.3 554.7 543.6 517.5 485.1 451.2 420.2 391.7 371 349.1 331.3 325.5 321 315.2 309.4 305.3 301.8 299 297.4 300.6 302.5 305.2 309.5 316.1 324.7 336.3 345.8 354.8 364.1 373 385.8 400.3 409.9 416.4 421.2 426.4 431.7 435.5 441.4 446.1 448.4 452.3 452.6 448.9 443.9 436.2 426.5 410.9 401.7 391.7 387.2 380.1 377.1 374.7 371.7 367.1 364.6 362.7 359.9 355.8 354.5 354.4 355.5 354.3 351 349.1 347 343.5 343 343.7 345.5 343.7 340.7 339 338.2 335.7 330.4 327.4 325.3 323.1 321.7 319.7 317.7 317.9 318.6 318.8 318.8 318.6 317.7 316.7 314.6 309.7 307.5 311.5 313.8 314.5 311.9 309.9 301.2 283.7 261.7 268.7 268.2 268.7 271.5 273.3 276.6 279.4 277 270.9 264.8 255.9 248.2 244.7 258.3 266.2 273.3 281.3 287.2 295.3 304.5 314 323.1 333.9 341.7 347.3 351 353.8 353.1 350.8 347.7 344 340.6 336.8 332.6 328.6 325.4 322 319.2 316.1 313.2 316.4 318.7
471 480.2 491 504.6 524.5 543.5 558.7 572.3 590.4 606.2 617.5 628.2 640.9 651.8 659.6 663.7 667 668.8 664.6 656 645.7 630.2 614.4 603.6 590.3 579.5 571.1 563.5 554.9 545.7 536.5 524.6 510.2 512.9 511.5 513.1 518 524.7 524.9 540.2 553.4 565.8 581.4 597.1 609.2 618.2 622.8 624.3 624.7 622.3 614.8 607.3 599.2 592 585.4 581.9 580.3 578.8 571.8 544.3 511.7 472.9 440.9 414.3 387.7 368.4 346.4 330.3 325.9 322.9 317.2 310.8 307.5 304.1 298.9 295.8 295.8 299 301.9 305 311.2 319.5 329.7 339 346.2 354.3 364.5 372.2 385.5 395.2 403.3 409 412.1 415.9 419.9 423.2 426.3 427.5 427.6 427.7 426.7 422.5 414.4 405.2 394.2 388.5 382.4 374.6 370 366.7 363.9 359.8 358.2 355.2 354.1 353.3 350.9 349 347.8 348 347 345.3 343.5 341.2 341.5 338.6 339.4 339.6 339.3 337.1 335.8 334 330.4 329.3 327.9 324.9 322.4 321.1 319 316.4 316 316.7 317 317.1 317 316.5 316.5 316 314.5 308.3 302.7 308.1 312.5 311.8 309.5 306.4 295.3 272.9 261.9 262.3 260 255.3 253.6 260 261.1 253 249.3 248.4 247.9 255.6 266.1 277.8 280.8 283.1 291.6 298 307.2 317.1 326.7 338.2 348 356.3 363.8 372.4 375.3 373 365.8 358.2 354.3 350 343.7 338.6 334.2 329 324.2 321.1 318.3 316.8 314.9 316.8
467.7 476.2 486.5 498.3 515.1 531 546.4 561 575.4 590.1 608.6 626.8 640.9 652.6 660.8 663.3 665 665.9 660 651.5 642.7 630.3 620.1 607.4 595.7 585.8 581.1 572.2 562.8 552.6 542.7 532.2 520 507.1 500.9 498.4 500.6 503.9 514.4 528.3 541.4 557.5 574.6 593 606.4 615.4 621.1 620.7 617.2 613.2 609.2 599.1 588.1 578.9 571.6 574.2 578.2 577.7 570.3 542.7 503.7 463.2 432.5 406.4 383.7 364 341.9 328.9 325 322.4 319 311.8 308.7 305.6 302.2 295.8 295.8 297.7 298.9 301 306.2 314.3 322.9 329.4 337.1 345.2 354 363.3 371.6 380.3 390.7 395.8 400.1 403 405.5 408.2 409.3 408.2 408.9 410.8 405.3 394.9 391.2 387.3 382.5 375.7 371.1 369.3 366.3 359.6 353.6 351.1 351.3 349 347.4 346.4 345.9 346 346.2 344.2 341.9 340.5 339.4 338.4 337.8 335.4 333.7 332.2 331 330.9 329.8 327.9 326.7 326.2 324.6 323.7 321.7 320.1 318 315.1 312 312.9 314.1 314.4 312.6 312 312.7 314.1 314.3 313 311.3 300.4 308.5 310.7 309 310.7 303.6 285 267.6 263.6 263.9 263.7 263.9 260.1 258.4 264.1 265.8 266.7 270 277.8 285.2 288.9 293.9 297.8 301.6 310.9 320.5 331.3 341.9 352.3 362.7 374.9 388.6 399.5 400.1 391.6 378.6 370.7 363.9 356.4 349.8 344.8 337.9 330.6 326.2 322.7 320.4 319.7 318.5 318.2
462.6 469.3 478.7 490.8 506.8 523.4 538.2 550.9 569.8 587.2 605.5 622.4 635.6 647.2 655.5 659.1 661.5 661.4 657.6 652.1 642.8 629.7 620.7 610.5 601.7 597 590.9 581.4 572.7 561.2 550.4 540.7 530.5 518.7 508.3 498 486.9 489.8 500.4 514.1 530 548.5 566.1 586.1 601.1 610.6 616.7 617.2 614 606.1 594.9 586.7 580.7 568.6 556.8 557.8 563.3 565.8 557.5 531.2 493 460 428.8 401.2 381.3 359.4 339.3 327.7 323.4 320.4 316.5 311.6 309.4 306.8 304.2 298.2 295.8 295.8 295.8 297.2 301.1 305 313.5 318.8 325.2 330.7 343.1 353.3 359.3 367.3 376.9 381.8 386.1 389.3 392.2 394.3 390.5 392.4 392.1 391.7 382.1 377 372.7 371.3 369.4 367.2 364.1 360.5 353.9 349.4 343.5 343.3 342.3 341.6 339.8 340.3 340.7 341.4 342.7 341.9 340.7 339.4 338.2 336.4 334.9 333.7 332.2 329.4 328.2 329.7 326.5 324.1 323.4 322.6 322.5 321.3 318.6 316.3 314.9 313.8 314.6 312.8 310.1 309.2 308.9 307.4 302.2 301.7 309.1 310 308.3 305.6 296.7 297 300.6 304 285.2 276.3 277.7 277.1 275 275.9 277.8 277.6 278.4 280.1 282.9 281.7 284.2 292.3 296 301.9 307.7 312.1 313.7 324.8 335.9 346.3 356.5 367.2 381.3 400 417 428.4 426.1 413 398.2 385.7 375.1 364.5 356.1 350.2 340.6 334.3 330.2 325.8 323.4 322.6 320.2 323.2
459.5 465 472.9 483.4 495 512.2 530.5 550.4 571.6 588.4 602.7 616.9 631.4 645.6 653.8 655.5 656 654.3 650.3 644.3 637.1 630.8 624.5 615.8 608.7 602.4 596.1 587.9 579.3 567.8 558.2 549.3 536.6 524.4 512.8 501.5 488.8 480 488.3 502.4 518.1 537.6 557.1 577.6 593.7 604.6 612 613.9 610.3 600.5 585.6 574.3 563.9 548.8 539.7 542.8 550.8 556.4 542.7 519.8 484.9 452.5 422.6 395.6 379.8 360.5 339.6 327.1 321.7 319.1 315.4 311.5 309.6 307.8 306.2 301.5 298.3 295.8 295.8 295.9 299.2 303.8 306.8 311.3 317.3 323.6 331.9 342.2 351 357.6 362.5 366.4 370.1 374.4 379.5 379 376.3 375.2 373.4 371 367.4 364.4 362.8 358.8 355.5 356.3 354 350.9 347.5 341.9 338.7 336.9 334.6 334.7 335.4 336.8 338.4 338.7 339.2 339.9 339.8 338.9 337.5 334.8 333.2 331.7 330.4 329.9 330.9 331.9 330.3 328 324.5 322 319.7 318.2 317.9 317.4 317.2 317.2 316.4 315.5 315.2 314.7 314.7 314.4 313.9 308.1 302.6 300.1 304.4 307.3 296.1 283.9 281.6 277.4 288.2 288.2 288.9 287 287.9 289.3 292 294.2 292 293.3 295.9 293.5 297.4 304 309.2 315.8 321.7 326.8 329.3 339.9 350.6 360.9 372 389.3 407.3 424.2 444.3 458.6 454.6 435 417.6 401.3 386.4 373.5 364.4 355.4 344.2 338.9 335.7 330.9 327.3 325.7 322.8 327.2
452.5 458.4 467.1 475.2 487.5 505.1 526.2 546.9 567.1 587.6 605.1 620.7 633.9 645.6 653.4 654 651.8 647 644.3 640.7 636.2 631.5 625.6 618.1 610.7 603.5 597.4 589 579.2 568.1 557.7 548.3 536.8 525 510.3 500.4 485.8 474.9 474.1 488.2 508.8 531.3 551.3 571.8 591.4 604.9 610.8 610.9 606.2 593 575.7 555.9 537.6 527.1 524.3 526.8 532.2 542 536.3 512 477.4 443.4 418.3 402.3 381.5 357.5 335.2 327.4 320.6 317.9 315.6 312.3 309.2 307 305 301.5 298.1 295.8 296 296.2 298.2 300.2 303 309.1 313 316.9 324.8 333.8 338 346.4 349.8 354 359.7 364.8 365.6 363.8 360.4 357.3 354.4 353.4 351.1 352 350.9 346.5 344.9 344 343.5 343.5 340.2 337 335.1 334.1 333.3 333.4 334.6 335.1 336.4 336.1 336.8 338.1 338.7 338.9 338 336.9 336.3 336 336.2 334.6 333.4 333 331.6 330.7 328.1 324.5 321.7 320.3 320.8 320.2 320.3 319.7 318.7 317.5 317.4 317.3 317.3 316.3 313.1 309.3 305.3 301.5 292.7 291.8 288.8 288.8 302 304.2 301.1 301.1 297.2 297.7 300.5 301.4 303.5 304.5 303.8 305.7 309 306.1 307.9 315.5 322.9 329.5 335.6 341.5 347.4 353.8 364.6 377.7 394.5 412.7 430.6 449 470 480.5 474.7 453.2 430.6 411.4 394.4 381.8 371 360.9 352.3 348.2 342.4 337 332.6 330.5 325.7 328.7
449.8 453.3 459.2 469.1 482 499.4 521.2 542.9 566.3 587.9 605.3 620.6 631.5 640.5 643.8 644.4 642.6 641.9 640.6 638.7 635.3 629.3 621.5 613.9 606.8 598.6 591.2 584.5 573.9 561.4 549.8 536 525.2 515 502 490 481.7 470.8 457.9 475.5 500.3 524.3 546.3 567 587.9 602.3 609.8 612.3 607.5 590.6 567.2 544.6 528.1 514.6 512.2 512 514.4 523.2 523.6 497.2 465.6 440.3 417.9 397.7 374.9 354.2 331.1 325.4 319.2 316.3 314.4 312 309.3 307.2 304.4 301.9 299.4 295.9 293.3 295.2 297.1 297.7 299.3 303.5 309.3 311.1 314 322.1 331.2 338.1 341.3 344 348.5 350.4 350.4 347.7 342.5 341.5 339.1 336.3 336.9 338.8 336.4 335 334.1 335.6 336.4 335.1 333.5 332.3 332.9 333.9 335 333.7 333.8 334.4 337.6 339.4 339 339.5 340 341.7 343.5 342.7 342.3 341.8 341.2 339.2 336.7 335.7 334.7 333.1 330.6 327.1 321.9 324.1 323.9 323.5 323.5 323.1 320.7 320.1 319.8 319.2 318.3 316 312.7 309.3 308.8 304.5 299.1 295.1 286 296.1 313 308.5 306 306.3 307 307.1 309.7 310.5 311.7 313.1 315.1 316.9 319.3 320.5 321 328.8 336.6 343.4 350 357 363.2 367.6 380.4 397.9 416.6 434 452.2 473 488.8 499 496.7 473.9 448 425 405.5 391.4 379.6 368.8 361 355.9 349.1 343.1 338.5 335.1 330.9 333.3
449.9 451.2 456.7 464.8 477.4 495.5 517.2 540 562.6 583.7 602 616.6 628.5 634.7 634.6 636.1 639.5 638.5 632.4 629.5 628 623.3 618.2 610.6 604 592.7 579.1 570.9 559.2 550.6 536.6 520.2 508.4 499.9 487.7 477.4 469 458.3 450.9 469.6 493.5 518.4 540.2 562.4 582.5 596.7 606.2 610.6 608.4 591.2 567.9 541 520 502.3 494.6 493.7 497.1 502.5 503.7 486.6 459.4 431.8 410.1 390.2 369.8 350 330 322.8 318.4 314.7 313.1 311.8 310 308.1 305.9 301.9 299.4 297.5 296 292.2 295 295.9 296.7 300 304.4 307.2 309.3 316.5 325.4 330.6 333.1 336.7 338.9 338.3 338.6 337.2 335.4 332.3 329.3 327.9 327.8 329.9 327.1 328.1 329.6 332.9 336.6 333 331.6 333.4 334.6 335.4 334.9 334.7 335.9 342.3 343.9 342.8 343 344.9 344.1 346.4 348.4 348.2 346.9 346.7 344.5 342.9 339 336.8 335.8 333.7 328.7 325.3 326.6 328.7 327.8 326.4 327 326.2 324.9 324.4 322.3 320.9 319.5 315.4 312.7 310.9 309.4 303.6 298.4 291.7 291.7 302.5 309.4 311.4 310.3 311.4 312.7 315.4 318.3 319.8 322.4 324.9 327.6 329.5 330.5 333.3 334.3 342 349.3 356.3 364.1 371.7 378.7 387.4 398.9 415.9 434 452 470.5 487.3 503.5 521.4 525.7 499.1 470 442.9 419.8 403.1 389.9 377.7 368.4 362.3 355.5 349.3 344.8 339.1 331.9 337.8
449.3 448.6 452.4 460.3 472.9 491.2 510.6 533.3 557.2 579.8 597.4 610.8 619.4 623.1 627.5 633 632.5 626.2 619.9 618.2 616.1 614 611 605.3 600.1 583.3 564 553.8 544 534.9 518.3 507.5 493.8 480.2 469.2 461 452.9 446.1 442.7 466.2 488.9 514 535.7 557.2 576.5 594.3 605 606.7 596.2 571.9 546.6 524.8 504.4 490.1 477 476.8 479.1 481.5 482.6 476 446.9 421.6 399.1 380.5 360.7 347.2 327.5 320.2 318 314.6 312.7 310.7 309.6 307.8 306 303.5 300.5 298.5 295.6 293.3 293.1 294.2 294.7 297.7 301.3 302.5 306.1 313 319.9 322.7 326.1 330.1 331.2 328.9 328.4 329.1 330.5 326 325.7 323.9 323.2 324.1 323.8 324.1 326 329.4 329.4 330.2 333.9 337.4 337.4 336.8 337.5 340.9 344.6 346.8 346.8 346.6 348.3 350.6 349.2 349.8 351.2 350.1 349.6 348.8 346.4 343.9 340.7 337.2 334.7 330.7 326.6 328.4 330.6 332.7 331.3 330.1 330.5 330.3 329.6 327.5 325.3 324.5 320.5 316.3 313.5 310.9 305.8 299.5 293.1 293.1 299.2 305.7 310.8 313.5 315.7 318.4 320.2 323.7 326.8 330.6 334 337.9 341.8 344.2 345.8 346.3 348.7 353.8 361.2 369.7 378.5 387.1 400 410.9 417.2 430.2 447.6 465.4 481.5 498.8 518.7 541.5 555.7 529.2 493.3 463.4 436.2 415.5 399.1 385.5 375.3 368.4 361.6 356.1 351.1 342.8 338.4 343.1
448.7 445.7 450.1 460.5 472.2 488.4 505.7 524.8 541.4 564.5 584.9 599.2 607.7 614.7 623 622.5 616.7 612.3 608.7 608.5 605 605.2 603.7 599.9 592.5 573.2 555.5 538.4 527.4 516.7 502.7 490.7 478 466.4 454.5 444 438.1 435.8 438.9 465 485.4 510 531.9 553.3 573.4 592.7 603.2 595.5 573.8 544.9 523 504.2 485.5 471.3 458.2 455.8 456.4 454.6 463.9 462.1 434.2 407.8 387.8 369.5 352.3 341 324.3 318.1 316.2 313.2 310.8 308.8 308.5 307.2 306.1 305.1 302.4 298.5 296.1 293.6 292.1 292.3 293.3 296.1 297.8 298 303 309.3 316 318 318.4 320.6 320.8 319.2 317.6 318.6 320.4 318.7 318.6 317.4 318.6 318.1 322.9 327.1 327.4 329.1 331.2 334.8 337.8 338.8 338.3 338.2 343.5 348.6 350.2 349.9 350.8 351.9 352.2 353.3 352.7 354.5 354.4 352.4 351.8 350.4 346.8 343.1 339.2 334.9 329.2 326.5 328.1 331.7 334.3 336 335.5 334.5 334.6 334.8 334.7 332.6 330.8 329 322.4 318.3 314.2 308.7 302.4 295.2 294.3 297.2 302.8 309.7 314.7 316.1 319.9 323.8 327.8 332.4 337.1 342.5 346.4 351.6 356.2 359.2 361.4 357.9 362.1 366.5 373.8 382.2 393.1 409.2 421.1 431.7 436.5 441.7 458 474.6 490.2 508.7 531.5 554.4 568.8 559.1 516.7 480.5 449.5 423.9 405.4 391.4 382.6 374.9 368.5 362.5 355.8 348.8 346.1 350.1
450.7 443.7 449.4 459.8 471.7 484.2 500.9 519.2 535.6 552.2 568.3 582.5 593.1 604.3 607.3 606.8 607 602.1 596.4 596 596.8 599.9 598.7 593.9 581.4 558.9 539.6 521.1 507.4 498 487.2 474.6 466 450.7 440 431.8 426.9 427.6 445.8 465.2 486.2 508.7 529.4 550.6 571 589.9 595.3 578 549.3 523 498.8 477.6 461.7 450 437.2 428.9 428 431.9 435.8 438.8 424.4 395.9 377.5 357.9 346.8 337.4 321.5 315.6 315.4 311.7 309.5 307.7 307.3 305.1 303.8 302.7 300.4 298.5 296.5 294.1 294.1 288.8 291.3 293 293.6 294.7 299 305.1 312.8 313.2 313.1 313.7 313.2 312.4 310.7 311.2 313 310.4 310.3 310.4 309.5 317.7 328.3 330.8 331.4 333 334.8 338.2 341.5 341 341.7 345.4 352.7 352.6 352.1 353.1 357.3 357.1 357.9 359.8 359.4 361.7 359 354.8 352.5 348.9 343.9 338 333.5 328.9 326.6 326.9 331 335.5 339.6 341.9 340.2 340 341.3 342.4 342.8 339.8 336.3 330.7 323.2 317.9 312.3 305.8 299.7 293.6 298.7 302.8 307.1 312.2 317.7 320.8 325.9 330.2 335.9 342.2 347.8 353.6 360.2 366 370 373.1 374.6 373.1 375.1 379.6 386.2 398.3 413.3 422.5 439.4 451.9 453.4 453.9 465.4 481.6 497.4 518.5 540.8 557.9 568.9 564.6 529 482.2 452.8 429.2 411.6 397.9 389.5 381.7 375.1 368.1 360.9 353.8 352.5 356.6
451.8 441.8 445.4 455.2 466.9 478.9 492.5 509.7 527.3 543.2 558.6 569.1 579.9 584 585 588 590 584.7 586.2 589 587.1 589.1 591.8 583.9 567 544 526.6 506.5 492.1 484.7 473.8 458.6 446.1 437.2 432.4 423.4 417.1 430.8 448.1 466.8 488.5 508.4 527.8 547.8 568.3 581.3 573.7 549.5 524.2 499.9 478.1 456.1 440.2 428.2 417.5 407.7 409 412.4 414.7 417.8 403.4 381.3 362.8 351.8 342.8 331.8 319.5 316.1 315.3 310.1 307.6 306.7 305.6 303.4 302.2 301.5 299.8 298.2 296.9 294.8 290.5 291.3 286.2 290.3 290.8 292.8 297.2 300.8 305.2 306.6 306.9 307.9 308 307.3 304.7 304.4 304.9 303.1 303.7 305.1 311.5 320.2 328.6 330.2 332.7 335.6 337.7 341.2 344.4 347.1 350.4 352.6 355.4 355.3 356.4 359.6 363.2 363.5 363.8 363.7 364.3 364 360.1 355 349.9 344.5 339 332.4 327.6 326.9 327 329.4 336.1 341.7 344.6 345.9 346.4 347.9 350 350.4 349.2 344.9 338.5 329.1 321.4 314.8 308 302.1 299.3 295.4 303 306.7 311.1 316.5 322.2 326.3 332.8 338.8 344.5 351.5 358.5 367.2 374.3 380.5 384.2 385.9 387.5 387.4 388.7 393.6 400.2 415 427.9 440.4 452.2 462.2 467.9 469.3 474.1 487.2 504.2 524 543.4 555.9 564.4 560.1 529.9 484.6 457.4 436.1 418.1 406.9 397.6 389.1 381.9 374.8 364.5 358.2 358.4 363.1
454.1 441 441.7 450 459.2 470.9 484.4 500.1 516.8 532.9 545.2 557.6 571 577 576.5 577.6 576.6 571.8 574.5 575 576.9 579.4 578.4 569.4 551.7 533.2 510.4 490.4 480.3 469.9 454.4 443.1 433.4 428.6 426.2 417.3 414 432.2 452.5 470.7 490.6 510.5 530.8 549.8 566.4 565.4 544.5 522.6 500.6 478.1 456.2 435.9 421.2 410.7 401 391.3 389.7 386.9 384.1 386.1 379.5 366.4 355.5 345.6 336.9 325.6 317.8 316.6 319 314.6 309 305.6 303.5 302.6 301.7 301.2 300.5 298.8 295.8 291.8 288 288 285.4 286.5 288.2 289.8 293.1 296.5 300.6 301.7 303.3 303.5 302.5 302 300.2 298.7 299.9 302.7 305.4 307.6 313.3 321.1 325.9 329.1 333.1 337.1 340.4 344 349.2 352.5 354.3 356.5 357.5 360.3 364.6 368.1 367.7 369.3 366.1 365.8 365.6 364.6 359.2 352.8 345.4 339.5 333.8 328.8 327.2 327.9 329.8 336.4 342.7 346.5 350 352.8 354.1 354 354.5 352.7 349.1 344.4 338.3 329.3 319.4 312.6 307.6 304.9 302.8 296.8 305.2 309.6 314.9 323.4 326.9 332.8 341.2 348.4 354.9 362.8 373 380.9 388.2 394.1 398.6 400.7 401.7 402.1 401.6 408 416.4 425.2 440.8 454.1 465.3 473.9 480.9 485.1 488.2 494.5 509 526.2 541.7 551.9 558.7 557.2 531.6 489.3 463.6 442.7 425.8 414.2 404.9 396 387.8 378.8 368.3 362.6 366.5 371
452.3 441.1 439.9 447.2 454.9 463.4 474.5 487.6 501 514.3 532 550.2 562.1 570.1 572.3 571.9 573.8 567.6 561.7 564.8 569.4 568.7 565.5 554.5 539.2 519.8 500 482.2 469.9 456.7 442.1 429.5 420.9 419.9 417.6 410.1 411.1 436.4 455.8 472.6 493.2 513.5 531.7 547.2 554.7 541.4 514.7 496.2 477.5 457.2 438 420.6 407.1 397.7 386.4 375.6 369.2 365.8 362.3 360 357.7 351 345.6 338.8 330 322.2 316.9 315.3 314.4 320.7 313.8 307.9 305 303.8 303 302.8 302.3 301.3 298.1 293.6 287.5 284.9 282.4 282.3 284.9 285.4 288.4 292.2 296.1 297 297.7 297.6 296.9 298.7 298.9 298.3 302.2 305.4 308.7 310.7 314.9 321 326.2 331.6 336 339.3 341.8 346.4 352.5 354.6 359.5 361.6 363.3 367.9 370.7 372 372.8 371.6 367.8 366.1 365.2 358.4 352.8 347 340.7 334.3 329.6 327.9 328.8 331.2 338 345.2 348.8 353.1 356.7 357.8 356.5 357.6 355.7 352 348.2 344.5 340.4 331.9 323.5 315.2 310.3 307.7 304.7 302.2 308.1 313.4 321 327.1 332 341 350.3 358.8 366.5 376.7 386.6 395.7 404.4 411 414.7 417.2 417.7 418.4 421.1 422.6 427.7 436.7 452.2 465.5 475.7 486.5 496.7 504.5 507 507.5 514.6 527.3 539.3 548.1 555.1 555.8 541.7 496.6 468.3 448.7 431.6 419.7 410.2 402 393.2 381.5 373.8 367 372.8 380
450.4 438.5 438.5 445 449.9 456.5 466.3 478.5 491 507.4 525.2 541.9 551.8 554.3 556.5 559.2 557.4 555.6 554.2 555.7 558.1 559.6 559.2 551.7 535.6 510.7 490.8 475.8 462.2 446.6 429.4 418.2 413 411.9 409.3 400.9 414.9 439.1 457.8 477.6 497.8 514 530.9 536.7 528.1 508.5 489.6 475.1 458.3 439.4 422.3 407.1 394.3 382.1 370.8 359.3 349.9 348.5 345.4 344.9 341.9 339.2 335.2 329.2 323.9 320.8 316.5 311 310.9 317.7 312.7 308.9 306.9 305 303 303.2 303.6 301.2 298.6 296.8 290.6 283.7 280.2 276.9 282.7 283 285.7 289.2 292 291.6 292.8 291.1 291.6 296 296.9 299 303.3 306.8 309.7 312.7 316.8 320.8 326.6 333.3 338.6 343.1 346.5 351.2 355.2 358 362.2 367.2 371.3 374.4 373.8 373.4 373.9 373 369.4 365.6 361.6 355.8 349 342.4 335.5 330.6 328.3 329.4 332.4 338.4 346.6 352 356 359.2 360.3 359.7 361.8 361.3 358.3 354.5 351.4 348 340.9 333 325.7 317.3 312 309.8 306.8 303.7 310.7 318.3 324.8 331.6 339.5 349.1 359.2 368.7 378.8 389.8 401.1 411.8 422.4 428.2 434.5 434.3 435.4 435.7 437.9 441 447.1 448.1 461.5 473.5 484.1 499.1 515.2 524.3 524.7 523.6 523.8 529.9 539.4 547.5 554.4 555.5 547.1 520 480.5 457.1 443.5 428.4 417.5 407.9 396.3 386.3 380.1 371.6 381.2 390.3
445.6 435.6 433.4 438.3 442.3 451 461 470 484.1 500 516.9 531.5 535.8 536.9 539.5 544.3 546.4 548.7 550.7 554.8 556 555.8 553.7 545.7 527.2 504.7 487.3 469.2 453.4 437.4 420.2 411.6 405.4 401.9 397.8 394.7 420.8 441.4 459.3 479.4 497.9 513.2 524.4 517.7 496.8 481.9 470.8 455.8 436.9 420.3 403.2 389.7 377.7 364.9 354 346.3 342.2 338.5 335.9 334.4 330.9 326.3 323.4 322.5 319.7 317.5 317.8 308.2 311.3 313.8 310 307.4 303.4 302.1 301.4 301.6 301.2 298.4 298.3 298.5 294.1 286.9 278.7 275.1 284.1 281.2 283.3 287.5 289.7 289.2 286.2 286.4 293.2 297.5 298.9 301.3 304.1 307.8 310.7 313.7 316.9 322.3 327.5 332.7 338.9 346.6 351.4 356.3 361.4 363.5 366.9 373.2 376.5 377.9 375.5 375.2 373.7 371.6 368.2 363.5 356.7 351.2 343.4 337 332.3 329.2 330.3 337.2 343.5 348.1 354.6 359.2 362.2 362.7 363.3 364.5 366.8 364.1 361.1 359.9 356.9 350.2 341.1 334.3 326 319.4 312.4 310.8 310.7 305.9 314.5 323.2 330.1 338.5 346.9 357.3 368.4 380.3 391.9 404.3 417.8 428.8 438.3 446 450.9 454 454.4 454.6 458.1 461.4 464.1 468.2 471.5 481.8 495.4 513.4 528.4 537.1 538.6 536 535.9 537.6 543.4 551.9 555.8 555.4 549 537.1 504.7 475.7 456.4 440.7 421.7 411.4 401.5 392.7 384.1 380.9 390.6 400.1
440.5 431.2 427.2 432.8 438.2 444.6 453.2 464.6 475.1 488.4 502.5 512.2 515.6 516.9 524.6 537.1 546.8 549.3 551.5 555.1 556.6 557.5 550.4 537.3 519.5 500.7 481.5 464.5 449 427.7 411.8 403.5 395.8 392.1 386.1 402.9 421.8 439.2 457.1 476.8 495 506.9 509.3 494.4 473.7 462.5 453.1 431.6 414.2 398.6 384.5 373.8 363.6 351.6 343.6 338.3 336.1 334.3 331.1 328 325.1 322.7 318.6 317 308.5 306.2 314.9 306 306.3 308.3 304.8 301.5 299.2 298.3 297.4 295.6 294.8 293.7 293.4 292.7 290.4 288.4 279.6 276.1 279.5 278.8 279.6 281.9 285.9 287.6 284 287.6 293.8 298.5 300.3 302.4 305.3 309 312.9 314.1 316 321.2 327.9 333.2 339.7 348.4 354.7 362.7 366.8 368.4 372.5 375.4 375.4 374.9 374.2 373.1 370.2 368.5 365.8 359.9 349.1 341.5 338.1 334.3 329.4 333.3 344 349 351.4 356.2 361.3 365.3 366.8 368.4 369.5 369.4 370.4 368.3 365 361.8 356.3 348.6 341.6 334.6 326.9 319.4 311.4 313.2 312 309.8 318.6 327.1 334.9 345 354.6 366.6 379.7 392.4 406.1 419.4 432.2 447 456.9 463.9 469.8 471.9 474 475.5 477 478.8 478.1 478.3 485.4 497.7 510.1 523.7 535.8 544.1 547.3 545.9 546.9 547.8 549.6 555.8 559.4 557.7 550.4 539.6 518.6 484.4 458.2 440.9 426 417.5 407.8 398 388.5 389.2 397.5 407.6
439.8 429.5 424.4 427.8 433.5 439.9 446.7 455.5 466.9 477.7 487.5 496.1 500.7 506.7 521 527.1 532.7 538.9 545.5 552.9 560.1 561.4 552 532.9 511.1 498 482.2 469.2 448.9 425.4 407.7 394.1 385.8 383.2 379.3 400.5 417.8 433.2 450.3 471.9 489.9 494.2 487.1 468 449.4 437.6 425.1 409.1 393.4 378.5 367.4 358.6 351.8 343.5 338.8 335.5 333.2 331.2 329.2 326.8 324.3 322.7 321 311.8 307.9 307.5 308.2 303.3 297.3 296.9 298.9 295 294.7 293.9 292.3 288.5 286.1 289.3 289.8 287.5 283.9 281.9 278.1 273.8 275.8 275.6 277 279.3 283.2 282.9 284.8 288.8 293.5 298.3 300.6 303.5 306.9 309.6 312.9 313.9 314.6 318.6 327.3 334.8 338.2 345.4 355.9 368.1 371.6 373.1 376.9 375.9 374.4 373.1 372.2 369.5 366.5 361.9 358.1 350.6 341.8 337.6 332.9 329.7 334.4 346.9 353.4 355.1 357.9 362.2 367.7 370.6 373 376.1 375.7 375.6 375.7 373 366.8 361 353.9 348.2 343.6 332.6 324 321.5 317.5 314.9 312 312.4 322 331.9 341.8 351.5 364 377 391.4 405.9 419.6 432.8 448.2 461.2 472.1 480.7 483.5 487.5 489.7 490.3 490.8 488.4 490.2 497.5 508 517.3 526.2 534.7 543 549.1 552.1 554 555.2 556.3 556.4 559.8 561.2 557.4 549.8 533.9 513.5 488.5 462.6 441.6 431.6 422.3 412.1 401.2 390.1 398.3 404.1 414.3
442.6 429.9 419.2 423 428.4 434.8 441.5 450.1 458.5 468.2 474.4 482.7 488.6 496.4 506.7 515.8 526 532.9 538.9 550.3 555.5 554.8 544.8 524 499.7 489.7 481.6 468.9 444.5 428.6 407.6 387.2 378 372.4 377.3 393.2 408.5 424.1 444.1 466.2 476.4 472.5 459.6 440.6 424 410.2 397.8 385.7 375.1 363.6 355.9 350.9 346.3 340.5 336.6 333.8 332.1 330.4 328 326.8 325.7 323.6 319.2 309.9 309 310.8 307.9 307.5 306 299.3 297.4 296.4 294.1 289.4 288.9 285.9 287.3 283.4 284.5 281.9 280.6 278 276.9 271.7 272 272.8 275.4 277.5 278.8 276.9 286.1 289 293.2 298 300.7 303.3 307.4 309.2 310.7 311.6 312.6 316.6 325.2 333.3 335.5 343.5 357.2 370 375.4 377.2 376.9 375.4 374.6 373.1 371.1 366 359.7 353.8 347.6 341.5 337.5 332.6 330.1 334.1 344.6 353.5 358.4 361.5 365.4 371.2 374.1 377.1 381 383 380.5 381.6 380.5 374.2 366 360.1 353.9 348.8 338.7 330.1 330.4 327.9 321.9 316 313.3 316.5 326.9 336.8 348.1 359.6 373.5 386.7 403.1 418.2 432.4 446.3 458.8 473.1 482.4 488.7 495.4 501.8 503.9 500.3 499.5 503.1 510.2 520.7 529.8 534.8 539.5 546.7 552.7 557.1 560.7 562.1 562.1 563.5 562 562.1 562 555.7 546.7 531.9 500.9 482.1 462.4 447.4 435.3 424.3 413.4 401 395.1 400 406.5 420.6
444.8 432.8 420.4 419.1 424.2 429.4 435.8 441.5 449.5 457.7 466 473.8 479.5 487.5 495.6 506.4 514.4 522.3 532.2 542.1 546.5 544 531.8 511.6 487.1 475.7 463.9 454.7 438.9 422.1 400.4 381.7 370.5 365.1 373.2 385.2 397.6 413.4 433.6 451 451.6 443 430.8 417.2 405.9 394.3 383.4 372.9 364.3 353.9 348.5 345.4 340.6 336.6 334.4 332.3 330.1 327.8 325.9 324.5 323.7 319.2 312.7 308.3 314.6 318.4 319 318.2 316.7 310.3 308 298.6 296 293.6 292.5 290.3 289.7 288.4 281.8 279.1 278.1 274.2 275 273.1 271.6 268.9 274.3 276 275.3 274.9 280.7 286.4 292.8 297.3 299.8 302.3 305.7 308.2 309.6 310 310.6 314.1 323.2 330.9 333.9 340.7 358.3 372.9 378 378.2 377.1 376.1 376.1 371.1 365.6 360.4 352.9 346 340.4 337.5 333.3 330.9 333.6 345.3 354.3 359.9 363.2 368.9 375.2 379.2 382.1 384.3 387.1 385.3 383.3 383.1 379 371.3 365.4 362.5 356.5 346.9 336.9 336.6 337.8 335 327.3 320.1 315.7 321.4 331.8 343.8 356.1 367.8 381 395.5 412 429.4 443.8 453.5 466.8 479.9 487.9 499.8 508.3 509 508.9 513 516.2 524.6 532 538.7 542.7 546.3 551.4 557 562 566.9 569.4 569.7 568.3 568.3 567 562.9 558.5 549.8 536.2 520.7 495.4 471.7 458.6 445 433.3 423.2 412 400.9 401.4 405.6 416.3 430.9
447.9 436.5 425.3 413.8 418.9 424.4 430.2 435.7 439.6 447 455.6 464.2 472.7 479 488.7 498.1 506.5 513 524 533.3 539.1 538.8 529 494.9 468.3 451.6 443.6 433.3 417.2 402.7 386.5 371.9 363.1 359.2 365.1 375.9 386.7 402.1 416.9 425.1 420.9 417.2 408.1 396.1 388.9 381.8 370.6 358.3 351 345 340.9 337.9 336.3 335.4 333.5 330.2 327.4 326 323.5 318.2 311.7 309.1 308.1 317.3 320.4 321 319.8 319.2 318 315.9 306.2 298.7 296 294.9 293.2 289.9 289.4 287.9 281.1 278.3 275.7 276.7 279.2 278.4 275.3 270 272.6 274.2 273.1 272.5 278.3 287.4 293.2 295.5 298.2 301.6 304.7 306 306.2 307.1 307.9 310.6 319.8 328.4 332.4 339.4 356.6 371.3 377.1 377.8 376 373.9 371.2 365.2 359 352.4 344 340 336.7 333 331.5 334.6 344 353.8 361.8 366 372.8 378.4 383.1 386.1 389.5 390.7 388.4 385.7 386.1 382.5 374.9 368.9 364.9 362.2 356 345.7 343.4 345.3 343.2 338.7 333.5 325 319.5 322 335 348 359.2 372.9 385.9 401.1 420.8 438.5 450.7 460.8 473.7 483.5 492.9 506.9 508.5 511.2 520.5 528.2 534.6 541.4 548 549.6 554.6 557.3 561.9 567.4 572.2 575.6 576.7 575.8 573.5 571.3 567.4 559.7 547.7 537.2 519.2 505.2 488.8 471.9 455.3 442.4 432.4 424.7 411.7 405.7 410.8 417.1 425.6 435.7
452.7 439.7 427.6 417.2 413.3 419.1 425.1 430.2 434 441.6 450.1 456.7 463.4 470.6 479.5 491.2 498.6 505.1 516 526.1 534.1 534.7 519.9 478.8 448.7 428 419.2 407.8 398.8 386.2 370.8 361.6 357.2 349.7 355.1 361.4 370 381.3 390.7 394.1 393.1 393.3 387.6 377 371.3 360 351.3 346.2 342.7 338.8 334.8 331.9 332.3 333.5 330.1 327 324 319.2 312.9 320.8 322 322.2 324.2 325.3 324.2 322.9 321 319.3 317.5 315.4 304.8 298.3 295.4 293.5 290.7 288.9 287.4 284.2 282.9 282.4 279.7 280.4 280.9 278.4 276.4 269.9 269.5 270 269.6 273.6 279.4 287.7 292.1 294.7 296.7 300.1 303.6 303.7 304.6 305.3 307.5 309.5 313.8 325.4 331.2 338.2 351.7 366.3 373.2 374.4 372 368.1 364.2 357.8 351.1 343.8 339.6 337.1 333.1 331.9 335.8 344.4 352.3 359.6 366.9 374.7 382.7 387.8 391.7 392.2 393.5 391 388.6 388.9 387.1 381.8 372.5 366.6 362.9 358 350.6 351 351.8 349.9 346.9 345 339.5 330.4 326 322.7 336.4 350.6 360.4 374.2 388.2 405.1 424.1 442.5 456.3 467.1 477.4 488.1 499.2 503.3 508.4 520.2 532.5 541 546.5 550.7 554.7 559.7 564.4 568.2 574.7 579.7 582.4 583.1 582.5 579.8 575.8 570 562 550.4 536.7 520.1 505.8 492.9 479.9 468.7 454.3 442.9 432.5 420.6 409.4 415.6 421.9 427.6 436.3 444.8
459.3 443.7 429.9 418.7 408.6 413.5 419.3 424.4 427.7 433.3 441.2 447.9 455.1 462.6 472 481.7 488.3 498.9 511.4 521.8 527.4 526.6 510.7 466.8 437.7 417.2 405.1 393.2 381.4 368.3 359.3 354.9 353.2 352.2 347.4 349.3 354.1 359.8 364.6 368.4 371.3 369.9 363.6 356.7 349.5 345.1 343.3 340.8 338.3 335.9 333 330 328.6 327.1 325.2 322.1 317.4 320.6 326.5 327.9 327.9 330 332.8 334.3 327.9 323.7 321.9 319.5 315.3 312 301.4 296.6 293.7 291.4 289.3 287.3 285.6 286.2 288.4 286.5 284.3 282.3 280.4 277.9 274.4 268 268.1 268.5 271.2 275.6 279.8 287.5 291.7 294.3 295.2 297.1 299.8 302.1 303.1 304.9 307.7 309.2 310.9 321.2 329.7 337.6 346.2 360.7 367.5 369.7 366.8 362.6 356.8 351.1 343.7 340 336.6 334.1 333 338.6 346.2 356.6 361.5 368.7 378.6 388 392.9 396.1 398 397.1 394.4 391.7 391 390.8 385.2 375.6 370.2 366.1 362.3 357.2 356.1 356.4 356 354 353.7 351.1 344.1 337.9 333.9 331 332.1 347.5 359.9 373.8 388.7 406.1 427.2 446.8 460.4 468.5 478.1 491 497 502.5 513.8 528.6 539.6 547.6 553.7 559 561.5 566.9 573.2 581 588.5 591.4 591.4 590.4 586.9 581.4 574.9 564.5 550.9 537 522.3 509.3 495.8 483.7 474 464 452.7 442.2 428 417.1 420.3 426.3 432.3 441.4 448 455.8
467.2 448.9 435.1 422 411.4 406.9 411.3 416.1 419.3 424.3 432.4 440.2 447 454.7 464.1 472.4 483.4 494.5 506.3 511.8 514.7 509.9 491.6 455.2 431.4 408.7 391.1 376.6 366.1 358.2 353.2 351.3 350.1 349.2 345.8 341 343.6 344.1 347.6 350.8 354 349.4 345.8 344.2 343.2 341.8 340.3 338.5 336.6 334.5 330.7 327.5 323.1 315.5 314.8 322.3 325.3 328.6 332.5 333.3 333.1 336.3 338.3 333.6 327 323.5 322.5 320.5 314.8 306.1 299.2 294.6 291.5 289.3 287.7 285.8 286.5 290.8 293.4 289.9 287.3 284.3 280.5 276.6 271.5 267.6 266.6 270.7 272.2 273.5 279.2 281.6 287.7 292.8 293.4 294.3 297.4 300.4 303 305.7 308.6 308.3 309.3 317 327.6 335.1 343.7 355.2 361.5 365 362.1 355.2 348.3 345.6 341.1 337.1 334.6 334 338.9 348.6 357.1 365.1 371.6 383.5 395.2 399.5 401.6 402.3 402.1 396.1 393.5 392.3 389.8 384.1 378.8 373.5 369.9 364.3 361.7 362.6 360.9 361.6 361.7 362.4 360.5 354.4 350.2 345.5 341.8 339.6 334.6 347.1 359.2 375.1 388.6 406.9 427.4 446.2 459.4 468.4 479.5 488.8 494.7 504.2 519.1 531.6 541.3 549.3 556.7 563 566.6 573 581.6 591.7 598.4 600.1 598.4 595.3 590 582.2 572 557.4 540.8 526.4 513.4 502.3 491.8 481.9 472.2 462.7 452.1 440.1 429.7 429.3 432.7 438.6 443.8 450 456.6 468.3
474.9 457.8 443.6 428.1 413.5 401.3 404.8 408.9 413 417.2 423.7 431.8 439.2 445.6 453.2 462.2 476.8 488 492.8 498 499.8 495.5 473.4 443.6 418.8 400.2 385.6 370.4 359.1 352.3 349.7 348.3 347.6 346.9 344.9 340.1 341.3 340.4 338.9 338.4 337.1 336.8 338.4 338.6 338.1 337.2 337.4 335.6 332.3 329.1 319.7 321.4 328.4 328.9 329.4 328.9 332.3 334.2 337.3 338.2 338 339.7 337.3 331.1 325.6 323.1 321.7 322.7 316.3 307.3 299.8 294 289.9 287.6 287.2 287.8 289.6 294.4 295.6 289.9 286.5 283.1 278.7 272.2 268.8 266.5 262.2 266.4 267.9 269.3 273.4 278.6 284.9 290.4 291.3 292.5 296.4 299.9 302.7 305.1 307.4 307.4 308.6 315.3 324.4 332.1 339.7 349.3 356.2 358.7 355.6 348.6 344.4 343.2 339.7 336.3 336 343.9 349.1 358.2 366.9 375.7 387.1 398.6 404.5 405.6 406.3 406.1 400.3 395.6 393.5 392.1 387.2 381.1 377.7 375.1 370.7 361.8 365.8 366.9 367.7 368.2 369.8 369.4 364 360.2 357.5 353.7 349.6 345.4 339.7 345.6 360.5 375.1 390.1 406.6 425.1 442.4 454.8 470.3 476.9 483.3 494 508.7 521.9 531.9 540.3 548.7 556.1 563.6 570.5 578.8 590.5 600.4 603.9 604 601.7 598.6 593.7 585 572.3 557.8 543.8 530.8 516.1 503.8 494.8 485.7 472.7 463 453.8 436.1 440.5 440.4 446.3 452.7 458.3 462.5 476.3 492.9
485.4 466.8 449.3 432.3 417.3 405 397.2 403 407.6 411.8 416.9 423.8 429.5 435.2 442.8 457.1 469.3 477.5 484.4 484 482.5 475 457.7 434.5 416.9 405.5 386.7 367.7 354.6 348.4 346.3 346.3 345.6 344.7 342.8 337.5 338.4 338.7 336.7 335 333.6 332.3 334.3 334.5 333.3 332.7 331.8 327.4 323.7 330.9 331.9 332.6 333.5 335.7 335.6 334.7 338.6 341.6 343 342.3 342.1 340.3 335.6 329.2 323.7 320.7 319.3 318.9 315.5 308.3 299.8 293.9 290.7 288.8 291 291.5 292.6 297.6 295.1 288.4 284.1 280.9 273.4 271.5 269.9 266.5 259.9 258.2 263.6 267.1 267.8 275 282.2 287.3 290.6 291 297 299.6 301.5 303.6 305.7 306.5 309.5 316 320.5 327.9 335.1 343.4 350.6 352 347.6 341.9 342.3 342.9 340.9 341.1 349.3 361.1 360 368.5 377.8 389.3 401 406.4 407.8 407.7 406.6 402.5 397.1 394.7 392.3 387.8 382.5 377.9 375.4 371.1 363.8 367.9 368.6 370.4 371.3 373.8 377 373.6 370.5 368.6 365.7 362.1 357.3 352.5 348.1 346 358.3 376.3 392.2 407 423.3 437.6 453.6 463 469 483 498.8 512.9 522.8 529.5 538 546.7 554.1 561.8 572.9 584.9 599.1 606.1 605.7 605.1 604.6 604.2 602 592.9 581.7 568.8 556.9 543.9 523.7 508.8 498.8 489.4 474.1 462.4 450 450.1 451.3 450.3 456.9 464.9 472.4 485.8 503.7 522
499.2 475.7 454.2 436.4 421.3 408.7 399.4 396.7 401.1 405.4 410.1 413.7 418.1 423.6 434.7 446.2 459.6 470.1 469.7 464.3 458 451.9 440.1 428 416.1 407.5 386.7 366 353.8 347.1 344.8 344.4 343.5 342.5 340.6 337.3 335.1 334.1 333.9 333.2 332.6 331.4 331.7 331.6 329.7 331.4 330.3 333.1 334.6 335.1 335.6 337.2 340.3 341.5 339.8 342.3 345.4 347.3 348.5 347.9 347.3 343.1 336.5 328.5 321.6 318.1 314.9 313.4 314.4 308.9 298.8 294.4 291.9 290.8 293 294.3 294.4 293.5 289.8 285.2 282 279 275.8 275.6 274.6 270.6 269.5 271.3 260.1 258.1 261.2 268.7 280 288.4 290.8 290.2 297 302.5 303.2 303.9 305 306.4 308.9 314.2 318.5 324.1 331.5 338.8 343.8 343.2 339.9 339.6 343.7 347.3 349.4 356.2 364.7 370.5 370.6 380 390.7 403.3 409.1 409.6 409.2 406.7 402.7 398.5 395.6 393.6 387.8 382.8 378.4 374.5 372.6 368.4 368.9 370.1 371.9 373 374.7 379.7 381.4 379.5 378.1 376.9 374.8 371.9 365.6 360.7 354.2 351.9 358.4 376.3 392.9 409.2 422.1 434.2 447.3 453.2 469.7 485 502.9 514.1 521.3 527.9 535.6 544.1 550.4 560.3 574.4 592 602.9 606.3 607.7 608.2 609.1 609.9 608 603 594.1 583.7 572.6 563.8 532.2 511.3 499.9 490.1 475.7 461.7 461.8 460.5 461.8 463.4 469.3 479.3 492.3 515.2 543.6 557.9
508 485.2 471.2 453.8 430.9 414.3 402.6 391.4 394.4 399.7 403.5 406 409.5 413.9 424.1 436 446.3 452.8 450.1 443.5 437.8 435.4 431.5 424.7 416.6 409.5 386.9 368.4 357.2 348.6 345.4 343.6 342.4 341.2 339 337.6 337.1 336.7 335.8 334 332.4 331.7 332 331.6 335.1 336.1 336.4 337.2 337.7 338.3 341.5 345.3 346.5 347.1 346.5 349.2 351.6 352.6 352.8 352.8 351 347.2 341.1 333.6 323.9 316.6 311.9 309.7 307.1 300.1 295.1 293.4 291.8 291.8 293.4 294.7 294.5 293.1 290.2 286.1 282.9 280.5 279.1 278.1 277.4 275.8 275.8 277.7 273.9 269.6 256.1 265 276.3 286.2 289.9 290.3 297.7 302 303.4 304.5 305.9 307 308.5 311.3 315.3 321.1 329.1 335.2 337.2 336.8 339 341.1 347 351.3 358.6 364.9 371.2 376.4 382.2 391.9 403.9 411.5 413.8 412.6 407.4 403.4 399.7 397 393.4 387.4 382.7 379.1 375.1 371 369.9 370.6 371 373.1 375 377.8 381.9 386 386.4 385.9 385.4 383.6 384.9 380.4 373.7 368.7 361 354.5 362.4 374.2 389.9 408.3 420.5 429.8 435.5 451.2 470.5 490.1 503.6 512.5 519 526.1 530.6 539.6 547.3 558.5 577.9 592.6 597.7 603.8 608.5 612.5 614.5 616.6 615.6 611.6 604 593.5 579.4 572.3 543.7 511 499 488 477.1 472.6 473 472 470.7 476 488.2 502.7 522.5 536.7 571.4 575.9
514.6 495.8 482.2 465.2 439.7 420.7 408.6 397.3 387.5 394.9 397.9 399.9 402.4 405.9 412.8 425.3 434.9 437.2 434.1 427.5 424.4 422.2 418.6 414 407.9 402.6 386.1 369.1 357.6 349.9 346.3 344.5 342.8 341.7 336.8 339.9 339.5 339.1 338.9 338.6 337 334.9 335.5 336.8 338.4 340 340.4 341 342 344.3 347.5 349.8 350.9 351.8 351.5 352.8 354.1 354.9 355.6 355.7 354.8 351.6 346 340.2 329.2 319.6 314.2 308.8 301.2 295.1 293.7 292.6 293.6 294.3 294.6 295.2 295.3 294.6 290.4 286.4 283.5 282.1 281.2 281.7 280.4 280.3 281 279.4 275.2 269.6 256.9 260.7 272.7 282.2 285.2 289.8 296.3 299.8 302 303.7 305.4 306.7 308.2 310.1 312.5 319.5 327.8 331 333.2 336.7 339.9 342.8 349.8 357.8 366.1 372 378.3 385.6 393.7 405.5 411.7 415 412.5 409.6 404.6 401.3 398.7 396.1 389.4 383.6 380.9 377 373 370.4 371.1 372.9 373.2 376.9 382.4 386.7 387.8 389.4 390.8 391.7 395.1 394.9 393.3 384.8 379.5 374.7 368.1 358.7 360.7 370.7 380.3 403.8 416 419.1 431 450.9 475.7 492 503.1 512 518.9 523 526.1 534.6 542.8 558.2 578.1 583.8 591 601.2 608.9 614.6 618.5 616.2 613.6 609.7 602.9 594 579.1 567.4 548.1 515.4 497.2 487 483.6 485 484.7 485.1 484.5 491.4 519.3 541.4 550.5 560.1 572.8 579.7
511.5 503 489.3 468.2 443.7 425.1 412.3 400.8 390.9 388.7 391.7 394.5 395.8 399.3 403.9 412.6 421.4 422.6 419 411.2 408 405.8 402 397.6 394.2 390.7 381.1 367.8 356.8 350.7 347.2 345.4 343.4 342.1 343.8 343.7 343.4 343.2 343.1 342.8 341.1 339.5 340.4 341.7 343.9 344.8 345.2 345.6 347.1 349 351.3 353 353.9 354.3 353.4 354.6 355.5 356.2 356.8 357 357.3 356.5 351.6 345.8 333.8 326.5 318.1 310 299.6 295.5 294.3 295.8 297.2 297.8 298.6 297.3 297.4 298.1 293.5 288.3 284.4 283.1 282.8 283.1 283.5 283 281.3 277.7 273.2 269.5 260.4 253.2 266.2 273.4 281.6 288.6 295.1 300.3 300.6 301.7 303.7 305.2 306.9 308.6 312.5 318.2 324.9 329.6 334.3 337.8 341 345.7 353.2 363.2 374.1 381.4 384.7 390.9 402.5 410.3 411.7 412.8 410.3 406.6 403.9 400.8 398.3 394.7 386 381.3 379.1 375.6 371.5 370.7 373.1 374.8 376.8 380.6 385.5 390.1 391.2 393.6 396.8 397.6 401 401.3 393.9 388 383 377.7 371.2 366.4 358.6 365.4 378.8 399.9 404.8 411.2 429.1 452.1 475.4 492.3 503.8 512.1 515.6 517.6 521.2 529.2 540.6 557 569.2 575.3 588.4 600.7 610.2 611.4 609.6 608 606.2 603.8 599.9 593.7 576.5 560 541.3 520.6 502.7 497.6 501.7 508.7 511.9 512.1 512.2 514.6 536.9 555.9 568.5 570.8 574.4 580.2
506.5 497.2 485 465.4 446.2 431.4 417.6 403.9 393.9 386.3 384.5 388.2 390.4 393.6 396.7 400.4 404.9 404.9 400.7 392.3 389.1 389.3 386.8 383.7 380.8 378.1 372.3 362.8 355.6 350.4 347.5 345.6 343.9 346.7 347.6 347.6 347.6 347.4 347.1 346.2 344.7 343.7 345.6 347.4 348.8 349 349.4 350.1 351.4 353.3 355.4 356.5 356 355.2 354.9 355.9 356.8 357.6 357.7 358.1 359.7 360.4 357.3 350.3 343.1 331.2 315.7 305.2 299.8 297.4 298 300.1 300.7 302.5 304 300.1 300.6 302.5 299.2 294.1 288.7 285.6 283.9 283 282.5 281.8 282.3 277.5 271.6 267.3 260.9 251.1 264.8 275 282.3 288.1 295.6 300.5 302.2 302.7 305.5 305.3 306.5 309.2 314.3 317.6 324.1 330.4 335.3 340.5 344.2 350.3 358.2 367.4 376.5 383.4 387.9 396.2 405 408.7 410.3 409.8 407.5 404.6 402 399.1 395.2 391 383.2 378.6 376.3 372.8 372.4 373.3 375.8 377.5 380.7 385.3 389.3 391.8 394 401.4 406.7 408.6 408.8 407 401.2 396 391.4 381.5 375.2 369.4 361.4 364 378.7 392 396.5 412.4 427.1 449.2 472.8 490.3 501.8 505.3 508.3 510.8 516 525 539 551.3 558.3 567.9 583.8 600 605.9 600.3 597.7 599.2 599.8 599.9 597.7 591.6 578.5 561 541.9 525.6 519.4 522 526.8 532.4 538.9 540.9 539.8 537.9 543.3 557.6 568.3 576 580.1 580.4
505.3 496.1 487.5 472.8 449.5 433.2 418.2 406.9 397.3 388.2 380.1 383.3 385.9 387.9 388.7 389.5 389.8 388 384.1 378.2 374.7 375.4 375.3 372.7 371 367.7 361.9 357.1 353.3 349.7 346.1 346.9 350 351.2 352.1 352.1 351.5 351.1 350.7 349.6 349 348.7 350.3 352.2 353.5 353.7 354.3 355.5 356.6 357.6 358.8 358.8 357.6 356.8 356.3 357.2 358.2 358.2 358.3 358.5 361.6 360 354.5 350.8 346.1 334.8 317.3 308.1 304.9 302.6 301.9 303.9 305.7 307.3 306.5 303.8 305.2 306.5 304.9 298.5 289.6 286.3 283.1 281.7 280.3 279.6 279.9 274.2 269.3 263.6 258.2 251.1 263.1 274.6 280.2 285 295.1 299.6 302.8 305.1 309.2 307.7 307.3 310.4 315.1 318.5 325.4 329.8 335.8 343.4 349.5 355.7 362.3 369 377.5 384 390.6 398.8 404 405.6 406.8 404.3 402 400 397.9 395 391.3 387.6 380.9 377.7 373.7 372.2 373.4 374.7 377 380.4 385.5 390.7 393.7 398.1 404.4 412.8 416.3 420.9 422 419.2 410.3 406 399.6 392.8 386.3 376.5 367.2 364.5 378 382.4 397.4 410.7 427.4 445.2 468.2 487.7 494.2 497 499.4 504.2 509.2 523.1 535.7 542.1 547.8 559.5 575.3 590.9 589.7 585.4 588.8 590.9 594.3 596 595.2 592.1 582.7 567.8 552.1 538.1 539.3 545.6 552 557.1 560.6 563.7 564.6 560.7 559 564.5 571.4 578.3 582.5 583.4
502.7 493 481.4 468.5 456.1 439 426.1 414.6 402.1 390.4 378.5 379.1 381.2 381.3 380 378.8 378.8 377.5 372.6 366.3 364.4 365.7 365.9 363.5 362.1 358.4 354.2 348.2 346.1 348.7 350.5 352.6 354.2 355.8 356.7 356.1 355.4 354.8 354.2 353.9 353.7 354.8 356.1 357.4 358.2 358.9 360.3 361.3 361.6 362.2 361.9 360.6 359.1 358.2 357.5 358 358.5 358.3 358 356.7 355.2 352.4 350.8 350 346.7 335.1 318.6 309.7 307.3 306 308.8 309.3 308.9 308.7 307.4 307.2 308.8 310.8 308.3 302.4 289 284.4 282.2 279.2 278.9 276 274.7 272 268 264.1 258.6 254.8 262.7 273 279.5 288.2 296.5 299.4 303.3 307.2 307.3 307.4 308.2 313.3 315.6 318.8 326.2 330.1 336.3 346.5 355.6 360.9 366.1 373.1 379.8 387.4 395.5 401.4 403.3 402.1 403.6 400 397.4 395.8 394.8 391.9 388.9 383.8 381 379.1 374.9 375 376.3 378 381.1 385.6 390.8 395.2 400.5 409.9 414.4 420.3 426.5 431.3 432.7 428.9 418.9 418.6 408.8 402.7 393.1 382.5 372.6 368 374.3 384.4 396.9 411.9 423.4 438.2 462.5 479.7 486.1 487.6 490.7 495.6 506.6 521.9 529.3 532.4 538.2 550.9 566.7 574.2 572.2 574.6 579.5 583.7 587.4 590.7 593.8 593.1 586.1 572.7 562.2 550.9 556.4 563.2 568.5 573.9 576.8 577.2 576.8 576.1 573.9 576.7 578 583.2 582.9 583.9
495.1 486.9 474.6 468.2 460.8 450.1 437.9 424.6 414.1 399.3 383.6 374.6 376.3 375.3 373.1 371.9 367.6 368.1 361.2 363.6 360.1 358.6 358.1 353.8 353.8 355.4 355.4 355.3 355.3 355.2 355.8 356.7 358.3 359.8 360.6 360.1 359.4 359 358.9 358.5 359 360.8 362 363.1 363.8 364.8 365.8 366.3 365.4 364.2 362.6 360.8 359.9 359.1 358.6 358.6 358.6 358.2 356.6 353.7 349.8 344.2 339.3 340.2 334.4 325.3 317.7 311.8 309.9 310.8 311.1 309.8 308.9 308.4 308.2 308.8 311.8 312.1 308.1 301.2 289.4 282.2 277.5 273.9 272.1 271.7 271.2 269.5 266.4 262.1 254.2 256.4 264.3 275.5 280.7 291.3 296.9 300.6 303 305.8 306.5 305.8 307.8 315.3 317.9 319.3 326.5 332.4 341 352 360.2 364.2 370.1 377.9 385.2 392.8 400 402.6 400.2 397.9 397.5 396.7 394.3 392.8 392 389.2 384.7 381.5 379.2 376.8 378.2 379.8 381 381.1 385.2 389.6 394.2 399.9 407.9 415.5 421.8 429.1 436.1 441 441.6 439.2 431.3 429.8 421.6 413.3 399.3 383.7 378 374.5 374.3 384.9 399.3 408.9 421.3 434.6 456.3 470.4 474.7 477.5 482 491.7 506.8 516.6 519 521.6 532.3 546.7 561.5 561 559.2 566.3 572 576.5 581.8 586.5 590.2 591.5 588.4 578.3 570.4 563.8 569.9 575.3 579.9 583.4 585.6 586.3 585.7 586 586 586 584.3 585.1 581.5 577.9
483.9 476.3 469.3 464.3 459 452.3 443 431.2 420.8 407.9 393.4 384.5 375.5 373.4 372.2 371.5 370 368.7 367.6 366.3 363.5 361 360.1 360.1 360.6 360.9 360.6 360.8 360.7 360.5 360.6 361.1 362.5 364.2 364.6 364.1 363.8 363.5 363.7 363.9 364.7 365.8 367.1 368 369.1 370.1 369.8 368.8 367.3 364.8 362.6 361.4 360.7 360.7 359.9 359.2 358.7 357.2 353.9 348.6 340.7 332.7 328.1 325.9 322.9 319.2 316 312.7 311.4 311 310 308.9 307.8 307.3 307.7 308.3 310.9 309.9 304 298.3 290.6 280.1 274.5 270.7 269.9 269.9 270 269.3 264.3 253.4 255.1 260 270.1 280.8 286.1 292.3 295 297.5 300.5 305 304.4 304.2 307.7 315.4 319.1 322.3 330.7 337.2 346.9 355.9 363 368.1 375.3 385 392.2 397.2 401.4 398.8 396.5 395.6 394.9 394.3 391.8 390.7 389.7 385.9 382.9 380.5 378.2 378.1 380.1 383 385.3 386.6 387.9 391.3 397 405.7 413.5 421.1 429.7 437.5 445.2 450.4 451.6 449.5 442.8 437.8 428 415.5 399.8 391.8 385.3 378.3 376.6 389.4 398.5 407.4 418 431.6 447.8 458.7 464.1 467.4 474.2 491.9 503.4 508.2 510.2 517 527.8 541.9 548.3 546.2 551 558.8 565.5 571.8 577.4 582 585.3 590.4 590.4 584.3 577.1 575.1 581.4 587.1 589.6 591.6 593.8 595.4 597.4 596.9 595.3 593.2 587.9 585.2 578.9 572.9
475.6 470.4 465.6 460.6 455 449.3 441.7 433.1 423.5 411.6 402.1 390.5 381.5 379.5 378.7 377.1 375.2 373.5 372 370 367.2 364.8 365.1 365.8 366.4 366.7 366.8 366.8 366.5 366.2 365.9 365.4 366.7 368.2 368.5 367.7 367.7 367.6 367.9 368.6 369.5 370.5 372 373.8 374.4 374 373 371.2 368.7 366.2 365.1 363.7 362.5 363.6 363 360.1 358.6 355.2 347.9 342.9 333.1 321.6 316.4 315.4 315.4 314.8 313.6 312.6 311.8 309.7 307.8 307.2 306.9 306.1 306.6 307.1 308.4 308 298.7 291.9 287.4 278.5 271.5 268.1 267.3 267.4 267 265.4 263.4 250.7 253.5 267.2 273.2 287.6 290.4 291.8 294.4 296.7 299 300.8 300.8 301.7 307.9 316.9 322.1 328.6 336.2 342.7 348.8 356.6 363.7 372.8 386.8 394.1 397.4 399.9 398.6 394.9 394.1 394 393.9 393.7 390 389.2 387 384.1 382 380.1 379.3 380.2 382.6 385.7 388.7 391.2 391.1 396.5 404.4 412.3 419.3 427.7 436.6 444.7 452.3 457.2 457.2 452.8 452.1 443.6 432.5 416.3 408.3 401.5 387.7 377.9 381.4 388.8 397.1 405.2 415 426.2 438.2 447.3 452.4 457 469.7 487.8 498.8 505.5 510 516.9 525.3 534.3 534.2 536.5 545.7 555.7 564.3 571.6 577.2 581.3 585 587.9 592.4 589.8 583.6 584 592.5 597.3 600.3 601.4 604.2 608 610.6 609.7 605.5 599.5 591.8 583.2 574.1 568.2
471.8 467.9 463.8 458.4 452.9 446.1 439.6 431.1 423.3 413.5 404.9 394.2 388.4 385.5 384.5 383.1 381.4 379.4 376.7 374.2 371.5 371 370.9 371.5 372.1 372.6 372.6 372.5 372.2 371.8 371.5 370 370.6 371.9 371.4 370.8 370.1 370.7 372 373 374 376 378.4 379.8 380.8 379.8 377.7 375.5 374 372.3 371 367.8 366.1 368.6 364.9 358.3 354 347.1 339.5 335.7 323.2 311.8 307.3 308.4 311.4 311.7 311.3 311.2 310.2 308.4 305.3 304.3 304.1 304.2 305.4 306.2 306.8 305.9 295.7 289.5 284.2 278.5 269.7 265.8 263.6 264.7 265.9 261.7 258.2 251.6 252.4 270.4 278.3 288.8 290.8 292.5 294.3 293.6 294.2 295.4 297.6 302.5 311.5 321.2 329.1 334.4 339.5 343.8 348.9 358 366.8 378.5 389.4 396.3 396.9 396.1 393.5 392.9 393.1 393.1 392.6 390.8 388.4 386.8 384.8 383 381.2 379.7 380.9 383.5 385.3 388 391.3 394.5 396.1 403.8 410.3 417.3 426.2 433.6 442.4 451.1 456.4 459.9 459.5 460 456 446.8 435 423.5 417.6 403.1 385.7 380.7 384.9 388.6 395.1 402.7 411.3 419 429.2 437.1 441.5 449.8 464.5 479.4 494.3 510 513.9 517.3 520.8 521.7 521.5 529.8 545.8 559 570 577.6 583.5 587.8 591.7 595.5 597.8 596 591.2 592.6 600.9 606.7 610.7 613.9 616.6 620.5 622.5 620.1 614.4 606.3 595.2 583.9 570.9 562.7
470.6 466.7 461.9 456.1 449.5 443.1 435.6 426.2 419.6 414.7 405.2 398.7 395.4 392.8 391.4 389.6 388.1 386.3 383.3 379.5 377.4 377.9 378 377.4 377.7 377.4 377.9 378.2 377.8 377.5 377 375.4 376.3 377.1 376.7 375.7 375.3 375.2 376.4 378.2 379.9 382.7 384.9 387.2 388.2 388.6 389.2 387.6 385.9 386 381.9 376.5 370.1 366 361.9 354.4 346.8 336.8 323.8 315.8 309.6 306.2 305.2 306.9 308.5 309.3 309.8 309.7 309.2 307.5 304.8 302.5 301.9 301.6 303.2 305.4 305.2 299.7 292.7 285.8 282.1 277.1 268.8 263.2 260.8 261.4 264.7 259.7 247 244.8 261.7 272.4 278 285.7 288.4 289.7 289.2 288.3 289.5 293.5 299.9 311 318.8 326.2 331.1 335.8 341.4 345.1 351.6 360.2 367.6 375.6 384.2 389.9 392.6 392.1 390.9 391.5 392.1 392.3 390.8 387.7 386 383.4 382.1 381.6 381.1 382 384.6 386.8 388.8 391.5 393.8 396.7 399.7 405.7 413.6 421.2 430.5 438.7 447.5 455.1 460.6 462.4 465.4 464.1 456 443.7 429.8 424.6 417.9 395.5 390.1 386 388.1 390.4 393.8 397.9 403.7 409.2 419 427.3 433.7 446.7 459.6 471.7 486.1 501.9 509.7 515.4 516.1 515.1 518.6 532.1 548.9 562.3 572.1 580.4 589 597.1 603.1 606.8 607.4 605.9 600.8 600.9 608.6 616.7 622.7 627.7 630.4 631.6 630.6 625.1 618.8 610.2 599 586.8 572.4 559.4
473.1 468.8 463.9 457.7 451.1 445 435.5 426.5 421.1 418.6 412.6 405 402.8 401 400 396.8 394.6 392.5 389 385.5 384.8 385.5 385.6 384.7 384.1 382.5 382.7 384.6 384.6 383.9 383.1 381.8 382 382.4 382.5 382.4 382.2 382.1 382.7 384.6 386.6 389.6 391.6 394.1 396.7 397.8 398.4 397.8 398.2 400 395.4 387.6 376 361.5 354.4 351.4 339.5 324.8 312.9 306.1 304.1 303.4 304.2 305.8 306.8 307.7 308.6 308.6 308.8 307.7 305.3 301.3 299.2 299.1 300.6 303.4 303.1 296.6 289.4 282.1 277.4 276.4 271.2 263.4 260.4 258.6 259.1 258.5 240.6 255.4 262.5 272.9 277.2 279.4 283.5 282.6 279.1 278.4 286.2 296.7 307 320.7 323.4 326.3 331.1 336 341.8 347.2 355.3 361.2 366.7 372.5 378.9 384.5 388.1 388.1 387.9 390 391.8 391 386.5 384.1 381.9 380.4 380.2 380.2 383.4 386.1 388.4 390.6 393 395.4 396.9 400.6 405.7 411.8 417.5 426.5 434.6 442.7 449.6 456.1 460.7 464.1 466.5 463.1 450.2 438.9 432.9 426.7 415.2 399.6 394.5 393.6 391 392.2 393.7 396.5 401.9 408 414.2 421.1 429.9 446.1 456.2 464.4 478.1 492.4 504.6 510.2 509 509.3 518.3 533.5 548.4 561 571.3 582.9 596.3 608 615.5 618.7 618.3 615 609.8 608.5 616.4 624.8 631.8 637.3 641.7 644.4 642.9 636.3 626 614.5 602.4 588.5 574.1 559.2
