ncols 200
nrows 82
xllcorner 260000
yllcorner 594250
cellsize 50
582.7 573.2 558.2 543.4 530 517.9 511.6 501.1 494.8 487.6 483.6 476 471.3 468.4 464.4 464.2 463.1 464.3 466.4 470.4 472.6 476.5 482.6 489.7 497.8 503.9 507.8 512.3 521.5 526.8 538.5 545.8 553.3 565.9 577.5 590.2 600.7 611.1 625.3 637.5 646.2 648.6 625.8 577.7 540.5 514 499.7 496.3 475.7 454.2 436.3 421 408.7 395.8 378.6 356.3 345 330.6 315.6 304.8 297 291.8 288.6 289.3 289.7 291.1 292.8 295.2 300.3 304.7 307.7 310 315.4 323.9 332.3 340.9 349.6 359.2 368.6 382.1 396.4 409.1 420 433.1 448.4 462.1 468.8 482.5 493.6 493.6 494 489.8 481.4 470.1 459.2 445.5 435.6 421.9 407.2 388.3 366.8 351.1 337.5 318.4 302 286.5 272.3 258.5 244.2 238.5 238.5 238.4 238.7 238.9 238.9 238.7 240 238.9 242.4 249.9 259.1 272.3 289.8 309 317.4 317.1 321.4 325.3 328.6 329.8 334 336.8 337.9 341.5 343.5 346.8 351.4 358.1 364.4 370.8 377.6 384 393.9 401.1 409 419.6 427.3 434.2 443.7 451.9 458.8 466.1 468 468.9 471.3 478.9 482 484.3 480.6 477.7 474.5 469.8 464.2 459.2 454.2 447.5 441.2 444.8 454 465.1 478.4 498.7 518 532 543.3 549.1 548 535.6 510 483.2 458.9 439.2 423.8 409.5 399.4 392 401 415.9 436.6 462 484.9 499.8 504.6 505.8 505.2 504.4 505.6 509.5 512.8 518.7
582.5 571.7 556.4 542.3 529.4 518.9 512.5 505.4 497.8 491.5 486.3 480 472 470.4 467.1 465.8 465.4 465.9 467.3 471 474 476.9 482 488.8 495.1 496 505.2 512.9 519.9 528.6 539.4 551.6 561.9 571.3 581.1 590.7 601.2 610.3 624.4 635.7 643.4 647.6 617.2 575.1 539.1 511.7 495.5 483.2 470.3 452.7 433.6 419 409.2 397.8 382.6 369.2 354.4 337.9 323.1 309.1 299.2 292.7 288.3 287.6 288.5 289.7 291.6 294.6 298.2 301.8 305.1 309.5 313.7 319.8 327.5 335.9 346.4 355.8 366.2 379.7 395.5 412 424.6 440.4 452.6 466.2 470.8 479.8 488.4 491.7 491.2 485.1 472.1 464.6 455 442.8 432.3 419.8 405.1 384.5 366.6 351.3 333.5 317.5 301 287.8 271.4 255.6 243.3 239.1 237.8 237.4 237.7 238.3 238.5 237.5 240.4 239.3 244.6 254.8 261.3 274.1 292.3 312.2 312.7 312.8 317.1 321.6 324.5 326.8 330.3 332.9 334.8 337.5 340.8 344.4 349.6 355 361.9 367.8 373.3 382.3 389.5 395.9 402.3 415.2 423.8 432.8 445.8 456.9 462.9 466.8 467.8 472.3 476.9 483 485 482.2 480.6 479.2 474.5 468.2 463.3 456.9 449 438.5 433 432.3 439.6 451.2 463.4 478.3 498.9 520.8 536 544.9 546.6 539.9 511.9 483.7 458.4 436.3 422.8 407.5 395.6 382.4 392.4 409.5 427.8 453.7 479.4 496.1 501.2 503 500.5 495.3 491.4 492 493 500.7
579.8 570.6 555.5 543.6 529.2 520.1 514.3 506.3 498.5 492.5 487.3 481.1 474.2 471.6 469.2 466.1 466.2 466.1 468.4 471.9 474.6 477.6 480.3 484.9 490.3 497 503.9 512.6 520.2 531.5 546 560.1 571 581.9 590.5 599 604.5 613.3 623.4 634.1 643.4 645.7 608.1 565.4 535.2 509.7 493.6 479.4 470 456.1 440.8 425.5 412.9 399.6 390.3 376 362.5 346.9 328.4 311.5 302.3 294 287.5 286.9 287.6 288.2 290 292.9 297.4 300.2 304 307.4 312.4 317 324 332.2 342 350.8 363.6 377.8 395.8 414.5 431.5 445.7 457.7 466.8 473.2 479.7 487.8 487.4 482.3 477.1 466.4 459.7 449.3 439.9 429.6 416.8 399.9 379.3 359.4 348.9 335.2 317.4 299.8 283.8 269.4 254.4 241.7 237.3 237.5 236.2 237 237.4 238.5 237.3 238.9 239.5 244.8 255 264.4 276.4 294.6 307 307.2 308.8 314 315.5 318.4 321.8 326.9 329.5 331.1 335.6 337.7 340.9 346.9 352.1 358 364.6 370.8 377.9 380.6 391.5 400.7 410.8 420 431.1 444.1 452.6 458.9 462.2 469.6 477.3 484.6 488.2 488 487.9 484.2 481.5 477.2 473.3 465.5 459 449.1 442 431.9 419.5 425.3 434.2 444.8 459.5 477.2 504.1 521.4 533.4 538.5 537.1 517.9 487.2 459.7 437 420.8 406.9 393 376.3 386.6 402.6 421.6 446.6 471.6 491.4 497.4 501.6 498.6 490.8 478.5 473 476.3 483.3
580.2 569.7 556.9 544.3 531.4 523.4 517.6 507.9 498.9 490.7 482.7 477.7 473 469 467.8 465.6 465.4 466.1 469.1 470.9 473.4 475.4 479.4 484.9 490.1 495 503.3 514.7 524.3 539.9 556.1 567.9 579.3 589.7 599.3 605.4 610.6 617.1 626 635.7 643.2 644.1 604.5 566.8 535.2 511 498.6 492 472.6 462.1 447.8 431.7 419.3 409.3 397.3 382.4 367.3 348.8 332.7 317.2 305.5 296.7 288.9 286.4 285.7 287.4 290.7 292.5 294.3 299.4 303.7 306.9 310.3 315.9 320.8 325.4 335.1 345.9 357.8 374.8 393.8 412.3 432.1 448.2 458.4 466.3 474.8 476.7 479.3 478.5 473.7 468.3 461.4 452.5 445.3 435.2 424.8 413.2 396.7 377.6 362.3 345.1 328.7 314.3 299.7 284.3 265.2 253.2 240.5 237.3 236.4 236.5 237.4 236.9 236.2 237.9 238.9 239.2 245.6 256.2 264.7 276.7 292.7 301.3 300.7 304.8 310.4 311.6 315 319 323.2 324.3 327.9 331.4 334.7 338.5 342.8 348.1 353.5 360.1 365.7 369.6 378.4 388.4 397.3 407 417.2 429.6 439.9 449.3 455.4 464.1 473.9 481.3 488 492.2 496.2 494.6 489.6 486.2 482.1 478.2 472.7 464.6 453.1 443.2 434 418.7 404.3 416.2 429.1 442.3 457.6 479.4 498.9 513.2 519.8 532 517.8 489.2 461.7 438.4 418.4 404.1 389.5 374.3 378 393.9 412.5 438.7 466 485.9 495.3 500.7 496.4 488.8 475.9 457.5 458.5 465.5
578.6 568.3 555.6 543.7 533.7 523.8 515.2 506.4 497.1 489.1 480.7 475.8 470.5 465.8 463.5 463 463.7 466.5 467.9 469.2 472.9 474 478.3 483 488.8 493.2 500.7 513.9 525 541.3 559.8 572.7 586.3 597.5 609.1 614.6 618.6 624.2 632.6 638.9 643.9 643 610 571.6 535.3 516.4 508.4 496.7 477.4 465.8 453 441.5 432.3 423.4 407.4 384.2 368 351 333.7 317.8 306.8 297.1 291.3 286.1 285.2 286.9 288.6 290.5 293.6 297.5 300.8 305.4 307 312.3 317.5 322.8 332 342 359.5 372.9 388.3 405.7 428.9 444.9 456.5 466.2 467.2 470.3 469.7 469 468.2 461.8 454.5 444.4 437.3 427.9 417.9 406 392.5 377.8 360.3 342.9 324.8 310.6 295.2 279.8 263.1 250.4 239.8 236.4 236.4 236.8 236.9 236.1 237.4 237.4 237.5 240.1 246.3 257.9 267.2 278.1 290 295.4 295.6 300.5 303.3 306.9 311 315.6 317.9 321.1 325.4 328.3 330.5 334.1 338 343.7 349.1 355 360.9 367.9 376.4 384.4 392.6 403 413.1 424.7 434.5 443.3 452.3 463.4 476 486 491.9 497 498.3 497.9 497.3 494.8 488.4 483.9 477.2 468.5 456 443.3 431.7 417.7 402.4 395.6 408.1 422.3 435.9 454.6 473.5 490.1 504 517.2 510.5 486.5 463.5 437.8 418.1 401.7 387.3 373.1 369.6 387.1 402 431 460.3 479.2 491.6 498.2 493.1 486.2 474 459.5 443 448.8
577.9 568.1 556.4 544.8 535.1 523.9 514.8 503.8 495.1 484.1 478.3 474.1 469.2 466.6 462.6 461.7 462.6 465.4 466 468.6 471.2 471.6 476.5 480.1 484.9 492 498.3 508.7 523.4 539 560.4 575 588.3 603.9 617.5 624.7 628.1 632.7 638.1 643.4 645 643 619 576.4 552.6 527.1 516 503.2 483.4 471.5 462.2 454 449.1 437.3 415.9 389.6 371.2 353.5 334.2 321.2 308.9 298 291.6 286.5 284.4 285.6 287.3 289.1 291.4 295.5 298.7 302.7 305.5 308.9 314.2 321.3 326.3 341.3 357 368.2 383.5 398.5 418.4 434.7 445.1 454.9 455.1 453.1 456.6 461.5 458.2 451.4 443.7 436.4 427.7 419.1 410.8 396.8 388.2 373.9 354.8 337.6 321 309.8 293.4 276.7 259.9 248.8 237.4 235.8 235.6 236.4 235.6 236.8 236.8 237.5 237.6 242.2 249.5 259.4 270.8 280.1 288.2 290.7 290.5 295.4 298.9 303.5 307.1 311.2 315.2 317.9 320.2 321.6 326.1 328.8 334.5 339.5 346.3 352.1 357.1 365.6 373.6 380.9 390.5 400.4 409.4 418.7 428.8 437.1 449.7 462.2 476.4 487.7 494.1 497.7 502 503.5 504.7 501.9 496.6 493.4 485.8 473.4 461.3 449.1 435.4 421.3 408.2 390.2 386 400 412.5 427.5 444.9 464 478.6 486 487.8 478.4 463.2 437.7 417.1 398 384.4 369 364.3 379.2 394.9 424.7 456.8 474 488 493.4 488.9 483.4 468.3 455.2 441.9 435.2
578.1 568.2 556.9 543.8 532.4 521.7 511.8 500.4 490.7 481.6 476.7 470.2 467 464.7 459.1 460.2 459.9 461.4 463.8 465 467.5 469.2 473.5 478.1 484 490.5 497.7 504.2 516.4 536.6 557 574.7 590.4 606.6 621.5 630 636.3 639.4 642.6 644.8 644.4 642.2 627.5 600 579 548.8 525.4 510 491.6 484.5 473.6 467.1 459.1 440.9 420 389.4 370.9 352.4 336.9 323.1 309.5 300.5 294.2 288.8 284.6 283.3 285.7 288.3 290.2 293.6 297.6 299.2 303.2 305.6 311.4 321.4 328.5 339 351.5 363.4 379.3 392.9 409.7 422.7 431.2 440.6 443.9 443.1 446.4 448.1 446.4 437.3 432.6 427 422.2 411.8 403.8 393.9 380.3 366.6 351.1 333 321.8 307.3 291.7 273.3 259.5 247 236.1 235.3 235.5 235 236.3 236.2 236.9 236.3 237.7 244 251.9 261.2 274.9 280 283.7 285.8 287.2 289.5 293.4 299.6 304.3 307.7 311.2 314 316.3 317.8 320.9 324.2 330.1 336.4 341.6 348.9 356.5 364 372.1 381 389.9 398 406.9 415.2 423.4 434 447.1 461 476.5 486.5 495.1 501.7 508.4 510.3 510.5 509.6 507.8 504 498.2 486.8 470.3 455.4 437.4 423.7 411.6 395.5 373.4 368.7 387.4 401.7 414.7 434.2 447.5 452 456.2 456.1 450.8 430.2 412.3 395 381.9 367 356.4 370.5 389.1 417.4 447.8 471.8 483.7 487.1 483.2 474 461.8 450.8 441.6 425.3
576 564.3 553.4 539.7 529.8 519.7 509.4 499.1 488.2 482.2 479.1 471.6 468.9 463.9 458.3 456.1 457.3 457.7 459.4 461.3 457.4 465.3 470.1 475.8 482 488.9 496.6 502.6 515.3 533.8 552.2 569.5 590.1 605.8 620.9 631.9 638 641.4 643.1 642.3 641.8 638.9 635.2 630.1 603.1 569 535.4 513.6 497.2 488 472.3 467.3 456.5 436 417.6 390.6 368.6 351.9 337.9 324.1 312.4 304.4 295.4 288.8 284.7 283.5 284.9 287.2 289 292.9 293 296.7 300.1 301.7 307.2 319.4 326.2 334.9 345.8 358 372.1 385.1 398.1 412.7 425.9 437.6 442.2 437.7 434.4 432.7 429.9 427.8 422.3 416.7 412.8 406.1 398.2 388 373.3 361.5 347.8 331.1 327.1 304.4 286.9 271.8 257.6 245.1 234.7 234.6 235.1 236 235.9 236.1 235.3 236.9 238.5 244.4 255.1 264.6 274.7 278.4 281.2 282.2 282.8 286.2 290.1 295.4 299.5 304.6 307.7 310.1 311.7 313.5 315.9 320.9 325.9 331.1 339.9 347 354.6 362.8 370.7 380.5 388.4 395.9 403.9 411.5 420.6 432.9 445.7 461.8 475.2 487.6 499.3 507.2 514.2 516.4 517.5 518.3 518.5 517.7 512.6 505 487.6 467.6 445.7 426.8 411.2 394.1 374.9 356 365.6 374.6 387.5 401.7 412.5 419.1 422.3 426.9 429.6 416.4 408.5 391.6 380.6 365.4 345.2 362.9 382.8 409.6 437.5 459 476.3 479.7 476.2 467.3 456.5 447.8 437.3 426.9
573.3 561.8 550.5 539.3 528.3 519.7 508.9 505.4 493.1 487.4 485 476.4 470.3 465.7 455.8 450.9 451.6 452.6 453.1 454.4 454.8 461.2 466.9 472.1 479.6 487.4 494.7 501.4 514.7 528.3 547.1 561 584.4 603.3 618.7 628.7 634.9 637.2 637.4 632.1 630.6 633.2 634.1 626.3 605.3 569.7 535.9 515.4 497.2 484.8 466.6 458.7 444.8 431 411.5 385 367.5 352.2 340.5 326.8 316.3 304.9 295.1 289.8 286.5 284.4 284.4 285.6 287.7 289.9 292.2 293.7 295.3 299.9 305.2 316.7 322.7 331.4 341.4 351.8 364.4 376.4 390.6 406.4 417.3 428.9 437.2 431.6 424.7 421.9 420 419 411.7 407.1 402.6 398.2 391.6 377.1 365.6 357.2 345 330.2 314.2 297.9 281.6 264.4 254.8 243.5 234.4 235.3 235.3 235.2 235.5 235.7 235.9 235.8 240.2 246.5 256.7 264.3 271.6 274.8 277.2 277.1 278.5 281.8 287 292.2 297.1 301.3 303.9 306.3 307.5 309.7 312.1 316.6 323.6 331 339.6 347.3 354.6 361.9 369.6 378 385.9 393.8 401.8 409.9 419.9 432.1 445.6 460.5 475.8 488.5 500.5 511 520 524.6 527.1 530.6 532.3 529.6 525 517.7 499.6 481.4 457.1 434.6 412.6 396 378.4 359.3 344.5 356.6 363.7 376.9 385.7 391 394.2 397.6 401.4 402 394.1 386.7 378.2 362.3 342.1 351.8 370.7 397.4 423.2 442.5 460.3 467.7 466.8 460.8 452.3 443.1 433.4 423.3
572.3 560.3 551 540.9 530.2 523.7 515.3 512.7 505.8 499.6 495 486.8 475.6 469.9 457.2 450.6 446.6 448 448.9 450.3 451.7 456.9 462.5 469.9 476.1 484.9 493.5 500.8 514.4 526.2 541.4 560.2 576.7 597.7 613.2 624.2 627.3 619.4 615.7 619.2 623.7 622.7 621.9 611.3 593.7 561.9 531.7 513.5 494.7 478.5 457.6 446.6 436.1 420.8 399 379.2 364.8 351.3 340.7 328.1 316.9 305.7 296 290.9 286.9 284.8 282.7 284.2 285.6 287.3 290 292 293 299.7 304.7 313.3 320.9 330.9 339.1 348.3 358.9 370.8 382.2 396.2 414.7 420.7 423.2 419.9 418.4 416.4 413.5 410.2 406.5 396.9 394.3 391.4 379 371.3 360.7 352.7 337 325.4 309.3 296.9 281.6 265.6 255.9 244.5 236.5 233.9 234.5 234.5 234.4 235.1 235.6 236.3 239.9 245.8 254.3 261.9 266.8 272.1 272 272.7 274.2 277.6 284.1 290.4 294.2 297.9 300.5 302.2 303 302.9 310.8 316.1 323.8 330.7 338.8 346.5 353.8 360.5 368.2 375.9 384 391 399.7 409.3 420.4 431.8 446 462.3 478.1 491.5 505.6 518.2 527.1 534.9 538.8 542.3 542.1 539.4 535.8 527.8 508.3 490.2 466.7 441.3 416.7 399.4 381.2 363.3 351.8 338 343.2 351.5 360.7 367.5 371.1 376.1 382.5 381.4 381.3 378 369.7 359.7 339.5 339.3 357.4 381.3 402.5 423.2 438 449.7 453.2 451.1 445 436.3 427 419.8
573.4 562.1 554.5 545.7 536 528.1 522.7 517.4 516.5 510.7 505.6 495.2 486.8 475.3 460.7 452.1 444.6 444.4 446.1 448 450.3 454.2 458.3 466 474.8 482.9 490.8 500.6 511.5 523.9 540.8 556.1 572.8 588.8 608.1 611.6 609.2 603.7 603.2 603.1 605.1 598.7 596.1 589.1 575.7 552.4 528.6 508.2 489.1 471.4 449.8 435.6 419.5 405.4 391.5 375.7 361.2 350.3 339.8 328.8 319.2 308 298.1 291.9 287 284.9 282.4 282.8 285 285.7 287.2 289.2 291.9 293.5 300.7 309.8 320.4 328.4 337.7 344.5 354.1 365.2 374.9 388.3 404.4 408.7 410.2 410.4 412.5 410.8 404.3 400.4 392.4 387.4 385.8 378.8 373.9 365 361.1 345 335.4 320.5 306.4 291.3 275.4 262.6 255.9 245.1 234.1 234.1 234 234 234 234.6 235.1 236.2 240.5 246.6 253.5 258.6 263.6 267.5 268 268.9 270.8 277 282.4 287.5 291.4 294.4 297.8 298.7 296.6 304.4 309.8 316.5 323.5 331.6 338.5 346.9 353.3 359.3 365.8 374.1 381.4 388.7 400.1 409.5 420.6 432.4 447.9 464.9 482.2 496.4 511 526.9 537.4 543.9 550.1 550.7 550.7 548.8 543.1 532.8 513.8 492.7 468.7 444.6 421.9 402.2 385.5 368.8 353.6 341.3 329.2 334.4 339.6 345.1 349.3 356.4 364.1 368.7 370.6 366 359.4 353.4 335 326.3 344.6 361.5 382.2 400.2 414.8 425.5 433.5 435.9 434.3 428.7 421.7 414.9
574.2 566 559.3 551 543.9 536.6 532.6 528.3 527 523.3 516.3 507.5 497.3 485.6 468.7 455.1 446.9 443.2 444.3 445.7 447.3 451.1 455.4 463.9 474 481.8 489 497.7 511.3 522.9 538.6 556.3 570.9 583.8 595.1 596.8 593.3 591.3 590.4 583.8 577.9 569.7 569.5 566.3 558 544.5 522.6 502.1 485 461 438.2 421.8 404.3 389.9 381.2 369.1 357.2 348.6 339.2 329.5 320.2 308.9 298.7 291.9 287.8 285.1 282.2 280 283 284.3 284.9 286.5 288.8 293.2 299.8 307 316.5 324.9 334.2 343 351.1 359 368.6 382.4 393.3 396.7 401.3 404.9 405.3 401.4 395.4 390.6 384.5 378.1 375.9 372.7 366.3 364.8 354.3 338.6 327.5 317.6 299.6 282.2 267.6 257.9 250.9 244.1 233 234 233.7 233.6 234.2 234.3 235.1 236.2 239 246.3 252 256.8 260.3 263.6 264.7 265.9 270.5 275.2 280.5 284.1 289.2 292.1 293.6 292.7 298.7 304.1 310.5 316.6 323.9 332.6 339.6 345.7 351.2 357.1 363.5 371.6 379.3 389 399 410.9 422.1 436.8 452.9 469.3 484.8 500.8 516.8 532.4 543.9 551.1 555.8 557.6 555.6 551.2 543.9 529.9 510.4 490.6 467.4 444.7 423.4 404.7 389.7 374 355.8 346.1 332.4 325.4 322 327.4 331.7 336.9 344.4 349.8 354.3 353.2 349.1 343 334.7 315.7 327.7 343.3 359.4 376.7 392.1 406.1 414 418.8 422.6 421 416.5 410.5
579.8 571.8 566.2 558.1 554.4 548.7 542.2 538.8 538.3 536.3 528.6 519.8 511.1 496.2 475.7 462.5 453.8 444.6 443.7 444.5 445.1 447.9 451.5 460.1 471 480.7 489.5 499 508.1 524.3 539 555.8 570 579.1 584.7 587.3 582.4 580.4 576.2 564.8 555.7 545.7 542.6 544.4 542.5 529.6 512.1 493.9 477.5 450.7 427.9 409.8 393.5 380.1 371.7 363.5 354.7 346.2 338.6 329.1 320.2 309.9 301 291.8 286.7 284.5 281.7 279.4 280.8 281.8 282.4 285.5 289.5 292.6 297.8 306.5 316.2 322.8 331.3 340.3 349.9 356 364.1 375.3 387 389.7 395.3 401 402.3 395.7 389.6 382.2 376 371.1 369.7 366.5 364.7 358.2 348.7 334 326.3 308.2 292.8 276.1 265.6 255.5 247.6 241.4 234 233.7 233.6 233.3 233.7 234.6 235.5 237.5 241 243.7 249.5 255 257.9 261.1 259.9 264.9 269.5 274.1 279.2 283.5 287.1 289.1 288.2 293.5 297.2 304.1 309.8 317.6 324.7 333 338.2 343.6 348.4 354.8 361.8 370.5 380.1 388.7 397.2 405.8 423.9 440.1 456 472 487.5 506.4 519.1 536.4 550.2 555.2 559.4 560.9 556 550.2 539.6 523 502.4 482.5 460.1 440.3 422.5 407.5 392.9 376.6 360.4 347.4 337.6 330.9 321.9 314 312.4 318.9 320.3 326 332.2 335.6 335.7 332.4 327.2 317.3 312 327.6 343.1 358.6 373.4 386.6 397.8 404 409.6 410.7 410.1 405.6
588.6 580.6 575.9 569.2 565.9 557.7 551.5 552.2 552.5 549 542.8 533.1 522.4 503.1 487.3 472.2 463.8 452 442.3 441.5 442.9 445.7 450 456.7 466.2 478.2 489.6 499 506.7 523.2 536.7 552.8 565.8 574.5 579.8 580.6 574.1 571.7 564.8 553.1 539.3 528 526 526.6 525.2 512.2 498.4 481.1 466 442.3 420.5 401.9 387 376 365.5 358.7 352.1 345.6 337.7 328.7 320.2 309.9 301.5 291.1 286.4 282.9 281.9 280.2 279.9 280.2 280.9 284.8 287.8 291.8 297.1 305.1 314.9 321 329.9 338.8 347.7 354.3 360.8 369.3 378.2 384.7 392.4 398.8 398.6 391.7 381.1 375.1 367.5 364.4 362.2 360.9 356.1 354 339 327.1 316 300.1 285 272.1 260.7 252.3 242.9 238.5 234.3 234.1 233.4 233.4 234 234.6 235.7 236.7 238.8 244.2 246.6 251.1 253.4 255.6 259.7 262.7 268.7 273 277.3 280.2 284.1 284.6 289.8 293.6 297.8 303.5 309 317.4 325.3 331.7 336.2 341 346.2 353.5 360.7 368.9 378.1 388.6 399.6 412.1 426.4 442.2 458 474.4 488.9 506.4 525 541.3 551.1 557.9 561.5 559.6 553.2 546.6 531.9 514.3 492.7 472.9 453.4 437.3 421.4 405.8 391.3 379.3 366.5 355.7 341.5 334.2 325.6 319.2 311.9 306.5 306.8 307.7 309.7 314.7 317.9 320.1 317.4 308.9 301.1 313 326.5 341.4 356 370 383.2 389.4 395.9 399.9 400.7 399.1
600.3 592.8 586.5 578 575.9 573 569.8 569.4 567.6 563.1 558.7 547.3 534.3 519.8 502.3 486.2 473.8 461.6 449.1 443.1 441.7 443.7 447.3 453.7 460.9 474.9 486.6 500.1 508.5 520.8 535.3 551.9 565.4 573.1 576 572 568.8 565.6 556.8 544 527.6 515.6 512.7 510.4 505.9 495.4 478.9 463.1 448.4 432.9 412.2 395.3 383.7 371.6 362 354.6 349.6 343.6 336.6 328.2 320.1 309.7 299.4 291.2 286.5 281.5 279.9 279.5 277.2 278.7 280.4 283 286.2 289.9 295.2 304.3 313.8 319.7 326.7 336.7 345.6 353.6 359.8 367.4 376.5 384.1 391.7 392 390.9 383.7 375.1 367.3 359.8 355.4 355.9 356.9 348.4 343.7 328.4 317.2 306.5 299.7 280.2 265.8 255.1 248.6 240.2 235.7 233.9 233.8 233.6 233.1 234.1 235.2 236.2 238.1 241.1 242.4 246.5 251.4 253 256.3 260.7 263.5 267.9 272.9 277.3 281.9 282.8 288 290.7 293.9 296.9 303.3 311 318.4 324.7 330.3 335.3 339.8 344.8 352.3 360.1 369.4 378 387.6 400.7 414.9 428 444.3 460.6 476.7 492.6 510.8 526.6 540.2 549.7 558 558 556.7 550.8 540.5 524 505 486 465.5 446.9 431.3 418.2 403.4 393.5 379.5 366.4 361.1 363.6 356.7 343.9 328.9 323.3 312.1 304.1 300.2 299.2 297.5 296.2 297.7 303.8 303.7 296.9 300.4 314.2 327.2 341 353.9 367.4 375.1 381.8 387.9 384.5 374.5
615.2 604.3 595.9 590.5 590.8 591.1 590.5 590.6 588.5 584.7 574.7 562.6 548.2 533.5 516.1 499.1 485.6 471.9 460.7 449.7 440.1 440.4 444.6 452 458.8 468.8 485.6 498.8 512.5 524.7 539.3 552.2 565.4 573.8 573.3 565.3 560.3 558.9 549.2 536.6 520.8 505.7 496.4 493.5 489.1 477.1 464.4 449.5 435.2 419.9 405.3 392.6 380.4 369 359.6 352.5 348.5 342.1 335.4 327 318.2 309.6 301 289.9 284 280.9 280.1 277.8 276.5 277.5 279.5 283.6 285.7 288.9 295.1 302.7 312.6 316.7 322.9 335 344.9 352.6 359.2 366.4 373.3 378.7 385.2 386.5 382.6 372.4 366.2 357.6 353.2 348.9 348.3 344 338.1 330 316.6 307.1 297.4 287.9 275.8 260.8 251.5 245.3 238.4 234.2 233.3 233.2 233.5 233 234.3 235.8 238.5 239.2 243 246 249.3 251.3 255.1 258.7 261.8 263.8 268.9 274.2 277.5 281.7 285.8 288.4 291.1 295.1 298.1 304.4 310.9 318.1 323.8 329.7 332.6 338.2 344.7 351.4 359.4 367.4 377.4 389.1 402.6 416.4 430.5 446.6 461.9 476.9 494.8 510.8 528 541.9 550.6 554.9 556.8 553 546.7 534.3 516.7 499.7 479.6 459.4 442.9 428.4 415.2 404.3 386.9 389.7 386.1 386.7 382.1 374.7 364.8 352.8 341.7 330.2 315.1 310.9 298.7 295 293 292 291.8 295.5 292 292.6 302.6 311.8 323.3 336.8 350.5 361.4 367.6 368.9 359.7 372.5
628.9 613.7 607.9 609.2 615.8 614.1 618.6 620.8 617.2 610.1 595.1 578.6 561.8 546.1 525.6 510.1 494.8 481.7 470.1 456.4 444.5 435.9 441.1 447 454.4 464.4 481 497 515 532.5 545.2 556.7 568.3 574.5 573.9 567.5 557.5 552.6 545.9 532.8 516.5 500.4 486.4 474.9 468.8 460 448.2 435.7 424.3 411.5 402.1 389.7 376.6 369.6 360.4 352.6 347.8 340.6 334.8 327.5 317.1 308.5 298.1 290.3 284.5 281.3 278.8 276.8 276.2 278 280.2 283 285.9 288.9 295.1 302.3 312.3 315.4 321.2 332.8 343.5 352.5 358.9 366.9 376 370.5 378.6 378.8 373.1 366.5 359.5 351.7 346.6 342.9 339.9 336 329 317.7 308.2 299.2 289.3 279.2 268.7 256.9 249 244.6 239.3 234.5 233.7 233.1 233 233.9 235.7 237.2 241.5 243.7 245.4 248.3 252.3 254.7 256.5 259.8 263.1 265.8 270.4 273.3 278.5 282 286.4 289.6 293.1 295.2 299.4 305.1 312.2 318 324.3 328.7 331.6 337.9 344.1 351.1 360.1 367.4 376.7 390 404 419 431.3 447.1 461.4 478.5 498.1 514.7 528.5 541.3 550.2 555 553.1 550.7 541.4 526.8 511.7 494.3 475.4 454.6 439.1 424 408.1 402.5 403.9 402.1 400.2 407.9 406.8 401.7 389 374 363.6 349.1 337.1 322.9 307.8 302.1 294 289.7 288.2 286 286.6 287.3 287.4 295 305.4 318.5 334.8 345.9 352.8 345.4 367 391.1
642.5 632.2 623.1 628.1 634.2 637.4 642.3 645.9 645.8 637.9 619.5 594.7 578 559 539.2 523.7 505.6 491.9 478 463.2 446.7 436.7 436.2 442.5 448.6 460.8 477 495 520.2 541.1 554.2 568.9 574.4 577.7 576.5 568.1 555.7 552.1 540.9 527.6 512.1 495 481.4 464 455.4 445.2 432.1 424.4 414.8 404.3 394.9 385.1 375.5 365.9 358.2 350.8 345.5 339.1 332.6 327.1 316.6 307.6 297.1 289.5 283.7 278.8 277.9 275.4 275 278.9 280.9 283.8 286.6 289 295.5 302.7 311 315.5 322 331.5 341.7 351 358.5 364.4 372.9 372.6 369.7 369.1 365.2 360 353.5 346.1 340 336.9 329.7 325.3 316.4 308.4 301.1 290.6 278.2 269.6 262.1 255.2 250.1 243.2 237.8 233.4 232.5 232.4 233.4 234.3 237.4 240.7 243.1 246.8 248.4 250.8 254.1 256.7 259.7 262.6 265.4 266.3 271.6 275.6 278.7 280.3 286.6 291.4 293.4 296.6 301.1 304.9 311.7 319 323.8 326.2 330.4 337.1 341.8 350.9 358.2 368.7 379.5 391 405.9 421.8 432.5 446.5 462.9 480.6 499.7 515.4 529.5 543 549.8 552.1 550.2 544.9 535.7 521.9 505.4 488.2 466.6 448.1 439 435 429 424.8 420.6 418.8 421.3 431.5 434.2 430.3 419.8 402.7 384.1 366.9 353.3 339.7 325.8 316 301.8 294.2 290 286.2 283.2 284.2 282.6 282.8 290.4 302.9 319.3 330 323.6 352.7 379.3 395.8
647.3 641.2 637.4 641.1 644.9 648.2 654 660.9 664.1 661.8 647 619.4 596 576.9 557.8 537.8 520.9 504 486.9 468.7 450.6 438.3 429 436.4 443.5 456.6 473.4 490.3 517.3 544.1 564 579.3 588 582.3 576.2 566.1 554.6 544.4 534.5 519.7 504.6 488.5 470.1 453.6 439.9 430.6 422.5 413 405.4 396.1 389.8 380.2 371.7 363.6 356 350 343.1 337.3 331.5 325.4 317.2 304.7 294.9 288 281.4 278.4 277.2 274.3 273.1 279.1 282 285 287.3 290.5 295.5 302.3 309.9 314.9 321.7 332 341.2 350 357.6 363.4 365.8 365.1 366.3 363.3 359.2 354.3 347.1 340.7 334.4 330.7 322.2 314.2 304.9 297.6 289.9 281.9 271.4 264.8 258.1 249.4 246.7 240.6 236.6 233.3 231.6 233.1 232.8 234.7 240.7 244.3 246.4 249.3 251.5 253.4 256.4 260 262.4 264.1 264.2 269.4 272.8 277.6 282.5 286.6 286.7 290.9 294 298.3 301.7 306.6 312.4 319 322.3 322.8 328 335.3 344 352.3 362 371.9 382.8 393.7 407.3 420.2 433.1 448.5 466.1 482.9 499 514.1 529.6 541.8 547 549.7 546.3 540.4 530.1 516.4 500.9 481.3 463.7 466.4 459.1 456.3 453.7 450.8 445.8 440.6 440 450.6 451.3 446.7 436.3 423 407.4 385.9 367 349.4 337.2 327.5 314.3 299.8 293.3 286.7 282.4 280.4 280.8 279.2 281.6 289.4 300 310.2 323.3 347.8 365.3 388.6
647 643.9 644.5 646.5 649.6 654.7 661.8 669.5 674.7 677.3 673.4 651.8 628 602.4 579.9 558.8 538.4 517.6 497 476.2 457.2 442.6 428.9 428.8 438.1 449.8 467.2 483.9 513.2 543.2 565.6 583.6 589.4 584.6 575.7 559.4 544 535.3 521.5 508.7 494.3 476 458.9 444 427.6 416.4 411 402.9 395.8 389.4 383.2 374.3 366.8 359.6 353.2 345.6 340.3 335.5 329.9 323.7 315.5 302.3 294.1 287 280.2 277.9 276 273.4 274.7 277.8 281 283.2 286.7 290.9 295.2 301.7 310 316.4 324.8 334.5 342.8 350.3 355.7 361.1 362.2 361.6 359.7 356.5 355.2 351.2 342.1 336 328.8 321.7 313.5 302.4 297.5 290 281.5 274.3 264.2 258.5 256 248.7 243.7 238.8 233.6 232.1 232.6 233.2 234.6 239.1 243 247.1 250.9 254.1 256.2 258.5 261.3 264.3 266.1 267.4 270.5 272.8 273.8 279.4 284 287.8 290 291.7 294.2 297.3 299.6 306.7 312.7 319 317.6 323.9 329.9 337.7 344.6 352 366 376.4 387.3 396.7 409 422.7 436.8 452.2 469.6 487 504.6 520.2 534.7 545.2 549.3 549 545.2 537.9 525.5 512.2 494.9 490.1 489 486.4 485.9 482.8 479.8 474.9 471.8 463.4 457.7 466.2 465.5 458.5 449.6 436.3 419.4 398.2 380.8 363.6 352.8 337.8 330 314.8 304.2 292.9 284.1 278.3 277.7 276.8 277.8 279.4 286.7 294.2 309.8 324.1 351 369
643.6 642.6 644.1 647.7 651.6 656.8 665.8 675.1 682.8 686.9 687.5 683.2 664.4 640.8 613.5 591.8 566.8 535.2 515.3 483.7 461.8 446.6 430.9 423.9 431.9 441 457.3 477.1 506.1 536.8 559.5 578.8 582.9 577.1 563.2 544.2 530.5 521.7 507.3 492.6 474.4 459.5 445 429.7 419.7 411.2 402.8 396.1 389.8 384 377.9 370.8 362.2 354.8 347.4 342.8 337.2 332.3 326.8 321.9 310.4 302.1 294 287.4 279.9 278.8 277.1 273.6 273.3 276.5 279.1 281.9 286.2 290.5 295.6 302.4 309.3 313.5 320.1 330 342.1 349.6 353.4 358.5 359.1 358.5 358 354.3 351.9 349.7 337.8 329.6 322.2 315.6 306 297.3 290.8 283.3 275.1 266 259.5 254.8 251.9 247.2 240.8 237.6 231.5 232.2 232.5 233.4 238.1 243.2 245.3 249.6 256.2 259.3 262.1 265.3 267.1 269.1 270.6 272.1 274.2 276 279 280.4 286.9 289.7 290.8 293.5 296.8 300.5 305.4 309.1 312.2 314.4 320.8 326.1 333.7 340.8 348.1 360.2 369.2 376 388.6 400.3 413.9 427 441.4 456.6 473.7 491.6 509 526.9 539.8 548.9 552.8 551.9 547.9 539.9 529.3 520.5 515.9 514.9 515.7 514.3 513.3 509.6 504.1 501.2 494.8 486 475.1 479.8 475.5 468 458.2 445.1 426.1 412.5 397 378.5 360.1 352.6 344.1 328.2 316.8 302.4 292 282.8 277.9 274.7 273.9 276 279 286.3 294.1 303 319 323.9
637.1 636.5 642 645.9 650.9 656.3 667.1 678.2 688.2 693.6 695.9 694.6 688.2 674 651.3 628.6 588.7 549.5 519.9 489.8 467.1 450.4 432.6 421.1 424.5 433.6 448.2 469.1 496 524.1 550.2 566.8 570.2 562 545.3 525.8 514.3 502.2 486.6 471.2 460.5 449.6 430.8 414.3 407.8 402.6 393.1 390.8 384.5 378.4 373.4 366.6 359 351.2 344.7 339.1 334.4 329.2 323.6 317.1 310.6 302.5 295 287.3 281.2 277.9 276.2 272 271.4 274.6 278 281.4 286.4 291.2 296.3 302.6 307.8 312.9 320.5 327.4 341.4 349.2 353 355.6 355.3 355.2 354.2 352.1 351 348 333.6 326.6 316.2 308.3 300.7 294 283.7 277.9 268.6 261.3 256.1 251.4 247.9 242.4 238.3 234.5 231.1 232.4 232 233.3 240.7 245 248.8 254.7 261.5 265.1 268.9 273.4 273.3 275.4 275.3 276.2 278.2 280.2 284.3 286.3 288.2 291.2 292.4 293.9 298.9 303.3 307.6 312.6 317.6 319.8 323.8 330.4 336.9 344.3 355.1 366.5 376.4 387.3 396.6 401.2 415.7 432.6 445.8 461.4 480.7 497.1 515.8 533.1 545.3 551.9 554.4 554.8 550.5 544.2 539.8 538.1 538.8 539.7 540 539.1 537.8 532 526.8 518.3 511.3 504.3 497.6 494.1 485.2 474.8 465.6 449.8 433.5 417.3 398.6 385 374.3 361.3 351.3 339.6 325.4 316.4 305.3 293.3 283.9 276.9 272.3 271.7 273.4 275.1 280.4 286.2 294.4 301.6
630 631.6 638.3 643.4 648.9 656.3 667.8 679.5 690.9 698.1 701.2 702.4 697.9 690.7 677.3 633.9 596.6 547.8 510.9 484 466.9 452.6 435.6 421.2 420.1 427.4 440.3 460.4 483.5 507.6 535.1 546.3 545.7 537.9 522.6 504.5 492 478.3 460.9 452.1 440.6 433.2 415.2 404.9 394.1 393.7 388.2 384 378.6 373 367.5 362.6 356 348.5 343.2 337.2 331.5 326.2 320.3 314.2 308.4 301.3 293.7 285.3 280.6 276.3 274.4 269.6 270.3 275.1 277.3 280.3 285.5 290.3 296.4 302.4 307 311.1 317.9 327.5 341.4 347.3 351.4 353.7 353.9 354 351.8 350.7 346.6 336.9 327.8 319.6 310.9 302.3 293.5 286.9 279 271.1 266.1 257 251.7 246.7 243.8 236.7 236.2 232.4 232.5 231.7 232.3 235.7 241.1 249.7 255.2 261.4 267.5 271.5 276.2 279.2 280 281.5 281.7 282.4 283.3 285.7 288 289.8 290.5 293.5 295.3 296.2 300.2 305.2 309.5 314.4 319.6 324.6 329.3 337.2 342.9 351.7 362 374.1 383.8 394.8 405.8 414.6 425.3 434.1 450.7 468.1 488.7 506.6 522.2 537.8 547.4 554.2 557.6 558.4 556.4 553.6 554 555.6 557.8 559 560.3 557.6 551.2 542.4 536.5 528.9 520.9 514.7 510.4 505.2 493.8 486.2 471.4 454 436.3 420.3 406.3 395.4 381.8 370.2 358.7 345.4 336.9 323.8 316.9 307.2 292.9 285.2 277.9 271.9 268.7 267.8 271.7 273.3 277.5 284.3
623.5 626.1 634.2 641 646.8 654.7 667.6 681.1 691.2 699.1 702.4 708.7 705.1 696.7 683 630.6 582.8 541.7 511.1 485.6 466 450.9 437.6 425.4 417.7 423.4 433.5 449.5 470.2 495.6 511.7 515.9 520.1 517.9 502.6 483.3 464.2 453.8 443.4 434.5 423 413.4 406.3 397.1 388.1 385.8 383.3 377.1 373.4 367.6 362.8 358 353.1 346.8 341.2 335.5 330.6 324.8 318 314.3 305.2 298.6 292.4 284.3 278.5 273.8 272.2 271.6 268.7 274.1 277.1 280.1 283.6 288.2 295.4 303.3 307.9 313.5 321.6 331.5 341.1 345.4 350.4 352.6 352.5 351.7 349.1 345.1 339.3 332 323.9 314.5 308.3 297.7 288.1 280.5 271.9 263.2 257.1 251.7 248.5 243.3 241 236.1 232.2 231.2 231.6 231.6 235.9 240.4 244.7 252.5 261.9 268.8 275.2 280.2 284.4 286.5 287.9 288.7 288 288.7 289 291.8 292.4 293.4 293.8 294.9 298.8 301.5 304.7 309.1 311.9 318.6 323.2 328.4 337.7 344.9 351.1 359.8 365.4 380.4 391.8 403.7 414.4 424.8 433.3 445.9 458.9 477.7 494.8 511.3 525.8 537.9 547.8 556.5 560.8 561.9 563.5 564 566.9 569.7 571.6 572.5 570.1 563.2 553.7 547.7 541.8 535.1 526.8 522.2 517.2 508.8 500.1 489.9 475.8 457.3 438.1 422.5 410.7 398.5 386 373.2 363.3 354.7 341.9 335 324.8 311.5 303.3 294.5 285.1 277.4 270.8 264.9 261.7 264.9 267.9 271.3
617 621.6 629.3 638.2 645.6 653.4 668.1 681.9 690.5 698.4 702.4 708 705.6 698.5 673.3 628.5 581.5 542.2 511.2 489.8 472.1 454.2 440.2 428 417.9 419.7 426.8 438.2 455.7 474.4 489.5 496.6 499.4 497.5 481.3 462.3 445.5 436 426.9 417.6 409.3 400.9 394.8 388.5 383.5 377.7 375.6 371.1 366.9 363.5 359 355 349.7 345.9 339.6 334.4 330.2 322.9 317.2 309.5 304.1 297.9 291 282.3 276.9 272.8 271.4 269.6 268.2 272.7 275.8 279.8 282.7 288.3 296.5 303.4 310 317.2 325.9 333.9 339.1 345 348.8 350.3 350.6 349.4 346.5 341.7 335.2 327.7 320.2 312.3 307.5 293.7 284.4 276.1 266.9 259.1 254 249.7 244.5 240.9 237.3 233.1 231.1 231.1 231.9 231.8 238 243.5 251.2 260.1 269.7 277.1 283.9 288.8 292.7 295.6 295.9 296 296.1 295.3 294.9 296.8 297.3 297.5 298.3 300 301.3 304.6 308 313.4 317.1 325 328.1 336.4 346.4 352.6 359.7 368.3 379.7 390.2 401.8 415.4 422.6 439.4 446.1 460.6 469.1 484.4 499.8 513.7 525.8 538.8 548.2 557.6 562.5 565.7 569.4 571.9 575.2 578.3 578.3 575.9 570.2 562.2 553.6 547.9 541 533.8 528.1 524.1 516.5 507.9 499.8 489.3 475.7 456.2 438.1 422.8 409.7 397.8 387.5 376.8 370.8 361.8 354.2 344.6 329.4 324.4 315 306 297 286.7 277.6 270.9 266.3 261.6 259.1 260
610.9 616.1 624 635.1 644.4 657.7 669.6 683.1 690.8 697.5 700.7 704.1 702.5 693.6 658.9 610.7 575.2 543.1 515.9 495.3 476.1 459.1 444.8 433 423.4 414.7 420.6 428.1 440.8 452.2 466.3 475 475.2 474.7 462.6 445.7 433.5 422.8 413.2 404.8 400.1 391.9 383.6 379.8 376.5 372.3 368.1 364.8 361.3 359.9 356.4 352.6 347.1 343 338.2 332.8 327.4 322.1 315.9 308.9 302.1 296.6 288.7 283.2 278.6 273 269.4 267.7 266.5 270.5 274.6 277.3 282.4 289.3 297.9 304.1 311.3 319.3 326.8 333.4 338.5 344.3 347.5 346.1 346.7 344.1 343.1 338.5 331.1 322.8 318.3 307.5 298.5 290.4 281.2 270.4 262.9 256.8 251.9 246.8 240.8 237.2 234.1 231.1 231 231.3 231.7 233.3 239 248 258.2 268.2 278.7 286.9 293.2 297.7 300.8 302.2 304.1 303.5 303.6 302.9 302.2 302.2 302.2 302.1 302.8 304.2 306.2 308.4 312.1 317.1 323.6 329.6 334.9 343.6 353.3 360.2 369.2 379.8 390 399.2 411.7 423.5 432.7 447.7 459.1 469.7 479.1 489.1 501.3 511.7 524.6 535.1 547.8 556.2 560.9 567.3 572.2 575.5 579.4 580.3 578.1 573 567 559.1 553.2 546.5 539.2 534 526.9 520.4 511.6 502.4 494 482.7 467.6 452.9 437.4 423.8 409.2 398.2 387.7 380.1 373.9 363.3 361.7 346.3 345.4 339.7 333.4 321.6 310.9 297.1 286.4 277.1 267.8 260.9 257.2 255
603.7 612.7 621.1 631.9 644.1 658 673.1 683.5 691.2 696.5 698.8 699.2 695.5 684.5 640.7 604.7 573.4 543 518.2 497.7 480.8 466 450.7 436.8 424.5 410.4 415.3 418.9 427.2 438.4 450.6 457.4 458.7 454.3 446.7 435.8 422.3 410.3 402.1 397.7 391.6 382.2 378.9 374.9 371.6 368.1 365 361.1 357.2 357.3 353.7 349.6 345.9 341.3 336.8 331.3 326.4 321 313.3 306.2 302.1 293.9 290.6 285.2 278.2 270.4 268.8 266.4 266.6 270.1 273.4 277.6 282.9 290.6 297.6 303.4 311.3 319.2 326.5 333.8 338.6 343.2 344.8 346.5 345.2 343.5 339.1 333.9 329.3 320.9 312.2 303.6 295.4 287.3 275 268.3 260.8 253.6 247.5 244 239 236 232.1 229.9 231.5 230.8 231.2 235 239.9 253.6 266.6 278 288 296.5 303 306.2 308.9 309.6 310.6 310.8 310.6 310.6 308.9 307.8 307.9 307.7 307.5 309 310.6 313.7 316.5 321.2 328.5 337.4 342.5 352 359.8 366.6 377.8 389.9 400.5 409.7 420.8 431.5 442 453.8 464.2 474.3 481.1 490.2 499.7 511.7 522.6 532.7 542 549.9 557.2 564.3 571.6 576.5 579.2 578.3 574.5 568.8 563.7 557.6 549.1 542.6 536.3 528.1 520.6 511.4 502.9 493.8 484.5 471.6 458.1 446.8 433.3 420.5 406.2 395.3 385.3 376.6 370.5 366.6 362.3 357.1 359 356.5 352.6 340.4 324.6 309.1 295.4 285.8 273.2 263.3 257.4 254.2
596 608.4 618 628.7 644.9 662.4 674.5 684.4 691.3 695.6 695.8 692.6 687.4 671.4 627.6 596 566.5 541.6 519 499.5 483.8 470.3 456.2 442.7 428.7 417.3 405.1 411 415.7 424.4 434.3 441 443.4 442.1 435.5 425.7 411.6 402.2 396.1 389.6 383.3 380.2 375.1 370.9 366.8 364.2 360.9 358.3 354.1 353.1 347.5 346.7 344 339.7 335.4 329.7 324.4 318 311.5 305.9 302.4 297 290.7 283.6 274.6 270.4 266.8 265.5 267.1 268.8 271.6 277.2 283.7 290.9 298.1 305.6 311.7 319 326 334.1 338.4 342.3 343.3 344.1 342.8 340.6 337.2 332.2 325.2 317.7 310.2 301.4 292.5 282.6 273.4 265.1 258.4 251.6 244.8 239.9 236.9 234.4 230.6 229.3 230.5 230.7 231.7 237.7 248.1 262 274.6 287.9 297.1 305 311.5 314.1 316.3 317.8 318.3 318.7 319.3 317.9 315.8 315.3 314.5 314 313.5 313.6 315.5 318.2 322.2 326.3 332.7 340.4 349.4 357.1 365.4 373.8 384.7 395.8 407.2 417.6 427.6 437 447.1 455.1 466 475.2 482.5 488.9 497.8 506 515.8 525.6 534.5 542.8 550 559.4 567.8 572.6 575 574.5 571.6 566.4 560.3 551.3 542.8 535.9 528.6 519.6 509.2 499.7 490.3 480.5 472.2 460.7 449.1 440.1 428.1 415.2 403.2 394.4 383.8 378.6 375.2 363.6 369.3 371.5 374.7 374.1 378.3 359.9 334.2 317.4 305.4 293 279.3 267.1 262.1 258.1
588.9 601.3 615.7 625.1 646.5 661.4 674.5 683.4 690.6 694.1 692 688.1 678.1 646.6 611.8 583.1 558.2 539.5 517.1 498.8 483.8 473.5 458.6 444.8 433.7 421.4 407.8 403.4 407.6 413.8 421.8 426.3 431.1 430.2 423.6 413 402.7 397.1 390.5 385.7 379.3 374.7 370.7 367.4 363.3 360.4 356.7 354.9 351.7 349.6 343.5 341.3 339.6 337.9 334.9 331.1 326.5 318.5 311.4 306.6 301.6 296 289.7 280.8 274.6 270.2 266.8 264.1 265.8 267.9 271.5 276.7 284.2 292.3 300.5 307.4 313.4 319.9 326.1 333.6 337.9 340.4 341.4 341.3 338.3 336.6 331.1 325.5 321.2 316.7 307.1 299.4 289.4 280.7 271.1 262.9 255.3 249.1 242.5 237.5 232.9 231 229.8 229.2 230.5 231 232 242 256 269.6 282.5 295.7 306.7 313.6 318.6 320.9 324.1 325.8 326.5 329.1 326.9 325.4 322.6 321.4 320.9 320.8 320.5 320.3 321.4 323.8 327.3 332 339.2 347.4 356.6 361.8 369.3 377.9 389.9 400.9 409.3 420.5 430.2 438.8 447.8 455.2 464.6 471.8 478.5 486.1 491.6 498.5 507.3 516.3 525.1 534.8 543.8 554.8 563 568.1 568.9 569.6 568.1 563.4 555.9 547.3 537.7 527.8 518 506.2 495.8 487.1 478.8 469.5 461.5 451.1 439.8 432 421.3 411.1 402.5 394.5 382.2 375.6 379.4 379 381.4 385.8 390.6 389.3 376.2 360.9 336.3 319.5 306.4 294.8 283.3 273.7 266.3 257.8
583.6 595 612.6 624.2 641.6 659.9 672.9 682.2 688.9 690.6 686.8 679.5 667.8 627.6 596.2 571.6 551.8 535.8 516.3 497 484.3 472.5 459.7 450 435.8 424.8 414.2 397 399.7 405.1 410.8 415.5 418.5 419.4 410.5 404 399.4 392.2 387.3 382.7 378 371.1 367.4 363.2 359.6 357 353.4 351 348.9 345.7 341.4 338.8 338 333.1 330.4 328.6 321 315.6 313.3 307.7 301.6 294.3 288.2 281.3 274.3 270.1 267 264.3 264.8 266.6 271.6 276.8 285.4 293.2 302.1 308.9 316.3 322.3 327.5 332.3 337 339 339.1 338 336.5 333.4 329.2 326.6 320.3 313.7 304.9 300.1 290.1 277.6 266 258.4 252.3 246 238.6 233.9 231.3 229 230.1 229.9 230.5 230.5 235.7 248.6 262.2 273.3 289.1 300.8 312 322.3 323.9 327.9 330.9 331.5 332.5 334.3 332.8 331 330.2 329.2 328.5 328.7 329 327.8 327.5 329.8 331.4 336.5 343.3 351.2 359.3 366.8 372.9 380.8 392.4 401.3 410.9 421.7 430.8 439.2 445.7 452.8 460.7 467.5 473.3 479.3 484.4 488.1 497.1 506.2 514.6 524.5 534.9 547.1 555.2 560.2 563.9 564.9 564.2 560.2 553.2 542.2 529 515.6 504.4 493.1 483.6 474.3 468 459.5 451.8 442.6 432 424.3 416.8 409.1 402 394.9 393.5 392.4 392.5 394.7 393.7 393.5 393.2 389.1 373.1 358.1 338.8 324.4 309.6 300.4 288.7 278.7 266.1 257.1
577.8 590.7 607.6 621.9 639.3 655.8 669.5 679.2 685.6 686.5 681.7 673.4 660.9 614.1 583.1 559.6 544.4 530.5 513.8 494.3 480.9 467.6 460.3 449.7 440.6 427.2 418.6 405.2 392.6 396.9 400.7 404.1 406.6 407 403.4 400.5 394 391.7 384.6 380.6 374.3 368.6 361.7 359.6 356.8 353.9 349.2 348.4 344.2 340.7 337.5 334.6 334 332.9 329 323.9 318.9 315.8 310.6 305.8 300.6 292.3 286.4 280.9 274.9 269.6 267.1 265.2 263 265.2 270.1 277.8 286.5 295.1 302.9 309.5 316.1 322.8 327.6 331.3 335.7 336.9 336.3 336.1 334.1 330.7 328.6 324.8 318.9 310.3 302.2 293.3 286.5 275.2 264.3 255.9 248.4 242.3 235.7 232.1 229.2 228.6 229.6 229.1 230 232.9 240.1 254.6 267 280.4 295.6 304.4 316 326.8 325.7 333.5 338.2 335.6 337.1 339.8 336.8 335.7 338.4 337.5 338.6 339.2 335.9 334.1 334.6 335.6 337.5 341.9 348.9 356.8 363.4 369.7 376 383.5 392.4 399.8 410 418.8 429 436.4 440.9 447.4 455.3 460.3 465.2 469.2 473 478.8 486.4 494.3 504.5 515.1 525.1 538 546.9 552.7 558.2 559.8 559.6 556.4 549.7 540.1 524.3 505.9 491.7 479.8 472.1 464.6 456.5 451.2 444.1 436.1 427.4 421.1 414.6 407.4 395.7 396.5 401.9 403.1 405.4 406.3 399.9 394.4 390.6 383.3 370.3 363.3 349.6 332.9 320 305.1 292.7 278.1 264.5 256.9
570.2 585.4 601.4 621.1 634.8 651.5 665 673.7 679.6 679.9 675.4 669.4 646.9 606.1 573.4 549.3 535.1 523.1 506.6 487 475.8 462.2 452.9 445.4 441.9 433.2 422.1 407.7 400 383.7 393.5 397.2 398.3 397.9 396 392.7 389.2 386.4 383 377 370.2 365.2 360.2 356.5 352.8 349.8 344.7 342.5 340.5 339.2 335.1 332.5 330.3 326.5 322.8 316 319.6 312 306.6 301.3 296.8 290.4 283.7 277.9 272.9 268.3 265.3 261.9 262.7 265.1 268.7 277 286.7 295.3 302.4 310.1 316.5 321.8 327.1 330.8 333.9 333.9 332.1 332.9 331.4 329.3 326.5 321.4 316.9 308.4 299.6 290.3 281.1 272.6 261 253.4 245.2 240.2 234.4 230.2 228.9 229.3 229.3 228.8 230.6 234.6 245.6 260.6 270.5 286.2 297.7 307.2 317.2 324.2 326.8 338 340.9 337.8 340.4 342 340.5 341 342.9 344 345.1 343.4 340.5 341.6 341.3 341 343.6 350 356.1 363 365.9 372.2 378.3 384.7 391.4 398.4 405.7 414.4 421.8 428.5 434.7 441.7 448.7 453.3 455.3 459.8 462 467.6 473.4 482.1 494.4 504.3 515 527.7 537.1 543.8 549.7 553.4 553 549.7 544.3 536.7 525.3 508.9 494.8 481.8 470.1 456.3 447.5 439.2 434.7 428.9 422.9 418.2 416.9 416.9 411.1 412.6 415.2 416 415 413.7 407.3 392.4 381.5 372.2 361.7 348.7 334.5 326.1 315.3 298 285.5 272.9 262.7 251.2
560 579.4 597 615.4 633.5 645.8 659 667.9 672.5 673.4 670.8 666 646.5 601.8 568.1 544.9 529.1 514.1 495.1 484.7 466.4 456.7 448.5 445.8 440.9 434.9 420.1 411.6 400.7 388.4 382.4 392.6 393.1 392.4 391.8 388.9 386 382.8 379.1 373.2 367.3 361.3 356.9 354.6 350.7 344.6 340.9 339 339.9 335.3 331.3 329.2 328.3 324.9 320.1 314.5 309.7 308.4 302.9 298.3 293.4 287.1 282.1 276.6 270.2 266.2 263.4 260.2 261.6 263.4 270 278.4 287 295.4 302.8 310.2 315.6 321.5 327 329.7 331.3 330.1 329.6 329.5 327.7 326.3 324.2 320.7 314.4 305.4 296.8 288.3 276.7 267 259.1 251.4 242.8 236 231.3 229 228.7 229.1 228.5 229.3 231.7 238.3 250.5 263.9 273.9 287.5 297.8 308.7 315.3 320.9 327.4 334.7 337.3 337.7 340.5 343.8 342.1 344.7 347.8 348.3 347.2 345.6 346.8 348.5 346.5 346.4 350.7 356.5 362.3 363.9 366.9 372.9 377.5 382.5 390.8 396.5 401.7 410.5 415.9 421.8 426.1 432.6 439.2 441.1 444.1 447.1 450.6 455.9 460.2 469 481.3 494.3 505 516.8 524.4 533.3 539.7 542.7 543.5 539.5 535.5 529.7 521.9 510.7 499.9 489.5 478.2 466.4 458.2 449.8 446.3 441.4 438 433.9 429.6 428.4 424.2 427.1 427.5 426.1 420.8 413.7 403.9 388.2 373.1 359.7 346.8 335 324.7 313.8 299.4 285.8 275.2 265.5 252 248.3
554.6 572.8 592.8 611.5 626 642.1 654.2 664.1 667.5 669.2 666.5 659.5 644.6 603.9 569.5 540.1 523.9 507.1 487.4 472.3 464.9 453 445.9 441.1 437 432.6 420.8 412 400.4 391.8 383.2 376.8 386.7 387.4 386.9 385.8 381.3 377.2 374.2 368.1 363.6 358.8 354.8 351.8 346.8 343.5 336.8 333.8 334.6 331.3 328.1 325.3 323.3 320.3 312.9 313.5 311.3 304.3 301 298.7 291.2 286 280.1 274.3 270.2 266.2 262.7 259.3 260 261.5 269.8 279.4 287.5 295.4 303 310.2 316.7 321.8 325 327.3 327.1 326.6 325.5 325.6 323.9 322.3 320.3 317.7 311.2 302.9 292.6 284.7 275.2 263.1 253.9 246.1 238.8 232.8 230.2 228.7 228.3 228.6 228.5 229.2 232.5 242.2 254.1 265.2 276.6 288.8 296.7 307.3 312.6 318.9 328.2 330 333.8 335.5 339.6 343.2 342.4 346 349.4 351.6 349.2 348.9 352.1 352.7 352.1 355.8 360.3 362 363.2 366.1 368.4 373.4 377.2 381.9 388.5 394.3 398.3 404.2 409.1 414.1 418.5 424.8 427.1 432.2 434.8 437.7 440.2 443.9 448.6 456 467.7 481.4 494.2 504.3 513.3 520.4 526.9 528.8 529.4 527 523.4 519.4 514.2 506.5 501.4 494.4 487.7 478.1 470.6 464.3 459.1 454.9 451.3 447.6 443.5 439.3 435.6 437.4 434.9 430.8 422.5 411.3 397.6 378.9 362.4 349.1 334.4 320.3 307.9 299 285.1 275.3 264.8 247.2 253.5 256.9
547.9 567.2 587.3 606.7 622.2 636.5 649.5 659.2 663.6 664.1 659.6 654.8 644.6 611.8 573.3 538.9 517.7 502.1 481.8 465.2 455.1 446.2 443.6 436.1 432.8 428.2 420.6 412 398.7 390.3 384.6 378 370.4 381 381.6 381.7 375.3 370.6 367.2 364.8 361.1 355.5 351.3 347.7 344.9 339 336.2 332.7 331.3 328.6 326.7 323.9 320.7 317.2 313.9 307.2 310.3 310.7 301.8 296.5 290.9 288.1 279.7 273.6 268.7 265.5 264.2 257.8 258 260.5 270 278.8 286 295.6 303.8 310.4 316.8 321.2 323.7 323.5 323.2 322.8 321.9 320.5 318.2 318.3 317.2 314.9 308.6 297.9 289.9 281.1 273 261.5 249 241.3 234.6 231.3 228.5 228.2 228.1 228 227.8 230.2 234.8 245.1 255.3 266.4 278.5 287.8 295.6 303.8 309.5 315.6 322.3 327.3 329.8 331.7 335.2 339.6 341.9 345.7 350.1 350.8 351.4 351.8 352.6 356.1 357.2 361.9 364.7 365.3 366 368.9 371.3 373.9 377.1 382.5 386.6 389.7 394.9 398.3 403.2 407.9 410.7 415.6 419.1 422.2 426.5 430.4 430.4 434 438.6 445.6 455.6 468.8 482.3 493.3 500.2 505 508.6 510.8 513.3 510.5 509.2 507.5 506.1 502.3 498.4 494.5 490.3 485 480.9 476.4 471.8 466.6 461.7 455.9 449.8 444.7 444.3 441.6 438.5 433.9 422.2 408.5 389.4 369.5 352.2 339.5 319.4 304.1 294.7 286.2 274.8 265 249.1 260.9 266.5 265.5
542.7 560.8 582.8 601.4 617.7 631 645.7 655 657.7 656.7 654.2 649.1 642 623.8 581.9 541.1 515 498.6 479.6 462.7 450.5 444.9 435.7 428.3 425.4 422.7 414.6 405.5 396.5 388.7 381.7 379.2 368.4 376.3 374.9 374.5 370.8 365.5 362 359.3 357.8 352.2 348.2 344.1 342.5 337.4 334.8 331.6 326.3 323.9 322.8 319 316.2 311.2 307.6 304.6 300.2 298.6 298.1 293.7 290.9 285.7 276.2 275.5 265.7 263.2 261.6 257.5 256.1 262.4 269.5 276.8 286.1 295.1 303.5 310.2 316.2 319.8 321 320.3 320.2 318.9 318.1 316.1 314.4 314.4 314.7 311.1 304 292.2 285 276.6 264.8 255.3 246 239 232.9 229.1 228.3 227.5 228.5 227.7 229.1 233.7 239.2 249.2 258.3 268.3 278.7 286.8 294.8 302.6 306.7 312.8 318.4 322.2 324.5 327.9 332 336.7 340.5 345.4 351 354.9 356.9 354.9 355.3 356.8 360 364.1 365.3 366.1 366.8 371.1 373.3 375.1 378.5 382.2 384.9 388 391.9 394.8 397.7 399.8 402.2 408 412.1 415.2 418.1 419.9 421.9 424.4 430.5 435.8 446 458.4 471.9 482.7 486.2 487.9 490.4 493.3 494.1 493.8 494.3 495.6 496.1 495.6 493.8 492.4 490.6 487.3 482.6 480.1 476.2 471.7 465.6 458 453 449.5 447.2 441.8 436.7 428.3 417.8 400.2 382.4 365.3 350.7 333.2 314 297.5 285.4 273.1 256.8 250.1 260.2 269 274.4 278
539.9 558.2 580.2 598.6 613.8 628.1 640.8 646.6 648 647.3 645.3 643.2 636.1 620.6 588.8 549.5 516.5 495.4 479.4 463.3 448 439.6 431.2 422.8 420 416.4 410.4 403.1 394.5 385.6 381 375.6 368.7 370.2 368.4 367.6 366 361 357.2 355.1 352.9 349.7 346.2 342.8 339.5 335.3 330.9 328.4 325.7 324.9 321.6 318.5 314.6 310.7 309 305.5 303.2 300.4 292.4 288.3 283.6 277.6 276.5 276.5 272.4 264.5 259.9 256.7 253.7 262.6 269 275.6 285.9 295.5 303 310 315.3 317.8 317.5 316.6 316.4 315.1 313.4 312.4 311.1 309.4 310.1 302 293.1 289 278.8 269.9 259.1 250.7 241.6 235.4 232.2 228.8 227.1 226.7 227.4 227.9 230.8 232.8 241.4 251 259.6 270.7 278.1 286.6 293.3 299.7 304.8 310.4 314.9 318 320.9 325.4 330.1 334 340.2 345.1 350.6 355.5 357.7 356.6 358 358.6 360.4 363.5 365.3 366.3 369.6 371.4 373 375.3 379.3 382.5 383.9 386.5 388.9 391.6 393.5 394.8 397.1 401 404.4 407.2 409.6 411.6 413.6 418.1 422.7 429.5 436.6 447.6 460 471 472.9 473.8 473.7 475.5 476.4 477.7 481 483.3 484.7 486.8 485.9 486.8 486.6 485.3 482.2 479.6 476.3 471.7 467.4 460.7 455.5 452.1 446.5 439.6 430.6 421.8 408.7 393 376.6 359.4 342.8 324.4 308.6 290 274 254 254.4 265.7 268.2 279.8 284.5 290.5
536 557.6 578 595.6 611 624.2 632.1 634.4 635.6 634.5 634.3 635.1 627.7 613 594.3 556.1 520.6 493.6 479.6 463.3 449 438.1 429 420.6 415.3 411.9 404 397.5 389.9 383.2 378.6 374.2 368.8 360 366.4 363.3 362.1 358.7 356.6 351.1 347.9 347.2 344.5 341.2 336 331 330.9 329.6 325 314.6 314.4 317.1 309.8 305.2 304.6 299.1 298.9 299.2 295.4 290.6 288.4 283.9 278.1 273.5 267.8 263 260.7 256.7 252.5 261.9 267.5 276.7 285.6 295.1 302.8 309.7 314 314.1 313.1 314.6 313.9 311.8 309.4 308.2 305.9 304.1 301.8 295.2 289.4 282.4 272.9 262.2 253 244.7 238.1 233.2 229 228 227.3 226.9 227.4 227.4 230.1 236.8 243.4 252.9 261.2 268.2 279.9 285.1 291.4 296.8 302.4 305.8 311.3 316.5 320.1 324.8 329.5 333.7 340 344.3 350.5 353.4 356.6 357.9 359.4 360.9 362.3 365 366.3 367.2 368.7 371.2 373.8 375.8 378 380.3 383.5 385 387 389 389.9 390 392.3 394.3 397 399.6 402.2 404.4 407.3 409.9 416.9 422.3 430.6 441.5 451.7 458.1 457.9 457.8 458.7 458.4 460.1 462.3 464.3 469.8 473 475 475.8 479.1 483.9 482.1 481 479.9 476.9 472.6 466.9 463.5 458.4 452.3 443.8 432 422.5 409.7 395.3 380.2 364 346.7 330.4 313.3 298.6 277.6 253.8 254.5 266.3 275.3 283.2 292.3 294 298.1
535.6 555.2 575.7 592.8 606.7 615.9 619.7 620.2 620.2 621.2 623.9 622.8 614.4 605 591.1 562 525.7 497.2 479.7 461.2 447.3 434.8 425.4 415.9 411.1 405.2 399.8 391.8 385.9 380.4 375.2 373.9 371.3 364.9 355.6 358.9 357.7 359.6 354.1 348.8 347 344.7 341.9 336.7 331.1 326.4 320.1 317.1 316.2 318.7 310.9 310.1 306.6 309 306 300.3 294.3 294.1 292.7 290.4 289.2 288.1 279.4 270.4 265.8 262.1 259.4 255.4 251.1 258.9 266.2 274.9 284.7 294.5 302.9 309.1 312.3 312.7 312.9 311.8 309.9 307.9 305.5 302.8 302 298.9 295.1 290.5 285.1 275 265.6 255 246.6 242.2 235.9 230.7 228.1 228 227.3 226.9 227 227.5 231.3 237.9 247.1 254.8 263.9 272.2 280.8 287.8 295.1 300.8 305.8 309.7 314.3 319 323 328.3 331.4 336.9 341.4 347.8 356.8 356.4 357.1 358.4 360.2 361.5 363 365 367.9 369 370.3 371.9 374.5 376.6 378.5 379.1 381.3 383.9 385.2 387 386.3 386.4 388.5 388.5 389.5 392.6 395.8 399.4 401.5 405 410.8 416.6 425.8 435.3 441.8 445.2 446.2 447.1 445.4 446.3 447 447.9 450.6 455.4 459.3 462.3 466 471.3 475.8 478.7 480.4 479.9 478.1 473.6 468.9 465.1 459.1 453.2 444.8 430.8 410.5 394.6 379 365.6 351.3 337.2 322.3 303.4 284 259.1 259.8 267.9 275.9 285.9 295.5 298.8 302.2 304.5
534.8 552.6 572.5 588.2 598.4 603.4 604.9 606.2 603.8 603.9 607.4 606.9 603.6 593.7 580.2 562.8 530.4 499.8 478.1 459.4 443 430.5 420 412.5 406 399.4 392.9 385.5 381.6 379.2 374.7 372 369 366.1 359.5 355.4 353.9 356.4 348.6 349.3 343 340.6 332.3 327.7 325.1 327.3 327 322.4 322.3 321.7 320.9 318.3 313.7 311.1 306.2 301.5 296.7 289.7 288.3 288.6 288.2 282.4 274.6 270 264.9 261 256.5 253.5 250.3 257.1 265.4 274.6 284.3 294.6 301.9 307.1 310 310.9 311.1 308.4 304.7 304 301.4 299.7 296.5 293.8 291.2 285.1 277.2 267.8 259.3 250.3 245.4 239.5 232.7 228.1 227.3 226.9 226.7 226.9 227 225.9 232.8 240.6 248.3 257 266.8 275.7 283.8 291.1 296.6 302.3 307.1 312.7 317.5 321.8 327 331.8 336.4 341.5 347.3 350.2 354.8 357.6 359.5 360.1 360.5 361.2 364.6 368.5 368.5 370.1 370.7 372 373.9 377 378.3 379.6 381.2 383.1 383.3 383 383.2 383.4 384.2 383.6 385 386.4 389.6 392.5 393.8 399 404.6 412.1 420.9 428.9 433.2 434.8 434.9 435 433 433.9 436.1 435.9 437.6 442.3 446.3 450.7 454 460.7 468.8 475.4 479.8 479.1 478.3 476.2 471.1 465.1 457.7 452.2 438.5 422.4 398.7 381.9 365.7 352.7 339.8 326.3 307.4 289.8 271.9 253.2 265.4 274.8 284.9 294.6 300.3 302.9 305.4 312.6
529.4 549.7 567.5 579.7 585.6 587.7 587.8 585.2 583.8 587.8 590.4 592.3 585.8 576.4 565.7 553.1 533.1 500.6 474.3 456.3 439.5 426.8 415.9 407.5 400.9 395.2 387.5 381.1 376.3 374.9 372.6 371.7 364.6 363.2 363.2 361.3 353.9 348.6 343.5 342.1 340.7 335.8 335 336.8 334.6 333.7 332.5 328.8 328.1 325.8 322.8 318.2 315.4 311.2 305.6 301.4 297.5 291.8 286.3 281.8 276.6 285.9 272.5 267.6 263.3 259.9 255.1 250.2 248.6 255.5 264.6 273.7 284.1 293.8 300.3 304.5 307.2 308.2 307.7 306.3 301.5 296.6 297.1 295.3 290.4 285.3 282.2 277.6 269.7 259.9 252.3 248.3 242.2 236 230 226.7 224.9 225.9 226.4 226.6 225.4 229.1 237.4 243.5 251.2 260 270.6 279 286.6 293.6 299 304.2 311 316.7 322.5 327.5 333.7 338.6 342 347.7 352.5 356.4 357.3 358.9 360.3 360.4 360.8 361.6 366.1 368.3 366.9 368.3 368.7 370.7 373.6 374.9 379.1 380.1 381 383.2 382.1 381.5 381.3 378.6 378.8 378.8 380.4 382.4 384.9 387.3 391 393.9 399.6 407.4 415.5 421 424.5 425.4 424.3 422.9 422.4 423.9 425.6 426.4 426.8 430.3 434.5 437.1 444 453 463.8 472.3 478 477.9 479.3 476.5 464.7 453.3 444.8 431.7 417 401.2 382 368.5 353.9 341.3 328.2 310.3 294.9 275.7 254.9 257.3 268.1 282 292.4 302.4 304.5 310.5 316.5 322.2
525.5 543.6 558.2 567.9 571.2 571.4 567.8 564.6 565 567.8 571.2 571 564.8 558.4 553.1 543.1 528.4 502.8 473.4 454 435.4 422.8 412.1 403.1 396.3 388.9 382.3 375.9 371.9 369.7 369.7 368.2 364.5 362.4 361.8 355.8 351.6 349.5 346.4 345.1 342.4 340.7 338.4 338.8 338.2 337.2 336.2 334.6 331.5 328.5 325.2 320.7 316.2 310.3 306.1 301.6 297.9 291.7 287.5 283.3 274 274.1 269.8 264.8 260.4 257.1 253.7 248.3 247.1 255.6 263.7 272.8 282.3 292.5 298 302.2 305 305.8 304 302.1 298 294.6 290.7 289 283.6 278.7 276.2 270.5 261 254.2 245.9 242.1 238 231.4 226.9 225.4 225.8 226 226.3 226.7 228 231.5 239.6 247.3 253.9 263.6 274.2 283.1 290.7 297.5 303.4 309 315.8 322.2 328.2 333.6 340.7 346.2 350.5 355.1 359.1 361.1 361.2 360.6 360.6 361.3 360.9 362.1 364.2 364.5 365.5 367 367.7 368 372.5 375.1 378.7 380.1 381.7 383.9 380.9 380.3 378.9 375.2 373.9 374.5 376 377.9 379.5 379.7 385.7 389.4 394.6 402.5 409.8 413.7 415.4 414.6 413.2 413.9 414.5 415.2 416.5 416 416.6 421.3 422.1 427.1 438.2 450.3 460.4 470.9 471.9 470.8 469.5 457.9 437.4 424.5 414 402.4 389.6 377.4 366 355.6 340.9 329.2 314.6 298.9 280.6 265.1 256.3 263.5 274.7 288.1 299.6 308.8 311.9 319.2 324.5 328.9
518.2 535.8 549.2 554.4 556.9 554.3 549.2 546.9 546.3 547.4 548.7 548.8 545.9 542.8 539.7 531.2 518.1 499.2 471.1 450.6 432 417.9 406.5 397.2 390.5 382.6 375.6 368.8 368.9 363.9 365.9 365.3 366.3 361.1 358.4 353.8 350.9 349.7 347 345 343.7 342.3 340.2 340.8 341.1 340.9 340.1 338.4 335.2 331.3 327.6 322.1 316 311.8 307.5 301.3 297.4 291.6 287.1 280.5 275.2 269.6 264.6 261.1 255.5 253.8 251.5 246.3 245.7 253.9 261.7 271.5 281.3 289.4 294.6 298.5 302.6 304.2 301.2 298.4 296.2 290.1 288.8 285.6 278 272.5 268.1 261.3 255 250.4 242.7 239.7 234.1 230.6 225.9 224.3 224.3 225.1 227.5 227.8 230.3 236.1 242.9 249.2 257.9 268.4 279.1 287.5 295.6 301.8 308.1 315.4 321.9 327.1 333.2 341.6 349.2 355.9 360.6 363.2 366.2 365.2 363.3 362.5 362.3 361.4 361 361 361.5 362.6 362.5 363.2 364.9 367.5 371.1 374.5 377 381.3 382.8 383.6 379.1 378.7 376.4 373.2 371.2 369.4 371.1 373.5 373.8 375.8 378.8 383 390 397.9 403.1 404.3 405.8 405.4 403.6 405.8 406.3 406.5 406.9 407.2 401.8 410.4 414.5 419.4 432.1 443.4 453.9 462.1 456.8 452 443.5 430.9 412.7 400.7 390.9 378.2 369.5 359.6 347 336.9 324.7 312.6 300.1 289.6 273.9 262.3 262.2 276.7 284.7 298.3 305.7 313.3 319.3 326 331.3 337.5
509.9 526.1 534.2 540.6 541.8 536.8 532 526.9 524.5 524.8 525.5 527 525.7 526.9 524.1 515.8 505.7 489.3 464.8 444.2 427.2 411.9 401.1 392 383.4 376 368.1 363.8 361.6 361.4 364.4 363.6 360.9 359.7 356.2 351.7 349.9 349.5 347.1 345.3 342.6 341.2 341.8 343 343.7 344.6 344 343.3 339.4 335 329.8 324 319.2 314.9 307.6 301.4 295.3 289.6 286.8 281.5 275 272.3 267.5 263 257.2 252.5 248.7 246.2 243.9 253.1 260.4 269.8 279.2 285.1 295.5 296.3 299.5 300.8 299.9 296.8 291.3 287.2 283.2 276.7 271.8 266.7 261.6 255.1 248.8 246.3 238.6 237.5 232.3 228.1 225.9 226 223.7 225 227.4 228.4 231.5 238 244.8 253.1 262.5 273.6 284.1 293.2 300.4 307.4 314.7 321.7 327.3 334 341.8 350.3 357.7 365.1 368.7 370.9 370.1 365.7 364.8 364.2 363.8 362.5 359.7 360.2 359.6 361.2 361.8 360.8 362.6 365.6 368.9 372.2 376.8 381.7 382.7 382.5 379.3 376.5 373.8 370.1 367.3 366.2 367 368.3 368.1 370 372.3 377.1 384.1 390.1 393.7 395 395.7 395.8 395.8 397.2 397.1 396.9 395.4 394.7 397.7 401.5 402.5 414.6 422.9 431.1 440.7 437.6 433.9 426.7 415.9 402 389.1 379.6 369.5 356.5 344.9 333.3 324 317.8 306.2 294.7 282.7 276.8 269 258.2 270.5 287.6 297.2 305.7 315.9 319.9 326.7 333.7 339.6 343.3
501.5 512.3 519.3 525.6 523.6 520.2 515.9 509.9 504.4 504.1 504 505.3 507.2 508.3 506.5 501.4 491.1 476.4 456 438.3 420.4 403.4 396.4 388.5 377.1 369.8 364 357.9 355.3 359.2 363.5 358.7 359.4 357.1 352.8 350.8 348.8 347.1 345.8 345.8 343.6 343 343.2 343.6 345.7 347.3 347.9 347.6 345 340.2 334.9 327.3 324.3 320 309 303.4 296.5 290.4 286.7 281.2 273.7 271 265.7 262.9 257.3 254 250.5 245.8 241.9 251.9 258.5 268 275.2 282.8 286.1 290.9 297.2 297.5 298.1 292.7 287 280 272.9 267.6 264.8 259 253.4 248 242.7 239.7 235.3 232.1 229.9 227.6 225.1 225.6 225.6 227 227 228.9 231.7 240.5 247.2 256.4 267.6 279.9 289.8 298.8 305.8 314.1 321.3 327 333.1 341.5 349.9 358.6 368.4 374.4 376.2 375 369.5 367.1 365.1 365.2 364.9 360.6 359.3 358.4 357.5 358.2 358.9 359.5 360.4 364.8 367.1 370.9 376.6 381.4 381.7 381.8 379.4 373.7 372.1 367.7 363.5 363.6 361.7 362.3 364.4 366.3 368 371.9 376.1 381.9 384.8 386.6 384.7 387.4 386.7 387.6 387.2 387 382.2 384.8 387.8 390.1 391.8 408 410.9 408.4 414.1 409.4 403.9 397.1 387.7 374.3 365.1 360 348.8 332.6 325.1 316.1 307.1 296.9 283 278.3 269.4 261.8 260.5 271.6 282.7 299.7 307.8 316.7 324.5 329.4 333.8 341.6 346.4 351.1
488.1 495.7 503.9 508.2 507.4 505 501.3 492.3 484.9 482.5 481.9 484 488 490.6 488.5 483 476 460.7 448.3 429.1 412.1 397 390.9 382.9 371.8 363.2 358.9 354.6 352.3 355.8 357.6 355.2 353.7 353.5 352.3 350.2 348.8 346.6 346.1 345.2 344.5 344.3 344 345.7 348 349.3 351.5 352.9 351.2 347 341.2 333.1 325.3 318.4 310.9 305.7 299.2 293.6 288.2 281.7 274.8 271.7 263.9 259.2 254.1 252.2 250.4 246 243.3 250.9 257 267.2 271.7 280.8 285 286 294.3 297.8 295.3 286.9 280.4 274.4 266.9 262.9 260.3 253.7 247.8 242.5 237.8 234.7 231.5 229.6 229.7 226.1 226 225.2 224.9 228.9 228.6 229.5 232.6 242.2 251.9 262.5 274.6 286.3 296.2 304.3 313 319.7 325.5 332.2 341 349.9 359 367 375.8 380.1 380.1 376.1 372.1 367.6 364.7 365.2 362.5 358.9 358 356.7 355.6 355.4 355.9 357.4 359.1 362.5 366.1 370.1 376 378.8 378.9 379.2 375.5 371.7 367.7 365.4 362.2 359.4 356.5 358.6 359.2 359.3 361.3 364.7 368.5 373 376.7 377.7 376.6 376.7 375.4 376.8 378.9 372.9 372.3 371.2 376.6 380.9 389.7 390.4 382.8 385.6 384 380.5 376.1 371.3 364 353.3 347.6 339.8 327.9 319.1 309.7 300.7 287.8 277.9 270.7 263.3 262 268.9 275.6 284 304 316 325.2 332.8 337.3 342.5 345.4 349.3 356.3 360.8
473.2 479.2 486 489.7 492.3 492 486.3 473.5 468.5 463.2 461.7 464.7 469 470.1 467.4 462.8 456.6 448 434.1 418.4 402.8 392 386.3 378.5 365.7 360.8 354.4 350.9 348.1 351.8 352.8 352 350.5 349.9 347.6 348.2 349.1 346.3 345.9 345 344.5 345.5 345.1 346.8 350 352.3 357.4 359.6 358.4 352.1 346.3 337.7 330.3 321.5 315.1 307.5 300.8 295.1 288.8 282.6 277.2 272.2 266.4 260.8 255.5 251.5 248.4 245.7 240.1 248.9 254.2 261.2 270.6 276.9 283.6 286.6 289.4 291.6 288.7 281.3 272.5 269.7 261.5 259 256.2 248.5 243.6 238.7 234.7 233.2 230.5 227.2 226.7 225.2 223.5 224.7 226.4 230.2 231.3 232.6 235.7 245.5 257.4 269.5 282.4 292.9 302.6 309.7 319.3 325.7 332.5 340.1 347.6 357.4 365 370.7 380.7 383.3 381.7 378.6 372.4 365.8 362.8 360.6 358.5 357.6 356.7 355.4 353.1 353.4 353.5 355.2 357.5 360.3 363.7 368.7 373 377.7 377.7 377.6 375 372.6 365.5 362.5 359.1 356.6 353.8 352.9 353.6 355.2 357.4 358.8 359.8 363.9 365.6 367.4 367.3 366.5 367.8 366.8 364 362.5 363 361.4 367 375.6 382.4 370.2 366.2 367.4 364.3 360.6 356.4 349.9 343.2 335.5 327 317.4 308.8 301.5 291 283 274.1 268.7 266.8 271.3 275.9 280.4 294.5 308.5 322.8 333 343.3 351 356.1 357 360.2 363.7 365.5 371.3
462.1 466.3 473.7 474.4 476.5 471.6 467.4 460.8 451.2 447.5 444.4 446.5 446.5 448.2 444.7 443.5 441.6 430.6 419.2 406.9 394.2 384.3 380.2 371.8 360.8 354.6 351.2 347.6 342.7 346.4 346.7 347.5 348 347.7 345.9 344.7 346.8 345.4 344.9 344.4 345.2 345.2 346.3 347.9 351.8 358.8 364.2 366.7 364.2 357.5 352.1 342.8 333 326.5 318.4 310 301.7 295.2 288.9 283.4 278.8 273.1 267.7 261.5 255.9 252.6 249.9 246 238.2 246.5 250.8 259.4 267.1 274.4 279.8 283.1 286.6 284.6 282.5 275.3 267.6 261.3 256.7 252.6 249.2 243 237.3 233.9 231.4 228.9 227.3 225.7 225 224.5 225.3 225 230.1 230.7 232.7 233.8 241.8 252.8 264.9 276.8 289.1 299.9 306.8 318 324.6 332 338.9 346.1 354.8 362.9 368.7 375.9 380.1 382 382.9 379.7 370.1 362.2 359 357.7 356.2 354.5 354 352.2 351.6 350.9 352.2 353.4 355.5 357.3 360.6 366.4 369.1 373.9 372.5 374.1 370.8 367.7 362.3 361 356.1 351.6 348.4 345 348.8 352.1 352 351.7 351.9 353.6 356.2 356.9 357.3 356.8 357.2 356.4 355.5 353.5 354.2 354.9 358.4 362.8 360 351.3 353.4 354.2 350.5 343.4 336.7 331.5 326.2 317.7 304 298.3 290.9 288.7 277.5 272.7 267 271.5 279.5 290.7 296.6 306.5 318.1 330.4 343.8 355.7 363.2 369 374.8 375.3 378.2 378.8 381.3 382.6
450.5 456.8 459.7 462.2 461.6 457.2 452.8 446.1 438.6 432.8 429.9 428.4 426.6 429.5 429.1 427.4 423.2 415.3 405 393.1 384.4 379.8 373.7 364.6 355.2 349.9 346.8 342.7 337.5 341.4 342.7 343.6 344.8 346.1 344.7 342 342.8 344.2 343.5 343.4 343.9 344.5 345.6 349.1 355.6 362.1 366.9 374.6 372.5 365.7 359.4 348.8 337 330 321.3 313.7 304.9 295.9 288.6 283.5 278.1 273.8 268 258.9 256.4 254.4 248.2 244.8 239.9 243.5 249.1 257.5 264.7 271.6 275.6 281.9 283.3 281.8 277.3 273.4 264.9 259.1 254.5 250.4 241.6 238.8 232.9 229.6 228.1 226.1 225.3 224.6 222.6 225.3 226.2 227.2 230.3 232.4 233.5 237.4 247.7 260.2 272.9 285.1 295.7 304 314.8 324 331.6 338.9 345.5 352.3 359.7 366.7 373.6 374.9 377.2 379.6 377.3 371.4 364.9 359.5 354.7 353.5 353.8 352.4 352.4 351 349.9 348.7 350.6 352.6 353 354.3 357.3 361 363.2 366.2 368.9 365.1 364.6 362.9 362.8 355.7 350.5 346.5 345.3 343.6 342.1 343.3 343.9 343.3 343.6 345.1 345.8 346.7 349.3 349.1 345.1 346 345.4 346.4 343 346.8 352.3 345.7 341.8 341.3 340.8 339 334.8 327.7 320.4 314.3 307 298.3 287.8 280.5 272.7 270.4 268.7 269.1 272.7 286.6 296.9 309.4 322.7 330 344 354.5 365.5 376.6 386.4 391.1 393.4 396.2 398.4 401.6 401 399.4
445.8 440.3 447.8 449.9 449.3 445 439.8 432.8 427 420.9 417 413.5 411.6 411.2 410.7 409.6 405.5 398.7 389.4 384 377.5 370.8 366 353.5 349.7 345 340.2 337.7 334.3 338.2 339.2 339.7 343.3 344.7 342.7 340.9 339.2 340.2 341.8 342.1 342.7 343.4 345.8 348.9 357.7 364.1 375.1 381.4 377 372.1 369.3 356.9 343.8 333.1 323 314.8 304.7 296.2 289.6 287.1 279.8 275.4 267.7 260.5 257 252.6 246.8 245.2 239.6 241.8 247 255.1 262.4 268.5 271.6 276.1 277.6 277.2 272.8 269.7 259.1 253.2 247.3 246 237.2 234.8 230.8 227.2 224.3 223.6 224.5 225.2 223.6 225.8 226.7 230.3 229.6 235.6 235.9 243.3 255.5 269.3 281.7 292.4 301.2 312.2 321.9 330.1 338.3 346 352 357.5 364.8 368 372.2 369.4 371.7 370 368.9 363.7 359.3 352.9 351.8 350.1 350.2 349 347.3 348.4 346.2 347.6 349.5 350.3 351.8 350.6 351.4 354 359.8 360.4 361.1 359 359.2 360.1 358.5 353.3 347.9 341.7 342.8 339.7 334.5 335.8 336.6 336.4 336.8 337.7 338.6 341 342.2 340.6 335.7 337.2 337.5 337.4 334.5 335.7 334.7 330.6 331.6 331.2 327.7 322.5 313.7 306 299 291.3 284.8 276.9 274.3 271.1 269.4 271.1 275.7 279.8 289.1 304.1 320.8 332.9 346.5 357.8 369.3 377.2 385.5 396.7 411.3 414.1 410.9 415 418.4 420.6 421.3 414.2
451.9 439.3 434.7 437.9 437.2 433.8 424.2 420.9 413.8 411.5 403.9 402.9 400.5 398.5 395.6 392.7 389.8 383.5 381 376.2 366.6 363.4 356.5 349.4 343.3 338.7 336.2 333.4 332.5 334.6 335.6 336.6 339.8 341.8 339.4 339.5 336.9 338 339.9 340.3 340.7 342.1 344.9 349.2 359.3 367.5 380.2 386.2 382.1 382 375.1 364.2 345.2 334.3 327.6 313.1 305.9 298.9 292.3 286.1 281.6 274 270.1 263.7 257.2 251.6 246.8 244.8 237.2 237.9 243.5 252.1 259.6 264.2 270.9 270.9 271 270.5 267 264.1 255.7 246.9 243.8 240 234.3 230.8 227.8 223.8 221.7 221.6 223.4 223.6 221.6 227 227.1 231.2 233.4 234.4 241.9 252 264.7 278.4 289.2 298.5 309.4 319.2 328.9 336.2 344.3 350.8 358.7 358.8 365 364.7 365 364.5 365.1 362.4 360.2 354.2 351.4 348.7 346.2 345.6 345.3 346.1 346.1 345 346.9 347.2 349.6 349.4 349.6 349.9 347.4 347.4 351.6 356.9 356.5 355 356.6 355.1 353.5 350 344.7 341.2 334.8 333.5 330.4 330 331.3 332.4 330.9 330.1 331.4 333.6 333.5 332.7 329.6 329.3 332.5 331.4 325.6 325 327.1 324.7 323.5 322.5 318.1 309.2 297.6 290 284.2 281.5 277.2 273.2 270.9 271.2 272.7 279.7 287.6 294.4 306 321.2 346.4 363.7 372.2 380.3 388 392.7 403.8 414.2 426.2 426.6 430.9 437.9 438.9 437.6 437.1 430.8
468.8 452.4 439.8 422.1 422.1 418.4 415.8 411.4 405.8 401.3 395.8 392.1 389.1 386.8 384.5 381.3 379.5 376.2 372.6 364.6 362.1 357.6 348.4 340.9 338 335.8 334.2 330.6 331.2 331.1 331.3 333.2 336.7 336.8 335.7 335.2 335 336.2 336.9 338.5 338.9 340.4 343.4 348.9 359.4 370.2 383.2 387.5 390.8 387.9 380.8 362.6 346.2 335.5 326.8 314 307.2 301.4 294.8 287 281.6 275.7 270.5 264 256.6 251.1 246.1 241.4 236.1 235.4 240.9 249.3 255.2 261.8 266.3 267.1 268.1 264.4 262.1 258.7 249.3 243.4 238.9 236 230.7 227.8 224.4 221.3 219.1 219.1 221.3 222 225.2 227.5 229.3 234.4 238.4 241.9 249.6 261.5 274.2 287.2 295.9 306.7 316.2 325.9 334.5 343.2 350 354.9 360 356.7 361.4 361.4 358.4 356.1 355.6 354.5 350.2 346.3 344.5 343.5 341.2 341.3 343.2 341.8 343.5 343.3 345.4 347.3 348.9 350.2 350.7 350 348.4 345.2 347.1 351.4 353.4 353.8 353.5 352.5 350.1 347.2 341.1 339.1 333.4 328.6 325.7 324.2 326.9 328.4 325.6 324.6 324.3 325.7 326.1 325.8 324.2 323.3 326.5 328.5 317.2 316.1 318.5 318.6 316.8 312.7 301.9 294.1 287.8 281.4 278.2 274.2 271.9 272 277.7 281.1 284.5 290.4 303.2 316.6 330.2 347.6 369.6 385.9 392.8 398.8 403.7 407.7 416.3 424.9 434.1 443 449 455 455.4 460 454.8 445.3
483 468.2 454.4 438.3 423.2 410 407.4 403 397 393.5 389.1 383.4 379.9 377.3 375.3 372.7 371 364.8 362.6 358.6 354.8 348.6 340.7 338.6 334.9 333.7 330.4 325.3 328.7 327.4 326.5 330.7 335.1 331.7 330 331.3 333.4 333 333.8 336.5 337.9 339 342.3 348.7 358 371.5 386.3 392.5 393.8 392.6 381.7 364.9 346.5 335.4 325 315.4 311 303 294.8 288.2 281.6 277.8 271 262.5 255.1 251.3 245.6 240.1 235.2 233.6 239.4 245.7 254.2 260.5 261.7 263.1 262.1 260.1 256.7 252.1 244.7 239.9 234.4 231 227.8 225.6 222.8 217.4 220.8 222.2 223.9 227.8 226.5 230.1 233.6 238.4 244.2 249 259.4 271.5 284 292.6 304.4 314.4 323.8 331.9 338.8 347.1 351.3 357.2 359.5 353.7 355.6 357.9 354 349.6 347.2 343.8 338.8 339.3 339.8 339.3 337.8 338.9 339.8 339.6 342.6 343.4 347.2 349 350 352.5 354.4 352.7 349.2 342.6 343.4 346.9 350.3 352.3 351.3 349.3 347.3 345.4 339 337.5 328.4 325.7 324.8 319.2 321.4 320.1 321.1 321.5 321.1 316.8 320.6 322.5 318.2 319.8 321.4 314.6 313.9 310.5 310.9 312.1 306 300 292.2 286.4 283.9 279.5 275.2 273.2 277 283.6 290.2 294.3 300.3 308.7 320.8 340.9 357 379.5 391 397.2 402.9 410.5 413.3 419.5 428.9 437.5 447 456.5 466.6 472.5 474.9 474.3 467.3 456.4
492.3 483.3 469 454.4 438.2 420.2 403.6 393.1 390.1 386.9 382.4 376.9 372.8 369.8 366.3 365 361.9 359.3 354.6 349.4 346.9 340.6 337.8 335 331.6 330.7 328.1 322.2 324.5 324.1 324 326.4 330.4 327.6 328 330 331.8 330 331.2 332.7 335.6 337.6 341.4 347.3 356.6 377.6 385.5 392.6 394.1 395.8 381.7 368.7 348.4 339.3 330.4 319.4 307.3 302.7 293.7 287.9 283.1 277.8 269.5 262.8 257.8 250.5 245.4 240.3 234.2 232.6 237.3 245.3 252.2 255.4 259.2 259.6 256.6 256 252.2 248.1 241.4 235.1 231.4 228.1 225.2 223.2 219.9 216.1 220.6 222.7 224.4 226.2 227.9 232.5 237.6 244.2 250.6 258.7 269.7 281.1 291.5 302.2 311.9 321.4 328.6 335.1 343 349.2 351.2 355.2 353.7 349.7 347.2 348.6 345.5 341.1 336.9 335.1 335.3 336.3 336.5 336.3 336.5 336.1 338.3 339.3 342.5 344.5 348.2 351 352.9 354.7 356.9 355.9 351 346.1 340.6 342.2 345.3 347.7 346.7 346.5 344.6 343.4 337.1 331.9 324.9 322.3 322.2 319.5 316.9 313.8 316.4 317.7 315.7 313.8 316.1 315.2 314.5 317.4 312.3 310.2 309 307.4 302.2 300.8 296.6 290.4 285.7 284.9 281 275.5 275.2 283.9 288.3 297.7 309.2 317.3 323.5 334.5 346.9 363.1 383.9 395.7 403 405.7 410.8 418.6 425.6 432.9 440.9 450.1 463.3 473.2 483.2 487.3 488.8 484.1 475.9 467
498.5 495.9 484.6 468.2 451.1 429.7 412.3 398.2 389.5 377.8 375.6 370.4 365.3 362.2 359.2 357.3 354.8 351.8 346.3 343.2 338.7 334.5 333.8 330.7 326.7 325.1 321.4 322.8 319.9 319.9 320.5 323.6 325.2 324.6 326.4 327.4 328.6 327.2 328.7 332.4 333.9 336 339.9 347 356.5 382.3 384.9 388.2 396.8 399.3 382 369.3 350.1 340 331.4 317.9 306.1 300.6 293.2 289.4 285.5 278.2 271 266 259.7 249.7 244.9 240.5 234.2 232.2 235.3 243.3 249.2 252.3 255.7 255 252.3 250.7 249.3 243.9 236.8 232 227.7 225 223 220.4 218.2 216.3 219.4 223.3 227.6 227.9 230.4 235.1 241.7 250 257.7 267.4 278.7 288 298.9 309.4 319 326.6 332.3 336.5 345.8 347.6 351.2 352.3 349 344.1 341 340.5 335.1 332.7 332.7 331 332.4 331.6 333.6 332.1 332.8 337.2 338.6 340.6 344.5 347 350.1 352.2 354.5 356.9 358.2 355.7 353.1 349.8 346.9 336.9 336.5 341.1 341.2 340.7 340.7 336.4 331.9 326.6 323 319.4 316.7 315.3 312.2 311.4 310.7 314.3 310.8 308.5 308 306.7 309.3 308.9 306.3 304.2 303.2 302.5 298.1 293.3 290.7 285 283 280 276.1 279.4 286.4 297.9 308.6 317.9 329.7 340.8 350.7 358.1 364.5 379.4 396.1 407.2 411.7 415.2 422.1 427.9 435.4 442.9 449.8 461.5 473.9 487.6 492.8 495.5 497.9 492.1 482.9 473.8
498.8 498.8 493.8 480.7 461.3 440.4 419.1 398.9 386.2 377.8 368.3 365.1 360.5 355.5 352.2 349.3 347.7 344.7 338.1 336.1 331.9 330.7 327.8 326.1 323.6 321 314.4 318.5 316.6 316.3 318.7 319.6 320 322.6 324.7 325.7 326.7 325.8 326.3 329 332.4 335.2 339.2 345 354.1 370.6 384.2 383.3 392.1 391.6 380.3 365.7 350.7 338.6 329.4 314.4 308.3 301.6 295.9 291.6 285.9 278.8 273.1 266.4 258.2 251.3 247.2 240.7 235.6 230.5 233.1 240.7 244.7 248.9 249.9 249.3 247.5 246.1 242.7 239.2 233 228.7 224.8 222.5 220.7 217.8 215.9 216.6 219.5 225.3 228.3 230.3 233.4 238.6 247.8 255.8 266 275.8 284.9 296.9 308.3 316.8 325.2 333 335.9 336.7 343.8 345.5 348.9 344.8 339.9 338.7 335.2 332.4 327.7 327 328 327.6 329 331 330 331.5 334.8 337 339.5 342.2 345.6 348 351.6 354.4 357.1 359.6 362.1 361.2 354.8 351.3 349.8 345.3 335.1 334.1 333.6 335.4 334.7 328 325.3 324.1 319.3 315.3 312.6 311.1 310.6 308.6 307.1 307.7 306.5 303.1 303.8 303.5 302.8 302.4 301.5 301.1 298.1 296.6 292.5 288.9 285 282.5 278.3 276.8 281.2 288.9 297.8 309.2 325.8 334.1 346.2 357.9 367.8 375.3 380.5 391.5 402.7 413.4 420.2 423.6 429.1 438.1 444.6 453.1 461.1 474.7 484.3 493.6 497.6 500.6 501.4 493.3 485.5 479.5
494.4 497.9 496.1 485.7 465.7 447.4 427.2 405 384.9 376.4 369.1 361.9 350.1 351.1 347.3 343.3 341.4 338.2 331.7 330.2 328.3 325.1 323 322.3 320.6 319.2 311.5 314.7 311.9 312.5 315.9 315.4 315.5 319.3 321.6 323.2 324.4 323.8 324.3 326.9 329.8 336 341.8 348.5 352.9 361.3 383.5 382 378.7 382.7 378.5 361 350.7 338.6 325.1 313.7 308.4 303.1 298.4 293.5 287.2 281.2 274.3 266.9 258.1 253.4 247.4 241.6 234.5 230.6 231.6 237.5 242.1 243.6 243.3 244.1 243.9 243.1 239.2 234.2 229 225.1 222.3 219.8 218.2 216.5 213.7 216.4 221.3 225.7 229.9 233.4 237.9 244.9 254.2 263.3 271.4 281.6 293.1 303.9 314.6 322.2 329.6 334.2 336.5 337.1 340.1 343.5 342.2 336.5 333.9 333.4 327 325.3 325.2 322.7 323.7 325.6 327.2 327.8 329.1 332.8 335.6 339.2 341.3 344.8 347.4 350.2 353 355.5 357.9 361.1 363 366.9 359.4 356.5 354.7 344.5 335.2 326 327.5 327.5 325.7 322.7 320.1 318.6 313.5 310.7 308.2 307.7 305.8 306.2 306.7 304.5 303.4 302.9 301.7 300.3 297.3 296 298 296.6 292.8 290.7 288.5 285.6 282.5 280.8 280.6 283.9 289 296.4 309.7 323.3 338.3 348.6 357.7 369.1 378.9 385.3 395.5 401 404.9 415.2 425.3 429.7 435.9 445.6 455 463.6 473.2 483.7 491.5 495.9 498.9 498.7 497.1 490.2 482.9 480.1
485.9 492.9 492.3 485.8 470.9 451.8 434 408.4 391.3 372.9 363.9 356.9 351.8 345.2 342.7 338.6 333.9 331.7 328.7 324.2 323 321.8 319.2 318 317.7 315.9 310.2 309.8 309.4 308.7 312.3 312 313.5 317.4 318.5 319.1 319.6 321 323.2 325.8 328.5 335.1 342.6 350.6 355.9 357 366.3 369.6 368.2 370.5 371.5 360.9 350.4 335.1 321.3 313.5 308.5 305.1 299 293.5 286.3 280.9 275.4 267.3 261.4 254.6 247.4 242.8 234.5 229.5 230 234.2 238 239.6 239.8 242.7 242.2 239.6 234.8 230.4 224.7 221.6 219.3 218.2 216.2 215.2 212.3 217.7 223.8 227.9 232.3 237.1 243.2 252.4 260.9 267.2 278.2 289.7 301 312 321 328.1 333.5 335.9 337.6 337.6 338.2 337.1 335.4 332.1 328 325.7 322.2 321.4 321.1 320.9 322.4 324 323.7 327.5 330.8 333.7 337.9 339.9 343.9 346.6 348.8 352 355.2 357.2 359.6 361.8 366.5 370.2 365.5 359.5 353.4 343.2 334.9 325.8 322.6 321.8 318.8 315.9 313.3 312.1 309.4 305.9 304.3 302.9 303.3 304.9 305.1 305.1 304.4 303.6 302 301 299.9 297.7 293.4 292.7 291.6 288.3 286.2 283.2 280.2 282 285.4 288.3 296.3 307.7 319.2 336 348.9 360 369.5 378.7 384.5 390.2 400.1 407.6 414.2 424.6 434.2 437.4 443.1 454.2 462.3 473.2 484 490.5 493.4 492.4 492.9 488 483.4 482.8 478.8 476.9
476.4 483 485.3 479.6 468.6 451.5 434.1 413.1 387.7 368.2 357.7 353.7 348.1 341.5 332.4 333.5 327.4 325.6 323.4 318.5 319 317.5 315.8 313.3 314.3 313.4 306.6 306.8 306.8 305.7 308.8 309.7 312.1 314.5 314.5 316 314.3 318.4 321.1 323.7 326.7 334.6 343.5 353.7 354.2 354.8 357.4 361.9 357.2 358.7 360.2 359.7 349.7 332.8 320.1 315 309.2 304.9 299.6 293.4 287.4 281.2 274.6 267.3 261.1 253.9 247.5 241.5 236.2 230.2 227 233.3 234.7 236.3 237.6 240 237.3 234.5 230.2 225.3 221.1 220 216.8 215.8 214.8 212.8 214.8 220.3 227 230.6 234.4 241.1 249.9 258.8 265.4 275.9 286.3 296 305.6 316.8 325.4 333.4 337.1 340.3 337.5 339 336.8 331.5 328.4 325.9 323.1 319.5 319.7 318.4 317.7 318.8 322 325.3 327 328.8 333.2 336.4 339.7 342.9 346.5 348.6 350.8 353.2 355.9 357.9 361.2 363.1 366.6 371.8 380 368.8 351 346.6 336 327.9 322.2 316.2 314.8 311.6 309.7 308.4 304.6 302.4 301.7 300.7 301.5 304.9 304.4 306.6 307.1 305.9 305.3 302.9 301.4 297.3 294.6 291.4 289.5 287 283.2 280.3 282.7 287.8 292.5 298.4 303.9 318.6 336.9 351.3 358.7 366.4 375.7 383.9 387.7 394.2 403.5 412.3 420.3 432.4 439.4 443.6 450.6 462.4 470.5 481.5 490.6 492.1 491.8 488.7 484.2 477.9 476.1 475.6 473.9 470.1
460.4 466.2 465.5 465.4 463 447.4 430.4 408.5 386 369.1 357.4 349.7 342.6 337.5 333 325.2 322 320.3 317.1 314.5 313.8 312.4 312.5 310.2 312.3 310.1 303.2 305 305.1 303.6 306.9 308.8 310 310.4 310.9 311.4 312.9 317 319.3 321.5 325 332.2 342.9 352.1 350.9 353.2 352.6 358.1 352.7 350.7 359.9 366.7 346.6 328.4 322.7 316.4 310.5 305.6 301.2 296.3 288.6 281.6 274.3 268 261.6 254.6 248.5 243.9 237.4 230.8 224.9 229.2 230.8 232.5 234.4 236.7 234.5 230.6 226.7 222.4 219.5 216.1 214.6 213.4 213.2 212.8 217 223.4 230.3 233.4 238.5 247.8 257.2 265.4 272.7 282.3 292.7 301.5 312.1 321.1 331.7 338.8 343.2 340.1 338.3 335.4 333.1 325.7 323.8 320.3 319 317.7 316.5 315.2 318.4 321.3 323.6 326.7 328.3 330.7 335.5 339.4 342.8 345.9 348.2 350.8 352.7 355.8 358.3 360.8 363.2 365.6 367.5 369 374 364.6 350.5 345.8 334.4 325.8 320.8 314 305.1 306.2 304.6 302.3 300 299.7 299.8 298.9 300.4 304 306.3 307.3 311.5 310.5 308.9 305.8 304.6 300.5 296 291.1 289.7 286.8 283 285.7 287.3 292.7 298.9 308 317.7 330.6 350 357.4 365.1 371 378.8 383.4 390.1 399.2 406.5 415.6 422.8 433.1 440.8 450.4 461.2 472.3 480.5 484.7 487.8 489.4 488.3 481.4 475.3 471.3 468.9 468 465 460.3
442.4 448.8 449.3 447.8 444.8 433.9 418.8 399.6 382.9 370.7 354.5 345.2 341.2 334.4 329.6 322.3 316.6 314 312.5 309.9 309.3 309.3 308.4 308.8 309.6 305.6 301.6 301.1 302.1 302.7 305.3 305.2 306.1 306.7 307.1 308.7 311 313.9 317.2 319.4 324.8 333.1 340 349.3 348 345.2 348.5 346.1 348.7 348.2 352.7 353.7 339.5 327.1 323.9 316.1 311.4 307 303.2 297.3 290.1 284.1 276.3 270.6 263.6 254.5 248.1 244.6 237.9 230.9 224.9 227.3 229 230.7 231.9 232.1 230.6 226.1 223.1 220.2 216.4 213.9 210.4 210.8 213.2 215.8 220.3 226.6 232.5 236.7 244.7 253.9 261.2 270 278.7 288 297.7 305.5 315.3 326 335.9 342.8 344 339.7 338.6 331.5 325.5 321.5 318.7 318.2 316.7 315.3 315.1 315 319.1 322.1 325.4 328.1 331.1 334.3 338.2 343.4 347.2 349.7 350.4 352.5 356.1 358.7 359.4 363.4 365.8 368.1 369 366.3 365.3 359.4 347.3 339.2 331.6 324 317.6 310.6 306.8 300 299.4 298.8 296.9 297.1 296.9 299.3 301.5 304.6 309.6 313.3 316.7 312.5 309.2 309.4 308.6 304.7 299.2 293.9 291.6 291.1 283.3 286.2 291.2 299.6 306.4 315.5 327.9 341.3 353.3 360.6 368.3 373 376.4 382.4 390.7 399.9 409.6 419.2 427.1 436.5 447.1 461.2 472.6 481.1 487.1 488.9 487.6 486.3 482.2 475.2 470.3 466.8 461.7 459.4 454 443.7
425.2 429.7 429.9 429.9 427.9 417.2 404.7 387.4 372.8 362.2 349.7 344.8 337.5 329.8 323.6 320.9 315.5 312.2 308.5 307 306.1 307 306.1 307.2 306.4 303.5 300.5 297 297.6 301.6 300.8 303.7 303.1 304.1 305.7 308.3 311.4 310.4 312.4 316.5 321.4 328.7 332.3 337.8 345.3 340 345.4 338.5 340.7 341 343.6 346.4 334.4 324.1 322.8 316.1 313 310.7 305.3 299.3 291.4 285.6 278.4 270.7 262.3 255.5 247 241.7 235.8 230.1 223.1 224.6 226.4 228.8 228.4 227.7 226.2 223.2 220.9 217.8 214.7 209.6 211.4 212.8 214.9 217.8 223.4 229.3 235.1 243 251.9 259.7 267.2 275 285.2 293.7 300.9 311 320.6 330.7 338.5 343.7 344.8 338.4 335.6 326 320.8 317.6 315.6 315.7 315 313.8 313.4 315.7 318.4 322.6 325.4 328.6 332.2 336.7 341.5 345.3 347.9 351.3 353.5 357.6 361.8 365.9 367.5 369.5 371.6 370.4 369.3 365.6 360.6 355.8 342.1 334.6 326.6 320.4 314 309 304.8 299.2 295.1 294.5 294 292.9 295.3 297.6 301.3 304.6 315.3 317.1 317.3 312.1 310.4 311.1 310.8 307.2 300.6 295.2 293.7 290.2 285.2 286.1 294.8 305.8 315.2 323.3 332.3 346 352.8 358.7 365.3 371.7 377.5 385.2 394.9 404.4 414.5 423.9 432.8 441.4 454.3 468.8 479.7 485.8 486 488 487.3 482 478 473.8 466.9 461.2 454 444.8 437.9 433.3
409.2 415.3 412 412.6 408.4 400.5 387.4 372.2 360.9 353.5 349.8 344.6 330.5 326.9 320.6 317.8 314 308.3 306.8 304.5 302.1 303.4 302.3 304.6 302.5 300.8 299.2 295.3 297 298.2 298.2 301.3 303.5 305.2 305.8 307.2 309.6 307.3 309.9 313.8 319.3 323.9 324.9 330.7 336.1 333 340.9 337.9 334.7 336.9 338.8 339.3 325.1 320.4 317.9 314.8 313.1 309.8 309.3 303.6 295.6 289 281.2 270.9 262.4 255.5 248.7 243 236.4 229.5 220.9 223.1 223.7 225.5 226.5 226.1 223.4 220.5 218.6 215.1 211.6 210 211.1 214.1 216.7 221 226.9 232.7 240.4 248.7 257.9 264.9 273.4 281.2 289.7 299.7 308.5 315 325.3 334.5 341.4 347.2 341.3 336.2 329 322.4 317 313.9 312.8 312.6 312.2 312.2 313.5 316.7 320.5 322.2 326.2 330.2 334.5 339.1 344 347.7 350.8 354.1 358.8 362.9 367.2 371.4 374.4 374.8 373.8 371.3 369.1 362.9 358.4 352.1 339.5 329.8 324.2 318.9 311.4 306.4 301.9 296.6 293.1 293.1 291.8 290.4 293.6 296.9 302.3 307.5 316.9 319 315.9 313 311.9 314.3 310.1 305.7 298.9 296.8 292.5 290.3 286.4 286.8 296.3 308.2 318.9 328.3 334.6 344.9 350.5 356.8 364.9 371.2 378.1 388.1 398.6 409 419.4 429.2 438.5 448.4 459.6 472.3 478.7 481 480.6 480.5 479 475.5 470 465.2 457.7 449.5 440.4 433.4 428 422.9
391.7 392.2 396.2 391.4 386.9 378.4 370.1 359.5 352.9 351.2 345.9 337.3 327 323.4 318.1 313.3 309.4 308.4 306.2 305.6 303.7 299.7 300.8 299.4 299.2 297.4 296.5 293.7 294.2 295.3 297.4 301.6 302.9 302.5 304 304.5 304.7 305.1 305.8 310.7 316.2 318 321.5 323.6 330.8 327.9 335.7 335.2 336.6 328.3 327.4 324.1 321.5 315.4 314 312.3 311.2 311.7 312.3 306.6 302.5 292.7 280.7 270.5 261 254.1 247.1 241.7 235.1 229.7 222.5 220.5 221.7 223.1 223.3 222.7 219.6 217.7 215.1 212.6 208.2 210.4 211.8 214.7 218.7 223.8 230.4 236.9 246.3 255.8 260.6 269.9 278 285.4 295.7 304.6 313.2 320.6 328.9 337 342.4 342.8 337.8 331 324.9 319 315.4 311.4 310.7 311.2 311.1 310.4 315.2 319 321.6 324.3 328.7 332.8 337.4 341.8 345.5 350.1 354.3 358.5 364.4 369.7 373.7 378.6 380.9 380.7 376.9 371.9 366 358.3 352.9 344.1 335.5 329.7 321.7 314.5 308.3 302.1 297.2 293.8 291.8 289.4 289.6 289.5 292.4 298 303.2 309.7 315.5 318.4 315.8 315.1 314.9 312.6 307.2 300.8 297.8 294.4 290.7 289 286.8 288.5 298.2 310.5 319.7 326.8 337.2 344.2 350.3 356.1 363.4 370.7 380.1 390.8 401.4 413 425 436.6 448.4 457.3 464.7 476.1 475.1 474 470.3 471.9 471.7 467.5 460.6 453.5 444.1 436 428 422.8 416.7 411
373.9 377.6 373.4 371.7 369.9 361 353.8 348.6 347.2 345 337.8 329.8 324.9 319.1 314.2 310.6 307.7 304.9 304.5 304.5 302.1 295.4 298.5 294.4 293.8 294.7 293.5 290.9 292.5 294.6 296.5 300.7 301.1 302.7 302.9 302.9 302.3 302.2 302 305 309.7 312.2 315 319.2 325 325.3 326.4 330.6 329.1 321.3 318.6 315.8 314 309.1 310.8 312 310.4 311.9 312.7 313.6 306 288.4 277.6 270.2 260.9 251.4 245.4 242.3 235.8 229.6 223.6 218.1 220.2 220.3 220 219.4 217.3 215.2 212.6 211.1 210.4 210.3 212.3 216.5 221.4 227.3 234.3 242.3 251.4 257.9 266.7 274.4 281.7 289.8 301 308.8 316.3 324.5 333.3 340.7 340.8 338.6 332.4 327.3 321.3 313.9 310.1 308.1 308 308.5 308.2 312.6 315.9 319.2 322.3 325.9 329.5 335.4 340.1 345 350.1 354.2 358 365.2 371.4 376.8 382.4 385.9 386.3 385 378.3 373.7 366 356.5 347.1 341.7 334 325 317.1 310.1 304.5 298 293.2 291.3 289.6 287.8 287.4 286.3 290.5 296.9 302.8 307.6 311.5 314.5 316.2 317.7 313.2 309.8 303.6 298.2 293.4 291.1 289.6 288.4 288 291.2 301.9 312 319.3 326.4 337.6 342.9 351.1 356.1 363.4 371.7 382.3 393.4 404.6 418.2 430.2 445.3 456.1 464.4 472.1 474.4 476.7 473.1 467.1 465.7 459.6 452 445.1 436.2 429.4 423.2 417.6 414 406.4 400.1
362.8 365.1 361.4 356.5 357.4 348.5 343.8 341.1 338.2 334 328.1 322.9 319.3 314.4 310.3 309.4 306.1 302.3 300.6 301.2 299 295.4 293 292.5 289.1 290.9 290.1 289.4 291.2 293.9 296.8 298.5 300.4 301.7 301.1 301.5 301.6 300.9 298.8 297.9 303.9 305.9 310.8 314.4 314.9 318.7 320.1 322.9 317.3 315.5 311.2 307.9 307.3 304.5 310.4 311.7 308.7 311 312.4 313.1 301.1 288.5 282 271.1 261.3 252.5 243.6 240.3 236.3 227.9 222.5 212.6 218.4 218.5 217.3 215.8 214.9 213.1 211.6 210.2 209.5 210.7 213.6 218.7 223.8 230.4 239.4 247.2 255.5 263.9 271.8 279.7 286.5 295.7 305.2 313.3 321.3 328.6 338.7 340.7 336.6 334.2 329 323.5 316.5 311.7 307.8 306.1 304.8 308.8 310.4 312.7 315.5 318.7 322.5 325.6 329.8 335.3 341.1 348.1 353.8 358.8 364.3 371.3 378.7 386.8 392.7 394.5 389.4 388.5 382 374.2 364.3 352.3 345.9 337.7 328.5 320.4 313.2 306.1 301 294.5 291.5 289.4 287.8 287.8 286.4 282.9 287.9 295.6 301.1 306.6 309 308.8 308.1 309.2 308 304.1 295.8 292.3 291.6 289 288.7 288.6 289.5 295.5 304.6 311.4 319.3 328.4 335.7 341 346.6 352.6 362.5 371 382 394.5 408.6 423.4 437.6 452 462.2 469.6 477 480.2 475.2 469.2 464.4 458.2 448.7 440.8 433.7 425.6 418.1 414.3 409.6 403.8 397.3 392.3
353 350.9 349.2 346.6 344.4 337.5 333.3 330.4 328.8 326.3 321 317.6 313.2 309.2 307.5 306.7 302.1 301.3 299.9 296.8 296.9 293 290 289.2 287.3 288.6 287 288.7 290.5 292.8 295.7 297.9 299.9 301.6 300.6 300.5 300.7 300.1 298.3 296.2 299.3 303.4 307.6 308.4 311.2 312.6 315 312 313 310.4 304.1 301.5 301.9 305.7 307.1 306.7 306.7 306.1 307 308 299.4 293.9 282.8 269.2 258.5 249.6 243.9 239.8 234.4 229.1 221.9 217.3 214 216.6 215.8 214.8 213.4 212 210.8 207.4 208.7 211 215.3 219.6 226.4 234.8 243.1 251.7 259.3 268.7 276.3 285 292.5 300.5 308.8 318.5 323.6 331.9 336.7 336.7 332.6 328.8 325.1 321.6 314.7 309.5 307.7 305.9 306.2 308.3 310.4 312.3 313.9 316.4 321.4 326.4 332.9 337.2 343.4 349.8 356.1 362.8 371.3 376.3 385.3 393.7 399.8 402.7 397.9 392.2 386.4 375.5 363.9 353 345 335.7 326.6 316.8 310.5 302.9 295.7 291.1 289.5 286.5 286.6 287.1 284.5 281.4 286.4 292.9 298 301.4 303 301.6 301.7 301.8 302.4 293.8 290 289.3 287.1 288.1 289.1 289.9 293.5 298 306.7 313.7 319.8 326.5 332.5 337.4 344 350.8 358.9 369.1 380.5 395.3 410 426.7 440.4 455 463.9 471 476.4 478.4 473.6 468.5 462.9 450.1 439.2 432.5 424.4 416.7 410.4 406.1 401.4 396.7 391.7 388.3
341.6 341.5 335.4 336.2 333 327.8 327 323.1 322.1 320.2 315.2 311.4 308.7 306.4 306 302.3 300 301.3 295.4 293 293.3 292 287.9 287.1 286.1 285.9 287.8 289 290.8 291.9 295.2 297.2 299.4 300.8 301.1 301.2 300.5 298.9 297.2 295.6 296.7 299.8 301.2 301.9 304.1 306.8 308.9 307.7 306.3 304.1 300.2 297.4 299.2 301.9 301.5 303.1 302.5 300.5 300.2 301.4 300.6 292.5 275.2 262.8 253.9 246.3 243.2 241 232.4 226.2 221 217.2 213.2 215 214.6 213.6 212.8 211.1 209.3 208.6 209.4 212.1 216.7 222.9 230.2 239.6 247.8 256.5 265 273 281.8 289.4 297 305 312.5 320 324.1 331.1 333.3 333.1 330.7 326.8 320.2 315.5 310.8 309.3 306 304.1 304.8 307.6 308.8 311 312.7 315.8 321.8 327.3 333.7 338.7 346.2 353 358.3 369.4 379.9 387.9 395.7 401.9 407.1 404.7 401.5 393.5 387.4 375.5 363.8 352.7 341.8 333.9 323.5 312.7 305.4 299.4 293.8 288.2 285.8 282.5 281.2 282.5 281.1 280.5 283.9 287.1 291.7 293.8 294.2 294.4 295.6 293.3 291.9 289.5 287.5 286.3 286.2 287.5 289 290.9 297.5 301 307.4 313 318.7 323.9 329.1 335.3 342.1 347.6 355.6 366 377.7 391.9 405 421.1 437.2 449 460.8 467.7 476.2 479.3 477.8 472.7 459.4 446.6 434 424.4 417 409.5 402.4 399.7 397.2 392.9 388.5 384.2
330.2 329 328.6 326.2 322.4 322.3 318.2 315.1 313 313.3 309.7 306.9 304.7 303 301.4 299.9 297.9 296.8 292.4 289.2 289.2 286.7 286 285.8 284.9 284.2 285.6 288.4 290.1 292 294.4 296.9 299.8 299.6 300 299 298.5 296.4 294.8 294.5 294.8 295.2 295.5 297.8 299.5 301.3 301.7 302 301.3 300.1 295.9 292.2 294.6 296 297.1 298.9 297.6 293.6 295.2 297.1 295.8 284 269.5 261.4 250.2 246.4 243.4 238.8 232.3 224.6 220 215.7 213.9 209.9 213.3 212.8 212.4 210.6 209.2 209.3 210 213 218.9 227.4 234.5 242.8 251.4 259.9 268.6 276.9 285.8 293.1 300.9 306.2 311.7 317.9 321.5 326.9 327.4 327.6 325.7 322.6 317.2 310.9 307.8 306.6 303.1 301.8 303.9 306.5 306.3 310 313 315 321.2 328 334.1 341 349.5 356.7 364.3 376.1 387.5 396.5 402.1 407.9 409 406.2 403.8 395.1 388.2 377.4 360.6 350.5 340.8 331.7 321.2 310.8 303.6 297.6 290.8 287.1 283.8 280.1 279.3 280.2 279.9 278.4 281.6 283.3 285.1 286.3 287.5 289 289.1 289.1 288.9 286.3 284.6 285.2 286.6 287.7 289.2 291.8 296.2 301.2 307.4 312.5 317.2 321.4 327.3 331 337.8 346.4 355.2 362.6 373 386.4 401.4 416.2 428.4 443.3 456.3 466.6 476.6 481.2 475.7 465.4 452.6 439.8 429.3 419.3 410.5 405.3 399.8 396.3 391.3 387.6 382.8 378
320.2 321.3 321.6 317.4 315.3 314.7 310.1 309 308.3 306.9 302.8 302 302.2 299.5 299.2 297.9 295.2 291.2 289.2 285.6 284.9 284 284 283.1 283.3 283.6 285.6 288.7 290.5 292.9 294.8 296 299.6 298.5 299 298.7 297.6 296.5 293.7 291.1 292.6 292.7 293.2 293.8 297.1 298.5 299.6 300.2 299.8 297.6 293.4 290.6 291.3 293 294 292.3 292.5 290.3 289.8 290.1 286.1 277.9 269.4 257.5 248.4 245.1 240.9 235.7 232.6 225.3 219.4 217.1 213.6 211.8 212.2 211.7 211.1 210.5 208.9 209 210.6 215.4 223.2 229.8 237.4 248.2 256.6 265.8 271.4 278.6 289.5 297.9 303.8 308 312 315.3 317.9 320.6 322.1 321.6 320.5 316.9 313.3 309.6 307.5 302.5 301.7 300.4 301.9 303.7 305.9 308.4 309.5 314.7 320.1 327.3 335.2 342.8 348.9 360.8 370.2 383.7 394.1 401.1 407.9 412.1 411.7 411.9 402.2 395 388.1 378 362.9 352.5 340.8 329.5 319.1 307.9 301 294.8 288 282.9 280.2 278.4 278.3 278.6 278.5 277.4 277.9 280.8 282.5 283.2 283.7 284.9 285.7 285.4 284.3 283.2 283.2 284.9 286.3 288.3 290.4 292.9 296.4 300.4 305.4 311.1 316.6 319.8 324.5 329.4 336.1 345.2 353.6 360.1 368.9 378.2 392.7 405.5 421.4 436.9 453.2 469.3 478.9 476.2 470.5 461.4 449.8 433.3 424.1 414 406.7 400.5 394 388.4 383 378 375.3 373
313.5 313.2 313.9 310.5 309.4 307 303.8 301.6 303.4 301.1 300.9 300.2 299.4 297.5 295.7 293.8 290.9 287.7 283.4 282.6 282.9 282.6 281.7 281.1 280.1 283.2 286.6 288.4 291.2 293.5 294.7 296.5 296.8 297.6 297.9 297.1 297.5 296 292.4 291 290.8 291.1 292 293.2 295.2 297.1 298.3 298.8 297.9 294.6 291.1 288.6 288.9 289.8 290.1 290.3 289.1 285.7 285.1 283.3 279.1 270.9 263.1 251.5 245.9 243.2 239.1 233.6 230.5 224.7 217.8 214.6 212.6 211.1 208.7 211.3 211 209.2 208.7 208.8 211.9 218.6 226.2 232.9 243.3 253.2 259.7 268 275.2 282.8 290.3 298.2 303.2 306.8 310.8 313.2 315.3 316 318.6 316.1 315 311.1 309.5 306.8 304.5 299.6 298.6 298.1 299 302.8 304 305.8 310 314.5 320.7 328.4 337.7 343.1 353.1 366 378.2 390.9 399.6 408.1 413 415.4 412.8 408.9 400.5 394.7 387.5 377.2 366.9 353 339.6 327.4 317.2 307.9 300 293.3 286.1 280.6 278.6 279.7 277.2 277.6 276.8 276.1 275.5 279.4 280.7 281 281.4 282 283.1 283.2 283.5 282 283.5 285.1 286.7 288.8 291 292.7 296.1 298.3 303.8 309.8 311.3 312.7 320.6 328.1 335.4 345.3 351.6 356.6 363.7 371.9 382.6 394.6 411.6 429.6 446.4 463.5 468.3 465.9 466.5 457.4 444.1 432.3 419.1 410.6 402.7 396.6 388.3 388.3 385.7 384.4 381 379.7
306.8 307.1 306.7 301.9 301.3 301 299.8 297.2 297.7 298.3 297.7 297.3 296 293.3 291.4 290.9 287.6 283.6 279.9 281.4 281.7 281.4 280.3 277.4 281.4 286 286.9 288.4 290.7 293.2 294.3 296.6 298.6 299.6 298.7 298.6 296.3 295.4 294 291.5 289.6 290.1 291.4 291.4 293 295.1 296.3 295.7 294.4 292.1 288.1 285.3 286.1 287.7 288.1 288.3 286.9 282.8 281.3 280.8 276.6 264 258.5 247.9 242.7 238.9 238.3 233.6 229.2 223.4 217.8 214.2 212.2 211.8 210.2 208.9 209.2 206.5 210.1 211.2 216.2 222.8 227.8 236 246.6 254.9 263.7 272.8 278.9 285.8 290.2 296.1 300.4 304.5 309.5 310.5 313.8 312.2 310.9 310.8 309.4 306.4 303.2 302.5 301.1 296.9 295.7 294 298.4 299.7 301.5 305.3 310.3 315.8 322.4 331.5 339.2 347.6 359.2 372.1 382.2 394.5 402 411.1 414.2 416.9 417.3 403.7 398.3 393.7 385.2 374.8 366.3 354.7 337.7 324.1 315 305.5 299.4 290.7 283.3 278.2 276.6 278.1 278.9 276.1 275.1 274.7 274 277.2 277.8 278.5 279.5 278.8 280.4 280.8 280.8 281 285.8 288.2 290.5 291.7 293.3 295.4 298.1 300.2 309.2 315.1 319.4 322 324.8 326.4 338.3 345.5 350.5 354.8 359.6 367 375.6 386.4 403.4 421.3 435.6 448 456.3 457.6 458.1 450.6 441.7 430.3 420.7 417 412.9 405 402 398.5 394.2 391.6 387.9 384.6
300 300.2 299.6 297.4 296.8 297.2 295.2 293.6 295.2 294.3 293.7 294 291 289.4 288.3 287.9 284.4 281.3 279.1 280.5 279.1 279.2 276.7 280.3 282.8 285.6 287.8 288.6 290.8 292 293.8 294.7 296.4 297.8 297.8 297.2 296 295 293.9 291.8 289.2 289.3 289.2 289.6 289.8 291 291.3 291.6 289.2 288.1 286.8 285.2 286.3 285.8 287.9 288.9 284.3 280.4 277.9 273.9 267.6 258.3 251.2 246.2 240.2 236.4 235.3 231.4 227.1 221.4 217.2 214 212.4 211 209.2 208.9 207.4 209.7 211 214.8 219.2 224.4 231.2 239.8 248.7 258.7 267.8 274 279.8 286.6 289.7 295.4 300 304.7 308.5 307.3 306.6 308.1 305.3 304.7 305 300.3 298.6 297.4 296.3 294.4 292.8 290.7 297.3 299.2 303.3 305.9 311.6 316.9 325.7 334.7 342.7 353.5 364 374.9 386.5 398.8 409.9 416 417.1 415.5 408.8 403.1 398.5 391.7 380.7 371.2 363 354.2 336.8 322.6 316 307.3 297.2 287.2 280.4 276.6 275.8 280.2 279.6 274.9 273.3 273.5 272.8 274.8 276.1 276.5 276.6 277.7 278.7 279 279.9 284.2 287.8 291.4 294 294.9 295.4 299.5 302.2 306.7 313.9 318 322.9 326.3 332 336.1 334.1 345.6 350.3 355.7 358.2 364.1 371.8 384.7 399.3 412.5 425.1 437.8 445.3 449.6 448.9 443.3 440.6 432.8 429.5 425.8 424.2 420.8 415.9 408.9 403.8 398.5 397.1 391.9
296.6 296.3 294.4 293.8 293.8 291.9 290.9 289.7 291.7 290 290 288.8 286.8 286.4 284.6 283.3 280.8 279.2 277.6 277.5 276.3 275.8 277.7 282.5 284.4 285.3 287.6 288.8 290.6 292 293.1 294.3 295.2 295.3 295.8 295.5 294.9 294.4 291.8 291.5 289.1 287.3 286.7 286.6 287.4 288.5 287.7 287.3 285.6 284.7 283.6 283.2 282.8 284.1 286.6 284.9 281.6 277.8 275.3 269 262.2 253.8 250.1 243.9 237.9 234.1 232.1 229.5 225.3 221.4 216.8 214.1 212 211.1 207.8 208.3 207.7 210.6 212.5 217 220.2 225.9 233.5 242.7 252 261.6 267.9 273.3 281.7 285.8 291.6 293.9 299.3 306.6 305.2 304.1 301.6 305.2 299.4 298.2 295.9 294.5 292.8 291.9 292.6 292.2 290.4 288.1 295.1 299 302.6 306.2 312.6 320.2 328.2 337.1 346.6 356.8 366.8 377.2 389.1 401.4 411 416.6 410.6 404 400.8 396.8 396.9 388.7 375.5 367.8 361.1 351.4 331.9 321 314.8 305.2 295.8 285.6 278.3 275.5 274.1 275.9 275.1 273.7 272.7 272.2 271.9 272.9 274.5 275.5 275.9 277.7 278.6 279.2 281.1 291.1 294.3 296.5 298.2 300.4 299.5 306 312.6 315.8 321.1 328.1 330 332.8 336.9 341 343.3 346.4 349.1 348.6 354.5 358.9 365.9 379.8 392.1 405.7 418 429.8 441.5 449.2 450.4 448 446.5 448 449 446.5 439.4 429.2 426.4 418.7 414.4 409.6 406.2 402
292.6 292.5 290.9 289.9 289 287.5 286.8 286 287.2 285.6 285.6 284.1 283.8 282.5 279.3 277 277.6 276.7 274.6 274.1 272.9 273.3 278.4 281.7 282.8 284.7 286.2 288.8 289.7 291.3 292.2 293.1 293.9 294 294.2 294.1 293.7 294.4 291.1 289.8 288.8 287.5 283.6 283.1 284 284.7 285.6 283.6 282 281.9 281.2 280.1 280.7 281.7 283.2 281.9 278.1 274.3 270.7 264.8 260.2 252 247 239.8 234.5 231.6 229.4 227.1 225.1 221.4 216.5 213 211.1 209.2 205.9 206.1 211.6 212.2 214.3 218.7 222.5 228.5 236.9 245.2 253 261.9 268.4 275 283.2 287.2 292.6 295.7 300.9 301.2 302.2 299.7 298 294.9 294 292.7 291.9 289.7 286.9 286 288.3 289.6 287.3 290.1 295.9 300.2 303.9 309.2 314.8 323 331.7 340.6 349.2 359.1 369.9 381.6 386.3 401.4 407.4 408.1 403.9 401.2 396.5 391 386.8 381.2 370.8 365.6 353.8 340.8 329.9 319 308.5 299.7 289.3 283.1 276.4 273.9 271.8 273.2 274.2 272.9 271.2 270.8 271.3 272.9 273.2 274.1 276.6 278.7 280.3 281.6 288.4 297.1 300.1 301.7 304.7 307.3 309.2 315.8 322 326.3 332.2 335.2 337.8 340.8 344 347.8 349.9 350.9 355.4 358.1 358.5 360.5 362.2 374.1 385.9 400.1 415.3 431.5 443.2 452.9 456.9 459.6 463 466.7 466 458.5 449.9 443 436.5 431 424.2 419.9 411.2 409.6
286.4 286.3 285.5 284.1 283.3 283.8 283.6 281.5 282.5 282 281.5 281.7 280.1 278.1 275.7 272.9 274.6 274.1 271.4 270.6 268.3 274.8 277.9 280.5 282.7 284.7 286.3 288.3 289.3 290 290.9 291.8 292.6 293 293.2 293.2 292.5 292.7 290.8 290.7 288.1 286.2 282.6 280.9 282 282 282.2 282.2 279.6 278.2 277.1 275.8 277.3 279.1 280 277.6 274.5 270.4 265.3 260.1 252.9 245.7 241.9 237.1 235 230.7 228.1 224.8 222.5 220.2 216 213.5 209.9 204.6 208.7 210 212.1 212.9 214.7 218.3 222.6 231 238.3 247 255.8 262.4 270.7 278.5 283.7 288.6 295.5 298.2 296.6 296.4 296.4 296.2 292.9 289.7 289.5 288.6 286.2 283.1 281.7 282.9 284.9 285.2 283.8 291.8 296.7 301.1 304.8 311.8 319.2 326.8 335.3 343.7 352.4 361.5 371.9 378.1 384.8 395.5 398.7 400.9 401.1 399 395.2 388.5 382 375.5 366.6 354.2 340.8 334.1 324.6 311.1 302.5 293.4 285.4 282.4 280.6 280 270.6 273.1 272.6 270.6 270.7 272.6 273.6 273 274 275.3 277.5 280.5 281.9 284.4 294 302.8 305.8 310.8 314.3 316.2 320.2 327.1 332 335.5 338.9 342.6 345.9 349.6 350.9 354.1 357.6 359.9 361.4 367.4 368.3 369.7 372.7 378.9 387.6 400.1 415.1 431.6 446.8 461 470.9 476.1 475.4 473.8 472.7 466.2 461.4 457.4 452 441.3 433.8 422.5 424.2 419.9
281.6 282.1 278.7 279.1 280.1 279.8 277.9 277.5 277.1 277 277.3 278.1 275.5 274.9 272.7 269.8 271 269.6 268.8 266.7 269.8 273.3 276.7 279.1 281.7 283.9 286.4 287 288.4 289 289.9 290.6 291.5 292.1 292.7 293 292.4 290.9 290.1 289.2 287.1 283.5 282.1 281 280.4 279.7 279.5 279.2 278.4 277.2 274.9 275.3 275.9 277.3 277 274.6 271.5 265.7 260.8 256.4 250.3 243.3 239 236.8 233 228.8 226.8 222.3 220.7 218.4 215 211.9 207 206.2 208.7 210.2 212.1 213 215.2 219.5 225.2 234 240.1 247.6 255.4 262 269.9 278.3 285.2 289.8 296 296.5 292.9 291.6 292.7 291.3 290 286.1 285.8 281.9 280.4 278.5 278.4 278.6 280.7 282.5 288.8 293.4 298.2 302.2 306.7 315.4 322.9 330.1 337.7 345.1 354.3 365.5 374.2 377 382.3 387.6 394 398.6 400.2 398.9 394.6 387.4 380.5 374 364.5 347.8 332.8 326.8 312.5 302.2 295.2 287.4 279.6 275.2 276 274.1 270.2 270.9 270.7 268.5 271.4 273.9 275.1 275.2 275.6 276.9 279.1 281.6 284.6 289.9 298.6 305.5 312.2 318.1 323.6 327.6 330.9 335.7 339.9 342.9 348.4 351.6 356 360.3 364.3 366.2 367.2 368.1 372.7 373.2 377 377.7 380.7 386.3 392.6 404.2 418.1 434.9 452.2 466 479.5 488 492.4 485.9 481.3 475.9 470.4 466.2 457.9 449.4 442.1 435.4 432 428.6
275.3 276 274.1 275.4 274.5 273.2 274 272 273.7 272.2 272.5 275.3 272.8 271 271.6 267.1 268.4 266.3 264.7 265.5 268.9 272.3 275.1 278.5 282 284.9 286.4 286.8 287.7 287.8 288.9 290.3 290.9 291.8 292.5 292.9 292 291.4 291 289.5 286.6 285.1 282.5 281.3 279.6 278.5 278.2 277.4 275.2 274.1 272.6 273.3 274.1 275.7 274.3 270.5 265.9 260.6 255.8 250.3 244.4 239 235.4 233.3 229.6 225.7 223.4 220.8 218.5 215.9 212.5 211.2 205.8 205.2 210.2 210.8 211.7 213.5 215.5 221.3 227.2 233.7 240.1 248.4 256.7 263.5 270.4 278.9 286.5 289.2 290.8 291.5 289.8 288.9 289.1 289.7 285.7 282 280.2 277.5 275 276.1 277.2 279.6 282 286.1 290.1 295.3 300 305.6 312.8 321.3 327.8 334.3 340.8 349.3 359.9 370.4 378.7 375.2 377.3 382.5 390.4 395.2 399 398.7 391.9 381.6 377.1 366.8 351.6 336.1 325.7 313.2 301 294.3 287.7 279.7 274.8 272 271.3 268.5 269 268.9 266.8 269.7 272.6 274.3 275.8 276.3 276.2 278.6 280.7 286.1 289.4 298.1 305.6 313.5 319.5 324.5 333.2 339.7 341.9 348.4 350.1 353.5 358.2 361.7 368.9 373.5 375.1 379.8 379.5 381.8 382.9 383.9 385.6 385.4 389.3 393.9 401 414.1 426.9 442 453.6 469.3 485.3 495.5 498.9 496.7 490.2 485 481.5 471.2 462 452.7 450 444.5 441.1 436.3
270.3 270.9 269.9 270 270.3 267.2 268.5 269 269.3 269.3 268.6 270.8 268.4 267.6 269.5 264.3 264.7 262.7 263.4 265 269 271.6 274.1 278.1 282.1 284.1 285.2 286.5 286.6 286.7 287.9 288.9 291.2 292.3 292.7 292 291.8 291.6 291.2 289.4 286 283.6 282.8 280.5 279.3 278.2 276.4 274.5 272.1 271.4 270.8 270.7 271.7 273.1 271.9 265.7 260.1 256.1 251.3 247.4 241.4 236.3 232.4 229.5 225.6 223.1 220.3 217 216.2 215.6 212.6 210.3 204.9 208.6 211.3 211.9 212.6 215.6 216.4 223.4 227.9 234.8 241.3 248.5 255.2 262 271.3 278.3 285.4 285.7 287 287.9 286.8 285.4 286 285.8 277.9 276.7 275.4 274.8 274.7 275.7 278.7 281.1 284 286.8 291.9 297.1 303.1 310.1 319.7 325.2 331.8 338.9 345.1 353.4 364.6 371.3 369.7 367.9 372.2 378.2 385.3 392.5 397.4 395.3 384.7 375.5 368.8 355.9 342.4 326.2 317.9 302.2 291.4 285.8 278.4 273.4 271.1 270.3 265.6 265.7 265.4 266.6 268.7 270 271.5 273.5 276 276.8 278.2 279.2 282.6 289.4 295.7 305.1 313.5 323.5 329.1 338 347.3 350.8 354.2 359.1 363.7 368.8 373.2 376.6 381.7 385.8 390.6 393.5 397.6 396.2 396.7 394 394.3 395.3 398.7 403.9 410.7 422.5 433.9 443.1 456.1 471.4 486.8 498 504.8 506.8 503.9 495.2 485.1 477 471.4 464.8 462.4 457.3 451.4 444.9
266 267.3 265.6 265.6 265.9 264.1 265.4 262.8 264.6 263.8 267.1 266.2 264.9 265.5 265.7 261.6 261.5 262 263 265 268.5 270.8 273.5 279.2 281.6 282.7 283.8 285.9 286.1 285.7 287.3 288.7 291.2 292 292.8 292.4 291.9 291 290.1 287.9 285.8 283.8 281.3 279.6 279 277.7 275.6 274 270.9 269.8 269.2 268.3 270 268.1 266 262 256.4 251.5 246.7 242.1 238.9 233.5 229.3 226.9 226 222.1 218.7 214.4 214 213.4 211.5 209.2 202.5 209.5 212 212.9 213.7 216.3 218.3 223.7 229.9 235.9 242.4 248.5 254.9 263 268.7 276.3 279.9 283.2 284.1 285.4 284.3 283.4 282.6 280.9 275.3 273.7 272.3 272.5 274.8 277 281.5 284.4 285.8 290.1 295.8 301.4 307 314.7 322.8 329.4 336.7 343.8 351.7 355.5 364.3 366.1 361.3 362.6 364.6 372.8 379.6 388.4 395.2 390.8 375.5 368.4 360.5 348.4 331.1 317.4 304.1 292.5 283.7 278.2 273.1 268.9 268.2 265.8 264.3 265.8 264 265.5 270.3 271 273 273.5 275.8 277.3 279.5 282.1 287.9 294.6 302.2 311.6 322 329.1 340 349.5 355 360.6 366.6 373.7 379.1 383.6 389.1 394.9 398.5 403.1 410.5 413 414.4 414 411.7 409 405.3 407.4 410.8 415.9 422.2 430 438.9 451.3 465.3 479.4 493.4 504.4 510.9 514.2 511.8 499.7 493.8 489.8 483.4 480.8 475.2 470.8 463.2 455.8
261.7 262.3 261.6 260.9 261.3 261.7 259 259.7 260.5 263.3 262.6 263.1 261.3 264.4 262 259.5 260.3 261.9 262.4 264.6 267.6 270.3 274.2 277.3 279.8 281.8 283.6 284.2 284.7 285 286.9 288.1 289.5 291.4 292.7 292.5 291.5 290 287.7 287.2 286.6 282.6 282.5 281.6 279.2 278.4 277.1 275.1 271.7 267.7 265.7 267.4 266 264.6 261.9 258 253.3 249.8 245.1 239.2 235 230.8 228.8 224.9 221.7 219.4 217.6 215.4 212.8 211.2 209.8 203.8 204.9 206.9 209.5 211 212.8 216.4 219.5 224.6 230.6 235 241.3 248.7 255 263.6 270.3 275.6 279.7 281.8 281.2 282.2 281.5 279.9 278.2 274.4 272.1 271.3 271.4 272.8 277.9 280.5 285 287.8 289.2 294.1 300 305.6 312.3 320.6 327.1 333.9 343.4 352.9 358.2 359.4 358.9 357.7 356.7 355.6 359.5 367.5 373.5 384 386.6 375.2 365.9 358.4 350.4 337.2 323.7 309.8 295.4 285 276.5 270.6 267.6 265.5 263.3 262.2 262.8 266.5 263.9 268.7 270.6 273.2 275.1 275.2 276.1 277.3 280.1 286.1 293.2 300.6 307.7 317.8 327.9 339.1 348.9 357.1 364.8 371.7 379 386.7 392.5 398.8 404.7 409.7 414.4 419.8 424.6 426.2 428.3 428.1 425.6 422.5 420.4 420.6 425.6 430.7 434.5 441.2 451.8 464.3 476.1 488.2 499.2 506.4 513.2 516.2 511.8 510.3 507.9 501.9 496.1 493.1 490 483 475.4 469
257.9 257.5 255.3 256.9 258.2 257 256.6 257.8 257.2 258.9 259.8 260.7 259.9 262 259 258.7 261.7 261.7 261.6 264.1 267.4 269.6 273.1 275.8 278.2 280.6 282.8 283.8 283.3 284.5 286.9 288.5 290 291.9 292.9 291.8 291.9 290.2 286.8 287.4 285.3 283.6 283.9 283.2 282.6 279.2 277.9 273.5 269.1 268.3 263.4 264.8 264.1 262 259.1 255 251.5 245.1 241.1 236 231.9 229.2 227.4 224.6 220.4 217.4 215.6 214.8 212.9 210.4 209.4 203 204.7 211.4 212.8 215.1 216.6 216.2 220 225 230.7 235 242.2 248.6 255.4 264.9 271.5 274.2 276.6 278.3 281.8 279.6 278.6 275.5 273 271.6 270.5 271.1 272.4 275.5 280.7 284 287.8 292.1 293.5 298.4 304.7 309.3 316.6 325 329.6 338.7 347.3 355.9 358.8 356.4 354.2 354.5 348.1 348.8 352.5 358.8 367.2 378.9 370.9 365 355.4 347.6 340.5 325.6 310.4 299 287 278.3 272 266.2 263.8 261.9 261.1 261.2 263.9 262.3 267.4 270.1 272.2 274.7 276.5 277.5 278.3 279.9 281.2 291.3 300.2 306.8 314.1 323.1 333.1 343.9 352.8 363.5 371.7 379.5 392.2 397.5 402.8 409.5 415.8 421.3 425.3 428.2 432.2 435 437.9 439.2 442.1 437.7 438.6 438.1 442 443.8 447.6 455.5 464.5 475.3 485.6 495.8 505.6 510.9 514.8 516.8 521 523.6 520.5 511 509 506.8 501.3 494.7 488.1 476.5
