ncols 200
nrows 87
xllcorner 330000
yllcorner 495200
cellsize 50
349.5 343.2 346.2 342.2 341.5 338.8 333.1 321.8 315 295 289.2 288.7 295.1 291.5 303.6 306.5 302.6 282.9 233.7 181.4 151.2 127.4 102.5 87 78.7 77.3 77.3 77.5 77.9 78.3 78.9 79.1 79.1 84.9 83.4 94.9 109.8 120.4 127.7 134.1 140.9 146.3 147.3 134.7 141.9 163.6 176.9 186.8 196.8 210.3 209.9 204.9 203.7 205 220.8 227.2 217.7 216.7 217.5 215.7 219 228.2 239.5 242.8 243.5 238.3 227.6 217 211.4 209.8 213.2 208.8 205 202 198 193.3 193 186.1 181.4 176.2 169.5 160.1 148.4 147.2 139.4 127 116.7 113.2 109.6 107.9 107.2 110.8 111.6 113 107.3 105.7 103.1 105 109.2 108 103.2 102.4 106.5 110.2 109 105.2 100.7 94.6 87.8 84.8 87.1 88.1 90.3 91.3 88.4 87.7 89.1 89.2 90 92.4 93.8 100 106.5 110.5 115.5 111.5 116.5 134.1 145.5 155.9 163.3 169.5 172.2 167.9 163.8 158.5 152.5 147.6 145.9 141.4 137.6 134.1 134.3 135.2 138.9 141.4 147 151.1 150.6 149.9 150 146.1 142.8 140.4 138.4 135.6 132.6 129.6 123.6 117 109.4 100.2 92.1 83.9 75.3 66.9 59.5 54.6 51.2 42.3 39.1 38.1 38.1 38.1 38.1 38.1 38.1 38.1 38.1 38.1 38.1 38.1 38.1 38.1 38.1 38.1 38.1 38.1 38.1 38.1 38.1 40.8 41 40.8 41.5 43.9 52.6 50.7 53.1 54.7
354.9 348.7 348.3 345.5 347.2 342.8 331.4 317.7 301.1 292.9 290.1 286.9 283.9 292 309.5 313.8 306.7 275.5 214.5 170.5 139.1 112 92.8 80.7 77 76.7 76.9 77.2 77.5 77.8 78.2 78.5 78.9 82.2 90.1 106.3 118.7 127 137.7 145.8 152 158.4 160.8 144.5 155.6 172.6 190.4 195.9 202.7 214.1 205.4 205.7 200.3 205 220.6 224.6 213.7 213.4 215.5 220.7 227.7 232.5 240.2 236.9 233.2 229.1 226.5 219.7 211.8 207 209.5 209.3 203 201.3 196.3 194.7 191.6 185.3 171.8 169.5 156.6 150.8 143.7 141.7 133.7 122.8 116.5 112.3 109.5 107 106.8 108.1 107.7 106.4 106.5 106.7 103.2 103.1 107.1 109.9 108.3 104.9 103.8 107.9 107.1 102.7 91.5 86 87.1 89.6 88.7 90.2 90.7 90.1 92.2 89.9 90.7 88.8 91.7 92.5 97.9 106.6 112.1 115.6 115.7 111.5 125.3 138.9 148.4 158.2 168.8 179.5 189.5 187.5 178.4 171.8 164.5 158.8 152.6 147.5 144.5 143.3 143.9 143.8 146.4 148.5 151.2 153.2 154.8 155.2 151 146 144.5 143.2 141.4 141.6 141.7 138.9 129.9 120.5 114 108.1 101.2 89.5 80 71.2 63.1 58.6 57.4 53.2 45.5 38.1 38.1 38.1 38.1 38.1 38.1 38.1 38.1 38.1 38.1 38.1 38.1 38.1 38.1 38.1 38.1 38.1 38.1 38.1 38.1 38.1 38.1 38.1 41.2 47.4 54.5 51.7 50.9 55
358.8 353.6 348.5 350.1 357.7 349.1 336 324.9 310.3 301.8 292.8 288.7 282 294.3 308.8 317.5 309.5 269.3 212 161.8 125 95.4 82.1 76.9 76 76.2 76.4 76.7 77.1 77.3 77.4 77.6 79.2 89.5 100.6 112.3 124 138.6 148.5 154.6 159.1 164.5 166.9 158.2 166.1 183.1 198.1 203.4 207.4 210.3 204.8 204.6 199.1 205.5 226.4 217.9 207.4 211 217.9 224 229.8 236.8 241.3 240.9 229.7 224.3 218.9 212.2 205.1 199.8 205 199.9 197.9 197.2 195.2 195.4 192.8 184.4 170.3 163.3 156.8 151.2 139.7 139.3 130.7 123.9 117.8 109.8 107.5 106 105.1 104.6 104.8 108 106.7 106.2 103.9 103.2 105.1 111.6 114.2 105.5 105 104.7 98.1 91.1 89.1 90.1 89.9 91.1 91 88.9 89.5 90.9 93.3 91.4 90.2 89.5 91.8 94.9 101.6 110.3 112.9 114.9 113.8 119.1 132.1 142.9 152 166.4 180.8 199 206 200.7 193.2 183.8 177.5 173.7 167.4 158.5 154.8 153.8 154.1 154.5 153.8 154.2 154.5 158.4 156.4 155.5 153 149.2 146.9 145.2 145.6 147.7 149.3 146.2 137.4 126.7 119.4 118.9 106.9 94.8 84.4 76 69.8 68.2 65.3 61.9 48.4 38.1 38.1 38.1 38.1 38.1 38.1 38.1 38.1 38.1 38.1 38.1 38.1 38.1 38.1 38.1 38.1 38.1 38.1 38.1 38.1 38.1 38.1 38.1 38.1 40.4 48.7 49.5 48.8 48.7
362.7 361.4 351.5 352.3 358.8 350.2 346.3 332.9 313.7 307.9 290.9 280.3 285.2 292.2 305.4 315.7 303.9 255.7 199.3 155.2 115.9 87.9 77.9 75.6 75.8 76 76.1 76.3 76.8 77.1 77.7 76.8 88.2 98.5 107.5 120.3 131.4 143.6 152.5 157.7 162.8 169.5 171.4 170.1 173 193.6 207 211.4 211.2 208.6 198.6 200.2 198.4 204.2 213 209.1 203 209.8 217.3 225.6 231.8 241.6 242.4 241.2 226.6 213.4 210.3 202.8 197.6 191.9 194.5 192.9 196.5 199.4 196.5 194.5 190.3 181.1 173.5 165.9 158 148 136.8 135.2 128 121.5 114.1 109.9 111.4 109.8 106.6 103.7 105.2 105.6 107.3 104.4 102.5 104.7 106.7 110.2 108.3 102.1 99 97.8 93.3 92.3 93.9 93.9 93.2 93.3 91.4 89.7 89.4 93.4 92.3 91.5 89.8 91.2 92.1 93.8 101.3 109 111.4 113.2 115.3 126.3 137.4 145.9 158.2 177.7 198.8 213.5 211.4 212 203.7 197.1 193.7 188.4 180.5 167.6 163.1 162.1 160.6 160.9 159.2 159.5 158.5 159.8 157.5 157.3 154.5 150.6 147.3 147.1 149.6 152 152.9 152 146.6 132.9 124.5 120 110.7 98.9 91.3 82.5 75.1 72.9 68.4 62.2 50.2 38.4 38.1 38.1 38.1 38.1 38.1 38.1 38.1 38.1 38.1 38.1 38.1 38.1 38.1 38.1 38.1 38.1 38.1 38.1 38.1 38.1 38.1 38.1 38.1 39 46 45.2 44.7 44.8
369.7 367.5 360.1 356.3 355.8 358.5 352.4 336.8 326 309.6 283.2 277.2 286 290.2 306.8 316.5 311.3 252.1 185.4 145.6 109.9 86.2 75.6 75.4 75.8 75.7 75.8 76 76 76.2 77.7 89.8 99.2 105.2 113 123.9 133.8 145.5 154.2 158.1 163.5 165.9 170.9 165.1 179.6 198 207.1 214 214.9 206.6 197.7 201.4 201 202.7 214 201 198.3 205.4 214.6 222.5 230.1 236.7 237.8 232.6 218.7 209.3 204.3 194.4 193 186.7 187.1 191.7 194.5 195.1 193.3 190.9 185.3 177.6 170.9 165.3 156.2 147.2 135 131 126.6 121.1 116.7 111.9 109.7 108.3 105.5 103.6 106.2 106.2 104.8 102.7 104.1 100.3 100.8 106.3 104.4 97.1 95.2 94.9 94.7 94.1 95 96.9 97.4 97.1 94.7 92.8 90.3 92 92.9 90 90 92.8 92.7 94.8 99.8 106.7 109.7 111 116.4 129.7 138.2 148.8 166 191.2 208.8 221.8 226.8 218.9 215.2 215.9 207.1 195 183 173 167.3 168.7 170.1 168 163.8 162.3 161.4 163.8 163.2 160.3 157 151.6 149.3 149 150.5 153.6 153.7 154.9 151.2 138.3 130 120.6 112.1 101.8 94.5 88 81.1 74 68 61.2 51.6 41.9 38.1 38.1 38.1 38.1 38.1 38.1 38.1 38.1 38.1 38.1 38.1 38.1 38.1 38.1 38.1 38.1 38.1 38.1 38.1 38.1 38.1 38.1 38.1 38.1 38.1 38.1 40.5 43
377.5 370.8 364.5 362.7 357 367.8 355.9 340.2 317.5 299.2 285.2 280.8 288.6 295.5 311 316.1 312.9 248 175.9 141.1 104.8 84.1 75.7 75.4 76.2 76.5 75.5 75.6 75.7 76 85.9 96 103.6 108.6 117.9 125.9 134.7 144.5 151.8 157.4 161.8 160.7 159 166.4 186.8 200.8 203.5 207.4 214.6 203.6 198.6 200.9 205 196.6 197.8 189.4 196.1 205.1 215.3 222.4 230.3 235.1 232.9 230.7 224.4 213.1 208.2 203.7 193.8 183.7 183.3 185 186.8 189.9 188.9 188.9 180.2 175.8 170 161.1 154.2 144.8 131.9 130 128.3 121.5 121.6 113.3 109.7 109 106.2 105.5 104.3 103.8 103.2 101.6 97.3 96.7 97.1 99.5 96.9 93.5 93.9 93.8 92.7 90.1 92.9 95.3 97.8 98.1 97.4 94.7 92.3 93.1 93.4 93.7 93.9 95.9 98.3 101.1 103.1 105.6 108.7 111.2 117.1 127.8 137.8 155.8 173.6 193.1 217.5 230.9 227.7 227.4 229.6 224.8 213.3 196 183.5 176.6 170.7 171.5 181.1 179.2 173.9 168.9 166.7 165.3 164.9 162.3 159 154.5 150.2 148.6 149 149.5 148.6 152.7 155.9 144 132.6 120.7 112.6 104.7 96.8 92 86.2 77.9 68.3 62.1 54.8 46.3 38.1 38.1 38.1 38.1 38.1 38.1 38.1 38.1 38.1 38.1 38.1 38.1 38.1 38.1 38.1 38.1 38.1 38.1 38.1 38.1 38.1 38.1 38.1 38.1 38.1 38.1 38.1 40.3
381.1 376.1 370 367.5 362.4 357.1 345.8 330 308.9 296.9 282 276.5 291.6 297.5 306.6 308.2 301.8 250.7 173 132.3 101.3 82 77 75.6 76.3 77 75.2 75.1 76.2 82.8 92.5 99.6 106.1 114.8 124.9 131.1 138.9 145.8 152.9 157.4 160 155 146.6 170.2 191.5 196.9 199.2 203.1 206.9 201 194.8 196.7 201.9 187.9 186.4 182.8 192.7 206.8 218.6 227.2 233.7 240.8 238.5 232.4 222.5 212.5 205.6 198.2 189.6 179.3 178.9 178.4 178.8 182.3 184.6 184.2 177.5 174.7 167.9 159.3 151.8 145.7 137.6 133.8 128.8 127.6 122.2 114.2 111.6 109.4 108.3 107.2 101.3 102 100.4 95.5 92.6 92.3 92.2 94.3 96.4 95.8 92.7 91.9 90.7 84.7 91 92.8 94.7 95 97.7 95.5 93 93.1 92.6 93.1 96 102.6 105.2 106.9 106.8 106.8 109.1 111.7 120.2 134.2 141.4 158.4 172 189.7 217.1 230 231.2 236.6 236.2 232 216.4 197.2 185.3 180.9 177.8 177.4 189.5 184.9 181.4 176 171.8 168.6 165.3 164.1 159.9 155.7 150.4 147.7 147.7 147.9 147.9 154.8 158.2 149.8 135.1 125 116.1 107.3 101.2 98.5 94.9 87 77.1 68 59.1 50.5 43 38.1 38.1 38.1 38.1 38.1 38.1 38.1 38.1 38.1 38.1 38.1 38.1 38.1 38.1 38.1 38.1 38.1 38.1 38.1 38.1 38.1 38.1 38.1 38.1 38.1 38.1 38.1
382 380 370 365.8 357.2 351.6 341 327.2 313.3 304.9 279.7 264.3 280 292.8 284 286.4 279.1 239 176.7 127.1 97.1 80.7 77.6 75.7 75.9 75.1 74.8 75 79.4 88 95.7 102.6 110.3 121.3 130 139.8 146.4 149.7 153.4 159.3 158.5 145.9 145.2 168.2 179.3 194.2 199.4 201.7 197.5 194.1 192.2 191.2 189.9 180.5 176.4 183 196.7 209.3 226.6 233.8 236.5 238.6 235.9 226.9 213.2 201 194.7 190.6 186.2 181.9 178.2 177.8 177.5 179 178.1 177.1 175.3 173.7 168.4 159.7 153.5 141.7 139.6 137.5 131.8 124.2 119.5 117.6 113.4 111.7 107.4 99.9 96.4 96.1 94.2 90.8 90.1 89.9 91.8 97.6 100.1 95.5 88.8 88.1 86.4 81.7 88.8 89.6 90.6 94.5 98.7 98.5 95.9 93.1 92.8 96.3 99.7 108.9 112.7 112.3 110.3 108.5 110.6 118.5 127.9 137.2 144.2 157.1 171.3 188.5 211.3 227.9 231.3 235.5 240.6 238.2 219.7 197.2 188.6 185.1 185.1 184.9 191.6 188.4 187.6 183.8 176.2 178.6 168.5 165.3 161 156.5 152.7 148.7 147.7 147.7 150.9 156.3 154.8 146.2 134.7 124.7 117.1 111.6 108.8 110 112.3 105.5 88.2 72.9 61.2 50.5 44.9 41.6 38.1 38.1 38.1 38.1 38.1 38.1 38.1 38.1 38.1 38.1 38.1 38.1 38.1 38.1 38.1 38.1 38.1 38.1 38.1 38.1 38.1 38.1 38.1 38.1 38.1 38.1
386.3 380.1 374.2 368.3 362 347.9 338.3 314.3 308.8 304.5 280.6 255.4 261.6 268.2 257.8 245.5 246.4 224.7 165.7 119.2 91.4 79.1 77.6 76.3 74.5 74.4 74.9 75.7 81.6 90.2 99.2 107.8 118 128.5 143.7 150.5 150.1 153 155.7 157.3 150.4 133.8 149.3 168.1 180.3 194.5 205.7 200.2 192.1 188.8 187 184.3 182.8 173.7 174.7 186.7 199 218.3 231.9 234.2 231.3 233.9 231.9 220.7 203.9 196.5 187.7 183.6 182 181 180.9 180.4 177.6 178.7 175.7 173.6 173.7 174.3 167.3 157.8 150.4 140.3 138.7 137.8 132.3 125.2 122.9 118 110.8 107.6 102.2 94.1 91.7 90.7 90.2 89.6 89.5 91.8 92.1 95.9 97.4 90.4 87.2 87.4 84.8 78.6 85.7 86.4 89.4 95.8 96.8 98.8 97.5 96 95 98.6 103.2 113.7 116.9 118.9 117.2 112.7 114 123.8 135.4 145.6 151.9 160.3 171.6 184.9 204.8 223 226.5 236.6 243.2 240.4 223.2 199.1 190 189.2 189.5 195.4 196.5 191.5 193 188.4 181.7 180 173 166.1 161.6 156.7 152.5 149.9 149.2 149.9 152.3 153.5 151.3 145.8 134.7 126.7 123 121.6 123.1 128.3 130.3 125.3 99.4 81.3 66.4 54.7 47.3 45 39.9 38.1 38.1 38.1 38.1 38.1 38.1 38.1 38.1 38.1 38.1 38.1 38.1 38.1 38.1 38.1 38.1 38.1 38.1 38.1 38.1 38.1 38.1 38.1 38.1 38.1
399 389.9 379.3 371.2 363.2 343.2 329 311.1 308.5 302.6 288 241.2 220.2 232.6 235.9 203.8 204.8 197.7 143.6 107.7 84.8 78 77.2 74.4 73.8 73.9 75.2 78 85.8 95.3 106.7 115.8 125.3 139.9 149.8 151.7 151.7 157.5 160.5 154.6 134.8 130.5 156.2 170.9 185.3 199.5 197.9 192.9 185.5 180.9 179.5 177.6 171.9 164.6 179.1 190.9 207.8 224.6 230.8 230.7 224.4 223.8 219.7 208.8 201 199.6 195.9 190.3 189.2 188.9 189.2 182 177.7 176.3 174.1 172.7 173 170.4 162.1 160.9 150 144.1 148.5 148 140.6 130.7 121.7 114.5 111.1 104.6 97.6 94 91.7 90.7 90.4 89.2 89.4 89 89.1 90.8 92.4 88.7 85.5 84.1 78.9 74.4 80.6 84.4 89.7 92.5 93.5 97.7 95.4 96.6 96.8 100.9 108.7 115.4 120.1 123.9 119.6 113.7 116.4 126.9 139 148.2 155.5 163.3 171.1 185.2 203.5 214.9 219.7 232.6 243.5 237.2 218.8 200.5 192.1 191.7 194.1 202 202.6 198.1 198.9 191.4 184.3 183.8 178 168 163.3 159.7 154 154.1 154.8 154 151.9 151.1 150.8 145.1 139.4 138.6 137.2 136.4 136.5 135.1 133.2 124.2 106.1 91.6 76.9 63 54.8 47.8 43.1 38.1 38.1 38.1 38.1 38.1 38.1 38.1 38.1 38.1 38.1 38.1 38.1 38.1 38.1 38.1 38.1 38.1 38.1 38.1 38.1 38.1 38.1 38.1 38.1 38.1
406.1 395.1 376.7 370.3 358.5 332.5 312.8 309.7 315.2 303.2 273.9 225.4 185.8 190.2 178.5 156 154.2 140.8 119.4 93.8 79.9 76.4 74.8 72.3 73 73.7 75 80.5 89.9 101 111.3 121 130.8 141.3 148.1 151.9 158.5 165.7 155.3 136.1 119.2 140.4 162.1 170.3 185.1 190.1 186.9 180.1 178.9 174.9 172.8 171.1 162.6 173.7 188 200.1 215.2 220.3 228.3 229.3 221.1 211.4 203.5 199.7 199.1 199.5 197.7 195.1 194.6 190.9 186.1 180 176.1 174.2 173.3 175.7 174.3 176.3 170.9 165.7 157.9 153.5 156.6 152.8 139.8 127.9 122.1 113.4 107.9 99.7 97.3 95 95.9 92.6 92.2 89.5 87.9 89.4 88.8 88.8 89.5 86.1 81 77.5 73.9 73.4 76.1 83.5 82.8 87.2 93.3 92.4 92.6 97 98.4 105.2 112.8 119.2 126.2 124.7 116.3 111.7 117.5 129.6 139.6 147 157.4 166.2 172.2 183.5 194.4 205.7 214.9 226.6 235.1 230.3 213.5 198.7 197.9 193.8 196.1 204.8 203.7 201.9 203.6 193.7 187.7 190.5 188.6 173.1 169.7 166.6 160 158.2 157.2 156 154.3 152.3 152.8 153.2 153.4 152.9 151.5 147.8 142.7 135.5 128.2 118.5 108.4 102.1 88.7 72.5 56.9 47.2 43.6 38.1 38.1 38.1 38.1 38.1 38.1 38.1 38.1 38.1 38.1 38.1 38.1 38.1 38.1 38.1 38.1 38.1 38.1 38.1 38.1 38.1 38.1 38.1 38.1 38.1
395.9 391.5 376.1 362.1 344.8 317.8 306 308.8 314.3 293 250.2 201.6 166.6 154.4 139.8 129 120.5 108.5 95.2 82.2 76.3 74.5 73.1 72.3 72.8 74.8 76.5 85.4 93.6 103.2 115 127.1 137 143.6 149.5 153.6 156.9 154.2 137.3 117.8 125 145.3 162.2 169.4 172.2 180.7 179.8 174.3 170.8 167.3 163.7 159 166.9 181.6 192.2 204.6 212.6 216.8 223.3 224 214.9 206 199.9 197.6 201 202.9 202.1 198.9 194.1 190.3 184.3 180.7 178 176.2 177 179.5 174.2 174.8 170.3 165.6 157.2 156.8 153.7 144.5 134.2 127.3 122.9 114.6 106.4 108.8 107.3 103.7 101.1 94.6 92.2 91 89.3 85 86 88.2 86.5 83.6 78.5 73.2 71.4 71.4 73.8 81.9 80.5 86.9 88.8 90.9 94.6 95.7 98.1 108 115.8 124 127.7 120.1 110.6 110.4 120.9 133.9 140.4 145.8 154.5 162.6 170.4 178.9 189.2 201.6 212.8 221.8 230.5 220.9 209.1 202 199.4 198.4 197.2 203.4 205.3 203.8 203.7 196.3 190.4 188.6 188.7 179 181.1 174.6 169.5 161.6 160 157.8 154.5 157.8 161.1 163.9 165.2 164 159.8 154.3 144.2 133.4 121.9 115.7 114.4 110.9 101.9 84.2 62.3 48.6 44.4 38.1 38.1 38.1 38.1 38.1 38.1 38.1 38.1 38.1 38.1 38.1 38.1 38.1 38.1 38.1 38.1 38.1 38.1 38.1 38.1 38.1 38.1 38.1 38.1 38.1
390.3 379.7 356.7 336.4 322 304.5 305.7 303.5 302.3 274 221.6 180 150.1 126 117.2 112.7 99.3 86.3 81.2 79.1 76.4 72.9 71.8 71.8 73.6 75 82.1 88.5 95.6 105.3 118.9 132.4 142.9 146.2 146.9 148.7 144.2 139.3 118.1 109.5 131.3 150.4 167.2 165.6 168 170.6 169.6 166.1 164.6 159 151.3 159 174.6 182.5 190.8 206.1 210.2 211.4 213.6 210.5 204.1 197.7 193.5 198.9 201.6 204.6 201.5 197.9 194.3 191.8 187.8 183.4 178 176.4 175.8 174.2 170 167.7 162.8 158 153.1 153.6 150.7 142.9 132.4 125.9 115.2 118.1 119.1 116.8 110.8 105.2 99 95.3 92.7 91 87.2 83.7 84.4 84.2 82.6 80.4 74.2 71.8 70 70.1 71.4 74 77.7 79.6 80.7 91.6 94.1 94.4 100.4 110.9 120 125.9 121.3 113.7 106.5 109.9 121.4 131.7 142 147.7 153.4 161.1 170.4 178.6 185.7 194 207.3 219 224 214.2 204.8 201.6 204.3 199.8 201.7 206.6 211.3 206.3 203.8 201.1 197.7 192.6 189.1 186.3 185.2 182.3 181.9 175.3 167.5 163.6 161.3 164.9 168.5 170.7 169.6 166.3 161.5 154.7 144.9 132.4 123.9 121.8 120.9 115.1 105.8 89.9 66.8 52.8 45.9 41.1 38.1 38.1 38.1 38.1 38.1 38.1 38.1 38.1 38.1 38.1 38.1 38.1 38.1 38.1 38.1 38.1 38.1 38.1 38.1 38.1 38.1 38.1 38.1 38.1
381.7 371.3 350.3 326.2 306 295.1 308.9 295.7 280.5 251.8 196.8 163.6 132.5 110.4 100.3 95.4 84.8 77.9 78.9 78.5 73.4 71.6 72.1 73 75.4 79.3 84.2 89.8 95.9 108.1 122.2 133.3 140.1 142.7 138.6 136.4 131.6 122.1 102.9 111.2 133 152.5 169.3 161.3 159.6 163.9 161.7 158 157.1 150.1 153.6 164.5 176.1 180.4 189.8 199 203 202.5 204.1 201.7 196.7 192.6 190.8 196 203.3 204.2 204.5 213.2 203.1 190.6 183.2 178.8 171.4 171.4 169.6 167.5 166.1 164.9 165.9 160.2 152.8 150.3 145.6 132.6 119.3 128.2 124.7 124.8 120.5 118.4 111.7 103.8 101.6 97.9 94.3 89.4 84 81 80.7 81.4 79.2 76 74.7 72.1 70.3 70 69.4 69.5 73.5 76.1 79.4 88 92 95.5 101.9 111 119.8 121 115.5 108.7 102.4 114.9 124.9 136.3 140.4 146.6 156.1 164.1 172.9 182.1 186.1 188.4 199.2 214.5 216.3 208.4 201.3 200.1 204 205.3 211.9 215.4 214.9 209.8 206 206.9 209 200.2 193.4 190.3 190.4 192.2 191.5 187.7 180.9 175.3 169.1 169.8 168.7 167.1 167.1 163.3 159.5 153.5 144 135.4 130 126.5 120.5 113 102.8 88.8 68.7 53.7 45.7 40.4 38.1 38.1 38.1 38.1 38.1 38.1 38.1 38.1 38.1 38.1 38.1 38.1 38.1 38.1 38.1 38.1 38.1 38.1 38.1 38.1 38.1 38.1 38.1 38.1
376.5 364 341 316.1 295.3 290.9 296.8 278.6 246.2 226.8 177.3 144.2 115.8 103.1 91.3 83.4 77.2 75.2 75.8 72.4 71.4 71.5 72.5 75.1 77.5 80.8 84.5 89.8 97.7 109 121.4 129.2 134.2 135.6 131.7 124.6 119.9 110.4 96.3 111.2 131.8 148.8 164.5 154 153.7 159 153.6 150.7 146.5 149.6 157.4 166.8 173.6 180 188.3 195.4 199.6 200.4 200.1 197.2 191.9 188.8 188.8 195.3 204.7 203.7 204.8 199.4 193.1 183.2 174 170.5 169.2 169 169.5 169.1 165.5 164.8 163.4 160.4 151.9 155.3 142.9 146.6 138.3 134.3 129.2 127.2 123.2 118 114.1 105.7 100.2 99.3 90.9 87.3 82.6 79.5 77.8 77.8 76.7 75 72.6 72.1 70.5 69.8 69.1 69.2 70.6 72.9 80.6 84.3 88.1 96.4 102.3 108.9 115.8 114.1 109.2 101.3 104.2 118 123.7 133.1 142.3 151.1 160.7 169 177.7 188.3 192.5 193.5 197.6 202.3 207.2 203 195.1 195.6 202.8 213.7 221 220.9 216.3 212.6 214 213.9 212.9 203.4 196.4 198.6 203.7 204.3 202 197.1 188 180.3 175 168.1 165.1 163.4 163 160.6 157.6 152.5 142.9 137.2 134.9 126.3 116.9 109.1 101 89.8 71.7 55 45.8 38.8 38.1 38.1 38.1 38.1 38.1 38.1 38.1 38.1 38.1 38.1 38.1 38.1 38.1 38.1 38.1 38.1 38.1 38.1 38.1 38.1 38.1 38.1 38.1 38.1
369.3 357.7 335.2 314.3 282 284.4 271.2 246.5 215.4 198.4 158.9 121.1 103.9 95.3 83 78 75.4 74 72.2 70.8 71.2 72.2 74 78.3 82.4 83.9 87.1 89.4 95.8 106.4 117.3 124.5 127.9 132.7 126.4 118.2 110.8 99.7 87.9 108.6 126.2 138.3 143.4 144.2 149.9 145.6 140 137.1 147.4 153.9 160.6 167.6 175.2 183.1 191.2 194.7 198.5 199 197.7 193.3 190.4 189.3 189.4 197.6 205.7 208.3 203.2 190.6 183.5 181.6 174.2 172.2 172.4 175.2 172.1 167.9 165.1 163.1 161.3 158.5 155.1 157.7 156.2 152.2 145 140 133.2 126.9 124.6 121 113.9 105.2 99.3 94.8 89.8 85.7 83.3 80.3 74.9 74.2 73.8 72.8 71.6 71.3 70.7 69.8 69.3 68.9 69 71 77.5 81.2 88.8 95.2 98.7 105.6 108.6 107.1 101.3 97.4 107.3 116.1 124 135.1 147.5 156.5 167.1 176 185.7 192 194.9 198.7 202.8 203 198.8 196.5 190.5 193.3 204.4 215.5 220.3 220.6 221.2 223.7 225.8 215.5 207.3 201 202.2 209.9 212.8 213.5 211.3 204.6 194.4 184 175.9 167.1 163.5 161.2 161 159.9 156.8 150.6 142.3 137.3 133.2 126.2 121.2 113.3 104.2 92.6 73.3 56.5 45.9 38.1 38.1 38.1 38.1 38.1 38.1 38.1 38.1 38.1 38.1 38.1 38.1 38.1 38.1 38.1 38.1 38.1 38.1 38.1 38.1 38.1 38.1 38.1 38.1 38.1
361 350.1 333 293.7 267.2 267.4 242.7 207.8 183.9 168.9 134.1 102.1 90.6 80.9 75.9 75 74.3 71.8 70.3 69.9 72.5 77.7 84.7 86 86.8 87.6 87.4 88.5 93.8 103.1 114.3 120.8 124.4 125.3 117.1 115.2 101.3 85.7 86.3 109.7 120.9 121.5 123.6 129.5 138 128.9 139.8 147.6 155.1 159.7 164.5 169.7 175.5 182.7 195.9 198.1 198.4 195.9 194 191.4 191.3 192.6 191.4 198.8 206.4 201.4 190.3 184 184.1 183.2 181.2 180.3 179.3 178.7 176 169 164.4 160.8 158.1 155.8 156.9 157.4 158 153.7 149.8 142.5 134.1 132.4 124.8 119.1 113.1 108.8 105.6 98.5 92.1 88.3 84.7 80.2 75.6 74.4 71.4 72.7 71.6 71 70.7 70 69.6 69.1 68.6 69.7 72.3 82.5 88.1 89.7 98.5 101.8 104.1 101.2 94.3 96.6 109 117.7 128 138.7 151.5 160.4 172.7 183.8 190.1 193 201.5 205.9 205 201.1 193.9 191.2 189.7 190.7 199.7 210.2 218.2 225.7 230.9 229.4 223.2 212 204.7 205.2 215.7 219.9 218.9 214.4 210.3 205.6 197 185.4 174.4 165.2 162 161.3 160.6 158.8 157.3 154.1 145.5 138.1 135.2 131.9 126.9 117.7 105.2 88.7 71.4 56.2 47.4 38.1 38.1 38.1 38.1 38.1 38.1 38.1 38.1 38.1 38.1 38.1 38.1 38.1 38.1 38.1 38.1 38.1 38.1 38.1 38.1 38.1 38.1 38.1 38.1 38.1
361.1 348 316.7 275.7 256.8 247.9 212.2 180.5 157.8 140.7 107.2 85.6 76.9 73.7 73.2 74.4 70.6 70.4 70.2 75.2 81.4 87.4 89.3 88.7 88.7 86.9 86.2 86.3 89.7 97.1 106.8 111 114.6 113.8 108.4 99.6 91.1 77.7 90.6 104.7 110 108.5 107 113.5 126.5 138.7 148.7 157 161.5 161.9 164.8 169.3 175.4 185.2 193.5 194.6 191.3 189.3 188.8 190.1 197.8 193.4 192.2 200.4 199.3 195.3 186.5 186.6 189.3 188.5 186.7 188.1 186.5 185.6 183.6 171.1 163.4 160 158.1 157.7 159 158.1 157.3 154.8 151.1 144.2 136.4 132.5 127.2 121 118.6 113.7 110.8 102.2 98.5 91.1 83.2 81.5 77.7 73.8 74.2 72.2 71.9 71.5 70.9 70.3 69.6 69 68.4 68.9 74.2 81.4 82.7 91.8 98.7 100.5 101.5 96 90.9 97.5 110.7 123.9 132.7 146.3 158.5 170.3 179.7 187.5 191.9 197.3 212.5 210.3 204.5 200.8 198.7 196.7 189.9 189.9 196.1 205.3 221.3 230.8 230.4 226.4 221.5 213.8 210.5 218.6 223.9 220.9 216.1 209.7 205.5 200.6 191.9 182.2 171 165.5 165.2 163.3 161.8 160.2 158.5 157.5 146.4 145.1 142.7 139.9 133.9 124.3 107.2 90.7 71.1 57.4 48.7 39.3 38.1 38.1 38.1 38.1 38.1 38.1 38.1 38.1 38.1 38.1 38.1 38.1 38.1 38.1 38.1 38.1 38.1 38.1 38.1 38.1 38.1 38.1 38.1 38.1
362.7 345.1 307.6 265.3 241.1 219.2 186.7 159 140.1 118.8 90.8 77.7 72 71.7 74 69 70.5 75 79.4 86 91.4 92.1 92.4 92.1 89.4 86.8 85.8 83 84.2 89.1 95.2 96.1 104.3 103.4 96.8 87.3 79.7 70.3 87.7 95.6 95.3 97.4 106.7 124.4 138.2 147.8 156.5 164.6 161.1 158.8 161.9 167.4 175.7 183.3 187.9 188.6 187.2 185.4 184.7 189.3 193.2 194.7 194.3 197.6 197.9 196.3 194.1 194.3 194.9 198.7 195.6 194.5 192.3 194.6 183.6 167 165.4 162.5 160.5 163.5 165.4 163.5 159.4 155.4 150.6 144 138.3 135.2 130.3 124.2 121.6 114.8 109.8 103 98.7 91.6 84.8 82.2 79.6 76.7 74.9 73.8 72.5 71.8 71 70.4 69.9 69.3 68.8 69.2 75.9 76.9 84 93.2 95.5 97.5 96.7 91.7 88.6 100.5 114.1 130 141.9 156.9 167.8 175.2 185 190.9 195.6 207.1 213.5 209 204.8 204.2 207.2 202.2 191.9 188.9 193.1 205.6 221 228.2 227.7 225.3 223 219.7 220.3 223.5 219.2 215.1 208.3 204.1 198.5 191.9 185.2 179.4 171.5 167 165.5 166.1 165.1 164.5 161.9 158.2 154.8 155.2 153.4 144.5 142.5 133 114.7 93.6 72.6 57.2 48.1 41.2 38.1 38.1 38.1 38.1 38.1 38.1 38.1 38.1 38.1 38.1 38.1 38.1 38.1 38.1 38.1 38.1 38.1 38.1 38.1 38.1 38.1 38.1 38.1 38.1
365.2 332.6 293.1 252.7 221.5 198.4 166.9 140.2 125.7 99.9 82.2 72.3 70.8 71.3 68.8 73.5 80.4 85.2 92 94.7 94.9 95.5 95.2 92.7 90.7 87 83.3 78.4 77.8 77.7 81.7 90.4 94.7 88.2 80.7 74.5 69.9 66.6 82.7 83.9 89.3 100.9 117.2 134.4 145.2 152.7 158.2 160 156.8 156.3 158.7 165.1 174.6 179.8 182.5 182.8 182.1 183 184.6 190.4 199.4 199.9 200.1 198.7 202.1 204.6 202.9 201.8 201.3 201.7 201.3 196.1 192.8 185.5 171.4 178.4 173.7 171.5 168.2 168.7 170.4 167.2 160.9 157.9 152.1 145.4 139.6 134.8 129.6 127.8 122.4 111.9 107.1 104.5 98.6 91.1 85.2 85.1 83.2 78.6 77.1 77.3 73.8 74.1 70 70.2 69.6 68.8 68.3 69.7 76.1 73.3 85 91.3 92.9 94.6 93.5 89.5 89.4 104 118.9 134.1 145.1 159.3 170.4 179.1 188.9 196.5 205.3 212.5 209.3 206.9 205.3 210.4 206.7 199.7 191.1 189.7 198.2 208.7 220.7 222.7 223.6 225.4 226.2 225.3 224.4 223.3 214.3 207.5 204.6 196.8 189.1 183.9 180.6 178.1 171.8 170 171.6 172.8 172.2 172.8 170.9 167.8 164.3 161.6 154.7 152.7 149.5 137.5 118.7 94.7 73.7 58.4 48.1 42 38.1 38.1 38.1 38.1 38.1 38.1 38.1 38.1 38.1 38.1 38.1 38.1 38.1 38.1 38.1 38.1 38.1 38.1 38.1 38.1 38.1 38.1 38.1 38.1
347.1 309.4 269.5 238.5 200.3 184.8 153.9 126.9 106.6 87 75.9 71.4 70 70.5 68.5 81.3 86.9 94.7 98.6 99.9 101.5 100.9 98.4 95 92.9 89 83.8 78.1 73.6 72.7 77.4 83.7 83 75.1 72.8 68.3 62.4 64.8 72.6 80.4 90.6 107.2 124.4 137.4 146.5 152.8 154.8 153.4 153.5 153.5 155.1 160.6 167.6 173.2 177.2 177.5 174.4 176.8 190.4 193.4 195.5 198.2 199.5 204.9 209.9 212 212.5 212.8 210 207.3 196.1 187 191.9 196.4 193 185.9 182.7 175.7 173.2 175.3 172.1 169.3 163.5 159.2 153 145.1 140.3 133.6 129.4 127.2 120.6 110.5 106.4 106.8 101.3 94.2 91.2 87.2 84.3 82.4 80.5 81 81.1 79.2 71.4 70.1 69 68.4 68.1 68.5 70.2 69.3 79.9 89.4 89.7 90.2 90.5 87.2 92 103.7 118.6 132.6 145.3 159.6 170.2 181.7 192.4 202.1 206.7 207.8 206.4 204.8 205.8 208.7 200 192.6 188.8 194 205.7 208.2 213 216.6 221.1 226.9 228.6 228.7 224 216.9 208.7 206.7 199.5 191.9 182.8 180.1 179.7 177.2 173.3 175.4 177.7 179.9 183.2 183.2 180.6 178.2 174.8 168 163.7 163.2 154.9 138.4 117.7 95.1 75.8 59.6 49.9 42.8 38.1 38.1 38.1 38.1 38.1 38.1 38.1 38.1 38.1 38.1 38.1 38.1 38.1 38.1 38.1 38.1 38.1 38.1 38.1 38.1 38.1 38.1 38.1 38.1
312.4 278.5 242.6 210.7 175.3 163.2 146.3 118.8 96.9 80.7 72.4 69.1 69.5 67.1 78.3 89.5 96.9 101 102.5 105.8 107 106.6 101.8 97.3 94.8 90.3 84.6 76.6 71.5 70.3 69.8 75.2 70.3 67.6 64.2 59.6 58.9 63.9 71.8 79.9 94.5 113.8 129.2 134.6 142.2 146.3 147.2 146 147.4 148.4 147.6 151.5 162.1 167.8 169.9 171.5 171.7 176.7 187.8 194.6 195.3 199.6 207.3 213.2 217.7 218.2 218.3 217.6 207.2 199.7 200.2 198 196.7 197.8 193.5 189.2 184.8 178.9 177.1 178.7 175.5 168.9 164 159.7 154.7 149.4 142.3 136.4 129.9 124.5 117.2 110.4 104.5 103.1 97.1 91.4 91.3 88.4 87.8 86.7 83 79.2 83.5 85.8 73.3 69.7 68.6 68.3 67.9 67.8 67.9 68.8 77.4 84.2 85.2 83.2 88 86.1 91.1 102.2 116.9 134.5 146.8 157.6 170.1 180.4 190.6 197.3 201.2 203.9 202.8 201.4 201.7 200.3 191.7 187.3 190.7 200.2 212.3 208.2 208.6 212.8 221 228.2 230.2 229.9 223.2 214.3 207.5 200.4 189.6 182.7 180.6 180.5 179.8 178 176.3 181.5 183.2 189.6 194 192.5 189.1 187.6 186.3 181.9 175.9 168.2 159.1 139.9 118.9 97 78.9 63 53.1 43.3 38.1 38.1 38.1 38.1 38.1 38.1 38.1 38.1 38.1 38.1 38.1 38.1 38.1 38.1 38.1 38.1 38.1 38.1 38.1 38.1 38.1 38.1 38.1 38.1
285.5 255.2 225.6 194.6 165.1 149 134.3 108.3 88.6 74.6 69.3 66.6 67.3 79.3 88.9 98.8 104.9 107.3 110.2 113.5 115 113.4 105.9 100.9 97.4 92.4 83.5 75.3 67.8 65.6 64.8 65 61.7 60.1 55.8 55.9 58.2 64.9 72.5 83.6 99.6 115.7 124.1 130 138.4 139.2 137.1 138.1 139 144.9 147.5 149.8 155.5 159.2 162 166.2 172.5 179.3 191.4 193.3 198.8 205.9 211.9 218.1 224.4 222.8 218.8 215.3 206.7 208.1 206.1 205.2 200.1 201.8 199.7 195.1 190.3 185.4 181.3 180.4 176.2 171.7 168.2 161.1 157.5 151.1 145.7 139.7 132.5 126.9 119.4 113.7 110 102.2 98.4 96 92.9 90.9 85.3 85.3 80.5 78.2 79.5 82.3 72.3 69.5 68.7 67.9 67.4 67.4 67.4 67.5 70.6 75.3 77.9 81.3 85 81.8 89.5 101.9 116.3 129.3 143.9 154.8 165.2 175.2 188 196.8 195.9 197.3 197.6 200.1 198.3 192.5 187.3 188.4 195.5 205.2 207.6 204.8 204.1 206.7 218.5 225.4 228.4 228.2 222.2 214.6 205.6 194 186.7 188.1 186.4 183.9 181.4 178.9 181.5 187.9 188.6 194.6 199.9 200.1 198.5 196.8 194.9 193 186.9 178 165.6 145.2 124 103.3 84.8 68.4 54.8 45.1 38.1 38.1 38.1 38.1 38.1 38.1 38.1 38.1 38.1 38.1 38.1 38.1 38.1 38.1 38.1 38.1 38.1 38.1 38.1 38.1 38.1 38.1 38.1 38.1
259.1 234.3 211.1 177.8 153.7 130.9 117.1 92.8 78.3 70.9 66.4 66.3 79 88.2 100.1 110.7 112.5 114.2 117.8 119.3 116 112.8 110.1 106.8 99.6 92.7 84.1 74 66.1 62.7 58.7 61.6 59.2 55 53.9 55.9 62.4 69.3 78.9 90.2 101.2 112.6 116.6 126.8 130 129.8 132.7 134 137.1 143.8 147.9 150.8 154.9 159.6 165.9 170 173.1 183.7 188.9 196.1 203.2 208.8 213.2 218.4 225.6 222.5 219 209.7 214.7 219.4 208.9 204.9 205.3 209.4 209.6 204.5 199.9 190.7 186.5 185.5 178.2 172.7 169.3 162.6 157.4 153.1 146.2 140.1 134.7 128 120.9 114.5 108.2 105.2 104.7 99.8 91 87.1 85.4 83.9 81.1 79.4 75.7 78.9 71.3 69.1 68.8 67.5 67.2 67.2 67.1 67.2 67.3 71.5 75.8 75.8 76.9 77.8 88.3 102.9 114.6 128.4 141.5 151 159.5 171.5 182.4 188.6 188.7 189.2 195.7 199.9 193.2 187.3 188.2 192 198.2 202.4 201.3 198.6 199.3 203.8 209.9 219.2 223 224.6 220.4 211.7 198.4 192.6 194.2 196.4 192.6 187.4 188.6 189.9 189.3 190.3 192.1 197.6 204 207.3 207.3 203.7 199.3 195.3 190.9 188.7 177.7 156.5 133.6 113.6 92.5 74.1 57.1 45.5 38.1 38.1 38.1 38.1 38.1 38.1 38.1 38.1 38.1 38.1 38.1 38.1 38.1 38.1 38.1 38.1 38.1 38.1 38.1 38.1 38.1 38.1 38.1 38.1
223.3 212.7 194.5 161.3 139.3 121.3 97.1 81.3 72.7 68.2 63.2 73.6 87.7 102.4 112.3 116.1 117 120.9 123.4 121.8 120.1 118.7 115.7 109.8 100.7 93.1 82.4 71.8 63.2 56.7 55.2 57.3 54.7 54.6 53.7 59.7 67 74.6 83.1 89.6 99.7 106.8 113.4 118.8 123.1 131.5 132.6 132.3 136 142.6 148.7 152.9 157.2 160.5 164.1 171.6 175.5 180.4 186.6 197.4 209.5 214.9 218.9 220.6 221.6 219.5 212.7 218.8 223.8 220 211.2 206.4 211.8 218.4 215.6 212.8 206 194.6 190.9 188.7 184.9 175.7 171.5 166.6 157.9 153.1 146.4 141.8 139.2 133.7 122.3 114.6 110.5 109.9 107.3 99.4 91 89.4 86.3 82.7 81 79.9 75.3 73 70.2 69.3 69.1 68 67.1 67 66.7 67.2 67.1 68.8 72.6 73.7 74.3 76.8 86.7 101 113.3 125 137.5 145.6 155.6 164.6 174.2 181.6 181.6 188.1 198.8 194.1 187 185.5 192.5 193.4 195.1 196.1 196.2 195.3 197.8 202.8 208 211.8 215.4 220.2 216.2 205 200 200.3 201.6 201.1 197.9 197.3 196.2 194.1 193.8 197.8 204.2 204.1 208.2 210.6 209.8 205.7 199.2 197.4 195.9 194 183.6 167.3 145.8 124.1 99.6 77.1 58.3 45.7 38.1 38.1 38.1 38.1 38.1 38.1 38.1 38.1 38.1 38.1 38.1 38.1 38.1 38.1 38.1 38.1 38.1 38.1 38.1 38.1 38.1 38.1 38.1 38.1
196.2 194.8 177.5 142.1 115.4 103.6 84 75.8 68.3 66.5 68.6 79.2 93.7 104.6 110.7 114.1 117.2 124 126.8 127 127 124.5 119.1 111.5 101.6 90 78.4 65.7 55.7 52.6 53.9 53.3 54.3 52.5 54.1 65.7 71.1 78.8 85.7 86.4 92.5 98.7 108.3 113.6 121 129.8 128.1 131.4 137.8 144.4 149.7 153.2 155.9 158.8 162.6 173.5 183.5 189.5 193.5 208.2 217.8 220.9 221.6 218.8 218.6 219.8 221.3 222.9 224.9 221.1 213.2 206.5 217.5 221 218.7 214.8 206.2 196.4 196 194.1 187.8 179.4 173.3 165.9 157.8 152.7 147.1 144.2 142.9 144.1 136 120.8 113.9 112.5 106.4 101.8 95.9 88.7 86.5 85.4 80.5 77.9 74.4 72.2 71.4 71 69 68.7 67 66.8 66.5 67.3 67.3 68.4 71.2 71.6 73.1 78.9 88.7 100.3 110.8 120.9 130.8 139.3 147.6 156.9 168.5 177.2 180.4 192.5 192.5 185.8 185 196.5 193.4 194.8 200.5 195.9 194.5 192.5 199.7 206.8 210.2 211 210.9 215.1 208.1 206 206.9 208.9 214.8 220 210.6 206.7 199.5 199 199.1 202.5 209.5 205.1 212.6 211.9 211.2 205.2 198.9 199.3 199.6 196.2 188.1 174 155.2 128.6 101.5 78.2 59.1 45.8 38.1 38.1 38.1 38.1 38.1 38.1 38.1 38.1 38.1 38.1 38.1 38.1 38.1 38.1 38.1 38.1 38.1 38.1 38.1 38.1 38.1 38.1 38.1 38.1
176.7 168.5 149.9 120.7 98.8 85.1 75 69.1 65.4 64.4 72.4 80.8 88.5 97.2 105.2 111 117.1 126.9 131.8 132.3 131 127 119.4 109 97.3 81.7 65 57.1 52.2 51.6 51.7 50.5 50.8 50.7 57 68.1 71.8 76 79 82.6 88 96.9 102.9 109.1 118.4 122.7 126.9 133.6 139.6 145.1 148.7 151 153.9 157 163.7 180.2 193.9 201.8 210.9 216.6 221.1 222.7 222.2 221.1 223.9 227.2 223.2 223.6 225.9 221.6 211.9 211.1 220.8 222.4 218.4 214.8 208 200.2 200.8 197 190.9 185.3 176.8 170 164.1 156.9 150.6 147.4 150.2 156.6 152.5 133.3 118.9 115.2 112.6 105.6 99 95.3 94.9 86.5 83.5 82.7 76.8 73.5 71.5 71.7 69.6 68.5 67.4 66.7 66.5 66.9 67.5 69 70.2 70.9 72.3 79.9 91.5 101.9 108.3 116.3 124.4 133.7 143.4 153.7 163.6 168.6 173.1 181.7 181.8 182.2 192.6 193.8 196.2 201.9 203.6 197.8 190.9 192.9 205.4 214 217.3 216.6 214.7 211.3 207.4 211 214 218.9 226.3 228.3 217.9 210.5 208.1 207.6 207.2 211 211.1 211.6 214.2 217.6 213.8 206.2 202.6 203.5 207 203.3 195.4 184.5 161 132.3 103.3 79.2 59.8 45.9 38.1 38.1 38.1 38.1 38.1 38.1 38.1 38.1 38.1 38.1 38.1 38.1 38.1 38.1 38.1 38.1 38.1 38.1 38.1 38.1 38.1 38.1 38.1 38.1
163.3 141.4 118.4 97.5 86.5 77.1 72.4 65.1 62.1 65.9 73.6 81.3 87.2 92.7 99.8 106.9 117.2 128.8 133.5 131.9 129.7 123.4 112.1 99.6 85.5 68.4 56.6 52.7 48.3 50.5 50.5 48.2 49.2 49 60 67.4 71 72.4 74.2 78.7 85.8 92.2 96.9 106.5 117.4 123.3 128 135.9 136.8 140.7 144.2 147.4 153.6 159.7 172 188.6 202 210.5 220.3 220.2 222.8 225.8 227.8 224.2 226.2 225.7 224.3 225.8 227.2 221.8 213.4 216.1 223.4 222.9 218.6 215 207.8 203.2 201.4 198.7 194.1 190.2 183.1 176.6 172.4 163.2 155.6 152.7 159.5 168 162.5 144.5 128.1 123.3 123.5 109 100.6 95.5 93.7 91.9 86.6 81.7 79.6 76.1 73.2 72.1 70.2 68.8 67.4 67.2 66.4 66.6 67.6 68.5 69 69.7 72.3 81.4 88.4 100 108.6 114.3 120.7 128.9 137.4 146.9 156 162.8 167.9 172.4 179.2 186.8 193.7 192.9 199 205.4 200.3 194.6 190.9 201.8 213.3 221.7 224.4 221.2 219.4 215.6 212.6 216.2 222 227.5 229.9 227.2 221.4 216.2 215.1 212 214.5 216 213.5 219.6 221.8 215.2 213.9 209.2 209 209.1 213.7 210.7 202.8 188.4 162.1 133.9 104.8 79.2 60.9 47.1 38.1 38.1 38.1 38.1 38.1 38.1 38.1 38.1 38.1 38.1 38.1 38.1 38.1 38.1 38.1 38.1 38.1 38.1 38.1 38.1 38.1 38.1 38.1 38.1
137.9 118.4 106.5 83.7 75.3 71 64.6 62.1 60 64.6 74.3 81.4 85.4 88.3 94 102.2 116.3 125.8 128.1 125.4 120.9 110.9 99.2 84.8 71.9 64.4 51.6 47.3 47.1 47.5 47.3 47.4 48 48.7 59 65.3 67.1 69.7 69 75.7 82.3 86.8 91.5 104.3 114.2 119.2 126.6 130.1 130.7 135.3 139.3 146.6 158.6 171.8 186.5 197.1 205.2 216.9 225.3 227.3 228.3 234.7 231 225.9 226.3 224.9 226.6 227.4 226.9 223.5 221 219.9 223.4 221.8 221.5 218 211.4 207.9 202 202.9 198.5 194 189 181.9 177.5 170.1 161.6 157 164 171.7 167.1 151.3 134.1 124.6 126.3 112.7 102 97.5 94 91.1 87.4 84.7 79.1 76.7 74.2 72.5 69.6 68.4 67.1 67 66.2 66.4 67.3 67.3 67.8 68.6 72.3 79.5 85.4 95.7 105.6 113.1 117.8 124.7 132.3 139.8 148.6 156.1 161.5 170.3 187.1 185.2 187.6 190.8 196.4 200.1 193.8 189.2 192.9 206 217.4 225.3 223.6 223.1 225.2 227.5 225.9 222.8 227.4 229.2 227.4 225.1 223.1 221.1 220.5 219.3 219.8 220.3 216.5 218.5 215.8 217 215.2 211.7 210.3 212.5 215.6 212.6 205.2 186.4 160.4 132.3 103.8 81.5 63.4 49.3 38.1 38.1 38.1 38.1 38.1 38.1 38.1 38.1 38.1 38.1 38.1 38.1 38.1 38.1 38.1 38.1 38.1 38.1 38.1 38.1 38.1 38.1 38.1 38.1
115.8 100.6 87.9 77.2 71.4 65.1 62 60.5 59.6 64.9 73 74.9 76.9 81.7 88.5 98.5 113.1 118.5 119.1 115 107 96.5 85.9 76.7 66.9 56.3 49 47.9 46.2 46.8 46.4 46.6 47.1 49.4 57.7 59.8 65.9 66.6 66.1 73.6 79 80.9 89.7 100 107.6 110.5 118.4 122.8 127.1 133.2 143.6 157.8 168 179.6 193.6 201.7 209.5 224.1 234.2 234.2 234.8 233.6 231.8 227 226.8 227.1 228.9 229.4 229 228.5 227.5 226.4 227 227.3 222.5 218.9 214 212.5 205.8 205.5 202.5 199.3 191.1 186.8 180.5 172.8 164.4 157.5 165.3 166.2 161.7 149.1 139.8 126.2 118.6 110.4 102.3 97.9 95.7 95.9 94 86.8 81 80.5 80.4 71.6 70.1 68.1 66.8 66.9 66.5 66.7 66.8 66.9 67.1 67.2 69.6 77.1 84.7 95.6 103.5 117.7 117.9 119.6 127.2 134 142.3 149.6 158 170.6 180 182.3 183.6 189.1 193.6 194.8 189.7 187.9 193.7 203 212.7 218.2 220.4 227 234.7 236.8 234.3 230.7 228.4 227.2 226 225.5 226.4 224.8 224.8 226.1 225.6 222.9 220.8 221.8 223.7 230.8 220.5 211.8 212.9 216.6 217.8 214 203.4 184.2 160.1 133.2 106.1 84.3 65.8 52 38.1 38.1 38.1 38.1 38.1 38.1 38.1 38.1 38.1 38.1 38.1 38.1 38.1 38.1 38.1 38.1 38.1 38.1 38.1 38.1 38.1 38.1 38.1 38.1
100.7 86.9 79.2 70.6 65.8 62.8 61.8 60.7 57.5 63.8 67.3 67.3 69.9 74 82.2 94.9 106.5 109.8 107.6 101 95.6 88.4 81.3 69.6 57.8 53.6 46.9 45.4 45.1 45.6 45.4 46.1 46.5 50.6 54.2 58.5 63 63.4 65.4 69.9 72.9 77.2 87 96.5 100.5 104 109.5 116.9 126.7 138.7 151.9 164.2 173.2 185.3 196.5 204.1 213.3 227.3 234.6 234.6 235.4 234.4 231.3 229.5 228.3 228.9 230.9 231.4 231.5 232.9 233.7 233.3 232.4 228.7 224.4 221 214.9 210.5 208.1 207.2 205.7 201.4 198.2 190.2 180.8 173.4 167.1 158.2 154.5 152.3 143.1 133.5 134 135.4 128 113.4 105.4 99.6 96.7 95 92.5 87.8 85.2 82.3 76.9 72 69.9 68.7 67.4 66.8 66 66.5 66.5 66.6 66.3 66.6 67.6 75.6 81.1 90.8 105.1 116.9 119.3 116.5 124.3 131.4 138.2 144.3 153.1 165.6 176.1 179.5 180 186.5 188.9 189.8 186.6 186.7 191.5 198.8 207.1 213.2 218.5 231.6 240.4 241.9 239.8 234.4 229.7 224.9 223.6 226.1 227.9 228.4 230.5 232.6 230.1 229.1 230.5 234.3 236.5 232.7 221.1 214.3 213.9 215.4 217 213.4 204.5 184.7 160.6 134.1 108.3 86.7 68.3 54.5 39.1 38.1 38.1 38.1 38.1 38.1 38.1 38.1 38.1 38.1 38.1 38.1 38.1 38.1 38.1 38.1 38.1 38.1 38.1 38.1 38.1 38.1 38.1 38.1
87.4 80.5 73.5 66.4 63.9 63 62.1 60.9 58.7 61 62.1 63.1 62.7 68.1 77.8 88.9 97.1 99 96.3 95.7 91.3 81.8 70.4 58.1 53.1 46.7 45.3 44.4 44.6 44.2 44.7 45.5 45.9 49.4 52.9 57 59.4 59.5 61.2 64 66.3 75.4 85.9 93.1 94 97.3 105.4 118.3 131.9 144.2 155.8 168.5 177.7 189.5 204.7 211.5 217.4 229.1 233.3 234.1 234.8 234 231.7 230 229.8 232.1 233.3 233.8 234.8 236.3 236.4 234.7 233.3 229 224.5 219.7 215.8 210.8 211 211.7 211.3 208 202.5 192.6 181.6 176.2 170.9 161.6 155.8 151.9 145.2 139.4 128.6 126.7 122.9 116.4 111.8 100.9 97.6 93.8 91.7 90.4 91.1 93.5 83.3 72.5 70.2 68.3 67.6 66.1 66.5 66.3 66.3 66.3 65.9 66.2 67.1 71.4 79.8 93.6 106 113.7 118.4 116.9 120.2 130.1 138 143.4 148.6 160.3 171 173.9 173.4 178.9 184 185.4 184.5 184.2 185.2 193.3 202.2 211 222.1 235.2 240.2 243.5 240.4 235.2 228.8 223.6 224.2 224.8 228.7 230.5 232 233.8 233.9 236 239.9 243 242.5 233.8 222.9 219.7 220.4 219.7 222 218.2 205 183.6 160.3 131.2 105.9 85.9 69.6 55.8 43.2 38.1 38.1 38.1 38.1 38.1 38.1 38.1 38.1 38.1 38.1 38.1 38.1 38.1 38.1 38.1 38.1 38.1 38.1 38.1 38.1 38.1 38.1 38.1
79.7 73.8 67.5 63.9 63.6 62.3 61.9 60.9 58.6 57.9 59.1 57.8 57.9 62.8 71.5 81.9 87.9 91.8 92.5 90.4 80.7 69.8 62.8 55.5 46.7 45.1 45.2 43.9 43.2 43.2 43.2 43.2 45.1 47 50.5 54.3 56.3 56.7 58.5 61.4 66.7 77.9 84.5 87.7 90.6 100.1 112.1 126 137.9 149.2 160.3 169.4 181.7 193.5 202.4 212.6 219.7 229.9 232.9 236.6 231.5 232.7 232.5 233 234.1 236.7 238.2 236.7 237 238.2 237.8 236.1 233.6 229.3 224.2 218.8 216.5 215.6 217.1 217.7 217.8 212 202.9 194.2 192.6 181.5 172.8 162.5 160.1 156.4 150.4 149.2 141.1 129.2 124.1 127.1 121.4 106.8 97 94.1 91.3 91.4 96.5 99.2 84.2 71.6 70.1 68 67.6 66.7 65.3 66.2 66.1 66.1 65.4 65.5 66.8 69.1 76.9 88.7 96.5 106.2 113.1 114.6 117.8 129.8 136.5 141.8 148.3 157.3 164.7 166.6 168.6 173.5 177.8 180.7 184.6 184.6 184.6 189.9 199.8 209.7 225.1 234.1 234.8 235 234.2 232.4 226.5 225.5 228.1 231.3 232.1 232 233.8 235.5 237.9 242.5 249.3 254.1 252.3 239.4 230.9 229.7 228.1 228 224.1 217.1 203.2 184.3 160.4 131.6 106.8 85.9 68.6 54.4 45 38.1 38.1 38.1 38.1 38.1 38.1 38.1 38.1 38.1 38.1 38.1 38.1 38.1 38.1 38.1 38.1 38.1 38.1 38.1 38.1 38.1 38.1 38.1
72.5 68 64 62.1 61.8 62.1 60.3 58.7 56.3 54.4 55.6 53.5 53.4 57.2 65.3 74.5 82.5 88.4 86.9 80.9 73.7 68.5 60.9 49.2 45.1 45 45.1 43.2 43.2 43.2 43.2 43.2 44 47 48.3 48.5 51.6 53.2 54.3 58 68.4 74.2 79.3 85.4 93.9 107 121.3 132.6 144.2 154.6 164.6 172.9 184.6 197 207 214.6 221 230.5 231.9 232 231.5 234.8 240.1 242.2 240.6 241.4 241.7 238.7 238.8 239.4 239 237.3 233.7 228.6 223.3 220 221.1 221.6 222.5 223.7 220.1 212.8 205.2 200.6 196.8 183.8 173.8 166.3 163.5 157.8 154.5 161.9 152.8 137.2 131.2 143.1 137.2 118.8 99.7 93.1 90.3 92.6 97.7 97.4 81.7 72.6 70.3 68.2 67.6 67.1 66.6 64.6 65.8 65.7 65.6 65.6 67 70.5 75.6 82.9 89.6 101.3 107.2 110.4 114.4 121.8 130.6 138.8 147.9 156.8 158.1 157.6 165 174.2 178 180.6 184.6 184.6 183.6 190.4 200.3 211.2 221.7 228.2 230.3 230.1 229.4 229.4 226.6 228.9 232.7 236.7 239.4 239.4 237.5 237.7 241.5 247.7 254.7 258.5 254.1 244.3 238.9 238.4 238.2 230 223.6 218.5 208 186.7 160.1 133.4 108.8 86.9 67.1 53.1 43.6 38.1 38.1 38.1 38.1 38.1 38.1 38.1 38.1 38.1 38.1 38.1 38.1 38.1 38.1 38.1 38.1 38.1 38.1 38.1 38.1 38.1 38.1 38.1
66.9 66 63.5 61.8 60.8 60.3 58.8 57.7 56.2 50.1 53.4 53.1 51.7 52.9 58.8 67.3 75.2 80.3 75.6 72.7 73.9 65.2 53.6 46 45.3 45.5 45 43.2 43.2 43.2 43.2 43.2 44.7 46.5 46.5 47.7 49.2 51.2 52.7 55.6 59.4 71.1 68.9 86.2 102.2 114.9 125.7 136.8 149.6 160.2 168.3 180.3 191.9 201.5 211.5 217.4 223.7 230.2 229.7 230.7 233.3 239 245.2 244.7 242.8 242.8 241.4 240.6 241.6 242 240.6 238 234.3 229.1 224.3 225.2 226.9 226.6 227.3 226.3 221.6 213.7 206.6 201.6 197.4 186.5 176.9 172.1 166.4 161.1 154.7 164.6 163.5 146.8 136.2 149.4 147 126.4 105.1 93.3 89.7 89.4 89.9 89.8 79.9 72.2 69.7 68.4 67.5 67.2 67.4 66.3 64.6 65.5 65.6 65.6 67.7 71.3 74.7 80.9 87.1 99.5 105.1 108.1 112 119.5 126.9 136.4 145.5 151.9 154.6 160.6 167.1 177.5 186.8 187.5 184.1 183.8 189.1 194.8 200.7 207.7 216.6 225.4 226 224 222.6 224.1 226.5 232.5 235.5 240.6 247.5 244.8 242.8 240.3 243.9 249.8 255.5 257.6 253 250.7 247.8 244.2 239.6 231.2 229.1 223.4 210.7 187.4 159.7 132.2 108.2 85.4 64.9 50.1 38.1 38.1 38.1 38.1 38.1 38.1 38.1 38.1 38.1 38.1 38.1 38.1 38.1 38.1 38.1 38.1 38.1 38.1 38.1 38.1 38.1 38.1 38.1 38.1
69 59.9 62.4 61.1 60 59.5 58.7 57.2 54.3 52.6 51.3 51.1 50.3 50.7 51.7 60.5 65.2 65.9 68.8 71.5 64.3 53.5 46.4 45.6 45.2 45.3 43.2 43.2 43.2 43.2 43.2 43.2 44.5 45.7 46.3 47.6 49.2 50.4 52.5 55.1 61.5 63.3 82.6 95.2 108.1 119.2 129.9 139.6 152.8 165.3 175.7 188 198.5 205.6 213.1 219.1 223.7 227.2 228.9 231.3 237.7 242.7 246.8 247 245.1 245.3 244.3 244.3 245.2 244.6 242 238.8 235.8 230.9 229.8 232.1 231.9 231 230.7 228.9 223.2 214.9 208 203 197.9 189.3 180.6 174.6 171.9 163.2 156.7 155.8 159.2 155 139.4 152.4 150.4 134.5 111.4 96.5 90.7 86.7 84.9 81.6 76.9 71.7 70.6 68.6 67.5 67.3 66.9 66.4 65.9 65.7 65.6 65.5 66 68.5 71.5 75.9 85.5 94.3 102.1 105.9 106.5 113.7 121.9 131.4 135.1 148.4 155.2 166.6 175.6 183.6 190.9 191.8 186.6 186.3 189.7 198.2 199.8 204 216.1 220.5 219.9 218.2 219.7 221.4 226 229.9 237.1 247.4 252 248.5 243.8 243.4 244.3 251.5 256.1 255.7 254.2 255.4 254.9 252.3 244.9 235.3 231.1 224.3 214.5 189.2 160.3 132.8 105.3 82.9 63.1 49.3 38.1 38.1 38.1 38.1 38.1 38.1 38.1 38.1 38.1 38.1 38.1 38.1 38.1 38.1 38.1 38.1 38.1 38.1 38.1 38.1 38.1 38.1 38.1 38.1
69.1 63.3 61.2 59.9 59.2 58.8 58.7 55.5 53.7 52.9 50.6 50.4 49.9 49.7 49.8 53.8 59.4 61.3 62.8 58.9 51.9 46.3 45.7 45.5 45.6 45.2 43.2 43.2 43.2 43.2 43.2 43.2 44.9 45.7 46.5 47.5 48.8 50.9 54.8 60.2 70.1 81.3 90 101.5 116 128.1 135.9 140.2 156.7 169.9 181.8 194.2 201.6 207.9 214.9 220 226.8 231.8 234.9 237.8 241.6 248.5 252.6 251.1 248.2 247.7 247.5 248 247.9 245.8 243.2 240.7 239 235.3 236.8 238 237.1 235.1 233.3 230.2 223 215.5 209.5 203.2 196.7 188 183.3 179.1 172.3 166.2 158 151.8 146.6 153 141.7 152.2 150.6 138.8 116.4 99.5 94.6 89 83.5 77.6 74.3 72.3 71.3 69.3 68.2 67.3 67.1 66.6 66.1 65.6 65.5 65.2 65.5 66.5 69.9 75.7 82.8 92.1 101.3 102 102.3 107.2 120 132.8 142.7 148.5 160.7 173.6 182.3 193.6 203.9 200.7 193.2 189.9 193.3 197.6 197.4 201.3 211.6 214.1 213.1 212.8 217.3 218.1 221.3 228.8 238.3 248 245.2 243.2 245.2 246.9 246.3 256.3 260 256.7 254.6 260 260.1 255.2 245.2 235.7 229.3 227.8 213.2 188.3 160.5 133.1 103.9 81.9 63.6 49.9 38.1 38.1 38.1 38.1 38.1 38.1 38.1 38.1 38.1 38.1 38.1 38.1 38.1 38.1 38.1 38.1 38.1 38.1 38.1 38.1 38.1 38.1 38.1 38.1
68.3 64.4 60 59.4 57.9 57.5 55.9 54.9 54.1 52.6 51 49.2 49.5 49.1 48.7 48.8 52.1 54.9 53.3 48.4 46.8 47.1 46.2 45.6 45.5 43.2 43.2 43.2 43.2 43.2 43.2 43.4 44.9 45.8 46.7 47.9 49.4 54.5 61.4 67.6 74.6 84.2 93.6 106.6 119.9 129.9 138.1 145.9 162.8 175.2 186.4 195.4 202 209.3 215.8 221.7 228.6 233.4 237.9 244.5 250 255.6 258.4 256.1 251.5 249.7 250.3 250.4 249.8 246 243.3 243.5 242.5 239.8 241.8 243.7 243.3 239.9 234.9 229.2 221.1 215.4 209.9 202 195 191.7 186.3 182.4 175.6 167.8 164.6 157.8 147.2 142.3 138.8 149.1 146.4 135.1 121.4 104.9 97.6 90.5 88.3 81.5 77.6 74.7 73.1 71.1 70.2 69 68 67.4 66.2 65.4 64.6 65.3 65.3 66.1 68.9 74 80.6 88.2 97.4 97.1 99.5 110.4 123 133.8 143.5 155.3 168.9 176.6 184.5 196.1 206.3 209.3 198.4 194 194.7 194.7 194.7 197.1 205.2 206.3 202.9 205.5 209.9 212.8 219.1 224.7 231.7 235.9 236.4 240.5 246.2 249.8 250.8 260.9 261.1 257.1 253.8 256.5 258.5 250.4 239.5 234.8 231.9 224.1 209.1 186.7 160.1 131.3 105 83 65.9 51.6 38.1 38.1 38.1 38.1 38.1 38.1 38.1 38.1 38.1 38.1 38.1 38.1 38.1 38.1 38.1 38.1 38.1 38.1 38.1 38.1 38.1 38.1 38.1 38.1
70.5 65.3 61.3 56.7 56.4 56.2 55.4 54.5 53.8 52.6 51.2 48.4 48.7 48.6 48.2 48.4 48.2 48.5 47.7 46.9 47.1 46.9 46.4 46 45.1 43.2 43.2 43.2 43.2 43.2 43.2 43.2 45 46.3 47.3 48.8 50.7 55.9 59.9 68.2 78.7 88.2 98.2 111.2 122 135.3 145.5 154.9 169.8 180.7 188.1 196.9 204.5 211 218.3 224.7 231.3 237 243.3 253.3 258.4 263.9 265.1 260.3 254 252.2 251.4 251.1 249.5 246.3 246.7 248.1 247.7 244.6 248.2 249.1 248.2 244.4 237.9 229.4 220.3 214.4 208.5 200.7 194.8 194.4 190 186.2 182.4 174.4 167.4 158.5 149.8 143.6 138.2 138.3 137.6 136.4 128.5 111 99.5 91.5 89.3 83.9 82.7 83.4 72.9 71.2 71 71.7 70.1 69.1 67.9 66.6 65.5 65.3 65.4 66.1 67.7 72.6 78.2 83.3 91.3 92.6 98.2 110 122.8 135.3 146.4 156.4 170.3 177.6 186.7 195.7 204.2 206.5 201.4 194.7 194.7 194.7 194.7 194.7 199.9 198.9 200 203.6 205 206.4 214.2 217.6 219.6 225.4 234.8 238.6 241.3 246.2 246.1 254 255.5 251.8 247.8 246.8 247.7 240.2 237.6 236.7 233.3 222.3 207.8 187.2 159.3 131.7 108.6 86.4 67.1 51 38.1 38.1 38.1 38.1 38.1 38.1 38.1 38.1 38.1 38.1 38.1 38.1 38.1 38.1 38.1 38.1 38.1 38.1 38.1 38.1 38.1 38.1 38.1 38.1
72.9 67 61.5 58.4 55.4 55.1 54.5 53.9 53.2 52.2 51.3 47.4 48.2 48.3 47.8 47.4 47 47.6 47.7 47.3 47.8 46.8 46.5 46.2 43.4 43.2 43.2 43.2 43.2 43.2 43.2 43.2 44.6 46 47.4 50.6 54.9 58.4 64.7 73.1 84 93.5 102 115.5 130.7 140.7 147.7 160.6 177.4 186.1 193 200.8 205.7 214.5 221.3 228.4 235 241.3 251.2 260.5 265.3 269.6 267.4 259 255.1 253.2 252.1 252 251.8 249.7 249.5 251.2 250 249.7 253.4 253 251.4 246.5 240.6 233.2 223.2 214 206.6 199.7 197.3 195.4 193.5 191.8 184.6 178.8 168.1 160 151.6 145.1 137.7 133.6 135.1 141.6 133.7 115.8 101.4 93.8 89.3 87.3 92.2 92.9 76.5 70.2 71.8 74.1 74.4 72.1 71.1 68.5 67 65.6 65.5 65.3 66.6 70.4 76.5 80.3 87.6 89.6 96 108.9 123.9 136.4 148.2 159 171.9 180.1 186.4 196 206.1 209 201.5 195.9 196.8 195.8 194.7 194.7 198.1 197.9 203.2 202.3 201.8 203.1 209.4 212.1 216.7 226.9 232.4 232.6 233.4 235 235.4 241.4 243.7 242.2 239 238.7 237.9 237.9 239.6 236.4 229.7 221.1 213.2 194 166.1 133.7 110.3 87.6 65.8 49.6 38.1 38.1 38.1 38.1 38.1 38.1 38.1 38.1 38.1 38.1 38.1 38.1 38.1 38.1 38.1 38.1 38.1 38.1 38.1 38.1 38.1 38.1 38.1 38.1
78.5 68.8 62.4 58.8 54.8 54.2 54 53.4 52.5 51.8 50.9 49.8 47.6 47.8 47.4 47 46.6 46.6 47.6 47.3 47 46.7 46.2 45.2 43.2 43.2 43.2 43.2 43.2 43.2 43.2 43.2 43.2 45.3 48.7 54 59.2 65.6 69.1 78.7 89.4 98.4 106.1 121.2 135.6 142.6 151.1 166.5 179.1 187.9 195 202.5 210.4 217.7 224.8 232.4 239.1 246.3 257.3 265.4 270.5 270.8 267 261 256.6 253.4 253.9 254.5 252.6 252 253 252.6 249.8 252 256.4 255.8 252.5 248.2 242.7 236 227 217.2 208.5 204.9 203.6 199 194.9 192.5 188.4 178.9 170.1 162 154.8 145.1 140.4 134.5 130.3 135.3 133.6 117 105.3 99.1 89.2 88.8 96.7 100.8 85.3 73.3 76.2 78.1 77.4 76.6 78.1 75.3 67.8 65.4 65.5 65.5 66 68.3 74.6 78 83.2 89.3 95.6 109.7 125.5 138.4 150.5 162.1 174 183 189.7 199.7 210.2 210.2 203.9 200.8 199 196.7 194.7 194.7 195.6 199 201.4 199.3 201.9 205.1 209.3 213.8 220.6 223.5 225.5 224.6 225.3 223.5 219.9 225.6 230.1 233.6 235.8 239.3 241.7 242.5 242.5 237.1 231.3 222.7 217.4 200.2 170.7 137 111.1 86.6 63.7 47.8 38.1 38.1 38.1 38.1 38.1 38.1 38.1 38.1 38.1 38.1 38.1 38.1 38.1 38.1 38.1 38.1 38.1 38.1 38.1 38.1 38.1 38.1 38.1 38.1
85.6 72 63.7 58.1 55.9 53.7 52.1 51.4 51.9 51.4 50.4 49.2 47.6 47.2 47.1 46.6 46.4 46.2 46.4 47.4 47.2 46.6 45 43.2 43.2 43.2 43.2 43.2 43.2 43.2 43.2 43.2 43.2 50.5 52 57.3 62.4 67.9 74.1 87.6 93.3 104.7 112.2 124.7 137.9 149 158.2 168.2 183.1 189.9 197.5 205.5 213.1 221 229.3 237.5 243.9 250 262.2 270.5 274.1 272.7 269.9 266.5 261.6 258.9 256.1 256 255.8 255.8 256.3 255.7 255.8 257.6 259.1 257.2 254.2 249.7 244.2 237 229.8 221.1 214.9 212.5 206.7 202 196 192.6 187.2 180.9 173.7 164.3 153 145.3 139.9 134.3 131 125.9 124.7 116.9 108 99.8 90.5 87.4 97 103.3 94.6 81.2 81.2 85.9 86.7 82.5 83.2 82.9 76.1 65.7 65.5 65.5 66.2 69.1 72.2 75.5 82.5 88.4 94 110.3 126.5 141.1 153.7 165.1 177.8 185.9 191.8 202.2 209.3 210.2 205.5 201.6 202 197.9 194.7 194.7 194.9 198.3 198.6 203 206.5 211.1 214.1 217.5 218.9 222.1 221.9 218 215.8 212.3 208.8 217.1 224.3 230.5 234.4 236.4 243.8 246.6 244.2 239.5 234.6 228.7 221.3 199.8 170.7 137.1 109.3 84.4 61.7 47.2 39.1 38.1 38.1 38.1 38.1 38.1 38.1 38.1 38.1 38.1 38.1 38.1 38.1 38.1 38.1 38.1 38.1 38.1 38.1 38.1 40.9 38.1 38.1 38.1
86.2 74.8 64.6 58 54.9 52.8 52.5 52.1 51.2 50.6 49.9 48.7 47.6 46.7 46.5 46.3 46.1 46.1 46 46.2 46.3 46 44.4 43.2 43.2 43.2 43.2 43.2 43.2 43.2 43.2 43.2 49.3 55.3 54.9 60.3 64.1 69.9 77.5 88.5 100.3 110.4 117.4 128.9 142.7 155.5 163.5 171.3 183 193.8 202.6 208.4 216.9 224.4 233.8 241.5 247.6 255.1 265.5 273.5 276.7 275 272.8 268.1 262.4 258.3 258.7 260.7 259.9 259 260.1 261.2 263.6 262.2 262 260.1 256 250.8 244.8 237 229 224.6 221.8 217.8 210.7 203.4 198.1 194.1 188.3 182.9 175.7 166.5 156.8 148.4 143.1 134.4 130.5 126 121.6 115.3 109.2 100.2 92.9 85.7 93.2 98.5 94.9 84.7 83.3 90.2 92.2 86.7 85.3 86.6 82.3 68.3 65.5 65.5 65.9 68.6 70.2 72.9 80.2 85.5 92.9 110.2 125.3 140.4 154.3 166.3 180.9 191.5 193.1 202.9 209.5 211.5 206.5 203.6 206.7 202.6 197.8 194.7 194.7 196.3 202.3 209.6 217.4 215.5 214.8 214.4 216.8 218.7 217.5 215.9 219.3 206.4 206.4 215.2 223.4 229.6 235.1 238.9 247.8 251.5 250.6 244.6 236.1 230.2 222.5 200.8 169.9 136.7 107.7 82.5 59.5 46.5 38.1 38.1 38.1 38.1 38.1 38.1 38.1 38.1 38.1 38.1 38.1 38.1 38.1 38.1 38.1 38.1 38.1 38.1 38.1 38.1 38.1 38.1 38.1 38.1
88.4 78.9 65.7 57.7 53.6 52.4 51.4 51 51.2 49 49.4 48.3 47.5 46.7 46.3 46.1 45.8 46 45.6 45.5 45.8 45.7 43.2 43.2 43.2 43.2 43.2 43.2 43.2 43.2 43.2 45 53 55 56.9 61.7 67.6 77.2 82.7 97.9 105.7 116.3 123.8 135.7 148.3 161.2 168.1 176.5 187 197.5 206.3 211.5 222.3 227.1 236.9 244.1 250.9 258.1 266.3 275.4 278.3 276.7 274.2 271 268 264.3 262.8 262.8 261.8 261.5 263.2 264.5 265.5 263.1 263.3 262.7 257.5 250.7 243.2 236.1 228.2 228.7 225.9 218.9 211.2 205.3 200.9 196.8 189.9 185.5 178.8 169.9 159.4 148.3 143.5 139.1 132.5 128.4 124.3 117.4 108.5 95.6 88.7 86.3 86 91.7 89.2 82.1 80.6 89.2 91.2 88.1 83.5 85.2 81.8 71.4 65.5 65.5 65.5 66.9 68.9 71.6 78 87 90.4 105.9 122.2 138.8 152.8 165.4 180.5 192.7 196.8 207.5 209.9 211.6 205.1 210.7 212.2 205 199 197.1 196.1 194.9 207.1 217.5 218 214.7 208.4 210.2 212.3 213.9 215.1 217.8 217.5 206.4 206.4 214 223.6 228.1 237.3 243.9 251.7 258.9 261.7 255.5 240.1 226.5 227 203.5 170.5 137.9 109 82.6 58.6 45.7 38.8 38.1 38.1 38.1 38.1 38.1 38.1 38.1 38.1 38.1 38.1 38.1 38.1 38.1 38.1 38.1 38.1 38.1 38.1 38.1 38.1 38.1 38.1 38.1
93.7 79.4 65.1 58 52.8 50.9 50.4 50 50.2 49.7 48.8 48.1 47.4 46.8 46.3 45.9 45.8 45.6 45.2 44.8 45.1 44.1 43.2 43.2 43.2 43.2 43.2 43.2 43.2 43.2 43.2 48 52.4 57.2 58.6 66.1 72.8 79.8 91 102.4 107.8 118.6 132.2 144.8 156.4 164.6 172 180.2 191.1 200.6 209.6 215.7 224.8 230.2 236.9 246.2 252.6 259.3 267.7 276.4 279.3 278 277.2 273.9 271.2 267.3 265.1 264.1 262.8 263.6 264.7 266.4 266.7 262.7 263.9 262 256 248.3 240.7 235.7 232.5 232.3 226.3 219.2 212 209 204.7 198.8 192 187.1 181.1 171.9 161.2 152.6 142.5 138 135.8 127.5 125.6 118.2 107.6 96 86.8 83.3 80.9 85.5 83.7 77.1 75.1 81.3 83.5 78.4 75.7 77.9 75.5 73.3 65.5 65.5 65.5 65.5 65.8 69.5 76.5 83.3 86.6 100.4 117.3 135.9 150.2 163.1 176.9 188.8 194.1 207.8 213.7 214.6 208.8 214.3 210.7 201.4 198.8 197.2 198.4 202.2 205.8 211.1 214.2 207.7 207.8 208.4 210.2 212.6 214 214.3 207.9 206.4 206.8 215.1 223 229.1 239.3 246.5 254.3 261.4 262.4 252.3 238.4 221.5 224 198.6 169.2 138.6 111 82.8 58.3 44.1 38.1 38.1 38.1 38.1 38.1 38.1 38.1 38.1 38.1 38.1 38.1 38.1 38.1 38.1 38.1 38.1 38.1 38.1 38.1 38.1 38.1 38.1 38.1 38.1
93.1 79.6 65.9 56.6 51.7 50.1 49.7 49.4 49.2 49.1 48.9 47.7 47.4 46.7 46.3 45.9 45.5 45.4 45 44.8 44.5 43.2 43.2 43.2 43.2 43.2 43.2 43.2 43.2 43.2 44.2 53 59.4 60.7 62.3 66.8 75.6 86.7 96.4 104 112.3 126 140.3 152.1 162.7 171.9 178.3 181.4 193.1 203.7 214.5 219.8 227.2 234.3 235.5 246 252.7 260.3 268.4 277.1 278.3 278.7 279.9 277.7 274.3 271.8 266.8 268.1 263.1 264.2 264.5 266.5 265.3 262.4 263.3 258.7 252.2 244.6 238.1 234.7 234.4 232.1 225 219.6 216.4 212.1 207.3 200.2 194.3 188.9 182.2 173.9 162.8 151.1 144.6 138.8 132.6 125.6 122.5 118.7 108.1 101.7 91 81.2 79.3 79.8 78.1 75.3 70.2 71 71.8 69.4 68.1 67.9 66.3 68.5 65.3 65.5 65.5 65.5 65.5 66.4 71.2 79 82.4 95.4 111.7 130.5 146.4 159.3 173.1 185.9 192 209.3 213.5 213.3 210.1 210.8 202.9 200 197.1 199.1 201.6 206.9 212.4 207.7 205.6 206.9 207.7 211.8 211.1 216.7 222.5 213.5 206.4 206.4 211.6 221.9 228 231.8 241.4 247.5 253.8 255.4 247.7 237 224.9 217.2 210.5 192.7 167.9 141.4 113.5 83.7 57.3 38.1 38.1 38.1 38.1 38.1 38.1 38.1 38.1 38.1 38.1 38.1 38.1 38.1 38.1 38.1 38.1 38.1 38.1 38.1 38.1 38.1 38.1 38.1 38.1 41.8
91.2 79 65.9 56.2 51.1 50.1 49 48.8 48.6 48.2 48 48 46.3 46.6 46 45.6 45.2 44.9 44.9 44.8 43.2 43.2 43.2 43.2 43.2 43.2 43.2 43.2 43.2 43.2 48.5 54.3 57.7 59.9 66.7 70.5 78.8 94.4 100.3 109.9 120.1 135.8 149.6 159.5 169.7 181.6 187.5 190.5 196.3 207.2 218.5 225.7 232.6 234.2 234.2 245.5 254.7 262.7 269.9 275.3 277.7 281.1 282.6 278.9 277.8 276.2 271.8 269.3 262.4 263.4 264.3 264.8 262.2 261.9 261 254.6 248.5 243 238.4 236.2 235.2 232.1 227.7 221.1 215 211.1 207.6 200.7 194.9 190.6 184.6 176.5 161.3 148.1 140.1 135.3 128.7 124.9 129.3 128.2 117.1 100.2 93.1 84.5 79 76.2 74.9 75.1 71.2 70.1 67.9 66.1 65.5 65.5 65.5 65.5 65.5 65.5 65.5 65.5 65.5 65.5 70.1 74.9 79.8 91.7 107.5 126 142.1 154.8 167.6 181.3 188.6 207.1 210 208 207.7 204.8 200.4 199.3 200.1 204.3 205.8 203.6 204.7 200.9 201 198.3 202.5 204.6 206.6 219.6 213.2 204.7 205 210.8 214.4 224.5 233.6 240 243 243.3 245.4 244 238.3 233.4 222.8 220.3 211.3 191.9 173.5 147.6 117.3 84.7 58.6 38.1 38.1 38.1 38.1 38.1 38.1 38.1 38.1 38.1 38.1 38.1 38.1 38.1 38.1 38.1 38.1 38.1 38.1 38.1 38.1 38.1 38.1 38.1 38.1 43.3
89 75.2 61.3 52.5 48.7 48.9 48.6 48.2 47.9 47.3 47.1 47 47.3 46.2 45.6 45.3 44.9 44.7 44.4 44.2 44 43.2 43.2 43.2 43.2 43.2 43.2 43.2 43.2 43.2 49.7 51.9 59.9 64.8 69.8 75.7 87.2 95 105.8 115.2 129.3 142.8 155.5 165.6 178.3 190.1 195.1 199.3 203.5 211.1 218.4 226.7 232.5 235.1 237.4 248.5 257.4 263.1 268.2 272.6 277.8 281.5 280.2 279.6 282.4 280.5 274.6 263.8 258.7 260.4 262.2 262.6 259.9 260.2 254.5 250.3 245 241.5 241.8 241.5 237.5 234.5 230.3 221.9 214.9 209.2 204.2 198.8 194.3 191 184.1 172.6 161.5 152.2 143.9 133.1 129.8 126.5 137 138.3 124.9 106.9 90.9 84.5 82.8 77.2 73.8 72.6 70.7 69.8 68.9 67.8 65.5 65.5 65.5 65.5 65.5 65.5 65.5 65.5 65.5 65.5 67.1 72.2 77.9 89.4 105.3 122.4 137 148.4 161.1 172.8 183.4 198.9 202.8 200 202.2 196.6 194.1 200.3 205 206.7 200.9 197 197 201.5 198.2 194.3 190.8 197.9 202.8 203.2 206.4 201.9 210.4 211.3 215.8 228.2 239.5 245.6 252.1 242.4 241.7 244.8 241 230.4 223.1 220.8 214.6 203.4 184.9 154.7 121 88.4 60.8 41.1 38.1 38.1 38.1 38.1 38.1 38.1 38.1 38.1 38.1 38.1 38.1 38.1 38.1 38.1 38.1 38.1 38.1 38.1 38.1 38.1 38.1 38.1 38.1 42.2
85.5 69.4 58.6 51.3 47.6 47.8 47.7 47.6 47.3 46.7 46.4 46.3 46.7 45.6 45.5 44.8 45.3 44.8 43.3 43.6 44.1 43.2 43.2 43.2 43.2 43.2 43.2 43.2 43.2 46.1 51.5 56.7 62.7 66.5 74 82.5 88.5 93.5 109.1 122.2 136.7 150.5 163.2 173.7 185.5 194 199.3 204.1 208 212 218.7 228.2 235.1 240.3 246.6 252 258.5 262.8 268.5 274.5 277.8 276.2 276.6 282.9 282.4 279 271.8 261.4 254.7 255.8 257.3 259.3 256.9 254.8 249.9 246.3 243.9 243.8 245.6 244.6 239.8 235.4 230.7 220 212.9 207.3 203.2 198.4 193.1 188.6 181.5 171.6 162.5 153.6 144.8 134.1 131 128.2 137.8 142.6 132.7 113.3 101.9 87 81.9 75.1 72.9 72 69.8 68.9 68.5 66.9 65.5 65.5 65.5 65.5 65.5 65.5 65.5 65.5 65.5 65.5 65.5 70.4 77.2 89.9 105.5 119.4 131.2 142.8 154.1 164.8 176.5 190.3 194 193 194.2 190 195.8 201.5 198.8 197.1 195 192.2 192 197 202 196.4 188.3 189.2 188.9 191.9 199.2 197.8 202.6 208.7 215.5 229.6 241.5 244.4 242.1 244.2 242.4 239.8 233.3 228.1 227.7 222.8 216.2 210.8 191.4 163.4 127.2 94.2 65.7 41 38.1 38.1 38.1 38.1 38.1 38.1 38.1 39.9 38.1 38.1 38.1 38.1 38.1 38.1 38.1 38.1 38.1 38.1 38.1 38.1 38.1 38.1 38.1 39.9
84.7 70.9 59.4 50.5 48 47.2 47.3 47 46.7 46.4 46 45.8 45.7 47.9 46.1 45.7 43.9 43.2 43.2 43.2 43.2 43.2 43.2 43.2 43.2 43.2 43.2 43.9 45.9 50.1 56.7 62 66.6 71.5 78.5 86.3 91.2 96.9 112.5 127.5 141.7 154.8 170.3 181.3 189.8 196.2 201.7 206.7 210.7 213.6 219.2 226.6 238.1 242.9 246.8 253 259.3 264 272.2 276.2 274.8 274 274.7 278.2 276.9 271.7 264.4 254.1 246.8 247.7 249.2 251.1 253.6 247 246.1 243.6 243.4 245.9 246.1 243 239.8 236.7 229.4 218.1 211.7 207.2 202.8 198 192 185.5 179.3 171.9 164.4 154.2 144.8 137.7 129 126.3 133.2 140.9 134.9 119.6 108 91.2 78.6 73.7 72.1 71.3 69.4 68.2 68.5 66.8 65.5 65.5 65.5 65.5 65.5 65.5 65.5 65.5 65.5 65.5 65.5 68.8 77.5 90.1 105.7 115.7 126.7 137.9 149.8 159.3 169 178.3 184.1 189.2 189.1 188 191.9 192.2 189.9 190.5 190.4 187.7 190 195.5 196.2 193.5 188.3 187.5 186.4 187.3 193.5 194.2 199.9 206.9 215.4 226.8 230.5 234.4 242.5 248.4 250.9 241.4 233.2 236.1 229.6 221.5 210.8 201 187.5 162 135.5 98.2 68.3 46.9 38.1 38.1 38.1 38.1 38.1 38.1 39.7 38.1 38.1 38.1 38.1 38.1 38.1 38.1 38.1 43.3 39.3 38.1 38.1 38.1 38.1 38.1 38.1 38.3
84.1 68.7 57.1 48.8 47.5 46.6 46.6 46.4 46.2 45.7 45.4 45.1 44.8 48.7 46.5 45.8 43.2 43.2 43.2 43.2 43.2 43.2 43.2 43.2 43.2 43.2 43.5 46.8 49.9 55.4 60.5 64.7 68.1 75.4 80.3 88.2 94.2 105.1 116.6 133.3 146.1 158.6 173.7 187 192.4 197.3 203.3 209.5 214.9 218.4 222.4 226.2 239.6 247.3 253.1 259 262.3 267.4 273 274 272.8 270.8 270.5 271.9 271.4 267.3 257.1 247 241.4 242.9 240.9 243.8 243.3 242.6 243 242.7 243.5 246.1 243.6 240.9 238.9 238.3 227.5 218 211.7 206.5 201.7 195.2 188.2 183.5 178.1 171.8 165 155.6 148.1 140.1 129.1 121 126.5 134.6 131.9 123.8 114.7 100.1 81.7 73.3 71.4 70.8 68.4 68.1 68.3 67 65.5 65.5 65.5 65.5 65.5 65.5 65.5 65.5 65.5 65.5 65.5 68.9 75.4 87.8 103.7 112.7 122.2 132.8 145.9 154.7 162.5 171 181.4 185.1 182.5 188.2 185.3 183.8 181.6 185.2 182.4 180.3 181 188.5 191.7 188.4 188.5 185.7 185.7 186.8 186.8 192.1 197.6 204.6 210.6 217.5 222.4 232.9 244.4 251.4 247.7 239 234.2 230.6 222.3 214.6 203.5 189.1 167 138.9 111.3 91 67.1 47.7 38.1 38.1 38.1 38.1 38.1 38.1 38.1 38.1 38.1 38.1 38.1 38.1 38.1 38.1 38.1 43.5 43.6 41.6 38.1 38.1 38.1 38.1 38.1 38.1
74.1 62.8 55 49.2 47.4 46.6 46.3 45.9 45.5 45.1 44.9 44.7 44.9 46.1 46.1 44.5 43.2 43.2 43.2 43.2 43.2 43.2 43.2 43.2 43.2 43.2 46.3 49.3 53.2 57 62 65.7 70 76.3 83.4 90.4 100.6 113.7 124.5 136.9 149.6 162.6 177.2 188.4 192.3 196.9 203.2 207.7 214 217.5 222 231.1 244.6 255.6 264.2 268.5 267.9 270.3 274.2 271.5 269.3 266.8 265.8 265.5 263.6 256.1 247.1 240.6 237.2 240.2 238.8 241 240.2 240.6 241.2 241.1 243.3 243.4 240.4 238.5 239.3 236.3 225.7 217.3 211.8 206.4 200.2 193.8 188.2 183.2 176.7 170.8 164.1 156.2 146.5 138.7 129.4 121.2 118.8 124.2 122.9 124.2 119.5 104.1 86.4 76.8 71.5 70 68.8 68.4 67.6 66.8 65.4 65.5 65.5 65.5 65.5 65.5 65.5 65.5 65.5 65.5 65.5 68.7 72.8 82.4 96.6 108.2 117.7 128.1 139 148.2 156.9 167.9 172.8 177.5 177.8 180.4 179.2 176.2 176.7 176.5 175 172.7 174.1 180.4 183.1 182.7 184.4 190.2 195.2 191.2 185 188.2 194.8 199.8 202.7 206.4 212.7 224.3 230.6 233.4 233.8 233.8 229.7 222.9 210.6 204.7 193.4 170.4 145.2 124 104.9 82.2 63.2 46.9 38.1 38.1 38.1 38.1 38.1 38.1 38.1 38.1 38.1 38.1 38.1 38.1 38.1 38.1 38.1 42.9 44.7 41.3 38.1 38.1 38.1 38.1 38.1 38.1
72.8 62.7 54.7 50.1 48.5 46.8 46 46 45.1 45 44.6 44.6 44.7 44.7 43.3 43.4 43.2 43.2 43.2 43.2 43.2 43.2 43.2 43.2 43.2 44 46.9 49.1 54 58.5 63.3 65.9 69.2 76.4 85.6 93.2 104.7 117.5 130.3 139.7 153.2 166.1 179.1 187.3 190.8 197.2 203.2 206.5 211.6 219.9 227.5 236.4 247.2 257.5 266.5 271.1 272.3 275.4 273.4 268.9 265.9 263.7 260.9 258.3 256.5 252.5 242.7 236.6 235.7 238.7 240.1 241.9 240.8 240 240.4 240.6 245.7 244.5 238.4 237.3 235.1 231.3 223.4 215.7 210 204.3 199.7 194.9 188 181.3 175.9 169.6 162.8 155.5 149.1 140.2 132.6 124.5 117.1 115.9 114.8 123.6 123.5 104.3 86.3 79.1 73.2 70.5 69.5 68.6 68.4 67 65.6 65.5 65.5 65.5 65.5 65.5 65.5 65.5 65.5 65.5 65.5 66.4 71.1 78.4 90.9 103.3 114.5 125.5 135 145.5 153.4 159 167.3 170.7 171.7 176.2 176 172 172.1 169.2 168 167.5 168.9 173.5 177.6 176.7 187.6 195.5 191.1 186.8 183.9 184.5 187.8 192.8 195.4 201.1 208.3 215.9 219.3 225.7 227.8 227.2 222.8 214 198.6 187.8 175.6 156.7 140.9 123.6 102.6 80.6 61.6 47.4 38.1 38.1 38.1 38.1 38.1 38.1 38.1 38.1 38.1 38.1 38.1 38.1 38.1 38.1 39.9 42.6 38.1 38.1 38.1 38.1 38.1 38.1 38.1 38.1
69.9 61.6 55.3 51.1 49.4 47.4 46 46 45 44.8 44.7 44.4 44 43.2 43.2 43.2 43.2 43.2 43.2 43.2 43.2 43.2 43.2 43.2 43.2 45.3 47 52.4 56.8 59.3 63.2 66.3 71.1 80.4 88.2 96.3 108.3 121.5 133 142.5 157.9 171 181.7 186.6 189.5 196.8 203.3 205.8 209.7 219.9 228.8 234.6 248.6 258.1 264.6 269 271.4 272.6 269.1 266 264 262.6 258 252.6 248.8 246 240.7 234.6 235.5 239.3 242.2 242.9 241.8 240.6 239.9 247.5 247.8 245.2 237.3 233.9 230.5 227.3 219.5 213.4 208.1 203.5 198.7 192.4 185.6 184.1 177.8 171.7 164.8 160.3 152.6 143.8 136.3 126.8 117.9 114.1 114.7 120.7 120 101.3 86.1 78.6 73.7 71.6 70.4 69.3 68.2 67.1 65.9 65.5 65.5 65.5 65.5 65.5 65.5 65.5 65.5 65.5 65.5 65.7 70.9 76 87.1 99.2 111.2 123.3 135.1 146.8 157.9 161.3 162.6 165.2 174.7 177.5 174.4 169.4 167.9 166.7 166.7 166.7 166.7 167.8 171.7 182.4 192.7 191.3 186.1 184.2 183 184.5 186.5 188.3 189 196.3 201.5 209.1 218.6 223 220.7 216.9 210.5 202.4 192.5 182.3 169.9 154.6 140.9 124.1 103 81.5 62.5 48.6 38.3 38.1 38.1 38.1 38.1 38.1 38.1 38.1 38.1 38.1 38.1 38.1 38.1 39.3 41.3 38.1 38.1 38.1 38.1 38.1 38.1 38.1 38.1 38.1
68.9 61.4 55.7 51.3 49.5 48.1 47 45.9 45.4 45.1 44.3 44.3 44.1 43.2 43.2 43.2 43.2 43.2 43.2 43.2 43.2 43.2 43.2 43.2 44.3 45.9 49 54.6 56.8 59.9 64.7 70.4 76.1 82.5 89.7 98.7 112.8 126.7 138.2 145.5 159.8 174.2 182.1 185.3 187.2 195.3 203.6 207.6 213.3 221.8 228.9 236.3 250.6 258 264.2 269 270.5 267.4 265.8 264.3 262.7 259.3 253.3 247.2 242.1 238.2 234.2 230.7 232.9 237 240 240.9 241.8 241.5 241.9 247.1 246.5 240.9 235.1 229.4 226.1 223.8 216.6 211.2 207 202.1 195.3 192.8 190.9 186.2 180.3 174.2 167.7 158.9 152.4 145.9 139.1 129.9 120.6 114.1 111.6 113.7 113 98 85.2 80.6 73.7 73.8 71.2 69.3 68.2 67.1 66 65.5 65.5 65.5 65.5 65.5 65.5 65.5 65.5 65.5 65.5 65.5 70.2 74.9 84.8 96.1 108.2 120.9 134.1 147.7 157.3 163.1 167.5 169.4 171.5 177.3 172.6 168.1 166.7 166.7 166.7 166.7 166.7 166.7 173.3 181.3 183.9 184.4 183 182.2 183 184.7 186 187.5 188.5 190.4 193.5 204.5 215.5 213.4 204.9 200.5 195.7 191.2 187 179.5 169.6 156.7 142.7 126.6 104.3 83.2 63.5 49.5 39.1 38.1 38.1 38.1 38.1 38.1 38.1 38.1 38.1 38.1 38.1 38.1 38.9 40.3 40.1 38.1 38.1 38.1 38.1 38.1 38.1 38.1 38.1 38.1
69.5 62.5 55.7 52.5 50.9 49 48 46.5 46.2 45.2 43.7 43.2 43.2 43.2 43.2 43.2 43.2 43.2 43.2 43.2 43.2 43.2 43.2 43.2 44.9 47 50.8 54 58.7 60.9 68.4 71 78.2 83.8 91.8 102.5 117 131.5 142.9 149.3 161.1 174.5 183 183.6 190.8 201.1 202.8 210.4 218.2 227.4 236.9 249.6 255.1 260.2 263.8 269.6 273.6 267.3 261.8 260.3 258 252.5 245 240.5 237.3 233.8 230.1 227.2 229.9 234.6 237.7 240.3 242.3 240.5 245.1 249.1 242 237.3 231.3 224.8 221.6 219 214 210.4 206 200.9 196.7 194.8 190.3 186.4 180.3 176.6 169.6 162.6 153.7 146.9 139.7 132 121.5 112.2 106.7 105.2 103.8 97.5 94.2 84 77.5 74.5 72.7 70.2 68.6 67 65.7 65.5 65.5 65.5 65.5 65.5 65.5 65.5 65.5 65.5 65.5 65.5 67.8 72.1 81.6 92.8 104.6 119.4 133.1 146.4 157 164.4 167.1 170.9 176.7 174.5 174.5 168.1 166.9 169 167.6 166.7 166.7 168.9 169.8 174.4 173.8 178.4 179.6 180.9 183 184.5 184.7 186 186.9 184.6 185.9 195.6 201.2 201.3 197.5 193 189.5 186.7 183.6 178 173.2 161.9 146.8 130.3 108.3 87.9 66.2 50.3 41 38.1 38.1 38.1 38.1 38.1 38.1 38.1 38.1 39.8 42.5 42.6 42.2 42.1 40 38.1 38.1 38.1 38.1 38.1 38.1 38.1 38.1 38.1
67.2 60 55.7 52.1 51.7 51.5 48.8 46.9 45.4 44.8 44 43.2 43.2 43.2 43.2 43.2 43.2 43.2 43.2 43.2 43.2 43.2 43.2 43.2 46.6 47.7 50.9 53.9 58.1 63.5 67 71.2 79.2 86.4 96.5 107.4 121.8 135.3 145.7 152.4 167.6 173.4 183.2 186 192.9 195.7 204.1 215 222.9 233.4 246.8 253.3 259.5 264.2 267.2 272.6 277.1 266.3 258.7 254.9 252.2 246.7 242 238.5 234.3 230.3 226.8 225.5 229.8 233.3 239 241.4 242.9 235.7 243.7 245.9 240.6 234.5 227.8 221.3 218.5 215.5 212.4 215.1 211.5 201.9 198.9 194.6 190.5 187.6 184.1 179.4 170.7 163.6 155.6 149 142 132.6 120.1 109.9 103 98.9 100.9 111.6 103.3 92.6 80.8 78.8 76.9 73 69.4 67.5 65.5 65.5 65.5 65.5 65.5 65.5 65.5 65.5 65.5 65.5 65.5 65.5 67.2 70.6 78 89.3 100.4 117.3 133.7 150 156.5 158.1 162.6 173.1 177.3 184 179.8 174.9 171.7 171.1 168.6 166.7 169.1 159.4 162.2 165.3 167.3 173.9 175.4 177.8 180.9 183.1 183.7 185 183.2 182 184.2 189.8 193.3 195.2 192.8 189.4 188 186.9 185.5 180.8 175.2 164.4 150 136 114.6 93.4 71.1 55 44.6 38.1 38.1 38.1 38.1 38.5 38.1 38.1 40.1 43.6 44.4 42.9 43 42.7 39.4 38.1 38.1 38.1 38.1 38.1 38.1 38.1 38.1 39.5
61.2 61.9 59.6 57.3 53.3 49.4 48.5 46.4 45.7 44.6 43.6 43.2 43.2 43.2 43.2 43.2 43.2 43.2 43.2 43.2 43.2 43.2 43.2 43.4 47.3 48.9 51.5 56.2 58.5 61.9 66.7 73.3 81.9 90.4 103.3 115.6 128.1 138.8 147.4 154.2 164.3 178.1 182.8 191.3 197.1 200.7 211.4 219.5 227.5 236.8 245.1 254.2 263.1 267.3 270.8 277.3 275.7 261.4 256.9 253.5 248.4 244.8 240.7 236.8 231.9 227.4 224.1 224.3 228.6 233.4 239.3 240 238.4 232.4 240.6 239 236.2 232.2 225.3 219.7 216.4 212.4 212.1 216.9 213.3 204.8 199.4 196.3 194.9 193.7 185.8 179 170.4 164 157.6 152.2 144.7 133.6 121.5 110.4 105.5 100.5 100.3 116.5 116.1 102.7 90 82.6 76 73.2 70.2 68.4 65.1 65.5 65.5 65.5 65.5 65.5 65.5 65.5 65.5 65.5 65.5 65.5 65.6 68.9 73.6 85.2 96.1 113.9 132.7 146 148.8 153.3 159.3 170.6 180.2 188.7 188.1 177 169.8 171 172.4 166.2 159.3 154.2 154.9 157.9 161.2 167.6 168.1 171.5 175.3 179 181.7 182 182.2 183 187.6 190.3 191.8 193.6 194.1 194.3 193.1 190.7 189.9 186.5 178.1 166.8 154.4 141.5 121 98.3 76 58.7 47.7 39.4 38.1 38.1 38.1 38.1 38.1 38.1 38.1 42.8 43.2 43.3 43.5 41.7 38.1 38.1 38.1 38.1 38.1 38.1 38.1 39.9 43.7 42
67.7 66.3 67.6 60 52.9 50.5 48.1 46.7 44.9 44.7 43.2 43.2 43.2 43.2 43.2 43.2 43.2 43.2 43.2 43.2 43.2 43.2 43.2 43.2 46.2 49.6 52.9 55.5 60.5 64.1 70.5 74.1 84.2 95.4 108.9 122.5 136.1 144.8 152.2 157.4 164.5 179.5 185.9 190.9 203.9 210.4 218.9 222.8 229.8 238.7 244.6 254 263.9 269.1 273.5 278.2 272.8 262.5 258 254.8 251.4 245.8 240.8 235.8 230.8 225.9 219.5 219.9 224.4 231.2 236.4 238.8 228 227.9 234 231.5 232.4 230 224 219.9 215.4 210.6 212.1 216.3 215.7 207.8 201.6 198.8 197.2 198.1 187.9 179.7 172.1 166.9 163.2 161 150.7 137.9 128.7 118 108.7 104.6 102.8 114.8 121.7 110.7 95 83.5 76.7 72.2 69.5 68.9 64.9 65.5 65.5 65.5 65.5 65.5 65.5 65.5 65.5 65.5 65.5 65.5 65.5 67.6 72.5 82.2 90.7 106.7 124.6 135.3 144.8 152.4 155.5 172.7 185.9 188.2 185.6 174.5 166.9 166.6 167.4 159.5 154.5 151.7 148.7 152.8 155.7 160.8 165.1 169.1 172.3 175.5 178.9 182.2 184.4 186.5 190.3 198.1 200.5 200.7 198.8 197.7 196.8 197.5 197.4 190 180.9 169.7 156.5 142.4 122.2 99.4 78 59.8 49.3 40.4 38.1 39.9 38.1 38.1 38.1 38.1 38.1 40.6 42.1 43.1 44.2 38.1 38.1 38.1 38.1 38.1 38.1 38.1 39.4 44.4 44.7 45.2
72.8 68.2 63.3 56.4 53.6 50.9 48.3 47.2 44.4 43.2 43.2 43.2 43.2 43.2 43.2 43.2 43.2 43.2 43.2 43.2 43.2 43.2 43.2 43.2 44 50.1 54.4 57.5 60.5 66.2 71.4 77.8 87.5 99.9 113 126.6 139.1 151.5 159.3 166.8 169.8 180.4 190.8 194.6 205.6 213.7 221.2 228.6 237.5 239.3 245.6 253.4 263.2 268.5 274.3 276 271.6 265.6 261.2 256.9 253.5 248.6 242.5 236.2 230.2 224.5 219.1 214.1 218.7 224.9 227.4 229.8 219.3 225 227.4 225.3 226.6 226.1 224.1 222.3 217.5 209.9 211 214.3 214.5 210 203.6 198.8 201.1 202.5 192 181.1 175.6 170 168.8 171.9 159.1 149.7 141 128.6 117.6 112.4 105.5 112.1 121.8 118.7 102.1 91.5 81.6 72.5 69.8 68.6 65.7 65.5 65.5 65.5 65.5 65.5 65.5 65.5 65.5 65.5 65.5 65.5 65.5 66.4 70.4 78.7 86.8 100.1 116.3 129.8 138.8 145.1 157.3 172.1 179 182.3 181.7 174.9 171.1 160.4 160.6 156.6 150.3 146.8 145.8 149.1 151.6 156.6 162.9 168 171.4 173.9 177.4 182.6 188.2 191.1 193.6 203.2 213.1 209.4 205.2 201.7 199.1 202.3 202.6 191.8 180.8 168.7 155.7 142.4 123 99.3 79.2 59.7 48.7 39.3 38.1 38.1 38.1 38.1 38.1 38.1 38.1 41.4 43.1 43.6 39 38.1 38.1 38.1 38.1 38.1 38.1 40 43.9 45.5 49.4 50.7
71.3 66.3 61.4 56.3 53.9 52.3 49 47.6 44.8 43.2 43.2 43.2 43.2 43.2 43.2 43.2 43.2 43.2 43.2 43.2 43.2 43.2 43.2 43.2 43.2 49.7 53.4 57.9 63.3 69.3 76.8 81.1 90.7 103.2 116.7 130 139.5 154.8 160.6 169.9 179.1 187.2 193.8 199.9 208.8 218.3 228.1 235.1 241.9 242 245.4 252.6 262.8 267.3 273.5 277.5 274.3 271 264.2 259.5 255.6 251 244.9 237.5 229.2 223.5 216.9 212.4 215.7 221.3 220.3 217.3 213.5 221.4 221.2 217.7 218.4 218.2 222.4 217.2 211 206.1 206.6 209.2 210.4 208 203.5 199.2 206.9 204.5 197 188.4 177.2 170.4 176.4 176.1 164.4 157.1 150.4 138.4 126.3 118.3 110.5 107.5 117.2 121.7 111.4 100.7 89.6 77.2 70.6 70.2 68.1 65.5 65.5 65.5 69.2 76.3 72 65.5 65.5 65.5 65.5 65.5 65.5 65.5 68.3 75.8 84.4 94.9 111.3 125.5 134.3 143 152.6 163.9 169.7 176.7 179.7 177.3 173.9 159.4 153.1 153.2 150.7 146.2 143.6 144.5 149.4 154.7 160.5 166.4 172 175.8 179.1 184.1 190.5 194.1 196.8 205.9 213.3 218.6 218.2 211.4 207 203.8 199.6 188.4 177.4 165.9 153 138.2 122.1 101.1 80.5 60.4 49 41.8 38.1 38.1 38.1 38.1 38.1 38.4 41.2 44.2 45 42.3 38.1 38.1 38.1 38.1 38.1 38.1 38.9 42.2 44.5 51.3 53.1 48.6
70.9 66.4 61.3 59.7 54.5 51 49.8 47.7 47.3 43.2 43.2 43.2 43.2 43.2 43.2 43.2 43.2 43.2 43.2 43.2 43.2 43.2 43.2 43.2 43.2 49.2 52.4 56.9 62.7 70.8 77.1 83 94.4 106.8 119.6 130.5 144 159.2 163.1 174.1 180.8 190.7 198.4 204.5 213.9 223.5 231.8 239 243.2 245 247.8 254.6 261.4 266.4 273.1 277.9 274.4 270.8 260.3 260.2 256.7 251.8 245.7 238.8 228.3 221.6 216.8 211.6 216.2 219.3 215.5 210.5 211.4 216.1 215 214.5 213.7 214 212.4 208 203.4 202.2 203.8 205.3 207.3 205.3 201.5 201.7 209.5 205.3 199.4 185.4 177 175.3 181.7 174.4 158.8 155.5 150.4 143.7 137.7 128.3 118.6 110 110.5 122.9 122.2 110.8 98.8 82.7 75.9 75.6 72.3 66.9 65.5 65.5 71.5 78.1 76.7 64.8 65.5 65.5 65.5 65.5 65.5 65.5 67.1 74.5 81 91.1 105.4 117.9 126.8 139.5 145.6 157.2 165.1 174.1 177.2 177.8 173.9 162.4 150.2 150.9 150.3 144.4 141.7 142.6 148.4 154.7 159 165.4 172.9 177.7 181.2 185 190.2 193.5 196.5 203.6 212.6 222.6 226.3 212 203 197.3 193.8 188.7 175.6 163.7 150.1 134.6 118.3 99.8 79.8 60.8 49.7 43.6 39.5 38.1 38.1 38.1 38.1 38.1 43.2 45.7 44.8 38.1 38.1 38.1 38.1 38.1 38.1 38.1 42.1 44 46.3 46.3 47 47.2
73.8 67.4 61.7 58.9 56.8 53.7 49.7 47.9 46.8 43.6 43.2 43.2 43.2 43.2 43.2 43.2 43.2 43.2 43.2 43.2 43.2 43.2 43.2 43.2 43.6 49.5 52.9 56.4 64.4 73.1 77.6 86.9 98.2 111.5 124 134.5 145.6 156.3 170.2 177.6 185 193.6 200.9 212.3 216.6 223.4 232.5 239.5 243.2 249.1 251.6 255.9 261.1 265.7 271.6 273.8 271 264 262.4 260.2 255.5 251.4 246.1 240.4 231.2 220.4 216.6 209.2 204 211.2 207.8 203.4 205.3 209.6 210.3 209.8 208 207.2 203.4 202.4 202 201 201.8 203.3 204 205.4 202.3 203 207.5 202.9 196.2 183.8 180 176.8 180.1 171.3 158.4 157.5 151.6 148.6 148.6 137.9 129 115.3 111.1 119.6 126.7 120 106.4 91.2 83.6 82.3 78.9 70.3 65.7 65.5 70.9 76.1 74.6 66.3 65.5 65.5 65.5 65.5 65.5 65.5 65.9 72.8 78 85.7 98.4 109.6 118.7 128.2 140.6 155 163.5 172.9 175.8 177.4 173.8 165.6 152.5 143 145.1 140.8 138.1 137.3 144.6 152.4 157.4 163.8 172.1 178.9 181.1 184.1 187.7 190.3 192.6 200.4 209.6 220 227.6 212.5 197.1 192 187.9 183.7 171.9 161.5 149.1 132.9 116.4 98.6 79 60.3 50 46.4 40.5 38.1 38.1 38.1 38.1 38.1 40.9 44.8 42.4 38.1 38.1 38.1 38.1 40.8 41 42.1 45 45.1 45.2 45.3 47.2 48.1
72.6 65.4 62.2 59.2 56.2 51.9 50.1 48.8 48.1 44.3 43.2 43.2 43.2 43.2 43.2 43.2 43.2 43.2 43.2 43.2 43.2 43.2 43.2 43.2 44.6 50.3 53.9 57.2 64.6 71.1 81.4 91.1 103.5 117.5 130.5 140.3 150.6 164.6 173.8 182.9 191.2 200.5 208.6 216.2 223 225.6 230.7 239.2 245.5 252.2 256.5 259 260.9 265.4 270.5 272.3 268.9 266.9 264.2 260.5 255.7 251.2 247.2 242.2 236.1 223.4 213.8 207.8 200.4 195.1 196.7 194.9 197.8 202.4 204.7 202.9 201.4 198.7 199.3 199.7 200.3 198.5 201.3 204.5 205.2 207.4 203 201.9 200.3 198.5 190.2 184.4 178.4 175.7 175.2 167.7 165.6 166.6 163.3 160.3 158.2 148.8 138.7 122.7 113.7 116.9 119.4 117 105.7 99.2 96 91.7 89.1 77.6 67.5 66.3 67.8 70.7 69.5 65.5 65.5 65.5 65.5 65.5 65.5 65.5 65.4 70.6 72.7 80.2 92.9 105.5 115.2 124.9 139.8 151.9 160.7 170.1 174.8 177.9 172.2 164.1 153.3 145 138.2 136.5 132.3 132.8 140.1 147.9 155.5 161.9 168.6 175.8 179.4 181.6 182.7 185.7 189.5 197.1 206.7 210.6 216.4 207.3 192.4 185.7 181.7 178 169 159.2 147.2 132 114.4 96.2 76.9 59.2 49.2 43.7 38.1 38.1 38.1 38.1 38.1 38.1 39.6 43.6 38.1 38.1 38.1 38.1 38.1 38.1 42.8 44.9 45.2 44.9 45 45.6 46.2 46.8
69.7 68.2 65 60.2 57.9 55.8 52.9 50.1 48.2 46.4 43.2 43.2 43.2 43.2 43.2 43.2 43.2 43.2 43.2 43.2 43.2 43.2 43.2 43.2 45.2 49.3 52.8 61.2 67.2 74.4 84.5 95.6 108.5 123.9 137.1 148.7 159.8 170.4 181.3 188.5 195.8 205.5 215.1 223 229.6 229.2 232.2 238.8 247 252.9 256.9 261.9 263.3 266.8 269.8 272.4 268.8 265.7 262.9 259 255.1 251.1 248.2 243.2 235.7 222.7 212.2 207 201.2 191.7 189 189.3 191.2 196.8 198.7 195.4 193.1 193.1 195.2 195.4 195.7 199.4 204.5 206 207.6 209.9 201.7 198.8 196 192.1 188 185 179.7 172.9 169.6 166.5 164.8 166.1 163.4 161 161.4 156 148.4 132.9 119.2 123.6 120.9 117.3 113.4 102.5 100.5 100.6 95 82.1 69.4 66.6 66.1 66.8 66.3 65.5 65.5 65.5 65.5 65.5 65.5 65.5 65.5 67.2 72.7 77.9 87.5 102.2 116.5 121.2 132.1 144.4 158.8 167.9 173.2 175.9 168.1 160.6 152.5 146.6 140.3 132.1 128.8 129 136.1 144.4 151.9 158 164.7 171.6 176.2 178.6 178.4 180.3 184.3 190.6 197.6 199.8 202.9 202.9 193 182.8 176.2 172.7 163.6 155.8 146.7 130.5 112.1 92.2 72.8 56 48.1 42.7 38.1 38.1 38.1 38.1 38.1 38.1 43.7 38.1 38.1 38.1 38.1 38.1 38.1 38.1 38.3 44.2 45.9 45.7 45.7 46.2 47 47.7
69.5 68.3 64.7 61.6 61.2 57.1 53.5 49.9 47.2 46.6 44.6 43.2 43.2 43.2 43.2 43.2 43.2 43.2 43.2 43.2 43.2 43.2 43.2 43.2 45.5 48.9 52.6 60.7 69.5 77.3 86 99.3 113.6 128.9 141.3 153 164.6 177.5 187 191.2 198.4 208.8 218.1 227 232.4 232.2 235.2 239.7 247.6 253.2 259 264.5 265.7 265.9 269.3 268.2 265.8 263.7 260.5 256.8 253.5 252.6 249.7 241.1 232.8 221.6 213 208.1 198.6 192.6 184.8 182.9 185.3 189.3 189.8 188.1 186.7 187.9 190.1 192 196.6 200.4 205.3 208.7 210.5 209.9 202.4 199.9 196.4 192.5 188.4 184.6 177.4 176 169.9 165.1 163.4 162.9 164.1 167.8 169 163.9 155.7 142 127.4 130.8 129.8 121.2 120.5 110.2 96.7 102.1 97.7 82.9 70.8 67 65.5 65.5 65.5 65.5 65.5 65.5 65.5 65.5 65.5 65.5 65.5 65.2 71.8 76.9 83.1 97.5 108.7 115.9 127.4 141.5 152 163.9 168.3 169.8 167.6 160.7 152.6 149 147.3 132.9 128.1 126.4 134.6 140.7 146.4 153.1 160 167.2 172.7 175.9 176.6 176.6 180.8 185.2 193.9 194.3 193.6 194.4 187.4 180.2 173.5 167.7 161.5 150.9 143.8 129.7 108.7 87.3 68.1 53.2 48.6 45.1 38.1 38.1 38.1 38.1 38.1 38.1 38.1 38.1 38.1 38.1 38.1 38.1 38.1 38.1 38.1 43.8 45 45.8 46.8 46.4 46.1 47
70.3 68.2 65.4 62.2 59.9 57.1 52.7 49.7 46.8 45.8 45.6 45.9 44.4 43.2 43.2 43.2 43.2 43.2 43.2 43.2 43.2 43.2 43.2 43.2 46.6 50.2 55 63.7 72.7 82 92.4 104.5 118.4 132.9 145.4 157.3 171.4 182.5 189.6 197.8 205.1 211.3 219.8 228.9 233.7 235.7 237 240.1 248.6 254.8 260.5 263.6 265.9 266.2 267.1 267.1 264.7 261.9 259 256.3 253.3 251.1 247.1 237.3 229.9 223.7 215.3 206.3 201 192.9 184.4 177.8 182 182.7 182 182.2 184.2 184.2 187.1 193.8 198.7 203.7 209.2 213.6 215.2 213.1 207.7 201.9 199 197.5 191.7 187.2 181.4 175.9 172.3 165.2 162.6 166.2 172.7 176.6 177.2 172.3 160.8 148.7 134.5 140.6 141.1 126.1 118 110.6 95.8 87 87.2 78.3 72.8 67.4 65.5 65.5 65.5 65.5 65.5 65.5 65.5 65.5 65.5 65.5 65.5 65.8 67.5 72.5 77 92.5 99.6 115.2 123.9 138.8 148.9 159.2 165.6 169.3 170 161.9 151.8 148.3 147.5 134.8 129.4 123.9 128.2 137.2 142.4 147.1 153.7 162.4 171.1 174.9 172.5 173.2 178.7 180.8 184.3 187.1 186.4 187.5 183.7 179.1 173.1 165.5 160.3 152.1 144.9 130 106.2 82.5 64.7 51 46.7 44.1 38.1 38.1 38.1 38.1 42.3 38.1 38.1 38.1 38.1 38.1 38.1 38.1 38.1 38.1 38.1 41.8 44.7 44.9 46.3 46.5 47.6 44
70.3 66.9 64.4 62.2 59.4 56.9 51.6 48.3 47.1 46 46.5 44.2 43.2 43.2 43.2 43.2 43.2 43.2 43.2 43.2 43.2 43.2 43.2 43.2 47.1 53.9 58.4 66.9 77 88.4 100.4 112.5 125.4 138.6 152.4 165.4 180.8 188.7 196.5 202.4 208.5 215 221.2 230.5 233.8 235.9 238.6 242 247.8 253.4 259.4 262 266.3 265.9 265.1 263.2 262.4 261 259.1 256 250.6 246.2 239.6 234.1 228.4 221.9 213.9 207.9 203 195.3 185.6 173.8 172.4 175.3 176.3 178.8 179.5 181 187.5 195 200.8 206.4 213.4 217.6 218.7 216.6 212.8 211.1 207.9 202.4 196.7 192 185.9 180.1 172.5 164.4 165.2 173.2 180 184 181.3 174.1 163.4 153.2 144.5 148.2 143.5 131.7 121.4 113.1 98.6 86.4 80.6 75.1 72 68 65.5 65.5 65.5 65.5 65.5 65.5 65.5 65.5 65.5 65.5 65.5 65.9 66.6 70.9 76.3 87.2 95.9 110.3 121 133.3 143.5 157.2 166.1 168.6 166.5 159.1 151.2 148.6 145.7 136.2 130.4 123.2 126.6 132.2 136.2 140.7 147.4 160 169.5 173.4 168.7 171.1 173 177.3 181.6 183.1 183.9 180.7 176.4 174.9 172.8 168.7 163.1 155.9 146.7 130.8 108.7 83.8 66.3 51.5 46 41.9 38.1 38.1 38.1 42.5 38.1 38.1 38.1 38.1 38.1 38.1 38.1 38.1 38.1 38.1 38.1 38.1 44.2 45.9 45.7 46.7 45.3 44.2
73.6 67.3 63.8 62.3 59.6 56.1 50.4 48.1 46.8 46.7 44.5 43.2 43.2 43.2 43.2 43.2 43.2 43.2 43.2 43.2 43.2 43.2 43.2 43.2 48 52.6 60.8 72.3 84.5 96.5 109.4 121.3 134.3 149.4 164.8 173.1 187.3 196.8 204.5 207.3 214.2 217.8 223.3 230.6 234.9 238.8 240.9 243.2 248 252.8 259.6 262.9 265.6 267.1 265.2 262.1 260.4 259.3 258 254.4 245.6 241 238.3 235.6 225.4 216.5 210.3 205.8 203.3 196.5 184.5 169.7 167.3 169.5 170.8 173.5 176.4 182.8 187.5 194 201 208.9 218.2 222.5 221.3 220.7 220.5 223.3 220 210.2 201.6 195.3 189.1 181.7 170 164.6 171.3 180.6 186.6 187.1 184.2 175.1 163.9 157.9 149.3 145.2 141 134.6 128.4 118.4 98.3 86.8 83.4 77 71.5 68.8 66.3 65.5 65.5 65.5 65.5 65.5 65.5 65.5 65.5 65.5 65.5 65.5 66.3 70.5 76.9 84.7 93.3 107.4 116.3 120.9 134.3 150.5 154.9 159.2 159.8 154.8 152.8 150 145.3 134.7 128 122.7 125 125.8 130.1 134.9 144.8 155.7 164.6 169.1 163.6 167.1 171.5 177.4 181.7 178.3 176.7 177.9 173 173.4 172.4 168.2 166.3 161.3 153 136.8 113.3 88.5 68.2 53.2 46.8 45.9 38.5 38.1 38.1 38.1 38.1 38.1 38.1 38.1 38.1 38.1 38.1 38.1 38.1 38.1 38.1 38.1 38.1 43.8 45.3 45.5 44.3 44.6
72.7 68 64.9 62.2 59.3 55.1 50.4 48.3 46.4 45.1 45.9 43.2 43.2 43.2 43.2 43.2 43.2 43.2 43.2 43.2 43.2 43.2 43.2 43.2 50.1 54.2 65.4 78.8 93.1 105.5 117.4 129 142.4 156.4 168.2 179 192.6 200.6 206.8 210.1 218 221.5 226.5 233.3 241.1 246.1 243.6 243.6 248.7 254 259.1 261.2 265 267.6 266.4 263.8 261.8 259.2 255.4 249.6 241 239.6 239.1 231.2 218.9 212 208.4 204.5 203.1 196.8 183 167.3 158.7 162.3 164.8 170.8 176.3 181 185.2 194.5 202.9 213 222.7 225.9 225.6 227.9 230.9 230.9 227.2 219.2 205.7 195.3 187.5 179 169 169.4 179.5 185.5 188.5 189.2 186.5 176.4 165.9 159.6 148.8 144.6 140 135 129.9 118.2 99.6 86.6 79.1 75.8 72.4 70.1 67.2 64.9 65.5 65.5 65.5 65.5 65.5 65.5 65.5 65.5 65.1 65.4 65.5 70.3 75.9 83.5 90.3 96 103 113.7 122.6 135.8 141.6 147.1 154.4 154.3 155.5 152.5 144.5 131.7 121.2 117.6 116.5 120 125 132.4 141.1 150.2 158 160.7 161.4 167.2 172.2 173.6 174.4 176.5 180.1 178.8 174.3 169.8 169.6 168.6 168.6 160.5 149.8 137.1 119.9 94 71.8 54 46.6 45.4 42 38.1 38.1 38.1 38.1 38.1 38.1 38.1 38.1 38.1 38.1 38.1 38.1 38.1 38.1 38.1 38.1 38.4 43.7 44.9 44.4 46.6
72.8 69.1 65.8 62.4 59.3 55.3 51.1 48.3 46.6 45.9 44.2 43.2 43.2 43.2 43.2 43.2 43.2 43.2 43.2 43.2 43.2 43.2 43.2 43.2 50.3 56.6 68.9 84.1 98.3 111.7 123.5 135.5 147.6 160.6 173.1 187.7 197.9 206.4 216.1 220.9 223.8 226.3 227.7 234.2 240.7 246.6 241.4 242.7 247.6 258 260.3 264.3 266.5 267.1 267.2 263.5 261.3 256.2 252.1 250.1 244.6 238.9 234.4 226.5 212 209.4 204.2 199.9 202.1 192.8 180.3 164.3 156.6 159 162 166.8 171.4 179.3 190.8 198.4 207.5 217.4 224.6 228.5 232.6 238.9 239.5 234.3 229.9 221.7 207.7 193.3 186.3 178.7 168.5 174.4 184.3 185.9 187.6 190.2 186.5 176.8 166.4 160.3 148.6 144.2 138.9 132.7 126.8 117.2 103.6 96.8 86.2 77.3 74 69.8 67 65.7 65.5 65.5 65.5 65.5 65.5 65.5 65.5 65.5 65.7 65.9 66.6 71 75.8 82.5 87.4 93 99 112.3 116.4 127.8 133.2 143.3 150.2 150.5 153.6 151.6 141.6 130.4 119.3 112.6 111.5 117.2 120.6 126.7 137.4 147 152 155.7 158.2 161.8 170.3 175 175.5 179.9 181.3 185.1 177.7 169.2 167.7 165.7 165.5 161.1 151.8 142.8 126.5 101.7 78.7 54.9 44.1 44 43.1 38.1 38.1 38.1 38.1 38.1 38.1 38.1 38.1 38.1 38.1 38.1 38.1 38.1 38.1 38.1 38.1 38.1 38.2 43.3 43 47.2
73.9 70.4 65.8 62.3 59 55.2 50.4 46.8 46.2 46.5 43.2 43.2 43.2 43.2 43.2 43.2 43.2 43.2 43.2 43.2 43.2 43.2 43.2 46.4 51.8 59.5 73.3 90.2 106 118.7 130.8 143.5 152.5 165.3 180.5 191.9 200.5 209.6 218.8 222.2 224 226.5 226.8 232.8 240.7 243.8 239.3 243.7 249.9 256.1 259 266.2 268 267.8 267.7 262.4 258.9 254.5 255.1 253.4 244.8 235.1 230.2 222.3 209.5 203.4 193 190.1 192.8 187 174.9 162 155.4 160.2 162 163.8 176.6 182.7 192 199.6 208.6 218.1 224.5 232.6 244.7 249.1 241.2 235.7 231 221.7 205.5 191.2 185.3 176.8 173.5 179.4 182.2 182.8 186 187.6 184.1 173.4 165.4 159.4 147.4 139.9 135.9 128.8 124.2 116 106.5 98.5 88.8 77.9 79.3 71.8 66.8 66.4 64.6 65.5 65.5 65.5 65.5 65.5 65.5 65.5 65.5 64.6 66.8 72.4 77.2 80.7 85.8 93.6 96.2 105.9 112.7 123.9 128.3 136.1 141.8 143.9 147 144.1 136.7 127.7 119.5 111.7 109.8 113.5 114.9 122.8 133.6 143.6 149.3 152.5 156.5 160.7 165.5 169.6 176.1 183.7 180.2 177 170.4 166.7 165 166.6 167.4 166.7 157.1 150.5 134.6 110.6 84 54.9 43 41.1 38.1 38.1 38.1 38.1 38.1 38.1 38.1 38.1 38.1 38.1 38.1 38.1 38.1 38.1 38.1 38.1 38.1 38.1 40.5 41.4 42.7 45.9
74.4 70.1 64.7 60.7 56.8 52.8 49 47.6 45.7 44.7 43.2 43.2 43.2 43.2 43.2 43.2 43.2 43.2 43.2 43.2 43.2 43.2 43.2 49 54.5 64.5 79.5 100.1 119 132.4 141.8 151.9 163.6 174.4 185.1 193.6 203.4 213.1 216.9 220.5 221.5 225.6 226 231.1 237.8 241.4 241.9 244.4 251.8 255.8 259.4 264.6 265.8 267.1 264.8 260.6 259.6 257.5 256.4 252.4 243.5 232.1 224.4 216.6 204.4 196.8 189.5 180.8 182 178.6 166.8 156.5 153.3 157 160.5 162.9 173 181.1 191.4 198.7 207.8 218.3 227.7 240.4 249.7 250.9 244.6 238.1 231.4 218.6 203.7 191.4 184.7 176.3 180.1 182.7 183.8 183.3 183.4 183.5 179.3 169.9 163.6 158.9 152.5 143.5 135.1 130.7 124.6 117.7 108.3 99 91.6 82.3 75.8 72.2 69.6 67.7 66.6 64.6 65.5 65.5 65.5 65.5 65.5 65.5 65.5 65.5 65.8 72.9 77.6 83.9 83.4 89.4 95.5 104.5 106.5 114.5 122.2 127.9 133.6 133.2 134 136.6 127.5 122.5 118.7 111.2 109.9 107.6 111.2 117.2 128.1 137.5 145.4 148.7 151.3 158.4 162.1 168.4 172.9 173.7 172.3 169 167.6 167.2 170.4 172.3 170.7 168.2 167.4 158 141.2 115.9 86.7 55.6 40.7 38.1 38.1 38.1 38.1 38.1 38.1 38.1 38.1 38.1 38.1 38.1 38.1 38.1 38.1 38.1 38.1 38.1 38.1 41.4 41.5 41.5 41.7 42
72.7 68.2 62.9 58 54.2 50.7 48.3 47.6 46.1 43.3 43.2 43.2 43.2 43.2 43.2 43.2 43.2 43.2 43.2 43.2 43.2 43.2 43.2 49.2 55.2 68.7 86.8 109.1 131.2 139.4 146.2 162.3 172 184.1 191.4 200.3 205.2 211.6 215.4 220.3 220.8 221.4 223.4 230.1 235.7 238.9 239.5 243.4 251.5 255.7 260.5 263.9 264.8 264.7 261.6 262.1 261.7 258.1 253.3 248.9 239.9 228.9 222.3 208.4 198.4 190.7 183.6 175.7 168.4 168.3 158.8 151.2 151.4 154.8 158.2 161.5 172.2 180.9 189.4 196.6 208.9 219.9 230.9 243.2 247.3 247 244.1 237.8 228.9 215.5 202.2 190.7 183.2 180.3 182.7 186.5 190 188.9 178.7 175.7 173.4 165 161.4 159.5 160.8 156.3 147.4 140.2 131.7 122.4 109.5 98.5 92.3 84.7 74.6 72.6 69.9 68.5 67.1 65.8 65.5 65.5 65.5 65.5 65.5 65.5 65.5 65.5 67.8 74.3 79.1 81.8 81.5 85.5 92.8 98.7 99.5 107.3 112 119.5 125.4 124.3 124.6 128.8 124.3 120.3 117.5 107.5 108.8 109.9 107.7 112.3 120.4 129.4 136.8 141.8 144 153.3 157.3 162.2 162.8 170.1 175 174 169.6 167.5 165.5 166.6 172.4 176.3 174.4 167.1 146.2 121.5 92.8 62.8 40.9 38.1 38.1 38.1 38.1 38.1 38.1 38.1 38.1 38.1 38.1 38.1 38.1 38.1 38.1 38.1 38.1 38.3 44.3 46.1 43.9 41.8 41.1 40.8
68.9 64.9 59.1 55.3 52.3 48.8 47.5 46.4 44.3 43.2 43.2 43.2 43.2 43.2 43.2 43.2 43.2 43.2 43.2 43.2 43.2 43.2 43.2 50 58 73.3 92.6 114.7 130.1 139.6 149.9 165.4 179.6 190.7 198.7 203.7 207.5 214.7 221.5 220.7 220.6 220 221.3 227.6 234.2 238.9 238.7 243.8 249.8 255.6 260.2 262.7 262.9 260.9 260.3 262.1 260.2 256.2 250 242.8 233.6 225.1 213.3 201.5 191.3 184.3 178.1 170.2 162.4 161.7 147.5 147.3 150.3 151 154.7 160.1 171.7 179.6 187.8 200.1 211.7 222.6 233.5 243.1 243.7 242.9 239.7 233.5 225.9 212.2 200.1 189.1 184 182.5 186.1 191 194.4 189.2 175.6 165 162.1 156.1 156.9 158.6 165 163.7 159.8 150.8 138.3 126.5 114.3 100.7 91.8 83.4 75.7 72.9 70.5 68.9 67.6 66.5 65.5 65.5 65.5 65.5 65.5 65.5 65.5 65.5 69.9 75.1 79.4 80.2 79.9 84.1 85.7 92.6 97.9 100.9 104.2 110.8 116.1 121.4 120.5 121.1 122.6 116.4 109.9 105.4 102.7 105.2 105 107.3 113 120 127.5 133.8 141.3 147.4 151.5 156.5 161.6 169 171.7 168.7 164.7 158.9 158.6 167.8 176.9 177.8 174.5 166.5 150.8 129.6 100.4 72.1 47.9 38.1 38.1 38.1 38.1 38.1 38.1 38.1 38.1 38.1 38.1 38.1 38.1 38.1 38.1 38.1 39.2 40.9 43.6 47.5 44.2 38.1 38.1 38.1
65.8 61.2 56.5 54.5 51.3 48.6 47.9 46.1 43.2 43.2 43.2 43.2 43.2 43.2 43.2 43.2 43.2 43.2 43.2 43.2 43.2 43.2 43.2 52.3 62.8 77.5 98.5 119 132.2 143 155.1 169.9 184.9 195.5 202 205.1 208.7 221.5 227.7 223.2 217.3 217.8 222.8 225.1 229.7 234.2 238.8 244.3 250.1 256 259.7 261.8 263.2 262.3 260.8 260.2 256.5 251.6 245.6 236.6 225 214.1 206.8 199.6 189.4 181.4 172.1 163.9 156.1 152.6 142.6 144.3 146.8 148.9 152.6 159.1 169.5 180 191.2 203 213.9 224.7 235.1 240.3 241.1 239.7 236.8 231.7 223.5 210.4 199.1 189.2 184.7 185.7 187.7 189.1 189.3 183.1 169.9 157.5 148.5 145.1 146.4 151.7 160.7 162.1 161 160.9 143.6 132.5 116.3 102.9 92 84.8 78.9 73.5 71.4 69.8 68.1 66.1 65.5 65.5 65.5 65.5 65.5 65.5 65.5 65.5 71.3 76.6 77.3 77.9 77.4 79 83.1 88.9 97.2 98.3 102.9 107.5 110.8 116.8 115.2 115 115 111.5 106.4 104.6 99.1 99.5 99.7 101.7 104.1 110.9 118 127.8 136.1 140.8 149.2 156.5 166.1 169.8 168.8 163.6 160.3 155.9 161.7 167.9 170.4 175.7 180.4 174.9 159.8 139.1 110.8 80.3 52.2 38.1 38.1 38.1 38.1 38.1 38.1 38.1 38.1 38.1 38.1 38.1 38.1 38.1 38.1 38.7 38.1 38.1 38.1 40.6 41.3 38.1 38.1 38.1
64.8 60.5 55.5 52.7 49.2 48 47.8 46.6 43.2 43.2 43.2 43.2 43.2 43.2 43.2 43.2 43.2 43.2 43.2 43.2 43.2 43.2 43.4 54.1 66.5 82.3 104.7 123 134.2 143.5 156.9 171.1 182.9 190.3 197.3 207.5 207.2 219.9 219.5 220.5 215.5 216.6 219.7 222.2 227.6 232.1 238.9 245 252 259 262.6 266.8 268.1 264.4 260.1 257.1 252.7 247.3 239.7 229.3 218.9 214.9 204.2 198.1 189.9 179.7 167.9 158.2 146.9 141.6 142 144.2 147 150 152.5 159.5 170.1 182.5 194.9 205.3 214.6 225.6 235.9 240.2 241.9 240.1 235.3 229 218.3 207.8 203.1 190.1 185.2 186.7 187.3 186.9 183.8 175.7 163.1 152.2 146.1 146.5 147.3 144.2 149.6 151.9 154.2 162 154.8 136.8 122.6 105.8 91.7 86 78 75.3 72 70 67.9 66.1 65.5 65.5 65.5 65.5 66 65.5 65.5 65.5 70 74.5 75.2 73.8 74.8 76.9 83.2 89.3 94.9 96.4 100.9 101.5 103.2 104 106.4 108.6 108.1 105.8 99.9 97.1 97.1 97.2 97.4 98.4 101.8 105.1 113.2 123.7 131.9 143.9 150.5 160.8 164.2 167.8 169.9 168 163.3 155.7 154.4 159.4 173.7 179.8 180.7 180.4 170.1 148.7 123.2 90.8 58.6 38.1 38.1 38.1 38.1 38.1 38.1 38.1 38.1 38.1 38.1 38.1 38.1 38.1 38.1 38.1 38.1 38.1 38.1 38.1 39.3 38.2 38.1 38.1
62.2 58.1 54.2 51.4 48.5 47.6 47.4 43.2 43.2 43.2 43.2 43.2 43.2 43.2 43.2 43.2 43.2 43.2 43.2 43.2 43.2 43.2 47.9 59.4 71.8 87.1 107.1 125.5 136.8 146.1 161.1 174.1 183.7 193 199.9 205.5 208.1 212.5 212.5 208.4 213.4 221.6 220.4 224.8 227.1 232.5 240.3 246.8 252.9 259.5 264.5 268.9 268.7 265 259.6 254.8 249.2 242.4 234 224.6 218.2 208.2 206.1 195 184.9 172.5 161.6 152.9 142.3 136.5 143.8 139.7 146.1 150.8 153.1 161.2 171.1 184.4 196.2 204.3 214.2 225.4 233.2 238.1 240.2 237.8 230.4 219.9 211.9 211 205.5 192.5 185.1 184.1 184.4 183.3 179.2 170 158.7 152.1 153.4 156.7 159.4 154 142.6 142 148.2 157.7 157.5 146.6 127.5 109.8 93.3 84.9 81.5 76.9 73.4 71.1 68.3 65.9 65.5 65.5 65.5 65.5 70 68.9 65.5 66.1 70 73.5 73 72.8 73.8 77.6 81.9 87.8 92 90.4 94.5 98.2 99.5 100 100 100.3 100.4 98.6 97.6 95.5 95.9 95.9 96.1 97.4 100.4 102.3 109.3 118.5 129.1 141 147.8 157 165.8 172.6 173 170.6 163.2 153.7 147.9 156.4 166.1 174.2 172.5 177.1 172.9 158.3 129.1 99.6 66.4 38.1 38.1 38.1 41.6 42 38.1 38.1 38.1 38.1 38.1 38.1 38.1 38.1 38.1 38.1 38.1 38.1 38.1 38.1 38.1 40.2 38.1 38.1
59.4 55.3 52.1 50 48.7 46.8 45.7 43.2 43.2 43.2 43.2 43.2 43.2 43.2 43.2 43.2 43.2 43.2 43.2 43.2 43.2 43.2 53 64.8 76.1 88.3 106.3 125.6 137.7 147.7 161.8 179.6 192.4 192.8 200 200 204.2 206.1 208.6 210.5 214.8 220.5 220.6 222.2 227.6 234.2 242.5 248.9 254.2 258.8 262.7 265.7 265.8 260.6 256.3 250.5 245.1 239.1 230.9 222.8 212.3 204.6 200.8 190.1 177.7 166.4 155.6 146.6 137.3 133.8 135.7 139.1 142.7 149.5 155 162.6 170.7 185.1 195.7 203.5 213 223.4 230 234.7 234.9 229 219 214.2 215.4 213.5 206.5 193.4 183.4 181 180.2 178.4 173.2 165.1 162.2 163.2 165.1 167.6 168.9 162.7 151.1 140.5 147.5 151.7 152.1 147.9 134.2 111.8 97.1 92.1 88.1 84.3 77.5 73.2 68.5 65.5 65.5 65.5 65.5 65.5 68.9 70.5 65.8 69.5 69.7 71.3 72.1 72.8 73.2 74.9 77.2 79.9 87.2 86.9 95 97.3 98.3 97.3 96.4 95.7 95.3 95 96.1 94.5 94.7 94.6 97.4 99 95.8 98.3 103.3 112.4 123.4 134.8 145.6 154.7 168.1 172.1 173.1 170.5 163.7 153 143 146 161 165.7 167.6 165.2 158.1 147 121 93.4 67.5 44.4 38.1 38.1 39.2 41.5 38.1 38.1 38.1 38.1 38.1 38.1 38.1 38.1 38.1 38.1 38.1 38.1 38.1 41.1 40.2 38.1 38.1 40.5
56.8 51.6 49.1 48 47.3 45.9 44.4 43.2 43.2 43.2 43.2 43.2 43.2 43.2 43.2 43.2 43.2 43.2 43.2 43.2 43.2 45.3 58.2 68.9 78.1 89 105.1 123 134.9 146.6 159.8 179.1 185.8 186.6 195.3 193.4 193.8 195.5 198.6 207.3 212.3 213.8 216.7 223.5 231 237.5 245.4 251.3 255.1 257 259.5 260.5 258.2 254.3 249.5 246.6 242.3 235.8 228.2 218.6 206.9 202.2 196.2 183.9 171.6 160.1 149 140.1 133 131.1 133 139.1 144.8 150.9 157.5 163.2 172.8 184.7 195.6 202.8 211.2 219.8 225.9 228.8 226.6 216.3 216.3 221.7 216.9 214.5 205.1 190.8 181.1 178.2 175.4 172.2 169.4 168.7 169.8 169.4 169.1 171.9 171.7 166.8 161 149.3 135.6 137.5 139.8 142.8 139.4 114.5 106.3 99.7 93.8 89.1 83 79.6 75.8 66.6 65.5 65.5 65.5 65.5 65.5 66.9 65.9 67.7 70.1 72 72 73.1 72 72.3 75.1 77.5 80.5 85.3 92.5 95.8 99.1 98.9 99.7 98.4 97 97.8 100.6 96.1 93.1 94 97.8 98.3 95 95.2 97.9 103.6 117 119.7 132.1 154.4 164.6 169.8 169.9 166.8 161.8 151.5 140.8 140.2 150.5 159.5 157.7 157.4 151.4 142 119.8 89.1 66.1 48.6 40.3 38.3 38.3 38.1 38.1 38.1 38.1 38.1 38.1 38.1 38.1 38.1 38.1 38.1 38.1 38.1 40.1 42.8 42.6 40 38.1 40.9
52.8 49.7 48.2 47.1 45.9 45.1 44.2 43.2 43.2 43.2 43.2 43.2 43.2 43.2 43.2 43.2 43.2 43.2 43.2 43.2 43.2 50.7 62.4 70.7 79 89.8 103.4 118.4 130.1 142.8 157.2 171.2 172.4 177.1 180.6 181.1 190.1 190.7 198.2 203.9 204.5 209.8 216.9 226.1 234.2 241.1 248.1 252.3 253.9 256.2 258.5 255.7 252.4 250.5 248.1 245 236.6 227.5 220.2 213 203 202.2 187.7 177 165.4 154 143.6 145 139.7 130.3 131.9 138.9 142.8 149.1 157.2 165.3 171.5 183.5 194 201.2 209.5 216.2 221.6 223.2 216 219.6 225.3 220.2 214.7 209.2 200 187.5 179.1 177 177.5 176.4 173.3 173 173 171.2 168.2 170.3 173.9 170.2 164.2 153.6 143 134.9 129.1 125.3 127.7 113.7 111.2 107 101.5 97.1 95.4 90.1 84.2 73.3 65.5 65.5 65.5 65.5 65.5 65.5 65.5 65.5 68.3 69.3 69.7 70.4 70.4 72.5 74.4 74.2 75 81.2 93.8 98.2 101.3 104.7 106.5 105.8 106.4 104.5 101.8 97.2 92.2 91.9 92.8 93.5 92.2 91.5 92.4 94.8 100.6 111.2 125.8 155 162.1 162.3 161.2 160.2 154.8 147.2 138.2 133.1 136.2 142.8 151.8 157.1 151.1 139.6 123.8 95.8 68 49.8 41.6 39.5 38.1 38.1 38.1 38.1 38.1 38.1 38.1 38.1 38.1 38.1 38.1 38.1 38.1 38.1 38.1 42.8 42.8 41.4 40.9 41
50.5 48.5 47.7 47.1 46.5 45.2 44 43.2 43.2 43.2 43.2 43.2 43.2 43.2 43.2 43.2 43.2 43.2 43.2 43.2 43.2 56.6 63.5 70.1 80.3 90.4 101.6 112.2 123.6 137.5 152.4 161 164.6 169.5 175.5 173.1 182.2 186.6 191.8 197.7 204.7 211.8 217.1 226.3 234.3 242.4 249.6 254.2 256.5 256.8 256 252.9 250.3 251.2 246.9 240.4 228.3 223.4 217.1 208.5 200.3 194.5 180.9 169.8 158.5 147.9 148.4 156.7 148.3 133.6 131 135.4 140.3 148.8 155.6 164.1 172.8 182.8 191.7 199.7 206 212.6 216.2 215.8 219.9 222.1 223.2 219.5 212 203.7 195 188.8 183.1 183.3 182.7 182 180.1 180.8 178.7 174.7 168.9 168.5 171.5 170.4 164 158.3 151 143.5 138.2 129.2 126.7 119.6 118 114.5 106.9 106.9 106.2 101.9 90.9 82.5 71.8 65.5 65.5 65.5 65.5 65.5 65.5 65.5 67.5 68.5 68.4 68 69.5 70.9 72.3 72.8 75 82.4 92.1 99 106.8 110.8 110.5 110.4 107.9 103.1 99.3 94.5 92 91.2 90.6 90 89.3 88.2 87.8 88.7 95 102.6 119.5 147 164.1 158.9 155.4 154.2 147.8 141.6 135.2 133.5 122.6 128.5 130.7 141.3 131.7 121.7 109.7 86.2 66.9 50.3 38.1 38.1 38.1 38.1 38.1 38.1 38.1 38.1 38.1 38.1 38.1 38.1 38.1 38.1 38.1 38.1 38.1 40.4 43.1 42.5 41.7 41.6
50.3 49.2 48.2 47.6 46.7 46 44.7 43.2 43.2 43.2 43.2 43.2 43.2 43.2 43.2 43.2 43.2 43.2 43.2 43.2 43.2 56.9 64.2 70.6 80.7 89.6 98 106.4 118.5 132 145.3 152 155.2 162.4 166.2 169.1 176.2 183.2 190.4 199.6 207.8 213.5 219 226.7 236.6 246.1 252.8 257.4 257.9 256.3 254.7 253.3 250.1 244.6 239.2 231.2 225.6 224.6 217.2 205.9 194.1 186 173.9 162 151 146.8 155.9 156.1 147.4 129.4 132.5 134.6 137.7 148.3 154.5 164.3 171.1 178.6 188.9 196.7 202.4 208 210.8 214.1 217.8 220.4 221.9 216.6 208.5 200 199.1 191 185.5 186.3 189.9 187.9 184.6 183.9 180.8 178.3 171.5 168.4 166.4 165.1 165.4 163 159.8 152.7 146.4 138 138.6 129.9 126 121.1 117.9 115.6 113.4 111.1 100.8 93.8 81.5 72.2 66.3 65.5 65.5 65.5 65.5 65.5 65.3 65.6 66.7 66.4 68.4 67.9 69.6 72.2 74.4 81.9 92 101 112.2 116.7 116.1 112.8 107.7 104 100.8 98.9 97.4 92.4 90.5 89.9 88.8 87.9 87.5 92 95 108.1 114 138.8 147.5 150.8 145.9 142.6 137.1 134.9 131 130 120.5 113.1 114.3 112.6 105.8 96 79.6 62.8 53.3 38.1 38.1 38.1 38.1 38.1 38.1 38.1 38.1 38.1 38.1 38.1 38.1 38.1 38.1 38.1 38.1 38.1 38.1 38.1 42.7 43.9 43.2 42.5
51.4 50.1 50.1 48 45.5 44.8 44.8 43.2 43.2 43.2 43.2 43.2 43.2 43.2 43.2 43.2 43.2 43.2 43.2 43.2 43.2 54.6 65.3 73 81.4 85.3 89.9 98.8 111.7 124.5 137.1 145.6 150.5 158 162.2 167.2 175.3 183.6 192.3 202.8 211.4 217.3 223.6 231.6 241.4 249.6 255.4 259.3 259.8 257.5 255.5 253.2 248 241.9 234.1 228.4 227 222.3 214.3 199.6 190.8 178.6 166.7 155 145.2 149 152.6 146.9 135 125.1 131.6 132.1 140.3 148.7 156.5 164.9 171.3 178.8 186.6 194.5 200.6 204.8 208.6 212.6 216.1 218.4 219.6 212.8 204.4 204.4 199.7 192.7 190.8 197 199.4 195.7 188.2 185 184 179 173.5 170.4 171.5 172.2 172.9 169.9 165.2 159.6 154.6 154 146.3 135 132.8 129.8 123.8 120.6 115.9 112.6 106.5 101.1 91.7 78.6 68.6 65.5 65.5 65.5 65.5 65.5 65.5 64.6 66.3 66.4 66.6 66.7 67.4 71.2 77.5 85.3 94.2 104.9 114.5 119.5 117.7 113.9 112 108.6 104.5 103.9 101.5 97.9 97.3 91.8 89.3 87.9 87.3 92 94.8 105.1 109.9 121.8 128.1 136.1 136.3 133 127 127.4 124.5 123.6 115.3 106.6 101 91.6 83.3 72.4 55.1 43.4 43.6 38.1 38.1 38.1 38.1 38.1 38.1 38.1 38.1 38.1 38.1 38.1 38.1 38.1 38.1 38.1 38.1 38.1 38.1 38.1 44.3 47.7 46.6 44.2
52.5 49.7 48.3 47 45.3 44.6 43.3 43.2 43.2 43.2 43.2 43.2 43.2 43.2 43.2 43.2 43.2 43.2 43.2 43.2 46 54.9 64.8 71 75 80.4 88.4 98.2 107.9 119.6 132.3 142.2 148.5 155.9 161.5 169.4 177.6 187 196.5 206.9 214.6 221.4 228.2 236.3 245.8 253 257.5 260.9 261.8 259.1 255.6 253.3 248.1 240.4 232.1 226.3 223.2 219.1 196.4 190.5 179.6 169.6 160.2 148.4 140.3 147 141 135.9 126.6 122.4 127 132.6 143.6 150.6 159 168.2 176.4 183.2 189.8 193.7 198.6 203.2 208.5 213 216.8 219.4 216.5 209.1 204 203.4 200.6 197.7 196.7 199.7 201.9 199.6 196.8 192.7 187.4 182.9 177.3 173.9 178.1 181.8 178 174.2 169.9 169.3 170.2 169 164.7 150.9 140.2 132.7 128.9 124.5 127 124.2 114.1 105.9 96.3 87.7 74.6 66.9 65.5 65.5 65.5 65.5 64.8 64.8 64.8 66.4 67.3 67 69.4 75.9 82.9 92.4 96.3 104.6 115.1 124.4 121.5 116.1 113.6 111.8 108.5 109.5 112.7 108.9 97.6 91 88.7 87.3 87 88.8 92.3 98.3 101.4 114.4 124.5 128.1 125.9 126.3 122.1 115.2 112 110.9 107.4 102.6 93.4 83.2 74.9 64.1 49.1 38.1 38.1 38.1 38.1 38.1 38.1 38.1 38.1 38.1 38.1 38.1 38.1 38.1 38.1 38.1 38.1 38.1 38.1 38.1 38.1 40 47.2 53.5 50.4 48.4
52.3 49.4 47.3 46.1 44.8 43.2 43.2 43.2 43.2 43.2 43.2 43.2 43.2 43.2 43.2 43.2 43.2 43.2 43.3 46.1 47.6 55.2 62 67.5 72.6 84.7 97.3 108.1 116.1 120.7 132.7 143.6 152.1 157.8 166 174.6 183.8 193.5 202.3 210.7 218.4 226 233.6 241.8 249.6 254.8 259.1 262.1 262.6 259 254.9 252.6 247.2 238.4 231.6 230.2 222.7 210.7 209.4 191.6 176 161.9 156.8 144.3 135.1 139.4 137.6 138.8 124.2 122.4 127 132.7 140.5 150.7 162.4 170.8 178.2 185.7 194 199.7 202.7 205 210.3 214.3 216.5 215.8 212.2 207.6 202.2 202.6 202.6 200.6 200.9 202.6 202.9 201.5 199.6 196.1 191.3 189.5 184.5 180.6 185.1 185.7 187.3 185.7 189.6 187.9 183.8 182.4 174.6 159.2 148.9 136.7 133.8 128.9 134.7 130.1 117.5 111 102 88.1 78.7 71.1 65.3 65.5 65.5 65.5 65.5 65.5 65.5 66.3 68.9 68.1 71.9 79 83 89.8 96.8 104.9 114.3 120 121.1 120 119.8 117.5 112.8 110 105.1 101.9 102.8 90.3 87.6 86.8 86.5 88 91.9 97.2 99.8 103.8 114.3 118.4 120.4 117.1 112.8 106.4 103.8 100.9 98.9 93.6 83.4 72.4 63.1 53.8 45.2 38.1 38.1 38.1 38.1 38.1 38.1 38.1 38.1 38.1 38.1 38.1 38.1 39.4 38.1 38.1 38.1 38.1 38.1 38.1 38.1 39.3 46.5 50.7 51.3 50.3
51.4 50.3 48.5 45.8 43.3 43.2 43.2 43.2 43.2 43.2 43.2 43.2 43.2 43.2 43.2 43.2 43.2 43.2 43.2 46 47.9 54 61.7 69 81.3 93.3 105.4 115.4 123.8 130.5 134.4 143.4 151.6 161.9 173 181.8 190.5 198.8 208.9 216.7 224.1 231.4 238.5 245.6 253 257 260.6 262.4 261.7 257.7 252.7 249.4 243.8 236.1 231.2 228.2 218.6 213.7 211.2 196 179.7 164.6 153.9 141.7 128.1 125.8 136.5 134 119.3 121.6 125.3 134.5 144.1 154.3 163.7 173.5 181.8 189 197.4 203.3 207.8 210.9 214.4 214.3 212.4 210.1 206.9 202.6 200.2 201.6 204.5 203.2 207.3 206.9 205.7 202.8 200.3 198.1 194.9 191.8 188.3 184.3 189.3 194.3 198.7 202.8 201.4 200.5 195.4 193.7 176.8 169 157.2 143.2 137 130.8 135.5 130.7 120.2 115.6 107.2 100.8 90.5 80 73 71.3 73.3 70 65.5 65.5 65.5 65.5 66.8 67.6 70 73.3 78.9 90 97.3 104.9 114.6 124 131.5 130.1 125.3 119.4 112.2 108.6 107.8 100.7 97.6 91.1 87.3 86.4 86.3 88.9 93.5 94.6 98.1 102.7 107.2 112 113.4 110.4 106.9 102.3 97.9 91.8 91.7 84.9 75.2 67.1 60.9 54 44.6 38.1 38.1 38.1 38.1 38.1 38.1 38.1 38.1 38.1 38.1 38.1 38.1 38.1 38.1 38.1 38.1 38.1 38.1 38.1 38.1 41.4 45.3 50.8 50.1 52.3
