ncols 200
nrows 82
xllcorner 250000
yllcorner 641850
cellsize 50
226.9 227.3 227 226.8 227.4 227.1 227.8 228.4 228.3 229 229.1 229.3 230.4 230.9 230.2 230.5 230.5 230.5 231.9 233.5 234.4 235.5 236.6 237.9 239.2 240.1 240.4 240.7 240.4 240.2 239.6 238.9 238.2 236.7 235.2 234.9 235.4 236.9 238.6 240.3 241.9 244.1 245.8 247.6 249.5 250.4 251.4 251.4 251.4 251 250.6 249.5 248.4 247.8 245.1 245.1 245.1 248 249 250 248.7 245.7 248.5 250.4 251.3 251.6 251.4 251.5 251.7 251.3 252.2 253.1 254.6 257.2 259.6 260.9 262 262.8 263.3 263.6 263.4 263 262.9 263 263.1 261.6 261.5 261.4 263.1 261.9 263.2 266.4 268.2 269.8 271.1 271.9 272.7 273.4 273.7 273.3 273.3 272.6 272.2 271 269.8 272.2 275.2 276.1 276.9 277.8 278.3 279.1 280 280.3 280.6 281.1 281.7 281.8 282.8 283.2 283.6 285.1 287.2 288.8 290.1 291.5 292.8 294.2 302.4 311.4 316.8 320.9 322.5 323.4 324.4 325.2 325.6 326.2 327.4 328.3 329.4 329.5 328.5 328.6 330.1 330.9 331.2 332.1 333.8 334.7 337.7 339.1 340.2 340.7 341.8 340.7 340.7 340.9 340.2 341.2 343.4 343.5 343.5 343.2 342.9 343.5 344.4 344.7 344.5 344 343.1 341.7 339.5 336.6 334 331.9 330.1 328.1 325.6 323.6 321.2 323.6 325.1 327.7 330.9 335.4 340.2 344.3 347.1 347.7 346.6 350.2 353 354.1 354.7 354.9 355.1 355 355.4 356.3
229.4 230.2 229 229 229.1 229.2 229.7 229 229.6 230.6 231.7 233.1 233.5 233.6 233.2 232.5 231.7 232.4 233.9 234.6 235.4 236.5 237.6 238.7 239.5 240.2 240.5 240.4 240.1 239.8 239 238.1 236.9 235.5 234.3 234.7 236 237.5 239 240.4 242 243.4 245.3 247.4 249.4 250.1 251.3 251.2 251.1 250.5 249.6 246.9 245.1 245.1 245.1 245.1 245.1 247.1 248.8 248.9 248 245.3 248.3 249.8 250.8 251.3 251.3 252.1 252.3 252.4 253.6 254.8 256.1 257.8 260.1 261.1 262.2 262.6 262 262.5 262.5 262.1 261.8 260.3 261.5 261.7 263.8 265.6 265.6 264.9 263.2 262.9 265.8 267.9 269.2 270.5 271.5 271.9 272.2 271.3 270.3 268.8 270.5 271.8 274.4 275.3 276.1 276.8 277.6 277.9 278.2 279.1 279.5 280.2 280.5 281.1 281.7 280.7 280.8 282.8 283.9 285.5 287.4 289.3 290.7 292 293.3 294.7 303.7 309.6 314.1 318.2 320.6 321.9 323.2 324.4 325.3 325.7 326.2 326.9 327.5 327.7 327.5 329.7 331.8 333.3 333.5 333.3 335.8 336.2 338.1 338.3 338.4 338.1 337.4 336.8 337.5 336.8 335.9 337.1 336.5 337.5 337.6 338.3 339.2 340.4 341.7 341.9 341.5 340.9 339.6 337.8 336 334.3 332.7 331.1 329.5 327.8 326 324.6 319.8 324.3 326 328.2 331.5 336 339.6 342.8 343.8 340.1 348.2 350.7 352.3 353 352.8 353.1 353.2 353.5 355.1 356.5
230.8 231.2 230.9 231 231.1 231.5 231.6 231.9 232 233.3 234.4 235.1 235.5 235.7 234.7 234.6 234 234.3 235 235.7 236.5 237.4 238.5 239.3 240 240.3 240.4 240.2 239.8 239.1 238.3 237.4 235.9 234.6 234 235.3 236.6 238.1 239.6 240.9 242.4 243.7 245.4 247.3 249.3 250.1 251.1 250.5 249.7 248.3 246 245.1 245.1 245.1 245.1 245.1 245.1 245.3 247.1 247.7 248 245.3 245.3 249 249.9 250.4 250.8 251.8 252.8 253.5 254.5 255.6 256.9 258.6 259.8 261 262 262 260.2 260.6 260.7 260.1 260 260.1 261.9 263.1 264.9 266.4 267.2 267.2 266.9 265.2 264.3 265.9 267.5 268.1 269 268.9 268.7 269 269.1 272.6 274 274.5 275.1 275.9 276.7 277.4 277.7 278 278.2 278.8 279.1 279.7 280.3 280.6 280.6 279.2 281.5 283.9 285.3 286.6 288 289.7 291.1 292.2 293.4 295.5 301.7 306.8 311 314.7 317.6 319.1 320.5 321.9 322.4 322.6 322.5 322.3 323.3 324.8 327.2 329.9 334.9 338 339.2 337.6 336.8 337.1 336.7 336.5 335.6 334.4 333.5 332.4 331.8 331.7 331.1 331.9 332.5 332.9 333.3 334.3 335.5 338 339.4 339 338.3 337.4 336.7 335.7 334.8 333.3 331.7 330.3 329 327.7 326 323.6 319.6 325 326.8 328.8 332.1 335.3 338.1 338.9 336.6 342.3 346.1 348.5 350.6 351.3 350.8 351.4 352.3 353.8 355.7 357.5
232.1 232.5 232.7 233 233.7 234.9 235 235.4 236.1 237.4 236.8 237.1 237.8 238 237.3 236.8 236.4 236.4 236.3 236.9 237.6 238.5 239.3 240 240.3 240.4 240.3 239.9 239.4 238.4 237.6 236.5 235 234 234.3 235.8 237.2 238.6 240 241.3 242.7 244.1 245.4 247.3 249.3 250.4 250.9 250.1 249.1 245.1 245.1 245.1 245.1 245.1 245.1 245.1 245.1 247.6 245.3 245.3 245.3 245.3 245.5 247.7 249.1 249.6 250.1 251.2 252.6 253.2 255.2 256.2 257.7 258.7 259.4 260.6 261.9 261.7 258.4 258.9 259 259.5 260 261.3 263 264.6 266 267 267.6 268.2 268.4 268.5 268 265.5 265.7 266.9 267.4 268.8 270.6 272.5 273.6 274.1 274.7 275.3 276 276.3 276.8 277.2 277.4 277.7 277.9 278.2 278.6 278.8 278.9 278.2 278.2 280.6 283.3 285 286.5 287.8 289 290.1 291.6 292.6 293.6 295.1 298.6 304 308.1 311.9 314.6 316.2 317.7 318.5 318.9 318.8 318.3 317.4 319.2 320.7 326.2 331.8 335.6 338.6 339.3 338.1 335.4 334.1 333.2 332.7 331.1 329.7 328.4 327.3 326.2 325.7 326.5 326.3 327.4 328.7 329.6 331.6 333.6 335.8 336.4 336.3 335.9 335.4 334.6 333.8 333 331.7 330.3 328.8 327.3 326.4 325.1 322.6 320.1 323.5 326 325.9 329.8 332.9 334.2 334 338.6 341.8 344 346.2 347.7 348.5 349.1 350.9 353 355.3 357.3 358.8
233.8 234.2 235.2 235.5 237 238 238.8 239.1 240.7 240.5 239.6 240.1 240.5 240.4 239.8 239.4 239.1 239 238.8 238.7 239.1 239.7 240.1 240.3 240.4 240.3 240 239.6 239 237.9 236.9 235.7 234.2 233.9 234.8 236.3 237.8 239.2 240.5 241.8 243 244.3 245.7 247.4 249.3 250.6 250.7 247.9 245.1 245.1 245.1 245.1 245.1 245.1 245.9 245.3 248.6 245.3 245.3 245.3 245.3 245.3 245.3 245.3 246.5 247.9 247.5 249.8 252.6 251.7 253.6 256.3 257.7 257.6 258.9 260.5 261.5 260.6 257.4 260.4 261.6 261.1 261.8 262.9 264.3 265.5 266.6 267.7 268.3 268.8 269.4 269.6 269.4 269.5 269.3 269.5 271.1 272.1 273.1 273.8 274.3 274.8 275.1 275.6 276 276.3 276.7 276.9 277.1 277.3 277 277.1 277.4 276.6 275.7 275.6 279.5 282.5 284.2 285.7 287.1 288.7 289.7 290.8 292.1 293.1 294 294.6 296.9 301 305.1 308.9 311.5 313.2 314.5 315 315.3 314.9 313 312.5 310.8 316.4 322.8 328.5 331.5 333.3 334.2 335.1 334.2 332.8 331.1 328.4 326 325.1 324.5 323.8 323.8 323.5 323.2 323 324 326.9 329.2 331.8 333 334 334.8 334.9 334.2 333.4 332.6 332.1 331.4 330.1 328.8 327.4 325.8 325.1 323.7 320.8 319.4 321.8 324.2 324.5 325.2 329.2 330.5 334.9 337.9 339.5 341.8 343.6 345.1 346.8 349.6 352.3 354.6 356.7 358.1 359.8
235.3 236.4 237.9 238.6 240.2 241 241.9 242.7 243.1 242.3 241.5 242.1 242.4 242.4 242.2 241.8 241.4 241.2 240.6 240.4 240.6 240.5 240.5 240.6 240.4 240.2 239.8 239.3 238.5 237.4 236.3 234.8 233.3 233.8 235.1 236.7 238.2 239.5 241.4 242.9 243.7 244.5 246 247.5 249.3 250.8 250.1 246.6 245.1 245.1 245.1 245.1 246.2 245.4 248.4 246.6 245.4 246.6 245.3 245.3 245.5 245.3 245.3 245.3 246.3 247.3 248.2 249.1 250.5 251 251.4 252.9 253.8 254.2 256.5 259 259.8 256.3 258 262.1 262.7 262.8 263.3 264.2 265.2 266.3 267.4 268.5 269.1 269.6 270.4 270.7 270.6 270.7 271.5 272 272.4 273.3 274.1 274.5 274.5 274.6 275.3 275.4 275.7 275.8 276 276.1 276 274.8 274.4 274.4 274.9 274.3 273 275.5 279.7 282 284.2 286.2 287.9 289.4 290.5 291.5 292.6 293.4 294.1 294.7 296.9 299.2 302.3 305.7 308.1 309.9 311.1 311.6 311.2 309.8 307.2 306.2 307.5 308.2 314.5 319.2 323.3 327.9 329.5 330 331.7 334 331.9 329.3 326 323.2 321.7 321.7 321.5 321.2 320.9 322.6 323.9 325.9 327.8 330 331.3 332.5 333.3 333.5 332.7 331.9 330.3 329.9 330.1 328.7 327.3 325.8 324.3 322.9 321.5 318.7 320.1 319.9 323 327 329.3 331 332.7 334.9 336.3 337.3 339.5 341.6 344.1 347.2 350.4 353.2 355.4 357.2 358.6 359.1
237.4 238.8 240.5 241.7 242.6 242.8 243.4 244.2 244.5 243.8 243.9 244 243.9 243.7 243.3 242.8 242.2 241.7 241.6 241.3 241.1 241 240.9 240.6 240.4 240.1 239.5 239 238 236.9 235.3 233.5 232.8 233.8 235 236.6 238.1 239.6 241.2 242.7 243.5 244.3 245.6 247 248.3 249 248.7 245.1 245.1 245.1 245.1 247.9 250.8 252.3 251.8 250.7 249.8 248.5 247.6 249.2 248.9 248.2 247.2 246.7 248.8 249.8 250.9 251.1 250.8 251.1 251.6 252.5 253 253.3 253.7 256.1 254.7 256.6 259.9 262.5 263.1 263.9 264.5 265.3 266.1 267.1 268.2 269.3 269.9 270.5 271.4 271.7 271.8 272.4 273.2 273.3 273.5 274.4 274.8 274.7 274.7 274.4 274.6 275 275.1 274.9 274.8 274.5 273.4 271.6 270.9 270.7 271.3 272.1 270.7 274 278.6 282.8 285.4 287.3 288.9 290.1 291.2 292.2 293 293.7 294.3 295 296.7 298.1 300.4 302.4 304.7 306.3 307.6 307.6 304.7 302.8 303 304.8 306.3 306.6 308.3 312.9 315.4 319.9 323.5 325.8 328.3 331 332.2 331 327.3 323.9 321.8 320.7 320.2 320.1 321.3 322.9 324.3 325.4 327 328.5 330 331.4 332.2 332.2 331.6 330.6 329.2 327.2 327.2 326.7 325.3 323.7 322 320.9 319.4 318.5 320.2 322 326.4 329 330.5 331.2 331.9 332 332 334.9 338.6 341.7 344.5 347.3 350.1 352.7 354.5 356.1 357.1 357.7
239.9 241.1 241.7 242.6 243 243.5 243.9 244.4 244.7 244.6 244.7 244.7 244.4 243.8 243.4 242.9 242.3 241.9 241.7 241.4 241.3 241 240.8 240.6 240.3 239.9 239.3 238.7 237.6 236.1 234.3 232.5 232.7 233.9 235 236.1 237.7 239.1 240.2 241.9 243.1 243.9 245.2 245.9 246.3 246.6 245.1 245.1 245.1 245.1 245.4 252.6 254.6 255.3 255.1 253.9 252.5 251.9 250.8 251.2 251 250.9 250.9 250.6 250.8 252.1 253.6 253.9 254.5 254.6 254.6 255 255.3 255.5 254.7 254.5 255.6 258.5 261.2 262.5 263.3 264.2 265.1 265.8 266.5 267.6 269 270 270.7 271.5 272.4 272.7 273.3 274.3 274.9 275.1 274.9 275.1 275.2 275.1 274.6 274.1 273.9 273.6 273.3 272.4 271.8 271.6 270.6 268.7 267.4 267.2 268.1 269.3 271.2 276.4 281.1 285 287.1 288.9 290 291 291.8 292.7 293.4 294.2 294.9 295.4 296.5 298 299.2 300.7 301.5 302.5 304.1 303.7 301.8 300.4 303.3 303.7 305 305.4 302.4 306.1 308.9 311.2 315.6 321.6 324.9 327 328.5 328.9 327.8 324.6 322.2 320.8 320.1 319.7 321.5 322.5 323.4 324.3 325.7 327.4 328.8 330.3 331.3 331.5 331.1 330.7 329.8 328.1 325.1 323.5 322.4 321 320 318.8 317.6 318.3 322.9 326 328 328.7 328.8 329.3 328.9 328.4 331.2 336.3 339.5 341.9 344.5 347 349.5 351.3 353.1 354.7 355.5 356.2
241 241.5 241.7 242.4 243 243.5 244 244.3 244.1 243.9 244.3 244.3 243.9 243.5 243.1 242.8 242.4 242 241.6 241.4 241.1 240.9 240.7 240.5 240.2 239.7 239.1 238.4 237.3 235.4 233.4 232.2 232.8 233.9 235.1 236.2 237.3 238.5 239.6 240.8 241.8 242.7 243.5 244.3 244.5 245.1 245.1 245.1 245.1 245.1 251.5 255 256.4 257.2 257.5 256.5 255.3 254.1 254.1 253.3 253.1 253.1 252.9 252.8 252.9 254.1 255.3 256.1 256.9 257.4 257.7 257.9 257.9 257.8 257.4 257.6 258.2 260.1 261.6 263 264.5 265.1 265.3 265.9 266.9 267.9 269.3 270.8 271.6 272.5 273.3 273.8 275.4 276.8 277.5 276.7 275.8 275.9 275.4 274.7 274.1 273 272.6 272.1 271.3 270.8 269.5 267 267.6 266.3 265.6 268.1 268.7 270.2 273.3 277.7 283.6 287.4 289.1 290.1 291 291.6 292.3 293.1 293.8 294.4 295.4 296.1 297.1 297.5 298.3 299.2 300 300.1 300.8 300.7 298.7 301.3 302.5 304.8 303.9 301.9 300.2 300.5 303.1 305.1 309.5 316.4 322.1 324.6 326 326.9 327.1 325.9 323.2 320.8 319.3 319 320.5 321.7 322.6 323.4 324.5 326.5 328.4 329.5 330 329.6 329 328.4 327.7 326.5 325.3 323.9 322.6 319.9 318.2 317.2 316.7 321.8 324.1 325.4 325.8 326.1 326.6 326.5 325.8 328 332.9 337.1 339.4 342 344.3 346.8 348.8 350.6 352.2 353.4 354.2 354.6
239.3 241.3 241.5 242.3 242.4 243.2 243.4 243.4 243.2 243.2 243.5 243.5 243 242.4 242.4 242.1 241.8 241.8 241.6 241.3 240.9 240.6 240.5 240.3 240.1 239.4 238.7 238.1 236.9 234.9 232.8 231.8 232.7 233.8 234.4 235.1 235.8 236.6 237.7 238.6 239.8 240.6 241.2 241.4 237.7 245.1 245.1 245.1 245.1 246.9 251.1 254.8 256.6 257 257.4 256.6 256.6 256.4 256.3 255.6 255 254.9 254.6 254.6 255 255.7 256.8 257.7 258.1 258.6 259.1 259.5 259.5 259.6 259.6 259.3 259.9 261.3 262.3 263.8 265.1 265.6 265.5 266.2 267 268.1 269.5 271.1 272.5 273.4 274.3 275.8 277.7 278.6 278.7 277.7 276.5 275.6 274.8 274.1 273.2 271.9 271.3 270.4 269.1 266.3 264.8 264.2 263.2 264.5 266.8 268.2 269.2 270.6 273.3 278.1 284.4 287.9 289.3 290.4 291.3 292 292.7 293.4 294.1 294.8 295.7 296.5 296.9 297.4 297.5 297.9 298.4 298.3 297.2 296.9 300.2 302.6 303.2 302.2 301 299.1 298.1 299.2 300.2 302.1 305.6 311.5 318.1 322.6 324.1 325.4 326.9 327.9 324.7 321.3 318.9 318.6 319.1 320.3 321.3 322 323.7 325.3 326.3 326.7 326.6 326.5 326.3 326 325.8 325.2 324.4 323.4 321.5 320.7 320.5 318.3 319.5 322.4 323.1 323.4 324 324.1 324.4 323.6 325.1 329 333.2 336.9 339.5 342.1 344.4 346.3 348.2 349.6 351 352.2 353 353.6
239.5 240.9 241.5 241.1 240.8 240.9 241 240.8 241.2 242.3 242.1 242.3 241.5 241.5 241.6 241.3 241.3 241.3 241.1 240.8 240.7 240.4 240 239.5 239.2 238.8 238.4 237.8 236.4 234.4 232 231.5 232.2 232.9 233.3 233.5 234.2 234.7 235 234.9 234.1 235.8 236.2 235.7 236.2 246 245.1 247.3 247 246.2 251.8 254.3 255.8 256.4 256.9 257.2 257.1 257.2 257.2 256.9 256.4 256.3 256.3 256.2 256.7 257.3 258 258.7 259.3 259.5 259.8 260 260.1 260.2 260.4 260.6 261.1 262.1 263.2 264.3 265 265.2 265.2 265.9 266.8 268.1 269.5 271.8 273.4 274.4 275.2 276.9 277.9 277.9 277.5 276.4 275.3 274.3 273.3 272.9 271.8 270.5 269.9 269.1 263.3 263.7 263.6 261.6 262.2 264.8 266.3 267 268.6 270.2 272.5 276.7 281.9 285.9 288 289.8 290.6 291.7 292.6 293.5 294.5 295.2 295.8 296.3 296.7 296.8 296.7 296.9 296.6 295.3 295.2 298.1 299.9 300.9 300.8 300.1 298.5 297.4 296.7 297.8 298.4 299.4 302.2 308 315.7 321.1 323.8 325.3 326.7 327.9 325.4 321 318.8 317.9 318.3 319 319.9 320.9 322.6 323.2 323.8 324.8 324.9 325 325 325.1 324.8 324.6 323.5 322.5 321.8 323.5 323 320.3 315.5 320 321.5 322.2 322.4 322.4 321.8 322.9 326.6 330.7 334 337.2 339.7 342.2 344.5 346.2 347.6 348.6 349.8 351.1 351.8 352.3
238.7 238.7 239.1 238.7 238.2 238.3 238.4 239.1 239.9 239.6 239.3 239.7 241.1 241.3 241.3 240.7 240.8 240.8 240.3 240 239.7 239.2 238.9 238.4 238 237.4 236.7 235.4 233.6 231.8 230.5 231.3 231.6 231.9 232.2 232.4 232.6 233.5 233.5 233.7 233.8 234.6 234.9 235 237 240.9 242.4 244.7 246.4 247.3 251.3 253.2 254.8 255.7 256.4 256.9 257.4 257.6 257.9 257.7 257.8 257.6 257.3 257.4 257.7 258.3 259 259.4 259.8 260.1 260.3 260.6 260.7 260.8 260.9 261.1 261.7 262.4 263.1 263.6 264.2 264.6 264.7 265.2 266.2 267.6 269.7 272.1 273.8 274.8 274.8 275.5 276.3 276.1 275.6 275 274 272.9 271.9 270.3 269.3 268.1 267.1 262.9 263.7 263.8 262.1 260.8 263.1 264.6 265.6 266.6 268 269.6 271.4 274.1 278.5 282.3 285.5 287.9 289.9 291.4 292.4 293.4 294.5 295.1 295.6 296.1 296 296 295.9 295.8 295.3 293.1 295.6 296.9 297.9 298.5 298.4 298.2 296.9 295.9 295.2 295.9 296.6 297.8 299.6 304.4 312.5 319.4 322.8 324.2 325.4 325.9 324.7 321 318.6 317.5 317.5 318.4 318.9 319.9 321.3 322.1 322.5 323 323.4 323.7 324.2 324.4 324.4 324.6 324.2 324.4 324 323.5 322.5 321 314.6 317.5 319.8 320.3 319.6 319.2 320.2 324.1 327.7 331.5 334.9 338.1 340.2 342.3 344.4 346.1 346.9 347.9 348.9 349.5 350 350
235.7 235.9 236 236.1 236 236.1 236.4 237.2 238.4 239.2 239.9 239.3 241.5 241.5 240.8 240.3 239.9 239.6 239.2 238.4 238.2 237.9 237.5 237.2 236.6 234.7 232.6 231.6 230.7 229.7 230.1 230.6 230.9 230.7 229.4 230.7 231.5 233.3 234 235 236 237 237.4 238.4 239.2 239.7 241.2 243.3 244 248.2 250.1 252 254 255.2 255.9 256.5 257.2 257.9 258.4 258.4 258.4 258.5 258.4 258.5 258.8 259.1 259.5 259.8 260.2 260.6 260.9 261.1 261.3 261.4 261.5 261.7 262.2 262.4 263 263.2 263.3 263.8 264.2 264.7 265.6 267.2 269.6 271.5 272.7 273.5 274.1 274.4 274.6 274.3 273.7 272.7 271.7 270.6 268.8 266.9 265.9 265.3 262.5 262.8 263 260.1 259.5 261.3 262.9 264.2 265.2 266.3 267.5 269 270.6 272.3 275.3 279.3 283.9 287.1 289.3 290.5 291.8 293.2 294.3 294.8 295.5 295.6 295.3 295.4 294.6 294.2 292.5 292.1 295.2 295.7 295.9 296 295.9 295.7 295.7 295.2 293.7 294.2 295.1 296.4 298.1 302.6 310.9 318.3 321.7 323.2 324.1 324.5 323.2 320.9 319.1 317.7 316.9 318.2 318.5 318.5 319.2 319.4 320.9 321.8 322.2 323.1 323.7 324.2 324.7 324.6 324.9 324.6 323.7 322.7 321.9 319.9 314.3 314 317.6 318.4 317.2 319.9 322.9 326.5 330.2 333.2 335.9 338.7 340.5 342.3 344.1 345.4 346.1 346.8 347.4 347.7 348.1 347.8
233.5 233.9 234 234.3 234.2 234.2 235 237.4 238.3 239.2 240 239.6 240.7 240.4 239.8 239.2 238.6 238.2 237.2 236 235.8 235.4 234.7 234.4 233.9 230.4 228.3 229.2 230.3 230.2 230.5 230.3 230.7 233 234 235 235.8 236.6 237.4 237.8 239 240.2 241.2 241.9 242.1 242 242.3 243.6 246 247.5 248.9 250.9 253.1 254.6 255.8 256.5 257.1 257.8 258.6 258.9 258.9 259.1 259.1 259.1 259.2 259.3 259.9 260.3 260.6 261 261.4 261.6 261.7 261.7 261.8 261.9 262.2 262.4 262.8 262.9 262.9 263.1 263.2 263.6 264.1 265.6 267.8 269.2 270.1 271.1 272 272.2 272.1 271.6 270.6 269.6 268.4 267 265.2 263.3 262.5 262 261.2 259.9 258.8 258 259.7 261.6 262.7 263.8 264.9 266.1 267.2 268.2 269.8 271.3 273.1 277.7 282.2 284.9 286.9 288.3 290.1 291.8 293.3 294.3 294.3 293.9 293.7 293.7 293 291.2 291.3 293.4 294.3 294.1 293.9 293.9 294 294.2 294.3 293.4 291.6 294 295.4 296.7 298.2 301.6 309.8 317.4 321 323 323.2 322.5 321.8 320.6 319.2 318.3 316.7 317.3 317.9 317.9 319.3 319.8 320.1 321.2 322.3 323 323.7 324.3 324.8 324.7 323.8 322.5 321.5 320.5 319 317 314.8 311.5 311.7 315.3 319.8 322.9 325.9 329.6 332.9 335.5 337.6 339.4 340.9 342.3 343.4 344.3 344.1 345.3 345.8 346 346.2 345.9
231.4 231.8 232.2 232.5 232.4 232.3 234.4 236.6 237.4 238.3 239.1 239.4 239.5 239.2 238.6 238 237.2 236.3 235.2 234 233 231.9 230.6 228.9 227.1 229.6 231.9 232 231.6 231.7 231.7 232.2 233.9 235.7 237 237.5 237.9 238.9 239.9 240.7 241.5 242.2 242.8 243.5 243.8 244 244 244.4 246.3 247.7 248.8 251.8 253.5 254.5 255.5 256.4 257 257.8 258.5 258.9 259.2 259.2 259.1 259.2 259.4 259.7 260 260.5 260.9 261.1 261.3 261.5 261.5 261.6 261.6 261.9 262.2 262.5 262.3 262.1 262.1 262.1 262.2 262.4 262.6 263.7 265.2 266.2 267.1 268 269 269.3 269.3 268.4 267.4 266.3 265 263.2 261.5 260.5 259.7 258.6 258.1 256.9 257.3 258.9 260.4 261.7 262.7 263.6 264.6 265.8 266.9 267.8 269.1 270.2 271.4 274.8 278.3 281.8 283.9 285.8 287.6 289.2 290.4 291.4 292 291.7 291.3 290.8 289 288.5 292.4 293.2 293.1 292.9 292.6 292.5 292.6 292.8 292.4 290.5 293.5 295.5 296.5 297.3 298.5 303.1 310.7 317.1 320.8 323.3 324.1 322.7 321.7 320.6 319.8 318.8 316.6 315.2 315.8 317.2 318.8 319.6 319.9 321.3 322.4 323.6 324 324.4 323.5 322.6 320.8 320.3 319.3 317.7 315.5 310.7 311.6 314.2 317.6 319.8 323.4 325.5 328.6 331.7 334.6 335.8 337.9 339.2 340.5 341.6 342.3 342.3 342.2 342.7 344.2 344.4 344.4 344.2
229.2 229.5 229.9 230.3 230.2 230.6 233.3 235.4 236.6 237.4 238.1 238.6 238.3 238 237.2 236.3 235.6 234.5 233.5 232.1 230.6 228.8 226.1 227.1 231.1 233.9 235.5 234.9 233.6 233.9 234.3 235.1 236.6 238 239 239.4 239.6 240.7 241.8 242.5 243.1 243.8 244.4 245 245.5 245.6 245.6 246 247.2 248.7 250.5 252 253.1 254 255 255.9 256.9 257.7 258.3 258.6 258.8 259 259.1 259.2 259.3 259.5 259.7 260 260.3 260.7 261.1 261.3 261.4 261.4 261.5 261.8 262 261.8 261.5 261 260.9 261 261 260.8 260.9 261.4 262.1 263.1 264.1 265 265.9 266.3 265.7 265 264 262.9 261.6 260.3 259 258.1 257 255.8 255.1 256.6 258.4 259.7 260.5 261.5 262.4 263.4 264.5 265.5 266.5 267.4 268.1 268.8 270.1 272.1 275.3 278.9 281.5 283.9 284.9 286.1 287.3 288.5 289.1 289.5 289.2 287.3 289 291.3 292.1 292.2 292 291.8 291.5 291.3 290.7 290.7 288.4 291.7 294.3 296.4 298.2 299.5 301.3 305.6 313.3 318.9 322.8 324.7 325.6 323.6 322 320.8 319.9 318.8 317.6 315 315.4 317 318.5 319.5 320.9 321.5 323 323.9 324.4 323.5 322.6 320.9 320 318.1 316.9 314.4 310.5 311.3 314.6 317.1 320.5 325.2 328.2 330.5 332.1 332.6 334.2 335.9 338.1 339.5 341 341 341.4 340.2 339.6 340.1 341.7 342.7 342.9 342.4
226.9 227.1 227.3 227.7 227.8 230 232.4 234.1 235.8 236.6 237.3 237.7 237.2 236.6 235.7 234.8 233.9 232.9 231.7 230.2 228.5 225.6 224.9 229.5 234.2 236.5 237 236.7 235.6 235.7 236.2 236.7 237.9 239.2 240.3 241.1 241.6 242.3 243.2 244 244.8 245.4 246 246.7 246.8 247.4 247.7 247.7 248.8 249.8 250.6 251.6 252.7 253.6 254.7 255.6 256.6 257.5 258 258.2 258.4 258.6 258.5 258.6 258.8 259 259.1 259.4 259.8 260.1 260.5 260.9 261.2 261.3 261.4 261.4 261.2 261 260.8 260.3 259.8 259.8 259.5 259.3 259.3 259.3 259.9 260.7 261.2 261.9 262.5 262.9 262.3 261.6 260.6 259.9 259 257.8 256.3 255.3 253.8 255.3 256.7 257.7 258.9 260 260.9 261.7 262.8 263.6 264.3 265.2 265.8 266.5 267.2 267.6 268.8 270.9 273.7 275.8 278.5 280.9 282.8 283.9 285.2 286.2 286.9 287.2 286 285.8 288.6 290.7 291.3 291 290.9 290.7 290.4 290.2 289.8 288.5 290.2 292.7 295.1 297.1 300 302.3 304.2 307 315.6 320.8 324.2 326 325.5 324.5 322 320.8 319.8 318.8 318 315.3 315.5 318.1 319.3 320.8 322 322.6 323.1 323.9 323.4 321.9 319.7 317.8 315.7 313.9 311.2 309.3 309.8 314.7 318.3 321.8 326.1 328.9 330.7 332.3 333.5 333.2 334.4 336.5 339 340.3 341.7 341.2 339.1 337.3 336.6 337.4 338.9 340.5 341 340.3
223.8 224.3 224.7 225 226.5 228.9 231.5 233.5 235.1 236 236.7 236.6 235.9 235.2 234.4 233.4 232.8 231.6 230.4 229.3 227.5 220.7 226.5 231.3 235.1 236 235.6 235.6 235.6 235.9 236.4 236.7 237.7 239.2 240.1 241 241.8 242.9 244.1 245.3 246.2 247.1 247.7 248.4 249.3 250 250 249.3 249 249.5 250.4 251.6 252.5 253.6 254.7 255.7 256.5 257 257.5 257.8 258.1 258 257.8 257.9 258.3 258.3 258.5 258.9 259.2 259.5 259.8 260.1 260.4 260.5 260.5 260.4 260.2 260 259.7 259.3 258.8 258.3 257.9 257.8 257.5 257.5 257.7 257.9 258.3 258.9 259.6 259.5 259.3 258.8 258.3 257.9 257 254.9 252.6 250.5 255.9 257.3 257.9 258.4 259.4 260.3 261.2 262.2 262.9 263.5 264.1 264.6 265.1 265.6 266.2 266.5 267.5 269.2 271.8 273.9 275.9 278.5 280.7 282.1 283 283.9 284.6 284.8 283.5 285.7 288 289.5 289.8 289.7 289.5 289.3 289.1 288.9 287 288.1 290.6 292.5 295.1 298.9 302.8 305.3 308.6 312.4 318.3 322.4 324.9 326.2 325.6 324.2 322.3 320.7 319.7 318.1 316.6 313.7 316.5 318.5 319.4 320.1 321.3 321.5 321 319.8 318.4 317.6 314.7 312.5 310.6 308.8 308.3 311.5 316.8 320.5 324 326.1 329.2 330.9 332.3 333.3 334.9 335.5 336.4 337.4 338.9 339.7 340.2 338.3 335.3 334.2 334.2 334.7 336.3 337.8 338.6 337.6
220.3 221.1 221.9 224.3 227.1 229.2 230.8 232.6 233.2 234.3 234.7 234.8 234.5 233.6 232.9 232.1 231.6 231.1 229.6 228.7 226.8 219.4 226.7 230.8 232.7 234.4 234.2 234 234 234.5 235 235.7 237.2 238.7 239.9 240.8 241.7 242.7 244.1 245.3 246.5 247.4 248.5 249.4 250.4 250.5 250.6 250.6 250.2 250.3 251 252 252.9 253.8 254.8 255.7 256.4 256.6 256.9 256.9 256.9 257 257.1 257.2 257.6 257.7 258 258.3 258.6 258.9 259 259.1 259.1 258.9 258.9 259 258.9 258.7 258.4 258 257.5 256.9 256.4 256 255.7 256 256.8 257 257 256.8 257.3 257 256.9 256.4 255.9 255.5 254.6 252.4 252.1 253.3 256.7 257.7 258.3 258.9 259.5 260.2 261.1 261.9 262.7 263.3 263.8 264.2 264.7 265.1 265.3 265.5 266.3 267.5 269.8 271.8 273.4 276 278.2 280.1 280.7 281.2 281.7 281.5 283.3 285.8 287.9 288 288.1 288 287.3 286.9 286.5 285.5 286.3 287.8 289.9 292.1 295 299.8 304.3 309.1 313.2 317.1 321.6 324.3 326.8 326.6 325.7 323.8 321.9 320.9 319.7 318.3 315.5 313.2 315.7 317.5 318.1 318.4 318.7 317.9 317.3 315.9 314.6 312.8 311 308.9 308.1 307.1 311.9 319.9 323.2 323.9 326.4 329.3 330.9 332.5 334.1 335 335.6 336.9 337.7 335.4 336.7 336.5 335.3 333.7 332.1 331.6 331.8 332.2 333.5 334.6 334.7 334.3
217.1 218.7 222 225 227.7 229.7 231.2 232 232.1 232.2 232.1 231.8 231.6 231.3 230.7 230.1 230.3 229.2 227.3 224.1 216.9 218.7 223.5 229 230.5 232.4 232.3 232.2 232.5 233 233.8 235.2 236.7 238 239.3 240.6 241.6 242.6 243.5 244.3 245.8 246.7 247.6 248.6 249.7 250.2 250.8 250.9 250.9 251.1 251.7 252.5 253.4 254.3 255.3 255.7 256 256.1 255.8 255.4 255.5 255.7 255.9 256.5 256.8 257 257.3 257.6 257.7 257.8 257.8 258 257.8 257.6 257.4 257.4 257.6 257.3 257 256.1 256 255.4 254.9 254.4 254.1 255 255.8 256.1 255.9 255.5 255.2 254.9 254.5 254 253.5 252.2 250.9 251.6 254.1 255.5 256.8 257.4 258.1 258.8 259.4 260.1 260.8 261.7 262.4 263.1 263.6 263.9 264.4 264.4 264.4 264.6 265.1 266.6 267.7 269.1 270.6 272.9 275.5 276.6 277.5 278.3 278.8 280.7 283.3 285.9 286.6 286.7 286.3 285.6 284.8 284.2 283.6 285.2 286.9 288.9 290.1 292.4 296.2 301.6 306.7 311.6 315.2 319.8 324.6 327.7 329.1 327.6 325.4 323.2 322.2 321.2 319.9 318.7 317.6 313.7 314.5 315.7 316.1 316.8 316.4 315.6 314.2 313.1 311.1 309.6 308.2 307 306.2 312 320.3 324.7 327 327.7 328.5 330.3 332.2 334.9 337.4 337.3 337.2 338.1 337.3 334.9 332.7 331.3 330 329.9 329 329.2 329.9 330 330.2 331.3 331.5 331.2
215.1 218.4 221.4 224 226.4 228 229.4 230.1 230.1 229.9 229.7 229.4 229.2 229.1 228.6 228.6 229 227.4 224.2 217.1 219.8 221.9 223.7 227.3 228.6 230.1 230.3 231.2 232.2 232.9 233.7 234.6 235.8 237.2 238.5 240.1 241 242 242.6 243.6 245.2 246.1 247.5 248.3 249.2 250.1 250.9 251.5 251.6 251.9 252.4 253.2 253.9 254.8 255.4 255.5 255.5 255.4 255 254.6 254.2 254.5 254.9 255.6 256 256.2 256.4 256.6 256.6 256.7 256.7 256.7 256.5 256.3 256 255.7 255.8 255.6 255 254.5 254.6 253.9 253.3 252.8 252.9 254.1 254.9 255.1 254.9 254.5 254 253.1 252.7 251.6 250.1 249.4 250 252.8 254.8 255.3 255.6 256.4 257.4 258.1 258.4 259.2 260 261.4 262.1 262.8 263.3 263.6 263.7 263.7 263.1 263.4 263.9 265.2 266.3 267.3 269.1 270.9 272.9 274.3 275.6 277.2 279 281.3 283.7 285.3 285.6 284.8 284.1 283.4 282.6 281.9 284.4 286.7 288.2 289.8 291.7 294.6 298.5 304.8 310 314 318.2 323.6 327.9 330.1 329.3 327.3 325.3 323.8 322.7 321.5 320.3 319.6 318.7 316.3 311.3 311.9 313.5 315.2 315.2 313.5 311.7 309.7 308.1 306.9 309.5 307.8 305.7 315.5 324.3 327.4 328.2 329.3 329.9 331.6 333.7 338.7 340.7 340.6 339 338 336.8 334.6 331.7 329.9 327.3 326.1 327 326.6 327.6 327.6 327.7 328.1 328.6 328.2
213.4 215.9 218.7 221.4 223.5 225.3 226.4 227.4 227.7 227.5 227.3 227 226.7 226.2 224.7 225.8 225.4 219.7 212.9 214.4 221 223.5 225.2 227.1 228.4 230.1 231.2 232.3 233.1 234.5 235.7 236.5 237 237.5 238.1 239.8 240.7 241.4 242.6 243.7 245 246.5 247.9 249.1 250.1 250.8 251.6 252.2 252.4 252.7 253.2 253.9 254.6 255.1 255.3 255.2 255 254.5 254 253.5 252.4 253.1 253.8 254.6 255 255.3 255.5 255.5 255.4 255.5 255.5 255.4 255.1 254.8 254.5 254.2 254.1 253.7 253.6 253.4 253.2 252.4 251.8 251.4 252.3 253.5 253.9 254.1 253.9 253.5 252.9 252 251.2 249.6 247.9 249 250.2 252.3 254 254.3 254.3 254.9 255.6 256 256.2 257.6 258.9 259 260.4 261.1 261 261.4 261.2 261.2 261.4 262.5 263.8 265 266.8 269 271.3 273.1 275.2 276.9 277.8 279.5 280.9 282.6 284.4 285.1 284.4 282.9 282.1 281.4 281.4 282.6 285 287.2 288.7 291.2 293.5 296.7 301 307.4 312.4 317.1 322 326.7 329.8 330.2 329.3 327.7 326.1 324.7 323.6 322.2 321.4 320.4 319.2 317.7 315.7 313.6 310.8 311.7 312.2 310.4 309 308.1 312.1 314.4 316.9 319.6 304.4 312 321.9 327.1 328.8 330.1 330.9 332.8 337.3 340.5 341.3 340.4 339 337.8 336.2 334.4 332.1 329.4 326.6 323.9 323.5 323.4 324.4 325.2 325.4 325.7 325.9 325.5
211.9 213.8 215.6 217.8 219.5 220.9 222.4 223.5 224.2 224.9 224.8 222.1 215.2 215.5 215.4 216.7 215.1 214.3 222 222.3 225 226.6 228.5 229.8 230.8 232.3 233.2 233.9 234.9 236.5 237.3 237.8 238.5 238.9 239.3 239.9 240.8 242.1 243.3 244.6 246 247.3 248.7 249.9 251 251.7 252.3 252.8 253.2 253.5 253.9 254.1 254.6 255 254.8 254.6 254.3 254 253.3 252.2 250.7 251 252.5 253.7 254 254.3 254.5 254.3 254.3 254.3 254.2 254 253.7 253.4 253.1 252.7 252.6 252.4 252.2 252.1 251.9 251 250.4 250.1 251.7 252.9 253 253.1 252.8 252.5 252 251.4 250.6 248.4 246.8 248.3 250 251.8 252.7 252.7 252.6 252.8 253.4 253.9 254.2 254.6 255 255.5 257.2 258 258.9 259.5 260.5 261.5 263.1 264.6 266.2 267.9 269.9 272.2 274.6 277.2 278.8 279.9 280.5 282 282.2 283.4 283.6 283.7 281.6 280.2 280.1 280.1 282.3 283.8 285.8 287.7 290.1 292.7 295.5 299.9 304 310.2 314.3 317.5 322.8 327.1 329.5 330.4 329.4 327.8 326.7 325.5 324.4 322.6 321.3 320.3 318.9 317 315.2 313.9 312 310.1 309.6 308.1 311.8 314.4 316.2 317.1 319.1 319 306.5 308.7 322.1 328 329.2 330.2 331.9 334.9 339.1 340.2 340.6 340 338.8 337.6 336 334.4 332.9 331.4 329.1 326.6 322 318.5 321.5 323.1 323.1 323.1 323.1 322.4
209.6 211.4 212.5 214.1 215.2 216.6 217.8 219.1 220.5 221.5 220.9 214.8 205.7 208 210 210.4 211.7 223 226 227.7 228.8 229.7 230.6 231.8 232.9 233.8 234.6 235.3 236.5 237.6 238.4 239.1 239.9 240.3 241 241.7 242.7 243.9 245.2 246.9 247.9 249.3 250.6 251.5 252.1 252.6 253.3 253.5 253.8 254.1 254.3 254.4 254.6 254.5 254.2 254 253.7 253.5 252.7 252.1 250.5 249.6 250.5 252.4 252.7 252.9 253 253 253 253 252.8 252.8 252.7 252.2 251.8 251.4 251.4 251.5 251.3 251.2 250.2 249.5 247.3 249.1 250.6 252 252.3 252.2 251.6 251.2 251 250.8 249.8 247.4 246.3 247.3 248.9 249.7 251.1 250.9 251.1 251.3 251.6 253.4 254.3 255.3 257.1 258.8 260.4 261.1 261.4 262.5 263.2 263.2 264.6 265.7 267.3 269.4 272 275.6 279.2 281.7 282.6 282.8 283.3 283.9 284 283.5 283.1 281.4 278.3 278.9 281.4 283.1 284 284.6 286.6 289.1 291.6 294.3 297 301 306.3 310.6 313.8 316.6 321.2 326.5 329.5 330.7 329.6 328.2 327 325.8 324.3 322.5 320.8 318.7 317.1 315.2 313.5 312 310.3 309.6 312.4 314.9 317.8 320 319.4 319.3 318.8 311 302.9 310.5 323.3 328.3 329 329.9 332.2 335.3 338.3 339.5 339.8 339.6 338.5 337.3 336.2 334.5 333.1 331.6 330.2 328.6 327 322.1 317.5 320.3 321 320.7 320 319
207.6 208.5 209.7 210.4 211.2 212.2 213.6 214.6 216.2 217.1 212.7 206.1 207.6 215.4 209.4 219.7 222.3 224.9 227.2 229.3 229.8 230.6 231.5 232.6 233.8 234.7 235.6 236.5 237.4 238.4 239.1 240 241.1 242 242.7 243.5 244.5 246.1 248.1 250.3 251.5 252.4 252.9 253.2 253.6 253.9 254.1 254 254.2 254.3 254.4 254.5 254.2 253.9 253.7 253.4 253.1 252.8 252.4 251.9 250.7 248 248.6 251 251.3 251.5 251.5 251.5 251.5 251.7 251.7 251.7 251.6 251.2 250.6 250.2 250.2 250.4 250.5 249.8 248.4 247.8 246.8 248.8 249.8 251 251.6 251.1 251.1 251.2 251.1 250.6 249.6 246.7 245.9 246.5 246.7 246.6 248.3 248.8 250.2 251 253 254.2 256.3 257.9 260.1 261.5 262.8 263.8 264.3 264.8 265.2 265.5 265.9 266.6 268.1 269.8 273.8 279 282.9 284.6 285.2 285.2 285.1 285 284.4 283.6 282.7 281 278.9 281.3 282.3 283.2 284.1 285.2 286.7 288.7 290.6 293.2 296.9 302.3 307.9 311.7 312.5 315 318.9 325.5 329.8 330.7 329.9 328.8 326.8 324.7 322.7 320.6 318.2 316.7 315.1 313.4 311.8 311.1 312 314.3 316.7 319.6 322 322.4 322.4 320 311.4 301.2 304.9 317.7 326.3 327.6 327.7 329.9 332.7 335.3 337.2 338 338.6 338.3 337.9 336.9 335.8 334.6 333.4 331.7 330.1 328.4 326.8 323.7 317.6 316.6 318.9 318 316.5 315.5
206.4 206.9 207.6 208.1 208.8 209.2 209.8 210.8 211.5 211.7 206.2 209.3 215.3 217.8 219.8 221.3 223.4 224.8 226.8 228.3 229.7 230.5 231.4 232.8 234.4 235.5 236.4 237.3 238.1 239 239.8 240.6 241.7 243 244 245.1 246.5 248.8 251 253 253.8 254.1 254.3 254.3 254.2 254.2 254.1 254.1 254.1 254.3 254.3 253.8 253.6 253.3 253.1 252.7 252.3 251.8 251.7 251.3 250.1 246.7 246.8 248.8 249.3 249.9 249.9 250 250.2 250.5 250.6 250.7 250.5 250.1 249.4 248.4 249.3 249.3 248.8 247.9 246.8 244.9 246.2 248.2 248.6 249.4 250 248.8 250.1 250.3 250.6 250.2 248.5 245 245.9 248.4 249.9 250.1 251.1 250.7 251.4 252.9 254.8 256.3 258 260.2 263.2 264 264.9 265.8 266.2 266.6 266.5 266.5 266.6 267.4 268.7 270.5 274.3 278.3 282.5 284.8 285.4 285.5 285.5 285.2 284.6 283.8 282.8 280.8 275.3 279.3 281 282.2 283.1 284.2 285.8 287.4 289.2 292.3 296.3 302.6 309.2 313.4 312.9 313.1 317.3 323 327.5 329.6 329 327.2 325.1 322.8 320.1 318 316.4 315 313.5 313.8 312.9 314.3 316.6 319 321.4 322.9 323.3 323.4 322.1 318 307.5 300.2 314.8 324.5 327.6 327.6 327.1 329.3 332.4 334.5 335.4 335.7 336.8 337.4 337 336.2 335.7 334.9 333.5 331.6 329.9 328.2 326.5 323.8 318.5 310.5 316.4 314.5 313 311.7
205.1 205.6 205.8 206.1 206 206.3 207 207.1 207 205.1 203.1 211.3 213.5 215.1 217 219.1 221.1 223.4 225.5 227.2 228.5 229.5 230.4 231.8 233.1 234.2 235.5 237.2 238.6 239.5 240.4 241.2 242.4 243.6 245 246.5 248.9 250.8 252.7 253.8 254.3 254.6 254.6 254.5 254.4 254.3 254.2 253.8 253.6 254.2 253.6 253.3 253 252.7 252.4 251.7 251.3 250.9 250.7 250.3 249.2 248.1 245.9 245.3 247 248.2 248.4 248.6 248.9 249.3 249.4 249.6 249.3 248.8 248.1 246.9 247.2 246.7 246.2 244.7 245.8 242 245.4 246.3 246.6 247.1 247.7 248.3 248.7 248.9 249.2 248.3 246.7 245.6 248.6 249.9 250.9 251.9 252.4 252.8 253.3 254.6 256.3 257.9 259.4 260.9 263.9 266 266.9 267.8 268 267.7 267.5 267.5 267.4 268.1 269.2 271.3 273.7 277.4 281.4 284.4 285 285.2 285.2 284.8 284.3 283.8 282.6 281.4 276.9 276.5 280.2 281.9 283.1 284.4 285.7 287.2 289.9 292.8 296.2 301.7 306.1 309.2 310.3 311.5 315.6 319.3 322.4 326.3 326.7 325.5 325 323.3 319.8 317.2 315.4 315.3 316 316.8 317.2 319 321.6 322.7 323.4 323.8 323.7 322.6 321.3 318.1 305.6 299.2 314 324.7 327.5 327.7 326.5 329.1 331.2 332.6 332.9 333.9 335.9 337 337.1 336.6 336 335.1 333.7 331.7 329.9 328.4 326.6 324 321.7 315.3 308 310.1 309.6 308.3
204.1 204.4 204.1 202.9 200.5 199.5 201.1 200.7 199.8 205.4 208.5 211.1 212.5 213.5 215.2 216.6 218.7 221.3 223.3 225.6 227.4 228.7 231 232.3 233.5 234.3 235.8 237.5 238.8 239.9 240.9 241.8 242.9 244.1 245.4 248.4 250.6 252.4 253.6 254.1 254.7 254.7 254.3 254 253.7 253.4 253.3 253.2 252.9 252.7 252.7 252.7 252.4 252.1 251.6 250.9 250.3 249.9 249.6 249.2 248.9 248.4 247.2 243.8 243.8 245.3 246.8 247.3 247.9 248.1 248 248 247.7 247.4 246.9 246 245.2 244.3 244 242.9 243.1 239.1 241.9 242.2 241.8 242.3 239.4 243.5 244.4 244.5 244.6 244.5 247.4 248.2 249.9 250.6 251.5 252.5 253.3 254 254.8 255.7 256.8 258.3 259.8 261.3 263.7 267.5 268.6 269.2 269.3 269.1 268.6 268.4 268.3 268.8 270 271.4 273.1 276.3 279.5 282.3 284 284.4 284.4 283.9 283.2 283 282.6 281.4 277.2 275.7 281.7 282.8 283.6 284.8 286.2 288.2 289.7 291.6 293 296.6 300 303 304.8 309.1 314 317.2 320 322 323.6 323.5 323 321.7 319.7 317.4 316.8 317.7 319 320.8 321.8 322.1 322.8 323.3 323.4 323.6 323.4 322.1 319.6 312.1 301.3 296.6 308.9 323.7 326.5 325.8 324.6 327.3 327.3 330.6 333.4 335.6 336.4 335.7 335.6 335.6 336.1 335.7 333.9 331.5 329.6 328 326.3 324.2 321.2 317.4 311.5 305.6 305.8 305.2
201 196.3 193.8 191.9 202.2 204.6 203.7 204.8 206.7 208 209.3 210.6 211.9 212.8 214.3 215.6 216.8 218.2 219.7 222.5 225.3 227 228.6 230.3 232.1 234.4 236.1 237.7 239 240 241.1 241.9 242.8 243.9 247 249.9 251.6 252.7 253.5 253.7 253.9 253.6 253.3 252.8 252.6 252.4 252.1 251.8 251.7 251.5 251.6 251.7 251.8 251.4 250.9 250.1 249.3 248.8 248.5 248.1 247.8 247.7 247 245 242.3 242.1 243.3 245.4 246.6 246.5 246.4 246.3 245.9 245.5 245 244.3 243.7 240 242.1 241.9 238.9 235 235.9 236.9 237.5 240.9 240.8 245.4 242.3 245 248.4 248.9 249.1 250.3 250.6 251 251.7 252.5 253.4 254 254.6 255.6 256.9 258.4 259.8 261.4 262.9 266.4 266.8 267.4 267.7 268.1 268.4 268.2 268.6 269.5 270.7 271.8 273 275 277.5 280 282 282.5 282.4 282.3 282 281.7 281.1 279.5 271.1 277.3 282.3 283.1 283 284.2 286 287.5 287.1 287.2 288.9 291.5 294.7 298.2 301.6 305.5 310.2 314.8 318.1 320.5 321.6 321.4 321.2 320.8 319.4 318.9 319.6 321.1 322.6 323.5 324.7 324.2 323.4 323.4 323.4 321.9 323 321.2 317.2 306.3 296.1 300.9 317.1 323.2 323.8 323.1 321.2 321.3 325.3 330.1 331.8 332.8 333.1 332.8 332 335.2 336 335.5 333.5 331.3 329 326.8 324.8 322.4 319.6 316.6 312.7 307.1 302.4 300.1
187.7 195.2 201.4 205.3 206.2 207 207.8 207.9 208.8 209.4 210.4 211.2 211.9 213 213.9 215 216.1 216.9 217.9 219.2 220.8 222.8 224.6 226.4 229.2 232.1 234.3 236.4 237.9 239.3 240.4 241.2 243.2 244.5 247.8 249.5 250.9 251.9 252.3 252.7 252.8 252.6 252.2 251.8 251.5 251.2 250.7 250.5 250.4 250.4 250.5 250.5 250.7 250.5 250.1 249.3 248.6 247.6 246.8 247 246.7 246.6 246.5 245.6 243.6 241.8 240.6 242.4 244.5 245 244.7 244.2 243.5 242.9 243 242.5 241.1 238 240.3 240.3 233.7 238.2 242.3 243.8 245.4 246.7 248.4 249.4 249.2 249 249.7 250.5 250.6 250.3 250.7 251.4 252 252.6 253.2 253.9 254.5 255.5 256.9 258.4 259.8 261.2 262.4 263.9 264.5 264.8 265.3 265.9 266.3 267.2 267.6 269.7 270.9 272.1 273.2 274.8 276.8 278.5 279.6 280 279.7 279.6 279.4 279.1 277.9 275.6 271.2 278.1 280.8 281.4 281.2 281.8 282.9 283.4 283.4 284.1 285.5 288.2 291.5 294.6 297.8 300.5 304.5 309.5 313.9 317.9 319.4 319.5 320 320.6 320.7 321.4 323 324.1 325 328.2 328.8 327.6 325.9 324.7 313.3 310.7 318.7 320.1 312.4 301.9 295.7 305.6 319 319.2 319.5 319.6 319.1 317.4 323.2 326.1 327.4 328.7 329.4 327.5 329.9 333.3 335.1 334.3 331.6 329.3 327.1 324.6 321.9 319.2 316.3 313.3 310.2 306.3 302.3 298.1
200.6 202.8 203.6 205.8 207.1 208.1 209.9 210.6 211.3 211.7 212.1 212.3 212.7 213.6 214.1 214.8 215.6 216.3 217.1 216.9 218.5 220 221.8 223.6 225.9 228.7 231.2 233.5 235.2 237 238.3 240.2 242.4 244.6 246.4 247.6 248.7 249.7 250.6 251.1 251.5 251.5 251.1 250.7 250.3 249.9 249.4 248.9 248.8 249 249 249.1 249.6 249.4 249.6 249.2 248.6 247.8 246.5 245.6 245.8 245.9 245.9 245.3 244.4 243.2 240.1 240 242.6 242.7 242.6 242.1 241 239.9 240.2 239.7 238.5 235.6 237.7 237.7 232.7 240.6 242.6 245 246.2 247.5 248.9 249.7 250 250.5 251.1 251.2 251.1 250.1 250.5 251.1 251.7 252.4 252.9 253.6 254.3 255.5 256.8 258.2 260.1 260 260.7 261.6 261.6 260.7 261.4 262.4 264 265.5 266.7 269.1 271.2 272.3 273.8 275.3 276.2 276.8 277 277.3 276.7 276.3 276 275.6 274.2 271.5 270.1 274.7 278 279.4 279.6 279.8 280 280.5 281.1 282.3 283.7 286.3 288.6 291.5 294 296.3 300.2 304 308.4 312.8 316.9 319.5 321.4 322.5 323.3 325.3 326.8 326.5 326.3 329.7 328.1 315.5 312.1 307.7 303.3 303.3 313.3 317.7 314.9 306.9 296.6 298.2 310.4 312.6 312.1 314 315.5 315.7 316.7 318.8 322.4 323.2 322.8 323.3 328.4 331.4 332.4 331.3 329.5 327.1 324.4 321.3 318.5 315.8 313.1 310.2 307.3 304.5 301.2 298
198.2 198.9 200.1 204.2 208.3 210 211.7 212.7 212.4 213.1 213.2 213.3 213.2 214.2 214.8 214.5 215.1 215.7 216.2 215.7 216.3 217.9 219.5 221.4 223.5 226 228.1 230.5 233 235.1 237.2 239.2 241 242.5 243.8 245.1 246.5 247.8 248.7 249.3 249.7 249.9 249.8 249.4 249.2 248.4 247.6 247.1 246.9 247.5 247.6 248.1 248.5 248.7 249.2 249.5 248.9 248.3 247.4 246.3 245.4 245.5 245.3 244.7 243.8 242.7 240.2 237.9 239.9 239.3 239.4 239.3 238.5 237.9 237.7 237.7 236 231.5 233.5 229.8 233 238.8 242.1 244.7 246.5 247.9 249.3 250 250.6 250.6 250.6 250.6 249.8 248.8 249.8 250.5 251.1 251.8 252.5 253.2 253.9 255.1 256.5 258 258.2 258 257.8 257.6 257.3 257.6 258.6 260.2 262 263.8 265.7 267.5 270 271.7 272.7 274 274.5 275.1 275.5 274.8 274.4 273.7 273 272.3 271.3 269.2 269.7 272.8 275.3 277.1 278.1 278.3 278.5 278.8 279.7 280.7 282.1 284 286.2 288.3 291.5 294.9 298.2 301.7 305 312 312.2 317.6 322.7 324.3 328.7 328.2 326.9 327.4 327.1 326.4 316.7 314.3 308.5 307.4 304 303.2 310.9 310.7 309.2 307.2 302.4 292 301 304.2 310.1 313.8 314.7 316.6 316.3 313.8 315.4 318.6 318.9 322.9 325.8 327.4 328.3 327.8 326.4 324 320.9 317.9 315.2 312.2 309.6 307 304.2 302.1 299.3 296.9
192.4 194.4 196.4 201.5 205.7 207.2 208.3 208.2 209 209.6 210 210.7 212.1 213.9 214.4 214.5 214.6 215.2 215.6 215 214.8 215.9 217.3 219.1 221.1 223.5 226.2 229 232 234.1 236.9 238.8 240.2 241.4 242.2 243.3 244.6 245.9 246.6 247.4 247.9 248.3 248.5 248.3 248.1 247.3 246.4 245.6 245.4 245.9 246.7 247.9 248.8 249.3 249.8 249.8 249.2 248.7 248.2 247.2 246.1 244.1 244.2 244.1 243.2 241.4 239.3 235.8 237.4 236.7 236.1 236.2 235.8 236.2 234.5 233 225.8 226.6 228.1 233.6 237.1 240.2 242.9 245.5 247 248.3 249.6 250.3 250 249.5 248.4 248.6 247.7 247.3 248 248.9 249.6 250.3 251 251.9 253.5 254.8 256.1 256.8 256.3 255.7 255.3 254.9 254.9 255.3 257.5 259.5 260.8 262.4 264.1 265.6 267.9 270.1 271.4 272.2 272.3 272.3 272.6 272.3 271.9 271.5 271 270.1 269.1 266.5 270.4 273 275.6 276.6 276.8 276.9 277.1 277.2 278.1 279.2 280.2 281.8 283.4 285.8 290 293.9 297.4 300.5 303.8 311.8 318 312 313.6 315.3 330.8 329.3 327.4 325.1 324 322 319.7 317.6 316 314.8 314 311.6 310.3 310.2 308 304.5 301.2 293.8 294.7 299.8 304.8 307.3 310.5 311.4 312.1 312.1 310.1 313.7 316.3 319.9 322.3 323.5 324.3 323.9 322.4 320 317.2 314.3 311.4 308.7 306 303.5 301 299.3 297.1 294.7
191.1 193 194.6 196.5 198.4 199.7 200.9 201.7 203.8 205.1 206.9 208.7 210.7 212.6 213.3 213.6 214.2 214.9 214.9 213.9 213 214.1 215.3 217 219.7 222.5 225.1 227.9 230.9 233.6 236.5 238.6 240.2 241 241.5 242.1 243 243.9 244.6 245.3 246 246.9 247.3 247.2 247 246.2 245.2 244.2 244.4 246.1 247.7 248.8 249.6 250 250.3 249.9 249.5 249 248.4 247.9 246.2 243.9 240 240.8 240.8 239.3 237.3 233.7 234.6 234.3 233.6 233.5 233.2 233.1 231.7 229.4 226.1 232.9 236.4 237.8 239.1 241.3 244 246.5 248.2 249.2 249.3 248.6 246.5 244.9 244 243.8 243.8 244.3 246.1 247.4 248.1 248.9 249.4 250.5 252.7 254.6 255.8 256.1 255.1 254.1 253.4 252.9 253.2 255.3 257.1 258.9 259.9 260.8 262.2 263.8 266 268.2 270 270.1 270.2 270.5 270.6 270.2 269.9 269.5 269.1 268.2 267.4 267.8 270.6 273.3 275.6 275.5 275.4 275.4 275.5 275.8 276.2 277.1 278 279.1 280.8 284 287.2 291.1 296 300 302.8 311 317.9 313.1 312.1 314.1 328.3 327.3 325.5 324.1 322.5 320.8 319 316.7 314 311.9 310.5 309.3 308.4 307.7 306 303.8 301.1 292 291.2 303.9 303.3 300.5 303.5 305.9 306.8 307.7 304.8 309.2 313.8 317.1 318.4 319.6 319.8 319.4 317.8 315.6 313 310.3 307.8 305.2 302.5 299.9 298 296.7 293.4 291.1
192.2 193.4 194.7 196.1 196.9 197.9 199.4 200.9 202.7 204.6 206.4 208.1 209.8 211.4 212.7 213.2 213.4 213.7 213.3 212.1 212 213.1 214.3 216.4 219 221.6 224.4 227.2 229.9 233.1 236.2 238.3 239.3 239.9 240.5 240.9 241.7 242.1 242.8 243.4 244.1 245.3 246 245.9 245.9 245.1 243.9 242.8 244.6 246.5 248.2 249.1 249.8 249.7 249.7 249.2 249.3 249.1 248.6 248.1 246.9 244.3 242.5 239.2 235.8 236.6 235.5 232.8 230.9 231.5 231.1 231 230.8 230.9 229.9 223.4 227.3 233.2 235.4 237.5 239.1 240.8 243.9 245.8 246.4 246.9 245.6 243.4 241.2 240.1 240.5 240.8 241.3 242.6 244.6 245.9 246.7 247.5 248 249.8 251.9 253.5 254.7 254.6 253.5 252.7 251.9 251.5 253.4 256 257.4 257.8 258.4 259.4 260.9 262.8 264.9 267.2 268.4 268.9 268.8 268.8 268.8 268.6 268 268 267.7 266.9 265.6 267.9 270.9 273.1 274 274 273.7 273.7 274 274.3 274.6 275.1 275.9 276.8 278.7 281.2 284.6 288.9 293.8 298 300.6 310.8 317.5 317.2 312.4 312.8 319.7 324.9 323.9 322.5 320.7 319.1 316.6 313.9 311 308 307 306.2 306.1 306 304.7 302 296.6 287.6 288 303.4 303.8 299.6 298.6 301.6 302.6 303.5 302.1 306.9 311.4 313.1 314.7 315.2 314.9 314.1 313.1 311.1 308.7 306.4 304.2 301.5 299 297 295.6 294.4 291.6 290.1
193 193.9 194.8 195.9 196.7 197.9 199.3 201 202.9 204.8 206.7 209 210.7 212.3 212.6 213 212.1 211.3 210.7 210.9 211.8 212.6 214.1 215.7 218 220.2 222.6 225.2 228.5 231.7 234.5 236.5 237.5 238.3 239.1 239.7 240.2 240.2 240.9 241.6 242.3 243.6 244.5 244.2 243.8 243.1 240.9 240.6 243.2 245.5 246.8 247.9 248.5 248.4 248.7 248.6 248.8 248.7 248.5 247.9 246.3 243 239.8 237 233.6 231.9 232.6 231.4 228.3 229.4 229.1 228.7 228.8 228.6 225.4 223.3 228.1 231.3 233.2 234.9 237.7 239.9 239.2 239.6 239.3 239.2 239.3 238 237.8 237.9 238.4 239.1 240.4 241.5 243.4 244.6 245.5 246.2 246.9 249 251 252.2 252.5 252.5 252.3 251.6 250.8 250.1 252.8 254.9 254.9 255.9 256.9 258.4 260.3 262.2 264.2 266.3 267.2 267.7 267.7 267.7 267.2 266.8 266.3 266.4 266.2 265.4 266.1 269.2 270.5 271.5 272.4 272.2 272.1 272.1 272.4 272.5 272.6 272.9 273.8 274.6 276.4 279.3 282.9 287 291.6 294.7 298.4 307.6 314 319.4 312 312.9 313.8 323.6 322 319.8 317.9 315.5 312.8 309.8 306.5 304.3 304.3 304.4 304.8 305.2 305 303.6 296.8 287.8 283.8 298.3 299.5 298.2 298.2 297.8 298.4 298.8 303.5 305.5 308.4 309.8 310.1 309.8 308.6 307.6 306.4 306.1 304.8 302.8 300.6 298.2 295.9 295 293.6 292.3 288.7 292.7
191.5 192.6 193.9 195 195.9 196.8 198.2 200.8 203.6 206.5 209.3 212.5 214.9 216.1 215.5 213.5 212 210.5 209.2 210.6 211 211.8 212.9 214.2 216 218.2 220.5 223.5 226.5 229.5 232.6 235 236 237 237.9 237.6 237.8 238.1 238.9 239.6 240 240.6 240.9 240.9 240.4 239.6 237.9 238.2 239.9 242.3 243.6 244.7 246.4 247 247.6 247.9 248.2 248.3 247.7 245.2 241.9 238.8 236 233.5 230.8 228.1 229.1 227.7 226.3 228 227 226.2 227.9 227.6 223.6 222.2 228.7 230.4 231.4 232.7 233.7 234.3 234.4 234.6 234.8 235.1 235 235.6 235.6 235.7 237.2 238.4 239.6 240.7 242 243.2 244.2 245 245.8 247.7 249.3 250.2 250.7 251 250.4 250.1 249.8 249.5 251.4 252.6 253.5 255.1 256.7 258.5 260.3 262.1 264 265.8 266.8 267.4 266.9 266.9 266.2 265.1 264.5 264.2 264.2 265.5 267.4 269.4 270.3 271.1 271.3 270.8 270.1 270.4 270.7 270.9 270.9 271.1 271.7 272.8 274.9 278 281.4 284.8 288.5 291.7 297.2 303.5 310.4 315.8 314.5 312.9 321.6 320.9 319 316.7 314.4 311.8 309 306.1 303.2 302.5 302.8 303.6 303.9 303.7 303 302.1 296.8 286.4 285.2 293.1 295.5 296.1 293.7 294.8 297.5 297.3 302.3 304 304.5 305.1 305.3 304.5 302.8 301.3 300.1 301.7 300.8 299.6 297.4 295.4 293.6 293.4 291.5 287.5 290.7 293.8
190 190.9 192.1 192.9 194 195.2 197.1 200.3 205 209.2 214.2 217.6 218.1 216.8 214.6 212.3 210.9 209.5 208 209.1 210 210.7 211.7 212.8 214.6 216.4 218.1 221.1 223.6 226.1 230 233.5 235.2 236 235.7 235.4 235.5 236 236.8 237.5 237.8 237.6 237.7 237.6 236.8 235.9 235.1 235.5 236.9 238.7 240.5 242.3 243.8 245.5 246.9 247.9 248.3 247.5 245.1 242 238.7 235.2 232.9 230.4 228.4 226.7 225.2 224.7 225 226.7 226.4 224.4 224.3 221.4 221.2 222.9 227.1 228.8 230.7 232 232.5 233 233.3 233.7 234 233.8 233.6 233.6 233.7 234.8 236.5 237.8 238.9 239.6 240.4 241.8 242.9 243.2 244 245.2 246.9 248.4 249.5 249.7 249.2 248.2 248.2 249.3 251.6 252.6 253.8 254.9 256.9 258.6 260.3 262 263.9 265.3 266.8 267.3 266.7 266.2 265.5 264.1 263.1 265.5 267.3 268.2 268.8 269.6 270.3 270.5 270.3 269.4 268.5 268.9 269.1 269 269 269.4 270 271.7 274.1 276.9 280.3 283.7 286.3 289.4 294 299.3 306.2 311.6 315.3 318.9 318.7 315.9 314.4 312.5 309.9 307.5 305 302.8 301.1 301.5 302.5 302.7 301.5 300.9 299.8 298.8 296.7 288.6 282.9 287.6 292.8 293.1 292.5 291.3 296.3 296.3 299.7 301.2 301.7 301.9 302 301.1 299.7 299.2 298.5 297.2 295.2 295.5 294.3 292.4 291.3 291.3 289.3 287.9 291 293.6
189.3 190.9 192.4 193.1 194 194.7 195.9 198.3 203.2 210.5 214.7 215.8 214.9 213.5 212.4 210.9 210.2 209.2 207.8 207.1 208.1 208.8 209.5 210.5 211.9 213.6 215.1 217.3 219.5 222.2 225.9 229.2 231.5 233.1 233.6 233.3 233.1 233.7 234.5 235.3 235.7 235.5 235.4 235.3 233.8 232.8 232.8 233.5 234.5 235.4 237.9 239.8 241.2 242.9 243.9 245.6 246.3 244.2 241 237.7 234.4 231.3 229.4 227.3 226.4 225.6 224.4 223.3 221.7 223.7 223.6 219.9 219.3 220 220.8 223.3 227.2 229.2 231.1 232.7 233.4 232 232.4 232.8 232.8 232.5 232.2 232.1 232.2 233.7 235.6 237 237.8 238.3 238.8 240.3 241.4 241.4 242 243.9 246.2 247.4 248.3 248.6 248 246.9 248.6 250.2 252.3 253.6 254.5 255.6 257.2 258.8 260.4 262 263.8 265.8 266.9 267.1 266.4 265.8 264.4 262.9 263.7 266.3 268.4 269.3 269.5 269.1 269.3 269.4 269.5 268.4 267.3 267.6 267.9 267.5 267.3 267.8 269.4 271.4 273.6 276.1 279.4 282.6 284.4 286.9 290.5 295.7 300.9 305.9 309.1 311.4 312.5 311.1 309.9 308.6 306.9 305.3 303.7 301.5 300 300.7 302.3 301.4 299.7 298.7 297.8 296.6 294.8 292 283.4 282.5 291.7 294.1 294.6 291.2 291.9 295.3 298.4 298.1 298.9 299 299.2 298.4 297.4 296.6 296.5 295.5 293.7 292.8 291.7 290.7 289.9 288.8 286.8 282.8 288.6 291.3
190.5 192.3 193.1 193.3 193.4 193.9 194.4 194.9 198.4 204.9 208.6 211.5 211.2 210.9 209.8 208.6 207.6 206.6 204.5 205.8 205.7 207.2 208 208.7 210 211 212.3 213.5 215.3 217.2 220.1 221.9 224.4 227.4 228.6 228.6 229.6 231.3 232.5 233.1 233.6 233.4 233.3 233.2 231.6 230.3 230.8 231.1 232.1 232.3 233.8 234.7 232 232.4 232.4 238.7 239 236.9 234.1 231.6 229.3 228 226.5 225.8 225.1 224.4 223.3 222.2 218.6 221.3 219.9 217.5 218.7 219.1 220.4 221.2 224.7 228.5 231.3 231.9 232.6 231.1 231.6 231.9 231.5 231 230.2 229.6 230.4 232.6 234.6 236.1 236.7 237.2 237.3 238.4 239.2 239.5 239.8 242.6 244.4 245.8 245.9 246.5 246.2 248.7 250.4 251.1 252.7 254 255 256 257.5 259 260.6 262.1 263.8 265.7 266.8 266.8 266.4 265.2 263.1 262.1 264.4 266.6 268.6 269.5 269.2 268.9 268.6 268.3 268.5 267.4 266 266.6 266.7 266.4 266 267.2 269.1 271.1 273.2 275.5 278 280.9 282.4 284 287.2 291.6 296.2 300.3 302.6 304.6 308.8 308.3 306.5 305.3 304.5 303.9 302.3 300.6 298.9 300.2 300.2 299.1 297.9 297.3 296.3 294.9 293.2 291 286.4 280.9 290.5 294.5 293.9 292.1 288.8 296 297.9 298 296.7 296.7 296.8 296.3 295.7 294.7 293.5 293.1 292.3 291 290.4 289.8 289.1 287.7 286.2 279.3 279.5 286
189.5 191.1 191.8 192 191.9 192.4 192.6 192.5 193.6 198.1 201.5 205.3 206.8 206.9 206 204.6 201.4 201.3 203.9 206 206.6 207.2 207.6 208 208.1 208.2 208.6 209.5 210.4 212.1 213.3 214.5 216.4 219.6 220.9 221.4 224.8 228.2 228.7 229.8 230.9 231 231.3 231 229.6 228.6 229 229.3 229.5 229.6 230 231.4 231.7 231.3 231.3 232.7 230.8 229.3 228.4 227.3 226.4 225.9 225.3 224.8 223.8 223.1 222.3 221.4 219.8 219.1 216.6 216.1 219 223.9 225.8 228.3 220.9 223.7 225.1 226.7 226.7 227.9 229.8 230.4 230.1 229.4 228.5 227.6 226.6 229.4 230.8 232.7 234.4 235 235.3 235.5 236.3 236.1 237.3 239.4 241.1 242.3 243.1 245.5 247.9 250.4 251.6 252.2 253.2 254.4 255.3 256.3 257.8 259.3 260.5 261.8 263.5 265.2 266.4 266.5 266.4 264.4 262 261.4 264.6 266.5 268.2 269 268.6 268.4 267.9 267.6 267.5 266.2 264.9 265.6 265.4 265 265.3 267 269 270.7 272.5 274.3 276.7 279 280.4 281.6 284 287.3 291.5 294.7 297.4 299.6 304.5 306.4 304 302.6 302.8 302.6 302 300.4 299 297.8 297.2 296.3 295.5 295.2 293.9 292.8 291.3 289.1 285.2 279.7 288.8 292.8 294.2 292.1 287.2 293.9 296.6 296.9 296 295.2 294.2 294.4 293.9 293 292.1 291.6 290.7 289.9 289.5 288.9 288.2 287.1 285.9 283.3 276.6 278.7
186.4 188.2 189.1 189.9 190.4 190.5 190.7 190.7 190.7 191.8 194.5 199.4 202.8 203.6 203.5 203 199.1 202 202.5 201.9 202.3 202.5 202.2 202.9 203.5 204 205.1 206 206.7 207.5 208.3 209.6 210.4 211.3 212.3 214.9 218.2 221.9 221.5 223.7 224.9 225.2 225.9 226.1 225.8 226.6 227.1 227.6 227.6 227.6 227.4 227.6 227.8 228.5 228.3 227.7 226.9 225.8 225.8 225.3 225 224.9 224.4 223.9 223.7 222.7 221.2 219.6 215.9 215.7 216.6 218.8 219.7 224.8 227.1 229.6 229.5 221.7 222.2 224.9 227.1 225.2 226.1 228.2 228.6 226.1 228.9 230.1 229.7 229.4 229 229.4 231.4 232.9 233.4 233.6 234.2 236.3 239.9 243.3 245.5 246.3 246.8 248.8 249.9 251.4 252.3 253.2 253.9 254.7 255.7 256.6 258 259.2 260.4 261.6 263 264.2 265.2 266.1 265.9 265.1 262.6 261.5 262.4 264.9 267.4 268 267.7 267.4 267.2 266.9 266.6 265.7 263.9 263.8 263.7 263.5 264.9 266.8 268.4 270.2 271.9 273.5 275.2 277.1 278.8 279.9 281.1 283.1 287.4 290.3 293.1 296.4 298.6 301.9 300.6 300 301.1 301.1 301.3 300.8 299.5 298.3 297.4 296.2 295 293 290.7 289 286.9 285.1 282.3 277 290.5 293.2 293.5 292.2 285.7 291.3 294.4 295.7 295.2 294.1 292.9 291.3 292.1 291.6 290.9 290.7 290.2 289.4 288.7 288.1 287.1 286.2 284.8 282.9 278.8 275.4
184.8 185.8 186.6 187.3 187.7 188 188.1 188.3 188.4 188.6 189.5 192.9 195.3 196.5 196.3 195.8 194.4 193.8 193.9 194.7 195.8 196.5 197.5 198.8 200.1 201.1 202.2 203 203.7 204.5 205.2 205.8 206.9 206.9 206.1 208.2 210.4 212.5 214.4 215.9 218.1 220 221.4 222.1 222.7 223.9 225.3 225.8 226 225.4 224.8 224.9 224.9 224.8 224.7 224.4 223.7 223.2 223.5 223.7 223.8 223.8 223.9 223.9 223.8 222.5 220.5 218.9 214.3 215.4 218.1 220.9 223.5 226.3 228.2 229.7 230.2 229.5 229.9 230.2 231.4 230.5 227.6 226.3 227.3 229.8 232.2 233.4 233.9 233.1 232.3 231.3 230 230.2 231.3 231.6 233.1 236.5 240.8 244.2 246.8 247.5 249 250 251 252 252.7 253.5 254.2 254.9 255.8 256.6 257.6 258.7 259.9 261 262.4 263.7 264.7 265.3 265.7 265.3 263.5 262.1 259.9 261.1 264.2 266 266.2 265.9 265.6 265.5 265.3 265 263.5 262.1 262.1 262.5 264.4 266.2 267.7 269.4 271 272.5 274.1 275.9 277.2 278.1 278.8 280.8 283.9 286.9 291.1 293.4 294.5 296.7 297.2 297.3 299.1 300.7 300.9 300.8 300.1 299.3 298.4 297.3 296.5 295.7 293.7 292 289.5 285.4 281.1 274.8 285.3 292.5 292.8 291.1 283.9 290 292.7 293 293.1 292.3 291.4 289.5 288.5 289.5 290.6 290.6 290.3 289.5 288 286.9 285.8 284.6 283 280.6 277.9 274.1
185.1 185.3 185.6 185.5 185.7 185.8 186 186.2 186.3 186.5 186.7 187 188.2 188.8 189.3 189.4 189.8 189.6 190.5 191.7 192.9 194.1 195.3 196.4 197.3 198.2 199.3 200 200.7 201.5 202.3 202.7 203.4 201.1 204.8 207.3 208.4 210.5 212.5 214.3 215.8 217.2 218.4 218.1 219.3 221.9 223 223.8 223.9 223.2 222.5 222.5 222.5 222.5 222.6 222.4 222 220.7 221 221.5 222.3 223 223.6 223.7 223.3 222.1 219.9 213.5 214.8 217.1 219.6 222.5 225.3 227.6 229 230.2 230.6 231 231.4 232 231.9 229.9 228.7 228 229.8 232.8 234.8 235.6 236.4 235.7 235.6 235 234.9 234.1 234.5 235.1 233 235.3 238.5 241.8 245.9 248.5 249.8 250.7 251.4 252.1 252.8 253.5 254.2 254.9 255.6 256.5 257.4 258.4 259.4 260.5 261.7 263.1 264 264.6 265 265.1 264.4 262.5 260.5 258.6 260.1 262.1 264.1 264 263.9 263.9 263.7 263.5 262.9 261.5 260.9 262 263.8 265.6 267 268.5 269.9 271.4 273 274.3 275.7 276.1 276.5 277.7 281.4 284.5 288.3 290.4 289.6 290.5 292.1 295.1 297.6 299.7 300.6 300.7 300.9 300.1 299.3 298.2 297.8 297.3 295.2 293.1 290.8 287.4 282.8 278.2 276 281.3 287.8 290.4 285 287 289.4 290 290.4 290.6 290.5 289.7 287.5 288.1 289.3 289.5 288.8 287.9 286.6 285.2 283.8 282.5 281.1 279.4 277.7 276.1
185.2 185.4 185.4 185.1 185.1 184.1 184.2 184.1 184.3 184.6 185 185 185.1 185.4 185.9 186.1 187.3 187.5 188.5 189.3 190.6 191.8 193 194.1 195 195.9 196.6 197.4 197.5 198.4 199.2 199.8 199.7 194.9 202.7 204.1 206.4 208.5 210.2 211.7 213.2 214.6 215.5 212.8 218.6 219.8 220.9 221.4 221.6 221.2 220.7 220.5 220.2 220.5 220.2 219.4 217.5 216.5 216 217 219.6 221.2 222 223 222.6 220.9 218 213.2 215.3 217.9 221.2 224.2 227 229.3 231.1 232.4 232.8 232.8 232.7 233.1 232.3 231.8 232.4 233.5 234.7 236.3 237.4 238.1 238.7 238.8 238.9 239.3 239.4 239.7 240 239.7 236.9 234.6 237.4 242 246.9 249 250.2 250.9 251.5 252.2 252.8 253.4 254.1 254.9 255.6 256.3 257.2 258.2 259.2 260.2 261.2 262.6 263.3 263.9 264.3 264.2 263.8 262.9 260.9 258.5 257.6 259.5 261.5 262.3 262.5 262.4 262.3 262.3 262 261 260.4 262 263.5 265 266.3 267.5 268.9 270.3 271.4 272.5 273.5 274.1 273.7 276.1 278.2 281.7 285 286.4 285.6 287 290 293.1 296.7 298.5 299.8 300.7 301.1 300.8 300 299.1 298.6 298.4 297.2 294.9 292.9 291.3 287.3 280.8 273.9 275.2 278.4 285.4 282.4 282.7 285.8 288.8 289.7 290.2 290.1 289.4 288.6 283.5 285.9 287.4 286.2 285.2 284.1 282.7 281.2 279.9 278.6 277.3 275.8 274.5
185.3 185.4 185.1 184.8 184.1 182.9 182.4 182.3 182.5 183.1 183.2 183.4 183.5 183.4 183.2 183.1 184.1 185.6 186.8 187.7 188.4 189.5 190.9 191.7 192.7 193.5 194.2 194.5 194.5 195.2 196.1 197 193.7 197.9 199.9 200.9 202.9 205 207.1 208.7 210.3 211.5 210.4 214.6 215.9 217 218.1 219.3 219.5 219 218.4 218.3 217.9 218.1 217.3 214 211 206 208.7 211.5 213.8 216.9 219.8 221.4 220.7 218 214.7 213.4 216.1 219.8 223.1 226.1 229 231.3 233.1 234.3 234.9 234.8 234.6 234.5 234.4 235.7 236.5 237.3 238.6 239.1 240.1 240.8 241.6 241.9 242.3 242.9 243.4 243.5 243.4 242.5 240.3 237.1 235.7 240.2 245.7 249.1 250.4 251.1 251.5 251.6 252.1 253 253.9 254.6 255.4 256.1 257.1 258.1 259.1 260.1 260.9 261.8 262.5 263.2 263.6 263.3 262.9 262.4 261.2 259.1 257.3 257.4 259.5 261 261.3 261.4 261.4 261.3 260.6 259.9 260.5 262 263.5 264.6 265.5 266.5 267.1 268.6 269.1 269.5 270.5 271.6 270 274.5 276.1 277.2 280.3 283.5 284.8 288.5 289.3 292.2 295.5 297.5 298.8 300.1 301.2 301.5 300.7 299.9 299.5 299.7 299.1 297.1 294.5 292.3 290.7 288.8 276.7 272.8 275.5 280.5 278.4 283.3 287.4 288.6 289.5 289.8 289.2 288.3 286.6 283.8 283.1 284.3 283.5 282.5 281.4 280.1 278.6 277.4 276.1 274.9 273.5 272.4
184.8 184.8 184.4 183.8 182.6 181.8 181.3 181.1 181.4 181.6 181.8 181.9 181.9 181.9 181.4 179.4 182.7 184.1 185.2 186.2 186.9 187.7 189 189.8 190.4 191 191.2 191 190.4 191 190.9 191.2 187.1 194.3 195.7 198.4 200.5 202.4 203.9 205.5 207.3 207.8 209.3 211.6 212.8 214 215 216 216 215.5 215.5 215.8 215.5 215.3 210.6 205.5 205.7 207 207.7 208.6 209.7 210 211.9 214.3 214.1 213.1 213.2 214.7 218.3 222.1 225.4 228.2 231.1 233.1 235 236 236.6 236.6 236.5 236.2 237.1 239.1 240.2 241.1 242.2 242.9 243.6 244.3 244.9 245.6 246.5 247 247 246.5 246 244.6 242.8 240.1 236.7 238.3 243.6 248.3 250.1 250.7 250.7 250.5 251.2 252.2 253.3 254 254.8 255.9 257.1 258.1 259.1 260 260.8 261.3 261.9 262.5 262.7 262.7 262.5 261.8 261.1 259.8 258 256.6 256.7 259.1 260.3 260.5 260.3 259.6 258.9 258.9 260.7 262.2 263.6 263.9 264.2 265.2 265.8 266.2 266.5 266.5 266.3 265.7 266.5 269.8 275.2 277.8 281 284.5 285.4 287.2 287.6 290.4 294.2 296.4 298.3 300.1 301.4 301.9 301.3 299.9 299.1 299.5 299 295.2 291.4 290.4 288.8 286.5 280 272 273.1 275.6 279.2 283.3 285.2 286.6 286.8 286 285.2 284.6 283.6 281.5 275.8 280.2 280.7 279.7 278.6 277.3 276.3 275.2 273.9 272.5 271.3 270.1
183.4 183.3 183.1 182 180.7 180.4 180.2 180.1 180.2 180.4 180.5 180.6 180.6 180.6 179.7 179 182 183.6 185 185.7 185.9 186.6 187.1 187.5 188.1 187.7 187.5 187.7 185.3 184.6 184.7 184.3 185.4 188.3 192.2 195.9 197.8 199.8 200.4 202.1 204.4 201.9 207.2 208.7 209.7 210.7 211.6 212.3 212.6 212.7 212.9 213.6 211.1 203.8 203.6 207 213 213.8 211.8 217.4 214.8 211.1 210.7 210.7 211.8 213.7 216.6 218.9 222.2 225.1 227.7 230.4 233.1 235 237 237.9 238.3 238.3 238.3 238.6 239.8 241.5 243.5 245.3 246.5 247.5 248 248.6 248.9 249.9 250.8 250.7 249.7 249.1 248 246.6 245 242.3 239 237.4 241.6 247 249.3 249.7 249.6 249.5 250.3 251.4 252.5 253.5 254.7 255.9 257.1 258.1 259.1 259.8 260.6 261.1 261.6 262.1 262.3 262.3 262.1 261.5 261.3 260.8 258.8 256.9 256.1 258.2 259.1 259.4 259.1 258.4 257.9 259.4 261.1 262.4 263 263.2 263.4 263.8 264.5 264 263.6 263.5 263.4 263.4 266.9 271.3 274.9 277.7 280.4 283.5 285 284.8 283.3 286 291 294.7 297.2 299.5 300.5 301 299 296.7 294.7 295.3 294.2 290.4 288.4 287.8 287 284.4 279.5 271.3 271.3 274.6 278.6 281.6 282.6 283.6 282.5 281.5 280.8 280 279.3 278.4 275.9 275.9 278.4 276.8 275.8 275 274.1 273.2 272.3 270.6 269.1 267.8
181.9 180.9 180.2 179.4 178.9 178.4 178.7 179 179.1 179.2 179.1 179.1 179.1 179.1 176.7 178.7 181.8 183.6 184.4 185.4 185.6 185.3 182.6 180.5 180.4 180.3 180.3 178.6 178.7 178.6 179 179.1 177 180.3 188.9 193 195.3 197.7 198.5 198.9 200.6 202.5 205.2 206.6 208.2 208.9 209.6 210.3 210.8 211.1 211.2 207 201.1 203.3 209.4 213.7 215.2 216.2 217.5 217.8 217.9 216.2 213.5 212.2 213.5 216.6 219.5 222.4 225.6 228.6 231 233.3 235.4 237.7 238.5 239.4 240 240.1 240.2 241.3 243.6 245.9 247.8 249.7 250.9 251.8 252.5 252.8 252.9 253.1 253.1 252.7 252.2 251.3 250 248.5 247 244.3 240.9 238.8 240.1 244 248.1 248.4 248.2 248.1 249.4 251 252.2 253.4 254.6 255.8 257.1 258.1 258.9 259.6 260.3 260.8 261.3 261.8 261.8 261.8 261.8 261.5 261.3 261.1 259.7 257.7 256.1 256.5 257.6 258.1 257.7 257.4 258.6 259.9 261.5 262 262.3 262.2 262.3 262.5 262.9 262.3 261.2 260.8 261 263.4 266.3 270 274 277.2 279.9 282.7 284 283.5 278.3 281.2 284.7 289.5 294 296.6 297.6 296.8 294.3 292.3 290.7 289.8 287.6 285.8 285.9 285.7 284.4 280.7 278 270.5 270.6 273.5 277.9 279.6 280.4 280.3 279.1 277.7 276.9 276.1 275.3 274.4 273.8 269.2 272.8 273.1 272.2 271.2 270.4 269.5 269.1 268.4 267.1 265.8
178.7 178 177.3 176.8 176.8 177.4 177.7 178 178.1 178.1 177.7 177.5 177.5 177.5 173.8 179 181.8 182.9 183.6 184 181.9 177.1 174.3 174.4 174.6 174.4 175.1 175.6 175.6 176.1 177.1 177.4 180.6 178.4 179 188.1 193.2 195.3 196.3 193.8 199.6 202.9 204.6 205.8 207.2 208 208.8 209.3 209.5 209.7 210.1 207 201.5 204.7 211 213.2 214.4 215.5 216.9 217.6 217.8 217.5 217.5 216.3 216.5 219.2 222.5 225.5 228.8 232.2 234.7 236.6 238.3 239.2 240.1 240.8 241.5 242.2 243.5 245.7 248.1 250.4 252.3 254 254.8 255.5 255.9 256.1 255.8 255.5 255.5 255.2 254.3 253.2 251.9 250.2 248.7 246.1 242.8 240.6 239.5 241.6 245.3 246.4 246.8 247.9 249.6 251 252.2 253.4 254.5 255.6 256.8 257.8 258.5 259.2 259.7 260.5 261 261.3 261.3 261.5 261.6 261.4 261.2 261 260.3 258.6 256.8 255.5 255.6 256.1 257.4 258.1 259.3 260.6 261 261.5 261.3 261 261.2 261.3 261.1 260.2 259.1 259.2 262.1 264.3 266.1 268.4 271.6 275.1 276.6 277.6 278.7 278.2 275.3 275.8 278.2 282.3 287.9 292 292.9 291.6 289.4 287.8 286.1 285 282.5 281 282.2 282.1 279.5 277.4 275.4 272.3 268.9 272.9 277.7 280.5 280.2 279.5 277.7 275.2 274.3 273.6 273 271.2 270.1 268.9 266.1 268.6 268.4 267.4 266.4 266.1 266 265.9 265.1 263.9
176 175.3 175 174.9 175.3 176.6 176.9 177.3 177.3 176.8 176.3 175.3 175.4 175.4 172.6 178.9 179.4 179.5 179.1 175.7 171 171.6 172.9 173.6 173.7 176.1 177 178.2 180.3 181.2 182 185.9 189.2 187.1 180.2 182 186.1 190.6 188.7 197.1 199.3 201.9 203.9 205.1 206.3 207.1 207.9 208.3 208.3 208.5 208.8 207.7 200.5 204 210.2 211.8 213 214.8 216.1 217.2 218.3 219.2 218.8 219 219.8 221.9 225.2 229.1 232.9 236.4 237.8 239 240 240.5 241.3 242.4 243.2 244.7 247.2 249.9 252.1 254 255.7 257.1 258 258.3 258.6 258.8 258.6 258.1 257.7 256.9 255.9 255 253.7 251.9 250.1 247.7 245.3 243.4 241.2 240 242.6 245.5 247.4 248.9 250 251.1 252.3 253.4 254.4 255.2 256.1 257 257.9 258.3 258.7 259.5 260.3 260.9 261.2 261.4 261.3 261.3 261.3 260.8 260.2 259.4 257.6 256.1 255.4 255.1 256.5 258.5 259.8 260.2 260.4 260.2 260.1 259.9 260 259.8 259.5 258.5 257.6 260.3 263.6 265.7 267 269.2 272.4 274.8 275.6 274.2 274.2 274.3 272.5 272.3 272.1 275.5 281.8 286.9 288 288 286.4 284.6 283.2 281.7 279.7 277.4 277.3 277.4 276.6 275.1 272.2 266.2 272.2 276.3 278.2 280.3 280.5 279.8 277.5 274.4 272.9 272 271.3 268.9 267.4 266.8 265.7 264.2 264.7 263.7 263 263.2 263.5 263.7 263.6 263.1
173.2 173.3 173.2 173.2 174 175.2 176.1 176.1 175.1 174.6 173.6 172.1 170.5 168.9 168.3 172.1 172.7 172.7 171.7 169.2 172.8 174.7 175.7 180.1 182.1 182.5 183.9 185.3 185.6 187.4 189.3 190.9 192.6 192.2 181.4 180.6 181.8 183.5 188.7 193.8 196.7 200 202.5 203.7 204.9 206.1 207 207.2 207.2 207.1 206.7 203.8 200 205.6 209.1 211 212.4 214.1 215.8 218.1 220.4 221.4 221.3 221.7 222.6 224.7 227.9 231.7 235.8 237.6 238.6 239.5 240.4 241.6 242.3 243.6 245.2 246.8 249.8 252.8 255 256.4 258.1 259.5 260.2 260.8 261.1 261.4 261.2 260.4 259.3 258.3 257.3 256.4 255 253.4 251.5 249.9 248.1 246.2 243.5 241.3 241.8 245.1 247.4 248.6 250.1 251.2 252.3 253.3 254.3 254.5 255 256 257.1 257.3 257.8 258.5 259 259.5 260.1 260.7 261.3 261.3 261.3 261.1 260.6 259.6 258.5 257.1 256.2 254.6 255.2 257 257.9 258.1 258.4 258.8 258.6 258.5 258.3 258.1 257.4 256.4 258.1 261.3 265.3 268.6 270.3 271 272.1 272.9 272.1 271.1 270.9 270.6 270 269.1 269.2 270.5 275.3 280.6 282.7 283.6 283.1 281.3 280 278.6 276.9 274.4 273.2 272 272.3 270.4 260.4 273.4 279.2 280.6 279.9 280.1 280.4 279.5 276.9 273.5 272.2 270.9 269.6 268.3 267.1 266.2 264.6 263.7 262.8 261.9 260.6 261.2 262.1 262.3 262.6 262.6
171.5 171.7 171.7 171.8 173.1 174.3 174.5 172.9 171.1 170 169.8 168.3 164.6 165.7 165.1 166.3 167.4 168.8 168.1 170.7 176.1 178.5 181.7 183.5 185.3 186.1 186.9 187.9 188.2 189.5 190.8 192.4 193.6 194.3 193.4 188 185.3 183.1 184.9 190.1 194.6 199.3 201.4 202.6 203.9 205.2 206.1 206.5 206.4 205.5 200.9 200.2 202.6 207.7 209.7 211 212.2 213.9 216.1 219.1 221.8 223.7 223.9 224.1 225.7 227.3 229.6 232.8 235.2 237 238.2 239.4 240.5 241.9 243 244.4 246.1 248.3 251.7 254.5 256.8 258.6 260.4 262.2 262.9 263.2 263.5 263.8 262.7 261.6 260.4 259.3 258.5 257.7 256.4 255.1 253.4 251.7 249.8 247.6 245.6 243.8 242.2 244.3 246.4 248.9 250.5 251.5 252 253 254 253.6 253.4 253.8 254.8 255.8 256.7 257.2 257.8 258.5 259.1 259.7 260.5 260.9 261.1 260.8 260.8 260.3 259.4 258.1 256.8 254.2 253.7 254.8 255.6 255.9 256.3 256.6 257 256.7 256.6 256.1 255.6 255.4 257.7 261.4 266.1 269 270.9 271 270.2 269 268.2 267.6 267.2 267 266.8 266.7 266.7 267.6 269.2 274.2 277.8 278.5 278.3 277 275.9 275.3 274.1 272.2 269 269 268.6 262.4 269.2 273.9 277.9 278.2 278.5 279.6 280.2 278.9 275.4 272.8 271.5 270.3 269.1 268.2 267.2 266.3 265.3 264.4 263.3 262.2 260.8 259.7 260.1 260.9 261.1 261.2
170.3 170.1 170.6 171.4 172.4 172.6 171.8 168.5 166.6 165.7 165.9 164.9 165.3 166.7 167.4 167.1 166.7 166.1 166.8 172.2 179.7 180.7 182.7 183.8 185.2 186.1 187.5 188.8 189.6 190.5 191.9 193.3 195.3 195.5 195.9 195 193.5 183.7 185.2 188.1 193.9 198.1 200.6 201.8 203 204.2 205.4 205.8 205.3 203.9 200.4 200.7 205.2 207.6 209.3 211 213 214.6 216.8 219.9 222.9 224.4 225.8 226.2 227.5 228.9 230.3 232.4 234.5 236.2 237.5 238.9 240.7 241.9 242.9 244.5 246.7 248.7 251.7 254.7 257.8 260.2 262.6 264.8 265.5 265.5 265.2 264.5 263.8 262.8 261.6 260.8 259.9 259 257.7 256.5 254.9 253.1 251.4 249.7 248.2 245.8 243.5 243.5 246.3 249.1 251.4 252.1 251.7 252.7 252.8 252.4 251.6 251.5 252.7 254.4 255.5 256.2 256.8 257.4 258.1 258.7 259.5 260.3 260.8 260.6 260.6 260.4 259.9 259.2 258.6 257.3 253.6 252.1 253.4 253.8 254.2 255.1 255.4 255 254.8 255 254.5 254.7 256.7 259.4 261.6 264.3 265.8 266.3 265.6 265.1 265 265 264.8 264.3 263.9 265.3 268.4 265.5 266.1 269.1 274.6 274.7 274.5 273.6 272.7 272.4 272.7 271.5 267.3 267.9 261.5 259.4 268.8 270.2 272 272.6 274.2 277.4 278.2 276.6 274 272.5 271.1 269.6 268.6 267.7 266.9 266 265.1 264.6 263.8 262.8 261.6 260.2 258.9 258.6 259.1 259.4
168.9 168.7 169.7 170.6 171 170 166.2 164.6 163.7 162.4 162 164.6 169.1 171.4 172.2 171.3 172.5 174.9 177.8 179.8 180.9 181.9 183.5 184.6 185.7 187 188.4 189.3 190.1 191.3 192.4 194.7 196.3 196.6 195.9 195.6 195.8 185.3 185 186.5 192.4 197.2 199.9 199.9 199.3 199.1 202.4 203.4 200.6 196.4 203.9 205.6 208.3 208.4 209.9 212 214.8 216.8 218.2 221 223.3 224.8 226.3 227.1 228.2 229.3 230.6 232 233.8 235.3 236.6 238.1 239.9 241.5 242.8 244.5 246.3 248.2 250.7 253.8 257 260.5 263.4 265.7 266.3 266.4 266.1 265.7 265.3 264.6 263.4 262.3 261.3 260.3 259.1 257.8 256.3 255 253.9 252.2 250.5 247.7 244.7 244.8 248.6 250.8 251.8 252.8 252 251.7 251.7 251.5 250.2 249.7 251.5 253.2 254.3 255.1 255.8 256.4 257.1 257.8 258.7 259.5 260.3 260.5 260.5 260.4 260 259.8 259.8 259.4 257.8 254.8 252.1 252 252.6 253 253.2 253.2 253.3 253.5 253.4 254 255.4 256.8 258.5 260.2 260.9 261.8 262 262.5 262.6 262.7 262.5 262.1 261.5 262.6 265.1 265.8 264.5 267.7 270.8 271.3 271.2 270.7 269.8 269.5 269.1 269 264.6 264.7 258.9 258 265.3 268.1 268.7 269.4 270.5 273.5 275.3 274.1 272.7 272.5 271.2 269.8 268.3 267.5 266.6 265.8 264.8 264.5 264.2 263.4 262.3 261.1 260.1 259 257.5 257.4
164.5 166.7 168 168.9 168.6 165.4 162.8 161.8 161.7 170.3 170.7 171.7 170.5 173.4 174.4 175.3 176.8 178.2 179.3 180.2 181.6 183 184.3 185.6 186.9 188.3 189.3 190.2 191 191.7 192.6 195 196.3 196.9 196.9 196.8 194.8 194.3 188 187.4 186.3 188.6 189 190.2 190.8 190.6 194.1 195.4 197.2 203.1 206.1 207.9 209.7 210.6 212.2 213.1 215.1 217.1 218.5 221.1 223.4 224.8 226.4 227.2 228.4 229.6 230.8 231.9 233.2 234.4 235.7 237.2 238.7 240.3 241.9 243.7 245.6 247.5 250 252.7 255.8 259.4 261.9 264.1 265.7 266.5 267.1 267.2 266.8 266.4 265.4 263.9 262.6 261.6 260.5 259.4 258.3 257.3 256.2 254.8 253 249.4 246.5 247.5 251.3 253.3 253.8 254 252.8 251.2 249.6 249.2 248.2 247.8 249.6 251.5 252.8 254 254.8 255.5 256.3 257 257.9 258.7 259.6 260.5 260.4 260.4 260.3 260.2 260.1 259.7 259.2 257.7 255.7 254.5 252.1 249.6 250.4 251.2 251.5 251.9 252.6 253.3 254.7 256 257.2 258.4 259.3 260 260.6 260.4 260.6 260.5 260.2 260 259.2 259.1 260.2 260.8 265.1 265.9 266.2 267.3 267.9 267.5 267 266.2 265.4 262.7 260.5 260.1 256.1 262.3 265.5 266.8 267.1 267.7 268.3 269.7 270.2 269.9 269.8 270.9 271.6 269.9 268.2 267.2 266.4 265.5 264.9 264.6 264.2 263.8 263.1 262.1 261 259.9 258.8 257.4
161.8 164 163.3 163.5 162.5 161.9 161.9 159.3 169.2 171.4 172.9 173.2 173.4 174.5 175.7 176.9 178 179.1 180.1 180.8 181.8 183.3 184.6 186.4 188 189.3 190.3 191.1 191.9 192.7 193.7 195.5 196.6 197.4 197.8 197.7 197.9 198.3 196.3 191.5 189.9 188.4 192.9 194.6 195.6 195.7 197 198.6 202.7 206 208 209.2 211.2 212.7 213.5 213.9 215 216.6 218.7 221 223 224.9 226.5 227.3 228.5 229.4 230.3 231.2 232.3 233.4 234.4 235.9 237.4 239.2 241.1 242.9 244.8 246.9 249.4 252.1 254.6 257.6 260 262.1 264.4 266.3 267.7 268.4 268.5 268.1 267.3 266.4 265 264.2 263 262.2 260.9 259.8 258.7 257.4 255.3 251.1 247.8 250.4 253.6 255.1 255.3 255 253.7 251.6 249.7 248.1 246.9 245.8 247.7 249.5 251.3 252.9 253.8 254.7 255.5 256.3 257.1 257.9 258.6 259.5 260.4 260.4 260.3 260.2 260 259.8 259.5 258.7 257.7 256.3 253.5 249.7 249.2 249.1 250 250.7 251.6 252.5 254 255.3 256.6 257.7 258.5 258.9 259.4 259.2 259 258.7 259 259 257.4 256.7 257 259.9 264 264.3 264.7 264.5 264.8 265 264.8 263.7 261 258.5 258.2 256.3 255.7 262.4 263.9 265.1 266 266.7 267.4 268 268.2 268.2 268.5 269.1 269.5 268.4 267.5 266.6 266 265.5 265 264.6 264.2 263.7 263.2 262.4 261.5 260.6 259.7 258.5
158.4 159.3 160.4 160.6 160.3 160.2 160.3 165.3 169.7 171.4 173.1 174.3 174.3 174.7 176.9 178.2 179.2 180 180.9 181.9 183.1 183.9 185.1 186.9 188.7 190.3 191.3 192.3 193.3 194.1 195.3 196.4 197.3 198 198.5 198.8 199 199.5 199.5 197.2 195.4 194.6 197.5 199.3 199.5 199.4 201 203.5 205.6 207.7 209.6 210.7 211.9 213.3 214.5 215.1 216.2 217.5 219.5 221.4 222.8 224.6 226.2 227.3 228 228.7 229.3 230.1 231.2 232.3 233.2 234.4 236.2 238.3 240.2 242.1 243.9 246.1 248.5 251 253.6 256.2 258.8 261.4 263.9 266.4 268.6 269.7 270.5 270.4 270.4 270.2 269.5 268.8 267.3 265.8 264.2 262.7 261.7 260 257.3 252.3 250.6 253.9 255.5 256.4 256.5 255.7 253.5 251.5 249.8 248.5 246.6 245.1 246 248.2 250.5 251.9 253 253.9 254.7 255.5 256.4 257 257.6 258.5 259.4 260.1 260.3 260.1 259.8 259.6 259.2 258.5 257.8 256.1 253.8 252.4 250.3 249.1 249 249.7 250.5 251.7 253.4 254.8 256.1 256.9 257.5 257.8 258.1 257.9 257.5 256.9 256.4 256.8 255.7 254.8 255.2 256.9 260.9 260.9 261.9 261.3 262.3 262.7 262.3 261.3 259.1 253.6 254 254.6 255.6 260.1 262.8 264.2 265.1 265.7 266.4 266.6 267.1 267.2 267.4 267.3 267.2 266.9 266.5 266.1 265.7 265.4 265 264.6 264.1 263.5 262.9 262.4 261.6 260.6 260 259.4
162.8 161.2 159.2 159 162.2 167.5 168.7 169.6 170.9 171.8 173 174.8 175 176.1 178.1 179.3 180.1 180.8 181.8 182.9 184.2 185.7 187.3 188.8 190.4 192 193.2 194.1 194.9 195.7 196.6 197.5 198 198.7 199.2 199.6 200 200.2 200 199.7 199.6 198.6 198.9 200.9 201.7 202.7 203.6 205.9 207.3 209.1 211 212.3 213.2 214.5 215.7 216.5 217.4 218.7 220.1 222.1 223.4 224.7 225.8 226.7 227.1 227.7 228.3 229.1 230.2 231.2 232.2 233.4 235.5 237.5 239.1 241.1 243.1 245.2 247.5 250 252.5 255.1 257.8 260.4 263 266.1 268.8 271.3 273.4 274 274.9 275 274.9 273.7 272.2 270 267.7 266.1 263.5 260.9 257.5 253 253 255.6 256.1 256.4 256.5 254.9 252.7 251.1 250 248.6 246.3 244.5 245.8 247.9 249.8 251.2 252.2 253.1 253.9 254.8 255.6 256.2 256.8 257.4 258.3 259.1 259.3 259.1 259 259 258.9 258.3 257.6 255.9 254.1 252.8 251.9 250.4 248.4 248.9 250.1 251.6 253.4 254.8 255.6 256.4 256.9 257.1 257.1 256.5 256.1 255.6 254.7 253.9 253.5 252.8 253 254.2 256.6 258.3 258.3 257.6 259.1 258.9 259.1 259 254.6 252.3 252.8 253.9 256.6 260.9 262.3 263.4 264.2 265.4 266.2 266.7 266.7 266.7 266.7 266.8 266.8 266.6 266.2 265.9 265.6 265.3 265 264.5 263.9 263.3 262.7 262.2 261.6 260.8 260.3 259.7
167.5 167 166.3 164.3 167.7 169.6 170.8 171.7 172.9 173.3 173.9 175.5 176.9 178.1 179.2 180.1 181.1 181.8 182.9 184.8 186.4 188 189.6 190.8 192.4 194 194.7 195 196 196.6 197.2 197.7 198.5 198.9 199.2 199.7 200.5 200.7 200.8 201 200.8 201.2 201.3 202.4 203.8 205.1 206.5 207.7 209 210.1 211.8 213.4 214.3 215.1 215.9 216.7 218.1 219.7 221.2 222.7 224.1 225.4 226.5 226.8 226.9 227.4 227.8 228.2 229.2 230.1 231.4 232.7 234.4 236.2 238 240 241.9 244.2 246.6 249 251.5 254 256.6 259.4 262.2 265.3 268.2 270.9 276.3 277.9 278.9 279 278.8 278.4 276.9 274.2 271.6 268 264.9 261.4 257.9 254.1 254.7 256 256.1 255.8 254.9 253.4 252.1 251.1 250 248.1 245.8 243.6 245.6 247.8 249.3 250.4 251.4 252.3 253.2 254 254.8 255.4 256 256.6 257.3 258 258.2 258.1 258.1 258.1 258.1 258.1 257.5 255.8 253.9 252.9 252.1 249.6 248.5 248.7 250.1 251.6 253.3 254.8 255.3 255.9 256.4 256.5 256.1 255.5 254.8 254.2 253.2 252.3 251.3 251.5 252 253.4 254.9 255.2 254.6 254.4 253.1 252 252 252.4 249.8 255.1 257.5 258.8 260.5 262.2 263.2 263.4 264.1 265.4 266.3 266.3 266.5 266.6 266.5 266.6 266.5 266.2 266 265.7 265.5 265.1 264.8 264.3 263.7 263.1 262.5 261.9 261.4 261 260.5 259.9
168.5 168.9 168.9 169.4 170.3 171.6 173.1 174.2 174.6 175.4 176 176.7 178.2 179.5 181.2 181.5 182.4 183.7 185.4 186.9 188.7 190.3 192 193 194.2 195.1 196 196.3 196.5 196.5 196.7 197 197.4 197.9 198.9 199.9 200.6 201.6 202.2 202.2 202.8 203.7 204.4 205.1 206.2 207.2 208.1 209.1 209.9 210.6 211.6 213.1 213.8 215.2 216.1 217.4 218.9 220.4 221.8 223.2 224.5 225.9 227.1 227.5 227.8 228.4 229 229.6 230.3 231 232.1 233.1 234.2 235.6 237.4 238.9 240.8 243.1 245.3 247.7 250.2 252.8 255.5 258.6 261.7 264.9 266 270.8 278.8 280.8 281.2 281.4 281.7 281.5 280.6 277.4 273.5 269.1 265.1 261.7 259.1 255.4 255.2 255.4 254.9 254.5 253.3 252.1 251.3 250.4 249.4 247.6 245.2 243.1 244.8 247.2 248.6 249.7 250.6 251.5 252.4 253.2 254 254.6 255.1 255.7 256.3 256.8 257.2 257.1 257.2 257.3 257.3 257.4 256.7 255.7 253.9 252.8 251.6 248.8 247.9 248.8 250.2 251.7 253.5 255 255.3 255.6 255.7 255.8 255.4 254.8 254.1 253.2 252 250.8 249.8 250.4 250.9 252.4 252.8 252.7 246.2 246.1 246.3 249.6 248.4 249.6 249.7 259.3 260.6 261.4 262.4 263.3 264 264.3 264.6 265.7 266.2 266.4 266.5 266.4 266.4 266.4 266.2 266 265.9 265.8 265.4 265 264.6 264 263.4 262.9 262.5 262.1 261.6 261.1 260.5 259.9
169.8 170.2 171.2 172.1 172.8 173.9 175.1 176 176.9 177.7 178.3 178.8 179.6 181.5 183 183.5 184.8 186.3 188.1 189.6 190.7 192.3 193.7 194.6 195.1 195.6 195.9 195.9 195.7 195.5 195.7 196.1 196.5 197.5 198.7 200 201.1 202.2 203.2 204.3 205.2 205.8 206.5 207.2 208 209 210 210.9 211.6 212.1 211.8 212.4 213.4 214.6 216.3 217.9 219.3 220.7 222.2 223.5 224.8 226.2 227.1 227.5 228.4 229.5 230 230.7 231.3 232 232.9 233.7 234.9 236.3 237.7 238.9 240.2 241.5 243.6 246.2 249.1 252.1 255.1 258.2 260.8 262.8 263.2 267.4 280.3 281.4 282 282.7 282.9 283 280.8 277.3 273 268.7 265.1 262.1 259.5 256.8 255.2 254.2 253.4 252.5 251.7 251.2 250.6 249.7 248.8 247.1 244.9 243 243.5 245.9 247.8 248.9 249.8 250.7 251.6 252.5 253.1 253.7 254.3 254.9 255.5 255.8 256.1 256.2 256.4 256.4 256.4 256.3 255.8 255.3 253.7 252.2 251 249 246.6 248 250.3 252.2 254 255.3 255.7 255.5 255.2 255 254.8 254.1 253.2 252.3 251.1 249.6 248.7 249.1 249.7 249.6 241.9 244.1 247.8 254.3 255.8 256.5 258 259.2 260.8 261.1 261.9 262.6 263.6 263.9 264.6 265 265.4 265.9 266.2 266.4 266.3 266.3 266.2 266.3 266.2 265.8 265.8 265.7 265.4 264.9 264.4 263.8 263.6 263.2 262.8 262.3 261.8 261.3 260.6 259.9
171.1 171.6 172.7 173.7 174.6 175.6 176.8 177.9 178.8 179.4 180 180.5 181.2 183 184.2 185.1 186.4 188.2 189.4 190.3 191.2 192.8 194.5 195 195.3 195.5 195.2 194.7 194.6 194.6 194.9 195.9 196.2 197.3 198.6 199.6 201 202.8 204.1 205.7 207.1 207.7 208.5 209.2 210 210.9 211.8 212.7 213.5 213.6 214.1 214.4 215.2 216.1 217.3 218.6 219.9 221.3 222.7 223.9 225.1 226.5 227 227.5 228.6 229.7 231 231.7 232.3 233 233.8 234.4 235.6 237 238.4 239.6 240.7 242 243.5 246.6 249.2 251.8 254.8 257.3 259.8 261 259.8 264.4 279.7 279.8 281.6 281.8 282.1 281.2 279.2 275.9 271.8 267.9 264.4 261.7 259.3 256.8 254.8 252.8 251.8 250.8 250 249.6 249.4 248.9 248.2 247.3 245.8 244.1 242.7 244.8 246.9 248.1 249 249.9 250.8 251.7 252.3 252.8 253.4 254 254.6 254.9 255.3 255.4 255.5 255.5 255.5 255.3 254.8 254.3 253.1 251.7 250.4 248.7 246.1 248.3 250.7 252.7 254.3 255.5 255.6 255.4 255.2 254.7 253.8 253.2 252.3 251.4 250.1 248.7 246.4 246.9 244.6 243.7 246.7 252.6 256.5 256.8 257.1 258.1 259.5 261.3 261.7 262.2 263 263.8 264.7 264.8 265.2 265.6 265.7 265.9 266.1 266.2 266.2 266.1 265.7 265.2 264.9 265.1 264.9 264.9 265 264.6 264.4 264.1 263.8 263.4 263.1 262.5 262 261.4 260.7 260.1
171.6 173.2 174.2 175.6 176.6 177.6 178.8 179.8 180.8 181.3 181.6 182 182.8 184.5 185.4 186 187.3 188.1 188.4 189.1 189.9 191.1 192.8 193.5 193.3 193.6 193.7 193.5 194 194.6 195.5 196.5 197.1 198 199.1 200.4 202.1 203.7 205.3 206.9 208.5 209.5 210.4 211.2 212 212.8 213.7 214.5 215.3 215.9 216.3 216.6 217.2 218.2 219.1 220.3 221.5 222.9 224.1 225.2 225.9 226.7 227 227.7 228.9 230.2 231.5 232.6 233.1 233.6 234.4 235.2 236.3 237.6 239.1 240.3 241.5 242.6 244.2 247 249.3 251.8 254 256.6 259.5 261.2 259.3 261.1 255.5 259.7 279.9 280.5 280 279.1 277 273.8 270.4 266.8 263.7 260.7 258 255.9 253.6 251.6 250.1 249.1 248.5 248.5 248.3 248 247.5 246.8 246.1 245 242.3 243.8 246.1 247.3 248.2 249.1 250 250.9 251.4 252 252.6 253.2 253.7 254.1 254.5 254.6 254.7 254.7 254.6 254.4 253.9 253.3 251.9 251.2 249.8 248 246.3 248.3 250.9 252.5 254.1 254.9 254.9 254.9 254.6 253.8 252.7 252 251.3 250.4 249.2 247.7 243.7 239.9 240.3 245.1 251 254.6 256.8 257.2 257.5 258.4 260.1 261.6 262.3 263 263.8 264.7 265.3 265.5 265.7 265.7 265.8 265.9 266 265.5 265 264.6 264 263.5 263.5 264.1 264.1 264.1 264.2 264.5 264.6 264.4 264.1 263.7 263.3 262.8 262.3 261.6 260.9 260.2
172.4 174.5 175.8 177.6 178.9 180 181.3 182.4 183.3 183.3 183.6 183.8 184.5 185.8 186.4 186.2 186.8 187.3 187.6 187.9 188.7 189.3 189.5 190.5 190.9 191.3 192.7 193.7 194.2 195.2 196.2 197.1 198.7 199.8 201 202.3 203.9 205.4 206.8 208.5 210.2 211.2 212.2 213 213.9 214.7 215.6 216.6 217.5 218.1 217.8 217.8 218.5 219.8 220.8 222 223.2 224.4 225.7 227.3 228.3 228.8 228.5 228.5 229.4 230.7 232 232.9 233.4 233.9 234.7 235.6 236.9 238.2 239.8 241.1 242.5 243.5 244.4 246.8 249.3 251.2 252.6 255 258.8 261.1 261.9 256.5 256.7 257.3 276.5 277.1 276.4 275.4 273.9 271.5 268.4 264.9 262 259.3 257 254.9 252.4 250.3 248.2 247.2 246.2 246.9 247.2 247.1 246.6 246 245.3 244.2 242.4 243.2 245.4 246.6 247.4 248.3 249.2 250.1 250.6 251.6 252 252.4 252.9 253.3 253.7 253.8 253.9 253.8 253.7 253.4 252.9 252.1 251.3 250.6 249.5 246.8 245.5 249.2 250.9 251.8 253.5 253.9 254 254 253.6 252.8 252.1 251.4 250.4 249 247.3 245.7 240 241 249.8 250.6 252.3 254.6 256.7 257.5 258 259.3 260.9 261.9 262.5 263.1 263.9 264.8 265.4 265.6 265.7 265.8 265.8 265.7 265.5 264.8 264.1 262.8 262.4 262 261.8 262.9 263.2 263.4 263.9 264.4 264.8 264.7 264.4 264.1 263.6 263.1 262.5 261.8 261 260.9
173.1 175.3 177.7 179.5 181.1 182.4 183.7 184.9 185.4 185.3 185.2 185 184.7 185.4 185.3 185.9 186.5 186.7 187.2 187.4 188.4 189 190.5 191.3 192.2 193.4 194.4 195.3 195.8 196 196.6 197.9 199.4 201.3 202.7 203.8 205.5 207.3 208.6 210.5 211.8 212.7 213.7 214.8 215.6 216.4 217.6 218.8 219.7 219.5 219.2 219 219.9 221.2 222.4 223.5 224.6 226 227.6 228.9 229.6 229.8 229.7 229.8 230.5 231.2 232.4 233.1 233.6 234.2 235.1 236.1 237.3 238.2 239.9 241.7 243.5 244.2 244.3 245.1 247 249.1 251 252.7 256.2 259.7 263.8 265.9 268.2 271.4 271.8 272 271.9 270.9 269.8 268.9 266.5 263.4 260.5 257.7 255.9 254.1 251.6 249.5 246.7 245 244.5 245.6 246.1 246 245.1 244.7 244.3 243 241.4 242.9 244.7 245.8 246.6 247.5 248.4 249.3 250.2 251.2 251.6 251.9 252.1 252.5 252.9 253 253.1 253 252.8 252.5 252 251.6 250.8 250.1 249.3 246.8 244.5 249 250 251.3 252.3 252.7 253 253 252.7 253.4 253.7 252.9 251.5 249.6 247.7 245.7 239.8 239.5 244.9 248.9 251.7 254.1 256.1 257.4 258.8 260 260.8 261.6 262.4 263.1 263.9 264.5 265.3 265.6 265.7 265.8 265.7 265.4 265.1 263.9 262.8 261.3 260.6 260.2 260.5 261.6 262.5 263.1 263.7 264.4 265 265.5 265.2 265.3 264.4 263.7 263 261.9 261.8 261.9
173.1 175.8 178.3 179.9 180.9 182.2 183.4 184 184.7 184.2 182.8 182.6 182.1 183.7 184.5 186 187.4 188.4 189.4 190.4 190.5 190.9 191.9 192.8 194.2 195.3 196.3 197 197.6 197.6 197.7 198.5 200 201.9 203.7 205.3 207 209.1 210.7 212.1 213.1 214.1 215.1 216.2 217.3 218.2 219.4 220.4 221 220.9 220.5 219.9 220.5 221.9 223.4 224.7 226 227.2 228.5 229.6 230.3 230.5 230.7 230.8 231.4 232.1 232.7 233.2 233.8 234.6 235.6 236.5 237.5 238.3 239.5 241.4 243.1 243.6 243.3 243.4 244.6 246.5 248.5 251 253.9 257.8 261.8 263.8 265.2 265.7 266.4 267 267.3 266.9 265.9 265.9 264.2 262 259.1 256.6 254.9 253.4 251.3 248.5 245.6 243.2 242.9 244.2 244.6 244.5 243.5 243.1 242.1 241.1 240.4 241.8 243.7 244.7 245.7 246.3 246.8 248.5 249.6 250.8 251.4 251.7 251.8 251.8 252.1 252.2 252.2 251.9 251.6 251.6 251.2 250.9 250.4 249.7 249.3 247.5 244.2 246.9 249 250.4 251.1 251.5 251.9 252.4 253.2 254.2 254.7 253.3 251.7 250.1 248.3 245.5 237 236.4 238.8 244.3 250 253.8 255.7 257.4 258.6 259.7 260.6 261.4 262.2 262.9 263.6 264.2 265 265.7 265.6 265.5 265.4 265.1 264.5 263.1 261.9 260.7 259.4 258.8 259.6 261 262.1 262.9 263.5 264.4 265 265.9 266.5 266.1 265.3 264.4 263.8 263.3 263 263
171.8 173.8 175 175.5 175.2 176.5 178.8 181.9 181.5 187.3 188 187 185.6 187.5 188.3 188.8 189.8 190.3 191.3 191.9 192.4 192.8 193.2 194.5 195.9 197.1 197.9 198.6 199.1 199.1 199.1 199.9 200.8 202.5 204.4 206.5 208.6 210.9 212.4 213.4 214.4 215.4 216.4 217.4 218.2 219.1 220.2 221.3 221.7 221.8 221.2 220.8 221.4 222.7 224.4 225.5 226.6 227.8 228.9 229.7 230.4 230.9 231.3 231.8 232.2 232.6 233 233.6 234.1 235 236 236.7 237.2 237.9 238.7 239.7 241.5 241.9 241.8 241.9 243.1 245.2 247.3 249.7 252.4 255.7 257.9 260 261.3 261.5 261.8 262.1 262.5 262.9 262.8 262.9 261.5 259.6 257.3 255.3 253.4 252.1 250.9 247.9 244.6 242.2 241.2 241.7 242.2 242.2 241.9 240.9 240 239.3 240 241 242.5 243.3 243.8 244.1 245.9 248 249.4 250.7 251.5 251.5 251.6 251.6 251.1 251.1 251.1 250.5 250.3 250.5 250.3 250.1 249.7 249.4 248.8 247.6 243.1 245.1 248.1 249.3 249.9 250.3 250.8 251.4 252.6 253.9 253.6 252.6 251.2 250.2 248.7 247.4 246 245.3 241.4 240 249.1 252.9 255.5 257.2 258.4 259.5 260.3 261.1 261.8 262.5 263.2 263.9 264.6 265.2 265.4 265.3 265 264.7 263.8 262.7 261.8 260.9 258.8 257.4 258.8 260.2 261.7 262.7 263.5 264.4 265.5 266.8 267.6 266.9 266 265.1 264.7 264.4 264.1 263.9
169.8 170.5 170.9 172.6 174 178.2 182.7 186.5 187 187.9 189.2 189.4 190 189.8 190.7 191.4 191.8 192.1 192.8 193.5 194.2 194.7 195.2 196.2 197.6 198.6 199.3 199.9 200.5 200.7 200.7 201.6 202.8 204 205.4 207.4 209.4 211.5 213.4 214.7 215.7 216.3 216.9 217.9 218.7 219.7 220.7 221.7 222.1 222.4 222.1 221.9 222.4 223.7 224.9 226 227.2 228.2 229.2 229.9 230.6 231.1 231.6 232.1 232.5 232.9 233.3 233.9 234.5 235.4 236.2 236.3 236.7 237.2 238.1 239 239.8 240.1 240.4 240.8 242.5 244.6 246.5 248.5 251.1 253.3 255.4 257.2 257.6 257.4 257.8 258.2 258.6 259.4 260 259.9 259 257.4 255.8 253.8 252 251 249.1 246.2 243.3 240.7 239.3 239.5 239.8 239.8 239.5 239.1 238.4 238.6 239.5 240.5 241.3 242.1 242.7 244.4 246.1 248 249.6 250.8 251.6 251.4 251.3 251.3 250.3 249.8 249.8 249.1 249 249.2 249.2 248.8 248.5 248.6 248.3 247.1 245 243 246.8 248 248.5 249.2 249.8 250.4 251.6 252.5 252.6 251.8 250.9 249.9 248.5 246.9 245.4 245.5 244.4 240.9 247.4 251.4 254.7 256.9 258.3 259.2 260 260.8 261.5 262 262.8 263.5 264.3 264.6 264.8 264.8 264.5 264 263.4 262.5 261.2 259.9 258.5 257 258.1 260.3 261.7 262.4 263 264 264.9 266.1 266.8 267.1 266.5 265.8 265.5 265.1 264.7 264.4
170.3 171.3 173 174.7 177.2 180.6 184 187 188.4 189.2 190.1 191.1 191.9 192.1 192.9 193.4 193.8 194.1 194.7 195.3 196 196.6 197.3 198.1 199.2 199.9 200.6 201.3 201.8 202.2 202.4 203.6 204.8 206 207.1 208.6 209.8 212 214 215 215.8 216.5 217.3 218.4 219.3 220.3 221.2 221.9 222.5 223.1 222.9 222.7 223 224.1 225.3 226.4 227.5 228.5 229.4 230.1 230.9 231.3 231.9 232.4 232.9 233.3 233.7 234.2 234.9 235.8 235.9 235.9 236.4 236.8 237.1 237.7 238.5 239 239.3 240 241.8 243.9 245.8 247.2 249.2 251.1 252.9 253.9 253.7 253.4 253.7 254.2 255 255.9 256.6 257.1 256.7 255.3 254.1 252.5 251.1 249.9 247.3 244.4 241.3 239 237.8 237.5 237.8 237.5 237.2 237.1 237.2 238.1 238.9 239.8 240.5 241.6 243.3 244.9 246.6 248.1 249.7 251.2 251.6 251.4 251.1 250.5 249.9 248.1 247.4 247.8 247.6 247.8 247.4 247.2 247.4 247.5 247.9 247.6 245.3 242.2 245.4 246.6 246.9 247.6 248.6 249.2 250.2 251 251.6 251.2 250.7 249.5 247.4 245.5 244.8 244.9 227.5 239.2 245.2 249.6 253.2 255.9 257.7 258.9 259.7 260.4 261.1 261.6 262.4 263.1 263.7 264 264.2 264.2 263.9 263.5 262.8 262.1 260.9 259.6 258.2 257 256.7 258.6 259.7 261 262.4 263.2 264.1 265.1 265.9 266.5 265.9 265.1 264.9 264.6 263.8 263
171.8 173.5 175.2 176.7 179 182.2 185.1 187.4 188.8 189.7 190.8 192.1 193.5 194.3 194.8 195.4 195.8 196.1 196.8 197.4 198 198.6 199.4 200.1 200.6 201.3 201.9 202.6 203.2 203.5 204.3 205.6 206.8 208 209 210.2 211.1 211.6 213.5 214.3 215.1 215.9 217.7 218.7 219.7 220.7 221.6 222.3 223 223.6 223.8 223.7 223.6 224.6 225.6 226.7 227.8 228.8 229.6 230.3 231.1 231.6 232.2 232.7 233.2 233.6 233.9 234.5 235.3 235.5 235.5 235.6 236 236.2 236.5 236.8 237.2 237.9 238.4 239.1 240.1 242.6 244.3 245.3 246.6 248.1 249.2 249.8 249.7 249.5 249.5 250.1 250.9 251.8 252.7 253.7 254.1 253.1 251.7 250.2 248.7 247.3 244.7 241.9 239.2 237.4 236.6 236.4 236.2 236.1 236.1 236.3 236.9 237.8 238.5 239.3 240.5 242 243.8 245.6 247.3 249.1 250.6 251.6 251.7 251.3 250.2 249.8 249.3 248.1 248 246.4 244.9 245.8 246 246.2 246.3 246.7 247.3 246.8 243.5 241.3 245.4 246 246.3 246.9 247.3 247.8 248.5 249.5 250.2 250.6 250.1 248.4 246.4 244.3 242.9 241.8 230.2 239 244.1 248 251.7 254.6 256.5 258.2 259.4 260.1 260.7 261.2 262 262.4 263.1 263.4 263.7 263.6 263.4 263 262.4 261.8 260.6 260.7 260.5 259.2 256.8 256.5 257.6 259.3 261.1 262.3 263.2 264.2 265.1 265.7 265.3 264.7 264.1 263.1 261.9 260.9
172.6 174.5 176.4 178.3 180.2 182.6 185.3 187.3 189 190.3 191.7 193.5 195.3 196.4 196.9 197.4 197.7 198.1 198.6 199.1 199.7 200.3 201.1 201.6 202.1 202.7 203.4 204.1 204.8 205.5 206.3 207.2 208.7 210 211.1 212.3 213.4 213.9 214 213.9 214.3 215.8 217.3 218.6 219.9 221 221.9 222.6 223.2 223.9 224.4 224.2 224.2 225.3 226.1 227 228.1 229.1 229.8 230.6 231.2 231.7 232.3 232.9 233.4 233.7 234 234.6 235 235.1 235.1 235.2 235.5 235.6 235.9 236 236.2 236.8 237.2 237.5 237.9 238.4 239.9 242 243.2 244.2 245.3 245.6 245.5 245.4 245.3 246 247.3 248.7 250.2 251.2 251.3 250.1 248.6 246.8 245.3 244.3 242.3 240.1 238 236.5 235.7 235.5 235.3 235.1 235.5 236.2 237.7 239.1 239.7 240.4 241.7 243.3 245.1 246.8 248.5 250.1 251.1 251.5 251.6 250.8 249.5 249.2 248.1 247 246.8 246.2 244.7 244.1 244.6 245 245.4 246 246.6 244.5 242 241 244.6 245.5 245.1 245.1 245.4 245.7 246.1 247.3 248.3 249.5 249 247.4 245.2 243.5 241.8 240.9 240.7 238.8 243.9 247.7 250.6 253.1 255.1 256.6 257.9 259.2 260.1 260.8 261.2 261.8 262.5 262.8 263.1 263.4 263.5 262.9 262 261.4 261.5 262.4 261.1 258.9 256.6 254.8 256.7 258.9 260.6 261.5 262.2 263.2 264.2 264.9 264.9 264.4 263.9 263.1 262 260.5
173.7 175.6 177.5 179.4 181.3 183.2 185.1 187.2 189.2 191.3 193.5 195.5 197.4 198.3 199 199.1 199.2 199.7 200.3 200.8 201.4 202 202.6 203 203.6 204.4 205.2 206 206.8 207.5 208.3 209.1 210.1 211.9 213 214.1 215.4 216.3 216.2 215.8 215.7 216.1 216.5 217.8 219.1 220.6 222.1 222.8 223.4 224 224.6 224.6 225 225.8 226.7 227.5 228.4 229.3 230.1 231 231.4 231.7 232.3 232.9 233.4 233.7 234 234.5 234.6 234.7 234.7 234.8 234.8 235 235.1 235.2 235.2 235.4 235.7 235.8 235.9 235.7 236.6 239.1 240.4 241.4 241.6 241.5 241.3 241.3 241.7 243 244.7 246.3 247.7 248.4 248.2 247.1 245.3 243.5 242.3 241.3 240 239.2 237.6 236 234.9 234.6 234.4 234.6 235.5 237 238.5 240.1 240.9 241.5 243 244.6 246 247.7 249.3 250.2 251.1 251.5 251.2 250.7 250.3 249.8 248.7 247.4 247.5 246.8 245.6 243.9 242.9 242.9 243.8 244.8 243.6 241.7 240.5 239.8 241.2 242.1 242.7 243.4 243.5 243.8 244 245.1 246.9 248.3 248.2 246.8 244.9 242.9 240.9 239.6 238.5 239.7 244.8 247.4 249.6 251.7 253.6 254.9 256.1 257.1 258.1 259.2 260.5 261.2 261.9 262.3 262.9 263.5 263.6 262.7 261.6 260.8 260.1 260.5 258.7 256.5 254.5 254.4 257.2 259.2 259.7 259.5 260.2 261.3 262.1 262.8 262.9 263.5 263 262.5 261.6 260.3
175.1 176.6 178.5 180.4 182.2 184.1 185.9 188.1 190.2 192.4 194.6 196.6 198.8 200 200.6 200.5 200.7 201.3 201.9 202.5 203 203.5 203.9 204.3 204.9 206.1 207.1 208 208.8 209.7 210.7 211.6 211.9 213.1 214.5 215.7 216.6 217.3 218.1 217.8 217.8 218 218.2 218.1 218.4 219.9 221.7 222.9 223.5 224.1 224.7 225 225.6 226.4 227.2 228 228.8 229.7 230.6 231.2 231.6 231.7 232.3 232.8 233.4 233.7 234.1 234.1 234.2 234.2 234.3 234.3 234.4 234.4 234.5 234.6 234.2 234 234.3 234.6 234.7 234.4 234.6 236.6 237.5 237.7 238 238.1 237.9 238.5 239.1 240.5 241.8 243.2 244 244.1 243.9 242.9 241.4 240.4 239.6 239.2 238.5 237.7 236.9 235.5 234.1 234 234.2 235.3 236.7 238 239.3 240.7 241.9 242.7 244.1 245.8 246.9 248.1 249.3 250.2 251 251.2 250.9 250.6 250.3 249.8 248.8 248.1 247.3 246.9 246.4 244.9 246.1 245.9 244.7 243.5 242.7 242.8 242.7 241 238.7 237.8 239.3 240 240.8 242.3 242.7 243.9 245.9 246.9 247.3 246.2 245.3 242.6 240.4 237 218.5 239.3 244 246.3 248.4 250.5 252.1 253.2 254.1 255.1 256 258 259.3 260.4 261.5 261.7 262.3 262.9 263.2 262.6 261.5 260.3 258.4 257.9 256.6 254.3 252.5 255 258 258.1 257.8 257.5 257.6 258.4 259.3 260.3 262 262.9 262.5 261.9 261 259.7
176.3 177.7 179.3 181.2 183 184.9 186.6 188.9 191.2 193.3 195.4 197.7 199.9 201.2 201.9 201.6 201.5 201.9 202.4 203.3 203.8 204.4 204.9 205.5 206.3 207.4 208.4 209.5 210.6 211.6 212.7 213.4 213.9 214.4 215.8 216.9 217.9 218.6 219.2 219.4 219.8 219.8 219.8 219.7 219.4 219.4 221.1 222.4 223.6 224.2 224.9 225.3 226.2 226.9 227.7 228.4 229.4 230.2 231 231.4 231.7 231.9 232.2 232.5 232.8 233 233.1 233.3 233.4 233.5 233.6 233.7 233.8 233.9 233.9 233.5 233.1 232.7 232.8 233.2 233.4 233.3 233.3 234.4 235.1 235.7 236.2 236.6 237.4 238.2 239 239.8 240.3 240.4 240.4 240.4 240 239.6 239.2 238.7 238.3 237.8 237.1 236.2 235.3 233.9 232.1 232.2 235.3 236.6 238 239.3 240.6 241.8 242.9 244 245.3 246.8 247.8 248.9 249.5 250.3 251.1 251.2 251 250.7 250.4 249.6 248.9 249.2 248.3 247.6 247.1 246.9 247.4 247.6 247.1 246.1 245.3 245 244.9 244.1 243 240.6 239.8 237.2 237.4 240.6 242.6 243.9 245.3 246 246.3 245.6 244.8 243.3 238.6 225.4 232.4 240.5 242.5 245.3 247.3 249.4 250.5 251.4 252.4 253.3 255.1 256.8 258.8 260.6 261.1 261.1 261.4 262 262.2 261.9 260.1 258.7 256.6 255.1 253.7 251.5 253.3 256.3 256.8 255.9 255.6 254.7 255.2 256.1 256.8 259.5 261.5 262 261.7 260.8 259.8 259
177.6 179 180.6 182 183.9 185.6 187.4 189.6 191.7 193.9 196.2 198.3 200.6 201.9 201.9 201.7 201.7 202.1 202.8 203.5 204.4 205.2 205.4 205.9 206.7 207.8 208.9 210 211.2 212.4 213.8 215 215.8 216.2 217 218 219.1 219.7 219.9 220 220.4 220.7 221 221.3 220.7 220.2 221.5 222.7 223.8 224.5 225.1 225.8 226.5 227.3 228 229 229.9 230.6 231.4 231.5 231.9 231.8 231.6 231.7 231.9 232.1 232.2 232.3 232.5 232.6 232.7 232.8 232.9 232.8 232.6 232.4 232 231.6 231.4 231.8 232.2 232.3 232.4 233.1 234.1 235.1 235.9 236.9 237.4 238.2 238.9 239.6 239.8 239.7 239.6 239.4 239.1 238.6 238 237.4 237 236.5 235.5 234 233.1 231.7 231 233.9 236.7 237.9 239.2 240.6 241.9 243.1 244.2 245.3 246.5 247.7 248.9 250.1 250.8 251.2 251.4 251.2 251 250.8 250.8 250 249.6 249.8 249.2 248.9 248.5 248.9 249.3 249.3 248.7 248.3 247.3 247 246.1 245 243.8 243 242.3 241.7 236.2 238.5 243.2 244.3 244.9 245.5 245.4 245 244.4 242.9 235.7 215 228.2 235.8 241.3 244.2 246.6 248.4 249.2 249.8 251.1 253.4 255.6 257.7 259.8 260.9 261.2 261 260.8 261 260.9 259.6 257.6 256.1 254 252.2 250.7 252.1 254.5 255.7 254.7 253.5 252.3 251.8 252.8 253.7 255.1 258 259.7 260 259.4 258.7 258 257.5
178.5 180.4 181.8 182.9 184.3 185.8 187.7 189.9 192.2 194.2 196.1 198.2 200.1 201.4 201.6 201.8 201.6 201.5 202.2 203.1 204.1 204.9 205.3 206.1 207.1 208.2 209.4 210.6 211.6 212.5 213.6 215 216.1 216.6 217.3 218.4 219.4 220.1 220.5 220.7 221 221.3 221.5 221.5 221.7 222.1 222.4 223.5 224.2 224.9 225.5 226.3 227.1 227.7 228.5 229.5 230.4 231.2 231.6 231.7 231.8 231.5 231.2 231 231.1 231.2 231.2 231.3 231.5 231.6 231.8 231.8 231.6 231.5 231.3 231.2 231 230.6 230.3 230.2 230.5 230.8 231.3 232.3 233.2 234.5 235.8 237.1 237.7 238.3 238.8 239.1 239.3 239.1 238.8 238.5 238 237.6 236.9 236.3 235.7 235.2 233.5 231.9 229.8 231.9 233.8 236.3 238 239.2 240.6 241.9 243.2 244.4 245.5 246.6 247.6 248.8 250 251.1 251.5 251.6 251.8 251.8 251.5 251.3 250.9 250.3 250.7 250.9 250.7 250.6 250.4 250.5 250.9 250.9 250.2 249.8 248.9 247.8 246.7 245.6 244.5 243.4 242.1 239.9 234.5 239.5 243 243.8 244.4 245 244.5 244 243.3 239.5 234.6 219.2 218.9 228.4 239 242.8 245.7 247.3 247.6 248.8 251.8 254.3 256.5 258.5 260.3 261.2 261.5 260.9 260.2 259.3 258.4 256.6 255 253.5 251.7 249.7 249 252.1 253.6 253.2 251.3 249.7 249 249.3 250.5 251 252.1 255.1 257.1 257.2 256.8 256.1 255.6 255.3
177.8 180 181.6 183 184.3 185.8 187.9 189.8 191.8 193.7 195.5 197.2 198.9 200.1 200.5 201.1 201.1 201 201.6 202.6 203.6 204.7 205.4 206.5 207.7 209.1 210.4 211.5 212.3 213 213.6 214.9 216.4 217.1 217.9 218.8 219.6 220.3 220.8 221.2 221.5 221.6 221.6 221.7 222.1 222.7 223.2 223.8 224.5 225.2 225.9 226.8 227.6 228.7 229.6 230.5 231.3 232.1 232 232.1 231.4 231.1 230.9 230.6 230.4 230.4 230.4 230.3 230.4 230.5 230.7 230.6 230.5 230.3 230.1 229.9 229.5 229.1 228.7 228.9 229.1 229.9 230.8 231.7 232.4 233.7 235.2 236.5 237.3 237.9 238.1 238.3 238.6 238.3 237.8 237.4 237 236.6 236 235.2 234.6 233.5 231.9 229.5 232.5 234.6 235.9 237.3 238.5 240.1 241.7 243.1 244.5 245.7 247 248.2 249.1 249.7 250.5 251.3 251.7 252 252.4 252.4 252.1 252.1 250.9 251.8 252.2 252.3 252.5 252.4 252.2 252.3 252.3 252.3 251.5 250.3 249.2 248.2 247.3 246.2 245.2 244.2 243 241.1 237.9 233.5 241.6 242.9 243.5 243.9 242.7 241.7 240.4 238.3 235.3 231.3 212.9 222 228.1 234.2 238.4 243 245.3 249.7 253.1 255.2 256.9 258.8 260.1 261.3 261.7 261.5 260.3 258.8 256.3 254.8 253.3 252.5 251.2 248.6 248.2 251.1 251.6 249.8 247.8 246.9 246.8 246.9 247.7 248.1 248.8 250.9 252.3 252.2 252.5 252.1 251.8 251.6
176.5 178.7 180.7 182.3 183.9 185.8 187.8 189.6 191.4 193.3 194.7 196.2 197.6 198.7 199.4 200.4 200.4 201.2 202.4 203.4 204.4 205.4 206.3 207.2 208.8 210.3 211.8 212.9 213.5 214 214.6 215.5 216.8 217.7 218.5 219.2 219.9 220.5 220.9 221.2 221.6 221.8 221.8 221.9 222.5 223 223.4 224.1 224.9 225.6 226.4 227.2 228.5 229.9 231.1 232.2 232.9 233 232.7 232.1 231.3 230.7 230.5 230.3 230.1 229.9 229.7 229.5 229.4 229.5 229.6 229.4 229.3 229.1 228.9 228.5 228.1 227.6 227.4 228.1 228.9 229.6 230.4 230.9 231.3 232.8 234.5 235.8 236.6 237 237.3 237.6 237.4 237.2 236.8 236.4 236 235.6 235.2 234.6 233.6 232.2 229.8 231.9 234 235.5 236.6 237.7 239 240.9 242.6 244.1 245.7 247.2 248.7 249.7 250.3 250.9 251.3 251.9 252.3 252.6 253 252.9 252.8 252.3 252 253.3 253.6 253.7 254.1 254 253.7 253.7 253.6 253.4 252.2 250.8 249.6 248.7 247.7 246.8 246.1 245.1 244 242.5 240.3 236.2 232.9 238.9 241.8 240.3 235 237.4 235.4 231.3 216.2 215 209.1 227.4 238.5 241.5 244.8 245.7 247.2 252.3 252.6 253.9 255.4 258 259.6 260.3 261.1 260.7 259.8 258.2 256.5 256.2 252 250.4 250 249 246.7 249 248.6 246.6 245.3 244.8 244.5 244.6 244.9 245.2 245.9 246.6 247.6 247.8 248 248.2 248.4 248.1
175.7 177.6 179.9 182 183.9 185.8 187.8 189.6 191.3 192.7 193.9 195.2 196.2 197.3 198.9 199.9 201.1 202.3 203.6 204.7 205.7 206.5 207.4 208.5 209.9 211.5 213 214.1 214.6 215.1 215.7 216.3 217.3 218.3 218.9 219.6 220 220.4 220.7 221.1 221.4 221.6 221.8 222.3 222.7 223.2 223.6 224.4 225.1 225.9 226.8 228.3 230.2 232 233.1 233.9 234.2 234 232.9 232 231.2 230.4 230.1 229.8 229.5 229.1 228.7 228.5 228.4 228.1 228.2 228.3 228.1 227.9 227.6 227.2 226.8 226.3 226.9 227.7 228.3 228.9 229.3 229.8 230.4 232.1 233.8 235.1 235.9 236.2 236.5 236.4 236.2 236.1 235.7 235.3 234.9 234.5 234.2 233.8 233.3 231.9 229.3 233 234.8 236.3 237.5 238.5 239.8 241.6 243.5 245.2 246.9 248.5 250.1 251 251.6 252.1 252.4 252.7 253 253.4 253.9 254 254 253.7 253.6 254.5 254.9 255.2 255.4 255.3 255.2 255.1 254.9 254.3 252.9 251.6 250.6 249.5 248.7 248.2 247.5 246.5 245.3 243.9 242.1 240.1 235.5 231.9 238.1 236.5 228.9 226.2 224.4 221.2 232.6 227.2 209 220 234 242.1 246.6 246.5 248.2 253.9 252.2 252 253.5 254.5 256 257.3 257.7 258.2 257.8 258.3 258.5 254.8 250.8 248.4 247.1 246 242.8 244.1 244.2 244.1 243.2 242.9 242.7 242.4 242.2 242.2 242.8 243.5 244.3 245.1 245.4 245.4 245.3 245.2
176.9 178.4 180.1 182.1 184 185.9 187.8 189.4 191 192.3 193.2 194.1 194.9 196.6 198.5 200.6 201.5 202.8 204 205.5 206.6 207.6 208.5 209.7 210.6 211.8 213.6 215.3 216 216.4 216.8 217.4 218.1 218.7 219.1 219.5 219.9 220.3 220.6 221 221.3 221.5 221.7 222.3 222.9 223.4 223.9 224.7 225.4 226.4 227.9 230.6 232.5 234 235 235.6 235.2 234.1 233 231.9 231.1 230.2 229.4 229.1 228.7 228.2 227.6 227.2 226.8 226.5 226.6 226.8 226.9 226.6 226.3 225.9 225.4 225.5 226.2 227.1 227.4 227.7 228 228.5 229.8 231.8 233.2 234.4 234.8 235 235.1 235.1 235 234.9 234.6 234.2 233.8 233.5 233.4 232.9 232.5 231.5 229.1 233.6 235.2 236.6 238.3 239.4 240.6 242.3 244.1 246 248.2 250 251.5 252.4 252.8 253.3 253.6 254 254.2 254.6 255 255 255.1 255 255.1 255.6 256 256.2 256.4 256.5 256.9 256.9 256.2 254.9 253.6 252.6 251.7 250.9 250.3 249.6 248.7 247.6 246.3 244.9 243.1 241.2 239.2 234.7 231.7 228.9 225 229.1 230.8 233 238.7 235.6 207.6 215.7 231.8 241.8 244.2 244.8 249.2 249.6 250.2 251.1 251.6 251.9 254.3 256.1 254.1 255.1 255.4 255.7 254 249.9 246.1 244.8 243.6 242.1 240.7 241.4 241.6 241.7 241.4 241.2 241 240.6 240.1 239.9 239.6 240.3 241.2 241.8 243 243.4 243.7 243.6
177.5 179.5 181.2 182.7 184.1 186 187.8 189.2 190.7 192 192.9 193.9 194.8 195.9 197.8 198.5 199.9 202 204 205.6 206.7 207.7 208.9 210 211.3 212.7 214.6 216.2 217.1 217.4 217.8 218.3 218.8 219.1 219.3 219.4 219.9 220.2 220.5 220.8 221.1 221.4 221.6 222.2 222.8 223.5 224.2 224.9 225.7 227.2 229.4 233 235.1 236.3 236.3 236.4 235.4 234.2 233 231.9 230.8 229.9 229.1 228.3 227.8 227.2 226.7 225.7 224.9 224.9 225.1 225.3 225.5 225.1 224.9 224.5 224.2 225.1 225.8 226.5 226.8 227.2 228 228.9 230 231.4 232.6 233.5 233.7 233.8 233.7 233.6 233.4 233.2 232.8 232.2 232.4 232.1 231.3 230.8 230 229.4 230.8 233 235.2 237 239.1 240.4 241.6 242.9 244.8 246.7 249.5 252 253 253.6 254 254.4 254.8 255.5 255.6 255.8 256 256.1 256.2 256.2 256.4 256.5 256.7 256.9 257.4 257.8 258 257.3 256.3 255.3 254.2 253.8 252.9 252.5 252.3 251.7 250.7 249.8 248 246 244.1 242.3 240.3 239.1 229.4 229 237.6 238.6 238.9 239.9 240 235.2 207.7 216 234.1 237.7 241.3 243.7 245.7 247.8 248.8 249.5 250.1 250.9 251.6 253 250.8 251.6 252.1 250 246.7 244.5 242.5 241.5 240.9 239.7 238.9 239.4 239.7 239.7 239.7 239.5 239.3 238.9 238.5 238.2 237.9 237.8 238 239.3 240.8 242.3 242.9 243.1
