ncols 200
nrows 84
xllcorner 380000
yllcorner 661750
cellsize 50
130.7 121.6 116 116.2 126.4 141.3 149.8 152.5 152.7 154 156 158.6 161.3 162.5 163.1 163.4 163.4 163.2 161.5 159.9 158.1 155 151.6 149 145.7 143.1 140.9 140.1 140 140.2 139.8 140 139.5 139.2 138.6 131.5 120.5 119.9 138.7 147.3 149.9 150.7 151.9 154 156.5 159.3 161 162 163.4 165.4 167.3 170.5 172.3 173 172.3 171.7 169.1 167.1 165.8 167.5 172.1 177.1 181.5 185.8 190.6 195 200.4 205.5 209.6 212.6 214.5 216.3 218.1 217.9 216.8 216.6 217.2 216.5 215.4 213.3 211.1 209.5 207.6 206 203.9 203.3 202.1 203.1 203.4 203.2 203.1 203.2 202.1 201.2 199.3 197.8 196.2 194.9 193.8 194 194 193.5 193 192.3 191.7 191.5 191.6 192 191.4 190.8 188.8 185.8 183.3 181.7 181.3 180.9 180.4 179.2 177.7 175.7 172.4 169.8 168.1 165.9 160.7 159.3 161.8 162.4 162.4 162 161.5 159.5 157.6 157.7 156.6 145.5 151.1 158.2 158.8 162.1 166.4 163.8 160.4 165.4 170.6 174.9 177.2 179.4 181.2 183.8 185.4 187.3 187.2 186.4 185.1 184.7 184.6 182.6 180 179.5 179 177.8 176.7 175.8 174.7 173.1 170.6 167.3 162.2 156.1 150.3 146.3 143 138.1 131.6 133.1 133.6 135.1 135.8 136.7 136.4 133.8 130.1 125.7 124.8 123.4 121.3 118.4 116.7 113.4 109.7 105 100.6 96.9 94.8 92.6 90.6 87.6 83.7 80.3
137.7 125.4 119.7 115.5 116.3 127.2 142.1 147.1 149.7 149.1 151.6 153.3 155.6 157.1 158.8 159.6 159.1 158.7 157.1 154.7 152.5 150.8 147.8 145.6 143.7 140.6 138.2 137.1 137.1 135.9 136.5 137.4 137.7 136.5 135.1 126.9 113 129.8 140.3 143.6 147.2 150.6 152.5 153.6 154.9 156.8 159.2 160.8 162.3 164.7 168.2 169.5 171.1 173.1 173.5 173.4 171.5 169.1 167.7 169.1 173 177.4 181.6 185.7 190.1 194.4 198.7 203.5 206.9 209.5 211.6 213.2 214 214 213.1 211.6 210.2 209.5 209.4 207.9 206.9 204.9 203.3 201.2 199.8 199.8 198.9 198.7 199.3 200.2 200.2 200.4 200.1 199.7 198.1 196.6 194.4 193 191.5 191 191.5 191.3 190.4 189.6 188.7 188.3 188.2 189 188.8 189.1 188 185.7 182.7 180.9 179.9 179.5 179.1 178.3 177.4 176.2 174 170.4 167.8 165.9 163.2 158.4 154.6 158.8 159.5 159.4 159 158.4 156.2 155.1 155 148.9 147 150.2 155.2 156.4 159.9 164.1 160.8 162.1 169.6 173.4 175.8 177.3 179.6 181.1 182.3 184.6 186 186.4 187.2 187.1 186.8 186.5 180.6 179.2 178.6 177.3 176.3 174.1 173 171.5 170.3 168.6 165.2 160.5 153.6 148.8 144.1 140.2 133.7 130.4 130.8 131.3 131.4 132 132.8 132.9 129.4 126.4 122.9 121.1 119 116.9 115.2 113.1 110.7 106.7 101.8 98.2 94.9 91.8 89.2 87.2 82.5 79.5
143.7 131.2 122.8 118.9 114.7 117.3 128.3 140.5 144.6 146 147.4 149.5 151.3 153.3 154.9 155.3 153.9 152 150.9 149.3 147.7 146.9 146 145.4 144.3 140.4 137.4 133.5 134 131.6 133.2 134.2 133 131.4 129.2 121.4 115.7 131.1 135.7 138.6 141.9 146.8 150.7 153.2 154.3 155 155.9 158.3 160.3 162.3 165 168 169.8 171.2 172.3 173.4 172.7 170.6 169.3 169.4 171.8 176.2 180.7 184.8 189.1 193.3 196.6 200.2 204 206.4 208.2 209 209.5 208.5 206.8 205.3 204.2 203.7 203.7 203.1 202.1 200.3 198.7 197.5 197 194.9 194.1 194.6 195.3 196.5 197.5 198.5 198.5 198 197.4 196.2 193.9 191.3 190 189.2 188.9 190 189.6 188.1 186.2 185.2 184.7 184.9 185 185.6 185.5 184.7 183.1 180.4 178.8 177.7 178 177.7 177.5 176.6 174.9 171.8 167.9 165.4 163.3 161.4 153.6 150.3 151.9 156.4 156.5 155.7 155.3 153.5 153.2 151.7 147.6 144.6 147.1 150.9 154.1 157.9 160.4 157.8 163.5 173 174.8 175.1 176.2 177.3 178.9 180.1 181.8 184 185.2 186.6 187.6 189.4 185.9 179.7 177.8 177.1 175 173.2 171.8 170.1 168.6 167.6 166.3 163.8 159 151.8 146.5 142.5 138.4 134.6 130.5 125.6 127.8 128.5 128.2 129.1 128.7 126.9 123.8 119.7 116.7 115.2 112.9 111 110 106.3 104.8 101 95.9 91.1 88.5 86.9 84.6 82.9
149.9 139.6 129.9 125.1 122.7 114.5 117.1 132.9 140.5 143.9 145 147.7 146.9 147.6 148.4 147.9 148.1 147.6 146.4 143.9 142 141.7 143.9 144.8 143.4 141.6 138.2 134.2 131.5 124.8 130.4 127.5 124.6 120.8 117.9 112.3 113.7 123 131.2 133.6 136.7 141 146.2 150.9 152.4 153.4 154 154.9 157.7 159.6 162.1 165.2 168.2 169.3 170.5 171.3 171.4 170.1 169.4 168.5 170.1 175.4 180.2 183.9 188.1 191.3 194.7 197 200.9 202.8 203.5 203.8 203.4 202.3 201.4 200.2 199 198.2 198.1 198 196.9 195.6 194.7 193.5 192.4 192.3 192.9 193.8 193.8 194.1 195.1 196.4 197 197.4 196.4 195.3 193.8 192.6 190.8 189.1 187.6 187.5 188.7 187.4 186.2 184.2 181.6 181.5 182 182.4 182.7 182.3 181.6 180.1 178.4 176.8 176.6 176.2 176.5 175.7 175.2 173.2 169.2 165.6 163.4 161.4 159.2 156.6 147.4 149.2 153.3 154.4 153.4 152.7 150.8 150.5 149.4 143.5 138.4 142.3 147.7 150.6 154.9 155.6 155.6 163.9 170.1 171.3 170.5 172.7 174.4 174.6 176.7 178.9 180.7 182.3 184.7 186.4 187.9 184.9 179.6 176.9 174 172.3 170.5 168.8 167.2 166.1 165.4 164.4 162.8 156.8 149.9 144.9 139.1 135.8 133.1 126.9 123.1 124.4 125 125.1 125 125.8 123 120.9 117.2 113.8 111.7 110 108.7 106.3 103.9 101.9 98.1 95.6 92 88.8 85.4 83.6
154.8 145.7 136.5 130.2 130.1 116.8 115 117.4 134.2 139.1 141.1 142.7 142.8 142.8 141.8 141.1 141 140 138.3 136.9 137.6 138.3 140 140.8 139.2 138.5 136.8 135 131.5 125.4 119.7 120.4 116.2 113 112 111.9 113.2 112.7 116.5 128.4 131.7 135.4 139.8 144.6 148.5 150.8 151.8 151.9 154.4 156.4 158.7 161.9 165 166.8 168.1 168.8 169.3 169 168.6 168.2 168.4 173 178.7 182.7 185.6 188.1 192.2 194.6 196.6 197.4 197.5 197.3 196.9 196.5 195.4 194.6 193.9 193 193 192.5 190.1 191.4 191.4 191.4 191.6 191.9 194 194.6 194.7 194.4 194.4 193.8 196.6 197 196.5 195.9 194.7 193 191.4 189.6 187.9 187 187 186.1 184.6 183.5 181.1 179.5 179.3 179.8 179.5 179.5 179.6 179.2 178 176.6 175.2 174.9 175.2 175 174.7 173.3 171.2 167.5 163.9 161.4 159.4 157.4 154.9 148.8 145.8 151 151.1 150.8 149.1 149 148 146.6 141.7 133.5 135.5 142 146 148.8 151.9 153.1 160.6 163.4 160.9 167.7 168.7 170.2 171.6 172.6 174.5 176.6 178.4 181.8 184.2 185.6 183.2 177.7 175 172 169.7 167.8 166.2 164.2 163.5 163.5 162.5 160.9 156.1 148.1 142.5 138.7 134.5 130.6 127.5 123 120.7 122.6 122.1 121.8 122.2 121 119.6 114.5 111.5 109 107 105.5 104.2 103.1 101.5 97.8 94.1 90.8 87 84.6
157.1 150.7 143 133.8 131.5 128 115.3 115 117.7 130.7 133.4 134.7 135.6 134.9 134.2 133.6 132 132 130.4 129.6 129.8 132.2 133.7 133.5 134 136.4 133.8 132.7 130.7 125.6 118.6 113 111.3 111 111.6 111.6 111.5 111.5 112.3 118.5 126 130 133.1 137.2 141.5 145.9 147.7 148.9 150.4 152.1 154.5 157.8 161 163.1 165.2 165.8 166.3 166.8 166.9 167.3 167.3 170.5 176.4 179.6 183.2 185.7 188.7 190.3 190.8 191.1 191.2 191.1 190.8 190.3 189.5 188.6 188.8 188.7 188.1 188 191.7 194.6 192 191.2 191.5 192 194.1 195.5 195.3 194.8 194.6 194.8 197 198.2 198.1 197.8 196.2 194.1 191.9 190.2 188.5 187.1 186.3 185.4 185.4 185.4 183.1 180.7 179.2 177 177.4 177.3 177.4 177.4 177.1 176.5 174.8 174.3 173.9 173.7 173.5 172.6 171.5 169.4 166 162.8 160.2 158.1 156.1 153.9 149.7 144 141.2 146.1 146.8 146.8 146.7 146.1 143.5 139.2 128.6 131.9 138.9 140.5 143.8 146.8 149.8 153.9 154.7 159.6 161.1 163.4 166.7 168 169.3 171 172.7 174.3 177.8 181.4 182 179.8 174.7 171.4 168.9 166.8 164.4 162.6 161.5 161.6 161.3 160.7 158.9 154.4 146.7 141.7 136.5 132.3 129.2 126.4 120.7 118.5 119 119.1 118.8 118.2 117.3 115.1 112.2 108.5 107.5 105.3 103.8 103 102.3 99.3 96.5 93.2 90.2 87.4
158.6 152.5 145.5 137.8 130.4 128.8 122.2 115.6 115.1 117.5 124.5 127.2 128.5 128.3 127.5 126.9 126.9 127.1 126.7 126.5 125 126.1 127.8 129.3 131.2 132.5 131.5 130.8 128.1 119.5 113.2 109.8 109.4 109.1 110.8 110.1 109.8 110.4 110.7 117.4 121.8 124.5 128.3 131 135 139.1 142.3 145.6 146.9 148.3 150.2 153.1 156.7 158.8 161.3 162.7 163.2 163.7 164.1 165.1 167.7 169.9 174.2 177.1 180 181.9 182.5 183.9 184.5 185 184.7 184.4 184.7 183 184.1 184.5 184.5 185.1 184.8 189.5 190.5 191.8 193 191.5 191.2 192.3 194.5 195.2 195.4 195.4 195 195.9 198.4 199.8 200.6 200 199.3 196.8 194.6 192.3 190.5 188.8 187.8 187.1 188.1 188.2 186.4 183.5 180.1 178 176.4 175.8 175.3 175.4 175.2 174.8 174.4 173.4 172.7 172.5 172.2 171.4 170.4 169.8 168 164.4 161.3 159.2 157.1 155.1 153.2 150.2 143.1 139.7 138.3 137.3 141.3 143.9 143.3 139.8 132.2 130.5 132 135.2 138.4 141.3 143.6 146.5 147.1 150.6 153.3 155.4 159.5 162.3 163.4 163.9 166.6 168.3 169.5 172.1 174.5 175.4 173.8 170.4 168.3 166 163.6 161.5 159.3 159.4 159.5 159 158.4 157.1 152.3 145.6 139.2 133.8 130.4 127.5 124.9 119.6 115.5 115.6 115.5 114.9 114.5 113.4 111.9 110.1 108 104.4 103.3 102.1 102.6 101.4 99 96.7 93.5 88.6
158 153 146.9 140.9 132.7 128.3 123.8 116.5 115.5 115.7 115.3 117.3 126.2 127.2 127.6 125.9 122.7 123.9 120.5 118.1 116.4 117.9 119.5 121.6 124.5 125.7 125.7 125.7 121.7 113.3 112.9 111.2 109.9 111.7 111.6 109.6 109.7 109.7 112.9 116.7 119.1 121.2 123.3 125.6 130.3 132.9 136.3 140.9 143.8 144.6 145.7 147.8 150.8 154.3 157.2 158.4 159.7 161.1 162 164.1 168.2 170.6 173.4 173.7 175.7 176.7 177.5 178.3 178.8 179.5 178.7 178.3 178.9 177.8 178.6 177.2 179.9 179.3 181.8 184.9 189 190.3 191.4 192.3 191.8 192.2 192.6 194.8 195.4 195.3 195.6 197.1 199.8 201.5 203.1 202.9 202.5 201 198.2 196 193.5 191.4 190.2 189.5 189.8 191.5 191 188.8 184.9 180.5 177.6 175.5 174.4 173.8 173.7 173.3 173.4 173.1 172.1 171.4 171 170.1 169.2 168.9 168.5 166.7 163.2 160.6 158.2 156.4 154.4 152.5 151 149.8 145 143.6 133.8 135.9 141.2 140.1 135.9 129.4 128.9 129.7 132.1 134.7 137.3 140.2 141.9 144.2 147.5 149.3 150.9 155.8 157.1 157.9 161.2 160.4 161.9 159.5 158.8 160.6 162.8 166.1 167.2 165.4 162.6 160.3 158 155.8 156.3 156.6 156.7 155.9 154.5 151.7 146.7 139.8 133.7 129 126.2 122.8 119.2 114.5 113.8 112.7 111.7 111 109.9 109.2 107.9 105.6 103.7 102.3 101.4 101.6 100.2 98.1 95.2 91.3
158 154 148.8 142.4 136.9 131.6 127.7 125.6 116.3 116.8 115.5 115.2 114.6 115 116.6 116.8 116.6 117.1 117.2 117.5 117.4 117.2 116.4 115.9 115.4 115.2 114.3 113.9 113.9 114 112.1 114.5 121.7 117.6 113.7 107.7 110.2 109.1 109.9 115.8 121.8 124.4 123.1 121.8 124.5 128.2 130.8 134.5 139.3 141.1 142.1 143.3 145.6 148.4 151.9 155 157.8 159 160.9 163.2 167.5 170 171.1 171.2 171.7 172.8 173.6 173.1 173.6 173.4 174.2 173.8 173 172.3 172.3 173.2 173.2 175.5 178.8 181.5 184.7 190.3 192.3 193 193.7 193.1 193.1 193 194.6 195.4 197 199.6 202.5 204.2 205.6 206.9 206.3 205.4 203.6 201.6 198.1 195.4 193.7 193.4 193.9 194.8 195.8 194.8 191.4 187 181.4 176.4 174.5 173.3 172.6 172 172.3 172.2 171.6 170.9 170.3 169.4 168.3 168.2 167.9 167.4 165.8 162.6 159.8 157.8 155.7 153.9 152.1 150.5 149 147.7 136.5 131.8 132.5 137 136.5 131.7 127.1 127.4 126.9 130.3 132.6 135.3 137.1 139.2 141.2 142.8 144.8 147.2 150.9 151.8 153.6 153.6 153 151.6 150.8 151.7 155.5 163.6 164.7 165.3 163.9 159.8 157.7 154.6 153.2 153.5 153.6 153.5 152.9 152 149.4 145 138.3 132 127.3 124.3 121.5 117.9 114.3 111.5 111.3 109.9 108.5 107.8 107.1 105.8 104 102.6 100.3 100.5 100.5 98.2 97.1 94.3
157.4 153.4 148.4 144.8 140.5 137.1 134.5 131.6 126.6 119.7 116.7 115.4 115 114.4 113.9 113.8 114.6 114.4 114.4 119.7 115.8 115.2 114.6 114.3 114.2 111.2 109.7 109.8 110.2 111.2 120.9 132.4 134.2 127 116.6 112.8 109.3 109.3 108.3 116.4 123.4 125.9 128.8 124.5 122.4 123.5 125.2 130.3 134.4 136.7 139.8 141 142.7 145 148.1 151.8 154.8 159.6 162.5 164.8 166.9 167.9 168.6 168.9 169 169.2 169.1 169.1 169.4 168.7 168.8 169.1 168 167.4 167.2 168.1 169.3 168.5 174.7 179.6 185.4 190.1 193.4 194.3 194.8 195 194.5 195.8 196.2 197.7 201.5 203.1 204.8 206.8 208.3 209.5 209.7 210 208.2 207.2 204.8 201.7 199.4 198.2 198.8 199.6 199.9 198.7 196.7 193.5 187.3 180.3 176.2 173.1 172.5 171.8 171.1 171 171 170.5 169.5 168.7 168.2 167.7 165.1 167.1 167.1 164.4 161.5 159 157.3 154.9 153.4 151.1 149.3 147.6 145.8 142.7 132 129.9 131.8 132.2 126.9 124.9 122.7 123.2 128.9 131.6 133.6 134.3 135.1 137 139.4 141.6 144.6 146.1 147.2 147.6 146 142.7 143.1 147.6 159 164.6 165.7 166.2 164.8 162.6 158.4 153.8 152.4 150.8 150.7 150.4 150.3 149.9 149.3 147.5 144.4 137.7 130.7 126.3 122.7 119.5 116.2 112.6 110 109.4 108.1 106.8 106.1 105.2 103.3 102 100.7 100 99.1 99.1 97 95.5
158.1 155 151.5 148 143.9 142.5 141 137.7 126.9 132.3 126.1 119.7 117.1 117.5 116.7 115.8 115.5 115.1 116.2 119.7 114.4 116 115.3 113.9 113.7 112.6 112.2 112.1 112.3 119 129.4 140 142.3 139.5 134.7 127.2 113 111.5 108.4 112.8 119.5 124.5 128.8 127.4 124.4 121.7 122.5 126 129.3 133.5 136 139.1 142.4 145.9 149.5 151.6 153.8 159.3 163.1 164.5 165.7 166 166.3 166.2 166 166.1 166.2 166 166.1 164.6 164.6 164.3 163.6 163.5 163.9 164.1 164.3 167.7 173.5 179.4 186 189.3 192.6 195.1 196.1 197.1 197.2 199 199.4 201.6 204.4 205.4 207.3 210 212.2 213.5 213.3 213.2 213.4 212.4 210.6 208.9 206.8 203.9 204 204.3 204.7 202.6 199.7 196.5 191.2 185.4 179.6 175 172.7 171.8 170.8 170.1 170 170 169.2 168.5 167.6 167.1 165.2 164.4 165.5 165.9 163.2 159.9 157.8 155.2 153.7 151.5 149.7 147.5 145.3 143.9 140.8 136.9 128.6 129.2 127.2 125.7 124.4 123.6 121.8 124.4 129.2 130.6 131.1 132.5 134.1 135.5 138.3 141.3 141.5 141.2 138.8 134.2 138.7 154.9 166.5 170.8 172.3 169.2 166.1 163.6 160.5 155.9 152.6 149.1 147.7 147.5 147 146.6 146.5 146.4 145.3 142.8 137 131.2 125 120.8 118.1 116 111.2 108.3 107.2 105.8 105.2 105 103.7 102.5 100.5 99.8 98.6 98.6 98.4 96.4
159.8 157.7 154.2 150.5 147.1 144.6 143.2 133 138.5 137.4 135.2 132.2 129.6 127.6 125.3 124.1 121.4 117.8 118.3 119.5 115.5 116.1 115.1 114.4 119.9 119.5 121 122.7 127.8 132 142.4 148.3 147.3 145.2 141.1 135.6 117.6 107.5 106.6 110.7 113.3 119.8 124.1 126.6 126.3 123.6 122.7 123.3 127.1 129.9 135.2 140.9 145 149 151.5 152.5 152.8 155.4 159.2 162 163.2 163.3 163.6 163.5 163.7 163.8 163.6 163.5 163.6 162.9 162.1 160.6 160.5 161.1 162.3 161.7 163.4 167.1 170.8 177.4 184.9 188.9 192.2 195.7 198.2 199.4 200.1 201 202.3 205.1 208.9 210.1 211.9 214 216.1 217.5 217.8 217.3 217 216.6 215.9 215 213.2 211.6 210.8 210.3 210 207.3 203.7 199.4 195.6 191.3 185.1 179.9 174.3 173.1 171.4 170 169.2 168.2 169.5 168.9 167.8 167.9 167.6 166 158.6 160 159.8 159 156.9 154.9 151.5 148.1 148.5 146.4 144.1 140.8 136.7 135 131.9 130.1 128.9 126.2 124.5 123.3 123.5 122.5 120.7 125.8 128.7 128.3 128.1 129.9 133.3 136.7 137 135.3 130.9 130.7 146.1 161.1 164.9 170.8 177.3 174.7 169.2 164.4 160.6 157.7 154.1 149.7 146.8 144.7 143.7 143.6 143.6 143.8 144 143.4 140.8 137.2 129.6 122.6 120.4 117.2 113.9 109.4 105.3 105.3 104.5 104 103.5 101.8 101.3 99.4 98.3 97.9 99.7 97.4
160.6 157.6 154.7 150.9 147.1 143.4 142.1 143.9 144.4 142.7 140.9 137.7 134.5 130.7 129 128.3 129.5 127.1 124.4 121.5 115.5 116 116.7 131.3 135.7 137.2 136.3 139.7 144.4 149.7 153.5 152.5 152.1 150.7 150.1 146.3 129.5 107.3 106.9 106.6 111.8 113.2 117.8 121.7 123.9 125 123.5 122.8 124 128.6 135.4 142.9 148.6 150.3 151.6 152.7 152.1 152.1 154.5 157.3 159.5 160.4 160.9 161.3 161.4 161.8 161.4 161.2 160.8 159.8 158.8 157.5 158.4 158.8 159.5 160.7 163.7 168.9 170.5 174.9 181.6 186.7 191.9 195.8 199.3 201.8 202.7 203 204.8 209 212.3 214.9 217.8 219.8 220.9 221.2 222.2 221.2 220.8 220 219.7 219.2 217.8 216.9 216.9 214.5 212.4 210.7 207.1 201.9 199.2 195.6 190.8 186 179 175 172.9 171.1 170.1 168.4 164.6 168.4 168.5 168 167.3 165.5 153.8 152.5 150.3 149.7 146.8 147.8 142.5 141.2 140.4 138.8 136.7 135.2 134.7 133.5 132.3 129 128.1 126.1 125.2 125 124 122.4 122 121.3 119.6 122.7 124.7 124.7 126.4 130.2 132.8 131.4 127.6 134.4 149.4 161.9 168.7 168.9 172.6 176.1 173.6 167.3 160.9 158.4 155.2 151.4 147.2 143.8 140.9 140.5 140.4 140.7 141 141.2 140.7 139.5 135.5 130.2 124.2 118.8 115.8 111.9 107.9 103.8 104.3 102.8 101.7 100.9 99.9 98.7 97.7 96.6 96.4 96
160.1 157 153.8 150.2 144.2 146.1 148.7 149.5 149.6 148 145.8 142.8 139.8 134.7 132.9 132.7 133.3 131.7 129 127 115 118.7 139.3 145.4 146.9 149 151 153.2 155.3 157.4 157.2 157.2 157.1 157.3 158.5 158 146 127.8 105.6 106.4 105.9 111.2 112.8 117.3 119.8 122.4 121.8 121.4 122.7 126.9 134.9 141.7 146.6 149.5 151.5 151.4 151.2 151 151 152.8 154.9 156.7 158.6 159.1 159.4 159.7 159.4 159 158.5 157.3 156.2 155.7 156.8 158 159 160.9 165 172.1 173.9 176.4 180.8 185.5 191.3 196.2 200.1 203 205.2 207.3 210 212.1 218.1 221.4 224.2 225.7 226.3 226.6 226.5 225.3 224.5 223.9 223.5 223.1 221.6 219.2 219.1 217.3 213.9 211.1 209.5 204.6 201 197.5 194.4 190.6 185 179.8 175.8 173.6 172.4 170.6 166.3 162.2 164.8 167.6 166 159.3 162.1 163.3 162.3 161.4 161.3 158.8 155.1 152.3 150.1 147.8 143.4 143.6 142.5 139.8 136.9 133.1 130.2 127.3 128 126.1 124.2 122.7 121.9 121.6 121.3 120.1 119.2 121.9 122 123.9 127.4 129.1 127.4 134.5 148.2 154.2 163.6 168.7 169.8 172 172.6 169.1 162.9 159.2 155.5 152.5 149.1 144.7 140.9 138.1 137.4 137.4 137.7 138.1 139.1 139.5 138.4 134.1 130.2 123.1 118.3 114.3 110 106.7 103.2 102.5 101.1 99.2 99 97.7 96.7 96.5 95.7 95.1
159.7 156.4 151.8 147 150.5 154.2 156.5 156.8 155.3 152.9 150.3 147.4 144.3 140 137 135.7 134.9 134.5 132.4 128.8 120.2 125.7 146.9 149 152.3 154.2 155.8 157.3 159 159.9 160.3 160.1 160.6 163.5 166.2 165.9 162 148.2 131.6 109.6 105.1 105.3 110.6 110.5 115.6 113.2 114 117.4 123.1 126.2 133.6 139 143.3 146.5 148.5 148.9 149.2 149.2 149.3 149.2 151.7 153.1 155.4 156.8 157 157.4 157.4 157.2 156.5 154.2 155.6 157.1 156.9 157.5 158.8 161.4 165.6 170.5 175.6 179.3 181.5 186.1 191.4 196.5 200.8 204.4 207.4 210.6 212.8 217.4 221.5 225.9 229.5 231 231.2 231.1 230.5 229.1 228.3 227.7 227.3 225.6 223.5 221.2 218.5 217.5 215.2 211.7 209.1 205 202.2 198.9 196.1 193 189.8 185.2 179.4 176.2 175.1 173 171.8 170 168 161.2 159.3 164.8 166 165.8 164.7 163.7 163.6 161.5 158.7 156 153.5 150.8 148 146.1 143.7 142.9 140.5 137.6 135.8 134.1 132.2 129.7 124.7 123 121.6 121.2 120.6 119.8 118.9 119.2 118.9 119.4 121.2 125 127 127.3 138.3 147.9 153.8 158.9 157.8 160.1 166.5 166.2 164.8 160.1 155.7 152.4 149.3 146.3 142.3 138.6 135.1 135 134.5 134.6 135.1 137.4 137.5 134.9 132.8 128.2 123.3 118.1 112.8 109.3 105.5 102.8 100.8 99.1 98.1 97.1 96.2 95.4 94.6 94.5
157.9 152.3 153.5 155.2 158.3 160.6 162.2 162.3 161 158.4 155 150.7 146.8 143 140.4 137.3 136.1 135.6 134.4 131.8 121.6 127.5 127.1 149.7 152.5 154.6 156.7 156.4 158.4 159.6 161.3 163 165.6 168.3 169.2 168.7 166.9 161.4 151.5 130.9 111.1 104.4 105.3 105.9 108.2 105.2 108.2 114.2 120.8 124.2 128.5 134.4 139.9 144.1 146.5 147.1 147.2 147 147 147.9 148.5 149.9 151.6 153.6 154.6 155.1 154.9 153.3 152.1 157.6 159.3 160.6 160.7 161 162.5 164.2 167.7 173.1 176.1 179.9 183.4 186.8 190.8 196.5 201.8 206.2 209.9 213 215.9 220.8 225.6 228.9 232.7 235 235.3 234.4 234 232.7 231.4 230 228.1 226.4 224.2 221.8 218.4 216.8 214.6 212.2 209.1 205.8 203.5 200.1 196.8 194.3 191.7 189.6 185.7 181.5 177.9 176.5 174.8 172.8 170.4 168.6 167.8 167.4 167.1 166.8 166.3 165.8 164.7 163 162.1 161.5 156.3 153.5 150.7 148.4 145.7 144.5 142.3 140.4 138.9 137.4 134.8 131.5 127.8 122.9 121.6 120.8 119.9 119.8 117.6 118.3 118.9 118.3 118.4 120.5 123.8 125.5 126.5 137.5 141.3 143.4 146.4 149.4 154.4 157.7 161.7 159.2 156 152.2 148.4 145.3 142.7 139.3 134.9 132.1 131.5 131.4 131.7 132.1 132.3 132.8 132.1 130.5 127.3 122.7 117.1 113 109 105 101.2 99 97.7 96.8 95.9 95 94.3 93.4
157.3 159.2 160.4 161.4 163.9 164.9 166 165.7 164.1 161.2 157.5 153.6 148.8 145.4 143.7 142.7 139.8 138.1 135.8 133.1 117.2 124 125.9 149.3 151.1 153.7 154.3 156.4 158.6 160.5 162.3 165.7 169.2 171.1 170.8 169.4 167.3 164.4 157.4 144.7 127.9 114.6 107 104.4 103.9 107.2 104.6 111.2 115.7 120.6 125.1 130.5 136.1 141.2 144.1 145.2 145.3 145.3 145.9 146.5 147.2 147.4 148.6 151 152.2 152.1 148.2 152.7 157.6 160.9 164.2 166 167.2 169.5 170.9 171.4 171.7 175 177.1 180.6 185 188.8 192.1 195.5 201.7 206.7 211.1 214.8 218.6 223.5 228.8 232 234.8 237.2 237.9 237 236.3 235 233.8 231.8 228.7 226.5 224.2 221.4 218.4 215.6 213.1 211.6 208.8 205.8 203.2 200.4 197.9 194.4 191.9 190.8 189.6 186.5 182.5 179.6 178.2 176.3 173.6 171.5 169.3 168.6 168.3 167.9 167 167 165.2 164.6 163.6 164.1 161.4 158 155.2 152.1 150.2 147.4 144.8 143.6 141.9 139.8 136.8 134.4 131.1 127.7 123.6 120.5 119.6 119.4 117.7 117.7 118.2 117.8 117.4 117.6 118.7 121.1 124.7 128.4 132.8 136.4 139.4 143.6 148 154.7 156.1 155.2 154 151 147.6 143.5 140.8 138.4 136 133.3 130.2 129.4 128.2 128.1 128.7 129.3 129 128.5 126.8 123.6 119.1 115.5 111.4 107.3 103 99.7 97.4 96.9 95.7 94.7 94 93
162.2 164.3 164.8 165.7 167.4 169.3 167.7 166.4 164.2 161.3 158.5 154 150.7 152.2 152.4 149.4 145.7 141.2 138.4 135 129.4 118.3 133.4 145.9 149.6 153.3 155.6 159.1 163.9 167.9 166.2 167.2 169.6 171.8 171.2 169.2 166.1 163.1 158.4 151.7 141.1 131.8 124.2 120 109.1 103 104.3 103.8 109.7 116.3 122.1 126.9 132.3 138 142.2 143.8 143.7 143.4 144.2 144.8 145.2 145.7 146.9 148.2 148.2 146.8 153.3 157.6 161.2 164.1 167.3 170.3 172.8 174.6 176.4 176.6 177.3 177.4 178.9 182.2 185.8 190 194.1 197 201 206.3 211.7 215.4 219.3 223.8 229 234.3 237.7 239.1 239.7 238.5 238 236.9 235.8 233.1 229.9 226.9 223.3 220.3 217.5 214.5 211.9 209.7 207.7 205.7 203 200.1 197.4 194.9 191.6 190.5 189.6 189.3 187.7 184.4 181.4 179.6 178 175.4 172.4 170.3 169 168.4 168.4 168.2 167.2 165.6 165.5 165.4 164.2 161.7 158.7 155.5 152.5 150.7 147.8 145.7 144 142.2 139.9 137.3 133.7 130.5 128.2 124.2 120.7 118.4 118.1 117.2 117 117.4 116.8 116.5 116.5 117.7 121 124.6 128.2 131.4 135 138.5 142 146 149.2 148.9 148.6 148.4 146.4 142.7 139.8 136.7 135.1 133.5 131 128.4 126.1 125.4 125.9 125.8 125.4 125.4 124 121.6 119.7 117.5 114 110.7 106.6 103.3 99 96.8 95.7 95.1 93.5 93.5
166.8 168 168.3 169.5 170.3 169.6 168.3 166.1 163.1 160.2 158.1 155.3 158 160 159 155.4 151.5 147.6 142.9 137.7 131.5 117.8 126.2 140.9 147.5 153.3 157.7 161.9 165.6 167.7 168.2 169 168.3 169.3 170.1 168.6 164.6 159.9 155.9 151.7 146.2 137.5 132.8 126.7 123.4 106.4 108.8 103.8 104.5 113.5 119.8 127.4 132.8 137.4 140.4 142.9 142.7 141.9 142.5 143.5 143.7 143.4 142.2 139.9 147.2 153.4 158.4 160.9 164.6 169.2 172.6 174.9 177.1 178.1 179.3 179.6 180.1 180.6 181.5 184.1 187.1 190.6 194.2 197.4 200.4 205 210.1 214.7 218.1 221.3 227.2 233.4 239.4 241.8 241.1 239.7 238.7 238.2 236.7 234.9 232.1 228.7 223.9 220 216.3 213.7 211 208.4 206.5 204.4 202.4 200.1 197.4 195 192.1 189.9 188.2 188.2 189.5 188.8 186.3 183 181.7 180.2 178.1 176.4 172.8 171.6 171.5 170.9 170.5 168.2 167.4 166.8 165.1 163 160.7 158.3 155.3 152.7 150.7 147.7 145.5 143.9 142.2 140 136.8 133.8 130.5 128.8 125.2 121.9 117.9 116.7 116.5 116.1 116.2 115.9 115.5 115.4 118 121.5 124.1 127 130.4 132.1 134.3 137.4 139.4 139.4 141.1 140.3 141.6 141.2 138.9 135.5 133.4 131.8 130.2 128.5 126.3 123.5 123.3 122.8 122.2 121.9 121.5 121 120.5 119 117.3 113.3 109.5 106.2 102.1 99.2 97.1 94.6 93.9 93.4
169.8 171 172.2 172.7 171.8 170.2 167.7 165.3 162.4 160 158.6 160 163.3 163.5 161.6 159 156 151.8 146.2 140.2 132.8 119.5 120.3 136.8 146.5 153.2 159.7 162.4 165 166.6 168.2 168.5 168.7 168.9 168.3 166.3 161.3 155.7 151.6 147.9 143.5 139 135.8 128.6 127.5 108.1 103 103.3 103.1 115.2 122.6 130.1 135.4 139.6 142.3 142.5 143.7 142.7 141.3 141.4 141.9 136.8 142.5 148.3 152.9 157.7 161.1 165.5 170.7 174.2 177.2 179.2 180.2 181.1 181.7 181.9 182.5 183.1 183.9 185.8 188.5 190.8 193.8 197.5 200.2 203.6 207.6 212.3 216 218.8 223 228.2 234.6 239.7 241.2 239.6 238.6 238.8 237.8 235.8 235.4 231.8 225.9 220.7 217.1 213.2 210.8 207.7 205.7 203.7 201.4 198.7 196.1 194.2 192.4 190.7 188.3 187.4 188.4 189.7 189.1 187.5 185.2 183.4 182.7 181.7 180.8 178.2 175.2 173.3 172.4 172.4 173.7 169 165.7 163.9 162.9 160.3 158.5 155.9 154.3 151.7 149.1 146.6 144.6 142.3 139.4 137.4 134.5 132.2 130.2 127.3 122.1 115.4 116.3 115.6 115.5 115 114.5 114.6 115.9 118.2 121.1 122.8 124.6 126.2 125.9 127.4 130.2 131.6 131.2 133.4 135 135.5 135.7 134.3 132.1 130.1 128.5 127.5 125.1 123 120.6 119.6 119.4 118.9 118.3 118.4 118.7 117.8 116.9 115.7 112.7 109.1 105.6 102.1 98.6 96.3 94.4 93.8
171.7 173.2 174.3 174.3 172.9 170.3 167.7 164.8 161.8 159.8 160.9 163.5 165.2 164.9 163.6 161.2 158 154.1 148.5 140.9 133.3 119.9 119.4 134.8 145.1 152.7 157.8 161.2 164.2 166.1 168.5 169.7 169.3 169.9 168.5 164.4 159.4 152.9 146.9 142.7 138.7 135.5 134 129.5 121.3 108.8 103.2 106.2 109.5 122.7 129.3 135.2 138.6 141.3 143.1 143.3 142.8 142 140.5 139.3 135.6 140.4 144.7 149.8 156.8 162 165.7 170.6 175 178.1 180.7 182.3 183 183.7 183.8 183.8 184 184.1 184.8 185.5 187.9 189.9 192.3 195.1 198.3 201 204.5 207.7 210.8 214.2 216.2 220.8 226 232.4 237.2 237.8 236.6 236.9 237.6 237.5 237.3 234.5 228.3 221.5 217.4 213.6 210.1 207.7 204.6 201.7 199.7 197.6 195.7 193.9 192.2 190.4 188.5 187.9 187 188.3 190 189.9 188.4 186.8 186.6 186.2 186.4 184.3 180.9 178.4 175.5 176.2 176.6 173.6 169.7 166.8 165.3 162.9 161.1 159.6 157.8 155.3 152.7 150.2 147.6 145.1 142.7 141 138.7 136.1 133.6 131.4 128.2 124.6 120.2 115.7 115 114.5 114.2 114.8 114.4 115.3 117.7 119.5 120.5 122.1 121 121.5 123.1 127.5 139.6 128.9 126.1 127.7 129.3 130.8 130.3 129.1 127.3 125.8 124.7 123 120.4 118.7 117 116.9 115.8 115.9 115.6 115.8 115.3 114.9 114.6 112.5 109.3 105.6 101.7 99.3 97.1 94.7
173.4 174.5 174.4 173.5 171.4 169.3 166.8 164.1 161 160.9 163.8 166 166.9 165.9 164.2 162.1 159 155.4 150 140.4 131.4 120.1 120.4 131.4 142.3 148.8 154.5 158.8 161.4 165 167.7 169 169.8 169.5 167.3 163.2 157.4 150.6 144.8 139.8 135 131.7 130.5 125.4 107.6 106 102.6 113 122.9 130.2 136.8 138.6 139.6 140.5 142.1 142.7 142.6 141.8 140.2 134.8 138.5 142.5 144.9 150.5 157.8 164.8 169.7 173.9 177.4 180.6 182.4 183.8 184.6 184.7 184.6 184.6 184.7 185 184.8 185.2 186.2 187.9 189.8 192 194.8 197.4 199.3 200 202 203.9 205.3 208.6 212.6 219.3 227.5 232.9 234.4 234.4 235 236.1 240.6 237 231.3 224.2 218 214.1 210.4 207.4 205.1 202.3 199.6 197.6 195.5 193.5 191.7 190.3 188.7 187.5 187 187 189.2 191.1 191 190.1 189.8 189.8 189.9 189 187.3 188.4 188.7 188.5 186.5 182.4 177.4 172.9 169.5 166.8 164.2 162.8 161.3 158.8 156.3 153.8 151.4 148.1 145.7 143.7 141.9 140.6 137.4 135.7 133.2 129.9 125.8 120.7 115.3 115.1 113.3 114.1 113.9 113.4 114.9 115.5 116.3 117.4 116.1 114.7 118.7 137.8 136.1 130.1 122.9 121.3 121.3 122.5 124.8 126 126.1 124.7 123.7 122.1 120 117.5 115.9 114.4 113.5 112.1 111.8 112.9 113.8 113.8 113.5 113.4 112.2 109 104.8 101.9 100.4 97.6
174.1 174.1 172.6 170.6 169 167.4 165 162.9 161.5 163.9 165.8 166.7 166.2 165.5 164.2 162.2 158.9 155.5 150.3 139.3 127.5 120.7 121 128.7 137.7 145.5 150.9 155.8 159.5 162.5 166 168.2 169 168.8 166.4 161 154.9 147.7 141.2 135.5 130.9 126.9 125.2 117.5 102.8 102.9 102.7 115.1 126.5 132.9 137.1 139.3 140.2 140.2 140.8 140.3 141.1 141.3 139.1 138 140.8 144 147.2 152.5 159.2 165.6 171.3 175.4 178.6 181 183.4 184.5 185.1 185.7 185.5 185.2 185.1 184.4 184.2 184 183.9 184.5 186 187.4 189.9 191 190.9 192.2 193.5 195.9 199.2 202.8 206.7 213.6 221.1 227.6 231.1 231.9 232.7 233.5 236.1 237.3 232.9 227.2 220.7 214.8 211.2 207.9 205.8 203.4 200.9 198 195.1 193.2 191.4 189.9 188.2 188.1 187.1 187 187 190.2 191.6 191.3 192.3 192.7 192.8 192.7 193.2 196.1 196.7 195.5 193.1 188.3 183.8 180.5 174 172.1 170.5 167.9 164.9 162.3 159.8 157.5 155.1 152.1 149.3 146.8 145 143.2 141.6 138.6 136.4 133.8 130.4 128 123.6 119 112.9 113.4 113.3 113.3 112.6 112.7 113.2 112.5 112.9 111.5 118 126.2 127.2 127.6 123 118.8 116.9 115.9 117.1 119.8 122.4 122.4 121.7 120.8 119.3 117.8 116 113.7 112.2 110 109.3 109.7 110.6 111.3 111.7 112 111.7 110.5 107.8 105.9 103.4 101.5
172.3 171 168.9 167.4 165.9 164.4 162.8 162.1 163.3 165.5 166.2 166 164.9 164.3 163.6 161.1 157.9 153.8 149.4 138.4 125.7 121.6 121.9 126.8 136.3 143 149.7 154.4 157.3 161.4 165.2 167.3 168.3 168.3 165.8 160.4 151.9 144.8 138.4 132.3 127.1 122.8 120.1 108.8 101 102.8 109.4 116.5 125.7 130.7 134.9 137.5 139.6 139.8 138.9 138.5 137.9 136 133.4 138 143.2 147 149.9 154.3 158.7 165.3 170.3 174.9 178.5 180.5 182.6 183.7 184.5 184.9 184.9 184.7 184.3 183.4 182.7 182.1 181.6 181.1 181.9 183 182.9 183.2 185.3 187.3 189.6 192.3 197.2 200.2 205 211.2 217.9 225.2 230.7 230.7 230.9 232.7 232.8 233.5 233.4 228.8 224 217.7 212.8 208.7 205.6 204 202.2 199.1 196 194 191.4 189.3 188.2 187.9 187.6 187.6 187 187.6 190.3 191.5 193.4 194.6 195.5 196.4 195.7 197.3 199.1 198.4 196.2 193.5 189.3 185.9 182.5 179.7 180 174.7 170.5 167 163.5 161.2 159.1 156.4 153.5 150.5 148.5 145.9 143.5 141.6 139 137 134.1 132.2 128.9 124.1 119.5 112.8 113.5 112.3 111.9 112 111.8 111.1 110.8 109.9 110.6 115.7 120.3 122.2 120.8 117.9 115.4 113.7 112.8 113.8 115.3 118.4 118.8 119.1 117.8 117.5 116.2 115 112 109.9 108.5 108.7 107.7 107.2 108.7 110.9 111 110.7 109.6 108.2 106 105.6
169.4 167.1 165.3 164.2 162.9 161.7 161.1 161.6 163.5 165 165.1 165 164 163.5 161.9 159.2 155.8 152.2 146 137.5 127.5 122.6 122.6 124.6 132.5 142.4 148.6 152.8 156.8 160.4 164.1 165.8 166.7 165.6 162.5 157.1 150.7 143 136.7 130.5 124.8 119.6 115.3 102.2 101.5 102.7 113.7 119.9 125.5 128 129.6 133.2 136.2 136.5 136.1 136 130.9 130.2 138.3 141.1 144.6 148.2 151.3 154.9 158.8 163.9 168.8 172.4 176 178.3 180.5 182.6 182.8 183 183.5 182.7 182.5 182 181.3 180.3 178.7 177.9 177.4 177.4 177.5 178.8 181 183.1 185.7 190.4 193.4 199.6 205.8 213 219.9 228 232.3 232 231.3 232.6 232.7 231.4 229.9 228.3 224.4 219.8 214.5 209.6 206.1 203.2 201.7 199.4 197.1 193.8 191.8 190.5 188.6 188.2 187.6 187.3 187 187 188.6 191.4 193.1 195.5 196.7 198 199 199.1 200.4 200.6 199.7 196.9 194.8 190.7 186.4 182.9 182.4 180.9 175.6 171.1 166.6 165 163.2 160.5 157.1 154.5 152.1 149 146.3 144.2 142.7 140 137.6 136 132.6 129.7 125.6 120.8 115.5 113.3 112.2 111.7 111.6 111.1 110.9 110.6 109 110.5 112.6 115.5 117.3 116.9 114.8 113 111.4 110.3 109.8 111.7 113.9 115.6 116.5 116.4 115.3 114.8 113.3 111.2 109.1 107.8 107.2 106.7 106.6 108.1 110.3 110.6 110.6 110.2 107.8 109.4
164.8 163 161.9 160.9 160.3 159.2 159.8 161.3 162.9 163.9 163.8 163.3 162 160.5 159.7 157 152.9 149.5 143.6 138.3 127 123.1 122.6 125.1 131.1 140.2 146.4 152 156.3 159.3 162.3 163.2 163.7 161.8 157.8 152.7 146.9 141.4 135.8 129.7 123.3 118.6 113.9 100 100.7 104.9 118 111.8 117.5 125.1 126.5 127.8 130.5 131.4 128.4 130.2 123.3 136.4 139.4 141.3 145.3 147.8 150.6 154.9 158.8 162.4 166.4 170.4 174 174.8 177.4 178.4 179.2 180.5 180.4 180.2 180.3 180.1 179.3 178 176.3 174.7 173.3 173 173.5 174.9 177 178.8 183.1 187.4 192.7 199.3 206.5 215.8 222.5 228.9 234.4 234.2 232.4 232.9 232.2 229.8 227.9 226 223.6 220.3 215.7 211 207.1 203.7 201.1 198.9 196.7 194.5 192.2 190.8 189.1 188.2 187.6 187.6 187.3 187.5 188.1 191.6 193.1 196.1 198.2 199.3 199.5 200.1 200.8 201.6 201.4 200.5 198.4 194.4 189.6 185.6 183.1 181.3 176.7 171.8 168.7 167.3 166.2 164 161.5 157.8 155.5 154.2 150.2 147.5 145.3 143.5 141.2 138.3 136.6 133.5 130.4 126.2 122 116.3 112.3 112.1 111.3 111 110.5 110.2 110.1 109.2 109.4 109.9 112.7 114.9 114.5 113.4 111.1 109.3 107.7 107.5 108.5 110.2 112.8 114.5 115 113.5 112.2 111.1 110.8 108.6 107.8 106.1 106 106.2 108.2 109.6 109.8 110.6 108.9 109.6
162.2 159.9 158.3 156.9 156.9 157 158.1 159.4 161.2 162.1 161.5 160.7 158.9 157.8 155.6 153 149.3 145.3 139.5 136.4 123.8 123.6 122.5 129.4 134.6 141.5 147.1 152.2 155.8 158.8 162.6 164.2 164.4 161.2 154.3 148.1 143 138.9 133.5 127.9 123 119.3 117.2 99.8 100.6 105.5 117.7 118.6 121 122.3 124.8 127.5 125.9 122.8 119.9 119.2 133.3 135.7 138.7 141.3 144.4 146.7 150.5 153.2 156.9 160.5 164.5 168.4 172.2 174.1 174.7 176 177 177 177.1 176.6 177.6 177.6 176.7 175.4 173.9 171.9 169.8 169.9 170.4 171.6 173.6 175.9 180 185.4 192.9 200.3 209.2 219.1 225.8 229.8 232.9 233.9 231.8 230.5 229.7 227.3 225.4 223.6 221.5 218.8 215.5 211.4 207.6 204.1 200.7 198.6 196.6 194.8 193 191.3 189.4 187.6 187.6 187.8 188 188.1 188.7 190.7 192.8 195 197.9 199.5 199.7 200.3 201.1 201.8 201.7 200.4 198.8 195.5 190.4 187.2 184.5 183.4 177.8 173 170.4 168.9 166.9 165.1 164.1 161.2 160.7 158.9 156 152.7 151.4 147.8 145.5 143.3 141 138.2 133.9 131.6 127.9 122.7 117.3 111 110.8 110.7 110.1 109.8 109.6 109.7 109.4 109.3 108.7 109.9 112.8 113.6 112.6 110.1 108.1 106.4 105.8 106.2 107.6 110 111.9 111.7 112 111.4 110.6 109.8 109 107.5 106.6 105.9 106.6 107.5 108.7 109.9 108.7 109.2
159.6 157.1 154.5 153.2 153.7 154.2 154.6 156.1 158.5 158.3 158.6 158 156.7 154.5 151.2 149.1 145.1 141.2 135.8 125.7 124.1 123.7 126.8 132.4 137.8 144.5 149.8 153.6 157.1 161 165 167.4 167.6 164.8 160.9 152.4 143.2 136.3 130.9 125.6 121.7 118.5 116.4 101.1 100.8 102 107 113.8 107.7 122.2 120 116 117 116.4 111 118.4 130 133 136.3 139.1 142.3 145.4 147.8 151.3 154 157.8 160.9 164.5 167.4 170.2 173.3 173.8 174 173.7 174.4 174.5 174.6 174.6 173.9 172.5 171.1 168.9 167.1 166.9 167.7 169.4 170.7 172.4 176 183.8 193.1 201.9 212 220.8 229 230.8 231.9 230.7 229.5 227.7 225.7 224 221.9 220.2 218.5 216.5 213.7 210.6 207.4 203.7 200.5 198.2 196.4 194.9 193.4 191.7 191.5 189.5 187.8 188.3 188.4 188.5 189.7 191 193.3 194.9 197.1 199.5 200.7 200.4 200.7 200.8 200.3 198.6 196.9 194.9 191.3 188.4 184.9 181.4 178.7 174.8 171.9 170.8 168.6 167.3 165.4 164.1 163.9 162.2 160.3 157.5 154.6 150.5 148.7 146.7 144.5 141.7 138.1 135.2 131.8 128.8 123.5 118.1 111.1 111.1 110.2 109.4 109.2 109 109.1 108.9 108.8 108.5 108.2 110.8 112.4 111.7 110 108.1 106.1 105.5 105.5 105.2 106.6 109.1 110.2 111.3 110.6 110.1 109.4 108.9 108.1 107.4 106.4 105.3 107.5 108 107.2 108.4
156.4 153.2 150.5 149.2 150.1 149.8 150.4 151.3 152.4 153.2 155.6 154.6 153.2 149.9 147.8 144 141.9 139 134 125 124.8 124.3 130.8 136.8 141.5 148.4 153.1 156.7 160.2 164.2 168 170.5 171.8 171.4 168.8 163.1 153.9 141.9 131.3 125.6 120.3 116.4 113.3 101.5 100.4 100.1 101.1 104.1 102.9 106.8 110.7 107.2 107.5 109.4 109.1 121.6 126.4 130.8 134.3 136.7 139.8 142.1 144.6 147.4 151.1 154.4 157.6 161.2 164.1 166.1 168.1 170.1 169.7 170.2 171.3 171.8 172 171.7 170.8 169.8 167.4 165.1 164.2 163.3 164.7 166.5 166.1 167.7 174.6 184.8 193.4 201.3 209.9 217.2 225.6 231.2 230 227.8 225.2 223.6 221.1 219.4 217.9 216.2 214.6 212.9 211.2 209 205.8 203 200.3 197.9 196 194.3 194 192.5 190.7 190.7 190.1 188.2 188.2 188.4 189.7 191.4 192.8 194.4 196.9 199 200.7 200.4 200.1 200.3 199 197.2 195.2 193.6 191.1 188.3 185.2 181.5 178.6 175.4 173.5 171.9 171.9 169.4 167.3 165.9 165.3 164.4 163.5 161.9 158.3 155 152.3 149.7 146.9 144.3 141.4 138.6 135.5 132.4 128.6 124.3 119.5 114.9 110.7 109.7 109 108.8 109.1 108.8 108.7 108.4 108.3 108.4 109.4 111.3 111.7 110.7 107.9 106.9 106.2 104.6 103.7 104.9 105.3 108 109 109.3 109.7 109.8 109.2 108.1 107.6 106.7 105 106.6 107.6 107.5
154.9 150.8 147.1 144.7 144.2 144 143.8 142.9 142.6 144.3 148.6 149.9 148.5 146 143.8 140.8 138.2 136.2 125.6 125.5 125 127.2 136.3 141.3 147.8 151.8 155.9 159.7 164 167.5 171.3 174.4 175.9 175.7 173 167.4 160 151.8 141.1 133 125.3 116.5 111 104.2 100.1 99.8 99.6 99.2 98.9 99 105.8 103.8 102 100.9 101.5 119.4 123.8 127.8 131.3 134.4 136.5 139.3 142 144 146.7 150.7 154.1 158.1 160.8 161.7 163.8 165 166.3 166.8 166.7 168.2 168.1 168 166.4 165.6 163.4 161.8 160.7 160.1 162.9 164 162.8 166.4 175.1 184.9 192.7 199.2 206.4 213 219.1 225.9 227.7 225.2 221.8 218.2 216.2 214.4 212.5 211.4 209.8 208.6 207.6 206 204.6 202.6 199 197.6 195.2 193.6 192.5 193.7 191.6 189.3 189.9 189.7 188.4 188.9 189.4 191.3 192.8 194 196.5 198 199.9 200.4 200.2 199.4 197.7 195.9 193.7 191.6 189.5 187.3 184.5 181.5 179 176.4 174.5 172.8 172.1 171.2 169.3 167 165.8 164.6 164.7 164.6 163.3 159.7 156.4 153 149.8 147.1 143.8 140.7 137.6 134.7 132 128.5 124.4 119.8 115.2 110.5 108.8 108.8 108.5 108.5 108.4 108.2 108 107.9 108.3 109.4 110.9 112.3 110.6 109 105.8 103.6 103.5 103.1 103.6 104.6 107 108 108.7 109.3 108.5 107.9 107.6 106.6 106.4 105.6 105 106.8
152.1 148.6 146.4 142 140.1 140.5 139.8 132.1 137.8 137.6 140.2 142.5 142.2 140.2 140.1 137.7 135.8 133.7 126 125.8 125.8 134.4 141.1 145.8 151.8 156.4 160.8 165.7 169.4 172.4 175.7 178.7 179 177.7 174.5 170.9 163.5 154.3 148.6 141.1 132.9 124.8 117.2 116.8 102.9 99.8 99 98.6 98.8 102.1 101.1 102.4 102.2 100.3 100 109.9 119 123.3 126.7 130.6 132.9 136 138.3 139.7 142.7 146.6 150.1 154 157 158.4 159.1 159.9 160.7 161.9 163.2 163.4 163.6 162.6 162.2 161 159.4 157.6 157.6 157.6 158.7 159.7 159.8 165.9 175 182.6 190 195.4 201.7 207.4 212.8 218.1 220.9 221.3 218.6 215.1 211.1 208.7 206.9 205.8 204.9 204.2 203.6 202.9 202.3 201.1 198.9 197.3 195.9 194.1 191 190.4 190.2 188.9 188.8 189.7 189.4 188.9 189.5 190.8 192.8 194.7 196.4 197.9 199.2 200.2 200.6 199.5 197.2 194.9 192.4 190.1 187.7 185.5 183.4 180.8 178.3 176.1 174.7 173.4 172.3 171.7 170.7 169.2 166.7 165.1 164.6 164.7 165 163.5 160.3 156.1 152 149.2 146.5 142.5 139.4 136.8 134.4 131.3 128.4 125.1 120.6 116.7 113.7 109.5 109.3 108.5 108.2 108 107.7 107.8 108.2 108.8 108.4 111 111.5 110.4 104.6 106.3 102.4 102.7 102.7 102.5 104.7 105.8 106.9 108.2 108.2 107.4 107.5 106.6 107.1 106.4 105.7 104.7
150.2 147.3 145.2 142 138.8 136.2 133.6 133 131.9 132.3 132.2 133.4 135.7 136.7 136.4 135 133.4 126.5 126.1 126.2 126.2 140.2 145.6 151.5 158.9 164 168.6 172 176.1 178.7 180.3 181.7 181.6 179.2 176 171.3 166.1 160.5 153.3 146.5 140 133 127.9 128.5 125.6 121.6 124.1 124.1 125.5 120.7 117.1 114.6 106.3 99.6 98.6 99.6 115.8 119.8 121.9 125 129.2 132.9 133.9 135.7 139.2 142.9 146.5 149.8 152.3 154.5 154.6 155.4 155.8 156.7 157.5 156.6 157 157.5 156.4 154.4 154 153.2 153.7 153.6 154.4 154.4 157.3 162.9 170.5 177.4 184.7 190.7 196.1 200.8 205.3 211 215 215.6 215.3 212 207.3 203.2 201.7 200.5 199.2 199.2 199 198.7 198.7 198.8 197.9 196.3 195.2 193.3 190.6 189.3 189.8 189.3 188.1 188.4 189.7 189.3 190.7 191.2 193.3 195.7 196.7 198.4 199.3 200.2 201.2 200.8 198.5 195.8 191.7 188.7 186 184 182.2 180 177.9 175.7 173.9 172.8 172 170.8 171.2 170.3 168.2 166.2 165.5 164.5 164.4 163.8 163.4 159.8 155.5 152.8 149.2 144.6 140.8 137.5 134.8 132 129.3 127.2 124.6 121 118 115.1 112.1 108.6 108.1 107.9 108 108.5 109.5 107.7 108.5 109 108.3 106.4 104.6 108.1 107.7 102 101.9 101.9 101.5 100.5 106 106.9 106.2 107.7 107.5 106.9 106.7 106.3 106.1 105.1
148.9 146 144.3 141.3 139.4 134.2 133.5 133.4 132 131.7 131 131.2 131 130.3 131.3 130.6 127.6 126.6 127.1 126.7 139.9 145.2 151.3 158.5 165.5 171.6 176 179.7 182.1 183.1 183.4 183.6 182.6 180 177.2 174.6 172.2 168.3 161.9 153.9 149.2 146.3 147 147 148.3 147 142.5 135.9 133.3 128.8 124.5 119.4 114.9 104.3 97.1 98.5 104.5 116.5 120.2 122.3 124.1 128.7 130.1 133 136.5 139.7 142.8 145.4 147.4 148.8 149.1 148.7 149.5 150.6 150.2 149.5 150.7 150.8 149.9 148.3 148.2 149 148.7 148.9 149.5 151 154.4 160.1 165.1 170.6 176.4 182.8 188.8 193.7 197.7 203.2 207.5 210.3 209.6 207.7 204.1 199.1 196.2 195.3 193.9 193.4 194 194.3 194.6 195.6 195.6 194.9 193.7 193.2 190.6 187.1 185.5 185.6 186.3 185.6 189.7 190.3 191.1 191.9 193.2 194.8 197.3 198.8 199.7 200.6 201 201.1 200 197.4 193.3 189.3 186.1 183.4 180.9 178.3 177.3 175.6 174 172.3 171.7 170.1 170.8 170.5 169.5 168.1 166.3 164.6 165.4 165.5 163.5 160.9 158.1 154.8 151.8 146.9 142.7 138.8 136 133.3 131.1 128.3 126.2 123.9 121.3 118.8 115.8 112.5 109.6 108.6 107.5 107.5 106.5 106.8 108 106.4 106.2 104.6 110.7 112.8 110.7 109.9 107.4 101.8 101.2 100.6 104.8 100.4 105.6 106.4 107.1 107.1 107.3 107.5 106.2 107.6
147.8 145.1 143.4 140.7 136.2 133.7 134.1 135.6 132 131.4 132 130.5 130.3 129.5 129.2 128 127.4 127.2 126.9 134.5 145 150.4 158.5 167.9 175.2 179.7 182.9 185.3 186.6 186.8 186.8 185.5 184.3 184 184.3 183.4 181.5 179.1 174.1 167.7 165.5 163.6 162 161.5 158.8 154.9 150 144.2 138.1 133.5 129.4 124.6 119 105.9 96.6 96.8 98.9 107.1 115.9 118.5 120.2 122.3 125.8 130.7 134.5 137.4 139.2 140.2 141.5 141.9 141.8 141.7 141.3 143.4 143.2 143.5 143.4 143.9 142.7 141.8 142.2 143.1 141.9 142.9 141.9 146.5 149.4 154.3 158.2 163.3 168.2 175.2 180.7 186.1 189.5 194.3 198.1 201.8 202.6 203.3 200.9 196.5 193.3 190.5 190 189.4 189.4 189.9 190.8 191.1 191.3 191.9 191.3 190.2 189 186.9 184.3 183.6 183.2 185.6 187.2 189.4 191.1 192 192.7 194.6 196.9 200.3 201.6 201.2 200.6 200.6 201.1 199.6 197.3 192.5 187.4 184 181.4 178.9 176.9 175.6 173.8 172.6 171 170.6 170.5 169.7 169.5 168.8 167.2 165.2 163.9 165.8 164.3 160.7 158.2 155.4 153 149.8 144.3 140.4 137.2 134.4 131.6 128.8 126.9 125.1 123.8 121.7 119.4 116.4 114 111.7 108 106.9 108.6 109.4 109.9 108.7 111.2 111.8 112.4 112.8 112.5 111.7 110.8 109.5 108.2 107.5 106.6 104.8 98.4 105.7 103.1 100.9 104.6 106.9 104.4 106.7
147.2 144.3 142.6 140.5 135.3 134.2 141.8 147 142.6 140.4 138.9 137.8 131.2 130.8 129.5 134.4 138.5 139.9 142.2 146.2 150.2 157.5 168.5 177.1 183.1 187 189 189.9 190 190.3 189.5 188.9 190.2 192.3 192.1 191.3 189 185.4 181.6 178.8 176.9 172.9 170.5 167.3 163.8 160.4 155.8 149.8 144.5 138 132.5 126.8 122 111.6 104.8 96.7 95.9 98.4 102.5 107.6 110.7 117.2 121.6 126.3 131 131.9 134.1 135 135.2 135.7 136 135.3 134.5 135.7 135.1 135.6 136.3 136 135.2 134.4 135.5 136.4 136.1 136.7 135.9 140.1 143.5 147.2 150.8 155.7 160.4 166.6 172.5 177.7 181.8 185 189.3 194 197.6 199 198.1 194.8 190.8 188.2 186.6 186.2 186.1 186.7 187.5 186.9 188.4 188.9 188.8 188.1 186.9 185.7 184 181.5 181.8 183.4 185.6 187.4 189.5 190.6 191.7 194.5 196.8 200 202.1 201.4 200.5 200.3 201.1 200.4 198.8 197.2 193.3 187.2 184.1 181.1 177.4 175.7 174.1 172.1 171.1 169.8 168.8 168.8 168.3 168.4 167.3 166 162.7 161.6 162.6 160 157.1 154.1 151.7 149.6 146.6 142.7 138.8 135.6 132.7 129.6 127.6 126 124.5 123.8 122 120.3 118.4 116.3 114.2 111.7 110.3 109.8 110.4 111.6 111.7 112.6 112.8 112.9 112.8 112.7 111.7 110.9 109.9 109.2 107.9 107 107.1 99.7 97 105.2 101.8 99.8 97.2 94.6
146 143.8 142.1 140.3 135.2 134.3 150.2 153.6 152.5 147.7 143.3 142 140.8 140.3 140.8 141.9 143.6 145 147.4 150.8 158.6 169.4 178.8 183.8 189.1 192.5 194.2 194.8 195 194.3 192.8 192.8 196.9 197.4 198.1 196.8 194 191.7 188.2 185.1 182.4 178.8 175 171.1 167.4 163.1 158.6 153 147.7 140.5 133.8 127.7 122.8 117 102.3 104.2 96.6 96.8 96 98.6 103.6 111.7 116.5 120.9 124.1 126.4 129.5 130.3 129.3 130 129.7 128.2 127.4 127.9 127.3 127.3 128.4 128.6 127.4 127.3 128.9 129.6 129.1 127.9 131 133.4 136.2 139.8 144.1 147.5 152.2 156.8 161.6 166.9 172.4 177 181.9 186.7 190.4 194.2 194.2 192.8 189.3 186.5 184.5 182.9 183.3 183.4 184.2 184.7 185.3 185.9 186.6 186.3 184.7 184.3 183.1 180.9 179.8 180.9 182.9 184.5 186.1 188.2 190.4 192.5 194.6 197.7 199.9 201.6 200.1 199.2 198.6 199.1 198.3 195.9 193.8 189.8 186.2 183 179.7 176.5 174.4 171.9 170.8 169.4 168.1 167.3 166.4 166.5 166.2 165.1 163.3 160.6 159.2 157.2 155.4 152.6 150.3 148.6 146.9 143.9 140.7 137.2 133.6 130.3 128 126.6 125.2 124.5 123.5 122.3 121.6 120 118.7 116.8 114.8 112.7 111.5 112 112.7 113.6 113.5 113.3 113 114.1 112.4 112.3 112.1 110.8 109.6 108.6 107.9 107.4 107.5 110.4 111 109.3 106 105.6
145.3 143.3 141.6 136 135.7 140.7 154.8 156.9 157 154.8 151.2 150.9 147.9 146.5 146.6 147.9 149.5 151.5 155.1 160.1 172.1 180.6 187.1 190.6 195 197.2 197.8 197.5 197 196.2 196.6 197.8 201.3 201.8 201.6 199.9 198.1 195.3 192.7 189.2 186.2 182.7 179.3 175 170.3 165.8 160.6 156.1 150.6 141.8 134.9 128.8 123.1 118.1 111.7 99.9 102 96.4 96.3 95.4 96.7 99.7 108.6 114.1 118.3 120.3 122.1 121 121.3 120.9 121.9 121.8 122 122 121.4 120.9 121.1 119.5 119.7 118.7 119.8 120.8 120.7 119.1 124.6 124.8 128.5 131.7 135.8 140.2 144.1 148.1 153.5 158.2 163.6 169.2 174.9 179 184.7 188.5 190.9 189.9 188.1 185.4 183.7 181.3 180.7 181.2 183 184.1 184.7 184.4 184.3 184.3 183.3 182.7 181.8 180.4 178.3 178.2 179.8 181.2 182.7 184.7 186.9 189.9 192.3 194.5 196.8 198.5 198.9 197 195.8 195.8 195.2 193.6 191.4 188.5 185.9 183.4 180.6 177.9 175 172.8 170.5 168.8 167.5 166.6 164.7 164.6 164.6 164.1 162.4 159.7 157.1 154.4 151.4 150.1 148.1 146.3 143.5 142.6 139.4 136.8 133.2 130.1 128.7 127 125.5 125.1 124.8 124.3 123.6 122.8 121.7 120.7 119.2 117.5 115.7 114.3 114.8 115.2 115.5 116 116.3 115.9 114.5 114.5 113.1 113.3 112 110.4 109.1 107.8 111 112.7 113.3 113.1 109.1 107.9
144.6 142.2 136.7 135.5 134.9 144.7 155.8 157.8 159 159 160.1 162.4 163 160.6 158.1 156.8 158.7 161.3 164.1 171.8 180.3 186.5 192.4 195.4 198.9 200.1 200.5 199.9 199 199.8 200.8 202 204.6 204.6 204.8 203.9 201.4 198.3 195.7 192.2 189.4 186.3 181.9 177.4 172.2 166.1 161.3 156.6 150.8 143.7 135.9 129.1 123 117.5 112.9 109.5 105.2 100.2 96.2 95.3 94.9 94.7 95.9 100.6 106.1 108.6 110.5 114 116.1 117 116.6 115.6 116 115.1 115 115.2 112 110.7 110.2 110.8 113.5 113.9 112.8 113.4 118.5 119.7 122.5 125.3 128 132.2 136 140.4 144 149.3 154.5 160.4 166.7 172.4 180.4 184.6 187.2 187.7 186.8 184.4 182.2 180.5 178.6 180 182 183.6 183.5 183.3 182.6 182.3 181.8 181.3 180.5 179.8 178.9 175.7 177.4 178.9 180.3 181.8 184.1 186.9 189.2 191.3 192.3 193.6 194.7 194.5 193.3 191.6 190.6 189.9 188.1 186.1 184.2 181.8 179.4 176.9 174.2 172.4 170.9 168.3 166.7 165.4 163.1 161.8 161.6 161.1 160.6 158.8 155.7 152.2 149.2 146.2 144.1 142 140.5 137.6 136.5 133.8 132.4 130.1 128 126.4 125.6 125.1 125.2 125.2 125.1 124.7 124.2 123.6 122.6 121.4 120.4 119.3 118.3 118.2 119 121.1 121.8 121.4 120 118.9 117.3 116.5 114.8 113.1 111.8 112.2 115.7 116.3 113.8 113.1 110.2 111
143.7 137 136.9 135.9 140.8 146.7 153.9 157.3 159.7 161.3 164.4 167 169.2 170.6 171.1 171.4 172.3 169.8 174.1 179.9 185.1 190.6 194.3 197.7 201.6 202.9 203.3 203.1 203.8 203.8 204.4 205 206.8 207.5 206.6 205.7 203.7 200.8 198.4 194.9 190.5 186.7 181.4 177.4 172.6 166.7 162.4 156.1 150.9 145.3 137.8 130.1 123.5 117.7 113.2 109.7 106.6 111.6 100.1 93.7 95.7 94.8 94.6 93.9 97.8 101.5 104 106.1 109.9 109.7 109 109.1 108.3 108.1 107.6 104.2 103.3 103.3 102.3 103.2 106.1 108.2 105.8 105.2 108.7 113 112.1 114.1 119.1 124.1 127 131.8 136.5 142.2 147.8 152.1 157.1 164.2 173.3 180 182.4 184.7 184.9 183.6 182.5 181 179.6 178.7 180.4 181.6 182.2 182.3 182.4 180.9 180.4 179.6 179 178.4 177.6 176.2 174.6 176.8 178.2 179.6 181.2 183.5 185.6 187.5 187.9 188.3 189.2 189 188.1 186.8 185.8 184.8 183.5 181.9 181.2 178.8 176.8 174.6 172.7 171.1 169.5 166.6 164.5 163 161 159.8 158.5 158.2 157.7 156.8 154.3 151 147.6 143.5 140.4 137.8 135.9 134.6 133 131.3 130.4 128.8 127.8 125.8 124.4 123.8 123.9 125 125.1 125.6 125.5 125.5 124.8 123.8 123.4 122.9 122.1 122.9 123.6 126.7 126.6 126.4 124.6 123.9 121.8 120.6 118.6 116.3 115 113.6 114.2 114.6 113.7 112.3 111.6 111.5
138.6 137.4 138.5 136.3 140.7 144.7 150.6 156.4 159.8 162.6 166.5 169.9 172.5 174.6 176.7 177.4 177.9 180.1 183.1 186 188.5 193.6 197.5 200.4 203.2 205.8 207 207.6 208.8 207.1 207.9 208.4 208.4 208 207.9 207 205.6 203.2 199.5 196.3 192.1 188.1 183.3 178.1 173.4 168.6 164.3 158.7 153.8 147.1 140 131.7 125.7 119.1 114.3 110.4 108 110.4 112.1 100.7 94.6 94.8 94.3 93.9 93.5 93.6 97.8 100.5 100.7 103.1 105.5 104.5 100.9 101.3 98.8 96.3 95.3 96.5 97.9 98.2 95.5 98.3 95.4 96.1 102.8 105.1 105.9 108 111.5 113.8 118.7 125 131 135.6 139.9 144.3 149.5 155.7 166.2 172.9 177.8 178.8 177.8 181.2 181.2 180.6 179.1 178.7 179 179.5 180.3 180.6 180.7 180.6 180 178.7 177.6 176.9 176.1 175.2 172.6 174.9 175.9 177.2 178.7 180.7 182.8 183.4 183.7 184 183.6 183 182.3 181.4 180.3 179.2 178.3 177.1 176.2 175.8 173.7 172 170.1 168.2 166.6 163.6 162.2 160.3 158.5 157.9 155.3 154.8 154.1 153 151.2 148.8 146.1 142.4 139 134.9 132.1 131.3 130 128.7 127.3 125.8 125.7 125.7 124.8 123.6 122.5 123.2 124.2 125 125.6 126.1 126.5 126.3 125.8 125.7 126.1 127.3 129.4 129.4 129.3 129 127.3 125.6 124.3 121.9 120.5 118.6 116.9 114.7 114 113.5 111.9 110 108.6 110.7
139.1 138 145 143.9 142.6 144.4 148.4 155.2 159.8 163.5 167.8 171.3 175.2 178 179.6 180.8 183 185.7 188 190.8 193 196.3 199.4 203.2 205.8 208.6 210.2 210.9 210.5 211.1 210 209.6 208.5 208.4 208.7 208.4 206.5 203.8 200.5 197 192.9 189.5 185.2 180.5 174.2 171 166.2 161 154.9 149.3 143.6 136.4 128.8 121.9 117.6 112 109.5 109.1 110.5 112 103.4 93.2 94.3 94 93.7 93.5 93.7 92.7 92.8 94.8 94.9 95.5 95.4 95.3 94.5 94.3 93.8 93.6 94.5 93.6 91.7 91.1 93.4 94.1 97.9 99.3 101 103.3 105.4 107.7 112.5 120.1 124.2 128.3 132.1 137 142.3 147.4 154.7 163.5 168.8 169.3 170.1 175.2 179.4 179.4 178.6 177.3 177.9 178.2 178.5 178.8 178.6 178.7 178.5 177.7 176.5 175.4 174.5 174.4 172.6 172.2 173.9 175.2 176.7 178.4 180 180.4 179.7 179.5 178.1 177.2 175.9 174.2 173.6 173.1 172.1 171.3 171.1 170.4 170 168.9 167.3 165.4 163.5 161.5 159.2 157.4 156.1 154.6 152.7 150.8 150.4 149.2 147.7 145.6 143.6 140.5 136.6 132.9 129.4 127 126.1 125.3 124.1 123.1 123.1 123.4 123.6 123.3 123 122.2 123 123.9 125 125.5 126.5 127.2 127.1 127.3 127.9 129.2 131.5 132 131.2 129.7 128.4 127 125.2 123.5 121.4 119.1 117 115.5 113.7 112.4 110.8 107.9 106.5 109
138.4 139.6 144.9 144.9 144.7 145.1 149 154.3 158.6 163.8 168.4 172.5 176.2 179.1 182.3 183.7 186.7 189.2 192 194.7 196.8 198.8 202.9 206 208.8 210.7 212.4 212.9 213.4 211.9 210.4 209.1 208 208.8 209 207.4 206 203.7 200.2 197 193.9 189.7 186.2 180.9 177.6 174.1 172.6 172.2 166.9 159.6 151.4 143.1 132.8 127.2 121.3 116.7 112.8 111.1 113.7 115.8 115.5 108.3 100.4 93.5 92.5 95 94.3 90.9 93.3 92.1 91.8 91.6 91.4 91.1 90.9 90.5 90.3 90.3 92 92.7 92.5 92.1 90.6 91.7 93.3 95.7 96.5 98.5 101.5 102.2 105.4 112 117.9 121.9 125.8 130.3 135.2 140.4 146.8 153.4 156.9 160 165.2 171.4 175.9 176.6 176.8 175.6 175.9 176.3 175.5 175.7 175.5 175.5 175.9 176.2 175.1 174.1 173.1 172.3 170.9 170.4 172.2 173.4 175.1 176.3 176.6 175.7 175.1 174 172.5 171.4 169.8 168.1 166.3 165.7 165.8 163.9 164.2 164.1 164.6 164 162.9 162.4 160.7 158.8 156.4 154.6 152.5 151.1 150.4 146.4 146.1 145 143.5 141.4 139.9 137.8 134.4 131.2 127.7 124.3 121.9 121.1 120.8 119.8 119.7 120 120.8 121.5 121.4 121.6 121.8 122.2 123.2 124.7 125.7 126.9 127.5 128.3 130 130.2 131.4 132.3 132.3 130.4 128.4 127.1 125.1 122.8 121 119.1 117.1 115.1 113 111.3 109.2 106.4 104 106.5
138.9 141.2 144.1 144.3 144.5 146.5 149.9 153.3 158.2 163.5 168 172.4 176.3 180 183.2 186 189.3 192.8 195.5 197.5 199.1 201.5 204.8 208 211.1 213.1 214 213.9 212.8 211.2 209 207.6 206.7 207.4 207.1 206 204.4 202.6 200.6 197.4 194.1 189.5 186.5 184 182 182.5 182.7 179.2 175.4 169.1 164 154.1 142.5 134.2 127.6 121.9 120 118.6 119.9 119.9 119.4 114.8 107.6 98.9 102.1 96.7 94.9 93.3 92.2 91.6 90.4 91.1 90 91.1 92.1 92.5 92.9 92 92.5 88.9 90.8 90.5 91.8 89.4 91.1 91.6 92.8 94 97.1 98 101.1 103.7 110.4 116.3 121 125 129.2 134.9 139.4 145.5 150.9 156.7 162.8 168.1 171.6 173.2 173.9 172.6 174.4 174.6 174.2 173.7 172.9 172.5 172.9 173.2 173.3 172.5 171 169.6 168.8 169.3 170.6 171.7 173.3 174.5 174.3 173.2 172.3 170.4 168 165.4 163.8 161.2 160 158.5 158.1 158.3 157.8 157.7 157.5 157.1 157.3 157.5 157 155.1 153.6 151.3 148.7 147.3 146.2 144.7 141.2 140.4 139.3 137.9 136 134.5 132.2 129.1 125.9 122.8 120.2 117.9 116.7 116.5 116.3 116.6 117.1 118 119.2 119.8 120.4 120.7 121.6 123.6 124.5 125.4 127 128 129.9 130.7 131.2 131.2 130.6 130.1 128.1 126.1 124.2 122.1 120.3 118.1 116 113.8 111.4 109.1 107.8 105.2 102.9 104
139.9 143.3 143.6 144.1 144.7 147.2 150.3 154.5 158.6 162.9 166.8 171.5 176.1 180.3 184 188.2 191.9 194.5 197.2 199.8 201.8 204.4 205.7 208.8 211.2 213 212.7 212.4 210.7 209.4 208 206.9 205.7 205.2 204.7 204 203.4 202 199.2 196.1 193.8 190 188.7 187.1 186.9 186.3 184.4 182.3 178.9 173.9 169.3 163.1 155.6 144.2 136.8 132.4 130 127.1 124.5 123.5 121.6 120.2 115.6 99.1 99.6 102 101.3 101.5 104.4 107.1 107.2 105.1 102.2 100.4 100.7 100.8 104.2 99.9 98.5 96.8 96 94 90.9 88.7 88.1 89 91 91.1 89.7 94.4 96.6 97.7 102.8 109.4 116.1 121.1 125.7 132.1 137.2 142.7 146.5 150.1 154.7 160.3 165.9 168.8 170.7 166.6 172.2 172.2 172.2 170.9 170.3 169.4 169.4 170 170.3 170 169.5 167.9 165.5 168.5 169.1 170.2 171.1 172.3 172.2 171.2 169.2 167.3 164.4 161.1 158.7 156.1 154.2 152.3 151.8 151.1 151.5 151.5 150.8 151.1 151.6 152.5 152.8 151.2 149.2 147.2 145 143.4 142.6 140.4 138.1 136 136 134.2 132.4 130.6 128.6 126.8 124.4 121.3 118.6 116.5 114.6 113.3 113 113.4 114 114.5 115.7 117 118.2 119 120 120.8 121.9 123.8 125.3 127.2 128.7 130 130.5 130.4 128.9 128.5 127 125.2 123.2 121.3 119 116.7 114.5 112.1 109.7 107.3 105.8 103.6 102.3 100.4
143.8 144.6 144.5 144.4 145.1 148.3 153.6 157.1 160.2 165.8 171.4 174.5 176.7 180.5 184.6 188.9 192.1 196 199.2 201.9 204.5 205.5 206.1 208.3 209.9 211.7 212 210.7 210.1 209.8 208.8 206.8 204.9 203.1 202.2 202.3 202 200.3 199.4 197.1 193.9 193.4 192.1 190.5 189.7 188.4 185.7 182.7 179 176.1 170.1 165.1 159.9 152.8 146.4 139 134.9 130.8 127.4 125.4 123.2 121.6 115.5 100.9 101.2 114.8 120 123 120.8 119.7 118.9 115.6 112.9 110.8 109.4 109.9 114 113.1 110.3 105.4 101.3 97.4 98.6 97.2 97.5 97.6 90.4 88.2 90.2 91.3 89.3 91.5 96.1 104.3 113.4 118.8 123.9 129.5 134.8 139.2 142 144.6 149.5 154.3 159.2 163.5 165.5 160.3 167.8 169.1 168.1 168.4 167.3 166.3 166.2 166.9 167.3 167.5 167.2 166 164 166.3 167.4 168.4 169.3 169.9 169.3 167.9 166.2 163.2 160.7 157.4 154.4 151.4 148.7 146.8 146.2 144.4 144.9 145.1 145.9 145.9 146.2 146.4 147 146.6 144.9 142.7 141.3 139.7 138.3 136.5 135.7 131.7 132.1 131.4 130 127.6 125.2 123.6 122.1 120.2 117.4 114.9 113 111.4 110.5 110.5 111.1 111.8 112.6 113.8 115.1 116.2 117.5 118.7 119.7 121 122.4 124.8 126.7 128.4 129 129.3 127 126.6 125 123.3 121.5 119.2 116.9 114.5 111.9 109.3 107.4 104.9 102.5 100.8 100.4 98.3
144.7 145.3 145.3 144.8 145.9 150.2 156.3 158.8 164.6 169.8 174 177.7 180.1 181.6 185.1 189.5 193.3 197 200.3 202.8 204.1 205.4 206.2 207.2 208.6 209.4 210.6 211.7 211.4 210.8 208.6 206.1 203.8 201.6 199.7 199 199.2 198.6 197.5 196.4 195.8 194 193.7 192.5 191.3 187.6 186.1 182.8 179.5 176 170.2 164.3 160 154 146.7 140.8 136.3 131.7 128.6 125.8 121.8 117 105.1 114.6 124.2 128.6 130.6 132.6 131.2 129 128.1 125.5 122.5 119 117.6 118 121.7 121.7 119.1 115.7 110.8 107.2 103.6 96.4 97.9 97.2 96.7 96.9 93.1 87.7 90.8 90.7 93.4 100.7 110.7 117.4 121.6 126.7 133.2 138.2 140.8 142.9 145.3 149.6 153.4 157.3 157.6 159.5 163.8 165.3 165 165.5 164.5 163.6 162.8 163.1 163.5 163.8 163.8 162.9 160.1 164.1 164.8 165.9 166.9 167.1 166.8 165.6 162.1 159.5 157.1 153.9 151 147.2 143.4 141.6 140.4 138.9 138.3 138.2 139.7 140.4 140.4 140.7 140.9 139.9 140.4 138.9 136.6 135.5 134.8 133.5 132 129.7 128.8 128.1 127.1 125.4 123 120.6 119.4 118.2 116.4 113.8 112.1 110.5 109.3 108.5 108.4 109.2 109.7 110.6 111.9 113.6 115 116.2 116.9 118.9 120.2 123.1 124.8 126.4 127.1 127.1 125.9 125.2 123 121.3 119.2 116.5 114.3 111.4 108.6 106.2 103.8 102.1 100.5 98.7 97.5 96.3
145 145 145.4 145.1 147 152.6 157.2 162.3 167.6 171.4 175.2 178.8 181.7 184.2 186.8 190.6 193.8 197.2 199.8 201.6 203.4 204.9 206.2 206.7 207.7 208.6 210.5 211.3 210.7 210.2 207.6 205.3 203 200.5 197.5 196.2 195.5 195.3 196.3 196.1 195.5 194 193.2 191.9 190.6 188.7 185.6 182.4 178.3 174.6 169.8 164.3 157.1 150.8 144.2 138.2 132.5 128.7 126.1 121.6 110.5 106.3 110.3 123.1 132 139 142.7 144.7 145.5 143.4 138.7 133.9 130.3 128.2 126.2 125.6 127.5 128.9 127.5 125.8 121.7 118.7 114.8 109.3 102.6 96.6 97 96.7 96.2 90.8 88.7 90.4 90.6 95.3 109 115.5 121.6 131.8 137.5 140.3 142.4 143.8 144.5 145.5 149 150.4 148 155.9 158.7 160.5 161.6 161.8 161.4 161 159.7 158.7 158.1 160 159.9 159.6 157.4 160.1 161.7 162.9 164.1 164 163.4 161.8 160.3 157.9 153.9 150.4 147.2 143.4 139.6 138 135.5 134.6 133.6 132.9 133.2 134.4 134.5 134.6 134.2 135.1 134.8 134.6 132.8 131 130.6 130.1 129.8 127.4 124.5 124.7 123.9 122.9 121.1 118.8 116.8 115.2 114 112.9 111.3 109.5 108.3 107.2 106.6 107 107.4 108 109.3 110.9 112.4 113.8 115.1 117.1 118 120.2 122.3 124.6 124.8 124.1 123.9 123 121.3 119.4 116.8 114.2 111.3 108.8 106.4 104 101.5 100.2 98.5 96.7 95.3 94.5
144 144.6 145.8 146 148.1 152.5 158.1 164.6 168.1 172 175.8 178.8 182 184.8 188.5 191.6 194.7 196.7 199.4 200.9 202.8 205 206.6 207.9 209.2 209.8 210.6 210.8 210.2 209.1 206.7 204.4 201.9 199.3 196.9 194.1 191.2 190.6 191.7 194.2 193.9 193 191.5 190.1 188.6 186.9 183.4 178.7 175.1 171.5 167.2 161.5 153.8 147.3 140.7 135.5 121.5 123.3 120.9 125.3 120.8 116.1 124.5 131.4 139.8 144.9 149.3 151.5 153.7 153.3 150.6 144.8 139 136.4 132.2 132 134 134.1 132 130.6 128.6 125.1 120.6 116.7 111.5 105.6 97.4 96.6 96.2 90.9 86.5 88.7 91.8 93.8 106.8 113.9 120.7 130.3 139.2 142.8 142.8 142.4 143 143.8 144.7 144.5 146.3 149.7 153.3 156.1 157.1 157.8 158 157.3 156.8 155.3 154.5 154.5 154.8 155.1 152.9 155.9 158.3 159.2 159.5 160.6 159.6 157.8 156.4 154.8 151.7 148.9 143.9 142 137 134 131.5 130.9 129.7 128.8 129 128.3 128.2 128.2 128.3 128.4 129.1 129.5 128.1 127.2 126.4 126.4 126.3 125.5 122.4 120.8 120 119.1 117.9 116 114.9 113.5 111.4 110.9 109.6 108.8 107.4 106.3 105.5 105.5 105.6 106 106.7 108.2 109.9 110.8 113.3 115.1 117.4 118.8 121.2 122.4 122.2 122 121.9 120.8 119.3 117.5 115 112.1 109 106.3 103.9 101.6 99.4 97.8 96.3 94.8 93.6 93.2
143.7 144.6 145.4 147 148.8 154.4 160.7 165.1 168.2 171.7 175.2 179.3 182.8 186.6 189.8 192.5 196 198.3 200.9 202.6 204.4 206.1 207.4 209 210.1 210.6 210.5 210.1 208.5 207.3 206.2 204.3 201.9 199.6 196.8 195.6 194.5 189.5 187.7 190.1 191.4 189.9 189 187.2 184.9 180.9 178.5 174.6 170.5 166.9 164.1 156.8 150.5 144.7 137.1 125.2 127.4 131.2 130.7 129.5 123.7 126.8 134.8 142.5 147.4 150.7 153 155.9 156.9 156.5 155.7 149.8 145 142.2 137.6 137.3 137.6 137.1 135.7 132.8 130 127.1 124.9 120.8 116.4 112 106.3 99 95.8 89.7 86.1 85.5 90.4 93.5 103 112.5 119.8 127.8 138.4 143 143.9 143 142 140.3 140.7 140.9 142.6 144.1 147.1 149.8 151.3 152.8 153.4 153.6 152.8 152.4 151.4 150.5 149.7 149.9 145.7 152 153.8 154.8 155.2 156.3 156 154 152.3 150.8 149.1 145.8 142 138.3 134.7 131.6 128.9 127.8 126.4 125.8 125.3 124.8 125 124 123.9 123.5 124.6 124.1 124 123.2 122.4 121.8 121.8 121.6 119.2 117.9 116.9 115.4 114.8 114.3 113.3 112.2 110.5 109.4 108.1 107.3 106.8 105.6 104.7 104.2 104.4 104.7 105 106 108 109.8 113.3 114.7 116.1 118.5 119.4 120.4 120.6 120.1 119.6 118.7 117.1 115.2 113.1 110.5 107.1 104 101.8 100.1 97.6 96.2 94.8 93.8 92.6 91.9
142.4 144.1 145 147.4 149.3 155.4 161.7 166.2 168.7 172.4 177.4 183.1 187 189.5 192 194.5 198.2 200.8 202.7 204.5 206.3 208.2 208.7 209.7 211.3 210.9 210.4 209.2 208.3 207.5 206.9 205.5 203.3 201.9 199.7 195.1 191.4 188.3 185.4 186.5 186.9 186.3 184.8 182 179.4 175.8 173.2 170.8 165.7 161.7 156.9 152.4 146.7 139.4 131.6 127.3 133.4 135.6 135.4 132.8 130.9 136.5 143.8 150.2 152.8 154.8 157.1 158.7 158.5 158.2 157.4 153.5 148.7 144.6 140.4 139.1 138.2 137.7 136.3 134 130.7 127.5 124.5 122.4 119.7 115.4 110.6 105.7 100.4 89.4 85.6 85.6 89.5 93.1 100.3 111 119.2 127 133.8 140.5 143.1 142.6 140.3 138.2 137.7 137.8 136.4 138.4 140.2 142.8 144.8 147.2 148.4 149.7 149.6 149.2 148.2 146.5 146.3 145.5 140 145.4 147.7 149.7 151.1 151.3 151.6 150.8 148.2 146.3 145.1 141.7 138.3 134.6 132 129.1 126.2 124.5 122.8 122.4 122 121.6 121 121.1 120.3 119.6 119.1 118.7 118.9 118.3 118.4 117.9 117.2 116.7 115.7 115.1 114.5 113.3 112.2 111.5 111.3 110.3 109.5 108.2 107 105.7 105.2 104.8 104.1 103.3 103.3 103.4 104.2 105.3 107.5 108.5 112.5 116.2 116.8 116.3 117.2 117.9 118.8 118.6 117.6 116 114.9 112.8 110.9 108.1 105.1 102.9 100.6 98.5 96.3 94.8 93.8 93 91.9 91.1
143.5 143.8 145.9 147.2 150 155.5 160.5 165.1 169.2 176 183.3 187.7 191.2 193 194 196.6 200.1 202.7 205.3 206.8 208.8 209.4 209.5 210.3 211.3 210.6 209.9 209.3 208.8 208.2 207.7 207 206.4 205.3 202.9 199 193.8 188.3 188 181 183.9 183.1 180.1 177.3 175.1 172.2 169.1 166.7 162.7 159.1 153.7 149 143.3 136.7 129.5 129.6 134.9 136.5 136.2 136 139.5 145.2 152.9 155.9 157.9 158.5 160.8 161.5 160.8 159.5 157.9 155.2 150.3 146.2 142.4 139.8 138.8 138.9 138.6 135.1 131.6 127.9 125.5 121.8 120.1 116.5 113 109.2 104.9 95.5 85.4 85.7 85.3 93 103 110.9 120.4 127.6 133.4 137.8 140.1 140.5 139.5 137.3 135.8 134.4 133.7 133.5 134.6 136.5 138.7 141.7 143.7 144.7 145.4 145.5 144.9 143.5 142.6 140.8 136 141.4 141.9 144.3 145.6 146.3 147 146.8 144.5 142.4 140.5 137.9 135 132.2 129.3 126 122.8 121 120.3 119 118.8 118.6 118.3 118 117.2 116.2 116.1 114.7 113.9 113.7 114.2 114.3 113.6 113 112.3 112.2 112.2 111 109.9 109.3 109.1 109.1 107.8 106.7 106.1 104.8 103.5 102.9 102.3 102.2 102.1 102.3 102.6 103.3 104.6 107.7 112 114.8 116.8 116.5 115.5 115.5 116.2 116.3 115.4 114.6 113.1 111.3 108.9 106.2 103.7 101.4 99.2 97.3 95.5 94.1 92.8 91.9 91.3 89.9
145 144 146 147.8 150.7 155.8 159.8 164.8 172.5 179.5 185.5 190.1 192.6 194.6 196.1 200 202.4 205.2 207 208.6 209.3 209.5 209.8 210.9 211.3 210.8 210.3 209.9 209.4 208.9 208.7 208.1 207.6 206.6 203.5 200.1 195.3 188.5 182.9 178.8 177.6 177 175.2 173.3 169.4 166.7 164.8 163.2 159.7 156.1 151.3 146 140.8 135.6 129.8 130.2 132.6 135 138.5 142.6 147.2 152.2 156.9 161 163.8 165.6 165.8 165.5 163.6 160.9 157.7 155.1 151.5 147.7 143.4 140.1 138.6 138.9 138.7 136.5 133.3 128.6 125.7 121.7 118.6 115.2 113.2 110.5 107.7 97.9 94.1 84.6 85.4 93.2 104 112.9 121.4 127.3 132.9 137.7 139.9 140 138.6 136.4 134.5 132.1 130.9 130.5 130.1 130.8 132.8 135.1 137.5 139.3 140.6 140.6 140.9 139.8 138.7 137.6 132.7 137 137.7 138.1 139.5 141.4 142.5 142.1 141 139 136.4 134.1 131.7 129.3 126.5 123 121.7 117.4 116.6 116.1 115.2 115.5 116 115.8 115 113.8 112.6 112.4 111.7 111 111 111.8 111.5 110.5 109.7 109.7 109.6 108.5 108.2 107.7 107.2 106.8 106.4 105.6 104.3 104 103.2 101.9 101.1 100.9 101 101.4 101.7 101.7 102.3 104.6 107.8 110.9 114 115.8 114.9 114.4 113.9 113.7 113 112 110.6 108.6 106.9 104.7 102.2 99.9 97.8 96.3 94.7 93.5 92.4 91.6 90.8 89.4
145.9 144.6 144.4 147.4 151.2 155.2 160.3 165.5 173.9 182.2 187.6 192.4 193.9 195.4 198 201.5 204.5 206.8 208.4 208.8 209.6 209.7 210.2 211.3 211.4 210.9 210.7 210.4 210 210 209.8 209.2 208 205.9 202.8 199.9 195.7 188.8 182.1 178.3 172.4 169.3 169.4 167.3 164.7 162.5 161 158.7 155.5 151.3 146.7 141.9 136.1 132.1 132.4 132.1 133.8 136.3 143.1 148.3 153 157.8 162.2 167.3 168.9 170.6 169.1 168.3 166 162.7 158.9 155.2 151.5 148.1 144.4 140.7 139.3 138.1 136.6 135 131.1 127.6 123.9 121 116.9 113.9 111.3 110 107.7 97.5 86.3 88.3 93.3 95.6 98.4 116.2 121 126.7 131.7 136.4 139.5 139.8 137.3 135.3 133.3 130.2 128.9 127.7 126.7 127.4 127.5 128.5 130.9 133.1 134.7 136.3 136.5 135.9 134.9 134.5 130.2 133.2 132.2 132.4 134.2 136.1 137.3 136.9 136.4 134.5 133.4 131.1 128.1 125.4 122.7 120 117.5 115.4 113.5 112.1 111.5 111.7 111.6 112.2 112.6 112.7 112 110.9 110.3 109.2 108.6 108.6 108.4 107.6 107.1 107.2 107.1 106.6 106.3 106.2 105.8 105.4 105.4 104.9 104 101.9 101.2 100.6 100.2 100 100 100.3 100.7 100.9 101.2 101.9 103.4 107.2 110.1 111.8 113.7 113.1 111.7 110.9 110.3 109.2 108.4 106.7 104.2 102.6 100.1 98.6 96.9 95.6 94.4 93.2 92 91 90 89.3
147.7 145.5 144.1 147.1 151.6 156.2 160.3 166.7 173.9 182 188.9 194.6 195.7 196.4 198.4 202.6 205 207.6 208.8 208.9 209.3 209.9 210.7 211 210.8 211 211.1 210.9 211 211.6 210.5 209.1 206.9 204.4 201.6 198.7 194.1 189.1 181 176.7 173.2 167.6 160.7 160.8 159.8 158.6 156.7 155 151.6 146.5 142.4 138.4 136.5 138.4 138.8 136.4 135.8 138.9 145.1 152.9 157.5 161.8 165 169.1 171.5 172.3 170.5 169.5 167.9 162.7 157.8 154.6 151.5 148.9 145.8 145 145.5 143.6 139.8 137.1 134.6 129.7 125.9 120.7 115.7 112.5 109.6 107.5 105.9 94.2 84.2 87.8 95.7 100.9 95.4 110.8 118.7 123.9 129.4 133.5 137.3 138.9 137.1 134.5 132 129.3 127 125.4 124.8 124.6 124.4 124.7 126.2 128 130.1 131.4 132.1 132.3 132.2 130.9 129.5 128.4 128.4 128.3 129.7 130.8 131.6 131.9 131.3 131.4 130.2 128.3 125.2 121.9 119.6 117.4 115.1 112.6 110 108.3 107.1 107.5 107.8 109 109.3 109.9 110 110.2 108.7 107.4 107.3 106.9 106 104.9 104.3 104.2 104.8 104.6 104.9 105.6 104.7 104.3 104.8 104.2 103.8 102.7 101.1 99.6 99.3 99.4 99.4 99.6 99.9 100.2 100 100.2 101 102.7 105 107.6 110.6 111.1 109.8 108.9 108 106.1 105.4 104.1 102.4 100.2 98.1 97.1 95.7 94.5 93.9 92.8 92.2 91.2 90.1 89.1
148.3 144.7 145.5 147.8 151.3 156 161.3 166.5 173.3 182.5 189.2 193.8 195.6 195.9 198.6 203.7 206.1 207.6 208.2 208.3 209.6 210.5 211.6 211.6 211.6 211.5 211.6 211.5 211.7 210.9 209.2 207.1 204.9 203.1 199.5 196.4 192.5 188.4 183.4 177.5 172.7 167.6 161.2 156.6 154.5 153.6 152.2 150.5 147.3 142.6 137 141.3 142.7 146.2 144.8 142.7 142.3 143.8 148.3 154.4 161 165.9 168.9 170.3 172.7 173.8 172.9 169.9 169.4 166.6 160.3 156.2 154.6 153.5 154.8 157.6 157 156.4 151.2 142.7 135.8 130.9 125.8 120.2 115.8 111.5 107.3 104.9 102.5 92.3 82.7 84 93.2 100.4 97.9 102.2 114.7 120.6 125.5 129.4 133.1 135.4 135.7 133.1 130.7 128.1 125.7 123.9 123.1 122.7 122.5 122 122.8 124.7 126.4 128 128.3 129.1 129.3 127.2 127.3 126.8 125.8 125.1 125.8 125.2 126.1 126.8 127.7 127.4 126.6 125 122.6 119.3 116.9 114.8 113.2 110.5 107.7 105.1 104.4 104.4 104.9 106.1 106.6 106.7 106.6 107.7 107.5 105.7 105.3 105.3 104.9 103.3 102.7 102 103.1 102.8 103.3 103.7 103.2 103.1 104.1 103.7 103.2 103 101.9 99.9 99.3 99.2 99.1 99.4 99.5 100.6 99.4 99.6 100 100.8 102 104.1 106.9 109.1 107.5 106.9 105.8 104.6 103.5 101.4 100.1 98.6 96.9 95.5 94.3 93.6 93.2 92.5 92.1 91.3 90.2 89.9
149.6 144.6 144.8 147.6 152.1 156.9 161.5 166.9 174.3 183 188.3 192.5 194.5 195.2 197 202 205.2 205.6 207.5 209.1 210.1 211.5 212.5 212.7 212.5 212 212.2 212.3 210.1 208.6 206.8 204.6 202.5 199.8 197.1 193.6 190.4 186.6 182.5 178.4 173.3 167.3 159.7 153.4 148.5 148.7 147.8 147.2 144.3 141.3 144.7 149.1 151 149.9 149.5 148.3 148.2 149.6 151.8 156.5 163.4 167.8 171.2 173.1 174.6 175 174.4 172.3 169.5 167 162.1 159.4 159.7 163.9 164.3 164.1 165.2 163 158.9 152.4 141.4 132.7 125.3 119.8 114.4 110.3 106 102 96.7 89.6 82.3 84 88.8 98.4 101.3 96.6 109.8 115.2 120 125.4 128.4 131 131.7 131.2 129 126.4 123.9 122.2 121.2 120.8 120.5 120.3 120.1 121.6 123.9 125.5 126.2 126 126.1 125.9 125.3 122.9 121.8 122.7 121.9 121.8 122.4 123 123.6 123.4 122.5 121.6 119.8 117.4 115 112.9 111 108.3 105.2 102.6 102.5 101.8 101.9 102.6 102.8 104 104.4 104.7 105.3 104.1 103.1 102.7 102.9 102.2 101.2 100.3 101.1 101 101.3 101.7 102.4 102.6 103.2 103.5 103.9 103.6 102.6 101.6 100.2 99.5 99.4 99.3 99.2 99.7 99.3 99.2 99.6 100.8 102 103.6 104.5 106.3 105.2 104.7 103.9 103.2 101.7 99.9 98.4 97.1 95.7 94.2 93.3 92.2 91.9 91.8 91.6 91.3 90.6 90.4
151.8 145.2 145.1 148.7 154.7 160.6 164.2 168.8 175.2 181.4 187.2 191.3 193.8 195 197.3 199.9 203 205.1 207.1 209.4 211.2 213 213.9 213.9 213.7 213 212.7 211.4 208.5 206.5 203.8 200.8 198.4 195.7 193.1 189.7 187 183.8 180.1 176.2 172.2 167.2 161.2 154.7 148.6 146.3 145.5 143.8 144.5 147.7 152.2 155.2 155.5 155.7 154.6 154.2 153.6 156.9 157.8 159 164.3 168.1 171.4 173.5 175.7 176.6 176.4 174.8 173 168.5 166.2 163.3 165.5 170.2 171.3 168.8 168.2 166.3 162.2 158.3 150.5 139.3 129 120.8 114.1 109.4 104.6 102.1 98.4 88.5 83 83 86.3 93.2 96.7 98.1 99.6 109.9 113.8 119 123.4 126.3 127.5 127.1 126.5 124.6 122.4 120.7 120.8 119.5 119.8 120.1 119.9 120.2 122.1 123.6 123.7 123.3 122.3 122.2 122.1 121.6 120.9 118.9 118.4 119.1 118.9 118.8 119.6 119.7 118.9 117.9 116.7 115.3 113.5 111.5 109 106.2 103.6 101.8 100.5 99.9 99.8 99.6 99.4 100.6 101 101.6 102.1 102.1 101.6 100.6 99.9 99.5 99.8 99.3 99 97.8 98.7 99.7 100.7 101.4 102.1 102.5 103.1 103.8 103.8 102.7 102.1 100.3 100 99.3 99.3 99.4 99.5 99.2 99.2 99.5 101.3 103.4 104.4 105.3 103.8 102.9 102 100.3 99 97.9 96.9 95.7 94.4 93.1 92.3 91.6 90.9 90.9 90.7 90.5 90.5 90.8
153 146.6 145.8 149.9 156.7 162.2 167.8 172.5 177.9 182.7 187 191.9 194.7 197.2 200.4 203.7 206.1 207.6 208.5 210.1 212.6 213.8 214.8 214.4 213.6 212.7 211.3 208.8 206 203.6 200.2 197.4 194.7 191.9 189.2 186.9 183.8 180.3 176.7 173.2 169.5 165.1 160.3 154.7 149.9 148.8 148 147.2 148.9 153.2 156.7 158.9 159.9 159.5 159.2 158.8 158.7 160.4 162 162.3 165.2 169 172.5 175 175.3 176.2 177.1 176.9 175.2 171.7 169.6 168.2 170.8 174 174.7 172.4 170 168.5 165.3 161.7 155.1 148.2 137.1 126.5 115.9 108.8 103.7 99.4 96.5 88.3 83 83.2 83.3 93.5 92.1 96.8 97.3 101.9 108.1 111.2 116.1 119.6 122 123.2 123.2 121.5 120.6 120 119.5 119.6 120.4 121.4 119.9 120.3 119.8 121.4 121.3 121.5 121.1 120.9 119.8 120.2 120.1 116.1 111.2 116.1 115.3 115.2 115 115.4 115 113.7 113.1 112 111.5 110 107.6 105 102.7 100.4 97.5 98.2 97.9 97.6 97.3 97.8 98.7 99.8 99.7 98.9 99.3 99.5 99.3 98.2 98.1 97.8 97.6 96 97 98.1 99.2 100.7 101.4 101.2 101.5 102.5 103.6 102.8 102.4 101.8 101.1 100.5 100.3 99.6 99.7 99 99.1 99.1 100.3 102.2 103.2 104.1 103.2 101.5 99.6 98.5 97 95.5 94.5 94 92.8 92.1 91.2 90.6 90.1 89.7 89.7 89.3 88.9 89.5
152.5 145.8 145.4 152.2 160 166.4 171.8 176.3 181.9 187.3 191.1 195.1 197.7 201.5 205 207.4 208.7 209.5 210.9 211.9 213.4 213.7 214.3 214.3 212.5 211.1 208.4 205.3 203.1 200.2 196.6 194 191.3 188.3 185.8 183 179.9 176.3 173.3 169.6 166.1 162.2 157.9 154 151.2 151.1 151.3 151.2 154 158.4 161.7 162.8 164.1 163.2 163.6 162.8 163.7 164.4 165.6 166 166.3 168.6 171.7 175.6 177 177.2 177.2 176.9 175.8 174.9 175.3 172.9 174.7 175 175.4 174.7 173.4 171.3 168.8 166.3 160.5 153.5 146.1 135 122.5 111.4 103.8 98.9 94.4 87.4 82.7 82.6 83.7 89.6 91.2 92.7 99.1 97.6 99.3 104.8 108 112 115.6 117 117.5 117.2 117.5 117.7 118.4 119.3 121 121.8 121 119.5 118.5 118.6 118.3 118.8 119.2 119.5 118.5 118.4 117.8 116.5 100.6 111.9 112.1 111.3 111.1 110.6 110.4 109.9 109.5 109.1 108.7 107.9 106.2 104 101.7 99.7 96.8 96.3 95.8 95.3 95.2 95.5 96.8 98 97.7 96.5 96.6 96.9 97.5 97.5 96.7 95.7 95.5 94.3 95.8 96.7 98.3 99.7 101 101.5 101.7 102.1 102.3 102.3 102.3 102.1 102 101.8 101.2 100.3 99.5 98.6 98.2 98.3 100.2 100.9 102.2 103 102.6 101.5 100 97.5 95.8 94.3 92.7 91.4 91 90.5 89.9 89.5 89 88.5 88.2 87.9 87.6 87.8
152.5 145.2 146.1 156.1 161.7 167.9 173.7 179 184.8 190 193.9 197.3 200.4 204.4 207.8 210.2 210.8 211.8 213.1 213.5 213.1 213.3 214.1 215.1 212.2 208.8 205.6 202.7 200.1 196.8 194 190.9 188 184.7 181.9 179 175.7 172.5 169.3 166.3 162.3 158.5 155.5 154.9 156.1 155.7 158.2 155.3 158.5 161.2 164.4 166.1 168.4 167.8 167.5 167.5 169 168.4 169.2 170.9 170.3 172.2 171.9 175.2 177.1 178.2 177.3 177 177.1 175.7 176.3 176.5 177 177.3 176.9 177 176.6 176.1 174.1 170.1 166.4 159.3 152.3 143.3 131.8 120.5 109.7 100.5 95.8 90.2 82.7 82.6 83.2 85.5 90.9 89.7 90.7 92.2 97.8 97.7 101.2 103.9 107.7 109.9 112 112.8 113.3 113.7 114.7 116.4 118.9 120.7 121.6 119.5 117.3 116.3 115.6 115.6 116.2 116.9 117.3 116.8 116.4 114.9 112.6 99.5 100.4 108.6 107.3 107.1 106.9 106.7 106.3 105.8 106.3 105.4 105.1 103.9 101.5 99.4 96.5 94.9 94.5 94 93.4 93.2 94.4 95.5 95.4 95 94.2 94.5 94.7 95.4 95 94.1 91.8 91.9 96.2 96.8 97.4 98.2 100 100.9 101.2 101.5 101.8 102 101.9 101.4 101.3 101.2 101.5 100.7 99.9 99.2 98.1 94.7 98.1 99.1 99.8 100.4 101.1 101 99.7 97.6 95.8 93.3 91.6 90.2 89 88.3 88.2 87.8 87.4 87 86.6 86.2 86.3 86.4
151.3 145.6 148.3 157.3 163.9 169.1 173.7 180.4 186.2 191.5 195.2 198.1 201.8 206 209.1 211.5 212.8 213.4 212.9 213 213.1 213.7 214.2 214.5 212.2 208 204.3 201.1 197.7 194.2 191.2 188.3 184.9 181.5 178.4 175.2 172 168.7 165.7 162.4 158.9 157.1 156.7 158.1 161 162.7 163.2 161.7 163.1 164.5 168.6 170.6 171.9 172.3 171.1 171.4 172.1 172.4 172.6 174.6 174.6 175.1 175.1 175.3 177.4 179.6 178.9 179.8 178.4 178.1 177.3 177.9 180.7 183.4 184.2 184.1 183.3 181.5 178.2 175.4 171.1 166 159.6 151 139.8 127.4 115.6 104.9 98.1 90.5 82.3 82.7 82.6 86.2 89.5 89.8 88.6 89.6 90.1 91.9 97.4 97 100 103.3 105.6 106.9 107.8 108.6 109.8 111.2 115.7 119.2 120.4 120.4 118.5 116.4 113.8 113 113 113.2 113.3 113.9 114.3 113.3 111.8 108.8 92.5 99.1 104.2 103.9 103.7 103.5 103.1 102.8 102.8 102.7 102.6 101.1 99.1 98 96.1 93.9 93.5 92.7 92.1 91.9 91.7 92.7 92.7 92.7 92.3 92.2 92.3 92.5 92.8 92 88.1 94.6 95.2 95.9 96.6 97.6 99.1 99.8 100.1 100.3 100.2 100.9 100.8 100.8 100.6 101 101.3 101.5 101.3 100.4 98.9 97.6 91.2 96.8 97.3 97.7 98.4 98.6 98 97.2 95.6 93.2 91.1 89.3 88.1 87.2 86.6 86.3 85.9 85.5 85.1 84.4 83.3 84.3
150.4 146 150.4 157.6 164.5 169.2 175.2 180.9 185.9 190.6 195.1 199.2 203.7 207.2 210.3 213.1 214.5 214.2 214.5 213.3 213.7 214.2 215.2 212.7 210.6 207.8 203.6 200.5 197.1 192.8 189.4 185.4 182.2 178.7 175 171.6 168.8 165.6 162.2 160.4 159.2 159.2 162.5 166 167.2 166.8 167.4 168.4 167.1 168.6 171.9 173.6 174.7 175.4 174.8 174.1 175.1 176.5 177.1 178.7 179 178.7 179.1 179.4 180.2 181.7 183.7 185.3 184.2 182 182.4 182.3 183.6 186.2 189.5 190.5 190 188.4 185.6 181.2 176.5 170.1 163.8 156.5 148.5 136.8 126.4 113.8 103.8 95.2 82.1 82.8 81.7 81.8 88 87.9 87.6 88.5 91.2 89.5 91.8 92.5 96.5 96.4 98.7 101.2 103.6 104.1 105.3 107.4 111.5 114.8 116 117.1 117.1 116.5 115 113.4 110.9 108.8 108.7 110.8 111.2 110.8 109.7 108 104.6 88.2 99.6 101.2 101.1 100.8 100.7 100.2 100.1 100.9 100 99.5 97.3 95.9 94.8 93.3 92 91.6 91 90.5 90 90.3 90.4 90.5 90.3 90.3 90.4 90.4 90.6 89.5 88.4 92.9 94.3 94.9 95.4 96.5 98.1 98.6 98.6 98.4 98.2 98.7 98.8 98.9 99.2 99.8 100.8 101 101.6 101 100.3 98.4 95.8 88.6 94.9 95.2 95.6 95.8 96.2 95.8 94.2 93 91 88.8 87.6 86.4 85.4 84.7 84.4 84 83.4 82.7 81.4 83.5
146 146.1 151.3 158.3 165.1 168.9 175 179.7 183.9 190.7 195.1 199.8 204 208.5 212 214.1 215 215.6 214.9 214.4 214.1 214 213 211.4 209.1 206.4 202.9 199.9 196.1 191.6 187.9 184.1 180.4 176.8 173.4 169.8 166.4 163.8 163.1 164.9 166.4 168.1 169.4 171.9 173.3 173.7 173.4 173.7 170.6 172.8 175.4 176.8 178.1 177.9 177.1 177.6 178.6 180.8 182.5 183.1 183.2 182.5 182.3 183.5 185.1 187.1 187 187.8 188.7 186.2 186.5 186.5 188.6 191.5 194.4 196 195.5 194.2 192 187.7 184 180 171.9 166.1 154.5 145 134.8 122.5 112.2 101.4 87.3 82.1 81.3 81.7 81.6 85.3 86.5 88.5 90 91.1 91 91.8 92.4 93.1 96.6 95.5 95.4 100.3 102.6 104.7 107.3 109.1 110.5 111.7 113 113.9 113.7 113.4 111.2 108.4 100.4 104.4 106.7 106.8 106.7 105.9 104.3 98.9 85.4 97.2 99.1 98.4 98.5 97.7 98.5 99.1 98.3 98 96.8 95.4 93.6 91.6 91.4 91.1 90.5 89.8 89.1 89 88.6 88.7 88.4 88.6 89 88.6 88.5 86.3 86.4 89.6 91.5 93.1 94 94.6 96.5 98 97.9 97.2 97.1 96.5 96.1 96.4 97 97.6 98.3 99.1 100.3 100.6 100.4 99.1 96.8 93.4 89 93.1 93.5 93.4 93.3 93.2 93 92.6 91.3 89.5 87.1 85.4 84.1 83.1 82.8 82.3 81.7 81.1 79.2 82.3
147.3 147.4 152.9 158.4 164.5 168.4 173.8 177.7 184.6 190.4 196 200.6 204.5 209.7 212.8 214.5 216.1 216 215.5 215.3 214.5 213.4 212 209.9 207.6 204.4 200.4 197.9 194.3 190.1 186.5 182.9 179.5 175.8 172.1 168.6 165.2 165.4 168.4 171.5 173.3 174.1 176.4 177.7 178.8 179.1 178.5 178.4 176.4 175.7 177.9 180.1 181.8 181.7 181.6 181.5 183.7 185 187 188.1 187.2 186.3 186 186.7 188.7 188.6 189 189.4 190.3 189.9 190.6 192.1 194.9 198.3 201.2 202.9 204.7 204.6 201.8 197.1 190.5 186.4 182.1 176 166.5 155.5 145.3 135.4 122.6 110.4 100.3 86.2 79.8 81.4 80.9 81.3 81.5 84.2 87 89.7 89.3 89.8 90 90.6 91 92.3 95.7 95.5 96.9 102.3 103.1 103.5 105.2 106.4 108.1 109 111 110.9 109.7 108.8 107.8 104.2 101.3 100.2 100.8 101.5 101.8 100.7 94.7 80.6 91.2 95.4 95.8 95.2 96.9 97.4 96.5 96.5 95.6 94.4 92.7 90.4 90.2 90.3 90.2 89.3 88.4 88 86.8 86.9 87.2 87.9 87.5 86.9 86.5 85.1 82.5 86.4 88.9 90.7 91.5 92.5 94 95.9 96.5 96.7 96.5 95.4 95 94.4 94.6 95.2 95.6 96 97.2 97.9 98.4 97.7 96.2 94.4 87.7 88.3 91.2 91.1 91 90.9 90.8 90.7 90.9 89.6 88.1 85.9 83.7 81.4 80.9 80.8 80.9 80 78.5 80.5
146.4 148.9 153.5 159.3 163.9 168.4 173.1 177.9 183.8 190.6 196.2 201.9 206.7 210.9 213.7 215.5 216.7 217 216.4 214.7 213.7 212.2 210 207.4 204.3 201.4 198.4 195 192.3 189.3 185.3 181.5 178.2 174.6 170.9 168.8 171.4 172.8 174.7 177 178.7 180.6 182.2 184.1 184.6 184.5 183.4 183.6 181.6 179.6 182.3 184.3 185.6 185.7 186.7 186.1 188.7 190.1 192.2 191.9 190.5 190.8 189.8 190.9 191.7 191.6 192.6 194.1 194.7 195.1 196.4 198.3 201.1 204.3 207.1 210.1 213.5 211.6 209.8 204.6 201.6 198.7 192.2 185.3 177.4 168.9 159.3 146.1 136.4 123.6 111.2 99.3 88.6 84.9 79.1 81.1 80.7 80.4 80.3 80.7 82 83.5 86.4 89.3 89.2 90 91.2 89.5 96.6 96.6 97.5 98.4 99.7 99.8 101.7 104.2 106.9 108.4 107.6 107.2 106.6 105.8 103.5 97 91.5 93.1 95.6 95.5 87.1 85.5 85.4 86.1 87.2 88.3 89.6 90.3 94.9 95.2 94.3 92.6 90.8 89.3 89 89.5 89.2 88.8 87.6 87.1 85.5 84.5 86.1 87 86.3 84.9 85.1 84.5 82.9 83.9 85.9 87.6 89 90.4 91.4 93.3 94.9 95.8 95.8 95.1 94 92.8 92.5 92.6 92.9 93.3 94.1 93.9 93.8 94 93.7 93.1 90.8 83.1 88.9 88.8 88.7 88.7 88.6 88.6 88.5 88.5 88.3 86.9 84.9 82.6 79.9 79 79.1 79.3 79 77.8
147.1 151.5 156.8 161 165.4 169.2 173.3 179.2 186 191.4 197.4 202.9 207.8 212 214.2 215.7 216.5 216.6 215.5 213.1 211.7 208.6 205.1 202.6 200.8 198.3 195.9 193 191.1 187.9 184.7 180.1 175.7 172.7 172.9 174.1 176.2 178.4 181.4 183.7 186 187.7 190.2 190.7 190.6 189.4 188.4 186.9 185.1 185.6 188.4 190.4 191.1 190.8 191.8 192.1 194.9 196.1 196.1 195.3 194 193.5 193.8 193.9 195 196.4 199.1 200.2 200.5 200.4 201.3 203.1 205.8 209.8 213.6 215.4 215 215.5 215.6 214.9 210.4 204.3 199.7 195.6 191.3 182.9 173.1 162.3 149.3 136.7 126 113.3 100.3 90.9 85.9 83.5 80.1 80.3 78.5 79.7 79.5 79.5 79.9 87.3 89 89.2 89 88.3 84.4 88.2 92.5 97.8 98.7 98.6 92.9 99 99.6 103.9 105.6 106 104 104.3 103.8 101.7 95.3 89.4 90.2 88.2 87.5 83.8 77.8 78.5 80.6 80.5 83.3 84.5 87.4 91.9 90.6 90.9 88.7 88 87.9 87.9 87.6 87.5 86.9 86.5 85.8 84 83.6 84.4 84.9 84.4 83.8 84.3 83.9 81.2 81.8 82.8 85 86.9 88.3 89.8 91.7 93.8 94.7 93.6 92.8 92.4 91.1 89.6 89.8 90.5 91.5 90.7 90.8 89.8 89.3 88.9 88.4 81.7 85.1 87 86.7 86.5 85.6 85.8 85.5 85.8 86.4 85.8 84.6 83.3 81.2 79.3 77.9 78 78 76.8
147.5 152.7 158.2 162.4 166.7 170.5 175 180.9 187.3 192.7 199.4 204.3 208.9 212.1 214 215.2 215.7 213.5 212.2 210.8 208.5 205.2 201.7 199.3 197.4 195.4 193.4 191.1 189.2 186.1 182 179.3 178.9 178 179.8 180.4 181.2 184 187.7 191 194 195.3 196.7 197.3 196.7 196 192.9 190.1 189.4 190.3 193.9 196.5 197.5 197 197.5 198.6 199.9 200.1 200.5 199 197.2 195.6 198.4 199.8 201.4 203.4 205.4 204.5 205.4 205.5 206.2 208.4 211.8 215.6 218.3 219.8 219.6 219.9 219 216.6 214.9 211.6 208.7 203.8 198.1 193.4 184 175.4 164.5 151.4 137.1 125.3 112.5 103.7 95.7 88.7 85.6 80 79.9 79.7 78.3 79.1 79 81.5 86.2 86.5 84.5 83.6 84.3 87.8 86.7 92.1 91 93.5 93.6 95.5 97.6 99 98.4 97.7 97.2 96.3 95.6 94.6 94.3 89.6 82.3 80.1 81.1 79.6 75.3 74.1 74.6 69.8 70.8 69.4 83.1 91.3 91.3 90 88.8 88.1 87.9 87.3 86 85.4 85.9 86.1 84.9 85 83.6 82.5 83.7 83.2 83.4 83.2 82.6 82.2 79 80.7 80.8 82.5 84.1 85.7 87.7 88.9 91.2 90.5 89.8 89.9 89.5 88.5 87.2 87.8 88 88.1 88.2 87.2 86.1 85.4 85.2 84.4 77.9 83.6 84.3 84.2 83.3 83.1 82.8 82.9 83.9 83.9 83.4 82.7 81.2 79.6 78.1 77.5 76.8 76.9
149.4 154.3 159.1 163.5 167.6 171.9 177.3 183.3 189.7 195.8 201.3 206.1 209.8 212.6 214.6 215.4 213.2 210.5 208.3 206.6 205.2 202.5 200 197.6 196.2 194.2 191.9 188.9 186 183 183.5 183.7 184.5 184.8 184.9 186 188.1 191.5 195.4 199.4 202.7 203.6 202.9 202.9 202.4 199.2 196.4 193.9 194.8 197.3 201.7 203.5 204.3 203.2 202.9 203.9 203.7 202.9 202.8 202 200.7 199.6 201.4 205.4 208.1 208.7 208.7 208.9 209.3 209.2 211 214.6 217.8 220.8 222.8 225.7 226.7 226.1 225.5 222.9 220.1 217.5 214.5 208.4 204.5 199.5 190.7 184.3 174.5 165.8 153.6 141.6 129.6 117 107.8 100.9 94.3 88.9 83.5 79 79.2 78.9 78.7 78.9 80 79.6 79.8 80.4 81 80.8 80.4 82.3 83.2 87.3 87.4 89.7 91 93.3 96.1 97.1 96.6 94.2 92.4 88.4 85.6 82.5 81.2 79.3 76.1 72.1 72.2 71.9 74.8 73.6 71.3 70.4 83 87.1 86.7 86.9 88.2 87.4 86.4 86.2 85.9 82.5 84.9 84.6 84.7 84.8 83.8 81 82.5 82.1 80.6 80.7 80.3 80.1 74.4 78.4 78.4 78.4 79.8 81.2 82.8 84.2 85 84.7 84.4 85 85.4 86 84.8 85.1 85 85.8 85.9 85.2 84.2 83.1 82.4 82.5 77.2 78.7 81 81.6 81.5 80.8 80.4 80.2 80.8 80.9 81.1 81.3 80.8 79.4 78.3 76.8 75.2 75.1
149.9 155.2 160.3 165 170 174.2 180.3 186.2 192.3 197.9 202.9 207 210.6 213.2 214.7 213.4 210.9 210 208.8 206.7 203.5 201.1 199 196.7 194.6 192.4 189.7 189.1 188.1 188.2 188.2 188.1 189.3 190.7 191.1 193.1 196.1 200.3 203.6 207.5 208.6 209.6 210.3 210.1 208.2 203.3 200.3 198.6 200.7 203.4 205.3 207.1 208.7 208.1 207.4 206.5 206.1 205.1 204.4 203.1 203.3 204.2 206.5 209.3 210.9 211.8 212.8 214.5 214.5 215.5 217.3 219.1 221.8 225.7 229.1 231.5 233.3 231.7 230.1 226.6 224.2 220 216.4 212.3 206.1 201.8 196.9 190.9 183.1 173.7 165.5 156.7 143.8 132.2 122.4 114 106.7 101.3 96.8 92.9 87.8 81.7 78.4 77.5 77.8 78.1 78 78.6 78.5 78.7 78.3 77.7 77.3 77.3 81.6 82.3 82.5 84.8 86.7 88.1 86.9 84.9 82.5 80.5 78.1 73.9 73 73.1 72.2 78.3 81.9 84.5 86 84.6 82.1 71.1 70.7 71.3 72.3 73.9 83.6 86.5 86.2 85.6 85 81.4 82.5 83 83.7 83.5 83.1 81.4 81.1 79.9 79.1 78.9 78.8 79.1 75 74.2 76.2 76.3 75.4 75.4 77 78.4 79.1 79.2 79.9 80 80.6 81.5 81.3 81.7 82.7 82.9 83.7 83 82.4 81.7 81 80.3 78.4 71 77.9 79.2 79.7 79.1 78.6 77.9 77.6 78.1 78.5 78.7 78.8 78.3 77.2 76.2 75.2 73.6
149.9 155.9 161.2 165.9 170.7 176.8 181.7 187.7 193.5 198.8 203.2 207.2 210.8 212.7 212.7 212.2 211.1 211.6 210.9 209 206.6 202.7 199.6 198.2 195.5 193.3 193.1 191.9 193.6 193.2 193.1 193.1 193.8 196.2 197.3 200.3 204.5 208 211.3 213.1 214.6 215.6 215.2 214.4 213 208 204.7 203.9 207.1 210.5 211 212 212.1 212.2 211.6 210.4 209.3 208.1 207.1 207.9 208.9 209 210.4 211.7 214.4 216.5 219.2 221.2 222.2 223.1 223.9 224.7 227.5 232 235.7 237 236.7 235.7 232.2 229.5 226.6 223.1 217.9 213.4 207.8 202.2 197.7 192.3 186.9 180.7 173.6 166.6 157.7 146.9 136.8 128.9 121.9 116 109.1 103 99.6 95.6 92 85.4 78.1 77.9 77.2 76.9 78 77.5 76.9 76.6 76.7 76.1 76 76 76.2 77.5 78.9 80 79 74 74.4 74.1 72.8 72.3 77.8 81.9 84.7 88.2 91.8 93.4 93.1 91.4 84.2 86.6 85.9 69.3 68.6 70 69.6 81.3 83.9 83.2 83.2 80.3 79.7 82.9 82.7 81.8 81.7 81.6 80.6 80.4 79.8 71.8 75.2 75.2 73.4 70.5 71.5 72.4 72.2 72.5 73.4 74.1 75.2 75.3 75.6 75.7 75.8 76 76.3 78.3 79.7 80.1 81.1 81.6 81.1 80.6 79.6 78.3 77 73.1 72.5 76.4 77 77.3 76.3 76.2 75 74.5 75 75.6 76.2 76 75.8 75.1 74.5 73.6
150.2 155.9 161.5 166.4 171.8 177 182.5 188.5 194.3 199.5 203.7 206.7 209.8 210.9 211.7 211.5 210.8 211.3 211 209.8 207.6 204.5 201.2 199.2 197.7 197.3 196.1 196.9 197.4 197.4 197.3 198 198.8 200.9 205.2 208.7 212.5 215.3 217.6 218.9 219.2 220.2 219.1 217.9 215.7 212 209 208.5 212.3 214.7 214.9 216.1 216.1 216.2 215.7 214.2 213.3 213 213.2 213.3 214.4 216.1 218.4 219.3 222.3 225.1 227.1 229 230 230.4 231.2 232.1 234.4 238 240.4 240.5 240.1 236.4 234 229.8 226.4 222.9 217.7 213 208.6 203.6 199.2 193.7 187.5 182.6 177.1 172.1 166.3 159.5 152 145 138.4 131.2 124 117.2 107.9 102.6 99 95.7 92.7 90.1 86.9 83.4 78.7 77.9 75.2 76 76.3 75.9 75.3 73.8 75.4 74.7 74.7 74.7 74.4 75.5 81.9 83 84.3 86.5 89.4 95.8 95.2 96 95.7 96.6 96.5 95 94.1 91.8 84.3 87.5 76.4 69.5 68.4 68.9 72.4 71.8 77.2 76.6 74.9 78.5 79.5 78.6 78.5 78.7 79.5 79.7 77.7 74.8 70.2 73.3 70.4 68.3 67.3 67.2 65.7 65.4 64.5 63.6 64.8 65 67.9 70.5 72 72.6 72.9 73.3 75.2 77.5 78.5 79.8 79.8 78.9 77.6 76.4 75.6 74.1 68 73 74 74.5 74.3 74 73.4 73.2 73.4 73.4 73.9 73.7 73.8 73.7 73.5 72.9
150.8 155.9 161.5 166.8 171.5 177.1 182.8 188.4 193.9 198.9 203.1 206.1 207.5 209.5 211.8 211.5 211.6 211.1 211 210.3 207.2 204.8 202.7 201.2 200.3 199.8 200.4 201.4 201.9 202 202.7 203 204.5 208.3 212.8 216.8 220.3 222.1 223.6 224.7 225.2 224.7 224.6 221.9 218.1 214.9 212.5 214.3 217.6 218.2 220 220.8 220.2 219 218 216.7 216.7 217 217.9 218.5 220.1 222.7 224.9 227.1 229.2 232.1 233.7 235.2 235.4 236.5 237.5 239.5 241.7 243.4 244.3 244.5 242.1 237 233.6 229.6 225.2 221.1 216.8 212.8 208.5 203.5 198.7 193.8 188.7 184.2 179.9 175.2 170.4 165.8 160.5 155.8 150.8 143.8 137.8 130.3 120.6 112.7 106.2 102.4 98.5 97 94 91.9 89.9 87.7 81.1 82 77.9 76 76 75.1 74.9 74.5 73.8 80.5 86.4 88.6 90.7 92.2 92.7 96.7 98.1 100.8 101 102 102.2 101.3 100.5 99.4 97.8 95.7 94.9 92.9 83.8 71.3 69.5 69.3 67.2 68.5 70.6 73.6 72.5 71.3 71.7 71.5 71.6 71.5 72 71.6 70.7 70.2 67.4 67 66.3 66.4 65.8 64.3 63.8 62.7 62.3 62.2 61.8 62 61.5 61.1 63.4 68.2 71.7 71.9 72.5 74.1 75.1 76.1 76.5 76.6 75.8 75.2 74.4 73.3 70.2 66.6 71.1 72.2 72.1 71.8 71.4 71.2 71.2 71.2 71 71.3 71.4 71.6 71.8 71.6
150.4 155.4 161.1 166.4 171.2 176.6 182.4 187.8 193.4 197.7 201.6 204.9 207.1 208.5 210 211 211.1 210.8 211 209.6 207.6 206.4 205.2 204.8 204.6 204.7 204.7 204.9 205.7 206.8 207.9 210.3 214.2 217.1 220.7 224.3 226.9 228.4 229.6 230.2 229.8 229 227.4 224.7 220.9 218 216.4 218.7 222.2 223.2 224.2 224.7 223.9 222 219.9 219.4 219.5 219.8 221.2 223.1 224.2 225.8 228.3 232.3 235.9 238.5 241.7 241.8 243.2 243.6 245 246.2 247 246.9 246.5 244.3 241.8 236.6 231.7 227.3 223 219 215 211.7 207.5 202.8 198.2 194.2 190.1 184.7 180.5 176.3 172.3 169 164.8 160.7 155.2 148.5 142.9 137.1 130.4 123.4 115.5 109 103.4 101.7 98.6 97.3 95.2 93.8 87 91.9 89.6 86.1 84.5 85.4 87.7 89.4 89.9 92 94.7 95.7 97.5 99.7 101.6 106.1 110 113.4 113.8 112.1 109.3 108 106.9 104.9 102.1 100.5 98.5 97 95.4 91.6 78.6 68.7 68.6 69.1 68.3 67.6 68.1 68.2 67.9 67.6 67.3 66.9 67 66.7 66.1 66 66.1 65.3 65 65 64.8 64.1 63.8 63.2 63.2 63 62.7 62.4 62.2 62 61.6 64.9 70.7 71.5 71.4 71.8 71.7 71.3 71.4 72.3 72.4 72.1 71.6 71 69.7 65.8 68.2 68.8 69.8 69.9 69.4 69.3 69.2 69.1 68.9 68.8 68.6 68.4 68 67.7
150.4 153.8 160.3 166 171.4 177 182.9 188.1 192.4 196.6 200.9 204.5 206.6 208.1 209.7 210.9 211.7 211 210 210.1 209.6 208.9 208 207.7 207.1 207.1 207.2 207.7 209.2 211.2 213.5 216.4 219.3 222.2 226.9 230.1 232.5 234 235.1 235.3 234.1 232.7 232.1 230.2 224 220.5 219 222.5 225.6 228.8 227.8 227.5 225.3 223.5 222.7 222.7 222.9 224 226 227 230 233.2 235 240.1 243.4 245.2 246 247.6 248.7 248.9 248.8 248.4 249 248.2 247.2 244.3 239.9 234.4 229.5 224.1 219.6 215.4 211.5 208.8 205.5 202.4 198.7 194.2 189.9 185.8 181.6 176.4 172.7 168.7 166.2 161.8 156.2 151 146.5 141.7 135.2 129.5 124.5 120.6 111.5 106.6 102.1 99.3 97.6 96.3 91.6 96.4 95.6 94.4 93.5 92.9 94.3 95.8 98 99.1 100.9 104 106.4 107.9 113.4 119.5 122.8 125.6 126.2 122.9 120.1 114.2 110.7 108.5 107.4 105.4 103.3 102 99.4 96.9 93.4 83.7 87.4 69.8 68.4 69.2 67.9 67.3 67.7 67.2 67 66.7 66.3 65.9 66.3 65.7 65.2 64.8 64.8 64.6 64.7 63.7 63.7 63.6 63.1 62.3 62.8 62.5 62.2 62 61.9 60.4 59.4 70.4 70.9 71 69.8 69 68.4 70.4 69.9 67.5 67.1 66.9 65.7 62.8 64 65.4 65.1 67.9 67.8 68.6 68.6 68.5 68.3 67.9 68 67.8 68 67.6
150.6 155.9 162 167.5 172.6 178.2 182.8 187.1 191.5 195.7 199.9 203.3 205.8 207.4 208.6 209.2 209.7 209.8 211.2 212.2 212.5 212.1 211.4 210.8 209.8 209 209.5 211.1 213 215.8 219 221.9 224.6 228.6 232.4 235.3 237 238.4 238.8 238.7 238.6 237.9 236.1 232.9 228.5 225.9 226.4 228.7 230.1 232.1 231.7 229.8 228.9 227.8 226.6 226.8 227.5 229.6 232 235.1 237.8 239.7 242.1 245.1 247.6 249.4 250.7 252.1 252.9 252.9 253 252.3 250.7 248.8 245.7 241.4 236.2 231 225.9 220.4 215.9 211.3 207.6 204.6 202.9 200.2 197.7 195.4 191.3 187.1 182.1 178 172.4 167.6 164.2 161.5 157.6 153.8 149.5 145 140.3 135.1 130.7 125.4 119.9 111.5 106.8 103.1 100.4 99.2 97.1 100.4 100.5 100.5 99.8 100.2 100.6 102 104.6 107.2 110.2 114.3 115.9 118.1 122.6 128.3 132.9 132.2 131.7 130.5 127.7 122.6 117.2 112.8 109.4 107.8 105.4 102.7 101.3 98.7 95.9 93.1 91.1 86.3 79.4 70.5 68.1 66.6 65.8 67.2 65.7 66.6 66.1 66.5 65.3 64.7 65.2 65.3 64.5 64.1 63.6 65.6 63 63 63.1 64.7 63.8 62.9 60.8 62 62.9 63.8 60.9 59.7 68.7 69.4 68.7 68.2 67.7 67.8 68.5 66.4 65.9 65.8 64.7 60.7 61.7 60.2 59.3 58.5 59.3 61.7 66.1 67.5 67.9 67.2 66.8 66.4 66.4 66.1
152.1 158 163.7 168.8 173.6 178.8 183.4 187.5 191.5 194.8 197.8 201.3 203.6 205.7 206.9 207.7 208.9 210.5 212.5 213.8 214.9 214 213.5 212.9 212 211.2 212.6 214.5 217 222.1 224.4 226.8 230.2 233.5 236.4 238.3 240.6 242.2 242 242.4 242.1 242.2 240.6 237.2 233.2 230.2 231.6 231.9 232.6 232.8 233.1 232.4 234.6 233 233.5 233.7 234.7 235.6 237.9 240.5 241.8 244 247.7 250.5 253.3 255 256.4 255.7 255.9 255.5 255.2 253.4 250.7 246.7 242 236.8 231 226 220.2 215.3 210.5 206.2 202.4 199.5 197.8 197.4 196.7 196.3 193.3 188.4 183.7 179.9 174.2 168.9 164.4 160.5 158 154.7 151.2 148.2 142.4 138.8 134.8 130.5 125.4 118.2 112.2 106.6 103.9 102.6 100.5 104.9 106.2 107 108.5 110 111.7 115.2 116.2 119 122.2 125.9 128.5 130.5 131.8 133.9 134.1 134.6 133.2 131.2 128.8 126.7 122.5 118.4 113.8 109.1 106.5 104.2 102 99.5 97.9 95.6 92.6 89.9 87.1 87 82.5 83.6 84 81.4 79 73.1 73.1 72.9 67.9 66.2 66.7 69.7 71.1 73.4 75 73.6 73.7 73.7 73.8 73.9 73.5 72.9 71.7 69.7 68.3 65.4 60.8 60.2 61.3 65.2 66.6 66.5 66.9 65 65.1 66.2 65.6 63.3 59.7 59.1 59.5 59.1 58.6 57.3 56.6 54.2 55.6 56.7 61 59.9 63.5 62.7 63.5 63.8
155.1 159.6 164.5 169.3 174.1 178.5 182.6 186.8 190.1 192.7 194.9 197.6 201.1 203.7 205.5 206.6 208.8 210.3 212.7 215 216.3 215.8 215.3 214.6 214.3 214.3 216.3 218.7 223.5 227 229.7 231.3 234.8 237.9 240.2 241.7 242.8 243.9 244.9 245.1 245.1 244.3 241.7 239.6 236 233.6 235.6 236.2 234.6 234.5 236.5 239.1 240.7 240.9 240.3 241.4 241.3 242.3 243.6 245.2 247.4 251.1 253.2 255.6 257.1 258.8 258.5 258.2 257.7 257.1 254.2 251.6 247.4 242.8 237.5 231.9 225.8 219.2 213.2 207.3 202.4 199.7 196.8 194.3 193.4 192.8 193.8 193.6 192.8 190.3 186.4 182.2 177.4 171.1 165.5 161.2 157.1 154.5 151.5 148.1 144.9 141.5 138.3 134.1 129.8 125.2 119.3 112.9 109.3 108.3 107.1 110.8 113.1 114.2 117.9 121.7 124.2 126.7 129.3 132.2 134.4 135.9 137.8 139.7 139.1 138.6 136.1 134.9 133.2 131 128.3 126.4 124.2 121.2 117.4 113.3 109.7 107 104.2 101.8 99.1 97.1 94.5 92 88.8 88.1 87 87.2 81.9 84.9 81.9 81.1 81 80.8 80.4 78.3 77.7 76.1 75 74.7 74.8 74.5 73.8 73.4 73.7 73.3 73.2 73.3 72.2 70.7 69.2 68.2 65.1 60.8 60.5 60.7 64 64.6 64.9 64.7 64.9 64.5 63.3 58.9 58.3 57.8 57.9 58.5 56.2 54.6 55.7 55.7 55.3 55.1 54.6 53.4 54.3 54.6 59.3 61.3
156 160.3 164 168.6 172.3 176.7 180.3 183.5 186.4 188.5 191.3 194.2 197.1 200.8 202.5 204 206.9 211.8 214.8 216 216.8 216.9 216.5 216.6 216.9 218.4 221.3 224.5 226.9 230.3 233.2 235.1 236.5 238.3 240.4 242.6 244.2 245.7 246.5 246.7 246.3 245.7 244.3 241.2 238.4 236.3 236.6 238.4 238.4 239.3 240.9 242.8 245 244.7 245.2 246.2 246.6 247.6 248.6 251.4 253.2 256.2 258.1 259.1 260.7 260.3 258.9 257.7 255.8 255.3 252.5 248.1 243.4 237.8 231.5 226.5 220.4 213.6 206.1 201.2 195.7 192.5 190.1 189.7 189.3 188.9 189.7 191.4 191 190 187.7 183.7 178.6 173.7 169 163.8 158.2 153.5 149.8 147 144.1 141.5 138.8 136.7 133.3 129.7 125.1 120.9 116.9 115.9 116.2 119.2 122.4 124.3 129.2 132.6 135.6 138.6 140.6 142.2 143.2 143.7 144.5 144.1 142.9 140.7 138.3 135.3 132.7 130.4 127.3 124.3 122.5 120.4 118.2 114.5 111 108.9 105.1 102.5 100.5 98 94.9 93.5 90.5 89.3 87.8 86 84.4 84.9 83.2 80.8 81.4 80.5 80.5 79 77.3 76.2 75.7 75.3 74.8 74 73.6 73.9 73.8 73.6 73.3 72.8 72.3 71.4 69.3 69.4 67 60.2 59.4 59.9 60.6 62.5 63.4 64.3 63.5 63.5 60.1 57.5 57.4 56.8 56.6 55.2 58.3 58.9 58.5 57.9 58 56.9 55.5 54.7 52.7 54.5 54.6 55
155.4 160.5 163.6 166.9 170.5 174.1 177.4 179.7 181.9 184 186.9 190 192.7 195.4 198.1 202.5 206.8 212.3 215.1 216.4 216.7 217.6 218.2 219.2 220.5 222.6 224.9 228 230.3 233.3 235 236.7 238.4 240.1 241.8 243.8 244.6 245.5 246.4 247.6 247.4 246.6 245.9 244.1 240.6 239.2 238.3 240.6 242.5 242.9 244.9 245.2 246.8 247.4 247.4 249.1 251.2 252.6 253.6 255.3 257.7 259.5 260.2 259.4 259.4 259.2 255.9 254.4 252.5 251 248.3 243.7 238.8 233.4 226.6 220.1 214.6 208.6 202.8 197 192.4 189.4 188 187.5 186.2 186.8 188 190.1 190.6 190.2 188.7 185.4 181.2 176.7 172.5 166.8 160.6 155.3 150.4 145.7 142.9 140.4 137.6 136 134.1 131.8 128.6 126 122.8 117.7 121.6 125.2 129 132.9 138.4 142.4 144.9 146.6 146.7 147.8 148.1 146.4 146.3 145.2 143.8 141.3 138.3 135.1 131.7 128.4 125.6 123.1 120.1 117.5 115.4 113.5 110.9 107 104.7 102.9 100.7 99 96.3 94.2 92.6 89.4 87.6 85.7 83.2 83.3 84.2 83 80.8 80.2 79.3 77.5 76.7 75.7 75.1 75.2 74.4 74.7 73.8 73.8 73.8 73.9 73.5 73.2 72.5 71.7 70.7 69.4 69.6 67.5 59.6 59.2 59.4 58.5 59.7 60.7 60.8 59.8 58 57.3 57.6 56.8 57.7 60.9 64.1 65.6 66.9 66.2 64.6 63.7 60.1 58.3 57.4 54.1 51.9 52.3
155.5 160 163 166.1 168.7 170.7 173.6 174.9 176.3 177.7 181.1 184 188.2 192.1 196.9 203.9 208.3 212 214.1 217.4 217.1 218.4 220.4 221.4 223.2 225.6 226.8 230.9 232.6 234.2 236.5 238 239.7 241.2 243.4 244.1 243.9 245.2 245.8 246.9 247.1 246.2 245.4 244.6 241.8 239.9 241.1 243.9 245.8 245.9 246.4 247.4 248.2 249.7 252 252.8 253.6 255.4 256.5 257.4 259 259.2 259.4 257.9 257 255.3 252.8 250.3 247.2 244.8 242.5 239.1 233.6 228.9 222.4 216.6 212.2 207.5 201.5 196.5 192.1 189 187.3 186.1 186.2 188.5 190 191.2 192 192.1 190.8 188.8 184.5 179.6 176.2 171.2 164.5 158.3 153.1 146.8 143 138.8 135.7 134.2 132.5 130.6 128.9 128.1 125.2 124.4 125.9 128.7 133.4 140.3 146.5 149.1 149.9 150.5 150.5 151.2 149.9 147.1 144.9 143.7 142 140.1 137.3 134.2 130.8 126.8 124 121.1 118.8 115.7 112.8 110.7 109.5 107.5 104.2 101.6 99.2 97.9 96.1 95.2 92.9 91.6 89.4 85.8 83.1 82 82.1 82.8 82.2 81.5 81.5 80 78.1 75.2 75.3 74.4 74.4 74 73.6 72.8 73.7 72.9 72.4 72.3 72.1 71.9 70.6 70.6 69.9 68.4 65.4 60.1 59.1 58.6 58.5 58.6 58.1 57.8 57 57 56.2 61.5 64.9 68.9 69.5 68.7 68.9 68.4 68 65.5 64.3 63.3 63.7 61.9 57.6 53.7
156.9 158.3 160.1 161.7 164.5 165.8 168.2 173.1 176.8 179.4 182.4 183.8 184.8 190.6 199.8 203.8 206.8 209.3 211.9 215 218 220.5 222 224.5 226.6 228.5 230.9 232.7 234.3 235.5 237.6 238.7 239.5 241.4 242.6 242.2 243.2 244.3 245.2 245.4 245.6 244.3 242.3 241.2 239.9 241.1 242.6 244.7 245.6 247.8 248.1 249.9 251.7 253.1 254.5 255.8 256.2 257 256.5 256 254.8 253.9 253.5 252.2 251 250.2 248.8 244.3 241.7 238.4 235.5 232.5 229.8 226.4 221.2 216.1 213.5 210.1 205.8 201 195.1 191 188.5 187.6 190 192.3 194 195.3 195.8 195.2 193.7 190.8 187.6 184.1 179.5 174 168.6 162.8 156.5 150.6 144.6 139.5 135.1 132.6 131.2 129.8 128.3 127.7 126.5 127.4 128.1 130.1 135.9 142.3 149 152 152.3 153.6 152.9 151.4 149.4 146 142.6 140.8 138.3 135.3 132.6 130.5 127.9 125.1 122.3 119.2 116.6 113.7 110.7 108.1 105.9 105.1 103.4 101.3 98.1 97.6 95.9 95 92.9 91 89.1 88.1 86.5 83.3 83 81 80.9 79.8 78.6 76.5 75.8 79.5 79.9 74.4 74.4 74 73.8 73.3 73 72.3 72.8 71.6 71.7 71.4 70.9 70.8 71.2 70.1 66 61.2 60.4 59.4 57.6 58.5 58.1 58.5 57.4 61.4 62.8 65.3 68.2 69.5 69.6 69.5 69.3 69 68.5 68.5 67.8 64.5 63.4 63.5 62.3 61.6
158.4 161.3 163 164.2 167.9 170.6 173.5 177 180.3 183.4 186.1 188.7 190.1 190.4 193.9 198.7 203.1 206.9 211.4 216 219.3 222 225.2 227.8 228.8 231.2 234.2 234.8 235.6 237.4 238.7 239.2 241.1 241.9 243.8 243.1 243.9 244.1 245.1 244.1 242.7 241.6 239.3 239.2 238.7 240.9 243.3 245.3 247 249 251.1 252.3 254 255.4 256.6 257 256.6 255.7 254.1 251.2 249.7 247.1 245.5 244.5 243.4 242.5 240.3 237.6 235.1 232.6 229.8 227.4 225.5 223.6 220 217.7 213.2 208.9 205.5 202.1 197.5 195 191.9 188.8 192.3 195 197.6 200.3 200.3 198.9 196.8 193.9 191.1 186.8 181.6 175.8 171.2 165.2 158.9 153.7 148.7 142.5 137.7 133.1 130.5 129 127.2 126.5 125.8 126.9 127.6 129.7 134.8 141.7 147.8 151.8 153.7 153 152.2 150.1 147.6 144.5 140 137.5 135.5 132.1 128.9 126.9 123.6 121.1 118.3 116.5 113.5 111 108.5 106.1 103.8 102.2 101.6 100.9 98.6 97.1 95.1 96.3 95.3 92.9 89.9 86.9 86.1 84.6 81.7 81.1 80.3 79.5 79.5 77.6 76.4 75.5 75.4 74.9 79.4 77.4 73.7 73 73.1 72.4 71.9 71.8 71.6 71.6 71.5 71.8 71.5 68.2 65.2 63.8 62.6 62.3 59.6 58 57.8 57.5 62.2 64 65 66.6 69 70.3 70.3 70.3 70.2 69.9 69.2 69.4 68.9 68.4 65.5 63.9 62.8 61.8
161 163.4 166.1 168.3 170.4 174 176.4 180.1 183.3 186.8 190.8 194.9 197.5 197.3 197.1 198.2 201.9 206.2 212 217 221.7 224.5 226.9 228.4 230 232.9 235.6 236.5 237.3 239.1 241 241.4 241.6 243.9 244.6 244.4 244.2 244.3 243 242.3 240.3 238.6 237.5 236.5 237.2 239.8 242.6 244.8 248.4 250.3 252.6 254.2 256.8 257.7 257.6 255.2 253.4 250.7 249 246.7 244.1 240.7 238.4 237.1 235.1 233 231.5 229.3 227.7 226.6 224.7 223.2 221.9 221.9 220.1 217.7 214.4 210.4 205.3 201.2 197.2 194 191.7 189.1 192.1 195.3 198.4 201.5 202.5 201.7 199.8 195.4 191.5 187.5 182.3 177.2 172.5 166.5 161.3 156.8 151.7 146.4 141 136.1 131.5 129.2 126.5 125.4 125.6 125.1 127 129.1 134.2 138.6 143.7 148.3 150.7 151.5 150.2 148.4 145.3 143.3 138.7 135.2 131.9 129.5 126.5 122.8 120.5 118 115.6 114 111.3 108.9 107.1 104.3 102 100.2 99.8 99.3 98 95.2 94.9 92.9 92.1 92 90.5 86.5 84.9 83 82.9 81 80 79.3 78.7 78 77.1 76.5 76 74.9 74.7 74.5 75 78.7 72.5 71.8 71.4 71.6 70.7 70.2 69.7 69.4 68.5 66.3 65.6 64.9 64.3 64.1 65.4 64.2 64 64.5 64.4 65 66.2 67.9 70.5 70.6 70.3 70.5 71.2 70.8 70.1 69.5 69 68.8 68.4 66.1 63 61.7
162.7 166.5 168.6 171 173.7 176 178.4 182.1 186.1 190.2 194.4 200 204.6 206.5 204.8 203.3 205.4 209.8 212.2 217.9 222.6 225.1 226.8 228.1 230.6 232.9 235.5 236.4 237.5 240.4 243.5 243.9 244.5 244.2 245 244.2 243.7 242.7 241.4 239.2 237.1 236.1 234.7 234.9 235.6 238 241.4 244.8 248.2 251.2 254.7 257.3 259.4 258.4 255.9 253.9 250.3 246.8 244.5 242.4 238.5 234.7 231.3 228.9 226.8 225.3 223.4 221.6 220.5 220.6 220.3 219.8 219.8 219.4 218.4 216.4 214 211.2 207.2 202 197.8 194.1 191.4 187 190.2 194.2 199 201.8 202.8 201.6 198.7 195.2 191.1 186.7 182.5 177.8 173.4 168.9 164 158.8 153.9 149.5 144.7 139.9 135.3 130.3 127.3 125 124.7 124.8 125.8 127.1 131.4 135.1 139.2 144.4 146.6 147.7 147.3 145.5 143 139.5 136.3 132.7 129.9 127.8 124.4 121.2 118.7 115.9 113.7 111.4 109.4 106.9 104.7 103.5 101.1 99.6 97.5 97.1 94.8 94.2 94.8 91.7 90.1 90.4 88.4 87 85.1 85.3 83.6 81.1 79.9 80 79 78.4 77.5 76.3 75.4 75.2 74.8 74.4 74.5 74.1 73.7 78.2 72.5 73.5 73.7 72.2 71.8 71.6 70.8 68.7 66.7 65.9 65 65.3 65.3 65.3 64.9 64.9 65.8 66 66.5 67.5 70 70.6 70.4 71.2 72.6 73.5 73.4 72.1 70.1 69.3 68.3 68.8 66 62.5
