ncols 200
nrows 84
xllcorner 270000
yllcorner 932300
cellsize 50
147.8 146.8 144 141.2 139.1 137.4 136.1 134.8 133.6 132.3 131.1 130.2 130.6 133.2 136.2 137.6 140.7 143 145.3 147.7 149.8 151.9 150.5 144.5 140 136.3 134.7 133.3 132.4 132.3 132.1 131.6 131.2 130.7 130.2 129.6 129 128.6 128.4 128.1 127.7 128.7 130 131.1 132.3 133.8 135.7 137.2 138.4 139.8 142.6 146.9 151.2 152.1 155.9 159.1 164.7 163.7 158.4 151.8 144.5 138.6 134 131.1 129.5 123.4 121 121 121 121 121 121 121 121 121 121 122.1 123.5 125.2 125.8 127.9 130.6 133.3 136 138.1 140.4 142.8 145 147.3 149.5 151.4 153.3 155.1 156.9 158.2 158.7 159.1 158.6 157.5 153.5 149.9 145.8 141.6 139.6 137.2 134.7 133.1 132.2 131.2 130.1 129.1 127.6 125.8 124.9 124 122.9 122.3 121 121 121 121 121 121 121 121 121 121 121 121 121 122.2 122.9 123.7 124.5 125.4 127.2 127.8 128.5 129.7 131.9 133.8 135 135.5 136 136.4 136.8 136.9 134.7 137.7 138.8 139.7 140.5 141.5 142.2 142.8 142.9 143.1 143.9 144.5 145.5 146.3 146.6 146 146.4 148.5 150.6 152.8 155.4 157.9 160.2 162.2 165.3 167.6 169.4 172 175.3 177.7 180.3 183.9 190.3 195.9 202.4 209.3 217.3 228.9 241.9 256.6 269.4 278.4 282.9 287.5 290.1 282.9 277.3 269.3 266.6 266.4 267.1 264.4 260.4
153.7 151.2 148 145.1 142.4 140.1 138.2 137 135.7 134.5 133.3 132.6 133.1 134.7 139.6 141.9 145.6 147.9 150.3 152.6 154.8 156.5 154.2 147.9 142.7 138.9 135.6 134.2 133.4 133.1 132.6 132.2 131.8 131.3 130.8 130.2 129.7 129.5 129.2 129.1 128.9 129.7 131 132.2 133.7 135.7 137.6 139.5 141 143.1 145.7 150.4 155.4 157.9 161.4 165.6 168.6 167.2 161 153.5 146.1 139.1 134.4 130.7 127.9 121.2 121 121 121 121 121 121 121 121 121 121 122.4 124 124.8 125.4 127.1 129.2 131.9 133.9 136 138.1 140.4 142.9 144.6 146.5 148.4 150.3 152.1 153.5 154.7 155.2 155.6 155.4 153.3 151 146.6 143.3 140.4 138.1 135.7 133.6 132.1 130.9 130 129 127.8 126.1 124.4 123.5 122.6 121.5 121.6 121 121 121 121 121 121 121 121 121 121 121 121 121 121 121.8 123.3 125.5 126.2 126.8 127.4 128 129.3 131.4 133.2 134 134.5 135 135.4 134.9 133.5 137 137.9 139 140.1 140.9 141.6 142.3 143 143.6 143.9 144.7 145.3 145.9 146.6 147.2 146.7 148.2 150.6 151.5 152.2 154.8 157.1 159.4 162.4 164.8 166.3 167.6 170.1 173.3 176.9 180.3 183.7 189.4 195.6 202.7 209.9 218.9 232.1 244.3 256.1 269.5 278.6 284 287.3 289 283.3 281.2 267.7 265.8 265.4 264 262.3 259.9
158.4 155.5 152 149.1 146.1 143.3 140.7 138.6 137.8 136.7 135.4 134.9 135.9 140.1 144 146.6 150.3 152.9 155.2 157.5 159.6 161.1 158 152.3 146.2 141.6 137.3 135.3 134.1 133.7 133.2 132.8 132.3 131.9 131.3 130.8 130.6 130.3 130.1 129.9 129.9 131.1 132.3 133.7 135.6 137.6 139.5 141.4 143.6 146.2 148.9 153.9 159.1 162.4 166.5 170.1 172.2 170.6 163.6 154.6 147 140 134.9 130.4 126.2 121 121 121 121 121 121 121 121 121 121 121 122 123.2 124.9 124.6 126.3 128 129.8 131.9 133.9 136 138.1 140.1 141.5 143.3 145.3 147.2 148.4 149.7 150.9 152.2 152.5 151.5 149.2 146.9 144.5 141.3 138.6 136.3 134.2 132.4 131 129.5 128.4 127.5 125.9 124.2 122.9 121 121 121 121 121 121 121 121 121 121 121 121 121 121 121 121 121 121 121 121.9 123.8 124.5 125.2 126.2 127.5 128.4 130.2 131.9 132.7 133.4 133.6 132.9 134 135.8 137.6 138.4 139.3 140.3 141 141.7 142.4 143.1 143.8 144.5 145.2 145.8 146.3 147 147.7 147.5 149.9 151.9 153.8 154.7 155.1 157.8 160.8 163.6 165.9 167.3 168.2 169.7 171.3 174.6 178.6 183.3 189.1 195.2 202 209.7 220.4 233.6 244.6 254.8 267.9 276.3 282.5 285.8 285.2 280.7 274.4 266.2 265.1 264.5 262.5 261.1 259.7
165.7 161.1 156.4 152.4 149.4 146.5 143.6 140.6 139 138.1 137.3 137.8 141 145 148.1 150.9 154.3 156.9 160.2 162.5 164.5 165.8 162.5 156.3 149.2 144.1 138.9 136 134.7 134.3 133.8 133.4 132.9 132.5 131.9 131.7 131.4 131.2 130.9 130.9 131.3 132.8 134.2 135.6 137.5 139.5 141.4 143.6 146.4 149 153 157.4 161.7 164.7 169.4 174.4 176.3 173.8 165.9 155.9 147.7 140.6 135.1 131.2 127.2 121 121 121 121 121 121 121 121 121 121 121 121 123.2 124.3 124.7 124.7 126.2 128.1 130.1 132.2 134.1 136.3 137.3 138.5 140.1 142.1 143 144 145.3 146.6 148.1 148.5 147.9 145.8 143.6 141.5 139.3 136.8 134.9 133.1 131 129.4 127.9 126.4 125.4 124.2 122.6 121 121 121 121 121 121 121 121 121 121 121 121 121 121 121 121 121 121 121 121 121 122.3 123.5 124.5 125.6 127.2 127.5 128.6 130.6 131.1 131.4 131.7 129.9 133.7 135.7 137.4 138.6 139.6 140.3 140.9 141.6 142.3 143 143.7 144.6 145.1 145.9 146.7 147.4 148 148.8 150.7 152.5 154.6 156.8 157 158.1 161.7 164.7 166.8 167.7 168.6 170.1 171.6 173.2 176.6 181.8 187.9 194.5 199.3 208.4 221.6 233.4 244.3 255.1 265.4 274.7 280.4 283 280.7 275.3 269.2 265.6 265 264.3 262.5 261 259.5
171.6 166 160.4 156.7 152.1 148.7 145 142.7 140.5 139.6 139.4 141.8 146.7 150.8 153.1 155.5 158.4 160.9 163.5 168.2 171.4 168.6 165.6 159.8 152.7 146.6 141.2 137.1 135.4 134.9 134.4 134 133.5 133.1 132.8 132.7 132.6 132.4 132.3 132.3 132.8 134.4 136 137.5 139.5 141.4 143.6 146.4 149.2 153.1 156.8 161 165.1 168.8 172.9 176.9 180.4 177.2 168.3 157.4 148.4 141.9 135.4 131.3 126.6 121 121 121 121 121 121 121 121 121 121 121 121 121 123.8 123 123.2 124.4 126.2 128.1 130 132.4 134.7 135.3 136 136.9 137.9 138.6 139.7 140.9 142.4 143.5 144.5 144 142.4 140.5 138.6 137.1 135.7 133.9 132 129.9 127.9 126.4 124.9 123.4 121.9 121 121 121 121 121 121 121 121 121 121 121 121 121 121 121 121 121 121 121 121 121 121 121 124.6 123.9 125.9 126.6 126.9 127.2 128.5 129 129.6 130 131.5 134 135.7 137 137.8 139.4 140.2 140.8 141.5 142.2 142.9 143.8 144.6 145.4 145.8 146.6 147.3 148.1 149.3 151.4 153.2 155.4 157.1 158.9 160.7 161.4 163.7 166.1 167.7 169.1 170.7 172.7 174.4 177.1 179.6 185 193.5 197.9 209 221 232.6 243.3 253.9 263.4 271.2 275.3 278.3 275.6 272.1 268.5 265.4 264.8 263.7 262.6 262 260
175.1 168.8 163.2 160.4 154.8 150.4 146.4 143.9 142.2 142.2 142.8 146.5 150.3 155.8 158.5 159.8 161.6 164.2 168.2 175.4 178.2 174.9 170.4 163.4 155.8 149.1 143.8 139.2 136.1 135.5 135.1 134.6 134.2 134.2 134.3 134.1 134 133.8 133.6 133.7 134.6 136.3 138 140.4 142.4 144.3 146.2 148.8 151.5 155.7 160.1 164.3 169.2 173.5 177.1 182.4 185.4 181 170.3 160.4 150 142.8 135.2 131.6 125.8 121 121 121 121 121 121 121 121 121 121 121 121 121 121.8 121.1 121 122.8 123.9 126.2 128.5 130.8 132.7 133.4 134 134.3 134.6 135.3 135.7 136.6 137.8 139.1 140.5 140.3 138.5 137.5 136.8 135.7 134.3 132.8 130.9 128.8 126.7 124.9 123.2 121.8 121 121 121 121 121 121 121 121 121 121 121 121 121 121 121 121 121 121 121 121 121 121 121 121 122.2 123.2 125.7 126 126.3 126.6 127 127.2 127.8 127.8 131 133 134.4 136.5 137.1 139.3 140.1 140.8 141.5 142.1 142.9 143.8 144.6 145.4 146 146.4 147.2 148 148.6 151 153.8 155.8 157.7 159.6 161.6 162.5 164.7 165.9 168.2 169.6 170.7 172.7 175 177.6 180.2 184.2 189.9 197.5 205.6 218.3 229.8 240.2 250.9 260.4 267.2 271.4 273.9 274.8 272.3 268.6 265 263.9 264.2 263.5 263.1 261.4
176.9 171 167.2 163 157 152.3 148.9 146.4 145.1 144.6 147.2 151.1 154.8 158.9 160.4 161.9 163.3 167.2 173 183.1 184.9 181.2 174.1 167.5 159.6 151.8 146.5 141.3 137.9 136.3 135.7 135.3 135.1 135.3 135.5 135.5 135.4 135.1 134.9 135.6 136.9 138.6 141 143.4 145.5 147.2 149 151.4 155.4 159.3 163.5 167.4 171 177.1 181.3 188.3 189.4 184.1 172.9 162.1 150.9 142.6 135.6 131.8 127.9 121 121 121 121 121 121 121 121 121 121 121 121 121 121 121 121 121 122.3 124.6 126.9 129.2 130.7 131.4 131.6 131.8 132 132.3 132.7 132.9 133.8 135 136.4 136.4 135.4 135 134.3 133.6 132.8 131.4 129.8 127.8 125.6 123.4 121.6 121 121 121 121 121 121 121 121 121 121 121 121 121 121 121 121 121 121 121 121 121 121 121 121 121 121 124.7 125.1 125.4 125.6 125.9 126.4 126.2 127 129.7 131.5 133.2 134.8 135.7 137.2 139.3 140.1 140.7 141.4 142.1 143 143.8 144.6 145.4 146.3 146.7 147.1 147.8 148.4 150 153.1 155.6 158.4 160.4 162.4 164.4 166.7 167 168.8 170.1 171.3 172.6 175.4 178.3 180.8 184.4 189.4 194.3 203.6 215.2 225.9 236.9 246.9 257.1 264 268.5 272.7 275.9 272.9 268.3 263.9 262.6 262.9 263.5 263.9 261.1
180.5 176.1 173.8 164.7 159.4 155.1 152.5 150.1 149.2 149.7 151.5 154.9 159 160.5 162 163.6 165.8 169.8 177.5 188.6 190.9 187 179 171.3 163.8 155.4 149.9 144.4 140.3 137.6 136.7 136.2 136.1 136.3 136.6 137 136.8 136.6 136.7 138 139.2 141.4 143.8 146.3 148.5 150 151.9 154.9 159.6 164 167.6 170.7 174.5 181 184.5 191.8 193.8 186.8 175.6 164.6 153.2 143 136.6 132.4 127.5 121 121 121 121 121 121 121 121 121 121 121 121 121 121 121 121 121 122.2 123.2 125.3 127.6 128.8 129 129.2 129.4 129.6 129.9 130.1 130.2 130.8 131.7 132.6 132.9 132.5 132.5 132 131.5 130.9 129.7 128.4 125.8 124.4 121 121 121 121 121 121 121 121 121 121 121 121 121 121 121 121 121 121 121 121 121 121 121 121 121 121 121 121 121 122.1 124.6 124.5 123.4 124 127.2 128.9 130.8 132.1 133.2 134.5 136.4 137.9 139.3 140 140.6 141.3 142.1 143 143.8 144.6 145.5 146.3 147 147.3 148 148.9 150.3 152.9 155.4 157.5 160.9 162.4 163.8 166.4 168.3 169.5 170.8 171.8 173.1 175.8 178.8 181.6 186.2 190.2 194.8 202.1 210.2 220.7 232.2 242.7 252.1 259.2 264.8 268.9 272.9 271.6 267.6 262.2 261.2 261 260.9 260.1 258.7
187.2 181.1 173.9 168.2 163.9 160.1 156.6 154.2 154.7 154.8 155.6 158.5 161 163.4 163.9 166.1 170.8 176.8 182.9 192.4 197 193.2 185.3 177 168.9 160.2 154.1 148.2 144.1 140.2 138.6 137.4 137.3 137.9 138.4 138.9 138.8 138.6 138.8 140.1 141.4 143.9 146.3 148.9 151.1 152.8 154.7 158.6 163.3 168.3 172.1 174.9 177.8 184 190.1 198.6 195.9 185.3 177.1 165.4 153.7 143 136.6 131.4 126 121 121 121 121 121 121 121 121 121 121 121 121 121 121 121 121 121 121 121 122.6 126 126.6 127.1 127.5 128 127.7 128.8 129.1 129 129.3 129.7 130.1 130.3 130.5 130.8 130 129.5 129 127.8 125.7 124.1 121 121 121 121 121 121 121 121 121 121 121 121 121 121 121 121 121 121 121 121 121 121 121 121 121 121 121 121 121 121 121 121.3 122.2 125.2 126.8 128.2 129.5 130.4 131.4 132.6 133.9 135.4 137.3 139.2 140.2 140.3 141.3 142.2 143 143.8 144.6 145.5 146.3 147.1 148 148.9 149.8 151 152.9 155 157.2 160.4 161.9 165.6 168 169.3 170.5 171.7 172.7 174.8 177 179.6 182.5 186.2 190.1 194.7 200.7 207.6 214.8 225.7 233.6 244.1 252.8 259.5 265.5 267.8 268.9 264.4 260.5 260.5 260.4 259.9 257.7 254.1
194.4 187.5 179.5 175.6 169.7 167.3 162.4 159.2 160.2 160.9 160.5 161 163.4 165.7 167.7 170 174.1 180.8 187.3 198.5 202.8 200.2 190.8 182.4 174.6 166.6 158.8 152.3 147.1 142.8 140.5 139.7 139.3 139.9 140.4 140.8 140.7 140.5 140.7 142.2 143.9 146.4 149 151.7 153.7 155.5 158.3 162.4 166.7 170.7 174.3 177.4 180.8 187.7 195.5 204 198.9 189.8 177.5 164.8 152 142.8 136.8 133.1 130.1 123.2 121 121 121 121 121 121 121 121 121 121 121 121 121 121 121 121 121 121 121 123.1 125.6 126.1 125.2 125.8 127.1 127.3 127.9 128 128 128.2 128.4 128.6 128.9 129.2 128.1 127.5 127 125.5 122.7 121 121 121 121 121 121 121 121 121 121 121 121 121 121 121 121 121 121 121 121 121 121 121 121 121 121 121 121 121 121 121 122.3 123.8 125.1 125.9 126.8 128 128.9 129.9 131.4 133.4 134.7 136 137.5 138.8 139.9 140.2 140.9 141.8 142.6 143.4 144.2 145.1 145.9 146.7 147.7 148.9 150.1 151.3 152.1 154.4 156.8 159.9 163.3 167.4 169 170.2 171.4 172.9 175.1 177.4 179.5 183 185.8 187.1 189.7 192.5 198 204.5 212.6 221.4 226.8 233.4 243 250.7 258.1 263 260.4 258.3 258.9 259.6 260 259.2 256.1 252.1
204.3 196.2 188.9 184.4 180.4 176.6 168.5 164.2 165.5 164.8 163.7 163.9 166.1 168.5 171.1 173.7 179.7 186.4 193.7 205.8 208.1 206.3 195.6 187.8 180 172 163.6 156.7 150.7 146.1 143.6 142.4 141.7 141.9 142.4 142.7 142.6 142.5 142.7 144.2 146.5 149.1 151.8 154.4 156.4 158.4 161.8 165.8 169.3 172.9 176.2 179.9 183.4 191.9 201.4 205.6 203 191.8 177.1 164.8 150.9 142.2 137.1 134 130.5 125.6 121 121 121 121 121 121 121 121 121 121 121 121 121 121 121 121 121 121 121 121 123.4 122.6 123.9 125.1 126.2 125.7 126.5 126.9 126.8 126.7 126.8 127 127.3 127.5 125 123.4 121 121.8 121 121 121 121 121 121 121 121 121 121 121 121 121 121 121 121 121 121 121 121 121 121 121 121 121 121 121 121 121 121 121 121 122.2 124.2 125.8 126.5 126.7 127.6 128.5 129.5 131.4 132.9 134.5 135.8 137.2 138.4 139.5 140 140.5 141.3 142.2 143 143.8 144.6 145.4 146.2 147.3 148.4 149.6 151.5 152.8 155 157.2 160.3 164.8 169 170.5 172 173.5 174.3 176.6 179.5 181.6 184.9 188 188.7 189.6 192.2 197.5 204.1 210.1 217.9 223.7 227.8 233.7 240.8 246.4 250.2 252.8 255.5 256.9 257.6 258.3 258 254 249
214.9 206.6 200.2 194.2 190.7 184.2 175.4 169.2 170.5 169.8 166.7 166.9 169 171.2 173.8 177.6 183.7 190.8 198 208.9 213 207.6 201.2 194.1 185.9 177.3 168.3 160.9 154.8 150 147.4 145.1 144.4 143.9 144.4 144.6 144.5 144.4 144.7 146.5 148.7 151.8 154.5 157.2 159.2 161.6 164.5 168.1 171.4 174.5 177.7 181.5 184.9 191.7 204.3 212.9 204.3 192.3 178.8 163.1 149.5 142.3 137.7 134.2 132.3 130.8 121 121 121 121 121 121 121 121 121 121 121 121 121 121 121 121 121 121 121 121 121 122 123.2 124.5 124.7 124.2 125.1 125.9 125.7 125.5 125.3 125.4 124.5 122.7 121 121 121 121 121 121 121 121 121 121 121 121 121 121 121 121 121 121 121 121 121 121 121 121 121 121 121 121 121 121 121 121 121 121 121 121 121.9 123.9 125.8 125.9 126.5 127.3 128.1 129.1 130.8 132.3 134 135.6 137 138.2 139.2 139.7 140.2 140.9 141.7 142.5 143.3 144.1 144.9 145.8 146.9 148 149.3 151.5 153.4 156 158.3 161.5 165.9 170.6 172.6 174.1 175.1 175.4 177.8 181.1 182 184.6 187.1 188.9 189.6 191.8 196.4 201.8 207.3 214.8 219.4 225.5 230.9 235.4 239.6 243.9 248.1 251.1 254.6 255.7 256.4 255.9 251.1 246.6
224.9 217.6 210.6 206.4 201.9 193.3 182.3 174.8 174.5 172.9 170.4 169.9 172 174.1 176.5 181.5 186.5 194 201.8 209.2 213.9 210.4 206.3 200.9 193.2 183.7 173.9 165.6 159.6 155.1 151.4 149.1 147 146.3 146.4 146.5 146.4 146.3 147 149.1 151.2 153.8 156.9 159.7 161.7 163.7 166.6 170 172.9 176.1 179.2 181.9 184.4 190.1 204.1 214.4 208.5 193.3 178.6 159.9 150.2 142.7 138.8 135.8 133 130.5 127.1 121 121 121 121 121 121 121 121 121 121 121 121 121 121 121 121 121 121 121 121 121 122.8 123.8 123.2 122.8 123.8 124.9 124 123.6 123.2 124.1 122.3 121 121 121 121 121 121 121 121 121 121 121 121 121 121 121 121 121 121 121 121 121 121 121 121 121 121 121 121 121 121 121 121 121 121 121 121 121 121 123.1 125.4 125.3 126.2 127 127.8 128.8 130.2 131.7 133.4 135 136.6 138 138.9 139.5 140 140.5 141.3 142 142.8 143.6 144.4 145.4 146.5 147.5 149.3 151.5 153.9 156.5 159.5 163.4 167.8 172.2 175 175.9 176.2 176.5 180.5 181.9 181 183.1 185.8 187.5 188.1 190.7 195.6 200.3 205.1 210 215.4 222.6 227.7 232 236.3 240 243.6 247.7 251.6 252.9 254.1 254.1 248.7 244.8
235.3 228.6 221.4 219.7 215.8 202.4 188.4 179.9 177.2 175.1 173.5 173 175.1 177.2 179.8 184.3 189.3 197.2 204.7 211.8 218 218.1 214.6 208.3 199.6 190.7 180.2 171.1 165.7 160.8 156.1 153.4 150.7 148.9 148.4 148.2 147.8 148.3 150 151.6 153.3 155.7 159 161.9 163.8 165.8 168.8 171.7 174.5 176.7 178.3 180 183.6 189.6 202 210 204.9 190.9 172.9 158.2 148.8 141.9 137.3 134.2 132.5 130.8 127.3 121 121 121 121 121 121 121 121 121 121 121 121 121 121 121 121 121 121 121 121 121 121.8 123.9 122.5 123.7 124.6 124.6 123 124.3 121 121 121 121 121 121 121 121 121 121 121 121 121 121 121 121 121 121 121 121 121 121 121 121 121 121 121 121 121 121 121 121 121 121 121 121 121 121 121 121 121 121.7 124.2 125 125.9 126.7 127.3 128.7 130 132 134 135.2 136.4 137.8 138.5 138.8 139.1 139.9 140.7 141.5 142.3 143.1 144 145.2 146.3 147.3 149.6 151.5 153.7 156.6 161.1 166.1 170.7 175 176.6 177.4 177.2 177.2 177.3 178.8 178.6 181.3 184 185.5 186.8 190.3 193.8 198.4 202.9 207.6 212.9 219.6 224.9 229.4 233.7 237.6 240.7 244.6 248.2 250.5 251.6 251.6 248.1 245.9
244.2 238.1 231.8 232.1 228 210.5 195.6 185.1 181.4 178.9 176.5 176.3 178.3 180.8 183.7 187 192 200.5 208.6 215.6 226.1 232.5 225.2 215.8 205.9 197.7 188.3 178.5 172 166.1 161.9 158.1 154.9 152.2 150.9 150.5 150.1 150.4 152.1 153.7 155.4 157.1 160.8 164 166 167.9 170.6 172.5 174.1 175.5 177 178.6 181.4 187.9 195.9 198.3 194.1 177.6 163.9 155.2 147.1 141.1 138.1 135 133.2 132.4 127.8 121 121 121 121 121 121 121 121 121 121 121 121 121 121 121 121 121 121 121 121 121 122.2 123.1 123.9 124.9 125.6 125.8 123.8 121.4 121 121 121 121 121 121 121 121 121 121 121 121 121 121 121 121 121 121 121 121 121 121 121 121 121 121 121 121 121 121 121 121 121 121 121 121 121 121 121 121 121 121 124.5 125.2 125.7 126.2 127.4 128.7 130.7 132.4 133.4 134.9 136.2 137 137.5 137.9 138.2 139.4 140.2 141 141.8 142.5 143.7 144.9 146.1 147.5 149.9 152.1 154.7 158.4 163.5 168.6 173.4 177.2 178 178.8 178.4 177 177 176.9 177.2 179.5 182 183.3 185.7 188.6 192.1 196.7 201.3 206.1 212.1 217.2 221.7 226.5 231 235.1 238.6 241.3 244.7 247.1 248.6 247.5 247 246.1
253.6 249.1 240.7 239.9 235.9 219.6 203.5 192.1 185.7 183.1 180.2 179.5 181.4 183.8 186.4 189.8 195.4 204.1 212.9 222.1 237.1 242.6 234.1 222.7 212.6 204.3 195.1 185.9 178.6 172.5 168.1 164 160.4 157 155.2 153.7 152.6 152.7 154.2 155.9 157.5 159.2 162.2 164.7 166.7 168.7 170.4 171.4 172 173.4 174.8 175.9 177.4 182.2 185.8 185.3 176.9 167.6 158.4 150.6 143.5 140.2 137 135.2 133.8 131.8 127 121 121 121 121 121 121 121 121 121 121 121 121 121 121 121 121 121 121 121 121 121 121 122.4 123 123.9 125.1 125.9 126.3 121 121 121 121 121 121 121 121 121 121 121 121 121 121 121 121 121 121 121 121 121 121 121 121 121 121 121 121 121 121 121 121 121 121 121 121 121 121 121 121 121 121 121 121 121.5 124.8 126 127.4 129.3 130.5 131.8 132.7 133.7 135.3 135.9 136.5 136.9 137.4 138.8 139.6 140.4 141.3 142.2 143.4 144.6 145.9 147.4 149.8 152.2 155.2 160.1 165.2 171 176.3 179.4 180.3 179.9 178.8 176.9 176.7 176.6 176.1 177.7 179.7 181.8 184.6 187.7 191.7 196 200.1 205.5 210.6 215.1 219.2 224 228 232 236 239.6 241.2 243.1 243.7 243.9 244.4 243.2
266.1 254.8 250.5 249.6 243.5 228.1 212 198.7 190.3 187.4 183.8 182.4 184.3 186 189.2 192.5 199.1 207.8 216.6 227.9 241.7 248.1 248.2 230.6 219.5 211 201.9 193.5 186.8 179.9 174.9 170.3 165.8 162.4 159.1 156.8 155.1 155.2 156.4 158 159.7 161.2 162.4 164.4 166.3 167.4 167.8 168.4 168.9 170.2 170.9 172 173 174.4 175.2 173.7 169 162.8 154.6 148.2 143.9 139.9 136 134.3 132.6 130.4 127.5 121 121 121 121 121 121 121 121 121 121 121 121 121 121 121 121 121 121 121 121 121 121 121 121 121 123.1 123.4 123.4 121 121 121 121 121 121 121 121 121 121 121 121 121 121 121 121 121 121 121 121 121 121 121 121 121 121 121 121 121 121 121 121 121 121 121 121 121 121 121 121 121 121 121 121 121 121.7 126.2 127.5 128.7 130 131 131.9 132.7 134 134.7 135.4 135.9 137.3 138.2 139.1 139.8 140.6 142 143.2 144.5 145.6 147 149.4 152.1 156.1 161.4 166.5 173.6 178.6 181.6 181.7 180.7 178.6 176.9 176.4 175.8 175 175.9 177.5 179.6 182.9 186.2 190.3 194.5 199.3 205.2 208.8 212.9 217.3 222 225.6 229.7 233.9 236.6 237.9 239.7 241 241.8 242.8 243.4
265.7 257.3 260.1 259.4 254.1 238.1 220.2 204.4 196 190.6 187.4 185.3 186.9 188.9 191.3 195.4 202.9 211.4 220.1 231.6 245.3 252.5 250.1 241 226.4 217.5 208.7 201.7 195 187.9 181.7 176.1 170.5 165.8 162.5 159.9 158.1 157.7 158.4 159.7 160.9 162.1 163 163.8 164.2 164.5 164.9 165.3 165.8 166.4 167.1 167.6 168 168.5 169.5 166 162.2 157.4 151.4 146.1 141.5 138 135.8 133.7 132 130.2 128.2 121 121 121 121 121 121 121 121 121 121 121 121 121 121 121 121 121 121 121 121 121 121 121 121 121 123.5 122.3 121 121 121 121 121 121 121 121 121 121 121 121 121 121 121 121 121 121 121 121 121 121 121 121 121 121 121 121 121 121 121 121 121 121 121 121 121 121 121 121 121 121 121 121 121 121 121 125.7 126.9 128.1 129.4 130.2 131.1 131.9 132.8 133.5 134.2 135.2 136.8 137.5 138.3 139 139.8 141.4 143 144.3 145.3 146.6 149.7 153.5 157.3 162.3 168.9 176.1 180.9 183 182.9 181.4 178.7 176.7 175.5 174.4 173.3 172.9 174.2 175.7 179.6 185.5 189.4 193.8 200 204.9 208.1 213.8 218.9 223.6 225.8 228.2 232.3 234.1 236.3 238.7 239.9 241.2 242.6 243.7
266 262.4 267.4 268.4 262.4 247.4 228.3 210.5 200 193.6 190.6 188.3 189.2 191.3 193.3 198.3 205.6 212.6 220.8 233.4 243.6 254.3 253.5 246.3 231.9 223.9 215.6 209.1 202.5 195.7 189.4 182.4 175.5 170 165.9 162.7 160.3 160.4 159.8 160.5 161.8 162.9 163.6 163.3 163.1 163.5 163.9 163.7 163.7 164.4 164.9 165.1 164.9 164.9 163.3 161.4 158.4 153.1 148.5 144.4 141 138.5 136.4 133.1 131.8 130.4 129.3 125.4 121 121 121 121 121 121 121 121 121 121 121 121 121 121 121 121 121 121 121 121 121 121 121 121 123.5 122.6 121 121 121 121 121 121 121 121 121 121 121 121 121 121 121 121 121 121 121 121 121 121 121 121 121 121 121 121 121 121 121 121 121 121 121 121 121 121 121 121 121 121 121 121 121 121 121 124.3 126.3 127.6 128.6 129.5 130.3 131.3 132.3 133 133.8 135.4 136.1 136.7 137.5 138.2 139.3 140.9 142.5 143.8 144.8 146.5 150 153.5 157 163.8 171.8 179.6 183.7 184.9 184.5 182.8 179.7 175.8 174.3 172.8 171.2 170 171.4 174.4 178.4 183.4 188.4 194.1 200.8 205.2 209.6 216.9 221.2 224.5 227.4 229.2 232.3 235.5 236.9 238.9 240.6 241.6 242.5 244
266.5 269.7 276 274.8 267.4 256.1 236.8 218 205.8 197.5 193.9 191.3 191.6 193.6 195.3 201.5 208.2 214.1 220.8 230.9 241.9 251.3 255.9 251.6 241.4 232.5 223.4 216.7 210.1 203.3 195.6 188.5 181.4 174.5 169.8 165.6 162.8 162.2 161.6 161.8 162.6 163.5 163.2 163 162.7 162.5 162.7 162.4 162.1 162.2 162.8 163 162.7 162.3 160 157.8 154.8 151.4 147.7 143.6 139.7 137 134 132.2 131.4 130.8 129.4 127.5 121 121 121 121 121 121 121 121 121 121 121 121 121 121 121 121 121 121 121 121 121 121 121 121 121 121 121 121 121 121 121 121 121 121 121 121 121 121 121 121 121 121 121 121 121 121 121 121 121 121 121 121 121 121 121 121 121 121 121 121 121 121 121 121 121 121 121 121 121 121 121 121 121 121.9 125 127 127.8 128.8 129.8 130.8 131.7 132.6 133.3 134.6 135.3 136 136.7 137.4 138.8 140.4 141.8 142.6 143.8 145.4 149.6 153.1 156.7 164 172.6 182.5 188.2 189.5 188.3 184.8 180.5 175.2 173.2 171.9 169.8 168.9 170.6 174 177.4 182.6 187.3 192 200.1 203.6 210.5 218.2 223.1 225.9 227.8 230.7 236.1 239.4 240.9 241.4 241.8 245.2 248.2 247.4
266.7 272.7 279.2 281.3 275.3 262.2 247.8 226.3 213.2 203.5 196.9 194.2 194 195.4 197.1 202 207.9 213.9 221.3 229.2 238.5 248.5 256.5 254.1 248 240.2 232.4 224.9 218.2 208.7 200.9 193.8 186.4 178.7 174.1 169.6 165.4 164.2 163.4 163.1 163.7 163.3 163 162.7 162.5 162 161.3 160.9 160.6 160.2 160.7 160.9 160.6 159.8 157.5 155 152.8 149.9 146.3 142.6 138.9 135.8 133.7 132.5 131.9 130.9 129 122.1 121 121 121 121 121 121 121 121 121 121 121 121 121 121 121 121 121 121 121 121 121 121 121 121 121 121 121 121 121 121 121 121 121 121 121 121 121 121 121 121 121 121 121 121 121 121 121 121 121 121 121 121 121 121 121 121 121 121 121 121 121 121 121 121 121 121 121 121 121 121 121 121 121 121 125.2 126.4 127.3 128.3 129.3 130.3 131.2 132.1 133.2 133.9 134.6 135.3 135.9 136.7 138.3 139.9 140.7 141.6 142.9 144.6 148.5 152.6 157.4 165 173.4 184.9 192.4 192.6 189.7 186.1 181.3 174.6 172 170.6 167.9 167.6 169.7 173.2 176.6 180.7 186 190.5 197.7 202.4 209.9 217.6 222.4 224.7 227.3 233.4 238.2 241.4 242.8 243.2 243.5 246.9 249.9 248.4
263.6 269.9 277.5 279.5 277.7 267 255.8 236.2 219.9 209.4 199.1 196.4 195.4 196.7 198.5 201.2 207.3 213.4 220.1 226.9 233.7 243.3 250.6 254.7 253.2 247 241.3 233 223.6 214.3 206.2 199 191.2 183.4 178.3 173.4 168.9 167.1 165.9 164.5 163.6 163.2 163 162.5 161.7 160.9 160.2 159.6 159.1 158.7 158.6 158.8 158.1 157.3 155 153.2 151.1 148.4 145.3 142.2 139 135.9 133.6 132.5 131.7 130.8 129 121 121 121 121 121 121 121 121 121 121 121 121 121 121 121 121 121 121 121 121 121 121 121 121 121 121 121 121 121 121 121 121 121 121 121 121 121 121 121 121 121 121 121 121 121 121 121 121 121 121 121 121 121 121 121 121 121 121 121 121 121 121 121 121 121 121 121 121 121 121 121 121 121 121 121 123.9 126.2 126.9 127.8 128.8 129.7 130.7 131.6 132.5 133.1 133.7 134.2 134.8 136.2 137.7 138.8 139.5 140.6 141.9 143.7 147.3 151.6 157.4 164.4 173.9 184.5 192.9 193.3 190 185.2 180.4 173 170.3 168.8 166.5 166.8 169.1 172.3 175.7 179.3 184.2 190.4 195.6 202.1 209.3 216.3 219 222 227.3 234.4 239.6 242.1 244.2 244.5 244.3 245.6 248.3 248
258.2 264.6 271.8 276.3 275.4 269.1 260.9 245.1 228 213.9 202.5 196.7 196.7 198 200 202 206.8 212.5 218.7 224.7 231.4 238.1 245.9 250 251.5 251.8 251.4 241.6 228.6 219.9 211.6 203.9 196.1 188.2 182.1 177.3 172.7 169.8 167.5 165.1 163.7 163 162.2 161.5 160.7 159.9 159.1 158.5 158 157.5 156.9 156.5 155.6 154.8 153.1 151.5 149.5 147.2 144.9 142 139 136.1 134.1 132.7 131.7 130.7 128.4 121 121 121 121 121 121 121 121 121 121 121 121 121 121 121 121 121 121 121 121 121 122 121.7 122.5 123.3 122.9 121.1 121 121 121 121 121 121 121 121 121 121 121 121 121 121 121 121 121 121 121 121 121 121 121 121 121 121 121 121 121 121 121 121 121 121 121 121 121 121 121 121 121 121 121 121 121 121 121 121 124 126.1 126.7 127.3 128.3 129.1 129.9 130.6 131.2 131.7 132.3 133 134 135.7 137.2 137.8 138.4 139.6 141 142.9 146.1 151.1 157.1 163.3 171.9 183.7 191.3 192.7 189.3 184.1 176.2 171 168.5 167.3 165.9 165.8 168.4 171.4 174.8 178.2 182.8 189.4 194.6 200.7 208.6 213.1 217.1 221.5 226.3 236 241.8 244.5 245.1 245.2 245 244.9 246.6 246.8
252.9 259.5 267.3 274.1 274.2 269 265.8 252.6 233.5 216.1 203.6 197.8 196.5 198 199.4 201.6 205.6 211 216.2 222.2 227.6 233.1 239.9 243.9 247.3 256 257.5 253.9 236.6 226.2 217.9 208.8 200.9 193.4 186 180.3 175.6 171.2 168.3 165.8 164 162.6 161.5 160.4 159.7 158.9 158.1 157.4 156.8 156.3 155.6 154.7 153.8 153 151.5 149.8 148 146.1 143.9 141.5 138.6 136.1 134.7 132.9 131.9 130.9 128.5 121 121 121 121 121 121 121 121 121 121 121 121 121 121 121 121 121 121 121 121 121 123.9 124.4 125.9 126.1 125.2 124 121 121 121 121 121 121 121 121 121 121 121 121 121 121 121 121 121 121 121 121 121 121 121 121 121 121 121 121 121 121 121 121 121 121 121 121 121 121 121 121 121 121 121 121 121 121 121 121 125.2 125.7 126.2 126.8 126.8 127.6 128.4 129.1 129.7 130.3 131.1 131.9 133.6 135.2 136.3 136.8 137.7 138.9 140.2 142.4 145.8 151 156.7 162.9 170.7 179.6 187 187.6 186.1 179.3 172 168.3 166.6 165.1 163.8 165.4 168 170.7 173.4 177.3 182.5 188.2 194.1 199.4 206.5 210.2 214.8 221.2 226.8 235.8 243.8 246.5 246.2 245.9 245.5 245.1 244.8 244.4
246.3 254.1 263.4 269.7 272.3 269.2 266.2 256.5 235.5 215.2 203.7 199 196.1 197.4 198.7 200.8 203.9 209.3 214.5 218.7 223.8 228.3 233.8 237.9 243.5 251.8 256.6 252.8 241.8 234.5 224 213.8 205.9 198.4 191.1 184.1 178.2 173.7 170.3 167 164.1 162.7 161.6 160.4 159.3 158.2 157.1 156.3 155.7 155 154 153.1 152.2 151.3 149.8 148.1 146.3 144.5 142.4 140.4 138.2 135.7 134.6 133.3 132.1 130.4 128.1 122.4 121 121 121 121 121 121 121 121 121 121 121 121 121 121 121 121 121 121 121 123.9 125.9 126.8 126.7 127.1 127.1 125.7 124.3 121 121 121 121 121 121 121 121 121 121 121 121 121 121 121 121 121 121 121 121 121 121 121 121 121 121 121 121 121 121 121 121 121 121 121 121 121 121 121 121 121 121 121 121 121 121 121 123.1 124.9 125.5 126.2 126.2 126.1 126.9 127.6 128.5 129.2 130 131.2 133.1 134.7 135.3 136.2 137.2 138.1 139.5 141.9 145.6 150.9 156.3 162.4 168.7 176.5 181.2 181.5 181 175.6 169.2 166.8 165.1 163 163.8 165.7 168.1 170.9 173.6 176.4 181.6 187.1 193 198.2 203.4 208.5 214.8 218.3 226.1 233.2 241.7 246.3 245.9 245.4 245.3 245.1 244.8 243.8
239.8 248.4 257.8 264.5 268.3 267 264 255 236.8 219.5 204.9 199.1 196.1 196.4 197.7 199.4 202.2 207.4 212.7 216.2 219.6 222.8 227.4 232.8 237.3 242.8 251.3 247 244.4 238.3 229.8 218.8 210.9 203.6 196.4 189.5 182.3 176.6 171.9 168.4 164.9 162.5 161.3 160.2 159.1 158 156.8 155.7 154.5 153.4 152.4 151.5 150.5 149.7 148.1 146.4 144.5 142.7 140.8 138.8 136.8 135.1 134 133 132 130.3 127.7 122.3 121 121 121 121 121 121 121 121 121 121 121 121 121 121 121 121 121 121 121.4 127.1 127.9 128.6 128 128.4 129.1 127.8 125.2 121 121 121 121 121 121 121 121 121 121 121 121 121 121 121 121 121 121 121 121 121 121 121 121 121 121 121 121 121 121 121 121 121 121 121 121 121 121 121 121 121 121 121 121 121 121 121 123.7 124.5 124.9 125.5 125.5 125.4 125.5 126.6 127.7 128.1 128.9 130.8 132.6 133.8 134.7 135.7 136.6 137.4 138.9 141.5 145.3 150.7 156 161.9 166.2 172.9 173.8 172.1 171.3 168.2 166.4 165.1 163.6 161.2 164.6 165.5 168.1 170.9 173.8 176.7 179.4 186 191.9 196.2 202.6 209 214.2 220.3 227.5 234.5 240.3 244 245.8 245.4 245.2 245.1 244.8 243.3
233.4 242.8 252.1 258.6 262.1 262.1 254.9 247 234.9 220.6 207.4 199.9 196.2 194.7 196 197.8 200.2 204.3 208.5 212.6 215.8 219.1 221.6 226 230.6 234 238.7 239.7 240.4 237.8 230.3 224.4 216.8 209 200.8 193.3 184.6 179.4 173.9 169.4 165.4 162.1 160.7 159.4 158.3 157.1 156 154.8 153.4 152 150.9 149.9 148.9 148 146.4 144.6 142.8 141 139.1 137.2 135.1 133.9 132.9 131.9 131.3 126.6 124.1 122.6 121 121 121 121 121 121 121 121 121 121 121 121 121 121 121 121 121 121 126.7 128.9 129.9 129.4 129.1 130.5 131.1 129.3 126 122.1 121 121 121 121 121 121 121 121 121 121 121 121 121 121 121 121 121 121 121 121 121 121 121 121 121 121 121 121 121 121 121 121 121 121 121 121 121 121 121 121 121 121 121 121 121 121 123.7 124.1 124.7 125 124.9 124.4 124.5 124.8 126.4 127.5 128 130.4 132 133.2 134.2 135.2 136.1 136.7 138.5 141.1 145 150.4 155.1 158.9 162.7 165.4 166.7 167.3 167.8 165.9 164.3 163.1 161.9 160.8 163.9 165.4 168.1 170.9 173.8 176.7 179.1 183.5 190 194.8 201.2 208.6 213.3 218.9 227.9 235.6 241.1 244.7 246.8 246.2 245.6 245 244.8 243.1
226.3 236.6 246.4 252.6 257.1 261 255.7 245.1 236.7 223.5 209.5 201.2 196.5 194.1 194.4 196.2 198.4 201.3 205.2 208.9 212.4 215.5 217.3 219.7 223.2 226.7 229.8 231.2 231.8 230.9 227.3 227 224 214.7 203.5 195.1 187.3 181.3 175.8 170.6 166 162 160.4 159 157.6 156.3 155.1 153.8 152.3 150.8 149.6 148.5 147.4 146.4 144.7 142.8 141 139.2 137.4 135.6 133.6 132.7 131.7 130.4 128.2 124.8 123.5 122.7 122 121 121 121 121 121 121 121 121 121 121 121 121 121 121 121 121 123.6 128.8 130.5 130.9 130.7 130.9 130.7 131.6 130.6 128 125.2 121 121 121 121 121 121 121 121 121 121 121 121 121 121 121 121 121 121 121 121 121 121 121 121 121 121 121 121 121 121 121 121 121 121 121 121 121 121 121 121 121 121 121 121 121 121.3 123.7 124.1 124.5 123.7 121.6 121 121 121 121.8 124.6 125.9 128.3 130.6 131.3 133 134.7 135.5 136.2 138.2 140.8 144.3 148.5 153 157.1 160.1 161.9 163.6 164.2 164.1 163.6 162.3 161.2 160.1 160.1 163.2 165.2 168.1 170.9 173.2 175.5 177.8 182.9 188.5 194.1 199.6 207.5 214.1 220.2 227.7 235.6 241.4 245.5 247.8 247.2 246.7 246.2 245.7 245
221 231.2 240.8 248.1 253 257.5 256.8 250.1 242.1 228.1 211.9 202.1 196.8 193.9 193.6 194.6 196.6 198.9 202.4 205.7 209.1 211.1 212.7 214.3 216.2 219.4 222.8 224.4 225.3 225.2 222.4 221 220.2 213.2 203.1 196.4 189.8 183.6 177.2 171.8 166.9 162.5 160.1 158.7 157.2 155.7 154 152.7 151.3 149.7 148.3 147.2 146.1 144.9 143.3 141.4 139.6 137.7 135.8 133.9 132.5 131.5 130.6 128.4 126.3 122.9 121.8 121 121 121 121 121 121 121 121 121 121 121 121 121 121 121 121 121 122.8 126.7 130 130.6 132.4 133 132.8 132.1 131.6 131.1 128.6 127 123.9 121 121 121 121 121 121 121 121 121 121 121 121 121 121 121.1 121.4 122.4 121.6 121 121 121 121 121 121 121 121 121 121 121 121 121 121 121 121 121 121 121 121 121 121 121 121 121 121 121.7 124.6 124.1 124.1 121 121 121 121 121 121 121.5 123.6 126 128.4 129.6 131 132.8 134 135.1 137.8 140.6 144.2 147.4 151.2 155.2 157.8 159.9 161.2 161.8 161.8 161.7 161.1 160 158.8 159.5 162.4 165 167.1 169.2 171.4 173.5 176.2 181.2 187 192.8 199.4 208.5 214.8 220.9 227.2 232.9 239.9 244.7 247.2 247.5 247.8 247.7 247.2 246.5
215.8 225.5 235 243.1 249.2 254.2 258.7 256 244.5 231.3 213 204.5 196.9 193.4 192 193.2 195.2 197.2 199.6 202.8 205.2 206.6 208 209.7 211.3 213.1 216 217.6 218.6 219.2 217.2 215.9 214.4 209.3 201.4 195.4 190.9 185.1 178.7 173.2 167.8 163.4 159.9 158.3 156.7 155.2 153.7 151.6 150.2 148.6 147 145.9 144.7 143.3 142 140.3 138.4 136.5 134.6 133 131.5 130.4 128.9 127.1 124 121 121 121 121 121 121 121 121 121 121 121 121 121 121 121 121 121.1 122.8 123.4 125 129.3 130.7 131.8 133.6 134.3 134.2 133.5 132.9 131.8 130.3 128.4 126.3 124 122.6 121 121 121 121 121 121 121 121 121 121 122 124.8 127.7 127.6 127.9 126.5 123.9 121 121 121 121 121 121 121 121 121 121 121 121 121 121 121 121 121 121 121 121 121 121 121 121 121 122.1 123.7 121 121 121 121 121 121 121 121 121 121 123.6 125.9 128.6 130 131.1 132.5 134.3 137.2 140 143.2 146.4 149.4 152.9 155.5 157.5 158.4 159.1 159.7 159.7 159.4 158.7 157.9 158.8 161.3 163.2 165 166.7 168.9 171.5 175 180.4 186.4 192.5 200.3 208.7 214.3 220.3 226.4 231.7 237.4 242.8 245.8 246.1 246.4 246.9 247.9 248.2
209 219.3 228.8 237.3 245.9 253.9 258.1 254.1 244 232.4 216 205.3 198.3 194 191.4 191.8 193.8 195.7 197.3 200.2 201.6 203 204.3 205.7 207 208.3 209.3 210.9 211.8 212.7 212.1 210.8 209.5 204.9 199.2 194.9 190.8 186.2 180.2 174.7 169.1 163.7 160.2 158.7 157.2 155.5 153.5 150.9 149.1 147.5 146 144.6 143.3 141.8 140.5 139.1 137.2 135.3 133.7 132.3 130.9 129.3 127.4 125.6 121 121 121 121 121 121 121 121 121 121 121 121 121 121 121 121 121 121 123.2 124.7 125 129.9 132.4 134.4 134.8 134.9 134.9 134.8 133.9 132.5 131 129.5 128.1 126.8 125.2 123.8 123.3 122 122.3 121.1 121.5 121.2 122.5 124.2 126 128.2 129.4 130.4 129.9 130.1 129.7 128.1 126 123.1 121 121 121 121 121 121 121 121 121 121 121 121 121 121 121 121 121 121 121 121 121 121 121 121.7 121 121 121 121 121 121 121 121 121 121 121 121 123.2 126.6 127.8 129.6 131.6 133.6 136.3 138.9 142.1 144.9 147.5 150.2 152.8 155 155.6 156.3 156.9 157.6 157.4 157.1 157.2 157.6 159.6 161.5 163.4 164.9 166.9 170.1 175.2 180.6 186.2 192.6 199.6 208.7 213.5 218.7 225.2 230.7 236.1 241.1 244.9 245.9 246.9 247.9 248.8 249.4
204.4 212.4 221.7 230.4 240 249.4 254 250.6 242.6 232.4 218.2 207.8 201.3 195.5 191.1 189.7 191.5 193.3 195.1 196.7 198 199.4 200.7 202 203.2 204.3 204.9 206 207.3 208.2 208 207.1 205.1 201.7 198.2 195.1 191.4 186.7 181.3 175 168.9 163.3 160.8 159.2 157.6 155.6 153.2 150.6 148.3 146.8 145.2 144.3 143 141.2 139.2 137.7 136.1 134.4 133 131.6 130.2 128.5 126.6 123.9 121 121 121 121 121 121 121 121 121 121 121 121 121 121 121 121 121 122.2 125.3 126.1 126.2 129.2 133.9 135.5 137.3 137.5 137.6 137.5 135.9 134.4 132.8 131.4 129.9 128.9 127.8 126.4 126.3 126 126.3 126 125.2 124.7 125.3 127.1 128.9 130.9 132.1 133.1 132.2 132.1 132 130.5 128.8 126.9 125 123.3 121 121 121 121 121 121 121 121 121 121 121 121 121 121 121 121 121 121 121 121 121 121 121 121 121 121 121 121 121 121 121 121 121 121 121 124 126.2 128.6 130.6 133 135.4 137.7 140.4 143 145.7 148.3 150.4 152.7 153.9 154.4 155 155.6 156 155.9 156.4 156.8 158 159.8 161.7 163.9 166.6 169.5 174.2 179.8 184.9 191.7 198.7 206.7 212.4 218 224.1 229.5 234.9 240.3 244.6 246.9 247.9 248.9 249.6 250.3
199.6 205.2 213.7 223.4 232.3 241.2 246.7 249.5 242.4 231.8 219.2 209.4 200.9 194.4 191.2 189.3 191.1 192.9 194.1 193.9 194.4 195.7 196.8 198 199.2 200.4 201.4 202.5 203.8 203.6 203.6 203.4 203 200 198.6 195.8 191.5 186.8 181.7 175.2 168.7 163.6 161.4 159.8 158.1 155.3 152.9 150.4 147.9 146 144.7 144 142.7 141.1 139.1 137.2 135 133.6 132.3 130.9 129.5 128.5 125.9 121.1 121 121 121 121 121 121 121 121 121 121 121 121 121 121 121 121 121 123.8 127.2 127.4 127.4 132.1 135.3 136.8 138.6 139.9 140.4 139.4 137.9 136.3 134.8 133.2 131.7 130.7 130.5 129.2 128.9 129.6 129.4 128.5 127.7 127.4 127.6 129.8 132 133.2 134.5 135.8 135.5 135.2 134.6 133.3 132 130.7 129.2 128 124.9 121 121 121 121 121 121 121 121 121 121 121 121 121 121 121 121 121 121 121 121 121 121 121 121 121 121 121 121 121 121 121 121 121 121 122.1 125.6 127.6 129.6 131.2 133.7 136.2 138.8 141.4 143.9 146.6 148.8 150.3 152 152.7 153.4 154 154.6 154.6 155.3 155.9 156.7 158.3 162.2 164.4 166.5 169 172.9 178.8 184.7 191.5 198.1 205 211.6 217.2 222.6 228.5 233.9 239.2 244.2 247.1 248.9 249.8 250.4 251.1
194.5 200.2 206.6 215.9 224.3 232 238.8 244.5 242.8 232.4 221.3 210.3 201.9 194.7 191 188.3 190.9 191.9 192.6 192.1 191.7 191.6 192.8 194 195.6 197.2 198.5 199.7 200.5 200.1 200.1 200.2 200.5 198.9 198.3 195.6 192.5 187.4 182.1 175.9 169.3 164.1 162 160.3 158.5 155.6 152.4 150.1 147.7 145.3 144.4 143.7 142.3 141 138.7 136.3 134.1 132.4 131.1 129.8 128.2 127.2 126 121.4 121 121 121 121 121 121 121 121 121 121 121 121 121 121 121 121 121 125.1 125.4 127.3 129.6 134.6 137.8 139.2 140.8 142 142.5 141.4 139.9 138.3 136.8 135.2 133.6 132.4 132.6 132 131.3 131.4 131.9 130.9 130.4 130.6 130.8 133.3 135.3 136.1 137.3 138.4 138.8 138.6 138.3 137.2 136.1 134.9 132.6 131 129.4 126.3 121 121 121 121 121 121 121 121 121 121 121 121 121 121 121 121 121 121 121 121 121 121 121 121 121 121 121 121 121 121 121 121 121 121 123.8 126.4 128.4 130 132.3 134.8 137.4 139.9 142.5 145 147.3 149 150.5 151.8 152.1 152.4 153 153.5 154.1 154.3 155.5 156.8 160.7 163.7 166.5 168.7 172.3 177.3 184.4 191.2 196.7 203.5 210.1 215.9 221 226.9 232.8 238.7 244.4 246.7 248.8 251.5 251.6 251.2
190.3 195.8 200.9 208.2 216.7 223.6 228.8 234.8 237.6 230.7 220.3 210.8 202.7 195.1 191.4 187.3 189.6 190.5 190.7 190.3 190 189.5 189.6 191.4 193.3 194.4 195.7 196.9 197.1 196.7 197.2 197.3 197.5 197.3 197.2 195.4 191.2 186.8 181.9 176.2 169.3 164.4 162.4 160.4 158.4 155.2 152 149.3 147 144.9 144.4 142.9 140.9 139.2 137.5 135.4 133.2 131.4 129.9 128.5 126.5 126 124.9 122.7 121 121 121 121 121 121 121 121 121 121 121 121 121 121 121 121 121 123.1 125.1 127.3 133.8 136.6 139.9 141.7 143.1 144 144.3 143.4 141.8 140.3 138.7 137 134.6 133.7 134 134.1 133.7 133.9 134.1 134.4 133.8 133.7 134.4 136.5 138.5 140.5 140.2 141 142 142.2 141.5 140.3 139.2 138 136.6 134.7 132.4 129.5 126.1 121 121 121 121 121 121 121 121 121 121 121 121 121 121 121 121 121 121 121 121 121 121 121 121 121 121 121 121 121 121 121 121 121 121.1 124.6 127 129 130.8 133.4 135.9 138.5 141 143.4 145.6 147.3 148.7 149.9 150.5 150.9 151.4 151.2 151.9 153.4 154.3 155.5 158.6 161.6 164.6 167.6 171.4 177.2 183.5 190 195.2 201.7 208.4 214.6 219.4 225.3 231.2 237.1 242.9 245.5 248.6 251.6 250.8 250
185.7 189.8 193.8 200.8 209.3 217.5 222.5 226.5 228.4 225.1 219.7 211.5 203.5 195.6 191.1 187.1 188.8 189.2 188.8 188.3 187.7 187.1 187.4 189.1 190.6 191.6 192.9 194 193.6 194.2 194.3 194.5 194.4 193.9 193.6 193.3 189.2 185 180.7 175.2 168.9 164.3 161.8 159.6 156.9 154.3 151.6 148.8 146.1 144.6 143.2 141.7 140.2 138.2 136.2 134.2 132.3 130.5 128.8 127.4 126.2 125.4 124.6 123.9 121 121 121 121 121 121 121 121 121 121 121 121 121 121 121 121 122 124.7 126.1 130.9 134 138 141.4 142.5 144.6 145.9 146.2 145.3 143.8 142.2 140.4 137.9 136.2 135.3 135.3 136.2 136.1 136.4 136.6 137 137.6 137.2 137.8 139.7 141.7 143.7 145.5 146.5 146.8 145.5 144.3 143.1 141.9 140.7 139.3 137.9 136.1 132.3 129.4 124.3 121 121 121 121 121 121 121 121 121 121 121 121 121 121.4 122.2 121 121 121 121 121 121 121 121 121 121 121 121 121 121 121 121 121 121 123.3 125.6 127.7 129.5 131.9 134.5 136.9 139.3 141.7 144 145.8 146.6 147.7 148.4 149.1 149.6 150 151.3 152.6 153.1 154.1 156.6 159.6 162.6 165.8 170.2 175.1 182.3 187.8 194.4 199.9 206.6 212.9 217.7 223.6 229.6 235.5 241.1 243.5 246.3 250.5 249.7 247.5
180.8 184.3 188.2 194 202.1 210.5 216.3 221.3 223.4 224.2 220.8 212 203.6 196.4 191.3 187.6 187.4 188.3 187 185.9 185.3 184.8 185.4 186.8 187.8 188.8 190.1 190.6 190.7 191.3 191.5 191.5 191.2 190.6 190 189.9 185.9 182.1 178.7 174.3 168.5 164.2 161.6 158.7 156.1 153.4 151 148.2 145.7 143.4 141.9 140.5 139 137.5 135.6 133.5 131.6 129.7 127.9 126.3 125.1 124.4 123.6 122.2 121 121 121 121 121 121 121 121 121 121 121 121 121 121 121 121 123.2 125.1 127.1 133.7 136.3 138.4 141.4 143.2 145.7 147.9 148 147.2 145.7 143.9 141.3 138.7 137.8 136.9 137.1 138.4 138.6 138.9 139.1 139.6 140.2 141.2 142.2 144.2 146.7 148.5 149.9 151.3 151.4 149.8 148.5 147.2 146 144.5 142.8 141.1 139.4 136.1 131.7 126 121 121 121 121 121 121 121 121 121 121 121 121 121 123.3 123 122.9 121 121 121 121 121 121 121 121 121 121 121 121 121 121 121 121 121 121 123 125.6 128.2 130.5 132.8 135.1 137.3 139.3 141.8 143.9 144.6 145.6 146.3 146.9 146.8 148.4 149.7 150.9 151.7 152.8 154.5 157.5 160.6 164 168.4 173.5 179.9 186.4 192.2 197.6 203.4 210 215.2 221.4 227.3 233.1 238.2 242.1 244.8 247 246.8 245.1
175.8 179.3 183 188.4 194.9 202.8 209.9 215 217.4 219.5 219.1 208.3 201.9 196 191.9 190.1 188.2 187 185.5 184.3 183.3 182.7 183.3 184.1 185 186 187.3 187.2 188.3 188.5 188.5 188.3 187.9 187.3 186.7 186.2 182.9 179.8 176.5 172.3 167.9 164 161 158.1 155.2 152.6 150.2 147.6 145.2 142.8 140.7 139.2 137.7 136.2 134.7 132.9 130.9 129 127.1 125.6 124.5 123.6 123.1 121.3 121 121 121 121 121 121 121 121 121 121 121 121 121 121 121 121 121 125.8 128.5 134.1 137.8 140 140.4 142.5 146.5 149.3 148.7 147.8 147.3 144.7 142.1 140.3 139.5 139.1 139.2 140.5 141.3 141.4 141.7 142.2 142.7 144.8 146.7 148.5 151.4 152.9 154.3 155.7 156 154.4 152.9 151.6 150.2 148.7 147 145.2 143.2 139.3 134.7 129.4 123.4 121 121 121 121 121 121 121 121 121 121 121 122.2 122.9 123 123.4 122.8 121 121 121 121 121 121 121 121 121 121 121 121 121 121 121 121 121 121 122.9 124.7 127.7 130.6 132.9 134.8 136.6 139.6 141.4 142.6 143.4 144.3 145.2 144.5 146.7 147.9 149.2 150.2 151.8 153.7 155.7 158.5 162.2 166.7 171.6 177.9 184.3 189.9 195.2 199.9 206 212.5 219.2 225 230.2 235.2 239.1 242.7 243.8 243.1 242.4
171.2 174.4 178.2 181.9 188 194.6 202.2 208.3 211.2 211.8 211.5 206 199.7 195.4 193.2 191 189.1 188.1 187 185.8 183.6 181.9 182.4 181.3 182.2 183.2 184.1 184.7 185.5 185.6 185.3 185.1 184.6 184 183.4 182.9 181 177.9 174.8 170.6 166.7 163.6 160.5 157.5 154.5 151.8 149.4 147 144.7 142.3 139.9 138 136.5 135 133.5 132 130.2 128.3 126.5 125.3 124.3 123 122.7 121 121 121 121 121 121 121 121 121 121 121 121 121 121 121 121 121 121.5 125 128.9 134.7 138.7 139.3 139 141.2 144.9 146.4 146.3 145.3 145 144.2 142.9 142.1 141.6 141.4 141.8 142.6 144 144.2 144.1 144.4 146.3 148.4 150.1 152.2 155.5 157 158.5 159.3 159.5 159.2 157.3 155.9 154.4 153.1 151 149.3 146.3 141.8 136 131 125.7 121 121 121 121 121 121 121 121 121 121 121 122.2 122.6 122.9 123.1 122.7 121 121 121 121 121 121 121 121 121 121 121 121 121 121 121 121 121 121 121 121 124.4 127.5 130.7 132.6 135.2 137.7 139.4 140.6 141.8 143 143.2 143.4 144.6 146 147.5 149 150.9 152.9 154.8 157.1 160.7 165.4 170.1 175.7 182 187.6 192.8 196.9 202.1 209.1 215.8 221.5 226.7 231.6 236.1 239.7 239.5 238.7 238
168.3 170.3 173.3 177.5 182.1 187.8 194.4 201 204.4 206.5 205.1 202.7 198.2 195.1 193.8 191.6 190 189.1 187.6 186.4 184.6 182.9 180.4 178.3 179.5 180.4 181.2 182.2 182.6 182.4 182.2 181.9 181.3 180.7 180.2 179.7 178.3 176.2 173.3 169.8 166.7 163.5 160.4 157.2 154.1 151 148.5 146.1 143.9 141.8 139.4 136.9 135.3 133.8 132.3 130.7 129.2 127.8 126 124.9 123.9 122.9 122.2 122.8 122.4 121 121 121 121 121 121 121 121 121 121 121 121 121 121 121 122.6 125.2 129.1 134.1 137.2 136.9 138.3 140.3 142.6 143.1 143 142.8 142.6 142.2 142.4 142.4 142.5 142.8 142.9 143.8 146 146.7 146.5 147.4 149.2 151.2 152.4 155.3 159.2 161 162.4 163.2 162.5 162.1 162.7 161.5 160.2 157.8 155.3 152.9 149.7 144.3 138.3 131.5 127 122.3 121 121 121 121 121 121 121 121 121 121 122.2 122.3 122.6 122.7 122.5 121 121 121 121 121 121 121 121 121 121 121 121 121 121 121 121 121 121 121 121 121 124.3 127.8 129.9 133.8 136.1 137.7 138.7 139.8 140.9 141.7 141.8 143.3 144.9 146.5 148.1 149.8 151.9 154.1 156 159.8 164.6 169.3 173.8 179.7 185 189.7 193.5 198.4 204.5 211.6 217.3 222.3 227.2 231.9 234 234.8 234.7 236.2
167 167.1 169.1 171.7 175.8 181.1 187.1 192.6 198.1 200.7 200.8 199.1 196.7 195.4 194.4 192.2 190.9 189.7 188.2 186.8 185.2 183.4 180.3 176.5 176.8 177.6 178.7 179.6 179.5 179.2 179 178.7 178.1 177.5 177 176.6 175.2 173.6 171.8 169.5 166.6 163.5 160.3 157.1 153 149.8 147.6 145.2 143 140.8 138.7 136.5 134 132.5 131 129.5 128 126.6 125.7 125.4 124.8 123.4 123.8 124.8 123.7 121 121 121 121 121 121 121 121 121 121 121 121 121 121 121 122.7 125.7 128.9 133.1 135.2 136.3 137.7 139.3 141.6 142.1 141.8 141.6 141.5 141.7 141.9 141.9 142.4 143.2 143.8 144.1 147.2 148.5 148.9 150.5 152.4 153.9 156 159.3 162.9 164.7 166.3 167.1 166.1 165.5 165.9 165.1 164.1 161.1 159.3 156.5 153.2 145.9 140.1 134 129 124.8 121 121 121 121 121 121 121 121 121 121 121.5 122.2 122.3 122.3 122.2 121 121 121 121 121 121 121 121 121 121 121 121 121 121 121 121 121 121 121 121 121 121.9 125.1 128.1 132 134.2 135.4 136.3 137.8 139 140.1 140.7 142.6 144.1 145.6 147.2 148.7 151.3 153.6 155.4 158.8 163.6 168.1 172.6 177.6 181.5 185.8 190 194.8 199.9 206.5 212.3 217.6 222.7 226.3 229.8 231.5 233.3 234.8
165.5 165.1 166.4 168.2 171.9 176.6 181.4 187.3 192.1 195.8 196.9 196.3 195.9 195.7 194.7 192.9 191.7 190.3 188.8 187.3 185.8 183.5 180 176.7 174.5 175.4 176.2 176.5 176.3 176 175.8 175.4 174.8 174.4 173.9 173.4 172 170.5 169.4 168.3 165.4 162.2 159 155.2 151.4 148.7 146.5 144.1 141.9 139.8 137.7 135.6 133.4 131.3 129.7 128.5 127.6 126.6 125.7 126 125.3 122.6 124.7 125.4 124.8 121 121 121 121 121 121 121 121 121 121 121 121 121 121 121 121 125.1 129.1 133.1 134.7 135.9 137.3 138.7 140.6 141.1 140.8 140.5 140.6 141.2 141.3 141.9 142.7 143.4 144.1 144.7 147.1 148.2 149 151.6 155 157 160.5 163.6 168.4 168.3 169.7 170.7 169.5 169.2 169.1 168.3 166.6 165.5 163.5 160.6 156.6 149.4 141.7 135.7 130.9 126.7 123 121 121 121.3 121 121 121 121 121 121 121 121 121 121 121 121 121 121 121 121 121 121 121 121 121 121 121 121 121 121 121 121 121 121 121 121 121 124.2 127.1 129.6 131.4 132.5 134 136.1 138.1 138.8 139.7 141.8 143.3 144.9 146.3 147.7 149.7 152.9 154.8 157.8 162.2 166.1 167 174.3 179.4 182.5 186.7 190.9 195.1 201.3 207.2 212.4 218.1 222.3 225.8 229.2 231.2 233.2
163.5 162.7 163.9 166.7 169.4 173.7 177 182.1 186.7 191.3 193.3 194.4 195.3 195.6 195 193.7 192.3 190.8 189.4 187.9 186.4 183.2 180 176.6 172.4 173.3 173.8 173.5 173.1 172.9 172.6 172.1 171.7 171.2 170.8 170.3 169 167.9 166.7 165.5 164 160.7 157 153.4 149.7 147.4 145 142.5 140 138.2 136.3 134.2 132.2 130.6 129.2 128.2 127.4 126.5 125.6 125.9 125.4 123.2 124.4 125.7 125 121 121 121 121 121 121 121 121 121 121 121 121 121 121 121 123.5 128.5 130 132 134.1 135.5 136.9 138.3 139.8 140 139.7 139.4 139.5 140 141 141.7 142.4 143.1 143.7 144.3 146.6 147.9 149.7 151.7 155.1 157.9 161 164.8 168.6 171.3 175 176.5 171.2 174.9 173.9 171.8 170.6 169.5 168.4 164.3 159.2 151.7 143.4 137.7 133.1 127.5 124 121.8 122 121.7 121 121 121 121 121 121 121 121 121 121 121 121 121 121 121 121 121 121 121 121 121 121 121 121 121 121 121 121 121 121 121 121 121 122.8 125.3 127.9 129.9 131.2 132.9 135 137.1 137.7 138.7 141 142.5 143.7 145 146.7 148.4 151.6 154.4 157.1 160.1 164.3 167.5 172.4 176.8 180.3 183.7 186.8 190.9 195.2 200.9 207.7 213.4 218.4 221.8 226 228.7 230.8
159.7 160.2 161.1 164.2 168.1 169.1 172.1 176.1 182.3 187 188.9 191.9 193.3 194.3 194.6 194.5 193 191.5 190 188.6 186.2 182.7 179.5 176.1 173.4 170 171.1 170.7 170.3 170 169.6 169.3 168.9 168.4 168 167.5 166.3 165.1 163.9 162.7 161.4 158.7 155.1 151.4 147.8 145.5 143.3 140.7 138.1 136.4 134.6 133.2 131.7 130.1 128.8 128 127.3 126.6 126 125 124.2 124.4 124.9 125.9 123.5 121 121 121 121 121 121 121 121 121 121 121 121 121 121 121 123.9 127.3 128.9 130.8 133.5 135 136.4 137.7 138.7 137.6 137 136.1 136.9 138.8 140.3 141 141.7 142.2 142.7 143.7 146 147.8 149.8 151.9 154.8 157.2 159.3 163.8 167.4 170 172.3 170.3 171.4 173.1 175.1 175.8 174.5 172.6 170.4 165.5 160.5 153.4 144.6 139.1 133.1 127.1 124 122.9 122.5 121 121 121 121 121 121 121 121 121 121 121 121 121 121 121 121 121 121 121 121 121 121 121 121 121 121 121 121 121 121 121 121 121 121 121.5 124.2 126.8 128.9 129.9 131.8 133.9 135.9 137.3 138.3 140 141.2 142.4 144 145.7 147.3 150.7 153.4 156.2 158.9 162.1 167 170.4 172.8 176.5 180 182.9 186.8 190.9 195.8 202.1 208.6 214 218.9 222.8 226.2 228.3
158.2 158.3 158.8 161.4 163.5 166.3 168.4 170.6 176.3 182.7 186 190.4 191.8 193.2 194.1 194.5 193.8 192.3 190.8 188.9 186.2 181.5 178.3 174.4 172.1 169.8 167.9 167.9 167.6 167.2 167 166.8 166.6 166.2 165.7 164.8 163.5 162.3 161.1 159.9 158.5 156 152.8 149.1 145.5 143.2 141.1 138.9 136.3 134.6 133.2 131.9 130.6 129.4 128.9 128.3 127.7 127.1 126.4 125.4 125.5 125.5 125.6 123.7 121 121 121 121 121 121 121 121 121 121 121 121 121 121 121 121 123.5 127.1 128.7 131.6 133.2 134.4 135 135.6 135.6 136 131.6 130.8 135.8 137.8 139.5 140.1 140.6 141.2 141.7 143.2 144.7 146.4 148.5 150.6 152.7 155.1 157.4 161.2 164.3 166 167.2 169 169 168.9 173.1 180 177.4 174.8 172.6 166.3 160.6 152.1 143.9 138.4 131.9 126.1 123 121.3 122.8 121 121 121 121 121 121 121 121 121 121 121 121 121 121 121 121 121 121 121 121 121 121 121 121 121 121 121 121 121 121 121 121 121 121 121 123.1 125.7 127.7 128.6 130.7 132.9 134.8 136.1 137.3 138.6 139.8 141.2 142.7 144.2 146.9 149.1 151.7 154.7 157.8 160.7 165.3 168.1 170.6 173.1 176.1 179.7 182.9 186.8 191.6 197.8 204.5 210 214.8 219.6 222.8 225.9
157.5 157.4 157.7 158 160.2 162.4 164.8 166.8 171.9 176.8 182.3 186.7 188.1 189.8 192.7 194.2 194.8 193.2 191.2 188.9 186.2 180.9 175.8 172.5 170.4 168.4 166.8 164.4 164.8 164.6 164.4 164.2 164 163.8 163.5 162.2 160.9 159.6 158.3 157 155.6 153.1 150.1 146.8 143.2 140.9 138.8 136.7 134.5 133.1 131.8 130.5 129.8 129.4 128.9 128.4 127.9 127.4 126.9 126.4 125.9 124.7 124 122.4 121 121 121 121 121 121 121 121 121 121 121 121 121 121 121 121 123.5 126.4 129.6 132.5 133.7 134.7 134.7 135.1 135.4 135.2 132.5 130.8 135 136.5 137.5 138.8 139.6 140.1 140.8 142.5 143 145 147.1 148.9 150.2 152.4 154.3 156.6 160.2 162.6 164.7 166.4 165.3 165.3 168.4 175.3 171.8 171.6 173.6 163 155.2 149.3 141.6 136.7 129.4 124.7 121 121 122.2 121 121 121 121 121 121 121 121 121 121 121 121 121 121 121 121 121 121 121 121 121 121 121 121 121 121 121 121 121 121 121 121 121 121 121 121 124.2 125.5 127.7 129.8 131.9 133.5 133.7 136.1 137.5 138.8 140 141.2 143 145.8 147.5 150.5 152.7 155.7 158.8 161.7 164.8 167.5 170.1 173.1 176.6 179.8 183.8 187.5 194.1 200.3 206 210.1 214.4 217.8 221.7
158.1 156.7 156.3 156.6 156.9 159 161.6 164.1 168.1 172 176.7 181.5 184.9 186.6 189.6 192.9 193.7 192.6 190 188.6 185.1 179 172.8 170.2 168.1 166.1 164.6 162.5 161.5 162 161.8 161.6 161.3 160.9 159.9 158.6 157.3 156.1 155.4 154.1 152.7 150.2 147.2 144.1 140.9 138.6 136.6 134.8 133.1 131.8 130.5 130.1 129.8 129.4 128.9 128.4 127.8 127.3 126.8 125.7 125.6 124.4 122.7 121 121 121 121 121 121 121 121 121 121 121 121 121 121 121 121 121.4 124.3 127.6 130.5 133.3 134.2 135.1 135.3 135.4 135.2 132.2 130.8 130.8 130.8 134.9 135.6 136 138.3 139.2 139.9 140.8 141.4 143.5 144.8 146.8 148.4 150.3 152.7 154.3 155.3 158.2 160.3 162.4 162.8 162.2 164.8 168.9 165.8 164.4 164.6 158.2 149.8 144.1 138.4 133.6 127.8 123.6 121 121 121 121 121 121 121 121 121 121 121 121 121 121 121 121 121 121 121 121 121 121 121 121 121 121 121 121 121 121 121 121 121 121 121 121 121 121 121 121 124.4 126.9 129.1 130.9 132.6 133.6 135.2 136.4 137.6 138.8 140 141.3 143.9 145.8 149.2 151.2 153.7 157.2 159.5 163.1 166 168.2 172 175 177.5 180.2 184.3 190.4 196.2 201.7 206.6 210.2 214.3 217.6
158.2 156.9 155.6 155.2 155.1 155.9 157.5 160.4 164.4 167.5 171.7 175.8 180 183.5 186.5 187.3 188.9 186.9 185.2 186.3 182.9 176 170.5 167.9 165.8 163.7 162.4 161 157 159.3 158.9 158.3 158.2 157.3 156.1 154.9 153.6 153.2 152.5 151.2 149.8 147.3 144.3 141.4 138.8 137 135.2 133.5 131.8 130.8 130.5 130.1 129.7 129.4 128.9 128.4 127.8 127.3 126.8 125.5 124.6 123.9 122.3 121 121 121 121 121 121 121 121 121 121 121 121 121 121 121 121 121.4 126.9 128.6 131.7 133.5 134.7 135.4 135.7 135.8 134.7 130.8 130.8 130.8 130.8 130.8 131.2 132.9 130.9 137.5 138.7 139.2 139.9 141.1 142.6 144.3 145.8 147.9 150.7 151 152.1 153.6 155.6 156.7 157.5 158.2 160 161.2 161.5 159.2 156.3 151.3 145.3 140 134.8 130.6 125.7 122.2 121 121.6 121 121 121 121 121 121 121 121 121 121 121 121 121 121 121 121 121 121 121 121 121 121 121 121 121 121 121 121 121 121 121 121 121 121 121 121 121 121 122.8 125.5 128 129.6 131.2 132.7 134 135.2 136.5 137.7 138.8 140 142 143.4 146.6 150.2 151.8 154.6 157.4 161 164 167.1 170.2 172.8 175.4 178 181.9 186.4 192.2 197.4 202.6 206.6 210.5 214.2
158.2 156.9 155.6 154.3 153.3 153.9 154.7 157 160.3 163.8 168.2 172.1 175.7 179 180.3 180.6 181.3 180.1 180.6 180.7 176.7 171.8 168.1 165.8 163.6 161.3 160 158.5 156.1 155.9 155.3 155.6 154.8 153.5 152.3 151.3 150.9 150.5 149.9 148.6 147.2 145 142.4 139.8 137.4 135.5 133.8 132.2 130.9 130.6 130.4 130.1 129.7 129.4 128.9 128.4 127.8 127.3 126.7 125.4 125.7 122.2 121 121 121 121 121 121 121 121 121 121 121 121 121 121 121 121 121 122.1 126.3 129.6 132 133.7 135.3 135.7 136.2 136.3 133.6 130.8 130.8 130.8 130.8 130.8 130.8 130.8 130.8 130.8 133.5 134.1 135.2 138.5 139.9 141.1 142.6 144.6 146.6 147.9 149 150.1 151.3 152.4 152.5 152.9 154.1 154.1 154 151.9 149.7 145.7 140.9 136.5 131.8 127.5 123.8 121 121 121 121 121 121 121 121 121 121 121 121 121 121 121 121 121 121 121 121 121 121 121 121 121 121 121 121 121 121 121 121 121 121 121 121 121 121 121 121 121 121 124.4 126.3 128.1 127.5 131.4 132.9 134.1 135.3 136.5 137.6 138.7 140.1 142.2 145.5 148.3 150.4 153.1 155.8 158.3 161.3 164.9 168 170.6 173.2 175.8 179.5 183.9 188.3 193.3 198.5 202.6 206.6 210.7
158.2 156.6 155.3 153.9 152.5 151.3 152 154.2 156.1 159.8 162.8 166.7 171.1 172.8 174.4 174.5 174.6 174.7 175 174 171.2 168.5 165.8 163 160.3 158.8 157.6 155.7 154.9 152.5 152.9 152.2 151 150 149.4 149.2 148.8 148.3 147.8 146.8 145.5 143.4 140.8 138.2 135.9 134.5 132.8 132.4 131 130.6 130.2 130 129.7 129.3 129 128.4 127.9 127.3 126.2 126.3 122.5 122.2 122.1 122.2 121 121 121 121 121 121 121 121 121 121 121 121 121 121 121.5 124.9 126.6 130.3 133.1 134.9 135.9 136.7 137.3 137.2 135.3 130.8 130.8 130.8 130.8 130.8 130.8 130.8 130.8 130.8 130.8 130.8 130.8 132.7 136.4 137.8 139.5 141.5 143.8 144.9 145.7 146.3 146.9 148 148.6 148.8 148.9 148.9 148.4 146.3 143.5 140 136.1 132.9 129.8 126.1 122.1 121 121 121 121 121 121 121 121 121 121 121 121 121 121 121 121 121 121 121 121 121 121 121 121 121 121 121 121 121 121 121 121 121 121 121 121 121 121 121 121 121 121 121.1 124.2 125.9 128.3 129.9 131.6 132.9 134.1 135.2 136.3 137.3 138.6 141.8 144.8 146.3 148.8 151.4 153.9 156.2 159.8 163 165.5 168 170.5 174 176.9 180.8 185.2 189.3 194.3 198.7 202.7 207
158.3 156.5 155 153.6 152.3 150.5 149.5 151.4 152.8 155 159.2 163.1 165.3 166.6 168.2 169.7 169.5 169.3 169.3 169 166.8 164.9 162.3 159.6 157.5 156.3 155.1 154 152.1 149.5 149.8 148.8 147.7 147.4 147.3 147.1 146.7 146.2 145.6 145 143.7 141.8 139.2 136.6 134.6 133.6 133 131.4 131.1 130.7 130.3 129.9 129.6 129.3 129 128.4 127.9 126.8 125.7 125.1 122.2 122.9 123.7 123.5 121.1 121 121 121 121 121 121 121 121 121 121 121 121 121 123.3 127.1 128.4 131.1 134 135.7 136.5 137.7 137.4 136.4 135.3 130.8 130.8 130.8 130.8 130.8 130.8 130.8 130.8 130.8 130.8 130.8 130.8 130.8 130.8 134.2 136.4 138.8 140.9 141.8 141.4 141.1 141.3 143 143.4 144.6 142.4 143.4 144.1 142.2 140.6 137.7 134.4 131.5 128.4 122.6 121 122.2 122.4 121.1 121 121 121 121 121 121 121 121 121 121 121 121 121 121 121 121 121 121 121 121 121 121 121 121 121 121 121 121 121 121 121 121 121 121 121 121 121 121 121 121 121.9 124.4 126.4 128.1 129.9 131.2 132.5 133.4 134.4 135.4 137.1 140 140.9 143.4 147.1 149.4 151.8 154.1 158 160 162.6 165.2 168.7 172.2 175.2 177.9 182.1 186.2 190.4 194.8 199 203.3
158.5 156.7 155.1 153.7 152.4 150.1 147.7 148.7 149.7 151.3 155.2 158.4 160.3 161.8 163.1 163.6 164.1 164.6 164.7 164.9 162.9 161.4 158.9 156.2 155 153.8 152.6 151.5 150.3 148.8 146.5 145.6 145.5 145.3 145.1 145 144.6 144 143.4 142.8 142 140.2 137.6 135.1 133.9 133.1 132.2 131.3 131 130.7 130.4 130 129.6 129.3 128.9 128.4 127.3 126.3 125 123 122.6 123.2 124.2 125.7 121 121 121 121 121 121 121 121 121 121 121 121 121 122.1 124.9 127.4 130 132.2 134.6 137.1 140.2 140.2 137.1 136.3 134.7 130.8 130.8 130.8 130.8 130.8 130.8 130.8 130.8 130.8 130.8 130.8 130.8 130.8 130.8 130.8 133.4 134.7 137 137.8 138.1 138.7 139.1 139.3 139.6 140 140.6 140.4 140.1 139.1 137.9 135.9 133.3 130.3 124.6 122.2 122.9 124.1 123.5 122.9 122.3 121 121 121 121 121 121 121 121 121 121 121 121 121 121 121 121 121 121 121 121 121 121 121 121 121 121 121 121 121 121 121 121 121 121 121 121 121 121 121 121 121.6 123.8 126 127.3 129.6 130.8 131.7 132.7 134.1 135.7 137.8 138.6 140.9 143.8 146.8 149.3 152 155.8 158.6 160.8 163.2 166.9 170.5 173.5 176.1 179.5 183.7 187.7 191.3 195.4 199.7
158.6 157 155.4 154 151.8 149.4 147.2 147 148.1 149.3 152.1 155.2 156.1 157.5 159 159.8 160.4 161 160.8 160 159 158 155.5 153.7 152.5 151.3 150.1 149 147.9 147 145.3 143.5 143.3 143.2 143 142.8 142.4 141.8 141.2 140.7 140.1 138.6 136 134.3 133.5 132.7 132.1 131.3 130.8 130.6 130.3 130 129.6 129.3 128.9 128.2 127.2 126 124.2 122.6 123.7 124.6 124.7 123.5 121 121 121 121 121 121 121 121 121 121 121 121 121 122.6 126.8 129.5 132.7 134.8 137.3 139.1 144.4 145.7 142.5 138.4 137 130.8 130.8 130.8 130.8 130.8 130.8 130.8 130.8 130.8 130.8 130.8 130.8 130.8 130.8 130.8 130.8 130.8 134.6 135.5 136 136.5 136.9 137.6 138.2 138.8 139.6 139.5 138.7 137.2 135.9 132.8 128.3 124.6 123.7 124.3 124.1 125.2 124.5 124.5 123.8 123.1 121.8 122.2 122.2 122.7 123.2 123.7 122.7 122.4 121 121 121 121 121 121 121 121 121 121 121 121 121 121 121 121 121 121 121 121 121 121 121 121 121 121 121 121 121 121 121 121 121 123.5 125.8 127.9 129.1 130.2 131.7 133.1 134.5 135.4 136.8 138.6 141.2 143.9 147.7 151.4 153.5 156.2 159.3 160.7 164.2 168 171.5 174.2 177.2 181.3 185 188.7 191.9 196
158.9 157.3 155.7 153.7 151.2 148.7 146.5 146.1 146.7 147.7 148.9 151.7 153.5 154.4 155.3 156 156.7 157.4 157 156.2 155.4 154.6 152.4 151.2 150 148.9 147.9 146.8 145.7 144.8 144 141.1 141 140.8 140.7 140.7 140.2 139.6 139.1 138.5 137.9 137 134.5 133.9 133.1 132.4 131.8 131.2 130.6 130.4 130.2 130 129.6 129.3 128.8 128.1 127.2 125.2 123.3 122.6 123.5 124.5 124.9 123.3 121 121 121 121 121 121 121 121 121 121 121 121 121 125.1 127.3 130.2 134.3 137.4 139.1 141 144.5 146.5 146.4 145.6 140.3 130.8 130.8 130.8 130.8 130.8 130.8 130.8 130.8 130.8 130.8 130.8 130.8 130.8 130.8 130.8 130.8 130.8 132.7 131.5 135.3 135.7 135.6 136.4 136.8 137.8 138.6 138.6 136.4 133.5 130.3 126.9 127.1 126.5 127.1 126.8 125.7 126.5 126.5 126.5 125.6 124.6 125.7 125.7 124.5 124.5 124.9 128.1 128 124.2 122.3 121 121 121 121 121 121 121 121 121 121 121 121 121 121 121 121 121 121 121 121 121 121 121 121 121 121 121 121 121 121 121 121 121 123.3 125.7 127.4 128.7 129.9 131.2 132.4 133.5 135 136.4 139.1 142.2 144.8 147 151.2 153.7 156.3 158.7 161.5 164.6 168.1 171.4 174.9 178.6 182.3 186 189.6 192.5
159.8 158.7 156 153.6 151.2 147.9 145.2 146.2 146.6 146.7 147.2 148.3 150.9 151.8 152.5 153 153.7 153.8 153.7 153 152.1 151.2 150 148.9 147.8 146.7 145.6 144.5 143.5 142.6 141.8 141.2 138.4 138.5 138.7 139.3 138.7 137.8 137.1 136.3 135.6 134.6 134.1 133.5 132.7 132.1 131.5 130.9 130.3 130.2 130 129.8 129.6 129.1 128.6 127.9 125.4 124.4 123.1 123.5 124.2 125.2 125.6 124.8 122.1 121 121 121 121 121 121 121 121 121 121 121 122 127.3 129.3 132.9 136.4 140.3 141.4 142.5 147.4 148.3 148.2 145.6 137.6 130.8 130.8 130.8 130.8 130.8 130.8 130.8 130.8 130.8 130.8 130.8 130.8 130.8 130.8 130.8 130.8 130.8 130.8 130.8 132 133.8 134.3 137.7 135.1 136.3 137.7 137.9 134.2 131.2 128.9 128.6 128.5 128.5 129.2 129.2 129.2 128.5 127.8 128.4 128.1 127.3 127.6 128.1 127.1 127 128.8 132 131.3 129.4 127.6 127.8 127.3 126.6 121.8 121 121 121 121 121 121 121 121 121 121 121 121 121 121 121 121 121 121 121 121 121 121 121 121 121 121 121 121 121 121 123.3 124.8 126.1 127.3 128.9 129.9 131.5 132.9 135.1 137 138.9 141.1 144.3 147.9 150.8 153.8 157 159.8 162.6 165 168.3 172 175.8 179.3 182.6 186 188.8
161.4 158.6 155.8 153.5 151.1 148.1 144.6 146.2 146 146.3 146.7 147 148.2 149 149.4 150 150.1 150.2 150.2 149.7 149.1 148.6 147.8 146.6 145.5 144.4 143.4 142.3 141.3 140.5 139.9 139.3 138.9 137.1 136.8 137.8 137.7 137.4 136.6 135 134.1 133.5 133.5 133.1 132.4 132 131.6 131.3 131 130.8 130.6 130.5 130.8 129.9 129.4 126.6 123.3 125 125.8 125.2 125.3 125.8 126.2 125.5 122.7 121 121 121 121 121 121 121 121 121.2 121.5 122.1 125.9 128.7 131.7 135.5 140.8 141.9 145.1 146 148 150.4 149.3 143.7 136.9 130.8 130.8 130.8 130.8 130.8 130.8 130.8 130.8 130.8 130.8 130.8 130.8 130.8 130.8 130.8 130.8 130.8 130.8 130.8 130.8 131.2 133.8 133.2 133.3 134.4 135.9 138.6 136 131.7 129.2 132.3 131.6 129.8 131.2 131.4 131.6 130.6 129.9 134.6 134.2 132.1 131.7 132.1 130.8 130.9 132.6 134.4 133.9 132.7 132.4 131.4 130.1 128 125.8 123.2 121 121 121 121 121 121 121 121 121 121 121 121 121 121 121 121 121 121 121 121 121 121 121 121 121 121 121 121 121 121 122.3 123.6 125.4 126.3 127.9 129.5 131.4 133.1 134.5 135.5 138.2 141.8 145.1 148.1 151.1 154.5 158.1 160.7 162.9 165.4 168.2 172.2 175.3 178.4 181.5 185
161.3 158.3 155.7 153.3 150.8 148.3 144.7 144.4 145.5 145.7 145.8 146 146.4 146.4 146.9 147.3 147.3 147.4 147.4 147.2 146.8 146.2 145.4 144.7 143.3 142.2 141.1 140 139.1 138.5 138 137.4 136.7 136.8 136 135.2 135.3 135 134.6 133.5 132.6 132.8 132.7 132.8 132.5 132.2 131.8 131.5 130.9 130.9 130.4 128.8 126.6 125.9 125.3 124.7 127.1 127.1 127.3 127.9 126.2 126 125.5 124 122.1 121 121 121.8 122.2 122.2 122.2 122.3 122.8 123.1 123.7 125.6 127.3 130.9 134.7 138.4 143 144 145.5 146.6 150.4 152.9 150.3 144 137.2 130.8 130.8 130.8 130.8 130.8 130.8 130.8 130.8 130.8 130.8 130.8 130.8 130.8 130.8 130.8 130.8 130.8 130.8 130.8 130.8 130.8 130.8 130.8 132.3 133.1 134.7 136.2 133.9 130 134.1 134.5 132.2 132.9 133.7 133.7 133.4 137.8 139.5 138 138 136.3 136.3 135.9 134.5 134.4 135.4 137.7 137 136.4 135.1 134.3 132.3 130.5 128.4 126.5 124.1 121 121 121 121 121 121 121 121 121 121 121 121 121 121 121 121 121 121 121 121 121 121 121 121 121 121 121 121 121 121 121 122.7 124.2 125.9 127.7 129.1 130.5 131.9 132.9 135.8 138.5 142 145.4 147.8 150.5 154 158.1 160 162.2 165.3 168.7 171.7 174.8 177.5 181.1
161.3 158.2 155.4 152.8 150.3 147.9 145.1 141.7 143 143.7 144.1 144.6 144.9 144.7 144.7 145.1 145.1 145 144.9 144.8 144.5 143.8 143 142.2 141.5 140.1 138.9 137.8 137.1 136.6 136.1 135.5 134.8 134.7 135.1 134.4 134.3 133 132.5 131.9 131.4 132.2 132.1 132.3 132.2 131.9 131.5 131.1 130.1 128.7 125.9 126.3 126.1 126.2 127.2 128.1 129.8 130 130.4 129.4 128.2 127 125.2 123.8 122.8 121.8 121 122.2 122.6 122.7 122.9 123.2 123.8 124.8 125.6 125.1 127.8 132.3 136.4 139.9 143.9 146.2 147.1 148.7 151.3 154 150.5 144.5 138.2 135.2 130.8 130.8 130.8 130.8 130.8 130.8 130.8 130.8 130.8 130.8 130.8 130.8 130.8 130.8 130.8 130.8 130.8 130.8 130.8 130.8 130.8 133 134 132.5 133.3 131.5 131.5 135.8 135.3 134.8 134.6 136.8 136.2 141.2 145.7 147.4 145.7 143.9 141.8 140.9 140.7 139.7 138.2 137.8 139.1 141.6 141.2 138.6 137.8 136.7 134.2 133.5 133 129.8 127.2 123.9 121.9 121 121 121 121 121 121 121 121 121 121 121 121 121 121 121 121 121 121 121 121 121 121 121 121 121 121 121 121 121 121 122.5 124.3 125.4 126.6 128 129.4 131.1 133.5 135.9 139.1 141.3 144.1 148.2 151.7 155 158 159.5 162.8 165.4 168.1 171 173.6 177.2
159.6 157.5 155.3 152.6 149.8 147.4 144.7 142.7 141.3 142.3 142.8 143.3 143.4 143.2 143 142.9 142.7 142.6 142.5 142.3 142.1 141.4 140.6 139.8 139.1 138.3 137.1 136.3 135.6 134.9 134.2 133.8 133.3 133.7 133.5 133.3 132.7 131.7 131.9 131.3 130.1 131.3 131.7 131.9 131.9 131.6 131.1 130.5 129.3 127.1 127 127.5 128.1 129 131.4 132.2 131.8 130.8 130.6 128.2 127.8 127.1 126.1 125 123.8 122.4 121 121.8 122.9 123.5 123.8 124.1 124.6 126.2 126.1 127.2 130.4 134.3 137.4 141.5 144.8 145.7 147.7 149.4 152.3 152.8 149.3 142.6 139.8 136.9 134 130.8 130.8 130.8 130.8 130.8 130.8 130.8 130.8 130.8 130.8 130.8 130.8 130.8 130.8 130.8 130.8 130.8 130.8 130.8 130.8 135 135.5 135.8 133.5 135.8 135.1 135.7 137.2 137.2 137.5 142.2 145.2 149.3 152 152.6 151.1 149.3 148.4 146 144.5 143.4 142.3 142.8 144.1 145.5 145.1 143.2 141.8 140.8 140.6 139.1 136.5 133.2 131.8 128 123.8 121 121 121 121 121 121 121 121 121 121 121 121 121 121 121 121 121 121 121 121 121 121 121 121 121 121 121 121 121 121 121 123.4 124.5 125.4 126.2 127.1 128.6 130.6 132.7 135.6 138 140.9 144.1 148.5 151.9 154.9 156.6 159.7 162.2 164.7 167.1 169.8 174.3
157.7 155.6 153.4 151.3 149.1 147 144.4 142.4 140.2 140.6 141.4 142 141.8 141.6 141.3 141.1 140.9 140.8 140.7 140.5 140.3 139.8 139.3 138.6 137.8 137 135.8 135.8 135.4 134.7 134 132.4 132 132.6 132.7 132.5 132.5 131.1 130.4 129.8 129.6 129.9 129.8 131.1 131.6 131.2 130.7 129.9 127.9 126.9 129.3 129.7 130.2 132.4 132.3 131.3 131.5 130.1 128.9 128.6 128 127.2 126.2 125.6 124.1 122.7 122.4 122.5 123.5 124.6 124.7 125 125.4 126.2 126.9 128.2 132.9 134.8 139 142.2 145.1 146 147.5 149.9 152.2 151.3 146.9 142.6 140.4 138.6 135.8 133 130.8 130.8 130.8 130.8 130.8 130.8 130.8 130.8 130.8 130.8 130.8 130.8 130.8 130.8 130.8 130.8 130.8 130.8 130.8 134.9 136.2 137.2 136.1 137.7 136.5 138.2 139.8 140.1 143.4 150.5 152.4 156.6 159.6 158.6 158.7 157.1 154.7 151.5 149.7 148.1 147.8 147.8 148.5 148.9 148.3 148.4 148 147.4 146 144.2 138.6 138.1 133.9 131.7 128.2 124.7 122.2 121 121 121 121 121 121 121 121 121 121 121 121 121 121 121 121 121 121 121 121 121 121 121 121 121 121 121 121 121 123 124.5 125.3 126.2 126.1 126.6 127.4 129.5 132.9 134.6 137.3 140.3 144.4 148.1 150.4 154 156.8 159.3 162.2 164.7 167.5 171.2
157.1 154.9 152.8 150.6 148.5 146.3 143.4 141.5 139.5 139.5 140.2 140.8 140.3 139.8 139.5 139.2 139.1 139 138.8 138.7 138.5 138 137.5 137.1 136.5 135.8 135.4 135.3 135.3 134.5 133.8 131.7 130.6 131.3 132 131.5 130.3 129.8 131.1 131.5 131.3 129.7 129.6 130.3 131.1 130.9 130.2 128.5 127.3 128.7 130.5 130.9 131.4 133 132.9 131.8 131.2 130 130 128.8 128.3 127.3 126.3 126.4 124.4 123.2 122.2 122.2 123.7 124.7 125.4 126 126.3 126.8 127.4 130.2 134.1 135.8 138.3 143.6 144.6 146.1 147.8 149.6 151 149.7 144.7 142.6 141.4 140.2 137.4 134.6 130.8 130.8 130.8 130.8 130.8 130.8 130.8 130.8 130.8 130.8 130.8 130.8 130.8 130.8 130.8 130.8 130.8 130.8 131 134.1 137.1 136.6 136.3 136.7 139.4 140.7 143.6 146.7 150.4 156.7 159.5 163.4 168.1 166.8 165.8 163.2 160 157.5 155.4 153.9 154.7 152.5 152.4 152.5 153.1 154.3 153.5 151.9 150.8 148.6 146.6 142.9 139.2 135.6 132.1 128.1 124.8 121 121 121 121 121 121 121 121 121 121 121 121 121 121 121 121 121 121 121 121 121 121 121 121 121 121 121 121 121 123.7 124.5 125.3 124.9 125.1 125.1 125.4 126.6 128.8 131 133.7 136.8 140.2 143.2 147.1 149.8 153.1 156.5 159.7 162.1 164.2 167.3
156.7 154.7 152.6 150.4 148.3 145 142.1 140.1 138.1 138.1 139.2 139.5 139.3 138.8 138.2 137.9 137.7 137.6 137.5 137.3 137.2 137 136.5 136 135.6 135.1 134.9 134.9 134.8 134.4 132.4 132.3 129.2 130 130.4 129.6 131.3 132.6 132.4 132.3 132.2 132 130.2 129.2 130.3 130.8 130.3 127.6 128.2 131.1 131.6 133 133 132.6 133.3 132.2 131.2 131.4 131.2 131.5 129.2 127.8 127.4 126.6 125.9 124.1 124 123.4 122 124.2 124.9 125.4 126.5 127 128.2 131.4 133.7 137.4 139.6 143.3 144.2 146.7 147.8 149.5 150.2 147.9 144.4 143.2 142 140.7 138.1 135.4 130.8 130.8 130.8 130.8 130.8 130.8 130.8 130.8 130.8 130.8 130.8 130.8 130.8 130.8 130.8 130.8 130.8 130.8 131.2 134.8 135.4 137.7 139.4 140.9 144.1 146 149.6 151.7 158.6 162.4 165.2 170 174.1 173.8 173.2 169 166.8 163.5 161.3 160.4 159 157.5 157.6 158.2 160.9 162.4 160.5 158 156.4 154.9 153 149 144.4 140.5 135.5 131.5 127.5 124.2 121.1 121 121 121 121 121 121 121 121 121 121 121 121 121 121 121 121 121 121 121 121 121 121 121 121 121 121 121 123.1 124.7 124 123.5 123.4 123.6 123.9 124.3 125.8 128.1 129.8 132.9 135.3 139.6 143 145.7 149.2 152.7 155 159 160.5 164.2
156.2 154.4 152.3 150.2 146.9 143.7 140.9 139.1 137 136.2 138 138.2 138.3 137.8 137.4 137.1 136.9 136.7 136.6 136.5 136.4 136.2 136.1 136 135.5 135 134.7 134.6 134.5 133.1 129.1 129.4 128.7 128.7 128.7 130.7 133.3 133.1 132.9 132.8 132.6 131.4 132.2 131.5 129.6 129.1 128.5 127.5 131.3 132.2 132.8 133.4 133.4 133.4 133.5 132.3 132 132.3 131.6 130.4 129.7 129.2 128.2 127.8 125.6 125 124.6 124.3 122.7 123.9 124.1 125.2 126.2 128.9 129.9 132.1 135.2 137.2 140.1 142.7 145.5 146.4 148.1 149.8 150.4 146.3 145 143.8 142.6 141.3 138.7 137 131.8 130.8 130.8 130.8 130.8 130.8 130.8 130.8 130.8 130.8 130.8 130.8 130.8 130.8 130.8 130.8 130.8 130.8 133.1 137.8 140.6 143 143.4 146.1 149.1 150.5 154.7 159.3 164.2 169.6 172.8 175.7 179.4 179.9 179.9 175.8 173.3 171.2 167.8 164.6 163 162.7 163.2 165.3 166.8 167.7 167.4 165.2 162.8 161 158.6 155.6 150.7 145 139.4 134.5 130.9 127.4 124 121 121 121 121 121 121 121 121 121 121 121 121 121 121 121 121 121 121 121 121 121 121 121 121 121 121 121 123.2 124.2 123.1 121.7 121.8 122 122.3 122.8 124.1 125.1 127.6 128.7 131.4 134.6 138.1 142.3 146.2 148.6 152.2 155.1 157.6 159.9
155.7 154 152.1 148.9 145.7 142.8 140.3 138.7 137.2 135.8 136.9 137.1 137.3 136.9 136.5 136.3 136 135.9 135.8 135.8 135.6 135.3 135.2 135.1 135.1 134.9 134.6 134.3 134.2 131.8 128.7 128.7 128.7 128.7 129.9 133.2 133.7 133.5 133.4 133.2 133.1 132.8 132.8 132.6 131.9 131.4 130.1 131.3 132.7 133.3 133.9 133.9 133.9 134 133.3 132.8 133.7 133.1 131.3 130.6 129.9 129.2 128.2 127.7 125 124.7 123.5 122.6 122.9 124.2 124.3 125.5 127.6 131.7 133.1 132.5 135.4 137.7 140.4 143.5 144.4 148.2 150.4 150.8 150 146.6 145.9 144.7 143.5 141.4 140.9 139.8 135.9 130.8 130.8 130.8 130.8 130.8 130.8 130.8 130.8 130.8 130.8 130.8 130.8 130.8 130.8 130.8 130.8 132.3 135.3 140 142.8 144.6 146.8 149.9 153 156.4 160.2 165.1 170.8 175.6 180.2 183.8 187.5 188.5 186 183.8 180.7 178.3 173 170.6 168.9 169.5 170.2 171.3 172.5 173.3 174 172.9 170.3 166.6 163.5 160.8 155.4 149.2 143.9 139.6 135 130.3 127.4 121.5 121 121 121 121 121 121 121 121 121 121 121 121 121 121 121 121 121 121 121 121 121 121 121 121 121 121 122.7 122.5 120.6 120.2 120.2 120.5 120.8 121.3 123 123.6 124.4 125.8 128 130.9 135.2 139.9 142.4 144.8 148.6 152.3 153.8 156.6
155.7 154 152.1 148.7 145.6 142.6 140.3 139.1 137.9 136.8 135 135.6 136.1 136.1 135.7 135.4 135.2 135 134.9 135 134.8 134.4 134.3 134.2 134.1 134 133.1 132.9 132.6 128.7 128.7 128.7 128.7 128.7 130.5 133.1 134.2 133.9 133.8 133.7 133.6 133.4 133.7 133.6 133.9 134 134 134.2 134.3 134.4 134.4 134.5 134.5 134.6 133.6 133.3 134 133 132 130.9 130.1 129.1 127.7 126.3 126 123.8 123 125.9 126.2 125.7 125 127.4 129.3 130.9 133 133.6 135.7 138.6 141.4 143.8 148.1 150.5 152.4 151 148.3 147.5 146.6 145.7 143.1 140.3 139.5 139.2 135.7 132.3 130.8 130.8 130.8 130.8 130.8 130.8 130.8 130.8 130.8 130.8 130.8 130.8 130.8 130.8 130.8 134.2 138.1 141.3 143.9 147 149.4 152 156.3 160.1 164.6 170.9 176.5 182.7 188 192.3 196.4 195.6 192.2 190.5 187.1 184.1 180.3 177.3 175.8 176.4 177.2 178.9 180.6 182.1 184.2 182.2 177.1 172.5 168.7 166.2 161.2 154.7 149 144.5 139.4 134.4 129.5 125 121 121 121 121 121 121 121 121 121 121 121 121 121 121 121 121 121 121 121 121 121 121 121 121 121 121 122.6 121.4 120.7 120.9 120.2 119.8 120 119.6 119.9 121.8 122.3 123.5 125.2 127.8 132 135.7 138.1 140.9 144.2 146.7 150.2 153.4
155.4 154 152.2 148.8 145.5 142.5 140.1 139 138 136.6 134.7 134.5 134.9 135.2 134.9 134.6 134.4 134.2 134.2 134.3 134.1 133.7 133.3 133.2 133.1 130 128.7 128.7 128.7 128.7 128.7 128.7 128.7 128.7 128.7 132.4 134.2 134.4 134.2 134.2 134.3 134.5 134.5 134.3 134.7 135.1 135.1 135.2 135.1 135.1 135 135 135.1 134.6 134.3 134 134.3 133.9 133.4 131.7 131.2 128.5 127.3 126.1 125.8 123.1 124.7 126.1 127.8 125.5 125.2 127.8 130 131.8 133.4 135.3 137 140 142.6 144.7 148 151.2 151.8 150.5 149.4 148.5 147.6 145.8 141.8 139.3 137.8 136.4 134.4 131.8 130.8 130.8 130.8 130.8 130.8 130.8 130.8 130.8 130.8 130.8 130.8 130.8 130.8 130.8 131.9 135.1 139.2 143.1 145.4 149.2 151.8 155 159.2 163.7 168.3 176.9 184.9 190.6 196.2 200.5 202.6 202.6 199.5 197 192.3 190.4 187.4 183.9 182.9 183.1 185.2 187.1 188.8 191.2 193.4 191.7 187.3 180.3 174.6 171 166.9 161.1 156.5 149.1 144.2 140 134 129 125.4 122.2 121 121 121 121 121 121 121 121 121 121 121 121 121 121 121 121 121 121 121 121 121 121 121 121 122.5 120.6 123 124.2 124.3 121.9 121.2 122.5 121.5 119.9 120.1 121.7 123.1 125.3 129 131.6 135.3 138.1 140.9 143 146.5 148
155.1 153.8 153 149.8 146.4 142.2 140.1 139.1 137.7 136.4 134.9 132.9 133.3 133.7 134 133.8 133.6 133.3 133.5 133.6 133 131.5 130.1 128.7 129.9 128.7 128.7 128.7 128.7 128.7 128.7 128.7 128.7 128.7 128.7 131.3 134.6 134.8 135.1 135.3 135.4 135.4 135.2 135 135.4 135.8 135.9 135.8 135.7 135.7 135.7 135.6 135.6 135.3 135 134.7 134.5 134.6 134 132.4 130.5 128.9 127.7 126.1 125.3 124.4 125.9 128.2 127.4 125.4 126.6 127.3 129.3 131.6 133.6 134.9 138.4 141.1 143.5 145.7 147.5 148.5 150.1 149.4 150.4 149.5 148.6 147.5 146.5 144.2 145.2 142.7 136.8 134.2 130.8 130.8 130.8 130.8 130.8 130.8 130.8 130.8 130.8 130.8 130.8 130.8 130.8 130.8 133.9 136.9 140.4 145 148.3 152.8 156.4 159.3 162.8 167.1 174 181.9 192.3 199.6 203.9 208 207.5 209.1 206.2 203 198.8 196.2 193.2 189.7 189.2 189.8 192.7 195.7 197.4 200 200.7 197.3 195.2 188.3 180.6 175.5 170.2 165.4 160.7 154.1 148.3 143.6 137.9 132.9 129 125.9 122.9 121 121 121 121 121 121 121 121 121 121 121 121 121 121 121 121 121 121 121 121 121 121 121 120.8 123.7 124.3 124.8 124.9 124.2 123.7 124.2 123.5 121.2 119.3 120.1 121 123.5 125.6 129.2 132.3 135.5 138.1 140.4 142.5 143.6
155.3 155.3 155 151.9 147 142.2 139.9 138.4 137.5 136.2 135.1 134.5 132.2 132.3 131.2 132 132.1 128.8 128.8 130.7 128.7 128.7 128.7 128.7 128.7 128.7 128.7 128.7 128.7 128.7 128.7 128.7 128.7 128.7 134.4 134.7 134.9 134.6 135 135.3 135.6 134.9 136 135.8 136.1 136.4 136.5 136.4 136.4 136.3 136.3 136.3 135.9 135.3 135.2 135.1 135.1 134.9 133.1 132.2 131 129.6 128.1 125.2 124.6 126.8 128.9 130.6 127.6 127.5 128.9 130.7 129 131 133.3 136.5 139.2 141.5 143.8 146.1 148.2 148.8 149 150 151.2 151.1 150.3 151.1 151 152 151.1 146.7 141.7 139.2 137.5 134.4 132.1 130.8 130.8 130.8 130.8 130.8 130.8 130.8 130.8 130.8 130.8 134.2 136.6 139.7 143 146.6 151.5 155 158.8 163 167.2 171.7 178.6 188.1 199.5 205.2 208.2 214.1 213.2 211.4 209.5 206.3 203 202 199 196 194.8 197.2 200.4 203.7 206 210.6 212.7 211.4 208.2 204.2 197.3 183.9 175.3 170.9 167.9 160.6 154 147.7 141.7 136.9 132.7 129.4 126.5 123.7 121.7 121 121 121 121 121 121 121 121 121 121 121 121 121 121 121 121 121 121 121 121 121 123.1 124.3 124.9 125.5 125.5 125.2 124.7 124.5 123.9 123.4 122 119.3 120.9 122.1 123.2 125.8 129.1 132.5 134.4 136.7 138.7 140.6
156.8 157.9 156.9 152.8 147.2 142.8 139.2 137.8 136.4 136.3 135.1 133.3 132.6 131.5 129.1 130.2 128.7 128.7 128.7 129.1 128.7 128.7 128.7 128.7 128.7 128.7 128.7 128.7 128.7 128.7 128.7 128.7 128.7 131.6 134.9 134.6 135.1 134.8 134.8 135.2 135.6 134.7 133.7 134.7 135.5 136.9 137.1 137.1 137.1 137.1 137.1 136.8 136.4 135.3 134.7 134.6 134.7 134 133 132.2 131.4 129.1 126.9 125.4 125.6 128.7 128.3 129 128.9 128.9 131.8 131.9 133.5 132.9 136.9 138.9 140.4 143.2 144.9 146.8 148.9 149.9 150.6 151.2 151.9 152.5 154.6 156.4 155.5 155.9 155.1 151.4 147.3 144 141.2 139.7 136.8 133.4 130.8 130.8 130.8 130.8 130.8 130.8 130.8 131.6 134.4 137.9 139.2 142.4 145.9 149.9 153.9 158.3 163.2 168.1 173.2 177.5 187.7 198.3 209.4 214.6 218.9 224 226.3 222.2 218.8 215.3 210.9 207.2 204.4 202.3 202.3 205.8 210.1 213.9 218 222.9 226.2 225.4 221.3 215.2 209 200.6 188.1 178.6 174.9 167.6 160.9 154.2 146.5 142.7 136.8 132.8 130.2 127.8 125 122.7 121 121 121 121 121 121 121 121 121 121 121 121 121 121 121 121 121 121 121 121 123.3 125 125.5 126.1 126 125.7 125.4 124.9 124.5 124.1 122.8 120.4 120.7 121.4 122.2 123.7 126.1 129.5 131.1 133 135.2 137.5
158.6 160.5 158.2 153.6 147.5 141.2 139.7 138.5 137.6 136.7 135.6 133.9 132.3 129.3 128.7 128.7 128.7 128.7 128.7 128.7 128.7 128.7 128.7 128.7 128.7 128.7 128.7 128.7 128.7 128.7 128.7 128.7 128.7 133.3 135.4 134.5 135.4 135 134.2 135.1 134 133.9 133 133 135.5 137.3 137.8 137.8 137.9 137.8 137.5 137.3 136.9 135.7 134.6 134.1 134.2 133.9 133.4 132.6 131.6 130.1 126.6 125.3 127 128.1 129.5 129.9 130.1 130.9 133.1 134.7 135.6 137.1 138.4 140.5 142.7 145.2 147.2 148.6 150.7 151.9 152.2 153.5 154.9 156.3 157.9 159.3 163.9 163 162.5 159.2 154.3 150.4 149.1 145.6 141.6 137.6 133.8 131.4 131.5 132.9 134.4 135.3 137.5 138.2 137.9 141.6 143.5 146.2 149.5 154 158.7 162.5 168.3 174.3 179.2 183.3 192.3 203.6 217.4 224.1 226.9 233.2 235.9 233.1 229.8 225.3 221.3 216 211.7 208.5 208.9 215.7 219.8 223.6 229.7 236.5 239.6 238.9 233.9 227.5 222.6 213.8 202.6 187.8 180.5 174.8 167.8 158.9 152.6 147.6 141.1 136.3 133.8 131.2 128.2 127.3 125 123.3 123.4 122.2 121 121 121 122.1 121.3 121 121 121 121.8 121.7 121 121 121 121 121 122.2 123.9 125.6 126.1 126.5 126.5 126.2 125.8 125.4 125 124.3 123.5 121.6 118.5 121.1 122 123.1 124.1 126.8 128.5 130.5 132.1 133.8
161.3 164.3 160 152 145.1 140.9 139.4 138.2 137.6 137 136 134.6 131.9 128.7 128.7 128.7 128.7 128.7 128.7 128.7 128.7 128.7 128.7 128.7 128.7 128.7 128.7 128.7 128.7 128.7 128.7 128.7 128.7 134 135.7 135.7 134.2 134.5 133.1 133 133 133 134.1 135.1 137.5 138.3 138.5 138.6 138.5 138.3 138 137.8 137.4 136.2 135 133.7 133.7 134.4 133.7 133 131.8 131 126.9 126.2 128.5 129.4 130.6 131.3 131.7 132.7 134 135.8 138.4 139.1 140.4 144.7 146.6 147.7 149.3 150.7 151.6 153.8 155.4 156.5 157.7 160.7 165.3 171.7 173.9 172.3 171.5 167.7 162.4 157.6 155.7 150.4 145 139.9 137.8 135.9 134.6 134.4 136.4 138.3 140.8 141.4 142.3 144.3 148.2 151.4 154.6 159.1 163.4 167.5 173.3 178 183.2 186.3 197.4 210.2 222.6 229.4 231 235 238.6 235.1 233.3 231.3 226.7 223.1 218.7 214.6 217.9 225 228.5 233.3 241.2 247.8 252.2 252.5 247.9 239.3 234.7 226.1 215 204.3 190.1 183 175.3 166.4 157.5 151.2 145.2 139.4 135.6 133.5 131.1 129.6 127.9 125.5 125.1 123.9 122.6 122.7 123.4 123 122.5 122 121 122.4 123 123.3 122.3 121.9 121 121 121 122.6 124 125.7 126.5 126.5 126.5 126.4 126.3 125.7 125 124.2 123.5 122.3 119.2 120.2 121.1 121.9 122.7 124.1 126.3 127.8 128.9 130.5
161.2 162.6 156.7 149.4 145.3 140.5 139 137.8 136.7 136.1 135.5 134.1 128.7 128.7 128.7 128.7 128.7 128.7 128.7 128.7 128.7 128.7 128.7 128.7 128.7 128.7 128.7 128.7 128.7 128.7 128.7 128.7 129.6 133.2 134.7 134.3 133 133 133 133 134.4 135.8 136.4 137.2 138 139 139.2 138.9 138.7 138.5 138.2 138 137.9 136.4 135.1 134.2 133.7 134.7 134.5 134.3 132.9 130.2 127.9 126.4 129.1 131.6 131.4 132.7 133.2 134.3 135.9 137.6 139.7 141.7 143.9 146.7 148.1 149.1 150.7 152.7 155.2 156.1 158.7 160.5 163.7 167.7 173.5 180.8 182.4 182.9 181 176.7 170.4 165.9 162.8 156.7 147.5 142.8 140.1 138.1 136.1 134.6 137.9 141.8 144.6 144.4 144.9 147.7 150.9 154.6 158.4 162.1 165.9 169.6 176.8 181.4 187.4 191.8 203.7 212.2 226 229.3 230.8 232.6 233.8 232 231 231.2 229.2 225.7 223.4 220.2 226.8 234.1 237 241.8 250.2 257.3 261.8 259.5 255.2 248.3 240.9 234.6 224.9 215.2 203.2 191.3 182.1 172.8 162.5 156.6 149.5 143.3 138.4 135.3 133.2 131.5 129.8 128.1 127 125.8 124.4 124.1 124.6 124 123.5 123 123 123.6 124.1 124.7 124.2 123.1 122.1 121 121.4 122.9 124.5 125.8 126.5 126.4 126.4 126.4 126.4 125.9 125 124.1 123.4 122.6 119.2 118.8 120 120.8 121.4 122.8 124.2 124.9 126 127.1
155.7 155.6 151.6 147.1 143.9 140.1 137.9 136.8 136.3 135.2 133.7 132.1 128.7 128.7 128.7 128.7 128.7 128.7 128.7 128.7 128.7 128.7 128.7 128.7 128.7 128.7 128.7 128.7 128.7 128.7 128.7 129.9 132.9 134 134.4 134.8 133.3 133 133 133.1 137.1 137.5 136.9 137.5 138.1 139.2 139.2 138.1 137.9 137.6 137.4 137.8 138.4 138 135.6 134.8 133.1 134.2 134.3 134.7 131.1 129.8 127.2 129.2 130.2 130.8 132 133.4 134.8 136 137.7 139.4 141.6 143.6 146 148.4 149.5 150.5 152.2 154.3 157.5 159.6 162.7 168.1 169.8 175.2 182.3 191 194.3 193.4 187.9 184 178.7 174.3 170.8 162.7 152.2 145.5 141.4 139.6 137.7 135.8 138.5 144 147.1 146.6 148 151.2 153.8 157.9 162.5 166.2 169.9 175 181.4 186.1 190.7 196.2 206.1 215.1 226.9 230.8 229.8 229.9 228.6 228.1 227.7 227 225.8 224.8 224.4 223.9 230.8 237.1 239 245.4 256.4 263.9 268 266.5 262.8 256 249.6 242.2 231.8 222.8 211.8 200.2 191.1 179.3 166.7 161.1 153.4 146.7 140.6 137.3 134.7 132.7 131 129.8 128.9 127.9 126.2 125.7 125.8 125.3 124.8 124.3 124.5 125.1 125.7 125.5 124.7 123.8 122.8 121 121.8 122.2 124.6 125.9 126.6 126.6 126.4 126.4 126.3 125.9 125.4 124.8 123.9 122.9 121.5 117.9 118.8 118.6 120.1 121.2 122.4 122.7 123 123.4
151.2 149.2 146.5 143.5 140.6 137.9 136.3 135.8 135.3 134.8 133.8 133 132.5 128.7 128.7 128.7 128.7 128.7 128.7 128.7 128.7 128.7 128.7 128.7 128.7 128.7 128.7 128.7 128.7 128.7 128.7 130.7 133.5 133.3 133.9 133.7 134.3 133 133 133.1 136.3 138.2 136.4 136.5 137.3 138.9 139.2 137.3 137 136.9 137.5 138 138.2 139.9 135.9 134.7 133.2 133.7 134.4 135 131.4 129.9 128.4 128.9 131.1 134.4 133.1 134 136.8 138.9 139.8 141.3 143.5 145.7 147.9 149.9 150.9 151.9 153.7 156.2 159.9 161.7 165 169.9 179.2 187.6 193.8 200.8 205.9 204.7 199.9 192.6 187.9 184.1 179.3 168.7 156.7 149.4 143.8 141 139 137.4 137.9 143.7 147.2 148.8 151 153.7 157 161.6 166.4 170.3 174.5 177.8 180.9 188.3 193.5 198.8 207.1 216.9 226.6 229.2 228 227.3 226 225.2 226 225.2 224.1 223.5 224.5 225.6 230.9 235.7 241.8 249.7 260.2 266.7 270.6 270 267.2 261.1 253.2 245.8 236.3 224.6 214.3 203.5 195.8 187.4 176.8 165.8 157 149.5 143.9 139.6 136.7 133.9 132.6 131.5 130.3 129.1 127.9 127.4 127.1 126.6 126.1 125.7 126.1 126.7 126.7 126 125.1 124.2 123.3 122.5 121.6 122.2 124.4 125.9 126.6 126.8 126.6 126.4 126.3 125.8 125.3 124.9 124.4 123.6 121.7 120.3 119.5 117.1 118.2 119.9 120.2 120.6 121.2 122.5
145.5 144.6 143.1 140.7 138.9 136.5 135.8 135.6 135.1 134.6 134.2 133.8 133.2 132.2 128.7 128.7 128.7 128.7 128.7 128.7 128.7 128.7 128.7 128.7 128.7 128.7 128.7 128.7 128.7 128.7 128.7 133.7 133.6 133.3 134.2 135.1 135.9 136.3 136.1 136.1 137.7 136.4 136 136 136 138.5 139.1 136.4 136.5 136.9 137.1 137.3 137.5 137.8 140.5 134.8 133.7 133.2 133 132.6 130.8 129.4 128.5 128.8 130.4 133.3 133.4 134.8 138.4 139.9 141.1 142.5 144.9 147.3 149.5 151.5 152.5 153.8 156 158.5 162.1 164.8 170.3 174.5 184.2 193.5 206.5 213.4 219.8 215.5 209.5 204.4 196.7 192.4 187 175.8 162.9 155.5 147.3 142.5 140.6 139.1 139 144.5 149.1 151.1 152.5 155.6 158.9 164.6 169.7 173.5 176.9 179.9 182.3 187.7 194 198.9 206.1 212.4 217.9 219.8 220.8 221.2 221.5 221.9 221.8 223.2 223.7 222.7 224 225.8 229.5 234.9 240.5 247.9 256.4 264.7 270 272 268.6 263.6 255.3 245.4 234 223.8 214.4 204.3 197.8 189.7 183.5 172.1 161.4 153.4 146.3 142.1 138.3 135.8 134.3 133.1 131.8 130.2 130.4 129.7 128.5 128 127.5 127 127.7 127.9 127.2 126.4 125.6 124.7 123.8 123.1 122.6 122.2 124.2 126 126.6 126.8 126.8 126.7 126.5 126.4 125.9 125.5 125 124.3 123.3 122.4 121 118 117.4 117.8 118.3 119.2 120.2 121.8
142.3 140.9 139 137.7 137.5 136 135.4 135.5 135.4 134.9 134.5 134.1 133.6 133 132.3 128.7 128.7 128.7 128.7 128.7 128.7 128.7 128.7 128.7 128.7 128.7 128.7 128.7 128.7 128.7 128.7 133.6 133.2 134 134.9 135.7 136.4 136.8 137.9 138.7 138.6 138.4 137 136 137.4 136.7 136 136 137 137.4 137.8 137.9 137.7 137.3 137.4 135.2 134.2 133.8 133.4 132 130.5 129.9 129.3 130.5 132 132.7 135 136.7 138 140.8 142 143.5 145.8 148.2 150.7 152.8 154.3 156.2 158.5 161 164.3 167.5 173.5 181.7 192.6 204.3 216.8 226.5 232.5 230.7 225 216.9 208.1 202.2 194.9 184.6 169.6 159.5 151.1 145.7 142.7 141.5 140.1 143.5 147.1 150.3 152.5 155.8 160.6 164.8 169.2 171.9 177.6 182.7 184.7 187.2 192.5 199.1 204 208.3 212.7 215.8 217.2 218.3 218.8 219.6 220.9 222.2 223.6 223.4 224.8 225.8 229.3 233.6 239.1 246.4 252.4 262.1 269.5 273.7 270.4 264.6 254.7 242.3 232.6 224.2 214.4 204.9 198.2 193.2 186.6 177.9 165.6 156.3 148.8 143.9 140.1 137.9 136.3 135.1 133.3 131.8 132.6 132 130.8 129.6 129 128.7 129.1 128.4 127.6 126.9 126 125.1 124.4 124.3 123.7 122.2 125.2 126.2 126.7 126.8 127.1 127 126.8 126.7 126.6 126.4 125.8 124.9 124 123.1 122.2 121.5 120.2 116.3 117.1 118 119.6 121
139.5 138.5 137.7 136.5 135.9 135.7 135.1 135.1 135.2 135.1 134.7 134.2 133.7 132.3 130.3 128.7 128.7 128.7 128.7 128.7 128.7 128.7 128.7 128.7 128.7 128.7 128.7 128.7 128.7 128.7 130 133 133.7 134.6 135.5 136.2 136.7 137.1 137.5 138 138.6 139.1 138.9 138.1 136 138.1 137.8 137.8 138 138.1 138.2 138.1 137.5 136.7 136.7 136 134.3 134 133.6 131.8 131.4 135.4 132.3 132.4 134 133.4 135.4 138.7 139.9 142.2 143.8 144.8 146.9 149.3 151.7 153.7 155.9 158.3 160.8 163.7 167.2 172.3 178.4 188 198.7 212 223 234.7 240.4 241.4 238.3 228.8 220.4 213.4 208.2 198.1 179.2 167.5 156.1 149.6 145.9 145.1 141.8 144.6 146.4 149.1 151.9 155.8 159.8 164.1 169.7 173.6 177.7 181.4 184.6 189 192.3 197.4 201.3 205.7 210.4 213.2 214.9 216.5 217.9 218.9 220 221.3 222.7 223.9 224.6 226.2 229.6 233.4 237.6 243.2 249.2 255.9 265.3 268.6 267.1 262.8 251.8 241.4 232.5 224.6 215 205.9 198.5 191.3 184.3 176 166.9 157.6 151.5 146.4 142.8 140.2 138.2 136.2 134.3 133.4 133.7 134 133 131.7 130.7 130.7 130.3 128.9 128.1 127.3 126.5 125.8 125.8 125.9 124.9 123.2 123 126.5 126.7 127.2 127.4 127.3 127.1 127 126.9 126.7 126.2 125.7 124.8 123.9 123 122.1 121.9 119.9 117 117.2 119 120.3
138.5 137.5 136.8 136.5 135.6 135.1 134.7 134.7 134.8 134.9 134.6 134.2 133.8 132.2 129.7 128.7 128.7 128.7 128.7 128.7 128.7 128.7 128.7 128.7 128.7 128.7 128.7 128.7 128.7 130.7 132.1 133.5 134.4 135.3 136.1 136.6 137.1 137.5 137.8 138.2 138.8 139.2 139.3 139.2 138.8 139.3 138.9 139 139.2 138.5 138.5 138 137.2 136.4 136.2 135.4 134.7 134.1 133 130.9 131 133.3 133.4 133.6 133.9 134.7 137.3 139.9 141.7 143.7 145.2 146.2 148.4 150.4 152.8 154.9 157.8 160.1 162.6 166.5 170.7 176.2 183.1 192.5 206.4 215.5 227.2 238.2 245.6 248.4 250 242 233.9 230.2 223.6 208.8 192.6 176.5 163.7 155.9 149.3 148.3 147.2 143.7 148.6 149.1 152.5 155.7 158.8 163.6 169.4 174.1 178.5 181.9 185.8 189.5 192.7 196.7 200.5 204.6 207.4 210.2 212.1 214 216.3 218.1 219.2 220.4 221.8 223.4 224.3 226.7 229.6 234.1 237.7 239.1 241.9 245.3 252.2 254.6 255.7 252.6 243.7 237.2 232.3 225.2 216.4 206.6 198.2 189.5 182.3 175.1 166.9 159.7 154.4 149.4 145.3 142.4 139.6 137.1 136.1 135.1 135.4 135.6 134.3 133 132.4 132.3 132.2 130.2 129 129.1 127.4 127.2 127.3 126.6 125.8 125.3 123.6 125.1 127 127.5 127.7 127.6 127.4 127.3 127.1 126.9 126.3 125.8 125.2 124.6 123.7 122.8 122.3 121.5 120 117.4 116.2 119
137.4 136.5 135.8 135.9 135.4 134.8 134.4 134.1 134.2 134.2 133.9 133.8 133.3 131.8 128.8 128.7 128.7 128.7 128.7 128.7 128.7 128.7 128.7 128.7 128.7 128.7 128.7 128.7 128.7 130 133.5 134.9 135.2 135.9 136.4 136.9 137.4 137.8 138 138.3 138.9 139.2 139.1 138.9 138.9 139 139 138.8 138.7 138.7 138.6 137.8 137 136.1 135.6 134.9 133.9 132.6 131.6 131.8 131.9 133.7 136.2 134.4 134.7 135.9 137.6 140.4 142.8 144.3 146.1 147.6 150.1 151.8 154 156.8 159.6 162 165 169.1 173.7 180.1 187.5 197.5 212.5 221 229.3 239.5 249.8 254.5 255.4 252.1 243.5 238.8 230.2 215.6 201 186.6 173.4 163.2 155.2 152.1 150.6 149.1 148.4 149.1 151.7 155.4 158.9 162.6 167.8 173.2 177.9 181.8 185.5 189 192.6 196.1 199.9 203.4 205.2 207.5 209.4 211.9 214.4 215.9 217.9 219.5 221 222.6 223.9 226.7 229.8 234.6 237 238.4 239.3 239.5 240.1 242.8 242 237.5 235.3 230.9 230.5 222 212.8 204.5 197.6 189 182 174.9 168.3 161.5 156.4 151.6 147.6 144.8 142 140.1 137.8 136.8 137 137.2 135.8 134.3 134.2 134.1 134 133.2 131.8 131.1 129.8 128.7 128.4 127.3 126.3 125.1 123.8 126.6 127.3 127.9 128 127.9 127.7 127.5 127.3 127 126.4 125.8 125.3 124.7 124.2 123.6 122.8 122 120.6 118.8 116.7 116.9
136.4 135.4 134.9 135 135 134.6 134.1 132.4 132.1 131.5 130.9 131.2 130.7 130.4 129.1 128.7 128.7 128.7 128.7 128.7 128.7 128.7 128.7 128.7 128.7 128.7 128.7 128.7 128.7 130.5 133 132.5 134.7 136 136.6 137.2 137.7 138.1 138.3 138.6 139.1 139.4 139.4 139.1 139 139 139 138.9 138.7 138.3 137.4 135.9 135.5 135.5 135.1 134.2 132.6 132.2 132 132.7 133.1 133.6 133.6 135.9 136.2 138.3 140.4 141.2 143.8 145.1 146.9 148.7 151.1 153 155.5 158.4 161.4 164.7 167.5 171.7 176.6 183.1 191.2 202.3 216.6 223.7 228.9 241.9 249.7 256.7 259.1 258.1 252 244.7 236.3 224.9 210.6 197.8 184.7 172.1 162.4 157.4 154.5 153.2 151.7 150.7 150.6 154.8 157.6 162.2 166.3 171.4 176.8 180.7 184.6 188.4 192.6 195.9 199.3 202.2 203.5 204.8 207.3 209.8 212.3 214 215.7 218 220.3 221.9 223.7 227.4 231 235.7 238.3 238.4 238.3 237.3 236.6 236.1 235.7 233.2 229.1 226.1 223.5 217.1 210.1 202.7 196.7 189.2 182.3 175.9 169.9 163.3 157.9 153.1 149.8 146.8 144.1 142 140 138.6 138.6 138.7 137.6 137.3 136.7 135.7 134.7 134.1 133.4 132.5 131.4 130.4 129 127.8 126.2 124.9 125.7 127 127.6 128.3 128.3 128.2 128 127.7 127.4 127.1 126.5 125.9 125.4 124.8 124.2 123.7 123 122.4 121.2 119.9 118.5 116.9
135.4 134.5 134 134 134.1 133.5 132.7 131.9 131 131.8 132.4 130.5 131.5 132.2 128.7 128.7 128.7 128.7 128.7 128.7 128.7 128.7 128.7 128.7 128.7 128.7 128.7 128.7 129.9 133.4 135.3 135.8 133.5 134.5 136.3 137 138.1 139.6 139.8 139.4 140.3 140 139.9 139.4 139 139.1 139 138.9 138.6 138.1 137.5 135.7 135.4 134.8 132.7 133 132.8 133.1 132.4 132.8 132.7 134.6 134.4 136.1 138.3 139.4 141.2 142.6 145.2 147 148.4 149.8 152.3 154 157.1 160.2 163.3 166.8 170.5 174.3 179.5 185.9 195.8 210.2 218.9 225.9 234.7 246.3 253.7 258.7 262.3 261.9 259.2 250.6 242.8 234 221.3 208.7 194.2 181.8 171.7 165 160.2 157.4 155.5 153.8 151.8 154 156.9 160.6 165.2 170.2 175.9 180.5 185.1 189.1 193.1 194.6 198.3 200.7 201.9 203.4 205.3 207.2 209.4 211.7 214.2 216.8 219.4 221.2 223.1 227.1 230.5 235.6 239.3 239.1 238.9 237.7 235.6 234.7 232.4 231.3 227.1 222.5 219.1 214.7 207.4 201.2 197 188.9 183.2 175.6 170.1 164.5 158.8 154.4 151.6 148 146.3 143.8 142.1 140.7 140.4 140.1 138.6 138 137.3 136.3 135.5 134.9 134.2 133.4 132.3 131.6 130.5 128.2 125.6 126.8 126.6 128 128 128.6 128.6 128.4 128.1 127.9 127.6 127.2 126.6 126 125.4 124.9 124.3 123.8 123 122.2 121.4 120.4 119 117
134.3 133.6 133.1 133.1 132.9 131.9 132 133.3 133.3 132.7 133.2 133.7 133 133.2 133 132 128.9 128.7 128.7 128.7 128.7 128.7 128.7 128.7 128.7 128.7 131.1 132.7 133.5 135.5 136.9 138 136.1 134.3 135.5 137.1 138.1 139.5 139.5 140.2 139.9 141.2 140.4 139.7 139.2 139.1 139.1 138.9 138.4 138 137.4 135.8 135.3 134.3 132.8 134.1 134 133.8 133.1 133.8 134.8 134.1 135.8 136.7 138.1 141.7 142.8 145.7 147.2 149 150.6 151.8 154.3 156.5 159 162 165.1 168.2 172.5 177.2 182.5 189.6 199.6 211.2 223.5 232 239.7 249.2 258.4 265.3 271.8 273.1 267.5 261.2 254.9 244.7 235.3 222.3 207.4 192.4 180.9 171.1 165.3 163 160.7 158.4 155.7 153.6 156.1 159.6 164 169.3 176.1 179.9 183.7 188 190.7 192.9 196.6 199.1 200.4 202.1 204 205.9 207.8 210 212.7 215.4 218.1 220.6 222.6 227 230.1 234.8 240.2 241.9 241.4 239.5 237.1 234.6 232.5 230.7 227.7 223.7 218.3 214.3 208.3 202.5 197.7 190.6 182.6 175.4 170 165.8 160.4 156 152.6 149.2 147.4 145.3 143.6 142.2 142 141.4 140 138.9 137.7 137 136.3 135.7 135 134.3 133.5 132.8 132 128.2 126 128.8 128.5 129.1 129.1 129 128.8 128.6 128.3 128 127.7 127.3 126.7 126.1 125.5 125 124.4 123.7 122.9 122.1 120.4 119.8 118.2 116.4
134.1 133.4 133 133 132.1 132.7 132.7 133.7 133.8 133.8 134 134.3 133.9 133.8 133.8 134 133.6 131.3 131.7 128.7 128.7 128.7 128.7 128.7 128.7 128.7 130.6 133.4 134.1 137.1 138.9 139.1 138.5 136.6 133.9 135.6 137.8 138.1 139.2 139.6 139.7 140.3 141 139.9 139.5 139.2 139.1 138.8 138.3 137.8 137.3 136 135.3 133.5 133.8 134.5 134.5 134.1 133.8 136.1 135.2 135.1 135.9 137.7 138.7 140 146.1 145.9 147.6 149.8 151.9 153.9 155.5 158.3 161.5 164 167 170 174.2 179.5 184.8 192.9 202.6 213.8 225.3 235.6 246.3 254.5 264.4 272.4 279.8 283.4 280 275.2 269.7 259.5 248.7 238.5 224 208 195 177.8 170.4 166.8 164.5 162.2 159.6 157.9 156.8 160.9 165.5 169.7 174.6 178.9 182.5 185.1 189 191.2 194.4 196.9 199 200.8 202.7 204.5 206.3 208.7 211.4 214.1 216.8 219.9 222.5 226.1 228.7 233.7 241.8 242.7 241.5 238.3 235.9 234.5 233.4 230.9 226.8 222.7 217.4 213.7 210 204.5 198.4 190.6 182.1 175.3 170.5 166.7 161.7 156.7 152.9 150.7 148.5 146.8 145.2 143.7 143.3 142.7 141.4 140.3 139.1 138.1 137.4 136.9 136.2 134.8 133.9 133.1 131.2 127.9 127.7 130.3 131.3 130 129.7 129.4 129 128.7 128.5 128.2 127.9 127.4 126.8 126.2 125.6 125 124.5 123.7 122.9 121.7 118.3 118.2 117.7 117.8
136 134.4 134 133.6 133.8 133.7 133.6 134 134.2 135.2 135.8 135.6 134.8 134.5 134.8 135 134.7 134.1 133.4 128.7 128.7 128.7 128.7 128.7 128.7 128.7 130.1 133.5 134.4 137.4 139.4 138.9 138.4 137.9 135.9 135.3 136.7 137.9 139 139.9 140 140 140.1 140.1 139.7 139.3 139.1 138.6 138.1 137.6 137.1 136.3 135.4 134.1 133.8 134.8 135.1 134.8 134.5 135.2 136.2 136.8 138.6 138.3 140.1 140.9 143.1 147 147.8 150.4 153.5 154.9 156.8 159.4 162.7 166.1 169 172.2 176.2 181.5 187.5 195.5 205.2 216.8 230.5 240.9 249 260.4 271.6 282.9 292.2 294.4 292.9 284.4 280.4 270.3 261 250.9 234.9 218.6 200.7 186.4 176.5 171.8 168.4 165.6 162.8 160.9 158.8 161.1 165.5 169.5 173.4 177.5 180.7 183.2 186.2 189.5 192.2 195.1 197.4 199.4 201.2 203 204.9 207.5 210.1 212.8 215.6 218.8 221.9 224.8 227.8 233.1 241.3 242.2 240.3 237.3 236.2 235.1 234 232 227.5 221.9 218.8 215.7 210.9 208.7 203.5 195.6 184.4 176.7 171.1 165.4 160.3 156.3 153.8 151.5 150 148.4 146.8 145.2 144.6 143.9 142.8 141.8 140.8 139.9 138.9 138.3 136.7 135.4 134.4 133.4 131.4 128.6 129.9 131.4 132.1 131.5 130.9 130.3 129.4 128.9 128.6 128.3 128.1 127.5 126.9 126.2 125.7 125.1 124.4 123.6 122.1 119.3 119.4 120.1 120.1 120.2
