ncols 200
nrows 82
xllcorner 230000
yllcorner 845350
cellsize 50
585.7 589.7 590 586.6 579.4 572.1 571.3 575.8 581.2 586.8 582.1 565.5 545.5 538.8 543.3 537.5 529.5 520 509.4 496.1 491.3 498.1 505 516.4 518.9 523.8 533.2 538 536.9 537.5 533.7 529.5 531.8 528.9 532.9 515.8 500.2 492.5 485.5 479.3 473 464.3 454.1 444.8 442.9 442.3 444.6 449.4 456.7 464.2 471 476.3 484.1 490.9 496.9 499.9 501.2 498.7 492.6 485.7 466.8 458.3 436.8 412.4 389.6 374.3 361.2 351.9 343.9 336.3 338.7 344.9 349.4 355.1 351 354.6 356 360.7 365.5 371.2 371.3 375.8 381.9 382.3 383.6 388 401.7 407.8 406.2 394.8 382.1 371.8 370.7 375.8 385.7 376.9 360.2 339.9 322.6 305.2 292.2 286.7 276.1 270.6 259.9 248.2 248.2 248.2 248.2 248.2 248.2 248.2 248.2 248.2 248.2 248.2 248.2 248.2 248.2 248.2 248.2 248.2 248.2 248.2 248.2 248.2 248.2 248.2 248.2 248.2 248.2 259.1 265.8 266.5 265.5 265.4 262.2 256 248.2 248.2 248.2 248.2 248.2 248.2 248.2 248.2 248.2 248.2 248.2 248.2 248.2 248.2 248.3 248.2 248.2 265.1 272.7 276.4 281.2 285.7 290.8 286.7 284.6 289.2 288.5 295.9 294.5 293.5 297.3 298.9 295.3 295.4 295 293.3 289.4 289.6 284.2 281.1 280.6 287 290.8 296.3 302.4 305.2 310.4 315.3 322.3 329.7 334.5 335 336.5 336.4 336 333.4 318.2 310.3 305.1 298.1 291.5 284.4
591.1 595.7 593.7 590.2 580.4 575 577 579.5 579.6 577.4 571.5 556.9 544.2 533.2 534.9 531.7 523.6 514.1 503.7 493 487.2 494 504.2 512.5 513 516.9 525.3 525.1 526.1 527.5 526.8 526.3 532 523.5 521.4 506 499.8 494.5 488.4 481.6 475.9 467.8 455.2 446.2 445.1 440.6 442.9 447.7 455.3 462.9 469.2 475 480.7 487 492.5 496.8 499 497.5 491.9 485.7 480.9 470.3 447 419.5 392.1 376.5 362.1 347.1 336.5 328.7 324.3 327.9 328.6 334.8 337 340.6 340.4 341.3 347.9 354.6 357.2 358.7 365.4 368.8 371.4 373 381.5 391.9 396.4 386.3 375 366.1 362.4 371.7 383 381 362.4 345.8 331.2 316.2 299.2 283.5 273.7 268.3 263.5 248.2 248.2 248.2 248.2 248.2 248.2 248.2 248.2 248.2 248.2 248.2 248.2 248.2 248.2 248.2 248.2 248.2 248.2 248.2 248.2 248.2 248.2 251.6 248.2 248.2 264 268.3 270.5 270.3 270.7 271.4 269.1 262.6 248.2 248.2 248.2 248.2 252.6 248.2 248.2 248.2 248.2 248.2 248.2 264.8 266.3 253.2 259.3 259.8 249.4 252.8 268.7 276.2 285.4 294.6 297.6 292.5 295.3 297.6 307.7 311.5 306.9 312.6 315.3 310.2 305.1 302.6 302.2 296.8 296.5 298.6 296.1 284.2 281.1 285.4 288.9 292.4 299.3 304.7 309.9 317.2 326.7 331.4 335.7 334.4 329.8 329.5 324.6 318.8 312.4 304.5 298.7 295.7 290 284.6
585.5 592 591.6 585.9 581.1 580.8 582.2 580.7 578.4 573.8 563.6 544.3 539.4 531.6 521.9 521.5 512.4 504.9 498.4 489.8 481.2 490.9 500.4 506.9 506.8 510.4 516.4 514 519 522.6 520.3 520.9 522.7 519.7 511.8 502.5 498 494.9 490.1 487.4 481.7 470.8 457.3 453.4 445.7 437.7 441.6 446.6 451.6 459.3 464.4 471 475.9 482.4 486.2 492.5 496.5 500.1 494.3 488.1 484.2 474.5 457.3 429.6 402.9 378.2 360.2 344.5 332.2 322.4 316 314.6 314.4 315.3 318.3 323.2 323.3 323.1 328.2 335.9 341.6 344.5 350.2 354.3 357.2 358.6 359.4 369.5 386.9 376.3 363.2 359.4 352.9 357.4 366.5 367.5 360.6 349.8 335.5 313.5 299.4 286.5 278.1 270.6 259.7 248.2 248.2 248.2 248.2 248.2 248.2 248.2 248.2 248.2 248.2 248.2 248.2 248.2 248.2 248.2 248.2 248.2 248.2 248.2 248.2 248.2 250.7 248.2 248.2 263.6 267.4 270.4 271.5 270.6 269.5 267.5 265.7 262.5 263.5 262.6 266.8 267.8 261.9 270.2 272 265.5 267.5 271.7 268.7 274.9 279.7 270.1 268.2 266 262.6 248.2 259.8 271.7 280 289.4 294.6 296.5 299.7 309.4 321 327 320.6 318.9 320.8 320.9 318.6 311.5 306.8 299 301.1 299.5 292.2 280.7 282.2 285.4 289.6 295.8 303.4 305.9 312.5 321.6 328.2 333.6 332.1 329.2 329 329.2 327 319.3 313.9 304.9 300.1 297.6 292.8 289.1
581.2 586.7 582.7 574.5 577.7 583.9 584.3 580.9 572.6 567.3 555.2 536.6 534.8 528.7 517.4 509.6 501.9 492.7 488.8 483.8 477.1 488.6 499.2 503.2 503.4 505.3 506 508 511.1 515.3 511.4 515.9 515.4 515.7 508.7 505.3 509.1 504.8 493.2 488.3 482.3 475.6 465.1 462.4 450.6 438 434.3 438.9 444.8 451.4 455 461.5 469.1 476.7 481.8 485.3 490 493.8 491.2 484.9 480.8 469.4 458.7 432.1 403.3 377.9 358.3 342.4 328.6 321 309.6 303.9 301.6 302.7 303.2 303.2 307 309.9 315.5 319.4 323.5 329.7 330.5 336.5 340.2 342 345.1 346.1 355.1 361.2 347.7 343.1 338.6 342.9 354.3 354.5 353.5 340.6 327.7 312.9 290.1 281.3 275.4 268.5 258.3 248.2 248.2 248.2 248.2 248.2 248.2 248.2 248.2 248.2 248.2 248.2 248.2 248.2 248.2 248.2 248.2 248.2 248.2 248.2 248.2 248.2 248.2 248.2 263.3 271.4 276.3 275.2 273.2 271.7 272.6 274 274.8 276.3 274.6 274.8 277.1 281.9 289.2 291.3 287.6 279.2 281.7 280.3 278.4 282.9 289.2 284.3 280.5 281.5 270.2 266.6 277.6 274.8 274.6 281.7 288.2 292.6 301.1 311.7 320.1 328.3 335.2 330.2 327.7 323.7 322.5 315.3 307.8 304.3 297.5 294.9 284.6 282.3 286 291.8 297 301.3 304.7 308.9 315.9 321.1 328.5 330 326.9 326.9 328 333.4 326.6 317.8 314.8 309.9 310.3 309.3 306.7 301.9
573.4 575.2 570.9 571 579.8 589 589.5 580.7 565.1 552.3 535.1 529.1 534.5 526.8 513.7 503.6 492.8 485.3 480.6 476 469.9 482 493.7 497.5 498.8 502.3 502.9 498.5 504.8 505.5 506.4 510.8 514.3 511.9 512.6 514 517.7 514.1 501.6 492 483.3 474.9 474 467.4 457.4 441.8 432.6 428.2 432.9 441.1 445 451.5 460.6 468.7 473.8 478.7 483.4 484.7 484.3 480.7 480.7 469.9 458.3 434.7 405.7 378.8 357.4 340.6 326.2 319.3 309.3 300.8 296.6 292 289.8 288.4 290.9 295.3 297.8 301.6 307 311.8 315 316.9 318.2 321.6 325.7 329.9 333.9 339.6 332 327.9 325.7 326 332.4 329.8 324.3 319.5 313.3 304.4 294.8 282.2 271.8 266.9 259.5 248.2 248.2 248.2 248.2 248.2 248.2 248.2 248.2 248.2 248.2 248.2 248.2 248.2 248.2 248.2 248.2 248.2 248.2 248.2 248.2 248.2 256.6 265.7 273.4 277.4 280.5 282.1 283.6 284.5 283.4 285.9 286.3 285.8 285.5 285.4 295.5 294.8 295.7 290.7 287.3 285.2 283.7 287.9 289.2 293.2 292.2 290.6 284.6 289.7 281.1 274.5 285.7 287.9 285.2 285.2 292.1 291.7 301.1 312.1 320.7 325.3 332.5 332.5 326.9 321.9 319.1 314 307.6 302.2 296.9 289.2 282.9 287.6 293 296.9 299.7 303.7 306.9 311.4 316.1 321.2 323.8 324.9 324.1 324.3 325.3 324.6 320 319.3 316.7 315.4 315.4 318.2 316.3 311.5
565.2 564.6 565.7 575.4 585.5 594.3 592.6 583.2 571.7 548.7 523.9 520.6 531.9 533.5 526.9 511.1 495.3 484.3 473.8 469.1 461.5 475 489.5 490.5 493.5 498.4 495.3 491.2 495.6 496.2 498.9 502.5 504.7 502.4 502.8 509.3 512.9 506.2 496.8 487.8 480.3 478.3 479.3 470.2 454.4 442.4 435.2 430.6 419.9 431.9 435.4 444.1 452.7 461.2 468.2 472 475.5 478 482.6 483.4 479.9 472.3 464.1 435.1 404.2 379.9 361.2 346.2 329.9 322.9 309.4 300.2 289.9 287.7 282.1 279.8 278 278.5 281.1 284.9 290.5 295.9 299.1 299.3 299.6 301.5 306.7 311.8 318.3 319.2 315.7 311.9 307 308.5 307.2 305.7 305.2 304.3 303.1 299 285.5 274.8 265 259.4 252.8 248.2 248.2 248.2 253.8 248.2 248.2 248.2 248.2 248.2 248.2 248.2 248.2 248.2 248.2 248.2 248.2 248.2 253.8 248.2 248.2 256.5 266.5 273 277.4 281.1 285.3 288.9 290.3 292.3 296.4 294.7 293.3 292.6 299 307.1 308.4 302.2 296.1 290.3 285.1 284.3 284.6 285 290.1 295.6 299.5 302 291.2 290.7 282.2 285.9 295.9 297.3 293 297.1 299.7 291.9 294.1 310.2 319.4 327.4 329.7 324.6 322.2 321.3 322.2 317.7 309.1 302.5 299.4 292.9 284 290.2 294.6 297.7 300.9 304.6 306.9 310.8 314.2 316.8 318.4 319.5 319.8 319.5 320 317.8 317.4 315.3 316.8 318.4 326.5 321.3 316.9 314.2
553.3 555.9 562.4 571.9 579.6 583.3 580.4 574.3 564.7 540.3 518.7 510.7 517.7 527.3 525.5 511.4 494.2 482.9 472.6 464 454.5 466.8 477.6 483.8 486.9 492.2 487.5 484.3 488.1 489.2 491.2 495.6 496 492.2 495.7 505.7 506.7 500.8 494.5 485.4 480.5 478.2 474 466.3 448.7 435.7 428.9 425.1 418.3 422.8 429.9 436.8 446 454.5 462 468.1 469.5 471.2 479 480.2 476.9 470.3 461.8 434.6 404.6 382.7 361 342.6 322.6 311.1 306 295.9 288.9 283.8 279.3 274.8 272.5 270.6 270 270.1 274.1 278.7 283 285.2 285 288.8 287.2 290.5 294.6 296.8 295.9 295.7 291.4 287.9 287.6 287.8 290.7 295 297.2 298.6 286.5 272.6 253.4 248.2 248.2 248.2 248.2 256.7 252.6 248.2 248.2 248.2 248.2 248.2 248.2 248.2 248.2 248.2 248.2 248.2 248.2 248.2 248.2 255.4 259.3 264.1 268.5 273.8 280 288 293.1 295.1 298.1 301.9 302.8 300.1 298 305.6 311.2 312.2 304.5 306.9 318.7 314.3 312 293.5 297.5 300.1 297.9 306.7 307 307.9 300.2 293.5 281.8 290.1 301.8 301.3 299.3 306.8 305 292.4 293.4 301.8 315.2 322.2 323.9 315.6 317.3 321 324.9 320.6 312.4 304.2 297.7 289.5 291.6 293.8 296.8 298.4 300 301.8 304.2 309 310.2 311.2 311.6 309.7 311.8 313.2 314.4 314.5 312.9 314 316.4 323.9 322.3 317.8 316.2 312.1
539.9 543.7 550.6 560.2 566.7 569.6 563.2 561.2 546.5 520.9 510.7 504.7 503.7 518.7 518.9 506.1 485.9 476.8 465.9 457.6 448.3 460.6 471.6 476.2 479.8 481.6 478.3 477.5 483.9 484.4 486.4 488.4 491.3 485 490 498.5 504.4 504.4 500.8 491.7 485.5 480.4 473.1 466 450.1 434.4 419.8 416 414.3 412.6 420.4 426.4 438.2 447.1 453.7 460.4 462.7 463.3 470.5 474.1 467.9 469.1 464.3 430.6 402.9 387.3 363 338.4 308.4 298.7 294.3 289.3 287.2 281.5 276.9 273.5 268.4 268.9 265.8 267 266.3 267.2 269.2 269.4 273.4 271.7 274.7 277.3 275.1 278.2 275.6 274.6 269.7 269.9 268.1 271.3 271.4 277.6 282.4 280.8 282.3 269.9 251.9 248.2 248.2 248.2 248.2 255.7 248.2 248.2 248.2 248.2 248.2 248.2 248.2 248.2 248.2 248.2 248.2 248.2 248.2 248.2 248.2 254.3 260.5 264.9 269.1 277.4 283 291.7 294.9 298.2 308.7 311.3 312.4 321.7 326.3 325.7 323.1 317.7 318.9 323.5 324.3 324.1 318.6 313.6 306.9 310.7 313 310.1 309.2 304.8 298.5 290.5 287.2 292.5 302.5 305.8 307.9 314.9 308.4 299.2 296.5 297.1 310.3 315.8 315.5 310.8 315.8 323.8 325.8 320.8 312.3 302.2 292.3 292.9 294.7 296.4 297.6 300.4 301.3 301.3 303.8 304.7 306.4 304.7 302 305.4 309.3 310.8 308.9 308.3 311.1 313.6 317.3 319.8 315.4 312.1 311.7 311
518.5 525.2 532.3 541.9 549.1 549.6 546.3 537.6 514.1 502 499.8 497.4 490.8 493.1 491.7 483.3 471.5 463.3 454 444.1 443.9 455.8 465.9 468.2 470 469.8 470.2 474.7 479.7 481 483.1 482.1 482.3 476.5 483.5 492.6 499 498.7 491.5 490.2 489 479.8 471.4 464.2 452.7 437 416.4 405.4 402.9 400.9 408.9 417.4 429.3 437.9 445.8 451.2 455.7 456.8 464.1 467.4 456.6 461.7 461.4 440 414 377.7 353.1 328.2 298.5 290.3 287.8 287.7 284.5 278.5 269 268.9 265.2 260.9 263.4 261.2 259.6 263.5 266 260.4 261.6 260 260.6 259.4 263.9 261.3 265.6 260.9 255.7 250.4 248.2 262.2 261.7 264.2 268.5 270.1 271.1 264.4 248.2 248.2 248.2 248.2 248.2 248.2 248.2 248.2 248.2 248.2 248.2 248.2 248.2 248.2 248.2 248.2 248.2 248.2 255.9 257.1 258 260.8 266.9 268.6 275.1 286.2 292.6 298.8 305.2 307.9 314.6 318.3 321.3 329.3 329.3 326.5 324.9 325.8 326.9 328 327.4 321.6 318.1 316.1 319.2 321.3 323.2 320.8 316.2 311.1 303.1 295.2 290.7 293.1 306.1 310.5 309.7 313.4 306.4 301.2 300.7 299.3 302.3 308.8 311.5 309.2 313 316.3 320.3 312.9 305.4 298 295.4 299.6 303.2 302.7 303.9 302.9 301.8 301.6 301.6 302.1 298.4 297.7 298.5 302.2 304.3 304 304.1 306 308.7 311.4 314 312.8 310.9 311.4 312.6 315.3
494.5 502.6 514.1 524.2 526.4 524.8 521.7 507.8 490.6 484.3 487.4 483.9 479.9 471.7 467.1 457.7 451 445.5 436.5 431.1 442.2 449.1 460.2 463.4 463.3 463.6 462.9 468.5 473.7 475.8 476.7 472.5 468.5 463.8 473.5 484.9 492.4 487 485.3 487.8 485.3 477.5 467.3 463 453.7 438.1 416.9 402.3 392.1 390.4 396.3 406.1 418 428 436.7 444.4 449.3 449.6 457.1 458.4 447.5 459.8 454.5 441.7 402.7 363.3 340.4 313.9 294.4 285.3 281.6 281.8 278.2 272.5 266.5 264.7 260.7 257.6 256.1 257.4 253.4 248.2 248.2 248.2 248.2 248.2 248.2 248.2 248.2 250.3 257.2 248.2 248.2 248.2 248.2 253.2 256.6 256.2 248.2 261 259.5 256.8 248.2 248.2 248.2 248.2 248.2 248.2 248.2 248.2 248.2 248.2 248.2 248.2 248.2 248.2 248.2 248.2 248.2 254.7 256.6 257.4 262.7 263.4 267.9 274.7 281.6 290.7 301.4 308.3 311.7 318.6 323.6 323.4 336.4 340.7 348.8 358.5 361.5 362.7 359.2 352.9 346.8 348 340.6 329.3 328.3 331.6 329.3 331 331.9 324.3 315.7 308.1 297.1 296 303.9 308.8 307.2 307.4 306.3 299.9 299.5 299.1 300.2 305.6 310.6 310 309.6 311.8 308.5 305.3 301.2 298.1 300.6 304.9 303.5 303.8 304.2 300.7 299.1 299.6 296.4 295.6 295.6 295.2 295.6 301.1 301.7 303.3 302.3 303.3 305.8 307.4 305.7 305.8 307 310.3 315.2 318.2
475.6 481.1 488.3 495.4 496.5 494.5 495.1 478.5 470.3 470.9 473.2 473.3 467.1 461.1 452.7 442 435.8 428.1 418 406 434.4 440.9 451.6 456 455.6 454 453.6 461.1 462.6 467.4 464.4 460.8 454.4 449.7 464.1 474.3 477.6 474.5 476.8 476.5 473.9 465.7 457 448 443.2 431.6 411.5 395.9 386.9 381.4 381.9 391.1 405.3 415.6 425 433.9 439.8 440.2 445.8 450 433 444.8 443.4 432.3 378.5 348.3 325.5 307.7 291.9 284.5 275.6 273.7 271.5 266.6 262.9 260.9 258.7 251.9 248.2 248.2 248.2 248.2 248.2 248.2 248.2 248.2 248.2 248.2 248.2 248.2 248.2 248.2 248.2 248.2 248.2 248.2 248.2 248.2 248.2 248.2 248.2 248.2 248.2 248.2 248.2 248.2 248.2 248.2 248.2 248.2 248.2 248.2 248.2 248.2 248.2 248.2 248.2 248.2 248.2 256.4 257 258.3 262.4 267.8 272.9 280 287.8 298.9 310.5 314.7 318.5 328.3 333.4 342.9 354.7 368 369.5 373.3 376 377.3 373.7 372.3 369.2 362.8 350 347.2 340 336.2 336.2 339.5 343.3 336 325.1 315.6 301.7 300.7 307.3 306.2 306.5 307.8 302.9 299.5 306.1 316.1 307.4 310.9 316.8 319.3 324.2 325.7 318.5 307.7 301.8 300.9 304.4 302.3 299.3 299.9 298.5 297.5 297 296.2 299.1 299 301.3 296.1 294.9 295.4 298 301.7 301.8 301.2 303.1 302.5 302.8 302.8 304.8 310.3 314.9 315.8
461.9 467.2 472.7 468 466 462.3 459.9 454.2 450.1 451.8 451.8 455.8 447.6 445.1 435.3 417.6 415.9 409.1 401.9 401.6 422.4 426.2 431.2 436.6 444.6 446.2 439.1 442.5 449.2 448.7 446.5 449.1 439.9 436.5 450.7 456.3 459.9 464.9 462.9 462.7 458.2 453.4 445.6 434 434.5 423.2 403.6 389.3 376.6 373.1 371.9 378.7 394.8 405.7 411.3 420.7 426.9 425.1 435.2 439.6 414.9 423.6 414.3 406.2 358 333.6 308.7 295.4 285.7 277.7 271 266.5 265.1 263.6 259.9 257.9 258.6 252.5 248.2 248.2 248.2 248.2 248.2 248.2 248.2 248.2 248.2 248.2 248.2 248.2 253.6 254.7 248.2 248.2 248.2 248.2 248.2 248.2 248.2 248.2 248.2 248.2 248.2 248.2 248.2 248.2 248.2 248.2 248.2 248.2 256.9 257.1 248.2 248.2 248.2 248.2 248.2 248.2 248.2 258 263.8 265.2 265.8 272.1 278.9 287.9 298.3 312.2 321.3 318.1 328.4 339.4 350.3 357.6 370.9 385.8 392 392.9 395.1 392.4 385.6 383.6 378.4 366.8 352.7 352.1 342.1 340.6 338.6 342.7 344.5 338.7 329.8 319.5 309.2 295.6 304.6 304.9 306.9 310.9 305.7 306.5 313.7 321 323.4 320.6 324.8 327.7 326.7 322.3 314.7 307.3 301.6 303.7 301.4 299.4 299.9 299.4 297.5 296.5 297.7 298 301.5 304.7 299.3 300.9 294.9 293.9 296.5 300.5 300.7 299.4 298.8 299.6 301 301.8 303.6 305.4 307.6 309.1
448.1 455.1 456.3 447.7 440.5 438.3 431.9 429.5 425.6 425.6 426.3 426.1 424.3 420.8 411.1 402 394.4 396.4 379.4 397.1 405.9 410.3 414.4 416.6 427.7 426.2 423.2 427 429.8 431.9 428.1 426.7 421.5 418.8 436.4 439 439.5 443 442.5 445.7 442.3 442.5 430.5 417.4 408.9 401.7 388.4 376.8 371.1 364.6 359.1 366.7 379.8 388.8 391 404.8 407.6 402.7 417.7 421.4 390.3 397.7 386.2 376.9 340.6 327.6 304.2 289.9 276.5 271.4 265.7 261.6 261.1 257 254.3 251.6 248.8 248.2 248.2 248.2 248.2 248.2 248.2 248.2 248.2 248.2 248.2 248.2 248.2 248.2 248.2 248.2 248.2 248.2 248.2 248.2 248.2 248.2 248.2 248.2 248.2 248.2 248.2 248.2 248.2 248.2 248.2 248.2 248.2 253.6 261.9 261.8 251.6 248.2 248.2 248.2 248.2 248.2 248.2 264.8 266.6 270.9 278.2 281.4 287.9 300 315 327.4 326.3 329.7 343.5 354.4 365.3 369.7 387.9 402.4 409.7 411.6 412.5 410.3 402.1 390.6 381 364.1 358.6 353.6 343.7 342.6 339 339.6 341.4 336 329.8 319.4 308 297.7 305.4 312.9 315.4 312.6 313.8 319.5 324.3 332.6 337.8 343.2 332 333.3 329.4 320.2 313.6 304.9 300.5 301.7 299 299.2 298.2 297.5 299.7 298.2 298.6 299.8 301.5 299.8 298.6 298.8 294.5 292.2 291.9 292.4 297.1 299 298.9 299.3 300 300.8 302.1 304.8 306.8 309.1
443 446.7 440.6 432.7 423.7 418.1 413.1 410.2 408.5 402.7 400.3 397.5 395.5 390.1 389.3 378.3 370.7 376 348.8 374.3 382.2 390.4 394.3 395.3 403.1 398.4 402.5 416.5 412.5 421 405.5 401.9 396.6 400.1 417.4 418.8 417.8 424.6 424.6 430.5 429.9 423.8 417 403 392.7 380.7 372.2 365.6 359.5 357.6 332.7 344.1 360.1 366.2 369.7 377.9 380.1 375 386.8 391.2 366 372.6 363.7 359.9 327.4 315.8 298.7 285.7 273.8 266.9 264.1 257 248.2 248.2 248.2 248.2 248.2 248.2 248.2 248.2 248.2 248.2 248.2 248.2 248.2 248.2 248.2 248.2 248.2 248.2 248.2 248.2 254 261.9 261 250.2 248.2 248.2 248.2 248.2 248.2 248.2 248.2 248.2 248.2 248.2 248.2 248.2 248.2 261.6 264.4 265.2 260.9 251.5 248.2 248.2 248.2 248.2 252.2 265.4 270.4 276.4 281.9 287.8 298.3 313.4 329.7 333.9 329.1 341.4 356.9 368.3 369 391.2 400.9 412.7 421.6 423.4 420.3 413.9 405.9 393.8 383.7 364.3 363 354.2 344.9 342.5 343 345.9 344.2 339.3 329.3 320.3 303.7 312 319.9 321.2 323.2 318 326.3 330.8 339.8 345.4 356.8 353.8 341.2 343.5 338.6 326.4 322.6 310.8 302.8 302.2 298.9 298.8 300.2 306.3 304.3 303 300.2 301 303 300.4 303.5 302.3 299.7 293.8 291.6 291.6 291.5 295.3 297.6 297.3 298.2 300.1 306.5 305 310.4 310.9
422.3 413.4 417.4 413.5 415.4 405.4 397.9 396.6 388.3 380.7 383.1 380.3 379.7 376.7 369 354 350.8 351.6 330.2 352.3 354.2 367 367.9 368 376.9 373 378 385.8 387.4 395.1 383.2 379.7 374.8 380.5 397.5 398.7 396.3 402.5 402.7 412.2 411.3 405.3 393.7 384.2 378.8 367.9 356 349.8 347.3 345.6 330.6 323.3 339.5 349 355.2 356.4 357.2 349.5 356.5 359.1 340.6 349.7 335.7 331.7 313.3 306.1 292.5 281.2 269.3 264.2 257.6 248.2 248.2 248.2 248.2 248.2 248.2 248.2 248.2 248.2 251.3 253.5 250.1 248.2 248.2 248.2 248.2 248.2 248.2 248.2 248.2 249.4 265.8 269.4 268.7 265.4 264.2 263.3 262.3 248.2 248.2 248.2 248.2 248.2 248.2 248.2 248.2 248.2 248.2 263.9 268 268.5 266.5 260.4 248.2 248.2 248.2 248.2 258.8 268.7 276.7 283.8 287.8 299.3 309.1 319.8 332.6 330.4 338.6 356.7 365.2 370.9 389 407.3 418.7 430.6 431.7 432.1 428.2 422.4 411.4 399.8 382.6 367 366 354.1 347.6 346.8 348.9 350.8 346.5 337.8 326.3 317.2 305.1 323.1 329.8 326.7 330.8 329.4 341.1 347.1 355.4 356.9 361.2 356.8 352.4 353.1 349.6 337.7 324.6 315.9 309.3 305.5 302.3 308.5 311 313.5 316 314.2 312.2 312.1 310.3 307.9 311.4 312.1 308.2 301.2 296.1 296.9 291.4 291.5 292.1 292.6 295.5 299.1 299.2 302.9 305.2 306
387 380.9 385.5 388.4 394.4 379.3 379.7 374.9 368.1 367.7 367.2 363.6 356.1 350.3 337.8 332.2 331.4 328.9 325.8 325.8 326.9 339.7 341.4 341.6 344.1 344 350.2 357.3 356.5 356.3 355.2 350.6 350.7 352.4 368.8 369.3 365.9 380.4 377.2 384.4 392.9 387.5 371.5 370.3 358.7 352.5 345.3 339.1 337.1 334 321.7 307.3 327.3 329.6 337 340.4 344.6 334.8 332.1 324.3 323 325.7 318.9 304.8 298.4 296.6 288.6 278.3 264.8 260.3 248.2 248.2 248.2 248.2 248.2 248.2 248.2 248.2 248.2 256 255.8 258.4 259.2 251.8 248.2 258.5 261.1 261.4 260.2 258 265.7 271.6 277 281.6 278.9 279.5 271.5 269.2 263.4 259.3 248.2 248.2 248.2 248.2 248.2 248.2 248.2 248.2 248.2 262.2 268.1 268.3 267.6 266.9 257.7 255.2 248.2 262.9 266.9 270.5 285.4 293.1 299.1 305.5 313.9 321.5 325.1 328.5 349.3 365.3 372 383.3 400.9 414.5 425.7 434.5 435.1 431.4 428.9 422.1 412.3 399.7 382.6 369 361.6 354.6 347.5 344.4 347.8 346.5 341.7 336.6 330.4 320 316.7 329 339.4 340.1 344.4 342.2 351.9 360.6 368.4 370.9 371.4 368.4 366.7 362.1 351.7 340.4 330 319.5 314.3 312.5 310.2 315.9 315.9 320.1 322.2 320.4 317.8 316.2 313.7 312.5 314.2 315.5 313.2 308.1 301.6 296.6 294.6 294.1 292.1 296.8 299.3 298 296.4 298.8 299.5 293.1
349.3 351.8 358.2 364.9 359.1 356.7 357 354.4 352.6 347.6 347.2 342.3 335.4 327.9 310.6 310.1 313.5 307.3 304.9 298.7 303.4 307 312 315.3 314.4 310.9 315.9 326.9 328.9 331.3 328 321.8 322 327.8 337.9 336.4 336.9 349.6 348.4 355.8 354.3 349.7 348.3 349.4 342.2 338.8 330.7 321.6 322.3 317 305.8 290.9 311.3 315 317.9 322.6 325.2 317.2 315.5 302.7 304.8 304.3 300.5 287.5 285.9 288.2 280.3 275 260.6 248.2 248.2 248.2 248.2 248.2 248.2 248.2 248.2 248.2 248.2 256.4 261.8 263.9 261.8 259.6 264.4 269.4 270.6 273.3 278.2 281.6 288.7 289.7 291.4 290.8 289.6 289 281.9 276.7 267.7 265.3 262.4 254.6 248.2 248.2 256.9 248.2 248.2 248.2 248.2 256.5 265.3 267.3 268.5 270.7 269.4 268.7 271.4 276.3 280.6 283 288.3 298.5 306.4 314.2 321.1 323.6 328.3 342.3 358.7 371.1 378.6 400.3 415.1 425 425 433 433.3 431.6 428.9 420.4 411.5 398.3 384.5 372.8 367.8 361.6 353.4 344.5 345.6 344.6 341.7 340.3 334.3 326 330.5 343 343.4 353.1 352.2 352.3 359.6 368.5 375.5 377.8 376.6 373.4 370.2 363 353.4 343.4 330.5 320.7 320.2 317.5 317.1 320.9 318.8 323.3 322.8 320.8 320.8 321.4 324.9 325.9 328.8 322.8 314.9 315.4 308.5 301.7 295.6 293.8 291 293.8 295.8 292.8 294.1 293.5 290.4 294.6
323.6 325.8 328.3 331.5 329.8 334.5 333.7 337 334.8 331.4 330.4 326.7 315.3 299.5 295 296 296.1 292.1 285.7 283.1 284.3 286.9 294 294.6 290.8 288.3 290.9 297.1 308.1 302.7 299 290.8 296.5 306.1 306.7 307.4 310.7 319.7 320.1 332.5 328.7 329 329.6 321.7 325.2 319.5 318.3 304.1 296.2 292.2 288.4 279.2 297.6 301 303.4 306.3 310.1 301.6 295.9 286.9 284.6 281.1 282.8 271 274.5 271.2 266.8 261.2 257.3 248.2 248.2 248.2 248.2 248.2 248.2 248.2 248.2 248.2 248.2 251.9 263.1 266.4 268.8 269.7 273 277 279.9 281.8 291.3 301.3 315 321.8 320.2 308.6 304.8 307.2 293.3 284.3 275.5 268.7 268.7 262.5 255.4 253.7 253.9 248.2 248.2 248.2 248.2 262.4 265.4 267.7 274 279.2 278.2 284.5 283 286.5 289.7 293.2 297.5 300.2 303.6 311.8 318.6 326.3 334.8 351.7 365.8 372.5 374.1 392.1 407.5 417.8 420.1 427.7 428.9 426 426.5 417.3 406 396.2 387.8 379.5 374.6 366.7 357.3 351.4 352.5 347.8 345.3 342.9 339.4 334.5 340.4 346.2 349.5 352.8 354.5 358.6 367.6 376.5 381.4 383.8 381.4 378.4 375 367.2 357.5 343.7 331.9 333.6 325.9 321.9 317.8 319.2 320.7 321.5 321.9 321.3 322.6 325.6 327 328.3 327 315.9 311.8 312.8 307.2 302.4 297.3 295.2 287.2 285.9 287.6 292.7 288.4 287.1 286.5 294.1
308.4 306.4 307.9 310.2 308 312 310.2 313.4 308.5 310.2 309.4 304.6 295.2 280.7 277.6 279.1 276.3 274.3 276.6 275.6 270.6 266.5 269.5 276.1 278.2 271.1 270.6 275.9 287.9 283.4 277.3 278 277 276.5 283.2 280 282.8 289.6 296.3 301.8 302 305.4 304 300.8 293.2 290.8 289.6 280.1 280.4 279.6 273 269.9 279.3 282.7 283.5 287.4 290.5 282.1 279.7 272.2 266.4 264.3 257.7 254.5 250.7 248.2 258.8 249.3 248.2 248.2 248.2 248.2 248.2 248.2 248.2 248.2 248.2 248.2 256 266.7 269.5 273.7 279.4 283.2 286.3 290.5 294.8 298 312.5 323.5 337.5 345.1 337 328.4 327.2 324.7 312.2 299.6 286.3 284.6 282.2 271.4 261 258.1 253.4 248.2 248.2 248.2 248.2 262.4 266.8 271.3 279.3 282.5 295.1 297.4 294.8 296.4 300.6 303.8 305.4 308.2 312.8 316.3 318.1 326.7 338 353.9 364 369.1 368.8 378.2 392.7 399 399.5 407.8 405.6 404.6 407.9 403.7 396.2 394 386.6 380.6 374.8 368 359.5 359.8 362.6 358.8 356.1 353.2 348.7 345.7 358.3 360.5 363.2 361.6 363.8 371 379.6 387.9 390.2 389 386.5 382.6 377.5 368.1 355.1 341.1 338.7 335.9 328.8 327.5 327.4 328 328.9 320.6 319.2 318.7 318.4 318.7 315.9 318.5 311.9 307 304.6 301 298.6 295.2 292.8 289.2 285.2 283.2 285.6 285.2 282.7 281.2 284.5 290.2
310.3 306.2 302.8 300.6 294.9 280.6 289.3 291.4 287.2 284.2 281.4 277 272.2 267.7 267 265.5 265.5 266.9 268 268.7 267.5 265.3 263.1 262.4 263.2 262 260.4 260.5 259.5 261.1 260.6 260.1 260.4 260.9 260.3 260.3 260.2 262.6 268.3 275 283.7 284 282.2 277.3 273.1 273.6 269.9 263.5 264.2 264.8 261.4 263.7 262.3 261.9 265.3 265.4 267.9 263.5 259.7 248.2 248.2 248.2 248.2 248.2 248.2 248.2 248.2 248.2 248.2 248.2 248.2 248.2 248.2 248.2 248.2 248.2 248.2 253.3 263.2 273.1 281.4 288.5 290.9 298.8 302.3 312.5 319.5 319.7 323.3 332.9 339.7 357.5 365.2 369.8 363.9 345 329.9 314.6 308.6 308 292.4 278.4 269.2 261.6 257.7 248.2 248.2 248.2 248.2 265.2 269.7 277.2 285.2 293.4 300.1 304.1 311.9 319.1 327.4 322.4 323.9 321.3 324.4 326.5 327.4 330.2 342.8 355.4 363.2 367.1 368.9 373.4 379.8 387 388.1 389.9 390.4 390.4 391.3 390.2 390.9 388 384.2 380.1 374.7 369.5 369.1 372.4 368.9 362.3 358 356.9 350.6 360.3 368.3 368.2 367.7 367.5 372 379.5 388.7 395.1 391.9 385.9 379.8 371.5 362.6 354.9 348.2 342.3 340.1 337.8 335.9 335.6 337.2 336.2 333.4 325.4 320.5 315.4 314.2 314.2 310.8 307.6 304.6 301.9 298.9 295 293.2 290.2 287.5 284.3 283.1 281.6 281 281.9 280.4 279.7 281 282.6
333.9 332.3 322.9 313.9 308.4 300.7 295.5 292.1 284.5 282.8 279.5 272.6 268.9 267.7 266.4 264.9 264.4 264.2 265.1 264.2 263.6 262.8 261.3 261.3 260.8 261.9 260.9 261.4 261.5 260.9 261 261 260.7 260.4 259.8 259.9 259 258.9 258.6 258.1 262.5 262.2 261.7 262.2 259.8 258.7 258.2 258.6 258.3 257.9 258.4 260 259.3 257.3 255.5 252.9 248.2 248.2 248.2 248.2 248.2 248.2 248.2 248.2 248.2 248.2 248.2 248.2 248.2 248.2 248.2 248.2 248.2 248.2 248.2 248.2 259.8 265.6 271.8 280.8 291.2 302.6 314.8 320.6 324.8 330 333.8 335.3 335.1 337.8 339.2 344.6 351.5 360.5 362 350.9 341.1 327.1 319.1 306.7 294.1 281.2 272.8 266.1 255.2 253.6 258.1 259.4 264.1 270 276.7 282.6 289.7 297.7 305.7 315.1 330.3 335.2 335 331.6 330.8 330.7 331.4 336.1 338.1 336.4 344.5 354.2 361.3 364.7 369.9 374 375.5 376.1 377.3 378.7 379.6 379.5 378.9 376.9 376.9 376.8 375.8 374.7 370.1 369.7 370 368.9 362.8 360.6 358.6 357 355.3 365.8 369.9 369.9 369.7 369.6 371.1 379.4 380 380.1 379.4 382 383.7 380.5 374.4 365.2 356.1 347.3 346.8 349.5 351.5 347.9 348.5 347.1 343.3 336.9 327.4 323.4 321.8 323.3 318.4 310.6 304.4 299.7 296.1 292.7 290.4 287.2 284.5 282.9 281.9 281.1 279.7 279 279.3 279.8 279 279.7
353.9 346.9 340.3 329.4 318.4 306 296.4 291.3 285.8 282.9 276.2 270.1 267.7 266.9 265.5 265.4 264.1 263.9 262.9 262.1 262.3 262.1 269.7 269.5 266.2 262.7 261.8 265 264 261.8 263.6 261 260.8 260.5 260 259.9 260.1 259.8 259.5 258.2 258.9 257.9 259.1 258.1 257.6 257.4 257.5 257.5 257.9 257.6 257.2 256.5 256.4 255 251.1 251.4 248.2 248.2 248.2 248.2 248.2 248.2 248.2 248.2 248.2 248.2 248.2 248.2 248.2 248.2 248.2 248.2 248.2 248.2 248.2 250.9 266.8 275.3 282.9 285.6 294.3 303.7 315.5 323.8 330.9 336.6 342.7 345.8 343.8 339.4 340.2 343.2 346.3 346.5 341.8 339.8 335.4 329.7 318.5 303.2 288.8 280.6 278.4 268 258.5 248.8 260.6 261 267.9 275.1 281.7 289.6 295.6 301.6 310.2 317.6 327.2 332.1 334.1 333.7 334.8 337.4 340.6 341.4 343.7 342.2 346.8 350 353.9 357.2 360.4 361.7 364.5 365.4 367.7 369.4 371.6 372.3 373 373.5 373.4 373.4 372 369.7 367.8 365.3 363.5 360.8 360.6 359.8 360 359.4 357.7 358.5 363.2 368.4 371.7 379.2 377.1 385.3 393.8 402.8 409.7 412.4 409.9 402.7 398.9 383.8 364 354.9 355.3 359.6 359 361.4 359.7 354.8 348.9 341.8 332.9 337.8 333.7 326.9 318.4 308.4 302.4 299.4 297.8 296.8 293.9 290.1 285.7 282.7 282.6 281 280.2 280.9 282.8 281.9 280.2 280.3
355.5 347.3 337.8 324 314.7 304.7 294.8 286.7 283.1 281.4 273 268.7 266.8 266.1 266 265.7 263.5 262.6 264.9 266.6 267.1 279.3 282.2 278.8 274.4 268 267.5 269.4 272.2 262.6 264.1 261.9 260.8 260.1 265.8 267.3 264.7 259.6 259.1 258.6 258.4 260.5 264.3 262.2 258.2 258.1 258.2 257.4 258 257.5 256.9 256.4 257.8 252.1 248.2 248.2 248.2 248.2 248.2 248.2 248.2 248.2 248.2 248.2 248.2 248.2 248.2 248.2 248.2 248.2 248.2 248.2 248.2 248.2 260.9 266.7 275.1 281.5 286.3 291.7 297.9 308.8 318.2 330.2 339.9 348.3 354.6 357.9 358.5 365.5 374.6 368.6 365 356 347.4 340.8 336.4 331.3 323.2 308.6 298.7 283.3 271.7 264.1 258.7 261.2 263.4 266.2 273 281.8 291.7 295.3 300.5 308.1 319.3 327 336.6 339.8 345.2 351.4 357.4 354.1 354.7 351.2 346.7 344.2 343.9 344.5 346.4 349.5 352.9 356.1 358.3 361.4 363.6 366 367.5 371.6 373.9 374.8 374.1 373.4 372.4 370.3 368.3 365 365 365.5 364 363.2 361.9 361.5 360.3 359.7 361.8 366.8 375.6 384.2 384.1 400 405.7 415.3 420.8 422.3 416.5 408.9 403.4 383.4 357.2 358.2 361.2 366.1 366.1 367.4 365.5 360.3 353.6 345.8 343.7 341.3 336.1 326.8 317 307.4 303.1 302.1 300.4 299.4 296.8 293.3 290 286.7 285.8 285.8 288 289.2 286.5 285.8 285.2 286.3
355.4 346.2 336 319.3 313.2 300.7 291.1 284 278.9 272.3 268.1 269.3 266.8 266.2 265.8 264.7 263 267.9 273.6 273.8 281.5 293.1 294.9 290.7 286.1 279.2 279.1 273.6 275.4 263.2 261.8 262.1 263.2 270.7 275.4 283.7 275.8 273.2 267.5 264.7 267.3 267.2 267 264.9 266.5 259.1 257.8 256.8 258.6 258 256.3 257.2 257.8 253.2 248.2 248.2 248.2 248.2 248.2 248.2 248.2 248.2 250.7 248.2 248.9 253.6 259.4 250.4 248.2 249.6 257.9 259.4 261.5 258.1 267.1 275.8 283.8 289.7 296.4 302 308.3 319.1 327.2 340.7 347.1 351.3 356.6 362.7 370.5 377.8 385.3 385.5 377.8 370.5 361 355.1 357.2 353.2 337.1 321.6 305.9 291.6 278.2 269.4 262.3 267.9 270.6 277.8 284.4 293.8 297.8 301.2 309 319.4 329 344.6 359.3 365.4 369.6 374.2 377.9 377.5 377.2 371.4 361.2 350.9 347.2 348.5 352.4 360 363.4 366.5 370.5 374.3 375 375 375.2 374.7 380 381.7 380.4 377.3 373.3 370.6 370 368.8 378.2 377.4 372.9 373.4 369.6 362.7 362.6 364.8 369.5 376 385.3 387.7 390.3 406 417.5 425.8 428.9 428.7 419.7 411.8 402.6 379.5 362 361.2 360.7 370.7 372.7 372.3 367.5 362.2 355.7 349.1 345.9 339.6 333.3 324.9 317 308 303.9 302.4 302.1 299.4 296.9 293.5 291.1 289.3 288 291.6 291.6 289.9 287.9 287.7 286.6 285.1
358.5 344.7 328.6 314.7 303 292.2 286.2 281 272.9 268.7 267.4 266.9 267.1 266.5 265.9 263.8 270.1 274.1 279.2 285.9 297.5 301.1 303.3 306.6 302.1 297.2 289.6 278.8 281.7 274.3 268 273.4 277 281.5 282.7 289.7 287 283.3 277.6 271.9 274.5 276.3 276.9 270.5 265.2 265.4 266.7 264.5 267.8 258.5 258.1 257.1 257.4 250.3 248.2 248.2 249.4 258.1 262.9 264.2 262.8 263.3 262.6 260.5 261.8 261.3 262.3 264.2 266.1 268.7 267.8 266 266.9 271.8 278.5 285.5 292.2 298.9 303.3 311.7 321.5 329.1 337.6 344.8 350.3 355.8 360.4 368.5 382 385.8 389 389.2 384.6 375.1 369.7 368.7 370.3 361.4 341 320.2 304.3 287.9 279.8 271.9 271 275.4 279 288.3 296 300.4 305.5 311.5 320.3 328.6 340.3 358.6 368.3 377.9 385.3 389.5 391.8 384.7 378.2 366.2 359.2 355.2 358.8 359.9 371.1 381.7 382.7 384.2 390.1 394.5 391.2 383.8 375 375.1 376.4 383.1 382.1 379 375.8 373.6 375 376.9 380.7 381.4 378.6 376.9 374.8 367.4 366.1 378.2 379.9 385.3 396.2 396.8 399.5 417.5 426 432.9 438.2 433.6 426 418.6 404.2 377 368.4 365.3 364.6 366.3 370.2 373.2 368.7 361.8 353.2 350.8 345.1 338.7 330.9 323.5 316.6 309.7 306.2 301.5 301.2 300.9 299.9 298.5 293.4 292.7 295.1 293.4 292.7 292 290.9 288.4 286.5 285.6
364.6 337.7 326.2 315.1 301.9 293.8 285.6 278.9 271.9 267.9 265.2 264.8 267 267 263.1 268.1 273.3 279.4 285.9 294.7 301.7 304.5 310.2 316.2 313.2 312.3 305.3 291 291.7 288.2 279.8 278.2 288.2 292.6 292.8 290.7 294.3 294.8 290.7 281.5 278.9 284.3 281.8 282.4 275.7 269 274.2 272.3 271.4 264.7 258.1 257.8 257.1 248.2 248.2 255.9 260.9 266 267 268.3 270.2 266.8 263.7 265.1 265.9 265.8 267.8 274.8 277.1 277.9 270.7 274.2 274.1 282.8 289.6 293.6 300.4 307 315.9 323.2 330.3 336.9 343 347.7 357 361.6 365 369.3 375.4 385.3 390.6 390.3 381.9 381 383.2 381.7 369.9 355.3 333.8 316.2 300.3 289.9 281.5 278 277.6 285.2 288.9 294.6 303.8 307.9 312.8 318.8 324.9 335.4 345.2 360.9 362.7 364.5 371.7 372.6 373.2 362.5 360.7 358.6 356.8 356.7 357.5 362 391.2 397.7 402.8 405.2 406.2 406.6 404 394.7 384.1 381.6 383.6 388.6 387.5 383.3 382 380.9 382.7 384.9 385.2 390.3 385.3 382.2 383.3 372 372.4 385.9 388.1 390.2 401.5 400.6 407.7 424.4 433.6 438.6 440.2 437 430 423.2 406.6 380.9 370.7 366.5 371.8 370.1 367 366.5 362.1 354.8 349 348 342.9 335.9 331.7 322.9 317 313.9 310.8 305.6 304.6 306.8 307.3 303.7 303.6 302.1 298.4 296.2 294.6 294.6 291.5 288.5 287.9 287
360.9 326.9 316 305.4 300.9 294 283.1 273.9 271.8 270.9 265.3 265.1 265.5 264.4 269.8 273.6 278.2 284.1 290.3 301.4 305.4 310.8 319.6 317.5 323.5 323.8 316.2 305.8 310.2 311.4 293.7 296.4 292.3 301 297 299.7 305.3 300.9 296 292.1 291.1 297.3 294.2 294.5 287.5 280.6 282.8 281.8 277.7 269.6 262.6 263 258.5 259.6 260.4 262.7 264.6 271.3 272.4 272.2 270.8 269.9 267.4 267.7 268 271.8 276.6 280.2 283.2 283.6 280.3 284.2 286.9 293.8 300.4 307.3 312.5 317 323.5 333.4 340.5 343.5 345.5 350.4 359.6 370.3 373.2 371.6 375.3 378.2 383.1 383.5 390.3 383.6 376.4 370.8 356.3 344.2 329.4 314.2 301.9 293.1 288.4 284.1 284.4 295.2 295.7 298.1 307.3 311.8 318.1 322.9 325.7 332.6 346.8 351 352.8 353.9 356.6 357.3 358.3 360.3 359.4 357.9 361.6 361.9 361.5 372.6 390.8 404.3 408.7 413.4 413.2 415.1 417.1 410.1 400 394.8 393.3 392.7 389 386.3 388.9 388.4 393.8 395.5 392.3 393.9 389.4 388.2 388.4 375.4 372.7 389.7 390 394.9 408.7 409.3 413 427.1 439.7 445.7 445.4 444.5 436.3 430.2 415.2 387.5 375.5 366 366.3 369.2 367.8 361.2 356.6 351.7 348.6 348.9 344 338.3 331.8 324.7 319.2 318.3 311.6 310.3 309.7 311.5 310.1 306 306.6 303 300.7 298.8 298 294.6 291.1 290.1 289.4 287.6
336.9 315.4 309.3 306.3 297.7 287.2 281.8 271.5 273.4 267 265 264.6 263.7 268.4 270.9 276.8 281 286 295.4 305.5 309.4 306.8 312.5 313.9 322 323 313 303.4 301 303.2 297.8 293.7 294 297.2 296.4 304.2 317.8 309 306.4 300.7 307.6 310.3 305.2 302.5 297.2 287.9 296 294.8 283.4 278.1 273.7 267.8 265.4 270.3 268.8 265.4 271 273.5 274.9 274.1 274.6 273.9 272.5 273.2 276.8 280 286.3 289.3 294.1 292.6 289.3 294.1 299.7 304.8 310 314.3 318.1 324.5 336 345.2 350.7 351.8 352.1 355.9 363.2 369.5 375.4 376.6 380.6 376 376.2 376.1 383 374.6 366.9 361.9 349.7 332.8 321.1 309.6 300.3 291 292.3 288 284.2 298.7 299.8 303.5 306.5 311.2 315.3 319.2 325.8 334 339.8 354.5 362 367.8 370 367.5 361.3 364.3 362.7 361.5 366.5 364.7 371.7 378.6 408.2 421.3 424.7 425.6 428.5 432.3 435.8 431.3 424.2 415 407.6 403.2 392.7 392.3 393.8 397.3 405.3 406.7 398.7 400.5 390 389.4 387.9 380.4 382 392.7 398 410.7 419.5 420.4 418.7 430 441.6 453.5 454.1 449.8 433.9 431.2 417.4 392.3 377.1 366.8 368.1 363.3 361.3 357.7 353.5 352.2 351.4 350.5 344.7 339.8 335.7 328.7 322.7 318.8 313.6 314.7 315.3 314.9 312.6 309.8 307.6 306.6 305.7 304.6 301.8 298.5 293.6 290.5 289.8 291.7
314.4 303.7 300 297.6 293.8 287.8 281.1 274.1 268.7 266.8 265.4 265.4 264.5 266.7 268.2 277 280.9 284.9 296.7 305 300.7 300.7 303.8 307 312.4 314.4 304.2 300.9 299.2 303.7 296.7 298.1 299.2 298.6 298.4 308 317.8 318.4 319 315.5 315.7 326.3 319.5 314.4 307.3 296.9 302.1 297.3 287.6 282.6 280 275.1 268.3 272.8 270.1 271.7 274 274.6 279.3 280.5 283.2 285.8 286.2 284.2 284.8 288.8 295.3 298.4 302.9 301.1 298.5 300.9 307.2 311.1 315.3 321 327.8 335.9 343.2 351.1 356.3 358.5 358.8 356.8 362.1 364.5 374.9 374.2 373.4 370.3 359.6 373.5 375.7 361.2 348.7 335.9 327.9 317.2 302.6 299.4 304.8 304.5 304.5 299 292.6 292.3 303.8 305.8 309.4 313.8 320.7 332.5 333 335.7 345.6 353.9 361.3 365.9 371.3 369.5 369.3 367.6 366.2 370.7 371.9 373.9 384.8 396.1 419.5 433.3 436.1 438.5 442.6 450.3 452.8 452.3 445.8 440.3 432.3 419.6 405.9 397.2 394.4 398.6 403 404.6 399.2 395.4 390 388.7 388.7 385.1 391.9 400 406 418.2 424.5 424.6 422.2 429.8 437.6 452.3 453.8 445.5 433.2 434.2 418.6 393.4 381.4 374.8 373.1 370.2 364.7 363.2 360.1 358.2 355.7 353.5 349.2 345 343.9 333.3 328.3 325 320 319.8 320.1 318.3 316.4 314.5 312.3 313 311 307.3 306.7 301.8 293.5 299.9 299.6 298.9
303.6 292.4 293.2 290.4 288.6 284.8 280.4 271.5 266.8 265.8 265.7 264.7 265.7 267.9 272 276 280 284.5 287.7 291.3 294.1 296 299.5 302.8 305.8 303.6 306.1 295.6 304 305.4 303.2 316.1 320.1 311.3 314.3 315.1 323.7 329.9 334.9 333.3 333.8 339.2 332.6 324.9 322.2 314.5 307.2 299.8 291.5 287.3 284.6 285.6 272.5 273.9 278.7 278.2 279.8 278.9 286.3 289.2 292.3 295.7 298.7 295.5 293.9 297.4 300.4 304.5 314.6 311.8 308.3 304.5 313.2 317.7 323.9 328.7 337.3 340.9 341.6 347.1 356.2 361.8 361 360.1 361.2 361.1 359 355.6 358.1 358.5 354.3 354.5 344.2 335.2 322.1 308.8 310.3 316.6 321.9 327 330.7 323.7 317.2 310.2 301.8 302.3 300.7 308.5 313.3 316.2 322.1 331.4 336.1 333.7 340.8 353 359 363 375.6 374.1 373.9 370.2 374.3 380 383.9 391.4 400.7 412.8 425 442.7 450.9 456 462.5 465.1 477.6 478.8 474.5 468.1 458 436.2 421.2 406.5 397 399.7 403 404 399.2 396.6 395 391.3 393.9 389.5 395.3 405.7 408.9 415.7 421.3 423 430 438.8 446.9 451.6 451.7 444.8 435.9 431.1 414.9 396.2 382.6 379.7 378.4 374.3 373.8 368.3 363.9 363.7 361.4 356.7 353.2 349.8 343.4 336.2 333.7 331.8 326.8 323.9 322.6 321.2 318.2 317.4 317 314.3 309.8 305.7 298.9 307.4 307.5 306.9 307.5 307.6
289.4 285.5 286.3 284.4 284.1 281.7 276 267.4 265.9 266.1 266.2 265.1 265 267.5 274.1 278.6 282.1 283.7 285.2 287 290.5 292.5 296.5 298.9 299.8 302.9 302.4 293.3 301.2 305.3 304.5 316.1 320.2 322.5 323.6 326.1 329.4 339 343.4 348.7 343.1 355.9 353 345.6 336 323.4 308.3 300.9 293.8 291 283.6 278 275 280.8 282.9 284.8 286 288.8 292.3 297.3 300 301.7 306.8 306.9 309.1 306.4 307.8 310.6 322.3 319.6 314.4 311.2 320.4 327.8 327.4 336.3 342.5 343.7 341.6 344.5 345.7 358.9 361.5 360.4 360.5 355.5 346.5 343.5 340.3 335.4 337.9 326.6 314.4 319.6 323.4 325.3 327.2 333.4 338 345.4 345.2 333.1 325 318.1 308.9 313.8 318.5 316.4 322.6 328.9 330.1 331.2 333.7 333.4 336.1 345.5 357.5 361.1 367.6 371.6 375.2 380.3 384.8 387.3 392.4 396.4 403.8 412.5 430.4 451.1 461.9 471.2 486.7 497.4 499.6 503.8 497.9 490.5 478.9 459.3 438.3 422.9 407.6 401.1 402.4 402.3 399.1 406.8 398.4 392.2 395.7 390.3 402.3 408.7 411.9 419.2 423.9 426 435.2 443 453.8 460.5 458.7 449.4 443.4 436.8 414.6 397.6 386.3 383.8 382.5 384.3 382.1 376.6 370.9 368.2 362.4 359.9 357.7 352.6 344.9 339.7 338.4 334.1 329.1 327 324.6 321.7 318.5 318.8 315.7 310.8 308.6 313.1 316.3 318.1 316.6 315.4 314.6 313.1
284 283.2 280.4 281.1 279.4 276.1 269.3 266.3 266 266 265.4 265.5 266.3 267.6 272.4 279.1 281.1 282.4 283.9 286.2 288.1 289.7 296.9 294.9 297.5 301.3 296.4 293.6 292 295.4 303.8 312.3 316.2 321.9 325.7 329.5 334.2 340.4 352.9 352.6 348.9 365.9 370.5 367.9 352.5 324.1 309.1 301.9 299 289.9 285.7 278.4 284 286.1 289.2 294.7 295.7 299.8 298.5 309.9 312 314.6 315.3 317.3 318.3 316.8 322.9 322.3 323.3 326.9 327.4 315.7 325.2 334.3 338.9 351.7 357.7 358.6 348.4 345 344.7 347.8 360 360.2 355.5 346.2 337.6 330.9 323.6 321.9 323.2 327.2 332 342.6 348 345.5 345.2 349.9 360.5 361.6 355.8 344.7 337 328.6 318.3 319.8 331.5 333.5 328.5 332.3 337.4 345.8 347.1 346.8 349.6 350.5 359.4 366 363.5 373.4 378.1 385.2 389.4 395.7 402.3 404.6 408.2 411.6 428.3 452.4 468.9 486.1 499.2 507.9 508.7 508.4 503 495.6 485.6 472.9 454.4 437.1 423 409.9 405 401.4 399.3 407.6 402.2 394.5 396.8 394.8 406.9 411.5 416.3 426.6 428.2 431.4 436.3 442.9 452.5 458.5 461 452.2 440.2 427.4 406.2 391.3 388.9 391.5 389.9 390.1 385 378.9 372.8 368.5 362 360 357.6 350.2 341.8 341.3 339.8 334.3 329 326.8 323.3 320.9 319.2 316.7 315.3 318.2 317.5 319.2 320.6 321 319.8 322.7 320.4 321.8
281 280.9 278.8 275.7 274.4 273.7 267 266.1 266.1 265.9 265.2 266.3 266.2 266.6 275.3 279 279.8 281.1 283.5 285 285 288.8 292.6 294.8 298.8 297.7 295.7 295.6 294.8 292.2 297.1 296.1 306.2 314.6 320.9 324.5 330.3 337.6 343.6 338.7 341.6 358.1 360.1 352.6 329.7 316 309.3 300.1 296.2 292.1 288.3 285.9 287 290.7 295 302.9 304.8 306.7 308.7 319.1 322.2 328.2 329 325.2 341.4 346 347.5 337.8 331.5 340.3 337.4 322.7 325.8 337.6 351.1 366.5 364.2 361.4 351.9 346.3 346.1 350.1 353.5 349.9 342.3 332.6 329 325.8 324.5 328.2 335.3 341.5 350.4 360 368.6 367.3 365.3 377.4 383 382.8 370.1 358.2 344.3 336.4 330 333.3 333.8 341.3 345.1 345.9 338.2 345.9 350.4 354.8 361.6 363.2 365.3 368.4 370.3 371 380.8 387.2 393.2 400.5 403.5 409.9 412.9 414.8 430.8 454.4 472.3 484.7 500.1 506.4 503.7 498.5 492.6 479.8 473.6 464.5 453.7 442.1 426.2 408.7 407.3 408.3 413.8 411.2 406.3 402.2 401.6 397.3 407.8 409.6 414.6 419.6 425.1 428 433.9 438 439.5 445.6 446.7 441.3 426.9 414.7 398.3 386.4 389 387.2 385.8 380.5 373.3 365.6 363.4 357.2 354.5 352.5 347.7 340.9 337.5 338.7 335.6 332.5 331.3 330.8 327.6 323.9 322.3 324 323.6 324.3 325.2 325.6 326.2 326 324.3 326.5 326.5 330.1
278.5 275.5 274.5 274.1 272.5 269.8 266.4 267.3 268.3 268 265.7 266.2 267.4 267.5 275.9 277.6 278.6 279.8 283.6 283.4 284.6 289.3 294.2 295.1 297.6 296.5 297.6 297.1 290.6 288.5 289.2 290.7 299.1 308.9 311.5 314.9 315.8 321.2 326.3 325.7 331.5 335.6 330.8 326.2 318.4 310.3 305.1 297.9 295.5 292.7 288.4 289.8 293.8 295.9 303.2 309.2 311 314.4 314.1 322.5 328.8 334.9 340.8 345.3 358.3 358.6 361.2 349.8 342.6 344.2 334.6 329.1 336.4 348.7 361.6 369.1 370.8 366.9 359.1 348.8 344.9 342.4 340.3 336.6 333.2 333.6 331.1 329.6 330 338.1 348 357.4 371.9 380.4 387.4 391.2 384.2 391.2 396.7 395.1 378.9 361.7 346.8 342.7 338.2 343.8 344.3 345.6 351.2 357 360.5 358.8 348.6 357.7 362.3 366.7 370.3 370 370.5 370.9 377.2 389.4 398.6 402.8 408 410.8 413 415.3 430.7 448.9 460.6 469.7 475.7 483.1 476.1 470.3 467.1 450 437.9 433.1 432.8 427.4 432 427.1 429.6 428.8 428.5 424.2 416.5 415.7 414.1 406.6 405.3 412.7 417 420.4 420.3 423.8 427.3 429.4 428.3 429.4 422.3 418.6 415.4 415.6 400.3 388.9 386 379.8 381.4 381.4 381.1 377.4 372.8 367.9 364.6 358.3 352.7 344.2 340.4 336.3 335.2 335.3 333.9 331.4 332.1 329.1 326.6 329.5 328.9 329.5 330.1 330.1 330 329.9 329.5 331 332 334.4
276.6 276.1 275.4 269.9 269 266.9 266.7 268.3 268.4 268.5 267.6 267.4 267.3 267.9 272.1 276.2 276.8 278.7 279.2 280.2 285.9 290.7 296 296.1 296.6 296.3 296.4 289.7 288 287.6 287.9 288.2 296.5 304.9 311.5 301 303.5 311.1 314.8 327.1 326.2 323.5 319.7 317.1 313.3 307.6 303.3 297.4 295 292 292 296.6 304.2 307.1 307.4 312.3 317.6 326.8 328.7 328.7 335.8 342.1 348.3 354.5 362.6 363.3 364.2 354.9 347.1 344.4 339.8 332.9 343.2 354 364.1 366.5 365.6 364.5 354.7 346.5 343.8 342.2 339.9 335.7 336.4 340.3 332.5 331.6 336.7 349.2 360.4 372.5 382.4 391.8 404 404.5 401.7 398.3 398.9 390.9 377.2 360.6 345.1 342.8 341.5 343.1 346.9 351.8 356.5 360.7 365.5 369.1 367.8 365.2 358.7 364.8 366.7 367.6 369 370.5 374.1 387.4 398.8 403.9 410.4 412.7 411.4 419.7 430.2 444.4 457.2 462.3 460.6 456.8 449 451.9 453.9 445.5 446 451.1 453.1 456.3 454 444.1 439.1 435.1 431 428.9 425.8 419.7 421.3 412.5 415.1 424 419 422.8 422.6 424.7 427.9 428 429.2 434.9 437.6 437.4 432.3 423.2 405.4 397 395.9 394.9 395.3 393.3 389.9 384.4 379.5 373.7 367.8 360.9 353.7 345.9 341.3 338.8 338 336.7 338.8 338.9 337.5 335.7 331.7 335.5 332.7 332.5 334.6 334.6 333.8 334.5 336.7 335.9 337.1 336.2
276.2 274.2 271.8 267.7 267.2 268 267.2 269.5 269.2 268.9 268.3 269 268.4 268.6 273.9 275.1 275.8 276.5 278.6 282.6 286.2 291.7 291 292.2 293.3 294.9 295.1 293.3 288 287.3 287.4 288 291.8 301.6 300.1 298.3 299.1 304.8 313.3 322.3 322.5 319.2 317.8 319.6 316.2 310 303.4 298.4 294.9 294.9 298.7 299.9 307.9 312.2 311.3 324.4 332.3 332.2 337.4 338.3 342.8 348.8 354.5 358.2 359.3 364.1 367.8 358.5 353 344.9 347 347.3 343.8 351.2 362.1 360.7 358.1 356.6 354.9 350.8 346 342 339.6 339.6 340.7 341.6 343.6 344.6 344.8 359.9 373.5 387.2 394.8 399.5 404.2 412 405.3 389.2 393.4 388 373.5 356.7 346.8 349.5 350 347 349.8 355.8 361 363.1 364.2 368.7 372.6 374.3 376 376.8 370.9 367.4 372.4 376.9 380.7 392.3 403.5 411.4 416.6 423.9 420.5 427 438 443.9 449.6 454.8 456.9 457.6 464.4 467.2 463.7 463.1 464.8 471.3 470.7 474.7 473.5 463.3 456.1 448.7 442.2 438.8 432.1 430.3 429.8 414.4 425.4 429 427.3 426.1 430.7 429.6 435 436.6 446.9 453.5 457 453.8 449.6 431.6 415.6 411.7 411.2 413.3 410.6 402.4 394.5 392.7 386 377.7 370 362.5 354.3 347.1 345.3 345.4 346.3 349.1 348.1 346.5 344 341 338.5 340.4 336.8 337.7 338.4 337.6 337.8 340.8 342.2 341.8 341.2 338.2
270 271 268.8 268.4 267.8 267.4 268.2 270 269.6 269.9 268.7 269.5 269.8 268.3 271.5 274.2 276 278.2 279.5 281.9 288.8 292.6 288.1 288 290.9 293.2 291.8 288 287.8 288.4 288.4 288.6 288.5 291.7 293 295.2 296.8 304.4 314.4 318.5 318.2 313.8 314.3 316.2 311.8 307.8 302.3 298.7 298.2 300.7 305.9 307.6 313.1 321.7 329.6 336.7 338.8 338.5 341.2 344.1 346.1 349.5 353.1 354.8 356.7 360.6 361.2 356.6 350.3 343.1 347.8 349.7 347.7 349 354.2 358 359.3 359.4 357.5 354.6 349.8 344.6 341.8 343.2 341.3 356.3 363.2 362.4 361.7 373.7 391.8 395.3 401.4 409 404.8 404.4 392.8 377.9 379.3 377 363.2 356.3 355.9 357.1 356.3 352.7 357.1 360.8 370.8 371.5 372.2 373.4 373.7 375.3 382 392.6 391.5 389.1 381.7 382.3 388.9 393.9 404 410.9 418.6 423.4 430.2 433.9 441.6 446 452.2 455.8 458.3 461.5 467.1 470.2 470.1 471.7 474.8 479.4 483.1 487.7 484.2 474 467.6 456.8 448.9 442.1 436.3 433.1 430.9 420.4 431 435 438.3 440.6 440.5 436.4 445.2 454.9 464 466.4 465.7 458.8 449.7 427.8 417.2 415.2 414.4 417.3 412.4 405.7 397.2 387.9 378.5 371.2 364 359.4 355.8 351.5 351.2 351.8 353 352.8 351.2 349.7 347.1 343.1 343.4 342.9 339.8 341 341.2 342.6 343.2 345.3 345.3 344.9 343.4 340
268.6 268.7 268.1 267.9 268.4 268.1 268.5 269.6 270.5 271 269.6 269.9 270.3 270.1 271.1 272.9 275 275.2 278.1 282 292.1 290.4 286.9 285.7 286.5 287.6 288.2 287 287 287.1 287.5 288.4 289.3 290.2 295.8 298.9 297.9 303.5 314 313.2 313.2 311.9 309.7 308.3 308.3 302.9 300.5 299.7 302.5 307.7 312.7 318.8 325.6 331.3 338.3 344.5 345.3 344 345.1 347.6 348 350.8 352.8 355.4 356.6 357.2 357.6 356 353.6 348.9 350.2 350.9 349.1 350.3 356.6 360.7 362.5 362.3 360.2 358 354.5 349.6 345.5 345.3 350.9 370.4 378.6 372.2 368 375.8 396.5 404.4 406.5 405 395.1 386.1 375.3 371.6 368.8 371.6 370.2 365.7 367.1 372.2 374.2 372.6 369 372.7 374.3 381.2 385 387.4 386.3 388.7 393.1 396.5 400.5 400.9 398.4 394.4 393.4 397.4 403.4 414.3 419.3 429.9 433.9 438.6 448 453.2 457.1 459.6 462.1 464.3 468.2 471.7 472.3 475.7 478.6 481.6 480.3 479.3 475.7 468.7 460.2 453.5 446.3 442.1 436.7 441.3 431.6 433.3 440.8 446.4 450.2 450.8 442.3 444.9 452.1 463.3 469.5 470.3 466.7 457.6 444.7 429.8 417.3 415.4 412.7 412.2 405.9 400.7 391.3 381.4 373.5 369.4 367.4 363.8 359 356.2 356.4 357.9 359.7 358.8 357 352.6 347.4 348.7 347.1 344.5 343.6 344.8 347 347.7 347.9 348.2 347.8 346.8 344.6 342.1
269.9 269.5 270.1 269.5 269.1 268 269.5 271.8 271.8 272 270.1 270.4 275 276.1 279.7 278.6 277.1 280.2 281.2 282.7 286.7 283.4 284.6 285 286.1 287 285.7 286.5 287.8 287.4 288.3 289.3 290.2 291.2 292 298.1 301.2 302.8 310.4 310.9 311.3 310.1 307.8 305.9 303 302.6 304.3 306.9 312.3 316.3 320.3 324.3 329.4 336.9 343.1 348.5 350 349.1 349.7 350.9 351.4 351.3 352.5 355.4 358.9 359.3 360.6 360 358.3 356.3 356.3 357.2 354.5 357.3 358 359.4 365.4 363.9 363.5 365.3 364.4 356.3 347.5 351.7 346.6 376.4 387.8 382.6 375.4 382 392.1 393.9 395.6 388.6 380.5 375.9 379.4 380.8 380.6 379.5 381.2 373.2 381.2 385.7 385.2 384.9 383.6 383.6 388.6 389.4 393 395.6 397.4 401.5 405.6 406 410.8 413.7 417.8 421 417.2 412.2 416.8 421.4 425.1 432.6 436.8 448.1 455.3 460.8 464.5 471 472.3 473.6 473.9 474.6 476.7 476.9 482.3 482.4 479.8 478.3 477.7 472.5 464.3 456.4 449.3 446 450.5 446 437.4 445.9 452 458.4 460.6 459.1 445 456.6 463.2 475 482.8 484 476.4 464 451.1 430.6 418.1 415.3 411.2 408.2 401.5 397 390.4 381.8 376.6 373.9 370 366 364.8 362.3 360.5 362.1 363.1 362.1 358.6 353.4 352.6 351.4 348.2 345.9 347.3 348.5 350.6 350.8 350.3 349.8 349.1 346.7 344.7 344.1
272.5 270.9 270.3 269.8 268.7 268.4 270.8 272.2 274.4 276.9 275.3 277 281.5 288.2 289.3 285.3 279.3 284.2 289.2 289.1 290.5 289.6 284.2 284.9 289.6 293 291 288.8 288.4 287.9 288.9 290 291.1 292.1 293.9 297.9 300.7 304.9 307.9 309.1 309.5 308.8 307 306.2 308.5 309.5 314.9 318.1 322.5 325.3 326.1 328 333.5 341.1 347 351.2 354 350.5 353.5 356.4 354.4 352.5 354.2 357.4 366 373.8 372.2 369.4 364.3 360.6 362.2 361.8 360 364.3 363.7 365.5 366.5 366.9 372.8 376.5 370.6 364.2 356.5 358.8 355.5 377.3 395.5 395.9 390.6 389.8 392.6 387 383.8 383.7 384.5 387.8 398.9 397.8 392 387.4 389.9 385.2 392 394.7 393.5 391.2 389.8 392.3 398 399.9 400.2 401.6 406.5 411.8 415.9 418 419.5 424.2 430.8 435.8 437.5 434.1 429.2 429 433.6 437.6 442.9 455 465.6 471.5 476.6 480.2 480.4 480.5 481.7 480.2 481.6 478.4 482 484.2 482.5 481.2 482.4 478.8 471.5 465 463 458.7 458.3 451.7 443.6 456.2 461.1 467.7 470.1 467.8 458.1 461.1 467.9 478.8 489.3 489.7 477.8 465 447.4 424.5 418.9 414.6 410.2 407.1 407.1 402.3 393.7 389.4 382.3 380.4 375.3 371.2 370.4 367.8 365.6 365.3 363.5 359 356.7 357 355.8 353 350.2 347.3 350.5 352.9 353.2 352.7 353.4 352.2 350.7 350.7 348.6 347.8
275.5 275.4 274.6 273.6 271.8 270 273.1 278.5 278.6 284.4 285.1 289.3 291.8 294.1 294.4 290.3 288.5 288.2 299 295.7 295 288.3 284.9 285.6 290 294.1 294.7 290.2 289.1 289.4 288.8 290.8 291.8 294 294.8 296 299.9 304.1 308 310 310.5 309.4 308.2 312.8 316.3 317.8 321.1 326.4 330.3 331.7 333.7 336.6 341.7 344.9 352 357.8 355.7 351.4 357.3 360.9 355.9 354.8 363.5 379.6 379.7 378.2 381.5 376.9 373.1 369.3 375.9 371.6 372.1 369.3 371.6 369.1 371.7 375 377.9 377.5 374.4 370 369.6 368.5 371.2 373.7 387.5 400.5 394.7 390.8 391.4 397.3 394.1 397.7 393.1 405.6 412.8 410.9 405.4 399.9 391.1 390.7 394.9 400 402.6 401.4 399.4 398.6 402.9 408.3 408.7 413.7 417.9 419.5 424.1 424.9 423.4 436 442.2 446.3 448.9 446 441.4 442.8 441.1 446.1 454.8 469 476.1 480.5 488.7 489.2 486.9 486.8 487.3 485 488.9 484.1 485.1 487.7 487.2 491.2 494.2 490.5 483.3 478 475.3 466.3 466.2 459.1 461.5 467.5 467.3 474.4 478.3 475.6 469.4 465.6 471 479.3 482.4 483.4 470.6 458 441.9 423.7 421.2 414.6 411.8 411.7 410.5 404.1 395.9 392.3 386.5 385.4 381.7 377.5 375.3 372.4 371.7 367.3 364.3 363.1 361.7 360.7 357.4 354.9 352.4 349.4 353 355 355.8 356.5 356.2 355.1 354.1 353.9 352.6 353.3
276.9 274.8 274.3 273.7 276.7 278.9 284.9 289.3 290.1 299 306.6 308.5 308.5 307.8 302.7 296.6 290.2 301 303.4 302.2 295.1 288.2 284.9 287.5 295.8 300.9 297 290.6 290.4 290.1 290 290.7 292.9 295 296.3 297.4 300.6 305.5 307.4 311 311.2 311.4 314.5 320.1 323.7 325.5 327.4 333.5 336.6 340.9 341.5 344.5 345.3 350 352.5 355.3 353.9 351.2 359.6 361.9 358 368.2 380.6 386 385.1 381.6 380.6 379.3 376 376.4 376.8 375.4 377.1 378.2 375.9 376 380.8 384.7 382.2 384.4 383.1 382.3 378.9 381.3 377.9 378.4 375.6 379.6 389.3 390.7 398 405.4 404.4 410.4 411.1 414.1 417.8 421.9 413.8 408.9 397.7 394.6 403.1 412.9 416 414.9 408.8 406.6 411.1 416.4 419.6 423.7 428.3 427.8 430.1 434.3 438.4 440.8 450.5 456.3 456.4 454 451.8 452.1 450 451.2 466.1 478 484.6 490.6 496.3 494.8 493.6 494.8 493.8 496.5 498.6 494.9 492 490.3 496.6 501.1 503.4 499.7 493.5 490.3 484.9 478.8 472.2 466.1 471.6 476.6 477.8 480.8 480 473.1 472.5 471.5 475.6 482.5 482.6 478.8 467.1 457.8 441.9 425.5 420.8 416.6 414.3 415.6 414 404.7 399.3 395 393 391.5 389 384.7 379.5 376.3 369.8 372.3 371.4 367 366 363.4 360.9 360.8 357.1 356.1 355.8 357.9 360.1 359.3 360.6 359.3 359.8 360.9 359.8 358.7
283.3 279.3 276.5 280.4 285.8 287.2 291.1 293.4 302.5 321.7 325.1 331.7 328.4 322.2 308.9 300.1 293.8 300.7 303.3 303.8 292.9 287.7 287.1 289.9 299.4 300.5 293.8 291 291.5 290.8 290.4 290.5 292.5 298.2 301.8 301.8 306.7 306.5 308.9 312.2 315 317.8 323.9 330.3 334.6 336.8 336.1 344.3 350.9 354.2 357.8 359.1 358.8 354.4 355.4 357.1 353.1 353.3 361.7 363.6 369.7 378.3 390 390.4 386.4 382.4 379.8 378 374.8 376.9 378.9 387.5 397.4 391.2 401 395.1 394.8 392.1 393.4 401.4 397 391.6 387 387.4 386.7 385.7 382 389.3 394.6 393.9 397.9 407 413.2 418.4 425.2 423.7 425.1 428.1 418.2 408.9 404.8 407.9 404.3 418.5 424.9 423.4 418.8 413 417.4 420.8 429.8 432.8 437.8 438.3 441.5 444.4 447.1 452.9 451.9 456.7 457.8 461.9 462.9 461.7 468.1 463.8 464 476.8 489.7 495.9 502.5 502.3 503.3 504.4 502.6 506.9 506.8 502 499.9 501.9 504.3 507.2 508.7 506.5 502.5 499.1 497.4 488 478.7 473.6 478.5 484 485.9 488.9 487.7 484.3 479.2 477.3 481 486.4 488.9 484.3 475.6 464.1 446.2 430.3 426.6 421.6 420.6 419.3 414.9 405.7 403.3 400.9 401.5 400 393.9 387.5 384 378.2 373.4 376.5 373.3 370.6 370.3 365.6 364.8 363.6 362.5 362.9 360.4 360 362.7 362.2 365 363.9 364.3 364.3 363.2 362.5
287.6 287.5 290.5 291 292 294 297.6 307.9 324.5 334.5 347.7 365.5 343.7 331.9 316.6 310 305.8 301.9 302.7 299.1 292 290.3 289.6 290 299.6 299.1 293.2 292.4 292.8 292 291.2 290.6 298.7 306.9 304 302.8 309.4 312.1 314.1 317.4 319.3 326.2 331.3 339.2 343.2 344.1 346.8 353.8 361.7 363.7 365 363.6 361.6 358.9 360.1 359.7 354.5 358.3 364.5 368.9 372.3 382.7 391.7 388.6 383.1 380.7 379.1 377.8 377.9 381.3 384.4 391 406.5 403.8 403.1 400.2 397.8 398.3 399.6 399.6 397.5 394.5 392.3 390.9 387.1 395.9 392.3 389.9 400.9 401.8 397.5 411.3 420.2 428.5 426.9 428.8 427.5 423.8 419.8 408 410 413.6 405.5 411.7 423.1 426.5 422.9 419.1 423.8 429.2 436 443.5 444.8 447.5 451.6 455 452.8 462.8 460.6 465.5 467.1 469.1 469.5 469.3 479.5 481.5 475.3 480.1 492.9 503.7 506.7 510.2 513.3 513.2 510.2 515.6 513 507.6 507.6 508 511.5 514.3 514.2 512.8 508 503.6 504.8 494.7 486.1 482.4 481.9 489.4 491.7 495.5 495 488.4 482 480.6 486.1 492.1 495.4 492 479.9 466.8 447.1 437.3 432.5 426.4 424.2 424.1 418.7 412.7 410.5 407.9 406 402.6 395.8 389.9 387.4 382.1 382.6 381.6 378.2 376.4 372.7 370.8 368.3 367.8 366.2 367.6 366.9 364.1 365.3 368.4 367.9 368.2 369.1 369.2 368 370.2
295.6 300 297.5 300.4 304.9 310.5 315.7 331.8 343.9 352.7 371.9 379.2 354.3 335.6 327.3 320.8 312.4 304.3 303.1 299.2 296.1 294.2 291.2 291 296.9 296.5 294.2 293.9 294.2 293.5 292.6 295.2 304.8 307.3 305.9 308.3 314.6 319.3 320.5 324.6 326.6 333.2 339.1 345.4 349.9 354.8 357.8 363 367.2 369.5 369.8 369.9 366.7 362.7 362.2 359.7 361 365.2 366 368.9 376.9 384.6 390.8 385.9 381.7 379.9 381.4 385 383.8 386.5 386.6 394.2 399.5 406.5 406 403.9 402 401.8 402.1 401.5 399.5 397.8 394.7 394.5 388.4 395.5 398.9 394.6 391.4 401.7 406.9 409.5 421.8 435.7 437.9 434.3 428 421.5 417.7 414.3 415.6 419.1 418.4 414.8 422.8 429.1 430 427.9 429.2 435.8 439.7 448.9 453.2 454.9 456.7 460.4 461.7 466.8 470.6 469.4 478.2 480.4 480.8 481.7 483.8 487 486.7 490.1 496.6 507.6 513 517.5 520 515.8 518.8 524.1 521.3 518 511.9 511.3 519.3 521.4 522.1 516.2 509.8 508.2 509.8 500.6 495 490.7 491.6 492.8 501 504.5 502.4 495.1 486.9 485.3 491 497.3 499.6 495.4 483.3 470.9 451.8 447.3 436.5 430.1 427.1 430.1 426.2 419.6 415.6 413.8 410 404.3 401 396.1 391.4 382.9 388.4 385.4 385.3 382 379.1 375.5 373.2 372.8 369.3 370.8 370.5 368.9 374.3 374.6 374.5 375.5 374.7 375.2 374.4 378
305.6 306.5 314 315.5 316.4 325.2 338.4 359.8 371.2 384.8 402.6 400.6 368.5 352.7 344.7 338.2 319.8 308.6 304.4 304.2 299.9 298.5 294.9 292.3 294.3 296.7 296.8 296.6 295.9 295.4 297.9 302.4 305 307.6 311.3 318 322.4 326.5 330.4 332.7 334.8 340 346.7 352.7 357.7 362.4 364.4 369.1 374.9 380.3 381.7 379.6 375.5 370.5 369.2 362.2 362.8 367.9 370 370.6 379.7 385 386.2 383.7 380.4 381 382.2 384.8 391.3 391.4 389.4 398.8 400.8 407.4 405.6 405.4 404.1 402.7 402.6 401.3 399.5 398.8 399.3 401.6 401.8 392.3 402 400.8 397.2 399.8 407.5 412 415.1 419.7 423.9 423.4 421.8 419.7 424.1 425.4 426.1 424.8 419.3 419.5 428.3 432.7 434.5 436.8 438 441.8 446.9 455.5 460.5 460.8 466 469.3 471 472.3 476.5 477.2 487.6 491.7 491.5 494.7 492.5 492.5 499.7 499.7 500.6 510.7 520.5 525.5 526 521.3 525 528.2 524 522 518.1 517.9 529.5 529.9 524 519.1 517.6 513.7 510.6 505.6 503.3 500.9 502.2 506 512 513.6 510.4 503.7 490.4 488.8 498.8 506.3 507.9 503.1 491.8 477.6 459.4 448.8 440.8 438.3 434.4 434.6 431.3 421.8 422.2 421.3 416.3 409.4 404.7 399.7 394.2 388.4 392.3 391.8 392.5 388.2 383.9 378.6 377 376.9 376.7 377.3 381 380.4 382.6 382.2 380.2 382.1 380.1 381.3 384.2 384.9
316.5 324.9 326.2 326.3 337.3 348.8 368.4 387.1 398.5 421 421.1 408.3 383.5 365.7 364.6 347.9 332.6 314.7 308.6 305 301.2 297.5 296.3 294.8 298.5 297.3 298.8 297.9 298.2 301.4 306.6 305.1 307.3 316.2 319.9 326.2 329.4 331.9 339.6 343.2 343.6 346.4 351.6 360.9 364.9 368.4 372 376.7 380.7 385.3 385 381.7 378.6 374.9 369.7 369.1 367 366.4 370.9 373.2 379.4 385.3 386.5 383.4 383.6 385.6 382.6 387.5 391.7 391.3 391.6 398 400.1 402.4 404.2 404.7 405.5 406.8 405.9 401.7 404.2 405.5 406.3 406.8 406.8 405.7 402.4 405.7 399.2 405 406.4 414.5 412.9 417.5 421.1 426.1 428.7 429.4 429.6 432.2 432.9 428.4 419.9 426.7 432.2 434 436 441 444.6 446.4 450.3 456.4 462.3 463.8 474.5 479.2 480.5 475.2 483.1 486.7 487.5 495.3 501.4 506.4 504.1 504.8 513.1 514.2 509.3 515.2 525.6 530.7 528.9 528.1 529 527.3 524.6 522.1 521.2 527.5 537.6 535.5 530.6 527 522.2 517.5 516.5 515.3 509.7 509.7 512.1 514.4 518.2 517.3 512.3 505.1 495.6 494.2 502.9 512 513.2 507.2 494.6 484 468.6 460 446.7 446.4 443 437.2 432.1 430 429.7 428 421.5 414.8 408.7 401.7 395.2 391.6 395.1 395.3 395 391 387.6 387.4 387.3 387.2 385.5 385.9 387.7 386 389 389.3 386.3 386.4 387.4 390.4 390.3 390.1
329.6 332.8 337.8 345.8 363.8 379.1 396.2 405.9 428.5 440.7 436.5 421.3 397 379.2 370.4 353.1 335.2 318.7 309.8 307 304.5 300 296.5 296.7 299.8 299.6 301 300.5 304.2 308.6 308.5 307.7 310.2 317.5 323.3 331.6 335.5 336.4 344.6 351.1 351.2 353.6 359.8 364.8 372.4 375.8 379.3 384.3 388.2 389.2 385 381.9 377.4 379.7 382.4 376.7 376 371.7 370.8 374.1 380.9 386 387.2 386.5 385.5 387.1 384.9 387.3 389.8 396.9 396.2 399.4 403.7 404.7 405.8 409.3 409.6 409.4 406.2 409 409.4 411.3 409.8 411.5 412 411.7 408.9 404 407 405.6 408.1 416.2 420.2 418 422.9 434.2 444 442.6 436.1 433.7 430.6 425.7 426.3 429 433.5 436.4 439.2 448.8 452.4 450.9 453.9 461.4 468.6 470.8 478.9 486 489.5 484.5 489.5 494.8 497.8 499.4 504.6 511.3 512.4 516.3 519.8 520.8 512.1 516.7 529.3 533.4 531.1 530.9 531.7 531.3 529.9 527.2 527.6 535.8 541.8 541.4 536.6 531.2 524.2 523.7 522.9 525.2 522.4 520.1 521.8 523.5 522.5 521.7 515.8 505.8 502.6 498.5 504.8 512.2 512.9 507.3 497.7 488.7 471.8 460.9 448.9 452.1 447.8 441.7 436.6 435.2 433.1 429.3 419.9 413.1 411.3 405.7 400.9 396.5 400.2 399.9 397.3 397 395.4 398.2 397.8 396 395 395.8 394.4 392.1 395.5 392.4 392.4 393 395.8 395.7 395.3 396.6
344.7 351.5 362.7 371.9 396.6 406.5 414.7 437.8 452.5 452.1 449.2 431.2 408.2 394.1 379.3 363.6 348 328.4 317.3 307.5 304.2 300.7 299.3 297.9 301 302.1 303.7 304.4 312 314 312 311.2 315.1 322.7 330.9 338 342.6 343.8 347.2 350.1 353.8 359.9 366.7 375.5 377.8 381.3 384.1 387 390.8 389.9 386.3 384.6 384.3 386.9 385.4 384.1 382.7 376.2 372.2 371.8 378.1 387.3 387.1 387 387.2 388 389.3 389.8 393.3 400.5 399.9 399.7 406 409.5 408.7 412.5 412.3 411.2 407 412 415.5 419.4 420.2 414.9 416.1 415.7 414 411.3 414 417.7 417.1 416.5 422.5 422.2 422.1 429.6 440.1 438.6 434.4 431.5 429.5 431.5 430.2 431.5 434.6 442.3 447.1 449.7 454.9 455.7 459.8 464.7 471.3 473.5 486.8 494 497.5 493.7 498.7 501.1 506.9 504.6 512.8 515.7 522.7 525.3 524.4 522.8 522.8 518.1 527.3 532.8 534.4 535.4 536.8 534.3 533.9 533.2 534.2 544.6 545.4 542.1 539.6 536.8 538.4 539.7 539 535.4 531.9 528.8 527.7 525.8 527.9 524.2 519.2 512.3 508.4 504.3 507.8 513 515.9 512.6 502.1 493.4 477.7 464.1 456.5 455.9 445.1 443.5 439.2 438 436.7 430.8 423.6 415.9 416.1 410.4 400.9 405.3 405.6 405 404.4 405 404.7 404.6 404.3 403.6 401.6 399.9 398.1 399.9 398.1 400 401.7 400.4 400.4 401.9 401.9 403.2
363.5 371.7 386.1 402.6 414.6 427.2 446.5 460.7 468.4 466.3 457.3 448.2 428.5 407.5 392 370.9 349.9 331.2 320.9 312 306 303.7 302 298.9 302.5 304.1 305.3 307.9 313 318.2 316.9 316.1 319.5 330.9 336.7 344.9 349.4 351.9 356.1 359.2 357 364.5 372.8 380 379.3 383.6 386.7 387.8 391.5 390.1 387.5 386.6 389 388.6 388.6 392.9 389 384.5 381.5 374.8 376.6 382.1 386 387.7 390 392.2 395.9 395.3 401.9 404.9 404 402.8 407.8 412.3 414.2 413.7 417.2 418 414.5 416.7 420.6 421.7 422 421.8 422.4 423.8 421.2 418.6 419.7 424.4 425.6 422.5 424.3 424.9 422 424 428.9 431.3 433.1 432.8 432.4 436.4 436.5 440 440.5 446.8 454.5 453.3 457.2 465 466.9 471.7 476.9 482.5 494.6 498.8 501.5 497.2 507.1 509.4 510.5 513.6 516 522.4 525.8 526.9 529.1 525.6 526.6 524.9 527.4 532.6 538.8 543.1 542.8 539.5 539.8 538.6 540.1 548.4 546.9 544.2 546.4 547.3 548.3 551.3 546.4 546.2 539.6 530.6 530 533.3 534.5 532.3 526.8 524.1 514.8 510.5 513.7 517.2 518.6 514.3 506.5 497.4 483.5 467.5 458.1 454.9 446.1 446.2 441.8 441.2 439 432.4 427.8 421.9 422.5 414.3 406.8 412 414.4 414.7 412.8 412.9 411.4 410.4 410.4 409.6 407 406.6 407.2 408.9 408.4 408.2 406.9 408.4 405.4 406.7 410.4 409.7
389.3 399.8 414.2 429.3 436.5 454.1 467.4 480.2 475.6 471.9 465.7 452.7 444.8 425.6 410.5 383.8 355.6 338.3 325.9 318.8 312.2 306.9 303.1 302.4 304.2 307.2 313.8 315.5 321.7 320.1 324.9 326.2 325.3 332.2 339.1 347.2 354.2 355.2 360.3 365.6 359.3 366.5 374.6 379.1 382.6 384.6 388.5 390.6 392.3 391 388.7 388.9 391.4 391.2 394.4 398.1 394.1 390.3 387.6 382.1 387.5 386.4 390.6 394 396.3 398.5 400.2 405 403.8 409.3 408.4 408.2 411.5 417.6 419.3 420.1 423.8 425.2 424.4 427.1 429.4 429.7 433.3 431.6 429 427.6 426 423.1 420.7 426.2 427 426.1 425.3 426.6 424.2 424.3 425 430.2 433.4 433.7 436.1 438.5 437.8 445.2 448 451.4 453 455.1 459.8 467 473.2 476 481.2 490.9 500.4 504.8 506.1 504.2 511.3 519 518.1 524 525.6 527.8 528.3 531.8 531.4 529.8 533.1 532.1 532.7 533.4 541 545.3 547 544.6 545.2 544.1 544.4 548.9 547.1 551.1 551.3 550.9 550.7 551.6 547.7 542 535.4 536.2 541.7 544 548.9 546.6 538.8 532.5 522.4 517.9 519.7 523.6 524.8 516.9 509.6 499.4 479.2 465.5 455.3 454.1 448.6 449 445.5 447.3 442.4 437.7 432.8 427.3 424.4 410.7 416 419.6 421.3 422 419.2 418 417.7 417 416.8 414.6 413.5 414.8 415.6 414.6 416.1 415.2 414.9 415.4 410.3 413.4 415.6 416
413.2 424.1 436.3 447.8 468.8 480.1 488.1 495 491.5 486 480.9 465.2 458.4 436.5 427.9 395.2 368.1 349.6 335.6 327.9 318.7 311.6 305 305.4 307.6 314.5 320.9 323.9 324.1 322.3 329.1 330.3 332.4 339.8 345.7 351.6 356.9 360.1 364.6 369.8 365.4 368.2 375.6 381 386.6 389.2 390.4 392.3 393.8 393 389.5 389.9 394.5 398.7 400.4 403.9 397.4 394.9 399.4 395.4 392.8 391.2 392.8 396.2 401.8 402.3 404.4 406.6 407.5 411.5 412.9 417.9 420.3 422.5 424.1 425.6 426.9 430.4 431.3 433.5 436.1 436.8 439 438.2 434.4 432.9 429 426.2 422.7 427.2 428.1 428.6 426 427.6 426.5 426.1 428.6 429.6 431.8 436.2 438.6 440.4 440.9 450 452.3 456.9 460 464.1 464.4 470.2 475.8 481.7 488.4 495.2 506.3 509.9 512.4 507.9 515.9 524.2 525.5 530 532 532.3 530.9 531.3 535.3 536.3 537.8 536.5 534.9 536.9 538.4 544.9 549.7 549.9 549.5 547.3 546.2 547.4 550 554.3 555.4 553.7 551.1 551.7 547.7 542.8 539.2 542.2 547.7 551.8 554.9 551.3 541.9 534.2 527.1 521.2 525.3 528.3 527.8 517.1 509.4 496.5 479.4 466.3 460.1 459 457.2 455.4 450.3 452.3 445.5 440.8 433.1 424.2 419.4 422.4 421.1 425.4 425.4 426.2 426.1 425.6 424 424.4 423 423.1 422.6 424.5 423.4 423.1 422.8 421.9 420.9 419.9 416.9 420.4 422.6 422.2
438.2 449.7 456 472 488.4 494.3 502.1 512.3 506.8 505.4 493.3 488.9 473.9 457.1 439.6 406.2 380.5 360.5 348.6 345 329.3 318.6 312 311.2 318.7 321.3 326.7 329.8 331 331 328.1 338.8 342.5 348.6 351.3 355.1 358.1 364.7 370.5 372.1 369 371.5 374.4 382.4 387.4 392.9 393.8 395 396.2 394 394.1 397.4 400.9 403.9 408.5 410 406.9 408.3 404.6 401.9 405.9 404.7 406.2 405.5 409.6 411.3 409.7 412.6 414.4 414.8 421.1 424.7 426.3 427.6 430 431.5 429.8 436.8 443.2 446.3 449.6 448.8 443.3 441.6 437.3 433.3 430.8 426.3 423.9 427.5 430 430.6 428.4 430.3 430.8 430.5 432.3 432.5 434.9 438.1 440.3 441.3 446.7 456 460.3 462.1 464.8 469.5 473.2 472.7 478.4 484.1 490.8 498.7 504.3 510.4 513.9 514.6 519.6 527.5 530.3 535 536.7 534.7 533.8 536.1 539.3 539.3 541.8 539.3 545.7 548.7 552.4 555.8 554.7 550.2 547.1 546.6 548.5 546.8 548.7 552.6 555.3 549.7 548.5 550.2 548.6 544.6 545.6 540.6 548.6 550.1 553.5 547.5 538.9 532.2 529.7 524.8 526.5 526.9 523.5 515.8 507.6 495 478 471.2 467.2 464.2 459.2 460.6 456 453.2 444.9 440.2 428.5 427 430.5 430.2 431 434.2 433.1 432.3 432.7 434.2 433.8 432 431.5 431.8 430.8 430.5 429.5 430.4 429.2 427.8 426.9 424.8 423.3 426 428.4 428.9
475.1 476 482.1 489.9 501.4 511.1 519.4 529.2 539 533.6 516.7 512.8 499.8 479.9 448.2 411.9 386.5 367.8 361.7 353.1 339.4 328.9 319.7 320.8 326.2 330.7 336.1 338.2 337.2 340 335 339 347.7 356.5 358.1 360 362.9 368.1 374.2 372.4 371.9 378.8 382.7 383 387.1 392.8 395.3 399 400 399.3 398.9 402.5 406.7 412.6 415.6 413 414.1 416.6 413.3 411.9 411.8 413.2 416.5 415.5 416.3 418.1 419.7 422.3 422.7 424.6 430.5 432.9 433.1 435.7 435 436.1 435.5 440.5 449.2 453.2 455.2 454.6 450.9 443.7 441 437.3 433 428.7 430.1 428.9 431.2 432.1 434.2 434.8 436 438.3 438.9 438.8 441.5 443.6 444.3 446.7 455 464.6 469.1 470.8 475.2 477.5 481.7 483.3 484.4 486.5 496 509.2 515.8 517.8 521.9 524.2 530.7 536.9 541.8 544.6 543.5 538.2 539.4 541.4 543.1 544 546.6 551.5 555.1 562.4 562.6 565.4 560.5 556.6 550.2 549 549.6 545.3 545.1 546.1 548.4 546 545.3 547.7 549 545.4 542.8 542 545.9 545.9 545.8 540.5 532.9 532.3 529.6 525.2 529.7 529.5 524.5 516.3 506 491.6 478.9 475.8 472.3 465 462.2 460.6 457.2 453.3 444.5 437.5 437.1 433.8 434.8 436.1 439.3 441.1 440.2 440.3 441 442.2 441.8 441.3 439.8 440 440 437.7 437.5 437.9 435.7 433.8 432.5 431.9 428.3 432.9 433.4 433.8
495.3 496.3 501.2 509 518.1 522.1 538.5 553.8 558.5 549.8 548.5 543 525.7 510 462.9 425.5 394.8 382.3 373.2 360.8 349.4 336.9 329.6 329.2 339.7 343.2 343.2 348.2 344.7 348.2 343.4 347 362.3 367.6 368.9 373 377.2 377.1 375.7 374.5 377.7 385.2 386.6 388.4 393.2 397.6 396.9 402.5 403.9 406.4 407.9 412.7 415.1 418.4 420.7 422.6 424.2 421.1 419.5 422.1 423.2 425.6 424.3 422.3 425.8 427.8 429.8 435.5 435.5 432.8 435.8 440.1 440.9 441.1 440.4 439 440.7 441.4 451.3 457 459.3 458.6 453.9 445.9 440 438.2 435.5 432.8 431.7 431.2 433.7 434.4 436.5 438.4 438.8 441.8 442.4 442.7 446.4 448.3 452.1 457.8 464.5 470.9 476.8 478.5 485 486.1 487.3 488.5 491.7 488.5 498.1 514.4 522.3 523.8 524.2 528.3 536 542.3 544.7 547.6 547.2 543.8 545 545.9 548.2 552 550.8 550.3 552.4 558.6 561.6 561 559.5 557.4 553.3 550.4 547 545.3 540.7 544 542 541.4 543.4 548.1 549.1 545.7 540.7 545.1 544.4 545.1 545.8 540.1 531.4 529.6 526.6 522.2 524.8 526 524.9 516.5 502.7 493.2 484.5 480 477.4 469.2 466.4 461.8 455.8 452.9 452.6 450.4 446.7 439.9 444.2 444.6 447.6 449.3 448.3 448.1 449.5 450.5 449.9 449.1 447.4 446.8 445.2 445.3 443.7 444.4 442.1 439.8 438.5 437.4 436.4 437.5 438.3 439
510 514.7 522.5 529.4 536.2 537.8 561 571.8 577.2 585.9 583.9 568.8 550.5 527.8 478.7 445.6 411.3 395.6 379.3 368.5 358.1 346.3 343 348.9 358.1 355.6 352.2 351.8 352.6 353.4 345.6 349.2 365.9 372.6 379.1 382.1 390.1 391.8 381.6 380.7 381.8 386.2 389.2 394.5 397.4 398.4 403.4 405.5 410.5 413.6 417.1 423.6 433.6 439.1 437.5 432.9 432.3 436.2 434 431.3 430.2 432.9 433.1 428.6 435 436.5 433.9 441 441.2 436.5 437.3 442.2 445.9 445 442.8 441.5 444.4 446.4 449.2 457.7 460.7 458.3 450.7 445.2 440.8 437.7 436.4 433.6 434.3 434.5 436.6 438.2 438.8 439.7 443.1 444.8 448.8 448.5 452.6 454.3 459.4 465.4 472.8 477.7 488.3 492.5 491.8 491.3 493.1 495.2 497.9 494.2 502.7 514.8 523.9 525.9 527.5 531.1 538.1 543.1 545.5 547.7 549.3 549.5 548.4 547.6 553 553.8 551.8 549.3 549.3 549.9 555.5 556.3 556.3 560.1 558.2 554.1 549.8 548.3 543.5 540.7 540.7 540.7 540.7 545.5 546.2 540.7 540.7 540.7 544.3 545.4 545.4 540 532.3 526.4 524.3 520.3 519.4 520.6 521.2 513.5 499.2 494.9 484.6 481.6 474.9 470.1 467.3 464.8 463 461.9 459.4 458.6 457 451.7 448.8 451.4 455.3 456.7 455 456.6 456 456.4 455.5 455.6 454.8 453 452.9 451.2 451.6 450.3 447 445.9 445.5 442.1 443.2 444.4 444.3 443.3
531.3 532.4 539.9 548.8 556.6 559.4 581.5 590.2 600 608.3 597.6 581.9 553 521.6 482.3 450.2 441.3 436.7 400.2 380.9 368.8 362.2 361.8 366.3 369 361.3 359.6 358.1 358 358.1 351.7 353.5 370.7 382.7 386 387.9 397.9 398.6 395.6 391.1 388.3 390.5 398.4 403.3 406.9 410.3 415 415.5 420.9 423.1 435.5 443.9 455.7 455.9 448.8 447.7 448.9 449.7 446.9 444.6 444.4 447.2 445.9 437.9 439.1 441.2 440 439.6 439.2 435.2 436.4 440.2 447.7 449.4 445.9 444.4 446.4 448.1 449.6 454.6 455.5 454.1 447.8 444.3 440.7 438.1 438.1 439.8 440.9 440.4 439.6 441.7 443.1 443.8 447.9 450 454 456.2 459.8 463.5 467.4 475.4 481.2 487.2 494.7 499.5 498 498.6 499.1 500.4 502.3 504.2 509.8 518 524.1 528.5 534.4 544.2 551.3 557.7 563.5 564.2 567.8 563.7 557.3 561.5 568.2 573.9 570.1 558.9 553.6 549.3 549.3 549.3 556.1 559.7 560.1 556 555 556.8 554.8 548.4 543.3 540.7 540.7 540.7 540.7 540.7 540.7 540.7 545.4 546 547.4 544.4 534.4 532.3 528.1 520.7 520.3 518 515.6 510 499 492.9 483.5 474.8 471.9 470 469.7 470.5 469.7 468.8 468.1 465.7 466.3 456.4 462.4 456.4 463.6 463.4 465.1 465 464.3 462.8 465.1 462 461.6 460 459.5 458.6 455.9 455.4 453.6 451.8 451.9 450.4 449.3 450.3 451.5 452
544.6 549.3 554.1 557.9 557.7 584.5 601.3 607.6 620.4 617.2 609 584.4 558.2 527.7 502.3 487.7 478 471.8 434.6 398.2 389 387.3 386.2 379.2 376 369.6 364.7 363.8 364.3 360.8 357.3 360.5 372.4 384.6 391.4 394.6 400.8 409.1 401.8 398.8 400.5 404.7 407.5 412 415.4 420.6 421.8 428 433.7 440.4 445.3 454.4 460.6 461.4 454.6 459.4 456.5 456.2 456.2 455.5 454.8 453.3 447.9 444.1 446.5 450.4 448.4 446.7 442.6 440.5 440.1 440.6 446 450 454.4 457.7 458 456.5 453.2 455 455.5 448.8 446.1 444.5 443 440.9 442.3 442.5 443.9 446.8 445.3 444.9 447.2 448.9 452.2 455.9 458.4 462.8 465.3 471.7 476.7 482.4 488.4 494.2 499.3 500.1 504.1 502.3 504.7 506.1 510.9 517.5 521.6 525.1 532.9 539.3 548.1 553.2 559.5 569.8 577.9 580.5 580.5 576.5 572.6 576.9 587.9 588.4 590.7 579.9 561.1 555.4 549.3 549.3 549.3 555.3 557.4 556.3 555.4 558.8 557.4 552.3 547.9 540.7 540.7 540.7 540.9 540.7 540.7 546.2 549.5 549.3 549.9 545.5 536.1 533.4 528.8 520.3 520.7 519.8 514.4 503.8 499.6 490.1 482.9 477.1 474.4 475.8 475.8 477.2 477.7 477.2 476.7 473.4 473.3 472.3 470.1 468.9 471 472.6 472.7 472.7 472.3 471.2 470 469.1 468.8 467 465.3 463 460.3 458.7 458.3 455 455.6 450.4 453.5 459.3 459.3 459.3
561.4 575.2 581.2 577.5 575.1 598.1 613.4 620.1 622.2 619.3 606.9 593.7 586.8 576.5 565 538.4 517.4 498.5 464.2 429 412.9 409.2 409.7 394.7 382 378.5 374.7 372.3 372.1 367.9 364.2 361.1 378.2 388.1 395.5 398 400.5 405.4 406.5 405.9 408.5 413 416.1 419.6 421.7 425.6 431.5 435.3 440.6 445.1 452.9 462.1 467.7 469.5 464.7 471.9 477.4 473.8 471 468.9 468.9 467.3 460.1 450 456.4 461.9 457.3 452.3 448.2 445.5 443.9 447.6 443.8 447 454.6 465.1 472.2 471.8 467.3 461.6 458.5 452.2 447.2 444.5 444.4 446.3 447.4 447.1 447.8 449.6 449 449 451.3 452.2 459.8 461.7 465.8 470.2 475.7 478.3 482 487.8 493.9 497.7 500.9 508 508.3 512.2 518.9 526.4 531.5 537 541 540.3 541.1 551.9 560.1 567.8 578.9 587.7 594.6 596 595.8 594.6 588.8 588.7 605.6 606.1 598.6 588.4 572.4 563 557 558.2 555.4 554.4 549.9 554 558.8 557.9 553.1 548 544.5 540.7 540.7 540.7 540.7 540.7 540.7 543.6 546.7 547.2 549.6 542.7 535 531.6 527.6 522.5 522.8 520.4 516.2 511.4 504.6 495.7 489.2 487.8 483 484.3 485.7 485.4 484.8 484.8 485.2 485.6 479.7 477.6 477.6 478.2 480.2 480.5 479.8 479.4 478.2 477 475.7 475.6 474.5 472.5 470.7 466.8 465.5 464.4 463.1 461.5 460.8 458.2 463.9 465.1 465.6 465.4
582.9 594.7 597.1 595.7 600.9 615.8 627.5 635.1 638.5 629.7 629.7 632.1 624.6 618.5 601.9 572.9 536.6 504 476.3 448.9 431.7 423.2 417.2 403.3 392.9 384.6 382.4 382.5 382.6 377.4 372.9 368.2 384.5 391.2 395.9 401.1 404.4 405.7 411.8 412.8 418.8 420.9 418 423.5 428.6 433.7 440.1 443.8 449.8 456.3 461.8 466.1 473.4 475.2 476.9 488.9 493.1 491.5 491.3 485.5 480.9 477 474.4 462 459.3 462.2 461 456.9 454.2 451.3 446.3 447.5 445.6 444.6 450.9 456 468.9 468.7 466.4 461.9 457.7 453 449.4 450.2 451.8 452.9 451.6 449.5 452.6 454.1 454.9 455.9 457.2 458.4 464.1 467.5 470.2 473 477.4 481.6 487.9 493 498.9 503.3 508 515.8 524.7 536.3 546.8 554 560.3 564.3 566.3 564.3 562.5 563.7 568.6 575.4 590.1 601.7 610.3 614.4 616.9 616.3 612.4 605.8 612.2 626.4 614.5 605.4 594.7 576.1 571.4 565.6 567.2 566.9 559.8 556 557.2 556 559.2 557.5 548.9 543.1 540.7 540.7 540.7 540.7 540.7 540.7 544.8 547.1 545.6 541.2 534.3 530.5 529.6 528 525.4 525.9 520.8 514.9 510 503.7 498.7 496.3 493.9 494.2 495.1 493.8 493.1 491.8 491.2 486 488.4 485.6 484.7 483.2 485.6 487 486.2 485 484.5 482.7 480.1 481.6 480.4 477.8 476.6 473.3 470.9 469.2 467.7 466.4 466.4 462.4 468.4 469 470.3 471.8
594.3 607.9 610.8 611.8 622.1 634.9 647 648.7 652.9 653.6 656.5 670.1 661.6 641.6 618.5 590.4 564.5 516.3 487.1 461.9 445.8 433.6 421.1 409 402.4 398.4 393.9 393.2 390.9 388.2 385.3 373.7 389.6 398.7 406 411 413.6 416.1 419.6 424.2 422.7 425.5 430.7 436.4 440.4 444.9 450.6 454.7 461.8 464.4 466.6 472.5 479.1 483.7 488.8 502.7 509.1 515.3 513.5 505.1 496.8 490.1 482 472.1 466.7 466.6 465.9 460.4 457.9 454.2 452.7 447.7 445.8 444.8 447 455.6 460.8 461.8 458.8 455.8 452.3 451.4 452.6 455.8 456.6 456.8 457.6 454.7 458.4 459.7 462.3 462.5 463 463.1 467 469.8 474.3 476.5 482.2 488.7 494.8 503.6 509.9 515.1 523.9 535.1 548.1 565.5 578 587.8 594.5 588.4 592.5 587 581.2 573.7 580.7 593 611.8 626.2 631.5 632.8 638.3 631.2 627.5 619.2 616.7 616.2 618.2 616.2 605.3 584.8 588.3 594.6 589.4 578.6 572.1 567.5 564.2 563.8 573.9 569.9 558.8 550.6 545.8 540.7 540.7 540.7 540.7 542.8 548.3 547.6 543.6 542.2 537.8 538.4 537.3 537.9 535.8 532.1 525.2 519.6 513.7 511.5 509.7 508.1 503.8 502.7 503.2 500.7 499.1 498.4 497 491 491 491.2 491 492.1 493.5 495.2 492.8 491.5 491.1 488.9 486.8 486.1 484.2 482.8 480.6 478.2 475.2 473.4 473.2 473 472 466.3 470.8 471.9 476.3 477.5
604.2 611.8 616.1 618.4 630.9 645 647.4 653.5 660.4 663.7 668.9 685.3 671.6 640.8 616.3 584.5 556 524.1 494.8 472.2 457.8 443.2 429.8 422.5 413.6 412.9 406.8 405.8 402.1 398.9 394.4 387.7 391.4 401.9 415.3 423.8 424.1 422.8 423.1 427.2 431.1 440.7 454.2 458.5 459.2 463.6 467 470.9 474.7 476.1 474.8 481.4 484.8 493.6 498.5 513.6 525.8 528.6 526.4 516.9 508.4 500.6 488.1 478.2 467.1 469.9 471.4 469.7 465.7 460.1 455.3 452.7 452.1 447.5 449.3 451.6 453.6 458.8 458.1 454.8 453 452.7 458.4 461.8 462.3 463.4 464.1 462.8 466.8 467.2 468 468.8 469.4 464.2 468.9 477 480 488.1 494.7 501.5 507.3 514.2 527.8 536.3 545.4 553 568.7 585.6 596.2 611.7 617.2 604.2 604.6 602.2 594.8 583.5 584.2 598.8 619 636.8 649.7 647.1 654.8 644.4 638.8 635.8 621.3 615.8 613.7 610.8 602.1 594.6 603.1 603.5 598.9 587.7 585.5 583.7 575.3 566.8 568.2 565.7 561.2 557.1 551.6 547.5 540.7 540.7 541.9 551.3 553.9 553.8 550.6 546 544.9 546.5 545.6 546.9 545.2 540.9 531.6 526.5 520.9 520.6 519 515.8 512 510 509.9 507.4 505.5 504.1 500.8 497.7 497.1 495.7 496.9 499.4 501.2 502.8 502.1 500.6 499 496.9 493.5 491.1 490.7 488.5 486.4 482.7 479.9 479.4 478.5 477.4 475.1 472.8 474.9 477.9 479.8 481.6
605.2 611.7 614.7 615.7 627.5 636.2 637.5 648 650 656.7 670.9 669.3 649.8 625.8 599.7 574.2 548.8 526.2 503.3 483.9 468.5 457.7 448.1 438.3 431.5 428.1 422 418.8 414.7 407.7 401.6 400 388.2 410.6 422.8 430.9 428.7 427.5 429.2 433.4 441.9 456.8 466.6 472.1 473.8 478.1 478.9 481.5 485 486.6 486.5 489.8 492.1 500.1 507.2 521.6 532.9 534.9 531.9 525.9 518 510.3 498 487.5 477.2 469 471.2 473.7 473.3 468.5 462.7 459.9 454.4 450.4 449.5 450.5 452.2 457.5 457.8 458.5 458.9 460.8 464 466.2 468.8 469.8 469.8 469.6 471.1 473.3 474.9 475.1 475.3 473.4 474.3 482.4 488.6 493.9 503.9 512.2 518 528.4 544.3 551.6 561.4 569.3 583.3 598.5 608.9 620.2 622.8 609.8 619.7 621.2 613.9 602.2 596.5 602 622.8 644.3 656.4 658.3 659.1 657.3 654.8 654.6 640.3 627.7 616.1 610 608.4 605.3 603.4 601.5 599.4 598.3 595.9 586.2 581.7 572.8 568.3 568.3 567.8 567.9 564.3 558.6 554.7 549 553.2 558.5 561 562.3 559 553.1 548.5 550.5 552.7 555 552.9 548.8 541 536.1 530.8 527.8 524.9 523.2 520.9 517 515.6 514.1 512.4 509.2 506.8 503.3 503.4 500.9 502.6 507.1 509.1 510.5 510.7 509.2 506.5 503.9 500.1 497.2 495.7 493.5 489.2 486.4 484.1 483 480.3 479.4 474.6 477.5 479.9 481.8 483.9 487.8
606.8 612.1 613.2 611.8 613 619.6 624.7 630.6 637.1 644 648.5 646.2 630.7 611.7 583.1 561.9 543.2 528 515.8 502.9 489.3 484.3 468.9 457.6 452.9 451.5 443.9 433.6 425.2 413.8 412.1 407.5 395.2 414.7 426.8 433.1 436.5 435.3 436.3 440.5 453.6 465.8 476.1 484 486.7 490 490.6 495.4 498.6 498.6 496.3 501.2 499 505.3 512 521 533.4 539.7 545.4 543.7 531.3 514.8 501 490.5 480.7 475.3 473.4 477.9 481.2 475.5 472.3 468.2 462.3 456.9 456.2 455.9 456.2 458.7 460.3 464.1 466.7 467.5 469.8 471.9 475.3 477.8 477.3 478.9 478.4 479.2 481.1 481.7 482.7 483.1 474.9 491.1 495 498.2 506.5 517.3 526.5 538.3 551.9 562.7 571.6 578.8 591 608.3 619.2 624.6 620.1 616.5 635.4 638.1 630.9 621.3 608.8 614 636.7 656.3 670.1 672.3 668.3 664.6 656.8 652.5 641.4 624.3 617.4 619.4 626 612.7 605.9 607.2 605.1 602.3 596.6 593.1 587.7 584.2 580.5 577.4 578.9 579.9 575.1 565.5 563 562.1 562.7 568.2 572.9 571.8 566 563.1 563.4 565.1 569.6 569.4 563.3 557.4 555.1 547.9 540.8 543.5 536.9 533.2 530.3 525.4 522 518.9 517.6 514.8 509 510.9 510.4 507 508.5 513.9 517.4 518.1 517.4 515.4 511.6 507.2 503.1 500.5 499.4 496 491.7 488.8 485.8 484.6 482.9 481 477.9 481.1 483 488.8 493.1 494.9
606.2 609.3 611.3 611.9 626 636.9 632.6 633 633.9 632.6 632.6 627.1 615.7 604.1 591.7 579 562.3 551.1 540.7 527.9 514.2 503.4 483.1 476.7 480.1 469.9 462.4 447.8 433.1 423.1 420.3 415.5 399.1 417.3 431.5 440.4 444.9 444.4 445.6 451.5 462 474.5 485.9 494.2 500.3 502.1 505.9 510.7 514 508.3 508 509.6 507.1 509.5 515.8 522.3 536.1 543.4 548.7 548.2 539 523.7 511.5 497.4 489 484.6 485.1 481.5 484.5 482.4 476 473 467.8 461.9 461.5 463 463.7 466.3 467.5 470.4 474.5 473.2 474.3 476.5 481.5 486 485 485.6 487.3 486.3 488.9 490.6 491.9 491.4 479.6 494.4 501.2 504.2 509.7 518.5 531.9 543.1 554.1 565 572.7 580.5 590.9 609 623 629.2 628.1 631.5 635.5 641 639.9 636.8 631.4 634.3 650.6 665.6 676.4 677.5 673.6 666.9 658.3 648.9 641.3 634.9 629.3 621.4 621.1 617.6 605.3 603.9 606.3 606 603 599.9 600.5 600.6 595.8 592.6 591.9 589 583.4 576.2 573.2 574.3 575.2 582.3 586.3 580.1 575.9 574.3 572.5 577.9 582.2 579.8 573.4 564.9 559.9 555.9 548 552 546.2 542.4 535.7 533 529.3 525.7 523 520.1 511.1 517.5 516.9 512.1 512.2 521 524.8 525 525.3 520.6 515.1 511.5 509.2 506.7 502.8 498.5 493.7 490.8 487.1 483.9 485.2 482.9 482.8 486.5 491 496.3 499.8 502
622.5 625.9 626.3 614.9 627 628.4 630.2 634.3 636.7 637.5 642.8 660.2 651.3 636.8 624.3 608.2 588.5 571.7 559.3 542.9 529.5 513.4 495.8 497.9 499.5 483.7 470.7 458.3 443 435.5 427.3 420 406.6 428.2 438.7 449.3 454.8 453.9 454.9 458.2 467.4 481.2 494.5 503.8 512.9 519.7 522.7 526.5 524.8 514.3 516 515.8 512.2 514.6 520 526.6 538.4 548.8 553.8 551.6 542.3 528.4 513.6 505.3 501.2 496.6 494.8 494.3 488.4 485.9 482.2 477.5 473.5 469.1 466.8 468.3 469.6 473 474.8 477.9 478.6 479.4 482.9 485.5 488.8 492.9 493.8 493.1 493.4 495.3 497.3 499.9 500.6 498.4 491.2 492.7 505.1 511.1 513.3 522.4 534 547.7 549.7 560 569.7 581 591.3 605.4 619.5 629.9 637.4 644.3 650.3 653.7 654.8 653.4 650 651.6 662.4 677 687.5 693.8 696.8 686.3 677.4 663.6 663 641.8 628.3 623.5 619.1 615.3 608.1 615.5 623.7 623.6 630.1 626.6 640.6 624.5 615.6 609.9 602.8 597.3 593.9 590.3 586.2 585.4 588.5 590.2 588.3 587.7 584.5 582.6 579.6 584.7 588.9 587.4 579.7 570.3 565.3 557.9 557.2 557.4 554.1 549.8 545.5 539.1 535.5 530.8 527.8 524.8 518.6 522.9 523.7 523.4 524 528.8 533.4 533.3 530.1 526.6 521.9 517.6 514.3 509.9 504.4 498.3 492.8 491.2 487.5 487.5 486.7 486.8 488.1 491.5 496.2 501.8 505.9 510.1
633.6 636.9 629.6 620.9 627.6 627.7 635.4 649.8 654.1 649.3 667.2 683.9 668.2 644.3 633.8 615.5 596.1 582 567.5 551.2 537 522.7 508.3 510.5 502 485.5 474.5 463.3 452 442.1 438.3 429.8 420 434.9 450.3 461 463.2 461.8 462.1 469.8 477 487.2 501.8 511.5 523.2 531.6 535 536.4 530.9 525.2 521.7 521.9 518.7 518.4 523.6 531.6 543.4 550.5 552.4 547.2 537.2 525.2 518 517.3 513.2 510.8 509.5 505.2 498.7 493.8 490.9 483.7 480.4 478.7 475.2 474.3 475 477.9 484.4 486.3 487.1 488.3 490.8 494.4 495.7 497.8 498.5 497.1 500.7 502.9 506 506.6 505.8 505.2 503.9 492.9 510.9 514.5 514.3 525.8 533.9 542 549.4 557.3 566 576.4 587.4 599.3 612.6 624.2 634.2 644.3 654.2 659.3 661 662.5 661 664.5 672 685 701.9 715.9 718.9 711.2 692.3 685.8 685.4 666.2 643.8 626.5 619.3 614.9 624.2 632.8 642.1 648.1 657 670 678 677.1 669.1 646.8 630.5 619.1 610.6 604.1 596.6 594.1 593.6 593.7 594.3 591.5 592 593.9 588.9 589.8 599.6 597.8 587.3 580.4 573.5 570.5 570.4 567.8 563.7 556.7 551.1 543.6 538.4 535 531.5 530.8 521.9 530.8 530.6 530.5 532 534.1 538.7 539.1 536.6 531.8 525.9 521.4 516 510.8 503.4 496.9 492.1 490.8 490.2 489.8 491.1 493.3 494.6 497.9 502 507.5 512.4 518
647.2 640.7 629.1 641.2 627.8 633.3 652.5 659.3 665.9 661.2 683.7 683.2 656.2 645.3 633.6 615.5 599.6 583.1 568.7 558.8 545.4 530.3 515.2 509.5 498.8 486.2 477.5 466.4 458.1 452.9 447.8 434.3 426.5 443.3 455.9 469.1 470.5 467.7 472.3 476.9 483.1 496.6 507.7 520 534.8 540.1 546.5 543.4 534.7 533.3 528.9 525.6 523.9 520.6 529.3 537.4 545.9 547.3 546.9 548.4 545.5 538.9 530.7 529.9 528.9 525.7 525.5 521.2 511.9 505.1 497.5 492.4 491 490.6 488.3 486.4 486.3 489.9 494.1 495.9 496.7 497.2 499.1 499.8 501.3 503.2 505.1 505.7 506.7 508.7 509.3 511.2 511.7 510.8 510.4 503.3 514.6 519.5 522 524.5 530.7 538.9 547.3 553.8 560.4 570.6 582.5 592.8 604.3 615.7 627.8 639.2 650.4 658.6 663.8 666.9 670.1 672.5 679 691.2 704.8 717.2 726.6 723.6 713.5 694.1 681.6 665.5 650.2 637.4 628.9 624.4 641.5 647.3 653.9 666.5 678.1 690.7 696 696.8 694 684.2 665.8 647.5 636.2 621.1 621.2 621.8 615.4 606.7 602.5 599.3 600.3 598.2 599.5 596.5 605.2 604.7 595.1 587.2 580.3 579.4 575.5 571.7 567.6 562.1 553.6 549.7 542.6 536.6 538.7 535.5 528.9 536 536.1 535.8 536.6 543.3 546.1 545.5 543.8 539.5 533.6 524.9 517.4 510.5 503.6 497.7 496.3 494.3 494.3 494.9 495.1 497.7 500.6 504.2 508.8 515.4 520.1 526.1
647.2 641 636.2 636.1 631 642.3 654.5 667.1 671.6 673.9 693 685.3 654 644 630.1 616 595.3 582.4 568.8 557.2 545.3 534.3 520.9 509.4 501.2 491.4 485.7 473.1 466.3 463.3 455 430.6 443.4 454.5 465.9 473.7 471.8 474 478.7 484.4 492.4 504.9 516.7 534.3 545.4 547.8 548.8 545.1 544.3 543.3 536.6 533.6 530.8 527.9 535.9 541.6 548.4 552.6 558.4 561.5 561 555.1 549.6 544.6 537.1 537.3 533.6 530.3 521.9 512.1 505.7 500.8 499.3 499.2 498.7 498.1 499.9 500.4 502.9 501.3 502.8 504.9 504.7 505.8 507.6 509.6 511 510.5 512.8 513.3 513.4 516.3 517 516 516.5 511.2 518 523.5 526.1 528.7 535.2 541.5 545.4 550.6 559.4 567.9 577.6 587.7 597.8 609.8 622 633.4 644.6 654.8 663.8 670.1 674.8 680.3 684.1 692.6 704.4 710.9 718.9 723 711.4 695.4 684 667.5 647.2 635 632.3 636.4 653.4 662.2 670.3 679.7 693.2 704.9 711.2 714.1 713.5 707.1 695 675.5 654.6 644.2 639.2 636.3 632.5 625.7 625.3 630.2 628.1 622.9 612 606.1 605.7 606 597.6 595.1 590 585.8 581.2 575.9 570.6 563.3 555.6 549.1 547.6 545.5 544.6 542.5 530.9 541.3 543.2 544 547.9 551 552.7 551.6 549 543.2 535 527.1 519.6 512.9 507.4 503.1 499.7 499 499.4 501.2 502 504.8 508.6 511.1 515.9 522.3 529.8 536.2
641.7 638.5 643.8 638.3 639.9 648.9 665.7 675.4 678.9 683.4 695.9 674.8 652.8 641.6 626.9 611.9 589.9 581.7 574.1 560.3 542.7 532.7 523.6 512.2 503.5 499.6 493.1 478.5 470.8 468.9 454.4 446.6 455.6 465.6 473.4 477.1 476 479.6 484.9 489.8 501.7 516.2 526.2 540.1 546.4 550.7 553.4 554.6 554.5 551.1 545.5 541.3 539 536.6 540.4 547.1 552.8 563.1 571.2 576 575.8 571.7 564.3 553.7 549.1 546.6 539.5 535.6 527 518.7 515.3 513 513.2 512.5 511.2 509.8 508.7 508.5 509.1 509.9 510.8 511.7 512.6 513.2 514 515.7 517.1 517.6 516 519.2 519.1 520 520.8 521.3 521.6 514.9 521.7 527.6 530.7 535.1 540.1 546.7 552 557 563 568.9 573.2 583.3 592.8 603.2 616.2 627.6 639.6 649.2 659.3 667.2 674.4 680.9 685 692.1 700.3 706.8 709 706.9 698.3 687.1 685 673.5 653 639.8 638.2 649.5 662.8 672 681.3 690.5 703 712.5 720.6 724.8 723.7 715.7 705.3 688.9 675.4 667.6 661.1 657 649.3 642.7 645.1 643.5 639.7 638.5 630.7 618.1 608.4 600.7 597.6 596.7 591.3 588.5 583.7 577.8 571.6 563.7 558.8 556.2 552.7 549.6 548.1 544.5 541.7 546.8 549.9 552.6 554.7 557.2 557.9 556.3 550.7 544.7 537.6 531.4 525 520.3 511 505.5 505.2 506.9 509.1 510.2 509.9 511.1 514.1 517.3 523.2 530.9 537.5 544.5
636.8 641.9 646.7 645.2 651.4 663.3 672.1 678.5 686.8 688.2 687.7 662.5 648.4 637 618.8 605 589.5 578.6 567.1 557.1 542.3 530.7 521.7 510 502.6 500.7 493.1 484.3 476.9 468.1 454.2 464.1 469.3 473.6 481 481.4 480.9 485 489 496.8 511.5 523.9 537.7 547.3 551.7 557 561.5 562.8 561.8 558.8 554.5 549 545.9 544.1 542.2 551.9 558.1 572.3 581.8 586.8 589.8 586.4 576.7 557.4 558.2 552.2 548.2 540.6 531.9 526.3 524.9 524.2 524.1 521.4 520.7 520.2 519.5 518.4 518.5 518.4 516.5 517 518.4 520.4 521 520.8 522.4 522.4 522.3 523.9 524.6 526.2 526.9 527.2 526.6 520.1 525.7 531.5 536.5 541.3 546.3 552.7 557.3 562.5 568.7 575.9 581.1 587.1 594.1 598.6 612.4 623.8 632.5 642.5 652 659.8 667.6 675.1 680.9 690 697.2 702.2 699.7 693.9 683.5 676.8 670.1 660.2 647.1 642 648.4 658.6 670.2 679 688.7 698.2 708.6 717.9 725.7 730.4 730.5 725.2 716.5 704 693.5 684.2 677.3 668.9 665.4 665.2 660.7 652.2 646.5 643.3 629.8 615.9 603.4 598.4 597 593.4 588.5 587.4 583.6 577.6 570.1 564.9 561.3 559 557 552.4 543.3 545.9 550.7 554.8 556.8 558.5 560.2 563.2 563.1 559.3 554.6 547.6 540.9 531.9 524 519.2 517.5 512.8 515.1 516.4 518.5 520.5 520.2 519.8 522.2 525.8 531.2 537.4 543.2 548.5
635.8 643.8 651.1 656 665 674.4 680.3 685.2 692 689.2 683.2 658.4 644.3 630.6 613.2 596.7 585.7 575.2 563 550.2 540.1 531.5 521.3 513.1 505 500.2 494.1 485.4 477.7 470.8 458.1 470.6 476.4 478.7 483.6 483.7 485.4 489.8 495.2 505.7 520.2 532.8 543.5 551.5 559.8 567.1 571.4 575 572.5 567.1 562.2 557.2 554.1 550.7 543.6 556.5 563.5 580.2 590.2 596.9 597.9 590.2 575.7 573 568.2 560.7 554.9 546.9 541 534.2 532.4 532.8 532.1 531.8 530.1 528.2 527.6 526.3 525.2 524.3 524.1 524.8 526.2 527.5 526.1 526.6 528 526.5 526.6 528.1 529.6 531.1 532.7 532.9 532.9 527.7 529.1 534.9 539.3 544.6 548.8 554.4 560.2 567.5 574.2 582.2 587.4 593.9 601.6 610.3 617.8 622.9 629.9 636.5 644 650.9 658 666.4 673.1 680.9 689.2 694.3 691.2 685.4 675.8 669.2 661.4 648.8 644.8 646.5 653 660.2 673.1 682.9 694.1 703.7 713.1 721.7 728.8 734.3 734.8 732.3 724.9 718.2 708.2 702 693.3 683.2 677 675.1 666.8 655.2 646.8 637.3 624.3 616.2 603 598.2 596.3 591.8 588.9 587.6 582.9 575.4 571.4 566.3 563.8 561.5 558.2 547.4 554.3 556.8 558.5 560 562.8 566 567.9 568 567.3 565.3 557.9 549.8 541.1 534 530.6 527.2 527.7 524.7 525.2 527.2 528.4 526.7 527.4 528.6 530.6 532.7 536.6 541.2 545.7 550.2
645.5 655.1 663.9 669.6 676.4 683 687.4 688 686.9 686.2 677.3 650.3 634.2 620.5 601.2 590.1 582.8 569 554.9 544.2 536.6 526.2 518.8 508.9 502.5 495.9 492.5 486.5 479.9 467.6 470.4 479.1 481.4 482.5 485.8 488.4 489.9 494.2 502.2 514.9 527.4 539.7 550.7 557.8 566.5 575.8 580.9 584 578.3 572 564.2 561.1 558.9 556.6 550.9 559.3 569.7 585.9 594.5 594.7 592.8 589.9 581.3 581 578 572.4 562.9 554.3 548.5 544.9 542.5 541.2 539.6 537.6 536 534.6 533.7 532.4 532 532.7 532.2 532.9 534.4 534.3 533.8 533.6 532.6 529.1 529.9 533.8 535.4 536.4 538.1 539.7 538.9 535 527.6 537 543 549.3 554.6 559.4 565.2 572.7 581 588.6 595.6 602.4 610.2 616.2 622.4 628.2 633.2 636.8 640.9 644 649.7 655.9 665.6 673.9 682 686.7 683.8 679 669.6 662.6 656.8 651 648.9 647.2 656.3 665.1 674.3 685 696.5 705.3 713.5 720.3 726.8 731.7 733.1 732.2 727.4 720.8 711.6 706 700 697 693.3 686.3 671.7 661.9 650.9 637.4 626 614.7 603.7 600.6 596.7 591.6 587.6 582.2 578.9 576.1 572.4 568.1 564.5 559.9 554.3 560.2 561.8 564.8 566.9 570.5 573.4 574.5 574.6 575.3 574.1 568.4 558.4 551.6 545.9 540.9 537.4 536.8 538.6 537.6 536 535.9 535.7 534.2 533.3 532.5 534.1 535.6 538.2 541.9 545.3 548.7
653.8 665.6 672.3 680.3 684.3 688 689.1 689.2 687.4 683 664.2 640.7 624.8 612.9 595.8 584.4 576.2 564.3 549.3 538.8 532.4 524.4 515.6 507.2 498.6 494.2 493 488.3 483.7 467.9 477.1 486 486.6 488 490.5 493.1 494.5 499 509.6 519.8 531.4 543.3 554.9 562.4 571 576.7 576.7 576.6 571.4 571.8 572.7 567.4 564.8 563.8 561.3 564.8 574.8 589.2 597 599.5 597.8 592.5 595.3 590 587.1 578.7 573.2 566 556.3 550.9 550.7 548.3 545.7 544 543.5 543.1 542.4 540.9 541.5 542.6 541.8 542.3 542.7 542.5 540.4 539 537 534.9 533.9 537.1 538.4 541.8 544.5 546.2 544.4 537.7 528.5 541.7 548.9 555.2 560.3 566.9 571.4 581.3 592.3 600.3 607 612.2 619.5 624.8 630.8 634.7 639 641.4 646 649.6 650.4 653.1 660.2 668 674.4 676.7 673.3 671.6 662.4 656.3 653.2 650 651.5 649.8 657.4 667.3 676.5 687.2 698.1 705.5 711.4 716.5 722.7 726.8 727.5 723.9 719.6 713.8 707.8 699.8 696.1 693.1 690.4 681.6 668.5 660.7 649.8 635.4 625.9 614.4 605.7 601.1 596.5 593 588.9 585.3 581.7 577.8 572.7 566.2 562 558 564.1 568.5 570.8 575.2 578.9 580.8 580.9 580.9 582.1 579.5 576.1 571.2 565.5 558.9 554.5 552.2 550.5 550.9 547.9 545.5 544.5 542.9 540.4 537.9 537.4 534.4 534 535.6 538 540.1 541.6 543.7
660.8 671.6 678.9 692 697.3 702 700.2 697.3 690 684.8 656.5 638.3 621.3 602.9 592.8 580.5 570.2 563.2 547.4 536.1 528.2 522 511 506 498.2 495.2 493.3 490.1 482.5 472.1 486.7 489.7 491.7 491.8 494.2 495.3 499.8 505.5 514.9 525.3 534 545.7 557.8 566.2 573.2 576.9 581.2 582.9 580.6 582.6 581.6 576.2 572.2 569.9 569 560.6 577.6 587.3 598 600.4 601.8 605.2 605.6 601.7 595.9 588.9 581.6 573 562.9 556.9 555.8 554.5 552.3 551.7 551.4 549.5 549.3 550.2 548.6 548.2 548.4 550 550.9 550.4 547.6 545.1 542.7 539 538.8 541.4 544.9 547.4 549.6 552.2 547 537.4 541.4 543.1 552.9 561.6 566.6 573.4 580.4 590.6 600.5 609.2 615.6 623.3 630 633.9 639.8 643.9 648.5 649.1 650.4 652.8 651.4 653.5 658.2 665.1 668.4 670.3 668.3 667 660.8 662.5 656.8 650.7 652.1 652 659.9 669.2 680.5 690 698.1 704.1 709.2 713 719.2 719.7 717.6 713.3 709.5 705.6 698.2 690.9 685.7 683.7 680.2 671 663 652.3 644.8 635.4 624.1 611.6 604 601.1 596.3 594.1 589.8 587.5 583.4 576 570.8 564.6 566.1 569.5 574.3 579.1 582.7 588.2 589.4 590.6 591 590.6 588.1 584.2 583.3 578.6 572.3 567.6 563.8 562.4 560.4 557.1 554.6 551.7 550.4 548.1 544.9 540.8 537.9 534 532.3 533.4 535.4 535.5 536.9 537.7
672 683.3 693.8 704.4 709.9 709.9 700.8 698.1 688.1 684.2 654.4 631.4 616.9 602.2 588.2 580.4 570.4 563.1 546.7 536.8 531.9 519.1 511.8 502.9 498.3 495.5 492.6 491.4 487.6 475.5 492.6 496.7 496.2 495.8 498.1 499.3 504.7 513.5 522 531.7 539.8 550.7 561.3 570.7 576.5 582.1 585.4 587.9 591.8 593.1 592.5 589.7 584.9 581.6 580.7 576 573.6 587.3 595.2 604.3 607.2 611.3 613.1 612.3 607 595.2 586 576.4 567.7 562.1 563 561.1 559.1 558.9 558.7 560.6 561.6 560.4 558.2 557.7 559.3 559.4 558.3 555.8 553.1 551.4 547.6 544.1 544.5 545.7 548.9 550.2 552.6 553.9 548.5 542.5 547.4 547.1 554.6 564.3 571.2 580.1 586.4 596 608.1 616.6 622.6 633.3 640.8 643.1 646.9 653.2 656.8 659 659.5 658.1 655.8 652.8 656.7 665.7 669.8 673.1 675.1 673.1 667.9 666.8 660.8 654.1 655.8 659.1 664 673.2 683.1 691.8 698.7 703.1 706.7 709.8 710.2 709.5 705 701.6 697.7 692.4 684.7 680.3 679 679 673.9 665.7 655.3 646.6 637.8 630.2 619.5 607.6 603.4 601.1 598.5 595.9 593.2 587.2 581 576.6 570.9 570.4 573.8 578.4 585.4 590.2 594.3 596.3 597.2 597 598.2 596.4 594.3 591.7 589.5 584.3 578.9 576 572.1 568.8 563.8 562.2 559.4 555.3 553 549.7 546.1 540.6 535.7 532.1 524.4 529 530.9 529.5 529 529.7
685.1 697.9 708.4 718.8 719.1 710.3 700 694.1 684.3 676.5 646.7 624.1 615.9 605.5 590.7 585.2 572.4 563.2 547.3 537.7 527.7 519.2 509.8 503.7 503 498.7 496.6 497.5 487.3 482.4 498.8 500.4 500.6 501 502.5 506.4 512.2 522.2 529.2 539.4 546.8 556.9 568.1 576 582 585.6 590.5 596.4 603.2 604 602.5 602.4 597 592.4 587.3 585 574.9 588.7 597.1 605.7 612.7 618.4 618.3 616.4 613.1 605.8 595.8 585.2 575.1 568.6 568.9 569.5 568.9 569.2 569.9 571.6 571.4 570.2 567 566.1 565.9 567.4 565.3 563.6 560.7 558.7 554.9 552.2 550.3 551.6 554.3 555.9 555.2 557.7 551.4 549.9 552.3 554.4 557.6 565.1 574.7 582.1 590.5 600.2 612.5 622.7 633.3 643.3 652.1 654.8 655.9 663.2 667.4 667.2 666.2 664.8 664.1 659.8 659.3 666 670.2 673.5 677.2 677.8 674.4 666.7 658 656.6 659.1 663.2 668.5 679 688.3 695 699.3 704.9 707.7 707.5 704.1 699 694.1 688.7 681.3 674.7 673.4 671.9 675.6 674.2 667.7 658.7 651.4 642.7 633 623 613.5 607.4 603.7 602.8 600.1 595.6 591.8 586.6 582.3 578.9 571.2 577.6 582.7 588.4 595.3 600 603.5 605.1 604.9 602.2 602 600.4 598.7 595.5 591.9 586.7 583.2 577.9 573.9 569.9 564.8 563.5 559.8 556.5 552 549 544.4 539.5 534.8 524.5 522.9 525 525.4 522.3 519.8 520
700.4 713.4 723.1 732.6 733 720.2 702.1 690.3 675.7 660.5 638.1 622.2 615.3 601.2 588.1 584.4 576.4 565.9 544.9 535.6 525.6 518.7 512.7 507.1 511.1 504.1 504.7 504.2 487.7 499.7 504.3 504.7 505.6 505.9 508.1 512.3 520.5 528.9 537.3 548 555.5 565.9 575.6 584.7 588.7 594.3 600.8 607.5 612.7 613.4 613.2 614.3 608 601.1 593.8 590.7 584.8 591.3 598.7 605.8 616 621.8 625.1 626.8 622 614.7 604.7 595.5 585.8 577.4 578.4 580.2 580.8 579.8 580.2 580.5 579.7 578.7 577.2 575.6 575.7 574.8 571.7 569.2 567.6 565.8 561 558.1 557.3 558.2 559.1 557.8 560.7 560.5 554.5 553.1 557.8 563 566.6 561 575.4 585.3 592.9 603.4 614.8 626.2 636.1 646.7 657.1 663.4 668.8 673.6 676.2 676.2 670.3 669.6 671.3 662.7 664.1 671.5 678.9 681.6 682.8 679.6 674 667.3 661.4 657.2 661.9 668.7 675 682.1 690 696.2 701.5 706 706.1 702.3 697.6 688.5 681.7 675.7 667.9 663 663.5 660.3 663.8 663.6 657.3 649.6 644.5 636.3 630.5 618.9 609.6 604.7 601.1 600.1 596.5 593.4 590.2 588.2 584.9 577.9 581.7 584.6 590.3 596.6 604.3 609.7 612.2 611.6 609.3 607.6 605.4 602 597.9 595.3 592 586.5 581.5 576.7 573 566.7 559.6 559.5 556.7 552.6 548.1 546.3 540.9 536.4 531.6 523 512.2 519.1 517.8 514.2 510.9 510.1
713.6 725.1 733.3 739.7 738.1 724.5 706.5 685.8 666.7 650.5 632.3 619.9 611.9 598 588.2 585.7 582.2 563.7 543.8 535.1 524.9 520.4 516.9 513.9 515.6 512.3 510.9 508.4 491.8 506.2 508.6 509.4 509.4 510.8 513.6 518.5 527.3 536.4 546.7 556.1 564.6 573.9 585.2 593.5 598.7 601.9 608.3 617.1 622.6 625.3 623 623.3 616.2 607.1 602.9 597.1 594.9 590.4 599.7 606.9 619 628.3 632.9 637.7 631.8 624.8 616.2 606 597.5 590.2 591.2 593.2 591.4 590.4 588.9 587.6 586.5 586.4 586.4 585.2 583.1 580.9 577.3 574.3 571.7 568.4 566.7 563.3 562.8 561.5 559.9 563.2 565.3 563.2 556.7 558.4 562.9 569.6 572.8 574.1 568.3 584.3 594.7 602.9 613.1 625.4 636.3 645.8 656.3 667.8 675.4 680.6 684.8 683 677.6 673.5 674.2 668.9 669.5 676.6 681.2 684.1 684 678.7 674.4 668.6 664.4 660.5 666.1 673.3 679.7 687.5 692.3 696.6 700.3 703.4 702 696.7 689.3 681 675.1 665.2 662.1 659.3 656.5 653.4 652 649.8 645.7 639.9 634.6 629.6 624.8 613.5 604.3 599.7 597.4 595.8 595.3 591.2 588.7 586.3 584.9 586.3 587.9 592.1 598.2 606.8 613.5 617.7 618.3 616.7 612.8 607.9 604.1 599 593.5 590.9 586.9 582.1 575.3 570.3 565.2 558.7 546.4 552.3 547.9 546.5 544.1 539.1 534 529.2 524.6 520.8 505.1 507.2 507.3 504.4 502 498.7
725.3 734.2 739.9 744.7 737.7 726.7 710.6 684.1 661.5 640 622.5 612.3 605.5 590.6 585.3 579.6 569.8 558.2 547.9 534.7 524.7 519.2 519.3 519.7 517.6 516.4 514.9 510.7 503.4 511 513.9 514.2 516.7 518.3 519.3 526.5 534.6 544.6 552.7 562.2 571.1 582.2 593.7 601.6 606.4 609 617.1 626.4 631.7 633.5 634.9 633.2 624.7 613.9 606.7 602.9 600.7 590.4 603.1 609.1 621.5 626.7 639.8 643.8 639 633 626.2 618.2 610.3 601.9 602.6 601.8 599.9 598.4 596.2 593 593.2 593.6 593.8 590.7 587.8 587 581.9 578.8 576.1 572.9 571.4 568.7 568.7 567.9 567.6 569.2 569.7 566.6 559.8 564.8 568.9 574.5 577.1 577.8 580.5 576.9 593.5 601.1 611 623.1 634.1 643.2 653.1 664.3 674 682.6 685.7 687 684.9 676.8 678 678.2 679.3 683.4 685 683.3 678.9 675.5 672 666.1 661 666.1 674.2 681.9 687 689.8 695.4 698.2 699.3 700.4 698.4 693.5 694 686 677 668.7 667.1 661.1 654.4 651.9 648.4 641.3 635.6 632.2 626 623.8 618.3 605 598.8 595.9 593.8 592.7 591.7 590.7 587.5 588.7 589.8 590.2 594.7 601.4 608 616.4 622.2 623.9 621.6 615.9 609.8 603.4 597.6 594.2 586.3 580.9 579.5 572.5 568.3 563 557.4 552.2 547.3 542 541 538.2 535 530.7 525.3 520.6 516.4 512.4 508.4 491.2 492.2 494.2 491.4 489.2
735.4 741.5 742.8 741.2 730.6 718.8 702.2 679.1 657.7 635.6 613.6 600.7 596.3 581.5 577.1 565.7 558.4 551.4 546 532.8 525 522.5 522.1 521.8 521.3 520.3 518.3 510.7 507.6 516.3 519 521.1 523.9 526.1 528.8 532.4 539.1 547.2 555.9 564.7 575 587.5 598.2 606.7 610.4 617 624.2 633.1 639 642.1 643.7 641.5 632.1 622.3 612.8 608.3 603.8 601.6 601.1 609.9 621.2 629.1 639.2 643.4 643.1 639.6 633.3 628.2 621.4 614.7 610.2 610.9 609.5 607.3 604 601.2 599.8 600.9 600.9 598 593.8 591.5 587 584.6 578.8 577 575.8 574.5 573.8 574 574.4 574.3 573.5 572 565.7 573.2 575.2 576.7 581.3 583.4 586.3 587.6 584.9 597.5 606.5 617.9 629.9 638.9 647.1 657.6 668.1 676 682.7 685.9 684.9 685.1 686.3 683.8 688.2 689.4 687.6 683.9 676.8 671.5 666.8 666.2 669.7 676.9 681.4 687 689.6 694.5 697.9 700.3 701.9 702.3 701.1 698 693.4 684.9 678.5 677.4 671.3 663.1 657.1 652.1 647 643 637.5 631.7 624.6 615.1 608.7 599.6 597.4 592.1 590.7 588.4 588 588.2 589.5 590.6 593 596.8 602.5 609 615.1 622.7 627.2 625.6 618.7 612.7 605.2 599.4 595.3 589.2 582.4 575.8 569.1 564.6 560.3 556.1 550.1 544.9 539.9 533.9 532.6 529.1 524.4 519.8 516 511.5 506.8 502.8 498.4 493.9 480.2 484.9 482 479.1
744.3 748.2 742 731.6 720.8 707.8 690.9 671 655.8 629.1 602.6 590.7 586 574.5 566.1 562.4 554.3 548.2 542 531.2 524.6 525.7 523.2 523.9 522.6 520.8 516.7 508.2 514.2 523.3 526.3 530.1 531.9 535.7 536.7 539.6 542.9 550.6 558.4 568.1 577.8 588.7 599 605.1 612.2 619.8 625.8 635.2 642.4 648.3 650.8 647.9 638.5 627.8 616.1 612.7 608.8 606.3 604.7 611.1 619.6 627.3 636.7 644.1 644.7 643.2 639.9 635.3 628.2 621.8 618.7 617.5 617.7 614.9 611.6 611.4 611.4 611.1 609.9 605.1 600.3 595.5 593.4 589 586.2 584 583.2 582.7 581.8 581.1 580.8 580 578.9 574.3 567.7 577.3 580.4 580.9 583.3 586.8 591.4 594.6 597 592.5 598.4 611.3 624.2 631.9 641 649.9 660 668.5 675.9 681.4 682.8 684.4 682.6 683.9 685.7 682.7 680.8 677.8 676.2 674.2 673.9 675.9 681.3 687.9 690.6 693.2 697.3 700.6 705.8 708.9 712.1 715.2 716.4 711.1 704.3 696.6 688.7 682.3 675.8 670.4 667.6 661.8 658 654.1 646.7 636.4 624.5 612.5 599.7 594.7 589.6 588.1 588.2 589.1 589.6 591.1 591.7 593.5 597.4 603.2 608.1 614.4 621 625.3 627.2 623.3 616.4 606.5 601 596.2 591.2 584.6 577.5 572.8 565.7 558.8 553 548 542.9 535.2 531.9 527.7 524.2 518.5 514.7 509.7 505.8 502.6 497.6 492.4 487.8 483.3 479 476.3 473.1 470
