ncols 200
nrows 84
xllcorner 260000
yllcorner 214900
cellsize 50
188.6 184.1 177.6 171.5 171.3 179.3 181.2 181.9 183.3 184 182.2 179.2 170.3 158.6 149.6 143.9 146.1 141.7 130.3 117.6 102.6 87.9 73.8 64.2 61.1 58.9 57.7 62.2 70.1 77.2 84.7 95.9 106.2 110.3 114.3 119.1 126.3 133.4 139.4 140 140 139.8 141.5 145.9 150.6 153.3 155.4 158.7 160.1 159 159.2 160.2 159.1 156.2 155.2 153.7 150 149.1 152.8 152.7 153.9 156.8 157.3 157.4 158.8 159.5 159.6 159.9 161.4 163 161.3 155 149.5 145.8 145.2 145.4 144.7 142.5 140.7 141.9 143.6 144.5 145.3 146.6 146.8 147.8 149.7 150.4 151.7 151.8 149.6 146.8 143.5 136.9 133 135.4 136.5 138 137.2 136.7 134.4 129.5 129 129.5 127.6 126.2 123.9 123.3 122.6 122.8 123.6 120.2 116.2 123.3 128.3 130.1 132.4 136.2 139.1 140.8 142.4 145 148 151.7 157.6 166.2 175.6 181.8 184.3 186.1 190.3 210.3 238.2 249.4 252.6 263.2 258 251.3 235.8 189.1 168 152.1 138.7 137.9 139.9 142.5 146.9 149.8 152.6 157.3 165 172.8 177.8 181 182.7 186.2 190.3 193.7 195.9 207.7 218.9 227.2 231.7 238.7 246.4 253.8 260.5 264 268 269 271.7 274.7 276.2 277.4 278.1 278.2 277 274.5 270.5 266 262.5 259 248.3 257.2 265.7 271.1 275.2 281.3 286.7 291.8 297.7 303.7 307.3 311.4 313.6 310.5 312.8 315.5 318.9 319.9
185.3 182.2 179 176.6 181.1 183.3 182.6 183.1 184.6 183.8 180.7 176.8 168.1 156 148.5 145.1 143.7 140.6 131.9 121.2 105.9 90.3 74.4 66.4 62.6 60.5 61.4 59.4 63.1 68.8 77.6 85.7 94.6 102.1 109.9 115.7 122.9 129.7 133.9 135.2 137.5 140.6 142.9 148.1 151.4 153.5 155 156.4 155.6 155.4 156.7 156.1 153.8 153.3 152.3 150.7 146 146.9 151.3 150.6 148.8 151.1 152.3 152.9 154.7 155 155 154.1 156.1 155.4 150.7 144.9 141 138.9 138.5 138.7 138.6 136.4 135.9 136.4 139.4 140.2 141.1 143 143.7 144.7 145.1 145.2 147.6 145.1 142.8 139.9 136.9 132.4 129.1 127.7 128.5 131.7 131.4 131.4 129.1 124.1 122 121.9 119.9 118.6 117 117.2 117.8 116.8 115.3 116.5 116.2 122.6 126.4 128.5 131.9 133.9 135.4 137.7 141.5 144.2 147.4 153 162.3 174.3 180.9 182.9 184.2 186.7 191.8 197.2 212.1 224.8 233.2 216.6 203.4 196.3 170.5 162 148 139.3 137.1 140.6 143.9 147.5 150.6 153.5 155 163 173.3 180.3 184.4 186.5 188.4 192.1 194.5 197.9 201.7 208.5 219.9 232.1 238.8 245.3 252.4 261.1 267.1 270 272.5 273.4 274.4 276.3 277.8 279.7 281.5 283 282.5 281.1 276.7 270 267.1 264.8 256.3 259.2 268.1 274.6 279.3 282.7 286.3 291.3 295.6 301.4 307.4 314 319.4 315.3 316.6 321.9 323.6 324.1
182.8 183 180.8 182.7 184.9 182.9 181.5 181.1 182.1 181.6 176.8 169.7 161.3 152.1 148.8 147.1 143.6 138.7 130.4 121.5 106.9 93.9 79.8 68 64.1 61.4 59.4 59.3 60.3 64.2 72.7 79.2 85.9 93 102 111 118.8 124.5 127.2 129.2 135.9 141 144.1 146.3 148.7 150 150.5 150.4 150.3 150.6 152 150.4 150.1 150.1 148.8 144.5 143.2 144.8 147.2 144.5 142.4 143.5 144.9 148.2 149.5 148.5 147.2 147.5 147.5 144.4 139.4 135.5 133.8 132.9 132.5 132.5 131.7 131.5 132 131.1 134.1 135.5 133.6 137.9 139.2 139.6 139.8 140.6 141.1 138 135.6 132.1 130.3 127.3 124.2 121.6 122.9 125.7 126.2 124.2 122.4 115.6 110.4 107.4 107.7 106.9 108 109.8 111.6 112.9 112.2 112 110.8 111.4 118.3 123.9 127.6 131.2 134.5 137.3 139.4 142.3 148.1 156.4 167 174.7 181 181.7 182.9 185.6 188.1 193 192.5 192.2 194.1 185.6 172.9 161.6 154.5 143.4 136.6 136.1 139.6 146.6 149.1 152.8 154.6 160.2 168.9 179.1 186.9 190.8 190.7 193.1 195.8 196.5 202.6 209.2 211 214.5 220.7 228.1 241.4 251 257.7 265.7 270.6 272.4 274.2 275.2 276.5 277.9 280.6 283.6 286.3 288.2 289.2 287.8 283.5 277.5 272.1 269.5 262.9 264 266.8 275 281.8 286.2 290.6 294.6 299.1 306.6 312.5 316.6 321.6 320.6 323.2 326.2 327.3 328.2
178.9 178.1 179.3 182 180.5 178.5 177 176.2 177.1 177.3 170.9 162.9 156.7 153.6 150 147.5 142.7 135.8 129.2 121.8 108.7 95.9 83.4 70.4 66.2 63.4 60.3 60.7 60.5 60.2 67 73.5 80.6 88.6 97.1 107.3 113.8 119 121.4 125.1 131.1 136.6 139.6 141.8 143.9 144.4 144.6 144.6 145.3 145.6 145.8 145.9 146.5 146.3 143.8 140.7 141.1 141.3 141 136 133.7 134.9 136.9 140.7 141.7 141.6 140.6 139.4 136.9 132.8 129.5 127.8 128.2 128.1 126.6 125.4 125.8 127 127.7 127.9 131.1 129.5 129.7 133.6 134.9 134.3 134.1 134.6 133.2 130.3 127 124.1 122.1 121.1 118.9 117.2 118.2 120.1 115.9 108.8 105.2 105.8 104.6 105.9 112.4 112.1 113.7 107.5 109.7 110.4 110.3 111.6 113.7 114.1 113.4 117.4 126.3 130.6 133.7 134.7 135.4 136.5 138.8 146.6 156.9 167.3 173.8 179.1 180.5 182.9 185.1 185.6 179.5 173.2 169 159.6 149.1 141.7 138.6 136.2 135.7 139.4 146.9 152.2 156.9 161.9 167.8 177.5 190.4 198.6 203.6 204.8 204.9 208.1 212.6 219.1 226.4 226.3 227.9 225.2 225.1 229.1 236.7 251.8 261.3 266.4 271.8 274.9 276.2 277.5 279.5 282.5 285.1 288.7 291.2 295.2 296.6 295.5 292.1 287.2 280.2 274.9 268.3 272.2 271.7 274.8 282.6 288.9 294 298.4 304.5 311.1 316.6 322.9 325.2 325 326.2 329.8 332.6 336.4
170.3 172.4 174 174 173.4 172.4 171.5 170.7 169.8 168.4 163.1 156.5 153.7 151.4 148.1 144.6 138.6 134.1 126 117.2 106.2 97 86.3 73.6 68.3 64.4 61.3 61.6 60.6 61 60.8 68.6 77.1 82.1 92.4 101.3 108.1 111.9 116.3 121.4 126 130.2 134.4 137.2 139 139.4 139.3 139.8 140.2 140.5 140.4 142.4 143.5 142.5 140 137.6 138.5 137.8 134.2 128.9 128.8 128.4 130.2 131.2 133.1 133.9 133.4 131.2 128.4 126.5 123.3 122.6 124 123.6 121.9 120.3 121.8 123 123.6 124.9 126.8 125.2 127.3 129.4 130.6 129.1 128.5 127.2 124.7 121 117 112.7 111.6 114.2 112.2 113.3 110.9 104.5 104.2 103.2 102.5 108.3 112.7 117.2 118.9 120.5 121.9 120.1 111.6 109.9 113.4 117.4 119.1 121.8 119.1 115.4 120.6 129.2 133 131.1 129.5 130.5 134.3 138.4 144.7 153.1 158.9 166.9 171.6 178 178 172.4 163.6 159.1 148.4 137.9 133.9 134.2 133.4 135.3 141.2 149.5 156.1 161.4 168.5 174.9 186.4 195.7 205.4 213.2 219.3 219.6 221.3 228.7 236.6 243.2 243.4 239.3 238.9 239.8 239.6 238.1 242.2 255.5 264.9 268.9 278.3 283.3 285.5 286.6 288 291.2 295.5 298 299.6 304.1 305.2 304 301.2 297.3 291.6 283.5 274.6 278.9 278 279.5 285.3 292 299.5 304.5 311.4 317.1 322.4 326.6 327.6 328.3 330.6 338.6 344.8 359.7
165.2 166.3 166 165.9 165.1 164.6 163.7 163.1 161.5 157.8 153.3 151.1 149 146.6 142.8 137.1 132.4 127.8 119.9 112.2 106.1 98 91.2 78.8 70.1 65.8 63.3 62.8 61.3 61.6 61.6 63.8 72 78.5 86.8 95.1 100 103.3 109.5 117.3 122.8 129 134.9 138.3 140.5 141.2 139.5 136.6 135.9 135.4 137.4 139.7 140.2 138.2 134.9 135.2 135.2 133.4 128.5 122.1 125.1 123.5 123.1 123.9 125.9 127.1 126.3 123.1 121.6 120.7 118.3 118 119.5 119.3 118.4 118.7 119.6 120.2 120.7 121.7 123.2 123 124.4 126.1 125 123.5 121.6 118.7 116.8 113 102.6 98.9 100.1 99.4 102.4 101.2 101.7 102.4 105.2 111.5 115.4 117.4 119.3 121.2 123.6 124.5 125 124.8 124.3 123.8 128.4 131.4 134.4 133 127.2 124.1 115.1 126.7 131.1 128.4 123.3 123.9 125.1 129.1 135.8 141 144.4 149.7 153.6 159.9 160.5 157 146.4 135 132.2 131.9 132.1 136.5 142.7 147.5 151.8 158.8 165 171.5 180.2 190.5 201.8 210.8 219.3 227.9 235.6 242.9 249 252.6 255.3 255.4 253.1 249.8 247.2 247.4 248.8 245.7 251.1 264.2 273 275.4 286.2 293.2 294.7 296.4 299 301.8 305.7 309.5 313.4 316.5 316.5 314.8 312 308.2 302.7 293.6 281.9 288.6 284.9 289.1 290.4 299.8 307.1 312.8 319.2 325.2 328.2 329.9 331.7 334.2 341.1 353 369.9 382.3
159.1 159.5 158.9 157.5 156.3 155.7 154.7 152.9 150.4 146.7 145.4 144.2 142 139.1 135 131.4 128.1 122.4 115.1 108.7 108.2 104 95.7 83.2 72.7 67.6 64 62.5 62.6 62.4 62 61.6 66.9 75.3 81.4 88.8 92.3 98.9 107.5 114.1 120.4 127 132.2 135.3 138.6 139.8 138.7 135.2 131.9 132.3 135.2 136.5 136 133.2 131.2 131.2 130.3 127.1 118.2 116.9 119.1 118.6 116.6 117.1 119.4 121.1 118.9 115.2 113.9 111.6 109.8 113 115.2 115.1 116.7 117.9 118.4 118.9 119.4 119.9 120.8 120.9 122.1 121.7 120 117.6 113.9 104.4 99.8 98.5 99.5 103.7 107.5 108.2 105.3 105 107.3 110.9 114.9 119.1 120.9 122.2 123.6 124.8 126.6 128.2 128.2 128.3 129.3 130.8 134.1 135.9 136.7 134.6 132.6 131.2 119 115.3 128 128.8 122.3 122.6 119.6 122.8 124.6 125 128.3 137.3 141.8 142.4 142 135.5 129.7 130.7 131.4 139.5 144.3 149.2 154.3 158.6 162.8 168.4 174.8 183 193.8 204.4 215 224.9 235.2 244.8 253.2 259.7 261.5 263.9 265.2 265 263.5 260.6 257.8 255 255.6 252.6 261.4 273.1 282.2 286.5 292.5 299.1 301.6 305.1 308.4 309.6 313.3 316.7 321.3 324.8 325.5 324.3 320.4 315.5 309.4 300.6 290.3 296.7 294.6 298.4 300.1 308.4 315 318.9 324.1 329.6 332 336.6 340.4 346.6 358.7 372 384.7 391.1
152.1 151.9 150.5 148.9 147.7 146.4 144.4 142.6 139 138.6 138.6 136.9 135.2 132.5 129.4 125.3 120.4 117.9 114.7 111.6 110.5 105.8 98.4 88.7 77.3 70 66.5 64 64.3 63.5 62.9 62.4 62.7 71.3 76.7 83.2 91.1 98 104.3 111.4 118.3 123.3 126.9 130.2 132.7 134.3 134.4 131.2 128.4 128.1 131.6 132 130.3 127.3 126.5 125.9 123.9 118.9 111.8 112 113.5 113.3 110.3 110.7 113.3 115.4 113.2 109.1 106.9 105.6 106.9 109.8 111.2 113.9 116.1 116.8 117 117.4 117.9 118.6 119.3 116.8 116.4 114.2 110.4 103.1 96 97.6 98.5 108.1 111.6 116.3 117.7 117.8 116.1 117.4 117.1 119.3 119.7 122.8 124.6 126 127.2 127.9 129.7 131.6 132.9 134.3 136.8 138.4 138.8 139.6 139.7 138.8 137.2 135.3 124 117.4 117 118.2 117.5 120.7 130.3 131.8 130.4 130.3 131 127.1 127.2 128.1 128.9 128.9 132.9 138.7 143.6 150.6 154.3 159 164 168 173.1 179.2 186.8 200.3 208.8 215.9 224.9 238.2 250.2 256.6 261.6 267.1 268.4 270.4 271.6 272.8 274.1 273.1 270.9 267.9 267.1 266.2 268.8 279.8 287.2 291.7 294.1 299.1 305.1 311.6 314.5 316.2 319.1 322.1 326.6 331.7 333.3 331.5 326.3 320.7 314.7 304.7 305.2 307.3 306.5 306.5 311.8 316.9 320.9 324.7 328.4 332.8 337.1 341.7 348.8 358.4 369.2 380.2 391.5 395.4
145.5 144.4 143.6 142.4 141 140.3 137.4 133 131.5 131.9 131.7 130 128.5 126.4 124.3 121.6 120.1 116 115.2 113.9 110.5 106.5 99.7 93.6 83 73.4 69.5 66.4 64.7 64.1 63.6 63.1 62.3 65.6 72.4 82.9 89.8 94.8 101.5 108.2 113.6 117.7 121.2 124 126.5 128.9 129.7 126.9 123.9 124.1 127.4 126 124 120.9 120 120.3 118 112.6 106.2 106.3 107.6 105.9 105.5 106 107 108.6 108.2 103.6 102.2 101.5 104.8 108 111.4 113.7 114.5 115.3 115.7 116 116.6 117.4 114.6 110.4 108 103.9 97.5 96.1 97.4 103 109.4 112.9 116.8 119.5 120.9 122.1 122.8 123.1 123.2 123.1 123 125 128.5 129.8 131.5 133.7 133.4 134.9 136.3 140.2 143.5 144.6 142.7 143.1 143.7 146.1 144.4 142.6 140.5 123.1 118.6 119.6 122.3 128.3 139.3 143.9 142.5 142.2 141.8 138.3 136 132.5 131.4 137.2 146.1 150.4 155.7 161.8 166.2 170.5 174.6 179.5 185.3 195 203.6 212.4 220 227.8 236.2 249.3 258.1 262.5 265 268.5 272.4 274.9 277.7 281.2 284.6 286.1 284.9 282.6 280.6 279.7 280.2 285.7 291.8 294.1 298.9 304.6 311.6 317.8 319.8 321.1 323.5 326.7 332.2 337.1 337.9 335.3 330.9 324.9 319.8 313.3 314.2 318.5 320.7 313.6 317 324.4 326 329.6 332.7 336.3 341.9 348.2 355.1 363.7 373.3 384.2 395.6 394.2
140.5 140.3 139.6 138.5 137.1 135.2 132.9 129.2 128.3 127.5 126.8 125.2 124.2 123.1 120.9 118.7 117.1 118.7 117.5 114.3 111.2 107.7 102.5 98.9 91.2 81.6 72.7 68.8 66.5 65.3 64.6 63.5 62.5 63.7 68.8 80 85.5 90.8 97.2 102.3 107.4 111.4 115.8 118.3 121.2 124.1 124.5 123.1 120.1 121.2 122.7 121.8 119.6 117.2 114.4 111.4 107.8 103.3 100.5 101.1 103.3 103.9 105.7 104.9 102.5 103.7 102.6 98.6 98.3 100.6 105.2 108.8 111.4 112.2 113.1 113.9 114.3 115 115.6 115 108 98.5 96.8 95.6 94.2 97.6 101.7 105.5 110.7 116.6 120.3 122.8 123.1 124.2 125 124.9 124.8 125.5 125.5 126.6 128.8 130.9 131.2 132.8 136.8 138.5 139.7 142.9 147.9 147.9 145.4 146.7 146.8 147.7 148 148 147.5 137.5 126.4 123.5 129.1 143.6 153.8 154.7 151.5 149.9 148.5 148 144.9 143.4 150.5 155 158.6 162 166.7 171 175.2 182.1 190.5 198.4 205.1 210.3 218.3 226.7 234.4 243 248.8 254.2 263.8 269.4 270.3 272 275.7 279.2 283.4 287.3 290.2 292.2 294.3 294.5 292 290.8 291 292.6 296.9 301.3 303.1 309.5 316 321 323.2 324.2 327 331.1 332.7 335.3 335.5 335.2 332.8 328.8 326.3 324.3 321 326.4 328.9 329.8 325.3 330.8 332.7 334.7 337.9 341.8 346.3 352.5 357.7 365.2 374.8 389.8 396.3 393.7
138.4 137.4 137 136.9 135.8 134.7 133.1 126.9 125 124.2 123.3 121.3 120.5 120.8 120.1 118.5 120.6 122.6 120.3 116.6 113.1 109.4 107 104.5 100 93.9 82.7 72.5 69.4 67 65.4 64.5 62.9 63.8 66.2 76 82 86.6 91.7 96.4 101.1 105.8 110.5 114 116.5 119.4 120 119 116.1 116.7 116.8 115.6 114 112.3 107.1 100.6 98.1 96.2 96.6 99.6 103.2 104.3 105.6 105.1 100.7 97.7 95.4 94.2 97.8 102.3 104.5 107.5 108.9 110.7 111.5 112.6 113.5 114 114.3 110.5 98.9 94.7 94.6 97.8 103.8 108.8 111.3 113.5 114.5 117.4 120.7 123.3 124.2 124.9 125.5 125.8 125.6 126.2 128.2 129.9 132.1 137.6 137.7 139.5 142.8 142.7 145 150.7 152.4 152.4 152.2 151.6 151.6 151.5 151.2 151.6 151.9 152.4 155.6 155.7 159.6 163.1 165.8 162.3 159.1 158 156.5 156.6 153.9 148.5 161.4 167.2 171.3 174.7 176.3 179.9 189.5 200.5 208.4 215.6 221.3 227.1 231.7 236.1 246.1 253.5 256.4 260.3 268.6 271.9 273.8 276.2 280.7 282.7 286.3 290.6 294.4 298 300.3 301.8 301.5 300.5 300.8 302.1 301.3 305.8 309.3 314.5 316.3 320.1 323.2 325.3 326.6 328.3 331.6 341 342.3 341.1 337.8 334.7 333.9 334 330.5 334.2 333.9 333.9 332.6 336.8 339.3 341 343 346 350.8 352.5 359.6 367.2 379.6 398.3 401.7 396.6
138.7 137.6 137.8 137.9 137.3 137.3 133.8 126.4 123.3 120.1 119.3 118.6 118.6 119.5 119.8 118.5 120.5 121.8 120.4 117.8 114.5 112.9 109.3 108.1 105 97 87.4 78.3 72.4 69.3 66.6 64.8 63.7 63.3 65.1 69.2 74.7 81.9 86.8 91.8 96.8 100.1 103.9 109.2 112 114.6 115.7 114.2 111.9 111.7 110.2 109.1 109.5 103.2 100.3 96.5 94.4 93.6 95.1 100.3 99.2 92.7 88.3 89 88 85.7 86.4 94.4 98 100.3 102.8 104 104.8 107.5 110 111.5 112.6 112.3 110.5 100.9 93.9 94.1 98.4 105.7 110 111 115 117.6 119 120.3 122 123.1 125 126.3 126.5 127.2 128.9 134.6 140.8 144.3 146.2 146.2 145.5 146 147.3 147.2 149.5 155.1 155.8 156.3 156.4 157.9 158.1 157.6 157.3 159.5 160.9 160.9 165.2 166.2 169.8 171 171.5 172.7 173.1 169.2 166.3 168 165.7 153.4 167 172.9 179.6 184.9 188.5 193.9 205.6 213.7 219.8 226.5 231.8 234.6 235.7 243.1 253.2 258.6 261.2 265.2 269.5 276.1 277.4 278.9 282 285.1 288.8 293 296.9 299.9 301.6 302.6 302.9 305 309.1 307.3 305.7 312.1 313.9 317.5 328 331 329 329.3 330.7 336.5 346 349.6 352.8 350.4 346.1 342.5 341.8 341.1 338 340.1 340.3 338.4 339.6 340.5 344.6 345.7 346.7 345.7 345.7 356.7 362.4 374 386.3 402.2 408.3 403.6
139 138.5 139.2 139.8 139 137.5 134.5 125.3 122.3 118.9 116.2 114.3 115.7 117.3 117.5 119.3 117.3 117.9 118 115.6 113.4 112.4 109.6 108.1 103.8 97.6 92.4 85.9 80.3 75.7 70.7 68 65 63.5 65 68 71.9 78.4 84.2 88.1 92.4 94.7 98.9 104.1 107.7 110.3 110.8 109.4 107.7 106.4 105.2 104.9 104.4 98.7 95.2 93.6 92.4 91.4 92.2 86.8 80.3 81.5 82.7 82 82.4 83.5 83.9 87.4 92.6 95.8 98.9 100.9 104.4 107.5 110.1 111.8 112 108.8 100.5 92.7 92.9 99.6 105.8 111.4 114.9 114.6 117 119.4 121.3 122.8 124.7 125.9 126.8 129 129.8 133.6 137.5 142.9 147.7 150.2 150.3 148.3 148.2 149.9 151.2 151.3 153.5 158.6 158.9 159.1 160.3 162 162.5 164.1 166 168.8 169.9 169.2 168.9 170.8 174.4 175.8 176.5 177.5 178.6 176.8 176.7 176.9 172.9 161.6 171 177.1 184.9 191 197.9 203.9 212.9 220.6 226.5 231.5 234.3 237.5 240.7 249.2 257.3 261.1 263.4 266.7 270 276.6 278.7 279.8 282.7 286.5 289.5 291.4 292.5 293.5 294.9 304.2 313.6 318.2 319.5 317.4 318.6 323.3 325.3 330.7 338.4 338.7 343.3 346.8 347.2 351.5 354.4 356.7 357.7 358.1 355.4 350.1 347.7 345.8 341.8 343.7 345.3 346.3 346 342.2 348.4 350.1 350.9 353.6 355.8 360.7 369.1 377.9 388 403.2 409.7 411.1
138.5 137.9 139.5 139.9 138.2 136.1 131.5 125.6 121 118.4 115.6 110.8 110.9 112.2 114.8 115.2 112 112.7 111.7 111.5 111.2 110 108.6 107.1 103.9 101.9 99.6 93.6 87.9 82.1 75.9 71.5 68.3 63.8 64.7 65.9 65.6 72.1 78.9 84.1 88.2 90.8 94.9 100 103.7 106 105.6 104.3 103.1 102.8 101 100.8 98.1 94.4 92.1 91.4 90.3 89.6 81.2 80.3 81.4 88.8 98.4 100.4 98.9 90.3 84.3 85.1 85.5 86.8 90.2 98.6 104.5 108.8 111.2 113.2 111.4 106.3 91.9 92.6 100.1 106.7 111.4 116 118.5 118.6 119.9 121.8 123.7 125.4 127.3 128.8 130.5 132.5 136.6 141.7 146.3 149.2 152.7 153.2 151.2 149.7 150.7 152.4 153.8 154.2 155.9 158.2 159.4 160.4 162.5 164.3 165.8 170.8 173.7 175 175.1 174.3 173.6 178 180.4 182.3 184.4 185.5 186 184.5 181.7 178.3 174.5 165.2 173.7 180.7 187.2 194.5 203.8 211.6 217.6 224.5 229.2 233.1 236.8 240.6 245.5 249.6 256.4 259.1 263.9 267.5 271.5 277 279.9 280.7 281.8 284.1 283.9 284.9 286.5 288.6 294.6 305 317.2 322.9 324.5 325.6 325.6 330.3 337.3 339.8 345.8 346.6 350.8 353.3 353.1 354.8 360 362.8 364.5 363 358.9 354.8 351.2 346.9 345.2 347.2 348.7 349.9 348.3 347.7 350.2 352.6 354.3 357.6 360.8 365.9 372 380.4 393.1 406.7 413.5 417.6
137.2 136.5 136.5 136.3 135.1 131.7 127.5 121.9 118.5 115 112.6 106.5 102.7 104.1 108.7 108.1 108 107.6 108.3 108.5 108.2 107.3 107.6 106.6 105.1 103.6 100.5 96.2 93.1 86.8 80.3 75.4 71.6 68.3 65.1 65.4 65.2 67.9 73.8 79.7 84.6 87.4 90.4 95.1 99 101.4 101.9 100.4 99.3 98.3 96.5 96.1 92.7 91.1 89.8 88.3 88.1 85.2 78 84.3 95.6 104.3 106.1 106.4 103.9 99.7 94.4 89.6 87.5 86.4 87.9 94.9 101.8 106.5 110.4 110.9 107.9 97.5 91.7 95.5 104 111 114.4 117.6 120.5 122 123.1 124.5 126.3 129.1 131.5 132.4 133.7 136.3 141.2 147.3 151.2 150.8 153 152.5 152.3 152 153.7 155.3 155.6 156.3 157.2 159.6 160.9 162.7 165.2 168.2 172.6 175.5 177.6 180 180.5 181.1 180.4 183.5 186.1 188.7 190.8 192.2 193.1 190.6 185.5 180.8 179.1 173.1 176.8 183 189.3 200.7 210.7 218.2 224.5 229.8 232.1 237 241.5 243.8 245.5 248.5 252.9 258.2 263.5 267.7 270.4 274.3 275.9 278.1 279.3 282.2 284.1 291.1 295.7 298.7 306.2 316.3 327 327.4 325.9 324.1 325.8 335.7 336.5 344.7 347.6 350 351.7 355.9 357.5 360.4 366.3 371 369.1 365.8 362.8 359.7 353 347.4 347 347.9 350 350.5 350 350.8 352.8 355.6 358.9 361.8 364.4 367.3 372.3 382.5 398.3 410.5 419.8 425.7
135.8 133.6 132.9 131.6 129.6 126.1 121.6 118.4 115.5 112 108.2 104.6 101 101 104.5 104.8 104.7 103.4 104.7 105.4 105.5 105.2 105.6 105.7 105.1 103.8 100.6 97.4 93.9 89.2 84.1 79 74.6 70.4 65.9 65.4 64.9 67.4 70.7 74.1 79.4 82.4 84.1 88.8 93.9 96.7 97.7 96.3 96.5 94.7 92.4 91.1 89.8 87 85.4 84.8 84.6 84 79.3 85.2 95.1 103.8 108.2 108.4 107 105.4 101.4 99.3 97.7 94.1 88.6 88.2 94 100.5 103.5 101.1 96.1 90.3 92.4 102 110.3 115.5 118 120.8 123.6 125.8 127.3 129.2 130.6 133.2 135.9 139.1 140.7 141.1 145.6 147.5 149.7 153.1 152.5 152.9 154.5 155.4 156.7 157.1 158 158.7 160 162.5 164.1 167 171.3 177.5 180 182.6 185 186.4 187.4 189.1 185.7 187.5 191.5 194.7 196.8 199.6 198.4 194.8 187.8 184.7 182.5 179.9 176.1 184.5 191.1 203 213.2 222.8 229.7 234.2 241 243.8 244.5 243.8 244.4 246.6 250.7 256.3 262.8 265 268.4 271.8 277.7 284.2 287.2 291.3 297.8 306.6 312 313.7 318.9 320.3 328.9 331.2 326.1 321.5 324.1 330.6 336.3 343.1 346.1 350.2 355.3 359.2 359.4 365.4 373.9 376 372.4 369.1 368.3 364.5 352.7 346.2 346.2 347.7 349.7 350.3 352.6 356.9 360.4 361.7 362.5 363.2 364.8 369.6 376.3 386.1 403.2 415.6 429.5 434
134 131.3 129.4 127.4 125.4 122.8 119.6 116.4 113.6 112.9 110.6 107.9 103.9 97.8 100.5 101.6 100.8 99.9 100.9 102.1 102.5 103.2 103.6 103.8 103.2 101.4 98.8 96.6 94.1 91.3 87.7 82.9 76.8 72.3 69.2 66.5 66.2 66.7 68.1 70.5 72.6 74.6 78.1 83.7 88.5 91.9 92.3 91.4 91.5 89.8 87.8 86.7 85.5 83.6 82.4 82.4 82.5 79.8 79.3 87.7 95.5 102.5 108.7 110.6 111 110.6 109.6 107.4 106.2 103.6 98.2 91.9 88.5 89.3 89.8 90 90.4 92 99.5 107.3 114.6 119.5 122.3 125.1 127.7 129.4 130.9 133.8 135.2 137.3 139.7 142.1 144.8 147.8 147.8 151.6 154 155.4 155.9 155.5 156.3 158 158.2 159.1 160.8 162.4 163.5 165.4 168.4 173.3 179.7 183.4 186.6 189.4 191.3 193.2 194.6 192.6 188 191.9 196 200.1 204 205.1 203.2 198.3 190.8 187.7 186.4 185.6 178.8 187.6 194 201.9 212.4 223.8 233.7 242 245.6 246.5 244.4 241.5 243.2 247.4 252.4 257.6 260 264.4 272.8 279.6 287.9 291.9 294.3 296.9 304.9 311.7 315.8 312.7 317.9 331.5 345 342.5 329.7 324.4 326.8 330.6 333.9 339.3 344.7 353.2 364.4 360.8 361.3 366.5 369.4 371.1 370.9 371.1 370.1 365.5 352.5 345.1 345.8 347.4 347.3 350.6 358.2 362.1 366.3 366 363.8 364.7 368.2 375.1 382.4 394.2 409.8 423.5 431.3 434.9
134.1 131 127.7 124.5 122.5 119.9 117.8 116 115.5 114.3 112.1 109.5 105.1 97.7 95.6 97.7 96.8 96.9 97.3 98.4 99.3 100.4 101.5 102 100.6 98.6 97.4 95.8 94.8 93.2 89.4 85 79 74.2 69.9 67.6 67.3 66.8 67.8 69 70.3 73.3 75.8 80.4 84.6 86.7 86.1 84.3 85.6 84 81.7 81.6 80.2 78.9 78.8 80 78.6 77.7 78 90.5 98.7 105.2 110.5 113.4 114.1 114.2 115.3 114.1 112.3 110.7 108.3 105.5 98 91.9 96.6 102.8 107.1 111 113.3 114.7 119.4 123.7 126.8 128.9 131 134.6 137.6 139.4 140.4 141.7 143.3 145.1 149.1 151.8 152.7 153.4 155.8 157.3 158.4 158.1 157.9 158.9 160.5 162.3 164.6 166.4 168.9 172.2 176.4 180.7 185 188.6 191.3 193.6 195.7 198 198 194.2 192 195.4 199.5 204.4 207.8 209.9 209.7 204.7 198.7 194 190.3 189.6 186 190.5 195.4 202.3 209.1 224.5 238.6 243.9 246.4 244.6 241.1 238.8 241.7 247.1 251.7 255.1 264.5 277.8 284.4 287.8 292 294.2 294.2 297.8 304.2 302.6 302.2 310.4 323.5 333.2 336.4 331.2 327.9 329.3 331.9 335 342.2 341.5 344.7 356.6 360.4 354.6 357.7 361.8 366 370.5 373.1 373.7 371.8 361.5 350.1 346.9 345.8 346.5 350.3 358.7 362.5 365.4 368.3 369.2 371.4 373.6 375.4 382.6 392.2 407.9 418.9 428.5 429.8 435.8
134.5 131.3 128 125.1 122.6 120.6 118.1 116.2 114.1 112.5 110.5 107.4 103.4 97.3 91.8 94.5 93.3 93.2 93.3 94.3 97.2 99.2 100.5 101 99.8 97.3 95.9 95.5 95.8 94.1 90.9 86.3 80.2 76.2 72.2 69.4 68.1 68 66.8 68.2 69 70.4 73 78.3 81.2 80.9 78.1 76.8 77 75.5 75.2 75.5 75.4 75.7 75.7 76.1 76.4 76.1 81.7 92.7 100.2 108.4 112.9 115.9 116.1 116.7 120.3 120.9 118 115.9 114.7 113.4 109.6 105.9 111.3 116.8 119.8 121.9 121.5 121.6 124.5 128.2 130.9 133.8 137.3 141 143.7 145 145.2 145.6 146.7 148.7 151.9 154.1 155.5 156 157.2 158.8 159.7 159.9 160.3 162.3 164.5 166.9 169.1 171.1 174.6 178.9 183.4 186.5 189.1 192.4 195.6 197.7 200.5 200.7 198.6 196.2 196.1 197.9 202.3 207.2 211.2 214.7 215.6 211.6 211.9 207 199 194.8 193 192.9 198.4 203.1 210.1 224.8 236.3 243.2 243.7 240.1 235.2 238.1 247 249.4 251.7 262.1 275.6 279.9 285 287.9 291 289.8 295 292 288 288.8 300.8 312.4 319.1 325.2 330.1 331.2 334.9 337.2 336.6 338.1 345.1 343.9 343.2 348.5 355.2 352.6 352.6 360.5 366.7 369.3 372.1 374.3 373.5 364.7 352.3 349.9 348.6 350.6 357.3 362.5 365.3 367.3 370.9 376.7 384 388.5 391 396.5 405.1 415.3 427.4 432.4 433.8 443.7
133.2 129.4 125.9 122.7 120.6 119.5 116.2 112.1 109.8 108.7 106.9 103.8 100.2 95 89.4 90.8 91.2 90.9 92.3 94.5 97.7 99.5 100.9 101.3 101.3 98.5 97.1 97.1 96.5 94.4 91.5 86.7 81.1 78.8 78.6 74.2 68.8 68.7 67.6 67.4 68.4 69.2 69.5 71.4 73.6 72.6 72.4 71.3 72.2 72.5 73.4 73.8 73.9 73.7 74 74.5 74.5 81.1 91.3 97.6 105 110.4 114.7 116.8 116.9 119.3 124.5 126.6 124.2 121.8 120.8 120.1 117.3 118 120.9 123.1 125.4 125.5 122.4 124.9 128.5 131.5 135 138.3 142.2 145.3 147.4 148.4 148.4 148.5 150 151.7 154.7 156.4 157.4 158.4 159.7 162.4 163.4 164.7 166.2 168.6 169.6 171.5 173.7 176.7 180.8 185.4 188.8 191.4 195 198.4 201.1 202.7 203.3 202.3 199.9 199.5 200 202.1 204.1 209.1 212.9 215.5 216.4 217.6 219.9 219.5 214.1 205.3 199.1 194.9 201.5 205.2 211.2 223.4 232.3 239.4 235.2 230.9 235.4 241.5 245.5 248.3 252.4 264.6 270.1 274.2 280.1 284.5 284.7 286.7 286.3 286 281.6 286.8 298.6 308.1 318.5 329.3 334.6 340.1 348.2 352.6 352.4 352.6 358.7 355.2 346.5 351.8 355.2 353.6 356.6 364.8 370.7 376.3 380.2 382 380.5 369.5 356.8 353.3 352.4 355.5 357.1 363.2 366.6 369.1 377.7 390 402.9 410.4 413.4 411.3 413.4 421.4 433.7 435.9 438.8 448
129.1 125.8 122.9 118.9 116.6 115 112.4 108.2 105.6 104.1 102.7 100.4 96.2 91.8 87.4 87.9 88.7 89.7 92.2 95.8 96.8 97.6 99.8 102.2 102.7 101.4 99 96.4 95.5 94.5 91.7 86.7 81.6 79.3 80.6 78.6 73 69.4 68.7 67.4 68.6 69 69 69.5 70.5 71.5 72 72.9 73.5 73.5 73.9 74.1 75.1 76.3 79.6 83 84.2 85.9 90.9 96.4 103.7 109.3 113.8 116.6 118.1 121.8 126.3 129.2 129.1 127.8 126.3 125.5 124.7 125.8 126.3 127.6 129 128.5 124.3 129.6 133.2 136.6 139.9 143.2 147 148.8 150.7 150.9 150.9 151.8 153.1 155 157.2 157.6 160.2 162.7 165.1 167.4 168 169.6 171.7 174.5 175.6 177.8 180.7 184.2 187.2 190.7 193.6 196.2 199.3 202.5 205 206.7 207.8 206.4 202.7 203 204.8 206.2 207.7 210.2 212.5 214.9 216.8 220.7 225.5 226.2 223.4 212.1 204.7 196.8 203.7 208.1 213.8 218.8 225.8 229.2 226.7 231 237.2 243.6 245.8 248.3 252.4 256.7 261 267.8 271.4 276.2 277.3 279.7 283.4 279.7 280 286.8 296 312.2 328.7 341.3 343.2 345.4 351.7 357.2 363.2 360.7 359.1 361.7 360.7 368.8 368.2 365.5 364.6 370.9 373 375.3 378.1 382.8 381.7 370.4 358.8 356.8 356.3 359 361.7 364 366.3 377.6 393 408.4 420.4 429.2 428.4 421.9 419.5 425.2 435.5 440.3 443.2 456.6
125 121.9 118.8 115.3 112.4 110.2 107.8 104.7 102.3 100.4 98.8 97.5 93.2 88.9 84.9 85.3 86.6 88.7 91.3 92.4 93.5 95.4 98 99.2 99 98.1 96.6 94.9 94.6 93.5 90.1 85.9 82.1 79.8 80.8 80.5 76.2 69.3 69.7 68.1 68.2 69.6 70.3 70.8 70 70.9 71.5 74.7 73.7 74.8 76.1 78.3 77.6 81.6 82.8 83.1 83.9 85.6 88 93.1 100.6 107.5 113.5 117.3 120.3 124.3 127.7 130.2 130.8 130.2 129.1 128.8 130.3 130.8 130.9 130.6 130.6 127.7 128.8 133.6 138.8 141.1 143.6 146.8 149.8 152 153.1 153.4 153.8 154.7 155.9 158.9 161.4 161.9 164 166.8 169.1 171.2 173.1 174.7 177.2 180 182.4 184.5 187.2 189.9 192.5 195.3 198.6 200.6 203.5 207 209.7 211.1 212.6 210.3 206.3 207 210.4 211.6 212.3 213 214.5 215.8 219.1 222.6 226 223.4 215.7 210.7 204.5 199.3 206.4 209.6 214.2 216.6 218.8 222.1 226.6 230.8 240.5 245.6 248.4 249.6 252.7 254.4 258.7 261.4 263.9 269.8 286.4 292.3 291.1 281.7 286.6 294.3 310.3 332.1 342.6 340.9 335.4 337.9 347.5 358 362 358.1 363.2 368 369.6 371.1 370.4 367.7 366.6 367.9 370 372.8 377.6 381 380.2 368.6 361 359.5 359.2 360.9 362.7 365.7 375.8 393.2 410 422.7 429.5 437 434.9 426.7 423.9 430.8 439.6 443.7 452.9 463.8
120.8 117.8 114.7 111.2 108.2 105.7 102.9 100.5 98.9 96.1 94.9 94.7 93.2 89 83.8 83.1 84.6 87.3 89.9 90.3 89.9 91.3 94 94.7 95.2 94.4 93.7 94.3 94 92.1 88.6 84.4 80.7 78.8 79.8 80.3 78.9 75.7 72.9 69.9 69.7 71.3 71.6 70.9 70.2 71.4 73.1 75.4 78.2 79.6 80.3 80.6 81.4 82 82.4 82.8 84.7 86.3 89.3 93.7 99.5 108.2 111.6 116 120.4 124.7 127.4 131 131.7 132.1 132.4 134.2 134.3 134.5 134.4 133.6 130.6 129 133.7 138.9 141.9 142.9 145.1 148.9 152.6 155.6 157.3 157.6 157.6 158.2 161 165 167.3 167.5 167.6 169.4 173.1 175.5 177.4 182.1 183.7 185.2 187.6 190.4 193.2 195.3 197.6 200.7 204 206.9 211.1 213.1 216.4 217.8 214.9 211.5 211.8 213.7 214.7 215.7 216 215.6 215.6 217.5 218.8 222.2 221.2 216 211.2 206.4 204 202 206.9 211 213.3 216 219.5 222.9 226.9 235.4 245.9 251.2 252 252.3 252.4 254.4 255.9 256 261 280 288.2 292.4 293.5 291.6 297.9 311.3 328 338.8 336.8 326.3 323.5 331.8 340.9 347.9 352.6 353.7 362.2 367.1 367.9 368.5 367.4 364.3 360.8 361.3 365.1 368.8 371.6 376.2 375.3 366.7 362.6 361.2 360.9 361.9 363.5 375.8 390.1 408.5 419.6 428.8 440.3 445.3 442.2 437.9 437.2 441.6 447.5 453 463.2 466.3
116.6 113.6 110.5 106.4 102 99.1 97 95.9 93.8 89.1 89.1 91.3 90.6 86.4 83.1 81.2 83.4 86 87.3 88.2 87.8 88 89.2 91.1 93.1 92.5 93.2 95.8 95.1 91.3 86.8 82.7 78.6 77.2 78.9 80 78.5 76.3 71.6 71.1 72.1 74.4 74.5 74.1 74 75.5 75.4 76.7 78 79.2 80 80.4 80.9 81.6 82 84.2 86.7 89 94.2 98.9 102.3 107.1 112 116.9 120.4 125.9 130.4 133.1 135.2 135.7 137.6 138.4 138.4 138.3 137.6 135.9 132.9 131.6 137.3 140.9 142.6 144.2 146 149.6 154.8 160.4 161.9 162.1 162.1 163.9 167.1 170.2 171.7 172.3 173.1 174.7 177.2 182.9 189.1 194.2 193.9 191.9 195 197.3 199.5 200.4 204.7 206.9 209.2 213.9 218.2 222.2 224.2 219.7 215.7 214 216.1 217.7 218.2 218 217.3 215.7 216.3 218.3 220.1 220 217.8 212.4 207.6 205.3 204.4 203.9 204.9 210.5 212.4 215.3 219.2 223.5 232 245.3 252.9 254.5 252.8 252.1 251 251.7 252.5 256.9 268.5 278.6 290.2 300.3 301.4 297 306.6 321.2 330.8 330.7 326.8 318.2 320 328.2 336.9 339.2 345.4 345.8 352.8 358.6 361.8 362 359.4 357.4 356.7 358.7 362.2 364.3 367 371.9 368.9 365.2 363.3 362.5 362.8 363.7 377.1 390.6 402.4 415.2 427.8 437.9 445.3 450.5 451.3 449.2 447.7 449.5 455.1 461.5 466 467.4
110.2 109 105.6 99.6 95.3 92.8 91.5 90 89.1 87.3 86.3 85.9 84.2 83 81.8 80.2 80.9 83.1 84.1 84.4 84.8 86.3 86.4 87.3 90 92.1 90.3 93.8 94.9 90.4 84.3 79.6 76.1 75.9 78.2 78.7 76.9 74.8 72.8 70.5 74.2 75.2 74.6 75.7 75.6 73.3 71.7 73.7 77.2 79 79.7 80.1 80.4 81.2 83.3 87.1 90 92.1 98.1 104.4 107.5 110.7 116.5 123.8 127.1 129.9 134.2 136.4 138.4 141 143.2 144 143.8 141.8 140 137.7 135.6 133.9 138.9 141.5 142.7 144.6 146.7 152.6 160.4 164.1 165 166 167.3 170.3 172.7 173.9 175.5 178 180.8 187.9 192.6 196.8 201.2 202 201.4 202.3 204 206.3 208.9 213.1 215.3 215.4 218.6 222.4 226.1 228.4 226.8 221.9 217.1 217.7 221.9 221.8 221.1 220.5 219 215.9 216.9 218.7 220.1 219.3 216.2 211.6 207.6 205.5 204 205.1 205.8 207.6 209.7 214.5 218.7 224.9 240.6 252.2 256.3 253.1 249.1 248.3 249 251.7 253.5 256.8 268.7 286.1 302.3 309.7 304.8 303.2 312.7 322.9 325.8 326 321.4 314.2 317.6 329.2 339.7 339.6 335.5 336 344.1 351.1 352.6 354.2 357.9 362.6 362.1 364.3 365.4 367.2 373.9 371.3 366 364.8 364.2 363.3 363.5 374.7 386.7 397.1 410.7 424.8 435 444.3 452.3 461.3 459.5 457.9 456.9 458.5 461.4 464.5 469.9 470.6
99.9 101.1 100.5 98.9 97.5 95.8 93.1 89.5 88.1 87.6 85.5 84.6 83.6 82.7 80.2 79.6 79.5 79.8 80.6 80.4 80.3 81.8 82.8 83 82.9 84.7 91.5 94.3 92.1 87.5 81.7 76.8 74 74.5 76.9 77.1 75.2 73 69.6 70.2 72 73.6 74.4 73.8 67.6 62.5 67.8 72.7 77.6 78.7 79.7 80 80.7 82.9 86.4 89.9 93 97.4 101.7 108.2 114.6 121.5 127.3 129.6 130.6 133.3 137.2 140.6 144.1 147.2 149.5 151.2 151.1 149.3 143.1 140.2 138.3 136.2 138.6 141.2 143.3 146.3 150.5 155.4 162.9 167.6 169.2 169.8 172.2 174.4 176.3 182.9 188.9 191.9 195.7 200.5 204.7 207.2 208.2 208.2 209 211.5 216.5 221.6 223.7 226.5 225.6 226.5 229.1 230.7 231.6 229.9 226 221.2 217.1 219 223.8 227 229.2 224.8 218.3 216.5 217.6 218.6 219.4 218.8 217.5 215.2 210 205.9 203 204.2 205.9 206 207.7 214.5 219.2 226.7 241 250.9 252.3 248.2 245.8 247.2 247.4 251.1 252.8 258.9 280.2 300.6 309.8 312.1 310.5 307.7 311.4 314.6 315.1 315.6 311.4 307.3 316.5 327.1 334.1 338.8 334.4 329.5 336 341.5 344.3 347 353.3 357.3 359.2 364.1 367.3 372.2 374.1 367.7 364.8 364.8 364.5 364.7 373.1 383.3 393.6 404.9 419.1 431.8 443 453.2 464 467 466 464.1 463.2 463.4 464.9 467.9 472 471.5
109.3 105.3 103.6 104.9 105.5 104.7 100.1 96.5 92.4 88.8 86.7 85.9 86.9 84.9 79.2 79.5 78.9 78.7 78.7 78.5 77.8 78.1 78.2 78.4 78.7 82.4 87.7 89.2 87.6 84.2 79.5 74 72.7 73.2 74.9 76.1 74 69.4 65.9 65.5 68.2 72.8 73.2 70.2 63.7 62 67.3 72.5 77.4 77.9 79.2 80.3 83.1 86.1 89.7 93.4 97.5 102.1 107.4 112.8 119.9 128 132.7 135.1 135.7 138 141.9 146.3 150.3 153.2 156.2 159.5 163.6 163.2 153.8 142.8 141.1 138.7 139.7 142 146.2 150.7 155.4 161.6 170.7 177.6 179 182.6 185.9 184.3 187.9 195.8 197 199.5 204.7 209.1 214.5 217.3 218.2 217 218.1 221.8 227.3 231.2 233.3 233.8 235 235.8 236.9 238.8 234.7 230.1 223.1 217.3 216.1 219.1 222.5 225.9 228.3 222.6 217.1 217.2 218.3 218.9 219.4 219.5 218.8 217.9 212.9 206.3 202.3 201.7 203.8 208.1 212.3 216.9 221.3 230.7 241.1 246.8 247.1 242.8 241.6 244.4 245.9 249 260.6 278.8 295 304.6 309.9 314.3 312.4 305.1 304.7 306.6 305.7 304.1 301.2 304.5 311.4 319.1 326 331.3 327.2 326.7 330.1 335.5 338.4 341.1 343.8 346.2 351.3 356.1 362.7 364.1 364.1 362.2 363.1 366 369.3 377.7 383.6 390.3 400.6 413.3 426.3 439.5 450.9 460.4 467.6 471.1 470.4 468.4 466.9 467.3 468.4 470.8 471.5 472.2
113.6 108.5 111.7 113.7 113.2 108.9 103.8 98 93.2 90.1 88.2 89.4 89.2 87 83.7 79.6 78.3 78.3 78.3 77.6 77.1 76.2 75.6 75.1 76.1 79.5 82.6 83.2 82.9 81.7 77.5 73.5 72.1 72.3 73.1 74.6 72.6 68 66.1 64.7 64.5 67 66.4 63.5 62.6 63.5 67.3 74.2 77.2 77.5 79.3 82.7 85.8 90.1 94.6 98.3 103.1 107.7 112.3 118 126.4 133.7 138.4 142.3 144.4 146.2 149.5 153.4 156.2 159 164.7 172.8 175.8 173.3 164 155 145.6 141.6 141.8 145.3 151.2 155.7 159.8 166.3 179 188.3 193.3 196.7 197.7 194.4 196.8 201.4 205.1 209.9 214.6 221.9 231.8 237.8 235.3 237 236.8 242.5 241.9 247.6 234.1 230.3 224.2 221.4 215.8 211.2 212.4 229.4 221.3 215 216 217.2 220.4 223.8 222.3 218.2 217.4 217.9 218.2 218.1 219.1 220.1 218.9 217.3 211.5 204.5 199.8 203.3 205.5 210 214.3 217.9 223.5 230.7 237.3 240.4 241.9 239.8 242.2 245.7 252.9 262.7 276 290.8 297.7 303.6 311.3 310.2 302.6 297.1 297.1 296.6 295.9 296.7 298.8 303.3 307 314.9 319.6 323.1 323.5 324.1 326.2 330.5 334.2 335.6 336.3 338.2 343.3 351.1 355.7 357.9 359.6 361.3 364.9 373.5 381.9 387.3 392.8 398.5 413.9 425.6 434.6 446.6 457.3 466.6 472 472.8 471.2 469.5 468.5 469.2 469.9 471.2 472.3 472.5
119.4 116.1 116.5 115.7 112.3 107.3 102.9 99.1 94.3 92.2 91.7 90.9 90.4 89.5 87.4 84.5 80.2 77.9 77.7 77.3 76.4 75.6 75.1 74.6 74.6 75.7 76.9 77.4 77.5 78.6 76.2 73.6 72 71.5 71.8 72.2 70.5 67.5 66.3 65 64.4 63.4 61.7 62 64.2 64.9 66.4 75.1 77.1 77.1 80.4 84.5 88.6 93.5 98.4 103.1 110.7 114.1 117.9 124.4 132 139.3 145.2 149.4 152.7 154.2 157.2 159.4 161.9 167.2 178.8 181.5 182.3 178.8 172.8 166.2 152 143.1 142.4 147.6 156.9 161.5 163.7 170.6 187.1 195.3 202.9 203.5 201.5 202.4 206.4 211.1 215.7 220.3 231.4 238.2 244 244.8 241.2 227.6 219 213.6 223.4 214.3 213.5 213.3 214.6 225.4 213.3 212.1 210.8 216.5 218 216.5 218 216.7 219.7 221.8 221.4 219.4 218.8 219.8 217.7 216.4 216.9 220 219.4 213.6 206.3 202.1 199.2 202.3 205.7 210.3 214.3 221.5 228.3 228.2 232.3 236.7 239.4 241.8 246 255.3 263.2 272.5 283 289.6 296.3 301.2 301.4 299.1 294.1 292 291.1 292.2 292.2 294.5 295.7 299.4 304.2 311.2 317.3 319.4 320.8 323.2 326 328.2 331.4 334.2 337.1 339.3 344 349.3 355.2 357.1 358.7 362.2 373 387.3 398.4 403.2 403.5 407.9 422.5 430.6 440.4 452 461.4 473 475.8 472.5 469.9 468.4 468.6 469 469.4 470.9 472 471.4
122.6 118.8 113.9 110.1 106.7 105.5 104.7 98.9 96.7 96.8 97.1 96.1 95.9 93.7 91 86.9 82.7 79.1 77.8 76.7 75.7 75 74.6 74.4 74.1 73.4 72.8 71.9 70.6 69.7 72.2 72.3 71.3 70.8 70.8 70.3 68.9 67.4 66.4 65.3 64.6 67.7 63 63.2 64.2 66.1 69.7 74.6 76.3 77.8 81.3 86.1 91.7 96.6 101.9 109.7 116.5 120.8 126.1 130.9 138.6 146.4 153.4 158.7 160.4 162.5 164.9 167.1 170.8 178 184.6 185.1 184.2 182.8 176.8 170.5 151.4 143.1 141.8 148.4 162 167 166.5 180.2 191.2 201.7 207.9 211.2 212.3 216.3 217 219.7 228 231.9 236.7 239.1 222.3 220.7 220.5 203.8 203.8 205.8 247 247.5 246.9 246.5 247.3 249.7 250 233.1 243 240.5 218.4 215.7 218.2 216.8 224.3 222.4 222.3 221.9 223.5 223 220.3 215.2 212.4 215 213.5 206.7 203 201.4 199 202.3 206 211.2 214.9 224.6 230.9 233.6 232.6 240 242.2 246 253.8 260.4 267.7 275 281.4 286 291 292 289.9 289.5 289.8 288.4 288 289.1 288.5 291.1 295.2 299.5 302 307.4 316.5 319.9 322.4 325 330.1 332.4 334.5 337.3 340 343 347.8 351.2 353.4 355.2 357.8 368.2 384.8 399.9 410.2 416.5 415.2 418.6 428.8 436.1 448.9 458.9 470.6 477.2 477.2 471.1 468.2 467 468.4 468.7 468.9 470.3 471.2 466.4
125.5 122.2 117 112.3 107.4 104.3 101.7 100.6 101.3 102.6 102.7 102.5 101.2 97.5 93.9 89.4 85.1 81.5 79.2 77.5 75.1 74.3 73.7 73.4 72.8 72.1 71.1 72.1 77.5 75.5 69.4 70.9 71 70.5 70 69.3 68.1 67.2 66.3 65.5 64.8 64.3 62.5 63.4 65.2 68.4 72.7 75.6 76.8 78.4 82.4 87.9 95.1 100.2 107 115.2 120.3 125 130.2 135.9 143.6 152.7 161.8 166.3 169 171.4 173.8 177.2 179.8 181 184.9 185.8 183.7 181.7 175.9 164.8 153.6 141.2 141.2 147.6 160.4 169.6 170.7 186.4 194.4 205.7 215.5 218.1 220.7 222.2 223.2 224 231.4 233.3 234.5 234.2 230.5 232.4 222.2 235.3 244.5 245.1 244.4 243 244.1 245.9 247.8 250.7 250.8 249.5 245.8 239.2 226.1 216.5 215.4 216.1 228.8 230.8 232.5 231.2 227.5 223.9 220.7 217.8 209.4 206.6 205.3 204.4 203.2 202.1 198.7 201.4 207.2 211.9 218 224.6 233.6 231.6 235.4 241.6 243 248.2 255.5 261.6 268.2 273 277.6 282 283.5 284.8 286.3 288.2 286.8 284.8 285.3 285.8 287.5 292.4 296.9 303.6 310.1 315.5 319.6 323.5 326 330.1 334.8 337.6 340 342.3 344.6 347.3 349.4 352.3 354.3 357 364.7 378.4 398.8 410 420.5 425.5 425.1 427.5 440.6 446.1 456.5 466.7 476.1 479.6 475.9 468 465.8 464.6 466.1 467.2 467 465.2 459.1 455
126.9 122.7 117.4 113.1 110.8 107.2 105.4 107.1 107.9 108.6 108.4 108.1 107.1 102.9 97 93 90 88.7 85 80.5 78.1 75.5 75 73.7 71.7 71 72.7 77 79.6 77.5 70.8 69 69.9 69.5 69.1 68.8 67.7 66.7 65.9 65.2 64.6 63.9 62.3 63.4 68.8 72.6 74 75.2 76.3 78.5 82.3 90.5 98.5 105.2 112.7 117.9 121.5 126.5 132.3 139.5 150.8 160.3 169 174.1 176.7 180.5 184 187.4 185 182.4 181.2 177.7 173.8 167.2 162.6 157.8 152.8 139.7 139.9 144.8 159.2 167.3 171.1 187.5 202.6 211.5 218.4 223.1 226.8 223.2 219.6 222.8 228.3 225.7 226.8 223.5 223.2 226.1 234.2 238.9 243.6 245.5 242.9 241.3 243.5 248 252.9 255.4 253.7 252.2 252.4 242.5 234.9 226.3 220.3 216.4 229.7 232.8 233.4 231.2 226.6 224.5 220.1 213 206.5 203.8 205.8 205.4 205.4 203.5 197.2 201.9 207.8 213.3 220.1 225.8 231.6 228.5 237.6 241.7 245.5 248.9 255 260.8 265.4 269.2 272.5 276.5 279.1 282.9 285.8 282.5 282.3 282.9 282.2 285.5 290.2 296 303.7 312.2 317.3 321.3 324.6 327.2 333.3 336.6 339.3 342.8 345.7 347.4 348.9 350.6 352.1 353.7 356 362.7 374 390.1 405.4 418.5 430.3 434.4 435.2 442 449.8 453.7 463.4 472.6 476.3 477.1 467.8 457.8 462.4 461.3 461.3 462.3 461.1 456.7 452.3 449.9
126.5 122.1 120.5 118.7 116.1 112.6 111 113.4 115 115.8 115.2 115.1 114 111.3 103.4 97.3 96.1 94.5 91.7 86.8 83.8 81.3 81 78.5 75.7 75.3 75.2 79.9 80.4 77.4 73.1 68.3 69.1 68.4 68.3 68.3 67.2 66.3 65.5 65.1 64.4 63.7 62.4 63.6 65.5 71.4 74.4 75.1 77.2 80.8 85.7 93.5 102.4 110.1 115.7 119.4 122.7 127.4 133.7 145.2 156.6 166.6 174.8 179.8 183.8 187 189.7 189.2 187.7 184 175.2 168.3 162.7 157.5 158.5 154.5 150.6 137.5 138.3 142.6 156.7 162.9 171.7 190 218.5 218.5 221.2 223.6 223 219 216.2 215.7 216.1 214.2 211.2 210.8 218.1 225.8 232.5 238.3 240.2 241.5 241.1 241 243.5 250.1 253.3 254.1 253.9 254.6 257.3 251.6 244.7 238.8 231 217 229.1 232.3 231.4 228.6 226.1 225.2 217.2 207.2 201.8 203.2 206.4 208.2 206.4 199.8 197 203.4 207.9 214 221.6 227.7 228.6 229.1 238.9 243.8 248.4 250.9 255.3 259.8 263 266.2 269.9 273.8 278.5 281.7 279.4 279.5 280.7 281 286 289.1 296.3 304.1 312.6 318.6 323.7 328.3 330.6 335.9 340.4 343.5 346.5 349 351 352.4 353 353.6 354.1 356.5 361.1 369 382.8 398.5 412.1 423.6 434.5 440.1 445 451.4 457.5 461.6 469.5 474.8 475.1 472.1 465.8 460.8 459.2 457.8 455.9 455.5 454.3 449.2 447.3 446.6
127.5 126.8 126.2 123.6 120.8 117.7 117.2 119.3 121.8 122.2 121.4 119.7 119.5 117.7 107.7 102.6 102.4 101.8 100 92.7 89.7 87.6 86 81.1 78 76.6 77 80.3 80.6 75.9 72 69.4 68 67.5 67.5 67.5 66.8 65.9 65.4 65 64.3 63.7 62.6 63.2 63.9 70.2 73.4 74.6 78 84.9 90.4 96.5 105.9 113.9 117.8 120.2 123.1 128.1 137.6 150 161.9 171.8 178.6 183.6 187.5 188.1 188.4 187.9 188.5 184.2 171.2 162.4 156.8 153 150.9 147.9 140.3 136.6 137.4 141 148.3 160.4 173.2 192 192.5 197.5 218.8 220.1 217.3 213.2 209 204.4 203.9 199.1 200.2 204.5 217.3 219.9 225.5 227.4 228.3 237.3 242.7 248.2 254.8 259 260.9 260.5 260.9 264.1 269 266.4 259.9 250.2 236.8 219 222.2 226.3 225.7 225.6 223.9 215.2 207.8 203.1 200.3 205.5 207.9 206.7 199.6 196.2 199.6 203.1 207.9 216 222.2 226.8 223.9 232.4 238.4 243.6 248.7 251.3 255.1 258.5 261.5 263.7 267.6 272.5 277.2 276 277.1 279.5 281.9 285.7 292.4 297.2 305.2 313.3 319.5 324.3 328.6 334.3 336.8 342.2 344.9 347.8 351 353.5 355 355.5 356 357.3 357.7 362.5 369.5 379.9 393.8 404.7 415 429.4 440.3 447.5 454.1 463.5 469.2 473 476.6 477.9 477 473 465.4 458.7 455.7 453.7 451.6 448.2 444.5 443.5 442.9 442.8
129.3 131.7 130.1 126.8 124.5 123.6 124.7 125.5 128.2 125.7 123.8 123.4 124.2 119.5 110.9 109.6 109.4 109.5 106.9 97 93.5 91.5 86.9 82.1 79.5 78.2 78.8 81.4 79.8 75.1 71.8 69.6 67.2 66.7 66.7 66.6 66.4 65.7 65.3 64.8 64.2 63.7 63.8 63.4 63.9 69.4 72.6 74.4 78.3 85.3 92.3 99.9 109.6 115.8 119 120.5 123.7 129.5 140.4 153 165.1 174.3 179.1 183.3 183.8 183.3 185 186.9 187.2 183.4 172.3 164 156.8 151.5 147.4 143.8 138.7 136.7 137.1 139.2 145.7 157.5 179.5 172.5 172.7 189 211.6 209.9 204.8 197 190 185.5 185.2 186.6 187.6 194.4 200 202.1 207.5 212.6 226.3 243.7 252 261.6 264.6 266.7 268.1 266.5 269 275.1 278.8 275.8 267.7 252.6 238.2 218.3 208.4 212.5 216.2 219.1 214.1 207.8 203.4 200.9 198.7 204.1 204 196.4 192.2 193.1 197.5 202.3 205.3 213.5 221.7 218.4 219.7 221.3 232.4 241.2 245.7 250.6 253.2 251.8 256.2 260.7 264.5 269.6 270.3 279.2 282.8 284.4 288.6 294.3 300.4 306.6 313 319 324.2 329.1 334.1 339.2 343.4 346 348.9 351.2 354 356.3 357.5 358.1 358.8 361.1 364.7 372.8 382.4 396.2 409.9 422.3 432.3 441 450.5 456.8 464.5 474.5 477.6 479.2 480.4 481.1 478.8 474.2 462.8 455.2 450.3 446.2 443 440.8 439 438.3 438.6 438.8
132 134.1 133.1 129.6 127.6 129.5 130.6 130.5 129.8 127.8 126.4 126.3 125.7 120.6 116.3 115.8 115.7 115.7 109.3 101.4 97.1 93.9 89.5 86.8 86.2 82.5 81.1 81.9 79.5 74.8 72.3 70.6 67.3 65.8 65.8 65.8 65.5 65 65.2 64.7 64.6 64.5 63.9 63.4 63.9 67.8 72.5 74.3 79.3 85.6 92.9 103 111.7 116.9 119.2 120.2 123.1 130.8 140.3 151.9 164.7 172.5 175.4 177.5 178.2 180.5 184.7 188 188.6 186.7 171.3 167.9 161.5 153.1 148.4 144.3 141.3 137.4 135.5 136.6 143.9 157.5 175.9 171 176.6 189.6 201.8 196.7 185.8 181.9 180.4 177.6 178.7 177.8 178.8 183.5 189 195.1 199.6 213.4 238.2 249.7 259.1 263.5 265.2 267.6 266.7 268.5 274.4 280 281.6 276.8 265.7 253.1 238 220.3 210.7 202.2 205.2 209.3 207.9 202.8 198 196.1 193.4 193.8 190.5 190.3 193 196.4 201 203.7 209 209.4 210 221.4 229.1 234 235.8 239.1 243 242.8 244.3 252.4 257.8 260 264.8 273.3 280 284.4 288.7 292.9 297.3 301.9 307.2 313.1 319.1 324.9 330.5 334.7 339.6 345.1 346.4 348.7 351.5 354.1 356.4 357.9 359.3 360.5 363.5 368.2 375.5 389 402.6 417.1 429.4 435.3 441.6 449.2 457.7 464.8 470.3 475.2 477.2 477.7 477.5 477.9 476.9 470.6 456.1 449.4 444 439.9 435.6 433.5 432.9 432.6 433 434.1
132.9 136.8 135.9 132.6 130.6 131.9 133.1 132.8 134.3 131.4 129.4 128.7 127.1 124.2 123 123.9 122.9 119.8 112.1 106.1 101.7 99.2 98.3 97.2 94.5 87.5 83.2 83.3 80 77.2 74.5 71 68.2 66 64.7 64.6 64.1 64.7 65.2 63.9 64.9 64.8 64.2 63.8 63.9 67.6 71.5 74.6 79.6 85.9 93.6 103.5 111.7 116.5 119 120.3 123.5 131.1 138.4 148.9 160 166.8 170.7 174.3 177.8 182.7 188 190.3 191.9 193.6 191.1 185.9 174.2 164 154.1 151.4 147.2 140.5 136 136.4 139.2 151 166.7 186.7 190.4 193 186.3 176.3 173.3 171.7 173 180.6 180.9 177.5 178.5 185.9 193.2 195.5 200.7 222.8 241.2 250.6 257.6 258.3 260.4 259.6 261.2 267 271.5 271.3 272.6 269.8 259.1 247.5 233.2 218.7 206.7 197.9 205.3 203.2 202.9 197 191.2 188.2 184.8 188.4 191 191.1 196 201.7 207.7 212.1 215.7 219.2 223.1 228.2 232.8 240.3 244.3 247 248.9 250.2 253.8 257.1 262.9 267.8 273 278.7 284.3 289.5 294.4 298.8 303.9 309.2 313.9 320 326.3 332.6 337.2 341.7 345.3 347.7 349.6 351.2 353.6 356.1 358.6 359.3 361.5 365.2 371 378.9 392.5 409.2 423.3 431.9 436 439.7 444.9 453.7 460.7 465.4 469 471.5 471.4 470.1 469 469.9 469.5 458.1 448.8 443.2 436.8 432.6 428 425.6 425.6 425.8 426.9 429.1
134.7 138.4 138.3 135.8 133.7 134 135.2 135.6 136.8 133.9 132 130.3 128.7 127.9 129.6 131.7 130.1 125.7 118.3 111.3 107.6 107.2 109.2 108.5 103.9 94.5 86.9 86 84.2 82 77.2 71.3 68.6 66.6 65.6 67 67.5 67.8 67.9 66.9 65.4 63.4 64 63.7 64 67.9 71.9 74.4 79.8 86.2 95 104 112 118.8 119 120.8 125 130.3 138.9 148.7 158 165.8 171 175 179.9 185.6 191.8 192.9 192 195.4 182.3 178.4 176.9 175.7 167.5 160.9 155.8 147 139.6 135.5 136.9 145.1 161.7 173.6 174.9 171.1 169.4 164.2 168.4 178.7 191.1 193.8 188.2 182.1 184.3 195.6 199 200.1 209.2 224 232.7 239.9 245.1 246.7 246.7 246.9 252.6 255.7 257.2 255.8 257 255.1 249.2 240.5 228.9 216.7 199.9 197.9 199.6 197.5 196.3 189.7 182.1 182.8 189.2 191.9 193.6 194.7 200.6 207.2 210.9 214.6 218.1 221.7 225.7 230.7 236.9 245.4 247.4 249.1 251.7 253.1 256.9 261.8 266.8 272.6 277.6 283.5 289.1 294.4 299.7 304.4 309.6 314.9 320 327 333 337.9 342.2 345.5 348.1 349.7 351.6 352.9 355.5 358.2 360.8 362.3 366.4 372.7 383.1 400.1 414.9 425.3 433.2 436.2 439.4 443.5 449.7 456 460.9 464.8 466.8 467.6 466.5 464.5 463.2 460.3 457 450.4 441.1 435.2 430.9 425.5 421.2 419.8 419.2 419.5 421.4 423.8
137.3 141.1 141.9 140.9 139.3 139.5 138.7 138.5 137.2 136.9 134.6 132.8 133.4 136 139.8 143.5 143.1 137.1 126.1 117.8 114.2 115.4 119 117.1 111.8 103.3 89.2 88.7 86.7 83.9 78.8 73.2 69 67.7 66.7 67 67.3 67.7 67.8 67.8 67.6 67 63.7 63.1 63.9 67.5 71.1 74.3 79.9 87.4 96.1 104 114.3 119.2 118.9 120.4 125.3 131.7 140.9 150.2 158.6 166.2 171.2 176.1 181 186.5 190.3 189 183.4 172.8 172.7 174.8 177.3 183.3 181.2 171.2 162.6 153.6 143.6 137.5 135.1 142.3 154.2 165.7 156.8 155.5 156.3 165.9 183.6 195.1 202.1 201.9 189.7 186.2 190.5 200.1 201.9 204.4 211.7 220.1 227.4 228.4 227.8 227.4 229.7 231.9 234.6 236.5 236.8 237.6 237.1 236.9 234.2 230.5 223.6 213.8 195.6 191.5 192.1 190.8 188.7 181.2 182.3 186.7 189.6 192 196 201.4 203.9 210.6 214.3 217.3 219.4 223.7 229.2 236.3 242.3 245.4 247.9 251.8 253.8 256.3 261 266.2 271.7 276.9 282 288 293.7 299.2 304.3 308.6 314.3 320.1 325.7 332.3 337.9 342.5 346.5 348.8 350.8 353.2 354.7 357.5 360.2 362.5 364.5 369 375 386.4 401.9 414.6 427 434.4 436.1 439.2 443 446 449.9 454.2 458.2 462.9 462.6 461.6 460.7 459.7 457.1 454.4 450.5 440.4 432.8 426.9 422.1 419.2 416.8 416.3 415.2 415 415.9 419.3
143 145.5 147.3 146.5 145.3 143.8 142.1 141.2 141 141 137.8 135.9 142.4 149.2 153.3 155.7 154.7 147.2 134.3 124.7 122.2 124.1 125.4 120.7 114.1 105.9 93 90.8 90 85.6 80.8 76.2 71.2 67.9 66.7 66.6 67.1 67.6 67.7 67.9 67.8 67.4 64.8 63.2 63.1 67.1 70.9 74.8 81.9 90.9 98.1 104.9 112.9 116.8 118.4 120.8 125.3 131.7 141.9 151.5 158.9 165.3 170.7 175.3 182.1 185.1 188.4 182 170.8 169.4 175.8 184.3 185.6 189.9 188.9 177 167.1 156.5 145.6 138.7 134.1 142.3 147.9 148.5 149 154.6 165.5 184.5 195.4 203 206.5 200.6 189.4 186.2 193.6 199.3 201.1 202.4 205.2 209.4 214.9 218.2 220.4 221 222.4 223.7 228.7 234 229.7 225.7 226 226.6 224.6 221.8 217.1 205 187 185 186.8 184.9 180 179.1 187.7 190.1 190.8 193.5 200.1 206.4 210.4 210.2 214.7 216.6 222.7 226.1 234.7 239.2 242.3 245.3 250.2 254.4 256.6 260.8 266.2 271.5 276.3 281.1 286.4 291.9 296.9 302.5 308 312.3 317.4 323.6 329.9 336.3 342.2 347.4 350.6 354.9 360.3 362.2 364.4 368.4 370.6 370.5 373.2 378.3 389.1 400.8 412.8 428 436.8 438 441.2 447.4 448.8 449.3 449.2 451.5 454.9 457.6 457.6 455 451.6 448.1 446.9 444.2 440.5 436.7 430.7 421.5 416.4 413 409.5 410.7 411.3 411.6 411.8 414.5
152.7 154.4 156 156.9 158.4 156.1 152.2 148.9 147.2 146.3 145 142.5 149.3 160.2 164.3 165.2 160.3 153.5 142.9 133.2 130.2 130.6 129 124.7 118.2 109.1 96.4 94.2 92.5 87.4 83.4 78.7 72.6 67.8 66.7 66.6 66.5 66.9 67.1 67.3 67.5 66.9 65.3 63.8 63 66.8 71 77.7 85.1 91.6 98.2 104.6 110.6 115.3 118.2 121.4 127.4 135.1 145 152.7 158.9 163.4 168.3 175.4 180.7 180.4 178.5 171.1 169.4 174.1 185.9 190.6 193 194.1 190.7 179 168.3 156.3 144.4 137.9 134.5 138.8 143.1 144.5 153.2 169 181.6 191.4 198.2 204.3 202.1 192.9 185 182 190.8 192.5 193.3 194.7 197.3 202.8 205.7 208 209.8 210.7 213.9 217.2 220.8 221.7 218.8 218.7 219.3 218.4 215.6 212.7 208.3 195.1 180.9 183.8 183.2 179.8 175.5 183.6 186.6 188.5 192.7 197 202.6 207.4 212.2 214.8 216.7 220 224.2 230.6 234.2 239.2 243.9 248.8 253.2 256.6 260.6 265 270.3 275.7 280.1 285.3 290.5 295.3 300.1 305.7 311.1 315.7 320.6 326.5 334.2 342.3 349.5 352.9 358.4 366.4 372.8 372.3 374.4 379.7 382 380.6 385.3 391.7 399.1 410.1 426.5 438 443.4 445.5 449.8 451.2 451.3 451 450.7 450.4 451 451.1 449.4 446.5 442.2 439.7 439.2 438.4 436 433 427.8 417.3 411.9 406.7 402.9 404.3 405 406.1 407.7 410.2
166.1 168.1 169.3 170.7 172.5 170.7 168.7 164.1 158.4 156 152 149.2 152.9 168 170.8 169 164.3 158.3 149 139.8 138 137 133.9 128.3 120.1 111.7 101.4 97.4 94.5 90.3 86.1 80.5 73.7 67.8 66.6 66.5 66.5 66.4 66.4 66.4 66.5 66 66.9 66.2 63.1 68.4 71.9 77.5 84.9 91.6 97.8 104 111.2 114.4 118.1 124 129.8 137.8 146.6 152.8 157.3 160 162.4 166.9 168.5 165.8 167.4 170.8 174.6 182.8 190.7 190.7 189.7 186.6 184.9 177.1 171.1 158.3 147.4 141.2 135.5 136.3 144.2 151.8 163.7 174.5 188.3 191.5 196.2 199.6 192.5 184.8 178.2 176.1 178.1 178.5 180.3 181.9 186.1 188.4 193 193.8 197.8 198.5 201.4 204.1 208 207.8 206.1 205.5 203.5 204.6 202.1 197.6 190.8 180.1 179.8 181.2 177.2 173.8 177.5 182.1 185.5 190.1 196.4 201.8 204.7 208.3 213.4 217.4 221.9 226.1 229.5 235 240.1 245.1 248.8 252.7 256.1 259.9 264.3 268.8 273.6 278.8 283.6 289 293.7 298.7 303.4 308.8 313.3 318 324.1 332.3 342.9 350.5 353.5 359 369.9 379.7 382.5 381.2 382.9 387.4 390.8 392.8 396.6 400.5 411.1 429 442.2 448.3 449.8 451 452.8 452.3 451.7 450.3 449.2 448.5 447.7 446 443.7 439.2 437 436 435.3 434.3 431.7 427.5 420.3 413.4 407.2 401.9 397.7 398 397.9 400 402.5 403.9
180.2 179.6 179.5 181.5 184.1 184.1 181.8 177.1 169 162.8 156.9 153.3 156.1 171.6 174.7 173.2 170.9 166.6 156.8 147.8 144.7 142.7 138.1 132 125.6 116.5 107.2 101.3 98.4 94.2 88.2 81.9 75.7 67 66.9 66.7 66.4 66.2 66.2 66.1 66 66.5 66.5 66.2 62.4 67.8 72.3 77.1 84.5 91.5 97.1 103.8 108.9 112.9 119.7 125.9 128.3 136.1 144 146.9 151 154.5 157.1 157.7 159.4 166 172.4 177.5 182.8 186.5 187.8 185.7 181.3 180.5 178.2 177 174.5 163.8 151.1 144.2 138.1 132.9 144.2 158.2 167.4 178.9 186.4 187.6 186.3 184.9 178.3 170.8 170.4 171 170.2 169.4 173.8 178.3 181.4 181.9 186.7 192.7 195.9 193 194 192.3 191.2 189.1 188.9 188.5 186 185.1 182.8 181.5 178.2 175.8 176.5 172.4 173.3 173.1 178.5 183.2 189 194.4 199.9 206.8 209.7 211.9 214.7 219.9 223.8 228.3 234.7 240.8 244.6 249 251.8 255.1 259.1 263.5 268 272.5 277.3 282.2 287.2 291.9 296.3 301.3 306.3 311.2 315.2 322.6 332.3 342.7 350.2 353 359 369.1 380.7 387 388.3 390 392.1 395.9 400.4 401.6 404 419.6 436.9 449.6 452.6 453.5 453.7 453.2 451.8 450.6 448.9 446.6 444.4 442.8 441.6 440.1 437.5 434.3 432 430.6 430.7 430.8 428.2 423.1 415.7 408.5 401.3 398.8 394.3 391.8 390.7 393.8 397 397.6
188.2 186.7 187.7 190.2 191.6 191.5 189.3 185.4 176.2 166 160.7 156 161 176.9 182.7 182 178.4 174 164 154.6 152.2 147.9 141.9 135.7 131.3 125.8 118.9 112.1 105.1 99.7 93.2 85.1 78.1 73.2 66.6 66.3 66.3 65.9 65.9 65.8 65.7 66 66.2 66.5 64.2 66.4 71.8 78.4 86.3 93.7 98.5 103 108.2 114 118.4 122.3 125.1 130.1 136.2 141.9 146.1 149.2 154.2 158.7 164.5 170.2 176.1 181.8 184.4 184.5 183.3 179 177.2 178.5 178.7 179.1 178.6 169.2 155.5 147 140.4 130.4 144 157.1 165.2 171.9 177.2 180.3 178.8 173.9 168 164.6 164.8 164.8 164.5 168.8 168.7 173.5 178.2 181.8 187.8 189.6 189.5 187.8 186.4 185.6 183.2 181.6 180.4 179 177.5 176.3 175.1 173.1 170 168.4 168.8 170.9 171.4 176.3 181.6 185.9 191.2 197 202.7 207.8 211.7 215.5 219 223.5 228.9 236.3 240.7 244.6 248.5 252.1 254.8 257.6 262.3 267.1 271.6 276.2 281.1 285.7 290.1 294.3 298.8 303.2 307.6 313.2 321.8 333.4 342.6 349.7 354.4 359.8 367 376.2 385.2 391.3 396.6 401.6 404.2 405.2 407.3 411.4 426.7 442.4 452.8 456.8 457 455.4 453.2 450.2 448.6 446.3 443.4 440.6 438.7 436.5 434.8 433.4 430.8 428 426.1 424.1 423.7 425.3 423.6 418 412.4 403 397 393.8 391.3 384.2 384.7 385.5 387.6 389.3
193.4 192.7 193.4 196.3 199.5 198.5 195 191.3 183.6 171.9 164 161.7 165.7 181.3 189.2 189.9 188.6 182.7 172.7 163.4 158.6 153.6 148.4 144.4 140.5 134.4 127 119.5 112.4 105.1 100 92.3 83.1 76.4 66.5 66.4 66 65.6 65.4 65.5 65.5 65.4 66 66.3 62.8 66.9 71.7 78.2 86.1 93.3 98.1 102.6 108.9 114.6 117.5 120.5 126.1 129.9 134 137.8 142.8 152.2 162.1 166.6 170.9 174 178.3 178.3 177.3 175.4 172.1 172.1 174.1 179.2 181.9 183.4 178.1 168.9 157.6 150.3 141.4 130.7 141 152.8 159.9 165.4 171.7 172 168.7 164.7 161.6 159.4 159.2 159.7 160.5 162.8 166.9 170.7 174.8 179.1 181.9 183.6 183.1 181.5 178.8 177.7 177 175.9 174.7 173.7 170.8 169.1 167.5 166.6 165.4 168.1 171.5 172.1 176.1 180.2 183.1 191 196.1 201.1 204.7 209 214.1 220.5 224 227.8 234.9 240.7 243.8 247.6 251.5 254.4 257.5 260.9 265.6 270.3 275.1 279.9 284.5 289 292.7 296.7 300.8 305 311.1 320.9 335 344.3 350 354.2 359.5 364.8 372.7 379.2 386.5 396.5 406.5 413 413.6 411.6 415.1 427.6 442.1 452.1 458.3 459.6 457.3 453.9 449.6 446.5 444.6 441.1 437.9 434.2 429.3 426.9 425.5 424.5 422.5 420.2 418.4 416 413.5 413.4 412.6 410.6 404.4 395.3 390.5 387.8 385 378.8 378.7 377.5 378.5 379.9
198.1 197.8 200.4 207.1 212.3 211.2 208 202.7 196.7 182.4 168.7 164.6 164.2 181.1 196 197.3 195.3 190.6 183 175.6 171.1 163.6 156.7 153.1 149.2 139 129.6 124.6 115.7 108.2 105.2 88.6 82.4 78.1 66.8 66.4 65.9 65.4 65 64.9 64.5 64.9 65.6 65 61 66.2 70.7 75.9 84.6 92 97.5 102 108.4 114.9 118.3 122.4 128.3 133.9 140.4 145 151.3 160.5 168 170.1 170.6 170.7 171.3 168.8 169.3 169.7 169.5 171.1 178.1 183.4 184.3 183.9 176 166.2 157.3 151.1 141.3 130.5 139.5 150 155.4 160.8 164.5 163 159.9 158.2 154.8 153.8 154.2 155.1 157.3 161.3 165.6 168.4 172.4 175.5 176.9 177.2 176.8 176.4 174.9 173.7 172.9 171.3 169.5 166.1 164.4 164.3 162 163 166.4 171.8 174.5 176.9 181.4 186.4 190.4 193.9 200 206.1 208.8 212.8 221 227.3 229.9 233.3 239.5 243.8 246.9 250.6 254 256.7 259.7 263.9 269.1 274.1 279 284.3 288.4 291.6 294.7 298.7 303 309.1 320.5 335.8 345.8 351.7 354.4 358.9 365 370.9 376.9 383.2 392.1 401 411.1 417 413.2 412.1 424.7 436.7 449.9 457.8 460.5 458.3 454.8 448.8 444.9 441.6 438.4 434.7 430.4 426.5 422.9 418.5 415.2 413.1 411.6 410.6 409.4 408.5 406 402.5 401 398.1 392.8 385.5 383 382.2 380 377.7 372.9 372.6 370.9 372
207.1 204.9 208.8 218.3 222.7 220.5 219 214 208.3 194.7 175.7 166.2 162.1 181.6 197.7 200.9 199.4 193.9 189.1 185.2 182.6 178.6 168.5 159.3 153.6 143.4 131.3 127.5 124.3 122.4 108.3 82.7 82.4 68 66.2 65.6 65.1 64.6 64.3 63.8 63.3 64.3 64.9 63.3 61.2 64.8 63.3 63.4 70 87.6 94.8 100.3 107.2 114.2 121.4 127.6 137.5 146.2 152.5 156.2 159.2 164 167 166.7 166 164.5 163.2 163.1 164.4 165.1 168.8 177.4 180.9 183.6 183 179.5 170.7 162.2 153.4 147.8 139.9 130.7 134.4 145.5 151.3 156.8 158.2 157.3 154.5 152.1 149.3 149.4 149.9 151.5 154.7 159.4 163.3 166.9 169.5 171.2 172.7 173.4 172.6 171.8 170.8 168.7 167.8 165.7 163.3 161.5 161.9 161.7 162.5 167.3 170.2 170.9 176.4 181.6 186.5 191.7 194.8 199.2 203 207.3 211.7 217.6 225.6 231.2 235.2 238.9 243.1 246.8 250.1 253.5 256.3 258.9 262.2 266.8 271.5 277.3 282.7 287.2 290.1 293.5 296.9 301.1 306.4 317.4 333.4 346.2 352.6 356.4 360.2 364.7 371.2 378.8 384.2 393.7 401.7 407.3 411.6 413 413.5 419.7 432 445.5 455.8 459.6 458.3 454.8 448.9 441.3 438.9 435.7 432.2 428.5 423.8 419.6 416.3 412.5 409.9 407.6 405.7 404.6 402.1 400.6 398.5 394.9 393.6 389.2 384.7 378.2 375.6 376 374.4 372.1 368.4 367.1 365.7 364.4
216.8 213 214.6 217.9 223.9 233 229.4 221.2 215.7 212.2 176.9 168.2 159.9 175.7 193.6 198.6 194.6 190.7 189.1 188.4 189.2 190.6 174.9 170 157 145.9 141.4 142 142.2 122 107.2 82.7 82.5 67.4 65.2 64.9 64.5 64.1 63.9 63.8 65.1 63.9 63.5 62.8 61.4 64 63.1 63.2 63.1 81.9 92.2 98.5 106.7 117.9 134.8 144 151.3 155.5 159.6 163.6 162.3 161.4 160 158 159.3 160.4 160.8 161.7 162.7 167.6 171.6 175.8 179.6 181.2 179.6 174.7 165.4 157.3 149.1 143.4 138.8 130.8 129.6 138.2 144.9 149.8 151.8 150 145.9 145 145.5 146 147.2 150 153.7 157.4 161.4 165.3 167.9 169.1 169.7 169.8 169.1 168.4 166.5 163.2 161.3 160.5 159.6 159.6 161 163.6 169.3 172.2 174.9 177.7 177.4 184.9 191 196.4 201 205 207.8 211.5 214.8 222.4 227.5 233.9 238.5 242.1 245.6 249.1 252.6 255.8 258.3 260.9 265.5 270.2 275.2 280.7 285.3 289.2 291.8 294.6 298.3 303.9 313.2 328.3 344.4 352.5 356.7 360.4 363.4 367.5 374.8 384.9 391.4 402.5 408.3 409.4 410.4 410.7 416.1 426.6 438.1 450.2 457 456.3 453.1 446.3 439.4 435.2 431.8 429.2 426.6 421.6 417.8 415 411.5 408.5 406.1 403.4 401 398.3 394.2 390.6 389.8 388.3 383.7 380.2 378.4 372.3 369.2 368.5 368.7 366 362 361.2 359.7 358.2
220.9 218.4 217.4 228.4 233.5 229.3 201.2 200.8 216.1 215.1 179.5 168.3 159.4 169 187 189.9 187.4 185.1 184 185.2 176.9 158.1 149.9 144.5 139.4 132.9 131.8 123.8 124.2 119.4 108.3 82.1 82 67.8 65.5 64.9 64.7 64.4 64 63.6 63.2 62.5 61.7 61.3 60.7 65.2 68.4 73.3 76 83.3 89.5 97 109.8 127.6 146.3 155.8 159.7 161 160.8 157.5 153.7 151.8 153 156 159.4 161.2 162 161.3 163.5 166.1 169.7 173.3 176.3 175.1 170.9 165.1 158.2 151.6 143.8 139.3 135.8 129.7 124.7 131.2 137.2 142.6 144 141.1 140.3 140.7 141.9 142.9 145.9 149.1 153.2 157.1 161.6 164.7 166.2 167.1 166 167 166.2 163.8 160.6 159.6 157.7 157.6 157.3 161 165.8 167.9 173.2 176 179.1 182.7 183.6 181.2 191.9 199 204.3 208.5 212.3 215.6 220 226.8 232.3 237.2 240.8 244.3 246.8 250.7 254.1 257.8 260.2 264.4 269 273.7 279 283.6 287.6 291.3 294 296.4 302.9 311.6 324.6 339.2 349.5 355.8 358 359.3 361.6 365.8 374.3 382 388.6 399 405.3 405.5 407.2 411.9 419.6 430.3 441.1 448.3 450.4 447.8 441.4 438 433.2 428.5 425.1 423.1 421.1 418.1 414.8 410.2 407.4 404.5 401.9 399.3 396.4 392.3 388 384 378.7 377.8 377.2 374 370.3 366.6 364 362.4 361.9 359.2 357 355.8 354.2 351.6
220 219.1 222.2 229.9 207.7 199.8 158 161.4 199.5 201.4 183.2 169.9 159.4 165 176.8 181.2 178.9 175.8 172.4 166.7 149.8 134.7 131.9 123.5 122.9 114 105.8 100.8 99.7 106.3 100.8 81.3 70.9 67.7 66.1 65 64.7 64.4 63.5 62.9 63.2 62.8 62 61.3 61.2 64.2 68.9 74.5 78.6 83.4 89.5 98.6 113.9 135.8 149.4 159.3 159.7 156.2 152.5 149.1 147.9 149 152 155.6 159.9 162.1 162.2 160.4 161.2 163.2 167 168.4 164.5 162.2 159.3 152.5 146.9 139.8 134.4 133.6 130.9 128.3 123.4 127.5 133.9 138.4 139.9 136.4 136.7 138.3 139.8 141.7 145.5 149.2 154.5 158.7 161.8 164.4 164.9 165.1 163.6 163.7 161 157.9 156.2 155.9 155.8 160.8 164.6 169.2 171.5 171.7 175.4 181.5 184.6 188.2 191.6 189.7 187.4 198.2 205.6 210.4 214.4 218.6 225.2 231.4 236.3 239.6 242.9 245.5 247.9 252 255.9 259.9 263.8 268.1 272.7 277 281.1 285.4 289 292.6 296.1 301.4 310.1 321.8 335.2 345.3 351.8 355.3 355.6 357.4 359.7 364.4 370.2 374.6 380.9 390.6 396.8 400.8 407.4 411.1 421.7 429.7 437.9 442.2 441.7 437.9 433.6 430.4 424.6 420.2 419.2 418.7 416 413.3 410.1 406.1 402.2 399.2 396.3 393.1 390.7 388.3 384.6 379.7 373 368.8 368 367 364.6 360.4 358.4 356.4 354.7 352.9 351.5 350.5 348.3 345.7
221.2 220.6 222.3 223.7 191.8 187.4 158.1 156.6 173.8 187.5 178.9 166.8 159.4 164.3 169.7 171.5 166.5 164.6 168.8 146.4 127.5 110.6 104.9 108.1 110.6 99.9 83.5 79.3 83.2 87.7 85 73.4 68.3 68.1 66.8 65.5 64.7 64.3 63.1 62.8 62.8 62.6 62.5 61.6 60.8 65.2 68.9 73.2 77.7 83.2 90.2 99.4 115.1 135.8 149.8 155.5 153.1 148.4 146.6 145.1 146.3 149.4 154.5 159.1 160.8 161.6 159.4 158.6 159.4 159.1 160.8 155 152.4 150.7 146.2 138.3 132.2 126.7 126.3 125.2 124.3 122.8 118.6 126.8 132.3 133.8 134.2 133.6 134.9 136.8 139 142.6 148.8 153.3 157.6 159.7 162.2 163.8 164.1 163.6 161.9 157.6 154.3 151.2 152.6 153.5 161.6 168.9 170.8 173 175.4 176.9 178.9 183 188.5 192.8 196.3 197 197.9 196.7 205.9 212.5 216.8 223.6 230.5 235.5 238.7 241.4 243.4 246.4 249.1 253.5 258.2 263 267.5 271.5 274.8 278.9 282.6 286.9 291.1 295 300.8 308.7 319.8 330.9 339.8 346.5 351.3 352 353.6 356.7 360.3 364.2 368 371.5 375.7 384.1 391.6 398.5 407 415.2 423.4 428.3 431.5 432.8 432.1 428.8 426.9 422.8 415.9 413.1 413.9 412.7 410.5 408.2 405.6 402.9 400 395.9 391.9 388.4 385.1 382.4 380.3 375 369.1 364.3 359.8 358.6 357.6 353.7 351.7 349.9 348.5 347.8 346 344.1 342.2 338.9
217.5 217.8 219.1 216 199.1 197.7 182.6 156.1 166.4 177.4 171.1 164.3 160.7 162.9 161.7 157.7 153.2 153.9 163.4 132 108.8 103.3 98.3 94.4 77.7 77.7 77.7 77.7 77.7 87 78.4 73.8 69.7 68.2 67.4 66.2 65.2 64 63.5 62.7 62.3 62.2 61.6 60.6 59.6 65.8 69.9 74.1 78.6 84.2 91.2 100.1 116.3 136.2 147.6 149.1 146.6 144.9 143.8 144.2 146.5 150.8 154.5 157.3 158.8 158 155.6 155.8 154.9 153 148.5 144.5 142.7 138.2 130.9 124.1 121.2 119.8 120.3 120.4 118.1 114.6 120 126.7 128.7 129.8 131.4 132 133.9 136.5 140.2 147 152.2 155.8 159.7 161 163 162.7 162.6 162.2 156.8 151.4 149.6 151.3 156.7 160.6 168 173.1 176.3 179.1 182 184.6 186.1 187.5 192.7 197 200.7 203.2 204.7 207 206.4 215.1 221.4 228.8 234.3 237.2 239.6 241.5 243.6 246.6 250.5 256.3 261.7 266.4 270.8 274.3 277.3 280.4 284.1 288.7 293.3 299.6 306.8 317.1 327.3 335 340.4 345.7 346.6 349.2 352.9 357.5 361.2 365.1 368.9 369.5 374.2 382.1 389.6 398 407.6 415.7 421.8 422.7 422.6 422.8 422.4 418.1 416.1 411.7 407 408 408.4 407.6 406.3 405.1 403.1 401 398.6 393.7 389.5 385 381.5 377.8 374.8 371 364.8 358.9 354.5 353.1 350.3 347.9 345.8 343.8 342.2 340.7 339.1 336.4 334 330.4
212.6 212.1 212.9 211.5 211.4 209.4 192.1 162.8 154.5 166.6 162.8 159.4 159.9 159.7 155.4 149.6 146 146.3 155.7 144.1 104.9 92.5 79.6 77.7 77.7 77.7 77.7 77.7 83.1 83.8 77.6 72.5 69.6 69.1 67.7 65.9 64.8 63.9 62.8 63.3 61.3 60.6 59.9 59.4 61.4 67.3 71.4 75.7 80.1 85.8 93.4 105.3 122.8 137.6 144.2 144.6 143.2 142.7 143.1 143.4 146.4 150 152.4 154 155.2 152.5 152 151 147.2 143 140 136 133.4 128.2 122.3 117.6 115 114 114 113 110.6 116 123.4 125.8 126.7 127.8 129.5 131.6 135 138.4 146.1 151.4 155.5 158.7 161.3 162.2 162.2 162 162.9 160.5 152.3 149 155 158.6 163.2 167.5 171.5 177.2 181.3 184.2 187.4 190.1 192.3 193.2 196.5 201.6 204.5 207.5 210.1 212.6 215 216 226.1 231.9 234.8 237 239.7 241.5 243.9 246.9 252.6 259.2 264.9 269.7 273.7 276.6 279.3 282.1 285.3 290.7 296.7 305.1 314.9 323.2 330.3 334.2 339.1 341 340.3 345.9 352.2 357.1 360.9 364 366.2 368 374.6 382.1 389.4 396.8 405.7 411.8 415.4 415.6 413.1 411.7 409.5 407.6 404.5 396.9 396.1 402.2 403.3 404.7 403.5 401.7 399.8 397.6 394.8 391.4 386.6 381.4 376.7 372.9 369.6 366.3 361 354.9 347.9 347.6 345.4 342.1 340.1 338 335.9 333.6 331.6 329.7 326.5 323.4
204.7 205.6 206.2 205.6 202.1 195.1 178.1 163.5 155 153.3 153.4 153.5 151.1 150.1 143.8 136.5 135.4 138.1 143.6 157.7 102.7 78.6 77.7 83.1 77.7 77.7 77.7 81.9 84.9 83.1 78.6 74.4 70.6 68.5 66.8 65.6 64.1 63.1 62.7 62.6 61 60.2 59.1 60.2 64.6 68.8 73 77.2 81.5 87.2 96.8 109.1 123.8 135.4 143.1 141.5 142 141.7 142.2 143.2 145.8 148.6 150 151.1 149.7 146.4 145 142.1 136.7 134.4 131.8 129.4 125.5 120.9 117.5 114.2 112.5 110 108.3 110.7 114.8 120.2 122.5 123.4 124.6 127 130.5 133 136.5 143.1 150.9 155 157.9 160.3 161.2 161 160.8 160.7 160.1 154.9 149.2 147.6 158 163.3 166.7 169.9 174.1 180.3 184.5 187.8 191 194.1 197.2 198.5 200 205.7 209 212 214.3 216.7 220.7 220.8 225.3 230.3 233.2 236.5 239.6 241.5 244.6 249.8 256.9 263 268 273 276.2 278.7 281.4 284 287.3 293.5 300.8 311.3 320.6 325.7 329.5 332.6 336 333.9 335.2 343.9 350.1 354.7 358.3 361.4 363.5 368.7 375.6 380.5 388.3 394.5 398.5 401.5 404.4 404.2 403.2 399.1 398.9 395.9 390.1 382.4 393.4 397.1 400.1 400.2 399.1 397.1 395.2 392.7 389.9 387.1 383.2 378 371.5 366.1 362.5 359.1 356 350.8 344.5 340 339.8 336.5 334.1 331.6 328.8 326.2 324.4 322.1 318.7 314.6
197.4 198.1 198.8 198.1 189.8 180 172 164.1 154.6 153.7 159.6 163.9 161 156.9 149.9 146.2 130.3 125.2 131.4 133.3 131.2 118.8 112 111.1 95.1 95.2 94.4 88.2 84.5 83.7 83 81.7 81.7 70.6 65.5 64.8 63.4 62.5 62.6 61.3 60.6 60.5 59.4 60.8 65.7 70.4 74.8 79.7 84.6 91 99.1 110.1 124.3 136.2 139.3 139 140.4 140.7 141.2 143.2 144.8 146.2 146.1 145.6 141.2 137.7 135.5 132.8 129.2 126.8 124.8 120.7 117.5 115.3 112.6 110.8 107.9 106.6 109.6 113.2 116.7 118.9 120.6 123 125.3 128.5 131.6 135.1 140.9 148.1 153.3 156.6 158.9 160 159.3 158.9 159.3 159 154.2 147.8 146.1 154.6 163 166.6 170.8 174.2 178.8 184 187.8 190.9 194 197.1 200.1 203 205.3 208.7 213.6 216.9 219.3 222.8 227.3 230.3 229.7 234.2 235.3 237.7 240 242.6 247.9 254.7 260.8 267.4 272.3 276.2 278.9 281.5 284 286.4 290.2 298.3 306.4 316.5 320.5 324.6 326.6 328.5 329 330.2 334.9 342.5 348 351.2 354.3 359.1 363.7 369.7 375.5 380.4 384.5 388 386.9 392 394 393.5 391.1 386.6 385.1 381.4 376.4 383.3 388.2 392.8 394.7 393.8 392.8 392.1 390.3 387.9 384.2 381.1 378 373.1 365.9 360.5 356 352 349.7 345.8 340.2 334.4 333.9 330.3 327.6 324.3 320.2 318.4 315.6 313.6 310.5 307
190.6 190.3 190.5 184.6 176.8 168.7 165.2 159.9 153.6 157.7 167.7 170.6 166 149.1 144.6 144.5 146 124.1 116.2 114.3 111 105.8 102.9 99.1 96.4 93 90.2 86.5 86.2 89.5 90.6 85.3 81.8 72.5 65.9 63.7 62.5 62.2 62.3 60.5 59.4 58.6 58.7 62.1 66.9 71.6 76.8 82.6 88.9 95.7 102.8 111.4 126.2 133.3 134 136.6 137.5 139.2 140.1 142.4 143.3 141.9 138.9 135 133.3 131.9 129.2 126.8 124 120.9 117.9 115.8 113.5 111.3 107.4 105.3 106.3 109.2 112.5 118 120.1 121 121.8 123.9 127.5 130 133.8 140 145.4 151.1 155.1 156.4 158.2 157.8 156.9 156.6 156.6 154 146 145.7 155 159.9 164.9 169.6 175.6 179.4 183.6 187.6 190.8 193.9 197 200.1 203.8 206.6 209.1 214 218.3 222.2 225.2 228.8 232.5 233.9 230.6 235.7 237.8 240 242.3 245.9 252.8 259.8 265.8 272 276 279.1 281.5 284 286.4 289.3 293.1 300.6 310.4 316.3 319.8 321.8 322.9 322.4 325 329.5 337.3 342 345.4 349.8 353.6 357.7 363.5 368.2 372.7 378.9 381.7 380.9 379.5 380.2 383.2 384.5 379.5 374.5 371 369.4 373.3 377.9 383 387.3 389 389.3 390.3 390.2 388.3 385.8 381.7 376.8 372.4 365.6 361.2 355.4 349.5 344.4 342.6 339.5 334.8 328.6 327.2 323.5 320.4 316.8 312.3 308.9 306.4 306.2 301.1 297.9
185.2 182.7 177.2 170.1 164.2 159.9 161 157.7 155 165.5 175.4 173 167.3 158.2 147.6 140.2 138.6 130.6 118.9 108.6 103.3 100.7 99.1 97.1 94.9 91.8 89 89.3 95.2 99.2 97.7 90 81.9 73.3 66.5 62.9 62.1 61.8 61.7 60.1 58.7 58.8 59.9 63.1 67.7 72.4 78 85.2 92.7 100.8 107.8 114.2 124.2 129.6 131.1 134.2 135.1 137.3 140.3 140 138 134.7 131 129.4 127.1 124.3 122.1 120.5 118.8 116.6 114.3 111.6 109.2 106.3 104.2 107.6 111.1 114.4 118.1 120.1 120.5 121.6 122.7 125.6 129.5 132.2 136.2 143.8 148.8 153.1 155.4 155.8 155.7 155.4 153.6 152.6 150.3 145.3 145.4 156.9 162.7 165.1 168.8 174.8 179.2 183.5 187.1 190.4 193.6 196.8 200 203.4 207.4 211.9 215.2 218.2 222.2 226.6 230.7 233.7 234.9 234.3 232.5 236.8 239.7 242.6 246.6 251.9 258.2 265.2 271.4 276.4 279.4 282 283.9 286.3 288.9 291.8 295.6 301.7 310.4 314.6 316.5 318.2 317.6 320.5 326.8 332.6 337.3 340.9 343.5 348.5 350.5 354.3 361 364.6 371.7 375.8 374.2 371.5 371.2 371.8 373.7 370.4 367.2 366.2 362.8 362.4 366.8 372 378.1 382.8 384.4 386.2 387.7 388.6 387.7 385.8 382.2 376.4 369.6 362.2 357.3 351.7 345.7 340.4 334.6 332.1 327.8 321.9 318.9 315.8 312.1 309.4 305.5 300.1 297.6 296.9 291.1 290.2
174.6 171 165.8 160.5 157.9 157.2 157 154.3 158.5 170.6 174.7 171.1 165.9 157.2 146 136.7 133.7 127.6 119 112.5 108.8 103.4 100.1 97.7 94.7 96.7 99.5 105.4 104.6 102.7 98.5 91.3 81.6 72.5 65.9 62.6 62 61.7 61.9 59.8 58.4 58.6 60.4 63.7 67.7 73.7 80 85.4 91.3 98.5 107.5 110.4 121.3 127.2 131 131.4 133.5 136.1 135.8 133.3 131.6 129.6 127 124.5 121.9 118.9 116.2 115.3 114 113 110.9 108.1 105.1 104.7 108.3 113.2 116.1 118.1 119 120 120.8 122 123.4 127.3 131.2 134.9 139.2 144.5 149.7 153.2 154 153 151.7 148.9 147.4 144.7 140.9 146.5 156.6 161.9 164.9 167.4 171.2 176.7 181.3 186 190.2 193.2 196.5 199.7 202.8 207.5 211.8 215.4 219.3 223.5 226.4 229.4 232.5 235.4 235.3 233.8 234.8 239.2 244.6 249.9 255.1 259.4 265 271.2 276 279.9 282.4 284.5 286.8 289.6 291.2 293.5 297.7 304.1 309 312.2 313.8 313.9 317.7 324 327.8 332.2 335.5 338.3 343.3 346.2 348.9 353.3 356.9 362.9 368 367 365.5 363.8 362.4 361.6 360.4 359.3 358.1 355.9 355.8 358.9 365.4 372.1 376.3 378.9 382.6 384.9 387.4 389.4 390.5 389.1 387.2 381.9 373.8 364.3 353.8 346.1 339.9 333.9 330 324.2 319 313.3 311 308.4 305.8 302.3 297.6 293 289.3 286.1 279.7 287.2
166.4 163 160 158.1 156.8 156.4 155.4 157.3 163.1 171.7 172.1 167 162.1 152.9 142.2 134.3 129.5 123.8 120.2 119 116.5 111.3 111.4 113.7 113 112.5 113.2 112.1 103.8 100.3 94.8 86.5 78.2 69.1 64.2 63.4 62.3 61.2 63 58.9 57.8 58.8 60.6 63.2 68.2 77.6 85.2 92.9 100.8 106.1 108.2 111.1 117.9 124.4 128.5 131 132.2 131.6 130.2 129 126.5 124.9 123 120.2 117.7 115.2 112.6 110.5 109.2 110.5 108 105.2 102.7 108.9 113.7 116.1 118.1 117.8 118.5 119.4 121.2 123.2 126 129.5 133.3 137.4 141.8 146.7 150.1 151.6 151 148.4 146.3 143.6 141 140.1 146.4 154.6 160.5 163.8 166.6 168.9 172.6 178.3 183.1 187.9 192 195.9 199.3 202.4 205.7 211.1 215.8 219.5 224.3 228.4 231.3 234.2 236.6 237.3 237.1 238.7 237.4 247.3 253.8 257.9 262.4 267 271.2 275.6 279.4 282.8 284.8 287.3 290.5 293.2 294.8 296.9 300.4 305.2 307.4 309.7 311.6 313.6 319.4 323.7 328.4 331.5 334.6 337.7 340 341.8 344.8 350.1 356.8 361.5 361.5 358.6 356.6 355.3 352.9 352.2 352.3 352.2 351.1 350.1 351.6 354.9 362.7 368.7 373.2 377.2 381.1 385.5 388.7 390.9 392.1 391.5 389.9 387.2 381.7 371.3 357.1 342.2 332.4 326.3 322 317.8 307.1 303.5 303.4 301.9 300.2 294.2 287.6 282.6 277.2 273.7 274.4 276
164.2 161.6 160 159.2 158.9 158.9 160.4 164.6 168.4 170.3 167.9 163.5 157 147.3 137.9 132.2 127.4 122.2 121.3 125.6 125.2 124 125.2 128.3 125.5 123 121.4 112.7 103.6 97.6 91.7 84.8 77.1 67.2 63.5 62.1 61.7 61 60.8 59.1 57.5 59.5 61 63.4 70.6 79.9 87.9 95.2 104.6 109 109.3 110.7 116.3 122.8 128.1 131 128 125.8 125.5 123 122.2 120.7 118.8 117.2 114.8 112.1 110.4 109.3 112.6 110.3 106.3 103.3 105.1 111.2 115.2 117.5 117.5 116.6 117.1 119.4 121.9 126 129.4 132.9 135.7 139.4 143.2 146.9 149.3 149.2 146.5 144 141.3 139.6 138.8 140.2 150.2 158.5 162.3 165.6 169 171.6 176.7 181.9 186.2 190.9 194.6 198.4 202.2 205.5 209.1 214.7 219.5 223.5 228.5 232.8 236 238.9 240.9 241 240.1 243.1 246.5 252 260.2 263.9 267.6 270 274.1 278.5 281.6 283.9 286.3 290 293.4 296.8 298.3 299.2 300.9 302.7 304.8 306.8 308.3 312.6 317.7 324.4 327.8 330.7 333.8 335.5 336.3 337.5 343.5 350.6 354.6 355.1 353.2 350.1 348.2 345.5 344.6 344.7 345.5 344.1 343.9 343.2 345.8 350.6 359.6 367 371.2 377.3 382.3 387.2 389.1 390.4 391.2 391.1 389.6 388.8 384.5 376.4 362.2 343.8 327.7 318.3 313.9 309.9 300.4 293.4 293.2 293.7 291.3 282.3 277.3 272.1 266.2 262.1 270.9 262.7
168.3 165.7 168.2 171.2 171.4 171.5 175.1 173.6 170.7 167.5 164.4 158.5 151.9 144.9 135.7 130.3 125.4 123 125.5 132.4 134.2 132.7 134.9 134.1 127.5 124.2 118.5 110.7 104.3 96.2 88.6 81.2 70.7 66.2 63.3 61.4 59.9 59.5 59.7 57.8 57.9 60 62 64.2 72.6 80.2 88.4 97.1 104 106.8 105.7 108.8 116 121.4 127 128.4 125.1 127.3 120.6 118.5 118 116.1 113.9 112 111 109.7 108.7 111.3 112.5 109.2 104.8 102.9 107.7 112.6 115.9 116.8 115.9 115.3 116.7 120 125 129.3 133 135.7 138.3 141.2 144.9 146.6 147.4 144.8 142.4 137.5 137.2 137.1 139.9 147.5 155 160 164.4 168 171.7 175.1 179.6 185.1 189.8 193.9 197.6 201.5 205.4 208.9 213 219.2 223.1 229.8 233.9 237.4 240.5 243.7 245.5 246.8 248.7 253.7 255.7 259.2 264.9 267.8 270.5 272.5 277.5 280.1 282.4 284.6 287.7 292.1 296.4 299.5 300 299.6 300.5 301.9 303.4 306.1 309.2 312.6 319 325.5 329 330.1 331 331.9 332.8 334.5 344.3 347.2 347.2 346.9 343.6 341.3 338.9 337.7 337.3 337.3 337 336 337 334.8 341.8 348.4 357.8 364.5 372.2 378.7 383.3 386.1 387.3 388.4 389.4 388.3 387.4 386.4 385 378.4 366.3 346 327.7 314.7 306.5 302.6 293.8 287.4 285 279.1 276.1 271.1 267 264.8 255.7 249.2 258.1 274.7
179.2 177.5 178.7 181 181.9 180.8 179.2 174.2 169.1 165.8 162.2 155.9 149.4 142 133.6 127.3 124.5 124.3 128.1 135.1 136.6 135.3 134.3 128.7 124.4 120.9 114.5 104.8 97.4 87.1 81.5 75.1 66 64 62.7 61.3 59.2 59.3 59.2 57.3 59.6 60.8 62.9 66.6 75.2 82.5 91.2 98.9 103.2 102.8 102.8 108.4 113.8 119.3 123.8 124 120.7 118.2 115.9 114.1 113.8 112.1 110 108.3 106.8 107.4 109.8 112.4 111.8 107.9 103.1 104.2 109.6 113.3 114.9 114.5 113.9 116.2 119.6 123.5 128 132.2 135.1 137.6 140.2 143 145.5 145.9 143.6 141 135 133.2 134.4 137.5 145.9 154.1 158.7 162.9 167.1 170.1 174 177.8 181.9 187.2 192.5 196.7 200.8 205 209 214.6 218.6 225.6 231.2 236.5 239.7 242.8 246.6 249.7 252.2 255.6 259.9 264.8 264.6 265.6 269 270.9 272.5 275.6 278.6 280 281.8 284 288.9 293.7 297.2 299.9 299.4 299.1 299.1 300.5 302.6 305.3 308.6 312.8 319.6 324.6 325.9 325.9 325.6 326.2 327.9 330.1 336.7 337.8 337.2 337 331.8 330.2 329.4 329.6 329.4 327.5 327.7 328.9 330.3 329.4 338.4 347.6 355.9 365.1 373.6 379.3 383.1 384.8 386.5 386.5 386.2 385.9 385.6 384.6 382.7 378.4 368.8 349.3 327.4 310.3 304 296.2 288.2 280.1 269.4 267.1 266.9 262.1 258.3 256.3 241.9 261.2 270.4 278.7
192.1 187.5 186.7 186.7 183.4 179.5 176.3 171.8 167.5 164 160.4 154.9 151 144.7 132 125.1 123.9 125.2 130.3 133.8 134.2 133.4 132.1 127.7 124.4 119.8 110.7 101.4 94.3 84.4 77.7 70 62.9 61.5 60.5 59.5 58.6 58 58.4 58.9 60.7 62.4 65.4 69.4 78.3 85.5 93.4 99.9 100.9 96.7 99.8 107.1 111.3 115.5 119.6 118.2 115.6 113.1 111.3 109.7 109.6 108.4 106.4 104.2 105.6 109.8 112.5 113.6 111.6 105.9 101.8 104.4 110.1 112.4 112.4 112.3 113.2 118.1 123.7 127.6 131.5 134.4 137 139.5 142 144.4 144.6 143.2 138.7 133.3 130 129.6 136.5 142.9 150.5 157.8 162.1 166.1 169.5 172.4 175.9 179.7 184.5 189.3 194.4 199.4 204.5 209 213.9 219.2 225.6 232.5 238.9 241.6 244.6 248.1 252 257.7 264.1 269.4 273.3 270 269.2 270 270.4 272.5 274.3 277.3 278.4 279.8 281.4 285.2 290.3 295.1 298 299.1 298.2 297.9 298 299.4 302.1 304.7 307.3 312 317.2 320.1 320.8 320.2 319.6 320.1 321.5 323.5 324.4 326.6 327.8 327 318.5 319.5 319.9 320.3 320.2 318.9 319.5 322.1 316.5 327.5 337.4 347.5 359 368.1 373.9 379.8 382.8 384.5 384.7 384.6 384.7 384.3 384.3 384.3 381.9 378 371 356.6 330 309.7 300.2 291.7 281.2 274.6 260.9 255 254.5 250.3 252 246.8 242 257.3 268.7 280.7
196.5 190.6 188.1 185.9 183.2 179.6 175.7 170.9 166.6 164 160.5 158 153.5 146.6 130.4 124.5 123 123.9 128.4 130.7 131 131.9 130.3 125.9 122.3 115.3 106.3 99.8 94.1 82.2 73.7 66 62.4 60.9 59.9 59.1 58.3 58 59.9 60.2 62 64.5 67.9 74.4 80.9 86.4 92.8 95.7 93.7 91.5 97.4 102.8 106.4 111 114.3 111.9 110.1 107.8 106.2 105.6 105.9 103.7 102.6 101.9 108.1 111.9 114 114.5 111.5 105.3 101.1 104.7 109.3 110.7 111 112.4 116.5 121.5 126.9 131.1 134.2 136.7 139.1 141.5 143.5 144.5 143.4 140.1 133.1 130.8 125 133.6 142.7 147.9 154.8 160.9 165.3 169.1 171.9 175 178.8 182.2 187.4 192.2 197.6 203 208 213.2 219.3 224.7 233 238.8 242.4 246 250.5 255.7 265.4 272.8 278.3 282.2 280.8 274 272 272.1 272.1 274.1 275.9 277.4 277.9 279 282.1 287.4 292.8 295.9 297.5 297.6 296.4 296.1 297.1 299.4 303.6 304.8 305.7 308.9 312.5 313.5 314.2 312.5 311.6 312 313.8 313.7 311.4 314.4 316.7 312.6 309.2 307 309 310.2 310.1 310.3 310.9 307.4 318.5 325.8 337.5 350 360.7 367.9 373.3 378.8 380.8 381.4 381.6 381.4 382.1 382.3 382.6 382 380.1 377.2 372.1 360.7 335.7 312.2 295.7 286.6 277.1 266.9 253.6 243.8 243.7 243.5 243.2 236.3 240.6 258.1 270.8 284.6
194.8 189 187.3 187.2 186.9 184.3 178.4 170.1 166.3 165.1 161.7 158.1 152 142 133.7 127.7 124.1 122.8 126.2 128.4 129.5 127.4 126.5 123.7 120 113 106.2 100.6 93.5 83.8 72.6 65.9 62.3 60.5 59.4 58.3 57.5 58 60.5 61.6 63.3 67.3 70.3 75.3 80.8 85.5 88.1 89.3 88.4 88.8 93.1 97.2 101.2 106.1 107.6 105.9 104.1 102.6 102.3 101.9 101.9 99.4 98.7 105.6 109.7 113.1 115.3 114.3 110.8 104.6 99.3 104.6 107.7 109.6 111.5 116.1 120.2 125.3 130.4 133.4 136 138 140.1 142.3 143.7 144.2 142 134.5 129.8 124.6 134.4 143.6 150.1 154.4 159.9 163.9 168.1 171.9 174.3 178 180.9 184.8 189.7 195.9 201.2 206.7 212.6 218.4 224 231.5 238.4 242.5 246.5 251.9 259.7 270 279.3 283.4 282.8 287.5 284.5 277.7 274.4 274.2 274.5 275.6 276.8 277.5 278.1 280.2 285.4 290.5 294 296.5 296.7 295.5 294.1 294.5 296.5 300 306.3 303.8 303.7 304.5 306.1 307 307 305.3 303.9 304.4 304.5 304.6 302.8 302.1 303.5 300.6 299.6 300.4 299.9 299.7 299.3 301.2 302 303.3 314.6 324.3 339.9 352.1 361.4 366.8 372.6 376.1 377.4 377.8 378 378.1 377.6 377.6 378.5 378.3 377.5 375.2 370.9 363.4 341.4 315.4 293.2 280.6 270.8 262 252.5 241.8 233.4 234.6 226 234.1 249.8 260.1 275.3 294.7
193.6 184.5 180.9 184.1 182.5 178.7 168.8 156.3 159 163.9 159.7 154.9 147.9 141.9 140.7 131.9 123.7 122.5 123.7 126.5 127.8 122.1 120.2 120 118 112.1 105.5 99.4 92.2 83.2 73.2 64.8 62.1 60.7 58.6 57.5 56.8 57.6 61.2 62 65.9 69.3 72 75.6 79.6 84.1 85.8 84.8 84.7 84.7 87.8 91.7 96.2 101.5 102.6 100.6 98.6 96.9 97.5 97.9 97.8 96.3 103.2 107.3 111.1 114.1 115.1 113.1 109.6 102.2 98.2 104.2 107.5 110.5 115.3 120 124.2 129.2 133.3 135.4 137.5 139.3 141.1 142.9 143.5 143.6 137 127.7 128.3 127.6 142.4 150.4 155.6 159.9 163.7 167.6 171.8 174.2 176.5 180.6 183.6 187.7 193.2 200.1 205.6 212.8 218.1 223.3 230.3 237.9 243.3 248.8 255.5 264.9 272 278.8 279.5 278.9 286.7 282.2 279.1 278.3 275.8 275.9 276.4 277.1 277.9 278.3 280.1 283.4 288.7 293 295.2 295.3 294.3 292.4 292 294 296 297.5 300.4 299.9 299.5 300.1 299.5 300.4 300 297.8 297.4 296.8 297 294 292.4 291.8 291.4 289.9 291.3 293.4 290.8 291.9 289.2 287.4 288.5 301.9 313.5 329.1 343.5 354 361.1 366.8 370.2 372.1 374 374 373.9 373.5 373 372.8 373.5 373.2 372.4 369.8 366 360.1 345.3 317.1 293.9 276.6 265.8 256.4 248.2 237.9 227.9 222.1 226.9 240.7 251.9 264.5 281.9 306
189.6 181.3 171.1 163.8 166.8 163.3 148.7 156.3 150.2 149.6 151.4 151.4 145.8 140.4 134.9 127.4 123 122.1 118.3 121.1 120.5 117.8 115 116.7 114.6 109.8 103.7 98 91.6 82.6 72.4 64.4 61.9 60.5 59.2 56.4 56.8 57.9 61.4 64.6 68.4 70.5 72.8 76.2 80.9 84.3 83.6 81.6 82.2 82.2 82.8 86.1 91.2 97 97.3 95.5 93.7 93 92.7 92.9 93.8 100 104.4 108.3 112 114.4 113.6 111.4 107.1 100.6 100.2 105.6 109.3 114.3 119.3 123.8 128.4 132.3 135.6 136.6 138 139.9 141.7 143.2 143.8 142.2 129.6 125.9 122.2 137.7 147.2 154.5 159.6 163.4 167.2 171.3 174.4 177 180 182.9 186.6 191.6 198.5 205 211.8 217.9 223.3 229.4 235.8 243.7 250.5 259.4 268.7 273.9 274.2 277.1 274.2 276.1 278.6 280.9 278.5 277.5 277.2 277.6 278.2 278.9 279.5 280.8 282.7 286.9 291.3 293.4 293.8 292.7 291.6 289.6 291.3 293.4 295.1 295.5 295.5 294.7 294.5 294.5 292.5 293.2 292.5 291.4 290.2 289.5 288.6 285.8 283.5 281.4 280 279.5 284.3 284.1 282.8 282.4 277.4 284.5 297.3 307.7 320.5 334.3 345.7 354.6 361.2 364.6 366.8 368.7 369.9 369.9 369.3 368.1 368.1 368 367.6 367 365.8 364.4 361.3 355.5 345.9 319.9 295.5 274.2 261.7 251.9 243.2 233.2 221.8 219.2 233.1 242 252 267.9 290.9 314.7
185.2 182.3 179.4 171.6 166 162.8 165.9 167.7 161.8 143.7 150 147.4 139.8 135.9 129.5 123.9 121.6 119.9 115.5 118 116.6 113.9 111.9 110.9 110.3 106 100.5 94.6 88.3 81.2 73.3 66.8 62.2 61.3 59.9 56.3 57.1 58.6 61.1 66.6 68.5 70.5 74 78 81.8 83.7 82.4 79.8 79 79.5 79.1 80.8 85.1 90.2 91.3 91 90.5 88.7 87.9 90 96 100.8 104.9 108.7 111.9 113.8 111.6 108.5 104 97.6 103 109.3 114 118.4 123.4 128 131.7 135.2 136.7 137.1 138.5 140.3 142.2 143.5 143.9 136.4 125.1 121.5 134.8 145.1 152 157 161.8 166 170.2 173.6 177.3 180.5 183.6 186.3 188.8 198.2 204.9 210.8 216.5 223.3 229.1 235.7 243.2 252.2 262.2 270.9 277.1 272.1 270.9 268.8 270.3 273.4 278.1 277.7 278.4 279.2 279.8 280.3 280.4 280.6 281.9 285.9 286.3 290 290.8 291.7 290.3 289.1 288.2 288.2 290.7 292.7 293.6 293.5 292.5 289.7 288 288 285.7 285.6 285 283.7 281.7 280.4 280.1 276.4 274.1 271.5 270.7 273.5 275.5 274.8 273.5 271.5 271 290.2 301.3 312.1 325.2 337.5 346.6 354 358.9 361.6 363.1 364.8 365.5 365.3 364.3 363.1 361.9 361.4 360.6 360.2 359.3 358 355.2 350.6 344.3 323.6 296.6 273.2 257.4 247.6 238.2 226.5 214.1 224.2 232.8 241 252.2 272.5 296 319.4
186 183.4 181.8 179.7 174.1 170.3 167.5 164.4 156.5 142.8 137.6 142.2 138.1 131.9 124.6 118.7 114.7 112.9 114.7 115.3 112.5 112.5 110.8 104.7 105 101.2 95.7 91.4 86.1 80 73.4 68.8 64.9 62.9 60.5 57.9 56.2 58.6 62.7 66.9 68.3 70.1 73.5 78.6 81.9 83.7 82.5 79.4 76.4 75.5 75.6 76.5 78.6 82.9 85.1 85 85.1 84 87 91.7 96.7 101.1 105.2 108.9 112.3 112.5 108.6 104.7 97.2 101.3 108.5 114 117.8 122.6 127.4 131.6 135.2 137.3 137.3 137.3 138.9 140.8 142.9 143.7 138.6 126.1 121.6 129.9 140.3 147.9 154 159.2 163.9 168.3 171.9 175.6 179 183.7 187.6 191.3 196.6 203.8 209.7 216.1 223.8 230.4 236.7 244.4 253.4 264.1 271.6 276 273.9 267.3 267.1 268.3 269.7 273.2 276.5 278.3 281.1 284.8 284.1 284 283.6 284.5 287.3 288.5 289.5 290.2 290.4 288.8 287 285.3 284 287.4 289.9 291.4 291.1 289.7 288 285.1 281.3 281.1 278.2 278.1 277.4 276.4 273.1 271.2 268.6 266.2 264.4 264.3 263.6 265.5 267 264.3 260.2 253.4 282.2 293.6 305 316.4 328.4 338.2 346.3 352 355.9 358.1 359.3 360.6 360.6 359.9 358.9 357.4 355.5 354.3 353.3 352.6 351.5 350.1 347.7 345.8 340.7 326.4 297.9 273.1 256.5 245.2 235.3 222.4 212.5 222.4 231.8 239.5 254 276.2 299 322.2
184.5 182.4 180.6 175.1 170.1 166.9 164.2 157.4 150.3 143.8 136.3 127.9 126.4 123.2 118.5 119.2 115.8 110 107.5 109.5 109.8 109.3 107.4 102.5 98.9 97.1 92.1 89 85.6 80.6 74.6 71.3 65.5 63.6 62.3 60.1 57.3 58.3 63.8 66.6 67.3 68.3 72.3 77 81.9 84.5 83.7 80.3 76.9 73.9 73.2 73.3 74.1 76.6 78.5 78.8 77 80.3 87.6 92.5 97.2 101.3 105.4 109.3 112.3 110.5 106.4 98.3 100.4 107.7 114.2 118 121.4 126 130.6 135.2 137.8 137.4 137 137.7 140 142.5 143.4 140.3 126.7 119.3 123.2 133.9 143.1 149.9 155.8 161.1 165.7 170.1 173.2 176.8 181.2 188 191.8 195.5 201.1 207.4 213.7 222.2 229.5 236.8 244.6 253.7 262.8 269.8 272.7 271.3 265.2 266.1 266.7 267.9 273.4 280.2 282.5 283.4 287.6 290.2 290.9 289.4 288.7 288.9 289.4 289.4 289.1 288.4 287 285 282.2 279.1 283 286.4 287.8 287.7 286.6 284.7 282.6 279.8 276 273.1 271.3 271.3 270.5 269.5 266.8 262 260.4 257.8 255.9 255.9 256.6 258.1 255.4 252.8 245.8 264.8 281.3 294.6 307.4 318.8 329 338.1 345.6 350.1 353.3 354.5 355.4 355.8 354.8 353.2 351.9 350.1 348.4 346.7 345.6 344.4 342.9 341.6 339.1 338.6 335 324.7 298.5 269.9 252.2 245.4 233.2 219.6 208.5 216 230.6 239 255.1 275.4 301.6 321.2
180.8 178.6 174.2 169.6 165.9 162.7 157.3 151.5 144.8 141 139 136.1 131.3 127.7 125.5 122.4 116.3 111.1 108 106.5 106.1 106.1 103.8 99 95 93.2 89.1 87.4 84.8 80.5 74.5 71.8 66.2 61.9 62.6 62.1 61.3 55.8 61.4 61 63.6 65.9 68.9 75.4 82.2 85.8 84.7 81.3 77.9 73.7 71.1 71 69.4 67.9 69.4 72.5 76.6 82.1 87.7 92.6 97.2 101.4 105.4 108.5 110.4 108.2 102.2 96.8 107 112.9 117.7 121.5 125.3 129.3 133.8 137.4 138.6 137.1 136.6 138.2 141.5 143 140.3 128.4 117.1 117.9 128.9 139.4 147.8 153 157.8 162.5 167.3 171.6 175.1 178.7 184.2 191.5 195.9 199.5 203.1 210.4 219.8 227.4 233.8 241.9 250.1 257.2 263.9 267.8 266.7 263.9 264.9 266.1 266.9 274 283.2 286.2 286.9 289.4 294 296.7 295.1 292.5 290.8 289.9 288.8 287.7 286.6 285.1 283 280.6 277.3 275.8 281.1 283.4 283.6 282.7 280.7 278.7 276.2 273.5 269.9 266.5 265.3 265.3 265.2 263.2 259.5 253.7 251.3 248.6 248.2 246.9 247.8 247.4 243 235.6 249.8 263.4 277.8 290.5 305.3 317 328.1 337.2 343.6 347.2 349.5 350.7 350.8 349.6 347.4 345.6 344.1 341.9 339.9 338.7 337.8 336.6 335 333.3 332.4 331.6 328.4 320.2 295.3 264.4 249.1 246.4 234.4 217.9 206.9 213.1 224 233.6 254.1 275.7 298.8 316.7
176.6 173.5 168.2 164.4 161.1 158 152.7 146.6 141.5 138.5 136.6 134.5 131.2 127.6 124.7 120.7 115.6 111.4 108.3 105.4 103.3 101.5 99.5 95.7 92 88.9 85.9 85 84 79.6 74.5 71.6 65.2 60.6 59.5 59 60.2 57.3 58.6 60.1 61.4 64.5 67.4 74.1 83.3 86.7 85.4 82.8 79.6 73.5 69.4 68.1 67.2 67.4 69.9 73.9 77.9 82.3 87.8 92.5 97.2 101.2 104.7 106.6 106.6 105.1 95.7 103.2 110.3 115.8 120.4 124.5 128.6 132.8 137 139.1 137.9 136.2 136.6 139.3 142.1 141.5 133 119.8 114.6 125.5 136.3 146.5 152 156.8 161.3 165.2 169.4 173.7 178.1 181.8 188.4 195.1 199.8 202.5 205.1 214 223.6 230.1 236.8 243.6 250.5 256.3 260.6 261.9 262.3 263.6 265 266.2 273.2 282.6 287.4 289.1 292.5 295.3 297.8 297.8 295.6 292.1 289.6 288 286.5 284.9 282.8 280.9 279 276.8 274 269.9 275.8 277.9 278 276.6 274.5 271.7 269 266.5 262.9 259.8 259.5 260.2 259.5 256.7 252.8 247.1 242.6 241.8 241.3 239.5 236.5 231.8 230.2 239.2 250.2 256.7 271.5 285.7 301.9 314.9 326.4 335 340.2 343.7 345.5 346.2 345.3 343.7 341.5 337.9 335.4 333.1 332 331.1 330.3 330.1 328.9 328.9 327.6 326.1 322.5 316 291.5 258.6 245.9 244.6 237.3 216.9 203.3 208.4 218.7 234.3 254.3 277.1 295.6 308.8
172 168.1 164.2 159.8 156.5 152.2 148.3 144 141.4 139.1 136.2 133.3 130.4 126.6 123.2 119.2 114 110.3 107 103.8 100.1 96 93.2 91.5 89.4 85 84.1 84.3 83.3 79 74.2 73.1 66.6 60 57.7 57.9 58.5 56.8 55.9 58.5 60.7 61.4 67.7 75.2 83.5 87.4 86.7 84.2 79.2 71.7 67.6 66.2 65.2 66.8 69.2 74 78.7 83.2 87.5 92.1 96.6 99.1 102.4 103.6 103.2 96 98 107.7 113.5 118.7 123.8 128.1 132.2 136.3 139.5 138.4 136.6 135.6 136.4 139.3 140.3 137.1 123.6 110.4 121.4 134.3 144 149.2 154.9 160.6 164.7 167.9 171 176.9 182.4 186.4 191.2 195.4 200.3 204.1 209.2 217.6 225.3 230.9 236.3 242.5 248.9 254.2 256.8 259 262.4 266.4 268.1 273.8 282.6 287.9 290.8 293.6 295.1 297.5 297.3 295.8 293 288.8 286.4 284.4 282.8 280.9 278.7 276.8 275.2 273 270.4 261.4 268.3 271.3 271.2 269.3 267 264.5 261.8 259.4 256.4 252.2 254.6 254.2 252.9 250.4 246.7 241.4 235.6 234.6 234.6 232.1 228.3 228 227.8 239.6 245.4 252.2 266.3 277.5 295.2 309.1 322 330.1 335.8 338.8 340 341.3 340.3 338 334.9 331.4 328.1 325.7 324.6 323.8 323.8 323.4 323.1 322.4 321.5 320.4 317.2 311.9 288.4 257.3 241.8 242.1 235.3 213.2 199.5 212.4 220.4 232.6 252.7 274.5 290 304.5
167.3 163.7 160 155.7 151.5 147.8 143.9 141.7 140 137.6 134.7 131.9 129.2 125.5 121.9 117.2 112.7 109 105.4 101.1 96 91.7 87.5 87.1 85 82.8 82.3 82.3 82.1 77.1 73.1 72.6 66.6 59.8 57.6 57.8 58 56.4 55.9 56.7 60.3 61.1 67.6 76.2 84.5 87 86.5 83.3 77 68.6 65.4 64.8 64.6 66.5 69.2 74 78.7 81.6 86 90.8 95.3 97.9 98.2 97 92.8 89.8 102.1 110.9 116.7 121.8 127 131.7 135.9 139.8 139.2 137.1 135.3 134.8 136.4 138.7 139.8 130.6 113.5 116.1 130 142.6 148.2 152.6 158.2 164.3 167.5 172.5 177.1 180.3 185.3 188.6 192.2 196 200.3 204.9 209.9 218 225.2 230.1 235.9 241.7 247.2 252.2 256.1 261.6 267.6 270.6 272.1 282 289.2 292.6 293.5 292.2 292.8 294.2 293.4 291 288.9 285.2 283.2 281.2 279.2 276.9 274.8 273.1 272 270.8 268.1 260.2 259.7 263.8 263.5 261.5 259.1 256.9 254.6 252.5 249.6 245.8 247.8 246.8 244.9 242.6 239 233.4 229 226.9 228.2 225.6 224.5 216 227.7 234.7 240.3 246.9 258.5 269.8 285.5 299.6 316.5 325.3 329.8 333.1 334.3 334.8 333.9 330.8 327.9 325 322.2 320.1 318.7 317.2 317.2 317.2 316.7 315.9 314.7 313.5 311.1 307.3 287.8 255.6 239.1 239.5 233.8 211.4 197.1 215.4 222.3 232.5 249.8 265.6 288.3 300.4
163.4 159.7 155.7 151.7 147.7 144.1 140.6 139.1 137.6 135.1 132.5 130.5 127.8 124.2 119.7 115.9 111.8 107.7 103.6 98.4 93 88.2 83.5 82.8 81.5 81.6 81.4 81.2 79.1 74.4 72.4 70 66.6 63.2 57.5 57.3 57.5 57.2 56.1 55.7 59.3 61.2 68.1 77.1 83.1 85.9 84.7 81.5 75.3 66.1 64.4 63.3 64.5 66.5 69.7 74.1 77.7 80.5 84.7 89.7 92.6 93.1 84.3 87 91.5 99.1 107.4 113.8 119.7 124.9 130.1 135.3 139.3 141.5 139.3 136.6 134.6 134.8 136.2 139.5 139.2 128 108.9 123.3 138.7 147.4 152.8 158.2 163.2 167.4 173.4 179.1 181.9 184.7 187.9 190.2 193.9 197.9 202.3 207.9 213.7 220.3 223.7 229.2 234.8 239.8 245.6 253.3 258.4 263.5 268.3 271.1 274.6 281.4 288.3 291 291 288.5 288.6 289.7 288.8 285.8 283.9 281.8 279.5 277.3 274.6 271.5 269.6 269.8 269.2 268.1 266.1 260.1 250.2 256 256.6 254.3 251.1 249.3 247.6 246 243.2 237.9 239.3 238.2 235.8 233.4 228.8 223.8 222.7 221 223.6 219.1 216 210.4 223.5 229.1 233.3 241 251.4 263 278.8 292.5 309 319.7 324.3 326.4 327.4 326.7 325.1 321.7 318.8 316.6 315.3 314.1 312 310.4 310.1 310.7 310.3 310 309.5 308.7 307.6 303.6 291.2 257.9 249.1 240.3 230.1 210.8 194.7 206.2 218.4 226 243.2 264.9 284.6 294.6
159.5 155.8 152 148.4 144.4 141 138.9 137.5 135 132.4 129.7 127.8 126.1 121.8 117.3 113.6 109.3 105.6 101.4 96.1 89.7 85.1 81.8 79.8 80.2 80.8 80.7 79.9 76.5 73.6 71.9 68.3 65.7 61.2 57.7 57 56.9 56.8 55.4 55.6 57.9 60.4 67.4 75.6 81.1 83.7 81.9 78 71.1 64.4 62.5 64 65 66.8 70.2 73 76.1 79.2 83.5 86.6 87.2 80.2 85.1 92.2 99.1 106.3 113 117.9 123.4 127.9 132.7 137.9 141 141.3 139.4 136.5 134.4 134.8 137.2 139.9 135.7 124.2 106.7 128.8 144.3 150.1 155.4 160.9 165.5 170.6 180 183.9 182.6 185.1 188.6 192.2 195.9 199.9 204.6 210 216.5 220.2 223.7 227.8 233.1 238.4 245.5 254 259.7 264.7 269.4 268.7 272.5 278.6 283.4 285.4 285.2 284.6 284.7 285.3 283.8 281.5 279.9 278.1 275.5 273 269.7 266.3 265.8 265.9 265.4 264.1 262 258.8 250.8 241.2 249.6 248.3 245.5 242.4 240.6 239 235.8 230 229.1 228.7 226.5 222.1 217.8 215.6 214.6 216.5 218.3 213 208.7 208.2 218.9 223.2 229.6 235.4 245.2 257.4 274 285.4 303.4 313.5 317.1 318.6 318.7 316.5 315.4 313.5 311.6 310.5 309.9 308.6 306.9 305.5 305.3 304.9 304.6 304.6 304.2 303.6 302.9 300.2 293.2 266.1 266.3 245.1 223.2 209.6 192.1 206.4 222.3 229.6 241.1 265.9 281 287.6
154.8 152 148.6 144.7 140.8 140.1 138.1 135.4 132.7 130 127.2 124.9 122.7 118.8 115.1 111.3 107.7 103.7 99 93.9 87.3 83.1 81.4 79.4 78.2 78.6 79 78 74.2 72.2 72.4 69.7 65.3 60.5 57.8 57 56.7 55.2 55.5 57 58 59.4 68.7 74.5 78.4 80.1 78.6 74.6 67.9 61.7 63.2 64.6 64.9 66.3 68.9 71.8 74.9 78.1 81 78 77.5 85 91.7 102.1 106.9 111.8 116.7 121.5 127.2 131 135 137.8 139.5 139.7 137.7 135.4 134.3 135.6 138.2 139.5 133.2 120.8 113.2 135.5 145 150.6 156 161.5 165.7 170.8 182 184.5 185.3 185.7 188.4 192.7 196.9 200.8 207.4 212.8 217.7 220 222.7 226 230.9 236.9 243.8 253.2 257.9 262.3 264.6 265.5 268.9 274 277.9 279.5 280.6 282 282.2 280.6 278.6 276.4 275.4 274 271.7 268.2 264 260.2 259.5 261.4 261 259.6 258 255.4 250.4 241.6 238 242.6 240 237.1 233.8 230.7 226.5 221.8 217.2 216.4 216 213.3 212.2 210.6 211.3 212.3 214.5 209 203.2 204.2 215.2 218.7 225.9 233.6 241.7 253.1 267.9 279.4 296.1 305.9 310.2 309 307.9 306.1 305.8 306.4 306.3 306 305.4 303.9 302.2 300.8 300 299.1 299 299.2 298.8 298.3 297.7 295.9 292.3 276.3 259.8 240.4 223.3 208.9 189.7 203.1 222.5 230.5 240.2 258.8 273.1 279.4
150 147.5 144.9 141.4 137.7 138.8 136.8 133.9 131 128.3 125.2 122.8 119.7 116.7 113.3 109.7 106 102 97.3 91.8 86.8 82.9 80.3 78.3 77 77.3 77.6 75.7 71.5 70.3 70.1 69.5 66.5 60.9 58.6 56.7 56.4 54.5 55.3 56.1 57.8 58.4 67 72 75.2 76.6 75.2 70.9 65.6 60.2 63.1 64.8 65.4 66.5 67.6 70.6 73.7 76.2 72.2 78.4 85.1 91.5 99.2 108.1 113 115.9 118.8 124.1 128.8 131.2 132.8 135.2 137 136.9 135.4 134.2 134.3 136.5 138.7 137.9 134.8 120.9 109.5 128.4 142.9 148.7 154.1 159.9 163.8 166.4 181.8 183.8 185.3 183.8 188.2 193 197.4 202.6 208 213.9 218.4 220.1 221 224 228.3 234.2 241.2 247.3 251.9 256 257.4 261 264.8 268.2 270.9 273.1 274.4 276.7 276.9 274.8 273.2 272.3 271.2 270.2 267.3 263.1 259.6 256.2 255.1 256.5 256.5 255.2 253.8 251.5 247.3 240.2 229.8 236.5 234.8 232 228.8 224.4 219.1 213.6 210.2 209.8 210.5 209 206.6 205.3 206.7 207.9 209.2 204 199.2 198.8 212 215.4 222.9 228.3 237.5 248.1 260.4 271.3 287.5 298.2 302.3 300.4 301.1 302.5 301.8 301.1 301.1 300.9 300.6 297.9 296.3 294.7 294.1 293.2 293.1 293.8 294 294.1 293.1 291 288.7 282.7 245.8 236 217.2 197.9 186.5 204.4 220.1 230.8 247.7 263.2 264.4 269.6
145.9 143.5 140.8 136.5 137.8 137.9 135.4 132.5 129.3 126.8 125.3 122.9 119.4 116 112.6 108.8 105.4 101.3 96.7 91.7 87.8 83.7 79.4 77.3 75.8 76.4 75.7 72.6 70.5 69.1 68.2 67.6 64.1 61 57.4 56.3 55.7 53.5 55 56.7 58.7 59.1 64 68.4 71.5 72.8 71.2 67 63.4 60.9 63.9 64.9 66 67.6 68.7 69.4 71.1 71.7 76.9 83 89.6 98.3 105.8 111.5 116.5 120.1 122.9 126.7 127.6 128.4 130.7 133.3 134.9 135.4 134.6 133.2 133.3 135.5 137.5 138 138.6 126.5 109.3 119.7 138.9 146.3 152.1 157.2 161.8 164 166.9 178.8 178.1 182.3 187.4 192.6 197.4 202.3 208.6 215.3 219.4 219.6 219.1 222.7 226.7 232.2 236.8 241.5 245.8 249.1 252.5 255.9 259.6 263.2 265 266 267.7 270.3 271 270.8 269.3 268.6 267.5 266 262.3 258.4 255 253.3 252.4 252.2 252.5 251.4 249.4 246.3 241.7 236.6 223.5 230.5 229.5 226.7 222.7 217.8 211.4 207.2 206.3 204.3 205.8 202.7 200.2 199.2 200.7 203 203.9 201.4 195.4 195.4 208.3 214.8 220 225.2 232.5 241.5 252.5 262.6 280 290.9 294.7 294.2 296.5 296.9 296.2 295.7 295 294.5 292.8 291.5 289.8 287.7 287.5 286.9 287 286.7 285.4 286.1 286.7 284.5 283.2 277.8 255.4 228.8 211.7 193.2 188 204.6 218.3 233.3 249.8 256.7 260.8 265
141.7 139.5 136.8 134.5 136.9 135.6 133.8 131.1 128.3 127.1 125.9 123.5 120.5 117.3 113.9 109.3 105.5 101.9 97.2 93.2 89.4 85.1 80.4 76.1 75.3 75.4 74.1 70.5 68.6 68.4 67.4 65.8 62.6 58.9 57.7 56.8 55.9 54 55.3 58.4 60.7 59.9 59.1 64.3 68.2 68.6 67 63.5 60.7 61.8 64.4 65.6 66.6 67.6 68.6 69.8 71.2 73.5 79.7 87.4 93.4 102.4 109.7 115.8 121 124.9 126.5 126.8 128.5 130.6 132.4 133.5 135 136.3 134.9 132.8 132.6 133.7 136.1 138.6 139.9 135.8 113.4 112.8 134.1 144.7 150.7 155.8 159.9 163.6 167 174.2 177 181.6 186.9 192.2 197.6 205.7 211.9 217.7 221.2 219.9 217.6 220.8 226 230 233.1 237.1 240.7 242.4 245 251.5 256 259.9 261.8 263.2 265.1 266.8 266.6 266.3 265.5 264.7 263.8 261.5 257.6 253.7 250.8 248.8 248.4 248.3 248.3 247 243.9 240 235.6 230.5 221.2 222.2 222.3 218.9 213.5 208.5 205.5 204 202.1 198.3 197.2 196.4 195.2 194.7 195.3 197.4 197.8 197 190.4 192.5 200.5 208.1 215 221.2 227.3 235.1 245.3 254.9 271.5 282.8 284.9 289.3 290.6 290.5 289.6 288.7 287.9 286.6 286.1 282.7 281.5 280.3 279 278.7 278.5 278.5 278.3 279.3 278.7 276.9 275.7 271.8 263.1 222.4 211.5 188.3 190 203.2 220 237.9 247.9 252.7 258 264.7
137.4 134.8 132 132.3 134 133.1 131.6 129.5 127.1 125.7 125.5 123.7 122.1 118.9 115.4 110.7 106.2 102.5 98.6 94.9 91.8 86.9 81.3 74.7 75 74.8 72.9 69 67.5 67.2 66.9 65 61.6 58.3 56.4 55.8 54.4 54.5 56.2 59 60.9 60.2 58.5 61 64.2 64.3 63.1 60.7 60.5 62.6 64.5 65.5 66.5 67.5 68.7 70.7 73.3 77.5 84.5 90.6 97.3 106.5 115 121.2 126.7 130 130.3 133.1 136.4 136.3 136.8 139.7 139.2 137.1 133.8 132.9 134.1 135.6 137.5 139.8 139.1 129.2 105.1 113 131.7 141.7 147.3 152.4 157.9 162.5 166.9 171.7 176.1 181.3 186.5 192.7 198.2 209 214.4 218.2 219.6 217.7 215 220 225.1 227.5 229.5 231.9 235 238.2 242.5 248.1 253.4 257.9 259.8 261.2 262.5 263.7 263.6 262.8 261.7 260.9 258.9 256.4 252.7 249.3 247 244.8 244.5 244.6 244.3 242.1 238.1 233.8 229.4 223.7 216.5 208.1 215.1 209.6 207 205.7 201.9 196.6 195.1 192.6 191.6 191.7 190.2 188.6 189.8 191.4 192 191.7 183.8 189.1 196.3 201 207.8 216.6 222.7 228.2 236.6 247.5 260.2 271.9 277.4 281.6 283.2 283.7 281.9 279.1 278 277.6 277.2 275.1 273.2 271 270.9 272 272.8 273.9 272.9 271.4 270.7 269.8 266.9 263.2 255.3 230.8 198 179.7 189.9 206.2 220.9 236 245.1 252.3 259.2 265.4
132.3 131.1 131 127.9 130.3 130.3 129.1 127.3 124.7 122.9 124.5 125 123.9 121 116.8 112.2 107.5 103.5 99.9 96.1 92.1 87.5 81.4 74.2 74.5 72.8 70.4 67.4 66.8 66.3 65.8 64.8 61.9 58.4 55.8 55.4 52.4 56.9 58.8 60.5 60.7 61.1 60.6 58.2 60.2 59.7 58.1 59.5 60.3 61.7 63.8 65.2 66.2 67.4 69.5 73.3 77.3 81.7 88.7 94.4 103.4 115.3 121.1 126.2 129.8 132.7 135.2 139 142.2 144.4 144.9 143.9 140.8 136.8 131.5 134.5 135.8 136.5 137.5 137.3 130 113.6 100.5 120.7 136.3 141.4 145.5 150.8 156.6 162 166.6 171.7 176.9 182.1 186.8 191.9 200.3 206.3 210.6 214.2 215.6 212.8 214.3 219.5 223 224.7 226.4 228.6 231.3 234.5 240.1 245.8 250.9 255.3 258.2 259.5 260.7 260.6 260.3 259.1 257.7 256.1 253.6 251.2 248.1 245.7 243.5 240.8 240.1 239.8 238.9 236.1 231.9 227.3 221.7 216.2 209.7 201.8 205.1 203.6 204 201.7 198.7 191.7 189.7 188.2 186.8 186.4 184.9 183.6 183.7 184.8 186.5 185.8 178.4 185.7 193.7 198 201.8 211.2 217.7 223 229.9 238.9 248.1 259.6 268.7 272.5 275.1 274.5 272.2 269.6 269.5 267.4 266.9 266.6 266.2 265.5 265.9 266.5 268 268.2 265.2 263.9 262.7 264.3 258.4 252.1 242.1 222.3 189.9 179.8 196.5 210 222.4 235.5 245.9 253.4 260 265.2
127.4 127.2 125.2 125.1 126 126.9 126.9 125 122.3 121.6 124.8 124.8 122.5 119.6 116.2 112 107.4 103.5 99.4 95 90.3 85.7 80.4 73.8 72.6 70.4 68.2 67 66.2 65.4 64.6 63 60.7 58.5 56.4 54.6 53.6 55.9 59.6 60.1 60.3 60.1 61.8 58.8 57.5 58 58.8 59.1 60.5 61.5 62.9 64.5 66.6 69.7 73.4 76.8 80.7 86.2 93.6 101.5 112.4 119.7 125.3 129.3 132.9 135.8 138.6 141.2 144.2 146.6 146.9 144.3 139.4 134.1 133.1 136.1 134.6 133.8 133.6 127.6 115.6 102.6 109.4 129.3 138.6 141.7 145.4 150.1 155.3 160.5 166.5 172.1 177.6 182.3 186.7 191.2 196.8 202 205.6 208.9 209.5 207.7 214.1 218.3 220.1 221.5 223.3 225.8 229.1 233 238.1 243.3 248.1 252.2 255.9 257.8 258.1 257.6 256.6 255.2 253.2 251 248.6 246.4 244 241.9 240 237.3 235.6 234.5 232.9 229.5 224.7 220.3 214.4 207.4 203.4 201.4 200.8 199.7 198.2 195.4 190.2 185 184.3 183.5 180.7 180.1 179.2 177.2 178 178.9 180.8 177.4 168.9 183.8 192.2 196.2 199.2 203.1 211 218.5 226.7 234.4 243 247.4 256.4 261.5 264 261.5 257.9 259.6 259.4 259.9 260.2 259.7 258.5 258.8 261.5 261.3 261.8 260.6 260.5 256.6 254.6 252.1 245.6 236.9 225.6 206.9 185.9 182.7 200.1 212.7 226 236.4 245.9 252.4 258 261.6
120.8 122.3 119.8 119.8 122.2 124 124.7 122.9 122.3 125.2 125 122.6 120.2 117.6 114.8 111 106.8 102.3 98 93.6 89 85.3 80.4 75.9 72.4 69.5 67.2 66.8 65.9 65 64.1 62.1 60.2 58.7 57.4 55.7 53.4 53 58.4 59.6 59.6 59.5 58.4 56.6 58.3 58.4 58.9 59.2 60.1 61.6 62.8 64.6 69.6 73.1 77.1 80.9 84.5 91.4 99 108.9 116.2 121.6 126.7 131.8 135.4 138.2 140.4 143.3 145.9 147.4 145.3 140.8 135.4 131.3 135.4 135 133 130.2 126.1 120.8 105.9 96.6 116.3 136.1 140.1 142.6 145.7 150.1 155.1 160.4 166.3 171.9 177.1 181.7 186.2 189.1 194.4 197.1 200.7 203.8 204.2 207.2 212.9 215.8 217.7 219.2 220.8 223.5 227.4 232 237.9 242.6 247.1 251.6 254.1 255.7 255.3 254 252.6 250.2 248.1 245.9 243.6 241.5 239.7 237.8 236.4 233.3 229.4 228 226.4 222.8 217.9 213.2 206.2 200.1 201.2 197.5 195 196.3 189.1 185.4 181.7 179.6 177.8 175.7 175.7 176.2 175.9 171.7 173.2 174 172.6 167.3 169.5 180.2 187.1 192.4 198.5 202 206.9 215.9 225.9 232.6 234.5 239.1 242.7 247.4 248.7 250 249.5 252 252.5 254.2 253.6 254 253.3 253 255.1 254.5 253.5 252.1 248.8 244.9 242.4 237.9 230.7 221.8 206.5 191.7 172.4 185.2 199.4 212.9 225.3 235.4 242.6 248.9 252.4 254.9
