ncols 200
nrows 82
xllcorner 260000
yllcorner 254650
cellsize 50
91 90.7 90.5 89.8 89.2 89 88.7 88 88.1 87.8 87.7 87.8 88.9 89 89.1 89.4 88.8 90.1 90.4 90.7 90.1 90.3 90.5 92.3 95 99.6 105 113.9 123.2 132.2 141.5 150 156.6 168.1 173.2 176.9 180.1 181.7 183.8 185 186 186.1 183.7 178.9 176.2 175.2 173.7 174 175.6 176.8 179.7 180.7 179.3 177 173.8 171 168.8 167.3 168.1 166.4 165.2 166.7 167.6 168.3 169.5 168.4 168.1 168 167.8 167.2 169.4 172.1 176.1 179.5 178.6 178.5 179.9 181.1 180.6 179 176 173.2 175.4 176.5 176.9 178.1 184.4 186.9 187.9 189 189.1 188.7 187.2 186.9 191.3 195.6 198 200.2 199.6 198 194 194.6 197.1 198.8 199.8 200.4 200.8 201.2 201 199.5 198.9 198.8 200.3 202.6 205.2 201.9 200 196.4 193.6 190.1 186.8 182.4 175.4 171.7 170.6 167.1 163.8 163 163.3 167.4 170.4 170.6 169.2 170 170.1 169.6 169.4 169 169.5 169.6 169.6 169.7 170.5 170.9 171.4 171.8 171.4 163.4 155.7 154.9 158 168.7 176.3 182 186.5 199.4 212.2 226.9 230.8 231.7 232.5 243.7 250.4 252.7 253.5 253.4 253 253.9 254.8 257.3 269.2 278.3 279.9 276 271.9 268.1 264.2 263.4 255.7 248.4 242.3 237 228.4 222.3 218.7 233 242.3 254.7 259.7 268.8 279.3 288.6 286.6 285.2 289.9 296.1 295.1 291.7 286 288.8
89.5 90 89.6 89.2 88.6 88.4 88.2 87.9 87.4 88.2 88.1 88.5 89 89.1 89.2 89.7 88.2 90.4 90.4 90.6 90.4 90.6 90.9 93.9 97.7 103.6 113.4 123.5 132.4 139.6 148.8 154.5 161 171.3 178.4 180.7 182.6 184.3 186 187.5 187.5 185.3 182.3 180.9 178.6 177.4 177.1 176.9 177.7 178.8 181.1 180.8 179.3 177.2 175 172.2 170.5 169.6 168.1 168 168.4 169.8 171.2 172.2 172.4 172 170.2 168.5 166.8 166.4 166.6 169.2 172.6 176.7 174.2 175.6 178.2 179.8 178.8 176.9 175 171.8 174 174 174.6 176.5 181.2 184.2 185.8 186.2 185.9 185.8 185 185.7 190.5 195.6 196.5 198 193.5 192.2 193 193.2 194.8 195.9 197.4 198.9 199.5 199.4 199.6 197.3 197.7 198.5 199.9 202.4 202.6 201.6 198.9 195.2 191.7 187.5 184.3 178 173.2 170.7 169.1 164 163 163 166.1 168.3 169.2 169.9 170.2 170.7 170.2 169.6 170.1 169 169 169.2 168.4 169.7 169.8 169.9 170.1 170.6 168.4 159.1 155.6 155.8 159.1 170.5 179 184.8 192.8 207.9 219.6 232.3 242.3 243.3 243.1 241.6 244.6 248.3 249.8 252.4 254.6 258.4 261.5 269.2 285.5 286.7 287.5 285.8 286 281 273.9 268.7 263.4 257.7 252.1 246.9 240 230.5 223.9 226.4 233.1 240.2 245.1 253.4 259.8 260.9 265.4 273.2 280.9 288.4 295.4 288 284.8 288.8
89.2 88.5 88.9 88.6 88 87.8 87.6 87.5 88 88.3 88.3 88.3 88.8 89.1 89.3 89.8 89.5 89.9 90.1 90.5 90.8 90.8 93.2 97.8 102.8 113 123 132.4 143.5 152 155.4 159.2 164.4 171.9 179.2 183.2 184.8 187.2 189.7 192.7 193.3 188.7 185 184.4 180.8 180.2 179.8 180.4 180.9 182.3 182.6 181.1 179.1 177.2 175.8 174.5 172.4 170.5 170 170.1 170.8 173.7 174.4 175.7 176.8 175.2 173.7 171.3 168.1 165.8 165 165.9 168.9 170.6 170.2 173.5 175.8 177.3 176.4 175.1 173.6 169.9 170.4 171.9 173.1 175.1 178.2 180.9 182.6 183 183.1 183.2 182.7 184.7 188.3 190.1 192.4 191.1 191.4 190.1 191.2 192.4 193.2 194.5 196 197.5 196.9 196.4 195.8 196.3 196.2 197.3 198.3 199.5 200.2 199.8 196.8 195.1 189.5 185.2 182.8 177.6 171.7 169.2 164.8 163.2 162.4 165.1 167.1 167.4 168.1 169 169 168.9 169.3 168.3 168.4 168.4 168 168.4 168.2 168.4 168.5 163.7 162.7 164 159.1 155.5 155.3 155.7 167.2 175.4 181.7 187 202.2 217 229.6 246.3 253.1 255.2 254.5 254.6 252.4 253.8 255.1 258.8 259.6 262.3 269 282.6 288.3 290.8 294.7 301.5 300.6 291.6 282 273.8 269.2 263.7 261.4 256 250.6 244.5 234.7 232.4 232.1 238.4 240.1 240.7 247.3 251 257.9 264.4 272.3 282.3 285 276.1 277.4 279.1
88.8 87.9 88.1 87.8 87.4 86.9 86.8 87.5 87.7 88.2 88.4 88.3 87.5 88.6 89.5 89.3 89.7 89.8 90.1 90.7 91.5 92.5 97.9 103.2 110.7 120.1 131.8 143.2 150.6 154.1 157.9 161 164.2 171.1 179.5 185.1 188.1 192.5 196.7 199 195.8 192.5 189.8 187.3 186.2 185.2 187.1 188 188.8 189.9 188.5 184.4 182.2 179.8 177.9 175.9 174.2 172.8 172.1 172.4 174.5 176.6 178.1 179.3 179 177.7 175.5 172.5 171.3 168.4 165.8 164 163.7 164.6 167.1 170.8 172.9 173.6 173.2 172.5 170.1 168.2 168.5 169.8 171.4 173.5 176 178.3 179.4 180 180.6 180.6 180.7 182.5 183.4 184.6 186 186.1 188.8 190.2 191.2 192.2 193.8 194.5 196.5 197.1 196.1 194.4 193.6 194.3 194.7 195.7 196.7 197.2 197.5 196.9 195.6 193.2 186.2 184 182.2 177.4 171.7 165.9 163.7 162.2 163.2 166 166.9 166.8 166.4 167.9 168 167.9 167 167.3 167.7 167.8 167.5 167.8 168.2 167.2 160.6 155.6 155.6 155.5 155.3 155.3 154.6 154 171.4 179.5 183.2 196.9 210.3 223.5 241.5 255.6 262.9 265.6 265.9 265 261.5 259.5 260.5 262.6 265.4 269.3 279.7 284.8 289.5 298.7 307.2 310.3 310 296.6 284.2 277.6 273.7 269.9 266.1 262.8 257.6 255.2 248.6 242.6 241.4 245 243.4 246.8 245.6 247.9 251.6 254.6 259 263.1 262.6 263.7 266.2 269.1
87.4 87.7 87.5 87.2 86.9 86.5 87 87.4 87.7 88 88.7 89.1 89.4 89.2 89.3 89.4 89.9 90.2 90.2 91.2 93.3 95.9 102.2 109.6 118.6 128.8 137 144.6 148.7 153 156.9 160.4 164.6 171 179.3 184 190.9 196.6 201.9 204.2 200.3 198 197.7 193.6 190.7 192.7 192.9 193.6 194.9 195.5 195.8 195.7 194.8 192.3 189 183.9 181.2 177.3 174.8 174.9 177.2 178.3 180.1 181.3 181.3 180.2 177.9 175.3 172.4 169.7 167.3 163.7 162.8 162.7 165.1 167.3 168.6 169.6 169.2 168.3 167.6 166.4 167.9 168.3 169.7 171.9 174.1 175 176.3 177 176.9 179.2 180.4 182.4 182.9 183.4 185.8 188.2 190 192.2 195.2 196.4 196.8 196.7 197.4 196.2 195.1 192.9 192.2 191.4 192.4 193.2 193 193.5 194.1 194.4 193.9 190.2 185.2 183.5 180.5 174.9 171.3 166.9 163.5 162.7 163.4 165.3 166.2 166.3 166.2 166.8 167.7 166.9 166.9 167.4 166.1 166.6 167.1 167.4 166.4 156.5 154.4 154.6 154.8 154.7 154.7 154.8 154.5 164.4 175.7 180.7 189.7 203.7 215.9 232.2 249.1 261.9 270.3 272.9 273.2 270.7 266.7 263.3 263.1 266.6 270.7 275.9 282.6 286.8 296.2 305.4 312.2 316.2 305.1 291 284.9 281.1 278.5 275.8 271.1 268.6 266.6 261.3 258.4 252.5 249.6 250.5 252 253 252.4 254.2 258.6 258.2 259 260.7 263.2 263.8 262.9 265
87.4 87.2 86.7 86.6 86.8 87.1 87.4 87.4 87.3 88.5 88.5 88.7 89.2 89.6 89.8 89.4 90.4 90.7 90.9 92.2 94.7 97 107.2 114.4 121 127.2 134.5 140.9 144.2 148.7 155.9 160.3 163.6 173.9 179.9 187 195.4 201.7 205.5 207.5 204.6 204.5 204.6 202.8 200.5 197.3 197 198.1 202.3 203.3 203.2 203.5 203.8 201.9 198.6 196.3 190.9 186.3 181.1 177.3 178.3 179.7 180.7 182.3 183 182.2 180.4 177.9 175.4 173 170.1 166.9 163.5 161.8 161.9 164.1 165.1 164.9 165.4 164.5 164.6 165 165.8 167.3 168.4 170.1 170.8 172.1 174.6 176.3 178.1 181.1 183 184.5 185.3 186.3 187.6 192.1 194.5 197.1 199.9 200.8 201.2 199.4 198.1 196.8 193.4 191.3 190.3 190 189.6 190 190.1 190.6 191.3 191.2 190.8 186.3 184.5 183.6 179.7 173.5 170.1 164.9 162.5 162.1 163.1 163 164.2 165.6 166.5 166.8 166.7 166.5 166.8 166.2 163.5 163.7 155.6 154.7 152.9 154.1 154.3 154.5 154.5 154.4 154.8 154.1 160.6 171.8 178.9 183.9 199.2 209.7 221.6 238.7 252.4 266 275.1 277.9 276.8 273.4 267.9 265 266 272.4 277.5 282 285.8 293 299.1 309 318.6 312.3 299.4 291.2 286.7 284.3 282.3 278.9 275.6 273.3 271.8 267.6 263.5 254.2 257.8 257 251.9 259 258.8 260.1 261.8 264 266.5 268.2 269.4 270.3 270.4 268.1
86.8 86.5 86.1 86.6 86.6 87.1 85.6 88.2 88.2 88.1 88.4 88.9 89.7 90.1 90.5 90.9 91.1 92 92.5 94.2 96.1 100.1 104 111.2 119.3 126 132.6 136.6 142.6 150.1 155.8 158.5 167.4 173.8 179.8 186.6 195.1 200.5 203.7 203.6 206.5 208.5 210.1 208.4 206 203.9 204.3 207.1 210.2 211.3 210.5 209.8 211.6 210.9 209.1 207.1 202.6 198.1 194 188.1 186.9 181.5 183 184.3 185.4 185.8 184.2 182.1 179.7 176.3 172.6 169.1 164.9 160.8 160.5 160.6 161 161.6 162.5 163.2 163.4 164.4 165.1 166.5 166.5 170.3 173.8 175.1 175.9 177.6 180.1 183.2 185.4 187.9 189.3 190.5 192.8 196.3 198.8 201.7 203.6 204.6 203.4 200.7 199.5 197.1 193.7 190.4 188.5 187.5 187.4 186.9 187.6 188.6 188.3 187.3 184.9 183.9 184.1 181.5 176.2 171.8 167.7 163.7 162.8 162.3 162.3 162.6 163.7 164.4 165.5 165.9 165 165.5 166.2 165.5 156.5 153.8 153 153.8 153.3 153.5 154.2 154.2 154.2 154.1 154.1 156.4 169 176.8 182 189 204.9 214.7 227.6 243.9 256.3 266.6 275.7 278.9 278.9 273.6 269.2 267.8 269.7 280.4 284 286.3 290.3 297 303.6 312.1 314.2 304.5 297.9 290.6 289.4 287 284.5 281.1 278.7 277.2 276 270.5 266.4 260.4 263.7 261.7 257.1 262.2 263.2 263.3 264.4 265.8 268.2 270 271.6 273 273.1 272.8
86.8 86.2 86.5 86.1 86.9 87.3 85.6 87.8 87.4 88.5 88.8 89.1 90.3 90.7 91.1 91.6 93.1 94 94.8 96.7 100.3 104.4 108.3 113.2 118.8 123.7 132.3 137.5 144.8 149.7 153 158.8 164.3 167.9 173.3 180 185.8 187.6 191.6 199.5 205.6 210 213.4 214.4 209.1 208.6 212.2 216.9 215.9 216.6 215.7 217.5 219.5 219.1 216.5 215.3 210.2 205.9 199.6 198.5 195.2 190.4 185.2 186.4 188.3 188.9 188.2 186.5 183.2 178.5 174.7 169.9 165.5 162.5 160.4 160.1 160.4 160.9 161.9 162.4 162.8 163.2 164.2 167.1 171 175 177.3 179.3 181.2 182.3 185.5 188.5 189.4 191.1 192.4 195.1 197.2 200.7 202.7 204.3 205.7 206.6 205.5 202.8 201.2 198.6 195.2 191.3 188 186.1 184.1 183.3 184.2 184.1 183.9 182.3 181 181.3 180.7 175.1 171.4 168.4 165.8 162.7 162.3 162 162.4 162.7 163.9 164.7 163.4 162 158.4 160.5 165.5 157.4 152.2 153 153.5 153.7 153.8 153 153.3 154 153.9 154.2 156 159.9 172.2 179.3 186.4 195.9 206.2 218.9 232.3 247 257.3 266.5 271.7 274.2 275.1 272.8 271.3 270.9 279.5 285.4 288 290.3 295.2 304.2 310.6 318.6 307.9 303.8 299.4 292.9 292.4 290.5 287.4 284 280.9 279.7 277.8 273.5 266.9 268 267.6 267.8 264.4 266.3 267 267.6 269.2 269.7 270.1 271.3 272.6 274.4 275.7 275.4
85.7 85.7 85.9 86.5 87 85.1 86.4 88.1 88.2 87.8 88.1 89.8 90.7 91.4 91.9 93 94.6 96.9 98.5 101.8 105.6 110.6 116.8 121.9 127.1 130.5 134.2 135 144.8 148 151.5 155.4 158.9 162.9 168.7 174.7 178.2 182.4 187 193 200.9 208.4 213.6 214.3 210.1 213.3 218.3 221.3 220.2 219.4 220.3 222.8 226 225.4 222.7 221.1 217.6 212.2 207.2 204.1 202.3 198.7 195.6 190.6 191.9 192.1 191.9 189.5 185.1 181.1 176.8 171.5 166.2 162.6 160 159.6 159.8 160.3 161 161.7 162.4 163.5 165.2 168.4 173.2 177.3 181.3 183.9 187.6 191.2 193.7 195.2 196.1 195.3 195.6 197.2 200.1 203.5 205.8 207.1 208.1 207.9 207.2 204.6 203.5 200.2 196.2 192.7 189.4 185.6 182.7 181.4 180.4 180.5 179.1 176.9 177.2 176.2 172.6 169.3 167.6 165.7 163.9 162.7 161.7 161.3 162.1 162.5 163 163.3 161.9 158.2 153.5 154.6 159.8 152.6 153.1 153.4 153.6 153.7 153.5 153.4 153.7 153.9 155 155.5 156.6 166.3 175 181 189.2 199.1 208.9 223 234.6 247.1 255.3 262.2 267.1 269.8 270.3 271 271 277.9 285.3 286.2 291.6 296.9 307.2 316 320.9 311.8 307.5 303.8 300.4 298.5 296.4 293 289.1 286.2 283.1 281.2 278.9 275.2 272.2 271.5 272.5 272.8 269.5 273 275 273.7 274.1 275.7 274.2 273.7 275.6 276.6 277.8 277.5
85.4 86.1 86 86 84.7 87 87 88 88.4 88.9 90.6 90.5 90.7 92.4 93.1 94.4 96.6 98.5 102.6 108.2 113.1 119.9 124.8 128.5 131.7 135.4 139.7 139.9 142.3 144.8 149.6 154.5 157.1 161.1 168 171.7 174.6 177.9 184 189.8 195 206.6 207.5 204.7 209.7 217.1 224 223.9 222.7 222.3 224.1 225.6 227.4 227.1 229 227.3 222.4 217 211.9 209.4 208 204.2 201.6 199.5 195.3 194.6 193.7 191.3 186.4 182.4 176.3 170.9 167 163.4 160.6 159.7 159.4 159.9 160.6 161.3 162.1 164.8 168 173.1 178 182.5 185.4 188.5 191.9 194.5 197.1 199.1 199.1 199.1 199.8 200.6 203.7 205.8 208.5 211 212.3 212.7 211.1 209 207.2 203.3 196.6 193 189.6 186.2 182.5 180 177.9 176.3 174.7 173.6 172.7 171.2 168.1 166.2 165.6 164.5 163.2 162 161.7 161.5 161 160.9 160.7 160.7 159.8 153.8 153.1 153 153.4 152.8 152.9 153 153.5 153.5 153.7 153.8 154 154.2 154.9 155.9 163.2 171.6 177.2 183.3 191.3 201.1 214.3 227.5 237.5 248 253.2 260.1 263.4 265.1 266 267.5 273.5 283.1 286.1 287.5 298.2 305.8 317 320.5 313.8 309.5 306.7 303.8 301.4 300.6 298.5 294.3 289.5 286.9 284.3 281.3 279.3 278.7 276.7 276.9 281.3 277.6 280.1 281 282.2 282.5 280 280.4 281.7 280.5 282.7 281.1 280.8 280.1
85.4 85.6 84.2 86.1 86.8 86.6 87 88 88.8 90 90.9 91.4 92.3 92 94.1 96.3 101.5 104.2 107.6 117.4 121.7 126 129.9 132.9 136.5 140.4 144.3 148.4 150.9 152.2 153 154.9 157.4 161.4 164.5 167 170.2 173.7 180.5 184.9 191.7 199.7 198.1 199.3 208.8 220.6 227.4 225.5 224.5 224.3 224.9 227 227.6 229.3 230.4 229.7 226.5 221.3 216.3 214.5 211.2 206.6 203.2 202 198.7 195.7 194.9 193.3 191.1 187.2 176.8 171.4 167.1 163.6 161.3 159.6 159.6 159.7 160.3 162 165 169.3 171.8 177.1 181 185.2 188.3 191.9 194.7 197.3 200 201.6 201.4 201.3 202.2 203.4 206.5 209 211 213 214.7 215.6 215 213.5 210.8 204.8 198 194.1 190.4 186.1 182.4 179.2 176.9 174.9 173 172.2 171 168.8 167.3 165.7 164.4 163.8 162.9 161.5 161.4 161.1 158.8 157.9 156.3 154.7 154.2 153.6 153.2 153 152.6 152.8 153 153.1 153 153.1 154.3 157.2 158.9 154.6 154.3 161.7 169.2 174.3 179.2 187.3 195.9 205.2 225.8 235 244.5 248.8 253.4 258.9 261 262.6 264.4 267.5 278.1 284.4 288.7 297.7 302.7 312.2 316.9 313.6 311 307.9 307.4 305.6 303.7 301.4 299.3 295.9 291.5 287.5 284.3 281.5 281.3 280.8 280.5 280.5 284.8 285.1 285.8 286.7 288.4 287.8 287.5 285.4 287.1 288.7 289.6 288.2 285.7 286.1
85.8 83.8 85.8 86.2 86.9 87.8 89.3 89.8 91.8 96.5 97.1 96.1 96.6 94.9 93.2 97.9 104.1 111.2 117.2 119.9 126.2 130.3 134.2 137.5 140.7 142.7 146.9 151.1 153.7 154.6 156 156.7 158.3 160.1 163.1 165.8 168.8 170.6 173.3 177.5 182.4 185.3 187.4 196.5 209.4 221.7 227.3 226.4 225.5 224.7 225.1 227.3 227.2 227.2 228.1 227 224.2 220.1 218.3 216.5 212.4 207.6 204 203.2 200.9 197.5 196.1 195.7 196.3 192.3 182 172.8 166.4 162.2 160.4 159.6 159.6 159.5 159.8 161.7 166.2 169.7 174.2 178.9 182.6 185.7 188.9 192.8 196.9 199.6 201.7 202.3 202.5 203.6 204.6 206.5 208.8 210.8 212.4 214.4 215.9 216.9 217.1 215.6 212.6 207.7 202.4 196.8 192 187 182.8 179.1 175.6 173.9 172.6 171.5 170.6 169.4 168.7 166.8 165 164.2 163.2 161.9 161.1 159.4 159 158.7 160.5 161.7 154.3 153 153.1 152.4 152.7 152.8 153 152.9 153.1 154.8 155.4 166.3 167.6 164.4 155.8 164.9 170.8 175.8 182.2 192.4 200.3 218.7 234.3 242.9 248.3 252.7 257.5 259.4 261.7 262.6 264.4 271.4 279.1 283.2 292.3 297.3 302.6 308.8 311.3 313 310.8 309 307.1 305.2 303.9 300.9 298 295.8 292.2 287.9 283.9 282.7 282.4 282.7 283.5 286.7 287.7 291.6 291.9 293.4 295.3 294.3 293 290.9 291.1 294 294.9 294.7 294.6 293.9
86.6 87.6 86.3 87.6 91.6 93.3 98.4 102.2 104.8 107.8 109.3 109.4 109.4 107.2 100.5 95.8 111.3 111.9 121.4 124.9 123.5 130.9 135.8 139 142.2 143.6 146 150.1 153.2 154.9 156.2 157 158.5 160.3 162.1 164.4 166.8 168.4 169.4 170.7 170.9 176.3 183.1 196.3 209.2 219.5 224.1 225.6 224.6 223 224.1 224.3 222.5 222.9 222.7 221.4 219.3 217.1 215.7 213.8 210.2 206.6 204.2 205.3 203.1 200.4 199.1 199.2 199.9 195.3 186.7 174.8 166.2 163.1 161 159.3 158.5 158.6 159.5 161.8 164.7 170.7 175.7 178.3 182 184.9 188 191.7 195.5 198.8 200.7 203.4 204.9 206 206.8 208.4 210.7 212.4 213.6 215 216.1 217.2 218.3 216.3 214.3 209.5 205 199.7 194.5 187.8 182.6 178.3 175.4 173.4 172.1 171.2 170.9 170.2 170.3 169.9 167.9 166.3 164.8 163.6 161.9 161 161.2 157.7 163.1 157.6 152.6 152.3 152.2 153.2 152.5 152.1 152.2 152.5 152.4 156 161.3 166.9 169.2 166.5 159.5 166.7 173.2 179.2 188.7 200.5 213.8 233.7 242.4 247.1 253.5 257.4 260.9 262.5 264 265 268.5 277.3 281.2 289.5 293.4 297.4 302.7 308.4 311.9 310.8 308.8 306.6 304.5 302.6 301.3 298.9 296.5 295.4 291.9 287.3 285.2 284.5 284.4 284.5 286.6 289.3 291.2 295 290.4 298.8 301.2 303.1 298.7 296.6 296.3 298.7 301.3 302.1 302.7 299.8
92.7 91.9 95.3 97.4 99.9 108.4 113.7 116.5 117.8 119.4 120.9 121.4 119.3 117.2 110.4 96.2 108.3 119.7 122.2 126.1 128.5 131.1 126.9 137.5 140.5 142.7 144.8 148.5 150.8 153.2 155.1 157.2 159.6 161.4 163.4 163.7 164.9 165.8 165.2 165.2 167.9 173.1 182.3 194.1 207 209.5 209.7 211.3 213.3 216.8 219.1 218.1 216.8 217.1 217.2 214.8 211.5 210.5 210 208.8 207 205 205.4 206.7 202.7 200.3 198.9 200.1 201.8 196.5 188.4 177.4 168 164.2 161.9 159.9 158.3 158.2 159.7 164 166.1 171 173.8 177.3 180.6 184.5 188.1 190.2 193.2 197.2 201.7 204.8 207.5 209 209.9 211.4 213.4 214.7 215.5 216.1 216.3 217.2 217.6 217.6 216.5 212.3 207.2 202.7 197.4 189.9 183.2 178.8 175.8 173.4 172.3 171.7 171.1 170.3 170.7 171.2 171.6 168.7 166.7 164.5 163.2 161.9 161.2 157.2 153.3 152.2 152.2 152.3 152.5 152.5 151.8 153.7 162.2 160.7 157.9 160.6 162.3 165.2 169.3 166.2 165.5 172.6 180.2 187.4 202.5 212.2 226.3 239.7 245.1 251.7 256.4 259.9 262.8 264.5 266.4 269.3 273.1 276.9 283.6 288 292.6 298.5 304.3 309.4 310 309.1 307.7 303.2 302.3 301 299.6 297.9 296.4 294.6 291.5 288.3 286.5 286.6 286.8 286.9 286.6 292.7 298.4 297 299.5 307.7 309.5 311.1 309.9 307.5 308.6 308.9 307.1 308 309.4 308.6
97.5 99.5 106.4 110.6 115.3 122 123.9 126.5 128 129.3 131.5 132.2 128 124.2 120 94.3 100.5 118 124.7 127.3 130.7 133.6 136.3 141.2 144.7 146.2 147.4 149 150.4 151.9 154.4 157.1 160 163.3 164.3 163.8 162.8 161.5 161.6 162.8 166.3 171.8 179.9 185.9 185.6 188.4 191.1 196.3 202.8 211.2 214.9 211.8 208.7 209.4 209 206.5 205 203.5 203.1 203.4 202.8 202.8 204.6 203.7 200 197.8 197.6 202 201.3 196 189.5 180 174.3 167.9 162.9 160.1 157.9 157.8 161.3 165.9 168.2 168.9 173.3 175.3 177.9 181.4 185.1 188.5 192.6 198.3 203.3 206.4 208.5 210.3 211.1 212.8 214.2 215.5 216.7 217.8 218.7 218.6 219 218.5 217.1 214.2 209 204.5 198 191.1 184.8 179.3 175.6 174 172.2 171.5 171 170.4 170.5 171.2 171.8 171.8 166.7 164.7 163.6 162.4 159.7 153.9 153.3 151.7 151.9 152.2 152.6 152.5 154.7 153.7 159.5 164.9 166.3 165.8 166.3 168.2 170 166.1 170.7 180.7 186.8 197.1 208 218.8 233.6 237.3 249.7 253.9 258.5 262.1 264.9 265 267.3 273.1 275.2 276.5 282 285.6 291 297.4 304.2 307.3 306.4 308.1 307 304.4 302.5 300.9 298.9 297 295.5 294.6 292.5 290 289.1 290.3 290.2 289.6 290.7 293 300.3 304.7 306.3 304.1 313.9 317.5 320.2 319.5 319.3 319.7 317.2 315.6 317.6 318.9
107.1 110.7 115.1 120.4 126.7 128.4 131.1 134.7 135.8 135.2 136.5 137.3 134.5 129 124.3 105 100.5 121.5 125.2 128.4 132.8 136.6 140.6 143.4 146.5 148.5 150.1 150.8 151.7 153.5 155.4 157.6 159.3 162 163.4 163.2 161.6 160 160 162.5 164.7 165.8 169.2 170.2 170.7 172 176.5 185.7 195.3 204.3 205.3 202.3 198.1 198.3 195.1 197.4 196.2 196.6 197.6 195.9 196.4 199 201.9 199.4 195.2 194.6 201.1 202.4 197.3 192.4 184.7 178.8 174.9 171.3 166.1 161.6 156.3 159.5 163.3 165.6 167.8 169.3 173.3 176 178.4 180.9 184.4 187.8 192.1 199.4 204.4 207.4 209.1 210.3 211.2 213 214.1 215.3 216.6 218.5 220.6 220.8 221.2 219.7 217.1 213.4 209.5 204.4 198.5 192.7 185.8 181.5 177.5 174.9 173.3 171.8 171.4 170.6 169.5 170.3 170.4 169.5 166.1 165.4 163.5 161.8 155.8 154.5 152.1 151.4 151.8 152.2 152.5 152.7 162.5 156.4 166.3 165.7 166.7 168.5 169.4 171 172 177.3 183.8 185.4 191.6 201.8 211.2 222.4 228.5 241.3 248.8 256.2 257.6 261.6 261.3 262.3 267.7 271.2 274.8 274.7 278.5 281.8 289 296.8 299.6 303.7 308.1 308.2 307 305.4 303.3 301.2 298.7 296.8 296.5 296.1 294.2 292.8 292.3 292.6 292.6 292.2 292.4 294.2 298.4 303.7 310.8 315.8 309.1 320.6 323.7 326.2 328 326.6 325.2 324.6 328.6 332.5
116.7 120.8 122.8 128.1 132.5 135 136.9 139.9 142.4 143.1 143.6 141.3 137.5 134.4 130.6 101.8 112.3 119.7 126.1 130.5 135.3 140.6 143.8 145.8 149.8 151.5 154.2 156.8 158.2 159.5 160.8 162.1 163.1 163.9 165.4 163.5 159.5 159.2 159.6 160.6 162 162.8 162.4 162.8 163.3 165 168.3 174.8 183.3 189.9 187.7 184.6 182.4 182.9 183.9 184.7 186.7 189.5 190.5 189.2 190 194 195.5 192 189.4 193.2 202 197 191.3 185.4 178.3 175.9 173.6 171.8 169.6 165.7 158.5 160.8 164 164.3 166 170.7 173.7 177.1 178.8 181 184.2 187.5 192.5 200 205.4 207.8 209 210.4 211 212.6 213.4 214.5 216.1 218.1 219.6 220.8 221.5 219 215.9 213.8 210.4 204.9 199.2 193.9 187.8 183.6 179.6 177 174.6 173.9 172.2 170.9 169.3 168 169.9 169.2 166.2 165.4 163.2 159.6 155.7 152.6 151.4 151.4 151.8 152.2 152.9 152.7 159.4 163.7 164.6 165.1 167.9 170.1 172.4 173.9 175.8 180.6 184.5 187.8 194.5 204.3 211.6 218.2 224.5 234.2 242.7 249.9 253.6 255.9 256.3 259.6 263 268.1 270.4 273 276 281.7 289.2 292.7 296.7 302.4 306.9 307.5 307 305.6 303.4 300.5 297.3 296.3 297.1 296.9 295.7 294 293.3 293.4 293.3 293.7 293.5 295.5 299.9 307.1 314.1 319.5 321.2 321.6 325.4 327.3 329.3 329.6 328.9 335.5 341.4 343.7
131.5 133.5 135.1 135 139.4 142.6 142 144.3 145.8 146.8 145.7 144.8 142.2 137 125.2 97.8 119.2 125.5 127.4 135.9 142.1 146 148.5 150.3 152.1 154.6 157.7 160 161.8 163.1 164.1 164.9 166 166.1 164.8 162.5 159.6 159.5 159.5 159.1 160 159.4 159.3 160.2 160.8 161.4 162.7 167.1 171.2 171.3 169.1 166.9 167.8 168.2 170.3 173.2 176 177.9 179.4 181.2 182.5 181 181 182.8 183.5 189.2 191.9 189.1 183.5 177.7 176 174.7 173.8 172.3 169 165.7 159 161.8 165.1 166 167.8 170.8 173.9 176.5 178.9 181.2 184.2 187.6 193 199.6 205.1 207.8 209 209.9 211.1 212.4 212.9 213.8 215.3 216.9 218.2 219.4 219.9 218.4 215.9 214 211.9 207.8 202.1 194.7 188.6 184.8 181.5 180.5 178.2 176.7 173.8 172.2 170 166.8 167.5 167.7 159.9 159.7 158.7 155.2 154 151.1 151.2 151.5 151.9 152.2 153.2 152 161.4 162.9 162.9 164.2 168.2 171.3 173.6 176.5 178.5 181.8 185.5 189.4 194.6 201.5 208.5 213.9 223.2 230 236.5 241.9 245.1 248.1 252.2 257.4 259.5 264.5 267.3 271.1 276.2 283.2 287.9 291 295.5 300.5 302.5 305.9 306.4 305.4 302.2 299.2 295.8 295.8 296.2 295.6 295.6 294.5 293.4 293.7 294.1 295 295.2 298.1 304.7 310.2 318.3 324 323.8 324.6 324.6 327.9 329.6 331.2 334.9 344.3 349.7 350.3
146.1 147.4 146.7 142.8 145.1 145.9 145.8 147.8 149.3 150.1 150.4 146.1 136.1 122.9 104.9 114.4 130.7 133.9 135.9 141.4 145.9 150.1 153.4 154.9 155.2 156.4 160.3 162.7 164.7 165.7 166.7 167.2 167.1 165.4 164.1 162.6 161.1 160.1 159.5 159.6 159.8 158.8 158.6 157.2 157.4 158.7 157.6 156.6 156.1 155 155.3 156 156.8 157.2 158.7 161.8 163.6 167.7 169.9 171 172.8 171.4 173.2 172.4 175.2 176.8 181 179.2 176.3 174 177.5 175.6 175.1 172.5 167.4 163.8 155.6 162.4 165.3 166 167.6 170.4 173.9 176.6 179.1 181.8 184.7 188 193.9 200.4 205.7 207.5 208.5 209.3 210.4 211.6 212.3 212.8 214.3 215.6 217.1 217.6 217.6 217.4 216.4 215.3 214 210.9 205.5 199.2 191.9 187.7 185.1 182.9 181 179.2 177.2 174.8 171.3 167.8 162 155.4 154.9 154.1 153.6 153.2 151.7 151.2 151.2 151.7 152.3 152.4 161.7 163.4 163 161.8 161.9 163 167.7 171.4 174.2 177.5 180 182.9 185.8 189.5 193.3 201.5 207.9 212.5 217.4 224.5 231.6 237.6 241.3 245.5 249.3 253.5 257.1 261.8 267.6 272.3 278 283.1 286.9 290.5 294.6 297.1 299.4 302.4 304.4 303.5 300.4 296.9 294.1 293.7 293.7 293.8 294.1 294 294.2 295.8 298.1 301.1 300.5 306.8 310.7 315.7 321.2 327.9 326.4 327.5 324 330 331.1 333.8 341.4 350.8 355.1 356.1
152.9 153.8 153.5 150.3 149.4 149.2 150.3 151.1 152.5 153.6 150.5 138.5 122.7 103.6 116.6 136.9 138.9 139.8 141.7 143.1 148.7 153.6 157.2 159.6 159.8 162.4 164 166 167 167.9 167.7 167.3 166.4 165.7 166.2 165.2 163.1 161.6 160.9 160.7 161.1 160.9 161.1 158.9 156 155.8 155.2 153.8 152.1 152.2 152.2 152.1 153 153.3 153.5 154.7 156 159.2 160.8 163.4 163.3 161.5 160.8 163.1 162.9 168 170.6 172.2 171.6 175.2 176.2 175.2 173.5 169.7 166 161.9 156.2 162.9 164.8 165.8 167.6 169.9 173.5 176.7 179.1 182 184.8 188.5 192.9 200.1 205.6 207.1 207.9 208.7 209.6 210.2 210.8 211.7 213.1 215 216 215.7 215.9 217.1 217.6 216.8 215.7 213.1 207.6 201.4 193.5 190.2 187.7 185.5 182.9 180.2 177.9 175.1 171.7 166.8 150.4 151.5 152.4 150.3 150.1 151.3 151.1 151.2 151.7 152 152.6 162.9 166.5 163.5 163.6 159.6 163.3 165.8 169.8 171.7 175 177.9 180.5 183.1 186.9 191.1 197.8 204.2 207.3 212.5 216.5 219.6 226.4 233.2 238.3 242.8 246.5 249.3 255.1 260.9 269.6 274.4 278.4 283.5 286.9 290.7 292.5 294.4 296.6 298.8 300.5 299.3 296.1 292.5 293 292.4 293.9 293.8 294.8 294.4 295.9 298.2 302.8 306.1 308.5 311.9 315.5 318.9 324 330.3 329.8 330.7 330.2 329.9 334.1 337.6 346.1 354.6 359.5 362
157 158.1 157.8 153.6 152.1 152.3 152.9 153.4 154.9 151.1 124 111.4 106.3 119.8 141.6 144.1 145.4 144.9 145.1 149 150.8 155.4 159.3 162.2 164.4 165.6 167.1 168.2 168.5 168.5 167.4 167.1 167.2 167.8 167.2 165.9 164.6 163 163.3 163.2 162.3 161.4 160.1 157.3 156.1 154.4 153.6 152.8 151.4 151.2 151.1 150.7 150.5 150.6 150.9 151.4 151.7 152.8 154.9 155.9 153.3 153.1 154.2 156.4 158.4 160.2 163.8 165.1 169.4 174.8 176.1 174.9 172.2 168.7 164.4 159.1 156.8 162.5 164.2 165.8 167.3 169.2 172.7 174.8 179.3 182 184.8 189.1 194.8 200.9 205.1 206.6 207.5 208.1 208.4 208.9 209.4 210.6 212.4 213.6 213.8 213.8 214 214.4 215.7 216.3 215.4 212.3 209 202.4 194.3 192.3 189.8 187 182.7 179.5 177.2 173.4 170.2 149.4 150.5 149.7 150 150.2 150.3 155.2 150.6 150.7 151.6 156.7 164.2 167.6 168.3 161.3 165.2 159.6 166.8 171 171.6 171.5 175.1 177 179.5 182.3 184.6 193.9 201.3 205.9 208.6 212.8 217.7 222.1 227.4 232.9 237.3 241.4 245 249.1 253.1 263.2 270.2 275.7 279.6 282.7 285.9 288.5 290 291.9 293.4 295.5 296 293.8 291.3 290.2 292.3 293.8 295.4 296 298.8 300.2 302.2 304 308 311.9 314.9 316.2 319.2 324.3 328 334.2 337.8 336.6 336.5 338.2 340 342.4 351.1 358.6 363.9 367.6
160.9 161 159.5 157 154.5 154.9 155.4 156.4 155.1 131.2 108.4 126.2 130.1 141 144.1 148.2 150 151 152 154.1 155.8 158 160.6 162.8 164.8 165.9 167.1 167.9 167.9 168.1 167.9 167.5 168.5 168.2 167.5 166.8 166.7 165.8 164.5 163.4 161.8 159.5 157.2 156.1 154.2 152.9 152.6 152.2 151.1 151 150.7 150.6 150 149.7 150.1 150.5 149.9 150.6 150.7 150.3 149.9 150.6 151.5 152.5 153.6 155 158 162.7 170.3 177.4 179.1 176.8 173.6 168 161.6 155.2 157.4 160.9 163.8 164.9 166.4 168.6 172.2 175.7 180 184.1 187.6 190.3 197.1 202.2 204.9 205.9 206.6 207.4 207.7 207.9 208.6 210.3 211.2 211.3 211.4 211 211.3 211.5 211.9 212.5 212.2 210 207 201.1 194.7 191.9 189.5 186.4 182.8 179.3 175.6 170.8 164.9 149.7 156.4 162.3 149.9 150.7 150.9 153.8 150.2 156.1 164.8 167.6 168.9 169.6 165.1 158.7 161.9 159.3 171.5 174.4 172.4 172.1 173.6 175 177.2 181.5 187.7 197.6 203.9 207.7 210 214.4 220.2 225.1 229.9 234.2 239.2 244.9 249.4 253.1 257.3 263.7 268.9 273.8 278.6 280.9 283.9 285.4 287.4 289.2 290 291.4 291.8 289.4 288.7 291.1 293.8 295.6 298.1 301.2 304 307.2 309 312.2 317.2 320.6 323.2 324.5 328.1 332.1 336 339.3 343.3 344.8 344.4 344.5 347.1 346.6 353.4 360.4 366.7 371
163.1 162.1 161.9 158.5 157.2 156.4 155.7 153.9 148.4 117.3 125.7 143.6 145.3 147 149.5 151.3 152.5 153.9 155.3 156.8 158.9 161.3 162.8 163.9 165.3 166.5 167.4 168.2 167.5 167.7 167.9 167.9 167.7 167.7 167.7 167.4 167.4 165.6 164 162.3 160.6 158.1 156.2 154.5 153.9 153.4 152.9 152.2 151.4 151.3 150.9 150.5 150 149.3 149.7 149.5 149 149.4 149.4 149.4 149.5 149.5 149.9 150.3 151.7 153.4 157.7 166.9 178.1 184.9 184.8 180.5 173.3 165.7 159.7 155.1 158.5 160.5 162.6 164.1 165.5 167.3 171.3 175.2 179.4 183.7 186.9 190.1 197.1 201.8 204.1 205 205.7 206.5 206.7 207.5 208.8 209.9 209.1 209 208.5 207.6 207.9 208.6 208.6 209.7 208.4 207.6 202.3 197.7 194.5 191.8 189.4 185.9 182.6 179.3 175.6 170.1 161.7 150.5 160.4 166.6 164.6 162.7 160.8 162.5 167.3 167.7 168.6 169.9 171.6 167.5 160.2 155.9 156.5 158.1 166.2 171 169.8 169.9 171.7 173.6 176.4 180.6 190.7 202.2 206 208.9 211.6 216.9 223.1 227.9 231.7 235.9 241.7 248.1 251.9 256.5 259.4 264 268.9 273.5 277.8 278.4 280.3 281.2 283 284.5 286 287.2 285.3 285.8 289.2 292.1 295.3 299.2 302.1 303.6 305.1 308 316.4 321.4 323.3 329 331.2 333 337 340.9 342.9 345.9 347.7 350.5 351.3 352.5 352.4 354.3 349.9 360 365.5 370.1
165.1 163.5 162.2 159.7 156.8 155 153.7 150.5 146.2 118.7 122.1 143 145.1 148.4 150.8 152.8 154.2 156.2 158.1 159 161.6 164 166 166.8 166.7 167.5 168 167.6 167.3 167.4 167.3 166.7 166.4 166.9 167.4 167.2 166 164.4 162.4 160.6 158.9 156.3 155.6 155 154.6 153.6 153.3 152.8 152.3 151.9 151.5 151.3 150.8 149.6 149.5 149.9 149 149 149.1 149.1 149.2 149.3 149.3 149.9 151.4 153.3 162.7 173.8 184 190.7 190.6 182.2 172 165.4 157.1 154.8 157.3 158.7 160.7 162.6 163.7 168.3 170.7 174.8 177.2 180.7 185.5 192 197 201.2 202.9 203.8 204.8 205.7 206 207.3 208.4 207.5 206.6 205.7 205.2 204.1 204.3 204 204.3 204.4 203.6 202.2 197.3 194.5 194.2 192.3 189.3 187.5 184.2 181.3 177 170.9 164.1 149.6 162 167.6 168.5 166.6 163.4 163.3 167.9 170.6 171.1 172.6 169.6 165.7 161.7 156.5 156.8 157.4 159.7 164.9 167.2 168 169.7 172 174.9 182.3 199.9 198.5 207.1 210.3 213.9 219.5 226.1 229.6 234.5 240.1 245.2 249.5 252.9 256 259.9 264.3 268.8 272.6 274.4 278.5 276.7 278.8 279.7 280.8 281.4 278.5 282.5 286.9 289.9 293.4 298.6 304.4 309.4 312.8 315.3 319.7 325.1 329 331.6 334.5 336.3 339.5 342.3 345.4 348.1 350.6 353.3 355.8 358.2 359.4 359.9 360 359 356.8 363.2 368.2
166.8 164.6 161.2 157.8 154.8 152.9 149.3 145.3 133.8 126.9 126.5 132.8 143.6 147.8 150.7 154 156.6 158.3 159.7 161.3 165 167 167.8 167.8 167.7 167.6 167.8 167.7 167.1 166.9 166.2 165.7 165.9 165.6 165.8 165.9 164.6 162.4 160.7 159.1 157.2 156.4 156.3 156 155.7 155.5 155 154.4 153.5 152.8 152.8 152 151.3 150.4 149.9 149.4 148.7 148.4 149 148.8 148.9 149 149.3 149.9 150.7 156.8 167.5 178.7 185.1 191.3 190.7 181.5 173.4 165.2 155.8 153.9 155.3 155.7 157.6 160 162.7 168 171.4 173.2 176.3 180.8 186.6 192.9 196.4 199.4 201.2 202 203 204.3 205.5 206.2 205.1 203.9 203.6 203.4 201.1 196.5 198.3 198.7 199.2 199.2 198.1 195.9 193 193.2 193.2 193.2 192 189.5 187.6 184.4 178.8 174.2 166.7 151.4 148.7 154.5 157 166.8 160.2 160.5 164.7 167.2 168 168.7 170.2 166.9 158.8 156.1 157.1 158 159.8 161.6 165.6 166.5 169.4 172.5 177 182.6 187.6 196.3 204 211.3 216 221.3 226.5 230.4 236 241.4 245.5 249.1 252 254.7 259.5 263.6 266.7 268.5 268.5 271.3 273.1 274 273.1 271.6 272.3 278.4 284.7 288.1 291.6 296.2 302.4 310 315.4 319.7 322.6 328.1 331.7 334.4 336 338.2 339.7 341.6 344.1 347.2 349.4 351.9 354.5 357.8 362.6 366.8 367.1 366.8 365.7 366.1 366.2 369.7
167.2 162.8 158.7 155.8 152.6 150.2 145.5 132.4 121.3 139 139.5 117.8 141.1 146 150 155.3 158.5 160.1 161.9 164.6 167.5 168.8 168.1 167.9 167.6 167.3 167.4 166.8 166.7 166 165.8 165.3 165.4 165 165.1 165 164.5 162.9 159.6 158.8 157.6 157.2 157.8 158.2 158.6 156.9 156.4 155.8 154.8 153.4 154 153.1 152.2 151.1 151.3 150.7 150.7 150.9 150.4 149.7 149.4 148.8 149.4 150.1 151.7 156.6 166 173.8 181 182.2 183.5 179.9 174.3 163.2 155.6 153.4 154.3 154.3 155.7 157.4 164.5 167.3 170.4 171 174.9 180 187.1 193.3 196.4 199 200.5 200.4 201.6 202.8 203.8 203.8 202.3 201.3 201.4 200.7 196.6 192.9 193.4 195.2 195.4 194.6 193.4 190.6 190.2 191.5 193.4 195.2 195.1 193.1 189.7 184.9 180.1 175.7 169.7 164.8 152.2 149.4 150.2 149.2 149.9 151.4 156.3 160.6 166.7 166.7 164.7 158.7 157.9 156 157.3 159.2 160.5 161.8 163.1 165 167.7 174.1 177.8 181.3 188.2 194 200.7 207.8 212.8 218.4 222.3 228.8 235.4 240.9 245.1 248.2 251.1 254.4 258.4 260.6 262.7 264.9 265.3 266.8 263.3 264.6 263.8 264.5 271.7 279.2 284.6 289.4 293.6 300.7 309.1 319.2 327.2 329.4 334.4 337.5 339.6 340.8 342.3 343 344.4 348 352.1 354.9 355.6 356.8 358 360.2 363.8 368.7 371.2 371.8 372.3 372.1 371.5 371
165.2 159.5 156.8 153.8 150.7 146.5 127.9 135.7 139 140.9 141.8 140 122.2 142.7 151.1 155.7 159 161.9 164.9 167.5 168.3 167.9 166.5 166.2 166.6 166.5 166 165.8 166.2 166.4 166.4 166.3 166.9 166.2 166.8 167.2 165.8 163.5 159.6 159.5 159.6 160.3 160.1 160.5 159.7 158.3 158 157.4 155.5 155.2 155.2 154.4 153.8 153.9 153.2 154.2 154 154.4 153.4 151.5 149.8 149 148.8 149.2 150.8 152.9 156.3 162.9 167.1 171.4 173.7 174.1 173.1 163.7 155.2 152.5 153.4 153.3 154.1 158.2 162.6 165.6 167.9 169.3 173.3 179.4 186.8 193 196.1 197.5 198.3 199 199.9 201 202.2 200.2 199 198 197.9 196.4 191.1 190.1 190.6 191.6 190.4 189.7 188.5 187.8 188.4 190.4 192.8 195.1 195.8 194.3 191.1 184.7 180.2 177.2 171.9 167.3 160.3 151.8 148.6 149.7 154.2 148.9 148.7 149.5 154.4 165.5 160.6 157.6 157.6 155.4 156.7 157.9 160.2 160.7 161.8 163.2 165.1 169.8 173.5 180.9 186.6 192.1 197.1 203.3 209.2 213.5 218.8 226.9 233.1 239.4 243.6 247 249.1 251.8 254.9 257.2 258.7 257.6 258.8 256.9 253.2 255.9 258.8 265.8 272.4 277.3 282.6 289 296.2 306.5 321.6 329.6 331.6 340 345.9 343.4 342.6 344.8 346.4 349.3 352.8 359.3 365.4 369.6 371.8 371 369.8 371.1 371.8 375.1 376.5 377 376.2 375.7 375 374.1
160.6 156.7 154.3 151 143 128.8 140.2 142.1 142.5 143.3 145.4 145.5 141.4 126.4 149.3 154.7 160 163.2 165.9 167.3 167.2 166.4 165.4 164.6 164.4 165 166.3 167 168.6 168.6 168.5 168.4 168.7 169.5 169.2 168.1 166.1 163.6 161.9 160.8 161 161.5 161.7 161.5 162.6 161.5 161.8 160.8 159.1 157.4 156.6 156.3 155.8 156.6 157.2 157.8 157.6 157 155.7 153 150.4 149.2 148.9 147.9 149.3 150.3 152.5 153.6 156.1 160.6 164.9 171.7 171.7 167.8 155.1 153 152.7 153.4 153.5 157.6 160.8 163.5 165.3 168.5 172.7 178.5 185.4 190.9 193.2 194.3 194.9 195.5 197.2 197.9 197.2 195.7 194.7 194.5 194.7 190.2 187.1 186.3 185.7 185.9 186.4 186.5 186.4 186.7 187.3 189.9 194 194.6 195.4 193.9 189.8 184 180.3 177.2 175.4 171.7 168.7 165.2 159.8 154.2 153.9 149.4 148.4 148.7 149.7 151.5 152.7 153.9 155.1 154.6 155.4 157.7 159 160.7 162.9 165.1 167.7 170.8 170.4 174.7 182.5 189.7 195.5 201.1 206 210.7 216.3 223.5 229.1 233.1 237.7 241 244.1 248.4 247.8 248.7 248.1 248.4 248.3 247.1 249.9 253.1 258.3 263.6 268.2 272.8 278.6 286 294.4 304.9 315.4 321.9 327.8 337.4 339.2 338.4 340.6 344.6 348.8 354.9 362.7 371.4 378.9 384.2 385.6 386 383.2 381.2 382.4 385.4 386.1 384.9 382.4 379.3 378.2 377
159.2 154.7 149.6 144.9 140 144.7 145.2 146.2 145.8 148.2 149.2 150.4 148 141.3 140.7 155.5 159.9 162.6 164.7 165 165.2 163.9 163.3 161.6 161.6 165.5 168.1 169.2 170.2 169.8 169.9 170.2 170.7 170.7 169.7 168 165.8 163.8 163.1 162.6 162.8 162.7 163.7 165.2 165.3 165 164.7 162.8 160.6 158.8 158.5 158.4 158.6 158.4 159.3 160.1 160.2 159 156.8 154.5 150.8 149.6 148.7 148.4 149.1 150.2 150.5 151.2 152.4 155.1 161 167.3 170.2 167.4 158.7 154.2 151.2 152.5 152.5 154.3 158.7 161.2 163 165.1 169.6 175.8 181.6 185.5 187.5 189.4 189.7 192.2 192.5 192.2 191.5 191.6 190.5 190.2 186.7 184.9 183.1 183 184.1 185.3 185.7 185.5 184.9 185.8 187.6 192.4 196.9 197.8 196.8 193.9 188.7 182.5 179.3 177.7 176.3 174.3 171 166.4 161.9 159.1 158.6 154 150.4 148.1 149.5 149.5 150.4 151.5 153.2 154.9 154.6 156.3 158.5 161.2 167.4 168.2 172.2 176.4 177.6 179.1 178.8 179.1 190.7 196.3 200.9 206.3 213.5 220.2 225.8 228.2 231.3 234.3 238.5 236.6 239.8 240.4 239.6 240.8 241.4 243.8 248.6 251.2 255.5 258.3 262.9 268.4 274.3 279.8 287.4 295.8 305.2 312.4 320.8 326.7 327.8 330.2 336.4 343.1 351.5 361.6 371.7 381.3 391 394.9 395 395.2 394.7 393.3 394.7 397.5 395.9 392.3 390.3 388.1 384.9 382.3
156.8 153.3 149.6 143.7 146.2 147 147.5 149.5 151.6 152.9 153.5 154 152 150.6 138.4 146.2 158.6 161.5 163.2 162.7 161.8 160.8 160.8 162.8 165.3 166.7 168.7 170 170.3 170.4 170.3 170.6 170.5 170.3 169.7 168.5 166.7 166.2 165.6 164.4 164.3 166.2 167.2 167.5 167.2 167.2 165.8 163.6 161.2 161 160.5 160.9 161.3 161.3 161.8 162 161.7 159.8 157.3 153.5 151.6 150.1 149 148.8 147 148.8 149.7 150 151.6 153.5 158.1 162.1 164.6 165.4 160.3 155.8 152.7 150.7 152.3 151.8 156.4 158.2 158.7 161.5 164.9 171.9 175 178.4 182.8 184.4 186.4 188.6 188.1 187.9 187.5 187.4 186.6 184.2 179.4 178.5 179.3 180.8 183.4 185 184.9 184.5 183.5 185.6 190.5 197.4 200.7 201.7 199 195 187.4 180.5 177.7 176.6 173.1 171.2 167.6 163.1 160.6 156.3 157.5 158.2 156.4 153.6 151 148.1 150.1 151.5 152.3 153.1 155.3 157.4 159.9 162.4 170.1 173.6 176.6 178.6 181.3 183.9 186.2 188.6 187.6 185.6 191.8 202.7 209.9 214.9 220.4 222.3 224.5 226.4 226.5 229.1 230.5 230.4 235.2 240 243.1 246.3 248.8 251.3 254.3 257.3 261.6 266.3 271.8 279 285.4 292.3 298 306.2 312.4 315.7 316.9 324.3 332 342.7 356.2 370.4 381.9 390.8 399.3 401.5 401.7 402.1 404.6 402.6 403.3 404.7 404.2 401.5 400.6 398 398.1 396.4
156.3 153.2 149.3 147.4 148.3 148.8 150.1 153.8 154.9 155.7 157.2 157.9 155.8 154.9 152.7 142.1 151.4 159.9 158.5 156.3 151.5 159.9 161.5 163.8 165.4 166.8 168.3 169 169.3 168.5 168.4 169.4 169.8 170.3 170.2 170.1 170 169.6 167.8 167.3 166.8 168.7 169.6 169.8 169.1 167.8 165.8 163.2 163.2 163.1 162.6 163.1 163 162.8 163.6 163.4 162.5 160.4 158.3 154.7 151.8 150.9 150.4 149.4 148.6 147.8 149.1 150.3 150.7 152.7 154.5 156.9 160.9 163.1 159.2 155.5 152.7 150.8 151.9 152 152.7 154.1 155.6 157.7 161.4 166.6 168.4 172.5 177.7 179.4 181.9 182.3 183.6 184.6 184.7 183.3 180.1 176.7 174.6 175 176.4 179.8 182.4 183.1 181.8 182.3 184.1 188 194.5 200.6 203.4 203.3 200 193 185 175.2 173.4 172.1 169 165.8 162.8 160.3 158.2 157.4 158.5 159.1 156.3 154.8 153.1 148.1 149.7 150.6 151.7 153.2 155.4 159.1 163.3 167.4 171.9 175.5 178.5 180.9 183.3 185.4 187.5 191.2 193 195.7 194.1 192.8 194.5 200.2 204.2 207.1 211.1 211.9 218.2 224.7 228.5 232.9 236.7 240 243.2 245.7 248.8 250.7 253.7 256.8 262 265.4 272.5 278.3 284.3 290.6 294.9 299.2 303.1 306.1 309.5 318.4 330 345 361.7 378.1 391 397.4 401.7 404.6 405.6 410.5 411.8 409.8 409.7 410.7 410.7 410.7 409.8 408.6 410.7 413.2
156.5 153.7 145.3 150.3 150.5 152.2 155.5 157.1 160.3 163.5 165.9 166.2 164.7 159.9 156.1 146.7 144.6 140 150.4 157.4 158 151.4 157.6 163.4 164.8 166.1 166.7 167 166.7 167.1 166.7 168.5 169.6 170.2 170.8 171.4 171.5 170.5 169.5 169.4 169.8 170.2 169.7 169.6 168.1 167.8 166.7 165 165.4 164.8 164.8 167.5 167.7 167.7 166.7 166 164 163.7 163.3 161.8 158.1 154.2 153.3 152 150.2 148.3 148.3 149.4 150.2 151.1 152.9 155.7 158.3 159.4 156.1 153.6 151.3 150.3 151.1 151.8 151.6 152.3 154.6 155.5 159.7 160.5 164.2 167.1 169.1 175 176.9 177.7 178.1 178.5 179.2 175 171.7 170.7 169.9 171.4 174.9 178.1 179.3 179.8 179.8 180.1 185.2 190.8 195.6 201.1 202.5 198.6 192.5 186.7 176.1 168.7 167.6 166.3 161.5 158.5 155.9 154.1 155.1 156.5 157 157.2 155 153.6 151.9 148.1 149.3 150 150.7 154.3 157 158.9 166.1 170.1 172.6 176.6 178.9 181.9 184.9 187 188.8 191.7 194.6 197 198.6 200.2 201.3 204.3 207.6 212.3 217.2 221.7 215.4 218 220.8 226.2 234.7 239.3 242.4 245.5 248.3 250.9 254.7 259.1 263.1 267.4 272.1 277.5 283.6 289.8 293.7 297.1 301.2 304 307.4 314.8 328.8 347.2 365 381.8 391.8 396.9 403.1 406.2 410.3 415.1 417.2 417.4 417.6 415.3 416.1 417.6 419.1 421.5 421.5 425.9
157 152.5 149.1 151.7 154.3 157.4 159.5 162.7 167.5 171.9 173.1 172.9 170.6 163.5 155.6 149 155.8 156.2 150.7 158.2 160.7 161.4 162 161.9 161.7 161.5 161.3 164.2 166.8 168.1 169.5 169.7 169.6 170.4 171.4 171.4 171.1 171.1 170.5 170.8 170.6 170.3 171 170.7 170.2 169.7 169.2 167.2 169 170 171.5 173.3 175.7 176.4 174.7 173.1 171.2 169.6 169.3 167.5 162.8 158.4 156.6 154.5 151.8 149.6 146.8 148.7 149.5 150.1 151.4 152.6 153.3 153.3 152.4 151.3 149.9 150.1 151.1 151.7 151.6 150.9 153.3 154.7 155.4 157.8 161.2 163.2 166.7 169.2 170.9 171.5 169.7 168.7 166.9 167 165.9 164.7 165.9 168.6 171.7 172.9 174.4 175.4 175.4 179.2 183.7 187.3 189.9 190.4 189.2 185.1 182.3 172.9 165.6 162.8 161.5 153.9 150.4 151.4 149.8 151.7 153.3 154.9 154.8 149.8 149.1 151 148.9 148.4 149 149.5 150 156.6 161.2 165 168.7 171.9 174.7 177.3 180.5 182.4 185.5 188.7 191.4 193.6 196.3 198.5 201.6 204.3 204.3 202 211.4 215.4 220 223 225.4 227.4 232 233.1 229.5 230.8 233.4 237.1 245.9 248 250 254.9 262 268.8 272.1 277 283 287.6 292.9 296.6 300.3 303.4 306.9 312 330.3 347.8 364.1 378.9 387.1 395.5 402.7 409 413.6 419.7 420.8 421.7 421.7 420.5 419.8 421.1 423.4 427.4 430.8 439.8
158.2 151.4 153.8 157.5 159.9 162.1 164.3 168.5 175.1 178.5 178.4 177.7 172.7 164.1 152.1 157.2 158.6 159.4 158.6 160 160 162.7 163.2 163.6 164.2 165 165.8 166.7 167.5 170.1 170.7 170.4 169.8 170.8 170.8 171.1 171.7 171.1 172 173.2 175 175.9 176.3 175.7 175 174.5 171.9 171.2 172.6 174.9 175.6 177.7 179.1 179.8 179.2 177.6 176.1 175 174.7 172.5 168.9 164.6 159.1 156.4 153.3 150.3 148.6 147.8 148.9 148.7 149.6 150.6 151 150.6 149.7 148.9 150.3 150.9 151.2 151.1 151.3 151.7 152.1 152 153.7 156 157.6 159.4 160.8 160.5 161.4 161.8 160 158.6 159.2 159.4 158.6 158.3 162.5 164.9 166.4 167.7 168.1 169.2 170.8 172.2 175.3 175.6 177.7 177.7 175.2 176.9 159.9 153.6 156.7 153.2 149.3 149.5 150.6 156.1 155.8 150 150.4 149.7 148.6 148.8 149.5 148.8 149.2 148.1 149.1 149.5 152.9 158.4 164.3 167.3 169.8 172.6 176.1 178.6 182.3 185.4 187.4 189.6 193 196.3 198.1 200.4 203.6 206.6 209 210.8 213.1 216.2 219.9 223.3 226.9 229.7 232.9 235.5 238.1 240.2 241.9 244.9 248 251.4 253.8 256.2 259.5 268.2 273.7 277.9 282.9 289 293.7 297.5 300.7 305.7 308.3 313.6 332.1 346.8 360.8 375.5 387.2 394.9 401.4 409.7 416.4 421 422.2 421.8 421.3 420.5 421.3 424.2 428.2 435.2 445.7 452.7
157.3 153.8 158.5 161.8 163.2 166.3 170.4 176.2 180.4 182.3 181.6 180.2 173.3 165.9 153 162 161.4 161.2 161.2 162.2 163.4 163.9 164.7 164.7 165.8 166.4 168.2 168.9 169.4 169.3 171.2 170.6 171.4 171.4 171.4 171.8 174.2 174.9 176.1 177.2 178.1 179.4 180 178.8 178.2 177.6 176.6 175.2 176.6 177.7 178.9 180.1 181.1 182.1 182 181.4 181.3 179.8 177.8 174.8 171.2 167 161.5 158.2 154.7 152.1 149.9 147.7 147.7 149 149.4 149.8 148.6 147.2 149.7 150.7 150.4 150.6 150.8 151 150.1 150.6 150.6 151.5 152.7 153.7 156.2 156.4 156.8 155.7 154.1 154.2 155.8 155.7 154.5 154.4 156 154.6 158.8 158.5 159.1 160.2 162.5 162.4 163.2 164.1 162.9 163.9 166.1 164.2 164.5 148 145.9 146.1 146.4 146.4 147.2 148.7 149.7 155.9 155.5 153.9 152.9 150.8 148.3 148.4 148.2 148.5 148.9 148.1 149.2 152.8 159.5 162.9 166.3 169.3 172 174.5 177.4 179.9 184.1 186.8 189.1 191.5 195 197.5 200.6 202.8 206 209.1 211.6 216.2 219 220.1 221.6 225.8 227.9 232.4 235.3 238.7 240 241.9 244.2 245.8 249 252.9 256.8 260 265.1 270.8 275.2 275.7 287.8 289.4 295.6 299.2 304.1 308.8 313.7 319.2 330.5 344.8 362.5 380 387.6 392.1 399 407.9 414.5 420.1 421.8 421.3 420.9 421.1 423.1 427.4 434.8 443.6 455.5 458.8
155.8 157.6 160.8 163.5 167.5 171.8 176.1 179.3 184.3 185 184.4 180.3 175.2 161.9 164.8 165.1 164.3 163.7 163.5 163.9 165.1 165.3 166.2 167.4 168.3 168 168.9 169.8 170.5 170.5 172 172.1 171.3 172 174.2 175.3 175.8 176.9 178.6 179.9 181.4 181.6 181.7 181.3 180.2 179.2 178.6 178.6 177.8 179.8 180.7 181.8 182.7 183.7 184.1 184.3 184 182.1 180 177.2 172.2 167.9 164 160.3 156.9 153.7 150.7 147.8 147.7 148.5 148.1 147.8 149.3 150.1 151 150.7 150 150.2 150.4 150.6 150.5 149.5 150.6 151 151.5 152.3 153.2 152.2 149 147.6 147.5 146.2 146.1 145.4 144.8 144.9 145.1 146.5 146.2 145.1 145.6 145.7 145.5 147.3 147.2 149.1 148.5 149.5 149.3 147.4 144.8 145.4 145.4 145.6 145.7 145.4 145.4 146.1 148.2 150.8 156.5 156 156.5 149.7 148.3 148.1 148.2 148.3 148.4 148 149.6 157.2 161.4 164 167.6 170.9 173.8 176.3 179 182.5 185.7 188 190.9 193.7 196.8 199.1 201.9 205.5 208.9 211.8 215.8 219 222.3 224.4 225.4 227.9 230.5 233.9 236.5 239.8 242.6 244.5 246.5 247.5 248.9 251.4 255.9 261.6 268.5 273 279.5 284.4 290.2 287.3 298 301.8 305.7 310.7 315.6 321.1 329.6 344.6 363.2 379.1 384.9 390.2 395.3 402.9 411.3 416.1 417.4 418.7 419.5 421.5 424.7 430.9 438.3 449.4 454.5 458.6
156.4 159.5 163.1 167.7 171.6 175.3 180.2 184.3 186.9 187.5 184.7 178.6 163.3 168.4 169 169.4 169.6 168.6 168.1 167.1 166.8 167.8 168.9 169.8 170.4 170.1 170.2 170.6 172 172.4 173.1 172.7 174.1 174.7 176 177 177.6 178.4 179.7 181.3 182.4 183.3 182.8 182.2 181.3 180.5 180.8 181.1 180.9 181.4 182.2 182.7 183.7 184.6 185.6 185.8 186.5 185.1 183 179.5 173 168.6 165.1 161.5 158 154.7 150.7 147.7 146.7 146.4 147.3 148.5 149.6 151.3 151.2 150 149.6 149.7 149.9 150 150.1 150.3 149.7 150.4 150.5 150 149.2 147.5 146.6 146.6 146.6 146.4 144.6 144.6 144.6 144.7 144.7 144.8 144.9 145.2 145.1 145.2 145.3 144.3 145.5 146.2 146.2 145.8 145.9 144.7 145.2 145.6 146.5 156.1 157.9 146.4 146.2 145.7 146.7 146.8 148.1 149.2 147 146.9 148.1 148.1 147.6 148.7 148.9 150.6 157 160.4 163.2 166.4 169.1 172.5 174.9 177.8 180.9 184.2 187.5 190 191.4 194 200 203.1 205.8 209.7 211.4 214.8 218.3 222.2 225 227.3 228.7 229.7 232.4 235.9 240.2 242.7 244.9 247.4 248.2 249.9 251.6 252.4 259.6 266.4 273.7 280.8 286.1 291.2 295.7 300.2 294.9 305.7 308 313.3 317.7 322.2 333.2 345.9 361 372.6 373.7 380.5 387.4 396.6 402.7 408.2 410.6 413.1 416.5 420.2 425.2 431.4 435 450.5 454.7 456.5
158.3 162 164.9 171.4 176.1 182.6 187.3 188.9 189.2 187 179.1 167.1 172.8 172.6 173.8 174.2 173.6 172.9 171.7 170.5 170.5 170.4 170.7 172.6 173.4 175.2 175.4 174.3 175.4 175.8 175.3 175.8 175.8 177.6 179.2 179.7 179.8 180.6 181.9 182.7 182.8 183.8 183.2 182.8 182.5 183.1 183.3 183.6 182.7 183.2 183.3 183.5 185.9 187.2 189 189.2 190.1 188.5 187 181.6 174.1 169.4 165.8 161.7 157.7 154.5 150.5 146.9 146.7 147.1 147.6 148.8 150.2 151.9 150.3 149.1 149.4 149.5 149.6 149.7 149.8 150 149.7 149.3 148.9 147 146.1 146.5 146.1 146.3 145.9 144.8 144.7 144.5 142.7 142.8 144.7 145 144.6 144.8 144.8 145.2 145 145.8 147.9 146.7 144.4 144.5 145.3 145.8 146.6 157.3 158.2 158.8 159 159.5 160.7 152.7 146.5 146.3 146.4 146.7 146.5 147.4 147.8 148.3 148.5 149.5 151.4 154.5 159.7 162.9 165.6 168.5 171.3 174.5 176.7 178.9 182.1 185 188.7 192 194.5 197.6 201.7 205.5 208.1 211.2 214 217.1 220.5 224.2 227 229.2 231 232.1 235.9 239.9 244.4 246.9 247.9 250.4 251.8 254.5 256.6 259.4 265.6 271.5 280.1 285.2 290.2 294.5 298.2 301.9 304.9 299.1 312 316.6 319.7 323.9 331.8 344.5 359.6 363.7 367.1 370.2 374.3 384.4 394 399 401.3 406.4 413.6 419.7 424.2 429.5 437.8 446.1 451.2 451.3
162.8 165.6 172.8 180.2 184 187.9 189.8 188.6 186.2 181.7 172.3 176.6 176.9 177.9 178.8 178.2 177.7 176.1 175.4 174.4 173.8 173.6 173.3 174.3 176.2 177.4 177.8 177.9 177.3 177.2 178.3 178.5 179.9 180.8 181.8 182.7 183.3 183.4 184 184.8 185.5 186.2 185.7 185.8 188 191.7 189.3 186.1 184.7 184.4 186 188.1 189.7 191.1 193.4 193.6 194.1 192.7 190.1 184 175.1 169.4 165.9 161.4 157.5 153.8 150.3 146.6 146.6 147.2 147.9 147.6 150.6 150.5 149.4 148.9 149.1 149.3 149.3 149.4 149.5 149.7 149.8 149.3 147.7 146.6 146.4 145.5 145.9 146.3 146.1 144.8 144.5 144.3 144.2 144.3 144.7 146.1 143.6 143.6 146.7 149.8 151.1 152.7 153.2 154.3 154.8 155.8 156.5 156.9 158.1 158.7 159.6 160 160.1 160.6 161.4 161.5 159.7 149.3 147 147.4 146.3 147.3 147.7 147 148 148.4 153.3 157.1 161.7 165 167.5 170.3 173.1 175.9 178.8 181 183.4 186.1 189.5 192.6 196 199.3 204 207.2 209.8 212.7 217.4 219.5 222.7 226.1 229.3 231.8 233.6 237.1 240.4 244.6 249.3 251.7 254.5 254.3 258.2 264.9 268.7 272.2 277.9 281.9 287.6 291.9 293.9 297.3 301.8 304.6 307.9 310.8 313.4 310.4 321.6 325 332 341.3 349.2 355.3 361.3 362.3 366.4 374.7 381.8 387.9 393.5 401.6 411.5 417.1 421.6 429.1 437.1 442.2 445.2 446.7
166.7 171 179.2 185.8 189.3 189.4 188.4 186.4 182.8 179.8 174 179.3 180.3 182.2 183.4 183.6 184 184.4 183.4 183 179.2 176.1 175.9 175.8 177.3 178.9 179.4 179.6 179.1 178.9 178.8 179.9 181.1 182.2 183.4 184.3 185.5 186.7 187.6 188.9 189 189.9 189.9 191.2 193.9 192.9 190.1 187.5 185.8 187.5 188.7 190.9 192.1 193.3 195.1 196.6 196.4 195.6 191.5 184.4 178.6 170.9 164.5 161.1 157.4 154 149.7 146.5 146.9 147.2 147.3 147.8 148.3 148.4 148.4 148.7 148.9 149.1 149.2 149.2 149.3 149.4 149.4 149.4 147.6 146.4 146 145.8 145.9 146.1 145.7 144.5 144.2 144.2 143.6 148.5 150.6 151.6 152 151.9 152.4 152.9 153.5 154.7 154.6 155 156.3 158.1 158.4 158.7 158.9 159.3 159.8 160.3 158.1 150.5 156.6 160.8 161.2 160.1 149.8 147 147.8 146.4 147.2 147.1 147 148.1 153 157.4 162.1 165.7 168.8 171.4 173.8 177.1 180 182.3 184.9 187.9 190.4 193.6 196.5 200.9 205.5 209.8 213.4 216.3 219.7 222 225.4 229.3 234.1 235.8 236.9 239 243.2 248.6 253.9 256.6 258.3 260.1 261.3 279 285.2 291 295.1 298 301.9 304.9 308.2 311.3 314.5 316.2 316.8 317.3 318.3 322.2 319.5 322.6 331.2 338.9 344.2 349.9 355 358.2 363.7 370.4 377.5 381.9 388.8 399.1 408.6 413.5 418.8 427.6 435.1 441.8 443.1 444
172.5 177.5 185.6 191.9 194.2 191.4 189.2 186.4 184 181.5 175.4 181.8 183.8 186.1 187.7 190.5 192.2 194.9 193.2 191.1 187.5 183.9 181.3 178.1 178.9 180.3 181 181 180.7 180.5 180.3 180.9 181.9 183.4 184.7 185.7 187.5 188.9 190.1 191.1 191.8 192.1 192.3 193.4 193.6 192.2 190.3 189.8 189.4 190 191.2 192.5 193.6 194.4 195.9 197.2 197.6 196 191.2 185.7 182.1 175.3 167.6 160.4 156.8 152.8 150.8 145.8 145.8 146.6 146.8 147.1 147.8 148 148.1 148.4 148.7 148.9 149 149 149 149.1 149.1 148.9 147.5 145.9 145.5 145.3 145.4 145.4 145.4 144.3 144.1 142.6 144.3 149.5 151 151.7 152.1 152.2 152.5 154.5 155 155.7 156.4 157 157.6 157.9 158.3 158.8 159.2 159.5 159.8 160.1 157.2 149.3 150.8 159.7 161.2 161.5 159.3 150 149.4 149.5 147.2 147.1 146.9 147.3 152.3 157.9 159.8 166.4 169.3 172.5 174.3 177.5 179.7 183.3 185.8 190.1 192.8 194.5 198 203.1 207.8 214.8 219.5 223.6 224.5 226.1 228.3 232 237.7 241.9 242.2 244.4 247.7 252.6 255.5 259.3 263.2 266.6 269.3 290.8 305.7 312.3 317.2 320.7 323.6 326.4 329.7 332.8 336.3 338.2 339.9 338.2 336.2 332.9 328.5 329.3 332.8 337.7 341.6 346.2 351.4 358.1 362.7 368.3 374.4 380.8 386.8 395 404 409.7 415.4 423.5 433.3 441 443.8 444.3
179.5 186.8 191.8 196.3 195.4 192 190 187.4 186.5 184.8 176.5 185.2 187.7 191.1 194.2 197 198.9 199.7 199.7 197.5 195.9 192.3 189.2 183.3 180.6 181.5 182.4 182.4 182 181.8 181.9 182.5 182.7 184.1 184.6 186.5 188 189.8 190.7 191.5 191.7 192.3 192.8 193 193.2 192.5 191.6 190.8 190.4 190.7 192.2 193.5 194.2 194.1 195.9 196.9 194.4 193.2 190.6 189.4 184.7 178.7 171 160.4 156.9 154 150.7 147.1 145.3 146.2 146.5 147.3 148 148 148 148.2 148.4 148.7 148.8 148.8 148.8 148.8 148.8 149 148.2 145.3 144.8 144.8 144.5 144.5 144.5 144 144.4 144 144.8 149.8 150.5 151.5 151.8 151.8 153.6 155.6 156.5 156.8 156.9 157.2 157.6 157.9 158.1 158.6 159 159.3 159.6 160 158.5 150.1 151.9 160.4 160.9 161.1 161.1 157.2 150 148.7 147 147.3 147.2 148 150.5 157.4 161 166.7 171.6 176.7 179.4 181.5 182.9 183.8 186.9 191.8 195.1 198.3 200.7 208.2 215.1 220.8 226.4 230.8 232 230.5 231.2 234 241.1 248.4 251.1 252.3 258.8 264.2 268.4 272.9 277.4 283.1 287.3 284.5 314.7 325.2 331.8 332 332.3 334.2 340.1 345.2 347.4 352 352.9 351.7 350 347.6 341.4 335.7 333.6 337.7 341.4 344.5 349.3 353.7 358.1 364.4 369.1 378.8 387.9 395.2 401.4 408.4 413.9 420.9 429.6 438.6 442.2 442.6
194.1 196.6 197.4 197.3 195.8 193 190.8 189.5 188.2 180.8 185.3 187.7 191.9 196.8 200.2 203 204.1 204.1 203.6 202.8 201.8 199.7 195.1 191.2 188 184.3 184.8 184 183.4 183.4 183.5 183.9 183.8 184.3 184.7 185.2 186.4 188.9 189.8 190.2 191.3 192 192.9 193.3 193.9 193 192.1 191 190.8 191 191.8 193.4 193.5 193.5 194.4 195 193.6 193.3 193.8 193.1 187.8 181.9 174.7 166 158.2 155 151.8 147.7 145.8 145.9 146.7 147.5 147.9 148 148.1 148.4 148.4 148.4 148.6 148.7 148.4 148.5 149 149.1 148.6 145.7 144.8 145.1 144.7 144.4 144.1 143.8 144.2 143.6 145.3 150 151.1 151.3 151.8 152.5 154.5 155.6 156.2 156.6 156.9 157.1 157.5 157.8 158.1 158.4 158.8 159 159.4 159.6 159.1 153.3 151.4 156.9 160.7 160.8 161 160.8 154.8 148.2 147.5 147.5 148.2 149.6 151.5 155.5 162.7 168.6 176.1 179.4 182 184.3 186.9 189.3 192 194.7 199 202.5 205.7 214.3 220.9 227.4 232.3 236.3 237.7 234 235.5 239.3 246 254.4 258.6 264.1 269.1 276.6 283.5 290.3 295.2 301.1 308.3 313.4 309.5 331.9 340 342.5 341.5 349.8 356.4 359.6 363.7 367.8 365.8 363.3 360 355.7 352.5 343.5 339.9 338.6 340.4 344.6 347.7 351.7 355.9 359.6 364.4 369.9 378.3 388.5 394.5 402.1 410 419.1 422.8 430.5 437 437.8
202 203.5 200.3 199.2 196.8 194.2 192.8 191.6 189 183.5 188.1 192.4 197.2 200.8 203.5 205.4 206.1 206.7 207.3 206.7 205.6 203.3 201.6 200.3 196.2 189.3 188 187 185.5 184.9 185.1 185 184.7 184.2 183.6 183.8 185.8 187.1 187.9 188.8 190.2 191.6 192.7 193.3 193.3 192.9 191.5 191.3 191.2 191.2 191.4 191.8 192.1 192.5 193.1 192.7 193.8 194.8 195.3 195.3 191.5 186.2 180 171.3 162.3 155 152.2 147.7 145.5 145.5 145.8 146.6 147.5 147.7 148.8 148.4 148.6 148.4 148.3 148.1 148 148.6 148.9 149 148.5 148.3 147.1 145.3 144.9 144.6 143.9 143.5 143.8 142.7 146.3 149.6 150.7 151.5 152 152.6 154 155.3 156 156.3 156.8 157 157.3 157.7 158 158.3 158.6 158.8 159.1 159.4 159 153.5 151.3 151.9 156.5 160.2 160.7 159.2 149.9 147.4 147.5 147 147.9 149.6 152.5 156.7 159.7 172.3 177.4 182.1 184.7 186.9 189.4 192 195.2 197.7 201.1 204.6 210.1 220.7 229.2 234.1 237.9 244.2 245.8 244.2 241.5 244.2 253.6 261.2 269.3 275.5 281.8 288.4 295.6 303.4 309.3 316.6 321.7 325.7 330.3 333 344.1 348.3 355.6 362.4 366.3 372.4 377.6 377.6 375.2 374.5 372.3 367 357.4 349.3 343.9 342 342.8 340.4 347.3 349.7 353.1 357 360.9 366 373.8 382.5 391.2 398.4 403.8 409.1 415.9 424 429.4 433.5
206.1 205.5 203 201 198.1 195.8 194.2 192.8 191.4 186.3 193.2 196.9 200.3 203 205.1 207.1 208.6 209.7 209.7 209 208 207.4 206.8 205.3 201.5 196.1 192.6 189.1 188.3 186.4 186.1 186.2 185.6 184.5 183.7 183.3 184.4 185.3 186.3 187.6 189.2 190.7 191.3 191.7 191.5 190.8 190.7 190.9 191.1 191.2 191.1 191.2 191.6 191.7 191 192.1 194.3 195.6 196.8 197.2 194.3 191.2 184.8 177.4 168.4 158.9 152.1 149 145.4 145.2 145.7 146.8 147.2 147.5 147.6 147.8 148.1 148 147.9 147.8 147.7 148.3 148.7 148.9 148.9 148.9 149.5 149.4 148.4 144.3 143.5 143.3 143.5 143.9 145.9 149.3 150.2 151.4 152 152.7 154 155 155.6 156.1 156.5 156.9 157.2 157.4 157.6 157.8 158.6 158.8 159.2 159.6 159.4 158.1 154.1 151.6 152.4 158 160.1 157.1 148.4 147.1 147.5 147.8 147.7 156.4 163.3 168.3 173.4 175.9 178.3 183 186.6 188.6 191.2 194.1 197.6 200.5 202.8 207 216.9 229.1 236 241.7 247.2 251 252.9 252 249.5 252.4 262.1 270.5 278.7 287.6 294.8 303.7 311.8 316.7 323.4 330.7 335.4 341.6 342.2 343.8 345.7 352.9 359.7 363.3 371.1 377.7 380.3 379.8 379 379.8 379.8 375.5 368.4 357.7 347.3 345 346.1 348.6 350.2 350.9 351.1 354.1 358.8 365.4 370.9 376.4 385.8 393.6 400 404 409 417.3 424.8 433.2
208.8 207.7 205.5 202.6 199 196.4 195.5 194.6 193.1 189.9 198.2 200.3 203.2 205.2 206.2 208.3 210.3 211.3 210.9 210.7 210.5 210.6 210.3 208.6 205 202.9 198.7 193.4 189.5 188.9 188.2 188.4 188.3 186.7 184.6 184.1 184.8 185.7 185.9 186.6 188.1 188.7 189.2 189.9 189.8 189.6 190.3 190.5 190.9 191.2 191.1 191.8 191.9 191.4 191.5 191.9 194 194.9 195.8 195.8 194.2 190.4 186.5 181.3 173.8 162.9 153.6 149.9 145.7 145.3 145.6 146.4 147.3 147.2 147.4 147.5 147.6 147.6 147.4 147.4 147.6 147.9 148.4 148.9 149.2 149.1 149.5 149.8 149.6 144.8 143.5 143.3 143.5 142.6 145.6 148.8 149.9 151 152.1 152.8 154.8 155.2 155.3 155.8 156.2 156.4 156.7 156.9 157.1 157.3 157.6 158.9 159.1 159.2 159.1 159.2 158.6 153.3 152.3 152.3 153.6 153.1 147.4 147.4 147.8 148.2 149.7 160.4 166.6 172.1 177.1 180.2 182.8 186.8 188.1 190.1 192.7 196.1 201.1 204 207.1 214.9 224.2 236 243.9 250.6 254.7 258.6 260 259.2 259.1 261.6 269.6 278.6 288.7 298.8 307 316 322.2 331 336.9 343.7 347.1 349.5 351.8 352.1 355.6 357.5 361.5 370.4 376.4 379.3 380.8 381.1 384.8 386.2 386.2 382.3 379.3 375.6 363.5 353 349.7 352.1 354.4 354.1 355.7 357.8 363.9 370.3 377.4 385.3 391.3 390.4 396.4 400.6 404.3 412.7 422.4 429.5
213.5 210.7 205.3 202.5 198.8 197.5 196.9 196.4 195.5 194.4 199.2 202.2 204.1 206 207.6 209.7 211.1 212.5 212.5 213.3 213.6 213.5 212 210.8 209 208.1 202.7 198.5 193 191.4 189.5 190.9 191 190.1 188.3 186.5 185.7 185.9 186.2 186.2 186.3 187.6 187.5 188.2 188.2 189 190.3 191.1 191.8 191.8 192.2 192.8 192.9 193.2 193.4 193.5 194.3 194.5 194.2 193.9 192.7 189.5 186.8 182.1 175.3 163.6 154.6 150.5 146.1 145.1 145.2 146.1 147.4 147.2 147.2 147.4 147.7 147.4 147.1 147.5 147.8 147.8 148 148.5 148.8 148.5 149.2 149.6 149.2 146.4 143.5 143.3 143.5 143.7 145.1 147.6 149.6 150.9 152.5 154.2 154.9 155.1 155.1 155.5 155.7 155.9 156.1 156.4 156.6 156.8 157.2 158.3 158.5 158.7 158.6 158.8 157.7 157.6 148 149 147.9 147.9 147.7 147.1 147.5 148 155.4 162.8 168.1 173.1 179 182.4 185.2 188 191.2 193.6 195 198.8 204.7 208.6 214 222.6 233.2 242.7 251.2 256.7 260 264.3 266.4 265.9 267.1 271.3 278.7 287.7 299.7 311.7 320.9 330.3 338.1 346.5 350.7 356.5 359.8 360.3 359.1 360.7 361.3 363.2 366.8 372.6 376.9 380.8 383.5 387.4 390.9 393.4 391.7 390.7 391.5 388.6 379.5 368.5 356.1 355 358.8 361.8 363.3 368.9 376.4 378.6 388.6 397.3 402.4 401.3 399.4 401.4 407.5 420.6 427.7 431.4
217.7 212.7 206.7 203.2 200.8 199.5 198.6 197.5 197.8 197.7 199.6 202.8 204.7 206.8 208.7 210.3 211.6 213 214 214.2 214.7 213.5 213 212.4 212.6 209.4 204.1 200.4 195.6 193.4 192.1 192.7 193.2 192.9 192.1 190.7 189.1 187.9 188.5 188.5 188.4 188.3 188.7 189.5 189.7 190.3 191.7 193 193.1 194.6 199.3 199.7 196.6 196.1 197.2 197.9 197.9 194.9 194.5 192.7 190.6 188.8 186.3 181.8 175.3 166 155.9 150.9 145.5 144.7 144.9 145.1 147 147.3 146.8 147.5 147.5 147.2 147.1 147.5 147.8 147.9 148 148.7 148.6 148.2 147.8 147.9 147.4 146.3 143.5 143.2 143.6 143.5 144.7 147.6 149.9 151.5 152.8 153.5 154.2 154.7 154.9 153.9 155.2 155.4 155.6 155.8 156.1 156.7 157.7 157.6 157.5 157.5 157.7 157.2 154.9 150 147.9 147.8 147.9 147.9 147.9 147.9 148.6 148.9 154.6 167.3 171.8 176.1 180.9 184 186.3 189.7 193.9 197.1 199 203.4 209.2 212.8 220.5 230.3 238.2 247.5 254.6 259.4 263.7 268.2 270.3 271.8 274.7 279.7 289.5 300.6 313.1 325.1 335.1 344.4 354.9 361.9 367.6 370.9 372.6 372.4 368.6 369.4 370.7 371.5 371.7 376.1 379.6 386.8 390.9 395.4 399.5 400 397.1 396.6 400.7 399.7 394.3 382.8 367.1 367.9 366.4 372.5 381 388.5 394.9 396.8 401.6 404.5 408.2 410.8 408.9 409.3 418.7 426.7 430.7 434.4
218.2 212.7 208.6 206.2 202.5 200.6 200.3 199.9 199.7 199.1 200.6 202.4 204.7 207 209.3 210.7 211.9 212.9 214.2 214.6 214.6 214.2 214.3 214.3 213.4 210.8 207.6 204.3 201.2 196.3 194.9 195 193.9 194.5 193.5 192 190.6 190.2 191.5 192.7 192.2 192.4 192.4 192.3 193.3 195.8 198 198.9 200.6 203.3 204.6 206 203.7 202.4 205.9 206.7 204.3 202.2 196.2 192.7 189 186.9 184.3 179.5 172 163.5 155.5 150.7 146.6 144.2 144.9 145.1 146.7 145.8 146.5 147.6 147.4 147 147 147.2 147.6 147.5 147.9 148.2 148.1 147.5 146.8 143.8 143.2 144.1 143.3 143.2 143.5 143.5 144 147.5 148.7 150.9 152.6 153.6 154.2 154.2 154.9 154.7 154.9 155.3 155.5 155.7 155.5 156.4 156.4 156.8 155.9 154.3 155.5 155.3 154.5 148.3 147.9 147.8 147.8 147.9 147.9 149.1 154.5 154.1 156.6 169.1 174.3 179 183.4 186.1 188.8 191.1 195.6 200.9 204 209 212.6 218.5 225.1 233.3 241.6 248.8 254.3 260.7 267.4 271.2 273.2 276.8 282 289 298.8 309.5 325.7 337.5 348.3 359.2 369.3 378.7 385 385.7 384.1 383.7 384.5 384.2 381.6 379.7 379.2 380.8 385.9 393 397.8 403.1 405.4 404.1 402.5 403.6 406.1 405.8 403.8 395.9 381.1 384.3 388.2 393.4 400.7 407.5 408.7 407.3 407 408.4 411 413.3 418.2 419.4 425.8 430.9 434.4 439.4
219.3 213.5 211 208.8 206.3 202.8 201.9 202.1 201.6 201.3 202.8 203.8 205.1 207 208.5 210.4 210.9 212.2 212.7 213.6 214.4 214.5 215.4 215.3 213.4 212.8 211 209.3 206.3 203.5 199.6 198.3 196.6 195.4 193.9 192.2 191.1 191.3 192.8 195.2 196.2 196.3 196.5 196.7 197.4 198.9 201.7 203 206.1 207.8 209.2 210.6 209.9 210 210.4 209.3 209.3 206.8 201.5 191.5 187 183.3 180.1 174.4 167.3 159.8 155 150.4 145.9 144.3 144.2 144.4 145.3 145 146.4 147.7 147.2 146.8 146.9 147 147.5 147.3 147.3 147.5 147 146.5 143.1 143.1 143.1 143.1 143 143.1 143.3 143.6 143.4 145.2 148.5 150.3 152.9 153.3 154.1 154.3 154.2 154.1 154.8 155 155.4 155.1 154.9 155.6 156.4 156.5 155.5 153.7 154.9 157.3 157.7 156.7 153.3 147.8 147.9 147.8 149.3 152 156.6 158.9 166.2 171.1 175.6 180.1 184.1 187.1 190 193.2 197.6 203 208.1 212.6 217.1 225.2 230 235.9 243.5 249.1 255.3 262.6 268.9 272.7 277.5 282.6 289.3 296.3 305.9 320.8 335 347.6 358.6 369.8 381 390.4 395.9 397.1 395.8 395.7 395.5 395.7 396.2 392.8 390.1 386.2 392.9 401 405.8 411.6 409.5 408.5 407.3 409.7 410.6 411.5 410 407.7 398.6 404.1 412.4 411.9 416.1 420.2 418.4 410.3 409.3 410.4 413.4 416.3 422.1 425.5 427.3 431.8 436.5 443.1
218.8 215.1 212.9 210.8 208.4 206.3 205.1 204 203.5 203 203.7 205 206.1 206.9 209.1 209.3 209.4 211 211.8 212.9 213.9 214.9 215.9 215.3 214.8 215.1 214.2 211.5 208.9 208.1 205 202.8 202.9 202.5 198.8 193.3 190.1 190.8 194 197 198.8 198.7 199.3 199.4 199.6 200 203.3 205.8 208.4 209.9 211.1 212.1 212.4 213.1 212.7 212.4 210.5 207.6 201.8 192 184.8 180.5 176.2 171.7 163.7 156.4 152.7 148.8 145.6 143.2 142.9 143.6 144.9 146.9 146.3 147 147.1 146.6 146.3 146.7 146.7 146.7 145.4 145.6 145.5 145 143.6 142.8 143.2 143.2 142.9 143.1 142.2 143.2 142.7 143.5 148.2 150.1 150.8 151.2 151.7 152.6 152.9 153.3 154.4 154.4 154.2 154.5 155.1 155.9 156.8 157 156.6 156.8 157.5 158.1 158.3 158.6 157.8 152 147.9 147.9 150.1 152.5 156.6 160 167.4 171.7 176 180.3 183.6 187.1 191.4 194.9 198.8 204 211.1 218.8 223.8 228.5 232.6 239.4 244.8 250.5 256.9 264.4 268 274.2 281.6 288.9 296.2 304.7 317.3 332.3 346.4 355.7 365.4 376.5 387.2 396.1 403 404.3 404.8 406.8 408.7 409.4 409.5 403.9 397.6 396 396.8 401.8 409.2 413.6 414.6 410.8 411.8 415.6 417.5 418.4 419.6 413.7 411.9 424.5 427 426.9 428.3 427.8 424.3 415.4 413.4 415.9 418.6 420.6 427.5 431.4 432.1 435.4 441.7 450.7
218.9 216.5 215.6 212.7 210.8 209.1 207 205 204.6 204.3 204.8 206.2 208.2 210 209.9 210.1 210.6 211.1 211.7 212.7 213.9 215.5 216.3 215.6 215.7 215.4 213.1 211.2 211.4 209.9 209.4 209.4 208.4 206.7 203.8 198.9 189.6 188.3 192.3 194.3 196.4 198.4 200.3 200.8 199.8 200 203.1 207.3 209.3 211.3 212.5 213.6 213.8 214.7 213.8 213.2 211.5 208.2 201.7 195.2 185.3 178.5 174.6 170.4 164.4 155.8 153.5 148.3 145.6 144 143.5 144.6 145.8 146.4 145.6 146.7 146.1 146.4 144.9 145.4 144.9 145.5 143.5 143 143 142.9 142.5 142.7 142.9 143.1 142.8 143.1 143 143 142.4 143.4 145.9 149.6 151.1 152.7 152.7 153.3 153.8 152.3 153.9 154.2 154.4 154.4 155.4 156.1 156 156.3 156.2 156.9 157.8 158.4 158.4 158.5 159.6 157.3 156.6 158.5 158 156.3 156.8 163.6 166.8 171.1 175.3 179.7 184.4 188.4 193.1 197 203.2 209 216.1 222.5 227.8 233.7 238 243 247.7 252.6 259.5 264.7 269.7 277.4 287 295.3 305 316.6 332 347.1 358.4 367.8 374.5 382.6 391.2 401.6 407.8 411.3 413.2 417 419.7 420.9 419.2 410 404.7 401.9 402 406.2 407.6 411.3 412.5 415.3 417.3 419.6 422.5 422 422.9 421.6 425.3 436.6 441.4 441 440.2 439.8 431.9 421.8 422 421.8 424.8 426.9 430.6 438.6 443 439.4 441 454.2
220.9 218 217.1 215.5 213.1 210.3 207.3 206.1 205.7 205.7 206.8 209.1 211.9 212.4 212.3 212.2 212.6 212.8 212.7 213.7 214.9 215.2 215.2 215 213.7 213.4 213.1 213.2 213.1 212.3 213.5 213.7 213.1 211.7 209.9 205.3 193.4 185.8 188.7 190.6 192.6 195.7 197.8 200.4 199.7 199.3 202.9 206.4 208.9 212.1 213.6 215.4 214.7 215.3 214.9 213.4 211.9 206.8 201.6 195.8 184.9 179.8 174.8 170.3 165.5 159.6 155.8 150 145.7 143.7 142.7 145 145.9 146.4 146.4 146 145.6 145.5 144.2 142.8 143.7 142.4 142.4 141.7 141.7 142.4 142.4 142.6 142.8 143 142.7 142.7 143 142.9 142.6 143.3 145.1 147.4 149.6 151.5 151.1 151.6 151.3 152.6 152.9 153.3 153.9 153.9 155.8 155.5 156.3 157.1 157 157 157.9 158.5 158.5 158.3 159.3 159.4 159.4 159.1 157.4 158.7 160.9 163.5 167 170.4 174.5 178.9 184.3 189.1 193.8 199.7 206.1 213.6 221.6 229.3 233.3 239.2 242.2 249.1 254.3 255.7 261.2 266.6 271.9 282.7 293.7 304.2 316.8 330.9 346.3 358.2 366.6 375.4 381.3 388.1 394.5 400.7 410.1 417.2 424.8 428.5 431.6 432.4 425.5 416.5 411.9 408.6 407.5 410.3 409.5 410 412.5 416.1 419 421.4 423.4 425.1 430.1 428.8 443 450.3 456.4 456.4 452.8 447.2 432.5 428.5 429.1 429.6 430 431 440.1 448.3 449.8 441.8 441.2 447.9
221 218.5 217.4 215.9 213.8 211.7 208.3 207.2 206.6 207.3 209.7 212.3 214.9 216.3 216.7 216.3 215.2 214.2 214.4 214 214.2 213.7 213.7 213.4 213.3 213.1 213.1 213.7 215.1 215.4 216.3 215.8 215.8 214.7 212.9 204.8 193.9 184.6 184.8 187.6 189.7 192.9 195.1 198.7 198.9 199.2 199.8 203.2 207.4 210.4 212.5 212.6 212.8 213.6 215.3 214.7 212.6 207.2 202.9 194.7 184.5 180.2 175.2 170.7 166 161.2 156.9 153.8 147.5 144.5 143.2 145.5 144.7 144.9 144.8 143.8 144 142.4 143 142.8 142.2 142.2 142.7 141.9 142.2 142.3 142.4 142.5 142.7 142.9 142.7 142.9 142.5 142.3 143.9 145.2 145.8 147.2 148.9 150.5 150.7 152 152.6 153.1 153.7 153.5 155.4 156.3 156.8 157.3 157.5 157.5 157.7 157.7 158.1 158.4 158.3 158.3 159.4 160 159.8 160.8 160.8 162.3 162.2 164.3 166.2 170.1 174.1 178 184 188.8 193.5 201.3 207.9 218.7 229 233.6 238.1 241.5 246.6 252.3 259.5 264 266.3 269.3 275.1 286.5 299.8 313.8 328.1 344.4 358.2 368.7 379.5 384 389.7 396.4 403.3 410.5 414.4 422.9 433.1 437.7 441.5 439.9 431.3 422.6 415.8 413.2 410.7 410.2 410.1 410.2 411.9 416.4 418.4 423.2 429 434.9 437.3 442.7 459.4 468.5 469.6 467.8 460.5 445 437.2 435.2 434.9 435.7 435.1 437.5 450.5 452.8 445 441.7 441.6 439
221.8 219 217.7 215.8 214.1 211.7 208.7 207.1 206.6 208.9 212.4 215.1 218.2 220.1 220.9 218.9 217.4 216.1 215 215.3 213.6 213.3 212.9 213 212.6 212.5 212.8 213.5 214.6 216.1 216.4 216.4 216.4 216.2 213.8 205.2 194.8 184.2 182.4 184.3 186.4 189.1 192.4 195.9 197.1 197.1 196.7 198.6 202 205.3 208 210.4 212.7 214.3 217 216.2 213 206.3 200.9 191.5 184.4 179.9 175.6 171.2 166.6 162.2 158.1 154.3 147.9 143.9 143.3 144.2 144.1 144.3 144.3 142.6 142.5 141.9 141.9 141.8 141.8 141.5 141.7 142 142.2 142.1 142.2 142.4 142.6 142.8 142.7 143.2 143.6 144.7 146 148.2 149.8 151.7 153.3 154.7 154.2 153.7 156 157.2 157.4 156.7 157.4 157.7 158 158.3 158.1 158.4 159 158.7 158.3 158.3 158.3 158.4 159.1 158.6 158.8 160.5 162.5 163 163.8 165.4 167.6 171.3 174.1 179 184.9 190.4 196.4 205.1 213.4 224 234.2 239.3 243.7 247.6 251.6 259.6 265.1 268.3 269.8 273.6 278.6 292.1 304.2 320.7 337.8 353.5 365.6 376 387 390.2 397.8 407.9 417.3 423.2 424.5 431.3 438.3 441.6 445.4 441.2 436.3 428.3 420.9 415.5 412.3 410.6 410.6 411.2 412.9 415.3 417.8 424.7 430 435.9 438.7 453.7 469.8 478.1 476.2 472 458.9 447.3 442.4 440.8 439.9 439.3 446.5 444.3 449.5 449.6 441.1 439.6 437.2 432.1
224.4 220.9 218 215.8 213.7 210.9 208.9 207.3 208.4 212.2 214.6 217.8 222.4 225.9 226.3 226.8 220.9 217.8 215.7 214 214.1 214.1 213.3 213 211.9 210.7 210.9 212 213.3 214.3 214.8 214.9 214.6 214.6 208.3 202.9 195.6 185.8 179.9 181.6 183.7 186.3 188.8 192.6 194.8 195.3 194.9 195.8 198.1 201.8 206.2 210.2 212.8 215.1 216.5 215.9 211.1 203.6 196.8 191 185.4 179.6 174.7 170.5 165.5 161.5 158.3 154.6 146.7 143.3 143 144.6 143.3 144.8 143 142 141.5 141.7 141.6 141.6 141.6 141.7 141.9 142.1 142.1 141.8 141.9 142.3 142.5 142.7 141.2 143.6 147.5 152.9 155 156.5 157.1 156.9 158 159.6 159.9 160.4 160.2 160.3 159.7 158.8 158.5 158.5 158.8 158.4 158.5 158.8 158.8 158.3 158.6 158.9 159.8 160.3 160.5 159.6 161.1 161.7 163 163.6 164.1 165.9 169.8 173.5 177.4 182.5 188.4 194.8 202.4 209.4 218.1 226.8 236.5 243.2 247.5 253.8 258.3 264.5 269.1 271.6 273.4 275.9 282.1 295.7 308.4 325.8 344.3 357 364.5 375.4 387.1 398.9 410 419.9 426.2 429.7 430.6 436.9 439.5 442.4 441.8 442 439.7 432 422.9 416.8 411.5 411.2 412 411.9 413.9 416.4 419.6 422.7 429.4 438.1 446 459.1 471.7 479.1 479.2 469.8 456.8 452.7 451.4 444.1 443.6 444.2 451.4 450.3 449.2 444.1 439.7 438.2 429.9 426.6
226.5 222.7 220.4 216.8 213.6 210.6 208.1 208.1 211.9 214.9 218 224.2 227.9 232.1 235.1 232.1 226.9 221.4 216.7 214 214.7 214.6 214.2 213.4 212.7 212.1 210.8 208.9 209 210.2 210.5 210.6 210.9 208.8 203.9 199.5 194.4 186.8 177.9 178 181.3 183.6 185.3 189 191.5 193.4 193.1 193.6 193.7 198.5 204.7 208.8 211.5 214.3 214.7 213.9 210.2 205.1 195.1 189.2 184.1 178.3 174 169.5 164.3 160.9 158.1 153.6 145.7 142.7 143.4 143.7 142.6 142.9 142.6 141.5 141.5 141.6 141.5 141.5 141.6 141.6 141.8 142.2 142.2 141.6 141.7 142 142.4 142.5 146.5 157.1 162.7 167.1 169.5 165.8 164.3 162.8 163.2 163.7 164.6 165 165 163.3 162.6 161.9 161 160.7 160 159.4 159.5 159.5 159.8 159.9 159.9 161.5 162 162.8 163.1 163.8 163.9 164.1 163.8 164.5 165.6 168.9 173.7 175.9 180.3 186.4 194.2 201.6 207.8 215.2 224.4 231.9 237.7 243.7 252.3 258.4 263 268.4 272.2 275.2 276.8 279.7 286.5 299.6 313.6 331.4 348.4 357.7 361.4 376 391.9 407.4 417.3 426.3 431.7 434.9 435.4 440.6 444.3 445.6 441.9 440.5 439.1 435.1 426.2 415.9 412.2 412.2 412.8 414.4 415.3 420.3 420.6 422.5 430.8 442 452.1 468 477.3 479.2 470.3 464 460.2 458.8 453.8 447 446 445.9 449.5 450.2 447.3 440.4 438.8 430.8 425 420.8
226.4 224.5 221.3 216.7 212.9 209.3 208.7 211.2 214.6 220.1 226.5 231.6 236.1 239.8 241.1 238 237.5 231.3 219.8 216.9 215.6 215.5 214.9 214.3 213.3 212 210.9 208.1 205.1 201.3 203.1 203.7 203.2 201.6 197.6 196.4 192.6 187.5 179.5 175.7 178.2 181.1 183.9 185.7 187.6 189.9 190 190.3 191.7 195.1 201.8 206.4 209.9 212.6 213 213.4 212.9 209.9 197 187.8 183.2 176.7 172.3 167.9 164 160 156.4 151.1 144 142.4 143.6 144 142.5 141.9 141.6 141.5 141.5 141.5 141.4 141.4 141.6 142 141.6 142.3 142.4 142.2 141.3 142.2 143.2 155 162.9 169.9 176.7 178.4 180.9 180.4 178.4 175.2 172.6 170.4 170.6 173.2 170.7 167.7 168.4 167.6 165.9 165.4 161.7 163 163.3 161.6 161.8 161.6 162.6 164.8 166.7 166.8 166.3 166.6 166 166.4 165.4 165.6 167 173.2 176.4 179.4 188.2 195.6 203.4 209.5 215.5 223.3 229.6 234.5 241.9 249 258.7 264.1 266.3 270.2 275.1 279.7 282.9 286 290.8 305.3 321 337.1 346.3 353.1 362 377.1 393.4 408.1 421.6 430.8 434.3 438.2 440.9 441.3 442.6 442.9 441.6 440.4 439 435.3 427 416.6 412.9 413.4 414.6 420.8 425.4 431.3 423.1 424.9 436.9 448.3 465.4 476.1 478.9 473.6 467 464.4 462 460.4 455.1 450.4 448.1 447.3 451.1 449 441.9 440 434.9 422.8 417.6 413.5
225.9 223.6 219.7 214.8 211 209.2 210.3 213.5 220.2 227.5 232.4 238 242.8 245.2 245.3 245.7 243.3 237.1 226.9 219.1 215.2 215.2 214.7 213.3 212.5 210.8 208.6 206 203.4 199.7 197.3 196.4 195.6 195.2 193.7 192.4 190.4 186.3 179.8 175.4 175.3 176.6 180 182.3 185 186.7 187.6 188.6 190.1 193.5 199.3 204.4 208.4 211.7 214.8 216.2 217.6 213.4 200.4 191.5 183.5 176.7 172.3 167.2 163 157.5 153.3 146.2 142.4 141.6 142.4 141.9 141.7 141.8 141.7 141.6 141.5 141.4 141.3 141.4 141.5 141.7 141.5 142.3 142.8 142.8 144.4 147 156.1 163.2 172.2 181.4 184.8 187 189.5 189.8 191.3 190.7 187 187.1 186.8 184.6 182.3 178.1 174.7 173.4 172.2 171.4 172.5 173.1 171.5 168.4 165.8 167.3 170.3 170.9 170.2 169.7 169.1 167.9 166.7 166.7 166.7 168.5 170.9 175.2 179 182.5 192.9 200.4 207.8 213.4 219.9 226.8 232.5 238.8 245.1 250.8 260.6 266.1 269.4 272.9 277.8 282.3 286.8 290.6 298.4 309.8 320 330.4 341.1 350.4 360 376.1 393.9 409.8 419.6 426.5 433.1 438.1 439.3 441 440.4 438.1 436.7 437.7 436 430.7 424.7 421.8 417.2 416.2 419.5 427.3 435.7 437.9 430.5 434.4 446.2 458.7 473.8 479.4 477.8 467.5 467.4 466.2 465.7 462.4 457.5 453.6 450.6 453.9 455.7 447 443.3 444 427.4 416.8 412.7 409.1
222.3 218.6 214.5 211.2 208.9 209.6 213.1 219.4 228.8 233.4 239.9 244.6 247.5 249.1 250.1 249.4 246.5 241.2 229.7 221.8 218.1 214.9 213.3 212.7 210.7 209 206.3 203.8 200.5 198.5 196.4 193.5 192 192.3 190.2 189.5 188.1 185.6 179.6 175.3 175.3 175.4 177.2 179.8 181.5 183.2 185.5 187.2 188.5 191.8 198.3 204.4 209 213.9 217.5 220.4 220.9 214.7 204.7 195.4 184.5 176.5 170.5 165.7 161.1 152.5 149.4 146 143.3 142 141.8 141.4 141.5 141.7 141.8 141.7 141.6 141.4 141.3 141.6 141.8 140.7 141.9 142.1 143 143.4 145.5 154.1 160.1 169.5 179 185 189.7 193.6 195.4 197.7 201.7 200 200.6 201.7 198.4 195.4 190.1 185.2 180.7 179.9 178.8 179 181.6 180.3 178.9 176.8 176 176.8 176.3 174.5 172.6 170.9 169.5 167.9 167.6 168.1 168.3 168.6 172.6 177.4 181.1 187.1 194.2 201.9 208.7 214.5 222.8 231.3 237.1 241.3 246.2 253.6 260.6 268.1 274.5 277.5 282.9 288.5 294.7 299.4 305.4 310 316.7 324.1 334.9 350 362.4 377.5 394.3 404.3 412.9 420.3 426.9 431.7 435.3 437.3 437.1 436.1 431.6 429.9 428.2 420.4 420.7 420.9 420.5 424.7 425.3 432.6 440.4 437 437.1 441.5 450.4 467.9 476 477.1 467.4 468.2 469.2 470.5 470.3 469.3 463.1 458.1 460.2 460.6 456.1 446.3 442.8 433.1 419.4 412.5 409 405.4
215.7 210.8 208.2 205.7 206.2 212.1 218 228.9 235.2 240 246 249 251.1 253.4 255.6 253.1 249.3 243.4 234.7 227.2 220 217.2 215.3 212.2 210 208.7 206.3 203.8 202.3 199.4 196.3 193.9 191.9 188.4 187.2 185.5 182.8 179.3 177.3 176.7 174.7 172.7 174 176.8 178.4 181.1 184.2 185.3 185.7 191.1 197.2 203.7 209.7 215.9 220.2 222.8 221 217.6 212.7 201.6 187.8 177.5 171.6 162.7 158.6 149.7 146.5 145.5 142.4 142.4 142.2 141.8 141.7 141.5 141.7 141.8 141.7 141.4 141.7 141.5 141.5 141.4 142 141.9 143.1 144.1 149.2 155.7 160.8 172.3 180.8 188.6 193.8 197.4 200.1 201.8 203.6 204.7 203.8 204.5 204.4 198.7 192.9 191.4 188.5 186.6 185.4 188.3 188.7 186.8 186 185.1 182.5 182.3 180.9 178.7 174 172.2 170.5 170 170.2 170.2 171.2 172.1 174.4 177.7 182.6 186.9 193.2 202.6 209 217.4 227.3 234.9 241.6 245.5 249.3 254 259.7 265.5 272.1 278.5 284.4 289.5 294.9 299.8 303.8 308.4 315.3 321.3 334.5 348.5 361.1 378.4 392 401.2 407.2 412.8 416.7 421.3 425.4 426.4 426.8 423.3 420.7 418.6 412.4 412.8 413.7 414.9 422.8 430.3 437.4 441.8 447.5 440.5 441 446.5 458.1 467.6 468 461.6 463.8 468.6 466.9 468.8 469.6 470.8 470 462.6 462.8 457.2 448.2 443.2 431.3 422.1 416.5 410.5 406.2 399.8
208.2 203.8 202.8 204.4 210.3 218.7 226.7 234 239.1 245 248.8 251.3 253.4 256.1 255.6 253.5 250 243.8 238.8 232.5 226.4 221.4 218.1 216.2 214 211.2 209.3 207.5 205.2 200.2 196.9 193.5 191.8 190.2 189.7 187.9 185.9 183.4 180.3 177.4 174.8 173.3 172.5 173.4 175 178.1 181.1 182.3 184 189 194.2 202.9 210.8 215.9 220.9 222.8 222.3 221.5 216.3 204.6 192.8 180.7 169.3 161.6 157.6 150.2 146 143 141.9 142.3 141.7 141.3 141.3 141.5 141.6 141.9 141.9 142.1 142.5 142.3 142 141.8 141.9 142.1 144.3 145.9 152.1 156.1 160.9 171.4 183.6 189.4 194.3 196.8 198.4 200.8 201.8 200.9 200.8 202.8 200.8 197.3 195.8 196 194.7 191.6 192.4 195.6 194.6 195.1 194.5 192 190 187.8 186 183.5 179 174.9 174.8 173.2 172.5 172.1 172.6 173.6 175.2 178 182.9 186.4 191.4 201.5 209.4 217.3 229.6 237.7 244.5 249.2 252 254.8 259.7 264.9 270.2 275.7 282.3 289 294 299.4 304.6 308.6 315.3 320.9 332.5 345.8 361.8 377 389.8 391.5 396.8 399.6 403.7 407.2 408.1 410.8 411.2 412.9 415.2 408 404 406.6 409.9 417.7 421.5 432 440.5 447.2 450 449.2 447 453.5 456.6 457.4 452.7 457.6 461.1 459.4 459.9 458.3 462.4 467.3 465 458.9 452.2 444.9 437.6 429.1 426.1 422.9 415.3 410.5 405.4 399.2
200.5 200.4 202 208 216.9 224.3 232.3 237.1 241.9 246.4 250 252.7 254.8 255.6 254.7 251.7 247 242 238.1 233.9 229.6 225.1 221.5 218.3 217.6 216.2 213.6 211.2 207.8 204.5 198.2 195.2 193.2 193.6 192.7 190.7 188.5 185.6 182.6 178.2 175.7 173 171.3 171.9 171.3 174.8 177.8 180.2 182.3 185.8 193.2 201.8 209.4 215.8 219.8 222.3 225.1 222.3 215.6 207.2 198.1 186 172.7 161.3 156.2 149.6 144.4 143 142 141.6 141.4 141.3 141.8 141.6 141.7 142 142.3 142.6 142.5 142.3 142.3 142.3 142.2 142.2 144.6 145.7 152.7 156.8 161.1 170.1 179.5 185.3 187.3 190.2 193.5 196.9 197.9 199.1 200.6 200.3 199.8 199.5 198.7 200.6 199.3 197.8 199.9 202.6 203.7 202.5 199.9 197.3 195.4 194.2 191.6 189.4 185.2 181.4 178 175.3 173.2 172.2 172 173.5 175.9 178.6 180.7 184.1 188.8 196.3 204.5 217.5 228.1 238.9 247.4 251 253.9 256.2 259.6 264.1 268 274.6 281.1 290.9 296.3 301.4 308.8 312 319.4 328.2 337.8 347.3 356.2 367.5 376.7 380.4 384.3 387.8 391.8 394.3 395 396.5 398.3 400.5 399.7 396.8 399.3 404.2 409.6 417.3 428.1 441.9 444.8 453.1 454.7 453.1 446.2 449.9 451.5 448.1 450.1 458.5 457.6 454.6 455.2 452.8 449 450.9 447 440.7 433.2 427.9 426.9 426.4 427.7 418.1 412.1 408 401.8 393.4
198.1 200.5 203.1 213 221.8 228.5 234.9 239.2 243.6 246.7 250 252.7 254.7 254.8 252.7 248.6 244.5 240.3 236.7 233.4 229.5 226 224.4 222.6 221.2 219.5 218.2 216.6 215.3 207.4 201.1 199 198 196.5 194 191.8 189.5 187.5 184.8 181 177.3 174 171.5 170.6 171.5 173.6 175.9 178 181.4 185.4 191.3 199.8 208.1 214.8 218.9 221.6 222.1 219.8 213.5 208.1 201 188 172.3 161.8 154.7 147.3 145.2 143.3 142.9 142.9 143.1 142.7 141.9 141.7 141.6 142.1 142.4 142.3 141.9 141.5 140.7 141.8 141.7 141.1 142.2 145 151.6 155.4 159.6 164.7 171.4 176.2 180.4 186.1 190.4 193.3 195.5 196.8 199.6 201.8 202.9 202.1 202.2 202 202.3 205.3 208.6 209.4 207.5 204.3 202 200.3 199 197.1 194.3 191.7 188.9 184.3 178.6 174.1 172.3 172.6 172.9 173.8 175.4 177.1 178.6 181.8 183.7 190.9 202.8 213.3 225.4 239 243.8 248.5 252.6 256.5 259.4 262.5 266.7 272.6 287.2 295.1 307.7 309.7 317.9 325.3 327.6 334.8 343.7 352.3 360.2 369.6 376.1 379.7 383.2 385.9 388.6 390.6 389.6 388.4 387.2 387.6 388.7 392.3 397.2 404.3 411.3 420 432.4 443.5 447.3 447.7 443.7 439.5 441.6 445.3 443.3 446.6 449.8 453.9 455.4 453.1 452 445.6 440.5 436 429.1 423.5 419.8 418.3 420.3 422.5 416.2 412.2 409.2 403.2 393.7 385.4
197.3 200.8 206 215.9 224 230.5 235.8 240.4 244.5 247.3 249.7 252.8 253.6 251.4 248.8 244.4 240.3 237 234.3 231 228.4 225.5 224.2 222.4 221.4 220.1 218.8 218.2 218.2 204.8 202.3 201.7 200.4 198.3 194.6 192.5 190.3 187.6 185.8 182.8 180 175.9 171.6 169.4 171.1 171.8 174.8 178 181.5 184.5 190.6 198.1 205.9 210.9 215 217.6 218.2 215.4 212.4 207.6 196.6 180.7 170.8 160.9 150.7 147.9 146.1 144.2 144.4 144.8 146 144.6 142.7 142.1 141.7 141.8 142 142 141.8 141.7 141.6 141.7 141.4 141.1 141.6 143.2 148.6 154.5 158 160.9 164.7 170.1 177.4 184.1 187.9 192 197.8 201.5 203.7 205.3 206.4 204.4 203 203.9 206.5 212.3 214.1 212.3 207.6 206.1 203.7 202.6 200.8 197.6 194.5 192 187.8 180.4 175.2 173.2 172.5 172.6 172.2 173.4 174.1 175.1 176.2 177.6 180.2 184.4 195.3 209.9 221.2 229.4 236.1 244.2 250.1 252.7 255.8 260.1 266.7 280.4 288.5 305.7 314.1 321 324.8 329.2 333.6 341.3 351.2 363.4 370.4 375.7 378.1 381.6 383.6 385.9 388.3 387.7 385.4 383.4 384.1 385 388.2 391.9 397.1 405.2 411.9 421.3 432.9 436.4 441.1 436.2 433.5 434 433.4 434.6 436.1 447.7 453.3 456.7 459.2 453.5 444.4 435.8 431.4 426.3 419 413 411.4 411.7 412.4 412.7 413.4 413.9 409.7 398.5 386.3 375.3
197.4 200.2 211.1 217.4 224 230.3 235.8 240.4 243.9 247.2 249 250.2 248.7 246.5 243.3 239.1 235.6 232.7 230 229 226.1 225 223.3 220.8 220.3 219.2 217.1 214.4 208.9 203.4 203.3 203.2 201.7 200 198.7 196 191.2 187.7 185.5 182.9 179.9 175.1 170.4 168.6 170 170.9 174.6 178.2 181 184.3 188.3 194.6 200 205.2 208.7 209.9 211.3 208.9 208.6 200.3 185.5 175.2 163.9 154.4 150 149 148.1 147.3 147.7 148.4 148.8 148.3 146.7 144.4 142.7 142.4 141.7 141.7 141.5 141.5 141.3 140.6 142 141.5 140.8 141.9 145.8 154.2 157 159.7 163.3 168 175 182.4 189.8 194.8 199.3 203.1 206.6 208.3 206.4 203.7 206.7 209.8 214.7 216.7 215.4 210.7 209.3 205.8 203.4 201.9 199.3 195.8 192.9 190.1 181.6 175.3 173.2 172.2 171.8 171.6 171.4 170.7 171 170 170.9 172.7 178.5 181.7 189.4 202.2 213.5 221.3 230.3 238.6 241.9 244.4 249.7 255.2 271.1 285.1 305.6 317.9 318.1 327 328.8 334 338.4 346.6 358.9 368.9 378.2 384.9 380.3 381.6 384.3 386.3 386.2 384.7 379.9 379.5 381.6 383.7 386.8 391.3 397 406.4 414.1 418.9 425.6 430 429.4 428 425.7 424.5 422.7 423.5 432.4 444.4 453.5 460.9 463.1 455.4 440.1 432 427.4 419.2 411.8 409.7 408.9 408.7 409.3 411.5 412.7 411.1 403.4 392.7 379.4 366.1
197.5 200.8 208.9 217 223.5 228.7 234.7 238.7 241.9 244.2 244.8 244.7 243.6 240.9 237.3 233.4 229.2 228 226.4 225.8 224.4 222.3 220.4 218.7 216.4 214.5 212.2 206.7 202.1 201.8 202 202.4 201.8 200.6 197.8 194.9 189.4 187.3 185.3 182.5 178.9 174.7 170.4 168.7 168.6 170.5 174.3 176.8 179.3 180.7 184.3 188.7 193.8 198.8 201.5 204.7 205 202.8 197 186.8 176.4 167.5 157.4 151.9 153.8 153.5 154.1 153.9 153.2 152.5 152.5 152.4 151.3 149.1 145.8 143 141.9 141.5 141.5 140.6 141 141.3 140.7 141.4 141 142.5 145.1 153.8 155.4 158.6 162 166.4 172.9 182.8 188.4 193.2 198.1 202.3 206 206.4 203.3 204.7 206.9 211.6 214.8 213.6 208.6 208.1 206.9 204.1 202.9 200.4 195.7 191.1 185.3 180.8 171.4 171.2 170.4 170 170 169.2 167.6 167.9 169.6 170.2 169.9 171.5 173.9 180 184.1 190.5 202.1 213.1 223.7 224.5 228.6 232.4 236.8 251.9 268.1 289.3 314.9 316.7 322.6 330.8 330.6 338.6 343.3 353.4 363.5 373 383.9 388.2 379.7 381.1 383.3 383 382.8 379.7 376.7 378.5 381.6 384 386 390.1 396.3 405.2 414.2 419.1 423.6 424.1 423.1 419.9 417.9 417.1 417.4 419.9 431.6 446 456.7 459.7 458.4 446.2 435.9 430.4 423.2 412.2 407.6 405.8 406.3 406 406.9 409.9 411 402.4 391.9 383.5 369.7 351.2
200.1 203.1 206.9 213.5 220.7 227.4 233.1 236.8 239.1 240.2 240.6 240.2 238.4 234.8 231.2 229.4 228.8 225.7 224 223.2 221.9 220.1 217.2 214.8 210.5 207.5 204.8 202.1 200.3 199.8 199.7 199.3 198.7 197.7 195.6 192.1 189.9 186.8 183.5 180.8 178.1 173.2 170.5 168.9 168.4 170 173.6 175.4 176.7 177.5 179.5 183.8 188.6 191.4 195.9 198.3 194.7 191.7 183.2 176.4 168.9 161.3 153 156.2 161.4 164.1 166.1 166.9 165.2 162.9 159.8 157.7 155.2 152.4 149.9 146.9 143.8 142.3 141.3 140.9 140.9 141.1 141.4 142 141.4 141.2 147.4 150.2 153.6 156.8 160.6 165.9 172.5 179.4 186.3 192.8 197.4 201.1 202.9 200.5 200.8 202.1 207 210.9 211.7 205.4 204.2 204.6 202.2 200.9 198.8 194 190 182.5 176.4 170.9 169.2 167.6 166.7 166.3 166.8 166.9 166.3 168.3 168.8 171 171.6 171.7 172.8 176.9 182.6 186.8 195.2 203.4 206.3 210.9 215.4 222 228.2 242.2 265 289.1 307.1 314.8 320 320.8 327.2 335 346.6 358.2 368.5 377.4 383.2 381.5 378.2 378.2 378.8 380.2 379 374.3 374.3 378.3 381.8 384.5 385.8 390.9 397.2 403.3 408.3 417.3 419.5 418.3 414.6 412.9 413.3 414 415 423 434.4 445.2 454 456.9 453.1 442.9 435.9 428.9 412.8 405.2 403.2 401.1 402 401.9 403.7 405 398.9 388.4 380.8 370.2 351.2 340
201.1 203.3 205.4 210.8 217.4 224.2 229 233.4 235.3 235.9 236 234.5 231.6 231 229.5 228.3 226.1 224.7 223.7 222.1 220.4 218.5 217.3 214.1 210.9 208.5 203.4 201.5 199.5 198 197.4 196.7 196.2 194.9 193.2 190.5 188.1 183.2 179.5 178.2 174.5 172.2 170.2 168.5 168.5 169.8 173 173.8 173.7 173.2 174.4 178.7 182.9 184 185.4 182.5 179.4 176 173.3 166.4 160.5 156.2 156.8 164.5 171.4 176.5 179.2 179.3 173.4 170.2 165.9 162.5 160 156.7 153.5 149.7 146.9 145.3 142.4 141.6 141.3 141.2 141.3 140.7 141.2 141.2 142 146.7 150.9 155.2 160 164.2 170.1 174.4 180.3 189.9 192.8 195.3 197.1 197.6 196.8 201.9 205.2 206.5 203.2 198.5 198 196.4 194.7 192.7 190.3 187.7 183 174.2 170.8 167.9 167.4 165.3 164.3 164.3 165.7 166.6 167.1 168 171.1 171.8 173.8 179.3 172.4 172.6 175.1 182.4 186 188.8 193.4 198.6 204.9 214.5 221.5 236.2 257.7 281.1 291.8 302.5 313.3 318.7 329.6 336.4 342.7 350.5 360.6 372.8 376.9 373.9 371.9 372.7 375.3 376.3 373.4 371.8 374.3 378.4 381.7 384.7 387.8 393.1 396.3 399 399.2 401.3 405.8 408.6 407.7 408.4 409.8 411.3 414.8 428.5 434.8 447.1 452.8 452.1 448 443 435.5 421.4 408.6 402.5 400.2 397.1 396.3 395.8 393.9 389.5 381.8 371.8 361.1 347.6 338.1 330.2
201.1 203 206.8 209.4 214.7 222 225.9 228.8 230.3 230 229.8 230.8 231 231.8 230.4 226.5 225.3 225.3 225.1 223.7 222 220.5 218.7 217 217.6 208.8 204.6 203 200.1 197.1 195.4 194.4 193.4 191.8 190.4 187.9 182.9 180.2 178.3 176 173.5 171.6 170.3 167.7 169.2 170.8 171.4 171.1 171.3 170.2 170.4 172.6 175.5 174.9 172.8 171.9 170.1 167.5 163.1 159.5 159.7 158.7 168.8 172.2 176.2 187 192.8 193.5 188 179.9 168.5 166.5 165.1 161.2 157.2 153.3 149.5 147.8 145.3 142.2 141.8 140.9 141.1 141.5 141.5 141.4 140.4 143.4 146.8 152.9 157.4 162.5 168 172.9 176.8 182.6 185.4 191 191.2 189.9 192 197.1 196.9 195.2 191.6 190.3 188.6 187.3 185.2 183.6 181.9 177.2 170.1 168.2 168.1 166.9 165.8 163.7 163.7 164.6 167 169.8 169.7 170.1 170.8 172.9 173.7 178 177.8 175.1 174.7 173.8 181.9 185.1 188.1 191.3 195.7 202 209.8 223.3 241.5 262.7 276.3 300.1 302.7 311.6 324.9 334.7 346.5 356.2 362.6 360.2 361 362.3 365.7 368.9 371.3 370.1 368.4 371.3 375.8 380.9 382.1 385 387.8 389.6 391.7 389.9 385.4 389.7 394.6 399.1 401.3 404.2 406.6 408.6 418.6 427.4 434.2 443 448.7 447.4 443.6 437.1 427.4 417.7 404.8 400.6 397.9 394.3 391.9 389.6 384.9 376.5 366.9 357.2 345.2 333.5 326.4 326.5
200 201.7 206.9 210.9 217 221.5 224.3 224.9 226 227.2 228.7 231.4 232.8 233.3 230.9 229 227.8 228.1 228.5 228 226.7 227.3 228.8 229 226.1 214.9 209.5 206.2 203.3 201.9 197.7 195.3 193.2 190.1 187.9 184.1 181.5 179.9 177.6 175 172.3 169.5 168.2 166.6 169.8 170.8 169.6 168.2 167.6 166.9 167.7 168.9 173.4 168.9 163.8 165.1 162.1 159.7 157.6 158.7 162.5 169.8 174.8 181 188.8 198.3 203.4 204 199.3 192.5 178.7 171.3 169.9 168.6 163.8 158.2 152.7 151.5 148.1 143.5 142.2 141.3 141 141.4 141.5 141.2 140.8 141.4 144.2 149.5 154.6 159.2 164.1 167.1 171.1 175.1 175.2 182.9 183.4 182.3 187.4 188.6 185.3 184.7 182.4 181.5 180 178 175.4 173.8 170.9 167.9 166.8 165.6 165.7 162.8 162.6 162.9 163.9 166.9 168.3 170.7 171.9 175.4 176.4 177.1 176.3 176.4 178.8 178.7 177.8 176.4 175.4 182.4 185.7 188.1 191.2 193.7 201.1 210.8 223.5 239.8 254 281.3 290.2 310.6 321 334.4 343.5 347.1 342.5 344 346.8 352.1 361.6 364.8 365.5 363.6 368.2 373.9 382 382.3 382.9 383.6 385.7 384.3 377.5 373.8 379.8 386.9 395.9 397.8 399.9 401.2 403.4 407.5 416 428.4 433 437.1 438.5 443 435.8 428.2 422.5 415.6 404.2 399.3 396.7 393.7 389.6 381.6 376 367.4 356.5 345.8 331.6 324.2 320.5 322.5
198.2 201.2 207.2 212.4 216.2 218.5 219.9 222.6 225.1 227.7 229.8 232.2 234 233.1 230.3 230.6 231.5 232.3 232.3 232.9 233.2 234.8 235.1 232.4 228.1 223 221.2 218.9 217.6 211.8 208.8 204.3 198.5 195.5 192.6 188.3 186.4 182.9 181.2 178.7 175.8 172.3 167.4 166.3 169.6 170.2 168.4 166.1 163.3 163.8 164.4 164.3 162 160.1 159.8 158.4 158.5 157.6 160.4 165.3 170.9 182.4 191.1 193.3 198.5 205.1 210.6 209.1 208.4 202.9 192.3 182.2 178.8 175.6 172.5 165.8 158.5 155.2 151 147 143 141.2 140.8 140.8 140.9 141.4 140.9 141.3 142.5 145.7 151.8 156.7 161 162.5 164.7 167.3 170.7 173.3 174.5 176.8 177.1 176.8 175.9 174.6 173.5 172.7 172.4 170.3 169.6 168.2 165.9 164.8 164.6 164.4 161.1 161.6 162.1 165.6 169.4 170.5 170.6 173.1 176.9 177 178.7 179.6 179.9 179.9 179.5 180.3 181.2 179.2 176.3 178.9 183.5 185.3 187.9 190.6 193.8 199.5 209.1 221.3 231.9 248.5 269.2 290.9 314.2 333.3 332 330.2 330.4 335.2 340.7 349 354.5 356 353.6 361.7 368.7 377.7 381.8 381.3 379.7 377.8 375.9 365.7 363 369.3 382.5 392.8 395 396.5 397.3 398.8 401.3 406.6 414.2 422.8 430.3 434.9 437.9 431.7 425.6 421.6 417.8 407.7 400.5 398.5 396.2 391.5 383.7 374.4 363.5 357.7 348.2 333.9 322.3 318.4 315.5 318.2
199 202.7 207.9 211.2 212.9 214.9 217.5 220.3 223.6 225.1 228 231.9 232.9 230.8 231.2 233.2 235.1 235.9 236.6 237.4 237.6 238.5 239.7 234.4 230.2 228.9 227.6 225.9 225.6 223.3 218.6 213.8 212 211.1 208 203.8 201.1 199.5 192.5 192.8 188.8 177.4 170.1 163.6 167.4 167.6 165.8 163.1 160.6 160.4 161.4 160.1 157.8 156.9 156.3 156.3 156.6 159.3 164.4 172.5 180.5 187.3 192.3 197.7 204.9 209.7 213.9 213.6 213.7 210 202.4 191.5 184.2 180.4 176.1 170.3 163.1 157.5 152.5 149.1 145.3 139.7 140.8 141.1 141 141 141 141.1 142.1 145.7 151.2 154.6 157.4 160.2 162.1 164.3 165.5 166.7 169.4 171 170.6 170.4 170.4 170 168.3 168.9 168.1 167.3 164.8 164 163.3 163.2 158.9 160.6 160.5 162.7 164.8 168.1 169.9 171 173 175.9 179.6 179.1 180.2 180.5 181.9 181.8 181.6 181.1 181.8 180.8 176.8 175.8 180.8 182.8 184.6 188.6 190.9 193.4 197.7 203.7 212.5 226.7 249.1 277.8 316.8 320.5 316.5 316.4 319.4 326.1 336.1 344.7 342.4 342.6 351.5 360.4 370.9 376.7 379.4 378.9 374.5 366.1 356.2 354.2 358.7 372.9 388.5 393.4 393.2 393.7 396 396.9 399.7 408.1 411.8 417.4 420.6 430.2 430.1 425.7 417.8 410.8 405.2 398.7 395.8 394.6 392 383 372.2 364.7 357.7 343.6 334.1 321.4 317.3 314.8 313.2 316.1
195.8 201.4 204.1 207 209.1 212.2 215.3 217.5 218.6 221.1 226.3 230.3 230.3 231.4 233.2 235.6 238 239.1 239.3 240.2 240.6 239.7 238.2 235.3 233.4 232.7 232 231.7 231.2 228.5 228 224.6 220.5 218 215.5 213.5 212.6 209.4 205.9 204.7 198 185.4 172 163.6 163.5 164.6 163.1 161.4 159.7 159.6 158.3 157.2 155.6 155.6 155.6 155.8 156.5 160.3 165.9 172.6 181.3 186.5 192.3 199.6 207.7 212.1 215.8 217.4 218.2 215.3 208.3 200.2 192.4 184.8 178.3 171 165.3 159.3 153 149.7 147.1 140.8 140.9 140.5 141.3 141.2 141.2 141 142.8 145 150.4 152.8 155.2 157.8 159.4 161.5 163.4 164.8 166.3 166.9 167 167 166.3 165.8 165.5 165.1 164.7 163.7 162 161.4 160.9 159.1 159.5 160 163 164.7 166.7 168.9 170.5 171.8 173.1 175.8 178.8 180.9 181.6 183.1 184 183.2 183.9 183.6 185.1 184.3 179.7 178.2 178.6 178 180 184.7 187.7 190.5 192.3 194.5 198.9 213 234.9 266.5 302.1 301.4 299.1 302.7 306.9 316.6 330.3 327.9 328.5 334.9 344.8 356 363.2 369.6 373.5 372.3 365.9 353.9 349 351.4 364.2 372.5 386.4 388.8 390.3 392.9 394.9 396.6 403.8 407.3 411.7 415 421.1 423.9 426.7 422.2 414.5 401.9 394.7 391.3 389.2 384.2 376.4 369 361.3 355.1 348.5 334.5 319.8 315.5 313 311.2 309.5 313.8
194.1 198.3 200.6 202.5 205.7 209.2 210.5 212.3 213.3 218.6 224.2 226.8 229.3 232.6 235.2 237.7 241.4 242.4 241.8 242.4 241.6 240.2 238.5 237.8 237.5 235.5 235 234.8 233.7 232.7 229.4 227.2 224.9 222.6 220.3 218.8 216.6 215.3 214 211.2 203.5 189.2 172.2 167.5 164.7 162.2 160 160.8 159.7 158.2 157.1 156.7 155.3 154.8 155.1 155.4 156.2 160.9 166.9 175.3 181.2 186.5 194.7 201.3 208.2 213.4 216.8 218.9 219 217.4 212.3 203.1 197.3 190.5 183.2 173.4 169.6 161.2 155.4 150.8 146.3 141.1 140.8 141 141.2 141.3 141.5 141.7 143.2 145.1 148 150.4 152.6 154.5 157.2 158.8 160.7 161.9 162.8 162.8 163.3 163.4 163.5 162.1 160.9 160.5 160.4 159.9 158.5 158.1 158.3 158.3 159.2 161.1 163.8 165.7 167.6 169.1 171.3 173.3 175.6 178.2 180.3 182.2 185.3 187.3 186.9 186.5 185.3 186.1 188 187.4 182.8 180.7 179.8 180.1 180.8 180.2 180.8 184.7 185.4 188.1 191.9 200.4 220.6 244.2 269.7 277.3 282.8 288.3 294 305.1 306.4 309.8 317.3 326.7 340.4 339.5 350.3 358.9 362.4 359.8 351.4 344.6 344.6 348.8 359.9 372.9 379.4 381.7 384.6 393.6 395.2 406.2 411.6 413.4 415.3 422 420.5 425.5 420.3 417.5 406.8 394.9 385.1 381.5 377.3 369.5 361.2 355.9 348.9 344.5 336.9 317.9 314.2 311.5 310.2 309 303.7 303
193.1 195.3 198 200.3 203.1 204.7 206.4 208.9 212.4 216.5 221.8 227 230.4 234.9 238.1 242.5 243.1 243.5 244.1 243.3 242.2 241.4 241.3 241.4 239.9 238.4 237.5 235.8 233.7 231.2 229.2 228.8 228.5 226.9 222.5 220.6 219.9 219.3 217.9 214.8 206.3 187.2 172.4 167.2 164.6 161.9 159.3 158.3 158.8 157.6 157.2 158 155.2 154.7 154.8 155.3 156.7 162.6 169.8 176.9 181.9 187.9 195.9 202.7 207.5 211.7 214.1 215.8 216.6 214.6 209.3 202.7 199.4 196.2 191 181.6 169.3 164.5 156.8 151.5 145.4 140.9 140.6 140.8 141.2 141.2 141.7 142.1 143.6 144.5 145.1 145.7 146.4 147.2 151.8 156.3 157.7 158.4 158.9 158.3 157.8 155.9 153.2 154.3 154.8 154.5 154.8 155.5 156.1 157.6 157.9 159.8 161.7 163.5 163 166.3 168.8 170 172.3 175 178.2 181.5 185.9 189 189.9 191.1 190.8 190 188.2 187.4 188.5 189.3 186 182.6 181.1 180.6 181.4 182.1 182.4 183 183.9 186.3 186.9 194.8 207.4 223.3 239.7 250.2 258.2 268.5 268.6 275.4 284.3 291 302.3 311.7 309.1 316.6 328.4 347.1 350.8 343 337.8 338.2 338.3 344.8 357.6 365.2 368.6 372.6 386.3 393.2 402.3 410.2 417.6 419.3 421.4 417 416.5 412.2 409.6 403 396.9 383.5 376.7 372.7 366.4 357.7 348.8 344.1 338.7 333.2 318.5 314.7 313.3 310.5 303 299.5 296 303
190.7 193.7 196 198.4 200.7 202.8 205.9 210.1 214.7 221.2 224.8 229 233.7 237.8 240.2 243.6 244.8 243.5 243.4 242.8 242 242.6 243.2 242.7 241.9 240.9 239.2 235.8 231.7 229.4 227.9 227.6 227.6 226.6 223.6 223.2 223.8 222.4 219.4 213.9 205 186.7 171.1 166.6 163.6 160.9 158.2 157.8 158.4 157.8 157 157.8 157.9 154.7 154.7 155.9 157.7 164.3 172.4 177.1 182.4 189.5 197.6 202.8 207.1 209.7 211.2 212.6 213.4 211.7 204.7 202.1 202.2 199.6 194.9 187.6 175.8 164.4 159.2 152.2 145.6 140.6 140.5 141 141.4 142 142.5 142.7 143.6 143.8 144.6 145.5 146.4 146.6 147.4 151.2 154.3 155.1 154.1 152.9 150.9 151.3 152.2 153.2 153 153 155 156.1 156.1 157 159.4 162 163.6 163.3 165.8 167.6 170 172.7 174.3 176.9 180.9 186.6 190.9 194.7 196.2 194.9 194.1 192.5 191.3 188.8 189.2 191.1 189.7 186.6 185.6 182.1 182.4 183.1 183.6 184.2 184.7 186.6 187.4 189.5 197 205.7 218.5 228.9 233.2 240.5 243.6 252.6 266.5 274.5 273.8 277.9 281.6 290.6 310.2 314.8 315.9 321 328.2 328.4 328.9 337.5 345.4 351.5 362.6 375.2 385.2 392.6 402.6 416.4 423.5 427.7 417.9 409.3 405.2 401.3 394.9 390 380.3 372.3 368.2 362 352.3 341.9 337.8 334.7 329.5 321.8 315.4 313 310.8 309.3 308.1 296.8 300.9 309.8
190 192.2 194.3 196.7 199.4 202.5 207.1 214.5 219.1 222.6 227.2 231.2 235.1 238 241.4 243.4 243.7 242.8 241.9 241.2 242 243.1 243.1 242.9 242.7 241.7 241 237 228 224.4 223.5 223.5 224.4 225.2 225.7 226.9 226.6 221.6 217.3 211.6 203 188 167.7 165.2 162.4 159.6 156.1 157.7 158 156.7 156.2 155.9 156.5 156.2 155 157 159.5 164.8 171.9 179.8 187.1 192.7 198.2 203.5 206.8 208.3 208.8 208.8 208.8 207.3 203.8 204.6 204.3 200.1 196.4 191.6 184.5 171.3 162.4 155 146.5 140.8 140.2 141.1 141.7 142.3 143.4 142.6 142.9 143.6 145 145.9 146.9 146.7 146.7 147.6 147.9 149 149.7 149.5 150.6 151.6 150.9 152.9 153.5 153.6 154.5 159.6 158 159.7 161.2 162.2 163.9 165.5 167.2 169.9 171.6 175.9 180.1 182.4 186.7 192.8 196.9 201.1 201.7 200.4 198.3 196.6 194.1 193.2 192.1 193.1 195.3 194.5 192.3 189.9 185 183.8 184.7 184.7 185.6 185.8 187.9 188.6 191.3 195.1 199.7 205 211.1 215.2 222.7 231.7 236.6 239.7 243.5 244.6 254.1 265.2 271.9 281.8 291.8 300.4 311.1 310.4 318.6 322.3 331.1 342.2 358.8 374.6 385.5 394.4 408.6 418.4 426.1 426.1 412.7 400 392.9 385.2 380.7 372.2 366.8 363.4 353.7 345.3 336.9 330.9 329.2 326.8 321.2 316.5 311.8 310.4 310.1 309.3 308.9 296.7 301.4 309.5
187.1 190.4 192.3 196 200.6 204.9 209.7 215.6 220.9 225.2 229.1 232.4 236.7 239.4 240.9 241.6 240.9 240.5 240.4 241.4 243 243.7 243.4 243.8 244.2 242.9 240.2 232.1 226.9 217.9 213.6 216.3 218.2 221.7 224.2 226.6 224.5 218.4 213.6 208.9 201 190.2 169 164.3 161.8 159.1 155.4 157.2 157 156.5 155.6 154.5 154.5 154.8 155.1 158 161.6 165.3 172.2 183.5 189.4 195.1 200.3 203.5 206.9 207.7 205.8 204.3 205.1 205 204.3 204.6 202.6 199.4 196.4 193.3 186.5 177.2 170.2 158.3 149.3 140.9 140.4 141.1 140.9 142.3 142.5 143.2 144.2 144.4 143.8 144.1 146.5 147.9 148 146 147.2 148.9 148.1 149.7 150.3 150.9 151.9 152.3 153 153.4 159.6 159.7 160.3 160 162.5 163.3 165.2 167.2 169.6 172.2 176.3 184.4 190.1 195.5 200 205.5 207.6 207.6 207.8 206.9 205.3 201.7 202.2 203 205.3 206.6 210.9 208.4 204.9 197.2 192.2 188.6 186.2 184.5 186 185.7 187.8 188.5 190.2 191.4 194.3 197.5 200.1 202.3 206.8 211 214.8 219.8 222.8 226.2 230.2 233.6 242 256.2 274.2 285.3 285.9 292.3 301.4 310.8 325.1 339.3 356.3 371.4 385.1 394.7 406.7 418.7 425.3 419.4 406.6 393.8 380 370.3 364.5 359.9 355.2 347.9 339 332 326.6 325 323.4 319.5 314.2 311.6 307.8 306.2 306.6 308.9 307.5 294.3 302.7 309.4
185.6 189.5 193.8 197.6 202.3 207.2 213.5 219.1 224.1 227.7 231.5 234.9 237.5 238.7 238.4 237.8 236.7 237 239.7 241.5 243 243.8 244 244.3 244.4 242.8 235.9 234.3 220.1 214.4 209.3 206.9 208.9 211.6 215.7 218.2 215.9 212.3 210 204.8 198.5 187.8 168.7 163.5 161.1 158.7 155.8 156.1 156.4 155.8 154.2 154.5 154.3 154.6 155.7 158.4 163.7 168 180.9 186.1 192.3 196.7 200 203.5 206 204.2 204.2 203.2 203.7 203.6 203.3 202.9 201.4 198.8 196.3 192 186.3 181.5 176.9 167.2 154.4 142.9 140.9 140.7 141.4 141.9 142.4 143.2 143.8 144.6 145.1 145.6 146 146.4 147.3 146.9 146.8 149.1 149.4 150.4 150.4 151.3 151.7 156 159.7 160.1 161.1 162.3 162.9 164.2 164.5 165.3 166.3 168.7 172.7 177.9 187.5 195.2 205 211 219.4 224 226.4 223.2 219.9 213.9 213.9 213.4 216.8 221.3 219.3 224 230 232.3 222.1 213.7 206.2 194.7 193.6 190.4 188 187.5 187.9 187.8 189.1 190.7 192 192.9 192.8 193.6 199.1 202.2 204.7 207.7 209.1 212.1 212.1 212.3 220.5 237.6 249.7 252.1 260.7 271.3 284 303.6 324 341 355.2 372.4 385.6 396.9 404.4 415.4 417.6 407.8 398.5 383.2 365.6 360.3 354.4 348.3 342 333.2 327.6 322.6 321 319.8 317.8 309.9 307.4 306.1 304.7 303.9 305.5 307.6 305.4 289.7 305.7 315.7
187.3 192.2 194.8 201.8 207.9 212.8 217.9 223.3 226.4 229.8 232.3 234.1 235.7 235.8 233.5 232.5 232.7 235.5 239 241 242.1 243.9 244.3 244.4 243.7 238.1 235.5 228 217 211.8 207.5 203.6 201 199.8 203.2 208.6 209.2 208.3 206 197.5 189.7 182.2 167 162.3 160.2 158.9 155.6 152.1 153.6 154.4 153.8 154.2 153.4 154.6 156.8 159.3 163.8 171.8 181.7 188.1 193.5 197.4 200.6 202.8 202.6 203.2 203 203.3 202.6 202.5 202.3 201.3 199 194.9 194 190 186.3 183.1 177.9 171.6 161.4 147 140.6 140.8 141.1 141.5 142 143.3 143.7 144.2 144.3 145.1 145.5 145.7 146.7 147.4 147.8 149.1 150.5 154.8 155.2 157.1 158.1 159 159.5 161 162.1 163.6 165 166.6 167.9 168 167.8 171.7 181.2 191.7 204.1 215.9 226.7 235 222 244.2 245.1 245.1 244.2 236.3 231.5 229.1 235.9 238.3 241.8 242.8 244.2 244.1 238.4 231.2 225.2 213.8 205.3 200.2 196.1 194.8 194 194.3 193.9 189.8 190.9 193.1 193.8 196 195.1 196.2 197.2 197.7 201.7 204.1 205.2 207.4 209.6 214.2 220.2 229.3 236.9 245.5 265.1 293.7 328.3 349.7 361.4 376.6 390.4 400.3 408.4 407.5 402 392.8 381 366.1 358.3 347.4 340.5 334.7 326.5 322.7 320.8 319.1 316.8 314.4 309.6 303.6 303.2 301.6 301.4 302 304 303.9 302.8 293.9 311.6 326.3
189.6 195.5 201.7 207.7 213 218.4 223.2 225.7 227.1 229 231.1 232 229.1 228.1 228.6 229 232.2 236.6 239.2 242.4 245.4 245.5 246.3 246.4 239.7 237.3 233.1 223.1 212.9 209.9 205.9 202.5 198.7 196 193.1 197.5 200.6 198.9 195.5 191.5 185.6 177.6 163.5 160.5 158.8 158.1 156.1 152.2 150.1 150.7 153.8 154.5 153.8 155.5 156.9 159.1 169 181.8 187.7 191.4 196.4 199.2 202.3 202.2 202.5 202.4 201.8 201.8 201.1 201.2 200.7 197.8 195 192.4 190 187.3 185.5 183.1 178.7 173.4 165.2 152.7 139.8 140.5 140.9 141.3 142 142.5 143.2 142.5 143.9 144.7 145.3 145.8 146.5 147.3 148.3 150.4 155.1 155 155.5 157.2 158.4 158.9 160.1 161.1 162.8 164.9 167.4 169.5 171.4 171.6 172.8 186.7 198.7 209.9 224.2 234.7 246.5 256.5 264 264.6 261.4 259.2 258.9 258.3 253.8 252.8 254.1 256.7 259 267.1 263.8 255.3 253.6 255.7 245.1 230.5 222.8 217 215.5 209 197.9 197.2 197.6 198.4 197.8 198.4 198 199.8 197.9 200.3 200.4 198.8 199.4 200.5 200.9 201.7 203.8 208.1 211.7 217.6 223.6 234.8 252.6 280.1 321.1 346.1 364.2 381.8 391.8 399.4 403.1 395 383.5 373.1 363.3 357.1 346.2 335 325.9 322.6 319.4 317.7 316.6 315.1 312.5 306.8 302.1 298 296.5 296.9 297.9 298.3 292.3 288.8 284.1 296.7 321.8 334
