ncols 200
nrows 95
xllcorner 480000
yllcorner 470100
cellsize 50
21.9 21.9 21.7 21.6 21.6 21.6 21.5 21.5 21.5 21.5 21.4 21.4 21.2 21 20.9 20.9 20.9 20.8 20.8 20.8 20.7 20.8 20.8 20.9 20.9 20.9 20.8 20.6 20.9 21 21 21 21 21 21 21 21.1 21 20.8 20.6 20.4 20.4 20.4 20.4 20.3 20.2 19.8 19.4 19.1 18.8 18.4 18.1 17.9 17.9 18 18.8 18 19.4 19.8 19.8 19.9 20.6 21 21.3 21.6 21.7 21.8 21.4 21.3 21.5 21.8 22.1 22.3 22.2 22.4 22.5 22.9 22.6 22.9 23 23.3 23.6 23.9 24.3 24.6 24.8 25.1 25.3 25.6 25.8 26 26.3 26.7 26.9 26.9 27 27.3 27.6 28 28.3 28.6 28.8 28.8 29 29.4 29.8 30 30.2 30.4 30.6 30.9 31.1 31.3 31.6 32 32.3 32.7 33.1 33.3 33.4 33.4 33.4 33.3 33.5 33.8 34 34.3 34.2 34 34 34 33.6 33.9 35 29.9 34.9 33.5 33.3 33 32.8 32.7 32.5 32.2 35 36.3 36 36.2 36.4 36.5 36.8 37.1 38.2 39.2 40.3 41.4 42.9 45 46.8 48.1 47.4 52.3 55.3 58.5 61.7 64.4 67 69.6 72 74.5 76.9 79.9 87.1 87.6 86.1 85.7 87.3 86.6 87.7 88.2 86.5 88.5 90.6 90.8 91.8 92.5 94.2 95.9 98.1 103.8 107.8 111 114.2 118.7 125.1 128.6 129.8 130.4 131.6 133.2 136.2
21.9 21.9 21.7 21.7 21.7 21.6 21.6 21.6 21.5 21.5 21.4 21.3 21.2 21 21 21 20.9 20.9 20.9 20.9 20.8 20.8 20.9 20.9 20.9 20.9 20.8 21 21 21 21 21 21 21 21 21 21 21 20.8 20.6 20.4 20.4 20.4 20.4 20.3 20.2 19.8 19.4 19 18.7 18.5 18.2 18 17.8 18.3 16.6 19.1 20.1 20.8 20.5 19.8 20.5 20.8 21.2 21.4 21.4 21.4 21.1 21.5 21.6 21.9 22.1 22.4 22.2 22.3 22.7 22.6 22.8 23 23.3 23.4 23.7 24 24.4 24.6 24.9 25.1 25.3 25.6 25.8 26.1 26.4 26.5 26.7 26.8 26.8 27.3 27.7 28.1 28.4 28.7 28.6 28.7 29.1 29.5 29.9 30.2 30.4 30.7 30.9 31.1 31.3 31.6 31.8 32.1 32.5 32.9 33.2 33.3 33.3 33.5 33.7 33.6 33.6 33.9 34 34.3 34.4 34.2 34.1 34.1 34.1 34 34.5 33.1 33.9 33.3 33.5 33.2 33 32.9 32.8 32.5 33.6 36.5 36.5 36.8 36.9 37 37.2 37.6 38.7 39.7 40.8 42.2 44.3 46.3 47.8 49.5 51.5 53.5 56.4 59.5 63.4 66.6 69.4 72 74.5 77.2 79.7 82 84.4 85.8 86.9 89.7 91.4 91.8 93 94.7 94.8 96.4 97.7 98.5 100 103 107.2 109.9 114.9 120.3 123.2 125.9 128 130.7 134.1 137.2 139.4 140.2 142.1 144.6 146.9
21.9 21.9 21.8 21.8 21.7 21.7 21.6 21.6 21.5 21.5 21.4 21.3 21.1 21 21.1 21 21 21 21 20.9 20.9 20.9 20.9 20.9 20.9 21 21 21 21 20.9 20.9 20.9 20.9 20.9 21 21 20.9 20.7 20.8 20.6 20.4 20.4 20.4 20.5 20.4 20.2 19.8 19.3 18.6 18.4 18.4 18.3 18.1 17.9 18.5 15 19.3 20.9 21.3 21.3 20.9 20.5 21 21.2 21.5 21.6 21.6 21.1 21.7 21.9 22 22.2 22.4 22.2 22.3 22.4 22.7 22.8 23 23.3 23.6 23.8 24.1 24.4 24.6 24.9 25.1 25.4 25.6 25.9 26.1 26.3 26.4 26.5 26.6 26.8 27.2 27.7 28.1 28.5 27.5 28.4 28.8 29.2 29.6 30 30.5 30.7 31 31.2 31.4 31.6 31.9 32.3 32.5 32.7 33 33.3 33.3 33.4 33.6 33.8 33.7 33.8 34.1 34 34.3 34.6 34.4 34.4 34.4 34.3 34.1 34 34.1 33.8 33.4 33.4 33.4 33.2 33.1 32.9 32.6 33.7 36.8 37.2 37.3 37.4 37.6 37.7 38.1 39.2 40.2 41.4 43.1 44.9 46.8 48.3 50.5 52.6 55 57.7 60.8 64 67.4 70.6 73.7 77 79.7 83 85.9 88 89.5 90.1 92.6 95.4 97.3 100 102.7 103.1 103.2 103.3 106.4 110.7 115.3 119.2 122.9 126.6 132.1 135.6 138 139.6 141.4 143.3 145.5 148.5 151.1 152 153.3 154.7
22 21.9 21.8 21.8 21.7 21.7 21.6 21.6 21.5 21.4 21.4 21.2 21.1 21 21.1 21.1 21.1 21.1 21.1 21 21 21 21 21 21 20.9 20.9 20.9 20.9 20.9 20.9 20.9 20.9 20.9 21 21 20.8 20.6 20.4 20.6 20.5 20.4 20.5 20.5 20.4 20.2 19.5 18.9 18.3 18.1 18.1 18 18 18 18.4 17.8 19.9 21.4 21.6 21.7 21.8 21.9 21.4 21.1 22.1 22.1 22.2 22.3 21.8 22.1 22.3 22.4 23.2 22.2 22.3 22.5 22.6 22.8 23 23.3 23.6 23.9 24.2 24.5 24.7 25 25.2 25.5 25.7 26 26.2 26.2 26.3 26.5 26.7 27 27.4 27.8 28.2 28.5 28.9 29 29 29.4 29.8 30.2 30.8 31 31.2 31.6 31.8 32.1 32.4 32.7 32.9 33.1 33.3 33.4 33.5 33.6 33.7 33.9 33.9 34 34.2 34.1 34.3 34.6 34.6 34.6 34.7 34.5 34.4 34.3 34.1 33.9 33.6 33.5 33.5 33.6 33.4 33.2 33 33.1 36 37.8 37.9 38 38.1 38.2 38.6 39.9 41.1 42.2 43.5 45.4 47.3 49.2 51.4 53.7 56.3 59.3 62.8 66.1 68.9 71.6 75.1 78.9 83 86.5 89.7 91.9 93.4 93.6 95.6 99.8 103.7 107.3 110.9 112.9 112.9 115.8 119.9 124 127.2 131.2 134.4 136.8 142 144.7 147 149.3 151.4 151.1 153.5 155.5 156.9 157.5 158.8 159.4
22.1 21.9 21.8 21.8 21.7 21.7 21.6 21.5 21.5 21.4 21.3 21.2 21.1 21.1 21.1 21.1 21.2 21.2 21.1 21.1 21.1 21.1 21 21 21 21 21 21 21 20.9 20.9 20.9 20.9 20.9 20.9 20.9 20.7 20.5 20.3 20.5 20.5 20.5 20.5 20.5 20.4 19.7 19.2 18.6 17.9 17.8 17.8 17.8 17.9 18 17.3 19 20.7 21.4 21.8 21.9 22 22.1 22.2 22.3 22.4 22.5 22.5 22.5 22 22 22.2 22.6 22.5 22.2 22.4 22.5 22.7 22.8 23 23.3 23.6 24 24.4 24.7 24.9 25.1 25.4 25.6 25.8 26 26.2 26.5 26.7 26.9 27.2 27.5 27.8 28.2 28.6 28.9 29.2 29.6 29.6 29.6 30 30.5 31.1 31.3 31.6 31.9 32.3 32.5 32.9 33.2 33.4 33.5 33.6 33.8 34 34 34 34 34.1 34.2 34.3 34.3 34.3 34.6 34.9 34.9 34.9 35 34.9 34.7 34.6 34.3 33.9 33.7 33.8 33.9 33.9 33.7 33.4 32.9 35.3 38.1 38.2 38.4 38.5 38.7 39.2 40.3 41.6 42.9 44.2 45.9 47.8 50 52.2 54.9 57.5 61 64.5 68 71.3 74.1 77.1 80.4 85.2 89 92.3 94.7 96.8 98.8 101.7 106 109.5 113 116.2 119.5 123.5 126.1 129.8 133.5 136.2 139 141.7 144.5 148.6 151.8 154.3 156.4 156.9 157.3 159.2 161.1 162.3 162.6 162.3 162.3
22.1 22 21.8 21.7 21.7 21.6 21.6 21.5 21.5 21.4 21.3 21.2 21.1 21.1 21.1 21.1 21.2 21.2 21.2 21.1 21.1 21.1 21.1 21.1 21.1 21.1 21 21 21 21 21 21 21 20.9 20.9 20.7 20.6 20.4 20.2 20 20.5 20.5 20.5 20.6 20.4 19.4 18.6 18.1 17.6 17.7 17.8 17.9 18.1 18.8 17.7 19.9 20.5 21.1 21.8 22.2 22.2 22.2 22.3 22.4 22.6 22.7 22.7 22.9 23.1 23.3 22.2 22.3 22.4 22.4 22.4 22.5 22.7 22.9 23 23.4 23.8 24.2 24.6 24.9 25.1 25.4 25.6 25.8 26 26.3 26.7 26.9 27.1 27.4 27.6 27.9 28.3 28.7 28.9 29.2 29.6 29.9 30.1 30.1 30.1 30.7 31.4 31.7 32 32.3 32.6 33 33.3 33.6 33.8 33.9 34.1 34.2 34.4 34.4 34.4 34.4 34.3 34.4 34.5 34.5 34.2 34.7 34.1 35.1 35.2 35.3 35.3 35.2 35 34.7 34.3 33.9 34 34.1 34.3 34.2 33.9 33.5 35.2 38.4 38.7 38.9 39 39.2 39.8 40.8 42 43.3 44.9 46.7 48.6 50.7 53.3 56.1 59.3 63 66.6 70.2 73.8 76.5 80.4 84.2 87.5 90.9 94 97.4 100.6 104.9 109.1 113.6 118.4 121.3 124.4 128.1 131.5 134.3 138 140.6 143.4 146.4 149.7 152.1 153.8 155.8 157.7 159.2 161.1 163 163.5 164.6 165.4 165 164.5 164.5
22 21.9 21.8 21.7 21.6 21.6 21.5 21.5 21.5 21.4 21.3 21.2 21.1 21.1 21.1 21.1 21.2 21.2 21.2 21.2 21.2 21.1 21.1 21.1 21.2 21.1 21.1 21.1 21.1 21 21 21 21 21 20.8 20.7 20.6 20.4 20.3 20.5 20.5 20.5 20.5 20.6 20.4 19.1 18 17.7 17.9 17.9 18 18.1 18.3 16.8 19.1 20 20.6 21.3 21.9 22.3 22.3 22.4 22.4 22.6 22.8 22.9 23.2 23.5 23.5 22.8 22.7 22.1 22.2 22.3 22.5 22.7 22.9 23.1 23.3 23.6 24 24.4 24.8 25.1 25.3 25.6 25.8 26 26.3 26.6 27 27.3 27.6 27.8 28 28.3 28.7 29 29.3 29.6 29.9 30.3 30.6 30.6 30.4 30.7 31.3 32.1 32.3 32.6 33 33.3 33.7 34 34.3 34.4 34.5 34.6 34.8 34.8 34.8 34.8 34.7 34.6 33.9 33.9 34.1 35 35.3 35.4 35.4 35.5 35.6 35.6 35.4 35 34.6 34.2 34.2 34.4 34.5 34.4 33.8 33.5 35.6 38.6 38.9 39.2 39.4 39.7 40.4 41.2 42.6 44.2 45.8 47.5 49.6 51.6 54.8 57.7 61 64.8 68.6 72.3 75.9 79.1 83.4 87.4 90.1 93.6 98.1 103.5 108.2 113.4 118.2 122.3 125.7 128.8 131.6 134.6 137.9 140.9 143.7 146.6 149.8 152.5 153.9 155.4 157.8 160.1 162.6 165.2 166.7 167.2 166.9 167 167.6 167 166.2 165.5
21.9 21.8 21.7 21.7 21.6 21.4 21.4 21.3 21.4 21.4 21.3 21.2 21.1 21.1 21.1 21.2 21.2 21.3 21.3 21.2 21.2 21.2 21.2 21.1 21.2 21.2 21.2 21.1 21.1 21.1 21.1 21.1 21 20.9 20.8 20.7 20.5 20.5 20.4 20.4 20.4 20.5 20.5 20.5 19.8 18.3 17.8 18.3 18.1 17.8 17.2 17.3 18.6 19.3 19.6 20.2 20.8 21.3 21.8 22.2 22.4 22.4 22.6 22.8 23 23.2 23.6 23.5 23 22.5 22.4 22.6 22.4 22.6 22.8 23 23.2 23.4 23.6 23.9 24.2 24.5 24.9 25.3 25.6 25.8 26 26.3 26.5 26.9 27.2 27.6 28 28.2 28.4 28.7 29.1 29.4 29.7 29.9 30.2 30.6 31 31.1 30.6 30.7 31.2 31.5 32.9 32.8 33.2 33.7 34.1 34.5 34.7 34.9 35 35.1 35.2 35.3 35.3 35.2 35.1 35 34.8 34.7 35 35.3 35.6 35.6 35.7 35.8 35.9 35.9 35.7 35.3 34.9 34.6 34.4 34.5 34.4 34.3 34.1 33.8 37.2 38.6 38.9 39.2 39.5 40.1 41 41.8 43.4 45.1 46.7 48.5 50.5 52.7 56.4 59.3 62.8 66.5 70.3 74.1 77.9 81.8 80.9 90.4 94.3 98.9 104.2 109 114.1 119.5 124.1 127.9 131.6 134.3 136.6 139.1 142.1 145.1 148.4 151.3 153.8 155.9 158 160.9 163.1 165.3 166.8 167.8 168.5 168.6 168.3 168.6 168.4 167.8 166.8 165.7
21.8 21.8 21.7 21.7 21.6 21.4 21.3 21.3 21.4 21.4 21.3 21.2 21.1 21.1 21.1 21.2 21.2 21.3 21.3 21.3 21.3 21.2 21.2 21.2 21.3 21.3 21.2 21.2 21.2 21.2 21.1 21.1 21 20.9 20.8 20.7 20.6 20.5 20.4 20.4 20.4 20.4 20.5 20.5 17.4 14.8 16.7 14.8 14.8 18.2 18.9 18.9 18.6 19.5 19.5 20.3 20.8 21.3 21.7 22.1 22.4 22.5 22.8 23.1 23.3 23.3 23.5 23.3 22.9 22.4 22 22.2 22.6 22.9 23.1 23.3 23.5 23.7 23.9 24.2 24.5 24.8 25.1 25.5 25.8 26 26.3 26.5 26.8 27.2 27.5 27.9 28.2 28.6 28.9 29.2 29.5 29.7 30 30.3 30.6 30.9 31.3 31.6 31.3 30.7 31.5 32.2 33 33.2 33.6 34 34.5 34.9 35.2 35.3 35.5 35.6 35.7 35.8 35.7 35.6 35.5 35.4 35.2 35.1 35.3 35.7 35.9 35.9 36 36.1 36.1 36.2 35.4 35.6 35.3 34.9 34.6 34.5 34.4 34.3 34.2 35.3 38 38.6 39 39.4 39.9 40.6 41.4 42.4 43.7 45.6 47.5 49.5 51.5 53.8 57.6 61 64.5 68.3 72 75.8 79.8 84.5 80.3 93.2 98.4 102.8 107.8 112.7 118.2 123.1 128 132.2 135.7 138 140.6 143.1 145.8 148.1 151.1 153.9 156.3 158.8 161.1 163.3 165.7 167.2 168.3 169.3 170 170 169.7 169.6 169 168.3 167.3 166.3
21.8 21.8 21.8 21.8 21.6 21.5 21.3 21.4 21.4 21.3 21.3 21.2 21.1 21.1 21.1 21.2 21.3 21.3 21.3 21.3 21.3 21.3 21.3 21.3 21.3 21.3 21.3 21.3 21.3 21.2 21.2 21.1 21 20.9 20.8 20.7 20.6 20.5 20.3 20.4 20.4 20.4 20.4 20.5 18 19 18.6 18 18.2 18.9 18.8 18.7 19.1 19.7 19.7 20.6 21 21.3 21.6 22.1 22.5 22.7 23 23.3 23.2 22.8 22.9 23 22.8 22.3 21.7 22 22.5 22.9 23.3 23.5 23.7 23.9 24.2 24.4 24.7 25.1 25.4 25.7 26 26.3 26.5 26.8 27.1 27.4 27.8 28.2 28.5 28.9 29.2 29.5 29.8 30.1 30.4 30.7 30.9 31.2 31.6 31.8 32 31.4 31.9 32.4 33.4 33.6 34 34.4 34.9 35.3 35.7 35.8 35.9 36 36.1 36.2 36.1 36 35.9 35.8 35.6 35.5 35.7 36 36.1 36.2 36.3 36.3 36.4 36.4 35.8 35.5 34.8 35.1 34.9 34.8 34.7 34.6 34.2 35.6 38.4 38.8 39.2 39.8 40.4 41 41.8 42.8 44.1 46 48.3 51 53.1 55.9 59.1 62.6 66.3 70 73.8 77.6 81.7 85.7 90.2 95.5 100.3 105.7 110.3 115.2 120.5 125.1 129.9 134 137.4 140.2 142.9 145.9 148.7 150.8 153.1 155 157.6 160.2 162.4 165.1 167.1 168.6 169.6 170.6 171 170.9 170.6 170.1 169.4 168.5 167.6 166.6
21.8 21.8 21.8 21.8 21.7 21.5 21.4 21.4 21.4 21.3 21.2 21.2 21.1 21.1 21.1 21.2 21.3 21.4 21.4 21.3 21.3 21.3 21.3 21.3 21.4 21.4 21.4 21.4 21.3 21.3 21.2 21.1 21 21 20.9 20.8 20.7 20.6 20.5 20 20.4 20.4 20.4 19.4 14.8 18.6 18.2 18 17.9 18.6 19.2 18.9 19.9 20 20.2 21.2 21.9 22.1 22.2 22.3 22.5 22.9 23.2 22.9 22.5 22.4 22.4 22.4 22.4 22.1 21.9 22 22.2 22.6 23.1 23.6 23.8 24.1 24.3 24.5 24.9 25.2 25.5 26 26.3 26.5 26.8 27.1 27.4 27.8 28.2 28.5 28.9 29.2 29.6 30 30.2 30.5 30.8 31.1 31.4 31.6 31.8 32 32.2 32.2 30.6 32.4 33.8 34 34.4 34.8 35.3 35.7 36.1 36.2 36.3 36.4 36.5 36.6 36.7 36.5 36.4 36.3 36.1 36 36 36.3 36.4 36.5 36.5 36.6 36.6 36.7 36.4 35.1 36.1 35.6 35.3 35.1 35 34.7 34 35.6 38.4 39.1 39.7 40.2 40.9 41.5 42.1 43.2 44.6 46.5 49.7 52.9 55.1 57.9 61.3 65 68.3 72.1 75.5 78.9 82.9 86.9 91.2 96.4 101.3 106.4 111.4 116.5 121.2 125.8 130.3 134.4 138.2 141.3 144.4 147.3 149.9 151.8 153.8 155.6 158.2 160.9 163.6 165.8 168 169.9 170.9 171.7 171.8 171.4 171 170.7 169.7 168.8 167.8 166.9
21.8 21.9 21.9 21.8 21.7 21.6 21.4 21.4 21.4 21.3 21.2 21.2 21.1 21.1 21.1 21.2 21.3 21.4 21.4 21.4 21.4 21.4 21.3 21.4 21.4 21.5 21.4 21.4 21.3 21.3 21.2 21.1 21.1 21 20.9 20.8 20.7 20.6 20.6 19.9 20.1 20.4 19.8 16.9 18.8 18.5 18.2 18.1 18 18.3 19 19.8 20.3 20.4 20.6 21.5 21.9 22 22.1 22.2 22.8 23.2 22.8 22.4 22 21.9 21.9 21.9 21.9 22 22.1 22.1 22.2 22.4 22.8 23.3 23.8 24.2 24.4 24.6 25 25.4 25.8 26.3 26.6 26.8 27.1 27.4 27.7 28.1 28.5 28.9 29.2 29.6 30 30.4 30.7 30.9 31.2 31.5 31.8 32.2 32.2 32.2 32.2 32.6 32.3 32.2 34 34.5 34.8 35.3 35.7 36.1 36.4 36.7 36.8 36.9 37 37.1 37.2 37.1 37 36.8 36.7 36.6 36.6 36.6 36.7 36.7 36.8 36.9 36.9 37 37 36.6 36.4 36.3 36.4 35.9 35.5 35 34.9 35.6 37.4 39.5 40.1 40.7 41.3 42 42.6 43.6 45 47.3 50.6 53.9 57 59.8 63.5 67.1 70.3 73.4 76.7 80 83.9 87.4 91.2 95.8 100.4 105.4 110.6 115.6 120.3 125.4 129.8 134.2 138.3 141.6 144.3 147.4 149.9 151.7 153.7 155.5 158 160.6 163.7 166.4 168.6 170.3 171.5 172.4 172.4 172.1 171.7 171.2 170.3 169.3 168.4 167.4
21.8 21.8 21.9 21.9 21.8 21.6 21.4 21.4 21.4 21.3 21.2 21.2 21.1 21.1 21.2 21.2 21.3 21.4 21.4 21.4 21.4 21.4 21.4 21.4 21.5 21.6 21.5 21.4 21.4 21.3 21.2 21.2 21.1 21 20.9 20.8 20.8 20.7 20.6 20.2 19.7 20.1 17.9 18 18.8 18.5 18.2 18.1 18.1 18 18.7 19.6 20.6 20.9 21 21.1 21.6 21.8 21.9 22.4 22.4 22.8 22.7 22.6 22.1 21.9 21.7 21.8 21.8 22 22.2 22.3 22.4 22.6 22.9 23.3 23.6 24 24.5 24.8 25.2 25.7 26.1 26.6 26.9 27.1 27.4 27.7 28 28.4 28.8 29.2 29.6 29.9 30.5 30.9 31.1 31.4 31.6 31.9 32.2 32.8 32.9 32.8 33.1 33.6 33.8 31.6 34.2 34.9 35.3 35.6 36 36.4 36.8 37.1 37.2 37.3 37.5 37.6 37.7 37.7 37.6 37.5 37.3 37.2 37.2 37.2 37.1 37.1 37.2 37.3 37.3 37.3 37.3 37.2 36.9 36.8 36.8 36.4 35.2 35.6 35.5 35.8 37.2 39.3 40.6 41.2 41.8 42.5 43.1 44 45.2 48 51.4 54.5 57.7 61 64.6 68 71.2 74.3 77.4 80.8 84.2 87.7 91 95.2 99.4 104.5 109.1 114.2 119.2 122.8 127.4 131.3 135.3 139.2 143 146 148.1 149.1 151.1 153.4 156.6 160.6 163.7 166.7 169 170.5 171.8 172.6 173 172.8 172.3 171.8 171.1 170.5 169.8 169.2
21.7 21.8 21.8 21.8 21.7 21.6 21.5 21.4 21.4 21.3 21.2 21.2 21.1 21.1 21.2 21.2 21.3 21.4 21.5 21.5 21.5 21.5 21.5 21.6 21.7 21.7 21.6 21.5 21.4 21.3 21.3 21.2 21.1 21 21 20.9 20.8 20.7 20.6 20.5 19.3 19.3 17.1 19.1 18.8 18.5 18.2 18.2 18.1 18 19 20 20.8 21 21.1 21.1 21.5 21.7 22.2 22.1 22.3 22.6 22.5 22.4 22.3 22 21.9 21.8 21.8 22.1 22.3 22.4 22.6 22.9 23.2 23.5 23.9 24.2 24.6 25.2 25.6 26.1 26.5 26.9 27.1 27.4 27.7 28 28.3 28.7 29.1 29.5 29.9 30.3 30.9 31.4 31.6 31.8 32.1 32.3 32.8 33.4 33.5 33.7 33.9 34.3 34.7 34.4 32.5 35.7 35.7 36.1 36.5 36.9 37.3 37.5 37.7 37.9 38 38.2 38.4 38.3 38.2 38.1 37.9 37.8 37.8 37.7 37.6 37.5 37.6 37.7 37.7 37.7 37.6 37.6 37.4 37.4 37 36.7 36.4 36.3 35.2 36.3 36.9 38.8 40.3 41.3 42.2 43.1 43.8 44.5 45.7 48.5 51.7 54.8 58.2 61.4 64.5 67.5 70.7 73.8 76.8 79.9 83.1 86.5 89.6 92.9 97.6 102.6 107.5 112 115.8 119.2 123.2 127.3 131.3 135.2 139.1 142.3 140.9 139.4 143.8 150.5 154.3 159.3 163.3 166.6 169 170.7 171.9 172.8 173.6 173.5 173.1 173 172.9 172.4 171.8 171.1
21.7 21.7 21.7 21.7 21.6 21.5 21.4 21.4 21.4 21.3 21.2 21.2 21.1 21.1 21.2 21.3 21.3 21.5 21.6 21.7 21.7 21.7 21.7 21.8 21.8 21.8 21.7 21.6 21.5 21.4 21.3 21.2 21.1 21.1 21 20.9 21 21 21 20.6 19.7 17.9 17.6 18.2 18.7 18.5 18.3 18.2 18 18.7 19.6 20.5 20.9 21 21.2 21.3 21.7 22.3 22.3 22.2 22.1 22.3 22.2 22.2 22.1 22 21.7 21.7 21.9 22.2 22.5 22.6 22.9 23.2 23.5 23.8 24.2 24.5 25 25.6 26.1 26.5 26.9 27.2 27.5 27.9 28.2 28.5 28.8 29.1 29.5 29.9 30.3 30.8 31.4 31.8 32.1 32.3 32.5 32.8 33.8 33.9 34.2 34.4 34.7 35 35.3 35.3 33.9 34.8 36.1 36.6 37 37.4 37.7 37.9 38.2 38.4 38.6 38.9 39.1 39 38.8 38.7 38.6 38.4 38.4 38.3 38.1 38 38 38 38 38 37.9 37.9 37.9 37.6 37.3 37 36.8 36.6 36.3 36.2 36.7 38.3 39.7 41.2 42.1 42.9 43.7 44.5 46 48.5 51.8 54.8 57.8 60.7 63.6 66.7 69.7 72.7 75.8 78.5 81.9 84.9 86.8 89.4 93.2 98.4 103.5 107.7 110.7 113.9 118.2 122.3 126.2 130.1 133.7 134.9 126.8 121.1 136.7 147 152.4 157.3 162.2 166 168.9 170.8 172.4 173.5 174.3 174.4 174.4 174.3 174.3 174.2 173.7 172.7
21.5 21.6 21.6 21.5 21.4 21.4 21.5 21.4 21.3 21.3 21.2 21.2 21.1 21.1 21.2 21.2 21.3 21.6 21.7 21.8 21.9 21.9 21.9 21.9 21.9 21.9 21.8 21.7 21.6 21.5 21.4 21.3 21.3 21.3 21.3 21.3 21.4 21.4 21.4 20.8 19.4 17.3 18.4 18.2 18 17.6 18 17.9 18 19.6 20.3 20.8 21.1 21.1 21.2 22.3 22 22 22.1 22.1 22.1 22.1 22.1 22.1 22.1 21.7 21.5 21.8 22.1 22.3 22.6 22.8 23.2 23.5 23.8 24.1 24.7 25.1 25.5 26 26.5 26.9 27.2 27.6 28 28.5 28.8 29.1 29.5 29.8 30 30.4 30.8 31.2 31.8 32.1 32.3 32.8 33.4 33.7 34.2 34.3 34.6 34.9 35.1 35.6 35.9 36.2 35.2 34.9 36.1 37.1 37.5 37.9 38.1 38.4 38.6 38.9 39.3 39.6 39.7 39.6 39.5 39.3 39.2 39.1 39 38.8 38.7 38.5 38.4 38.4 38.4 38.4 38.5 38.5 38.3 37.9 37.6 37.3 37.2 36.8 36.5 36.2 36.6 38.1 39.5 40.7 41.8 42.7 43.6 44.9 46.4 48.3 51.1 53.3 56.3 59.2 62.2 65.3 68.5 71.6 74.1 76.8 79.5 81.5 83.2 87 90.6 94.8 98.8 102.6 105.8 109 111.9 114.7 118.5 122.5 125.2 120.9 108 108.7 128.9 142.4 149.8 155.9 161 164.9 168.1 170.9 172.4 174 175.2 175.5 175.5 175.5 175.4 175.4 175.7 175
21.4 21.5 21.5 21.4 21.4 21.5 21.4 21.3 21.3 21.2 21.2 21.2 21.1 21.1 21.2 21.2 21.4 21.7 21.8 21.9 22 22 22.1 22.1 22 22 21.9 21.8 21.7 21.6 21.5 21.4 21.3 21.5 21.5 21.6 21.6 21.7 21.5 20.8 17 17.1 18.5 18 17.7 17.8 17.5 17.7 18.6 19.9 20.4 20.7 21.2 21.2 22.3 21.9 21.8 21.9 21.9 21.9 22 22 22 22 21.8 21.6 21.8 22 22.3 22.5 22.7 23.1 23.4 23.7 24 24.5 25.3 25.8 26.1 26.4 26.9 27.3 27.7 28.1 28.6 29 29.4 29.7 30.1 30.5 30.7 30.9 31.3 31.7 32.2 32.4 32.5 33.4 33.9 34.3 34.6 34.8 35 35.3 35.6 36.1 36.5 36.8 36.8 36 36.4 37.3 38.1 38.3 38.5 38.8 39 39.3 39.9 40.3 40.4 40.3 40.1 40 39.8 39.7 39.5 39.4 39.2 39.1 39 38.9 39 39 39 38.9 38.6 38.2 37.9 37.7 37.4 37.1 36.8 36.5 36.5 37.8 39 40.2 41.4 42.4 43.4 44.6 45.9 47.8 50.2 52.2 54.5 57.6 60.7 63.9 67.2 69.7 72.1 74.4 76.6 77.7 80.4 84.2 88.3 91.8 94.7 98.1 101.3 104.3 106 107.3 110.2 114.5 116.4 106 89.6 103.9 122.7 138 147.6 154.2 160 164.1 167.6 171.2 172.9 174.6 176.1 176.6 176.6 176.6 176.8 177.2 177.7 177.2
21.1 21.2 21.3 21.4 21.5 21.5 21.4 21.3 21.3 21.2 21.2 21.1 21.1 21.2 21.2 21.2 21.5 21.9 21.9 22 22.1 22.1 22.2 22.2 22.1 22.1 22.1 22 21.9 21.7 21.6 21.5 21.4 21.5 21.7 21.7 21.8 21.8 21 18 16.2 18.7 18.3 17.8 17.8 17.9 17.8 18.4 19.4 20 20.4 20.7 20.8 21.9 22 22 21.8 21.8 21.8 21.8 21.9 22 22 21.9 21.4 21.7 21.9 22.1 22.3 22.6 22.8 23.2 23.6 23.9 24.3 25.1 25.9 26.4 26.7 27 27.4 27.9 28.3 28.7 29.2 29.6 30.1 30.6 30.7 31.1 31.4 31.6 31.8 32.3 32.8 33.7 33.9 34.4 34.8 34.9 35 35.3 35.5 35.7 36.1 36.6 37.1 37.4 37.6 37.2 34.4 38.3 38.7 38.8 38.9 39.1 39.4 39.7 40.3 40.7 41 41 40.8 40.7 40.6 40.5 40.2 40 39.8 39.7 39.6 39.5 39.5 39.6 39.6 39.3 38.9 38.5 38.3 38 37.7 37.4 37.2 36.9 36.7 37.5 38.7 39.8 41 42.1 43.3 44.5 45.6 47.3 49.4 51.2 53 56.1 59.4 62.7 65.4 67.9 69.9 71.9 73.9 75.3 77.6 80.8 84.2 87.7 90.3 93.6 96.7 98.6 99.9 100.9 103.6 107.1 106.3 95.6 86.2 99.7 117.4 133.8 145.6 152.5 159.1 163.7 167.6 171.1 173.3 175 176.6 177.3 177.8 178.2 178.6 178.9 179.3 179.8
21.1 21.1 21.4 21.5 21.5 21.5 21.4 21.3 21.2 21.2 21.1 21.1 21.1 21.3 21.3 21.3 21.7 21.8 21.8 21.9 22 22 22.1 22.1 22.1 22.1 22.1 22.1 22 21.9 21.7 21.6 21.5 21.5 21.6 21.8 21.9 21.5 19.2 18.4 18.7 18.3 18 17.7 17.9 18 18.1 19 19.9 20.4 20.7 20.9 22.1 22.1 22.1 22.1 21.8 21.6 21.6 21.7 21.8 21.9 21.7 21.4 21.4 21.7 22 22.2 22.4 22.7 22.9 23.1 23.8 24.2 24.9 25.7 26.5 27 27.3 27.6 28.2 28.7 29.1 29.6 30 30.5 31.1 31.6 32.1 32.2 32.3 32.6 33.2 33.8 34.9 35.2 34.9 35.4 35.7 36 35.5 35.7 35.9 36.2 36.7 37.2 37.7 38 38.2 38.4 37.6 35.3 38.9 39.2 39.5 39.6 39.8 40.2 40.5 40.9 41.3 41.5 41.6 41.5 41.4 41.3 41 40.8 40.5 40.3 39.4 39.8 40 40.1 39.9 39.6 39.2 38.8 38.6 38.4 38.1 37.9 37.6 37.4 37.1 37.7 38.4 39.6 40.8 41.9 43.1 44.3 45.5 46.7 48.6 50.1 52.1 55.2 58.3 61.2 63.7 65.4 67.2 69.1 71.1 73.4 75.8 77.6 79.5 81.9 85.3 89.3 91 94.2 94.4 95.3 97 98.9 95.9 88.6 83.2 94 112.9 129.4 142.4 150.4 157.5 163.6 167.8 171 173.2 175.4 176.9 177.9 178.7 179.6 180 180.3 180.7 181.5
21 21.6 21.5 21.5 21.6 21.5 21.4 21.3 21.2 21.1 21.1 21.1 21.2 21.3 21.4 21.4 21.8 21.7 21.7 21.8 21.9 21.9 22 22 22 22.1 22.1 22.2 22.1 22 21.9 21.7 21.6 21.6 21.7 21.7 21.8 20.2 18.7 18.4 18.6 18.3 17.9 17.9 18 18.1 19 20 20.6 20.8 21.7 21.7 21.9 22.1 22.2 22.1 21.9 21.6 21.5 21.6 21.7 21.8 21.8 21.6 21.4 21.7 22 22.2 22.5 22.7 23 23.2 23.9 24.6 25.4 26.3 26.9 27.5 27.9 28.3 28.9 29.5 29.9 30.4 30.9 31.5 32.1 32.6 33.2 33.5 33.6 34.3 34.8 35.6 36 36.3 36.2 36.3 36.6 37 36.5 36.2 36.3 36.7 37.2 37.7 38.2 38.6 39 39 38.8 39.3 39 39.1 40.1 40.2 40.2 40.5 41 41.4 41.8 42 42.1 42.1 42.2 42.1 41.8 41.6 41.4 41.1 40.7 40.5 40.6 40.5 40.1 39.7 39.4 39 39 38.8 38.5 38.3 38.1 37.8 37.6 38 38.7 39.4 40.5 41.7 42.9 44.1 45.3 46.5 48 49.6 51.2 53.9 57 59.5 61.3 62.5 64.4 66.2 68.5 71.4 73.8 75.2 76.7 78.1 80.9 86 89.1 90.2 89.4 90.7 91.5 92.6 90.4 83.4 80.5 90.6 109.4 124.9 138.8 148.9 156.2 163 167.7 170.9 173.3 175.3 177 178.3 179.3 180.2 181.1 181.7 182.1 182.9
21.2 21.7 21.6 21.6 21.6 21.5 21.4 21.3 21.2 21.1 21.1 21.1 21.2 21.4 21.5 21.6 21.8 21.7 21.6 21.7 21.8 21.8 21.8 21.9 21.9 22 22.1 22.2 22.2 22.1 22 21.9 21.8 21.7 21.7 21.8 20.8 18.1 14.8 18.7 18.3 18.2 18 18 18.2 18.8 19.9 20.9 21 22.2 21.3 21.4 21.5 21.7 21.9 22 21.8 21.6 21.4 21.5 21.6 21.7 21.8 21.8 21.6 21.7 22 22.3 22.5 22.8 23 23.3 23.8 25 26 26.6 27.2 27.9 28.4 29 29.6 30.3 30.8 31.3 31.9 32.5 33.1 33.6 34.2 34.7 35.4 35.9 36.2 36.6 37.1 37.6 37.6 37.7 37.7 37.9 37.6 37.1 37.1 37.3 37.8 38.3 38.8 39.4 39.8 40 40.1 40.3 40.4 40.2 36.6 40.5 40.8 41 41.4 41.9 42.2 42.4 42.5 42.6 42.7 42.8 42.8 42.7 42.5 42.1 41.6 41.2 41.1 40.7 40.3 39.9 39.6 39.3 39.2 39.2 38.9 38.7 38.5 38.3 38 38.3 39 39.5 40.3 41.4 42.6 43.8 45 46.2 47.8 49.4 51 52.6 55.7 57.4 58.8 60.1 61.5 64 67.1 69.2 70.6 72 73.4 75.4 77.7 80.1 83 83.9 83.4 84.8 87.6 87.8 85.1 80.3 78.5 88.2 105.1 121.9 136.7 147.8 155.9 162.7 167.2 170.5 173.2 175.2 177.1 178.8 179.8 180.7 181.7 182.6 183.5 183.9
21.8 21.8 21.7 21.6 21.6 21.5 21.4 21.3 21.2 21.1 21 21.1 21.3 21.5 21.6 21.7 21.7 21.6 21.5 21.6 21.6 21.7 21.7 21.8 21.8 22 22.2 22.2 22.3 22.3 22.1 22 21.9 21.8 21.8 20.7 18.5 18.2 17.6 18.6 18.1 18.1 18.1 18.2 18.4 19.7 20.9 21.3 22 21.6 21.2 21.1 21.3 21.4 21.6 21.8 21.6 21.4 21.2 21.3 21.4 21.5 21.7 21.8 21.8 21.8 22 22.3 22.5 22.8 23.1 23.3 23.9 25.4 26.2 26.9 27.6 28.2 29.2 30 30.7 31.3 32 32.5 33.1 33.6 34.2 34.9 35.5 36.1 36.9 37.4 37.6 38 38.7 39.2 39.2 39.4 39.4 39.4 38.8 38.4 38.3 38.4 38.6 38.9 39.5 40.1 40.5 40.7 40.8 41 41.1 41.2 41 41.6 40.4 41.4 41.9 42.4 42.6 42.8 43 43.1 43.1 43.3 43.4 43.5 43.3 42.9 42.4 42 41.3 40.9 40.5 40.1 39.7 39.5 39.4 39.4 39.3 39.1 38.9 38.6 38.5 38.5 38.5 39.1 39.9 41.1 42.3 43.5 44.6 46.1 47.6 49.2 50.8 52.4 53.8 55.1 56.4 57.8 59.9 62.4 64.8 66 67.4 68.8 70.9 73.2 75.8 76.6 77.3 77.7 77.9 81.8 85.5 85.7 83 78.1 75.9 85.2 101.3 119.2 137.2 147.5 156.3 162.2 166.8 170 173 175.2 177.1 178.9 180.4 181.5 182.6 183.6 184.4 184.6
21.9 22 21.9 21.8 21.5 21.4 21.3 21.2 21.2 21.1 21 21.2 21.4 21.5 21.7 21.8 21.7 21.6 21.5 21.5 21.5 21.6 21.6 21.7 21.8 21.9 22.1 22.3 22.3 22.4 22.3 22.1 22 21.7 20.8 19.1 18.2 18.4 15.4 18.8 16.4 18.6 18.3 18.6 18.7 20.2 21.5 22.1 21.8 21.6 21.2 20.9 21 21.2 21.3 21.5 21.5 21.3 21.1 21.2 21.3 21.4 21.5 21.6 21.8 21.8 22 22.3 22.6 22.9 23.4 23.8 24.7 25.6 26.5 27.3 28.2 29.2 30.2 31.4 32 32.7 33.4 34 34.5 35.1 35.7 36.6 37 37.3 38 38.6 39.1 39.5 40.2 40.7 40.9 41.2 41.2 40.7 40.2 39.9 39.7 39.6 39.8 39.9 40.2 40.9 41.2 41.4 41.6 41.7 42.1 42.2 42.2 42.8 42 39.9 42.4 42.8 43 43.2 43.5 43.6 43.7 43.9 44 44.1 44 43.6 43.1 42.6 41.7 41.2 40.8 40.3 40 39.7 39.7 39.7 39.6 39.5 39.3 39.1 39.1 39.1 39.2 39.2 39.4 40.8 42 43.1 44.3 45.9 47.4 48.8 50.3 51.7 52.5 53.6 54.9 56.3 58.8 61.1 62.3 63.2 64.3 66.5 69.1 71.7 74.2 74.2 72.9 73.3 76.1 80.7 83.6 83.5 80.7 75.8 74.4 82.3 100.5 119.2 137.8 147.7 155.9 161.7 166.3 169.5 172.5 175.2 177.1 179 180.6 182 183.1 184.3 184.8 185.2
21.8 22 22.1 21.9 21.5 21.4 21.3 21.2 21.1 21.1 21.1 21.2 21.4 21.6 21.6 21.7 21.6 21.5 21.4 21.4 21.4 21.5 21.5 21.6 21.7 21.8 22.1 22.3 22.4 22.4 22.4 22.3 21.8 21 18.8 17.9 18.2 18.4 16.6 18.5 18.3 18.6 18.7 19.6 19.3 18.6 20.8 20.5 21.2 21.6 21.2 20.7 20.7 20.9 21 21.2 21.3 21.1 21 21.1 21.3 21.4 21.5 21.6 21.7 21.9 22.4 22.9 23.3 23.8 24.2 24.8 25.9 26.6 27.2 28.2 29.2 30.1 31.3 32.6 33.4 34 34.4 35.6 36 36.3 37.2 38 38.7 39.1 39.6 40 40.4 41 41.7 42.3 42.6 42.9 42.7 42.1 41.6 41.4 41.4 41.2 40.9 41 41.1 41.6 41.9 42.1 42.3 42.6 43 43.1 43.4 43 42.5 42.1 41.9 43.3 43.4 43.7 43.9 44.1 44.1 44.2 44.4 44.6 44.7 44.3 43.7 43.1 42.2 41.6 41.1 40.7 40.4 40.3 40.2 40.1 39.9 39.8 39.7 39.7 39.6 39.5 39.4 39.3 39.4 39.5 41.2 42.7 43.8 45.2 46.6 48.1 49.5 50.5 51.3 52.2 53.4 55 57.5 58.7 59.9 61 62.1 64.4 67.1 69.9 72.3 71.3 69.6 71 75.7 79.6 80.8 81.2 77.7 72.8 74.1 86.5 102.6 121.1 138.2 147.4 155.6 161.3 165.7 168.9 171.9 174.9 177.2 179 180.6 182.2 183.5 184.5 184.9 185.3
21.1 21.9 22.5 22 21.6 21.4 21.3 21.2 21.2 21.1 21.1 21.3 21.1 20.9 21 21.5 21.4 21.4 21.3 21.3 21.3 21.4 21.5 21.6 21.6 21.7 22 22.2 22.3 22.4 22.5 21.9 21.1 19.4 17.7 17.8 18 18.2 18 18.8 18.7 18.5 19.8 20.7 21 21.1 20.3 19.4 20.4 21.2 21.1 20.7 20.4 20.6 20.7 20.8 20.7 21 20.9 21.2 21.3 21.4 21.4 21.5 21.7 22 22.3 22.9 23.5 24.1 24.9 25.8 26.5 27.1 28.2 29.1 30.1 31.1 32.4 33.7 34.7 35.3 36.4 37 37.3 38.3 39.1 40.1 40.4 41.3 41.8 42.4 44.2 43.6 42.9 43.9 44.6 44.6 44.2 44.2 43.7 43.3 43.1 42.7 42.5 42.4 42.2 42.4 42.6 42.8 43.2 43.5 44 44.1 44.1 43.7 43.4 43.4 43.6 42.7 43.7 44.2 44.3 44.3 44.4 44.5 44.7 44.9 45.2 44.8 44.3 43.6 42.7 41.9 41.5 41.1 40.8 40.8 40.8 40.7 40.5 40.5 40.3 39.9 39.8 39.7 39.6 39.5 39.5 39.7 40.5 42.2 43.3 44.5 45.9 47.3 48.5 49.3 50.2 51.1 52 53.7 55.1 56.2 57.4 58.7 60.9 63.5 66.1 68.6 69.2 67.7 67.1 70 73.7 76.8 76.5 75.7 71.9 70.9 80.7 95.7 109.9 126.1 138.6 147.7 155.2 160.7 164.9 167.8 170.7 173.8 176.4 178.3 179.9 181.7 183 183.5 184.1 184.4
20.3 21.3 22.2 22.2 21.7 21.4 21.3 21.3 21.2 21.1 21.2 21.3 20.9 20.3 20.5 21.1 21.2 21.2 21.1 21.3 21.4 21.4 21.5 21.6 21.7 21.8 21.9 22 22.2 22.2 21.9 21 19.5 18.3 17.4 17.5 17.7 17.6 17.8 18.3 18.9 19.7 20.6 21.9 22.3 22.1 22 21.1 19.1 20.3 20.3 20.2 20.2 20.3 20.4 20.4 20.5 21.3 20.8 21.3 21.3 21.4 21.4 21.5 21.7 21.9 22.3 23.2 24.1 24.9 25.8 26.8 27.4 27.8 29 30.1 31.1 32.2 34 35.9 36.4 37 37.6 38.3 39 40.1 41 42.2 42.6 43.7 45.6 47.5 48.7 47.6 47.8 47.8 47.6 47.3 47.2 47.2 46.4 45.6 45.4 44.9 44.4 44.3 44 43.7 43.9 44.3 44.5 44.7 44.9 45.1 44.8 44.6 44.5 44.6 44.2 43.6 42.2 44 44.2 44.5 44.7 44.8 45.1 45.5 45.4 45.2 44.9 44 43.2 42.3 41.9 41.5 41.5 41.5 41.5 41.6 41.6 41.5 41.6 40.9 40.5 40.2 39.8 39.7 39.7 39.9 40.2 41.2 42 43.6 45.2 46.4 47.3 48.1 49 49.9 50.8 51.9 53.2 54.6 56 57.3 59 61.4 64.2 66.2 65.6 64.4 64.7 67.1 69.6 71.3 70.2 67.5 68.9 78 92.7 107.4 120.2 131.5 139.7 146.2 153.6 159.3 163.9 166.6 169.5 172.5 175 177.2 179.1 180.7 181.6 182.2 182.9 183.3
21 22 22 22 21.9 21.5 21.4 21.3 21.2 21.1 21.2 21.2 20.7 20.2 20.1 20.7 21 21 21.2 21.3 21.5 21.5 21.5 21.6 21.7 21.8 21.9 22.1 21.9 21.6 21 19.3 17.6 18.8 18.7 17.9 18.1 18 18.5 18.4 19.7 20.9 21.9 22.1 22.3 22.5 22.1 21.3 20.2 20.2 20.2 20.2 20.5 20.8 20.4 21.4 21.8 21.7 21.5 21.6 21.6 21.5 21.5 21.5 21.8 22.2 23.2 24.3 24.9 25.6 26.6 27.5 28 28.4 29.5 31 32.1 33.3 35 36.3 37.3 38.1 38.8 40 40.9 41.8 42.9 44.6 46.6 49.1 51 52.6 52.9 53.3 53.4 52.8 52 51.7 51.4 51.1 51 49.9 48.2 47.1 46.4 46.2 45.9 45.2 45.3 45.6 45.8 46 46.3 46 45.8 45.6 45.5 45.1 44.7 44.1 43.5 44.1 44.6 45.1 45 45.4 45.8 45.9 45.7 45.5 45.3 44.6 43.7 42.9 42.4 42 42.2 42.2 42.2 42.5 42.6 42.5 42.7 42 41.5 41.1 40.8 40.4 40 40.2 40.5 40.8 39.8 42.2 43.7 45 46.1 46.9 47.8 48.9 50 51.1 52 53.3 54.6 56 57.8 59.4 61.9 63.1 62.6 62.1 62.2 63.1 65.1 64.8 65.6 69.1 78.4 90.1 101.1 112 120.4 127.8 135 142.8 149.3 155.3 160.5 163.9 166.6 169.3 172.3 175 176.7 178.7 179.6 180.4 181.3 182.1
21.2 26.2 21.8 21.8 22 21.6 21.4 21.3 21.2 21.1 21.2 21 20.5 20.2 19.8 20.3 20.9 21.1 21.3 21.4 21.5 21.6 21.6 21.7 21.7 21.8 22 21.7 21.4 20.7 19.5 17.8 18.5 18.2 18.3 18.7 18.8 18.7 18.5 19.4 20.9 22.6 22.5 22.2 22.3 22.5 22.2 21.2 21 21.1 21.1 21 21 21.1 20.7 20.9 21.9 21.8 21.9 21.9 22 22 21.9 22 22.2 22.7 24 21.9 24.9 26.1 27 27.8 28.4 29.1 30.1 31.5 33 34.7 36.2 37.7 39.3 40 40.9 42.2 43.2 45.6 47.9 50.1 52.3 54.5 56.5 57.8 58.7 58.9 58.3 57.5 57.1 56.9 57.5 57 56.5 55.1 53.5 52 49.8 48.9 48.2 46.8 46.8 47.1 47.4 47.7 46.9 46.8 46.7 46.4 46 45.7 45.3 44.7 44.2 44 45.5 46.1 46.2 46.3 46.4 46.3 46.2 46.1 45.7 45.1 44.3 43.4 42.9 42.5 42.9 42.9 42.9 43.3 43.6 43.6 43.7 43.4 42.5 42.1 41.7 41.1 40.8 40.6 40.8 41 41.2 41.6 42.3 43.1 44.6 45.8 47 48.1 49.3 50.4 51.3 52.3 53.3 54.8 56.5 58.2 59.8 60.2 60 59.7 59.8 60.7 62.1 64.4 68.5 75.4 83.6 90.8 97.8 104.8 110.8 118.4 126.4 134.2 141.5 149 154.4 158.2 161.8 165.6 168.8 171.4 173.8 175.9 177.1 178.3 178.9 179.6
27.6 27 23.9 21.5 21.9 21.6 21.4 21.3 21.2 21.2 21.1 20.8 20.5 20.2 20.1 20.1 20.5 21 21.3 21.5 21.6 21.7 21.7 21.7 21.8 21.8 21.5 21.2 20 19 18.1 18 18.6 18.1 18 18 18 18.3 19.3 20.6 22.5 22.6 22.5 22.3 22.4 22.3 22 21.4 21.2 21.5 21.5 21.4 21.3 21.2 21.1 20.8 21.7 21.8 22 22.1 22.3 22.4 22.5 22.5 22.6 22.8 23.2 23.9 25.3 26.5 27.4 28.2 28.8 29.9 30.8 32.2 34 35.1 36.8 39 40.7 42.1 43.2 44.5 48.7 52.1 54.8 56.1 58.1 59.9 61.9 63.3 64.4 64 63.7 63.4 62.9 62.2 63.2 62.6 61.2 60 58.9 57.3 55.4 53.1 51 49.7 48.4 48.8 49.1 48.3 47.7 47.6 47.2 46.8 46.4 46.1 45.9 45.5 45.2 45.8 46.4 46.6 46.8 46.9 47.1 46.9 46.8 46.5 46.1 45.7 44.8 44 43.3 43.1 43.5 43.6 43.8 44.2 44.6 44.6 44.8 44.8 43.8 43.1 42.6 42 41.7 41.3 41.3 41.4 41.5 41.9 42.1 42.2 43.8 45 46.2 47.3 48.5 49.6 50.6 51.6 52.5 53.4 55.2 56.6 57.9 57.9 57.7 58.1 58.4 60.1 62.6 66.2 69.1 73.3 77.2 83 87.7 91.5 99.9 106.6 115.5 123.9 131.8 139.5 147.1 151.4 155.7 160.1 164.6 168.2 170.7 173 174.2 175.4 176.4 177.1
26.3 23.2 25.1 25.2 24.5 23.2 21.6 21.4 21.2 21.1 21 20.8 20.6 20.5 20.5 20 20.2 20.7 21.1 21.5 21.7 21.7 21.8 21.8 21.5 21.2 20.4 19.2 17.5 18.7 17.8 18.4 18.3 18.2 17.9 18 18 19.5 21.1 22.3 22.4 22.4 22.5 22.5 22.5 22 21.3 20.8 20.4 21.1 21.4 21.4 21.3 21.3 21.2 20.9 21.4 21.6 21.8 22 22.3 22.5 22.6 22.7 22.8 23 23.4 23.8 25.7 27 27.8 28.5 29.4 30.6 31.7 33.2 34.4 35.6 37 39.4 42 44.5 47.4 50.5 55.2 58.5 59.9 60.3 61.6 64.5 66.7 67.9 69 69.6 69.6 69.4 67.8 67.6 68.3 67.4 65.9 64.8 63.6 62.7 61.3 58.5 55.6 52.6 51.3 50.7 49.9 49.2 48.4 48 47.6 47.2 47 46.8 46.6 46.5 46.1 46.6 46.9 47.2 47.3 47.4 47.8 47.6 47.3 46.9 46.5 46.1 45.4 44.6 43.8 43.7 44.1 44.3 44.6 45 45.4 45.8 46 45.7 45.1 44.5 44 43.4 42.7 42.2 41.9 42 41.9 42.1 42.4 42.2 43.3 44.3 45.4 46.6 47.7 48.9 49.9 50.8 51.5 52.2 53.7 54.8 55.8 56 56.2 56.7 58.1 60.3 61.9 64.1 66.5 69.4 72.1 74.2 76.7 81.4 88.3 95.5 104.5 112 119.4 126.6 135.6 142.8 148 152.7 158.3 162.9 166.4 168.3 170.4 172.1 173.5 174.6
24.1 23.8 27.2 26.5 25.4 23.7 22.4 21.6 21.5 21.5 21.6 21.1 20.9 20.8 20.9 20.7 19.9 20.3 20.8 21.2 21.6 21.8 21.5 21.1 20.7 20.1 18.3 16 16.8 19 18.5 18.2 18 17.9 17.9 18.5 19.4 21.4 21.8 22.1 22.4 22.3 22.3 22.4 22.2 21.7 21.3 21.1 21 20.7 21 21.4 21.3 21.3 21.3 21.1 21.4 21.6 21.8 22.1 22.3 22.5 22.7 22.9 23 23.1 23.6 24.4 26.2 27.4 28.2 29.1 30 31.4 32.8 34.1 35.1 36.4 38.3 43.1 48.2 51.3 53.5 56.8 60.8 64.1 65.7 65.7 67.1 68.5 70.7 72 73.9 74.6 74.8 74.8 72.3 72.1 72.3 71.7 70.7 69.6 68.7 67.9 66.2 63.1 59.8 55.8 54.1 52.3 51.2 50.5 49.5 48.7 48.3 47.9 47.6 47.4 47.3 46.8 46.8 47.1 47.5 47.8 47.8 48.4 48.5 48.2 47.8 47.4 46.9 46.5 45.9 45.1 44.3 44.3 44.7 45.1 45.8 46.4 47.1 47.5 47.6 47.5 46.7 46 45.4 44.8 44.1 43.4 42.7 42.6 42.4 42.4 42.5 42.3 42.7 43.5 44.7 45.8 46.9 48.1 49.1 49.8 50.5 51.2 52.4 53.5 54.1 54.5 54.7 55.3 57.1 58.6 59.8 61.4 63.4 66 67.9 70 73.7 78.2 83.9 89.5 95.7 101.9 107.2 113.7 122.2 131.4 138.7 144.2 150.7 156.4 160.1 163 166 168.4 169.9 170.9
25.6 26 21.2 21.3 21.1 21.2 21.1 21 21 21.2 21 21 21.5 21.5 21 21 20.5 19.7 20.8 21.2 21.6 21.1 20.7 20.1 18.6 17.4 17.3 18.6 18.9 18.4 18.2 17.6 18.3 18.4 18.4 18.7 21.2 22 22 22.3 22.4 22.3 22.2 22.2 22 21.7 21.4 21.1 21.3 20.8 20.9 21.1 21.4 21.4 21.4 21.4 21.4 21.6 21.9 22.1 22.3 22.5 22.7 22.9 23.1 23.2 23.7 25 26.8 27.9 28.7 29.6 30.8 32.1 33.7 35 36.3 38.3 42.9 48.8 54.2 57.4 59.6 62.1 65.7 68.5 70.3 71.4 72.8 74.2 75.5 77.4 79.6 80.4 80.6 78.9 77.4 76.8 77.1 77.2 75.8 74.9 74 73.1 70.5 67.4 64.1 59.2 55.8 54 52.6 51.7 50.7 49.7 49.2 48.7 48.3 48 47.7 47.4 47.1 47.6 48 48.4 48.3 49.4 49.2 48.8 48.4 47.9 47.5 46.8 46.1 45.4 44.7 45.2 46.1 46.8 47.4 48.1 48.7 49.2 49.3 49.2 48.8 47.8 46.9 46.1 45.5 44.8 44.4 43.6 43.2 42.8 42.9 43 43 43.3 43.9 44.9 46 46.9 47.9 48.8 49.4 50.1 51 52.1 52.5 52.8 53.2 54.2 55.8 56.6 57.8 59.3 61 62.4 64.8 67.4 70.7 74.6 79.2 84.6 89.8 93.8 97.3 102.9 110.4 121.4 130.3 136.6 142.8 148.5 153.3 156 160.4 163.8 165.7 166.7
24.8 21.5 21.5 21.1 21.1 21.1 21 20.8 20.7 20.7 20.8 20.8 21 21.2 21.3 21.5 21.4 20.4 19.9 20.6 20.4 19.6 18.3 17.9 17.3 17.4 18.3 18.4 17.2 18 17.9 18 18.2 18.4 18.6 21.9 21.3 21.9 22.2 22.4 22.3 22.3 22.2 22.1 22 21.7 21.5 21.4 21.6 21.1 20.7 21 21.2 21.4 20.7 21.6 21.7 21.7 21.9 22.1 22.3 22.5 22.7 22.9 23.1 23.3 24 25.8 27.5 28.3 29.1 30.1 31.6 33.1 34.2 36 38.8 42.1 48.3 54.5 58.6 61.8 64 66.2 69 71.8 74.3 76.7 77.9 79.1 80.5 83.3 86.8 87.1 86.4 84.5 82.5 82.1 83.8 83.9 82.3 80.3 79.5 78.1 75.1 72 67.4 62.3 58.2 56 53.9 52.9 51.8 50.9 50.5 49.8 49.1 48.5 48.3 48 47.9 48.4 48.5 48.9 49 50.2 49.8 49.4 48.9 48.2 47.5 46.9 46.2 45.5 45.4 46.5 47.4 48.3 49.1 49.8 50.4 51 51 50.9 50.7 49.6 48.6 47.7 46.9 46.7 46.8 45.9 44.6 44.2 43.7 43.5 43.5 42.7 44 44.7 45 45.5 46.6 47.8 48.4 49.1 49.8 50.5 51.1 51.8 52.5 53.4 54.4 55.1 57 57.9 58.4 60.2 63.4 65.6 68.1 71.6 75 79 83 87.7 93.2 99.3 107 115 123.7 131.1 138 142.3 144.5 150.7 155.7 158.5 160.7 162.2
21.2 21.3 21.3 21.1 21 20.9 20.8 20.7 20.5 20.5 20.5 20.6 20.6 20.6 20.6 20.6 21.2 21.5 21.4 19.4 17.9 17.6 15.9 17.7 17.8 18.5 18.3 18 18 17.9 17.9 18 18.2 19.9 21.2 20.3 21.6 21.9 22.4 22.4 22.3 22.2 22.1 22 21.9 21.7 21.5 21.6 21.8 21.2 20.8 21 21.2 21.4 21.4 21.6 21.7 21.9 22 22.2 22.4 22.6 22.8 23 23.3 23.5 24.6 26.5 27.9 28.7 29.6 30.8 32.9 34.4 35.8 37.2 40.7 46.6 52.9 58.2 62.4 65.4 67.6 70.1 72.8 76 78.9 81.6 82.9 84 87.5 89.8 90.9 91.6 91.8 90.7 89.2 89.8 90.1 89.3 88.3 86.2 85 82.6 79.6 75.8 70.5 65 60.2 57.8 55.4 54.2 52.9 52 51.3 50.5 49.8 49.2 48.7 48.4 48.3 49 49.7 50 50.4 50.7 50.3 49.6 48.9 48.2 47.6 46.9 46.2 45.6 46.7 47.7 48.7 49.6 51 51.8 52.5 53.1 53.4 53.3 52.8 51.5 50.4 49.7 49.6 49.2 49.2 48.2 46.8 45.6 45.2 45 44.7 44.2 43.6 44.5 44.9 45.3 45.5 46.8 47.4 47.7 48.4 49.5 50.1 50.9 51.6 52.4 52.7 54 56.8 57.1 58.2 60.2 62.1 64.6 67.4 70.4 73.3 76.8 81.5 87.7 94.7 98.7 104.8 112.3 118.7 126.2 131 133 142.5 148.3 152.6 154.7 156.1 157.5
20.8 20.9 21.1 21 20.9 20.8 20.7 20.5 20.4 20.4 20.3 20.3 20.2 20.1 19.1 19 18 17.4 18 21.9 19.2 16.5 18.2 16.2 18.4 18.1 18.1 18 17.9 17.9 18.2 19.2 20.9 21.1 21 21 21.8 22.1 22.3 22.3 22.2 22.1 22 21.9 21.7 21.6 21.5 21.4 21.6 21.4 21.4 21.5 21.7 21.8 21.5 21.8 21.9 22 22.1 22.3 22.5 22.7 23 23.2 23.4 23.7 25.2 27 28.2 29.1 30.2 31.4 33.8 35.3 37 39 44 50.3 56.8 62.1 66.2 69.1 71.9 74.9 78.1 80.3 84.2 88.2 89.6 90.8 92.7 93.8 95 95.8 95.8 95.4 95.2 95.2 94.8 94 93.2 91.5 89.8 87.1 83.4 79.1 73.3 67.9 63.1 59.4 57 55.6 54.4 53.2 52 51.3 50.6 50 49.4 48.9 49.5 50.3 50.8 51.2 50.9 51.2 50.5 49.6 48.8 48.1 47.4 46.9 46.4 46.5 48 49 49.9 51.6 52.6 53.9 54.6 55.2 55.9 55.8 54.9 53.7 52.8 52.6 52.4 52.1 51.7 50.7 49.5 48.1 46.3 45.9 45.5 44.9 44.5 44.2 45.2 45.6 46.1 46.4 46.6 46.5 47 48.7 49.2 49.6 50.4 50.7 51.4 53 55.2 56.5 58 60 62 64.1 66.6 69.8 72.9 76.4 80.8 86.4 91.5 97.5 102.8 106.9 112 115.8 127.3 139 143.3 145.7 149.2 151.5 152.3 152.9
20.5 20.8 21 20.9 20.8 20.6 20.6 20.4 20.3 20.3 20.2 20 18.2 17.9 17.9 17.8 17.7 17.4 17.9 17.8 20 23.1 17.4 18.2 18.1 18.1 18.1 18.2 18.1 18.7 19.7 21.7 21.2 21.8 21.6 21.1 21.8 21.7 22 22.1 22.1 22 21.9 21.8 21.6 21.5 21.6 21.7 21.3 22.7 21.9 22.1 22.2 22 21.9 21.9 22 22.1 22.3 22.4 22.6 22.8 23 23.3 23.5 24.1 25.8 27.5 28.6 29.7 30.9 33.1 34.7 36.1 38 41.8 48.7 54.7 60.4 66 70.3 72.8 76.9 79.9 83.2 87 91.4 93.4 94.7 95.8 96.6 97.6 98.7 99.1 99.3 99.6 99.2 98.8 97.9 97.4 96.5 95 92.6 90 86.7 81.8 76 70.5 65.9 61.5 58.7 57.1 55.9 54.7 53.4 52.2 51.4 50.7 50.1 49.3 50.3 51.1 51.8 51.6 51 51.2 50.4 49.5 48.7 48.2 47.8 47.3 47.2 47.9 49.1 50.3 51.8 53.3 54.2 55.6 56.7 57.3 57.9 57.9 56.9 55.6 55.6 55.6 55.3 54.9 54.1 53 51.8 49.8 47.9 46.8 46.2 45.6 45.5 45.3 45.7 46.3 46.8 47.1 47.3 47.5 46.8 47.5 48.8 48.7 48.5 49.9 51.4 52.8 54.4 56.1 57.8 59.8 61.8 63.8 66.2 68.8 72.3 76.1 80.2 88.8 92.3 96.5 97.2 97.9 106.3 119 129.9 136.1 140.3 142.9 145 146.9 147.3 146.2
20.6 21.1 20.9 20.8 20.7 20.5 20.4 20.2 20.1 19.3 17.9 17.7 17.3 17.4 17.5 17.6 17.3 17.4 16.9 17.5 17.3 18.8 18 19 17.9 17.7 17.7 18.4 18.6 20.5 21 21.2 21.4 22.4 22.1 21.6 21.8 21.7 21.6 21.7 21.7 21.7 21.7 21.6 21.5 21.6 21.7 21.9 21.4 22.3 22.3 22.8 22.1 22.2 22.1 22.1 22.1 22.3 22.4 22.5 22.7 22.8 23.1 23.3 23.8 24.8 26.6 28 29.1 30.2 31.5 33.4 35 36.8 39.5 45.3 53.1 59.2 64.2 69.5 73.7 76.7 81.3 85.1 88.9 93 95.1 96.9 98.2 99.5 100.5 101.4 102.1 102.5 102.7 102.7 102.6 101.9 100.7 100.3 99.5 97.3 95.1 92.4 88.8 84 78.4 72.6 67.6 63 60.1 58.2 56.9 55.7 54.4 53.1 52 51.2 50.6 49.7 50.9 51.8 52.5 52 51.4 51.2 50.3 49.5 49 48.8 48.3 47.9 48.2 49.5 50.9 52.5 53.7 55 55.9 57.3 58.6 59.4 59.8 60.1 58.9 57.7 58.3 58.5 58 57.2 56.1 54.5 52.5 50.6 48.9 47.5 47 46.7 46.4 46.3 46.6 47.2 47.8 47.7 48 48.3 47.9 47.8 47.9 47.9 48.8 50 51.3 52.3 53.4 55.1 56.8 58.8 60.9 63 65.2 67.9 71 74.8 79 88.6 91.1 90.7 88.3 96 107 117.6 125.3 130.7 135.3 138.1 139.5 141.7 141.5 135.6
21.2 21 20.8 20.7 20.6 20.4 19.8 18.6 18.2 17.8 17.4 17.2 17.2 17.2 17.1 18.4 17.6 18.1 17.2 17.2 15.8 17.3 18.1 25.4 20.7 19 19.1 18.1 20.2 20.8 21.2 21.7 22 22.6 22.4 22 21.8 21.7 21.5 21.5 21.5 21.5 21.5 21.5 21.5 21.7 21.8 22 21.7 21.9 22.7 22.3 22.1 21.2 22.1 22.2 22.3 22.4 22.5 22.7 22.8 23 23.4 23.8 24.3 25.8 27.4 28.6 29.6 30.7 32.8 34.2 35.6 37.8 40.9 47.8 55.3 61.7 67 72.2 76.1 80.6 86.5 91.1 94.7 96.9 98.7 100.1 101.5 102.8 104 104.9 105.4 105.8 105.9 105.9 105.9 104.8 103.7 102.8 101.3 99 96.3 93.3 89.8 85.7 80.3 74 68.4 64.3 61.4 59.1 57.8 56.5 55.1 53.8 52.6 52 51.2 50.6 51.5 52.6 53.2 52.4 52.4 51.1 50.1 49.7 49.4 49.1 48.9 48.6 49.6 51.7 53.2 55.2 56.4 56.8 57.5 58.9 60.3 61.5 61.9 62.2 61.1 60.2 61.1 60.8 60.1 58.8 57 55.1 53.5 51.8 49.9 48.6 47.5 47.5 47.3 47.2 47.7 48.9 49.1 48.8 49.2 49.4 49.5 49.3 48.5 48.2 49.1 50.2 51 51.6 52.5 54.1 55.6 57.6 59.7 61.7 64.1 67.2 69.9 74.5 78.6 81.4 82.9 82.6 87.5 97.3 105.4 112.5 119.6 124.6 127.6 130.1 132.3 134.2 131.2 122.5
21.3 21.1 20.8 20.6 20.5 19 18 17.7 17.8 17.4 17.3 17.2 17.2 17 17.7 17.8 18.8 18.1 17.1 17.6 18.4 17.3 18.1 18.9 26.4 22.4 20 21.8 19.2 20.9 21.6 21.9 22.3 22.2 22 21.8 21.5 21.4 21.4 21.5 21.4 21.4 21.4 21.5 21.6 21.7 21.8 21.9 22 20 22 22.3 23 22.5 22.4 22.6 22.4 22.5 22.7 22.8 22.9 23.6 24.1 24.4 25.4 26.8 28 29.2 30.3 31.9 33.2 34.7 36.7 38.9 43.5 50.4 57.6 63.8 69.4 73.8 77.8 83.5 89.7 96 98.4 100.2 101.6 103 104.4 105.8 107.1 108 108.7 108.8 108.6 108.5 108.1 107.3 106 104.1 102 99.7 96.8 93.8 90.3 86.2 80.8 74.9 69.5 65.3 62.2 59.7 58.5 57.2 55.9 54.6 53.3 52.5 51.9 51.8 52.6 53.2 53.7 54.5 53.5 52.5 51.7 50.4 49.8 49.5 49.4 49.5 50.5 52.8 55.1 57.1 58.4 58.8 59.7 60.8 62 63.3 64.2 64.1 63 62.5 63.5 63 61.8 59.9 58.3 57.1 55.6 53.4 51 49.4 48.6 48.9 48.9 48.8 48.8 50 50.6 50.4 52.2 52.8 52.5 51.6 50.7 49.8 48.7 49.9 49.9 50.9 51.6 53 54.5 56.4 58.5 60.3 62.3 64.6 68.1 73.3 76.8 77.8 77.3 79.3 87.6 93.4 100.4 105.7 112.1 117.4 119.9 121.6 122.8 122.1 118.9 108
21.3 21.2 20.8 20.2 18.4 17.6 17.6 17.6 17.5 17.4 17.3 17 17.5 15.4 17.6 18.2 18.2 18.3 18.2 17.4 17.7 18.8 19.3 19.8 20.3 26.5 21.7 19.5 19.3 21.7 22.5 22.6 22.3 21.9 21.6 21.4 21.3 21.4 21.4 21.4 21.4 21.4 21.5 21.6 21.8 21.9 22 22.1 22.2 22.1 22.2 21.7 22.9 23.2 22.9 22.6 22.5 22.7 22.8 22.9 23.1 24 24.9 25.5 26.4 27.3 28.6 29.7 31 31.9 33.9 35.9 37.9 39.9 45.9 52.7 59.3 65.1 71.1 76.3 80.3 86.1 92.5 100.2 101.6 103.2 104.6 106 107.4 108.8 110.2 111 111.4 111.3 110.9 110.7 110 108.4 106.4 104.4 102.4 99.3 96.3 93.3 89.6 85.4 79.7 73.8 68.5 65.5 62.6 60.3 59 57.9 56.6 55.3 54 53.1 52.5 52.8 53.3 53.8 54.2 54.4 53.6 52.7 51.9 51.1 50.4 50.4 50.4 50.4 51.5 53 55.9 58.7 60.4 61.2 62 63.2 64.4 65.5 66.1 65.9 64.9 64.8 65.4 64.4 62.9 61.5 60.4 59.3 56.8 54.3 52.1 50.2 49.9 50.2 50.5 50.2 50 51.1 51.8 52.1 53.8 55.4 54.9 54.2 53.4 52.6 51.7 49.9 49.9 49.9 51 52.1 53.5 55.2 57.1 59 60.9 62.9 65.2 68.5 70.7 71.9 74.1 80.5 85.4 88.7 93.2 97.3 102.6 108 110.8 111.8 112.6 111.5 106.6 90.2
21.2 21.1 18.9 18.5 17.4 17.4 17.4 17.5 17.4 17.4 17.3 16.9 18.1 17.7 17.9 17.8 17.7 18 18.4 18.3 18.4 19.1 19.8 20.3 20.9 21.1 25.8 25.6 18.9 21 22.9 22.6 22.2 21.9 21.5 21.2 21.3 21.3 21.4 21.4 21.4 21.4 21.6 21.7 21.9 22 22.1 22.2 22.3 22.3 22.4 22.6 22.6 23.1 22.9 22.7 22.7 22.8 22.9 23.1 23.2 24.1 25.2 26.1 27 27.9 29.4 30.5 31.3 31.3 34.1 36.4 38.7 41 46.6 54.4 60.4 66 72.2 78.3 82.5 88.2 94.3 102.5 104.8 106.2 107.6 109 110.4 111.8 113.1 113.6 113.9 113.9 113.5 112.5 110.5 108.7 106.8 104.8 101.9 98.8 95.8 92.5 89 84.1 78.6 72.9 67.8 65.4 62.9 60.9 59.6 58.3 57.3 56 54.8 53.7 53.2 53.6 54.1 54.6 54.9 54.5 53.9 53.1 52.2 51.7 51.4 51.4 51.4 51.4 52.2 53.6 56.5 59.3 62.2 63.5 64.4 65.6 66.6 67.5 67.8 67.5 66.6 66.8 66.6 65.6 64.8 63.7 62.6 60.6 58.1 55.2 54 52.3 52.6 52.9 52.4 51.4 51.2 52 52.7 53.7 55.4 57.2 57.2 56.7 55.9 55.1 54.3 53 52.2 51.6 49.9 51.5 52.5 54 55.8 57.6 59.5 61.2 63 64.8 67 69.8 74.9 79.8 81 82.9 84.5 88.1 92.4 96 99.3 101.1 102 100.4 93.8 78.9
19.7 19.9 17.5 17.6 17.2 17.1 17.1 17.5 17.3 17.1 17.1 19.1 18 17.9 17.8 17.6 17.5 17.6 17.9 18.4 18.9 19.3 20.4 21.1 20.7 20.7 20.8 23.4 26.8 19.7 22.4 22.5 22.2 21.7 21.4 21.4 21.3 21.3 21.4 21.3 21.4 21.6 21.7 21.8 22 22.1 22.2 22.3 22.5 22.5 22.6 22.8 23 23.2 23 22.9 22.9 23 23.1 23.2 23.3 24.3 25.4 26.5 27.5 28.4 29.7 29.8 29.6 31.4 34.2 36.1 38 41 46.6 54.8 60.7 66.3 73 79.3 84.6 90.1 97.5 105.5 106.9 109.1 110.5 111.9 113.3 114.7 115.4 115.8 116.2 116 115.1 113.6 111.4 109.1 107.1 104.6 101.5 98.4 95.3 91.9 88.1 83.1 77.6 72.2 67.7 65.1 62.7 61.1 59.9 58.8 57.6 56.6 55.4 54.1 53.6 54.2 54.8 55.2 55.3 54.8 54.1 53.5 53.1 52.7 52.4 52.4 52.4 52.4 53.1 54.3 57 59.9 63 65.2 66.6 67.6 68.6 69.3 69.4 69 68.7 68.7 68.1 67.1 66.7 65.8 64 61.9 58.9 57.5 56.5 54.7 55.3 55.1 54.7 53.7 53.5 53.8 54.8 56 57.3 59 59.4 59.1 58.4 57.6 56.8 55.4 53.6 52.4 52.1 50.8 51 52.9 54.6 56.2 57.7 59.3 61.1 62.9 65.4 68.7 73.1 76.8 77.9 77.9 79.3 80.6 83.5 87 89.6 90.8 91.5 89.5 80.8 76.4
19.4 18.3 18.3 18.6 18.5 15.9 17.3 17.4 17.2 16.9 18.5 17.8 17.9 17.8 17.7 17.5 17.8 18.2 18.6 18.9 19.5 20.3 20.9 20.6 20.7 20.7 20.8 20.7 20.3 25.6 22.7 22.3 21.8 21.5 21.5 21.6 21.5 21.3 21.3 21.4 21.5 21.7 21.8 22 22.1 22.2 22.3 22.5 22.6 22.7 22.9 23 23.2 23.4 23.1 23 23 23.1 23.3 23.4 23.6 24.7 25.7 26.7 27.5 29.3 29.5 30.6 30.5 32.4 35.2 36.3 37.4 41.6 46 52.8 59.9 66.2 72.8 80.3 86.3 91.9 100.6 108.8 110.5 112 113.4 114.8 116.2 117.2 117.5 117.9 117.9 117.4 116.3 114.7 112.5 110.1 107.3 104.1 101 97.8 94.2 90.1 85.3 80.3 75 70.2 66.9 64.8 62.6 61.2 59.8 58.6 57.8 57.4 56.5 55.6 55.3 55.6 55.7 55.6 55.5 55.2 54.5 54.3 54.1 53.7 53.3 53.4 53.4 53.4 54 55 57.5 60.8 64.1 66.7 68.4 69.6 70.6 70.9 70.9 71 70.7 70.1 69.5 68.7 68.6 67.9 65.8 62.6 61.7 61.3 59.5 58.2 58 57.9 57.5 56.7 56.2 56.6 57.1 58.3 59.7 60.8 61.1 61.2 60.9 60.1 59.3 58 56 53.8 53.1 53.3 51.7 52.2 52.6 55.3 56 57.3 59.1 60.9 63.7 67.1 70.7 73.9 75.1 74.2 74.2 74.5 76.7 80 82 83.7 83.1 80.3 75.5 77
18.1 18.2 18.3 18.4 18.4 18.4 18.6 16.7 18.5 18.3 17.8 17.6 17.8 17.7 17.5 17.7 18.1 18.9 19.3 20.1 20.1 20.2 20.7 20.6 20.7 20.7 20.7 20.6 20.5 19.9 23.8 23 22 21.5 21.4 21.2 21.6 21.6 21.4 21.5 21.6 21.8 21.9 22.1 22.2 22.4 22.5 22.6 22.7 22.9 23 23.2 23.3 23.4 23.3 23.2 23.2 23.3 23.5 23.8 24 25.2 26.1 27.4 27.7 28.7 29.8 31 31.3 33.5 36.1 37 39.9 42.2 46.3 51.6 58.2 64.5 71.1 78.3 85.8 92.7 101.1 111.7 113.4 114.8 116.3 117.7 118.7 119.3 119.7 119.9 119.4 118.5 117.3 115.4 112.9 110.6 107 103.2 97.7 93.1 88.7 84.4 80.7 77.1 72.8 68.8 66.7 65 63.3 61.9 60.5 59.6 59 58.4 58.1 57.2 56.4 56.5 56.6 56.4 55.9 55.6 55.2 55 54.8 54.5 54.3 54.5 54.6 55 55.4 56.2 58.3 61.7 65.5 68.2 70 71.3 72.3 72.7 72.7 72.8 72 71.4 70.8 70.4 70.3 69.6 67 64.8 65.3 64.4 62.7 62 61.6 61.4 61.2 60.5 60 60.1 60.3 60.9 62 62.9 63.3 63.3 63 62.3 61.2 60 58.3 55.5 53.4 52.2 52.6 53.1 53.4 52.8 54.4 55.6 57.1 59.2 62 65.3 68.1 71.2 71.7 70.7 70 70.2 72.4 74.4 76.4 79.1 78.9 74.8 72.5 77.4
18.1 17.6 17.8 17.8 18 18.2 17.8 18 18 18.1 17.8 17.5 17.6 17.7 17.8 18.1 19.7 19.2 19.2 19.1 19.5 20 20.5 20.6 20.7 20.7 20.6 20.5 20.6 20.8 20.1 19.9 22.2 21.4 20.9 20.4 23.7 26 26.2 21.6 21.7 21.9 22 22.2 22.4 22.5 22.6 22.8 22.9 23.1 23.2 23.4 23.3 23.5 23.6 23.4 23.3 23.6 23.8 24.1 25.2 25.7 25.7 26.5 27.6 28.9 30.5 32.2 32.6 32.8 34.9 38.5 41.3 43.8 46.7 50.4 56.1 62.3 68.9 75.6 82.5 89.5 96.4 105.8 116.1 117.5 118.9 120.1 121.2 121.5 121.8 121.3 120.6 119.4 117.8 115.7 112.9 110 104.4 97.7 92.3 88.5 84.3 79.6 76.2 73.6 72.3 70.1 68.6 66.8 64.4 62.7 61.4 61 60.3 59.4 59.1 58.8 57.9 57.4 57.6 57.4 56.8 56.3 56 55.8 55.6 55.4 55.6 55.8 56.2 56.7 57 57.5 59.1 62.7 66.6 69.7 71.6 73.1 74 74.3 74.6 74.6 73.5 72.9 72.6 72.3 72 71 68.5 68.3 68.9 67.6 66.6 65.6 65.1 64.9 64.7 64.2 63.8 63.9 63.3 64 64.3 64.8 65.1 65 64.6 64 62.8 61.5 59.4 56.4 53.8 52.1 52.8 53.9 54.2 53.8 54 54.6 55 57.4 59.5 62 64.5 66.2 66.5 66 65.8 66 68.4 70.4 72.3 75.5 74.4 71.1 71.2 79.6
18.1 17.5 17.9 18.5 18.6 18.8 18.9 18.9 19 19 18.9 18.6 18.9 20.3 18.7 20.1 18.2 18.1 18.3 19 19.4 19.9 20.3 20.6 20.7 20.6 20.5 20.7 21 21.1 21.2 21.3 21.2 21.1 25.1 21.1 21.2 22.3 22.7 23 23.1 22.2 22.2 22.4 22.5 22.6 23 23.4 23.2 23.3 23.4 23.8 23.9 23.9 24.2 24.6 24.7 24.8 24.5 24.7 24.6 25.3 26 27 28.1 29.3 30.9 32.5 34.9 36.6 35.9 40.1 42.3 44.5 47.5 50.6 54.3 60.1 66.7 73.1 79.2 86 93.7 101.7 112.5 119.6 120.9 122.2 123.1 123.2 123 122.4 121.5 120.2 118.6 116 113.1 109.2 103.1 98.6 94.3 90.2 84.6 80.3 78.7 76.4 74.6 71.9 70.1 67.4 65.5 63.8 62.4 61.6 60.7 60.3 60.2 59.7 59.4 58.6 58.5 58.4 57.8 57.3 56.9 56.7 56.5 56.3 56.8 57.4 57.9 58.3 58.7 59.7 61.1 63.6 67.7 71.3 73.2 74.8 75.7 75.9 76.3 76.2 74.9 74.9 74.6 74.3 73.8 72.9 70.5 71.5 72 71.3 70.3 69.2 68.7 68.4 68.2 68 67.6 67.1 66.1 66.8 66.8 66.9 67 66.7 66.1 65 63.9 62 59.7 56.2 53.8 53.3 54.2 54.9 55.4 55.5 55.4 54.4 55.5 57.2 57.5 57.7 58.7 59.4 60.1 60.3 60.9 61.7 63.2 65.6 68.4 71.2 69.6 68.2 70.5 77.4
17.8 17.3 18.3 19.1 19.6 19.8 19.9 20.1 19.9 20.1 20.2 20.4 20.5 19.6 19.2 19 18.8 18.9 18.7 18.9 19.3 19.8 20.2 20.7 20.6 20.5 20.8 21.1 21.3 21.4 21.5 21.6 21.5 21.6 25.5 27.5 22.3 22.4 22.2 22 22.3 22.4 22.6 22.7 23.3 23.9 24.1 24.2 24.4 24.6 24.8 24.8 24.5 24.4 24.7 24.1 24.4 24.9 24.6 24.9 25.3 25.6 26.3 27.5 28.6 29.8 31.2 32.6 35.1 37.2 36.8 40.2 42.7 45.1 47.5 50 53.5 58.9 65.1 71 76.8 82.8 90.8 99.2 108 118.3 122.7 124.1 124.5 124.4 124 123.1 122.2 121 119.4 116.8 113.9 110.7 106.9 103.1 96.7 90.5 86 84.4 82.7 79.8 76.9 74.2 71.1 68.5 66.8 65.2 63.8 62.7 61.8 61.4 61.6 61.1 60.5 60.1 59.4 59.4 58.8 58.3 57.9 57.6 57.4 57.6 58.3 58.8 59.3 59.8 60.9 62.4 64.5 65.5 69.3 72.9 74.8 76.5 77.2 77.9 78.1 77.6 76.6 76.8 76.6 76.1 75.6 74.6 73.3 74.6 74.9 74.4 73.8 72.8 72.5 72.2 71.9 71.5 70.9 69.9 68.9 69.3 69.3 69.3 68.9 68 67 65.6 63.7 61.5 58.9 56.3 53.7 54.4 55.3 56.2 56.9 57.4 57.6 56.2 57.1 58.9 58.8 58.7 58.9 59.9 61.5 62.5 62.9 62.1 61.7 61.7 62.8 65 65.3 65.2 66.6 68.4
17.3 18.1 18.9 19.6 20.4 20.8 20.9 21.1 20.9 20.3 21.1 21.7 21.2 21 20.7 20.3 19.9 19.9 19.8 19.5 19.5 19.7 20.1 20.5 20.6 20.9 21.1 21.4 21.6 21.8 21.8 21.9 21.5 26 24.8 23.9 22 22.2 22 22.3 22.6 22.7 22.6 22.8 23.4 23.8 24.2 24.2 24.5 24.6 24.7 24.8 24.4 24.2 24.1 24.3 24.5 24.9 24.8 25.2 25.5 25.8 26.5 27.7 28.8 29.7 31.3 32.9 35.2 37 37 40.1 42.7 44.7 46.9 49.4 52.5 57.9 63.3 69.3 75.1 81.2 88.6 96.9 103.1 110.8 120 124.2 125.4 125.1 124.6 123.8 122.9 121.8 120 118 115.3 112.5 108.9 103.6 98 94.3 91.2 89.6 87 82.9 79.6 76.9 73 69.9 68.2 66.6 65.3 64 62.9 62.8 63 62.6 62 61.3 60.7 60.3 59.8 59.3 58.8 58.6 58.5 59.1 59.9 60.3 60.8 61.4 63.4 65.9 68.6 69.1 70.3 74.3 76.6 78.1 78.8 79.4 79.8 79.2 78.8 78.7 78.5 77.9 77.4 76.4 76.1 77.2 77.6 77.4 76.9 76.4 76.2 75.9 75.5 74.7 73.8 72.6 71.5 71.6 71.5 71.1 70.1 68.4 66.8 65.5 63.1 60.4 57.7 55.9 54.4 55.4 56.3 57.3 58.4 59.8 60.4 59.2 59.9 61.1 61.1 61.1 61 61.9 64 65.5 65.7 65.5 64.5 64.5 64.6 63.4 63.3 63.8 65.3 65.7
16.8 18 19.6 20.6 21.2 21.8 21.8 21.8 22 21.1 21.8 22.9 22.7 22.5 22.2 22 21.7 21.4 20.9 20.3 20.4 20.5 20.7 20.9 20.9 21.2 21.5 21.7 22 22.2 22.3 23.5 21.7 21.7 21.8 21.8 21.8 22.1 22.2 22.4 22.6 22.7 22.7 22.9 23.5 23.8 24.2 24.3 24.5 24.6 24.7 24.8 24.8 23.3 24.2 24.4 24.6 25 25 25.4 25.7 26 26.7 27.7 28.6 29.8 31.4 33.1 34.9 36.3 38.8 40.6 42.5 44.4 46.3 49.2 52.1 56.4 61.2 67 73.9 80.5 87.9 92.5 96.1 103 109.9 110.2 112.8 119.6 125.2 124.3 123.6 122.3 120.7 118.7 116.5 113.8 110.4 107.2 102.5 99.9 97 94.3 89.7 86 82.7 78.9 75 71.4 69.8 68.4 67.1 65.9 64.9 65 65.8 65.1 64.4 63.7 63 61.6 60.9 60.3 59.8 59.9 60 60.6 61.8 63 63.5 64 66 69 72.3 73.3 72.5 75.2 78.1 79.7 80.3 80.9 81.5 81.1 81 80.9 80.7 80.2 79.5 78.6 77.9 79.2 79.5 79.9 79.9 79.4 79.2 79.1 78.4 77.6 75.8 74.8 73.7 73.2 72.9 71.7 69.9 68.3 66.8 65 62.1 59.3 56.9 55 55.6 56.5 57.5 58.5 59.4 61.1 62.2 62 63.2 62.9 63 63 63 63.3 64.3 65.6 67.1 67 66.7 67.6 67.5 66.3 66.4 68.8 70.4 71.1
16.8 17.9 20.2 21.4 22.4 20.1 23.2 23.5 23.3 22.9 23.2 23.1 22.9 22.7 22.4 22.2 21.8 21.6 21.6 21.1 21.2 21.4 21.5 21.4 21.3 21.3 21.6 21.9 22 22.2 22 21.6 21.5 21.6 21.7 21.8 21.9 22.1 22.2 22.5 22.6 22.7 22.8 23.1 23.5 23.9 24.3 24.4 24.6 24.7 24.8 24.9 25 24.8 24.3 24.6 24.8 25.1 25.3 25.6 25.9 26.3 26.8 27.6 28.5 29.9 31.6 33.1 34.5 36.3 38.2 39.7 41.7 43.6 46 48.9 52.1 57 63.6 68.9 73.9 80 83.9 85.9 91 97.4 100.9 101.4 103.9 108.2 113.8 123.6 123.9 122.7 121.3 119.4 117.7 115.5 112.8 110.1 107.2 104 100.9 97.8 93.3 89.7 85.2 80.4 76.5 73.6 72.2 70.9 69.7 68.5 67.6 68.4 69.1 68.1 67.5 66.8 65.2 63.1 62.4 61.7 60.9 61.1 61.4 62.6 64.2 66.3 67.2 67.2 69.3 71.9 74.7 76.3 76.1 76.4 78.9 81.1 82 82.7 83.3 83.1 83.2 83.1 82.8 82.5 81.7 80.9 80.6 81 81.4 81.9 82.3 82.4 82.1 81.7 80.8 79.4 78 77 76 74.8 73.4 71.8 69.7 67.9 65.7 63.7 61.7 58.8 56.3 55.6 57 58 58.8 59.7 60.6 62 63.4 64.2 64.7 64.8 64.9 65 65.1 65.5 66.4 67.4 68.3 68.5 68.7 69.7 70.2 69.1 69 71.1 73.8 74.7
17.3 18.4 20.7 22.2 19.8 22.8 23.5 23.6 23.4 22.9 22.7 22.6 22.5 22.3 22.1 21.9 21.5 21.6 21.7 21.7 21.7 21.6 21.6 21.5 21.4 21.4 21.4 21.5 21.7 21.9 21.6 21.6 21.7 21.8 21.9 22 22.1 22.2 22.3 22.5 22.7 22.8 22.8 23.1 23.6 24 24.4 24.5 24.6 24.7 24.8 24.9 25 25 24.6 24.8 25 25.2 25.5 25.8 26.1 26.6 27.2 27.9 28.4 29.6 30.9 32.2 33.7 35.6 37.5 38.7 40.8 42.7 45.7 48.6 52.6 57.2 64.3 70.5 74.4 76.1 77.8 80.5 85.4 91.8 93.1 93.8 96.4 100.8 105.4 111 124.9 123.4 121.9 120.2 118.6 117 114.5 111.9 109.3 106.7 103.4 100.5 97.1 92.4 86.5 82.2 79 76.7 75.2 75.1 73.8 71.9 71.8 73.6 74 72.1 70.6 69 66.6 64.6 63.7 62.6 62.1 62.2 63.5 65.6 67.8 69.9 72 71.4 72.5 75.4 77.1 78.7 78.9 78.6 80.7 82.6 83.6 84.4 85 85 85 85.1 84.9 84.6 84.1 83.2 83.1 82.9 83.4 83.9 84.2 84.5 84.2 83.6 82.3 81 79.5 78.2 76.9 75.7 74 71.8 69.5 66.6 64.2 62.2 60.5 58.4 56.9 57 58.3 59.5 60.4 61.2 62 62.9 64.4 65.5 66 66.5 66.8 66.9 67.7 68.5 69.1 69.8 70.8 70.8 71.2 72 72.3 71.6 70.9 71.6 73.7 74.9
17.4 19.1 21.1 19.1 22.8 23.4 23.4 23.4 22.8 22.2 22.3 22.2 22 21.9 21.7 21.5 21.5 21.5 21.5 21.5 21.6 21.7 21.7 21.6 21.5 21.5 21.6 21.6 21.7 21.7 21.8 21.9 22 22 22.1 22.2 22.3 22.4 22.5 22.6 22.8 22.8 23.1 23.3 23.6 24.1 24.4 24.6 24.7 24.8 24.9 25 25 25 24.9 24.9 24.9 25.5 25.7 26 26.4 27.1 27.5 28 28.5 29.3 30.6 31.8 33.2 35 36.6 37.8 40 42.4 45.2 47.8 51.6 56.5 62.2 67.3 71 71.6 72.7 76.4 80.7 85.5 86.6 87.2 90.1 93.7 98.9 105 110.9 124.6 122.6 121.1 119.5 117.9 116.3 113.6 111.1 108.7 106 103 98.9 92.8 87.2 84.1 82.8 80.5 79.8 80 78.7 76.7 76.3 78.9 79.3 76.8 73.7 70.6 68.1 66.3 64.5 63.6 62.8 63.9 67.1 69.7 71 73 75.1 75.1 75.3 78.4 79.7 80.6 81.4 81.1 82.5 84.1 85.2 86 86.5 86.5 86.5 86.8 86.9 86.6 86.3 85.6 85.4 85.2 85.4 85.7 86.1 86.2 85.4 84.7 83.6 82.2 80.4 79.1 77.9 76.3 74.3 71.9 69.1 66.1 63.1 60.6 58.9 57.5 57.5 58.2 59.6 60.9 61.8 62.4 63.4 64.4 65.3 66.6 67.3 68.1 69.1 70.1 71 71.6 72.7 73.6 74.1 74.2 74.6 75.3 75.3 74.7 73.9 74.1 75 75.9
17.3 19.7 19 18.8 23 23.4 23.3 23.1 22.6 21.9 21.8 21.7 21.6 21.4 21.4 21.4 21.4 21.3 21.3 21.3 21.4 21.5 21.6 21.6 21.7 21.7 21.8 21.9 22 22.1 22.1 22.2 22.2 22.3 22.3 22.4 22.5 22.6 22.7 22.8 22.9 23.1 23.3 23.5 23.8 24.1 24.5 24.6 24.7 24.8 24.9 24.8 24.9 25 24.9 24.8 25.7 25.8 26 26.2 26.7 27.2 27.6 28.1 28.6 29.1 30.1 31.2 32.7 34.4 35.7 36.9 38.8 41.3 43.9 46.5 50.5 54.1 59.5 63.2 65.9 66.7 67.8 71.2 75.5 78.3 79.9 81.7 84.4 88.6 92.8 98.6 104.1 111.4 123.7 121.9 120.3 118.8 117.2 115.4 113 110.6 108.2 104.5 98.4 92.3 90.2 88.7 87.4 84.4 84.8 84.6 83.3 82 81.3 83.5 82.8 79.7 76.5 73.3 69.6 67.5 65.5 64.3 63.6 65.8 69.5 73.2 75.3 75.6 77.3 77.7 78.7 80.9 82.1 82.9 83.2 83.4 84.5 85.8 86.7 87.6 87.9 88 88.3 88.5 88.8 88.7 88.4 88 87.7 87.3 87.2 87.5 87.9 87.6 86.7 85.9 84.9 83.2 81.4 80.1 78.5 76.2 73.6 71.3 68.1 65.2 62.3 59.9 58.4 58 58.5 59.5 60.5 61.5 62.9 64 64.9 65.9 66.8 67.7 69.1 70.1 71.6 72.8 74.4 75.6 76.7 77.7 78 77.9 78.4 79.2 79 78.1 77.6 77.8 78.2 78.1
19.8 19.7 19.7 19.8 23.5 23.7 23.1 22.7 22.3 21.9 21.5 21.4 21.3 21.3 21.3 21.3 21.2 21.2 21.2 21.3 21.4 21.5 21.5 21.6 21.8 22 22.2 22.3 22.3 22.4 22.4 22.4 22.5 22.5 22.5 22.6 22.7 22.8 22.9 23 23.1 23.2 23.5 23.7 24 24.2 24.6 24.7 24.7 24.8 24.8 24.9 25 25.1 25.2 25.5 25.9 26.2 26.4 26.6 27.1 27.5 28 28.4 28.8 29.1 29.9 30.8 32.3 34 35.1 36.2 37.3 39.9 42.6 45.4 49.1 51.9 55.3 58.5 61.2 62.4 63.5 68.1 71 72.7 74.3 76.3 80.4 84.1 88.2 93.2 98.6 105 113.7 122.9 121.3 119.8 118.2 116.7 114.8 112.7 109.7 105 98.6 96.2 95.8 94.6 91.8 89.8 91 90.2 88.8 87.6 87.1 87.7 85.1 82.1 78.4 74.2 70.5 68.4 66.4 64.9 64.7 67.9 72.4 76.8 78.6 78.6 79.2 80.6 81.8 83.1 84.5 85 85.4 85.7 86.8 87.9 88.2 89 89.4 89.6 89.9 90.2 90.3 90.3 90.3 90.1 89.8 89.6 89.4 89.3 89.6 89 88.1 87.2 86.1 84.3 82.4 80.6 78 75.7 73.1 70.6 67.3 64.2 61.6 59.4 58.7 58.8 59.8 60.7 61.8 63 64.3 65.7 66.6 67.6 68.6 69.8 71 72.5 74.4 76.5 78.1 79.4 80.9 82.3 82.6 82.8 82.9 83.1 83.4 82.6 82.1 82.1 82.4 82.1
20.7 19.4 19.7 23.4 23.4 23.1 22.7 22.2 21.9 21.5 21.2 21.2 21.2 21.2 21.2 21.2 21.2 21.2 21.3 21.3 21.4 21.5 21.6 21.7 21.8 22 22.2 22.4 22.6 22.8 22.8 22.8 22.8 22.8 22.8 22.8 22.9 23 23 23.1 23.3 23.4 23.6 23.8 24.1 24.4 24.7 24.7 24.8 24.9 25 25.1 25.2 25.2 25.3 25.6 25.9 26.3 26.7 27 27.4 27.8 28.1 28.5 28.8 29.2 29.9 31.1 32.5 33.7 34.9 36.1 37.4 39 41.5 43.9 46.9 49.9 52.4 54.6 56.4 58.2 61.6 64.2 66.6 67.6 68.7 70.8 75.9 80.3 84.5 88.7 94 99.9 107.3 116.7 121.9 120.8 118.8 117.9 116 114.1 111.1 105.7 101.5 101.5 100.6 99.7 95.6 95.8 97.4 96.4 94.7 93.1 91.9 90.1 87.4 83.8 79.6 74.9 71.3 69.2 67.3 65.6 66.4 69.6 74.4 79.4 81.6 81.6 81.7 82.8 84.1 85.4 86.7 87.3 87.6 87.9 89.1 89.7 90 90.3 90.9 91.2 91.4 91.6 91.7 91.6 91.6 91.7 91.7 91.6 91.6 91.5 91.3 90.4 89.5 88.6 86.6 84.8 82.8 80.6 78.3 75.7 72.9 69.9 66.6 63.3 61 59.6 59.2 59.8 60.9 62.1 63.2 64.4 66 67.4 68.3 69.5 70.7 71.9 73.4 75.7 78.4 81.3 82.6 84.7 86.8 88.1 88.3 88.7 89.2 89 88.4 87.7 87.5 87.5 87.9 86.9
21.7 22.5 23 22.9 22.7 22.4 22.2 21.8 21.4 21.2 21 21 21 21 21.1 21.2 21.2 21.2 21.3 21.3 21.4 21.5 21.6 21.8 21.9 22 22.2 22.4 22.6 22.7 22.6 22.6 22.6 22.7 22.8 22.9 23 23.1 23.2 23.3 23.4 23.6 23.7 23.9 24.2 24.5 24.7 24.9 25 25.1 25.2 25.3 25.3 25.4 25.6 25.7 26 26.4 26.7 27 27.4 27.8 28.2 28.6 28.9 29.3 30.1 31.2 32.3 33.6 34.8 36 37.5 39 40.6 42.7 45.3 47.4 49.6 51.9 53.8 55.6 57.4 59.4 61.9 64.1 65.1 67.7 70.8 75.2 80.2 85.4 89.7 95.7 102.8 108.5 110 114.9 119.7 119 117.3 115.8 113.1 108.3 107 108 107.2 102.9 100.2 101.8 102.5 101 99 96.7 94.5 91.9 88.7 85.1 80.6 75.2 71.6 69.5 67.7 66.7 67.9 71.9 77.1 81.6 83.9 84.9 85.1 85.8 86.8 87.5 89 89.6 89.9 90.1 91.2 91.5 91.8 92.1 92.5 92.7 92.8 93 93.1 93 92.9 93 93 93 92.8 92.8 92.5 91.8 90.8 89.3 87.1 85.1 82.8 80.4 77.9 75.2 72.5 69.4 66.1 62.7 60.5 59.6 59.7 60.5 61.6 62.7 63.8 65.2 67.2 69.1 70.4 71.6 72.9 74.5 76.1 78.9 83.2 86.4 87.2 89 91.2 93 94.3 94.7 95.2 95.8 95.4 95.4 94.1 93.8 93.8 92
21.8 22.8 22.5 22.2 21.8 21.5 21.3 21.3 21.2 21 20.8 20.7 20.8 20.8 21.1 21.2 21.2 21.3 21.3 21.4 21.4 21.6 21.7 21.8 22 22.1 22.2 22.4 22.6 22.7 22.5 22.5 22.5 22.7 22.8 23 23.2 23.3 23.4 23.5 23.6 23.8 23.9 24 24.3 24.6 24.8 25 25.2 25.3 25.4 25.4 25.5 25.7 25.9 25.7 25.9 26.2 26.5 26.8 27.2 27.6 28 28.4 28.9 29.4 30.1 31.1 32.2 33.5 34.8 36.2 37.5 38.8 40.3 42.1 44 46.3 48.5 50.3 52.3 54 55.8 57.5 59.2 61 62.8 64.5 67.3 71.2 76.6 81.5 86.2 91.9 97.5 100.3 102.5 106.4 111.1 120.2 118.9 117.3 115.1 112.6 112.9 112.5 110.6 106.5 106.2 107.2 106 104.1 101.5 98.6 95.3 92.6 89.5 85.2 80.1 75 71.8 69.7 67.9 67.5 69.4 73.7 79 84.6 87 87.6 88.1 88.6 89 89.4 90.6 91.5 92.1 92.4 93.1 93.3 93.6 93.9 93.7 94.1 94.3 94.4 94.4 94.3 94.2 94.2 94.4 94.3 94.2 94.1 93.6 92.7 91 89.2 87 84.8 82.4 79.9 77.5 74.8 72.1 68.9 65.6 62.2 60.6 60.1 60.3 61.2 62.2 63.2 64.3 66 67.8 69.6 72.1 73.8 75.8 77.5 79.2 81.3 85.8 89.7 91.3 92.7 95 97.2 99.1 100.3 101.5 102.7 103.6 104.1 103.4 102.7 101.7 100.4
22.4 21.7 21.8 21.2 20.9 20.6 20.3 20.8 20.9 20.8 20.6 20.5 20.6 20.7 21.3 21.3 21.3 21.3 21.3 21.4 21.5 21.6 21.8 21.9 22 22.1 22.3 22.4 22.6 22.6 22.5 22.5 22.6 22.8 23 23.1 23.3 23.4 23.6 23.7 23.8 24 24.1 24.2 24.4 24.7 24.9 25.1 25.3 25.5 25.5 25.6 25.8 26 26.1 26.3 26 26.2 26.3 26.6 27 27.5 28.1 28.6 29.1 29.6 30.3 31.2 32.1 33.4 34.8 36.1 37.3 38.5 39.9 41.7 43.5 45.7 47.8 49.2 51 52.8 54.5 56.3 58 59.6 61.1 62.7 64.2 67.4 72.9 77.6 82.5 87 90.8 93.2 96 100 105 110.5 119.3 119 118.2 117.6 117 115.7 114 110.3 111.3 110.3 108.1 105 101.1 97.4 93.5 91.4 87.8 83.5 78.7 74.7 71.7 69.7 68.3 69.4 71.4 75.4 80.8 86.3 88.5 90.1 90.6 90.9 91.3 91.6 92.2 93 93.8 94.6 94.9 95.1 95.4 95.4 94.9 95.4 95.7 95.8 95.8 95.7 95.6 95.5 95.7 95.7 95.4 94.9 94.1 92.3 90.6 88.7 86.2 84.2 81.9 79.6 77.1 74.4 71.7 68.3 65 62 61.2 60.8 61.1 61.9 62.9 64 65.1 66.6 68.4 70.2 72.7 75.9 78.5 81.7 83.9 85.3 86.8 91.3 93.8 96.5 98.7 100.9 103.1 105.1 107.2 109.1 110.9 111.7 110.5 111.8 111.9 108.8
21.6 20.6 20.3 20.1 20.3 20.5 20.3 20.3 20.6 20.5 20.4 20.4 20.5 21 21.3 21.3 21.3 21.4 21.4 21.4 21.6 21.7 21.8 21.9 22.1 22.2 22.3 22.5 22.6 22.6 22.7 22.7 22.9 23 23.2 23.3 23.5 23.6 23.7 23.8 24 24.1 24.3 24.4 24.5 24.7 24.9 25.2 25.4 25.6 25.7 25.9 25.9 26 26.1 27 26.5 26.2 26.5 26.7 27.2 27.8 28.3 28.8 29.3 29.9 30.6 31.5 32.3 33.3 34.7 35.9 37.1 38.4 39.8 41.2 42.9 45.2 46.7 48.2 49.7 51.6 53.3 55 56.8 58 59.6 61.1 62.5 64.9 68.6 73 77.7 82 84.8 87.6 90.1 95 99.8 105.4 112.6 120.8 120.6 120.1 119.7 118.1 116.6 115.8 114.5 110.7 105.6 101.3 97.4 92.6 88.6 85.9 83.2 80.1 76.3 73.3 71.4 69.7 69.7 70.7 75 79.6 83.9 88.1 90.4 92.4 92.8 93.1 93.4 93.7 94.1 94.8 95.7 96.2 96.7 96.9 97 96.7 96.1 96.6 97.1 97.2 97.1 97 97 96.8 96.5 96.3 95.9 95 93.9 92.1 90.2 88 85.5 83.3 81.1 79.2 76.7 74 71.1 67.9 64.3 62 61.5 61.5 62.2 62.8 63.8 64.9 66.4 68.4 69 70.7 73.5 77.1 81 84.5 88 90.1 89.3 92.7 96.7 99.6 102 104.3 106.6 109.6 112.1 114.3 115.4 116.4 116.5 117.7 117.5 116.2
20 19.8 20 20.7 21.1 20.9 20.7 20.7 20.6 20.7 20.7 20.6 20.5 21.1 21.4 21.4 21.3 21.2 21.5 21.5 21.7 21.8 21.9 22 22.2 22.3 22.4 22.6 22.7 22.8 22.9 23 23.1 23.3 23.4 23.5 23.6 23.7 23.8 23.9 24 24.2 24.3 24.5 24.6 24.8 25 25.2 25.4 25.6 25.9 26.1 26.2 26.2 26.3 24.9 26.4 26.5 26.7 27 27.5 28 28.5 29 29.6 30.1 30.8 31.7 32.6 33.5 34.7 35.8 37 38.3 39.8 41.1 42.5 44.2 45.6 47.1 48.5 50.3 52.1 53.8 55.4 56.5 58 59.4 60.7 62.5 66.1 69.5 73.8 76 78.7 81.1 84.4 90.4 95.8 101.1 108 116.7 122.9 122.4 122 120.6 119 117.6 113.4 107.3 101.4 97.8 93.2 89.2 85.9 82.9 79.5 76.9 75.6 74.4 73 71.1 71.1 71.9 77.3 83.8 88.7 91.5 93.6 94.7 94.9 95.2 95.5 95.8 96.2 96.7 97.4 97.9 98.3 98.5 98.4 97.9 97.3 97.7 98.2 97.9 97.6 97.3 96.9 96.5 96.3 95.9 95.1 94.4 93.1 91.7 89.7 87.4 84.7 81.6 78.9 76.9 74.9 73.3 70.7 67.1 63.5 62.2 61.7 62.6 63.4 63.9 64.5 65.7 67.5 69.7 71.8 72 74.2 78.6 83.4 87.5 91.1 93.8 92.9 96.3 100 102.8 105.1 107.5 109.8 113.1 116.2 117.4 118.5 119.7 120.5 121.1 120.9 121
19.3 20.2 20.3 21.1 21.3 21.2 21.1 21.1 21 21 21 20.9 20.8 22.7 21.2 21 21.2 21.5 21.6 21.7 21.8 21.9 22 22.2 22.3 22.4 22.6 22.9 23 23 23.1 23.2 23.3 23.4 23.6 23.7 23.8 23.9 23.9 24 24.1 24.2 24.4 24.5 24.7 24.9 25.1 25.3 25.5 25.7 26 26.3 26.5 26.6 26.7 24.7 26.8 26.9 27 27.2 27.7 28.2 28.7 29.3 29.8 30.3 31.1 32 32.8 33.7 34.8 35.8 36.8 38.3 39.7 41 42.3 43.4 44.8 46.1 47.5 49.1 50.8 52.6 53.8 55.1 56.6 58 59.4 60.8 63.1 66.2 68.9 70.7 72.7 75.5 80.5 87.3 92.6 98.1 105.2 113.5 124.9 124.8 124.4 123 121.4 118.6 112.8 107.2 105.7 101.2 96.7 93.4 90.1 84.6 80.4 78.3 77.1 76.2 74.9 72.8 72.8 72.8 76.6 83.3 90.4 94.4 96 96.9 97.2 97.3 97.6 97.8 98.3 98.8 99.1 99.6 99.7 99.9 99.6 99.1 98.6 98.6 98.1 97.5 97 96.5 95.7 95.3 94.8 94.7 94.1 93.1 91.8 90.6 88.9 86.8 84 81.3 77.9 74.4 72.6 70.4 68.5 65.7 63.3 62.2 62.9 63.8 64.6 65.1 65.9 67.3 69.3 71.7 74.2 75 75.4 80.1 85.4 90.1 94 96.9 97.3 99.2 103.5 105.7 108 110.4 112.9 115.7 118.3 120.2 121.5 122.6 122.9 123.2 123.4 123.8
20.5 20.2 20.6 21 21.2 21.5 21.5 21.4 21.4 21.3 21.3 21.1 21 20.8 20.8 21.2 21.5 21.6 21.7 21.8 21.9 22 22.1 22.3 22.4 22.6 22.9 23.1 23.2 23.1 23.2 23.4 23.5 23.6 23.7 23.8 23.9 24 24.1 24.2 24.2 24.3 24.5 24.6 24.8 25 25.2 25.4 25.6 25.9 26.1 26.4 26.6 26.9 27 26.4 26.9 27.2 27.4 27.5 27.9 28.5 29 29.5 30 30.5 31.3 32.2 33.1 34 34.8 35.8 36.8 38.1 39.6 40.9 42 43 44.3 45.6 46.9 48.4 50 51.4 52.6 53.9 55.4 57 58.4 59.8 61.3 64 66.3 68 70.3 73.4 78.7 85.6 92.5 97.6 103.8 111.8 126.5 126.6 126.7 125.4 123.7 119.6 113.8 110.7 107.3 103 99 95.3 90.8 85.5 81.9 81 79.6 78.2 76.5 74.8 74.9 74.6 75.9 81.7 88.8 94.7 98 99.1 99.4 99.6 99.7 99.9 100.4 100.6 100.6 99.9 100.4 100.3 99.7 98.6 97.9 97.2 96.5 95.6 94.7 93.8 92.9 92.5 92.2 91.9 91.5 91.1 90.3 89.1 87.3 85.8 83.3 81 77.6 74.4 70.8 68.1 65.8 64.1 62.8 62.6 63.6 64.7 66 67.1 68.3 69.5 71.9 74.7 77 79 78.6 81.3 87.9 92.9 96.7 99.6 101.1 101.3 105.6 108.6 110.8 112.9 115.2 117.4 119.7 121.6 123.5 124.2 124.7 124.9 125.1 125.5
21.6 21.3 20.7 21.1 21.4 21.5 21.5 21.6 21.6 21.6 21.5 21.4 21.2 20.8 21.3 21.6 21.7 21.8 21.8 21.9 22 22.1 22.2 22.4 22.7 23 23.2 23.4 23.4 23.4 23.4 23.5 23.6 23.7 23.9 24 24.1 24.2 24.2 24.3 24.4 24.4 24.5 24.7 24.9 25.1 25.3 25.5 25.7 26 26.3 26.5 26.8 27 27.3 26.8 26.9 27.1 27.4 27.9 28.2 28.7 29.2 29.7 30.3 30.8 31.6 32.5 33.3 33.9 34.9 35.9 36.9 37.9 39.4 40.7 41.7 42.7 43.8 45.1 46.2 47.7 49.3 50.5 51.5 52.8 54.3 55.8 57.3 58.8 60.7 62.7 64.7 67 69.6 73.2 79 85.4 92.6 98.2 104.5 111.6 123.6 129.1 129.3 128 125.6 120.8 118.5 113.7 110 105.2 101.3 96.4 90.5 85.8 84.9 84.2 82.1 80.3 77.8 77.3 76.8 76.2 76.3 79.5 84.1 88.9 94.4 99.7 101.4 101.8 102 102.1 101.6 100.6 101.1 100.1 99.2 98.1 97.1 96 94.1 93.1 92.4 91.6 90.5 89.4 88.6 88 88.2 88.4 88.2 87.3 86.3 85.8 84.9 83.7 82 79.8 77.2 74.1 70.3 66.9 65 63.9 62.9 63.5 64.2 65.8 67.5 69.9 71.2 72.4 74.5 77.4 80.3 82.3 83.8 82.4 88.9 95 98.6 101.8 103.8 105.4 106.6 110.1 113.1 115.1 116.8 119.1 121.1 123.1 124.5 125.2 126 126.6 126.8 127.2
22.5 21.6 21.1 21.3 21.3 21.4 21.5 21.6 21.6 21.6 21.6 21.4 21.2 21.2 21.6 21.7 21.8 21.9 22 22.1 22.2 22.2 22.5 22.7 23 23.3 23.5 23.6 23.6 23.6 23.6 23.7 23.8 23.9 24 24.1 24.3 24.3 24.4 24.4 24.5 24.6 24.7 24.8 25 25.1 25.3 25.6 25.9 26.1 26.4 26.6 26.9 27.1 27.4 27.1 26.9 27.6 28.2 28.4 28.6 28.9 29.4 30 30.5 31 31.8 32.6 33.2 34 35 36 37 37.9 39.2 40.3 41.4 42.4 43.4 44.6 45.4 47 48.4 49.6 50.6 51.6 53.1 54.7 56.6 58.6 60.5 62.5 64.6 66.6 68.8 73.6 80.2 87.2 92.6 99.2 105.9 113.2 122.1 133.5 133.7 131.2 127.1 123.4 121.1 116.9 113.2 109.8 104.9 98.5 92.6 89.3 90.5 87.5 84.1 81.6 79.5 79.3 79.1 78.1 77.6 78.4 81.2 84.2 88 92.7 97.3 101.9 102.8 102.5 101.7 100.3 97.8 96 94.6 93.2 92.2 90.9 89.6 88.3 87.4 86.2 85.2 84.1 83.3 82.8 83.1 83.6 83.9 83 82.3 81.8 81.3 80.5 79.2 77.5 75.4 72.1 68.2 66 64.5 64 63.8 63.7 65 66.6 68.7 71.6 73.4 74.6 76.8 79.7 82.4 85.4 88.1 87.7 88.1 95.3 99.7 102.9 105.5 107.2 108.5 111.6 114.5 116.7 118.6 120.5 122.3 124.1 125.5 126.3 127 127.8 128.4 128.7
22.5 21.6 21.3 21.3 21.3 21.4 21.5 21.6 21.6 21.7 21.7 21.5 21.2 21.4 21.7 21.8 21.9 22 22.1 22.2 22.2 22.4 22.5 22.8 23.1 23.4 23.5 23.6 23.6 23.6 23.6 23.8 24 24.1 24.2 24.3 24.4 24.5 24.5 24.6 24.6 24.7 24.8 24.9 25.1 25.2 25.5 25.7 26 26.2 26.4 26.7 26.9 27.2 27.4 27.5 26.8 28.3 28.6 28.5 28.6 29 29.5 30.1 30.7 31.2 31.9 32.5 33.1 34.1 35.1 36.1 37.1 38 39 40 41.1 42.1 43.2 44.1 44.8 46.1 47.5 48.6 49.6 50.9 52.7 54.7 56.7 58.6 60.6 62.6 64.6 66.6 70.7 75.9 82.7 90 96.4 102.1 108.9 115.8 124.5 135.4 138.8 136.4 132 128.7 124.6 121.1 119 113.9 106.7 100.3 95.2 94.2 93.3 88.2 84.8 83 82.2 83 81.7 80.3 79.8 80 83.1 86.5 88.2 89.6 92.1 96.2 98.8 100 99 96.5 93.6 92 90.6 89.9 88.6 87.4 86.2 85 83.7 82.6 81.6 80.8 79.5 79 79 78.8 78.7 77.7 76.8 75.8 75.5 74.5 73.9 72.8 70.9 68.5 66.3 64.7 65.3 64.9 64.5 64.2 65.1 66.5 69.2 71.7 74.3 76 78.9 81.6 84.4 87.5 90.6 91.9 90.2 93 99.2 103.5 106.7 109.6 111.3 113.2 115.7 118 119.8 121.5 123.2 125.1 126.4 127.3 128 128.9 129.8 129.9
22.6 22.4 21.8 21.6 21.6 21.6 21.6 21.6 21.6 21.8 21.9 21.6 21.4 21.5 21.7 21.9 22 22.1 22.1 22.2 22.3 22.5 22.6 22.8 23.1 23.5 23.6 23.7 23.7 23.6 23.8 24 24.2 24.3 24.4 24.5 24.7 24.7 24.7 24.7 24.7 24.9 25 25.1 25.2 25.3 25.5 25.8 26 26.3 26.5 26.8 27 27.3 27.5 27.7 27.7 28.4 28.3 28.4 28.8 29.1 29.5 30.1 30.7 31.3 31.8 32.3 33.2 34.2 35.2 36.1 37.1 38 38.9 39.9 41 42 43.1 43.7 44.6 45.6 46.6 47.8 49.2 50.7 52.5 54.5 56.6 58.7 60.6 62.5 64.3 68.4 73.2 79.6 85.9 91.8 98.5 105 111.9 118.9 128.2 140.1 143.8 141.5 138.2 135.4 131 126.8 122.3 116.3 109 104.2 99.5 96.3 93.2 89.9 89.5 86.7 86.3 89.7 85.5 83.5 81.7 83.9 88.7 92.3 94 93.2 91.7 93.1 94.8 96.3 96.6 95 93.2 92.4 92 91.4 90.5 88.7 87.7 86.6 85.2 84.1 83.2 81.3 79.8 78.6 77.7 76.7 75.9 75.4 74.4 73.7 72.4 71.6 70.8 69.8 67.7 66.6 66.4 66.6 66.9 66.5 65.9 65.1 65.5 66.3 68.1 70.9 73.9 76.7 80.2 83.5 86.4 89.7 92.8 94.9 94.4 93.1 98.6 104.3 107.4 110.9 113.5 115.7 117.5 118.9 120.6 122.5 124.2 126 127.3 128.4 129.3 130.2 130.9 131
23.6 23.1 22.5 21.9 21.9 21.9 21.9 21.9 21.9 22 22 21.9 21.7 21.6 21.7 22 22.1 22.1 22.2 22.3 22.6 22.7 22.7 22.8 23.1 23.5 23.6 23.7 23.7 23.7 23.9 24.2 24.4 24.5 24.6 24.8 24.9 24.9 24.9 24.9 24.9 25 25.1 25.2 25.3 25.4 25.6 25.9 26.1 26.3 26.6 26.9 27.2 27.4 27.6 27.7 27.9 28.2 28.2 28.6 28.9 29.3 29.7 30.2 30.7 31.2 31.7 32.4 33.2 34.2 35.1 36.1 37 38 38.9 39.8 40.9 41.9 42.8 43.5 44.7 46 46.9 47.9 49.3 50.7 52.1 54.1 56.1 58.1 60.1 61.9 65.6 69.9 75.2 81.4 88.7 94.9 101.6 109 115.7 124.2 132.7 144 149.7 148.1 145.3 142.3 138.5 134.2 130.4 127.1 120.1 113.6 107.5 101.9 97.6 95.2 93.3 91.3 90.6 91.8 88.3 85.8 84 87.2 93.4 100.5 103.4 98.9 95 94.8 96.2 97.5 98.1 97.2 96 95.2 95.1 94.2 96.5 92.8 90.9 91.3 88.1 86.4 85.3 84.8 83.4 81.4 79.8 78.2 76.8 76.3 75.2 74.4 73.4 72.9 71.8 69.9 68.3 68.6 68.8 68.7 68.5 67.7 67 66.3 65 66.4 68 70.1 72.6 75.5 79.5 84.2 88.1 91.5 94.7 97.4 98.6 96.1 96.8 103.2 108.3 111.6 114.6 116.8 118.4 119.6 120.9 123 125 126.8 128 129.5 130.7 131.6 132 132.1
23.2 23.1 23 22.6 22.2 22.2 22.2 22.2 22.2 22.2 22.2 22.1 22 21.9 21.8 22 22.1 22.2 22.3 22.4 22.7 22.8 22.9 22.9 23.1 23.5 23.6 23.7 23.7 23.8 24.1 24.3 24.6 24.7 24.8 25 25.1 25.1 25.1 25.1 25.2 25.2 25.3 25.4 25.4 25.5 25.7 25.9 26.2 26.5 26.8 27 27.2 27.4 27.6 27.8 28 28 28.3 28.7 29.1 29.5 29.8 30.2 30.7 31.3 31.8 32.5 33.3 34.1 35.1 36 37 37.9 38.8 39.7 40.8 41.8 42.4 43.7 44.9 46.1 47.3 48.4 49.7 51.2 53 54.3 55.5 57.7 60.2 63.9 68.5 73.3 78.9 84.6 91.5 98.8 105.7 112.9 120.8 130.3 141.6 152.6 155.3 154.2 153.2 150.7 148.1 144.3 140.6 137.8 132.5 125.9 119.7 113.4 107.4 103.2 98.3 97.9 97.1 94.5 91.8 90 88.7 89.9 94.7 104.4 107.5 102.4 98.8 98.7 101.1 102.4 102.2 101.9 100.9 99.7 100.3 98.8 96.3 96.1 95.2 98.1 98.5 91.1 90.4 97.5 94.6 85 85.1 85 80.2 77.8 77.4 77.5 76.8 75.3 74.4 73 69.8 70.8 71.2 71 69.8 69.1 68.5 68 67 66.7 68.3 70.5 73.2 75.7 78.4 83.2 87.8 91.7 95 97.9 99.4 99.4 98 102.3 108.2 111.4 114.7 116.8 118.5 119.3 120.2 122 125.3 127.5 128.8 130.5 132 132.9 133.1 133.2
23.1 22.9 22.8 22.7 22.5 22.5 22.4 22.4 22.5 22.4 22.4 22.3 22.3 22.2 22 22.1 22.2 22.3 22.4 22.8 22.9 22.9 23 23.1 23.1 23.5 23.7 23.7 23.7 24 24.2 24.5 24.7 24.9 25.1 25.3 25.4 25.3 25.4 25.4 25.4 25.5 25.6 25.6 25.7 25.8 25.8 26.1 26.3 26.6 26.9 27.1 27.3 27.5 27.7 27.9 28.1 27.2 28.4 28.8 29.2 29.6 30 30.3 30.8 31.3 31.8 32.6 33.4 34.3 35.1 36 36.9 37.8 38.7 39.6 40.6 41.6 42.6 43.8 45 46.2 47.5 48.7 50.3 51.8 53.6 55.7 57.5 61.1 63.3 66.5 71.8 77.1 83.8 89.9 97.1 104.6 113 120.8 132.7 146.6 155.3 158.3 161.6 160.3 159.8 158.5 156.4 154.1 151.1 148.3 143.6 137.9 131.4 125.1 119.6 114.8 109 108.6 105.5 100.8 98 97.7 97.1 97.2 96.4 102.1 106 105.6 103.8 105.3 108.8 108.9 109.1 109.5 106.2 106.3 105.7 103.8 103.6 101.3 101.6 101.6 98.3 95.7 95.7 95 90.8 90.3 94.5 94.2 81.3 80.5 85.2 87.1 84.1 77.9 77.1 75.5 71.6 74.6 74.5 72.9 71.7 70.8 70.2 69.4 68.7 67.9 67 69.4 73.6 77.2 79.1 81.7 85.8 90.4 93.9 97 99.2 100.8 101.5 101.6 105.5 110.6 114 115.9 116.8 116.6 118.3 122.4 126.3 128.6 130.1 131.5 133.2 134 134.2 134.3
23.5 23.3 23.1 23 22.9 22.7 22.7 22.7 22.6 22.6 22.5 22.5 22.4 22.4 22.3 22.2 22.3 22.4 22.7 22.9 23 23.1 23.1 23.2 23.3 23.5 23.7 23.7 23.9 24.1 24.4 24.6 24.9 25.1 25.3 25.5 25.5 25.4 25.6 25.7 25.7 25.7 25.8 25.9 25.9 26 26.1 26.3 26.5 26.8 27 27.2 27.4 27.6 27.9 28.1 28.2 28.1 28.6 29 29.4 29.8 30.1 30.4 30.8 31.3 31.9 32.8 33.6 34.4 35.2 35.8 36.8 37.7 38.6 39.5 40.5 41.5 42.7 43.9 45.1 46.3 47.4 48.8 50.7 52.4 54.2 56.3 60.7 65.6 68.1 70.3 74 79.7 87 94.7 103.1 111.9 121 134.5 149.6 158.6 162.7 165.7 165.5 164 162.8 163.6 162.2 160.6 158.5 156.3 152.3 147 141.8 137.1 133.1 127.2 122 122.9 115.7 108.8 105.1 103.7 105.1 105.3 105.8 104.1 106.5 108.5 114.6 119.4 120.3 121.6 120.4 121.6 109.7 116.8 115.3 113.3 112.9 111.2 109 109.1 106.8 105.8 104.2 101 97.8 95.2 89.5 84.8 82.7 84.8 94 93.3 85.7 81.3 83.2 75.7 74.8 79.7 78.2 74.3 73.6 72.9 72.5 71.4 70.8 70.4 69.9 68.3 71.9 77.6 81.3 83.1 84.8 88.9 92.5 95.9 99.1 101.8 104.3 105.7 105.7 107.3 110.3 112.1 113.2 115.3 119.4 124.3 126.8 129.2 131.6 133.1 134.4 135.1 135.3 135.4
23.3 23.4 23.4 23.3 23.2 23 22.9 22.9 22.8 22.7 22.7 22.6 22.6 22.5 22.5 22.5 22.4 22.5 23 23.1 23.1 23.2 23.3 23.3 23.4 23.5 23.7 23.8 24 24.3 24.5 24.6 24.8 25.1 25.4 25.6 25.6 25.5 25.7 25.9 26 26 26 26.1 26.2 26.2 26.3 26.5 26.7 27 27.2 27.4 27.6 27.9 28.1 28.3 28.2 28.3 28.7 29.3 29.6 29.9 30.1 30.5 30.8 31.4 32.1 32.9 33.7 34.4 35 35.5 36.3 37.4 38.4 39.5 40.4 41.6 42.8 43.9 45.1 46.3 47.4 48.8 50.8 52.7 54.7 57.3 62.3 68.1 72.1 75.7 79.8 83.7 90.5 98.9 108.5 120 129.2 149.3 157.4 161.4 164 166.8 168.1 168 167.1 165.6 165.4 164.8 163.3 161.3 158.7 155.4 152 148.2 145.3 139.6 134.3 130.8 126 121.6 116.2 113.1 112.1 113.1 114.8 113.8 116.5 124.8 130.6 135 135 133.7 131.4 133 135.1 137.3 135 131.2 128.3 126.4 124.9 125.9 125.9 123.5 120.5 118.4 116.8 113.2 99.2 88.7 88.7 89.2 90.1 88.4 85.1 91.8 87.3 74.7 87.6 89.7 79.6 76.4 75.9 77.4 76.5 75.4 74.1 73.6 72.4 69.9 70.9 75.2 81.9 85.2 87.4 89.3 90.9 94.5 97.8 100.6 103.9 106.4 108 109.2 111.4 113.5 113.8 118.2 122.6 125.7 128.3 130.7 132.8 134.2 135.1 135.9 136.2 136.2
23.6 23.7 23.7 23.5 23.4 23.3 23.1 23 23 22.9 22.9 22.8 22.8 22.7 22.7 22.6 22.6 22.9 23.2 23.2 23.3 23.3 23.4 23.5 23.5 23.6 23.7 23.9 24.1 24.3 24.4 24.5 24.8 25.2 25.5 25.7 25.7 25.6 25.7 25.9 26.1 26.3 26.3 26.4 26.4 26.5 26.5 26.8 27 27.2 27.4 27.6 27.9 28.1 28.3 28.3 28.5 28.5 26.3 29.6 29.6 29.9 30.2 30.6 30.9 31.4 32.2 33 33.7 34.3 34.9 35.4 36.1 37.1 38.2 39.2 40.3 41.4 42.5 43.7 44.8 46 47.5 49.2 51.1 53.2 55.4 59.7 64.6 69 74.1 78.8 82.9 87.1 93.5 102 112.7 122.3 133.5 152 157.9 162.3 165.5 168.1 169.3 169.7 169.4 168.2 168 166.7 165.5 164.4 162.3 161.2 160.2 158.3 155.7 151.8 148.5 144.9 140.5 136.2 133.3 129.1 127.8 129.6 132.1 135.6 141.8 146.9 146.4 146.9 146 145.6 146.4 150.9 153.7 154.4 153.7 151.7 149.3 145.5 143.6 142.7 141.1 139.5 137.6 133.4 129.5 125.2 101.5 101.3 107.2 100.5 96 91.1 87.9 85.4 82.2 85.8 91.7 89 81 85 79.5 84.3 82.8 80.7 79.8 78.8 77 73.3 70.4 73.1 78.6 83.8 88 91.4 93.4 94.8 97.1 100.2 103.2 106.4 108.7 111.1 113.5 115.3 117.9 122 124.9 127.1 129.6 132.2 133.5 134.6 135.4 136.1 136.3 135.9
24.2 24.1 23.9 23.8 23.6 23.5 23.3 23.2 23.2 23.1 23 22.9 22.8 22.6 22.5 22.3 22.8 23.2 23.3 23.3 23.4 23.4 23.5 23.6 23.6 23.7 23.8 23.9 24 24.1 24.2 24.5 24.8 25.2 25.6 25.8 25.8 25.7 25.8 26 26.2 26.4 26.6 26.6 26.7 26.7 26.8 27 27.2 27.5 27.7 27.9 28.1 28.3 28.5 28.8 28.9 29.1 29.3 30.2 29.7 30 30.3 30.7 31 31.5 32.3 32.9 33.5 34.1 34.8 35.3 35.9 37 38 39.1 40.2 41.1 42.2 43.3 44.9 46.4 48 49.6 51.7 54.5 59.1 63.5 68.3 73.3 78.6 83.1 87.4 91.7 97.4 105.3 113.5 123.7 137 153.8 158.5 162.7 166.7 168.9 170.6 171.3 171.3 170.8 170.5 169.4 168.4 167.4 166.3 165.1 164.9 164.2 163.2 161.7 159.8 158.2 155.9 153.8 152.6 150.6 150.1 150.5 152.5 154.5 156.9 157.8 159 160.1 160.8 161.6 165.1 166.9 165.8 163.3 161.5 160 158.5 156.9 154.2 151.8 149.6 148.4 146.9 144.1 139.1 131.6 106.2 118.4 118.1 113.4 107.8 101.7 94.7 89.1 87.2 87.9 88.3 85.7 84.4 86.5 83.6 92.2 90.2 88.9 87.4 85.4 81.6 75.5 69.4 73.1 77 82.1 86.5 90.6 94.1 96.9 99.3 102.3 105.5 108.8 110.9 113.3 115.7 118.6 122 125.2 126.8 128.8 130.9 132.7 133.9 134.3 135 135.4 135.1 134.5
24.5 24.3 24.1 24 23.8 23.7 23.6 23.5 23.4 23.3 23.2 23.1 22.9 22.6 22.3 22.5 22.8 23.2 23.3 23.3 23.4 23.5 23.5 23.6 23.7 23.7 23.8 23.8 23.9 24 24.1 24.5 24.9 25.2 25.6 25.9 25.9 25.8 25.8 26 26.2 26.4 26.6 26.9 26.9 27 27.1 27.3 27.5 27.7 27.9 28.1 28.3 28.6 28.8 29.1 29.2 29.2 29.7 30 29.2 30 30.4 30.7 31.1 31.5 32.1 32.7 33.4 34 34.7 35.3 35.8 36.8 37.9 39 40 41 42 43.7 45.3 46.8 48.4 50.2 53.4 58.7 63.7 68.2 72.6 77.6 83.2 87.8 92.3 96.9 102.9 109.4 117.4 126 145.4 154.9 159.5 163.2 167.1 169.2 170.8 171.7 171.9 172.1 172.1 172.1 171.4 170.9 170.2 169.3 169.3 169.2 168.4 168.1 168.4 167.6 166.8 166.3 166 165.4 165.3 165.5 165.3 165.6 167.2 167.5 167.6 168.1 168.5 170.4 171.6 171.7 170.9 168.5 166.4 164.9 163.8 162.1 160.4 158 155.7 154.9 153.1 150 145.2 136.1 128.3 135.8 131.1 126.4 120.4 114.6 105.7 99.8 96.7 97.1 94.2 91.7 89.7 89.5 87.6 88.5 92.8 93.3 92 89.9 85.1 75.9 72.4 74.2 78.1 83.5 87.2 91.3 94.9 98.3 101.1 104.5 107.9 110.8 113.5 116.1 118.7 121.4 125.1 127.6 129.1 131 132.3 132.9 133.2 133.6 134.1 134.1 133.7 133.1
24.1 24.4 24.3 24.2 24 23.9 23.8 23.7 23.6 23.5 23.3 23.2 23 22.8 22.6 22.7 22.8 23.2 23.3 23.3 23.4 23.5 23.5 23.6 23.7 23.7 23.8 23.8 23.9 23.9 24.2 24.5 24.9 25.3 25.6 25.9 26 25.9 25.9 26.1 26.3 26.5 26.7 27 27.2 27.3 27.4 27.6 27.8 27.9 28.1 28.4 28.6 28.8 28.9 29.1 29.2 29.2 29.7 30 30.1 30.4 30.3 30.7 31 31 31.9 32.7 32.9 34 34.6 35.2 35.8 36.7 37.7 38.8 39.9 40.9 41.9 43.3 45.5 47.1 48.7 53.1 58.1 63.3 67.8 73.1 78.1 83.2 88.1 92.9 97.1 103.1 109.8 116.2 122.7 135.4 149.4 155.3 159.8 163.7 167.1 169.4 170.5 171.5 172 172.5 172.9 173.2 173.6 173.6 173.5 173.8 173.8 174 174.3 174.1 174.4 174.5 174.6 174.8 174.6 173.9 173.9 174 173.4 173.2 174.2 174.1 174.2 173.4 173 174.3 175.4 175.5 175.6 174.1 171.6 169.9 168.6 167.2 165.1 162.7 160.1 158.7 156.3 153.6 149.7 144.7 141.8 146.2 143.6 139.1 132.7 125.9 119.9 114.8 109.2 108.3 105.1 103.1 98.7 94.9 91.9 90.6 92.1 94.4 93.7 91.3 81.1 73.3 75.1 75.8 77.6 81.9 86.2 91.2 95.6 99.2 102.4 106.8 110.2 113.4 116.5 119.2 121.8 124.5 127.5 129.2 130.6 131.8 132.6 132.6 132.2 132.3 132.7 132.6 132.1 131.4
24.8 24.6 24.4 24.4 24.3 24.1 24 23.9 23.7 23.6 23.4 23.3 23.1 23 22.9 23 23.1 23.2 23.3 23.3 23.4 23.5 23.6 23.6 23.7 23.8 23.8 23.8 23.9 23.9 24.2 24.5 24.9 25.2 25.6 25.7 25.8 25.9 26 26.1 26.4 26.6 26.9 27.1 27.4 27.6 27.7 27.9 28 28.2 28.4 28.6 28.8 28.9 29 29.2 29.2 29.3 29.7 30 30.2 30.5 30.4 30.6 30.8 31.2 31.3 31.7 32.8 34.3 34.5 35.2 35.8 36.5 37.6 38.7 39.8 40.8 41.9 43.2 44.7 47.4 51.1 56.6 62.8 67 72.5 78.7 84.4 89.6 94.6 100.2 104.6 110.3 119 124.6 134.1 145.9 151.7 156.1 159.9 163.7 166.8 168.6 170.1 170.8 171.3 171.7 171.8 172.1 173 174.8 175.4 176.2 177.1 178 178.6 178.7 179.3 179.6 179.8 180 180.5 180.4 180.1 180.2 179.8 179.7 179.8 179.6 178.9 177.5 177.1 178.1 179.2 179.4 179.1 178.9 176.2 174.7 173.2 171.6 169.1 166.4 164.1 161.7 159.2 156.6 154.1 150.5 150.3 152.4 150.7 146.8 142.9 137.6 134.3 129.2 122.7 119.9 117.1 114.9 113.7 108.6 101.8 96.8 95.2 93.3 93 90.7 77.6 77.3 80.3 79.6 78.3 79.1 83 87.9 94.3 98.7 102.8 107.1 111.5 115.8 119 121.7 124.3 126.9 128.9 130.1 131.1 132.2 132.5 132 131.8 131.6 131.3 130.3 129.2 128.2
25.3 25 24.7 24.6 24.5 24.3 24.2 24.1 23.9 23.8 23.6 23.5 23.3 23.1 23.1 23.1 23.2 23.2 23.3 23.4 23.4 23.5 23.6 23.7 23.7 23.8 23.8 23.8 23.9 23.9 24.2 24.5 24.9 25.2 25.5 25.6 25.6 25.8 26 26.2 26.5 26.7 27 27.3 27.5 27.8 28 28.1 28.3 28.4 28.6 28.8 29 29.1 29.1 29.3 29.2 29.4 29.7 30 30.3 30.6 30.9 31.3 31.5 31.6 31.9 31.2 33.3 34.5 34.8 35.2 35.7 36.4 37.5 38.6 39.7 40.7 41.8 43.2 44.9 49.1 54.9 59.7 66.7 70.8 75.8 84 89.9 95.7 101.9 108.2 114.4 118.2 123.2 132.4 143 148.6 152.4 156.5 160.3 163.6 165.8 167.1 168.1 168.8 169.2 169.8 170.2 170.2 171.5 174 176.2 177.6 178.8 180.1 181.3 181.9 182.4 183.1 183.5 183.6 183.5 183.4 183.2 183.5 184.2 184.3 184.8 184.6 183.5 182.1 181.1 182.1 182.5 182.3 182.1 181.3 179.5 177.7 176 174.3 172.6 170.3 167.4 164.6 162 159.5 156.8 154 155 156.2 155.6 153.4 150.1 147 143.4 139.4 135.7 133.4 129.8 126.6 125 121.9 117.3 109.6 102.2 95.6 91.5 83.5 76.7 85.1 86.8 83.7 81.5 80.2 80.8 84.1 91.7 97.9 103.1 106.7 111 115.1 117.9 121.7 124.6 128 129.4 130.5 131.7 132.1 131.6 130.8 130.1 129.9 128.8 127.5 126.2 125.1
25.2 24.8 24.6 24.7 24.7 24.6 24.4 24.3 24.1 24 23.8 23.7 23.5 23.3 23.2 23.2 23.2 23.3 23.3 23.4 23.5 23.5 23.6 23.7 23.7 23.8 23.8 23.8 23.9 24 24.2 24.5 24.8 25.2 25.3 25.5 25.7 25.9 26.1 26.3 26.6 26.8 27.1 27.4 27.6 27.9 28.2 28.4 28.5 28.7 28.8 29 29.2 29.2 29.3 29.4 29.3 29.5 29.9 30.2 30.6 31.1 31.5 31.9 32.2 32.3 32.4 32.4 33.8 34.8 35 35.2 35.9 36.7 37.4 38.5 39.7 40.8 42.1 43.9 45.9 51.8 57.6 62.8 68.5 74.5 80.1 87.8 93.8 101 109.1 116.2 123.4 126.3 129 140.9 144.2 148.9 152.5 156.7 160 162.2 163.5 164.4 165.2 166 166.6 167.2 167.9 168.4 170.5 172.6 174.9 177.4 178.8 180.6 182.4 183.3 184.1 184.6 185.2 185.7 186.1 186.2 186.2 186.4 187 187.3 188.1 188 187.4 186.2 184.9 184.9 185 184.8 184.4 183.4 182 180.1 178.4 176.7 175 173 170.6 167.9 165.2 163.1 161 157.9 158.2 158.6 158.1 157.2 154.8 152 149 147.3 144.5 142.1 140.4 137.8 135.5 132.2 128 123.6 118 111.1 99.4 83.4 81.1 89.8 90.8 88.9 85.9 83.7 82.5 82.2 84.3 90.1 94.3 98.3 101.5 104.2 106.5 109.6 117.7 126.1 129.8 131 131.7 131.8 131.1 130.2 129.3 128.4 126.6 125.2 123.6 122.1
25.1 24.8 24.7 24.9 24.9 24.8 24.6 24.5 24.3 24.2 24 23.8 23.7 23.5 23.3 23.2 23.2 23.3 23.3 23.4 23.5 23.6 23.6 23.7 23.7 23.8 23.8 23.8 23.9 24 24.2 24.5 24.9 25.1 25.3 25.5 25.8 26 26.2 26.4 26.6 26.9 27.2 27.4 27.7 28 28.3 28.5 28.7 28.9 29.1 29.2 29.4 29.4 29.4 29.4 29.7 29.9 30.1 30.5 31 31.4 31.9 32.3 32.8 33.1 33 32.9 34.2 35.2 35.5 35.9 36.5 37 37.7 38.5 39.7 41 42.7 44.4 47.8 54.6 60.9 66.2 71.5 76.8 82.9 90.1 98.8 107.4 114.8 122.6 134.8 134.9 132 139 145.1 148.9 152.1 154.5 156.9 158.5 159.7 160.5 161.4 162.1 162.2 163.4 164.4 165.6 167.8 169.8 172.5 175.7 178.4 180.4 182.4 184.2 185.2 185.9 186.7 187.2 187.6 188.2 188.7 189.2 189.4 189.7 190.3 190.3 189.7 188.5 187.6 187.3 187.4 186.6 186.2 185.2 184.2 182.5 180.8 179 177.1 175.1 172.9 170.5 168.9 167.2 165 160.7 161.7 160.5 159.5 158.9 158 156.4 155 153.7 151.3 148.6 147.6 146.3 144 140.6 136.9 130.5 121.2 110 94.8 82.4 90 98.6 98.4 97 95 91.5 87.1 85.9 85 85.2 86.7 89.7 91.2 92.8 95.1 98.2 105.3 119.2 127.1 130.4 131.5 131.2 130.8 129.7 128.6 127.6 126.6 126.1 124.8 123.7
25.4 25.1 25 25 25.1 25 24.9 24.7 24.5 24.3 24.2 24 23.8 23.6 23.5 23.4 23.3 23.3 23.4 23.4 23.5 23.6 23.7 23.7 23.7 23.8 23.8 23.8 23.9 24 24.2 24.5 24.9 25.2 25.4 25.6 25.8 26.1 26.3 26.5 26.7 27 27.3 27.5 27.8 28.1 28.4 28.6 28.8 29.1 29.3 29.5 29.5 29.6 29.7 29.8 30.1 30.3 30.5 30.9 31.4 31.8 32.3 32.7 33.2 33.6 33.6 33.4 33.8 34.9 35.9 36.6 37.1 37.7 38.3 38.8 40 41.6 43.2 45 49.9 56.3 62.7 68.2 74.9 80.4 87.1 95.6 104.6 113.2 120.9 135.9 137 139.1 137.4 137.7 144.5 148.2 150.8 152.7 153.6 154.5 155.9 156.7 156.9 157 156.6 157.7 159.8 162.3 164.4 166.6 169.5 173 176.6 179.5 181.5 183.6 186 187.2 187.6 188 188.4 188.9 189.5 190.4 190.8 191.1 192 192.1 191.9 191.2 190.2 189.8 189.5 188.6 188.1 187.1 186.1 184.8 183 181.1 179.1 177.2 175.3 173.4 171.6 169.9 166.4 163.5 164.5 163 160.8 159.8 159.9 159.3 157.4 155.9 154.4 152.2 150.9 149.8 147.1 141.6 130.7 119.2 106.5 93.1 85.3 90.3 105.5 117.1 114.2 110.7 107.5 104.4 95.7 94.3 92 90.3 90.6 90.4 91.8 94.4 99.4 112.4 116.8 118.8 124 128.1 131.1 132.1 132.1 131 130.4 130 130 129.6 128.9 128.2
25.4 25.3 25.3 25.2 25.3 25.2 25.1 24.9 24.7 24.5 24.4 24.2 24 23.8 23.7 23.6 23.5 23.4 23.4 23.5 23.5 23.6 23.7 23.7 23.7 23.8 23.8 23.8 23.9 24.1 24.2 24.6 24.9 25.2 25.4 25.7 25.9 26.1 26.4 26.6 26.8 27.1 27.3 27.6 27.9 28.1 28.5 28.7 28.9 29.2 29.4 29.7 29.8 29.9 30 30.2 30.5 30.7 30.9 31.4 31.8 32.3 32.7 33.2 33.6 33.9 34.1 33.5 33.6 34.8 36.1 36.7 37.3 37.8 38.6 39.5 40.7 42.3 44 45.3 51.6 58.5 62.8 68.9 76.3 84.9 93.4 101.8 110.8 118.5 134.2 136.1 138.6 140.7 141.9 140.5 139.6 143.4 147.4 149 150.1 151 151.8 151.8 151.1 151 151 151.7 153.8 157.8 160.6 162.4 164.9 169.3 174 177.1 180.3 182.6 185.1 187 188 188.5 188.9 189.7 190.5 191.3 192.2 192.7 193.3 193.4 193.5 193.4 192.8 192.2 191.5 190.6 189.9 188.9 187.9 186.6 184.8 182.9 180.9 178.8 177.2 175.7 174 171.7 168.6 166.8 167.1 166.9 165.3 162.4 160.5 159.7 158.9 157.7 156.5 154.7 153.1 150.2 138.3 123.9 107.6 95 88.8 88.4 91.2 104.9 122.6 132.3 129.2 123.7 123.9 122.6 114.4 110.4 108.8 107.9 106.7 106.2 107 111.3 117.4 124.5 128 129.5 130.4 132 133.6 134.7 134.9 134.5 134.5 134.4 134.3 133 132.4 131.5
25.5 25.6 25.5 25.5 25.4 25.4 25.3 25.1 24.9 24.7 24.6 24.4 24.1 23.9 23.8 23.7 23.6 23.5 23.4 23.5 23.6 23.6 23.7 23.7 23.7 23.7 23.7 23.9 24.1 24.2 24.3 24.6 24.9 25.2 25.5 25.7 26 26.2 26.4 26.7 26.9 27.1 27.4 27.7 27.9 28.2 28.6 28.8 29 29.3 29.6 29.9 30.1 30.3 30.4 30.7 30.9 31.1 31.4 31.8 32.3 32.8 33.2 33.7 33.9 34.2 34.5 34.3 34.2 33.6 35.9 36.9 37.6 38.5 39.3 40.2 41.5 43 44.6 47 53.2 60.1 64 70.6 80.2 90.2 100.3 109.6 118.7 128.3 133.4 136.6 138.6 141 142.3 139 131.8 133.2 138.7 142.9 145.2 146.2 146.4 146.1 143.6 141.5 141.2 140.5 143.7 151.1 155.6 157.6 160.2 164.9 170.1 175.4 178.6 181.4 183.8 186.1 187.5 188.1 188.8 189.7 190.6 191.4 192.8 193.6 194.1 194.7 195 195.1 194.8 194.5 193.6 192.6 191.8 190.6 189.4 188.1 186.2 184 182.1 180.7 179.2 177.6 176.1 174.4 172.6 171.4 170.5 170.2 168.9 168.1 165.7 163.9 162 160.5 159.3 157.3 153.9 140.6 119.6 102.8 99.9 99.6 101.1 101.7 104 122.2 135.9 139.4 138.4 135.2 135.8 134.7 130.1 128.7 127.7 127.2 127.6 127.5 128.2 131.5 134.9 137.1 139.2 139.5 139.4 139.2 139.6 139.4 139.3 139.2 139.1 138.9 137.7 135.8 135.1 133.2
25.5 25.5 25.6 25.7 25.7 25.6 25.5 25.3 25.1 24.9 24.7 24.5 24.3 24.1 24 23.9 23.8 23.7 23.6 23.5 23.6 23.7 23.8 23.7 23.6 23.6 23.9 24.1 24.3 24.5 24.5 24.6 24.9 25.2 25.5 25.7 26 26.2 26.5 26.7 27 27.2 27.5 27.7 28 28.3 28.7 28.9 29.1 29.4 29.7 30 30.3 30.5 30.7 30.9 31.1 31.4 31.8 32.2 32.8 33.2 33.7 34 34.3 34.5 34.5 34.3 34.4 33.6 34.9 37.8 38.4 39.2 40.1 41 42.3 43.9 45.9 48.2 54 60.7 66.7 71.8 80.2 90.3 98.6 105.8 113.8 121.8 128.9 135.1 137.5 139.8 141.5 140.1 129.8 124 124.9 128.8 132.9 136.6 133.9 131.9 128.3 125.9 123.1 122.3 128.7 134.8 144.2 149.2 154.1 159.6 165.7 171 176.4 180.1 182.3 184.8 186.6 188 188.7 189.6 190.7 192 193.3 194.3 194.9 195.4 196 196.5 196.4 196 195.3 194.4 193.3 192.1 190.8 189.2 187.1 185.6 184.2 182.5 181 179.5 177.9 176.1 175.3 174.9 174.3 173.5 172.5 171.5 170.3 168.7 166.3 163.7 160.8 158.1 148.2 129.5 123.1 122.2 120.8 119.5 120.5 120.8 118.2 134.7 142.7 144.5 144.3 141.9 143.1 142.3 138.1 140 140.3 140.6 141.5 141.9 142.4 143.4 144.5 145.7 146.4 146.5 146.2 145.8 145.5 145.2 144.5 143.7 143.2 142.3 140.4 138.6 136.8 134.5
25.6 25.7 25.8 25.9 25.9 25.8 25.6 25.4 25.2 25 24.8 24.7 24.4 24.3 24.2 24 23.9 23.8 23.6 23.6 23.7 23.7 23.8 23.7 23.6 23.9 24.2 24.4 24.6 24.6 24.7 24.8 25 25.3 25.5 25.8 26 26.3 26.5 26.8 27.1 27.3 27.6 27.8 28.1 28.4 28.8 29 29.3 29.6 29.9 30.2 30.5 30.7 30.9 31.1 31.4 31.7 32.2 32.7 33.2 33.7 34 34.1 34 34.2 34.4 34.6 34 33.1 35.3 38.6 39.3 40.1 40.9 41.7 43.4 45.4 47.4 49.4 54 59.8 65.6 71.5 78.6 86.9 94 101.1 109.4 116.8 123.4 130.1 134.6 138.5 139.5 140.1 137.8 124.9 118.7 119.7 122.6 123.9 122.4 120.4 118.2 116.2 114 114 118.9 123.6 133.9 141.8 146.8 153.4 161.5 167.3 173.1 178.2 181 183.4 184.8 186.5 188.3 189.9 191.2 192.6 193.9 194.9 195.6 196.3 196.9 197.5 197.7 197.3 196.6 195.7 194.7 193.5 192.1 190.2 188.9 187.4 185.8 184.2 182.7 181.2 179.8 178.2 177.8 177.4 177.1 176.6 175.5 173.9 172.8 171.1 168.9 166.3 163.2 157.2 146.3 142 141 144 139.9 138.9 140 138.3 134 142.5 148.9 149.5 149.4 148.3 148.4 148.2 144.6 146.8 147.2 147.9 148.9 149.6 151.1 151.8 152.4 152.3 152.4 152.5 151.8 150.8 150 149.9 148.8 147.6 146.2 144.5 142.5 140.3 138 135.2
26.3 26.3 26.2 26 25.9 25.9 25.7 25.6 25.4 25.2 25 24.8 24.6 24.4 24.2 24.1 24 23.8 23.8 23.7 23.7 23.8 23.9 23.8 23.9 24.2 24.4 24.7 24.8 24.8 24.9 25 25.1 25.3 25.5 25.8 26.1 26.3 26.6 26.9 27.3 27.5 27.7 27.9 28.2 28.5 28.9 29.2 29.5 29.8 30.1 30.4 30.7 30.9 31.1 31.4 31.6 32 32.5 33.1 33.6 34 34.3 34.6 34.8 35 35.2 35.4 35.6 33.7 35.1 38.8 39.6 40.3 41.2 42.2 43.7 45.7 47.8 49.9 52.5 58.7 64.5 70 76.7 83 90.2 96.5 104.9 110.8 117.2 126.3 131.9 135.6 137 137.7 137.6 132.9 119.7 114 115.2 114.7 114.2 112.2 109.4 107.2 105.8 106.7 109.8 115.2 123.7 133.5 141.6 146.7 155 163.2 169 174.5 179.4 181.5 183.8 185.8 187.5 189.1 190.8 192.4 194 195.1 195.8 196.6 197.3 198 198.3 198.2 197.3 196.3 195.3 194.3 193.2 191.7 190.2 188.6 186.8 185.4 184.1 182.6 181.2 180.2 179.7 179.3 179 178.6 177.6 176.1 174.4 172.5 170.5 168.1 163.8 159 156.4 154 153.1 155.2 153.6 153 152.4 149.2 146.1 148.5 153.4 154.2 154.4 153.9 153.7 153 149.8 152.1 152.7 153.4 154.5 155.4 156.2 156.5 156.7 157 157 156.8 155.8 154.5 153.2 152.8 151 149.5 147.9 145.4 142.7 140 136.4 131.6
26.4 26.3 26.1 26.1 26 26 25.9 25.7 25.5 25.3 25.1 25 24.8 24.6 24.3 24.2 24 23.9 23.9 23.9 23.8 23.8 23.9 23.9 24.2 24.4 24.7 24.9 25 25 25.1 25.2 25.3 25.4 25.6 25.9 26.2 26.5 26.7 27.1 27.5 27.7 27.8 28 28.3 28.7 29.1 29.4 29.7 30 30.3 30.6 30.9 31.1 31.4 31.6 31.9 32.4 32.9 33.4 33.9 34.3 34.6 34.9 35.2 35.5 35.8 36.1 36.3 35.2 34.4 38.7 39.7 40.7 41.8 42.8 44.1 45.9 48 50.4 52.9 56.6 61.9 67.2 74.1 80.1 86.5 91.2 97.8 103 112.7 125.8 129.6 132.3 134 134.6 135.1 135.3 133 117.5 110.6 107.9 107 105.2 102.9 100.9 99.6 100.7 103.2 108.1 119.8 129.9 136.6 142.1 149.3 157.5 164.8 170.5 175.5 179.9 181.9 183.9 186.3 188.3 190.4 192.3 193.9 195.4 196.2 197 197.8 198.2 198.3 198.6 197.8 196.8 195.8 194.7 193.6 191.9 190.3 188.8 187.4 186.2 185 183.7 182.3 181.6 181.2 180.7 180.3 179.7 178.7 177.7 175.8 173.9 172 169.2 163.3 162.1 163.1 159.8 160 161.1 160.2 158.9 158.2 157.4 155 153.6 157.9 158.4 158.3 157.9 158.1 157.1 154.2 156.4 157.6 158.1 158.6 159 159.3 159.9 160.2 160.1 160 159.3 158.4 157.4 156.3 154.7 152.6 150.8 148.3 143.6 140.5 135.2 130.3 126.1
26.1 26.2 26.2 26.1 26.1 26.1 26 25.8 25.6 25.5 25.3 25.2 25.1 24.8 24.5 24.2 24.1 24 24 24 23.9 23.9 23.9 24.2 24.4 24.7 25 25.1 25.2 25.2 25.3 25.4 25.5 25.4 25.8 26 26.3 26.6 26.9 27.3 27.7 27.8 28 28.5 28.7 29 29.4 29.7 30 30.3 30.5 30.8 31.1 31.3 31.6 31.8 32.3 32.7 33.2 33.6 34.1 34.5 34.8 35.1 35.4 35.7 36 36.3 36.5 36 33.9 38.2 40 41.1 42.2 43.3 44.6 46.4 48.3 50.7 53.1 55.6 59.7 64.9 70.9 76.6 79.8 84.9 90.4 99.6 110.2 126.2 126.6 129 130.9 131.7 132.1 132.5 132.5 130.4 118.9 112 107.4 103.3 100 96.8 95 95.9 100.4 105.3 117.8 124.6 131 138.3 145.3 152.3 159.6 166.2 171.4 175.9 178.1 180.8 184.1 187.3 189.9 192.2 193.8 195.4 196.5 197.4 198.2 198.6 198.9 198.8 198.3 197.3 196.3 195.1 194 192.3 190.2 188.4 187.2 186.1 185.2 184.2 183.5 183.1 182.6 182.2 181.8 181 179.9 178.7 177.1 175.3 173.2 169.1 165.2 167.6 166.5 163.6 165.2 165.4 163.9 162.8 161.7 161.1 159.1 158.5 160.8 161.4 161.3 160.8 160.9 160.1 158.4 160.1 161.1 161.6 161.9 162.1 162.4 163 163 162.7 162.4 161.5 160.6 159.1 157.6 155.7 153.7 151 146.4 141.3 137.7 133.9 131.2 130.8
26.5 26.6 26.5 26.5 26.4 26.3 26.2 26 25.9 25.7 25.6 25.4 25.3 25.1 24.7 24.4 24.2 24.1 24.1 24.1 24.1 24.1 24.3 24.6 24.9 25.2 25.5 25.7 25.6 25.5 25.5 25.6 25.6 25.6 25.8 26.2 26.4 26.8 27.1 27.5 27.9 28.1 28.6 28.9 29.1 29.4 29.7 30 30.3 30.6 30.9 31.2 31.4 31.6 31.9 32.1 32.5 33 33.4 33.9 34.3 34.7 35 35.3 35.6 35.9 36.2 36.4 36.6 36.9 34.4 36.5 39.9 41.2 42.3 43.5 44.7 46.3 48.1 50.2 52.8 55.3 58.7 64.4 70.2 74.9 79.3 85 93 101.1 106.9 122.6 124 126.2 127.5 128.8 129.1 129.2 129.2 129.2 127.8 125.1 120.4 114.6 106.3 98.9 92.4 92.2 98.6 104.3 112.8 123.1 129.4 134.8 141.6 148.1 154.1 160.7 166.1 170.3 172.1 177.1 182.2 186.4 189 191.5 193.8 195.3 196.7 197.6 198.4 199.1 199.2 199.1 198.7 197.7 196.5 194.9 193.3 191.4 189.3 187.4 186.4 185.3 184.3 184 184.2 184.1 183.8 183.4 183 182.1 180.9 179.6 178.3 176.2 172.7 169.2 170.1 170.8 168.9 167.8 168.7 168.5 167.8 166.8 165.8 164.4 161.5 162.6 163 163.7 164 163.6 163.6 162.6 162.1 163.4 164 164.1 164.6 165 165.4 165.6 165.3 164.8 163.9 162.9 161.8 160.3 158.5 156.1 153.6 149.5 145.9 144.7 143.2 140.6 139.8 140.4
27.1 27.2 27.1 26.9 26.7 26.5 26.5 26.3 26.1 25.9 25.8 25.7 25.5 25.3 25 24.7 24.4 24.6 24.6 24.6 24.6 24.6 24.6 25.2 25.5 25.8 26.1 26.4 26.3 26.3 26.2 26.3 26.1 26.1 26.3 26.3 26.6 27 27.4 27.7 28.1 28.7 29.1 29.3 29.6 29.8 30.1 30.4 30.6 30.9 31.2 31.5 31.7 31.9 32.2 32.6 32.9 33.3 33.6 34.1 34.5 35 35.3 35.6 35.9 36.1 36.3 36.7 37 37.4 36.8 34.1 36.9 40.6 42.5 43.7 44.9 46.3 48 49.8 52.2 54.7 57.4 62.6 67.4 72.3 78.4 85.6 93.1 99.3 104.8 119.2 120.1 122.5 123.9 125 125.8 126.1 126.2 126.2 125.1 123.7 121.8 119.9 116.4 104 93.5 88.2 94.2 101.2 109.3 119.4 126.6 133.4 138.1 144.1 149.6 154.7 160.2 161 166.3 174.8 180.6 185.6 188.2 191 193.5 195 196.6 197.6 198.6 199.3 199.8 199.3 198.4 197.6 195.7 193.9 192.3 190.4 188.3 186.3 185.4 184.3 183.9 184.2 184.8 185.2 184.8 184.4 183.9 182.9 181.7 180.6 178.9 175.8 171.9 171.9 173 172.8 170.7 171 171.4 171.2 170.5 169.8 168.8 166.6 165.3 165.9 165.7 166 166.3 166.1 165.9 165.1 164.9 166 166.3 166.7 167.2 167.6 167.6 167.5 166.9 166.2 165.4 164.2 162.6 160.7 158.8 155.5 152.4 150.6 150.2 149.9 148.8 147.3 147.1 147
27.1 27.6 27.3 27.1 26.9 26.7 26.8 26.7 26.3 26.2 26 25.9 25.8 25.5 25.2 24.9 24.7 24.8 25 25.1 25.1 24.9 25 25.7 26.1 26.4 26.6 27.1 27 27.1 27.3 27.3 26.7 26.8 27 27.1 28.4 28.7 29.1 29.2 28.9 29.2 29.5 29.7 30 30.2 30.6 31 31.2 31.3 31.5 31.8 32 32.2 32.5 33 33.4 33.7 34.1 34.4 34.8 35.2 35.5 35.7 36.1 36.4 36.8 37.2 37.7 38 37.8 36.2 34.2 38.3 42.6 43.9 45.2 46.4 48 49.7 51.6 54.2 56.1 59.2 64.3 71.2 77.7 85.1 93.2 99.3 111.9 115.1 117 118.8 120.1 121.2 121.9 122.5 122.8 122.4 121.3 120 118.7 116.9 114.1 103.7 94.4 86.7 93.5 103.1 112.1 121.8 127.9 133.7 138.2 140.4 145.3 148.4 144 141.6 163.4 172.9 178.8 183.8 187.7 190.6 193.2 195.1 196.4 197.5 198.5 199.5 199.8 199 198.1 196.8 194.9 193 191.3 189.3 187.3 185.3 184.3 183.4 183.8 184.4 185.1 185.7 185.7 185.2 184.7 183.7 182.6 181 178.9 175.2 174 175.8 175.6 174.6 173 173.7 173.6 173.3 172.6 171.9 170.3 168 168.2 168.9 168.8 168.7 168.5 168 167.6 167.1 167.1 168 168.8 169.3 169.6 169.5 169.5 169 168.3 167.6 166.4 164.9 163.1 160.9 158.3 155.5 155.1 155.1 155 154 153.3 152.7 151.9 151.4
27.2 27.6 27.7 27.4 27.2 27 27.1 27.1 26.7 26.5 26.3 26.2 26 25.7 25.4 25.1 25 25.1 25.2 25.4 25.6 25.1 25.1 25.8 26.9 27.8 28.9 29 28.7 28.8 29 28.3 27.9 28.1 28.2 28.4 29.6 30.7 30.5 30.8 30.8 30.8 31 31.4 31.5 31.6 31.8 31.6 31.9 32 32.3 32.4 32.7 33 33.2 33.6 33.7 34.2 34.5 34.8 35.2 35.5 35.9 36.2 36.6 36.9 37.3 37.9 38.4 38.3 38.2 38.1 35.7 36.3 42.6 43.9 45.1 46.5 47.9 49.7 51.4 52.9 54.9 57.4 64.2 71 77.4 85.2 93.3 101.8 106.9 110.2 113.1 114.5 116 117.3 118 118.6 118.6 118.2 117.1 116 114.6 112.8 109.5 99.2 92.1 85.6 93.8 103.2 114.2 122 126.7 130.8 134.2 135.9 137.4 132.3 120.3 132.9 158.2 170.1 177 182 186.6 189.9 192.5 195.1 196.2 197.2 198.2 199 199.4 198.7 197.5 196 194.1 192.2 190.3 188.2 186.2 184.2 183.2 183.5 184.4 185.1 185.8 186.4 186.4 186 185.4 184 182.6 180.8 177.5 175.3 176.3 178 177.7 176.7 175.7 176.1 175.9 175.3 174.3 173.3 171.7 170.6 171.3 170.8 170.4 170 170.2 169.7 169.8 169 168.7 169.9 170.9 171.3 171.4 170.9 170.5 169.8 169 168.3 166.4 164.9 162.8 160.6 159.9 159.7 159.3 158.8 158.1 157.4 156.7 156.1 155.6 155
27.3 27.7 28 27.8 27.8 27.6 27.6 27.4 27.3 27.3 27.1 26.8 26.7 26.7 26.4 26 26.3 26.2 26 26 26.5 26.3 26.2 28.8 33.7 38.1 40 40.3 38.9 38 35.6 33.3 32.7 31.8 31.6 32.6 33.8 35 35.3 36 35.6 34.2 34.3 34.5 34.7 34.7 34.6 34.2 33.5 33 33.2 33.2 33.5 33.7 34 34 34.1 34.3 34.7 35.2 35.6 35.9 36.3 36.7 37 37.5 38.1 38.6 38.7 38.6 38.5 38.1 36.9 36.7 41.1 43.8 44.8 46.3 48.3 49.6 50.8 52.2 54.9 58.5 64.4 70.8 77 84.2 90.8 95 101.2 104.2 106.7 108.9 110.8 112.6 113.9 114.3 114.2 114 112.9 112.1 110.4 108.3 99.5 94.2 87.9 85.5 93.8 103.4 113.2 120 123.4 125.9 124.1 122.3 119.3 113.4 113.1 132.5 157.2 169.7 177.1 182.5 186.4 189.7 192.2 194.8 196 196.8 197.8 198.7 198.6 198.2 196.7 195 193 191 189 186.4 184.3 182.4 182.5 183.7 185.2 185.9 186.5 187.1 187.1 186.7 185.8 184.4 182.5 179.7 178.1 177.6 178.4 179.2 179 178.5 178.2 178.4 177.8 176.8 175.8 174.8 173.8 173.3 172.8 172.4 172.5 172.6 172.4 172 171.8 171 170.4 171.5 172.1 172.2 172 171.8 171.3 170.5 169.7 168.5 166.6 164.7 163.6 163.2 162.6 162.3 161.7 160.9 160.4 159.9 159.2 158.5 157.9 157.3
27.3 27.8 28.2 28.7 28.9 29.1 29.6 29.7 29.2 29.5 29.5 28.7 28 27.7 27.6 27.6 27.6 27.6 27.8 28 29 30 32.3 36.3 39.5 41.5 42.9 42.7 41.2 39.2 36.2 35.3 35.9 36.9 38.2 39.9 40.9 42 43.8 45.1 45.9 45.7 45.3 44.9 43.7 41.9 40.6 38.7 37.3 36.3 35.7 35.2 35.2 35.4 35.4 34.6 34.6 35 35.4 36.1 36.7 37.4 37.3 37.2 37.8 38.3 38.9 39.2 39 38.9 38.8 37.9 36.6 37.9 40 41.9 43.6 45.3 47 49.1 50.5 52.8 55.3 59 63.6 68.6 75.3 81.9 86.7 90.9 95 97.4 99.2 101.2 102.4 104.3 107.5 109.6 109.7 109.8 109 107.8 104.8 98.2 94.1 89 83.6 85.1 93.4 101.9 107.3 109.5 110.5 110.3 109.8 109.5 108.6 109.9 119 138.7 158.7 169 176.6 182.2 186.1 189.5 192.1 194.4 195.6 196.5 197.4 198 197.8 197.1 195.7 194 191.9 189.9 187.8 185.2 182.6 180.9 181.9 183.9 185.6 186.6 187.2 187.7 187.8 187.1 186.1 184.6 183.2 181.6 180 180.2 180.5 180.5 180.5 180.2 179.8 179.4 178.9 177.9 177 176.2 175.3 175.3 175.2 174.8 175.3 175.2 174.9 174.5 173.5 172.8 172.1 172.3 172.5 172.6 172.2 171.8 171.2 170.3 169.4 168 166.7 166.2 165.6 165.2 164.6 164 163.5 162.9 162.2 161.5 160.8 160.1 159.5 159
27.8 28.4 29.4 30.9 34.5 39 42.5 43.5 41.3 38.5 34.7 32.7 30.8 30.9 30.6 30.4 30.5 29.8 30.1 31.1 32.2 32.5 32.8 32.3 32.5 32.9 33.7 34.3 34 33.6 32.8 33.2 33.5 33.3 34.4 37.4 43 47.7 50.6 52.7 54.1 55.5 56.8 57.9 57.9 57.5 55.9 53.3 48.9 46 43 40.9 40.1 39.9 38.7 37.8 38.1 38.6 39 39.2 39.6 39.7 39.6 39.7 39.2 39.1 39.6 39.5 39.3 39.2 38.7 39.2 37 36.7 36.7 39.7 42.3 44.2 45.8 48.5 50.3 52.7 55.1 57.3 61.1 66.2 72 77.6 82.4 86.2 89.4 92.2 94 95.6 95.7 97.2 101.2 105.3 105.6 104.8 104 102.3 96.6 91.7 87.8 83.8 80 85.3 91.6 95.7 97.8 99.4 99.2 99.3 98.9 101.4 106 117 129.8 149.1 158.5 167.6 175.6 181.5 185.8 189.3 191.7 193.8 195.1 196.2 197.1 197.2 196.7 196.2 194.7 192.9 190.9 188.8 186.4 183.5 180.8 180 182.1 184.1 186.3 187.6 188.3 188.9 188.7 187.9 187.2 186.5 185.2 184.1 183.3 184 184.6 184.5 184 183 182.2 181.4 180.6 179.3 178.4 177.6 176.9 177 177.2 177.3 176.8 176.1 175.5 174.9 174.3 173.8 173.2 173.2 172.9 172.4 171.9 171.5 170.7 169.9 168.7 168.1 168 167.5 166.9 166.7 166.2 165.4 164.6 163.9 163.1 162.6 162.2 161.7 161.1 160.4
28.1 29.3 29 38.3 46.5 49.3 51.1 45.1 37.5 34.6 32.6 32.2 30.7 30.6 30.9 31 30.8 30.3 31.3 31.5 31.6 31.2 30.8 31.3 31.4 31.5 32.1 32.1 33.2 33.9 33.7 34.6 34.8 33.5 33.5 34.8 41.1 48.9 51.9 53.5 55.6 57.9 59.3 60.4 61.1 61.5 61.2 60.3 58.5 56.8 56.3 54.2 50.7 46.1 44.7 48.6 50 49.3 47.7 46.9 46.2 45.4 43.2 42.7 42.4 41.1 40.6 39.8 39.7 39.5 39.8 40 40 38.7 38 37.5 40.5 42.4 45.1 47.5 48.8 51.2 53.3 55 58.5 63.6 68.3 73.3 77.9 80.9 83.9 86.7 88.8 89.5 90.3 91.7 95.1 101.1 101 97.4 95.8 95.1 91.6 87 82.9 79 76.6 84.8 86.1 87.3 89.1 91 92.2 95.4 99.9 108.4 115.6 123.1 141 150.6 158.5 166.1 174.1 180.5 185 188.6 191.2 193.2 194.5 195.6 196.3 196.5 196.3 195.4 193.7 191.9 189.9 187.4 185 182.1 179.1 180.3 183.1 185.4 187.2 188.4 189.5 190.2 191.1 191 190.7 190 189.6 189 187.9 188.6 188.7 188.4 187.8 186.4 185 184 182.9 181.6 180.4 179.2 178.4 178.1 177.7 177.4 177 176.5 175.9 175.3 174.7 174.7 174.4 173.7 173 172.4 171.7 171 170.3 169.6 169.1 169 168.8 168.7 168.3 167.6 167 166.3 165.5 164.9 164.2 163.5 162.8 162.4 161.6 160.9
