ncols 200
nrows 82
xllcorner 280000
yllcorner 914950
cellsize 50
269.6 270 270.5 270.1 268.8 266.1 265.3 265.1 263.7 261.9 258.9 254.7 251.5 251.5 253.8 254.9 257.1 259.6 263 265.2 267.1 269.1 270.1 272.3 278.3 283 286.6 290.1 292.7 297.3 302 307.4 313.6 317.9 320.4 322.9 325.5 328.3 330.4 332.1 333.7 335.5 335.5 336 333.5 330.9 329.3 328 326.8 325.9 325.3 325.5 325.5 324.8 324.2 324.3 323.4 322.6 322.4 322 321.2 319.5 317.6 315.7 313.9 311.7 308.5 304.7 300.4 296 291.6 287.3 283 278.4 273.7 269.1 265 261 255.9 250.4 245.6 242.3 240 236.9 232.6 229.1 223.1 217.9 212.9 207.5 205.6 202.1 199.6 197.2 195.1 192.1 190 188.5 188.3 184.5 183.9 182.6 182.4 181.3 181.6 181.9 180.1 176.1 174.5 173.4 172.7 176.3 173.6 174.1 173.9 172.2 171 169.8 167.7 169.8 171.9 174 175.8 179.3 182.5 183.6 185.1 185.6 186 187.7 190.6 193.4 194.2 194.7 196.2 197 196.4 195.2 195 194.3 194.8 195 194.4 193.7 194.1 194.1 193 192.2 190.9 189.2 186.2 183.7 180 175.5 170.8 165.1 159.2 154.5 150.3 145.5 140.4 134.2 129.4 124.1 117.7 112.8 111.1 108.9 105.7 103.8 101.8 99.2 95.6 98.9 97.1 97.3 106.9 108.5 108 97.4 108.7 112.3 118.1 126.7 129.5 128.7 130.7 134 132.1 127.8 124 112.9 104 95.2 88 83.3 79.6 78.7 76.7 76.4
268.4 268.9 269.4 269.2 267.6 265.8 264.8 264 260.2 259.7 256.6 253.6 250.6 252.6 254.3 255 256.3 260 262.2 264.3 265.9 264.9 269.3 272.1 277.1 282.1 285.1 289 291.9 295.5 300.1 306.1 312.1 317 320.1 322.6 324.8 328.3 331.4 332.3 332.5 333.2 333.8 335.5 334.3 330.3 329.4 328.6 327.7 326.8 326.2 326.4 326.6 326.5 325.9 326.1 325.2 324.1 323.9 323.3 322.1 320.8 318.8 316.8 314.4 312.6 309.1 305.3 300.8 296.3 291.8 287.1 283.3 278.6 273.5 268.9 264.3 259.5 254.1 249.6 245.1 242.9 239.2 236.1 232.6 228.5 224.2 220.7 215.8 209.1 203.9 201.4 198.1 195.7 195.5 191.1 187.5 184.9 183.2 182.1 180.6 181.4 180.9 179.5 177.6 178.3 177 177 178.4 178.6 177.9 179.4 179.1 177.7 177.1 176.3 172.6 171.3 170.1 170.1 173.6 176.4 179.6 182.7 186 187.8 187.9 189 190 192.6 196.9 200.9 202.8 203.5 204 203.1 202.9 202.1 201.9 201.8 201.9 201.7 200.6 201.4 200.9 200.3 199.1 198.4 197.9 196.5 194 191.5 187.3 182.9 177.5 172.7 167.5 160.9 155 150.4 144.8 140.7 135 126.5 117.8 114.2 112.6 109.5 107.3 104.5 102.7 100.4 97.8 95 94.8 94.1 96.2 98.8 98.6 95.3 96.2 103 105.6 109.9 115 116.1 114.3 116.4 113.2 108.6 104.5 99.9 91.4 85.2 80.9 79.5 78.6 77.8 77.2 76.8
267.5 268.1 268 267.8 266.7 265.3 263.9 261.5 259.2 256 253.7 251.7 250.6 252.5 253.9 254.8 256.6 259.7 261 263.1 263.7 264.6 270.3 272.3 275.9 280 283.8 287.6 291 294.1 298.2 303.6 307.8 313.7 317.7 321.8 323.3 325.8 329.7 330.9 331 331.3 330.8 332.7 333.1 330.1 328.4 328.4 328.3 327.7 327.1 327.4 327.3 327 326.5 327 327.2 325.8 325.3 323.8 322.5 321.2 319.5 316.5 313.7 311.9 309 305.4 301 296.5 291.6 286.5 282.8 278.2 273.2 268.3 263.4 257.4 252.3 248.8 245.4 242.3 238.5 235.4 233.5 230.3 226 221 214.8 211 207.4 205 199.5 196.9 192.3 190.7 187.9 186.6 185.2 181.2 180.5 181.3 178.6 178.1 179.4 177.7 179.2 178.9 180.8 183 182.3 182.8 184.1 182.3 183.1 181.3 176.7 173 171 172.6 174.8 177.5 181.4 185.1 188 190.6 192.7 195 194.2 197.8 203.5 207.9 210.5 211.5 211.4 209.4 209.3 209.1 208.8 210 210.5 210.2 209.6 208.8 207.5 206.8 205.3 204.5 203.4 202.5 201.3 199.2 195.9 191.6 185.8 180 175.1 169.4 163 158 151 147.6 140.6 129 124.2 120.8 118 114.3 108.9 107.1 104.1 101.2 99.1 96.7 95.9 94.8 94.5 90.9 92.9 92.5 92.4 94.6 95.8 93.2 98.7 102.9 100.4 99.5 98.3 95.1 93.5 90.3 84.2 82.3 80.9 78.8 78.4 78.7 78 78
265 266.6 266.4 266.1 265 263.3 261 259 256.4 252.3 250.9 251 251.6 250.5 252.6 254.3 255.3 256.3 259.3 261.3 259.8 264 268.9 272.6 274.9 277.3 281.1 285 288.1 291.9 296.3 299.9 303.1 309 313.5 317.6 319.9 323 325.3 326.9 328.5 328.7 328.2 328.8 329.3 328.5 327.4 327.3 327.2 327.2 327.5 328.1 327.8 327.5 327.2 327.6 327.2 326.7 325.6 324.2 322.7 320.6 318.4 315.8 313.1 311.1 308.9 305.1 300.9 296.5 291.3 285.9 281.7 276.7 271.8 267.2 262.3 256.7 252.2 248.1 244.2 241.4 238.5 235.5 233.4 230.8 227.6 224 216.3 214.2 210.7 205.4 203.7 199 194.7 190.6 188.8 184 182.6 182.3 186 185.1 184 183.6 182.3 181.1 181.5 181.7 184.4 185.1 185.2 187 187.2 187.3 187.3 185.6 177.8 175.4 171.5 174.4 176.5 178.7 182.2 186.1 189.8 193 194.8 197.9 199.8 202.7 208.3 212.7 215.5 217.3 218.1 217.5 215.7 215.1 215.9 216.8 217.2 216.7 216.3 215.5 213.9 213.2 211.7 209.5 208 206.5 205.2 203.4 200.1 196.5 192.5 187.8 182.2 176.1 170.9 166.5 160.4 153.7 145.6 140.9 132.5 126.2 120.1 116.7 114.9 110.3 106.8 102.6 100 100 98.4 96.6 95.4 94.5 92 90.9 91.1 91.2 90.2 89.9 88.9 90 91.3 90 87.8 85.8 85.6 83.2 81.2 80.5 77.3 79.8 79.8 81.9 82.1 83.9
261 261 261.8 262.3 261.6 260 258.3 257.5 255.3 254 251.7 251 251.4 248.7 252.3 253.5 254.7 255.8 257.6 259.4 259.1 260.5 268 271 273.4 275.7 278.6 282.5 285.3 288.2 292.3 296.4 298.9 303.7 308.3 312.5 315.3 317.7 321.6 323.2 324.8 325.7 324.7 323.7 323.7 324.6 325.4 326 326 326.5 327 327.4 327.8 327.9 327.8 327.5 327.1 326.8 325.5 323.8 322.2 320.5 318.1 314.9 312.4 310.8 307.2 304.6 300.6 295.9 290.6 285.7 281 275.1 270.5 266 260.9 255.6 251.8 247.5 243.2 240.2 238 234.5 232.2 229.2 226.5 222.3 218.3 216.2 213.6 208 204.5 201.1 194.2 187.2 185.9 185.8 187.6 188.8 189.5 188.5 186.8 186.7 184.7 184 183.6 185.8 186.2 186.4 187.8 188.4 188.2 188.1 188.2 187 178.9 175.1 173.6 175.6 178 180.6 184.7 190 194.6 195.6 197.8 200.3 205.9 209.2 213.3 217.1 219.8 222.5 224.4 223.4 222.3 221.5 221.9 222.6 222.6 222.1 221.9 221.2 219.7 218.8 216.3 213.7 211.3 209.1 207.4 204.5 201.7 198.7 195.4 191.1 186.2 181 176.5 171.7 166.9 160.2 152.9 151.2 143.1 132.8 125.9 121 117.9 111.5 106.7 107.2 105.5 107 101.7 99.1 97.9 96.4 94.3 92.8 89.8 89.5 89 88.3 87.7 85.2 85 85.3 84.6 84.7 86.4 84.3 83.1 82.3 82.6 85 86.9 90.1 92.4 101.5
259.4 258.9 258.6 258 258.4 257.3 256.6 258 256 254.7 253.5 252.8 251.4 250.5 252 253.2 254 255.5 257.8 255.8 254.5 260.9 267 269.1 272.2 274.9 277.2 279.5 282.2 285.2 289.1 292.4 295 297.4 301.1 305.7 309.6 312 317.3 319.7 321.4 322.6 321.9 320.9 319.6 319.8 322.6 323.9 324.3 324.8 325.6 326.7 327.1 327.4 327.6 327.4 326.8 326.2 325 323.4 322 320.5 318.5 316 312.6 309.9 307.6 304 300.9 294.8 290.2 284.4 279.8 273.8 269.2 263.9 258.1 253.8 250.1 245.8 242.7 239.7 236.3 232.6 231 229.7 227.3 221.9 219.2 216.3 211.2 206.5 201.9 196.6 189.6 189.5 191.2 192 192.6 193.1 193 192.7 190.7 188.8 188.1 186.7 184.9 185.4 185.7 187.5 189 188.5 187.7 187.2 186.4 185.3 181.8 176.8 173.9 178.9 182.2 186.1 189.1 192.7 197.7 199.6 202 204.8 212 214.8 217.9 220.7 223.6 226.8 227.7 228.2 226.8 226.5 227.3 227 226.6 225.5 225.7 225.6 224.2 222.5 220.6 218 213.8 211 208.7 205.8 202.9 200.1 196.8 192.9 188.2 184 179.2 174.8 170.2 165.4 161.1 156.7 151.5 143.6 136.4 126.9 121.5 111.8 116.3 113 113.9 112.3 107.9 101.5 99.6 98.3 96.6 94.5 92.4 90.4 87.7 87.7 86.3 86.6 86.8 85.5 85.1 85.8 87.8 84.9 86.1 87 87.6 91.6 97.3 99.7 105.5 113.9
259.5 259 259.2 257.6 256.6 255.9 254.4 254.8 255.8 254.5 253.8 252.8 251.4 249.1 251.4 253 254.5 254.6 253.9 255 259 264 266.3 269 271 272.4 274.4 276.5 278.9 281.2 285.5 288.7 291.8 294.1 296 299 302.5 307.5 311.7 314.3 316.4 318.5 319 317.7 317 316.7 317.4 321.3 322.1 323.1 324.2 325.1 326.2 326.7 326.9 326.9 326.4 325.7 325.3 324.1 322.6 321.1 319.1 316.9 313.6 310.5 307.7 303.6 299.8 294.8 289.9 282.8 278.3 272.5 267 261.2 256.5 252.2 247.5 243.6 240.8 238.9 235.4 230.7 228.9 226 225.1 221.9 217.7 214.7 207.8 205 201.2 194.7 191.1 195.5 195 196 196.5 196.3 195.7 195.3 194.7 193.8 191 190 187.3 186 186 185.3 184.9 184.5 183.9 184.1 181.5 179.7 178.8 175.9 177.4 183.4 187.2 191.1 193.7 195.9 198.2 204.2 206.7 210 214.6 218.4 220.6 224.5 227.9 230.2 230.9 231.5 231.2 231.4 231.4 231.8 231.3 229.7 228.8 226.7 226 225 222.9 219.5 214.5 212.3 209.6 207 204.1 200.9 197.7 194.6 190.2 185.9 182.5 178 174.4 169.8 165.7 161.6 157.8 152.3 143.7 134.8 123.9 120 121.5 119.6 117.8 118.1 114.6 108 107.4 103.8 101.2 98.8 94.8 91.9 91.7 89.9 89 88 87.4 86.8 87.3 88.4 90.4 89.9 89.3 92.2 95.8 101.5 104.4 109.8 113.7 122.9
259.3 259.1 258.5 257.2 255.8 254.8 253.2 252.6 254.1 253.5 253 252.1 250.6 247.5 251.5 252.8 252.6 253.7 254.8 256.1 260.4 263.9 265.3 267.2 268.9 271.1 272.1 273.7 275.4 277.4 280.6 284.7 288.6 291.6 293.6 295.5 298.4 301.6 305.8 308.5 310.9 313.4 315.8 315.7 315.6 315.4 315.7 316.5 319.5 321.5 322.1 322.6 323.9 325.4 326.2 326.2 326 325.7 325.5 324.4 323.3 321.5 319.5 317 314.4 311.2 307.9 303.2 298.2 294.2 288.6 281.1 275.8 270 263.6 259.1 254.5 248.9 243.4 240.2 238.4 235.1 230.1 228.6 227.3 222.4 218.6 214.5 212.9 209.3 204.7 201.5 195.4 192.4 195.3 197.9 197.4 198.1 201.1 201.3 199.7 198.5 198.5 196.5 194.3 191.6 189.5 188.5 186.6 185.4 185 183.7 183 182.8 181.5 180.4 178.3 176.6 182.4 187.6 191 194 196.7 199.5 202.6 207 211.1 214.3 218.1 221.7 224.4 228.9 231.3 233.6 234.5 235.5 236.3 237 237.6 238 237.6 236.3 232.9 228.9 226.2 224 221.4 218.6 214.5 211.8 209 206.5 204 201.2 197.6 194.1 190.8 187.4 183.9 183.1 180.5 176.3 171.4 167.4 163.2 158.7 151.3 138.4 130.7 129.5 130.9 128.7 124 123.9 122.4 118.5 117.2 115.5 111.3 106.8 101.5 96.4 95.9 93.3 91.3 91 91.7 91 89.1 93.4 93.6 94.3 101.1 105.8 107.9 109.8 114.3 119.1 123.4 130.4
259 259.1 258.2 256.7 254.8 253.5 251.6 250.2 252.1 252.6 252.1 251.4 250.6 248.4 248.7 249.7 251.7 253.2 254.9 257.7 259.3 263 263.7 264.8 267.6 269.4 270.5 271.9 273.5 275.2 277 279.6 284.5 288.9 291.3 293.2 295.4 298.1 301 304.3 306.3 309.1 310.9 312.4 313.5 314.3 314.1 314.5 315.7 318.7 319.5 320.3 321.6 323 324 324.8 325.4 325.1 324.9 324.2 323 321.8 319.6 317.1 314.6 311.7 307.8 303.7 297.6 292.6 286.9 279 273.6 265.8 259.7 256 250.9 245.4 240.5 237.9 237.1 232.1 230 228.4 226.8 222.5 218 213.4 211.7 207.8 202.8 199.1 196.1 194.7 199.1 199.9 198.7 202.6 204 204.8 205.5 202 200.9 199.9 198.7 196.4 193.1 192 189.8 188.1 186.3 186.7 184.8 183.6 182.4 180.4 178.5 183.4 186.5 190.3 193.8 196.8 199.7 204.2 208.6 212.9 214.5 216.7 221.7 225.8 228.5 232.1 234.9 236.6 239.2 240.7 241.7 242.6 243.3 242.9 241 239.3 235.3 230.4 227.1 222.4 220 217.2 213.6 210.6 208 205.5 203.1 201.3 197.8 195 192.7 189.5 187.7 185.6 183.3 181.4 177.7 173.6 169.4 165 157.1 142.4 144.1 143.5 142.4 141 139.4 135.9 134.2 133.3 129.1 124.6 121.5 117.3 110.6 108.6 103.2 99.2 99.3 100.6 99.5 100.2 100.2 102.8 94 104.1 111.3 116.7 116.5 119.6 123.3 126.4 132.4 139.5
258.5 257 256.1 255.2 254.5 253.7 252.8 250.1 248.8 250.1 251.1 250.1 249.1 248.4 247.9 250.7 252.5 253.7 254.9 256.9 259.5 261.7 263.7 264.6 266.6 267.9 270 271.7 272.6 273.8 275.4 277.3 281 285.5 289 290.8 292.7 294.5 296.4 300.4 303.2 305.8 307.5 309.5 311 311.8 311.9 312.2 312.7 313.9 315.2 316.5 317.8 319.4 321.2 322.3 322.9 322.9 322.8 322.6 321.8 320.4 318.2 316 313.8 310.4 306.5 302.6 297.4 290.5 283.7 276.8 269.4 262.2 255.2 251.2 246.3 240.6 238.8 236.7 232.9 229.5 227.8 227.3 225.7 223.5 219.2 215 211.1 205.9 204.3 199.9 193.7 198.8 201.4 201.1 206.5 211.5 211.7 211 208.8 208.4 206.5 203.2 200.9 198.5 195.6 193.2 191.3 189.5 188.3 186.7 185.2 184 182.8 180.9 183.2 188.9 191.9 195.9 200.1 200.4 204.5 209 212.6 215.4 219.6 221.8 225.3 230.2 232.9 235.4 238.5 240.2 242.1 244.3 245.8 246.3 246.3 245.7 243.9 241.3 236.7 232.2 227.3 221.8 218.7 216.2 212.7 209.5 207.4 205.5 203 200.8 198.5 196 192.6 189.9 188 185.9 184.7 183 181.2 177.9 172.3 167 161.5 152 155.9 153.9 153.6 152.8 153.4 151.5 149.7 145.5 143.5 139.9 134 129.7 121.5 114.6 112.4 112.8 110.6 110.7 106.3 110.2 110.5 106.7 102.1 113.4 118.6 124.7 126.1 127.4 129.4 134.9 141 144.6
257.5 256.2 255.7 254.4 254.1 253.8 253.3 249.7 249 246.9 247.6 247.7 247.2 245.8 246.5 247.9 252.2 253.4 256.3 257.5 259.9 262.4 263.8 264.4 265.7 267.7 269.8 271.5 271.9 273.1 274.3 276 279.2 282.8 286.1 288 290.1 292.1 293.5 297 299.7 302.6 304.7 306.8 308.4 309.9 309.7 309.8 310.5 311 310.7 311.6 314.1 315.2 317.1 319.2 319.6 319.5 319.4 319.4 318.5 317.4 316 314 311.8 308.4 304.8 300.5 295.2 288.8 280.8 275.1 266.7 257 251.1 246.3 241.1 236.9 234.5 232.8 223.8 226.1 224 222.7 221.1 218.5 217 212.3 207.7 203.5 198.5 196.5 198.2 203.2 208 211.8 215.9 219.4 219.4 218.3 216.9 216.1 213.8 209.1 204.8 203 198.1 194.4 193.1 190.9 190.1 187.7 186.2 184.7 181.4 185.4 189.2 193.5 196.8 200.3 205 207.9 209.6 213.7 217.8 221.1 223.3 226.2 229.6 234.7 237.8 239.8 241.7 242.3 244.4 245.8 246.3 247.1 247 245.2 243.1 240.2 235.3 230.9 227.1 221.4 217.9 215.2 212.2 209.5 207.6 205.7 203.3 201.2 198.7 196.2 192.9 189.5 183.6 179.7 180.8 179.7 178.8 177.6 172.6 166.9 151.4 164.8 165.1 164.1 163.8 165.8 165 164.2 160.5 158.3 155.5 151.9 147.2 143.1 137.2 129.9 125.4 122.5 118.7 116.8 116.5 118.3 120.7 113.3 109.5 120.3 126 130.3 131 133.5 137.1 144 148 150.1
256.4 255.6 255.2 253.3 253 252.9 252 250.1 247.6 246.5 246.6 247 245.9 245.4 248.6 250.4 251.5 253.3 255.6 257.8 259.5 262.5 263.6 264.3 265.7 267.7 269.7 271.1 271.5 272.6 273.7 275 277.5 280.6 283.3 285.3 287.4 289.7 291.7 294.5 296.2 297 301.1 303 305.2 306.2 306.9 307.4 307.3 307.7 307.1 307.3 308.1 310.4 313.1 315.3 316 315.9 315.9 316.2 315.2 314.2 313.4 311.3 309.2 305.8 302 298.1 292.3 285.2 275.9 267.6 259.4 253.5 248.8 243.5 238.2 234.4 228.5 224.7 220.4 218.1 216.8 214.1 210.1 210.4 209.1 206.1 202.2 202.6 202.1 201.5 204.1 210.4 217.3 221.7 225.1 226.9 227.1 226 224.2 222.1 219.4 215.5 210.3 207.1 202.8 198.4 195.4 193.5 191.1 189.9 187 183.9 186.2 190 193.5 197.3 201.6 204.8 208.3 213.2 215.3 219.6 223.4 226.7 230.1 233.2 236.7 239.7 242.4 244.2 245 246.3 247.6 247.6 247.8 247.8 246.8 244.5 241.1 238.1 233.2 229.4 225 220.7 217 214.1 212 209.9 207.8 205.9 203.7 201.4 198.9 196.4 192.9 190.1 186.9 182.4 171.8 167.7 165.6 163.6 160.6 157.8 170.7 173.3 175.8 177.3 178.3 178.3 176.8 174.7 172.1 167.9 165.2 161.1 156.6 150.7 145.1 137.5 135 132.2 130.6 128.7 129.9 127.5 124.7 116.1 113.6 125.3 131.1 135.8 137.7 141 147.1 152 154.5 155.2
255.4 255 254.5 252.2 252.2 252.3 251.2 251.2 247.5 245.8 246.2 246.5 245.1 246.5 249 251 252.8 254.2 254 255.6 259.4 262 263.4 264.1 265.8 267.8 269.1 270.3 271.2 272.1 273.2 274.4 276.2 278.7 280.6 282.6 284.6 287 289.3 290.8 292 293.4 296.4 298.4 300.1 301.1 302.4 302.3 302 301.8 301 301.9 303.5 305.9 308.2 309.9 311.5 311.5 312.4 312.9 312 311.1 310.3 308.7 306.2 302.9 299 294.4 288.7 279.5 270.6 262.2 254.3 249.1 246.7 241.4 235 229.3 226.2 220.9 217 213.5 212.2 208.2 206.7 204.1 202.4 201.5 204.5 205.4 204.5 205.3 206.5 219 225.6 230.9 233.8 235.3 235.9 233.6 231.7 226.2 222.6 216.9 211.7 208.5 205.7 201.9 197.7 195.8 195.1 192 189.1 186.3 190.7 193 196.5 201.1 205.3 210.4 215.3 219.7 220.6 224 228.6 234 238.3 242 244.9 247.5 249.9 250.5 250.3 249.9 249.5 249.3 249.4 248.8 247.4 245.5 241.4 237.2 231.9 227.1 222.5 219.3 216.4 214.8 212.8 210.8 208.6 206.3 204.1 202.2 200 196.9 193.3 189.4 183.4 172 176.8 179.5 179.4 178.7 178 179.8 180.7 184.1 184.8 186.1 187.8 186.8 184.5 182.2 178.3 175.4 171.6 167 162.2 156.8 150.6 146 143.2 141 139.5 140 139 135.8 131 121.4 118.3 132.4 138.3 143.4 146.1 149.4 154.4 159.3 161.5 162.6
254.7 253 251.9 251 250.4 250.7 249.5 248.8 247.2 245.2 245.2 245.2 243.5 245.1 248.2 251.3 253.1 254.6 254.4 256.8 260.2 261.5 262.9 263.9 265.8 267.1 268.3 269.6 270.8 271.7 273 274.2 275.2 276.5 278.8 280.3 282 284.4 286.1 287.7 289.1 290.5 293.1 293.9 295.4 297.3 298.2 298.3 297.4 298.8 298.8 298.6 299.2 301.9 304.8 306.4 307.1 307 306.9 307 308 307.8 306.3 304.2 302 298.8 293.7 288.6 280.8 272.3 264.3 259.4 252.8 245.8 241.2 233 229.5 222.7 218.4 214.2 212.7 209 207.6 206.4 204.8 202.3 205.6 206 207.1 208.1 208.1 209.4 217.1 228.5 233.5 238.9 242.3 244.8 245.4 241.2 236.5 231.6 225.8 221.2 214.7 211.2 206.1 203.6 201.5 197 195.4 194.8 190.4 188.6 194.1 197 201.5 204.9 209.9 214.8 220.2 224.1 227 230.6 235.3 240.1 247.4 252.1 254.6 255.5 256.7 256.6 254.9 253.2 252.8 252.3 250.9 249.8 248 246.1 241.9 238.3 234.2 227.8 222.8 219.1 216.2 214.3 212.7 211.1 209.4 207.4 205.3 203.4 201.1 197.6 193.3 186.9 177.4 183.1 186.7 187.7 188.7 191.4 193 193.4 194.2 194.3 196 196.4 195.7 194.4 191.4 188.6 183.9 180.3 175.7 171.4 166.5 161.4 156 152.1 150.2 149.6 147.9 146.8 145.1 140.5 135.8 125.1 125.7 142.1 148.1 151.7 155.3 158.1 162.4 166.4 168.8 169.9
253.1 251.4 250.6 249.8 249.1 248.7 248.1 245.7 243.8 244 244 241.8 243.8 246.6 247.4 250.4 252.2 253.8 255.1 259 259.4 261.5 262.6 263.8 265.1 266.3 267.6 268.8 270 271.5 272.9 274.1 275.1 276.1 277.1 278.4 279.5 281.2 282.9 284.5 286.1 287.6 289.1 289.9 291.1 292.6 294 294.3 294.7 295.8 296.8 296.6 297.2 296.8 299.2 301.5 303.3 303.1 302.6 302.7 303.2 303.8 302.3 300.1 296.7 292.4 288 283.4 278.4 267.7 261.9 257.2 252.6 242.2 234.9 230.5 222.9 215.6 212.5 209.5 208.6 206.5 205.6 204.6 207.1 207.4 208.3 209.3 211.3 214 216.6 219 228.9 235.5 241.5 245.9 249.6 251.3 251.1 247.6 240.8 235.1 228 221.9 216.7 213.5 210.1 205.6 204 202.8 197 195.7 189.3 193.4 199 201.4 206.7 210.9 213.8 218 223.6 228.5 231.9 238.1 243.4 250.8 257.9 262.4 265.3 266.6 265.4 262.1 259.3 256.5 255.3 253.8 252.4 251.7 249.9 247.9 245.1 242 237.6 229.7 224.1 219.5 216.1 213.7 212.2 210.8 209.4 207.3 205.2 203.2 201.8 198.1 191.6 179.8 185.6 192.2 194.3 196.3 199 201.7 203.2 204.3 203.9 205 204.8 203.9 203.9 201.9 198.1 194.2 189.2 184 179.3 175 169.4 166.2 160.9 158.2 155.7 152.9 153.9 151.9 147.5 142.5 135.8 119.3 137.8 148.3 153.3 157.9 161.6 165.5 170 172.9 175.1 175.7
253.2 251.8 250.5 248 245.4 245.1 245.9 244.4 243.2 242.6 242.3 242 242.8 244.6 247.3 250 253.5 254.8 256.3 257.1 258.8 261.1 262.6 263.3 264 265.2 266.4 267.6 269.2 271.3 272.7 273.9 274.9 275.9 276.5 277 278 278.7 280.2 281.6 283.1 284.4 285.5 286.6 287.1 287.8 288.8 289.1 291 292.6 293.8 294.3 294 293.3 293.6 296.6 298.2 299.4 299.1 299.7 300.2 299.9 299.2 296.3 293.8 290.7 286.7 282 275.1 267 258.3 255.2 246.2 237 229.8 223.5 214.9 211.2 209.3 207.4 205.5 205.4 206.7 208.9 208.9 209.7 211.2 216.1 219.6 223.6 227.1 230 236.1 242.5 246.8 250.6 253.7 255.1 254.9 251.7 244.1 238.2 232 223.9 218.1 214 211.1 209 205.2 203.2 201.4 198 192.3 196.8 203.8 203.9 208 215.3 218.6 221.8 227.9 233.4 238.7 245.2 251.2 259.9 267 273.9 278.6 279 277.4 273 266.3 261.1 257.3 254.9 253.9 253.7 252 249.9 247.2 244.2 240.1 233 226.2 220.1 216.2 213.2 211.8 210.7 209.3 207.1 204.1 201.9 199.8 195.4 185 188.4 197.7 201.1 203.2 205.3 207 207.8 208.5 209.3 209.8 210.4 212.1 213.1 212.8 210.1 205.9 200.6 195.9 191 185 180.5 175.2 170.5 166.6 162.5 160.4 158.3 156.9 153.8 149.1 142.2 118.2 133.2 148.4 155.7 159.7 164.2 167.5 171.2 175 177.6 180.4 180.6
253.4 252.1 250.8 249.2 247.6 243.7 244.3 243.2 242.7 242.5 241.2 240.7 242.3 244.8 247.7 251.5 253.4 255.4 256.4 257.5 258.7 259.8 261.5 262.7 263.4 264 265.3 266.6 268.7 270.4 272.3 273.7 274.6 275.1 275.5 276 276.7 277.4 278.1 279.5 280.9 280.7 281.6 281.5 282 283.5 284.1 283.9 285.7 287.2 288.9 290.8 291.4 291.2 291 291.7 294 296 296.5 296.6 296.8 297.2 296.8 294.2 291.8 288.6 284.8 279.3 272.1 264.5 257.3 250.6 242.1 233.5 226.4 218.1 212.2 210.5 207.9 205.5 206.2 207.1 209.2 210.1 210.9 212.8 218.2 223.9 228.6 232.3 236.2 239.2 243.7 246.8 250.3 253.6 256.6 258.7 258.2 254.1 247.3 240 231.9 225.4 219.2 217 212.2 209.8 207.1 204.2 201.6 195.6 193.3 197.6 203.1 207.2 210.8 216.2 220.8 225.7 231 236.8 243.1 249.9 258.8 267.2 275.2 282.5 287.4 290.3 287.3 283.3 275.8 269.3 262.1 258.1 257.7 256.7 255 252.6 248.2 244.7 241.4 236 228 220.6 216.3 213.1 210.8 209.7 208.5 205.7 202.3 199.8 196 187.7 192.1 199.9 202 205.8 208.2 210 212 213.1 214.3 215.9 217.6 219.1 220.1 220.5 220.4 218.2 214.4 210 207.2 202.2 196.3 188.5 182.2 176.5 171.3 166.5 164.3 162 158.6 154.1 148.8 135.3 134.8 146.8 157.1 162.2 166.4 169.1 172.4 176.2 179.4 182.1 185.4 187
253.5 252.2 251 249.3 247.2 246 242.7 242.9 241.7 242.1 241.1 242.3 243.7 247.5 249.4 250.3 252.9 255.2 255.8 256.3 257.8 259 260.3 261.7 262.5 263.3 264.1 265.5 267 269 270.9 273 273.6 274.1 274.6 275 275.5 276.7 276.3 277.4 277.9 277.4 277.1 277.1 278.1 280.1 280.7 281.2 282 283.8 285 286.5 287.2 288 288.8 289.2 291.6 292.8 294.1 294.2 294.9 295.5 294.9 291.9 288.4 284.8 279.8 275.3 268.1 261.8 256.9 250.6 243.6 234.3 221.1 213.7 211.2 208.6 206.9 204.9 207.9 209.7 211 212.3 214.5 218 226.3 232.4 238.1 241.9 244.5 246.3 248.8 250.7 253 255.9 258.6 259.8 260.4 256.8 249.9 242.2 233.3 227.4 223.2 218.4 215.1 211.9 208.6 204.3 200.5 201.5 196.5 198.7 202.8 208.4 212.8 218.8 222.8 228.7 233.8 238.7 246.8 256.5 266.1 273.3 280.6 289.4 294 297.1 294.4 291 285 277 269.8 264.9 261.6 260.5 259 256.6 251.4 246.2 242.1 236.4 229.5 221.6 216.1 213 209.9 207.8 206.1 202.3 198 194 194.2 197.5 201.1 205.4 207.6 210 212.3 214.1 216.6 217.1 219.1 222.6 225.5 226.7 227 226.9 225.9 224 221.4 218 214.4 209.8 202.9 194.6 188.5 181.6 176.1 171.6 166.9 163.4 159.6 155.3 142.6 125.5 146.3 156 163.5 167.9 171.8 173.9 178.2 181.7 185.5 187.8 190 190.6
252.9 251.5 250.5 249.6 248.3 246.4 243.9 242.6 241.2 240.2 242.5 244.1 245.4 246.6 247.1 247.9 251.2 254.9 254.7 255.1 256.2 257.6 259.5 260.6 261.1 261.6 262.4 263.6 265.3 267 268.8 271.6 272.6 273.1 273.6 274.1 274.6 275 275.6 275.1 274.8 274.4 273.7 272.9 274.2 275.6 276.3 276 278 279.9 280.8 282.7 284 284.7 285.7 286.7 287.2 288 290.5 290.8 291 292 292.2 289.2 285.5 281.9 276.3 270.6 265.6 257.7 254.5 249.1 242.9 231.4 220 213.3 208.9 206.9 205.9 206.5 208.4 211 212.7 218 221.8 227 233.9 239.9 246.3 248 250.2 253.3 254.4 255.5 256.5 257.8 259.8 260.5 260.8 258.3 251.6 245.1 237.8 230.8 225.3 221.1 215.9 213.2 208.2 205.4 205.1 204 200.5 198 201.6 208.3 215 219.5 224.6 229.8 237 243.4 253.2 261.3 270.5 277.6 286.5 294.6 298.8 301.8 300 297.5 291.5 285.1 277 272.6 267 264.2 262.3 258.5 252.8 247.1 241.6 236 229.9 221.5 215.8 212.7 209.7 205.9 201.5 202 202.1 199.8 201.3 205 208.2 211 212.7 214.8 217 220.4 222.7 224.6 227.7 231.1 232.3 233 233.1 232.3 231.1 228.7 226.2 222.7 219 214.4 207.3 199.4 191.3 185.8 180.2 174.3 169 164.9 161 154.1 142.3 127.9 150.1 162.4 169.5 173 176.4 180.4 183.6 188 191.8 193.2 193.9 194.3
252.8 250.7 249.7 248.6 246.8 244.9 244.1 242.5 245.5 239.7 242 245.4 245.8 246 246.5 248.8 252.5 252.6 253.5 254 254.5 255.9 257.7 258.5 259 259.5 260.6 261.8 263.2 264.9 267.7 270.2 270.7 270.8 271.3 271.8 272.2 272.6 273.3 272.8 272.1 271.3 270.3 269.5 269.3 269.4 269.7 270.7 273.1 272.8 276 279 280.5 281.6 282.3 283.1 284.1 284.4 285.4 285.2 285.6 286.6 287.4 286.1 283.8 279.7 275.2 269.3 262.8 255.7 251.6 246.3 237.6 226.9 217.3 210.7 206.5 207.2 209.5 209 210.6 212.6 217.9 224.1 229.4 234.6 241 246.7 251.3 253.6 256.8 258.4 259.6 259.7 259.2 260.3 260.6 261 260.1 257.1 251.5 245.9 239.8 233.5 229.3 223.6 217.8 213.2 209.7 206.2 207.6 206.3 202.7 198.7 204.4 209.6 216.3 219.8 224.7 231.1 239 246.5 256.4 266.1 274.7 283.2 291.5 299.5 304.1 307.3 306 303.7 300.3 294.4 286 280.3 275.2 266.9 262.9 258.3 251.9 245.5 240.2 235.7 230.2 223.5 216.1 212.7 208.7 206.2 206.8 206.8 204.8 205.1 207.9 210.9 214 217.3 219.8 222.3 225.7 228.1 230.5 233.1 235.4 236.5 237.7 238.6 238 236.4 234.8 232.8 230.1 227.3 223.3 218.6 211.7 205 197.9 189.3 182.7 176.7 171.9 167.6 163.6 153.3 135.5 129.8 152.9 167.4 174.5 177.9 181.5 185.2 189.1 194.3 197.6 197.7 197.1 197.3
251.5 250 248.3 247.3 246.3 244.9 242.2 241.4 241.6 240.6 240.9 242.9 245.6 246.1 245.5 248 248.4 250.6 252 253.1 253.6 254.4 255.1 255.9 256.9 257.7 258.9 260.1 261.1 263.5 266.5 268.8 268.8 268.8 269 269.2 268.4 269.3 270.2 270.1 269.4 268.6 267.5 266.3 265.2 264.6 263.7 265.3 267.6 268.1 269 272 274.8 277.8 278.5 279.4 279.6 280.6 282.1 281.9 280.9 280.2 279.9 279 277.9 276.5 271.8 268.1 262.2 255.1 246.6 236.7 230.6 223.2 216.7 211.6 207.1 208.8 210.8 212 213.5 216.9 222.9 231.2 237.8 243.6 248 252.9 255.8 258.3 261 262 263.2 262.6 261.9 262.2 262.3 262.2 261 257.8 252.5 246.7 241.3 235.6 230.9 226.1 220.7 217.1 212.5 209.9 212.5 208.9 204.8 200 203 206.7 215.3 219.5 225 231.1 240.1 247.8 257.4 268.9 278.2 287.2 295.9 303.3 309.3 313 313.4 311.3 308.7 302.1 295.1 288.3 282.7 274.3 264.9 260 253.3 247.2 241.3 236.3 230.7 224.2 217.6 214.3 210.6 211.1 209.8 210.4 209.8 211.4 214.1 217.1 220.8 223.9 226.1 228.5 230.7 233.2 235.7 238 240.7 241.1 242.3 242.1 242 240.4 238.5 236.1 232.6 229.6 226.2 221.9 216.1 208.7 202.5 194.3 186.9 180.1 175 169.9 164.5 158.6 136.3 138.8 157.2 171.1 179.5 183.9 187.1 189.9 194.6 199 201.3 200.7 199.4 198
250.9 249.1 247 244.8 243.7 243.2 243.1 241.7 239.7 239.8 239.4 242.2 243.2 243.6 244.2 245.3 247.5 249.5 250.9 251.3 251.3 252.3 253.1 253.4 254.4 255.3 257 258.4 259.3 261.6 264.6 266.7 266.7 266.8 267 266.4 265.8 266.4 267.5 267.4 266.8 266 264.9 263.7 262.6 262.1 260.1 260.5 262.3 263.7 265 268.9 269.7 272.1 274.7 274.8 274.6 274.8 276.2 278 277.9 277.6 277.9 278.4 275.4 271.4 267.9 264.8 260.2 253 241.4 232.1 225.1 216.9 212.2 207.2 207.9 209.7 211.8 214.8 216.5 220.5 229.3 237.7 244.5 250.2 255.3 257.5 260.8 263.3 264.6 265.5 266.6 265.9 265.1 264.3 263.7 263.7 262.8 259.2 254.2 249.2 243.9 238.4 232.7 228.8 224.8 222.2 218.4 212.5 214.7 214.2 210.3 204.8 205.2 208.7 214.5 220.5 225.8 232 241.8 248.7 259.2 269.5 279.8 288.8 297.5 305.8 312.3 318.1 320.2 319.6 316.4 310.2 303.4 295.7 288.5 280.4 270.6 262 254.6 247.7 241.3 236.1 230.8 225.2 219.8 216.5 215.3 214 213.5 213.7 215.1 217.8 220.6 223.3 226 228.3 230.6 233 235.4 238.7 241.7 244.5 245.6 245.8 245.8 245.9 246.3 244.1 241.9 239.4 235.6 232 228.6 224.8 219.5 213.1 206.1 198.1 190.1 183.7 178.1 172.4 167.5 162.8 140.1 142.1 160.5 175.2 183.2 188.8 192.6 195.4 199.7 202.4 202.9 201.4 199.8 197.6
251.1 248.4 245.1 243.5 242.7 241.8 240.8 241.2 237.8 236.5 240.3 241.2 242.3 242.4 243.2 244.8 247.3 248.8 250.4 250.5 250.8 251.8 251.8 252.2 253 253.4 253.7 254.5 256.7 258.8 262.2 264.6 265 265.3 264.9 264.4 264.3 264.1 264.7 264.6 264 263.5 262.3 261.1 260.1 259.7 257.8 257.3 257.5 258.1 259.8 263.9 266.1 267.9 268.4 270.5 273 271.4 271.3 271.2 271.3 272.4 274.3 274.2 272.5 269.5 265.9 260.8 250.9 241 235 228.1 221.4 213.9 208.6 207.6 209.1 211.1 213.2 216.4 220.3 227.3 235.1 243.7 249.8 255.2 259.2 262.1 265 267.3 268.2 269 269.9 269.1 268.2 267.5 266.7 265.9 264.6 260.6 255.6 251.4 246.8 240.6 236.4 233.4 229.6 225.4 221.9 215.6 216.7 217.9 218.3 207 204.6 209.1 214.8 220.8 227.3 235.8 243.8 249.8 260 269.8 279.6 288.5 297.3 305.7 313.3 320.2 324.3 324.3 321.3 315.6 308.7 301.9 291.5 282.7 274.4 263.4 256.6 249.8 242.6 237.5 232.2 226.9 222.7 219.1 219.5 219.6 219.1 219.2 219.7 222.5 225.2 228.2 230.8 232.3 234.6 238.2 241.9 244.8 246.4 247.3 248 248.7 248.7 249.2 247.7 245.8 243.8 242 238.8 235.2 231.7 227.6 222.3 216.3 209.1 201.9 194 188.4 183.2 176.4 171.3 163.5 142.7 143.6 162.7 178.4 187.5 193 197.1 200.6 202 203.4 202.5 201.4 199.2 197
249.9 247.1 243.3 241.8 241.1 239.2 238.7 238.4 236 237.7 240.4 240.8 241.9 242.2 243.6 243.3 245.8 248.2 249.7 250 250.2 250.5 251 251.6 252.3 252.6 253 253.2 253.4 255.3 259.4 262.1 263.1 263.5 263.4 263.2 263.1 263 262.7 261.8 261.1 262.3 260.7 258.7 258.1 257.2 255.8 254.5 253.9 254.2 255.2 258.2 261.6 262.6 263.9 267.4 270.9 271 268.6 270.1 268.2 266.1 264.1 262 259.4 256.3 252.1 248.5 242.7 234.6 227.6 223.8 218.7 213.5 208.5 209.7 210.3 212.5 215.4 220.1 222.8 234.2 242.1 249.4 255.4 259.6 263.5 265.7 268.5 272.1 271.4 271.8 272.6 271.9 271.2 270.5 269.7 268.9 266.2 262.9 257.8 254 248.4 244.4 241.3 236.2 233.4 229.8 226.7 223.6 219.8 220.4 219.9 213.5 209.6 208.6 214.1 222.8 230.8 237.7 245.9 251.8 260.9 269.6 279 287.4 296.3 304.7 311.9 319.1 323.8 325.1 322.2 317.8 311.5 303.7 294.1 285.2 275.6 267.2 259.1 252.3 245.9 240.7 235.1 230.5 225.4 223.2 223.9 223.7 223.9 225.4 225.9 228 230.9 232.9 235.2 237.3 240.3 244.9 247.2 248.7 250.1 250.7 251.3 251.8 252 251.9 249.4 247.4 245.5 243.7 240.4 236.9 233.7 230.2 225.1 219.3 212.6 205.7 199.2 193.1 186.4 181.2 174.4 165.4 146.4 141.9 164.9 180.9 190.2 196.4 200.6 203 204.2 203.5 202.4 200.6 198 195.4
248.1 244.9 241.4 238.9 238.1 237.9 237 237.1 237.3 237.4 239.3 240.7 240.8 242.9 244.9 246.2 247.2 247.2 248 248.6 249.9 250.5 250.5 250.9 251.5 251.9 252.1 252.3 252.6 252.8 254.7 258.9 259.4 261.2 262 262 261.9 261.8 261.5 260 259.2 260.4 259.6 257.3 255.7 254.7 253.4 252 250.8 250.5 250.2 253.6 255.7 256.5 259.7 262.3 263.6 267.9 266.5 265.6 264.9 263 261.6 258.6 255 251.3 248.1 242 236 229.7 223.2 219.6 216 211.7 210 209.6 211.6 214.1 218.5 223.6 232.2 240.1 247.4 254.7 260.5 264.9 268.6 271.9 273.9 275.7 277.1 276.8 277.3 276 275 273.7 272.6 271.2 267.8 263.7 260.1 256.6 252.9 248.4 245.3 240.7 238.1 234.3 231 224.6 222.9 220.8 218.2 213.6 212.5 209.2 217.4 224.4 232.8 240.3 247 254.2 262.5 271.5 279.3 286.6 294.4 302.5 308.5 314.4 319.5 322.2 321.1 317.7 311.7 305.5 296.9 288.7 279.8 272.7 264.6 257.4 250.6 245 239.4 234.7 228.3 228.7 228.3 229.4 229.7 230 230.8 232.5 236 237.6 239.3 241.8 247 250.3 251.5 252.9 253.5 254 254.9 255.9 255.7 254.8 253.1 250.6 248.2 244.7 241.3 238.6 235.3 231.7 227.2 221.5 214.3 208.1 203.2 197.3 190.4 184.4 178.4 169.1 145 144.5 167.5 183.3 192 197.7 201.3 204 204 203.3 201.8 199 196.5 193.1
246.2 243.5 240.5 237.7 236.3 235.3 236.3 235.4 237.5 237.6 239.5 239.8 242 243.7 245.5 247 247.4 247.6 248.2 249.6 250.2 250.7 250.9 250.7 250.8 251.1 251.4 251.7 251.9 251.4 250.5 254.4 255.5 257.9 259.4 260.3 260.4 260.5 260.2 259.5 258.7 258 257.6 255.6 252.7 250.2 248.8 249.2 248.8 246.7 245.8 247.7 248.3 251.1 254.6 257.9 259.3 262.8 264 262.9 262.3 260.7 260.4 259.4 255.9 247.1 243.8 236.9 230.6 225.5 220.2 217.6 214.5 211.6 210.2 209.9 212.9 216.4 222.6 228.4 236.3 245.4 252.6 259.4 265.1 270.1 273.8 276.9 278.6 279.2 280.6 281.4 282.4 283 283.2 278.7 276.6 273.7 268.8 266.1 262.7 259 255.3 251.9 249.5 244.8 241.6 238.9 234.2 229.3 228.8 225.7 221.7 215.2 214.2 212.2 218.9 226.4 235.4 241.5 249.2 256.9 265.2 272.3 277.6 284.8 292.9 301 306.2 311.7 317.1 319.8 319.7 318.8 315.6 310.3 303.2 295.8 287.8 279.5 270.7 262.9 255.4 249.5 243.6 236.8 233.4 233.2 234 235 235 236 237 237.7 240.4 242.1 245.6 249.7 252.7 255.1 256 257.2 257.6 258.1 259 259.1 257.9 256.3 255 252.1 249.4 245.3 241.1 238.5 235.3 231.8 227.5 222 215.5 209.8 204.5 198.9 192.6 187.2 181.8 172.8 144.1 148.3 171.5 185.8 193.3 198.1 201.2 202.8 203 202.7 200.2 197.4 193.7 189.9
244.3 242.2 240 237 235.1 234.8 234.3 236.2 236.6 238 240.3 241.1 242.8 244.4 246.2 247.5 248.5 249.7 249.9 249.5 249.7 250.5 250.9 250.5 250.3 250.4 250.8 251 250.8 249.9 248.9 249.6 252.1 254.6 256.1 257.5 258.3 258.8 258.9 258.3 257.6 256.9 255.6 253.3 250.9 247.1 245.1 245.4 246.1 244.4 242.4 241.4 242.3 246.3 250.4 254.3 256.9 257 260.3 259.1 256.1 254.4 255 252.5 250.4 245.8 238.2 232.5 227.2 222.1 218.9 216.8 214.4 210.8 210.1 212.2 216.4 222.4 229.8 235.4 243 251 258 264.2 269.9 275 278.7 281.1 282.4 283.1 284.1 286.6 288.7 289.3 288.7 286.8 280.6 277 273.6 270.4 267.1 261.7 258.1 255.1 253 247.4 243.5 243.7 238.6 236.1 233.5 232.3 229.8 221.8 216 215.5 218.8 227.4 235.5 244.6 252.2 259.3 267.1 272.9 278.1 284.7 292.5 300.1 305.5 311 316.2 318.9 320.8 320 318.2 314.1 308.2 302.5 293.8 285.1 275.9 267.2 259.7 252.8 246.1 240.4 239.6 239.1 240.3 240.2 240.3 241.7 243.6 244.6 246.9 249.8 252.4 255.8 258.1 259.8 260.8 261.6 261.9 262 262.2 261.2 260 258.1 256.2 253.2 250.2 246.8 241.9 237.8 234.5 230.7 226.3 221.6 217.2 212.9 207.4 201.9 195.8 189.3 184.9 172 145.8 155.1 175 187.4 193.5 196.9 199.2 201.2 201.2 200.2 197.4 195.1 190.2 186.3
242.3 240.8 239.2 237.4 236.4 234.1 235.1 236.2 237.7 238.9 241.1 242.4 244.7 246.2 247.8 249.3 250.6 251.2 251 250.4 249.6 250.3 250.6 250.2 250.2 249.8 250.1 250.2 249.3 248.3 247.4 246.9 247.6 250.8 252.6 254.1 255.4 255.8 257.3 257 256.3 255.8 254 251.5 249.9 245 240.2 239.2 240.6 238.3 237.1 236.2 235.9 237.2 242.4 246.1 248.6 250.8 252.4 255.5 252.8 248.9 249 248.3 246.5 242.5 233.7 230 225.3 221.2 218.3 216 212.9 211.3 213 216 222.5 228.5 233.7 242 250.4 255.9 262.1 268.8 274.5 279.7 282.7 285.5 287.1 289.2 291.2 294.4 296.4 297.2 295.6 292.5 287.3 283.2 279.1 275 270.4 266.4 262.8 259.7 256.9 253.4 250.2 249.2 247.2 242 241.5 236.3 231 223.8 217 218.1 221.3 230.7 239.2 247.2 255.4 262.5 269 274.9 281.2 286.2 292.8 299 305.6 310.9 315.3 317.5 319.3 319.1 317.7 315 311.2 305.5 299.1 289.1 279.3 271.3 265.2 256.5 249.4 248.4 247.3 246.8 247 246.9 249 250 251.1 252.8 254 256.8 259.5 260.7 262.5 264.3 265.3 265.2 264.8 264.7 264.7 263.5 262.1 259.8 257.1 254.1 250.7 246.4 242 237.1 233.7 229.6 225.4 221.9 217.5 213.5 209.4 203.8 198 191.2 185.1 171.8 154.5 152.8 181 189.1 192.6 195.7 197.3 198.3 198.4 196.9 194.9 191.3 185.7 182.6
240.5 239.5 238.5 237.3 236.5 233.2 235.5 237.3 239.1 240.1 241.8 243.3 245.5 248.1 249.6 251 252.2 252.5 252.1 251.4 250.5 250.1 250.2 249.7 249.2 249.6 249.7 248.7 247.7 246.7 246.2 245.9 245 246.3 248.3 249.7 251.8 251.9 254.2 255.7 255.2 254.8 251.2 250.1 248 244.4 239 237.7 236.6 235.4 234.3 233.3 234 234.6 236.3 242.5 244.6 245.2 246 248.1 248.1 244 244.3 242.1 239.2 238.3 229.8 225.2 221.2 216.8 215.4 217.1 214.1 215.5 217.7 220.8 228.5 232.9 238.4 246.8 254.6 259.5 266.5 273.7 280 284.1 287.3 290 293 296.6 299.8 303.9 306.9 307.8 305 300.2 295.2 291 287.1 282.2 276.7 271.9 268.3 265.1 262.2 259.6 257 254.9 253.1 251.5 246.4 241.3 234.9 223 220 222 224.4 233.8 240.1 247.2 255.9 264.2 270.2 276.9 283.1 288.4 293.6 299.9 305.5 310.6 314 315.7 316.6 315.2 314.3 312.4 309.6 307.3 301.9 293.2 282.6 275.7 267.6 262.6 258.7 256.6 255.8 254.6 254.7 255.2 257.2 259.3 258.4 259.6 261.3 263 264.9 266.8 267.6 269 269.4 268.1 267.6 267.4 266.6 265.3 263 260.5 257.5 254.3 250.1 245.8 241.4 237.1 233 228.8 224.8 221.4 217.9 214.3 210.5 204.9 200 193.3 184.6 164.4 156.5 169.9 185.9 191.6 194 195.6 196.1 195.7 195.4 194.2 190.9 187.1 185.6 185
239.5 238.8 237.9 236.4 235.4 233.8 235.6 238.6 239.7 241.7 242.6 244.5 246.9 249.2 251.4 252.6 253.6 253.9 253.1 252.2 251.4 250.6 249.6 248.7 248 248.6 248.1 247.1 246.1 245.2 244.6 243.9 243.5 243.4 244.3 246.6 247.8 248.1 250.6 253.6 253.5 253 250.2 245.9 243.4 239.4 237.3 236.1 235.1 233.8 233.6 232.9 232.9 233.5 233.9 234.8 240.6 242.2 241.8 240.5 241.4 240.1 238.1 235.8 232 230.7 229.9 222.9 217.7 218.8 219.3 219.8 219.1 220.5 223 225.4 232.3 237.4 242.9 251.9 258.1 265.1 270.9 278.6 284.8 289.1 292.9 296.5 300.7 305.7 309.8 314.3 316.7 317.4 313.9 308.2 303.2 298.6 293.9 288.7 283 277.5 273.9 271.4 269.1 266.6 263.4 260.5 256.4 255.4 251.2 247.7 238.7 230.5 222.7 225.8 232.5 239 245.3 252.5 260 265.8 270.4 277.1 283.8 288.6 293.4 299.8 305.2 309.7 312.9 314.1 314.3 313.3 311.9 310.5 307.7 305 301.6 295.7 285.5 280.2 276.1 270.7 266.5 265.3 264.6 263.1 263.1 263.4 265.1 265.4 265.3 266.5 267.6 268.8 269.7 271.1 272.1 273.4 272.6 272.6 271.2 269.6 268.2 266.2 263.3 260.1 257.1 253.3 249.1 245 240.6 236 231.7 227.7 224 220.5 217.4 214.5 210.4 204.7 201.6 195 181.6 157.1 170.3 185.2 191 194.1 195 195.6 195.3 193.5 192.8 191.6 189 187.4 188.1 186.2
238.7 238.3 237.1 235.5 233.3 235.4 238 239.3 240.5 241.7 244.5 246.3 248.7 251 252.9 254.1 255 255.1 254.2 253.2 251.7 250.5 249.3 247.9 246.8 247.3 246.7 245.7 245.6 244.5 243 241.9 241.5 240.9 241.2 243.1 243.7 244.5 246.6 248.4 249.3 248.4 243.8 239.5 238 236.1 235.3 234.2 233.6 233.3 234.1 233.1 233.1 233.1 231.7 232.3 232.9 235.1 234.8 233.8 232.4 232.2 232.1 231.4 228.3 225.4 225.2 221.6 219.4 224.2 224.4 223.8 222.8 226.7 228.5 229.9 235.3 241.2 248.4 255.8 261.5 269.1 275.8 282.6 290.1 294.6 298.7 303.2 308.3 313.9 319.2 323.6 326.4 325.3 320.7 315.4 310.2 305.6 301.4 296.2 290 284.1 279.1 276.9 274.6 270.9 268 264 259.7 257.4 254.6 248.7 244.3 233.6 225.5 229.6 233.9 238.8 245.9 253.6 260.4 266.1 270 275.7 282.9 287.9 292.6 300.1 304.8 308.5 312 314 314.3 312.7 311 309.7 306.6 303.4 300.5 296.8 291.8 285.7 282.8 278.5 274.9 274.3 272.9 271.2 272 271.2 270.9 272.4 272.5 274.8 276 274.7 275.2 276.4 277.5 277.2 275.9 274.5 272.7 271 268.6 266.3 262.8 259.7 255.8 251.9 247.9 243.8 239.7 235.1 230.9 227.5 223.8 219.9 215.8 211.7 207.8 202.7 198.4 190.1 170.5 171.6 187.3 191.8 194.2 196.3 196.2 195.6 194.9 194 192.9 191.6 190.9 189.3 189.4 188.2
238.1 237.7 236.2 233.3 234.9 237.1 238.7 239.9 241.1 243.3 245.4 248.4 250.5 252.7 254.1 255.5 256.2 256.3 255.5 254.7 253.4 251.2 249.3 247.6 245.8 245.4 245.3 245.3 245.2 244 242.6 241.1 239.9 239.4 239 239.5 240 239.9 240.5 242 243.5 243 240.3 238 237.3 236.6 239.5 242.5 244.3 241.5 239.6 243 237.9 234.9 234 234.3 232.4 231.4 231.1 232 228.4 226.1 225.1 225.6 224.4 221.6 219.9 221 227.5 230.3 229.5 229.4 228.4 231.8 232.6 233.1 237.1 245.5 251.8 257.9 264.2 272.9 280 286.9 294 299.8 304.6 308.8 315 320.7 326.2 330.3 332.8 330.7 326.8 322.6 317.2 311.9 307.2 302.4 296.2 291.1 285.3 281.8 279.5 275.6 272.3 268.4 263.2 259.5 255.4 252.5 249 240 229.1 233.2 238.1 244.2 246 251.5 257.6 264.9 269 273.4 280.7 287.3 291.8 299.4 304.5 308.2 312.6 314.4 314.1 313.7 312.6 310.9 307.6 306.3 304.1 301 297.8 293.2 289.3 285.5 283.2 282.7 280.6 281.4 281.6 281.2 282.8 285.3 286 285.9 284.7 282.1 283.1 282.9 282.9 281.5 279.2 276.9 275.2 272.1 268.7 265.7 262.1 258.3 254.1 250.3 246.4 242.5 238.5 234.5 230.4 226.1 222 217.6 213.2 208.3 203.5 197.9 188.5 173.7 171.5 189.8 194 195.6 197.1 198.2 198.2 197.7 196.4 195.1 194.1 192.9 192 191.7 191.8 193.9
237.8 236 234.8 233.4 235.7 237.3 239.2 240.4 242.4 244.4 246.3 249.3 252.3 254 255.7 256.7 257.4 257.5 256.9 256 254.9 252.3 250 248.1 247.2 245.6 244.8 244.3 244.1 243.3 242.5 241.3 239 237.6 237.3 237.8 238.3 237.8 238.2 238.4 239 240 240.6 239.5 238.3 240.4 244.8 246.8 246.9 249.3 249.9 249.2 248.1 244.8 245.1 245.4 241.4 235.6 234.4 235.5 233.9 232 230.2 224.7 223.8 224.2 227.4 231.3 236.8 239.2 238 236 233.2 236.4 236.4 238.5 243.7 249.8 254.5 258.5 268.2 276.9 283.5 290.9 297.6 303.7 308.5 313.3 319.4 324.8 330.4 333.7 336.1 334.3 332 327.4 322.1 316.9 311.4 306 302.2 297.5 292.8 288.1 284.4 281.4 278.5 273.2 266.8 262.3 257.9 254 250.9 239.7 234.8 237.9 243 251.1 250.5 257.9 261.6 265 268.7 274 278.6 283.6 290.4 298 304.2 308.2 312.1 315.2 315.9 315.8 316.5 316.8 315.6 313.1 310.7 308 304.5 301.6 297.7 295.7 293.6 293 293.3 292.2 292.8 292.7 295.9 295.7 294.6 292.8 291.9 290.2 289.7 288.7 287 284.6 281.6 279.4 276.5 272.6 269.2 265.4 261.2 257.6 252.6 248.4 244.5 240.5 236.5 232.2 228.4 224.3 220.2 215.7 211.6 206.3 198.6 184 167.6 174.7 192.9 197.8 199.9 200.6 200.8 200.5 200.5 199.5 198 196.9 196.4 195.4 195.8 198.3 198.9 199.2
236.6 236 235.8 232.9 236.4 238.7 239.8 241.7 243.9 246 247.9 250.5 253.3 255.5 257.2 258 258.6 258.7 258.1 257.2 256.1 254 251.5 248.7 247.1 245.5 243.7 242.4 242.1 242.4 241.8 240.9 238.8 237 236.4 236.1 236.3 236.6 237.1 237.4 238.2 239.3 240.8 241.1 245.4 246.4 250.5 253.7 253 253.6 253 253.4 253.1 254.1 253.1 252.7 248.9 247.3 247.4 244.8 242.3 238.8 236.8 236.5 235.3 239.1 242.6 244.1 246 246.2 244.7 241.7 239.9 241.6 243 247.1 250.4 253.9 257.1 260.4 270.8 280.7 287.2 294.8 301 307 311.7 316.3 322.4 328.8 334 337.5 338.5 336.8 335.3 330.8 325.4 319.8 315.2 310.7 306 302.4 298.5 294.1 290.5 286.1 280.5 275.1 271.2 266.3 259.3 255.5 247.6 240.4 239.6 242.4 251.1 255.4 259.2 262.1 262.3 265.6 271.5 280.1 285.7 290.2 294.2 294.6 300.9 306.8 313.8 317.6 318.7 318.5 321.4 323.2 323.5 322.3 319.8 315.7 313.3 311.8 308.9 306 304.3 304.9 305.2 306.9 307.3 309.1 311.2 308.2 303.8 300.8 298.4 296.5 294.4 293 290.8 288.3 284.5 281 277 273.1 269.7 265.8 261.1 256.5 251.7 247.4 243 238.7 234.2 229.9 225.8 222 217.6 213.9 208.6 198.8 185.6 171.3 190.8 198.2 202.3 203.4 204 205 204 203.4 202.8 201.2 200 198.9 199.3 199.8 199.9 202.2 203 205.3
235.5 234.9 234.8 234.6 237.2 238.5 240.9 244.5 245.8 247.9 250.1 252.4 254.8 257.4 259 259.7 260.3 260.3 259.6 258.8 257.7 255.8 253.2 250.3 246.9 245.3 243.7 242.3 240.1 240.6 240.6 240.1 238.6 237.1 236.8 236 235.1 235.5 235.9 236.6 238.8 240.5 242.5 246.8 251.5 255.8 259.8 262.1 262.6 261.8 261.3 261.9 262.8 262.8 262 261.6 258.7 258.3 257.6 257.9 257 255 252.6 251.5 251.6 252.4 253.7 255 254.3 252.7 249.1 246.4 245.6 246.4 249.3 253.3 255.9 257 259.7 262.7 273.7 283.5 291 298.2 303.7 308.6 312.9 318 323.2 330.6 337 340.3 341.2 339.4 336.2 332.4 328 322.4 318.8 313.9 309 305.7 302.3 298.7 296.1 290.9 284 281 277.5 270.5 261.4 251.7 245.1 242.8 248 253.2 255.6 262.3 265.5 267.7 268.6 271.2 278.6 287.1 292.3 296.1 300.8 301.3 302.5 306.6 313.9 318.2 320.3 322.8 325.1 328 329.4 329 327 327.5 325.2 323.1 321.5 320.6 317.7 320.1 321.6 326.4 330.4 328.5 324.6 320.8 314.3 310.6 305.7 302.8 300.7 299 296.2 293.5 289.7 283.2 278.6 274.4 270.6 266.7 261.6 256.3 251.5 247 242.7 238 233.5 228.5 224.7 219.5 214.3 208.9 200.6 182.3 190.3 196.3 202.7 206.3 209.2 210.2 210.9 209.9 208.5 207.8 206.7 204.1 203.4 202.9 202.8 202.1 204.4 205.9 206.7 208.8
234.3 233.8 233.2 235.2 237.2 238.6 242 244.8 247.7 249.8 252 254.3 255.9 259 261 261.7 262.3 262 261.1 260.3 259.3 257.4 255.1 251.8 248 245.6 244.2 242.9 240 238 239.5 238.9 238.2 237.2 236.8 236.3 235.5 234.8 235 237.8 240.5 242.5 245.6 251 256.5 259.4 263.6 266.2 268.5 270.1 269.1 269.1 269.9 270.5 268.8 266.3 267.1 269.9 269.6 268.6 267.7 266.6 265.2 263.5 263.2 263.1 263.8 263.9 263 259.3 254.3 251.5 249.8 249.6 253 256.9 258.1 261.4 264.1 266.2 275.5 284.8 292.4 299.9 304.9 309.3 313.5 318.9 326.8 334 339.6 344.8 343 339.8 336.6 333.6 329.2 323.6 318.9 316 312.4 307.9 304.6 303.6 299.6 294 288.6 285.2 281.8 272.3 264.4 253.7 246 250.9 254.3 261.5 261.9 266.7 270.8 273.9 276.3 281.5 286 291 295.5 301.3 304.8 305.5 306.1 310 316.2 320.3 323.5 327.1 328.9 334.3 335.9 337.4 339.8 342 342.1 340.3 338.6 337.2 335.7 337.7 344.8 347 346.2 343.3 339.1 331.8 325.4 319.2 313.7 309.8 307.1 305 302.2 298.7 294.7 287.1 278.4 274.1 270.6 266.6 262 256.6 251.5 246.8 242.3 236.6 231.9 227.6 223.2 218 211.2 201.2 188.5 186.2 203.3 207.8 211.6 214.4 216.2 216.7 216 215.1 213.2 212.3 210.8 208.5 207.2 208 206 205.2 208.7 209.3 210.4 211.9
233.2 233.4 232.9 233 236.3 239.4 242.4 245.7 248.6 251 253 254.9 256.8 259.1 261.4 263.8 264.3 263.6 262.6 261.8 260.4 258.6 256.4 253.2 249.9 247 244.7 243.7 241.8 238.8 237.8 236.5 235.5 236.1 236.2 236 235.5 235 237.5 241.3 243 245 253.4 257.3 260.8 264 267 269.4 271.4 273.2 274.8 275.6 276.5 277.8 277.8 276.9 277.7 278.1 278.6 277.7 277.2 275.8 273.3 272.2 270.9 270.3 269.2 267.7 266.1 264.2 259.9 254.8 253.3 253.6 256.2 259.2 262.4 264.5 267 269 275.6 283.2 289.6 297.8 304.3 309.9 314 317.6 323.4 330.3 338.6 342.7 342.6 339.8 337 333.9 330.2 325 319.1 316.7 313.7 310.2 306.7 303 298.3 293.4 290.8 291 286.9 277.9 267 256.8 255.8 259 264.1 265.5 269.5 272.4 275.9 277.5 279.9 283.9 291.5 297.5 302.6 307.7 310.2 312.7 315.1 315.6 319 324.5 329.7 332 335 337.5 342.5 346.8 350.6 354.7 357.9 359 359.9 360.4 357.9 361.7 364.3 364 362.4 357.5 349.8 342.6 334.1 327 321.5 317.4 313.9 310.9 307 303.2 298.8 290.6 281.3 273.8 269.3 265.9 262 256.8 252.4 246.1 239.3 232.6 227.8 223.7 218.9 214 209 197.3 189.7 202.7 211.7 215.6 218.5 219.9 221 221.5 221 220.1 218.3 216.5 215.1 213 213.5 210.6 212.3 212.6 211 213.9 216 216.4
230.8 230.4 231 235.7 236.8 240.1 243.1 246.1 248.6 251 253.4 255.3 257.5 259.7 261.8 263.8 265.3 264.9 263.9 262.7 261.1 259 256.8 254.1 251.3 248.6 246.3 244.8 242.3 239.6 238.3 238.6 238.3 236.3 235.4 235.5 235.2 237.3 240.3 247.9 250.5 252.7 255.4 258.6 262.8 267.3 270.1 271.9 273.4 275.5 277.1 278.7 279.5 280.1 280.8 282.6 282.8 283.3 284.1 284.5 283.7 284.6 281.5 278.3 277.8 275.5 272.5 268.6 266.8 264.3 259.4 258.1 257.4 257.6 257.3 260.9 262.8 264.8 267.7 271.9 275.9 282.3 288.3 294.2 301.6 308 313.2 314.3 319.3 325.1 335.4 339.1 343.2 341 337.2 333.6 330.2 325.8 321.2 319 316.3 311.8 307.5 302.8 295.3 292.3 287.8 283.5 279.1 269.1 263.4 258.4 263.9 267.9 272.7 276.1 280.1 281.9 283.1 284.4 288.6 295.1 303 309.3 310.7 315.6 320 322.5 324.2 324.1 324.7 330.7 336.5 338.1 339.9 343.2 349.3 355 361.6 366.8 371.1 375.4 378.3 379.9 379.3 379.5 379.8 378.2 374.4 368.8 359.9 350.7 340.9 333.4 328.1 323.5 320 316.5 312.1 307.2 302.2 293.2 284.7 277 269.3 266.8 263.3 259.4 253.9 247.9 241.6 236.2 231.1 226.2 221.4 214.7 198.7 189.1 203.6 213.5 218.5 222.6 224.5 225.9 227.8 227.3 226.1 225.2 223.2 221 221.1 220.7 217.4 213.7 219.1 216.1 215.8 219.4 220.1 221.3
231 232.1 233.9 236.4 238.5 240.7 243.7 246.8 249.2 251.4 253.7 255.8 257.8 259.7 261.7 263.7 265.7 265.4 264.5 263.1 261.6 259.3 256.9 254.1 251.2 247.9 244.9 243.1 241.8 240.5 239.3 239 238.6 237.9 235.4 235.3 235.8 238.6 245.8 250.7 254 256.5 259.2 261.2 263.7 268 271.6 272.9 274.6 276.3 278.3 279.4 280.4 281.3 283.3 285.4 285 286.9 288.4 288.3 288.8 288.2 286.2 283.2 281.6 279.1 276.2 272.3 267.8 265.2 263.4 260 261.4 259.9 257.7 261.7 264.2 267.2 270.1 273.9 277.6 282.8 287.7 292.4 297.6 304.1 310 311 312.7 318.6 327.7 332.1 336.5 337.8 335.1 332.7 329.1 326.3 323.2 319.9 317.4 315.2 312.1 308 300.4 292.6 286.1 283.9 275.4 265.7 260.4 263.8 275.7 280.8 281.2 285.7 287.5 292.4 292.8 297 300.7 307.3 314.5 320 320.9 326.6 330.1 333 332.2 332.3 332.7 335.6 339.7 343.1 346.5 350.2 356.7 362.3 370.4 377.2 383.3 388.7 392.5 394.8 395.3 395 393.2 389.6 384.6 376.9 367.8 357.5 347.5 339.8 333.4 328.4 324.3 320.2 314.8 309.5 303.5 296.1 288.5 282 276 271.9 267.4 262.4 257.1 250.4 245.7 238.8 232.8 227.9 221.7 213.2 200 200.3 212.3 219.8 225.2 229.4 231.5 232.8 234.3 234 232 230.2 228.5 225.8 225.7 225 223.7 218.8 224.8 218.4 224 225.6 226.1 229.6
231.3 231.5 232.9 235 236.6 241 243.9 245.9 249.1 252.1 253.5 255.3 257.4 259.5 261.6 263.6 265.6 265.8 264.9 263.6 261.8 259.1 257 254.3 251.2 248.6 244.1 243 242.3 241 239.4 238.6 237.4 236.7 235.6 234.7 238.4 241.1 245.3 251.2 254.9 258.2 259.9 261.8 263.8 267.6 272.2 274.4 276.2 277.1 278.9 280.1 280.8 281.4 282 287.1 287.9 287.7 288 288.4 288.5 287.9 287.3 286 284.8 282.8 280.6 277 270.6 267.1 266.9 264.2 265 265.2 263.2 264.2 267.3 269.8 271.8 275.3 277.9 281.5 286.1 289.7 294.5 299.5 304.8 306.1 308.9 312 317.9 324.8 328.7 332.7 333.5 330.7 328.3 326.6 324.3 321 318.3 316.3 312.7 309.8 305.3 292.7 286.2 278.4 272.6 263.2 267.9 277.1 282.6 288.6 293.8 297.7 298.3 303.4 306.8 308 311.1 315.8 323.2 329.5 333.3 335.9 338.3 341.4 341.8 339.1 336.7 342.2 345.4 349.1 353.7 356.8 362 367.1 376.5 383.8 390.9 396.8 402.1 405.4 405.7 405.5 403.5 398.9 392.9 384.7 375.5 365.2 354.7 346.4 338.8 332.8 327.9 322.2 316.7 310.9 305 297.9 291.5 285.3 280.7 275.9 270.4 264.9 259.1 254.4 247.9 241 233.4 227.4 219.8 211 193.5 207.9 219.3 225.2 230.3 236 238.8 239.9 241.2 240.7 239.9 238.4 235.6 231.3 233.3 231.6 223.8 229.8 231.4 223.7 233 233.4 236.4 245.8
229.9 230.6 233.5 235.2 237.5 240.9 242.8 244.9 247.8 250.1 252.9 254.7 257 259.1 261.2 263.3 265.1 265.5 265.4 263.2 261.7 259.6 257 253.6 250.6 247.8 244.3 242.6 241.9 241 239.4 238.1 236.6 235.8 235.3 236.3 239.5 242.7 247.4 251.9 255.3 259.2 260.6 262.3 264.1 267.4 271.4 275 277.2 278 279.2 280.1 280.9 282 283.2 285.2 287.4 287.5 287.6 288 287.7 287.1 286.4 286.1 285.5 284.9 281.8 277.4 272.4 269.1 269 268.3 268.5 266.7 264.7 265.3 267.7 270.7 273.3 276.2 277.8 280.5 284.7 288.2 291.8 295.5 298.8 302.2 306.1 309.9 312 317.7 322.3 326.4 329.4 327.9 326 324.2 324 322.4 317.7 315.2 312.4 309 304.9 295.5 289.1 278.9 270.1 266.8 280 288.5 294.2 302 307.2 312 314.3 316.3 319.1 319 321.5 325.2 332.9 338.4 342.6 346.1 347.8 348.8 348.6 346.2 346.1 348.1 351.1 353.5 358 361.9 366.8 373.5 381.8 390.3 397.3 403 408.3 412.1 413.4 413.1 410.9 406.7 399.8 392 382.8 373.3 363.4 353.4 346.1 339.4 332.2 324.2 317.7 311.3 305.3 299.6 293.7 287.8 282.7 278.2 272.9 266.8 261.6 255.7 248.4 241.9 234.6 226.9 219 204.5 202.9 215.5 225.4 230.5 236.8 241.7 245.9 248.1 250.3 250.9 250.3 247.6 242.8 238.8 242.4 242.6 237.7 241.9 232.5 238.8 241.5 247.6 257 266.9
229.6 231.7 234.1 235.5 237.2 240.2 242.8 245.7 248.5 250.3 252.1 254 256.4 258.7 260.8 262.8 263.8 264.6 263.9 262.5 261 259.4 255.5 252.1 249 246.7 244 242.2 240.7 239.1 237.6 236.4 235.6 234.4 235 238.5 241.3 245.7 250.2 254.3 257.6 261.2 262.2 263.1 264.7 266.8 270.6 273.8 276.8 277.9 278.2 279.2 280.1 281.1 282.3 282.9 286.9 287.6 287.3 287.3 286.2 285.9 285.3 285.4 285.7 285.5 283.2 278.2 275.1 273.2 271.3 271.1 270 267.8 266.4 266.4 268.8 271.4 274.7 276.5 277.9 280.4 282.9 285.7 289.7 293.4 296.6 298.7 304.3 307.9 309.2 311.6 318.3 321.7 322.5 321.5 321.4 320.3 321.3 320.6 316.9 313.4 310.4 306 303.5 300.6 295.5 281.4 272.2 276.8 292.3 297.8 303.5 311.6 316.4 321.3 324.3 327.2 329.7 332.1 333.6 336 341 346 350.7 354.2 355.3 354.5 354.2 352.8 351.4 352.9 355.6 358.3 362.2 365.7 373.5 378.6 386.1 394.8 401.8 407 411.4 416.6 418.8 418.7 417.4 414.2 406.2 397.5 389.2 379.9 371.5 363 354 346.7 338.4 329.3 319.3 311.7 305.5 299.7 294 288.4 283.3 278.3 273 266.4 261.3 255.4 247.7 241.1 233 225.1 213.9 199 208.8 221.2 228.8 236.4 244 249.8 254.1 258.2 260 260.6 258.8 256.6 252.8 251.2 251.8 253.1 254 254 250.4 255.3 258.7 265.8 274.2 286.5
230.6 232.7 234.6 235.5 237.8 240.7 243.4 246.5 249.2 251 252.7 254.5 256.3 258.1 260.1 261.8 262.4 263.1 262.5 261.4 259.1 258.1 254.5 251.7 249.1 247.3 245 241 239.4 237.9 236.5 235.5 234.8 234.8 236.8 239.8 243.2 247.4 253 256.3 257.6 259.6 263.3 264.1 265.9 268.5 269.3 271.8 274.3 276.6 277.4 278.4 280.5 280 280.8 281.8 282.5 284 285.5 285.2 283.9 282.6 283.2 283.5 284 283.6 282.1 277.8 275.4 274.8 274 273.4 271.3 267.8 267.7 269.3 272.6 273.4 276.2 276.5 278 279.9 281.1 283.7 287.3 291.1 293.7 296.5 301 303.8 305.8 308.3 312 314 315.1 315.8 316.1 316.5 317.5 316.5 314.6 311.9 308.7 305 302.6 299.2 293.1 280.6 274.1 285.1 300.2 304.5 310.1 316.8 325.5 327.8 330.5 334 338.8 341.8 343.5 345.3 347.3 350.7 356.5 359.3 359.8 358.8 357.9 357.5 356.6 357.6 358.9 361.7 365.4 371.4 377.6 382.8 389.5 398.1 404.6 409.4 414.2 418.1 420.7 421.9 422.3 419 413.5 405.6 397.1 387.5 378.2 368.4 360 352.2 344.2 334.9 324.5 314.8 305.7 299.2 293.1 287.4 281.7 276.6 270.6 264.2 259 253 246.1 237.5 230.1 221.9 211.6 201.8 215.8 226 234.2 242.6 250.1 255.6 261 266.4 269.9 271.7 269.9 266.8 265.3 262.3 262.9 263.5 266.8 267.1 270.8 273.9 278.5 286.2 294.3 305.1
230.7 232.7 234.7 236 239.9 241.3 244.1 247.1 249.1 251.1 253.3 255 256.4 257.8 258.6 259.8 261.2 260.9 261.3 259.8 259 257.4 253.8 251.1 249 247.7 243.2 240.4 238.4 236.9 235.6 234.7 233.6 232.8 235 239.4 243.8 247.4 252.3 255.7 257.6 259.7 264.2 265.3 267.7 268.8 269.9 270.7 273 274.6 276 277.1 278.1 278.6 280 281 280.7 280.8 282.4 282.9 281.6 280.2 279.2 278.6 279.9 279.4 276.5 275 273.5 274 273.8 272.7 269.3 267.7 267.7 268.8 272.4 272.8 274.4 276.3 277.6 278.5 280.6 282.8 286 290.2 293.2 295.8 299.1 301.4 303.2 304.7 305.7 307.9 309.5 310.7 311.6 311.9 313.4 312.4 311.4 310.7 308.5 303.2 300.9 300 294.9 282 278.3 292.5 304 309.3 315.1 322.8 329.6 333.7 336 339.8 345.9 349.8 351.1 352 353.7 356.1 359.1 361.7 363.5 362.5 361.9 362.2 360.8 362.8 363.9 365.2 370.1 375.3 380.9 386.2 392.8 401.1 406.1 411.4 415.8 418.3 420.8 420.9 421 420.3 417.1 411.2 402.9 394.9 385.2 374.7 364.1 355.4 347.1 339 330.4 319.3 308.1 299.5 292.7 286.2 279.8 273.8 267.1 260.9 252.3 247.9 244.1 236.7 228 222 205.8 212.2 220.6 230.9 240.2 248.8 255.4 261.4 267 273.7 278.8 279.8 279.7 278 276.4 275 273.7 276 278.5 283.6 288.9 293.5 298.3 303.9 312.2 325.8
230.2 232.2 234.1 237.4 239.8 241.3 244.1 246.8 248.4 250.4 252.7 254.6 256 257.4 258.4 259 258.8 259 259.2 258.8 257.7 256.2 253.1 250 248.6 247.7 242.7 239.9 237.5 235.9 234.9 233.5 232.7 231.7 235.3 238.6 244.6 249.9 253 254.5 258.1 260.5 263.6 265.6 267.3 267.9 269 270.4 271.1 272.7 274.1 274.8 275 275.4 276.3 276.3 277.8 278.3 278.6 279.1 279.3 280 277.1 274.1 274.5 272.6 273.3 272 271 270.7 270.2 268.6 266.5 265.4 265.2 265.1 268 271.4 273.3 275.1 276.6 277.7 280.2 283.1 286.1 289.5 292.5 295.3 297.5 299.9 301.8 303.9 304.2 303.9 305 305.8 306.8 308.2 309.2 308.7 308.8 306.4 305.3 299.6 297.1 297.4 292.8 286.4 287 295.1 307.3 313.1 317.5 325.9 333.2 337.8 341.3 345.5 351 354.5 356.2 357.1 358.5 361.5 364.1 365.9 366.4 366.1 365.1 365.5 364.7 366.7 366.5 369.3 374 379 384 390.9 398.1 404.1 407.7 413 415.9 417.1 418 418.9 418.7 416.7 415.4 412.2 406.4 399.2 390.7 378.8 366.8 358.8 350.1 341.8 333.8 321.8 312.7 302 293.1 286.8 280.5 273.8 266.8 261.4 255.2 248.2 240 230.9 225.9 215.9 209.3 218.1 226.6 235.6 245.3 253.9 260.5 266.4 273.2 280.6 286.1 288.9 290.4 290.3 289.2 288.8 288.6 290.9 295.5 300.5 306.5 310.9 316 321.7 333.4 348.5
229.6 231.7 233.6 237.5 239.4 241 243.6 246.7 249.1 250.8 252.6 254.3 255.7 257.1 258.2 258.5 257.7 257.1 257.3 256.7 254.8 252.9 250.8 249.6 248.5 245.5 242.3 239.4 237 235 234.1 233.2 232.3 230.5 235.4 239.8 243.7 248.7 253.3 256.1 258 260.7 262.9 265.2 266.5 267.1 269.4 269.7 270 270.7 272 272.5 272.4 271.2 270 270.5 272.9 273 273.5 274.1 275.8 275.1 272.6 271.3 268 265.7 267.4 269.6 267.6 265.6 265.5 265.7 264.9 262.9 262.4 263.2 267.9 270.2 271.8 273.1 274.5 276 278.4 281.8 284.9 287.8 290.5 293.3 296 298.1 300.2 302.7 302.4 302.6 302.9 303.3 304.2 305 304.9 304.6 305 304.2 297.5 295.5 294.5 292.5 289.2 290.1 292.5 303.9 308.4 313.6 320.2 327.8 335.5 340.9 345.7 350.2 354.6 358.4 360.2 361.5 362.9 365.4 368.1 369.6 369.4 369.4 369.2 368.9 369.6 370 370.9 373.8 377.9 382.8 389.1 395.4 401 405.9 409.4 414.1 415.5 415.7 415.3 414.6 413.3 411.7 410.2 408 404.1 399.6 391.9 381.6 370.6 362.9 355 346.6 337.5 326.7 316.6 306.2 297.6 288 281.2 273.7 267.8 261.4 254.5 247.1 239.3 234.4 226.8 218.8 212 223.2 230.7 239.9 249.1 257.7 264.6 271.2 279.9 288.2 294.8 300 303 306.2 308.3 308.6 308.9 307.7 311.4 319.1 325.1 329.1 335.4 344.6 356.7 368.8
227.5 230.4 233.4 236.7 239.1 240.4 241 244.1 248 251.2 252.8 253.7 255.2 256.7 258.1 257.4 256.7 255.9 255.3 255 253.3 250.8 249.2 247.7 246 243 239.1 237.6 236.4 234.3 232.3 231.1 229.1 232.5 236.2 239.6 243.8 247.2 252.3 256.2 257.9 260 262.3 264.4 265.7 266.3 266.7 268.5 268.9 269.1 268.9 270 269.3 267.8 266.5 266.1 266.3 267.2 269.4 270.7 271.9 270.5 268.5 266 263.7 262.5 261.9 262.8 261.5 260.6 260.8 262.5 261.3 258.1 257.6 261.3 264.9 268.1 269.7 270.4 271.8 273.6 275.9 278.7 281.8 284.7 287.6 290.5 293.3 295 297.9 299.9 301.1 301.7 302 302.4 302.8 302.2 301.6 301.7 302.1 299.6 295.5 295.1 294.2 293.4 298 298.5 302.1 305.9 311.1 315.5 323 330.1 337.5 343.6 349.2 353.8 358.3 362 364.2 365.3 366.1 368.9 370.5 371.7 372.2 372 372.7 372.4 372.2 373.3 374.1 376.8 381.2 385.9 393.7 399.8 403.3 407.3 411.2 415 415.9 414.9 411.9 410 406.9 404.9 402.4 400 398 394.8 389.3 381.4 372.8 365 356.9 348.6 339.7 330 320.6 310 301.3 292.9 284 274.5 268.4 260.8 253.4 245.6 238.4 231 225 216.3 220.8 227.6 234.6 243.3 252.7 262 267.8 277 286.9 295.7 304.1 312.6 322 328.9 332.3 331.8 328 326.1 328 337.4 342.8 347.4 356.2 366.4 379.8 393.3
227.1 228.6 230.8 234.6 238.2 238.8 238.9 242.4 246.7 250.4 251.7 252.5 254 256.2 257 256.9 256.2 255.4 253.5 252 251 248 245.5 244.9 243.8 240 237.3 235.9 234.4 232.5 231.6 229.6 227.3 232.1 235.9 239.9 243.9 246.8 252.3 255.8 259.2 259.5 261.6 263.9 264.5 265.2 265.9 266.4 267 267.5 267.5 267.7 267.7 266.1 264.9 264.4 264.7 264.9 265.2 266.1 267.3 266.3 264.6 262.2 260.6 259.9 259.2 260.1 259.4 257.8 256.4 257.9 257.7 253.8 255.5 258.8 261.5 264.6 266.9 268.3 269.3 271 273.8 275.5 278.1 280.7 283.5 286.6 289.5 292.4 294.7 297.3 299.7 300.8 301.1 301.6 301.7 300.6 298.8 298.3 297.7 296.4 294.5 294.5 294.7 297.9 302.4 303.4 306.2 310.3 314.5 318.2 324.7 331.2 337.6 344 350.5 355.7 360 363.5 366.8 368.1 369.6 371.1 372.4 373.6 374.1 374.6 374.9 374.8 374.5 374.9 376 379.2 383.3 390.1 397.5 402.5 406.3 409.3 411.7 415.4 415.3 412 408.8 404.9 399.5 396.1 393 389.7 389 387 383 376.9 370.1 362.9 356 348.5 340.3 331.7 322.5 313.8 304.4 294.8 287.3 277.3 268.3 260.7 251.7 242.9 237.3 230.4 221.8 218.3 226.9 228.1 239 247.5 256.4 265.1 273 283.2 294.3 305.6 316.9 327.2 337.9 346.9 351.5 350.5 346.9 347 352.1 356.4 361.1 368 377.6 391.2 405 417.2
224.4 227.1 229 231.9 235.7 237.3 238.7 241.1 245.1 249.1 250.6 251.2 253.6 255.8 255.7 255.6 255.6 254.3 252.2 250.2 249.3 247.7 243.5 240.8 238.8 237.4 235.7 233.3 230.8 229.9 229.3 228.4 227.4 231.1 235 239.4 243 247 251 253.8 256.5 258.6 261.5 264 264.8 265.8 266.3 266.2 266.8 267.1 267.1 267.2 267 265.5 264.5 264.3 264 264 264.2 264.3 264.8 263.9 262.2 260.3 258.6 257.9 257.2 257.5 257.3 256 254.9 254 254.4 252.7 253.5 255.5 256.9 260.1 263.9 265.5 267.4 268.7 270.9 273.3 274.8 277.4 281 284.6 287.8 291 293.5 295.4 297.5 299.9 300.4 301 301.2 299.1 297.2 297 296.3 295 293.5 293.4 293.9 300.4 305 305.3 307.5 311.3 315.7 320.5 325.1 329.6 335.3 343.4 350.5 356.8 360.8 364.7 367.9 370.2 371.6 372.8 373.9 375 375.5 376.7 377 376.8 376.5 375.5 377.9 381.2 386 393.7 400.1 404.2 408 411.2 413.5 415.3 414.5 410.3 405.6 400.3 391.1 385.5 381.4 377.4 376.4 375 372.4 368 362.7 356.9 350.8 345.1 338.2 330.8 323 315.2 306.4 298.2 288.8 280.8 268.5 261.7 251.2 242.7 237.1 235.2 222.8 228.2 233.2 238.8 242.2 249.5 260.1 268.4 278.5 290.9 303.6 316.6 329.8 344.9 357.9 365 366.7 367.6 367.9 369.3 369.3 373.1 377.7 388.5 402.5 416.2 425.4 438
225.4 227.1 228.6 231.1 233.4 236.1 237.2 240.5 243.8 247.5 249.4 250.6 251.7 254.4 254.3 254.2 254.5 253.9 251 248.5 246.6 246.3 242.8 240.1 238 235 233.8 230.5 228.5 228.5 227.2 225.1 228.2 232.1 236 240.3 244.3 247.1 249.6 252 254.4 257.3 259.1 262 264.6 265.1 265.4 265.9 266.4 266.9 267 267.1 267 265.3 264.5 264.2 263.8 263.3 263.2 263.5 263.8 262.6 261.2 259.4 258 256.9 255.8 254.1 255.2 254.5 253.6 253.3 253.3 252 251.2 253.2 254.9 257.5 260.9 263.5 266.7 267.3 268.2 270.8 272.1 274.8 278.4 282.3 286 289.3 292.1 294.3 296.4 298.9 299.3 299.3 299.8 296.2 295.8 295.7 294.6 293.3 292.6 292.6 293 294.9 300.7 303.5 306 310.1 314.9 320.7 324.4 327.9 332.6 341.3 348.7 355.4 360.8 365 369 371.2 372.6 374 375.2 376.2 377.2 378.3 379 378.8 378.5 378.1 379.7 382.9 389.5 396.1 401.5 405.9 409.6 412.4 413.9 414.8 414.1 408.8 403.4 396.6 386 376.7 368.6 363.8 362.9 360.5 357.5 354.2 350.3 346.5 342.5 337.3 332.6 327.2 320.3 313 305.4 298.8 291 281.1 272.1 260.6 249.3 244.8 238.1 227.7 230.7 233.8 239.8 245.8 246.9 252.7 263.1 273.9 287.3 300.6 314.3 330.9 349.6 363.6 372.2 376.7 379.7 382.2 383.2 383.8 384.8 388.2 396.2 413.6 427.5 437.1 445.6 454.7
224.4 225.7 226.6 230.8 234.4 235.6 237.9 238.9 240.9 245.9 247.7 248.9 250.4 252.9 252.9 253.2 253.6 253.4 250.6 247.7 244.9 243.9 241.9 239.8 236.7 233.5 231.2 228.9 226.5 226.8 224.7 225.5 229.7 232.7 236.2 240.6 243.8 246.7 249.4 250.8 254 255.2 257.3 259.5 262.9 264.4 264.9 265.5 266 266.6 266.8 266.9 266.8 265.6 264.3 264 263.5 262.5 262.5 263.1 263.6 262.1 261.3 259.2 256.7 255.4 255.7 255.9 254.8 252.3 251.3 252.7 252.3 250.6 250.3 251 252.4 254 256.6 259.3 262.4 264.9 266 267.9 269.9 272.2 275.6 279.1 282.8 286.3 287.9 291.3 293.4 296.4 297 296.2 296.4 294.4 294.3 293.8 293.2 292.8 289.9 291.5 293.3 294.7 298.9 300.5 302.9 308.1 313.6 318.4 321.8 324.8 330 338 345.4 352.9 358.9 364.5 368.8 370.6 372.6 374.1 375.7 377.1 378.7 379.7 380.3 380.4 380.1 379.6 381.2 385.6 391.7 397.4 402.7 407 411 412.6 413.9 415 413.4 408.4 401.5 394 382.9 372.4 360.7 354.1 350.2 347 342.7 338.4 336.3 332.9 328.9 326.9 323.5 319.8 314.1 308.3 302.1 296.4 289.6 280.8 271.3 258.6 248.3 235.3 232 233.1 237.1 240.7 246.6 251.4 254.1 255.8 268 281.1 296.8 311.5 330.1 348.1 361.6 371.6 379.8 385.5 389.8 391.7 393.5 394.4 397.4 405.7 419.8 435.3 446.2 455.1 460.7 466.9
224.4 224.8 226.3 228.8 231.7 234.6 236.6 237.3 238.6 242 244.9 247.8 249.6 251.4 252 252.3 252.7 252.9 250.8 248.9 243.6 240.3 238.5 235.8 233.8 231.3 229.4 228.7 225.3 225.2 225.2 227.6 229.7 232.8 237.9 240.5 242.5 243.9 247.3 250.5 252.3 253.5 256.1 257.5 258.9 261.5 264.5 265.1 265.6 266.2 266.5 266.7 266.3 264.2 261.5 261.4 261.3 261.2 262 263.1 263.4 260.7 260.5 260.6 259.9 258.2 257.3 256.6 256 255.1 254.1 250.7 251 249.4 248.9 249 250.4 252.7 254.4 255.4 257.7 260.9 263.9 265.8 267.6 269.7 272.9 276.3 278.4 281.6 284.5 288 290.4 293.4 295.8 295.6 292 291.8 292 290.6 291.2 291.7 290.7 293.4 293.3 294.6 297.4 299.1 302 306.6 311.4 315.7 318.8 321.5 325.9 334 340.7 348.6 355.3 357.9 365.5 368.6 371.3 373.5 374.3 375.7 378.3 379.9 381.4 380.9 380.1 379.8 381.8 385.9 392.9 398.4 403.4 407.8 411.4 414 414.9 414.5 412.8 408.2 401.9 391.2 381.1 369.4 357.8 348.1 340.7 334.4 328.2 317.9 313.6 312.2 312.1 311 310.7 309 306.6 302 297.3 291.8 285.2 275.5 264.8 253.1 241.6 238.4 240.5 241.1 243.4 247.1 253.9 258 260.8 260.6 272.9 287.2 303.1 320.7 340.5 353.8 364.9 375.4 384.2 389.6 393.7 396.8 399 401.1 409.1 423.3 437.1 449.3 459.6 466.5 466.1 466.3
224.5 222.2 226.1 228.4 230.3 233 235 236 237.2 238.9 243.9 246.7 248.5 249.6 250.4 251.3 251.1 250.7 248.4 245.6 241.4 238.7 237.9 235.1 232.6 230.8 228.7 226.8 224.8 224.1 222.6 227.1 230.2 234.5 235.6 239.3 241.6 245 247 250 251.5 252.3 254.4 257 258.9 261.3 262.7 264.6 265.2 265.8 266.2 265.9 265.9 265.4 261.6 261.4 261.4 261.8 260.8 262.2 263.4 263.4 262.2 261.9 261.3 259.6 258.2 257.6 256.8 256.1 255.3 253.8 252 250.7 249 245.2 248.7 250.9 252.1 252.4 253.3 257.3 261.7 263.6 265.4 267.3 269.7 272.9 276.2 278.5 281 285.5 287 289.1 292.9 293.7 291.2 289.9 289.5 287.5 287.7 288.9 290.7 292 293.1 293.8 295.8 297.9 301.4 306.1 310.3 313.9 316.2 318.4 322 327.1 333.2 339.9 346.3 353 359.2 364.4 367.9 370.1 372.3 374.2 376.5 378.6 379.8 380.2 379.9 380 382 385.6 393.5 398.8 403.5 407.9 411.6 414.9 415.9 415.5 413.8 409.6 401.1 389.1 377.8 366.5 355.6 348.3 343.1 335.8 333.5 328.7 323.2 317.6 308.6 299.6 286 292 292.6 289.8 285.8 280.5 273.1 264 256.2 241.2 246.7 246.9 254 250.8 252.9 248.1 259.5 267.2 269.2 269.9 275.1 289.8 307.3 325.1 344.5 356.5 367.2 378.1 385.9 392.4 396.7 399.8 401.5 404.6 416.1 430.2 443.5 454.7 460 460.3 454.6 452.4
224.8 222 225.6 227.6 229.1 231.7 233.4 235.5 236.8 237.9 242.5 245.6 246.9 247.8 249 249.2 247.6 247.5 246.3 244 240.3 237.3 235 234.3 233.4 231.4 228.9 226.7 224.2 223.5 222.4 228.1 232.5 235.4 235.5 239 242.2 245.1 247.2 250.3 251.6 253.4 255.7 257.1 258.5 260.3 262.1 264.1 264.6 265.1 265.8 265.8 265.9 265.9 263.4 261.4 261.4 261.8 261.5 263.3 263.9 263.8 263.7 263 262.4 260.8 259.1 258.2 257.5 256.7 255.7 254.5 253 251.3 249.8 247.7 246.2 247.8 249.4 248.6 251 256.4 259.7 261.4 263.3 265.3 267.5 269.6 273.6 275.7 278 281.7 282.1 284.1 288.3 289.3 288.6 286 286.6 284.8 282.8 280.6 288.6 291.6 292.4 293.7 295.4 297.2 299.8 305.6 308.9 312.2 314.5 316.8 320.2 324.2 328.4 333 338.4 345.2 351.3 357.8 363.2 367.4 370.2 372.6 375 376.2 377.6 378.2 378 379.8 381.7 384.7 392.3 398 403.5 408 411.8 415.5 417 416.5 415.1 411.3 403.8 389.9 378.7 368.7 360.3 353 348.2 345 341.6 340.8 337.8 332.5 324.8 314.3 298.4 285.5 277.8 273.6 269.6 265.7 259.4 248.5 247.9 253.7 252.9 257.2 262.4 262.5 263.2 258.6 267.1 271.9 276.3 278.2 281.4 292.1 308.3 327.7 343.4 358.5 369.4 380 387.3 393.5 398 400.2 403.2 407.7 418.6 427.3 436.1 443.4 447.8 446.2 435.4 430.6
222.9 221.1 225.4 227.6 229.3 230.5 230.5 232.1 234.9 233.8 234.9 242.5 245.3 246.2 246.6 247.9 245.6 245.2 243.8 242.5 241.1 237.3 234.3 231.7 229.8 228.3 226.2 224.4 222.4 221.7 222.2 226.5 230.1 233.2 236 239.4 242.1 244.7 247 249.7 251.2 253.8 254.6 255.3 257.3 257.8 260.6 262.8 263.4 264.1 264.9 265.2 265.2 265.1 263.7 261.4 261.4 262 263 264.9 264.7 264.5 264.5 264.3 263.4 261.5 260 259 258 256.9 255.8 254.7 253.3 251.8 250.2 248.5 245.7 245.2 246.6 248.2 249.5 253.5 257.7 259.4 261.2 263.2 265.1 268 271.1 273 275 278.3 278.8 280 284.4 286.6 286.1 281.2 280.9 278.7 274.9 283.5 290.5 291.1 293 294.8 296.6 298.7 301.5 305.6 308.2 311.4 313.6 315.8 317.9 321 325.2 329.8 334.7 340.1 347 352.7 357.6 362.7 365.8 369.7 372.4 373.2 374.9 376.2 376.7 378.4 380.7 386 392.6 397.2 402.7 408.1 412.2 416.2 417.5 417.9 417.5 413.9 408.7 398.3 385.4 374.4 365.9 359.7 355.6 355.8 356.4 355.8 351.9 346.1 338.7 327.8 309.5 293.8 280 269.2 266.7 261.9 256.6 254.8 260.2 262 265.2 268.1 272.3 275.6 271.9 271.2 272.1 279.7 286.1 288.1 288.4 294.2 310.3 328.9 347.4 365.2 372.9 379.1 386.4 393.7 396.3 399.7 403.2 407 416.6 421.8 429.1 432.9 430.9 424.7 422.8 418.4
222.3 220.4 223 224.8 226.2 228.9 228.9 229.8 231.3 231.5 231.7 238.5 242.8 244.3 244.2 244.8 243.8 242.9 242.3 241.1 240.2 238.5 233.9 232 228.7 226.7 224.9 223.1 221.3 221.2 223.8 226.3 229.2 233.5 235.8 239 241.7 244.3 246.9 248.5 250.2 252.4 253.3 254.1 255.7 257 259.6 261.6 262.4 263.2 264 264.5 264.5 264.2 263.8 263.5 261.9 261.9 263.4 265.4 265.2 265.5 265.7 265.9 264.3 262.5 260.9 259.7 258.2 257 255.9 254.8 253.5 251 249.5 248 246.5 244.4 246.4 247.2 249.1 254.4 257.1 258.4 259.7 260.7 262.6 266.8 268.6 270.3 273.6 274.3 275.8 276.2 278.5 281.2 280.2 279.5 278.7 274.6 275.4 282.8 289.1 291.1 292.9 295.6 297.9 299.7 301.6 305.6 308.2 310.5 312.5 314.5 316.3 319.3 322.1 325.9 331.2 335.8 339.8 349.1 353.5 357.1 361.6 365.3 368.6 370.4 371.1 372.9 373.8 377.3 380.5 385.1 392.1 396.6 402 407.2 412 415.8 417.9 419.1 420.1 418.4 414.1 406.1 394.4 382.7 373.4 367.7 365.4 365.6 364.5 363.1 359 352.6 344.4 333.8 315 294 280.2 268.8 263.6 258.6 260.2 271.2 269.5 270.1 273 274.8 278.9 283.2 279.3 278.2 272 285.5 293.2 296.5 300.5 304.9 313.1 331.6 353 365 372.9 378.4 385 390.9 394.9 399.5 402.8 403.8 411.6 412.9 415.2 418.5 415.2 404.4 405.4 400.3
222.2 218.3 220.2 222.7 223.4 225.4 226.8 227.6 228.3 229.8 230.1 234.2 236.9 239.8 241.6 241.5 241.3 241.2 240.6 239.7 238.6 236.1 233.1 230.2 227.6 226.2 224.6 222.8 220.5 223.7 225.3 227.1 228.9 233 235.8 239.3 241.1 243.7 245.9 247.8 249.7 250.8 252.7 254.1 255.8 257.3 259.4 260.7 261.5 262.3 263.1 263.8 263.7 263.6 263.6 263.3 262.5 262.4 264.2 265 266.5 266.7 267 267.3 267.1 265 262.4 260 258.3 257.1 256 254.1 253 250.4 249 248 247.1 245 245.5 247.1 250.6 252.9 255.2 257.1 258.3 259.1 261.7 264.5 266.7 268.6 269.3 270.8 272.9 274.5 275 276.2 277.9 278 277.4 272 277.2 282.1 288.1 290.9 292.5 295 297.7 300.4 303 305.6 308.1 309.8 311.4 312.9 314.7 318.3 320.2 323.6 329.2 333.5 338.1 345.1 349.3 354.2 358.4 362 365.1 367 368.9 369.4 371.3 375.7 380.2 385.2 390.6 395.7 401.2 406.4 411.1 414.9 417.4 419.4 421.4 421.3 418.2 413 404.1 393.4 382.8 376.8 375 373.2 370.8 367.5 362.2 354.6 344.7 331 310.2 292.7 276.3 267.4 263 273 280.6 282 277.9 279 280 284.5 289.6 292.2 290.2 287.2 279.4 289.9 299 307.3 313.5 320.6 327.4 344.3 356 366.5 370.9 375.8 383.7 388.6 393.7 397.9 396.4 398.4 402.8 403.6 400.2 404.1 402.2 397.9 394 390.7
221.1 220.8 218.9 219.6 220.8 222 223.4 225.2 225.8 227 229.2 229.9 232.5 235 236.2 238.6 238.2 238.3 237.5 235.7 234.6 233.8 232.7 229.8 226.6 224.9 223.7 222.4 221.9 223 224.5 226.2 227.5 231.7 234.1 237.5 241.2 243.2 245.5 247.7 249.6 251.3 252.8 254 255.4 256.7 258.4 259.9 260.4 261 262.2 262.7 263.2 263.7 263.8 263.7 264.5 264.5 265.6 266.4 267.2 268.2 268.5 268.8 268.2 267.5 263.8 260.8 258.9 257.1 255.6 253.8 252.3 249.9 248.2 247.5 246.6 245.5 244.8 247.2 248.7 251.3 251.7 254.5 256.4 257.1 260.6 262.6 263.1 265.3 267 269.5 271.2 273 274 274.7 276.3 276.5 273.5 270.7 278.7 281.7 285.8 289.5 292.3 294.4 297.1 299.8 302.7 304.1 307.2 308.4 309.9 311.3 314.6 316.6 319.4 322.7 327 331.3 337.3 343.1 347.6 351.3 355.2 358.4 361.5 363.6 365.6 366.5 369.8 374.6 379.2 385 389.8 395.1 399.9 405.2 410 413.7 416.8 419.2 421 422.3 420.5 417.1 411.1 403.8 395.3 387.7 381.4 377.3 373.7 368.6 361.8 350.7 334.6 321.4 305.4 285.6 271.6 271 281.6 291.6 296.2 293.6 288.3 289 293.2 296.9 302.4 306.5 303.4 297.8 289.4 296 304.8 314.9 328.2 338.4 344.1 351.4 362 368.5 374 377.2 382.2 385.2 391 392.7 389.8 391.6 393.2 391.4 384.8 384.7 386.5 385 380.5 374.6
221.3 220.8 219.6 218.8 220.2 221.2 221.7 222.9 223.9 224.9 227.6 228.8 229.9 232.3 233.5 234.7 235.3 234.6 234.8 234.5 234.3 233.6 232.3 228.4 225.5 224.2 222.7 221.2 220.2 221.7 223.6 225.3 226 230.1 233.6 237.7 241.1 243.3 245.2 246.9 248.6 250.3 251.9 253.5 254.6 256.1 257.2 259.1 259.6 260.2 260.9 261.2 261.9 262.4 263.5 264.4 265 265.7 266.8 267.6 268.5 269.3 269.9 269.6 268.9 268 265.7 261.7 259.3 257.4 255.8 253.6 251.4 249.1 247.5 247.1 245.6 243.4 246.7 247.1 248.2 247.3 247 250.5 254.2 255.1 257.7 258.8 260 261.9 262.8 263.8 266.8 269.8 272.9 273.5 275 271.3 268 273.5 277.5 280.9 284.3 287.9 290.8 293.8 296.5 299.2 300.3 302.1 304.3 307 308.2 309.6 312.7 314 316.8 319.5 325.8 331.4 336.4 342.1 345.9 348.8 351.8 354.8 357.9 360.2 362.4 363.9 367.4 374.1 378.1 383 389.1 392.9 399 403.9 408.5 412.1 415.2 418.2 419.9 421.2 421.7 419.4 415.1 408.7 401 392.7 384.5 379 371.8 367.4 356.2 336.1 318 304.7 291.7 279 275.2 288.8 301.4 310.6 311.3 306.7 298.3 299.7 304.3 312 316.5 320 317 309.6 298 304.2 312.2 325 338.1 351.5 359.1 365 366.1 371.5 373.2 377.6 381.5 384.1 386.7 384.4 381.4 380.9 381.5 372.4 373.8 369.7 364.5 367.7 364.8 369.9
221 220.6 219.3 218.3 219.4 219.9 220.9 221.1 223 224.4 226.2 226.6 228.9 230.7 231.7 233.5 233.8 233.9 233.8 233.5 233.1 232.9 230.4 228.4 226.8 225.4 224.4 223.5 222 221 222.5 223.4 225.5 227.2 231 234.8 240.1 242.2 244.1 245.9 247.6 249.3 251.4 252.6 253.6 255.8 256.2 257.9 259.8 260.7 261.4 261.4 261.8 262.2 264.2 265.1 265.2 265.9 267.2 268.4 269.6 270.5 271.1 269.5 268.9 268.4 266.3 262.1 259.4 257.6 255.7 253.5 250.3 248.9 247.3 245.8 242.1 244.6 245.6 246.7 245.2 244.7 244.5 246 250.2 252.7 254.5 256.4 257.6 259.8 262.2 261.8 262.1 265.6 272.9 271.9 267.8 268.4 271.1 274.3 276.9 279.5 281.8 286.1 290.6 294.5 295.7 297.8 299.9 302.1 304.4 306.5 308.8 310.8 312.8 316.5 318.2 320.3 325 331 335.7 341.2 344.1 346.8 350 353.1 355.6 357.2 358.9 363.2 366.9 373.3 378.5 382.9 387.8 393.7 397.9 402.3 406.8 410.4 413.7 416.5 418.3 420 420.8 419.7 416.4 410.7 403.1 394.6 385.8 377.4 369.3 361 342.7 321.8 305.2 291 280 276.2 292.2 307.2 323.2 327.4 325.7 319 309 310 316.9 328 331.1 330.7 327.7 318.5 307.3 315.4 320.3 332.3 351 362.4 368.7 370.6 373.8 377.9 378.8 377.2 379.6 380.1 376.6 372.3 370.5 364.4 362.6 363.5 362.2 357.2 361.3 361.6 362.8 368.4
220.5 220.1 218.5 217.8 218.8 220 220.6 220 221.6 223.6 224 225 228.8 229 230.7 233 233.1 232.5 232.3 232 231.8 229.6 228.2 228.3 226.6 226.1 225.3 223.7 221.9 219.9 221.8 223.6 224.8 226.3 227.9 232.7 238.1 240.5 242.1 244 244.1 247.6 250.8 252.2 253.4 254.5 255.6 257.1 259.6 260.3 261.9 262.7 263.3 263.9 264.8 265.7 266.7 266.7 267.7 268.8 270.1 271.6 272.3 269.4 268.6 267.6 265.7 261.7 259.5 257.5 255.4 252.7 249.4 247.3 247.2 244.2 244.1 244 244.4 243.7 242.2 241.1 241.3 242.6 247.1 250.3 251.8 253.8 256 257.1 258.8 259.6 259.3 262.3 267.6 269.4 263.4 269 270.9 273.6 276.3 278.7 281.6 286.1 290.5 293.3 295.6 296.3 298.5 301.2 304.1 307.2 308.8 310.2 311.8 314.8 317.8 320.8 324.8 330.5 334.3 339.1 342.9 346 348.6 351.6 354.2 355.2 357.6 361.2 365.7 372.2 378 382.2 386.8 393.2 396.3 400.6 404.7 408.7 412 414.7 417 418.5 418.7 418.2 415.9 411.4 404.1 394.7 385.1 369.4 355.8 344.7 328 311.4 297.2 284.5 282.7 293.7 309.6 325.7 339.2 340.5 337.6 330.3 319.2 324.7 330.7 343.8 346.4 341.6 336.8 328.2 321.7 329.9 335.8 344 359.7 368.9 374.3 377.8 380.5 378.9 380.3 381.6 380.7 378.8 375.3 368.7 363.3 358.7 355.5 353.9 353.2 349.7 355.4 356.2 360.1 369.9
219.1 218.7 216.2 219 219.5 220.2 219.5 218.9 220.1 221.8 222.5 224.3 226.5 228.6 228.7 230.7 231.1 230.5 229.7 229.2 228.8 227 227.1 227.8 227.2 226.8 225.4 223.6 221.5 221.3 222.4 223.3 224.6 225.5 226.9 230.3 234.4 238 240.5 241.4 241.9 245.3 249 250.5 251.2 254 256.1 257.7 259.3 260.8 261.9 263.4 264 264.8 267 267.7 268.2 268 268.7 269.7 270.7 271 270.8 269.7 268 266.9 264.6 261.2 258.5 257.2 255.3 251.9 248.3 245.8 244.8 241.9 241 236.1 235.5 235.1 235.1 237.2 237.4 239.8 243 244.9 248 251.3 252.6 254.1 256 254.7 253.7 254.3 257.2 265.2 261.2 268.1 270.8 273.2 275 278.2 281.1 284.7 288.2 291.4 294.2 295.5 297.9 299.7 303.1 306.7 308.1 309.6 310.9 313 316.5 321.1 324.2 328.5 333.1 337.2 341.3 344.8 347.7 350.4 352.5 353.3 356.3 360.4 363.3 370.8 377.9 380.9 386 389.7 394.6 398.6 402.7 406.8 410.1 412.6 414.9 416.6 416.7 416.4 414.5 410.2 403.1 393.6 383.9 370.5 347.6 330.1 316.6 302.8 290 289.6 294.4 307.4 325.8 345.1 352.4 352.4 349.1 341.7 331.5 338.1 351.1 357.7 358.4 353.7 346.6 335.4 336.2 348.2 352.3 355.8 364.2 375.9 379.9 383.3 382.4 383.3 384.6 384.6 383.5 380 377.3 373.5 368 359.9 353.6 346.6 349.9 346.9 350.2 353.2 356.2 360.5
218 218.2 216.2 219.3 219.6 219.9 218.3 217.3 219.1 220.5 221.9 223 222.3 225.9 227.7 228.7 229.7 230.1 228.9 227.8 226.7 223.9 225.8 226.1 225.6 225.4 224.5 223.4 221.3 221.4 222.3 223.3 223.1 223.5 226.2 229.5 232.1 234.2 236.8 238.1 241.6 245.4 247.6 249.4 251.5 253.8 255.3 256.9 258.4 261.5 262.6 264.1 264.8 265.8 267.2 269.4 269.9 269.7 269.8 270.8 271.8 271.1 270 268.9 267.9 266.6 263.8 260.9 258.2 255.1 253.6 251.3 247.6 246.2 244.7 243 241.3 239 238.2 237.1 232.1 231.8 234.8 237.8 242.4 244.2 245.7 249.4 249.1 247.8 251.5 252.1 258.1 260.9 263 263.9 264.7 267 269 271.1 273.7 276.9 279.5 282.8 286.3 288.2 290.8 294.2 297.2 298.7 302.2 305.7 308.1 309.4 310.6 313.2 316.5 319.9 322.7 326.7 330.5 334.7 339.3 342.9 347.8 349.9 350.6 351.9 354.6 358 362.9 369.3 376.9 380.9 384.3 388.7 392.7 397.1 401.3 405.1 408 410.6 412.5 413.9 414.2 413.1 411.7 407.9 401 392.2 381.9 368.4 351.8 334.6 314.9 300 294.3 299.4 307.5 323.7 341.5 358.7 364.9 365.5 362.7 352.3 350.8 354.3 367.4 372.9 371.2 367.8 360.3 344.6 350.8 361.9 365.3 368.7 372.9 381.7 383.7 385.5 387.5 390.2 390.2 389.1 388.1 385.3 380.5 376.3 371.3 364.1 356.9 350.8 339.9 342.6 347.9 350.5 355.6 357.8
216.9 216.4 215.7 218.6 218.9 218.7 218.3 217.2 218.9 220.7 222.6 223.9 224.4 225.2 226.9 227.9 228.6 229 227.7 226.7 226.5 225.7 224.5 223.9 223.4 223.9 224.7 223.5 221.2 221.6 222.3 221.7 222.1 224.3 228.2 231.1 232.6 235 239.1 241.2 243.1 246.2 249.5 251 252.3 254.5 256.2 257.4 258.4 261.5 263.9 264.4 265.6 266.4 267.2 270.5 271.3 271.5 271.2 272 272.1 271.1 270.1 269.1 267.8 265.3 262.8 258.9 255.3 251.8 250.1 248.9 247.6 244.9 245.1 242.6 240.2 237.5 235.3 234 232.9 232.4 231.4 237.8 242.7 240.6 243.1 244.5 249.1 253.4 252.7 258.1 259.7 261.3 261.6 261.7 263 265.3 268.6 270.5 273.1 275.4 278.4 281.1 284.1 285.4 288.3 291.8 295.2 297.7 300.7 303.7 306.7 308.3 310.8 313.4 316.2 318.7 320.8 323.6 328.2 332 336.2 341.7 346.6 345.4 347.9 351.3 353.6 356.5 361.2 368 375.6 379.5 383.3 387 391.5 396.3 399.6 402.9 405.8 408.2 409.8 411.4 411 409.8 408.1 403.8 397.2 389 377.5 361.6 346.3 332 316.1 297.8 305.6 314.1 321.8 338.6 356.8 373.8 379.6 378.9 376.4 364.3 372.2 373.5 382.7 387 386.3 383.2 374.8 358.9 364.8 373 379 380.7 382.7 383.7 386.4 389.6 394.3 396.5 395.8 393.4 392.2 388.8 384.1 379.1 372.1 366.6 359.5 352 346.5 335 339.8 344.6 350 350.6
215 215.6 215.3 217.5 218 217.2 216.4 217.4 218.5 220.1 221.7 222.3 222.9 225.2 225.7 226.2 226.7 227.3 226.7 226.5 226.3 225.8 224.6 224.5 222.4 224.1 224.8 223.6 222.6 219.6 220.9 221.6 222.6 225.2 228 230.8 233 236.1 239.4 241.2 243.1 247.3 250.3 253.2 255.3 257.2 258 259 260.1 261.5 264.8 266.4 267.2 268 269.2 270.4 272.2 272.6 272.8 272.9 272.3 271.3 270.3 269.3 267.1 264.7 261 257.2 253.1 250 247.8 245.4 243.8 243.2 241.9 238.2 236.2 234.7 234 233.2 233.1 232.2 232.2 238.6 240.1 238 240.6 242.7 248.4 249.9 253 254.9 258 258.3 258.4 256.7 258.7 260.9 265 269.7 272.4 274.1 275.9 278.5 281 282.3 286.6 289.9 293 296 299.1 302.1 305.2 306.9 309.1 311.8 313.2 315.7 318.9 321.8 324.7 329.5 334.5 338.5 340.7 344 347.5 350.8 353.6 355.6 361 367.7 373.3 378.3 382.3 385.8 389.9 395 397.9 400.7 403.4 405.6 407.6 407.9 407.5 406.7 404.3 400 392.9 382.6 365.9 350 334.7 322.4 309.1 306.2 318.7 324.8 337.9 352.3 373 388.3 391.5 392.1 390.9 388.9 389.3 393.1 397.5 400 398.1 394.5 386.4 379.3 370.5 383.4 386.9 386.2 386.4 387.5 392.3 395.7 399.6 402.1 400.6 398.2 395.5 391.2 385.4 379.2 372.7 361.9 354.1 349.2 341.7 336.4 329.5 335.1 342.2 341.6
213 214.1 213.1 216.1 217.1 216.4 216.8 217.8 218.9 219.5 221 221.6 222.3 224.4 225.2 225.6 226 227.2 226.4 226.3 226.1 225.8 225.2 224.1 222.1 224.5 224.4 223.4 223.1 219.6 222.5 223.7 225.3 226.4 228.4 231.1 233.5 236.6 239.1 241 243.9 248.7 252.8 256.8 259.2 260.5 261.7 261.6 262.9 264.6 266.5 268.3 269.1 269.9 270.3 271.2 272.8 273.3 273.5 273.5 272.8 271.9 270.5 268.3 266.2 263 259.1 255.3 252.1 247.9 245.1 243 242 241.5 240.5 236.2 234.2 233.5 232.9 232.4 231.9 231.4 229.7 230.7 234.1 233.5 238.1 242.8 247.4 250.6 253.5 253.3 249.8 252.9 260.6 263.2 266.1 268.3 268.3 266.3 270.6 272.5 271.8 274.4 274.7 278.7 284.4 288.3 291.7 295.5 297.6 300.1 303.1 305.6 307.7 310 311.3 315.1 319.1 322.2 325.6 328.4 331.8 334.6 341 344.1 348.3 351.6 354.7 355.9 361.2 367 372.2 376.8 380.7 383.9 388.7 393.8 396.8 399.5 401.5 403.4 405.3 404.6 404.1 403.2 400.6 395.8 387.3 374.3 355.2 339.4 326.4 314.6 316.9 322 336.1 340.7 354.2 372.1 392.5 401 403.6 404 402.7 402.6 404.1 405.7 407.4 408.6 407.8 403 396.1 390.4 380 389.3 391.6 390.9 392.5 394.3 397.8 401.3 404.8 406.3 404.8 400.4 396.5 391.4 384.4 377.1 370 360.1 350.1 342.5 337.7 335.4 324 332 333.8 336.6
212.1 212 211.7 213.5 216.2 215.4 216.8 217.4 217.6 219 220.3 221.1 222.5 224 224.7 224.9 225.1 225.6 226.2 225.9 225.7 225.2 224.5 223.2 222.9 223.6 223.7 223.6 222.8 220.2 223.9 224.1 225.6 226.9 230.1 232.1 233.9 236.7 238.5 240.4 243.6 246.3 250.4 255.3 259.7 262.2 263.2 264 264.7 266.6 268 269 270 270.9 271.4 272.1 273 273.6 274.2 274.2 273.3 272.7 269.9 267.7 265.4 260.7 257.2 255.6 252.2 246.6 243 241.7 240.6 238.9 239.1 236.9 236.2 233.7 231.2 231.3 230.9 230.2 226.4 228.6 231.7 233.2 236.5 240.2 239.8 242.1 244.9 254.2 259.1 262.3 263.2 266.3 268.5 269.8 270.8 271.3 267.8 270.7 273.4 277.6 279.9 279.2 279.1 285.2 286.3 288.5 290.9 296.9 299.8 300.6 303.7 308.5 310.7 313.6 316.6 320.5 324.1 328.5 331.9 336.7 341 345.1 348.8 352.3 354.8 357.8 362.6 367.2 371.5 374.2 378.5 383.3 388.1 392.2 395.5 398.2 399.9 401.8 403.2 403.1 402.2 400.1 395.7 384 372.8 359.6 345 332 329.3 321.4 329.7 338.8 352.8 363.1 372.2 392.4 403.9 410.4 413.4 414.5 413.8 412.7 413.8 416.2 417.6 417 413 407.6 402.8 396.8 387.6 392.8 395 395.9 397 396.9 401.6 405.6 408.2 410.1 406.9 401.3 396.3 388.7 377.6 368.6 360.3 354.5 344.8 339.4 330.6 325.2 314.3 326.3 327.2 330.3
208.4 209.6 209.4 212.2 213.8 214.9 216.3 216.3 217.5 218.4 219.6 220.9 221.1 222.1 222 223 223.5 224.1 224.7 224.7 224.6 224.1 223.3 223.7 223.3 222.6 222.8 222.4 221.2 222.2 224.1 223.6 225.5 226.9 228.9 231.4 233.7 235.6 237.5 241.4 244.2 246.7 250.2 256.5 261 263.1 264.6 265.4 267.1 268.3 269.3 270.3 271.2 272 272.5 273 273.3 273.9 274.5 274.6 274.3 273.6 270.7 267.1 264.3 261.1 255.4 253.4 250 245.2 241.9 239.4 237.4 235.3 234.9 236 235 235 230.2 230.5 229.2 228.9 225.5 228.3 228.9 236.1 237.5 241.8 243.1 248.8 253.6 257.5 260.9 264.4 266.2 266.9 270.1 271 272.3 273.4 273.2 274.8 274.4 277.5 279.9 282.9 285.6 287.2 289.4 293.3 295.9 297.9 299.7 300 304.5 308.1 311.2 314.1 318.3 322.8 325.9 329.7 333.1 336.2 339.7 342.5 347.8 351.4 354.3 356 361.8 367.1 370.8 374.4 378.1 382.4 386.8 390.6 394 396.8 398.3 400.1 401.1 401.2 400.5 397.1 390.3 368.4 356.1 347 343.6 341.8 342.2 335 344.7 356.7 371.3 383.3 393.4 404.3 413.4 418.3 420.7 421.4 421.9 422 421.4 423.3 423 420.6 416.8 410.8 404.7 400.1 394.1 396.9 396.9 398 398.5 399 402.7 405.9 408 408.1 404.7 399.4 393.3 383.3 371.7 358.7 350 343.4 336.7 331.4 325.9 313.7 314.4 317.4 321.9 323
209 210.2 211.5 213.6 212.9 214.6 215.5 215.7 215.9 217.3 217.8 218 218.1 219.7 220.4 221.1 223.4 223.2 221.3 221.9 221.7 221.7 222.1 222.3 222.5 221.8 222.3 221 218.4 223 224.4 223.2 225.4 226.2 227.6 229.6 232.1 235 238.7 242.2 244.7 247.1 250.3 255 259 262.8 265.4 267.2 267.8 269.6 270.7 271.7 272.7 273.5 274.5 274.4 274.1 274.4 275 274.5 274.1 273.2 271.1 267.4 263.4 258.2 253.1 250.6 248.2 244.4 240.4 237.4 235.2 235.1 233.4 233.1 233.5 232.1 230.9 231.1 229.4 227.1 224.5 226.1 227.3 236.3 238.6 241.2 246.2 251.9 255.2 259.5 263 266 268.1 268.7 269.5 272.2 273.5 274.8 275.9 276.8 277.7 278.9 280.7 283.5 285.8 288.9 292.8 295.9 297.6 300.6 302.6 304.6 306.4 309 311.5 314 318.8 323.3 326.5 329.4 332.4 334.7 339.1 343 347.2 350.5 352.8 355.4 361 366.9 369.8 373.6 376.2 380.8 385.5 388.9 392.4 395.5 397.2 398.8 399.2 399.2 398 395.4 388.2 373.9 364.5 365.5 366 363.8 354.8 352.7 365.7 379 392.3 401.1 407.8 413.7 419.1 422.3 424.2 425.5 426.2 427.2 427.7 426.9 425.5 422.2 418.3 412.6 406.4 400.1 402.1 399.9 402.1 401.3 400.6 400.8 402 404.4 405.8 404.3 401 394.3 387.4 377.6 364.2 351.3 341.2 332.9 327.4 322.6 319.3 309 307.9 312.2 316.5 316.2
210.6 211.7 212.5 213.6 214.3 214.8 215.4 215.9 215.8 215.7 216.1 215.9 215.9 216.3 216.3 217.3 218.3 218.8 219.6 220.2 219.7 220 221.2 220.2 220.7 219.3 219.6 218.9 216.8 223.2 225.2 221.9 224.8 225.6 226.7 227.8 230.6 235.5 238.7 241.4 244.1 246.9 249.7 253.9 259.1 262.3 264.9 267.3 268.4 270.5 271.9 273 274.1 275.1 276 275.7 275.5 275.2 275.1 274.4 273.9 272.5 270.7 267.4 263 258.7 253.7 248.9 245.8 242.9 239.6 237.7 236.1 234.4 233.9 231.4 231.4 231.3 230.5 231.5 228.7 225.5 223 224.9 229.4 234.1 240.1 242.4 246.7 250.8 255.9 260.9 264.1 267.2 269 269.4 269.4 273.3 274.8 276.1 277.1 277.9 278.9 280.3 282.8 285 286.9 289.2 293.7 296.5 298.2 301.3 303.2 305.5 308.8 311.5 313.7 316.1 318.7 321.6 324.4 327.1 329.8 334 338.3 342.6 346.1 349.9 352.3 356.6 362.3 366.9 370.2 372.1 375 379.7 384.5 388.5 392.2 394.1 396.5 397.6 398.5 399 398.4 396.9 393.5 386.3 376.2 387.3 385.5 378 360.3 371.3 387.9 399.8 405.8 411.1 416 419.1 421.2 423.7 425.4 427.5 429 429.9 429.4 427.8 425.3 421.9 418.1 412.3 405.9 408.2 407.5 407.4 405.6 402 401.2 401.3 398.5 400.1 402.3 401.4 396.1 388.5 381 370.5 357.7 343.3 334.9 326.4 320.5 316.8 311.1 304.2 301.9 307.1 310.2 310.2
210.5 211.4 212.2 213.2 215.1 215.7 216.2 216.8 216.9 216.5 217.3 216.8 216.6 216.5 216.3 216.7 217.6 218.6 219.2 218.7 218.3 217.8 216.5 216 215 213.6 214.9 214.3 214.6 219 218.8 221.3 223.6 224.6 225.7 226.7 228.2 233.4 236.9 240.1 243.5 248.5 249.7 252.7 257.7 263 266.1 266.9 269.1 271.2 273.1 274.2 275.1 276 276.5 276.6 276.3 275.9 275.3 275 273.9 271.5 270.2 267.3 264 259.6 254.6 249.3 245.3 242.6 239.5 236.8 234.1 232.7 231.6 230.1 229.5 229.7 230.4 230.5 228.3 224.1 222.5 224.6 227.4 232.3 241 244.5 246.9 249.9 256.8 262 264.9 267.2 268.9 270.2 272.9 274.4 275.6 277.5 278.4 279 279.8 281.7 284.1 286.7 289.2 291.2 294.2 295.6 297.7 300.9 302.7 305.6 309.3 312.5 315.1 317.1 319.8 322.6 325.9 328.5 330.7 334.8 337.9 342.4 345.3 349.1 352.4 356.9 361.1 365.7 368.2 370.9 375.2 378.8 383.2 387.1 391.4 393.5 395.4 396.7 397.7 398.6 399.1 399.6 398.1 396 391.1 398.6 396.9 391.8 377.2 387.7 402.2 408.3 412.9 416.9 420.6 422.5 423.2 425 425.8 426.7 427.6 429.1 428.2 425.9 423.6 420.8 416.5 413 415.7 415.3 414.1 411.7 407.7 404.3 401.1 399.1 394.1 393.6 396.4 396.8 390.7 382.6 374.2 362.2 350.9 339 330.2 324.7 319.1 310.8 302.3 300.3 297.8 300.6 303.6 304.2
210 211 211.9 212.9 214.6 216.5 217.1 217.7 218.7 218.5 218.4 218.2 217.8 217.7 217.5 217.3 217.2 218.2 217.8 217.3 216.9 216.4 215.5 215.2 215.2 212.7 212.7 212 213.2 214.3 216.9 221.4 222.6 223.6 224.7 225.4 226.2 229.7 233.1 236.7 241.6 246.4 249.5 252.8 257.3 261.7 264.5 266.7 269.5 272.1 273.8 274.8 275.6 276.3 276.7 276.7 276.6 276 275.4 275.1 273.9 270.5 269.1 266.7 263.5 260.6 256.7 250.4 245.1 242.2 240 237.6 234.1 232.4 231.6 230 228.6 227.8 228.4 230.3 229.6 223 221.9 224.7 228.6 235.3 241.3 243.2 244.2 248.1 254.6 261.6 265.4 267.5 269.4 271 273.6 275.3 276.4 277.5 278.2 280.8 281.1 283 285.1 287.6 290 292.7 293.4 294.7 296.9 297.5 300 304.5 309 312.4 315.1 317.5 320 322.6 325.9 329 332.1 336.2 340.2 342.9 346.7 350.3 353.2 357.3 362.5 366.8 368.5 371.5 373.3 378.1 382.9 386.7 390.6 393.3 394.8 395.7 396.8 398.2 400.1 401.2 401.4 401.6 402.7 403.5 403.9 400.4 386.4 398.8 407.4 412.8 416.9 420.8 423.2 423.8 423.5 423.9 424.2 424.6 424.9 425 424.6 423.4 422.2 419.4 419.2 421.2 421.7 420.7 418.5 416.1 411.8 408.8 402.1 396.2 389.1 383.4 384 387.5 385.1 378.4 367.6 355.3 346.4 336.1 329.6 320.5 313.3 305.7 301.9 297.4 297.2 295.1 297.7 298.9
210.8 211.1 212 212.9 213.5 215.9 218 218.9 218.8 218.9 218.9 218.8 218.6 218.9 218.7 218.6 218.4 218.1 217.2 216.2 215.5 215.1 214.5 213.5 212.4 212.5 210 209.7 211.3 213.2 214.5 217.9 220.8 221.5 222.7 223.3 224.7 228 231.5 236.2 239.7 245.5 249.4 252.4 255 258 262.7 265.8 268 271.7 273.1 274.3 275.5 276.4 276.6 276.1 275.6 275.5 275.1 274.4 273.4 271.3 268.6 266.6 263.9 261.4 257.2 251.2 245.6 243.3 241.7 240.5 237.6 234 232.8 231.3 229.8 228 227.4 226.7 224.1 221.3 220.2 222.7 226.2 232.6 239.8 243.2 245.6 249 255.5 261.7 265.2 267.7 269.2 270.9 273.5 275.8 277 277.5 278.6 280.6 282.6 284 285 288.3 290.6 293.4 294.2 294.7 295.5 299 302.1 305.7 308.8 311.6 315 317 319.4 321.5 324.7 327.5 330.7 335.5 339.1 341.4 346.1 349.8 353.3 359.3 362.7 365 368 371.5 374.1 377.7 381.8 386.5 388.9 391.4 394 395.5 397 398 400.6 402.4 403.6 404.5 406.1 407 406.8 403.4 392.5 401.8 409 414.2 418.1 420.8 422 421.5 420.6 420.5 420.2 420.3 421 422 422.3 422.4 422.1 422.8 425.8 425.2 424.9 423.5 420.6 418.4 414.6 412.3 403.7 395 388.5 376 370 371.9 370.6 365.3 356.3 348.4 338.5 333.4 325 315.2 304.3 300.8 297.2 295 293.3 290.6 290 294.4
211.6 211.9 212.2 212.9 213.8 215.3 218 218.7 219 219.3 219.2 219.5 218.8 218.5 219.1 219.6 219.6 218.6 217.6 216.7 215.8 214.5 213.9 213.1 211.7 210.5 208.8 210 212 212 212.7 214.7 215.6 219.7 220.3 221.8 223.4 226.1 230.1 236.2 238.4 243 247.1 251.2 253.9 257.1 260.1 263.4 267.3 270.3 272.5 273.4 274.3 275.9 276.2 275.5 274.8 273.9 273.2 273.3 272.2 270.6 268.1 266.1 264.1 261.9 258.1 252.8 247.2 243.9 242.4 240.5 238.3 235.6 233.8 232.9 232.1 230.4 228.3 226 226 223.1 218.9 225.4 228.4 229.5 235 240.6 243.9 248.5 255.6 261.2 264.5 266.9 268.2 270.9 273.5 276 276.9 278 279.2 280.5 281.4 282.4 286.1 289.8 292.1 293.7 294.9 295.6 296.5 300.1 302.8 306 310 312.6 314.7 318.1 321 323.1 324.7 328.3 331.9 335.3 339.4 341.6 345.3 350.1 353.7 358.2 361.5 364.6 367.3 371 373.2 376.7 381.5 385.9 388.6 390.9 391.7 395.8 396.6 398 400.6 402.6 403.7 405.2 407.3 408.3 408.6 405.7 396.1 401.8 408 412.9 415.9 417.8 418.3 417.6 416.5 416 415.6 416.2 417.2 418.7 420.2 422 424.7 429.2 432.5 432.5 430 426.8 421.6 418.7 415.3 412 404.4 394.2 386.3 372 362.4 355.5 353.7 348.8 343.5 336 328.8 321.3 313.8 307.6 300.6 296.3 294 292.2 290.4 290.6 285.8 289.4
212.7 212.6 213.2 213 213.8 215.4 216.6 218.1 218.8 219.3 219.9 220 219 218.7 218.5 219 219.6 219.5 218.2 217.4 216 214.6 214 212.5 211 208.5 206.8 208.4 209.4 209.8 209.9 210.9 213.3 217.3 218.8 220.6 222 223.9 227.6 233.2 237.8 240.6 244.8 249.2 253 255.3 258.1 262.1 266.4 268.8 271.1 272.9 273.8 274.2 274.9 274.2 273 272.2 271.1 271 270.1 268.3 265.8 264.2 263 261.3 258.4 253.8 248.6 243.8 242.7 241.7 239.7 238.1 236.3 235 233.9 232.7 229.8 228.2 227.5 226.2 223 223.4 227.9 229 229.5 235.6 240.6 248 254.3 260.4 262.3 266.2 267.8 270.3 273.3 276.1 277.4 278.3 279 279.8 281.1 282.2 284.9 288.6 290.6 292.2 292.2 294.9 297.7 300.3 304.6 306.6 310.5 312.2 314 317.1 321.5 324.2 327 329.9 333.1 336.1 339.6 343.8 348.2 350.1 353.4 357.4 361.6 365.6 367.2 369.4 371.6 375.7 380.7 384.4 386.5 390.4 392.8 394.8 396 398 400.6 402.6 404.2 405.5 406.3 407.4 408.6 407.4 403.7 398.6 405 409.5 411.7 413.1 412.9 411.7 411.1 410 410.7 411.6 414.8 417.8 420.4 423.2 429.1 437.3 439.6 438.4 434.7 429.7 422.9 417.8 412.6 408.4 402.4 393.2 383.3 367.5 352.5 346.6 338.1 334.4 330.9 324.8 319.1 313.5 304 297 293.4 291.6 289.3 288 285.9 285.7 284.4 282.5
212.9 213.3 214 213.7 213.6 214.9 215.4 216.6 218.7 223.1 222.8 220.3 219.1 218.8 218.5 218.5 219.1 219.3 219.1 218 215.9 214.6 214 212.8 209.8 208.5 206 205.9 207.3 207.6 207.8 209.3 210.7 214.1 216.9 218.8 220.9 222.5 226.2 231.3 236.5 239.4 244.5 248.4 252 254.6 256.7 260.5 264.9 267.8 270.1 272.1 272.8 273.2 273.5 272.3 270.9 270 269.6 268.8 267.9 266 264.2 261.8 261.4 260.7 257.4 253.1 249.5 245.6 243.2 242.4 241.6 240 239.4 237.9 236.7 236.1 232.3 230.5 230.3 230.7 226.8 216.1 221.7 225.7 226.1 236.4 242.2 246.2 251.2 255.8 260 264.4 266.7 269.6 272.4 275.6 277 277.8 278.2 278.8 280.8 283.6 285.5 286.9 290.1 291.9 293.5 296 298.3 301.4 304.9 309.3 311.6 312.3 313.5 316.4 321.6 324.8 327.6 330.8 333.7 336.8 341.7 344.7 347.8 350.4 354 358.3 361.7 365.4 367.1 369.2 371.5 375.8 379.8 383 385.2 389.2 392 394.8 396.2 397 399.8 401.7 403 403.8 404.2 404.9 406.1 406.3 401.8 402.7 398.6 405 406.3 407.6 407.5 405.7 405.1 405 404.5 408.4 414.1 417.7 421.4 426.2 436.5 445 447.3 444.3 439.6 433.2 425.2 417.1 410.1 400.9 395.1 386.1 373.5 362.5 348 339.1 331.5 324.9 320.4 315.3 307 299.8 297.9 302.1 301.5 299 296.3 293 289.9 286.8 283.6 281.4
212 212.4 213 214.6 214.4 215.1 215.3 215.9 217.1 219.4 223.8 221.4 220.1 219.6 219 218.5 218.2 218.1 218.1 218.1 217.5 214.7 213.9 213.4 211.2 210.1 209.4 208.3 207.3 204.4 207 207.2 209 212.1 214.3 216.9 219.2 221.5 225.2 229 233.7 238.9 244.7 247.9 250.2 253.8 255.3 256.9 261.9 265.2 268.1 270.8 271.8 272.2 272.1 270.5 268.9 267.7 267 265.8 264.2 262.6 260.9 260.1 260.1 258.1 256.9 254 250.8 247.5 244.2 242.8 242.1 241.3 240.6 240.5 239.6 237.3 234.3 231.8 233.5 232.5 227.6 222.8 216.3 222.5 227.6 237.5 241.3 242.9 248.5 252.5 257 261.6 265 266.6 270.3 274.8 275.9 276.4 275 276.7 281.2 283.7 285.8 287.5 289.6 291.8 293.8 296.3 298.7 301.7 304.6 308.3 310.7 312 313.4 315.2 321.5 323.7 326.4 331.2 334.1 338.1 340.9 344.5 348.1 351.6 355.1 359.3 362.4 365.4 367.7 370.1 372 373.4 379.7 382.3 384.8 387.9 390.5 392.3 394.6 396.9 398.3 399.7 401 401.6 402.1 402.6 403.6 402.2 398.4 399.6 395.1 398.8 400.2 399 399.3 400.6 399.1 398.5 401.9 408.7 414.1 418.2 424 431.3 445.5 454 453.6 449.6 443.5 436 426.2 416.6 406.2 396.4 385.9 375.9 363.2 355.8 345.1 333.8 328.1 321.9 314.7 306.8 304.6 312.1 316.1 315.2 312.3 309 302.8 301 297.3 293 288.3 284.6
211.1 211.4 211.8 214.1 215.7 215.5 215 215.6 216.3 219.2 219.2 220.8 220.5 219.6 219.1 219.2 218.3 218.1 218.1 218.2 218.1 215.8 214.1 212.2 211.4 210.5 209.7 208.9 208.4 205.1 206 206 208.6 210.3 212.8 215.2 217.6 221.1 224.5 228.2 233 238 243.6 246.1 247 250 254.7 256.1 260.2 263.6 266 268.4 270.3 270 270.7 269.2 267.7 265.9 264.8 263 260.5 258.6 257.7 257.1 256.5 255.9 255 253.4 250.8 248.3 245.9 243.3 242.6 242.3 242.7 242.1 240.9 238.9 235.2 232.6 232 232.3 228.5 223.1 212.7 218 227 234.5 237.7 240.4 244.6 248.4 255.4 260 263.2 263.8 265.8 273.7 276.1 277.6 277.8 278.9 281.9 283.9 285.9 287 290 292.1 294.1 296.1 299 301.7 303.8 306.2 308.4 311 313.6 314.7 320.7 323.7 326.5 329.3 333.4 336.2 340.7 344.3 348.4 352 355.8 358.9 362.6 365 367.3 369.3 370.8 373 378 381.4 383.5 386.7 389.3 391.1 393.7 395.1 396.1 398.1 398.6 399 399.9 400.4 401 400.4 399.4 398.3 390 394 395.9 396 395.5 394.2 393 395.9 401.5 407.7 414.4 420.3 428.3 440.3 457.6 460.8 459.4 453.8 446.6 436.6 425.5 414.8 402.9 390.8 381.5 369.1 357 348.1 340.5 332.4 328.4 318.6 308 315.2 319.7 324.9 326.2 326.2 325.3 323 318.8 313.4 307.7 299.9 295.5 291.1
210.2 210.5 210.8 211.3 212.4 214.3 214.8 214.7 216.5 217.8 217.1 219.6 220.5 219.8 219.9 219.7 218.6 218.2 218.2 217.5 216.4 214.7 212.9 211.9 211.4 210.5 209.7 208.9 208.1 204.9 204.5 203.8 206.9 208.5 210.3 211.7 216.5 220 223 227.2 229 234.3 238.3 243.9 244.5 249.9 252.4 254.7 257.2 261 264.7 266.4 268.1 268.1 268.6 268.2 266.9 264.6 262.6 260.3 257.8 256.3 255.1 254 253.5 253.6 253.4 252.7 251.6 249.9 248.3 246.1 244 243.9 243.4 242.2 240.9 239.4 235.7 233.8 232.9 234 230.6 223.1 211.7 214.8 223.4 232.1 236.4 238.2 241.2 246.6 255.1 259 260.6 260.9 266.7 271.6 276.5 277.7 279 279.4 282.1 284.1 285.6 286.6 288.9 292.4 294.3 296.3 298.9 300.7 302.4 304.7 307.8 309.9 311 314.1 320.1 325.3 328 329.7 332 335.8 339.9 343.4 347.7 351.5 355.2 358.4 361.6 364.2 365.7 367.9 369.8 371.6 376.3 380.4 383.1 384.4 388 390.3 391.6 393 394.3 395.7 395.7 396.2 396.8 397.9 397.8 397.3 397 394.7 390.4 387.8 389.8 390.6 390.6 389.3 390.9 395.5 401 407.4 415.3 423.5 436 450.5 465.4 463.6 459.6 453.8 445.7 435.4 424.5 413.7 400.2 387.2 375.8 366.9 354.9 347.1 339.9 332.4 324.2 314 322.5 325.5 332 336.5 339 339.6 337.2 334.1 329.8 325.1 318 310.5 301.4 298.2
209.6 209.9 210.2 210.1 211 212.6 214.1 213.2 213.6 215.2 215.7 218.3 221.1 220.3 220.1 220.2 219 218.2 217.5 216.4 215.3 214.4 212.7 211.8 211.3 210.5 209.7 209 208.2 206.9 205.4 203.2 203.5 206.2 208.1 210.9 213.7 219.4 222.4 225.2 227.2 231.4 236.4 238.4 244.9 249 251.4 253.6 254.9 258.8 261.6 264.3 265.8 266.3 266.1 265.1 265.6 263.3 261.5 257.6 255.5 254.2 253.1 252.4 250.7 251.2 252 251.8 251.5 250.2 248.9 247.5 244.8 244.2 243.7 242.2 241.7 241.7 236.2 234.4 233.2 232.1 235.6 226 214.6 214 217.4 226.1 231.5 235.7 239.8 249.7 253.3 255.4 259.8 263 267 271.4 274.5 277.3 279 279.9 282.3 283.7 284.8 287.6 289.8 291.7 294.1 298.2 299.5 301.6 302.6 304.6 305.5 307.3 309.1 313.4 320 322.9 327.4 328.9 331.5 334.6 338.5 342.6 346.4 350.2 353.9 357.5 360.5 363 364.6 366.5 368.8 370.7 374.5 378.5 381.6 384.3 386.7 388.7 390.5 391.3 392.3 392.7 392.7 394.1 394.4 393.6 394.1 394.2 392.1 390.3 387 377.6 384.9 385.1 385.7 385.9 389.9 395 400.6 408 416.5 430.8 448.4 465 470.5 462.8 457.1 450.4 442 433.7 423.7 412.6 400.9 389.5 378.1 369.1 359.8 353.3 345.4 337.1 321.4 325.9 330.6 337.5 342.1 347 349.4 351 349.2 346.5 342 336.1 330.4 320.8 315.4 308.9
209 209.3 209.4 209.3 209.6 210.8 212.3 211.6 210.6 212.6 216 217.3 218.9 218.8 218.6 218.7 218.6 219 217.1 215.4 214.3 213.9 212.8 212 211.2 210.5 209.8 209.1 208.4 206.6 205.5 204.1 202.9 205.9 208.4 210.1 213 215.8 220.8 224.1 226.7 229.7 233.5 238.4 244.6 247.7 250.5 252.6 254.3 256.9 259.7 262.6 264.1 264.9 263.3 262.8 263.4 263.4 259.8 255.9 253.6 252 251 250.3 248.9 249 250 250.4 250.5 250 249 247.7 245.7 244.4 243.3 241.9 241.4 240.3 236.2 234.2 233 231.4 229.7 225.8 213.1 210.8 214.5 222.1 233.8 235.6 237.7 242.5 250.9 255.3 260.4 265.2 268.5 271.9 275.8 278.8 279.9 282 282.8 284 286.6 288.3 289.8 291.7 294.7 298.1 299.4 300.3 302.6 302.8 303.8 305.4 309.5 313.8 318.8 323.1 325.5 327.8 331.3 333.7 337.3 341.1 344.9 348.7 352.5 356.2 359.1 361.5 363.6 364.4 366.7 368.1 372.6 377 379.3 381.8 384.1 386.3 388.9 390.3 390.3 390.1 389.6 390.1 390.1 390.7 390.3 390.1 387.6 385 381 375.1 381.2 381.6 382.4 385.4 389.9 394.6 400.4 408.3 421.8 441.9 467.4 478.2 472.5 461.7 454.2 447.4 439 430.1 421.1 410.3 399.5 389.8 378.8 370.2 361.1 355.6 347.5 337.4 323.3 330.9 337.7 344 349.6 353.8 356.6 359.5 359.5 358.7 355.2 348.9 342.5 335.2 328.5 321.3
208.4 208.7 208.6 208.4 208 209.6 209.9 209.4 208.9 210.4 216 217.6 217.1 217.1 217.4 217.9 219.1 218.7 218.6 216.9 214.4 213.8 212.2 210.6 210.2 210.1 209.3 208.7 208 206.6 204.8 203.5 203 205.3 208.1 208.8 212.3 214.8 217.9 220.4 223.2 228.4 232.4 239.5 243.4 246.3 249.2 251.8 253.7 255.8 259.7 261.7 263 263 262.6 261.9 261.1 260 257.3 254.3 252.2 250.3 248.9 248.1 247.1 247 248 248.8 249.1 248.4 248.2 247.4 245.9 244.3 242.5 241.4 240.9 239.4 235.2 233.6 232.2 229.4 227 223.1 212.1 213.2 214.5 218.8 229.2 233.7 241.2 242.5 249.6 253.5 259.1 265.6 268.5 271.6 276.3 279.4 281.5 282.6 284.2 285.4 287.6 289.2 290.2 292.1 295.1 297.6 298.6 299.6 299.9 301.2 302.4 305 309 313.2 317.3 321.4 324 327.5 330.1 332.7 335.3 339.2 343.1 347.2 351.1 354.9 357.6 360.1 361.7 362.1 364.5 367.9 370.3 375 378.3 380.6 382.2 384.6 386.6 387.8 387.8 386.7 383.6 384.7 387.1 387.5 387.1 386 383.2 381.2 378.3 372.5 377.3 379.3 378.9 384.1 388.6 394 400 409.9 427.7 452 469.3 472.2 468 460.8 452.4 443.6 434.5 425.4 416.6 406.2 396.8 387.6 377.7 368.4 361.8 353.9 344.9 332.5 333.5 337.6 341.1 348.7 353.5 359.1 362.8 366.1 368.6 369.4 368.6 364.6 359.4 350.2 342.4 333
