ncols 200
nrows 85
xllcorner 160000
yllcorner 762750
cellsize 50
241.7 238.4 231.9 228.5 223.1 222.9 223.9 221.3 218.4 216.9 222.6 218.3 218.8 221.3 210.8 202.2 188.5 192.2 201.8 214.2 221.3 237.4 247.2 243.3 222.5 231.2 219.7 219.3 204.7 204.2 195.9 192.6 189.7 192.1 193.9 195.3 200.5 211.1 226.2 232 232.4 233.7 227.4 234.5 211.7 196.8 188.7 191.3 196.4 190.3 180.7 170.7 134.9 130 124.1 142.2 154.6 158.4 172.6 174.5 167.4 168.2 173.1 162.7 157 159.7 157 126.4 114.3 116.7 115.8 100.6 93.6 80.2 81.3 91.3 99.2 109.3 115.5 110.4 99.8 96.4 108.2 132.7 129.5 155.4 157.1 139.9 131 131.6 137.1 140.3 129.3 128.6 123.4 128.8 125 123.7 111.2 93.1 74.5 61.6 57.2 63 66.3 52.3 66.5 62.3 46 55.7 42.1 56.5 55 51.3 42.3 38.3 27.7 36.4 42.9 45.8 45.2 38.1 34.7 34 32.2 31.4 40.8 45.5 38.7 32.9 35.5 41.7 46.4 41.8 38.1 40.1 42.6 31.8 24.9 17.2 28.6 49.9 56.2 70 68.3 76.6 78.8 66.6 60.1 58.5 48 46.1 47.2 45.8 38.5 49.9 60 68.3 71.2 66.5 58.6 37.8 32.3 27.9 24 22 19.5 19.1 24.5 30.5 24.1 19.7 32.9 37.9 52.6 57.2 55.1 58.8 64.8 69 61.1 43.9 49.2 52.8 40.2 35.2 44.4 51.7 54.1 50.4 38.4 34.4 37.9 41.7 44.4 46 48.5 48.8 54.7 41.3
241.8 236.2 233.3 232.1 225.1 225.5 226.5 225.8 225 221.8 230.4 225.3 223.1 224.9 223.1 210.5 194.2 196.7 202 221.5 228.6 250.4 256 253 242.9 231.7 235.3 231.8 216.6 213.8 213.2 218.8 213.7 207.9 204.5 209.6 204.5 211.2 222.2 233.9 234.9 237.9 225.8 232.4 218.9 202.4 195.5 197.4 191.3 188.2 183.2 176.2 150.2 140.7 128.8 133.7 151.2 154.5 165.9 171.4 165.7 168.2 170.8 162.7 161.1 162.7 165.8 154.5 129 125.2 121.4 110.8 103.2 88.9 77.9 84.4 91.6 95.3 107 102.1 95 89.4 91.9 99 119.1 134.5 153.6 145.9 133.4 130.5 138.6 145.3 136.5 138.3 132.1 123.9 115.5 115 102.5 91.3 83.5 68.4 61.8 75.4 78.5 65.5 79 76.6 60.5 63.5 57.2 68.4 75.7 64.3 47.2 46.2 29.6 41.2 43.7 47.2 50 46.1 37.8 36.8 34.3 39.4 46.1 52.7 50.1 41.8 34.7 45.3 52 53.5 46.4 47.2 44.5 34.7 25.5 23.8 30.9 47.1 47.3 53.4 57.9 66.1 73.6 70.5 53.5 52.1 49.7 49.1 48.8 48.1 42.9 46.1 55.7 63.5 64.6 64.8 59 45 37.3 32 30.8 25.7 21.1 20.2 30.3 38.3 32.9 25.4 29 37.7 47.9 53.8 60.5 65.8 68.5 70.1 62.2 49.1 58.3 54.9 42.9 41.9 50.5 58.4 57.4 57.4 38.8 34.6 36.4 39.3 49.6 57.4 57.8 64.3 58 61.2
243.1 234.9 235 233.5 229.1 229.2 230.6 231.6 228.7 227.9 236.3 232.6 228.3 229.3 228.7 216.9 200.2 204.4 205.6 224.1 241.9 252 262.1 260.4 250.1 237.3 242.7 245.8 233.8 231.8 234.6 234.5 248.7 250.5 232.6 216.9 209.4 217.6 222.8 228.5 231.4 232.4 225.7 227.2 210 210.1 206 198.3 196 188 183.6 172.5 159 145.5 133.1 129.3 145.4 151.6 165.8 166.4 159.5 160.2 163.8 162.7 161.3 164.3 167.4 166 155.5 137.4 122.7 113.8 104.1 95.8 84.5 83.2 84.2 89.3 95.3 96.6 91.7 85.9 85.3 85.2 109.6 133.1 137.2 141.5 132.7 129.3 129.3 141.8 142.8 140.1 131.4 113.7 106 109.4 112.6 102.5 84.3 76.3 67.1 77.2 88.9 80.8 82.9 79.8 74.1 59.4 61.4 73.5 86.1 74.6 55.3 47.6 39.7 39.3 45.2 48.3 56.1 49 40.1 40.8 41.9 41.4 50.2 55.3 56.5 49.7 39.5 50.1 56.1 54.6 51.5 48.9 52.2 39.3 28.5 30.4 43.1 46.8 45.7 50.7 59.3 65.2 68.4 65.8 54.8 59.3 53 51.7 48.7 46.1 44.3 45 56.6 64.2 67.5 69.5 71.3 53 44.3 39.3 36.6 31.9 23.2 21.6 35.1 42.1 44.2 43.1 33.1 39.9 42.9 54.6 61.9 67.9 73.9 69.7 62.4 53.6 59.1 53.2 44.6 46.5 49 55.4 56.5 52.8 44.4 39.3 47.5 56.6 61.7 61.4 68.3 73.1 79.4 73.8
244 235.8 236.9 237.6 235.3 235.7 237.3 236.5 234.6 234.6 240.6 242.1 238.8 234.8 231.4 221.2 209.4 208.1 213.8 229.7 249.3 257.6 268 269.3 260.7 247.8 245.5 243.6 244.3 239.4 240.7 237.7 250.3 260.1 260.2 244.6 229.3 223.9 232.1 230.5 229.5 228.2 226.5 213.8 210 214.3 206.4 204.5 197.2 192.2 189.7 175 167.1 151.5 136.2 137.7 141.9 146.3 153.5 157.9 153.4 155.5 165.9 163.1 162.2 162.6 165.3 179.1 165.8 152.4 123.9 113.7 106.9 103.6 95.5 86.2 84.1 84.4 84.9 88.7 84.1 84.1 84.1 84.1 88 101.3 121 128.8 124.3 121.6 122.7 131.5 127.2 125.6 120.6 119.4 115.2 109 113 110.8 92.2 81.6 73.7 72.6 89.5 96.2 97.6 94 88 75.6 71.8 75.6 87.7 72.7 59.8 51.4 41.5 38 47.7 53.2 51.7 50.8 50.9 52.4 42.2 46.8 52.5 58 60.1 57.4 46 58.1 67.4 68.5 62.7 59 58.6 45.8 33.8 34.3 44.9 61.4 59.6 59 68.3 72 66.2 60.1 63.6 61.7 59.5 51.5 50.8 48.1 47.7 51.4 56.8 69 71.3 71.8 70.5 62.1 56.3 45.4 41.8 37.1 30.6 23.4 36.3 43.3 49.4 52.8 48 47.1 55.1 52.2 63.1 69.3 81.1 71.8 66.7 61.5 56.1 47.9 54.6 49.2 47.5 49.7 51.6 56.4 64.5 60.5 52.3 66.8 70.7 76.3 84.9 84.5 88.7 84
249.3 241.2 237.4 238.6 239.7 239.2 244.4 247.1 245.4 245.2 244.6 248 249.3 244.5 240.6 233.7 218.5 214.4 219 230.5 245.9 266.8 279.3 279 270.4 255.9 251.4 246.4 243.4 242.9 240.2 245.6 246.1 259.2 267.6 270.9 250.9 252.6 235 232.5 228.8 225.3 219.1 211.2 207 209.5 206.1 204.9 200.2 195.6 194.2 186.4 176.7 160.3 143.2 146.8 138.9 141.5 147 150.6 151.5 155.3 160.3 161.2 163.4 163 168.3 172.8 169.7 158.3 139.8 124.7 113.2 111.5 103 96.6 85.2 84.1 84.1 84.1 84.1 84.1 84.1 84.1 84.1 86.9 103 110.3 112.2 118.1 123.3 124.2 129.6 135.7 133.9 128.1 124.7 113.9 112.6 113.2 95.8 87.2 89.1 74.4 89.8 106.7 107 107.3 97.3 90.7 86 77.3 86.7 76.2 65.7 51.3 36.9 41.1 48.6 52.4 52.4 51.9 49.8 46.2 51.1 49.8 53.5 58.4 66.8 64.4 55.1 67.9 71.6 76.7 75.2 73.5 69.6 54.9 37.3 34.1 41.9 68.4 71.1 69.3 72.3 71.2 72.7 77.6 76.4 73 63.1 56.2 50.8 51.5 49.8 54.1 55.9 63.6 71.1 78.7 79.3 71.5 67.8 54.5 50.6 41.2 34.6 28.5 43.5 48 54.3 56.3 54.9 44 62.1 63.7 62 71.7 81.8 79.2 71.8 65.6 53.5 48.8 56.8 54.6 48.9 49 54.2 63.4 77.9 79.2 68.7 70 82.1 87.9 96.7 90.8 93.3 95.4
246.5 241.8 237.9 237.7 238.3 239.3 246.3 255.4 255.4 253.5 252.3 252.6 254.5 253.5 251.5 248.3 233.4 223.9 227.2 235 251.7 263.2 281.2 281.1 272.1 262.1 263.8 251.7 247 249.4 253.6 245.4 250.9 259 271.1 274.2 266.1 256.4 248.2 238.5 227.7 218.7 216 211.6 202.9 204.6 204.5 205.7 204.7 201.6 197.4 192.9 181.2 165.9 154.5 158.8 143.9 143.7 157.8 169.9 185.7 205.1 194.4 209.3 197.8 195.4 211.3 204.1 201.4 175.5 160 139.8 125.4 114.5 110 96.8 91.7 93 84.1 84.1 84.1 84.1 84.1 84.1 84.1 84.1 98.2 116.7 129.8 134.6 138.9 141 132 133.5 141.8 138.3 134 119.6 115.9 115.3 104.8 98.6 93.8 86.5 103.5 107.9 109.9 110.2 106 100.5 91.4 88.9 94.3 82.8 70.3 54.9 45.3 43.4 55.2 55.2 53.8 52.4 48.4 48.3 52.4 52.7 55.4 59.9 66.9 69.6 60.5 76 75.4 83.1 82.4 77.7 79.5 62.6 39.3 36 42.7 85.4 89.3 83.6 89.6 96 89.9 89.8 87.8 77.7 67.3 67.4 68.4 56.2 47.3 49.5 51.3 61.8 73.3 84.2 89.4 82.9 77.5 64 58.9 50.6 44.3 35.2 45.3 56 61.9 60.5 60.1 51.8 57.2 71.2 67.5 71.8 84.6 85.2 73.7 63.9 50.5 53.7 57.9 54.3 51.9 58.9 63.2 65.7 81.8 81.1 88.3 90.3 89.8 93.9 106.7 107.1 102.6 111.8
255.1 247.5 240.2 239.3 239 240.1 247.6 256.6 263 260.5 264.3 266.1 260.7 261.5 258.9 260.9 243.2 238.4 235.4 243.1 260 262.8 271.8 274.5 273.7 267.9 264.4 262.1 253.6 250.9 257.1 250.3 249.6 258.2 274.5 280.8 278 260.3 255.8 244 230.9 221.7 216 207.8 200.9 201.4 203.3 202.3 204.9 206 203.8 198.1 178.7 174.3 165.1 172.1 165.1 153.3 165.2 184.5 196.5 213.8 230.8 230.8 239 240.1 242.1 242.5 228.9 230.1 201 175 150.4 127.2 122.3 124.5 110.8 98 97.2 84.1 84.1 84.1 84.1 84.1 84.1 84.1 94.6 100.7 120.4 137.1 143.8 149.6 153.8 151.2 137.8 139.3 139.5 138.3 116.9 124.4 109.4 100.5 99.6 97.1 115.6 126.7 119.6 118.4 108.2 103 92.3 88 96.1 86.3 69.6 59.8 46.3 49.4 52.2 58.8 53.4 49.2 52.3 58.8 58 58.6 57 65 71.3 75.2 67.3 85.9 87.5 92.7 90.6 83.1 82.2 72 51.5 45.2 62.9 96.6 103.4 96 93.6 103.5 102.5 99.9 97.2 86.2 78.6 78.1 79.6 69 54.2 47.2 47.1 59 67 84.8 96.3 94.3 85.7 75.7 65.6 59.3 48.5 47.1 45.8 54 68.2 69 64.1 54.3 52.5 60.9 66.6 75.1 88.7 93.1 74.6 59.8 57.8 56.6 59.1 58.2 58.5 62.8 68.6 70.1 79.7 86.4 109.8 117.6 105.2 100.2 110.4 117.8 107.7 120.5
266.3 252.5 245.9 242.5 240.5 241.5 244.5 257.3 263.5 265.8 270.1 276 276.8 267.9 264.6 260.2 249.9 245.9 245.9 247.2 267.1 268.7 272.6 277.2 275.2 273.7 272.4 272.3 269.8 266.7 262.4 262 257 258.3 266.8 282.1 283.4 274.7 256.5 251.7 234 222.2 217.3 211 200.2 199.2 199.2 199.8 204.1 208.9 207 205.7 182.8 181.5 169.9 191.3 187.2 168.6 170.8 198.7 218.1 233.6 240.9 239.1 251 261.6 260.8 262.7 253.5 245.4 231.2 217.4 189.6 153.4 130.6 125.3 115.1 109.7 99.9 84.7 84.1 84.1 93.7 97.5 83.8 84.1 88.8 91.3 99.6 126.8 139.5 148.2 163.1 168.4 144 144.2 146 146.7 125.7 123.4 118.3 106.5 104.6 105 118.7 125.8 126.3 123.6 119.3 108 94.8 91.6 86.6 81 66.7 56 50.2 54 59 59.4 58 62.7 69.8 73.7 69.1 65.7 66.8 68.9 74.2 80.1 70.8 94.3 88.3 103.6 101.3 89.6 82.3 74.9 64 59 85.4 114.6 117 108.9 97.6 102.9 106.3 106.2 98.9 90.5 91.1 89.5 84 76.4 62.9 57.4 46.5 56.9 62.2 75 92.7 102.8 96.4 88.9 83.7 74.6 58.1 50 47.1 51.4 61.4 70.5 66.2 56.2 59.7 63.6 69.6 76.4 93.8 93.6 74.2 58.7 64 63.8 63.1 63.5 64.9 69.6 72.5 72.6 74.1 91.1 118.5 138.5 131.8 112.3 116.6 121.1 119.7 129.5
268.1 257.5 246.8 244.1 241.9 241.5 246.4 259.8 265.7 270.2 270.7 279.5 283 282 269.7 266.4 261.2 250.6 251 255.8 270.2 273.5 278.7 277.6 275.8 275.9 276.4 280.8 273.1 271.5 275.3 268.1 266.3 258.4 264.3 270.3 275.6 272.1 254.6 246.8 232.4 224.2 210.8 206 200.4 196.9 195.9 197.5 197.8 206.1 206.7 202 192.4 187.5 178 193.6 198.1 180.2 184.7 193.2 215.3 234.6 237.5 237.1 245.1 260.4 268 266.9 260.2 252.5 246 231.5 208.4 181.1 154.5 135.9 129.3 111.3 109.6 97.2 87 84.1 88.2 119.2 104.6 95.1 90.6 92.6 97.8 108.7 126.4 141.1 150.1 156.9 151.1 147.4 146.4 144.5 128 124.6 121.5 115.6 104.7 105.1 108.3 115.6 124.4 125.5 119.6 107.5 93.3 90.9 89.4 79.3 67.2 66 61 65.9 73.5 69.9 67.5 70 73.4 80.3 80.1 76 79.3 82.5 86.3 85.1 67 93.4 94.2 109.9 109.5 104.3 90.4 87.2 67 70.4 95.1 112.7 130.1 123.8 115.2 109.3 98.9 107 103.6 96.4 99.1 92.6 89.3 83.9 72.1 58.2 47.8 55.6 64.8 66.5 79.8 100 104.2 101.2 91.8 88.3 76.7 71.3 66.1 60.9 64.2 63.1 64.4 62.1 63.5 69.3 75.1 85.1 96.6 101.2 75.9 57.5 68.7 68.2 67.9 69.5 71.3 76.3 75.9 73.8 79.6 96.2 118.7 142.8 142.7 115.9 121.3 127.3 126.8 132.5
277.3 262.1 250.5 247.5 247.2 249.4 250.1 257.2 265.6 272 274.5 282.6 282.9 281.4 280.9 279.7 273.2 258.4 256.5 264.5 281.2 283.4 282 285.2 279.9 278.7 278.5 277.8 276.8 275.4 271.1 270.2 268.4 264.3 265.2 266.5 270.8 270.6 261.1 240.2 231.1 216.2 206.3 199.3 191.9 189.5 189.9 189.8 190 196.9 206.4 199.9 196.3 196.2 182.3 197.3 204 190.3 199.2 194.9 211.8 227.2 236.6 233.2 240.5 251.1 250.1 257.2 260.1 259.3 261.3 256.9 249.6 232.1 188.5 149.8 138.4 134.5 115.5 108.4 92.1 84.1 85.2 98 109.2 109.1 94.7 91.2 103 109 118.2 131.5 143.4 148.1 145.5 142.1 135.6 133 134.4 132.9 131.9 121.9 113.4 107.8 109.5 110.7 112.9 115.4 109.6 101.6 92.6 95.4 90.7 80.8 72 67.5 60.4 72.8 78.4 74.5 75.5 78.1 74.6 85.1 86.2 82.8 85.9 90.6 94 97 76.6 99.9 101.3 104.2 116.2 115.4 106.5 91.2 78.2 84.5 103 112.1 127.1 139.1 126.5 118.7 112.5 105.3 105.7 103.6 100.8 96.1 91.9 84.5 74.7 67.7 55.5 58.8 66.6 69.6 73.5 91.8 104.2 107.6 98.3 95.5 87 75.7 75.7 69.5 68 63.2 64.5 63.8 63.3 68.1 83.6 91.3 104.4 99.4 78.1 57.2 70.5 75 73.1 70.8 77.2 81.2 80.9 79.1 83.5 99.6 117.7 143.9 145.5 120.4 130.3 132.3 135.7 135.9
284 272.5 256.5 257.2 257.9 259.6 261 260.1 261 273.6 274.7 289.9 296.6 299.6 295.1 295.4 284.2 273.1 270.3 273.1 286.2 302.2 293.6 288.1 285.3 282 281.2 280.5 281.8 286.2 278.9 270 267.1 267.9 271.7 269 267.5 268.6 263.1 246.5 227.3 219.4 208.7 204.5 195.1 194.6 196 198.9 195.1 194.4 189.6 191.4 188.8 187.1 191.2 203.1 207.9 197.6 203 199.6 213.2 225.1 233.4 227 238.4 250.4 261.4 268.1 279.5 276.9 270 265.2 260.5 255 223.5 182.3 149.7 141.9 121.7 118.3 96.5 94.6 90.5 105.2 108.3 115.9 106.6 89.5 91.9 104.4 109.4 126.1 130.5 142.5 144.9 141.1 135.4 133.6 138 136.6 138 131.4 125.6 118.7 122.3 123.8 121.1 121.1 116.6 102.5 98.7 95.4 91 80.9 71.9 62.6 67.1 76.7 78.6 77.7 80.9 85.3 78.2 81.1 93.5 88.2 94.3 96.8 98.7 102.7 82.5 92.3 105.8 110.1 122.5 126.9 117.4 92.9 86.7 97 104.2 113 127.1 135.4 135.1 130.9 122.4 111.4 106.9 106.6 107.2 102.2 100.6 92.9 78.7 74.3 66.2 54 59.1 65.8 77.2 77.5 101 109.9 107.3 100.2 93.4 83.4 81.2 75.4 77.7 64.9 68.3 66.2 65.5 70.1 89.9 98.4 98 101.6 79.3 57.9 71.6 77.1 76 71.3 72.4 78.9 82.6 83.2 88.4 99.9 118.1 140.9 149.9 127.2 140.5 144.2 147 139.6
293.3 282.8 267 261.5 268.3 275.5 271.3 273.1 275.1 273.9 277 294.4 301.1 306.6 307.4 308.6 303.9 282.3 279.6 279.8 291 307.2 303.8 289.8 288.1 287.4 283.5 281.6 282.6 284 286.2 273.3 269.9 270 274.2 274.8 268.4 266.9 262.9 253.9 232.4 214.3 202.8 199.5 196.4 197 196.8 196.4 200.7 204 207.1 208.2 213.2 205.6 198.7 210.1 211.5 205.6 206.1 216.7 217.8 229.2 224.7 225.7 240.7 265.3 274.8 286.8 284 285.1 279.6 277.5 270.2 263.7 245.1 201.4 169.6 148.8 134 124.4 112.2 106 105.2 113.7 122.5 124.2 117.3 97.8 95.2 98 106.3 113.5 127.5 133 154.1 154.6 148.5 140.1 137.8 140.7 141.6 138.8 129.9 130.1 130 133.4 130.4 123.6 120.7 103.3 108.1 98.6 89.3 83.5 72.2 70.1 73.2 82.5 80.5 83.2 84.4 85.3 84 82 89 92 101.6 103.9 110.4 108 87.4 81.8 111.4 119.8 123 132.5 128.2 108.3 85.2 98.1 107.9 115.3 121.3 130.5 139.1 140.3 140.9 130.4 126.9 123 109.6 107.4 104.4 94.1 86.5 80.4 75.5 62.4 54.9 66.5 69.5 79.4 88.8 114.4 115.9 105.9 102.5 92.6 87.7 82.8 88.1 84.8 72.4 70.4 67.8 72.9 91.9 103 94.5 98.3 74.9 57.9 67.6 76.9 74.8 71.7 69.1 75.8 80.7 85.8 91.5 111.4 131.8 136.2 152.7 149.3 143.2 150.9 147.2 144
308.1 295.6 277.4 262.6 273.8 284 287.4 286.5 286.4 286.6 278.6 294.1 307.3 312.4 316.2 316.6 315 295.6 289.9 289.7 297.4 307.9 299.7 289.3 288.5 290.3 287.7 285.2 281.7 280.5 283.7 278.5 272.8 269.7 275.7 276.4 271.4 267.9 265.8 250.7 236 218 201.9 197.3 193.6 198.4 201 198 199.3 203.7 207.2 208.2 215.5 207.5 203.6 209 211.8 207.8 213.2 223.9 216.5 225.8 228.9 226.6 245.7 259.1 271.5 285.1 296.9 290.8 289.4 289.2 282.9 274.5 260.7 226.3 190.7 160.1 139.3 124.2 130.4 121 115.8 117.5 121.2 134.8 122.6 116 115.5 113.9 114 124.7 117.2 126.3 147.1 156.3 156.5 147.4 144.6 146.7 147.7 146.8 135.4 138.1 146.7 141.6 137.1 125 118.8 107.1 109.4 101 92.6 85.2 69.4 72 79 82.8 89.2 89.2 93.3 96.5 93.8 91.6 85 91 98.9 102.9 106.7 98.4 90 81.3 108.8 124.5 129.6 136.1 138.9 128.3 104.1 99.8 111.6 116.8 108.5 123.3 131.8 148.9 152.5 140.1 135.5 132.5 129 123.9 110.7 94 89 79.8 73.1 64.2 56.4 65.4 70.7 79.6 83.6 100.6 118.1 112.5 108.3 97.6 90.8 87.6 93.1 95.2 77.6 77.3 78.1 72.6 93.3 98.7 92.6 90.6 67.6 57.9 63.5 71.4 70.4 69.2 68.6 76.3 78.8 87.5 92.2 110.4 130 149.1 155.7 159.2 144.3 159.7 158.1 156.2
317 309.7 293.1 276.2 278.7 286.9 293.5 296.7 299.7 297.9 291.8 292.6 305.5 316.2 326.6 324.2 333.6 311.3 310.7 300.2 313.4 311.4 311.1 302.4 291.7 302.1 307.3 300.3 288.5 281.4 278.1 277.9 273.7 273.7 272.4 279.9 276.3 272.7 269.1 250.8 237.7 227 206 200.3 198.9 193.8 203.5 200.4 199.4 202.1 206.4 208.8 213.6 208.8 207.6 203.9 213.1 213.1 218.5 226.1 222.9 226.9 234.5 230.9 247.8 256.3 279.7 287.1 297.1 306.7 302.4 296.3 302.2 283.3 280.4 255.2 217.7 182.1 154 137.7 134.5 137.3 137.6 129.7 124.1 131.5 132.8 122.5 125.4 137.3 132.6 145.6 130.8 124.7 146.4 149.4 150.2 150.6 146.6 149.6 150.9 151.5 142.3 139 150.6 150 146.9 130.4 126 121 112 104.9 96.9 83.6 70.8 74.2 78 86 85.4 96 101.5 106.6 101.6 100.6 94.6 91.2 95.6 97.6 98.8 97.6 96 86.3 107.4 122.4 135.9 140.5 143.1 132.6 116.1 96.5 107.1 115.2 108.5 114.6 126.3 143.7 150.4 146.6 141.2 136.8 130.5 121.6 114.6 105.3 90 81.1 68.5 70.1 65.8 60.2 71.1 78.5 82.5 89.1 113.1 116.9 111.2 107.5 96 96.3 97.2 99.2 88.4 85.8 87 82.1 85.2 95.1 90.1 78.4 63.3 57.9 60.3 64.6 66 66.4 69.3 76.9 81.2 88 92.1 104 124.8 151.3 163.1 161.4 155.5 159.9 164.9 162
327.9 317.8 312.1 290.2 285.3 291.9 298.1 305.9 312.8 312.9 300.1 298.2 305.7 326.1 338.3 332.6 339.9 334.8 323.4 318.1 318.7 323.1 318.5 316.2 304.3 303 307.9 312.6 303.4 290.1 286.8 278.4 274.6 273.4 273.4 279.2 287.7 279.1 274.1 259.9 242.4 228.7 222.3 206.4 201.4 196.5 202.2 206.4 202.2 201.4 206.4 213.7 212.9 210.6 209.8 205.3 220.8 215.2 217.4 234.1 240.8 232 234.7 237.4 249.6 258.7 272.6 293.8 291.9 312.2 321.5 315 315.1 304.6 288.1 277.4 249.5 222.4 194.6 164.7 148.8 142.9 142.8 140.2 135.5 132.4 137.5 134.7 125.3 138.4 145 157 163.5 145.2 139.5 142.4 144.5 152.6 149.3 151.8 153.8 155.5 145.3 146.5 147.2 149.7 147.8 135.4 132.4 126.7 115.2 112.8 105.1 89.7 80.2 83.3 86.2 84.6 91 93.9 102.5 108.9 106.1 101 98.7 95.9 101.2 98.9 100.4 99.8 99.3 87.5 108.4 123.9 134.4 141.9 145.2 142.3 124.1 104.8 106.8 110.2 108.5 108.5 116.9 135.9 143.7 150.9 147.2 142 137.9 128.9 121.1 113.2 103.8 85.3 75.3 78.7 75 67.5 68.3 79.2 81.7 91 94.9 114.2 112.9 110 100.7 98.1 101.2 107.7 96.4 94.5 93.2 89.5 93.8 89.7 82.4 72.3 60 58.9 59.6 59.1 65.6 69.7 69 75.1 79 87.5 92.2 105.8 127.9 145 161.7 163.7 163 164.8 166.4 159.8
331.2 325.8 324.4 303.6 292.2 295.8 301.8 312.8 323.4 322.1 312.6 303.8 313.1 320.9 345.1 341.1 344.2 347.6 333.3 328.8 325.3 335.1 324.5 339.5 320.5 305.3 309.9 308.2 306.7 294.6 293.3 284.5 278.6 274.6 273.9 279 284.9 281.4 277.3 264.3 251.6 232.4 228.2 224 204.1 204.4 202.6 214.5 215.1 204.7 206.3 211 212.2 211.1 209.8 209.4 215.5 216.6 221.7 236 259.8 238.6 237.4 244.6 255.2 257.9 270.7 286.9 289.9 305.6 322.1 323 322.6 316 293.8 283.3 269.2 248.4 221 210.3 183.3 160 149.2 143 148 149 146.7 137.8 130.4 133.1 146.7 157.9 168.1 157 157.7 144.9 146.2 159 155.4 156.1 156.9 157.8 151.3 150.5 148 151.7 149 139 136.2 130 120.3 119.6 112.1 88.2 91.1 88.6 88.7 87.6 98.2 100.7 98.6 97.9 98.9 101.8 101.7 101 103.1 102.3 103.2 101.1 99.5 91.8 117.6 124.9 137.8 148.4 153.6 148.8 139.2 125.5 107.7 110.5 108.5 108.5 108.5 130.8 146 153 150 147.6 140.1 134.3 129 117.6 104.5 84.9 76 78.1 78.5 73.5 66.6 70.9 79 89.6 100.9 99.2 115.2 110.9 102.7 99.5 107.2 111.4 107 99.9 107.4 98 101.3 101.4 93.8 75.8 58.5 57.8 58.5 62.1 65.4 75.8 72 72.1 77.6 85.9 91.5 103.8 127.9 142.1 150.1 161.7 168.5 165.4 159.3 152.6
338.9 330.9 332.3 322.6 303.4 304.5 307.7 312.4 319.9 328.6 327.3 314 315.5 330.2 336.9 346.1 362.2 359.8 351.7 341.6 332.4 338.7 332.6 342.3 346 324.9 311 310.8 306 299.8 295.4 287.7 282.9 280.5 278 277.7 293 287.5 281.2 271.1 259.6 242.6 234.9 226.5 218.1 207.8 201.9 210.6 218.2 214.1 207.4 211.9 215 212.1 209.2 211.6 208.9 213.8 223.1 244.2 259.9 258.1 243.7 245.5 265.4 266.7 265.3 289.2 297.3 303.2 319.7 325.3 328.4 321.5 304.4 297.1 271.2 258.9 234.8 220 209.2 181.2 163.7 152.9 153.7 170 163.2 144.3 137.7 136.8 141.9 155.8 159 158.2 165.6 157 146.8 152.4 157.5 157.8 161.9 160.1 155.1 150.8 152.7 154.9 154.3 151.4 139.9 131.5 123.7 119.8 117.7 92.5 89.8 89.9 89.2 88.3 89.3 97.8 102.1 109.1 102 102.1 102.5 103.9 104 102.8 100.7 100.1 98.4 94.4 111.2 138.2 137 155.3 162.4 161.1 148.9 137.9 125.9 112 108.5 108.5 108.5 130.7 142.5 152.8 150.7 148.7 144.1 136.3 127.1 115.1 100.5 86.2 77.1 76.4 80.8 76.7 69.2 69.1 70.8 88.3 102.3 101.7 111.3 116.5 105.1 100.4 102.1 107.7 108.6 106.1 110.4 109.7 104.6 105.6 97.5 81.4 60.3 56.7 58.6 66.4 73.4 81.4 83 86.3 84.9 82.5 88.4 97.4 114.2 128.1 140.2 153.4 164.7 157.7 158.9 148.3
350.1 340.8 334.3 328.2 318.8 313.9 315.3 319.3 321.2 328 341.5 319.6 322.1 336.4 343.8 347.1 369 367.8 362 349.5 340 344.4 345.9 343.4 349.2 340.8 327.2 311.2 308.2 304.6 293.1 289.1 288 282.2 282.9 280.2 290 288.5 287.1 283.2 270.7 257.9 247.8 241.9 227.8 218.1 210.6 214.5 216.1 215.5 213.3 211.8 217.7 214.8 211.4 212.8 209.7 221.8 224.5 243.5 265.2 275.3 255.7 248 253.8 271.3 262.4 279.5 296.5 300.8 317.8 326.4 332.4 335.3 310.1 295.9 271.8 263.1 249.7 233.7 230.5 201.4 186.7 167.4 164.5 177 169.9 154.1 147.4 142.9 145.4 147 151.7 164.1 171.2 163.6 151.4 148.5 156.8 159.6 163 160.9 158.6 156.4 156.7 157.4 156 157.1 150.2 132.5 124.1 117.1 106.2 88.6 93.6 92.3 92.7 104 105.8 106.8 108.2 106.6 105.5 111.3 105.7 110.5 111.7 106 107.6 104.1 101.3 95.6 107.7 136.8 139.3 159.3 164.7 172.1 168.1 155.2 131.2 121.5 108.9 108.5 108.5 134.4 144.2 160.5 151.8 150.3 148.8 137 130.2 119.4 105 90.3 81.2 76.5 78 77 70.7 71.5 74.8 84.2 96.2 107.1 102.8 111.8 107.6 103.9 102.3 103.2 103.6 105.2 111.6 115.1 109.6 104.6 96.8 80.1 60.9 56.7 58.9 65.5 74.8 85.1 90.4 95.4 94.8 93.9 106.3 95.9 106.7 118.3 131.4 143.5 153.5 145.7 148 140
354.3 351.8 336.7 333.7 330 323.7 321.3 329.9 331 330.7 335.9 328 328.7 341.9 359.7 370.6 365.5 374.9 375.3 363.6 353.2 354.4 356.8 349 350.7 349.5 344.6 329.2 312.5 311.5 303.8 292.2 288.7 287.1 286.9 288.9 291 290.3 294 292.2 279.4 271.4 258.1 249 239.8 231.5 213.6 213.4 218.2 218.7 219.3 217.5 218.8 213.7 213.8 214.1 210.9 222.7 227.6 242.7 267.9 277.2 272.1 252.9 252 265.2 271.5 279.5 293.1 297.9 311.4 321 325.3 329.9 322.9 302.6 285.2 265.1 255 242.2 237.6 232.8 221.2 196 177.1 182 186.5 167.2 152.6 146 145.5 146.1 146.8 158.7 169.9 163.5 154 151.4 163.1 164.9 166.7 162.9 162.1 161.3 165.1 157.7 157.1 155.5 149.2 131.4 118.3 109.1 93 89.1 95.3 97.4 100.7 108.4 114.1 108.3 116.5 117.7 107.7 121.6 122 109.2 120.5 122.3 119.6 106.4 101 97.8 116.3 139.1 144 157.2 162 173 182.7 174.4 153.9 140.2 123.9 110.9 108.5 112.6 119.9 137 151.5 145.2 146.4 137 127.3 117.7 102.5 92 85.3 78.1 79.8 80.3 71.6 81.3 79.5 86 89.6 103.2 107.2 106.3 109.6 106.2 103.3 103.4 103.3 105.2 115.8 122 118 109.3 95.2 80.1 65.3 59.3 60.9 65.1 73.3 86.8 97.1 99.7 99.3 99.3 111.5 116.9 119.6 115.8 121.2 130.7 135 134.5 138.6 130.4
360.6 355.5 343.1 342.3 336.8 333 325.4 333.4 337.8 336.3 340.1 336.5 337.3 351.1 376.7 389.9 401.7 385.5 385.1 379.2 378.9 365.4 368 357.4 360.2 362.7 351.1 338.4 328.4 320.6 316.3 300.9 289.3 289.1 290.6 297.4 296 301.7 300.5 299.2 287.2 277.3 266.8 254.2 246.7 238.8 226.3 216.6 220.6 224.3 221.6 221.8 224.3 216 218.6 223.2 219.4 224.8 232.7 238.3 265.9 271.9 270.5 255.5 252.2 261.4 277.7 281.4 290.2 289.1 298.2 315 317.2 323.9 319.2 306.2 286.4 269 259.6 259 254.5 250.9 242 231.6 189.5 183.5 190.9 176.1 161.9 148.6 146.1 149.6 149.8 147.8 161.8 163.5 153.1 151 160.8 173.3 171.9 167.8 165 164.2 163.8 161.2 159.3 158.5 143.2 128.7 109.6 91.5 93.5 96.9 105.2 99.5 107.7 111 114.2 111.3 126.8 130.2 125.6 128.6 130.9 128.4 119.6 125.2 125.1 116.7 111.1 100.3 118.4 148.2 149.3 161.8 178.2 179.5 175.9 179.9 173.9 153 135.2 127.2 121.1 117.3 108.5 109.5 118.4 130.6 137.5 129.8 123.3 117.6 108 97.4 89.3 81.4 78.5 88.9 80.3 75 81.9 90.6 93.8 92.9 104.4 108.4 108.8 107.6 105.5 104.2 105.6 102 113.2 124.2 125.7 119.5 101.1 79.4 65.8 62.2 64 67.6 73.9 89.6 101.9 104.6 103.4 100.8 109.8 120.4 127.7 139.1 143 135.1 131.8 127.8 127.8 127.8
365.2 366.2 357.6 350.3 341.6 344.8 332.7 333.9 342.2 348.4 352.3 350.7 345.7 358.2 374.3 389.1 409.4 422.1 396 388.3 388.1 375.4 375.4 372.5 366.5 372.4 359.6 346.8 339.3 328 324.6 320 302.3 293.6 294.4 299 300.2 300.5 301.8 303.2 297.5 285.4 272.1 257.8 250.9 242.3 233.5 224 221.1 226 228.3 223.6 227.1 221.5 225.8 227.1 227.9 233.7 236.5 239.5 257.6 281.4 291 269.2 260.3 260 262 267.1 272.6 278.9 284.3 308.9 314.7 324.3 321 310.1 300.6 273.6 258.9 260.6 271.5 255.6 254.5 238 204.5 184.6 185.3 183.5 171.8 155 150.9 150.7 154.7 161.3 164.5 161.2 151.1 152.5 152.3 166.9 175 172.3 167.6 167.7 163.7 166 160.1 153.8 143.2 125.2 104 90.4 101.7 104.2 107.7 106.8 110.9 113.7 113.2 109.4 127.6 126.3 128.7 134.9 134.6 136.3 131.2 126.8 126.6 122 116.1 103.7 124 147.1 153.1 169.6 177.5 188.8 184.4 186.6 180.8 164.1 137.2 140.2 133.1 136.6 120.2 108.7 116.9 120.1 120 118.6 123.3 120.8 107.4 100.5 92.8 79.8 80.4 88.4 89.5 74.5 78.1 86.5 99 97.2 99.6 108.9 111.7 108.9 107.3 105.3 106.9 101.4 102.1 121.3 124.2 122.3 102.8 84.4 67.3 62.5 66 71 81.7 92.9 103.7 109.5 106.2 102.8 110.8 119.2 126.9 136.8 144.6 141.4 136.2 132.1 136.5 127.8
366 373.2 369.7 356.1 355.3 346.3 342.4 337.5 346.1 359.9 365.4 361 362.2 364 378.9 385.3 409.5 434.6 418.3 393.8 393.7 386.1 387.6 388.6 373.1 377 372.8 370 349.4 331.3 326.5 328.1 325.9 301.9 295.6 305.5 311.9 311.8 303.6 309.8 309.9 290.4 275.8 264.7 257.2 247.9 238.9 229.9 225.9 224.6 230.9 226.7 226.1 222.1 227.7 227.2 230.1 233.5 238.2 248.5 254.7 282.1 295.8 290.5 280.4 275.1 279.1 275.1 276.9 284.3 281.8 295.1 314.5 319.2 318.3 306.7 302.6 278.4 266.9 260.3 279.8 268.1 272.7 255 233 198 184.2 190.3 184.7 165.9 155.6 153.5 154.2 174 179.8 160.9 151.8 151.1 152.9 158.8 175.2 172.6 169.3 168.4 165.9 165.4 159.5 153.5 139.6 121.2 105.5 96.3 101.1 107.5 110.5 111.4 114.2 118.1 110.8 113.7 123.3 123.3 123.3 131.1 141.3 141 139.9 135.2 126.7 125.7 118.3 109.9 123.8 149.1 161.1 164.5 184.4 193.5 197.2 188.5 172.9 166.4 144.2 151.2 143 128.6 122.3 111.2 116.2 118.7 119.7 118.3 117.4 111.7 101.9 97.9 89.8 81.2 80.7 87.7 90.8 75.1 80.8 90.7 95.4 99.3 96.3 108.1 110.2 109.4 109.6 106.2 105.3 103.2 98.1 108.1 120.8 117.2 103.8 89.4 71.7 64.6 68 73.6 85 96 108.8 110.3 107.7 105.6 107.2 117.6 130.7 134.9 141.1 138.1 138.7 138.3 142.2 129.5
370.2 373.8 373 361.2 366.4 357.2 349 343.3 348.4 357.5 370.4 370.9 373.4 375 377.5 382.4 398.8 430.6 435.7 411.3 396 392.2 394 398 381.4 376.5 375.9 380.6 364.5 344.6 330.8 328.4 325.2 314.2 301.8 306.4 317.4 328.6 326.9 313.5 320.5 297.6 284.6 268.9 262.2 252.9 244.2 238 232.1 227.8 226 228.1 227.4 222.1 221.6 226.7 230.9 236.9 237.1 253 257.7 275.2 293.8 299.6 295.1 290.4 292 295.7 290.9 285 293.4 307.4 317 321.2 317.9 305.8 298.3 280.4 272.9 262.2 276 273.5 287.8 269 256.4 229.8 192.1 186.8 190.3 175 161.2 153.9 154.2 161.6 176.4 172.7 155.4 151 150.4 153.3 167.7 171 167 169.4 164.6 159.5 151.4 142.9 140.4 127.9 111.6 93 102.6 114.5 116.3 115 115.3 114.2 112.5 113.7 122.9 127 127.3 131.8 132.8 138.2 142.1 136.8 128.4 125.1 121.1 111.2 126.8 139.8 162.8 169.3 180 190.2 200.3 196.2 180.8 166 155.4 156.4 148.2 128.5 117 108.9 110 118 119.9 123 128 119.8 110.6 101.6 89 79.7 79.6 80.8 88.5 77.5 78.9 92 101.3 96.9 98.2 95.1 113.7 109.4 108.3 105.7 104.2 102.6 96.2 103.6 115.7 113.4 105.9 92 71.1 66.3 66.2 72.5 85.8 97.3 109.6 110 108.8 109.7 112.6 115.6 126.2 130.5 131.3 137.8 148.3 140.9 139 132.7
375.1 379.9 374.6 367.3 371.3 360.2 358.4 355.9 351.3 357 367.4 377.3 377.9 393.8 385.2 383.1 395.9 422.2 430.1 418.5 398.7 391 389.3 391.7 382.1 379.2 380.5 384.9 374.9 356 342.1 331.7 330.5 320.1 312.4 311.8 317.2 330.4 322.9 316.7 327.1 305.1 285.3 273.7 265.5 256.9 249.4 244.8 238.9 234.8 229.1 229.4 229.5 224.5 221.8 226.6 232 248.8 237.8 246.3 263.1 282.2 299.2 307.5 302.6 306.1 300 308 305.3 302.9 306.7 317.1 335.1 323.4 327.6 309.4 299.3 281 274.5 262.2 270.1 277.6 291.5 280.4 268.3 237.4 212.1 190.8 197.5 193.5 175.8 161.4 154.4 156.2 162.1 164.6 155.7 150.7 150.5 155 156.4 159.8 163.4 166.7 161 157.3 159.6 149.9 147.5 130.4 115.9 94.7 105.7 114.1 117.8 117.5 116.9 121.5 115.5 114.9 120.4 125.6 128.9 135 138.2 146.6 156.1 144.8 138 131 126.2 119.7 126.1 136.3 155.5 166.2 183.1 187.2 199.3 201 191.7 156.9 154.8 159.4 149.5 138.4 110.5 106.3 97.2 110.4 115.9 122.9 124.4 128.5 119.2 108.3 93.7 78.6 75.5 78.9 80.7 83.5 72.7 90.5 96.6 99.8 90.7 91.1 109.2 113.8 109 106.9 102.8 97.7 95 102.2 115.8 110.9 101.7 90.2 72.4 65.1 65.5 70 83.9 95.7 107.9 109.7 111.2 110.9 115.8 115.5 123.4 129.4 134.5 145.9 158.3 147.9 141.8 138.6
383.1 382.1 375.7 373.1 375 370.1 370.4 363.5 357.8 361.1 366.5 373.1 380.2 393 388.4 384.6 387.5 413.6 423.2 421.6 413.6 395 387.6 388.4 381.5 382.5 384 391.4 380.3 368.6 348.4 337.2 333.8 329.3 332.8 330.2 319.7 328.7 329.9 323 323 308.3 288.6 276.5 265.8 260.9 255.7 248.2 245.3 238.6 239.2 232.8 230.7 227.5 224 226.8 232.8 250.2 245.5 246.6 268.3 291.9 305.9 310.9 304.3 309.1 308.8 309.9 307.3 310.1 310.4 321.7 335.2 337.8 332.4 317.9 306.1 291.3 279.8 264.1 262.2 280.6 293.4 283.5 271.7 259.8 235.5 205.3 197.2 200.1 192 180.7 168.4 163.3 162.3 166.5 153.5 150.9 150.1 151.9 157.1 158.8 163.8 163.5 161.6 162.4 155.9 150 141.3 128.1 115 98.7 99.1 115 121.2 122.6 119.7 118.3 116.4 125.6 138.3 141.5 134 140.8 147.8 150.7 162.4 153.3 146.9 143.6 138.8 125.8 134 147.7 157.5 167.9 176.2 180.7 192.5 203.6 202.1 170.2 156.2 153.4 143.3 141 118.3 103.9 92.5 92.5 102.8 119 125.9 123.1 121.5 110.5 96.5 79 75.3 76.2 77 78.9 72.2 85.7 92.9 98 92.6 87.9 102.1 114.7 109.7 106.7 102.4 96.5 95 97.9 101.5 103.9 99.5 88.1 71.6 64.9 66.1 70 83.4 92 100.9 103.9 107.7 106.7 111 115 117.9 125.2 135.9 151.2 159.5 154 144.4 141.5
385 387.6 381.1 378.4 380.9 378 373.9 369.9 363 368.1 373.7 382.4 385.3 389.9 386.6 385.5 388.2 408.5 424.8 420.5 415 402.8 391.8 387.1 382.5 385.8 391.3 397 385.9 376.4 358.8 344.8 336.6 339.4 339.6 337.9 334.1 326.7 327.9 326.6 315.6 314.6 291.9 281 266.2 263.3 259.9 253.8 250.9 246.4 244.9 240.1 233.6 230.5 225.1 229.9 233.4 249.9 252.2 249.8 275.6 298.9 308.6 324 309.2 311 316.2 314.4 310.4 307.3 307.3 318.6 319.1 336.3 330.2 326.7 311.6 294.6 281.8 268.1 262.2 270 281.5 278.9 278.8 271.3 261.5 229.1 208.3 199.5 199.7 192.3 190.9 174.1 164.6 167.4 155.7 153.5 150.9 151.5 154.5 161.2 169.1 176.6 174.3 166.3 160.9 154 140.2 127.9 115.6 103 99 112.4 122.2 126.7 125.8 125.7 120.3 139.3 150 149 145.9 142.3 150.8 161.1 161.3 154.3 152.6 148.9 145.9 140.1 144.1 148.5 152.9 165.3 181.4 189.4 188 196.1 205.9 185.4 155.6 156.9 141.2 132.8 118.5 100.3 92.5 92.5 92.5 107.2 125.9 125.3 119.5 109.4 97.6 82.8 77 75.5 75.6 73.3 76.8 85.5 90.7 92.7 91 88.5 93.2 109 110.8 105.4 101.8 99.2 96.4 95.4 99.9 98.2 98 86.1 71 66.4 67.7 72.3 86.2 88.5 96.7 97.4 99.8 99.2 107.8 114 129.6 119.8 125.7 140.4 155 161.5 146.6 141.6
380.1 385 379.1 387.6 383.1 385.1 379.2 382.4 372.8 369.2 379.7 391.2 399.6 399.4 394.1 386.9 391.1 412.1 420.1 418.3 413.5 404 398.5 393.8 383.5 392 398.6 402.4 396.1 384.5 369.8 358.8 341.3 339.9 344.8 343.4 341.7 335.8 325.7 321 316.6 305.2 292.1 283.1 269.9 263.6 260.5 259.8 256.9 251.9 250.7 250.4 240.5 237.2 232.5 231.8 239.8 259.5 260.3 257 282.4 312 314.6 332.1 318.7 310.8 309.3 310.3 316.5 308.2 307.3 308.3 309.2 317.1 320.1 318 305.3 289.4 279.4 263.4 262.2 262.2 280.3 271.3 281.3 285.5 275.9 261.7 233.7 209 200.5 202.5 199.7 194.2 168.3 163.1 158.7 157.4 151.5 151.3 155.1 165 174.7 178.3 180.6 168.7 166.1 156.8 144.3 131.1 114.4 105.1 103.7 111.4 126.3 131.1 129 133.5 135.6 143.1 155.2 154.8 153 152.9 150.6 163.8 170.2 162.2 153.1 154 150.9 150.2 162 151.2 162.9 164.7 185.1 192.1 194.7 190.1 199.9 193.3 155.2 163.2 154.2 134.9 120.1 98.7 92.5 92.5 92.5 99.7 125.9 130.6 122.6 116.3 93.5 86.2 76.5 74.2 74.6 74.1 75.7 82.6 84.8 88.9 88.9 87.4 90.3 103.1 104.2 104 102.3 100.9 100.8 97.3 94.6 96.2 96.5 84.5 68.3 64.9 67.6 75.3 89.5 94.1 95.8 91.6 88.7 99.4 101.3 112.8 123.2 119.7 116.9 124.7 137.4 142.9 140.9 135.7
370.8 375.9 373 382.4 381.4 388 388.3 386.6 382.8 375.2 377.4 390.4 401 406.2 406.7 394.5 393.9 410.5 415.7 421.1 416.1 409.4 405.8 397.2 389.6 394.4 401.8 403.9 398.6 388.6 374.4 362.2 350.7 345.3 345.8 346.4 346.9 343.6 342.1 324 312.8 307.1 296.9 284 271.4 261.6 262.2 260.8 258.9 255.9 255.3 254.2 248.7 241.5 240.5 242.2 242.3 263.4 270.7 263.4 288 323.6 333 337.9 334.8 317.6 311.6 315.2 323.4 318.9 307.3 307.3 307.3 307.3 311.1 307.3 314.9 296.8 281.8 266.1 262.2 262.2 275 270.8 283.1 289.3 290.3 276.6 255.4 235.4 201 202.5 206.3 200.7 176.9 162.1 159.1 159 155.5 155.3 165 169.3 176.6 183 178.5 174.1 165.1 157 143.1 133.7 120.3 110.8 112.4 119.6 129.8 135.1 138 144.3 135.2 142.6 156.4 160.5 161.5 162.9 164.9 162.2 172.8 170.1 164.3 160 155.5 150.2 163.7 172.1 158.9 168.2 185.7 199.2 202.5 197.7 193.6 202.4 174.8 168.7 163.8 145.8 126.8 100 93.6 92.5 92.5 95.9 122.1 128.3 125.4 111.7 96.6 82.4 78.4 75.3 72.3 72.9 75.4 76.8 80.9 86.3 85.1 86.1 89 97.3 103.8 102.2 104.4 103.3 103.5 100.8 99.7 93.8 94.8 82 66.9 59.3 64.4 79.9 85.2 93.9 95.4 90.3 84.7 92.2 92.7 103.7 114.5 117.3 112.7 118.7 128.4 129.9 131.9 127.3
370.4 366.4 371.7 375.7 380.1 389.4 386.2 385.3 387.2 381.3 380.9 395.2 409.4 412.1 408 397.5 396.7 411.9 427.7 424.8 418.9 417.6 409.1 405.1 393.2 397.5 399.1 401.2 398.1 393.3 375.6 362.3 356.2 354.7 347.4 345.6 347.6 344.5 340.9 339.2 318 304.7 299.6 286.8 273.1 263.3 263.9 261.7 262.5 260 264.4 261.3 254.2 253.2 249.8 249.7 249.2 265.8 280.2 272.6 292.4 325.9 345 348.7 353.7 330.1 323.6 330.3 338.9 331.4 311.3 308.5 307.3 307.3 307.3 307.3 322.4 305.4 285.3 270.6 262.2 262.2 264.1 275.9 279.4 292 298.5 279.3 271.1 242.5 215.3 203.3 205.7 206.5 194.9 165.5 164.8 162.4 161.5 163.2 170.9 171.2 177.4 182.8 182.9 177.7 170.5 159.8 140.3 137.2 126.1 118.4 116.1 123.8 127.4 139.2 143.5 149.4 146.4 148.1 153.9 155.2 163.5 160.2 164.5 164.8 164.6 167.5 163.2 161.5 151.5 152.4 183.2 185.9 176.6 168.2 191.5 204.9 205.3 216.2 196.1 199.7 183.2 164.2 170.6 148.6 131 104.7 102 96 92.5 92.5 121.1 126.2 124.3 108.9 89.6 80.4 76.5 74 73.7 74.5 77.7 81.3 74.8 85.4 82.8 85.8 87.2 96.9 102.5 99.7 104.3 103.4 108 100.2 96.5 91.8 88.7 77.7 62 54.5 60.3 76.6 77.8 81.5 85.4 83.1 80.6 82.4 88.7 98.6 107.1 111.9 111.4 109.6 111.8 117.6 124.4 123.2
369.2 362.8 368 372.1 374.2 377 377.8 379.3 383.2 382.9 379.7 392.5 404.6 416.8 416.7 407.2 405.3 418.8 442.1 434.7 422.2 422.4 420.5 407.1 398.9 394 400 398 390.9 385.6 376.5 363.6 361.5 355.9 349.5 346.3 343 342.6 338.6 335 328.2 310.8 301.7 291.1 277.6 265 266 264.2 263.1 263.7 270.4 269.3 262 260 267.1 257.5 260.4 265.6 279.4 282.5 295.5 337.1 355.1 359.9 359.6 348.2 340.8 339.6 348.8 354.1 336.2 307.3 314.5 307.3 307.3 307.3 323.9 313.6 293.4 273.2 262.2 262.2 264.7 284.8 291.8 289 291.4 282 272.8 246.5 225.1 218.5 204.8 205.1 203.7 173 173.7 176.7 178.3 170 175.8 174.4 177.1 189.1 193.6 179.6 170.2 158.5 144.3 138.2 132.3 120 132.1 128.6 127.3 138.9 144.4 149.1 153.8 154.4 159.9 154.2 154.4 156.1 156.5 164.4 166.1 163.4 157.2 154.3 157.6 175.6 194.8 191.8 191.5 171.1 193.7 210.5 217.2 224.4 208 203.3 192.6 163.8 169.3 153.7 135.1 111.7 104.3 96.9 92.5 92.5 115.3 128.1 118.5 106.6 88.9 76.8 75.9 76 72.7 77.2 80.6 82.2 74 71.9 82 88.2 84.3 90.8 99.5 95.8 102.3 100.8 107 103.5 98.8 94.2 87 68.9 55.1 51.1 57.4 79.8 79.2 78.9 78.6 78.5 79.6 79.7 88.7 94.5 101.7 112.1 112.9 113.5 106.4 108.8 115.7 112.8
359.7 355.2 361.6 367.7 370.4 371.8 372.8 368 375.7 377.6 374.9 381.7 395.4 403.8 409.8 411 408.1 414 437.7 441.3 427.5 424 424.6 424.3 406 395.7 396.7 400.1 387 382.2 372.9 365.2 362.9 359 355 347.6 343.9 341.3 338.9 336.9 325.1 313 306.8 299.3 283.4 269.4 275.6 269.7 265.9 274 289 281.4 274.9 271.4 273.9 270.4 268.3 269.8 275.5 286.3 309.8 340.4 364.4 364.4 364 361.4 354.9 345.6 359.1 365.6 357.3 323.9 316.6 313.6 307.3 307.3 321.6 317.4 293.8 276.1 261.8 262.2 262.2 269.5 291.2 295.7 299.8 291 281.4 257.3 242 227.2 219.1 204.9 203.4 180.2 185.9 189.7 184.7 178 177.7 184 183.5 196.1 199.8 188.4 173 161.4 148.9 142.3 136.5 122.5 133.1 131.2 133.5 135.5 148.5 156.4 160.8 163.4 161 155.2 154.7 154.2 156.3 160.9 161.8 161.4 155.1 160.2 159.1 169.3 189.4 200.8 203.5 177.1 196.9 212.7 218.8 218.5 217.4 205.6 197.7 167 153.8 156 135.7 114 111.4 103.9 96.2 92.5 108 123.7 126.3 110.6 86 77.6 74.8 75.8 72.2 76.5 84.3 77.1 72.6 72.5 83 87.7 85.4 85 95.8 91.5 103 99 99.4 104.2 99.2 94.3 89.5 75.2 56.1 48.2 54.9 59 62.5 80.6 84.1 81.4 79.6 83.4 86.6 88.5 96.4 102.9 110 112.9 105.5 99.4 110.4 105.2
351.7 353.8 354.1 363.8 368.4 367.5 365.5 359.6 362 366.7 364.4 372.7 381.6 388 396.9 394.4 402.7 409.7 427.1 428.2 428.3 421.1 424.8 428.7 415.4 398 392.2 394 385.1 380.6 371.8 369.5 363.7 362 358.7 355.9 346.2 341.6 338.2 335.5 330.8 318.5 308 304.7 287.9 277.4 285.6 281.1 271.8 286.6 294.4 294.2 294.1 302 293.6 292.1 280.7 280.2 282.9 286.9 308.4 332.7 358.4 368.6 368.2 365.3 360.7 357.5 359.9 378.4 372.9 342.9 322.2 322.5 314.6 310.8 321.6 322.5 292.8 278.1 261.9 262.2 262.2 262.2 295.6 291.7 295.7 294.4 282.3 262.2 241.9 228.3 230.2 234.6 214.7 195.1 194.9 202.1 204.1 187.4 196.9 186.1 195.4 200.6 198.3 189.8 174.9 162.2 155.2 148.4 142.7 125.9 128.2 134.7 137.5 136.2 150.1 154.1 167.2 167.5 163.5 158.9 155.7 153.3 154.1 158.5 160.7 160.9 155.4 156.3 167 186.9 197.7 218.2 207.3 188.7 212.9 214.7 227.4 213.4 219.6 205.6 202.9 174.1 153.8 154.4 129.3 124.2 121.1 101.4 100.7 92.5 97.5 121.9 121.4 115.7 91.8 79.2 77.6 73 72.4 74.1 84.1 82.1 72.8 71.4 76.8 85.8 91.4 77.6 86.4 89.6 93.9 95.8 92.1 99.5 94.3 95.4 87 75 57 47 52.7 48.1 40.6 70.5 89.2 89.5 84.9 88.4 91.7 92 87.7 93 109.2 120.2 116.2 95.3 100 100
344.1 345.4 352.6 361.2 361.3 361.3 360.2 353.7 358.2 360.3 352.8 362.1 371.5 373.8 377.4 379.6 392.3 399 415.3 417.9 418 416.2 421.1 426.6 418.6 403.6 396.6 383.4 381.4 374.6 370.8 367 365.4 364.7 359.5 354.9 346 342.9 337.5 336.1 328.1 321.1 310.3 299.8 293.1 287.4 287.2 284 284.8 294.3 314.9 322.1 305.1 305.3 307.5 305.1 296 295.9 294.3 304.6 308.2 322.2 345.1 357.5 365.9 368.5 365 357 357 370.1 379.4 369 350.8 325.6 323.2 315.6 311.4 320.5 293.9 281.5 263.3 262.2 262.2 262.2 282.9 289.8 292 292.8 279 259.2 241.6 232.2 230.6 241.9 240.1 215 199.8 216.8 211.8 202.4 201.5 194.3 207.5 205.2 204.6 195.2 182.4 163.7 161.3 154.9 144.9 130.4 127.2 137.1 141 142.6 152.6 161.9 174.5 168.7 165 162.5 159.3 156.8 157 158.7 160.9 164.8 156.7 156.3 170.1 200.1 206.1 222.7 222 196 208.3 219.1 226.2 223.7 215.3 214.8 202.5 183.5 155.8 157.2 130.6 132.9 128.8 110.9 106.2 100 94.2 115.4 117 114.4 96.3 82.4 80.6 80.6 74.3 74.3 74.1 82 71.7 70.2 71.4 77.4 79.5 69 76.5 86.2 82.8 86.4 83.1 84.1 89.2 88.4 81.8 69.2 53.4 47.8 46.3 47.1 37.8 45.6 82.7 90.6 96.6 96 95.1 94.8 97.1 96.5 100.7 109.9 102.8 93.5 96.2 98.8
333.8 347.1 351.2 352.2 354.5 355.2 354.8 347.7 340.5 342.5 345.4 356.3 364.3 363.3 367.1 371.6 376.6 387.4 397.3 404.1 405.5 412.8 425.3 424.9 414.2 402.8 397.4 389.2 372.9 369.4 368.1 363.3 364.2 360.5 362.3 359 354 342.5 338.1 335.9 327.7 323.9 312.1 302.5 296.5 290 291.3 289.5 288.1 299 314.5 326 314.6 312.8 311 313.9 310.4 316.2 303.7 317.7 327 327.8 360 368.6 366.3 375.9 369.6 364.5 358.7 368.6 375 376.4 360 334.8 328.6 321.5 311 318.6 291.4 281.5 266.2 262.2 262.2 262.2 287.6 292.6 291.8 289.7 277 263.5 249.9 238 237.1 251 254.6 239.4 205.5 205.5 214.2 214.7 205.7 208.6 213 208.7 207.9 202.1 187.7 169.1 166.4 157.9 149.6 131.5 130.9 137.8 146.2 146.6 156.4 164.4 174.5 176.9 176.3 167.4 163.7 158 163 164.7 166 164.5 159.7 164.6 173.5 198.4 207.8 226.9 232.6 205.3 208.2 219 229.7 232.6 214 223.4 203.6 194.6 162 159.8 133.8 141.8 138.4 118 111.9 106.4 92.9 108 117.5 111 98 85.4 80 75 74.3 82.4 79.8 67 70.6 71.9 69.2 67.6 69.3 68.7 63.7 73.7 77.2 70.6 73.5 69.4 73.7 75.7 68.1 58.2 36.4 41.5 42.3 38.2 36.8 37.5 67.2 84.3 93.3 96.8 99.4 104.3 98.4 101.3 94.7 98 97.6 93 92.6 98.3
333.2 343.7 342.3 342.3 346.3 345 344 339.2 335.8 338 339.4 347.5 355.1 359.5 360.4 361.9 366.8 375.7 381 392.8 395.2 405.1 428.8 433.3 419 405.9 397.9 390.1 371.6 359.1 360.7 359.2 358.6 358.3 358.5 361.6 354.9 346 339.5 337.1 325.9 325.8 318.1 311.5 305.8 298.3 296.5 296 292.4 302.5 312 327.2 331.3 329.1 316.5 319 322.8 325.5 315.9 324.5 340.7 334.3 366.2 370.7 368.4 380.2 378.7 368.5 362.5 370.8 371.9 371.5 358.4 345.1 342.7 324.2 312.6 308.6 289.5 281.3 268.9 262.2 262.2 262.2 283.4 295.2 286.8 287 280.4 271.5 263.6 246.7 245.5 257.8 266.8 244.4 223.6 215 212.4 218.5 211.1 217.9 217.7 211.2 213.4 207.8 191.2 176.4 170.1 161.9 151.4 131.5 135.3 141.3 150 154.7 164 170.1 175.2 176.8 176.6 172.6 167.6 163.3 166.4 170.1 173.6 172.1 171.7 168.2 173 195.9 204.5 220 236.8 212.9 205.6 224.5 230.8 228.6 211.4 222.1 200.8 195.4 174.7 162.2 141.2 143.7 148.6 132.1 118.2 109.9 98.7 102.5 112.8 112.2 100.2 92.1 80.2 74.9 71.6 75.1 79.3 67.9 67.7 73.7 71.8 66.3 61.4 56.9 53.2 61.8 64 66.7 62.4 56.7 63.6 66 61.1 50.7 33.8 32.2 40.3 37.5 36.8 36.8 48.9 80.2 94.7 100.6 105.2 106.9 113.6 112.6 102.8 98.3 92.7 92.7 92.7 98.6
335.2 339 344.3 339.8 337.4 334.2 330.8 329.4 328.6 330.3 332.9 339.7 347 356.8 353 354.5 361.1 367.2 372.7 377.7 382.5 400.2 415.2 418.1 405.4 394 391 385.1 369.8 357.7 352 353.4 351.9 352.2 356 356.5 355.1 346.9 338.9 333 326.5 321.9 319.7 318.5 312.7 304.7 300.3 303 300 306.9 317.2 325.3 336.1 350.4 330.9 328 325.4 326.6 325.8 328.1 347.5 340 357.9 365 368.9 374.4 386.6 371.5 366.4 364.4 369.1 370.7 363.8 348.6 347.3 327.2 313.1 302.9 289.2 279.8 268.9 262.2 262.2 262.2 276.5 298.9 287.4 288.1 284.7 278.7 271.1 256.8 252.9 268.8 274.6 263.2 235.7 236.3 220.9 214.9 213.2 217.6 218.7 215 214.5 207.1 191.6 180.5 173.2 167.9 152.2 129.9 139.7 146.9 152.6 158.4 166.9 174.8 178.6 177.8 175.8 173.7 172.9 171.9 175.3 177.9 176.4 175.9 176.3 179 189.1 192.7 207.5 225.9 225.6 219.2 200.1 215.8 232 230 217.3 211.7 209.8 191 180.7 159 150.6 140.7 159.9 141.6 123.5 115.7 104.1 92.3 113.3 112.5 105.7 96.9 84.8 77.6 80.2 64.6 70.2 69.3 68.1 66.3 71.8 64.4 57.5 54.3 51.7 58 59.9 54.5 47 45 53 62.6 54.6 44.7 26.7 26.2 40 37.5 36.8 36.8 41.9 69.2 84.7 97.9 105.6 108 112.6 121.4 113 106.6 96.2 92.7 92.7 92.7
332.1 337 341.7 338.8 335.5 332.4 329.1 322.2 318.6 325.4 331.2 338 343.9 348.1 345.6 349.1 353.6 360.2 368.3 374.3 382.1 390.7 402.5 393.9 392.4 382.8 385.1 380.9 369.9 357.5 349.3 344.4 345.7 347.4 351.6 355 354.2 350.6 339.1 333.3 329 324.7 322 321.5 319 310.1 305.3 305.9 302.4 308.2 321 328.6 336 346.7 341.1 335.3 333 334.2 333.8 336 343 343.2 349.4 363 365.9 375 394.9 374.1 366 365.7 364.7 363.7 358.2 345.5 348.5 330.7 312.5 303 287.7 281.5 270.2 262.2 262.2 262.2 272.7 297.1 288.2 295.2 299.4 279.6 270.3 263.3 251.4 265.8 275.5 268 254.7 250.7 240.8 230.6 212.6 211.4 209.5 209.8 210.2 206.3 188.5 179.5 172.5 166 154.9 135.6 142.1 150.3 157.2 161.4 169.7 176 179.8 180.6 177.1 177.8 177.7 178.2 182.8 184.6 193.1 188.4 184.7 187 194 204 206.7 225.2 230.9 218.8 197.3 210.8 218.2 223.5 217 212.5 209.8 191.9 179.7 164.2 156.8 142.9 155.8 145.1 130.9 117.8 108.6 93.1 109.2 107 100.8 92.2 84.2 80.1 77.6 64.9 64.5 69.8 72.9 67.1 58.7 60.6 63.4 53.1 48.5 51.3 54.3 46.3 40.1 37.7 45.4 60.7 46.4 37.2 23.1 22.1 39 41.5 37.1 36.6 40.7 55.4 72.1 85.5 96.8 103.6 110.9 122.2 122.6 112.3 104.9 100.8 95.1 92.4
321.3 328.5 337.1 328 327.4 326.2 322.6 317.5 315.9 325.1 330.2 333.4 343.2 343.7 345.5 351.6 351.8 360.9 370.8 371 377.1 381.3 383.1 381.3 376.8 370.8 380.4 381.1 372.6 357 349.3 343.5 341.7 343.3 345.5 350.1 352.7 349.5 343 333.9 330.7 325.3 321.1 321.2 319.5 317 314.9 306.7 304.2 311.7 324.4 332.7 336.6 344.8 345.3 343.3 338.3 342.8 344.2 341.5 348.3 346.1 346.2 358 364.1 373.8 398.4 385.6 368.7 363.4 361 361 355.2 345.5 336.4 329.2 313.3 302.5 287.3 280.5 270.8 262.2 262.2 262.2 275.4 295 289.1 303.1 310.3 281.1 275.7 261.8 252.7 261.6 275.2 284.2 263.9 258.7 263.8 244.4 225.6 214 212.1 210.7 203.3 190.3 182.4 176 168.8 163.6 150.7 139.8 137 144.3 152.1 160 169.2 173.8 177.3 178.2 174.2 181.1 175.4 194 193.3 197.2 197.3 196.7 193.2 187.8 196.8 207.3 207.4 227.2 236.1 226.9 203.7 208.7 218.9 220.9 214.9 209.9 208.5 189.2 180 169.3 158 146.3 154.4 146.8 132.8 116.9 108.7 96 93.1 102.2 98.8 88.9 80.9 76.5 73.9 61.1 58.2 69.1 72.8 67.6 56.1 53.4 51.4 47.4 41.9 43.4 47 49.7 45.5 31.3 33.5 47.6 44.4 30.9 20 25.7 45 44.3 40.7 38.6 43.6 54.4 68.1 78.2 89.6 99.9 109.4 114 122.3 120 115.9 118.1 115 100.9
317.7 323.6 326.2 322.8 322.3 320.5 318.3 315.5 314.2 320.8 324.9 330.8 337.3 339.9 342.2 346.9 351.4 360.5 369.9 372.6 377.8 385.5 381.1 371.9 365.9 365.2 376 379.8 370.3 357.6 349 346.4 340.2 338.8 339.6 339.6 346.6 346.3 340.9 333.2 334.6 327.2 323.7 322.8 321.9 319.9 318.3 311.8 307.3 316.5 323.8 336.3 339.2 347 350.3 348.1 345.2 351 349.6 347.6 348.3 349.3 348.4 360.8 365.9 387.7 395.8 387.1 369.8 369.4 363.9 361.8 352.6 344.7 331 326.3 317.5 302.1 285.6 280.4 272.5 262.2 262.2 262.9 281.5 294 289.2 305.5 313 293.1 282.9 274.1 260.4 257.5 270.3 276.3 271.9 260.2 264.3 250.1 238 218.6 212.6 208.3 200.6 189.9 182.3 173.8 161.8 157.3 152.3 143.7 132.3 145.1 151 158.6 162.7 164.3 168.3 167.9 171.5 171.8 181.9 197.2 200.6 198 203.9 201.6 202.6 194.2 200.1 207.7 211.9 221.4 236 230.7 209.5 198.1 220.3 214.7 210.7 205.6 204.3 180.9 177 168.9 156.6 146 147.2 141.3 132.1 120 105.7 99.8 89.4 96.6 99 92.4 83.4 75 70.3 60.1 53.3 54.7 64.1 67.3 60.3 47.8 40.1 37.4 39.4 43.3 40.5 50.9 52.2 28.1 26.7 33.7 40.4 22.7 19.1 35.4 50.2 46.3 49.6 45.9 49.5 57.5 67.4 78 91.7 103.1 113.4 119.4 123.9 127.6 131 125.9 127.5 115.9
313.2 319.3 322 320.6 316.6 314.4 312.7 312.8 313.4 322.2 319.8 331.6 335.9 340.6 340.9 345.4 350.7 363.1 364.6 374.4 375.7 378 363.7 361.2 356.1 363.3 374.4 382.4 372.8 362.5 350 344.2 341 338.6 342.1 336.3 335.5 338 334.2 333.8 337 333.8 330.1 330.4 328.8 325 321.6 318.9 312.7 322.2 330.2 339 341.4 348.3 355 353.1 347.7 348.4 347.6 345.6 345.6 349.4 357.1 363.8 368.3 397.6 413.4 389.1 373.1 370.8 372.6 362 352.9 343.9 334 323.2 318.5 303.6 288.2 280.8 273.7 262.9 262.2 265.1 295.6 290.6 288.9 303.3 313.9 290.7 282.6 280.8 270.7 267.9 271.2 280.4 270 263.9 262 252.6 240.6 228.5 212.2 205.7 196 186.7 179.7 170.4 158 154.1 150.8 140.7 136.4 146.6 154.2 162.9 163.3 163.9 163.5 167.4 169.4 175 187 190.7 192.3 194 201.3 204.1 207 198.1 197.7 212.3 214.2 220.6 233.4 233.1 212.7 196.2 217.6 211.3 206.7 204.5 201.2 183.2 175.4 165.8 153.3 142.1 146.6 142.6 129.5 117.3 106.4 94.9 91.5 89.6 90.2 87.3 79.8 77.1 70.5 59.2 53.6 53.2 51.3 58.1 57.7 40.4 38.3 36 41.5 39.9 35.8 38.6 43.2 29.8 24.5 25.3 27.9 20.1 24.4 34.8 49.1 49.2 54.4 52.2 54.9 62 72.1 82.1 86.2 101.3 115.9 126.4 134.9 136.2 142.5 138.6 131.4 123.7
313.2 318.5 320.7 321.7 316.9 314.5 312.8 312.7 311.4 316.7 318.3 328.7 333.5 334.5 340 349.7 349.4 352.7 359.9 364.9 371.7 353.2 349.4 351.8 350.4 359 373.5 389.4 386.5 364.5 351.8 345.4 340.3 338 337.1 336.8 335.1 334.8 336.6 334.3 335.8 339.2 340.2 334.2 334.6 333.5 331.2 331.6 323.6 331.4 337.6 342.4 352.5 357.7 364.8 354.6 350.1 345.6 345.6 345.6 345.6 345.8 360 360.8 372.1 402.2 420.3 406.9 378.7 373.1 380.2 372.3 365.9 352.2 336 323 310.5 304.8 291 281.1 274.4 265.1 262.2 262.2 279.3 288.2 287.8 300.8 312.1 286.7 276.5 282 271.1 270.6 271.2 275.3 272.6 269.8 263.3 258.4 248.6 232.9 220.4 206.5 198.7 188.8 174.5 170.7 159 155.8 151.1 134.6 140.2 152.2 154.4 163.8 167.8 164.7 164.2 169.6 178.8 183 184.4 186.2 191.5 192 195.9 202 202.6 202.5 199 205.3 212.4 221.1 234.2 236.6 218.1 195.8 202.7 207.2 200.8 200.1 198 191.6 175 164 152.7 148.4 139.9 137.3 129.8 121.9 109.1 102 92.1 85.7 90.5 87.3 78.4 73.4 69.4 54.3 49.3 48.1 45.6 50.5 49 34.9 36.8 35.5 35.5 36.2 34.4 32.3 27.5 23.1 18.1 18.6 24.8 20 32.5 37.6 55 48 56.5 58.3 60.6 65 71.7 78.5 85.7 100.2 114.4 126.3 135.7 143.9 145.7 139.8 135.9 126.3
305.5 315.9 318.5 323.2 320.4 316.7 313.4 312.9 311.4 312.3 313.6 322.2 326.6 330.3 335.7 349.4 351.1 345.3 347.4 344.4 340.8 337.5 339.4 341.6 344.8 354 368.1 391.9 394 368.9 348.4 345 341.4 341.8 340.9 340.4 335.6 336.8 337.9 341 339.9 348 351.6 359 362.4 343.2 340.8 338.3 332.5 340 343.2 357.2 364.8 368.2 379.1 369.7 349.5 345.6 345.6 345.6 345.6 347 355.1 359.2 372.7 400.2 414.5 418.6 388.3 379.5 386.2 381.8 373 355.1 340.6 325.6 309.3 305 293.8 284.1 274.9 268.1 262.3 267.6 282.5 298.5 303.8 313.2 304.9 287.7 274.9 274 265.6 266.5 267.6 269.5 275.6 278.9 271.7 263.2 252.4 239.6 227.4 213.2 197.4 193.4 179.9 167.5 161 154 151.4 140.4 147.9 153.8 165.5 166.7 179.4 182.5 170.4 169.2 180 188.1 192.3 187.9 189.4 190.5 195.5 203.1 206.3 200.4 196.9 199.8 205.9 216.5 230.4 230.5 223.1 209.4 183.5 184.7 190.6 186.8 183.7 180.6 171.7 162.2 150.1 149.7 147 135.7 125.5 123.3 109.1 104.1 97.7 87.5 83.6 78 71.2 65.2 63.4 57.3 46.4 44.3 46.2 39.4 43 37.2 31.4 30.4 33.5 40.7 39.9 38.5 33.8 29.6 23.2 16.6 18 24.6 32.4 36.7 46.1 44.6 47 57.1 65.4 73.6 82.6 83 89.7 101.1 111.4 121.8 134.2 144 145.8 137.7 133.7 125.6
293.1 303.2 313.7 319.4 322.8 317.9 313 309.9 311.5 311.4 310.8 316.5 322.6 325.2 335.4 334.1 345.2 336.8 330.8 324.6 331.6 329.8 332.7 338.6 344.4 345.6 363 379.4 388.6 377.3 358.2 343.1 344.5 346.2 345.1 343.8 338.5 337.2 340.1 345.4 346.3 352 357.1 362 372.3 373.2 354.7 343.7 340.6 348.4 348.3 360.1 375.1 376.1 385.2 381.8 353.7 345.6 345.6 350 345.6 347.8 362.2 360.1 378.6 389.8 404.5 408.4 391.8 379.4 381 378.5 369.3 348.9 341.3 328.1 316.6 305.3 295.6 285.6 276.7 268.1 265.2 273 299.2 317 319 317.7 309.9 289.1 274.1 266.9 262.2 261.1 263.2 267.7 274.2 277.4 271.9 263.8 254 247.8 235.5 221.2 199.8 191.9 182.5 171.2 160.8 155.1 147.2 137.8 152.8 159.4 169.6 172.4 182.8 186.2 178.1 169.2 185.4 195.4 202 202.1 198 195.9 196.4 201.1 207.4 206.1 198 200.3 201.1 215.5 228.3 223.1 220 205.6 183.5 183.5 183.5 193.9 189.1 180 169 156.4 152.6 153.7 151.6 141.4 130.1 128.6 118.3 106.4 96.6 88.2 104.5 101.8 89.4 76.2 68.8 55.9 46.8 44 46.5 48 45.8 35.8 32.9 29.4 34.8 37.6 40.8 41.9 41.2 35.1 23.4 15.7 15.7 23.6 29.1 40.5 49 42 41.5 55.3 69.5 78.8 88.4 90.6 98.8 105.3 112.1 120.9 129.7 140.1 142 131.5 125.5 117.9
293.2 293.7 303.4 313 317.2 316 315.2 311.4 306.8 307.4 307.4 309.2 312.1 323.8 326.9 328.3 324.9 324.3 321.7 325.3 326.5 328.6 329.7 337.9 338.5 343.7 361.7 369.8 377.2 368.6 358.6 342.7 343.1 343.1 346.2 348.3 346.6 338.9 342.3 346.1 349.1 355.6 363 359.7 366.7 379.8 375.3 357.2 348.9 352.1 356.3 362.7 380.2 385.5 382.2 379.6 359.3 349.1 352.6 355.1 357.5 364.9 374.9 369 399.3 405.5 407.5 399.6 396.4 372.2 370.2 363.9 357.2 346.5 338.3 329.2 319.4 304.7 294.1 286.6 278.4 272.1 269.8 279.3 299.4 320.5 314.7 323.5 309.8 286.1 272.5 265.4 260.9 261.4 268.3 266.8 272.7 280.3 271.2 261.5 253.4 246.5 238.2 225.7 208.3 194.8 184.6 174.3 163.3 153.1 139.6 145.3 153.5 164.9 174.9 189.7 185.5 189.1 183.3 173.7 189.4 203.4 207.3 208.6 205 205.1 206.5 214.9 215.4 206.6 201.1 197.9 200.5 214.7 223.6 222.8 213.8 201.7 183.5 183.5 183.5 193.6 200.5 190.4 173 159.8 153 153.9 154.1 151.1 129.5 131.5 124.3 107.3 103.6 93 103.1 112.8 98.5 85.2 76.6 63.8 52 47.6 56 56.5 59.9 42.9 39.9 33.2 28.2 32.9 35.1 42.5 39.9 33.1 21 12.4 8.9 17.2 25.1 43.8 62.2 35.8 38.8 49.8 65.1 80.9 86.9 92.4 101.5 106 115.3 125 123.8 127.7 133 123.4 119.2 109.9
297.2 295.2 295.9 297 299.2 307.6 310.7 309.6 302.6 303.4 303.3 305.1 306.6 317.7 324.8 318.3 317.7 317.3 318.7 322.8 321.5 323.6 319.4 326.8 332.4 337.8 354.5 368.9 373.4 364.7 359 345.8 343.1 344.2 343.6 348.4 346.8 342.1 343.9 350 350.9 357.1 367.8 362.9 364.5 379.2 384.3 375.7 357.7 356.4 362.4 374.3 387.5 395.1 397.6 388.2 369.5 369.6 376.8 377.2 383.9 389.9 389.2 382.3 402.3 416 413.5 410 391.9 375 361.3 357.2 355.4 345.8 334.7 331 322 310.2 295.4 287.7 279.6 274.5 274.2 282.4 301.2 310.3 310.6 320.5 306.8 283.9 271.8 264.2 257.7 260.7 266 278.2 270.1 278.3 280.3 260.8 253.7 244.2 236.6 227.3 213.3 198.9 188.3 170.6 164.2 155.9 144.7 145.9 149.8 166.8 180.9 191.2 191.5 193.3 187.2 178.3 192.2 202.8 207 207.7 206.1 207.4 210.3 219.1 225.5 219.5 209.2 204.2 203.8 219.9 228 229.4 217 207.2 185.5 183.5 183.5 185.6 194.8 200.8 181.3 168.9 154.9 154.1 156.7 150.7 129.3 133.7 124.4 113 107.9 99.3 104.6 113.1 100 91.7 79.4 69.4 55.8 53.1 59.2 57.1 53.3 57.9 40.6 38 37.3 27.4 31 32.3 31.1 32.2 20.5 6.7 6 9.7 17.8 43.6 58.1 35.9 41 50.9 60.2 75 85.3 98.1 107 111.6 115.9 125.3 120.9 118.9 127.9 118 109.9 106.3
299.9 300.3 301.1 301.9 301.2 295.7 296.4 295.9 297.4 293.7 295.5 299.8 301.2 305.4 310.6 311.8 308.7 311.4 313.4 316.9 319.8 317.2 317.2 326.8 329.9 338.6 347.2 362.8 376.3 365.5 353.9 345.1 343.1 344.8 345.7 344.4 348.5 349.7 348.2 351.1 357.6 360.3 363.9 369.4 368 380.4 391.7 385.6 366.2 360.3 373.2 383.6 391.6 404.3 414 403.3 385.7 392.3 399.5 393.8 404 399 398 398.9 409.3 421.8 419.7 418.8 396.3 376.1 358.3 357 352.8 349.5 334.8 333.3 324.3 308.8 299.5 290 280.7 276.3 275.1 278.5 296.7 297 297.1 301.8 291.9 278.3 267.1 260.7 254.8 259.1 265.4 277.6 275.2 270.8 273 258 253.6 243.4 236.6 223.6 214 203.1 190.1 173.8 162.2 152.1 148.2 152.3 146 163.9 176.3 188.9 193.9 194.5 186.4 185.2 193.9 201 204.7 205.6 205.9 207.4 209.9 217.9 222.2 225.8 217.5 216.3 211.6 214.6 230.3 235.5 234.3 213.2 193.8 183.5 183.5 189.8 195.9 198.4 188.9 177.1 163 157.2 154.2 146.5 134.8 129.8 122.4 117.9 109.7 107.2 104.4 119 105.9 95.4 86 74.8 60.9 74.1 65.6 57.9 51.2 50.3 38.2 38.3 42.2 27.2 21.4 26.3 25.7 28.3 20.1 5.8 2.6 7.1 15.9 35.8 43.7 33 33.6 53.3 58.2 68.5 86.5 97.3 103.9 112.9 116.2 124.6 118.9 116.3 114.8 113.3 106.9 95.6
303.9 302.4 304 307.8 306.1 300.8 285.1 285.7 289.7 292.9 291.2 295.3 297.4 300.1 306.2 308.4 313 307.3 307.3 312.8 321.5 319.7 317.3 321.7 327.4 335.1 340.9 350.3 367.3 362.9 358 345 343.7 345.6 345.3 345.4 352.6 358.4 356.1 355.6 361 368.3 364.1 372.6 373.2 384.2 388.4 387.6 373.3 366.3 384.9 401.6 393.6 404.3 417.6 419.6 398.7 410 424.7 422.1 421.3 409.8 402 406.5 413.7 426.4 424.5 430.1 402.9 377.9 361 357.4 352.9 345.7 335.2 333.1 323.3 311.7 298 286 279.9 276.2 274.1 275.9 285.2 288.3 287.5 296 282.6 270 261.7 255.1 251.4 256.1 266.3 274.9 276.6 271.1 261 256.5 252.4 242.3 236.3 225.3 214.9 199.7 191.9 175.6 174.1 166.7 165.1 164 158.7 151.7 175.3 196.6 193.2 195.1 189.2 195.9 195.6 201.9 205.6 206.1 208.2 210.4 213.9 221 223.8 226.1 224.9 226.7 221.5 224 225.7 236.4 241.1 220.6 205.6 183.5 183.5 184.5 203.1 208.9 198.4 182.7 171 161.6 155.1 146.3 133 124.6 119.6 119.7 113.2 111.6 105.7 115.4 107.1 97.3 89.4 81.5 81.2 82 74.1 64.3 60.5 48.9 36.9 34.4 36.6 27.8 16.6 20.8 18.6 18.9 13 5.1 2.4 2.4 8.7 20.4 32.7 30.9 30.4 52.6 58.3 67.1 76.9 91.5 105.9 110.5 120.8 126.3 118.2 115.1 108.2 105.5 100.7 94.1
301.8 310.4 305 310.2 313.6 304.4 293.8 284.6 284.6 284.6 290.1 295.8 296.1 297.5 300.6 306.7 307.8 307.3 307.3 307.3 307.8 313.3 320.2 323.3 322.7 327.3 340.5 344.4 343.3 343.3 346.4 344.5 351.8 348.4 346.4 346.5 356.3 366.7 376.1 364.6 363.2 373.1 371.4 385.6 379.4 395.5 395.9 393.8 383 372.8 390.8 401.2 398 405.2 420.2 430 410.9 417.4 436.5 436.5 427 420.1 405.1 405 410.7 416.6 420.6 429.1 410 385.3 369.1 357.7 354.2 347 337.4 329.7 318.6 308.1 297.3 286.4 277.7 275 271.3 271.9 278.7 283.5 280.8 286.3 275.3 263.7 257 248 249.8 257.4 263.2 261.1 260 264.4 257.7 250.3 244.3 240.1 236.4 225.9 214.5 203.3 191.3 182.1 180.5 178.5 177.4 177.3 176.7 160.2 160.7 175.9 184.2 187.7 196.6 199.6 198.6 204 207.6 207.2 209.6 213 216.8 221.5 227.8 232.4 227.4 234.6 240.8 238.5 234.2 231.1 240.1 230.4 211 191.6 183.5 183.5 202.2 212 213.4 189.5 176.1 162 158.1 150.3 131 123.7 124.2 121.8 115.8 117.4 105.2 104.2 106.4 102.7 93 82.3 82.1 85.5 80.4 68.6 62.4 53.3 42.7 38.5 32.8 25.1 22.7 15.4 14.6 7.1 -1.6 -1.6 0.1 1.5 2.5 15.7 31.8 31.4 29 44 59.4 70.7 78 83.7 103.9 109 116.6 123.5 111.9 112 106.5 104.6 94.8 87.9
284.9 302.6 310.7 305.3 309.7 309.7 296.8 289.2 284.6 284.6 286.5 292.1 293.9 296.1 299.3 303.5 308.7 309.9 307.3 307.3 307.3 313.3 320.3 322.2 325.1 327.4 333 329.5 329.2 330.1 337.2 344.3 348.8 346.3 351.2 347.7 357.7 365.6 376.7 379.2 366.8 367.4 371.7 376.3 383.5 402.9 406 398.3 387.9 382.5 396.1 409.9 406.6 406.1 420.4 438.5 421.2 425.2 439.4 436.3 425.4 414.7 404.7 405.3 406.5 427.3 447.6 447.1 428 391.8 373.9 362.9 356.1 353.1 338.3 331.4 320.4 309.1 293 276.1 270.3 270.4 266.5 266.4 269.9 276.7 276.6 280.2 271.2 254.1 247.9 243.3 247 254.8 260.7 255.2 255 254.5 254.4 244.6 234.4 234.5 230.5 222 211.1 199 180.4 190.4 188.2 186.8 187.2 185.9 185.5 179 164.4 164.1 175.1 184.5 192.3 196.1 201.2 205 210 214.5 214.1 217.6 223.5 230 232.5 235.8 234.6 231.4 235.1 241.8 240.2 238.9 237.1 237.8 220.4 202.9 188.1 183.5 189 211.2 213.7 197 178.2 170.5 161.3 154 133.7 122.9 126 130.5 127.4 119 112.2 102.4 103 106.2 95.4 81.5 83 83 86.6 77 69.8 64.3 49.8 42.1 36.8 27.5 24.2 18.7 13.5 10.6 -1.6 -1.6 -1.1 0.3 1.8 10.4 29.4 40.2 30.4 38.4 59.1 71.7 81.9 83.8 94.7 107.8 108 108.6 105.5 110 105 102.6 91.5 79.8
265.6 286.3 307.3 303.4 301.3 297.5 297.6 292.1 284.6 284.6 284.6 284.6 292.1 296 299.2 299.9 306.7 310.4 310.3 307.3 307.3 308.6 315.1 321.2 325.1 325.6 334.5 328.7 325.4 324 329 340.7 344.6 343.8 349.6 350 354.2 367 371.2 378.2 371 372.3 372.6 376 380.2 403.7 416.5 412.5 404.7 389.8 394.5 410.6 416.1 412.5 428.9 434.8 432.1 442.9 449.7 439 429.4 415 407.2 412 416.4 446.6 464.3 456.6 434 398.3 373.7 363 356.9 348.5 337.9 330.7 319.7 305.8 291.3 277 263.8 259.8 257.8 257.8 262.9 270.3 273.8 276.4 265.4 251.8 244.1 242.1 247.5 254.3 249.9 248.9 250.9 249.4 250.8 240.5 230.1 223.7 221.1 215.5 203.7 190 193.6 193.6 192.7 190.6 191.4 191.7 193.8 188.6 182.3 168.5 166.3 180.7 190 196.6 205.8 207.6 210.8 213.9 219.6 222.3 225.8 230.6 236 242.4 243.4 238.1 233.6 244.9 247 244.6 243.1 248 233.5 215.8 198.5 198.1 183.5 208 215.1 206.2 185.1 172.5 166.8 159.8 141.2 124.4 125.6 129 137 136.1 119.6 101.2 100.2 97.7 96.7 81.5 82.3 82.1 83.1 83.9 78.3 68 56.6 44.8 38.5 30.4 25.1 19.5 8 5.6 2.4 1.1 -1.6 -1.6 -1.6 2.8 27 39.3 31.1 40 54.4 67 82.8 90.5 95.1 98.4 103.6 102.6 99.6 102.2 107.9 99.9 89.3 74.4
250.9 272 295.4 298.3 297.4 298.4 300.4 295.6 287.4 284.6 284.6 284.6 289.2 294 301 305 304.7 305.7 313.9 309.1 307.3 307.3 313.9 324.8 328 324 326.5 324.9 318.4 314.1 324.7 330.4 340.5 341.7 353.4 354.3 358.7 361.3 369.5 374.7 372.1 380.8 375.8 382.6 384.8 402.6 415.1 426.5 411.8 395.3 401.9 410.3 417.8 421.7 431.3 435.5 439.1 457.1 449.7 444.3 436 423.2 419.9 439.2 446.1 464.1 474.7 460.2 441.1 408.3 377.8 367.8 362.8 353.7 338.8 329.1 320.4 306.3 290.1 280.7 266.1 256.1 253.2 252.5 256.7 263.7 269.7 270.6 264.3 251.2 243.4 242.3 244.2 249.7 245.3 245.8 248.4 251.5 243.8 236.4 227.8 220.7 213.9 206.1 202 200.9 199.4 203.2 196.5 194.3 192.9 196.1 197.3 196 195.4 185.5 167.6 175.3 185.6 194.6 204 211.5 213.3 216.2 228.6 227.7 229.7 236.3 239.4 242.9 243.8 240.7 240.5 237.8 242.7 248.3 246.5 247.7 243.9 229.3 208.4 199.6 186.1 205.7 210.9 211.5 192.4 179.8 175.1 168.7 148.8 128.1 125.6 128.1 146.2 151.4 130.7 119.4 101.2 99 93.7 82 85.3 85.1 80.3 76 76.6 69 56.2 45.5 38 30.6 21.7 19 7.4 6 2.4 1 -1.6 -1.6 -1.6 1.4 18.9 33.4 30.4 40.2 52.3 65.6 83.6 96.5 95 94.1 93.6 93 95.5 91.7 93.8 92.2 82.3 67.2
232.8 253.6 277.9 296.1 298.4 295.6 302.4 298.4 291.1 285.9 284.6 285.3 285.6 295 294.7 303.4 309.5 307.9 305.1 305.1 306.6 309 319.7 316.4 332.3 319.5 319.7 318.5 314.1 314.1 315.7 325 332.3 341.7 350.9 358 362.3 369.3 378.2 376.7 373.4 376.2 381.5 383.5 389 401.1 414.2 423.7 416.9 399.9 408.6 408.1 419.3 424.8 428.9 437.4 436.3 452.9 452.5 463.8 457.7 442.3 452.1 460.8 467 474.7 475.5 458.8 433.4 409.5 385.2 373.1 365.1 362.6 346.6 335.4 322 307.8 290.7 281 269.7 255.4 249.8 248 249.8 257.3 268.6 281.9 261.4 250.9 243 241.9 240 238.3 237.7 243.2 244.7 247.5 239.1 231.6 230.9 217.2 208.5 203.9 204.8 206.6 207.3 207.4 201 198.2 194.9 196.3 199 198.1 202.3 194.3 176.4 166 177.8 190.4 202.4 213.6 216.6 219.4 227.6 230.3 232.3 238.2 242.1 245.8 246.9 245.8 243.5 246.2 239 238.8 247.3 250.5 250.7 237.4 220.6 204.9 200.8 193.8 207.4 212.3 199.3 183.5 178.7 178.7 155.5 131.5 127.6 126.5 140 146.2 138.5 124.5 117.8 98.3 95.4 86.8 94.2 93.7 85 75.7 70.4 68.3 57.4 43.2 37.4 30.1 21 16.5 6.2 5.3 2.6 2.2 -1.6 -1.6 -1.6 -1.6 17.1 26.8 27.5 39.7 47.4 59.3 79 94.3 101.5 102.7 90.2 81 78.6 83.1 86.9 84.1 72.7 60.7
220.9 238.1 259 277.3 288.3 296.9 297.7 293.9 287.7 289.6 284.9 287 287.3 295.1 296.4 298.6 309.5 309.9 306.9 305.1 305.1 312.2 318.3 322.3 314.1 314.1 314.1 314.1 314.1 314.1 314.1 318.9 329.6 338.5 350.4 357.9 361.6 368.9 376.8 382.6 385.8 378.7 381.8 387.8 391.7 401.3 408.6 424.1 420.6 410.2 416.2 408.4 416.7 425.7 430.7 433.2 433.5 448 466.6 466.6 472 456.9 464.2 479.3 476.8 478.6 470.3 450.6 428.6 408.4 391.2 380.5 366.9 360.5 346.8 336.9 323.2 304.5 294.1 282.4 270 256.1 247.6 244.9 244.3 248.1 266 283.6 260.4 246.9 236.6 236.3 235.5 235.4 233.7 235.8 237.1 240.8 237.8 227.7 224.8 212.1 211.6 205.7 208.1 211.9 214.1 213 209.6 201.6 201.3 198.6 196.7 198.3 203.9 197.5 188.4 178.5 167.8 181 200 211.5 219.4 223 224.8 229.9 233.6 239.5 244.9 247 249.3 247.3 249.4 254.1 250 246.9 245.8 252.1 253.3 247.7 231.3 212.5 204.5 191.7 210.6 215.6 207.4 191.8 183.5 180.5 164.7 141 133.8 127.1 138.4 141.9 144.1 133.7 120.8 107.7 92.8 90.6 98.7 105.5 95 86.5 71.8 66.4 59.1 46.9 38.3 28.7 23.7 18.4 11.2 3.8 5.4 4.1 -1.6 -1.6 -1.6 -1.6 22.3 35.3 28.7 36.4 44.6 56.9 76.7 90.4 100.6 101.6 90.8 79.7 70.6 66.7 69.7 69.2 60.2 55.9
220.8 222.3 242.6 253.2 271.6 292.4 296.9 288.1 280.2 282.7 284.5 288.7 288.6 291.1 298.9 308.1 311.7 311.6 309.2 307.2 319.2 321.1 322.1 318.1 314.1 314.1 314.1 314.1 314.1 314.1 314.1 314.1 326.2 331.2 338.3 348 351.9 362.6 373.4 378.3 389.6 383.9 385.7 384.4 386.7 388.4 403.2 419.6 422.3 414.5 411.3 414 416.4 424.7 433.8 434.1 437.3 445 467.4 465 469.6 459.2 483.4 478 485.3 482.9 457.2 439.3 422.4 406.4 392.7 387.8 369.8 359.9 351.3 338.8 326.5 308.6 297.1 281.9 269.7 261.4 248.3 243.7 242 242.9 257.7 262 256.9 243.8 236.1 235 234 235 236.3 236 234.7 226.4 228.1 221.8 220.1 218.3 209.8 209 210.7 220.2 223 215.5 216.9 208.2 205.3 206.2 199.3 198.3 201.8 199.5 191.7 183.3 175.8 172.4 191.3 205.8 220.4 220.4 224 226.6 229.8 233 248.2 249.9 251.7 248 250.3 260.4 258 251.9 247.1 250.7 252.5 256.1 243.9 224.5 210.3 197.9 210.7 217.9 219.6 201.2 190.3 186 173.7 154.5 142 132.3 141.2 139.2 143 131.2 126.6 118.3 102.5 90.6 96.5 100.8 99.8 88.3 77 70.4 56.5 46.3 34.9 28.2 23.7 18 11.1 4.5 4.2 -1.6 -1.6 -1.6 -1.6 -1.6 16.6 32.6 35.6 42.3 44.4 49.7 74.5 87.6 95.8 99.3 88.8 81.5 73.8 70.6 67.2 54.4 47.3 40.5
224.9 221.4 221.3 230.6 247.3 273.2 291.3 285.7 278.6 275.1 278.3 289.5 292.5 295.4 296.4 307.1 319.1 313.8 313.7 317.6 324.3 328.7 333.5 324.9 314.1 314.1 314.1 314.1 314.1 314.1 314.1 314.1 325.7 327.2 333.3 340.9 347.2 355.1 369.6 380.2 382.8 390.8 387.2 384.1 385.5 385.8 401.1 412.5 423 418.5 407 409.8 413.6 424.6 425.9 422.5 428.9 435.8 466 460.2 465 462.6 483.9 480.4 485.4 479.4 459.9 430.4 416.2 405.9 399.6 384.9 372.6 360.5 351.7 339.5 326.7 311 299.4 282.8 271.3 260.4 248.9 241.4 240.5 240.4 245.4 250.8 250.9 240.1 235.1 233.7 236.1 237.7 237.9 239.8 239 231.2 224.7 217.6 217.8 214.2 212.4 211.6 215.5 223 226.6 220.3 222.3 213 214.8 208.1 204.4 202.4 204.6 202.4 194.5 185 176.5 179.3 180.3 194 204.5 210.4 211.8 214.8 220.2 222.1 231.5 238.9 246.5 249.3 252.2 258.3 258.6 250.7 244.7 244.7 246.3 260.5 253.2 240.8 219.7 204.8 209.2 223.6 233.7 215.3 192 186.7 181.5 167.8 146.5 135.6 145.3 138 135.6 131.6 125.4 117.8 109.6 91.6 92.4 102.7 102.4 88 80.8 68.5 56.1 51 39.9 33.4 30.4 17.6 10.1 4.9 6.6 -1.6 -1.6 -1.6 -1.6 -1.6 -1.6 26.1 35.2 44.3 43 47.3 68.3 88.3 97.3 96.5 90.3 80.9 71.5 66.5 66.1 52.2 33.9 24.4
228.4 224.4 226.6 221.6 233 257.4 277.3 281.4 276.7 271.8 281.9 286.4 302.5 302.8 300.4 316.4 312 314.9 318.2 320.6 324.5 330 341.5 328.4 323.1 314.1 314.1 314.1 314.1 314.1 314.1 314.1 314.1 325.4 336.1 340.3 349.1 353.2 368.8 376.1 381.9 389.8 391.4 388.4 383.5 381.6 396.4 402.4 419.1 424 412.5 406.1 412.5 421.2 420.4 412.7 415.7 426.9 463.1 467.9 466.4 465.5 475.4 480.4 477.5 469.4 459.6 431.8 424 413.7 398.8 384.2 372 367.5 368.6 342.8 327.3 312.9 296.6 284.3 273.5 262.6 252 240.7 239.1 238.2 239.4 245.2 241.3 238.3 234.3 236.3 237.6 238.6 238.3 236.1 233.5 231.9 228.6 221.6 220.8 220.5 217.3 215.6 220.8 224.4 230.6 228 227.7 220.6 217.5 211.9 208.9 206.2 208 206.4 200.4 193 184.2 189.9 185.9 190.1 209.1 218.2 223.1 220 228 225.7 232.6 236 245 248.7 250.7 257.6 255.8 251.6 246.1 244.7 256.3 258.6 265 255.1 232.4 215.4 205.5 224 236.7 230.5 205.8 192.7 187.6 175.5 149 141.6 144.6 138.8 131.2 131.3 127.5 116.5 108.3 92.6 92.1 98.4 97.3 83.2 74.6 73.4 64.2 56.6 42 34 30.3 22.3 13.7 4.6 3.3 -1.6 -1.6 -1.6 -1.6 -1.6 -1.6 12.4 20.6 42.4 46.4 52.5 53.1 86.6 95.1 93.4 87.8 78.5 76.2 61.3 49.6 40.6 23.1 11.4
242 231.8 227.8 223.1 221 239.6 268.4 270.7 271.7 273.8 271.3 280.8 306.3 309.9 306.8 321.4 316.5 318.4 316.5 320.5 322.9 323.5 334.6 331.2 325.2 314.1 314.1 314.1 314.1 314.1 314.1 314.1 314.1 322.4 335.3 342 347.8 355.8 368 371.4 379.2 385.8 390.1 391.5 387.1 381.6 388.7 398.3 408.2 424.5 412.3 401.4 411.1 415.1 414.4 409 416.5 433.1 453.6 458.1 448.8 454.4 460.1 463.7 469.4 463.5 453.9 428 422.1 414.3 398.3 382.9 369 363.6 358.6 345.3 328.4 314 296.2 287.6 277.6 266.1 253.3 242.1 239.3 237.1 236.4 236.8 235.2 234 237 245.1 241 239.5 236.7 234.8 233.6 232.3 234.9 225.4 225.4 228.9 224.7 225.9 225.5 229.4 231 231 235.7 231.7 218.7 213.2 215 213.6 215.3 207.7 205.6 197.9 189 195.7 194.7 186.8 200.2 219 229.3 231.8 229.6 226.8 231.5 241.6 242 247.6 250.1 253.4 255.8 251.5 250.5 248.6 256.2 258.2 261.4 263.2 250.1 229.6 212.5 223 229.7 236.8 218.1 202.2 194.2 182.1 159.7 148.4 144.3 141.5 130.9 124.9 133.3 122.3 105.1 94.4 93.4 92.9 87.8 82.8 76 78.8 72.8 58.8 48.1 35.5 31.2 23.3 12.4 4.6 6.6 -1.6 -1.6 -1.6 -1.6 -1.6 -1.6 3 11.4 38 47.4 49.2 52.2 66.7 88.8 88.4 85.1 81 67.3 57.2 42.1 25.7 17.3 8.7
241.1 244 231.6 226.1 221.3 227 245.1 257 262.8 266 266.9 273.5 298 306.3 312.9 323.8 325.7 316.9 316.3 314.2 316 320.8 327.6 325.7 322.5 314.7 314.1 314.1 314.1 314.1 314.1 314.1 314.1 318.8 332.4 342.5 351.7 357.4 368.7 380.4 384.1 388.2 388.6 388.8 389.2 381.6 384.5 394.2 404.9 414.2 410 398.3 407.6 416.6 406.7 404.3 414.4 434.2 448.3 459.8 440.8 439.1 444.8 460.1 460.2 446.2 444.6 422.9 423.1 415.4 399.7 379.7 368.6 360.6 348.5 337.3 327.9 313 300.6 287.7 278.7 268.2 256.3 244.1 240.6 238.4 238.2 237.2 235.3 236.6 238.2 246.3 244.9 240.1 235.5 234.8 231.8 233 235.6 229.7 228 234.1 234.8 232.4 237.8 232.4 233.3 232.2 234.6 229.4 226.6 219.3 215.4 215.3 220.2 213.7 213.6 201.8 190 201.5 207.3 200.7 189.5 214.7 233.2 243.2 240.3 234.9 233.5 234.3 241 246.3 247.9 252.1 253.8 253.5 249 249.7 249.8 256.5 258.8 268 262.5 245.9 220.2 217.4 226.3 237.3 227.6 208.1 199.2 189.1 167.9 157.1 153.6 140.8 131.2 122.5 117.8 113 103.5 92.8 95.6 92.8 89.6 81.4 76.6 77.6 77 57.8 49.4 35.1 30.2 26 14.5 4.6 2 -1.6 -1.6 -1.6 -1.6 -1.6 -1.6 3.4 19.2 38 49 51.5 51.7 49.6 74.2 76.1 76.4 73.6 65.6 46.6 29.9 17.9 10.1 6.9
233.3 242 240.7 234.6 227.7 222.3 226.2 236.2 239 241.6 261 267.2 275.5 290.1 305.5 313.8 330.4 317.1 316.9 312.5 309.5 314 328.4 325.9 322.5 316.4 315.7 314.1 314.1 314.1 314.1 314.1 314.1 320.1 332.2 338.2 350.3 362.4 375 382.4 396.9 398.2 393.6 392.9 388.3 385.1 384.7 394 399.9 414.2 414.2 398 397.4 400.8 397 397.3 410.7 427.7 443.6 450.2 434.4 432.3 434.4 431.4 438.6 433.6 436.3 418.4 432.1 435.4 403.3 379.1 366 362.8 352.2 337.9 325 310.7 297.6 287.8 278.1 268.4 257.5 246.5 243.5 242.9 241.1 238.5 237.5 238.9 240.2 246.7 241.8 235 235.2 232.3 231.5 232.7 232.7 230.7 228.7 238.2 240.8 238.3 250.9 238.9 237.4 237 235.1 236.3 233 226.4 228.3 224.8 216.1 214.9 215.8 208.5 198.6 206.6 216.7 213.2 202.6 197.9 219.2 231 236.8 236.3 245 241.9 248.5 250.6 245.4 244 246 245.6 246.7 250.1 247.9 249.9 253.6 265.5 266.6 262.7 233 216.1 224.5 232.5 233.8 222.5 205.8 186.3 165 157.1 151.7 141.3 132.6 124.7 114.5 103.9 92.7 89.8 91.3 93.1 84.7 80.4 74.3 80.8 75.6 60.3 45.9 33.9 27.6 24 11.6 6.8 1.9 -1.6 -1.6 -1.6 -1.6 -1.6 -1.6 9.3 24.2 38.9 56.2 66 60 58.6 50.7 57.6 55.9 51.5 45.4 33.8 20 12.1 6.9 3.1
227.8 239 249.8 239.3 236 225.1 221.9 222.4 224.2 226.7 246.1 267.3 264.3 265.8 291.3 313.2 317 315.2 318.7 319.5 309 309 312.6 324.8 321.7 317.4 318.8 314.1 316 314.1 314.1 314.1 314.1 318 329.5 340.2 350.7 354.6 373.4 381.6 394.5 407.4 404.7 402 399 387.8 382.9 388.8 396.9 406.1 413.9 401.6 390 393.7 391.3 395.8 409.6 428.8 441.7 434.3 425 423.8 421.6 418.5 418.4 417.8 410.6 412.2 428 426.2 403.6 375.2 367.7 357.8 344.7 335.2 323.9 309.9 294.4 285.3 275.7 269.1 257.1 247.5 247.4 247.3 246 240.3 242.1 240.2 242.4 242.8 242.1 235.8 239 234.7 233.3 230.8 232.2 229.1 229.1 237.8 244.7 245 256.3 249.5 241.6 242.9 242.4 239.1 232.8 232 231.4 234.1 227.7 221.2 212.1 209.3 207.1 211.3 221.4 217.4 211 201.6 207.2 226.5 234.2 236 243.7 249.6 248.3 252.8 251.6 252.7 252.1 247.1 243.9 248.1 244 246.7 246 259.5 267.6 262.7 245.4 227.3 223.6 228.2 234.1 223.5 203.3 192.4 170.3 160.4 155.8 142.7 130.5 122 113.6 101.2 90.1 86 77.4 84.3 79 68.8 69.6 74.8 71 57.9 42.5 32.5 25.3 21.1 14.4 9.9 -1.6 -1.6 -1.6 -1.6 -1.6 -1.6 -1.6 -1.6 17.3 31.6 48.4 62.6 61.1 61.4 56.7 40.9 40.6 38.5 23.2 15.8 10.3 5.8 3.2 2.4
223.5 237.8 242.7 239 237.5 226.4 224.9 223.2 224.1 226.5 236.3 258.3 261.5 259 274.4 293 310.8 310.7 314.5 315.3 313.3 309 309.5 313.9 317.4 316 319.7 322.2 323.9 322.5 321.5 314.1 314.1 314.1 327.1 333 342.1 353 363.7 370.9 388.7 395.6 399.9 401.6 402.2 392.7 380.1 383 390.1 394.7 398.5 391.7 380.4 384.6 388.4 395.9 405.1 420.4 431.6 429.1 423.3 422 427.2 421.7 415.2 409.2 404 402.2 409 411.7 389.6 371.8 359.7 350.5 340.1 332.1 318.1 307.3 292.1 285 276.8 268.4 255.4 248.8 249 249.6 245.5 244.5 240.3 241.4 243 243.4 241.5 240.3 240.6 237.4 235.5 234.4 231 232.8 233.8 243.3 247.7 247 255.8 257.7 251.9 245 243.6 243.6 239.1 234.6 234.3 239.8 232.9 226.1 217.6 213.8 212.6 219.6 225 227.6 226.4 210.9 196.4 213.4 227.7 234.2 242.2 242 244.8 245.6 247.8 250.8 249.8 248.2 245.2 243.9 243.9 244.1 248.4 257.1 263.3 264.4 253.6 233.1 219.8 220.6 217.4 209.5 198.6 194 172.1 162.6 153.1 143.2 126.9 124.1 118.8 100.5 90.3 82.6 71.1 72.3 72.3 67.5 65.8 71 67.9 52.2 41.7 30 22.1 19.5 17.2 9.9 -1.6 -1.6 -1.6 -1.6 -1.6 -1.6 -1.6 -1.6 14.1 23.2 36.5 51.9 62.6 50.4 51.3 36.8 18.2 16.5 6.5 7.2 2.9 6 2.4 2.4
222.7 233.9 241.6 237.9 237.4 224.4 224.4 227.3 224 227.1 233.5 243.8 251.8 255.6 260.4 273.1 292.4 308 310.2 318.8 316.9 318.5 312.3 312.5 313 312.4 320.6 324.9 330.1 332.1 330.6 327.5 314.1 314.1 314.1 324.7 339.8 346.3 360.2 364.2 377.6 389.6 389.8 392.1 396 393 384.5 376.5 385.5 391.7 394.7 387.7 376.2 375.4 389.1 395.7 394.8 408.1 425.8 424.7 422.8 421.5 426.1 417.3 411.6 408.8 403.7 398.3 393.3 398.9 378 361.8 348.6 341.8 332 324.9 311.1 302.5 293.7 282.7 278.1 267.4 253.8 249.8 249.8 248.2 248.5 247.2 242.9 241.5 242.2 243.6 243.7 242.8 241.7 239.5 237.7 239 236.3 237.3 240.7 248 250.3 250.3 260.1 265 256.1 257.6 249.3 246.4 245.2 235.3 238.4 243.7 239.7 230.1 223.9 219.5 217.2 230.4 228 225.2 222.5 216.6 201.7 198.8 212.1 228.3 244.8 253.3 252.9 256.5 259.2 256.6 254 255.4 251.8 248 248.5 244.8 245.2 252.3 270.2 269.1 256.1 239.1 220.6 208.8 204.8 192 181.2 175.5 165.9 159 151 139 128.3 123.8 114.9 100.3 88.9 80.6 74.6 59.1 63.5 63.3 57.6 58.7 55.3 47.3 38.5 29.2 20.3 19 17.7 8.3 -1.6 -1.6 -1.6 -1.6 -1.6 -1.6 -1.6 -1.6 5.3 16.7 24.7 39.5 50.7 39.6 43 26 2.2 -1.6 -1.6 -1.6 -1.6 -1.6 -1.6 2.4
223.5 226.8 242.7 238 238.1 224.4 224.4 230 225.5 227 231.3 239 248.5 259.2 260.7 268.2 283.3 300.3 309.8 310.5 313.7 327.2 317.2 310.2 311.6 306.7 316.7 325 330.1 338.7 337.8 329.2 314.9 314.1 314.4 321.9 328.1 340.1 354.1 366.7 373.5 381.5 378.8 385.5 386.8 385.7 385.2 373.4 377.1 386.7 393.1 389.3 372.1 371.1 385.2 384.2 382.4 399.3 419.6 422.8 422.3 434.3 435.1 426.8 415 416 405.6 401.5 395.8 382.5 371.6 354.6 342.7 333.5 324.2 314.6 304.6 295.6 288.7 281.9 275.9 261.2 255.2 251.4 250.7 247.8 251.6 250.2 247.2 244.2 242.8 243.7 244.7 244.1 243.1 242.1 241.2 242.1 242.2 240.9 247.4 255.6 255.7 254.5 266 273.2 265.4 265.3 254.4 252.1 251.3 240.1 240.9 246.8 242.8 235.3 230 223.1 221.6 230.6 241 225.7 221.2 215.6 208.6 197.3 201.9 223.3 233 249.4 255.6 257.4 263.9 269.6 262.4 260 257.6 252.6 248.1 251.7 245.5 254 266.6 276.4 271.1 252.4 229.4 203 193.8 187.7 173.6 174.5 165.5 166.4 154.6 141.4 128.7 123.2 114.8 102.5 88.9 79.2 73.6 62.5 53.3 52.7 53.1 50.5 49.5 39 32.4 27.1 16.7 14.4 13.8 6 -1.6 -1.6 -1.6 -1.6 -1.6 -1.6 -1.6 -1.6 -1.6 12.2 16.7 21.2 20.6 21.5 16.1 6.4 -1.6 -1.6 -1.6 -1.6 -1.6 -1.6 -1.6 6.2
228.6 227.6 234.1 235.3 234.9 225.6 224.4 232.1 235.7 233 233.9 238.5 253.3 255.2 259.6 273.1 276.8 291.4 310.8 311.1 311.2 320.1 326.2 312.4 300 299.1 314.9 324.4 330.7 338.4 342.3 336 321.4 314.1 316.8 320 326.9 330.1 349.4 375.2 377.2 378.1 373.3 375.4 379.8 380.9 382.2 369.8 373.7 380.4 384.7 387.5 370.7 366.3 380.3 377.9 384.7 408.8 419.9 425.4 432.1 444.8 450.5 431.5 417.4 415.5 402.2 398.9 408.5 397.2 372 352.8 339.4 329.2 318.8 310.3 297.9 290.2 286.4 277.9 266.6 258.8 252.2 249.7 250.3 251.5 253.3 256.8 250.1 244.5 245.6 248.1 250.4 248.9 248 246.2 245.7 245.5 246.3 244.9 247.7 257.1 261.6 259.5 274.5 273.3 270.6 270.7 262.8 257.7 259 249.9 245.9 252.8 249.4 245.4 235.5 227.2 223.8 232.7 239.2 235 226.9 220.2 210.2 203.4 198.4 213 238.1 243.1 239.6 250.7 258.2 263.3 269.4 265.4 262.6 261.3 251.4 257.5 252.4 252.3 258.4 274.5 278.2 267.1 243.7 210.4 191.4 184.5 170.7 167.7 165.2 167.2 157.4 145.7 131.8 123.3 112.3 100.6 95.4 83.1 72.7 65.2 59.9 43.8 36.4 34.8 41.1 35.3 30.1 25.1 13.6 8.7 6 10.4 -1.6 -1.6 -1.6 -1.6 -1.6 -1.6 -1.6 -1.6 -1.6 -1.6 9.3 9.2 6.6 4.9 -1.6 -1.6 -1.6 -1.6 -1.6 -1.6 -1.6 -1.6 -1.6 9.6
233.8 231.9 234.9 239.2 236 227 224.4 229.8 236.8 238.5 237.7 240.5 250.5 260.4 259.9 268.2 288.6 293.7 305.4 308.5 309.6 310.9 312 309.4 296.3 296.4 308.5 322.8 325.5 339.3 344.3 349 328.3 317.1 316 319.8 322.1 332.7 339 357.7 370.9 372.5 370.3 371.5 374.8 376.3 379.1 371.3 365.9 370.4 378.1 379.4 372.5 362.3 370.5 376.8 387 413.7 433.9 430.5 437 446.9 448.8 441.8 426.9 405 393.9 389.2 393.2 379.7 360.8 344.6 335.8 325.9 315.7 303.1 292.3 286.2 279.8 269.7 260.6 253.8 249.7 249.7 249.7 254 255.6 258.4 254.7 250.6 250.1 252 262.5 258.5 256.4 251.5 255.8 251.6 258.1 250.8 255.3 269.7 270.4 262.2 273 278.1 278.2 271.5 270.5 271.8 262.6 258.6 249.2 253.5 253.5 253.8 237.7 233.1 225.6 236.5 250.3 244.5 237.7 228.2 216.3 211.7 202.4 203.8 233.4 250.7 250.3 248 255.3 262.7 268.9 272.3 268 267.7 256 262.3 258.7 257 260.7 269.6 280.1 279 255.5 223.9 195.1 175.6 162 161.1 156.2 167.9 155.9 145.4 134.2 128.5 112.6 99.2 91 83.3 69.1 59.9 62.1 47.1 38.6 25.9 25.2 31.2 24.6 22.7 12.9 6 3.4 -1.6 -1.6 -1.6 -1.6 -1.6 -1.6 -1.6 -1.6 -1.6 -1.6 -1.6 -1.6 5.3 -1.6 -1.6 -1.6 -1.6 -1.6 -1.6 -1.6 -1.6 -1.6 -1.6 -1.6 6.1
234.5 235.8 240.1 244 238.8 233.8 224.4 230 231.9 239.7 239.7 243.5 252.1 264.1 262.9 280.3 300.1 306.9 309.3 310.5 314.2 309.4 310 303.1 292.9 291.5 307.1 313.1 322.4 329.3 333.6 335.3 335.2 325.9 318.9 321 322.4 326.8 333.5 341 354.9 362 365.5 369.6 371.9 376.5 376.9 369.9 361.3 364.3 372.7 376.9 370.6 359.1 362.6 371.6 388.3 412.6 430.6 435.9 434.8 447.6 452.1 438.5 423.9 407.1 390.3 382.8 380.1 370.2 352.9 337.1 330.7 319 313.1 299.9 288.5 279.4 274.6 263.8 255.9 249.7 249.7 249.7 249.7 251 254.8 256.3 257.9 253.7 251.7 257.7 269.4 266.8 262.1 257.5 263.5 258.8 264.5 259 260.7 274.3 270.9 267.1 272.9 277.5 279.5 276.5 276 275.3 268.6 261.5 255.6 255.5 254.9 255.4 244 234.5 230.3 241.6 247.3 257.7 244.8 244.4 222 217.4 201.8 202 224.2 250.8 258.5 256.9 261.5 258.3 269.2 276.6 275.5 268.3 260.7 265 262.3 258.9 265.5 263 276.7 280.1 261.9 232.6 203.3 166.1 149.1 147.6 147.7 155.7 152 140 130.9 128.9 117.1 100.2 87.5 80.7 71.8 59.1 47 41.8 32.9 32.4 19 16.6 19.8 17.5 8.9 5.4 1.4 -1.6 -1.6 -1.6 -1.6 -1.6 -1.6 -1.6 -1.6 -1.6 -1.6 -1.6 -1.6 -1.6 -1.6 -1.6 -1.6 -1.6 -1.6 -1.6 -1.6 -1.6 -1.6 -1.6 -1.6 -1.6
234.5 237.1 239.8 244.7 239 236.1 229.2 227.8 231.5 232.4 233.5 240.6 249 266.7 270.8 274.1 297.5 306 311.8 311.3 305.3 304.5 308.3 296.6 291.1 296.1 303.1 309.6 315.9 323.7 330.8 336.6 340.4 331.6 328.6 324.2 328.9 336.3 339.8 337.7 346.7 361.9 366.9 366.1 370 378.6 375.2 365.3 355.7 362.1 366.8 372.3 368.9 357.3 362.8 370.6 389.9 410.4 424.5 433 434.1 439.7 439 430.8 417.8 406.2 382.6 375.4 377.6 362.6 346.3 331.7 324.1 312.6 306 295.8 284.6 277.7 264.9 258.2 253.1 249.7 249.7 249.7 249.7 249.7 252 255.1 260.9 257.7 256 266.4 277.2 276.3 273.6 266.4 268.9 269.3 264.5 266.1 270.2 276.1 275.2 269.7 271.2 276.4 277.3 278.8 280.6 284.7 272.2 265 258.2 260.7 256.9 256.6 252.1 238.3 236.2 245.3 248.9 257.5 248.4 248.2 234.3 227.5 214.8 207.1 207.7 239 260.4 267.5 266.5 270.7 266.8 274.1 274.7 269.9 267.5 273.9 263.7 267.9 266.3 273.2 272.7 280.7 269.1 241.3 211.2 176.1 149 139.9 137.1 144.7 144.8 133.9 125.5 122.5 115.9 101 87.1 80.5 76.4 60.3 44.7 31.5 27.9 23.4 18.3 12.1 13.2 11.2 6 6.9 2.8 -1.6 -1.6 -1.6 -1.6 -1.6 -1.6 -1.6 -1.6 -1.6 -1.6 -1.6 -1.6 -1.6 -1.6 -1.6 -1.6 -1.6 -1.6 -1.6 -1.6 -1.6 -1.6 -1.6 -1.6 -1.6
237 240.6 240.6 241.8 240.5 238.6 233.8 231.5 233.2 232.5 232.3 233.5 237.2 256.3 266.8 276 286.7 312 312.1 312.7 303.6 295.1 290.8 289.3 288.3 293.9 305.6 308.3 310.9 316.2 323.8 331.2 334.3 333.7 329.6 327.3 331.7 336.9 345.4 348.6 343.7 343.5 361 362.1 363.4 375.1 372.5 368.4 353.8 359 364.2 368.6 364.9 355.2 362 368.8 385.1 405.4 421.5 432.9 430.4 434.8 438.6 421.7 410.2 396.7 376.5 366.1 368.4 355.6 341 327.9 316.7 307.7 300.3 292.4 282.4 272.1 259.9 254.6 251.1 249.7 249.7 249.7 249.7 249.7 252.6 258.4 262.2 259.7 266 272.8 288 295.7 291.3 281.5 273.7 273.4 269.5 275.3 280.4 280.3 282.2 276.8 272.9 274.7 277.5 278.9 286 285.1 276 268.4 262.5 266.2 262 258.9 255.4 240.9 243.2 253.6 251.4 261.5 251.4 245.5 240.3 236.1 224.4 212.5 211.6 231.2 255.1 269.3 267.1 279.7 273.8 269 267.6 268 267.6 273.8 272.9 270.8 269.6 268.8 274.6 276.9 270.5 244.3 217.2 186.8 165.3 145.8 123.9 132 131.5 125.1 117.7 115.9 107.8 94.8 85 73.8 64.9 56.1 36.5 28.3 29.9 19.8 11 6.9 8.4 9.6 6.1 7 4.6 -1.6 -1.6 -1.6 -1.6 -1.6 -1.6 -1.6 -1.6 -1.6 -1.6 -1.6 -1.6 -1.6 -1.6 -1.6 -1.6 -1.6 -1.6 -1.6 -1.6 -1.6 -1.6 -1.6 -1.6 -1.6
235.2 242 242.9 242.4 244.9 240.2 236.6 233.8 233.9 235 231.6 231.7 232.5 240.7 250.6 278.9 279.2 289.1 301.6 305.9 301.2 294.1 290.1 286.9 287.5 291.4 310.7 314 310.3 311.6 318.5 327.1 335 335.2 330.3 329.3 328.6 338.9 344 351.6 355.2 343.2 345.7 358.1 357.1 362.2 363.7 361.1 352.9 355.4 361.6 362.5 361.7 351.7 362.2 362.1 380.6 404.2 420.8 439.4 427.8 432.2 428.2 423.4 405 389.3 370.9 361 357.5 348.7 333.2 320.4 313.2 303.2 295.7 287 276 262.9 256.2 250.8 249.7 249.7 249.7 249.7 249.7 251 261.5 267.1 267.8 268.6 277.3 285.1 294.1 303.9 304.3 298.1 282.9 281.6 277.2 279.3 284.6 287.7 284.2 282.6 277.7 276.3 278.1 280.8 290.2 289.3 277.2 273.3 272.9 270.1 264.1 262.4 257.5 244.9 251.1 255.3 256.3 261.9 254.5 243 244.2 242.5 233.3 223.5 215.7 221.6 252.2 268.6 278.3 276 286.1 272 269.3 267.6 267.6 268.5 270.9 272 273.1 276 276.7 276.4 271 251.8 224.4 195.6 171.2 148.5 126.5 116.4 118.4 116.6 111.4 108 99.3 88.1 81 75.8 67.5 54.5 39.7 26.7 21.9 20.7 5.5 3.5 3.6 6.5 2.8 2.8 6.1 -1.6 -1.6 -1.6 -1.6 -1.6 -1.6 -1.6 -1.6 -1.6 -1.6 -1.6 -1.6 -1.6 -1.6 -1.6 -1.6 -1.6 -1.6 -1.6 -1.6 -1.6 -1.6 -1.6 -1.6 -1.6
229.2 237.4 246.1 243.9 243.3 244.6 237.2 235.9 235 233.7 232.7 231.1 231 237.5 234 249.5 274 301.9 308.6 315.4 311.9 294.7 290.4 285.3 279.2 287.3 301.3 312.5 309.5 311.1 312.5 318.3 326.2 332.7 333.1 330.1 333.1 339.9 346.4 350.5 353.9 349.8 346.8 342.4 348.9 351.3 354.7 358.7 352.9 351.4 361.6 363.5 358.8 347.5 357.9 359.6 373.4 401.3 416.3 427.9 427.7 425 421.3 414.7 401.7 384.2 367.1 355.9 348.9 340.7 327.4 314 306.4 298.4 292 280.7 269.8 260.5 252 249.7 249.7 249.7 249.7 249.7 249.7 251.9 263.2 277.8 276.9 276.7 284.1 314 311.9 307.7 308.7 308.1 294.9 286 282 281.2 299.5 293.9 291.3 290.2 283.7 277.2 279 288 290.4 292.3 280.2 275.8 271.3 273.8 266.1 263.5 258 250.5 261.5 256.3 259.3 260.2 262.8 247.6 246.4 252.4 247.9 236.4 222.9 220.7 243.2 258.2 271.3 277.3 280.2 278.5 276.2 271.8 267.6 267.6 268.8 271.3 271.4 275.2 275.3 269.9 267.7 254.7 232.8 204.7 173.7 153.5 133.3 105.8 110.4 109.8 107.4 103.1 93.4 82.4 76.3 71.6 66 54.2 37.7 26.2 17 6.9 4.4 -1.6 0.9 4.5 -1.6 -1.6 -1.6 -1.6 -1.6 -1.6 -1.6 -1.6 -1.6 -1.6 -1.6 -1.6 -1.6 -1.6 -1.6 -1.6 -1.6 -1.6 -1.6 -1.6 -1.6 -1.6 -1.6 -1.6 -1.6 -1.6 -1.6 -1.6
212.1 232.8 243.8 245.5 242.1 241.2 239.7 236 235.1 234.2 233.9 232.6 229.6 229 234.5 237.7 252.6 273 285.8 296 301.9 289.6 283.5 282 274.3 281.9 292.2 298.3 301.3 304.4 307 313.3 323.3 328.1 332.8 331.9 334.3 345.3 350.1 351.6 353.1 351.8 353.1 345.3 342.7 346.2 348.5 350 347.5 347.2 358.8 365.8 357.5 343.5 355.4 355.9 368.8 396.6 408.5 419.6 421.4 422.4 415.3 408.3 391.5 376.9 363.8 351 342.6 334.8 322.9 310.4 302.7 294.1 287.3 274 264.2 255.6 249.7 249.7 249.7 249.7 249.7 249.7 253.3 255.9 264.4 273.2 276.4 283.1 291.2 317.1 320.4 314.5 314.1 310.3 300.4 290.3 286.6 286.8 300.8 303.9 296.2 294.6 293.8 283.3 281 289.3 294.4 296.6 286.2 280.3 277.2 276.6 272.4 268.2 262.8 257.7 264.3 261 260.5 261.9 262.8 253.4 253.4 256 256.7 244.1 230.2 226.5 232.3 252.3 261.1 277 283.5 284.7 284.3 281.2 276.2 267.6 273.4 270.6 273.5 271.3 270.1 264.3 263.9 250.5 234.1 207.9 179 155.5 138.2 116 102.2 104.2 103 97.2 87.3 79.6 69.8 63.4 57.6 47.9 32.6 24.3 20.2 5.1 -1.6 -1.6 -1.6 2.9 -1.6 -1.6 -1.6 -1.6 -1.6 -1.6 -1.6 -1.6 -1.6 -1.6 -1.6 -1.6 -1.6 -1.6 -1.6 -1.6 -1.6 -1.6 -1.6 -1.6 -1.6 -1.6 -1.6 -1.6 -1.6 -1.6 -1.6 -1.6
205.4 232 242.9 244.8 242.5 239 237.2 235.2 235.1 236.4 233.1 233.1 229.4 226.1 225.7 228.2 230.4 239.8 253.8 270.4 280.6 279.6 280.2 279.1 271.5 280 291.6 298.2 300.4 303.1 306.4 311.6 318.9 325.3 329.6 335.4 331.2 342.1 347 351.3 354.7 353.6 349.1 347.6 343.8 340.4 344.1 346.1 345.8 341.2 352.6 361.7 356.7 340.8 349.7 351.7 362.5 392.6 400.9 417.4 419.9 417.2 410 397.3 386.2 370.3 358.3 346 340.7 321.9 317 304.8 297.5 294.5 284.7 271.6 262.4 251.4 249.7 249.7 249.7 249.7 249.7 252 260.8 263.3 267.5 273 281.6 288.6 296.7 320.2 339.8 340.6 324.5 324.8 311 296.6 294.7 301.3 302.4 306.5 303.8 300.4 298.6 290.8 285.4 290.2 294 299.6 290.3 285.7 283.9 279.7 275.2 270.2 264.9 266.1 271.5 265.5 263.3 262.9 259.1 254.3 255.8 259.4 260.9 260.6 239.2 232.8 228.8 238.1 259.4 279.5 284.9 288.4 286.7 284.8 283.7 276.7 267.6 271.2 270.8 271.7 275.1 263.8 260.6 248.1 228.8 206.9 177.6 158.9 139.9 120.5 98.3 97.1 96.9 90.7 81.3 73.9 66.9 56.5 47.7 43.4 39.2 21.7 16.5 4.1 -1.6 -1.6 -1.6 -1.6 -1.6 -1.6 -1.6 -1.6 -1.6 -1.6 -1.6 -1.6 -1.6 -1.6 -1.6 -1.6 -1.6 -1.6 -1.6 -1.6 -1.6 -1.6 -1.6 -1.6 -1.6 -1.6 -1.6 -1.6 -1.6 -1.6 -1.6 -1.6
198 225.2 240.2 242.2 241.1 238.5 234.7 232.3 233.4 236.6 233 230.2 230.5 225 225.8 228.8 229.2 232.5 240.5 251.8 262.2 271.6 275.6 278.3 269.1 277.5 283.3 293.1 299.2 302.7 306.4 308.5 313.4 321.4 324.7 332 327.2 334.2 343.6 347.8 356 359.2 351.2 347.1 346.7 342.3 341.5 336.9 340.1 335.3 342.3 350.4 348.4 335.9 343 347.4 354.7 381.4 392.5 407.8 411.5 408.4 404.2 389.1 375.1 358.7 347.4 339.2 331.1 320.3 308.5 296.8 291.5 289.9 282.2 269.7 260.9 250 249.7 249.7 249.7 249.7 249.7 256.4 268.3 279.8 280.5 282 287 291.9 302.9 314.8 338 349.8 339.3 336.8 328.2 310.4 303.1 310.6 321.3 311.9 307.7 305.6 305.3 298 291.7 291.1 296.7 300.5 298 288.8 289.4 283.1 277.1 271.8 268.6 271.8 276.6 269.9 263.4 270.6 262.1 254.4 264.2 264.7 268.8 271.7 245.5 241.9 232.7 236.7 260.4 278.9 288.7 290.9 294.8 289.5 285 276.6 273.1 271.2 263.6 266.1 272.4 267.2 257.6 237.2 232.5 199.3 175.2 155.5 137.8 122.7 106.9 83.4 89.5 83 76.3 69.7 60.6 48.8 33.1 33.4 28.3 10.8 10.8 4.5 -1.6 -1.6 -1.6 -1.6 -1.6 -1.6 -1.6 -1.6 -1.6 -1.6 -1.6 -1.6 -1.6 -1.6 -1.6 -1.6 -1.6 -1.6 -1.6 -1.6 -1.6 -1.6 -1.6 -1.6 -1.6 -1.6 -1.6 -1.6 -1.6 -1.6 -1.6 -1.6
196.4 216.8 234.4 237.7 236.8 239.9 234.7 231.2 230.6 229.9 227.8 229 224.7 224.9 228.9 230.6 228.6 229.4 236.3 249.5 259.3 267.4 269.2 267.4 260.3 270.9 281.2 283.2 290.2 300.8 303.6 304 311.5 312.3 318.6 321.9 322.9 330.9 340.1 342.6 353.9 358.9 353.3 347.5 345 344.2 343.3 331.5 331.9 330.5 333.4 345.5 346 330.7 335.4 339.5 345.3 367.6 382.1 394.7 398.6 403.6 396.3 383.5 367.8 350.9 340.5 333.4 323.7 313.8 301.7 290.9 290.1 282.9 277 268.6 259.4 250.8 249.7 249.7 249.7 249.7 249.7 260.9 272.3 287.7 298.2 294.3 298.2 297.8 305.1 315.7 334.7 355.8 354.2 342.1 336.8 323.9 310.6 321.4 328.3 319.8 317.8 314.6 315.1 306.1 297 299.4 301.5 299.9 296.4 292 289.6 283.9 277.5 273.3 274.3 276 279.6 275.5 270.7 271.7 273.4 260.7 266.9 277 278.1 273 262.3 246.2 240.4 235.8 257.9 271.7 284.4 283.9 287.1 287.7 280.9 273.6 270.2 260.4 262.5 251 249.1 251.4 248.4 235.1 217.4 198.9 171.8 152.3 137.2 123.4 110.8 90.1 79.3 72.5 61.4 59.8 51.5 40.2 25.5 16.1 9.9 3.8 2 2.5 -1.6 -1.6 -1.6 -1.6 -1.6 -1.6 -1.6 -1.6 -1.6 -1.6 -1.6 -1.6 -1.6 -1.6 -1.6 -1.6 -1.6 -1.6 -1.6 -1.6 -1.6 -1.6 -1.6 -1.6 -1.6 -1.6 -1.6 -1.6 -1.6 -1.6 -1.6 -1.6
201.2 210.5 220.1 230 230.2 239 233.9 229.3 229.3 229.2 219.9 222.8 222.3 224.2 226.7 230.7 229.3 229.5 231.9 241.5 247.9 258.8 262.9 264.8 258.2 258.6 274.3 275.1 283.7 297.3 302.7 297.3 308 316.1 319.6 322.6 322.1 326.5 332.8 336.4 350.6 352.6 349.3 348.5 345.2 342.9 342.5 343.2 329.7 323.2 325.3 333.4 334.2 327.4 329.9 335.6 339.4 357.4 370.9 380.1 385.5 385.6 390.2 372.8 358 341.3 335.9 328.8 320.5 308.1 296.2 286.6 285.3 279.7 278 264.6 259.3 250.7 249.7 249.7 249.7 249.7 255.6 264.6 277.7 293.6 303.9 320.2 312.9 306.6 311.7 327.5 344.3 363.2 363.2 351.6 343.3 332 322.4 332.5 333.4 330 326.6 317.4 320.3 316.4 310.5 309 323 308.2 300.4 296.8 290.7 286.5 278.9 275.6 275.3 278.5 284.2 279.3 275.7 270.6 276.2 269.8 269.2 282.4 283.3 281 267.4 258.9 246.7 237.3 249.6 267.2 276.5 278.3 281.3 282.8 279.9 268.1 262.7 255.8 253.1 251.1 237.7 232.7 229.2 220.1 207.7 193.8 170.4 151.8 136.1 123.8 111.6 91.7 70.8 62.8 51.3 48 37 26.5 13.7 6.5 3.4 -1.6 -1.6 -1.6 -1.6 -1.6 -1.6 -1.6 -1.6 -1.6 -1.6 -1.6 -1.6 -1.6 -1.6 -1.6 -1.6 -1.6 -1.6 -1.6 -1.6 -1.6 -1.6 -1.6 -1.6 -1.6 -1.6 -1.6 -1.6 -1.6 -1.6 -1.6 -1.6 -1.6 -1.6 -1.6
207.9 201.2 203.1 218.1 219.5 229.8 225.8 225.8 227.1 227 220.1 218.2 220.5 221.8 223.5 229.6 227.7 226.5 227.3 234 241.8 246.4 252.6 257.2 256.7 248.8 261.7 267.2 268.5 278.1 290.9 291.7 297.7 309.6 318.7 320.9 321.6 324.3 323.5 329.8 339.3 346 341.8 345.3 343.3 342.7 341.1 341 335.9 330.7 320.3 325.9 330.9 324.6 327.4 330.5 335.8 350.3 361.3 373.1 377.2 373.7 369.6 359.9 346.4 334.2 328.7 321.5 311.8 303 289.3 284.9 284.1 276.6 272 263.2 259.3 251.6 249.7 249.7 249.7 249.7 258.2 275.5 285 300.6 317.3 337.6 335.6 324.8 320.7 330.4 354.3 357.8 361.2 354.7 348.5 339.8 333.2 339.1 335.9 338.8 342.2 328 320 323.1 321.2 310.9 328 322.4 299.4 298.2 296.2 288.8 281.1 280.1 278.6 280.1 285.8 282.6 283.1 276.4 282.3 285 271.2 275.3 285.3 285.1 276 266.5 256.9 237.9 237.3 253.2 262.1 272.3 269.4 268.5 268.3 261.3 254.6 248.8 243.9 238.7 234.9 231.3 223.2 217.4 203.6 190.3 168 152.4 133.8 123.5 111.7 93.4 74.3 50.6 45.1 37.9 31.1 20.6 5.9 2.2 -1.6 -1.6 -1.6 -1.6 -1.6 -1.6 -1.6 -1.6 -1.6 -1.6 -1.6 -1.6 -1.6 -1.6 -1.6 -1.6 -1.6 -1.6 -1.6 -1.6 -1.6 -1.6 -1.6 -1.6 -1.6 -1.6 -1.6 -1.6 -1.6 -1.6 -1.6 -1.6 -1.6 -1.6 -1.6 -1.6
206.3 198.9 185.1 191 211.8 222.7 221 225.6 228.4 223.9 216.6 213.5 215.1 217.5 220.4 223.9 225.3 224.4 223 227.5 233.6 239.4 246.3 249.7 251.7 243.7 255.3 260.7 266.4 267.1 277.1 279.3 286.6 300.6 312.7 318.9 321.9 318.3 317.9 324.6 330.8 335.6 333.8 340.3 342.1 342 345.9 340.9 333.5 330.9 326 321.5 326.4 320.4 325.5 327.2 329.6 343.8 353.5 361.8 364.8 364.9 362.4 352 335.7 324.6 319.8 313.3 307.2 299 286.9 282.7 282.8 275 275.5 267.7 261.1 253.8 251.5 249.7 249.7 249.8 270.5 284.9 297.4 310.4 336.1 354.6 345.6 336.6 335.4 336.4 354.4 365.9 363.1 359.9 363.9 350.4 350.3 354.4 351.2 345.9 344 335.5 329 330.9 327.4 315.8 328.2 324.4 304.2 300 302 291.6 282.6 279.9 280.1 283.8 286 287.2 287.4 282.3 291.3 291.9 277.9 275.6 275.6 286.6 283.5 272.6 261.5 239.7 235.8 245.8 257.1 265.4 261.4 258.6 252.1 245 237.7 231.9 232.9 237.8 236.8 228.3 224.5 208.3 201.2 184.6 167.9 152 133.1 121.9 113.7 94.8 77.7 50.4 41.5 33.1 21.5 10.8 3.6 -1.6 -1.6 -1.6 -1.6 -1.6 -1.6 -1.6 -1.6 -1.6 -1.6 -1.6 -1.6 -1.6 -1.6 -1.6 -1.6 -1.6 -1.6 -1.6 -1.6 -1.6 -1.6 -1.6 -1.6 -1.6 -1.6 -1.6 -1.6 -1.6 -1.6 -1.6 -1.6 -1.6 -1.6 -1.6 -1.6 -1.6
201.4 199.6 189.4 179.5 189.6 211.1 214.9 224.2 224 221.9 213.1 211.6 214.1 216.1 219.7 223.5 222.4 220.9 219.9 223.5 229.7 234.3 241.8 241.2 243.9 236.5 246.6 255.2 260.7 262.5 265.2 271.7 271.7 288.1 304.6 314.9 314.2 316.7 313.9 318.4 325.9 327.2 328 336.8 338.6 339 341.3 340.2 334.5 328.4 324.7 318.1 323.5 314.7 321.1 326.4 325.3 340.1 349.7 356.4 358.3 361.8 357 346.4 334 321.3 315.9 313.7 306.2 295.5 284.8 281.3 281.5 275.9 274.1 269.1 263 257.1 254.4 251.6 251.3 255.4 276.1 297.5 310 325.3 345 362.3 362 354 348.1 348.3 359.2 368.9 365.8 364.4 369.4 359.7 354.7 365.6 365.4 353.2 355.6 351.6 340 335.2 333.1 325.7 327.4 323.8 309.7 303.1 304.5 298.6 285.4 282.3 283 285.4 286 289.6 289.3 289.5 293.2 302.3 281.5 276.3 275.6 278.3 285.7 280.9 272.2 250.4 236.3 238.1 249.1 259.2 259.1 255 250.4 243.6 237.7 226.3 224.8 222.4 221.7 221.7 216 199.4 189.2 182.6 166.1 147 135.3 119.1 109.5 94.6 77.4 56.5 40.1 29 15.1 6.1 2.3 -1.6 -1.6 -1.6 -1.6 -1.6 -1.6 -1.6 -1.6 -1.6 -1.6 -1.6 -1.6 -1.6 -1.6 -1.6 -1.6 -1.6 -1.6 -1.6 -1.6 -1.6 -1.6 -1.6 -1.6 -1.6 -1.6 -1.6 -1.6 -1.6 -1.6 -1.6 -1.6 -1.6 -1.6 -1.6 -1.6 -1.6
191.3 195.7 192.6 179.7 177.2 185.6 200.5 211 214.5 219.6 213.7 211.6 214.4 215.7 218.4 219.4 220.5 220.1 218.3 218.9 222.5 221.6 227.9 230.2 236.9 235 240.3 246.1 256.9 257.8 259.3 261 264.2 276.3 292.3 304.1 309.2 313 312.2 307.4 316.2 321.1 322.8 329.1 335.9 337.1 336.6 336.5 330.9 327.9 322.4 314.3 312.7 314.8 316.6 324 323.4 337.8 347 351.5 355.4 355.5 348.1 337.1 321.2 315.9 312.1 305.8 301.7 295 282.6 280.4 282.3 277.5 271.9 265.8 262.7 257.7 257.4 255.7 258 268.2 282.7 306.8 317.4 328.6 352.9 369.8 368.6 366 355.8 356.4 364.9 365.9 367.1 367.5 372.6 364.4 357.6 371.7 376.3 366 357.5 357 358.6 345.1 336.3 330.2 322.7 321.3 311 308.3 302.7 300.4 289.3 285.9 283.6 288.2 289.4 289.3 290.5 297.4 291.5 306.6 296.4 276.5 276.2 277.2 277.4 283.6 277.7 260.1 240.4 230.3 237.6 244.4 245 248.2 252.7 246 241 230.2 222.3 222.5 215 201.7 198.5 185 176.3 167.1 151.7 136.9 124.6 113.9 102.9 95.5 79.7 58.9 38.2 19.2 9.6 2.3 -1.6 -1.6 -1.6 -1.6 -1.6 -1.6 -1.6 -1.6 -1.6 -1.6 -1.6 -1.6 -1.6 -1.6 -1.6 -1.6 -1.6 -1.6 -1.6 -1.6 -1.6 -1.6 -1.6 -1.6 -1.6 -1.6 -1.6 -1.6 -1.6 -1.6 -1.6 -1.6 -1.6 -1.6 -1.6 -1.6 -1.6 -1.6
187.3 191 191.9 185.1 179.1 177.3 186.3 199.9 207.3 212.8 209.7 207.5 212.6 215.4 217.5 218.3 221.4 221.4 216.4 216 215.4 214.5 219.4 219.4 224.9 228.1 236.9 242.1 249.1 253.4 254.4 257.8 260.2 268.3 289.5 294.4 303.1 309.9 310.6 300.2 307.9 315.2 318.5 323.6 328.5 330.4 331.1 333.4 331.3 326.5 325 317.4 304.7 311.7 310.3 318.3 319.1 335.8 346.8 349.5 352.2 351.4 343.7 328.9 315.4 310.9 305.8 302.1 296.1 291.2 283.4 280.5 282.4 275.2 272 263.8 261.8 256.9 258.5 258.6 268.8 280.8 300.4 322.4 339.4 340.3 361.4 377.2 382.4 384.6 371.4 363.9 368.3 363.9 366.3 367.2 371.8 361.5 361.6 373.3 380.5 371.3 367.7 362.1 356.3 349 340 335.2 324.4 321.5 310.5 308.2 301.9 300.6 290.7 287.6 285.4 288.6 293.3 290.4 293.6 301 298.8 309.1 310.3 279.7 273.6 272.3 274.9 275 277 264.8 246.2 227.6 224.2 236.7 237.3 235.3 242.1 236.1 236.9 230.1 223.6 211 201.3 188.2 181.5 171.1 160 154.3 139.9 128.3 117 112.1 96.7 90.3 78.2 57.9 47.4 18 4.3 -1.6 -1.6 -1.6 -1.6 -1.6 -1.6 -1.6 -1.6 -1.6 -1.6 -1.6 -1.6 -1.6 -1.6 -1.6 -1.6 -1.6 -1.6 -1.6 -1.6 -1.6 -1.6 -1.6 -1.6 -1.6 -1.6 -1.6 -1.6 -1.6 -1.6 -1.6 -1.6 -1.6 -1.6 -1.6 -1.6 -1.6 -1.6 -1.6
177.6 190.2 192.1 188 176 171.6 182.6 183.9 195.4 200.5 199.6 200.9 209.4 216 214 215.6 215.6 216.7 215.4 213.7 213.1 211.1 212.1 215.5 214.4 219.8 234.1 237.2 242.7 249.7 252.9 255.3 257.5 259.6 278.2 287.3 297.3 303.4 303.7 297.1 303.8 308 310.4 315 323 323.3 321.1 325.3 326.6 323.1 323.5 317.5 309.1 307.9 305.6 311.8 316.6 330.2 339.7 344 344.8 346.3 336.3 322.9 310.5 305.2 300.3 298.6 291.3 286.8 282.1 280.1 279.6 273.2 271.7 263.1 262.2 256.9 258.9 265 276 290.7 312.6 326.2 340 354.7 371.6 385.4 390.5 396.9 385.6 367.1 373.9 375.3 364.1 362.4 368.6 359.6 360.9 371.7 378.1 378.1 367.9 371.3 363.8 352.9 342.1 339.1 327.5 319 314.1 315.7 303.7 302.8 295.4 291.7 291.8 294.3 299.2 298.9 294.5 305.5 310.6 310.7 314 294.5 275.8 272 270 271 268.2 265.4 251.1 229.4 213.8 222.3 222.8 222.9 223.1 225.2 226.2 221.1 208.9 200.2 188.4 172.6 166.7 155.2 146.9 137.2 127.9 118.4 111.8 110 93.2 83.4 70.2 55.1 45.4 24.8 2.2 -1.6 -1.6 -1.6 -1.6 -1.6 -1.6 -1.6 -1.6 -1.6 -1.6 -1.6 -1.6 -1.6 -1.6 -1.6 -1.6 -1.6 -1.6 -1.6 -1.6 -1.6 -1.6 -1.6 -1.6 -1.6 -1.6 -1.6 -1.6 -1.6 -1.6 -1.6 -1.6 -1.6 -1.6 -1.6 -1.6 -1.6 -1.6 -1.6
164.3 184.1 191.1 189.6 176.5 169.5 173.6 174.7 187.3 199.2 197.9 196.3 197.7 202.6 209.4 207.7 210.5 212.8 214.2 213.3 210 208.7 207.2 217.2 212.7 213 226.2 233.4 238.4 244.8 249.3 248.3 248.6 257.2 266.6 276.9 286.7 297.7 300.2 300.5 298.1 301.5 305.7 305.2 313 317.6 314.2 319.3 324 320.6 320.9 315.3 308.1 303.7 303.8 305.4 311.9 323.4 334 337.4 337.4 335.6 327.9 316.9 307.8 302.6 297 295 289.7 282.4 280.8 280.7 276.1 272.7 270.4 262.7 263.7 258.1 261.3 268.2 283.1 294.8 318 330.1 345.6 359.5 376.8 394.1 397.6 408.9 403.4 374.5 381.3 390.9 370.7 363.2 363.5 358.4 360.5 368.2 377 383.8 368.3 368.8 372.2 359.1 346.6 346.5 342.9 322.3 321.7 320.7 313.2 305.8 300.2 300.5 301.3 302.7 314.1 305.7 300.7 308.5 315.3 316.9 317.3 305.5 283 268 263.8 267.4 265.2 264.9 252.7 230.5 214.1 209.6 218 214.1 208.8 204.9 200.7 195 189.3 183.5 170.7 163.7 152.7 144.1 131.4 121.3 114.8 112.9 105.6 101.3 86.3 75.5 64.4 46.9 28.6 16 -1.6 -1.6 -1.6 -1.6 -1.6 -1.6 -1.6 -1.6 -1.6 -1.6 -1.6 -1.6 -1.6 -1.6 -1.6 -1.6 -1.6 -1.6 -1.6 -1.6 -1.6 -1.6 -1.6 -1.6 -1.6 -1.6 -1.6 -1.6 -1.6 -1.6 -1.6 -1.6 -1.6 -1.6 -1.6 -1.6 -1.6 -1.6 -1.6 -1.6
164.4 171.9 187.4 185.4 174.1 168.1 163.8 170.3 170.6 183.1 191.7 188 192.7 196.5 203.7 202.8 198.8 202.3 199.8 200 204.3 204.4 205.2 211 203.9 207.7 212.1 215.2 227.5 234.7 244.2 246.8 241.5 246.6 258.4 268.8 273.4 287.8 292 287.7 285.1 296.5 298.8 300.7 300.6 306.7 310 313.7 316.1 317.6 316.8 312.1 308.5 297.3 300 304.4 309.4 317.7 324.2 328.9 332 326.2 318.2 309.2 304.6 298.9 294.5 293 287.9 282.9 281 281.4 276.4 272 270.6 264 266.4 263.4 266.2 270.8 281.5 297.1 315.5 338 354.1 372.2 389.2 404.7 405.1 415.3 406.2 386.5 377.8 394.4 382.9 370.2 363.1 362.1 358.4 358.4 367.6 377.6 376.8 369 372.5 364.6 353.8 351.5 348.9 328.1 325.6 329.6 324 311.1 307 307.2 306.1 311.8 319.6 323.9 321.7 307.2 323.5 324.5 320.2 314.2 296.6 273.1 260.9 263.3 261.2 256.4 247.8 231.9 218.1 207.9 211.3 205.8 199 192.5 185.2 174.5 167.4 163.8 161 152.8 141.8 132 117.9 112.3 105.9 103.1 101.5 94 76.7 68.4 61.9 47.4 22.5 13.7 -1.6 -1.6 -1.6 -1.6 -1.6 -1.6 -1.6 -1.6 -1.6 -1.6 -1.6 -1.6 -1.6 -1.6 -1.6 -1.6 -1.6 -1.6 -1.6 -1.6 -1.6 -1.6 -1.6 -1.6 -1.6 -1.6 -1.6 -1.6 -1.6 -1.6 -1.6 -1.6 -1.6 -1.6 -1.6 -1.6 -1.6 -1.6 -1.6 -1.6
170.8 166.8 169.8 184 173.3 162.1 161.8 165.3 168.3 170.3 178.9 187.1 193.9 195.7 197.6 197.8 196 192.8 187.7 188 188.4 193.9 203 195 195.8 200.8 209.2 212.1 213.9 222.3 232.7 240.3 240.7 238.8 244.9 256.8 263.1 275.2 278.8 277.7 272.3 284.5 290 289.1 291.3 298.5 305.1 309.1 311.1 312.9 315.3 308.2 306.5 292.4 295.4 301.7 306.6 315.6 322.9 327.4 328 321.5 312.6 303.4 301.5 296.4 294.2 292.7 288.1 283.7 282.6 282.7 273.8 272.8 272.3 267.1 267.6 268.2 267.2 274.4 284.2 296.2 319.3 343 369 388.6 398.2 406.6 413.2 421.1 417.5 391.7 377.4 394.1 396.3 377.9 364 363.6 358.4 358.4 365.1 373 376.5 370.7 369.6 361.1 356 351.8 348.2 332.2 330.3 327 324.9 312.1 309.8 311.8 312.6 314.6 326.9 332.3 328.8 319.7 323.7 333.3 326.3 318.2 306.8 285.6 264.6 257.4 251.5 244.1 237.5 227.1 220.6 208.8 205 199.9 193.1 179.9 177.4 167.6 158.8 146.1 145.4 144 134.1 118.3 113.4 101.7 93.4 89.3 91.7 83.2 68.6 56.7 46.9 32.1 18.6 6.5 -1.6 -1.6 -1.6 -1.6 -1.6 -1.6 -1.6 -1.6 -1.6 -1.6 -1.6 -1.6 -1.6 -1.6 -1.6 -1.6 -1.6 -1.6 -1.6 -1.6 -1.6 -1.6 -1.6 -1.6 -1.6 -1.6 -1.6 -1.6 -1.6 -1.6 -1.6 -1.6 -1.6 -1.6 -1.6 -1.6 -1.6 -1.6 -1.6 -1.6
180.1 171.3 168.1 168.6 164.7 165.5 160.9 163.2 166.8 169.7 169.3 171 179 194 194.8 192.5 195.7 193.3 183.8 184.3 185.8 188.8 201.2 199.9 192.4 200.5 207.1 213 211 212.2 217.9 228.1 233.2 232.8 236.3 242 251.1 265.5 272.7 270.3 268.6 275 280.7 283.6 286.3 289.8 301.2 301.7 301.7 304.6 307.2 304.3 303.7 291.4 292.5 299 304.7 316.7 321 322.6 322.5 318.9 311.3 300.1 298.3 298.6 294.6 295.7 285.5 284.1 281.9 282.9 275.9 278.9 273.1 269.2 268.9 275.2 272.2 272.4 282.9 298.6 322.7 354.6 380.1 411 419.2 422.2 431.1 425.7 424.8 408 381.7 384.6 399.5 384.4 375.6 361.4 358.4 358.4 365.1 380.5 383.7 376.5 371.3 363.3 360.5 355.5 347.4 333.5 335.7 334.2 323.8 317 315.4 320.3 326.6 331 329.1 339 341.2 338.9 328.1 335.4 328.8 325.7 321 305.1 281.1 261.3 251.1 240.2 230.1 222 215.8 204.6 194.4 194.3 187.9 178 171.5 160.2 150.9 142.5 131.9 128.7 118.5 107.9 106.9 100.5 86.3 70.9 76.6 72.8 60.4 46.9 37 24.5 8.1 2 -1.6 -1.6 -1.6 -1.6 -1.6 -1.6 -1.6 -1.6 -1.6 -1.6 -1.6 -1.6 -1.6 -1.6 -1.6 -1.6 -1.6 -1.6 -1.6 -1.6 -1.6 -1.6 -1.6 -1.6 -1.6 -1.6 -1.6 -1.6 -1.6 -1.6 -1.6 -1.6 -1.6 -1.6 -1.6 -1.6 -1.6 -1.6 -1.6 -1.6
