ncols 200
nrows 82
xllcorner 320000
yllcorner 231100
cellsize 50
283.1 272.8 284.4 295.2 305.5 316.7 327.6 330.8 332.8 335 336.5 339.6 343.7 346.9 349.7 353.9 357.5 360.1 363.2 365 365.6 364.6 354 360.5 365.7 369.7 374.7 386.6 394.3 403.5 409.4 412.4 418.6 425.5 427.6 437.8 447.6 459.7 470.1 481 495.6 508.4 518 536.7 555.1 574 589.9 602.2 625.4 646.2 654.8 656 650.6 638 620.7 591.9 568.2 547.1 542.3 540 529.7 518.4 506.9 512.4 528.3 536.8 540.5 545.3 556.8 557.5 552.3 548.6 546.6 549.1 556.8 564.6 573.6 585.7 599.2 609.5 614.4 612.8 590 568.2 551.3 534.4 521.5 513.1 505 492.4 495.1 502.6 506 524.3 538.9 559.4 582.4 604.7 620.6 631.9 644 657 662.9 667.3 673.6 679.7 686.3 692.5 698.1 700.7 703.1 702.1 699 695.1 690.2 684.1 677.9 670.7 664.4 658.1 652.6 647.7 640.6 635.2 629.3 623.1 616.7 613.8 615.7 616.4 619.7 622.6 625.7 629.3 631.2 634.4 634.6 631.5 624.5 609.6 589.6 571.9 555 540.3 529.4 521.7 514.3 505.7 498.2 489.4 482.2 473.3 467.5 460.2 447.7 436 424.3 416.7 409.7 398.4 384.2 372.4 361.3 348.9 337.9 327.3 316.4 307.2 299.9 293 289.7 286.1 283.5 279.8 274.7 271.4 266.6 262.9 259.4 254 247.9 260.4 266 269.2 274.8 278 282.7 287.2 295 299.8 304.9 312.3 320.8 330.3 339.5 348 360.2 367.1 369 370.1
286.8 276.4 284 295.9 304.4 317.1 326.1 330.8 333.5 336.7 339.8 342.3 344.5 349 353.4 357.4 360.7 364.4 369.2 372 373.3 372 361.6 359.1 368.1 373.3 380.7 387 390.4 400.1 407.2 413.4 419.3 427.8 437.6 451.1 464.7 474.4 486 496.3 507.9 521.7 537.5 551.7 573.8 596.7 623 640 653.7 662.8 673.1 670.4 660.7 649.3 638.8 614.3 582.6 557 574.8 561.7 548.7 534.2 523.2 524.2 541.5 551.3 556.4 558.7 564 560.7 553 543.5 540.4 541.4 545.5 552.1 560.5 570.1 581.5 597.3 607.3 602.8 580.3 560.3 542.5 526.6 515.8 506.3 494.5 481.5 491.6 498.9 506.3 523.3 542.9 565.4 587.9 608.7 623.7 634 647.1 657.5 662.8 666.5 672.8 677.2 684.8 691 696.2 699.9 702.5 702 699 696 691.6 684.7 679.1 671.9 665.2 658 653.1 647 641.8 635.9 630.4 624.5 617.2 609.5 611.1 612.6 613.2 616.6 620.6 623.7 627.2 629.5 633 632.9 633.6 629.2 618.8 600.8 583 564.9 552.3 542.2 533.8 525.2 514.8 505.2 495.4 486.3 477.6 466.5 454.5 441.7 428.5 416.8 406.5 393.1 378.1 365.9 353.1 344.7 335.8 324.2 314.9 306.2 301.7 298.5 294.2 289.8 285 280.7 275.4 270.3 267.1 265.3 262.6 257.1 251.4 250.7 259.9 264.7 267.5 272.7 277.8 281.5 287.8 294.7 301.5 308.8 317.5 326.2 337.6 345.3 354.9 365.1 369.8 370.2
285 279 283.6 294.5 305.6 316.1 325.8 330.6 334 338.2 341.8 344.4 348 351.5 355.5 359.5 363.7 367.9 371.9 375.7 377.7 377.1 369.8 362 368.3 374.1 380.5 387.6 395.2 401.5 407.9 412.6 421.3 429.3 440.3 460.7 478 488.8 498 507.3 519.5 535.5 555.4 574.2 594.3 624 640.2 651.6 665.2 683.2 685.7 681 673.5 661.6 648.4 632.3 596.4 599.4 606.4 587.7 569.4 554 535.5 536.6 551.2 570.9 573.1 569.9 570.9 564.7 556.3 546.8 537.3 529.4 535.7 538 549 557.8 566.5 578 593.9 592.5 569.9 549.2 529.1 517.3 507.9 497.8 480.8 478.6 488.3 495.6 509.2 525.4 547 572.9 592.5 613.1 624.7 636 650.7 656.4 661.6 665.9 671.7 675.4 682 688.3 695.1 698.5 701.7 702.1 699.9 696.1 691.5 686 679.2 673.1 665.9 659.7 653.3 647.3 642.5 636.1 630.2 624.2 617.7 610.2 607.2 608.4 609.9 611.7 614.1 617.3 621.9 625.1 626.6 629.8 631.5 633.3 631.7 625.6 614.3 597.5 581.3 567.6 557.1 545.9 537 526.1 514.1 502.1 489.5 477.5 461.7 448.7 434 418.9 406.9 396.3 384 371 358.5 344 330.6 319.3 316.5 311.4 306.5 303.3 298.8 292.3 286.2 281.1 277 272.2 269.9 267 263.7 259.7 253.9 245 253.2 260 263.6 267.5 272.3 277.8 283.4 291.3 298.4 304.7 312.7 321.9 333.6 342.7 351 361.5 369.7 369.2
288.5 281.3 284.5 295.2 305.9 315.3 325 330.7 334.6 339 343.6 347.6 351.2 354.3 358.1 362.2 366.2 371 376.2 379.6 380.9 382.3 377.4 369.9 364.3 380.4 385.7 392 398.7 404.6 410.5 418.5 426.5 438.3 451 465.5 481.7 495.1 505.3 517.8 531.4 550.9 571.3 596.1 624.9 637.4 646.2 661.3 681.3 686.1 686.3 685.1 679.1 673.4 662.3 647.5 624.9 639 635.8 613.8 594.2 581.5 563.4 554.1 578.7 586.1 590.5 584.7 580.2 573.3 562.6 547.6 534.1 524.9 520.7 530.1 536.7 543.8 553.8 562.7 570.5 576.8 561.4 542.6 520.9 506.2 493 484.3 466.6 478.9 487.9 498.3 512.5 534.4 555.1 577.7 597 614.5 625.1 636.3 650.4 656.3 660 663.6 669 673.6 680.3 686.5 693.5 697.8 701.3 702.8 700.4 696.1 691.6 686.2 679.8 674.6 667.4 660.6 652.6 648 642.5 635.5 629.2 624.1 617.5 608.7 599.5 602.8 605.4 607.2 609.7 611.5 614 618.8 622 624.2 627.2 629.4 632.6 634.2 633 627.6 612.5 597.6 586.8 575.7 564.3 552.6 538.8 521.5 503.9 487.8 471.9 455.7 439.4 423.9 408.6 397 387 372.3 357.3 344.8 335.7 327.6 321.9 317.2 311.1 305.9 301 296.4 289.5 282.1 278.4 274.7 270.5 266.7 262.9 260.3 255.7 250 245 253.6 260.3 262.6 265.3 274.2 280.5 287.1 294.6 301.2 307.9 317.5 327.6 338 346.1 356.7 367.1 368.1
295.1 287.5 286.4 295.7 305.8 315.1 323.3 329.7 334.2 341.2 345.8 351.8 355.4 358.7 361.9 365.3 369.8 374.8 379.5 383.2 387.6 387.4 383.5 377.8 371.4 382.8 388 394.7 399.4 407.2 414.6 422.1 431.2 446.3 460.3 476.1 488 500.1 510.8 525.4 543.5 565.2 589.4 616.6 636.1 641.6 656.8 666.7 674.3 678 683.2 683.6 682.4 677.5 670.5 661.7 651.6 650.6 645.3 638.4 619.7 602.5 592.9 582.8 602.2 605.8 604.8 600.6 594.7 585.9 574.3 561.6 546.5 530.3 519.1 511.7 524.5 530.7 538.7 546.6 551.5 550.7 549 531.9 513.8 497.9 485.7 475.7 461.8 479.7 487.6 499.4 516.2 539.3 562.2 587 607.1 616.4 626.5 636.1 648.8 652.7 657.8 660.7 665.8 671.7 678.4 685.1 691.8 696.6 699.9 702 701 697.2 691.3 686.9 681.6 674.6 668.9 661.8 654.3 648.3 642 636.3 629.8 623.8 617.3 610.9 605.2 589.8 597.8 599.6 603.3 607.3 608.5 610.7 615.6 618.3 620.9 625.3 628.9 632.4 635.2 636.8 633.6 630.2 618.2 606.6 595.3 582.3 565.6 544.5 522.6 501.2 480.9 461.9 444.8 427.3 410.1 399.8 388.5 376.5 364.6 353.6 343 334.6 327.9 322.4 314.8 308.7 303.2 298.9 293.4 285.8 279.5 275.5 270.7 266.1 263.7 260.7 257.5 253 246.8 245.7 254.6 257.6 263.6 268.7 276 282.5 290.4 296.4 302.9 311.7 321.8 333.9 342.3 350.2 358.3 361.5
303.1 293.8 285.5 291.7 301.8 311.2 319.9 328.3 333.9 341 346.9 352.9 359.4 363.1 366.7 370.1 373.4 379.2 383.9 389.3 392.7 393 387.5 382.8 379.4 386.1 389.2 396.3 404.3 410.8 414.5 423.6 432.1 448.8 464.2 480.3 493.9 503.7 517.4 534.3 554.3 579.6 608 632.2 635.9 639.1 644.3 649.6 657.2 670.1 676 680 681 679.7 675.1 667.7 662.9 656.1 650.7 644.9 639.2 631 626.5 621.4 617.4 614 611.7 607.6 603.2 594.8 585.9 576.9 562.2 542.4 524.2 512.7 507 515.2 519.9 524.7 529.8 527.6 532 518.2 504.5 489.2 479.3 469.9 463.2 477.6 486.6 497.3 518.2 540.1 564.9 588.7 608.3 616.2 624.1 632.1 642.3 647 653.5 658 664.7 670.9 676.7 683.6 690.5 695.2 699 701.2 700.9 698.1 692.4 688 681.8 675.6 670 662.4 655.8 648.4 641.8 636.7 630.1 623.5 617.6 611.1 605.6 598.8 579.2 587.4 590.5 596.6 601.1 605.5 607.6 611 615.3 618.8 622.7 627.8 632.3 635.4 636.8 637.8 638 635.5 621.4 612.1 595.7 570.3 543.8 517.6 493.1 470.7 450.5 430 413.2 402.4 396.1 385.5 372.4 362.1 351.4 340.6 333.4 325.7 318.9 309.7 305.3 302 296.4 291.5 283.9 278.1 274.1 269.4 265.7 262.7 259.3 254.9 249.1 239.7 245.6 253.9 259.6 263.5 271.9 277.7 283.9 291.9 298.4 305.4 318.6 330.7 339.2 345.1 351.4 354.7
306.6 298.8 290.7 293.4 297.3 305.1 313.3 323.8 330 337.4 345.4 351.8 360.8 367.1 371.5 375 379 383.9 388.5 392.3 394.9 396.1 393.4 387.5 385.9 383.7 394.3 396.8 403.8 410.1 414 426.1 434.7 451.7 467.6 483 495.6 507.8 523.7 543.9 567.1 596.3 627.3 632.5 632.6 634.3 635.6 638.9 645.1 651.9 664.4 671.8 677.6 678.4 675.9 671.3 665.7 661.4 655.7 648.2 643.5 639.4 634.8 630.4 625.7 621.7 618.1 613.6 606.6 601.4 595 588.4 577.6 553.6 529.8 518.4 505.4 500.5 505.5 507.8 509.1 508.5 507.9 502.3 492 483.9 471.9 466 464.1 475.3 484 494.4 513.7 536.8 563.1 586.2 605.6 609.9 614.5 621.3 631.5 640.3 648.5 655.5 662.1 668.4 674.5 681 688.7 693.5 698.1 700 700.1 697.8 693.9 689.5 683.4 676.2 670 663 655.4 647.6 641 636.1 630.2 623.2 617.5 611.4 605.1 600.3 594.2 567.8 559.5 573 582.7 593.4 601.9 605.5 607.6 612.4 616.3 620.5 625.3 631.3 634.6 636.1 637.7 639.7 639.8 637.7 622.3 595.8 564.1 533.4 505.3 478.7 458 437.9 420.5 409.2 400.8 393.3 383.2 368.5 359.3 349.8 338.6 329.7 322.6 315.5 309.3 303.9 298.8 294.4 289.7 282 276.4 272.3 267 262.8 259.2 256.8 252.5 247.9 240.5 244.9 254.8 259.8 265.2 273.9 279.1 286.6 294.2 302 313 325.9 333.9 339.8 345.5 350
308.7 301.3 294.5 299.2 301.9 302.2 306.4 314.2 322.7 332.6 339 347.6 355.4 365.4 373.6 379 382.9 388.2 391.8 394.7 396.5 399.4 398 395.8 391.7 392.8 396.7 401.1 407.4 414.3 425.8 431.2 437.6 454.9 470 484 498.5 514.4 533.1 555.4 581.3 612 630.3 630.2 630.2 629 629.4 632.7 638.2 642.1 649.4 665 669.5 675.1 674.7 672.4 669.9 665.4 659 653.9 648.5 643.5 639.3 635.4 631.5 627.4 623.1 618.5 614 607.9 603.1 594.6 585.9 568.1 547.1 525.8 510.6 501.1 485.8 499.4 498.3 494.5 493.5 486.4 481 475.4 467.6 461.7 460.4 471.2 481 490 504.1 525.6 549.3 569.6 582.8 589.4 594.4 602.7 608 633.3 644.9 652.1 659.4 666.1 672.7 679.4 686.6 691.4 696 699 699.6 697.4 694 689.4 684.4 676.8 670.1 662.7 654.3 646.9 640.4 635.6 629 623.8 617.9 611.3 604.6 600.1 594.1 579 534.8 542.9 550.7 561.3 580.3 592 601.6 604.2 607.1 614.4 618.2 624.7 629.7 634.2 637.3 638.5 639 639.3 634.9 613.2 577.8 542.2 510.7 486.3 464.3 445.4 428.7 414.5 406.2 397.8 390.1 379.3 367.6 357 346.9 337.5 328.5 321.2 314.5 307.8 301.1 296.5 292.4 286.7 279.3 273.9 269.4 264.2 261.1 256.8 255.9 251.8 245.4 239.9 243 254.8 260.2 266.5 274.4 281.1 289 297.9 305.6 318 326.9 333 339.4 344.4
312.1 302.9 297.4 304.4 309 311.8 310.9 311.9 314 322.2 331.5 339.5 348.2 354.4 361.8 375.6 384.9 389.5 393.3 395.5 398.2 401.3 402.7 402 398.8 397.6 400.4 405.1 410.5 417.7 427.1 435.6 446.7 458.7 472.4 488.5 504.5 522.3 545.4 569.7 597.7 625.3 628 627.3 626.3 625.5 625.1 628.4 632.4 636.7 642.6 650.1 663.7 668.1 671.9 671.3 670.2 669.9 662.6 659.5 654.4 650.7 646.8 642.5 638.2 633 629.1 623.7 619.8 614.5 609.3 603.5 595.6 585.7 558.6 535.3 519.7 505.3 494.5 477.7 484.6 480.7 481.9 477.6 472 467.7 463.3 459 459.7 467.5 476.1 485.8 494.6 512.6 532 545.9 556.5 565 567.4 570.3 604.8 628.6 643.1 649.7 657.4 663.6 670.6 677.5 685.9 690.7 694.6 697.6 698.7 697 694.2 690.1 684.4 677.1 669.7 663.2 654.1 646.8 641 635.9 629.8 623.6 617.2 609.1 603.5 598.3 590.5 570.9 538.2 514.5 526.7 535.6 546.1 563.3 579.6 591.2 599.4 603.8 613.2 617.6 624.3 629.8 633.9 637.6 638.3 639.1 636.9 615.9 579.6 543.1 514.5 489.2 469.2 451.8 436.8 422 410.2 403.2 395.5 387.3 377.5 368 353 344.7 334.6 325.8 318.2 312.8 305.6 297.4 294.3 289.3 282.1 276.1 271.1 267 262.1 259.5 257.6 255.1 251.7 244 237.2 243.6 256.2 262.1 269.9 275.6 283.9 291.9 299.3 308.2 317.4 326.5 335.7 339.4
314.3 300.1 304.6 312 314.9 317 318 316.3 317.8 321.3 324.6 333.3 341.4 349 357.1 367.7 379.5 387.3 391.8 394.2 398.3 402.7 405 406.9 405.2 403.7 405.7 409.2 414.7 415.5 428.5 440.2 452.4 461 475.9 492.9 511.8 533.2 558 585.9 613 625.7 625.2 624.4 622.7 621.6 621.5 623.5 627.8 631.8 636.4 642.3 652.4 660.9 665.3 668.3 668.2 671 672.6 668.8 662.7 657.2 655.4 652.3 647.5 644 638.3 632.8 628.7 623.2 617.6 610.7 604 594.5 576.3 554.1 532.7 513 499.6 490.2 484.5 477.8 466.9 467.5 466.8 462.7 459.9 455.5 451.7 463.8 470.5 478.7 486.5 496.6 513.3 527.1 532.6 531.4 542.6 575.7 605.2 625.9 640 647.8 656.1 662.6 670.9 677.6 684.7 689.6 693.5 696.2 697.2 696.5 693.6 690.3 684.1 678.5 669.7 662.8 654 647 641.2 635.8 630.2 623.5 617.5 609.4 602 596.2 580.6 542.6 517.2 499.3 504.4 511.9 524.9 535.4 550.4 566.5 580.8 594.4 601.2 612 617.1 625.3 630 634.1 636.9 636.9 635 618.1 580.9 545.2 516.9 491.2 472.2 455.5 440.6 427.2 414.2 406.4 399.9 391.5 386.4 374.7 358.4 348.8 338.8 329.3 322.1 315.1 307.6 298.8 295 289.8 284.6 278.2 273.4 269.2 264.4 261.3 258.4 256.1 253.6 250.2 241.8 236.4 252.4 258.9 264.1 271 276.9 286 293.6 301 312.1 320.6 330.1 335.3
315.5 304.1 311.7 316.4 320.4 324.3 325.8 324.9 325.2 325.2 329.5 329.4 335.5 342.9 353.7 360.7 370.2 380.9 387.3 392.3 396 402.6 407.1 410.8 412.8 411.4 413.3 417.1 422.1 426.6 431.3 438.8 452.4 463.6 481.4 500.1 521.8 545.8 571.2 601.7 621.2 621.8 621.5 619.9 618.7 617.1 616.9 619.3 623.3 627.2 631.2 636.2 642.3 653 660.3 663.4 665.2 668.7 674.2 673.9 671.2 668.7 668 665.8 660.9 655.5 649.2 643.2 638.9 633.4 626.6 619 611.5 604 593.3 565.3 534.4 522 508.6 495.6 487.1 481.4 477 468.1 456.3 458.6 454.3 453 451.8 457.6 463.2 472 479.8 486.5 497.8 509.7 505 531.9 555.2 579.8 608 625.2 638.8 645.2 654.8 661.5 669.7 677.7 683.6 688 691.1 694.1 695.6 695.1 692.8 689.7 685.1 679.5 670.9 662.9 656 648.3 641.3 636.4 630.9 623.1 617.4 610.4 598.4 593 589.9 567 533.5 509.6 484.1 493.5 502.3 516.3 528.2 539.5 554.2 570.7 584.7 599.3 610.9 616 624.4 630.2 634.7 635.5 634.3 621 585.6 549.5 521 495 474.5 457.5 443.6 432.1 418.5 407.5 402.1 396.2 389.9 379.5 361.2 350.8 341.6 331.7 323 317 310.7 302.5 296.2 290.3 284.4 279.2 273.1 269.3 265.5 261.5 258.2 255.2 252.4 249.7 245.6 235.7 245.6 256.1 259.8 266.6 273.6 280.2 287.9 296.1 306.1 313.5 321.4 328.2
319.1 306.9 314.9 320.2 326.2 333.8 336.9 335.5 332.3 329.7 334 338.9 339.7 339.1 346.5 356.6 364.4 371.8 384.2 391 398.3 404.6 409.1 414 418.4 418.8 421.9 425 428.5 434.8 436.2 442.8 449.5 469.8 489.7 509.6 532.8 558.9 586.7 617.2 619.2 618.3 617.3 616 613.8 612.7 611.3 614.5 618.7 622.6 626.2 629.9 634.5 640.4 653.6 657.7 660.9 666.1 672.1 675.4 674.6 675.2 674.5 671.7 669.2 665.8 662 656 650.7 643.3 635 628.2 619.6 609.3 599.2 572.6 547.4 528.2 513.6 500.7 494.2 488.7 482.5 474.5 467 461.6 456.5 448.1 445.2 452.2 458.7 464.2 470.3 479.2 486.3 491.6 512.6 530.5 550.5 577.3 605.3 622.8 634.7 643.8 652.9 660 668.2 675.5 681.7 686.3 689.1 692.3 693.5 693.3 691.4 688 684.4 679.1 671.4 664.2 657.2 649 642.7 636.8 631.4 626.9 620.8 612.5 608.9 604.1 600 575.4 538.4 512.3 490.6 478.9 487 498.2 510.4 523.2 532.8 545.7 560.4 579.1 595.5 610 616.6 623.8 630.5 632.6 631.6 624 590.7 555.6 525.2 499.2 478.9 460.6 447.2 434.7 422.7 411.5 405.3 397.5 390.9 381.6 364.7 352.6 343 333.6 325.5 317.6 310.5 304.3 297 293.1 287.4 280.4 274.5 268.1 264.5 259.6 255.4 254.4 252.7 250.8 247.2 238.6 238.2 250.8 256.5 262.3 269.4 275.6 283 291.4 298.8 307.7 312.3 316.7
321.7 308.9 318.2 325.5 333.1 341.9 344.9 345.3 340.5 336.4 338 341.3 348.2 351.8 350.7 352.4 360.4 367.3 380.8 392.1 396.4 402.6 409.6 412.9 417.6 421.7 425.6 432.5 440 446.1 448.1 455 465 467.4 498.2 516.8 543.7 572.6 603.8 617.1 616.4 615.4 613.5 611.7 609.8 607.7 605.4 610.1 613.5 617.7 621.2 624.7 627.7 632.4 640.7 651.3 655.8 663.4 670.4 673.7 676.2 677.5 678 676 672.7 669.7 666.6 662 658.4 653 647.2 638.8 628.4 618.6 605.6 575.1 548.8 529.7 515.9 506.9 501.4 497.5 489.5 479.9 472.3 466.1 459.5 454.1 443.1 444.6 452.5 456.6 462.6 470 473.7 488.6 506.5 523.7 545.5 571.6 597.6 617.2 631.3 641.9 650 657.6 665.2 672.6 679.4 683.4 686.9 691.3 692.2 692.1 690.8 687 683.4 678.8 672.2 666.3 658.3 651.5 644.6 638.1 633.8 627.8 624.2 619.4 615.1 610.8 607 567.7 536.2 510.2 485.7 472.9 480.1 486.9 495 506.9 517.4 526.4 539.1 552.5 576.2 593.3 607.4 618.5 624.4 627.5 628.9 627.4 599.5 564.1 531.1 505.7 482.7 464 448.8 436.8 424.7 415.1 406.7 399.9 392.1 383.5 367.8 356.5 346.4 335.9 326.4 318.5 313.5 306.3 298.8 294 289.2 282.6 276.5 269.8 266.1 259.3 256.1 252.9 249.8 250.6 247.2 240.8 234.7 247.4 254.1 258.5 266 271.5 279.8 287.3 293.1 299.3 306.8 309.4
323.3 314.6 321 330.5 339.5 346.8 351.1 351.6 349.9 346.8 343.2 345.9 358.2 359.8 360.6 360.2 356.3 360.2 372.3 385.3 390.4 402.3 408 412.1 417.6 422.7 430.3 439.3 456.4 466.1 459.7 468.2 490.7 487.1 501.6 526.1 553.3 581.6 610 614.4 613.7 611.7 609.6 607.1 603.6 601.6 600.6 604.8 608.5 612.3 615.9 619 621.8 624.1 629.1 643.6 651.6 660 666.4 671.3 675.2 678.1 677.8 675.7 674.3 672.1 669.8 666.7 663.2 658.7 652.9 648 639 628 612.4 578.1 553.9 535.7 521.2 513 510.1 505 495.6 485.2 474.1 468.8 463.5 455.7 449.3 437.8 446.7 452.3 457.9 460.6 472.4 480.6 495.8 514.9 536.3 561.6 590.9 609.9 627.2 638 645.2 652.8 660.9 668.5 676.6 680.8 684.4 689.1 691.3 690.9 689.7 686.4 683.7 679.9 675.3 668.5 661.1 653.7 645.8 640.6 635.7 631.1 627 623.4 619.7 615.1 603.4 561.6 532 505.1 484.7 475.6 472.1 481.1 485.5 496.3 503.8 509.7 520.4 533.2 552 572.8 591.9 608.8 618.6 622.7 626.9 627.4 608.7 573.6 539.2 511.5 488.4 468.2 453.9 440.8 427.1 418.9 407.5 400.3 394.2 387.2 372.6 357.4 347.3 340.1 330 321.7 314.6 307.9 300.5 294.4 288.7 284.4 276.9 270.1 264.1 259 254.1 252.1 247.2 246.2 245.7 239.7 232.1 239.3 252.2 255.1 261.3 268 274.8 279.8 287.8 292.1 297.5 303.6
326.7 318.6 323.3 333.3 343.5 349.1 353.8 356.1 356.5 355.6 352.8 351.3 353.4 366.5 368 368.6 369.5 369 372.2 377.9 387.2 395.4 403.4 410.7 417.4 424.5 432.2 441.8 462.8 484.2 483.4 479.2 503.9 519 499.6 526.9 550.4 586.6 610.3 611.8 611.3 608.9 606.8 603.7 600.6 597.3 595.9 598.8 603.6 605.5 609.1 613 615.7 618.1 623.3 631.5 646.9 653.7 661.8 668.8 671.9 675.9 676.3 674.7 674.2 673.2 671.8 669 666.6 663.2 658.7 652.4 646.9 638.5 623.7 585.7 559.1 539.2 527.1 519 515.6 507.7 494.9 486 478.4 471.1 463.6 456 450.8 438.8 436.7 447.6 449.8 457.1 465.2 474.5 485.4 505.5 528 553.6 581.7 600.7 620.3 633.5 640.3 647.3 656.1 664 671.9 676.6 682 686.5 689.4 689.7 688.9 686.8 683.9 681.3 677.4 672.1 664.6 657.5 649.8 643.5 638.3 634.7 630.7 626.2 623.2 619.4 604.8 560.2 529.2 503.7 483.7 466.3 465.1 472.6 477.6 484.6 490.5 493.9 500 511.8 528.4 546.8 572.4 593.5 610.7 618.4 624 625.3 615.7 582.5 544.3 515.1 492.6 473.7 457.7 445.5 431.5 420.2 409.5 402.3 396 387.6 377.5 362.3 350.9 342.3 332.5 323.3 314.7 308.4 300.9 294.9 289.8 283.2 276 269.9 264.8 258.9 253.9 251.4 249.1 245.3 240.1 238 231.2 235.4 249.5 251.8 256.5 263.7 269.6 276.9 281.4 286.4 291.8 296.1
330.3 319.8 324.4 333.5 342.6 347 355.3 360.4 361.2 361.8 364.8 363.1 360.6 360.2 370.1 375 379.3 379.5 375.6 383.1 389.9 394.6 399.8 405.6 414.4 421 429.6 443.8 456.2 478.8 495.3 501.3 510.4 532.8 525.6 525.9 551.7 587 609.4 610.3 610.3 608.6 605.5 602.2 598.7 594 587.5 593.7 596 600 603.4 605.6 610.1 612.5 617.1 623.2 635.2 647.1 657.1 663.5 668.8 671.8 672.8 672.5 671.8 670.6 671.2 671 668.9 665.5 661.7 658.2 651.9 645 632.7 595.3 567 546.3 530.3 522.5 518.7 508.2 497 486.4 477.9 470.6 463.8 457.3 451.1 446.7 434.6 441.2 445.1 451.1 459.4 467.7 478.9 495.3 518.5 539.7 565.8 591.7 608.5 623.9 634.3 642.9 650.2 660 666.7 672.4 679.3 683.8 687 688.5 688 686.4 684.1 681.8 678.3 673.8 668.7 661.2 653.6 647 642.6 637.9 632.4 629.1 624.9 621.2 612.6 563.2 530.4 506.1 485.2 470.8 452.2 450.5 459.5 471.8 477.5 478.4 482.8 492.3 506.9 526.5 547.4 573 599.4 612.7 619.7 622.4 618.1 589.3 554 522.5 499.8 479.1 462.9 450.2 435.8 426.1 412.9 406.1 398.8 391.6 382 367.1 354.6 345 335.4 324.2 316.7 307.8 301.5 293.8 287.8 283.2 275.8 267.6 262.1 256.6 253.2 250.3 248 246 241.9 239.9 230.6 228.6 242.3 249.2 251.8 258.4 264.6 269.5 276.3 280.5 285.8 289.7
335.7 329.6 328.4 332.4 338.5 347.3 354 360.1 364.6 369 371.5 371.2 369.8 367.2 371.1 376.8 384.3 384.9 381 387 393.1 400.3 405.8 412.6 418.6 425.2 440.5 455.4 468.2 481.9 494.8 515.5 530.2 537.7 566.7 551.2 549.8 587 607.7 611 611 609.8 608 605.7 603 599.3 593.7 582.6 589.2 593.7 596.8 600.2 603.2 607.5 611.6 616 623.5 636 651.2 658.9 663.8 665.7 667.3 668.5 669 667.6 667.4 668.9 669.1 667.4 665.1 660.6 656.1 649.7 640.9 606.5 578 554.9 537.4 526.3 518.1 509.9 496.4 481.6 474.5 469.3 463.8 456.7 451.9 446.6 441 432.4 440.4 446.2 452.6 463.8 472.7 488.1 509.4 528.6 550.6 569.6 593.6 616.6 628.8 635.8 645.7 654.4 662.4 668.5 676.2 681.4 685 686.5 686.6 685.6 684.6 682.6 679.9 676.1 670.6 664.5 657.7 650.6 645.6 640.9 635.4 630.3 626.3 622.2 615 568.9 535.7 512.2 492.6 481.6 470.5 461.4 444.7 458.9 464.3 462.5 468.6 478.5 490.6 506.9 524.9 548.6 577.7 602.1 612.5 617.1 617.1 596.8 565 531.5 506.1 485.6 468.3 453.5 442 428.9 416.2 408.1 401.9 394.4 385.6 372.8 359 346.5 339 327 316.9 310.5 304.9 297.7 289.9 284.8 278.7 269.3 263.9 259.9 254 250.4 246.2 243 236.7 237 234.5 227.3 237.1 245.8 250.3 252.8 257.7 263.9 270.1 275.7 280.5 283.8
339.5 333.5 331.4 337.4 343.2 345.8 352.9 359.7 365 371 375.4 377.9 377.9 378.6 375.7 378.2 385 389.6 389.2 393.2 398.8 402.8 410.9 417.5 424.6 432.1 447.6 460.3 479.7 493.9 507.3 519.2 542.1 565.7 580.6 595.9 574.1 594.7 609.9 613.3 613.8 614 612.5 610.3 606.9 603.3 598.2 588.8 579.9 585.1 589.4 592.7 597.3 601.6 605.9 609.9 616 623.3 638.1 653.6 658.1 661.1 660.9 662.1 663.3 663.8 663.4 664 666 666.3 665.5 663.7 659.4 653.8 647.6 623.4 591.1 567.7 548.1 535 521.8 511.7 501.3 489.4 477.6 466.2 462.6 457 452.1 447.1 439.6 423.1 432.8 437.8 447 459.2 468.4 482.1 499.6 517.2 532.9 555 575.4 595.8 619.1 631.4 641.8 650.9 659.6 667.6 673.7 678.7 682.5 684.8 685.7 685.8 684.9 683.8 681.1 677.8 673.3 668.3 662.3 656.7 648.1 642 637 631 626.8 623.2 618.1 584.9 546.4 521 503 493 487.7 471.8 452.6 438.2 449.1 450.4 455.5 463.2 475.5 488.7 507.1 526.6 552.6 577.8 600.8 609.9 612.6 605.4 574.9 542.6 513.8 491.4 473.4 458.3 444.7 432.1 418.1 411 402.7 397.3 389.3 377.9 364.7 352.5 342.6 331 318.2 310.3 303.5 295.5 290 285.7 280.4 271.8 263.1 261.9 257.6 251.7 249.4 245.3 242.1 237.8 232.4 229.3 225.4 239 245.8 247.6 252.7 258.3 264.4 270.5 275.7 278.9
343.4 340.9 336.8 338.6 347.8 351.5 356 360.8 365 372.2 376.5 379.6 381.8 382.5 383.6 383.2 386.5 393 396.9 394.4 403.8 409.9 413.5 422 430.8 437.7 455.7 473.9 488 504.2 525.6 541.9 559.1 581.9 611.2 619.3 609.6 604.4 613.2 615.8 618.7 621.3 621.3 617.7 611.7 606.7 601.3 595.4 584.8 571.9 579.5 583.7 590.4 594.5 600.1 603.6 608.5 616.9 627.9 641.8 652.7 654.9 656.6 656.8 657.7 657.9 658.4 660.2 661.4 663.5 664.5 664.1 662.2 657.8 650.5 644.4 612.7 584.5 563.7 549.5 532.3 513.2 500 489.6 473.6 463.2 455.9 452.2 448.3 442.8 438.3 433.7 420.3 430.6 441.3 452.3 463.4 475 490.1 499.5 517.5 533.3 557.6 577.7 601.1 627.8 637.9 648.4 657 665.9 671.8 676.7 680.7 683.5 684.6 684.9 684.6 683.5 681.9 679.8 675.6 671 665.4 658.5 651.4 644.1 637.2 631.5 627 621.9 617.4 601.1 565.5 536.1 517.9 508.5 500.3 486.4 466 446.1 427 430.9 438 448.1 459.7 472.5 489.4 508.2 528.1 553.2 575.1 595.6 605.8 606.9 588.6 558.4 526.7 500.7 481.2 464.5 449.5 436.9 424.2 414.3 405.4 397.5 394.6 383.9 371.2 358.4 345.7 334.7 323.9 312.8 306 299.4 291.6 284 278.7 273.8 268.2 263 257.2 255 250.7 247.1 243.7 239.8 234 229.5 223.8 231.9 239.9 244.6 249 252.1 259.1 265.2 269.9 274.3
347.5 345.5 345 341.7 349.4 356.2 360.4 363.1 367.7 373.6 378 381.5 385.3 387.1 387.8 389.3 392.2 396.2 402.4 401.9 405.8 413.4 420.6 427.9 436.7 443.1 458 473.6 486.3 501.7 530.7 560.2 588.9 606.2 623.4 623.7 621.2 619.6 619.3 626.4 630.8 632.3 631.1 627.5 621 611.1 603.9 597.6 590.8 583 563.5 575.2 582.3 588.5 590.4 597.2 604.3 611.1 620.6 628.8 644.4 648.9 650.3 650.9 651.8 653.2 653.7 654.8 657.8 658.9 661.7 663 663.2 660.2 654.9 647.9 639.6 608.1 588 572.5 552 527 504.5 491.9 477.1 465.6 456.7 449.8 443.8 439.6 434.2 430.6 424.6 415.5 433.6 437.7 453 465.7 481.1 501.3 517.4 529.2 550.1 569.5 602 626.1 636 645.8 655.1 663.5 669.9 675 679.4 682 683.1 683.5 683.1 683.1 682.6 681 678 673.4 666.8 660.8 654.3 644.2 636.9 631 625.9 620.5 615.6 607.4 582.3 551.1 523.5 509.3 499.1 487.2 474.7 461.2 443.5 423.9 417.5 433.5 445.7 457.3 472.4 489 507.4 527.2 546.9 570.1 589 601.4 601.2 572.1 540.5 512.1 490 471.2 456.5 442.1 431.4 419.1 409.2 403.4 398 392.9 378.6 363.9 349.4 338.9 327.9 315.7 308.2 300.4 294.6 288.1 280 275.7 269.7 264.9 260.7 256.9 251.8 248.2 245 241.1 238.1 232.1 225.9 223.9 234.8 242.3 245.8 245.7 249 258.6 265 269
352.5 351 350.3 345.6 354.3 359.2 360.4 367.9 372 375.5 379.9 385 388.9 391.5 392.8 394.7 396.8 401.2 406.8 411.8 415 419.8 421 432.7 441.9 452.7 465.6 478 491.7 513.6 536.6 564 593.2 623.9 628.1 628.3 628.6 628.7 630.3 636.9 639.7 639.9 638.3 634.6 627.3 617.3 605 598.6 592.3 585.7 577.7 556.5 570.7 580.4 585.9 591.9 598.5 604.3 612.3 620.2 627.9 638.8 641.9 643.6 645.1 644.9 646.5 649.3 650.8 655 656.9 661 663.3 661.8 658.4 653.2 646.3 640.8 623.8 603.7 570 536.7 511.9 496.4 487.2 478.4 468.7 451.1 447.4 444.9 441.3 437.1 432.6 417.2 431.2 447 459.2 471.7 491.8 516.3 537.1 559.2 576.8 592 613.4 627.2 636.3 645.5 654.9 661.5 667.2 673.5 677.2 680.1 681.2 681.3 682 682 682 681 678.6 674.2 668.9 662 654.3 644.9 636.8 629.6 624.4 617.8 611.4 601.9 577.7 549.6 520.1 502.7 492.7 480.5 468.7 459.4 447.2 431.3 411.1 421.2 432.2 444 458 471.2 488.4 503.4 522.5 541.8 564 584.5 599 588.8 557.1 525.4 500.2 479.3 463.7 448.6 434.7 422.9 413.6 404 399.7 396.2 383.6 370.4 353.8 341.1 330.6 318.5 310.5 303.8 296 290.6 282.7 279 273.1 267.1 262 257.6 252.9 248.5 245.1 242.6 238.7 234.1 228.6 222.3 227.9 238 244.7 246.5 247.8 253.9 259.6 263.9
355.8 355.8 355.5 346.8 356.7 362.9 366.7 367 375.2 378.7 383.3 387.7 391.9 395 397.2 400.1 401.9 405 411.5 416.4 419.6 425.9 431 438.7 446.3 456.5 471.4 483.7 501.7 520.3 539.9 567.1 602.1 629 633.4 633.4 633.5 634.5 637 643.3 646.4 646.2 642.8 636.3 631.1 620.3 606.3 597.5 591.8 586.6 581.1 572.7 547.2 569.9 578.2 585.7 591.4 597.9 604.7 612 617.8 622 630.7 635.3 637.7 637.6 638.2 640.7 645.4 649.2 653 657.1 660.7 662.2 662 658.5 653.2 647.6 641.5 623.8 588.6 547.3 521.5 503.7 492.4 483.9 472.6 466.1 454.4 451.6 447.5 441.1 433.5 417.1 429.9 445 457.2 472.2 493 518.5 546.6 577 593.9 608.8 621.5 628.9 636.9 645.9 655 661.6 667.4 672.5 675.8 678.4 679.6 680.1 680.6 681 681.1 680.6 679.2 675.7 669.9 664.1 655.4 647 635.9 628.5 623.1 615.7 609.4 589.5 561 535.1 516.4 498.5 484.8 473.7 464.4 452 440.7 430.1 412.5 401.8 420.6 430.3 441.6 455.9 470.7 484.4 499.1 516.6 538.9 560.2 580.9 596.1 572.9 541.9 513.4 490.3 471.3 454.5 442.3 430.4 418.9 410.2 402.6 395.4 387 375.4 360.2 344.9 336.7 324.6 312 303.8 299.1 294.9 284 280.3 274.8 267.4 262.1 257.3 253.4 249.9 245.7 241.6 237.9 231.9 230.2 223.7 221.1 232.1 239.7 242.8 245 247.7 253.9 256.9
362.2 360.9 358.9 352.4 357 362.7 367.8 373.5 376.2 379.8 386.5 391.1 395 399.3 401.4 404.7 408.2 410.2 415.4 422.2 428.1 434.1 438 445.6 452.1 466.9 482.5 493.4 506.6 530.1 556.8 587.3 614 635.5 638 638.2 638 637.8 641.1 645.3 648.7 648 644.5 638.6 630.8 619.5 604.7 595.5 589.5 583.5 579.6 572.6 543.7 564.2 572 577.1 584.7 590.1 596.7 602 609 612.5 615.8 620.5 627.9 629.4 630.9 632.7 637.2 642.6 647.6 651.8 657.9 660.5 662.5 661.3 658.9 653.1 648.1 636.5 595.7 558.6 530.5 511.2 496.6 485.5 477.5 471.6 460.6 455.8 449.7 441.3 430.1 415.1 429.9 442.4 455.1 470.8 493.3 519 550.5 583.1 598.7 613.3 623.4 630.6 638.6 647.2 654.2 660.9 666.4 670.8 674 676.8 677.9 678.5 679.4 680.1 679.8 680.8 679.7 676.9 673 666.5 657.2 647.9 637.2 628.9 622.2 615.1 606.7 583.1 551.6 526.2 507 491.4 477.7 465.7 455.5 446.5 436.8 424.3 413.3 393.5 406.9 417.6 429 438.9 453 466.5 479.1 495.4 513.5 534.8 557.8 583.8 589.8 559.7 530.1 503.5 482.1 465.9 450.5 436.3 424.6 415.6 404.4 398.5 391 381.6 367.7 352.9 340.7 329.7 316.7 308.6 301.5 295.3 289.4 282.5 275.7 268.5 263.3 258.5 254.9 250.6 246.3 241.9 238.9 231.4 230.1 226 220.6 221.5 235 238.9 243.2 242.6 247.2 253.2
369.1 367.9 362.5 358 359.5 364.3 369.2 373.3 379.1 386.3 388.1 394.2 398.5 404.7 408.9 411.1 414.9 417 420.7 427.3 435 442.4 446.6 454.4 465.7 479.1 495.6 512.3 525.4 545.9 568.2 598.3 633.9 638.9 643.7 646.2 645.9 645.5 647.2 649.9 650.2 647.2 643.4 638 629 616.4 602.1 594 587.5 580.4 576.5 569.8 540 552.9 561.3 569.3 575.7 583.3 590 595.4 600.1 604.2 607.1 609.7 612.6 615.1 622.6 626.1 630.4 635.4 641.3 648 653.8 657.9 661.7 663.8 662.2 658.9 652.6 645.4 610.2 573.1 543.9 518.2 500.5 490.7 478.9 471.4 463.7 457.5 447.9 436.5 418.9 410.4 427.4 439.9 454.3 468.1 491.7 518.5 548.6 580 602.9 614.6 622.8 630 637.6 645.8 652.4 658.8 663.8 668.7 671.9 674.2 676.1 676.8 677.9 678.9 679 680 680.1 676.4 673.4 667.6 659.6 650.4 640.5 630.4 622.2 615.1 605.5 580.7 551 525.1 499.3 474.3 459.1 454.6 447.2 440.1 430.9 418.9 409.7 400.3 386.8 399.5 416.9 424.3 438.5 449.2 462.4 477.6 492.7 513.1 535.8 563.4 587 579 548.6 519.1 495.5 475.7 458.8 445.8 432.8 425.5 412.6 400.9 393.4 387.1 374.1 361 346.1 334.8 321.9 311.7 305 299 292 283.7 276.4 270.2 264.2 259.8 255.6 251.1 246.8 242.2 238.3 236.2 231.4 226.3 220.1 219.6 228.9 234.3 239.4 242 244 246.9
381.7 376.9 366.6 364.6 365.8 367 371.6 375.3 381.2 389.6 394.4 398.7 404.4 411.3 415.4 418.1 421.9 424.3 431 440.8 447.7 451.9 456.9 463.2 481.3 497 510.6 528.5 547 566.1 590.7 620.1 641.5 651 653.8 656.6 655.9 654.8 653.8 653.2 651.6 646.9 641.5 633.5 625.8 611.4 598.4 590.6 584.4 577.7 570.6 563.4 537.7 535 537.1 560.9 569.3 577.6 583.7 587.9 592.2 595.8 600 602 604.2 606.4 610 619.2 625.5 631.4 636.1 643.3 649.3 655.1 661.3 664.1 663.7 660.9 656.5 650.2 638.6 595.9 562.6 531.6 510.4 498.1 484.5 469.8 461.1 452.4 443.7 430 413 408.8 426.2 437 451.8 466.6 489.7 515.8 544.1 574.9 604.2 614.8 621.7 627.5 635.9 642.7 648.6 655.4 659.9 665.7 669 671.7 673.8 675 676.7 677.7 677.7 677.1 677.1 676.1 673.7 668.8 662.5 654.2 645 633.9 625.6 616.9 607.7 588.6 554 524.9 504 484.7 468.3 454 444.6 429.9 418.6 412.3 405.6 396.2 388.1 392.8 401.7 413.4 424.1 435.8 447.8 462.2 477.1 493.9 514.5 542.2 570.1 591.8 569.6 535.5 511.5 488.1 469.9 454.7 443.2 431.4 417.6 404.2 397.5 390.1 379.8 367.2 353.3 342.6 331.7 318.9 308.8 300.9 294.5 288.2 279.8 273.2 267.1 261.6 257 252.4 248.1 244.2 239.2 236.4 232.8 229.7 224.9 219.2 220.3 230.9 235.5 237.8 240.6 243.6
387.2 382.1 373.9 370.5 372.3 370.7 376 378.5 383.6 390.3 398 405.9 412.6 418.4 423.6 426.2 429.8 437.5 445.6 458.8 468.7 469.2 471.5 469.7 489.2 510.7 527.4 545.9 567.6 594.1 622.6 644 655.8 660.6 663.3 663.8 662.2 661.4 659.4 655.9 651.1 644.9 638.9 630.5 620.8 606.1 595.3 587.6 577.6 567.1 554.8 556 563.1 554.2 525.3 547.4 563.8 569.8 577.2 581.1 585 588.4 591.8 594.7 595.9 599.8 602.1 610.3 620.3 625.3 631.7 638.8 646.7 652.7 658.5 662.5 664.3 663.5 660 653.5 645.2 625.9 587.9 551.6 524.7 501.4 481 465.5 453.8 445 435.5 424.2 406.6 412 423.6 435.3 447.8 463.2 485.5 512.2 541.9 572.9 602.2 612.1 618.3 620.8 628.6 637.6 642.1 650.8 656.1 662.3 666.3 669.6 671.9 673.4 674.8 676.3 676.1 675.4 675.1 674.6 673 668.7 663.1 656.9 649.1 639.8 628.7 618.9 609.5 593.6 559.6 532.7 510 491.4 471.7 459.5 448.8 436.1 427.2 414.6 403.5 395 384.8 382.6 393 402.4 413 422 433.1 445.7 462.2 479.2 497.6 519.9 551.2 579.7 588.7 560.6 527 502.4 481.9 464.9 451.8 440.9 427.2 411.9 403.2 393.4 386.2 376.4 363.6 353.5 340.8 328.2 317.5 307.9 298.7 291.3 284 275.5 269.3 262.9 258.7 254.4 250.3 245 241.3 238.4 233.7 228.7 225.7 220.2 217.1 226 232.2 233.1 234.3 239.2
393.4 388 381.5 376.3 378.3 377.9 380.8 384.1 388.3 396.2 410 420.2 422.2 429.9 432.6 435 442.5 449.8 465.8 482.5 492.4 491.3 490.2 484.7 488.9 512.3 538.5 554.2 585.8 620.7 641.5 660.4 664.7 667.7 669.1 669.2 667 664.1 661.1 656.2 649.7 642.9 635.8 627.6 612.9 599.5 592.6 581.9 566.8 571.2 573.9 574.1 571.7 563.6 534.2 532 553.8 563.9 568.3 573.9 577 580.8 583.2 586.1 587.7 591.6 596.5 602.5 614.6 621.7 628.5 634.8 643 649 654.9 660.3 661.4 662.5 660.4 654.6 647.4 635 596.8 559.9 528.8 500.3 479.4 460.2 446.3 435.5 427.7 420.3 407.8 403 420.9 431.6 443.7 458.6 477.8 505.3 529.9 560.3 588.7 608 610.1 613.5 616.7 627.1 637.2 645 653.4 658.6 663 666.8 669.2 671.1 672.6 673.6 674.1 674.3 673.7 673.6 672.1 668.9 665.3 659.2 653.9 643.8 634.5 622.4 612.6 600.9 571.9 543.8 522.6 503.6 480.9 465.4 454.1 440.2 429.1 414.4 401.8 391.6 385.8 376.4 383.5 392.8 400.6 410.6 420.4 433.8 448.6 464.2 483 505.1 530.4 559.6 584.1 582 552 520 496 477.9 462.1 448 435.9 422.7 407.6 398 390.2 383.2 373.5 362.3 350.5 338.8 326.5 313.2 304.3 295.5 285.8 280.9 273.5 266.8 261.1 256.1 251.3 246.5 242.2 237.7 233.6 229 224.8 220.8 217.2 219.4 227.4 226 232.7 237.2
398.6 389.1 390.2 382.5 384.4 385.6 388.1 390.7 394.3 408.6 431.1 437.9 430.2 441.8 445.8 450 460.7 472.3 483.5 496.4 505.4 508.1 509.6 508.2 510.5 520.3 541.3 558.6 584.2 621.2 647.3 668.5 670.8 672.4 673.7 673.5 670.9 667.9 663.2 656.3 649.8 643.2 634.3 624.4 607.1 596.5 584.6 576.3 582.9 583.7 583.4 581.7 577.5 569.3 541.2 512.4 535.6 552 561.5 563.6 569.6 573.6 576 576.9 580.6 583.5 589.4 596.9 608.7 618.3 624.8 632 640.9 647.2 652.3 657.3 659.1 660.3 660.3 655.7 648.9 636.6 596.7 560.4 527.8 500.9 477.7 458.9 444.9 435 426.8 419.7 410.2 404 416.2 426.6 438.9 453.3 469.7 494.7 519 548.1 576.1 588.6 586.5 587.9 594.8 613.3 631.1 637.9 647.8 654.2 660.9 664.5 666.9 668.5 670.1 670.8 672 671.5 672.1 671 670.2 668.4 664.7 659.3 654.8 648.1 638.7 626.3 614.3 604.1 588.6 561.1 535.6 512.2 485.6 467.9 456 441.2 428.4 412 398.6 391.5 384 376.6 374.2 383.6 392.1 399.1 409.7 421.3 434.7 450.4 468.6 485.8 511.1 536.7 563.1 584 576.1 542.8 512.4 490.8 472.1 459.3 444.9 430.1 417.8 403.9 394.9 384.5 380.9 371.9 362.2 347.2 334.4 320.7 307.7 299.9 292.6 286.9 277.9 270.2 264.2 258.3 252.6 247.8 242.7 238.7 236.2 232.1 226.9 221.5 217.4 216 220.4 226 230.3 233.2
397.2 397.3 392.4 387.5 391.6 393.8 401.7 407.3 404.4 421.6 440.1 454.5 451.7 453.2 460.8 465 479.3 488.6 499 509.5 520.6 526.3 530.5 532.3 515.8 534.9 545.1 575 598.5 631.3 659.3 672 675.2 677.4 679 678.2 674.8 670.5 664.6 658 650.9 643.4 634.8 622.5 605.4 593 583.3 588.6 591.1 591.4 590.6 588 583.6 574.9 550.6 528 515.1 530.9 545.8 552.4 558.6 565.6 568.1 569.5 569.6 577.2 584.1 591.4 600.8 613 620.5 628.6 637.2 644.3 650.3 653.7 655.8 657.4 658.4 656.2 650.1 637.8 600.4 561.8 531.4 501.5 477.1 457.6 442.4 431.6 424.2 417.7 410.5 401.2 412.2 421.2 434.5 447.3 461.5 481.6 505.5 530.4 554.7 562.6 561 561.3 568.6 588.2 615.3 633 645 651.3 657.7 662.1 664.5 666.5 667.2 668.8 669 669.2 668.8 669.1 668.3 667.3 664.6 660.5 655.5 649.7 640.3 629.2 618.3 607.4 594.7 577.3 551 521.1 492.3 470.3 455.8 442.2 430.1 415.9 400.8 389.5 380.9 376.6 369.3 376.2 384.8 391.6 401.2 411.2 423.1 438.3 454.9 473.6 493.2 513 538.5 563.5 582.9 565.2 529.8 505.5 483 467.5 453.4 440.1 426.4 412.9 399.8 391.3 384.8 380.1 371.9 356.5 342.8 331.2 317.1 305.7 298.9 290.1 283.1 272.7 268.1 260.6 254.3 249.2 244.2 239.7 235.5 231.6 227.6 222.6 219.2 214.9 214.5 223.6 226.4 231
402.1 401.5 399.4 394.5 398.8 402.1 413.9 424.4 429.6 435.5 455.6 466.8 466.5 465.2 474.5 482.6 493 506.7 515.9 526 537.2 546.9 554.6 558.6 544.4 559.8 569.9 582.8 615.2 643.9 671.4 677.2 681.5 682.8 682.5 680.5 676.8 672.4 665.8 658.6 651.2 643.9 635.2 623.6 604.8 591.1 592.7 598 603.1 604.4 602.9 599.1 589.8 581.2 562.8 537.5 518.1 504.7 523.4 533.1 542.1 554.9 555.4 543.9 564.5 572.2 578.6 585.6 594.3 609.5 617 624.2 632.1 640 646.5 649.9 652.4 654.3 655.9 656.3 650 638.2 601.4 563.9 531.1 504.3 477.8 459 443.6 431.6 423.3 416.3 411.1 399.8 404.7 417.3 427.5 441.2 453.6 470.1 489.7 509 524.9 533 528.8 527 550.3 579.3 610.8 631.5 641.8 648 653.7 658.8 662 664.1 664.9 666 665.7 666.5 666.6 666.8 666 665.6 664.3 660.3 654.9 648.6 641.2 631.2 619.5 608.7 597.7 586.2 562 530.5 498.7 475.4 462.1 447.7 435.6 421.9 405 392.1 381 374.8 367.5 367.6 377.4 385.5 393 399.9 414.7 426.2 442.7 460.5 474.6 494.9 512.7 535 557.5 577.5 554.3 523.4 497 478.9 463.1 450.3 435.5 421.7 406.9 396.3 389.8 384.1 377.2 367.3 354.9 343.7 329.2 315.5 303.8 295.9 286.2 280.2 270.5 263.3 256.3 250 243.8 239.1 234.6 231.3 226.5 223.4 219.8 217.7 210.8 215.2 222.7 227.8
407 406.6 406.4 401.5 405 409.2 416.9 435.8 448.2 454.8 467.8 478.5 484.5 482.3 476 496 506.6 521.9 533.1 545.3 557.7 570 581.3 587 578.1 577.5 603.4 609.3 637.9 671.9 681.9 686.7 687.5 686.7 684.6 681.9 678 673.1 666.7 658.3 651.5 643.8 636.4 626.2 607.4 591.6 602.9 612.3 615.9 615.9 614.7 610.8 601.2 586.5 574.8 553.7 530.7 510.6 506.8 509.5 521.6 529.2 520.9 544.6 559.9 566.5 572.7 579.5 588.3 599.8 611.2 618.8 625.9 635.2 640.5 645 649.2 651.6 653.2 654.3 649.2 638.4 607 568.8 535.1 507.4 480.9 458.4 442.4 432.6 424.7 416.5 410.8 399.9 398.9 411.8 424.3 435.1 444.8 458.5 472.5 487.9 500 506.4 499.7 521.5 551.1 578.8 609.3 626 636.1 644.4 649.5 654.9 658.3 660.6 662 662.8 662.7 663 663.6 664.1 664.3 664 662.8 659.5 655.1 650.3 643.1 632.1 621 610.1 600.8 591.3 573.3 541.9 507.7 482.9 468 452.7 437.6 424.3 409.8 394.9 380.5 374.6 368.6 361.6 368.7 377.8 384.7 393.5 402.4 414.4 428.9 444.5 459.7 476.4 493 510.6 528.1 551 570.8 543.4 514.6 491.9 475.5 459.6 445.9 432.1 417.8 401 395 386.2 381.4 375.3 365.5 353.3 342.8 327.2 313.1 301.3 290.3 283.5 276.3 264.8 257.8 251.9 244.9 242.3 238.5 234.2 228.8 225 219.4 216.6 212.6 212 216.8 222.9
408.6 413.2 413.7 409.6 417.9 418 424 436.7 453.1 468 476.2 493 506.4 503.7 504 510.3 521.2 538 553.9 567 582.1 595 611.1 619.6 618.4 610.2 633.8 652.3 675.5 686.3 691.6 691.9 691.6 689.1 686.4 682.5 678.1 672.7 665.9 658.1 651.9 643.2 637.5 627.7 608.1 595.5 614.8 621.3 624.1 622.7 620.8 616.7 610.9 600.1 584.4 570.5 551 530.4 511.9 505.4 497.1 507.9 516.5 536.6 549.5 559.1 566.4 572.8 580.5 589.4 603.2 612.2 619.4 628.1 633.7 640.2 645.9 648.2 650.9 651.9 647 639 614.1 574.2 538.2 506.7 483.7 461.4 445.5 432.8 423.4 415.8 409.8 399.5 397.6 409.1 418.4 431 439 448.2 455.3 466.8 478.7 481.3 494.2 518.7 547.1 576.4 607.3 622.7 632.1 640.6 645.6 650.1 654.8 657.1 658 658.8 658.7 659.6 660.3 660.9 661.6 661 660.1 658.1 654.1 650 644 634.8 622.7 613.3 604.9 594.5 580.8 552.4 515.8 490 471.5 454.7 440.4 426.5 412.3 396.2 382.2 373 367.7 356 358.6 368.6 375.5 382.9 391.7 403.5 415.1 427.5 444.4 457.8 473.6 488 505.2 521 543.9 559.6 532.2 508.2 485.9 470.8 455.6 442 428.1 412.7 400.4 392.6 384.9 379.1 372.3 362.9 352 339.3 324.1 307.9 296 287.5 280.2 271.1 262.2 256.2 249.6 243.8 239.4 234.9 229.7 225.7 221.7 218.7 215 211.1 212.2 218.7
414.4 418.7 420.8 418 423.8 429.4 432 445.8 461.1 475.6 491.1 507.4 523.8 530.7 530.1 524.5 539.9 556.1 574.2 590.7 609.4 625.9 640.1 652.9 659.5 649.8 647.7 683.5 693.9 694.8 696.4 695.6 693.4 690.1 686.4 682 677.4 671 663.8 656.9 651.2 643.2 637.7 627.8 606.2 606.7 623.7 628.1 629.4 627.9 626.3 622.4 616.9 609.9 599.9 584.4 570.9 556.5 541.5 524 509.3 493.9 503 515.1 529 549 558.8 565.3 572.8 581.1 590.9 602.5 612.1 618.7 627.6 633.9 640.1 645.3 648 648.6 645.6 638.9 617.9 582.1 543.4 513.4 487 462.9 448 434 423.9 415.5 409.1 397.5 396.3 405.2 413.7 423.6 432.8 440.1 447.7 452 457.9 471.8 497.5 525.1 553.8 581.9 604.8 618.2 625.3 634.8 639.5 644.5 650.8 652.6 654.2 655.5 655.7 656.1 656.7 657 657.4 658 658.4 656.8 653.5 649.4 644.7 635.9 625.1 614.8 604.9 595.8 583.7 563.4 519.6 493.3 472.2 454.7 439.9 427.2 413.8 398.5 380.7 372.7 367.3 356.6 353.5 358.6 364.7 374.2 383.3 392.1 403.3 414.4 425.6 441.2 455.7 469.1 482.4 501 515.4 537.1 553 527.6 502.9 481.8 466.8 451.8 436.7 424.2 411 399.7 388 382.3 378.4 370.7 359.5 347.6 334.8 318.8 301.2 291 284 277.8 267.7 260.3 254.5 248.1 241.1 235.7 231.9 227.6 224.3 220.2 216.7 209.5 209.4 214.5
423.7 425 428.4 425.4 432.2 440.4 448.1 449.2 462.6 483 501.3 520.6 539.8 557.4 555.9 553.3 555.1 577 597.8 613.6 632.2 653.9 670.5 687.8 701.2 699.9 691.9 700.4 701.6 700.9 698.7 696.2 693.4 689.9 685.5 680.8 675.5 669.9 662.4 654.9 649.5 642.5 636.5 625.6 609.8 620.3 630.5 633.8 634.4 633.7 631.5 626.8 621.2 613.4 606.2 598.9 585.5 574.5 565.5 550.6 533.5 504.9 489.6 498.4 513.2 528.6 546.1 556.5 564.5 573.6 581.6 590.8 600.2 612.3 619.1 626.9 634.9 641.3 645.6 647.2 644.8 639.2 619.1 581.4 545.8 516.9 491 468.6 449.4 433.1 423.8 416.5 408.2 391.2 394.3 401.4 406.3 416.3 424.7 431.9 434.6 439.7 456.2 471.6 495.4 523 555.3 583.7 601.4 611.2 621.2 625.8 633.9 639.1 644.4 647.7 650 651.6 650.4 651 652.4 653.3 654 654.8 655.3 654.3 652 649 645.4 638.3 628.6 617.1 606.2 596.6 586.1 559.7 521.5 494.8 473.3 453.5 437.6 424.3 413.3 398.7 382.7 371.4 365.8 359 348.8 350.5 357.4 364.9 373.4 379.2 390.6 399.8 411.2 423.4 437 451.3 464.3 479.3 495.4 510.6 529.8 547.3 521.6 498.4 479 462.3 447.9 432.5 418.4 407.8 393.5 384.5 379.6 373.6 364.8 354.1 343.4 329.9 310 296.7 287.5 279.8 274.4 265 258.3 252.5 246.3 237.4 234.3 230.7 223.1 220.8 216.7 212.3 210.1 206.3
438.5 437.5 435.7 435.6 444.4 452.7 456.5 464.6 471.3 490.6 508.8 531.3 557.1 583.3 586.2 582.3 582.4 597.4 619.3 638.1 657.3 682.2 705 708.2 710.3 710 708.6 706.5 704 701.3 698.7 695.6 692.2 688.8 684 678.5 673.1 667.2 659.4 652.8 647.3 639.7 632.9 616.7 626 634.1 637 639.3 639.2 637.9 635.1 629.4 622.8 615.5 609.6 601.6 594.5 581.5 571 561.8 551 530.3 493.2 485.9 493.8 507.4 521.1 540.5 555.3 563.4 573 580 591.3 602.6 610.7 620 629.4 637.4 642.1 644.8 644.9 640.3 622.5 588.1 553.3 521.2 494.7 471.2 451.6 435.7 425.6 416 409.1 393.7 391.7 397.7 400 408.1 417.7 423.2 428.1 439.1 450.7 465.6 488.9 514.6 547 577.6 596.4 604.7 612.6 619.6 625 631.4 636.8 640.6 644.3 646.1 644.9 646.8 647.4 648.4 649.5 650.9 651.2 651.5 650.6 648.4 644.9 639.6 631.4 617.6 607.6 598.9 587.3 562.5 521.3 494.4 471.2 448.8 435.1 421.3 411.5 398.4 385.7 370.2 363.7 358.3 350.6 344.3 347.5 355.4 361.8 371.2 376.7 388.1 398.9 408.5 421.4 433.2 448.6 462.3 476.5 491.3 508 526.2 541.6 512.6 491.7 472.1 455.4 441.2 429.4 413.6 398.5 386.4 379.1 371.9 367.9 360.5 349.9 338.4 322.1 307.1 294.1 283.1 277.6 270.7 262.1 255 247.5 240.9 234.5 230 225.8 221.4 217.8 213.7 210.5 207.7
454.8 452 446.9 451.6 450.5 455.9 469.6 474.3 478.9 498.5 522.2 544.8 569.8 598.5 617.8 617.4 612.1 620.2 637.1 669.3 690.7 705.6 710.6 712.3 712.6 710.8 709.5 707.6 705 702.3 698.2 694.9 691.1 687 682.2 677 671.5 665 657.2 651.1 643.2 632.7 636.6 638.1 640.4 642 642.2 642.5 642.4 639.7 636.4 631.9 623.7 616.2 610 603.2 595.8 583.7 571 561.7 549.9 523.6 501.6 488.6 479 488.6 502.5 518.2 535.8 540.5 552.7 572.5 580.5 592 604.8 613.5 623 630.3 637.4 641.4 642.6 640 627.9 595.3 560.3 526.6 497.7 475.5 455.4 440.7 428.8 421.1 408.6 397.4 384.5 388.4 396.6 402.7 409.8 414 424.6 433.7 444.4 458.8 479.4 502.8 530.3 562.3 582 593.9 602 608.6 615.8 619.5 627.7 634.6 638.2 639 638.6 639.4 641.2 642.4 644.6 646.3 647 647.4 647.3 647.3 643.6 637.9 630.5 617.4 607.3 598.3 587 560 520.9 492.4 469.9 449.5 432.9 420.8 408.3 396.3 384.6 374.5 368 361.8 356.4 349 337 344.5 351.9 359.1 370.1 379 386.8 396.7 407.7 420 432.8 446.8 460.2 473.7 488.3 503.9 524 532.8 504.5 483.4 464.1 448.7 436.7 422.2 404.7 391.4 380.6 376.5 372.5 364 355.2 345.8 333.3 317.6 300.8 287.3 279.6 273.5 263.3 258.1 252.6 246.1 238.2 233.2 227.7 221.1 217.4 213.9 211 207.9
461.8 467.1 463 464.8 468.5 472.7 480 490.6 502.1 511.9 526.4 559.5 587 614.9 640.7 654 646.2 650 672.8 701.3 708 710.7 712.7 713.3 712.8 711.8 710.3 708.4 705.5 702.4 698.2 694 690.5 685.8 681.3 675.3 669.6 662.9 655.1 648.7 643.7 647.6 648.8 648.8 648 647.6 645.9 644.9 643.5 640.3 635.8 631 624.4 615.8 609.1 602 592.6 576.5 565.7 555.1 532.2 510.3 508.6 499.4 479.6 479.2 487.8 501.7 513.3 530.7 535.3 554 571.5 582.2 595.7 605.3 615.6 622.8 632.4 637.8 640.1 637.4 630.8 604.8 571 533.9 505.8 482.2 461.6 444.2 432.2 422.9 411.4 398.5 385.2 389.2 393.8 397.8 399 410.7 419.5 427.8 435.4 450 468.5 488.5 512.5 534.6 552 562.2 577.7 591.5 600.9 608.1 617.4 625.9 631.9 633.5 631.9 632.5 634 635 638.2 640.4 642.7 643.3 644.6 644 642.9 637.1 629.1 616.1 606.7 598.6 586.8 563.3 521.3 491.8 468.2 450.2 433.2 420.8 408.8 393.2 386 377.8 370.6 363.9 357 352.1 343.4 336.9 343.3 352.2 360.7 366.7 374.9 382.4 395.4 406.4 417.7 432.2 443.3 457.6 471.1 486.8 503.3 522.9 519.9 496.4 474.8 458.7 444.3 428.6 408.2 393.8 382.8 378 374.2 369.3 360.1 349 337.8 323.5 308 292.5 282 273.2 270.7 265.8 257.1 251.5 243.2 234.4 229.4 222.8 218.1 215.7 212 208.7
468.8 477.1 475.3 473 480.4 481.3 493 506.2 519.6 535 552.9 568 605 633.7 663.7 685.3 698.4 700.1 704.1 707.2 710.2 711.8 712.7 713.1 712.9 711.7 710.2 708.3 705.7 702.8 698.9 694.4 689.4 685.3 680.9 675.4 669.5 663.3 655.7 646.1 652.5 654.5 654.9 654.1 653 650.9 649.2 646 643 638.8 634.2 628.5 622.5 614.9 606.8 598.4 579.3 565.2 550.4 539.7 536.2 533 538.1 514.6 492.2 475.6 482.6 487 501.8 510.9 527.6 530.9 557.1 574.9 584.3 597.2 608.1 617.1 625.6 633.5 636.8 636.4 632.6 615.4 579.7 543.8 514.3 488.7 467.1 449.5 438.3 425.4 413.6 402.3 393 382.9 390 394.3 397.9 403.5 410.9 420.9 428.7 439.4 454.5 473.2 492.8 506.9 520.9 530.7 548.5 562.1 573.3 594.5 609.8 615.8 622.3 625.1 624.8 624 624.3 625.8 629.4 634.4 637.7 640.2 641.8 641.7 641.2 637.6 630.4 616.5 606.4 598.5 586.5 568.3 526.1 496.3 471.9 451.8 435.5 422.1 410.7 397.3 386.7 379 371.8 366.1 361.2 354.3 347.1 340 331.9 342.4 349.6 357.6 364.8 373.8 380.1 391.1 403.7 416.4 429.2 441.7 453.4 471.3 484.6 501.6 522.1 507.8 486.4 468.3 451.9 434.8 416.5 399.9 387.1 379.7 375 370.7 363.2 353.6 343.1 329.7 316.6 298.9 288.3 280.9 276.9 271.2 262.7 255.8 248.8 238.9 232.3 226 221.2 217.1 213.6 209.8
470.3 485.2 488.3 486.1 491.9 489.2 507.1 520.2 535.2 555.2 577.9 603.1 626.2 653.4 685.3 701.8 704.2 705 706.5 707.7 709.2 709.9 711.7 712.4 712 711.2 709.5 708 705.8 703.1 698.8 693.9 689.6 685.1 680.1 675.7 669 664 659.6 653.9 657.5 658.3 658.8 657.5 656 653.6 650.1 646.2 642.3 637.3 630.8 626.1 619.1 612.3 603.8 581.9 565.7 568.3 567.5 567.1 564.7 561.8 553 528.4 502.4 482.8 477.4 479.4 487.4 504.1 506.3 523.6 534.9 562 574.7 590.3 602 610 618.5 627.4 632.3 633.3 631.8 627 595.7 561.2 526.2 497.2 478 462.1 441.4 430.1 414 401.9 395.5 384.9 386.6 388.4 392.3 396 401.5 410.2 419.6 429.8 439.8 455.8 471.2 484.2 487.6 505.2 519.9 535.3 551.4 581.8 600.1 608.9 613 616.6 615.1 610.8 610.7 614.6 621.1 625.8 632.5 635.5 638.6 639.6 639.4 636.6 630.1 618 606.5 598.6 587.1 573.1 531.2 501.2 474.4 449.6 440.3 426.2 415.3 405.3 394.1 383 374.3 368.1 363.4 357.3 349.2 344.5 334.5 329.5 340.8 349.6 358 364.6 372.7 378.5 389.5 402.4 414.6 427.5 439.5 453.5 468.7 482.7 498.9 518.5 497.1 477.6 461.2 441.9 423.2 401.6 389 381.3 375.6 370.5 364.1 355.4 346.5 336.2 323.4 310 301.3 289.9 281.2 275.3 267.7 259.6 252.3 242.8 234.1 228.4 222.7 218.9 215.3 211.5
476 490.5 501.9 501.8 505.7 513.2 520.7 535.7 552.3 573.7 603.4 626.9 649.1 678.1 698.4 703.8 704.2 704.4 705.3 706.2 707.2 708.1 709.5 710.7 710.6 709.9 708.9 707.8 705.6 702.6 698.7 694.8 690.2 685.1 680.8 675.9 671.2 667.2 663.3 658.7 661.1 661.2 660.5 659.3 657 654.2 650.5 646 640.5 635.3 629.3 622.9 616.7 608.1 589 589.9 591.7 591.3 590.8 587.9 582.8 573.9 560.8 540.7 510.1 488.4 473.4 472 476.7 492 509.9 511.6 521.1 547.2 567 578.6 594.3 603.7 612.2 622.1 627.4 630.1 630.3 626.4 615.5 575.7 547.6 511.1 501.4 476.6 452.8 431.2 422.8 411.3 402.3 391.2 373.6 381.5 385.2 388.9 393.3 401.6 409.1 419.2 427 439.1 449.1 460.5 470.2 482.4 494.1 505.6 540.2 569.6 593.2 601.7 606.3 606.9 605.4 586.1 583.3 599.2 610.5 618.5 625.1 631.6 633.5 636.8 638 636.4 630.3 619.7 608.1 597.7 587.7 576 543.2 507.4 487.7 464.3 446.5 431.9 421 413.7 402.5 391.6 378.7 370.4 365.4 359.5 353.2 346.2 339.4 324.7 328.9 342.3 349.5 357.5 362.8 370.7 379.3 386.5 403 414.8 426.4 438.2 450.3 462.8 477.9 496.4 507.9 487.1 468.3 445.1 425.8 408.6 393.3 382.7 375.6 371 366.4 357.6 346.1 338 330.8 321.5 307.8 296.7 286.4 277.7 271.6 262.2 254.8 246.3 237.4 230.9 223.2 220.1 217.2 213.4
485.6 495.7 517.1 521.8 523.1 530.6 534.9 551.4 569.7 593.7 621.6 646 675.5 697.3 701.3 702.6 702.9 702.8 703.3 704 704.6 705.3 706.8 708.4 708.9 708.5 707.9 707.1 704.8 702.1 698.8 695.2 691.3 685.8 681.8 678.1 672.8 669.5 665.6 663.3 664.5 663.6 662.1 659.6 656.8 653.1 649.9 645 638.9 632.1 626.3 619.9 614 598.5 605.5 607.1 606.6 604.2 601.3 596.6 591 581.4 565 546.5 514.3 491.2 480.9 467.1 463.3 476 491.6 502 509.9 529.2 554.8 569 581.7 598.3 605.1 614.4 621.9 625 627.1 625.7 622.2 590.2 554.5 529.4 516.6 495.6 473.2 446.5 434.4 421.5 404.5 395.1 386.7 378.3 378.3 382 387.3 391.7 397.7 407.7 416.3 424.3 433.5 433.6 453.8 463.1 473.4 498.3 526.9 557 583 591.5 596.5 594.7 585.4 560.5 553.5 577 600.5 609.7 618.4 625 630.4 633.7 635.9 634.7 631 622.8 610.5 600.9 591.8 581.4 568.7 530.4 500.7 477.9 456.4 439.4 427.4 417.7 408.9 396.3 386 373 367.1 362.3 355.5 347.7 341 335.2 320.1 329.6 341.5 348.3 357.6 363.6 368.1 376.4 386 400.3 410.7 423.5 431.7 444.5 460.4 477.9 495.1 493.9 474.4 455.3 436.6 418.1 402.4 387.2 377.1 370.4 366.3 360.2 351.4 343.7 336.5 327.3 315.3 302.5 290.1 280.3 274 265.3 256.7 248.6 238.2 231.6 227 222.1 218.6 215.5
504 494.3 523.7 544.2 546 553.9 562.5 559.3 590.7 613.1 637.4 669.8 693 702.6 701.6 701.2 701.3 701.1 701.2 701.6 702.4 703.2 704.6 705.8 706.6 706.8 706.4 705.3 703.7 700.8 698.6 695.4 691.9 688.3 683.5 680 675.3 671.8 669.4 667.2 666.4 665.4 662.7 660.1 657.3 653.3 649 640.9 635.9 629 621.9 614.8 606.8 613.6 616 616.2 613.4 610.2 605.1 600.6 594.5 586.6 568.9 547.1 517.6 495.9 479.5 473.4 460.8 470.8 475.8 495.9 500.7 507.3 538.3 555 569.6 585.6 598.4 606.3 615.1 620.2 622.7 622.5 621.7 595.3 559.1 544.4 519.6 514.9 480.8 458.1 443.1 426.1 410 396.6 390.4 386.2 370.4 368.1 379.2 383.3 388.4 396.2 404.7 412.7 415.3 429.1 439.2 440.2 463.7 484.2 511.1 540.8 568.9 585.2 588 579 562.4 539 531.7 556.9 587.7 602.5 609.6 619.3 624.8 630.2 633 633.9 632 625.9 615.6 604.5 595.8 586.9 579.1 554.6 516.7 488.4 464.3 445.2 431 420.8 412.6 400.9 391.8 377.9 368.3 362.9 356.9 351.8 344.6 340.6 324.9 318.9 332.3 339.8 348.1 355.5 361.9 367.7 375 384.1 397.5 407.8 419.4 429.2 444 459.4 473.7 484.1 479.8 462.9 443.4 425.5 407.6 391.6 379.4 370.6 366.9 363.3 355.2 348.3 340.6 331.3 319.4 305.8 292.1 280.8 274.3 265.4 257.1 250.2 240.9 234.6 229.5 224.1 221.7 217.9
525.3 511.1 525.5 552.3 565.1 575.3 585.2 595.3 606.5 631.3 655 686.5 702.1 702.4 700.8 700.5 699.6 698.9 698.9 699.4 700.2 700.8 702.1 703.9 704.3 704.7 704.6 703.6 702.3 700.3 698.1 695.4 692.4 689.4 685.8 681.5 677.7 674.1 671.6 670.3 669.5 666.9 664.3 661.1 657 653.8 649.3 645.9 641.7 636.4 629.8 625 624 624.1 623.2 621.2 618.5 613.6 608.8 601.9 596.5 587.9 575.9 553.1 526.6 501.3 482.4 470.3 463.2 467.1 471.2 482.8 492.7 497.8 509.2 538.5 557.6 570.6 587.8 599.8 608.1 614.8 618.1 619.5 619.5 616.7 569.2 546.4 532.1 508.2 494.7 475.4 452.7 434.5 418.1 404.7 394.4 387.5 381.7 369 367.9 377.2 382 386.6 395 397.5 409.6 418.1 418.8 434.1 451.9 472.3 493.9 521 548.7 575.6 577.2 562.6 542.4 519.2 517.8 546.1 577 592.9 602 609.8 618 625.8 629.3 632.4 631.9 627 621.3 610.3 601.8 593.3 584.2 572.4 536.5 502 472.9 453.9 437 424.6 415 405.4 393.4 384.1 372.8 366 360.8 353.3 346.2 341.7 335.1 316.8 316.7 328 338.7 344.2 350 359.2 365.8 373.2 379.5 390.8 405.4 418.8 429.7 444.2 455.3 457.3 461.1 456.1 442.8 426.4 411 393.4 379.1 370.7 367.3 363.3 356.9 348 342 333.1 320.3 306.9 293.8 282.7 273.5 265.5 258.3 251.3 242.8 236.2 231.3 227.1 223.3 219.2
549.5 542.3 527.1 554.6 576.9 597.1 616.7 629.8 634.4 646.9 684.6 699.3 703.1 701.4 700.1 698.8 697.3 696.5 696.7 696.9 698 698.8 700 700.7 702 702.5 702.4 701.7 701 699.4 697.1 695.5 692.7 690.1 687.1 683.6 680.1 676.8 674.8 673.6 671.3 669 665.4 662.5 659.3 656.8 653.5 649.6 645.9 641.6 638.1 634.1 631.6 629.8 628 625.2 621.4 616.6 610.5 602.8 596.4 587.5 579.2 559.4 539.7 509 486.7 471.8 459.6 453.5 465 474.2 482.7 487.9 495.9 518.4 539.7 560.7 575 593.6 599.9 607.3 613 615.5 617.3 616.8 602.8 558.6 529 516.7 497.7 490.9 472.3 447.5 428.8 415.5 403.1 392.7 386.7 379.3 363.5 368.3 375.3 380.9 385.8 388.9 397.9 403.4 413.3 424.4 437.1 458.8 477.9 500.6 530 553.4 559 545 524.3 500.2 507.4 534.6 560.8 582.8 594 601.7 611.1 619.3 625.9 628.7 630 628.7 624.4 618.1 610.8 602.3 592.6 579.9 553.8 518.1 485.9 462.7 441.8 429.2 417.9 409.1 398.9 389.5 378.6 368.2 361.9 356.2 349.8 344 338.1 330.8 315.5 313 324.8 333.5 343 350.8 358.4 362.2 372.7 379 388.8 403.5 417.2 424.5 435.4 440.7 442.9 438.7 428 418.3 405.4 393 379 370.2 365.9 363.5 357.8 350.1 342.2 333.7 321 307.7 294.3 280.7 272 264.1 256.9 250.8 243.5 238.4 232.9 228.5 224 220
571.9 565.3 558.7 558.2 589.4 622.4 650.9 663.4 664.1 684.7 695.9 700.9 701.8 700.3 698.1 696.4 695.5 694.3 694.2 694.7 695.4 695.9 696.8 698.3 699.2 700 700.1 699.9 699.4 698.1 696.3 694.8 692.8 690.6 688.2 685.6 682.4 679.6 677.2 676.3 674.2 671.3 668.4 664.8 662.6 659.6 656.3 653.1 648.5 645.5 642.1 638.7 636.3 633.8 630.9 627.6 622.8 616.9 609.9 602.7 595.2 585.7 576.9 558.1 543.5 521.4 493.7 475.4 467.2 452.2 456.8 465.8 470.3 478.2 487.1 498.1 518.9 545.1 562.1 577 592 598.7 605 610.7 613.6 615.3 612.7 597.4 550.5 520.5 505.2 496.7 484.4 461.2 441.4 428.6 414.8 404.8 392.6 384.7 377.2 361.9 360.5 375.2 380.5 381.6 388.5 394.9 404 414.6 424.7 443.2 464.4 483.4 506.5 531.7 542.2 528.3 508.4 480.9 495.8 517.6 544.2 570.3 584.1 593.2 602.1 612.9 621 625.6 627.5 627.7 626.1 623.7 619.2 611.7 599.8 588.7 570.7 530.9 497.3 471.4 450 433.9 420.7 411.2 403.2 392.3 382.1 371.2 363.5 357.9 351.6 345.1 339.3 334.3 328 307.9 313.4 322.4 331.9 344.1 351.1 358.3 364.8 370.3 377.2 387.5 395.9 409.6 420.1 421.8 423.8 421.5 419.1 412 403.1 392.5 377.1 369.9 365.8 362.6 357.2 350.3 342.2 333.5 321.1 307 294.2 282 273.8 265.8 258 251.2 244.7 238.2 233.5 228.4 224.8 220.8
603.8 595.5 585.1 569.4 587.9 627 661.4 682.8 684.4 689.6 697 699.9 699.9 698 695.7 694 692.8 691.7 690.7 691.9 692.8 693.5 694.2 695.3 696.5 697.1 697.7 697.8 697.3 696 695.2 694.1 692.9 690.8 688.9 686.7 684.4 682 680.4 678.2 675.8 673.2 670.2 667.8 665.1 661.8 659 655.6 652 648.4 645.5 641.7 638.8 636 632.3 627.9 622.6 616.3 608.8 600.8 592.3 581.8 568.9 549.3 526 506.3 486.1 474.7 470.4 456.6 448.2 454.5 461.9 466.4 474.9 490.3 507.8 525.8 550.2 563.5 578.8 588.5 593.6 601.5 608.5 612.1 612.6 608.6 585.2 549.1 516.7 499.3 489.1 478.1 460.4 441.5 428.1 412.6 401.6 390 380.9 374.1 363.5 357.1 373.4 378.2 382.6 388.1 394.8 405.1 415.8 430.9 448.2 467.6 486.3 504.4 514.2 507.5 492.5 466.3 482.1 503.4 525.3 549.5 572.4 584.3 595.5 603.8 615.7 622.1 625.6 627.3 627.3 626.5 623.8 617.6 608.9 594.7 579.5 553.2 515.3 484.7 461.3 441.7 426.6 413.1 404.7 393.4 383.4 374.5 364.1 358 352.5 346 339.6 332.5 327.9 316.9 304.4 309 323.8 333.1 343.7 352.7 359 363.6 366.6 373.9 382.7 393.6 400.9 403 415.3 415.6 410.6 403.3 400.7 395.2 384.3 371.8 364.5 361.9 359 352.1 343.5 335.5 325.4 311.5 297.8 286.2 275.8 267.2 259.8 252.2 245.5 239.8 234.2 229.6 226.1 221
638 624.1 616 599.2 596.5 634.5 663.2 685.8 686.9 692.1 696.4 698.4 697.6 695.9 693.3 691.7 690.2 688.5 687.9 688.7 689 690 690.8 691.7 693 694 694.9 695.5 695 694.1 693.2 692.6 690.8 689.7 688.2 686.9 685.6 683.8 681.8 679.7 677.5 674.9 672.7 669.5 667 664.4 660.7 658.1 653.9 650.6 647.4 643.5 640 636.6 631.9 627.7 621.2 613.7 604.8 596.5 587.2 572.2 553.4 531.3 508.1 489.9 492.8 493.3 487.2 474.7 457.8 441.8 456.2 459 465.5 479 496.8 513.7 531.5 550.5 560.9 575.2 581.7 587.5 597.4 605.8 608.7 611.4 602.9 576.7 547.6 515.4 498.3 482.8 474.4 461.1 442.4 426.1 413.8 398.6 387.6 378.8 370.3 355 368.4 372.9 375.8 378.4 386.1 394.4 405.2 420.1 434.5 451.5 468.6 477.1 486 483.8 475.7 458.7 470 486.1 509.2 532.5 555.1 575.9 587.2 596.8 606.5 616.3 622.8 625.5 627.4 627.8 625.2 621.5 613.3 599.2 584.7 570 541.1 503.1 472.8 452 432.2 417.1 404.7 395.2 383.1 374.2 365.2 357.6 350.5 344.8 336.2 326.9 328 323.9 311.7 300.3 311.3 326.3 334.4 341.2 350 355.4 360.7 364.7 369.6 379.1 386.5 390.8 397.2 397.6 396 394.2 394.1 393.5 383.9 370.9 363.4 359.7 356.3 350.8 342.3 334.2 326.1 310.4 297.8 285.9 276.1 266.7 258 251.7 244.9 238.7 233.3 229.6 224.4 220.5
671.7 657.5 646.4 636.4 614.4 644.7 664.1 686.6 687.8 691.3 694.5 696.8 695.8 693.8 691.5 689.5 687.5 685.9 684.9 684.8 685.7 686.3 686.9 688.4 689.7 690.6 691.8 692.5 692.3 691.7 691 690.8 689.3 690.9 690.3 689.6 688.6 686.9 684.8 682.1 679.8 677.4 675 672.1 669.1 666.1 662.6 659.8 656.2 652.7 648.6 644.7 640.8 636.2 631.5 626.2 619.1 609.9 601.1 593.4 582.1 558.1 537.8 514.8 516.7 519.8 523.1 523.7 515.6 494.2 472.5 446.9 437.7 451 456.4 466.4 484.1 504.6 514.6 531.9 546.8 556.7 570 577.3 582.3 591.7 603.4 608.2 607.1 597.7 571.1 543.7 510.8 489.4 476 467.8 459.8 439.5 421 405.9 396.5 386.5 374.6 362.2 362.4 366.9 369.1 372.5 378.6 383.8 395.6 408.5 422.2 435.9 449.4 461.4 464.5 464.1 459.7 443.3 458.3 470.7 490.4 512.8 539.6 565.1 578.8 588.6 598.3 609.7 619.4 623.5 627.6 629.3 626.9 621.4 615.2 604 589 576.7 556.5 523.3 491.4 464.5 441 424.1 407.5 394.9 384.5 372.5 365.4 360.3 350.9 347.7 342.6 336.1 333.6 327.3 317.1 299 303.7 314.8 323.1 330 340.4 348.9 352.9 358.3 362.3 366.7 370.6 377.1 379.4 383.8 383.4 382.9 387.1 392.1 382.5 372 363.4 358.8 355.2 347.9 338.4 331.1 319.4 304.2 293.8 280.7 270.8 262.4 259.5 251.6 246.8 241.3 236 231 226.4 221.4
680.1 677.2 676.2 665.2 646.1 657.9 671.9 685.5 686.8 689.1 692.5 694.2 693.8 691.9 689.8 687.4 685.3 682.6 679.9 681.8 682.2 682.5 683.3 684.3 686.3 687.6 688.9 689.7 689.6 688.8 688.5 688.3 688.3 689.1 689.4 689.9 689.5 689.4 687.7 685.8 683.4 680.5 677.4 673.6 670.3 667.4 664.2 660.3 657.2 653 649.5 644.7 639.5 634.7 629.9 623.1 614.6 605.4 596.2 589.5 576.1 550.2 524.2 540 548.3 549.2 549.9 548.1 537.2 512 485.2 463.3 443.9 446.1 452.9 458.4 474.6 490.6 507.5 518.9 529 544.2 552.8 563.9 568 577.9 588.6 602 604.8 603.6 592.6 563.4 538.1 508.3 485.6 467.1 462.9 451.8 433.4 414.7 402.9 392.9 382.2 370.6 353.5 361.2 362.8 366.2 368.4 375.7 385.6 396.7 410.8 423.5 433.7 442.6 445 442.6 437.1 435 447.2 458.3 476.2 498.5 520.2 546.3 565 577.8 589.1 602.4 615.3 620.2 623.1 627.5 625.4 621.1 615.7 606.2 592.9 581.5 567 540.4 509.2 478.9 448.8 430.9 414.5 399.7 386.7 376.1 366.3 362.1 357 351.4 346 340.4 335.7 331.3 320.5 305.2 294.7 303.4 308.9 319.8 328.7 341.3 345.1 351.3 357.6 359.4 363 365.2 367.6 368.5 369.4 370.1 379.9 381.5 379.2 370.2 362.8 358.2 353.9 347.3 340.2 333.2 323.7 316.3 304.8 291.6 280.6 272.3 263.8 256.4 249.7 243.7 237.8 231.4 226 220.8
681.7 680.5 679.1 677.2 672.4 656.9 678.2 684.4 686 687.4 689.8 692.2 692.1 690.5 688.4 686 683.1 679.4 676.7 677.8 678 678.6 679.2 680.6 682.9 684.3 685.6 686.5 686.4 686.1 685.8 685.6 685.7 686.6 687.5 688.6 688.9 689 689.4 688 684.8 682.3 680 676.4 672.5 668.4 665.1 661.3 657.1 653.4 650.3 645.3 639.9 634.4 628.2 617.1 604.4 598.9 592.4 584.2 567.6 544.8 546.8 560.7 568.4 570.8 569.2 562.4 547.3 520.7 486.7 462.7 450.3 435.6 448.8 455.2 464.7 479.7 495 509.6 519.9 529.8 541.4 549.6 557.8 561.7 570 584.7 600.8 602.1 599.2 581.7 557 532.5 507.9 482.8 469.3 455.1 442 427.4 411 401.3 389 377.9 362.2 349.8 357.3 359.9 363.4 370.5 376.1 386.2 399.4 412.6 421.7 429.1 431.7 429.6 422.9 428.8 437.2 449.1 465.1 481.5 499.7 525.1 549.9 567 581 596.8 610.9 616.5 620.5 624.5 623.1 620.3 616.1 607.8 596.2 584.1 569.8 548.3 519.5 485.6 453.1 436.8 420.9 404.3 390.1 379.6 373.4 366.9 361.7 353.4 350 343.6 338.3 333.3 326.6 315.3 300.3 293.8 302 307.6 321.3 332.3 340.3 346.7 351.6 351.9 356.6 358.2 360.2 360.7 361.8 364.8 375.9 377.5 373.4 367.1 361.8 358.3 355.3 352.3 346.6 337.5 331.2 323.7 312.9 302.5 291.7 280.3 270.7 260.4 253.5 246.2 240 231.4 227.6 222.6
681.5 681.5 680.4 679.1 676.7 675.7 677.8 683.4 685.3 687.2 688.6 690.7 690.9 689.4 687.4 684.5 681.3 677.7 673.5 673.2 674.1 674.3 675 676.6 679 680.6 681.8 682.7 683.1 682.9 682.6 682.1 682.6 683.2 684.9 686.3 687.4 689.3 692.7 692.9 690.7 688.4 684 679.6 675.4 671 665.9 661.8 657.7 653.6 649.8 645.5 639.7 634.3 624.4 609.1 592.8 579.9 577.7 569 550.4 545.2 562.4 575.4 579.1 578.4 576.3 565.8 539.5 508.3 481.3 454.8 444.3 432.6 451.8 457.1 459.4 469.3 482.1 495.5 511.4 520.8 528.8 535.7 540.2 546.3 554.5 567.1 581.3 596.5 600 596.6 576.8 552.1 529 506.4 485.9 469.8 450.4 436.9 419.3 406.7 393.9 383.8 373 348.8 354.5 353.8 359.1 362.8 369.4 377.1 388.4 399.6 408.4 412.1 413.2 411.8 415 421.2 426.8 438.2 453.3 467.2 485.5 506.2 531.1 558.5 576.7 594.3 607.7 614.1 618.4 623.4 622.4 618.8 614.4 607.5 595.8 583.1 569.9 546.7 519.3 487.5 455.8 442.6 421.4 404.8 398.8 390 380.8 372.6 365.2 360.7 353.5 347.7 341.5 335.9 331 324.6 311.3 297.6 287.9 303.3 311 320.4 333.6 339.8 343.7 349 352.1 355.3 355.8 354.3 357.1 360.7 367.5 373 375.2 368.6 361.9 359 356.8 354.2 350 344.4 335.8 328.7 321.4 310.6 299.2 287.2 275.2 265.9 257.6 249.1 242.2 235.4 228.9 223.5
681.2 680.9 680.2 679.7 680.7 681 681.7 685.3 685.9 687 688.9 690.7 690.8 689.5 687.4 684.9 681.6 678.1 674 668.6 669.7 670.5 671 672.2 674.7 676.3 677.7 678.4 679.3 678.7 679.4 679.5 678.6 679.6 681.6 683.7 685.3 688.3 695.2 699.4 698 694.2 691.4 685.6 680.2 674.1 668.4 663.2 658.9 655 650.9 646.3 641.2 635.6 628.9 617.6 611.7 595.3 580.4 573.1 564.3 567.6 580.8 583.6 584.6 583.5 580.4 553.7 524 495.6 469.7 447.8 430.6 439.2 454.8 458.7 459.3 461.4 469.8 485.3 503.6 519.8 519.7 522.9 525.4 529.3 533 548.2 562.2 576.8 591.3 596.4 593.2 573.9 552 530 508 483.8 464.9 450.1 428.6 415.3 401.2 389 378.4 366 346.1 350.7 350.8 358.9 363.4 370.9 378.6 389.2 396.7 401.1 401 402.7 406.2 410.1 420 431.8 450.9 465.7 481.6 499.1 524.9 555.8 576.1 592.5 606.7 613.6 617.6 621.9 622.3 619.4 615.3 608.4 597.1 584.3 567.6 536.3 502.6 476.5 452 436.5 425.4 415.6 406.9 399 386.7 378.1 370.5 365 358.1 351.2 344.6 338 333.2 328.5 321.1 307.4 291.5 288.9 302.8 314.5 327.4 334.2 336.1 339.5 347 348.9 350 352.4 353.8 357.5 363 370.7 375.3 373 367.2 361.5 358.2 355.8 352.5 349.1 341.4 333.4 325.8 317.3 305.7 293.2 281.2 270.3 261.5 254.6 246.4 239.3 232.4 226.3
676.1 678.9 679.8 681.7 683.6 685 685.9 686.6 688.4 688.1 689.8 690.9 691.1 689.7 687.9 685.4 682.8 679.4 675.1 670.9 663.9 665.3 666.6 667.9 669.9 671.5 673.3 674.4 675.5 675.6 676 676.4 675.3 675.9 677.7 680.4 682.6 685.6 694.1 700.6 700.1 700 697.1 691.2 685.8 679.5 672.1 667 661 656.5 652.2 647.4 642.2 637 631.7 624.6 618.9 611.2 604.5 595.3 581.2 587 587.2 587.3 588.3 586.6 582.7 546.1 516 487.4 462.8 444.7 428.6 445.3 453.7 459.6 460 458.5 455.9 469.4 484.6 502.1 517.9 515.1 514.2 511.6 515.3 527.8 542.5 557.3 574.6 588.3 593.7 590.9 572.7 549.4 527 505.5 479.2 461.2 445.3 426.3 411 394.4 381.1 370.7 359.1 343.2 347.8 351.1 359.8 365.6 372.5 379.9 383.9 388.9 388.1 395.1 398.2 412.3 427.1 438.6 455.9 476.8 499.1 523.3 544.3 564.5 579.9 595 607.2 614.5 619.3 623.7 623.3 620.3 617.8 611.9 603 589.4 563.8 533.1 504.3 485.2 471.9 450.1 435.8 423.5 412.7 400.7 391.8 379.9 374.2 367.9 359.7 352.8 345.7 338.5 332.9 328.1 324.1 314.2 299.5 284.4 293.6 303.9 315.7 325.1 326.5 331.8 336 338.3 340.3 345.3 351.8 356.1 362 370.5 375.1 375.9 373.7 366.2 359.9 355.8 352.9 349.7 345.7 337.1 328.7 320.6 310.3 297.6 286.8 276.2 267.1 258.3 250.9 242.3 235.4 227.8
667.2 676.1 680 682.7 686.2 687.5 687.9 688.9 690 689.8 690.6 691.6 692 691.1 689.3 686.5 683.5 680.6 676.5 671.7 666 658.8 660.4 662.8 665.3 667.8 669.2 669.9 671.4 672 672.7 672.5 672.2 672.6 674 677 679.2 682.1 687.9 697.9 699.9 702 699.5 696.4 691.2 685.2 678.1 671 665.4 660.2 654 648.7 643.9 639.7 633.6 627.6 622.6 617.2 611.7 605.2 598.5 595.7 594.3 593.3 591.8 589.2 582.5 541.7 508.1 481.5 457.6 440.6 431.7 443.9 449.9 457 461.9 460 452 455.1 467.7 480.6 495.3 506.8 504.1 498.6 497 501 515.6 535.6 554 568.9 582.8 591.7 586.9 569.3 547.4 524.8 503.3 471.7 454.1 439 418.5 403.8 385.9 372 363 351.1 344.3 349 355.7 361.8 366 371.8 375.8 379 382.3 392 404.2 417.5 430 449.1 467.1 489.1 516.6 543 562.8 577.4 589.7 603.1 612.2 617.5 623.3 624.7 625 623.6 619.4 616.3 608.2 598 571.6 541.6 518.1 498.5 481 458.6 442.2 428.5 415.4 399.5 389.4 378.9 370.3 365.4 358 350.1 343.2 335.9 329.5 324.2 320.6 314 302.8 287 281 296.1 305 312.7 316 323.6 329.2 330.8 332.7 339.2 347 351 356.4 362.4 374.5 381.2 378.3 372 363.8 356.6 352.8 350.1 346.5 338.5 329.4 323.1 313.7 303.6 291.8 281.7 271 262 253.8 245.3 237.4 229.8
654 669.9 679.7 683.4 687.1 689.4 691.1 692 692.2 690.7 691.7 692.8 693.3 692.3 689.8 686.5 683.6 680.5 676.4 673 667.7 660.6 654.1 657.6 660.1 661.9 665.1 665.8 667.8 668.3 668.9 669 669.2 668.9 670.1 673.1 675.7 678.1 681.4 689.5 696.4 700 701.1 699.5 695.3 690.6 683.8 676.8 669.5 664.3 657.9 652.4 646.5 642.5 636.2 631.2 625.8 620.5 616.4 611.4 606.8 602.9 600 598.1 594.7 589.9 580 536 503.4 478 457 440.6 427.1 441.7 446.5 452.4 459.6 463.3 454.6 446.6 451.5 462.1 473.3 484.1 486.7 484.8 484.4 486.7 492.6 507.4 531.6 551.3 566.5 579.9 587.7 581.7 565.5 543.9 521.8 499.4 464.3 439.5 429.1 408.1 388.8 374.6 364 357.9 342.5 345.8 350.7 353.8 359.8 364.6 366.7 380.3 389.2 401.8 412.2 420.4 443.3 462 483.3 507 531.8 557.6 574 587.4 600 609.8 616.3 620.8 625.4 628 628.2 626.7 623.2 617.3 612.9 603.4 584.8 554.2 527.4 506.6 488.5 470.9 451.2 434.6 417.4 400.8 387.8 378.2 368.8 358.1 353.8 346.1 338.4 332.8 324.7 317.6 314.7 310.9 301.9 290.2 280.4 287.2 295.2 301.4 310.9 316.5 319.8 322.3 325.6 332.2 338.9 347.3 356.6 364.5 377.1 388.3 387.4 377.7 366.1 356.2 351 347.7 343 334.9 327.9 322.4 316.9 306.7 295.6 285.8 274.7 264.9 255.3 247.4 238.9 231.9
652.5 666.6 678.7 683.5 688.4 691.7 693.8 694.6 694.8 693.4 693.2 694.2 694.3 692.8 689.9 686.8 683.1 679.9 676.6 672.7 668.7 663.5 655.8 651.4 655.5 657.8 659.3 662.1 663.8 664.5 665.3 665.4 665.9 665.5 666.6 669.3 671.3 674.1 676.1 681.6 690.4 695.4 699.1 701.4 699.5 694.7 688.7 681.2 675.8 667.9 662.6 656.8 649.7 645.1 638.5 634.7 629.4 625 619.2 615.9 611.9 608.1 604.9 601.4 596.9 591.9 569.6 533.5 501 475.6 457.4 441.9 424.8 439.9 442.9 446.9 454.6 459.6 458.5 447.9 441 446.2 455.1 461 468.4 467.9 468.8 473.1 479 485.9 504.1 529.1 549.6 565.5 579.2 583.2 576.9 562.5 541.7 516.9 489.3 455.2 432.4 410.2 389 374.3 362.8 354.8 342.9 342.7 351.9 358.3 364.1 372.8 382.9 391.9 397.3 410.2 421 439.4 458.1 477 500.5 525.7 552.2 569.9 582.7 595.7 607.5 614.9 619.6 625.5 628.9 629.7 629.4 627.9 624.9 620.4 613.9 608 594.5 567 542.5 521.3 502.4 483.5 462 443 423.6 403 387.2 376.1 367.4 356.4 348.7 339.9 333.4 328.3 321.9 313.1 309 305.3 300 293.5 281.1 275.4 288.2 296.5 303.2 310.2 313.4 315.2 320.6 325.7 340.1 352.7 362.9 373.5 380.9 384.3 386.7 378.9 367.2 356.8 349.9 341.6 333.7 327.6 323.3 319.9 316.4 306.3 296.4 286.4 276.8 266.5 257.1 248.4 239 231.9
650.4 665.7 677.4 682.8 689.6 695.7 699.5 699.2 698.8 696.9 695.6 695.2 695.1 693.2 690.8 687.8 683.8 679.7 675.1 671.7 667.7 662.7 656.7 645.5 650.1 652.8 654.7 657.2 659.5 660.2 661.2 661.3 661.6 661.3 663.4 664.3 666.6 668.9 672.1 675.3 682.2 690.2 695.3 699.1 701.4 697.4 691.8 686.9 680.2 674 667.7 660.2 654.6 648.4 642.5 637.2 633 627.2 623.7 618.6 615.9 611.9 608.6 605.3 600.6 594.9 582.7 535.5 505.2 478.5 457.2 437.8 423.4 437.2 436.5 438.7 443.6 445.7 450 450.7 439.9 432.1 440.6 451.2 456.7 454.5 455 459 465.9 472 482.2 511.9 527 549.2 564.7 575 577.5 569.2 553.5 528.5 505.2 469.1 438.4 411 391.1 374.6 359.1 351.6 338.3 341.6 353 362 369.8 381 392.9 403.7 412.8 422.1 436.8 455.3 474 497.5 520.7 546.1 565.6 579.4 590 602.5 612.6 620.1 625.2 629 631.9 633.1 633.5 630.5 626.1 621.8 616.7 608.7 600.5 587.2 566.3 545.6 524.1 502.5 477.1 451.2 429.8 407.5 391.8 380.5 370.1 358.4 349.9 342.3 334 326.9 316.5 311.8 306 297.3 294 289.5 283.2 274 281.4 289.5 295.9 303.2 304.8 310.6 320.4 329 337.9 349 358 369.8 377.9 380.3 382.2 381.3 371.6 361.2 351.3 337.4 326.7 320.8 316 310.2 303 300.6 292.5 284.3 275.5 265.5 256.9 247.8 239.7 232.1
653 664.8 676.1 682.3 690.1 701.1 703.2 703.1 702.4 701.1 698.8 697.6 696 694 691.4 688 683.1 679.5 675.3 670.7 665.8 660.6 655.4 646.5 643.5 647 650.8 652.1 653.8 655.6 656.5 656.8 657.4 656.2 659 660.7 661.8 663.8 667 670.3 675 684.3 689.5 694.8 699.9 698.9 694.6 689.9 684.8 678.9 673.9 666.2 660 653.3 646.5 640.7 636.1 631.2 626.3 622.8 619.4 614.4 611.8 608.2 603.5 597.3 590.5 561.8 516.3 485.2 463.3 444.5 418.3 423.5 428.1 423.4 424.8 427.1 434 441.7 442.3 433.8 419.9 429.4 434.1 433.5 442.2 443.7 451.4 456.7 459.5 484.1 509.3 525 545.2 559.9 571.7 569.1 554.8 531.4 508.1 469.9 438.6 408.9 389.2 369.9 358.9 351.4 335.3 342.4 354.1 365.2 373.5 386.4 399.8 411.8 421.5 435.3 452.7 470.6 494.3 517.5 543.4 561.5 575.7 588.3 601 611.2 618.1 624 628.3 631.8 633.8 635.4 636 633.4 630.2 624.7 619.1 611.8 604 592.4 585 569.3 546.4 517.5 486.7 459 435.1 413.7 397.1 383.9 373 362 352 343.8 334.4 325.9 320.8 313.7 306.3 303.2 299.1 294.6 287.4 275.9 271.9 283.6 294.2 303.4 310.4 313.8 318.3 323.4 330.5 341.1 353 359.2 366 373.1 374.3 373.5 371 362.1 353.3 340.4 326.2 315.3 308.6 306.7 302.2 294.8 288.5 282.1 274.1 263.8 254.8 246.3 238.7 230.9
654.2 665.2 675.7 681.7 692.2 705.7 708.2 706.9 706.9 704.6 702.5 700.2 697.4 694.2 691.2 687.5 683.2 679.6 674.2 669.4 663.5 658.3 651 651.7 644 638.5 644.2 647.7 649 650 651.7 651.9 652.3 653.1 654.5 656.3 657.8 659.5 662 666 669.1 676.8 684.3 689.4 694.8 697.5 696.3 692.3 688.3 683.3 678.5 672.5 665.9 659.3 652.2 645.7 640 635.4 630.9 626.7 622 618.8 614.3 611.3 607.1 601.4 594.8 568.7 527 493.1 471.3 452.3 435.8 414.3 401 401.8 398.3 413.5 418.6 422.7 427.9 428.1 418.5 415.5 408.9 414.3 416.4 423.7 428.6 438.5 450.2 457.4 483.5 509.4 523.9 544.1 558.9 563.5 551.9 524.1 492.2 458.5 430.2 405.4 385.5 370.5 358.8 351.1 343 339.6 355.3 367.8 377.4 389.1 403.4 415.7 430.9 439.9 468.3 491.9 518 541.7 560.2 572.7 587 599.6 609.7 616.6 620.7 626.1 629.9 633.3 635.6 637.1 637.1 634.8 631.6 628.6 621.6 614.1 607.3 597.9 586.1 572.9 554.1 523.6 488.8 460.6 438.1 419.6 402.7 388.9 375.8 364.7 354.7 343.2 337.3 329.9 321 314.6 309.7 305.1 300.6 294.4 286.8 280.5 271.7 277 293.7 302.2 311.3 314.5 317.9 321.4 325.2 329.8 338.3 348.8 359.5 365.2 364.9 363.4 362.5 357.8 350.5 339.7 326 317.2 311.1 304.8 298.6 291.5 286.4 278.2 269.2 259.4 252.1 246.5 240.3 235.3
655.1 663.3 673.5 679.9 691.2 708 709.5 709.3 709.4 706.9 703.9 701 697.8 694.3 691.2 687.1 683.3 679 673.8 669.7 664.2 661.4 658.4 656 651.6 642.3 635.9 640.9 643.4 645.4 646.5 647.2 647.7 648.9 650.2 652.2 653 655.3 657.9 661.1 663.9 667.2 675.3 682 688.5 693.6 695.4 694.1 691.3 687 681.6 677.5 672 665.8 658.1 651.9 646.4 640.2 635.9 630.1 626 621.2 617.8 614.3 610.2 605 599.3 584.3 540.9 508.7 480.6 460.9 447.4 436 435.1 427.6 418.8 395.6 393.1 390.4 404.8 409.9 409.7 404.9 405.3 396 399.1 407.7 412.7 419.2 430.3 445.8 452.5 484.9 508.5 523.1 540.4 552.4 541.1 510.5 479.5 449.4 424.4 400.9 383.1 369.2 357.9 349.6 342.8 333.5 353.7 367.6 377 391.9 405.4 418.9 443.3 449.4 469.2 510.8 534.9 558.6 571.8 585.9 598.5 607.3 614.2 618.8 623.3 627 630.8 633.7 635.4 636.3 635.8 634.7 632 629.4 624.4 617 611.5 600.8 590.5 573.6 544.8 516.5 486 460.2 438.4 421.9 406.4 387.5 379.4 368.7 358.2 348.5 341.6 330.6 323.7 316.6 310.8 304.8 301.4 298.3 294 286 273 269.2 283.1 296.7 302.6 310.2 312.9 318.3 321.1 324.3 328.5 338.2 346.5 353.3 357 349.4 348.4 341.9 335.8 329.4 322.3 318.7 315.8 310.8 304.7 298.7 293.5 287.1 280.5 272.6 264.7 257.2 249.1 239.9
655.8 662.1 670 676.7 685.3 700.4 709.7 712.9 711.8 709.4 705.1 701.5 697.4 694.2 690.4 686.8 682.8 679.4 675.1 671 667.6 664.1 659.8 656.3 653 648.5 640.4 628.5 636.5 638.8 640.2 641.2 642.2 644.2 646.5 647.7 649.8 651.1 653.6 656.5 658.9 661.4 665.6 674.4 680.1 688.3 691.7 693 691.8 689.1 685.1 681.6 676.8 671.8 663.8 658.3 652.1 647 640.2 635.1 629.3 625.3 621.3 616.7 612.8 607.9 602.5 595.6 562.2 522.7 491.7 465.9 453.1 449.5 444.9 438.8 434.9 423.5 422.6 409.9 390.6 390.3 402.6 395.9 395.2 389.3 381.5 387.7 397.7 405.7 413.7 423.8 438 453.7 482.8 506 519.7 534.9 527 495.7 466.7 439.5 415.5 394.2 380.7 369.4 357.4 348.8 342 337.1 352.9 362.8 376.2 390.9 407.5 425.6 447.1 457.6 479.5 513.6 553.5 570.7 585 597.5 604.9 611.7 616 620.6 623.9 626.8 631.1 633.1 634.1 634.2 634.3 633.5 632.2 628.5 625.1 619.7 612.3 604.1 593.8 578.8 549.3 512.2 481.1 453.9 438.7 425.7 410.9 398.9 385.9 373.6 363.2 353.5 344.8 336.1 324.9 317.1 312.2 309.3 305.5 300.7 296.7 290.8 281.2 269.6 272.2 287.8 297.1 300.8 308 313.2 316.7 320.6 325.1 329.1 333.1 338 338.8 336.5 333.5 326.9 324.9 322.3 318.8 316.9 315.9 311.8 307.4 301.3 295 292.1 285.3 277.9 269.9 261.8 252.1 242.6
654.1 658.2 665.8 673.4 680.3 693.4 708.7 714.6 715.7 713.8 710 705.5 699.3 694.8 690.9 687.1 683.6 680.6 676.8 672.6 668.8 665.4 661.2 657.9 653.6 649.3 645.6 637.2 624.1 630.7 633.4 635.8 636.7 639.3 641.1 643.4 645.4 647.8 649.5 651.9 653.6 656.8 659.2 665.2 673.8 681.6 686.6 688.1 688.8 687.5 685.6 683.2 679.5 674.5 670 664.4 658.9 652.9 646.7 639.2 632.8 628.9 624.4 619.7 614.8 610.6 606 600.5 591 539.9 502.4 478.1 459.5 449.9 446 444.2 439.8 437.4 432.8 418.1 402.9 395.1 382.6 381.8 381.6 376.4 373.8 369.1 376.3 387.9 399.3 412.6 421.5 435 457.3 480.2 502.7 512.3 516.3 485.5 454.9 429.9 407.2 391.2 377 366.4 355.3 347.2 333.7 335.9 352.4 364.1 374.8 388.8 410.3 432.1 444.9 462.1 491.3 528.9 563.7 579.7 593.6 602.5 608.4 613.4 617.4 620.5 622.8 627 629.3 631 632.3 632.6 632.4 631.7 630.8 627.2 624.9 619.8 610.8 605 597.1 582.2 562.7 526.6 490.2 464.1 447.4 432.9 419.2 403 392.3 376.9 369.3 358.9 350.1 341.8 332.1 322.2 316.5 311.6 308 304 298.6 293.8 282.3 272.5 265 277.9 287.7 297.9 300.3 304.8 309.5 318.1 320.6 322.5 325.2 326.7 325.1 323.8 322.7 321.4 319.4 318.7 316.4 315.3 314.5 311.3 307 302.2 298.4 293 287.7 281.3 272.6 265.3 260 251.1
651.1 654.8 661.6 669.9 674.7 685.3 704 712.8 716.2 715.1 713.1 709.7 704.8 699 693.9 688.2 685.5 682.2 679 675.2 670.3 665.7 662 658.1 653.8 650.1 645.4 641.1 635.1 621.5 624.6 628.7 631.7 633.8 636.6 638.5 641.3 644.2 645.9 647.3 649.9 652 654.4 656.1 662.5 672.9 679.6 682.3 683.6 683.8 683.2 682.7 679.8 677.1 673.6 668.3 664.4 658.1 651.9 645.2 638 631.7 627.5 622.6 618.1 612.3 608.7 604.2 597.8 566.1 522.3 489.6 468.5 453.3 445.5 444.1 444.1 441.7 431.8 430.1 421.1 415.9 411.6 405.1 400.6 391.9 391.8 381.1 366.6 371.4 385.5 398.9 407.6 424.4 431.8 455 471.5 487.2 503.3 477.7 446.3 422.8 399.9 385.6 373.5 363.1 352.9 345.6 331.8 332.9 350.7 364.7 375.3 390 409.8 431.9 444.3 472.9 519.6 550.7 571.7 587.7 598.2 604.1 608.8 612.6 616.2 618.6 619.8 622.8 625.7 628 629.7 630.3 629.7 629.6 628.8 626.8 623.3 620 613.1 605.9 600.1 587.7 570.7 540.5 504.3 477.4 459.3 443.5 427.9 411.6 396.7 385.5 373.9 365.2 356.4 344.8 335.3 328.8 321.8 315.9 310.2 306.3 301.6 295.4 288.1 276.3 266.5 264.4 277.9 284 292.2 298.1 303 311.7 315.7 318.7 321.1 321.3 320.6 319.6 319 317.2 316.3 315.6 314.4 313.6 312.9 310.2 306.1 301.8 298.4 294.3 289.8 283.2 278.7 272.4 266.3 259.9
647 648.4 653.8 664.7 670.1 678.9 693.8 709.6 716.4 717.2 715.8 712.1 708.4 703.6 698.7 693 688.5 685.6 681.5 677 672.9 667 661.9 657.8 653.8 649.4 645.4 641.4 636.8 632.1 617.7 620.5 625.4 628.7 630.7 634.3 637.5 640.4 642.5 643.4 644.6 646.1 648.6 651.3 653.4 659 668.2 674.6 677.1 677.5 678.8 678.8 677.8 676.8 674.8 671.6 667.6 663.5 657.4 650.8 643.1 636.8 630 625.6 621 616.1 611.1 607.2 602.4 584.6 547.4 508.6 481.4 459.6 446.1 439.9 441.6 442.2 441.5 438.5 438.2 435.1 433.1 430.2 422.9 413.8 405.4 394.5 380.7 368 367.3 385.2 395.1 406.6 420.6 427.1 444.6 457.5 467.8 462.9 438.6 414.9 393.9 379.5 369.9 360.4 350.1 343 327.7 329.7 344.2 362.4 374.4 391.3 409.1 427.4 457.2 499.1 534.6 559.8 582.5 592.5 598 603 607.2 610.6 614 615.9 617 618.2 621.5 624.4 626.1 626.5 626.6 626.9 626.2 625 621.7 619.2 614.5 606.2 600.7 591.9 580.6 557.1 527.4 499.9 476.7 458.8 438.9 423 408.4 396.7 382.4 372 363.5 354.4 342.2 332.9 324.8 320.1 314.7 309.8 305.4 298.4 293.1 283.7 271.3 260.3 265.2 273.6 280.3 288.8 297.3 302 307.4 313.3 317.9 318.8 317.9 316.2 315.5 315.2 314.2 312.7 312.2 311.1 310.1 307.9 304.1 301.1 298.2 295.1 291.4 289.1 284.1 278.6 272.1 265.4
636.7 639 646 657.8 666.6 673.6 685.8 705 712.8 717.2 718.1 715.4 712.1 707.9 703.1 696.8 692.2 688.9 685.6 681.1 676.9 670.8 663.5 657.9 653.4 648.5 644.5 640.3 636 631.4 623.4 610.8 611.7 620.2 625.9 629.4 632.6 635.4 637.7 639.4 640.3 641.8 643.3 645.1 648.4 650.3 655.1 662.9 669.8 671.9 673.9 674.5 675.1 674.3 673.3 673.3 670.8 667.4 661.8 655.3 648.8 640.9 634.4 628.3 623.7 618.9 614.4 609.4 605.4 600.4 569.1 525.5 493.3 467.2 450.3 439.7 438.9 437.3 443.2 445.7 446.6 449.1 448.7 445.8 432.7 416.7 406 388.5 380.4 369.3 360 360.1 372.9 390.9 400.6 410.3 419.8 430 435.6 435.2 421.3 406.7 388.4 372.4 364.5 355.6 347.1 339.9 324.5 329.4 341.4 357.5 375.1 391.4 416.2 426.5 463.8 499.1 532.3 559.6 583.4 592.4 596.8 600.8 604.5 608.1 610.8 612.3 613.4 615 616.9 619.8 621.8 622.1 622.4 622.6 621.8 621.8 619.8 618.5 615.5 609.4 601.8 595.4 586.4 572.6 550.9 526.9 502.9 479.1 456.4 438 422.9 406.8 391.9 379.2 368.5 359.5 348.6 336.6 329.5 324.1 319.2 313.2 307.8 301.8 296.5 289.4 276.5 263.6 259.4 263.9 271.5 279.9 286.2 294.1 299.9 307.6 313.8 315.7 316.6 314.6 312.3 312.8 312.1 310.2 308.5 306.3 306.5 304.6 302.8 301.5 299.4 297 294.1 291.6 287.4 282.8 276.3 269.4
611.1 616.1 632.7 649.5 662.7 668.7 680.7 698.7 709.4 717 720.3 718.5 715.5 712.3 707.8 702.4 698.3 693.9 690.1 686.1 681.7 674.6 666.3 657.6 653 647.9 643.1 638.8 632.9 623.5 627.9 626.2 617.2 606 619.1 624 628 630.4 632.5 633.7 636.2 637.4 638.3 639.6 642.7 645.2 648.3 651.3 658.8 663.1 666.5 669.1 670.4 671.4 671.1 671 670.4 669 665.4 659.2 653.9 645.5 637.8 631.6 625.4 621.4 617 613.1 607.9 604.2 599.3 549.2 504.8 477.1 452.9 439.9 438.3 438.2 443.8 449.6 454.3 458.7 458.2 455.7 440.5 423.1 405.7 383.4 378.1 367.8 363.5 356.4 357 372.6 382.7 389.6 394.4 401.3 405.6 402.1 401 392.3 380.6 368.1 359.6 351 344.3 338.2 321.5 329.1 340.1 354.2 370.1 390.1 413.5 426.7 451.9 490.1 523.1 548.7 573.1 588.7 592.7 597.5 600.6 603.9 606.7 608.6 609.3 611.1 613.2 613.7 615.3 615.9 616.5 617.4 616.9 617.5 617.5 616.4 615.3 612.6 605.4 598.7 591.4 582.7 569.6 549.8 529.9 504.9 476.6 456.4 438 419.9 403.6 387.2 374.5 364.4 356.3 342 334 328.6 323.2 316.8 309.9 304.8 299 293 285.1 271.9 261.8 257.1 260.4 268.6 275.3 284.9 292.8 300.9 308.3 311.1 311.8 310.2 307.5 309.5 307.7 306.1 303.2 301.5 301.8 302.2 301.1 299.7 298.5 296.6 294.8 292.1 289.2 285.6 279 273.5
581.6 586.3 619 641.6 658.6 664.8 675.1 692 706.6 716.3 721.7 721 719.4 714.9 711.2 706.9 703.5 699.2 695.6 691.2 685.6 679.2 668.8 659.8 654.2 647.6 641.3 634.7 635.6 635 633.3 630.3 626.6 608.7 604.7 619 621.7 625 627 629.2 631 632.5 633.7 635.4 637 639.7 641.7 644.5 648.7 653.5 656.8 661.4 663.8 666.2 667.5 668.2 669.7 670.3 668.2 663.4 656.9 650.6 642 635.1 628.4 623.5 619.4 615.8 612.3 607.6 603.7 572.9 524 489.7 462.9 446.2 438.7 439.2 442.9 451.6 460.4 464.9 465.9 460.2 442.6 430.5 411.9 388.1 375.4 369.7 364 354.4 352.1 357.5 368.2 374.7 377.5 381.7 384.7 383.8 382 373.5 368.4 358.8 352.1 347.3 340.7 332 323.6 328.1 339.4 351.8 365.1 387.3 404.9 429.6 443.8 476.8 514.5 541.7 563 581.5 588.5 593.2 596.9 599.1 601.8 603.7 604.5 606.1 607.8 608.9 609.1 610 610.2 610.9 611.9 613.3 613.3 613.6 614 613.1 609.6 601.6 596.4 589.8 584 572.9 554.7 528.5 501.2 476.1 452.7 432.8 413.2 395.7 381.4 369 359.1 349.2 340.4 332.5 326 320.2 312.8 308.3 301.9 295.4 287.6 277.7 268.2 259.5 251.8 256.1 266.1 273.1 283.3 292.8 301.2 303.9 304.7 303.7 301.2 303.4 302.5 300.4 298.1 297.4 298.5 298.5 298.3 297.5 296 295.2 294.5 292.4 290.4 286.2 282.4 276.4
547 576.1 608.1 628.6 651.9 660.9 669.8 686.6 702.9 714.6 721.6 723.6 722.8 720.3 716.8 711.9 706.7 703.3 699 694.6 689.1 682.8 673.7 666.9 659.6 654.1 647 642.8 641.7 639.7 637 634.6 630.3 622 603.1 608.6 614.8 618.6 621 624.3 625.5 627.7 629.4 631 631.8 633.8 636.6 638.2 641.6 643.9 645.3 648.6 651.9 657.9 660.2 662.8 666.3 669.2 668.6 665.1 659.8 653.4 645.8 638.8 631.3 626.1 621.8 618.4 614.9 610.4 606.3 589.5 534.9 501.8 471.5 452.2 439.7 439.4 441.4 450.8 461.3 470.7 472.3 463.5 443.8 429.5 414.6 396.7 380.6 373.2 366.6 360.7 354.8 348.9 352.4 361.1 363.6 366.8 365.8 363.4 361.9 360.2 360.1 357.6 349.3 341.7 335.9 327.4 323.7 325.6 335.7 348.5 360.9 380 398.4 422.9 437.1 473.1 504.4 533.6 555 569.4 582.1 588.4 592.1 595.7 597.4 598.5 598.8 600.1 601.5 602.2 601.8 601.6 600.6 600.6 602.1 604.9 607.9 610 611.3 611.2 611.3 608.5 601.3 597.3 593.2 586.8 574.8 553.5 523.3 498.7 470.5 445.6 424.1 403.5 389.9 373.5 363.9 355.3 345.4 337.9 327.8 323.7 318.2 310.9 304 298.4 290.5 281.4 273.8 267.4 260.2 249.5 251.5 263 271.8 281.3 289.6 295.5 297.6 298 298 297.3 297.5 295.9 294.5 293.2 295 295.2 294.9 294.7 294.7 293.6 293.3 292 290.3 287.9 283.9 278.6
532.7 558.8 595.6 621.5 647.6 658.1 666.5 682.2 699.4 712.4 721.7 726.1 726.6 724.1 720.9 716.5 711.9 706.4 703 698.4 692.9 687.5 682.9 675.1 667.1 660.1 652.2 649.2 646.2 643.9 641.2 638.4 634.3 628.9 614.6 595.6 602.2 610.6 615.8 617.7 619.7 622.7 624.1 626.5 627.7 629.6 630.7 633.1 635.3 637.5 639.3 640 642.4 647 651.8 654.2 660.6 665.5 666.8 665.1 661.7 657.1 649 642 635.8 629.4 623.8 620.2 616.4 613.1 608.8 604.8 573.9 518.1 486.4 462.9 446 439 439.9 448 461.7 475 477.4 464.5 447.6 432.8 418 405 388.1 379.8 370.9 361.8 355 350.6 347 346.5 353.8 354.9 354.5 353.1 352.5 352.7 353.7 351.8 348 340.2 333.6 325.8 322 324.1 331.5 340.9 354.2 370.7 389.4 409.6 428.9 454.9 485.1 512.4 537.5 557.5 574.6 582.7 586.3 590.3 592.7 594 595.5 596.3 596.1 595.3 593.5 592.4 590.7 591.2 593 596.6 600.2 604.4 607.7 609.4 610.4 609.9 608.2 604 599.2 595.9 588.7 573.7 549 519 490.8 463.5 437.6 416.2 398.2 382.8 371.8 362.2 351.9 341.2 332.9 326.1 321.3 314.2 305.2 301.9 294.1 286.5 280.6 274 264.6 259.2 246.1 249.5 259.3 269.3 278 285.3 288.4 289.9 289.3 292.8 291.7 289.7 288.4 287.8 290.8 292.1 293 292.7 293.1 292.3 291.8 291.3 289.2 287.4 284.3 280.1
524.4 557.5 588.4 614.2 639.2 655.9 665.3 680.4 697.2 710.2 722.5 729.4 730.1 728 724.6 719.9 715.4 710.6 707 701.7 697.9 692.7 688.9 683.7 677.4 669.1 660.6 659.1 654 650.2 646.5 644.2 638.2 633 621.5 613.1 593.5 593.9 608.1 611 613.5 617 619 620.6 622.2 624.5 625.7 626.7 629.1 631.2 632.8 634.1 636.7 639.8 643.9 646.6 652.1 659.2 662.8 663.3 662.1 658.7 652.6 646.5 640.5 634 629 623.1 618.6 615 611.5 607.2 597.4 538.5 504.2 474.1 455.1 441.9 439.7 446.3 457.6 471.7 479.8 470.4 449.2 436.1 424 415.2 402.2 390.5 382.5 369.9 363 360.3 350.4 343.7 340.8 345.1 346.9 344.8 344.9 345.4 345.8 343.9 342.2 337 330.3 324.8 318.4 319.6 327.1 337 346.9 360.4 379.5 396.8 416.8 437.9 462.5 491.5 520.2 541.9 561.4 572.4 578.7 583.5 586.6 588.2 590.3 590.7 589.3 586.4 583.5 583.2 581 582 586.1 589.3 592.5 598.9 602.7 606.3 607.9 608.6 609.7 608.5 605.7 599 595.3 587.7 569.7 544 509.5 477.2 450.6 426.9 406.2 393.4 380.4 370.3 360.9 350.6 338 329 323.4 318 310.2 304.1 300 293.9 287 277.4 271.2 264.6 256.6 244.3 246.7 254.2 263.2 270.7 274.3 277 283.8 286.6 285 283 281.4 281.8 283.7 287.1 289.5 289.2 291.4 291.8 290.9 289.9 288.1 285.7 282.9 278.9
516.3 538.3 567.2 604.6 636.4 653.3 667.8 682.4 696.4 710.6 722.8 731.2 733.2 731.3 728.1 723.6 719.6 715.4 711.6 706.8 702.2 698.4 694 689.6 685.4 679 672.3 668.6 663.9 660.6 657 651.6 643.6 636.6 630.7 623 610.7 595.1 595 603.4 606.7 609.5 612.7 614.5 616.8 619 620.3 622.5 623.6 624.8 626.6 628.5 629.9 632.4 634.5 638.7 644.3 650.5 657.2 659.9 660.5 659.9 656.4 650.8 645.9 641.5 634.8 629.6 623.8 618.1 613 609.7 605.5 579 525.6 495.3 469.6 456.2 445.9 442.7 453.6 466.8 478.6 474 452.7 437 433.1 426.9 413.9 403.8 391.4 381.9 373.7 367 362.2 351.8 341 338.5 335.2 335.5 337.5 338.5 337.6 337.1 332.8 329.9 327.6 325.4 321.4 318.9 322.4 331.6 339 351.1 366.2 380.2 401.6 422 442.1 468.7 495.9 521.5 540 554 567.3 572.2 578.2 581.1 584.1 583.7 581.5 578 572 569.5 569 572.1 577.6 583.2 588.2 590.5 598.6 602.9 605.6 607.2 608.1 608.8 607.4 603.9 597.6 593.2 582.8 559.8 527.1 491.9 461.3 438.3 418.7 403.6 390.4 379.3 368.5 356.4 346.4 334.1 329.9 323.1 316 310 304.7 300.5 292.5 283.7 274.2 268.2 260.5 252.7 242.4 242.6 249.5 256.1 259.9 261.6 268.9 272.9 273.3 271.8 273.8 275.7 277 278.4 281 281.8 284.6 287.6 288.7 288.3 286.7 283.8 280.5 277.7
518.8 530.3 571 606.6 635.1 654.1 668.1 682.8 697.1 710.3 721.6 732.5 735.6 735 731.6 727.1 724.1 719.8 716.7 711.5 707.4 703.3 699.3 695.3 690.1 685.1 681.2 676.6 671.3 667.7 663.4 658.8 652.8 642.9 636.3 629.3 618.5 605.1 588.7 593.8 599.3 602.2 605.3 607.4 610 612.9 615 617 619 619.8 620.9 622.6 624.5 626.6 628.8 631.9 637.3 641.8 648.6 655.1 657.1 658.8 658.8 656.7 653 648.1 642.3 637.7 631.7 624.7 619 612.9 608.5 602.6 553.2 518.9 493.2 473.2 458.9 450.4 453.9 464.9 474.1 473.2 461.1 446.6 441.2 434 424.6 417.4 408.1 393.4 381.1 374.5 365.7 359.7 351 343.1 339.4 333.6 332.2 329.2 330 329.7 328.8 326.7 325 324 321 316.2 318 328.2 333.8 343.1 354.3 371 386.5 407.2 425 444.3 471.8 495.9 512.6 530.8 543.1 552.7 558.1 570.2 577.6 576.8 572.9 564.7 555 547.8 545.4 554.1 564.9 575 582.3 588.3 591.7 597.9 602.4 605.2 607 608.3 608.1 606 601 597 590.1 570.8 541 505.6 474.4 450.7 432.2 414.5 398.9 387.5 375.9 364.2 354.3 341.7 334.5 327.3 320.5 314.2 309.8 305.5 298.4 289.8 278 271.9 264.5 258.7 251.7 240.8 241.7 243.8 246.5 251.8 255.4 257.2 258.2 259.5 256.5 260.2 261.2 264.5 267.9 269.4 274.8 280.3 285.6 286.4 284.9 282.5 280.1 276.7
538.8 561.5 587.9 611.7 635.1 655.2 667.8 683.4 696.8 710.1 724.1 735.6 739.1 739.8 737 731.8 728.6 725.2 721.6 716.7 712.4 708.8 704.8 700.9 696 691.3 687.1 682.5 678.5 674.8 670.4 665.5 658.9 649.6 640.4 632.8 625.2 611.1 599.2 582.2 588.6 593.9 596.1 599 602.4 605.1 607.6 610.3 612.2 614 616.4 617.9 619.1 620.6 623.6 625.4 628.5 636.2 639.2 648.5 652.6 655.7 658.7 658.4 656.9 653.8 649.2 644.9 639.1 632.1 624.9 618.1 611.7 606.1 598.5 565 517.2 498.7 479.9 468.9 461.4 464.3 469.3 467.8 463.7 457.7 449.5 443.6 435.8 425.8 414.7 406.1 392.5 377.9 371.5 363.6 356.4 349.9 347 341.5 337.5 332.3 331.8 327.1 324.5 325.4 324.2 322.8 320.8 317 316.1 322.8 330.2 336.1 345.9 359.8 373.6 389.4 410.1 426.8 442.9 465.5 484.4 503.2 518.1 526.9 536.1 552.6 563.3 566.1 559.9 547.9 536.8 520.8 511 533.5 549.8 563.8 575 583.5 589.4 592.2 598.9 603.1 605.3 607 608.3 608.3 605.5 599 595.2 578.5 551.2 519.4 490.8 464.8 443.5 427 413.4 398.4 384.2 371.8 357.1 350.9 339.3 331.9 328.8 320.3 314.5 308.6 299.8 294.2 287.1 276.4 270.8 262.4 257.9 251.1 240 238.1 237.4 237.8 241.6 244.4 244.9 245 245 246.6 248.8 251.3 253.1 257 262 266.2 272.9 278.9 279.5 280.4 278.2 275.7
567.8 589.1 612 632.3 647.7 658.1 672.2 685.8 697.5 710.1 726 737.2 742.4 743.1 740.9 737.6 734.1 730.4 726.2 722.4 717.9 712.9 709.8 705.6 700.6 696.7 692.5 688.5 684.3 680 675.6 670.7 666.9 658.7 646.2 637.7 629.3 620.9 606.7 595 583.8 581.5 585.5 588.8 591.6 597 601.1 604 606.3 608.7 610.9 613.2 614.4 615.3 617.6 620.8 622.8 625.5 630.7 636 645.7 651.1 654.7 657.2 657.4 655.3 653.2 649.8 645.8 638.5 632.2 625 616.9 609.7 604.2 594.6 560.6 534.2 508.9 492.5 478 471.5 469.9 465.5 462.6 460.7 455.8 450 443.5 434.1 425.8 412.4 402.2 389.6 383.9 374.4 366.6 358.9 354 349.6 345.5 341.6 335.7 330 326.2 321.4 321.9 321.2 319.2 318.7 315.3 314 324.1 331.7 339.7 350.5 365.7 377.7 391.2 406.9 422.9 436.4 455 472.6 484.2 493.1 522.3 535.6 546.9 552.2 545.4 531.1 513.1 492.5 485.2 512.6 536.3 550.2 563.5 575.3 583.5 589.6 593.1 600.1 604.3 606.6 608.2 608.8 607.7 604.1 597.1 587.7 562.4 531.1 504.4 478.8 457.7 439.6 425.2 408.3 394.9 381.4 365.5 357.5 346.7 337 332.6 325.8 319.6 313.7 306.3 299.6 291.5 284 276.9 268.4 261.7 255.7 251.7 246.4 240.5 236.5 235.4 232.1 232.5 233.5 232.8 237.3 239.9 241.2 243.3 246.5 250.2 254.1 260.1 262.9 266.5 271.2 272.7 272.8
595.8 615.5 628.3 642.8 653 662.4 675.2 689.5 699.8 714.2 730.3 739.8 745.5 746.5 744.7 742.4 738.8 735.2 731.6 728.6 724.4 719.1 714.4 710.9 707.1 702.6 698.5 694.7 689.8 686.8 681.8 677.9 672.5 667.5 657.1 641.9 635.6 626.6 615.5 609.8 599.3 584.8 573.6 572.9 578.6 585.6 592.3 596.3 600.2 602.4 604.3 606.8 608.5 610.8 611.9 614.3 617.3 619.3 623.4 628 636 643.6 648.8 652.1 652.6 653.8 653.6 652.6 649.9 644.6 638.5 630.9 622.1 615.8 608.3 604 598.1 568.2 540.2 520.7 504.6 491.3 477.9 468.6 466.2 464.9 462.8 455.9 447.3 440 431.9 425.1 416.8 404.1 399.5 392.2 383.2 375.1 365.9 358.5 353 347 341.7 336.6 333.9 326.7 328.1 320 318.2 317.2 315.5 313.3 312.5 325.9 332.8 342.2 356.1 366.9 377.7 388.6 399.1 416.5 427.7 440.9 445.2 473.9 495.6 510.3 526.9 534.7 533.3 512.6 489.5 465.2 467.8 492.9 519.5 538 552.1 565.3 576.1 584.8 590.8 597.4 602.6 605.6 607.8 608.8 609.3 606.8 602 595.7 577.9 547.4 520.6 498.4 474.3 453.8 437.1 419.6 403.5 389.9 377.5 364.1 351.1 342.8 337 331 325.5 319.3 311.9 304.4 298.1 293 282.4 274.5 268.2 262.1 257.9 252.9 248.7 242 238.8 233.5 230 227.3 228 228.1 232 233.7 234.7 237 238.8 242.1 245.9 248.3 250.9 254.8 258.1 263.2
615.4 629 639.9 649.9 656.9 666.3 678.5 692.9 702.5 716.2 730.2 741.1 747.7 750.7 750.6 747.6 744.1 740.5 736.3 732.2 728.6 724.5 720.7 716.8 712.7 708.3 703.9 700 696.5 692.7 688.3 684.3 679.8 673.7 667.4 659.5 644 634.6 625.8 618 611.3 604 591.8 585.3 577.8 565.1 576.9 587.3 592.2 595.7 597.5 599.5 602.3 604.3 607.2 608.5 611 614.4 617.1 620.6 625.9 634.7 642.8 645.1 645 648 650.6 651.4 650.7 648.2 643.9 637.3 628.5 619.8 614.7 608.3 602.6 597.4 582.7 561.4 537.8 517.9 496 475.7 472.6 470.4 467.5 459 449.9 435.7 428.6 428 421.9 419.5 410.5 406.5 400.1 390 382.3 373.4 363.6 352.9 345.6 345.2 341.6 337 333 329.7 327.3 322.1 315.9 312.8 312.4 309.7 326.5 333.6 346.7 355.5 364.6 375.6 384.3 394 406.3 414.8 429.2 447.3 465.5 482 498.1 512.6 514.7 492.6 467.2 441.9 449.7 473.2 500.1 519.7 540.1 556.8 569.8 580.2 588.5 592.6 600.8 604.9 607.6 609.1 609.8 609 606.7 601.2 594.9 569.5 542.4 516.1 493.7 470.5 451.1 432.9 416 399.7 385.1 372.3 360.8 349.8 343.3 337.1 328.3 323.9 318.8 311.8 304.2 298.7 291.5 282.1 275.9 269.5 263.7 258.2 253.5 248.8 245.6 242.8 239.1 235.4 230 223.1 225 224.5 223.4 224.6 228.1 230.6 233.3 235.2 237.8 240.9 244.8 249.1
631.5 641.8 648 653.6 660 667.9 681.2 693.3 702.4 713.1 726.6 737.3 746.9 753.9 757.3 754.9 750.8 746.8 742.7 737.9 734.7 731.1 727.4 723.2 719.5 715.8 711.3 707.5 703.7 699.7 695.7 691 685.8 680.4 675.6 668.2 660.5 648.6 635.2 626.5 617.7 612.1 607.1 601.8 593.2 582.7 565.1 569.9 581.2 587.1 590.2 592.4 595.8 598.7 602.2 604.1 605.6 608.2 612.6 615.4 618.5 623.4 629.2 636.5 638.6 640.6 644.6 646.9 647.9 646.9 644.6 639.2 632.2 625.7 617.4 612.9 606.6 600.3 595.1 589.4 571.1 548.4 523.7 497.1 485.1 481.8 472.3 464 448.9 431.7 425.4 426.8 429.1 427.4 423.9 419.6 412.6 406.9 398.2 391.2 380.9 369.7 359.8 350.4 344.1 342 338.7 335.4 331.3 326.8 322 314 312.7 308.7 321.1 326.8 336.9 343.5 353.3 363.5 370.1 376.7 385.5 388.3 410.3 424.4 438.7 448.3 467.2 480.4 487.8 473.5 447.7 424 433.9 451.4 471.6 496.8 524 544.5 561.9 575.4 584.8 590.9 597 603.1 606.2 608.6 610 610.6 609.5 606.6 600.9 591.9 561.1 538.5 515.6 490.2 466.4 447.7 429 411.2 395.4 382.7 370 357.5 348.5 340.1 333.4 328.4 323.5 318.3 311.9 305.6 299.2 292.4 286.1 278.8 273.3 265.8 260.5 256.3 252 248.4 245.2 242.8 237.9 235.8 233.1 229.4 226 219.1 219.4 218.9 221.5 224 228 230.8 235.1 237.4
641 644.5 650.1 653 658.5 665 677.2 691 697.7 705.2 718.7 731.4 745.5 758.4 764.6 762.7 758.9 754 748.5 744.4 740.8 739.3 735.9 731.9 727.2 724.1 718.6 714.5 711.1 706.9 702.6 698.3 693.4 687.3 681.5 675.6 667.4 659.3 651.8 640 629.6 621 615.6 610.2 604 597 585.2 566.3 559.4 569.2 578 584.1 587.7 592.1 596.6 598.5 601.2 603.3 605.9 609.2 612.3 614.4 619.9 623 628.3 632.4 637 639.7 641.8 642.2 641.8 638.3 634.7 627 621.5 615.2 609.6 604.4 598.6 593.7 586.2 573.5 545.6 524 501.2 491.1 473.6 455.6 449.5 437 425.3 424.2 424.4 427.3 427.8 426.9 422.5 419.3 415 406.2 396.7 385 367.4 355.3 355.4 348.2 347.7 341.6 334.5 328.1 323.6 316.4 311.1 306.3 309.5 319 328.4 334.7 341.8 349.9 355.9 362 365.2 377.4 387.6 401.8 413.8 424.5 436.8 447.4 452.1 448.1 429.3 407.3 420 433.8 452.3 478.7 508.5 533.7 552.9 566.7 581.6 589 592.8 599.1 603.8 608 610.3 612.3 611.8 611 607.4 600.5 587.2 561.6 537.3 513.5 488.2 465.3 444.5 425.7 411.5 392.9 380.9 369.1 357.4 348.3 339.9 332 327.6 323.5 319.3 313.9 307.1 301.2 295.4 288.8 283.4 276.1 271.4 268.1 262.4 257.1 253.3 249.1 244.6 240.4 238.3 233.4 232 227.7 224.1 220.6 214.8 216 217 222.5 226.2 229.8
641.8 643.8 648.7 650.5 654.2 659.3 668 681.7 689.6 699.6 711.3 726.4 743.8 761.2 768 766.4 763.6 760.3 756.6 753.5 750 746.4 743 739.4 736.4 732.5 726.7 721.4 717.5 713.5 709.4 705.1 699.8 694.9 687.6 681.2 673.9 666.8 657.8 649.7 641 631.5 621 614.3 608.1 602.9 596.5 587 573.7 557.8 554 564.6 577.4 585.7 590.1 593.5 597.1 598.9 600.4 602.3 605.3 608 609.5 615.1 618.2 621.7 625.4 629 632.2 634 635 634.6 632.4 628.7 623.5 616.9 612 608.1 602.4 596.5 592.3 583.3 571.8 547.6 524.8 505.4 485 467.6 459.6 447.7 430 426.7 425.3 422.6 421.6 423.1 424.1 423.5 420.3 415.7 407.5 394.9 379.3 370.1 357.3 358.2 354.3 348 340.6 331.6 325.3 321 312.9 307.8 307.6 306.8 316.5 325 332.3 336.6 342.5 348 352 365.5 374.8 383.7 390.8 401.2 411.5 419.4 423.6 423 413.3 390.7 403.2 418.9 438.8 463 491.1 518.8 541.9 557.9 573.1 585.1 590 595.4 602.4 607.4 610.7 613.8 613.9 613.3 612.5 608.7 603.5 588.4 560.3 537.9 513.2 487.6 463 441.5 423.3 407.2 392.3 378.1 366 356.4 347.6 341.1 334.6 327.9 325 320.1 315.8 309.6 303.3 298 292.8 286.2 282.3 278.4 275.9 272.4 268.8 264.5 256.8 248.5 243.8 240 236.7 232.7 228.4 226.5 221.3 215.9 212.7 213.8 215.6 222.7
641.5 643.2 645.7 646.2 646.3 651.3 658.3 670.1 683.9 693.1 704.8 720.1 737.1 756.6 768.5 768 766.4 763.7 761.2 758.2 755.7 752.7 749.1 747 744.2 740.3 735.1 730 726.7 722.6 718.5 712.6 706.7 701.1 694.4 686.5 678.9 671.7 662.8 654.1 645.3 636.3 627.1 618.8 610.8 604.7 599.9 594.1 589.3 582.7 568.1 552 555.3 573.5 582.6 587.4 591 594.2 596 597.4 599 600 603.2 605 606.9 609.1 613 615.9 619.2 622.7 624.2 626.6 627.2 625.5 622.5 619.6 613.8 609.7 606.3 601.4 594.7 590.6 583.8 574.5 553.5 532 510.1 495.5 482.1 470 451.7 438.1 435.6 427.7 420.2 418.9 420.1 419.1 418.6 414.4 403.5 400.2 386.8 372.9 368.4 365.7 360.9 354.7 347.3 337.7 329.3 323.2 318 309.1 306.6 303.7 301.7 314.9 320 326.7 330.3 332.8 340.6 350.2 357.9 366 374.5 380.4 387.7 393.3 396.5 396.6 393.7 371.8 392.2 408 425.3 446.1 472.6 502.9 529.1 545.5 560.4 578.6 587.8 592.4 599.3 605.7 610.2 613.7 614.6 615.4 614.7 613.6 610.3 605.7 584.1 558.7 536.5 509.9 484.2 460.2 439 422.2 406.5 390.5 378.5 367.1 360 349 342.8 333.7 329.6 325.8 321.1 316.8 310.9 306.2 300.7 296.1 290.3 288.7 284.4 282.8 280.9 279.2 271.9 260.4 253.3 245.9 241.3 237.1 232.8 227.4 227.1 223.3 217.5 210.6 211.6 210.6
639.7 635.1 635.4 632.7 637.5 641.2 648.8 660.1 676.6 688.1 697.8 711.7 725.9 743.9 762.6 766.6 765.8 765.4 763 760.9 758.5 756.3 754.2 752.5 749.9 746.9 742.7 737.9 735.2 731.2 725.9 720.6 714.5 707.4 699.8 692.6 683.8 675.7 666.8 656.9 648.3 639.9 629.3 621.1 613.4 605.9 600 595.4 590.7 586 581 572.6 552.3 543.8 569.2 580.1 584.5 588.2 590.9 592.7 594.1 594.9 595.5 597.6 599.4 601.4 602.6 605.2 606.9 609.3 613.1 615.9 616.1 616 617.6 618.4 615.5 611.5 607.7 604.1 598.7 593.3 590.1 583.8 575.8 562.5 548.6 532.9 519.5 509.6 484.6 464.8 455 441.5 432.4 424 420.9 418.2 418.2 417 416.2 403.4 390.8 383 377.8 372.8 368.2 362.1 354.3 347.2 338.2 330.2 325 319 310.1 304.5 301.9 305.3 308.9 316.9 320.2 321.6 328.5 334 340.9 348.3 357.5 364.2 371.3 376 379 379.9 375.8 364.9 382.2 396.8 414 431.2 451.5 480.4 505.8 529.6 548.3 567.9 584.1 591.3 597.2 603.1 609 613 614.5 616 616.6 616.1 613.5 610.4 605.7 582 554.5 529.9 505.3 479.7 456.4 437.8 420.3 403.5 388.7 381.9 371 358.8 350.4 340.6 335.7 330.3 326.9 322.1 317.3 313.3 307.8 303.7 300.1 296.5 293 290.3 288.5 284.4 278.4 270.3 260.5 252.5 246.2 241.6 238 234.3 230.5 227.6 222.7 219.8 209.1 208.9
625.6 620.9 617.4 617.4 617.4 623.8 638 653.2 670 681.2 690.5 703 716.1 731 746.7 763.3 766.5 767.1 765.2 762.7 760 758.5 757.9 757.9 755.1 753.1 751.4 746.1 744.2 741 735.8 729.3 722.6 714.8 706.6 697.2 688 679.5 669.9 660.4 650.6 641.2 632.7 622 614.4 606.9 599.8 593.9 589.4 584.9 580 575.8 565.6 543.8 552.3 572.3 578.5 581.8 584.8 587.2 589.1 590.5 590.1 591.2 592.1 593.8 594.6 595.1 598.2 600.1 601.6 603.3 604.2 605.5 607.5 610.9 615.2 614 610.5 606.6 602.1 598 592.1 588.7 582.6 577.5 572.5 566.2 557.5 546 529.7 505.5 480.8 461.8 451.3 438.9 428.8 422.1 420.8 420.4 418.9 410.7 398.1 390.4 384.8 378.5 373.6 368.8 362.8 354.1 347.3 339.1 331 324.7 316.9 308 303.3 302.9 302.7 308 312.7 315.6 317.4 320 326.3 332.2 337.9 346.5 352.2 358.8 360.4 362 354.5 362.8 373.3 386.8 400.8 417.4 435.7 458.4 483.7 511.7 534.9 554.2 574.2 587.5 592.9 599.2 607.1 611.2 613.7 615 616.1 616.2 614.5 612.5 609.8 603.7 576.1 549 525.6 501.5 475.8 453.2 435.1 417.6 405.9 393 382.8 372.1 358.4 350.8 343.6 337.1 331.4 327.9 322.9 319.3 314.2 309.8 307.5 303 299.6 297.2 293.8 288.7 284.7 277.8 269 259.2 252.6 247.7 243 239.4 235.8 232.3 227.1 222.9 220.2 211
