ncols 200
nrows 83
xllcorner 320000
yllcorner 361350
cellsize 50
206.8 207.7 203.9 202.9 201.3 200.1 196.3 190.1 193.6 192.4 190.7 187.8 185.5 184.5 182.6 179.8 174.4 169.9 164.3 160 151.2 140.6 128.9 118.2 118.9 117.8 117 124.4 131.5 135.4 138.4 138.2 134.7 129.8 126.6 124.7 121.7 119.9 118.7 118.3 117.2 116 115.4 114.5 113.3 112.8 113.2 114.7 115.1 115.3 116.6 118.2 120.2 122.4 122.3 123.7 127.7 133.9 138.4 140.3 139.5 139.9 141.5 133.7 123.8 119.5 115.8 111.3 108.5 114.6 131.1 144.9 157.5 161.6 163.4 161.8 147.8 140 139.1 147.4 147.6 145.9 143.4 139.9 133.7 128.4 129.6 133.5 137 139.1 144.3 147.7 149.4 150.1 149.9 148.6 148.4 149.3 148.2 148.4 146.9 146.5 144.4 143.2 142 142.1 141.8 143.5 142.3 142.9 142.3 142.8 141.7 140.5 141.3 141.2 141.8 138.9 138 138 137.8 138.1 137.1 136 135.4 134 132.2 131.1 129.5 127.6 126.6 126.4 125.8 123.8 120.6 124.9 126.6 127.1 127.2 126.3 126.4 126.9 126.9 126.9 127.3 127.9 130.6 131.7 135 138.8 142.5 144.7 144.6 142.7 140.8 141.3 145.7 143.9 143.6 142.4 140.3 135.1 131.4 128.4 128.9 132.2 134.2 134.8 134.5 133.9 134.2 133 130.4 126.6 124.8 122.9 121.5 119.6 117 114.3 113.4 110.4 106.1 103.5 102.8 102.5 99.5 99 100.2 100.4 101.2 101.1 100.4 100.3 96.9 94.6 93 90.9 88.9 89.3
206.4 205.7 205.6 201.8 198.5 197.2 195.6 196.6 196.8 197 195.1 192.2 189.2 188.7 186.8 183.1 178.6 173.9 168.9 164.8 159.3 147.9 136.5 126.9 119.8 118.8 114.6 116.4 119.2 126.1 125.5 127.8 123.4 120.9 118.2 117.2 115.8 114.9 113.7 114 114 113.6 114 112.8 111.6 110.6 112 112.8 112.6 112.3 113.5 114.8 116.6 119 119.3 118.2 121.9 128.5 132.6 135.6 135.5 135.3 138.7 132.8 124.5 119 115.1 110.8 108.1 113.6 126.7 135.8 146.2 156.3 157.5 153.7 147.4 140.9 138.5 145.4 146.1 144.1 144.1 142.4 138.5 131.2 126.3 128.6 133.9 139.7 145.1 145.8 147 146.4 145 144.4 144.9 145.9 144.9 144.8 144.8 143.6 144 144.3 143.2 143.2 145.3 145.4 143.6 142.7 142 141.6 141.9 141.2 140.5 140.3 139.9 138.8 138.6 138.5 138.4 138.5 137.4 136.3 135.1 133.6 132.2 130.7 129.4 128.4 127.5 126.6 125.7 122.3 124.3 125.1 126.5 127.2 127.8 126.5 126.7 127.6 127.4 127.9 129 130.1 129.3 130.9 134 138.7 143.3 144.2 144.2 143.2 141.5 143.4 144.7 145.4 145.7 145.2 143 139.8 134.9 133.8 133.3 134 135 135.3 135.9 136.5 137.5 136 130.8 128.2 129 126.9 124 121.6 117.8 115.7 114.2 111.1 106.4 105.7 104.3 103 101.6 102.3 102.3 102.6 103.4 101 102 101.2 99.1 96.3 93.6 91.9 90.9 90.3
206.2 204.8 202.3 200.5 199.4 197.8 198 201.3 202.2 200.8 198.3 195.9 193.4 191.4 188.2 184.8 180.6 176.3 172.7 168.8 164.5 155.4 143.5 132.5 127.3 122.3 114.8 116.3 114.9 115.5 115.7 115.6 115.1 115.5 113.9 114.1 113.4 113.1 112 111.8 111.9 112.3 112.4 111.2 110.8 110.4 110.2 110.4 110.3 110.3 110.1 111.4 112.2 113.7 114.5 114.2 117.2 123.4 124.8 128.4 129.4 132.9 138.4 135.6 125.5 118.6 114.6 111.7 108.8 114.4 124.8 130.9 137.6 149.7 154.1 148.4 145.3 142.8 138.9 143.3 144.6 143.4 144.4 143.5 140.5 133.9 126.7 127.7 132.1 138.3 143.6 143.6 143 142.2 141.7 141.2 141.6 142.5 142.2 144.2 143.9 145.1 147.3 145.7 146.1 147.1 147.3 147.6 146.7 145 143.2 143.1 143 142.4 141.8 141.2 140 139.5 139.4 139.3 139.3 139 138 136.8 135.6 134 133.3 131 130.9 129.9 128.8 128 126.7 125.2 125.9 125.9 126.5 127.3 128.7 127.8 127.6 128.1 129.4 130.1 131.3 131.3 130.4 131 134.9 138.8 142.8 145.6 145.1 145.1 145.3 145.5 145.5 145.5 147.4 146.5 145.5 142.9 138.8 135.8 135.8 136.6 135.9 136.1 136.7 138.9 139.8 139.1 136 127.9 128.7 129.4 127.5 124.7 120.2 117.7 115.3 111.1 106.7 107.6 106 105 104.2 106 105.2 105.3 103.9 104.1 102.7 101.3 99.2 97.8 97.1 93.7 91.6 91.5
205.9 203.6 203.7 204.6 204.5 203.4 200.8 202.1 205.1 203.6 204.3 199.5 197.3 193.1 189.4 186.1 182.2 177.7 175.4 171.5 167.2 162.1 152.8 140.1 142 132.2 118.1 114.7 114.6 114.7 115.6 114 113.5 113.5 113.6 112.9 113.1 112.5 112.6 111.4 111.4 111.3 111.2 111.2 111.1 110.9 110.8 110.5 110 109.9 110 109.5 109.8 109.4 109.1 110.4 111.8 114.6 116.3 118.3 122.2 127 135.2 133.9 127.5 119 112.8 109.9 108.4 114.4 122 127.4 133.9 141.9 149.9 145.2 140.2 140.6 140 140.7 142.2 142.1 142.9 142.2 140.3 134.8 127.8 125.7 131.5 136.2 139.5 139.9 138.8 138.9 139.6 141 141.5 142.2 142.3 146.5 148.3 149 149.3 148.9 149.2 147.7 147.3 147.9 146.4 146.8 146.2 144.9 143.2 142 142.4 141.2 141 140.2 140.2 140.1 140.1 139.6 138.5 137.3 136.1 134.3 132.8 132.5 132 130.8 129.4 129.5 127 127.1 127.5 127.5 127.7 127.7 129.5 129 128.7 129.1 130.5 131.8 131.7 132.3 131.7 132.2 134.6 138.6 142.7 145.9 146 145.8 145.8 145.6 145.7 145.8 147.3 147.9 147.2 144.9 141.1 138.9 137 136.5 136.7 137.1 140.3 142.8 143.1 142.2 140.7 139.2 137.4 131.8 128.7 125.8 122.7 118.8 114.2 110.2 109.7 109.5 108.3 107.2 107.9 109.1 108.2 107.7 106.2 105.7 104.4 103.5 101.3 98.8 96.7 94.3 93.4 94.7
205.6 205.3 205.2 206.7 208.2 208.2 206.3 202.3 203.9 206.9 208.4 202.5 200 195.2 190.5 185.6 182.4 179.4 176.4 172.1 167.9 163.2 155.7 151.9 150.7 146 130.3 118 115 114.1 114.7 113.3 113 112.4 112.5 113.1 112 112.2 112.4 111.5 111.2 112.2 112.2 112.1 111.3 111.2 111.1 110.7 109.7 109.6 109.7 109.6 109.5 109.4 109.1 108.6 108.2 109.1 111.1 112 114.9 118.3 123.5 126.5 126.3 119.3 113.2 110.1 106.8 112.3 120.2 123.5 129.9 135.2 138.6 136.1 137 139.3 138.6 138.5 137 138.4 140.2 142.6 141.2 138 130.4 126.2 131.4 132.3 133.8 133.9 136.1 139 142.1 143.6 142 141.5 143.6 147.1 148.5 149.7 150.2 151.1 151.2 150.4 148.4 148.3 147.4 147.5 146.1 144.5 144.8 143.5 142.6 142.6 142.2 141.1 140.8 140.8 140.6 140.1 139 137.8 136.6 135 134.5 134 133 132.6 130.2 129.5 128.5 128.4 128.2 128.3 128.7 129.1 129.3 130 130 130.1 131.4 132.7 133.4 132.5 132.9 133.4 134.3 138.3 142 145.4 146 146.8 146.5 145.9 145.8 145.9 147.7 147.1 146.2 146.1 143.6 140 137.3 134.2 137 137.5 141.8 144.3 146.2 145.5 143.4 141.6 138.6 133.6 129.9 126.1 121.3 117.5 113 111.1 111.1 111.5 111.7 111.7 109.4 112.8 110.2 111.5 107.8 106.8 104.7 103.3 102 100.6 96.9 96.6 96.3 97.4
205.2 209.3 208.9 208.6 210.2 210.9 208.2 205.2 208.2 211.4 212.1 207.5 202.7 197.5 191.2 185.1 181.9 179 175.5 171.8 167.9 163.8 162.5 161.2 161.6 159.7 149.9 133.9 122.1 115.3 115.2 114.2 114.6 116.2 116.2 115.8 115.5 114 113.5 112.8 113.4 115 114.1 112.1 111.1 111.1 111.3 110.9 110.4 109.3 109.4 109.5 109.4 109.2 109 108.1 108.4 108.1 110.9 107.9 108.6 109.8 112.8 115.7 117.3 115.9 113.1 109.5 106.3 110.4 117.3 118.9 122.3 126.6 128.9 130 131.2 132.3 131.9 132.6 132.1 134.6 135.9 137.4 137.3 138.6 129.7 123.3 126.9 128.2 128.2 134.1 137.5 140.1 143.2 143.6 140.3 139.7 142.9 145.9 147.4 149.1 150.3 150.9 151.9 150.2 149.3 149.7 148.6 148.4 147.9 147.3 147 145.6 143.3 144.2 143.5 142.2 141.2 140.8 140.4 140.6 139.4 138.3 136.6 136.8 135.7 135 134.5 133.6 131.9 130.7 129.4 128.8 128.7 128.6 128.9 129.4 129.2 130.4 130.2 130.9 132.2 133.5 133.6 134.2 134.6 134.8 135.5 137.3 140.7 143.4 146.1 146.9 146.6 146.5 146.7 146.3 147.6 146.1 145.9 146 144.1 139.8 137.2 137 136.9 138.4 142.5 145.4 147.5 148.7 148.1 144.4 139.6 133.6 129.4 124.8 119.1 115.4 123.3 126.3 119.4 114.6 115.1 115.1 109.8 114.7 113.8 113.5 109.6 108.5 106.7 104.8 103.8 101.6 99 98.7 98.7 99
206.3 209 211.2 211.5 211.4 210.6 210.3 209.2 211.5 213.1 212.6 209.8 204.2 198.3 191 184.9 181.7 179.2 177.6 175.3 170.5 165.9 163.7 162.2 162.5 161.3 156.2 151.8 140.3 126.9 122.4 119.9 122.2 124 123.2 122.6 122.9 123.2 122 122.9 123 123.8 122.9 117.8 114.7 114 112.1 111.1 110.6 109.1 109.3 109.5 109.4 109.8 109.3 108.5 108.4 108.2 109.6 110.2 112.8 108 107.3 108.5 110.3 109.9 110.6 108 105.8 108.4 113.6 117.1 117.9 121.4 124 124.6 125.6 126.7 128.5 128.1 127.5 129.2 131.1 132.9 135.7 137.6 132 122.2 123.8 125.8 130.3 134.3 138.2 139.4 139.3 138.5 138.4 139.1 141.1 143.6 146.3 148.2 150.1 150 151.4 150 150.2 149.6 149.6 150.9 150.2 150.1 149.4 148.2 146.6 145.4 143.9 142.7 142.5 142.2 141.3 141 139.8 138.7 137.6 137.1 136.6 135.9 135.3 134.4 132.9 131.5 130.2 129.3 129.2 129.1 129.2 129.3 130.2 130.7 131.2 132.3 132.9 134.2 135.1 135.7 136.3 136.7 137.8 139.7 141 142.9 143.9 146 145.7 145.7 146.2 146.8 146.8 147.2 144.9 143.7 143.7 139.6 138.4 138.8 138.8 140.6 144 145.8 149.7 151.9 150.2 146 142.9 133.5 128.5 123.4 120.8 127 131 132.8 129.5 124.3 118.9 119.9 120.3 111 116.5 113.7 111.3 110.3 108.1 106.2 104.6 102.8 101.1 103.6 100.2 101.3
206.9 207.7 210.9 212.7 211.6 210.9 211.9 211.4 212.1 213 213.9 209.7 202.4 195.7 189.9 185.8 184.1 181.4 178.7 178 170.3 167.1 164.6 162.6 162.9 162.8 160.9 156.1 155.6 140.7 139.1 137 136 134.1 131.7 130.8 131.8 138.4 138.1 135.1 134.1 133 132.2 127.9 122.5 119.2 116.7 114.3 113 112.1 111.1 110.2 109.9 110.1 109.5 108.9 108.4 108.4 108.4 109.4 107.7 108.3 107.6 106.8 106.5 106.8 106.2 106.1 106.6 106.8 107.8 111.2 114.3 117.9 119.7 120.3 121.8 122.9 125.9 126.5 125.5 125.9 127.8 129.5 130.6 132.6 129.1 121 121.6 126.9 129.5 131 133.4 133.1 133 135.4 141 142.5 143 141 143.7 145.1 146.9 147.5 148.3 147.9 148.1 148.9 150.1 150.3 151.1 151.2 151.3 146.4 148.5 146.4 144.5 143.9 143.4 143.5 142.3 141.6 140.3 139.3 138.6 137.9 137.5 136.8 136.6 135 132.9 131.4 130.2 130.3 129.9 129.7 129.8 129.9 130.4 131 131.5 132.2 133.1 134.4 135.7 136.7 137.4 138.4 139.2 141 142.3 144.2 144.5 145.6 145.9 146.4 145.2 145.5 147.1 147.6 145 142.6 143.5 143.1 141.4 140.8 139.9 140.4 143.8 145.7 150.3 153.8 150.5 146.2 145.6 133.9 125.5 126 130.4 134.7 139.7 140.7 135.7 129.9 124.3 124 124.8 123.3 112.3 113.3 112.1 111.4 110.5 108.5 105.9 101.1 104.2 103.7 103.4 103.2
206.8 207.7 209.6 210.9 210.8 212.9 212.9 211.9 214.3 212.8 211.6 208.3 202.3 196.2 191.7 190.2 189.2 182.8 179.1 178.4 174.4 167.2 164.9 163.4 161.9 162.5 162.5 159.9 159.4 152.3 155.9 155.5 155.2 151 150.2 147 146.9 143.3 142 140.5 140.9 140.6 140.4 140.5 134.3 127.9 123.6 118.1 114.9 113.3 112.4 111.5 110.7 110.3 109.9 110.8 111.6 109.6 108.7 109 110 110.7 108.7 107.7 107 107.3 106.5 106.3 106.7 106 105.3 105.3 108.5 111.7 115.2 116.7 118.7 120.8 123 124.3 123.4 122.8 123.6 125.1 126.3 129.6 127.1 119.8 119.5 122.3 124.6 126.7 127.5 131.9 135.4 139.3 144.3 146.7 146.2 144.8 143.3 144 145.7 146.6 147.2 148.1 149.2 149.9 149.9 151 150.9 151 146.8 151.3 150.6 148 147.3 146.1 145.1 144.3 143.4 142.1 141.4 140.8 139.9 139.1 138.3 137.9 137.1 135.3 134 133.1 131.8 131.4 131 130.9 131.4 130.8 130.7 130.9 131.5 132.3 133.5 134.9 136.1 137.2 138.4 139.7 141.1 142.9 144.4 145.6 146.3 146.9 146.8 146.8 147.4 148.4 149 148.3 145.7 144.3 145.4 146.2 144.5 141.5 140.6 140.6 143 145.6 152 155.3 152.9 146.2 145.9 142.4 131.5 135.6 140.8 146.3 150.2 149.8 143.5 134.2 128.6 128.7 127.7 125.8 122.5 113.3 112.6 111.4 110.2 107.9 103.9 105.6 106.5 106.1 104.6 105.7
206.7 206.9 208.3 208.9 211.1 212.7 212.8 213 212.7 211.4 210.1 209.9 206.3 203.8 202 197.5 192.5 188.8 182.9 178.5 173.4 169 165.6 163.7 162.8 162.8 162.6 161.7 159.8 157.5 156.6 156.3 156.8 155.8 155.2 153.3 151.8 146.3 143.3 142.5 141.6 141.6 140.5 141.9 142 140.8 136.7 126.2 120.7 117.9 117 115.9 115 112.5 111.8 112.5 112.1 111.8 112.2 112.3 110.9 112 112 108.2 106.7 107 106.8 106.4 106.3 105.6 105.3 105.3 105.1 104.8 106.9 110.2 113.8 115.8 120.9 122.1 121.3 121.6 122.9 123.1 123 124.4 122.4 118.6 118.8 120.7 121.8 124.7 129 133.7 137.8 143.7 147.5 148.3 148.3 147.5 146.1 145.1 146.4 147 147.5 149 150.2 150.9 151.1 151.5 151.2 146.4 152.2 152.5 152.3 151.2 150 148.7 147.7 147 146.4 144.2 143.2 142.4 141.6 141 140.3 138.7 137.4 136.4 135.5 134.6 133.6 132.9 133.6 132.7 132.7 132.2 131.7 131.6 132 132.8 134.8 136.5 137.4 138.6 140.1 142.1 143.1 144.2 145.4 147 147.9 147.6 147.3 147.8 146.1 149.3 150.2 149.9 147.2 146.7 147.4 149.3 146.9 143.4 142.7 143.8 145.1 145.9 153.1 156.4 154.8 150.2 147.8 144.7 142.9 142.6 142.7 144.2 153.1 153.7 149 139.8 131.8 130.9 127.9 127.1 122.8 119.1 114.4 114.1 111.5 110 105.7 109.6 109.2 107.3 106.1 107.2
205.8 205.7 206.7 208.1 211.3 213.4 215.5 215.8 213.7 212.9 213 210.7 210.7 211.3 209.8 202.9 197.3 191 185.1 180.4 175.4 170.9 167.5 164.8 164.3 162.9 163.2 161.2 160.3 158.3 157 157.6 158.3 157.1 155.7 155.2 153.4 149.7 144.1 143.2 141.9 141.5 139.9 139.7 142 141.8 140.5 132.2 124.9 123.3 122.9 122.7 121.4 116.9 112.2 111.3 111.8 111.7 111.4 111.5 111.8 111.9 112.3 111.9 109 108.4 107.5 106.1 105.8 106.1 105.4 105.8 105.1 104.8 104.7 104.7 107.3 111.3 117.9 119.3 120.1 120.5 120.8 120.8 120.2 118.7 116 122.3 120.9 119.7 121.1 124.8 129.7 134.4 138.1 142.6 147.3 149.5 149.4 148 148.1 145.2 145.5 146.6 148.6 149 151.1 151.5 152 148.5 147.1 153.2 153.7 154.1 153.7 153.2 152 151.1 150.4 149.6 148.8 147.3 145.4 144.8 144.2 143.5 141.7 140.3 139 137.9 137 136.1 135.4 134.8 134.5 134.6 133.9 133.4 133 132.6 133 135.2 135.5 137.7 139.4 140 141.7 142.1 142.9 144.3 146.8 148.2 149.4 148.3 148 149.2 146.1 146.1 146.1 150.5 149 147.3 148.3 150.2 149.6 146 144.5 144.6 145.6 146.3 151.7 158.2 158.1 153.8 149.3 144.2 143.4 143.1 142.4 141.6 143.7 150.6 147.1 138.9 130.9 131.4 127.6 127.3 124.2 120.1 117.1 114.9 113.3 112.8 110.5 111.6 110.6 108.8 107.9 108.2
206.6 207.5 210 209.8 213.3 216.1 219.8 221.6 216.5 213.2 216.3 213.8 212.4 212.4 211.6 209.1 202.5 195.9 190.6 185.7 178.9 173.6 169.6 166.2 163.3 162.9 163.2 161.2 160.9 158.4 157.8 157.2 157.6 157.2 155.6 155.2 153.8 152.5 150 145.6 143.6 141.2 140.2 139.8 140.4 141.3 138.4 131.3 126.3 123.3 123.4 123.4 123.1 121.4 114.7 110.9 111.5 112 111.8 111.2 111.7 112 111.6 111.3 110.4 109.2 107.8 107.4 106.7 106.1 106.2 105.9 105.1 104.7 104.3 104 105.3 105.9 111.2 116 118.1 118.7 119.1 118.2 116 114.2 122.1 126.8 129.4 126.6 123.6 124.3 126.6 131.5 136.8 142.4 146.4 147.2 148 147.1 146.2 145.8 145.4 147.5 147.3 149.7 151.1 151 145 148.3 153.6 154.4 155.2 155.4 155 154.7 154.7 154.5 154 152.7 151.3 149.9 148.8 147.3 146.7 145.1 143.4 142 140.6 140.2 138.5 137.4 136.6 136.7 135.6 135.7 135.2 134.2 133.8 134.9 134.2 135.8 137.1 138.9 141.1 141.9 142.2 143.6 144.5 145.9 147.6 150.1 150.1 149.7 148.7 149.9 152.6 146.1 146.1 152.2 151.5 150.8 152.7 150 151 148.8 146.6 145.7 146.3 147.4 150.6 157.8 159.2 157.2 151.8 145 144.5 143 143.6 142.9 142 142.4 141.7 137 131.5 130.7 128.7 126.2 123.8 121.8 118.5 117.4 115.4 113.4 112.4 113.1 111.9 110.7 110.3 109.3
209.1 209 210.6 213.7 218 220.7 224.1 225.6 224.6 219.9 217.7 216.7 214.7 213.6 212.4 211.6 207 201.6 196.5 190.7 184.9 180.4 175.6 170.4 165.4 163 161.5 160.6 160.4 159.2 157 157.9 157.7 157.2 155.6 154.8 153.7 153.3 153.3 151.4 149.1 142.6 140.4 139.7 139.1 140 138.3 129.7 125.7 123.5 123.5 123.2 123.2 122.9 119.2 112.3 111 110.2 110.1 110.2 110.1 111 110.7 110 109.2 108.4 107.8 107.5 107.1 107.8 107.6 107.9 106.1 104.9 104.5 104.9 103.6 104.1 105.4 109.6 115.7 116.9 116.8 115.2 112.1 116.5 120.3 126.8 133.4 131.3 129.2 126.2 122.2 127.4 134.5 139.5 143.1 144.9 146 146 145.5 145.5 145 146.8 147 148.3 149.2 143.5 149.2 152.2 153.6 155.6 156.6 157 157.6 158.1 161.8 163.1 161.6 158.3 156.2 153.9 151.8 150.1 149.1 146.4 145 143.6 142.4 141.9 140.1 138.7 137.8 138.4 138.1 136.7 135.8 135.9 136 135.2 135.2 137 138.9 140.4 142.1 143.2 143.2 144.3 146.1 147.2 148.1 150.4 151.7 150.8 150.5 151 153.7 146.1 146.1 152.2 151.7 151.8 153.1 152.2 152.7 151.5 150 148.7 148 149.4 151.5 156.8 158.3 157.3 153.1 149.2 144.8 144.8 143.3 143.1 142.4 140.6 138.4 135.5 131.4 129.8 128.6 125.7 125.3 123.7 120.3 119 117.3 116.8 113.9 113.8 114.3 112.7 111.2 109.6
213.3 214 216.6 219.9 222.6 226.8 228.6 230.7 230 226.3 221.7 219.1 218.1 215.5 211.3 215.2 210.5 205.2 200.8 195.5 191.6 186.5 180.6 174.3 168.7 164.8 162.4 160.7 158.6 157.5 155.7 157.1 158 154.2 151.1 152.3 152.8 153.2 153.2 152.8 150.1 142.6 140.7 139.8 138.8 138.8 136.1 127.7 125.2 123.6 123.3 123 123 123 120 113 111.4 110.5 109.9 109.8 109.7 109.8 109.5 109.1 108.9 108.6 109.2 108.1 107.6 107.2 107.8 108.1 106.9 105.7 104.8 104.7 104.3 104.5 104.4 105.1 108.4 114.3 114.9 112.1 112.6 115.9 119.1 122.8 128 128.9 127.7 125.6 121.5 123.2 130.9 136.4 139.4 142.2 143.1 143.2 143.2 142.9 143.7 145.5 145.6 147.2 142.3 150.2 150 151.6 153.1 156.4 158.2 159.4 160 162.1 166.6 167.3 167.3 164.1 160.2 157.8 155.5 153 149.8 148.3 146.9 145 144.1 143.1 141.9 140.3 138.8 139.5 138.3 138.5 137.3 137.6 137.6 137.3 136 137.5 140 141.2 142.5 144.3 144.4 145.4 147.1 148.1 148.9 151.6 151.6 151.1 150.4 151.6 153.7 154.8 151.1 152.4 152.9 152 153.2 152.2 153.8 154 152.2 152.1 151.3 152.7 153.4 155.7 156.7 155.1 152.7 148.9 146.2 144.7 143.6 142.8 142.5 139.4 137.5 137.1 132.9 129.4 126.4 124.5 125.7 123.2 121 118.7 118.8 118.2 117.4 116.2 112.7 115.3 111.3 108.9
224 221 221.7 227.3 228.6 229.9 231.7 234 233.8 229.5 224.4 221.7 220.3 213.1 217.1 219.3 213.3 207.7 202.3 199.4 194.3 189 183.3 176.8 171.5 167.3 164.6 162.8 160.3 157.3 155.3 153 156.4 151 151 151.3 150 148.6 148.5 147.5 145.1 141.3 140.7 138.7 137.1 134.6 131.5 125.7 123.8 123.4 123.1 122.8 122.8 121.6 118.6 113.8 112.9 111.5 110.9 110.3 110.3 110.2 109.6 109.9 109.7 110.3 110.2 111 110.7 109.9 105.2 107.1 106.7 105.8 105.3 105.3 104.6 104.6 104.2 104.2 104.8 110 112 109 111.7 114.9 116.7 119.1 122.6 124.7 124.3 125.3 122.1 121.5 128 134.4 137.2 139.6 141.4 141.4 141.4 141.1 142.1 143.7 143.2 141.2 148 149.2 150 151 153.6 156.3 157.9 160.8 162 162.8 167.4 164.5 171 167.8 165.2 161.5 158.1 155.6 152.4 149.5 149.2 146.5 145.4 145.1 143.2 142.3 140.8 141.1 140.7 140 138.8 139.2 139.1 139.2 137.4 137.8 140 140.4 143.3 144.5 146 147 147.8 148.6 149.2 151 151.9 152.1 151.9 151.3 153.4 154.2 154.8 153.7 153.5 153.3 153.4 152.8 153.8 156.5 155.2 155.9 154.1 154.4 155.6 157 156 153.2 152.7 151.3 150.2 145.1 143.9 144 140.3 137.9 136.9 134.3 132.1 129 126.9 126.6 126.4 123.9 121.8 119.4 119.4 118.8 118.4 117.8 117 112.3 112 108.9
232.3 227.7 227.7 232.2 232.3 231.3 233.9 234.3 232.8 228.6 225.5 223.3 218.3 216.6 220.5 219.3 213.6 207.1 200.8 199.2 195 189.6 184.9 178.2 173.3 169.4 167 165.1 161.4 159.5 156.6 151.8 150.6 150.7 150.5 150.6 149.5 148 146.2 143.4 141.3 140.4 139.9 139.6 138.9 132 127 124.8 123.6 123.4 122.8 122.6 121.5 119.9 117.1 116 115.3 115.5 114.3 112.6 111.4 110.9 110.3 112.6 112.5 111.5 111.5 110.8 110.3 108.4 105.9 106.8 106.2 105.9 106.1 108 105.7 104 104.6 104.3 104 105.6 107.7 106.8 111.2 113.7 115.3 116.7 118.7 119.2 120.2 122.4 121.7 119.1 123.4 131 135.2 137.4 138.4 139.7 139.5 138.5 141 139.6 143 145.9 146.3 147.7 148.9 150.5 152.9 155.9 157.4 160 161.3 162.5 164.4 167.7 168.2 170 166.5 163.4 159.8 155.9 154.3 151.6 151.7 150.2 147.8 146.6 144.3 143.6 143.2 142.5 142.4 141.5 140.2 140.7 140.1 139.5 139.8 139.4 138.5 141 143.1 144.5 146.8 147.1 148.7 149.1 149.5 151.3 151.8 152.1 152 152.3 153.2 154.1 154.7 155.4 155.3 154 154 154.5 154.6 158 157.3 157.8 159.1 155.4 157 155.1 154.1 149.5 154.7 153.8 152.9 148.3 145.2 143.3 141.1 138.7 136.6 134.9 133.1 130.9 128.7 128.5 127.7 125.2 124.1 121.1 119.9 119.3 118.8 118.7 117.7 115.9 111.3 112.3
236.3 234.3 231.6 234.7 234.2 233.3 232.7 231.3 229.6 225.8 224.5 221.2 214.6 214.8 217.5 216.3 209.5 204.5 200.7 200.2 195.3 190.5 185.9 181.1 175.8 171.4 170.6 167.1 164.9 161.2 158.3 152.4 147.3 149.6 150.1 150 149.1 147.7 144.9 141.4 139.3 140.9 140 139.8 139.9 134.1 126.1 123.8 123.4 123.4 122.8 121.4 120.2 120.5 119.3 118.3 117.6 118.1 117.4 115.8 113.9 114.9 111.3 111.2 112.4 112.2 112.2 111.4 111.1 109.3 107.3 106.5 106 105.8 105.9 105.7 106 105.7 104.7 104.5 103.9 103.7 105.1 105.9 113.1 112.5 115 116.3 116.6 119.3 119 118.6 118.4 117.1 121.8 129.8 133.2 135.7 136.3 136.8 136.1 135.4 137.1 141.1 143.2 145.1 144.5 146.3 147.5 148.9 151.5 153.7 156.5 158.9 160.4 161.5 162 166.1 170.8 169.5 166.1 164.3 162.2 160 156.1 156 154.1 152.8 150.5 148.1 146.8 146.2 145.3 145 144 142.7 141.4 142.2 142.1 142.1 142.7 140.8 139.1 138.5 142.9 145 145.2 146.7 147.4 147.3 150 151.6 152.2 151.9 151.7 152.3 152.8 154.7 155.3 155 155.5 154.8 154.7 155.3 157 158.3 158.5 159.5 159.3 156.7 158.2 155.1 152.4 149.5 156.4 156.9 154.2 150.1 146.6 144.8 142.4 140.7 138.8 134.8 132.4 132.6 132 132.1 127 125.2 125.1 124.2 121.1 120.2 119.6 120.1 118.7 117.3 115.8 110.9
238.2 239.1 235.3 235.8 235.2 231.4 231.5 228.6 225.9 224.2 220.4 217 215.1 214.8 213.7 212.3 209.8 206.1 203 200.2 197.2 193.1 187.8 182.5 177.6 174.6 174.2 171.3 167.9 163.3 158.9 150.8 145.7 147 149.7 149.3 148.4 147.3 143.6 139.8 139.2 141.1 141.1 140.6 139.4 130.4 125.1 123.5 121.8 123.3 120.9 119.4 119.9 120.3 120.1 120.6 119.9 120.6 120.2 119.2 117.8 116.9 111.9 111.4 111.5 111.6 112.2 112.8 112.7 111.4 109.1 106.6 105.9 105.8 106.2 105.4 104.9 104.3 105.9 104 103.8 103.7 104.8 106.1 111 112.2 113.8 114.4 116.5 115.9 116.1 116.2 115.6 115.4 122 128.1 132 134.1 134.6 134 132.7 134.6 136.8 139.7 141.5 141.9 143.5 144.9 146.6 148.8 150.9 152 154.5 156.3 158.2 160.6 160.2 164.1 166.8 166.4 166.1 163.7 163 161.3 159 157.7 154.9 154.3 151.9 149.4 148.6 148.1 147.4 146.7 145.1 144.4 143.7 143.3 143.5 143.7 143.2 142.3 140.1 139.4 140.7 143.6 144 144.3 146.2 147.4 149.3 151.1 151.7 151.6 151.5 151.7 152.6 153.5 154.5 156.1 156.2 156.2 156.2 155.7 156.6 157.4 158.2 159.5 159 157.2 158 157 152.2 149.5 155.1 159 156.1 151.5 146.7 144.2 142.5 143.6 141.6 135.5 133.9 134 132.5 130.2 126.2 125.2 122.6 123.7 121.9 121.6 122 119.8 119.6 118.1 116.9 115.2
239 241.2 240.2 240.3 234.9 228.3 226.8 224.4 223.3 220.2 217.3 216 214 213.2 213.2 212.6 211 209.6 205.7 202 197.6 192.8 186.8 182.5 178.7 177.6 178.1 175.2 170 164.1 153.3 148.8 145.2 144.7 147.6 149.7 149 147.9 142.9 137.9 139.9 139.9 138.4 140.1 137.7 127.6 124.5 122.9 121.3 120.1 119.2 119 119.9 119.8 119.4 119.6 120.8 120.5 121.5 120.4 120.3 119.6 114.9 111.6 112.8 112.2 111.8 112.3 112.1 111.8 111.3 108.1 106 105.4 106.3 106 105.2 104.3 104.2 106.3 104.9 103.7 104.9 104.8 108.6 109.4 112 113.6 114.3 114.7 114.2 114.8 115.7 116.9 121.5 127 130.6 132.2 132 130 133.1 132.2 135.4 137.3 139.5 140.5 141.9 143.7 146.9 148.9 149.6 150.4 151.8 155.2 156.4 156.4 157.3 161.3 163.7 164.9 165.8 164.1 162.6 161.4 159.8 158.4 155.6 155.2 153.2 150.8 150.5 150 149.3 148.3 147.6 145.9 145.2 144.6 144.1 144 143.5 143.5 141.3 141.1 141.5 143 143.4 143.8 146.4 147.7 148.9 150 150.7 151 150.9 151.2 152.1 153 154.3 154.5 155.1 155.6 154.9 155.1 156.4 156.8 157.8 159.6 158.1 157.6 157.3 150.4 149.5 149.5 153.7 159.5 157.4 152.1 147.4 144.2 142.6 142.7 141.5 136.6 134.3 134 133.1 128.9 127.3 125 123.4 122.9 123.1 123.7 122 119.4 119.6 119 117.7 115.6
239.5 240.8 239.5 240.5 230.1 225.3 222.8 223.7 220.5 217.9 215.9 214.2 211.6 211.6 212 210.7 206.9 205.3 202.6 200.1 196 191.7 186.1 183 183 182.5 181.5 177.7 170.4 162 154.1 153.2 147.6 143.2 145.2 147.6 150.7 150 145.9 138.6 137.2 138.6 135.8 140.5 137.1 127.5 123.6 122.1 119.9 119.1 119 118.9 119.7 119.4 118.7 118.9 120.4 119.9 120.5 120.4 119.4 117.4 114.7 112.2 112.5 111.2 111.1 112.2 111.8 113.6 113.3 111.9 107.1 106.7 106.8 106.2 105.2 104.3 104.2 105.7 106.1 104.1 104.9 104.3 103.6 106.1 109.7 111.3 111.7 112.4 114.2 114.4 113 116.2 120.7 124.2 126.4 128.7 128.4 131.2 130.2 132.2 135.1 136.4 138 139.1 140.3 142.1 145.2 146.8 148 148.7 149.7 151 153.6 152.8 153.4 157.8 159.5 163.4 162.5 161.8 161.3 160.8 159.4 158 156.9 155.7 153.6 152.7 152.4 151.9 150.6 149.5 148.6 147.7 146.9 146.6 146.5 145.8 144.2 144.5 141.4 142 142.4 144 145 145.4 146.5 147.6 149.3 149.6 150.1 150.5 151.3 151.5 151.6 152.8 153.5 153.3 153.8 154.2 154 154.6 155.1 156.5 157.7 159.4 158.2 158.3 154.8 155.5 149.5 149.5 157 160 156.2 152.2 149.5 145.7 143.4 142.6 141.5 138.8 136.2 135.4 133.5 131.3 128.7 127 125.1 124.2 125.3 122.7 121.8 120 118.6 118.1 115.2 114.3
239 238.7 236 234.9 229.7 225.2 223.3 222.2 220.8 218.1 215.3 213.2 210.5 210.2 208.9 207.4 205.3 203.2 201.4 198.3 195.7 191.9 189.4 187.3 186.3 185.3 181.9 177.1 166.1 164.9 163.5 161.2 155.2 147.1 141.6 143.4 147.7 151.1 148 139.7 133.6 130.8 131.7 131.8 129.4 125.5 122 120.2 119.5 119.6 119.2 118.6 119.3 119.6 118.1 118.5 119 118.5 118.3 119.1 118.2 117.8 114.7 112.8 112.5 112.3 111.3 111.6 112.6 118.5 118.6 115.8 110.4 107.3 107.2 106.2 105.3 104.6 104.6 105.3 105.8 105 103.2 104.6 104.3 103.6 105.4 107.2 108.4 110.7 112.8 113.7 111.6 112.3 116.7 118.4 120.8 122.1 128.8 130.3 130.4 132.6 135.8 138.1 137.5 139.2 140.1 139.4 140.8 142.8 144.7 146 146.6 147 148.4 149.7 150.1 154.2 155.9 158.2 160.1 161.4 161.1 160 159.4 157.9 156.5 155.4 154.2 153.9 154 153 151.8 150.9 150.5 149.6 148.9 149.4 148.7 147.5 145.6 145.7 141.7 142 142 143.2 144.9 145.8 146.6 147.4 149.2 150.5 150.7 151.2 152 152.1 152.4 152.3 152.8 153.2 153.6 153.5 154.6 154.4 154.4 154.9 155.9 157.2 157.6 157.2 157.1 155.2 157.8 159.7 160 160.2 152.3 152.9 150.3 147.7 144.1 143.9 142.2 139.8 139.4 138 135.9 134 131.8 128.1 125.6 124.9 124.5 124.1 123 120.7 119.3 115.8 116 115.1
244.3 242.5 243.6 240.7 234.8 227 224.4 224 222.4 219.7 215.4 212.6 210.7 210.4 209.2 208.7 208.1 206.2 202.8 200.2 198.4 193.7 191.7 189.3 188.3 186.8 181.2 170.1 172.7 171.9 168.8 164 158.8 151.7 147.8 139 140.9 149.3 148.5 139.8 130.9 127.2 127.4 126.9 125.2 122.6 120.3 119.8 119.5 119.3 119.4 118.5 119 119.4 117.9 118 118.5 117.7 117.7 117.3 116.3 114.7 114.4 112.9 111.9 111.6 111.8 111.6 116.5 119.5 131.6 120.8 114.8 110.9 108.5 107.1 105.4 104.8 105.8 105.6 106.4 106.1 105.1 103.7 104.7 104 103.7 102.8 104.5 107.8 108.9 109.9 112.7 118.1 120.5 122.2 125 125.5 127.9 128.9 130.3 133.1 135.4 137.4 138.5 139.3 140.2 140.4 139.4 140.6 142.2 144 144.7 145.3 146.1 147.2 148.3 150.5 152.8 155.5 158.4 160.1 160.5 159.2 159.1 157.8 156.6 156.8 155.1 155 155.1 155.2 153.3 152.6 152.7 151.3 151.7 151.4 149.9 148.6 146.9 146.3 143.9 143.5 144.7 143.9 144.8 146.7 148.2 149.4 150.1 151.4 151.1 151.2 151.9 152.1 152.1 152.4 152.7 153 152.1 153.1 154.3 154.2 154.1 154.4 155.1 155.9 156.4 156.9 156.9 157.8 159.8 161.3 158.1 151.9 151.9 150.3 148.7 147.1 144.4 143.6 141.7 139.6 139 137.3 136.3 134.2 131.8 130.9 126.5 125.8 125.5 124.3 122.2 120.5 118.8 117.4 116.9 116.7
249.2 247.8 245.6 241.3 236.5 228.5 226 223.7 221.6 217.2 214.1 214.2 212.8 211.8 211.7 212.6 211.3 210.3 206 202 198 194.4 192.2 190.8 190.2 186.6 176.8 177.4 177.3 173.4 169.8 166.3 162.4 158.8 154.9 146.4 137.1 144.6 145.7 138 130.4 125.6 124.1 123.2 121.9 121.8 121.8 121.7 121.6 121.8 121.8 120.7 121.1 119.8 119.4 119.2 118.1 118.2 118 118 117.9 116.7 114.9 114.1 112 111.1 111.7 112.3 116.2 123.2 133.4 127.4 118.8 113 109.8 107.5 105.4 105.1 105.7 105.2 105.9 106.4 106.1 105.3 102.8 104.8 103.9 102.6 103.6 105.6 105.9 112.3 117.4 120.4 121.9 123.1 127.3 124.8 127.4 127 129.9 133.9 135.7 137.1 138.5 138.9 139.5 138.9 138.8 140.8 142.6 144.3 144.8 145.6 145.6 145.6 146.3 147.7 149.1 152.4 155.1 156.5 158.5 158.8 157.8 158 157.5 157.4 156.8 156.3 156.5 156.9 155.2 154.4 154.2 153.8 153.9 153.2 151.6 150.1 150 148.5 147.1 146.8 145.9 145.8 146.5 149.2 150.5 151.7 151.5 152.7 151.4 151.5 151.8 151.8 152 152.3 152.6 152.3 151.6 152.9 153.8 153.8 153.8 154.1 154.9 154.9 156.2 156.2 156.9 157.7 160.2 152.3 151.4 151.9 150.4 149.2 149.1 144.9 142.6 141.2 139.1 136.8 136.2 136.1 135.2 133.8 131.6 130.6 127.8 126.4 125.5 124.3 122.4 120.1 119.2 118.9 117.7 118.2
251.9 249.3 246.3 241.9 235.9 228.3 224.6 220.6 218.2 216.2 215.1 213.9 213 212.7 214.2 214.6 214.6 210.9 206.2 200.3 196.1 192.8 191.4 191 190.6 186.4 178.8 183.6 181 177.3 173.6 170.9 166.9 162.8 158.3 148.2 136.7 138.3 138.2 135.1 128.4 125.8 124.1 123.3 125 125.6 126.4 127.4 128.4 128 127.6 126.2 126.6 127.5 125.2 122.5 121.6 122.1 122.6 122.1 118.6 116.5 114.3 113.2 112.3 112.1 111.4 111.6 115.2 125.7 134.8 127.5 119.4 114.7 109.3 107.4 105.3 105.4 105.2 105.7 105.2 105.7 106 105.7 105.6 102.9 102.6 102.4 103.7 103.3 105.3 113.7 120 121.2 122.4 125.6 124.2 126.8 128.5 127.1 128.9 131.9 135.4 136.8 138.2 138.9 138.3 136.6 136.7 140.7 142.1 144.3 143.7 144.3 145.2 144.9 145.8 145.9 146.6 150.1 151.7 153.9 157.4 157.3 157.4 158.4 158.2 158 158 157.9 158.2 158.7 157.8 157.2 157.1 157 156.3 155.1 153.5 153.1 152.1 151.1 150 148.8 147.4 147.2 148.9 151.3 153 153.1 152.1 153.3 153.8 154.3 153.1 152.6 152.7 152.8 152.7 152 152.7 152.4 153.6 153.6 153.6 154.1 155 155.5 155.1 156.1 157.1 158.4 157.3 151.9 149.7 149.3 148.4 148.6 146.3 143.6 139.6 137.1 135.1 133.5 133.2 133.1 134.3 133.9 131.8 130.3 128.2 126.6 125.6 124.1 122.8 120.8 120.4 119.3 119.7 119
251.8 249.7 246.5 241.9 235.2 226.7 221.7 219.1 217 214.2 212.8 212 211.8 212.7 214.3 215.6 215.7 209.5 204.5 198.7 194.5 190.4 188.8 187.8 187.4 185.5 185.8 186.6 184.5 181.7 178 175.1 170.3 165.4 159.8 152.8 139.7 134 133.3 130.7 127.8 126.1 124.6 125.5 128.6 130 130.5 135 139.9 138.2 132.9 131.3 132.4 132.3 129.2 127.2 125.1 124 124.2 119.2 117.1 115.5 113.6 114.3 112.6 111.9 111.8 111.8 117.8 125.7 136.2 124.3 118.9 112.9 114.4 111.3 106 104.1 104.5 105.1 105.6 105.7 105.9 105.6 105.1 104.8 102 102.9 102.9 102.7 103.8 111 119.9 120.8 121.6 124.6 120.9 129.1 129.8 127.6 126.9 129.3 134.5 136.4 137.5 137.6 136.8 131.1 136.3 139.1 140.4 142.4 143.9 144.5 143.1 143.1 144.1 145.1 145.7 146.6 148.9 150.8 153.8 155.5 157.4 157.8 158.6 158.8 158.7 158.6 160.7 160.6 160.4 159.7 159.6 159.2 157.3 156.5 155.6 154.9 153.8 152.6 151.2 149.8 148.7 148.8 150.2 152 153.9 152.7 153.9 154.9 155.8 154.8 153.6 153.1 153.1 153.1 152.7 151.5 151.8 152.5 153.5 153.2 153.2 154 153.9 154.8 155.2 155.5 155.9 157.5 154.5 153 149.8 147.9 145.9 144.3 143.6 143.2 139.3 135.2 133.4 133.2 130 129.4 130.3 132.2 132.3 130.5 128.9 127.4 126.4 124.5 124.1 123.5 121.9 121.3 120.9 120.6
251.5 249.5 245.6 241.4 233.1 224.3 218.3 215.2 213.2 210.2 209.6 208 208.2 208.2 208 208.3 207.6 204.4 200.5 196.5 191.3 189.3 187.2 185.5 183.8 182.2 188.3 189.6 187.8 184.3 180.6 176.1 170.9 166.8 162.1 155.5 148.5 140.7 134 130.5 128.3 126.3 124.5 126.2 131.4 134.6 132.9 138.2 138.3 135.3 133.4 130.9 129.6 128.3 125.4 123.2 121.2 120 118.2 117.4 116.7 114.8 114 114.3 113.1 112.5 110.9 111.5 117.4 121.9 126.3 122.7 118.5 119.3 120.4 115.5 108.9 104.7 104 106.5 105.6 104.7 104.7 105 104.3 103.8 103.7 102.9 101.6 102 102.7 104 112.9 120.3 120.3 124.2 120.3 128.3 130.6 128.3 125.9 128.6 133.1 134.5 136.2 135.7 132.9 129.4 134 137 138.2 139.6 142.3 144 143.3 143.6 145.2 146 145.9 145.8 147.1 148.9 150.8 153.8 155.5 154.7 157.4 159.4 160.9 163.1 163.8 163.4 162.7 162.1 161.7 161.4 160.3 157.7 156.2 155.5 154.9 152.5 151.6 150.3 150.1 150.3 150.3 151 154.6 153.9 153.7 155.4 155 155.8 154.5 153.9 153.6 153.4 153 153.2 152.6 152.7 152.7 152.8 153.7 153.8 154 154.1 155.6 154.6 154.8 155.3 153.9 151.9 148.5 147 143.9 142.3 142.3 143.1 139.3 135.8 133.3 130.5 128.7 128.4 128.6 130.5 129.5 129.3 127.5 126.8 125.8 125.5 126.3 124.3 123.3 122.7 122.3 122
248.5 247.6 244.5 236.8 226.8 218.4 213.9 210.3 208.7 205.5 204.6 203.4 202.7 202.4 202.3 201.7 202.2 200.3 196.2 193.2 195.1 192.8 191.5 187.5 185.6 186.4 189 189.9 189.7 186 181.2 175.9 171.6 167.5 164.8 158.6 155.5 151.5 143.3 133.7 128.6 126.1 124.2 124.5 127.2 130.9 132.8 133.9 131.2 130.1 127.3 126.4 124.5 122.4 119.9 118.9 117.1 116.3 116 116.1 115.4 114.8 114.1 114.6 113 111.8 111.8 112.7 115.5 118.2 121.9 121.9 120.4 126.6 126.7 119.3 113.8 107.2 107.5 105.5 104.4 105 106 104.4 104 103.6 103 102.4 102.5 101.4 101.2 102.7 106.1 111.1 116.5 121.2 120.6 125.4 128.8 126.4 124.8 127.3 131.5 133.9 133.5 132.3 129.6 134.4 136.8 138 139.5 141.4 142.1 143.5 144.7 144.2 146 145.9 146.4 145.4 145.1 147 149.1 150.6 151.4 153.6 157.8 160.8 164.1 164 164.8 166.3 165.8 165.5 164.4 164.1 162.5 160.2 158.7 156.5 156 154 153.4 152.5 151.8 151.4 151.7 153.2 154.6 154.3 155.6 156.8 156.5 156.5 155.5 154.9 154.6 154.8 155 154.4 155 153.4 153.2 152.8 154.1 154.4 154.1 153.7 153.9 154 153.2 153.8 152.6 150.6 145.9 143 142.3 141.2 140.8 143.5 138.9 137.3 133.1 130 128 126.8 128.4 128.4 127.1 127.1 127 126.2 125.5 126.2 127 126.3 124.5 123.6 122.9 122.9
240.3 243.5 241.2 233.4 223.7 218.8 214.1 210.2 207.3 203.3 202.4 201.7 201.7 199.9 200.1 199.9 199.3 199.1 199.2 198.3 197.1 195.8 193.5 191.3 188.1 186.9 187.9 190.3 191.2 186.5 180.8 175.7 171.9 168.1 165.9 162.5 160.2 154 145.3 140.9 135.1 126.6 125 123 122.4 126.2 128.5 126.6 125.2 125.8 123.8 121 119.3 118.3 117.4 116 115.8 115.5 115.4 115.1 115.4 115.6 114.2 114.3 113.6 111.9 111 111.7 112.7 114.5 114.4 116.8 119.2 120.6 122.4 118.7 114.7 110.7 104.5 104.7 104.2 106.3 106.1 104.9 104.1 104.3 103.5 102 102.5 101.5 101.2 101.8 102.7 105.1 108.5 114.5 118.5 123.5 124.8 123.7 124.3 127.6 130.4 131.1 130.1 120.8 131.8 135.9 138.2 139.5 139.8 140.8 141.8 143.5 146 146 146.4 145.7 146 146.3 145.3 146.3 148 149.3 151.7 155.4 159.5 163.1 165.2 165.6 168.3 169 168 167.6 167.5 166.7 167 164.2 159.9 158.1 156.8 155.6 155.1 153.8 152.5 152.4 153 154.4 154.8 156.2 155.5 157 158.2 157.7 156.9 155.1 155.5 155.5 155.6 155.5 155.6 154.9 155.2 154.7 154.3 154.4 155.2 154.8 154.2 152.4 151.7 151.9 151.5 150.1 146.1 145.5 136.8 131.9 141 143.7 139.4 135.9 133.8 129.5 127.6 126.3 127.1 126.8 126.3 126.6 126.8 126.4 125.6 127.3 127.7 127.3 124.9 124.2 123.8 124.1
237.8 239.5 238.3 231.6 225.6 218.5 212.9 209.8 206.3 204.7 202.6 201.4 201.5 201 200.7 201.9 202.3 203.1 204.4 205.3 203 200.6 198.8 197.3 195.2 192.6 190.2 190 190.3 186.8 181.3 176.4 172.6 169.4 166.6 163.9 160.4 158.4 156.4 151.6 144.9 137 127.6 124 122.1 121.2 122.8 120.7 120.8 121.4 120.3 117.6 117.9 117.8 116.4 115.7 115.7 115.6 115.7 115.6 115.8 115.4 114.6 113.7 114.3 112.8 111.4 110.3 111.3 113 114.4 114.9 117.7 117.6 117.2 115.2 112.2 112.1 108.4 104.6 106 106.7 105.9 104.9 103.7 103.7 103.7 102.5 103.3 103.6 100.7 101.2 100.9 100.6 105.4 110.4 115.1 119.3 121.1 121.3 122.3 124.9 126.9 125.9 118.9 129.9 133.3 135.2 138.2 140 140.5 140.5 141.3 143.5 145.6 145 145.5 146.2 145.4 146.4 146 145.8 147.2 149.3 152.4 154 158.6 161.7 164.5 167.3 169.7 171 172 171.3 170.1 169.9 170 167.1 162 159.5 158.3 157.3 156.3 152.9 151.3 151.9 152.8 153.7 156.1 155.8 157.5 159.2 159.1 159 157.9 156.5 155.4 155.1 155.3 155.4 155.7 154.7 154.9 155.2 155.3 154.6 155.1 154.7 154.2 152.2 150.2 149.9 150.6 149.6 148.1 147.3 146 131.9 135.4 145.5 140.9 136.5 134.2 130.5 127.9 126.6 125.9 126 125.5 125.8 126.3 125.8 125.7 127.7 128.6 127.9 125.7 124.9 124.6 125.1
237.5 236.7 233.5 230.1 226.1 220.1 216.4 211.6 209.2 206.8 204.5 202.5 202 202.8 204.1 205.1 205.4 207.3 209.3 212.1 209.3 205.2 209.1 208.5 207.5 205.3 201 196.2 192.4 188.9 184.2 179 174.2 171.5 167.7 164.1 163.6 163 161.8 158.7 153.7 146.6 139.3 129.6 124.5 123.1 121.2 121.1 120.3 119.5 117.9 119.1 120.4 119.4 117.7 115.8 115.7 115.4 115.4 115.8 115.7 115.6 115.1 114.7 113.9 112 111.4 110.6 111.7 112.6 113 112.1 115.9 115.4 114.2 114.2 113.3 111.9 111.8 105.6 105.7 104.3 104.4 104.4 103.1 102.7 102.3 103 104.9 105.6 104.4 101.6 100.7 99.8 100.5 105.7 112.8 114.7 117.5 119.9 119.2 119.9 118.2 118.2 127.6 130 133 134.1 137.3 138.6 139.2 139.5 140.5 141.5 144.8 146.2 145.6 144.9 145.4 146.1 147.8 147.2 147.1 148.8 151.2 153.2 156.2 159 163.3 165.6 167.3 170.4 171.5 171.8 170.5 170.6 169.6 166.1 163.4 161.5 159.7 157.9 155.1 154 151.4 150.9 151.9 153.6 154.4 156.2 157.8 160.3 160.2 159.2 157.7 156.4 155.5 155 154.8 154 153.3 153.1 154.1 155.2 155.4 154.5 152.7 153.1 152.4 153.6 151.2 150.4 149.7 148.7 148.3 147.9 148.1 131.9 135.1 146.6 144.1 138.8 134.7 131.5 128.9 127.9 126.8 125.8 124.6 125 125.6 125.3 125.4 127 127.6 127.8 125 124.3 124.8 125.3
243.6 244 242.9 235.5 234.9 230.9 229.1 221.6 215.6 211.2 208.6 205.4 203.5 206.7 209.7 209.4 211.6 213 214.6 217.8 215.8 216.6 217.5 217.2 217.3 214 209.5 204.1 197.3 192.9 190.9 183.4 178.5 173.6 170.4 166 165.8 165.8 163.9 160.9 156.7 152 146.2 139 131.5 127.5 127.9 126.3 123 121.5 120.9 121.3 121.7 122.1 120.4 120.1 119.7 119.2 117.4 114.4 114.4 114.5 114.4 114.4 112.6 112 111.3 111.1 111.2 113.5 111.8 111.4 112.7 113.9 113.8 113.1 113 111.7 110.3 107.3 104.4 104.5 102.7 103.2 102.9 103.6 102.7 105.3 107.3 108.1 106 103.9 102.4 99.6 100.6 100.3 108.6 113 115.5 111 112.7 117.9 122 124.5 128.3 130.6 131.2 133.6 135.2 137.5 137.1 136.6 139.7 140.9 143.4 145.2 145.8 146 145.7 147.4 148.5 148.1 147.9 149.5 150.4 153 154.5 157.6 160.3 161.6 165 165.9 168.4 169.6 168.7 169 168 165.2 162.6 160.5 159.4 156.7 154.3 152.8 151.9 149.8 151.4 153.8 155.4 157.8 159.4 161.3 161.2 159.9 158.9 157.8 156.2 155.6 155.1 154.4 153.9 152.4 154.3 155.2 155.1 154.4 152.9 153.5 153.2 154.9 153.6 150.4 149.3 149 149.2 149.1 148.8 148.6 149 150 148.5 143.1 138.2 133.8 129.9 128.8 127.7 126.1 123.7 125.2 126 126.2 124.4 124.9 125.2 124.7 124.4 123.5 122.8 123.1
255.4 244.2 242 243.1 241.2 236.9 234.6 226.7 220.6 216.8 210.5 206.5 205.6 211.5 213.8 213.8 215.4 217.3 215.7 221.9 221.3 222 222.8 222.8 222.1 219 214.6 209.2 200.8 197.3 191.6 186 181.2 176.4 172.3 168.1 167.7 167.4 165.6 161.7 158.2 154.9 151.2 145.3 140.4 138.9 138.4 133.8 131.5 129.8 128.1 125.5 124.1 124.8 124.9 124.9 123.8 120.8 119.3 116.9 115.6 114.8 113.9 113.4 112.8 112.2 111.1 110.4 111.1 112.3 112.1 111.5 112.8 112.1 111.8 112.6 113.3 112 111.8 110.3 104.6 104.8 104.8 102.7 103.5 104.9 104.7 108.2 107.6 107.6 108.2 106.4 104.2 100.4 100.1 101.6 105.8 107.4 107.8 110.6 119.8 122.2 124.4 126.7 128.4 130 130.1 132.2 134.6 134.9 136.4 138.4 139.4 141 142.4 143.8 144.7 146.2 146.1 147.7 149 149.4 150.1 150.7 150.9 152.4 154.5 156.9 157.9 159.2 161.4 164.4 165 165.8 166.2 166 165.6 164.6 163 160.1 158.1 156.2 153 150.7 148.9 147.8 150.4 152.6 155.3 158.4 159 161.1 160.8 160.2 158.1 156.5 158.1 156.6 154.8 154.3 153.4 152.3 153.5 154 153.9 153.4 153.5 154.4 156.1 156.3 154.8 151.5 151 149.8 149.4 148.6 148.5 148.9 153.6 151.1 147.2 143.8 140.3 135.9 132.5 131.4 127.9 124.4 122.7 123.8 125.7 126 122.7 123.6 123.8 122.7 122 121.6 120.8 120.4
261.9 245.9 247.5 247 244.8 243.3 241 231.8 225.9 220.2 212.9 207.6 210 216 217.4 218 218.7 218.9 219.8 225.6 225.1 226.1 227.3 227.3 226.2 223.5 218.6 211.5 206.2 202.6 196.3 189.2 183.9 179.3 174.6 170.1 169.6 169 166.9 164.3 160.8 157.1 153.7 149.5 146.2 144.2 143.6 141.7 138.9 135.8 134 130.7 127.6 127 127.1 127.3 126.6 123.6 122.7 119.9 119 116.8 115.3 113.6 113.3 113.2 110.6 110.4 110.4 111.5 111.8 111.5 112 112.3 111.9 112.3 113.4 111.7 111.5 111.2 110.6 104.2 104.5 102.7 105.6 106.1 106.9 108 107.2 107.6 108.3 107.9 106.9 101.8 100.4 100.6 105.2 104.2 106.8 114.6 120.2 122.8 123.6 126.2 126.9 127.7 129.2 132.4 134.5 136.1 137.9 139 140.6 141.6 143.6 144.5 145.2 146.8 148.8 147.1 148.1 148.7 150.8 151.1 151.4 153 155.2 156.7 158.2 158.6 160.3 161.2 163.8 164.1 163.1 162.9 162.9 163.4 162.1 159.9 157 155.1 151.6 149.1 146.8 147.2 149.6 151.3 154.6 157.8 159.2 159.5 159.1 157.1 156.2 157 157.7 157.2 154.2 153.8 152.5 150.9 152.2 153.4 152.8 151.7 154.1 155.6 156.3 157.9 156 152.9 151.1 149.4 147.7 147.5 148.9 148.7 153.8 150.8 149.1 144.8 140.6 136.5 132.6 131.1 128.3 125.4 123.2 123 123.5 123.3 122.1 120.8 121.7 120.7 119.8 119.2 118.6 117.8
265.5 262 256.4 249.5 248.8 248.1 246.3 234.7 229.6 223.1 214.3 209.6 213.5 218.2 219.8 220.4 221 219.5 224.6 227.5 228.2 227.6 231.2 231.4 229.5 226 221.2 216.3 211.9 206.9 201.6 191.3 186.2 180.3 175.5 171.9 172.3 170.7 167.7 165.4 163.3 161.4 156.1 153.7 149.5 147.5 146.8 143.1 138.8 138 137.9 133.1 129.5 130.2 129.7 128.9 128.4 125.4 124.5 122.3 121.6 120.7 117.9 115.5 114.4 112.1 111.2 110.6 110.5 110.4 110.8 112.1 111.7 111.2 112.3 112.5 112 111.9 111.4 110.5 110 105.6 104.1 102.7 103.6 106.5 106 106.9 105.9 105.7 108.7 107.4 106.6 103.8 100.9 100.1 103.6 102.6 109 114.3 118.5 119.9 121.3 123.1 124.6 126.4 129.1 131 134.5 136.4 138.2 139.9 141.4 142.7 143.6 144.5 145.5 147.9 149.9 149.8 148.6 148.9 151.1 151.4 151.9 153.9 156.1 157.2 157.7 158.1 159.1 159.5 161 163.2 161.6 160.8 160.2 159.4 158.5 157.9 155.5 153.3 150.2 149.1 146.5 146.3 148.7 151.2 153.5 155.5 158.7 158.9 158.4 156.3 155.4 155.5 157.1 156.4 154.4 153.1 151.7 150.9 150.7 151.2 150.4 151.1 152.7 154 156.4 156.8 156.4 154.3 151.2 149 147.5 147.3 147.7 148 151.8 150.9 150.1 146.6 141.7 137.2 132.6 130 127 125.3 123.5 122.4 123 123.8 123.3 121.9 120.9 120.5 119.8 119.5 117.5 114.5
266.2 264.3 263 261.5 258.4 252 249.8 238.5 232.3 222.6 221.8 212 213.7 220.2 221.7 222.6 223.6 219.9 226.9 229.7 229.6 230.3 233.9 235.2 232.7 228.9 224.6 222 216.3 212.1 205.8 195.4 189.6 183.4 177.7 174 174.8 172.2 168.4 167.1 163.9 161.9 158.8 156.5 153 150.1 148 143.9 140.6 138.7 138.2 133 131.4 132.9 132.1 131.3 129.3 127.7 125.9 125.5 124.8 123.7 121.1 117.9 116 113 111.3 110.2 109.9 110.1 110.9 111.6 111.2 111.8 111.1 110.3 111.9 112 110.9 111 109.2 108.8 103.9 102.9 103.8 105.2 104.8 105.9 106.1 106.4 107.1 108.3 107.9 106.6 103.3 101.2 101.5 103.7 106.2 111.6 111 114.9 116.8 122.8 125.3 127.1 128.4 130.8 133.6 136.1 137.6 138.5 139.9 142 143.1 145 146.3 147.9 150.6 151.2 150.6 147.3 150.9 152.1 152.8 154.2 156.6 157.7 158.2 158 159.1 159.2 161.4 163.1 161.5 160 158.6 158.4 157 156.1 153.7 152.7 149.2 147.2 145.9 146.1 148.2 150.4 152.3 155 156.7 158.1 156.7 156 155.4 155.2 155.7 156.3 152.5 152 150.3 149.2 148.2 147.5 148.7 149 151 152.6 153.8 155.3 154.8 152.8 151.1 148.4 146.5 147 146.4 148.5 149.7 149.1 148.9 145.8 142.7 138.6 134.5 131 128 125.2 124.3 123.6 123.8 124.3 124.4 123.1 122.3 121.4 121.3 116.3 118.3 117.3
246.7 246.8 247.4 248.5 248.5 253.5 248.7 243.1 233.9 224.2 221.4 213.9 214 221.4 223.6 224.5 225.3 221.3 229.6 230.4 231.8 234.7 236.7 237.9 236.7 233.2 230.6 227.1 221.2 214.1 208 199.5 193.5 185.7 180.3 176.4 174.1 172.3 168.8 167.9 166.1 164.2 161.2 158.8 154.9 150.7 148.2 145.2 140.8 138.6 137 136.6 134.6 134.7 135.8 134.1 132.6 131.5 130.2 128.3 127.3 125.9 123.5 121.3 118 114.8 112.3 110.5 109.3 109.1 109.8 110.3 110 111 111.2 110.9 109.9 110.9 111.1 110.5 109.5 108.9 108.2 102.9 102.6 104.3 105.1 105.7 106.9 107 107.8 107.5 107.2 106.7 104.5 101.4 102.5 102.9 103.4 108.2 111.1 117.2 120.8 122.9 125.1 127.6 128.4 129.2 132.6 134.4 135.7 138.1 140.7 142.6 144.4 146 147 148.4 151.1 151.6 151.4 147.8 148.3 150.9 153.3 153.9 156.8 159.5 160.2 158.8 157.7 159.5 161.5 161.6 160.6 158.2 157.4 158.3 157.7 155.6 155 152.9 150.8 148.9 144.3 146.5 148.9 150.9 151.9 153.5 155 157.2 156.3 155.7 155.2 155.7 155.5 154.7 153.4 150.9 149.7 147.9 144.9 144.7 146 146.9 147.3 149.3 151.5 153.2 153.3 151.7 149.2 147.1 146.9 147 147 146.8 147.1 147.8 147.7 145.8 143.4 139.5 135.7 131 128.4 125.7 124.4 123.6 124.3 125 125.4 123.9 123.6 117.8 121.6 119.9 117.9 116.7
236 243.2 239.4 242.6 241.2 248.1 249.9 244.9 237.3 229.6 222.2 219.1 214.4 222.3 225.1 226.4 228.8 230.1 230.8 232.2 235.4 238.6 241.5 242.2 240 238 235.7 233.1 225.2 218.4 211.4 202.4 195.6 187.8 181.7 177.7 175.1 173.1 170.6 169.3 167.9 164.5 162.1 161.2 157.1 153.2 148.6 145.3 141.6 138.3 138.7 138.5 137.9 136.7 136.5 137.3 136.8 134.5 133.1 131.6 129.1 127.7 125.9 122.7 120.3 117 114.2 111.8 109.3 109.4 109.8 110.2 109.5 109.6 109.8 110.3 109.3 110.6 110.7 110.8 109.9 108.8 109.5 104.6 102.8 102.1 102.6 103.7 105.9 107.6 107.9 106.7 104.2 105.1 105.5 100.7 102.2 102.7 103.4 105.4 112.3 115.5 118.2 120.5 121.8 124.5 126 127.5 130.9 132.5 135.3 138.1 140.9 143.8 145.9 148.3 149 149.6 151.7 151.6 150.9 150.2 148.8 149.4 151.1 153 155.7 158 159 158.1 155.4 157.6 159.1 159.5 158.8 156.8 155.5 157.2 158.5 157.9 156.6 154.9 152.3 149.3 145.4 145.6 147.2 150.5 150.8 152.6 154.1 156.9 156 154.4 155 155.6 155.9 155.4 152.8 150.4 149 146.5 143.9 143.1 143.9 143.8 145.4 147.9 149.6 152.1 152.3 150 147.8 146.4 146 147 146.2 145.1 145.7 146.7 146.9 146.3 143.9 139.6 135.1 130.9 127.6 126.5 125.7 125.7 125.5 125.7 125.9 124.6 122.4 123.7 121.8 119.9 117.8 116
222.8 222.5 222 223.1 236.8 248.9 250.5 247.7 244.5 234 229.6 221.2 215.9 223.1 226.8 228.6 231.1 232.2 232.1 236 239.6 241.9 244.2 245.7 246 244.1 241.7 237 229.5 225.4 215.2 206 197.7 190.1 183.6 179 177.1 175 172.5 170.8 169.5 165 163.6 162.7 160 156 151.8 146.7 142.4 141.4 141.1 140.1 138.8 136.7 135.3 135.6 135.4 134.4 132.6 131.7 129.2 126.4 124.2 122.3 120.5 117.5 115 111.8 109.6 110.5 110.3 110.3 109.3 109 109.9 109.9 109.6 109.4 110.7 110.2 109.9 108.3 106.5 105.7 101.9 102.3 101.8 102.9 105.9 107.1 106.8 106.2 104.7 102.7 103.4 101.8 100.6 102.7 101.7 103.7 109.7 112.1 113.6 117.7 118.1 121.1 124.5 126.7 129.3 132.5 135.6 138.1 142.5 145.4 147.5 148.8 150.4 152.2 153 152.3 151.1 151.2 148.7 147 148.1 151.1 153.5 154.8 155.3 154.6 154.4 155.5 156.9 157.3 156.3 156.1 154 156 158.2 158.9 158.1 156.4 153.7 150.9 146.9 141.9 145.8 149.9 150.5 151 153.1 154.8 155.4 154 153.2 154.5 154.9 155 154 151.6 149.3 146.6 143.8 141 142.6 142.6 143.1 146.4 147.9 150.7 151.1 149.4 147 145.5 145.8 146.7 146 144.7 143.3 143.7 144.2 144.2 144.5 141.3 137.4 133.8 130.8 130.2 126.6 126.1 125.1 124.8 125.1 125 125 124 122.5 120.6 118.9 117.1
210.4 210.3 221.6 222.9 224.3 241.1 248.5 248.8 246.2 238.2 232.5 227.5 218.4 224.7 228.6 230.9 232.8 233 235.1 239 241.9 244.3 247 248.3 251 249.8 246 240.6 231.6 226.7 218.9 208.5 200 192.2 183.1 181.5 180.9 177.4 174.6 172.7 169.7 166.7 163.5 162 161 158.5 154.2 148.5 143.4 143.8 143.6 141.1 138.9 136.5 134.1 133.1 131 131.2 130.6 129.8 127.8 125.5 122.5 121.1 119.7 117.9 115.6 113.5 112.1 111 111.7 111.5 110 108.7 108.8 108.5 109.7 108.4 109.5 110.1 108.8 105.5 104.6 104.4 102.7 102 101.4 101.7 103.4 105.9 105.5 105.6 106.9 105.9 104.1 102.1 101.6 99.7 100 100.2 104.7 106.9 109 115.3 120.8 123.8 125.4 128.3 130.6 133.1 135.6 138.1 144.4 146.9 149.5 149.6 151.7 152.9 152.3 151.6 150.9 151.6 149.5 147 146.3 148.7 150.7 151.8 151.9 151.2 152.5 154.3 155 155.3 153.2 152 152.7 154 155.9 157.8 158.5 157.3 154.4 151.5 148.1 145.4 145.7 150.3 150.3 148.9 150.5 153.9 153.5 152.2 152.1 153.7 153.6 154.8 154.3 152.3 149.6 146.4 143.1 139.2 140 141.4 142.1 144.8 147.2 149.1 149.1 147.7 145.8 146.1 146.2 146.5 146.2 144.9 142 140.8 142.1 143.4 143.1 142.6 140.3 137.1 133.7 131 127.9 125.4 124.9 124.5 123 125.2 125.8 124.8 123.4 121.8 119.5 119
209.1 209.4 209.3 222.5 234 248.8 249.1 254.6 246.3 245.4 236.3 230.3 220.3 223 229.7 231.8 233.1 234.4 237.8 240.2 243.9 247.3 249.1 251 254.6 253.6 249.7 244 233.5 226.8 220.3 210.3 202.4 194.3 184.5 183.3 183.6 180.6 177.1 173.6 170.3 167 163.5 160.5 158.7 157.2 155.3 149.6 145.2 145.3 143.6 140.9 137.7 134.6 132.9 130.3 127.5 127.1 126.3 127.4 125 123.8 122.3 121.9 120.4 118.8 116.9 115.2 114.1 112.1 112 110.6 109.8 108.9 108.3 108.3 109.3 107.9 107.7 107.7 106.3 104 103.1 103.6 102.2 101.5 101.9 102.6 103.2 103.6 103.5 105.4 104.7 104.9 105 102 102.4 100.2 99.6 99 101.2 104.7 111.1 116.2 120.2 122.9 125.6 127.2 129.4 132.5 135 138 143.2 146.4 149.2 150.7 151.6 151.5 151.1 150.4 149.2 149.5 148.9 146.6 146.1 146.6 147.6 148.6 149.6 150 150.3 152.7 152.6 153.3 153.1 150.6 152.3 152.9 153.5 155.4 156.2 156.4 155.7 152.4 147.2 144.4 144.9 148.8 147.8 147.7 148.3 151.2 152.6 151.5 149.7 151.7 152.3 153.4 153 151.7 149.6 146.9 143.3 139.5 137.4 139.5 140.8 143.9 146.1 147.3 147.6 146.9 145.4 144.7 143.5 146.3 145.9 144.3 140.1 137.6 138.5 139.9 140.2 141.9 141.3 138.7 135.3 130.7 130.2 125.9 124.8 123.5 124 124.8 126 125.5 124.3 123 122.7 121.4
210.3 209.1 209.5 222.5 244.3 260.9 266.5 259.4 246.6 245.1 240.9 232.4 222.4 221.1 228 231.3 233 236.8 239.7 243.6 246.4 250.1 251.6 254.2 258.7 256.4 251.5 245.2 235.3 227.7 219.4 209.7 201.6 196.7 186.2 184.8 184.9 181.5 178.1 174.1 172.1 168.7 165.1 162.1 159.1 155.8 153 149.6 147.2 147.4 146 143.6 138.9 134.3 131.9 128.7 127.4 125.8 125.4 124.6 123.4 122.7 122.2 121.6 120.7 119.6 118.6 117.2 114.9 113.7 112.9 112.1 110 109.2 109.3 109.5 109.1 108.5 107.7 108.3 107.7 105.8 104.2 103.8 103.3 102.8 102.2 101.5 101.4 101.8 103.6 105.5 105.6 105.9 104.9 103 100.9 99.8 99.5 99.2 100.6 104.7 110.1 114.4 117 121 123.5 124.7 128.1 131.1 134.2 137.4 140.8 144.6 146.8 148.6 149.8 149.4 148.8 148.1 147.3 146.5 147.9 148.2 145.9 145.9 145.7 146.6 147.7 149.6 151 152 152.5 151.5 149.1 150 149.1 149.5 150 152.4 152.6 154.3 154.8 153.1 147.7 144.6 143.2 146.3 146.4 146.2 146.8 149 149.8 148.9 147.5 148.2 149.6 150.2 150.6 151 148.3 145.8 142.3 138.1 136.4 139.6 141.5 143.8 144.8 145.3 145.4 144.2 142.5 142.2 142.3 143.6 143.4 142.7 139.4 137.7 135.5 136.1 136.8 140.3 141.3 138.8 132.6 131.5 130.5 127.1 124.8 122.7 123.8 125 125.8 126.4 125.3 124 124.5 124.2
209.6 210.3 210.3 222.5 236.2 264.2 268.9 260.6 250 244.6 242 232.3 227.9 226.4 226.4 230.1 232 239.1 240.2 245.7 249.9 252.9 253.9 256.1 259.3 257 251.7 243.8 236.4 228.1 216.1 206.7 201.6 198.8 189.6 187.3 184.4 181.1 178.3 176.4 174.6 170.7 167.5 163.2 160.7 157.2 153.7 151.2 149.5 148.1 147.1 144.9 139.4 134.3 131.5 128.7 127.3 125.9 126.3 124.9 123.5 123.2 121.8 121 121.2 120.6 119 117 116 115.5 114.8 113.8 112.4 110.3 108.9 107.7 108.5 108.3 108.8 109.5 109 108.6 106.9 105 103.9 103.9 103.6 102.5 101.8 101.7 102.5 104.6 105.5 105.5 104.9 102.9 101.2 99.5 99.3 99.4 101.9 104.5 107.9 111.9 115 119.1 122.6 124.4 126.6 129.5 132.2 135 138.8 141.2 143.5 146 147.2 146.9 146.6 146 146.4 148 148.9 151 148.2 145.9 145.2 145.6 146.5 148.5 149.9 150.3 150.1 151.1 148.7 148.1 147.4 146.5 148.5 148.9 149.9 151.8 152.4 151.8 148.2 144.6 136.2 142 144.5 144.4 145.3 146.7 146.9 145.3 144.2 145.4 145.9 147 146.5 147.2 146 144.4 139.9 136 136.6 138.3 141.5 142.9 142.8 143.4 143.1 142 141.1 139.2 139.9 141.5 140.7 141.5 138.2 135.8 133 131.9 134.2 136.7 138.7 139.2 135.1 131.8 129.9 127.3 123.5 122.2 123.8 125.9 125.8 126.2 126.5 125.6 126.1 127.1
209 208.7 209.2 218.6 227.1 249.9 268.9 261.3 252.1 244.1 242.3 233.8 230 228.4 226.8 228.6 231.2 238.4 239.2 243.5 250.9 252.9 255.3 256.4 257.7 255.3 249.7 241.6 235.2 225.1 213.8 209.1 202.7 198.4 193.3 187.2 185.7 183.6 181.3 179.4 177 173.6 168.6 164.7 161.9 159.1 156.7 154 150.2 148.4 146.2 143.9 139.5 134 131.2 129.3 128.5 127.4 125.6 125.3 123.6 122.7 122.7 122.1 120.6 119.7 119.2 119.6 119.6 119.1 116.6 114.5 115 112.1 110.1 108.4 108.3 108.3 108.5 109 109.5 110.1 108.5 108.5 105.5 104.6 103.9 102.9 102.1 101.7 103.2 103.2 103.6 104 103.4 100 100.3 98.7 98.9 98.9 100.6 104.1 105.2 108.9 113.4 117.7 120.7 123.4 124.8 126.9 129.4 132.9 136.2 139.3 140.8 143.1 144.2 144.6 144.2 145.4 147.5 149.4 150.8 151.5 151.2 149.5 147 145.9 146.5 147.2 146.7 148 148.3 147.7 147.7 146.3 145.3 143.1 145 147 147.5 149.2 151.5 150.9 147.1 143.9 132.5 139.4 141.2 143 144.3 144.6 143.1 142.7 142.5 142.1 143 144 144.6 144 143.5 141.4 138.5 132.7 135.7 138.3 139.7 140.8 141.6 140.5 140.3 140.1 139.5 137.5 137.4 138.9 139.4 139.5 137.5 134.9 133.2 129.7 130.8 134 136.1 138.2 137.2 131.9 128.9 126.8 123.4 122.9 125 125.8 126.4 126.8 127.2 127.3 126.8 128
208.9 209.3 209.8 215 223.3 250.4 267.4 261.1 252.8 244.5 242.4 233.7 231.1 229.7 230.5 230.1 231.7 235.5 238.9 242.5 246.8 250.7 253.6 255 254.3 250.5 246.1 243 235.9 224.1 215.2 210.7 203.9 198.5 194.2 190.7 186.1 184.4 183.8 181.3 178.5 175.2 170.2 166.6 163.7 161 159.3 156.8 151.9 148.1 145.5 142.9 138.4 133.8 132 130.8 129.2 127.4 126.3 125.5 125.2 124.5 124.8 125.4 123.8 122.1 123.3 122.2 121.9 120.2 119.7 118.6 116 113.8 112.2 109.8 108.8 108.5 109 109.8 110.3 110.5 109.9 107.4 105.9 104.3 103.1 104.6 104.3 103.6 101.5 101.3 100.8 99.6 98.4 97.9 99.3 99.1 98.6 99.1 99.2 101.4 103.2 106.8 114 118.3 121.7 122.4 122.7 123.6 125.3 129.1 131.6 136 138.6 140 140.7 142.6 143.5 145.5 147.7 149.9 151.5 152.5 153.3 152.4 150.4 147.3 146.1 145.5 145.3 145.9 147 145.9 145.9 145.7 145.7 145 142.3 144.2 146.8 147.5 150.5 150.3 146.9 141.5 133.9 135.6 139 140.6 143.6 143.2 141.8 140.6 138.9 139.6 140.8 141.1 141 141.8 139.9 138.2 135.3 130.2 132.8 136.6 138.5 138.6 138.7 138.2 138 137.7 136.5 134.3 135.5 135.2 136.3 136.1 136.1 134.6 132.9 129.9 128.4 129.4 131.5 134.3 135.8 133 128.1 125.2 123.6 122.1 125.3 126.3 127 127.6 128 127.5 127.2 128.6
209.3 210.3 211.2 220.1 237.2 257.2 267.3 260.1 252.8 243.1 239.4 232.9 229.7 234 234.7 233.6 232.4 235.3 238.9 242.9 247.6 252 254.9 253.7 253.9 251.6 249 244.8 234.6 223.6 217.6 212.1 203.6 199 194.7 191.5 187.1 185.8 185.8 182.8 179.6 175.9 172 167.7 163.8 163 160.9 157.2 153.4 150.1 146.5 142.3 137.1 133.9 132.3 131 129.4 128.4 127.8 125.7 125.4 125.6 127.4 128.1 126.5 125.4 124.6 125.4 125.5 127.2 123.8 119.5 117.6 115.4 114.6 111.6 110 109.3 108.4 108.5 108.8 109.9 109.6 109.2 105.2 104.6 103.8 103.3 103.9 103.4 102.6 98.8 99.8 99.4 98.4 97.9 98.8 98.4 98.1 99.1 98.8 98.7 100.1 105.9 113.6 118.4 120.8 121.2 120.3 119.9 121 124.6 127.7 131.1 135.7 134.8 137.8 140.9 143.4 145.5 147.6 149.4 150.8 152 152.9 153.5 152.2 148 144.1 143.5 143.7 144 144.7 143.6 144 144.9 145.5 145.7 145.3 145.6 142 144.5 147.9 148.3 145.8 140.8 135.3 127.9 135.3 139.1 140.8 139.9 139.8 136.9 135 136.2 137.7 138 138.6 138.2 136.8 134.8 131.2 128 132.3 135.2 136.1 136.2 136.3 134.5 135 134.5 133.2 131.6 132.1 133.4 133.2 133.9 134.6 135.2 132.6 129.9 129 126.9 127.6 129.5 131.5 132.8 129.1 125.6 123.2 121.7 124.9 126.7 127.5 128.3 128.3 127.1 127.2 128.6
225.4 224.4 223.5 237.4 252 272.2 265.1 258 250 243.5 239.2 231.8 227 235.2 235.5 235.8 233.9 236.3 239.8 245.6 254.5 258.4 257.6 262.3 263.6 258.8 253.3 245.8 234.8 225.9 217.7 211.2 204.3 198.9 195.6 192.6 189.7 188.6 188.2 186.5 182.9 179.4 175.5 171.3 165.7 164.2 162 158.3 154.7 151.6 148.5 143.3 138.4 136.2 134 131.8 130.5 128.9 128.5 129.2 128.8 128.8 128.7 130.4 134.6 129.5 129 127.5 129.9 128.5 123.9 120 117.2 114.8 114.1 114 110.3 110.5 108.4 109 107.4 108.2 109.1 109 107.9 105.4 102.7 103.3 104 101.8 101.5 99.7 100.7 100.1 98.7 97.9 98.3 98 97.8 98.2 98.4 98.2 98.6 103.3 108.5 114.3 118.9 119.3 118.5 118.6 120.3 122.3 124.9 128.5 130.9 131.1 135.4 139.3 142.2 144.7 146.1 147.5 149.9 151.7 152.9 152.4 150.7 148.1 142.3 142.1 142.1 141.4 141.6 140.8 139.3 140.3 143.5 144.3 144.2 145.4 145 139 143.2 143.7 141.4 138.4 132.5 127.3 131.9 134.9 137.2 138 136.7 134.2 133 133.2 135.8 135.9 135.3 135.2 133 130 128.4 129.5 131 132.6 132.1 132 131.3 131 132.1 133.1 131.8 129.6 129.5 130.1 131.4 132.4 132.5 133.1 132.2 129.9 127.7 125.6 124.5 126.1 128.1 128.9 128.4 124.1 122.3 122.3 124.7 126.6 127.8 128.5 127.5 126.5 125.8 126.1
241.8 238.6 240.6 253.6 273 269.7 261.5 254.4 247.2 238.9 236.5 228.9 226.5 228 235.7 236.1 235.1 237.6 242.1 251.4 259.3 263.5 264 270.5 273 268 260.4 252.6 242.4 231.7 222.9 214.9 209.1 201.2 196.8 193.5 190.8 189.1 191 190 187.6 183.6 179 174.5 168.8 165.6 163.2 160.1 155.9 152.9 149.7 146 142.4 141.5 139.7 135.9 131.7 131 130.7 133 132.7 133.4 131.3 130.9 132.7 131.4 130.7 130.9 128.8 125.7 118.1 120.6 122.2 117.6 114.2 114.6 113.8 110.2 109.3 108.7 107.1 106.3 107.6 106.2 108.2 105.2 105.8 103.6 103.5 103.2 101.6 99.6 98.9 99.6 100 99.7 98 97.7 97.5 97.7 98.4 98 98.4 99.2 104 106.9 109.6 118.5 118 118.2 119.7 120.8 122.3 123.6 125.7 129.8 133.6 137.5 140.5 142.8 144.4 146.8 149 151.1 151.5 151.9 150.3 148 143.6 141.7 139.8 139.3 137.5 137 135.3 135.6 138.5 141.3 141.3 143.5 145.3 143.8 139.3 137.2 137.4 135 129.5 125.8 129.8 131.4 134.1 134.3 133 131.9 131.1 131.3 132.6 132.6 131.9 131.1 130.4 127.7 126 125.6 129 128.3 128.2 129.5 129 129.4 130 130.9 129 127.8 127.3 127.7 129.4 130.6 131.8 131.7 131.2 129.4 127.9 125.2 123.6 123.3 124.9 125.7 124.7 122.3 121.4 123.6 125.4 126 127.5 127.7 126.9 125.8 125 125.4
271.9 271.7 273.9 276.8 273.1 265.1 257.6 250 242.2 237.7 235.6 227.5 226.2 227.6 234.7 235.6 236.1 239.3 244.2 253.1 261 268.3 271.9 278.1 277.2 270.2 264.9 258.6 248.5 237.3 228.5 221.4 214.9 206 199.5 195.3 191.7 190.1 191.6 193.3 193.1 188.6 181.8 177.5 172.8 166.4 163.8 160.6 156.9 153.9 151 147.7 144.7 143.7 143 141.4 138.1 137.9 137.4 137.1 136.6 135.5 133.2 132.9 133.7 132.9 132.1 132.5 131.1 126.2 122.8 123.7 123.1 122.6 115.2 113.9 110.8 109.9 109.2 108 107.7 106 105.7 106.2 107.4 106.4 105.3 102.1 101.2 102.2 99.9 99.2 99.5 97.9 99.7 99.5 98.2 97.8 97.8 98 98.5 98.8 98.5 98.2 102.4 106.5 111.4 117.8 118.3 117.3 117.7 118 118.6 120.2 123.8 127.6 132.2 136.2 139.3 141.8 144.2 146.6 149 150.4 151.2 151.4 150.6 148.7 145.3 143.8 141.7 140.6 139.1 137.6 136.1 132.2 134 136.1 137.1 140.6 143.1 142.8 141 137.2 131.7 130.8 124.6 122.9 128.1 129.2 131.4 131.7 130.3 129.2 128.5 128.8 130.1 128.9 129 127.8 125.8 124.3 123.9 125.9 126.4 126.2 125.8 126.4 126.9 127.6 128.5 129.3 128 126.9 126.1 126 127.3 128.6 128.9 129.3 129.5 128.5 127.2 125.1 122.2 121 122.6 122.3 122.3 120.6 122 125.1 125.6 126.7 127 127 125.1 124.8 124.6 124.4
277.9 279 274.9 271.6 266.4 258.7 251.6 242.9 235.9 238.4 232.7 227 226.2 227.4 233.9 234.4 237.8 243 245.8 255.1 263.6 271.4 278.6 284.8 278.6 272.5 266.9 261.6 251.5 241.3 232.1 226.3 219.2 211.4 204.9 198.3 195.2 191.1 190.9 194.9 196.5 192.8 186.3 180.1 173.9 168.9 164.3 161.2 157.8 154.9 150.6 146.7 145.9 144.6 143.5 143.4 145.2 145.7 141.3 138.7 140.7 140.3 136.9 135.6 133.7 132.7 132.2 131.1 125.7 120.7 126.7 126.4 123.6 122.8 120 112.8 110.4 109.8 109.3 107.1 107.2 106.6 105.7 104.4 105.6 105.9 104.3 103 100.8 100.8 101 100.1 100.2 99 99.7 100.2 97.6 98 98 98.1 99.1 97.3 98.1 98.5 102.7 106.5 111 115.5 116.6 116.7 115.4 115.4 115.7 118.5 122.4 127.9 132.6 136 139.1 141.6 144.1 146.4 148.1 149.6 150.9 151 150.5 148.7 146.6 144.9 141.6 139.5 138.7 137.9 136.1 132.3 131.3 131.3 131.3 134.5 136.5 138.8 140 137.8 134.3 130.5 121.4 120.9 125.9 127.5 128.8 128.9 128.4 128.8 129.7 126.9 127.3 125.8 126.1 125.7 123.9 120.8 122.1 123.6 124 124 124.8 125.5 126 126.8 128.1 128.9 128.1 126.9 125.8 124.9 125 126.6 127.3 127.6 127.9 126.6 125.3 124.9 122.1 120.3 119.4 120.2 119.7 121.4 122 125.5 125.9 126.4 126.2 125.6 124.6 123.6 122.9 123.3
272.1 269.8 266 261.8 257.3 250.3 242.4 236.6 232.1 236.4 228.3 226.8 228.8 228.4 234 236.7 239.7 244.4 247.5 256.5 264.4 273.1 280.3 282 276.6 273.9 272.2 262.5 251.1 242.2 236.4 230.8 223 214.9 208.9 200 194 191.1 190.9 192.1 194.6 192.5 187 180.6 175.1 169.5 164.1 160.8 157.9 153.8 150 149.1 148.1 145.4 143.7 144.3 145.5 144.9 142.9 138.1 139.9 139.5 136.1 135.1 132.9 129.8 125.5 124.7 130.7 129.3 128.6 128 125.5 122.9 118.5 112.8 111.1 110.5 108.7 107.9 107.2 106.7 106 105.8 104.7 104.8 103.4 102.4 100.9 101.3 101.1 100.7 100.7 100.6 99.8 99.5 100.2 99.8 97.9 98.4 97.7 98.5 98.1 97.7 102.8 105.9 110.6 113 114.4 115.4 113.2 115.1 119.2 121.3 118.9 123 130.6 135.3 139 141.7 144.5 146.9 148.5 150 150.9 151.1 150.3 149.1 146.2 144.8 141.9 139.2 138.2 136 134.9 132.4 127.6 128.1 128 130.5 132.1 135.9 137.6 137.3 133.3 130 124.6 119.4 123.7 124.6 126.5 126.6 126.4 126.3 129.6 125.1 125.5 123.2 122.1 123.8 122.4 118.7 121.6 123.2 122.8 122.5 123.3 125 125.4 126.5 127.7 128.1 126.5 126.6 124.8 124.5 122.7 124.2 125.5 125.7 125.6 124.7 123.4 123.6 121.3 120.3 118.5 117.5 117.6 117.6 120.5 123.9 124.4 126.4 125.9 126.1 124.7 123.5 122.9 123
263.5 261.3 257.9 252.8 247.7 240.4 234.6 231.1 229 231.9 226.2 229.4 229.4 229.3 234.2 236.7 239.6 242.9 249 259.8 268.3 276.2 278.6 279.7 278.1 279.2 271.3 261.6 251.4 246.2 243.2 237.2 227.6 219 212.7 201.7 194.3 190.3 188.8 189.7 190 188.9 184.8 179.5 174.2 169.1 163.9 160.8 158.2 154.8 153.9 151.5 149.2 146.4 144.9 145 144.7 142.5 141.3 138.8 137.8 135.8 135 133.5 131.4 133.5 135.3 135.1 135.6 130.3 129.2 128.8 126.1 123.4 120.2 114.1 112.2 111 109 108.9 108.2 107.4 106.3 105.9 105.8 103.7 103.1 102.4 102.7 103.1 101.4 100.6 100.4 100.2 99.9 99.6 100.6 100.7 98.7 98.3 98.2 98.5 98.1 97.7 102.1 103.3 107.3 111.8 113.3 113.2 112.5 115.8 120.6 123.8 124.8 120.5 126.3 132.7 138.1 141.1 143.8 146.5 148.8 150.2 150.7 151.2 150.3 149.3 146.2 144.1 141.9 140 138.1 136.5 134.4 132.3 129.2 126.1 127.1 127.6 129.1 131.9 134.1 133.9 131.3 130.1 125.7 117.5 119.4 122 124.4 124.2 123.8 123.4 123.1 122.2 121.7 121.1 120.5 121.8 120.7 117.1 121.1 122 121.7 121.7 122.4 123.9 124 124.5 126.3 127.3 126.6 125.3 124 122.9 120.8 121.7 122.9 123.8 123.1 122.2 121.4 121.6 120.8 120.4 119.1 117.5 116 116.6 119.1 121.1 123.2 125.5 126 125 124.2 123.3 122.5 122.3
253.7 249.7 247.6 244.1 237.3 231.7 229.4 225.5 225.7 227.8 225.4 231.4 227.7 229.7 234.2 236.6 239.5 244.7 252.5 263.4 273.3 276.8 279.4 278.5 278.2 275.1 270.1 261.1 251.8 249.6 247.3 240.4 229.3 221.8 215.4 202.6 193.2 189.6 188.7 188.5 188.1 185.2 182.4 176.7 172.9 167.6 163.8 160.9 157.8 154.7 153.3 155.1 150.4 147.5 146.3 145.4 145.5 142.3 141.2 138.5 137.6 136.1 135.1 134.9 134.7 133.5 135.7 136 136.2 135.4 130.1 128.1 127 122.1 119.1 117.7 115.5 112.1 109.8 109.6 107.6 107.7 107.3 106.6 105.5 103.4 103.1 102.7 103 104.5 103 102.7 100.5 100.6 100.4 99.8 98.9 99 100.7 98.1 98.7 98.3 97.6 97.6 97.9 102.4 106.7 110.8 112 111.9 114.3 117.2 120.5 124.3 126.8 125.1 121.9 128.5 136.5 140.1 142.8 145.4 148 150.1 150.9 151.3 150.3 148.8 146.6 145.2 143.4 141.3 139.2 137.1 134.3 130.5 128.1 123.1 126.3 126.1 127.1 127.8 128.7 127.9 126.9 125.3 122.4 116.9 115.4 118.8 122 121.9 121.8 120.9 120.6 119.8 119.4 119.8 120.1 120 119.7 113.5 120.3 121.1 120.9 121 121.6 122.4 122.7 122.9 123.5 124.4 125.2 123.7 122.7 121.1 119.5 120.3 121.2 121.8 121.5 120.1 119.4 119.3 118.8 119.8 118.7 116.8 114.9 115.3 116.8 118.5 121.6 123.4 124.5 124.9 124.8 123.6 122.6 122.7
247.1 240.8 236.8 232.7 229.9 227.6 225.1 221.5 224 221.6 224.6 229.3 225.2 227.2 231.3 235.7 240.4 247.1 256.8 267.6 274.5 277 276.3 275.8 274.3 270.9 266.8 258.3 253 252.1 248.1 240.7 230 221 214 200.9 192.4 189.7 188.4 187.5 185 181.9 179.5 174.5 170.8 168.6 165.2 163.6 162.1 160.8 158.9 155.4 150.8 148.7 147.4 146.6 145.8 141.7 141.6 140.2 139.8 137.7 136.4 134.5 133.2 132.7 132.9 133.8 132.7 131.7 129.6 126.7 125.1 122 118.5 118.9 124.3 122.9 113.5 110.9 108.4 107.2 107.9 107.6 107.2 105.3 105 103.8 103.9 104.6 104.6 104.2 104.8 103.8 103 100.7 100.2 99.8 99.1 98.6 97.9 97.4 97.7 97.5 97.9 97.8 104.2 108.8 111.2 111.4 112.1 117.2 118.7 122.6 126.4 128.5 121.3 126.4 133.2 139.3 141.8 144.4 147 148.3 150.5 151.1 150.2 148.3 146.2 144.4 142.4 140 137.1 136.2 132.7 129.7 126.2 121.9 125.1 124.2 125 125.8 125.5 124.2 124.1 123.1 120.4 117 113.3 116.7 119.6 119.7 120.4 119.2 118.3 117.9 117.4 118.2 118.6 118.2 118.1 113.7 119.3 120.2 120.1 120.3 121.3 120.6 121.4 122.2 122.9 123 123.1 122.6 120.9 119.3 118.2 118.8 119.4 119.8 119.9 119 118.3 118.3 117.7 117.5 116.8 115.2 114.5 114.5 115.7 116.5 118.6 120.6 122.3 124.1 124.1 123.7 122.2 121.8
241.4 234.2 228.4 226.2 224 221.7 220.5 218.8 219.2 219.4 223.1 225 222.1 225.6 231.6 234.6 241.6 249.1 259.5 266.1 273.5 274.9 272.5 272.2 271.6 268.4 265.1 256.8 254.1 252.3 247.1 240.8 230.1 220.9 212.7 199.2 193 190.4 188.1 187.2 184.4 182 179.8 179.8 175.9 169.8 166.1 165.6 163.3 161.1 158.9 156.4 153.4 150.8 148.3 147.5 146.2 143.3 141.1 141 142 140.6 136.4 134.8 134 132 130.6 129.4 128.4 127.3 126.1 123.5 123.4 121.9 121.4 122.6 119.7 119.1 120.5 118.2 111.1 108.1 107.7 108.5 106.8 107.6 104.5 104 105.5 103.9 105.7 105.3 103.6 102.7 105.6 104.4 103 101 99 98.5 98.1 97.7 98.1 97.2 97.1 97.8 100.9 106.5 110.6 109.3 109.4 115.1 117.5 121.2 126.2 129.2 123.6 123.5 130.6 138.3 141.7 143.7 145.2 146.9 148.4 149.4 148.7 146.9 144.4 141.6 140.4 137.6 136.2 134.8 131.2 127.8 124.1 121.9 122.9 122.6 122.6 123.7 123.7 122.4 121.8 121 119.1 115.4 112.5 114.7 117.7 118.8 119 118.2 116.3 116.2 115.9 115.6 116.7 116.4 116.1 112.4 117.8 119.6 119.7 120.2 120 118.9 119.7 121.1 122.5 122.7 122.2 121 119.4 117.4 116.9 117.1 117.6 118.1 118.3 117.4 116.4 116.8 116 115.4 115.5 114.1 114 113.9 114.8 114 117.1 118.4 121.3 122.5 123.3 123.6 121.7 121
235.9 228 223.6 222.7 222.2 220.8 219.2 216.3 214.8 216.4 221.8 223.2 221.5 225.1 231 234.8 239.7 248 256.1 261.8 268.1 269.6 268.5 268.4 268.4 266.4 263.4 256.5 255.3 253.1 246.5 240.3 230.4 219.7 208.7 198.3 193.5 191.1 188.7 187.1 185.9 186.9 186.6 185.2 179.8 172.7 167.6 165.6 163.7 161.6 159.1 157.4 154.3 151 149.9 148.6 145.4 145.8 143.3 143.2 142.5 140.2 137.8 135.1 134.3 134.2 132.6 130.7 129.5 128.9 126.2 126.5 120.3 120.3 120.9 120.9 120.3 120.7 121.2 118.7 115.4 109.6 108.7 108.3 108.2 107.8 104.7 104.5 104.4 104.6 106 106.1 104.5 105.4 105.7 105 103 98.9 97.5 97.6 97.4 98 98.1 98 97.6 97.2 98.1 103.2 108.3 109 107.1 111 115.2 119 125.3 127.3 124.2 121.8 127.1 137.9 140.9 141.8 141.6 143.2 144.9 146.7 145 141.3 139.8 136.7 134.4 131.9 133 131.4 129.6 126.6 118.6 121.9 122.2 120.3 119.6 121.3 122.1 120.2 120 119.2 117.9 115 110.9 113.2 115.9 115.6 117.2 115 113.4 112.9 112.5 112.4 113.9 114.2 114.3 107.6 117.6 118.4 119.2 119.8 119.6 119 118.6 119.8 120.8 121.7 120.5 119.4 118.2 116.4 115.9 115.8 116 116.5 116.7 115.8 114.9 114.4 114.6 114.3 113.5 114 114.1 114.2 113.9 114.4 115.8 117.2 119.6 121.9 122.7 122.8 121.4 120.2
226 221.1 218 217.4 216.9 216.5 216.8 213.2 213.6 215.4 222.8 221.7 220.1 222.6 230 233.2 237.8 246 253.2 259.1 263.3 265.6 265.5 267.1 267 265.9 260.6 258 257 252.5 246.7 239.6 226.7 217 205.2 197.6 194.9 193.9 190.9 187.8 187.7 188.7 188.6 186.6 182 177.8 170.3 166.6 164.5 162.5 160.4 158.2 155 151.7 149.2 147 149.4 147.5 144.9 142 145.5 143.5 138.2 136.7 135.5 135.7 130.7 130.9 130.4 130.2 125.2 126.6 120.4 120.3 120.6 120.5 120.6 120.7 120.7 119.8 118.6 115.6 108.6 107.6 107.7 107.8 105.4 105.2 105 105.9 106.3 106.3 105.8 105.2 105.5 105.2 103.9 100.3 97.9 97.3 97.3 98.4 98.4 98 98.1 97.7 97 100.3 105.6 108 105.2 107.8 112 116.6 121.2 123.1 121.5 120.2 125.2 129.5 136.8 136.7 135.7 137.1 139 141.3 137.8 134.9 132.6 130.3 127.7 128.2 130.1 126 123 121.1 112.8 121 119.8 117.5 116.8 119.1 119 117.4 117 116.8 115.1 112.8 110.4 110.1 112.6 113.8 114.8 113.7 112 110.6 109 109.9 111.4 111.7 112 107.6 115.2 116.1 117.3 118.5 119.4 119 117.8 118.1 120 120.5 120.1 118.5 117 115.4 114.7 114.6 114.8 115 115.2 114.5 113.7 113.7 114.2 113.6 112.4 113.4 114.4 114.5 113.9 114.5 115.3 116.6 118.3 120.8 122.3 121.9 120.8 119.4
212.7 212.6 210.3 210.5 210.1 209.8 209.3 210.5 212.3 214.2 215.9 217.3 218.3 220.5 225 229.3 236.1 241.7 249.3 256.6 259.8 262 261.5 262.6 264.6 262.1 256.4 255 254.3 249.7 244.5 237 226.3 211.7 201.6 200.5 198 196.6 193.7 189.8 188.2 188.2 188.5 187.6 182.6 180 173.6 168.7 165.5 163.4 161.9 159 155.1 152.1 150.2 147.8 146.8 145.7 146.7 146.8 145.4 144.1 141.7 138.8 139 136.7 135.9 132.8 131.8 131.5 127.8 130.1 126.9 125.5 120.1 120.5 120.7 120.6 120.6 120.6 119.3 118.8 109.8 109.1 108.6 107.2 106.1 105.8 105.9 107 106.5 105.8 105.9 105.4 105.1 105 104 101.7 99.9 97.8 97.7 96.9 97.7 98 97.9 97.3 97 97.9 100.6 104.6 104.9 104.6 107.5 113.8 116.7 117.9 116.9 115.8 118.7 126.6 128.9 128.7 128.5 128.3 129 132.1 129.2 126.6 125.2 121.1 118.3 119.4 122.3 122.5 118.2 117.6 112.1 119.7 119.1 116.3 114.8 117.4 117.6 116.7 114.5 111.3 109.2 108.8 106.6 106.6 111 113.1 113.8 112.5 109.6 107.8 104.7 108.8 109.2 108.8 108.6 108.5 113.5 114.7 117.4 117 116.1 117.1 117.2 116.9 118.5 118.9 118.6 118.4 117 115.4 114 113.5 113.8 114 114.1 113.5 112.4 112 112 111.4 111.4 112.5 113.5 113.9 113.6 114.1 115.2 116.3 117.8 119.6 121.2 120.9 119.8 118.8
193.3 196 199 203.3 211.5 213.4 214 214.4 215 215.9 218.4 224 222.6 221.2 223.1 224.6 227.7 233.7 239.9 244.6 249 252.2 251 253.8 258.6 258 252.6 252.4 252.4 246.5 240.2 234.6 227.3 210.5 204.3 204.4 202.5 202.2 200.7 191.4 190.5 192.7 189 185.6 183.8 180.7 177.8 172.5 167.6 164.2 162.2 158.8 155.4 152.1 150.1 148.8 147.6 146.2 144 145.6 145.8 144.3 142.3 141 140.3 139.5 138 136.4 135.4 134.8 133.1 130.2 128.6 127.8 126.6 123.2 122.1 121.3 121 121.2 118.3 119 114.4 110 109.7 108 106.7 106.9 109.9 105.2 105.2 104.9 104.9 105 105.1 105.3 103.8 101.9 101.5 100.2 98.6 97.4 98.2 97.5 97.6 96.9 96.5 96.1 98.6 101.1 101.6 101.5 104.4 108.2 111.8 111.9 111 109.8 112.2 114.4 116.8 117.4 117.3 117.8 118.7 119 118.4 115.9 113.8 111.6 109.5 109.9 111.8 112.3 111.9 112.2 112.6 115.4 116.3 115.1 112.1 114.5 115.4 116.6 114.6 112 110.7 108.2 106.5 104 109.7 111.3 111.1 109.4 106.7 103.5 103.6 106 105.9 106.9 103.6 112.2 113.6 115.2 115.7 114.9 115.2 115.8 116.3 116.3 117.9 117.9 117.3 116.9 116.6 114.4 112.9 112.6 112.8 113 112.8 111.9 111.3 110.8 110.9 110.3 110.6 111.6 112.8 112.8 113.2 114 115.1 116.2 117.2 118.3 119 119.5 118.7 118
201.1 205.5 210 216.6 213.7 222.4 222.9 221.3 219.5 220 223.4 227.2 227.5 225.9 226.7 225.1 226 228.6 232.1 233.4 237.6 239 242.3 245.2 249.4 250.6 247.9 249.5 253.3 245.4 236.1 227.2 218.9 211 209.5 211.4 210.4 209.3 204.8 197 187.8 189.9 189 186.1 184 183.3 180.5 174.7 169.2 165.2 161.7 158.8 155.9 153.2 151.2 149.7 148.4 146.9 146.5 145.6 144.6 143.4 142.5 142.7 140.9 140.3 141.1 138.1 137 135.6 134.5 134.1 132.5 131.3 130.5 128.5 126.6 126.4 124 122.1 120.9 119.9 118.5 116.4 117.5 116.2 109.2 107.4 106.1 105.3 105.2 105 104.5 105.1 105.4 105.7 104 102.1 101.7 100.5 99 97.7 98.2 97.1 97.6 97.2 96.6 96.2 96.2 97.4 98.5 98.9 101 103.3 104.1 105.6 105.5 104.9 106.5 107.4 107.5 107.6 108.5 108.4 109.4 109.1 107.1 105.9 105.5 104.3 103.8 103.2 103.9 106.3 106 105.2 107.9 109.2 111 110.7 109.9 110.3 114.1 115 114.1 113.4 111.9 111.5 108.7 103.8 106.4 108.4 108.1 106.5 103.2 101 100.6 100.8 102.3 103.9 101.5 110 113.2 113.4 113.1 113.6 115 115.1 115.4 116.1 117 117.8 116.6 116.9 116.1 114.1 112.1 111.6 111.8 112 111.4 110.9 110.3 110.2 109.7 109.4 109.7 111.2 112.1 112.2 114.5 113.5 114.9 116.5 117.4 117.4 118.5 118 117.9 117.5
216 221.3 228.8 218.9 212.1 230.1 232.6 226.4 223.3 223 226.5 228.7 230.7 232 231.2 226.5 225.8 228.3 231.4 234.3 236.8 236.9 238.7 241.8 242.8 244.5 245.6 248.2 249.8 247.5 231.3 221.3 214.1 213.2 216.8 217.4 216.9 216.3 215.3 213.9 200.9 189.1 185.6 183.2 182.2 181.9 180 175.2 171.3 166.3 163.3 160.4 157.4 155 153 150.6 149.7 148 147 146 145.1 144 142.8 143.1 142.2 141.6 141.3 140.4 138.9 137.5 138 138 136 134.7 133.7 132.1 131.2 130.3 128.3 124.6 121.2 118 114.3 112 110.4 109.2 108.2 107.3 106.8 106.1 105.3 105 104.5 104.2 105.2 104.6 103 102.1 101.9 100.7 99.1 97.9 97.9 98 97.6 97.4 97.1 96.8 97.2 95.7 96.7 97.4 97.6 99 99.5 100.5 101.6 102.9 103.8 102.9 102.4 102.3 102.9 101.2 101.7 100.6 100.9 101.4 101.6 100.8 100.5 101.7 101.6 102.3 103 101.7 104.4 103.9 104.3 105.4 105.7 106.4 108.7 108.6 109.3 109.1 108.9 109.5 106.3 103.6 100.2 100.7 104.2 101.3 99.4 98.2 97 96.8 98.5 97.6 103.3 107.8 110.5 111.5 111.3 112.2 112.8 113.6 114 114.9 115.5 116.9 116.7 116.2 114.1 112.2 111.6 110.6 110.8 110.8 110.5 109.9 109.4 109.6 109.2 109.2 109.1 110.7 111.7 110.9 112.6 115.1 116.3 118 117.6 117.5 118.9 118.3 118.1 117.2
222.7 229.5 233.4 236.4 236.8 237.6 234 229.8 228.3 229 231.9 230.9 232.1 233 231.9 228.5 228.3 231.7 235.4 247.1 245.4 247.3 241 240.5 241.3 242.9 246.4 246.9 244.6 237.4 224.3 219.3 219.2 220.8 221.5 221.7 221.9 220.9 221.9 224.8 223.5 208.1 197 188.9 185.5 182.9 179 175.7 173.2 168 164.6 161.7 159.4 157.6 154.9 155.5 149.9 149 147.9 146.6 145.5 144.5 143.3 142.7 142.3 141.9 140.9 140.1 138.9 138.3 140.2 140.3 138.4 137.7 136.3 133.9 132.8 130.7 129.3 126.5 123.5 120.2 116.6 114.4 112.3 110.3 108.6 107.9 107.5 107 106.1 105 104.5 104 103.9 104.7 103 102 101.7 100.7 99.1 98.6 98.5 97.7 97.9 97.7 97.5 97.2 96.9 97.2 96.8 96 96.1 96.8 97.3 97.7 98.3 98.7 98.5 98.9 99 99 98.8 98.7 98.2 98.2 97.5 98.8 99 98.8 98.8 99.1 99.7 99.7 100.6 101.1 102 102.5 102 102.7 103 103.1 103.7 104.1 106.2 105.3 105.2 105.2 104.5 103.5 102.5 98.5 100.1 99.2 98.6 96.8 95.5 93.8 94.6 98.5 102.7 105.4 106.5 108.1 109.4 111.5 111.9 112.6 113.4 114.2 114.2 114.1 114.4 114.4 112.6 111.3 110.8 110.3 109.7 109.7 109.6 109 108.7 109 110.4 110.6 108.5 110.1 110.3 110.9 113.1 115.7 117.8 118.4 117.6 117.7 119 119 118.5 116.8
226.9 234 235.5 238.7 239 238.9 237.5 235.8 234.8 233.1 232.3 232.9 234.2 233 231.6 229.9 231.3 235.1 242.7 253.1 247.1 251.7 243.6 241.7 240.9 240.2 241.4 240.8 237 231.4 226.4 229 229.6 228.7 228.1 224.7 225 225.5 227.9 231.9 233.5 227.4 208.9 198.2 188.3 185 181.4 176.2 173.7 169.3 166.4 164.1 162.3 159.1 155.2 154.9 151.6 150.4 149.2 147.9 146.6 145.3 144.3 143.5 142.8 142.1 140.5 140.9 142.3 142.9 143 140.8 139.5 137.7 136.6 135 134 132.1 131.1 129 126.1 122.9 119.4 115.2 111.5 111.1 109.3 108.5 108.1 107.7 106.6 105.1 104.5 104 103.8 103.8 103.2 102.1 101.4 101 99.2 98.7 97.9 98.4 98.2 98 97.8 97.5 97.4 98.6 97.1 96.5 96.2 95.5 94.9 96.6 94.8 96.9 96.5 96.5 96.1 96.2 96.6 96.1 95.2 94.8 94.8 94.8 95.3 95.4 94.6 95 95.8 98 98.4 98.8 98.6 100.6 100.6 99.7 100.5 100.6 101.8 101.4 102.5 102.5 102.1 102.6 102.3 102.4 102.1 100.4 96 95.8 95.6 95.2 94.1 91.7 93.6 96.8 100.8 102.7 103.5 105.1 106.5 109 110.7 111.7 110.4 112.4 111.5 112.7 113.4 112.9 111.2 110.4 109.9 109.4 108.9 108.6 109.6 108.7 108.5 108.6 110.3 110.7 108.1 108.9 109.1 110.6 113.1 115.6 118.1 119 119.1 118.3 118.8 119 118.3 116.6
225.5 233.3 235.4 237.9 239.5 239.8 240.1 238.9 237 234.2 234.1 235.2 234.8 233.9 232.4 232.6 234.5 239.9 252.7 253.8 249.2 251.7 246.6 243.1 241.1 239.6 238.1 235.6 234.7 237.6 240.4 247 247.6 244.1 236.6 234.3 230.4 231.6 234.3 238.4 239.7 236 226.7 207.9 197.4 188.5 184 177.8 173.6 169.8 169 167.6 164.9 160.9 157.7 156.5 154 151.7 150.4 149.1 147.9 147.1 145.9 144.7 143.9 143.1 142.8 142 144.3 145.9 145.6 142.6 139.6 137.8 136.1 135.8 135.6 134.4 132.8 131.7 129.1 124.9 120.8 116.2 112.8 111.5 110 109.2 108.7 107.6 107 105.5 104.5 104.2 104.2 103.8 103.3 102.3 101.3 101.3 99.2 99 98.9 98.6 98.4 98.1 97.9 97.6 97.5 97.3 99.4 96.4 96.2 96.2 96.2 95.7 95.9 95.4 96.4 96.3 95 95.4 95.9 96.2 94.9 94.8 94.4 94.2 94.1 94.3 94.2 94.3 93.8 94.8 96 95.5 94.9 95.6 95.8 95.5 97 99.3 100.7 100.1 100.1 100.3 100.8 101.1 101.3 101.2 99.8 99.5 96.9 95.3 92 92.1 91.7 90.7 93.3 95 98.5 101 101.6 103 105 107 109.3 110.1 110.6 111 109.9 111 111.1 110.6 110 109.3 108.5 107.8 108.4 108.6 108.6 108 107.6 107.1 108.2 108.6 107.9 107.9 109.1 110.7 112.6 115.9 118 119.1 119 119.4 118.5 117.5 117.1 116.6
221 229.3 231.4 235.6 238.5 240.2 240.8 239.9 237.8 236.9 235.3 234.3 233.8 233.4 233.1 233.1 234.4 244 255.9 254.3 250.8 254.3 250.7 246.7 244.6 242.9 241.1 242.5 246.8 248 256.9 259.9 260.5 256.8 249.3 246.2 237.9 238.8 242.1 244.1 244.8 239.4 233.1 226.5 205 197.7 186.8 179.3 172.7 171.9 169 170.6 167.3 163 159.7 158.2 155.6 153.5 151.7 150.5 149.3 148.9 148.5 146.2 145.5 146.6 144.9 145.2 146.6 146.8 146.3 143.8 141.8 140 137.8 136.1 136 135.7 134.1 130.9 127.6 123 120.5 116.5 113.8 112.5 110.7 109.8 108.7 107.4 107.2 105.8 104.5 104.6 104 102.9 103.2 101.2 100.3 100.3 99.9 99.3 98.8 98.4 98.2 98 97.9 97.7 97.5 97.4 98 97.8 96.9 96.9 96.8 96 95.5 95.2 95.2 95.4 95.9 96.8 97.4 97.4 95.4 95.3 95.9 95.3 94.6 94.4 95.7 95 94 94.9 94.9 94.8 94.6 94.2 92.6 93.3 93 95.8 97.8 98.5 99.1 97.5 96.9 97.5 98 96.5 97.4 93.9 95.2 92.9 90.5 89.6 89.9 90.4 92.7 94 98.3 98.9 99.3 101.4 105.4 106.3 107.4 108.2 109 109.5 108.6 109.6 108.4 108 107.6 106.9 107.4 107.8 108.3 108.1 107.4 106.6 106.1 106 107.7 110 108.2 107.2 108.8 110.4 112.3 115.9 118.1 119.4 119 118.9 118.4 117.9 115.6 116.3
217.6 224.5 226.8 232.5 236.4 239.9 241 240.1 238.5 236.9 235.3 234 232.9 232.5 232.1 233.1 234.8 245 257.5 256.3 253.4 255.9 253.8 252.1 257.1 261.3 261.5 262.4 263.8 264.2 264.3 271.4 273 267.8 259.2 253.5 244.1 243.7 246.1 247.7 244.6 240 235.7 229.3 223.7 202.3 191.4 184.4 178 173.5 170.9 170.6 171.2 162.8 161.4 159.4 156.6 155.7 155.1 152.2 150.9 150.2 150.2 149.2 148.6 149 149 148.1 147.1 145.1 145.1 143.2 139.4 138.3 137.7 135.6 134.4 133.1 129.8 127.2 122.9 122.8 120.7 117.7 115.2 114.2 111.8 110 108.7 107.7 106.9 105.6 104.7 104.9 103.7 102.6 101.7 101.7 100.2 100 100.2 99.6 98.7 98.4 98.3 98.1 97.9 97.8 97.9 98 97.9 99 97.5 97.5 97.3 96.1 95.8 95.6 96 96.5 97.4 97 96.3 96.2 96.2 95.5 94.7 94.5 94.6 94.6 94.7 93.9 93.8 93.1 93.4 93.7 93.8 94.3 92.3 91.5 91.5 93.3 93.5 95.9 92.3 91.2 95.3 95.2 93.9 95.8 92.8 93.8 91.6 93.3 87.9 88 87.3 89 89.1 91 94.5 95.6 96.6 98.9 102.6 104.4 105.5 106.5 107.2 107.9 107.9 108 106.9 105.9 105.5 106.5 107.4 107.5 107.5 106.5 105.8 105.8 106 106 106.5 107.2 108.7 107.5 108.3 110.2 111.5 115.2 116.4 118.4 118.6 117.3 116.6 115.9 114.7 115.5
213.4 218.4 223.5 229.2 234.1 238.6 240.5 239.7 238.1 236.6 235.8 234.1 232.8 232.1 232.2 233.6 235.2 243.4 256.2 260.1 257.4 258 259.4 259.8 270.2 273.3 276.5 277.3 283.3 287.3 285.1 285.2 282.5 272.3 266.7 259.9 252.5 249.3 248.3 246.9 244 239.8 235.8 230.6 224.6 218.3 196.7 188.5 183.9 177.4 173.2 170.2 170.4 166.4 163.1 160.7 158.7 157.8 156.9 154.6 152.1 151 150.1 148.7 149.6 150.4 149.7 149.9 147.5 142.9 140.2 136.3 133.7 132.4 132.1 130.4 128.1 126.5 124.7 121.8 121.7 119.1 118 116.4 116.3 115.5 114.3 111.3 108.7 107.8 106.6 105.5 104.8 104.6 103.4 102.3 101.8 101.6 101.1 99.6 100.4 100.2 98.9 98.6 98.3 98.2 98.3 98.4 98.5 98.5 98.2 97.8 98.6 98.5 97.2 96.5 96.3 96.2 96.6 97.6 96.6 96.3 95.8 95.1 94.9 94.5 94.3 94.1 93.7 93.7 93.9 94 93.5 93 93 93 92.9 93.9 95.1 96.2 91.6 91.5 90.7 91.2 90.4 89.9 89.7 92.7 93.5 94.7 93.9 95.3 97.1 91 90.6 90 86.8 87.6 88.4 89.3 90.1 95.9 98.9 99.1 103.4 102.6 104.8 105.1 106.1 106.5 106.8 106.8 106 104.1 104.6 104.7 106.8 107 105.6 105.5 105.4 106.2 106 105.9 106.3 107 108.4 107.9 108.6 109.9 111.1 113.2 115.1 116.8 117.5 116.4 114.8 114.9 114.2 114.5
209.8 216.6 219.9 223.8 226.6 233.3 237.7 239 239.1 239.1 237.1 235.2 233.4 232.6 233.5 234.5 236.4 244.2 254.4 264.8 263.2 262.9 264.9 272.1 285.9 291.5 294.3 294.5 298.6 289.8 288.4 288.6 284.5 275.1 270.8 263.7 255.4 250.1 248.2 246.1 243.3 239.7 236 230.6 225.7 216 205.1 192.4 188 182.6 176.2 170.4 169.7 167.2 165.3 161.8 160.3 158.7 157.5 155.8 153.3 150.7 149.5 148.6 147.8 148.6 148.8 145.8 140.5 137.8 136.9 136.7 137.8 135.3 132.6 130.3 128 127.1 127.7 127.3 124.1 123.1 123.3 122.1 121.7 121 118 113.5 109.4 107.6 106.4 105.7 105 104.3 103.1 102.3 101.8 101.5 101.2 100.4 100.1 100.8 99.1 99 98.9 98.8 98.9 98.9 99 98.8 98.4 98.1 98 98.4 97.2 97.2 97.2 97.3 97 96.8 95.6 95.3 95 94.7 94.3 94 93.9 93.9 93.7 93.5 93.3 93.3 93.1 93 92.9 92.9 92.8 92.5 92.8 93.6 92.6 95.1 95.9 90.1 89.9 91.3 91.9 91 92 93.7 94.8 98.3 91.9 96.7 91.8 89.2 87 86.4 89.2 87.8 88.2 91.2 94.9 98.1 101.7 102.2 102.5 103.9 104.1 105.2 106.1 105.7 105 104.2 102.1 102.1 103.6 104.6 105.1 105.1 105.1 106.3 105.9 105.8 105.6 106.9 107.6 107.4 108.4 109.6 110.5 111.8 113.1 114.1 114.8 114.6 114 112.9 111.9 112.9
215.1 216.4 218.5 219.1 220.9 224 230.1 237 240.4 239.1 238.5 236.7 235.2 237.4 238.5 238.3 240.4 249.7 255.8 268.3 268 271.8 279.5 291 296.8 298 300.4 300.1 297.5 296.3 290.9 292.4 286 277.7 271.8 266 256.7 252.6 248.6 246.2 244.2 241.1 237.5 232.9 228 221.6 212.7 198.5 193.2 187.7 180.9 174.9 171.1 169 166.3 163.6 160.4 157.9 156.6 154.5 152.4 150.9 150 148.5 146.4 144.8 144.2 142.7 141.4 140.4 142.1 143.6 142.9 142.1 137.6 133.4 131.6 133.3 134.2 130.6 127.8 128.9 127.9 126.3 126 128.1 123.9 118 113.9 111 106.6 105.8 105.2 104 102.8 102.3 101.8 101.5 100.9 100.4 100.2 100.6 100.9 99.7 99.6 99.6 99.7 99.7 99.6 99 98.7 98.5 98.5 98.3 98 98.4 98.6 97.3 96.9 96.1 95.6 95.3 95.1 94.8 94.4 94.4 94.8 94.2 94 93.4 93.2 93.1 92.9 92.9 92.8 92.8 92.7 92.4 92.2 92 91.5 91 91.1 91.5 90.5 90.2 92.7 93.3 91.4 93 89 91.7 88.6 91.6 86 85.4 86.2 86 85.9 86.2 87.2 88.6 89.5 93.6 99.8 96.8 100.7 102.3 103.8 104.6 105.1 104.6 103.7 101.8 101.9 100.6 101.7 103.9 104.8 104.8 106.1 106.2 105.8 105.7 105.5 106.7 106.5 107.4 110.9 110.6 109.7 111 112 113 112.8 112.9 113.1 111.3 109.7 110.6
220.3 221.5 226.8 222 221.5 223.5 225.8 233.1 236.1 236 237.4 237.4 240.3 249.9 246 240.8 246.9 254.9 258.7 275.9 293.3 298.8 290.2 303.2 305.7 304 304.7 303.2 300.5 297.4 299.4 292.2 285.6 279 273.1 267 259.9 255.7 251.8 248.9 247.9 245.7 242 236.5 228.9 223.2 217.9 207.6 199.3 192.9 187.2 178.8 174.4 170.6 167.3 165.4 162.4 159.1 156.7 154.8 153.4 152.1 150.4 149.5 148.2 145.6 144.5 145.4 146 144.2 145.6 146.1 145.2 146.2 144.3 141.1 141.1 142.4 138.4 132.9 131.3 131.7 129.7 126.6 130.2 129.9 126.9 123.8 118.8 114.6 110.1 106.6 105.3 103.7 102.9 102.4 101.8 101.4 101 100.8 100.6 100.8 101.2 101.2 101.2 101.5 100.9 100.5 100.3 99.8 99.1 99.4 99.4 99.3 98.6 97.9 97.9 97.1 96.6 96.1 95.7 95.4 95.1 94.8 94.5 94.4 94.6 93.7 94.2 93.3 93.1 93.2 93.3 92.8 92.7 92.7 92.6 92.3 92.1 91.8 91.9 91.4 90.8 91.1 93.8 92.8 91.8 93.1 89.4 89.2 89.2 87.5 88.2 87.5 85.1 84.7 85 85.3 85.6 85.9 86.5 86.8 87.7 89.3 90.9 90 98.6 101.2 102.6 104 103.9 101.2 100.8 99.5 99.7 102.2 101.5 103.2 104.4 104.8 106.6 106.2 105.8 105.6 106.7 105.2 105.7 106 114.2 116.2 109.6 110.2 111.2 112 111.5 112.1 110.6 109.5 108.3 109.6
227.6 228.5 225.6 223.8 222.5 222.8 225.8 228.6 233.6 233.7 235 236.6 240.5 244.6 245.6 241.6 248.3 254.7 265.8 295.5 310.8 316.3 314.7 314.7 310.6 309.7 307.7 305.8 301.9 298.6 303.6 292.4 284.8 278 271.3 267.1 261.4 257.4 254.6 253.2 251.6 248.7 243.2 236.4 229.8 224.3 220.9 215.8 205 199.7 191.5 184.9 177.6 173.2 170.8 166.8 164.4 161 158.6 156.9 154.7 152.7 150.8 150.6 149.9 147.3 145.9 149.2 149.6 149.8 148.7 147.6 146.6 145.9 145.7 145.4 143.2 142.5 137.7 134.8 135.9 134 131.8 133.1 133.8 134.2 128.7 126.3 122.2 117.8 113.2 109.1 106.1 104.6 102.8 102.3 101.8 101.5 101.4 101.2 101 101.1 101.4 101.3 101.4 101.5 101.5 101.2 100.4 100.7 99.5 100 99.6 99.6 98.9 97.9 97.7 97.2 97.7 97.3 96.1 95.4 95.1 94.9 94.6 94.7 94.3 94 93.7 94.6 93.5 93.7 93.3 92.9 92.6 92.5 92.4 92.2 92 91.7 91.9 91.9 91.5 92.1 91.6 93.6 96.1 93.8 94.6 94.3 92.6 90.6 91.9 89.4 85 84.7 84.7 85.2 85.7 86.2 86.7 87.7 89.8 92 92.8 93.5 91.4 97.7 100.8 103.7 102.2 99.1 98.8 98 98 97.3 102.9 102.1 101.9 106.5 110.4 106.1 105.8 105.8 104.9 106.7 108 106.6 106.6 108.6 109.3 110.8 111 111.4 110.9 110.1 109.1 108.5 107.5 108.5
232.1 232.8 227 225.2 223.7 220.2 226.2 229 232.3 234.2 235.3 238.1 241.1 242.7 242.5 243.2 249.7 258 278.3 303.1 314.9 319.3 321.7 321.4 316 315.4 312.3 305.6 302.1 306.7 306.4 294.7 286 279 271.7 267.3 262.9 259.9 257.7 256 253.8 248.9 242.8 236.5 232.8 228.1 225.6 217.4 208.3 199 192.4 186.1 179.7 175.5 171.1 167.5 164.3 161.8 160.4 158.7 155.7 153 151.4 150.6 150.3 148.3 147.5 149.4 150.4 149.3 148.9 148.2 147.8 146.8 146.8 146.1 143.9 140.9 139.7 140.2 138.6 137.3 135.3 137.4 138.3 139 131.9 129.4 125.5 120.8 116.1 112.1 108.6 105.8 102.7 102.4 102 101.8 101.7 101.6 101.4 101.4 101.5 101.5 101.5 101.6 102.1 101 100.9 100.2 99.9 100.2 99.1 98.7 98.5 97.5 98.1 97.8 97.2 97.8 96.2 96.5 95.3 96.5 95.8 94.7 94.3 94.1 93.8 94.9 93.6 94.2 93.2 93 92.6 92.4 92.3 92.1 91.7 91.7 91.8 92.1 92.5 92.6 92.7 94.9 95.2 94.4 95.8 90.5 96.8 100.2 92.1 92.3 84.7 84.4 84.3 84.9 85.6 86.3 86.7 86 88 93.3 98.3 100.4 97.9 95.6 92.9 100.9 98.8 99.2 98.4 95.9 95.1 93.8 95.4 98.5 98.7 105.9 121 119.8 112.7 106.3 105.9 108.2 107.3 106.9 107.9 108.9 108.9 110.9 110.7 111 109.8 108.7 107.7 107.3 106.4 106.7
237 237.5 235 232.2 230 233.4 237.5 238.9 238 237.6 238.5 239.2 240.8 241.8 243.6 245.3 250.6 260.7 280.3 302 311.8 319 324.6 326.8 321.2 322.4 316.5 305 297.9 316.7 308.7 296.5 284.1 277.9 272.6 268 264 260.2 258.5 256.2 253.2 249 242.4 235.8 234.1 231.5 228.5 221.2 214.1 205.1 194.5 189.2 181.8 178.5 173.9 169.5 165.4 163.3 161.8 160.1 158.1 154.5 152.6 151.6 150.7 149.4 149.2 149.5 150 150.4 150.2 149.5 148.7 147.6 147.5 145.8 143.6 141.6 144 143.4 139.6 137.1 137.6 141.7 141 141 140.7 133.5 128.8 123.7 119.2 115 111.9 108.9 105.9 103.7 102.7 102.1 102 101.9 101.7 101.6 101.8 101.9 102.1 102.2 102.9 101.4 101.3 100.6 100.3 99.8 99.6 99.5 99.4 98.1 97.6 97.4 97.3 97 98.2 97.1 96.7 96.5 95.6 94.8 94.4 94 93.8 94.2 94.4 93.4 93.3 92.9 92.8 92.4 92.2 91.9 91.6 91.6 91.7 91.8 92.9 91.6 92.2 93.6 98.3 91 94.8 96.8 99.4 100.2 92.2 93 85.4 84.2 84.2 84.8 85.6 86 86.1 85.9 94.2 96.5 96.9 101.2 103.6 101.7 96.2 92 93.6 94.3 96.4 95.5 94 94.6 95.4 95.9 97.6 102.8 118.8 110.8 101.1 104.4 107 107.5 107.4 108.4 109 109.3 109.6 111.1 111.1 110.3 108.2 107.2 106.2 105.6 104.7 106.2
242 244.4 248.1 253.6 255.1 256.8 256.6 256.1 259.2 256.7 251.8 243.2 242.8 243.4 244.7 246.1 251 258.7 277.2 296.6 313.6 321.2 328.4 331.4 327.6 325.7 320.7 320.3 317.8 319 311.6 296 284.2 278.9 272.9 268.7 264.7 260.8 258.6 257.4 256.8 253.6 243.4 237.8 236.2 233.9 229.3 224.6 218.6 211.4 200.5 192.1 185.3 182.1 177.4 172.9 169.2 165 163.1 161.4 159.9 157.2 154.5 153.6 151.3 150.6 149.8 149.4 149.5 150 150.6 150.3 148.9 148.1 147 145.2 143.4 143.5 145.5 144.7 140.9 137.8 140.1 142 139.4 141.8 141.7 135.7 130.7 125.8 121.2 117.7 114.9 113.1 109.8 106.2 104.4 103.3 102.5 102.3 102.2 102.4 102.4 102.3 103.5 103.7 101 101.5 101.4 101 100.5 99.9 99.6 99.4 99.8 99.1 98 97.8 98.2 98.3 98.6 97.6 97.1 97.3 96.5 95.6 95.2 94 94.1 93.8 94 94.2 93.5 94.7 92.6 92.4 92.1 91.7 91.5 91.5 92.1 93.4 92.9 91.7 90.1 91.9 90.2 90 98.1 96.4 99.1 99.2 96.1 91.9 91.3 84.2 84.2 84.8 85.2 85.4 85.5 85.7 93.5 97 98.2 99.4 100.8 102.6 102.1 99.8 97.9 101.4 102.8 103.9 103.1 100.9 98.7 97.5 96.4 99.3 103.5 99.4 101.2 105.9 105.7 107.2 108.7 108.6 108.6 108.4 108.3 112 110.8 109.4 107.6 106.8 106.3 104.7 106.1 104.6
248.5 252.6 260 268.8 267.7 266.3 266.7 259.9 259.1 259.7 259 256.7 246.4 247.7 247.2 248 251.4 257.8 270.2 286.9 307.6 318.3 328.3 333.9 329.6 325.7 324.1 323.4 318.9 319.3 311.5 296.2 284 275.7 272.3 267.7 264.2 262 260.1 259.3 259.1 256.3 247.9 239.8 238.8 236.6 232.9 227.4 222.4 217.7 206.9 196.5 188.4 183.9 178.3 174.8 172.6 168.2 164.2 162.1 159.7 156.9 155.2 153.5 151.7 150.8 150.2 149.9 149.5 149.6 150.3 150.2 148.3 148.3 146.4 144.6 143.8 144.8 146.7 143.7 139.6 141.2 142.3 143.4 140.9 141.8 141.9 136.8 132 127.7 123.4 120.3 117.4 115.6 113.7 110.9 107.5 105.3 103.8 102.8 102.7 103.1 103.5 103.3 103.4 103 103 102.4 101.8 101 100.6 101.1 101.4 100.6 101.1 100.5 100.1 101.7 101.9 101.8 103.1 103.7 104.8 102.7 100.5 98 96.7 96.2 96.3 93.5 93.7 93.4 93.3 93.1 93 93.2 92.1 92.2 92 92.4 93.8 95.8 95.3 93.4 89.4 90.4 91.2 92.8 97.9 98.5 98.3 97.8 96.6 90 86.5 85.6 85.2 85.2 85.9 85.1 84.9 84.7 85.1 88.1 92.3 92.5 95.5 99.7 101.1 100.5 100.6 101.2 103.5 104 104.3 103.4 102.8 101.2 100.9 98.1 97.9 99.4 101 102.1 106.4 106.9 106.9 107.2 107.9 108.6 109.2 111.8 111 109.6 107.8 107.2 106.1 105.1 103.3 103.2
256.5 262.3 271 274.5 274.4 275.7 266.2 244 233.8 259.2 260.3 257.1 250.7 254 252.9 249.9 252.6 257.6 265 277.4 294.2 309.9 320.9 325.7 326.3 323.6 330.4 324.3 313.8 316.9 308.6 296.5 283.6 275.3 270.1 267.9 265.7 263.1 261.7 261.2 260.9 258.6 251.9 242.1 241.2 239.7 236.8 232.2 226.4 220.2 211 197.5 190.1 186.2 181 174.4 171.2 167.5 164.5 162.2 159.6 158.2 156.4 154.4 151.9 151 150.7 150.3 150 149.6 150.3 148.8 147.6 148 145.8 145.3 145.4 145 145 142.3 139.5 144.6 143.6 144.3 142.8 142.1 140.8 136.3 132.8 128.7 125 121.9 119.2 117.4 115.3 113.5 110.5 108 106.1 104.2 104 104 104.5 104.1 104 103.6 103.5 103.1 103.6 104.2 105.1 105.6 105.7 104.7 105 105.3 105.3 106.9 106.7 105.3 107.5 108 109.1 107.4 104.7 103.5 102.5 100.8 101 96.8 96.5 93.1 94.1 93.1 92.8 92.8 93.3 93.7 93.1 92.5 92.5 95.5 95.5 95 92.4 90.4 91 91.4 95.4 98.9 97.8 96.6 98 96.2 89.5 85.1 85 85.3 86.4 88.3 87.1 84.6 84.7 86.8 90.6 93 93.2 95.9 96.1 95.9 97.9 99.3 99 98.9 99.7 101.4 102.6 103.2 102.9 101.7 100.6 100.1 101.2 100.8 103.3 104.9 106.2 106.9 107.7 108.4 109.1 110.8 110.2 109.5 108.7 107.2 105.9 105.1 102.2 102.8
263.4 272 279.2 281.6 282 275.3 262.8 228.2 227.1 237.6 269.5 261.9 259.5 260.2 256 252.5 253.7 258.7 264.9 272.1 283.5 299 311 316.7 318.6 322.2 332.3 328.7 324.1 317.6 309.5 299.8 286.7 276.2 269.5 266.9 265.5 264.2 263.8 262.8 262.3 259.7 253.8 247.4 244.3 242.8 240.9 235.1 229.5 222.2 212.9 199.5 189.2 186.9 179.6 177 172 168.6 165.6 163 161.7 159.3 158.4 155.4 152.4 151.5 151.2 151 150.7 150.4 149 148.3 147.7 146.4 146.4 145.8 145.4 145.3 143.3 141.4 142.5 145.8 144.1 142.2 142.2 141.6 139.9 138.9 134.6 128.8 125.8 123.4 120.4 118.7 116.9 115.1 114 112.9 111.4 108.5 106.8 106.3 104.9 105 105.1 105.5 106.2 107.5 108.9 109.6 110.5 111.9 112.6 111.7 110.8 111.3 112.7 112.4 111.6 111.2 111.9 112 112.2 111.4 110.8 108.1 106.7 105.8 105.6 105.1 103.6 97.8 95.7 92.7 92.3 92.3 92.7 93.1 92.8 92.2 92.3 92.7 94.7 95.5 94.1 91 91.4 90.4 90.2 95.7 97.3 96.4 98.3 95.8 90.5 85.4 85.1 85.4 85.7 86.8 89 84.4 84.2 86 87.3 89.1 89.1 85.9 86 87.4 89.9 91 88.1 86 88.9 91.2 94.1 98.2 102.4 102.8 102.1 101.5 100.9 101.1 101.9 103.5 104.6 105.4 106.2 106.9 108 109.8 110.2 109.8 109.4 107.9 105.2 104.8 102.8 103
271 279.6 291.8 289.6 277.5 263.9 233.5 216.8 213.4 235.9 272.6 267.9 265.9 265.9 260.6 258.4 256.6 260.8 268 274.6 280.9 288.3 301 310.4 314.6 317.3 319.3 335.1 326.7 324.3 316.8 306.6 292.1 279.3 271.3 267.8 266.7 266.5 265.9 265.5 263.8 262.1 257.5 252.7 248 244.5 242.3 238.5 230.1 220.4 210.2 200.1 193.8 191.1 187.1 180.9 174.6 169.9 166.7 163.9 162 161.1 159.1 156.1 153.5 152.3 152.1 151.8 151.5 151.1 149.2 147.9 147.4 147.4 147.3 146.7 146.1 145.6 144.8 144.6 146 146.6 143.4 141.6 141.4 142.7 141.7 139.7 133.8 130.3 127.6 124.6 121.5 119.5 118.2 117 116.7 116.3 115.6 114.3 110.2 106.1 106.1 106.1 107.4 109.2 110.6 111.9 113.2 114.5 115.8 117.8 118.9 117.4 116.6 117.5 118.1 118.9 116.7 116.2 118.3 117.7 118.2 115.9 115 113.6 111.9 111.4 109.9 107.9 105.6 102.6 97.9 96.5 93.9 93.2 92.5 92.5 92.5 92 92.8 92.7 92.4 92.9 93.6 93.2 91.7 91.6 90.5 94.7 95.8 96.1 98 95.6 89.8 87.9 85.4 85.6 85.6 86.2 88.4 84.4 84.6 84 84.9 84.2 84.4 84.4 84.4 84.7 84 83.7 84 84.3 85.5 87.1 88.6 90.7 99.2 102.3 102.5 101.6 101.6 101 100.7 101.9 103.2 103.9 104.7 105.7 108.1 109 109.4 109.4 108.5 104 105.9 104.5 103.9 103.4
275.8 286.1 298.2 276.6 263.5 246 224.6 216.5 220.2 270.7 278.2 273.5 276.5 271.2 268.7 265.7 261.5 263.3 271.5 282.3 289.9 295.5 297 299.6 306.6 311.3 319.1 333.1 333.6 328.1 322.7 313.8 299.8 285.5 276.6 270.9 268.4 269.2 268.7 268.3 266.9 263.5 259.7 255.2 251 246.3 243.3 240.1 229.1 220.1 210.2 202.2 204.9 196 190.3 184 177.8 172.6 167.5 164.3 162.4 160.6 158.5 157 155 153.2 152.9 152.4 151.7 150.6 149.2 147.9 148.3 148.3 148.2 147.6 147.1 146.5 145.9 146 145.8 144.2 142.4 141.1 141.9 142.6 139.2 137.6 134.6 133.2 130.7 125.7 122.4 120 118.2 118.9 119.6 119.2 116.9 110.3 106.9 106.7 107.4 107.4 113.3 114.9 116.1 117.4 118.6 120 121.4 122.8 122.5 122.5 123.1 123 123.9 124.6 123.9 124.4 124.4 123.7 123.7 121.4 120 119.6 117.9 116.7 114.7 112.6 110.8 110.1 104.1 99.6 98.9 97.8 97.5 94 92.9 93.1 93.6 91.8 91.4 91.2 93.7 94.2 95.2 93 93.6 94.1 94.4 96 97.7 98.1 94.6 92.5 86 87.2 86.3 88.7 89.1 84.4 84.6 84.1 84.5 84 85.8 87.1 89.4 86 84.4 83.9 83.7 84.4 85.2 85.8 86.6 90 98.4 101.7 101.7 101.7 101.3 101.5 99.1 99.9 101.7 102.5 103.8 105 106.7 107.1 107.9 107.3 106.6 103.9 104.2 103.6 103.3 103.6
281.6 291 295.6 277.3 254.2 240.7 223 216 222.2 284.9 286 280.7 281.7 276 277 273.4 267 266.9 276.7 286.6 301.3 309.3 305 298.9 300.3 306.2 314.6 329.7 334.1 330.7 324.9 318.4 306.4 293.6 283.8 274.1 270.5 270.3 271.7 271 269 265.5 261.7 257.3 252.7 249.2 245.3 240.1 231.3 221.9 212 202.9 209.4 202.3 193.7 186.6 181.3 174.7 169.9 165.1 162.3 161.7 160.9 158.8 157.2 154.7 153.2 152.5 151.8 150.8 149.6 148.5 148.8 149.2 149.1 148.5 147.9 147.2 146.7 146.6 144.8 143.3 142.1 142.1 141.5 141.2 143.9 138.4 135.8 133.2 130.1 127 123.2 120.4 119.5 120.7 121.3 118.8 110.8 107.5 108.2 107.1 107.7 112.1 118 119.8 121.1 122.4 123.6 124.8 125.3 126.3 126.3 126.2 126.8 127.6 128.7 129 127.9 128.4 129.1 129.4 129.5 127.9 126.8 126 124.5 121.8 120 117.8 116.3 114.1 111.4 106.4 101.7 101.6 102.7 99.3 95.8 94.3 93.5 92.1 91 91.3 91.5 92.7 94.5 93.2 93.6 93.9 94.1 95.1 97 98.2 97.2 97 90.3 87.2 87.8 91.1 97.2 87.9 84.6 84.2 84.5 84 85.8 89.7 99 98.5 95.5 85.9 84.6 85.7 86.2 85.5 85.5 88.1 93.4 96.9 94.8 98.3 100.7 101.8 100.4 99.3 101.4 101 102.4 104.6 108.2 105.7 105.6 105.8 104.1 104.7 104.1 103.6 102.8 103.2
285.4 296.8 298.1 276.7 256 240 222.9 211.2 248 294.7 288.4 282.1 282.3 282 285.2 279.7 271.7 271.6 277.6 287 300.8 313.3 319.4 307.5 301.1 305.2 311.4 317.5 331.7 335.1 327.1 320.2 309.3 299.8 289.9 278 272.2 271 273 271.8 269.9 267.2 263.2 258.1 253.8 250.1 246.4 240.7 234.1 225.7 215.1 203.5 212.8 206.4 197.3 189.3 184.4 178 172.9 167.5 163.7 162.7 161.9 160.8 157.9 155.8 154.5 153 154.6 151.5 151.2 149.4 149.3 149.9 150 149.4 148.7 147.9 147.1 146.6 145.1 143.5 142.3 141.1 140.9 139.6 141 137.4 136.2 131.7 128.6 126.4 123.9 120.1 120.2 119.1 118.5 116.4 109.6 109.1 110 111.7 113.9 118.1 122 124 125.4 126.7 127.6 128.2 128.6 129 129.5 130.1 130.8 131.5 132.7 133.9 133.4 134.2 135.5 136.6 136.2 135.3 135.1 134.2 132.3 129 125.9 123.3 121.1 119.5 117.8 114.4 108.7 104 103.5 104.1 101.4 97.8 96.5 92 91.6 91.2 91 91.8 93.3 93 93.1 93.6 94.3 93.6 95.4 97.3 96.8 95.6 93.4 93.5 89.8 93 91.3 95.4 95.9 91.1 88.9 88.3 90.8 96.6 98 97.8 95.8 95.4 92.7 89.5 88.3 88.6 87.9 85.2 87.4 90.2 88.3 92.1 97.6 99.6 99 101.3 101.7 100.6 101.2 104.5 107.6 104.7 104.3 103.9 104.1 103.4 103 103.3 103.1 102.9
289.1 299 298 276.4 249.8 233.9 211.6 211.3 274.9 297.1 284.6 281 286.1 289 288.9 283 277.2 277.6 280.7 286.2 294.5 303.7 314.6 313 304.2 303.8 308.9 317.4 326.7 335 331.7 322.3 313.1 303.3 295.1 283.2 274.4 273.1 272.9 271 269.1 266.7 264.1 260 254.3 250.5 246.7 243.4 235.5 229.7 218.9 207.8 213 210.7 203.4 193.8 186.3 181.1 175.6 170.1 165.1 163.8 162.5 161.6 159.4 157.3 156.2 152.8 152.3 151.1 150.6 150.6 151.7 151.1 151.2 149.6 148.7 147.9 147.2 146.6 143.6 141.8 140.1 140 139.8 141.4 140.8 137.4 134.7 130.3 127.2 124.1 121.7 118.4 117.4 116.9 115.8 114.3 108.4 108.9 111.2 114.7 116.7 120.5 124.6 127.7 129.7 130.3 130.9 131.4 131.8 132.4 131.9 133.5 134.8 135.5 136.8 138.2 138.9 140.4 141.9 143.4 143.8 143.6 143.3 142.5 140.1 136.8 133.7 130.9 128.8 127.1 128.4 124.8 116.9 109 105.7 106.2 102.7 100.4 97.2 92.5 91.6 91.5 91 91.6 92.2 92.5 92.8 94 93.5 93 94.4 95.6 95.6 94.8 92.8 94.8 96 95.5 91.3 90.9 91.1 98.9 97.1 91.2 92.3 94.2 94.5 94.7 94.7 94.2 93.7 90.2 89.5 90.5 90.8 86.7 85.4 86 85.1 88.5 92.3 95.5 96.9 101.8 102.5 101 99.4 103.1 107.3 105.7 102.8 103.1 104.1 103.5 104.1 104.1 103.1 103.9
292.8 303.3 306.5 283.5 261.7 227.2 211.1 254.3 298.5 288.5 284.2 286.3 295.2 293.4 290.1 286.8 284.4 283.5 285.9 290.6 295.6 300.7 303.1 304.4 303.1 301.1 305.2 315.3 319.6 330.4 334.4 326.7 318.2 307.4 298.3 288.5 278.7 273.5 271.8 270.1 268.3 266.5 263.8 259.9 255.9 250.9 247.5 243.2 239.5 230.6 222.8 210.7 210.6 213.5 207.5 199 190.2 182.9 176.8 172.1 168.4 166.1 164.2 162 160.1 159.6 158.6 155.7 151.5 151.1 151 150.9 151.1 153 153 151.9 148.6 147.5 146.4 144.6 142.1 139.7 138.8 139.1 139 140.3 139.9 136.9 132.7 128.7 125.1 121.8 119.4 120.3 120.7 119.5 117.9 113.5 108.9 109.5 116 117.4 119.5 122.7 126.3 128.3 130.6 133.4 134.4 136.5 137.1 137.6 137.9 138.2 138.6 139.5 140.9 142.3 143.7 146.2 148.1 150 151.3 151.3 152.5 150.7 148 145.6 144.2 141.4 139.3 137.3 136.9 134.3 127.7 117.3 109.6 107.6 104.9 101.7 97.3 95.7 94.2 94.1 92.4 91.6 91.4 91.7 93.1 93 93.3 93.9 94.2 94.8 94.6 93.8 92.6 95 97.7 98.7 100.1 94.2 91.5 91.4 97.6 94.9 92.8 91.4 91.2 91.8 92 90.9 91.4 92.2 90.7 90.7 91.5 90 84.1 84.5 85.3 87 95.9 100.4 101.2 101.9 102.1 99.9 98.9 101.9 104.2 103.6 103.5 105.1 104.3 106.1 107.5 106.3 106.3 106
296.9 304.9 311 318.1 297.1 255.6 236.3 294.2 291.5 287.9 294.7 295.8 295.6 295.7 295.6 296.1 293.9 293.3 297.2 303.5 308.8 311 308.4 304.2 299.4 297.7 299.2 306.8 315.8 321.1 324.6 322.5 316.9 309.5 301.2 291.2 282.4 276.6 272.3 269.3 267.5 265.8 263.6 259.2 256.4 251.7 248.3 243.3 239.8 232.8 226 216.1 211.1 215.8 210.6 202.9 193.2 185.9 180.5 174.7 171.5 168.6 165.5 163.7 161.8 161.2 160.7 158.1 154.5 151.4 151.3 151.1 150.9 152.1 155.3 151.8 148.5 145.6 144.8 143.3 141.8 139.6 138.5 138.1 136.8 137.9 136.2 134.1 130.4 126.4 123.3 120.8 121.9 122.3 122.7 120.4 119.6 109.3 111 117.6 120 120.7 121.5 124.3 127.9 129.3 131.5 134.9 138.2 139 140.6 141.1 141.6 142.3 143.1 143.8 145.1 146.5 148.1 150.1 152.7 154.9 157.5 158.9 160.4 161.9 158 154.9 153 151.5 149.3 147.7 145.1 142.3 138.6 127 118.4 109.7 107.8 105.4 101.2 96.9 95.1 94.2 92.7 92.5 92.4 92.3 91.7 92.5 95 98.8 95.5 95.2 94.2 94.1 94.7 99.1 101.5 102.2 103 101.4 100.7 93.5 93.9 98.5 93.7 89.5 89.3 89.4 89.4 89 89.9 90.5 91.3 91 91 89.9 86.5 84.8 84.1 85.4 93.1 103.2 103.5 102.6 99.4 97.4 99.3 101.8 105.6 103.8 104.7 105.1 105.3 108.3 108.5 108.8 107.8 106.7
