ncols 200
nrows 94
xllcorner 110000
yllcorner 891100
cellsize 50
117.7 128.4 142.2 145.9 143.1 144.7 149.7 148 146.3 141.5 134.8 123.1 110.5 96.5 82.8 73 65.4 43.7 35 41.7 50.1 55.5 70.4 75.4 75.5 66.4 68.5 69.8 72 72.3 73.4 76.9 78.4 86.4 88 83.7 86.8 91.5 100.9 104.6 110.9 108.1 114.4 126.4 131.6 131 132.8 142.6 146.3 161.9 166.3 167.9 176.4 175.7 182 186.1 194.4 201.6 212.7 224.6 230 233.5 236.1 239.4 244.5 244.9 252.2 251 245.8 250.4 243.7 237.1 224.4 204.2 199.3 184.5 171.5 166.7 160.3 149.2 150.2 149.9 144.4 136.9 122.2 101.9 104.7 100.3 94.6 92.9 77.2 82.9 85.1 89.4 88.1 81 82.2 77.3 65.6 59.1 61.4 52.1 51.2 48.6 46.7 48.3 50.9 49.8 43.1 38 35.3 24.6 36.8 34.8 39.8 28.5 24.6 15.2 10.7 8.9 8.9 8.9 8.9 10.7 30.7 43.2 33.2 44.7 37.7 39.2 30.2 18 18 20.4 18 18 18 18 28.3 26.2 18.8 19.2 24.3 13.4 -2.2 -2.2 -2.2 -2.2 -2.2 -1.8 -2.2 -2.2 -2.2 -2.2 -2.2 -2.2 -2.2 -2.2 -2.2 -2.2 -2.2 -2.2 -2.2 -2.2 -2.2 -2.2 -2.2 -2.2 -2.2 -2.2 -2.2 -2.2 -2.2 -2.2 -2.2 -2.2 -2.2 -2.2 -2.2 -2.2 -2.2 -2.2 -2.2 -2.2 -2.2 -2.2 -2.2 -2.2 -2.2 -2.2 -2.2 -2.2 -2.2 -2.2 -2.2 -2.2 -2.2 -2.2 -2.2 -2.2
126.6 132.1 145.2 148.5 152.2 154.3 157.1 158.7 155 153.5 143.1 132.3 116.5 99.6 89.3 71.7 65.3 52.5 37.4 41.9 51.8 64.7 73.1 78.3 75.9 75.7 69.4 71 75 77.1 79.1 75.5 78.3 84.4 83.5 83.5 83.5 85 91.7 100.7 104 102.1 111.1 119.5 120.8 122.9 126.6 130 145.4 154.6 158.4 157.7 162.5 166.8 169.6 179.4 191.4 199.4 207.6 215.6 222.6 228.6 228.8 235.2 238.2 241 246.4 242.4 242 246.6 240.9 237.2 218.4 202.8 190.8 184.2 177.6 172.7 164.8 157.3 146.5 150.5 142.3 134.1 124.6 103.2 96.1 96.3 94.9 93.6 82.5 84 86.6 86.1 87.7 86.5 84.1 78.9 66.1 65.7 59.7 53.9 55.3 54.6 55 54.8 57.9 56.9 46.1 42.7 35.2 24.6 40.2 39.8 30.2 28.4 24.2 17.3 8.9 8.9 11.2 8.9 8.9 8.9 33.1 42.4 40.3 34.9 39 43.2 32.1 18 18 18 18 18 20.5 18 21.2 16.2 12.9 11.8 10.3 8.3 9.6 -2.2 -2.2 -2.2 -2.2 16 -2.2 -2.2 -2.2 -2.2 -2.2 -2.2 -2.2 -2.2 -2.2 -2.2 -2.2 -2.2 -2.2 -2.2 -2.2 -2.2 -2.2 -2.2 -2.2 -2.2 -2.2 -2.2 -2.2 -2.2 -2.2 -2.2 -2.2 -2.2 -2.2 -2.2 -2.2 -2.2 -2.2 -2.2 -2.2 -2.2 -2.2 -2.2 -2.2 -2.2 -2.2 -2.2 -2.2 -2.2 -2.2 -2.2 -2.2 -2.2 -2.2 -2.2
131.3 138.5 153.7 164 167.9 172.2 168.5 170.8 166.1 161.1 145.4 133.3 117.3 102.1 86.9 73.6 65.4 57.2 37.8 40.7 53.8 72.9 82 79.5 83.3 78 79 74 73.5 79.5 84.5 82.5 82.4 83.3 85.5 83.5 83.5 83.5 83.7 89.9 97 94.3 103.3 111.5 114.9 115.5 123 130.7 138.9 143.3 150.5 150.2 157.9 154.9 163.3 174.7 188.7 194.3 197.3 207.4 215.6 223.8 225 231.4 235 235.8 237.8 238.5 242.3 243.9 237 230.6 213.8 201.3 195.1 188.1 187.5 174.9 170.2 162.3 144.3 141.4 138.7 129.3 119.8 105.7 97.2 91.2 97.3 92.3 86.4 79.3 85.1 86 89.8 87 85.7 83.3 72.4 72.8 69.9 57.9 59.6 57.8 60.8 61.4 59.2 53.2 50.7 38.7 31.8 24.6 32.7 47.2 28 23.7 19.5 8.9 8.9 16.8 13.4 8.9 8.9 8.9 27.3 39.5 38.1 30.2 34.3 37.3 43.3 18 18 18 18 18 18 18 25.9 27.4 22.2 13.6 7.8 9.3 8.8 2.2 -2.2 16.3 14.7 12.1 -2.2 -2.2 -2.2 -2.2 -2.2 -2.2 -2.2 -2.2 -2.2 -2.2 -2.2 -2.2 -2.2 -2.2 -2.2 -2.2 -2.2 -2.2 -2.2 -2.2 -2.2 -2.2 -2.2 -2.2 -2.2 -2.2 -2.2 -2.2 -2.2 -2.2 -2.2 -2.2 -2.2 -2.2 -2.2 -2.2 -2.2 -2.2 -2.2 -2.2 -2.2 -2.2 -2.2 -2.2 -2.2 -2.2 -2.2 -2.2 -2.2 -2.2
134.8 143.9 162.3 175.5 176.8 182.6 183.7 180.8 176.8 171.4 160.2 136.2 120.1 101.4 84.7 73.7 62.5 55.4 49.8 41.2 60 71 74.7 81.2 84.2 88 87.8 84.6 77.2 77.3 83 85.7 85.6 83.3 85.1 83.5 83.5 83.5 83.5 86.6 89.9 89.8 99.8 105.2 106 110.2 112.2 120.8 129.1 134.9 139 140.4 141.2 147.5 155.5 175.6 180.3 187.4 191 201.9 211.9 215.2 219.3 224.9 231.3 232.5 232.5 236 238.3 236.9 233.5 224.2 210.9 199.8 198.4 188.3 186.7 179.5 173.8 165.2 149.3 131.8 130.9 126.7 118.7 107.1 98 92.6 89.9 89.2 86.8 81.1 84 85.4 87.9 87.6 86.2 84.9 85.1 86.8 77.1 68.1 57.1 59.9 61.6 65.8 62.3 56.7 52.9 39.5 27.6 24.3 32.2 50.6 32.3 23.8 22.1 9.3 13.6 21.5 14.7 8.9 8.9 8.9 15 28.2 32.5 30.8 29.4 39.9 43.8 22.9 22.5 18 18 18 18 18 25.6 31.5 29.6 22.5 17 12.9 6.9 10.2 17.1 13.4 9.8 -2.2 -2.2 -2.2 -2.2 -2.2 -2.2 -2.2 -2.2 -2.2 -2.2 -2.2 -2.2 -2.2 -2.2 -2.2 -2.2 -2.2 -2.2 -2.2 -2.2 -2.2 -2.2 -2.2 -2.2 -2.2 -2.2 -2.2 -2.2 -2.2 -2.2 -2.2 -2.2 -2.2 -2.2 -2.2 -2.2 -2.2 -2.2 -2.2 -2.2 -2.2 -2.2 -2.2 -2.2 -2.2 -2.2 -2.2 -2.2 -2.2 -2.2 -2.2
143.7 150 159.8 179.7 185.3 189.3 190.5 187.8 182.5 180.4 171.4 137 121.8 105.8 86 77 67.5 60.6 55.7 39 59.5 67.5 74.3 78.8 86.2 93.3 96.2 98.8 92.3 87.3 79.9 87.4 89.4 88.3 86.7 83.5 83.5 85 86.4 86 86.3 87.7 94.4 96.6 101.1 104.7 104.8 111 117.6 119.1 128.4 131.6 133.3 135.4 147.6 163.1 172.5 176.5 184.9 194.9 204.7 211.5 215.3 221 227.1 228.2 231.6 228.3 232.6 230 229 224.7 214.6 201 198.6 189.7 182.2 178.2 171.9 167.5 147.7 127.8 124.8 121.3 113.1 105.2 98.5 94.5 89.9 86 83.7 79.4 78.9 87.4 86.1 87.9 87.1 86.5 86.2 85.5 81.1 70.4 64.3 61.6 63.5 66.9 62.6 60.9 46.9 39.7 32.5 27.4 24.6 41.8 41.6 38.5 31.7 11.2 17 18.7 9.9 8.9 8.9 8.9 16 18.1 25.8 30.2 24.5 33.6 37.9 27 18 18 18 18 18 23.9 32.4 39.1 41.8 38.9 27.5 20.5 22.4 14.6 18.2 17.2 -2.2 -2.2 -2.2 -2.2 -2.2 -2.2 -2.2 -2.2 -2.2 -2.2 -2.2 -2.2 -2.2 -2.2 -2.2 -2.2 -2.2 -2.2 -2.2 -2.2 -2.2 -2.2 -2.2 -2.2 -2.2 -2.2 -2.2 -2.2 -2.2 -2.2 -2.2 -2.2 -2.2 -2.2 -2.2 -2.2 -2.2 -2.2 -2.2 -2.2 -2.2 -2.2 -2.2 -2.2 -2.2 -2.2 -2.2 -2.2 -2.2 -2.2 -2.2 -2.2
153.9 148.9 161.5 178.5 189.5 194.2 196.7 195.5 191.6 186.8 177.6 149.4 123 105.2 87.7 80.3 69.3 61.2 50.6 46 46.5 71 73.7 80.9 94.2 105.6 106.7 106.1 102.8 99.5 97 89.2 91.1 89.6 88.8 85 87.9 90.1 88.9 87.4 85.7 85.7 87 92.7 95 95.6 98 101.9 103.8 111.7 119.9 115.5 123.9 137.6 143.2 153.3 161.3 166.9 173.7 187.3 199.1 205.6 211 215.7 221.3 222.8 222.7 225.4 233.3 227.3 223.5 220.8 212.6 204.8 195.5 189.7 184.8 179.4 168.8 160.3 145.3 134.5 118.3 113.4 109.2 101.9 97.2 92.7 88.1 88.7 82.9 88.9 84.8 82.3 86.5 86 87.7 86.5 89.2 87.5 97.8 84.2 74.9 68.9 73.9 64.7 66.6 56.9 51.4 44.1 41.4 28.7 24.2 36.8 44 45.9 26.7 19.7 15.9 14.8 13.2 8.9 8.9 8.9 12.5 21.9 19.6 28 23.6 25.4 32.6 29.6 22.4 18 18 18 21.7 33.3 34.2 43.3 44.8 35.2 37.6 31.9 30.1 32.1 20.7 6.4 -2.2 -2.2 -2.2 -2.2 -2.2 -2.2 -2.2 -2.2 -2.2 -2.2 -2.2 -2.2 -2.2 -2.2 -2.2 -2.2 -2.2 -2.2 -2.2 -2.2 -2.2 -2.2 -2.2 -2.2 -2.2 -2.2 -2.2 -2.2 -2.2 -2.2 -2.2 -2.2 -2.2 -2.2 -2.2 -2.2 -2.2 -2.2 -2.2 -2.2 -2.2 -2.2 -2.2 -2.2 -2.2 -2.2 -2.2 -2.2 -2.2 -2.2 -2.2 -2.2
150 155.5 159.1 177.1 192.3 196.9 199.6 203.1 200 192.9 186.7 160.7 118.7 104 87.3 80.6 70.7 60.8 52.8 42.8 38.6 64.4 74.2 79.2 98.5 107.1 113.3 116 110.5 105.4 99 93.5 90.4 88.2 90.7 90.8 91.7 95.1 94.8 89.6 85.8 85.7 85.7 87.4 90 89.1 92.2 94.1 99.6 103.3 105.5 107.9 118.2 130.3 138.1 147.5 152.4 158.3 169.1 181.6 193.3 202.5 207.8 210.8 218.9 218.7 221.5 218.5 233.7 229.9 222.3 219 213.2 204.2 195 191 184.2 175.2 168.6 156.3 136.3 132.7 120.8 118 111.6 109.5 104.9 94.7 89.3 91.4 92 93.6 88.3 77.7 83 87.9 85.4 87.5 89.9 88.2 97.8 88.6 76.3 74.6 73.6 70.2 67 64.4 56.9 48.7 49.8 41.6 27.3 30.8 32.2 33.4 24.7 18 8.9 8.9 8.9 8.9 12.7 13.7 20.7 24.4 25.6 22.6 20.8 21.8 25.9 24.1 21 18 18 20.8 28.4 35.6 34 39.7 35.6 41.2 39.4 30.3 31.9 30.4 19.9 -2.2 -2.2 -2.2 -2.2 -2.2 -2.2 -2.2 -2.2 -2.2 -2.2 -2.2 -2.2 -2.2 -2.2 -2.2 -2.2 -2.2 -2.2 -2.2 -2.2 -2.2 -2.2 -2.2 -2.2 -2.2 -2.2 -2.2 -2.2 -2.2 -2.2 -2.2 -2.2 -2.2 -2.2 -2.2 -2.2 -2.2 -2.2 -2.2 -2.2 -2.2 -2.2 -2.2 -2.2 -2.2 -2.2 -2.2 -2.2 -2.2 -2.2 -2.2 -2.2 -2.2
143.1 155.1 163 175.5 191.3 197.1 200.2 201.2 198.5 196.8 190.5 166.3 132.7 102.3 89.2 78 71.1 62.9 58.9 38.6 38.6 57.2 67.6 82.7 100.8 108.3 112.7 116.5 117.9 115.6 113.5 106.8 101.8 89.4 91.5 92.3 93.2 96.3 98.4 95.7 87.7 88.6 89.9 93.8 94.3 91.1 89.2 89.2 94.3 96.5 95.7 99.7 116.5 123.3 134.9 143.1 146.4 150.8 161.3 176.3 184.1 194.8 198.9 207.4 209.4 214.4 220.2 221.3 224.5 225.3 218.1 214.5 216.8 202.6 194.1 188.1 182.6 173.8 164.6 146.9 135.3 124.7 119 118.4 111 109.7 103.1 98.4 93.6 95.1 98.6 98.4 95.7 77.7 77.7 88.6 85 85.7 91 87.4 89.1 94.3 80.8 76.4 80.8 79.3 69.8 67.6 66.7 58.6 60.1 59.8 33.7 26.6 26.8 26 17.8 18.8 10.4 8.9 8.9 8.9 12.5 17.2 18.3 28.4 31.5 33.3 25 19.6 19.9 21.9 18 18 23.1 18.4 18 28.9 27.2 28.9 37.5 42.1 33.1 27.7 24.7 23 24.2 19.7 -2.2 -2.2 -2.2 -2.2 -2.2 -2.2 -2.2 -2.2 -2.2 -2.2 -2.2 -2.2 -2.2 -2.2 -2.2 -2.2 -2.2 -2.2 -2.2 -2.2 -2.2 -2.2 -2.2 -2.2 -2.2 -2.2 -2.2 -2.2 -2.2 -2.2 -2.2 -2.2 -2.2 -2.2 -2.2 -2.2 -2.2 -2.2 -2.2 -2.2 -2.2 -2.2 -2.2 -2.2 -2.2 -2.2 -2.2 -2.2 -2.2 -2.2 -2.2 -2.2
143.8 153.3 158.4 172.2 189.3 195.5 199.4 200 201.6 200.7 189.9 171.6 150.8 100.7 88.7 79.6 75.9 68.2 59.9 45.1 38.6 39.6 61.5 83.6 97.8 114.1 119.1 122.3 124.9 125.8 122.6 122.5 116.8 107.7 94.4 95.8 97.1 101.4 102.3 104.6 86.8 85.7 87.5 91.7 95.6 92.2 91.4 89.2 91.6 93.3 102 97.9 99.7 123.6 130.3 137.5 142.7 145 156 169.1 181.7 187.1 194.7 201 208.4 209.4 211.4 212.8 217.1 216.5 211.4 215.2 217.3 210.1 202.3 187 180.6 167.3 154 139.5 132.2 121.8 120.4 109.5 107.8 104 105.3 101.1 96.1 97.3 105.2 102.3 98.4 79.8 77.7 82.9 83.4 78.8 83.5 86.1 85.8 91.4 90.1 76.4 77.8 93.2 88.3 68 71.7 66.9 65 66.6 42 24.7 29.6 21.5 23 17.2 8.9 8.9 8.9 17.3 24.1 22.5 27.9 32.9 33.4 43 34.7 24.9 23.1 20.5 18 18 21.3 18.7 18 18 26.8 27.1 39.8 40.2 30.8 24.2 22.9 26.6 31.1 30.9 18 -2.2 -2.2 -2.2 -2.2 -2.2 -2.2 -2.2 -2.2 -2.2 -2.2 -2.2 -2.2 -2.2 -2.2 -2.2 -2.2 -2.2 -2.2 -2.2 -2.2 -2.2 -2.2 -2.2 -2.2 -2.2 -2.2 -2.2 -2.2 -2.2 -2.2 -2.2 -2.2 -2.2 -2.2 -2.2 -2.2 -2.2 -2.2 -2.2 -2.2 -2.2 -2.2 -2.2 -2.2 -2.2 -2.2 -2.2 -2.2 -2.2 -2.2 -2.2
138.8 150.9 155.3 165.7 187.9 193.9 196.8 204.5 203.1 196 186.4 177.1 143.4 104.9 92.3 81.9 77.3 73.4 62.7 53.3 46.5 38.6 54.6 79.1 100.1 119.4 128.3 136.4 137.5 137.7 133.2 130.4 126 122.2 109 99.3 101.4 99.4 99.1 96.3 91.1 85.7 91.3 93.1 94.1 94.4 89.2 89.5 90.8 95.4 104.2 101.4 102.1 115.8 124.1 130.7 139 143 149.6 166.6 177.5 182.4 187.5 195.5 205.9 203 207.3 213.2 215.9 217 212.9 211.4 210.6 211.1 206 186.8 175.8 167.6 145.8 135.4 129.8 129.6 120.2 109.5 107.9 106 107.7 104.2 96.2 102 105 104.6 98.2 83.1 78.7 80.9 84.9 79.3 82.8 86 83.8 92.7 98.1 83.4 78.3 86.1 97 77.9 65.5 67 61.7 63.3 48.6 20.4 28.9 20.6 20.2 16.3 13.2 17 13.6 29.3 32.8 35.8 30.3 37 41.8 54.5 44.6 31.5 21.8 22.1 19.1 18 18 21.5 18 18 24.8 30.1 30.8 28 25.3 22.9 23.5 36.7 45.4 40.9 20.5 21.6 -2.2 -2.2 -2.2 -2.2 -2.2 -2.2 -2.2 -2.2 -2.2 -2.2 -2.2 -2.2 -2.2 -2.2 -2.2 -2.2 -2.2 -2.2 -2.2 -2.2 -2.2 -2.2 -2.2 -2.2 -2.2 -2.2 -2.2 -2.2 -2.2 -2.2 -2.2 -2.2 -2.2 -2.2 -2.2 -2.2 -2.2 -2.2 -2.2 -2.2 -2.2 -2.2 -2.2 -2.2 -2.2 -2.2 -2.2 -2.2 -2.2 -2.2
134 147 155.3 161.8 176.9 189.5 197.3 206.6 206.8 200.4 190.1 176.1 145.5 127.7 105.9 89.8 83.3 77.1 68.5 57.2 51.3 40 47.4 67.8 103.5 124.8 139.3 145.7 149.9 152.9 145.6 143.5 138.6 133.7 129.3 117 101.4 104 96.8 95 90.2 85.7 94.5 98.8 97.2 94.3 89.2 89.2 91.7 95.2 103.6 102.8 99.9 106.1 116.1 128.8 136.1 142.1 150.2 163.3 178.3 180 178.2 193.5 198.3 202.5 207.6 210.6 213.3 213.8 213.8 211.4 205.4 207.6 202.3 184.9 169.1 156.4 142.1 132.5 130.5 125.4 116 110.5 103.7 105.9 107.9 100 101.5 102.8 103 101.1 98.3 87.8 81 83.8 89.2 79.2 82 82.4 82.1 85.1 87.4 84.7 78.8 81.1 93.1 82.6 63.5 62.7 56.6 52.9 42 18.1 25.7 25.6 21.2 13.9 15.9 18.9 24.2 36.7 40.4 42 37.4 37 36.6 47.5 54.3 36.5 28.1 21.7 19.6 22.1 21.9 21 22 18 23.7 32.3 38.5 29.7 25.1 22.9 32.7 42.3 48.4 43 19.7 24.9 13.2 -2.2 -2.2 -2.2 -2.2 -2.2 -2.2 -2.2 -2.2 -2.2 -2.2 -2.2 -2.2 -2.2 -2.2 -2.2 -2.2 -2.2 -2.2 -2.2 -2.2 -2.2 -2.2 -2.2 -2.2 -2.2 -2.2 -2.2 -2.2 -2.2 -2.2 -2.2 -2.2 -2.2 -2.2 -2.2 -2.2 -2.2 -2.2 -2.2 -2.2 -2.2 -2.2 -2.2 -2.2 -2.2 -2.2 -2.2 -2.2 -2.2
129.5 141.9 149.9 162.1 169.9 185.7 198.6 204.9 207.5 200.9 192.9 177.1 144.8 129.4 113.1 102.4 97.3 90.7 77.1 63.9 59.2 58.3 49.1 68.8 98.3 121.5 150.2 155.5 158.6 161.9 159.3 152.3 150.6 148.2 133.7 128.9 121.7 101.6 94.9 97.5 94 85.7 91.1 91.8 91.7 91.1 89.2 89.2 91.2 94 99.5 97.6 98.7 106.4 117.3 129.5 134.4 137.6 145.8 158.7 170.7 172.5 179.2 183.3 188.7 202.5 208.4 214.1 212 206.5 212.7 209.5 200.9 199.5 191 178.4 162.5 149.5 140 131.9 131.7 127.9 116.4 114.6 102.6 103.7 106.5 99.4 104.6 103.7 99.8 100.8 96.5 92.1 84.1 81.7 90 79.8 77.8 82.4 80.7 79.1 80.5 90.8 78 74.8 82.8 88.6 71.3 53.7 54.2 48.5 35.3 19 17.5 23.1 16.5 16 18.4 19.1 26 39.5 42.5 41.7 40.7 44.4 46.2 50.3 47.8 35.1 29.9 22 19.3 19.9 21.7 24.9 30.1 18 18 31.4 32.6 29.4 28.8 24 37 45.3 43.8 30.7 14.5 17.7 16.4 -2.2 -2.2 -2.2 -2.2 -2.2 -2.2 -2.2 -2.2 -2.2 -2.2 -2.2 -2.2 -2.2 -2.2 -2.2 -2.2 -2.2 -2.2 -2.2 -2.2 -2.2 -2.2 -2.2 -2.2 -2.2 -2.2 -2.2 -2.2 -2.2 -2.2 -2.2 -2.2 -2.2 -2.2 -2.2 -2.2 -2.2 -2.2 -2.2 -2.2 -2.2 -2.2 -2.2 -2.2 -2.2 -2.2 -2.2 -2.2 -2.2
117.5 131.9 148.7 162.3 178.1 180.6 194.7 203.1 203.7 204.6 196.1 165.5 153 135.6 119.2 111.6 109.8 100.3 88.9 71.8 65 62.4 54 71.7 103.5 116.8 154.9 160.8 166.1 169.2 162.9 158.4 157.2 155.6 147.3 136.7 132 112.7 105 94.4 98 85.7 85.7 92.4 93.6 89.2 89.2 89.2 89.2 92.8 96.2 98.2 101.3 106 110 121 130.1 134.9 140.8 156.6 162.8 162.7 177.2 183.6 190.8 206.4 210 208.5 210.5 200.8 208.7 206 196.3 201.2 184.6 173.7 161 152.2 141.5 134.8 134.3 126.7 114.4 111.5 105.1 103.8 101.9 98.5 100.6 99.5 96.8 97.6 98.1 98.9 87.1 75 85.8 81.7 77.2 80.3 80.5 82.6 78 85.1 77.5 72.4 76.2 77.7 73.6 56.2 44.6 40.8 28.8 20.5 17.8 20.6 16.5 18.8 19.2 20.1 30.8 40.5 41.1 43.3 44.9 51.4 52.9 48.3 55.2 36.6 26.9 23.8 23.3 25.1 24.8 27.5 23.9 24.4 23.9 22 25.3 30.4 30.8 25.4 39.5 40 30.7 19.6 5.6 12.3 -2.2 -2.2 -2.2 -2.2 -2.2 -2.2 -2.2 -2.2 -2.2 -2.2 -2.2 -2.2 -2.2 -2.2 -2.2 -2.2 -2.2 -2.2 -2.2 -2.2 -2.2 -2.2 -2.2 -2.2 -2.2 -2.2 -2.2 -2.2 -2.2 -2.2 -2.2 -2.2 -2.2 -2.2 -2.2 -2.2 -2.2 -2.2 -2.2 -2.2 -2.2 -2.2 -2.2 -2.2 -2.2 -2.2 -2.2 -2.2 -2.2 -2.2
109.7 127.9 147.8 161.1 183.4 183.7 189.8 202.9 203.1 202.3 189.2 165.5 156.4 145.6 129.1 119 113.9 103.7 95.4 75.1 68.6 67.2 54.7 66.1 94.2 114.4 151.9 162.2 167.7 170.2 170.3 166.1 164.2 164.6 154.8 152 143 131.6 110.7 104.4 109.2 85.7 85.7 91.8 93.7 91 93.4 90.7 89.2 91.3 94.3 97.9 99.1 105.2 109.9 114 128.3 134.6 140.7 150 157 161.1 170.2 183.2 182.1 190.8 206.2 208.7 211 205 193.8 194.6 189.1 190.6 180.8 170.3 162.1 150.7 140.7 134.3 129.9 122.5 119.6 111.9 103.7 101.2 99.7 97.3 97.2 95 93.7 92.2 100.4 94.1 83.1 72.3 82.6 80.8 79.3 79.3 79.3 83 77.7 75 78.8 76.2 65.1 66.6 67.1 52.3 43.5 34.2 25.2 18.3 20.7 16.2 16.5 16.5 16.5 21.4 31.9 39.7 39.4 42.3 48 47 44.7 39 52.1 37 27.4 27.8 25.2 31.7 27.4 30.5 23.6 24.6 18 22.1 19.9 25.6 28.5 31.4 37.7 33.2 22.8 9.9 -2.2 5.5 7.2 -2.2 -2.2 -2.2 -2.2 -2.2 -2.2 -2.2 -2.2 -2.2 -2.2 -2.2 -2.2 -2.2 -2.2 -2.2 -2.2 -2.2 -2.2 -2.2 -2.2 -2.2 -2.2 -2.2 -2.2 -2.2 -2.2 -2.2 -2.2 -2.2 -2.2 -2.2 -2.2 -2.2 -2.2 -2.2 -2.2 -2.2 -2.2 -2.2 -2.2 -2.2 -2.2 -2.2 -2.2 -2.2 -2.2 -2.2 -2.2 -2.2
108.1 126.3 147.3 163.3 184.8 198 193.6 200.6 211.4 203.6 182.4 170.3 158.2 147.4 142.7 129.3 123.4 115.2 98.4 84.6 75.2 68.9 61.5 63 90 108.3 141.6 162.1 162.8 166.6 171.3 171.6 170.6 170.8 166.6 157.4 153.3 144.8 127.5 118.6 106 94.4 85.7 89 93.2 97.4 102 95.2 89.2 89.2 93.7 96.9 98.4 104.6 112.2 116.2 125.4 133.7 139.1 140.6 144.8 151.9 168.1 174.7 177.4 186 194.4 205.9 213.3 209.5 184.3 186.1 190.3 183.5 171.8 164.8 157.7 147.8 135.6 130.3 131.5 125.4 119.5 108.2 102.8 93.5 93.8 94.1 90.8 89.9 87.4 84.6 89.3 86.9 82.7 70 69.6 78.9 84.5 79.3 79.3 79.3 85.1 71.7 75.4 68.9 55.5 58.7 57.7 52.3 41.6 25.1 20.4 19.9 22.6 20.1 17.6 16.5 16.5 23.7 33.8 42.7 38.7 37.5 38.8 41.2 39.9 39 50.8 57.1 38.9 28.7 24.4 28.8 30.2 31 33.2 23 18.9 20.1 21.3 19 24.3 31.5 31.8 24.2 15.8 -2.2 -2.2 -2.2 -2.2 -2.2 -2.2 -2.2 -2.2 -2.2 -2.2 -2.2 -2.2 -2.2 -2.2 -2.2 -2.2 -2.2 -2.2 -2.2 -2.2 -2.2 -2.2 -2.2 -2.2 -2.2 -2.2 -2.2 -2.2 -2.2 -2.2 -2.2 -2.2 -2.2 -2.2 -2.2 -2.2 -2.2 -2.2 -2.2 -2.2 -2.2 -2.2 -2.2 -2.2 -2.2 -2.2 -2.2 -2.2 -2.2 -2.2 -2.2 -2.2 -2.2
103.3 122.2 141.4 161.5 185.7 204.7 212 202.7 213.9 203.9 181.8 175.3 163.3 155.1 145.7 138.4 132.8 124.3 101.1 85.4 79.4 71.1 67.9 60.3 84.6 101.4 120.8 143.5 155.6 163.3 168 170.2 171.8 176.5 171.2 165.4 162.3 150.2 131 129.5 120.3 101.7 90.5 89.8 92.8 92.9 91.5 91.3 89.2 91.4 91.9 99.4 99.6 108.3 112.5 116.3 122.9 131.1 139.8 133 141.4 146.7 161 166.7 177.2 179.2 191.1 194.7 206.1 201.9 181.9 180.9 178.9 176.5 171.1 167.1 155 145.5 136.1 135.5 130.7 121.3 114.6 107.6 103.9 92 92.3 95.7 90.2 88.6 84.1 81.4 86.1 87.2 80.8 62.9 66.1 77.9 82.4 81.1 79.3 79.3 87.4 74.3 69.2 63.1 52 51.6 53.8 51.2 46.7 35.3 25.9 22.3 23.6 22.7 16.5 16.5 16.5 22.1 32.1 44.7 38.5 33.1 32.3 37.5 39.3 40.3 42.9 72 69.7 42.3 26.6 31.3 30.5 31.5 34.5 35.8 23.5 24.6 22.1 15.7 18.5 29.7 27.7 14.6 3.8 -2.2 -2.2 -2.2 -2.2 -2.2 -2.2 -2.2 -2.2 -2.2 -2.2 -2.2 -2.2 -2.2 -2.2 -2.2 -2.2 -2.2 -2.2 -2.2 -2.2 -2.2 -2.2 -2.2 -2.2 -2.2 -2.2 -2.2 -2.2 -2.2 -2.2 -2.2 -2.2 -2.2 -2.2 -2.2 -2.2 -2.2 -2.2 -2.2 -2.2 -2.2 -2.2 -2.2 -2.2 -2.2 -2.2 -2.2 -2.2 -2.2 -2.2 -2.2 -2.2 -2.2
103.7 116.6 139.5 160.2 178.9 203.2 211.5 214.3 208.9 185.7 173.8 169.9 166.8 164.3 147.2 146.4 142.5 133.1 119.5 90.7 77.5 76.3 69.1 61.4 73.2 95.1 108.2 126.4 141.2 157.9 163.7 169.6 167.5 178.1 180 172.5 164.5 160.2 139 134.9 138.1 101.7 95.5 90.4 97.4 99.7 94.8 91.7 89.2 93.1 92 95.7 100.1 109.1 116.7 123.4 120.4 126 135.5 129 136.4 145.5 149.5 159.9 171.9 173.4 182.7 191 194 196.4 187.5 184.3 171.6 168.1 167.5 164.6 156.4 150 143.7 139.6 130.4 122.9 116.7 111.7 104.6 95.9 90.1 93.1 87.1 86.3 82.4 79.1 80 81.9 70.5 65.6 67.6 73.1 79.9 80.4 79.3 79.3 88.5 76.2 67 59.4 52.9 49.1 53.3 50 51.3 44.5 43 29.7 25.3 23.9 17.2 18.7 20.6 21.5 27.9 41 46.1 49.1 32.1 32.6 36.1 37.9 41.1 60.7 69.5 54.9 47.1 35.6 37 36.8 39 38 27.6 33.1 36.4 18.1 9.2 28.6 23.4 7.3 -2.2 -2.2 -2.2 -2.2 -2.2 -2.2 -2.2 -2.2 -2.2 -2.2 -2.2 -2.2 -2.2 -2.2 -2.2 -2.2 -2.2 -2.2 -2.2 -2.2 -2.2 -2.2 1.6 -2.2 -2.2 -2.2 -2.2 -2.2 -2.2 -2.2 -2.2 -2.2 -2.2 -2.2 -2.2 -2.2 -2.2 -2.2 -2.2 -2.2 -2.2 -2.2 -2.2 -2.2 -2.2 -2.2 -2.2 -2.2 -2.2 -2.2 -2.2 -2.2 -2.2 -2.2
100 116 128.1 148.7 165.2 189.9 204.8 216.3 188.8 178 172.4 174.1 171.2 164.3 156 161.3 150.9 152.7 122.4 97.3 78.1 79.1 72.6 63.6 68.7 80.9 96.8 114.1 127 155.1 165 172.9 170.1 184.3 187.5 177.3 173.1 162.3 143.2 137.7 138.2 127.4 96.4 97.5 101.3 97.3 96.8 95.2 89.2 89.2 90.7 94.7 102.7 110.7 120.6 120 118.9 116.5 126.4 125.5 132.4 136.7 137.6 155.2 159.7 169.2 175.5 184 185.6 191.1 192 184.1 174.5 164.5 165.1 162.4 158.8 157.1 145.5 137.6 127.5 118.3 115.7 114.6 107 94 89.9 90 87.4 83.6 80.4 76.4 73.3 74.5 74.5 66.4 59.5 70.8 71.1 80.5 82 82.9 83.7 78.3 72.9 59.3 55.8 49.1 53.9 49.1 49.1 50.4 50.9 43.1 39.8 26.2 19.5 15.9 22.8 21.6 25.1 42.8 52.4 53.7 36.4 28.8 31.2 33.1 36.2 35.3 53.4 57.8 49.5 52 43 37.1 39.7 40.3 29.8 32.5 33.8 32.9 10.8 9.2 13.5 -2.2 -2.2 -2.2 -2.2 -2.2 -2.2 -2.2 -2.2 -2.2 -2.2 -2.2 -2.2 -2.2 -2.2 -2.2 -2.2 -2.2 -2.2 -2.2 -2.2 -2.2 -2.2 -2.2 -2.2 -2.2 -2.2 -2.2 -2.2 -2.2 -2.2 -2.2 -2.2 -2.2 -2.2 -2.2 -2.2 -2.2 -2.2 -2.2 -2.2 -2.2 -2.2 -2.2 -2.2 -2.2 -2.2 -2.2 -2.2 -2.2 -2.2 -2.2 -2.2 -2.2 -2.2 -2.2
96.3 103 119.3 132.4 141.6 161.5 174.7 191.7 173.3 171 176.2 169.2 165.7 158.7 156.5 161.8 164.9 159.1 127.7 96 78.3 79.5 74.8 65.7 66.1 66 81.4 106 123.7 151.3 164 175.1 172.8 180.4 185.4 177.6 172.8 156.9 142.5 133 136.1 130.2 115.2 99.2 100.5 99.7 98.1 93.3 89.2 89.2 90.3 94.4 104.5 115.8 120.2 114.7 112.6 113 122.1 123.1 124.7 130.2 134 140.7 154.4 163.1 171.5 180 178.6 185.7 191.2 173.4 174.9 162 165.3 164.6 169 159.4 148.6 136.5 123.7 116.9 116 113.3 106.4 101.4 90.3 88.9 87.2 78.8 75.8 75.3 72.5 73.4 73.3 59.1 57.8 63 67.2 80.7 85.3 82.8 90.1 80.3 71.4 58.7 54 51.4 52.4 50 49.1 56.8 51 49.6 50.1 34.4 23 22 19.4 16 24.8 41.6 48.8 47.4 43 28.5 33.7 31.7 35.8 42.8 30.5 54.2 48.7 48.9 42.9 49.4 40.4 36.1 28.4 26.2 29.5 26.8 17.6 9.3 -2.2 -2.2 0.8 -2.2 -2.2 -2.2 -2.2 -2.2 -2.2 -2.2 -2.2 -2.2 -2.2 -2.2 -2.2 -2.2 -2.2 -2.2 -2.2 -2.2 -2.2 -2.2 -2.2 -2.2 -2.2 -2.2 -2.2 -2.2 -2.2 -2.2 -2.2 -2.2 -2.2 -2.2 -2.2 -2.2 -2.2 -2.2 -2.2 -2.2 -2.2 -2.2 -2.2 -2.2 -2.2 -2.2 -2.2 -2.2 -2.2 -2.2 -2.2 -2.2 -2.2 -2.2 -2.2 -2.2
97.1 97.7 104.5 117.7 123.4 137.8 153.5 156.7 162.4 165.7 163.9 156.7 155.5 158.5 156.5 161.3 155.4 148.8 129.7 104.7 77.6 73.6 69.3 60.4 57.4 73.7 78.3 99.9 119.8 151.9 168.1 182.5 174 180.7 181.1 170.8 160.9 144.7 141.6 127.8 132.1 130.4 109.3 109.3 109 110.3 97.2 99.3 89.2 89.2 89.3 98.4 105.9 115.3 115.8 114.1 109 111.8 109.7 119.6 120.3 126.7 132.2 136.6 145.5 152.1 156.3 172.7 173.3 180.4 191.4 170.5 166.6 160.6 156.4 163.9 171.3 164.1 153.5 144.8 128.2 120.2 118.2 112.3 107.3 102.8 92.9 96.9 85.6 75.5 73.9 74.1 73 72 70.7 57.5 57.8 59.5 69.8 81.5 94.3 88.5 88.1 80.9 67.9 58.8 53.6 54.2 49.8 49.1 49.1 56 62.8 58.8 54.8 47.9 27.3 24.6 16 16 22.6 36.1 42.1 44 38.8 27.4 27.2 29.4 33.5 39.2 36.5 36.8 48.2 50.8 43 52.6 55 37.5 24.4 21.9 22.6 21.2 13.2 6.7 -2.2 -2.2 -2.2 -2.2 -2.2 -2.2 -2.2 -2.2 -2.2 -2.2 -2.2 -2.2 -2.2 -2.2 -2.2 -2.2 -2.2 -2.2 -2.2 -2.2 -2.2 -2.2 -2.2 -2.2 -2.2 11.6 -2.2 -2.2 -2.2 -2.2 -2.2 -2.2 -2.2 -2.2 -2.2 -2.2 -2.2 -2.2 -2.2 -2.2 -2.2 -2.2 -2.2 -2.2 -2.2 -2.2 -2.2 -2.2 -2.2 -2.2 -2.2 -2.2 -2.2 -2.2 -2.2 -2.2
96.2 98.3 100.3 104.9 112.2 115.9 128.9 136.4 143 148.3 156.1 144.7 147.3 154.6 163 163.9 159.5 147.9 131.8 112.8 81.3 71.9 65.4 56.4 47.1 70.4 79 95.9 108.4 128.6 158.3 171.2 177.1 179.1 175.2 169.4 148 132.2 122.4 126.8 130 121.9 121 119.6 109.9 108.2 106.9 94.2 96 90.1 97.6 99.9 104 109.8 110.9 107.8 105.9 109.6 108.5 109.9 111.3 115.3 121.8 126.9 138.7 148.6 145 157.1 164.6 170.5 170.1 164.3 159.5 154.2 154.2 160.2 166.5 169.7 164.9 142.3 129.7 124.4 121.7 113.3 108.7 99.9 87.7 87 88.7 74.7 72.7 72.1 71.2 73.1 70.7 65.9 57.8 57.8 80.7 84.5 95.5 88.8 82.3 75.1 67.9 65 61.6 56.6 49.1 49.8 51.7 58.6 66.1 62.2 57.5 55 28.8 24 17.9 16 20 33.1 35.8 36.1 30.4 27.4 26.9 27.1 33.9 40.3 36.5 33 51.8 46.3 40.9 51.1 49 37.9 27.1 26.4 16.1 12.8 12 9.9 7.9 -2.2 -2.2 -2.2 -2.2 -2.2 -2.2 -2.2 -2.2 -2.2 -2.2 -2.2 -2.2 -2.2 -2.2 -2.2 -2.2 -2.2 -2.2 -2.2 -2.2 -2.2 -2.2 -2.2 -2.2 6.6 -2.2 -2.2 -2.2 -2.2 -2.2 -2.2 -1.7 1.2 -2.2 -2.2 -2.2 -2.2 -2.2 -2.2 -2.2 -2.2 -2.2 -2.2 -2.2 -2.2 -2.2 -2.2 -2.2 -2.2 -2.2 -2.2 -2.2 -2.2 -2.2 -2.2
94.4 97.4 98.8 96.3 99.9 103.2 115.9 123 125 127.7 137.1 135.9 131.6 150.2 156.4 162.2 156.7 145.2 135.3 120 85.7 65.7 64 58.7 46.4 60.1 74.9 82.3 100 114.9 146.4 155.7 165.7 169.5 169.8 157.9 130.8 114.8 119.6 124.6 128 118.6 119 122.7 117.1 109.4 104 102.5 89.3 89.5 94.5 95.7 102.8 103.3 105.4 102.3 103.8 107.4 105.5 102 104.6 110.2 118.1 124.2 132.1 143.3 143.9 148.6 153.1 158.2 158.7 172.8 154.2 154.3 154.2 158.5 157.5 159.9 155.7 143.6 124.6 120 116.1 110.1 100.3 89.7 86.4 83.3 86.8 76 75.3 68.6 69.6 72 67.4 66.1 57.8 64.8 82.7 87.5 97.5 93.3 81.9 77.4 73 70 63.1 59.3 53 51.9 55.3 61.1 67.6 64.4 63 56.7 33.4 28 21.4 16 26.8 33.1 31.9 25.7 26.6 24.7 26.3 25.9 32.5 44.8 43.7 33 53.1 52.7 33.4 35.7 34.9 30.5 24.8 24.6 27.4 19.8 17.8 14.9 12.2 10.7 8.2 -2.2 -2.2 -2.2 -1.2 -2.2 -2.2 -2.2 -2.2 -2.2 -2.2 -2.2 -2.2 -2.2 -2.2 -2.2 -2.2 -2.2 -2.2 -2.2 -2.2 -2.2 -2.2 -2.2 -2.2 -2.2 -2.2 -2.2 -2.2 -2.2 1.8 3 -2.2 -2.2 -2.2 -2.2 -2.2 -2.2 -2.2 -2.2 -2.2 -2.2 -2.2 -2.2 -2.2 -2.2 -2.2 -2.2 -2.2 -2.2 -2.2 -2.2 -2.2 -2.2
103.8 97.4 96.5 91.8 90.5 94.1 106.4 113.7 111.3 106.8 110.3 118.3 123.5 127 147.7 149.9 143.9 142.4 127.9 110.4 85.4 72.2 62.5 57.5 45.4 42.8 66.6 73.3 97 116.1 135.8 146.7 159.6 162.4 163.9 151.7 126.1 114.8 114.8 114.8 118.7 117.2 118.1 121.5 113.7 118.5 107.6 103.5 100.8 89.4 89.4 95.4 99.4 102.7 103 99.8 104.9 105.8 108.1 106.8 102.9 109.9 112.7 119.2 125.2 130.5 140 145.8 152 148.2 165.5 159 156.4 164.1 155.7 164.4 167 151.3 144.4 139.7 123.2 117.1 110.6 105.3 97 86.1 87.8 87.2 80.7 72.7 72.7 72.3 69.6 69 63.5 61.1 57.8 69 85.6 90.8 90.4 94.5 89.7 82.9 82.7 76.3 73.1 67.2 62.1 53.2 58.5 59.1 66.8 68.7 68.4 61.8 38.3 21.9 24.1 17.3 28.8 34.1 38 24.2 24.2 24.2 30.7 27.6 25.9 41.8 44.5 32.9 32.1 35.5 28.8 26.9 25 24.5 25 31.9 34.1 36.8 31 23.6 20.9 15.8 11 -2.2 -2.2 -2.2 9.4 -2.2 -2.2 -2.2 -2.2 -2.2 -2.2 -2.2 -2.2 -2.2 -2.2 -2.2 -2.2 -2.2 -2.2 -2.2 -2.2 -2.2 -2.2 -2.2 -2.2 -2.2 -2.2 -2.2 -2.2 -2.2 -2.2 5.6 -2.2 -2.2 -2.2 -2.2 -2.2 -2.2 -2.2 -2.2 -2.2 -2.2 -2.2 -2.2 -2.2 -2.2 -2.2 -2.2 -2.2 -2.2 -2.2 -2.2 -2.2 -2.2
119.8 105.6 95.7 93 89.5 92 97.3 101.7 93.8 85.9 95.2 102.8 101.2 111.4 128.1 133.1 137.9 139.9 124.7 103.4 83.6 72.8 61.1 52.9 47.2 41.8 54.7 69.4 89.8 104.6 117.2 126.7 136.7 153.9 156.9 156.8 124.3 115.1 114.8 114.8 116.2 114.8 115.8 117.1 115 114 112.8 105.9 101.4 92.3 89.4 89.4 94.8 97.9 97.5 99.8 103.3 104 101.8 98.3 95.1 102.7 104.4 108.3 115.6 125.7 133 143.2 153.8 153.9 148.8 154.4 149.2 151.5 155.4 158.3 164.4 160.3 138.7 129.3 121 116.7 110.9 108.3 91.6 87.8 87.8 83.5 75.3 70.1 65.3 65.3 66.2 67 70.6 64.9 57.8 60.2 86.1 99.6 95.3 95.9 87.7 84.5 86 89.2 79.1 72.8 62.3 52.4 60.2 65.9 68.4 71.6 75.7 71.2 35.1 26.4 21 20 25.8 32.5 35.3 30.2 24.2 24.2 28.6 30.2 31.1 31.8 38.6 32 26.4 23.8 23.5 34.1 43.8 27.9 39 50.6 39.9 40.5 41.9 33.9 25.6 32.1 23.7 19.2 14 12.4 10 -2.2 -2.2 -2.2 -2.2 -2.2 -2.2 -2.2 -2.2 -2.2 -2.2 -2.2 -2.2 -2.2 -2.2 -2.2 -2.2 -2.2 -2.2 -2.2 -2.2 -2.2 -2.2 -2.2 -2.2 -2.2 -2.2 2.7 2.4 -2.2 -2.2 -2.2 -2.2 -2.2 -2.2 -2.2 -2.2 -2.2 -2.2 -2.2 -2.2 -2.2 -2.2 -2.2 -2.2 -2.2 -2.2 -2.2 -2.2 -2.2
136.6 121.5 101.4 94.3 92.1 88.3 92 90.2 89.6 83.2 84.7 87.9 91.7 97.8 110.7 120.2 125 128.1 118.8 98.7 86.6 71.2 56.6 52.9 46.2 42.2 46.9 63.4 79.6 90 100.1 113.8 121.6 135.8 152.8 164.2 146.6 118.7 114.8 118.8 121.6 127 120.5 113.7 117.9 114.7 116.6 110.5 103.8 101.1 97.6 94.3 92.6 93.4 97.6 98.5 100.8 99.9 94.9 87.9 83.8 94.7 93.6 97 104.3 116.5 129.2 136.6 145.7 151.4 148.8 153.2 144.8 150.9 151.3 153.5 149.3 158.1 135.8 126 120.9 112.7 109.8 104.8 94.4 89.3 82.2 77.3 71.1 66.1 62.6 62.7 62.8 69.1 73 66.5 61.6 58.7 71.1 99.7 103.3 93 87.9 82.7 86 94.4 85.5 78 68.1 56.6 67.1 72.5 71.9 77.3 79 68.3 34.6 26.8 21.5 19.8 30.9 27.9 33.9 32.4 29.3 24.1 25.1 30.9 37.4 33.1 32.3 23.8 23.5 23.5 23.5 31.1 41.2 27.9 44.5 47 44 54.6 45.8 40.1 47.8 42.5 32.7 29 26.1 21.4 15.8 -2.2 -2.2 -2.2 -2.2 -2.2 -2.2 -2.2 -2.2 -2.2 -2.2 -2.2 -2.2 -2.2 -2.2 -2.2 -2.2 -2.2 -2.2 -2.2 -2.2 -1.6 -2.2 -2.2 -2.2 -2.2 -2.2 -2.2 -2.2 -2.2 -2.2 -2.2 -2.2 -2.2 -2.2 -2.2 -2.2 -2.2 -2.2 -2.2 -2.2 -2.2 -2.2 -2.2 -2.2 -2.2 -2.2 -2.2 -2.2 -2.2
171.4 142.9 115.2 95.1 94.6 90.7 84.4 84.1 86.3 84.8 82.9 80.8 86.9 92.2 96.6 104.7 109.5 110.1 105.5 97.5 84.5 73.5 56.7 46.3 41.5 40.4 47.5 52.6 71.4 82.9 88.7 97.8 105.8 117.5 138.2 152.7 153.7 131.2 119.6 117.6 129 137.6 132.3 113.7 122.5 127 129.6 114 104.4 100 100.3 95.8 91.1 81.1 87.9 99.2 96.5 93.3 87.2 83.9 80.9 84.1 85.7 88.6 93.3 103.4 113 125.9 135.8 140.4 135.4 132.4 136.3 149.9 151.6 152.2 138.5 142.9 125.5 115.6 111 105.1 107.8 98.8 95.3 89 83.2 81.3 79.3 66.1 62.6 62.6 62.6 68.8 68.2 71.3 68 59.4 60.9 87.6 85.8 86.6 83.4 79.8 82.3 86.8 87.5 84.2 75.8 61.8 67.5 73 76.6 81.8 80.2 70.3 33.4 27.4 30.6 21.4 23 26.5 26.1 34.8 31.1 27.4 24.1 27.5 32.1 26.2 29.9 22.2 29.2 23.5 23.5 25.3 27.4 23.1 35.2 36.2 41.7 50.5 56.2 63.2 58.9 51.1 41.9 37.2 33.9 29.5 21.5 11.7 -2.2 -2.2 -2.2 -2.2 -2.2 -2.2 -2.2 -2.2 -2.2 -2.2 -2.2 -2.2 -2.2 -2.2 -2.2 -2.2 -2.2 -2.2 -2.2 -2.2 -2.2 -2.2 -2.2 -2.2 -2.2 -2.2 -2.2 -2.2 -2.2 -2.2 -2.2 -2.2 -2.2 -2.2 -2.2 -2.2 -2.2 -2.2 -2.2 -2.2 -2.2 -2.2 -2.2 -2.2 -2.2 -2.2 -2.2 -2.2
191.6 158.2 139.9 120.9 99.9 96 91.4 86.2 83.2 83.1 82.6 79 80.8 80.3 86 94.4 99.1 99.7 93.9 91 82.3 71.6 55.2 42.4 39.3 39.8 43.6 45.5 62.3 68.8 76.6 84.5 87.9 100.2 120.1 137.5 146.2 141.5 121.6 121.8 137.5 144.4 144.7 132.8 123.5 130.7 132 126.7 103 100.1 97.1 97.7 95 81.8 75.9 89 94.3 90.4 83.1 79.7 76.8 76.3 81.3 79.3 89.2 99.4 105 115 125.2 132.4 130.8 131.8 138.5 141.4 143.2 149.1 145.6 133 125.5 117.8 106.4 102.7 99.4 96.9 93.4 87.5 85.9 92.3 83.3 64.1 62.6 62.6 62.6 64.1 66.8 71.9 74.7 54.7 61.8 76.3 76.6 83.9 82.9 84.2 79.8 81.7 87.1 84.3 76 66.3 61.3 71.5 78 84.6 85.6 73.8 34.8 27 21.5 22.4 17.7 28 26.6 30.5 29.6 27.9 31.1 23.9 26 28.1 24.5 22 23.9 26.7 23.5 23.5 24.2 24.7 23.5 31.8 44.9 65 69.7 74.6 66.1 60.5 56.5 53.5 38.4 29.1 22.3 8.1 -2.2 -2.2 -2.2 -2.2 -2.2 -2.2 -2.2 -2.2 -2.2 -2.2 -2.2 -2.2 -2.2 -2.2 -2.2 -2.2 -2.2 -2.2 -2.2 -2.2 -2.2 -2.2 -2.2 -2.2 -2.2 -2.2 -2.2 -2.2 -2.2 -2.2 -2.2 -2.2 -2.2 -2.2 -2.2 -2.2 -2.2 -2.2 -2.2 -2.2 -2.2 -2.2 -2.2 -2.2 -2.2 -2.2 -2.2 -2.2
206.5 192.9 166 140 125 107.4 95.6 97.1 85.4 81.9 78.2 80.1 78.5 76.9 80.3 88 92.9 88.6 83.5 78.9 73.6 61.4 45.7 37.8 34.7 40.8 40.3 44.2 48.3 60.6 65.3 71.6 75.7 88.3 106.4 115.6 126.1 133.5 108 119.1 131.1 139.1 141.5 133.8 123.7 123.6 126.8 117.6 106.1 94.7 97.2 96.6 97.1 86.4 77.7 74.9 74.9 74.9 74.9 74.9 74.9 75 75.7 77.7 85.2 93.6 101.5 109.3 114.1 124.8 124.7 131.3 140.6 142.7 139.6 143.7 144.9 136.4 125.9 120 116 105 99.1 96.2 87.4 83.5 85.4 82.7 72.9 66.3 62 62.6 62.6 69.3 71.3 68.2 68.7 54.7 54.7 76.3 79.2 84.2 84 85.6 80 81 87.4 83 81.8 74.2 64.9 74.2 81.2 84.8 85.2 68.3 34.2 22.2 18.4 18.2 13.2 23.8 22.7 23 27.1 32.7 46.2 33.1 24.7 24.4 22.3 20.7 26.3 34.2 33 23.4 25.8 23.5 23.5 29 44.8 71 78.5 76.5 74.4 75.3 65.6 51 44.6 32.8 21.2 -2.2 -2.2 -2.2 -2.2 -2.2 -2.2 -2.2 -2.2 -2.2 -2.2 -2.2 -2.2 -2.2 -2.2 -2.2 -2.2 -2.2 -2.2 -2.2 -2.2 -2.2 -2.2 -2.2 -2.2 -2.2 -2.2 -2.2 -2.2 -2.2 -2.2 -2.2 -2.2 -2.2 -2.2 -2.2 -2.2 -2.2 -2.2 -2.2 -2.2 -2.2 -2.2 -2.2 -2.2 -2.2 -2.2 -2.2 -2.2 -2.2
222.1 215.6 200.2 159.5 158.3 131.3 107.2 93.7 87.5 77.7 74.8 77.1 73.6 77.2 73.1 81.2 83.7 83.4 79.3 72.8 64.1 53.3 40.8 34.2 33.2 36 40.6 42.2 40 55 58.1 61.2 64.1 77 93.5 109.4 109.6 115.6 94.8 105.2 119.2 129.6 130.6 124.5 115.1 116.4 119.1 121.7 106.4 90.2 96.1 98.1 95.6 94.4 78.8 76.4 74.9 74.9 74.9 76.3 77 75.5 78 80.2 85.6 92.4 101.3 109.1 111.4 118.2 126.4 133.1 139.6 141.8 136.6 134.4 134.4 134.4 128.6 130.9 128.3 116.2 97 91.2 86.3 84 77.5 67.2 65.4 64.3 59.8 60.8 62.6 66.6 70.3 69.5 64.5 54.7 54.7 74.3 84.5 87.6 89.3 87.4 80.2 80.2 85.7 83.8 82.6 78.5 71.5 72.3 73 76 77.3 59 33.7 24.3 17.2 17.3 13.2 14.2 16.1 16.5 24.1 30.5 47.4 40.5 33.5 21.4 20.7 20.7 26.8 41.1 34.4 23.9 23.5 23.2 24.8 29.7 47.3 73.1 84.8 71.7 76.7 79.1 71.5 56.9 48.3 36.8 26.5 11.8 -2.2 -2.2 -2.2 -2.2 -2.2 -2.2 -2.2 -2.2 -2.2 -2.2 -2.2 -2.2 -2.2 -2.2 -2.2 -2.2 -2.2 -2.2 -2.2 -2.2 -2.2 -2.2 -2.2 -2.2 -2.2 -2.2 -2.2 -2.2 -2.2 -2.2 -2.2 -2.2 -2.2 11 -2.2 -2.2 -2.2 -2.2 -2.2 -2.2 -2.2 -2.2 -2.2 -2.2 -2.2 -2.2 -2.2 -2.2
227 228.3 209.1 189.6 174.7 155.9 117.9 100.7 86.4 76.7 72 70.6 71.2 70.8 71.2 80 80.7 73.6 73.1 68.2 58.6 47.3 38 32.6 33.3 35.6 41.7 43.1 38.7 46.6 53.4 54.6 55.7 61.2 72.2 88.7 103.2 98.6 77.8 87.6 100.4 112.1 114.2 114.7 104.1 108.6 108.8 111.9 102.8 88.2 91.1 92.7 92 89.9 84.2 81.7 75 74.9 74.9 83.2 82.2 79.5 82.8 84.1 89.4 96.3 100.8 104.3 107.1 111.5 120.6 134.6 134.7 141.8 140.4 141.5 135.3 134.5 132.5 132.5 138.8 122.9 100.7 91.2 86.5 83.8 77.2 68.3 66.2 65.7 62.9 60.8 62 74.2 73.7 66.5 57.9 55.1 61.4 76.3 86.3 90.8 89.5 83.8 80.2 83 87.8 90.6 86.6 83.5 80.8 62.3 66.2 65.1 65.1 52.1 34.1 20.9 13.2 13.2 13.2 13.2 13.2 17.1 23.3 27.9 36.6 38.2 33.2 23.9 20.7 20.7 25.8 40.5 37.7 25.2 23.5 23.9 25.4 34.4 52.6 77.9 74.2 69.6 72.2 68.8 72.5 58.3 49.6 43.7 35.2 14.8 2.7 10.9 3.2 -2.2 -2.2 -2.2 -2.2 -2.2 -2.2 -2.2 -2.2 -2.2 -2.2 -2.2 -2.2 -2.2 -2.2 -2.2 -2.2 -2.2 -2.2 -2.2 -2.2 -2.2 -2.2 -2.2 13.2 8.8 2.1 -2.2 -2.2 -2.2 -2.2 -1.7 -2.2 -2.2 -2.2 -2.2 -2.2 -2.2 -2.2 -2.2 -2.2 -2.2 -2.2 -2.2 -2.2 -2.2
236.7 230.6 228.5 209.9 185.3 159.8 127.1 112.3 91.9 78.7 72.2 69.2 68 63.6 61.9 68.4 72.6 72.2 65.8 57.6 50.2 43.1 34.4 30.8 36.2 35.4 42.2 44.9 34.6 40.7 43.2 47.9 51.7 53.6 58.4 69.6 81.2 91.8 68.8 65 91.4 93.9 101 102.4 93 96.8 97.6 100.9 92.7 87.1 86.4 88.4 93.8 92.5 89.7 94.3 86.3 75 74.9 85.3 86 82.5 90.1 89.7 91.3 99.2 102.4 106.4 107.5 109.7 116.9 125.3 130 136.9 146.5 142.6 142.5 143.2 141.9 140.1 133.2 124.6 116.3 105.7 100.7 87 78.7 74.7 72 64.6 60.1 59.7 61.2 69.5 75.5 67.3 54.1 55.4 61 67.9 81.4 86.4 90.8 82.7 80.2 80.2 88.4 94.3 88 86.4 81.8 61.1 59 49.6 47.5 39 28 19 13.2 13.2 13.2 13.2 18 17.1 21.6 25.3 33.9 34.9 25 23.9 21.2 20.7 20.7 30.7 33.1 23.6 23.5 23.8 24.7 37.8 61.8 75.4 73.9 70.8 71.9 66.6 68.9 61.3 52.2 48.8 42.3 18.4 13.8 17.6 7 -2.2 -2.2 -2.2 -2.2 -2.2 -2.2 -2.2 -2.2 -2.2 -2.2 -2.2 -2.2 -2.2 -2.2 -2.2 -2.2 -2.2 -2.2 -2.2 -2.2 -2.2 8.8 1.8 4.6 1.9 -2.2 -2.2 -2.2 -2.2 -2.2 -2.2 -2.2 -2.2 -2.2 -2.2 -2.2 -2.2 -2.2 -2.2 -2.2 -2.2 -2.2 -2.2 -2.2 -2.2
249.2 242.6 233.6 207.7 174.4 155.2 136.2 115.9 99.5 87.7 74.6 69.4 68 63.5 58.9 60 65.2 64.7 61.9 53.8 41.8 36.5 33.1 29.5 34.9 32.6 36.2 37.7 35 35.9 39.2 39.7 44.1 47 52.2 59.8 66.4 77.9 82.6 54.7 66.4 81.9 85.6 95.5 85.9 78.2 86.8 86.4 85.8 86 85.8 88.8 88.5 88.7 86.6 90.7 91.1 86.5 74.9 74.9 85.4 86.1 87.6 90.9 86.7 92.2 100.8 103.7 105.7 108.1 111 117.3 122 135.5 141.3 142.6 150.1 148.1 148.8 142.7 145.3 147.8 139.8 136.2 125.4 105 99.3 89.8 83.2 72.8 60 59.7 59.7 64.3 65.2 60.5 53.7 55.9 62.3 70.7 73 83.8 86.6 85.7 81.9 81 82.3 92.4 91.6 90.4 88 59.6 48.6 42.5 29.9 26.4 27.1 25.8 13.2 13.2 13.2 13.2 18.3 16.2 21.1 23.3 29.3 29.8 25.3 27.8 25.5 20.7 20.7 22 31.6 26.1 31.9 32.8 27 42.6 63.3 74.1 78 72.6 79.6 80.2 70 57.3 53.8 52 40.4 16.9 22.1 22.4 17 -2.2 -2.2 -2.2 -2.2 -2.2 -2.2 -2.2 -2.2 -2.2 -2.2 -2.2 -2.2 -2.2 -2.2 -2.2 -2.2 -2.2 -2.2 -2.2 -2.2 -2.2 -2.2 -2.2 -2.2 -2.2 -2.2 8.3 -2.2 -2.2 -2.2 -2.2 -2.2 -2.2 -2.2 -2.2 -2.2 -2.2 -2.2 -2.2 -2.2 -2.2 -2.2 -2.2 -2.2 -2.2
248.2 247.4 234.9 216.8 184 157 149.7 122.8 105.4 93.2 82.2 66.1 65.1 61.9 61.9 55 56.5 56.5 56.9 49.9 39 32.9 27.1 27.1 30.8 29.8 31.2 37.9 34.5 26.4 35.9 36.7 41.6 42.5 47.6 51.6 60.5 69.5 71 64.5 56.2 68.3 71.5 77.9 80.9 76.9 84.3 78.6 79.4 78.1 80.1 81.3 88.7 90.6 87.2 86.6 90.5 91.3 84.9 78.5 74.9 85.8 84.2 87.3 86.9 88.3 93.1 99.2 102.1 106.7 110.5 114.8 122.5 130.7 130.9 139.8 150 151.7 155.1 161.6 154.5 149.9 152.4 152.2 142.9 128.8 125.4 108.7 97.3 89.8 67 59.7 60.4 59.8 68.5 66.1 52.6 57.8 59.1 69.4 69.8 79.5 84.6 89.2 80.4 76.7 82.1 84.8 93.7 90.3 88.5 76.2 51.8 34.2 27 24.3 29 27.8 17.4 13.2 13.2 13.2 14.9 17.4 28.3 25.6 25.7 27.9 29.1 31.7 28.7 28.5 24.2 20.7 28.3 32.1 38 45.6 41.3 45.5 62.4 68.9 72.4 74.4 78.9 75.9 73 60 47.6 48.7 34.9 15.5 24 28.4 26.5 7.3 -2.2 -2.2 -2.2 -2.2 -2.2 -2.2 -2.2 -2.2 -2.2 -2.2 -2.2 -2.2 -2.2 -2.2 -2.2 -2.2 -2.2 -2.2 -2.2 -2.2 -2.2 -2.2 -2.2 -2.2 -2.2 1.1 -2.2 -2.2 -2.2 -2.2 -2.2 -2.2 -2.2 -2.2 -2.2 -2.2 -2.2 -2.2 -2.2 -2.2 -2.2 -2.2 -2.2 -2.2
252.7 248.1 238.2 226.4 197.5 162.9 151.3 132.9 116.8 109.8 99.3 78.8 58.9 55.6 54.3 54.4 52.7 53.2 51.6 46.2 38.2 26.8 26 26.7 29.1 27.6 31.5 34.9 33.3 19.9 30.5 35.4 39.4 40.1 43.5 48.1 54.3 58.4 65.1 61.9 48.4 56.8 55.8 63 68.1 71 69.2 72.3 74.2 75 76.1 78 84 84.7 86.7 88.8 89 88.6 88.7 90.3 76.3 74.9 76.4 87.7 88.6 90.4 92.5 94.3 101.4 105.9 109.5 112.9 121.4 122 124.3 140.2 157.9 170.5 162.8 163 159.6 154.1 150.7 144.6 140.7 129.8 122.2 114.7 112 84.9 68.8 59.7 59.6 63.3 64.1 57.6 52.4 57.3 59 56.9 65.3 73.9 76.8 84.5 81.8 77.6 82.5 81.8 86.4 88.4 83.1 73.6 44.6 31.3 23.4 26.6 24.6 21.1 16.9 13.7 13.2 13.2 13.2 18.4 29 29.4 27.9 33.3 30.5 30.3 31.6 35.5 31.1 20.5 23.6 32.9 45.7 45.5 43.8 46.7 49 65.1 67.1 69.5 68.1 69.5 66.3 58.4 54.7 39.2 31 16.6 20.5 33.3 24.4 9.7 -2.2 -2.2 -2.2 -2.2 -2.2 -2.2 -2.2 -2.2 -2.2 -2.2 -2.2 -2.2 -2.2 -2.2 -2.2 -2.2 -2.2 -2.2 -2.2 -2.2 -2.2 -2.2 -2.2 -2.2 -2.2 -2.2 -2.2 -2.2 -2.2 -2.2 -2.2 -2.2 -2.2 -2.2 -2.2 -2.2 -2.2 -2.2 -2.2 -2.2 -2.2 -2.2 -2.2 -2.2
251.8 249.8 240.6 227.5 205.6 180.7 159.4 143.4 121.2 120.8 115.3 91.1 74.2 60.4 58.4 51.1 49.6 53.6 46.6 41.7 30.8 27.2 25.8 27.7 27.6 26.8 27.1 32.2 31 18.8 22.6 29.8 34.7 36.3 40.8 43.1 47.9 51.2 54 53.7 50.1 51.1 47.8 52.5 55.8 60.2 46.3 60.6 66 71.9 72.2 67.4 77.8 84.2 86.6 87.8 90.6 89.2 90.9 90.9 87.7 78 77.8 84.1 97 91.3 85.7 92.5 95.9 97.8 105.7 110.2 115.3 121.6 120.8 142.9 158.7 171 163.2 170 172.5 154.6 155.7 147.4 142.5 135.8 127.1 118.9 103.2 92.8 83.1 57.4 61.1 68 61.5 52.2 53 59.4 63.5 55.2 63.3 71.9 72.4 77.1 78.2 76.5 75.6 82.3 82.6 83.7 76.3 66.2 50.4 31.8 22.1 22.1 19.4 18.9 20 19.3 13.2 13.2 13.2 22.5 28.3 33.5 33.1 38.9 36.1 31.8 34.8 42.3 42.5 25.8 20.8 20 40.1 34.7 39.2 39.5 43 46.2 57.5 64.2 56.8 59.6 65.2 57.4 51.9 33.4 22.2 9 21.9 31.3 24.3 15.6 -2.2 -2.2 -2.2 -2.2 -2.2 -2.2 -2.2 -2.2 -2.2 -2.2 -2.2 -2.2 -2.2 -2.2 -2.2 -2.2 -2.2 -2.2 -2.2 -2.2 -2.2 -2.2 -2.2 -2.2 -2.2 -2.2 -2.2 -2.2 -2.2 -2.2 -2.2 -2.2 -2.2 -2.2 -2.2 -2.2 -2.2 -2.2 -2.2 -2.2 -2.2 -2.2 -2.2 -2.2
250.5 250.1 242.3 226 216.4 192.6 171.8 150.5 134.8 126.2 127.9 106.7 82.2 74 58.4 56.4 50.2 48 47.8 41 29.8 30.5 30.1 26.2 26.4 24.1 25.3 28.6 29 26.1 21 27.7 29.3 29.9 37.9 42.1 42.4 44.6 44.8 46.1 45.6 42.5 44.5 45.7 53.5 45 42.3 47.8 57 64 68.4 68.1 68.4 82.2 85.3 87.7 90.5 91.6 94.2 93.6 89.1 84.6 76.6 71.6 86.2 86.1 86.4 86.6 88.3 99.5 102.8 106.7 115.5 119.3 123 133.8 147 166.9 168 163.2 169.4 165.9 155.7 149.6 147.6 143.6 135.6 122.4 107.4 96.2 90.2 60.7 57.9 65.4 57.9 52.2 55.1 61.6 65.1 55.2 61.4 67.6 70.8 73.9 72.8 74.1 78.3 78.4 84.3 86.6 68.3 63.9 59.9 30.4 22.4 23.7 21 21 23.1 29.5 17.1 13.2 13.2 24.3 34.7 41.6 43.5 44.3 34.6 35.4 33.2 44.8 49.7 33.3 19.8 20.2 21.3 28.4 33.1 29.6 31.5 34.5 37.4 43.6 47.3 44.3 51.5 48.8 40.1 28.5 10.5 6.1 16.4 19.6 15.4 3.9 -2.2 -2.2 -2.2 -2.2 -2.2 -2.2 -2.2 -2.2 -2.2 -2.2 -2.2 -2.2 -2.2 -2.2 -2.2 -2.2 -2.2 -2.2 -2.2 -2.2 -2.2 -2.2 -2.2 -2.2 -2.2 -2.2 -2.2 -2.2 -2.2 -2.2 -2.2 -2.2 -2.2 -2.2 -2.2 -2.2 -2.2 -2.2 -2.2 -2.2 -2.2 -2.2 -2.2 -2.2
245.6 253.4 246.8 230.7 216.4 202.5 180.7 162.9 145.3 135 129.7 120 99 83.8 68.9 58.2 57.4 53.5 48.8 45.6 40.5 38.3 36.3 28.8 22.2 21.3 20.9 24 21.9 19.8 19 25.8 24.4 27.3 31.7 33.6 37.4 38.4 41 40.8 37.9 35.9 35.7 39.1 41.7 47 43.4 36 50 53.3 59.3 59.6 62.6 71.7 80.6 85.5 88.3 88.2 91.2 91.2 93.4 91.7 85.7 70.4 80 87.2 82.9 80.8 87.3 94.1 98.4 105.2 111.1 115.5 121.4 124.2 137.1 159.8 166.3 168.8 169.8 167.8 163.9 155.4 152.4 152.8 140 124.3 113.2 99.7 94.7 69.4 52.4 61 52.7 52.2 56.8 58.7 62.4 61.6 58.6 60.3 59.6 66.5 69.3 73.6 75.4 68.8 74.7 77.4 68.2 62.1 54 29.3 26 28.4 33 32.6 27.5 26.7 22.2 13.2 15.1 29.6 39.8 52.5 48.7 48.7 41.4 28.9 28.1 40 43.9 38.8 21.9 20.5 19.4 19.1 26.1 26.5 33 35.5 28.7 28 30.2 34.3 37.4 42.2 31.1 13.5 6.8 6.1 5.8 9.5 7.3 7.7 6.9 4.7 -2.2 -2.2 -2.2 -2.2 -2.2 -2.2 -2.2 -2.2 -2.2 -2.2 -2.2 -2.2 -2.2 -2.2 -2.2 -2.2 -2.2 -2.2 -2.2 -2.2 -2.2 -2.2 -2.2 -2.2 -2.2 -2.2 -2.2 -2.2 -2.2 -2.2 -2.2 -2.2 -2.2 -2.2 -2.2 -2.2 -2.2 -2.2 -2.2 -2.2 -2.2 -2.2
239.8 253 245.3 233.5 224.5 208.5 195.9 172 155.6 141.9 131.9 122.6 111.6 99.6 82.5 59.6 58.6 64.5 57.5 46.4 44.1 43.6 38 26.8 23.8 22.6 18.5 18.6 19 19 19 19 19 25.5 30 33.3 33.5 33.5 33.1 32.8 31.3 29.3 28.1 33 31.1 34.3 35.2 33.5 39 44.8 52.3 58.5 51.9 68.5 74 77.1 86.6 89.8 93.2 94.1 91.9 84.8 88.6 76.4 70.5 74 79.4 81.9 80.6 87.8 96 100.2 105.9 113.9 115.7 127.9 140.1 166.2 178.6 172.8 173.9 173.5 169.8 171.9 165.4 159.1 156.6 143.4 114 101.1 90.4 77 51.2 53.6 49.1 47.9 52.2 61.5 63 60.3 57.6 59.4 58.7 59.8 70.7 73.5 73 70.5 70.1 75.5 70.9 81.4 60.7 35.6 31.7 37.8 51.2 52.2 32 26.8 22.6 13.4 15.6 31.7 40.6 51.8 61 60.3 43.5 37.9 27.9 31.9 38.2 35.8 21.5 16 19.3 27.8 26.6 29.3 27.2 36 26.5 24.5 29.5 41 42.8 33.4 23.1 11.4 10.9 6.1 9.2 10.1 9 10.3 10.3 5.6 -2.2 -2.2 -2.2 -2.2 -2.2 1.7 -2.2 -2.2 -2.2 -2.2 -2.2 -2.2 -2.2 -2.2 -2.2 -2.2 -2.2 -2.2 -2.2 -2.2 -2.2 -2.2 -2.2 -2.2 -2.2 -2.2 -2.2 -2.2 -2.2 -2.2 -2.2 -2.2 -2.2 -2.2 -2.2 -2.2 -2.2 -2.2 -2.2 -2.2 -2.2 -2.2
225.7 248.5 246.1 232.7 225.7 213.2 204.2 185 170 149.8 138.1 125.3 117.4 108.7 93.8 80.4 66.9 68.8 67.1 57.9 43.5 40.1 37.7 30.6 26.7 24.2 20.3 18.1 19 19 19 19 19.2 22.7 25.2 30.7 30.2 27.5 27.3 27.3 23.7 22.5 21 25.4 26.9 29.7 33.2 26.1 25.7 37 45.8 49.4 46.2 57.5 68.7 75.7 85.6 94.7 99.6 91.3 85.5 82 80.2 78.7 73.9 69.6 72.3 75.9 79.7 83.3 93.2 95.9 98.1 108.1 115.2 126.9 140.1 164.7 176.8 173.4 177.1 175.8 175.6 175.7 169.4 163.7 158.6 144.5 122.2 96.6 91.2 74.2 53.2 47.8 51 47.1 48.7 55.8 63.3 51.9 50.3 59.7 60.5 63.4 59.4 65 69.8 68.4 69.2 74 75.4 73.1 64.3 37 31.8 41.3 47.9 51 29.3 22.3 15.8 13.4 13.2 35.4 40.3 51.8 57.7 53.7 39.9 40.2 29.2 26.5 32.1 30.3 27.8 14.9 19.4 28.9 34.8 26.7 26.1 24.2 18.8 29.3 20.9 35.4 33.6 18.5 9.9 10.8 6.9 6.1 12.3 14.9 20.2 17 14.9 8.6 -2.2 -2.2 -2.2 -2.2 -2.2 -2.2 -2.2 -2.2 -2.2 -2.2 -2.2 -2.2 -2.2 -2.2 -2.2 -2.2 -2.2 -2.2 -2.2 -2.2 -2.2 -2.2 -2.2 -2.2 -2.2 -2.2 -2.2 -2.2 -2.2 1.1 -2.2 -2.2 -2.2 -2.2 -2.2 -2.2 -2.2 -2.2 -2.2 -2.2 -2.2 -2.2
214.1 234.9 238.3 228.6 221.6 216.3 207.8 198.9 177.1 154.3 138 122.2 114.1 105.7 99.1 93 81 70.5 70 69.5 58 41.9 39 34 30.2 26.7 19.3 19 19 19 19 19 21 32.3 36.1 30.1 29.2 27.6 25.5 22.9 22.1 19.9 19.2 18.1 26.2 25.4 24.5 19.7 21.1 36.7 47.5 47.9 35.9 45.5 62.1 73.5 83.4 86.8 89.2 90.6 84.1 84.6 82.2 78.1 76.7 72.2 67.2 69.7 74.9 75.3 87 90.6 93.1 101 109.9 120 140.4 160.3 166.2 167.9 175.6 176.5 174.1 170.8 170.1 163.9 152.5 146.7 126.6 107.3 87.1 65.8 54.7 47.1 47.1 47.1 51.3 57.4 60.2 53.9 49.3 55.9 58.7 66.6 62.9 59.5 60.1 65.3 66.7 65.4 69.7 72.5 68.7 43.7 35.6 37.8 43.6 37.8 29.7 22.3 18.9 17 13.2 31.5 36.2 44.7 52.9 48.9 38.1 36 30.5 29.9 24.4 25.2 24.2 14.4 18.1 23.9 37.7 32.1 23.6 19.1 9.7 18.7 16.8 23.1 23.5 7.8 5.9 7.5 6.8 6.1 8 19.8 26.2 21.8 18.5 15.4 -2.2 -2.2 -2.2 -2.2 -2.2 -2.2 -2.2 -2.2 -2.2 -2.2 -2.2 -2.2 -2.2 -2.2 -2.2 -2.2 -2.2 -2.2 -2.2 -2.2 -2.2 -2.2 -2.2 -2.2 -2.2 -2.2 -2.2 -2.2 -2.2 5.4 -2.2 -2.2 -2.2 -2.2 -2.2 -2.2 -2.2 -2.2 -2.2 -2.2 -2.2 -2.2
208.2 227.3 231.7 225.6 224.2 223.4 216.6 206.1 191.5 161.5 139 124.4 116.3 103.9 97.4 95.9 92.4 71.3 67 72.5 63.6 53.4 39.8 36.4 35.1 33.8 25.5 19 19 19 19 19 19 32.2 39.7 35.5 32.7 33.8 31.9 22.8 20.2 18.4 18.7 18.1 25.9 25.5 22.4 19.3 17.5 31.5 38.5 44 37.2 34.1 57.8 66.4 74.2 79.6 84.7 84.5 84.3 82.3 79.7 73.8 74.3 68.5 67.4 65 78.4 80.6 77.8 82.5 86.7 90 104.8 116.4 130.1 150.4 157.6 164.3 161.9 165.1 165.8 163.9 163.9 159.2 150.2 140 126.6 102.8 89.6 71.4 64.2 48.4 47.1 47.1 49.1 52.2 60.7 58.8 50.1 57.5 54.7 65.2 67.1 62.8 66.8 67.2 65.6 65.7 69 73.6 74.7 55.3 40.9 34.3 29.8 30.6 27 22.2 18.2 15.7 13.2 29.2 31 37.7 41.5 45 38.9 38.5 36.1 29.4 25.3 21.1 16.9 16.5 14.2 21.2 30.9 29.4 20.4 17 6.1 6.4 5.8 6 7.6 11 5.2 6.2 6.1 6.1 6.1 15.3 24.4 22.4 21.2 18.4 -2.2 -2.2 9.1 -2.2 -2.2 -2.2 -2.2 -2.2 -2.2 -2.2 -2.2 -2.2 4.8 -2.2 -2.2 -2.2 -2.2 -2.2 -2.2 -2.2 -2.2 -2.2 -2.2 -2.2 -2.2 -2.2 -2.2 -2.2 -2.2 5.3 -2.2 -2.2 -2.2 -2.2 -2.2 -2.2 -2.2 -2.2 -2.2 -2.2 -2.2 -2.2
203.3 215.8 227.4 226 225.9 224.2 223.1 213.6 204.3 183.8 150.1 128.8 115.5 107.6 101 97.6 95.1 83.1 66.4 70 65.1 59.2 47.4 39.3 38.9 32 28.7 22.7 23.4 26.6 19 19 22.8 31.3 37.2 39.8 34.4 31.7 29.7 28.1 25.6 20.5 20.4 19.8 18.9 22.9 20.6 18.2 17.6 26.1 29.9 39.9 37.5 31.2 42.4 58.8 66.7 72.1 79 79.4 80 76.7 75.2 72.5 74.8 67.9 64.4 63.4 64.8 75.5 75.7 79.9 86.5 95.2 105.7 109 115 135.9 144.8 151.7 149.4 154.6 156.7 156.2 156.6 158.3 150.9 134 111.2 86.5 80.9 72.3 62.8 56.3 47.1 47.1 47.1 51.5 57.8 58.7 51.2 57.9 56.7 57.6 68.5 72.1 68.6 67.9 68.8 68.8 70.2 67.9 62.9 62.5 46.6 42.3 20.6 21.7 26.1 18.7 14.9 15.2 15.2 30.8 34.2 34.5 45.5 41.4 39.8 38.2 37.6 31.2 29.3 23.2 19.6 14.2 14.2 16.9 24.7 26.9 20.7 21.5 13.8 6.2 6.1 14.4 7.4 9.8 8 6.1 11.2 6.1 6.6 15 19.5 19.7 15.2 20.7 9.5 1.8 4.4 -2.2 -2.2 -2.2 -2.2 -2.2 -2.2 -2.2 -2.2 7.1 16.3 -2.2 -2.2 -2.2 -2.2 -2.2 -2.2 -2.2 -2.2 -2.2 -2.2 -2.2 -2.2 -2.2 -2.2 -2.2 -2.2 -2.2 -2.2 -2.2 6.5 -2.2 -2.2 -2.2 -2.2 -2.2 -2.2 -2.2 -2.2 -2.2
198.5 211.7 217.3 226.8 228.2 228.2 228.8 221.9 208.8 194.2 162.2 142.9 118 117.3 105.8 97.7 98.3 96.4 79.9 66.1 65.1 59.5 51.1 48.4 38.3 28.1 26.5 24.4 26.3 28.7 19 19 31 35.1 40.3 41.4 39.5 34.9 32.8 29.5 25.7 24.9 20.9 18.3 18.1 20.2 21.5 16.2 14.5 20.5 27.4 31.9 35.6 30.3 32.2 50.9 60.4 68.1 74.4 77.6 78.8 76.8 75 73.1 70.3 69.8 69.4 62.3 62.3 72.4 77.6 77.4 84.3 92 101.2 109.6 115 125.3 139.8 143.1 143.3 144.3 148.4 149 149.2 146.6 141.5 130.4 101.8 74.2 66.5 63.6 59.1 51.9 47.1 52.5 50.9 47.2 45 53.1 45.6 56.3 62.1 53.9 68 72.9 72.9 72.6 69.4 74.2 74.4 59.6 58.6 66.2 53.2 27.8 21.7 18.4 18.5 11.6 11.6 15.5 19.4 25.3 41.3 34.7 40.2 49.7 45.5 39.2 43.7 29.4 29.7 29.1 24.9 14.2 14.2 14.1 20.9 23.4 27.3 25.9 16.1 7.8 13.2 14.3 13.5 11.2 7.1 6.1 6.1 6.1 6.1 14.7 16.5 15.9 7.8 20.3 -2.2 -2.2 -2.2 -2.2 -2.2 -2.2 -2.2 -2.2 -2.2 -2.2 18.4 14.1 15.8 16.9 -2.2 -2.2 -2.2 -2.2 -2.2 -2.2 -2.2 -2.2 -2.2 -2.2 -2.2 -2.2 -2.2 -2.2 -2.2 -2.2 -2.2 -2.2 -2.2 -2.2 -2.2 -2.2 -2.2 -2.2 -2.2 -2.2 -2.2 -2.2
191.8 205.3 211 220.7 224 228.3 224.1 222.2 215.6 204.5 179.3 149.7 122.9 114.3 106 98.5 102 103.1 88 80.7 66.4 60.5 54.7 53.7 53.7 39.2 26.7 27.7 22.5 19.5 17.7 19 36.7 38.4 43.1 48.2 42.2 36.2 28.2 28.3 26.5 24.9 20.3 18 17.8 18.1 20.6 14.5 14.5 17.4 24.4 27.1 34.6 34.4 32.2 42.1 51.7 61.2 66.4 72.7 76 74.1 73.9 70.8 64.9 67.7 67.7 62.3 62.3 62.3 71.5 75.4 76.9 90.2 101.3 109.7 112.8 127.9 136.3 140 141.5 143.2 145 145.5 142.5 134.5 131.3 115.2 98.1 78.3 67.5 65.6 53 48.9 50.9 50 46.1 53.4 45.8 40.7 42.8 40.8 61.6 56.4 61.3 78.1 76.2 67.8 67.4 69.6 77.1 60.5 58.6 60.5 45.7 24.3 21 14.6 12.4 11.6 11.6 11.6 15.2 24.1 40 38.6 38.9 54 53.5 44.1 35.8 26.1 29.8 35.8 28.5 16.1 18.6 22.5 16.9 24.9 29.1 22.2 13.7 8.9 8.2 10.7 14.8 15.6 6.1 6.1 6.1 6.1 6.1 11 11.2 8.8 3.5 4.8 -2.2 -2.2 -2.2 -2.2 -2.2 -2.2 -2.2 -2.2 -2.2 12.3 24.8 18.3 23.3 27.9 11.4 -2.2 -2.2 -2.2 -2.2 -2.2 -2.2 -2.2 -2.2 -2.2 -2.2 -2.2 -2.2 -2.2 -2.2 -2.2 -2.2 -2.2 -2.2 -2.2 -2.2 -2.2 -2.2 -2.2 -2.2 -2.2 -2.2 -2.2
183.3 192.5 200.4 216.3 217.8 218.5 219.7 217.1 216.9 207.2 184.7 157.6 135.6 116.5 105.8 98.7 103.1 100.1 93.5 88.6 77.3 67.1 55.7 54.4 55 50.6 33.6 31.3 27.8 16 18.9 19.1 32.5 35.6 40.6 42.6 42.3 35.2 32.9 28.2 30.6 26 24.4 20.1 17.4 18.1 21.6 15.8 14.5 18.8 23.9 29.7 33.1 32.2 30.5 31.7 43.2 53.5 57 62.2 65.9 69 67.3 65.2 62.5 62.3 63.4 62.3 62.3 62.3 64.6 75.8 76.7 82.5 93.2 105.7 109.9 122.2 134.6 138.3 144.9 141.7 144.2 143.2 136.1 128.5 127.1 112.9 90 78.5 66.3 57.6 50.4 49.9 56.9 51.4 43.5 47.5 51.3 42.6 33.9 35.4 57 55 48.5 67.3 71.4 62.2 61.4 63.6 61.8 69.4 68.9 68.8 37.9 29.3 15.2 13.6 13.7 11.6 11.6 11.6 11.6 18.7 33.3 44 41.6 40.7 54.6 46.1 31.6 25.6 27.1 35.6 38.3 21.6 15 22.8 19.1 18.1 23.7 20.5 8.3 8.2 13.1 8 6.8 6.1 6.1 6.1 6.1 6.1 6.1 13.3 10 7.4 4.3 2.1 -2.2 -2.2 -2.2 -2.2 -2.2 -2.2 -2.2 -2.2 14.3 13.6 17.2 19.1 19.2 23.9 18.3 -2.2 -2.2 -2.2 -2.2 -2.2 -2.2 -2.2 -2.2 -2.2 -2.2 -2.2 -2.2 -2.2 -2.2 -2.2 -2.2 -2.2 -2.2 -2.2 -2.2 -2.2 -2.2 -2.2 -2.2 -2.2 -2.2 -2.2
168.3 180.2 191.9 201.9 208.6 208.5 211.9 213 211.3 202 193 175.6 140 120.4 111.1 103 102.3 101.4 99.7 92.1 79.5 78.7 66.9 51.8 54.3 60.7 44.3 21.3 21.6 16.1 17.2 13.1 24.7 34 39.1 43.3 43 36.3 38.3 28.2 30.9 27.1 26.4 26.4 22.9 18.1 21.9 20.9 14.5 15.3 16.8 22 25.5 25.1 24.1 30.3 34.5 43.4 53.8 60.8 62.4 62.6 66.1 74.5 62.6 62.3 62.3 62.3 62.3 62.7 62.3 64.2 71.3 80.3 89.4 101.8 106.9 112.8 130.1 136.3 139.5 140 140 140.9 132.6 123.3 113.7 97.3 84.2 77.6 65.5 56.6 53.4 51 53.6 53.7 39.6 42.4 45 39.4 37.8 39.5 47.4 48.8 43.9 54.1 55.7 54.4 53.6 54.7 65.6 65.8 64.7 57.4 43 29.6 16.2 11.6 11.6 11.6 11.6 11.6 11.6 20.4 19.3 39.1 45 37.3 47.5 42.8 33.4 25.7 27.2 33.9 44.9 25.3 12.3 20.2 19.5 22.6 17 16.4 21.9 12.6 16.2 9.7 6 6.1 6.1 6.1 6.1 6.1 6.1 8.9 7.7 6.8 6.1 15 1.7 -2.2 -2.2 -2.2 -2.2 -2.2 -2.2 19 21.3 24.8 18.1 17.5 18.1 19.5 19.8 9.3 -2.2 -2.2 -2.2 -2.2 -2.2 -2.2 -2.2 -2.2 -2.2 -2.2 -2.2 -2.2 -2.2 -2.2 -2.2 -2.2 -2.2 -2.2 -2.2 -2.2 -2.2 -2.2 -2.2 -2.2 -2.2 -2.2
154.4 172.2 177.2 187.9 195.6 196.6 197.1 197.8 199.4 196.6 189.3 174.3 145.9 121.5 111.6 102.8 108.6 104.6 97.3 87.3 82.6 78.5 79.9 51.2 46 53.5 44.5 23.5 13.3 15.9 13.1 13.1 16.6 29.8 43.6 51.6 49.2 43.5 36.1 36.8 37.5 34.5 27.4 22.6 20.8 18.1 18.1 18.1 14.5 14.5 14.5 18.3 24.2 27.8 21.7 27.6 29.4 34.8 41.9 54.7 58.3 59.9 67.5 65.2 60.1 62.7 62.5 64.1 65.6 64.5 64 62.3 64 77.1 84.6 89.3 102.3 112.1 112.6 126.3 133.2 135.5 132.1 132.9 130.4 127.6 113.5 89.2 76.2 71.9 63.5 56 53.3 56.8 61.2 60.3 40.7 39.2 35.2 39.5 32.9 36.6 40.2 47.6 43 44.6 57.6 54.2 54 52.4 56.2 61.1 49.4 43.4 36.9 26.2 15.4 11.6 11.6 11.6 11.6 11.6 11.6 18.9 20.9 46.7 42.1 35.4 32.4 31.4 40.5 26.1 21.8 32.6 41.4 38.6 13.9 14.4 16.9 16.7 17.3 17.3 20.6 16.6 15.6 14.5 13.2 6.1 6.1 6.1 6.1 6.1 6.1 6.1 5.8 9.8 6.1 9.4 18.4 6.6 8.7 -2.2 -2.2 12 13.4 18.6 23.1 31.7 32.6 15.3 17.5 22.2 24.8 22.5 -2.2 -2.2 -2.2 -2.2 -2.2 6.3 -2.2 -2.2 -2.2 -2.2 -2.2 -2.2 -2.2 -2.2 -2.2 -2.2 -2.2 -2.2 -2.2 -2.2 -2.2 -2.2 -2.2 -2.2 -2.2 -2.2
147.5 155.2 171.3 181.9 181.1 182.4 183.1 187.8 184.3 186.3 186.5 177.5 151.4 116.2 116.2 109.4 112.3 108 100.1 88.2 81.7 76.4 74.1 53.5 36.4 36.1 37.8 32.5 15.3 12.1 13.1 15.9 13.1 31.3 44.2 50.6 49 47.3 43.6 41.5 39.6 39 32.1 27 23.2 17.5 19.3 21.1 14.5 14.5 14.5 16.3 20.8 24.5 20.4 24.9 30 35.7 44.3 43.5 52.7 56 58.7 63.4 59.9 63.9 64.8 71.4 71.7 78.2 73 71.4 67.7 77.9 87.2 97.7 100.6 108.2 109.6 110.9 105.5 113.3 122.4 124.3 124.3 119.9 104.1 93.9 81.3 66.1 57.8 54.2 54.2 57.6 60.4 62.7 53.6 40.4 34.4 33.7 34.3 29.6 38.3 51.5 44.1 39.1 47.7 57.4 58 55.3 49.5 43.2 46.2 39.7 32.8 26.5 18.8 11.6 11.6 11.6 11.6 11.6 11.7 17.4 17.4 30.2 48.9 45.9 30.2 29.3 30.6 26.5 19.5 26.2 42.6 35.1 15.6 11.9 13.6 18.1 28.8 26.7 22.7 20.1 22.7 20.4 21.2 12.8 6.1 6.1 6.1 6.1 6.1 6.1 6.1 6.1 6.1 7.7 20.1 16.4 7.4 -2.2 7.3 20.2 14.8 16.4 22.4 29.1 34.4 22.6 10.9 15.6 23.8 26 -2.2 -2.2 -2.2 -2.2 -2.2 -2.2 -2.2 -2.2 -2.2 -2.2 -2.2 -2.2 -2.2 -2.2 -2.2 -2.2 -2.2 -2.2 -2.2 -2.2 -2.2 -2.2 -2.2 -2.2 -2.2 -2.2
142.9 144.9 160.2 173.2 174 177.1 172.8 172.3 168.3 172.4 180.1 175.8 156.5 116.8 116.5 112.7 112.5 114 101.1 90.3 82.7 73 70.5 56.7 45.6 24.6 27.7 34.5 28 20.1 16.1 20 13.1 28.1 39.6 48.3 47.1 47.2 50.8 54.6 48.4 43.1 40.1 33.8 28 22.8 19 24.4 22.2 14.9 18.4 23.5 20.4 21.9 22.3 20.4 26.4 29 37.3 41.5 48 49.4 48.3 53.1 58 64.6 73.6 77 77 79.9 78.4 74.1 73.6 69.7 78.5 95.5 97.1 103.9 107.8 102.7 95 96 94.8 95.1 96.5 101.7 94.3 87.1 71.5 65.6 61.6 57.8 54.2 57.8 57.7 57.8 60.3 50.5 36.3 35.3 35.7 26.4 37.6 44.8 43.5 43.5 38.7 49.5 53 53.2 52.7 43.7 43.6 40.1 27 26 19.7 11.6 11.6 11.6 11.6 11.6 11.6 17 17.2 17.7 41.7 41.9 24.7 20.2 22.5 20.6 19.7 20.9 29.2 27.3 17.9 12.7 20.9 21.9 32.7 27 20.8 20.3 27.9 23.7 18 6.8 6.1 6.1 6.1 6.1 6.1 6.1 6.1 6.1 11.7 14.1 39.6 33.5 16.8 1.8 17.4 20.3 20.7 14.5 15.9 25.7 23.4 26.6 15.4 8.2 11.3 16.5 -2.2 -2.2 -2.2 -2.2 -2.2 13.4 1.4 -2.2 -2.2 -2.2 -2.2 -2.2 -2.2 -2.2 -2.2 -2.2 -2.2 -2.2 -2.2 -2.2 -2.2 -2.2 -2.2 -2.2 -2.2 -2.2
141 140.4 147.5 158.9 164.2 166.4 167.5 160.3 158.3 159.5 161.6 165 156.2 123.2 113.8 114.2 112.4 112.3 93.8 90.3 81.8 71.5 66.8 52.8 43 26 10.1 22.8 29.1 27.7 9.7 19 13.1 18.9 33 43.4 47.2 45.8 54.7 63.6 58.1 45.1 49.4 39.6 32.8 26.8 21.2 23.4 22.2 17.1 17.5 20.6 23.8 22.3 22.3 20.4 27.6 28.8 31.5 34.5 38.6 44.1 45.1 48.1 57.7 71.6 81 84.7 90 89.2 84.1 82.2 78.8 76.2 75.3 92.8 94.5 104.2 107 97.3 91.3 94.6 88.6 82.5 75.2 69.8 75.3 66.3 66.2 63.4 57 54.2 54.2 54.7 58 59.9 60.3 52.4 38.3 28.4 28.5 24 32.5 42.8 40.6 43.8 36.2 56.5 57 55.5 52 49.2 41.1 37.4 35.6 42.8 21.7 11.6 11.6 11.6 11.6 11.6 14.1 15.9 20.2 17.2 22.9 30.6 25.4 22.8 19.4 19.4 19.4 19.4 21.5 27.2 20.4 11.3 16.4 21.3 32.1 31.3 19.5 19 24.8 29.2 19.6 6.1 6.1 6.1 6.7 6.1 6.1 6.1 8.5 6.1 6.1 23.9 31.2 42.4 17.7 9.8 21.1 21.4 21.2 11.7 18.6 10.6 13.1 10.4 10.3 -2.2 -2.2 13.1 -2.2 -2.2 -2.2 -2.2 5.6 -2.2 -2.2 -2.2 -2.2 -2.2 -2.2 -2.2 -2.2 -2.2 -2.2 -2.2 -2.2 -2.2 -2.2 -2.2 -2.2 -2.2 -2.2 -2.2 -2.2 -2.2
141 137.6 141.3 148.5 153.8 156.6 159.7 153.2 151.5 152.8 147.7 150 144.9 133.1 106.9 107.3 109.1 104.7 92.3 82.4 79.6 72.1 59.7 47.1 39.6 27.7 14 5.1 15.4 23.2 16.8 14.7 17.5 15.6 30.7 41.8 42.9 45.9 52.5 59.7 60.9 43 46.8 42.5 38.6 32.5 28.6 24 26.5 22.9 15.5 16.9 22.9 24.6 20.4 20.4 24.5 26 31.3 31.9 31.6 38 45.4 51.7 61 84.6 87 89.8 93.1 93.2 90.1 86.9 84.2 85.2 82.3 84.6 93.8 101 108.2 98.6 90.6 86.9 82.6 79.4 72.6 63.4 56.4 56.5 64.8 65.4 64.3 56.9 54.6 54 58.4 54.7 50.2 49.9 32.3 20.8 21 19 28.6 35.1 40.4 50.1 35.3 42.3 56 60 54.7 54.9 43.1 38.1 42.6 38.2 27.5 12.6 11.6 11.6 11.6 12.7 16.2 16.7 18.7 20 33.6 22 18.9 27.1 24.2 19.4 19.4 19 17.7 21 17.3 10.1 13.2 21.1 24.8 26.9 19 19 20.4 31.3 30.1 6.1 6.1 9.3 8.3 6.1 6.1 6.1 5.9 6.1 6.1 17.9 27.5 29.1 23.4 20.1 30.9 17.4 11.5 9.9 9.9 8.2 4.5 7 -2.2 -2.2 -2.2 -2.2 9.3 -2.2 -2.2 -2.2 8.7 -2.2 -2.2 -2.2 -2.2 -2.2 -2.2 -2.2 -2.2 -2.2 -2.2 -2.2 -2.2 -2.2 -2.2 -2.2 -2.2 -2.2 -2.2 -2.2 -2.2 -2.2
138.9 134 134.2 142.2 147.4 148.7 149.5 146.3 148.7 148.2 141.8 129.9 127.6 134.1 110.2 102.5 115.2 100.1 90.1 82.5 78.2 70.9 57.6 52.1 42.8 31.5 13.1 8.1 3.7 14.7 17.5 6.4 16.5 16.8 28.2 40.3 47.5 48.7 55.1 58 55.8 46 41.1 44.2 42.3 34.6 32.2 22.9 25.9 26.7 12.1 17.2 19.8 20.7 24.2 20.4 26.8 27.3 25.9 33.2 33 35 43.1 52.9 69 82.2 87.8 91.8 95.9 98 95.7 93.5 90 86.9 86 79.8 87.1 95 103.2 105.8 92.6 89.7 81.5 79.3 74.2 75.1 58.6 56.4 60.5 56.2 58.1 56.8 57.5 58.1 60.8 56.4 48.6 42.2 31.2 11.7 14 19.8 31.4 30.9 43.8 41.3 33 40.3 53.1 55.2 55 53.5 43.6 40.7 30.9 34.9 23.7 11.8 11.6 11.6 11.6 15.8 21.3 21.1 19.4 17.2 18.9 17.1 17.1 21.3 25.6 19.7 19.4 19.4 22.2 12.9 12.3 11.6 16.6 24 20.1 24.4 19.4 18.1 25.9 31.7 32.6 6.2 5.9 19.4 8.2 5.3 6.1 6.1 6.1 6.1 6.1 11.5 14.5 13.9 19 28.6 33.8 18.7 10.9 9.9 9.8 10.6 6.4 7 -2.2 -2.2 -2.2 -2.2 -2.2 -2.2 -2.2 -2.2 -2.2 -2.2 -2.2 -2.2 -2.2 -2.2 -2.2 -2.2 -2.2 -2.2 -2.2 -2.2 -2.2 -2.2 -2.2 -2.2 -2.2 -2.2 -2.2 -2.2 -2.2 -2.2
139.4 133.4 132.3 134.9 142.5 145.6 143.5 147.1 148.5 147.3 140.9 129.5 115.2 126.2 122.8 97.7 105.3 97.7 85.4 83.7 75.4 69.3 59.4 53.5 44.4 28.6 23.4 14.3 4.2 8.7 11.9 12.2 5.4 11.8 32.1 39.4 48.9 49.3 61.6 65.2 64.7 54.9 44 37.9 35.2 33.3 30.9 25.4 23.7 21.3 10 14.1 22.1 28.2 25.4 21.9 20.4 27.6 25.9 33.2 38.5 42 48.2 55.7 69.6 80.2 90.1 98.7 97.5 100.1 99.3 96.4 96.1 93.6 87.6 87.9 84.5 90.3 103.3 104.4 96.5 96.6 90.7 80.8 77 66.5 59.1 54.2 54.7 46 44.1 41.8 59.5 59.2 62.8 58.6 50.7 42.7 31.4 15.3 11.6 21.9 29 35.9 37.7 46.3 40.3 30.1 36 49.4 47.3 46.5 38.4 37.5 39.7 25.7 18 13.9 14.1 11.9 11.6 15.2 18.9 22.6 21.5 16.4 16.4 18.6 20.3 23.6 25.8 20.9 20.6 19.2 22.2 14.6 10.3 10.3 16.7 20.1 19.1 24.9 30.9 29.4 23.1 30.2 24.6 7.6 8.9 19.9 9.9 7.9 6.1 6.1 6.1 6.1 6.1 18.7 15.5 13.3 9.9 24.7 19.8 14 9.9 12.8 16.1 14.6 9.7 11.9 -2.2 -2.2 -2.2 -2.2 -2.2 -2.2 -2.2 -2.2 -2.2 -2.2 -2.2 -2.2 -2.2 -2.2 -2.2 -2.2 -2.2 -2.2 -2.2 -2.2 -2.2 -2.2 -2.2 -2.2 -2.2 -2.2 -2.2 -2.2 -2.2 -2.2
144.5 133.2 131.5 132.7 142.3 137.3 139.4 146.9 149.3 143.7 140.4 131.8 120.5 114.7 117.1 97.8 105.3 98 76.3 77.3 69.9 64.5 61 57.8 42.8 32.2 22.8 14.7 6.6 5 6.6 4.5 6.8 2.9 32.7 41.3 47.4 45.7 54.6 61.5 62.2 56.7 49.3 44.4 35.7 33.4 34.4 28 17.1 15.9 10.1 10 19.9 33.2 31.6 27.1 22.5 23.4 25.9 39.8 44.8 47.6 50.9 63.2 71.1 84.6 92.1 96 102.4 104.9 106 108.5 106.2 99.4 94.8 91.2 86.6 83 93.8 99.1 103.8 106.1 85.9 81.1 67.5 59.5 58.9 56.6 49.5 50.3 45.3 37 35.8 40 44.7 57.2 49.6 39.8 31.8 8 7.6 19.3 30.5 32.7 31.7 46.3 35.6 22.8 25.5 39.6 41.7 37.4 30.3 28.7 32.1 28.2 18.3 11.9 11.9 11.7 11.6 13.5 18.8 22.3 22.2 19 16.4 16.4 16.4 19.2 27.9 22.4 19.4 24.3 25.6 33.2 15.2 10.3 10.3 18.7 21.2 22.4 29.3 24.6 16.8 21.1 8.1 5.1 10.2 9.3 9.2 9.7 6.1 6.1 6.1 6.1 12.5 23.7 20.5 9.9 9.9 9.9 9.9 9.9 9.9 17.1 26.9 19 21.4 20.4 15.9 -2.2 -2.2 -2.2 -2.2 -2.2 -2.2 -2.2 -2.2 -2.2 -2.2 -2.2 -2.2 -2.2 -2.2 -2.2 -2.2 -2.2 -2.2 -2.2 -2.2 -2.2 -2.2 -2.2 -2.2 -2.2 -2.2 -2.2 -2.2 -2.2
146.6 137 128.6 130 133.8 134.5 131.7 141.5 144.8 139.7 136.6 131.3 127 113.3 109.9 97.3 94.5 94.1 84.9 70.4 66.2 61.5 57.7 50.2 40.5 31.9 30.9 16.2 8.9 3.2 6.9 11.6 -2.2 -2.2 -2.2 44.8 39.5 43.8 52.9 59.3 58 51.3 47 43.6 37.3 34.4 41.2 46.7 32 9.5 2.2 5.5 19.5 27.6 27.1 24.1 21.7 26.8 31.7 38.5 48.6 58.6 59 68.4 76.3 87.3 95.1 99.4 106.4 108.4 109.1 111.2 114.8 102.2 94.6 94.4 92.9 86.7 82.5 90.2 96 101.5 90.4 76.6 64 57.1 57.1 52.4 50.5 44.8 45.9 39 34.7 26 22 27.3 31.3 23.3 17.2 7.6 7.6 8.3 23.6 27.4 28.5 39.4 35.1 21.7 16.4 19.8 29.1 28.6 27.7 27.8 26.9 24.4 18.3 11.9 14.5 11.4 11.6 11.9 19.2 26.1 27.1 21.7 16.4 16.4 16.4 16.4 23.1 27.5 18.8 30.7 33.9 32.3 22.1 20.1 10.3 15 18.7 17.2 24.5 20.8 15.2 9.8 5.4 7.5 14.5 5.6 6.1 7.4 6.1 6.1 6.1 12.5 16.5 28.5 23.6 9.9 9.9 9.9 9.9 9.9 9.9 14.8 20.7 27.6 35.5 37.2 32.7 -2.2 -2.2 -2.2 -2.2 -2.2 -2.2 -2.2 -2.2 -2.2 -2.2 -2.2 -2.2 -2.2 -2.2 -2.2 -2.2 -2.2 -2.2 -2.2 -2.2 -2.2 -2.2 -2.2 -2.2 -2.2 -2.2 -2.2 -2.2 -2.2
148.2 140.9 133.3 130.8 128.6 125.9 124.1 134.5 136.7 134.1 132.5 127.7 131.6 119.2 107.9 91.7 88.2 88.2 86.5 71.4 61.9 57.4 56.3 47 41.4 31 35.4 19.4 9.3 -2.2 -2.2 17 10.1 -2.2 -2.2 45.2 34.6 44.3 54 53.5 54 52.1 36.2 37.8 36.7 34.4 42.4 42.6 29.1 12.5 8.6 3.1 9.4 17 22.6 21 20.3 20.6 31.8 35.6 48 57.1 64 75 84.3 89.1 100.8 107.1 110.6 112 113.1 117.1 118.6 108.6 105.7 98.9 102.5 103.7 85.3 77.9 85.8 86.8 88.2 64.6 61.2 61.8 62.3 54.5 48.3 41.9 39.4 33.9 32.1 25.9 25.2 20.4 20.9 21.3 15.4 7.6 7.6 7.6 11 19.3 24.2 19.8 34.6 17.5 13.8 21 36.2 27.6 21.1 25.2 27.1 25.2 16 11.9 12.1 11.6 11.6 11.6 21.6 29.4 29 23.9 16.4 16.4 16.4 16.4 19.6 29.9 23 30.3 30 29.9 31.8 24 10.3 12.3 13.1 16.1 16.8 15.8 15.5 18.5 5.5 13 22.5 13.3 7.2 6.1 6.1 6.1 6.1 9.7 13.8 16.2 25.6 9.9 9.9 9.9 14.1 9.9 21 18.7 30.3 27 34.4 45.4 41.9 21.6 -2.2 -2.2 -2.2 -2.2 -2.2 -2.2 -2.2 -2.2 -2.2 -2.2 -2.2 -2.2 -2.2 -2.2 -2.2 -2.2 -2.2 -2.2 -2.2 -2.2 -2.2 -2.2 -2.2 -2.2 -2.2 -2.2 -2.2 -2.2
153.2 145.7 136.4 127.7 124.5 125.7 126.3 125.4 130 130.8 126.6 121.6 124.2 121 111.4 99 80.1 85 80.5 70.7 56.4 49.8 49.6 47.7 38.6 33 25.4 20.4 8.5 -2.2 -2.2 15.8 -2.2 -2.2 -2.2 14.3 25.2 35.6 51.5 45.1 47.8 44.7 34.7 34.4 36.4 39.7 39.5 39.5 28.6 8.7 4.2 -2.2 9.9 9.7 15.4 17.2 18.2 21.1 30.7 37 45.9 58.2 70.3 79.5 87.5 90.5 106.5 113.3 118.7 114.9 118.9 118.6 120.9 112.9 104.8 103.7 103 100.1 92.7 72.6 70.4 73.7 73.9 63.8 66 67.1 62.7 61.8 59 42.1 37.6 34.2 30.7 25.3 22.8 21 15.6 14.5 9.5 7.6 7.6 7.6 12.3 16.4 18.3 15.4 17.1 11.6 12.6 14 23.5 32.6 17.8 24.8 28 20.8 11.9 17.5 13.5 11.6 16.8 13.2 23.6 38.4 33.7 29.4 16.4 16.8 16.4 16.4 26.4 32.1 30.4 25.2 29.1 41.5 32 19.9 10.3 12.1 13.1 17.4 19.1 25.3 19 19.2 5.5 20.7 22.9 17.7 10 6.1 6.1 6.1 6.1 9.7 20.4 15.7 14.1 12.9 9.9 9.9 20.5 11.6 20.3 33.5 32.5 29.6 39.6 49.6 45.1 26.6 12.7 -2.2 -2.2 -2.2 -2.2 -2.2 -2.2 -2.2 8.4 -2.2 -2.2 -2.2 -2.2 -2.2 -2.2 -2.2 -2.2 -2.2 -2.2 -2.2 -2.2 -2.2 -2.2 -2.2 -2.2 -2.2 -2.2 -2.2
160.4 149.2 138.5 128.5 127.7 121.8 124.2 122.1 122.1 124.5 122.3 119.6 118.9 117.9 111.6 96 69.8 73.7 72.3 66.2 52.3 45.4 43.7 43.5 38.3 30.6 25.2 21.8 3.9 -2.2 -2.2 -2.2 -2.2 7.4 -2.2 -2.2 12 29.4 42 38.2 36.7 33.6 36.4 26.1 30.3 37.4 27.7 31.3 24 9.9 6.7 -2.2 4.9 10.7 15.7 18.5 19 32.8 34.7 42.5 47.3 55.7 64.7 79 90.1 93 113.4 126.9 121 119.7 124.2 125 115.9 113.9 107.5 104.9 103.8 93.9 89.5 86.1 68.9 73 70.7 65.9 72.3 69.7 66.5 61.6 62 52.3 35.6 31 32.4 29.5 22.8 23.2 19.2 13.2 7.6 7.6 7.6 7.6 7.6 10.7 13.7 12.8 9.1 10.2 9.2 8.1 14.7 20.5 15 13.7 28.3 16.4 14.4 15.5 15.8 10.8 18.3 14.8 23.8 31.2 34.5 33.9 19 17.7 16.4 16.4 24 31.7 34.5 28.8 33.9 41.3 32.4 12 10.3 11.5 14.8 21.2 27.7 22.4 27.4 15.6 7.1 26.2 24.1 11.8 6.1 6.1 8.4 8.4 6.1 7.3 16.8 21.9 16 9.9 9.9 9.9 9.7 18.3 26.1 32.1 31.3 38.8 46.2 49.2 47.9 37.2 20.9 17.4 -2.2 -2.2 -2.2 -2.2 -2.2 -2.2 11.1 -2.2 -2.2 -2.2 -2.2 -2.2 -2.2 -2.2 -2.2 -2.2 -2.2 -2.2 -2.2 -2.2 -2.2 -2.2 -2.2 -2.2 -2.2 -2.2
170.3 155.1 142.2 128.1 128.5 124.4 121.3 119.9 119.7 119 115.8 116 111.7 108.6 107.5 95.7 68.9 68.7 62.2 60.8 46.5 41.2 36.4 39.5 36.9 30.7 27 24.5 18.4 9.7 -2.2 -2.2 -2.2 -2.2 12.1 7.6 -2.2 -2.2 19.6 28.6 29.7 31.1 29.8 24.5 23.6 34.6 25.7 23.6 18 7.2 7 -2.2 6.6 9.1 14.1 14.5 17.8 29.3 39.7 47.3 48.5 53.8 69.1 82.4 93.9 100.7 107.8 123.8 120 125.5 128.3 116.4 114.3 107.5 105.2 108.2 109 98.9 87.8 82.2 67.4 68.4 72.4 65.7 66.3 67.7 66.3 61 58.4 54.8 39.4 30.1 29.6 24.1 20.3 18.3 17.2 11 7.6 7.6 7.6 9 7.6 8.4 12.3 13.4 2.5 9.6 16 1.7 7.5 12.1 10.1 9.2 14.1 13.5 20.4 22.1 17.3 13 18.7 17.1 23.6 29.9 32.4 36.2 33.2 16.6 16.4 16.4 30.2 29.2 29.7 39.9 25.7 34.3 21.4 10.3 10.3 10.3 17.9 23.6 34.1 37.7 16.5 12.3 7.2 23.2 18.3 19 13.7 6.1 6.1 6.1 6.1 6 10.1 18 18.9 9.9 9.9 9.9 9.9 18.2 29.2 43.5 38 49.4 47.8 59.7 52.7 41.5 38.2 28 10 -2.2 -2.2 -2.2 -2.2 -2.2 -2.2 -2.2 -2.2 -2.2 -2.2 4.2 -2.2 -2.2 -2.2 -2.2 -2.2 -2.2 -2.2 -2.2 -2.2 -2.2 -2.2 -2.2 -2.2 -2.2
173.3 157.6 152.3 130.3 128.6 127.3 121.2 119.8 117.9 119.6 114.6 123.7 110.5 105.9 103 87.4 67.6 61.3 60.3 50.4 43.4 37.4 37.8 34.5 34.1 30.7 30.4 30.2 19.7 8.8 -2.2 -2.2 -2.2 -2.2 6.9 10 -2.2 -2.2 10.3 16.6 22.7 26.2 31.7 24.9 18 24.1 20.9 17 17.1 10.7 7.8 -2.2 5.1 7.4 8.5 15.5 20.9 27.4 35.3 46.4 49.1 53.5 72.3 82 90.6 100.6 105.6 118.7 120.3 124 128.5 115 111.6 101.4 102.3 110.1 99.7 93.7 84.2 77.3 67 58 65.5 64.2 63.5 66.5 65.2 63.4 56.8 56.6 44.4 31.8 26.5 25.7 19.2 15.4 12 7.7 12.6 16.3 10.5 10.7 7.6 7.6 14.3 10.3 -2.2 -2.2 10.7 -2.2 -2.2 -2.2 -2.2 8.1 13.4 22.1 21.9 21.9 16.9 17.1 21.6 22.6 28.3 32.5 42 40.4 33.3 16.4 16.4 17.8 32.4 30.6 33.3 30.2 18.5 19.5 11.9 10.3 11.6 10.3 18.9 30.1 36.6 31.8 16.4 7.9 8.8 16.1 19.4 21.5 14.9 6.3 6.2 6.1 6.1 6.1 5.8 24.2 30.1 18 9.9 12.3 9.9 9.9 31.1 37.2 36.1 44.2 56.6 68 55.9 46.3 43.6 36.4 19.2 -2.2 -2.2 -2.2 -2.2 -2.2 -2.2 -2.2 -2.2 -2.2 -2.2 1.5 -2.2 -2.2 -2.2 -2.2 -2.2 -2.2 -2.2 -2.2 -2.2 -2.2 -2.2 -2.2 -2.2 -2.2
181.4 165.3 157 137.9 138.7 129.8 127.5 119.5 120.9 117.6 110.2 116.3 109.9 108.5 99.4 85.6 75.2 57.2 54.8 50.1 47.8 38.4 36.7 33.4 32.2 33.1 30.8 32.2 36.7 14.5 -2.2 -2.2 -2.2 -2.2 -2.2 18.5 16.3 -2.2 -2.2 -2.2 16.1 24.9 26.5 20.6 13.6 14 16.3 8.9 10.7 6.9 1.1 -2.2 -2.2 4.5 8.1 11.8 17.6 24.7 33.9 46.4 52.1 53.9 70.9 81.2 86.7 104 107.7 111.3 124.2 120.9 127.2 115.7 101.4 101.4 105.6 102.6 99.9 92.4 84.1 73.1 66.4 60 61.4 66.4 66.3 62.4 67.7 64.3 60.9 56.4 49.2 38.1 29.7 20.7 16.5 16 10.8 11.6 19.3 22.2 16 13.1 8.5 8.1 11.7 12.7 -2.2 -2.2 -2.2 -2.2 -2.2 -2.2 -2.2 -2.2 23.4 20.9 37.3 24.9 11.9 18.6 29.5 29.6 32.8 43.3 44.4 48 39 18.3 16.4 16.4 31.2 29.6 21.3 15.4 12.5 11 10.3 14.9 22.2 10.3 15.3 26.6 28.8 18.2 10.9 7.8 9 9.3 15.1 15 7.2 6.1 8.5 6.1 6.1 6.1 7.2 27.7 38.9 28.2 9.9 9.9 9.9 12.2 14.7 29.8 41.1 41.2 49.8 60.5 57.8 53.2 46.2 35.2 13.3 -2.2 -2.2 -2.2 -2.2 -2.2 -2.2 -2.2 -2.2 -2.2 -2.2 -2.2 -2.2 -2.2 -2.2 -2.2 -2.2 -2.2 -2.2 -2.2 -2.2 -2.2 -2.2 -2.2 -2.2 -2.2
187 175.6 162.1 150 140.2 138.7 126.9 120.1 122.4 117.4 112.2 106.7 108.5 111.1 95.5 86.5 79 67 58.4 52.3 50.4 47.8 44.5 41.4 40.9 36.3 37.5 35.3 34.8 26.4 -2.2 -2.2 -2.2 -2.2 8.9 18.2 15.4 5.2 -2.2 -2.2 6.3 13.3 22.7 21.4 11.2 8.4 10.6 7.5 1.6 -2.2 -2.2 -2.2 -2.2 6 6.3 12.8 18.7 25.5 33.5 45 50.1 51.5 66.9 76.1 84.9 97.2 110.2 113.6 120.3 115.9 124 112.1 102.1 101.4 108.6 104.4 97.5 94.5 88.7 80.1 69.6 60.5 52 64.8 66 63.2 63 60.7 61.7 56.3 46.9 36.8 29.4 23 16.8 12.4 13.9 27.9 23.5 22.9 21.8 21.2 16.5 9.2 10.9 6.3 -2.2 -2.2 -2.2 -2.2 -2.2 -2.2 -2.2 -2.2 25.6 33.3 38.1 36.4 10.3 21.4 28.9 36.3 32 50 55.2 49.8 53 21.4 18 16.4 31.1 24.9 25.6 17 11.5 10.3 10.3 11.5 26 10.9 17.5 27.7 17.5 16.9 20 8.1 13.8 8.4 6.2 6.4 6.1 6.1 6.1 6.1 6.1 6.1 12.9 30.9 31.2 34.5 28.1 13.3 19.3 21.7 18 22.9 35.8 37.4 37.5 58.9 57.2 54.2 46.8 36.3 16.8 -2.2 -2.2 -2.2 -2.2 -2.2 -2.2 -2.2 -2.2 -2.2 -2.2 -2.2 -2.2 -2.2 -2.2 -2.2 -2.2 -2.2 -2.2 -2.2 -2.2 -2.2 -2.2 -2.2 -2.2 -2.2
198.4 182.6 163.1 155.5 141.2 141.8 132.6 118.3 122.4 122.7 111.8 103.9 102.1 100.3 95.3 87 73.4 65 64.1 55.9 60.8 59.4 53.9 47.8 45.8 43.3 39.2 36.6 33.6 22.6 -2.2 -2.2 -2.2 -2.2 8.6 23.6 24.6 22 -2.2 -2.2 -2.2 8.8 23.9 24 11.5 11.5 7.1 -2.2 -0.8 -2.2 -2.2 -2.2 -2.2 4 6.8 14.3 18.8 26.3 32.7 41.9 50.7 52.4 61 73.1 85.1 100.8 113.6 120.6 117.7 109.5 111.4 105.3 103.1 103.2 106.8 103.8 95.7 94 89.3 81.3 70 60.5 51.9 52.9 57.1 53.7 56.7 58 53.9 50 45.4 35.2 26.1 22 20 16.9 17.6 27.6 22.5 24.6 31.8 24.6 18.4 11.1 11.7 -2.2 -2.2 -2.2 -2.2 -2.2 -2.2 -2.2 -2.2 19.8 18 28 28.5 24.7 9 22.6 28.9 33.3 30 43.9 49.4 54.1 45.6 17.7 20.1 16.4 33.9 31.3 36.3 30.4 12.5 10.9 13.6 10.3 16.3 8.5 9.2 13 14.5 20.1 12.9 10.3 13.4 16 13.3 13 6.1 6.7 6.1 6.1 6.1 6.1 11.7 18.9 32.6 38.2 42.9 24.9 24.4 24.9 25.2 21.7 26.3 33.8 38.1 44.3 47.9 48.1 49.2 41.8 32.7 17.8 -2.2 -2.2 -2.2 -2.2 -2.2 -2.2 -2.2 -2.2 -2.2 -2.2 -2.2 -2.2 -2.2 -2.2 -2.2 -2.2 -2.2 -2.2 -2.2 -2.2 -2.2 -2.2 -2.2 -2.2
200 187.6 169.5 158.6 141.4 139.6 132.4 123.5 117.6 116.6 108.4 103.3 95.2 92.2 89.3 83.5 68.9 66.7 69.9 62.9 68.2 71 67.3 58.1 48.5 44 41 38.4 33.2 25.8 19.7 -2.2 -2.2 13 9.3 23.3 23.8 24.6 3.4 -2.2 -2.2 -2.2 16.9 20.4 12.8 9.3 -2.2 -2.2 -2.2 -2.2 -2.2 -2.2 -2.2 6.3 11.9 15.8 21.2 26.2 31.4 37.3 47.9 51.2 56.2 68.4 82.7 99.4 109.9 119.5 120.9 112.9 104.5 104.5 108.3 105.1 104.9 99.2 96.3 90.3 85.7 79.4 67 58.2 51.2 43.7 57.8 53 53.6 56.5 54.7 55.3 50.7 38.8 30.6 31.9 31.5 23.3 26 24.7 24.3 22.6 32.2 34 26.6 14.9 -2.2 -2.2 -2.2 -2.2 -2.2 -2.2 -2.2 -2.2 -2.2 8.8 23.1 20.3 21.4 15 5.2 14.1 25.5 28.7 27.8 33.5 50.5 52 44.8 29.6 16.5 16.4 25.3 31.9 37.7 28.2 14.9 15.9 12.5 12 13.5 8.3 9.1 16 9.7 18 1.9 15.4 25.2 20.6 14.5 15.4 6.1 6.1 6.1 6.1 6.1 6.1 9.7 17.5 19.8 39.8 37.4 33.4 29.2 30 26.4 25.9 24 35.5 38.7 36.3 38.8 45.2 50.1 46.6 39.6 27.1 -2.2 -2.2 -2.2 -2.2 -2.2 -2.2 -2.2 -2.2 -2.2 -2.2 -2.2 -2.2 -2.2 -2.2 -2.2 -2.2 -2.2 -2.2 -2.2 -2.2 -2.2 -2.2 -2.2 -2.2
201.8 188.1 172.5 166.5 142.7 140.9 134.3 127.3 123.9 110 108.5 100.2 96.2 88.6 81 76.4 70.6 72 70.3 66.7 68.5 68.8 68.8 62.5 51.3 45.8 37 35.6 32.6 35.8 33.3 19 17.2 20.6 17.9 23.5 24.3 20.6 14.2 -2.2 -2.2 -2.2 -2.2 16.1 16.6 12.1 -2.2 -2.2 -2.2 -2.2 -2.2 -2.2 -2.2 4.8 12.5 17 23.2 30.3 34.9 33.7 46.4 49.2 57.3 68.5 78.2 94.5 106.5 110.9 116.7 112.6 110.5 108.4 109.1 107.6 105.6 104.2 96.5 87 84.1 82.5 69.7 57.6 56.5 51.5 42.7 52 49.4 59.4 62.2 60.1 54.4 44.7 33.6 34.2 30.4 23.6 31.6 31.2 27.3 25.3 26.5 30.7 34.8 16.6 -2.2 -2.2 -2.2 -2.2 -2.2 -2.2 -2.2 -2.2 -2.2 7.3 15.6 7.8 13.7 5.4 7.8 17.9 19.7 25.3 28 33.4 40.2 52.1 54.3 45.6 20.7 21.7 21.2 24.5 34.3 26.9 26.3 30.3 21.2 21.4 21.4 15.7 8.1 10 5.1 7 -2.2 15.2 26.3 31.7 21.3 14.5 6.1 6.1 6.1 6.1 6.1 6.1 15.4 25.8 21.2 14.6 20.2 37.9 42 34.1 33.2 24.8 24.8 30.4 33.5 38.9 36.4 43.9 46.3 46.3 40.3 28.3 18.1 -2.2 -2.2 -2.2 -2.2 -2.2 -2.2 -2.2 -2.2 -2.2 -2.2 -2.2 -2.2 -2.2 -2.2 -2.2 -2.2 -2.2 -2.2 -2.2 -2.2 -2.2 -2.2 -2.2
201.8 186.9 174 160.6 143.7 145.6 138.2 131.5 129 110.9 108.5 98.3 92.8 89.7 85.1 82.1 74.1 75.1 70.1 67.7 65.9 67.4 66.8 64.4 56.1 48.2 38.9 35.6 34.4 34.8 33.9 24 18.7 27.2 32.3 27.7 26.3 22.2 14.4 11.3 -2.2 -2.2 -2.2 8.1 14.5 11.8 -2.2 -2.2 -2.2 -2.2 -2.2 -2.2 -2.2 -2.2 14.3 18.3 27.5 30.3 34.2 36 44.5 48.8 60.4 69.3 77 88.7 100.4 109.5 112.1 110.4 115.8 107.9 108.5 102.6 104.1 98.2 95.6 90.2 81.5 76.1 63.2 72.2 69.4 53.5 42.2 39 43.5 51.3 53.4 53.8 55 51.9 41 35.6 25 29.2 39.7 40.1 34.6 33.5 31.3 24.6 17.1 9.7 -2.2 -2.2 -2.2 -2.2 -2.2 -2.2 -2.2 -2.2 -2.2 -2.2 8.2 13 -2.2 -2.2 15.2 21.4 22.9 25.7 24.6 32.1 29.3 44.1 48.1 41.8 22.5 20.3 30.6 33.4 35.5 28.6 30.2 38.2 34.7 31.8 27.1 19.5 12.7 12.8 -2.2 -2.2 -2.2 -2.2 18.3 29.9 31.7 26.8 12.8 6.1 6.2 6.1 6.1 6.2 24.8 31.5 29.1 9.9 10.7 39.8 44.7 40.9 31.5 24.8 24.8 25.7 37.1 41 39.6 44.1 43.9 40.1 35.5 24.5 15.6 -2.2 -2.2 -2.2 -2.2 -2.2 -2.2 -2.2 -2.2 -2.2 -2.2 -2.2 -2.2 -2.2 -2.2 -2.2 -2.2 -2.2 -2.2 -2.2 -2.2 -2.2 -2.2 -2.2
191.4 183.1 174.6 161 149.4 147.6 141.9 132.9 130.5 117.4 99.5 97 91.8 92.4 89.7 85.1 76.4 73.5 69.1 71.6 65.9 65.4 67.1 66.3 60.3 52.9 46.4 41.5 39.6 33.8 36.9 34 25.7 28.9 36.1 35.9 29.1 26.1 19.7 14.4 13.2 -2.2 -2.2 -2.2 2.4 8.6 -2.2 -2.2 -2.2 -2.2 -2.2 -2.2 -2.2 -2.2 12.3 13.5 21.4 25.9 28.5 32.1 38.4 49 60.6 65.9 76.3 83.3 95.4 101.2 107.2 111.4 118.4 120.5 109.4 102.6 101.5 99.6 99.2 89.9 83.6 76.8 74.1 79.4 70.9 54.8 45 42.5 35.9 49.1 50 54.7 54.9 49.5 39.4 33.6 28.6 42.1 44 44.8 43.4 37.8 38.4 37.7 26 20.9 12 -2.2 -2.2 -2.2 -2.2 -2.2 -2.2 -2.2 -2.2 -2.2 -2.2 12.7 -2.2 -2.2 24.6 25.9 22.5 24.6 22.9 27.2 30.1 49.8 46.8 31.1 24.2 24.2 34.8 45.6 40.1 39 41.9 47.9 50.8 34.1 25.6 19.1 8 7.6 -2.2 -2.2 -2.2 -2.2 12.4 21.3 29.8 30.9 13.7 10.1 10.4 9.8 6 12.4 25 28.5 28 9.9 9.9 39.9 48.6 33.2 26.5 28.6 24.8 27.4 35.8 45.2 45.9 41.6 38.5 35.6 32.5 16.8 -2.2 -2.2 -2.2 -2.2 -2.2 -2.2 -2.2 -2.2 -2.2 -2.2 -2.2 -2.2 -2.2 -2.2 -2.2 -2.2 -2.2 -2.2 -2.2 -2.2 -2.2 -2.2 -2.2 -2.2
199.2 188.3 176.4 167.3 153.1 146.4 146.1 130.2 129.5 122.9 113.1 86.3 88.5 93.4 89.7 83.5 78.2 75.7 69 72.5 69.4 63.9 64.6 64.2 57.3 56.3 50.3 45.2 45 41.8 39.9 41.2 35.4 29.8 39.2 39.8 33.5 25.3 25 19.5 11.9 9.6 -2.2 -2.2 -2.2 6.6 4.8 -2.2 -2.2 -2.2 -2.2 -2.2 -2.2 -2.2 6.3 9.3 14.4 21 25.4 33.4 42.4 49.7 60.3 63.6 75.1 84.4 93.3 96 103.7 109.5 114.9 115.6 108.4 104.1 105 101.3 101 95 91.5 80 78.1 80 77.4 63.2 51.4 41.9 36.3 34.7 45.1 52.9 53.9 51.7 42.2 31.6 26.9 44.3 43.9 44.6 47.5 41.4 42.6 43 40.1 28.4 14.1 6.9 -2.2 -2.2 -2.2 -2.2 -2.2 -2.2 -2.2 -2.2 -2.2 1.4 -2.2 -2.2 13.9 28.6 31.9 24 24.8 27.4 39.6 50 38.8 30.4 29.3 25.4 36.3 43.4 47.5 44.4 48 56.6 51.5 39.1 24.5 13.8 -2.2 -2.2 -2.2 -2.2 -2.2 -2.2 16.8 18.4 29.7 40.5 23.6 13 22.5 10.2 7.7 22 33.4 24.1 20.8 9.9 9.9 38.2 33.9 33.4 32.9 33.9 26.1 32.7 39.6 42.9 46.1 39.3 36.9 33.5 30.7 -2.2 -2.2 -2.2 -2.2 -2.2 -2.2 -2.2 -2.2 -2.2 -2.2 -2.2 -2.2 -2.2 -2.2 -2.2 -2.2 -2.2 -2.2 -2.2 -2.2 -2.2 -2.2 -2.2 -2.2 -2.2
198.8 187.9 182.5 168 152.4 141.4 145.2 135.6 125 122.4 116.6 93.1 82.8 92.9 90.5 80.9 79.9 78.5 72.1 69 73.8 65.8 64.6 62.3 61.4 57.5 62.2 63.4 60.2 49.4 45.3 42.8 40.6 34.4 37 37.2 34.4 28.4 29.9 23.3 18.6 13.1 -2.2 -2.2 -2.2 7.3 5.3 -2.2 -2.2 -2.2 -2.2 -2.2 -2.2 -2.2 -2.2 5.6 12.2 15.4 24.4 33.6 38 45.8 54.3 61.6 72.9 80.3 84.1 94 103.4 110.6 116.1 116 110.4 104.7 105.6 102.2 102 99.2 91.1 87.1 84 83.8 78.2 67.6 58.3 56.8 37.1 35.4 39 46.6 48.9 43.8 41.4 28.9 21.5 35.9 38.2 44.1 46.3 45 52.1 44.6 36.5 31.5 23.6 10.7 -2.2 -2.2 -2.2 -2.2 -2.2 -2.2 -2.2 -2.2 -2.2 -2.2 -2.2 -2.2 -2.2 19.1 26.3 30.6 32.2 27.6 29.7 49.8 43.5 36.1 41.9 25.5 32.4 47.9 53.5 47.7 52.3 58.5 50.9 37.5 36.7 22.2 -2.2 -2.2 -2.2 -2.2 -2.2 6.6 14.8 21.3 35.3 40.6 36.1 17.3 27.9 16.5 12 23.9 23.4 31.6 22 9.9 16.9 14.8 43.1 32.1 37.2 40.8 39.4 37.2 34.9 35.3 37.6 34.3 40.4 30.7 22.8 -2.2 -2.2 -2.2 -2.2 -2.2 -2.2 -2.2 -2.2 -2.2 -2.2 -2.2 -2.2 -2.2 -2.2 -2.2 -2.2 -2.2 -2.2 -2.2 -2.2 -2.2 -2.2 -2.2 -2.2 -2.2
215.3 190.1 181 172.1 159.8 140 138.8 134.5 124.2 121.3 110.2 100.6 82 80.2 89.7 85.5 82 79.9 76.8 76.3 73.1 67.1 66.5 65.4 62.3 65.3 69.6 78.1 78.6 62 53 47.5 44.1 34.5 33.7 41.4 37 41.6 34.6 30.8 24.4 15 -2.2 -2.2 -2.2 -2.2 6.8 -2.2 -2.2 -2.2 -2.2 -2.2 -2.2 -2.2 -2.2 -2.2 8 14.5 21.6 27.3 35.9 45.7 57.3 65 75.1 85.8 84.1 93.1 93.9 96.2 103.1 108.6 109.4 107.3 104.2 102.4 103.8 98.3 94.5 86.8 81.9 82.4 77.6 77.9 66.9 60.1 51.1 40 31.3 35.2 46.9 43.2 37.5 26.1 17.8 24.7 32.3 34.7 34.4 42.3 43.7 41.6 38.6 33.7 33.9 23.1 14.1 -2.2 -2.2 -2.2 -2.2 -2.2 -2.2 -2.2 -2.2 -2.2 -2.2 -2.2 -2.2 25.4 34.9 32.9 32.3 44.9 28.4 30.3 36 38.1 37.1 33.1 28 58.9 53.2 49.3 49.5 49.6 36.3 33 36.1 40.7 16 -2.2 -2.2 11.1 8.9 20.4 18.2 30.3 39.9 37.7 31.9 29.8 24 26 16.9 20.1 21 33.1 17.4 10.4 21.4 16.9 32.4 36.1 45.3 45.5 45.8 38.1 33.2 31.3 24.4 24.2 24.8 16.5 -2.2 -2.2 -2.2 -2.2 -2.2 -2.2 -2.2 -2.2 -2.2 -2.2 -2.2 -2.2 -2.2 -2.2 -2.2 -2.2 -2.2 -2.2 -2.2 -2.2 -2.2 -2.2 -2.2 -2.2 -2.2 -2.2
222.7 209.6 188.1 176.2 160.3 140 134.1 131.7 119.3 119.2 112.3 103.5 85 78.2 79.9 83.5 83.9 82 80.4 77.9 74.9 68.3 67 70.1 72.3 77.5 80 82.6 89 77.3 63.3 54.4 47.3 39.2 43.1 49.7 50.8 51.3 45.9 26.6 23.9 18.7 9.7 -2.2 -2.2 -2.2 -2.2 -2.2 -2.2 -2.2 -2.2 -2.2 -2.2 -2.2 -2.2 -2.2 -2.2 13.3 18.1 23.1 31.5 43.7 58.5 60.9 71.1 78.3 82.3 87 90.4 96.9 103.6 104.3 112 107.2 109.2 111.9 106.2 98.8 92.4 86.8 81.9 88.5 80.8 76.7 65.7 67.2 60.9 36.3 34.7 25.8 36.3 43.3 34.7 22.8 17.1 21.9 22.1 28.7 32.2 38.4 39.6 40.7 38.2 41.7 40.2 34.2 20.1 -2.2 -2.2 -2.2 -2.2 -2.2 -2.2 -2.2 -2.2 -2.2 -2.2 -2.2 -2.2 21.5 25.6 26.5 45.3 49.3 40.8 29.8 16.8 22.7 20.2 24.4 18.1 52.3 50.6 47 45.7 41 34.5 29.1 39.1 51.6 18.5 -2.2 -2.2 8.9 10.6 15.2 13.2 25.1 31.7 29.7 29.7 24.3 28 28.4 21.4 15.5 20.2 22.4 11.4 18.3 22.9 24.9 25.9 39 45.1 47.1 41.6 37.3 36.4 27.1 19.4 16.8 15.4 11.8 -2.2 -2.2 -2.2 -2.2 -2.2 -2.2 -2.2 -2.2 -2.2 -2.2 -2.2 -2.2 -2.2 -2.2 -2.2 -2.2 -2.2 -2.2 -2.2 -2.2 -2.2 -2.2 -2.2 -2.2 -2.2 -2.2
233.9 216 210 172.6 166.9 146.7 127.6 127.1 111.7 117.2 109.7 105.2 93.5 81.2 76.6 78.8 81 83.4 81.3 80.3 78.9 78.8 74.3 76.7 83 86.3 89 90.8 91.1 84 74.5 62.7 55.8 49.9 46.5 50.7 45 52.9 54.9 39.6 24.9 20.4 13.2 -2.2 -2.2 -2.2 -2.2 -2.2 -2.2 -2.2 -2.2 -2.2 -2.2 -2.2 -2.2 -2.2 -2.2 9.9 13.1 18.4 24.2 41.7 55 60.1 57.7 71.3 74.7 84.5 91.3 96.5 102.2 108.1 110.1 113.5 113.1 102.7 106.6 104 93.3 92.2 84.3 87.6 83.1 83.6 70.2 77.2 67.4 41.4 36.3 33.7 21.8 29.7 29 22.5 17.1 19.4 20.5 22.9 28 31.4 34.8 35.6 42.2 42.1 44.6 39.2 32.5 14 6.6 -2.2 -2.2 -2.2 -2.2 -2.2 -2.2 -2.2 -2.2 -2.2 -2.2 13.5 11 12.5 36.8 58 54.7 33.2 16.1 16.3 16.3 19.4 10.7 29.8 40.9 38.6 39.8 27.2 23.8 26.8 34.9 38.4 33.8 -2.2 -2.2 9.4 16.4 20.2 13.7 17.2 22.5 30.3 28.8 24.8 25.5 21 23.6 20.7 7.9 23.1 11.4 20.2 21 20 19.9 28.7 52.9 48 43.5 38.6 31.4 27.4 20.2 13.1 7.8 1.2 -2.2 -2.2 -2.2 -2.2 -2.2 -2.2 -2.2 -2.2 -2.2 -2.2 -2.2 -2.2 -2.2 -2.2 -2.2 -2.2 -2.2 -2.2 -2.2 -2.2 -2.2 -2.2 -2.2 -2.2 -2.2 -2.2
223.7 218.2 215.3 188 165.2 152.7 126.4 120.4 109.3 107.2 106 100.1 94.9 82 76.6 76.6 80.6 82.1 81.5 82.5 87.4 85.1 85.8 88.4 93.4 101.2 106.9 105.4 97.5 95.4 91.1 82.7 71.9 69.4 49.2 48.9 47 59.9 53.8 49.6 40.7 19 7.1 10.5 -2.2 -2.2 -2.2 -2.2 -2.2 -2.2 -2.2 -2.2 -2.2 -2.2 -2.2 -2.2 -2.2 5.5 9.1 13.7 23.5 36.7 48.2 54.9 56.3 65.4 68.8 75.5 84.7 90.1 101.2 103.5 112.2 114.7 112.4 110.1 105.3 107.3 101.9 95 86.4 88.5 84.4 82.6 76.5 72.5 61.3 42.9 35.1 32.6 28.5 23.3 25.6 28 19.2 17.7 15 21.3 20.1 27 30.1 39.7 49.8 50.1 50.1 45.5 34.6 18.6 6.2 -2.2 -2.2 -2.2 -2.2 -2.2 -2.2 -2.2 -2.2 -2.2 -2.2 -2.2 -2.2 -2.2 -2.2 45 39.4 35.5 12.8 12.8 18.9 21.4 10.3 13.8 29.7 36.1 39.8 25.8 24.6 22.1 29.4 29.2 25.2 -2.2 -2.2 5.7 28.4 28.4 18.1 19.1 21.6 16.8 27 17 28.4 32.7 25.3 17.8 -2.2 16.9 -2.2 16.4 19.5 20.9 20.1 27.8 49.5 50 45.7 43.7 42 31.7 23.6 16.6 7.8 3.7 1.1 -2.2 -2.2 -2.2 -2.2 -2.2 -2.2 -2.2 -2.2 -2.2 -2.2 -2.2 -2.2 -2.2 -2.2 -2.2 -2.2 -2.2 -2.2 -2.2 -2.2 -2.2 -2.2 -2.2 -2.2 -2.2
206.8 211.9 208.1 193.9 161.4 147.4 129.6 111.2 110.5 100.9 98.2 96.6 92.7 85.7 77.4 76.6 76.6 76.6 82.3 87.7 88.6 90 94.8 98.3 107.6 110.3 113.9 114.8 106.3 106 97.9 91.2 86.3 80.6 61.4 44.9 54.6 64.4 56.7 54.1 46.4 36.7 21.7 4 9.5 -2.2 -2.2 -2.2 -2.2 -2.2 -2.2 -2.2 -2.2 -2.2 -2.2 -2.2 -2.2 -2.2 7.1 12 15.7 31.6 41.1 53.1 56.8 61.6 65.3 69.2 84.6 91.1 95.1 98.6 111.1 115 115.4 111.5 105.7 101.6 107.4 101.6 86.5 83.9 81.5 79.4 73.7 66.4 54.1 43.8 32.4 33.1 33.5 23.7 15.2 14.6 15.7 16.7 16.3 17.4 19.8 25.1 31.6 41 48.3 50.9 46.6 41.3 40.1 33 24.2 -2.2 -2.2 -2.2 -2.2 -2.2 -2.2 -2.2 -2.2 -2.2 -2.2 -2.2 -2.2 -2.2 -2.2 -2.2 24.9 28.9 15 12.8 13.5 17.6 11.4 4.8 20.1 20.6 26.2 28 22 22 29.4 -2.2 -2.2 -2.2 -2.2 5.5 23.9 25.5 28.3 26 15.3 7.6 14.4 23 21.6 30.8 35.1 -2.2 -2.2 -2.2 -2.2 23.8 19.7 24.5 27.9 26.3 53 51.4 47.5 44.3 41 29.5 27.9 16.4 11.3 9.1 12.8 9.1 -2.2 -2.2 -2.2 -2.2 -2.2 -2.2 -2.2 -2.2 -2.2 -2.2 -2.2 -2.2 -2.2 -2.2 -2.2 -2.2 -2.2 -2.2 -2.2 -2.2 -2.2 -2.2 -2.2 -2.2
191.5 195.3 196.7 193.2 149.8 141.7 128.6 103.4 101.5 90.7 90.3 89.6 87.1 78.6 76.6 76.6 76.6 76.6 84.6 88.6 91.8 94.8 103.9 113.3 121.3 116.7 114.5 115.2 106.4 105.7 99.8 91.5 91.9 84.2 69.9 44.9 62.4 65.8 55.2 55.3 56.1 47.8 30.9 13.8 3 -2.2 -2.2 -2.2 -2.2 -2.2 -2.2 -2.2 -2.2 -2.2 -2.2 -2.2 -2.2 -2.2 6.5 9.6 12.6 22.4 38 48.2 55.3 57.5 62.5 65.4 76.7 85.7 89.6 98.5 107.3 108.8 110 110.1 113.3 98 94.6 95.8 94 88.6 76.1 79 74.2 61.5 48.3 46.9 33.9 32.9 36 30.2 14.6 14.6 14.6 14.6 14.6 18.3 21.3 24.6 30.1 43.8 54.2 52.5 46.9 43.8 42 42.1 31.7 24.5 13.2 -2.2 -2.2 -2.2 -2.2 -2.2 -2.2 -2.2 -2.2 -2.2 -2.2 -2.2 -2.2 -2.2 -2.2 19.3 17.8 13.5 16.5 11.3 9.8 14.9 4.8 4.8 12.7 20.9 26.3 24.4 19.2 -2.2 -2.2 -2.2 -2.2 6 16.3 24.8 29.6 19.8 17.5 4.8 1.8 -2.2 -2.2 -2.2 15 -2.2 -2.2 -2.2 -2.2 18.5 15 26.5 25.5 25 51.9 54.2 53.9 47.7 34 40.4 29.3 15.2 23.3 19.7 25 32.5 -2.2 -2.2 -2.2 -2.2 -2.2 -2.2 -2.2 -2.2 -2.2 -2.2 -2.2 -2.2 -2.2 -2.2 -2.2 -2.2 -2.2 -2.2 -2.2 -2.2 -2.2 -2.2 -2.2 -2.2
175.4 177.1 184.5 180.3 138.1 128.2 118.3 98 90.1 87.2 85.1 82.2 80.7 76.6 76.6 76.6 76.6 77.9 81.3 89.9 96.4 98 109.8 116.5 125.5 126.9 121.6 119.8 113.4 108.4 99.8 91.4 87.7 84.8 64.7 44.9 59.2 57.2 57.7 71.3 70.5 56 47.4 24.7 11.6 -2.2 -2.2 -2.2 -2.2 -2.2 -2.2 -2.2 -2.2 -2.2 -2.2 -2.2 -2.2 -2.2 3.3 8.8 11.4 20.2 33.5 46.3 57.6 56.7 62.2 62.8 69.7 74.8 79.4 93.4 101.1 103.6 112.3 115.9 109.8 97.7 99.4 94.4 95.4 87.5 80.2 76.1 70.1 61.3 53.2 45.8 36.4 34.3 36 33.3 20.2 14.6 14.6 14.6 14.6 14.6 18.5 24.2 27.9 42.3 48.4 49.3 50.4 51.2 53.8 47.1 36.3 32.2 20.5 5.1 -2.2 -2.2 -2.2 -2.2 -2.2 -2.2 -2.2 -2.2 -2.2 -2.2 -2.2 -2.2 -2.2 -2.2 -2.2 9.5 18 7.9 12.9 18.5 5.6 10.6 22.7 24.3 25.5 23.8 13.9 -2.2 -2.2 -2.2 -2.2 18.6 34.8 34.8 38.6 31 21.2 14.9 17.3 -2.2 -2.2 -2.2 -2.2 -2.2 -2.2 -2.2 -2.2 27.5 15 19.6 21.2 22.3 48.2 58.5 50.9 37.1 38.5 42.7 42 32.2 32.6 26.8 32.3 36.9 -2.2 -2.2 -2.2 -2.2 -2.2 -2.2 -2.2 -2.2 -2.2 -2.2 -2.2 -2.2 -2.2 -2.2 -2.2 -2.2 -2.2 -2.2 -2.2 -2.2 -2.2 -2.2 -2.2 -2.2
155.6 161.7 173.5 167.5 130.2 116.6 108.5 98 82.5 81 76.6 76.6 76.6 76.6 76.6 76.6 76.6 76.6 83.2 90.5 97.5 106.4 115.3 117.5 125.5 125.8 123.8 126.1 124.1 112.4 109.8 99.4 91.7 83.1 67.2 51.7 57.5 63 61 74.6 74.6 64.2 54.2 38.4 16.5 -2.2 -2.2 -2.2 -2.2 -2.2 -2.2 -2.2 -2.2 -2.2 -2.2 -2.2 -2.2 -2.2 3.2 8.5 14.9 24.7 34.3 46.7 51.5 56.7 55.9 61.2 60.9 68 75 84.6 96.7 101.6 106.2 121.4 112.6 101.8 97.7 94.9 95.8 89.4 80.9 76.4 63.1 60.2 55.4 47.2 41.8 39.3 24.4 25.7 20.6 14.6 14.6 14.6 14.6 14.6 16.5 26.8 26.9 44.4 49.4 54.5 62.1 60.4 61.1 56.8 42.9 42.5 35.7 17.1 -2.2 -2.2 -2.2 -2.2 -2.2 -2.2 -2.2 -2.2 -2.2 -2.2 -2.2 -2.2 -2.2 -2.2 -2.2 -2.2 -2.2 -2.2 16.1 20.1 2.7 2.6 25.7 30.4 30 22.6 20.5 -2.2 -2.2 -2.2 15.3 28.2 38.2 37.4 42.3 48.2 36.8 24 25.7 -2.2 -2.2 -2.2 -2.2 -2.2 -2.2 -2.2 -2.2 22.4 15.8 22.6 16.5 23.4 30.3 45.5 41.1 45.1 59.5 53.3 47 41.2 36.2 38.7 39.6 42.4 -2.2 -2.2 -2.2 -2.2 -2.2 -2.2 -2.2 -2.2 -2.2 -2.2 -2.2 -2.2 -2.2 -2.2 -2.2 -2.2 -2.2 -2.2 -2.2 -2.2 -2.2 -2.2 -2.2 -2.2
135.3 145.6 153.8 155.2 125.4 113.9 100.8 89.3 82.4 76.6 76.6 76.6 76.6 76.6 76.6 76.6 76.6 76.6 81.5 97.1 102.4 111.9 123 124.9 123.7 133.5 128.8 128.1 120.6 110 105.6 100.8 90.4 80 72.5 52.4 53.9 57 64.9 74.6 76.5 70.6 64.4 55.6 30.2 9 -2.2 -2.2 -2.2 -2.2 -2.2 -2.2 -2.2 -2.2 -2.2 -2.2 -2.2 -2.2 1.6 8.7 13.6 22.4 32.3 37.2 46.1 53.6 49.7 57.4 59.5 64.4 72.8 76.1 88.8 96.7 106.2 115.6 111.7 108.6 93.4 89.4 93.4 84.9 81.2 69.7 67.2 63.5 56.8 51.3 51.3 40.8 27.7 22.2 17.9 14.6 19.8 14.6 14.6 14.6 19.1 24.5 25.6 40.4 44.3 54.2 63.5 66.3 69.5 65 58.1 44.7 40 31.1 -2.2 -2.2 -2.2 -2.2 -2.2 -2.2 -2.2 -2.2 -2.2 -2.2 -2.2 -2.2 -2.2 -2.2 -2.2 -2.2 -2.2 -2.2 9.5 19.7 -2.2 -2.2 29 33.6 35.2 34.4 4.7 -2.2 -2.2 -2.2 20.9 26.1 43.9 56.3 49.8 51.4 40.6 28.7 27.4 -2.2 -2.2 -2.2 -2.2 -2.2 -2.2 -2.2 -2.2 -2.2 21 22.8 15.5 23.5 27.3 32.3 51.5 50.5 61.3 57 52.5 45.5 38.5 37.5 40.9 36.9 22.6 -2.2 -2.2 -2.2 -2.2 -2.2 -2.2 -2.2 -2.2 -2.2 -2.2 -2.2 -2.2 -2.2 -2.2 -2.2 -2.2 -2.2 -2.2 -2.2 -2.2 -2.2 -2.2 -2.2
123.4 133.1 129.8 122.5 112.8 113.8 97.8 87.3 85.3 76.6 76.6 76.6 76.6 76.6 76.6 76.6 76.6 76.6 76.6 95.1 106.2 116.6 127.2 129.3 123.2 131.5 128.7 131.6 122.8 113.4 98.5 90.1 85.2 75.9 67.1 53.4 52.9 58.7 68.5 74.4 77.9 75.7 68.8 66.9 56.9 14.4 -2.2 -2.2 -2.2 -2.2 -2.2 -2.2 -2.2 -2.2 -2.2 -2.2 -2.2 -2.2 -2.2 7.1 16.2 24.4 27.2 36.5 45.9 50.2 49.3 49.3 55.3 59.2 65 71.2 81.5 94.6 108.4 113 112.5 108 91.9 84.2 84.3 76.7 66.1 65.6 67.9 66.8 57.9 59 47.5 45.6 33.4 24.9 15.9 14.6 14.6 14.6 14.6 14.6 17 21.7 24.6 33.8 44.7 52.4 52.8 52 58.5 63.4 60.2 49.3 49 33.5 17.5 -2.2 -2.2 -2.2 -2.2 -2.2 -2.2 -2.2 -2.2 -2.2 -2.2 -2.2 -2.2 -2.2 -2.2 -2.2 -2.2 -2.2 -2.2 -2.2 13.1 -2.2 -2.2 38 37.9 37.9 -2.2 -2.2 -2.2 -2.2 34.3 35.4 40.6 48.2 49.1 51.8 44.7 51.5 28.7 23.2 -2.2 -2.2 -2.2 -2.2 -2.2 -2.2 -2.2 -2.2 14 18.1 14.6 29.8 36.3 38.1 35 50.2 52.8 54.7 54 44.4 38.9 41.3 38.4 36.7 17 19.7 -2.2 -2.2 -2.2 -2.2 -2.2 -2.2 -2.2 -2.2 -2.2 -2.2 -2.2 -2.2 -2.2 -2.2 -2.2 -2.2 -2.2 -2.2 -2.2 -2.2 -2.2 -2.2
108.5 119.3 107.5 109.2 109.4 108.8 101.5 94.5 89.6 82.1 77.2 76.6 76.6 76.6 76.6 76.6 76.6 80 89.3 90.7 108.4 118.4 125.5 128.3 123.8 132.4 125.7 128.5 120.5 107.2 92.3 85.9 81.6 69 62.5 55.4 54.1 62.5 76.1 79.6 80.9 77.9 74.9 68.6 60.8 44.6 11.8 -2.2 -2.2 -2.2 -2.2 -2.2 -2.2 -2.2 -2.2 -2.2 -2.2 -2.2 -2.2 7.1 12.9 20.9 31 38.2 41.3 47.7 48.4 46.6 51.9 67.9 66.5 70.8 80.8 95.7 104.7 111.1 109.3 104.7 96.8 83.5 80.4 66.4 62.6 60.6 63.1 64.3 63.4 51.4 49.5 45 38.5 28.3 22.1 18.7 14.6 14.6 14.6 14.6 14.6 16.4 21.2 30.8 44.4 43.7 46.1 54.8 64.7 63 60.1 46.5 52.3 50.3 38 -2.2 -2.2 -2.2 -2.2 -2.2 -2.2 -2.2 -2.2 -2.2 -2.2 -2.2 -2.2 -2.2 -2.2 -2.2 -2.2 -2.2 -2.2 -2.2 -2.2 -2.2 -2.2 34.6 39.9 -2.2 -2.2 -2.2 -2.2 26.5 25.6 43 46.8 43.2 48.7 52.5 38.5 41.6 26.4 -2.2 -2.2 -2.2 -2.2 -2.2 -2.2 -2.2 -2.2 -2.2 6.2 12.3 20.1 33.4 40.2 35.7 35 35 49.1 58.6 54.6 42.7 36.8 34.7 19.9 23.8 22.1 24.4 -2.2 -2.2 -2.2 -2.2 -2.2 -2.2 -2.2 -2.2 -2.2 -2.2 -2.2 -2.2 -2.2 -2.2 -2.2 -2.2 -2.2 -2.2 -2.2 -2.2 -2.2 -2.2
98.9 96.7 100.8 103 104 103.1 99 102 91.6 82.9 79 76.6 76.6 76.7 78.6 78.7 77.3 83 92 97.1 104.4 113.4 121.2 126.3 118.7 124.6 114.5 111.7 107.5 100.8 87.5 78.2 76.7 71.4 63.3 55.7 55.7 69.3 80.5 85.1 82.6 79.1 78.1 77.3 66.3 54.8 40.3 -2.2 -2.2 -2.2 -2.2 -2.2 -2.2 -2.2 -2.2 -2.2 -2.2 -2.2 -2.2 5.7 9.8 22.5 23.9 34.6 37.5 39.1 44 51.3 49.7 62.5 67.5 70.2 84.6 95.9 106.1 113.3 113.5 107.4 95.6 78.8 80.6 63.2 60.4 60.4 60.9 60.9 67.4 60.3 51.9 46.9 38.9 28.4 19.3 17.8 18.7 14.6 14.6 14.6 14.6 15.2 19.2 33.5 39.9 42.3 49.4 54 62.2 64.3 65.9 43.8 52 56.4 52.2 31.9 -2.2 -2.2 -2.2 -2.2 -2.2 -2.2 -2.2 -2.2 -2.2 -2.2 -2.2 -2.2 -2.2 -2.2 -2.2 -2.2 -2.2 -2.2 -2.2 -2.2 -2.2 -2.2 -2.2 -2.2 -2.2 -2.2 -2.2 24.2 22.3 38 47.8 35.3 50.1 42.3 32.3 37 34.3 -2.2 -2.2 -2.2 -2.2 -2.2 -2.2 -2.2 -2.2 -2.2 19.8 21.4 32.5 30.4 39 37.3 43.5 47.5 43 55.2 52.1 33 23.2 8.5 -2.2 -2.2 9.5 -2.2 -2.2 -2.2 -2.2 -2.2 -2.2 -2.2 -2.2 -2.2 -2.2 -2.2 -2.2 -2.2 -2.2 -2.2 -2.2 -2.2 -2.2 -2.2 -2.2 -2.2 -2.2 -2.2
91 99.3 104.7 104.7 99.4 98 98.4 100.4 97.6 91.6 88.6 83.8 76.6 80.3 83.8 84 82.5 86.3 93.7 98.9 97.6 109.3 114 119.8 112 105.1 98.8 97.2 97.2 94.3 87.6 73.4 70.7 65.2 65 61.4 58.3 72 78.4 86.2 85.5 80.9 81 76.7 70.2 55.6 46.3 34.3 -2.2 -2.2 -2.2 -2.2 -2.2 -2.2 -2.2 -2.2 -2.2 -2.2 -2.2 2 5.1 13.2 22.3 28.9 30.9 34.6 37 47.5 46.9 64.7 64.5 70.3 83 95.2 102.9 108.9 112.3 106.7 97.8 90.8 76.4 62.1 60.4 60.4 60.4 63 66.2 66.2 64.3 55.8 44.8 32 23.8 17.1 19.4 23.6 14.6 14.6 14.6 14.6 18.8 27.6 41.6 40.8 39.9 52.7 59.5 56.6 56.6 46.7 52.7 49.2 52.9 43.2 -2.2 -2.2 -2.2 -2.2 -2.2 -2.2 -2.2 -2.2 -2.2 -2.2 -2.2 -2.2 -2.2 -2.2 -2.2 -2.2 -2.2 -2.2 -2.2 -2.2 -2.2 -2.2 -2.2 -2.2 -2.2 -2.2 15.1 28.1 21.1 31.3 36.6 29.5 35.4 32.2 27.5 38.9 33.7 18.3 -2.2 -2.2 -2.2 -2.2 -2.2 -2.2 -2.2 -2.2 32.7 31.2 29.8 30.4 33.2 44 53.9 53.1 45.4 36.6 33.8 19.6 -2.2 -2.2 -2.2 -2.2 -2.2 -2.2 -2.2 -2.2 -2.2 -2.2 -2.2 -2.2 -2.2 -2.2 -2.2 -2.2 -2.2 -2.2 -2.2 -2.2 -2.2 -2.2 -2.2 -2.2 -2.2 -2.2 -2.2 -2.2
90.2 93.1 100.5 102.6 100.2 89.4 94.9 99 103.8 102.9 91.2 88.3 80.6 78.2 83.9 89 94.1 97.7 98.5 103.5 105.7 97.3 106.9 114.2 109.3 93 90.5 96.8 97.9 91.1 90.7 80.1 65.3 65.3 70.2 71.9 54.3 72.7 79.3 83.2 83.1 83.6 83.5 78 70.3 67.1 51.6 36.8 8.3 7 -2.2 -2.2 -2.2 -2.2 -2.2 -2.2 -2.2 -2.2 -2.2 -2.2 7.3 9.1 13.3 20.1 21.4 28 28.6 33.9 40.1 55.3 59.3 61.2 69.2 93.1 102.4 112 113.5 108.4 96.4 86.4 76.1 63.2 60.7 60.2 62.1 69.3 71.5 72.4 69.4 60.4 46.2 34.5 36.2 21.3 27.7 31.3 25.2 25.4 17.7 14.6 19.1 22.5 37.8 39.8 37.4 39.9 51.8 47.2 53.1 51 41.8 48.6 50.6 38 -2.2 -2.2 -2.2 -2.2 -2.2 -2.2 -2.2 -2.2 -2.2 -2.2 -2.2 -2.2 -2.2 -2.2 -2.2 -2.2 -2.2 -2.2 -2.2 -2.2 -2.2 -2.2 -2.2 -2.2 -2.2 -2.2 -2.2 28.6 20.2 22.8 27.9 24.7 13.4 31.1 26.2 36.2 36.8 -2.2 -2.2 -2.2 -2.2 -2.2 -2.2 -2.2 -2.2 -2.2 41.6 35.4 37.1 28.5 36.2 32.5 58.9 53.4 49.6 44.7 40.4 26.2 2.9 -2.2 -2.2 -2.2 -2.2 -2.2 -2.2 -2.2 -2.2 -2.2 -2.2 -2.2 -2.2 -2.2 -2.2 -2.2 -2.2 -2.2 -2.2 -2.2 -2.2 -2.2 -2.2 -2.2 -2.2 -2.2 -2.2 -2.2
84.6 94.5 97.1 103.9 101 84 86.8 98.4 99.1 100.7 92.1 92.2 81.4 80.5 79.9 87.5 94.7 99.3 106.9 104.8 111 100.1 101.6 109.5 105.1 94.9 91 96.6 97.7 91.8 90.3 71 65.4 65.3 71.8 74.3 55.1 72.7 74.2 82 84.2 88.2 85.3 80 74.9 67.3 63 48 25.7 -2.2 -2.2 -2.2 -2.2 -2.2 -2.2 -2.2 -2.2 -2.2 -2.2 -2.2 2.4 8 11.7 14.4 16.9 21 23.3 26.3 32.5 40 50.6 54.9 66.2 79.3 95.2 107.7 112.6 105.8 98 79.2 63.1 63.1 60.4 60.4 60.9 68.8 71.6 73.2 69.3 62 51.8 41.1 36.8 28.8 28.5 31.6 33.5 31.8 29.3 21 14.6 14.6 22.8 33.2 33.4 35.1 38.8 44.5 50.8 49 31.6 36.7 38.8 30 13.7 -2.2 -2.2 -2.2 -2.2 -2.2 -2.2 -2.2 -2.2 -2.2 -2.2 -2.2 -2.2 -2.2 -2.2 -2.2 -2.2 -2.2 -2.2 -2.2 -2.2 -2.2 -2.2 -2.2 -2.2 -2.2 11.6 9.7 13.8 9.2 11.9 10.3 8.5 23.7 27.1 36.6 33.6 -2.2 -2.2 -2.2 -2.2 -2.2 -2.2 -2.2 -2.2 -2.2 46.4 40.1 30.6 27.1 23.8 29.2 45.7 51.6 53.7 52.5 54.2 32.2 9.3 -2.2 -2.2 -2.2 -2.2 -2.2 -2.2 -2.2 -2.2 -2.2 -2.2 -2.2 -2.2 -2.2 -2.2 -2.2 -2.2 -2.2 -2.2 -2.2 -2.2 -2.2 -2.2 -2.2 -2.2 -2.2 -2.2 -2.2
76.1 90.6 97.3 101.7 91.7 83.5 91.4 96.8 97.6 96.6 99.3 85.6 88.1 83.6 77.4 79 87.3 95.5 99.3 98.4 104.9 103.4 94.8 103.1 104.4 100.2 90.3 88 89 85.1 88.3 72.5 70.3 71 69.6 65.1 56.1 67.9 77.3 81 82.1 87.4 83.9 84.2 78 71.2 63.3 55.8 39.3 14.1 -2.2 -2.2 -2.2 -2.2 -2.2 -2.2 -2.2 -2.2 -2.2 -2.2 5.6 8.9 7.5 12.4 14.9 16 24.3 27.7 27.6 30.2 41.3 53.5 69.8 79.2 95.7 102.4 106.5 103.3 92.5 86.7 53.8 59.7 60.9 61.5 68.4 75.2 73.1 70.9 65.3 61.2 52.1 54.3 52 35.1 21.8 28.4 33.5 40.5 45.5 30.7 21.5 14.1 17.7 28.8 31.2 33.6 40.3 49.1 46.8 33.5 23.2 28.1 26.6 21.5 5.8 -2.2 -2.2 -2.2 -2.2 -2.2 -2.2 -2.2 -2.2 -2.2 -2.2 -2.2 -2.2 -2.2 -2.2 -2.2 -2.2 -2.2 -2.2 -2.2 -2.2 -2.2 -2.2 -2.2 -2.2 -2.2 -2.2 -2.2 14.2 6.8 6.4 10.3 10.8 13.4 29.7 34.1 34 18.7 -2.2 -2.2 -2.2 -2.2 -2.2 -2.2 -2.2 40.2 49.7 49.4 36 26.3 24.3 17.6 29.8 44.9 46.9 44.9 45.5 28.4 12.2 -2.2 -2.2 -2.2 -2.2 -2.2 -2.2 -2.2 -2.2 -2.2 -2.2 -2.2 -2.2 -2.2 -2.2 -2.2 -2.2 -2.2 -2.2 -2.2 -2.2 -2.2 -2.2 -2.2 -2.2 -2.2 -2.2 -2.2
72.1 79.8 90.6 94.6 93.9 80.7 91.6 100 99.8 101.2 99.5 94.6 86.2 89.6 78.5 81.3 84.3 87.7 92.4 98.7 100.7 104.9 88.3 94.8 100.5 101.2 94.1 87.6 86.8 81.6 79 70.1 66.3 67.4 69.9 61.4 53.5 67.9 74.8 79.7 81.5 82 80.3 77.4 75.2 70.4 67.1 60.7 51.8 19.6 -2.2 -2.2 -2.2 -2.2 -2.2 -2.2 -2.2 -2.2 -2.2 -2.2 -2.2 4.3 6.4 8.9 10.8 13.1 25 32.9 33.3 29.7 37.8 47 58.6 68.3 82.6 86.9 95 93.4 85.9 71.8 45.7 54.7 58.8 61.4 69.2 72 71 67.1 62.8 53 52.5 58.2 52.1 37.2 21.8 24.7 30.8 39.4 41.6 43.9 26.3 15.8 13.9 15.9 23.2 32.7 40.6 40.9 41.1 31 20.2 25.7 22.7 16.1 -2.2 -2.2 -2.2 -2.2 -2.2 -2.2 -2.2 -2.2 -2.2 -2.2 -2.2 -2.2 -2.2 -2.2 -2.2 -2.2 -2.2 -2.2 -2.2 -2.2 -2.2 -2.2 -2.2 -2.2 -2.2 -2.2 -2.2 -2.2 5.1 10.5 7.6 14.4 17 11.7 22.2 33.4 31.5 19.1 -2.2 -2.2 -2.2 -2.2 -2.2 -2.2 -2.2 39.9 47.5 46.8 33.6 18.8 17.5 14.3 16.7 23.9 19.1 21.9 -2.2 -2.2 -2.2 -2.2 -2.2 -2.2 -2.2 -2.2 -2.2 -2.2 -2.2 -2.2 -2.2 -2.2 -2.2 -2.2 -2.2 -2.2 -2.2 -2.2 -2.2 -2.2 -2.2 -2.2 -2.2 -2.2 -2.2 -2.2 -2.2 -2.2
73.5 71.4 81.6 81.8 82.5 76.9 89.8 92.3 96 98.6 104 94.4 79.6 82.2 72.9 82.6 86.6 86.1 90.9 95.1 96.1 100.4 84.4 83 92.9 98.6 95.1 86.6 81.8 78.2 71.5 62.6 67.2 65.1 60.6 56.9 48.6 76.4 77.8 79.5 78.8 85.4 79.2 79.7 76.2 68.3 68.3 66.8 61.9 42.3 20.1 14 -2.2 -2.2 -2.2 -2.2 -2.2 -2.2 -2.2 -2.2 -2.2 -2.2 4.5 7.3 11.5 15.9 26.9 29.7 30.5 30.4 35.6 45.9 56.3 63.5 71.5 80.4 88.3 86.4 72.4 65.8 42 58.4 61.1 62.8 65.7 68.1 68 61.1 53.1 53.2 57.7 59.2 53.4 38 22.3 31.4 32.7 37.1 36 31 30.8 34.2 20.3 16.8 10.3 23.4 49.8 45 41.1 32.4 18.2 28.9 23.9 11.8 -2.2 -2.2 -2.2 -2.2 -2.2 -2.2 -2.2 -2.2 -2.2 -2.2 -2.2 -2.2 -2.2 -2.2 -2.2 -2.2 -2.2 -2.2 -2.2 -2.2 -2.2 -2.2 -2.2 -2.2 -2.2 -2.2 -2.2 -2.2 3.5 7.7 19.4 11 20.1 21.3 -2.2 24.6 29.2 19.7 -2.2 -2.2 -2.2 -2.2 -2.2 -2.2 -2.2 -2.2 48.2 46.3 31.7 19.4 12.4 -2.2 13.9 15.7 16.9 -2.2 -2.2 -2.2 -2.2 -2.2 -2.2 -2.2 -2.2 -2.2 -2.2 -2.2 -2.2 -2.2 -2.2 -2.2 -2.2 -2.2 -2.2 -2.2 -2.2 -2.2 -2.2 -2.2 -2.2 -2.2 -2.2 -2.2 -2.2 -2.2 -2.2 -2.2
71.4 72.2 71.4 75.6 72.2 72.4 84.7 89 87.8 92.6 101.9 89.8 84.7 76.7 69.9 82.8 90.8 92.9 84.7 90 85.4 87.3 82.3 71 77.9 88.4 87 85.9 78.1 75.5 67.1 59.4 63 62.6 55.4 53.4 38.5 65.6 75.8 75.2 77 78.6 75 75.4 76.4 68.3 71.9 67 62.1 51.2 29.7 18.3 12.9 -2.2 -2.2 -2.2 -2.2 -2.2 -2.2 -2.2 -2.2 -2.2 5.3 6.6 17.6 19.8 23.4 31.2 31.4 32.7 26.5 40.8 53.4 62.2 66.4 72 76.5 73.3 73.2 62.3 43.9 53.9 51.6 58 64.8 68.2 60.6 54.2 53.2 53.2 65.1 59.5 55.7 36.7 23.5 30.4 30.6 37.5 38.8 38.5 36.5 31.7 22.4 17.9 7.5 9.4 36.9 40.7 33.6 24.3 10.9 18.9 16.7 15.1 -2.2 -2.2 -2.2 -2.2 -2.2 -2.2 -2.2 -2.2 -2.2 -2.2 -2.2 -2.2 -2.2 -2.2 -2.2 -2.2 -2.2 -2.2 -2.2 -2.2 -2.2 -2.2 -2.2 -2.2 -2.2 -2.2 -2.2 -2.2 -2.2 -2.2 -2.2 12.9 16 10 -2.2 -2.2 19.1 -2.2 -2.2 -2.2 -2.2 -2.2 -2.2 -2.2 -2.2 -2.2 36.6 38.2 30.1 19.5 -2.2 -2.2 -2.2 16.5 -2.2 -2.2 -2.2 -2.2 -2.2 -2.2 -2.2 -2.2 -2.2 -2.2 -2.2 -2.2 -2.2 -2.2 -2.2 -2.2 -2.2 -2.2 -2.2 -2.2 -2.2 -2.2 -2.2 -2.2 -2.2 -2.2 -2.2 -2.2 -2.2 -2.2 -2.2 -2.2
71.4 71.4 71.4 71.4 71.4 71.5 76.1 86.9 88.7 87.5 88 90 79.4 79.4 66.5 70.7 81.1 81.5 77.8 87.4 82.5 76.6 76.5 59.2 68.4 73.8 73 71.8 66.9 65.8 49.8 50.6 60 58 54.8 31.2 27.2 65.6 77.6 81.9 73 73 77.4 76.4 78.7 70.7 70.8 67.9 62.9 55.6 33 30.4 22.5 -2.2 -2.2 -2.2 -2.2 -2.2 -2.2 -2.2 -2.2 1.9 10.1 3.9 14.1 19.5 24.4 26.1 32.4 29.7 25.5 30.9 42.4 50.6 53.2 62.8 66.6 68.3 63.5 51.6 40.1 44.2 49.1 56.3 62.9 61 54.3 53.2 55 56.4 59.4 55.7 57.6 57.3 24.4 26 32.3 37.8 48.1 46.7 51.3 40 24.4 24.5 17.8 7 -2.2 -2.2 12.4 -2.2 -2.2 -2.2 4.2 1.8 -2.2 -2.2 -2.2 -2.2 -2.2 -2.2 -2.2 -2.2 -2.2 -2.2 -2.2 -2.2 -2.2 -2.2 -2.2 -2.2 -2.2 -2.2 -2.2 -2.2 -2.2 -2.2 -2.2 -2.2 -2.2 -2.2 -2.2 -2.2 -2.2 -2.2 -2.2 9.1 21.9 11.7 -2.2 -2.2 -2.2 -2.2 -2.2 -2.2 -2.2 -2.2 -2.2 -2.2 -2.2 -2.2 42 33.7 -2.2 -2.2 -2.2 -2.2 -2.2 -2.2 -2.2 -2.2 -2.2 -2.2 -2.2 -2.2 -2.2 -2.2 -2.2 -2.2 -2.2 -2.2 -2.2 -2.2 -2.2 -2.2 -2.2 -2.2 -2.2 -2.2 -2.2 -2.2 -2.2 -2.2 -2.2 -2.2 -2.2 -2.2 -2.2 -2.2 -2.2 -2.2
71.4 71.4 71.4 71.4 71.4 71.4 75.3 80.4 89.3 90.7 84.4 85 82.7 78.5 68.7 63 71.1 69.2 69.9 81.4 78.7 68.6 65.3 49.2 60.6 66.3 56 50.8 42.3 48.6 30.9 36.3 50.3 42.4 36.6 30.5 18.3 50.6 70.7 83.1 80.1 74.9 74.9 75.3 77.6 70.6 71.9 69 58.5 50.2 39.5 34 39.1 21.5 -2.2 -2.2 -2.2 -2.2 -2.2 -2.2 -2.2 -2.2 12.5 5.2 8.7 10.9 14.8 19.4 25 23.2 26.2 28.7 30.2 41.4 52.5 58.4 65 63.2 57.4 52.6 44.3 38.4 41.8 50.5 53.6 56.6 53 51.6 51.6 50.9 56 66 61.6 61.4 33.5 28.9 36.6 36.9 39.5 43.9 42.8 31.4 26 21 16.4 10.1 -2.2 -2.2 5.8 -2.2 -2.2 -2.2 1.8 2.3 -2.2 -2.2 -2.2 -2.2 -2.2 -2.2 -2.2 -2.2 -2.2 -2.2 -2.2 -2.2 -2.2 -2.2 -2.2 -2.2 -2.2 -2.2 -2.2 -2.2 -2.2 -2.2 -2.2 -2.2 -2.2 -2.2 -2.2 -2.2 -2.2 -2.2 -2.2 -2.2 -2.2 -2.2 -2.2 -2.2 -2.2 -2.2 -2.2 -2.2 -2.2 -2.2 -2.2 -2.2 -2.2 -2.2 -2.2 25.4 -2.2 -2.2 -2.2 -2.2 -2.2 -2.2 -2.2 -2.2 -2.2 -2.2 -2.2 -2.2 -2.2 -2.2 -2.2 -2.2 -2.2 -2.2 -2.2 -2.2 -2.2 -2.2 -2.2 -2.2 -2.2 -2.2 -2.2 -2.2 -2.2 -2.2 -2.2 -2.2 -2.2 -2.2 -2.2 -2.2 -2.2 -2.2
71.4 71.4 71.4 71.4 71.4 71.4 72 78.4 85.9 86.2 86 85.5 74 74.9 68.5 61.8 60.6 64.8 61.5 64.2 67.5 64.6 54.9 47.8 43.2 45.3 41.9 30.9 25.7 28.1 25.4 30.8 37.6 38 33.3 22.1 22.7 42.6 62.7 69.6 73 74.2 74.5 74.3 75.2 71.9 71.8 69 60.7 51.3 40.6 36.9 48.3 31.4 -2.2 -2.2 -2.2 -2.2 -2.2 -2.2 -2.2 -2.2 -2.2 -2.2 9.5 15.4 19.5 20.7 25.6 20.4 19.8 21.2 29.1 42.7 54.9 61.5 67.1 67.9 64.2 49.5 40.7 33.3 35.3 45.2 46.2 51.3 47.2 46.3 42.4 39.5 57.3 60.9 57.6 57.9 40.4 36.1 41.9 40.7 38 38.7 37.2 37.9 33.1 27 18.6 19.7 15 -2.2 -2.2 -2.2 -2.2 -2.2 13.4 24.5 -2.2 -2.2 -2.2 -2.2 -2.2 -2.2 -2.2 -2.2 -2.2 -2.2 1.4 -2.2 -2.2 -2.2 -2.2 -2.2 -2.2 -2.2 -2.2 -2.2 -2.2 -2.2 -2.2 -2.2 -2.2 -2.2 -2.2 -2.2 -2.2 -2.2 -2.2 -2.2 -2.2 -2.2 -2.2 -2.2 -2.2 -2.2 -2.2 -2.2 -2.2 -2.2 -2.2 -2.2 -2.2 -2.2 -2.2 -2.2 -2.2 -2.2 -2.2 -2.2 -2.2 -2.2 -2.2 -2.2 -2.2 -2.2 -2.2 -2.2 -2.2 -2.2 -2.2 -2.2 -2.2 -2.2 -2.2 -2.2 -2.2 -2.2 -2.2 -2.2 -2.2 -2.2 -2.2 -2.2 -2.2 -2.2 -2.2 -2.2 -2.2 -2.2 -2.2 -2.2 -2.2 -2.2
71.4 71.4 71.4 71.4 71.4 71.4 71.4 78.3 83.9 88.7 86.9 85.9 70.1 70 66.6 69.3 55.7 61 57.3 61.9 65.5 60.7 54.9 46.3 33.4 32.2 31.4 17.5 19.3 14.7 12.9 16.6 21.8 27.5 26.6 29 14.6 41.8 50.4 61.2 67.9 75.1 77.2 76 80.6 77.2 73.3 66.1 61.6 48.4 42.3 31.2 34.6 31.5 11.8 4.8 -2.2 -2.2 -2.2 -2.2 -2.2 -2.2 -2.2 -2.2 -2.2 8.9 20 20.9 26 23.4 19.4 24.1 24.1 44.2 52.1 59.4 63.1 63.6 62.4 55.6 41.4 29.5 35.5 40.4 43.5 44.8 45.3 36.8 35.3 39.6 53.1 51.7 51.5 52.7 42.3 46.2 40 40 38.5 40.5 47.2 49.2 42.4 39.7 31.3 35 27.2 -2.2 -2.2 -2.2 -2.2 15.3 19.2 14.5 -2.2 -2.2 -2.2 -2.2 -2.2 -2.2 -2.2 -2.2 -2.2 -2.2 -2.2 -2.2 -2.2 -2.2 -2.2 -2.2 -2.2 -2.2 -2.2 -2.2 -2.2 -2.2 -2.2 -2.2 -2.2 -2.2 -2.2 -2.2 -2.2 -2.2 -2.2 -2.2 -2.2 -2.2 -2.2 -2.2 -2.2 -2.2 -2.2 -2.2 -2.2 -2.2 -2.2 -2.2 -2.2 -2.2 -2.2 -2.2 -2.2 -2.2 -2.2 -2.2 -2.2 -2.2 -2.2 -2.2 -2.2 -2.2 -2.2 -2.2 -2.2 -2.2 -2.2 -2.2 -2.2 -2.2 -2.2 -2.2 -2.2 -2.2 -2.2 -2.2 -2.2 -2.2 -2.2 -2.2 -2.2 -2.2 -2.2 -2.2 -2.2 -2.2 -2.2 -2.2 -2.2 -2.2
71.4 71.4 71.4 71.4 71.4 71.4 71.4 71.4 78.7 83.3 91.3 90.7 73.1 69.2 63.2 61.7 54.5 55.5 61 66.6 67 64.3 56.3 47.8 37.2 25.3 18 10.5 9.2 9 10.7 14.8 12.8 12.8 17.8 24.7 14.6 43.3 57.9 64.6 63.6 71.6 69.3 74.5 78.3 76.6 71.8 71.4 58.6 39.7 38.8 27.4 27.7 30 16.1 27.1 17.1 -2.2 -2.2 -2.2 -2.2 -2.2 -2.2 -2.2 -2.2 6.1 15.6 17.9 27.3 20.5 18.5 25.8 22.3 39.6 52.1 57.1 67.2 61.1 61.3 53 38.9 29.6 34.5 35.3 33.7 33.6 33.5 32.8 27.8 43.1 48.3 49.6 57.3 55 45.8 37 37.2 36.8 46.7 45.5 47.3 53.9 46.1 40.6 32.6 27.6 27.4 23.4 -2.2 -2.2 -2.2 -2.2 10.5 11.2 7.6 -2.2 -2.2 -2.2 -2.2 -2.2 -2.2 -2.2 -2.2 -2.2 -2.2 -2.2 -2.2 -2.2 -2.2 -2.2 -2.2 -2.2 -2.2 -2.2 -2.2 -2.2 -2.2 -2.2 -2.2 -2.2 -2.2 -2.2 -2.2 -2.2 -2.2 -2.2 -2.2 -2.2 -2.2 -2.2 -2.2 -2.2 -2.2 -2.2 -2.2 -2.2 -2.2 -2.2 -2.2 -2.2 -2.2 -2.2 -2.2 -2.2 -2.2 -2.2 -2.2 -2.2 -2.2 -2.2 -2.2 -2.2 -2.2 -2.2 -2.2 -2.2 -2.2 -2.2 -2.2 -2.2 -2.2 -2.2 -2.2 -2.2 -2.2 -2.2 -2.2 -2.2 -2.2 -2.2 -2.2 -2.2 -2.2 -2.2 -2.2 -2.2 -2.2 -2.2 -2.2 -2.2
71.4 71.4 71.4 71.4 71.4 71.4 71.4 71.4 71.4 76.3 87.3 95.6 75.8 70.4 73.1 63.1 59.6 54.1 62 74.7 71.6 66.6 58.2 37 34 18 11.1 7.4 13.3 8.4 9.5 14.7 13.4 12.8 13.7 17.5 15.3 37.5 51.7 52.9 68.5 70.1 68.1 68.1 70.4 68.2 67.8 66.4 55.6 43.6 33.4 29 17 21 15.5 28.8 24.4 -2.2 -2.2 -2.2 -2.2 -2.2 -2.2 -2.2 -2.2 -2.2 12.2 9 14.6 19.8 18.5 24.7 27 37.7 43 48.8 64.8 60.6 54.7 48.4 39.3 38.1 31.7 35.6 37.6 34.7 36.1 26 23.4 41.3 47.9 53.4 60.7 59.6 53.9 38.9 45.5 42.6 37.4 42.6 43.3 46.5 47 43.4 39.5 27.5 23.5 21.5 15.2 -2.2 -2.2 -2.2 -2.2 -2.2 -2.2 -2.2 -2.2 -2.2 -2.2 -2.2 -2.2 -2.2 -2.2 -2.2 -2.2 -1.9 -2.2 -2.2 -2.2 -2.2 -2.2 -2.2 -2.2 -2.2 -2.2 -2.2 -2.2 -2.2 -2.2 -2.2 -2.2 -2.2 -2.2 -2.2 -2.2 -2.2 -2.2 -2.2 -2.2 -2.2 -2.2 -2.2 -2.2 -2.2 -2.2 -2.2 -2.2 -2.2 -2.2 -2.2 -2.2 -2.2 -2.2 -2.2 -2.2 -2.2 -2.2 -2.2 -2.2 -2.2 -2.2 -2.2 -2.2 -2.2 -2.2 -2.2 -2.2 -2.2 -2.2 -2.2 -2.2 -2.2 -2.2 -2.2 -2.2 -2.2 -2.2 -2.2 -2.2 -2.2 -2.2 -2.2 -2.2 -2.2 -2.2 -2.2 -2.2 -2.2 -2.2 -2.2
