ncols 200
nrows 82
xllcorner 180000
yllcorner 862200
cellsize 50
273.5 274.5 276 276.7 275.3 272.9 272.1 272.1 272.2 273.3 273.9 275.6 278.3 278.3 277.3 275.5 275.4 276.5 278.2 279 280 281.4 282.9 283.8 284.8 285.8 288.6 289.7 291.4 294.1 295.3 296 296.5 297.5 299 299.2 298.2 299.1 299 296.8 297.5 298 298.8 299.7 301.5 304.7 304.7 300.2 296.8 302.3 303.5 301.9 302 306.8 313.3 315.4 319.3 323.1 329.3 331.1 326 320.9 321 317.7 316.6 316.6 316.2 315 317.8 316.2 309 306.5 303.4 293.5 288.3 283.6 283 283.3 286 286.1 288.1 286.9 293.1 295.3 296 297.3 300.1 301.2 304.8 307.7 310.4 311.3 312.3 313.1 312.1 310.6 309.4 309.3 305.9 309.5 311.1 311.8 313.2 307.6 309 310.7 313.8 320.1 323 333 345.7 348.8 354.3 360.6 367.7 381.3 394.1 407.7 419.9 433.6 450.2 469.7 494.2 527 561.1 590.7 644.5 659.2 702.2 725 726.3 721.3 716.6 712.1 700.8 680.9 656.3 645.4 633.1 624 620.2 606.4 589.1 581.2 573.6 561.3 559.8 546.5 527.6 515.1 508.9 502.8 494.6 489.5 486.5 479.5 474.4 466.1 454.2 446.4 437.3 431 424.3 414 410.3 408.5 399.2 393.9 389.8 386.2 386.2 386.2 386.2 386.2 386.2 386.2 386.2 386.3 393.8 403.5 414.7 429.6 451.9 479.3 516.9 542.1 578.5 625.2 668 681.5 693.1 687.8 672.3 646.1 619.9 596.5 576.3 557.4 544.9 534.9
282.1 280.4 279.4 280.7 281.5 281.8 281.6 281 281.6 279.9 278.3 280.5 280.5 282.2 281.2 281.2 282 283.3 284.3 285.1 285 285.8 287.5 287.9 288.7 290.8 294.2 295.5 299.9 302.1 300.5 301.5 302.1 301 302.6 304 302.7 303.8 304.1 305.2 304.6 305.1 305.5 305.6 306.1 307.8 308.1 307.9 309.5 313.3 311.8 307.5 306.7 306.9 311.3 320.1 324.9 329.3 337.1 346.8 338 331.6 330.8 332.3 331.9 329.8 329 330 329.5 326.8 321.1 315.2 311.2 304.2 297.6 291 288.6 287.4 290.2 292.6 294 292.4 293.5 296 298.3 300.3 303.7 306.6 307.3 310.4 312.6 314.3 313.7 314.3 313.7 312.3 310.8 310 309 307 308.7 310.3 309.2 307.7 309.1 311.9 312.6 315.4 320.7 326.5 338.6 347.3 350.3 357.8 366.5 377.1 386.9 400.7 413.3 427.7 443 460.2 481.4 510.5 538.5 578.4 605.3 651.7 686.2 721 724.4 723.6 719.9 715.6 701.7 677.3 657.8 648 639.5 632.4 619.3 608.9 604.6 597.8 591.2 588.8 587.7 582.7 558.7 528.5 515.3 506.6 498.9 491.8 486.3 482.5 477.7 473.9 460.5 449.2 440 435.5 425.1 417.9 414 406.5 399.7 394.7 391.2 386.2 386.2 386.2 386.2 386.2 386.2 386.2 386.2 386.2 392.7 402 412.6 421.7 445.1 465.2 495 525.2 566.5 609.6 655.6 680.1 695.5 706 688.1 654.3 630 608.8 586.4 563.5 551.2 538.7
285.9 284.9 284.4 286.5 284.9 284.4 285.5 286 286.1 286.6 288.3 288.7 285.4 285.5 286.6 286.7 286.6 287.9 289.6 289.5 290.1 293.8 292.6 294.1 295.6 299.8 301.4 303.6 305.6 308.1 309.8 308.8 310.9 311 310.5 310.7 310.1 309 309.9 312.1 312.2 312 311 310.5 310.7 312.4 313.1 313.5 313 318.4 320.1 318.5 315.6 315 316 323.7 328.2 332 343.3 346.9 346.9 340 338.9 346.8 355.3 349.5 347.5 347 344.1 336.5 330.4 323.8 318.7 313.6 303.3 299.2 297.7 294.2 292.3 295.8 297.9 295.7 293.8 295.1 298.1 301.7 303.7 307 310.9 311.1 314.2 316 315.8 315 314.3 315.1 313.2 311.5 310.4 307.7 307.7 307.7 307.7 307.7 307.7 311.7 313.3 315.2 317.9 320 330.8 341.7 346.2 353.7 362.2 375.1 386.7 400.4 416.1 428.1 440.9 456.2 471.9 491 516 547.4 589.9 630.7 656.9 701.3 721.5 722.4 721.9 716 694.4 667.4 655.5 648.2 643.1 634.8 626.5 622.2 619.2 614 618.4 624.5 624.1 615.2 600.6 562.9 526.2 511.4 501.6 498 489.3 485 481.1 474.9 465.9 453 444.4 435.5 429.6 423.4 418.3 408.1 399.9 398.8 394.6 386.2 386.2 386.2 386.2 386.2 386.2 386.2 386.2 386.2 387.5 398.6 408.3 420 438.7 454.1 478.4 505.3 552.3 588.7 626.1 670.7 701 706.1 695.7 663.2 639.9 616.4 595.5 575.9 557.1 543.3
284.2 284.2 285.6 286.5 289.2 286.7 288.3 289 289 288.5 290.2 292.1 293.1 293.8 292.3 294.4 296.2 296.1 297.7 301.8 303.2 302.4 302.2 302.8 305.1 307.2 308.7 311.1 312.9 316.3 317.4 318.2 318.9 319.8 318.5 318.8 319.3 319.3 318.7 319.2 319 317.2 317.2 317.5 317.1 317.4 318.2 317.6 318.5 318.2 322.4 328.1 323.7 322.6 323.6 326.6 331.5 342.5 346.3 349.3 351.5 354.3 357.4 360.3 368.4 372.3 365.1 359.1 352.7 344.3 338.5 329.5 323.7 320.5 311.4 308.5 305.8 304.1 299.1 296.9 297.2 297.4 295 294.5 297.6 301.8 304 308.1 312.5 313.2 314.4 316.6 317.9 316.4 315.6 315.2 313.9 312.8 311.1 308.8 307.7 307.7 307.7 307.7 307.7 307.6 312.2 312.2 311.7 314.7 320.3 327 335.7 343.6 350.5 364.3 382.6 401.2 420 431 439.7 450.5 466.1 486.8 504.9 532.5 565.8 602.9 638.1 676.4 716.1 721.9 721.7 711.7 687.8 666.2 656.2 649.5 644.5 645.9 640.3 634.8 628.8 630.4 642.8 647.4 650.8 646.2 630 587.8 547.7 518.6 504.5 499.7 494.8 486.5 482.7 476.1 469.5 457.8 448.8 438.1 431.4 426.5 418.5 408.9 401.9 399.2 393 386.2 386.2 386.2 386.2 386.2 386.2 386.2 386.2 386.2 386.2 395.3 404.7 415.9 430.7 447.6 467.4 491.2 524.1 576.2 615.4 663.1 697.9 712 706.8 684.9 658.2 632.1 605 586.9 566.7 549.6
287.3 285 287.6 287.5 288 287.7 288.7 289.1 288.6 289.6 290.5 294.1 293.6 295.8 297.6 298 300.2 300.6 303.8 305.9 308.6 308.2 307.9 309.2 308.3 311.3 313.5 315.9 316.6 320.7 324.8 326.6 330 327.7 327.8 328.2 328.9 328.8 330.8 331.9 330.2 325.8 326.7 324.3 325.4 326.2 324.3 324.2 324.9 322.2 322.9 325.3 327.7 331.3 331.6 330.8 337.2 343.8 348.3 352.7 361 370.7 381.6 379.2 383.5 384.4 381.1 367.3 355.4 349.7 343.4 335.5 330.8 325.6 322.3 315.7 313.3 310.4 309.1 303.5 298.7 297.9 297.3 296 295.9 299.1 301.3 306.4 311.5 315.5 315.5 317.3 319.4 322.4 318.9 317.1 314.7 313.5 311.5 308.1 307.7 307.7 307.7 307.7 307.7 307.7 307.7 307.7 311.8 313.7 316.8 320.3 325.1 336 345.2 356.7 376.7 392.4 415.8 430 436.5 447.5 462.5 479.4 496.5 519.2 547.8 584.3 619.9 655.5 700.4 725.1 722.8 705.9 681.7 666.5 660.1 648 651.4 654.1 653.1 651.3 647.1 654.4 663.5 665.3 664.9 661.4 636.2 597.4 558.4 524.3 507.9 500.9 493.6 489.5 483.5 476.3 471.3 462.6 451.7 442.5 434.2 428.9 422.3 410.4 405.3 397 392.2 386.2 386.2 386.2 386.2 386.2 386.2 386.2 386.2 386.2 386.2 390.5 398.3 408 423.6 440.5 455.5 480.7 510.5 554.7 604.7 649.8 681.4 702.8 712.8 708.9 673.2 646.5 616.8 596.6 572.1 555.4
289.1 288.1 290.3 291.2 291.7 289.2 288.5 288.4 289.5 288.8 289.6 291.8 292.9 294.4 298.7 300.5 301.8 303.6 307 306.7 308.8 307.6 310.7 311.2 311.7 312.5 311.7 314.7 315.7 315.9 318.4 324.8 329.1 330.6 333.1 336.4 338.1 335.7 334.4 335.9 337.5 337.2 337.1 336.2 335.3 335 334.6 332.2 330.1 327.1 327 327.6 332 333.7 334.9 338.9 341.9 346.8 349.5 359.8 370.1 380.4 395.5 394.8 386.6 384.7 378.8 367.7 360 353.4 347 343.1 337.3 331.4 326.3 323.8 321.5 316.6 313.9 310 305.7 301.7 299 298.9 297.7 297.6 299.8 307.9 313.7 317.1 318.5 322.4 326.2 325.8 323.9 318.1 316.9 313.6 312.1 308.7 307.7 307.7 307.7 307.7 307.7 307.7 307.7 307.7 307.7 307.7 313.2 316.2 323.8 330.7 339 358.4 373.3 393 403.4 428.1 440.3 446.2 458.9 473.9 489.1 508.5 532.9 565.6 602.3 635.7 681.7 706.7 724.6 704.3 679.6 668.3 661.6 653.4 655.9 659.8 662.6 664.8 672.2 681.9 682.7 681.5 675.6 663.2 632 596.2 558 526.2 509.4 501 500.3 489.1 483.1 477 473.6 466.3 455.2 446.2 437.2 429.6 423.3 414.4 403.9 394.1 387.1 386.2 386.2 386.2 386.2 386.2 386.2 386.2 386.2 386.2 386.2 386.2 390.1 402.4 417.2 429.2 444.6 470.4 499.2 533.7 587.1 625.1 665.5 687.8 710.7 715.3 689.5 659.3 633.3 608.1 585.4 565.7
288.4 290.6 291.6 292.8 293.4 292.5 291.8 290.3 289.8 290.1 291.5 293.5 292.4 293.1 294.8 296.8 299 302.3 305.2 306.6 307.6 308.2 310.5 311.3 312.6 312.3 313.5 315.5 316.3 317.6 319.8 324.8 329.8 331.7 333.2 334.9 337.6 336.9 336.8 337.4 338.1 340.3 339.1 340 339.5 338.6 335.3 334.7 333.9 333.7 334.1 334.2 334.3 336.8 339 341.8 346.1 351.3 355.4 364.6 376 384.7 399.9 404.4 397.4 387.3 378.2 373.8 366.7 358.2 353 349.4 345.5 339.7 333.7 329.8 327.2 323.1 321.2 318.1 311.7 306.7 302.1 300.5 300.5 299 300.4 305.7 313.6 319.4 321.3 324.8 332.7 331.7 328.8 320.9 318.6 314.8 312.6 309.8 307.7 307.7 307.7 307.7 307.7 307.7 307.7 307.7 307.7 307.7 307.7 310.3 317 321.5 334.1 353.1 375 397.8 406.8 417 428.4 445.8 461.7 469 479.9 494.4 518 546.2 577.6 613.7 657.5 675.9 721.2 710 684.2 673.7 669.3 666.7 664.7 665.6 669.1 680.2 690.8 696.6 696.5 694.4 683.5 653 619.6 585.9 553.5 529 512.4 502 500.7 492.5 483.3 480 473.7 467.8 460 450 440.8 429.9 422.5 416.6 403.8 392.9 387.9 386.2 386.2 386.2 386.2 386.2 386.2 386.2 386.2 386.2 386.2 386.2 386.2 394.8 409.1 419.1 434.2 458.7 487.9 516.9 560.6 611.4 655.5 678.5 704.7 714.6 709.2 675 649.8 626.5 600.8 576.8
288.5 290.5 291.4 293.9 294.3 294.6 294 290.4 294.2 290.3 295.3 296.7 296.9 296.8 297.9 299.5 302.9 307.1 308.8 310 311.5 313.6 313.2 314.5 316.6 316.1 316.6 319.1 319.7 321.7 324.1 327.2 329.8 333 334.6 337.6 340 339.3 341.3 340.6 341.9 342.4 343.2 343 341.7 341.9 337.7 336.5 335.3 334.8 334.7 334.2 335.4 335.7 341.5 346.2 351.8 358.9 359.6 366.2 378.3 389.6 404.5 414.1 408.3 393.2 385.3 381.1 372.8 362.1 357.7 353 350.5 348.3 343.7 337 334.5 330 328 324.5 320 312.3 306.4 303.1 302.6 301.2 300.2 303.5 314.4 321.1 325.7 328.7 336.8 334.8 333.2 329 321.3 317.2 313 309.7 307.7 307.7 307.7 307.7 307.7 307.7 307.7 307.7 307.7 307.7 307.7 307.7 308.7 317.7 335.3 353.2 374.3 398.1 410.8 418.6 427.6 438.9 454.1 463.9 468.4 477.2 497.1 525.9 558.7 591.5 626.8 660.1 696.5 722 696.6 686 691.4 681.4 679.2 677 680.6 695.5 703.4 707.4 708.3 702.7 671.8 640.9 609.3 578.9 550.6 530.2 517.4 506.7 498.8 490.7 484.9 480.9 474.4 468.1 462.5 451.4 445.4 435.3 426.7 413.1 402.8 397.1 387.2 386.2 386.2 386.2 386.2 386.2 386.2 386.2 386.2 386.2 386.2 386.2 386.2 386.2 399.6 411.9 427.1 447.9 476.9 504.2 546.1 601.4 639 663.8 694.8 710.8 713.2 689.6 661.3 639.3 614.3 589.7
286.9 290.2 291.5 292.9 294.5 296.1 294.4 293.1 297 295.2 299.4 300.4 300.6 299 299.3 302 304.4 308.3 310.2 312.4 314.8 316 317.9 318.7 321 320.1 319.9 321.9 323.6 325.4 326.7 328.9 331.3 333.6 335.9 338 340.6 341.4 342.6 343.7 346.2 348.1 349.6 350.5 351.6 348.1 341.6 339.8 338 335.3 335.2 335 336.4 337.5 342.8 351.7 358 361.8 364.6 366.7 374.2 389.1 405.5 417.8 413.9 398.2 394.6 388 381.8 372.2 365 361 360 355 350.9 343 340.1 338.9 334.6 330 323.2 316.5 311.2 307.6 305.1 303 302.7 303.1 311.2 318.7 330.1 334.3 335.2 337.2 334.4 331.3 325.1 319.6 315.7 309.8 307.7 307.7 307.7 307.7 307.7 307.7 307.7 307.7 307.7 307.7 307.7 307.7 309.6 318 335.7 355 373 396.9 417.4 429 432 431.5 434.6 444.6 456.1 471 487.7 510.7 542.9 576.3 610.6 645.5 680.5 716.3 733.2 716.6 714.2 704.4 696.1 694.5 697.5 710.1 714.8 716.5 717.1 701.3 663 628 597.1 570.2 545.5 531 519.7 507.9 497 492.4 487.5 478.4 473.6 469.3 461.3 453.3 443.7 437 425.5 417 405.8 398.3 391.9 386.2 386.2 386.2 386.2 386.2 386.2 386.2 386.2 386.2 386.2 386.2 386.2 386.2 391.9 402 415 436.8 462.9 490.7 527.4 574.2 615.4 643.1 676.2 701 707.4 701.7 682 652.2 628.2 601
284.5 288 290.1 293 294.7 296.2 295.7 293.3 300.1 298.9 303.1 303.9 303.6 301.8 302.8 305.6 307.1 309.1 312.6 314.5 317.1 318.1 320 323.4 323.2 323.7 325.2 325.5 325.3 326.9 329.7 330.8 332.9 334.2 336.9 339 341.5 342.5 342.7 344.6 347.6 350.4 353.4 354.5 354.4 353.6 349 346.7 344.2 339.4 336.4 335.6 336.3 338.6 341.6 351.9 357.5 361 363.4 368.4 373.9 381.9 395.7 409.3 407.5 402 399.5 392.7 390.2 383 377.5 372.6 366.3 360.5 356.1 349.1 347.8 344.6 341.7 337.7 330.1 321.4 314.9 309.9 307.2 304.3 303.8 305.8 311.2 316.5 328 336.2 336.1 336.1 335.4 332.9 328.6 322 317.8 312.5 309.6 307.7 307.7 307.7 307.7 307.7 307.7 307.7 307.7 307.7 307.7 307.7 307.7 316.2 335.8 360.9 377.5 395.9 416.3 437.4 445.3 436.6 437.1 445.7 455.7 470.3 484.7 505.3 531.5 566.3 601.1 639 677.1 717.8 765.6 758 753.9 738.3 724.8 718 718.1 722.6 726.2 727.3 719.4 687.2 650.2 615.8 585 561.8 543.3 531.7 520.8 509.8 500.4 491.8 484.3 477.3 474.4 472.6 467 458.6 442.3 433.2 424.8 415.3 405.7 399.3 392.1 386.2 386.2 386.2 386.2 386.2 386.2 386.2 386.2 386.2 386.2 386.2 386.2 386.2 387.4 399.4 409.2 424.7 447.9 475.3 512.9 549 587.2 625.7 660.6 684.4 699 700.9 695.9 665.3 635.1 604.5
284.1 285.4 287.6 289.9 294.6 296.6 298.6 300.6 302.5 302.2 305.7 307 307 303.5 308 309 310.3 312.2 314.7 316.5 318.7 319.4 324 326 326.3 326.6 329.4 329.7 330.1 330.4 332.1 332.9 334 336.1 338.1 339.3 340.8 342.7 343.9 345 348.4 351.4 354.4 356.5 357.2 358.8 357.7 355.1 351.6 347.8 343.6 341.3 338.4 338.4 343 353.7 358.8 362.2 366.9 374.7 380.7 382.2 390.4 396.2 400.8 399.5 400.7 395.5 391.1 386.2 381 375.5 371.3 365.6 358.6 356.8 353.8 349.8 348.5 344.2 338.5 326.5 320.9 315.1 310.5 307.3 306.2 306.1 312.6 315.9 325.9 334.9 336.4 335.4 335.7 333.5 331.5 323.8 319.4 315.5 311.4 309.7 307.7 307.7 307.7 307.7 307.7 307.7 307.7 307.7 307.7 307.7 307.7 312.4 330.4 354.9 376.5 410.4 429.4 441.4 451 449.6 446.6 451.9 459.2 468.2 479.1 495.3 521.7 556.5 591.4 626.3 663 739.4 810.4 798.4 788.7 768.3 752.4 738.9 734.2 735.3 738 737.4 715.3 675.1 637.9 604.9 578.2 556 539.6 527.5 519.5 510.3 501.2 493.9 485 478.7 472.3 471.9 468 457.8 446 433.9 423 417.8 409.4 401.6 392.2 389.5 386.2 386.2 386.2 386.2 386.2 386.2 386.2 386.2 386.2 386.2 386.2 386.2 386.2 390.1 399.8 412.8 436.2 463.2 498.1 528.8 562.2 609.5 641.8 663.3 684.8 697.9 694.2 669.5 638.4 609.1
281.7 284.9 285.7 288.4 291.8 297.7 299.3 302.3 305.4 305.6 308 309.4 309.5 305.9 313.2 311.7 314.1 315.9 317 318.2 320.4 323.4 327.3 329.1 328.3 331.1 334.4 333.2 333.8 334.2 334.5 335.1 336.2 337.4 339.4 340.3 342 343.3 344.3 346.2 350.6 353.9 356.1 358.9 360.7 362.8 363.1 362.1 361 358.4 355.5 351.8 349.5 346 345.8 352 361.6 365.2 371.1 377.3 383.4 385.3 392.4 398.5 403.5 402.5 400.4 397.4 396.2 390.1 384.8 378.4 374.7 368.2 363.6 362.3 358.8 356.5 352.8 348.7 340.5 338.6 329.6 322.1 317 311.4 308.5 307.4 313 319 324 332 336.7 336.1 336.2 334.6 333.6 326 319.9 318.1 314.7 310.2 307.7 307.7 307.7 307.7 307.7 307.7 307.7 307.7 307.7 307.7 307.7 311.9 319.8 337.9 367.8 419.9 441.5 451.5 453.1 448.4 443.1 448.6 455.2 461.9 473.2 486.9 512.3 544 577.9 613.5 649.5 719 813.6 835.1 823.5 795.5 769.8 754.7 746.8 748.7 751.6 747.3 713.3 672.7 634 596 569.8 550.8 536.8 524.5 517.5 511.8 504.5 497.7 488.1 479.6 470.4 467.5 467.3 458 447.1 436.1 423.6 416.3 407.2 406.4 394.2 387.6 386.2 386.2 386.2 386.2 386.2 386.2 386.2 386.2 386.2 386.2 386.2 386.2 386.2 386.2 391.4 402.3 423.2 448.5 479 510.7 544.7 589.1 620.5 645.2 672.5 692 690.9 671.4 639.4 618.3
280.6 283.2 286.1 288.4 290.7 295.7 301.2 303.5 306.6 307.7 309.1 311 311.6 312.5 316.4 315.2 317.1 318.2 320.8 321.5 322.2 327.9 329.9 330.8 329.4 335.8 338.5 340.3 339.7 338.2 339.3 338.6 339.3 339.8 340.8 342.5 343.8 344.5 345.5 348.3 352.5 356.4 361.1 364.6 367.5 368.8 369.4 368.8 369.6 368 364.4 361.3 359.7 355.9 351.3 354.4 366.8 372.4 373.8 380.4 385.2 388.7 396.2 405.8 414 412.2 408.8 404.7 402.7 396.2 388.6 383.6 379.1 371.1 369 366.8 362.9 360.7 358.1 352.3 346.6 341.7 336.8 329.7 322.8 315.1 313.8 310.7 310.3 317 322.1 330.1 335.6 337.7 336.3 336 335.5 327.3 320.1 319 316.7 314.6 310.1 307.7 307.7 307.7 307.7 307.7 307.7 307.7 307.7 307.7 307.7 311.6 318 331 359.7 408.2 447.2 452.1 461.2 444.2 440.6 442.1 450.7 459.7 468.4 480.6 500.3 532.6 566 600.9 636.2 673 774.7 806.6 832.8 809.4 782.5 767.3 763.5 763.2 765.6 756.4 719.9 671.7 627.9 588.5 562 545.6 535.2 523.1 517.4 513.2 508.7 501.7 493.6 484.8 475.9 469.5 466.8 460.6 451.6 437.9 427.1 419.5 406.9 402 396.3 389.4 386.2 386.2 386.2 386.2 386.2 386.2 386.2 386.2 386.2 386.2 386.2 386.2 386.2 386.2 386.6 395.5 413.2 436.4 464 494.2 524.2 562.8 593.5 625.8 656.3 682.1 683.7 678.5 653.5 633
281.6 283.7 285.9 288.8 290.9 294 299.2 304.4 307.5 310 310.7 312.1 313 312.8 318.9 319 322 323.7 324.5 324.6 328.6 332.1 333 333.6 333.4 339 342 343.6 345.2 345.5 343.4 342.4 342.3 342.8 343.2 344.3 345.9 346.1 347 349.9 355.4 359.8 365.3 369.4 370.8 372.8 374.7 373.6 372.2 373.6 373.9 371 367.1 362.7 358.6 356.9 367.6 372.1 377.3 381.7 386.9 392 399.3 407 418.3 427.2 423.9 419.1 417.7 406.3 393.7 384.9 382.5 375.1 370 369.4 366 364.4 361 356.1 353.1 347.4 343.6 335.9 330 321.2 316.7 312.7 311.2 315.5 323.8 328.1 334.2 338.7 338.4 340.4 338.8 332.2 323 319.2 316.3 314.1 310.8 307.7 307.7 307.7 307.7 307.7 307.7 307.7 307.7 307.7 307.7 312.2 320.9 330.3 349.4 382.9 427.1 457.9 458.9 441.4 436 437.1 443.2 452.1 459.4 470.5 489.6 518.9 552.3 587.2 622.3 661.5 718.2 762 790.6 803.3 799.8 787.3 782.4 781.1 780 744 696.9 658 617.9 586.1 565.5 548.7 535.2 524.5 518.6 515.8 512.8 507.9 502.6 494.9 488 477.8 468.6 465.7 452.7 442.3 430.1 419.3 410.8 402.6 400.8 393.1 386.2 386.2 386.2 386.2 386.2 386.2 386.2 386.2 386.2 386.2 386.2 386.2 386.2 386.2 386.2 390.2 402.5 424.6 449.5 478.9 504.3 534.7 570.9 608.4 639.7 664.4 676 690.5 683.1 655.1
282.4 284.5 287.5 288.9 291.7 294.4 298 303.9 306.8 311.2 312.5 312.8 314.6 314.5 315.1 323.3 326.4 329.6 329.4 326.5 332.4 336.4 336.9 335.6 336.2 340.4 344.1 345.8 347.3 349.5 350 348.7 345.3 345.8 347.5 348 349 349.2 351.5 352.6 355.4 361.5 366.8 372 373.3 374.4 374.9 377 379.8 381.8 379.7 378.1 377.5 372.7 364.1 358.1 367.1 372.2 376.3 381.6 384.6 391.3 400 408.3 422.7 435.8 427.5 419 409.5 400.8 393.3 386.1 383.3 377 374.7 372.7 368.4 366.7 363.6 360 357.9 351.9 347 343 334.8 330.7 320.1 316.2 313.4 316 324 329.4 332 336.7 340.8 340.9 337 333.7 324.7 320.8 316.8 314.1 311.1 307.8 307.7 307.7 307.7 307.7 307.7 307.7 307.7 307.7 307.7 313.7 320.1 330.3 349.9 380 404.3 443.8 450.5 439.1 428.7 430.5 434.6 439.3 448.8 460.9 479.9 506.1 538.4 575.1 603.9 644.9 700.7 720.7 752 820.8 827.4 808.5 803.8 800.2 779 733.9 688.4 649.3 614.3 590.9 568 553.1 536.7 526.9 522 523.8 519.7 517.8 514.1 505.7 497.7 488.1 474.9 466.3 457.7 447.1 434.1 420.2 411.3 404.7 402.5 394.8 386.2 386.2 386.2 386.2 386.2 386.2 386.2 386.2 386.2 386.2 386.2 386.2 386.2 386.2 386.2 386.8 398.6 414.2 435.5 462.7 491 517.7 549.8 593 625.4 649.3 673.5 698.3 703.4 689.7
283.2 286.5 288.7 289.3 291.4 294.2 297.2 302.9 306.7 311.2 313.8 315.1 315.6 316.9 317.3 324.3 329.5 334.7 336 328.9 332 338.9 340.5 339.4 338.9 344.1 345.2 347 349.2 351.4 352.8 349.7 351.8 352.4 351.7 353 353.3 354.3 355.9 356.3 359 362.1 367.2 371 373.2 376.3 378 379.9 382.6 383.8 384.8 384.7 382.5 381.2 374.4 364.8 362.4 372.3 374.9 380.1 386.1 389.9 396.9 407.3 422.1 434.7 423.5 414.2 407.8 402.9 394.6 387.8 381.9 377.8 374.6 373.3 369.1 368 367.5 362.8 360.9 359.5 352.7 345.3 338.4 335.8 329.2 319.5 316.2 318.6 323.7 333.7 333.5 336.5 339.7 340.7 338.4 334.4 325.7 321.7 318.3 314.6 312.4 310.7 307.7 307.7 307.7 307.7 307.7 307.7 307.7 307.7 309.3 314.4 320.6 335.2 353.3 383.6 413.1 434.9 440.1 435.7 427.2 426.1 425.2 430.1 439.1 448.3 469.1 496.5 527.6 559.7 592 630.1 665 701.6 765.6 809.6 853.3 832.9 829.6 807.3 785.7 749.1 697.5 652.2 622.5 587.8 563.8 548.6 539.2 534.6 536 543.4 546.4 538.5 528.7 523.4 510.6 496.4 480.4 469.4 460.1 449.8 436.5 426 415.3 406.5 402.8 398.4 389 386.2 386.2 386.2 386.2 386.2 386.2 386.2 386.2 386.2 386.2 386.2 386.2 386.2 386.2 386.2 393.1 406 424.6 448.9 476.8 505.1 533.6 576.3 610.1 638.5 666.4 695.2 709.1 709.8
282.8 284.7 288.1 289.4 291 294 295.9 299.4 306.3 310.9 314.1 316.2 317.2 317.7 317.6 323.5 329.8 336.7 337.9 338.1 337.7 339.7 343.4 345.1 341.4 348.6 346.9 347.5 350.8 352.6 353.6 353 356.3 359 358.7 356.7 356.9 358.9 360.7 361.7 363.6 362.7 368.3 371.8 375.3 378.1 379.9 382.3 386.1 389.3 391.2 389.4 385.8 384.3 381.1 371.5 362.2 368.6 371.7 377.4 384.7 388.9 396.2 406.3 421.8 429.5 423 414 411.2 406 398.1 390.9 384.7 382.4 375.4 374.9 372.5 369.6 367.4 365.3 364.4 363.2 357.3 349.5 342.1 340 334 327.5 321.8 320.6 327.4 330.9 335.8 336.5 339.7 340.4 337.1 333.5 327.6 322.8 319.2 315.9 313.9 312.5 310.2 307.7 307.7 307.7 307.7 307.7 307.7 307.7 307.7 312.4 323.2 340.6 362.9 402.6 444.2 441.7 434.2 428.9 424 420.5 418.5 425.2 432.8 442.4 459.7 486.3 515.9 548.5 582.7 618.9 657.8 722.6 765.4 790.1 819.4 850.2 860.1 847.1 825.3 760.5 714.3 682.8 640.8 588.5 560.9 552.2 551.5 553 565.9 587.1 595.8 576.9 562.6 545.8 533.6 513.3 495 476.1 466.5 455.4 445.6 431.2 421.8 410.9 406.8 398.7 391.1 386.2 386.2 386.2 386.2 386.2 386.2 386.2 386.2 386.2 386.2 386.2 386.2 386.2 386.2 386.2 386.6 398.4 413.2 437.5 464.9 491.9 520.6 552 590.2 622.6 655.1 686 709 711
281.8 283.7 286.6 288.9 290.2 292 295.4 298.3 303.2 309.2 313.7 316.3 317.8 318.6 320.7 322.6 329.5 333.7 339.1 346.3 347.8 344.4 344.3 346.4 343.9 350.3 351.4 350.8 351.6 353.6 354.8 355.6 356.4 360.4 362.6 363.7 362.6 363.4 365.2 366.9 367.9 366.9 371.6 374.4 377.1 380.7 383.7 386.4 388.8 391.4 393.6 393.1 387.6 385.4 383.6 375.9 367.2 372.2 378 381.5 382 388.3 397.9 408.4 420.6 427.1 419.9 410.2 407 403.9 400.4 396.7 391.4 385.1 379.9 375.2 372.5 369.4 366.6 368.4 369.1 363.6 359.1 352.7 346.4 344.2 337.2 331.9 325.9 324 328.3 333.2 336.2 337.3 339.7 339.7 338.4 334.8 329.8 325.2 320.9 317.3 315.5 313.8 313.5 310.5 307.7 307.7 307.7 307.7 307.7 307.7 307.7 311.9 323.4 353 386.8 447 457.3 443 426.4 422.4 418.4 416.7 417 420.2 424.7 434 450.6 473.4 508 538.9 572.2 597.5 634.2 686.3 736.2 776 813 848.3 875.3 874.7 843 797.2 745.7 732 688.3 621.7 579.3 568.7 572.1 578.5 597 634.6 658 607.1 611.5 589.2 575.4 542.4 518.7 495.5 478.1 466.4 452.9 439.7 427.7 416.4 407.9 401.6 394.1 386.2 386.2 386.2 386.2 386.2 386.2 386.2 386.2 386.2 386.2 386.2 386.2 386.2 386.2 386.2 386.2 392.4 407.7 429.4 453.6 478.2 506.3 539 572.1 605.4 644.1 672.4 698.9 704.9
281.5 283.2 284.7 286.7 288.3 290.3 291.4 295.3 299.5 305.4 311.7 315.6 318.3 320 321.1 323.5 327.2 332.4 334.6 345.2 350.7 350.9 348.4 347.9 347.7 351.7 354.6 354.6 354.2 353.8 355.2 356.9 356 359 363.4 365.9 368.3 368.9 367.9 369.5 371.3 369.8 374 378.4 380.7 384 387.2 390.8 393.3 395.8 395.6 393.4 389.8 387.3 384.8 382.3 375.8 378.9 384.4 389.7 383.6 389.9 397.8 410.1 418.2 423 418.8 407.6 401.4 398.1 398.5 397.6 397.2 390.3 382.2 377.5 375.6 366.9 370 370 371 364.1 360.8 357.6 352.2 347.8 341.8 334.8 331.5 326.7 331.2 334.4 337.3 338.7 340.3 340.6 340.7 337.5 330.8 327.2 322.8 319.5 317.2 314.4 314.3 312.4 310.1 307.7 307.7 307.7 307.7 307.7 307.7 309 326.4 365.5 436.3 461.8 457.7 440.3 420.9 418 416.2 418 418 417.1 420.5 427.7 441 466.8 492.8 525.8 558.6 596.7 665.6 707.8 751.8 776.9 798.3 828.6 868 870.2 852.4 821.1 788.5 749.8 684.5 637.8 603.3 590 598.1 610.4 643.3 672.1 689.1 646.5 642.9 632.7 613 575.9 546.2 523.2 496.1 472 461.5 450 436.7 424.4 412 403 398.2 392.1 386.2 386.2 386.2 386.2 386.2 386.2 386.2 386.2 386.2 386.2 386.2 386.2 386.2 386.2 386.2 390.6 403.2 418.1 443.4 468 492.6 524.3 555.2 579.8 620.8 649.8 675.7 688.3
279.5 281.4 283.1 284.5 285 288.5 288.2 291.3 296.3 301.5 308.5 314.1 317.8 321.3 322.6 323.9 325.5 329.3 333.7 338.5 349.1 353.7 353.3 349.2 349.3 353.9 355.4 356 356 355.9 353.7 357.2 357.2 359 362.6 366 368.7 372.2 373.7 374.1 373.7 374.2 377.8 382.6 384.8 388.2 391.8 395 399.1 402.3 402.9 402.7 401.3 395.8 393.1 390 385.4 383.1 391.6 389.1 385.9 390.1 398.5 404.7 418.9 427.2 423.1 415.4 405.4 400.6 397.1 396.7 396.3 392.5 385.9 380.1 374.3 367.2 366 366.5 365.5 362.9 358.8 359.4 356.2 351.4 346.8 341.7 335.2 333.7 331.6 336.5 337.3 339.7 340 341.8 341.3 337.7 330.1 326.4 325.9 322.3 318.7 316.2 314.4 314.2 311.8 307.7 307.8 308.5 307.7 307.7 307.7 309.6 318 359.7 414.6 449.6 453 428.3 407.8 412.3 416 414.4 412.6 413.6 416.9 423.9 439.9 456.5 484.2 510.3 553.5 595.4 654.4 700.4 751.5 748.2 772.7 804.5 841.4 849.3 834.7 826.8 789.8 748 700.6 659.9 625.7 616.9 626.1 645.9 676.6 731.9 730.8 690.5 667.7 666.5 647 611.5 570.8 546.1 524 491.8 469.2 458.1 443.1 428.5 418 407.5 403.1 396 386.2 386.2 386.2 386.2 386.2 386.2 386.2 386.2 386.2 386.2 386.2 386.2 386.2 386.2 386.2 386.2 397.1 411.4 433.3 456 481 507.9 535.5 557.6 590.1 624.6 648.2 671.3
277.5 279.2 280.3 281.5 281.9 283.6 284.9 285.3 288.9 295.3 302.4 311.9 316.8 321.3 323.4 324.5 325.2 327.3 330.7 335.6 343.3 352.1 353.8 352.4 352.9 352.8 353.8 355.8 355.9 357.3 357 356.8 358.4 359.7 361.9 365.4 368.8 372.5 375.5 378.4 380.6 378.1 380.1 384.3 387.8 391.8 395.3 398.7 402.7 406.9 408.7 409.7 410.8 410.1 403.9 397.9 397.1 392.6 391.7 396.2 394.1 392.8 401.9 405.6 417.7 427.9 429 421.6 413.4 411.8 408.9 399.4 390.2 388.3 389.4 381 369.3 366.3 366.6 363 361.6 358.3 358.2 357.3 357.6 352.7 350 344.8 340.6 338.6 334.9 336.4 337 338.3 340.6 341.9 342.1 337.7 331.4 327.7 326.5 324.4 320.6 317.5 315.7 315 313.5 309.1 310.5 310.4 309 307.7 307.7 313.8 324 338.3 381.2 440.2 444.9 428.2 402.3 400.7 406 409.2 409.5 408.8 411.5 418.7 430 451.8 469.6 496 546.5 584.2 625.5 669.6 714 719.8 749.3 787 819 827.7 811.7 800.5 791.2 774.9 739.5 685.9 654.4 651.7 685.5 697 710.5 737.2 760.3 732.5 706.2 711.3 670.7 632 605 571.9 546.7 517.2 483.9 466.2 453.9 439.2 422.9 413.3 405.6 398.9 390.4 386.2 386.2 386.2 386.2 386.2 386.2 386.2 386.2 386.2 386.2 386.2 386.2 386.2 386.2 386.2 393.4 405 422.6 444.3 466.9 492 519 540 566.3 599 628.3 655.2
275.3 276.4 277.4 278.6 279 279.9 280.3 280.9 282.9 288 296.8 304.2 314.9 321 323.7 325 325.9 326.7 328.5 334.5 339.5 345.5 350.5 355.2 356.7 355 354.7 356.5 356.4 357.8 357.8 358.3 358.4 359.1 361.6 363.7 366.8 370.9 375.4 379.8 382.6 383.4 383.1 386 389.2 393.6 397.3 401.7 406 411 414.6 417 418.9 419.2 417.4 407.6 401.2 398.9 388.6 396.2 399 397 404.9 409.6 421.7 432.1 430.9 430.5 436 432 418.9 405.1 396.2 390.8 387.9 381.7 373.9 365.8 365.6 361.9 357.5 356.2 356.3 356.7 358.4 354.4 351.2 347.1 344 343.5 339.8 337.9 337.5 337.3 339 339.6 338.2 336.9 335 329.3 325.9 325.4 322.2 318.6 316.7 315.2 313.1 311.6 313.1 313.9 310.4 311 313.6 324 337.4 349.9 361.9 411.9 440.3 423.3 400.6 397.4 389.6 388.2 400.5 399.5 405.3 409.9 420.3 443.7 463.9 483.8 519.5 553.4 594.9 650.3 669 688.7 735.7 762.3 795 799.7 786 773.5 762.8 748.7 731.9 710.8 704.3 694.7 734.1 739.3 767.7 772.2 779.1 764.1 745.4 722.1 697.8 680.9 655.6 614.7 569.9 535.2 504.7 478.2 462.1 446.6 429.6 418.4 410.6 402 396.8 387.8 386.2 386.2 386.2 386.2 386.2 386.2 386.2 386.2 386.2 386.2 386.2 386.2 386.2 386.2 394.5 404.5 415.6 432.2 454.3 475.8 502.5 527.9 553 579.6 606 636.6
273.8 274.4 276 275.7 276.5 274.8 276 278.7 281.1 283.5 289.3 297.2 308 318.2 323.2 326.8 327.4 327.5 328.4 332.6 336.8 343 347.5 355.1 357.2 357.3 355.9 356.9 359 360.1 360.4 360.4 360.5 361 360.2 363.3 365.7 367.3 371.4 376.8 381.4 385.3 386.3 392 391.4 394.4 399 403.7 408.1 412.7 418.1 424.6 426.3 427.4 424.8 419.3 410.7 401.5 391.2 391.7 399.1 400.5 406.5 412.5 425.9 431.6 440 454 454.5 436.5 426.5 417.2 406.5 396.6 387.5 380.8 380.2 376.4 369.1 365.4 358.4 357.3 356.9 358.2 360.5 354.9 352.3 347.3 342.8 347.2 342.8 338.6 337.4 337.6 335.9 336.8 335.5 334.5 336.2 335.3 327.5 324.8 322.9 320.2 317.2 316 312.6 312.6 314 313.8 316.1 313.9 319.8 342.5 351.8 355.4 361.4 376.4 424.9 423.1 396.4 392.4 384.2 373.2 383.1 386.8 392.5 407.5 418.8 431.9 454.2 478.3 503.8 526.6 554.3 613.6 623.8 689.3 705.3 731.3 762.5 771 758.8 745.2 733.2 720.7 709.3 701.6 703.1 718.5 741 767.6 794.8 805.2 799.4 776.4 765.7 752.2 728.1 693.8 658.5 621.2 582.2 544.7 511.8 488.5 472.3 456.7 439.7 427.5 414.7 404.6 395.5 388.7 386.2 386.2 386.2 386.2 386.2 386.2 386.2 386.2 386.2 386.2 386.2 386.2 386.2 386.2 392.2 401 410 423.1 443.8 465.7 489.3 515.1 541.8 565.3 589.5 619.2
272.8 273.1 274.4 273.4 274.2 274.7 275.6 278.2 280.9 281 283.7 292.7 301.4 312.4 321.9 327.4 330.4 330.3 330.7 332.7 336.6 340 344.7 350.8 356.1 357.4 357.7 358.2 359.2 360.8 362.1 362.3 363 363.2 363.4 362.6 365.1 366.6 369.2 372 375.7 383.1 386 392.6 396.7 398.7 399.5 403.8 409.4 414.7 419.9 425.4 428.3 429.7 432 431.2 424.7 409.8 399.3 394.7 396.6 408 408.4 417.8 430.4 436.2 449.4 459.5 459.3 451.7 432.5 428.2 422 405.5 397.8 385.5 382.3 376 375 367.7 362.3 360.4 359.4 360.4 361.2 357.8 352.7 348.2 348 344.5 342.4 338.7 337.2 337.4 336.8 334.7 333.8 333 333.5 334.5 332.6 327.6 323 321.2 319.7 317.5 313.3 311.1 313.1 314.3 315.1 318.1 331.3 358.2 370 361.7 368.3 376 401.4 418.2 389.3 386.4 380 370.7 374.7 382 391.2 402 417.6 426.7 437.4 457.3 481.5 505.8 526.2 559.3 586.5 636.4 673.9 702.9 727.3 741.3 732.4 718.3 704.9 693 687.4 688 698.3 719.2 744.6 771.8 793.5 799.9 785.4 765 749.5 733 710.3 681.4 653.6 620.6 585.2 552.8 519.7 499.9 482.3 468 449 435.5 419.8 409.8 401.5 393.8 387.8 386.2 386.2 386.2 386.2 386.2 386.2 386.2 386.2 386.2 386.2 386.2 386.2 386.2 386.2 393.2 408.6 419.4 434.5 454.8 477.5 502.8 527.3 550.7 576 610.2
272.1 272.3 272.5 273.1 273.9 274.6 276.4 278.6 280.1 281.1 281.7 293.3 302.2 306.3 318.6 326.9 332.3 334 334.4 335.2 337.1 339.7 343.3 347.1 352.4 356.5 357.9 358.4 359.5 362 362.8 363.7 363.9 364.9 365.3 367.4 368.4 366.5 368.9 372.2 374.9 379.3 384.8 389.7 396.6 402.4 404.1 405.1 408.7 415.3 420.4 426.7 431.9 434.8 435.5 435.3 434.3 426 409.5 401.8 400.1 407.2 413.6 420.9 430.1 442.6 453.1 459.8 462.8 455.9 445 447.1 429 419.4 402.7 392.9 381.3 376.1 384.6 385 372 361.4 359.7 361.4 352.6 356.9 354.3 349.3 350.7 345.3 339.6 338 338.5 339.3 335.3 332.9 332.2 330.3 331 332.6 332.7 331.2 327 321.3 318.7 317 314.7 307.7 309.9 311.6 314.4 317.1 329.7 364.5 372.7 369.7 371.7 380.6 409.5 413.5 381.2 376.4 369.7 370.3 374.6 381.8 390.1 397.1 407.3 420.7 429.2 437 455.7 489.3 504.7 524.1 556.9 586.7 633.3 677.8 700.4 717.9 705.6 691.6 679.5 668.3 664.4 671.3 691.1 718.7 745.6 772 794.6 795.8 772.3 751.4 730.3 711.9 689.8 666.2 641.6 616.4 588.5 558.7 531.8 509.3 492.4 478 459.5 442.6 427.9 416.3 405.9 396 390.2 386.2 386.2 386.2 386.2 386.2 386.2 386.2 386.2 386.2 386.2 386.2 386.2 386.2 386.2 387.2 402.6 413.8 426.6 444.6 465.5 487 512.4 538.8 564.1 593.4
271.7 271 272.8 273.4 274.5 274.6 277 279.4 282.1 284.2 286.5 293.5 303.4 307.8 318.2 324.9 330.2 336.5 337.5 338 338.7 340.7 342.3 345.8 350 354.7 358.1 358.3 360 362.6 364.2 365.4 366.2 366.7 368.1 370.5 372.1 372.2 369.9 372.6 375.3 378 381.6 387.5 392.2 398.7 406.2 409.4 411.5 414.4 420.4 426.6 432.7 437.3 441.7 440.7 439 433.3 422.6 413.7 407.6 404.9 417.6 425.3 435.2 449.5 457.3 460.7 461.7 464.5 460 455 441.1 427 411.5 398.9 384.4 376.2 385.9 387 387.2 374.7 363.3 363.1 352.6 352.6 352.6 356.8 345.4 342.7 338.5 336.7 336.9 336.4 333.5 331.1 330.6 327.7 327.7 329.7 330.3 330.3 330.3 324.6 319 316.8 314.2 307.7 307.7 307.7 313.3 317.1 323.2 346.2 358.4 365.9 368.2 375 392.5 407.2 372.2 364.9 365.6 370.7 377.1 384.7 395.6 400.3 402.5 412.5 422.9 429.2 442.6 460.9 479.5 503.1 527.8 565.7 600.5 629.1 684.2 683.9 680.5 667.1 654.1 645.5 642.5 658 684 713.2 742.1 770.9 797.5 785.9 760.3 734.7 710.7 691.3 671.3 650.9 629.2 608.5 583.8 558.6 536.2 518.1 501.8 485.2 468.8 450.5 433.6 420.8 410.9 402.1 392.9 386.2 386.2 386.2 386.2 386.2 386.2 386.2 386.2 386.2 386.2 386.2 386.2 386.2 386.2 388.1 395.9 406.5 419.8 436.9 456.5 474.4 498 525.2 553.5 580.5
269.1 270.2 271.5 273.1 275.4 277 278.5 281.8 283.8 287.1 289.5 295.3 305 313.7 319.8 326.8 332.7 337.7 341 342.4 343.3 345.3 345.6 346.4 349.5 352.9 357.5 360.4 361.3 365 365.5 367.2 368.6 371 371.9 373.5 375.5 375.1 373.6 372.4 375.7 377.4 381.3 385.5 390.2 397 403.8 410.7 414.8 415.8 419.6 425 431.4 437.9 442.5 444.5 443.7 441.4 432.7 424.8 420.4 416.2 415 427.2 439.1 448.6 457 459.1 460.3 466.7 468.1 460.9 449.2 427.5 415.3 402.4 387.1 377.2 383.6 388.3 393.2 391.9 378.4 363 352.6 352.6 352.6 355.9 344.9 341.3 337.4 335 333.4 331.4 331.6 328.9 329.1 327 323.6 324.5 326.3 325.5 326 329.3 322.7 316.5 312.5 307.7 307.7 307.7 314.3 319.7 321.1 333.2 344.4 352.9 355.6 361.7 381.3 387.5 357.5 353.9 361.6 372 382 384.2 389.8 394.1 394.2 402 415.5 428.5 436.9 448.5 461.5 477.6 501.1 531.3 562.6 589.9 626.9 633.1 653.7 640.9 627.3 622 626.9 643.1 673.4 704.9 738.7 773.2 791.4 773.6 747.9 720.5 695.4 672.4 653.7 635.6 618.5 600.3 580.9 560.2 543.4 525.2 510.7 492.6 474.5 457.4 443 427.5 416.6 407.2 398.3 386.2 386.2 386.2 386.2 386.2 386.2 386.2 386.2 386.2 386.2 386.2 386.2 386.2 386.2 386.2 391.2 401.3 415.2 430.6 446.5 466.4 486.3 512.1 537.9 562.6
263.3 265.6 268.8 272.4 274.9 277.4 279.9 283.1 289.2 288.8 291.3 293.7 304.3 318.4 321.4 332.7 339.5 343.6 347 348.8 349.6 350.7 352.1 350.9 354.2 358 360.9 364 366.1 368.3 368.5 369.5 371.4 373.1 374.8 376.8 378.4 376.7 375 374.8 375 377.4 380.8 384.6 388.8 393.7 400.2 407.4 415 419.4 421.9 424.4 430 436.6 442.1 446.1 447.8 447.7 446.9 441.2 434.8 431 425.3 429.1 440.7 449.8 451.5 456.5 454.4 457.2 460.2 457.7 447.7 426.8 410.6 394.2 383.2 381.8 385.9 390.5 392.2 386.4 385.5 370.6 357.9 355.9 357.4 366.9 353.6 344.5 337.6 335.7 334.5 331.6 330.1 326.7 323.6 317.8 317.1 316.9 318.4 321.8 324 326.3 323 320.2 314.7 307.7 307.7 307.7 315.9 316.7 318.4 326.3 334.6 339.2 343 347.6 375.1 371.2 347.3 347.3 356.8 367.7 376.5 382.3 390.9 391.4 390.3 392.3 400.8 424 429.7 434.6 444.6 456 476.2 507.9 537.5 560.3 577 601.3 615.6 607.4 597.5 600.8 613.9 631 660.5 697.6 734.1 774 781.5 762.6 732.4 706.2 680.3 659.6 640.5 624.1 609.1 591 576.9 560.2 545 531 518.4 499.4 482.8 465.5 452.4 437.2 424 411.6 399.9 390.9 386.2 386.2 386.2 386.2 386.2 386.2 386.2 386.2 386.2 386.2 386.2 386.2 386.2 386.2 386.2 400.8 412.4 425.3 440.2 458.8 479.9 497.6 523.3 544
259.1 263.5 267.8 271.3 275.1 276.4 278.2 283.2 288.8 293.5 294.4 295.6 305.4 317.8 326 335.4 343 351.7 355 353.7 352.6 356.1 360.3 361.6 362.2 368 373.1 374.8 376.2 373.9 376.1 378 377.2 376.8 378.2 379.8 382 380.3 378.3 377.2 377.1 380.1 381.2 383.8 388.9 393.7 398.3 403.6 410.7 418.4 424.4 426.9 430.2 434.2 439.3 444.8 450.1 452.9 454.8 456 453.9 444.5 438.1 429.3 432 436.1 439.3 441.7 441.5 443.7 446.4 451.7 447.5 435.3 419.1 401.9 388.7 384.7 388.6 393.8 392.6 386.2 382.8 377.6 362.9 359 361 361.1 356.3 345.7 337.1 332.4 333.4 330.2 327.4 322.2 317.7 316.7 316.2 315.6 316.1 317.5 317.9 322 324 323.9 316.1 314 307.7 307.7 307.7 307.7 307.9 316.2 324.9 331.4 332.8 345.8 371.6 353.6 341.3 344.4 352.5 356.7 370.9 383.6 385.3 386.2 386.7 387.7 390.7 397.1 408.4 414.5 426 437.5 454.3 481.6 504.3 525.6 539.7 561.6 578.4 567.2 565.2 582.3 599.4 618 644.9 673.8 713.6 751.5 774.4 758.4 726.5 696.6 668.7 647.4 629.4 614.1 599.9 585.8 575.4 563.7 549.7 538.4 526.9 512 490.4 474.3 459 444.9 430.4 417.8 405.6 395.3 386.2 386.2 386.2 386.2 386.2 386.2 386.2 386.2 386.2 386.2 386.2 386.2 386.2 386.2 386.2 400.4 409.1 422.4 434.8 454.2 471.3 488.3 510.9 535.3
255.9 259.9 264 269 274.1 275.2 275.3 280.6 290.4 293.1 297.7 298.5 305.2 316 324 335.2 346.9 357 358.7 359.2 358.5 359.4 365.8 371.6 376.3 377.6 387.7 393.6 393.9 394.4 388.2 386.4 387 384.4 382.6 386 386.3 384.2 382.3 381.8 380.3 381.4 385.6 387.2 388.6 393.5 397.8 402.7 407.6 414.1 422.1 428.7 431.4 433.1 436.8 443 448.4 453.8 457.2 460.5 458.5 454.9 448.4 437.6 431.8 431.3 437.9 440.2 440.9 441.1 443.1 444.7 445 443.6 435.7 415.6 401.5 391.8 393.3 395.7 396.4 391.3 383.5 377.3 368.1 359.4 358.2 358.1 356.2 349.6 342.8 337.3 320.5 321 321.5 317.2 315.9 316.2 315 315.1 315.3 315.7 317.5 317 321 322.7 320.3 318.6 316.7 316.1 307.7 307.7 307.7 307.7 317.4 324.4 325.3 340.6 359.9 338.2 337.8 341.4 346.7 352.5 357 370.8 373.4 375.6 378.6 380.9 381.6 386.1 394.6 402 409.2 422.1 436.9 455.4 472.9 488.2 502.2 528.9 540.6 525.7 538.5 550.5 572.6 594.6 631.3 673.3 712.9 746.7 762.3 756.4 724 694.7 666.8 642.1 619.7 606 591.4 582.7 573.1 564.8 554.7 548.7 536.1 522.6 499.4 483.7 468.3 452.6 438 424.1 412.5 400.9 390.4 386.2 386.2 386.2 386.2 386.2 386.2 386.2 386.2 386.2 386.2 386.2 386.2 386.2 386.2 395.2 406.9 419.2 431.4 449.7 464.6 484.8 506.8 528
254.1 256.7 260.4 266.9 270.7 272.7 273.3 278.3 289.3 295.4 296.2 298.6 303.5 314.7 323.6 335.1 347.2 357.5 362.9 363.1 364.2 362 370.4 379.4 386.9 392.3 397 408.4 418.9 424.1 419.9 406.2 403.2 397.7 396.3 394.1 395 394.3 387 385.6 385.3 384.9 387.7 391.2 393.3 391.5 398.3 402.9 406.4 410.9 418.8 425.7 431.8 435.3 438.2 440.7 446 451.2 455.9 459.7 460.8 459.6 453.8 447.4 441.4 438.4 440.7 441.6 444.2 444.2 441.6 442 445.2 447.2 438.2 420.3 410.5 402.5 398.5 398.8 396.4 394.6 389 378.7 372.9 360.9 356.1 356.1 360.1 360.5 351.1 343.1 321.6 318.3 317.8 317.6 317.3 316.1 315.7 314.6 314.8 314.3 315.3 314.9 315.8 318 321.4 319.4 319.9 319.1 314.1 307.7 307.7 307.7 314.9 313.5 318.5 337.3 342.9 336.5 335.1 337.1 342.4 345 350.7 360.1 364.2 366.9 368.9 369.6 374.1 378.6 385.3 388.9 399 406.9 418.9 430 444.7 458.3 468.5 485.4 499.5 493.3 495.5 518.6 539.4 578.9 614.4 656.8 701.6 722.5 731.7 746.7 721.1 691.5 662.5 640 614.9 597.2 588 579.2 573.8 568.1 565.7 557.5 544.5 532.8 513.8 493.4 474.7 460.1 445.1 432.4 421.5 407.2 396 387.2 386.2 386.2 386.2 386.2 386.2 386.2 386.2 386.2 386.2 386.2 386.2 386.2 386.2 391.6 402.5 413.5 424.7 442 459.7 474.3 496.9 520.4
253 255 258.5 262.2 267 269.3 272.1 273.5 283.3 292.4 296.9 297.7 304.9 313.3 323.1 333.8 345.5 356.4 362.7 365.6 367.4 367.9 374.1 382.2 393.9 402.1 408.3 418.4 430.9 438.4 451.2 446.7 430.1 430.6 413.9 412.7 405 400.3 397.2 392.8 390.3 389.6 390.3 394.2 398.7 397.6 397.6 403.7 407.8 411.3 416.3 422.1 428.9 434.9 439.2 441.4 444 448.7 453.7 458.5 460.8 462.5 461.6 456.3 453 449.9 444.5 444.6 447 447.4 446.9 445.3 439.9 439.2 431.9 422.3 418.3 405.3 403 403.3 398 392.5 389.1 383.1 377.1 370.7 360.3 356.1 358.3 365.5 366 349.5 328.9 321.7 320.2 318.8 317.8 316.7 316.1 314.8 312.7 314.3 314.3 315.1 311.6 312.4 315.6 317.5 317.4 317.5 313 307.7 307.7 307.7 307.7 307.7 316 333 333.1 331.5 331.7 333.2 335.4 337.7 343 353.1 358.3 362.5 362.6 363.8 364.7 369.7 375.9 383.1 386.4 384.7 393.4 406.8 420.8 427.6 436.6 449.7 457.1 459.1 473.1 487.7 520 555.2 605.1 651.3 686.6 682.9 696.9 728.4 719 687.5 657.2 632.2 608.4 593.2 584.8 578.7 576.8 575.5 575.9 566.4 555.9 542 526.6 504.9 483.6 468.6 452.8 440.7 427.3 415.6 403.3 395.6 387.1 386.2 386.2 386.2 386.2 386.2 386.2 386.2 386.2 386.2 386.2 386.2 386.2 390.5 399.7 408.6 422 437.3 451.2 470.3 491.7 514.1
252.3 253 256.7 259.6 263.5 267.2 270.3 270 275.3 283.3 290.8 297.5 299.1 311.7 320.7 329.9 340.9 353 359.1 364.8 367.7 369.1 375.3 381.8 395.9 405.3 421.2 422.6 429.9 443.2 463.7 469.6 465 448.4 444.1 425.6 420.2 410.2 403.3 399.5 397.3 393.3 394 397.2 399.5 400.9 401.1 403.9 409.8 413.2 415.5 420.6 425.8 431.3 437.5 442.1 445 448.6 452.3 457.1 461.2 463.7 465.4 464.3 463.3 461.7 454.7 449.6 449.4 449.9 449 448.3 445 438.6 429.1 427.2 423 409.7 415.2 418.2 419.4 402.9 391 384.5 382.2 379.2 368.6 358.1 356.6 363.5 366.9 350.1 337.1 325.8 321.4 320.8 317.8 317.5 316.1 314.9 314 313.6 315.4 314.7 312.4 307.7 307.7 307.9 313.9 315.3 307.7 307.7 307.7 307.7 307.7 307.7 308.7 314.9 321 326.3 328 330.6 332.1 331.8 336.7 345.5 349.7 355 354.9 352.9 355.8 361.1 369.4 376.4 373.4 370.8 373.4 383.7 399.5 401.2 409.8 422.7 435.2 437.1 452.8 467 501 527.8 586.3 614.2 647.5 639 689.2 698.6 705.5 685.7 652.9 624.8 605.8 593.9 586.7 583.3 585.6 587.3 586.9 577.5 566.5 552.3 539.2 521.2 495.7 476.9 463.8 450.4 437.9 424.6 410.6 401.7 395.2 388.1 386.2 386.2 386.2 386.2 386.2 386.2 386.2 386.2 386.2 386.2 386.2 386.3 395.9 404 414.1 430.4 447.7 463.6 483.6 505.9
251 254.1 257.4 259.6 263 267.4 268.9 266.7 272.2 282.4 286.5 293 299.9 309.1 318.4 326.3 335.2 346.6 352.1 357.5 364.7 368.7 373.9 380.7 390.7 410.8 424.1 430.3 431.5 439.7 458.4 471.2 475.9 468.9 459.7 445 432.4 426.2 412.5 407.1 403.6 398.9 394.8 397.2 398.9 401.8 401.5 405.8 408.1 411.6 416.8 421.4 425.5 429.6 434.4 441.5 445.1 448.7 452.9 457.7 461.2 464.6 467.2 469.6 472.8 473.2 470.7 465.1 455.7 453.7 453.9 454.4 446.9 442.3 436.1 429.7 427.7 431 430.3 430.3 427 417 402.4 394.2 387 384 379.5 366 361.9 367.9 365.9 349.4 341.4 332.5 328.7 325.1 323.5 322.9 321.8 317.3 313.5 312.9 313.4 312.8 312.2 307.7 307.7 307.7 307.7 307.7 307.7 307.7 307.7 307.7 307.7 307.7 307.7 307.7 307.7 313.4 319.7 327 326.5 326.2 328.5 334.3 338.8 345.2 345.7 346.3 346.7 348.3 356.6 362.1 362.4 364.4 366.7 370.2 377.2 384.9 400.5 407.3 426.6 415.8 432.9 448.1 473.8 514.1 547.6 579.9 587.9 611.4 657.7 655.9 678.9 679.9 654.4 624.1 604.3 599.2 592.8 593 594.8 600.5 600.1 592.8 582.6 569.6 552.4 532.2 512.4 487.8 476.4 461.2 447.1 433.9 419.7 409 401.4 394.1 386.2 386.2 386.2 386.2 386.2 386.2 386.2 386.2 386.2 386.2 386.2 386.2 390 399.7 411.5 424.4 441 459.5 479.1 498.9
251.8 253.9 255.2 257.7 261.2 263.9 264.1 263.2 269 283.1 285.1 287.9 293.9 305.3 316.9 321.1 330.8 339.7 345.8 349 357.8 363.4 369.4 377 385.2 402.3 421.5 427 432.7 441.6 450.9 466.4 475.5 475.7 465.5 458.9 444.1 435.9 426.8 412.6 407.8 403.7 398.8 395.9 398.4 399.2 401.7 405.7 409.1 411.7 416.8 421 427 431.7 434.2 439 444.4 448.2 453.4 457.9 463.5 467.1 471.3 473.5 476.2 478.9 480 478.8 472.4 463.1 458.7 461.1 458.4 451.1 443.6 439.8 438.1 438.4 439.6 443.4 438.1 430 422.6 410 397 388.3 386.4 380.4 373.8 368.5 362.8 352.5 351.4 342.9 335.6 333.8 328.3 327 323.9 320.5 318 312.5 316.6 320.8 316.6 312.3 307.7 307.7 307.7 307.7 307.7 307.7 307.7 307.7 307.7 307.7 307.7 307.7 307.7 307.7 313.5 319.3 320.4 319.7 324.2 329 336 342.6 341.6 341 340.8 341.9 349.2 353.7 352.9 354.5 355 357.6 365 389.7 395.1 396.6 398.4 400.2 405.4 424 449.9 485.6 509.9 529.6 555.2 578.4 597.5 614.7 646.6 662.4 653.7 632.7 619.6 612.4 611.4 612.2 616.1 623.2 624.6 619.5 606.1 584.5 570.6 548 527.2 503 485.7 473.6 458.1 443.5 431.4 418.1 408.7 399.7 391.8 386.2 386.2 386.2 386.2 386.2 386.2 386.2 386.2 386.2 386.2 386.2 390.2 396.2 405.6 420.2 432.8 453.7 474.5 493.9
251 252.1 253.5 255.1 257.4 259.4 259.8 261.3 266.8 272.9 278.5 283.7 291.2 298.8 315.7 320.2 327.9 335.4 342.1 342.8 350.3 357.4 363.4 370.2 378.2 390.6 412.8 423.9 435.1 440.5 444.5 457.8 468.7 474.4 465.7 458 448.5 440.5 431.6 419.7 412.5 407.1 403.2 398.9 398.3 400 400.5 404.1 412.6 412.5 417 421 427.2 433.1 435.9 440.9 446.1 449.9 453.8 457.9 464.4 469.6 474.5 478.5 482 483.4 485.7 489 488.4 482.4 474.3 473.3 467.5 461.9 461.8 456.4 451.6 453 457.6 457.6 453.7 453.4 444 433 420.6 399.5 391.8 389 380.6 370.5 361.9 357.2 360.7 350.5 341.9 332.2 332.6 331.3 329.5 321.9 318.9 317.4 330 328.6 328.2 318.6 316.2 313.5 307.7 307.7 307.7 307.7 307.7 307.7 307.7 307.7 307.7 307.7 307.7 307.7 307.7 311.2 312.8 316.7 319.6 324.5 330.8 332.7 332.4 335.1 334.9 332.5 332.1 338.1 343.6 346.2 347.5 356.1 369 385.3 390.1 389.2 388.2 390.5 395.2 408.7 425.1 449.1 473 493.4 507.7 534.3 555.1 573.1 589.5 625.3 650.5 627.1 623.5 625.7 626 631.2 641.8 649.9 650.2 646.2 635.5 613.3 588 571.3 543.7 521.8 498.4 483.9 469.2 456.4 444 429 416.2 410.5 401.2 388.5 386.2 386.2 386.2 386.2 386.2 386.2 386.2 386.2 386.2 386.2 388 396.6 402.6 413.7 428.8 448.5 468.9 486.1
249.9 251.8 252.1 253.9 254.9 255.6 257 258.8 263.3 269.1 274.3 278.6 286.6 296.4 308.2 318.8 323.1 331.3 337.9 341.9 344.6 350.2 355.3 362.4 370.4 378.9 395.8 419.7 433.4 437.3 443.2 450.9 460.8 465.4 459.3 452.6 447.7 440.8 430.9 424.7 417.1 411.6 409.8 405.8 402.6 402 401.5 402.4 410.8 416.4 419.2 425 432 437 440.4 445.5 449.3 454.3 456.4 459.7 464.9 470.9 477.1 482.1 487.3 491.8 494 495 498.9 503.6 502.8 492.6 490.8 490.1 482.7 477.8 480.8 491.7 493.3 499.8 501.7 487 457.7 442.4 431.3 416.5 398.3 391.9 383.4 373.3 368.4 362.6 367.6 356.4 345.2 338.6 335.1 334 331.9 331.2 327.1 328.9 336.9 343.4 337.3 325.4 319.9 321 314.5 307.7 307.7 307.7 307.7 307.7 307.7 307.7 307.7 307.7 307.7 307.7 307.7 307.7 307.7 307.7 315.6 321.5 324.4 327.7 327.7 328.1 328.2 324.5 320 325.5 327.9 335.9 342.2 351.1 356.3 360.5 369.7 375.6 373.6 376.4 377.9 395.4 411.6 423.7 435 443 460.7 491.1 515.4 539.5 551 585.7 613.9 608.7 599.9 625 634.6 642.3 657.6 684.4 682 677.2 664.2 640 618.7 594.9 568.3 538.6 514.2 494.3 477.1 467.2 449 435.7 425.6 415.1 405 396.4 386.5 386.2 386.2 386.2 386.2 386.2 386.2 386.2 386.2 386.2 386.2 391.8 400.9 410.9 424.2 440.7 460.5 478.9
247.8 251.2 252.5 253.1 254.3 254.1 255.7 260 264.8 264.3 270.8 275.2 284.5 293.4 300.8 313.8 320.8 329.3 333.5 340.2 342.6 342.1 344.6 352.2 360.2 371 380.4 407.2 421.4 428.5 437.5 442.6 453.3 458.5 453.4 446.8 444.4 439.2 429.4 424.3 417.1 419.4 415.6 412.9 410.5 411.9 408.7 407.3 411 421 424.3 430.9 436.8 444.7 446.2 448.8 454.6 459.5 460.1 464.1 468.5 474.6 481.1 486.6 491.2 495.4 501.2 503.9 505.3 511.1 515 516.3 518.5 522.7 513.2 506.4 517 522.4 529.8 545.2 541.5 518.1 484.6 452.3 435.3 425.5 408 400 398.3 382.1 376.3 367.6 367.9 361.9 355.2 348.3 345.6 343.6 345.3 342 337.2 336.1 348.5 354.9 354.9 339.1 331.9 324.2 322.6 307.7 307.7 307.7 307.7 307.7 307.7 307.7 307.7 307.7 307.7 307.7 307.7 307.7 307.7 307.7 307.7 313.6 314.3 318.2 317.9 319.2 318.6 317.2 318.1 319.7 323.5 326.2 329.9 354 354.2 352.6 353 355 350.7 361.8 364.4 376.5 396.7 404.3 409.5 418.5 430.4 450.7 476.1 491.4 511.7 537.7 563.9 562.9 572 602.2 619.8 632 649.1 691 698.7 691.8 686.1 666.2 641.9 616.7 586.6 563.2 534.1 508.5 486.6 472 456.1 441.3 427.4 416.4 405.3 399.9 391 386.2 386.2 386.2 386.2 386.2 386.2 386.2 386.2 386.2 386.2 391.4 397.4 405.9 419.8 433.9 450.7 472.5
245.1 249.9 252.1 253.1 254.1 254 255.3 258.1 264.5 265 266.9 272 278.7 286.2 296.6 310.3 319 323.1 330 336.5 339.1 339 340.4 343 350.3 358.3 369.4 380.9 403.5 413.6 425.4 435.5 442 449.3 444.7 442 440.3 436.5 430.4 423.4 421.3 422 421.5 421.5 419.9 420.3 420.9 417 417.1 423.2 430.3 435.1 444.2 449.3 458.2 457 460.2 462.1 467.2 473.7 477.7 482.2 488.2 496.5 498.6 503.3 507.3 509.8 511.6 515.3 520.7 528 531.8 530.6 537.1 547.7 540.5 550.9 568.4 572.6 564.8 540.8 512.5 476.1 445.6 437.2 419.7 410.7 406.9 409.9 384 373.8 371.2 376.2 371 361.7 357 356.2 356.1 351.2 344.8 346.3 362.9 364.5 366.3 352.3 341.7 330 325.4 317.2 307.7 307.7 308.2 307.7 307.7 307.7 307.7 307.7 307.7 307.7 307.7 307.7 307.7 307.7 307.7 307.7 307.7 309.9 313.3 314.2 315.1 313 313.3 313.9 320.9 321.3 326.2 355.4 356.3 352.3 346.9 337.3 338 341 339.1 352.9 365.8 378.5 386.3 394.3 405 418.9 440.4 459.5 470.9 501.4 518.6 522.8 544.6 569.3 593.2 602.6 620.8 644.7 681.7 676.3 682 677 657 631.2 604.5 576.8 550.8 525.5 500.4 483.1 464.3 450.4 434.4 422.5 412.6 401.9 396.5 391.6 386.2 386.2 386.2 386.2 386.2 386.2 386.2 386.2 387 387.7 396.2 404.6 415.6 426.1 441 462.3
242.3 246.6 251.8 254.2 254.5 255.1 255.2 257.5 267.6 271.8 263.5 268.8 276.4 281.4 290.6 302.7 314.2 319.8 327.8 332.9 337.7 337.8 338.7 338 344.6 350.6 357.4 367.5 380.1 394.4 410.6 423.3 430.1 435 436.8 436.1 435.2 433 430.5 428 427.3 425.2 426.4 427.6 427.2 426.8 429.9 427.7 424 426.2 435.6 439.5 448.8 453.4 460 461.2 463 465.2 471.1 481.2 487.5 493.1 499 503.7 508.8 510 511.1 514.6 518.7 522.5 525.8 532.7 540.2 543.6 543.7 553.6 555.8 567.6 581.2 581.9 577.5 559.9 532 496.1 460.8 444.4 430.9 422.4 418.8 417.5 400.6 383.8 379 379.1 390.2 384 370.9 363.3 370.5 365.4 356.8 356.9 368.8 368.6 371.9 364.4 352.4 343.6 329.7 327.3 319.3 307.7 307.7 307.7 307.7 307.7 307.7 307.7 307.7 307.7 307.7 307.7 307.7 307.7 307.7 307.7 307.7 307.7 307.7 307.7 312.1 307.7 307.7 307.7 307.7 312.4 318 343.9 354 350.2 341.1 329.5 323.8 320 322.3 339.1 352.4 356.5 361.1 369.6 381.3 396.1 411.3 428.9 441.6 457.5 477.8 481.6 513.7 530.4 559.3 576.6 590.9 610.1 637.8 643.6 641.3 647.7 638.5 624.8 613.3 589.5 566.4 539.9 515.7 496.6 477.5 459.8 445.3 431.8 416.1 408.5 401.1 395.6 391.4 386.2 386.2 386.2 386.2 386.2 386.2 386.2 386.2 387.1 392 400.7 409.5 423.2 429.8 450.3
241.7 247 252.1 254.5 255.3 256.9 258.3 259.1 265.3 268.2 262.4 266.6 277.6 279.6 286.3 295.1 308.4 317.3 324 329.5 334.9 335.4 335.2 335.1 339.1 346.7 351.2 356.5 366.4 377.7 389.3 408.7 419.8 427.4 429.5 430.9 431.5 431.9 429.9 432 432.7 432.1 429.2 431.8 431.9 431.4 433.6 436.2 432.5 431.9 436.8 442.1 449.6 454.9 460.5 461.1 464.6 468.7 472.2 488.2 499.7 506.8 507.4 509.7 514.3 515.1 518 522.8 529.9 531.8 535.5 539.1 543.3 548 552.2 560.2 571.2 571.4 579.8 585.7 583.3 571.6 547.9 514.2 476 451.2 448.4 436.1 423.3 420.4 421.4 396.1 391.7 388.2 391.2 407.4 383.4 377.6 378.3 375.2 368.2 371.2 375.3 372.7 375.8 377.6 362.6 352 340.9 332.7 329.1 314.5 307.7 307.7 307.7 307.7 307.7 307.7 307.7 307.7 307.7 307.7 307.7 307.7 307.7 307.7 307.7 307.7 307.7 307.7 307.7 307.7 307.7 307.7 307.7 307.7 317.5 342.3 352.9 348.3 338.1 326.4 314.5 308.2 307.7 326.9 340.8 341.7 344.9 352.9 360.8 374.7 384.3 398.8 410.8 427.5 437.6 447.9 467.7 485.5 513.7 535.1 564.1 576.2 604.6 608.2 614.1 621.4 616.6 616.1 609.5 598.1 576.6 556.5 531 509 490.1 471.2 453.8 438.6 424.9 414.7 407.3 401.3 395.9 393.7 386.2 386.2 386.2 386.2 386.2 386.2 386.2 388.4 393.4 400.3 408.3 414.1 428 441.8
241.3 246 250.8 254.2 255.2 257.8 261.3 262.6 264.6 264.8 262.4 266.2 275.9 280.5 283.2 294.8 309.3 316.7 325.1 326.7 330.7 333.9 334.3 335.9 339.6 341.7 346.4 351.8 354.6 362.8 374.3 386.7 398.1 407.4 414.8 422.8 426 427.4 431.3 435.1 436.7 435.8 433.4 431.5 431.1 430.7 432.2 436.6 437.3 437.7 438.2 445.9 448.7 453.5 459.4 462.8 466.9 474.7 482 489.4 501.3 508.3 514.2 516.4 519.9 527.4 531.5 537.6 539.7 541 546.6 551.5 549.1 550.7 557.5 568.6 579.4 592.3 587.7 585.6 583.3 576.7 556 520 485.4 481.9 471.7 464.5 451.1 435 430.4 422 409.8 404.7 400.3 401.1 402.9 397.2 389.9 391.2 387.4 391.4 387.7 384.2 386 383.4 374.6 361.8 350.1 339.6 333.7 323.6 314.5 309.3 307.7 307.7 307.7 307.7 307.7 307.7 307.7 307.7 307.7 307.7 307.7 307.7 307.7 307.7 307.7 307.7 307.7 307.7 307.7 307.7 307.7 307.7 312.1 337.3 348.3 345.8 335.2 318.9 307.7 307.7 307.7 324.5 325.6 323.8 329.2 337.5 346.2 354.2 365.2 371.3 387.3 398.4 410.6 416.3 429.3 448.7 472.4 502.2 524.6 547.1 559.1 571.9 586.6 590.8 603.7 606.5 603.5 594.4 576 564.4 543.9 521.9 499.4 483.7 464.3 448.8 432.3 420.3 412.6 407.2 397.9 391.1 386.2 386.2 386.2 388.4 386.2 388 386.2 390.3 392.1 397.9 408.8 413.7 415.9 430.9
242 245.2 248.8 252.1 254.6 258.5 260.2 264 264 266.9 260.9 263.2 271.4 280.4 283.5 292.2 295.6 306.1 312 315.7 322.6 333.6 337 338.2 345 344.5 345.4 348.9 352.3 356.2 363.7 375.2 386.9 395.2 404.5 412.3 414.4 420.3 428.5 434 436.5 437.1 435.7 433.7 430.8 432.8 432.9 433 433.8 435.8 439 442.7 447.1 452.5 459.3 464.9 473 483.2 493.1 499.5 506.9 512.5 519.6 527.7 533.2 535.6 542.4 547.3 550.7 551.7 553.5 556.1 555.6 569.5 569.5 594.5 603.3 603 601.2 592 585 578.1 561.1 533.1 520.8 528.7 520.6 500.2 478.8 463.9 442.2 434.4 430.1 418.8 415.3 406.8 407.6 407.7 402.5 404.1 406.5 417 409.1 396.6 394.8 396.4 384.5 371.6 360 345.6 335.2 328.1 319.8 313 307.7 307.7 307.7 307.7 307.7 307.7 307.7 307.7 307.7 307.7 307.7 307.7 307.7 307.7 307.7 307.7 307.7 307.7 307.7 307.7 307.7 307.7 307.7 321.5 330.3 331.3 326.4 316.2 307.7 307.7 311.5 316.8 312.7 315.2 318 322.7 331.9 336.1 345.4 355.3 358.2 370.6 386.7 393.9 402.6 425 448.8 476.6 501.9 517.8 527.2 537.7 553.9 555.4 574 586 586.2 585.3 576.9 569.2 555.1 531.9 509.8 490.8 473.7 458.6 441 426.9 417.5 408.2 402.3 394.4 391.1 386.2 391.1 390.7 386.2 386.2 387.7 389.9 396 401.3 403.2 405.7 410.7 425.2
242.8 244.3 246.9 250 253.2 256.8 260 263.4 265.3 263.7 257 259.5 264.7 268.9 283.1 288.8 292.8 296.9 301.2 311.5 323 330.8 335.2 341.8 350.2 348.4 350.3 350.6 355.6 356.8 361.4 368 377.2 389.2 395.2 401.6 404.4 411.2 423.6 430.2 432.7 433.5 432.4 431.4 431.7 435.6 437.1 433.3 432.9 433.3 434.5 439 444.2 448.7 455.1 461.5 473.5 488.6 501.4 512 516.1 518.4 526.3 538.8 546.7 547.9 555.2 557.1 560 562.1 561.5 560 568.6 581.4 589.7 607.5 617.9 615.7 612.3 604.2 593 586.5 578.1 565.2 561.8 554.5 549.4 536.9 518.4 490.5 472.5 454.7 445 442.8 427.1 420.8 412.2 421.1 419.1 427.1 435.6 430.8 425.3 412.7 407.7 402.8 401.7 386.3 369.7 356.1 342.8 331.2 324.1 320.5 316.9 313.2 311.7 309.9 307.7 307.7 307.7 307.7 309.2 307.7 307.7 307.7 310 307.7 307.7 307.7 307.7 307.7 307.7 307.7 307.7 307.7 307.7 307.7 311.7 316.8 315.9 307.7 307.7 307.7 307.7 307.7 307.7 307.7 307.7 307.7 319.5 322.9 328 335 338.8 351 361.5 370.6 385 401 421.1 444.3 469.4 488.5 501.2 507.3 521.8 529.7 564.7 573.2 573.9 574.3 570.4 564 558.4 541.8 518.7 498.2 480.7 463 448.7 434.2 424.2 411.6 406.7 397.3 396.8 396.2 392.1 389.3 386.2 386.2 392.1 388.6 392.8 397.4 401.9 407.7 403.6 416.9
241.7 244 246.4 250.2 253.1 255.9 258.6 262.6 263.7 263.1 253.7 255.2 257.4 266.6 283.8 295.2 298.9 298.6 303.3 313.7 320.5 328.6 335 342.6 352.1 356 356.8 359.3 360.4 359.9 361.7 365.1 369.7 378.2 384.8 392.1 399.9 406.7 413.7 423.4 425.7 426.6 427.2 427.1 428.3 432.1 436.2 438 438.3 433.3 434 433.8 438.4 441.3 448.8 457.5 470.6 488.4 504.1 514.3 519.6 520.1 530.5 544.7 555.2 560.2 563.6 567.7 565.1 566.3 570.6 580.3 599.3 607.4 616.2 623.8 625.4 619.8 613.6 606.8 598.5 597.6 594.3 587.6 576.2 568.6 564 558.4 546.6 530.4 509.1 485.6 462.9 453 447.3 431.5 424.8 424 432.1 438.9 452.7 447.6 440.1 428.2 430.5 415 410.2 399.4 383 364.4 351.8 338.7 329.4 328.1 322.8 315.1 313.7 312.8 307.7 307.7 307.7 313.1 312.3 313.3 307.7 307.7 315.8 307.7 307.7 307.7 307.7 307.7 307.7 307.7 307.7 307.7 307.7 307.7 307.7 307.7 307.7 307.7 307.7 307.7 307.7 307.7 307.7 307.7 307.7 307.7 307.7 307.7 316.8 321.8 326.3 330.2 337.5 343.8 360.7 379.5 394.9 411.6 431.8 448 469.5 485.8 505.5 512.1 547.1 561.5 562.8 564.6 562.7 557.3 549.1 540.3 522.5 500.5 486.5 467.9 451.5 437.9 429.8 420.6 408.6 402.5 402.1 397.6 393 391.6 388.6 389 390 390.2 393.7 397.3 400.8 402.4 401.6 412.4
240.7 243 245.2 248.7 251.9 253.6 257.1 262.2 261.9 260.7 253.3 252.4 254.1 264.9 275.5 286.8 297.3 299.9 311.2 314.6 324.8 330.6 331.9 340.5 349.4 357 357.8 366.1 364.4 364 366.1 365.6 368.3 373.3 381 388.7 396.1 403.3 409.1 414.5 417.8 418.1 417.4 417.7 421.9 428.9 431.7 434.6 436.4 435.9 434.5 432.6 430.4 434.5 445.3 456.7 466.4 484.1 500.1 507.5 514.1 520 533.3 549.1 557.2 565.1 571.9 571.7 570.1 570.3 587.5 600.2 612.5 616.6 621.2 624 623.7 616.5 611.1 605.7 601.5 601.2 600.9 596.8 593.4 587.7 583.4 579.8 573.4 553.5 536 511.2 486.1 462.3 456.3 443.9 439.1 434 440.2 440.4 451.3 457.9 459.3 448.7 442.7 434.5 422.9 406.1 382.2 367.3 356.4 344.5 336.3 331 328 323.4 320.2 318 315.7 316.1 313.6 313.3 311.7 311.6 312.1 315.3 310.9 307.7 313.6 307.7 307.7 307.7 307.7 307.7 307.7 307.7 307.7 307.7 307.7 307.7 307.7 307.7 307.7 307.7 307.7 307.7 307.7 307.7 307.7 307.7 307.7 307.7 307.7 313.4 320.8 323.9 327.2 330.7 341.8 356.1 379 389.7 403.2 419.8 436.7 456.6 480.7 486.8 512.6 534.1 542.6 546.4 546.1 545.8 538.1 529.9 526.2 506.8 488.5 472.1 459.5 443.3 433.6 425.6 412.2 406 405.6 397.4 396.1 389.2 389.1 390.6 388.5 389.4 390.8 395.9 397.6 397.7 398.4 408
238.8 241.2 241.6 246.1 249.3 250.9 255.8 259.8 254.4 253.9 252.1 252 253.8 263.1 271.9 283.5 295.6 301 306.7 317.8 323.1 328.6 332.8 338.7 348.3 355.4 360 361.8 367.5 369.3 370.2 369.6 371.9 375.3 379.9 386.6 393.4 398.7 403.4 405.6 406.4 409.3 408.7 406.8 411.7 416.5 430.2 431.1 431.3 432.2 431.5 432.1 428.7 435.2 444.2 455.4 464.2 473 494.5 499.8 513.1 517.1 535.4 547.4 553.4 562.3 567.1 569.5 572.4 577.9 601.8 612.6 618.1 621 624.9 621.5 617.1 610.8 606 603.1 600.8 601.4 601 598.9 597.2 597.2 596.5 594.8 595.4 583.8 562.6 534.8 510.9 476.5 468.5 456.4 447.6 440.1 439.8 439.1 445.6 455.6 463.5 458 447.4 441.9 432.8 405.8 381.3 369.4 356.8 345.5 340.7 337 336.2 335 329.6 325.4 320.1 320.9 319.6 314.9 314.4 315.7 316.8 314.8 313.4 313.7 318.9 307.7 307.7 307.7 307.7 307.7 307.7 307.7 307.7 307.7 307.7 307.7 307.7 307.7 307.7 307.7 307.7 307.7 307.7 307.7 307.7 307.7 307.7 307.7 307.7 309.9 312.8 307.7 314.6 319.7 339.6 350.7 356.4 366.6 378 396.6 413.5 428.9 445.8 461.3 487.7 511.3 523.8 529 531.2 529.1 526.9 529.6 527.4 508.1 489.2 479.6 464.4 448.8 438.9 428.1 417.4 410.2 411.8 400.9 395 393.7 391.6 392.7 389.8 389.2 392.5 396.1 396.8 398 396.3 401.7
234.8 237.6 238 243.9 246.2 249 253.6 254.9 249.7 252.3 252.6 252.9 260.3 266.9 278.7 292.4 297.9 300.2 302.5 317 321 328.3 333.7 338.6 344.1 349 357.9 363.2 366.9 369.1 373.1 371.1 373.5 379.1 381.5 386.7 391.5 396.6 396.2 395.8 394.8 397.5 396.8 396.8 397.1 406.1 415.6 423 425.8 427.5 427.8 427.4 427.1 433.2 442.8 451.5 459.2 465.9 482.6 496.5 509.2 515.4 531 542.7 547.9 556.4 561.5 567.6 575.4 588.4 611.6 619.7 619 617.5 617.5 615.4 610.6 603.8 601.3 600.7 599.8 599.5 600.5 600.4 601.8 602.8 605.6 612.2 616.6 613.6 590.8 557.8 527.9 499.1 479.7 466.7 455.7 445 442.5 440.3 440.4 454.6 469.8 466.7 455.3 444.5 427.5 396 389.5 371.8 358.9 352.9 345.7 345.2 342.5 340.1 338.3 334.1 330.8 323.8 322.6 319.5 320.4 321 323.1 317 318.2 319.7 319.2 315.6 313.2 309.9 307.7 307.7 307.7 307.7 307.7 310 307.7 307.7 307.7 307.7 307.7 307.7 307.7 307.7 307.7 307.7 307.7 307.7 307.7 307.7 307.7 307.7 307.7 307.7 307.7 313.8 323.1 339.6 341.8 353 363.7 377.4 389.7 405.4 419.7 434.8 452.9 482.4 515 520 518.6 519 524.3 528.5 525.2 509.6 499.7 489.4 473.7 452.9 444.8 432.4 422.1 416.8 412.5 407.7 397.9 396.8 392.2 393.3 390.8 394.5 395.8 397.8 397.6 398.7 396.3 400.5
230 233.1 235.1 238.9 241.7 246.7 253.3 254.2 249.7 255.2 254 255.3 263.1 272.1 283 295.7 299.5 305.6 308.6 311.2 323.2 327.1 331.6 334.1 338.8 346.4 351.6 355.1 359 365.7 366.8 369.5 372.3 375.4 376.3 384.9 387.2 389.5 390.2 388.7 384.4 383.4 385.7 385.6 385.8 390 402 414.8 418.4 420.1 421.9 423.2 426.8 432.4 441.6 450.9 458.7 462.4 477.8 494.6 506.1 511.1 522 531.1 541.9 546.8 554.1 559.9 570.5 587 607.7 614 610.4 607.1 608.5 605.6 601.5 597.1 597 597.6 597 597.7 601.1 604 606.4 608.4 611.1 617.6 621.7 623.6 607.6 584.5 555.9 515 495 488 479.5 462.9 447.6 446 444.7 467 474.3 478.4 468.2 449.1 426.9 397.5 396.4 380.3 369.9 364.8 359.9 349.5 349.2 350.5 349.1 342.4 339.2 330.4 327.6 326 323.8 327.6 328 324.5 318.6 323.4 318.9 317 316.4 314.2 313.2 309.3 307.7 313 311 309.9 307.7 307.7 307.7 307.7 307.7 307.7 307.7 307.7 307.7 307.7 307.7 307.7 307.7 307.7 307.7 307.7 307.7 307.7 310.7 312.1 323.3 333.5 336.8 342.9 352.2 362.1 371.2 382.3 395.8 406.9 423.2 452.1 475.5 488.1 496.2 508.2 515.3 524 520.3 508.4 506.4 491.2 481.7 463.4 452 440.2 429.4 425.1 420 410.5 404 400.7 396 394.8 396 396.8 393.5 393.9 393.5 400.6 396.3 396.3
226.4 228.8 233 237.2 238.6 245.6 252.5 259 249.7 258.2 255.4 256.3 263.8 282 288.6 294.9 302.7 307.8 312 312 320 325 330.1 333.4 337.6 337.8 341.9 345.4 350.8 355.2 359.4 362.4 366.4 369.4 371.6 374.2 376.7 379.9 382.4 381.7 376.8 374.5 374 375.4 377.6 380.2 386.2 398.4 409.1 414.2 416.7 422.2 427.8 431.9 440.6 450 449.7 461.4 474.3 491.9 499.8 507.3 513.8 517.1 527.6 536.6 547 558.2 565.3 578 593.4 597.9 595.9 592.1 588 587.1 586.9 588.3 590.7 591.9 593.8 596.9 600.2 604.7 608.3 611.2 615.9 622.4 624.1 624.1 619.6 605.1 570.9 547.9 534.5 521.9 502.6 491.2 468.5 458.1 455.7 475.1 487.3 488.4 474.4 454.8 421.1 392.6 397.5 393.2 382.3 372 368.4 358.2 356.9 358.8 355.2 347.4 342.4 340.7 337.9 334.3 331.8 331.1 326.8 324.5 325.5 324.4 320.1 320.8 325.3 318.3 318 316.3 317 314.8 314.2 307.7 307.7 307.7 307.7 307.7 307.7 307.7 307.7 307.7 307.7 307.7 307.7 307.7 307.7 307.7 307.7 307.7 307.7 307.7 311 312.7 317.7 321.7 325.7 329.8 338.9 345.2 356.4 368.3 377.9 398.1 410.7 429 453.2 461.7 480.2 492.7 510.2 515.4 506.6 508 509.4 493.4 486.4 469.3 460.6 447.5 439.4 429.3 427.1 412.2 409.8 407 402.9 400.8 398 398.8 393.5 393.5 396.5 401.6 397.2 396.3
224.7 226.8 230.1 236 236.4 244.5 251.1 258.7 249.7 253.1 253.8 256.2 257.8 274 286.3 293.8 302.4 310 312.4 314.9 317 325 327.2 333.8 334.2 335.2 334.1 335.7 340.8 345 350.6 353.4 358.1 362.7 364.2 369.2 371.6 371.4 372.8 373.4 370.2 366.3 365.7 366.4 369.7 373.2 378.3 385.8 396.4 405 413.1 419.7 426.6 432.2 436.3 445.9 449.4 458.5 473.3 485.5 496.2 498.3 502.6 511.1 512 524.3 540 556 564.3 570 575.5 581.6 580.2 577.5 573.3 573.7 576.1 578.7 582.6 587 589.9 592 597.4 602.9 608.5 613 615.4 619.7 620.4 620 616.5 611.7 601.1 582.2 557 540.1 519.4 513.5 498.6 476.5 472 480 499 506.6 481 448.9 419.9 409.2 404 397.7 394.5 385.5 380.6 369.4 365.3 364.8 360.6 355.4 351.8 346.1 345.7 345.2 342.1 337.6 329.9 329.5 333 327.4 328.3 330.6 325.6 321.6 320.8 321.1 321 328.5 319.7 309 307.7 307.7 315.2 315.8 316.3 317.5 307.7 307.7 307.7 307.7 307.7 307.7 307.7 307.7 307.7 307.7 307.7 308.7 310.3 313.3 318.6 318.7 321.7 328 329.2 332.7 339.6 349.2 358.1 381 398.8 415.9 426.2 449.8 476.3 489.1 500.7 506.5 506.8 511.7 507.7 497.1 490 473.4 462.5 456.6 448.7 436.2 430.5 418.9 415.2 409.1 404 404.9 403.1 397.6 393.5 393.8 399.4 403.5 396.3 396.3
225.4 225.3 227.8 232.2 236.1 243.9 251.6 257.4 249.7 249.7 249.7 251.7 255.1 264.5 281.1 290 301.5 310.4 312.7 319 328.9 321.3 325.9 328.3 332.7 333.1 329.1 330.6 333.2 335.3 339.7 343.2 348.5 353.3 355.8 360.7 365.7 366.6 363.6 365.1 361.9 361.1 359 360.1 362.5 367.3 372.5 379 386 396.4 407.8 414.2 423.4 431 434.7 440.8 450.8 455.5 469.6 482.5 490.4 491.1 493.5 492.7 493.8 513.8 530.6 544.3 552.8 560.7 564.3 564.7 564.3 562.6 559.8 562.5 566.4 569.7 573.2 576.8 581.9 586.6 592.7 598 603.3 607.4 610.1 612.5 614.3 614.7 611.8 609.2 600.6 592.1 581.6 563.8 546 525.9 515.7 498.7 493.8 489.8 501.6 498.3 471.6 443.2 427.1 419.6 416.2 411.2 408.4 407.9 390.6 382.8 374.6 374.9 371.9 370.5 362.1 354.7 353.8 348.9 347 342.6 337.5 337 334.9 333.6 331 330.4 327.4 326.8 326.8 326 332.8 330.7 328.9 316.4 314.2 318.8 318.2 316.8 318.3 316.8 307.7 307.7 307.7 307.7 307.7 307.7 307.7 307.7 307.7 307.7 307.7 308.4 310.3 311.6 317 317.5 320.5 321.9 328.3 330 334.1 339.1 350.7 367 384.5 398.2 420.4 447.1 469.3 484.1 504.8 500.9 507.5 509.2 505.3 503.7 489.2 475.7 464.3 464.7 454.5 439.1 432.5 424 423.1 415.4 408.8 408.9 406.1 397 399.9 403.6 402.3 403.3 396.3 396.3
228.1 223.9 227.2 231.2 238.4 243.8 250.1 253.5 249.7 249.7 249.7 249.7 253.8 261.2 275.8 287.5 297.6 306.7 308.4 314.4 325.8 325.5 326.7 329.8 327.7 328.6 327.7 327.3 328.5 330 332.1 332.2 336.4 344 347.5 350.2 355.2 355.8 355.5 356.5 357 356.3 355.5 355.2 358.1 362.3 368.2 373.6 380.4 388.6 401.3 410.3 416.6 425.5 432 435.6 442.4 449.4 464.4 473.9 480.1 482.8 483.6 480.8 480.6 492.8 513.1 528.5 538.7 540.6 542.9 543.6 542.4 542.3 544.7 546.9 553.2 559.3 564 568.9 574.1 579.2 583.5 590.5 595 599.5 603.9 605.3 606.8 607.2 606.3 602.4 595.8 590.5 583.9 570 554.8 538.7 531 515.2 511.3 505.4 510.4 499.6 471 439.3 433.5 427.4 427.1 423 418 413.9 407.5 397.9 386.6 385.5 381.5 380.1 374.6 362.5 360.5 356.1 355.7 350.6 345.1 341.6 342.8 337 334.8 332.1 334.3 332.6 334.1 329.2 333.6 332.4 325 324.2 321.8 316.9 320 320.3 317.8 320.9 316.1 307.7 307.7 307.7 307.7 307.7 307.7 307.7 307.7 307.7 307.7 309.5 310.3 310.9 312.4 317.9 317.9 317 322.7 326.5 328 334.3 341.1 357.1 370.5 392.7 410.5 432.5 462.3 478.7 486 485.9 499.1 501.3 504.4 510.4 493.9 475 473.5 465.1 458.1 444.1 436.3 434 428.7 428.4 420.3 412 414 404.6 409.7 411.7 407.7 403.4 396.3 396.3
227.9 227.9 228.7 231.6 236.3 242.7 247.5 250.5 249.7 249.7 249.7 249.7 253.5 262.9 268 284.5 291.6 301.9 306.4 311.5 318 326.6 327.9 327.8 327.9 327.4 326.5 325.5 327.4 332.2 329.6 331.1 326.4 330.3 336.2 341.9 344.7 347.5 348.9 350 350.3 350 350.4 350.6 354 357.2 364.1 369.9 376.3 383.6 392.8 404 409.4 416.3 426.6 431.2 434.9 440.8 453.9 464.2 469.4 478.2 483.5 476.4 474.2 476.2 488.6 500.6 509.2 516.6 519 520.3 521.7 520.6 519.4 529.1 537.8 542.6 551.4 557.6 563.6 569.6 575 579.3 585.3 589.9 593.2 595.4 596.6 597.8 597.8 594.2 589.8 584.8 580 569 559.3 545.6 533.9 527.8 525.6 515.6 517.8 507.3 469.8 462.3 452 441.8 435.5 432 430.1 425.5 419 409.5 401.7 393.5 391.9 390.3 383.7 372.4 367.7 367.4 363.4 358.6 352.4 351.8 350.6 343.5 342.9 339.3 336.5 336.4 333.5 331.8 334.1 331.6 332.1 332.5 324.6 321.8 322.5 323.2 323.4 324 318.8 314.1 307.7 307.7 307.7 307.7 307.7 307.7 307.7 307.7 308.6 312.4 311.9 312.1 313.4 315.5 316.3 317.8 317.6 320.9 324.1 326.7 332.9 346.5 361.9 380.2 402.1 423 449.3 469 476.4 482.3 494.1 498.5 503.3 506.6 495.3 475.6 471.7 467.6 459.1 449.8 443.7 443.7 437.2 435.9 426.4 420.4 422 415.4 415.7 411.5 411.3 407.7 399.5 396.7
229 230 230.1 233.1 238.5 244.6 247.9 250.8 249.7 249.7 249.7 249.7 254.2 257.2 267.2 280.6 291.4 298.6 307.9 315.8 316.9 322.5 327 327.3 325.9 323.8 324.2 323.7 324 325.3 325.9 325.5 318.7 321.2 326.8 333.2 335.8 339.6 343.7 345 346.4 346.1 345.9 347 349.7 353.6 360.1 366 372.5 378.7 386.6 393.6 401.8 407.7 415.2 421.6 427.2 433 444.2 456.1 460.7 466.1 477.7 477.2 472.1 473.2 474.9 477.5 477.8 483 487.7 490.2 492.7 493 495 502.8 512.7 517.3 530.8 539.7 548.4 555.1 561 568.3 573 576.5 580.7 584 585.1 586.3 585.6 583.7 579.3 576.3 569.1 557.7 548.5 543.2 538.6 535.2 535 531.2 521.1 500.4 476.3 484.7 471.3 460.6 449.9 442.6 441.3 435.2 428 422.2 416 411.2 402.4 400.6 396.9 392.9 380.3 373.2 373.1 367.3 364 360 355.3 350.9 349.4 346.6 345 340.1 335.6 334.5 340.7 339.8 337.2 336.9 330.4 328.6 329.5 331.4 336.4 328 323.5 316.7 308.3 314.9 313.5 307.7 307.7 307.7 307.7 308.1 311.4 311.3 312 314.5 313.5 316.2 317.5 317.8 321.5 320.3 322.5 324.5 329.2 335.2 352.5 366.3 390.2 410 430.5 448.1 456.2 474.2 484.4 481.8 495.3 495.6 490.7 472 469.1 469.8 462.8 454.6 450.6 448 442.6 439.4 434.1 430.4 426.8 419.7 419.8 415.1 413 413.8 408.5 407.6
228.2 229.3 229.3 233.9 239.3 245.4 250.1 252.6 250.1 249.7 249.7 249.7 256.3 256.4 266.1 277.5 287 295.3 305.7 315.1 317.4 319.2 321.9 324.4 321.5 321.6 320.4 319 316 319.3 322.3 317.8 312.7 311.8 318.7 325.8 328.8 332.2 337.2 340.4 342 342.5 342.1 342.5 345.1 349.8 355.1 363.2 368.7 372.9 379 385 392.1 399.8 405.5 410.6 417.1 424.5 431.2 442.2 448.4 451.7 456.2 461.7 466 467.6 468.7 466.6 464.9 463.8 463.6 464.9 465.1 469 472.6 477.2 484.3 493.4 503.5 516.2 526.5 538.1 547.6 555.1 560.3 564.4 568.3 571 573 572.6 571 570.9 569.2 564.8 556.2 545.1 542.8 540.2 537.5 536.3 535.6 532 518.1 489.7 496.4 494.7 482 477.2 470.3 461.2 455 448.1 445 435.3 429.3 423.4 418.3 408.6 405.5 400.6 392.6 383.5 383.8 378.7 372.6 370.6 364 361.7 355.8 353 350.8 348.4 343 340.7 337 338.6 335.9 342.3 336.7 332.4 334.8 335.6 335.1 331.3 323.9 319.6 317 316 317.4 314.1 307.7 312.4 311.8 307.7 308.4 311.8 314.4 316.2 312.4 318.8 319.1 317.9 320.3 324.7 326.7 325.4 326.2 332.8 341.5 352.5 364.5 383.3 415.8 432.8 434.9 453.3 458.2 465.8 476.7 482.5 478.2 465.1 467.3 470 464.3 456.6 458.8 459.6 451.4 444.7 443.5 437.5 427.7 426.6 421.9 424.2 422.3 420 414.1 414.8
227.1 228.2 229.3 235.1 238.7 244.6 250.4 253.7 250.9 249.7 249.7 249.7 257.1 258.9 268 274 281.7 295.3 303 310 314.2 316.3 319.4 316.8 321.4 321.3 320 318.4 314.3 310.5 312.2 316.5 307 309.6 311.4 316.7 324.2 326.1 330.6 334.7 338 339.1 339.2 339.4 341.9 347.2 351.1 357 364.2 366.9 372.2 377 383.5 388.3 394.7 400.9 406.6 413.2 419 426.6 431.6 436.9 441.3 443.2 446.3 452.1 451 452.7 453.7 452.5 452.4 452.2 451.6 453.3 455.8 461.8 465.6 470.9 478.9 493 504.4 517.5 530.5 537.4 544.6 549.9 554 557 558.8 558.8 559.7 559.3 556.8 551.5 542.8 536.3 535.9 533.7 533.5 532.7 530.2 526.3 510.7 497.3 515 505.7 496.6 493.9 486.6 481.4 471.8 462.1 456.7 444 437.8 433.3 429.3 419.1 415.1 410 400.9 392.4 391.6 387.8 385.5 378.2 371.9 368.1 362.5 358.8 356.7 352.3 347.5 340.6 340.4 340.9 338.6 339 338.4 337.2 338.9 340.6 338.6 330.6 327.4 326.3 320.8 317.5 317.6 318 314.8 317 313.5 314 315.4 313.9 313.4 316.7 318.3 316.1 317.6 318.2 323.8 325.7 326.1 327.1 327.5 333.1 338.9 343.8 356.2 366.9 386.2 401.5 411.6 424.8 438.8 454.5 463.4 471.1 464.8 459.8 460.4 468.8 465 459.8 466.6 462.5 457.3 449.3 451.1 451.8 435.3 433.4 433.8 422 425.4 431.7 426.3 431
226.4 227.3 229.4 235 239 244.7 249.3 254.2 253.7 249.7 249.7 249.7 259 264 269.6 275.9 281.7 296.3 300.3 305.2 309.7 315.3 311.1 313.4 315.6 317.9 319.1 316.8 312.3 303.7 301.3 299.5 299.3 306.3 306.9 309.5 314.7 319.4 325 329.4 333.5 335.8 336 337.2 338.7 343.3 347.5 352.6 355.7 361.3 364.6 370 374.1 378.8 383.3 390.5 396.4 401 405.1 412.3 419.2 422.7 425.4 427.7 429.9 432 436 437.8 437.9 439 438 438.2 440.3 441.9 444.5 446.8 451.9 459.3 467.9 478.1 484.8 496.5 506.2 516.4 526 531.7 536.8 541.6 543.8 544.8 544.9 545.1 542.2 538.1 532 530.4 528.9 528.1 527.8 526.9 524.7 522.3 504.4 515.4 524.6 517.3 515.4 514.6 509.6 498.1 484.8 482 473.6 465.1 452.7 442.8 436.5 431 426.2 420.5 412.4 404.7 399.5 397.1 391.9 386.9 384.4 378 373.3 364.5 362.5 356 351.9 346.7 347 349.2 344.2 341.3 341.5 340.8 341.2 344.4 342.5 332.7 334.8 331.5 325.8 322 318.4 320.4 318.9 316.7 316.9 316.8 315.5 316.5 318.8 316 320.2 318.5 318.6 318.3 324.1 326.9 328.7 330.6 331.5 334.1 338.3 340.8 345.4 357.3 369.9 380.1 392 413.2 427.7 446.4 458.1 459.9 454.9 451 456.1 463.6 461.4 459.9 466.9 464.1 460 459 456.5 452 444.5 438.6 438.9 436.1 433.8 440.4 437 444.4
224.3 226.3 229.2 235.4 239.6 244.3 249 254.6 254.8 249.7 249.7 249.7 260.6 268.7 273.6 280.5 292.4 299.3 302.3 303.7 305.4 309.2 305.3 304.4 310.4 307.7 310.8 312.1 311.6 308.1 298.8 296.4 296.8 298 300.6 304.4 308.2 311.6 316.7 322.9 329 331.6 332.2 335.4 336.4 338 342.5 347.7 351.1 354.5 358.3 363.5 367.7 370.8 376.1 380 387.2 391.6 395.9 398.9 405.1 411.2 414.7 416.2 417.6 419.7 423.2 425.8 425.6 425.5 425.6 424.8 425 426.2 430.5 435.2 439.1 445.6 454.4 464.8 473.4 483.6 491.1 499.3 507.4 512.8 518.8 525.1 528.4 530.6 530.4 528.9 527.3 526.6 524.3 525.2 523.2 522.8 522.9 522.7 521.6 515.7 506.1 524.7 528.4 525.7 528.1 528.6 529.1 520.8 504.4 506 489.7 481 470.9 456.7 446.1 440.4 433.9 430.2 423.3 414.9 409.7 408.5 406.4 399.3 393.4 386.3 377.8 371.2 367.9 365.5 360.7 356.6 358.6 359.5 352.6 348.2 345.1 341.5 345.1 348.4 343.6 336.9 338 334.3 334.7 326.9 323.7 323.2 325.1 318.1 317.3 315.9 316.2 319 324.6 320.2 319.1 318.7 321.2 319 324.3 326.9 329.5 331.6 333.7 337.2 338.2 341.5 344 354.1 365.5 371.5 377.7 388.4 403.9 421.8 436.8 445.3 445.3 446.6 452.6 457.8 460.1 460.2 463.5 462.6 461.8 463.3 462.5 458.8 451.9 448.3 448.5 450.3 447.9 448.3 439.1 429.4
222.2 225.2 229.3 235.5 238.9 241.5 248.7 253 253.8 253.2 249.7 249.7 258.5 265.8 269.7 282.2 290.2 293.6 298.7 301 300.9 300.9 299.1 293.4 294.3 300 300 300.2 302.8 303 300.3 293.6 294.3 297.5 294.4 301.6 303.5 308.2 310.6 316.5 322.3 327.2 330.3 332 334.9 336.6 339.3 341.9 345.5 349.6 351.8 355.8 361.2 365 368.5 371.1 377 382.1 386.5 391.6 395.5 400.3 403.4 406.2 408.3 409.2 410.5 413 413.9 414.1 413 413 414 416.1 418.5 423.1 428.4 435.7 443.3 454.8 463.7 472.3 481.7 486.6 492.3 498.5 503.5 507.3 513.4 515.8 515.8 516.9 515.8 517 516.6 516.4 516 516.5 516.2 517.2 517.8 510.4 514.9 523.1 525.8 528.1 531.8 536.7 540.4 540.6 529.4 522.5 514.8 503.1 482.8 475 463.4 451.7 442.7 438.7 438.4 430.4 425.5 419.2 418.4 412.6 404 393.6 386.2 382.2 378.3 374.7 371.6 367.5 365.8 365 358.7 358.1 352.1 349.5 350.7 353.4 347.3 341.4 340.5 337.9 336.8 334.4 326.5 325.1 324 323.7 320.4 320.4 322.8 324.4 327.8 326.1 323.2 324.6 324.5 320.9 322.9 326.1 328.3 330.8 334 337.2 339.7 342.3 346.2 350.4 358.5 364.3 374.7 383.9 394.4 414 429.1 435.2 433.4 444.3 449 450.5 460 460.6 462.8 464.9 462.9 466.8 465.3 462.6 460.7 456.6 452.7 454.7 447.2 441 437.7 432.4
220.1 223.6 230.6 235 234.5 236.2 242.4 247.5 251.7 255.8 251.4 250.6 254.8 257.4 262.3 278.3 282.5 286.8 292.3 294.4 294.3 292.2 292 284.8 284.8 284.8 287.2 286.5 289.1 294.3 295.1 290.1 289.8 290.8 293.9 297.5 301.5 305.6 307.4 309.8 314.5 319.2 324.8 330.7 332.5 335 337.1 338.7 339.7 343.6 347.9 350.6 353.8 358.5 362.1 365.3 368.8 374 379 383.6 387.9 392.4 394.1 396.5 399.3 402.2 401.8 401.6 401.1 402.5 403.1 403.5 404.4 406.6 409.7 412.8 419.2 424.5 434.5 443.7 453 462 471.3 480.7 485.9 493.5 496.7 497.6 497.8 499 501.3 503.4 503.6 503.5 506.4 505.3 505.6 507.4 509.1 512.2 513.3 510.2 512.6 520.9 525.5 530.4 537.7 545.3 550.8 551.6 546.8 541.1 537.4 523.5 504.4 498.1 490.6 484.7 462.9 454.9 448.6 444.4 437.9 431.1 425.5 421.8 416.1 404.4 396.4 393.3 387.4 384.4 382.7 371.8 369.9 367.5 363.3 360.5 358.7 354.9 356.7 355.9 349.9 350.2 349 347.2 338 336.1 329.9 330.8 334 330.5 324.9 326.6 329.2 325.9 329.1 323.7 323.8 323.6 325.5 324 324.6 325.2 326.3 331.3 336.3 339.4 340.6 345.6 348.4 351 355.5 362.2 368.3 375.6 385.5 402.5 410.8 416.7 420.7 432.8 436.5 442.1 455.6 459.4 460.2 464.4 465.4 469.2 468.9 465 464.4 460.8 453.6 450.9 447.2 446 439.3 432.2
218 220.7 225.7 229.7 232.1 234.4 241.4 246.7 252.4 253.3 252.8 254.6 253.7 253.3 259.8 270.7 276.7 278.2 282.7 283.3 287.4 283.7 283.8 277.1 276.5 276.1 278 278.5 280.3 283.3 287 283.4 282.5 288 292.2 296.8 300.4 302.5 304.1 305.5 308 312.9 321.6 327.3 330.5 332.7 334.4 335.3 336.9 339.2 343 345.8 349 353.1 356.3 360.2 363.3 367.1 371.2 376 380.2 384 388.6 390.5 390.8 393.2 394.2 394.5 392.5 392.6 393.7 394.8 396.7 398.1 400.6 404.2 410.6 416.8 424 431.6 441.8 450.7 458.5 467.6 475 482 485.4 487.3 488.4 489.2 488.6 489 490.7 491.6 493.8 491.5 494 496.9 500.8 504.3 508.2 506 508.5 519.9 524.5 530.9 539.7 549 559.8 561.8 562.3 556.4 549.6 538.9 531 523.9 521.3 510.4 491.6 476.1 458.9 455 449.6 442 437.2 431.8 421.7 417.8 413.5 408.5 397.3 392.1 387 379.1 374.5 371.9 369.6 365 362.4 364.8 362.5 357.1 354.7 354 349.9 347.7 339.4 345 338.9 334.4 333.6 331 326.1 326 327.5 327.3 328.3 326.4 325.2 325.1 325.2 326.1 327.3 328.1 329.9 331.7 333.3 343 344.5 345.5 350.3 354.2 357.4 360.9 363.4 371.9 379.5 390.8 402.4 406.2 414.1 420 429.8 441.7 451.7 456.6 459.9 459.7 463.9 465.3 466.6 465.1 466.8 463.3 457.5 451.7 448.8 447.1 442.9 442.8
215.5 217.1 222.5 227.8 230.9 234 241.6 244.2 250.7 249.7 250.2 249.2 248.6 250.7 251.6 258.9 262.3 272.5 275.5 276 277.1 277.6 275.5 272.5 271.9 272.4 273.2 274.9 271.9 274.8 278.3 279.2 277.7 285.3 289.8 294.9 298.5 301.3 302.1 301.9 304.1 307.9 313.3 323 327.5 330.3 331.8 333.6 335.1 336.7 338.5 340.8 344 347.9 352.2 355.7 359.1 362.4 365.7 368.8 373.4 377 379.5 383.5 384 385.8 389.4 390.5 387.2 386.4 387 388.8 388.8 390.5 392.5 395.4 399.8 404.7 412.5 420.7 428.1 438.3 444.8 452.5 461 466.9 471.3 474.4 476.8 475.5 474.1 474.9 477.7 475.6 478.6 478.8 484.1 487.3 493.3 498.8 502.4 499.2 510.9 519.4 524.6 529.7 538 547.1 556.5 564.1 566.7 566.8 568.4 563.6 557.6 547.8 540.9 526.4 508.6 492.4 476.4 469.4 461.4 454 447 442.4 438 429.4 421.9 414.4 403.5 395.9 390 383.6 381.5 378.7 377.9 374.7 371.6 366.6 364.3 362.1 357.4 357 352.6 351.5 343.8 348.3 347.1 337.7 335.1 331.9 329.9 328.9 328.4 332.6 332.6 329.1 326.2 327.2 326.8 330.2 329.9 329.8 333.5 337.2 335.5 339.8 345.6 348.7 350.1 351.5 357 362.1 367.2 373.4 379.3 388.5 395.7 403 412.1 417.9 428.5 432.6 442.2 447.5 454.9 457.9 460.3 462 470 466.3 469.7 469.1 462 456.6 451.4 447.8 448.9 446.6
209.4 213.1 219.9 224.9 228.9 233.6 235.2 242.2 243.8 245 245.5 244 242.4 243 248 251.4 254.5 262.9 270.1 271.1 274.5 276.5 272.5 270.1 269.4 269.4 269.1 268.9 270.7 272.6 273.8 273.3 273.9 276.8 282.7 287.9 293.4 300.1 299.7 301.1 302 304.3 307.9 313.6 322.5 327.4 330.5 332.1 333 334.2 337.1 339 341.3 345 348.6 352 354.9 357.8 360.4 364.2 365.8 368.1 371.1 374.2 374.5 377.7 383.1 382.5 383.8 382.1 382.3 382.4 383.1 383.8 385.4 387.7 390.2 392.7 398.5 405.3 413.9 421.8 426.3 435.1 443.6 450.3 454.3 455.8 458.4 458.7 458.9 459.4 462.5 464.5 463.8 467.3 473.3 478.2 484.5 491.5 496.1 503.8 512 517.8 523.3 529.8 538.5 548.3 555.5 562.8 568.9 571.2 576.9 583.1 582.6 576.7 566.5 553.9 546.4 521.5 501.8 491.8 477 467.5 461.6 457.3 452.3 442.9 428.3 421.6 409.8 401.6 394 393.7 392.5 388.6 382.1 378.1 373.9 370.6 368.6 370 368.5 363.6 360.1 357 347.3 351.3 349.6 343 338.4 335.6 333.6 330.8 329.5 334 333.5 330.7 326.7 328.5 329.5 332.3 332 334.7 337.6 341.3 339 342.6 345.2 347.4 351.3 352.5 357.9 365.4 370.4 373.3 379.7 386.3 393.2 397.8 404.2 412.8 420.7 428.5 434.6 440.3 443.3 446.6 451.5 458.2 464.3 468.9 471.8 468.5 467.9 464.4 456.4 451.8 448.9 448
201.8 208.7 216.5 222.3 224.9 229.9 232.9 239.7 236.8 237.8 240.2 239.9 238.2 238.3 241.8 245.9 249.9 255.7 260.8 264.2 265.6 267.3 271.2 270.4 269.4 268.4 262.9 266.5 272.1 273.1 269.7 270.5 271.6 273.2 275.4 279 284 291.1 298.1 301.8 302.9 301 303.2 306.7 314.1 323 327.5 330 332 333.4 334.9 337.2 339.6 342.4 345.2 349.2 351.7 353.4 356.1 358.7 360 361.7 363.8 363 369.9 371 373.7 379 379 377.6 377.6 378.8 379.1 379.4 380.7 383 384.5 385.9 388.5 393.1 396.4 404.6 409.1 417 424.9 428 432 438.5 439.9 446.1 448.5 439.5 450.4 453.3 455.2 459 464.6 471.4 478.2 482.2 491.1 503.4 510.9 517.7 522.9 529.9 536.8 546.4 555.3 563.3 571.1 579.6 586.2 586.8 585.8 586.9 583.8 582.9 580.6 568.6 551.3 514.3 495.1 483.7 476 466.1 458.5 451.7 436.6 431.8 423.9 410.6 404.7 401.6 400.7 392.1 388.6 384.8 382.7 380.1 380.6 380.1 377.1 376.6 367.8 364.4 354.3 353.6 353.4 347.5 343.6 339.7 337.3 337.4 335.9 338.4 336.9 335 329.6 329.9 332.5 334 336.6 340.4 340.6 342.2 343.8 347.1 349.6 349.3 353.1 354.7 361.1 365.7 369.5 372.5 376.6 383.2 388.8 396.6 402.1 408.4 415.1 420.2 425.7 431.8 439.8 443.1 449.1 458.2 465.1 467.9 465.1 468.5 467.3 465.7 463.3 460.1 452.4 450.9
195.1 202 211.8 218.7 223.8 228.1 231 235.4 232.6 232.3 233.7 236.4 235.5 234.1 235.7 239 243.6 250.9 254.6 259.1 262.4 264.9 272.7 274.3 268.7 266.8 264.8 268.4 269.6 271.7 269.7 271.3 272.5 272.7 274.3 276.1 278.2 283.3 294.4 301.2 300.5 300.4 301.6 305.1 307.2 316.1 322.4 327.3 329.8 332.1 334 335.7 337.7 339.8 342.4 345.6 348.8 350.3 351.7 353.7 354.6 356.1 356.6 358.2 361.1 363.8 366.7 370.4 371.4 372.5 373.1 374.4 374.5 375 376.6 380.5 383.5 380 382.1 384.6 387.4 391.1 394.4 399.3 405 409.9 414 417.7 425.8 430 433.1 428.4 433.8 443.1 446.5 452.9 460 459.5 468.9 476.8 489.8 500 509.6 516.3 522.8 529.8 535.8 543.2 553.4 562 571.1 580.8 586.2 590 600.5 612.7 625.7 624.4 637.4 623.4 592.7 561.2 546.9 527.5 513.5 485.1 466.1 454.1 443.8 440.8 435.2 426.5 422.3 412.6 409.1 404.4 397.2 399.7 391.7 390 392.1 384.9 386.6 379.1 373.8 367.1 361.5 358.9 358.2 351 348.7 347.4 344.6 344.4 343.3 341.7 339.8 337 335.9 332.1 341.6 341.9 344 343.1 342 345.2 346.8 344.9 347.8 349.8 353.3 357.3 362.8 369.3 371.9 374.2 377.9 383 390 396.8 404.7 408.3 413 415.1 424.4 432.4 434.2 439.9 445.9 452.3 456 456.6 463 464.8 465.8 467.1 464.5 462.1 457.9 458
186.4 195.3 204.9 212.2 219.3 223.3 225.8 226.1 227 228.6 230.2 233.3 232.9 230.7 230.6 233.4 240 246.9 250.7 255.7 257.1 267.1 271.6 270.1 266.4 257.7 266.5 271.1 268.6 269.7 270.4 272.3 270.6 274.8 275.1 277.1 279.1 279.9 284 293 295.1 299.1 301.5 305.3 305.2 307.7 317 322.8 327.6 331.6 333 334.3 336 338.3 340.6 342.6 345.3 347 348.6 350.3 351 351.9 351.6 354.6 356.4 357.7 360.8 363.2 365.2 367.5 369.3 368.7 370.2 370.3 371.4 371.7 372.6 376 376.2 376.6 378.9 382.8 384.6 389.2 394.3 401.3 402.8 405.6 411 413 418.1 415.6 421.8 429 434 439.9 446.2 452.8 461.8 472 483.9 493 503.2 513.4 520.5 528.6 535.5 542.9 548.7 557.6 570.3 578.2 583.5 589.3 614.9 641.7 651.3 656.3 665.7 662.8 605.2 623.1 602.2 572.3 545.7 517.9 483.1 464 453.7 452.1 443.5 437.7 432.8 429.7 421.1 416.3 413.3 406.6 404.1 400.1 393.4 388.4 390.8 385.4 378.1 373.2 367.7 362.3 362.5 358 355.8 353.5 349.7 351.8 346.2 344.9 341.1 339.6 338.3 339 338.7 343 341.2 342.3 343.8 347.8 349.5 351 349.1 352.3 355.7 359.1 362.1 368.9 371.5 373.6 378.5 384.1 388.4 396.4 404.8 406.8 410.8 414.6 421.6 424.2 430.5 434.6 439.4 445.1 450.4 452.2 457.3 460.8 461.6 463.1 463.4 461.3 464.6 456.8
180.3 186.7 197.2 209.8 212.1 215.8 219.4 219.4 219.3 221.8 223 224.2 225.5 225.7 228.5 229.7 235.9 242.8 245.1 248.2 254.1 266.1 269.7 260.5 255.7 259.2 270.9 275.6 271.2 270.1 271.1 272 271.3 273.7 275.3 276.3 279 279.7 281.7 284.5 290.5 295.4 297.1 300 303.6 304.1 308.2 318.3 324.2 328.8 331.7 333.4 334.6 336.3 338.5 340.7 342.3 344.2 346.4 346.5 347.4 347.5 348.5 351.3 351.4 353.7 357.5 356.8 358.7 361.4 365.9 365.9 365.6 364.8 365.3 368.5 371.4 373.6 373.2 374.4 374.4 375.6 376.9 379.6 382.5 386.9 389 392.4 393.9 396.9 401.7 406 408.7 411.7 420 431 435.5 441.3 452 464.9 473.4 484.7 497.7 507.6 517.4 526.1 533.9 542.2 547.8 555.1 562.8 573.9 579.7 594.2 624.1 643.9 652.6 667.1 672 673.2 643.9 650.9 635 607.9 570.3 530.7 497.7 478.1 468.2 465.9 455.2 451.6 445.9 444.2 438 433.5 427.1 421.9 418.7 412.5 405.7 403 396.6 393 386.2 383.6 376.7 371 366.7 361.9 361.6 359.1 354.3 354.6 351.8 347.8 345.7 344.4 341.2 346.9 340.5 341.2 341.6 343.4 348.7 352.3 355.5 354.3 351.1 354.6 357.7 360.1 363.8 368.3 370.8 373.4 378.8 384.4 389.3 394.9 400.8 407.3 409.7 413.8 414.5 420.6 427.5 435.5 442.4 446.7 451.2 449 450 454.1 459.9 461.9 459.7 460.5 462.7 457.1
173.2 179.9 188.9 203.9 204.1 207.3 211.5 213.9 212.4 212 211.9 213.5 217 220.1 222.4 224.2 230.4 236.2 240 243.7 251.8 261.5 261.8 244.2 248.8 265.9 274.8 281.6 281.5 273.4 270.4 271.9 272.7 273.4 274.6 276.2 279.4 280.3 280.6 282.4 284.1 286.2 290.9 296.4 301.3 302.8 305.7 311.9 319.7 324.6 328.5 331.9 333 333.8 334.7 336.1 336.6 338.1 342.5 342.4 344 346 348.8 349.8 349 350 351.6 351.9 353.8 354.1 359.3 363.5 361.8 362.2 363 367.3 368 367.3 370.5 372.6 372.3 372.4 371.7 371.8 374.2 378.3 381 383 386.7 391 391.5 397.7 396.1 400.3 408.8 416.2 421.8 431.8 442.8 452.3 463.6 473.9 486.9 499.6 510 520.3 527.6 536.7 543.6 551.2 558.7 566.7 576.4 592.9 622.1 642.9 655 666.9 673.8 675.5 667.3 663.2 649.1 630.6 588.1 546.9 522.3 497 488.5 483.9 473 464.4 459.9 455.8 452.4 445.7 438.9 433.7 429.5 424.4 416.6 410.6 406.9 402.6 398.7 391.1 385.7 375.5 370.6 364.2 365.4 363.1 359.2 356 355 354.2 349.5 348.4 348.8 348.5 342.5 341.1 342.8 345.7 351.9 358.2 358.3 356.2 354.2 356.3 358.3 362.7 365.5 368.7 372.4 373.9 378.2 383.8 388.4 393.3 398.8 402 403.9 406.5 416.7 424 429.4 432.2 435.4 440.4 441 440.5 449.5 452.5 455.6 459 457.4 455.8 458.2 456.5
169 173.6 180.3 188.5 196.1 199.7 202.7 205.6 206.1 204.5 204.4 206.4 207.3 215.5 217.7 219.7 224.6 229.6 233.7 239.3 245.9 247.1 240.9 234.1 253.6 265.2 280.5 287.4 286.8 281.5 275.6 272.1 275.1 275.6 276 277 279 282.1 281.6 282.1 283.3 283.8 286.7 291.9 294.1 303.1 306.5 307.7 313.6 320.5 324.5 328.9 330.1 330.7 329.4 328.4 337.4 342.1 342.8 344.4 342.1 345.2 345.2 347.1 348.6 349.1 349.2 350.8 351.4 353.4 356.1 355.4 355.4 357.1 359.3 357.9 358.2 365.2 365 365.7 367.5 368.8 369 367.7 368 369.6 371.3 373 376.2 381.1 383.8 384.9 390.4 395.7 400.7 404.9 411.2 420.7 429.8 445.3 455.8 466 478.3 490.4 501.4 511.6 520.7 528 536.1 543.5 550.9 563.2 579.4 597.8 620 641.9 652.4 659.1 662.9 664.9 664.5 657.7 646.5 631.5 596.5 563.3 543.4 526.1 512.7 513.6 502.9 488.4 475.2 468.4 468.3 463.6 454.6 447.4 447.6 442.6 436.3 431.3 424.9 419.8 411.2 405.6 396.8 380.5 373.4 365.9 367.9 366.2 363.5 359 360.7 360.1 355.1 354 354.2 351.5 347.7 346.9 343.8 351.3 355.7 361.1 359.2 356 355.6 356.3 357.7 362.9 366.3 369.2 372.8 374.2 378.3 382.6 388.7 392 395.1 398.3 404.4 410.4 416 420.9 427.5 432.2 432.7 432.6 435.4 438.7 445.9 449.6 454 452.6 454.5 453.8 458.9 457.1
165.1 166.4 172.2 180.6 187.1 191.2 194.6 198 199.8 198.5 197.3 196.3 196.6 202.8 207 211.1 216.5 224.8 228.9 236.3 237.8 239.5 227.2 238.2 252.1 265.2 286.1 288.1 288.7 287.4 282.6 277.1 277.5 282.3 282.1 280.1 281.6 282.9 284.2 284.2 284.3 285.3 285.3 289.5 291 296.8 302.2 304.5 307.5 314.2 320.7 324.1 324.9 318 327.8 331 337 341.8 345.4 346.1 346.7 348 348.3 348.5 349.2 349.1 347.8 349.5 351.6 351.6 351.5 353.1 351.3 353.8 353.5 354.9 353.3 354.8 356.6 357.3 359.8 362.6 363.1 365 365.7 366.3 367.2 370.7 372.9 376.1 378.5 381.2 384.6 389 393.8 398 406.9 413.3 425.1 435.9 448.6 461.1 473 483.7 494.3 504.2 513.1 522.2 529.6 537.6 546.2 557.5 576.8 597.1 616.9 640 649.9 654.2 655.5 656.4 653.6 649.5 641.8 630 611.1 584.4 559.5 543.2 532.7 537.9 535.8 519.7 505.4 492.3 489 486.9 477 469.1 467.5 469.4 459.1 450.4 444.1 440 427.8 417.4 406.2 392 379.6 372.8 372 370.3 365.5 361.7 363 366.4 365.1 358.8 357.4 356.1 352 348.6 348.1 351.4 355.9 357.3 360 359.2 357.5 356.3 359 361.4 367.3 370.8 373.2 375.5 376.2 379.2 384.3 391.1 397 402.7 408.5 414 417.6 419.3 418.7 425.3 426.2 427.2 428.4 437.4 443 445.5 446.9 448.9 446.4 448.4 454.4 454
162.7 162.7 165.9 173.4 180.6 184.4 187 190.1 193 194 190.2 190.9 187.5 191.8 195.5 202.7 212.3 220.9 227.7 232.5 234.6 227.9 221.3 238.5 251.1 260.5 277.3 289.9 290.4 288.5 287.7 287.2 282 289.6 289.4 286.2 286.9 287.3 286.9 286 287.8 289.1 289 287.9 290.5 292.9 296.1 301.4 305.3 308.1 314.3 310.3 319.8 326.5 327.1 329.8 333.7 338.9 343.3 346 347.8 349.5 349.3 349 348.9 349.5 351.1 349.5 350.3 350.8 351.3 350.8 349.7 350.3 351.3 349.7 352.3 352.6 351.8 352 354.1 355 355.2 359 362.1 365.3 366.4 367.8 371.2 372.3 376.7 378.7 381.7 385.8 391.3 400.6 408.4 417.5 425.1 437.1 448.3 460.1 470.1 481.6 491.9 500.4 509.5 517.1 524.6 531.7 540.1 553.9 574.4 592 613.7 631.5 641 644.8 646.1 645.9 643.9 639.9 633.9 625.3 613.2 598.4 585.2 574.2 558.5 553 552.5 547.3 538.6 531.9 516.7 510.4 505.2 494.7 490.3 486.2 481.8 476.1 463.1 455.7 442.8 433.4 417.6 408.2 395.1 380.7 374.7 374.2 368.5 365.3 366.2 370.4 370.7 365.4 362 359.9 356 351.9 349.4 351.9 356.8 357.8 360 360.2 357.5 357.2 359.7 362.1 365.2 369.5 371.2 376.3 376.1 377.4 385.4 391.3 393.4 399.3 405 409.5 410.9 414.1 412.2 416.7 418.5 418.8 424.4 430.3 440 442.2 444.2 444.2 445 442.6 449.8 450.8
160.9 162.2 163.1 166.3 174 178.6 181.1 183.9 187.3 187.9 183.5 179.2 181.1 182.5 183.7 193.3 207.6 216.2 225.3 229.6 225.1 216.9 224.6 231.2 241.9 252.7 269.7 287.3 295.7 294.6 295.7 295.9 297.7 293.9 295.6 293.6 291.5 291.1 290.4 288.9 290.2 291.9 293.1 292.8 290.9 292.1 295.4 298.7 302 304.1 306.6 313.7 317.2 321.5 326.5 328.4 331.9 334.7 339.9 344.6 348 350.3 350.7 349.6 350.7 349.7 349.7 347.7 348.4 348.8 350 350.7 347.6 346.3 346.3 346.3 346.3 346.3 348 351.1 352.7 353.6 354.2 355 358.4 361 367.2 369.2 372.1 373.5 375.4 378.6 383.7 387.5 392.7 399.1 408.6 417.7 429.5 438 453.1 461.8 473.2 481.9 491.5 500 508.6 516.5 522.7 531.2 540.1 550.2 570.2 594.3 608.3 624.9 630.6 633.9 635.5 635.5 633.4 629.3 624.4 619.7 610.4 602.4 591.9 582.2 575.6 569.2 562.3 558.5 555.3 553.3 547.2 543.7 538.5 536.6 521.1 508 495.5 490 481 468.1 457.9 451.6 439.8 421.8 413.4 400.2 389.1 379.3 376.8 374.9 374.4 374.9 377.7 372.8 367 365.1 362.6 357.5 357.1 353.1 356.6 358.9 361.7 360 358.7 358.3 359.2 363 366.1 367.3 370.1 372.9 378.6 381.1 383.6 383.6 389.6 396.7 401 403.2 406.5 409.7 409.2 412.7 414.4 414.3 420.8 427.5 437.1 439.1 438.9 440.4 440.8 440.6 441.4 450.1
161.6 163 163.7 165 167.9 173.8 176.8 179.5 181.6 181.7 177.1 180.8 185.7 188.6 194.3 187.8 195.8 208.7 218.6 223.7 213.5 215.3 221.5 226.6 233.2 245.9 264.4 281.5 295.5 298.4 300.9 303.2 300.8 296.9 297.7 296.8 294.1 294.2 293.1 292.7 291.9 292.7 294.8 295.1 297 296.1 295 297.2 299.1 303.9 307.3 312.1 317.5 319.7 324 327.9 331.1 332.5 335.7 341.3 345.9 349.6 352.1 352.5 351.3 352.6 351.7 350.6 350 348.5 348.3 346.3 346.3 346.3 346.3 346.3 346.3 346.3 346.3 348.3 349.1 350.9 352.4 352.8 358.5 360.6 368 370.7 377 380.2 381.6 384.2 388.3 394.1 396.1 400.6 410.4 421.1 433.7 447.9 457.3 465.7 475.8 483.8 492 500.2 508.1 514.3 522.4 530.6 539.6 548.8 567.3 592.7 605.7 617.1 621.9 623.9 625.4 625 623.7 620.2 616.9 611.7 605.6 597.2 590.1 588 580.1 578.1 575.7 570.1 564.4 561 562.6 560.6 558.8 556.1 541.5 531.8 513.1 505 495.1 485.8 481.4 472.8 457.4 443 431.6 416.7 403.9 392.3 386.4 380.5 378.8 380.7 382.9 377.8 374.2 370.5 367.2 362.8 362.6 356.7 354.9 361.5 360.8 358.2 357.9 358 357.9 360.6 364.4 365.1 370.6 376.2 384.8 388.8 397.8 403.7 396.6 401.4 398.3 403.2 403.9 403.9 405.8 410.7 412.7 411.9 416.4 424.8 431.3 434.6 432.2 435.6 434.5 435.8 439.9 447
163.3 163.3 165 165.4 166.9 166.5 169.6 172.9 174.5 174.5 175.1 177.5 185.9 190.2 195.9 195.2 191.5 200.8 211.4 204.2 205.7 213.3 221.3 224.7 229.8 242.6 260.4 278.8 289.7 301.7 301.5 302 305 303.3 293.5 291.2 291.2 291.2 293.5 293.3 295.5 295.6 295.6 296.2 297.7 298.1 297.1 298.8 301.4 304.3 308.4 313.7 318.4 322.8 325 327.7 330.1 331.2 334 338 342.2 346.3 351 353.8 354.2 353.5 353.1 351.9 351.2 350.5 351.2 347.4 346.3 346.3 346.3 346.3 346.3 346.3 346.3 347.3 349.3 349.6 350.5 351.1 352.4 356.8 363.5 370 377.8 385.2 390.8 395.9 397.5 402.8 405.5 404.4 407.9 422.8 435.2 451.3 464.6 472.1 479.2 486.9 493.8 502.2 508.8 515.5 522.3 530.4 538.5 549.3 568.1 591.4 602.3 610.2 613.7 614 614.3 615.2 613.4 609.4 606.6 603.9 599 592.8 589.2 587.5 583.5 579.5 578.8 575 569.2 566.2 565.7 563.3 562.6 559.9 556.4 545.3 537 525 514.4 509.3 508.2 499.7 478.8 462 449.1 436.1 419.8 406.6 399.7 391.6 386.5 384.6 387 385.1 381.4 375.7 374.1 368.7 366.8 362.2 357.9 357.3 362.3 360.4 358.8 359.2 359 359.6 363.2 366.3 370.6 379.8 394.8 397.3 400.4 407.5 405.9 401.6 398.8 399.5 399.6 398.2 402.5 404.3 406.5 408 411.8 420.2 425.3 426.8 429.7 432.6 431.8 432.4 434.3 434.6
162.8 163.4 165.6 170.6 171 173.9 177.7 169.6 171.7 172.1 175.7 177.6 182.2 188.8 193.2 198.3 197.2 195.8 198 203.5 209.3 217.6 222.8 225.9 229.6 241 257.8 270.2 281.8 289.5 298.8 296.6 298.4 298.2 291.2 291.2 291.2 291.2 294.1 293.9 297 298.9 296.3 296.9 298.4 299.5 297.9 299.4 302.3 304.4 308.3 316.9 322 325.6 327 329.6 332.6 333.3 334.6 335.8 340.3 343.9 347.3 352.4 355.7 355.4 356.2 355.1 352.3 353.1 353.9 350.2 346.3 346.3 346.3 346.3 346.3 346.3 346.3 346.3 346.7 346.3 348.4 350.5 352.1 355.7 361.6 367.3 377.3 386.3 400.8 408.9 413.3 417.6 418.6 416.2 418 423.1 437.5 453.2 465.8 476.1 484.7 490.4 496.8 503.5 509.3 516.2 522.5 530 538.4 549 567.3 587.2 596.8 602.6 606.1 606.1 604.8 604.7 602.3 599.1 597.8 595.7 593 591.2 588.6 586.8 583.1 581.5 579.4 576.2 572.6 573.3 572.4 567.8 563.9 560.1 560.4 555.1 547.5 543 534.6 524.9 519.7 513.7 504.9 484 469.2 452.6 433.4 417.9 409.5 403.9 398.2 391.8 393.2 393.6 386.5 384.7 380.8 376.1 372.7 369 364.9 360.5 363.3 365.6 365.3 362.3 361.6 362.2 364.7 367.5 373.1 389.8 398.4 400.5 405.3 403.2 401.2 400.6 398.2 398.4 398.2 398.2 398.2 404.4 405.7 408.5 412.6 419.4 420.5 424.9 428.5 431.4 432.1 431.8 435.3 430.9
171.4 164.8 173.9 184.3 187.5 180.5 183.7 177.1 172.1 173.6 175.5 178 184.6 188.1 193.7 197.9 201.4 204.1 204.1 208.2 215.4 221.2 225.3 228.3 230.7 241.6 254.1 263.5 272.8 279.7 292.5 295 293.6 291.2 291.2 291.2 291.2 291.2 291.2 292 295.9 291.2 291.2 296 296.4 296.6 299.7 300.3 301.9 303 308.9 324.4 331.6 336.6 335.4 334.1 335.1 337.1 337.4 337.7 339.7 341.1 346.2 351.2 354.3 357.4 359.8 360 355.4 357.5 355.7 354.5 352.9 348.1 346.5 346.3 346.3 346.3 346.3 346.3 349.9 348.6 348.7 351.3 353.9 360.2 364 368.8 378.3 388.5 402 418.8 425.5 433.5 431.1 430.2 430.5 427.8 438.8 452.5 466.9 476.3 483.4 491.3 499.9 504.4 511 517.3 524.2 531.2 541 554.8 568.2 583.7 591.6 596.8 598.1 597.6 597.6 597.3 597.1 593.7 591.8 590.7 588 586.9 585.2 585 578.6 578.7 575.8 574.9 571.6 572.3 576.7 572.8 567.8 564.2 561.5 559.4 553.3 551.5 544.6 534.8 527.2 522.8 516.4 501.1 488.2 477.9 449.2 433.2 420.6 413.3 409.6 404.4 399.4 399.5 394 394.3 388.8 384.2 380.4 379.5 372.8 371.1 370.2 373.6 373.6 373.3 373.5 366.7 366.8 370.5 385 397.6 406.2 411.3 411.1 402.6 401.2 398.3 398.2 398.2 398.2 398.2 400.7 405.5 405 407.2 411.6 414.2 419.3 425.5 428.8 430.9 432.1 435.8 432.5 428.8
183.8 175.6 179.5 186.2 192.5 189.7 192.8 185.2 173.8 174 175.8 177.7 186.7 194.6 196.4 200.3 207 208.7 209.8 212.9 217.5 222.4 227.6 232 233.7 240.8 249.4 256.4 265.4 275.6 290.9 300 296.2 294.1 291.2 293.1 291.2 291.2 291.2 291.2 291.2 291.2 291.2 291.2 293.1 294.9 297.6 302.2 302.2 303.6 311 325.1 342.6 347 347.7 342.1 339.6 340.8 343 342.1 342.4 344 348.9 353.7 355 359.8 362.8 363.2 364.5 364.4 360.8 362.3 361.4 357 356.1 355.8 355.1 354.7 351.1 350.3 350.8 350.7 350.9 356.7 359.8 366.5 367.5 374.2 385.2 391.7 405.4 421.7 435.1 443 446.2 439.8 439.8 446.8 446.6 450.1 466.7 476.9 486 487.9 494.6 505.3 511.4 517.8 525.8 534.4 543.8 554.6 567.9 580.9 587.2 590 590.9 590.9 592.6 592.7 590.2 586.4 585.1 582.6 582.7 582.7 578.6 574.4 574.5 574.5 572.8 573.6 569.4 570.2 573.1 569.2 567.3 564.9 558 559 555.4 554.6 550.3 547.7 538.3 526.3 522.4 512.3 498 491.7 478.3 455.8 435.4 425.8 419.1 413.3 409.2 405.2 403.1 401.8 397 394.6 388.6 387.8 383.5 377.3 376.3 378.8 378.1 380.6 381.9 375.9 372.5 377.2 397.4 407.4 411.8 411.5 403.4 403.3 403.5 401.7 398.2 398.2 398.2 398.2 407 407.3 407.9 411.2 413.4 421.1 420.1 425 431.7 431.4 434.5 436.8 432.4 428.2
186.6 184.3 177.5 182.1 188.9 193.8 197.7 192.8 176.2 173.9 174 176.9 185 194.1 199 205.3 215.2 219.2 219.5 222.1 219.7 223.6 230.4 234.9 239.5 241.1 246.3 251.2 259 268.6 285 299.1 303.9 307.4 305.6 304.3 299.1 291.2 291.2 291.2 291.2 291.2 291.2 291.2 291.2 294.4 296.4 299.7 302.9 308.4 311.7 322.5 340.5 350.8 358.4 356.4 349 346.2 348 349.6 350.5 352.1 354.8 358.9 360.9 363.2 370.1 375.3 374.6 373.2 372.7 373.9 373.6 372 368.9 370.8 368.4 373.9 364.1 360.8 357.9 356.6 358.8 364.9 364.1 368.4 380.1 387.6 394.3 405.7 411.9 424.6 441.9 451.1 453.8 453.2 448.9 453.9 466.7 468.7 474.8 481 487.9 493.8 501.4 502.5 512.9 518.6 527.4 536.5 545.6 556.9 571.3 578.9 584 585.8 585.6 585.9 585.7 586.1 584.7 579.9 576.4 575.9 576.5 575.6 569.3 569.7 569.7 569.7 570.1 571.1 568.8 571 568.6 565.9 568.3 563.7 560.1 554.8 553.9 552.6 551.9 549.6 546.2 537.7 526.1 519.3 509.7 501.3 487.8 465.7 452 438 429.9 422.6 419 413.7 412.7 410.9 412.2 409 401.2 396.2 392 386.2 384.7 386.3 386.4 390.7 389.3 384.2 378.1 377 388.3 399.6 404.6 403.6 403.7 403 402.4 402.3 402.4 403.5 404.2 405.2 410.9 415.7 416.8 416.9 420.6 425.5 425.7 422.5 428.4 431.9 435.9 434.2 431.4 425.8
194.2 194.3 189.4 186.3 185.8 191.2 197.9 194.3 178.8 176.4 174.3 174.9 183.6 193 199.8 205.9 215.7 226.5 240.8 245.7 233.6 229.2 232.2 236.8 241.5 246.1 245.7 250.2 256.3 264.8 278.3 292.4 301.5 309.3 311.5 309.7 308.9 291.2 291.2 291.2 291.2 291.2 291.2 291.2 291.2 295.8 298.4 300.9 303.9 306.4 308.4 321.4 339.7 351.9 376.2 384 365.1 357.2 354.8 357.7 360.9 362.8 364.7 368.6 371.4 371.2 379 387.2 393.3 395 391.6 391.1 390 390.4 388.3 389.1 389.8 392.3 386 377.5 372.5 369.2 368.8 370.7 371.6 378.9 390.5 396.5 407.1 415.9 426 434.6 450.8 463.2 464 464.8 461.5 466.9 473.5 479.1 483.2 488.1 492.2 498.3 504.3 508.7 513.3 518.5 527.9 539.7 551 561.8 570.1 576.3 580 580.3 581.9 580.7 580.6 579.3 577.6 576 573.4 572.8 574.2 570 564.8 566.7 565.5 566.7 566.5 565.7 567.3 565.5 565.4 564.4 565.5 560.1 559.1 555.6 556.4 556.6 554.3 553.7 549.2 540.4 533 521.9 515.6 505.4 496.3 477.4 460.5 451.2 440.2 433.4 426.1 419.6 418.7 420.1 430.8 424.8 415.8 408.6 402.7 401.3 398.8 395 395.6 400.7 398.2 394.8 388.5 388.4 397.1 400.2 404 412.4 409.2 405.3 404.8 408.1 410.3 412.7 419.6 415.1 418 426.3 425 422 423.5 421.5 422.6 421.7 425.8 432.5 433 430.2 429 425.3
199.2 204.1 205.5 201.6 196.5 188.1 194.6 195.1 182.7 175.6 174.2 175.9 181.2 192.9 200.6 208.9 220.3 247.3 258.2 257.7 252.3 234.2 236.1 238.1 241.9 247.9 248.2 247.8 252.9 260.7 270.6 284.7 293.3 305.3 307.1 309.2 299.2 291.2 291.2 291.2 291.2 291.2 291.2 291.2 291.2 296.6 300.7 302 305.3 307.6 312.9 317.8 341.4 351.6 373.9 382.4 377.7 374.7 368.6 369.3 373.6 378.4 378.8 380 381.4 382.4 390.2 401.1 408.9 419.3 419.7 413.9 415.5 412.6 411.8 412.3 415.7 415.2 403.3 394.5 387.6 384.7 377.5 383.9 386.2 391.8 404.3 409.1 420.9 428.6 438.7 450.4 464.6 475.3 474.5 475 474.3 469.7 477.9 489.1 492.6 494.9 498.6 504.1 508.5 513.5 519.4 524.1 530.9 539.3 549.8 559.2 568.5 572 572.7 572.9 573.7 572.5 570.8 569.9 570.5 570 568.6 567.5 567.6 564.7 561.8 562 560.3 563.4 563.5 564.8 565.7 564 563.2 566 566.6 566.9 571.1 570.6 564.1 558 556.1 559.3 553 542.2 536 530.8 523.8 509.3 500 492.1 471.4 459.9 447.7 441.9 437.2 431.6 425 422.9 425.2 421.3 422.2 418.2 417.7 416.2 413.2 409.8 412 412.1 405.5 399.1 399 403.5 407.4 405.7 415.3 419.3 418.3 424.1 426.6 427 433.9 436.1 438.1 432.9 429.7 439.3 436 425.7 422.4 424.3 429.8 434.3 434.3 429 429.4 432 430.1 426.7
205.6 205.7 208.1 208.2 201.8 188.3 192.7 195.3 186.7 177.6 175.5 176.2 180.6 191.1 201.5 211 232.5 251.8 261.3 262.1 258.3 254.3 239.9 238.6 241.2 246.3 249.8 251.1 252.8 257.2 268.1 276.7 285.9 296 301.7 302.1 291.2 291.2 291.2 291.2 291.2 291.2 291.2 291.2 291.2 296.1 300.8 301.8 305.1 309.2 316.9 317.8 335.5 349.2 367.2 377.7 389.4 384.5 382.6 383 387.8 393.3 394.8 397 400.2 404 407.8 415 435 433.9 437.9 437.4 441.4 452.1 439.5 434.6 436.6 433.5 424 414.8 409.1 401.3 399.2 397.7 400.3 408.7 421.5 426.2 434.7 444.8 455.6 470.8 488.5 487.3 487.6 484.7 480.5 475.6 481.2 492.3 499.4 502.7 505 509.3 513.4 518.7 523.2 529.8 536.2 543.8 548.2 556.4 563.5 567.9 567.9 566.5 566.1 565.9 564.2 565.8 564.6 563.7 563.6 563 560.9 559.4 557.5 558 557.4 558.4 558.9 559.2 558.3 560.8 559.7 562 565.4 568.7 570.7 570.4 562.8 560 557.4 556.4 552.9 545 537 532.7 526.3 520.6 505.8 497.1 477.5 465.8 456.7 447.9 445.5 439.7 433.5 425.9 422.5 422.4 426.8 427.6 427.3 428.6 426.3 424.1 425.8 421.9 413.4 404.5 409.5 415.2 421.8 426.3 438.7 443.5 445.1 445.7 451.2 449.9 456.9 453.1 446.5 450.4 449.4 446.5 443.4 442.3 439 438.9 435.8 434.1 431.4 430.2 431.7 436.4 434.1 428.1
