ncols 200
nrows 82
xllcorner 240000
yllcorner 885250
cellsize 50
256.8 251.3 255.3 259.1 254.4 253.2 259.9 271 279.8 296.1 313 326.7 350.5 378.8 411.9 432.5 445.6 449 446.7 440.1 433.3 429.2 411.4 384 369.9 353 334.9 314.1 300.5 294 279.3 271.1 264 257.1 247.4 242.1 234.6 229.9 226.9 225.1 224.4 222.9 221.6 220.2 215.7 216.5 215.8 216 215.8 214.6 214.6 213.6 213.5 214 213.3 215.7 218.9 220 221.8 222.5 225.9 232.2 232.9 230.7 228.2 225.7 222.6 220.3 223 225.4 223.9 217.8 208.4 203.7 209.8 210.3 207.4 210.2 210.1 202.6 194.5 187.9 181.6 178.1 177.6 173.1 165.7 168.3 168.3 168.1 167.9 168 166.5 159.3 160.2 163.2 161.5 163.4 167.6 173.3 176.7 180 184.3 187.3 189 193 194.3 193.3 195.7 198.7 195.3 194.6 192.4 191.2 190.8 190.5 182 172.4 163.2 154.6 148.2 146.9 146.9 146.8 146.4 146.9 147.8 146.3 141.2 139.3 136.6 133.4 129.8 126.2 124.7 120.6 115.6 115.4 115.2 111.3 103.8 116 122.3 128.6 136.3 143.7 150.4 157.3 163.4 166.7 169.6 172.6 175.1 179.1 179.5 179.3 179.4 174.8 170.2 173.9 165.2 161 163.5 169.5 168 168.5 174.2 175.7 177.7 181.9 184.4 187.7 192.2 196.9 201.9 209.6 218.3 227.8 234.8 242.7 252.3 260.1 273.7 285.5 289.2 287.9 279.6 272 269 265.8 265.8 260.7 253 240.1 237.3 233.9 223.2 214.3 210.5 206.5
258.6 251.8 258 261.1 256 250.4 254.9 266.9 274.2 282.7 293.2 311.7 327.3 355.6 384.7 402 411.1 413.4 410.7 405.6 397.6 394.4 380.9 356 338.2 324.9 304.7 288.5 277.7 273.3 259.8 251.3 243.9 241.9 234.4 230.2 226.1 223.8 223.2 221 219.9 219.5 218.7 216.9 217 217.7 216.9 216.6 216.5 216.6 217.3 215.9 217.5 217.4 220.4 221.5 222.8 224.7 227.9 230.5 237.6 243.8 244.5 244.7 249.5 253.2 249.3 242.1 238 234.8 230.2 222.5 214.3 210.9 221.8 225.5 220.6 221.8 224.4 216.9 201.5 193.3 188.9 182.7 176.2 170.1 174 174.3 172.8 170.9 169.8 168.6 165.5 162.8 160 151.2 156.6 158.1 160.2 165.2 168.3 172.1 177.4 181.4 184.3 185.5 187.2 185.1 185.3 188.1 188.6 188.9 188.2 187.8 187.2 187.3 176.1 163.8 155.2 147.3 143.9 143.7 143.7 143.7 143.9 143.6 143 139.7 137.1 136.3 135 130.7 127.1 124.7 123.6 116.5 116.1 114.6 114.3 108.2 112.5 127.2 134.2 141.1 145.9 154.1 157.4 161.8 168.2 171.7 175 178.1 179.7 182.2 182.7 183.8 183.3 180 179.3 183.1 174 164.1 162.8 168.3 174.3 174.3 178.5 181.2 183.6 187.3 191.5 196.4 204.5 210 215.6 221.6 231.5 240.9 252.2 267.2 280.5 288 296.9 304.5 303.5 304.6 296.3 283.9 276.4 267 261.5 255.7 248.9 246.8 246.6 237.4 229.6 223.7 221.9 217.5
262.2 257.6 250 249.2 258.9 249.1 250.5 260.4 266 271.1 280.3 294 306.6 330 353.4 368.7 377.3 378.3 379.3 378.3 358.8 346.5 344 326.1 305.6 293.3 278.1 261.7 255.4 249.9 249.4 244.8 232.6 230.8 226.5 225.5 224.1 223.1 220.7 219.1 218.8 217.6 217.6 218.3 220.3 220.2 221.3 222.9 231.5 226.7 224.2 221.4 224.3 224.7 225.1 227.2 228.5 229.5 235.4 238.5 245 251.4 258.2 264 274.6 280.9 277.5 271 260.4 252.9 243.4 231.6 222.6 218.1 226.5 236.5 226.3 223.5 225.5 218.2 200.8 199.6 203 179.2 182 192.2 189.4 184.5 182.2 180.4 174.7 169.4 165.4 162.1 160.6 159.1 146.8 155.3 156.8 159 162 165.5 169.3 173.3 176 177.3 178.5 178.8 180.4 181.2 184.1 184.4 184.6 184.2 179.8 176.5 167 158.1 150.1 144 139.3 139.9 140.6 140.5 140.7 139.4 136.7 133.6 132.5 132.2 130.6 128.1 125.8 123.3 119.5 116.2 116.9 114 109.1 105.8 123.4 135 142.1 147.5 151.5 160.8 164.8 166.5 171.8 176.8 181 184.2 184.7 186 186.6 189.2 189.4 190.1 189 187.5 185.5 175.1 166.5 167.3 174.8 178.9 181.8 190.3 192.4 193.7 200.3 212.4 223.6 230.2 232.6 237.2 247.3 257.6 277.3 299.9 304.2 307 314.2 314.3 315.2 311.6 308.6 299.1 285.6 275.3 268 259.7 251.7 253.1 251.3 239.5 234 237.5 231.9 229.1
269.3 262.2 255.8 247.5 253.2 251.7 247 258.8 261.8 266.6 272.4 280.9 290.5 308 324.6 335.2 343 347 350.9 340.2 318.7 310.1 301.5 287.8 276.4 266.9 255 244.8 239.6 236.4 234.8 236.3 227.2 229.2 223.3 223.9 222.2 220.4 220.3 219.3 219.3 218.2 218.8 220.1 223.1 231 229.4 235.4 238.6 237.7 237.4 237 240.4 240.5 235.8 234.5 237.2 239.2 245.3 249.3 255 265.9 270.7 287 298.2 301.3 302.2 297.1 287.1 272.6 253.7 240.5 234.6 233 233.2 241.6 232 222.4 219.7 214.4 202.3 195 179.8 182.1 203.2 217.4 214.2 207.8 196.4 192.4 185.8 173.6 168 162.6 159.2 159.1 157 145.3 153.3 153.8 156.6 158.4 160.8 163.1 165.7 168.3 170.7 170.3 171.1 172.9 177.1 176 177 176.8 174.2 167 160.8 152.7 146.4 140.3 136.1 135.4 133.9 133.9 133.3 132.4 130.8 130.1 129.3 128.8 128.2 126.2 111.4 110.5 109.6 114.8 113.9 110.8 108.6 114.7 133.2 139.9 147.8 154.1 160.5 166.7 171.6 174.5 178.7 183.7 187.5 191.2 191.3 191.1 191.8 196.8 197.4 195.8 194.8 193.3 191.5 188.2 175 168.7 178.7 183.4 189 193 197 201.6 212.7 224.7 239.5 247.9 247.7 254.1 266.6 281.8 303.5 317.9 324.9 324.4 325.9 329.5 320.3 318.2 319.4 311 296.9 286.1 276.6 263.1 259.3 261.3 257.3 246.1 251.3 250.1 242.6 236.9
265.3 257.7 254.6 246.2 245.5 251.7 246.5 247.5 258.2 263.9 269.3 273.7 281 288.9 301.3 316.9 318.3 320.6 317.8 305.9 290.1 278 270 261.9 253.7 246.5 240.9 236.9 232.2 229.8 225.2 224.8 224.5 223.1 220.8 220.8 220.5 220 220.3 220 222.8 222.8 225 229.7 235.5 234.8 237.3 243 244.3 247.5 256.4 259.6 266.1 275.5 269 249.1 251 256.1 260.9 264.8 271.3 280.8 288.8 305.5 316.7 319.4 317.2 310.8 299 282.9 266.3 252.2 243.9 246 243.5 237.9 231.8 222.6 213.5 210.2 186.4 185.8 199.6 214.5 227.3 237.8 238.8 233.3 224.4 210.4 196.8 183.8 175.1 168.4 160.6 158.4 157.7 155 149 150.1 150.2 152.4 153.4 154.5 158 159.1 162.1 163.9 162.1 165.1 167.1 168.9 169.4 165.8 163.3 159.6 155.4 148.2 141.7 136.7 134.8 133.6 133 132.6 132.2 131.5 131.5 130.8 128.6 123.3 116.7 119.3 119.9 119.1 115 110.2 113.5 114.5 115 129.4 139.1 144.8 154.1 161.8 166 171.1 176 180.4 185.9 189.8 193.4 196.8 198 197.6 198.8 203.4 203.5 202.5 200.5 199.3 198.1 193.7 187.5 166.7 183.2 187.8 192.2 197 205.5 210.7 221.9 236.4 246.3 261.2 266.8 273.8 290 311.8 327.8 338.8 345.8 343.8 340.8 338.5 331.8 323.7 318.3 314.6 303.7 293.7 282.8 271.1 268 263.4 259.8 262.3 263 256.9 250.7 244.1
267.2 259.2 255.8 252.6 244.3 244.4 247.6 242.6 255.7 259 263 266.7 270.6 274.9 285.3 294.8 291.3 293.9 281.2 274.8 259.8 254.9 252.1 247 241.4 236.3 233.6 226.6 226 223.8 222.8 222.9 221.5 222 220.9 221.6 222.6 222.2 222.9 223.9 225.5 229.7 232 239.1 246.8 251.5 256.1 259.9 266.5 275.1 281.9 292.1 303 308.2 299.2 276.5 278.3 275.6 280.5 285.8 293.5 302.3 315.1 328.9 333.3 330.5 319.7 308.9 297 287.9 280.9 267.3 253.3 247.8 245.9 235 223.2 213.1 191.4 180 190.4 209.8 232.7 247 258.7 262.9 260.2 255.5 253.9 243.2 220.5 202.2 191.8 182 166.9 160 156.8 156 144.7 148.4 148.5 140.5 141.2 147.2 150.8 154 155 154.1 153.6 156.1 156.9 157.3 156.6 153.5 151.3 148.6 145.8 142.7 137.9 136 135.3 134.6 134 133.5 131.5 130.6 130.1 125.8 123.2 116.4 119.4 119.7 119.4 117.1 113.6 115.4 115.4 115.4 122.8 141.6 145.5 153.6 160.2 167.9 171.6 176.8 181.7 187.1 192.2 196.3 199.6 203.5 206.2 207.1 210.8 210.7 208.1 206.4 204.4 203.8 206.3 201.1 195.4 167.1 187 195.1 198.7 204.9 212.9 221.4 231.8 245.5 257.7 272.3 285.5 297.3 312.6 335.5 350.3 356.9 362.1 361.7 359.8 353.3 344.9 330.3 322.4 317.3 309.7 297.8 287.2 280.7 272.8 268.3 269.8 269.1 264.5 258.7 254.3 251
265.8 259.9 257.1 251.7 248.6 242.1 245.9 241.6 246.6 252.6 254 258.9 257.5 262.1 267.8 272.7 272.2 270.3 264.3 252.4 242.9 241 238.5 235.4 235.3 230.3 229.6 225.2 224.5 223.9 222.9 222.3 222.3 221.5 221.8 224.3 223.3 227.6 227 229.6 237.2 245 244.2 253.8 265.3 274.4 279 280.4 289.9 302 314.5 322.3 327.7 326.7 324 317.8 315 298 303.3 311.9 319.8 336.9 345.5 344.8 340 330.1 318.3 307 293.2 283.6 288.7 273.4 255.6 243.2 238.3 229.9 207.6 181.6 190.9 199.1 215.2 237.1 254.7 265.6 274.2 282.8 284.3 283.7 273.7 267.8 237.9 222.4 217.2 207.1 183.4 168 161.9 156.3 153.2 146.1 142.4 146.9 146 146.5 144.3 136 142.8 147.4 147.1 149.3 148.6 148.9 147.9 146.4 145.5 144.3 141.7 139.2 137.3 135.8 135.1 134.1 133.7 132.2 130.4 128.5 126.2 123.7 116 120.2 119.8 120.4 120.6 119.9 115.1 116.8 116.5 120.9 134.7 141.3 151.4 160.5 166.6 173.2 177.4 182.7 188.4 193.9 199.2 203.3 207.7 211.8 215.5 218.7 217.5 214.3 212.8 213.6 216.3 221 217.5 208.9 200.2 181.8 190.3 200.5 208.7 216.2 222.7 232.4 242.2 255.3 267.5 283.2 301.4 316.8 332 353.9 368.4 375.5 379.8 378 378 373.6 364.5 351.5 337.5 330.8 322 309 297.1 288.8 282.6 280.5 278.9 276.8 271 265.3 258.8 253.5
265.3 258.4 253.4 248.2 242.2 241.5 242.1 240.2 241.8 244 243 246.5 248.3 245.7 247.6 253.7 257.6 256.2 251.2 247.3 240 234.6 231.2 227.4 229.2 226.7 226.9 225.2 224.3 223.5 223 223 222.5 222.9 225.6 227.3 227.9 231.1 236.8 243.4 252.2 259.8 263 272.4 286 298.7 305.1 310.3 319.2 334 349 357.9 357 340.9 345 347.2 330.9 317.1 323.4 335.8 336.9 349.2 348.1 343.5 332.3 323.6 314.1 305.3 287.6 269.6 270.1 265.9 251.8 237.6 226.5 218.7 192.5 202.9 211.8 216.7 232.3 250.8 266.3 276.5 284.2 291.4 300.5 306.9 293 282.2 267.8 256.1 249.4 235.4 197.7 179.8 169.9 162.7 156 152.6 151.6 151.4 150.9 149.8 148.6 144 143.9 138.6 132.4 141.2 142.7 142.5 142.3 142.4 143.9 143.2 141.5 138.7 136.7 135.4 134.3 133.4 132.7 130.5 128 126.3 116 122.5 123.5 123.1 122.2 122.1 121.6 121.1 119.1 114.8 121.8 136.2 151 155.2 158 166.5 171.1 177.3 182.9 188.7 194.5 200.2 205.8 210.4 214.3 218.8 222.2 222.5 219.2 222.5 223.6 225.4 231.8 234.7 226.8 214.1 201.5 189.2 175.9 204.7 218.8 229.9 239.6 245.9 253.8 266.7 278.6 296.6 312.3 327.1 343.7 357.9 374.1 382.2 388 391 394.6 388.1 380 368.1 353.9 343 332.6 325.4 314.8 307 300.7 295.8 286.9 280.2 275.7 272.6 272.1 269.5
263.3 253.8 247.7 244.5 241 239.7 238.4 238.6 239 237.9 235.9 239.2 235.8 235.2 233.7 235.5 239.7 241.9 241.8 241.7 241 234.6 229.5 228 226.4 224.2 225.4 225.3 223.8 223.8 223.5 223.5 223.6 226.2 230.6 236 237.4 242.6 250.5 260.3 269.1 277.2 281.7 293.7 308.1 321.3 332.5 346.8 354.6 365.6 376.6 379.8 369.3 367.6 362.5 363.2 350 334.9 340.7 350.2 341.1 337.3 335.9 332.9 324.1 317.5 310.6 298.3 279.5 259.1 249.3 245.6 239.5 227.8 216.5 201.2 185.9 215.6 229.7 232.8 246.6 262.5 275.9 285.4 291.5 298.7 307.6 313 313.9 306.7 288.7 285.1 271.3 230.3 204.6 190.2 180.1 172 162.8 156.6 153 151.3 150.8 149.6 148.7 147.7 143.7 142.8 142.2 138.8 137.1 133.2 129.9 137.7 139.5 140.1 140 137.1 135.8 134.8 133.7 132.2 130.6 127.9 117 125.4 127.1 126.9 126.6 127.6 125.2 123.7 125.2 122.3 121.8 120.1 138.7 149.3 156.6 162.2 162.8 170.5 175.5 180.7 187.8 194.3 200.1 205.9 210.6 215.5 219.9 223.8 226.2 230.1 233.4 236 236.3 237.2 241.1 233.2 223.2 213.4 206.1 196 176.9 206.4 226.7 240.1 253.9 258.2 265.9 278.2 291.6 306.1 325.6 338.3 353.4 367 373.9 382 390.6 397.5 399.3 400 394 379.9 366.1 356 350.6 343.5 336.1 333 324.4 312.9 301.7 289.7 284.4 284.4 287.9 294.8
252 251.3 245 242.2 240.9 239.8 238 236.4 236 235.3 235.1 234 233.1 233.1 232.4 232.2 231.4 231.6 233.4 233.2 230.2 229.8 229.1 227 226.3 225.7 225.6 224.5 224.7 224.5 224.1 223.6 226.9 236.1 241.8 246.2 251.5 259.2 269.3 278.6 287.7 297.2 308.7 323.9 340.1 353.6 365.2 379.6 385.3 388.6 390.6 389.1 388 387.3 383.8 376.6 365.2 352.2 349 349.8 335.8 326.3 323.9 323.3 317.7 310.8 301.7 285 266.1 247 237.2 231.6 221.9 219.1 207.4 192.6 209.3 232.4 241.5 250.4 262.6 273.9 285 291.3 296.1 307.7 317.3 323.2 321.7 317.4 298.8 285 275.6 231.9 213.6 201.4 191.2 183.6 175.6 165.2 158.6 153 150.7 149.4 148.4 147.6 146.5 146 145.2 144.5 144 143.1 140.6 139.1 138 130.1 127.5 127.4 129.5 130.9 130.2 129.2 118.2 126.2 130.2 132 131.9 131.5 131.3 129.8 128.5 128.3 129 127.6 121.8 135.8 145.6 156.2 159.4 165.5 165.9 172.3 178.6 184.4 191.3 198.4 204.7 211.9 216.1 220.4 226.8 233.3 240.8 247 245.3 244.9 246.5 246.2 239.8 229.7 224 218.4 213.4 206.7 192.9 205.8 233.3 250.9 264.4 270.8 279.7 296.2 310.4 318.7 336.9 350.3 358.7 368.7 376.7 381.8 387.6 394.1 402.7 406.8 401.6 387.2 385.3 385 375.8 369.7 369.6 361.7 350 338.6 329 313.9 314.9 312.3 310.5 306.7
245.8 244.7 244.2 243.4 241.3 239.7 238.6 237.9 236.8 236 234.2 234 233.8 233.5 232.9 232.1 231.7 230.9 230.3 230.2 230 228.7 228.1 227.2 226.8 226.3 225.4 224.6 225.4 225.8 226.3 232.9 240.3 248.7 251.8 260.6 268.7 278.6 289.2 299.4 313.8 325.9 338.5 355.7 372.9 385.2 393 396.7 395.9 394.3 392.6 388.6 382.3 379 376.3 372 365.9 362 354.2 343.1 328 316.3 311.9 307.9 298.2 289.3 279.8 266.3 250.2 235.5 225.2 221 205.5 203.4 189 198.9 225.5 250.2 260.2 263.6 277.5 285.7 292.6 300.1 307.1 315.6 319 323.5 320.2 314.7 305.8 285.1 259 236.9 219.2 211.5 203.7 193 183.5 168.1 154.9 155.6 152.6 150 149 147.7 147.5 146.4 145.4 143.9 143.5 142.5 142.1 141 138.2 139.1 137.7 131.5 133.4 128.8 128.7 129.2 130.7 135.8 137.7 138 136.3 136.1 134.9 133.3 130.1 130 129.9 128.4 139.3 151.6 148.9 160.3 162.3 166.8 169.8 177.1 183.1 188.5 195.8 203.2 210.4 217.8 223.6 229.3 236.1 244 251.6 255.1 253.6 251.9 250.8 248.1 242.1 235.5 231 228.8 222.9 216.2 210.3 184.5 238.5 257.9 271 281.5 289.3 309.5 320.1 332.1 341 355.3 366.1 375.8 384.3 391.5 394.5 397.3 406.3 414.6 415.5 418.4 416.3 409.6 399.4 392.8 385.8 376 362.8 354 345 338 332 318.6 315.1 317.5
244.6 242.9 242.1 241.2 240.5 238.9 238.5 238 237.1 236.4 236.3 235.5 234.8 234.3 233.5 232 232.6 231.5 230.4 230.2 229.9 228.7 228.3 226.9 228.2 227.5 229.5 228.3 228.8 230.9 234.4 243.6 252.2 261.2 266.9 278.2 288.3 298.1 309 322.8 337.3 352.7 367.9 380.2 391 397.9 399 398.2 396.2 392.5 388 381.8 372.9 365.7 357.4 350.3 344.1 336.7 330.6 326.4 316 300 292.9 284.4 273.6 263.5 256.4 246.7 235.9 223.4 211.8 203.5 193.7 194.2 213.6 231.3 248 264.2 276.2 285.2 286.4 298.1 299.1 307.6 316.4 318.2 317.1 318 317 310.2 301.5 286.7 266.2 241.1 220.1 209.8 200.4 190.5 178.4 169.6 165.5 163.1 160.5 157.2 154.1 154 153 151.4 150.4 147.7 145.7 143.8 141.8 138.5 140.3 139.6 138.7 137.4 136.6 133.3 134.6 135.8 140.1 144.2 146.5 149.9 147 148.5 146.9 142.1 133.7 131.4 130.2 129.6 151.8 158.3 159 160.7 164.7 169.1 174.2 179.5 185.2 192.7 200.8 208.8 216.4 223.9 231.4 238.4 245 252.9 261.2 262 258.4 256.6 258 255.4 250.6 243.6 242.1 238 231 221.8 214.3 190.2 236.8 260.5 274.9 284.9 302.2 317.5 328 334.8 347.9 361.2 371.8 384.8 393.8 400.8 407.7 413.9 426 435.3 435.7 435.8 431 421.3 415.4 407.9 398 383.8 376.6 374 369.8 363.7 355.6 327.1 338.8 337.3
244.2 243.1 242.6 241.8 241 239.8 238.9 238.2 237.9 238.7 237.9 236.7 235.8 235 234.3 232.8 232.4 231.3 230.3 229.8 229.2 229.7 228 237.1 237.3 240.5 237.2 236 239.8 240.8 245.9 257.7 267.5 278.2 287.5 298.2 309 320.6 334.1 348.3 364.1 378.9 389 393.2 396.4 398.6 399 397.7 395.3 389.2 381.2 373.8 361.9 351.7 342 333.5 323.7 314.6 307.7 302.5 292.5 280.5 267.8 259.6 249.7 240.5 234 230.6 221.8 207.6 198 201.5 195.1 212.1 232.5 249.9 262.6 271.6 285.6 297 301 310.2 317.9 307.4 314.3 315.4 308.8 303.7 307 305.5 299.4 288.8 272.8 243.1 218.5 203.5 194.6 186.6 181.7 172.6 175.8 174.2 178 177.2 172.2 169.7 167 163.7 160.6 156.2 151 146.6 143.8 141.9 141.4 140.6 139.8 139.7 138.5 140.8 145.8 151.3 161.2 166.6 166.3 157.4 152.6 153.8 150.7 149.2 139.2 134.6 124.6 145.2 160.5 162.1 163.1 162.8 166.1 171 176.9 182.1 188.2 198.2 207.5 216.4 223.4 230.5 237.9 244.9 252.5 260.8 265 263.5 259.7 271 270.6 268.6 268.2 261.5 254.2 245.2 235.4 226.7 212.6 206.5 235.1 259.7 276.6 291.6 308.7 327.1 338.3 345.1 353.9 371 384.3 396.8 405.4 412.2 421.8 437.8 445.4 450.9 449 445.7 434.5 430 423.1 407 395 393.1 392.5 393.8 384.1 383.3 374.7 371.6 369 366.6
243.9 243.3 242.8 242.1 241.2 239.5 239.9 239.5 238.8 237.9 237.3 235.9 235.4 234.2 233.3 233.3 232.6 231.7 230.6 232.8 236.4 237.1 239.9 242.8 244.3 244.5 243.5 244.2 247.5 253.5 262.4 275.6 285.6 296.5 309.1 318.7 331.3 344.9 361.3 375 388 397.2 400.2 399.7 400.9 402.5 401.2 397.9 391.1 382.4 372.1 360 349.4 338 329.2 316.5 306.9 298.3 290.6 280.8 270.7 260.4 247.7 238.1 229.1 220.4 213.8 211.2 206.8 196.9 193.3 198.9 205 223.7 241.7 255.5 269.8 281.7 292.2 307.3 309.8 317.5 316.4 308.3 306.3 310.7 302 293 291.4 293.1 295.3 287 264.6 242.2 220.2 204.2 196.4 193.9 185.2 182.2 184.7 188.8 198.4 202.2 197.3 191.5 187 183.3 178.8 173.5 163.8 154.8 152.2 150.4 149.6 149.5 146.4 151.4 148 150.1 162.4 169.1 174.7 174.9 174.4 172.7 165.4 166.7 161.3 152.5 143.1 136.3 131.8 140.1 160.7 164.7 164.8 165.2 169.9 174.7 181.5 188.9 198.6 207.8 215.2 223.1 230.4 237.4 244.3 251.1 257.6 264.4 267.7 267.1 274.2 283.1 284.2 281.6 279.5 273.6 264.1 249.8 239 230.1 210.5 213.2 233.1 258.6 278.6 299.8 319 336.8 349.2 354.8 367.3 379.2 394.7 405 409.5 420.5 433.9 445.4 448.7 451.3 450.1 438 431.4 432.2 413.5 403 394.1 393.4 391.5 387.8 379.4 376.6 380.1 383.8 385.2 388.9
244.8 244.5 245 248.6 249.7 245.9 245.9 243.1 242 240.6 239.3 238.7 237.8 237.4 235.9 245.3 233.9 232.4 233 235.9 240.3 242.6 245.3 248.4 251.7 251.3 250.2 252.5 256.8 270.1 282.3 295.2 305.5 316.6 331.9 346.5 361.5 381.1 402.2 410.7 413.1 415.7 414.7 414.9 413.2 408.8 403 396.1 386.9 376.1 361.9 348.5 333.7 321.7 310.6 295 286.2 279.5 269.6 259.5 247.2 236.2 228.4 220.6 215.2 209.8 207.6 202.8 198.8 194 197.1 202.7 215 230.4 245.3 259.2 272.8 290.3 304 314.2 322.3 329.1 328.2 322.1 315.6 308.6 306.1 285.3 276.4 275.8 278.5 269.9 252.4 236.3 220.3 205.6 200.3 194.8 196.3 199.3 205.4 210.8 212.3 215.1 215.3 214.2 213.8 209.2 195.8 184.6 179.6 172 167.9 166.2 164.2 164.9 166.8 164.2 165.7 172.4 175.4 178.7 181.8 182.7 182.3 181.7 178.2 174.9 162.1 153.3 143.4 138.4 136.6 131.2 146 167.4 168.4 170.4 174.6 181.8 188.9 197 205.9 214.2 220.9 228.9 236.6 243.4 250.2 256.9 263 268.9 273 278.5 286.9 292.1 293.8 290.9 288.1 281.9 271.2 255.2 240.1 233.1 214.5 207.4 228.6 256.6 282.4 305.4 326.4 343.2 357.8 369 383 390.6 395.6 400.5 411 422.2 431.6 440.8 442.3 436.4 432.1 423.4 414.4 413.9 410.4 401.9 390.2 387.4 386.4 389.6 383.9 382.2 388.3 394.5 394.6 396.7
252.1 258.5 260.1 265.7 268.5 264.7 264.4 261.3 260.4 254.5 251.1 248.2 245.5 242.8 243.8 250.5 240.6 243.2 240.6 242.7 246.4 248.1 250.3 256.2 260.1 259.7 261.6 266.3 274.3 289.3 304.2 316.5 327.9 342 362.1 380.3 401.7 415.6 435.8 440.3 435.8 430.9 430.7 426.8 420.3 411.6 402.3 392.4 379.1 366.4 352.5 338.6 320.7 306.8 295.3 280.3 269.9 260.7 251.4 238.2 224.2 217.6 214.2 212.4 208.9 203.6 200.7 196.1 196.4 200 204.7 211.4 223.4 238.3 249.6 260.7 271.9 286.8 303.3 316.2 327.4 327.8 321.9 319.8 317.1 310.9 304.2 283 266.1 262.9 258.6 256.8 251.8 235.8 219 209.2 201.3 207 215.9 214.5 220.6 227.4 233.4 239.1 243.5 243.6 250.3 247.9 225.2 202.9 197.1 187.5 182.4 179 178.5 180 182.9 181.5 176 180.6 186.7 189.3 186.7 189 188.6 186.1 179.9 173.4 164.6 154.1 144.8 140.6 137 131.3 143.1 166 171.9 174.5 179 186.6 194.9 204.1 214.1 220.4 226.7 234.1 241.5 248.4 254.6 261.6 268.9 275.6 282.1 288 293.7 297.3 300.1 299 294.3 287.9 275.6 259.1 246 234.2 221.5 200.3 227.1 253.8 283.7 306.7 329.6 347.7 366.3 378.5 387.1 395.1 398.8 406 417.4 421.6 415.7 419.3 429.6 414.9 410.4 409.9 410 410.9 406.6 401.5 396.5 389.2 389.3 390.5 388.1 383.8 390.6 395.1 395.5 394.9
270 278.3 284.9 291.8 302.1 306.7 310.1 306.4 293 289.4 277.3 265.6 259.4 257.2 253.7 251.7 249.4 254.3 249.9 252.1 256.7 256.2 258.4 263.6 268.5 276 276.4 286.3 298.2 311.5 327 341.8 357.2 373.6 392.2 411.1 430.9 450.8 460.3 459 454.8 446 438 432.1 421.8 411.3 399.3 383.9 372.6 357.9 345.3 331.6 314.4 299.2 283.1 273.7 264.5 250.2 237 227 222.9 221.3 215 206.8 203.4 200.5 197.5 194.5 199.4 200.9 211 219.4 231.4 246.8 256.8 264.3 270.9 281.3 292.6 302 315.3 322.9 313.9 302.3 296.9 297 293.9 273.5 265.1 257.3 251.4 247.4 241.5 230.2 216.7 210.6 220.4 226.8 229.8 233.5 240 247.3 257.4 270.3 275.5 274.9 264.6 259.4 246.1 230 219.1 207.1 196.4 193.9 189.8 186.2 186 186.2 186.5 191.9 197.2 196.2 196.7 194.4 190 185.8 183.2 180.9 164 155.7 150 143 136.5 135.7 158.4 171.6 174.3 178.1 183.8 191.4 200.3 212.5 221.3 225.9 231.1 239 247 253.9 261.6 268.7 276.8 291 295.9 300.2 304.1 306.6 307.6 306.9 300.8 292.5 279.1 265.5 254.4 240.7 225.4 210.1 225.1 254.4 281.9 306.6 329.6 350.2 371.4 379.9 386 395.5 397 396.4 399.2 399.9 397.8 398.1 402.4 400.5 403.3 406 401.8 400.9 402.7 401 395.5 393.8 395.9 398.8 384.7 383 387.8 392.9 395.3 395.6
292.3 303.1 313.6 324.3 337 351.5 365.1 356.8 346.2 332.2 320.1 306.2 283.9 276.7 269.1 262.2 261 264.2 266.8 264.5 267 266 268.6 271.3 279.7 288.1 298 310.1 321 336.3 358.3 380.1 390.5 408.1 426.6 444.9 461.6 474.2 471.7 466.6 458 450.3 442.1 432.1 420.1 407.1 392 378.2 362.7 349 334.6 324.3 312.6 293.6 276.8 265.3 252.1 240.6 236.1 229.4 226.5 222.7 211 205.2 201.3 197.8 195.4 198.7 202.2 207.3 218.5 231 241.8 253.3 263.6 272.1 275.2 281.1 287.4 292.1 294.4 299.5 296.2 288.5 283.9 282.7 280.9 275.5 271.7 258.7 248.6 239.8 232.9 224.6 213 226.6 228.9 234.5 240 246.1 256.3 267.2 280 286.7 286.6 280.9 275 278.2 270.5 261.4 240.2 225.6 211.3 204.6 202.3 199.6 190.7 189.8 192.8 200.2 201.2 202 197.9 195.1 191.1 187.2 182.6 173.6 161.6 156 146.6 139.1 134.9 156 167.5 174.2 177.4 181.2 187.9 197.7 208.1 217.6 224.3 230.3 235.6 244.6 253.5 260.9 270.8 281.1 294.4 305 306.6 309.4 316.4 318.1 319.2 314.7 306.9 296.8 282.8 273.1 262 246.5 230.5 212.1 225.4 249.3 280.1 306.3 330.4 351.9 369.9 376.7 384.1 390.1 398.9 397.9 393.7 386.3 386.4 389.1 395.6 387.9 387.8 392.1 390.5 390.1 390.7 388.8 391 389.6 393.1 394.7 380.5 378.1 382.5 387.6 394.1 397.8
315.1 330 345.1 361.5 377.7 394.8 412.2 410 415 405.2 379.9 349.2 322.7 308 294.3 279.7 274.2 273.2 275.1 276.7 278.3 278.6 284.6 285.7 294.6 305.5 317.1 334.1 349.5 369.3 395 413.5 426.3 447.1 463.7 476.6 482.7 478.1 470.5 462.8 458 449.9 439.8 426.9 413.6 398.9 383.3 370.3 355.2 339.9 322.8 311.9 298.7 282.9 267.1 256.2 249.3 242.1 235.3 231.5 223.9 216.7 210.2 204.9 199.8 196.9 197.4 200 206.2 216.2 230.8 244.7 253.9 261.3 267.1 271.4 274.6 282.1 285.8 289.5 286.7 289.1 284.9 284.6 284.1 283.5 282.4 284.1 281.7 267.4 250 240.6 231.9 223.7 225.2 233.8 238 241.9 246.1 253.1 263.6 275.5 285.9 293.5 296.7 301.5 300.9 296.3 281.4 276 255.6 240.3 228.8 217.5 213.6 205.5 203.1 202.3 202.6 202.5 202.8 200.7 195.9 194.6 192.6 185.9 177.8 168.6 159.8 150.3 143 135.9 141.4 162.1 171.3 175.9 179.6 185 193.1 202.3 212.7 222.5 228.5 233.1 239.4 251 259.9 269.1 278.8 291.6 304.4 311.9 315.2 326.1 329.6 333 331 325.5 314.2 302.2 291.6 277.6 266.9 253.6 237.2 210.4 233.1 247.3 277.2 307.4 331.2 351.8 369.2 381.8 389.8 395 392.1 388.8 384.1 376.4 377.7 379.7 376.8 373.7 375.6 379.5 384.3 383.4 379 384.9 383.9 380.1 387 391.2 376.5 375.3 379.3 384.1 393.2 399.5
341.7 361.7 380.9 402.4 420.7 433.4 450.4 462.4 463.2 453.4 427 395.9 366.3 350.2 323.5 302.1 291.2 289.4 287.5 288.2 292.2 295.8 303.7 308 301.5 324.9 339.9 356 381.9 407.4 429 450 463.8 478.7 488.7 489.6 484.6 477.3 469.1 463.4 457.3 447.6 435.4 419.7 406.9 392.7 377.4 363.8 349.5 332.2 314 301.4 285.4 279.6 272 263.5 253.1 241.3 232.5 226.6 220.8 216.8 211 200.3 196.1 197 200.1 205.3 218.1 232.3 249.2 265.6 275.9 282 274.4 271.6 275.1 278.8 282.8 284.5 282.7 282.1 280.7 282.3 284.6 284.5 288.2 281.8 282.4 268.7 250.2 246.7 239.6 225 233.7 238.9 240.8 245.9 251.8 257.3 266 279.1 289.2 298 304.5 304.6 303.2 296.9 283.2 277.6 268.1 248.4 238.1 227.2 214.5 213.4 211.7 210.3 207.3 205.7 204.3 199 198.4 196.9 194.8 186.8 182.2 171.1 156.8 148.1 138.3 137.6 140.3 152.7 170.5 177.7 182.2 188.9 197.9 208.4 215.9 223.2 232.6 237.9 247.5 257.4 266.8 276.6 286.7 297.7 309.4 319.5 327.1 335 340.6 343.6 342.2 335.2 323.3 309.8 297.3 285.5 272.7 259.9 246.1 218.4 237.4 251.1 272.8 300.8 325 346.7 363.9 373.7 379 379.3 377.4 367.3 366.2 371.8 375.3 372.3 362.6 362.5 368.9 375.1 383 376.4 375.3 381.7 375.5 367.3 377.6 382.6 369.2 369.7 375.9 379.9 387.9 394.1
372.6 393.8 418.4 435.6 452.5 467.3 485 500.3 507.5 495.5 458.4 429 409.1 389.4 359.3 331.5 314.3 310.2 301.4 304.1 309.2 315.3 322.9 325 326.5 336.3 356.9 375 406.5 430.3 453.8 472.8 487.7 494.6 496.5 492.4 485.9 477.7 469 462 453.7 442.8 429 417.4 403.3 386.8 375.5 358.3 341.2 326.2 319.3 308.5 297.5 291.7 280.5 266.8 251.7 237 226.6 222.4 217.7 213.1 204.6 197.3 199.2 201.1 204.9 219.8 241 265 299.5 311.5 313.5 311.6 294.5 292.3 282.2 279.5 281.2 282.1 283.1 284.3 280.8 273.9 277.7 281 286.8 272.2 267.6 260.8 246.6 245.7 241.8 221.2 233.7 239.5 243.7 252.1 255.2 260.4 270.3 281.6 291.9 297.7 297.6 296.5 294.2 288.1 282.6 274.4 260.9 253.1 237.9 228.5 224.3 221.8 219.6 216.4 213.9 211 204.8 203.7 203.5 202.9 195.8 187.2 184.6 170.3 155.1 143.4 138.5 139.3 141.2 153 173.7 179.4 185.6 193.5 201.5 211.5 221.6 229.4 235.1 244.1 253.8 260.9 270.8 282.5 292.9 303.5 315.5 327.4 337.3 343.5 348.7 351.7 350.6 345.7 334.6 320.8 306.7 292.5 279.1 263.9 247.4 223.1 235.5 252.7 275.2 295.9 317.4 340.1 342.3 345.3 350.6 356 359.8 359.8 360.6 370.2 373.6 363.6 354.4 353.7 361 369.7 372.1 366.6 371.8 375.5 366.7 355.2 363.1 370.3 363.1 365 369.7 372.6 380.7 390.5
406.9 427.5 448.3 466.2 481.6 497 514.4 532.1 543.8 528.3 481.6 448.4 425.3 398.4 377.2 354.3 339.4 325.8 321.3 325.1 327.1 334.6 342.3 345.2 348.8 330.3 361.9 387.7 418.4 445.8 468.2 486.8 496.5 498.8 497.1 492.5 485.5 475.9 468.2 460.6 451 439.6 425.4 412.1 401.3 391.7 377.1 358.8 341.3 336 329.1 318.5 314.6 304.3 285.5 261.9 246.2 233.1 223.2 218.5 212.1 205.4 196.7 199.2 201.2 208.1 223.2 244.4 263.3 291.2 318 334.2 344.5 341.5 324.3 309.8 288.6 283.8 283.4 285.6 285.3 289.2 291.3 283.5 270.6 263.6 268.5 264.1 251.7 246.6 241.1 237.1 234.3 230.4 235.8 240.9 245.4 250.6 255.3 261.7 270.7 279.9 287 290.5 289.5 287.9 285.8 281.1 275.2 268.4 258.7 249.3 240.3 235.3 232.8 229.1 225 220.9 218.8 216.3 212.1 214.9 212.9 206.2 203.1 191.6 181.5 167.9 152.7 140.4 137.8 141 142.2 157.5 175.3 182 188.3 196.7 205.6 216.9 223.8 230.6 238.5 248.8 258.4 266.8 276.3 287.7 299.9 310.7 322.9 335.1 345.2 351.1 360.1 364.3 361.9 355.5 345.8 332.1 311.4 294 276.6 265.5 251.7 228.5 224.5 252.2 269.1 284.3 304.7 316.1 324 328.6 336.5 344.1 347.8 349.9 355 366.1 363.6 355.4 346.8 346.7 353 359 359.1 360.3 364.5 366.1 359.3 346.6 347.8 356.1 352.8 357.3 362 362.6 370 377.5
442.5 459.5 476.2 494.7 508.4 525.2 542.4 559.1 572.4 561 523.4 475.5 441.6 415 394.4 375.8 360.2 348.6 344.8 349.5 353.8 353.7 363.5 369.2 372.2 362 364.5 392.2 420 448 472 491.4 498.5 500.2 497.3 491.4 484.3 475.1 467.5 459.2 448.5 436.1 423.2 411.3 401.9 391.1 380.1 368.2 360.7 350.5 336.8 329.9 325.2 312.5 279.6 254.2 240 227.9 217.3 211.2 205.9 201.6 198.7 200.9 207.7 223.5 245.2 271.4 293.3 318.3 333.9 343.8 347.6 349.3 338.8 322.2 308.7 297.9 295.1 298.6 302.4 305.3 304.3 294.2 279.7 266.5 255.7 244.5 241.5 238.1 236.2 233.8 233.6 235 238.4 244.6 248.8 251.2 257 264.9 273.8 282 287.4 288.7 287.4 283.3 279.7 275.8 270.9 267 258.9 252.6 248.2 244.6 236 231.1 228.3 225.4 221.6 216.5 216.7 216.9 212.5 210.1 202 191.6 181.4 165.9 150.8 141.6 140.8 142 150 172.3 178.2 184 191.4 200.6 211.2 220 228.9 235 244.3 253.9 261.5 271.3 282.2 293.8 305.4 317.7 330.5 341.6 352.7 361.6 370.8 373.8 373.5 368 355.5 337.3 313.1 294.8 281.7 271 257.9 239.3 220.1 245.5 261.2 276.2 296.5 310.1 318.4 332.4 338.5 344.6 347.1 349.4 359.8 358.1 352.4 347 343.2 341.1 345.3 346.8 350.8 351.9 349.9 349.7 348.9 341.3 339.7 345.2 343 347.5 351.4 355.1 359.1 364.6
472.6 490.5 505.8 519.1 536.8 552.8 567.9 582.2 590.3 578.5 546.6 516.3 480.6 441 417 400.1 381.8 373.9 371.2 375.2 376.2 377.8 381.5 392.4 395 387.7 373.5 399.3 422.8 446.1 472 491 497.9 499.3 495.2 489.1 481.4 475.4 468 458.8 449.5 437.4 426.8 419.6 410.8 404.8 394 388.8 380.1 362.2 349.5 343.1 324.2 298.9 266.4 246.9 234.8 220.9 212 207.8 203.9 200.8 199.3 202.4 212.7 233.7 261.6 284.9 317.6 336.6 345.1 350.7 357.2 361.3 359.5 352.7 337.2 320.4 319.4 323.5 323.4 322.3 314.3 302.1 285.9 272 258.2 252.4 246.9 241.1 237.3 239 237.6 238.6 240 245.4 250.9 255.4 261.9 268.6 276 282.1 288.4 293.9 297.2 288.3 280 273.6 269.6 266.1 262.6 258 256.4 250.2 244.2 237.9 236.9 227.9 223.6 221.7 222.2 218.5 214.5 208.9 201.8 191 182.5 165.4 148.8 143.3 142.9 143.5 158.2 175 180.5 186.9 195.3 204.9 214.4 223 231.7 239.1 248.2 256.4 266.9 280.4 288 299.5 311.7 323.9 336.3 350 360.5 372.3 382.7 386.4 383.9 374.5 357 338.7 322.9 303.4 288.7 276.4 264.3 246.9 233.3 223 250.6 265.7 286.5 303.2 314 321.6 332.9 339.5 337.8 347.6 350.6 350.4 346 342.1 336.5 332.4 335.2 340 343.6 342.7 341.1 342.1 337.6 333.6 332.2 334.2 337.3 339.3 343.9 347.9 355.4 356.6
500.7 516.3 529.9 543.8 560 576.3 590 596.8 593.2 584.8 573.4 557.8 529.2 488.6 450.5 427.7 411.3 404.2 402.3 404.1 405.8 405.7 405.5 413.3 415.6 415.1 411.7 391.4 422.5 445.7 470.6 490.4 497.8 498 494.1 488.3 483.4 477 468.5 460.2 452.4 445 440.8 436 428.6 418.8 410.8 398.3 385.3 373.6 359.7 334.7 306.4 279.4 256.1 241.3 229.8 218.4 211.5 204.4 200.8 200.3 197.3 203.7 222.8 250.2 279.4 309.2 333.1 354.3 372.6 389.3 394 401.6 403.3 394 368.9 353.3 371.1 369.5 365.7 349.5 328.4 309 290.7 270.4 260.9 252.8 246.9 243.8 245.9 253.7 245.8 240.7 245.9 252.3 254 256.8 262.2 268.6 275.7 282.1 287.5 292 296.1 287 277.1 272.9 270.2 266.8 265.5 265.1 264.7 258.6 251.9 246.6 240.5 232.3 230.3 228.8 226.3 220.3 215.8 209.1 196.3 186.2 179.7 165.7 149.5 144.5 143.9 145.1 169.4 176.9 182.8 189.8 198.6 209.7 218.7 226.5 234 244.1 253.6 262 271.8 281.5 292 305.7 317.3 328 340.6 355.4 368 380.7 394 395.4 390 378.1 363.9 351.8 333.6 313.4 297.1 286.9 275.3 258.7 245.1 234 221.8 254.1 273.7 290.4 303.7 311.2 320.4 322.9 326.3 337.4 342.4 345 338.6 334.2 328.3 326.4 329.3 336.2 334.5 333.7 337 336.5 324.7 325.5 328.1 328.8 327.5 329.6 332.5 338.8 350.5 357.8
526.5 539.9 551.5 564.8 582.7 596.3 603.1 608.5 606.3 602.4 594.3 587.2 569.8 528.8 493.5 470.9 451.4 441.9 440.5 442.2 447.9 443.6 437 438.9 436.9 433 432.1 423.7 433.5 445.7 467.3 488.5 496.9 499.5 499 495.9 488.6 479 469.5 461.7 455.4 449.3 445.8 439.6 431 421.6 412.6 400.6 382.1 360.1 332.6 307.4 281.8 260.4 248.2 238.2 226.5 214.3 205.8 202.2 200.5 200 200.5 211.8 234.9 262.5 293.2 325.5 351.8 376.7 405.1 428.4 440.5 434.6 429.9 417.3 387.9 387.7 404.8 397.4 389.3 374.6 360.6 334.5 303 284.6 268.6 258.6 251 247.2 247.7 247.5 243.1 242.5 244.9 250.6 256.3 260.3 264.4 272.1 278.7 282.4 285.9 285.3 282.3 278 273.2 271.9 269.4 264.9 263.4 262.7 261.3 259.2 255.3 246.7 240.4 241.5 238.6 232.6 226.7 220.2 215.8 211 197.9 182.4 175.4 162.2 150.6 146.3 145.2 148.5 167.3 177.2 183.9 192.6 202.4 213.4 222.8 229.9 240.4 249.9 258.3 266.4 279.4 287.3 298.6 310.9 321.3 331.3 345 359.1 372 385.8 400.4 399.4 394.7 390.3 380.9 360.1 338 321.2 305.6 293.2 281.2 269.2 254.5 246 234.8 232.1 258.2 274.6 286 296.6 303.2 312 317.6 331.1 328.9 329.4 325.5 322.8 320.2 318.8 322 324.7 325.1 328.1 328.6 320.3 315.5 316.4 322.1 322.9 320.2 324.6 327.6 334.4 340.9 353.3
550 560.5 574 590.4 602.9 611 613.1 615.5 615.1 612.2 607.4 603.4 598.7 578 551.1 528.6 508.9 496.2 492 490.7 501.1 486.2 473.7 465.2 457.7 452.3 445 437.3 445.2 453.8 465.2 483.8 496.8 506.8 506.1 500.9 493.4 481.7 469.3 457.7 449.5 446.6 443.3 438.9 429.5 421.4 406.4 385.2 360.7 330.5 305 279 258.9 248.6 239.2 230 217.6 211.5 206.8 203.5 201.1 199.8 205.4 223.1 248.1 276.5 310.3 343.2 370.1 387.2 403.9 421.4 423.3 417.7 416 418.1 425.8 428.7 421.8 397.7 387.1 380 372.9 340.6 316.6 299.9 280.8 271.8 266.7 262.8 254.5 247.9 243.7 247.2 252.6 255.8 260.5 262.5 267.8 273.5 278.5 283.7 285.5 287.2 282.4 280.3 277 273.5 269.6 265.1 261 258.2 257 256.3 253.8 247.1 242.5 241.9 240.7 234.9 221 213.5 207.8 202.1 191.9 180 172.6 159.7 153.1 148.7 146.4 148.4 156.8 179.3 187.6 197.5 207.4 219.3 228.2 237.1 247.2 255.4 262.9 270.5 283.2 293.6 304.9 315.4 326.1 337.7 351.2 364.4 378.8 389.6 402.1 402.6 401.9 396.2 381.3 361.7 345.2 330.4 315.1 298.4 284.3 272.2 270.6 259.2 251.3 236 237.8 261 280.4 290.7 296.3 300.3 306.2 313.2 315.2 317.6 316 314.6 313.9 311.8 312.1 316.8 317.4 316.6 314.8 307.5 309 310.6 314.8 316.5 316.8 317.4 327.2 335.2 340.2 345.2
569.8 584.4 599 608.2 612 616.1 619.7 616.8 613.9 610.8 609.6 609.3 606.4 603.2 596.4 571.7 557.5 554.1 543.9 550.7 540.5 525.6 511.9 495.5 478 467.3 461.3 455.4 453.9 462.6 471 487.3 497.7 507.6 507.6 500.1 491.6 480.8 466.9 452.9 442.5 437 436.7 430.4 415.5 400.2 381.2 358.8 332.9 301.6 276 257.4 243 235.4 228 220.5 211.4 206.3 203.7 201.1 200.9 198.2 213.3 233.7 261.7 288.6 317.3 348 364.3 376.8 389.8 401 408.2 411.3 415.8 423.2 425 423 420.4 407.1 387.5 377.9 370.6 359.7 343.2 327.7 306.2 292.6 281.1 273.2 261 252.1 247.9 249.9 257.3 265.6 264 266.8 271.4 276.2 281.9 285.2 288.3 290.2 290.4 289.6 286.6 280.5 274.3 268.4 263.3 259.2 257.3 252.9 251.3 246.2 244.3 240 236.9 232.2 225.4 213.7 204.7 196.6 188 179.3 172.2 164.9 156.6 151.9 149.2 148.2 154.5 182.2 191.1 202.7 213.5 224.2 233.6 242.5 247.7 257.2 267.2 275.7 286.9 298.3 309.5 320.5 331.5 343.4 357.1 369.3 384.2 399.3 410.6 417.7 412.1 401.4 388.1 373.1 355.3 335 316.5 301.7 285.8 276 275.1 271.2 265.8 256.2 242.4 241 264.5 278.3 285.8 291 297.9 303.9 310.7 312.4 310.7 309.2 308 306.7 308.5 309 310.1 308.4 306.8 302 302.6 304.8 310.5 311.9 312 312.5 315.2 326.6 333.5 341.5
595.6 607.4 613.9 615.1 613.3 613.6 613 611.5 609 606.8 605.7 605.7 603.4 600 596.5 597 596.9 592.6 583.4 569 558.9 551 539.4 519.6 504.4 491.3 483 477.7 472 474.9 481.9 491.8 496.2 502.4 500.4 492.4 483.5 471.8 454.9 439.1 429 416.8 410.2 397.6 385.1 369.3 350 325.8 302.4 279.8 259.3 243 235.8 229.5 223.1 217.9 210 204.3 201.9 201.6 201.2 203.4 221.4 244 266.5 293.2 318.5 344 363 380.4 397.9 404.4 401.5 407.7 411.9 413.8 419.5 420 425.2 421.7 414.4 399.3 383.1 375.7 357.9 345.9 329.7 317.2 303 291.7 278 263.6 253.8 253.1 262.8 266.5 268.1 271.1 275 280.8 285.2 287.3 288.9 290.1 290.8 293.6 291.4 287 283.3 277.7 270.8 264 259.5 256.4 254 250.1 245.6 237.1 231.1 226.5 220.7 215 207.8 197.2 190.7 182.9 175.4 168.6 161.7 153.4 150.1 147.9 156.3 184.3 194.8 207.1 220.8 230.7 239.9 246.2 251.5 258.7 268.6 279 291.1 302.5 313.4 324.7 335.9 347.8 359.8 374 391.4 407.7 418.5 421.9 417.4 411 399.7 384.8 369.1 345.9 325.4 307.9 288.8 281.1 276.3 275.2 270.7 265.4 260.9 245.9 253.6 270.9 279 285.1 290.8 296.3 299.3 302.5 301.9 297.8 301.4 302.6 305.2 300.6 300.5 300.1 297.8 296.6 299.3 305.1 308.8 310 309.5 306.7 312 321.8 325.6 332.9
613.9 618.5 618 615.1 611.9 610.3 608.9 606.6 603.5 602 601.9 600.5 597.9 595.4 594.7 595.4 594.2 591 585.9 576.4 569 560.8 548.7 537.5 528.2 523.8 513.6 505.7 496.5 493 495 498.5 497.1 496.1 491.7 483.4 472.5 454 435.8 419 405.3 391.1 376.2 364.5 351.5 334.7 315.4 297.7 277.9 260.4 242.3 232.7 227.2 222.4 217.5 214.7 209 205.1 202.5 201.7 198.8 214.1 233.6 254 278.5 302.2 321.3 336.1 349.1 364.6 381 394.9 400.8 405.1 408.2 415.5 417.4 414 414 410.5 404.3 398 393.2 382.3 367.2 353.2 343.7 338 332.6 320.3 303.3 283 272.6 269.8 258.3 269 274.4 279.5 284.8 288 290.7 293.1 296.9 299.9 302.2 301.4 296.5 294 289.2 283.3 276.3 267 259.5 257.5 253.9 250.8 246.8 237.5 230.2 223.3 217.5 212.8 205.7 198.6 195.2 189.2 180.1 171.6 164.3 158.3 152.1 149.7 160.3 180.5 196.8 212 227.8 238.2 245.2 250.3 255.2 261.5 272.9 285.4 296.3 306.7 317.6 327.6 336.8 347.2 359.5 375.4 393.9 409.5 419.2 426.2 426.4 421.5 406.8 388.2 369.9 349.3 332.5 317.3 300.2 287.5 280.9 278.7 273.1 270.2 268.2 263.4 243.6 265.3 273.9 278.3 283.8 288 292 292.7 290.8 290.4 293.7 296.5 295.1 292.2 294.3 292.7 292.8 294.7 299 306 306.5 301.7 301.1 305.5 309 316.8 323.1 329.5
622.4 623.1 620.4 619.1 615.4 608.2 605.3 601.4 598.5 597.2 595.5 593.5 591.7 590.2 589.9 589.7 588.1 585.3 580.2 573.6 566 559.6 553.3 547.1 542.7 534.8 528.2 519 508.2 499.6 495.8 497.4 495 489.3 480.6 469.9 453 434 411.6 392.7 372.9 358.4 345.1 332.8 320.1 305.1 289.2 274 258.3 247.1 236.1 228.9 221.9 215.9 212.8 210.1 208.6 204.2 201.8 199.4 208.9 225.1 243.8 266.2 291.7 314.3 328.4 347.9 362 380.9 391 393.2 389.1 388.7 392.5 391.9 396.9 397.6 400.7 396.5 396.3 392.1 386.5 381.9 380.1 372.1 355.4 336 330.5 327.7 301.6 291 283.5 284.4 267.8 280.3 286.7 289.3 295 296.3 298.2 301.3 302.1 306.2 311.2 309.2 301.6 297.3 292.6 286.3 275.2 268.1 263.9 258.4 254.3 250.1 244.7 239 228.7 222.4 216.7 212.7 205.1 199.6 197.2 192.1 185.4 175.1 168.6 159.5 152.3 151.1 161.7 190.4 200.9 215.7 231.2 240.6 247.7 253.6 260.5 268.6 278.9 288.3 299 309.2 318.2 324.7 332.6 342.2 357.7 374.7 393.7 409.8 423.3 436.4 432.1 421.9 401.9 382.8 367 349.6 332.6 316.5 303.5 290 282.7 279.7 275 270.5 269.2 260.8 240.3 253 267 272.6 273.1 275.7 280.7 282 285.7 286.4 291 291.6 288 287.6 289.3 290 290 292.1 298.7 302.5 299.4 297.5 301.3 305.8 308.2 315.9 320.6 331
629.3 626.5 622.2 616.7 610 605.8 602.7 598.6 597.3 595.5 593.4 590.7 587.7 585.7 584.2 582.9 580.3 576.7 571 563.4 556.7 553 548.7 544.7 541.9 535.3 528.2 520.5 508.2 497.6 488.9 484.9 484.7 472.3 460.9 444.9 425.1 406.3 384.7 364.9 346.7 332.1 320.6 308.2 292.7 278.2 265.8 253.4 246.8 241.8 228.3 222 215.1 212.2 209.9 208.7 204.7 199.9 205.2 207.8 215.9 235.7 257.6 281.7 302.6 322.5 338.9 353.9 371.4 381.7 383.4 384.4 383.3 378.4 378.3 376.2 379.8 383.5 386.5 381.5 378.8 381.4 382.5 377.5 372.1 362.8 347.9 332.5 318.3 314.1 303.2 299.8 285.3 276.1 286.5 293 295.3 298.7 304.4 305.7 305 307.6 310.1 309.5 308.9 305.1 302.6 298.4 293.3 286.1 275 267.9 263.9 260.1 254.8 250.1 249 236.3 228.3 222.3 214.9 208.6 202.5 199.1 195.3 190.6 186.4 181.1 170.4 158.6 153.3 152.2 173.4 193.4 205.1 219.7 232.2 243.2 252.6 257.7 265.6 272.7 281.5 291.4 302 310.2 316.9 323.2 330.2 342.5 359.6 375.1 392.2 407.4 419.7 427.3 420.7 405.1 388.7 375.7 362 349.5 332.8 316.5 302.1 290.8 283.5 277.5 272.9 269.7 268.9 265.1 258.1 241.5 261.1 265.5 266.2 270 273.3 276 282 281.4 285.7 285.7 283.3 287 287 286.6 288.4 290.4 291.6 297.2 292.5 295.4 295.7 302 306.5 313.6 316.6 327
627.7 626.4 620.8 614.2 611.8 607.9 604.1 603 601.5 596.6 592.9 588.5 584.4 581.2 578.7 575.8 572.8 567 558.6 550.8 544 538.9 536.5 533.8 531.2 524 517.2 508.7 502.7 493.4 472.4 464.5 461.3 450 431.6 411.8 391.7 373.4 361.3 343.6 321.6 305.5 292.7 279.7 266 255.7 247.4 237.8 234 224.5 217.3 212.3 209.5 206.3 204.4 205.7 211.1 208.5 210.7 214.3 229.8 252.3 277.7 305.2 327.8 342.8 361.1 371.1 376.5 378.3 379.9 375.5 372.7 363.6 359.5 357.5 358.9 362.4 365.9 361.3 357.6 358.6 360.7 358.5 355.3 347.6 332.5 322.7 311.3 294.7 290.9 287.4 285.2 286.1 296.2 299.9 302.8 307 309 310.5 310.1 310 308.7 307.9 307.3 306.2 303.4 296.7 291.4 282.1 275.1 270.2 263.5 258.4 253.4 248.2 245.1 237 229.3 224.8 216.8 211.9 206 202 198 192.4 184.4 178.1 169.4 157.5 151.3 155.5 182 196.5 209.1 224.8 238.7 248.6 254.9 261 267.7 276.4 283.2 293.2 302.3 309.9 314.8 321.6 331.9 342.8 357.3 374 388.7 400.1 408.8 409.9 399.5 387.4 377.5 366.2 353.9 338.8 321.5 307.7 296 286.3 277.3 274.6 269.1 267 266.4 260.8 252.7 249.4 261.4 263.4 264.1 265.7 267.7 269.7 276.7 276.9 278.9 280.4 280.6 285.1 284.2 286.5 287.2 288.4 291.8 292.2 290.1 293.2 293.4 300.3 309 312.4 313 322.8
628.5 625.2 619.7 617.2 612.2 608.5 607.4 604.5 600.2 594.6 589.6 584.9 580.4 576.9 571.6 567.6 560.6 551.6 542.7 534.3 527.3 521.2 515.5 508.5 501.7 496.3 488.2 484.2 480.3 471.5 454.1 431.8 424.2 411.2 395.6 381 365.7 349.8 333.4 315 297.8 282.3 268.3 258 247.6 237.8 229.4 221.3 214.4 210.4 209 208 207.6 206.9 205.9 211 210.8 212 216.3 226 245.2 270.2 299 324.8 349.5 367.6 378.8 379.4 375.6 366.8 360.3 356.6 354.7 347.9 345.2 341.1 340.2 341 345 346.6 341.3 337.7 337.4 336.3 332.2 325.7 314.8 303.5 296.4 292.8 290 284.5 287.6 296.6 302.5 309.3 308.9 309.8 311 310.6 310.8 309.3 309 306.7 303.8 300 296 293.4 287.9 282.2 274.1 266.3 265.5 258.8 254.2 248.7 244.9 240.5 234 227.7 218.9 211.8 207.3 202.8 197.9 191.2 182.4 174.9 167 154.4 156.7 170.1 173.2 194.1 213.8 230.3 245.4 255 259.9 265 270.6 279.7 285.4 294.2 302.1 309 314.6 321.7 331.2 341.6 353.6 368.7 381.8 390.4 395.4 392.7 383.6 375.4 364.4 353 340.9 325.7 310.9 298.8 287.8 279.7 274.6 268.5 260.7 259.4 261.3 260 247.5 252.7 259.2 260.8 260.5 263.6 266.8 267.6 272.6 275.5 276.4 278.7 280.2 283.1 283.9 286 286.3 287.2 288 287.6 287.9 289.6 294.6 299.3 302.3 307.9 312.7 324.5
630.2 628.3 624.5 619.2 614.2 611.2 608.5 604 597.5 590.4 584.5 580 575.4 568.7 561.7 554.7 543.5 532.3 518.8 512.2 504.1 491.8 482.6 472.8 463.4 454.7 449 443.8 440.4 436.8 423.7 405 388.5 377.4 366.3 351.1 335.1 317.3 305 289.3 273.7 261 250.3 241.4 231.6 221.7 214.3 209.8 209.2 208.9 208.7 208.3 207.9 205.8 210.2 213.5 214.4 217.3 229.6 246.3 266.4 290.4 317.7 341.3 359.9 368.8 371.7 370 371.2 361.2 354.1 350.9 348.5 345.8 338.4 329 324.1 322 322.3 322.8 318.9 316 315.3 311.9 309 304.8 294.7 292.1 289.6 289.1 286.7 293.1 299.2 306.2 310.2 313.3 314.1 315 313 311.1 309.1 309.4 309 306.3 302.3 297.9 292.3 288.7 283.7 277.8 276 274.2 271.1 264.9 257.8 251.5 247.1 242 235.2 226.6 219.3 213.1 208.3 203.2 198.5 192.8 182.5 172.2 163.1 155 158.4 171.6 191.5 202.2 217.6 234.4 247.8 255.5 261 268.8 278.6 284.7 290.7 297.8 304.3 309.6 314.9 320.9 330.5 340.4 349.5 361.6 371.4 376.6 379.2 376.5 367.9 361.9 353.7 340.2 328.4 319.9 305.2 293.8 282.6 277.4 269.6 267 259.4 258.1 257.5 257.5 252.2 249.1 250.6 255 255 257.3 264.7 267.4 269.7 278 280.3 281.6 281.2 282.4 283.4 285.3 285.8 285.8 287.3 287 287.9 290.7 298.9 299.1 301.5 307.3 315.7 322.4
636.8 634.4 627.5 619.1 611.9 609.9 606.2 600.9 592.8 584.3 578.7 573.2 567 558.3 547.2 529.4 515 502.3 491.6 479.8 468.9 456.7 445.4 436.1 426.7 419.2 413.9 407.3 398.8 392.3 385.4 375.1 358.1 342.5 328.2 314.8 299.8 287.1 274.9 265.2 256.2 244.8 235.3 225.8 218.1 214.2 210.3 210 209.8 209.6 209.1 208.7 207.4 208.7 213.2 218.5 224.6 235.2 253.6 273.7 291 312.8 333.8 353 364.4 367.6 368 367.7 365 360.5 351.7 343.8 336.9 331 327.4 321.3 313.7 310.7 308.3 302.2 297.9 295.3 294.5 294.5 293.2 289.1 288.3 287.9 290.8 291.7 294.4 300.2 304 309.3 311.8 314.7 314.1 313.3 312 310.4 309.8 309.5 307.9 304.7 301.9 296.7 290.1 288.4 285.9 285 282.9 279.6 277.3 271.2 262.4 255.3 248 242.7 236.8 231.4 225.9 222.9 215.7 207.3 201.6 194.2 182.7 172.6 162.7 158 158.8 179.9 193.9 206.3 223.6 239.9 249.9 256.3 263.2 272 279.3 286.7 292.5 298.8 302.1 307.8 313.6 321.2 330.6 337.6 345.1 354.4 360.7 362.8 363.5 358.9 354.9 345.9 339.4 333.3 321.3 309.8 298 287.8 281.2 273.6 268.1 264.5 262 260.7 258.4 256.9 253.8 249.6 251.8 254.1 255 256.9 256.6 262.1 273.1 277.1 279 279.4 280.3 282 283 282.3 282.2 285.1 285 287.4 289.4 293.4 297.1 299.6 302.8 306.4 317.5 316.7
641.5 634.1 624.7 615.9 608.7 604 601.5 596 586.4 578.5 572.1 563.8 552.3 533.7 518 500.3 485.8 473.5 459.9 447.1 435.3 423.6 413.2 403.4 395.2 386.6 380.3 371.8 362.8 356.1 353.4 345.9 331.3 314.3 299 286.3 272.5 263.6 255.5 246.7 239.3 231.8 225.2 217.8 214.3 211 210.4 210.3 209.9 209.2 208.6 207.7 207.1 214.5 222.6 233.2 244.3 260.6 279.2 301.9 322.7 342.6 358.3 371.3 371.7 369.3 364 362.4 359.9 358.4 351.8 344.2 337.8 326.8 321.2 317.5 309.3 300.4 297.2 294.4 292.6 291.5 290.8 290.5 289.9 289.6 291.5 292.1 293.6 297.2 299.3 305.5 308.3 310.7 312.5 313.9 313.5 311.5 310.4 310.2 309.5 307.5 306 304.3 299.4 295 293 291.5 291.1 290.6 288.7 283.1 280.4 274.5 266 259.1 248.8 241.6 237.6 232.9 229.3 226.6 220.6 212.6 206.3 196.8 185.2 174.6 164.7 159.6 158.2 171 195 209.9 227.5 244.7 253.2 262.1 270.4 277.8 284.1 288.8 293.6 298.3 301.3 306.6 311.5 320.1 329 333 340.1 346.8 349.2 349 348.9 345.7 341.6 337.5 331.4 322.9 312.3 302.2 294.8 286.7 278.9 274 267.8 261.3 256.8 253.8 253.5 253.2 253.4 253.8 253.6 256.4 258.5 261.2 266.6 264.1 270.1 274.1 277.7 279.3 278.5 278.8 280.2 281.2 282.4 283.7 285.7 286.3 292 298.1 296.7 299.7 302.5 305.8 316 315.3
638.7 629.3 618.1 611.6 604.9 598.6 592.1 585.9 579.5 572.6 561.7 540.5 522.2 504 487.6 469.2 455.9 443.5 427.4 415.5 405 394.6 385.1 374 364.3 355.3 348.3 338.9 330.4 324.9 318.6 311.7 300.2 287.4 270.7 263.7 254.6 246.6 239.6 232.2 229.8 226.9 218.8 215.4 210.6 209 209.7 208.5 207.7 208.4 207.9 212.3 220.2 230.9 242 253.6 263.9 282.5 301.9 325.8 344.6 358.7 368 373.3 376.1 381.6 377.7 376.7 366.7 364.5 354.6 350.2 340.4 330.9 320.8 310.4 304.5 297.3 294.4 293.2 292.6 292.2 291.9 290.9 291 290.8 291.5 293.7 297.8 302.6 305.7 311.4 309.6 309.9 311.8 312.7 312.3 311.7 311.8 309.8 309.9 308.4 306 304.6 302.4 300.4 296.6 295.8 295.9 295.7 290.6 285.1 279.1 274.3 266.9 259.5 250.5 243.5 238.9 233.2 230.3 227.2 222.3 216.8 210.5 200 190.4 175.6 166 160.1 159.9 165.6 192.6 211.3 232.9 250.2 261 269.9 276 284.3 289.4 297.6 302.2 300.7 303.6 307.3 311.9 317.8 323.2 328.9 333 336.1 337.2 338 337.2 334.8 331 326.5 321.8 315.8 306.7 299.4 293.6 284.2 277.8 271.9 265.1 259.5 256.5 255.9 256.9 258 256.6 255.1 255.5 257.9 260.1 263.7 270 266.4 268.9 278.2 274.9 276.6 278.2 280.4 281.9 282.1 283.4 284.1 284.8 283.3 287.5 296.9 294 299.3 302.3 306.5 312 314
631.8 620.9 612.8 605.2 598.6 592.5 586.5 579.8 570.2 554.7 530.3 513.6 494.6 478.4 459.2 441.3 424.8 409.3 400.8 389.4 377.3 364.7 352.9 339 330.9 324.6 320.1 311.8 304.5 297.7 290.7 285.2 274.5 261.5 251.5 245.6 237.8 235.1 227.3 221.7 216.6 214.5 212.7 208 207.8 208.2 208.2 206.9 208.5 210.6 220.9 232.2 244.4 258 265.7 273.2 286.6 305.6 326.8 348.6 368.5 381.8 389.1 391 390.6 384.5 381.9 380.8 375.2 368.5 360.2 349.1 338.1 325.6 315.6 307 300.4 296.6 294.6 293.6 292.8 292.8 292 291.7 291.4 291.6 295.1 301.5 303.9 310.6 309.8 311.3 313.1 316.5 314.7 313.7 312.2 311.9 311.8 311.9 311.8 311.4 309.4 308 306.3 303.9 301.2 299.6 298.6 296.6 292 285.6 280.1 275.5 270 260.8 251.7 245.9 243 239.5 233.8 228.8 223.3 217.8 206.6 201 192.1 179.5 171.5 164.4 159.8 163.6 192.8 213.1 235.3 254.1 265 272.4 281.1 288.8 299.3 309.6 309.9 308.6 308.5 309.4 312.6 315.9 319.7 324.1 325.8 327.3 328.2 330.1 328 324.5 322.7 319.2 313.1 307.5 301.8 296 291.1 284 273.6 266.7 262.3 258.1 257.6 259.1 261.3 264.6 264.2 260.7 260.5 261.7 267.5 267.5 274.5 271.5 271.2 275.8 277 279.3 280.7 282.1 283.4 284.4 287.1 289.1 286.5 287.1 286.6 288.5 291.1 294.3 300.6 304.6 307.7 313.2
623.1 614.4 606.7 600 594.2 587.7 575.6 546 527.5 512.1 499.3 482.9 468.6 446.5 429.6 413.6 397.4 386.6 375.1 363.7 349.7 336.5 324.2 316.1 307.1 301.6 293 286.8 277.9 268.8 262 258 251.7 243.4 237.9 230.5 226.4 223.4 220.4 215.6 209.6 209.7 208.1 209.5 209.3 210.2 209.9 213.9 223.9 231.9 246.1 262.9 281.4 297.7 311.2 316.2 330.2 351 366.4 380.5 391 398.2 399.2 400 394.5 385 385.4 381.7 378.1 366.9 357.1 342.9 325 318.7 310.5 304.9 298.9 296.5 294.7 293.8 293.6 292.8 292.2 293 293.4 296.2 301.7 304.3 309.8 315.9 310.8 309.6 312.8 317.1 317.3 316.3 316.7 315.8 316.4 317.5 316.2 313.2 311.5 309.1 307.8 306 304 301.5 299.2 296.6 292.8 289.2 281.4 275.3 268.7 261.9 255.6 251.3 247.2 242.4 235.1 228.7 223.9 221.8 218.4 206.5 193.2 181.4 174.5 165.4 162.3 164.4 188.8 211.9 234.8 252.5 263.9 274.3 286.5 294.5 303.1 309.7 312.4 311.9 311.1 311.7 312.7 314.2 314.9 318.2 320.7 320.6 323.1 324.1 319.4 317.1 314.4 311.7 308 304 300 296.2 287.9 277.3 274 271.5 264.1 261.3 261.7 266.8 268 267 267.3 269.9 271 271 272.7 279.5 276.6 276.7 275.2 279.5 280.6 282.8 284.2 284.1 285.6 286.1 288.8 287.7 289 292.8 292.3 294.3 290.6 296 302 301.5 305.7 309.4
618 608.4 600.9 595.4 588.5 578.5 547.6 514.6 493.8 476.3 464.5 448.5 434.3 418.2 402.5 391.3 376.1 361.6 346 339.3 323.1 308.6 301 292.2 281.3 274.6 267.9 261.9 254.7 247 238.8 235.1 230.2 229.4 228.4 223.3 220.6 218.5 213.1 210.2 209.8 208.6 209.7 210.8 210.7 211.4 217.3 230.8 244 258.6 281.9 305.5 328.2 342.2 351.8 362 366.2 375 384.8 389.9 392 390.7 390.2 392.4 393.6 391.9 388.7 380.6 372.3 359.3 347.8 335.4 316.1 312.4 305.6 301.9 298.4 296.3 295.4 295.3 294.4 294.2 296.8 302.1 302 302.6 305.1 310.5 312.1 314.4 315.6 317.8 318.2 317.8 317.4 319.5 322.3 323.1 318.4 317.7 317.9 314.1 312.3 310.4 308.2 306.3 304.3 301.5 298 294.6 290.6 285.8 278.4 272.5 266.9 260.4 257.7 250.3 242 237.8 233.7 231.7 228.7 224.4 218.2 205.2 193 182.3 179.1 171.1 163.6 164.6 183.4 209.2 232.2 251.7 264.1 276.6 289.9 298.2 306.8 312.4 314.3 314.9 314 314.4 316 315 313.4 312.5 315 312.3 313.5 313 310.3 307.1 304.1 302.1 300.3 296.5 293.3 287.2 280.5 278.6 277.8 271.8 271 269 273.6 271.5 273.9 271.1 274.7 277 277.8 279.2 277.9 278.9 285.7 286.3 281 283.8 284.3 285.5 287.5 287.5 293.3 295.2 290 288.7 289 293.5 296 294.2 292.7 296.4 301.5 304.9 308.9 311.8
611.2 603.5 596.6 590 581.3 562 524.4 495.3 470.3 451.2 435.2 420.8 409.4 396.7 379.9 371.8 349.6 334.5 322.4 313.3 299.6 287.9 274.8 266.5 260.3 251.6 245 238.4 233.1 227.6 225 224.5 223.4 221.5 219.8 218.1 218.2 211.2 210.1 208.6 210 210.1 213.3 214.7 217.4 223 236.8 253.4 269.5 295.5 324.6 347 361.5 373 384.1 387.3 382.3 382.6 383.7 388.9 390.1 390.7 390.9 394.1 395.5 390.6 384.2 375.6 369.7 360.5 341.3 330.4 317.4 306.3 301.9 300 298.2 297.8 297.8 298.8 301.1 303.1 306.4 308.4 313.9 317.4 318.6 318.7 321 321.9 321.7 322.5 323.5 323.1 323.2 324.2 325 325.6 323.4 317.1 317.1 316.1 312.4 309.6 307.5 305.7 302.9 300 297.4 293.4 288.4 283 277.5 269.2 264.3 257 255 253.2 246.7 241.3 238.4 234.7 231.2 226.5 217 204.9 194.9 188.8 184.2 177.2 166.6 164.6 175.1 200.3 224.8 247.2 264.6 280.2 294.2 304.6 312.1 319.4 321 324.7 325.7 326.7 326.2 319.9 314.2 311 306.8 303.8 304.2 302.9 301.3 299.1 295.2 292.4 291.2 287 284.6 280 278.4 277.9 276.8 277.4 281.3 280.7 283.2 279.4 281.5 280.4 280.8 284.4 284.4 287.2 285.9 285.4 290.1 293.4 291.6 291.3 290.4 290 295.9 298 293.9 293.5 291.7 291.1 292.5 294.1 299.1 297.1 297.9 296.3 302 305.4 311.7 314.2
605.3 598.8 590.8 581.1 570.9 546.6 510.6 483.7 458.2 439 421.4 405.5 392.8 377.8 363.1 348.5 336.6 320 305.6 287.2 278 267.4 255.6 248 240.1 235.7 228.7 222.7 219.5 218.7 219.2 218.2 218.8 218.9 217.4 214.3 212 209.5 210.7 210.8 211 214.4 216.5 223.7 229.2 244.9 261.5 281.2 306.7 336.3 357.4 369.2 379.5 387.5 393.8 395.5 391.1 393.1 391.7 387.5 389 389.7 389.5 388.6 387.2 382.4 377.1 369.2 358.5 346.8 335.3 325.1 316.2 310.4 304.5 300.9 298.3 299.6 301.8 310.2 308.1 312.6 318 324.1 325.2 329.1 329.5 330.1 333 330.6 330.8 329.7 331.9 325.6 324.6 324.4 324.6 323.6 316.6 316.2 316.5 314.7 310.3 307.9 306.2 304.4 301.8 298.5 295.4 291.4 286.1 283.9 282 278.8 272.2 266.9 261.6 256.1 252.5 249.9 245.4 238.6 232.2 225 216.1 206.2 199.4 189.7 186.1 181.2 167.8 166.1 171.4 192.1 213 240.3 264.5 281.8 296.4 309.7 318 326.7 328.5 328.6 327.5 327.4 323.2 318.1 315.3 312.8 305.7 301.1 296.9 295 294.4 292.8 291 288 286.4 284.6 280.8 279.6 279.4 280 282.4 284.3 284 285 286.5 288.3 289.6 289.6 291.3 292.6 292.3 293.7 291.8 290.1 299 297.4 298.3 294.4 296.1 295.1 298.6 300.3 299.2 300.2 296.1 295.8 296.5 300.9 300.8 299.8 302.4 300.2 301.7 306.6 312.4 315.8
598.9 590.3 580.2 570.7 560 533 501.5 477 457.5 432 407.4 390.8 371.8 357.2 344.4 331 314.9 300.4 287.4 272 258.8 250.9 239.3 231.5 229 221.5 215.5 212.5 210.8 214.5 214.8 214.7 217.1 214.6 214.6 213 209.6 212.8 213.8 215.5 216.5 219.2 224.1 235.7 250.9 268.5 290.2 314.4 339.9 360.8 371.7 377.8 383.9 391.3 397.7 401.3 399.4 390.6 388.8 388.7 388.5 385.5 383 379.5 375.9 370 366.1 357.6 346.3 335.4 324.6 317.6 311.8 307.3 303.7 301.9 301.6 306.6 310.3 317.1 316.1 323.9 329.1 333.2 333.9 335 331.4 333.6 336 336.3 336.7 334.6 332.5 328.3 326.3 325.7 323.3 320.6 316.1 313.8 312.3 309.2 307.5 306.1 304.6 303.6 301.3 300.1 298.2 296.8 295.2 291.4 285.4 282 276.5 270.3 264.8 259.7 257.3 254.6 248.3 237.9 231.4 228.2 218.1 210.6 201.8 191.8 180.9 189 177 167.3 170.1 188.8 207.8 229.3 259.7 282.5 293.8 305.2 317.7 324.4 327.8 327.8 323.4 323.4 323.5 322.4 316.2 317.7 311.1 302.9 299.5 298.9 299.1 303.2 302 296.5 290.7 285.7 285.8 285.2 281.6 283.2 285.4 288.2 293.3 292.3 292.2 294.6 296.3 298.4 303.3 300.5 300.3 299.1 297.4 295.9 300.8 304.3 306.1 306.2 300.6 299.6 303.6 302.2 300.7 301.8 300.6 299.9 302.7 301.9 304.1 304.6 303.7 299.9 305.8 306.6 312.1 316.8
589 579.5 569.8 560.1 547.7 525 498.6 476.5 450.4 434.8 407.5 382.3 363.1 347.2 328.6 312.8 297.4 280.9 273.7 259.7 247.8 237.6 229.5 221.8 214.1 213.1 212.7 212.9 212.4 212.1 211.4 210.8 210.8 212 211.8 210 213.6 217.4 218.6 219.4 223.8 229 235.6 255.7 269.7 288.1 314.8 336.3 348.8 362.9 377.6 388.8 400.6 404.4 403.8 406.5 406.4 395.9 387.4 386.1 383.3 376.8 371.6 365 361.4 359.1 356.3 349.1 340.2 331.4 323.5 319.5 313.5 307.5 305.6 305 306.6 312.6 318.7 323.8 323.7 329.7 335 340 348.3 351.8 351.1 350.2 354.4 359.4 353.9 344 335.9 334.6 331 326.3 321.2 317.2 313.6 310.8 310.8 311.2 309.6 308.6 306.7 305.8 305.2 305.5 305.4 302.3 300.2 294.8 289.1 283.4 279.1 273 266.3 261.8 257.4 251.9 249 240.2 233.4 228 221.1 211.3 198 194.3 189.3 199.1 186.5 166.4 169.3 183.2 202.5 226.3 254.8 277.2 290.1 302.2 309.1 313.2 318.9 322 325.4 330 329.4 326.4 322.9 323 318.6 308.2 308.8 309.7 311.2 310.2 305.4 297 292.1 295.4 291 287.4 285.3 286.7 289.4 295.3 301.6 300.5 297.5 297.5 298.1 302.8 305.6 306.9 304.8 302.1 301.1 301.5 307.4 308.6 311.6 311.8 307.3 305.9 308 307.6 305.6 304 304.5 304.7 305.3 305 308 307.3 306.4 303.5 308.8 309.1 312.7 319
577.7 568.2 558.5 549.9 537.7 518.9 500.8 475.9 446.8 415.4 390.1 368.3 353.6 331.1 309.7 294.6 279.4 266.4 256.2 245.8 237.4 230.1 224 219.1 210.8 214.3 214.8 214 213.3 212.5 212.2 214.9 216.3 215.6 215.3 215.4 218.5 217.9 221.8 221.5 226.9 239.9 256.9 274.1 294.4 312.6 329.6 343.4 356.4 367.7 379.5 393.2 403 403.6 408.2 412 406.7 397 389.5 385.5 381.6 376.4 368.5 362.7 355.4 352.1 345 339.2 333.7 326.4 321.3 316.9 310.9 307.3 310.1 314.5 316.1 318.5 326 329.9 337.5 344.7 350.5 356.3 361.6 366.5 371.3 376.6 384.3 388.1 382.4 370.8 351.7 349.9 346.2 340.9 334.1 322 313 312.2 313 314 314.3 313.2 312.6 311.9 310 310.5 311.1 307.6 304.6 299.3 295.6 289 282.5 275.7 268.4 264.7 260.8 256.4 251 244.2 236.2 223.6 218.7 208.4 207 205.4 192.4 202.9 197.7 171.9 169.7 178 198.7 224.2 253.8 272.7 287.1 298.9 306 317.8 324.4 328.3 330 334.4 337.2 335.9 334.3 328.8 326.8 318.2 321.3 319.5 316.1 311.5 304 297.9 294.8 296.6 292.6 294 293.3 291.7 297.1 303.9 304.4 303.3 301.9 301.3 301.9 309 311.9 310.8 306.5 305.3 303.9 305.5 312.9 312.6 314 316.5 314.3 310.5 309.8 309.4 308.1 308.3 308.6 308.6 308.1 308.2 310.3 309.8 309.8 312.1 310.2 313.8 314.9 322
567 556.9 548 542.7 529.9 513.6 484.4 455.8 428.1 400.4 374.6 353.1 334 313.6 295.9 279.2 266.2 253.8 244.1 232.1 227.1 224 220.1 216.2 210.8 215.3 215.1 215.3 220 218 222.6 224.9 223.8 224.1 225.5 224.5 223.5 225.1 222 227.3 242.5 260.4 277.3 296.6 311.9 325.3 336.5 348.1 360.5 369.6 379.8 390.1 397.4 403.1 408.7 408.7 404.7 404.4 395.9 384.8 378.4 372.2 365.8 360.7 352.9 348.9 341.1 334.4 326.9 320.8 316.8 312.9 311.7 311.3 316.1 321.2 321.5 327.5 337.7 347.6 356.6 366.4 372 381.8 389 399.2 406.5 415 425.4 427.6 418.6 400 376.8 369.7 362 354.9 348 338.9 323.6 314.8 314.8 316 318 317.9 318.6 318.6 316.3 316.7 316.3 313.9 310.3 305.5 301.3 294.3 284.2 278.1 273.6 268.9 263.7 256.4 248.1 245.4 235.6 229.8 221.4 220 213.3 206.7 204.4 205.9 208.9 193.9 168.5 171.5 189 216.5 249.9 273.5 295 308.3 319.9 330.3 341.2 344.2 344.9 348.5 348.6 349.3 346.1 343.2 337.7 334 333.5 329.7 324 317.4 312.9 305.5 297.6 299.4 303.9 307.3 303.5 301.3 308.8 310 308 306 306.5 305.6 308.4 316.4 315.3 313.5 311.4 309.6 308 314.8 319.7 318.6 317.8 318.5 317.2 315.5 313.2 311.4 310.2 311.7 312 311.4 311.5 311.9 312.3 312 311.6 312.2 312.5 317.4 317.4 323.5
555.7 547.5 540.9 533.9 522.4 495.8 462.3 432 407.1 378.4 357.5 334.1 317.6 301.1 282.2 265.3 255.9 245.3 235.6 226.9 222.2 221.4 218.6 213.6 210.8 214.7 217.4 222.4 227.6 235.3 241.9 243.3 244.7 246.7 243.2 241.1 236.5 232.6 231.6 245.2 263.3 285.2 302.4 322.1 334.9 337 345.9 353.7 368.4 375.9 383.7 394.4 400.1 405.6 408.4 411.6 412.1 409.6 399.5 382.9 373.4 366.8 360.2 351.3 346.1 342.9 337.1 331.7 328.3 320.9 317.7 317 316.8 316.9 321.2 326.2 330.3 339.8 353.1 364.7 374.3 384.2 397.2 410.9 421.4 432.6 444.7 454.5 451.9 443.8 430.2 409.8 390.4 390 380.5 370.1 357.7 347 332.2 323.5 318.6 320.9 324 325.3 325 324.4 323.2 322.2 320.5 316.5 313.6 308.2 301.1 296 289.7 280.6 272.1 266.8 260.9 256.6 251.3 244.8 238.5 233.3 230.3 224.9 216.1 207.2 209.8 211.4 213.8 205.3 176.5 172.4 180.1 207.6 241.3 279.9 307.1 315.6 334.7 345.9 353.8 358.2 356.3 356.9 357.7 358.8 355.1 349.1 340.1 341.9 342.1 341.4 336.6 329.9 323.8 317 311.6 314.2 314.1 311.3 310.6 309.3 315.1 314.3 311.5 309.7 311.7 311.5 314.8 318.9 320.6 320.3 318.3 316.9 319.2 320.9 321.7 320.4 319.7 319.5 317.8 316.4 315.9 313.6 311.5 314.1 314.5 314 313.8 314.2 314.4 314.4 314 313.2 316.4 315.1 319.7 324.1
545.5 538.1 531.9 516.1 491.1 464.2 440 414.5 384.5 360.7 337.8 315.7 301.4 289.4 269.6 255.4 244.7 236.5 229.2 223.1 218.6 217.9 214.7 210.8 215.2 216.9 224.2 235.9 249.3 262.3 272.3 278.1 276.2 272.8 273.2 268.8 262.5 246.3 246.9 267.2 287.6 308.8 335.6 345 351 350.2 348.1 356 369.7 383.3 392.4 397.9 402 406 408.9 411.2 407.5 402.5 397.1 384.2 376.4 368.5 361.3 349.9 344.6 337.1 333.4 327.9 324.7 321.5 322.1 318.9 320.6 324.6 327.2 333.7 342.4 351.8 362 373.1 384 397.4 410 423 433.9 442.9 453.2 459.7 455.3 443.5 425.7 408.1 406.4 400.1 386.7 375.5 361.5 351.4 337.1 331.1 329.5 326.8 329.6 330.8 330.3 329.2 327.6 324.9 322.4 319.5 315.4 307.5 301.4 297 287 282.5 278.9 273.1 265.4 259 250.5 243.6 240.3 237.1 230.8 225.7 221.7 215.3 213.9 215.9 219.9 213.4 184 173.7 174.6 199.6 233.9 272.8 308.4 323.2 340.7 354 362.2 364.5 362.8 364.1 362.7 362.1 357.2 353.5 349.4 354.2 357.6 357.6 353.1 343.9 336.5 328.4 323.1 319 315.8 315.7 316.3 313.2 315.3 316.6 315.6 316.1 320.2 324.3 325.6 325.8 326 324.8 322.9 325.7 325.9 324.4 323.4 321.6 321.5 320.3 319 318.1 316.9 314.2 312.6 315.1 316.6 316.5 316.1 316.4 316.6 317.5 317.4 317.8 320.3 313.6 322.5 326
534.1 524.9 509.8 487.4 460.8 434.6 412.8 386.2 365.4 340.4 317.9 299.8 287.4 270.9 257.3 247.3 239 228.6 221.8 218.7 215.3 210.8 213.9 215.9 220.2 233.4 246.3 262.9 277.9 292.1 313.5 325.7 318.3 312 311 306.2 293.5 268.3 266.1 288.9 314.5 342.3 364.6 377.5 379.1 367.4 362.5 363.1 373.5 390 400.9 405.3 408 408.1 410.2 409.3 406.1 402.4 397.1 385.7 374 367.3 356.7 347.4 342.6 335.7 330.4 327.7 323.7 324.3 323 322.7 327 331.2 335.6 344.1 354.3 363.6 372.7 384.3 394 405.1 417.5 430.4 441.9 453 461.8 464.1 454.7 441.7 426.8 421.6 417.1 408.1 398 382.7 363 359 347.6 337.4 335.5 333.5 335.5 335.1 333.4 331.9 330.2 327.3 323.2 317.9 312.1 305.9 299.8 294.6 291.7 286.4 282.3 273.9 265.4 256.4 247.6 250.7 246.4 238.8 234.5 232 228.1 221 221.5 220.8 221.4 220.4 204.9 179.2 175.6 195.3 223.5 258.7 299.1 324.5 344 355 362.5 365.2 366.3 370.6 368.8 366.6 366.6 364.9 362.7 372.8 374.7 373.4 362.7 355.4 343.3 335.6 331 321.8 319.1 318.2 317.3 317.5 317.8 320.7 322.4 324.6 328.9 333.1 332.8 331.7 331.8 331.2 333.1 332.3 331.7 332.6 330.7 323.4 323.5 322.6 321.7 320 317.3 315.9 315.5 318.2 318.5 318.5 318.6 319.4 320.2 321 321.5 321.7 323.2 324.1 323.3 327.4
520 496.4 478.7 457.1 430.7 403.8 384.7 359.6 339.5 318.3 301.1 285.3 272.4 256.5 244.9 236.1 227.7 220.6 215.4 214 213 210.8 216.4 222.2 235 254.1 275.3 302.9 331.5 353.4 365.6 367.9 369.4 361 369.3 353.9 319.1 283.7 282.7 321.1 345 382.4 402.9 413.4 402.9 396.6 388.9 385.2 394.5 411 410.1 411.7 413.5 415.3 414.6 407 403.8 400.7 398.4 394.4 379.9 365.3 354.8 345.3 337.5 332.8 329.9 327.3 327.1 326 325.2 328.2 332.3 337 344.4 353.6 363.7 373.5 383.8 392.9 403 414.2 427.9 440.2 450.9 458.2 460.1 457.8 450.1 444.2 438.9 430.3 421.9 407.4 394.7 389.4 384 374.3 358.3 345.1 341.5 338 335.7 335.1 333.9 331.6 328.7 323.2 319.3 314.9 312.3 308.3 302 297.3 291.1 284.4 277.5 270.7 264.7 260.2 257.7 252.5 248.4 244.8 241.7 240.2 237.5 230.5 227.2 226.8 226.1 221.4 211.5 186.9 175 182.4 211.7 245.4 281.9 317.7 338.8 354.3 364.4 369.9 376.1 375.4 373.5 378.8 381.5 382.2 382.4 383.9 385.9 380.6 370 359.2 347.8 344.9 334.8 323.6 322.5 320.9 320.7 325.9 326 327.9 330.6 334.1 336.9 338 338.1 337.3 340 339.5 339.2 337.6 334.5 333.4 329.5 327.2 326.6 325.3 323.6 321.4 320.3 319.1 318.9 321 321.4 321.7 322.6 324.2 325.4 326.4 326.6 326.9 327.2 327.7 324.5 328.1
494.9 470.7 440.7 421.8 402.4 378.5 356.8 338.7 318.9 302.4 283.4 268.8 260 246.3 235.7 227.1 217.4 214.8 213.1 212.2 210.8 213.2 221.8 237.2 256.1 284.3 316.2 349.5 365.2 366.4 369.8 374.5 379.4 390.8 387.9 350.3 319.4 286.9 319.1 363.5 385.8 401.7 406.4 409.5 408.3 403.2 399.1 402.5 412.9 423.4 426.6 422.8 418 418.1 417 414.6 410.1 403.7 397.5 392 378.3 360.9 350.6 343.3 337.1 333.8 331.7 329.1 328.3 327.3 329.1 334.5 338.7 346.5 355 363.7 372.4 385.1 394.9 404.8 414 425.9 436.3 446.1 454.7 460.3 461.3 457.9 455.2 453.4 449.5 436.2 420.1 417.6 417 407.1 403.3 395.3 370.8 360.4 354 345.9 339.8 336.1 333.1 329.4 326.5 322 319.9 317.4 312.7 310.7 304.2 301.2 295.9 285 278.5 276.9 276.5 271.9 266.9 261.8 257.4 253.3 251.1 247.1 243.8 239.5 234 234.5 231.2 224.5 211.8 205.4 176.1 182.8 205.8 236.4 271.9 309 328.3 348.1 362 374.4 377.8 377 378.9 386.8 390.2 390.3 390.3 390.4 392.1 382.9 368.2 357.4 350.4 342.1 333.1 330.4 328.2 326.9 333.4 335.6 334.5 335.4 340 341.9 341.3 341.5 341.5 343.2 343.4 342.2 342.4 343.2 339.2 334.9 333.7 333 329.7 328.7 326.4 324.5 323.3 323.1 323.7 326.5 327.1 327.6 328.6 328.8 330.2 331.2 331 330.4 330.2 329.7 326.7 326.7
469 441.3 412.9 392.2 373.4 352.4 331.2 313 298.2 281.8 265.6 253.3 243.7 235.3 227 220.4 214.5 210.8 210.8 210.9 213.9 219.6 235.6 256.8 276.6 319.7 340 348.4 355.8 363.2 376.5 379.6 380.7 392.1 385.9 344.5 314.6 298.8 343.2 373.1 399.7 407 411.3 412.3 410.7 407.2 405.5 410.1 419.5 428 431.6 427.6 421.5 418.1 415.3 412.2 406.6 399.5 391.2 382.5 370.1 359.3 351.2 344.4 339.4 334.8 331.7 332.1 330.1 331.2 335.2 340.5 348.1 355.6 363.4 373.1 384.3 395.6 405.9 415.7 424 432.8 442.3 451.9 459.5 465.6 470.4 470.5 467.7 462.5 449.8 445.4 445.3 442.3 439.9 432.3 424.7 411.5 392.5 380.6 368.5 362.5 349.7 340.9 336.8 331.8 328.7 324.3 319.9 320.1 312.2 313.1 308.9 303.9 294.6 289.6 290.5 291.8 290.6 285.1 281.3 274.7 267.4 264.8 260.1 256 254.1 249.9 243.8 242.1 237.6 228 226.8 215.8 187.1 181.5 197.4 227 258.7 295.6 320.5 338.8 354.7 365.5 373 377.2 383.8 390.7 396.1 395.2 395.7 401.9 396.6 384 371.6 360.9 351.2 341.8 339.4 336.1 330.7 336 338 339.6 341.3 344.2 348.1 346.7 345.8 346.4 347 346.9 346.2 344.7 344.3 342.8 339.6 341.3 340.8 339 337.6 333.1 330.4 328.6 328.2 330.1 330.6 332.2 332.6 332.6 332.8 333.2 334.6 335.5 334.9 333.3 333.4 332.8 331.8 327.1
442 420 391.4 367.4 344.7 330.5 309.4 291.2 280.3 266.2 251.1 240.8 231.2 224.6 219.5 212.5 213.2 213.4 213.7 214.2 219.5 231.7 251.8 278 307.8 342.6 356.5 367.3 370.2 372.5 372 372.5 375.8 381.6 383.1 356.1 316.4 323.1 360.6 383.5 404.6 421.4 427.5 422.8 421.1 420.9 415.8 418.9 425.4 431.3 437 433.1 425.3 418.3 413.7 407.5 400.4 392.4 383.6 375.6 366.4 357.2 350.6 344.7 339.7 337.1 336 334.4 334.6 338.7 343.4 350.9 358.5 367.3 375.9 387.3 398.2 408.3 417.3 425.3 433.5 440.9 448.8 456.2 463.7 471 476.8 480.8 474.4 470.2 476.1 476.2 474.6 468.8 459.5 448.3 440.4 427.1 416 396.1 394.8 386.3 363.7 353.4 346.7 337.7 333.9 327 321.8 320.7 317.4 320.2 318 318.9 311.2 302.5 305.4 304.6 307.5 300.6 295.5 289.6 285.3 278.2 275 268.4 264.8 258.3 251.2 247.3 243.6 238 231 212.2 192.9 181.4 188.5 218 249.8 283.4 308.9 328.6 344.9 357.4 363.7 374.1 383.6 392.4 395.6 394.5 398 404.3 394.2 379.7 369 361.4 351.4 347 344.8 338.9 336.6 341 342 344.3 347.4 350.6 352.9 352.4 351.5 351.1 351.3 350.3 349.6 348 346.4 345 343.3 344.6 345.3 345 340.4 335.4 334.2 333.8 335.2 335.5 335.4 335.5 335.1 335.5 336.5 338.3 339.9 341.7 343.6 341.1 338.9 336.6 334.7 328.6
415.4 399.1 368.8 340.4 326.1 305.6 289.7 273.5 262.1 249 237.6 228.8 219.9 212.7 214.7 213.5 214.3 216.4 217.8 223.7 234.1 251.8 274 303.3 341.3 359.3 370 375.2 381.1 386.1 386.6 383 370.9 366.5 361.3 347 312.3 341.4 369.9 384.2 400.6 413.2 417.7 418.2 418.7 419.4 421.4 425.8 430 432.6 433.7 428 420.3 414 409.4 403.1 395.1 389.8 384.5 376.4 370.7 363.5 353.8 345.4 341.3 340.8 338.9 339 342.6 347.9 354.4 362.6 371.9 381.8 391.1 401 410.3 419.4 426.4 434.5 441.6 449.5 456.9 463.8 469.8 475.3 481.4 485.5 489.1 492.4 493.6 493.5 488.5 480.6 469.9 459.6 451.6 439.3 429.3 424.8 418.5 408.9 388.9 368.5 360.4 352 344.4 339.7 337.9 332.3 332.3 335.5 337.7 340.7 332.8 322.2 319.2 321.6 321.7 315 308.8 304.8 295.7 289.8 283 274.8 268.1 260.3 256.3 252.9 247.5 239.3 231.7 220.1 207.6 187.2 184.2 211.6 239.5 272.2 298.7 317 333.2 346.6 355.1 364 376 389.3 392.2 389.5 391.3 394.4 384.3 369.5 366.3 363.6 358.8 353.7 349.4 338.6 343.4 346.3 348.7 350.8 353.4 355.9 356.5 360.8 362.2 362.1 361.7 362.1 359.3 355.7 352 351.5 350.4 351.9 353 349.6 347.7 346.5 342.6 342 339.6 339.9 339.9 340.2 340.1 342 343.7 347.4 355.8 356.7 354.1 349.1 345.2 340.6 337.6 335.2
391.4 369.6 346.8 319.7 300.2 287.1 270.8 257.5 245.6 234.3 224.1 216.2 214.4 215.8 217.2 216.6 218 223.6 231.3 239.4 253.1 273.9 304.9 332.7 358.9 375.1 381 383.8 388.3 388.4 380.4 371 363.4 357.6 353.9 339.1 336 357.8 371.4 384.6 396.6 407 413.7 418.2 422 424.5 426.6 429 430.1 427.7 424.2 421 415.2 412.7 406.2 404.5 403.8 401.7 396.9 388.4 380.5 370.2 354.7 347.3 345.9 343.9 343.6 346.9 353.8 360.2 369.3 378.4 387 395.5 405.2 413.4 420.8 428.4 435.3 441.7 449 456.8 462.8 469 474 479.2 485.1 490.6 496.1 500.9 501.8 499.6 494.5 487.6 479.4 469.9 459.7 454.6 453.3 447.9 435.1 425.2 399.9 383.4 374.7 369.5 363.9 364.4 361.9 351.8 355.7 356.7 357.9 355.9 348 341.2 335.3 335.7 338 330.7 321.9 312.3 302.1 289.2 280 274.6 272.1 268.6 264.2 257.4 252.8 248.4 239.4 230.9 220.8 196.4 183 202.5 232.8 260.5 288.9 309.5 325.3 338.8 346 353.7 362.2 371.9 377.8 381.2 382.6 381.6 370.2 364.7 365.5 364.5 360.5 355.6 347.8 348.8 351.1 354.6 356.9 357.9 359.2 361.5 364 370.3 373.5 375.2 372.3 367 365 368.6 370.2 369.1 367.3 365.7 363.4 358.7 356.2 352.8 349 350.6 346.5 347.3 348.5 350.4 353 355.3 358.7 362 361.6 358.5 355.2 351 348 342.8 340 335.4
368.7 344.3 322.2 301.1 281.9 267.1 254.5 242.4 230.9 219.9 215.5 212.7 218.5 219.6 220.1 223.9 228.1 234.7 247.9 261.8 279 299.5 327.4 353.7 366.6 374.7 380.6 383.8 385 388.4 381.7 365 358.9 357.8 357 341.2 351.8 370.5 379.7 386.1 396.5 405.4 414 420 422.8 423.9 425.4 425.3 424 420.5 418.7 415.7 413.5 412.8 413.9 416.7 417.4 417 409.4 395.5 383.1 370.3 358.8 351.2 350.7 350.1 354.8 360.4 368.2 376.6 386.5 394 401.2 408.8 415.9 422.9 428.6 435.1 441.5 449.4 457 463.3 469.3 474.4 480.3 485.4 489.8 495.7 501.3 506.6 508.4 508.7 504.5 498.7 493.1 483.5 477.6 473.2 467.6 458.9 447.8 433.1 415.8 401.4 394.2 385.8 379.8 379.3 379.2 372.9 369.8 370.1 370.4 369.6 364.6 356.2 350.4 346.8 341.2 331.8 319.6 310 298.5 286.9 282.3 278 276.6 274.3 269.6 261.2 255.8 252.8 249.7 238.5 227 205.9 182.4 195.2 222.4 250.2 277.9 300.7 316.7 330.5 338.2 344.2 352.5 362.7 367.7 373.2 371 364.7 363.7 361.4 362.1 362.6 359.1 353.8 354.1 355.4 359.2 362.7 368.3 369.1 368.7 370.3 371.6 375.4 379.3 379.7 378.2 377.2 379.5 384.7 388.1 384.6 380.1 377.9 374.4 370.5 363.8 359.7 356.8 363.7 362.7 362.8 366 364 365.7 369.7 371.5 370.7 367 360.5 357.8 354.5 350.4 345 341.7 337.8
340.6 320.4 296 278.1 265.4 251.2 238.3 229.3 220.2 213.4 214.2 218 218.2 219.9 226.9 231.4 238.4 249.6 265.6 284.1 304.9 323.7 351.1 372.4 381.3 378.7 385.2 388.3 387.3 380.6 374.9 368.2 368 364.1 359.5 342.1 361.8 377.4 385.8 394.8 403 409.2 415.7 419.9 422.2 423.4 423.6 424 421.9 420.6 419.9 420.9 423 426.7 430.5 436 435.5 431.2 419.4 403.9 390.5 375.1 362.8 358.7 358.7 362.7 369.2 376.5 384.6 392.1 400.3 407.2 414.8 420.7 427 431.8 437.9 443.2 450 457.1 463.8 470.5 476.3 482.4 487.5 492.6 496.5 500.3 505.8 509.5 511.2 512.4 510.2 507.5 506.1 504.1 498.7 489.2 480.5 470.9 457.3 445.2 434.8 420.9 415.4 411.9 405.8 397.4 395.5 393.3 388.3 385.9 387.6 386.9 379.6 367.7 364.4 359.8 348.8 336.9 320 311.5 298.2 289.5 285.1 281 279.5 276.7 269.4 262.5 257.2 254.2 252.6 242.4 233.4 208.3 184.2 192.6 215.3 243.6 268.2 291.4 306.3 318.9 326.8 333 340.3 347.7 352 354.5 348.8 351.5 353.7 355.9 358.3 359.5 361.2 364.2 365 367.5 370.2 372.3 376.5 378.6 379.3 381.1 380.9 381.8 384.6 387.1 389.1 391 396.7 399.1 396.6 391.9 389.3 387.8 382 378.2 376.6 376 374.2 373.8 373.4 379.1 377.8 375.3 374.1 379.4 378.6 375.5 370.1 367 361.7 358.1 353 347.3 344.1 340.9
315 298.4 277.1 261.1 249.5 237.4 228 216.9 214 215.1 215.9 215.8 218 223.5 232.4 242.2 250.8 266.8 287.7 301.7 323.3 350.6 368.2 372.5 381.1 389 399.2 399.9 395.1 384.7 377.7 373.7 370.6 367.5 353.3 355.1 371.1 385.6 394.1 401.4 406.6 412.9 417.8 422.8 426.2 430 430.9 432.1 430.4 429 430 435.1 439.8 450.8 459.5 465.5 466.1 450.4 431.4 416.5 400.4 385.3 368 370.5 374 378.2 386.6 393.1 401.1 407.9 414.3 420.3 426.7 431.5 436.7 442.2 447.1 452.7 459.3 466.6 474.3 480.4 486.6 492.1 496.6 499.9 503.8 506.6 508.7 511 511.7 513.1 515.2 518.6 521.3 521.3 513.2 505.8 497.1 488.1 479 468.7 457 444.1 436.5 438.2 433.8 424.2 420.8 418.5 410.3 406.8 405.7 399.2 387.7 379.9 372.9 365.4 351.8 333.6 316.6 306.6 299.5 294.2 287.3 284.3 283.8 281 274.1 264.8 256.5 251.7 249.7 243.9 234.1 208.4 187.1 192.6 210.5 236.1 259 281.7 296.9 308.1 315 322.4 331 338.5 344.1 339 341.3 344.3 348.9 354.3 357.7 360.3 363.8 368.2 369.3 373.5 378.3 384.5 389.3 390 389.1 387.4 387.1 389.7 395.6 398.6 404.6 407 408.6 406 402.7 398.8 400.4 396 391.6 394.8 397.9 391.6 387.4 383.3 383.3 387 386 384.2 384.5 386.5 383.1 378.4 374 370.2 364.7 359.5 354.3 349.6 346.5 343.8
295.4 279.1 262.6 247.1 237.2 227.1 216.1 215.6 215.4 218.2 218 219.8 223.4 230.3 241.5 254.4 269.6 289.1 308.1 324.3 345.4 363.3 376.2 380.9 388.2 393.1 396.5 396.5 390.6 382.2 376.7 373.3 370.1 363.7 361.9 368.5 380.7 391.3 399.4 406.6 412.5 419.8 426.4 433.6 440.8 442.4 440.7 441.2 440.1 440.2 446.5 455.4 462.6 470.4 480 480 470.8 455.7 437 421.1 404.8 387.7 385.2 385.8 390.3 398 404.3 409.4 415.9 421.5 426.8 432 436.9 441.6 445.8 450.5 456 463.3 470.4 478 485.1 491.6 497.2 501.8 505 508.2 510.4 512.4 513.1 514.5 516.1 517 520.4 524.5 528 528 525.9 520.9 517.7 507.1 495.6 485.7 477.1 470.1 466.8 461.1 452.3 445.3 439.1 434 426.7 420.9 411.2 403 394.5 387.8 377.7 361.6 345.9 327.7 316.3 307 301.4 297.8 293.8 294.8 290.3 286.8 277.7 269.5 260.9 252.8 247.3 246.2 239.2 218.1 198.8 186.5 210.9 231.6 253.5 272.9 289.9 300.2 306.3 313.4 323.8 331.1 336.9 335.4 335.8 340.6 345.7 352.4 355.8 360.7 367.2 371.6 373.3 379 385.4 391.2 397.8 397.5 396.1 396.6 401.4 403.4 409.9 414.3 416.7 417.3 415.7 412.7 411.9 413 409.3 408.7 407.2 413.2 410.6 405.5 399.2 393.2 397.4 398.8 395.7 394.3 392.7 391.4 389.4 386.7 380.4 376 369.2 364.1 357.5 352.6 349.4 346
275.9 264 251.7 238 230.6 221.6 215.3 215.9 219.2 220.5 222.3 225.5 234.3 242.5 255.5 272.6 289.6 306 329.1 350.8 371.1 385.1 392.5 391.3 390.2 392.5 392.6 389.8 384.4 380.9 377 372.2 366.2 367.7 375.6 380.1 391.1 400.5 408.8 418 424.3 430.4 437.6 443.4 446.4 447.4 447.8 449 450 453.8 461.6 468.8 473.3 477.7 478.1 472 463.8 452.9 439.9 424.2 403.4 403.4 402.1 403.6 408.5 412.9 417.3 421.3 426.8 431.4 436 440.3 443.9 449 453.6 459.5 466.7 473.2 481.5 489.2 497.4 503.7 509.8 513.5 517.6 520 521.9 523.3 523.9 524.2 525 524.3 525.2 527.1 528.6 529.7 529.4 525.9 521.7 513.7 506.1 495.2 487.1 481.4 474.7 467.2 457.5 450.1 443.6 437.7 431 421.9 413.9 406.2 398 387.8 374 358.3 342.9 332.6 319.6 311.8 305 300.4 298.9 297.4 294.2 288.4 279.8 275.8 268.3 257.9 252.7 244 242.6 230.9 202.6 197.2 203.6 228.6 250.5 267.2 284.6 290.4 298.5 307.4 315 322.1 326.4 328.3 334 340.3 345 351.3 354.9 360 364.8 371 376.7 383.2 389.8 395.9 400.9 401.4 402 405.4 410.7 417 421.7 420.2 423.6 425.7 426.6 423.7 424.8 425.7 425 423.1 426.4 426.1 417.8 411.6 406.6 404.4 406.1 405.3 406.1 405.2 402 400.2 399.9 398.8 392.2 385.7 378.8 371.8 362.1 357 352.9 349.7
263.8 251.8 241.4 231.3 223.7 217.1 216 216.8 221.3 222.9 226.5 235.6 245.1 254.6 271 289.9 307.8 329.8 354.3 372.5 386.3 393.6 400.7 397.8 393.5 392.3 389.9 386.4 382.3 379.6 374.4 376.5 377.3 377.9 385.9 393.9 400.9 411.1 420.3 427.1 434.1 441.4 449.4 453.9 455.8 454.4 455.2 458.1 461.6 466.8 471.6 475.5 477.5 478.2 476 470.8 463.7 454.5 440 421.1 418.2 417.7 417.1 417.1 418.4 422.5 426.8 431.6 434.9 438.7 442.7 446.6 450.9 456 462.4 468.7 476.4 484.4 492.1 500 509.2 517.5 524.8 530.1 533.6 534.5 533.2 531.4 529.6 531.8 535 531.6 528.5 529.3 530.1 531.1 530.8 526.8 522.8 515.9 507.5 498.7 490.7 482.9 474.1 464.8 455.1 448.9 444 438.3 431.4 425.8 419.6 408.8 399.2 387.2 371.3 357.3 347 333.1 324.5 316.9 307 303.9 303.2 299.2 293.8 289.2 278.3 270.8 264.1 259.1 252.8 243.3 243 236.6 222.7 196.7 198.5 225.4 245.7 264 277.8 284 292.1 302.6 311.3 314.1 321 325.4 333.2 338.9 344.5 348.6 357.9 362.8 366.7 372.9 379.5 387.3 395.6 401.1 405.3 408 411.3 413 416.6 423.3 425.2 431.6 438.2 438.3 440.8 441.7 440 436.2 435.6 435.3 432.5 426.4 419.5 416.2 412.7 412.6 412.3 412.9 413.1 410.9 413.5 413.9 414 410.7 403.2 393.8 386.1 378 369.8 363.6 357.5 352.6
254.5 245.4 235.3 227.1 220.5 216.5 214.7 217.9 220.7 223.6 233 245.6 258.5 271.4 290.3 312.5 330.6 355.3 380.9 396.3 404.8 407.8 403.7 396 392.3 389.8 386.3 382.4 380.3 382.3 382 384.9 387.5 392.3 393 404.7 411.3 419.2 426.7 435.3 443.3 451.1 461.2 461.7 460.3 460.6 462.1 465.6 469.6 472.6 475.7 477.7 477.9 475.7 472 466.2 458.6 445.4 431.5 426.8 427.7 428 427.3 427.4 429.4 432.3 436.2 438.9 442.8 446.4 450.7 455.1 459.1 465.8 471.7 478.7 486.6 496.2 504.9 513.8 524.8 534.5 539.9 540.9 540.2 539.5 536.1 533 534.8 537.7 534.5 529.7 527.5 528.4 528.6 527.9 527.8 524.7 518.2 510.7 502 494.1 484.9 476.1 467.5 459.5 452.2 446.7 442.3 436.7 431.2 424.7 416.3 406.4 395 380.3 368.4 356.9 348.1 332.8 324.8 316.8 309.2 304.7 303.2 298 294.9 285.6 276.8 269.8 264.2 260 253.3 244 238.7 234.8 230 205.7 197.4 223 241.4 257.5 269.3 279.3 286.1 294.9 305.3 310.1 321.3 321.9 330.9 335.8 341.9 348.8 356.4 362.3 367.3 374.8 381.7 391 398.1 404.3 409.4 412.8 420.3 422.7 425.7 436.1 442.2 445.8 446.5 447.1 450.3 455.2 455 453.4 450.7 444.7 436.2 427.7 421.1 420.5 419.9 420.1 419.9 420.5 419.3 420.3 421.3 420.9 420.3 413.1 407.1 397 390 384.8 375.2 367.5 360.9 356.3
247 238.7 232.9 225.6 218.5 216.3 215.4 222.8 222.7 229.4 242.2 256.6 274.9 294.7 311.6 333.6 364.3 385.4 401.3 409.1 408.2 403 397.9 393.1 389.1 386.6 384.4 385 384.9 387 390.1 391.7 396.6 402.4 406.9 413.7 421.2 427 436.5 443.4 450.1 454.9 459.5 463.1 464.1 465.7 468.9 472.5 474.5 475.5 475.5 474.6 473.8 470.6 465.3 456.4 446.8 443.8 440.7 443.8 446.2 444.6 442.8 443.9 444.8 446.4 447.8 448.4 451.5 454.4 459.2 464.5 470.5 476 482.9 489 498.2 507.2 516.4 529.2 540.4 547.9 550.2 548.7 544.2 541.6 538.7 534.5 532.1 530.1 527.7 525.5 524.9 525.4 525.4 523 518.6 513.6 508.3 499.6 490.8 481.6 472.9 465.1 458.5 452.5 446.8 442.1 437 431.3 425.5 417.8 409 399.3 387.8 375.1 363.3 354.4 340.6 331.8 325.5 315 307.3 302.8 295.2 293.2 285.9 280 270.9 264.2 259.9 257.5 250.4 245.8 238.6 236.2 214.4 194.6 194.3 216.2 235.1 249.6 261 272.5 281.4 290 300.2 309 319.2 315.8 323.9 332.9 342.1 347.1 354.2 361.2 367.5 376.9 384.7 395 403.9 409.6 415.2 423.5 431.5 437.8 433.5 434.1 438.7 443.7 448.3 457.1 464 467.2 468.3 467.7 461.2 450.1 438.7 432.4 427.4 428.4 430.2 428.7 426.9 425.9 426.1 425.6 422.7 419.7 414.1 411.4 404.6 395.6 390.7 385.4 380 373.6 365.2 359.9
242.7 236.3 230.7 223.9 214.7 214.7 216.2 223.8 228.1 239.8 256.5 277.3 297.7 319.3 338.2 361.1 386.8 404.4 411.7 411.5 406.3 400 395.1 392.9 389.6 389.3 389 390.7 390.9 394.8 397.9 400.2 405.9 411.8 417.3 420.5 427.4 433 439.7 445.9 451 454.9 460 463.9 467.6 470.4 474.2 475.5 475.3 475.3 474 471.9 469.4 465.7 462.5 454.6 455.4 456.7 458.5 462.6 464.5 463.6 462.3 462.3 460.4 459.6 460.1 461.2 464.3 466.3 471.2 476.1 480.9 486.8 492.8 499.8 507.3 516.8 527.3 537.2 545.9 550.5 550.5 548.7 545.4 542.7 539.7 537 532.9 529 526.7 523.7 521.9 520.3 517.5 513.2 506.3 499.9 493.2 486.3 477.3 468.5 460.3 454.7 449.8 445.4 440.5 434.2 429.5 424.6 417.5 410.5 401.1 389.3 379.3 368.4 358.1 347.4 338.8 330.1 324 314.6 307 300.6 295.1 288.3 282.3 276.3 266 260.9 255.4 254.3 246.3 245.5 239.5 232.6 219.9 198.2 200.5 206.6 224.4 239.1 252.8 265.6 277.8 287 294.4 301.9 308.4 317.4 323.5 327.7 335.3 342.7 355.2 363.1 373 382.9 393.8 401.4 408.4 417.1 424 432 436.6 430.2 426 427.9 429.8 439.6 451.2 461.8 468 470 470 466.3 459 444.9 435.7 434.6 431.9 434.4 432.1 431.3 430.4 427.1 424.3 420.8 416.8 415.3 415.6 412 402.3 401.5 395.5 392 387.5 376 370.9 363.6
224.9 220.4 217.9 220 223.6 223 222.7 229 241.5 256.3 274.9 296.9 316.7 343.6 367.2 384.2 405.6 411.1 410.8 407.3 402.8 399.3 396.8 395.1 394.7 395.2 395.2 396.7 401.1 403.3 404 406.8 413 419.1 424.6 429.8 431.8 439 443 449.5 454 458 462.3 465.6 470.2 472.7 474.8 474.7 474 473.4 471.5 469.4 467.1 464 459.6 461.3 468.4 476.5 483.8 488.5 483.8 479.8 476.9 474.9 477.6 476.2 477.8 481.2 479.5 482.6 484.6 489 493.7 498.3 503 509 516.3 523.4 531 538.8 545.1 549 548.7 547.1 544.7 541.9 539.8 536.4 530.8 526.2 522.4 518.8 515.7 510.6 506.2 500.1 492.6 485.7 478.4 471.3 464.1 455.9 448.1 442.6 439.4 435.4 430.2 424.2 418.9 412.6 405.9 398.5 389 380.2 371.6 363.5 351.9 342 333.3 325.3 317 310.8 302.4 294 287.2 278.7 278.3 273.6 260.4 254.8 250.8 248.6 241 238.8 236.8 232 219.2 203.1 211.7 217.1 210.5 231.7 246.5 261.2 276.4 284.8 291.4 300.1 310.3 321.4 327.9 330.8 340.6 346.6 354.3 365.6 376.7 386.2 395.1 404.2 413.8 424.5 435.3 438.6 438.6 427 414.4 416.8 424.9 434.7 444.8 454.7 461.6 463.4 464.3 459.3 448.2 442.1 436.7 435.9 437.8 440.7 443.3 444 440.7 432.6 428.2 424.2 422.6 421.5 418.1 411.5 411.6 407.8 400.3 392.3 385.1 376.1 371.3 367.1
217.9 219.8 221.8 226.2 227.8 229.6 229.8 238.5 254.5 274.3 298 325.5 344.3 371.2 386.6 400.7 407.8 407.8 407.5 405.7 404.8 402.5 401.1 400.5 402.7 404.2 409.2 408.6 409.3 415.3 418.1 418.6 424.3 428 432.2 437.8 440.4 443.2 447.7 453 457.6 462.7 467.4 470.3 471.6 474.3 476.3 476.6 475.6 473.5 471.5 469.9 465.7 464.2 467.2 473.5 485.5 494.4 498.4 500 498.9 499.8 499.3 498.8 501.7 499.5 499.9 497.9 498.1 497.1 498.3 502.2 505.6 507.9 511.5 516.2 522.3 528.2 534.3 540.5 546.5 546.7 544.8 543.3 540.7 537.8 535.1 530.9 525.7 519.8 514.3 510.3 505.3 499.2 491.7 483.8 476.3 468.8 463 455.1 448.8 443 436.8 432.1 427 423.2 417.9 411.1 403.7 397.8 392.2 385.5 379.5 371.1 363.8 353.9 343.8 334.5 325.9 317 310.3 303.2 295.8 286.9 278 273.4 272.7 269.5 258.9 254.3 252.4 244.5 239.7 225.9 218.7 207.9 207.1 211.3 217.2 226.9 218.2 223.9 243 259 274.4 283.9 291 302.2 315 323.2 329 333.2 343.8 351 358.9 368.5 378.5 387.1 397.6 408.3 417.7 427.2 434.1 438.1 436.8 425.1 408.5 407.1 415.1 423.7 432.5 442.9 448.1 451 451.9 449.1 447.7 444.8 443.4 445 450.6 454.7 456.9 454.6 445.4 435.1 429.2 426.9 424.5 421.6 418 418.1 415.5 411.6 403.8 396.1 389.1 380.6 374.3 372.1
218.9 219.1 221 224.5 228.5 231.5 236.7 251 271.6 295.3 321.1 344.7 365 381.4 392 400.2 404.2 407.6 408.9 409 409.5 408.7 410.3 411.2 415.1 421.3 420.6 419.9 421.2 430.9 433.2 434.1 439.6 443 444.8 447.9 452.2 455.7 455.4 458.7 460 465 469.8 473 474.7 476.6 477.9 478.4 477.5 475.9 473 470.3 471.2 473.7 476.1 483.9 496.1 504.1 511.7 516.1 522.6 526.9 530.9 527.6 524.1 520.6 517.3 515.6 513.6 511.8 512.4 512.3 514.1 515.6 518.7 523.9 530.9 537.1 540.9 543.7 543.6 542.1 539.8 537.2 533.6 530.5 527.9 523.2 517.3 510.9 504.2 499.3 492.4 484.8 477.6 469.1 462.1 456.2 448.6 440.9 435.1 429.5 423.9 418.6 413.5 409.5 403.4 396.7 390 385.1 380 375.1 369.3 361.6 353 345.5 335.9 325.8 317.4 309.6 301.3 295.1 286.5 279.7 271.8 266.3 264.8 261.9 251.1 248.3 247.6 238.4 224.4 212.4 213.1 213.3 215.7 224.4 228.7 236.1 232.4 222.1 240.2 256.8 272.2 283.7 292.7 306.5 317.1 326.2 328 337.9 346.3 351.1 361.8 371 379.5 390.7 402.3 412.1 422.6 431.6 434.8 436.1 426.9 412.3 399 398 403.8 412.3 422.1 432.1 439.8 445.3 446.3 445.3 445.8 447.4 449 456.6 459.9 458.1 453.3 445.3 437.2 432.3 428.8 424.5 423.5 421.9 421.2 419.5 417.1 413.8 407.8 401.5 394.2 387.2 382.4 379
219.2 219.5 221.3 225 228.4 235.3 248.5 270.4 290.9 310.7 334.5 355.5 371.1 383.1 394.2 402.2 408.7 413.8 415.8 419 422.5 425.5 424 425.6 429.3 432.7 434 440.7 444.2 449.6 450.9 453.7 455.3 458.5 461.8 461.6 464.6 463.6 464.1 463.9 464.6 470.4 471.4 475.1 477.9 477.7 480.6 481.5 482.5 483.8 483.8 484.3 486.6 489.4 488.9 498.9 512.5 523.5 532.3 541.3 550 556.2 558.4 552.4 545.8 539.7 535.1 531 528.8 526.1 523.8 523.2 524 525.6 530.1 536.7 541.6 544.2 544.6 542.8 539.6 537 533.8 530 525.3 520.5 516 511 504.8 498 490.7 483.5 476.1 468.7 461.1 454.7 449.5 443.4 436.1 428.7 422.8 416.7 410.7 404.4 399.1 393.5 389.5 383.6 378.1 373.2 368.4 363.1 357.4 350.4 343.9 335.6 326.4 318.1 309.5 301.2 293.2 287.1 281.9 274.8 267.1 265 263.7 258 242.6 240.3 233.5 219.8 218 226.6 225.9 224.7 228.6 234.9 234.8 240.1 240 225.8 235 253.5 268.1 281.2 291.8 305.6 312 320.7 328 338.4 346.1 354.1 363.9 373.7 383.6 394.9 406.3 416.1 428 435.4 435.6 429.4 415.8 401.7 394.6 393.3 396.5 401.3 411.6 422.7 433.7 438.6 438.8 439.2 443.7 447.9 450.4 451.2 448.4 444.7 441.6 436.5 432.9 429.4 429.7 429.9 427.8 425.9 425.5 422.3 421.5 418.7 411.1 405.6 400.9 395.8 392.3 389.1
219.2 220.3 223.6 228.1 234.2 246.8 262.7 276.9 302.7 324.8 345 361.7 375.9 388.8 400.7 410.5 416.5 425.4 436.4 442.5 443.8 444.5 442.8 441.9 443.6 448.9 456.9 466.3 470 470.9 469.4 469 469.7 473.3 473 472.5 472.6 469.5 472.5 470 470.7 472.6 474.6 478.9 483.3 483 486.4 489.3 496.3 503.5 507.1 505.8 507.4 508.8 507.2 520.5 534.5 545.4 553.6 563.6 568.5 570.6 568.8 565 560 554.7 548.9 543.3 539.5 536.6 534.2 534.6 535 536.7 540.2 544 544.6 544.6 542.4 538.6 534.3 530.1 525.8 520.9 515 508.6 502.2 497.2 491 483.9 475.2 467.4 461.3 453.6 447.7 441.9 436.4 429.7 421.2 414.4 408.6 402.1 395.5 389.8 385.6 380.8 377.4 370.8 365.7 361.5 355.5 349.3 343.2 338.1 331.2 323.4 315.9 305.5 299.3 292.2 285 278.6 273.5 265.6 261.7 258.2 255.1 248.7 238.6 223.5 221.1 226.8 235.7 233.4 233.2 236 237.8 236 240.6 240.3 242.4 233.7 228.6 247.6 262.9 276.4 288.2 301.7 310.3 317.2 328.6 339.2 343.5 355.5 364.8 376 385.7 397.6 408 415.5 424.6 430.2 428.6 420.8 410.9 401.2 396.8 391.5 391.3 392.8 399.6 407 415.6 420.5 423.6 427.6 435.8 438.9 439.8 442.4 441.3 440.4 437.5 434.7 433.9 434.2 434.4 434.3 434.3 434.2 431.8 429.8 426.9 424.4 421.8 418.1 413.9 408.8 405.1 402.5
222.2 223.5 228.5 235.7 244.9 263.6 279.2 298 315.4 327.9 342.7 369.6 386.5 401.2 411.8 420.8 429.3 441.4 454.1 460.4 467.2 465.9 458.8 459.9 462.2 474.2 478.4 485.8 484.1 484.3 483.6 481.3 480.4 481.3 480.9 480.9 477.6 476 477 475.3 477.7 480.9 482.3 488.8 492.4 495.8 503.4 516.6 525.7 530.2 531.7 530.2 528.6 527.2 531.3 542.9 556.5 566.7 572 573.3 574 574.5 574.7 571.1 566.6 562.1 556.1 550.8 547.2 544.6 543.8 543.8 544.3 545.8 546.3 545.1 543.6 541.1 537.2 532 526.9 521.7 516.4 510.3 502.8 496 488.2 481.9 475.8 468.7 461 454.1 446.9 438.9 433.5 425.7 419.4 412.1 404.6 398.6 391.9 387.8 382.4 377.3 373 368.6 363.2 358.7 352.6 347.4 342.3 335.7 330 323.4 316.1 310 302.8 296 287.7 282.3 277.6 272.7 267 261 253.7 246.9 241.8 231.8 222.4 225.7 230.8 235.2 237 240.4 245.4 249.9 250.9 248 248.4 246 242.8 239.1 227.1 240.2 258.2 273.5 284.8 297 308.8 317.1 329.6 337 346.4 356.2 365.4 373.1 384.7 395.2 402 407.4 415.2 418.4 418.3 414.5 409.4 403.6 396.5 391.6 388.3 388.3 391.7 397.6 401.9 405.1 412.6 418.2 421.6 424.9 430.7 434.9 436.1 437.2 436.9 436.5 438.1 438.8 439.5 440.8 443.2 442.7 440.9 439 439.3 439 436.6 433.5 427 421.9 415.8 410.8
226.1 231.9 238.8 248.1 262.5 279.1 295.5 313.9 332.9 351.9 371.5 384.2 398.1 411.8 424 434.4 449.4 464.6 472.2 476.9 478.5 478.3 477.1 476.6 483.8 490.6 493.7 495.6 496 495.8 493.7 493.3 494 491.4 488.5 484.3 480.7 481.4 480.2 484 487.3 490.3 493 498.4 506.8 518 528.1 536.4 544 549.4 553.6 553.3 551.1 552.3 559.5 569.7 579 581.1 579.8 578 575.8 575.9 580.1 578.9 574.5 569.2 563.3 557.7 553.4 550.8 550.4 550.7 551.4 549.6 544.8 541.9 538.8 534.1 528.8 522.5 516.9 511.7 505 497 489.2 481.9 474.7 468.2 461.2 452.8 445 436.6 429.2 421.7 415.5 408.4 402.9 398 391.6 385 379.9 375.9 371.1 366.4 360.7 356.1 350.5 345.6 339.4 333.6 329.2 324.2 316.7 309.9 302 295 291.3 287.5 278.1 272.1 266.4 261.9 256.1 249.5 241.6 235.2 230.9 228.8 237.1 238.7 239 241.5 248.2 255.1 260.6 264.8 261.5 258.2 258.6 253.8 247.1 245.1 233.6 233 249.8 265.5 279.7 292.5 307 316.2 327.7 338 348.4 356.2 359.5 368.7 377.6 388.2 393.3 397.4 401.2 405.6 409.2 408.5 402.9 400.7 394.8 387.9 384.9 385.4 386.3 391.4 394.5 398.1 405.5 411.8 416.2 420.8 425.5 429.6 433.5 436.7 438.5 441.2 442.7 445.4 447.2 450.2 452.2 453 454.8 455.4 454.4 451.9 449.1 445.2 438.7 433.1 426.4 420.4
233.9 239.9 252.2 266.9 281.4 294.8 313.1 337.3 355.2 370.1 384.2 401.4 413.9 421.3 433.5 450.4 466.1 476.4 483 487.1 491.5 492.4 490.9 492.9 496.7 502 503.7 504.1 502.9 503.7 505.5 504.1 500.9 497.3 492.3 488.3 488.3 488.2 488.9 493.1 494.8 500.8 510.1 519.2 528.2 537.7 548.7 558.8 565.8 569.8 573.7 575.5 574.2 578.6 585.4 589.4 590.4 587.2 580.9 577.3 575.8 575.8 576.1 576.1 574.8 572.2 569.5 564.6 557.3 554.8 553.5 552.4 548.8 544 538.9 533.5 528.9 523.1 516.2 509.6 503.7 496.1 488.1 480.8 474.4 466.9 458.8 452 444.6 436.8 429.1 420.9 413.2 406.2 399.6 393.6 388.6 382.2 377.1 371.1 366.9 361.5 356.7 352.8 347.9 343 337.9 332.7 327.3 321.4 316.1 312.1 306 299.7 292.8 289 285.5 281.9 276 268.3 261 255.6 251 243.3 234.6 230.2 234.8 239.6 242.7 244.4 248 254 261.3 271.9 276.6 277.1 271.6 270.5 268 259.3 253.2 246.7 235 229.6 243.8 262 276.4 290.9 303.7 312.7 328.7 337.5 345.7 351 353.4 361.8 369.1 378 385.3 392 395.2 396.6 396.9 397.8 394.7 389.3 383 380.5 378.5 378.7 380.2 387.3 392.1 394.7 401.5 408.2 414.4 419.8 425.1 430.2 434.9 437.9 440.7 444 447.2 452.3 455.7 460.4 462.1 465.2 466.6 467.2 467.6 465.9 461.8 457.4 451.7 445.8 438.5 432
245.6 252.6 267.3 280.2 297.9 316.3 337.7 357.3 370.3 383.6 402.1 413.8 421.8 432.3 444.2 456.5 468.4 477.3 484.4 490.3 495.1 494.6 495.6 498.5 502.1 504.9 506.5 508.7 509.3 511 510.2 508.4 506.5 501.9 499.2 497.9 495.6 495.8 498.9 503.1 510.5 519.9 529.8 537.3 546.5 558.8 569.4 577.8 585 590.4 592.1 593.8 597.1 601.4 605 599.9 591.1 582.6 575.5 573.9 572.7 570.8 571.1 570.9 570.6 569.8 566.9 561.9 556.9 554 549.6 545.7 539.8 533.5 527.2 520.9 513.9 507.4 501 494.4 486.2 478.4 471.7 464.6 458.3 450 442.8 436.2 428.7 421.1 412.6 403.8 396.1 390.5 384.3 379.5 373.1 368 362 356.7 353.1 346.8 343.1 339.6 335.6 331.3 326.2 321.1 316.2 310.9 304.5 298.8 294.7 289.3 285 279.3 275.7 270.5 266.1 258.9 252.2 249.4 239.5 235.4 237 239.7 244.4 247 250.4 255.9 262.2 269.3 278.9 288.4 292.1 285.2 283.7 281.4 273.4 265.7 260.7 245.3 239.9 235.8 237.7 254.5 273.6 286.4 298.5 309.1 322.2 332.1 340.5 345.8 348.1 353.4 360.6 368 372 376.2 380.1 382.3 385.1 384.7 381.2 375.8 375.2 374.7 374.5 376.2 378.3 384.2 387.6 394.4 401.1 406.1 414.9 421.7 427 433.3 439 443.1 445.7 450.8 455.8 458.9 465.1 467.6 470.7 474.3 475.6 478 478.1 478.4 476.3 474.5 470.5 464.2 457 447.6
258.6 271.9 282.9 300.8 317.7 335.8 355.2 371.1 388.3 404.6 416.2 424.1 433.3 445.2 453.7 462.3 472 478.7 485 489.6 493.2 496.5 498.5 502.6 505.9 509.6 515 519.3 521.5 518.7 515.2 512.8 510.9 509 506.9 503.3 503.6 507.5 516.8 526.6 535.3 541.7 549.3 558.5 568.3 577.4 585.7 593.5 600.9 606.2 610.4 611.1 611.6 611.1 607.6 597.5 584.5 574.5 568.1 566 560.8 559.6 561.2 561.6 561.7 560.9 557.8 554.3 550.2 545.5 539.2 532.8 525.9 519.7 513.1 504.9 498.2 490.7 484.3 477.4 470 463.2 455.2 447.9 440.5 433.2 424.3 417.9 410.1 402 394.5 386.6 380.5 375 368.7 363 356.5 350.7 346.4 340.4 337.8 333.1 329.9 327 323.4 319.9 315 310.1 305.5 300.7 295.4 290.2 284.2 279.4 275.3 269.8 265.7 261.5 255.7 249.9 243.7 238.2 238.2 240.5 243.3 247.1 251.3 259.5 265.5 269.8 277.7 285.2 292 301.5 305.6 298.6 297 289.6 278.6 272.3 261.4 249.6 243 240.9 233.2 252.1 267.5 281.9 293.6 306.1 314.5 325.4 332 337.7 342.5 345.8 351.8 357.5 362 362.9 366.6 369.5 372.5 372.1 369.6 368.5 369 370.2 371.6 373.6 379.5 383.1 386.4 395.5 402.5 409.1 415.9 425.4 431.9 437.5 445 450 452.8 457.8 461.9 467.2 472.4 476.1 479.3 481.6 484.5 486.8 489.3 491.8 493 492.1 489.5 484.7 477.5 467.5
271.3 287.4 302.6 319 335.8 352 369.6 392.7 409.1 419 426.9 433.6 443.2 452 458.7 463.2 471 477.4 483.1 487.9 492.6 497.4 502 507.5 515.4 521.9 526.1 530 529.6 527.6 523.6 521.4 518.1 514.1 513.3 512.7 516 526 536.3 544.7 553.1 560.2 569.2 576.9 583.9 590.6 599.3 607.6 614.5 620.2 622.6 616.5 611.2 605.4 595.7 584.3 573.7 565.5 559.3 552.7 547.3 545.8 546.9 548.5 548.2 547.1 544.5 539.5 535.1 529.8 523.5 517.2 508.7 501.6 493.4 486.6 480.3 473.9 467.5 461.2 454.1 445.4 436.5 428.5 420 412.6 404.8 398.6 392.5 384.2 377.7 370.2 364.1 358.3 353.6 346 340.2 334.5 331.5 326 324.3 320.3 317.3 314.8 311.9 308.6 303.6 298.8 295 290.9 284.9 279.8 273.9 269.6 267.3 261.4 256.3 252.5 247.4 242.1 239.5 242.3 243.4 246.3 251.6 257.1 263.6 270.2 280.2 288.2 295.1 302 305.8 309.3 308.1 311.3 307.6 298.8 284.6 274.9 263.5 254.8 247.7 244.2 236 248.9 263.8 276.3 289.8 298.5 307 315.1 325.1 329.3 335.3 339.5 344.4 350.9 354.8 356 356.5 359.9 361.3 361.8 364 364.5 367 369.9 372.3 375.2 379.1 382.7 388.8 398.3 405.5 415.6 424.8 432.9 437.5 443.6 447.7 453.6 459 463.7 466.9 472.9 478.5 483.6 484.2 489.3 492.1 494.2 500 505.2 506.7 506.6 506.6 503.6 497.7 487.5
288.9 306.5 322.8 335.8 349.6 367.1 391.4 407.1 418.9 425 431.2 440.6 449.5 457.9 463.7 469.2 473.3 480.3 487.4 492.1 496.5 503.1 509.5 517.1 526 531.1 536.1 538.1 536.6 534.1 529.8 527.4 523.5 521.4 522.7 527.3 533 543 554 563.1 572.2 580.5 587.6 593.4 599.8 604.5 610.8 616.4 620.6 625.1 622.6 613 603 591.3 580.5 569.8 561.5 553.6 547.8 542.4 538.1 533 533.1 533 531.7 530.8 528.4 523.9 518.9 512.8 506 499.5 492 482.6 475 469.4 463.4 456.1 449.1 441.3 433.6 425 417.2 407.8 400.7 394.1 387.4 381.1 375.6 368.5 359 353.5 345.7 340.9 337 329.5 323 321.4 320 315.3 314 311.3 307.1 303.7 301.9 298.8 293.1 288.2 285.3 281.4 276 271.1 266.2 262 257.8 252.9 247.8 245.2 244.7 247.3 248.9 248.9 253.1 259.3 266.8 272.6 279.9 288.9 297.6 303.4 310.5 316.9 316.3 316.1 320.3 321.8 313.2 302.4 290.9 280.9 267.1 261 256.2 250.6 237.6 242.7 261 272.8 285 295.6 302.4 311.4 318.9 322.6 328.6 332.5 338 342.5 346.9 349.2 349.5 352.3 354.9 358 364.8 370.3 371.8 372.4 373.9 376.4 379.9 383.8 393.6 401.9 410.3 421.2 432.9 438.3 443.1 447.7 453.4 458.5 464.4 470 473.8 480.4 486.1 488.1 495 497 499.4 505.6 510.6 514.9 518.2 520.1 521 517.3 511.4 501
309.6 325.7 339.3 353.1 369.1 390 406 418.1 425.5 431.8 438.8 448.7 456.4 462.7 468.9 475.5 481 486.2 493.7 499.4 505.7 512.2 519.2 526.8 534.7 540.6 543.9 543.8 541.8 540.2 537.4 534.5 531.3 533.1 540 544.8 550.6 560.5 573.9 584.2 591 598.2 603.7 608 612.4 615.9 618.1 620.6 621.9 621.3 614.3 603.9 592.3 578.8 566.1 556.5 548.4 541.4 534.9 530 524.7 520.3 517.7 515 513.2 514.1 511.9 507.5 501.1 495.7 491.3 483.1 474 465.8 459.8 453.3 445.8 437.8 429.3 419.2 411.7 402.9 395.3 386.5 381.6 374.1 369.5 363.6 358.5 348.7 342.1 335.6 331 325.3 322.3 317.7 313.3 312.4 308.9 304.4 303.7 301.8 296.3 292.3 291.4 289.4 284 278.2 275.8 272 266.9 262.9 257.7 254.5 252 249 246.6 248.2 250.6 254.4 257.4 264.2 271.6 279.1 285.8 294.2 300.3 308.3 317.3 323.4 327.1 332.4 328.9 328.7 327.2 320.3 313.8 301.7 291.3 284.9 271.1 265.8 263.6 258.3 238.8 248.1 257.8 269.4 281.6 292.5 299.8 306.7 312.6 319 322.8 328.3 334.1 338.2 340.9 342.1 343.6 346.8 351.9 360.6 363.7 366.9 369.3 371.2 374.8 379.9 382.4 391 399.8 409.4 420.2 431.4 439.3 444.4 448.7 452.5 458.4 465.3 471.6 476.7 480.5 486.8 489.2 496.7 501 504.8 509.5 513.6 519.1 524.2 528.8 531.6 532.3 529.9 527.4 517
330.2 349.4 363.3 375.5 393.7 409.3 419.6 429.6 437.7 442.1 447.5 458 464.7 470.1 479.5 486.4 492.1 496.6 502.7 510.2 515.8 521.9 529.1 538.3 543.5 547.2 550.9 550.9 548.6 547.6 546.5 543.9 546.2 550.4 555.1 563.6 572.6 586.1 596.1 603.4 607.7 611.8 615.6 619.1 621.7 622.9 624.6 622.6 618 612.7 603.5 590.3 575.6 561.4 548.6 538.5 530.6 524.2 519.7 514.9 509.9 506.2 504.6 499.1 496 493.4 492.9 488.2 484.1 478.9 472.1 463.1 455.2 448.3 440.6 433.3 426.2 416.2 408.5 401.2 391.4 382.5 376.1 368.2 362.3 356.1 351 347.2 339 330.8 327.3 324 321.7 316.9 312.4 311.7 306.6 302.3 300.7 295.7 294.9 293.1 287.7 285.1 284.2 280.7 273.4 268.2 264.5 263.3 260.7 257.4 257.6 251.5 249 250.6 254.6 255.1 259 266.8 274.7 284.4 292.4 300 306.9 316.7 321.3 326.8 335.2 340.9 339.3 338 333.9 332.7 327.3 322 309.4 299.9 292.2 281.7 273.5 267.3 259.6 253.6 239.4 250.7 262 265.9 276 288.8 296.6 302 309.4 314.9 320.1 325.1 329.5 334.2 336.9 338.8 341.4 344.6 350 356.7 361.7 364.8 367.1 370.6 376.2 381.9 388.4 398.5 408.7 419.1 430.7 439.8 446.5 451.9 455.6 461.6 467.6 473.2 477.5 482.8 486.7 491 496.1 502.5 508.1 512.8 516.3 522.7 527.5 532.3 538 540.8 540.7 538.8 533.2 523.6
361.5 372.4 385.9 398.3 411.6 423.8 432.2 441.1 447.2 453.1 454.6 462.2 470.9 480.2 488.6 494.7 500.1 506.9 512.8 518.5 524.7 531.6 540 549.8 555.7 559.3 566 557.8 555.9 558.4 559.6 562.7 565.5 572.2 580.3 584.6 596 609.4 614.2 617.7 619.9 621.9 625.2 627.9 628.9 628.8 627.1 621.6 614.4 605.6 594.5 580.8 562.9 544.1 530.7 520.1 512.9 508.7 504.3 501.9 495.7 492 486.3 481.3 475.9 474.3 472.3 468.5 462.9 457.4 449.4 443.4 435.7 426.9 419.7 413.4 405.7 394.6 386.1 378.1 369.8 362.4 355.8 348.2 344.3 339.8 337.5 333.9 325.2 321.5 319.1 315.3 311.7 308.4 304.1 299.6 297 293 292 289.5 286.7 285.3 277.2 277 275.6 268 263.9 262.1 259.3 257.2 255.4 254.3 253.4 254.4 259.8 262.3 263.9 269.5 275.2 283.8 294.7 306 315 322.4 328 337 344.1 343.1 353.9 356.5 353.9 349.7 344.6 338.5 331.5 322.4 305.9 295.5 285.7 276.1 270.1 265.1 260.7 247.2 240.8 246.3 250.5 263 275.5 286 291.6 298.5 305.8 312.9 316.5 321.2 326.9 331.7 336.4 339.5 343.5 345.5 350.1 356 359 363.4 368 373.1 379 387.7 398 408 418.6 429.7 439.9 446.8 453.6 459.2 464.2 469.8 474.8 479.5 483.7 487.9 492.5 497.1 502.2 508 515.5 520.8 525.7 531.8 537.9 542.8 546 547 543 536.3 526.5 513.8
373.5 387.1 399.4 409.7 423 434.7 440.9 447.6 454.4 458.6 464.7 470.3 479.3 490 498.4 506.1 512.3 517.3 521.6 529.4 534.4 538.7 548.2 559.2 563.3 565.9 566.6 567.5 571.4 578.8 584.1 591 590.9 597.7 604.1 609.3 615.3 620.9 625.6 629.6 631.8 633.4 634.4 634.9 633.6 630.9 626.5 619.5 610.7 600.1 582.2 559.2 537.9 524 513.9 503.9 498.1 493.7 489.9 484 478.9 473.8 468.4 463 459.2 455.8 451.9 447.4 441.1 435.5 429.3 421.7 414.4 406.5 399.6 392.6 383.8 375.6 364.1 359.5 352.6 345.8 340.2 336.4 333.5 328.4 326.9 322.8 315.4 311.8 306 304 299.3 298.8 294.5 291.3 288.8 285.1 280.9 278.1 275.5 270.8 268.2 269.4 266 262.8 260.7 258.9 257.9 257.4 259.8 262.8 265.3 265.8 268.5 273.4 278.6 287.1 297.3 301.8 311.3 322.3 334.8 346.1 350.8 355.6 363 364 366.2 367 362.1 360.2 358.3 350 337.3 319.8 303 293 280 272 264.7 261.8 257.3 239.9 244.7 252.4 261 268.9 273.4 279.5 287.6 298.2 304.7 310.9 315.8 322.1 327.6 331.6 336.8 339.9 343.2 345.6 349.5 355.3 359.6 364.4 371.8 378.2 386.7 397.6 407.3 417.2 427.9 438.8 446.4 454.3 460.2 465.4 470.9 476.4 480.7 485.6 489.7 494.2 498.5 503 508.5 514.6 522 528.5 535.1 541.4 546.5 551.1 553.2 550.7 542.9 534.8 524.6 514.7
375.7 394.5 406.9 415.4 431.4 443.7 451 455.8 460 467.2 475.6 483.2 489.3 498 508.3 516.5 521.6 528 533.6 540 543.9 549.9 552.5 560.1 567.1 570.3 573 579.5 589.6 602.7 613.7 617.2 625.5 626 625.9 627.2 630.5 634.7 637.8 639.1 640.8 640.9 640.3 638.5 635.1 631.2 623.9 615 604.2 581.8 558.7 538.8 521.9 508.1 497.4 490.8 485 479.4 472.5 468 462.5 455.7 451.3 446.1 442.3 437.3 432.7 428.3 423.3 417 412.2 404.7 397 389.2 380.8 372 361.8 354.3 346.3 342.5 339.1 330.9 327.3 324.7 322.6 318.8 317.5 308.6 307 307.7 297.7 296.6 293.6 291.6 285 282.8 277.4 273.4 271.3 269.8 268.5 268 264.6 264.3 263.1 261 259.6 263 264 267.3 273.2 277.1 278 278.4 284.5 292.7 298.7 307.8 317.1 322.7 331.4 342.3 357 365.6 369.5 372.6 376 378.6 380.9 378.5 372.7 374.6 372.3 361.7 341.5 315.7 299.1 287.5 274.4 266.9 263.7 258.9 245.3 244.3 250.3 258.6 264.9 270.3 277.4 285.9 294.1 301 307 312.6 317.9 322.9 328.2 332.5 336.5 339.8 342.9 346.3 350.1 355.7 361.2 368.5 376.9 385 395.3 406.4 417.8 427 437.6 446.3 454.6 461.2 466.5 472 477.5 482.6 486.2 491.4 495.2 499.6 504.6 509 513.3 520.4 528.4 535.3 540.9 546.7 552.5 556.3 557.8 554.9 545.3 537.2 528.3 520.9
